passes_logs/2026/01/02/R3.0SM8_Murmansk_STILSPACE/R3.0SM8_Murmansk_STILSPACE__20260102_162335_FENGYUN_3E_rec.log

#Pass ID: 20260102_162335_FENGYUN 3E
#Satellite: FENGYUN 3E
#Configuration: FENGYUN 3E
#almurnet v.1.7.20240730
#Start time: 2026-01-02 16:23:36

#Version: 2.2.20231116
#Station: R3.0SM8_Murmansk_STILSPACE
#Location: 33.092731 lon 68.902999 lat
#TLE: 1 49008U 21062A   26001.26445318  .00000475  00000+0  24453-3 0  9990
#TLE: 2 49008  98.7480   6.5551 0001357 167.8415 192.2795 14.19884467232890

#Time	Az	El	Level	Level2	SNR	BER	BlckErr	Temp	State	Recorded	gain1	gain2
2026-01-02 16:23:36.93	219.01	3.08	-52.7	-62.9	3.8	8.46e-01	0	46	0	0	67	12065
2026-01-02 16:23:37.91	219.09	3.14	-52.7	-62.9	3.8	8.46e-01	0	46	104	0	68	11377
2026-01-02 16:23:38.90	219.17	3.19	-52.5	-62.8	3.8	8.45e-01	0	47	104	0	67	11848
2026-01-02 16:23:39.89	219.25	3.25	-52.3	-62.7	3.8	8.46e-01	0	47	104	0	67	11718
2026-01-02 16:23:40.88	219.33	3.30	-52.3	-62.4	3.8	8.46e-01	0	47	104	0	67	11400
2026-01-02 16:23:41.87	219.41	3.36	-51.9	-62.2	3.8	8.45e-01	0	47	104	0	66	11807
2026-01-02 16:23:42.86	219.49	3.41	-51.7	-61.9	3.8	8.45e-01	0	47	104	0	66	11368
2026-01-02 16:23:43.85	219.58	3.46	-51.2	-61.4	3.8	8.46e-01	0	47	104	0	65	11416
2026-01-02 16:23:44.84	219.66	3.52	-51.1	-61.4	3.8	8.46e-01	0	47	104	0	65	11347
2026-01-02 16:23:45.84	219.74	3.57	-51.2	-61.4	3.8	8.46e-01	0	47	104	0	65	11359
2026-01-02 16:23:46.83	219.83	3.63	-51.2	-61.4	3.8	8.47e-01	0	47	104	0	65	11383
2026-01-02 16:23:47.81	219.91	3.68	-51.2	-61.4	3.8	8.46e-01	0	47	104	0	65	11341
2026-01-02 16:23:48.80	219.99	3.74	-51.1	-61.3	3.8	8.46e-01	0	47	104	0	65	11265
2026-01-02 16:23:49.78	220.07	3.79	-51.2	-61.3	3.8	8.45e-01	0	47	104	0	65	11199
2026-01-02 16:23:50.77	220.16	3.85	-51.1	-61.3	3.8	8.47e-01	0	47	104	0	64	11858
2026-01-02 16:23:51.76	220.24	3.90	-51.1	-61.2	3.8	8.47e-01	0	48	104	0	64	11767
2026-01-02 16:23:52.75	220.33	3.96	-51.2	-61.2	3.8	8.46e-01	0	47	104	0	64	11804
2026-01-02 16:23:53.74	220.41	4.01	-51.2	-61.2	3.8	8.46e-01	0	48	104	0	64	11808
2026-01-02 16:23:54.73	220.50	4.07	-51.1	-61.2	3.8	8.46e-01	0	48	104	0	64	11744
2026-01-02 16:23:55.71	220.58	4.12	-51.1	-61.0	3.8	8.47e-01	0	48	104	0	64	11542
2026-01-02 16:23:56.71	220.67	4.18	-51.0	-60.7	3.8	8.46e-01	0	48	104	0	64	11037
2026-01-02 16:23:57.70	220.76	4.24	-51.1	-60.2	3.8	8.45e-01	0	48	104	0	64	10471
2026-01-02 16:23:58.68	220.84	4.29	-51.0	-59.5	3.8	8.46e-01	0	48	104	0	64	9689
2026-01-02 16:23:59.67	220.93	4.35	-50.8	-58.8	3.8	8.44e-01	0	48	104	0	64	8945
2026-01-02 16:24:00.66	221.02	4.40	-50.6	-57.8	4.2	8.38e-01	0	48	104	0	64	7913
2026-01-02 16:24:01.65	221.10	4.46	-50.6	-57.5	4.3	8.33e-01	0	48	0	0	63	8175
2026-01-02 16:24:02.64	221.19	4.51	-50.4	-56.7	4.6	8.15e-01	0	48	0	0	63	7393
2026-01-02 16:24:03.64	221.28	4.57	-50.3	-56.3	4.8	7.94e-01	0	48	0	0	63	7076
2026-01-02 16:24:04.63	221.37	4.63	-50.3	-56.1	4.9	7.86e-01	0	48	0	0	63	6946
2026-01-02 16:24:05.61	221.46	4.68	-50.4	-56.5	4.7	8.05e-01	0	49	0	0	63	7262
2026-01-02 16:24:06.60	221.55	4.74	-50.5	-56.7	4.6	8.13e-01	0	49	0	0	63	7438
2026-01-02 16:24:07.59	221.64	4.80	-50.6	-57.0	4.5	8.21e-01	0	49	0	0	63	7703
2026-01-02 16:24:08.58	221.73	4.85	-50.5	-56.9	4.5	8.20e-01	0	49	0	0	63	7568
2026-01-02 16:24:09.57	221.82	4.91	-50.3	-56.0	5.0	7.86e-01	0	49	0	0	63	6806
2026-01-02 16:24:10.56	221.91	4.96	-50.0	-55.3	5.4	7.39e-01	0	49	0	0	63	6289
2026-01-02 16:24:11.55	222.00	5.02	-49.6	-54.0	6.3	2.94e-01	0	49	0	4194304	62	5736
2026-01-02 16:24:12.55	222.09	5.08	-49.2	-53.0	7.2	1.49e-01	0	49	0	11534336	61	5430
2026-01-02 16:24:13.54	222.18	5.13	-49.4	-53.7	6.6	1.98e-01	0	49	0	18874368	61	5880
2026-01-02 16:24:14.53	222.27	5.19	-49.4	-53.4	6.9	2.06e-01	0	49	0	26214400	61	5678
2026-01-02 16:24:15.52	222.36	5.25	-49.1	-52.8	7.4	1.23e-01	0	49	0	33554432	61	5287
2026-01-02 16:24:16.51	222.46	5.30	-48.8	-52.0	8.2	7.14e-02	0	49	0	40894464	60	5158
2026-01-02 16:24:17.50	222.55	5.36	-48.4	-51.3	9.0	3.46e-02	0	49	0	47185920	59	4987
2026-01-02 16:24:18.50	222.64	5.42	-48.3	-50.9	9.4	1.92e-02	0	50	0	54525952	59	4779
2026-01-02 16:24:19.49	222.74	5.48	-47.9	-50.3	10.0	9.10e-03	0	50	0	61865984	58	4728
2026-01-02 16:24:20.48	222.83	5.53	-47.7	-50.0	10.3	5.35e-03	0	50	0	69206016	58	4595
2026-01-02 16:24:21.47	222.93	5.59	-47.7	-50.1	10.3	5.03e-03	0	49	0	76546048	58	4618
2026-01-02 16:24:22.46	223.02	5.65	-47.8	-50.1	10.2	6.86e-03	0	50	0	82837504	58	4643
2026-01-02 16:24:23.45	223.12	5.70	-47.9	-50.2	10.1	7.92e-03	0	50	0	90177536	58	4695
2026-01-02 16:24:24.44	223.21	5.76	-47.8	-50.1	10.3	5.71e-03	0	50	0	97517568	58	4606
2026-01-02 16:24:25.43	223.31	5.82	-47.7	-50.0	10.4	4.82e-03	0	50	0	104857600	58	4557
2026-01-02 16:24:26.42	223.40	5.88	-47.6	-49.8	10.6	3.90e-03	0	50	0	112197632	58	4464
2026-01-02 16:24:27.41	223.50	5.93	-47.6	-49.9	10.4	4.34e-03	0	50	0	119537664	58	4528
2026-01-02 16:24:28.40	223.60	5.99	-47.8	-50.1	10.2	5.91e-03	0	50	0	125829120	58	4642
2026-01-02 16:24:29.40	223.69	6.05	-47.8	-50.1	10.2	8.06e-03	0	50	0	133169152	58	4623
2026-01-02 16:24:30.38	223.79	6.11	-47.6	-49.8	10.5	3.84e-03	0	50	0	140509184	58	4485
2026-01-02 16:24:31.37	223.89	6.16	-47.6	-49.9	10.5	4.14e-03	0	50	0	147849216	58	4513
2026-01-02 16:24:32.35	223.99	6.22	-47.5	-49.7	10.7	3.58e-03	0	50	0	155189248	57	4664
2026-01-02 16:24:33.35	224.09	6.28	-47.4	-49.6	10.8	3.04e-03	0	50	0	162529280	57	4628
2026-01-02 16:24:34.34	224.18	6.34	-47.6	-49.9	10.5	4.85e-03	0	50	0	168820736	57	4762
2026-01-02 16:24:35.33	224.28	6.39	-47.4	-49.5	10.9	2.46e-03	0	50	0	176160768	57	4555
2026-01-02 16:24:36.32	224.38	6.45	-47.3	-49.3	11.1	2.04e-03	0	50	0	183500800	57	4480
2026-01-02 16:24:37.30	224.48	6.51	-47.4	-49.5	10.9	2.49e-03	0	50	0	190840832	57	4592
2026-01-02 16:24:38.28	224.58	6.57	-47.5	-49.7	10.8	2.64e-03	0	51	0	198180864	57	4658
2026-01-02 16:24:39.27	224.68	6.63	-47.4	-49.6	10.8	2.85e-03	0	51	0	204472320	57	4608
2026-01-02 16:24:40.26	224.78	6.68	-47.3	-49.4	11.0	2.05e-03	0	51	0	211812352	57	4519
2026-01-02 16:24:41.25	224.89	6.74	-47.4	-49.5	10.9	2.11e-03	0	51	0	219152384	57	4555
2026-01-02 16:24:42.24	224.99	6.80	-47.5	-49.6	10.9	2.44e-03	0	51	0	226492416	57	4614
2026-01-02 16:24:43.23	225.09	6.86	-47.5	-49.7	10.7	2.95e-03	0	51	0	233832448	57	4683
2026-01-02 16:24:44.22	225.19	6.92	-47.4	-49.4	11.0	2.07e-03	0	51	0	240123904	57	4525
2026-01-02 16:24:45.21	225.30	6.98	-47.2	-49.2	11.2	1.73e-03	0	51	0	247463936	57	4432
2026-01-02 16:24:46.21	225.40	7.04	-47.2	-49.3	11.1	1.46e-03	0	51	0	254803968	57	4461
2026-01-02 16:24:47.20	225.50	7.09	-47.4	-49.4	11.1	1.96e-03	0	51	0	262144000	57	4503
2026-01-02 16:24:48.18	225.61	7.15	-47.2	-49.2	11.2	1.29e-03	0	51	0	269484032	57	4422
2026-01-02 16:24:49.16	225.71	7.21	-47.1	-49.0	11.4	1.09e-03	0	51	0	275775488	57	4333
2026-01-02 16:24:50.15	225.82	7.27	-47.1	-49.0	11.5	9.67e-04	0	51	0	283115520	57	4306
2026-01-02 16:24:51.14	225.92	7.33	-47.2	-49.2	11.3	1.26e-03	0	51	0	290455552	57	4398
2026-01-02 16:24:52.14	226.03	7.39	-47.0	-48.9	11.7	7.90e-04	0	51	0	297795584	56	4499
2026-01-02 16:24:53.12	226.14	7.45	-47.0	-48.9	11.5	8.63e-04	0	51	0	304087040	56	4533
2026-01-02 16:24:54.11	226.24	7.50	-47.1	-49.0	11.5	9.06e-04	0	51	0	311427072	56	4558
2026-01-02 16:24:55.10	226.35	7.56	-47.0	-49.0	11.5	9.51e-04	0	51	0	318767104	56	4552
2026-01-02 16:24:56.08	226.46	7.62	-47.1	-49.0	11.4	1.09e-03	0	51	0	326107136	56	4587
2026-01-02 16:24:57.07	226.56	7.68	-47.1	-49.0	11.4	1.18e-03	0	51	0	333447168	56	4573
2026-01-02 16:24:58.05	226.67	7.74	-47.0	-48.9	11.5	8.78e-04	0	51	0	340787200	56	4544
2026-01-02 16:24:59.05	226.78	7.80	-47.0	-48.9	11.6	8.04e-04	0	51	0	347078656	56	4505
2026-01-02 16:25:00.04	226.89	7.86	-47.0	-48.9	11.6	7.40e-04	0	52	0	354418688	56	4509
2026-01-02 16:25:01.03	227.00	7.92	-47.2	-49.2	11.3	1.30e-03	0	52	0	361758720	56	4681
2026-01-02 16:25:02.03	227.11	7.98	-47.1	-49.1	11.4	1.31e-03	0	51	0	369098752	56	4631
2026-01-02 16:25:03.02	227.22	8.04	-47.2	-49.1	11.4	9.93e-04	0	52	0	376438784	56	4639
2026-01-02 16:25:04.01	227.33	8.10	-47.3	-49.4	11.1	1.54e-03	0	52	0	383778816	56	4777
2026-01-02 16:25:05.00	227.45	8.16	-47.1	-49.0	11.5	1.10e-03	0	52	0	390070272	56	4576
2026-01-02 16:25:06.00	227.56	8.22	-47.2	-49.1	11.4	1.07e-03	0	52	0	397410304	56	4630
2026-01-02 16:25:06.99	227.67	8.28	-47.0	-48.9	11.7	6.56e-04	0	52	0	404750336	56	4498
2026-01-02 16:25:07.98	227.78	8.34	-47.0	-49.0	11.5	7.36e-04	0	52	0	412090368	56	4568
2026-01-02 16:25:08.97	227.90	8.40	-47.0	-48.9	11.7	7.20e-04	0	52	0	419430400	56	4527
2026-01-02 16:25:09.96	228.01	8.46	-47.0	-48.8	11.8	5.88e-04	0	52	0	425721856	56	4460
2026-01-02 16:25:10.95	228.13	8.52	-47.0	-48.9	11.7	5.96e-04	0	52	0	433061888	56	4515
2026-01-02 16:25:11.95	228.24	8.58	-46.9	-48.6	12.0	4.13e-04	0	52	0	440401920	56	4383
2026-01-02 16:25:12.93	228.36	8.64	-46.8	-48.6	12.0	2.86e-04	0	52	0	447741952	56	4346
2026-01-02 16:25:13.92	228.47	8.70	-46.8	-48.5	12.1	2.45e-04	0	52	0	455081984	56	4334
2026-01-02 16:25:14.91	228.59	8.76	-46.6	-48.3	12.3	2.13e-04	0	52	0	462422016	56	4240
2026-01-02 16:25:15.89	228.70	8.81	-46.7	-48.4	12.3	1.62e-04	0	52	0	468713472	56	4256
2026-01-02 16:25:16.87	228.82	8.87	-46.7	-48.4	12.3	2.28e-04	0	52	0	476053504	56	4254
2026-01-02 16:25:17.87	228.94	8.94	-46.6	-48.3	12.4	1.76e-04	0	52	0	483393536	56	4206
2026-01-02 16:25:18.85	229.05	8.99	-46.6	-48.3	12.3	1.53e-04	0	52	0	490733568	56	4236
2026-01-02 16:25:19.84	229.17	9.05	-46.4	-48.0	12.6	1.60e-04	0	52	0	498073600	55	4296
2026-01-02 16:25:20.83	229.29	9.12	-46.0	-47.5	13.0	4.46e-05	0	52	0	505413632	55	4087
2026-01-02 16:25:21.82	229.41	9.18	-45.9	-47.4	13.2	3.43e-05	0	52	0	511705088	54	4254
2026-01-02 16:25:22.80	229.53	9.24	-46.0	-47.5	13.1	4.34e-05	0	53	0	519045120	54	4298
2026-01-02 16:25:23.78	229.65	9.30	-46.0	-47.5	13.1	3.54e-05	0	52	0	526385152	54	4312
2026-01-02 16:25:24.77	229.77	9.36	-46.1	-47.6	13.0	3.31e-05	0	52	0	532676608	54	4365
2026-01-02 16:25:25.76	229.89	9.42	-46.2	-47.8	12.8	4.80e-05	0	52	0	540016640	54	4474
2026-01-02 16:25:26.75	230.01	9.48	-46.0	-47.5	13.1	3.77e-05	0	53	0	547356672	54	4320
2026-01-02 16:25:27.74	230.13	9.54	-45.9	-47.3	13.3	1.94e-05	0	53	0	554696704	54	4239
2026-01-02 16:25:28.73	230.26	9.60	-45.9	-47.4	13.3	2.05e-05	0	52	0	562036736	54	4256
2026-01-02 16:25:29.71	230.38	9.66	-46.2	-47.7	13.0	3.20e-05	0	53	0	568328192	54	4412
2026-01-02 16:25:30.69	230.50	9.72	-46.0	-47.5	13.2	3.43e-05	0	53	0	575668224	54	4317
2026-01-02 16:25:31.69	230.62	9.78	-45.9	-47.4	13.4	1.60e-05	0	53	0	583008256	54	4245
2026-01-02 16:25:32.68	230.75	9.84	-46.0	-47.4	13.3	2.74e-05	0	53	0	590348288	54	4284
2026-01-02 16:25:33.67	230.87	9.90	-45.9	-47.4	13.4	1.48e-05	0	53	0	597688320	54	4257
2026-01-02 16:25:34.66	231.00	9.96	-46.1	-47.6	13.2	2.40e-05	0	53	0	605028352	54	4342
2026-01-02 16:25:35.65	231.13	10.02	-46.3	-47.8	13.0	2.63e-05	0	53	0	611319808	54	4481
2026-01-02 16:25:36.64	231.25	10.08	-46.2	-47.7	13.1	3.43e-05	0	53	0	618659840	54	4437
2026-01-02 16:25:37.62	231.38	10.14	-46.1	-47.5	13.3	1.60e-05	0	53	0	625999872	54	4317
2026-01-02 16:25:38.62	231.51	10.20	-46.0	-47.4	13.5	1.14e-05	0	53	0	633339904	54	4249
2026-01-02 16:25:39.61	231.64	10.27	-45.9	-47.2	13.6	1.37e-05	0	53	0	640679936	54	4186
2026-01-02 16:25:40.60	231.76	10.33	-45.8	-47.2	13.7	5.70e-06	0	53	0	646971392	54	4158
2026-01-02 16:25:41.59	231.89	10.39	-45.9	-47.3	13.6	6.80e-06	0	53	0	654311424	54	4234
2026-01-02 16:25:42.58	232.02	10.45	-45.9	-47.2	13.7	1.14e-05	0	53	0	661651456	54	4179
2026-01-02 16:25:43.56	232.15	10.51	-45.9	-47.2	13.8	2.20e-06	0	53	0	668991488	54	4157
2026-01-02 16:25:44.55	232.28	10.57	-46.0	-47.4	13.6	3.40e-06	0	53	0	676331520	54	4250
2026-01-02 16:25:45.55	232.42	10.63	-45.9	-47.2	13.8	9.10e-06	0	53	0	683671552	54	4162
2026-01-02 16:25:46.53	232.55	10.69	-45.4	-46.6	14.3	3.40e-06	0	53	0	689963008	53	4141
2026-01-02 16:25:47.52	232.68	10.75	-45.0	-46.2	14.8	0.00e+00	0	53	0	697303040	53	3914
2026-01-02 16:25:48.51	232.81	10.81	-44.7	-45.8	15.2	0.00e+00	0	53	0	704643072	52	3979
2026-01-02 16:25:49.50	232.94	10.88	-44.6	-45.6	15.4	0.00e+00	0	53	0	711983104	52	3885
2026-01-02 16:25:50.49	233.08	10.94	-44.5	-45.5	15.6	0.00e+00	0	54	0	719323136	51	4073
2026-01-02 16:25:51.48	233.21	11.00	-44.5	-45.5	15.5	1.10e-06	0	53	0	726663168	51	4083
2026-01-02 16:25:52.47	233.35	11.06	-44.6	-45.6	15.5	0.00e+00	0	54	0	732954624	51	4105
2026-01-02 16:25:53.46	233.48	11.12	-44.5	-45.5	15.7	0.00e+00	0	53	0	740294656	51	4056
2026-01-02 16:25:54.46	233.62	11.18	-44.2	-45.2	16.0	0.00e+00	0	54	0	747634688	51	3915
2026-01-02 16:25:55.44	233.76	11.24	-44.1	-45.0	16.1	0.00e+00	0	53	0	754974720	51	3866
2026-01-02 16:25:56.43	233.89	11.30	-44.2	-45.1	16.1	0.00e+00	0	53	0	762314752	51	3882
2026-01-02 16:25:57.42	234.03	11.36	-44.2	-45.1	16.1	0.00e+00	0	53	0	768606208	51	3895
2026-01-02 16:25:58.41	234.17	11.43	-44.1	-45.1	16.2	0.00e+00	0	54	0	775946240	51	3873
2026-01-02 16:25:59.40	234.31	11.49	-44.3	-45.2	16.1	0.00e+00	0	54	0	783286272	51	3935
2026-01-02 16:26:00.39	234.45	11.55	-44.4	-45.3	16.0	0.00e+00	0	54	0	790626304	51	4001
2026-01-02 16:26:01.38	234.59	11.61	-44.4	-45.4	15.9	0.00e+00	0	54	0	797966336	51	4014
2026-01-02 16:26:02.37	234.73	11.67	-44.1	-45.0	16.3	0.00e+00	0	54	0	804257792	51	3838
2026-01-02 16:26:03.36	234.87	11.73	-43.9	-44.7	16.6	0.00e+00	0	54	0	811597824	50	3939
2026-01-02 16:26:04.34	235.01	11.79	-43.7	-44.6	16.8	0.00e+00	0	54	0	818937856	50	3875
2026-01-02 16:26:05.33	235.15	11.85	-43.7	-44.5	16.8	0.00e+00	0	54	0	826277888	50	3851
2026-01-02 16:26:06.33	235.30	11.92	-43.5	-44.3	17.0	0.00e+00	0	54	0	832569344	50	3756
2026-01-02 16:26:07.31	235.44	11.98	-43.6	-44.4	16.9	0.00e+00	0	54	0	839909376	50	3791
2026-01-02 16:26:08.30	235.58	12.04	-43.6	-44.4	16.9	0.00e+00	0	54	0	847249408	50	3813
2026-01-02 16:26:09.29	235.73	12.10	-43.6	-44.4	16.9	0.00e+00	0	54	0	854589440	50	3791
2026-01-02 16:26:10.28	235.87	12.16	-43.6	-44.4	17.0	0.00e+00	0	54	0	861929472	50	3814
2026-01-02 16:26:11.28	236.02	12.22	-43.7	-44.5	16.9	0.00e+00	0	54	0	868220928	50	3852
2026-01-02 16:26:12.26	236.16	12.28	-43.8	-44.6	16.8	0.00e+00	0	54	0	875560960	50	3913
2026-01-02 16:26:13.25	236.31	12.34	-44.1	-45.0	16.5	0.00e+00	0	54	0	882900992	50	4059
2026-01-02 16:26:14.24	236.46	12.40	-44.2	-45.1	16.4	0.00e+00	0	54	0	890241024	50	4107
2026-01-02 16:26:15.22	236.60	12.47	-43.9	-44.8	16.6	0.00e+00	0	54	0	897581056	50	3991
2026-01-02 16:26:16.21	236.75	12.53	-43.9	-44.7	16.7	0.00e+00	0	54	0	904921088	50	3949
2026-01-02 16:26:17.19	236.90	12.59	-43.8	-44.7	16.8	0.00e+00	0	54	0	911212544	50	3916
2026-01-02 16:26:18.18	237.05	12.65	-44.0	-44.8	16.7	0.00e+00	0	54	0	918552576	50	3994
2026-01-02 16:26:19.17	237.20	12.71	-44.1	-44.9	16.6	0.00e+00	0	54	0	925892608	50	4038
2026-01-02 16:26:20.16	237.35	12.77	-43.9	-44.7	16.8	0.00e+00	0	54	0	933232640	50	3948
2026-01-02 16:26:21.16	237.51	12.83	-43.9	-44.7	16.8	0.00e+00	0	54	0	940572672	50	3936
2026-01-02 16:26:22.15	237.66	12.89	-43.8	-44.6	16.9	0.00e+00	0	54	0	947912704	50	3903
2026-01-02 16:26:23.14	237.81	12.95	-43.8	-44.6	17.0	0.00e+00	0	54	0	954204160	50	3899
2026-01-02 16:26:24.13	237.96	13.01	-43.9	-44.7	16.9	0.00e+00	0	54	0	961544192	50	3945
2026-01-02 16:26:25.12	238.12	13.08	-43.7	-44.5	17.0	0.00e+00	0	54	0	968884224	50	3851
2026-01-02 16:26:26.11	238.27	13.14	-43.9	-44.8	16.8	0.00e+00	0	54	0	976224256	50	3961
2026-01-02 16:26:27.09	238.43	13.20	-43.6	-44.3	17.3	0.00e+00	0	54	0	983564288	50	3765
2026-01-02 16:26:28.09	238.58	13.26	-43.2	-44.0	17.6	0.00e+00	0	55	0	989855744	49	3840
2026-01-02 16:26:29.08	238.74	13.32	-43.1	-43.8	17.8	0.00e+00	0	54	0	997195776	49	3768
2026-01-02 16:26:30.06	238.90	13.38	-43.0	-43.7	17.9	0.00e+00	0	54	0	1004535808	49	3724
2026-01-02 16:26:31.05	239.05	13.44	-42.9	-43.6	18.0	0.00e+00	0	54	0	1011875840	48	3903
2026-01-02 16:26:32.03	239.21	13.50	-42.8	-43.5	18.1	0.00e+00	0	55	0	1019215872	48	3844
2026-01-02 16:26:33.03	239.37	13.56	-42.9	-43.6	18.0	0.00e+00	0	54	0	1026555904	48	3887
2026-01-02 16:26:34.01	239.53	13.62	-43.0	-43.7	17.9	0.00e+00	0	54	0	1032847360	48	3952
2026-01-02 16:26:35.00	239.69	13.68	-43.2	-44.0	17.7	0.00e+00	0	55	0	1040187392	48	4062
2026-01-02 16:26:35.99	239.85	13.74	-43.0	-43.7	17.9	0.00e+00	0	54	0	1047527424	48	3940
2026-01-02 16:26:36.98	240.01	13.80	-42.8	-43.5	18.1	0.00e+00	0	55	0	1054867456	48	3849
2026-01-02 16:26:37.96	240.17	13.86	-42.7	-43.4	18.2	0.00e+00	0	55	0	1061158912	48	3800
2026-01-02 16:26:38.95	240.34	13.92	-42.7	-43.4	18.3	0.00e+00	0	55	0	1068498944	48	3788
2026-01-02 16:26:39.95	240.50	13.98	-42.8	-43.5	18.2	0.00e+00	0	55	0	1075838976	48	3843
2026-01-02 16:26:40.94	240.66	14.04	-42.7	-43.4	18.3	0.00e+00	0	55	0	1083179008	48	3790
2026-01-02 16:26:41.93	240.83	14.10	-42.8	-43.5	18.2	0.00e+00	0	55	0	1090519040	48	3828
2026-01-02 16:26:42.92	241.00	14.16	-43.0	-43.7	18.0	0.00e+00	0	55	0	1096810496	48	3923
2026-01-02 16:26:43.91	241.16	14.22	-43.2	-44.0	17.7	0.00e+00	0	55	0	1104150528	48	4067
2026-01-02 16:26:44.89	241.33	14.28	-43.0	-43.7	18.0	0.00e+00	0	55	0	1111490560	48	3915
2026-01-02 16:26:45.89	241.50	14.34	-42.7	-43.3	18.4	0.00e+00	0	55	0	1118830592	48	3760
2026-01-02 16:26:46.88	241.66	14.40	-42.3	-42.9	18.6	0.00e+00	0	55	0	1126170624	47	3812
2026-01-02 16:26:47.87	241.83	14.46	-42.2	-42.8	18.7	0.00e+00	0	55	0	1132462080	47	3766
2026-01-02 16:26:48.86	242.00	14.52	-42.2	-42.9	18.6	0.00e+00	0	55	0	1139802112	47	3794
2026-01-02 16:26:49.84	242.17	14.58	-42.2	-42.8	18.7	0.00e+00	0	55	0	1147142144	47	3773
2026-01-02 16:26:50.84	242.34	14.64	-42.2	-42.8	18.7	0.00e+00	0	55	0	1154482176	47	3766
2026-01-02 16:26:51.82	242.51	14.70	-42.3	-42.9	18.6	0.00e+00	0	55	0	1161822208	47	3820
2026-01-02 16:26:52.81	242.68	14.76	-42.1	-42.8	18.7	0.00e+00	0	55	0	1169162240	47	3747
2026-01-02 16:26:53.80	242.86	14.82	-42.1	-42.7	18.8	0.00e+00	0	55	0	1175453696	47	3711
2026-01-02 16:26:54.79	243.03	14.87	-42.1	-42.7	18.8	0.00e+00	0	55	0	1182793728	47	3715
2026-01-02 16:26:55.78	243.20	14.93	-42.2	-42.9	18.7	0.00e+00	0	55	0	1190133760	47	3785
2026-01-02 16:26:56.77	243.38	14.99	-42.3	-42.9	18.6	0.00e+00	0	55	0	1197473792	47	3812
2026-01-02 16:26:57.77	243.55	15.05	-42.3	-42.9	18.6	0.00e+00	0	55	0	1204813824	47	3801
2026-01-02 16:26:58.75	243.73	15.11	-42.2	-42.8	18.7	0.00e+00	0	55	0	1212153856	47	3749
2026-01-02 16:26:59.75	243.91	15.17	-42.2	-42.9	18.7	0.00e+00	0	55	0	1218445312	47	3782
2026-01-02 16:27:00.73	244.08	15.23	-42.1	-42.7	18.7	0.00e+00	0	55	0	1225785344	47	3737
2026-01-02 16:27:01.72	244.26	15.28	-42.3	-42.9	18.6	0.00e+00	0	55	0	1233125376	47	3804
2026-01-02 16:27:02.71	244.44	15.34	-42.2	-42.8	18.7	0.00e+00	0	55	0	1240465408	47	3773
2026-01-02 16:27:03.70	244.62	15.40	-42.2	-42.8	18.7	0.00e+00	0	55	0	1247805440	47	3760
2026-01-02 16:27:04.69	244.80	15.46	-42.2	-42.8	18.7	0.00e+00	0	55	0	1254096896	47	3771
2026-01-02 16:27:05.67	244.98	15.51	-42.2	-42.8	18.7	0.00e+00	0	55	0	1261436928	47	3780
2026-01-02 16:27:06.67	245.16	15.57	-42.2	-42.9	18.7	0.00e+00	0	55	0	1268776960	47	3783
2026-01-02 16:27:07.66	245.34	15.63	-42.1	-42.8	18.8	0.00e+00	0	55	0	1276116992	47	3741
2026-01-02 16:27:08.65	245.53	15.69	-42.2	-42.8	18.7	0.00e+00	0	55	0	1283457024	47	3768
2026-01-02 16:27:09.65	245.71	15.74	-42.4	-43.0	18.5	0.00e+00	0	55	0	1290797056	47	3849
2026-01-02 16:27:10.63	245.89	15.80	-42.3	-43.0	18.6	0.00e+00	0	55	0	1297088512	47	3826
2026-01-02 16:27:11.61	246.08	15.86	-42.1	-42.7	18.9	0.00e+00	0	55	0	1304428544	47	3701
2026-01-02 16:27:12.61	246.26	15.91	-42.0	-42.6	18.9	0.00e+00	0	55	0	1311768576	46	3883
2026-01-02 16:27:13.59	246.45	15.97	-42.1	-42.7	18.9	0.00e+00	0	55	0	1319108608	46	3928
2026-01-02 16:27:14.59	246.64	16.03	-42.1	-42.8	18.8	0.00e+00	0	55	0	1326448640	46	3969
2026-01-02 16:27:15.58	246.82	16.08	-42.2	-42.8	18.8	0.00e+00	0	55	0	1333788672	46	3981
2026-01-02 16:27:16.58	247.01	16.14	-42.2	-42.9	18.7	0.00e+00	0	55	0	1340080128	46	4014
2026-01-02 16:27:17.57	247.20	16.20	-42.2	-42.8	18.8	0.00e+00	0	55	0	1347420160	46	3978
2026-01-02 16:27:18.55	247.39	16.25	-42.1	-42.7	18.9	0.00e+00	0	56	0	1354760192	46	3924
2026-01-02 16:27:19.55	247.58	16.31	-42.0	-42.6	18.9	0.00e+00	0	55	0	1362100224	46	3889
2026-01-02 16:27:20.53	247.77	16.36	-42.1	-42.7	18.9	0.00e+00	0	55	0	1369440256	46	3921
2026-01-02 16:27:21.53	247.96	16.42	-42.1	-42.7	18.9	0.00e+00	0	56	0	1375731712	46	3921
2026-01-02 16:27:22.52	248.16	16.47	-42.1	-42.7	18.8	0.00e+00	0	55	0	1383071744	46	3958
2026-01-02 16:27:23.51	248.35	16.53	-42.2	-42.8	18.8	0.00e+00	0	55	0	1390411776	46	3976
2026-01-02 16:27:24.50	248.54	16.58	-41.9	-42.5	19.1	0.00e+00	0	55	0	1397751808	46	3843
2026-01-02 16:27:25.48	248.73	16.64	-41.8	-42.4	19.2	0.00e+00	0	55	0	1405091840	46	3783
2026-01-02 16:27:26.47	248.93	16.69	-41.8	-42.4	19.2	0.00e+00	0	55	0	1411383296	46	3792
2026-01-02 16:27:27.47	249.13	16.75	-41.7	-42.2	19.3	0.00e+00	0	56	0	1418723328	46	3729
2026-01-02 16:27:28.46	249.32	16.80	-41.6	-42.2	19.3	0.00e+00	0	56	0	1426063360	46	3727
2026-01-02 16:27:29.45	249.52	16.85	-41.6	-42.1	19.4	0.00e+00	0	55	0	1433403392	46	3692
2026-01-02 16:27:30.43	249.72	16.91	-41.5	-42.1	19.4	0.00e+00	0	55	0	1440743424	46	3676
2026-01-02 16:27:31.42	249.91	16.96	-41.6	-42.2	19.4	0.00e+00	0	56	0	1447034880	45	3918
2026-01-02 16:27:32.40	250.11	17.01	-41.6	-42.1	19.4	0.00e+00	0	56	0	1454374912	45	3910
2026-01-02 16:27:33.39	250.31	17.07	-41.6	-42.1	19.4	0.00e+00	0	55	0	1461714944	45	3902
2026-01-02 16:27:34.38	250.51	17.12	-41.7	-42.2	19.3	0.00e+00	0	56	0	1469054976	45	3957
2026-01-02 16:27:35.37	250.71	17.17	-41.8	-42.4	19.2	0.00e+00	0	56	0	1475346432	45	4011
2026-01-02 16:27:36.36	250.91	17.22	-41.8	-42.4	19.1	0.00e+00	0	56	0	1482686464	45	4046
2026-01-02 16:27:37.36	251.12	17.28	-41.8	-42.4	19.1	0.00e+00	0	56	0	1490026496	45	4040
2026-01-02 16:27:38.34	251.32	17.33	-41.9	-42.5	19.1	0.00e+00	0	56	0	1497366528	45	4067
2026-01-02 16:27:39.34	251.53	17.38	-41.9	-42.5	19.0	0.00e+00	0	56	0	1504706560	45	4081
2026-01-02 16:27:40.33	251.73	17.43	-42.0	-42.6	18.9	0.00e+00	0	56	0	1512046592	45	4145
2026-01-02 16:27:41.31	251.93	17.48	-41.7	-42.3	19.2	0.00e+00	0	56	0	1518338048	45	3994
2026-01-02 16:27:42.31	252.14	17.53	-42.0	-42.6	19.0	0.00e+00	0	56	0	1525678080	45	4109
2026-01-02 16:27:43.29	252.34	17.58	-42.0	-42.7	18.9	0.00e+00	0	56	0	1533018112	45	4146
2026-01-02 16:27:44.28	252.55	17.63	-41.9	-42.5	19.1	0.00e+00	0	56	0	1540358144	45	4069
2026-01-02 16:27:45.27	252.76	17.68	-41.9	-42.5	19.0	0.00e+00	0	56	0	1547698176	45	4098
2026-01-02 16:27:46.26	252.97	17.73	-42.1	-42.7	18.9	0.00e+00	0	56	0	1555038208	45	4159
2026-01-02 16:27:47.26	253.18	17.78	-41.9	-42.5	19.1	0.00e+00	0	56	0	1561329664	45	4065
2026-01-02 16:27:48.24	253.39	17.83	-41.7	-42.3	19.3	0.00e+00	0	56	0	1568669696	45	3970
2026-01-02 16:27:49.24	253.60	17.88	-41.6	-42.2	19.3	0.00e+00	0	56	0	1576009728	45	3948
2026-01-02 16:27:50.22	253.81	17.93	-41.7	-42.3	19.3	0.00e+00	0	56	0	1583349760	45	3962
2026-01-02 16:27:51.20	254.02	17.98	-41.7	-42.3	19.2	0.00e+00	0	56	0	1590689792	45	3992
2026-01-02 16:27:52.19	254.23	18.02	-42.0	-42.6	19.0	0.00e+00	0	56	0	1596981248	45	4109
2026-01-02 16:27:53.18	254.44	18.07	-41.6	-42.2	19.4	0.00e+00	0	56	0	1604321280	45	3930
2026-01-02 16:27:54.17	254.66	18.12	-41.6	-42.2	19.4	0.00e+00	0	56	0	1611661312	45	3931
2026-01-02 16:27:55.17	254.87	18.17	-41.8	-42.3	19.2	0.00e+00	0	56	0	1619001344	45	3995
2026-01-02 16:27:56.16	255.09	18.21	-41.9	-42.5	19.1	0.00e+00	0	56	0	1626341376	45	4055
2026-01-02 16:27:57.15	255.30	18.26	-41.7	-42.3	19.3	0.00e+00	0	56	0	1633681408	45	3981
2026-01-02 16:27:58.14	255.52	18.31	-41.6	-42.2	19.4	0.00e+00	0	56	0	1639972864	45	3931
2026-01-02 16:27:59.13	255.74	18.35	-41.7	-42.2	19.3	0.00e+00	0	56	0	1647312896	45	3957
2026-01-02 16:28:00.12	255.95	18.40	-41.7	-42.3	19.2	0.00e+00	0	56	0	1654652928	45	3990
2026-01-02 16:28:01.11	256.17	18.44	-41.5	-42.0	19.5	0.00e+00	0	56	0	1661992960	45	3862
2026-01-02 16:28:02.09	256.39	18.49	-41.4	-41.9	19.6	0.00e+00	0	56	0	1669332992	45	3822
2026-01-02 16:28:03.08	256.61	18.53	-41.5	-42.0	19.6	0.00e+00	0	56	0	1676673024	45	3855
2026-01-02 16:28:04.07	256.83	18.58	-41.5	-42.0	19.5	0.00e+00	0	56	0	1682964480	45	3857
2026-01-02 16:28:05.06	257.05	18.62	-41.6	-42.2	19.4	0.00e+00	0	56	0	1690304512	45	3925
2026-01-02 16:28:06.05	257.27	18.67	-41.8	-42.4	19.2	0.00e+00	0	56	0	1697644544	45	4013
2026-01-02 16:28:07.04	257.49	18.71	-41.7	-42.3	19.3	0.00e+00	0	56	0	1704984576	45	3999
2026-01-02 16:28:08.03	257.72	18.75	-41.9	-42.5	19.1	0.00e+00	0	56	0	1712324608	45	4075
2026-01-02 16:28:09.02	257.94	18.80	-41.7	-42.3	19.2	0.00e+00	0	56	0	1718616064	45	3998
2026-01-02 16:28:10.01	258.16	18.84	-41.8	-42.4	19.2	0.00e+00	0	56	0	1725956096	45	4037
2026-01-02 16:28:11.00	258.39	18.88	-42.0	-42.6	18.9	0.00e+00	0	56	0	1733296128	45	4144
2026-01-02 16:28:11.99	258.61	18.92	-41.7	-42.2	19.3	0.00e+00	0	56	0	1740636160	45	3955
2026-01-02 16:28:12.98	258.84	18.96	-42.0	-42.6	19.0	0.00e+00	0	56	0	1747976192	45	4132
2026-01-02 16:28:13.97	259.06	19.00	-41.7	-42.3	19.3	0.00e+00	0	56	0	1754267648	45	3967
2026-01-02 16:28:14.96	259.29	19.04	-41.6	-42.1	19.4	0.00e+00	0	56	0	1761607680	45	3913
2026-01-02 16:28:15.94	259.52	19.08	-41.5	-42.1	19.4	0.00e+00	0	56	0	1768947712	45	3893
2026-01-02 16:28:16.93	259.74	19.12	-41.6	-42.2	19.4	0.00e+00	0	56	0	1776287744	45	3941
2026-01-02 16:28:17.92	259.97	19.16	-41.7	-42.3	19.3	0.00e+00	0	56	0	1782579200	45	3963
2026-01-02 16:28:18.91	260.20	19.20	-41.7	-42.3	19.3	0.00e+00	0	56	0	1789919232	45	3985
2026-01-02 16:28:19.90	260.43	19.24	-41.5	-42.1	19.5	0.00e+00	0	56	0	1797259264	45	3878
2026-01-02 16:28:20.88	260.66	19.28	-41.3	-41.9	19.7	0.00e+00	0	56	0	1804599296	45	3796
2026-01-02 16:28:21.87	260.89	19.32	-41.2	-41.7	19.8	0.00e+00	0	56	0	1811939328	45	3712
2026-01-02 16:28:22.86	261.12	19.35	-41.2	-41.7	19.9	0.00e+00	0	56	0	1818230784	45	3716
2026-01-02 16:28:23.85	261.35	19.39	-41.3	-41.8	19.7	0.00e+00	0	56	0	1825570816	45	3780
2026-01-02 16:28:24.84	261.58	19.43	-41.6	-42.2	19.4	0.00e+00	0	56	0	1832910848	45	3931
2026-01-02 16:28:25.83	261.82	19.46	-41.7	-42.3	19.3	0.00e+00	0	56	0	1840250880	45	3978
2026-01-02 16:28:26.82	262.05	19.50	-41.7	-42.2	19.3	0.00e+00	0	56	0	1847590912	45	3953
2026-01-02 16:28:27.80	262.28	19.54	-41.7	-42.3	19.3	0.00e+00	0	57	0	1854930944	45	3997
2026-01-02 16:28:28.80	262.52	19.57	-41.7	-42.3	19.3	0.00e+00	0	56	0	1861222400	45	3992
2026-01-02 16:28:29.78	262.75	19.61	-41.7	-42.3	19.3	0.00e+00	0	57	0	1868562432	45	3991
2026-01-02 16:28:30.77	262.99	19.64	-41.7	-42.3	19.3	0.00e+00	0	56	0	1875902464	45	3977
2026-01-02 16:28:31.75	263.22	19.67	-41.9	-42.6	19.1	0.00e+00	0	56	0	1883242496	45	4099
2026-01-02 16:28:32.75	263.46	19.71	-41.7	-42.3	19.3	0.00e+00	0	56	0	1890582528	45	3966
2026-01-02 16:28:33.74	263.70	19.74	-41.3	-41.9	19.7	0.00e+00	0	56	0	1897922560	45	3784
2026-01-02 16:28:34.72	263.93	19.77	-41.1	-41.7	19.9	0.00e+00	0	56	0	1904214016	45	3701
2026-01-02 16:28:35.71	264.17	19.80	-41.1	-41.6	19.9	0.00e+00	0	57	0	1911554048	45	3692
2026-01-02 16:28:36.69	264.41	19.83	-41.1	-41.6	20.0	0.00e+00	0	56	0	1918894080	45	3665
2026-01-02 16:28:37.68	264.64	19.87	-41.1	-41.6	20.0	0.00e+00	0	57	0	1926234112	45	3694
2026-01-02 16:28:38.67	264.88	19.90	-41.2	-41.7	19.9	0.00e+00	0	56	0	1932525568	45	3712
2026-01-02 16:28:39.67	265.13	19.93	-41.2	-41.7	19.9	0.00e+00	0	56	0	1939865600	45	3719
2026-01-02 16:28:40.65	265.36	19.96	-41.3	-41.8	19.8	0.00e+00	0	56	0	1947205632	45	3767
2026-01-02 16:28:41.64	265.60	19.99	-41.3	-41.8	19.8	0.00e+00	0	57	0	1954545664	45	3759
2026-01-02 16:28:42.63	265.85	20.01	-41.2	-41.7	19.8	0.00e+00	0	56	0	1961885696	45	3734
2026-01-02 16:28:43.62	266.09	20.04	-41.2	-41.7	19.9	0.00e+00	0	57	0	1968177152	45	3717
2026-01-02 16:28:44.61	266.33	20.07	-41.2	-41.7	19.9	0.00e+00	0	57	0	1975517184	45	3710
2026-01-02 16:28:45.60	266.57	20.10	-41.4	-42.0	19.6	0.00e+00	0	57	0	1982857216	45	3827
2026-01-02 16:28:46.60	266.82	20.13	-41.3	-41.8	19.7	0.00e+00	0	57	0	1990197248	45	3780
2026-01-02 16:28:47.58	267.06	20.15	-41.1	-41.7	19.9	0.00e+00	0	57	0	1997537280	45	3697
2026-01-02 16:28:48.57	267.30	20.18	-41.1	-41.6	19.9	0.00e+00	0	57	0	2003828736	45	3685
2026-01-02 16:28:49.56	267.55	20.20	-41.1	-41.6	19.9	0.00e+00	0	57	0	2011168768	45	3681
2026-01-02 16:28:50.55	267.79	20.23	-41.3	-41.9	19.7	0.00e+00	0	57	0	2018508800	45	3798
2026-01-02 16:28:51.54	268.04	20.25	-41.5	-42.1	19.5	0.00e+00	0	57	0	2025848832	45	3880
2026-01-02 16:28:52.53	268.28	20.28	-41.4	-42.0	19.6	0.00e+00	0	56	0	2033188864	45	3834
2026-01-02 16:28:53.53	268.53	20.30	-41.5	-42.1	19.5	0.00e+00	0	57	0	2040528896	45	3880
2026-01-02 16:28:54.52	268.77	20.32	-41.7	-42.3	19.3	0.00e+00	0	57	0	2046820352	45	3991
2026-01-02 16:28:55.50	269.02	20.35	-41.7	-42.2	19.3	0.00e+00	0	57	0	2054160384	45	3956
2026-01-02 16:28:56.49	269.27	20.37	-41.5	-42.0	19.6	0.00e+00	0	57	0	2061500416	45	3862
2026-01-02 16:28:57.49	269.51	20.39	-41.4	-42.0	19.6	0.00e+00	0	57	0	2068840448	45	3854
2026-01-02 16:28:58.48	269.76	20.41	-41.6	-42.2	19.4	0.00e+00	0	57	0	2076180480	45	3931
2026-01-02 16:28:59.46	270.01	20.43	-41.6	-42.2	19.4	0.00e+00	0	57	0	2082471936	45	3918
2026-01-02 16:29:00.45	270.26	20.45	-41.2	-41.7	19.8	0.00e+00	0	57	0	2089811968	45	3729
2026-01-02 16:29:01.44	270.50	20.47	-41.0	-41.6	20.0	0.00e+00	0	57	0	2097152000	45	3654
2026-01-02 16:29:02.43	270.75	20.49	-41.0	-41.5	20.1	0.00e+00	0	57	0	2104492032	44	3854
2026-01-02 16:29:03.42	271.00	20.51	-41.1	-41.6	20.0	0.00e+00	0	57	0	2111832064	44	3903
2026-01-02 16:29:04.41	271.25	20.53	-41.2	-41.7	19.9	0.00e+00	0	57	0	2119172096	44	3934
2026-01-02 16:29:05.39	271.50	20.54	-41.2	-41.7	19.9	0.00e+00	0	57	0	2125463552	44	3945
2026-01-02 16:29:06.39	271.75	20.56	-41.1	-41.7	19.9	0.00e+00	0	57	0	2132803584	44	3928
2026-01-02 16:29:07.38	272.00	20.58	-41.2	-41.8	19.8	0.00e+00	0	57	0	2140143616	44	3965
2026-01-02 16:29:08.37	272.25	20.59	-41.4	-42.0	19.6	0.00e+00	0	57	0	2147483648	44	4080
2026-01-02 16:29:09.36	272.50	20.61	-41.6	-42.2	19.4	0.00e+00	0	57	0	2154823680	44	4161
2026-01-02 16:29:10.35	272.75	20.62	-41.5	-42.1	19.5	0.00e+00	0	57	0	2161115136	44	4103
2026-01-02 16:29:11.33	273.00	20.64	-41.7	-42.2	19.4	0.00e+00	0	57	0	2168455168	45	3958
2026-01-02 16:29:12.32	273.25	20.65	-41.6	-42.2	19.4	0.00e+00	0	57	0	2175795200	45	3955
2026-01-02 16:29:13.31	273.50	20.66	-41.8	-42.4	19.2	0.00e+00	0	57	0	2183135232	45	4038
2026-01-02 16:29:14.31	273.76	20.68	-42.0	-42.6	19.0	0.00e+00	0	57	0	2190475264	45	4127
2026-01-02 16:29:15.29	274.00	20.69	-41.7	-42.3	19.4	0.00e+00	0	57	0	2197815296	45	3967
2026-01-02 16:29:16.29	274.26	20.70	-41.5	-42.1	19.5	0.00e+00	0	57	0	2204106752	45	3897
2026-01-02 16:29:17.27	274.51	20.71	-41.5	-42.0	19.6	0.00e+00	0	57	0	2211446784	45	3862
2026-01-02 16:29:18.26	274.76	20.72	-41.5	-42.0	19.6	0.00e+00	0	57	0	2218786816	45	3852
2026-01-02 16:29:19.26	275.02	20.73	-41.5	-42.0	19.6	0.00e+00	0	57	0	2226126848	45	3858
2026-01-02 16:29:20.24	275.27	20.74	-41.7	-42.2	19.4	0.00e+00	0	57	0	2233466880	45	3951
2026-01-02 16:29:21.24	275.52	20.75	-41.4	-41.9	19.7	0.00e+00	0	57	0	2240806912	45	3808
2026-01-02 16:29:22.23	275.77	20.76	-41.2	-41.8	19.8	0.00e+00	0	57	0	2247098368	45	3743
2026-01-02 16:29:23.21	276.02	20.76	-41.2	-41.7	19.9	0.00e+00	0	57	0	2254438400	45	3709
2026-01-02 16:29:24.20	276.28	20.77	-41.2	-41.8	19.8	0.00e+00	0	57	0	2261778432	45	3755
2026-01-02 16:29:25.19	276.53	20.78	-41.3	-41.9	19.7	0.00e+00	0	57	0	2269118464	45	3806
2026-01-02 16:29:26.18	276.78	20.78	-41.4	-41.9	19.6	0.00e+00	0	57	0	2276458496	45	3823
2026-01-02 16:29:27.17	277.04	20.79	-41.2	-41.7	19.9	0.00e+00	0	57	0	2282749952	45	3717
2026-01-02 16:29:28.15	277.29	20.79	-41.1	-41.7	19.9	0.00e+00	0	57	0	2290089984	45	3695
2026-01-02 16:29:29.14	277.54	20.80	-41.2	-41.8	19.8	0.00e+00	0	57	0	2297430016	45	3740
2026-01-02 16:29:30.13	277.80	20.80	-41.1	-41.7	19.9	0.00e+00	0	57	0	2304770048	45	3700
2026-01-02 16:29:31.11	278.05	20.81	-41.2	-41.7	19.9	0.00e+00	0	57	0	2311061504	45	3722
2026-01-02 16:29:32.10	278.30	20.81	-41.4	-42.0	19.6	0.00e+00	0	57	0	2318401536	45	3831
2026-01-02 16:29:33.09	278.55	20.81	-41.2	-41.7	19.9	0.00e+00	0	57	0	2325741568	45	3730
2026-01-02 16:29:34.08	278.81	20.81	-41.1	-41.6	20.0	0.00e+00	0	57	0	2333081600	45	3664
2026-01-02 16:29:35.06	279.06	20.81	-41.1	-41.6	20.0	0.00e+00	0	57	0	2340421632	45	3677
2026-01-02 16:29:36.04	279.31	20.81	-41.1	-41.6	19.9	0.00e+00	0	57	0	2346713088	45	3694
2026-01-02 16:29:37.04	279.57	20.81	-41.0	-41.6	20.0	0.00e+00	0	57	0	2354053120	45	3659
2026-01-02 16:29:38.03	279.82	20.81	-41.3	-41.8	19.7	0.00e+00	0	57	0	2361393152	45	3771
2026-01-02 16:29:39.02	280.07	20.81	-41.1	-41.6	20.0	0.00e+00	0	57	0	2368733184	45	3681
2026-01-02 16:29:40.00	280.32	20.81	-41.3	-41.9	19.7	0.00e+00	0	57	0	2376073216	45	3793
2026-01-02 16:29:40.99	280.58	20.81	-41.7	-42.3	19.3	0.00e+00	0	57	0	2382364672	45	3988
2026-01-02 16:29:41.98	280.83	20.80	-41.5	-42.1	19.5	0.00e+00	0	57	0	2389704704	45	3876
2026-01-02 16:29:42.97	281.09	20.80	-41.4	-41.9	19.6	0.00e+00	0	57	0	2397044736	45	3824
2026-01-02 16:29:43.97	281.34	20.80	-41.4	-41.9	19.7	0.00e+00	0	57	0	2404384768	45	3810
2026-01-02 16:29:44.95	281.59	20.79	-41.7	-42.2	19.3	0.00e+00	0	57	0	2411724800	45	3955
2026-01-02 16:29:45.94	281.85	20.79	-41.9	-42.5	19.0	0.00e+00	0	57	0	2419064832	45	4087
2026-01-02 16:29:46.94	282.10	20.78	-42.0	-42.6	18.9	0.00e+00	0	57	0	2425356288	45	4135
2026-01-02 16:29:47.92	282.35	20.78	-42.2	-42.8	18.7	0.00e+00	0	57	0	2432696320	45	4236
2026-01-02 16:29:48.92	282.61	20.77	-42.5	-43.1	18.4	0.00e+00	0	57	0	2440036352	46	4137
2026-01-02 16:29:49.91	282.86	20.76	-42.6	-43.3	18.2	0.00e+00	0	57	0	2447376384	46	4216
2026-01-02 16:29:50.91	283.12	20.75	-42.8	-43.5	17.9	0.00e+00	0	57	0	2454716416	47	4091
2026-01-02 16:29:51.90	283.37	20.75	-42.7	-43.4	17.9	0.00e+00	0	57	0	2462056448	47	4040
2026-01-02 16:29:52.89	283.62	20.74	-43.2	-43.9	17.4	0.00e+00	0	57	0	2468347904	47	4279
2026-01-02 16:29:53.88	283.87	20.73	-43.2	-43.9	17.5	0.00e+00	0	57	0	2475687936	48	4046
2026-01-02 16:29:54.88	284.13	20.72	-43.7	-44.5	16.9	0.00e+00	0	57	0	2483027968	48	4326
2026-01-02 16:29:55.87	284.38	20.71	-43.7	-44.5	16.9	0.00e+00	0	57	0	2490368000	49	4052
2026-01-02 16:29:56.85	284.63	20.69	-44.2	-45.1	16.2	0.00e+00	0	57	0	2497708032	49	4346
2026-01-02 16:29:57.84	284.88	20.68	-44.7	-45.6	15.6	0.00e+00	0	57	0	2503999488	51	4138
2026-01-02 16:29:58.82	285.13	20.67	-44.9	-45.9	15.3	0.00e+00	0	57	0	2511339520	51	4278
2026-01-02 16:29:59.81	285.38	20.66	-45.2	-46.3	14.7	0.00e+00	0	57	0	2518679552	52	4237
2026-01-02 16:30:00.80	285.63	20.64	-45.4	-46.6	14.3	0.00e+00	0	57	0	2526019584	52	4386
2026-01-02 16:30:01.78	285.88	20.63	-45.7	-47.0	13.9	1.10e-06	0	57	0	2533359616	53	4306
2026-01-02 16:30:02.78	286.13	20.62	-45.8	-47.1	13.8	3.40e-06	0	57	0	2540699648	53	4374
2026-01-02 16:30:03.77	286.38	20.60	-46.0	-47.3	13.5	6.80e-06	0	57	0	2546991104	53	4493
2026-01-02 16:30:04.75	286.63	20.59	-46.0	-47.3	13.5	1.25e-05	0	57	0	2554331136	53	4486
2026-01-02 16:30:05.73	286.88	20.57	-46.3	-47.7	13.1	1.60e-05	0	57	0	2561671168	54	4438
2026-01-02 16:30:06.72	287.13	20.55	-46.3	-47.8	13.1	3.66e-05	0	57	0	2567962624	54	4449
2026-01-02 16:30:07.71	287.38	20.54	-46.6	-48.2	12.7	7.09e-05	0	57	0	2575302656	54	4664
2026-01-02 16:30:08.70	287.63	20.52	-46.6	-48.2	12.7	1.18e-04	0	57	0	2582642688	55	4410
2026-01-02 16:30:09.69	287.88	20.50	-46.4	-47.8	13.0	5.03e-05	0	57	0	2589982720	55	4235
2026-01-02 16:30:10.67	288.12	20.48	-46.1	-47.5	13.4	2.86e-05	0	57	0	2597322752	55	4070
2026-01-02 16:30:11.66	288.37	20.46	-46.0	-47.4	13.5	1.37e-05	0	57	0	2603614208	54	4248
2026-01-02 16:30:12.66	288.62	20.44	-46.0	-47.4	13.4	1.94e-05	0	57	0	2610954240	54	4279
2026-01-02 16:30:13.64	288.87	20.42	-45.8	-47.2	13.6	1.94e-05	0	57	0	2618294272	54	4168
2026-01-02 16:30:14.63	289.11	20.40	-45.7	-47.0	13.7	4.50e-06	0	57	0	2625634304	54	4078
2026-01-02 16:30:15.63	289.36	20.38	-45.6	-47.0	13.7	1.02e-05	0	57	0	2632974336	54	4062
2026-01-02 16:30:16.62	289.61	20.36	-45.9	-47.3	13.3	1.14e-05	0	57	0	2640314368	54	4214
2026-01-02 16:30:17.60	289.85	20.34	-45.9	-47.4	13.2	2.51e-05	0	57	0	2646605824	54	4261
2026-01-02 16:30:18.60	290.10	20.32	-46.0	-47.4	13.1	3.31e-05	0	57	0	2653945856	54	4291
2026-01-02 16:30:19.59	290.35	20.29	-46.1	-47.7	12.9	4.11e-05	0	57	0	2661285888	54	4402
2026-01-02 16:30:20.58	290.59	20.27	-46.0	-47.5	13.2	3.43e-05	0	57	0	2668625920	54	4299
2026-01-02 16:30:21.56	290.83	20.24	-45.5	-46.8	13.9	4.50e-06	0	57	0	2675965952	54	4003
2026-01-02 16:30:22.56	291.08	20.22	-45.0	-46.1	14.6	1.10e-06	0	57	0	2683305984	53	3906
2026-01-02 16:30:23.55	291.32	20.19	-44.5	-45.5	15.5	0.00e+00	0	57	0	2689597440	51	4083
2026-01-02 16:30:24.53	291.57	20.17	-43.9	-44.8	16.4	0.00e+00	0	57	0	2696937472	50	3983
2026-01-02 16:30:25.52	291.81	20.14	-43.4	-44.2	17.1	0.00e+00	0	57	0	2704277504	49	3942
2026-01-02 16:30:26.51	292.05	20.12	-43.2	-43.9	17.6	0.00e+00	0	57	0	2711617536	49	3814
2026-01-02 16:30:27.49	292.29	20.09	-43.2	-43.9	17.7	0.00e+00	0	57	0	2718957568	49	3795
2026-01-02 16:30:28.48	292.53	20.06	-43.0	-43.7	18.0	0.00e+00	0	57	0	2725249024	49	3719
2026-01-02 16:30:29.48	292.78	20.03	-42.6	-43.3	18.4	0.00e+00	0	57	0	2732589056	48	3744
2026-01-02 16:30:30.46	293.02	20.01	-42.5	-43.1	18.6	0.00e+00	0	57	0	2739929088	48	3681
2026-01-02 16:30:31.45	293.26	19.98	-42.4	-43.0	18.6	0.00e+00	0	57	0	2747269120	47	3845
2026-01-02 16:30:32.43	293.49	19.95	-42.4	-43.0	18.6	0.00e+00	0	58	0	2754609152	47	3838
2026-01-02 16:30:33.43	293.74	19.92	-42.2	-42.8	18.8	0.00e+00	0	58	0	2761949184	47	3777
2026-01-02 16:30:34.42	293.98	19.89	-42.2	-42.8	18.7	0.00e+00	0	57	0	2768240640	47	3775
2026-01-02 16:30:35.40	294.21	19.86	-42.2	-42.8	18.8	0.00e+00	0	57	0	2775580672	47	3756
2026-01-02 16:30:36.38	294.45	19.83	-41.8	-42.4	19.1	0.00e+00	0	57	0	2782920704	46	3808
2026-01-02 16:30:37.38	294.69	19.79	-41.6	-42.1	19.4	0.00e+00	0	57	0	2790260736	46	3677
2026-01-02 16:30:38.37	294.92	19.76	-41.4	-42.0	19.6	0.00e+00	0	57	0	2796552192	45	3828
2026-01-02 16:30:39.36	295.16	19.73	-41.4	-42.0	19.5	0.00e+00	0	57	0	2803892224	45	3834
2026-01-02 16:30:40.35	295.40	19.70	-41.8	-42.4	19.2	0.00e+00	0	58	0	2811232256	45	4015
2026-01-02 16:30:41.33	295.63	19.66	-42.0	-42.6	19.0	0.00e+00	0	57	0	2818572288	45	4124
2026-01-02 16:30:42.32	295.87	19.63	-41.8	-42.4	19.2	0.00e+00	0	57	0	2824863744	45	4012
2026-01-02 16:30:43.30	296.10	19.60	-41.7	-42.2	19.3	0.00e+00	0	57	0	2832203776	45	3956
2026-01-02 16:30:44.29	296.33	19.56	-41.6	-42.2	19.4	0.00e+00	0	57	0	2839543808	45	3930
2026-01-02 16:30:45.28	296.57	19.53	-41.6	-42.2	19.3	0.00e+00	0	57	0	2846883840	45	3940
2026-01-02 16:30:46.27	296.80	19.49	-41.6	-42.2	19.4	0.00e+00	0	57	0	2854223872	45	3929
2026-01-02 16:30:47.25	297.03	19.45	-41.7	-42.3	19.3	0.00e+00	0	58	0	2861563904	45	3981
2026-01-02 16:30:48.24	297.26	19.42	-41.8	-42.4	19.1	0.00e+00	0	58	0	2867855360	45	4040
2026-01-02 16:30:49.22	297.49	19.38	-41.7	-42.3	19.3	0.00e+00	0	57	0	2875195392	45	3987
2026-01-02 16:30:50.21	297.72	19.34	-41.6	-42.1	19.4	0.00e+00	0	57	0	2882535424	45	3905
2026-01-02 16:30:51.20	297.95	19.31	-41.8	-42.3	19.2	0.00e+00	0	58	0	2889875456	45	3991
2026-01-02 16:30:52.19	298.18	19.27	-41.8	-42.4	19.2	0.00e+00	0	58	0	2897215488	45	4023
2026-01-02 16:30:53.18	298.41	19.23	-41.6	-42.2	19.4	0.00e+00	0	58	0	2904555520	45	3924
2026-01-02 16:30:54.17	298.64	19.19	-41.5	-42.1	19.5	0.00e+00	0	58	0	2910846976	45	3890
2026-01-02 16:30:55.15	298.87	19.15	-41.5	-42.1	19.5	0.00e+00	0	57	0	2918187008	45	3872
2026-01-02 16:30:56.14	299.10	19.11	-41.5	-42.1	19.5	0.00e+00	0	57	0	2925527040	45	3886
2026-01-02 16:30:57.12	299.32	19.07	-41.6	-42.2	19.4	0.00e+00	0	57	0	2931818496	45	3938
2026-01-02 16:30:58.11	299.55	19.03	-41.6	-42.1	19.5	0.00e+00	0	57	0	2939158528	45	3887
2026-01-02 16:30:59.10	299.77	18.99	-41.6	-42.2	19.4	0.00e+00	0	57	0	2946498560	45	3928
2026-01-02 16:31:00.09	300.00	18.95	-41.6	-42.2	19.4	0.00e+00	0	57	0	2953838592	45	3940
2026-01-02 16:31:01.08	300.22	18.91	-41.8	-42.3	19.2	0.00e+00	0	58	0	2961178624	45	3998
2026-01-02 16:31:02.07	300.45	18.87	-41.6	-42.1	19.4	0.00e+00	0	57	0	2967470080	45	3905
2026-01-02 16:31:03.05	300.67	18.83	-41.6	-42.1	19.4	0.00e+00	0	58	0	2974810112	45	3903
2026-01-02 16:31:04.05	300.89	18.79	-41.7	-42.3	19.3	0.00e+00	0	57	0	2982150144	45	3967
2026-01-02 16:31:05.04	301.12	18.74	-41.6	-42.2	19.4	0.00e+00	0	58	0	2989490176	45	3936
2026-01-02 16:31:06.02	301.34	18.70	-41.9	-42.4	19.1	0.00e+00	0	58	0	2996830208	45	4047
2026-01-02 16:31:07.01	301.56	18.66	-41.7	-42.3	19.3	0.00e+00	0	58	0	3004170240	45	3985
2026-01-02 16:31:08.00	301.78	18.61	-41.6	-42.2	19.3	0.00e+00	0	58	0	3010461696	45	3943
2026-01-02 16:31:09.00	302.00	18.57	-41.7	-42.3	19.3	0.00e+00	0	58	0	3017801728	45	3987
2026-01-02 16:31:09.99	302.22	18.53	-42.0	-42.6	19.0	0.00e+00	0	58	0	3025141760	45	4103
2026-01-02 16:31:10.98	302.44	18.48	-41.8	-42.4	19.1	0.00e+00	0	58	0	3032481792	45	4047
2026-01-02 16:31:11.97	302.66	18.44	-42.0	-42.6	19.0	0.00e+00	0	58	0	3039821824	45	4105
2026-01-02 16:31:12.96	302.87	18.39	-42.2	-42.8	18.8	0.00e+00	0	58	0	3046113280	45	4209
2026-01-02 16:31:13.95	303.09	18.34	-42.1	-42.7	18.8	0.00e+00	0	58	0	3053453312	45	4191
2026-01-02 16:31:14.94	303.31	18.30	-42.1	-42.8	18.8	0.00e+00	0	58	0	3060793344	45	4197
2026-01-02 16:31:15.93	303.52	18.25	-42.3	-42.9	18.7	0.00e+00	0	58	0	3068133376	46	4013
2026-01-02 16:31:16.91	303.73	18.21	-42.2	-42.8	18.8	0.00e+00	0	58	0	3075473408	46	3967
2026-01-02 16:31:17.90	303.95	18.16	-42.0	-42.6	19.0	0.00e+00	0	58	0	3082813440	46	3893
2026-01-02 16:31:18.89	304.16	18.11	-42.0	-42.6	19.0	0.00e+00	0	58	0	3089104896	46	3906
2026-01-02 16:31:19.87	304.37	18.07	-41.9	-42.5	19.1	0.00e+00	0	58	0	3096444928	46	3838
2026-01-02 16:31:20.86	304.58	18.02	-42.0	-42.6	18.9	0.00e+00	0	58	0	3103784960	46	3911
2026-01-02 16:31:21.85	304.80	17.97	-42.4	-43.0	18.6	0.00e+00	0	58	0	3111124992	46	4070
2026-01-02 16:31:22.85	305.01	17.92	-42.3	-42.9	18.7	0.00e+00	0	58	0	3118465024	46	4015
2026-01-02 16:31:23.84	305.22	17.87	-42.4	-43.1	18.5	0.00e+00	0	58	0	3125805056	46	4110
2026-01-02 16:31:24.83	305.43	17.82	-42.3	-42.9	18.7	0.00e+00	0	58	0	3132096512	46	4021
2026-01-02 16:31:25.81	305.64	17.78	-42.1	-42.7	18.9	0.00e+00	0	58	0	3139436544	46	3927
2026-01-02 16:31:26.80	305.84	17.73	-41.9	-42.5	19.0	0.00e+00	0	58	0	3146776576	46	3850
2026-01-02 16:31:27.79	306.05	17.68	-41.9	-42.5	19.1	0.00e+00	0	58	0	3154116608	46	3841
2026-01-02 16:31:28.78	306.26	17.63	-42.0	-42.6	19.0	0.00e+00	0	58	0	3161456640	46	3877
2026-01-02 16:31:29.77	306.46	17.58	-42.1	-42.7	18.9	0.00e+00	0	58	0	3167748096	46	3922
2026-01-02 16:31:30.75	306.67	17.53	-42.1	-42.7	18.9	0.00e+00	0	58	0	3175088128	46	3924
2026-01-02 16:31:31.74	306.87	17.48	-42.2	-42.8	18.8	0.00e+00	0	58	0	3182428160	46	3975
2026-01-02 16:31:32.73	307.08	17.43	-42.2	-42.9	18.7	0.00e+00	0	58	0	3189768192	46	4015
2026-01-02 16:31:33.72	307.28	17.37	-42.2	-42.8	18.8	0.00e+00	0	58	0	3196059648	46	3982
2026-01-02 16:31:34.71	307.48	17.32	-42.2	-42.8	18.8	0.00e+00	0	58	0	3203399680	46	3973
2026-01-02 16:31:35.71	307.69	17.27	-42.1	-42.7	18.9	0.00e+00	0	58	0	3210739712	46	3939
2026-01-02 16:31:36.69	307.89	17.22	-42.2	-42.9	18.7	0.00e+00	0	58	0	3218079744	46	4014
2026-01-02 16:31:37.68	308.09	17.17	-42.2	-42.8	18.8	0.00e+00	0	58	0	3225419776	46	3989
2026-01-02 16:31:38.66	308.29	17.12	-42.0	-42.7	18.9	0.00e+00	0	58	0	3231711232	46	3915
2026-01-02 16:31:39.65	308.49	17.06	-42.1	-42.7	18.9	0.00e+00	0	58	0	3239051264	46	3930
2026-01-02 16:31:40.63	308.68	17.01	-42.1	-42.7	18.8	0.00e+00	0	58	0	3246391296	46	3942
2026-01-02 16:31:41.62	308.88	16.96	-42.2	-42.8	18.8	0.00e+00	0	58	0	3253731328	46	3979
2026-01-02 16:31:42.61	309.08	16.91	-42.2	-42.9	18.7	0.00e+00	0	58	0	3261071360	46	4015
2026-01-02 16:31:43.61	309.28	16.85	-42.2	-42.9	18.6	0.00e+00	0	58	0	3267362816	46	4019
2026-01-02 16:31:44.59	309.47	16.80	-42.3	-42.9	18.7	0.00e+00	0	58	0	3274702848	46	4020
2026-01-02 16:31:45.58	309.67	16.74	-42.3	-43.0	18.6	0.00e+00	0	58	0	3282042880	46	4053
2026-01-02 16:31:46.57	309.86	16.69	-42.4	-43.0	18.5	0.00e+00	0	58	0	3289382912	46	4095
2026-01-02 16:31:47.55	310.05	16.64	-42.6	-43.3	18.3	0.00e+00	0	58	0	3296722944	46	4206
2026-01-02 16:31:48.55	310.25	16.58	-42.6	-43.2	18.3	0.00e+00	0	58	0	3304062976	47	3941
2026-01-02 16:31:49.54	310.44	16.53	-42.5	-43.1	18.4	0.00e+00	0	58	0	3310354432	47	3911
2026-01-02 16:31:50.53	310.63	16.47	-42.6	-43.2	18.3	0.00e+00	0	58	0	3317694464	47	3944
2026-01-02 16:31:51.52	310.83	16.42	-42.4	-43.1	18.5	0.00e+00	0	58	0	3325034496	47	3879
2026-01-02 16:31:52.50	311.01	16.36	-42.5	-43.2	18.3	0.00e+00	0	58	0	3332374528	47	3938
2026-01-02 16:31:53.49	311.20	16.31	-42.6	-43.3	18.3	0.00e+00	0	58	0	3339714560	47	3959
2026-01-02 16:31:54.48	311.39	16.25	-42.7	-43.3	18.3	0.00e+00	0	58	0	3347054592	47	3999
2026-01-02 16:31:55.48	311.58	16.20	-43.0	-43.7	17.9	0.00e+00	0	58	0	3353346048	47	4151
2026-01-02 16:31:56.47	311.77	16.14	-43.0	-43.7	17.9	0.00e+00	0	58	0	3360686080	47	4170
2026-01-02 16:31:57.46	311.96	16.09	-42.9	-43.5	18.0	0.00e+00	0	58	0	3368026112	47	4095
2026-01-02 16:31:58.45	312.15	16.03	-42.7	-43.4	18.1	0.00e+00	0	58	0	3375366144	47	4008
2026-01-02 16:31:59.44	312.33	15.97	-42.6	-43.3	18.3	0.00e+00	0	58	0	3382706176	47	3961
2026-01-02 16:32:00.42	312.52	15.92	-42.6	-43.3	18.3	0.00e+00	0	58	0	3388997632	47	3960
2026-01-02 16:32:01.42	312.70	15.86	-42.8	-43.5	18.1	0.00e+00	0	58	0	3396337664	47	4069
2026-01-02 16:32:02.40	312.88	15.81	-42.9	-43.6	18.0	0.00e+00	0	58	0	3403677696	47	4100
2026-01-02 16:32:03.39	313.07	15.75	-42.6	-43.3	18.3	0.00e+00	0	58	0	3411017728	47	3977
2026-01-02 16:32:04.38	313.25	15.69	-42.5	-43.2	18.4	0.00e+00	0	58	0	3418357760	47	3920
2026-01-02 16:32:05.37	313.43	15.64	-42.5	-43.2	18.3	0.00e+00	0	58	0	3424649216	47	3940
2026-01-02 16:32:06.36	313.61	15.58	-42.5	-43.2	18.4	0.00e+00	0	58	0	3431989248	47	3929
2026-01-02 16:32:07.35	313.79	15.52	-42.8	-43.4	18.1	0.00e+00	0	58	0	3439329280	47	4042
2026-01-02 16:32:08.34	313.97	15.46	-42.8	-43.5	18.1	0.00e+00	0	58	0	3446669312	47	4059
2026-01-02 16:32:09.32	314.15	15.41	-42.8	-43.5	18.1	0.00e+00	0	58	0	3452960768	47	4067
2026-01-02 16:32:10.31	314.33	15.35	-42.8	-43.5	18.0	0.00e+00	0	58	0	3460300800	47	4095
2026-01-02 16:32:11.30	314.51	15.29	-43.0	-43.6	17.9	0.00e+00	0	58	0	3467640832	47	4142
2026-01-02 16:32:12.30	314.69	15.23	-42.7	-43.4	18.1	0.00e+00	0	58	0	3474980864	47	4031
2026-01-02 16:32:13.29	314.86	15.18	-42.8	-43.4	18.1	0.00e+00	0	58	0	3482320896	47	4044
2026-01-02 16:32:14.28	315.04	15.12	-42.9	-43.6	17.9	0.00e+00	0	58	0	3489660928	47	4111
2026-01-02 16:32:15.27	315.21	15.06	-43.2	-43.9	17.8	0.00e+00	0	58	0	3495952384	48	4049
2026-01-02 16:32:16.26	315.39	15.00	-43.2	-43.9	17.8	0.00e+00	0	58	0	3503292416	48	4006
2026-01-02 16:32:17.24	315.56	14.94	-43.4	-44.1	17.6	0.00e+00	0	58	0	3510632448	48	4116
2026-01-02 16:32:18.24	315.74	14.88	-43.3	-44.0	17.7	0.00e+00	0	58	0	3517972480	48	4087
2026-01-02 16:32:19.22	315.91	14.83	-43.5	-44.3	17.4	0.00e+00	0	58	0	3525312512	48	4214
2026-01-02 16:32:20.21	316.08	14.77	-43.4	-44.2	17.6	0.00e+00	0	58	0	3531603968	48	4149
2026-01-02 16:32:21.20	316.25	14.71	-43.6	-44.4	17.4	0.00e+00	0	58	0	3538944000	48	4245
2026-01-02 16:32:22.19	316.42	14.65	-43.7	-44.5	17.2	0.00e+00	0	58	0	3546284032	49	4091
2026-01-02 16:32:23.17	316.59	14.59	-43.6	-44.4	17.3	0.00e+00	0	58	0	3553624064	49	4028
2026-01-02 16:32:24.16	316.76	14.53	-43.5	-44.3	17.5	0.00e+00	0	58	0	3560964096	49	3966
2026-01-02 16:32:25.15	316.93	14.47	-43.4	-44.1	17.6	0.00e+00	0	58	0	3568304128	49	3894
2026-01-02 16:32:26.14	317.10	14.41	-43.4	-44.2	17.5	0.00e+00	0	58	0	3574595584	49	3926
2026-01-02 16:32:27.13	317.26	14.36	-43.3	-44.0	17.7	0.00e+00	0	58	0	3581935616	49	3849
2026-01-02 16:32:28.11	317.43	14.30	-43.1	-43.8	17.9	0.00e+00	0	58	0	3589275648	49	3775
2026-01-02 16:32:29.10	317.59	14.24	-43.3	-44.0	17.7	0.00e+00	0	58	0	3596615680	49	3837
2026-01-02 16:32:30.09	317.76	14.18	-43.5	-44.2	17.5	0.00e+00	0	58	0	3603955712	49	3941
2026-01-02 16:32:31.08	317.92	14.12	-43.2	-43.9	17.8	0.00e+00	0	58	0	3610247168	49	3794
2026-01-02 16:32:32.07	318.09	14.06	-43.0	-43.7	18.0	0.00e+00	0	58	0	3617587200	49	3698
2026-01-02 16:32:33.06	318.25	14.00	-42.9	-43.6	18.1	0.00e+00	0	58	0	3624927232	48	3896
2026-01-02 16:32:34.05	318.41	13.94	-43.0	-43.6	18.1	0.00e+00	0	58	0	3632267264	48	3909
2026-01-02 16:32:35.04	318.58	13.88	-42.8	-43.5	18.2	0.00e+00	0	58	0	3639607296	48	3851
2026-01-02 16:32:36.03	318.74	13.82	-43.0	-43.7	18.0	0.00e+00	0	58	0	3646947328	48	3925
2026-01-02 16:32:37.03	318.90	13.76	-42.9	-43.5	18.2	0.00e+00	0	58	0	3653238784	48	3851
2026-01-02 16:32:38.01	319.06	13.70	-42.8	-43.5	18.2	0.00e+00	0	58	0	3660578816	48	3825
2026-01-02 16:32:39.00	319.22	13.64	-43.0	-43.7	18.0	0.00e+00	0	58	0	3667918848	48	3914
2026-01-02 16:32:39.99	319.38	13.58	-43.2	-43.9	17.7	0.00e+00	0	58	0	3675258880	48	4046
2026-01-02 16:32:40.98	319.54	13.52	-43.1	-43.9	17.8	0.00e+00	0	58	0	3682598912	48	4010
2026-01-02 16:32:41.97	319.69	13.46	-43.3	-44.0	17.7	0.00e+00	0	58	0	3688890368	48	4077
2026-01-02 16:32:42.95	319.85	13.40	-43.4	-44.2	17.5	0.00e+00	0	58	0	3696230400	48	4158
2026-01-02 16:32:43.94	320.01	13.34	-43.4	-44.1	17.6	0.00e+00	0	58	0	3703570432	48	4115
2026-01-02 16:32:44.93	320.16	13.28	-43.5	-44.3	17.4	0.00e+00	0	58	0	3710910464	48	4196
2026-01-02 16:32:45.93	320.32	13.22	-43.5	-44.3	17.4	0.00e+00	0	58	0	3718250496	48	4196
2026-01-02 16:32:46.92	320.47	13.16	-43.6	-44.4	17.3	0.00e+00	0	58	0	3724541952	48	4269
2026-01-02 16:32:47.91	320.63	13.10	-43.8	-44.6	17.0	0.00e+00	0	58	0	3731881984	49	4119
2026-01-02 16:32:48.90	320.78	13.04	-43.7	-44.4	17.2	0.00e+00	0	58	0	3739222016	49	4047
2026-01-02 16:32:49.90	320.94	12.98	-43.8	-44.6	17.1	0.00e+00	0	58	0	3746562048	49	4102
2026-01-02 16:32:50.88	321.09	12.92	-43.9	-44.7	16.9	0.00e+00	0	58	0	3753902080	49	4166
2026-01-02 16:32:51.87	321.24	12.85	-43.6	-44.4	17.2	0.00e+00	0	58	0	3760193536	49	4037
2026-01-02 16:32:52.86	321.39	12.79	-43.4	-44.1	17.5	0.00e+00	0	58	0	3767533568	49	3888
2026-01-02 16:32:53.85	321.54	12.73	-43.1	-43.8	17.8	0.00e+00	0	58	0	3774873600	49	3780
2026-01-02 16:32:54.85	321.69	12.67	-43.0	-43.7	18.0	0.00e+00	0	58	0	3782213632	49	3704
2026-01-02 16:32:55.84	321.84	12.61	-43.0	-43.6	18.0	0.00e+00	0	58	0	3789553664	48	3911
2026-01-02 16:32:56.83	321.99	12.55	-43.2	-43.9	17.8	0.00e+00	0	58	0	3796893696	48	4011
2026-01-02 16:32:57.82	322.14	12.49	-43.0	-43.7	17.9	0.00e+00	0	58	0	3803185152	48	3929
2026-01-02 16:32:58.81	322.29	12.43	-42.8	-43.5	18.1	0.00e+00	0	58	0	3810525184	48	3853
2026-01-02 16:32:59.81	322.43	12.37	-42.9	-43.6	18.1	0.00e+00	0	58	0	3817865216	48	3876
2026-01-02 16:33:00.80	322.58	12.31	-42.9	-43.6	18.0	0.00e+00	0	58	0	3825205248	48	3894
2026-01-02 16:33:01.79	322.73	12.25	-43.1	-43.7	17.9	0.00e+00	0	58	0	3832545280	48	3957
2026-01-02 16:33:02.78	322.87	12.19	-43.0	-43.7	17.9	0.00e+00	0	58	0	3839885312	48	3954
2026-01-02 16:33:03.77	323.02	12.13	-43.1	-43.8	17.8	0.00e+00	0	58	0	3846176768	48	3994
2026-01-02 16:33:04.76	323.16	12.06	-43.4	-44.1	17.5	0.00e+00	0	58	0	3853516800	48	4114
2026-01-02 16:33:05.75	323.30	12.00	-43.4	-44.1	17.5	0.00e+00	0	58	0	3860856832	48	4117
2026-01-02 16:33:06.73	323.45	11.94	-43.5	-44.3	17.4	0.00e+00	0	58	0	3868196864	48	4194
2026-01-02 16:33:07.72	323.59	11.88	-43.5	-44.3	17.3	0.00e+00	0	58	0	3874488320	48	4202
2026-01-02 16:33:08.71	323.73	11.82	-43.4	-44.2	17.4	0.00e+00	0	58	0	3881828352	48	4168
2026-01-02 16:33:09.70	323.87	11.76	-43.5	-44.2	17.4	0.00e+00	0	58	0	3889168384	48	4171
2026-01-02 16:33:10.69	324.01	11.70	-43.6	-44.4	17.3	0.00e+00	0	58	0	3896508416	48	4259
2026-01-02 16:33:11.68	324.15	11.64	-43.7	-44.5	17.0	0.00e+00	0	58	0	3903848448	49	4081
2026-01-02 16:33:12.66	324.29	11.58	-43.7	-44.6	17.0	0.00e+00	0	58	0	3911188480	49	4106
2026-01-02 16:33:13.65	324.43	11.52	-43.8	-44.6	17.0	0.00e+00	0	58	0	3917479936	49	4132
2026-01-02 16:33:14.65	324.57	11.46	-44.0	-44.8	16.8	0.00e+00	0	58	0	3924819968	49	4207
2026-01-02 16:33:15.63	324.71	11.40	-43.9	-44.7	16.9	0.00e+00	0	58	0	3932160000	49	4173
2026-01-02 16:33:16.62	324.84	11.34	-43.9	-44.7	16.9	0.00e+00	0	58	0	3939500032	49	4160
2026-01-02 16:33:17.61	324.98	11.28	-44.0	-44.9	16.7	0.00e+00	0	58	0	3946840064	49	4257
2026-01-02 16:33:18.60	325.12	11.21	-44.1	-45.0	16.6	0.00e+00	0	58	0	3953131520	49	4307
2026-01-02 16:33:19.60	325.25	11.15	-44.1	-44.9	16.7	0.00e+00	0	58	0	3960471552	50	4044
2026-01-02 16:33:20.59	325.39	11.09	-44.0	-44.8	16.8	0.00e+00	0	58	0	3967811584	50	3972
2026-01-02 16:33:21.58	325.52	11.03	-43.9	-44.7	16.9	0.00e+00	0	58	0	3975151616	50	3922
2026-01-02 16:33:22.57	325.66	10.97	-43.8	-44.6	16.9	0.00e+00	0	58	0	3982491648	50	3892
2026-01-02 16:33:23.57	325.79	10.91	-44.0	-44.9	16.7	0.00e+00	0	58	0	3989831680	50	4018
2026-01-02 16:33:24.56	325.92	10.85	-44.1	-44.9	16.7	0.00e+00	0	58	0	3996123136	50	4032
2026-01-02 16:33:25.55	326.06	10.79	-43.8	-44.6	17.0	0.00e+00	0	58	0	4003463168	50	3898
2026-01-02 16:33:26.55	326.19	10.73	-43.6	-44.4	17.1	0.00e+00	0	58	0	4010803200	50	3811
2026-01-02 16:33:27.53	326.32	10.67	-43.7	-44.5	17.1	0.00e+00	0	58	0	4018143232	50	3850
2026-01-02 16:33:28.51	326.45	10.61	-43.9	-44.8	16.8	0.00e+00	0	58	0	4024434688	50	3963
2026-01-02 16:33:29.51	326.58	10.55	-44.0	-44.8	16.8	0.00e+00	0	58	0	4032823296	50	3993
2026-01-02 16:33:30.49	326.71	10.49	-43.9	-44.8	16.7	0.00e+00	0	58	0	4039114752	50	3967
2026-01-02 16:33:31.48	326.84	10.43	-44.1	-44.9	16.6	0.00e+00	0	58	0	4046454784	50	4030
2026-01-02 16:33:32.47	326.97	10.37	-44.1	-45.0	16.6	0.00e+00	0	58	0	4053794816	50	4066
2026-01-02 16:33:33.47	327.10	10.30	-44.4	-45.3	16.3	0.00e+00	0	58	0	4061134848	50	4198
2026-01-02 16:33:34.46	327.23	10.24	-44.4	-45.4	16.2	0.00e+00	0	58	0	4068474880	50	4257
2026-01-02 16:33:35.45	327.35	10.18	-44.4	-45.3	16.2	0.00e+00	0	58	0	4074766336	50	4233
2026-01-02 16:33:36.44	327.48	10.12	-44.6	-45.6	15.9	0.00e+00	0	58	0	4082106368	51	4125
2026-01-02 16:33:37.43	327.61	10.06	-44.7	-45.6	15.9	0.00e+00	0	58	0	4089446400	51	4141
2026-01-02 16:33:38.42	327.73	10.00	-44.6	-45.6	16.0	0.00e+00	0	58	0	4096786432	51	4100
2026-01-02 16:33:39.41	327.86	9.94	-44.6	-45.5	16.0	0.00e+00	0	58	0	4104126464	51	4081
2026-01-02 16:33:40.40	327.98	9.88	-44.6	-45.6	15.9	0.00e+00	0	58	0	4111466496	51	4107
2026-01-02 16:33:41.39	328.11	9.82	-44.7	-45.6	15.9	0.00e+00	0	58	0	4117757952	51	4130
2026-01-02 16:33:42.37	328.23	9.76	-44.6	-45.6	15.9	0.00e+00	0	58	0	4125097984	51	4112
2026-01-02 16:33:43.37	328.35	9.70	-44.7	-45.7	15.8	0.00e+00	0	58	0	4132438016	51	4155
2026-01-02 16:33:44.35	328.47	9.64	-44.5	-45.4	16.2	0.00e+00	0	58	0	4139778048	51	4006
2026-01-02 16:33:45.34	328.60	9.58	-44.3	-45.1	16.4	0.00e+00	0	58	0	4147118080	51	3899
2026-01-02 16:33:46.33	328.72	9.52	-44.1	-45.0	16.5	0.00e+00	0	58	0	4154458112	51	3851
2026-01-02 16:33:47.31	328.84	9.46	-44.1	-45.0	16.5	0.00e+00	0	58	0	4160749568	51	3848
2026-01-02 16:33:48.30	328.96	9.40	-44.1	-45.0	16.5	0.00e+00	0	58	0	4168089600	51	3827
2026-01-02 16:33:49.29	329.08	9.34	-44.1	-44.9	16.5	0.00e+00	0	58	0	4175429632	51	3824
2026-01-02 16:33:50.28	329.20	9.28	-44.2	-45.1	16.4	0.00e+00	0	58	0	4182769664	51	3873
2026-01-02 16:33:51.27	329.32	9.22	-44.3	-45.2	16.3	0.00e+00	0	58	0	4189061120	51	3924
2026-01-02 16:33:52.25	329.44	9.16	-44.4	-45.4	16.1	0.00e+00	0	58	0	4196401152	51	4012
2026-01-02 16:33:53.24	329.56	9.10	-44.3	-45.3	16.2	0.00e+00	0	58	0	4203741184	51	3960
2026-01-02 16:33:54.23	329.67	9.04	-44.3	-45.2	16.3	0.00e+00	0	58	0	4211081216	51	3927
2026-01-02 16:33:55.22	329.79	8.98	-44.3	-45.2	16.2	0.00e+00	0	58	0	4217372672	51	3948
2026-01-02 16:33:56.21	329.91	8.92	-44.4	-45.3	16.1	0.00e+00	0	58	0	4224712704	51	3994
2026-01-02 16:33:57.20	330.03	8.86	-44.6	-45.5	15.9	0.00e+00	0	58	0	4232052736	51	4073
2026-01-02 16:33:58.20	330.14	8.80	-44.3	-45.2	16.2	0.00e+00	0	58	0	4239392768	51	3935
2026-01-02 16:33:59.19	330.26	8.74	-44.1	-45.0	16.4	0.00e+00	0	58	0	4246732800	51	3847
2026-01-02 16:34:00.17	330.37	8.68	-44.1	-45.0	16.4	0.00e+00	0	58	0	4254072832	51	3829
2026-01-02 16:34:01.16	330.49	8.63	-44.1	-45.0	16.4	0.00e+00	0	58	0	4260364288	51	3848
2026-01-02 16:34:02.15	330.60	8.57	-44.3	-45.2	16.3	0.00e+00	0	58	0	4267704320	51	3922
2026-01-02 16:34:03.14	330.72	8.51	-44.4	-45.3	16.0	0.00e+00	0	58	0	4275044352	51	3993
2026-01-02 16:34:04.13	330.83	8.45	-44.2	-45.1	16.3	0.00e+00	0	58	0	4282384384	51	3911
2026-01-02 16:34:05.13	330.95	8.39	-44.2	-45.1	16.3	0.00e+00	0	58	0	4289724416	51	3899
2026-01-02 16:34:06.12	331.06	8.33	-44.3	-45.2	16.2	0.00e+00	0	58	0	4296015872	51	3947
2026-01-02 16:34:07.10	331.17	8.27	-44.4	-45.3	16.1	0.00e+00	0	58	0	4303355904	51	3975
2026-01-02 16:34:08.10	331.28	8.21	-44.3	-45.2	16.2	0.00e+00	0	58	0	4310695936	51	3926
2026-01-02 16:34:09.09	331.39	8.15	-44.2	-45.2	16.2	0.00e+00	0	58	0	4318035968	51	3919
2026-01-02 16:34:10.08	331.50	8.09	-44.4	-45.3	16.1	0.00e+00	0	58	0	4325376000	51	3971
2026-01-02 16:34:11.07	331.62	8.03	-44.4	-45.3	16.1	0.00e+00	0	58	0	4332716032	51	3967
2026-01-02 16:34:12.06	331.73	7.97	-44.5	-45.4	15.9	0.00e+00	0	58	0	4339007488	51	4034
2026-01-02 16:34:13.05	331.83	7.91	-44.4	-45.3	16.0	0.00e+00	0	58	0	4346347520	51	3989
2026-01-02 16:34:14.05	331.95	7.86	-44.6	-45.6	15.8	0.00e+00	0	58	0	4353687552	51	4126
2026-01-02 16:34:15.02	332.05	7.80	-44.9	-45.9	15.5	0.00e+00	0	58	0	4361027584	51	4266
2026-01-02 16:34:16.01	332.16	7.74	-44.7	-45.6	15.7	0.00e+00	0	58	0	4368367616	51	4145
2026-01-02 16:34:17.00	332.27	7.68	-44.5	-45.5	15.8	0.00e+00	0	58	0	4375707648	51	4086
2026-01-02 16:34:17.99	332.38	7.62	-44.8	-45.8	15.5	1.10e-06	0	58	0	4381999104	51	4218
2026-01-02 16:34:18.97	332.48	7.56	-44.7	-45.7	15.6	0.00e+00	0	58	0	4389339136	51	4158
2026-01-02 16:34:19.97	332.59	7.50	-44.9	-45.9	15.3	0.00e+00	0	58	0	4396679168	51	4290
2026-01-02 16:34:20.95	332.70	7.45	-44.9	-45.9	15.4	0.00e+00	0	58	0	4404019200	51	4269
2026-01-02 16:34:21.94	332.80	7.39	-44.9	-45.9	15.4	0.00e+00	0	58	0	4411359232	51	4263
2026-01-02 16:34:22.93	332.91	7.33	-44.9	-46.0	15.3	0.00e+00	0	58	0	4417650688	51	4319
2026-01-02 16:34:23.93	333.01	7.27	-44.8	-45.8	15.5	0.00e+00	0	58	0	4424990720	51	4236
2026-01-02 16:34:24.92	333.12	7.21	-44.8	-45.8	15.4	0.00e+00	0	58	0	4432330752	51	4235
2026-01-02 16:34:25.92	333.22	7.15	-44.9	-46.0	15.2	0.00e+00	0	58	0	4439670784	51	4295
2026-01-02 16:34:26.91	333.33	7.10	-45.0	-46.0	15.3	0.00e+00	0	58	0	4447010816	51	4315
2026-01-02 16:34:27.90	333.43	7.04	-45.2	-46.3	15.0	0.00e+00	0	58	0	4454350848	51	4454
2026-01-02 16:34:28.89	333.53	6.98	-44.9	-46.0	15.2	0.00e+00	0	58	0	4460642304	52	4064
2026-01-02 16:34:29.87	333.64	6.92	-44.7	-45.7	15.4	0.00e+00	0	58	0	4467982336	52	3951
2026-01-02 16:34:30.87	333.74	6.86	-44.7	-45.6	15.5	0.00e+00	0	58	0	4475322368	52	3912
2026-01-02 16:34:31.85	333.84	6.81	-44.6	-45.6	15.6	0.00e+00	0	58	0	4482662400	52	3877
2026-01-02 16:34:32.84	333.94	6.75	-44.6	-45.6	15.5	0.00e+00	0	58	0	4490002432	52	3893
2026-01-02 16:34:33.83	334.04	6.69	-44.8	-45.8	15.3	0.00e+00	0	58	0	4496293888	52	3982
2026-01-02 16:34:34.82	334.14	6.63	-44.8	-45.8	15.3	0.00e+00	0	58	0	4503633920	52	3975
2026-01-02 16:34:35.81	334.24	6.58	-44.8	-45.9	15.2	1.10e-06	0	58	0	4510973952	52	4025
2026-01-02 16:34:36.80	334.34	6.52	-44.7	-45.7	15.4	0.00e+00	0	58	0	4518313984	52	3945
2026-01-02 16:34:37.79	334.44	6.46	-44.5	-45.5	15.6	0.00e+00	0	58	0	4525654016	52	3832
2026-01-02 16:34:38.77	334.54	6.40	-44.7	-45.8	15.3	0.00e+00	0	58	0	4531945472	51	4202
2026-01-02 16:34:39.76	334.64	6.35	-44.7	-45.8	15.4	0.00e+00	0	58	0	4539285504	51	4206
2026-01-02 16:34:40.74	334.74	6.29	-44.8	-45.9	15.3	0.00e+00	0	58	0	4546625536	51	4254
2026-01-02 16:34:41.73	334.84	6.23	-44.8	-45.8	15.3	0.00e+00	0	58	0	4553965568	51	4237
2026-01-02 16:34:42.71	334.93	6.17	-44.8	-45.8	15.3	0.00e+00	0	58	0	4560257024	51	4214
2026-01-02 16:34:43.70	335.03	6.12	-45.0	-46.1	14.9	0.00e+00	0	58	0	4567597056	51	4382
2026-01-02 16:34:44.69	335.13	6.06	-44.8	-45.8	15.2	0.00e+00	0	58	0	4574937088	51	4237
2026-01-02 16:34:45.68	335.23	6.00	-44.8	-45.8	15.3	0.00e+00	0	58	0	4582277120	51	4232
2026-01-02 16:34:46.66	335.32	5.95	-45.0	-46.1	14.9	0.00e+00	0	58	0	4589617152	51	4369
2026-01-02 16:34:47.65	335.42	5.89	-45.0	-46.0	15.0	0.00e+00	0	58	0	4596957184	51	4321
2026-01-02 16:34:48.65	335.51	5.83	-45.0	-46.0	15.0	0.00e+00	0	58	0	4603248640	51	4336
2026-01-02 16:34:49.64	335.61	5.78	-45.0	-46.1	15.0	0.00e+00	0	58	0	4610588672	51	4343
2026-01-02 16:34:50.63	335.71	5.72	-45.0	-46.1	14.9	1.10e-06	0	58	0	4617928704	51	4352
2026-01-02 16:34:51.63	335.80	5.66	-45.2	-46.3	14.6	1.10e-06	0	58	0	4625268736	51	4489
