passes_logs/2026/01/02/R3.0SM8_Murmansk_STILSPACE/R3.0SM8_Murmansk_STILSPACE__20260102_231652_FENGYUN_3D_rec.log

#Pass ID: 20260102_231652_FENGYUN 3D
#Satellite: FENGYUN 3D
#Configuration: FENGYUN 3D
#almurnet v.1.7.20240730
#Start time: 2026-01-02 23:16:52

#Version: 2.2.20231116
#Station: R3.0SM8_Murmansk_STILSPACE
#Location: 33.092731 lon 68.902999 lat
#TLE: 1 43010U 17072A   26002.31768531  .00000715  00000+0  35975-3 0  9993
#TLE: 2 43010  98.9910 333.9388 0001871 131.0716 229.0622 14.19693418421454

#Time	Az	El	Level	Level2	SNR	BER	BlckErr	Temp	State	Recorded	gain1	gain2
2026-01-02 23:16:52.80	21.70	3.03	-53.3	-64.1	3.8	8.46e-01	0	46	0	0	68	13110
2026-01-02 23:16:53.79	21.80	3.07	-53.2	-64.0	3.8	8.47e-01	0	46	104	0	69	12291
2026-01-02 23:16:54.78	21.91	3.11	-53.2	-64.0	3.8	8.46e-01	0	46	104	0	69	12315
2026-01-02 23:16:55.76	22.01	3.16	-53.2	-64.0	3.8	8.44e-01	0	46	104	0	69	12291
2026-01-02 23:16:56.75	22.12	3.20	-53.2	-64.0	3.8	8.46e-01	0	46	104	0	69	12296
2026-01-02 23:16:57.75	22.23	3.24	-53.2	-64.0	3.8	8.46e-01	0	47	104	0	69	12279
2026-01-02 23:16:58.74	22.34	3.28	-53.2	-63.9	3.8	8.44e-01	0	46	104	0	69	12224
2026-01-02 23:16:59.73	22.45	3.33	-53.2	-64.0	3.8	8.46e-01	0	47	104	0	69	12250
2026-01-02 23:17:00.72	22.55	3.37	-53.2	-64.0	3.8	8.47e-01	0	47	104	0	69	12241
2026-01-02 23:17:01.72	22.66	3.41	-53.1	-63.9	3.8	8.47e-01	0	47	104	0	69	12141
2026-01-02 23:17:02.71	22.77	3.45	-53.1	-63.9	3.8	8.46e-01	0	47	104	0	68	12812
2026-01-02 23:17:03.70	22.88	3.50	-53.1	-63.9	3.8	8.45e-01	0	47	104	0	68	12832
2026-01-02 23:17:04.69	22.99	3.54	-53.1	-63.8	3.8	8.46e-01	0	47	104	0	68	12793
2026-01-02 23:17:05.68	23.10	3.58	-53.1	-63.8	3.8	8.46e-01	0	47	104	0	68	12717
2026-01-02 23:17:06.67	23.21	3.62	-53.0	-63.8	3.8	8.46e-01	0	47	104	0	68	12717
2026-01-02 23:17:07.66	23.32	3.67	-52.9	-63.7	3.8	8.47e-01	0	47	104	0	68	12628
2026-01-02 23:17:08.65	23.43	3.71	-52.8	-63.6	3.8	8.46e-01	0	47	104	0	68	12513
2026-01-02 23:17:09.63	23.54	3.75	-52.7	-63.6	3.8	8.47e-01	0	47	104	0	68	12377
2026-01-02 23:17:10.62	23.65	3.79	-52.5	-63.4	3.8	8.47e-01	0	48	104	0	68	12169
2026-01-02 23:17:11.61	23.76	3.84	-52.4	-63.1	3.8	8.45e-01	0	47	104	0	67	12405
2026-01-02 23:17:12.60	23.87	3.88	-52.1	-62.7	3.8	8.46e-01	0	47	104	0	67	11915
2026-01-02 23:17:13.59	23.99	3.92	-52.1	-62.7	3.8	8.46e-01	0	48	104	0	66	12615
2026-01-02 23:17:14.57	24.10	3.96	-52.1	-62.8	3.8	8.46e-01	0	48	104	0	66	12668
2026-01-02 23:17:15.56	24.21	4.00	-52.1	-62.8	3.8	8.46e-01	0	48	104	0	66	12712
2026-01-02 23:17:16.56	24.32	4.05	-52.1	-62.8	3.8	8.45e-01	0	48	104	0	66	12735
2026-01-02 23:17:17.54	24.44	4.09	-52.1	-62.8	3.8	8.47e-01	0	48	104	0	66	12794
2026-01-02 23:17:18.54	24.55	4.13	-52.1	-62.9	3.8	8.47e-01	0	48	104	0	66	12819
2026-01-02 23:17:19.52	24.66	4.17	-52.1	-62.8	3.8	8.47e-01	0	48	104	0	66	12768
2026-01-02 23:17:20.52	24.78	4.22	-52.1	-62.8	3.8	8.46e-01	0	48	104	0	66	12744
2026-01-02 23:17:21.51	24.89	4.26	-52.0	-62.7	3.8	8.46e-01	0	48	104	0	66	12584
2026-01-02 23:17:22.50	25.01	4.30	-52.1	-62.7	3.8	8.48e-01	0	48	104	0	66	12527
2026-01-02 23:17:23.48	25.12	4.34	-52.1	-62.5	3.8	8.46e-01	0	48	104	0	66	12313
2026-01-02 23:17:24.48	25.24	4.38	-51.9	-62.5	3.8	8.45e-01	0	48	104	0	66	12330
2026-01-02 23:17:25.46	25.35	4.43	-51.9	-62.6	3.8	8.43e-01	0	49	104	0	66	12429
2026-01-02 23:17:26.46	25.47	4.47	-52.0	-62.7	3.8	8.46e-01	0	49	104	0	66	12551
2026-01-02 23:17:27.46	25.59	4.51	-52.0	-62.7	3.8	8.46e-01	0	49	104	0	65	13350
2026-01-02 23:17:28.44	25.71	4.55	-52.0	-62.6	3.8	8.46e-01	0	49	104	0	65	13152
2026-01-02 23:17:29.43	25.82	4.59	-51.9	-62.1	3.8	8.45e-01	0	48	104	0	65	12473
2026-01-02 23:17:30.41	25.94	4.64	-51.8	-61.1	3.8	8.46e-01	0	49	104	0	65	11099
2026-01-02 23:17:31.40	26.06	4.68	-51.7	-59.6	4.1	8.45e-01	0	49	104	0	65	9325
2026-01-02 23:17:32.39	26.17	4.72	-51.3	-58.0	4.6	8.22e-01	0	49	0	0	65	7803
2026-01-02 23:17:33.38	26.29	4.76	-50.9	-56.3	5.6	7.36e-01	0	49	0	0	64	6764
2026-01-02 23:17:34.37	26.41	4.80	-50.4	-54.6	7.0	2.07e-01	0	49	0	5242880	63	5883
2026-01-02 23:17:35.36	26.53	4.84	-49.6	-53.0	8.6	6.45e-02	0	49	0	10485760	62	5167
2026-01-02 23:17:36.35	26.65	4.89	-48.8	-51.4	10.2	1.65e-02	0	49	0	15728640	60	4854
2026-01-02 23:17:37.34	26.77	4.93	-48.1	-50.3	11.5	1.74e-03	0	49	0	22020096	59	4510
2026-01-02 23:17:38.33	26.89	4.97	-47.4	-49.3	12.5	3.55e-04	0	49	0	27262976	58	4266
2026-01-02 23:17:39.32	27.01	5.01	-46.8	-48.5	13.4	3.31e-05	0	49	0	32505856	56	4350
2026-01-02 23:17:40.31	27.13	5.05	-46.2	-47.7	14.1	9.10e-06	0	49	0	38797312	55	4212
2026-01-02 23:17:41.30	27.25	5.09	-46.2	-47.8	14.0	2.20e-06	0	49	0	44040192	55	4253
2026-01-02 23:17:42.29	27.37	5.14	-46.3	-47.9	13.9	1.02e-05	0	49	0	49283072	55	4314
2026-01-02 23:17:43.27	27.49	5.18	-46.2	-47.7	14.1	2.20e-06	0	50	0	54525952	55	4205
2026-01-02 23:17:44.25	27.61	5.22	-46.0	-47.5	14.3	3.40e-06	0	50	0	60817408	55	4100
2026-01-02 23:17:45.24	27.74	5.26	-45.9	-47.3	14.4	3.40e-06	0	49	0	66060288	55	4048
2026-01-02 23:17:46.23	27.86	5.30	-45.9	-47.3	14.5	1.10e-06	0	50	0	71303168	55	4042
2026-01-02 23:17:47.22	27.98	5.34	-45.9	-47.3	14.5	0.00e+00	0	50	0	77594624	54	4250
2026-01-02 23:17:48.21	28.11	5.38	-45.8	-47.2	14.6	2.20e-06	0	50	0	82837504	54	4229
2026-01-02 23:17:49.20	28.23	5.42	-45.8	-47.2	14.6	2.20e-06	0	50	0	88080384	54	4209
2026-01-02 23:17:50.19	28.35	5.46	-45.8	-47.2	14.7	0.00e+00	0	50	0	94371840	54	4207
2026-01-02 23:17:51.18	28.48	5.51	-45.8	-47.2	14.7	0.00e+00	0	50	0	99614720	54	4217
2026-01-02 23:17:52.16	28.60	5.55	-45.8	-47.1	14.7	1.10e-06	0	50	0	104857600	54	4167
2026-01-02 23:17:53.15	28.73	5.59	-45.9	-47.3	14.6	0.00e+00	0	50	0	111149056	54	4272
2026-01-02 23:17:54.14	28.85	5.63	-45.7	-47.0	14.9	0.00e+00	0	50	0	116391936	54	4119
2026-01-02 23:17:55.13	28.98	5.67	-45.7	-47.0	14.9	0.00e+00	0	50	0	121634816	54	4129
2026-01-02 23:17:56.13	29.11	5.71	-45.8	-47.1	14.8	0.00e+00	0	50	0	126877696	54	4179
2026-01-02 23:17:57.12	29.23	5.75	-45.9	-47.2	14.6	0.00e+00	0	50	0	133169152	54	4221
2026-01-02 23:17:58.11	29.36	5.79	-45.7	-46.9	14.9	0.00e+00	0	50	0	138412032	54	4097
2026-01-02 23:17:59.10	29.49	5.83	-45.6	-46.8	15.1	0.00e+00	0	50	0	144703488	54	4043
2026-01-02 23:18:00.10	29.61	5.87	-45.5	-46.7	15.1	0.00e+00	0	50	0	149946368	54	3998
2026-01-02 23:18:01.09	29.74	5.91	-45.5	-46.7	15.2	0.00e+00	0	50	0	155189248	54	3996
2026-01-02 23:18:02.07	29.87	5.95	-45.4	-46.6	15.2	0.00e+00	0	50	0	160432128	53	4185
2026-01-02 23:18:03.06	30.00	6.00	-45.4	-46.6	15.3	0.00e+00	0	50	0	166723584	53	4173
2026-01-02 23:18:04.05	30.13	6.04	-45.4	-46.6	15.3	0.00e+00	0	50	0	171966464	53	4170
2026-01-02 23:18:05.04	30.25	6.08	-45.5	-46.7	15.2	0.00e+00	0	50	0	177209344	53	4221
2026-01-02 23:18:06.02	30.38	6.12	-45.4	-46.5	15.3	0.00e+00	0	51	0	183500800	53	4142
2026-01-02 23:18:07.01	30.51	6.16	-45.3	-46.5	15.4	0.00e+00	0	51	0	188743680	53	4111
2026-01-02 23:18:08.00	30.64	6.20	-45.3	-46.5	15.4	0.00e+00	0	51	0	193986560	53	4129
2026-01-02 23:18:08.99	30.77	6.24	-45.3	-46.4	15.5	0.00e+00	0	51	0	199229440	53	4089
2026-01-02 23:18:09.99	30.91	6.28	-45.4	-46.5	15.4	0.00e+00	0	51	0	205520896	53	4141
2026-01-02 23:18:10.98	31.04	6.32	-45.3	-46.5	15.5	0.00e+00	0	51	0	210763776	53	4115
2026-01-02 23:18:11.97	31.17	6.36	-45.3	-46.5	15.5	0.00e+00	0	51	0	216006656	53	4120
2026-01-02 23:18:12.96	31.30	6.40	-45.5	-46.7	15.3	0.00e+00	0	51	0	222298112	53	4211
2026-01-02 23:18:13.96	31.43	6.44	-45.6	-46.9	15.1	0.00e+00	0	51	0	227540992	53	4315
2026-01-02 23:18:14.93	31.56	6.48	-45.7	-46.9	15.0	0.00e+00	0	51	0	232783872	53	4324
2026-01-02 23:18:15.93	31.70	6.52	-45.6	-46.8	15.2	0.00e+00	0	51	0	239075328	53	4274
2026-01-02 23:18:16.92	31.83	6.56	-45.7	-46.9	15.0	0.00e+00	0	51	0	244318208	53	4318
2026-01-02 23:18:17.91	31.96	6.60	-45.5	-46.7	15.2	0.00e+00	0	51	0	249561088	53	4233
2026-01-02 23:18:18.90	32.10	6.63	-45.5	-46.7	15.3	0.00e+00	0	51	0	255852544	53	4225
2026-01-02 23:18:19.88	32.23	6.67	-45.5	-46.7	15.3	0.00e+00	0	51	0	261095424	53	4214
2026-01-02 23:18:20.86	32.37	6.71	-45.7	-46.9	15.0	0.00e+00	0	51	0	266338304	53	4333
2026-01-02 23:18:21.85	32.50	6.75	-45.6	-46.9	15.1	0.00e+00	0	51	0	272629760	53	4292
2026-01-02 23:18:22.83	32.63	6.79	-45.5	-46.7	15.3	0.00e+00	0	51	0	277872640	53	4212
2026-01-02 23:18:23.82	32.77	6.83	-45.5	-46.7	15.3	0.00e+00	0	51	0	283115520	53	4241
2026-01-02 23:18:24.82	32.91	6.87	-45.7	-47.0	15.0	0.00e+00	0	51	0	288358400	53	4366
2026-01-02 23:18:25.80	33.04	6.91	-45.5	-46.8	15.2	0.00e+00	0	51	0	294649856	53	4253
2026-01-02 23:18:26.79	33.18	6.95	-45.4	-46.6	15.4	0.00e+00	0	51	0	299892736	53	4174
2026-01-02 23:18:27.78	33.32	6.99	-45.2	-46.4	15.6	0.00e+00	0	51	0	305135616	53	4058
2026-01-02 23:18:28.77	33.45	7.02	-45.2	-46.3	15.8	0.00e+00	0	52	0	311427072	53	4018
2026-01-02 23:18:29.74	33.59	7.06	-45.1	-46.2	15.8	0.00e+00	0	51	0	316669952	53	3976
2026-01-02 23:18:30.74	33.73	7.10	-45.0	-46.1	15.9	0.00e+00	0	51	0	321912832	53	3957
2026-01-02 23:18:31.73	33.87	7.14	-45.1	-46.2	15.8	0.00e+00	0	52	0	327155712	53	3983
2026-01-02 23:18:32.72	34.01	7.18	-45.1	-46.2	15.9	0.00e+00	0	52	0	333447168	53	3969
2026-01-02 23:18:33.72	34.15	7.22	-45.1	-46.2	15.8	0.00e+00	0	52	0	338690048	53	3989
2026-01-02 23:18:34.71	34.29	7.26	-45.3	-46.5	15.6	0.00e+00	0	52	0	343932928	53	4105
2026-01-02 23:18:35.70	34.43	7.29	-45.3	-46.4	15.7	0.00e+00	0	52	0	350224384	53	4087
2026-01-02 23:18:36.69	34.57	7.33	-45.3	-46.4	15.6	0.00e+00	0	52	0	355467264	53	4093
2026-01-02 23:18:37.68	34.71	7.37	-45.4	-46.5	15.6	0.00e+00	0	52	0	360710144	53	4129
2026-01-02 23:18:38.67	34.85	7.41	-45.5	-46.7	15.5	0.00e+00	0	52	0	367001600	53	4196
2026-01-02 23:18:39.66	34.99	7.45	-45.5	-46.7	15.4	1.10e-06	0	52	0	372244480	53	4223
2026-01-02 23:18:40.65	35.13	7.48	-45.6	-46.8	15.3	0.00e+00	0	52	0	377487360	53	4248
2026-01-02 23:18:41.64	35.27	7.52	-45.6	-46.9	15.2	0.00e+00	0	52	0	383778816	53	4297
2026-01-02 23:18:42.63	35.42	7.56	-45.6	-46.8	15.3	0.00e+00	0	52	0	389021696	53	4273
2026-01-02 23:18:43.62	35.56	7.60	-45.7	-47.0	15.2	0.00e+00	0	52	0	394264576	53	4349
2026-01-02 23:18:44.61	35.70	7.63	-45.7	-46.9	15.2	0.00e+00	0	52	0	400556032	53	4319
2026-01-02 23:18:45.60	35.84	7.67	-45.4	-46.6	15.5	0.00e+00	0	52	0	405798912	53	4163
2026-01-02 23:18:46.59	35.99	7.71	-45.2	-46.3	15.8	0.00e+00	0	52	0	411041792	53	4050
2026-01-02 23:18:47.57	36.13	7.74	-45.1	-46.2	15.9	0.00e+00	0	52	0	416284672	53	3968
2026-01-02 23:18:48.56	36.28	7.78	-45.1	-46.1	16.0	0.00e+00	0	52	0	422576128	53	3958
2026-01-02 23:18:49.55	36.42	7.82	-45.0	-46.0	16.1	0.00e+00	0	52	0	427819008	53	3909
2026-01-02 23:18:50.54	36.57	7.86	-44.9	-46.0	16.2	0.00e+00	0	52	0	433061888	53	3873
2026-01-02 23:18:51.53	36.71	7.89	-44.9	-46.0	16.2	0.00e+00	0	52	0	439353344	52	4108
2026-01-02 23:18:52.51	36.86	7.93	-45.0	-46.1	16.0	0.00e+00	0	52	0	444596224	52	4179
2026-01-02 23:18:53.50	37.00	7.97	-45.1	-46.1	16.0	0.00e+00	0	52	0	449839104	52	4191
2026-01-02 23:18:54.49	37.15	8.00	-45.1	-46.1	16.0	0.00e+00	0	52	0	455081984	52	4187
2026-01-02 23:18:55.47	37.29	8.04	-45.1	-46.2	16.0	0.00e+00	0	52	0	461373440	52	4203
2026-01-02 23:18:56.47	37.44	8.07	-45.2	-46.3	15.9	0.00e+00	0	52	0	466616320	52	4257
2026-01-02 23:18:57.46	37.59	8.11	-45.2	-46.3	15.8	0.00e+00	0	52	0	472907776	52	4284
2026-01-02 23:18:58.45	37.74	8.15	-45.2	-46.3	15.8	0.00e+00	0	52	0	478150656	52	4275
2026-01-02 23:18:59.43	37.89	8.18	-45.2	-46.4	15.8	0.00e+00	0	52	0	483393536	52	4302
2026-01-02 23:19:00.41	38.03	8.22	-45.1	-46.2	16.0	0.00e+00	0	52	0	488636416	52	4216
2026-01-02 23:19:01.40	38.18	8.25	-45.1	-46.2	16.0	0.00e+00	0	52	0	494927872	52	4220
2026-01-02 23:19:02.38	38.33	8.29	-45.1	-46.3	15.9	0.00e+00	0	52	0	500170752	52	4245
2026-01-02 23:19:03.37	38.48	8.32	-45.2	-46.4	15.8	0.00e+00	0	53	0	505413632	52	4296
2026-01-02 23:19:04.37	38.63	8.36	-45.3	-46.4	15.8	0.00e+00	0	52	0	511705088	52	4314
2026-01-02 23:19:05.36	38.78	8.39	-45.1	-46.1	16.0	0.00e+00	0	52	0	516947968	52	4187
2026-01-02 23:19:06.35	38.93	8.43	-45.0	-46.0	16.1	0.00e+00	0	52	0	522190848	52	4145
2026-01-02 23:19:07.34	39.09	8.46	-45.0	-46.1	16.1	0.00e+00	0	53	0	527433728	52	4162
2026-01-02 23:19:08.32	39.24	8.50	-45.1	-46.1	16.0	0.00e+00	0	52	0	533725184	52	4181
2026-01-02 23:19:09.31	39.39	8.53	-45.2	-46.3	15.9	0.00e+00	0	53	0	538968064	52	4279
2026-01-02 23:19:10.31	39.54	8.57	-45.1	-46.2	16.0	0.00e+00	0	53	0	544210944	52	4236
2026-01-02 23:19:11.29	39.69	8.60	-45.2	-46.4	15.8	0.00e+00	0	53	0	550502400	52	4312
2026-01-02 23:19:12.28	39.85	8.64	-45.1	-46.2	16.0	0.00e+00	0	53	0	555745280	52	4214
2026-01-02 23:19:13.27	40.00	8.67	-45.0	-46.0	16.1	0.00e+00	0	53	0	560988160	52	4134
2026-01-02 23:19:14.26	40.15	8.70	-44.8	-45.9	16.3	0.00e+00	0	53	0	567279616	52	4066
2026-01-02 23:19:15.25	40.31	8.74	-44.8	-45.8	16.4	0.00e+00	0	53	0	572522496	52	4033
2026-01-02 23:19:16.24	40.46	8.77	-44.8	-45.8	16.4	0.00e+00	0	53	0	577765376	52	4037
2026-01-02 23:19:17.23	40.62	8.81	-44.6	-45.6	16.6	0.00e+00	0	53	0	583008256	52	3943
2026-01-02 23:19:18.22	40.77	8.84	-44.6	-45.6	16.6	0.00e+00	0	53	0	589299712	52	3950
2026-01-02 23:19:19.21	40.93	8.87	-44.7	-45.7	16.5	0.00e+00	0	53	0	594542592	52	3996
2026-01-02 23:19:20.20	41.08	8.91	-44.6	-45.5	16.7	0.00e+00	0	53	0	600834048	52	3903
2026-01-02 23:19:21.19	41.24	8.94	-44.5	-45.4	16.8	0.00e+00	0	53	0	606076928	52	3866
2026-01-02 23:19:22.18	41.39	8.97	-44.6	-45.6	16.6	0.00e+00	0	53	0	611319808	52	3940
2026-01-02 23:19:23.18	41.55	9.00	-44.8	-45.8	16.4	0.00e+00	0	53	0	616562688	52	4024
2026-01-02 23:19:24.17	41.71	9.04	-44.6	-45.6	16.6	0.00e+00	0	53	0	622854144	52	3928
2026-01-02 23:19:25.17	41.87	9.07	-44.6	-45.6	16.6	0.00e+00	0	53	0	628097024	52	3924
2026-01-02 23:19:26.16	42.03	9.10	-44.7	-45.6	16.6	0.00e+00	0	53	0	633339904	52	3957
2026-01-02 23:19:27.15	42.19	9.14	-44.7	-45.7	16.6	0.00e+00	0	53	0	639631360	52	3960
2026-01-02 23:19:28.14	42.34	9.17	-44.7	-45.8	16.5	0.00e+00	0	53	0	644874240	52	4016
2026-01-02 23:19:29.11	42.50	9.20	-44.9	-45.9	16.3	0.00e+00	0	53	0	650117120	52	4073
2026-01-02 23:19:30.10	42.66	9.23	-44.7	-45.8	16.5	0.00e+00	0	54	0	656408576	52	4005
2026-01-02 23:19:31.09	42.82	9.26	-44.6	-45.6	16.6	0.00e+00	0	53	0	661651456	52	3956
2026-01-02 23:19:32.07	42.98	9.29	-44.6	-45.6	16.7	0.00e+00	0	53	0	666894336	52	3926
2026-01-02 23:19:33.06	43.14	9.32	-44.5	-45.5	16.8	0.00e+00	0	53	0	673185792	52	3880
2026-01-02 23:19:34.04	43.30	9.36	-44.6	-45.6	16.7	0.00e+00	0	54	0	678428672	52	3921
2026-01-02 23:19:35.04	43.46	9.39	-44.7	-45.8	16.5	0.00e+00	0	53	0	683671552	52	4006
2026-01-02 23:19:36.03	43.62	9.42	-44.6	-45.6	16.7	0.00e+00	0	54	0	688914432	52	3934
2026-01-02 23:19:37.02	43.78	9.45	-44.7	-45.7	16.5	0.00e+00	0	54	0	695205888	52	4000
2026-01-02 23:19:38.01	43.94	9.48	-45.0	-46.0	16.3	0.00e+00	0	53	0	700448768	52	4141
2026-01-02 23:19:39.00	44.10	9.51	-44.8	-45.8	16.4	0.00e+00	0	53	0	705691648	52	4040
2026-01-02 23:19:39.99	44.27	9.54	-45.1	-46.1	16.2	0.00e+00	0	54	0	711983104	52	4188
2026-01-02 23:19:40.99	44.43	9.57	-45.0	-46.0	16.3	0.00e+00	0	53	0	717225984	52	4116
2026-01-02 23:19:41.97	44.59	9.60	-45.2	-46.3	16.0	0.00e+00	0	54	0	722468864	52	4253
2026-01-02 23:19:42.96	44.76	9.63	-45.3	-46.5	15.8	0.00e+00	0	54	0	728760320	52	4345
2026-01-02 23:19:43.95	44.92	9.66	-45.2	-46.3	16.0	0.00e+00	0	54	0	734003200	52	4244
2026-01-02 23:19:44.94	45.08	9.69	-45.1	-46.2	16.1	0.00e+00	0	54	0	739246080	52	4196
2026-01-02 23:19:45.93	45.25	9.72	-45.1	-46.1	16.2	0.00e+00	0	54	0	744488960	52	4184
2026-01-02 23:19:46.91	45.41	9.75	-45.2	-46.3	16.0	0.00e+00	0	54	0	750780416	52	4248
2026-01-02 23:19:47.91	45.58	9.78	-45.0	-46.1	16.2	0.00e+00	0	53	0	756023296	52	4159
2026-01-02 23:19:48.90	45.74	9.80	-45.0	-46.0	16.2	0.00e+00	0	54	0	761266176	52	4143
2026-01-02 23:19:49.89	45.91	9.83	-45.0	-46.1	16.2	0.00e+00	0	54	0	767557632	52	4176
2026-01-02 23:19:50.87	46.07	9.86	-45.3	-46.4	15.9	0.00e+00	0	54	0	772800512	52	4312
2026-01-02 23:19:51.86	46.24	9.89	-45.1	-46.2	16.1	0.00e+00	0	54	0	778043392	52	4238
2026-01-02 23:19:52.85	46.41	9.92	-44.9	-46.0	16.3	0.00e+00	0	54	0	784334848	52	4125
2026-01-02 23:19:53.84	46.57	9.95	-44.8	-45.9	16.4	0.00e+00	0	54	0	789577728	52	4063
2026-01-02 23:19:54.83	46.74	9.97	-44.7	-45.8	16.5	0.00e+00	0	54	0	794820608	52	4014
2026-01-02 23:19:55.82	46.91	10.00	-44.7	-45.7	16.6	0.00e+00	0	54	0	801112064	52	3985
2026-01-02 23:19:56.81	47.08	10.03	-44.7	-45.7	16.6	0.00e+00	0	54	0	806354944	52	3968
2026-01-02 23:19:57.81	47.25	10.06	-44.8	-45.8	16.6	0.00e+00	0	54	0	811597824	52	4015
2026-01-02 23:19:58.80	47.42	10.08	-44.9	-46.0	16.3	0.00e+00	0	54	0	817889280	52	4100
2026-01-02 23:19:59.78	47.58	10.11	-44.8	-45.8	16.5	0.00e+00	0	54	0	823132160	52	4011
2026-01-02 23:20:00.77	47.75	10.14	-44.5	-45.5	16.8	0.00e+00	0	54	0	828375040	52	3896
2026-01-02 23:20:01.76	47.92	10.16	-44.4	-45.4	16.9	0.00e+00	0	54	0	833617920	52	3848
2026-01-02 23:20:02.76	48.09	10.19	-44.6	-45.5	16.8	0.00e+00	0	54	0	839909376	52	3905
2026-01-02 23:20:03.74	48.26	10.21	-44.6	-45.6	16.7	0.00e+00	0	54	0	845152256	52	3935
2026-01-02 23:20:04.72	48.43	10.24	-44.7	-45.7	16.6	0.00e+00	0	54	0	850395136	52	3982
2026-01-02 23:20:05.71	48.60	10.27	-44.7	-45.7	16.6	0.00e+00	0	54	0	856686592	52	4001
2026-01-02 23:20:06.70	48.77	10.29	-44.7	-45.7	16.6	0.00e+00	0	54	0	861929472	52	3990
2026-01-02 23:20:07.69	48.94	10.32	-44.7	-45.7	16.6	0.00e+00	0	54	0	867172352	52	3978
2026-01-02 23:20:08.68	49.11	10.34	-44.9	-45.9	16.4	0.00e+00	0	54	0	872415232	52	4067
2026-01-02 23:20:09.67	49.29	10.37	-44.8	-45.8	16.5	0.00e+00	0	54	0	878706688	52	4050
2026-01-02 23:20:10.66	49.46	10.39	-44.8	-45.8	16.5	0.00e+00	0	54	0	883949568	52	4022
2026-01-02 23:20:11.65	49.63	10.41	-44.7	-45.8	16.6	0.00e+00	0	54	0	890241024	52	4011
2026-01-02 23:20:12.64	49.80	10.44	-44.8	-45.8	16.5	0.00e+00	0	54	0	895483904	52	4017
2026-01-02 23:20:13.63	49.98	10.46	-44.8	-45.9	16.5	0.00e+00	0	54	0	900726784	52	4054
2026-01-02 23:20:14.62	50.15	10.49	-44.8	-45.8	16.5	0.00e+00	0	54	0	905969664	52	4021
2026-01-02 23:20:15.61	50.32	10.51	-44.6	-45.6	16.7	0.00e+00	0	54	0	912261120	52	3950
2026-01-02 23:20:16.60	50.50	10.53	-44.6	-45.5	16.8	0.00e+00	0	54	0	917504000	52	3903
2026-01-02 23:20:17.58	50.67	10.56	-44.5	-45.5	16.8	0.00e+00	0	54	0	922746880	52	3872
2026-01-02 23:20:18.57	50.84	10.58	-44.6	-45.6	16.8	0.00e+00	0	54	0	929038336	52	3921
2026-01-02 23:20:19.56	51.02	10.60	-44.5	-45.5	16.9	0.00e+00	0	54	0	934281216	52	3882
2026-01-02 23:20:20.55	51.19	10.63	-44.6	-45.5	16.8	0.00e+00	0	54	0	939524096	52	3911
2026-01-02 23:20:21.53	51.36	10.65	-44.8	-45.8	16.5	0.00e+00	0	54	0	944766976	52	4051
2026-01-02 23:20:22.53	51.54	10.67	-44.9	-45.9	16.5	0.00e+00	0	55	0	951058432	52	4072
2026-01-02 23:20:23.51	51.72	10.69	-44.7	-45.6	16.7	0.00e+00	0	54	0	956301312	52	3938
2026-01-02 23:20:24.51	51.89	10.71	-44.4	-45.3	17.0	0.00e+00	0	54	0	962592768	52	3822
2026-01-02 23:20:25.50	52.07	10.73	-44.3	-45.2	17.3	0.00e+00	0	55	0	967835648	51	3972
2026-01-02 23:20:26.49	52.25	10.76	-44.1	-45.0	17.4	0.00e+00	0	55	0	973078528	51	3899
2026-01-02 23:20:27.47	52.42	10.78	-44.1	-45.0	17.4	0.00e+00	0	54	0	978321408	51	3874
2026-01-02 23:20:28.46	52.60	10.80	-44.1	-45.0	17.4	0.00e+00	0	55	0	984612864	51	3886
2026-01-02 23:20:29.44	52.77	10.82	-44.2	-45.1	17.3	0.00e+00	0	55	0	989855744	51	3928
2026-01-02 23:20:30.42	52.95	10.84	-44.4	-45.3	17.2	0.00e+00	0	54	0	995098624	51	4011
2026-01-02 23:20:31.40	53.12	10.86	-44.4	-45.3	17.1	0.00e+00	0	55	0	1001390080	51	4034
2026-01-02 23:20:32.39	53.30	10.88	-44.2	-45.0	17.4	0.00e+00	0	55	0	1006632960	51	3901
2026-01-02 23:20:33.38	53.48	10.90	-44.0	-44.9	17.5	0.00e+00	0	55	0	1011875840	51	3836
2026-01-02 23:20:34.37	53.66	10.92	-44.0	-44.8	17.6	0.00e+00	0	55	0	1017118720	51	3811
2026-01-02 23:20:35.37	53.84	10.94	-44.0	-44.9	17.5	0.00e+00	0	55	0	1023410176	51	3840
2026-01-02 23:20:36.35	54.01	10.96	-44.1	-45.0	17.4	0.00e+00	0	55	0	1028653056	51	3876
2026-01-02 23:20:37.33	54.19	10.97	-44.2	-45.0	17.4	0.00e+00	0	55	0	1033895936	51	3902
2026-01-02 23:20:38.32	54.37	10.99	-44.3	-45.2	17.2	0.00e+00	0	55	0	1040187392	51	3977
2026-01-02 23:20:39.31	54.55	11.01	-44.3	-45.2	17.2	0.00e+00	0	55	0	1045430272	51	3995
2026-01-02 23:20:40.29	54.73	11.03	-44.3	-45.2	17.2	0.00e+00	0	55	0	1050673152	51	4002
2026-01-02 23:20:41.28	54.91	11.05	-44.4	-45.3	17.1	0.00e+00	0	55	0	1055916032	51	4045
2026-01-02 23:20:42.26	55.09	11.06	-44.3	-45.2	17.2	0.00e+00	0	55	0	1062207488	51	3974
2026-01-02 23:20:43.24	55.26	11.08	-44.3	-45.2	17.2	0.00e+00	0	55	0	1067450368	51	3999
2026-01-02 23:20:44.24	55.45	11.10	-44.4	-45.3	17.1	0.00e+00	0	55	0	1072693248	51	4045
2026-01-02 23:20:45.24	55.63	11.12	-44.4	-45.3	17.2	0.00e+00	0	55	0	1078984704	51	4007
2026-01-02 23:20:46.22	55.81	11.13	-44.2	-45.1	17.3	0.00e+00	0	55	0	1084227584	51	3949
2026-01-02 23:20:47.21	55.99	11.15	-44.2	-45.1	17.3	0.00e+00	0	55	0	1089470464	51	3952
2026-01-02 23:20:48.20	56.17	11.17	-44.3	-45.2	17.2	0.00e+00	0	55	0	1095761920	51	3974
2026-01-02 23:20:49.19	56.35	11.18	-44.4	-45.3	17.2	0.00e+00	0	55	0	1101004800	51	4009
2026-01-02 23:20:50.18	56.53	11.20	-44.3	-45.2	17.3	0.00e+00	0	55	0	1106247680	51	3985
2026-01-02 23:20:51.17	56.72	11.21	-44.5	-45.4	17.0	0.00e+00	0	55	0	1111490560	51	4071
2026-01-02 23:20:52.16	56.90	11.23	-44.6	-45.6	16.9	0.00e+00	0	55	0	1117782016	51	4168
2026-01-02 23:20:53.15	57.08	11.24	-44.5	-45.4	17.1	0.00e+00	0	55	0	1123024896	51	4071
2026-01-02 23:20:54.14	57.26	11.26	-44.8	-45.8	16.7	0.00e+00	0	55	0	1128267776	51	4244
2026-01-02 23:20:55.12	57.44	11.27	-45.0	-46.0	16.4	0.00e+00	0	55	0	1134559232	51	4382
2026-01-02 23:20:56.11	57.63	11.29	-44.8	-45.8	16.7	0.00e+00	0	55	0	1139802112	51	4251
2026-01-02 23:20:57.10	57.81	11.30	-44.8	-45.8	16.7	0.00e+00	0	55	0	1145044992	51	4261
2026-01-02 23:20:58.09	57.99	11.31	-44.8	-45.8	16.7	0.00e+00	0	55	0	1150287872	51	4246
2026-01-02 23:20:59.08	58.17	11.33	-44.9	-45.8	16.6	0.00e+00	0	55	0	1156579328	51	4291
2026-01-02 23:21:00.08	58.36	11.34	-45.0	-46.0	16.5	0.00e+00	0	55	0	1161822208	51	4366
2026-01-02 23:21:01.06	58.54	11.35	-44.8	-45.8	16.7	0.00e+00	0	55	0	1168113664	51	4249
2026-01-02 23:21:02.05	58.73	11.37	-44.7	-45.7	16.8	0.00e+00	0	55	0	1173356544	51	4221
2026-01-02 23:21:03.04	58.91	11.38	-44.8	-45.8	16.7	0.00e+00	0	55	0	1178599424	51	4263
2026-01-02 23:21:04.03	59.09	11.39	-44.6	-45.6	16.9	0.00e+00	0	55	0	1183842304	51	4171
2026-01-02 23:21:05.02	59.28	11.40	-44.4	-45.4	17.1	0.00e+00	0	55	0	1190133760	51	4072
2026-01-02 23:21:06.01	59.46	11.41	-44.3	-45.3	17.2	0.00e+00	0	55	0	1195376640	51	4005
2026-01-02 23:21:07.00	59.65	11.43	-44.2	-45.2	17.3	0.00e+00	0	55	0	1201668096	51	3959
2026-01-02 23:21:07.98	59.83	11.44	-44.2	-45.1	17.3	0.00e+00	0	55	0	1206910976	51	3956
2026-01-02 23:21:08.97	60.01	11.45	-44.3	-45.2	17.3	0.00e+00	0	55	0	1212153856	51	3978
2026-01-02 23:21:09.96	60.20	11.46	-44.4	-45.3	17.1	0.00e+00	0	55	0	1217396736	51	4050
2026-01-02 23:21:10.96	60.39	11.47	-44.7	-45.6	16.8	0.00e+00	0	55	0	1223688192	51	4185
2026-01-02 23:21:11.95	60.57	11.48	-44.4	-45.3	17.1	0.00e+00	0	55	0	1228931072	51	4049
2026-01-02 23:21:12.94	60.76	11.49	-44.2	-45.1	17.4	0.00e+00	0	55	0	1234173952	51	3932
2026-01-02 23:21:13.93	60.94	11.50	-44.1	-45.0	17.5	0.00e+00	0	55	0	1240465408	51	3877
2026-01-02 23:21:14.92	61.13	11.51	-44.2	-45.1	17.4	0.00e+00	0	55	0	1245708288	51	3925
2026-01-02 23:21:15.91	61.31	11.52	-44.4	-45.3	17.1	0.00e+00	0	55	0	1250951168	51	4037
2026-01-02 23:21:16.89	61.50	11.53	-44.4	-45.3	17.2	0.00e+00	0	55	0	1256194048	51	4022
2026-01-02 23:21:17.88	61.68	11.53	-44.5	-45.4	17.0	0.00e+00	0	55	0	1262485504	51	4074
2026-01-02 23:21:18.87	61.87	11.54	-44.5	-45.4	17.0	0.00e+00	0	55	0	1267728384	51	4082
2026-01-02 23:21:19.86	62.05	11.55	-44.5	-45.5	17.0	0.00e+00	0	55	0	1272971264	51	4113
2026-01-02 23:21:20.84	62.24	11.56	-44.7	-45.7	16.8	0.00e+00	0	55	0	1279262720	51	4207
2026-01-02 23:21:21.83	62.42	11.57	-44.6	-45.6	16.9	0.00e+00	0	55	0	1284505600	51	4154
2026-01-02 23:21:22.82	62.61	11.57	-44.7	-45.7	16.8	0.00e+00	0	55	0	1289748480	51	4222
2026-01-02 23:21:23.80	62.80	11.58	-44.5	-45.5	17.0	0.00e+00	0	55	0	1296039936	51	4110
2026-01-02 23:21:24.78	62.98	11.59	-44.3	-45.3	17.2	0.00e+00	0	55	0	1301282816	51	4022
2026-01-02 23:21:25.77	63.17	11.59	-44.3	-45.1	17.3	0.00e+00	0	55	0	1306525696	51	3958
2026-01-02 23:21:26.76	63.35	11.60	-44.2	-45.1	17.4	0.00e+00	0	55	0	1311768576	51	3946
2026-01-02 23:21:27.75	63.54	11.60	-44.1	-45.1	17.4	0.00e+00	0	55	0	1318060032	51	3920
2026-01-02 23:21:28.74	63.73	11.61	-44.0	-44.9	17.5	0.00e+00	0	55	0	1323302912	51	3860
2026-01-02 23:21:29.71	63.91	11.62	-43.9	-44.8	17.6	0.00e+00	0	55	0	1328545792	51	3796
2026-01-02 23:21:30.69	64.09	11.62	-43.9	-44.8	17.6	0.00e+00	0	55	0	1333788672	51	3812
2026-01-02 23:21:31.68	64.28	11.63	-44.0	-44.9	17.6	0.00e+00	0	55	0	1340080128	51	3830
2026-01-02 23:21:32.66	64.47	11.63	-44.1	-44.9	17.5	0.00e+00	0	55	0	1345323008	51	3868
2026-01-02 23:21:33.66	64.66	11.63	-44.0	-44.9	17.6	0.00e+00	0	55	0	1350565888	51	3845
2026-01-02 23:21:34.65	64.84	11.64	-44.1	-45.0	17.4	0.00e+00	0	55	0	1356857344	51	3884
2026-01-02 23:21:35.64	65.03	11.64	-44.3	-45.3	17.2	0.00e+00	0	55	0	1362100224	51	4006
2026-01-02 23:21:36.63	65.22	11.65	-44.0	-45.2	17.3	0.00e+00	0	55	0	1367343104	51	3979
2026-01-02 23:21:37.62	65.41	11.65	-43.7	-45.0	17.5	0.00e+00	0	55	0	1373634560	50	4106
2026-01-02 23:21:38.61	65.59	11.65	-43.6	-45.0	17.5	0.00e+00	0	55	0	1378877440	50	4109
2026-01-02 23:21:39.59	65.78	11.65	-43.9	-45.2	17.2	0.00e+00	0	55	0	1384120320	50	4226
2026-01-02 23:21:40.58	65.97	11.66	-44.0	-45.2	17.3	0.00e+00	0	56	0	1389363200	50	4220
2026-01-02 23:21:41.58	66.16	11.66	-44.1	-45.0	17.4	0.00e+00	0	56	0	1395654656	50	4143
2026-01-02 23:21:42.57	66.34	11.66	-44.2	-45.1	17.3	0.00e+00	0	55	0	1400897536	50	4190
2026-01-02 23:21:43.56	66.53	11.66	-44.3	-45.2	17.2	0.00e+00	0	55	0	1407188992	50	4237
2026-01-02 23:21:44.55	66.72	11.66	-44.4	-45.3	17.2	0.00e+00	0	55	0	1412431872	50	4273
2026-01-02 23:21:45.54	66.91	11.66	-44.4	-45.4	17.1	0.00e+00	0	56	0	1417674752	50	4315
2026-01-02 23:21:46.53	67.09	11.67	-44.4	-45.4	17.0	0.00e+00	0	56	0	1422917632	50	4321
2026-01-02 23:21:47.51	67.28	11.67	-44.5	-45.4	17.1	0.00e+00	0	56	0	1429209088	50	4313
2026-01-02 23:21:48.49	67.46	11.67	-44.3	-45.2	17.3	0.00e+00	0	56	0	1434451968	50	4230
2026-01-02 23:21:49.48	67.65	11.67	-44.4	-45.4	17.1	0.00e+00	0	56	0	1439694848	50	4295
2026-01-02 23:21:50.47	67.84	11.67	-44.4	-45.3	17.2	0.00e+00	0	56	0	1445986304	50	4255
2026-01-02 23:21:51.47	68.03	11.66	-44.3	-45.2	17.3	0.00e+00	0	56	0	1451229184	50	4204
2026-01-02 23:21:52.46	68.22	11.66	-44.3	-45.2	17.3	0.00e+00	0	56	0	1456472064	50	4221
2026-01-02 23:21:53.45	68.40	11.66	-44.5	-45.4	17.2	0.00e+00	0	56	0	1462763520	50	4307
2026-01-02 23:21:54.44	68.59	11.66	-44.4	-45.3	17.1	0.00e+00	0	56	0	1468006400	51	4049
2026-01-02 23:21:55.43	68.78	11.66	-44.3	-45.3	17.2	0.00e+00	0	56	0	1473249280	51	4007
2026-01-02 23:21:56.43	68.97	11.66	-44.2	-45.1	17.3	0.00e+00	0	56	0	1479540736	51	3956
2026-01-02 23:21:57.42	69.16	11.66	-44.3	-45.2	17.3	0.00e+00	0	56	0	1484783616	51	3974
2026-01-02 23:21:58.40	69.34	11.65	-44.3	-45.2	17.3	0.00e+00	0	56	0	1490026496	51	3965
2026-01-02 23:21:59.40	69.53	11.65	-44.3	-45.3	17.2	0.00e+00	0	56	0	1495269376	51	4005
2026-01-02 23:22:00.39	69.72	11.65	-44.5	-45.4	17.0	0.00e+00	0	56	0	1501560832	51	4088
2026-01-02 23:22:01.38	69.91	11.64	-44.5	-45.5	17.0	0.00e+00	0	56	0	1506803712	51	4109
2026-01-02 23:22:02.37	70.09	11.64	-44.3	-45.2	17.3	0.00e+00	0	56	0	1512046592	51	3981
2026-01-02 23:22:03.35	70.28	11.64	-44.1	-44.9	17.5	0.00e+00	0	56	0	1518338048	51	3863
2026-01-02 23:22:04.34	70.47	11.63	-44.1	-44.9	17.6	0.00e+00	0	55	0	1523580928	51	3866
2026-01-02 23:22:05.33	70.65	11.63	-44.3	-45.2	17.3	0.00e+00	0	56	0	1528823808	51	3982
2026-01-02 23:22:06.32	70.84	11.62	-44.5	-45.5	17.0	0.00e+00	0	56	0	1535115264	51	4099
2026-01-02 23:22:07.31	71.03	11.62	-44.6	-45.5	16.9	0.00e+00	0	56	0	1540358144	51	4140
2026-01-02 23:22:08.31	71.22	11.61	-44.6	-45.6	16.9	0.00e+00	0	55	0	1545601024	51	4155
2026-01-02 23:22:09.30	71.40	11.61	-44.6	-45.6	16.9	0.00e+00	0	56	0	1551892480	51	4162
2026-01-02 23:22:10.29	71.59	11.60	-44.5	-45.5	17.0	0.00e+00	0	56	0	1557135360	51	4115
2026-01-02 23:22:11.28	71.78	11.59	-44.6	-45.6	17.0	0.00e+00	0	56	0	1562378240	51	4154
2026-01-02 23:22:12.28	71.97	11.59	-44.6	-45.5	17.0	0.00e+00	0	56	0	1568669696	51	4138
2026-01-02 23:22:13.27	72.15	11.58	-44.8	-45.8	16.7	0.00e+00	0	55	0	1573912576	51	4273
2026-01-02 23:22:14.26	72.34	11.57	-44.5	-45.4	17.1	0.00e+00	0	56	0	1579155456	51	4064
2026-01-02 23:22:15.24	72.52	11.57	-44.3	-45.2	17.2	0.00e+00	0	56	0	1584398336	51	4000
2026-01-02 23:22:16.23	72.71	11.56	-44.2	-45.1	17.4	0.00e+00	0	56	0	1590689792	51	3925
2026-01-02 23:22:17.21	72.89	11.55	-44.2	-45.0	17.4	0.00e+00	0	56	0	1595932672	51	3911
2026-01-02 23:22:18.20	73.08	11.54	-44.2	-45.0	17.5	0.00e+00	0	56	0	1601175552	51	3906
2026-01-02 23:22:19.19	73.27	11.54	-44.3	-45.2	17.3	0.00e+00	0	56	0	1607467008	51	4003
2026-01-02 23:22:20.18	73.45	11.53	-44.1	-45.0	17.4	0.00e+00	0	56	0	1612709888	51	3893
2026-01-02 23:22:21.17	73.64	11.52	-44.1	-44.9	17.5	0.00e+00	0	56	0	1617952768	51	3864
2026-01-02 23:22:22.17	73.83	11.51	-44.1	-45.0	17.5	0.00e+00	0	56	0	1624244224	51	3878
2026-01-02 23:22:23.16	74.01	11.50	-44.1	-45.0	17.4	0.00e+00	0	56	0	1629487104	51	3909
2026-01-02 23:22:24.15	74.20	11.49	-44.3	-45.2	17.2	0.00e+00	0	56	0	1634729984	51	4003
2026-01-02 23:22:25.15	74.39	11.48	-44.3	-45.2	17.2	0.00e+00	0	56	0	1641021440	51	3996
2026-01-02 23:22:26.14	74.57	11.47	-44.4	-45.3	17.2	0.00e+00	0	56	0	1646264320	51	4021
2026-01-02 23:22:27.13	74.76	11.46	-44.5	-45.4	17.1	0.00e+00	0	56	0	1651507200	51	4081
2026-01-02 23:22:28.11	74.94	11.45	-44.6	-45.6	16.8	0.00e+00	0	56	0	1657798656	51	4172
2026-01-02 23:22:29.10	75.12	11.44	-44.6	-45.5	17.0	0.00e+00	0	56	0	1663041536	51	4130
2026-01-02 23:22:30.09	75.31	11.43	-44.8	-45.7	16.7	0.00e+00	0	56	0	1668284416	51	4234
2026-01-02 23:22:31.08	75.49	11.42	-44.7	-45.7	16.8	0.00e+00	0	56	0	1673527296	51	4195
2026-01-02 23:22:32.07	75.68	11.40	-44.9	-45.9	16.5	0.00e+00	0	56	0	1679818752	51	4326
2026-01-02 23:22:33.06	75.86	11.39	-45.1	-46.2	16.3	0.00e+00	0	56	0	1685061632	52	4203
2026-01-02 23:22:34.05	76.05	11.38	-44.7	-45.7	16.7	0.00e+00	0	56	0	1690304512	52	3988
2026-01-02 23:22:35.04	76.23	11.37	-44.5	-45.4	17.0	0.00e+00	0	56	0	1696595968	51	4061
2026-01-02 23:22:36.02	76.41	11.36	-44.2	-45.1	17.4	0.00e+00	0	56	0	1701838848	51	3943
2026-01-02 23:22:37.01	76.60	11.34	-44.1	-45.0	17.4	0.00e+00	0	56	0	1707081728	51	3887
2026-01-02 23:22:38.00	76.78	11.33	-44.3	-45.1	17.3	0.00e+00	0	56	0	1713373184	51	3953
2026-01-02 23:22:38.98	76.96	11.32	-44.3	-45.2	17.3	0.00e+00	0	56	0	1718616064	51	3982
2026-01-02 23:22:39.97	77.15	11.30	-44.2	-45.1	17.4	0.00e+00	0	56	0	1723858944	51	3925
2026-01-02 23:22:40.96	77.33	11.29	-44.2	-45.1	17.4	0.00e+00	0	56	0	1729101824	51	3954
2026-01-02 23:22:41.95	77.51	11.27	-44.4	-45.3	17.2	0.00e+00	0	56	0	1735393280	51	4029
2026-01-02 23:22:42.94	77.70	11.26	-44.2	-45.1	17.4	0.00e+00	0	56	0	1740636160	51	3924
2026-01-02 23:22:43.92	77.88	11.25	-44.2	-45.1	17.3	0.00e+00	0	56	0	1745879040	51	3944
2026-01-02 23:22:44.91	78.06	11.23	-44.4	-45.3	17.2	0.00e+00	0	56	0	1752170496	51	4016
2026-01-02 23:22:45.90	78.24	11.22	-44.4	-45.3	17.2	0.00e+00	0	56	0	1757413376	51	4028
2026-01-02 23:22:46.89	78.42	11.20	-44.5	-45.4	17.1	0.00e+00	0	56	0	1762656256	51	4081
2026-01-02 23:22:47.88	78.61	11.18	-44.6	-45.5	16.9	0.00e+00	0	56	0	1768947712	51	4140
2026-01-02 23:22:48.87	78.79	11.17	-44.6	-45.5	17.0	0.00e+00	0	56	0	1774190592	51	4120
2026-01-02 23:22:49.86	78.97	11.15	-44.7	-45.7	16.7	0.00e+00	0	56	0	1779433472	51	4211
2026-01-02 23:22:50.85	79.15	11.14	-44.8	-45.8	16.6	0.00e+00	0	56	0	1785724928	51	4283
2026-01-02 23:22:51.83	79.33	11.12	-44.7	-45.8	16.7	0.00e+00	0	56	0	1790967808	51	4270
2026-01-02 23:22:52.82	79.51	11.10	-44.7	-45.8	16.6	0.00e+00	0	56	0	1796210688	51	4256
2026-01-02 23:22:53.81	79.69	11.09	-44.7	-45.8	16.5	0.00e+00	0	56	0	1801453568	51	4245
2026-01-02 23:22:54.80	79.87	11.07	-44.9	-46.0	16.5	0.00e+00	0	56	0	1807745024	51	4343
2026-01-02 23:22:55.79	80.05	11.05	-44.8	-45.9	16.6	0.00e+00	0	56	0	1812987904	51	4310
2026-01-02 23:22:56.79	80.24	11.03	-44.7	-45.7	16.6	0.00e+00	0	56	0	1818230784	51	4233
2026-01-02 23:22:57.77	80.41	11.01	-44.8	-45.8	16.6	0.00e+00	0	56	0	1824522240	51	4265
2026-01-02 23:22:58.75	80.59	11.00	-44.7	-45.8	16.6	0.00e+00	0	56	0	1829765120	51	4253
2026-01-02 23:22:59.74	80.77	10.98	-44.9	-45.9	16.6	0.00e+00	0	56	0	1835008000	51	4316
2026-01-02 23:23:00.72	80.95	10.96	-44.7	-45.7	16.7	0.00e+00	0	56	0	1840250880	51	4231
2026-01-02 23:23:01.71	81.13	10.94	-44.5	-45.5	16.8	0.00e+00	0	56	0	1846542336	51	4140
2026-01-02 23:23:02.70	81.31	10.92	-44.6	-45.6	16.8	0.00e+00	0	56	0	1851785216	51	4165
2026-01-02 23:23:03.68	81.48	10.90	-44.7	-45.7	16.8	0.00e+00	0	56	0	1857028096	51	4211
2026-01-02 23:23:04.67	81.66	10.88	-44.6	-45.6	16.7	0.00e+00	0	56	0	1863319552	51	4187
2026-01-02 23:23:05.66	81.84	10.86	-44.6	-45.7	16.7	0.00e+00	0	56	0	1868562432	51	4204
2026-01-02 23:23:06.64	82.02	10.84	-44.4	-45.4	16.9	0.00e+00	0	56	0	1873805312	51	4079
2026-01-02 23:23:07.64	82.20	10.82	-44.4	-45.4	17.1	0.00e+00	0	56	0	1879048192	51	4072
2026-01-02 23:23:08.64	82.38	10.80	-44.4	-45.4	17.0	0.00e+00	0	56	0	1885339648	51	4054
2026-01-02 23:23:09.62	82.55	10.78	-44.6	-45.6	16.7	0.00e+00	0	56	0	1890582528	51	4160
2026-01-02 23:23:10.61	82.73	10.76	-44.6	-45.6	16.7	0.00e+00	0	56	0	1896873984	51	4168
2026-01-02 23:23:11.60	82.91	10.74	-44.6	-45.6	16.7	0.00e+00	0	56	0	1902116864	51	4178
2026-01-02 23:23:12.59	83.08	10.72	-44.7	-45.8	16.6	0.00e+00	0	56	0	1907359744	51	4245
2026-01-02 23:23:13.58	83.26	10.69	-44.6	-45.7	16.7	0.00e+00	0	56	0	1912602624	51	4204
2026-01-02 23:23:14.57	83.43	10.67	-44.7	-45.8	16.5	0.00e+00	0	56	0	1918894080	51	4244
2026-01-02 23:23:15.56	83.61	10.65	-44.7	-45.8	16.6	0.00e+00	0	56	0	1924136960	51	4247
2026-01-02 23:23:16.55	83.79	10.63	-44.7	-45.8	16.7	0.00e+00	0	56	0	1929379840	51	4243
2026-01-02 23:23:17.54	83.96	10.60	-44.6	-45.6	16.6	0.00e+00	0	56	0	1935671296	51	4193
2026-01-02 23:23:18.52	84.13	10.58	-44.9	-45.9	16.5	0.00e+00	0	56	0	1940914176	51	4327
2026-01-02 23:23:19.50	84.31	10.56	-44.8	-45.8	16.5	0.00e+00	0	56	0	1946157056	52	4031
2026-01-02 23:23:20.49	84.48	10.54	-44.6	-45.6	16.6	0.00e+00	0	56	0	1951399936	52	3952
2026-01-02 23:23:21.47	84.65	10.51	-44.6	-45.7	16.6	0.00e+00	0	56	0	1957691392	52	3963
2026-01-02 23:23:22.46	84.83	10.49	-44.6	-45.6	16.7	0.00e+00	0	56	0	1962934272	52	3937
2026-01-02 23:23:23.45	85.00	10.46	-44.6	-45.7	16.5	0.00e+00	0	56	0	1968177152	52	3973
2026-01-02 23:23:24.44	85.17	10.44	-44.6	-45.6	16.7	0.00e+00	0	56	0	1974468608	52	3933
2026-01-02 23:23:25.42	85.35	10.42	-44.6	-45.6	16.6	0.00e+00	0	56	0	1979711488	52	3956
2026-01-02 23:23:26.40	85.52	10.39	-44.6	-45.6	16.7	0.00e+00	0	56	0	1984954368	52	3954
2026-01-02 23:23:27.39	85.69	10.37	-44.6	-45.7	16.7	0.00e+00	0	56	0	1990197248	52	3959
2026-01-02 23:23:28.38	85.86	10.34	-44.6	-45.7	16.7	0.00e+00	0	56	0	1996488704	51	4194
2026-01-02 23:23:29.37	86.03	10.32	-44.6	-45.7	16.7	0.00e+00	0	56	0	2001731584	51	4222
2026-01-02 23:23:30.36	86.21	10.29	-44.7	-45.7	16.7	0.00e+00	0	56	0	2006974464	51	4219
2026-01-02 23:23:31.34	86.38	10.27	-44.8	-45.8	16.5	0.00e+00	0	56	0	2013265920	51	4282
2026-01-02 23:23:32.33	86.55	10.24	-44.6	-45.6	16.7	0.00e+00	0	56	0	2018508800	51	4170
2026-01-02 23:23:33.32	86.72	10.22	-44.7	-45.7	16.6	0.00e+00	0	56	0	2023751680	51	4235
2026-01-02 23:23:34.30	86.89	10.19	-44.8	-45.8	16.5	0.00e+00	0	56	0	2030043136	51	4283
2026-01-02 23:23:35.29	87.06	10.16	-44.6	-45.6	16.7	0.00e+00	0	56	0	2035286016	51	4168
2026-01-02 23:23:36.28	87.23	10.14	-44.5	-45.5	16.9	0.00e+00	0	56	0	2040528896	51	4108
2026-01-02 23:23:37.27	87.40	10.11	-44.5	-45.4	16.9	0.00e+00	0	56	0	2046820352	51	4097
2026-01-02 23:23:38.26	87.57	10.08	-44.5	-45.4	16.9	0.00e+00	0	56	0	2052063232	51	4096
2026-01-02 23:23:39.25	87.74	10.06	-44.5	-45.4	16.9	0.00e+00	0	56	0	2057306112	51	4094
2026-01-02 23:23:40.24	87.90	10.03	-44.5	-45.5	16.8	0.00e+00	0	56	0	2062548992	51	4106
2026-01-02 23:23:41.23	88.07	10.00	-44.7	-45.8	16.6	0.00e+00	0	56	0	2068840448	51	4249
2026-01-02 23:23:42.22	88.24	9.97	-44.5	-45.5	16.7	0.00e+00	0	56	0	2074083328	51	4138
2026-01-02 23:23:43.21	88.41	9.95	-44.6	-45.6	16.7	0.00e+00	0	56	0	2079326208	51	4171
2026-01-02 23:23:44.20	88.58	9.92	-44.6	-45.7	16.6	0.00e+00	0	56	0	2085617664	51	4220
2026-01-02 23:23:45.19	88.74	9.89	-44.7	-45.7	16.6	0.00e+00	0	56	0	2090860544	51	4227
2026-01-02 23:23:46.18	88.91	9.86	-44.9	-46.0	16.4	0.00e+00	0	56	0	2096103424	51	4346
2026-01-02 23:23:47.17	89.08	9.83	-44.9	-46.0	16.2	0.00e+00	0	56	0	2102394880	52	4143
2026-01-02 23:23:48.16	89.24	9.80	-44.8	-45.8	16.5	0.00e+00	0	56	0	2107637760	52	4039
2026-01-02 23:23:49.14	89.41	9.78	-44.7	-45.7	16.6	0.00e+00	0	56	0	2112880640	52	3997
2026-01-02 23:23:50.14	89.58	9.75	-44.8	-45.9	16.3	0.00e+00	0	56	0	2118123520	52	4091
2026-01-02 23:23:51.13	89.74	9.72	-44.8	-45.9	16.3	0.00e+00	0	56	0	2124414976	52	4074
2026-01-02 23:23:52.11	89.90	9.69	-45.0	-46.1	16.2	0.00e+00	0	56	0	2129657856	52	4170
2026-01-02 23:23:53.10	90.07	9.66	-44.9	-46.0	16.3	0.00e+00	0	56	0	2135949312	52	4104
2026-01-02 23:23:54.09	90.23	9.63	-45.1	-46.2	16.0	0.00e+00	0	57	0	2141192192	52	4236
2026-01-02 23:23:55.07	90.40	9.60	-45.2	-46.3	16.0	0.00e+00	0	56	0	2146435072	52	4270
2026-01-02 23:23:56.06	90.56	9.57	-45.0	-46.1	16.2	0.00e+00	0	56	0	2151677952	52	4187
2026-01-02 23:23:57.04	90.72	9.54	-44.8	-45.9	16.3	0.00e+00	0	56	0	2156920832	52	4079
2026-01-02 23:23:58.03	90.88	9.51	-44.7	-45.7	16.5	0.00e+00	0	56	0	2163212288	52	3994
2026-01-02 23:23:59.01	91.05	9.48	-44.7	-45.7	16.5	0.00e+00	0	56	0	2168455168	52	4004
2026-01-02 23:24:00.00	91.21	9.45	-44.6	-45.6	16.6	0.00e+00	0	56	0	2174746624	52	3942
2026-01-02 23:24:00.99	91.37	9.42	-44.6	-45.6	16.6	0.00e+00	0	56	0	2179989504	52	3946
2026-01-02 23:24:01.99	91.53	9.39	-44.6	-45.7	16.5	0.00e+00	0	56	0	2185232384	52	3972
2026-01-02 23:24:02.98	91.70	9.35	-44.8	-45.8	16.4	0.00e+00	0	56	0	2190475264	52	4049
2026-01-02 23:24:03.97	91.86	9.32	-44.8	-45.9	16.4	0.00e+00	0	56	0	2196766720	52	4052
2026-01-02 23:24:04.96	92.02	9.29	-44.9	-46.0	16.3	0.00e+00	0	56	0	2202009600	52	4126
2026-01-02 23:24:05.96	92.18	9.26	-45.0	-46.2	16.1	0.00e+00	0	56	0	2207252480	52	4213
2026-01-02 23:24:06.94	92.34	9.23	-45.0	-46.1	16.0	0.00e+00	0	56	0	2213543936	52	4187
2026-01-02 23:24:07.92	92.50	9.20	-45.1	-46.2	16.1	0.00e+00	0	56	0	2218786816	52	4204
2026-01-02 23:24:08.92	92.66	9.16	-45.0	-46.1	16.1	0.00e+00	0	56	0	2224029696	52	4178
2026-01-02 23:24:09.91	92.82	9.13	-44.9	-46.0	16.2	0.00e+00	0	56	0	2230321152	52	4130
2026-01-02 23:24:10.89	92.97	9.10	-45.0	-46.1	16.1	0.00e+00	0	56	0	2235564032	52	4153
2026-01-02 23:24:11.88	93.13	9.07	-45.1	-46.2	16.0	0.00e+00	0	56	0	2240806912	52	4220
2026-01-02 23:24:12.87	93.29	9.03	-45.0	-46.1	16.1	0.00e+00	0	57	0	2246049792	52	4190
2026-01-02 23:24:13.86	93.45	9.00	-44.9	-46.0	16.2	0.00e+00	0	57	0	2252341248	52	4125
2026-01-02 23:24:14.86	93.61	8.97	-45.0	-46.1	16.2	0.00e+00	0	57	0	2257584128	52	4177
2026-01-02 23:24:15.84	93.76	8.94	-45.1	-46.3	15.9	0.00e+00	0	57	0	2262827008	52	4257
2026-01-02 23:24:16.83	93.92	8.90	-45.0	-46.1	16.1	0.00e+00	0	56	0	2269118464	52	4187
2026-01-02 23:24:17.82	94.08	8.87	-45.0	-46.1	16.1	0.00e+00	0	56	0	2274361344	52	4149
2026-01-02 23:24:18.80	94.23	8.84	-45.0	-46.1	16.1	0.00e+00	0	57	0	2279604224	52	4190
2026-01-02 23:24:19.79	94.39	8.80	-45.1	-46.2	15.9	0.00e+00	0	57	0	2284847104	52	4242
2026-01-02 23:24:20.78	94.54	8.77	-45.0	-46.1	16.1	0.00e+00	0	56	0	2291138560	52	4172
2026-01-02 23:24:21.77	94.70	8.73	-44.9	-46.0	16.3	0.00e+00	0	57	0	2296381440	52	4124
2026-01-02 23:24:22.76	94.85	8.70	-45.0	-46.1	16.2	0.00e+00	0	57	0	2302672896	52	4157
2026-01-02 23:24:23.74	95.00	8.67	-45.0	-46.2	16.0	0.00e+00	0	57	0	2307915776	52	4210
2026-01-02 23:24:24.73	95.16	8.63	-45.0	-46.1	16.0	0.00e+00	0	57	0	2313158656	52	4172
2026-01-02 23:24:25.72	95.31	8.60	-45.1	-46.2	15.9	0.00e+00	0	57	0	2318401536	52	4221
2026-01-02 23:24:26.71	95.47	8.56	-44.9	-46.1	16.1	0.00e+00	0	56	0	2324692992	52	4146
2026-01-02 23:24:27.70	95.62	8.53	-44.9	-46.0	16.2	0.00e+00	0	57	0	2329935872	52	4122
2026-01-02 23:24:28.70	95.77	8.49	-44.8	-45.9	16.3	0.00e+00	0	56	0	2336227328	52	4072
2026-01-02 23:24:29.69	95.92	8.46	-44.9	-46.0	16.2	0.00e+00	0	57	0	2341470208	52	4128
2026-01-02 23:24:30.67	96.08	8.42	-45.1	-46.2	16.0	0.00e+00	0	57	0	2346713088	52	4233
2026-01-02 23:24:31.67	96.23	8.39	-45.2	-46.4	15.8	0.00e+00	0	57	0	2351955968	52	4305
2026-01-02 23:24:32.66	96.38	8.35	-45.3	-46.4	15.8	0.00e+00	0	57	0	2358247424	52	4310
2026-01-02 23:24:33.65	96.53	8.32	-45.3	-46.5	15.7	0.00e+00	0	56	0	2363490304	52	4356
2026-01-02 23:24:34.64	96.68	8.28	-45.5	-46.8	15.4	0.00e+00	0	56	0	2368733184	53	4247
2026-01-02 23:24:35.63	96.83	8.24	-45.7	-47.0	15.2	0.00e+00	0	57	0	2375024640	53	4352
2026-01-02 23:24:36.63	96.98	8.21	-45.7	-47.0	15.1	0.00e+00	0	57	0	2380267520	53	4376
2026-01-02 23:24:37.62	97.13	8.17	-45.7	-47.0	15.2	0.00e+00	0	56	0	2385510400	53	4373
2026-01-02 23:24:38.60	97.28	8.14	-45.6	-46.9	15.3	1.10e-06	0	56	0	2391801856	53	4315
2026-01-02 23:24:39.59	97.43	8.10	-45.6	-46.9	15.3	0.00e+00	0	57	0	2397044736	53	4304
2026-01-02 23:24:40.58	97.58	8.06	-45.6	-46.9	15.3	0.00e+00	0	57	0	2402287616	53	4299
2026-01-02 23:24:41.57	97.72	8.03	-45.8	-47.1	15.1	0.00e+00	0	57	0	2407530496	53	4406
2026-01-02 23:24:42.56	97.87	7.99	-45.7	-47.0	15.2	0.00e+00	0	57	0	2413821952	53	4343
2026-01-02 23:24:43.55	98.02	7.95	-45.7	-47.0	15.2	0.00e+00	0	57	0	2419064832	53	4352
2026-01-02 23:24:44.54	98.17	7.92	-45.8	-47.1	15.1	0.00e+00	0	57	0	2424307712	53	4423
2026-01-02 23:24:45.52	98.31	7.88	-45.7	-47.0	15.1	0.00e+00	0	57	0	2430599168	53	4382
2026-01-02 23:24:46.51	98.46	7.84	-45.6	-46.8	15.4	0.00e+00	0	57	0	2435842048	53	4269
2026-01-02 23:24:47.50	98.60	7.81	-45.5	-46.7	15.4	1.10e-06	0	57	0	2441084928	53	4215
2026-01-02 23:24:48.49	98.75	7.77	-45.4	-46.6	15.5	0.00e+00	0	57	0	2446327808	53	4185
2026-01-02 23:24:49.47	98.89	7.73	-45.4	-46.6	15.5	0.00e+00	0	57	0	2452619264	53	4187
2026-01-02 23:24:50.47	99.04	7.70	-45.3	-46.5	15.6	0.00e+00	0	57	0	2457862144	53	4129
2026-01-02 23:24:51.45	99.18	7.66	-45.2	-46.4	15.7	0.00e+00	0	57	0	2464153600	53	4083
2026-01-02 23:24:52.43	99.32	7.62	-45.3	-46.5	15.6	0.00e+00	0	57	0	2469396480	53	4142
2026-01-02 23:24:53.42	99.47	7.58	-45.3	-46.5	15.6	0.00e+00	0	57	0	2474639360	53	4134
2026-01-02 23:24:54.42	99.61	7.55	-45.3	-46.6	15.6	0.00e+00	0	57	0	2479882240	53	4146
2026-01-02 23:24:55.41	99.76	7.51	-45.5	-46.8	15.4	0.00e+00	0	57	0	2486173696	53	4269
2026-01-02 23:24:56.39	99.90	7.47	-45.5	-46.7	15.4	0.00e+00	0	57	0	2491416576	53	4232
2026-01-02 23:24:57.39	100.04	7.43	-45.5	-46.8	15.4	0.00e+00	0	57	0	2496659456	53	4250
2026-01-02 23:24:58.37	100.18	7.39	-45.5	-46.8	15.4	0.00e+00	0	57	0	2502950912	53	4259
2026-01-02 23:24:59.36	100.32	7.36	-45.7	-47.0	15.2	0.00e+00	0	57	0	2508193792	53	4385
2026-01-02 23:25:00.34	100.46	7.32	-45.7	-47.0	15.1	0.00e+00	0	57	0	2513436672	53	4382
2026-01-02 23:25:01.33	100.60	7.28	-45.6	-46.9	15.2	0.00e+00	0	57	0	2518679552	53	4313
2026-01-02 23:25:02.32	100.74	7.24	-45.7	-47.0	15.1	0.00e+00	0	57	0	2524971008	53	4368
2026-01-02 23:25:03.31	100.88	7.20	-45.8	-47.0	15.1	0.00e+00	0	57	0	2530213888	53	4387
2026-01-02 23:25:04.29	101.02	7.16	-45.5	-46.7	15.3	0.00e+00	0	57	0	2535456768	53	4220
2026-01-02 23:25:05.27	101.16	7.13	-45.5	-46.7	15.4	1.10e-06	0	57	0	2541748224	53	4231
2026-01-02 23:25:06.26	101.30	7.09	-45.4	-46.7	15.4	0.00e+00	0	57	0	2546991104	53	4198
2026-01-02 23:25:07.26	101.44	7.05	-45.5	-46.7	15.4	0.00e+00	0	57	0	2552233984	53	4215
2026-01-02 23:25:08.25	101.58	7.01	-45.6	-46.9	15.3	0.00e+00	0	57	0	2558525440	53	4296
2026-01-02 23:25:09.24	101.72	6.97	-45.7	-47.0	15.1	0.00e+00	0	57	0	2563768320	53	4357
2026-01-02 23:25:10.23	101.85	6.93	-45.7	-46.9	15.2	0.00e+00	0	57	0	2569011200	53	4340
2026-01-02 23:25:11.23	101.99	6.89	-45.7	-47.0	15.1	0.00e+00	0	57	0	2574254080	53	4377
2026-01-02 23:25:12.22	102.13	6.85	-45.8	-47.2	15.0	0.00e+00	0	57	0	2580545536	53	4442
2026-01-02 23:25:13.21	102.27	6.81	-46.0	-47.4	14.7	0.00e+00	0	57	0	2585788416	53	4561
2026-01-02 23:25:14.20	102.40	6.77	-45.9	-47.3	14.8	1.10e-06	0	57	0	2592079872	53	4501
2026-01-02 23:25:15.20	102.54	6.73	-46.1	-47.5	14.6	1.10e-06	0	57	0	2597322752	54	4378
2026-01-02 23:25:16.18	102.67	6.69	-46.0	-47.4	14.7	1.10e-06	0	57	0	2602565632	54	4305
2026-01-02 23:25:17.18	102.81	6.65	-46.0	-47.4	14.7	0.00e+00	0	57	0	2607808512	54	4307
2026-01-02 23:25:18.17	102.95	6.61	-45.9	-47.3	14.8	0.00e+00	0	57	0	2614099968	54	4270
2026-01-02 23:25:19.15	103.08	6.57	-46.0	-47.4	14.8	0.00e+00	0	57	0	2619342848	54	4298
2026-01-02 23:25:20.13	103.21	6.53	-46.1	-47.5	14.6	1.10e-06	0	57	0	2624585728	54	4350
2026-01-02 23:25:21.12	103.35	6.49	-45.9	-47.3	14.8	1.10e-06	0	57	0	2630877184	54	4248
2026-01-02 23:25:22.11	103.48	6.45	-46.1	-47.4	14.7	0.00e+00	0	57	0	2636120064	54	4332
2026-01-02 23:25:23.10	103.61	6.41	-45.8	-47.1	15.0	0.00e+00	0	57	0	2641362944	54	4177
2026-01-02 23:25:24.09	103.75	6.37	-45.7	-46.9	15.1	1.10e-06	0	57	0	2646605824	54	4089
2026-01-02 23:25:25.09	103.88	6.33	-45.6	-46.8	15.2	0.00e+00	0	57	0	2652897280	54	4033
2026-01-02 23:25:26.07	104.01	6.29	-45.5	-46.8	15.2	1.10e-06	0	57	0	2658140160	54	4016
2026-01-02 23:25:27.07	104.14	6.25	-45.6	-46.9	15.1	0.00e+00	0	57	0	2664431616	54	4061
2026-01-02 23:25:28.06	104.27	6.21	-45.6	-46.9	15.1	0.00e+00	0	57	0	2669674496	54	4071
2026-01-02 23:25:29.05	104.41	6.17	-45.7	-47.0	15.0	0.00e+00	0	57	0	2674917376	54	4142
2026-01-02 23:25:30.03	104.53	6.13	-45.9	-47.3	14.8	1.10e-06	0	57	0	2680160256	54	4247
2026-01-02 23:25:31.01	104.66	6.09	-45.8	-47.2	14.9	0.00e+00	0	57	0	2686451712	54	4211
2026-01-02 23:25:32.00	104.79	6.05	-46.0	-47.4	14.6	1.10e-06	0	57	0	2691694592	54	4318
2026-01-02 23:25:32.99	104.92	6.01	-46.2	-47.6	14.4	2.20e-06	0	57	0	2696937472	54	4418
2026-01-02 23:25:33.97	105.05	5.97	-46.1	-47.5	14.5	1.10e-06	0	57	0	2703228928	54	4380
2026-01-02 23:25:34.96	105.18	5.93	-46.1	-47.5	14.4	2.20e-06	0	57	0	2708471808	54	4387
2026-01-02 23:25:35.95	105.31	5.89	-46.3	-47.8	14.2	2.20e-06	0	57	0	2713714688	54	4537
2026-01-02 23:25:36.94	105.44	5.85	-46.2	-47.7	14.3	2.20e-06	0	57	0	2718957568	54	4472
2026-01-02 23:25:37.92	105.56	5.81	-46.1	-47.5	14.5	1.10e-06	0	57	0	2725249024	54	4364
2026-01-02 23:25:38.92	105.69	5.77	-46.1	-47.5	14.4	1.10e-06	0	57	0	2730491904	54	4361
2026-01-02 23:25:39.90	105.82	5.73	-46.1	-47.6	14.4	0.00e+00	0	57	0	2735734784	54	4408
2026-01-02 23:25:40.89	105.94	5.68	-45.9	-47.3	14.6	0.00e+00	0	57	0	2742026240	54	4288
2026-01-02 23:25:41.88	106.07	5.64	-45.9	-47.2	14.7	0.00e+00	0	57	0	2747269120	54	4241
2026-01-02 23:25:42.87	106.20	5.60	-45.9	-47.2	14.7	1.10e-06	0	57	0	2752512000	54	4233
2026-01-02 23:25:43.86	106.32	5.56	-45.9	-47.2	14.7	0.00e+00	0	57	0	2758803456	54	4230
2026-01-02 23:25:44.85	106.45	5.52	-45.9	-47.3	14.6	0.00e+00	0	57	0	2764046336	54	4259
2026-01-02 23:25:45.83	106.57	5.48	-46.0	-47.4	14.5	3.40e-06	0	57	0	2769289216	54	4316
2026-01-02 23:25:46.83	106.70	5.44	-46.0	-47.4	14.5	0.00e+00	0	57	0	2774532096	54	4333
2026-01-02 23:25:47.82	106.82	5.39	-46.1	-47.5	14.5	0.00e+00	0	57	0	2780823552	54	4347
2026-01-02 23:25:48.81	106.95	5.35	-46.1	-47.6	14.4	0.00e+00	0	57	0	2786066432	54	4398
2026-01-02 23:25:49.79	107.07	5.31	-46.2	-47.6	14.3	3.40e-06	0	57	0	2791309312	54	4438
2026-01-02 23:25:50.78	107.19	5.27	-46.4	-47.8	14.1	2.20e-06	0	57	0	2797600768	54	4526
2026-01-02 23:25:51.77	107.32	5.23	-46.3	-47.8	14.1	1.10e-06	0	57	0	2802843648	54	4506
2026-01-02 23:25:52.76	107.44	5.19	-46.3	-47.7	14.2	3.40e-06	0	57	0	2808086528	54	4484
2026-01-02 23:25:53.75	107.56	5.15	-46.2	-47.7	14.2	2.20e-06	0	57	0	2814377984	54	4457
2026-01-02 23:25:54.73	107.68	5.10	-46.2	-47.6	14.3	1.10e-06	0	57	0	2819620864	54	4429
2026-01-02 23:25:55.72	107.80	5.06	-46.3	-47.8	14.1	3.40e-06	0	57	0	2824863744	54	4504
2026-01-02 23:25:56.70	107.92	5.02	-46.8	-48.5	13.5	4.50e-06	0	57	0	2831155200	55	4606
2026-01-02 23:25:57.69	108.05	4.98	-52.3	-62.9	3.8	8.46e-01	0	57	104	2832203776	66	12860
2026-01-02 23:25:58.68	108.17	4.94	-52.5	-63.3	3.8	8.48e-01	0	57	104	2832203776	66	13550
2026-01-02 23:25:59.68	108.29	4.89	-52.6	-63.5	3.8	8.46e-01	0	57	104	2832203776	67	13012
2026-01-02 23:26:00.66	108.41	4.85	-52.7	-63.6	3.8	8.45e-01	0	57	104	2832203776	67	13206
2026-01-02 23:26:01.66	108.53	4.81	-52.8	-63.7	3.8	8.46e-01	0	57	104	2832203776	67	13304
2026-01-02 23:26:02.65	108.65	4.77	-53.0	-63.7	3.8	8.47e-01	0	57	104	2832203776	67	13393
2026-01-02 23:26:03.64	108.77	4.73	-53.0	-63.8	3.8	8.47e-01	0	57	104	2832203776	67	13462
2026-01-02 23:26:04.63	108.89	4.68	-53.0	-63.8	3.8	8.46e-01	0	57	104	2832203776	67	13501
2026-01-02 23:26:05.62	109.00	4.64	-53.0	-63.8	3.8	8.46e-01	0	57	104	2832203776	68	12669
2026-01-02 23:26:06.61	109.12	4.60	-53.2	-64.0	3.8	8.46e-01	0	57	104	2832203776	68	12987
2026-01-02 23:26:07.60	109.24	4.56	-53.2	-64.0	3.8	8.45e-01	0	57	104	2832203776	68	12983
2026-01-02 23:26:08.59	109.36	4.51	-53.2	-64.0	3.8	8.45e-01	0	57	104	2832203776	68	13004
2026-01-02 23:26:09.58	109.47	4.47	-53.2	-64.0	3.8	8.47e-01	0	57	104	2832203776	68	13085
2026-01-02 23:26:10.57	109.59	4.43	-53.2	-64.0	3.8	8.45e-01	0	57	104	2832203776	68	13060
2026-01-02 23:26:11.56	109.71	4.39	-53.3	-64.1	3.8	8.46e-01	0	57	104	2832203776	68	13142
2026-01-02 23:26:12.56	109.83	4.34	-53.3	-64.1	3.8	8.46e-01	0	57	104	2832203776	68	13159
2026-01-02 23:26:13.54	109.94	4.30	-53.3	-64.1	3.8	8.45e-01	0	57	104	2832203776	68	13159
2026-01-02 23:26:14.53	110.06	4.26	-53.3	-64.1	3.8	8.46e-01	0	57	104	2832203776	68	13189
2026-01-02 23:26:15.52	110.17	4.22	-53.3	-64.1	3.8	8.47e-01	0	57	104	2832203776	68	13243
2026-01-02 23:26:16.51	110.29	4.18	-53.1	-64.1	3.8	8.45e-01	0	57	104	2832203776	68	13192
2026-01-02 23:26:17.50	110.40	4.13	-53.4	-64.1	3.8	8.46e-01	0	57	104	2832203776	68	13235
2026-01-02 23:26:18.48	110.51	4.09	-53.4	-64.1	3.8	8.46e-01	0	57	104	2832203776	68	13175
2026-01-02 23:26:19.47	110.63	4.05	-53.4	-64.1	3.8	8.46e-01	0	57	104	2832203776	68	13215
2026-01-02 23:26:20.46	110.74	4.01	-53.3	-64.2	3.8	8.46e-01	0	57	104	2832203776	68	13310
2026-01-02 23:26:21.44	110.85	3.96	-53.4	-64.2	3.8	8.46e-01	0	57	104	2832203776	68	13267
2026-01-02 23:26:22.43	110.97	3.92	-53.4	-64.2	3.8	8.45e-01	0	57	104	2832203776	68	13267
2026-01-02 23:26:23.41	111.08	3.88	-53.4	-64.2	3.8	8.46e-01	0	57	104	2832203776	68	13274
2026-01-02 23:26:24.41	111.19	3.84	-53.4	-64.2	3.8	8.47e-01	0	57	104	2832203776	68	13279
2026-01-02 23:26:25.39	111.30	3.79	-53.3	-64.1	3.8	8.46e-01	0	57	104	2832203776	68	13234
2026-01-02 23:26:26.37	111.41	3.75	-53.4	-64.1	3.8	8.47e-01	0	57	104	2832203776	68	13220
2026-01-02 23:26:27.36	111.52	3.71	-53.3	-64.1	3.8	8.45e-01	0	57	104	2832203776	68	13238
2026-01-02 23:26:28.34	111.63	3.67	-53.1	-64.2	3.8	8.46e-01	0	57	104	2832203776	68	13274
2026-01-02 23:26:29.33	111.75	3.62	-53.4	-64.1	3.8	8.45e-01	0	57	104	2832203776	68	13237
2026-01-02 23:26:30.32	111.86	3.58	-53.4	-64.1	3.8	8.46e-01	0	57	104	2832203776	68	13229
2026-01-02 23:26:31.31	111.97	3.54	-53.3	-64.2	3.8	8.47e-01	0	57	104	2832203776	68	13274
2026-01-02 23:26:32.29	112.08	3.49	-53.3	-64.1	3.8	8.46e-01	0	57	104	2832203776	68	13185
2026-01-02 23:26:33.28	112.18	3.45	-53.2	-64.1	3.8	8.46e-01	0	57	104	2832203776	68	13226
2026-01-02 23:26:34.27	112.29	3.41	-53.3	-64.1	3.8	8.45e-01	0	57	104	2832203776	68	13253
2026-01-02 23:26:35.27	112.40	3.37	-53.3	-64.1	3.8	8.48e-01	0	57	104	2832203776	68	13197
2026-01-02 23:26:36.26	112.51	3.32	-53.2	-64.1	3.8	8.47e-01	0	57	104	2832203776	68	13158
2026-01-02 23:26:37.25	112.62	3.28	-53.3	-64.1	3.8	8.46e-01	0	57	104	2832203776	68	13163
2026-01-02 23:26:38.24	112.73	3.24	-53.4	-64.1	3.8	8.46e-01	0	57	104	2832203776	68	13241
2026-01-02 23:26:39.23	112.84	3.19	-53.4	-64.1	3.8	8.45e-01	0	57	104	2832203776	68	13249
2026-01-02 23:26:40.22	112.94	3.15	-53.1	-64.1	3.8	8.45e-01	0	57	104	2832203776	68	13233
2026-01-02 23:26:41.21	113.05	3.11	-53.4	-64.1	3.8	8.45e-01	0	57	104	2832203776	68	13215
2026-01-02 23:26:42.20	113.16	3.06	-53.4	-64.1	3.8	8.46e-01	0	57	104	2832203776	68	13200
2026-01-02 23:26:43.18	113.26	3.02	-53.4	-64.1	3.8	8.46e-01	0	57	104	2832203776	68	13221
2026-01-02 23:26:44.17	113.37	2.98	-53.4	-64.1	3.8	8.45e-01	0	57	104	2832203776	68	13222
2026-01-02 23:26:45.16	113.48	2.94	-53.4	-64.1	3.8	8.46e-01	0	57	104	2832203776	68	13191

#Closed at: 2026-01-02 23:26:45
#Recorded file [2832 MB]: D:/Data/31026_260103_022557.dat