passes_logs/2026/01/02/R3.0SM8_Murmansk_STILSPACE/R3.0SM8_Murmansk_STILSPACE__20260102_133222_AQUA_rec.log

#Pass ID: 20260102_133222_AQUA
#Satellite: AQUA
#Configuration: AQUA
#almurnet v.1.7.20240730
#Start time: 2026-01-02 13:32:23

#Version: 2.2.20231116
#Station: R3.0SM8_Murmansk_STILSPACE
#Location: 33.092731 lon 68.902999 lat
#TLE: 1 27424U 02022A   25365.92641127  .00002078  00000+0  42628-3 0  9999
#TLE: 2 27424  98.4058 327.1196 0001962  94.7781 340.6230 14.61783896258835

#Time	Az	El	Level	Level2	SNR	BER	BlckErr	Temp	State	Recorded	gain1	gain2
2026-01-02 13:32:23.50	214.38	3.06	-54.5	-74.4	3.8	7.43e-01	0	46	0	0	71	37336
2026-01-02 13:32:24.49	214.47	3.11	-54.3	-74.2	3.8	7.45e-01	0	46	104	0	71	36391
2026-01-02 13:32:25.48	214.56	3.17	-54.2	-74.1	3.8	7.46e-01	0	46	104	0	71	35852
2026-01-02 13:32:26.47	214.64	3.23	-54.0	-73.9	3.8	7.47e-01	0	46	104	0	71	35099
2026-01-02 13:32:27.46	214.73	3.29	-53.8	-73.7	3.8	7.43e-01	0	47	104	0	71	34322
2026-01-02 13:32:28.44	214.82	3.35	-53.6	-73.4	3.8	7.47e-01	0	47	104	0	70	35005
2026-01-02 13:32:29.42	214.90	3.40	-53.2	-72.9	3.8	7.47e-01	0	47	104	0	70	32995
2026-01-02 13:32:30.41	214.99	3.46	-53.2	-72.2	3.8	7.46e-01	0	47	104	0	69	32412
2026-01-02 13:32:31.40	215.08	3.52	-53.1	-72.0	3.8	7.42e-01	0	47	104	0	69	31480
2026-01-02 13:32:32.38	215.17	3.58	-53.1	-71.7	3.8	7.47e-01	0	47	104	0	69	30650
2026-01-02 13:32:33.37	215.26	3.64	-53.1	-71.7	3.8	7.46e-01	0	47	104	0	69	30693
2026-01-02 13:32:34.35	215.35	3.69	-53.1	-72.0	3.8	7.43e-01	0	47	104	0	69	31529
2026-01-02 13:32:35.35	215.44	3.75	-53.2	-72.2	3.8	7.44e-01	0	47	104	0	69	32280
2026-01-02 13:32:36.33	215.53	3.81	-53.2	-72.5	3.8	7.45e-01	0	47	104	0	69	33397
2026-01-02 13:32:37.32	215.62	3.87	-53.2	-72.8	3.8	7.45e-01	0	47	104	0	69	34556
2026-01-02 13:32:38.31	215.71	3.93	-53.2	-72.9	3.8	7.43e-01	0	47	104	0	69	35265
2026-01-02 13:32:39.30	215.80	3.99	-53.2	-73.0	3.8	7.44e-01	0	47	104	0	69	35415
2026-01-02 13:32:40.28	215.89	4.05	-53.2	-73.0	3.8	7.45e-01	0	47	104	0	69	35368
2026-01-02 13:32:41.26	215.98	4.11	-53.2	-73.0	3.8	7.46e-01	0	47	104	0	69	35422
2026-01-02 13:32:42.25	216.07	4.16	-53.2	-72.9	3.8	7.46e-01	0	48	104	0	69	35169
2026-01-02 13:32:43.24	216.17	4.22	-53.1	-72.6	3.8	7.47e-01	0	47	104	0	69	34007
2026-01-02 13:32:44.23	216.26	4.28	-53.1	-71.9	3.8	7.46e-01	0	48	104	0	69	31151
2026-01-02 13:32:45.21	216.35	4.34	-53.1	-70.2	3.9	7.41e-01	0	48	104	0	69	25711
2026-01-02 13:32:46.21	216.45	4.40	-53.0	-67.8	4.8	7.12e-01	0	47	104	0	69	19562
2026-01-02 13:32:47.20	216.54	4.46	-53.0	-66.4	5.6	6.90e-01	0	48	0	0	69	16597
2026-01-02 13:32:48.18	216.64	4.52	-52.9	-64.8	6.9	6.66e-01	92	48	0	1572864	69	13783
2026-01-02 13:32:49.17	216.73	4.58	-52.8	-63.5	8.2	6.44e-01	64	48	0	3670016	69	11915
2026-01-02 13:32:50.16	216.83	4.64	-52.7	-62.7	9.0	6.34e-01	1	48	0	5242880	69	10840
2026-01-02 13:32:51.15	216.93	4.70	-52.7	-62.3	9.3	6.30e-01	0	48	0	7340032	68	11013
2026-01-02 13:32:52.14	217.02	4.76	-52.5	-61.5	10.2	6.21e-01	0	48	0	8912896	68	10016
2026-01-02 13:32:53.12	217.12	4.82	-52.5	-61.1	10.7	6.22e-01	0	48	0	11010048	68	9556
2026-01-02 13:32:54.11	217.22	4.88	-52.4	-60.4	11.4	6.18e-01	0	48	0	12582912	68	8836
2026-01-02 13:32:55.10	217.31	4.94	-52.2	-59.5	12.3	6.11e-01	0	48	0	14680064	68	7979
2026-01-02 13:32:56.09	217.41	5.00	-51.9	-58.7	13.2	6.10e-01	0	48	0	16252928	67	7649
2026-01-02 13:32:57.06	217.51	5.06	-51.7	-57.6	14.3	6.07e-01	0	48	0	18350080	66	7175
2026-01-02 13:32:58.06	217.61	5.12	-51.5	-57.3	14.6	6.08e-01	0	49	0	19922944	66	6917
2026-01-02 13:32:59.05	217.71	5.18	-51.8	-58.2	13.8	6.09e-01	0	49	0	22020096	66	7662
2026-01-02 13:33:00.04	217.81	5.25	-51.6	-57.6	14.3	6.09e-01	0	49	0	23592960	66	7198
2026-01-02 13:33:01.02	217.91	5.31	-51.4	-57.1	14.8	6.10e-01	0	49	0	25690112	66	6770
2026-01-02 13:33:02.01	218.01	5.37	-51.3	-56.7	15.2	6.08e-01	0	49	0	27787264	66	6484
2026-01-02 13:33:03.00	218.11	5.43	-51.1	-56.1	15.8	6.07e-01	0	49	0	29360128	65	6367
2026-01-02 13:33:03.99	218.21	5.49	-51.0	-55.5	16.4	6.09e-01	0	49	0	30932992	65	5987
2026-01-02 13:33:04.97	218.31	5.55	-50.9	-55.3	16.6	6.07e-01	0	49	0	33030144	65	5814
2026-01-02 13:33:05.97	218.42	5.61	-50.8	-55.1	16.8	6.07e-01	0	49	0	35127296	65	5689
2026-01-02 13:33:06.95	218.52	5.67	-50.8	-55.0	17.0	6.05e-01	0	49	0	36700160	65	5623
2026-01-02 13:33:07.94	218.62	5.73	-50.8	-55.1	16.9	6.07e-01	0	49	0	38797312	65	5673
2026-01-02 13:33:08.93	218.73	5.80	-51.0	-55.5	16.4	6.07e-01	0	49	0	40370176	65	5989
2026-01-02 13:33:09.92	218.83	5.86	-50.8	-55.2	16.8	6.07e-01	0	49	0	42467328	65	5724
2026-01-02 13:33:10.91	218.94	5.92	-50.7	-54.8	17.2	6.05e-01	0	49	0	44040192	64	5799
2026-01-02 13:33:11.89	219.04	5.98	-50.6	-54.6	17.4	6.08e-01	0	49	0	46137344	64	5666
2026-01-02 13:33:12.88	219.15	6.04	-50.6	-54.5	17.5	6.07e-01	0	49	0	47710208	64	5654
2026-01-02 13:33:13.88	219.26	6.11	-50.6	-54.6	17.4	6.08e-01	0	49	0	49807360	64	5697
2026-01-02 13:33:14.86	219.36	6.17	-50.7	-54.8	17.2	6.06e-01	0	49	0	51380224	64	5835
2026-01-02 13:33:15.85	219.47	6.23	-50.6	-54.6	17.4	6.04e-01	0	49	0	53477376	64	5677
2026-01-02 13:33:16.84	219.58	6.29	-50.6	-54.5	17.6	6.08e-01	0	50	0	55050240	64	5593
2026-01-02 13:33:17.83	219.68	6.36	-50.6	-54.6	17.5	6.06e-01	0	50	0	57147392	64	5674
2026-01-02 13:33:18.82	219.79	6.42	-50.8	-54.8	17.2	6.05e-01	0	49	0	59244544	64	5852
2026-01-02 13:33:19.81	219.90	6.48	-50.6	-54.6	17.4	6.05e-01	0	50	0	60817408	64	5705
2026-01-02 13:33:20.79	220.01	6.54	-50.7	-54.8	17.3	6.06e-01	0	50	0	62914560	64	5798
2026-01-02 13:33:21.77	220.12	6.61	-50.7	-54.7	17.3	6.06e-01	0	50	0	64487424	64	5755
2026-01-02 13:33:22.76	220.23	6.67	-50.7	-54.7	17.3	6.05e-01	0	50	0	66584576	64	5753
2026-01-02 13:33:23.75	220.34	6.73	-50.8	-54.9	17.1	6.06e-01	0	50	0	68157440	64	5917
2026-01-02 13:33:24.74	220.46	6.79	-50.7	-54.8	17.1	6.05e-01	0	50	0	70254592	64	5847
2026-01-02 13:33:25.73	220.57	6.86	-50.6	-54.6	17.4	6.06e-01	0	50	0	71827456	64	5700
2026-01-02 13:33:26.72	220.68	6.92	-50.7	-54.7	17.4	6.07e-01	0	50	0	73924608	64	5730
2026-01-02 13:33:27.72	220.79	6.98	-50.7	-54.7	17.3	6.06e-01	0	50	0	75497472	64	5736
2026-01-02 13:33:28.70	220.91	7.05	-50.7	-54.8	17.2	6.06e-01	0	50	0	77594624	64	5830
2026-01-02 13:33:29.69	221.02	7.11	-50.7	-54.7	17.4	6.07e-01	0	50	0	79167488	64	5737
2026-01-02 13:33:30.67	221.14	7.17	-50.6	-54.5	17.6	6.05e-01	0	50	0	81264640	64	5600
2026-01-02 13:33:31.67	221.25	7.24	-50.6	-54.4	17.6	6.07e-01	0	50	0	83361792	64	5591
2026-01-02 13:33:32.66	221.37	7.30	-50.6	-54.5	17.6	6.07e-01	0	50	0	84934656	64	5630
2026-01-02 13:33:33.64	221.48	7.37	-50.7	-54.6	17.4	6.06e-01	0	50	0	87031808	64	5720
2026-01-02 13:33:34.64	221.60	7.43	-50.8	-54.9	17.2	6.08e-01	0	50	0	88604672	64	5895
2026-01-02 13:33:35.63	221.72	7.49	-50.8	-55.0	17.1	6.07e-01	0	50	0	90701824	64	5929
2026-01-02 13:33:36.62	221.84	7.56	-50.8	-55.0	17.1	6.06e-01	0	50	0	92274688	64	5932
2026-01-02 13:33:37.61	221.96	7.62	-50.9	-55.1	16.9	6.08e-01	0	51	0	94371840	64	6047
2026-01-02 13:33:38.60	222.08	7.69	-50.9	-55.4	16.7	6.08e-01	0	50	0	95944704	64	6206
2026-01-02 13:33:39.59	222.20	7.75	-50.9	-55.3	16.7	6.05e-01	0	51	0	98041856	64	6144
2026-01-02 13:33:40.58	222.32	7.82	-50.9	-55.2	16.8	6.06e-01	0	51	0	99614720	64	6097
2026-01-02 13:33:41.57	222.44	7.88	-51.0	-55.4	16.6	6.06e-01	0	51	0	101711872	64	6242
2026-01-02 13:33:42.55	222.56	7.94	-50.9	-55.3	16.7	6.06e-01	0	51	0	103809024	64	6156
2026-01-02 13:33:43.54	222.68	8.01	-50.8	-55.1	16.9	6.07e-01	0	51	0	105381888	64	6009
2026-01-02 13:33:44.52	222.80	8.07	-50.8	-55.1	16.9	6.05e-01	0	51	0	107479040	64	6027
2026-01-02 13:33:45.51	222.92	8.14	-50.8	-55.0	17.0	6.06e-01	0	51	0	109051904	64	5986
2026-01-02 13:33:46.50	223.05	8.20	-50.8	-55.0	17.0	6.08e-01	0	51	0	110624768	64	5986
2026-01-02 13:33:47.49	223.17	8.27	-50.8	-54.9	17.1	6.06e-01	0	51	0	112721920	64	5902
2026-01-02 13:33:48.48	223.30	8.33	-50.8	-54.9	17.2	6.05e-01	0	51	0	114819072	64	5873
2026-01-02 13:33:49.47	223.42	8.40	-50.8	-54.9	17.2	6.07e-01	0	51	0	116391936	64	5895
2026-01-02 13:33:50.47	223.55	8.46	-50.8	-55.1	17.0	6.09e-01	0	51	0	118489088	64	5998
2026-01-02 13:33:51.46	223.68	8.53	-50.9	-55.1	17.0	6.09e-01	0	51	0	120061952	64	6035
2026-01-02 13:33:52.44	223.80	8.59	-50.8	-55.0	17.1	6.07e-01	0	51	0	122159104	64	5928
2026-01-02 13:33:53.42	223.93	8.66	-50.7	-54.8	17.2	6.08e-01	0	51	0	123731968	64	5853
2026-01-02 13:33:54.41	224.06	8.72	-50.8	-55.0	17.0	6.05e-01	0	51	0	125829120	64	5966
2026-01-02 13:33:55.40	224.19	8.79	-50.9	-55.1	17.0	6.07e-01	0	51	0	127401984	64	6002
2026-01-02 13:33:56.39	224.32	8.86	-50.9	-55.1	17.0	6.06e-01	0	51	0	129499136	64	6012
2026-01-02 13:33:57.37	224.44	8.92	-50.9	-55.1	17.0	6.06e-01	0	51	0	131072000	64	6042
2026-01-02 13:33:58.36	224.58	8.99	-50.9	-55.2	16.8	6.07e-01	0	51	0	133169152	64	6118
2026-01-02 13:33:59.35	224.71	9.05	-50.8	-54.9	17.2	6.07e-01	0	51	0	134742016	64	5882
2026-01-02 13:34:00.34	224.84	9.12	-50.7	-54.7	17.4	6.08e-01	0	51	0	136839168	64	5766
2026-01-02 13:34:01.33	224.97	9.19	-50.7	-54.8	17.3	6.03e-01	0	51	0	138936320	64	5826
2026-01-02 13:34:02.32	225.11	9.25	-50.8	-55.0	17.1	6.06e-01	0	51	0	140509184	64	5940
2026-01-02 13:34:03.31	225.24	9.32	-50.8	-55.0	17.1	6.06e-01	0	52	0	142606336	64	5931
2026-01-02 13:34:04.30	225.37	9.38	-50.8	-54.8	17.3	6.06e-01	0	51	0	144179200	64	5832
2026-01-02 13:34:05.28	225.51	9.45	-50.7	-54.7	17.4	6.08e-01	0	52	0	146276352	64	5741
2026-01-02 13:34:06.27	225.64	9.52	-50.6	-54.6	17.5	6.06e-01	0	52	0	147849216	64	5676
2026-01-02 13:34:07.26	225.78	9.58	-50.6	-54.5	17.6	6.08e-01	0	52	0	149946368	64	5616
2026-01-02 13:34:08.24	225.92	9.65	-50.6	-54.5	17.6	6.06e-01	0	52	0	151519232	64	5594
2026-01-02 13:34:09.23	226.05	9.72	-50.7	-54.6	17.5	6.06e-01	0	52	0	153616384	64	5671
2026-01-02 13:34:10.22	226.19	9.78	-50.7	-54.7	17.4	6.06e-01	0	52	0	155189248	64	5755
2026-01-02 13:34:11.21	226.33	9.85	-50.6	-54.5	17.7	6.07e-01	0	52	0	157286400	64	5598
2026-01-02 13:34:12.20	226.47	9.92	-50.5	-54.2	17.9	6.06e-01	0	52	0	158859264	64	5461
2026-01-02 13:34:13.19	226.61	9.98	-50.5	-54.1	18.0	6.06e-01	0	52	0	160956416	64	5399
2026-01-02 13:34:14.18	226.75	10.05	-50.4	-54.1	18.0	6.09e-01	0	52	0	163053568	64	5362
2026-01-02 13:34:15.16	226.89	10.12	-50.5	-54.2	18.0	6.06e-01	0	52	0	164626432	64	5403
2026-01-02 13:34:16.14	227.03	10.18	-50.4	-54.1	18.1	6.06e-01	0	52	0	166723584	64	5348
2026-01-02 13:34:17.13	227.18	10.25	-50.4	-54.0	18.1	6.07e-01	0	52	0	168296448	64	5315
2026-01-02 13:34:18.12	227.32	10.32	-50.4	-54.0	18.2	6.07e-01	0	52	0	170393600	64	5322
2026-01-02 13:34:19.11	227.47	10.38	-50.4	-54.1	18.1	6.07e-01	0	52	0	171966464	64	5347
2026-01-02 13:34:20.10	227.61	10.45	-50.5	-54.2	18.0	6.06e-01	0	52	0	174063616	64	5418
2026-01-02 13:34:21.09	227.76	10.52	-50.7	-54.5	17.8	6.06e-01	0	52	0	175636480	64	5593
2026-01-02 13:34:22.08	227.90	10.59	-50.7	-54.5	17.8	6.07e-01	0	52	0	177733632	64	5607
2026-01-02 13:34:23.07	228.05	10.65	-50.6	-54.4	17.9	6.09e-01	0	52	0	179306496	64	5534
2026-01-02 13:34:24.07	228.20	10.72	-50.7	-54.4	17.8	6.06e-01	0	52	0	181403648	64	5573
2026-01-02 13:34:25.06	228.35	10.79	-50.7	-54.6	17.7	6.07e-01	0	52	0	183500800	64	5693
2026-01-02 13:34:26.06	228.50	10.86	-50.6	-54.3	17.9	6.09e-01	0	53	0	185073664	64	5508
2026-01-02 13:34:27.05	228.65	10.92	-50.5	-54.1	18.1	6.07e-01	0	52	0	187170816	64	5381
2026-01-02 13:34:28.04	228.80	10.99	-50.5	-54.1	18.2	6.05e-01	0	52	0	188743680	64	5380
2026-01-02 13:34:29.02	228.95	11.06	-50.6	-54.2	18.0	6.07e-01	0	52	0	190840832	64	5460
2026-01-02 13:34:29.99	229.10	11.13	-50.5	-54.0	18.2	6.07e-01	0	53	0	192413696	64	5327
2026-01-02 13:34:30.98	229.26	11.19	-50.8	-54.6	17.7	6.08e-01	0	53	0	194510848	64	5685
2026-01-02 13:34:31.96	229.41	11.26	-50.5	-54.0	18.3	6.09e-01	0	52	0	196083712	64	5297
2026-01-02 13:34:32.96	229.56	11.33	-50.2	-53.4	18.8	6.05e-01	0	53	0	198180864	64	4967
2026-01-02 13:34:33.96	229.72	11.40	-50.0	-53.1	19.3	6.06e-01	0	52	0	199753728	63	5048
2026-01-02 13:34:34.95	229.88	11.46	-49.8	-52.7	19.6	6.05e-01	0	53	0	201850880	63	4859
2026-01-02 13:34:35.94	230.03	11.53	-49.7	-52.5	19.9	6.08e-01	0	53	0	203423744	63	4717
2026-01-02 13:34:36.92	230.19	11.60	-49.6	-52.4	19.9	6.07e-01	0	53	0	205520896	62	4971
2026-01-02 13:34:37.91	230.35	11.67	-49.6	-52.4	20.0	6.07e-01	0	53	0	207093760	62	4942
2026-01-02 13:34:38.90	230.51	11.74	-49.6	-52.4	20.0	6.08e-01	0	53	0	209190912	62	4960
2026-01-02 13:34:39.89	230.67	11.80	-49.7	-52.4	20.0	6.06e-01	0	53	0	210763776	62	4980
2026-01-02 13:34:40.87	230.83	11.87	-49.8	-52.6	19.8	6.05e-01	0	53	0	212860928	62	5089
2026-01-02 13:34:41.86	230.99	11.94	-49.6	-52.3	20.1	6.07e-01	0	53	0	214958080	62	4924
2026-01-02 13:34:42.85	231.15	12.01	-49.4	-52.0	20.4	6.08e-01	0	53	0	216530944	62	4741
2026-01-02 13:34:43.83	231.31	12.07	-49.3	-51.9	20.6	6.06e-01	0	53	0	218628096	62	4664
2026-01-02 13:34:44.82	231.48	12.14	-49.4	-51.9	20.5	6.06e-01	0	53	0	220200960	62	4690
2026-01-02 13:34:45.81	231.64	12.21	-49.4	-52.0	20.5	6.06e-01	0	53	0	222298112	62	4725
2026-01-02 13:34:46.80	231.81	12.28	-49.5	-52.1	20.5	6.06e-01	0	53	0	223870976	62	4776
2026-01-02 13:34:47.79	231.97	12.35	-49.6	-52.2	20.3	6.03e-01	0	53	0	225968128	62	4856
2026-01-02 13:34:48.77	232.14	12.41	-49.4	-52.0	20.6	6.06e-01	0	53	0	227540992	62	4718
2026-01-02 13:34:49.76	232.31	12.48	-49.3	-51.7	20.8	6.07e-01	0	53	0	229638144	62	4590
2026-01-02 13:34:50.74	232.47	12.55	-49.2	-51.7	20.9	6.07e-01	0	53	0	231211008	62	4555
2026-01-02 13:34:51.72	232.64	12.62	-49.3	-51.7	20.8	6.06e-01	0	53	0	233308160	62	4577
2026-01-02 13:34:52.71	232.81	12.69	-49.4	-51.9	20.7	6.07e-01	0	53	0	234881024	62	4658
2026-01-02 13:34:53.70	232.98	12.75	-49.2	-51.6	20.9	6.06e-01	0	53	0	236978176	62	4545
2026-01-02 13:34:54.69	233.15	12.82	-49.0	-51.3	21.3	6.05e-01	0	53	0	238551040	61	4634
2026-01-02 13:34:55.68	233.33	12.89	-49.0	-51.2	21.4	6.05e-01	0	53	0	240648192	61	4569
2026-01-02 13:34:56.67	233.50	12.96	-48.9	-51.2	21.4	6.06e-01	0	53	0	242745344	61	4568
2026-01-02 13:34:57.66	233.67	13.03	-49.0	-51.2	21.4	6.06e-01	0	53	0	244318208	61	4597
2026-01-02 13:34:58.65	233.85	13.09	-49.1	-51.3	21.3	6.06e-01	0	53	0	246415360	61	4634
2026-01-02 13:34:59.64	234.03	13.16	-49.1	-51.3	21.3	6.08e-01	0	53	0	247988224	61	4624
2026-01-02 13:35:00.63	234.20	13.23	-49.0	-51.2	21.5	6.09e-01	0	53	0	250085376	61	4578
2026-01-02 13:35:01.61	234.38	13.30	-49.0	-51.2	21.5	6.08e-01	0	53	0	251658240	61	4556
2026-01-02 13:35:02.60	234.56	13.37	-49.0	-51.2	21.5	6.04e-01	0	53	0	253755392	61	4590
2026-01-02 13:35:03.60	234.74	13.43	-49.1	-51.4	21.3	6.05e-01	0	53	0	255328256	61	4680
2026-01-02 13:35:04.58	234.92	13.50	-49.2	-51.5	21.3	6.05e-01	0	53	0	257425408	61	4736
2026-01-02 13:35:05.57	235.10	13.57	-49.2	-51.4	21.4	6.06e-01	0	53	0	258998272	61	4697
2026-01-02 13:35:06.56	235.28	13.64	-49.2	-51.4	21.3	6.09e-01	0	53	0	261095424	61	4701
2026-01-02 13:35:07.55	235.46	13.70	-49.2	-51.6	21.3	6.08e-01	0	53	0	262668288	61	4763
2026-01-02 13:35:08.53	235.64	13.77	-49.4	-51.7	21.1	6.06e-01	0	53	0	264765440	61	4864
2026-01-02 13:35:09.52	235.83	13.84	-49.4	-51.7	21.1	6.05e-01	0	53	0	266338304	61	4844
2026-01-02 13:35:10.51	236.01	13.91	-49.3	-51.6	21.3	6.04e-01	0	53	0	268435456	61	4773
2026-01-02 13:35:11.51	236.20	13.98	-49.2	-51.5	21.3	6.05e-01	0	54	0	270532608	61	4750
2026-01-02 13:35:12.50	236.39	14.04	-49.1	-51.3	21.6	6.07e-01	0	53	0	272105472	61	4605
2026-01-02 13:35:13.49	236.58	14.11	-49.0	-51.2	21.7	6.08e-01	0	53	0	274202624	61	4570
2026-01-02 13:35:14.48	236.77	14.18	-49.0	-51.1	21.7	6.05e-01	0	54	0	275775488	61	4515
2026-01-02 13:35:15.46	236.96	14.24	-49.0	-51.2	21.7	6.07e-01	0	53	0	277872640	61	4559
2026-01-02 13:35:16.46	237.15	14.31	-49.1	-51.3	21.6	6.05e-01	0	53	0	279445504	61	4603
2026-01-02 13:35:17.46	237.34	14.38	-49.1	-51.2	21.7	6.08e-01	0	53	0	281542656	61	4591
2026-01-02 13:35:18.44	237.53	14.45	-49.2	-51.4	21.5	6.06e-01	0	54	0	283115520	61	4704
2026-01-02 13:35:19.42	237.72	14.51	-49.2	-51.4	21.5	6.06e-01	0	53	0	285212672	61	4686
2026-01-02 13:35:20.42	237.92	14.58	-48.9	-51.0	21.9	6.07e-01	0	54	0	286785536	61	4490
2026-01-02 13:35:21.41	238.12	14.65	-48.8	-50.8	22.2	6.06e-01	0	54	0	288882688	61	4348
2026-01-02 13:35:22.40	238.31	14.71	-48.6	-50.6	22.3	6.06e-01	0	54	0	290455552	60	4527
2026-01-02 13:35:23.39	238.51	14.78	-48.6	-50.6	22.4	6.08e-01	0	54	0	292552704	60	4497
2026-01-02 13:35:24.38	238.71	14.85	-48.6	-50.5	22.4	6.05e-01	0	54	0	294649856	60	4483
2026-01-02 13:35:25.37	238.91	14.91	-48.6	-50.5	22.5	6.05e-01	0	54	0	296222720	60	4473
2026-01-02 13:35:26.36	239.11	14.98	-48.6	-50.5	22.5	6.05e-01	0	54	0	298319872	60	4460
2026-01-02 13:35:27.34	239.31	15.05	-48.6	-50.6	22.4	6.08e-01	0	54	0	299892736	60	4496
2026-01-02 13:35:28.33	239.51	15.11	-48.6	-50.5	22.5	6.05e-01	0	54	0	301989888	60	4460
2026-01-02 13:35:29.32	239.71	15.18	-48.6	-50.5	22.5	6.04e-01	0	54	0	303562752	60	4479
2026-01-02 13:35:30.31	239.91	15.24	-48.7	-50.6	22.4	6.06e-01	0	54	0	305659904	60	4540
2026-01-02 13:35:31.30	240.12	15.31	-48.8	-50.8	22.3	6.06e-01	0	54	0	307232768	60	4601
2026-01-02 13:35:32.29	240.32	15.37	-48.7	-50.7	22.4	6.09e-01	0	54	0	309329920	60	4547
2026-01-02 13:35:33.28	240.53	15.44	-48.7	-50.6	22.4	6.09e-01	0	54	0	310902784	60	4529
2026-01-02 13:35:34.27	240.74	15.51	-48.7	-50.7	22.4	6.08e-01	0	54	0	312999936	60	4554
2026-01-02 13:35:35.27	240.95	15.57	-48.7	-50.7	22.4	6.07e-01	0	54	0	315097088	60	4549
2026-01-02 13:35:36.25	241.15	15.64	-48.6	-50.6	22.5	6.07e-01	0	54	0	316669952	60	4494
2026-01-02 13:35:37.24	241.37	15.70	-48.7	-50.6	22.5	6.05e-01	0	54	0	318767104	60	4507
2026-01-02 13:35:38.23	241.58	15.76	-48.7	-50.6	22.5	6.06e-01	0	54	0	320339968	60	4520
2026-01-02 13:35:39.22	241.79	15.83	-48.9	-50.9	22.2	6.07e-01	0	54	0	322437120	60	4663
2026-01-02 13:35:40.20	242.00	15.89	-48.7	-50.7	22.4	6.05e-01	0	54	0	324009984	60	4546
2026-01-02 13:35:41.19	242.21	15.96	-48.5	-50.4	22.6	6.07e-01	0	54	0	326107136	60	4406
2026-01-02 13:35:42.17	242.43	16.02	-48.4	-50.3	22.8	6.05e-01	0	54	0	327680000	60	4349
2026-01-02 13:35:43.16	242.64	16.08	-48.4	-50.3	22.7	6.08e-01	0	54	0	329777152	60	4361
2026-01-02 13:35:44.15	242.86	16.15	-48.4	-50.3	22.8	6.09e-01	0	54	0	331350016	60	4347
2026-01-02 13:35:45.14	243.08	16.21	-48.4	-50.3	22.8	6.04e-01	0	54	0	333447168	60	4346
2026-01-02 13:35:46.13	243.30	16.28	-48.6	-50.4	22.6	6.07e-01	0	54	0	335020032	60	4436
2026-01-02 13:35:47.12	243.51	16.34	-48.5	-50.4	22.7	6.08e-01	0	54	0	337117184	60	4397
2026-01-02 13:35:48.11	243.74	16.40	-48.6	-50.5	22.6	6.06e-01	0	54	0	339214336	60	4452
2026-01-02 13:35:49.10	243.96	16.46	-48.7	-50.6	22.5	6.08e-01	0	54	0	340787200	60	4535
2026-01-02 13:35:50.08	244.18	16.53	-48.5	-50.4	22.6	6.07e-01	0	54	0	342884352	60	4421
2026-01-02 13:35:51.07	244.40	16.59	-48.7	-50.6	22.5	6.06e-01	0	54	0	344457216	60	4519
2026-01-02 13:35:52.06	244.63	16.65	-48.7	-50.6	22.4	6.05e-01	0	54	0	346554368	60	4542
2026-01-02 13:35:53.06	244.85	16.71	-48.8	-50.8	22.3	6.06e-01	0	54	0	348127232	60	4624
2026-01-02 13:35:54.04	245.08	16.77	-48.8	-50.7	22.4	6.08e-01	0	54	0	350224384	60	4579
2026-01-02 13:35:55.03	245.30	16.83	-48.7	-50.6	22.4	6.06e-01	0	54	0	351797248	60	4534
2026-01-02 13:35:56.03	245.54	16.90	-48.6	-50.5	22.6	6.06e-01	0	54	0	353894400	60	4459
2026-01-02 13:35:57.01	245.76	16.96	-48.7	-50.6	22.5	6.05e-01	0	54	0	355467264	60	4501
2026-01-02 13:35:57.99	245.99	17.02	-49.0	-51.0	22.1	6.07e-01	0	54	0	357564416	60	4735
2026-01-02 13:35:58.99	246.22	17.08	-48.9	-50.9	22.1	6.07e-01	0	54	0	359137280	60	4687
2026-01-02 13:35:59.98	246.46	17.14	-49.1	-51.2	21.9	6.07e-01	0	54	0	361234432	60	4847
2026-01-02 13:36:00.97	246.69	17.20	-48.8	-50.8	22.3	6.05e-01	0	54	0	362807296	60	4602
2026-01-02 13:36:01.97	246.93	17.26	-48.4	-50.3	22.8	6.05e-01	0	54	0	364904448	60	4352
2026-01-02 13:36:02.96	247.16	17.32	-48.4	-50.2	22.9	6.07e-01	0	54	0	367001600	60	4331
2026-01-02 13:36:03.94	247.39	17.37	-48.5	-50.3	22.8	6.05e-01	0	54	0	368574464	60	4362
2026-01-02 13:36:04.93	247.63	17.43	-48.5	-50.4	22.7	6.06e-01	0	54	0	370671616	60	4417
2026-01-02 13:36:05.92	247.87	17.49	-48.5	-50.3	22.7	6.06e-01	0	54	0	372244480	60	4371
2026-01-02 13:36:06.91	248.11	17.55	-48.5	-50.3	22.8	6.07e-01	0	54	0	374341632	60	4372
2026-01-02 13:36:07.90	248.35	17.61	-48.4	-50.3	22.8	6.08e-01	0	54	0	375914496	60	4351
2026-01-02 13:36:08.89	248.59	17.67	-48.6	-50.5	22.6	6.07e-01	0	54	0	378011648	60	4450
2026-01-02 13:36:09.88	248.83	17.72	-48.5	-50.3	22.8	6.07e-01	0	54	0	379584512	60	4364
2026-01-02 13:36:10.87	249.07	17.78	-48.4	-50.2	22.8	6.08e-01	0	54	0	381681664	60	4339
2026-01-02 13:36:11.86	249.32	17.84	-48.4	-50.2	22.9	6.06e-01	0	54	0	383254528	60	4299
2026-01-02 13:36:12.85	249.56	17.89	-48.5	-50.3	22.8	6.08e-01	0	54	0	385351680	60	4369
2026-01-02 13:36:13.84	249.80	17.95	-48.7	-50.6	22.5	6.07e-01	0	54	0	386924544	60	4533
2026-01-02 13:36:14.82	250.05	18.00	-48.6	-50.5	22.6	6.07e-01	0	54	0	389021696	60	4491
2026-01-02 13:36:15.82	250.30	18.06	-48.7	-50.6	22.5	6.07e-01	0	54	0	391118848	60	4533
2026-01-02 13:36:16.81	250.55	18.11	-48.9	-50.9	22.2	6.06e-01	0	54	0	392691712	60	4662
2026-01-02 13:36:17.80	250.80	18.17	-48.7	-50.7	22.4	6.05e-01	0	54	0	394788864	60	4554
2026-01-02 13:36:18.79	251.05	18.22	-48.7	-50.6	22.5	6.07e-01	0	55	0	396361728	60	4505
2026-01-02 13:36:19.79	251.30	18.27	-48.8	-50.8	22.3	6.09e-01	0	54	0	398458880	60	4620
2026-01-02 13:36:20.78	251.55	18.33	-48.8	-50.7	22.4	6.07e-01	0	54	0	400031744	60	4595
2026-01-02 13:36:21.77	251.80	18.38	-48.7	-50.6	22.5	6.06e-01	0	55	0	402128896	60	4542
2026-01-02 13:36:22.76	252.06	18.43	-48.7	-50.7	22.4	6.05e-01	0	55	0	403701760	60	4561
2026-01-02 13:36:23.74	252.31	18.48	-48.8	-50.7	22.4	6.05e-01	0	55	0	405798912	60	4581
2026-01-02 13:36:24.73	252.56	18.54	-48.6	-50.5	22.6	6.08e-01	0	55	0	407371776	60	4461
2026-01-02 13:36:25.72	252.82	18.59	-48.5	-50.4	22.7	6.09e-01	0	55	0	409468928	60	4412
2026-01-02 13:36:26.72	253.08	18.64	-48.6	-50.5	22.6	6.05e-01	0	55	0	411566080	60	4467
2026-01-02 13:36:27.70	253.34	18.69	-48.8	-50.7	22.4	6.05e-01	0	55	0	413138944	60	4597
2026-01-02 13:36:28.69	253.59	18.74	-48.7	-50.6	22.5	6.08e-01	0	54	0	415236096	60	4509
2026-01-02 13:36:29.67	253.85	18.79	-48.6	-50.4	22.7	6.07e-01	0	55	0	416808960	60	4432
2026-01-02 13:36:30.65	254.11	18.84	-48.7	-50.6	22.6	6.06e-01	0	55	0	418906112	60	4510
2026-01-02 13:36:31.64	254.37	18.88	-48.7	-50.7	22.4	6.06e-01	0	55	0	420478976	60	4555
2026-01-02 13:36:32.63	254.63	18.93	-48.6	-50.5	22.6	6.08e-01	0	55	0	422576128	60	4450
2026-01-02 13:36:33.62	254.90	18.98	-48.5	-50.4	22.7	6.07e-01	0	55	0	424148992	60	4414
2026-01-02 13:36:34.61	255.16	19.03	-48.6	-50.5	22.6	6.06e-01	0	55	0	426246144	60	4454
2026-01-02 13:36:35.60	255.43	19.07	-48.6	-50.5	22.6	6.06e-01	0	55	0	427819008	60	4465
2026-01-02 13:36:36.59	255.69	19.12	-48.6	-50.5	22.6	6.06e-01	0	55	0	429916160	60	4473
2026-01-02 13:36:37.58	255.96	19.17	-48.8	-50.7	22.4	6.08e-01	0	55	0	431489024	60	4590
2026-01-02 13:36:38.56	256.22	19.21	-48.9	-50.9	22.3	6.07e-01	0	55	0	433586176	60	4691
2026-01-02 13:36:39.55	256.49	19.26	-48.9	-50.9	22.2	6.07e-01	0	55	0	435159040	60	4682
2026-01-02 13:36:40.53	256.76	19.30	-48.9	-50.9	22.3	6.06e-01	0	55	0	437256192	60	4667
2026-01-02 13:36:41.51	257.02	19.34	-49.1	-51.2	22.0	6.07e-01	0	55	0	439353344	60	4819
2026-01-02 13:36:42.50	257.29	19.39	-49.2	-51.3	21.9	6.06e-01	0	55	0	440926208	60	4893
2026-01-02 13:36:43.50	257.57	19.43	-49.1	-51.2	21.9	6.06e-01	0	55	0	442499072	60	4845
2026-01-02 13:36:44.48	257.84	19.47	-49.2	-51.3	21.8	6.06e-01	0	55	0	444596224	60	4918
2026-01-02 13:36:45.47	258.11	19.51	-49.3	-51.4	21.7	6.06e-01	0	55	0	446693376	60	4961
2026-01-02 13:36:46.46	258.38	19.55	-49.2	-51.3	21.8	6.05e-01	0	55	0	448266240	60	4913
2026-01-02 13:36:47.46	258.66	19.59	-49.0	-51.1	22.1	6.08e-01	0	55	0	450363392	60	4770
2026-01-02 13:36:48.44	258.93	19.63	-49.0	-51.0	22.1	6.08e-01	0	55	0	451936256	60	4753
2026-01-02 13:36:49.43	259.21	19.67	-49.1	-51.2	22.0	6.07e-01	0	55	0	454033408	60	4833
2026-01-02 13:36:50.42	259.49	19.71	-49.0	-51.1	22.0	6.08e-01	0	55	0	455606272	60	4779
2026-01-02 13:36:51.41	259.76	19.75	-48.8	-50.7	22.3	6.06e-01	0	55	0	457703424	60	4577
2026-01-02 13:36:52.40	260.04	19.79	-48.7	-50.6	22.6	6.07e-01	0	55	0	459276288	60	4504
2026-01-02 13:36:53.39	260.32	19.82	-48.7	-50.6	22.6	6.06e-01	0	55	0	461373440	60	4511
2026-01-02 13:36:54.38	260.60	19.86	-48.7	-50.7	22.5	6.08e-01	0	55	0	462946304	60	4551
2026-01-02 13:36:55.37	260.88	19.90	-48.6	-50.5	22.6	6.08e-01	0	55	0	465043456	60	4472
2026-01-02 13:36:56.36	261.16	19.93	-48.6	-50.5	22.6	6.05e-01	0	55	0	467140608	60	4472
2026-01-02 13:36:57.34	261.44	19.97	-48.7	-50.6	22.6	6.06e-01	0	55	0	468713472	60	4495
2026-01-02 13:36:58.34	261.72	20.00	-48.8	-50.8	22.3	6.05e-01	0	55	0	470810624	60	4618
2026-01-02 13:36:59.33	262.01	20.03	-49.0	-51.0	22.1	6.05e-01	0	55	0	472383488	60	4758
2026-01-02 13:37:00.32	262.29	20.07	-48.8	-50.8	22.4	6.06e-01	0	55	0	474480640	60	4612
2026-01-02 13:37:01.31	262.57	20.10	-48.6	-50.5	22.6	6.08e-01	0	55	0	476053504	60	4475
2026-01-02 13:37:02.30	262.86	20.13	-48.6	-50.4	22.7	6.08e-01	0	55	0	478150656	60	4437
2026-01-02 13:37:03.28	263.14	20.16	-48.6	-50.5	22.6	6.06e-01	0	55	0	479723520	60	4486
2026-01-02 13:37:04.26	263.42	20.19	-48.6	-50.5	22.6	6.06e-01	0	55	0	481820672	60	4476
2026-01-02 13:37:05.25	263.71	20.22	-48.6	-50.5	22.7	6.06e-01	0	55	0	483393536	60	4451
2026-01-02 13:37:06.24	264.00	20.25	-48.9	-50.8	22.4	6.06e-01	0	55	0	485490688	60	4631
2026-01-02 13:37:07.23	264.28	20.28	-49.1	-51.2	22.0	6.06e-01	0	55	0	487063552	60	4837
2026-01-02 13:37:08.22	264.57	20.31	-48.9	-50.9	22.2	6.03e-01	0	55	0	489160704	60	4692
2026-01-02 13:37:09.21	264.86	20.34	-48.7	-50.6	22.6	6.05e-01	0	55	0	491257856	60	4499
2026-01-02 13:37:10.20	265.15	20.36	-48.6	-50.4	22.7	6.05e-01	0	55	0	492830720	60	4429
2026-01-02 13:37:11.20	265.44	20.39	-48.7	-50.6	22.6	6.05e-01	0	55	0	494927872	60	4499
2026-01-02 13:37:12.19	265.73	20.41	-48.6	-50.5	22.6	6.04e-01	0	55	0	496500736	60	4463
2026-01-02 13:37:13.18	266.02	20.44	-48.7	-50.7	22.5	6.05e-01	0	55	0	498597888	60	4547
2026-01-02 13:37:14.17	266.31	20.46	-48.9	-50.9	22.3	6.03e-01	0	55	0	500170752	60	4658
2026-01-02 13:37:15.16	266.60	20.48	-48.7	-50.7	22.5	6.04e-01	0	55	0	502267904	60	4550
2026-01-02 13:37:16.14	266.89	20.51	-48.7	-50.6	22.6	6.05e-01	0	55	0	503840768	60	4499
2026-01-02 13:37:17.13	267.18	20.53	-48.7	-50.6	22.5	6.03e-01	0	55	0	505937920	60	4518
2026-01-02 13:37:18.12	267.48	20.55	-48.6	-50.5	22.6	6.05e-01	0	55	0	507510784	60	4462
2026-01-02 13:37:19.11	267.77	20.57	-48.7	-50.6	22.6	6.04e-01	0	55	0	509607936	60	4508
2026-01-02 13:37:20.09	268.06	20.59	-48.9	-50.9	22.3	6.03e-01	0	55	0	511180800	60	4696
2026-01-02 13:37:21.08	268.35	20.61	-48.8	-50.7	22.4	6.03e-01	0	55	0	513277952	60	4580
2026-01-02 13:37:22.06	268.64	20.63	-48.8	-50.7	22.4	6.02e-01	0	55	0	515375104	60	4586
2026-01-02 13:37:23.05	268.94	20.64	-49.1	-51.1	22.0	6.03e-01	0	55	0	516947968	60	4813
2026-01-02 13:37:24.04	269.23	20.66	-48.9	-50.8	22.3	6.04e-01	0	55	0	519045120	60	4637
2026-01-02 13:37:25.03	269.53	20.68	-48.8	-50.8	22.4	6.04e-01	0	55	0	520617984	60	4627
2026-01-02 13:37:26.02	269.82	20.69	-49.0	-51.1	22.1	6.03e-01	0	56	0	522715136	60	4773
2026-01-02 13:37:27.01	270.12	20.71	-48.9	-50.9	22.3	6.02e-01	0	55	0	524288000	60	4670
2026-01-02 13:37:28.00	270.42	20.72	-48.9	-50.9	22.3	6.04e-01	0	55	0	526385152	60	4659
2026-01-02 13:37:28.99	270.71	20.73	-48.9	-50.8	22.3	6.03e-01	0	55	0	527958016	60	4651
2026-01-02 13:37:29.97	271.01	20.75	-49.0	-51.0	22.2	6.04e-01	0	56	0	530055168	60	4718
2026-01-02 13:37:30.95	271.30	20.76	-49.0	-51.1	22.0	6.05e-01	0	55	0	531628032	60	4773
2026-01-02 13:37:31.94	271.60	20.77	-49.0	-51.0	22.1	6.03e-01	0	56	0	533725184	60	4755
2026-01-02 13:37:32.92	271.89	20.78	-49.1	-51.2	22.0	6.05e-01	0	55	0	535298048	60	4815
2026-01-02 13:37:33.91	272.19	20.79	-49.2	-51.3	21.9	6.03e-01	0	55	0	537395200	60	4899
2026-01-02 13:37:34.89	272.48	20.80	-49.1	-51.1	22.1	6.04e-01	0	55	0	538968064	60	4783
2026-01-02 13:37:35.88	272.78	20.81	-49.0	-51.0	22.2	6.05e-01	0	55	0	541065216	60	4708
2026-01-02 13:37:36.87	273.08	20.81	-49.1	-51.1	22.1	6.05e-01	0	56	0	542638080	60	4809
2026-01-02 13:37:37.86	273.38	20.82	-49.3	-51.4	21.8	6.04e-01	0	56	0	544735232	60	4974
2026-01-02 13:37:38.84	273.67	20.83	-49.1	-51.2	22.0	6.06e-01	0	55	0	546308096	60	4834
2026-01-02 13:37:39.83	273.97	20.83	-48.9	-50.9	22.2	6.02e-01	0	55	0	548405248	60	4686
2026-01-02 13:37:40.82	274.27	20.83	-48.9	-50.8	22.3	6.03e-01	0	55	0	550502400	60	4642
2026-01-02 13:37:41.81	274.56	20.84	-48.9	-50.8	22.3	6.06e-01	0	56	0	552075264	60	4639
2026-01-02 13:37:42.79	274.86	20.84	-48.8	-50.7	22.4	6.04e-01	0	55	0	554172416	60	4563
2026-01-02 13:37:43.79	275.16	20.84	-48.9	-50.8	22.4	6.03e-01	0	56	0	555745280	60	4634
2026-01-02 13:37:44.78	275.46	20.85	-49.3	-51.5	21.7	6.05e-01	0	55	0	557842432	60	4990
2026-01-02 13:37:45.77	275.76	20.85	-49.1	-51.2	22.0	6.05e-01	0	55	0	559415296	61	4576
2026-01-02 13:37:46.75	276.05	20.85	-48.9	-50.9	22.3	6.02e-01	0	56	0	561512448	61	4395
2026-01-02 13:37:47.75	276.36	20.84	-48.7	-50.6	22.5	6.04e-01	0	56	0	563085312	61	4284
2026-01-02 13:37:48.74	276.65	20.84	-48.7	-50.6	22.6	6.03e-01	0	56	0	565182464	60	4499
2026-01-02 13:37:49.73	276.95	20.84	-48.7	-50.6	22.6	6.03e-01	0	56	0	566755328	60	4499
2026-01-02 13:37:50.72	277.25	20.84	-48.8	-50.7	22.5	6.04e-01	0	56	0	568852480	60	4569
2026-01-02 13:37:51.71	277.55	20.83	-48.7	-50.6	22.5	6.04e-01	0	56	0	570949632	60	4527
2026-01-02 13:37:52.70	277.85	20.83	-48.7	-50.6	22.6	6.04e-01	0	56	0	572522496	60	4495
2026-01-02 13:37:53.69	278.14	20.82	-48.7	-50.6	22.6	6.05e-01	0	56	0	574619648	60	4514
2026-01-02 13:37:54.67	278.44	20.82	-48.8	-50.7	22.5	6.05e-01	0	56	0	576192512	60	4576
2026-01-02 13:37:55.66	278.74	20.81	-48.7	-50.6	22.6	6.02e-01	0	56	0	578289664	60	4514
2026-01-02 13:37:56.65	279.04	20.80	-48.6	-50.5	22.6	6.03e-01	0	56	0	579862528	60	4471
2026-01-02 13:37:57.64	279.33	20.80	-48.7	-50.5	22.6	6.05e-01	0	56	0	581959680	60	4493
2026-01-02 13:37:58.63	279.63	20.79	-48.7	-50.7	22.5	6.01e-01	0	56	0	583532544	60	4546
2026-01-02 13:37:59.62	279.93	20.78	-48.7	-50.6	22.5	6.05e-01	0	56	0	585629696	60	4528
2026-01-02 13:38:00.61	280.22	20.77	-48.7	-50.6	22.5	6.04e-01	0	56	0	587202560	60	4544
2026-01-02 13:38:01.61	280.52	20.76	-48.8	-50.7	22.5	6.04e-01	0	56	0	589299712	60	4565
2026-01-02 13:38:02.60	280.82	20.74	-48.7	-50.7	22.5	6.04e-01	0	56	0	590872576	60	4550
2026-01-02 13:38:03.59	281.12	20.73	-48.7	-50.7	22.5	6.02e-01	0	56	0	592969728	60	4554
2026-01-02 13:38:04.58	281.41	20.72	-48.8	-50.7	22.4	6.04e-01	0	56	0	595066880	60	4563
2026-01-02 13:38:05.57	281.71	20.70	-48.9	-50.9	22.2	6.04e-01	0	56	0	596639744	60	4660
2026-01-02 13:38:06.55	282.00	20.69	-49.0	-51.0	22.1	6.05e-01	0	56	0	598212608	60	4753
2026-01-02 13:38:07.54	282.30	20.67	-49.1	-51.1	21.9	6.04e-01	0	56	0	600309760	60	4810
2026-01-02 13:38:08.53	282.59	20.66	-49.2	-51.4	21.6	6.03e-01	0	56	0	602406912	60	4961
2026-01-02 13:38:09.52	282.88	20.64	-49.4	-51.7	21.3	6.03e-01	0	56	0	603979776	60	5113
2026-01-02 13:38:10.50	283.18	20.62	-49.7	-52.2	20.8	6.02e-01	0	56	0	606076928	61	5116
2026-01-02 13:38:11.49	283.47	20.60	-49.9	-52.5	20.3	6.04e-01	0	56	0	607649792	62	5028
2026-01-02 13:38:12.47	283.76	20.59	-50.1	-52.9	20.0	6.03e-01	0	56	0	609746944	62	5227
2026-01-02 13:38:13.47	284.06	20.57	-50.3	-53.3	19.4	6.04e-01	0	56	0	611319808	62	5522
2026-01-02 13:38:14.46	284.35	20.54	-50.5	-53.7	18.9	6.04e-01	0	56	0	613416960	63	5459
2026-01-02 13:38:15.44	284.64	20.52	-50.7	-54.1	18.5	6.04e-01	0	56	0	614989824	63	5693
2026-01-02 13:38:16.44	284.93	20.50	-50.8	-54.4	18.2	6.03e-01	0	56	0	617086976	63	5860
2026-01-02 13:38:17.44	285.23	20.48	-50.9	-54.7	17.7	6.03e-01	0	56	0	618659840	63	6099
2026-01-02 13:38:18.43	285.52	20.46	-51.0	-55.1	17.1	6.04e-01	0	56	0	620756992	64	6037
2026-01-02 13:38:19.41	285.80	20.43	-51.2	-55.7	16.5	6.04e-01	0	56	0	622854144	64	6494
2026-01-02 13:38:20.41	286.10	20.41	-51.3	-56.0	16.1	6.04e-01	0	56	0	624427008	64	6716
2026-01-02 13:38:21.40	286.39	20.38	-51.4	-56.3	15.8	6.04e-01	0	56	0	626524160	65	6561
2026-01-02 13:38:22.38	286.67	20.36	-51.5	-56.5	15.6	6.03e-01	0	56	0	628097024	65	6694
2026-01-02 13:38:23.37	286.96	20.33	-51.7	-57.2	15.0	6.04e-01	0	56	0	630194176	65	7229
2026-01-02 13:38:24.34	287.24	20.30	-51.9	-57.7	14.5	6.04e-01	0	56	0	631767040	65	7631
2026-01-02 13:38:25.33	287.53	20.28	-51.8	-57.7	14.4	6.02e-01	0	56	0	633864192	65	7660
2026-01-02 13:38:26.32	287.82	20.25	-51.9	-57.8	14.3	6.05e-01	0	56	0	635437056	66	7354
2026-01-02 13:38:27.31	288.10	20.22	-51.8	-57.5	14.6	6.04e-01	0	56	0	637534208	66	7059
2026-01-02 13:38:28.30	288.39	20.19	-51.7	-57.4	14.7	6.05e-01	0	56	0	639107072	66	6996
2026-01-02 13:38:29.29	288.67	20.16	-51.7	-57.3	14.7	6.03e-01	0	56	0	641204224	66	6928
2026-01-02 13:38:30.27	288.95	20.13	-51.7	-57.4	14.5	6.03e-01	0	56	0	642777088	66	6970
2026-01-02 13:38:31.26	289.24	20.09	-51.6	-57.4	14.5	6.04e-01	0	56	0	644874240	66	7005
2026-01-02 13:38:32.25	289.52	20.06	-51.6	-57.4	14.5	6.05e-01	0	56	0	646447104	66	6974
2026-01-02 13:38:33.25	289.81	20.03	-51.6	-57.4	14.4	6.04e-01	0	56	0	648544256	66	6990
2026-01-02 13:38:34.23	290.09	20.00	-51.6	-57.7	14.1	6.07e-01	0	56	0	650641408	66	7227
2026-01-02 13:38:35.22	290.37	19.96	-51.4	-56.8	14.9	6.05e-01	0	56	0	652214272	66	6558
2026-01-02 13:38:36.21	290.65	19.93	-51.2	-56.2	15.7	6.04e-01	0	56	0	654311424	66	6066
2026-01-02 13:38:37.20	290.93	19.89	-51.0	-55.7	16.2	6.03e-01	0	56	0	655884288	65	6101
2026-01-02 13:38:38.19	291.21	19.86	-50.8	-55.1	16.9	6.03e-01	0	56	0	657981440	65	5699
2026-01-02 13:38:39.17	291.48	19.82	-50.7	-54.5	17.5	6.06e-01	0	56	0	659554304	64	5655
2026-01-02 13:38:40.16	291.76	19.78	-50.6	-54.2	18.0	6.05e-01	0	56	0	661651456	64	5437
2026-01-02 13:38:41.15	292.04	19.74	-50.6	-54.0	18.4	6.05e-01	0	56	0	663224320	64	5330
2026-01-02 13:38:42.14	292.31	19.71	-50.6	-54.1	18.4	6.04e-01	0	56	0	665321472	64	5358
2026-01-02 13:38:43.13	292.59	19.67	-50.3	-53.4	19.3	6.02e-01	0	56	0	666894336	64	4955
2026-01-02 13:38:44.11	292.86	19.63	-50.2	-53.0	19.8	6.03e-01	0	56	0	668991488	63	5040
2026-01-02 13:38:45.11	293.14	19.59	-50.1	-52.8	20.3	6.05e-01	0	56	0	671088640	63	4894
2026-01-02 13:38:46.10	293.41	19.55	-50.2	-52.9	20.2	6.04e-01	0	56	0	672661504	63	4963
2026-01-02 13:38:47.09	293.69	19.51	-50.4	-53.3	19.9	6.04e-01	0	56	0	674758656	63	5171
2026-01-02 13:38:48.08	293.96	19.47	-50.2	-52.8	20.3	6.03e-01	0	56	0	676331520	63	4893
2026-01-02 13:38:49.07	294.23	19.42	-50.0	-52.5	20.6	6.03e-01	0	56	0	678428672	63	4744
2026-01-02 13:38:50.06	294.50	19.38	-50.0	-52.6	20.6	6.06e-01	0	56	0	680001536	63	4762
2026-01-02 13:38:51.05	294.77	19.34	-50.1	-52.7	20.4	6.03e-01	0	56	0	682098688	63	4849
2026-01-02 13:38:52.03	295.03	19.29	-50.4	-53.1	20.1	6.05e-01	0	56	0	683671552	63	5087
2026-01-02 13:38:53.02	295.30	19.25	-50.1	-52.7	20.5	6.01e-01	0	56	0	685768704	63	4819
2026-01-02 13:38:54.00	295.57	19.21	-49.8	-52.2	20.9	6.06e-01	0	56	0	687341568	63	4579
2026-01-02 13:38:55.00	295.84	19.16	-49.4	-51.6	21.5	6.01e-01	0	56	0	689438720	62	4543
2026-01-02 13:38:55.99	296.10	19.11	-49.1	-51.1	22.0	6.05e-01	0	56	0	691011584	61	4526
2026-01-02 13:38:56.98	296.37	19.07	-48.7	-50.7	22.4	6.03e-01	0	56	0	693108736	61	4307
2026-01-02 13:38:57.96	296.63	19.02	-48.5	-50.3	22.7	6.03e-01	0	56	0	694681600	60	4390
2026-01-02 13:38:58.96	296.89	18.98	-48.4	-50.2	22.8	6.03e-01	0	56	0	696778752	60	4313
2026-01-02 13:38:59.94	297.15	18.93	-48.3	-50.1	22.9	6.03e-01	0	56	0	698351616	60	4272
2026-01-02 13:39:00.93	297.41	18.88	-48.3	-50.1	23.0	6.05e-01	0	56	0	700448768	60	4273
2026-01-02 13:39:01.92	297.68	18.83	-48.3	-50.0	23.1	6.06e-01	0	56	0	702545920	60	4230
2026-01-02 13:39:02.91	297.93	18.78	-48.2	-50.0	23.1	6.03e-01	0	56	0	704118784	60	4201
2026-01-02 13:39:03.90	298.19	18.73	-48.3	-50.1	23.0	6.04e-01	0	56	0	706215936	60	4262
2026-01-02 13:39:04.89	298.45	18.68	-48.6	-50.5	22.6	6.04e-01	0	56	0	707788800	60	4459
2026-01-02 13:39:05.88	298.71	18.63	-48.5	-50.3	22.7	6.05e-01	0	56	0	709885952	60	4378
2026-01-02 13:39:06.87	298.96	18.58	-48.5	-50.4	22.7	6.02e-01	0	56	0	711458816	60	4410
2026-01-02 13:39:07.85	299.22	18.53	-48.7	-50.6	22.5	6.03e-01	0	56	0	713555968	60	4542
2026-01-02 13:39:08.84	299.47	18.48	-48.8	-50.8	22.3	6.03e-01	0	56	0	715128832	60	4602
2026-01-02 13:39:09.83	299.73	18.43	-48.8	-50.8	22.3	6.02e-01	0	56	0	717225984	60	4619
2026-01-02 13:39:10.83	299.98	18.38	-48.9	-50.9	22.3	6.06e-01	0	56	0	718798848	60	4659
2026-01-02 13:39:11.82	300.23	18.32	-48.8	-50.8	22.3	6.03e-01	0	56	0	720896000	60	4636
2026-01-02 13:39:12.81	300.48	18.27	-48.8	-50.8	22.3	6.00e-01	0	56	0	722993152	60	4631
2026-01-02 13:39:13.80	300.73	18.22	-48.8	-50.8	22.3	6.04e-01	0	56	0	724566016	60	4616
2026-01-02 13:39:14.79	300.98	18.16	-49.1	-51.1	22.0	6.02e-01	0	56	0	726663168	60	4801
2026-01-02 13:39:15.78	301.23	18.11	-49.0	-51.0	22.1	6.05e-01	0	56	0	728236032	60	4739
2026-01-02 13:39:16.76	301.47	18.06	-48.6	-50.5	22.6	6.03e-01	0	56	0	730333184	60	4456
2026-01-02 13:39:17.75	301.72	18.00	-48.3	-50.1	22.9	6.05e-01	0	56	0	731906048	60	4283
2026-01-02 13:39:18.73	301.96	17.95	-48.5	-50.3	23.1	6.00e-01	0	56	0	734003200	59	4626
2026-01-02 13:39:19.72	302.21	17.89	-48.6	-50.4	22.9	6.04e-01	0	56	0	735576064	59	4688
2026-01-02 13:39:20.70	302.45	17.84	-48.7	-50.6	22.8	6.04e-01	0	56	0	737673216	59	4790
2026-01-02 13:39:21.69	302.69	17.78	-48.8	-50.6	22.8	6.03e-01	0	56	0	739246080	59	4795
2026-01-02 13:39:22.69	302.94	17.72	-48.8	-50.6	22.8	6.06e-01	0	56	0	741343232	59	4793
2026-01-02 13:39:23.68	303.18	17.67	-48.7	-50.5	22.9	6.02e-01	0	56	0	742916096	59	4729
2026-01-02 13:39:24.68	303.42	17.61	-48.6	-50.4	23.0	6.03e-01	0	56	0	745013248	59	4675
2026-01-02 13:39:25.66	303.65	17.55	-48.6	-50.5	22.9	6.05e-01	0	56	0	747110400	59	4708
2026-01-02 13:39:26.64	303.89	17.49	-48.9	-50.8	22.7	6.05e-01	0	56	0	748683264	59	4871
2026-01-02 13:39:27.63	304.13	17.44	-48.8	-50.7	22.4	6.04e-01	0	56	0	750780416	60	4596
2026-01-02 13:39:28.61	304.36	17.38	-48.8	-50.7	22.4	6.03e-01	0	56	0	752353280	60	4594
2026-01-02 13:39:29.60	304.59	17.32	-48.8	-50.8	22.3	6.05e-01	0	56	0	754450432	60	4605
2026-01-02 13:39:30.59	304.83	17.26	-49.0	-51.1	22.0	6.04e-01	0	56	0	756023296	60	4784
2026-01-02 13:39:31.57	305.06	17.20	-49.0	-51.0	22.0	6.03e-01	0	56	0	758120448	60	4749
2026-01-02 13:39:32.56	305.29	17.14	-48.7	-50.7	22.4	6.04e-01	0	56	0	759693312	60	4566
2026-01-02 13:39:33.55	305.52	17.08	-48.6	-50.4	22.6	6.04e-01	0	56	0	761790464	60	4439
2026-01-02 13:39:34.54	305.75	17.02	-48.4	-50.2	22.8	6.02e-01	0	56	0	763363328	60	4320
2026-01-02 13:39:35.53	305.98	16.96	-48.4	-50.2	22.9	6.04e-01	0	56	0	765460480	60	4303
2026-01-02 13:39:36.53	306.21	16.90	-48.5	-50.4	22.7	6.03e-01	0	56	0	767033344	60	4401
2026-01-02 13:39:37.52	306.44	16.84	-48.5	-50.4	22.6	6.05e-01	0	56	0	769130496	60	4405
2026-01-02 13:39:38.51	306.67	16.78	-48.3	-50.1	22.9	6.05e-01	0	56	0	771227648	60	4288
2026-01-02 13:39:39.49	306.89	16.72	-48.2	-50.0	23.1	6.02e-01	0	56	0	772800512	60	4207
2026-01-02 13:39:40.48	307.11	16.66	-48.2	-49.9	23.1	6.05e-01	0	56	0	774373376	60	4184
2026-01-02 13:39:41.47	307.34	16.60	-48.6	-50.4	23.0	6.03e-01	0	56	0	776470528	59	4658
2026-01-02 13:39:42.46	307.56	16.53	-48.6	-50.4	23.0	6.05e-01	0	56	0	778567680	59	4672
2026-01-02 13:39:43.44	307.78	16.47	-48.6	-50.5	22.9	6.03e-01	0	56	0	780140544	59	4719
2026-01-02 13:39:44.43	308.00	16.41	-48.7	-50.5	22.8	6.06e-01	0	56	0	782237696	59	4754
2026-01-02 13:39:45.41	308.22	16.35	-48.5	-50.2	23.1	6.04e-01	0	56	0	783810560	59	4588
2026-01-02 13:39:46.41	308.44	16.28	-48.5	-50.2	23.1	6.03e-01	0	56	0	785907712	59	4591
2026-01-02 13:39:47.39	308.65	16.22	-48.5	-50.3	23.1	6.06e-01	0	56	0	787480576	59	4602
2026-01-02 13:39:48.38	308.87	16.16	-48.5	-50.3	23.1	6.01e-01	0	56	0	789577728	59	4630
2026-01-02 13:39:49.37	309.09	16.10	-48.5	-50.4	23.0	6.02e-01	0	56	0	791150592	59	4652
2026-01-02 13:39:50.35	309.30	16.03	-48.5	-50.3	23.0	6.02e-01	0	56	0	793247744	59	4622
2026-01-02 13:39:51.33	309.51	15.97	-48.6	-50.4	23.0	6.02e-01	0	56	0	794820608	59	4655
2026-01-02 13:39:52.31	309.72	15.91	-48.6	-50.4	23.0	6.02e-01	0	56	0	796917760	59	4674
2026-01-02 13:39:53.30	309.93	15.84	-48.5	-50.3	23.0	6.04e-01	0	56	0	798490624	59	4651
2026-01-02 13:39:54.29	310.15	15.78	-48.7	-50.5	22.8	6.04e-01	0	56	0	800587776	59	4739
2026-01-02 13:39:55.28	310.36	15.71	-48.8	-50.7	22.7	6.02e-01	0	56	0	802160640	59	4852
2026-01-02 13:39:56.27	310.56	15.65	-48.8	-50.7	22.6	6.05e-01	0	56	0	804257792	59	4868
2026-01-02 13:39:57.26	310.77	15.59	-48.8	-50.7	22.7	6.06e-01	0	56	0	806354944	59	4834
2026-01-02 13:39:58.25	310.98	15.52	-48.8	-50.7	22.6	6.02e-01	0	56	0	807927808	59	4863
2026-01-02 13:39:59.24	311.19	15.46	-48.6	-50.6	22.5	6.04e-01	0	56	0	810024960	60	4496
2026-01-02 13:40:00.21	311.39	15.39	-48.8	-50.7	22.3	6.06e-01	0	56	0	811597824	60	4594
2026-01-02 13:40:01.20	311.59	15.33	-48.7	-50.6	22.4	6.05e-01	0	56	0	813694976	60	4519
2026-01-02 13:40:02.20	311.80	15.26	-48.8	-50.7	22.2	6.04e-01	0	56	0	815267840	60	4598
2026-01-02 13:40:03.18	312.00	15.20	-48.6	-50.5	22.5	6.03e-01	0	56	0	817364992	60	4483
2026-01-02 13:40:04.17	312.20	15.13	-48.5	-50.3	22.7	6.06e-01	0	56	0	818937856	60	4370
2026-01-02 13:40:05.16	312.40	15.06	-48.5	-50.3	22.7	6.00e-01	0	56	0	821035008	60	4388
2026-01-02 13:40:06.16	312.60	15.00	-48.6	-50.5	22.6	6.03e-01	0	56	0	822607872	60	4444
2026-01-02 13:40:07.15	312.80	14.93	-48.6	-50.6	22.4	6.04e-01	0	56	0	824705024	60	4505
2026-01-02 13:40:08.14	313.00	14.87	-48.5	-50.3	22.7	6.04e-01	0	56	0	826277888	60	4378
2026-01-02 13:40:09.13	313.20	14.80	-48.4	-50.2	22.7	6.03e-01	0	57	0	828375040	60	4333
2026-01-02 13:40:10.12	313.40	14.73	-48.4	-50.3	22.7	6.03e-01	0	56	0	830472192	60	4363
2026-01-02 13:40:11.11	313.59	14.67	-48.5	-50.3	22.6	6.05e-01	0	56	0	832045056	60	4369
2026-01-02 13:40:12.10	313.79	14.60	-48.6	-50.5	22.5	6.03e-01	0	56	0	833617920	60	4442
2026-01-02 13:40:13.10	313.98	14.53	-48.5	-50.4	22.6	6.05e-01	0	56	0	835715072	60	4402
2026-01-02 13:40:14.08	314.17	14.47	-48.3	-50.2	22.8	6.06e-01	0	56	0	837812224	60	4301
2026-01-02 13:40:15.07	314.36	14.40	-48.2	-50.0	23.0	6.05e-01	0	56	0	839385088	60	4217
2026-01-02 13:40:16.06	314.55	14.34	-48.5	-50.3	23.0	6.05e-01	0	56	0	841482240	59	4646
2026-01-02 13:40:17.05	314.74	14.27	-48.6	-50.4	22.9	6.04e-01	0	56	0	843055104	59	4676
2026-01-02 13:40:18.04	314.93	14.20	-48.7	-50.5	22.8	6.04e-01	0	56	0	845152256	59	4750
2026-01-02 13:40:19.03	315.12	14.13	-48.9	-50.8	22.5	6.03e-01	0	56	0	846725120	59	4896
2026-01-02 13:40:20.01	315.31	14.07	-48.7	-50.6	22.7	6.01e-01	0	56	0	848822272	59	4789
2026-01-02 13:40:21.00	315.49	14.00	-48.7	-50.6	22.7	6.04e-01	0	56	0	850395136	59	4781
2026-01-02 13:40:21.99	315.68	13.93	-48.7	-50.6	22.7	6.04e-01	0	56	0	852492288	59	4774
2026-01-02 13:40:22.98	315.86	13.87	-48.8	-50.7	22.6	6.05e-01	0	56	0	854065152	59	4835
2026-01-02 13:40:23.98	316.05	13.80	-48.6	-50.5	22.5	6.03e-01	0	56	0	856162304	60	4458
2026-01-02 13:40:24.97	316.23	13.73	-48.8	-50.8	22.2	6.05e-01	0	56	0	858259456	60	4640
2026-01-02 13:40:25.96	316.42	13.66	-48.6	-50.6	22.4	6.04e-01	0	56	0	859832320	60	4498
2026-01-02 13:40:26.96	316.60	13.60	-48.4	-50.3	22.6	6.02e-01	0	57	0	861929472	60	4388
2026-01-02 13:40:27.95	316.78	13.53	-48.5	-50.4	22.6	6.07e-01	0	56	0	863502336	60	4394
2026-01-02 13:40:28.94	316.96	13.46	-48.5	-50.4	22.4	6.05e-01	0	56	0	865599488	60	4439
2026-01-02 13:40:29.92	317.14	13.40	-48.5	-50.4	22.5	6.01e-01	0	56	0	867172352	60	4424
2026-01-02 13:40:30.91	317.31	13.33	-48.6	-50.5	22.4	6.03e-01	0	56	0	869269504	60	4493
2026-01-02 13:40:31.90	317.49	13.26	-48.7	-50.6	22.3	6.04e-01	0	56	0	870842368	60	4539
2026-01-02 13:40:32.89	317.67	13.19	-48.6	-50.5	22.4	6.04e-01	0	56	0	872939520	60	4478
2026-01-02 13:40:33.88	317.84	13.13	-48.5	-50.4	22.5	6.04e-01	0	56	0	874512384	60	4430
2026-01-02 13:40:34.86	318.02	13.06	-48.4	-50.3	22.6	6.04e-01	0	56	0	876609536	60	4379
2026-01-02 13:40:35.86	318.19	12.99	-48.6	-50.5	22.4	6.00e-01	0	56	0	878706688	60	4454
2026-01-02 13:40:36.85	318.36	12.92	-48.5	-50.4	22.5	6.03e-01	0	56	0	880279552	60	4406
2026-01-02 13:40:37.83	318.53	12.86	-48.4	-50.3	22.6	6.04e-01	0	57	0	882376704	60	4366
2026-01-02 13:40:38.82	318.71	12.79	-48.6	-50.5	22.4	6.05e-01	0	56	0	883949568	60	4488
2026-01-02 13:40:39.81	318.88	12.72	-48.5	-50.5	22.4	6.04e-01	0	57	0	886046720	60	4443
2026-01-02 13:40:40.79	319.04	12.65	-48.4	-50.3	22.6	6.03e-01	0	56	0	887619584	60	4347
2026-01-02 13:40:41.77	319.21	12.59	-48.4	-50.3	22.6	6.03e-01	0	56	0	889716736	60	4346
2026-01-02 13:40:42.76	319.38	12.52	-48.4	-50.3	22.5	6.03e-01	0	56	0	891289600	60	4382
2026-01-02 13:40:43.75	319.55	12.45	-48.5	-50.4	22.4	6.04e-01	0	57	0	893386752	60	4419
2026-01-02 13:40:44.74	319.71	12.38	-48.4	-50.4	22.4	6.06e-01	0	57	0	894959616	60	4397
2026-01-02 13:40:45.72	319.88	12.32	-48.4	-50.3	22.4	6.04e-01	0	56	0	897056768	60	4365
2026-01-02 13:40:46.71	320.04	12.25	-48.5	-50.5	22.3	6.04e-01	0	56	0	898629632	60	4467
2026-01-02 13:40:47.70	320.20	12.18	-48.5	-50.4	22.4	6.07e-01	0	56	0	900726784	60	4421
2026-01-02 13:40:48.69	320.37	12.11	-48.6	-50.5	22.4	6.03e-01	0	56	0	902299648	60	4482
2026-01-02 13:40:49.67	320.53	12.05	-48.6	-50.5	22.3	6.00e-01	0	56	0	904396800	60	4472
2026-01-02 13:40:50.66	320.69	11.98	-48.6	-50.6	22.2	6.06e-01	0	56	0	906493952	60	4535
2026-01-02 13:40:51.65	320.85	11.91	-48.6	-50.6	22.2	6.04e-01	0	56	0	908066816	60	4536
2026-01-02 13:40:52.63	321.01	11.84	-48.7	-50.7	22.2	6.07e-01	0	56	0	910163968	60	4546
2026-01-02 13:40:53.62	321.17	11.78	-48.8	-50.9	22.0	6.04e-01	0	56	0	911736832	60	4652
2026-01-02 13:40:54.61	321.33	11.71	-48.8	-50.8	22.0	6.03e-01	0	56	0	913833984	60	4643
2026-01-02 13:40:55.59	321.48	11.64	-48.8	-50.9	21.9	6.03e-01	0	56	0	915406848	60	4683
2026-01-02 13:40:56.58	321.64	11.58	-49.0	-51.2	21.7	6.01e-01	0	56	0	917504000	60	4817
2026-01-02 13:40:57.57	321.80	11.51	-49.1	-51.3	21.7	6.03e-01	0	56	0	919076864	60	4873
2026-01-02 13:40:58.56	321.95	11.44	-49.1	-51.4	21.6	6.02e-01	0	56	0	921174016	60	4927
2026-01-02 13:40:59.54	322.11	11.37	-49.2	-51.4	21.5	6.05e-01	0	56	0	922746880	60	4932
2026-01-02 13:41:00.53	322.26	11.31	-49.0	-51.1	21.7	6.03e-01	0	56	0	924844032	60	4789
2026-01-02 13:41:01.51	322.41	11.24	-49.0	-51.1	21.7	6.05e-01	0	56	0	926416896	60	4809
2026-01-02 13:41:02.50	322.57	11.17	-49.0	-51.1	21.7	6.04e-01	0	56	0	928514048	60	4798
2026-01-02 13:41:03.49	322.72	11.11	-49.1	-51.2	21.6	6.02e-01	0	56	0	930086912	60	4868
2026-01-02 13:41:04.48	322.87	11.04	-49.1	-51.2	21.6	6.05e-01	0	57	0	932184064	60	4858
2026-01-02 13:41:05.47	323.02	10.97	-48.8	-50.9	21.9	6.03e-01	0	57	0	933756928	60	4695
2026-01-02 13:41:06.45	323.17	10.90	-48.6	-50.6	22.2	6.06e-01	0	56	0	935854080	60	4531
2026-01-02 13:41:07.44	323.32	10.84	-48.6	-50.6	22.2	6.05e-01	0	57	0	937426944	60	4510
2026-01-02 13:41:08.42	323.46	10.77	-48.5	-50.5	22.3	6.05e-01	0	57	0	939524096	60	4475
2026-01-02 13:41:09.41	323.61	10.70	-48.7	-50.7	22.1	6.05e-01	0	56	0	941621248	60	4568
2026-01-02 13:41:10.40	323.76	10.64	-48.8	-50.8	22.0	6.01e-01	0	57	0	943194112	60	4625
2026-01-02 13:41:11.39	323.90	10.57	-48.9	-51.0	21.8	6.02e-01	0	57	0	945291264	60	4718
2026-01-02 13:41:12.38	324.05	10.50	-48.8	-50.9	21.8	6.04e-01	0	57	0	946864128	60	4691
2026-01-02 13:41:13.37	324.20	10.44	-48.9	-51.1	21.7	6.02e-01	0	57	0	948961280	60	4778
2026-01-02 13:41:14.36	324.34	10.37	-48.9	-51.1	21.8	6.05e-01	0	57	0	950534144	60	4775
2026-01-02 13:41:15.35	324.48	10.30	-49.0	-51.1	21.7	6.03e-01	0	56	0	952631296	60	4807
2026-01-02 13:41:16.33	324.62	10.24	-49.1	-51.4	21.4	6.03e-01	0	57	0	954204160	60	4936
2026-01-02 13:41:17.32	324.77	10.17	-49.1	-51.3	21.5	6.02e-01	0	57	0	956301312	60	4873
2026-01-02 13:41:18.31	324.91	10.10	-49.2	-51.5	21.3	6.01e-01	0	56	0	957874176	60	5001
2026-01-02 13:41:19.30	325.05	10.04	-49.1	-51.3	21.4	6.03e-01	0	56	0	959971328	60	4900
2026-01-02 13:41:20.29	325.19	9.97	-49.3	-51.6	21.2	6.04e-01	0	57	0	961544192	60	5086
2026-01-02 13:41:21.28	325.33	9.91	-49.3	-51.6	21.1	6.04e-01	0	56	0	963641344	61	4773
2026-01-02 13:41:22.26	325.47	9.84	-49.2	-51.5	21.3	6.01e-01	0	56	0	965738496	61	4722
2026-01-02 13:41:23.26	325.61	9.77	-49.4	-51.8	20.9	6.04e-01	0	56	0	967311360	61	4920
2026-01-02 13:41:24.24	325.74	9.71	-49.6	-52.1	20.7	6.03e-01	0	57	0	969408512	61	5043
2026-01-02 13:41:25.23	325.88	9.64	-49.4	-51.7	21.1	6.04e-01	0	57	0	970981376	61	4844
2026-01-02 13:41:26.22	326.01	9.58	-49.2	-51.4	21.3	6.01e-01	0	56	0	973078528	61	4686
2026-01-02 13:41:27.20	326.15	9.51	-49.0	-51.2	21.5	6.03e-01	0	57	0	974651392	61	4571
2026-01-02 13:41:28.19	326.28	9.44	-49.1	-51.3	21.4	6.06e-01	0	57	0	976748544	61	4614
2026-01-02 13:41:29.17	326.42	9.38	-49.1	-51.4	21.3	6.04e-01	0	56	0	978321408	61	4672
2026-01-02 13:41:30.16	326.55	9.31	-49.2	-51.5	21.2	6.05e-01	0	57	0	980418560	61	4755
2026-01-02 13:41:31.15	326.68	9.25	-49.1	-51.3	21.3	6.04e-01	0	56	0	981991424	61	4651
2026-01-02 13:41:32.14	326.82	9.18	-49.0	-51.2	21.6	6.03e-01	0	56	0	984088576	61	4547
2026-01-02 13:41:33.13	326.95	9.12	-49.0	-51.2	21.5	6.03e-01	0	57	0	985661440	61	4560
2026-01-02 13:41:34.11	327.08	9.05	-49.0	-51.2	21.4	6.05e-01	0	57	0	987758592	61	4589
2026-01-02 13:41:35.11	327.21	8.99	-49.1	-51.3	21.4	6.04e-01	0	57	0	989855744	61	4624
2026-01-02 13:41:36.10	327.34	8.92	-49.1	-51.4	21.3	6.02e-01	0	57	0	991428608	61	4669
2026-01-02 13:41:37.09	327.47	8.85	-49.3	-51.6	21.0	6.03e-01	0	57	0	993001472	61	4811
2026-01-02 13:41:38.08	327.60	8.79	-49.2	-51.5	21.2	6.07e-01	0	57	0	995098624	61	4733
2026-01-02 13:41:39.07	327.73	8.72	-49.3	-51.7	21.0	6.05e-01	0	57	0	997195776	61	4856
2026-01-02 13:41:40.05	327.85	8.66	-49.2	-51.5	21.2	6.01e-01	0	57	0	998768640	61	4729
2026-01-02 13:41:41.05	327.98	8.59	-49.1	-51.4	21.2	6.06e-01	0	57	0	1000865792	61	4703
2026-01-02 13:41:42.03	328.11	8.53	-49.2	-51.6	20.7	6.04e-01	0	57	0	1002438656	61	4766
2026-01-02 13:41:43.02	328.23	8.47	-49.3	-51.7	21.0	6.01e-01	0	57	0	1004535808	61	4826
2026-01-02 13:41:44.01	328.36	8.40	-49.2	-51.6	21.1	6.04e-01	0	56	0	1006108672	61	4771
2026-01-02 13:41:45.00	328.48	8.34	-49.2	-51.5	21.1	6.05e-01	0	57	0	1008205824	61	4757
2026-01-02 13:41:45.99	328.61	8.27	-49.2	-51.6	21.0	6.03e-01	0	57	0	1009778688	61	4796
2026-01-02 13:41:46.98	328.73	8.21	-49.4	-51.9	20.7	6.03e-01	0	57	0	1011875840	61	4959
2026-01-02 13:41:47.97	328.85	8.14	-49.2	-51.6	21.0	6.03e-01	0	57	0	1013448704	61	4788
2026-01-02 13:41:48.97	328.98	8.08	-49.4	-51.9	20.7	6.05e-01	0	57	0	1015545856	61	4959
2026-01-02 13:41:49.95	329.10	8.01	-49.6	-52.2	20.4	6.04e-01	0	57	0	1017118720	61	5149
2026-01-02 13:41:50.94	329.22	7.95	-49.5	-52.0	20.6	6.05e-01	0	56	0	1019215872	61	5017
2026-01-02 13:41:51.93	329.34	7.89	-49.6	-52.3	20.3	6.05e-01	0	57	0	1021313024	61	5174
2026-01-02 13:41:52.92	329.46	7.82	-49.4	-52.0	20.6	6.06e-01	0	57	0	1022885888	61	4991
2026-01-02 13:41:53.91	329.58	7.76	-49.3	-51.7	20.8	6.03e-01	0	57	0	1024983040	61	4864
2026-01-02 13:41:54.90	329.70	7.69	-49.2	-51.6	20.9	6.03e-01	0	57	0	1026555904	61	4764
2026-01-02 13:41:55.89	329.82	7.63	-49.2	-51.6	21.0	6.03e-01	0	57	0	1028653056	61	4793
2026-01-02 13:41:56.88	329.93	7.57	-49.2	-51.7	20.9	6.03e-01	0	57	0	1030225920	61	4820
2026-01-02 13:41:57.87	330.05	7.50	-49.2	-51.5	21.0	6.01e-01	0	57	0	1032323072	61	4736
2026-01-02 13:41:58.86	330.17	7.44	-49.2	-51.6	20.9	6.03e-01	0	57	0	1033895936	61	4772
2026-01-02 13:41:59.84	330.28	7.38	-49.2	-51.7	20.8	6.04e-01	0	57	0	1035993088	61	4831
2026-01-02 13:42:00.83	330.40	7.31	-49.2	-51.7	20.9	6.02e-01	0	56	0	1037565952	61	4815
2026-01-02 13:42:01.82	330.52	7.25	-49.2	-51.6	20.9	6.02e-01	0	57	0	1039663104	61	4811
2026-01-02 13:42:02.81	330.63	7.19	-49.3	-51.7	20.8	6.04e-01	0	57	0	1041760256	61	4837
2026-01-02 13:42:03.80	330.74	7.12	-49.3	-51.7	20.8	6.06e-01	0	56	0	1043333120	61	4855
2026-01-02 13:42:04.79	330.86	7.06	-49.3	-51.8	20.7	6.07e-01	0	57	0	1045430272	61	4890
2026-01-02 13:42:05.78	330.97	7.00	-49.5	-52.1	20.4	6.05e-01	0	57	0	1047003136	61	5052
2026-01-02 13:42:06.78	331.09	6.93	-49.4	-52.0	20.5	6.04e-01	0	57	0	1049100288	61	4999
2026-01-02 13:42:07.76	331.20	6.87	-49.5	-52.1	20.4	6.04e-01	0	57	0	1050673152	61	5066
2026-01-02 13:42:08.75	331.31	6.81	-49.7	-52.4	20.0	6.04e-01	0	57	0	1052770304	61	5263
2026-01-02 13:42:09.74	331.42	6.75	-49.6	-52.3	20.1	6.04e-01	0	57	0	1054343168	61	5183
2026-01-02 13:42:10.73	331.53	6.68	-49.6	-52.3	20.1	6.05e-01	0	57	0	1056440320	61	5199
2026-01-02 13:42:11.73	331.64	6.62	-49.6	-52.3	20.1	6.05e-01	0	57	0	1058013184	61	5171
2026-01-02 13:42:12.72	331.75	6.56	-49.6	-52.4	20.0	6.03e-01	0	57	0	1060110336	61	5219
2026-01-02 13:42:13.71	331.86	6.50	-49.6	-52.4	20.0	6.03e-01	0	57	0	1062207488	61	5240
2026-01-02 13:42:14.69	331.97	6.44	-49.7	-52.5	19.9	6.02e-01	0	57	0	1063780352	61	5315
2026-01-02 13:42:15.68	332.08	6.37	-49.7	-52.5	19.8	6.03e-01	0	57	0	1065877504	61	5317
2026-01-02 13:42:16.68	332.19	6.31	-49.8	-52.7	19.8	6.07e-01	0	57	0	1067450368	61	5404
2026-01-02 13:42:17.67	332.29	6.25	-49.7	-52.5	19.8	6.04e-01	0	57	0	1069547520	61	5340
2026-01-02 13:42:18.66	332.40	6.19	-49.5	-52.2	20.1	6.05e-01	0	57	0	1071120384	61	5151
2026-01-02 13:42:19.64	332.51	6.13	-49.5	-52.2	20.2	6.03e-01	0	57	0	1073217536	61	5115
2026-01-02 13:42:20.64	332.61	6.06	-49.5	-52.2	20.0	6.04e-01	0	57	0	1074790400	61	5152
2026-01-02 13:42:21.63	332.72	6.00	-49.6	-52.4	19.9	6.04e-01	0	57	0	1076887552	61	5251
2026-01-02 13:42:22.61	332.82	5.94	-49.7	-52.6	19.6	6.04e-01	0	57	0	1078460416	61	5380
2026-01-02 13:42:23.60	332.93	5.88	-49.8	-52.7	19.6	6.05e-01	0	57	0	1080557568	61	5408
2026-01-02 13:42:24.59	333.03	5.82	-49.7	-52.6	19.7	6.02e-01	0	57	0	1082130432	61	5373
2026-01-02 13:42:25.58	333.14	5.76	-49.7	-52.5	19.7	6.05e-01	0	57	0	1084227584	61	5310
2026-01-02 13:42:26.56	333.24	5.70	-49.7	-52.6	19.6	6.03e-01	0	57	0	1085800448	61	5392
2026-01-02 13:42:27.56	333.34	5.64	-49.8	-52.7	19.6	6.05e-01	0	57	0	1087897600	61	5430
2026-01-02 13:42:28.54	333.44	5.58	-49.8	-52.7	19.5	6.05e-01	0	57	0	1089470464	61	5457
2026-01-02 13:42:29.53	333.54	5.51	-49.9	-52.9	19.3	6.03e-01	0	57	0	1091567616	62	5258
2026-01-02 13:42:30.51	333.65	5.45	-49.9	-52.9	19.3	6.06e-01	0	57	0	1093664768	62	5269
2026-01-02 13:42:31.49	333.75	5.39	-49.9	-53.0	19.3	6.03e-01	0	57	0	1095237632	62	5293
2026-01-02 13:42:32.48	333.85	5.33	-50.1	-53.3	18.9	6.04e-01	0	57	0	1097334784	62	5468
2026-01-02 13:42:33.47	333.95	5.27	-50.1	-53.3	18.9	6.03e-01	0	57	0	1098907648	62	5499
2026-01-02 13:42:34.46	334.05	5.21	-50.0	-53.1	19.1	6.05e-01	0	57	0	1101004800	62	5376
2026-01-02 13:42:35.44	334.14	5.15	-49.8	-52.9	19.3	6.04e-01	0	57	0	1102577664	62	5227
2026-01-02 13:42:36.43	334.24	5.09	-49.9	-53.0	19.2	6.02e-01	0	57	0	1104674816	62	5301
2026-01-02 13:42:37.41	334.34	5.03	-53.5	-71.3	3.6	7.47e-01	0	57	104	1106247680	69	29117
2026-01-02 13:42:38.40	334.44	4.97	-53.7	-72.1	3.9	7.41e-01	0	57	104	1106247680	69	32042
2026-01-02 13:42:39.39	334.54	4.91	-54.0	-73.6	3.8	7.46e-01	0	57	104	1106247680	70	35724
2026-01-02 13:42:40.38	334.63	4.85	-54.2	-73.6	3.8	7.45e-01	0	57	104	1106247680	70	35923
2026-01-02 13:42:41.37	334.73	4.79	-54.2	-74.1	3.8	7.48e-01	0	57	104	1106247680	70	37808
2026-01-02 13:42:42.36	334.83	4.73	-54.1	-74.0	3.8	7.46e-01	0	57	104	1106247680	70	37490
2026-01-02 13:42:43.36	334.92	4.67	-54.1	-73.9	3.8	7.44e-01	0	57	104	1106247680	70	37348
2026-01-02 13:42:44.34	335.02	4.62	-54.4	-74.3	3.8	7.47e-01	0	57	104	1106247680	71	36805
2026-01-02 13:42:45.33	335.11	4.56	-54.5	-74.4	3.8	7.47e-01	0	57	104	1106247680	71	36965
2026-01-02 13:42:46.32	335.21	4.50	-54.5	-74.4	3.8	7.45e-01	0	57	104	1106247680	71	37176
2026-01-02 13:42:47.31	335.30	4.44	-54.5	-74.4	3.8	7.45e-01	0	57	104	1106247680	71	37345
2026-01-02 13:42:48.30	335.40	4.38	-54.6	-74.5	3.8	7.43e-01	0	57	104	1106247680	71	37426
2026-01-02 13:42:49.30	335.49	4.32	-54.6	-74.5	3.8	7.47e-01	0	57	104	1106247680	71	37615
2026-01-02 13:42:50.28	335.58	4.26	-54.6	-74.5	3.8	7.42e-01	0	57	104	1106247680	71	37758
2026-01-02 13:42:51.27	335.68	4.20	-54.7	-74.5	3.8	7.45e-01	0	57	104	1106247680	71	37806
2026-01-02 13:42:52.27	335.77	4.14	-54.7	-74.6	3.8	7.43e-01	0	57	104	1106247680	71	37858
2026-01-02 13:42:53.25	335.86	4.08	-54.7	-74.6	3.8	7.48e-01	0	57	104	1106247680	71	37885
2026-01-02 13:42:54.23	335.95	4.03	-54.7	-74.6	3.8	7.45e-01	0	57	104	1106247680	71	38103
2026-01-02 13:42:55.23	336.04	3.97	-54.7	-74.6	3.8	7.46e-01	0	57	104	1106247680	71	38150
2026-01-02 13:42:56.21	336.13	3.91	-54.7	-74.6	3.8	7.43e-01	0	57	104	1106247680	71	38104
2026-01-02 13:42:57.20	336.22	3.85	-54.7	-74.6	3.8	7.44e-01	0	57	104	1106247680	71	38164
2026-01-02 13:42:58.19	336.31	3.79	-54.7	-74.6	3.8	7.46e-01	0	57	104	1106247680	71	38179
2026-01-02 13:42:59.17	336.40	3.73	-54.7	-74.7	3.8	7.46e-01	0	57	104	1106247680	71	38276
2026-01-02 13:43:00.17	336.49	3.68	-54.7	-74.7	3.8	7.46e-01	0	57	104	1106247680	71	38336
2026-01-02 13:43:01.15	336.58	3.62	-54.8	-74.7	3.8	7.44e-01	0	57	104	1106247680	71	38416
2026-01-02 13:43:02.14	336.67	3.56	-54.8	-74.7	3.8	7.44e-01	0	57	104	1106247680	71	38387
2026-01-02 13:43:03.13	336.76	3.50	-54.8	-74.7	3.8	7.47e-01	0	57	104	1106247680	71	38360
2026-01-02 13:43:04.11	336.85	3.45	-54.8	-74.7	3.8	7.43e-01	0	57	104	1106247680	71	38363
2026-01-02 13:43:05.10	336.93	3.39	-54.8	-74.7	3.8	7.42e-01	0	57	104	1106247680	71	38309
2026-01-02 13:43:06.09	337.02	3.33	-54.7	-74.7	3.8	7.45e-01	0	57	104	1106247680	71	38328
2026-01-02 13:43:07.09	337.11	3.27	-54.7	-74.7	3.8	7.44e-01	0	57	104	1106247680	71	38296
2026-01-02 13:43:08.08	337.20	3.21	-54.7	-74.7	3.8	7.47e-01	0	57	104	1106247680	71	38264
2026-01-02 13:43:09.06	337.28	3.16	-54.7	-74.6	3.8	7.47e-01	0	57	104	1106247680	71	38226
2026-01-02 13:43:10.05	337.37	3.10	-54.7	-74.7	3.8	7.41e-01	0	57	104	1106247680	71	38283
2026-01-02 13:43:11.04	337.45	3.04	-54.7	-74.6	3.8	7.43e-01	0	57	104	1106247680	71	38238
2026-01-02 13:43:12.03	337.54	2.99	-54.7	-74.6	3.8	7.46e-01	0	57	104	1106247680	71	38242
2026-01-02 13:43:13.01	337.62	2.93	-54.7	-74.6	3.8	7.44e-01	0	57	104	1106247680	71	38234

#Closed at: 2026-01-02 13:43:13
#Recorded file [1106 MB]: D:/Data/31026_260102_164237.dat