passes_logs/2026/01/02/R3.0SM8_Murmansk_STILSPACE/R3.0SM8_Murmansk_STILSPACE__20260102_101226_SUOMI_NPP_rec.log

#Pass ID: 20260102_101226_SUOMI NPP
#Satellite: SUOMI NPP
#Configuration: NPP
#almurnet v.1.7.20240730
#Start time: 2026-01-02 10:12:28

#Version: 2.2.20231116
#Station: R3.0SM8_Murmansk_STILSPACE
#Location: 33.092731 lon 68.902999 lat
#TLE: 1 37849U 11061A   26001.07732418  .00000182  00000+0  10735-3 0  9990
#TLE: 2 37849  98.7795 303.2470 0002580  87.2016 272.9455 14.19520779734739

#Time	Az	El	Level	Level2	SNR	BER	BlckErr	Temp	State	Recorded	gain1	gain2
2026-01-02 10:12:28.86	166.88	3.13	-52.3	-66.2	3.8	1.49e+00	0	46	0	0	67	17727
2026-01-02 10:12:29.83	166.90	3.20	-52.2	-66.0	3.8	1.49e+00	0	47	104	0	67	17447
2026-01-02 10:12:30.83	166.92	3.26	-52.2	-66.0	3.8	1.49e+00	0	47	104	0	67	17291
2026-01-02 10:12:31.82	166.94	3.33	-52.0	-65.8	3.8	1.49e+00	0	47	104	0	67	17077
2026-01-02 10:12:32.80	166.96	3.39	-51.9	-65.7	3.8	1.49e+00	0	47	104	0	66	17831
2026-01-02 10:12:33.80	166.99	3.46	-51.6	-65.4	3.8	1.49e+00	0	47	104	0	66	17221
2026-01-02 10:12:34.79	167.01	3.53	-50.6	-64.3	3.8	1.49e+00	0	47	104	0	63	18026
2026-01-02 10:12:35.78	167.03	3.59	-50.5	-64.3	3.8	1.49e+00	0	47	104	0	63	18029
2026-01-02 10:12:36.78	167.05	3.66	-50.5	-64.3	3.8	1.49e+00	0	47	104	0	63	18010
2026-01-02 10:12:37.77	167.07	3.73	-50.5	-64.3	3.8	1.49e+00	0	47	104	0	63	18008
2026-01-02 10:12:38.75	167.09	3.79	-50.5	-64.3	3.8	1.49e+00	0	47	104	0	63	18035
2026-01-02 10:12:39.74	167.12	3.86	-50.5	-64.3	3.8	1.49e+00	0	47	104	0	63	18032
2026-01-02 10:12:40.72	167.14	3.93	-50.5	-64.3	3.8	1.49e+00	0	47	104	0	63	17995
2026-01-02 10:12:41.71	167.16	4.00	-50.5	-64.2	3.8	1.49e+00	0	47	104	0	63	17868
2026-01-02 10:12:42.70	167.18	4.06	-50.6	-64.2	3.8	1.49e+00	0	48	104	0	63	17796
2026-01-02 10:12:43.69	167.20	4.13	-50.5	-64.2	3.8	1.49e+00	0	48	104	0	63	17702
2026-01-02 10:12:44.68	167.23	4.20	-50.5	-64.1	3.8	1.49e+00	0	48	104	0	63	17504
2026-01-02 10:12:45.67	167.25	4.27	-50.5	-64.0	3.8	1.49e+00	0	48	104	0	63	17344
2026-01-02 10:12:46.66	167.27	4.34	-50.5	-63.8	3.8	1.49e+00	0	48	104	0	63	17019
2026-01-02 10:12:47.66	167.29	4.40	-50.5	-63.6	3.8	1.49e+00	0	48	104	0	63	16671
2026-01-02 10:12:48.65	167.32	4.47	-50.4	-63.5	3.8	1.49e+00	0	48	104	0	63	16425
2026-01-02 10:12:49.64	167.34	4.54	-50.5	-63.3	3.8	1.49e+00	0	48	104	0	63	15993
2026-01-02 10:12:50.62	167.36	4.61	-50.5	-63.2	3.8	1.49e+00	0	48	104	0	63	15811
2026-01-02 10:12:51.61	167.38	4.68	-50.4	-62.9	3.8	1.49e+00	0	48	104	0	63	15351
2026-01-02 10:12:52.60	167.41	4.75	-50.5	-62.8	3.8	1.49e+00	0	48	104	0	63	15067
2026-01-02 10:12:53.59	167.43	4.82	-50.5	-62.6	3.8	1.49e+00	0	48	104	0	63	14761
2026-01-02 10:12:54.58	167.45	4.89	-50.3	-62.2	3.8	1.49e+00	0	48	104	0	63	14151
2026-01-02 10:12:55.58	167.48	4.96	-50.3	-61.8	3.8	1.49e+00	0	48	104	0	63	13526
2026-01-02 10:12:56.58	167.50	5.03	-50.4	-61.4	4.1	1.45e+00	0	49	0	0	63	12890
2026-01-02 10:12:57.56	167.52	5.10	-50.4	-61.0	4.2	1.42e+00	0	49	0	0	63	12252
2026-01-02 10:12:58.56	167.55	5.17	-50.5	-60.9	4.2	1.37e+00	0	49	0	0	63	12174
2026-01-02 10:12:59.55	167.57	5.24	-50.6	-60.7	4.3	1.34e+00	0	49	0	0	63	11904
2026-01-02 10:13:00.54	167.59	5.31	-50.4	-59.8	4.6	1.02e+00	0	49	0	2097152	63	10758
2026-01-02 10:13:01.53	167.62	5.38	-50.3	-59.2	5.0	8.05e-01	0	49	0	4194304	63	9994
2026-01-02 10:13:02.53	167.64	5.46	-50.1	-58.2	5.6	4.98e-01	0	49	0	5242880	63	8867
2026-01-02 10:13:03.51	167.66	5.53	-50.0	-57.4	6.1	3.62e-01	0	49	0	7340032	63	8103
2026-01-02 10:13:04.50	167.69	5.60	-49.8	-56.5	6.8	2.61e-01	0	49	0	9437184	62	7732
2026-01-02 10:13:05.49	167.71	5.67	-49.6	-55.6	7.6	1.25e-01	0	49	0	11534336	62	7020
2026-01-02 10:13:06.48	167.74	5.74	-49.3	-54.7	8.5	5.19e-02	0	49	0	12582912	61	6668
2026-01-02 10:13:07.46	167.76	5.81	-49.0	-53.8	9.4	2.25e-02	0	49	0	14680064	61	6033
2026-01-02 10:13:08.45	167.79	5.88	-48.6	-52.8	10.4	8.95e-03	0	49	0	16777216	60	5699
2026-01-02 10:13:09.43	167.81	5.96	-48.4	-52.3	10.9	3.09e-03	0	49	0	18874368	59	5722
2026-01-02 10:13:10.42	167.83	6.03	-48.1	-51.8	11.5	9.19e-04	0	50	0	19922944	59	5345
2026-01-02 10:13:11.42	167.86	6.10	-48.0	-51.4	11.8	5.68e-04	0	49	0	22020096	59	5153
2026-01-02 10:13:12.41	167.88	6.18	-47.9	-51.3	12.0	5.86e-04	0	50	0	24117248	58	5377
2026-01-02 10:13:13.40	167.91	6.25	-48.0	-51.3	12.2	2.09e-04	0	50	0	26214400	58	5399
2026-01-02 10:13:14.39	167.93	6.32	-48.2	-51.5	12.1	2.86e-04	0	49	0	28311552	58	5493
2026-01-02 10:13:15.38	167.96	6.40	-48.4	-51.8	11.9	3.04e-04	0	50	0	29360128	58	5666
2026-01-02 10:13:16.36	167.99	6.47	-48.5	-52.0	11.7	3.57e-04	0	50	0	31457280	58	5830
2026-01-02 10:13:17.36	168.01	6.55	-48.6	-52.2	11.7	5.07e-04	0	50	0	33554432	59	5594
2026-01-02 10:13:18.35	168.04	6.62	-48.6	-52.2	11.7	6.38e-04	0	50	0	35651584	59	5597
2026-01-02 10:13:19.34	168.06	6.69	-48.5	-51.8	12.1	4.13e-04	0	50	0	36700160	59	5387
2026-01-02 10:13:20.33	168.09	6.77	-48.5	-51.7	12.4	1.83e-04	0	50	0	38797312	59	5315
2026-01-02 10:13:21.32	168.11	6.84	-48.5	-51.6	12.6	7.62e-05	0	50	0	40894464	59	5273
2026-01-02 10:13:22.31	168.14	6.92	-48.5	-51.6	12.7	5.41e-05	0	50	0	42991616	59	5220
2026-01-02 10:13:23.30	168.17	6.99	-48.6	-51.6	12.6	1.06e-04	0	50	0	45088768	59	5276
2026-01-02 10:13:24.29	168.19	7.07	-48.5	-51.4	12.9	7.01e-05	0	50	0	46137344	59	5120
2026-01-02 10:13:25.27	168.22	7.15	-48.5	-51.4	12.9	3.73e-05	0	50	0	48234496	59	5124
2026-01-02 10:13:26.26	168.24	7.22	-48.4	-51.2	13.1	3.89e-05	0	50	0	50331648	59	5009
2026-01-02 10:13:27.26	168.27	7.30	-48.4	-51.2	13.1	2.89e-05	0	50	0	52428800	59	5020
2026-01-02 10:13:28.25	168.30	7.38	-48.3	-51.1	13.3	2.67e-05	0	50	0	53477376	59	4949
2026-01-02 10:13:29.24	168.33	7.45	-48.3	-51.0	13.4	1.75e-05	0	51	0	55574528	59	4888
2026-01-02 10:13:30.22	168.35	7.53	-48.2	-51.0	13.4	1.67e-05	0	50	0	57671680	59	4885
2026-01-02 10:13:31.21	168.38	7.61	-48.3	-51.0	13.5	6.10e-06	0	50	0	59768832	59	4873
2026-01-02 10:13:32.20	168.41	7.68	-48.3	-50.9	13.5	1.52e-05	0	50	0	60817408	59	4854
2026-01-02 10:13:33.19	168.43	7.76	-48.2	-50.9	13.5	1.22e-05	0	50	0	62914560	59	4848
2026-01-02 10:13:34.18	168.46	7.84	-48.2	-50.9	13.6	1.06e-05	0	50	0	65011712	59	4828
2026-01-02 10:13:35.17	168.49	7.92	-48.3	-51.0	13.5	8.30e-06	0	50	0	67108864	59	4907
2026-01-02 10:13:36.16	168.52	8.00	-48.5	-51.3	13.2	1.52e-05	0	51	0	69206016	59	5067
2026-01-02 10:13:37.15	168.54	8.07	-48.3	-51.0	13.5	6.80e-06	0	51	0	70254592	59	4882
2026-01-02 10:13:38.14	168.57	8.15	-48.3	-51.2	13.3	1.83e-05	0	51	0	72351744	59	5014
2026-01-02 10:13:39.13	168.60	8.23	-48.5	-51.4	13.1	2.28e-05	0	51	0	74448896	59	5143
2026-01-02 10:13:40.11	168.63	8.31	-48.4	-51.2	13.4	1.83e-05	0	51	0	76546048	59	4988
2026-01-02 10:13:41.10	168.66	8.39	-48.6	-51.5	13.0	1.98e-05	0	51	0	77594624	59	5189
2026-01-02 10:13:42.10	168.69	8.47	-48.6	-51.5	13.1	3.12e-05	0	51	0	79691776	59	5177
2026-01-02 10:13:43.09	168.71	8.55	-48.5	-51.4	13.1	2.51e-05	0	51	0	81788928	59	5120
2026-01-02 10:13:44.08	168.74	8.63	-48.5	-51.4	13.2	2.82e-05	0	51	0	83886080	59	5106
2026-01-02 10:13:45.06	168.77	8.71	-48.6	-51.5	13.1	1.98e-05	0	51	0	84934656	59	5165
2026-01-02 10:13:46.06	168.80	8.79	-48.4	-51.2	13.4	2.51e-05	0	51	0	87031808	59	5012
2026-01-02 10:13:47.04	168.83	8.87	-48.4	-51.1	13.5	1.60e-05	0	51	0	89128960	59	4949
2026-01-02 10:13:48.03	168.86	8.96	-48.4	-51.2	13.4	1.22e-05	0	51	0	91226112	59	4986
2026-01-02 10:13:49.02	168.89	9.04	-48.4	-51.1	13.5	1.14e-05	0	51	0	93323264	59	4962
2026-01-02 10:13:50.01	168.92	9.12	-48.6	-51.4	13.2	1.06e-05	0	51	0	94371840	59	5130
2026-01-02 10:13:50.99	168.95	9.20	-48.9	-51.9	12.7	4.88e-05	0	51	0	96468992	59	5449
2026-01-02 10:13:51.98	168.98	9.28	-48.5	-51.4	13.2	3.81e-05	0	51	0	98566144	59	5110
2026-01-02 10:13:52.97	169.01	9.37	-48.3	-51.0	13.6	1.22e-05	0	51	0	100663296	59	4925
2026-01-02 10:13:53.96	169.04	9.45	-48.1	-50.5	14.1	3.00e-06	0	51	0	101711872	59	4638
2026-01-02 10:13:54.94	169.07	9.53	-47.8	-50.2	14.5	7.00e-07	0	51	0	103809024	58	4709
2026-01-02 10:13:55.94	169.10	9.62	-47.7	-49.9	14.7	7.00e-07	0	51	0	105906176	58	4591
2026-01-02 10:13:56.92	169.13	9.70	-47.5	-49.6	15.0	7.00e-07	0	52	0	108003328	58	4414
2026-01-02 10:13:57.91	169.16	9.78	-47.4	-49.5	15.1	0.00e+00	0	52	0	109051904	58	4369
2026-01-02 10:13:58.90	169.19	9.87	-47.4	-49.5	15.1	0.00e+00	0	52	0	111149056	57	4618
2026-01-02 10:13:59.90	169.22	9.95	-47.2	-49.2	15.4	0.00e+00	0	52	0	113246208	57	4486
2026-01-02 10:14:00.89	169.26	10.04	-47.4	-49.5	15.2	0.00e+00	0	52	0	115343360	57	4599
2026-01-02 10:14:01.88	169.29	10.12	-47.4	-49.5	15.2	0.00e+00	0	52	0	116391936	57	4621
2026-01-02 10:14:02.88	169.32	10.21	-47.4	-49.4	15.2	0.00e+00	0	52	0	118489088	57	4589
2026-01-02 10:14:03.87	169.35	10.30	-47.7	-49.9	14.7	0.00e+00	0	52	0	120586240	57	4863
2026-01-02 10:14:04.85	169.38	10.38	-47.5	-49.6	15.0	0.00e+00	0	52	0	122683392	57	4684
2026-01-02 10:14:05.84	169.41	10.47	-47.3	-49.3	15.4	0.00e+00	0	52	0	124780544	57	4500
2026-01-02 10:14:06.83	169.45	10.55	-47.2	-49.1	15.5	0.00e+00	0	52	0	125829120	57	4413
2026-01-02 10:14:07.82	169.48	10.64	-47.1	-49.0	15.6	0.00e+00	0	52	0	127926272	57	4390
2026-01-02 10:14:08.81	169.51	10.73	-47.2	-49.1	15.5	0.00e+00	0	52	0	130023424	57	4432
2026-01-02 10:14:09.80	169.55	10.82	-47.1	-49.0	15.7	0.00e+00	0	52	0	132120576	57	4381
2026-01-02 10:14:10.79	169.58	10.90	-47.2	-49.2	15.5	0.00e+00	0	52	0	133169152	57	4457
2026-01-02 10:14:11.78	169.61	10.99	-47.2	-49.1	15.6	0.00e+00	0	52	0	135266304	57	4413
2026-01-02 10:14:12.78	169.65	11.08	-47.2	-49.2	15.6	0.00e+00	0	52	0	137363456	57	4458
2026-01-02 10:14:13.77	169.68	11.17	-47.0	-49.0	15.8	0.00e+00	0	52	0	139460608	57	4341
2026-01-02 10:14:14.76	169.71	11.26	-47.2	-49.1	15.6	0.00e+00	0	52	0	141557760	57	4421
2026-01-02 10:14:15.75	169.75	11.35	-47.3	-49.3	15.4	0.00e+00	0	52	0	142606336	57	4538
2026-01-02 10:14:16.74	169.78	11.44	-47.3	-49.4	15.3	0.00e+00	0	52	0	144703488	57	4568
2026-01-02 10:14:17.73	169.82	11.53	-47.3	-49.3	15.5	0.00e+00	0	52	0	146800640	57	4509
2026-01-02 10:14:18.72	169.85	11.62	-47.3	-49.4	15.4	0.00e+00	0	53	0	148897792	57	4562
2026-01-02 10:14:19.70	169.88	11.71	-47.3	-49.3	15.5	0.00e+00	0	53	0	149946368	57	4516
2026-01-02 10:14:20.69	169.92	11.80	-47.3	-49.3	15.4	0.00e+00	0	52	0	152043520	57	4532
2026-01-02 10:14:21.67	169.95	11.89	-47.3	-49.3	15.4	0.00e+00	0	52	0	154140672	57	4540
2026-01-02 10:14:22.66	169.99	11.98	-47.3	-49.2	15.5	0.00e+00	0	53	0	156237824	57	4478
2026-01-02 10:14:23.65	170.02	12.08	-47.5	-49.5	15.3	0.00e+00	0	53	0	157286400	57	4638
2026-01-02 10:14:24.64	170.06	12.17	-47.4	-49.4	15.4	0.00e+00	0	52	0	159383552	57	4574
2026-01-02 10:14:25.63	170.10	12.26	-47.2	-49.1	15.7	0.00e+00	0	52	0	161480704	57	4420
2026-01-02 10:14:26.62	170.13	12.35	-47.0	-48.9	15.9	0.00e+00	0	53	0	163577856	57	4307
2026-01-02 10:14:27.61	170.17	12.45	-47.0	-48.9	15.9	0.00e+00	0	53	0	165675008	57	4293
2026-01-02 10:14:28.59	170.20	12.54	-46.9	-48.8	16.0	0.00e+00	0	52	0	166723584	56	4526
2026-01-02 10:14:29.58	170.24	12.64	-46.8	-48.6	16.1	0.00e+00	0	53	0	168820736	56	4438
2026-01-02 10:14:30.56	170.28	12.73	-46.9	-48.7	16.0	0.00e+00	0	53	0	170917888	56	4487
2026-01-02 10:14:31.55	170.32	12.82	-46.9	-48.7	16.1	0.00e+00	0	53	0	173015040	56	4451
2026-01-02 10:14:32.54	170.35	12.92	-46.9	-48.7	16.1	0.00e+00	0	53	0	174063616	56	4487
2026-01-02 10:14:33.53	170.39	13.02	-46.9	-48.7	16.1	0.00e+00	0	53	0	176160768	56	4470
2026-01-02 10:14:34.52	170.43	13.11	-47.0	-48.8	16.0	0.00e+00	0	53	0	178257920	56	4536
2026-01-02 10:14:35.51	170.47	13.21	-46.8	-48.6	16.2	0.00e+00	0	53	0	180355072	56	4414
2026-01-02 10:14:36.50	170.50	13.30	-46.8	-48.6	16.2	0.00e+00	0	53	0	181403648	56	4394
2026-01-02 10:14:37.49	170.54	13.40	-46.9	-48.6	16.2	0.00e+00	0	53	0	183500800	56	4437
2026-01-02 10:14:38.48	170.58	13.50	-46.8	-48.5	16.3	0.00e+00	0	53	0	185597952	56	4370
2026-01-02 10:14:39.47	170.62	13.60	-46.8	-48.5	16.3	0.00e+00	0	53	0	187695104	56	4362
2026-01-02 10:14:40.47	170.66	13.70	-46.9	-48.6	16.2	0.00e+00	0	53	0	189792256	56	4428
2026-01-02 10:14:41.46	170.70	13.80	-47.0	-48.8	16.1	0.00e+00	0	53	0	190840832	56	4498
2026-01-02 10:14:42.45	170.74	13.89	-47.0	-48.8	16.0	0.00e+00	0	53	0	192937984	56	4521
2026-01-02 10:14:43.44	170.78	13.99	-47.1	-48.9	16.0	0.00e+00	0	53	0	195035136	56	4566
2026-01-02 10:14:44.43	170.82	14.09	-47.2	-49.1	15.8	0.00e+00	0	53	0	197132288	56	4657
2026-01-02 10:14:45.41	170.86	14.19	-47.1	-49.0	15.9	0.00e+00	0	53	0	198180864	56	4613
2026-01-02 10:14:46.41	170.90	14.29	-47.0	-48.9	16.0	0.00e+00	0	53	0	200278016	56	4556
2026-01-02 10:14:47.40	170.94	14.40	-47.2	-49.0	15.8	0.00e+00	0	53	0	202375168	56	4641
2026-01-02 10:14:48.39	170.98	14.50	-47.3	-49.3	15.6	0.00e+00	0	53	0	204472320	56	4774
2026-01-02 10:14:49.38	171.02	14.60	-47.2	-49.2	15.7	0.00e+00	0	53	0	205520896	56	4726
2026-01-02 10:14:50.36	171.06	14.70	-47.1	-49.0	15.9	0.00e+00	0	53	0	207618048	56	4628
2026-01-02 10:14:51.36	171.11	14.80	-47.1	-49.0	15.9	0.00e+00	0	53	0	209715200	56	4608
2026-01-02 10:14:52.35	171.15	14.91	-47.3	-49.3	15.6	0.00e+00	0	53	0	211812352	56	4774
2026-01-02 10:14:53.34	171.19	15.01	-47.4	-49.4	15.5	0.00e+00	0	53	0	212860928	56	4855
2026-01-02 10:14:54.34	171.24	15.12	-47.3	-49.3	15.6	0.00e+00	0	54	0	214958080	56	4784
2026-01-02 10:14:55.33	171.28	15.22	-47.4	-49.3	15.6	0.00e+00	0	54	0	217055232	56	4776
2026-01-02 10:14:56.32	171.32	15.33	-47.3	-49.2	15.6	0.00e+00	0	54	0	219152384	56	4755
2026-01-02 10:14:57.31	171.37	15.43	-47.2	-49.1	15.8	0.00e+00	0	53	0	221249536	56	4666
2026-01-02 10:14:58.31	171.41	15.54	-47.3	-49.2	15.8	0.00e+00	0	54	0	222298112	56	4708
2026-01-02 10:14:59.29	171.45	15.64	-47.4	-49.4	15.6	0.00e+00	0	54	0	224395264	56	4820
2026-01-02 10:15:00.28	171.50	15.75	-47.5	-49.5	15.4	0.00e+00	0	54	0	226492416	56	4901
2026-01-02 10:15:01.27	171.54	15.86	-47.6	-49.6	15.3	0.00e+00	0	54	0	228589568	57	4702
2026-01-02 10:15:02.26	171.59	15.97	-47.6	-49.5	15.4	0.00e+00	0	54	0	229638144	57	4651
2026-01-02 10:15:03.25	171.63	16.07	-47.3	-49.2	15.8	0.00e+00	0	54	0	231735296	57	4448
2026-01-02 10:15:04.24	171.68	16.18	-47.2	-49.1	15.8	0.00e+00	0	54	0	233832448	57	4424
2026-01-02 10:15:05.23	171.72	16.29	-47.3	-49.2	15.6	0.00e+00	0	54	0	235929600	57	4493
2026-01-02 10:15:06.21	171.77	16.40	-47.3	-49.2	15.7	0.00e+00	0	53	0	238026752	57	4469
2026-01-02 10:15:07.19	171.82	16.51	-47.3	-49.2	15.7	0.00e+00	0	54	0	239075328	57	4485
2026-01-02 10:15:08.19	171.86	16.62	-47.4	-49.4	15.5	0.00e+00	0	54	0	241172480	57	4580
2026-01-02 10:15:09.18	171.91	16.73	-47.4	-49.3	15.6	0.00e+00	0	54	0	243269632	57	4538
2026-01-02 10:15:10.16	171.96	16.84	-47.1	-48.9	16.0	0.00e+00	0	54	0	245366784	57	4325
2026-01-02 10:15:11.15	172.01	16.95	-47.1	-48.9	16.0	0.00e+00	0	54	0	246415360	57	4314
2026-01-02 10:15:12.13	172.05	17.06	-47.0	-48.8	16.1	0.00e+00	0	54	0	248512512	57	4253
2026-01-02 10:15:13.12	172.10	17.18	-47.3	-49.2	15.7	0.00e+00	0	54	0	250609664	57	4466
2026-01-02 10:15:14.12	172.15	17.29	-47.2	-49.1	15.8	0.00e+00	0	54	0	252706816	57	4427
2026-01-02 10:15:15.11	172.20	17.41	-47.2	-49.1	15.9	0.00e+00	0	54	0	253755392	57	4396
2026-01-02 10:15:16.09	172.25	17.52	-47.2	-49.1	15.9	0.00e+00	0	54	0	255852544	57	4393
2026-01-02 10:15:17.08	172.30	17.63	-47.3	-49.2	15.7	0.00e+00	0	54	0	257949696	57	4469
2026-01-02 10:15:18.08	172.35	17.75	-47.4	-49.2	15.7	0.00e+00	0	54	0	260046848	57	4490
2026-01-02 10:15:19.08	172.40	17.87	-47.5	-49.5	15.5	0.00e+00	0	54	0	262144000	57	4618
2026-01-02 10:15:20.06	172.45	17.98	-47.7	-49.7	15.2	0.00e+00	0	54	0	263192576	57	4754
2026-01-02 10:15:21.06	172.50	18.10	-47.4	-49.3	15.6	0.00e+00	0	54	0	265289728	57	4515
2026-01-02 10:15:22.05	172.55	18.22	-47.3	-49.2	15.8	0.00e+00	0	54	0	267386880	57	4467
2026-01-02 10:15:23.04	172.61	18.34	-47.2	-49.0	15.9	0.00e+00	0	54	0	269484032	57	4378
2026-01-02 10:15:24.03	172.66	18.46	-47.4	-49.2	15.8	0.00e+00	0	54	0	270532608	57	4479
2026-01-02 10:15:25.03	172.71	18.58	-47.4	-49.3	15.6	0.00e+00	0	54	0	272629760	57	4538
2026-01-02 10:15:26.02	172.77	18.70	-47.4	-49.3	15.7	0.00e+00	0	54	0	274726912	57	4527
2026-01-02 10:15:27.00	172.82	18.82	-47.3	-49.2	15.8	0.00e+00	0	54	0	276824064	57	4478
2026-01-02 10:15:28.00	172.87	18.94	-47.3	-49.1	15.9	0.00e+00	0	54	0	278921216	57	4411
2026-01-02 10:15:28.99	172.93	19.06	-47.4	-49.3	15.7	0.00e+00	0	54	0	279969792	57	4532
2026-01-02 10:15:29.97	172.98	19.18	-47.3	-49.2	15.8	0.00e+00	0	54	0	282066944	57	4476
2026-01-02 10:15:30.96	173.04	19.30	-47.6	-49.6	15.5	0.00e+00	0	54	0	284164096	57	4652
2026-01-02 10:15:31.95	173.09	19.43	-47.4	-49.2	15.8	0.00e+00	0	54	0	286261248	57	4487
2026-01-02 10:15:32.93	173.15	19.55	-47.3	-49.2	15.8	0.00e+00	0	54	0	287309824	57	4459
2026-01-02 10:15:33.93	173.20	19.68	-47.4	-49.3	15.8	0.00e+00	0	54	0	289406976	57	4506
2026-01-02 10:15:34.92	173.26	19.80	-47.6	-49.5	15.5	0.00e+00	0	55	0	291504128	57	4643
2026-01-02 10:15:35.91	173.32	19.93	-47.4	-49.3	15.7	0.00e+00	0	54	0	293601280	57	4505
2026-01-02 10:15:36.90	173.38	20.05	-47.5	-49.5	15.5	0.00e+00	0	54	0	294649856	57	4603
2026-01-02 10:15:37.88	173.43	20.18	-47.5	-49.5	15.5	0.00e+00	0	55	0	296747008	57	4635
2026-01-02 10:15:38.87	173.49	20.31	-47.7	-49.8	15.2	0.00e+00	0	55	0	298844160	57	4780
2026-01-02 10:15:39.86	173.55	20.44	-47.8	-49.9	15.2	0.00e+00	0	54	0	300941312	57	4819
2026-01-02 10:15:40.85	173.61	20.56	-47.6	-49.6	15.4	0.00e+00	0	54	0	303038464	57	4700
2026-01-02 10:15:41.83	173.67	20.69	-47.9	-50.0	15.0	0.00e+00	0	54	0	304087040	57	4877
2026-01-02 10:15:42.82	173.73	20.82	-47.8	-49.8	15.2	0.00e+00	0	55	0	306184192	57	4793
2026-01-02 10:15:43.81	173.79	20.95	-47.6	-49.6	15.4	0.00e+00	0	55	0	308281344	57	4696
2026-01-02 10:15:44.80	173.85	21.08	-47.5	-49.5	15.5	0.00e+00	0	55	0	310378496	57	4638
2026-01-02 10:15:45.79	173.92	21.22	-47.4	-49.3	15.6	0.00e+00	0	55	0	311427072	57	4536
2026-01-02 10:15:46.79	173.98	21.35	-47.3	-49.2	15.9	0.00e+00	0	54	0	313524224	57	4456
2026-01-02 10:15:47.78	174.04	21.48	-47.4	-49.3	15.8	0.00e+00	0	54	0	315621376	57	4502
2026-01-02 10:15:48.77	174.10	21.62	-47.4	-49.4	15.7	0.00e+00	0	55	0	317718528	57	4546
2026-01-02 10:15:49.76	174.17	21.75	-47.4	-49.3	15.7	0.00e+00	0	55	0	318767104	57	4518
2026-01-02 10:15:50.75	174.23	21.89	-47.2	-49.0	16.0	0.00e+00	0	55	0	320864256	57	4371
2026-01-02 10:15:51.75	174.30	22.03	-47.4	-49.3	15.8	0.00e+00	0	55	0	322961408	57	4497
2026-01-02 10:15:52.74	174.36	22.16	-47.2	-49.0	16.1	0.00e+00	0	55	0	325058560	57	4351
2026-01-02 10:15:53.72	174.43	22.30	-47.3	-49.1	15.9	0.00e+00	0	55	0	326107136	57	4434
2026-01-02 10:15:54.70	174.50	22.44	-47.2	-49.0	16.0	0.00e+00	0	55	0	328204288	57	4369
2026-01-02 10:15:55.69	174.56	22.57	-47.3	-49.1	15.9	0.00e+00	0	55	0	330301440	57	4424
2026-01-02 10:15:56.68	174.63	22.71	-47.2	-49.0	16.1	0.00e+00	0	55	0	332398592	57	4366
2026-01-02 10:15:57.68	174.70	22.86	-47.2	-48.9	16.1	0.00e+00	0	55	0	334495744	57	4319
2026-01-02 10:15:58.66	174.77	23.00	-47.3	-49.1	16.0	0.00e+00	0	55	0	335544320	57	4424
2026-01-02 10:15:59.66	174.84	23.14	-47.3	-49.1	15.9	0.00e+00	0	55	0	337641472	57	4425
2026-01-02 10:16:00.64	174.91	23.28	-47.2	-48.9	16.1	0.00e+00	0	55	0	339738624	57	4330
2026-01-02 10:16:01.63	174.98	23.42	-46.9	-48.6	16.4	0.00e+00	0	55	0	341835776	57	4175
2026-01-02 10:16:02.62	175.05	23.57	-46.9	-48.5	16.5	0.00e+00	0	55	0	342884352	56	4377
2026-01-02 10:16:03.61	175.12	23.71	-47.0	-48.7	16.4	0.00e+00	0	55	0	344981504	56	4453
2026-01-02 10:16:04.60	175.19	23.86	-47.1	-48.8	16.3	0.00e+00	0	55	0	347078656	56	4505
2026-01-02 10:16:05.59	175.27	24.01	-47.1	-48.9	16.1	0.00e+00	0	55	0	349175808	56	4552
2026-01-02 10:16:06.58	175.34	24.15	-47.3	-49.0	16.0	0.00e+00	0	55	0	350224384	56	4651
2026-01-02 10:16:07.57	175.42	24.30	-47.2	-49.0	16.0	0.00e+00	0	55	0	352321536	56	4637
2026-01-02 10:16:08.57	175.49	24.45	-47.3	-49.1	16.0	0.00e+00	0	55	0	354418688	56	4663
2026-01-02 10:16:09.55	175.57	24.60	-47.3	-49.2	15.9	0.00e+00	0	55	0	356515840	56	4717
2026-01-02 10:16:10.54	175.64	24.75	-47.4	-49.3	15.8	0.00e+00	0	55	0	358612992	56	4761
2026-01-02 10:16:11.53	175.72	24.90	-47.4	-49.2	15.8	0.00e+00	0	55	0	359661568	56	4739
2026-01-02 10:16:12.51	175.80	25.05	-47.3	-49.2	15.9	0.00e+00	0	55	0	361758720	56	4716
2026-01-02 10:16:13.51	175.88	25.21	-47.4	-49.2	15.8	0.00e+00	0	55	0	363855872	56	4757
2026-01-02 10:16:14.50	175.96	25.36	-47.1	-48.9	16.1	0.00e+00	0	55	0	365953024	56	4576
2026-01-02 10:16:15.48	176.04	25.51	-47.1	-49.0	16.1	0.00e+00	0	55	0	367001600	56	4628
2026-01-02 10:16:16.47	176.12	25.67	-47.3	-49.2	15.9	0.00e+00	0	55	0	369098752	56	4737
2026-01-02 10:16:17.47	176.20	25.83	-47.3	-49.1	16.0	0.00e+00	0	55	0	371195904	56	4700
2026-01-02 10:16:18.47	176.28	25.99	-47.5	-49.5	15.7	0.00e+00	0	55	0	373293056	56	4873
2026-01-02 10:16:19.44	176.37	26.14	-47.2	-49.0	16.0	0.00e+00	0	55	0	375390208	56	4651
2026-01-02 10:16:20.43	176.45	26.30	-47.1	-48.9	16.2	0.00e+00	0	55	0	376438784	56	4550
2026-01-02 10:16:21.41	176.53	26.46	-47.0	-48.7	16.4	0.00e+00	0	55	0	378535936	56	4484
2026-01-02 10:16:22.41	176.62	26.62	-47.0	-48.7	16.3	0.00e+00	0	55	0	380633088	56	4487
2026-01-02 10:16:23.40	176.71	26.78	-46.9	-48.6	16.5	0.00e+00	0	55	0	382730240	56	4410
2026-01-02 10:16:24.40	176.80	26.95	-46.9	-48.5	16.6	0.00e+00	0	55	0	383778816	56	4382
2026-01-02 10:16:25.39	176.88	27.11	-47.1	-48.9	16.2	0.00e+00	0	55	0	385875968	56	4572
2026-01-02 10:16:26.38	176.97	27.27	-47.1	-48.8	16.3	0.00e+00	0	55	0	387973120	56	4519
2026-01-02 10:16:27.37	177.06	27.44	-46.7	-48.3	16.8	0.00e+00	0	55	0	390070272	56	4255
2026-01-02 10:16:28.35	177.15	27.60	-46.7	-48.2	16.9	0.00e+00	0	55	0	391118848	56	4242
2026-01-02 10:16:29.34	177.24	27.77	-46.6	-48.1	17.0	0.00e+00	0	55	0	393216000	56	4165
2026-01-02 10:16:30.33	177.34	27.94	-46.6	-48.2	16.9	0.00e+00	0	55	0	395313152	56	4210
2026-01-02 10:16:31.32	177.43	28.11	-46.6	-48.2	16.9	0.00e+00	0	55	0	397410304	56	4222
2026-01-02 10:16:32.31	177.53	28.28	-46.6	-48.2	16.9	0.00e+00	0	55	0	399507456	56	4218
2026-01-02 10:16:33.30	177.62	28.45	-47.1	-48.7	16.4	0.00e+00	0	55	0	400556032	56	4489
2026-01-02 10:16:34.28	177.72	28.62	-47.0	-48.6	16.5	0.00e+00	0	55	0	402653184	56	4428
2026-01-02 10:16:35.27	177.81	28.79	-47.1	-48.8	16.3	0.00e+00	0	55	0	404750336	56	4526
2026-01-02 10:16:36.26	177.91	28.96	-47.2	-49.0	16.1	0.00e+00	0	55	0	406847488	56	4612
2026-01-02 10:16:37.25	178.01	29.14	-47.6	-49.5	15.7	0.00e+00	0	55	0	407896064	56	4888
2026-01-02 10:16:38.23	178.11	29.31	-47.4	-49.3	15.9	0.00e+00	0	55	0	409993216	57	4500
2026-01-02 10:16:39.21	178.21	29.49	-47.9	-49.9	15.2	0.00e+00	0	55	0	412090368	57	4860
2026-01-02 10:16:40.21	178.32	29.67	-48.2	-50.4	14.8	0.00e+00	0	55	0	414187520	58	4833
2026-01-02 10:16:41.20	178.42	29.85	-48.2	-50.5	14.6	0.00e+00	0	55	0	415236096	58	4892
2026-01-02 10:16:42.20	178.53	30.03	-48.3	-50.6	14.6	7.00e-07	0	56	0	417333248	58	4941
2026-01-02 10:16:43.18	178.63	30.21	-48.5	-50.9	14.2	7.00e-07	0	56	0	419430400	58	5157
2026-01-02 10:16:44.17	178.74	30.39	-48.5	-50.8	14.4	0.00e+00	0	55	0	421527552	58	5079
2026-01-02 10:16:45.15	178.85	30.57	-48.6	-51.1	14.1	7.00e-07	0	56	0	422576128	59	4941
2026-01-02 10:16:46.14	178.95	30.76	-48.6	-51.1	14.1	3.00e-06	0	55	0	424673280	59	4937
2026-01-02 10:16:47.13	179.07	30.94	-48.8	-51.4	13.8	3.80e-06	0	55	0	426770432	59	5135
2026-01-02 10:16:48.11	179.18	31.12	-48.7	-51.2	14.0	0.00e+00	0	56	0	428867584	59	4987
2026-01-02 10:16:49.10	179.29	31.31	-49.1	-52.0	13.1	6.10e-06	0	56	0	430964736	60	5161
2026-01-02 10:16:50.09	179.40	31.50	-49.0	-51.8	13.2	1.14e-05	0	55	0	432013312	60	5098
2026-01-02 10:16:51.08	179.52	31.69	-49.4	-52.4	12.7	3.12e-05	0	55	0	434110464	60	5435
2026-01-02 10:16:52.07	179.64	31.88	-50.1	-54.0	11.1	4.56e-04	0	56	0	436207616	62	5828
2026-01-02 10:16:53.06	179.76	32.07	-49.8	-53.2	11.9	3.67e-04	0	56	0	438304768	62	5329
2026-01-02 10:16:54.05	179.88	32.27	-50.0	-53.7	11.4	7.56e-04	0	56	0	439353344	62	5594
2026-01-02 10:16:55.04	180.00	32.46	-49.8	-53.4	11.7	1.19e-03	0	56	0	441450496	62	5433
2026-01-02 10:16:56.03	180.12	32.65	-49.8	-53.4	11.8	4.06e-04	0	55	0	443547648	62	5422
2026-01-02 10:16:57.03	180.24	32.85	-50.0	-53.8	11.4	7.06e-04	0	55	0	445644800	62	5664
2026-01-02 10:16:58.02	180.37	33.05	-49.9	-53.5	11.6	3.09e-04	0	56	0	446693376	62	5508
2026-01-02 10:16:59.01	180.50	33.25	-49.4	-52.7	12.4	3.71e-04	0	56	0	448790528	62	5019
2026-01-02 10:17:00.00	180.63	33.45	-49.4	-52.6	12.5	1.30e-04	0	56	0	450887680	61	5258
2026-01-02 10:17:00.98	180.75	33.65	-49.6	-52.8	12.4	1.23e-04	0	56	0	452984832	61	5398
2026-01-02 10:17:01.97	180.89	33.85	-49.4	-52.5	12.5	1.70e-04	0	56	0	455081984	61	5196
2026-01-02 10:17:02.97	181.02	34.05	-49.4	-52.5	12.7	6.48e-05	0	56	0	456130560	61	5191
2026-01-02 10:17:03.96	181.16	34.26	-49.9	-53.3	11.8	1.67e-04	0	56	0	458227712	61	5681
2026-01-02 10:17:04.94	181.29	34.46	-49.5	-52.5	12.7	1.97e-04	0	56	0	460324864	61	5218
2026-01-02 10:17:05.93	181.43	34.67	-49.4	-52.5	12.7	9.53e-05	0	56	0	462422016	61	5179
2026-01-02 10:17:06.92	181.57	34.88	-49.9	-53.3	11.8	2.91e-04	0	56	0	463470592	61	5688
2026-01-02 10:17:07.91	181.71	35.09	-49.6	-52.8	12.3	3.81e-04	0	56	0	465567744	61	5395
2026-01-02 10:17:08.90	181.85	35.30	-49.6	-52.9	12.3	2.53e-04	0	56	0	467664896	61	5434
2026-01-02 10:17:09.89	182.00	35.51	-49.9	-53.4	11.8	2.65e-04	0	56	0	469762048	61	5734
2026-01-02 10:17:10.88	182.15	35.72	-49.8	-53.4	11.9	5.07e-04	0	56	0	470810624	61	5750
2026-01-02 10:17:11.87	182.29	35.93	-49.6	-53.0	12.2	3.19e-04	0	56	0	472907776	61	5521
2026-01-02 10:17:12.85	182.44	36.15	-50.3	-54.2	10.9	1.60e-03	0	56	0	475004928	62	5983
2026-01-02 10:17:13.84	182.60	36.36	-50.1	-54.1	11.0	1.98e-03	0	56	0	477102080	62	5886
2026-01-02 10:17:14.83	182.75	36.58	-49.9	-53.5	11.7	6.95e-04	0	56	0	479199232	62	5498
2026-01-02 10:17:15.82	182.91	36.80	-49.6	-52.9	12.3	5.97e-04	0	56	0	480247808	62	5140
2026-01-02 10:17:16.80	183.07	37.02	-49.6	-52.8	12.5	1.48e-04	0	56	0	482344960	62	5065
2026-01-02 10:17:17.79	183.23	37.24	-49.2	-52.3	12.9	2.10e-04	0	56	0	484442112	61	5079
2026-01-02 10:17:18.78	183.39	37.46	-49.1	-51.9	13.3	5.26e-05	0	56	0	486539264	61	4818
2026-01-02 10:17:19.76	183.55	37.68	-49.1	-51.9	13.3	1.14e-05	0	56	0	487587840	61	4838
2026-01-02 10:17:20.75	183.72	37.91	-48.9	-51.5	13.7	1.67e-05	0	56	0	489684992	60	4902
2026-01-02 10:17:21.74	183.89	38.13	-49.1	-51.9	13.3	8.30e-06	0	56	0	491782144	60	5135
2026-01-02 10:17:22.74	184.06	38.36	-49.1	-52.0	13.2	1.06e-05	0	56	0	493879296	60	5197
2026-01-02 10:17:23.72	184.24	38.59	-49.4	-52.5	12.8	3.81e-05	0	56	0	494927872	60	5470
2026-01-02 10:17:24.72	184.42	38.82	-49.6	-52.9	12.2	3.88e-04	0	56	0	497025024	61	5440
2026-01-02 10:17:25.71	184.59	39.05	-49.8	-53.2	12.0	3.48e-04	0	56	0	499122176	61	5633
2026-01-02 10:17:26.69	184.77	39.28	-50.0	-53.6	11.5	4.48e-04	0	56	0	501219328	61	5907
2026-01-02 10:17:27.68	184.96	39.52	-49.9	-53.4	11.8	1.07e-03	0	56	0	502267904	62	5448
2026-01-02 10:17:28.66	185.14	39.75	-49.9	-53.6	11.6	5.13e-04	0	56	0	504365056	62	5556
2026-01-02 10:17:29.65	185.33	39.99	-50.4	-54.4	10.7	1.91e-03	0	56	0	506462208	62	6089
2026-01-02 10:17:30.64	185.53	40.23	-50.3	-54.2	10.9	3.44e-03	0	56	0	508559360	62	5974
2026-01-02 10:17:31.63	185.72	40.46	-50.3	-54.2	11.0	2.50e-03	0	56	0	510656512	62	5952
2026-01-02 10:17:32.62	185.92	40.70	-50.3	-54.4	10.8	2.80e-03	0	56	0	511705088	62	6089
2026-01-02 10:17:33.61	186.12	40.95	-50.4	-54.6	10.7	2.74e-03	0	56	0	513802240	62	6204
2026-01-02 10:17:34.60	186.32	41.19	-49.9	-53.5	11.6	9.60e-04	0	56	0	515899392	62	5494
2026-01-02 10:17:35.59	186.53	41.43	-49.4	-52.5	12.8	2.61e-04	0	56	0	517996544	62	4895
2026-01-02 10:17:36.58	186.74	41.68	-49.3	-52.2	12.9	5.49e-05	0	56	0	519045120	61	5038
2026-01-02 10:17:37.57	186.95	41.92	-49.3	-52.3	13.0	3.73e-05	0	56	0	521142272	61	5043
2026-01-02 10:17:38.55	187.17	42.17	-48.8	-51.4	13.7	3.50e-05	0	56	0	523239424	60	4854
2026-01-02 10:17:39.53	187.38	42.41	-48.6	-51.1	14.2	0.00e+00	0	56	0	525336576	59	4930
2026-01-02 10:17:40.51	187.61	42.66	-48.4	-50.6	14.7	0.00e+00	0	56	0	526385152	59	4677
2026-01-02 10:17:41.50	187.83	42.91	-48.4	-50.6	14.6	0.00e+00	0	56	0	528482304	59	4699
2026-01-02 10:17:42.49	188.06	43.16	-48.1	-50.3	15.0	0.00e+00	0	56	0	530579456	59	4498
2026-01-02 10:17:43.48	188.29	43.42	-48.1	-50.3	14.9	0.00e+00	0	56	0	532676608	59	4502
2026-01-02 10:17:44.48	188.53	43.68	-48.2	-50.4	14.9	0.00e+00	0	56	0	534773760	59	4557
2026-01-02 10:17:45.46	188.77	43.93	-48.3	-50.5	14.8	0.00e+00	0	56	0	535822336	59	4620
2026-01-02 10:17:46.44	189.01	44.18	-48.1	-50.3	15.0	1.50e-06	0	56	0	537919488	59	4496
2026-01-02 10:17:47.43	189.26	44.44	-47.8	-49.8	15.4	0.00e+00	0	56	0	540016640	58	4542
2026-01-02 10:17:48.42	189.52	44.70	-48.2	-50.4	14.9	0.00e+00	0	56	0	542113792	58	4846
2026-01-02 10:17:49.42	189.77	44.96	-48.1	-50.3	14.9	0.00e+00	0	56	0	543162368	58	4811
2026-01-02 10:17:50.40	190.03	45.22	-48.0	-50.1	15.2	0.00e+00	0	56	0	545259520	58	4660
2026-01-02 10:17:51.39	190.30	45.48	-48.0	-50.1	15.2	0.00e+00	0	56	0	547356672	58	4703
2026-01-02 10:17:52.38	190.57	45.75	-48.0	-50.0	15.2	0.00e+00	0	56	0	549453824	58	4642
2026-01-02 10:17:53.38	190.84	46.01	-48.3	-50.4	14.9	0.00e+00	0	56	0	550502400	58	4816
2026-01-02 10:17:54.37	191.12	46.28	-48.6	-50.9	14.3	0.00e+00	0	56	0	552599552	59	4840
2026-01-02 10:17:55.36	191.40	46.55	-48.3	-50.5	14.8	0.00e+00	0	56	0	554696704	59	4602
2026-01-02 10:17:56.35	191.69	46.81	-48.2	-50.3	14.9	0.00e+00	0	56	0	556793856	59	4545
2026-01-02 10:17:57.34	191.98	47.08	-48.1	-50.3	15.1	0.00e+00	0	56	0	558891008	58	4764
2026-01-02 10:17:58.34	192.29	47.35	-47.8	-49.8	15.5	0.00e+00	0	56	0	559939584	58	4511
2026-01-02 10:17:59.32	192.59	47.62	-47.7	-49.7	15.6	0.00e+00	0	56	0	562036736	58	4458
2026-01-02 10:18:00.31	192.89	47.89	-47.7	-49.6	15.8	0.00e+00	0	56	0	564133888	58	4399
2026-01-02 10:18:01.30	193.21	48.16	-47.5	-49.4	15.9	0.00e+00	0	56	0	566231040	58	4311
2026-01-02 10:18:02.28	193.52	48.43	-47.6	-49.5	15.8	0.00e+00	0	57	0	567279616	58	4367
2026-01-02 10:18:03.27	193.85	48.71	-47.2	-49.0	16.3	0.00e+00	0	56	0	569376768	57	4364
2026-01-02 10:18:04.26	194.18	48.98	-47.3	-49.1	16.2	0.00e+00	0	56	0	571473920	57	4400
2026-01-02 10:18:05.25	194.51	49.26	-46.6	-48.1	17.1	0.00e+00	0	56	0	573571072	56	4169
2026-01-02 10:18:06.24	194.85	49.53	-46.2	-47.5	17.4	0.00e+00	0	56	0	574619648	55	4143
2026-01-02 10:18:07.22	195.20	49.81	-46.3	-47.7	17.4	0.00e+00	0	56	0	576716800	55	4227
2026-01-02 10:18:08.22	195.56	50.09	-47.0	-48.6	16.5	0.00e+00	0	56	0	578813952	55	4693
2026-01-02 10:18:09.21	195.92	50.36	-47.2	-49.0	16.3	0.00e+00	0	56	0	580911104	56	4609
2026-01-02 10:18:10.19	196.28	50.64	-47.5	-49.4	15.9	0.00e+00	0	56	0	583008256	57	4574
2026-01-02 10:18:11.19	196.66	50.92	-47.6	-49.5	15.7	0.00e+00	0	56	0	584056832	57	4637
2026-01-02 10:18:12.18	197.04	51.20	-47.7	-49.6	15.6	0.00e+00	0	56	0	586153984	57	4699
2026-01-02 10:18:13.17	197.43	51.48	-47.4	-49.1	16.1	0.00e+00	0	56	0	588251136	57	4426
2026-01-02 10:18:14.17	197.83	51.76	-46.0	-47.3	17.8	0.00e+00	0	56	0	590348288	55	4041
2026-01-02 10:18:15.16	198.23	52.04	-45.6	-46.8	18.2	0.00e+00	0	56	0	591396864	54	4018
2026-01-02 10:18:16.14	198.64	52.31	-45.6	-46.9	18.2	0.00e+00	0	56	0	593494016	53	4319
2026-01-02 10:18:17.13	199.06	52.59	-45.4	-46.5	18.4	0.00e+00	0	56	0	595591168	53	4139
2026-01-02 10:18:18.12	199.48	52.87	-44.8	-45.9	19.1	0.00e+00	0	56	0	597688320	52	4076
2026-01-02 10:18:19.11	199.92	53.15	-45.1	-46.2	18.8	0.00e+00	0	56	0	598736896	52	4226
2026-01-02 10:18:20.10	200.36	53.43	-45.6	-46.9	18.1	0.00e+00	0	56	0	600834048	53	4318
2026-01-02 10:18:21.09	200.81	53.71	-46.0	-47.4	17.6	0.00e+00	0	56	0	602931200	53	4575
2026-01-02 10:18:22.08	201.27	53.99	-46.6	-48.2	16.9	0.00e+00	0	56	0	605028352	55	4468
2026-01-02 10:18:23.07	201.74	54.27	-46.5	-48.1	17.0	0.00e+00	0	57	0	607125504	55	4409
2026-01-02 10:18:24.06	202.22	54.55	-46.5	-48.0	17.1	0.00e+00	0	56	0	608174080	55	4374
2026-01-02 10:18:25.05	202.70	54.82	-46.0	-47.4	17.6	0.00e+00	0	56	0	610271232	55	4087
2026-01-02 10:18:26.03	203.19	55.10	-45.5	-46.8	18.2	0.00e+00	0	57	0	612368384	53	4255
2026-01-02 10:18:27.01	203.69	55.37	-45.3	-46.5	18.5	0.00e+00	0	56	0	614465536	53	4109
2026-01-02 10:18:27.99	204.20	55.65	-45.6	-46.8	18.2	0.00e+00	0	56	0	615514112	53	4271
2026-01-02 10:18:28.97	204.73	55.92	-46.1	-47.4	17.6	0.00e+00	0	56	0	617611264	54	4327
2026-01-02 10:18:29.95	205.26	56.19	-46.7	-48.3	16.9	0.00e+00	0	57	0	619708416	55	4536
2026-01-02 10:18:30.94	205.80	56.46	-46.4	-47.9	17.2	0.00e+00	0	56	0	621805568	55	4322
2026-01-02 10:18:31.92	206.35	56.73	-45.9	-47.2	17.9	0.00e+00	0	57	0	622854144	54	4241
2026-01-02 10:18:32.91	206.92	57.00	-45.7	-47.0	18.1	0.00e+00	0	57	0	624951296	54	4114
2026-01-02 10:18:33.89	207.50	57.27	-45.4	-46.6	18.3	0.00e+00	0	56	0	627048448	53	4186
2026-01-02 10:18:34.87	208.08	57.53	-45.7	-47.1	18.0	0.00e+00	0	56	0	629145600	53	4400
2026-01-02 10:18:35.86	208.68	57.80	-46.0	-47.4	17.7	0.00e+00	0	57	0	630194176	53	4577
2026-01-02 10:18:36.86	209.30	58.06	-46.0	-47.4	17.8	0.00e+00	0	57	0	632291328	54	4330
2026-01-02 10:18:37.84	209.92	58.32	-46.0	-47.4	17.7	0.00e+00	0	57	0	634388480	54	4296
2026-01-02 10:18:38.83	210.56	58.58	-45.6	-46.8	18.2	0.00e+00	0	57	0	636485632	54	4036
2026-01-02 10:18:39.82	211.21	58.84	-46.0	-47.4	17.7	0.00e+00	0	56	0	638582784	54	4301
2026-01-02 10:18:40.80	211.87	59.09	-46.9	-48.5	16.7	0.00e+00	0	57	0	639631360	55	4644
2026-01-02 10:18:41.80	212.55	59.35	-47.9	-50.0	15.2	0.00e+00	0	56	0	641728512	57	4917
2026-01-02 10:18:42.78	213.23	59.60	-47.9	-49.9	15.4	0.00e+00	0	56	0	643825664	57	4856
2026-01-02 10:18:43.77	213.93	59.84	-46.4	-48.3	16.8	0.00e+00	0	57	0	645922816	56	4279
2026-01-02 10:18:44.76	214.65	60.09	-46.7	-48.2	17.0	0.00e+00	0	57	0	646971392	56	4232
2026-01-02 10:18:45.75	215.38	60.33	-47.3	-49.1	16.3	0.00e+00	0	57	0	649068544	56	4682
2026-01-02 10:18:46.75	216.13	60.57	-47.3	-49.2	16.2	0.00e+00	0	56	0	651165696	56	4707
2026-01-02 10:18:47.74	216.89	60.81	-46.6	-48.1	17.1	0.00e+00	0	57	0	653262848	56	4146
2026-01-02 10:18:48.73	217.66	61.04	-46.4	-47.9	17.3	0.00e+00	0	57	0	654311424	56	4078
2026-01-02 10:18:49.73	218.45	61.27	-47.3	-49.1	16.2	0.00e+00	0	57	0	656408576	56	4664
2026-01-02 10:18:50.71	219.24	61.49	-47.8	-49.8	15.5	0.00e+00	0	57	0	658505728	57	4804
2026-01-02 10:18:51.70	220.06	61.71	-47.1	-48.8	16.4	0.00e+00	0	57	0	660602880	57	4283
2026-01-02 10:18:52.70	220.89	61.92	-46.9	-48.4	16.8	0.00e+00	0	57	0	662700032	56	4340
2026-01-02 10:18:53.69	221.74	62.13	-47.0	-48.6	16.7	0.00e+00	0	56	0	663748608	56	4398
2026-01-02 10:18:54.68	222.59	62.34	-46.8	-48.3	16.9	0.00e+00	0	57	0	665845760	56	4272
2026-01-02 10:18:55.68	223.47	62.54	-46.2	-47.6	17.5	0.00e+00	0	57	0	667942912	55	4151
2026-01-02 10:18:56.66	224.35	62.74	-46.1	-47.4	17.7	0.00e+00	0	57	0	670040064	54	4330
2026-01-02 10:18:57.64	225.24	62.93	-45.8	-47.1	18.0	0.00e+00	0	57	0	671088640	54	4168
2026-01-02 10:18:58.62	226.15	63.11	-45.2	-46.3	18.7	0.00e+00	0	57	0	673185792	53	4028
2026-01-02 10:18:59.61	227.07	63.29	-45.5	-46.7	18.3	0.00e+00	0	57	0	675282944	53	4210
2026-01-02 10:19:00.60	228.02	63.46	-45.7	-47.0	18.0	0.00e+00	0	57	0	677380096	53	4377
2026-01-02 10:19:01.59	228.97	63.63	-46.1	-47.4	17.6	0.00e+00	0	57	0	678428672	54	4337
2026-01-02 10:19:02.59	229.95	63.80	-46.4	-47.9	17.2	0.00e+00	0	57	0	680525824	54	4589
2026-01-02 10:19:03.58	230.93	63.95	-47.4	-49.2	16.2	0.00e+00	0	57	0	682622976	56	4707
2026-01-02 10:19:04.57	231.93	64.10	-47.5	-49.4	15.8	0.00e+00	0	57	0	684720128	57	4591
2026-01-02 10:19:05.55	232.93	64.24	-47.0	-48.7	16.5	0.00e+00	0	57	0	686817280	57	4205
2026-01-02 10:19:06.54	233.95	64.38	-47.6	-49.4	15.8	0.00e+00	0	57	0	687865856	57	4565
2026-01-02 10:19:07.54	234.99	64.51	-48.5	-50.9	14.5	0.00e+00	0	57	0	689963008	58	5101
2026-01-02 10:19:08.51	236.01	64.62	-49.2	-52.2	13.1	7.00e-07	0	57	0	692060160	60	5333
2026-01-02 10:19:09.50	237.06	64.74	-49.5	-52.6	12.7	1.51e-04	0	57	0	694157312	61	5246
2026-01-02 10:19:10.49	238.13	64.84	-48.7	-51.4	13.9	1.22e-05	0	57	0	695205888	60	4821
2026-01-02 10:19:11.48	239.20	64.94	-48.3	-50.5	14.7	1.50e-06	0	57	0	697303040	59	4648
2026-01-02 10:19:12.47	240.28	65.03	-48.1	-50.2	15.0	7.00e-07	0	57	0	699400192	59	4492
2026-01-02 10:19:13.45	241.36	65.12	-48.1	-50.2	15.1	0.00e+00	0	57	0	701497344	59	4465
2026-01-02 10:19:14.44	242.46	65.19	-47.8	-49.9	15.3	0.00e+00	0	57	0	702545920	58	4557
2026-01-02 10:19:15.43	243.57	65.26	-48.3	-50.5	14.8	7.00e-07	0	57	0	704643072	58	4913
2026-01-02 10:19:16.43	244.69	65.32	-48.3	-50.6	14.6	7.00e-07	0	57	0	706740224	59	4662
2026-01-02 10:19:17.42	245.81	65.37	-47.8	-49.7	15.5	0.00e+00	0	57	0	708837376	58	4474
2026-01-02 10:19:18.41	246.93	65.41	-47.0	-48.5	16.7	0.00e+00	0	57	0	710934528	56	4388
2026-01-02 10:19:19.40	248.05	65.44	-46.7	-48.2	17.0	0.00e+00	0	57	0	711983104	56	4234
2026-01-02 10:19:20.40	249.19	65.47	-46.2	-47.6	17.5	0.00e+00	0	57	0	714080256	55	4180
2026-01-02 10:19:21.38	250.31	65.49	-45.6	-46.9	18.2	0.00e+00	0	57	0	716177408	54	4053
2026-01-02 10:19:22.37	251.44	65.49	-45.6	-46.8	18.2	0.00e+00	0	57	0	718274560	54	4046
2026-01-02 10:19:23.36	252.58	65.49	-46.3	-47.7	17.5	0.00e+00	0	57	0	719323136	54	4454
2026-01-02 10:19:24.35	253.71	65.48	-47.3	-49.0	16.3	0.00e+00	0	57	0	721420288	56	4624
2026-01-02 10:19:25.34	254.84	65.47	-46.6	-48.1	17.1	0.00e+00	0	57	0	723517440	56	4146
2026-01-02 10:19:26.34	255.98	65.44	-45.5	-46.8	18.2	0.00e+00	0	57	0	725614592	54	4022
2026-01-02 10:19:27.32	257.09	65.40	-46.3	-47.8	17.3	0.00e+00	0	57	0	726663168	54	4497
2026-01-02 10:19:28.31	258.21	65.36	-47.7	-49.7	15.7	0.00e+00	0	57	0	728760320	57	4717
2026-01-02 10:19:29.30	259.33	65.31	-46.9	-48.6	16.6	0.00e+00	0	57	0	730857472	57	4184
2026-01-02 10:19:30.28	260.43	65.25	-46.9	-48.5	16.7	0.00e+00	0	57	0	732954624	56	4380
2026-01-02 10:19:31.26	261.52	65.18	-46.7	-48.3	16.9	0.00e+00	0	57	0	735051776	56	4260
2026-01-02 10:19:32.25	262.62	65.11	-46.1	-47.6	17.5	0.00e+00	0	57	0	736100352	55	4160
2026-01-02 10:19:33.24	263.71	65.02	-45.0	-46.2	18.8	0.00e+00	0	57	0	738197504	53	3961
2026-01-02 10:19:34.22	264.78	64.93	-45.0	-46.1	18.9	0.00e+00	0	57	0	740294656	52	4181
2026-01-02 10:19:35.22	265.86	64.83	-45.6	-46.9	18.1	0.00e+00	0	57	0	742391808	53	4304
2026-01-02 10:19:36.21	266.92	64.73	-45.7	-47.0	18.1	0.00e+00	0	57	0	743440384	53	4352
2026-01-02 10:19:37.19	267.96	64.61	-45.9	-47.2	17.8	0.00e+00	0	57	0	745537536	54	4231
2026-01-02 10:19:38.19	269.01	64.49	-46.4	-47.9	17.3	0.00e+00	0	57	0	747634688	54	4589
2026-01-02 10:19:39.17	270.03	64.36	-46.5	-48.1	17.0	0.00e+00	0	57	0	749731840	55	4420
2026-01-02 10:19:40.16	271.05	64.23	-46.3	-47.8	17.2	0.00e+00	0	57	0	750780416	55	4270
2026-01-02 10:19:41.14	272.05	64.08	-46.2	-47.7	17.4	0.00e+00	0	57	0	752877568	55	4206
2026-01-02 10:19:42.13	273.04	63.93	-46.0	-47.4	17.7	0.00e+00	0	57	0	754974720	55	4060
2026-01-02 10:19:43.11	274.01	63.78	-45.8	-47.2	17.9	0.00e+00	0	57	0	757071872	54	4210
2026-01-02 10:19:44.11	274.99	63.62	-45.9	-47.3	17.8	0.00e+00	0	57	0	758120448	54	4243
2026-01-02 10:19:45.09	275.93	63.45	-45.8	-47.2	17.9	0.00e+00	0	57	0	760217600	54	4200
2026-01-02 10:19:46.08	276.87	63.28	-45.6	-46.9	18.2	0.00e+00	0	57	0	762314752	54	4068
2026-01-02 10:19:47.08	277.80	63.09	-46.5	-48.1	17.0	0.00e+00	0	57	0	764411904	54	4679
2026-01-02 10:19:48.07	278.72	62.91	-47.3	-49.1	16.1	0.00e+00	0	57	0	766509056	56	4698
2026-01-02 10:19:49.07	279.62	62.71	-46.1	-47.5	17.7	0.00e+00	0	57	0	767557632	55	4102
2026-01-02 10:19:50.06	280.51	62.52	-45.6	-46.9	18.1	0.00e+00	0	57	0	769654784	54	4091
2026-01-02 10:19:51.06	281.38	62.31	-46.1	-47.5	17.5	0.00e+00	0	57	0	771751936	54	4387
2026-01-02 10:19:52.05	282.24	62.11	-46.3	-47.8	17.3	0.00e+00	0	57	0	773849088	55	4261
2026-01-02 10:19:53.04	283.08	61.90	-45.8	-47.1	18.0	0.00e+00	0	57	0	774897664	54	4161
2026-01-02 10:19:54.03	283.90	61.68	-45.9	-47.3	17.7	0.00e+00	0	57	0	776994816	54	4254
2026-01-02 10:19:55.02	284.71	61.46	-46.2	-47.7	17.3	0.00e+00	0	57	0	779091968	54	4481
2026-01-02 10:19:56.00	285.50	61.24	-45.1	-46.3	18.7	0.00e+00	0	57	0	781189120	53	4033
2026-01-02 10:19:57.00	286.29	61.01	-43.9	-44.9	20.0	0.00e+00	0	57	0	783286272	51	3832
2026-01-02 10:19:57.98	287.05	60.78	-44.5	-45.6	19.5	0.00e+00	0	57	0	784334848	51	4160
2026-01-02 10:19:58.97	287.81	60.55	-45.3	-46.6	18.4	0.00e+00	0	57	0	786432000	52	4426
2026-01-02 10:19:59.95	288.54	60.31	-45.1	-46.2	18.8	0.00e+00	0	57	0	788529152	52	4223
2026-01-02 10:20:00.93	289.26	60.07	-44.7	-45.8	19.2	0.00e+00	0	57	0	790626304	52	4014
2026-01-02 10:20:01.92	289.98	59.83	-45.1	-46.3	18.8	0.00e+00	0	57	0	791674880	52	4251
2026-01-02 10:20:02.91	290.68	59.58	-44.7	-45.8	19.2	0.00e+00	0	57	0	793772032	52	4016
2026-01-02 10:20:03.90	291.36	59.33	-44.0	-45.0	20.0	0.00e+00	0	57	0	795869184	51	3885
2026-01-02 10:20:04.90	292.04	59.08	-44.0	-44.9	20.1	0.00e+00	0	57	0	797966336	50	4086
2026-01-02 10:20:05.89	292.71	58.82	-44.7	-45.7	19.3	0.00e+00	0	57	0	799014912	51	4236
2026-01-02 10:20:06.88	293.35	58.56	-44.8	-46.0	19.0	0.00e+00	0	57	0	801112064	52	4100
2026-01-02 10:20:07.87	293.99	58.30	-44.4	-45.4	19.7	0.00e+00	0	57	0	803209216	51	4058
2026-01-02 10:20:08.85	294.61	58.05	-44.2	-45.2	19.9	0.00e+00	0	57	0	805306368	51	3960
2026-01-02 10:20:09.84	295.22	57.78	-44.4	-45.4	19.7	0.00e+00	0	57	0	807403520	51	4063
2026-01-02 10:20:10.84	295.83	57.51	-44.7	-45.8	19.3	0.00e+00	0	57	0	808452096	51	4254
2026-01-02 10:20:11.84	296.42	57.24	-45.0	-46.3	18.8	0.00e+00	0	57	0	810549248	51	4500
2026-01-02 10:20:12.83	297.00	56.98	-45.3	-46.5	18.5	0.00e+00	0	57	0	812646400	52	4376
2026-01-02 10:20:13.82	297.56	56.71	-44.9	-46.1	18.9	0.00e+00	0	57	0	814743552	52	4167
2026-01-02 10:20:14.81	298.12	56.44	-45.3	-46.5	18.5	0.00e+00	0	57	0	815792128	52	4369
2026-01-02 10:20:15.80	298.66	56.16	-45.2	-46.4	18.6	0.00e+00	0	57	0	817889280	52	4335
2026-01-02 10:20:16.79	299.20	55.89	-45.0	-46.1	18.9	0.00e+00	0	57	0	819986432	52	4188
2026-01-02 10:20:17.78	299.72	55.62	-44.8	-45.9	19.0	0.00e+00	0	57	0	822083584	52	4061
2026-01-02 10:20:18.77	300.23	55.34	-45.0	-46.1	18.9	0.00e+00	0	57	0	823132160	52	4183
2026-01-02 10:20:19.75	300.73	55.07	-45.0	-46.1	18.9	0.00e+00	0	57	0	825229312	52	4159
2026-01-02 10:20:20.74	301.23	54.79	-44.8	-45.9	19.1	0.00e+00	0	57	0	827326464	52	4084
2026-01-02 10:20:21.73	301.71	54.51	-45.4	-46.7	18.4	0.00e+00	0	57	0	829423616	52	4452
2026-01-02 10:20:22.72	302.19	54.24	-46.5	-48.0	17.1	0.00e+00	0	57	0	830472192	54	4610
2026-01-02 10:20:23.71	302.65	53.96	-47.1	-48.9	16.3	0.00e+00	0	57	0	832569344	56	4565
2026-01-02 10:20:24.69	303.10	53.68	-46.8	-48.3	16.9	0.00e+00	0	57	0	834666496	56	4286
2026-01-02 10:20:25.67	303.55	53.41	-45.8	-47.1	17.9	0.00e+00	0	57	0	836763648	54	4186
2026-01-02 10:20:26.67	303.99	53.13	-46.2	-47.6	17.4	0.00e+00	0	57	0	838860800	54	4435
2026-01-02 10:20:27.64	304.42	52.85	-47.0	-48.6	16.5	0.00e+00	0	57	0	839909376	55	4682
2026-01-02 10:20:28.63	304.84	52.57	-46.8	-48.4	16.7	0.00e+00	0	57	0	842006528	55	4549
2026-01-02 10:20:29.62	305.26	52.30	-46.5	-48.0	17.1	0.00e+00	0	57	0	844103680	55	4372
2026-01-02 10:20:30.60	305.66	52.02	-47.0	-48.6	16.6	0.00e+00	0	57	0	846200832	55	4674
2026-01-02 10:20:31.60	306.07	51.74	-47.5	-49.4	15.9	0.00e+00	0	57	0	847249408	57	4557
2026-01-02 10:20:32.59	306.46	51.46	-47.3	-49.1	16.2	0.00e+00	0	57	0	849346560	57	4412
2026-01-02 10:20:33.58	306.85	51.18	-47.0	-48.6	16.6	0.00e+00	0	57	0	851443712	57	4186
2026-01-02 10:20:34.56	307.23	50.91	-46.8	-48.3	16.8	0.00e+00	0	57	0	853540864	56	4290
2026-01-02 10:20:35.55	307.60	50.63	-47.0	-48.6	16.6	0.00e+00	0	57	0	854589440	56	4407
2026-01-02 10:20:36.54	307.96	50.35	-47.3	-49.0	16.2	0.00e+00	0	57	0	856686592	56	4634
2026-01-02 10:20:37.53	308.32	50.08	-47.5	-49.4	15.9	0.00e+00	0	57	0	858783744	56	4818
2026-01-02 10:20:38.52	308.68	49.80	-47.3	-49.1	16.2	0.00e+00	0	57	0	860880896	57	4397
2026-01-02 10:20:39.51	309.02	49.53	-48.0	-50.1	15.3	0.00e+00	0	57	0	862978048	57	4933
2026-01-02 10:20:40.50	309.37	49.25	-48.6	-51.1	14.2	7.00e-07	0	57	0	864026624	59	4965
2026-01-02 10:20:41.50	309.70	48.97	-48.7	-51.2	14.1	2.20e-06	0	57	0	866123776	59	5036
2026-01-02 10:20:42.49	310.03	48.70	-48.3	-50.5	14.7	7.00e-07	0	57	0	868220928	59	4603
2026-01-02 10:20:43.48	310.36	48.43	-47.3	-49.0	16.2	0.00e+00	0	57	0	870318080	57	4388
2026-01-02 10:20:44.47	310.67	48.16	-47.1	-48.8	16.3	0.00e+00	0	57	0	871366656	57	4277
2026-01-02 10:20:45.46	310.99	47.89	-47.0	-48.7	16.6	0.00e+00	0	57	0	873463808	57	4204
2026-01-02 10:20:46.44	311.29	47.62	-46.9	-48.5	16.6	0.00e+00	0	57	0	875560960	56	4370
2026-01-02 10:20:47.44	311.59	47.35	-47.1	-48.8	16.4	0.00e+00	0	57	0	877658112	56	4511
2026-01-02 10:20:48.43	311.89	47.08	-47.9	-49.8	15.4	0.00e+00	0	57	0	878706688	57	4808
2026-01-02 10:20:49.41	312.18	46.81	-48.5	-50.8	14.5	0.00e+00	0	57	0	880803840	58	5089
2026-01-02 10:20:50.41	312.47	46.55	-49.3	-52.1	13.1	6.80e-06	0	57	0	882900992	60	5275
2026-01-02 10:20:51.40	312.75	46.28	-49.3	-52.1	13.1	4.57e-05	0	57	0	884998144	60	5272
2026-01-02 10:20:52.39	313.03	46.02	-49.1	-51.8	13.5	1.52e-05	0	57	0	887095296	60	5053
2026-01-02 10:20:53.39	313.30	45.75	-48.6	-50.9	14.4	7.00e-07	0	57	0	888143872	60	4589
2026-01-02 10:20:54.38	313.57	45.49	-48.2	-50.3	14.9	0.00e+00	0	57	0	890241024	59	4528
2026-01-02 10:20:55.37	313.84	45.23	-48.0	-50.2	15.0	0.00e+00	0	57	0	892338176	59	4479
2026-01-02 10:20:56.36	314.10	44.96	-48.3	-50.6	14.7	0.00e+00	0	57	0	894435328	59	4664
2026-01-02 10:20:57.35	314.35	44.71	-48.5	-50.9	14.5	0.00e+00	0	57	0	895483904	59	4828
2026-01-02 10:20:58.34	314.60	44.45	-48.8	-51.4	13.9	1.50e-06	0	57	0	897581056	59	5103
2026-01-02 10:20:59.34	314.85	44.19	-49.1	-51.9	13.2	7.60e-06	0	57	0	899678208	60	5159
2026-01-02 10:21:00.33	315.10	43.93	-49.2	-52.1	13.0	3.73e-05	0	57	0	901775360	60	5250
2026-01-02 10:21:01.32	315.34	43.68	-48.9	-51.6	13.6	2.21e-05	0	57	0	903872512	60	4952
2026-01-02 10:21:02.30	315.57	43.43	-48.9	-51.6	13.7	4.50e-06	0	57	0	904921088	60	4930
2026-01-02 10:21:03.30	315.81	43.17	-48.8	-51.5	13.8	1.52e-05	0	57	0	907018240	60	4884
2026-01-02 10:21:04.29	316.04	42.92	-48.8	-51.4	13.8	9.10e-06	0	57	0	909115392	60	4852
2026-01-02 10:21:05.28	316.26	42.67	-49.1	-51.9	13.3	1.06e-05	0	57	0	911212544	60	5148
2026-01-02 10:21:06.27	316.48	42.42	-49.2	-52.1	13.1	6.40e-05	0	57	0	912261120	60	5262
2026-01-02 10:21:07.26	316.70	42.17	-49.0	-51.8	13.4	3.35e-05	0	57	0	914358272	60	5055
2026-01-02 10:21:08.25	316.92	41.93	-47.9	-49.9	15.3	3.80e-06	0	57	0	916455424	58	4593
2026-01-02 10:21:09.24	317.13	41.68	-47.5	-49.4	15.9	0.00e+00	0	57	0	918552576	58	4294
2026-01-02 10:21:10.23	317.34	41.44	-47.2	-48.9	16.2	0.00e+00	0	57	0	919601152	57	4311
2026-01-02 10:21:11.22	317.55	41.20	-47.5	-49.3	16.0	0.00e+00	0	57	0	921698304	57	4506
2026-01-02 10:21:12.21	317.75	40.95	-48.4	-50.6	14.6	0.00e+00	0	57	0	923795456	58	4980
2026-01-02 10:21:13.19	317.95	40.72	-48.9	-51.6	13.6	3.80e-06	0	57	0	925892608	59	5259
2026-01-02 10:21:14.19	318.15	40.47	-49.5	-52.8	12.5	3.96e-05	0	57	0	926941184	60	5667
2026-01-02 10:21:15.18	318.34	40.24	-50.0	-53.9	11.3	5.89e-04	0	57	0	929038336	61	6096
2026-01-02 10:21:16.17	318.53	40.00	-49.9	-53.7	11.4	1.06e-03	0	57	0	931135488	61	5927
2026-01-02 10:21:17.16	318.72	39.77	-49.7	-53.2	11.8	4.21e-04	0	57	0	933232640	61	5647
2026-01-02 10:21:18.14	318.91	39.53	-48.8	-51.5	13.6	5.11e-05	0	57	0	935329792	60	4915
2026-01-02 10:21:19.12	319.09	39.30	-48.4	-50.7	14.6	2.20e-06	0	57	0	936378368	59	4717
2026-01-02 10:21:20.11	319.27	39.07	-47.6	-49.6	15.6	7.00e-07	0	57	0	938475520	58	4395
2026-01-02 10:21:21.10	319.45	38.84	-47.5	-49.3	15.8	0.00e+00	0	57	0	940572672	58	4291
2026-01-02 10:21:22.09	319.62	38.61	-48.0	-50.1	15.1	0.00e+00	0	57	0	942669824	58	4674
2026-01-02 10:21:23.07	319.80	38.39	-48.4	-50.7	14.5	0.00e+00	0	57	0	943718400	58	5034
2026-01-02 10:21:24.05	319.97	38.16	-49.7	-53.0	12.2	7.62e-05	0	57	0	945815552	61	5500
2026-01-02 10:21:25.04	320.14	37.94	-50.3	-54.4	10.7	2.28e-03	0	57	0	947912704	62	6127
2026-01-02 10:21:26.03	320.30	37.71	-50.9	-56.3	8.8	1.54e-02	0	57	0	950009856	63	7146
2026-01-02 10:21:27.02	320.47	37.49	-50.2	-54.3	10.8	1.15e-02	0	57	0	951058432	63	5700
2026-01-02 10:21:28.00	320.63	37.27	-49.2	-52.3	12.9	1.72e-04	0	57	0	953155584	61	5061
2026-01-02 10:21:28.98	320.79	37.05	-48.1	-50.3	14.9	2.20e-06	0	57	0	955252736	59	4505
2026-01-02 10:21:29.97	320.95	36.83	-46.9	-48.6	16.5	0.00e+00	0	57	0	957349888	57	4189
2026-01-02 10:21:30.96	321.10	36.62	-46.7	-48.3	16.9	0.00e+00	0	57	0	959447040	56	4243
2026-01-02 10:21:31.95	321.26	36.40	-46.5	-48.1	17.1	0.00e+00	0	57	0	960495616	56	4146
2026-01-02 10:21:32.95	321.41	36.18	-47.0	-48.8	16.4	0.00e+00	0	57	0	962592768	56	4498
2026-01-02 10:21:33.94	321.56	35.97	-48.0	-50.1	15.1	0.00e+00	0	57	0	964689920	57	4968
2026-01-02 10:21:34.93	321.71	35.75	-48.7	-51.2	13.9	7.00e-07	0	57	0	966787072	59	5025
2026-01-02 10:21:35.91	321.86	35.54	-48.6	-51.2	14.0	3.00e-06	0	57	0	967835648	59	5002
2026-01-02 10:21:36.90	322.00	35.33	-48.7	-51.2	14.1	0.00e+00	0	57	0	969932800	59	5019
2026-01-02 10:21:37.89	322.15	35.12	-48.2	-50.4	14.8	3.00e-06	0	57	0	972029952	59	4585
2026-01-02 10:21:38.88	322.29	34.92	-47.6	-49.5	15.7	0.00e+00	0	57	0	974127104	58	4363
2026-01-02 10:21:39.87	322.43	34.71	-47.5	-49.4	15.8	0.00e+00	0	57	0	975175680	57	4588
2026-01-02 10:21:40.86	322.56	34.50	-47.3	-49.1	16.0	0.00e+00	0	57	0	977272832	57	4423
2026-01-02 10:21:41.85	322.70	34.30	-47.2	-49.0	16.2	0.00e+00	0	57	0	979369984	57	4353
2026-01-02 10:21:42.84	322.84	34.10	-47.6	-49.5	15.7	0.00e+00	0	57	0	981467136	57	4641
2026-01-02 10:21:43.83	322.97	33.89	-47.4	-49.3	15.9	0.00e+00	0	57	0	983564288	57	4521
2026-01-02 10:21:44.82	323.10	33.69	-47.6	-49.7	15.5	0.00e+00	0	57	0	984612864	57	4711
2026-01-02 10:21:45.81	323.23	33.49	-47.9	-50.1	15.1	0.00e+00	0	57	0	986710016	57	4945
2026-01-02 10:21:46.80	323.36	33.29	-48.2	-50.5	14.7	7.00e-07	0	57	0	988807168	58	4884
2026-01-02 10:21:47.79	323.48	33.10	-48.0	-50.1	15.1	0.00e+00	0	57	0	990904320	58	4690
2026-01-02 10:21:48.78	323.61	32.90	-47.7	-49.6	15.5	0.00e+00	0	57	0	991952896	58	4422
2026-01-02 10:21:49.77	323.73	32.70	-47.8	-49.9	15.3	0.00e+00	0	57	0	994050048	58	4555
2026-01-02 10:21:50.76	323.86	32.51	-47.4	-49.3	15.9	0.00e+00	0	57	0	996147200	58	4267
2026-01-02 10:21:51.75	323.98	32.32	-47.7	-49.6	15.5	0.00e+00	0	57	0	998244352	57	4697
2026-01-02 10:21:52.74	324.10	32.12	-47.6	-49.5	15.6	0.00e+00	0	57	0	999292928	57	4644
2026-01-02 10:21:53.72	324.21	31.94	-47.7	-49.7	15.5	0.00e+00	0	57	0	1001390080	57	4723
2026-01-02 10:21:54.71	324.33	31.75	-48.0	-50.1	15.0	0.00e+00	0	57	0	1003487232	57	4980
2026-01-02 10:21:55.71	324.45	31.55	-48.2	-50.5	14.7	0.00e+00	0	57	0	1005584384	58	4876
2026-01-02 10:21:56.70	324.56	31.37	-48.6	-51.2	14.2	7.00e-07	0	57	0	1007681536	59	4988
2026-01-02 10:21:57.69	324.68	31.18	-48.5	-50.9	14.3	0.00e+00	0	57	0	1008730112	59	4820
2026-01-02 10:21:58.67	324.79	31.00	-48.5	-51.0	14.2	7.00e-07	0	57	0	1010827264	59	4891
2026-01-02 10:21:59.66	324.90	30.81	-48.3	-50.7	14.4	1.50e-06	0	57	0	1012924416	59	4733
2026-01-02 10:22:00.65	325.01	30.63	-48.2	-50.4	14.7	7.00e-07	0	57	0	1015021568	59	4584
2026-01-02 10:22:01.64	325.12	30.45	-48.4	-50.8	14.4	0.00e+00	0	57	0	1016070144	59	4801
2026-01-02 10:22:02.63	325.22	30.27	-48.2	-50.5	14.7	0.00e+00	0	57	0	1018167296	59	4602
2026-01-02 10:22:03.62	325.33	30.09	-48.3	-50.6	14.6	0.00e+00	0	57	0	1020264448	59	4698
2026-01-02 10:22:04.61	325.43	29.91	-48.4	-50.7	14.4	0.00e+00	0	57	0	1022361600	59	4721
2026-01-02 10:22:05.60	325.54	29.73	-48.2	-50.4	14.8	0.00e+00	0	57	0	1023410176	59	4564
2026-01-02 10:22:06.58	325.64	29.55	-48.6	-51.1	14.1	0.00e+00	0	57	0	1025507328	59	4947
2026-01-02 10:22:07.58	325.74	29.38	-48.7	-51.2	14.0	2.20e-06	0	57	0	1027604480	59	5014
2026-01-02 10:22:08.57	325.84	29.20	-48.6	-51.0	14.2	2.20e-06	0	57	0	1029701632	59	4899
2026-01-02 10:22:09.56	325.94	29.03	-48.6	-51.1	14.1	2.20e-06	0	57	0	1031798784	59	4936
2026-01-02 10:22:10.54	326.04	28.85	-48.8	-51.5	13.6	6.80e-06	0	57	0	1032847360	59	5208
2026-01-02 10:22:11.53	326.14	28.68	-49.0	-51.7	13.4	1.60e-05	0	57	0	1034944512	59	5324
2026-01-02 10:22:12.53	326.24	28.51	-48.9	-51.6	13.6	8.30e-06	0	57	0	1037041664	59	5238
2026-01-02 10:22:13.51	326.33	28.34	-49.0	-51.9	13.3	2.28e-05	0	57	0	1039138816	60	5112
2026-01-02 10:22:14.49	326.42	28.17	-49.0	-51.8	13.3	1.60e-05	0	57	0	1040187392	60	5096
2026-01-02 10:22:15.49	326.52	28.00	-49.2	-52.2	13.0	2.36e-05	0	57	0	1042284544	60	5297
2026-01-02 10:22:16.47	326.61	27.84	-49.2	-52.2	12.9	1.12e-04	0	57	0	1044381696	60	5334
2026-01-02 10:22:17.46	326.70	27.67	-48.6	-51.2	13.9	6.80e-06	0	57	0	1046478848	60	4724
2026-01-02 10:22:18.44	326.79	27.51	-48.3	-50.7	14.5	1.50e-06	0	57	0	1047527424	59	4707
2026-01-02 10:22:19.43	326.88	27.34	-47.8	-49.9	15.2	0.00e+00	0	57	0	1049624576	58	4591
2026-01-02 10:22:20.41	326.97	27.18	-47.4	-49.4	15.8	0.00e+00	0	57	0	1051721728	58	4296
2026-01-02 10:22:21.40	327.06	27.02	-47.4	-49.3	15.8	0.00e+00	0	57	0	1053818880	57	4525
2026-01-02 10:22:22.39	327.15	26.86	-47.2	-48.9	16.2	0.00e+00	0	57	0	1054867456	57	4315
2026-01-02 10:22:23.38	327.23	26.70	-47.4	-49.3	15.8	0.00e+00	0	57	0	1056964608	57	4515
2026-01-02 10:22:24.37	327.32	26.54	-47.7	-49.7	15.5	0.00e+00	0	57	0	1059061760	57	4709
2026-01-02 10:22:25.36	327.40	26.38	-47.3	-49.1	16.0	0.00e+00	0	57	0	1061158912	57	4429
2026-01-02 10:22:26.35	327.49	26.22	-47.2	-49.0	16.1	0.00e+00	0	57	0	1063256064	57	4363
2026-01-02 10:22:27.34	327.57	26.06	-47.3	-49.2	15.9	0.00e+00	0	57	0	1064304640	57	4453
2026-01-02 10:22:28.34	327.66	25.90	-47.5	-49.5	15.6	0.00e+00	0	57	0	1066401792	57	4627
2026-01-02 10:22:29.32	327.74	25.75	-47.8	-49.9	15.2	0.00e+00	0	57	0	1068498944	57	4830
2026-01-02 10:22:30.30	327.82	25.60	-47.9	-50.0	15.1	7.00e-07	0	57	0	1070596096	57	4908
2026-01-02 10:22:31.29	327.90	25.44	-47.9	-50.0	15.1	0.00e+00	0	57	0	1071644672	57	4898
2026-01-02 10:22:32.27	327.98	25.29	-47.9	-50.1	15.0	0.00e+00	0	57	0	1073741824	57	4957
2026-01-02 10:22:33.26	328.05	25.14	-48.0	-50.1	14.9	7.00e-07	0	57	0	1075838976	57	4980
2026-01-02 10:22:34.24	328.13	24.99	-47.8	-49.9	15.3	0.00e+00	0	57	0	1077936128	57	4816
2026-01-02 10:22:35.22	328.21	24.84	-47.6	-49.7	15.5	0.00e+00	0	57	0	1078984704	57	4706
2026-01-02 10:22:36.21	328.29	24.69	-47.6	-49.6	15.5	0.00e+00	0	57	0	1081081856	57	4696
2026-01-02 10:22:37.19	328.36	24.54	-47.4	-49.4	15.7	0.00e+00	0	57	0	1083179008	57	4556
2026-01-02 10:22:38.18	328.44	24.39	-47.7	-49.8	15.3	0.00e+00	0	57	0	1085276160	57	4789
2026-01-02 10:22:39.17	328.51	24.24	-47.8	-49.9	15.2	0.00e+00	0	57	0	1086324736	57	4843
2026-01-02 10:22:40.17	328.59	24.10	-47.5	-49.4	15.6	0.00e+00	0	57	0	1088421888	57	4594
2026-01-02 10:22:41.16	328.66	23.95	-47.2	-49.0	16.0	0.00e+00	0	57	0	1090519040	57	4385
2026-01-02 10:22:42.15	328.73	23.81	-47.0	-48.8	16.3	0.00e+00	0	57	0	1092616192	57	4245
2026-01-02 10:22:43.14	328.81	23.66	-46.3	-47.9	17.1	0.00e+00	0	57	0	1094713344	55	4292
2026-01-02 10:22:44.13	328.88	23.52	-46.2	-47.7	17.2	0.00e+00	0	57	0	1095761920	55	4206
2026-01-02 10:22:45.12	328.95	23.37	-45.7	-47.1	17.8	0.00e+00	0	57	0	1097859072	54	4160
2026-01-02 10:22:46.11	329.02	23.23	-45.6	-46.9	18.0	0.00e+00	0	57	0	1099956224	54	4075
2026-01-02 10:22:47.09	329.09	23.09	-45.4	-46.7	18.2	0.00e+00	0	57	0	1102053376	54	3972
2026-01-02 10:22:48.09	329.16	22.95	-45.5	-46.7	18.1	0.00e+00	0	57	0	1103101952	54	3998
2026-01-02 10:22:49.07	329.23	22.81	-45.0	-46.1	18.6	0.00e+00	0	57	0	1105199104	53	3935
2026-01-02 10:22:50.06	329.29	22.67	-44.9	-46.1	18.7	0.00e+00	0	57	0	1107296256	52	4148
2026-01-02 10:22:51.06	329.36	22.53	-45.1	-46.3	18.5	0.00e+00	0	57	0	1109393408	52	4271
2026-01-02 10:22:52.04	329.43	22.40	-45.4	-46.7	18.2	0.00e+00	0	57	0	1110441984	52	4443
2026-01-02 10:22:53.03	329.49	22.26	-45.2	-46.3	18.5	0.00e+00	0	57	0	1112539136	52	4289
2026-01-02 10:22:54.02	329.56	22.12	-45.1	-46.3	18.5	0.00e+00	0	57	0	1114636288	52	4282
2026-01-02 10:22:55.00	329.62	21.99	-45.6	-46.9	18.0	0.00e+00	0	57	0	1116733440	52	4549
2026-01-02 10:22:56.00	329.69	21.85	-46.1	-47.6	17.3	0.00e+00	0	57	0	1118830592	54	4418
2026-01-02 10:22:56.99	329.75	21.72	-46.0	-47.4	17.5	0.00e+00	0	57	0	1119879168	54	4319
2026-01-02 10:22:57.98	329.82	21.58	-45.8	-47.2	17.7	0.00e+00	0	57	0	1121976320	54	4217
2026-01-02 10:22:58.97	329.88	21.45	-45.9	-47.3	17.6	0.00e+00	0	57	0	1124073472	54	4256
2026-01-02 10:22:59.95	329.94	21.32	-45.9	-47.3	17.6	0.00e+00	0	57	0	1126170624	54	4253
2026-01-02 10:23:00.94	330.01	21.19	-45.9	-47.3	17.6	0.00e+00	0	57	0	1127219200	54	4273
2026-01-02 10:23:01.93	330.07	21.06	-46.1	-47.6	17.3	0.00e+00	0	57	0	1129316352	54	4402
2026-01-02 10:23:02.92	330.13	20.93	-46.0	-47.4	17.4	0.00e+00	0	57	0	1131413504	54	4319
2026-01-02 10:23:03.91	330.19	20.80	-45.7	-47.0	17.9	0.00e+00	0	57	0	1133510656	54	4115
2026-01-02 10:23:04.91	330.25	20.67	-45.5	-46.8	18.0	0.00e+00	0	57	0	1135607808	54	4036
2026-01-02 10:23:05.89	330.31	20.54	-45.5	-46.8	18.0	0.00e+00	0	57	0	1136656384	54	4048
2026-01-02 10:23:06.89	330.37	20.41	-45.6	-46.9	17.9	0.00e+00	0	57	0	1138753536	54	4073
2026-01-02 10:23:07.87	330.43	20.28	-45.7	-47.1	17.8	0.00e+00	0	57	0	1140850688	54	4156
2026-01-02 10:23:08.87	330.49	20.16	-45.7	-47.0	17.9	0.00e+00	0	57	0	1142947840	54	4131
2026-01-02 10:23:09.86	330.55	20.03	-45.8	-47.2	17.7	0.00e+00	0	57	0	1143996416	54	4205
2026-01-02 10:23:10.85	330.60	19.91	-45.6	-47.0	17.9	0.00e+00	0	57	0	1146093568	54	4115
2026-01-02 10:23:11.85	330.66	19.78	-45.8	-47.2	17.7	0.00e+00	0	57	0	1148190720	54	4201
2026-01-02 10:23:12.83	330.72	19.66	-45.7	-47.1	17.7	0.00e+00	0	57	0	1150287872	54	4166
2026-01-02 10:23:13.82	330.77	19.53	-45.8	-47.2	17.7	0.00e+00	0	57	0	1151336448	54	4202
2026-01-02 10:23:14.81	330.83	19.41	-45.7	-47.1	17.7	0.00e+00	0	57	0	1153433600	54	4147
2026-01-02 10:23:15.80	330.88	19.29	-46.2	-47.7	17.2	0.00e+00	0	57	0	1155530752	54	4455
2026-01-02 10:23:16.79	330.94	19.17	-45.9	-47.4	17.3	0.00e+00	0	57	0	1157627904	54	4322
2026-01-02 10:23:17.78	330.99	19.05	-45.8	-47.2	17.6	0.00e+00	0	57	0	1159725056	54	4221
2026-01-02 10:23:18.76	331.05	18.93	-45.7	-47.1	17.7	0.00e+00	0	57	0	1160773632	54	4180
2026-01-02 10:23:19.75	331.10	18.81	-45.9	-47.3	17.5	0.00e+00	0	57	0	1162870784	54	4267
2026-01-02 10:23:20.74	331.16	18.69	-45.8	-47.3	17.6	0.00e+00	0	57	0	1164967936	54	4243
2026-01-02 10:23:21.74	331.21	18.57	-46.0	-47.5	17.4	0.00e+00	0	57	0	1167065088	54	4341
2026-01-02 10:23:22.72	331.26	18.45	-46.0	-47.5	17.3	0.00e+00	0	57	0	1168113664	54	4345
2026-01-02 10:23:23.70	331.31	18.33	-46.2	-47.8	17.1	0.00e+00	0	57	0	1170210816	54	4512
2026-01-02 10:23:24.69	331.37	18.22	-46.3	-47.9	17.0	0.00e+00	0	57	0	1172307968	54	4551
2026-01-02 10:23:25.68	331.42	18.10	-46.4	-47.9	16.9	0.00e+00	0	57	0	1174405120	54	4591
2026-01-02 10:23:26.67	331.47	17.98	-46.5	-48.1	16.7	0.00e+00	0	57	0	1175453696	54	4686
2026-01-02 10:23:27.66	331.52	17.87	-46.6	-48.3	16.5	0.00e+00	0	57	0	1177550848	55	4515
2026-01-02 10:23:28.65	331.57	17.75	-46.5	-48.1	16.7	0.00e+00	0	57	0	1179648000	55	4438
2026-01-02 10:23:29.63	331.62	17.64	-46.6	-48.2	16.7	0.00e+00	0	57	0	1181745152	55	4460
2026-01-02 10:23:30.61	331.67	17.52	-46.6	-48.3	16.5	0.00e+00	0	57	0	1182793728	55	4533
2026-01-02 10:23:31.60	331.72	17.41	-46.8	-48.4	16.4	0.00e+00	0	57	0	1184890880	55	4592
2026-01-02 10:23:32.59	331.77	17.30	-46.8	-48.4	16.4	0.00e+00	0	57	0	1186988032	55	4587
2026-01-02 10:23:33.57	331.82	17.19	-46.6	-48.3	16.5	0.00e+00	0	57	0	1189085184	55	4503
2026-01-02 10:23:34.56	331.87	17.07	-46.6	-48.3	16.5	0.00e+00	0	57	0	1191182336	55	4509
2026-01-02 10:23:35.56	331.91	16.96	-46.5	-48.2	16.6	0.00e+00	0	57	0	1192230912	55	4445
2026-01-02 10:23:36.56	331.96	16.85	-46.4	-48.0	16.8	0.00e+00	0	57	0	1194328064	55	4342
2026-01-02 10:23:37.54	332.01	16.74	-46.4	-47.9	16.9	0.00e+00	0	57	0	1196425216	55	4331
2026-01-02 10:23:38.54	332.06	16.63	-46.2	-47.7	17.0	0.00e+00	0	57	0	1198522368	55	4242
2026-01-02 10:23:39.52	332.10	16.52	-46.2	-47.7	17.1	0.00e+00	0	57	0	1199570944	55	4235
2026-01-02 10:23:40.51	332.15	16.41	-46.3	-47.8	17.0	0.00e+00	0	57	0	1201668096	55	4260
2026-01-02 10:23:41.50	332.20	16.30	-46.0	-47.4	17.4	0.00e+00	0	57	0	1203765248	55	4080
2026-01-02 10:23:42.49	332.24	16.19	-45.9	-47.3	17.5	0.00e+00	0	57	0	1205862400	54	4260
2026-01-02 10:23:43.48	332.29	16.09	-45.9	-47.3	17.4	0.00e+00	0	57	0	1206910976	54	4253
2026-01-02 10:23:44.47	332.33	15.98	-46.0	-47.4	17.4	0.00e+00	0	57	0	1209008128	54	4324
2026-01-02 10:23:45.46	332.38	15.87	-45.9	-47.3	17.4	0.00e+00	0	57	0	1211105280	54	4276
2026-01-02 10:23:46.45	332.42	15.77	-45.8	-47.2	17.5	0.00e+00	0	57	0	1213202432	54	4215
2026-01-02 10:23:47.44	332.47	15.66	-45.9	-47.3	17.4	0.00e+00	0	57	0	1215299584	54	4256
