passes_logs/2026/01/02/R3.0SM8_Murmansk_STILSPACE/R3.0SM8_Murmansk_STILSPACE__20260102_214602_NOAA_21_JPSS-2_rec.log

#Pass ID: 20260102_214602_NOAA 21 (JPSS-2)
#Satellite: NOAA 21 (JPSS-2)
#Configuration: NOAA-21
#almurnet v.1.7.20240730
#Start time: 2026-01-02 21:46:04

#Version: 2.2.20231116
#Station: R3.0SM8_Murmansk_STILSPACE
#Location: 33.092731 lon 68.902999 lat
#TLE: 1 54234U 22150A   26002.25486487  .00000200  00000+0  11573-3 0  9993
#TLE: 2 54234  98.7485 303.3096 0001220 350.9074   9.2080 14.19531212163006

#Time	Az	El	Level	Level2	SNR	BER	BlckErr	Temp	State	Recorded	gain1	gain2
2026-01-02 21:46:04.43	20.26	3.12	-53.3	-64.8	3.8	1.49e+00	0	46	0	0	68	14229
2026-01-02 21:46:05.42	20.35	3.17	-53.0	-64.4	3.8	1.49e+00	0	46	104	0	67	14520
2026-01-02 21:46:06.41	20.44	3.22	-53.1	-64.5	3.8	1.49e+00	0	46	104	0	67	14683
2026-01-02 21:46:07.40	20.54	3.27	-53.0	-64.5	3.8	1.49e+00	0	46	104	0	67	14671
2026-01-02 21:46:08.39	20.63	3.32	-53.0	-64.5	3.8	1.49e+00	0	46	104	0	67	14606
2026-01-02 21:46:09.38	20.72	3.37	-53.0	-64.4	3.8	1.49e+00	0	46	104	0	67	14515
2026-01-02 21:46:10.36	20.81	3.42	-52.9	-64.4	3.8	1.49e+00	0	46	104	0	67	14406
2026-01-02 21:46:11.34	20.90	3.47	-52.6	-64.3	3.8	1.49e+00	0	47	104	0	67	14272
2026-01-02 21:46:12.33	20.99	3.52	-52.7	-64.2	3.8	1.49e+00	0	47	104	0	67	14079
2026-01-02 21:46:13.32	21.09	3.57	-52.5	-64.0	3.8	1.49e+00	0	47	104	0	67	13845
2026-01-02 21:46:14.32	21.18	3.62	-52.1	-63.7	3.8	1.49e+00	0	47	104	0	67	13283
2026-01-02 21:46:15.30	21.28	3.67	-52.1	-63.5	3.8	1.49e+00	0	47	104	0	67	12973
2026-01-02 21:46:16.29	21.37	3.72	-52.2	-63.5	3.8	1.49e+00	0	47	104	0	67	13095
2026-01-02 21:46:17.28	21.46	3.77	-52.1	-63.6	3.8	1.49e+00	0	47	104	0	67	13182
2026-01-02 21:46:18.27	21.56	3.82	-52.2	-63.5	3.8	1.49e+00	0	47	104	0	67	13035
2026-01-02 21:46:19.26	21.65	3.87	-52.1	-63.6	3.8	1.49e+00	0	47	104	0	67	13155
2026-01-02 21:46:20.25	21.75	3.92	-52.1	-63.6	3.8	1.49e+00	0	47	104	0	67	13253
2026-01-02 21:46:21.24	21.84	3.97	-52.1	-63.6	3.8	1.49e+00	0	47	104	0	67	13151
2026-01-02 21:46:22.24	21.94	4.02	-52.2	-63.6	3.8	1.49e+00	0	47	104	0	67	13172
2026-01-02 21:46:23.23	22.04	4.07	-52.2	-63.7	3.8	1.49e+00	0	47	104	0	67	13266
2026-01-02 21:46:24.22	22.13	4.12	-52.2	-63.7	3.8	1.49e+00	0	47	104	0	67	13276
2026-01-02 21:46:25.21	22.23	4.17	-52.1	-63.6	3.8	1.49e+00	0	47	104	0	67	13253
2026-01-02 21:46:26.20	22.33	4.22	-52.1	-63.6	3.8	1.49e+00	0	48	104	0	67	13198
2026-01-02 21:46:27.19	22.42	4.27	-52.2	-63.7	3.8	1.49e+00	0	48	104	0	67	13292
2026-01-02 21:46:28.19	22.52	4.33	-52.2	-63.7	3.8	1.49e+00	0	48	104	0	67	13272
2026-01-02 21:46:29.17	22.62	4.38	-52.1	-63.6	3.8	1.49e+00	0	48	104	0	67	13190
2026-01-02 21:46:30.15	22.72	4.43	-52.0	-63.5	3.8	1.49e+00	0	48	104	0	67	13060
2026-01-02 21:46:31.13	22.81	4.48	-52.0	-63.2	3.8	1.49e+00	0	48	104	0	67	12658
2026-01-02 21:46:32.13	22.91	4.53	-52.1	-62.9	3.8	1.49e+00	0	48	104	0	67	12116
2026-01-02 21:46:33.12	23.01	4.58	-52.0	-62.2	3.8	1.49e+00	0	48	104	0	66	11939
2026-01-02 21:46:34.11	23.11	4.63	-51.8	-60.7	4.0	1.48e+00	0	48	104	0	66	10008
2026-01-02 21:46:35.10	23.21	4.68	-51.6	-59.1	4.5	1.40e+00	8	48	104	0	66	8326
2026-01-02 21:46:36.09	23.31	4.73	-51.3	-57.9	5.1	9.75e-01	0	48	104	0	65	7693
2026-01-02 21:46:37.07	23.41	4.78	-51.0	-56.7	5.9	4.40e-01	0	48	0	2097152	65	6648
2026-01-02 21:46:38.07	23.52	4.83	-50.7	-55.5	6.9	2.04e-01	0	48	0	5242880	64	6136
2026-01-02 21:46:39.06	23.62	4.89	-50.3	-54.5	7.9	8.63e-02	0	49	0	8388608	63	5854
2026-01-02 21:46:40.05	23.72	4.94	-49.9	-53.6	8.9	3.38e-02	0	48	0	11534336	63	5227
2026-01-02 21:46:41.04	23.82	4.99	-49.3	-52.3	10.1	1.30e-02	0	49	0	14680064	61	5082
2026-01-02 21:46:42.03	23.92	5.04	-48.8	-51.5	11.1	2.52e-03	0	49	0	17825792	60	4872
2026-01-02 21:46:43.02	24.03	5.09	-48.7	-51.2	11.4	1.07e-03	0	49	0	20971520	60	4724
2026-01-02 21:46:44.01	24.13	5.14	-48.9	-51.5	11.1	1.39e-03	0	49	0	24117248	60	4875
2026-01-02 21:46:45.00	24.23	5.19	-48.5	-51.0	11.6	7.22e-04	0	49	0	27262976	60	4600
2026-01-02 21:46:45.99	24.34	5.24	-48.4	-50.7	12.0	4.96e-04	0	49	0	30408704	59	4727
2026-01-02 21:46:46.98	24.44	5.29	-48.3	-50.4	12.3	2.08e-04	0	49	0	33554432	59	4567
2026-01-02 21:46:47.97	24.54	5.35	-48.2	-50.3	12.3	1.58e-04	0	49	0	36700160	59	4517
2026-01-02 21:46:48.96	24.65	5.40	-48.0	-50.1	12.6	1.03e-04	0	49	0	39845888	59	4412
2026-01-02 21:46:49.95	24.75	5.45	-47.9	-49.8	12.9	7.70e-05	0	49	0	42991616	58	4517
2026-01-02 21:46:50.94	24.86	5.50	-47.9	-49.9	12.8	5.56e-05	0	49	0	46137344	58	4569
2026-01-02 21:46:51.92	24.96	5.55	-47.8	-49.7	13.0	4.27e-05	0	49	0	48234496	58	4475
2026-01-02 21:46:52.92	25.07	5.60	-47.7	-49.5	13.2	2.51e-05	0	49	0	51380224	58	4381
2026-01-02 21:46:53.91	25.18	5.65	-47.5	-49.3	13.4	1.98e-05	0	49	0	54525952	58	4278
2026-01-02 21:46:54.90	25.29	5.71	-47.5	-49.2	13.4	1.14e-05	0	49	0	57671680	57	4490
2026-01-02 21:46:55.89	25.39	5.76	-47.4	-49.2	13.5	9.90e-06	0	49	0	60817408	57	4474
2026-01-02 21:46:56.88	25.50	5.81	-47.6	-49.4	13.3	1.60e-05	0	49	0	63963136	57	4567
2026-01-02 21:46:57.87	25.61	5.86	-47.5	-49.3	13.4	1.52e-05	0	49	0	67108864	57	4518
2026-01-02 21:46:58.85	25.72	5.91	-47.5	-49.2	13.5	6.80e-06	0	49	0	70254592	57	4457
2026-01-02 21:46:59.84	25.82	5.96	-47.6	-49.4	13.3	1.29e-05	0	50	0	73400320	57	4565
2026-01-02 21:47:00.84	25.93	6.02	-47.5	-49.3	13.4	1.37e-05	0	50	0	76546048	57	4541
2026-01-02 21:47:01.82	26.04	6.07	-47.6	-49.4	13.3	1.98e-05	0	50	0	79691776	57	4560
2026-01-02 21:47:02.81	26.15	6.12	-47.6	-49.5	13.3	2.13e-05	0	50	0	82837504	57	4605
2026-01-02 21:47:03.80	26.26	6.17	-47.7	-49.5	13.3	1.90e-05	0	50	0	85983232	57	4635
2026-01-02 21:47:04.78	26.37	6.22	-47.6	-49.4	13.3	2.05e-05	0	50	0	89128960	57	4595
2026-01-02 21:47:05.78	26.48	6.27	-47.5	-49.4	13.4	1.75e-05	0	50	0	92274688	57	4552
2026-01-02 21:47:06.77	26.60	6.32	-47.7	-49.5	13.2	2.36e-05	0	50	0	95420416	57	4646
2026-01-02 21:47:07.76	26.71	6.38	-47.6	-49.5	13.3	2.05e-05	0	50	0	98566144	57	4609
2026-01-02 21:47:08.75	26.82	6.43	-47.5	-49.2	13.6	1.44e-05	0	50	0	101711872	57	4493
2026-01-02 21:47:09.74	26.93	6.48	-47.5	-49.2	13.5	9.90e-06	0	50	0	104857600	57	4473
2026-01-02 21:47:10.73	27.04	6.53	-47.3	-49.1	13.7	4.50e-06	0	50	0	106954752	57	4401
2026-01-02 21:47:11.71	27.16	6.58	-47.4	-49.1	13.7	9.10e-06	0	50	0	110100480	57	4422
2026-01-02 21:47:12.70	27.27	6.63	-47.4	-49.2	13.7	7.60e-06	0	50	0	113246208	57	4442
2026-01-02 21:47:13.70	27.39	6.69	-47.5	-49.3	13.5	8.30e-06	0	50	0	116391936	57	4507
2026-01-02 21:47:14.69	27.50	6.74	-47.5	-49.3	13.6	1.06e-05	0	50	0	119537664	57	4503
2026-01-02 21:47:15.68	27.61	6.79	-47.4	-49.2	13.6	6.80e-06	0	50	0	122683392	57	4462
2026-01-02 21:47:16.67	27.73	6.84	-47.5	-49.4	13.5	1.52e-05	0	50	0	125829120	57	4557
2026-01-02 21:47:17.66	27.84	6.89	-47.5	-49.3	13.6	6.10e-06	0	50	0	128974848	57	4520
2026-01-02 21:47:18.65	27.96	6.95	-47.5	-49.2	13.7	6.80e-06	0	51	0	132120576	57	4473
2026-01-02 21:47:19.64	28.08	7.00	-47.5	-49.3	13.6	1.22e-05	0	50	0	135266304	57	4496
2026-01-02 21:47:20.62	28.19	7.05	-47.6	-49.3	13.6	7.60e-06	0	51	0	138412032	57	4517
2026-01-02 21:47:21.61	28.31	7.10	-47.8	-49.6	13.3	1.22e-05	0	51	0	141557760	57	4669
2026-01-02 21:47:22.60	28.43	7.15	-47.8	-49.6	13.3	2.21e-05	0	51	0	144703488	57	4667
2026-01-02 21:47:23.58	28.54	7.20	-47.6	-49.3	13.6	6.80e-06	0	51	0	147849216	57	4509
2026-01-02 21:47:24.57	28.66	7.26	-47.4	-49.0	13.9	4.50e-06	0	51	0	150994944	57	4380
2026-01-02 21:47:25.56	28.78	7.31	-47.2	-48.8	14.1	2.20e-06	0	51	0	154140672	57	4283
2026-01-02 21:47:26.55	28.90	7.36	-47.1	-48.7	14.2	3.00e-06	0	51	0	157286400	57	4203
2026-01-02 21:47:27.54	29.02	7.41	-47.1	-48.7	14.2	0.00e+00	0	51	0	160432128	57	4229
2026-01-02 21:47:28.53	29.14	7.46	-47.1	-48.7	14.2	1.50e-06	0	51	0	163577856	57	4223
2026-01-02 21:47:29.52	29.26	7.52	-47.3	-49.0	14.0	1.50e-06	0	51	0	165675008	57	4344
2026-01-02 21:47:30.51	29.38	7.57	-47.2	-48.8	14.1	1.50e-06	0	51	0	168820736	57	4279
2026-01-02 21:47:31.49	29.50	7.62	-47.0	-48.5	14.4	1.50e-06	0	51	0	171966464	57	4134
2026-01-02 21:47:32.48	29.62	7.67	-46.9	-48.4	14.6	0.00e+00	0	51	0	175112192	56	4297
2026-01-02 21:47:33.47	29.74	7.72	-46.8	-48.2	14.7	0.00e+00	0	51	0	178257920	56	4214
2026-01-02 21:47:34.46	29.87	7.77	-46.8	-48.2	14.8	0.00e+00	0	51	0	181403648	56	4214
2026-01-02 21:47:35.44	29.99	7.83	-46.7	-48.1	14.8	0.00e+00	0	51	0	184549376	56	4188
2026-01-02 21:47:36.44	30.11	7.88	-46.7	-48.1	14.9	7.00e-07	0	51	0	187695104	56	4151
2026-01-02 21:47:37.43	30.24	7.93	-46.8	-48.2	14.7	7.00e-07	0	51	0	190840832	56	4231
2026-01-02 21:47:38.41	30.36	7.98	-46.9	-48.4	14.6	7.00e-07	0	51	0	193986560	56	4298
2026-01-02 21:47:39.40	30.48	8.03	-46.6	-48.0	14.9	7.00e-07	0	51	0	197132288	56	4144
2026-01-02 21:47:40.38	30.61	8.09	-46.7	-48.1	14.9	0.00e+00	0	51	0	200278016	56	4154
2026-01-02 21:47:41.36	30.73	8.14	-46.7	-48.1	14.9	0.00e+00	0	52	0	203423744	56	4164
2026-01-02 21:47:42.36	30.86	8.19	-46.7	-48.1	14.8	0.00e+00	0	51	0	206569472	56	4182
2026-01-02 21:47:43.34	30.98	8.24	-46.8	-48.2	14.8	0.00e+00	0	52	0	209715200	56	4226
2026-01-02 21:47:44.34	31.11	8.29	-46.8	-48.3	14.7	0.00e+00	0	52	0	212860928	56	4260
2026-01-02 21:47:45.32	31.24	8.34	-46.8	-48.4	14.6	0.00e+00	0	52	0	216006656	56	4300
2026-01-02 21:47:46.31	31.36	8.40	-46.9	-48.4	14.5	0.00e+00	0	52	0	219152384	56	4323
2026-01-02 21:47:47.30	31.49	8.45	-46.9	-48.3	14.7	7.00e-07	0	52	0	222298112	56	4271
2026-01-02 21:47:48.29	31.62	8.50	-46.9	-48.3	14.7	0.00e+00	0	52	0	224395264	56	4265
2026-01-02 21:47:49.29	31.75	8.55	-46.9	-48.3	14.7	1.50e-06	0	52	0	227540992	56	4281
2026-01-02 21:47:50.28	31.88	8.60	-46.9	-48.4	14.7	0.00e+00	0	52	0	230686720	56	4299
2026-01-02 21:47:51.27	32.01	8.66	-46.8	-48.2	14.8	0.00e+00	0	52	0	233832448	56	4208
2026-01-02 21:47:52.25	32.14	8.71	-46.7	-48.1	14.9	0.00e+00	0	52	0	236978176	56	4157
2026-01-02 21:47:53.24	32.27	8.76	-46.6	-48.0	15.0	0.00e+00	0	52	0	240123904	56	4126
2026-01-02 21:47:54.22	32.40	8.81	-46.6	-48.0	15.1	0.00e+00	0	52	0	243269632	56	4104
2026-01-02 21:47:55.22	32.53	8.86	-46.6	-48.1	15.0	0.00e+00	0	52	0	246415360	56	4155
2026-01-02 21:47:56.21	32.66	8.91	-46.8	-48.2	14.8	7.00e-07	0	52	0	249561088	56	4234
2026-01-02 21:47:57.20	32.80	8.96	-46.8	-48.2	14.8	0.00e+00	0	52	0	252706816	56	4235
2026-01-02 21:47:58.19	32.93	9.02	-46.9	-48.3	14.7	0.00e+00	0	52	0	255852544	56	4269
2026-01-02 21:47:59.18	33.06	9.07	-46.9	-48.3	14.7	0.00e+00	0	52	0	258998272	56	4288
2026-01-02 21:48:00.17	33.20	9.12	-47.1	-48.5	14.5	0.00e+00	0	52	0	262144000	56	4389
2026-01-02 21:48:01.16	33.33	9.17	-46.9	-48.4	14.6	0.00e+00	0	52	0	265289728	56	4318
2026-01-02 21:48:02.15	33.46	9.22	-47.1	-48.6	14.5	7.00e-07	0	52	0	268435456	56	4394
2026-01-02 21:48:03.14	33.60	9.27	-47.2	-48.7	14.4	0.00e+00	0	52	0	271581184	56	4470
2026-01-02 21:48:04.12	33.73	9.32	-46.9	-48.4	14.7	0.00e+00	0	52	0	274726912	56	4316
2026-01-02 21:48:05.11	33.87	9.38	-46.7	-48.2	14.9	0.00e+00	0	52	0	277872640	56	4203
2026-01-02 21:48:06.11	34.01	9.43	-46.7	-48.1	15.0	0.00e+00	0	52	0	281018368	56	4153
2026-01-02 21:48:07.09	34.14	9.48	-46.6	-47.9	15.1	0.00e+00	0	52	0	284164096	56	4082
2026-01-02 21:48:08.08	34.28	9.53	-46.5	-47.8	15.2	0.00e+00	0	52	0	286261248	56	4039
2026-01-02 21:48:09.07	34.42	9.58	-46.6	-48.0	15.1	0.00e+00	0	52	0	289406976	56	4105
2026-01-02 21:48:10.06	34.56	9.63	-46.3	-47.5	15.4	0.00e+00	0	52	0	292552704	55	4145
2026-01-02 21:48:11.05	34.70	9.68	-46.2	-47.4	15.6	0.00e+00	0	52	0	295698432	55	4078
2026-01-02 21:48:12.04	34.84	9.73	-46.1	-47.3	15.7	0.00e+00	0	52	0	298844160	55	4043
2026-01-02 21:48:13.02	34.97	9.79	-46.1	-47.4	15.6	0.00e+00	0	52	0	301989888	55	4058
2026-01-02 21:48:14.01	35.11	9.84	-46.1	-47.3	15.6	0.00e+00	0	52	0	305135616	55	4051
2026-01-02 21:48:14.99	35.25	9.89	-46.2	-47.5	15.6	0.00e+00	0	52	0	308281344	55	4102
2026-01-02 21:48:15.98	35.39	9.94	-46.2	-47.4	15.6	0.00e+00	0	52	0	311427072	55	4063
2026-01-02 21:48:16.98	35.54	9.99	-46.3	-47.5	15.5	0.00e+00	0	53	0	314572800	55	4141
2026-01-02 21:48:17.97	35.68	10.04	-46.5	-47.9	15.1	0.00e+00	0	52	0	317718528	55	4293
2026-01-02 21:48:18.95	35.82	10.09	-46.3	-47.6	15.4	0.00e+00	0	53	0	320864256	55	4193
2026-01-02 21:48:19.94	35.96	10.14	-46.5	-47.9	15.1	0.00e+00	0	53	0	324009984	55	4310
2026-01-02 21:48:20.93	36.11	10.19	-46.4	-47.7	15.3	0.00e+00	0	52	0	327155712	55	4224
2026-01-02 21:48:21.92	36.25	10.24	-46.4	-47.7	15.4	0.00e+00	0	53	0	330301440	55	4206
2026-01-02 21:48:22.91	36.40	10.29	-46.4	-47.8	15.3	0.00e+00	0	53	0	333447168	55	4248
2026-01-02 21:48:23.90	36.54	10.34	-46.6	-48.0	15.1	0.00e+00	0	53	0	336592896	55	4349
2026-01-02 21:48:24.89	36.69	10.39	-46.4	-47.7	15.3	0.00e+00	0	53	0	339738624	55	4212
2026-01-02 21:48:25.88	36.83	10.45	-46.2	-47.5	15.6	0.00e+00	0	53	0	341835776	55	4106
2026-01-02 21:48:26.87	36.98	10.50	-46.2	-47.4	15.7	0.00e+00	0	53	0	344981504	55	4072
2026-01-02 21:48:27.85	37.12	10.55	-46.2	-47.4	15.6	0.00e+00	0	53	0	348127232	55	4059
2026-01-02 21:48:28.84	37.27	10.60	-46.0	-47.2	15.9	0.00e+00	0	53	0	351272960	55	3968
2026-01-02 21:48:29.82	37.42	10.65	-45.9	-47.1	16.0	0.00e+00	0	53	0	354418688	54	4168
2026-01-02 21:48:30.81	37.57	10.70	-46.0	-47.2	15.8	0.00e+00	0	53	0	357564416	54	4205
2026-01-02 21:48:31.79	37.71	10.75	-46.0	-47.1	15.9	0.00e+00	0	53	0	360710144	54	4189
2026-01-02 21:48:32.78	37.86	10.80	-46.0	-47.2	15.8	0.00e+00	0	53	0	363855872	54	4219
2026-01-02 21:48:33.78	38.01	10.85	-46.1	-47.4	15.7	0.00e+00	0	53	0	367001600	54	4292
2026-01-02 21:48:34.77	38.16	10.90	-46.2	-47.5	15.6	0.00e+00	0	53	0	370147328	54	4356
2026-01-02 21:48:35.76	38.32	10.95	-46.2	-47.4	15.6	0.00e+00	0	53	0	373293056	54	4331
2026-01-02 21:48:36.75	38.47	11.00	-46.1	-47.4	15.6	0.00e+00	0	53	0	376438784	54	4332
2026-01-02 21:48:37.75	38.62	11.05	-46.4	-47.7	15.4	0.00e+00	0	53	0	379584512	54	4451
2026-01-02 21:48:38.74	38.77	11.10	-46.3	-47.5	15.5	0.00e+00	0	53	0	382730240	54	4388
2026-01-02 21:48:39.72	38.92	11.14	-46.1	-47.4	15.7	0.00e+00	0	53	0	385875968	54	4296
2026-01-02 21:48:40.71	39.08	11.19	-46.1	-47.4	15.7	0.00e+00	0	53	0	389021696	54	4296
2026-01-02 21:48:41.70	39.23	11.24	-46.2	-47.5	15.6	0.00e+00	0	53	0	392167424	54	4377
2026-01-02 21:48:42.68	39.38	11.29	-46.5	-47.8	15.3	0.00e+00	0	53	0	395313152	54	4534
2026-01-02 21:48:43.67	39.54	11.34	-46.4	-47.7	15.4	0.00e+00	0	53	0	397410304	54	4474
2026-01-02 21:48:44.66	39.69	11.39	-46.1	-47.4	15.7	0.00e+00	0	53	0	400556032	54	4331
2026-01-02 21:48:45.65	39.85	11.44	-45.9	-47.2	15.9	0.00e+00	0	53	0	403701760	54	4203
2026-01-02 21:48:46.63	40.00	11.49	-45.9	-47.1	16.0	0.00e+00	0	53	0	406847488	54	4150
2026-01-02 21:48:47.62	40.16	11.54	-45.9	-47.1	16.0	0.00e+00	0	53	0	409993216	54	4174
2026-01-02 21:48:48.61	40.32	11.59	-46.1	-47.3	15.8	0.00e+00	0	54	0	413138944	54	4280
2026-01-02 21:48:49.59	40.48	11.63	-46.2	-47.4	15.7	0.00e+00	0	53	0	416284672	54	4307
2026-01-02 21:48:50.58	40.63	11.68	-46.0	-47.3	15.8	0.00e+00	0	53	0	419430400	54	4249
2026-01-02 21:48:51.57	40.79	11.73	-46.0	-47.3	15.8	0.00e+00	0	53	0	422576128	54	4256
2026-01-02 21:48:52.56	40.95	11.78	-46.2	-47.5	15.6	0.00e+00	0	53	0	425721856	54	4355
2026-01-02 21:48:53.54	41.11	11.83	-46.2	-47.5	15.6	0.00e+00	0	53	0	428867584	54	4345
2026-01-02 21:48:54.54	41.27	11.88	-46.2	-47.4	15.7	0.00e+00	0	53	0	432013312	54	4306
2026-01-02 21:48:55.52	41.43	11.92	-46.3	-47.5	15.6	0.00e+00	0	53	0	435159040	54	4388
2026-01-02 21:48:56.51	41.59	11.97	-46.3	-47.5	15.6	0.00e+00	0	53	0	438304768	54	4380
2026-01-02 21:48:57.51	41.76	12.02	-46.3	-47.5	15.6	0.00e+00	0	53	0	441450496	54	4349
2026-01-02 21:48:58.50	41.92	12.07	-46.5	-47.8	15.3	0.00e+00	0	54	0	444596224	54	4512
2026-01-02 21:48:59.49	42.08	12.11	-46.6	-47.9	15.3	0.00e+00	0	54	0	447741952	55	4304
2026-01-02 21:49:00.47	42.24	12.16	-46.4	-47.7	15.4	0.00e+00	0	54	0	450887680	55	4227
2026-01-02 21:49:01.46	42.41	12.21	-46.4	-47.7	15.4	0.00e+00	0	54	0	452984832	55	4213
2026-01-02 21:49:02.44	42.57	12.26	-46.6	-47.9	15.2	0.00e+00	0	54	0	456130560	55	4305
2026-01-02 21:49:03.44	42.74	12.30	-46.6	-47.9	15.2	0.00e+00	0	54	0	459276288	55	4337
2026-01-02 21:49:04.42	42.90	12.35	-46.7	-48.0	15.1	0.00e+00	0	54	0	462422016	55	4363
2026-01-02 21:49:05.41	43.07	12.40	-46.6	-48.0	15.1	0.00e+00	0	54	0	465567744	55	4381
2026-01-02 21:49:06.40	43.23	12.44	-46.6	-48.0	15.1	0.00e+00	0	54	0	468713472	55	4369
2026-01-02 21:49:07.39	43.40	12.49	-46.4	-47.8	15.4	0.00e+00	0	54	0	471859200	55	4248
2026-01-02 21:49:08.38	43.57	12.54	-46.3	-47.6	15.5	0.00e+00	0	54	0	475004928	55	4178
2026-01-02 21:49:09.37	43.74	12.58	-46.2	-47.5	15.6	0.00e+00	0	54	0	478150656	55	4125
2026-01-02 21:49:10.36	43.90	12.63	-46.2	-47.5	15.6	0.00e+00	0	54	0	481296384	55	4122
2026-01-02 21:49:11.35	44.07	12.68	-46.3	-47.6	15.6	0.00e+00	0	54	0	484442112	55	4155
2026-01-02 21:49:12.35	44.24	12.72	-46.4	-47.7	15.5	0.00e+00	0	54	0	487587840	55	4208
2026-01-02 21:49:13.33	44.41	12.77	-46.5	-47.8	15.3	0.00e+00	0	54	0	490733568	55	4276
2026-01-02 21:49:14.31	44.58	12.81	-46.4	-47.8	15.4	0.00e+00	0	54	0	493879296	55	4254
2026-01-02 21:49:15.30	44.75	12.86	-46.5	-47.9	15.3	0.00e+00	0	54	0	497025024	55	4293
2026-01-02 21:49:16.29	44.92	12.90	-46.6	-47.9	15.3	0.00e+00	0	54	0	500170752	55	4300
2026-01-02 21:49:17.28	45.10	12.95	-46.5	-47.7	15.4	0.00e+00	0	54	0	503316480	55	4234
2026-01-02 21:49:18.28	45.27	12.99	-46.3	-47.5	15.6	0.00e+00	0	54	0	506462208	55	4132
2026-01-02 21:49:19.27	45.44	13.04	-46.2	-47.4	15.7	0.00e+00	0	54	0	509607936	55	4094
2026-01-02 21:49:20.25	45.62	13.08	-46.3	-47.5	15.7	0.00e+00	0	54	0	512753664	55	4112
2026-01-02 21:49:21.25	45.79	13.13	-46.4	-47.7	15.5	0.00e+00	0	54	0	515899392	55	4221
2026-01-02 21:49:22.23	45.97	13.17	-46.2	-47.4	15.8	0.00e+00	0	54	0	517996544	55	4063
2026-01-02 21:49:23.22	46.14	13.22	-46.0	-47.2	15.9	0.00e+00	0	54	0	521142272	55	3989
2026-01-02 21:49:24.22	46.32	13.26	-46.0	-47.2	16.0	0.00e+00	0	54	0	524288000	55	3978
2026-01-02 21:49:25.20	46.49	13.31	-46.0	-47.2	15.9	0.00e+00	0	54	0	527433728	55	3982
2026-01-02 21:49:26.20	46.67	13.35	-46.1	-47.4	15.8	0.00e+00	0	54	0	530579456	55	4059
2026-01-02 21:49:27.19	46.85	13.39	-46.2	-47.5	15.7	0.00e+00	0	54	0	533725184	55	4113
2026-01-02 21:49:28.18	47.03	13.44	-46.2	-47.5	15.7	0.00e+00	0	54	0	536870912	55	4112
2026-01-02 21:49:29.17	47.20	13.48	-46.3	-47.5	15.7	0.00e+00	0	54	0	540016640	55	4121
2026-01-02 21:49:30.15	47.38	13.52	-46.4	-47.7	15.5	0.00e+00	0	54	0	543162368	55	4204
2026-01-02 21:49:31.15	47.56	13.57	-46.1	-47.3	15.8	0.00e+00	0	54	0	546308096	55	4038
2026-01-02 21:49:32.14	47.74	13.61	-46.0	-47.1	16.0	0.00e+00	0	54	0	549453824	55	3954
2026-01-02 21:49:33.13	47.92	13.65	-45.9	-47.1	16.1	0.00e+00	0	54	0	552599552	54	4155
2026-01-02 21:49:34.12	48.10	13.69	-45.9	-47.0	16.1	0.00e+00	0	54	0	555745280	54	4142
2026-01-02 21:49:35.12	48.29	13.74	-45.9	-47.1	16.1	0.00e+00	0	54	0	558891008	54	4155
2026-01-02 21:49:36.11	48.47	13.78	-46.0	-47.2	16.0	0.00e+00	0	54	0	562036736	54	4214
2026-01-02 21:49:37.10	48.65	13.82	-45.9	-47.0	16.1	0.00e+00	0	54	0	565182464	54	4138
2026-01-02 21:49:38.10	48.84	13.86	-45.9	-47.0	16.2	0.00e+00	0	54	0	568328192	54	4135
2026-01-02 21:49:39.09	49.02	13.91	-46.0	-47.2	16.0	0.00e+00	0	54	0	571473920	54	4206
2026-01-02 21:49:40.08	49.20	13.95	-46.2	-47.5	15.7	0.00e+00	0	54	0	574619648	54	4353
2026-01-02 21:49:41.07	49.39	13.99	-46.1	-47.4	15.8	0.00e+00	0	54	0	577765376	54	4301
2026-01-02 21:49:42.06	49.57	14.03	-46.3	-47.6	15.6	0.00e+00	0	54	0	579862528	54	4408
2026-01-02 21:49:43.05	49.76	14.07	-46.3	-47.5	15.7	0.00e+00	0	54	0	583008256	54	4370
2026-01-02 21:49:44.03	49.94	14.11	-46.3	-47.5	15.6	0.00e+00	0	54	0	586153984	54	4388
2026-01-02 21:49:45.02	50.13	14.15	-46.4	-47.7	15.5	0.00e+00	0	54	0	589299712	54	4461
2026-01-02 21:49:46.02	50.32	14.19	-46.5	-47.8	15.4	0.00e+00	0	54	0	592445440	54	4519
2026-01-02 21:49:47.01	50.50	14.23	-46.2	-47.4	15.7	0.00e+00	0	54	0	595591168	54	4335
2026-01-02 21:49:47.99	50.69	14.27	-46.0	-47.1	16.1	0.00e+00	0	54	0	598736896	54	4186
2026-01-02 21:49:48.99	50.88	14.31	-45.8	-47.0	16.2	0.00e+00	0	54	0	601882624	54	4112
2026-01-02 21:49:49.96	51.07	14.35	-45.9	-47.0	16.2	0.00e+00	0	55	0	605028352	54	4133
2026-01-02 21:49:50.95	51.25	14.39	-45.9	-47.0	16.2	0.00e+00	0	55	0	608174080	54	4124
2026-01-02 21:49:51.94	51.44	14.43	-46.2	-47.3	15.9	0.00e+00	0	55	0	611319808	54	4288
2026-01-02 21:49:52.93	51.63	14.46	-46.0	-47.2	16.0	0.00e+00	0	55	0	614465536	54	4203
2026-01-02 21:49:53.92	51.83	14.50	-46.3	-47.5	15.7	0.00e+00	0	55	0	617611264	54	4352
2026-01-02 21:49:54.91	52.02	14.54	-46.1	-47.3	15.9	0.00e+00	0	55	0	620756992	54	4283
2026-01-02 21:49:55.90	52.21	14.58	-46.3	-47.5	15.7	0.00e+00	0	54	0	623902720	54	4366
2026-01-02 21:49:56.89	52.40	14.62	-46.5	-47.8	15.4	0.00e+00	0	54	0	627048448	54	4516
2026-01-02 21:49:57.88	52.59	14.65	-46.6	-47.9	15.4	0.00e+00	0	55	0	630194176	54	4553
2026-01-02 21:49:58.87	52.79	14.69	-46.4	-47.7	15.5	0.00e+00	0	55	0	633339904	54	4455
2026-01-02 21:49:59.85	52.98	14.73	-46.3	-47.6	15.6	0.00e+00	0	55	0	636485632	54	4409
2026-01-02 21:50:00.84	53.17	14.76	-46.4	-47.6	15.5	0.00e+00	0	54	0	639631360	54	4420
2026-01-02 21:50:01.83	53.37	14.80	-46.6	-47.9	15.3	0.00e+00	0	54	0	641728512	54	4558
2026-01-02 21:50:02.82	53.56	14.84	-46.5	-47.7	15.5	0.00e+00	0	55	0	644874240	55	4238
2026-01-02 21:50:03.81	53.76	14.87	-46.7	-48.1	15.2	0.00e+00	0	55	0	648019968	55	4398
2026-01-02 21:50:04.80	53.95	14.91	-46.6	-47.9	15.3	0.00e+00	0	55	0	651165696	55	4337
2026-01-02 21:50:05.79	54.15	14.94	-46.3	-47.6	15.6	0.00e+00	0	55	0	654311424	55	4162
2026-01-02 21:50:06.79	54.35	14.98	-46.2	-47.4	15.8	0.00e+00	0	54	0	657457152	55	4065
2026-01-02 21:50:07.78	54.54	15.01	-46.1	-47.2	16.0	0.00e+00	0	54	0	660602880	55	4000
2026-01-02 21:50:08.76	54.74	15.05	-46.0	-47.2	16.1	0.00e+00	0	55	0	663748608	55	3965
2026-01-02 21:50:09.75	54.94	15.08	-46.0	-47.2	16.0	0.00e+00	0	55	0	666894336	55	3993
2026-01-02 21:50:10.74	55.14	15.12	-45.9	-47.0	16.2	0.00e+00	0	55	0	670040064	54	4131
2026-01-02 21:50:11.73	55.34	15.15	-45.8	-46.9	16.3	0.00e+00	0	55	0	673185792	54	4060
2026-01-02 21:50:12.72	55.54	15.18	-45.7	-46.8	16.4	0.00e+00	0	55	0	676331520	54	4038
2026-01-02 21:50:13.71	55.74	15.22	-45.7	-46.7	16.5	0.00e+00	0	55	0	679477248	54	3994
2026-01-02 21:50:14.69	55.93	15.25	-45.6	-46.7	16.5	0.00e+00	0	55	0	682622976	54	3983
2026-01-02 21:50:15.68	56.13	15.28	-45.7	-46.8	16.4	0.00e+00	0	55	0	685768704	54	4039
2026-01-02 21:50:16.67	56.34	15.31	-45.7	-46.7	16.5	0.00e+00	0	55	0	688914432	54	4004
2026-01-02 21:50:17.66	56.54	15.35	-45.5	-46.6	16.6	0.00e+00	0	55	0	692060160	54	3935
2026-01-02 21:50:18.65	56.74	15.38	-45.5	-46.6	16.6	0.00e+00	0	55	0	695205888	54	3933
2026-01-02 21:50:19.64	56.94	15.41	-45.5	-46.5	16.6	0.00e+00	0	55	0	698351616	54	3909
2026-01-02 21:50:20.63	57.14	15.44	-45.5	-46.5	16.7	0.00e+00	0	55	0	700448768	54	3898
2026-01-02 21:50:21.62	57.35	15.47	-45.6	-46.7	16.5	0.00e+00	0	55	0	703594496	54	3968
2026-01-02 21:50:22.61	57.55	15.50	-45.6	-46.7	16.5	0.00e+00	0	55	0	706740224	54	3961
2026-01-02 21:50:23.59	57.75	15.53	-45.6	-46.6	16.6	0.00e+00	0	55	0	709885952	54	3945
2026-01-02 21:50:24.58	57.96	15.56	-45.7	-46.7	16.5	0.00e+00	0	55	0	713031680	54	3981
2026-01-02 21:50:25.57	58.16	15.59	-45.8	-46.9	16.3	0.00e+00	0	55	0	716177408	54	4065
2026-01-02 21:50:26.57	58.37	15.62	-45.8	-46.9	16.3	0.00e+00	0	55	0	719323136	54	4065
2026-01-02 21:50:27.56	58.58	15.65	-45.7	-46.7	16.5	0.00e+00	0	55	0	722468864	54	4003
2026-01-02 21:50:28.56	58.78	15.68	-45.7	-46.8	16.5	0.00e+00	0	55	0	725614592	54	4012
2026-01-02 21:50:29.54	58.99	15.71	-45.8	-46.9	16.4	0.00e+00	0	55	0	728760320	54	4065
2026-01-02 21:50:30.52	59.19	15.74	-45.7	-46.8	16.4	0.00e+00	0	55	0	731906048	54	4028
2026-01-02 21:50:31.51	59.40	15.76	-45.4	-46.5	16.8	0.00e+00	0	55	0	735051776	54	3877
2026-01-02 21:50:32.49	59.61	15.79	-45.2	-46.3	16.9	0.00e+00	0	55	0	738197504	53	4013
2026-01-02 21:50:33.48	59.81	15.82	-45.3	-46.3	16.9	0.00e+00	0	55	0	741343232	53	4023
2026-01-02 21:50:34.48	60.02	15.84	-45.3	-46.3	16.9	0.00e+00	0	55	0	744488960	53	4022
2026-01-02 21:50:35.47	60.23	15.87	-45.3	-46.3	16.9	0.00e+00	0	55	0	747634688	53	4032
2026-01-02 21:50:36.46	60.44	15.90	-45.4	-46.4	16.8	0.00e+00	0	55	0	750780416	53	4074
2026-01-02 21:50:37.45	60.65	15.92	-45.3	-46.3	16.9	0.00e+00	0	55	0	753926144	53	4040
2026-01-02 21:50:38.44	60.86	15.95	-45.5	-46.5	16.7	0.00e+00	0	55	0	757071872	53	4123
2026-01-02 21:50:39.43	61.07	15.97	-45.7	-46.8	16.5	0.00e+00	0	55	0	759169024	53	4253
2026-01-02 21:50:40.41	61.28	16.00	-45.7	-46.8	16.4	0.00e+00	0	55	0	762314752	53	4280
2026-01-02 21:50:41.40	61.49	16.02	-45.6	-46.6	16.6	0.00e+00	0	55	0	765460480	53	4177
2026-01-02 21:50:42.39	61.70	16.05	-45.4	-46.5	16.7	0.00e+00	0	55	0	768606208	53	4116
2026-01-02 21:50:43.38	61.91	16.07	-45.3	-46.4	16.8	0.00e+00	0	55	0	771751936	53	4055
2026-01-02 21:50:44.37	62.12	16.10	-45.4	-46.4	16.8	0.00e+00	0	55	0	774897664	53	4092
2026-01-02 21:50:45.36	62.34	16.12	-45.4	-46.5	16.7	0.00e+00	0	55	0	778043392	53	4101
2026-01-02 21:50:46.35	62.55	16.14	-45.6	-46.6	16.6	0.00e+00	0	55	0	781189120	53	4178
2026-01-02 21:50:47.34	62.76	16.16	-45.5	-46.5	16.7	0.00e+00	0	55	0	784334848	53	4145
2026-01-02 21:50:48.32	62.97	16.19	-45.6	-46.7	16.5	0.00e+00	0	55	0	787480576	53	4226
2026-01-02 21:50:49.32	63.19	16.21	-45.7	-46.8	16.4	0.00e+00	0	55	0	790626304	53	4253
2026-01-02 21:50:50.30	63.40	16.23	-45.4	-46.5	16.7	0.00e+00	0	55	0	793772032	53	4102
2026-01-02 21:50:51.30	63.62	16.25	-45.3	-46.3	17.0	0.00e+00	0	55	0	796917760	53	4008
2026-01-02 21:50:52.29	63.83	16.27	-45.2	-46.2	17.0	0.00e+00	0	55	0	800063488	53	3987
2026-01-02 21:50:53.28	64.04	16.29	-45.3	-46.4	16.8	0.00e+00	0	55	0	803209216	53	4072
2026-01-02 21:50:54.27	64.26	16.31	-45.5	-46.5	16.7	0.00e+00	0	55	0	806354944	53	4124
2026-01-02 21:50:55.26	64.47	16.33	-45.5	-46.6	16.6	0.00e+00	0	55	0	809500672	53	4148
2026-01-02 21:50:56.25	64.69	16.35	-45.6	-46.8	16.5	0.00e+00	0	55	0	812646400	53	4245
2026-01-02 21:50:57.23	64.90	16.37	-45.8	-46.9	16.4	0.00e+00	0	55	0	815792128	53	4302
2026-01-02 21:50:58.23	65.12	16.39	-45.7	-46.7	16.5	0.00e+00	0	55	0	817889280	53	4231
2026-01-02 21:50:59.22	65.34	16.41	-45.7	-46.8	16.5	0.00e+00	0	55	0	821035008	53	4247
2026-01-02 21:51:00.20	65.55	16.42	-45.8	-46.9	16.4	0.00e+00	0	55	0	824180736	53	4304
2026-01-02 21:51:01.19	65.77	16.44	-45.8	-47.0	16.3	0.00e+00	0	55	0	827326464	53	4348
2026-01-02 21:51:02.18	65.99	16.46	-45.6	-46.7	16.5	0.00e+00	0	55	0	830472192	53	4220
2026-01-02 21:51:03.17	66.20	16.47	-45.5	-46.6	16.7	0.00e+00	0	55	0	833617920	53	4152
2026-01-02 21:51:04.16	66.42	16.49	-45.5	-46.5	16.7	0.00e+00	0	55	0	836763648	53	4142
2026-01-02 21:51:05.15	66.64	16.51	-45.6	-46.7	16.5	0.00e+00	0	55	0	839909376	53	4223
2026-01-02 21:51:06.13	66.85	16.52	-45.8	-46.8	16.4	0.00e+00	0	55	0	843055104	53	4286
2026-01-02 21:51:07.13	67.07	16.54	-45.6	-46.7	16.6	0.00e+00	0	55	0	846200832	53	4215
2026-01-02 21:51:08.13	67.29	16.55	-45.7	-46.8	16.4	0.00e+00	0	55	0	849346560	53	4261
2026-01-02 21:51:09.11	67.51	16.57	-45.8	-46.9	16.3	0.00e+00	0	55	0	852492288	53	4332
2026-01-02 21:51:10.09	67.73	16.58	-45.6	-46.7	16.5	0.00e+00	0	55	0	855638016	53	4210
2026-01-02 21:51:11.08	67.95	16.59	-45.5	-46.5	16.7	0.00e+00	0	55	0	858783744	53	4124
2026-01-02 21:51:12.08	68.17	16.61	-45.5	-46.6	16.6	0.00e+00	0	55	0	861929472	53	4162
2026-01-02 21:51:13.06	68.38	16.62	-45.6	-46.7	16.5	0.00e+00	0	55	0	865075200	53	4221
2026-01-02 21:51:14.06	68.61	16.63	-45.6	-46.7	16.5	0.00e+00	0	55	0	868220928	53	4196
2026-01-02 21:51:15.05	68.83	16.64	-45.8	-46.9	16.3	0.00e+00	0	55	0	871366656	53	4325
2026-01-02 21:51:16.03	69.04	16.66	-46.0	-47.2	16.0	0.00e+00	0	55	0	874512384	53	4476
2026-01-02 21:51:17.02	69.26	16.67	-45.7	-46.8	16.4	0.00e+00	0	55	0	876609536	53	4269
2026-01-02 21:51:18.01	69.48	16.68	-45.5	-46.5	16.7	0.00e+00	0	55	0	879755264	53	4144
2026-01-02 21:51:18.99	69.70	16.69	-45.3	-46.3	16.9	0.00e+00	0	55	0	882900992	53	4039
2026-01-02 21:51:19.98	69.92	16.70	-45.3	-46.3	16.9	0.00e+00	0	55	0	886046720	53	4040
2026-01-02 21:51:20.97	70.14	16.71	-45.4	-46.4	16.9	0.00e+00	0	56	0	889192448	53	4072
2026-01-02 21:51:21.96	70.36	16.72	-45.4	-46.4	16.9	0.00e+00	0	55	0	892338176	53	4057
2026-01-02 21:51:22.96	70.59	16.73	-45.6	-46.6	16.6	0.00e+00	0	55	0	895483904	53	4169
2026-01-02 21:51:23.95	70.81	16.73	-45.4	-46.4	16.8	0.00e+00	0	56	0	898629632	53	4094
2026-01-02 21:51:24.94	71.03	16.74	-45.3	-46.3	16.9	0.00e+00	0	55	0	901775360	53	4043
2026-01-02 21:51:25.92	71.25	16.75	-45.4	-46.4	16.9	0.00e+00	0	55	0	904921088	53	4061
2026-01-02 21:51:26.91	71.47	16.76	-45.4	-46.4	16.8	0.00e+00	0	55	0	908066816	53	4066
2026-01-02 21:51:27.89	71.69	16.76	-45.4	-46.4	16.8	0.00e+00	0	56	0	911212544	53	4056
2026-01-02 21:51:28.88	71.91	16.77	-45.3	-46.3	16.9	0.00e+00	0	56	0	914358272	53	4035
2026-01-02 21:51:29.87	72.13	16.78	-45.3	-46.3	16.9	0.00e+00	0	56	0	917504000	53	4021
2026-01-02 21:51:30.86	72.35	16.78	-45.4	-46.5	16.8	0.00e+00	0	55	0	920649728	53	4110
2026-01-02 21:51:31.85	72.58	16.79	-45.3	-46.3	16.9	0.00e+00	0	56	0	923795456	53	4007
2026-01-02 21:51:32.84	72.80	16.79	-45.2	-46.2	17.0	0.00e+00	0	56	0	926941184	53	3969
2026-01-02 21:51:33.83	73.02	16.80	-45.2	-46.2	17.0	0.00e+00	0	55	0	930086912	53	3965
2026-01-02 21:51:34.82	73.24	16.80	-45.2	-46.2	17.0	0.00e+00	0	55	0	933232640	53	3984
2026-01-02 21:51:35.81	73.46	16.80	-45.2	-46.3	16.9	0.00e+00	0	55	0	936378368	53	4007
2026-01-02 21:51:36.80	73.69	16.81	-45.3	-46.4	16.9	0.00e+00	0	56	0	938475520	53	4058
2026-01-02 21:51:37.79	73.91	16.81	-45.5	-46.5	16.7	0.00e+00	0	56	0	941621248	53	4126
2026-01-02 21:51:38.78	74.13	16.81	-45.4	-46.5	16.8	0.00e+00	0	56	0	944766976	53	4110
2026-01-02 21:51:39.77	74.35	16.81	-45.4	-46.4	16.8	0.00e+00	0	56	0	947912704	53	4083
2026-01-02 21:51:40.76	74.57	16.82	-45.4	-46.4	16.8	0.00e+00	0	56	0	951058432	53	4097
2026-01-02 21:51:41.76	74.80	16.82	-45.5	-46.6	16.7	0.00e+00	0	55	0	954204160	53	4157
2026-01-02 21:51:42.75	75.02	16.82	-45.5	-46.5	16.7	0.00e+00	0	56	0	957349888	53	4140
2026-01-02 21:51:43.74	75.24	16.82	-45.5	-46.6	16.7	0.00e+00	0	56	0	960495616	53	4154
2026-01-02 21:51:44.73	75.47	16.82	-45.7	-46.7	16.5	0.00e+00	0	56	0	963641344	53	4242
2026-01-02 21:51:45.72	75.69	16.82	-45.7	-46.8	16.5	0.00e+00	0	56	0	966787072	53	4255
2026-01-02 21:51:46.71	75.91	16.82	-45.7	-46.8	16.4	0.00e+00	0	56	0	969932800	53	4282
2026-01-02 21:51:47.69	76.13	16.82	-45.8	-46.9	16.3	0.00e+00	0	56	0	973078528	53	4334
2026-01-02 21:51:48.68	76.35	16.81	-45.8	-46.9	16.3	0.00e+00	0	56	0	976224256	53	4312
2026-01-02 21:51:49.67	76.58	16.81	-45.8	-46.9	16.4	0.00e+00	0	56	0	979369984	53	4320
2026-01-02 21:51:50.66	76.80	16.81	-46.0	-47.2	16.1	0.00e+00	0	56	0	982515712	53	4443
2026-01-02 21:51:51.65	77.02	16.81	-46.0	-47.2	16.1	0.00e+00	0	56	0	985661440	54	4207
2026-01-02 21:51:52.64	77.24	16.80	-45.9	-47.1	16.2	0.00e+00	0	56	0	988807168	54	4153
2026-01-02 21:51:53.63	77.46	16.80	-46.0	-47.1	16.2	0.00e+00	0	56	0	991952896	54	4165
2026-01-02 21:51:54.63	77.69	16.79	-46.2	-47.4	15.9	0.00e+00	0	56	0	995098624	54	4301
2026-01-02 21:51:55.62	77.91	16.79	-46.1	-47.3	16.0	0.00e+00	0	56	0	998244352	54	4274
2026-01-02 21:51:56.61	78.13	16.79	-45.9	-47.0	16.3	0.00e+00	0	56	0	1000341504	54	4119
2026-01-02 21:51:57.60	78.35	16.78	-45.7	-46.8	16.5	0.00e+00	0	56	0	1003487232	54	4012
2026-01-02 21:51:58.59	78.58	16.77	-45.5	-46.6	16.7	0.00e+00	0	56	0	1006632960	54	3917
2026-01-02 21:51:59.58	78.80	16.77	-45.5	-46.5	16.7	0.00e+00	0	56	0	1009778688	54	3911
2026-01-02 21:52:00.58	79.02	16.76	-45.5	-46.6	16.7	0.00e+00	0	56	0	1012924416	54	3924
2026-01-02 21:52:01.57	79.24	16.75	-45.7	-46.8	16.5	0.00e+00	0	56	0	1016070144	54	4013
2026-01-02 21:52:02.56	79.46	16.75	-45.8	-46.8	16.5	0.00e+00	0	56	0	1019215872	54	4046
2026-01-02 21:52:03.55	79.69	16.74	-45.5	-46.6	16.7	0.00e+00	0	56	0	1022361600	54	3915
2026-01-02 21:52:04.53	79.90	16.73	-45.4	-46.4	16.9	0.00e+00	0	56	0	1025507328	53	4070
2026-01-02 21:52:05.52	80.13	16.72	-45.3	-46.3	16.9	0.00e+00	0	56	0	1028653056	53	4024
2026-01-02 21:52:06.52	80.35	16.71	-45.2	-46.1	17.1	0.00e+00	0	56	0	1031798784	53	3953
2026-01-02 21:52:07.51	80.57	16.70	-45.2	-46.2	17.0	0.00e+00	0	56	0	1034944512	53	3996
2026-01-02 21:52:08.50	80.79	16.69	-45.5	-46.5	16.7	0.00e+00	0	56	0	1038090240	53	4130
2026-01-02 21:52:09.49	81.01	16.68	-45.6	-46.7	16.6	0.00e+00	0	56	0	1041235968	53	4207
2026-01-02 21:52:10.48	81.23	16.67	-45.6	-46.7	16.6	0.00e+00	0	56	0	1044381696	53	4201
2026-01-02 21:52:11.46	81.45	16.66	-45.6	-46.7	16.5	0.00e+00	0	56	0	1047527424	53	4231
2026-01-02 21:52:12.44	81.67	16.65	-45.7	-46.8	16.4	0.00e+00	0	56	0	1050673152	53	4284
2026-01-02 21:52:13.43	81.89	16.64	-45.7	-46.8	16.5	0.00e+00	0	56	0	1053818880	53	4246
2026-01-02 21:52:14.41	82.11	16.63	-45.7	-46.8	16.5	0.00e+00	0	56	0	1056964608	53	4248
2026-01-02 21:52:15.40	82.32	16.61	-45.8	-47.0	16.3	0.00e+00	0	56	0	1060110336	53	4345
2026-01-02 21:52:16.39	82.54	16.60	-45.8	-46.8	16.4	0.00e+00	0	56	0	1062207488	53	4291
2026-01-02 21:52:17.38	82.76	16.59	-45.5	-46.5	16.7	0.00e+00	0	56	0	1065353216	53	4141
2026-01-02 21:52:18.36	82.98	16.57	-45.4	-46.4	16.8	0.00e+00	0	56	0	1068498944	53	4059
2026-01-02 21:52:19.35	83.20	16.56	-45.2	-46.2	17.0	0.00e+00	0	56	0	1071644672	53	3992
2026-01-02 21:52:20.34	83.42	16.54	-45.2	-46.2	17.0	0.00e+00	0	56	0	1074790400	53	3993
2026-01-02 21:52:21.33	83.64	16.53	-45.2	-46.2	17.0	0.00e+00	0	56	0	1077936128	53	3971
2026-01-02 21:52:22.32	83.85	16.51	-45.4	-46.4	16.8	0.00e+00	0	56	0	1081081856	53	4056
2026-01-02 21:52:23.31	84.07	16.50	-45.6	-46.6	16.7	0.00e+00	0	56	0	1084227584	53	4172
2026-01-02 21:52:24.29	84.29	16.48	-45.5	-46.6	16.7	0.00e+00	0	56	0	1087373312	53	4164
2026-01-02 21:52:25.28	84.51	16.47	-45.7	-46.8	16.4	0.00e+00	0	56	0	1090519040	53	4253
2026-01-02 21:52:26.27	84.72	16.45	-45.6	-46.6	16.6	0.00e+00	0	56	0	1093664768	53	4180
2026-01-02 21:52:27.27	84.94	16.43	-45.7	-46.8	16.4	0.00e+00	0	56	0	1096810496	53	4283
2026-01-02 21:52:28.25	85.16	16.41	-46.0	-47.1	16.2	0.00e+00	0	56	0	1099956224	53	4410
2026-01-02 21:52:29.24	85.37	16.40	-46.1	-47.3	16.0	0.00e+00	0	56	0	1103101952	54	4253
2026-01-02 21:52:30.22	85.59	16.38	-46.1	-47.2	16.1	0.00e+00	0	56	0	1106247680	54	4229
2026-01-02 21:52:31.21	85.80	16.36	-46.0	-47.1	16.2	0.00e+00	0	56	0	1109393408	54	4186
2026-01-02 21:52:32.20	86.02	16.34	-46.0	-47.2	16.1	0.00e+00	0	56	0	1112539136	54	4222
2026-01-02 21:52:33.19	86.24	16.32	-46.1	-47.3	16.0	0.00e+00	0	56	0	1115684864	54	4258
2026-01-02 21:52:34.19	86.45	16.30	-46.2	-47.4	15.9	0.00e+00	0	56	0	1118830592	54	4295
2026-01-02 21:52:35.18	86.67	16.28	-46.1	-47.3	16.0	0.00e+00	0	56	0	1120927744	54	4257
2026-01-02 21:52:36.17	86.88	16.26	-46.1	-47.3	16.0	0.00e+00	0	56	0	1124073472	54	4272
2026-01-02 21:52:37.16	87.10	16.24	-46.3	-47.6	15.7	0.00e+00	0	56	0	1127219200	54	4414
2026-01-02 21:52:38.16	87.31	16.22	-46.2	-47.5	15.8	0.00e+00	0	56	0	1130364928	54	4347
2026-01-02 21:52:39.15	87.53	16.20	-46.2	-47.5	15.8	0.00e+00	0	56	0	1133510656	54	4358
2026-01-02 21:52:40.14	87.74	16.17	-46.4	-47.7	15.6	0.00e+00	0	56	0	1136656384	54	4463
2026-01-02 21:52:41.14	87.96	16.15	-46.2	-47.5	15.8	0.00e+00	0	56	0	1139802112	54	4351
2026-01-02 21:52:42.13	88.17	16.13	-46.5	-47.8	15.5	0.00e+00	0	56	0	1142947840	54	4524
2026-01-02 21:52:43.12	88.38	16.11	-46.3	-47.4	15.8	0.00e+00	0	56	0	1146093568	54	4338
2026-01-02 21:52:44.11	88.60	16.08	-46.1	-47.2	16.0	0.00e+00	0	56	0	1149239296	54	4232
2026-01-02 21:52:45.09	88.81	16.06	-46.0	-47.1	16.1	0.00e+00	0	56	0	1152385024	54	4174
2026-01-02 21:52:46.09	89.02	16.03	-46.0	-47.2	16.1	0.00e+00	0	56	0	1155530752	54	4216
2026-01-02 21:52:47.08	89.23	16.01	-45.9	-46.9	16.3	0.00e+00	0	56	0	1158676480	54	4097
2026-01-02 21:52:48.07	89.44	15.99	-46.1	-47.2	16.1	0.00e+00	0	56	0	1161822208	54	4209
2026-01-02 21:52:49.06	89.65	15.96	-46.4	-47.7	15.6	0.00e+00	0	56	0	1164967936	54	4453
2026-01-02 21:52:50.06	89.86	15.93	-46.2	-47.3	16.0	0.00e+00	0	56	0	1168113664	54	4287
2026-01-02 21:52:51.05	90.07	15.91	-45.8	-46.9	16.4	0.00e+00	0	56	0	1171259392	54	4078
2026-01-02 21:52:52.04	90.28	15.88	-45.6	-46.6	16.6	0.00e+00	0	56	0	1174405120	54	3946
2026-01-02 21:52:53.04	90.50	15.86	-45.3	-46.3	16.9	0.00e+00	0	56	0	1177550848	53	4019
2026-01-02 21:52:54.02	90.70	15.83	-45.1	-46.1	17.1	0.00e+00	0	56	0	1180696576	53	3938
2026-01-02 21:52:55.01	90.91	15.80	-45.1	-46.0	17.2	0.00e+00	0	56	0	1183842304	53	3902
2026-01-02 21:52:56.00	91.12	15.77	-45.1	-46.1	17.1	0.00e+00	0	56	0	1186988032	53	3936
2026-01-02 21:52:56.99	91.33	15.75	-45.4	-46.4	16.9	0.00e+00	0	56	0	1189085184	53	4058
2026-01-02 21:52:57.98	91.53	15.72	-45.2	-46.2	17.0	0.00e+00	0	56	0	1192230912	53	3996
2026-01-02 21:52:58.98	91.74	15.69	-45.3	-46.3	17.0	0.00e+00	0	56	0	1195376640	53	4008
2026-01-02 21:52:59.97	91.95	15.66	-45.4	-46.4	16.8	0.00e+00	0	56	0	1198522368	53	4075
2026-01-02 21:53:00.96	92.16	15.63	-45.3	-46.3	16.9	0.00e+00	0	56	0	1201668096	53	4050
2026-01-02 21:53:01.95	92.36	15.60	-45.3	-46.3	16.9	0.00e+00	0	56	0	1204813824	53	4024
2026-01-02 21:53:02.94	92.57	15.57	-45.5	-46.5	16.7	0.00e+00	0	56	0	1207959552	53	4119
2026-01-02 21:53:03.93	92.77	15.54	-45.4	-46.5	16.8	0.00e+00	0	56	0	1211105280	53	4101
2026-01-02 21:53:04.92	92.98	15.51	-45.5	-46.5	16.7	0.00e+00	0	56	0	1214251008	53	4112
2026-01-02 21:53:05.91	93.18	15.48	-45.6	-46.6	16.6	0.00e+00	0	56	0	1217396736	53	4172
2026-01-02 21:53:06.90	93.39	15.45	-45.4	-46.4	16.8	0.00e+00	0	56	0	1220542464	53	4079
2026-01-02 21:53:07.89	93.59	15.42	-45.3	-46.3	16.9	0.00e+00	0	56	0	1223688192	53	4040
2026-01-02 21:53:08.88	93.79	15.39	-45.3	-46.3	16.9	0.00e+00	0	56	0	1226833920	53	4042
2026-01-02 21:53:09.87	94.00	15.36	-45.2	-46.2	17.0	0.00e+00	0	56	0	1229979648	53	3991
2026-01-02 21:53:10.86	94.20	15.33	-45.3	-46.3	16.9	0.00e+00	0	56	0	1233125376	53	4050
2026-01-02 21:53:11.85	94.40	15.29	-45.7	-46.7	16.5	0.00e+00	0	56	0	1236271104	53	4231
2026-01-02 21:53:12.83	94.60	15.26	-45.5	-46.5	16.7	0.00e+00	0	56	0	1239416832	53	4133
2026-01-02 21:53:13.82	94.80	15.23	-45.3	-46.3	16.9	0.00e+00	0	56	0	1242562560	53	4040
2026-01-02 21:53:14.81	95.00	15.19	-45.2	-46.2	17.0	0.00e+00	0	56	0	1245708288	53	4001
2026-01-02 21:53:15.79	95.20	15.16	-45.2	-46.2	17.0	0.00e+00	0	56	0	1248854016	53	3990
2026-01-02 21:53:16.79	95.40	15.13	-45.2	-46.2	17.0	0.00e+00	0	56	0	1251999744	53	3999
2026-01-02 21:53:17.77	95.60	15.09	-45.4	-46.3	16.8	0.00e+00	0	56	0	1254096896	53	4050
2026-01-02 21:53:18.76	95.80	15.06	-45.4	-46.4	16.8	0.00e+00	0	56	0	1257242624	53	4077
2026-01-02 21:53:19.75	96.00	15.02	-45.3	-46.3	16.9	0.00e+00	0	56	0	1260388352	53	4030
2026-01-02 21:53:20.74	96.19	14.99	-45.3	-46.3	16.9	0.00e+00	0	56	0	1263534080	53	4051
2026-01-02 21:53:21.72	96.39	14.95	-45.3	-46.3	16.8	0.00e+00	0	56	0	1266679808	53	4036
2026-01-02 21:53:22.71	96.59	14.92	-45.3	-46.3	16.9	0.00e+00	0	56	0	1269825536	53	4031
2026-01-02 21:53:23.71	96.79	14.88	-45.3	-46.3	16.9	0.00e+00	0	56	0	1272971264	53	4026
2026-01-02 21:53:24.69	96.98	14.85	-45.6	-46.6	16.6	0.00e+00	0	56	0	1276116992	53	4187
2026-01-02 21:53:25.68	97.18	14.81	-45.5	-46.6	16.6	0.00e+00	0	56	0	1279262720	53	4177
2026-01-02 21:53:26.67	97.37	14.78	-45.4	-46.4	16.8	0.00e+00	0	56	0	1282408448	53	4088
2026-01-02 21:53:27.66	97.57	14.74	-45.3	-46.3	16.9	0.00e+00	0	56	0	1285554176	53	4050
2026-01-02 21:53:28.65	97.76	14.70	-45.4	-46.5	16.7	0.00e+00	0	56	0	1288699904	53	4105
2026-01-02 21:53:29.64	97.95	14.66	-45.6	-46.7	16.6	0.00e+00	0	56	0	1291845632	53	4194
2026-01-02 21:53:30.62	98.14	14.63	-45.8	-46.9	16.3	0.00e+00	0	56	0	1294991360	53	4331
2026-01-02 21:53:31.61	98.34	14.59	-45.8	-46.9	16.3	0.00e+00	0	56	0	1298137088	53	4309
2026-01-02 21:53:32.60	98.53	14.55	-45.7	-46.8	16.5	0.00e+00	0	56	0	1301282816	53	4243
2026-01-02 21:53:33.59	98.72	14.51	-45.8	-46.9	16.4	0.00e+00	0	56	0	1304428544	53	4295
2026-01-02 21:53:34.57	98.91	14.48	-45.8	-46.9	16.4	0.00e+00	0	56	0	1306525696	53	4300
2026-01-02 21:53:35.56	99.10	14.44	-45.7	-46.8	16.4	0.00e+00	0	56	0	1309671424	53	4262
2026-01-02 21:53:36.55	99.29	14.40	-45.7	-46.7	16.4	0.00e+00	0	56	0	1312817152	53	4226
2026-01-02 21:53:37.54	99.48	14.36	-45.5	-46.5	16.7	0.00e+00	0	56	0	1315962880	53	4127
2026-01-02 21:53:38.53	99.67	14.32	-45.4	-46.4	16.8	0.00e+00	0	56	0	1319108608	53	4073
2026-01-02 21:53:39.51	99.86	14.28	-45.6	-46.7	16.6	0.00e+00	0	56	0	1322254336	53	4194
2026-01-02 21:53:40.50	100.05	14.24	-45.6	-46.6	16.6	0.00e+00	0	56	0	1325400064	53	4174
2026-01-02 21:53:41.49	100.24	14.20	-45.6	-46.7	16.5	0.00e+00	0	56	0	1328545792	53	4197
2026-01-02 21:53:42.48	100.42	14.16	-45.8	-46.9	16.3	0.00e+00	0	56	0	1331691520	53	4337
2026-01-02 21:53:43.47	100.61	14.12	-45.9	-47.1	16.2	0.00e+00	0	56	0	1334837248	53	4398
2026-01-02 21:53:44.47	100.80	14.08	-46.0	-47.1	16.0	0.00e+00	0	56	0	1337982976	53	4431
2026-01-02 21:53:45.46	100.99	14.04	-46.1	-47.3	16.0	0.00e+00	0	56	0	1341128704	54	4265
2026-01-02 21:53:46.45	101.17	14.00	-45.9	-47.0	16.2	0.00e+00	0	56	0	1344274432	54	4121
2026-01-02 21:53:47.44	101.36	13.96	-45.9	-47.0	16.2	0.00e+00	0	56	0	1347420160	54	4123
2026-01-02 21:53:48.43	101.54	13.91	-46.0	-47.1	16.1	0.00e+00	0	56	0	1350565888	54	4189
2026-01-02 21:53:49.42	101.73	13.87	-46.1	-47.3	16.0	0.00e+00	0	56	0	1353711616	54	4243
2026-01-02 21:53:50.42	101.91	13.83	-46.0	-47.2	16.1	0.00e+00	0	56	0	1356857344	54	4197
2026-01-02 21:53:51.41	102.09	13.79	-45.8	-46.9	16.3	0.00e+00	0	56	0	1360003072	54	4086
2026-01-02 21:53:52.40	102.28	13.75	-45.7	-46.8	16.5	0.00e+00	0	56	0	1363148800	54	4015
2026-01-02 21:53:53.39	102.46	13.70	-45.6	-46.7	16.5	0.00e+00	0	56	0	1366294528	54	3970
2026-01-02 21:53:54.38	102.64	13.66	-45.5	-46.6	16.6	0.00e+00	0	56	0	1368391680	54	3921
2026-01-02 21:53:55.37	102.82	13.62	-45.7	-46.8	16.4	0.00e+00	0	56	0	1371537408	54	4010
2026-01-02 21:53:56.36	103.00	13.58	-45.9	-47.0	16.2	0.00e+00	0	56	0	1374683136	54	4127
2026-01-02 21:53:57.35	103.18	13.53	-45.9	-47.0	16.2	0.00e+00	0	56	0	1377828864	54	4107
2026-01-02 21:53:58.34	103.36	13.49	-45.9	-47.0	16.1	0.00e+00	0	56	0	1380974592	54	4135
2026-01-02 21:53:59.33	103.54	13.45	-46.1	-47.3	16.0	0.00e+00	0	56	0	1384120320	54	4245
2026-01-02 21:54:00.32	103.72	13.40	-46.1	-47.3	15.9	0.00e+00	0	56	0	1387266048	54	4275
2026-01-02 21:54:01.31	103.90	13.36	-46.0	-47.1	16.0	0.00e+00	0	56	0	1390411776	54	4170
2026-01-02 21:54:02.30	104.08	13.31	-45.9	-47.1	16.2	0.00e+00	0	56	0	1393557504	54	4152
2026-01-02 21:54:03.29	104.25	13.27	-45.8	-46.9	16.2	0.00e+00	0	56	0	1396703232	54	4097
2026-01-02 21:54:04.28	104.43	13.23	-46.0	-47.1	16.1	0.00e+00	0	56	0	1399848960	54	4175
2026-01-02 21:54:05.27	104.61	13.18	-46.0	-47.1	16.0	0.00e+00	0	56	0	1402994688	54	4184
2026-01-02 21:54:06.26	104.78	13.14	-45.9	-47.1	16.1	0.00e+00	0	56	0	1406140416	54	4166
2026-01-02 21:54:07.25	104.96	13.09	-46.1	-47.2	16.0	0.00e+00	0	56	0	1409286144	54	4214
2026-01-02 21:54:08.25	105.13	13.05	-46.2	-47.3	15.9	0.00e+00	0	56	0	1412431872	54	4288
2026-01-02 21:54:09.23	105.30	13.00	-45.9	-47.0	16.3	0.00e+00	0	56	0	1415577600	54	4134
2026-01-02 21:54:10.23	105.48	12.95	-45.7	-46.8	16.3	0.00e+00	0	56	0	1418723328	54	4039
2026-01-02 21:54:11.22	105.65	12.91	-45.8	-46.9	16.2	0.00e+00	0	56	0	1421869056	54	4077
2026-01-02 21:54:12.20	105.82	12.86	-45.8	-46.9	16.2	0.00e+00	0	56	0	1425014784	54	4091
2026-01-02 21:54:13.19	106.00	12.82	-46.0	-47.2	16.0	0.00e+00	0	56	0	1428160512	54	4217
2026-01-02 21:54:14.18	106.17	12.77	-45.9	-47.0	16.2	0.00e+00	0	56	0	1430257664	54	4136
2026-01-02 21:54:15.17	106.34	12.73	-45.9	-47.1	16.1	0.00e+00	0	56	0	1433403392	54	4151
2026-01-02 21:54:16.15	106.51	12.68	-45.9	-47.1	16.1	0.00e+00	0	56	0	1436549120	54	4164
2026-01-02 21:54:17.13	106.68	12.63	-46.0	-47.1	16.1	0.00e+00	0	56	0	1439694848	54	4177
2026-01-02 21:54:18.13	106.85	12.59	-46.0	-47.2	15.9	0.00e+00	0	56	0	1442840576	54	4237
2026-01-02 21:54:19.12	107.01	12.54	-46.0	-47.2	16.0	0.00e+00	0	56	0	1445986304	54	4234
2026-01-02 21:54:20.11	107.18	12.49	-46.1	-47.3	15.9	0.00e+00	0	56	0	1449132032	54	4248
2026-01-02 21:54:21.09	107.35	12.45	-46.2	-47.4	15.8	0.00e+00	0	56	0	1452277760	54	4337
2026-01-02 21:54:22.08	107.52	12.40	-46.5	-47.8	15.4	0.00e+00	0	56	0	1455423488	54	4526
2026-01-02 21:54:23.07	107.68	12.35	-46.2	-47.5	15.7	0.00e+00	0	56	0	1458569216	54	4347
2026-01-02 21:54:24.07	107.85	12.31	-46.1	-47.3	15.8	0.00e+00	0	56	0	1461714944	54	4264
2026-01-02 21:54:25.06	108.02	12.26	-46.0	-47.2	15.9	0.00e+00	0	56	0	1464860672	54	4225
2026-01-02 21:54:26.04	108.18	12.21	-46.0	-47.2	16.0	0.00e+00	0	56	0	1468006400	54	4195
2026-01-02 21:54:27.03	108.35	12.16	-46.0	-47.2	16.0	0.00e+00	0	56	0	1471152128	54	4199
2026-01-02 21:54:28.02	108.51	12.12	-45.9	-47.1	16.1	7.00e-07	0	56	0	1474297856	54	4170
2026-01-02 21:54:29.01	108.67	12.07	-46.1	-47.3	15.9	0.00e+00	0	56	0	1477443584	54	4259
2026-01-02 21:54:30.00	108.84	12.02	-46.0	-47.2	16.0	0.00e+00	0	56	0	1480589312	54	4218
2026-01-02 21:54:30.98	109.00	11.97	-46.2	-47.4	15.8	0.00e+00	0	56	0	1483735040	54	4320
2026-01-02 21:54:31.98	109.16	11.92	-46.1	-47.3	16.0	0.00e+00	0	56	0	1485832192	54	4257
2026-01-02 21:54:32.97	109.32	11.88	-46.1	-47.3	15.9	0.00e+00	0	56	0	1488977920	54	4250
2026-01-02 21:54:33.95	109.48	11.83	-46.1	-47.3	15.8	0.00e+00	0	56	0	1492123648	54	4271
2026-01-02 21:54:34.94	109.64	11.78	-46.2	-47.5	15.8	0.00e+00	0	56	0	1495269376	54	4342
2026-01-02 21:54:35.93	109.80	11.73	-46.1	-47.3	15.8	0.00e+00	0	56	0	1498415104	54	4282
2026-01-02 21:54:36.92	109.96	11.68	-46.2	-47.4	15.7	0.00e+00	0	56	0	1501560832	54	4339
2026-01-02 21:54:37.91	110.12	11.63	-46.4	-47.7	15.5	0.00e+00	0	56	0	1504706560	54	4458
2026-01-02 21:54:38.90	110.28	11.58	-46.2	-47.5	15.7	0.00e+00	0	56	0	1507852288	54	4354
2026-01-02 21:54:39.89	110.44	11.53	-46.4	-47.6	15.6	0.00e+00	0	56	0	1510998016	54	4419
2026-01-02 21:54:40.88	110.60	11.49	-46.4	-47.7	15.5	0.00e+00	0	56	0	1514143744	54	4450
2026-01-02 21:54:41.87	110.75	11.44	-46.4	-47.6	15.5	0.00e+00	0	56	0	1517289472	54	4440
2026-01-02 21:54:42.86	110.91	11.39	-46.4	-47.6	15.6	0.00e+00	0	56	0	1520435200	54	4422
2026-01-02 21:54:43.85	111.07	11.34	-46.4	-47.6	15.6	0.00e+00	0	56	0	1523580928	54	4409
2026-01-02 21:54:44.84	111.22	11.29	-46.4	-47.7	15.4	0.00e+00	0	56	0	1526726656	54	4478
2026-01-02 21:54:45.82	111.38	11.24	-46.4	-47.6	15.6	0.00e+00	0	56	0	1529872384	54	4414
2026-01-02 21:54:46.81	111.53	11.19	-46.3	-47.5	15.6	0.00e+00	0	56	0	1533018112	54	4381
2026-01-02 21:54:47.79	111.68	11.14	-46.3	-47.5	15.6	0.00e+00	0	56	0	1536163840	54	4361
2026-01-02 21:54:48.78	111.84	11.09	-46.5	-47.8	15.4	0.00e+00	0	56	0	1539309568	54	4517
2026-01-02 21:54:49.77	111.99	11.04	-46.4	-47.7	15.5	0.00e+00	0	56	0	1542455296	54	4452
2026-01-02 21:54:50.77	112.14	10.99	-46.3	-47.5	15.6	0.00e+00	0	56	0	1544552448	54	4380
2026-01-02 21:54:51.76	112.29	10.94	-46.4	-47.6	15.5	0.00e+00	0	56	0	1547698176	54	4428
2026-01-02 21:54:52.74	112.44	10.89	-46.3	-47.5	15.6	0.00e+00	0	56	0	1550843904	54	4381
2026-01-02 21:54:53.73	112.60	10.84	-46.2	-47.5	15.7	0.00e+00	0	56	0	1553989632	54	4364
2026-01-02 21:54:54.72	112.75	10.79	-46.3	-47.5	15.7	0.00e+00	0	56	0	1557135360	54	4371
2026-01-02 21:54:55.71	112.90	10.74	-46.3	-47.5	15.6	0.00e+00	0	56	0	1560281088	54	4388
2026-01-02 21:54:56.70	113.05	10.69	-46.5	-47.8	15.3	0.00e+00	0	56	0	1563426816	54	4528
2026-01-02 21:54:57.68	113.19	10.64	-46.5	-47.8	15.4	7.00e-07	0	57	0	1566572544	54	4499
2026-01-02 21:54:58.66	113.34	10.59	-46.6	-47.9	15.3	0.00e+00	0	56	0	1569718272	54	4560
2026-01-02 21:54:59.65	113.49	10.54	-46.5	-47.8	15.3	0.00e+00	0	57	0	1572864000	55	4248
2026-01-02 21:55:00.64	113.64	10.49	-46.3	-47.6	15.5	0.00e+00	0	57	0	1576009728	55	4160
2026-01-02 21:55:01.63	113.78	10.44	-46.2	-47.4	15.7	0.00e+00	0	57	0	1579155456	55	4097
2026-01-02 21:55:02.62	113.93	10.39	-46.2	-47.5	15.6	0.00e+00	0	57	0	1582301184	55	4109
2026-01-02 21:55:03.61	114.08	10.33	-46.3	-47.6	15.5	0.00e+00	0	57	0	1585446912	55	4162
2026-01-02 21:55:04.60	114.22	10.28	-46.5	-47.8	15.4	0.00e+00	0	56	0	1588592640	55	4248
2026-01-02 21:55:05.59	114.37	10.23	-46.5	-47.8	15.3	0.00e+00	0	57	0	1591738368	55	4246
2026-01-02 21:55:06.58	114.51	10.18	-46.3	-47.6	15.5	0.00e+00	0	57	0	1594884096	55	4167
2026-01-02 21:55:07.57	114.66	10.13	-46.3	-47.5	15.6	0.00e+00	0	56	0	1598029824	55	4132
2026-01-02 21:55:08.56	114.80	10.08	-46.3	-47.5	15.6	0.00e+00	0	57	0	1601175552	55	4132
2026-01-02 21:55:09.55	114.94	10.03	-46.4	-47.7	15.4	0.00e+00	0	57	0	1604321280	55	4204
2026-01-02 21:55:10.54	115.09	9.98	-46.5	-47.9	15.3	0.00e+00	0	57	0	1607467008	55	4297
2026-01-02 21:55:11.53	115.23	9.93	-46.5	-47.9	15.3	0.00e+00	0	56	0	1609564160	55	4303
2026-01-02 21:55:12.52	115.37	9.87	-46.4	-47.7	15.4	0.00e+00	0	56	0	1612709888	55	4216
2026-01-02 21:55:13.51	115.51	9.82	-46.3	-47.6	15.5	0.00e+00	0	57	0	1615855616	55	4154
2026-01-02 21:55:14.51	115.65	9.77	-46.3	-47.6	15.5	0.00e+00	0	57	0	1619001344	55	4164
2026-01-02 21:55:15.50	115.79	9.72	-46.3	-47.6	15.5	0.00e+00	0	57	0	1622147072	55	4167
2026-01-02 21:55:16.49	115.93	9.67	-46.4	-47.7	15.4	0.00e+00	0	56	0	1625292800	55	4240
2026-01-02 21:55:17.49	116.07	9.62	-46.5	-47.7	15.3	0.00e+00	0	57	0	1628438528	55	4240
2026-01-02 21:55:18.47	116.21	9.56	-46.5	-47.8	15.3	0.00e+00	0	56	0	1631584256	55	4263
2026-01-02 21:55:19.46	116.35	9.51	-46.6	-47.9	15.1	0.00e+00	0	56	0	1634729984	55	4339
2026-01-02 21:55:20.45	116.49	9.46	-46.7	-48.0	15.0	7.00e-07	0	56	0	1637875712	55	4377
2026-01-02 21:55:21.44	116.62	9.41	-46.7	-48.0	15.1	0.00e+00	0	57	0	1641021440	55	4367
2026-01-02 21:55:22.43	116.76	9.36	-46.9	-48.3	14.8	0.00e+00	0	57	0	1644167168	55	4521
2026-01-02 21:55:23.41	116.90	9.31	-46.9	-48.4	14.6	7.00e-07	0	57	0	1647312896	55	4574
2026-01-02 21:55:24.40	117.03	9.25	-47.0	-48.4	14.6	7.00e-07	0	56	0	1650458624	55	4579
2026-01-02 21:55:25.39	117.17	9.20	-47.0	-48.5	14.5	0.00e+00	0	57	0	1653604352	55	4639
2026-01-02 21:55:26.38	117.30	9.15	-47.2	-48.8	14.4	7.00e-07	0	57	0	1656750080	56	4520
2026-01-02 21:55:27.37	117.44	9.10	-47.3	-48.9	14.3	7.00e-07	0	57	0	1659895808	56	4562
2026-01-02 21:55:28.35	117.57	9.05	-47.2	-48.7	14.4	7.00e-07	0	57	0	1663041536	56	4484
2026-01-02 21:55:29.35	117.71	9.00	-47.1	-48.5	14.6	0.00e+00	0	57	0	1666187264	56	4387
2026-01-02 21:55:30.33	117.84	8.94	-47.0	-48.5	14.7	7.00e-07	0	57	0	1669332992	56	4363
2026-01-02 21:55:31.33	117.97	8.89	-47.1	-48.6	14.6	0.00e+00	0	56	0	1671430144	56	4398
2026-01-02 21:55:32.32	118.11	8.84	-47.1	-48.6	14.6	7.00e-07	0	56	0	1674575872	56	4406
2026-01-02 21:55:33.30	118.24	8.79	-47.2	-48.7	14.5	1.50e-06	0	57	0	1677721600	56	4466
2026-01-02 21:55:34.29	118.37	8.74	-47.1	-48.5	14.6	0.00e+00	0	57	0	1680867328	56	4384
2026-01-02 21:55:35.27	118.50	8.68	-47.1	-48.6	14.5	2.20e-06	0	57	0	1684013056	56	4430
2026-01-02 21:55:36.27	118.63	8.63	-47.3	-48.8	14.3	3.00e-06	0	57	0	1687158784	56	4541
2026-01-02 21:55:37.25	118.76	8.58	-47.2	-48.8	14.4	7.00e-07	0	56	0	1690304512	56	4503
2026-01-02 21:55:38.25	118.89	8.53	-47.4	-49.0	14.2	1.50e-06	0	57	0	1693450240	56	4617
2026-01-02 21:55:39.23	119.02	8.48	-47.5	-49.1	14.1	2.20e-06	0	57	0	1696595968	56	4670
2026-01-02 21:55:40.22	119.15	8.42	-47.3	-48.9	14.3	7.00e-07	0	57	0	1699741696	56	4547
2026-01-02 21:55:41.21	119.27	8.37	-47.4	-49.0	14.1	3.00e-06	0	56	0	1702887424	56	4632
2026-01-02 21:55:42.20	119.40	8.32	-47.4	-49.0	14.1	1.50e-06	0	57	0	1706033152	56	4626
2026-01-02 21:55:43.19	119.53	8.27	-47.5	-49.1	14.1	7.00e-07	0	57	0	1709178880	56	4672
2026-01-02 21:55:44.18	119.66	8.21	-47.6	-49.2	13.9	3.00e-06	0	57	0	1712324608	56	4727
2026-01-02 21:55:45.17	119.78	8.16	-47.4	-48.9	14.2	3.00e-06	0	57	0	1715470336	56	4596
2026-01-02 21:55:46.16	119.91	8.11	-47.3	-48.8	14.3	1.50e-06	0	57	0	1718616064	56	4522
2026-01-02 21:55:47.15	120.04	8.06	-47.3	-48.9	14.2	7.00e-07	0	57	0	1721761792	56	4561
2026-01-02 21:55:48.15	120.16	8.00	-47.4	-48.9	14.1	2.20e-06	0	57	0	1724907520	56	4589
2026-01-02 21:55:49.14	120.29	7.95	-47.3	-48.9	14.1	1.50e-06	0	57	0	1728053248	56	4592
2026-01-02 21:55:50.13	120.41	7.90	-47.5	-49.1	13.9	3.80e-06	0	57	0	1730150400	56	4699
2026-01-02 21:55:51.12	120.54	7.85	-47.4	-49.0	14.1	1.50e-06	0	57	0	1733296128	56	4599
2026-01-02 21:55:52.10	120.66	7.80	-47.5	-49.1	13.9	3.80e-06	0	57	0	1736441856	56	4698
2026-01-02 21:55:53.09	120.78	7.74	-47.7	-49.3	13.8	3.80e-06	0	57	0	1739587584	57	4541
2026-01-02 21:55:54.08	120.90	7.69	-47.4	-49.0	14.0	1.50e-06	0	57	0	1742733312	57	4375
2026-01-02 21:55:55.07	121.03	7.64	-47.6	-49.2	13.8	3.80e-06	0	57	0	1745879040	57	4493
2026-01-02 21:55:56.06	121.15	7.59	-47.9	-49.7	13.4	1.67e-05	0	57	0	1749024768	57	4710
2026-01-02 21:55:57.05	121.27	7.53	-47.7	-49.4	13.6	8.30e-06	0	57	0	1752170496	57	4593
2026-01-02 21:55:58.04	121.39	7.48	-47.6	-49.2	13.8	5.30e-06	0	57	0	1755316224	57	4492
2026-01-02 21:55:59.03	121.51	7.43	-47.5	-49.2	13.8	3.80e-06	0	57	0	1758461952	57	4467
2026-01-02 21:56:00.02	121.63	7.38	-47.7	-49.4	13.6	5.30e-06	0	57	0	1761607680	57	4594
2026-01-02 21:56:01.01	121.75	7.33	-47.8	-49.6	13.5	1.60e-05	0	57	0	1764753408	57	4658
2026-01-02 21:56:02.00	121.87	7.27	-48.0	-49.9	13.1	2.13e-05	0	57	0	1767899136	57	4831
2026-01-02 21:56:02.99	121.99	7.22	-47.8	-49.7	13.3	1.14e-05	0	57	0	1771044864	57	4708
2026-01-02 21:56:03.98	122.11	7.17	-48.0	-49.9	13.1	1.75e-05	0	57	0	1774190592	57	4855
2026-01-02 21:56:04.97	122.23	7.12	-48.2	-50.2	12.8	4.11e-05	0	57	0	1777336320	58	4743
2026-01-02 21:56:05.95	122.34	7.06	-48.0	-49.9	13.1	4.88e-05	0	57	0	1780482048	58	4569
2026-01-02 21:56:06.94	122.46	7.01	-47.8	-49.6	13.4	1.83e-05	0	57	0	1783627776	58	4410
2026-01-02 21:56:07.94	122.58	6.96	-47.6	-49.4	13.7	8.30e-06	0	57	0	1786773504	58	4292
2026-01-02 21:56:08.93	122.70	6.91	-47.5	-49.2	13.8	6.80e-06	0	57	0	1788870656	58	4219
2026-01-02 21:56:09.92	122.81	6.85	-47.4	-49.0	13.9	7.00e-07	0	57	0	1792016384	57	4372
2026-01-02 21:56:10.91	122.93	6.80	-47.4	-49.0	13.9	3.00e-06	0	57	0	1795162112	57	4380
2026-01-02 21:56:11.90	123.04	6.75	-47.4	-49.0	14.0	6.80e-06	0	57	0	1798307840	57	4360
2026-01-02 21:56:12.90	123.16	6.70	-47.5	-49.2	13.7	6.80e-06	0	57	0	1801453568	57	4474
2026-01-02 21:56:13.89	123.27	6.65	-47.5	-49.1	13.8	6.10e-06	0	57	0	1804599296	57	4433
2026-01-02 21:56:14.88	123.39	6.59	-47.3	-48.9	14.0	6.10e-06	0	57	0	1807745024	57	4336
2026-01-02 21:56:15.86	123.50	6.54	-47.4	-49.0	13.9	3.80e-06	0	57	0	1810890752	57	4384
2026-01-02 21:56:16.86	123.61	6.49	-47.4	-49.0	13.9	2.20e-06	0	57	0	1814036480	57	4387
2026-01-02 21:56:17.84	123.73	6.44	-47.6	-49.3	13.7	4.50e-06	0	57	0	1817182208	57	4504
2026-01-02 21:56:18.83	123.84	6.39	-47.5	-49.2	13.7	4.50e-06	0	57	0	1820327936	57	4485
2026-01-02 21:56:19.83	123.95	6.33	-47.5	-49.2	13.7	9.90e-06	0	57	0	1823473664	57	4490
2026-01-02 21:56:20.81	124.06	6.28	-47.6	-49.3	13.6	1.06e-05	0	57	0	1826619392	57	4539
2026-01-02 21:56:21.81	124.18	6.23	-47.7	-49.4	13.5	9.90e-06	0	57	0	1829765120	57	4586
2026-01-02 21:56:22.80	124.29	6.18	-47.6	-49.4	13.6	1.06e-05	0	57	0	1832910848	57	4546
2026-01-02 21:56:23.80	124.40	6.12	-47.6	-49.4	13.5	7.60e-06	0	57	0	1836056576	57	4578
2026-01-02 21:56:24.79	124.51	6.07	-47.8	-49.6	13.3	1.90e-05	0	57	0	1839202304	57	4696
2026-01-02 21:56:25.78	124.62	6.02	-47.8	-49.6	13.3	2.13e-05	0	57	0	1842348032	57	4692
2026-01-02 21:56:26.77	124.73	5.97	-47.7	-49.5	13.4	1.52e-05	0	57	0	1845493760	57	4622
2026-01-02 21:56:27.75	124.84	5.92	-47.5	-49.3	13.6	1.83e-05	0	57	0	1848639488	57	4532
2026-01-02 21:56:28.74	124.95	5.86	-47.7	-49.4	13.5	1.60e-05	0	57	0	1851785216	57	4586
2026-01-02 21:56:29.72	125.05	5.81	-47.7	-49.6	13.3	1.75e-05	0	57	0	1853882368	57	4656
2026-01-02 21:56:30.71	125.16	5.76	-47.8	-49.6	13.3	1.98e-05	0	57	0	1857028096	57	4692
2026-01-02 21:56:31.69	125.27	5.71	-47.9	-49.7	13.2	2.44e-05	0	57	0	1860173824	57	4725
2026-01-02 21:56:32.69	125.38	5.66	-47.9	-49.8	13.1	2.36e-05	0	57	0	1863319552	57	4772
2026-01-02 21:56:33.67	125.48	5.61	-48.2	-50.2	12.7	7.17e-05	0	57	0	1866465280	58	4715
2026-01-02 21:56:34.67	125.59	5.55	-48.1	-50.1	12.7	7.70e-05	0	57	0	1869611008	58	4700
2026-01-02 21:56:35.66	125.70	5.50	-48.0	-49.9	13.0	5.03e-05	0	57	0	1872756736	58	4567
2026-01-02 21:56:36.64	125.80	5.45	-47.9	-49.8	13.1	3.05e-05	0	57	0	1875902464	58	4503
2026-01-02 21:56:37.64	125.91	5.40	-47.8	-49.7	13.2	2.82e-05	0	57	0	1879048192	58	4447
2026-01-02 21:56:38.63	126.01	5.35	-47.8	-49.7	13.1	3.12e-05	0	57	0	1882193920	58	4466
2026-01-02 21:56:39.61	126.12	5.29	-47.8	-49.8	13.1	2.97e-05	0	57	0	1885339648	58	4502
2026-01-02 21:56:40.61	126.22	5.24	-47.9	-49.9	12.9	4.34e-05	0	57	0	1888485376	58	4548
2026-01-02 21:56:41.59	126.33	5.19	-48.0	-50.0	12.8	5.95e-05	0	57	0	1891631104	58	4603
2026-01-02 21:56:42.59	126.43	5.14	-47.9	-49.9	12.9	4.95e-05	0	57	0	1894776832	58	4546
2026-01-02 21:56:43.58	126.53	5.09	-47.9	-49.9	12.8	5.56e-05	0	57	0	1897922560	58	4589
2026-01-02 21:56:44.57	126.64	5.04	-48.0	-49.9	12.8	6.10e-05	0	57	0	1901068288	58	4597
2026-01-02 21:56:45.56	126.74	4.98	-52.4	-63.8	3.8	9.24e-01	0	57	104	1902116864	66	14281
2026-01-02 21:56:46.54	126.84	4.93	-52.6	-64.1	3.8	1.49e+00	0	57	104	1902116864	67	13992
2026-01-02 21:56:47.53	126.94	4.88	-52.7	-64.3	3.8	1.49e+00	0	57	104	1902116864	67	14249
2026-01-02 21:56:48.52	127.05	4.83	-52.9	-64.4	3.8	1.49e+00	0	57	104	1902116864	67	14444
2026-01-02 21:56:49.52	127.15	4.78	-53.0	-64.5	3.8	1.49e+00	0	57	104	1902116864	67	14557
2026-01-02 21:56:50.51	127.25	4.73	-53.1	-64.5	3.8	1.49e+00	0	57	104	1902116864	67	14630
2026-01-02 21:56:51.50	127.35	4.67	-53.2	-64.7	3.8	1.49e+00	0	57	104	1902116864	68	14052
2026-01-02 21:56:52.49	127.45	4.62	-53.3	-64.7	3.8	1.49e+00	0	57	104	1902116864	68	14192
2026-01-02 21:56:53.48	127.55	4.57	-53.2	-64.8	3.8	1.49e+00	0	57	104	1902116864	68	14224
2026-01-02 21:56:54.47	127.65	4.52	-53.2	-64.7	3.8	1.49e+00	0	57	104	1902116864	68	14196
2026-01-02 21:56:55.46	127.75	4.47	-53.1	-64.6	3.8	1.49e+00	0	57	104	1902116864	67	14728
2026-01-02 21:56:56.46	127.85	4.42	-53.2	-64.8	3.8	1.49e+00	0	57	104	1902116864	68	14274
2026-01-02 21:56:57.44	127.95	4.37	-53.2	-64.8	3.8	1.49e+00	0	57	104	1902116864	68	14304
2026-01-02 21:56:58.42	128.05	4.32	-53.3	-64.8	3.8	1.49e+00	0	57	104	1902116864	68	14281
2026-01-02 21:56:59.42	128.14	4.26	-53.3	-64.8	3.8	1.49e+00	0	57	104	1902116864	68	14364
2026-01-02 21:57:00.41	128.24	4.21	-53.3	-64.9	3.8	1.49e+00	0	57	104	1902116864	68	14382
2026-01-02 21:57:01.40	128.34	4.16	-53.3	-64.9	3.8	1.49e+00	0	57	104	1902116864	68	14425
2026-01-02 21:57:02.38	128.44	4.11	-53.2	-64.9	3.8	1.49e+00	0	57	104	1902116864	68	14447
2026-01-02 21:57:03.37	128.53	4.06	-53.2	-64.9	3.8	1.49e+00	0	57	104	1902116864	68	14433
2026-01-02 21:57:04.36	128.63	4.01	-53.3	-64.9	3.8	1.49e+00	0	57	104	1902116864	68	14441
2026-01-02 21:57:05.35	128.72	3.96	-53.2	-64.9	3.8	1.49e+00	0	57	104	1902116864	68	14508
2026-01-02 21:57:06.34	128.82	3.91	-53.3	-64.9	3.8	1.49e+00	0	57	104	1902116864	68	14507
2026-01-02 21:57:07.33	128.92	3.86	-53.4	-64.9	3.8	1.49e+00	0	57	104	1902116864	68	14490
2026-01-02 21:57:08.32	129.01	3.80	-53.4	-64.9	3.8	1.49e+00	0	57	104	1902116864	68	14504
2026-01-02 21:57:09.31	129.11	3.75	-53.4	-64.9	3.8	1.49e+00	0	57	104	1902116864	68	14535
2026-01-02 21:57:10.30	129.20	3.70	-53.5	-65.0	3.8	1.49e+00	0	57	104	1902116864	68	14578
2026-01-02 21:57:11.29	129.29	3.65	-53.5	-65.0	3.8	1.49e+00	0	57	104	1902116864	68	14570
2026-01-02 21:57:12.28	129.39	3.60	-53.4	-64.9	3.8	1.49e+00	0	57	104	1902116864	68	14536
2026-01-02 21:57:13.27	129.48	3.55	-53.4	-64.9	3.8	1.49e+00	0	57	104	1902116864	68	14521
2026-01-02 21:57:14.26	129.58	3.50	-53.4	-64.9	3.8	1.49e+00	0	57	104	1902116864	68	14512
2026-01-02 21:57:15.25	129.67	3.45	-53.4	-65.0	3.8	1.49e+00	0	57	104	1902116864	68	14561
2026-01-02 21:57:16.24	129.76	3.40	-53.3	-64.9	3.8	1.49e+00	0	57	104	1902116864	68	14485
2026-01-02 21:57:17.23	129.85	3.35	-53.4	-64.9	3.8	1.49e+00	0	57	104	1902116864	68	14489
2026-01-02 21:57:18.22	129.95	3.30	-53.3	-64.9	3.8	1.49e+00	0	57	104	1902116864	68	14503
2026-01-02 21:57:19.21	130.04	3.25	-53.4	-64.9	3.8	1.49e+00	0	57	104	1902116864	68	14485
2026-01-02 21:57:20.21	130.13	3.19	-53.4	-64.9	3.8	1.49e+00	0	57	104	1902116864	68	14460
2026-01-02 21:57:21.20	130.22	3.14	-53.4	-64.9	3.8	1.49e+00	0	57	104	1902116864	68	14506
2026-01-02 21:57:22.18	130.31	3.09	-53.3	-64.9	3.8	1.49e+00	0	57	104	1902116864	68	14451
2026-01-02 21:57:23.17	130.40	3.04	-53.4	-64.9	3.8	1.49e+00	0	57	104	1902116864	68	14512
2026-01-02 21:57:24.17	130.49	2.99	-53.4	-64.9	3.8	1.49e+00	0	57	104	1902116864	68	14509

#Closed at: 2026-01-02 21:57:24
#Recorded file [1902 MB]: D:/Data/31026_260103_005645.dat