passes_logs/2026/01/02/R3.0SM8_Murmansk_STILSPACE/R3.0SM8_Murmansk_STILSPACE__20260102_221536_SUOMI_NPP_rec.log

#Pass ID: 20260102_221536_SUOMI NPP
#Satellite: SUOMI NPP
#Configuration: NPP
#almurnet v.1.7.20240730
#Start time: 2026-01-02 22:15:38

#Version: 2.2.20231116
#Station: R3.0SM8_Murmansk_STILSPACE
#Location: 33.092731 lon 68.902999 lat
#TLE: 1 37849U 11061A   26001.07732418  .00000182  00000+0  10735-3 0  9990
#TLE: 2 37849  98.7795 303.2470 0002580  87.2016 272.9455 14.19520779734739

#Time	Az	El	Level	Level2	SNR	BER	BlckErr	Temp	State	Recorded	gain1	gain2
2026-01-02 22:15:38.46	20.25	3.09	-51.7	-65.7	3.8	1.49e+00	0	46	0	0	66	17860
2026-01-02 22:15:39.45	20.33	3.15	-52.7	-66.7	3.8	1.49e+00	0	46	104	0	68	17840
2026-01-02 22:15:40.44	20.41	3.20	-52.8	-66.7	3.8	1.49e+00	0	46	104	0	68	17774
2026-01-02 22:15:41.43	20.49	3.25	-52.7	-66.6	3.8	1.49e+00	0	46	104	0	68	17561
2026-01-02 22:15:42.42	20.57	3.31	-52.6	-66.5	3.8	1.49e+00	0	46	104	0	68	17415
2026-01-02 22:15:43.41	20.65	3.36	-52.4	-66.3	3.8	1.49e+00	0	46	104	0	67	17991
2026-01-02 22:15:44.40	20.73	3.42	-52.2	-66.1	3.8	1.49e+00	0	46	104	0	67	17651
2026-01-02 22:15:45.39	20.81	3.47	-51.9	-65.6	3.8	1.49e+00	0	46	104	0	66	17639
2026-01-02 22:15:46.37	20.89	3.53	-51.7	-65.5	3.8	1.49e+00	0	46	104	0	66	17341
2026-01-02 22:15:47.37	20.97	3.58	-51.7	-65.3	3.8	1.49e+00	0	46	104	0	66	17010
2026-01-02 22:15:48.35	21.05	3.64	-51.7	-65.2	3.8	1.49e+00	0	47	104	0	66	16806
2026-01-02 22:15:49.34	21.13	3.69	-51.7	-65.6	3.8	1.49e+00	0	47	104	0	66	17482
2026-01-02 22:15:50.33	21.21	3.75	-51.8	-65.5	3.8	1.49e+00	0	47	104	0	66	17385
2026-01-02 22:15:51.32	21.29	3.80	-51.7	-65.4	3.8	1.49e+00	0	47	104	0	66	17191
2026-01-02 22:15:52.31	21.38	3.86	-51.8	-65.6	3.8	1.49e+00	0	47	104	0	66	17597
2026-01-02 22:15:53.29	21.46	3.91	-51.8	-65.6	3.8	1.49e+00	0	47	104	0	66	17520
2026-01-02 22:15:54.29	21.54	3.97	-51.6	-65.5	3.8	1.49e+00	0	47	104	0	66	17455
2026-01-02 22:15:55.27	21.63	4.02	-51.6	-65.5	3.8	1.49e+00	0	47	104	0	66	17465
2026-01-02 22:15:56.26	21.71	4.08	-51.6	-65.5	3.8	1.49e+00	0	47	104	0	66	17328
2026-01-02 22:15:57.25	21.79	4.13	-51.5	-65.4	3.8	1.49e+00	0	47	104	0	66	17246
2026-01-02 22:15:58.24	21.88	4.19	-51.7	-65.5	3.8	1.49e+00	0	47	104	0	66	17437
2026-01-02 22:15:59.24	21.96	4.24	-51.8	-65.6	3.8	1.49e+00	0	47	104	0	66	17495
2026-01-02 22:16:00.23	22.05	4.30	-51.7	-65.4	3.8	1.49e+00	0	47	104	0	66	17152
2026-01-02 22:16:01.21	22.13	4.36	-51.6	-65.2	3.8	1.49e+00	0	47	104	0	66	16713
2026-01-02 22:16:02.21	22.22	4.41	-51.7	-65.0	3.8	1.49e+00	0	48	104	0	66	16486
2026-01-02 22:16:03.19	22.30	4.47	-51.7	-64.9	3.8	1.49e+00	0	48	104	0	66	16158
2026-01-02 22:16:04.18	22.39	4.52	-51.7	-64.7	3.8	1.49e+00	0	47	104	0	66	15937
2026-01-02 22:16:05.18	22.48	4.58	-51.7	-64.7	3.8	1.49e+00	0	48	104	0	66	15897
2026-01-02 22:16:06.17	22.56	4.64	-51.7	-64.6	3.8	1.49e+00	0	48	104	0	66	15720
2026-01-02 22:16:07.16	22.65	4.69	-51.7	-64.2	3.8	1.49e+00	0	48	104	0	66	14922
2026-01-02 22:16:08.15	22.74	4.75	-51.4	-62.8	4.0	1.49e+00	0	48	104	0	65	13518
2026-01-02 22:16:09.14	22.83	4.80	-51.2	-60.9	4.6	1.26e+00	0	48	0	0	65	10868
2026-01-02 22:16:10.13	22.91	4.86	-51.1	-59.3	5.4	6.94e-01	0	48	0	2097152	65	8971
2026-01-02 22:16:11.12	23.00	4.92	-50.7	-57.6	6.7	3.49e-01	0	48	0	4194304	64	7871
2026-01-02 22:16:12.11	23.09	4.97	-50.4	-56.6	7.6	1.47e-01	0	48	0	5242880	64	7023
2026-01-02 22:16:13.10	23.18	5.03	-50.4	-56.1	8.3	5.35e-02	0	48	0	7340032	63	6976
2026-01-02 22:16:14.08	23.27	5.09	-50.4	-55.7	8.7	3.64e-02	0	48	0	9437184	63	6685
2026-01-02 22:16:15.07	23.36	5.14	-50.5	-55.9	8.6	3.72e-02	0	48	0	11534336	63	6832
2026-01-02 22:16:16.06	23.45	5.20	-50.4	-55.4	9.1	2.81e-02	0	49	0	13631488	63	6490
2026-01-02 22:16:17.04	23.54	5.26	-50.2	-54.9	9.6	1.75e-02	0	49	0	14680064	63	6116
2026-01-02 22:16:18.03	23.63	5.31	-49.9	-54.3	10.3	8.57e-03	0	49	0	16777216	63	5695
2026-01-02 22:16:19.02	23.72	5.37	-49.8	-54.0	10.6	5.34e-03	0	49	0	18874368	62	5821
2026-01-02 22:16:20.01	23.81	5.43	-49.7	-53.6	11.0	2.66e-03	0	49	0	20971520	62	5552
2026-01-02 22:16:21.01	23.90	5.48	-49.5	-53.3	11.4	1.23e-03	0	49	0	22020096	62	5368
2026-01-02 22:16:22.00	23.99	5.54	-49.5	-53.2	11.4	8.06e-04	0	49	0	24117248	62	5294
2026-01-02 22:16:22.99	24.09	5.60	-49.5	-53.2	11.5	9.19e-04	0	49	0	26214400	62	5325
2026-01-02 22:16:23.97	24.18	5.66	-49.6	-53.3	11.4	8.64e-04	0	49	0	28311552	62	5395
2026-01-02 22:16:24.95	24.27	5.71	-49.7	-53.5	11.2	1.32e-03	0	49	0	29360128	62	5481
2026-01-02 22:16:25.94	24.36	5.77	-49.8	-53.7	11.0	1.41e-03	0	49	0	31457280	62	5607
2026-01-02 22:16:26.93	24.46	5.83	-49.8	-53.8	11.0	1.70e-03	0	49	0	33554432	62	5674
2026-01-02 22:16:27.92	24.55	5.89	-49.8	-53.7	11.0	1.90e-03	0	49	0	35651584	62	5650
2026-01-02 22:16:28.90	24.64	5.94	-49.9	-54.1	10.7	2.28e-03	0	49	0	36700160	62	5890
2026-01-02 22:16:29.89	24.74	6.00	-49.8	-53.8	11.0	2.23e-03	0	49	0	38797312	62	5677
2026-01-02 22:16:30.88	24.83	6.06	-49.9	-54.0	10.8	2.39e-03	0	49	0	40894464	62	5816
2026-01-02 22:16:31.87	24.93	6.12	-49.8	-54.0	10.8	2.34e-03	0	49	0	42991616	62	5790
2026-01-02 22:16:32.85	25.02	6.17	-49.7	-53.6	11.2	1.76e-03	0	49	0	44040192	62	5570
2026-01-02 22:16:33.84	25.12	6.23	-49.9	-54.0	10.8	1.89e-03	0	49	0	46137344	62	5807
2026-01-02 22:16:34.82	25.22	6.29	-49.8	-53.7	11.1	1.85e-03	0	50	0	48234496	62	5640
2026-01-02 22:16:35.81	25.31	6.35	-49.8	-53.8	11.0	1.88e-03	0	50	0	50331648	62	5693
2026-01-02 22:16:36.80	25.41	6.40	-49.8	-53.7	11.0	1.94e-03	0	50	0	52428800	62	5650
2026-01-02 22:16:37.80	25.51	6.46	-49.5	-53.2	11.7	8.85e-04	0	50	0	53477376	62	5286
2026-01-02 22:16:38.79	25.61	6.52	-49.5	-53.0	11.9	5.64e-04	0	50	0	55574528	62	5205
2026-01-02 22:16:39.78	25.70	6.58	-49.4	-52.8	12.1	2.92e-04	0	50	0	57671680	61	5369
2026-01-02 22:16:40.77	25.80	6.64	-49.4	-52.8	12.1	2.91e-04	0	50	0	59768832	61	5349
2026-01-02 22:16:41.76	25.90	6.70	-49.3	-52.5	12.4	2.01e-04	0	50	0	60817408	61	5188
2026-01-02 22:16:42.75	26.00	6.76	-49.2	-52.5	12.4	1.51e-04	0	50	0	62914560	61	5165
2026-01-02 22:16:43.74	26.10	6.81	-49.2	-52.5	12.3	1.65e-04	0	50	0	65011712	61	5208
2026-01-02 22:16:44.73	26.20	6.87	-49.0	-52.1	12.8	9.15e-05	0	50	0	67108864	61	4968
2026-01-02 22:16:45.72	26.30	6.93	-49.1	-52.3	12.5	1.01e-04	0	50	0	69206016	61	5086
2026-01-02 22:16:46.70	26.40	6.99	-49.1	-52.2	12.7	6.86e-05	0	50	0	70254592	61	5022
2026-01-02 22:16:47.70	26.50	7.05	-49.3	-52.7	12.2	1.65e-04	0	50	0	72351744	61	5336
2026-01-02 22:16:48.69	26.61	7.11	-49.3	-52.6	12.3	1.85e-04	0	50	0	74448896	61	5251
2026-01-02 22:16:49.68	26.71	7.17	-49.3	-52.8	12.1	2.40e-04	0	50	0	76546048	61	5359
2026-01-02 22:16:50.66	26.81	7.22	-49.2	-52.5	12.4	2.20e-04	0	50	0	77594624	61	5206
2026-01-02 22:16:51.65	26.91	7.28	-49.3	-52.6	12.4	1.20e-04	0	50	0	79691776	61	5240
2026-01-02 22:16:52.64	27.02	7.34	-49.4	-52.8	12.2	2.28e-04	0	50	0	81788928	61	5362
2026-01-02 22:16:53.63	27.12	7.40	-49.4	-52.8	12.2	1.92e-04	0	50	0	83886080	61	5343
2026-01-02 22:16:54.62	27.22	7.46	-49.3	-52.7	12.3	1.41e-04	0	50	0	84934656	61	5305
2026-01-02 22:16:55.60	27.33	7.52	-49.3	-52.6	12.4	2.17e-04	0	51	0	87031808	61	5244
2026-01-02 22:16:56.59	27.43	7.58	-49.1	-52.1	13.0	9.68e-05	0	50	0	89128960	61	4936
2026-01-02 22:16:57.58	27.54	7.64	-49.0	-52.0	13.0	4.27e-05	0	51	0	91226112	61	4897
2026-01-02 22:16:58.57	27.64	7.70	-49.0	-51.9	13.1	2.74e-05	0	51	0	92274688	61	4865
2026-01-02 22:16:59.56	27.75	7.76	-49.1	-52.2	12.8	3.35e-05	0	51	0	94371840	60	5282
2026-01-02 22:17:00.55	27.86	7.82	-49.0	-52.1	12.9	6.56e-05	0	51	0	96468992	60	5241
2026-01-02 22:17:01.54	27.96	7.88	-49.0	-52.1	12.9	3.05e-05	0	51	0	98566144	60	5257
2026-01-02 22:17:02.52	28.07	7.94	-49.0	-52.1	12.9	4.04e-05	0	51	0	100663296	60	5251
2026-01-02 22:17:03.51	28.18	8.00	-49.0	-52.0	13.0	3.81e-05	0	51	0	101711872	60	5194
2026-01-02 22:17:04.50	28.29	8.06	-49.1	-52.2	12.9	4.42e-05	0	51	0	103809024	60	5308
2026-01-02 22:17:05.49	28.39	8.12	-49.1	-52.1	12.9	3.28e-05	0	51	0	105906176	60	5240
2026-01-02 22:17:06.48	28.50	8.18	-49.0	-52.2	12.8	6.63e-05	0	51	0	108003328	60	5294
2026-01-02 22:17:07.47	28.61	8.24	-49.2	-52.3	12.7	5.11e-05	0	51	0	109051904	60	5374
2026-01-02 22:17:08.46	28.72	8.30	-49.3	-52.4	12.6	8.54e-05	0	51	0	111149056	60	5447
2026-01-02 22:17:09.45	28.83	8.36	-49.0	-52.1	13.0	5.18e-05	0	51	0	113246208	60	5254
2026-01-02 22:17:10.44	28.94	8.42	-48.9	-51.9	13.2	2.82e-05	0	51	0	115343360	60	5146
2026-01-02 22:17:11.43	29.06	8.48	-48.9	-51.8	13.3	3.35e-05	0	51	0	116391936	60	5066
2026-01-02 22:17:12.42	29.17	8.54	-49.1	-52.2	12.9	4.50e-05	0	51	0	118489088	60	5309
2026-01-02 22:17:13.41	29.28	8.60	-49.3	-52.4	12.7	5.95e-05	0	51	0	120586240	60	5418
2026-01-02 22:17:14.39	29.39	8.66	-49.3	-52.5	12.6	6.71e-05	0	51	0	122683392	60	5498
2026-01-02 22:17:15.38	29.50	8.72	-49.1	-52.2	12.9	7.32e-05	0	51	0	124780544	60	5290
2026-01-02 22:17:16.37	29.62	8.78	-49.2	-52.3	12.8	6.71e-05	0	51	0	125829120	60	5351
2026-01-02 22:17:17.37	29.73	8.84	-49.2	-52.2	12.8	6.10e-05	0	51	0	127926272	60	5337
2026-01-02 22:17:18.36	29.85	8.90	-49.3	-52.5	12.7	5.26e-05	0	51	0	130023424	60	5479
2026-01-02 22:17:19.34	29.96	8.96	-49.2	-52.3	12.8	8.31e-05	0	52	0	132120576	60	5359
2026-01-02 22:17:20.33	30.08	9.02	-49.2	-52.3	12.9	5.56e-05	0	51	0	133169152	60	5352
2026-01-02 22:17:21.33	30.19	9.08	-49.1	-52.0	13.1	2.21e-05	0	52	0	135266304	60	5169
2026-01-02 22:17:22.32	30.31	9.14	-49.0	-51.9	13.3	2.59e-05	0	52	0	137363456	60	5113
2026-01-02 22:17:23.31	30.43	9.20	-49.0	-51.8	13.4	1.83e-05	0	52	0	139460608	60	5066
2026-01-02 22:17:24.30	30.54	9.27	-48.9	-51.7	13.5	1.52e-05	0	52	0	140509184	60	4993
2026-01-02 22:17:25.29	30.66	9.33	-48.9	-51.7	13.4	2.28e-05	0	52	0	142606336	60	5032
2026-01-02 22:17:26.27	30.78	9.39	-48.7	-51.4	13.7	6.80e-06	0	52	0	144703488	60	4863
2026-01-02 22:17:27.27	30.90	9.45	-48.6	-51.2	14.0	4.50e-06	0	52	0	146800640	60	4711
2026-01-02 22:17:28.26	31.02	9.51	-48.6	-51.2	13.9	3.00e-06	0	52	0	148897792	60	4740
2026-01-02 22:17:29.24	31.14	9.57	-48.6	-51.2	14.0	2.20e-06	0	52	0	149946368	60	4732
2026-01-02 22:17:30.22	31.25	9.63	-48.6	-51.2	14.0	3.00e-06	0	52	0	152043520	60	4739
2026-01-02 22:17:31.20	31.37	9.69	-48.6	-51.2	14.0	2.20e-06	0	52	0	154140672	60	4744
2026-01-02 22:17:32.20	31.50	9.75	-48.7	-51.2	14.0	4.50e-06	0	52	0	156237824	60	4745
2026-01-02 22:17:33.18	31.62	9.81	-48.8	-51.6	13.5	8.30e-06	0	52	0	157286400	60	4933
2026-01-02 22:17:34.17	31.74	9.87	-48.7	-51.3	13.8	6.80e-06	0	52	0	159383552	60	4801
2026-01-02 22:17:35.17	31.86	9.94	-48.9	-51.7	13.5	9.90e-06	0	52	0	161480704	60	5018
2026-01-02 22:17:36.16	31.99	10.00	-49.1	-51.9	13.2	2.44e-05	0	52	0	163577856	60	5159
2026-01-02 22:17:37.15	32.11	10.06	-48.8	-51.6	13.5	1.83e-05	0	52	0	164626432	60	4979
2026-01-02 22:17:38.14	32.23	10.12	-48.6	-51.3	13.9	5.30e-06	0	52	0	166723584	60	4766
2026-01-02 22:17:39.13	32.36	10.18	-48.6	-51.1	14.1	0.00e+00	0	52	0	168820736	60	4690
2026-01-02 22:17:40.11	32.48	10.24	-48.5	-51.0	14.3	7.00e-07	0	52	0	170917888	60	4604
2026-01-02 22:17:41.10	32.61	10.31	-48.6	-51.1	14.1	1.50e-06	0	52	0	171966464	59	4937
2026-01-02 22:17:42.09	32.73	10.37	-48.6	-51.2	14.1	1.50e-06	0	52	0	174063616	59	5012
2026-01-02 22:17:43.07	32.86	10.43	-48.8	-51.5	13.7	4.50e-06	0	53	0	176160768	59	5207
2026-01-02 22:17:44.05	32.98	10.49	-48.7	-51.3	14.0	4.50e-06	0	52	0	178257920	59	5084
2026-01-02 22:17:45.04	33.11	10.55	-48.7	-51.4	13.9	3.80e-06	0	53	0	180355072	59	5107
2026-01-02 22:17:46.03	33.24	10.61	-49.0	-51.7	13.5	7.60e-06	0	53	0	181403648	59	5315
2026-01-02 22:17:47.02	33.37	10.68	-48.8	-51.4	13.8	3.80e-06	0	53	0	183500800	59	5153
2026-01-02 22:17:48.00	33.50	10.74	-48.9	-51.6	13.7	6.80e-06	0	53	0	185597952	59	5224
2026-01-02 22:17:48.99	33.62	10.80	-49.1	-51.9	13.4	9.10e-06	0	52	0	187695104	60	5110
2026-01-02 22:17:49.97	33.75	10.86	-49.0	-51.7	13.5	4.50e-06	0	53	0	188743680	60	5023
2026-01-02 22:17:50.96	33.88	10.92	-48.7	-51.3	13.9	1.06e-05	0	52	0	190840832	60	4797
2026-01-02 22:17:51.95	34.02	10.98	-49.0	-51.7	13.5	3.80e-06	0	53	0	192937984	60	5034
2026-01-02 22:17:52.94	34.15	11.05	-49.1	-52.0	13.2	9.10e-06	0	53	0	195035136	60	5197
2026-01-02 22:17:53.93	34.28	11.11	-49.3	-52.4	12.9	2.67e-05	0	53	0	196083712	60	5429
2026-01-02 22:17:54.92	34.41	11.17	-49.1	-52.1	13.2	4.11e-05	0	53	0	198180864	60	5230
2026-01-02 22:17:55.91	34.55	11.23	-49.4	-52.5	12.8	4.34e-05	0	53	0	200278016	60	5477
2026-01-02 22:17:56.91	34.68	11.29	-49.3	-52.3	13.0	6.02e-05	0	53	0	202375168	60	5379
2026-01-02 22:17:57.89	34.81	11.36	-49.2	-52.1	13.1	3.81e-05	0	53	0	204472320	60	5278
2026-01-02 22:17:58.88	34.95	11.42	-49.3	-52.2	13.0	2.82e-05	0	53	0	205520896	60	5325
2026-01-02 22:17:59.87	35.08	11.48	-49.4	-52.6	12.7	5.56e-05	0	53	0	207618048	60	5558
2026-01-02 22:18:00.87	35.22	11.54	-49.2	-52.1	13.1	4.11e-05	0	53	0	209715200	60	5274
2026-01-02 22:18:01.86	35.36	11.61	-49.2	-52.1	13.2	2.82e-05	0	53	0	211812352	60	5224
2026-01-02 22:18:02.85	35.50	11.67	-49.2	-52.1	13.2	2.05e-05	0	53	0	212860928	60	5246
2026-01-02 22:18:03.84	35.63	11.73	-49.3	-52.2	13.0	1.90e-05	0	53	0	214958080	60	5325
2026-01-02 22:18:04.83	35.77	11.79	-49.2	-52.1	13.2	2.97e-05	0	53	0	217055232	60	5241
2026-01-02 22:18:05.83	35.91	11.86	-49.1	-52.0	13.3	1.22e-05	0	53	0	219152384	60	5177
2026-01-02 22:18:06.82	36.05	11.92	-49.2	-52.1	13.2	2.28e-05	0	53	0	221249536	60	5227
2026-01-02 22:18:07.81	36.19	11.98	-49.4	-52.4	12.9	2.36e-05	0	53	0	222298112	60	5416
2026-01-02 22:18:08.80	36.33	12.04	-49.4	-52.4	12.9	5.26e-05	0	53	0	224395264	60	5446
2026-01-02 22:18:09.77	36.47	12.10	-49.4	-52.4	12.9	5.64e-05	0	53	0	226492416	60	5444
2026-01-02 22:18:10.76	36.61	12.17	-49.3	-52.3	13.1	4.65e-05	0	53	0	228589568	60	5355
2026-01-02 22:18:11.75	36.75	12.23	-49.0	-51.7	13.6	2.05e-05	0	53	0	229638144	60	5025
2026-01-02 22:18:12.73	36.90	12.29	-48.8	-51.5	13.9	6.80e-06	0	53	0	231735296	60	4876
2026-01-02 22:18:13.71	37.04	12.35	-48.6	-51.0	14.2	4.50e-06	0	53	0	233832448	60	4641
2026-01-02 22:18:14.70	37.18	12.41	-48.4	-50.8	14.6	7.00e-07	0	53	0	235929600	59	4770
2026-01-02 22:18:15.69	37.33	12.48	-48.4	-50.8	14.6	0.00e+00	0	53	0	236978176	59	4761
2026-01-02 22:18:16.68	37.47	12.54	-48.3	-50.6	14.7	7.00e-07	0	53	0	239075328	59	4675
2026-01-02 22:18:17.67	37.62	12.60	-48.5	-50.8	14.5	0.00e+00	0	53	0	241172480	59	4772
2026-01-02 22:18:18.66	37.77	12.66	-48.3	-50.6	14.7	7.00e-07	0	54	0	243269632	59	4669
2026-01-02 22:18:19.65	37.91	12.73	-48.1	-50.3	15.0	0.00e+00	0	54	0	244318208	59	4510
2026-01-02 22:18:20.64	38.06	12.79	-48.0	-50.2	15.1	0.00e+00	0	53	0	246415360	59	4454
2026-01-02 22:18:21.63	38.21	12.85	-48.0	-50.2	15.1	0.00e+00	0	54	0	248512512	58	4725
2026-01-02 22:18:22.61	38.36	12.91	-48.1	-50.4	15.0	7.00e-07	0	53	0	250609664	58	4829
2026-01-02 22:18:23.60	38.50	12.97	-48.3	-50.6	14.8	0.00e+00	0	54	0	251658240	58	4928
2026-01-02 22:18:24.59	38.66	13.04	-48.3	-50.6	14.8	7.00e-07	0	54	0	253755392	58	4938
2026-01-02 22:18:25.59	38.81	13.10	-48.2	-50.6	14.8	0.00e+00	0	54	0	255852544	58	4937
2026-01-02 22:18:26.58	38.96	13.16	-48.3	-50.6	14.8	0.00e+00	0	54	0	257949696	58	4958
2026-01-02 22:18:27.56	39.11	13.22	-48.5	-50.9	14.5	7.00e-07	0	54	0	260046848	59	4827
2026-01-02 22:18:28.55	39.26	13.28	-48.3	-50.7	14.6	7.00e-07	0	54	0	261095424	59	4752
2026-01-02 22:18:29.54	39.41	13.35	-48.5	-50.9	14.4	0.00e+00	0	54	0	263192576	59	4849
2026-01-02 22:18:30.52	39.57	13.41	-48.4	-50.9	14.5	0.00e+00	0	54	0	265289728	59	4862
2026-01-02 22:18:31.51	39.72	13.47	-48.6	-51.1	14.3	7.00e-07	0	54	0	267386880	59	4942
2026-01-02 22:18:32.50	39.88	13.53	-48.3	-50.6	14.7	7.00e-07	0	54	0	268435456	59	4678
2026-01-02 22:18:33.48	40.03	13.59	-48.3	-50.5	14.8	0.00e+00	0	54	0	270532608	59	4640
2026-01-02 22:18:34.47	40.19	13.66	-48.3	-50.5	14.8	0.00e+00	0	54	0	272629760	59	4648
2026-01-02 22:18:35.47	40.35	13.72	-48.2	-50.5	14.9	0.00e+00	0	54	0	274726912	59	4605
2026-01-02 22:18:36.46	40.50	13.78	-48.4	-50.7	14.6	0.00e+00	0	54	0	275775488	59	4755
2026-01-02 22:18:37.45	40.66	13.84	-48.4	-50.8	14.6	0.00e+00	0	54	0	277872640	59	4767
2026-01-02 22:18:38.45	40.82	13.91	-48.4	-50.7	14.7	0.00e+00	0	54	0	279969792	59	4730
2026-01-02 22:18:39.44	40.98	13.97	-48.4	-50.8	14.6	0.00e+00	0	54	0	282066944	59	4766
2026-01-02 22:18:40.43	41.14	14.03	-48.5	-50.8	14.5	3.00e-06	0	54	0	284164096	59	4797
2026-01-02 22:18:41.42	41.30	14.09	-48.6	-51.1	14.3	2.20e-06	0	54	0	285212672	59	4945
2026-01-02 22:18:42.40	41.46	14.15	-48.7	-51.1	14.2	3.00e-06	0	54	0	287309824	59	4980
2026-01-02 22:18:43.38	41.62	14.21	-48.5	-50.9	14.4	0.00e+00	0	54	0	289406976	59	4854
2026-01-02 22:18:44.38	41.79	14.27	-48.4	-50.7	14.7	0.00e+00	0	54	0	291504128	59	4713
2026-01-02 22:18:45.36	41.95	14.34	-48.3	-50.6	14.8	0.00e+00	0	54	0	292552704	59	4681
2026-01-02 22:18:46.35	42.11	14.40	-48.2	-50.4	14.9	7.00e-07	0	54	0	294649856	59	4569
2026-01-02 22:18:47.35	42.28	14.46	-48.1	-50.3	15.1	0.00e+00	0	54	0	296747008	59	4494
2026-01-02 22:18:48.34	42.44	14.52	-48.0	-50.2	15.2	0.00e+00	0	54	0	298844160	59	4456
2026-01-02 22:18:49.33	42.61	14.58	-48.1	-50.3	15.1	0.00e+00	0	54	0	300941312	59	4502
2026-01-02 22:18:50.32	42.78	14.64	-48.3	-50.5	14.9	0.00e+00	0	54	0	301989888	59	4645
2026-01-02 22:18:51.31	42.95	14.70	-48.4	-50.6	14.7	0.00e+00	0	54	0	304087040	59	4704
2026-01-02 22:18:52.30	43.11	14.77	-48.4	-50.7	14.6	0.00e+00	0	54	0	306184192	59	4748
2026-01-02 22:18:53.29	43.28	14.83	-48.4	-50.8	14.6	0.00e+00	0	54	0	308281344	59	4762
2026-01-02 22:18:54.27	43.45	14.89	-48.6	-51.1	14.3	7.00e-07	0	54	0	309329920	59	4947
2026-01-02 22:18:55.26	43.62	14.95	-48.5	-50.8	14.6	7.00e-07	0	55	0	311427072	59	4793
2026-01-02 22:18:56.25	43.79	15.01	-48.6	-51.0	14.4	1.50e-06	0	54	0	313524224	59	4882
2026-01-02 22:18:57.24	43.96	15.07	-48.6	-51.1	14.3	0.00e+00	0	54	0	315621376	59	4928
2026-01-02 22:18:58.22	44.13	15.13	-48.7	-51.2	14.1	7.00e-07	0	54	0	316669952	59	5037
2026-01-02 22:18:59.21	44.31	15.19	-48.7	-51.2	14.2	7.00e-07	0	55	0	318767104	59	5002
2026-01-02 22:19:00.20	44.48	15.25	-48.4	-50.8	14.5	7.00e-07	0	54	0	320864256	59	4812
2026-01-02 22:19:01.19	44.65	15.31	-48.3	-50.6	14.8	0.00e+00	0	55	0	322961408	59	4668
2026-01-02 22:19:02.19	44.83	15.37	-48.2	-50.4	14.9	0.00e+00	0	54	0	325058560	59	4587
2026-01-02 22:19:03.18	45.00	15.43	-48.1	-50.3	15.1	0.00e+00	0	55	0	326107136	59	4533
2026-01-02 22:19:04.16	45.18	15.49	-48.2	-50.4	14.9	1.50e-06	0	55	0	328204288	59	4589
2026-01-02 22:19:05.15	45.36	15.55	-48.0	-50.2	15.3	0.00e+00	0	55	0	330301440	59	4456
2026-01-02 22:19:06.14	45.53	15.61	-47.9	-50.0	15.4	0.00e+00	0	55	0	332398592	58	4619
2026-01-02 22:19:07.12	45.71	15.67	-47.8	-49.9	15.4	0.00e+00	0	55	0	333447168	58	4585
2026-01-02 22:19:08.11	45.89	15.73	-47.8	-49.9	15.5	0.00e+00	0	54	0	335544320	58	4560
2026-01-02 22:19:09.10	46.07	15.79	-47.8	-49.8	15.5	0.00e+00	0	55	0	337641472	58	4545
2026-01-02 22:19:10.09	46.25	15.85	-47.8	-50.0	15.3	0.00e+00	0	55	0	339738624	58	4618
2026-01-02 22:19:11.07	46.43	15.91	-48.0	-50.3	15.1	0.00e+00	0	55	0	340787200	58	4762
2026-01-02 22:19:12.07	46.61	15.97	-47.9	-50.0	15.3	0.00e+00	0	55	0	342884352	58	4651
2026-01-02 22:19:13.05	46.79	16.02	-47.9	-50.1	15.3	0.00e+00	0	55	0	344981504	58	4666
2026-01-02 22:19:14.04	46.98	16.08	-48.0	-50.2	15.1	0.00e+00	0	55	0	347078656	58	4757
2026-01-02 22:19:15.03	47.16	16.14	-48.1	-50.4	15.0	7.00e-07	0	55	0	348127232	58	4850
2026-01-02 22:19:16.01	47.34	16.20	-48.0	-50.2	15.3	0.00e+00	0	55	0	350224384	58	4707
2026-01-02 22:19:16.99	47.53	16.26	-48.0	-50.1	15.2	0.00e+00	0	55	0	352321536	58	4703
2026-01-02 22:19:17.99	47.71	16.32	-48.0	-50.2	15.2	0.00e+00	0	55	0	354418688	58	4719
2026-01-02 22:19:18.98	47.90	16.38	-48.0	-50.2	15.1	7.00e-07	0	55	0	356515840	58	4754
2026-01-02 22:19:19.97	48.09	16.43	-48.2	-50.5	14.9	0.00e+00	0	55	0	357564416	58	4915
2026-01-02 22:19:20.95	48.27	16.49	-48.0	-50.3	15.1	0.00e+00	0	55	0	359661568	58	4775
2026-01-02 22:19:21.94	48.46	16.55	-48.0	-50.3	15.1	0.00e+00	0	55	0	361758720	58	4786
2026-01-02 22:19:22.93	48.65	16.61	-48.3	-50.7	14.7	0.00e+00	0	55	0	363855872	58	5006
2026-01-02 22:19:23.92	48.84	16.66	-48.5	-51.0	14.5	0.00e+00	0	55	0	364904448	58	5186
2026-01-02 22:19:24.91	49.03	16.72	-48.5	-50.9	14.4	7.00e-07	0	55	0	367001600	58	5156
2026-01-02 22:19:25.89	49.22	16.78	-48.7	-51.3	14.1	0.00e+00	0	55	0	369098752	59	5043
2026-01-02 22:19:26.88	49.42	16.83	-48.6	-51.0	14.4	1.50e-06	0	55	0	371195904	59	4926
2026-01-02 22:19:27.88	49.61	16.89	-48.4	-50.7	14.7	0.00e+00	0	55	0	372244480	59	4726
2026-01-02 22:19:28.85	49.80	16.95	-48.3	-50.6	14.7	1.50e-06	0	55	0	374341632	59	4701
2026-01-02 22:19:29.85	50.00	17.00	-48.4	-50.7	14.7	0.00e+00	0	55	0	376438784	59	4732
2026-01-02 22:19:30.82	50.19	17.06	-48.3	-50.7	14.7	0.00e+00	0	55	0	378535936	59	4723
2026-01-02 22:19:31.81	50.38	17.12	-48.6	-51.0	14.4	7.00e-07	0	55	0	379584512	59	4912
2026-01-02 22:19:32.80	50.58	17.17	-48.6	-51.0	14.4	0.00e+00	0	55	0	381681664	59	4922
2026-01-02 22:19:33.78	50.78	17.23	-48.8	-51.4	14.0	1.50e-06	0	55	0	383778816	59	5138
2026-01-02 22:19:34.77	50.97	17.28	-48.8	-51.4	14.0	3.00e-06	0	55	0	385875968	59	5140
2026-01-02 22:19:35.76	51.17	17.34	-48.9	-51.6	13.8	6.10e-06	0	55	0	387973120	59	5270
2026-01-02 22:19:36.75	51.37	17.39	-49.0	-51.8	13.6	7.60e-06	0	55	0	389021696	60	5065
2026-01-02 22:19:37.74	51.57	17.45	-48.8	-51.6	13.9	3.80e-06	0	55	0	391118848	60	4933
2026-01-02 22:19:38.74	51.77	17.50	-48.8	-51.5	14.0	1.50e-06	0	55	0	393216000	60	4880
2026-01-02 22:19:39.73	51.98	17.56	-48.9	-51.7	13.7	4.50e-06	0	55	0	395313152	60	5028
2026-01-02 22:19:40.72	52.18	17.61	-48.9	-51.6	13.9	6.10e-06	0	55	0	396361728	60	4927
2026-01-02 22:19:41.71	52.38	17.66	-48.9	-51.7	13.7	2.20e-06	0	55	0	398458880	60	5013
2026-01-02 22:19:42.70	52.58	17.72	-49.1	-51.9	13.5	7.60e-06	0	55	0	400556032	60	5130
2026-01-02 22:19:43.69	52.79	17.77	-49.2	-52.1	13.3	1.14e-05	0	55	0	402653184	60	5264
2026-01-02 22:19:44.68	52.99	17.83	-49.3	-52.3	13.1	1.75e-05	0	55	0	404750336	60	5352
2026-01-02 22:19:45.67	53.20	17.88	-49.4	-52.5	12.9	2.67e-05	0	55	0	405798912	60	5479
2026-01-02 22:19:46.66	53.41	17.93	-49.3	-52.3	13.0	3.05e-05	0	55	0	407896064	60	5402
2026-01-02 22:19:47.65	53.61	17.98	-49.2	-52.1	13.3	1.67e-05	0	55	0	409993216	60	5253
2026-01-02 22:19:48.64	53.82	18.04	-49.2	-52.1	13.3	1.98e-05	0	55	0	412090368	60	5240
2026-01-02 22:19:49.62	54.03	18.09	-49.3	-52.3	13.0	1.75e-05	0	55	0	413138944	60	5390
2026-01-02 22:19:50.61	54.24	18.14	-49.4	-52.5	13.0	3.50e-05	0	55	0	415236096	60	5471
2026-01-02 22:19:51.59	54.44	18.19	-49.4	-52.4	13.0	2.97e-05	0	55	0	417333248	60	5436
2026-01-02 22:19:52.58	54.66	18.24	-49.6	-52.7	12.7	4.73e-05	0	55	0	419430400	60	5647
2026-01-02 22:19:53.55	54.86	18.29	-49.5	-52.6	12.9	1.21e-04	0	55	0	420478976	61	5239
2026-01-02 22:19:54.54	55.07	18.34	-49.4	-52.4	13.1	4.57e-05	0	55	0	422576128	61	5145
2026-01-02 22:19:55.53	55.29	18.39	-49.3	-52.5	13.0	3.28e-05	0	55	0	424673280	61	5167
2026-01-02 22:19:56.51	55.50	18.44	-49.4	-52.6	12.8	6.10e-05	0	55	0	426770432	61	5239
2026-01-02 22:19:57.50	55.71	18.49	-49.5	-52.8	12.6	4.57e-05	0	55	0	427819008	61	5378
2026-01-02 22:19:58.50	55.93	18.54	-49.6	-52.7	12.7	6.10e-05	0	55	0	429916160	61	5312
2026-01-02 22:19:59.49	56.15	18.59	-49.4	-52.4	13.0	7.78e-05	0	56	0	432013312	61	5155
2026-01-02 22:20:00.47	56.36	18.64	-49.3	-52.2	13.2	3.28e-05	0	55	0	434110464	61	4993
2026-01-02 22:20:01.46	56.58	18.69	-49.3	-52.2	13.3	2.13e-05	0	56	0	436207616	61	4994
2026-01-02 22:20:02.45	56.79	18.74	-49.1	-52.0	13.4	1.14e-05	0	56	0	437256192	61	4896
2026-01-02 22:20:03.43	57.01	18.79	-49.2	-52.0	13.5	9.10e-06	0	55	0	439353344	61	4886
2026-01-02 22:20:04.42	57.23	18.83	-49.2	-52.0	13.4	1.06e-05	0	55	0	441450496	61	4902
2026-01-02 22:20:05.41	57.45	18.88	-49.2	-52.0	13.4	1.60e-05	0	55	0	443547648	61	4884
2026-01-02 22:20:06.40	57.67	18.93	-49.3	-52.2	13.3	7.60e-06	0	55	0	444596224	61	5028
2026-01-02 22:20:07.40	57.89	18.98	-49.3	-52.3	13.2	3.20e-05	0	55	0	446693376	61	5054
2026-01-02 22:20:08.39	58.11	19.02	-49.0	-51.9	13.5	1.75e-05	0	56	0	448790528	61	4851
2026-01-02 22:20:09.37	58.33	19.07	-48.8	-51.4	14.0	3.00e-06	0	56	0	450887680	60	4856
2026-01-02 22:20:10.36	58.56	19.11	-48.5	-50.8	14.6	0.00e+00	0	55	0	451936256	60	4537
2026-01-02 22:20:11.35	58.78	19.16	-48.2	-50.3	15.1	0.00e+00	0	55	0	454033408	59	4520
2026-01-02 22:20:12.34	59.00	19.21	-48.3	-50.5	15.0	0.00e+00	0	56	0	456130560	59	4627
2026-01-02 22:20:13.34	59.23	19.25	-48.3	-50.5	14.9	0.00e+00	0	56	0	458227712	59	4638
2026-01-02 22:20:14.33	59.46	19.30	-48.4	-50.6	14.8	0.00e+00	0	56	0	460324864	59	4698
2026-01-02 22:20:15.32	59.68	19.34	-48.4	-50.7	14.7	0.00e+00	0	55	0	461373440	59	4739
2026-01-02 22:20:16.31	59.91	19.38	-48.6	-50.9	14.5	0.00e+00	0	56	0	463470592	59	4850
2026-01-02 22:20:17.30	60.14	19.43	-48.4	-50.6	14.9	0.00e+00	0	56	0	465567744	59	4677
2026-01-02 22:20:18.29	60.36	19.47	-48.3	-50.4	15.1	7.00e-07	0	56	0	467664896	59	4578
2026-01-02 22:20:19.28	60.59	19.51	-48.1	-50.2	15.3	0.00e+00	0	56	0	468713472	59	4453
2026-01-02 22:20:20.28	60.82	19.56	-48.1	-50.3	15.2	0.00e+00	0	56	0	470810624	59	4503
2026-01-02 22:20:21.27	61.05	19.60	-48.3	-50.4	15.0	0.00e+00	0	56	0	472907776	59	4595
2026-01-02 22:20:22.26	61.29	19.64	-48.1	-50.2	15.4	0.00e+00	0	56	0	475004928	59	4466
2026-01-02 22:20:23.24	61.51	19.68	-48.2	-50.3	15.2	0.00e+00	0	56	0	476053504	59	4536
2026-01-02 22:20:24.24	61.75	19.72	-48.3	-50.5	15.0	0.00e+00	0	56	0	478150656	59	4628
2026-01-02 22:20:25.23	61.98	19.76	-48.1	-50.3	15.1	0.00e+00	0	56	0	480247808	59	4533
2026-01-02 22:20:26.21	62.21	19.80	-48.0	-50.1	15.4	0.00e+00	0	56	0	482344960	59	4423
2026-01-02 22:20:27.20	62.44	19.84	-47.9	-49.8	15.6	0.00e+00	0	56	0	484442112	58	4543
2026-01-02 22:20:28.19	62.68	19.88	-47.9	-49.8	15.7	0.00e+00	0	56	0	485490688	58	4511
2026-01-02 22:20:29.18	62.91	19.92	-48.0	-50.0	15.5	0.00e+00	0	56	0	487587840	58	4637
2026-01-02 22:20:30.15	63.14	19.96	-48.3	-50.5	15.0	0.00e+00	0	56	0	489684992	58	4889
2026-01-02 22:20:31.14	63.38	20.00	-48.4	-50.6	14.9	0.00e+00	0	56	0	491782144	58	4944
2026-01-02 22:20:32.13	63.62	20.03	-48.7	-51.0	14.5	0.00e+00	0	56	0	492830720	59	4912
2026-01-02 22:20:33.12	63.85	20.07	-48.4	-50.7	14.8	0.00e+00	0	56	0	494927872	59	4719
2026-01-02 22:20:34.10	64.09	20.11	-48.5	-50.8	14.7	0.00e+00	0	56	0	497025024	59	4786
2026-01-02 22:20:35.09	64.33	20.14	-48.7	-51.1	14.5	7.00e-07	0	56	0	499122176	59	4935
2026-01-02 22:20:36.07	64.56	20.18	-48.6	-50.8	14.7	0.00e+00	0	56	0	500170752	59	4788
2026-01-02 22:20:37.05	64.80	20.21	-48.9	-51.4	14.2	1.50e-06	0	56	0	502267904	59	5115
2026-01-02 22:20:38.05	65.04	20.25	-49.0	-51.6	14.0	7.00e-07	0	56	0	504365056	59	5230
2026-01-02 22:20:39.04	65.28	20.28	-49.3	-52.1	13.4	3.00e-06	0	56	0	506462208	60	5257
2026-01-02 22:20:40.02	65.52	20.32	-49.0	-51.6	13.9	3.80e-06	0	56	0	507510784	60	4958
2026-01-02 22:20:41.01	65.76	20.35	-49.3	-52.0	13.5	9.10e-06	0	56	0	509607936	60	5179
2026-01-02 22:20:41.99	66.00	20.38	-48.8	-51.3	14.3	3.80e-06	0	56	0	511705088	60	4767
2026-01-02 22:20:42.98	66.24	20.42	-48.7	-51.1	14.5	1.50e-06	0	56	0	513802240	60	4662
2026-01-02 22:20:43.98	66.49	20.45	-48.5	-50.7	14.9	0.00e+00	0	56	0	515899392	59	4732
2026-01-02 22:20:44.98	66.74	20.48	-48.3	-50.6	15.0	0.00e+00	0	56	0	516947968	59	4673
2026-01-02 22:20:45.96	66.98	20.51	-48.5	-50.7	14.8	0.00e+00	0	56	0	519045120	59	4737
2026-01-02 22:20:46.95	67.22	20.54	-48.6	-50.9	14.7	0.00e+00	0	56	0	521142272	59	4818
2026-01-02 22:20:47.94	67.47	20.57	-48.5	-50.8	14.8	7.00e-07	0	56	0	523239424	59	4763
2026-01-02 22:20:48.93	67.71	20.60	-48.5	-50.8	14.7	0.00e+00	0	56	0	524288000	59	4763
2026-01-02 22:20:49.92	67.96	20.63	-48.2	-50.3	15.2	0.00e+00	0	56	0	526385152	59	4534
2026-01-02 22:20:50.90	68.20	20.66	-48.2	-50.2	15.3	0.00e+00	0	56	0	528482304	59	4486
2026-01-02 22:20:51.89	68.45	20.69	-48.3	-50.5	15.1	0.00e+00	0	56	0	530579456	59	4606
2026-01-02 22:20:52.88	68.69	20.72	-48.5	-50.7	14.9	0.00e+00	0	56	0	531628032	59	4737
2026-01-02 22:20:53.87	68.94	20.75	-48.7	-51.0	14.5	0.00e+00	0	56	0	533725184	59	4908
2026-01-02 22:20:54.85	69.19	20.77	-48.4	-50.7	14.9	1.50e-06	0	56	0	535822336	59	4708
2026-01-02 22:20:55.84	69.44	20.80	-48.4	-50.6	14.9	0.00e+00	0	56	0	537919488	59	4663
2026-01-02 22:20:56.84	69.69	20.83	-48.5	-50.7	14.9	0.00e+00	0	56	0	540016640	59	4710
2026-01-02 22:20:57.82	69.93	20.85	-48.2	-50.4	15.2	0.00e+00	0	56	0	541065216	59	4550
2026-01-02 22:20:58.80	70.18	20.87	-48.2	-50.3	15.3	0.00e+00	0	56	0	543162368	59	4497
2026-01-02 22:20:59.80	70.43	20.90	-48.1	-50.1	15.4	0.00e+00	0	56	0	545259520	59	4438
2026-01-02 22:21:00.79	70.68	20.92	-48.5	-50.8	14.8	0.00e+00	0	56	0	547356672	59	4771
2026-01-02 22:21:01.78	70.94	20.95	-48.8	-51.2	14.4	0.00e+00	0	56	0	548405248	59	4987
2026-01-02 22:21:02.77	71.19	20.97	-48.6	-50.9	14.6	0.00e+00	0	56	0	550502400	59	4867
2026-01-02 22:21:03.76	71.44	20.99	-48.5	-50.7	14.9	7.00e-07	0	56	0	552599552	59	4728
2026-01-02 22:21:04.75	71.69	21.01	-48.3	-50.5	15.1	0.00e+00	0	56	0	554696704	59	4599
2026-01-02 22:21:05.74	71.94	21.04	-48.3	-50.5	15.1	7.00e-07	0	56	0	555745280	59	4602
2026-01-02 22:21:06.74	72.20	21.06	-48.4	-50.6	14.9	0.00e+00	0	56	0	557842432	59	4704
2026-01-02 22:21:07.73	72.45	21.08	-48.8	-51.1	14.4	0.00e+00	0	56	0	559939584	59	4967
2026-01-02 22:21:08.72	72.70	21.10	-48.8	-51.3	14.3	1.50e-06	0	56	0	562036736	59	5049
2026-01-02 22:21:09.71	72.96	21.11	-48.9	-51.4	14.1	1.50e-06	0	56	0	564133888	59	5135
2026-01-02 22:21:10.70	73.21	21.13	-48.7	-51.1	14.5	1.50e-06	0	56	0	565182464	59	4938
2026-01-02 22:21:11.69	73.47	21.15	-48.2	-50.3	15.2	7.00e-07	0	56	0	567279616	59	4497
2026-01-02 22:21:12.68	73.72	21.17	-48.0	-50.0	15.5	0.00e+00	0	56	0	569376768	59	4348
2026-01-02 22:21:13.67	73.97	21.19	-47.7	-49.7	15.8	7.00e-07	0	56	0	571473920	58	4458
2026-01-02 22:21:14.66	74.23	21.20	-47.7	-49.7	15.8	0.00e+00	0	56	0	572522496	58	4443
2026-01-02 22:21:15.65	74.49	21.22	-47.8	-49.8	15.7	0.00e+00	0	56	0	574619648	58	4504
2026-01-02 22:21:16.64	74.74	21.23	-47.9	-49.9	15.6	0.00e+00	0	56	0	576716800	58	4586
2026-01-02 22:21:17.63	75.00	21.25	-47.8	-49.7	15.8	0.00e+00	0	56	0	578813952	58	4474
2026-01-02 22:21:18.62	75.25	21.26	-47.7	-49.7	15.9	0.00e+00	0	56	0	580911104	58	4442
2026-01-02 22:21:19.62	75.51	21.28	-47.8	-49.8	15.7	0.00e+00	0	56	0	581959680	58	4495
2026-01-02 22:21:20.61	75.77	21.29	-47.8	-49.8	15.8	0.00e+00	0	56	0	584056832	58	4505
2026-01-02 22:21:21.60	76.02	21.30	-47.9	-49.9	15.6	0.00e+00	0	56	0	586153984	58	4581
2026-01-02 22:21:22.59	76.28	21.31	-48.1	-50.2	15.3	0.00e+00	0	56	0	588251136	58	4729
2026-01-02 22:21:23.58	76.54	21.32	-48.3	-50.5	15.0	0.00e+00	0	56	0	589299712	58	4884
2026-01-02 22:21:24.57	76.80	21.34	-48.3	-50.5	15.0	0.00e+00	0	56	0	591396864	58	4895
2026-01-02 22:21:25.56	77.05	21.35	-48.2	-50.2	15.3	7.00e-07	0	56	0	593494016	58	4750
2026-01-02 22:21:26.55	77.31	21.35	-48.2	-50.3	15.2	0.00e+00	0	56	0	595591168	58	4776
2026-01-02 22:21:27.54	77.57	21.36	-48.2	-50.3	15.2	0.00e+00	0	56	0	596639744	58	4764
2026-01-02 22:21:28.51	77.82	21.37	-48.2	-50.2	15.3	0.00e+00	0	56	0	598736896	58	4757
2026-01-02 22:21:29.49	78.08	21.38	-48.5	-50.8	14.8	0.00e+00	0	56	0	600834048	58	5065
2026-01-02 22:21:30.48	78.34	21.39	-48.7	-51.1	14.4	0.00e+00	0	56	0	602931200	59	4966
2026-01-02 22:21:31.47	78.59	21.39	-48.8	-51.2	14.4	7.00e-07	0	56	0	603979776	59	5000
2026-01-02 22:21:32.46	78.85	21.40	-48.8	-51.3	14.2	1.50e-06	0	56	0	606076928	59	5050
2026-01-02 22:21:33.45	79.11	21.41	-48.8	-51.3	14.3	1.50e-06	0	56	0	608174080	59	5047
2026-01-02 22:21:34.43	79.37	21.41	-48.7	-51.1	14.5	7.00e-07	0	56	0	610271232	59	4934
2026-01-02 22:21:35.42	79.63	21.41	-48.9	-51.3	14.3	7.00e-07	0	56	0	612368384	59	5065
2026-01-02 22:21:36.41	79.88	21.42	-48.8	-51.2	14.2	1.50e-06	0	56	0	613416960	59	5041
2026-01-02 22:21:37.41	80.15	21.42	-48.5	-50.7	14.8	0.00e+00	0	56	0	615514112	59	4750
2026-01-02 22:21:38.40	80.40	21.42	-48.6	-50.8	14.7	7.00e-07	0	56	0	617611264	59	4813
2026-01-02 22:21:39.38	80.66	21.43	-48.6	-50.9	14.7	0.00e+00	0	56	0	619708416	59	4818
2026-01-02 22:21:40.36	80.92	21.43	-48.3	-50.4	15.1	0.00e+00	0	57	0	620756992	59	4563
2026-01-02 22:21:41.35	81.18	21.43	-48.3	-50.4	15.1	0.00e+00	0	56	0	622854144	59	4571
2026-01-02 22:21:42.33	81.43	21.43	-48.3	-50.5	15.1	0.00e+00	0	56	0	624951296	59	4620
2026-01-02 22:21:43.32	81.69	21.43	-48.5	-50.8	14.8	0.00e+00	0	56	0	627048448	59	4768
2026-01-02 22:21:44.31	81.95	21.43	-48.6	-50.9	14.6	0.00e+00	0	56	0	628097024	59	4869
2026-01-02 22:21:45.31	82.21	21.43	-48.8	-51.2	14.3	1.50e-06	0	56	0	630194176	59	5023
2026-01-02 22:21:46.29	82.47	21.42	-48.8	-51.3	14.2	2.20e-06	0	56	0	632291328	59	5091
2026-01-02 22:21:47.28	82.73	21.42	-48.5	-50.8	14.7	0.00e+00	0	56	0	634388480	59	4777
2026-01-02 22:21:48.27	82.99	21.42	-48.3	-50.4	15.1	0.00e+00	0	57	0	636485632	59	4567
2026-01-02 22:21:49.26	83.25	21.41	-48.3	-50.4	15.2	0.00e+00	0	56	0	637534208	59	4562
2026-01-02 22:21:50.25	83.50	21.41	-48.2	-50.3	15.2	0.00e+00	0	56	0	639631360	59	4501
2026-01-02 22:21:51.24	83.76	21.41	-48.2	-50.2	15.3	0.00e+00	0	56	0	641728512	59	4493
2026-01-02 22:21:52.23	84.02	21.40	-47.9	-50.0	15.6	0.00e+00	0	56	0	643825664	59	4349
2026-01-02 22:21:53.22	84.28	21.39	-47.8	-49.7	15.9	0.00e+00	0	56	0	644874240	58	4445
2026-01-02 22:21:54.21	84.54	21.39	-47.5	-49.4	16.1	0.00e+00	0	57	0	646971392	58	4305
2026-01-02 22:21:55.20	84.80	21.38	-47.6	-49.4	16.1	0.00e+00	0	56	0	649068544	58	4321
2026-01-02 22:21:56.19	85.05	21.37	-47.5	-49.3	16.2	0.00e+00	0	56	0	651165696	58	4255
2026-01-02 22:21:57.18	85.31	21.36	-47.7	-49.5	16.0	0.00e+00	0	56	0	652214272	58	4364
2026-01-02 22:21:58.17	85.57	21.35	-47.6	-49.4	16.2	0.00e+00	0	56	0	654311424	58	4298
2026-01-02 22:21:59.15	85.83	21.34	-47.8	-49.7	15.8	0.00e+00	0	56	0	656408576	58	4474
2026-01-02 22:22:00.14	86.08	21.33	-48.0	-49.9	15.5	0.00e+00	0	56	0	658505728	58	4588
2026-01-02 22:22:01.13	86.34	21.32	-47.9	-49.8	15.7	0.00e+00	0	56	0	660602880	58	4544
2026-01-02 22:22:02.11	86.60	21.31	-47.8	-49.8	15.7	0.00e+00	0	57	0	661651456	58	4528
2026-01-02 22:22:03.09	86.85	21.30	-47.7	-49.6	15.9	0.00e+00	0	56	0	663748608	58	4432
2026-01-02 22:22:04.09	87.11	21.29	-47.8	-49.8	15.7	0.00e+00	0	57	0	665845760	58	4497
2026-01-02 22:22:05.07	87.36	21.28	-47.8	-49.8	15.7	0.00e+00	0	57	0	667942912	58	4514
2026-01-02 22:22:06.06	87.62	21.26	-48.0	-50.0	15.6	0.00e+00	0	57	0	668991488	58	4608
2026-01-02 22:22:07.05	87.88	21.25	-48.0	-50.0	15.5	0.00e+00	0	57	0	671088640	58	4610
2026-01-02 22:22:08.04	88.13	21.23	-48.1	-50.2	15.4	0.00e+00	0	57	0	673185792	58	4724
2026-01-02 22:22:09.03	88.39	21.22	-48.3	-50.4	15.1	0.00e+00	0	57	0	675282944	58	4864
2026-01-02 22:22:10.02	88.64	21.20	-48.1	-50.2	15.4	0.00e+00	0	57	0	676331520	58	4710
2026-01-02 22:22:11.02	88.90	21.19	-48.0	-50.0	15.5	0.00e+00	0	56	0	678428672	58	4632
2026-01-02 22:22:12.01	89.16	21.17	-47.8	-49.7	15.8	0.00e+00	0	57	0	680525824	58	4487
2026-01-02 22:22:12.99	89.41	21.15	-47.9	-49.9	15.6	0.00e+00	0	56	0	682622976	58	4595
2026-01-02 22:22:13.98	89.66	21.13	-48.0	-49.9	15.6	0.00e+00	0	57	0	683671552	58	4595
2026-01-02 22:22:14.97	89.92	21.11	-48.2	-50.3	15.3	0.00e+00	0	57	0	685768704	58	4768
2026-01-02 22:22:15.95	90.17	21.10	-48.1	-50.1	15.3	0.00e+00	0	57	0	687865856	58	4704
2026-01-02 22:22:16.94	90.42	21.08	-48.2	-50.3	15.3	0.00e+00	0	57	0	689963008	58	4778
2026-01-02 22:22:17.93	90.68	21.06	-48.4	-50.6	14.8	0.00e+00	0	57	0	692060160	58	4976
2026-01-02 22:22:18.92	90.93	21.03	-48.1	-50.2	15.3	0.00e+00	0	57	0	693108736	58	4748
2026-01-02 22:22:19.91	91.18	21.01	-48.3	-50.5	15.1	0.00e+00	0	57	0	695205888	58	4891
2026-01-02 22:22:20.90	91.43	20.99	-48.3	-50.5	15.1	0.00e+00	0	56	0	697303040	58	4891
2026-01-02 22:22:21.89	91.69	20.97	-48.4	-50.6	14.9	7.00e-07	0	57	0	699400192	58	4970
2026-01-02 22:22:22.88	91.94	20.95	-48.5	-50.9	14.7	0.00e+00	0	57	0	700448768	59	4819
2026-01-02 22:22:23.87	92.19	20.92	-48.5	-50.7	14.8	7.00e-07	0	57	0	702545920	59	4748
2026-01-02 22:22:24.85	92.44	20.90	-48.5	-50.8	14.7	0.00e+00	0	57	0	704643072	59	4786
2026-01-02 22:22:25.85	92.69	20.87	-48.6	-50.9	14.6	0.00e+00	0	56	0	706740224	59	4855
2026-01-02 22:22:26.84	92.94	20.85	-48.3	-50.5	15.0	0.00e+00	0	57	0	707788800	59	4631
2026-01-02 22:22:27.82	93.19	20.82	-48.0	-50.1	15.4	0.00e+00	0	57	0	709885952	59	4408
2026-01-02 22:22:28.80	93.43	20.80	-47.8	-49.8	15.7	0.00e+00	0	57	0	711983104	58	4503
2026-01-02 22:22:29.79	93.68	20.77	-47.6	-49.5	16.0	0.00e+00	0	57	0	714080256	58	4368
2026-01-02 22:22:30.77	93.93	20.75	-47.6	-49.5	16.0	0.00e+00	0	57	0	716177408	58	4371
2026-01-02 22:22:31.76	94.18	20.72	-47.6	-49.5	16.0	0.00e+00	0	57	0	717225984	58	4364
2026-01-02 22:22:32.75	94.42	20.69	-47.8	-49.7	15.8	0.00e+00	0	57	0	719323136	58	4467
2026-01-02 22:22:33.74	94.67	20.66	-47.7	-49.6	15.9	0.00e+00	0	57	0	721420288	58	4438
2026-01-02 22:22:34.74	94.92	20.63	-47.8	-49.7	15.8	0.00e+00	0	57	0	723517440	58	4481
2026-01-02 22:22:35.72	95.16	20.60	-47.7	-49.7	15.8	0.00e+00	0	57	0	724566016	58	4469
2026-01-02 22:22:36.70	95.41	20.57	-47.4	-49.2	16.3	0.00e+00	0	57	0	726663168	57	4453
2026-01-02 22:22:37.69	95.65	20.54	-47.3	-49.1	16.4	0.00e+00	0	57	0	728760320	57	4406
2026-01-02 22:22:38.69	95.90	20.51	-47.2	-49.0	16.5	0.00e+00	0	57	0	730857472	57	4363
2026-01-02 22:22:39.67	96.14	20.48	-47.4	-49.2	16.3	0.00e+00	0	57	0	731906048	57	4450
2026-01-02 22:22:40.66	96.39	20.45	-47.3	-49.2	16.2	0.00e+00	0	57	0	734003200	57	4457
2026-01-02 22:22:41.65	96.63	20.42	-47.5	-49.4	16.1	0.00e+00	0	57	0	736100352	57	4583
2026-01-02 22:22:42.65	96.87	20.38	-47.8	-49.7	15.7	0.00e+00	0	57	0	738197504	57	4751
2026-01-02 22:22:43.64	97.12	20.35	-47.8	-49.8	15.7	0.00e+00	0	57	0	739246080	57	4770
2026-01-02 22:22:44.63	97.36	20.32	-47.8	-49.8	15.7	0.00e+00	0	57	0	741343232	57	4807
2026-01-02 22:22:45.61	97.60	20.28	-47.7	-49.6	15.9	0.00e+00	0	57	0	743440384	57	4696
2026-01-02 22:22:46.60	97.84	20.25	-47.6	-49.4	16.0	0.00e+00	0	57	0	745537536	57	4597
2026-01-02 22:22:47.59	98.08	20.21	-47.4	-49.2	16.3	0.00e+00	0	57	0	747634688	57	4445
2026-01-02 22:22:48.58	98.32	20.18	-47.4	-49.1	16.3	0.00e+00	0	57	0	748683264	57	4434
2026-01-02 22:22:49.57	98.56	20.14	-47.5	-49.3	16.2	0.00e+00	0	57	0	750780416	57	4512
2026-01-02 22:22:50.56	98.80	20.10	-47.5	-49.4	16.1	0.00e+00	0	57	0	752877568	57	4565
2026-01-02 22:22:51.54	99.03	20.07	-47.6	-49.4	16.1	0.00e+00	0	57	0	754974720	57	4590
2026-01-02 22:22:52.53	99.27	20.03	-47.6	-49.4	16.1	0.00e+00	0	57	0	756023296	57	4583
2026-01-02 22:22:53.53	99.51	19.99	-47.8	-49.7	15.8	0.00e+00	0	57	0	758120448	57	4732
2026-01-02 22:22:54.52	99.75	19.95	-47.7	-49.7	15.8	0.00e+00	0	57	0	760217600	57	4721
2026-01-02 22:22:55.50	99.98	19.92	-47.7	-49.6	15.8	0.00e+00	0	57	0	762314752	57	4703
2026-01-02 22:22:56.49	100.21	19.88	-47.7	-49.6	15.9	0.00e+00	0	57	0	763363328	57	4692
2026-01-02 22:22:57.48	100.45	19.84	-47.8	-49.8	15.7	0.00e+00	0	57	0	765460480	57	4800
2026-01-02 22:22:58.46	100.68	19.80	-47.7	-49.6	15.8	0.00e+00	0	57	0	767557632	57	4702
2026-01-02 22:22:59.46	100.92	19.76	-47.4	-49.3	16.2	0.00e+00	0	57	0	769654784	57	4494
2026-01-02 22:23:00.44	101.15	19.72	-47.4	-49.1	16.3	0.00e+00	0	57	0	771751936	57	4441
2026-01-02 22:23:01.44	101.38	19.68	-47.4	-49.3	16.2	0.00e+00	0	57	0	772800512	57	4507
2026-01-02 22:23:02.43	101.61	19.63	-47.5	-49.5	16.0	0.00e+00	0	57	0	774897664	57	4600
2026-01-02 22:23:03.42	101.84	19.59	-47.7	-49.6	15.9	0.00e+00	0	57	0	776994816	57	4665
2026-01-02 22:23:04.41	102.08	19.55	-47.8	-49.7	15.7	0.00e+00	0	57	0	779091968	57	4744
2026-01-02 22:23:05.40	102.31	19.51	-47.9	-49.9	15.6	0.00e+00	0	57	0	780140544	57	4847
2026-01-02 22:23:06.39	102.53	19.46	-48.0	-50.1	15.4	0.00e+00	0	57	0	782237696	57	4974
2026-01-02 22:23:07.38	102.76	19.42	-47.9	-50.0	15.4	0.00e+00	0	57	0	784334848	57	4897
2026-01-02 22:23:08.37	102.99	19.38	-48.0	-50.1	15.5	0.00e+00	0	57	0	786432000	58	4662
2026-01-02 22:23:09.36	103.22	19.33	-47.9	-49.9	15.5	0.00e+00	0	57	0	787480576	58	4594
2026-01-02 22:23:10.35	103.45	19.29	-47.7	-49.5	15.9	0.00e+00	0	57	0	789577728	58	4389
2026-01-02 22:23:11.34	103.67	19.24	-47.7	-49.6	15.9	0.00e+00	0	57	0	791674880	58	4393
2026-01-02 22:23:12.33	103.90	19.20	-47.6	-49.4	16.0	0.00e+00	0	57	0	793772032	58	4336
2026-01-02 22:23:13.31	104.12	19.15	-47.4	-49.3	16.2	0.00e+00	0	57	0	795869184	58	4250
2026-01-02 22:23:14.30	104.34	19.11	-47.3	-49.3	16.2	0.00e+00	0	57	0	796917760	57	4504
2026-01-02 22:23:15.30	104.57	19.06	-47.4	-49.3	16.2	0.00e+00	0	57	0	799014912	57	4496
2026-01-02 22:23:16.29	104.79	19.01	-47.6	-49.5	16.0	0.00e+00	0	57	0	801112064	57	4621
2026-01-02 22:23:17.29	105.02	18.97	-47.7	-49.8	15.6	0.00e+00	0	57	0	803209216	57	4805
2026-01-02 22:23:18.28	105.24	18.92	-47.9	-50.0	15.5	0.00e+00	0	57	0	804257792	57	4882
2026-01-02 22:23:19.27	105.46	18.87	-48.1	-50.4	15.1	0.00e+00	0	57	0	806354944	58	4842
2026-01-02 22:23:20.26	105.68	18.82	-48.3	-50.8	14.7	0.00e+00	0	57	0	808452096	58	5069
2026-01-02 22:23:21.25	105.90	18.78	-48.8	-51.4	14.0	7.00e-07	0	57	0	810549248	59	5122
2026-01-02 22:23:22.24	106.12	18.73	-48.8	-51.5	14.0	1.50e-06	0	57	0	812646400	59	5176
2026-01-02 22:23:23.22	106.33	18.68	-48.8	-51.5	13.9	2.20e-06	0	57	0	813694976	59	5197
2026-01-02 22:23:24.21	106.55	18.63	-48.9	-51.6	13.9	4.50e-06	0	57	0	815792128	59	5222
2026-01-02 22:23:25.20	106.77	18.58	-48.7	-51.4	14.1	6.10e-06	0	57	0	817889280	59	5116
2026-01-02 22:23:26.20	106.99	18.53	-49.0	-51.7	13.8	5.30e-06	0	57	0	819986432	59	5301
2026-01-02 22:23:27.19	107.20	18.48	-49.0	-51.8	13.7	6.10e-06	0	57	0	821035008	60	5045
2026-01-02 22:23:28.18	107.42	18.43	-48.8	-51.5	14.0	3.80e-06	0	57	0	823132160	60	4906
2026-01-02 22:23:29.16	107.63	18.38	-48.7	-51.5	14.0	2.20e-06	0	57	0	825229312	60	4885
2026-01-02 22:23:30.15	107.84	18.33	-49.1	-51.9	13.6	6.10e-06	0	57	0	827326464	60	5134
2026-01-02 22:23:31.15	108.06	18.28	-49.0	-51.8	13.6	1.22e-05	0	57	0	828375040	60	5074
2026-01-02 22:23:32.14	108.27	18.23	-49.0	-51.8	13.6	7.60e-06	0	57	0	830472192	60	5067
2026-01-02 22:23:33.12	108.48	18.18	-48.8	-51.5	13.9	3.00e-06	0	57	0	832569344	60	4900
2026-01-02 22:23:34.10	108.68	18.13	-48.8	-51.4	14.1	4.50e-06	0	57	0	834666496	60	4826
2026-01-02 22:23:35.10	108.90	18.07	-48.5	-51.1	14.4	1.50e-06	0	57	0	835715072	60	4654
2026-01-02 22:23:36.09	109.11	18.02	-48.7	-51.3	14.2	2.20e-06	0	57	0	837812224	60	4770
2026-01-02 22:23:37.08	109.31	17.97	-48.6	-51.1	14.4	0.00e+00	0	57	0	839909376	60	4665
2026-01-02 22:23:38.07	109.52	17.91	-48.8	-51.4	14.1	7.00e-07	0	57	0	842006528	60	4815
2026-01-02 22:23:39.06	109.73	17.86	-48.6	-51.2	14.2	1.50e-06	0	57	0	844103680	60	4728
2026-01-02 22:23:40.04	109.93	17.81	-48.6	-51.0	14.4	0.00e+00	0	57	0	845152256	60	4640
2026-01-02 22:23:41.03	110.14	17.75	-48.7	-51.2	14.2	7.00e-07	0	57	0	847249408	60	4757
2026-01-02 22:23:42.02	110.34	17.70	-48.9	-51.7	13.8	1.50e-06	0	57	0	849346560	60	4985
2026-01-02 22:23:43.02	110.55	17.65	-49.0	-51.9	13.6	6.10e-06	0	57	0	851443712	60	5102
2026-01-02 22:23:44.01	110.75	17.59	-49.1	-52.1	13.3	1.06e-05	0	57	0	853540864	60	5278
2026-01-02 22:23:45.00	110.96	17.54	-49.1	-52.0	13.3	1.83e-05	0	57	0	854589440	60	5212
2026-01-02 22:23:45.99	111.16	17.48	-49.3	-52.4	13.0	2.13e-05	0	57	0	856686592	60	5464
2026-01-02 22:23:46.98	111.36	17.43	-49.1	-52.0	13.4	3.05e-05	0	57	0	858783744	60	5197
2026-01-02 22:23:47.97	111.56	17.37	-49.1	-52.0	13.4	1.06e-05	0	57	0	860880896	60	5188
2026-01-02 22:23:48.95	111.76	17.32	-49.1	-52.0	13.4	1.52e-05	0	57	0	861929472	60	5192
2026-01-02 22:23:49.94	111.96	17.26	-48.8	-51.5	13.9	6.80e-06	0	57	0	864026624	60	4918
2026-01-02 22:23:50.93	112.16	17.21	-48.6	-51.1	14.4	3.00e-06	0	57	0	866123776	60	4657
2026-01-02 22:23:51.91	112.35	17.15	-48.5	-51.0	14.5	0.00e+00	0	57	0	868220928	60	4621
2026-01-02 22:23:52.90	112.55	17.09	-48.5	-51.0	14.5	0.00e+00	0	57	0	869269504	60	4627
2026-01-02 22:23:53.89	112.75	17.04	-48.6	-51.2	14.4	2.20e-06	0	57	0	871366656	60	4706
2026-01-02 22:23:54.88	112.94	16.98	-48.9	-51.5	14.0	1.50e-06	0	57	0	873463808	60	4913
2026-01-02 22:23:55.87	113.14	16.92	-48.9	-51.7	13.8	2.20e-06	0	57	0	875560960	60	4987
2026-01-02 22:23:56.86	113.33	16.87	-48.9	-51.7	13.7	2.20e-06	0	57	0	876609536	60	5015
2026-01-02 22:23:57.85	113.52	16.81	-48.9	-51.6	13.9	4.50e-06	0	57	0	878706688	60	4949
2026-01-02 22:23:58.83	113.71	16.75	-48.7	-51.2	14.2	3.80e-06	0	57	0	880803840	60	4753
2026-01-02 22:23:59.82	113.91	16.70	-48.5	-51.0	14.5	7.00e-07	0	57	0	882900992	60	4639
2026-01-02 22:24:00.82	114.10	16.64	-48.7	-51.3	14.1	7.00e-07	0	57	0	884998144	60	4791
2026-01-02 22:24:01.81	114.29	16.58	-48.4	-50.8	14.6	7.00e-07	0	57	0	886046720	60	4531
2026-01-02 22:24:02.80	114.48	16.52	-48.4	-50.7	14.8	7.00e-07	0	57	0	888143872	59	4709
2026-01-02 22:24:03.80	114.67	16.46	-48.3	-50.5	15.0	7.00e-07	0	57	0	890241024	59	4612
2026-01-02 22:24:04.78	114.86	16.41	-48.3	-50.6	14.8	0.00e+00	0	57	0	892338176	59	4673
2026-01-02 22:24:05.77	115.05	16.35	-48.5	-50.9	14.5	0.00e+00	0	57	0	893386752	59	4841
2026-01-02 22:24:06.76	115.23	16.29	-48.4	-50.7	14.7	7.00e-07	0	57	0	895483904	59	4735
2026-01-02 22:24:07.75	115.42	16.23	-48.3	-50.6	14.9	7.00e-07	0	57	0	897581056	59	4665
2026-01-02 22:24:08.73	115.60	16.17	-48.3	-50.5	14.9	7.00e-07	0	57	0	899678208	59	4635
2026-01-02 22:24:09.72	115.79	16.11	-48.3	-50.6	14.9	0.00e+00	0	57	0	900726784	59	4657
2026-01-02 22:24:10.71	115.97	16.05	-48.2	-50.6	14.9	0.00e+00	0	57	0	902823936	59	4652
2026-01-02 22:24:11.70	116.16	15.99	-48.3	-50.6	14.8	0.00e+00	0	57	0	904921088	59	4688
2026-01-02 22:24:12.69	116.34	15.94	-48.7	-51.2	14.2	7.00e-07	0	57	0	907018240	59	5020
2026-01-02 22:24:13.69	116.52	15.88	-48.8	-51.5	14.0	7.00e-07	0	57	0	909115392	59	5162
2026-01-02 22:24:14.67	116.70	15.82	-49.0	-51.7	13.7	1.50e-06	0	57	0	910163968	59	5322
2026-01-02 22:24:15.66	116.88	15.76	-49.1	-51.8	13.7	5.30e-06	0	57	0	912261120	59	5363
2026-01-02 22:24:16.64	117.06	15.70	-48.8	-51.2	14.2	2.20e-06	0	57	0	914358272	59	5031
2026-01-02 22:24:17.62	117.24	15.64	-48.5	-50.9	14.5	0.00e+00	0	57	0	916455424	59	4845
2026-01-02 22:24:18.61	117.42	15.58	-48.5	-50.7	14.6	0.00e+00	0	57	0	917504000	59	4740
2026-01-02 22:24:19.60	117.60	15.52	-48.4	-50.7	14.8	0.00e+00	0	57	0	919601152	59	4730
2026-01-02 22:24:20.59	117.77	15.46	-48.5	-50.8	14.6	1.50e-06	0	57	0	921698304	59	4794
2026-01-02 22:24:21.57	117.95	15.40	-48.2	-50.4	15.1	0.00e+00	0	57	0	923795456	59	4553
2026-01-02 22:24:22.56	118.13	15.34	-48.2	-50.4	15.1	0.00e+00	0	57	0	924844032	59	4551
2026-01-02 22:24:23.55	118.30	15.28	-48.3	-50.6	14.8	0.00e+00	0	57	0	926941184	59	4656
2026-01-02 22:24:24.55	118.48	15.21	-48.5	-50.9	14.6	7.00e-07	0	57	0	929038336	59	4830
2026-01-02 22:24:25.54	118.65	15.15	-48.7	-51.1	14.3	7.00e-07	0	57	0	931135488	59	4975
2026-01-02 22:24:26.53	118.82	15.09	-48.8	-51.3	14.1	1.50e-06	0	57	0	932184064	59	5100
2026-01-02 22:24:27.52	119.00	15.03	-48.7	-51.2	14.2	7.00e-07	0	57	0	934281216	59	5028
2026-01-02 22:24:28.50	119.17	14.97	-48.9	-51.4	14.1	3.80e-06	0	57	0	936378368	59	5126
2026-01-02 22:24:29.49	119.34	14.91	-48.7	-51.2	14.2	7.00e-07	0	57	0	938475520	59	5035
2026-01-02 22:24:30.48	119.51	14.85	-48.8	-51.3	14.2	7.00e-07	0	57	0	940572672	59	5046
2026-01-02 22:24:31.46	119.68	14.79	-48.8	-51.3	14.1	0.00e+00	0	57	0	941621248	59	5053
2026-01-02 22:24:32.45	119.85	14.73	-48.8	-51.3	14.1	0.00e+00	0	57	0	943718400	59	5065
2026-01-02 22:24:33.44	120.01	14.67	-49.0	-51.8	13.6	3.00e-06	0	57	0	945815552	60	5073
2026-01-02 22:24:34.43	120.18	14.60	-49.1	-52.0	13.3	1.06e-05	0	57	0	947912704	60	5192
2026-01-02 22:24:35.41	120.35	14.54	-49.3	-52.3	13.1	3.73e-05	0	57	0	948961280	60	5352
2026-01-02 22:24:36.40	120.51	14.48	-49.2	-52.2	13.2	2.51e-05	0	57	0	951058432	60	5289
2026-01-02 22:24:37.39	120.68	14.42	-49.2	-52.2	13.2	3.89e-05	0	57	0	953155584	60	5320
2026-01-02 22:24:38.38	120.84	14.36	-48.8	-51.4	14.0	1.37e-05	0	57	0	955252736	60	4868
2026-01-02 22:24:39.37	121.01	14.30	-48.4	-50.7	14.7	0.00e+00	0	57	0	956301312	59	4752
2026-01-02 22:24:40.35	121.17	14.23	-48.2	-50.4	15.1	0.00e+00	0	57	0	958398464	59	4551
2026-01-02 22:24:41.35	121.34	14.17	-47.9	-50.0	15.4	0.00e+00	0	57	0	960495616	59	4368
2026-01-02 22:24:42.34	121.50	14.11	-47.9	-49.9	15.4	0.00e+00	0	57	0	962592768	58	4590
2026-01-02 22:24:43.33	121.66	14.05	-47.9	-49.9	15.4	0.00e+00	0	57	0	964689920	58	4597
2026-01-02 22:24:44.32	121.82	13.99	-47.9	-50.0	15.4	0.00e+00	0	57	0	965738496	58	4601
2026-01-02 22:24:45.32	121.98	13.92	-48.2	-50.4	15.0	0.00e+00	0	57	0	967835648	58	4854
2026-01-02 22:24:46.30	122.14	13.86	-48.4	-50.6	14.8	0.00e+00	0	57	0	969932800	58	4977
2026-01-02 22:24:47.29	122.30	13.80	-47.9	-50.0	15.4	0.00e+00	0	57	0	972029952	58	4648
2026-01-02 22:24:48.29	122.46	13.74	-47.8	-49.8	15.6	0.00e+00	0	57	0	973078528	58	4509
2026-01-02 22:24:49.28	122.62	13.67	-47.7	-49.6	15.8	0.00e+00	0	57	0	975175680	58	4395
2026-01-02 22:24:50.26	122.78	13.61	-47.3	-49.1	16.3	0.00e+00	0	57	0	977272832	57	4405
2026-01-02 22:24:51.25	122.93	13.55	-47.4	-49.2	16.1	0.00e+00	0	57	0	979369984	57	4470
2026-01-02 22:24:52.24	123.09	13.49	-47.3	-49.1	16.3	0.00e+00	0	57	0	980418560	57	4405
2026-01-02 22:24:53.23	123.24	13.42	-47.3	-49.0	16.4	0.00e+00	0	57	0	982515712	57	4380
2026-01-02 22:24:54.22	123.40	13.36	-47.4	-49.2	16.1	0.00e+00	0	57	0	984612864	57	4480
2026-01-02 22:24:55.20	123.55	13.30	-47.5	-49.4	16.0	0.00e+00	0	57	0	986710016	57	4566
2026-01-02 22:24:56.19	123.70	13.24	-47.9	-50.0	15.4	0.00e+00	0	57	0	988807168	57	4881
2026-01-02 22:24:57.18	123.86	13.17	-48.1	-50.3	15.1	0.00e+00	0	57	0	989855744	58	4802
2026-01-02 22:24:58.17	124.01	13.11	-48.3	-50.5	14.9	7.00e-07	0	57	0	991952896	58	4905
2026-01-02 22:24:59.16	124.16	13.05	-48.4	-50.7	14.6	0.00e+00	0	57	0	994050048	58	5028
2026-01-02 22:25:00.15	124.31	12.99	-48.3	-50.6	14.8	0.00e+00	0	57	0	996147200	58	4935
2026-01-02 22:25:01.14	124.46	12.92	-48.2	-50.4	15.0	0.00e+00	0	57	0	997195776	58	4823
2026-01-02 22:25:02.13	124.61	12.86	-48.2	-50.5	14.8	0.00e+00	0	57	0	999292928	58	4915
2026-01-02 22:25:03.12	124.76	12.80	-48.2	-50.5	15.0	0.00e+00	0	57	0	1001390080	58	4888
2026-01-02 22:25:04.11	124.91	12.74	-48.4	-50.6	14.8	0.00e+00	0	57	0	1003487232	58	4975
2026-01-02 22:25:05.10	125.06	12.67	-48.5	-50.8	14.5	1.50e-06	0	57	0	1004535808	58	5096
2026-01-02 22:25:06.09	125.21	12.61	-48.4	-50.7	14.6	7.00e-07	0	57	0	1006632960	58	5018
2026-01-02 22:25:07.09	125.35	12.55	-48.6	-51.1	14.2	1.50e-06	0	57	0	1008730112	59	4974
2026-01-02 22:25:08.08	125.50	12.48	-48.7	-51.2	14.2	7.00e-07	0	57	0	1010827264	59	4998
2026-01-02 22:25:09.07	125.64	12.42	-48.7	-51.3	14.1	2.20e-06	0	57	0	1012924416	59	5059
2026-01-02 22:25:10.07	125.79	12.36	-48.8	-51.2	14.2	1.50e-06	0	57	0	1013972992	59	5017
2026-01-02 22:25:11.06	125.94	12.29	-48.6	-51.0	14.4	7.00e-07	0	57	0	1016070144	59	4914
2026-01-02 22:25:12.05	126.08	12.23	-48.7	-51.0	14.4	0.00e+00	0	57	0	1018167296	59	4894
2026-01-02 22:25:13.05	126.22	12.17	-48.3	-50.4	15.0	0.00e+00	0	57	0	1020264448	59	4588
2026-01-02 22:25:14.04	126.37	12.11	-48.0	-49.9	15.4	0.00e+00	0	57	0	1021313024	59	4324
2026-01-02 22:25:15.03	126.51	12.04	-47.9	-49.9	15.5	0.00e+00	0	57	0	1023410176	58	4556
2026-01-02 22:25:16.02	126.65	11.98	-47.9	-49.8	15.6	0.00e+00	0	57	0	1025507328	58	4541
2026-01-02 22:25:17.01	126.79	11.92	-48.2	-50.2	15.2	0.00e+00	0	57	0	1027604480	58	4736
2026-01-02 22:25:18.00	126.93	11.85	-48.0	-50.0	15.4	0.00e+00	0	57	0	1028653056	58	4622
2026-01-02 22:25:18.98	127.07	11.79	-48.1	-50.2	15.2	7.00e-07	0	57	0	1030750208	58	4752
2026-01-02 22:25:19.97	127.21	11.73	-48.5	-50.8	14.7	0.00e+00	0	57	0	1032847360	58	5050
2026-01-02 22:25:20.96	127.35	11.67	-48.4	-50.7	14.7	7.00e-07	0	57	0	1034944512	58	4985
2026-01-02 22:25:21.94	127.48	11.61	-48.6	-50.9	14.5	0.00e+00	0	57	0	1037041664	59	4861
2026-01-02 22:25:22.93	127.62	11.54	-48.6	-50.8	14.6	7.00e-07	0	57	0	1038090240	59	4800
2026-01-02 22:25:23.92	127.76	11.48	-48.7	-51.0	14.4	0.00e+00	0	57	0	1040187392	59	4902
2026-01-02 22:25:24.91	127.89	11.42	-48.9	-51.4	14.0	1.50e-06	0	57	0	1042284544	59	5121
2026-01-02 22:25:25.90	128.03	11.35	-48.9	-51.4	14.0	1.50e-06	0	57	0	1044381696	59	5144
2026-01-02 22:25:26.89	128.16	11.29	-49.1	-51.6	13.7	1.50e-06	0	57	0	1045430272	59	5278
2026-01-02 22:25:27.89	128.30	11.23	-49.0	-51.6	13.8	6.80e-06	0	57	0	1047527424	59	5247
2026-01-02 22:25:28.88	128.43	11.17	-49.1	-51.7	13.6	4.50e-06	0	57	0	1049624576	60	5029
2026-01-02 22:25:29.87	128.57	11.10	-49.1	-51.9	13.5	8.30e-06	0	57	0	1051721728	60	5126
2026-01-02 22:25:30.86	128.70	11.04	-49.4	-52.5	12.9	1.44e-05	0	57	0	1052770304	60	5479
2026-01-02 22:25:31.84	128.83	10.98	-49.3	-52.2	13.1	3.28e-05	0	57	0	1054867456	61	5024
2026-01-02 22:25:32.83	128.96	10.92	-49.3	-52.2	13.2	4.42e-05	0	57	0	1056964608	61	5002
2026-01-02 22:25:33.81	129.09	10.86	-49.4	-52.3	13.1	3.28e-05	0	57	0	1059061760	61	5048
2026-01-02 22:25:34.80	129.22	10.79	-49.4	-52.3	13.0	3.20e-05	0	57	0	1061158912	61	5094
2026-01-02 22:25:35.79	129.35	10.73	-49.3	-52.1	13.2	2.67e-05	0	57	0	1062207488	61	4983
2026-01-02 22:25:36.78	129.48	10.67	-49.0	-51.6	13.7	7.60e-06	0	57	0	1064304640	61	4703
2026-01-02 22:25:37.77	129.61	10.61	-48.8	-51.3	14.0	7.00e-07	0	57	0	1066401792	60	4812
2026-01-02 22:25:38.76	129.74	10.54	-48.6	-51.0	14.3	1.50e-06	0	57	0	1068498944	60	4625
2026-01-02 22:25:39.74	129.87	10.48	-48.4	-50.8	14.5	1.50e-06	0	57	0	1069547520	60	4510
2026-01-02 22:25:40.74	130.00	10.42	-48.4	-50.7	14.6	0.00e+00	0	57	0	1071644672	60	4485
2026-01-02 22:25:41.74	130.13	10.36	-48.4	-50.6	14.7	0.00e+00	0	57	0	1073741824	59	4703
2026-01-02 22:25:42.71	130.25	10.30	-48.1	-50.2	15.1	7.00e-07	0	57	0	1075838976	59	4473
2026-01-02 22:25:43.70	130.38	10.23	-48.1	-50.2	15.1	0.00e+00	0	57	0	1076887552	59	4457
2026-01-02 22:25:44.69	130.50	10.17	-48.2	-50.3	15.0	0.00e+00	0	57	0	1078984704	59	4545
2026-01-02 22:25:45.68	130.63	10.11	-48.4	-50.7	14.7	0.00e+00	0	57	0	1081081856	59	4727
2026-01-02 22:25:46.66	130.75	10.05	-48.5	-50.8	14.5	7.00e-07	0	57	0	1083179008	59	4806
2026-01-02 22:25:47.65	130.87	9.99	-48.7	-51.2	14.2	7.00e-07	0	57	0	1085276160	59	5006
2026-01-02 22:25:48.64	131.00	9.92	-48.7	-51.2	14.1	1.50e-06	0	57	0	1086324736	59	5009
2026-01-02 22:25:49.63	131.12	9.86	-48.8	-51.3	14.1	0.00e+00	0	57	0	1088421888	59	5049
2026-01-02 22:25:50.62	131.24	9.80	-48.8	-51.3	14.0	2.20e-06	0	57	0	1090519040	59	5054
2026-01-02 22:25:51.61	131.36	9.74	-48.9	-51.5	13.8	2.20e-06	0	57	0	1092616192	59	5186
2026-01-02 22:25:52.59	131.49	9.68	-49.0	-51.6	13.7	7.60e-06	0	57	0	1093664768	59	5262
2026-01-02 22:25:53.58	131.61	9.62	-48.9	-51.6	13.7	5.30e-06	0	57	0	1095761920	59	5243
2026-01-02 22:25:54.57	131.73	9.55	-49.0	-51.7	13.6	6.80e-06	0	57	0	1097859072	60	5015
2026-01-02 22:25:55.56	131.85	9.49	-49.0	-51.7	13.6	9.10e-06	0	57	0	1099956224	60	4987
2026-01-02 22:25:56.55	131.97	9.43	-49.1	-51.9	13.4	1.14e-05	0	57	0	1101004800	60	5123
2026-01-02 22:25:57.54	132.09	9.37	-49.2	-52.0	13.3	9.10e-06	0	57	0	1103101952	60	5171
2026-01-02 22:25:58.53	132.20	9.31	-49.3	-52.2	13.1	2.44e-05	0	57	0	1105199104	60	5284
2026-01-02 22:25:59.52	132.32	9.25	-49.3	-52.3	13.0	4.65e-05	0	57	0	1107296256	60	5346
2026-01-02 22:26:00.51	132.44	9.18	-49.4	-52.5	12.7	5.26e-05	0	57	0	1109393408	60	5515
2026-01-02 22:26:01.50	132.56	9.12	-49.6	-52.7	12.6	1.17e-04	0	57	0	1110441984	61	5308
2026-01-02 22:26:02.49	132.67	9.06	-49.5	-52.6	12.6	7.78e-05	0	57	0	1112539136	61	5265
2026-01-02 22:26:03.48	132.79	9.00	-49.5	-52.7	12.6	8.92e-05	0	57	0	1114636288	61	5284
2026-01-02 22:26:04.46	132.90	8.94	-49.5	-52.5	12.8	8.77e-05	0	57	0	1116733440	61	5184
2026-01-02 22:26:05.46	133.02	8.88	-49.5	-52.6	12.7	5.64e-05	0	57	0	1117782016	61	5231
2026-01-02 22:26:06.45	133.14	8.82	-49.5	-52.6	12.6	7.17e-05	0	57	0	1119879168	61	5279
2026-01-02 22:26:07.44	133.25	8.76	-49.5	-52.5	12.6	1.01e-04	0	57	0	1121976320	61	5215
2026-01-02 22:26:08.43	133.36	8.69	-49.5	-52.6	12.6	1.28e-04	0	57	0	1124073472	61	5238
2026-01-02 22:26:09.42	133.48	8.63	-49.3	-52.1	13.1	5.18e-05	0	57	0	1125122048	61	4963
2026-01-02 22:26:10.41	133.59	8.57	-49.0	-51.8	13.4	1.29e-05	0	57	0	1127219200	61	4772
2026-01-02 22:26:11.41	133.70	8.51	-49.0	-51.7	13.6	7.60e-06	0	57	0	1129316352	61	4712
2026-01-02 22:26:12.40	133.82	8.45	-48.8	-51.4	13.8	6.10e-06	0	57	0	1131413504	60	4851
2026-01-02 22:26:13.39	133.93	8.39	-48.9	-51.5	13.7	6.80e-06	0	57	0	1133510656	60	4886
2026-01-02 22:26:14.38	134.04	8.33	-48.9	-51.6	13.6	6.10e-06	0	57	0	1134559232	60	4964
2026-01-02 22:26:15.37	134.15	8.27	-49.1	-51.9	13.3	9.10e-06	0	57	0	1136656384	60	5123
2026-01-02 22:26:16.36	134.26	8.21	-49.3	-52.3	12.9	4.11e-05	0	57	0	1138753536	60	5350
2026-01-02 22:26:17.35	134.37	8.15	-49.2	-52.0	13.1	2.59e-05	0	57	0	1140850688	60	5198
2026-01-02 22:26:18.35	134.48	8.09	-49.4	-52.4	12.8	2.82e-05	0	57	0	1141899264	60	5447
2026-01-02 22:26:19.33	134.59	8.03	-49.6	-52.8	12.4	1.17e-04	0	57	0	1143996416	60	5662
2026-01-02 22:26:20.32	134.70	7.97	-49.3	-52.3	12.9	5.18e-05	0	57	0	1146093568	60	5365
2026-01-02 22:26:21.31	134.81	7.91	-49.3	-52.3	12.9	4.34e-05	0	57	0	1148190720	60	5374
2026-01-02 22:26:22.30	134.91	7.85	-49.4	-52.5	12.6	9.15e-05	0	57	0	1149239296	60	5514
2026-01-02 22:26:23.29	135.02	7.79	-49.2	-52.1	13.0	6.25e-05	0	57	0	1151336448	60	5258
2026-01-02 22:26:24.28	135.13	7.73	-49.2	-52.2	12.9	3.35e-05	0	57	0	1153433600	60	5302
2026-01-02 22:26:25.26	135.23	7.67	-49.2	-52.1	13.0	5.26e-05	0	57	0	1155530752	60	5265
2026-01-02 22:26:26.25	135.34	7.61	-49.2	-52.1	13.1	3.50e-05	0	57	0	1157627904	60	5227
2026-01-02 22:26:27.24	135.44	7.55	-49.1	-52.0	13.1	2.82e-05	0	57	0	1158676480	60	5175
2026-01-02 22:26:28.23	135.55	7.49	-49.2	-52.0	13.1	4.04e-05	0	57	0	1160773632	60	5217
2026-01-02 22:26:29.22	135.65	7.43	-49.0	-51.8	13.4	1.83e-05	0	57	0	1162870784	60	5051
2026-01-02 22:26:30.21	135.76	7.37	-49.0	-51.9	13.2	2.13e-05	0	57	0	1164967936	60	5151
2026-01-02 22:26:31.19	135.86	7.31	-48.9	-51.7	13.4	2.59e-05	0	57	0	1166016512	60	5023
2026-01-02 22:26:32.18	135.97	7.25	-49.3	-52.3	12.8	3.28e-05	0	57	0	1168113664	60	5381
2026-01-02 22:26:33.17	136.07	7.19	-49.3	-52.4	12.7	7.55e-05	0	57	0	1170210816	60	5406
2026-01-02 22:26:34.16	136.17	7.13	-49.1	-52.3	12.8	5.41e-05	0	57	0	1172307968	60	5347
2026-01-02 22:26:35.15	136.27	7.07	-49.4	-52.6	12.5	1.04e-04	0	57	0	1173356544	60	5544
2026-01-02 22:26:36.14	136.38	7.01	-49.2	-52.3	12.7	1.04e-04	0	57	0	1175453696	60	5376
2026-01-02 22:26:37.13	136.48	6.95	-49.4	-52.5	12.6	8.46e-05	0	57	0	1177550848	60	5504
2026-01-02 22:26:38.12	136.58	6.89	-49.6	-53.0	12.1	1.76e-04	0	57	0	1179648000	61	5476
2026-01-02 22:26:39.11	136.68	6.83	-49.3	-52.5	12.6	1.40e-04	0	57	0	1181745152	61	5179
2026-01-02 22:26:40.10	136.78	6.77	-49.7	-53.1	12.0	1.85e-04	0	57	0	1182793728	61	5576
2026-01-02 22:26:41.09	136.88	6.71	-49.5	-52.8	12.2	2.75e-04	0	57	0	1184890880	61	5373
2026-01-02 22:26:42.08	136.98	6.66	-49.6	-52.9	12.1	1.96e-04	0	57	0	1186988032	61	5456
2026-01-02 22:26:43.07	137.08	6.60	-49.9	-53.7	11.3	6.64e-04	0	57	0	1189085184	61	5962
2026-01-02 22:26:44.05	137.18	6.54	-49.6	-53.1	11.9	6.55e-04	0	57	0	1190133760	61	5587
2026-01-02 22:26:45.04	137.27	6.48	-49.2	-52.5	12.5	2.04e-04	0	58	0	1192230912	61	5195
2026-01-02 22:26:46.04	137.37	6.42	-49.3	-52.3	12.7	1.23e-04	0	57	0	1194328064	61	5091
2026-01-02 22:26:47.02	137.47	6.36	-49.0	-52.0	13.0	3.96e-05	0	57	0	1196425216	61	4904
2026-01-02 22:26:48.01	137.57	6.30	-49.1	-52.0	13.0	2.74e-05	0	57	0	1197473792	61	4910
2026-01-02 22:26:49.00	137.66	6.25	-49.2	-52.3	12.7	5.49e-05	0	57	0	1199570944	61	5079
2026-01-02 22:26:49.98	137.76	6.19	-49.1	-52.2	12.8	5.41e-05	0	57	0	1201668096	61	5024
2026-01-02 22:26:50.97	137.86	6.13	-49.2	-52.4	12.6	7.09e-05	0	57	0	1203765248	61	5121
2026-01-02 22:26:51.97	137.95	6.07	-49.3	-52.5	12.5	8.31e-05	0	57	0	1205862400	61	5203
2026-01-02 22:26:52.95	138.05	6.01	-49.4	-52.6	12.4	1.01e-04	0	57	0	1206910976	61	5233
2026-01-02 22:26:53.95	138.14	5.95	-49.7	-53.1	11.8	4.40e-04	0	57	0	1209008128	61	5585
2026-01-02 22:26:54.94	138.24	5.90	-49.5	-52.9	12.1	4.04e-04	0	57	0	1211105280	61	5406
2026-01-02 22:26:55.92	138.33	5.84	-49.7	-53.2	11.8	3.19e-04	0	57	0	1213202432	61	5613
2026-01-02 22:26:56.90	138.43	5.78	-49.9	-53.8	11.2	1.05e-03	0	57	0	1214251008	61	6015
2026-01-02 22:26:57.89	138.52	5.72	-49.8	-53.5	11.4	1.18e-03	0	57	0	1216348160	61	5828
2026-01-02 22:26:58.88	138.61	5.66	-49.9	-53.8	11.1	1.46e-03	0	57	0	1218445312	61	6000
2026-01-02 22:26:59.88	138.71	5.61	-50.1	-54.2	10.6	2.05e-03	0	57	0	1220542464	62	5964
2026-01-02 22:27:00.86	138.80	5.55	-50.0	-54.0	10.9	2.63e-03	0	57	0	1221591040	62	5801
2026-01-02 22:27:01.85	138.89	5.49	-50.0	-54.2	10.7	2.84e-03	0	57	0	1223688192	62	5929
2026-01-02 22:27:02.84	138.98	5.43	-50.0	-54.1	10.8	3.27e-03	0	57	0	1225785344	62	5899
