passes_logs/2026/01/02/R3.0SM8_Murmansk_STILSPACE/R3.0SM8_Murmansk_STILSPACE__20260102_071344_NOAA_20_JPSS-1_rec.log

#Pass ID: 20260102_071344_NOAA 20 (JPSS-1)
#Satellite: NOAA 20 (JPSS-1)
#Configuration: NOAA 20
#almurnet v.1.7.20240730
#Start time: 2026-01-02 07:14:15

#Version: 2.2.20231116
#Station: R3.0SM8_Murmansk_STILSPACE
#Location: 33.092731 lon 68.902999 lat
#TLE: 1 43013U 17073A   26001.30344297  .00000183  00000+0  10758-3 0  9995
#TLE: 2 43013  98.7621 302.3885 0001938  59.1624 300.9742 14.19532032420790

#Time	Az	El	Level	Level2	SNR	BER	BlckErr	Temp	State	Recorded	gain1	gain2
2026-01-02 07:14:15.06	97.25	4.92	-54.4	-74.3	3.8	7.45e-01	0	56	0	0	71	36863
2026-01-02 07:14:16.04	97.19	4.99	-52.6	-66.5	3.8	1.49e+00	0	57	104	0	68	17444
2026-01-02 07:14:17.04	97.13	5.05	-52.7	-66.5	3.8	1.49e+00	0	57	104	0	68	17447
2026-01-02 07:14:18.03	97.08	5.12	-52.6	-66.5	3.8	1.49e+00	0	57	104	0	68	17472
2026-01-02 07:14:19.01	97.02	5.18	-52.7	-66.5	3.8	1.49e+00	0	57	104	0	68	17427
2026-01-02 07:14:20.00	96.96	5.25	-52.7	-66.5	3.8	1.49e+00	0	57	104	0	68	17437
2026-01-02 07:14:20.98	96.90	5.31	-52.7	-66.6	3.8	1.49e+00	0	57	104	0	68	17490
2026-01-02 07:14:21.97	96.84	5.38	-52.7	-66.5	3.8	1.49e+00	0	57	104	0	68	17445
2026-01-02 07:14:22.96	96.78	5.45	-52.7	-66.5	3.8	1.49e+00	0	57	104	0	68	17452
2026-01-02 07:14:23.95	96.72	5.51	-52.6	-66.5	3.8	1.49e+00	0	57	104	0	68	17371
2026-01-02 07:14:24.94	96.66	5.58	-52.7	-66.5	3.8	1.49e+00	0	57	104	0	68	17393
2026-01-02 07:14:25.92	96.60	5.64	-52.6	-66.5	3.8	1.49e+00	0	57	104	0	68	17375
2026-01-02 07:14:26.90	96.54	5.71	-52.5	-66.5	3.8	1.49e+00	0	57	104	0	68	17319
2026-01-02 07:14:27.88	96.48	5.78	-52.4	-66.5	3.8	1.49e+00	0	57	104	0	68	17346
2026-01-02 07:14:28.88	96.42	5.84	-52.5	-66.4	3.8	1.49e+00	0	57	104	0	67	18108
2026-01-02 07:14:29.86	96.36	5.91	-52.5	-66.4	3.8	1.49e+00	0	57	104	0	67	18121
2026-01-02 07:14:30.85	96.29	5.98	-52.5	-66.3	3.8	1.49e+00	0	57	104	0	67	18069
2026-01-02 07:14:31.84	96.23	6.05	-52.4	-66.3	3.8	1.49e+00	0	57	104	0	67	18014
2026-01-02 07:14:32.83	96.17	6.11	-52.4	-66.3	3.8	1.49e+00	0	57	104	0	67	18060
2026-01-02 07:14:33.82	96.10	6.18	-52.3	-66.3	3.8	1.49e+00	0	57	104	0	67	18006
2026-01-02 07:14:34.81	96.04	6.25	-52.4	-66.3	3.8	1.49e+00	0	57	104	0	67	17970
2026-01-02 07:14:35.80	95.98	6.32	-52.3	-66.3	3.8	1.49e+00	0	57	104	0	67	18026
2026-01-02 07:14:36.79	95.91	6.38	-52.4	-66.2	3.8	1.49e+00	0	57	104	0	67	17877
2026-01-02 07:14:37.77	95.85	6.45	-52.4	-66.2	3.8	1.49e+00	0	57	104	0	67	17846
2026-01-02 07:14:38.76	95.79	6.52	-52.2	-66.2	3.8	1.49e+00	0	57	104	0	67	17756
2026-01-02 07:14:39.75	95.72	6.59	-52.2	-66.2	3.8	1.49e+00	0	57	104	0	67	17688
2026-01-02 07:14:40.74	95.66	6.66	-52.1	-66.1	3.8	1.49e+00	0	57	104	0	67	17597
2026-01-02 07:14:41.73	95.59	6.73	-52.1	-66.1	3.8	1.49e+00	0	57	104	0	67	17611
2026-01-02 07:14:42.71	95.52	6.79	-52.1	-66.0	3.8	1.49e+00	0	57	104	0	67	17455
2026-01-02 07:14:43.71	95.46	6.86	-52.0	-65.9	3.8	1.49e+00	0	57	104	0	67	17206
2026-01-02 07:14:44.69	95.39	6.93	-51.9	-65.7	3.8	1.49e+00	0	57	104	0	66	17793
2026-01-02 07:14:45.67	95.33	7.00	-51.9	-65.7	3.8	1.49e+00	0	57	104	0	66	17744
2026-01-02 07:14:46.65	95.26	7.07	-51.8	-65.7	3.8	1.49e+00	0	57	104	0	66	17790
2026-01-02 07:14:47.64	95.19	7.14	-51.9	-65.7	3.8	1.49e+00	0	57	104	0	66	17771
2026-01-02 07:14:48.63	95.12	7.21	-51.9	-65.7	3.8	1.49e+00	0	57	104	0	66	17739
2026-01-02 07:14:49.61	95.06	7.28	-51.9	-65.7	3.8	1.49e+00	0	57	104	0	66	17785
2026-01-02 07:14:50.60	94.99	7.35	-52.0	-65.7	3.8	1.49e+00	0	57	104	0	66	17770
2026-01-02 07:14:51.59	94.92	7.42	-52.0	-65.7	3.8	1.49e+00	0	57	104	0	66	17831
2026-01-02 07:14:52.58	94.85	7.49	-52.0	-65.7	3.8	1.49e+00	0	57	104	0	66	17848
2026-01-02 07:14:53.57	94.78	7.56	-52.0	-65.7	3.8	1.49e+00	0	57	104	0	66	17773
2026-01-02 07:14:54.56	94.71	7.63	-51.9	-65.7	3.8	1.49e+00	0	57	104	0	66	17724
2026-01-02 07:14:55.54	94.64	7.70	-51.8	-65.6	3.8	1.49e+00	0	57	104	0	66	17600
2026-01-02 07:14:56.53	94.57	7.77	-51.9	-65.5	3.8	1.49e+00	0	57	104	0	66	17383
2026-01-02 07:14:57.52	94.50	7.84	-51.8	-65.4	3.8	1.49e+00	0	57	104	0	66	17136
2026-01-02 07:14:58.51	94.43	7.92	-51.8	-65.1	3.8	1.49e+00	0	57	104	0	66	16638
2026-01-02 07:14:59.49	94.36	7.99	-51.8	-64.7	3.8	1.49e+00	0	57	104	0	66	15874
2026-01-02 07:15:00.48	94.28	8.06	-51.8	-64.3	3.8	1.49e+00	0	57	104	0	66	15053
2026-01-02 07:15:01.47	94.21	8.13	-51.7	-63.5	3.8	1.49e+00	0	57	104	0	66	13778
2026-01-02 07:15:02.46	94.14	8.20	-51.7	-62.6	4.1	1.46e+00	0	57	0	0	66	12378
2026-01-02 07:15:03.44	94.07	8.27	-51.6	-61.6	4.4	1.37e+00	68	57	0	0	66	11119
2026-01-02 07:15:04.42	93.99	8.34	-51.6	-60.8	4.7	9.27e-01	0	57	0	1048576	66	10110
2026-01-02 07:15:05.41	93.92	8.42	-51.4	-60.0	5.1	6.85e-01	0	57	0	3145728	65	9719
2026-01-02 07:15:06.40	93.84	8.49	-51.3	-59.2	5.7	5.03e-01	0	57	0	5242880	65	8890
2026-01-02 07:15:07.38	93.77	8.56	-51.2	-58.4	6.2	3.57e-01	0	57	0	7340032	65	8143
2026-01-02 07:15:08.36	93.70	8.63	-51.1	-57.9	6.6	2.50e-01	0	57	0	8388608	65	7664
2026-01-02 07:15:09.35	93.62	8.71	-50.9	-57.4	7.0	1.59e-01	0	57	0	10485760	65	7286
2026-01-02 07:15:10.33	93.54	8.78	-50.9	-57.5	7.0	1.53e-01	0	57	0	12582912	65	7344
2026-01-02 07:15:11.32	93.47	8.85	-51.1	-57.8	6.7	1.91e-01	0	57	0	14680064	65	7605
2026-01-02 07:15:12.31	93.39	8.93	-51.0	-57.4	7.1	1.78e-01	0	57	0	16777216	65	7267
2026-01-02 07:15:13.30	93.31	9.00	-50.9	-57.0	7.5	1.15e-01	0	57	0	17825792	64	7340
2026-01-02 07:15:14.29	93.24	9.07	-50.7	-56.6	7.9	9.15e-02	0	57	0	19922944	64	7039
2026-01-02 07:15:15.29	93.16	9.15	-50.6	-56.4	8.0	7.33e-02	0	57	0	22020096	64	6874
2026-01-02 07:15:16.27	93.08	9.22	-50.7	-56.3	8.2	5.53e-02	0	57	0	24117248	64	6745
2026-01-02 07:15:17.26	93.00	9.30	-50.6	-56.3	8.3	5.25e-02	0	57	0	25165824	64	6727
2026-01-02 07:15:18.25	92.92	9.37	-50.7	-56.4	8.1	5.66e-02	0	57	0	27262976	64	6850
2026-01-02 07:15:19.25	92.84	9.45	-51.0	-57.2	7.3	9.52e-02	0	57	0	29360128	64	7507
2026-01-02 07:15:20.24	92.76	9.52	-50.6	-56.1	8.4	6.39e-02	0	57	0	31457280	64	6610
2026-01-02 07:15:21.23	92.68	9.60	-50.4	-55.3	9.3	2.70e-02	0	57	0	33554432	63	6381
2026-01-02 07:15:22.22	92.60	9.67	-50.1	-54.5	10.1	1.20e-02	0	57	0	34603008	63	5828
2026-01-02 07:15:23.21	92.52	9.75	-49.8	-53.8	10.9	4.41e-03	0	57	0	36700160	62	5691
2026-01-02 07:15:24.20	92.44	9.82	-49.4	-53.0	11.7	7.64e-04	0	57	0	38797312	62	5162
2026-01-02 07:15:25.19	92.36	9.90	-49.1	-52.4	12.4	3.09e-04	0	57	0	40894464	61	5157
2026-01-02 07:15:26.17	92.27	9.97	-48.9	-52.0	12.8	1.36e-04	0	57	0	41943040	60	5180
2026-01-02 07:15:27.16	92.19	10.05	-48.8	-51.7	13.1	4.65e-05	0	57	0	44040192	60	5005
2026-01-02 07:15:28.15	92.11	10.13	-48.5	-51.2	13.5	1.06e-05	0	57	0	46137344	60	4757
2026-01-02 07:15:29.14	92.02	10.20	-48.4	-51.0	13.8	6.10e-06	0	57	0	48234496	59	4885
2026-01-02 07:15:30.12	91.94	10.28	-48.4	-50.9	13.9	2.20e-06	0	57	0	49283072	59	4852
2026-01-02 07:15:31.10	91.85	10.36	-48.4	-51.0	13.7	0.00e+00	0	57	0	51380224	59	4885
2026-01-02 07:15:32.09	91.77	10.43	-48.5	-51.1	13.8	3.80e-06	0	57	0	53477376	59	4934
2026-01-02 07:15:33.09	91.68	10.51	-48.4	-50.9	13.9	1.50e-06	0	57	0	55574528	59	4869
2026-01-02 07:15:34.07	91.60	10.59	-48.4	-51.0	13.8	6.10e-06	0	57	0	56623104	59	4899
2026-01-02 07:15:35.07	91.51	10.67	-48.5	-51.2	13.7	5.30e-06	0	57	0	58720256	59	4985
2026-01-02 07:15:36.06	91.42	10.74	-48.5	-51.2	13.6	7.60e-06	0	57	0	60817408	59	5026
2026-01-02 07:15:37.04	91.34	10.82	-48.4	-50.9	13.9	7.60e-06	0	57	0	62914560	59	4865
2026-01-02 07:15:38.03	91.25	10.90	-48.6	-51.3	13.5	3.80e-06	0	57	0	65011712	59	5091
2026-01-02 07:15:39.02	91.16	10.98	-48.4	-51.0	13.8	3.80e-06	0	57	0	66060288	59	4907
2026-01-02 07:15:40.01	91.07	11.06	-48.5	-51.2	13.6	4.50e-06	0	57	0	68157440	59	5041
2026-01-02 07:15:41.01	90.98	11.13	-48.7	-51.6	13.3	9.10e-06	0	57	0	70254592	59	5243
2026-01-02 07:15:41.99	90.89	11.21	-48.5	-51.3	13.6	1.60e-05	0	57	0	72351744	59	5048
2026-01-02 07:15:42.98	90.80	11.29	-48.4	-51.0	13.9	3.00e-06	0	57	0	73400320	59	4882
2026-01-02 07:15:43.96	90.71	11.37	-48.3	-50.8	14.1	3.80e-06	0	57	0	75497472	59	4761
2026-01-02 07:15:44.96	90.62	11.45	-48.1	-50.6	14.4	2.20e-06	0	57	0	77594624	59	4654
2026-01-02 07:15:45.94	90.52	11.53	-48.1	-50.4	14.5	7.00e-07	0	57	0	79691776	59	4586
2026-01-02 07:15:46.93	90.43	11.61	-48.1	-50.5	14.4	7.00e-07	0	57	0	80740352	59	4611
2026-01-02 07:15:47.91	90.34	11.69	-48.0	-50.3	14.5	7.00e-07	0	57	0	82837504	59	4523
2026-01-02 07:15:48.90	90.24	11.77	-48.1	-50.4	14.5	0.00e+00	0	57	0	84934656	59	4566
2026-01-02 07:15:49.89	90.15	11.85	-48.1	-50.5	14.4	0.00e+00	0	57	0	87031808	59	4602
2026-01-02 07:15:50.87	90.06	11.93	-48.0	-50.2	14.6	7.00e-07	0	57	0	89128960	59	4492
2026-01-02 07:15:51.86	89.96	12.01	-48.1	-50.3	14.6	2.20e-06	0	57	0	90177536	59	4514
2026-01-02 07:15:52.85	89.87	12.09	-48.1	-50.4	14.6	0.00e+00	0	57	0	92274688	59	4550
2026-01-02 07:15:53.84	89.77	12.17	-48.0	-50.3	14.6	0.00e+00	0	57	0	94371840	59	4508
2026-01-02 07:15:54.83	89.67	12.25	-48.0	-50.3	14.6	0.00e+00	0	57	0	96468992	59	4533
2026-01-02 07:15:55.82	89.57	12.33	-48.1	-50.5	14.4	7.00e-07	0	57	0	97517568	59	4599
2026-01-02 07:15:56.81	89.48	12.42	-48.1	-50.4	14.5	1.50e-06	0	57	0	99614720	59	4568
2026-01-02 07:15:57.80	89.38	12.50	-48.2	-50.5	14.4	0.00e+00	0	57	0	101711872	59	4649
2026-01-02 07:15:58.79	89.28	12.58	-48.4	-50.9	14.1	7.00e-07	0	57	0	103809024	59	4822
2026-01-02 07:15:59.77	89.18	12.66	-48.3	-50.7	14.1	3.00e-06	0	57	0	104857600	59	4747
2026-01-02 07:16:00.76	89.08	12.74	-48.3	-50.7	14.3	1.50e-06	0	57	0	106954752	59	4718
2026-01-02 07:16:01.75	88.98	12.83	-48.4	-50.9	14.1	7.00e-07	0	57	0	109051904	59	4825
2026-01-02 07:16:02.73	88.88	12.91	-48.4	-50.8	14.2	2.20e-06	0	57	0	111149056	59	4774
2026-01-02 07:16:03.72	88.77	12.99	-48.4	-50.9	14.1	0.00e+00	0	57	0	113246208	59	4831
2026-01-02 07:16:04.71	88.67	13.07	-48.5	-51.1	13.8	7.00e-07	0	57	0	114294784	59	4950
2026-01-02 07:16:05.70	88.57	13.16	-48.4	-51.0	13.9	4.50e-06	0	57	0	116391936	59	4876
2026-01-02 07:16:06.69	88.46	13.24	-48.6	-51.1	13.9	3.00e-06	0	57	0	118489088	59	4943
2026-01-02 07:16:07.69	88.36	13.32	-48.4	-51.0	13.9	7.60e-06	0	57	0	120586240	59	4892
2026-01-02 07:16:08.68	88.25	13.41	-48.2	-50.6	14.3	0.00e+00	0	57	0	121634816	59	4676
2026-01-02 07:16:09.67	88.15	13.49	-48.4	-50.9	14.1	0.00e+00	0	57	0	123731968	59	4846
2026-01-02 07:16:10.66	88.04	13.58	-48.5	-51.0	13.9	3.00e-06	0	57	0	125829120	59	4906
2026-01-02 07:16:11.65	87.93	13.66	-48.4	-50.9	14.0	5.30e-06	0	57	0	127926272	59	4853
2026-01-02 07:16:12.64	87.83	13.75	-48.3	-50.7	14.2	2.20e-06	0	57	0	128974848	59	4716
2026-01-02 07:16:13.63	87.72	13.83	-48.2	-50.6	14.3	0.00e+00	0	57	0	131072000	59	4701
2026-01-02 07:16:14.62	87.61	13.92	-48.3	-50.7	14.3	7.00e-07	0	57	0	133169152	59	4713
2026-01-02 07:16:15.61	87.50	14.00	-48.3	-50.7	14.2	7.00e-07	0	57	0	135266304	59	4735
2026-01-02 07:16:16.59	87.39	14.09	-48.3	-50.7	14.3	3.00e-06	0	57	0	136314880	59	4753
2026-01-02 07:16:17.58	87.28	14.17	-48.4	-50.9	14.1	1.50e-06	0	57	0	138412032	59	4844
2026-01-02 07:16:18.57	87.17	14.26	-48.4	-51.0	14.0	1.50e-06	0	57	0	140509184	59	4889
2026-01-02 07:16:19.56	87.06	14.34	-48.5	-51.0	14.0	0.00e+00	0	57	0	142606336	59	4873
2026-01-02 07:16:20.54	86.94	14.43	-48.5	-51.0	14.0	3.00e-06	0	57	0	144703488	59	4918
2026-01-02 07:16:21.53	86.83	14.51	-48.2	-50.7	14.2	7.00e-07	0	57	0	145752064	59	4732
2026-01-02 07:16:22.51	86.72	14.60	-48.2	-50.5	14.4	3.00e-06	0	57	0	147849216	59	4616
2026-01-02 07:16:23.50	86.60	14.69	-48.1	-50.4	14.6	1.50e-06	0	57	0	149946368	59	4577
2026-01-02 07:16:24.48	86.49	14.77	-48.0	-50.3	14.7	0.00e+00	0	57	0	152043520	59	4521
2026-01-02 07:16:25.48	86.37	14.86	-47.9	-50.3	14.7	0.00e+00	0	57	0	153092096	59	4519
2026-01-02 07:16:26.47	86.25	14.95	-47.9	-50.2	14.7	0.00e+00	0	57	0	155189248	59	4487
2026-01-02 07:16:27.46	86.14	15.04	-48.0	-50.3	14.8	0.00e+00	0	57	0	157286400	59	4503
2026-01-02 07:16:28.45	86.02	15.12	-48.1	-50.3	14.6	0.00e+00	0	57	0	159383552	59	4535
2026-01-02 07:16:29.43	85.90	15.21	-48.0	-50.2	14.7	0.00e+00	0	57	0	160432128	59	4493
2026-01-02 07:16:30.42	85.78	15.30	-48.0	-50.2	14.7	0.00e+00	0	57	0	162529280	59	4478
2026-01-02 07:16:31.40	85.66	15.39	-48.1	-50.4	14.7	7.00e-07	0	57	0	164626432	59	4572
2026-01-02 07:16:32.39	85.54	15.47	-48.0	-50.3	14.8	0.00e+00	0	57	0	166723584	59	4496
2026-01-02 07:16:33.36	85.42	15.56	-48.0	-50.3	14.7	0.00e+00	0	57	0	168820736	58	4784
2026-01-02 07:16:34.36	85.30	15.65	-48.1	-50.3	14.6	0.00e+00	0	57	0	169869312	58	4810
2026-01-02 07:16:35.35	85.17	15.74	-48.1	-50.2	14.7	0.00e+00	0	57	0	171966464	58	4757
2026-01-02 07:16:36.34	85.05	15.83	-48.0	-50.3	14.7	0.00e+00	0	57	0	174063616	58	4782
2026-01-02 07:16:37.33	84.92	15.92	-48.1	-50.3	14.6	0.00e+00	0	57	0	176160768	58	4814
2026-01-02 07:16:38.32	84.80	16.01	-48.1	-50.3	14.7	0.00e+00	0	57	0	177209344	58	4784
2026-01-02 07:16:39.31	84.67	16.10	-48.2	-50.5	14.5	7.00e-07	0	57	0	179306496	58	4875
2026-01-02 07:16:40.29	84.54	16.19	-48.3	-50.6	14.4	0.00e+00	0	57	0	181403648	58	4950
2026-01-02 07:16:41.28	84.42	16.28	-48.2	-50.5	14.6	0.00e+00	0	57	0	183500800	58	4886
2026-01-02 07:16:42.27	84.29	16.37	-48.4	-50.8	14.3	1.50e-06	0	57	0	184549376	58	5066
2026-01-02 07:16:43.25	84.16	16.46	-48.4	-50.9	14.0	5.30e-06	0	57	0	186646528	58	5133
2026-01-02 07:16:44.25	84.03	16.55	-48.3	-50.6	14.4	2.20e-06	0	57	0	188743680	58	4966
2026-01-02 07:16:45.22	83.90	16.64	-48.0	-50.3	14.7	7.00e-07	0	57	0	190840832	58	4811
2026-01-02 07:16:46.21	83.77	16.73	-48.0	-50.2	14.9	0.00e+00	0	57	0	191889408	58	4723
2026-01-02 07:16:47.20	83.63	16.82	-48.0	-50.1	14.9	0.00e+00	0	57	0	193986560	58	4699
2026-01-02 07:16:48.19	83.50	16.91	-47.9	-50.1	14.9	0.00e+00	0	57	0	196083712	58	4696
2026-01-02 07:16:49.18	83.37	17.00	-48.0	-50.3	14.8	0.00e+00	0	57	0	198180864	58	4765
2026-01-02 07:16:50.17	83.23	17.09	-48.1	-50.3	14.8	0.00e+00	0	57	0	200278016	58	4800
2026-01-02 07:16:51.15	83.10	17.18	-48.0	-50.2	14.8	7.00e-07	0	57	0	201326592	58	4758
2026-01-02 07:16:52.14	82.96	17.28	-48.2	-50.5	14.5	0.00e+00	0	57	0	203423744	58	4904
2026-01-02 07:16:53.13	82.82	17.37	-48.0	-50.2	14.8	0.00e+00	0	57	0	205520896	58	4743
2026-01-02 07:16:54.12	82.68	17.46	-47.9	-50.1	15.0	0.00e+00	0	57	0	207618048	58	4667
2026-01-02 07:16:55.10	82.54	17.55	-47.9	-50.0	15.1	0.00e+00	0	57	0	208666624	58	4641
2026-01-02 07:16:56.09	82.40	17.65	-47.9	-50.0	15.1	0.00e+00	0	57	0	210763776	58	4648
2026-01-02 07:16:57.08	82.26	17.74	-47.9	-50.0	15.0	0.00e+00	0	57	0	212860928	58	4628
2026-01-02 07:16:58.07	82.12	17.83	-48.0	-50.2	14.9	0.00e+00	0	57	0	214958080	58	4734
2026-01-02 07:16:59.06	81.98	17.93	-47.9	-50.0	15.1	0.00e+00	0	57	0	216006656	58	4642
2026-01-02 07:17:00.05	81.83	18.02	-47.9	-49.9	15.1	0.00e+00	0	57	0	218103808	58	4573
2026-01-02 07:17:01.03	81.69	18.11	-47.8	-49.9	15.2	0.00e+00	0	57	0	220200960	58	4563
2026-01-02 07:17:02.02	81.54	18.21	-47.9	-50.0	15.1	0.00e+00	0	57	0	222298112	58	4601
2026-01-02 07:17:03.02	81.39	18.30	-47.9	-50.1	15.0	0.00e+00	0	57	0	224395264	58	4658
2026-01-02 07:17:04.01	81.25	18.39	-48.0	-50.3	14.8	0.00e+00	0	57	0	225443840	58	4760
2026-01-02 07:17:05.00	81.10	18.49	-47.8	-49.9	15.1	0.00e+00	0	57	0	227540992	58	4588
2026-01-02 07:17:05.98	80.95	18.58	-47.7	-49.8	15.3	0.00e+00	0	57	0	229638144	58	4522
2026-01-02 07:17:06.98	80.80	18.68	-47.7	-49.7	15.3	0.00e+00	0	57	0	231735296	58	4483
2026-01-02 07:17:07.97	80.65	18.77	-47.7	-49.8	15.3	0.00e+00	0	57	0	232783872	58	4539
2026-01-02 07:17:08.96	80.49	18.87	-47.6	-49.7	15.4	0.00e+00	0	57	0	234881024	58	4474
2026-01-02 07:17:09.94	80.34	18.96	-47.6	-49.7	15.5	0.00e+00	0	57	0	236978176	58	4446
2026-01-02 07:17:10.93	80.19	19.06	-47.6	-49.6	15.5	0.00e+00	0	57	0	239075328	58	4416
2026-01-02 07:17:11.92	80.03	19.15	-47.6	-49.6	15.5	0.00e+00	0	57	0	240123904	58	4401
2026-01-02 07:17:12.90	79.88	19.25	-47.6	-49.5	15.5	0.00e+00	0	57	0	242221056	58	4390
2026-01-02 07:17:13.89	79.72	19.34	-47.6	-49.6	15.5	0.00e+00	0	57	0	244318208	58	4393
2026-01-02 07:17:14.88	79.56	19.44	-47.8	-49.8	15.3	0.00e+00	0	57	0	246415360	58	4542
2026-01-02 07:17:15.86	79.40	19.53	-47.7	-49.6	15.5	7.00e-07	0	57	0	247463936	58	4437
2026-01-02 07:17:16.85	79.24	19.63	-47.6	-49.7	15.4	0.00e+00	0	57	0	249561088	58	4469
2026-01-02 07:17:17.84	79.08	19.72	-47.6	-49.6	15.5	0.00e+00	0	57	0	251658240	58	4438
2026-01-02 07:17:18.83	78.92	19.82	-47.6	-49.6	15.5	0.00e+00	0	57	0	253755392	58	4402
2026-01-02 07:17:19.82	78.75	19.92	-47.7	-49.8	15.4	0.00e+00	0	57	0	255852544	58	4497
2026-01-02 07:17:20.80	78.59	20.01	-47.6	-49.6	15.4	0.00e+00	0	57	0	256901120	58	4441
2026-01-02 07:17:21.80	78.42	20.11	-47.8	-49.9	15.2	0.00e+00	0	57	0	258998272	58	4581
2026-01-02 07:17:22.79	78.26	20.21	-47.7	-49.7	15.4	0.00e+00	0	57	0	261095424	58	4469
2026-01-02 07:17:23.78	78.09	20.30	-47.4	-49.3	15.8	0.00e+00	0	57	0	263192576	57	4495
2026-01-02 07:17:24.77	77.92	20.40	-47.3	-49.1	16.0	0.00e+00	0	57	0	264241152	57	4432
2026-01-02 07:17:25.77	77.75	20.50	-47.3	-49.2	15.8	0.00e+00	0	57	0	266338304	57	4492
2026-01-02 07:17:26.76	77.58	20.60	-47.5	-49.5	15.6	0.00e+00	0	57	0	268435456	57	4639
2026-01-02 07:17:27.75	77.41	20.69	-47.7	-49.8	15.4	0.00e+00	0	57	0	270532608	57	4767
2026-01-02 07:17:28.74	77.23	20.79	-47.8	-49.9	15.2	0.00e+00	0	57	0	272629760	57	4842
2026-01-02 07:17:29.72	77.06	20.89	-47.9	-50.0	15.1	0.00e+00	0	57	0	273678336	57	4918
2026-01-02 07:17:30.69	76.89	20.98	-48.1	-50.4	14.7	0.00e+00	0	57	0	275775488	58	4841
2026-01-02 07:17:31.68	76.71	21.08	-48.1	-50.3	14.8	0.00e+00	0	57	0	277872640	58	4796
2026-01-02 07:17:32.67	76.53	21.18	-48.2	-50.5	14.6	0.00e+00	0	57	0	279969792	58	4896
2026-01-02 07:17:33.66	76.36	21.28	-48.5	-50.9	14.2	0.00e+00	0	57	0	281018368	58	5137
2026-01-02 07:17:34.65	76.18	21.37	-48.3	-50.7	14.4	2.20e-06	0	57	0	283115520	58	5021
2026-01-02 07:17:35.64	75.99	21.47	-48.1	-50.4	14.8	0.00e+00	0	57	0	285212672	58	4843
2026-01-02 07:17:36.62	75.81	21.57	-48.1	-50.3	14.9	7.00e-07	0	57	0	287309824	58	4770
2026-01-02 07:17:37.61	75.63	21.67	-48.1	-50.3	14.8	0.00e+00	0	57	0	288358400	58	4772
2026-01-02 07:17:38.61	75.44	21.77	-48.0	-50.3	14.8	7.00e-07	0	57	0	290455552	58	4775
2026-01-02 07:17:39.60	75.26	21.86	-48.2	-50.5	14.6	7.00e-07	0	57	0	292552704	58	4896
2026-01-02 07:17:40.59	75.07	21.96	-48.2	-50.5	14.7	0.00e+00	0	57	0	294649856	58	4880
2026-01-02 07:17:41.57	74.88	22.06	-48.0	-50.3	14.9	7.00e-07	0	57	0	295698432	58	4775
2026-01-02 07:17:42.57	74.69	22.16	-47.9	-50.1	15.0	0.00e+00	0	57	0	297795584	58	4690
2026-01-02 07:17:43.56	74.50	22.26	-47.9	-50.1	15.0	0.00e+00	0	57	0	299892736	58	4674
2026-01-02 07:17:44.55	74.31	22.36	-47.9	-50.0	15.1	0.00e+00	0	57	0	301989888	58	4632
2026-01-02 07:17:45.54	74.12	22.45	-47.9	-50.0	15.2	0.00e+00	0	57	0	304087040	58	4613
2026-01-02 07:17:46.53	73.92	22.55	-47.9	-50.1	15.1	0.00e+00	0	57	0	305135616	58	4673
2026-01-02 07:17:47.52	73.73	22.65	-48.1	-50.3	14.9	7.00e-07	0	57	0	307232768	58	4813
2026-01-02 07:17:48.52	73.53	22.75	-48.0	-50.2	14.9	0.00e+00	0	57	0	309329920	58	4755
2026-01-02 07:17:49.52	73.33	22.85	-47.7	-49.7	15.4	0.00e+00	0	57	0	311427072	58	4489
2026-01-02 07:17:50.50	73.13	22.95	-47.5	-49.5	15.7	0.00e+00	0	57	0	312475648	58	4353
2026-01-02 07:17:51.49	72.93	23.05	-47.5	-49.5	15.6	0.00e+00	0	57	0	314572800	58	4351
2026-01-02 07:17:52.48	72.73	23.14	-47.6	-49.5	15.6	0.00e+00	0	57	0	316669952	58	4391
2026-01-02 07:17:53.47	72.53	23.24	-47.6	-49.5	15.7	0.00e+00	0	57	0	318767104	58	4388
2026-01-02 07:17:54.46	72.32	23.34	-47.6	-49.7	15.5	0.00e+00	0	57	0	320864256	58	4448
2026-01-02 07:17:55.46	72.11	23.44	-47.6	-49.5	15.6	0.00e+00	0	57	0	321912832	58	4369
2026-01-02 07:17:56.45	71.91	23.54	-47.5	-49.3	15.9	0.00e+00	0	57	0	324009984	58	4283
2026-01-02 07:17:57.44	71.70	23.64	-47.3	-49.1	16.0	0.00e+00	0	57	0	326107136	57	4413
2026-01-02 07:17:58.43	71.49	23.74	-47.2	-49.0	16.1	0.00e+00	0	57	0	328204288	57	4371
2026-01-02 07:17:59.42	71.28	23.83	-47.1	-48.9	16.2	0.00e+00	0	57	0	329252864	57	4337
2026-01-02 07:18:00.41	71.06	23.93	-47.2	-49.0	16.2	0.00e+00	0	57	0	331350016	57	4383
2026-01-02 07:18:01.41	70.85	24.03	-47.3	-49.0	16.1	0.00e+00	0	57	0	333447168	57	4390
2026-01-02 07:18:02.39	70.63	24.13	-47.3	-49.1	16.0	0.00e+00	0	57	0	335544320	57	4436
2026-01-02 07:18:03.39	70.42	24.23	-47.3	-49.2	16.0	0.00e+00	0	57	0	336592896	57	4444
2026-01-02 07:18:04.37	70.20	24.33	-47.0	-48.7	16.5	0.00e+00	0	57	0	338690048	57	4231
2026-01-02 07:18:05.37	69.98	24.42	-46.8	-48.5	16.7	0.00e+00	0	57	0	340787200	56	4375
2026-01-02 07:18:06.36	69.76	24.52	-46.8	-48.5	16.6	0.00e+00	0	57	0	342884352	56	4362
2026-01-02 07:18:07.35	69.53	24.62	-46.9	-48.6	16.5	0.00e+00	0	57	0	344981504	56	4434
2026-01-02 07:18:08.33	69.31	24.72	-47.0	-48.7	16.5	0.00e+00	0	57	0	346030080	56	4484
2026-01-02 07:18:09.32	69.09	24.81	-47.0	-48.8	16.4	0.00e+00	0	57	0	348127232	56	4517
2026-01-02 07:18:10.31	68.86	24.91	-47.1	-48.9	16.3	0.00e+00	0	57	0	350224384	56	4562
2026-01-02 07:18:11.30	68.63	25.01	-47.2	-48.9	16.2	0.00e+00	0	57	0	352321536	56	4569
2026-01-02 07:18:12.29	68.41	25.11	-47.0	-48.8	16.4	0.00e+00	0	57	0	353370112	56	4497
2026-01-02 07:18:13.28	68.17	25.20	-47.1	-48.8	16.3	0.00e+00	0	57	0	355467264	56	4537
2026-01-02 07:18:14.27	67.94	25.30	-47.1	-49.0	16.2	0.00e+00	0	57	0	357564416	56	4604
2026-01-02 07:18:15.25	67.71	25.39	-47.0	-48.7	16.5	0.00e+00	0	57	0	359661568	56	4471
2026-01-02 07:18:16.24	67.48	25.49	-47.0	-48.8	16.4	0.00e+00	0	57	0	360710144	56	4494
2026-01-02 07:18:17.22	67.24	25.59	-47.0	-48.7	16.5	0.00e+00	0	57	0	362807296	56	4464
2026-01-02 07:18:18.21	67.01	25.68	-46.9	-48.7	16.5	0.00e+00	0	57	0	364904448	56	4451
2026-01-02 07:18:19.20	66.77	25.78	-47.2	-48.9	16.2	0.00e+00	0	57	0	367001600	56	4570
2026-01-02 07:18:20.18	66.53	25.87	-47.3	-49.2	16.0	0.00e+00	0	57	0	369098752	56	4745
2026-01-02 07:18:21.17	66.29	25.97	-47.3	-49.1	16.0	0.00e+00	0	57	0	370147328	56	4699
2026-01-02 07:18:22.17	66.04	26.06	-47.3	-49.1	16.0	0.00e+00	0	57	0	372244480	56	4685
2026-01-02 07:18:23.16	65.79	26.16	-47.4	-49.2	16.0	0.00e+00	0	57	0	374341632	56	4738
2026-01-02 07:18:24.14	65.55	26.25	-47.5	-49.4	15.8	0.00e+00	0	57	0	376438784	56	4815
2026-01-02 07:18:25.13	65.30	26.35	-47.3	-49.1	16.0	0.00e+00	0	57	0	377487360	56	4672
2026-01-02 07:18:26.12	65.05	26.44	-47.3	-49.1	16.1	0.00e+00	0	57	0	379584512	56	4667
2026-01-02 07:18:27.12	64.80	26.54	-47.5	-49.4	15.8	0.00e+00	0	57	0	381681664	56	4830
2026-01-02 07:18:28.11	64.55	26.63	-47.4	-49.4	15.8	0.00e+00	0	57	0	383778816	56	4828
2026-01-02 07:18:29.09	64.30	26.72	-47.4	-49.4	15.8	0.00e+00	0	57	0	384827392	56	4815
2026-01-02 07:18:30.07	64.04	26.81	-47.6	-49.6	15.5	0.00e+00	0	57	0	386924544	57	4694
2026-01-02 07:18:31.06	63.79	26.91	-47.7	-49.8	15.4	0.00e+00	0	57	0	389021696	57	4793
2026-01-02 07:18:32.06	63.52	27.00	-47.9	-50.0	15.2	0.00e+00	0	57	0	391118848	57	4886
2026-01-02 07:18:33.05	63.26	27.09	-47.9	-50.0	15.2	0.00e+00	0	57	0	392167424	57	4877
2026-01-02 07:18:34.04	63.00	27.18	-47.9	-50.1	15.1	0.00e+00	0	57	0	394264576	57	4927
2026-01-02 07:18:35.03	62.74	27.27	-48.0	-50.1	15.1	0.00e+00	0	57	0	396361728	57	4957
2026-01-02 07:18:36.03	62.47	27.37	-48.0	-50.1	15.1	0.00e+00	0	57	0	398458880	57	4934
2026-01-02 07:18:37.02	62.21	27.46	-48.0	-50.1	15.1	0.00e+00	0	57	0	400556032	57	4932
2026-01-02 07:18:38.01	61.94	27.55	-48.1	-50.3	14.9	0.00e+00	0	57	0	401604608	58	4811
2026-01-02 07:18:39.00	61.67	27.64	-48.1	-50.3	14.9	0.00e+00	0	57	0	403701760	58	4792
2026-01-02 07:18:39.99	61.40	27.72	-48.3	-50.5	14.6	0.00e+00	0	57	0	405798912	58	4917
2026-01-02 07:18:40.98	61.13	27.81	-48.3	-50.5	14.7	0.00e+00	0	57	0	407896064	58	4890
2026-01-02 07:18:41.97	60.85	27.90	-48.4	-50.8	14.4	0.00e+00	0	57	0	408944640	58	5064
2026-01-02 07:18:42.96	60.58	27.99	-48.5	-51.0	14.2	0.00e+00	0	58	0	411041792	58	5179
2026-01-02 07:18:43.95	60.30	28.08	-48.6	-51.1	14.1	1.50e-06	0	57	0	413138944	59	4933
2026-01-02 07:18:44.94	60.02	28.16	-48.6	-51.0	14.2	2.20e-06	0	57	0	415236096	59	4879
2026-01-02 07:18:45.93	59.74	28.25	-48.6	-51.1	14.1	3.00e-06	0	57	0	417333248	59	4927
2026-01-02 07:18:46.92	59.46	28.34	-48.7	-51.3	13.9	1.50e-06	0	57	0	418381824	59	5079
2026-01-02 07:18:47.91	59.18	28.42	-48.6	-51.2	14.0	1.50e-06	0	57	0	420478976	59	4988
2026-01-02 07:18:48.90	58.89	28.51	-48.7	-51.3	13.8	2.20e-06	0	57	0	422576128	59	5094
2026-01-02 07:18:49.88	58.61	28.59	-49.0	-51.7	13.5	6.10e-06	0	58	0	424673280	59	5285
2026-01-02 07:18:50.87	58.32	28.67	-49.0	-51.7	13.5	1.06e-05	0	57	0	425721856	59	5309
2026-01-02 07:18:51.86	58.04	28.76	-49.1	-52.0	13.2	1.52e-05	0	57	0	427819008	60	5161
2026-01-02 07:18:52.85	57.75	28.84	-49.2	-52.0	13.1	1.98e-05	0	57	0	429916160	60	5212
2026-01-02 07:18:53.84	57.45	28.92	-49.0	-52.0	13.2	2.89e-05	0	58	0	432013312	60	5175
2026-01-02 07:18:54.83	57.16	29.00	-49.0	-52.0	13.2	2.82e-05	0	57	0	433061888	60	5182
2026-01-02 07:18:55.83	56.86	29.09	-49.3	-52.2	12.9	3.43e-05	0	57	0	435159040	60	5321
2026-01-02 07:18:56.82	56.57	29.17	-49.1	-51.9	13.3	3.58e-05	0	57	0	437256192	60	5111
2026-01-02 07:18:57.81	56.27	29.25	-48.9	-51.6	13.6	1.22e-05	0	57	0	439353344	60	4980
2026-01-02 07:18:58.79	55.97	29.32	-48.8	-51.5	13.7	7.60e-06	0	57	0	441450496	60	4891
2026-01-02 07:18:59.77	55.67	29.40	-48.8	-51.4	13.7	3.00e-06	0	57	0	442499072	60	4849
2026-01-02 07:19:00.77	55.37	29.48	-48.8	-51.4	13.7	7.60e-06	0	57	0	444596224	60	4856
2026-01-02 07:19:01.75	55.07	29.56	-49.0	-51.8	13.4	5.30e-06	0	57	0	446693376	60	5062
2026-01-02 07:19:02.74	54.76	29.63	-48.9	-51.7	13.5	2.05e-05	0	57	0	448790528	60	4996
2026-01-02 07:19:03.74	54.45	29.71	-48.7	-51.3	13.9	6.10e-06	0	57	0	449839104	60	4783
2026-01-02 07:19:04.72	54.15	29.78	-48.5	-50.9	14.4	7.00e-07	0	57	0	451936256	60	4560
2026-01-02 07:19:05.71	53.84	29.86	-48.3	-50.5	14.7	0.00e+00	0	57	0	454033408	59	4640
2026-01-02 07:19:06.70	53.53	29.93	-48.3	-50.6	14.6	0.00e+00	0	57	0	456130560	59	4660
2026-01-02 07:19:07.69	53.22	30.00	-48.3	-50.6	14.6	0.00e+00	0	57	0	457179136	59	4664
2026-01-02 07:19:08.68	52.90	30.07	-48.3	-50.6	14.6	7.00e-07	0	57	0	459276288	59	4669
2026-01-02 07:19:09.68	52.58	30.15	-48.3	-50.6	14.6	1.50e-06	0	58	0	461373440	59	4680
2026-01-02 07:19:10.67	52.27	30.22	-48.5	-50.9	14.4	7.00e-07	0	57	0	463470592	59	4821
2026-01-02 07:19:11.65	51.95	30.28	-48.4	-50.7	14.5	0.00e+00	0	57	0	465567744	59	4734
2026-01-02 07:19:12.64	51.63	30.35	-48.3	-50.5	14.6	1.50e-06	0	57	0	466616320	59	4644
2026-01-02 07:19:13.62	51.32	30.42	-48.2	-50.4	14.8	7.00e-07	0	58	0	468713472	59	4582
2026-01-02 07:19:14.61	50.99	30.49	-48.2	-50.5	14.7	0.00e+00	0	57	0	470810624	59	4607
2026-01-02 07:19:15.59	50.67	30.55	-48.5	-50.8	14.4	7.00e-07	0	58	0	472907776	59	4794
2026-01-02 07:19:16.58	50.35	30.62	-48.5	-50.8	14.3	0.00e+00	0	57	0	473956352	59	4788
2026-01-02 07:19:17.57	50.02	30.68	-48.5	-50.9	14.2	0.00e+00	0	57	0	476053504	59	4866
2026-01-02 07:19:18.56	49.70	30.75	-48.4	-50.8	14.4	7.00e-07	0	57	0	478150656	59	4788
2026-01-02 07:19:19.55	49.37	30.81	-48.4	-50.8	14.4	0.00e+00	0	57	0	480247808	59	4764
2026-01-02 07:19:20.54	49.04	30.87	-48.5	-51.0	14.2	0.00e+00	0	57	0	481296384	59	4879
2026-01-02 07:19:21.53	48.71	30.93	-48.8	-51.4	13.7	1.50e-06	0	57	0	483393536	59	5139
2026-01-02 07:19:22.52	48.38	30.99	-49.0	-51.8	13.4	6.80e-06	0	57	0	485490688	59	5343
2026-01-02 07:19:23.51	48.04	31.05	-48.9	-51.5	13.6	1.29e-05	0	57	0	487587840	60	4910
2026-01-02 07:19:24.50	47.71	31.11	-48.9	-51.5	13.6	6.80e-06	0	57	0	488636416	60	4921
2026-01-02 07:19:25.49	47.37	31.16	-48.9	-51.5	13.7	9.10e-06	0	57	0	490733568	60	4918
2026-01-02 07:19:26.48	47.03	31.22	-48.8	-51.5	13.6	3.00e-06	0	57	0	492830720	60	4926
2026-01-02 07:19:27.47	46.70	31.27	-49.0	-51.7	13.5	1.29e-05	0	57	0	494927872	60	5036
2026-01-02 07:19:28.46	46.36	31.33	-48.7	-51.4	13.8	6.10e-06	0	57	0	497025024	60	4831
2026-01-02 07:19:29.44	46.02	31.38	-48.5	-50.9	14.2	1.50e-06	0	57	0	498073600	60	4574
2026-01-02 07:19:30.43	45.68	31.43	-48.4	-50.6	14.6	7.00e-07	0	57	0	500170752	59	4704
2026-01-02 07:19:31.41	45.34	31.48	-48.3	-50.5	14.7	0.00e+00	0	57	0	502267904	59	4648
2026-01-02 07:19:32.39	45.00	31.53	-48.5	-50.8	14.3	1.50e-06	0	57	0	504365056	59	4814
2026-01-02 07:19:33.38	44.65	31.58	-48.4	-50.6	14.6	1.50e-06	0	57	0	505413632	59	4684
2026-01-02 07:19:34.37	44.31	31.62	-48.4	-50.7	14.5	1.50e-06	0	57	0	507510784	59	4748
2026-01-02 07:19:35.36	43.96	31.67	-48.6	-51.0	14.3	7.00e-07	0	57	0	509607936	59	4871
2026-01-02 07:19:36.35	43.62	31.71	-48.8	-51.3	13.9	4.50e-06	0	57	0	511705088	59	5065
2026-01-02 07:19:37.33	43.27	31.76	-48.6	-51.1	14.1	3.80e-06	0	57	0	512753664	59	4954
2026-01-02 07:19:38.33	42.92	31.80	-48.4	-50.7	14.5	7.00e-07	0	57	0	514850816	59	4743
2026-01-02 07:19:39.32	42.57	31.84	-48.1	-50.2	15.0	0.00e+00	0	57	0	516947968	59	4476
2026-01-02 07:19:40.31	42.22	31.88	-47.9	-50.0	15.3	0.00e+00	0	57	0	519045120	58	4604
2026-01-02 07:19:41.30	41.86	31.92	-47.9	-50.0	15.3	0.00e+00	0	57	0	521142272	58	4601
2026-01-02 07:19:42.29	41.51	31.96	-47.9	-50.0	15.1	0.00e+00	0	57	0	522190848	58	4640
2026-01-02 07:19:43.28	41.16	32.00	-48.0	-50.1	15.2	0.00e+00	0	57	0	524288000	58	4655
2026-01-02 07:19:44.28	40.80	32.03	-48.1	-50.3	15.0	0.00e+00	0	57	0	526385152	58	4766
2026-01-02 07:19:45.27	40.44	32.07	-48.1	-50.3	14.9	0.00e+00	0	57	0	528482304	58	4768
2026-01-02 07:19:46.25	40.09	32.10	-48.0	-50.2	15.0	0.00e+00	0	57	0	529530880	58	4718
2026-01-02 07:19:47.24	39.73	32.13	-48.1	-50.3	14.8	7.00e-07	0	57	0	531628032	58	4805
2026-01-02 07:19:48.23	39.38	32.16	-48.4	-50.7	14.5	1.50e-06	0	57	0	533725184	58	5040
2026-01-02 07:19:49.22	39.02	32.19	-48.5	-50.9	14.3	7.00e-07	0	57	0	535822336	58	5140
2026-01-02 07:19:50.20	38.66	32.22	-48.3	-50.5	14.8	0.00e+00	0	57	0	536870912	58	4872
2026-01-02 07:19:51.19	38.30	32.25	-48.2	-50.4	14.8	7.00e-07	0	57	0	538968064	58	4820
2026-01-02 07:19:52.18	37.94	32.27	-48.3	-50.6	14.6	0.00e+00	0	57	0	541065216	58	4965
2026-01-02 07:19:53.16	37.59	32.30	-48.4	-50.8	14.4	0.00e+00	0	57	0	543162368	58	5067
2026-01-02 07:19:54.16	37.22	32.32	-48.6	-51.0	14.1	2.20e-06	0	57	0	545259520	59	4917
2026-01-02 07:19:55.15	36.86	32.34	-48.6	-51.0	14.2	7.00e-07	0	57	0	546308096	59	4899
2026-01-02 07:19:56.14	36.50	32.36	-48.7	-51.2	14.0	3.00e-06	0	57	0	548405248	59	4999
2026-01-02 07:19:57.12	36.14	32.38	-48.9	-51.5	13.6	6.10e-06	0	57	0	550502400	59	5217
2026-01-02 07:19:58.12	35.77	32.40	-49.0	-51.6	13.6	7.60e-06	0	57	0	552599552	59	5268
2026-01-02 07:19:59.10	35.41	32.41	-49.2	-52.1	13.1	1.90e-05	0	57	0	553648128	60	5235
2026-01-02 07:20:00.08	35.05	32.43	-49.0	-51.8	13.4	2.51e-05	0	57	0	555745280	60	5053
2026-01-02 07:20:01.07	34.69	32.44	-49.0	-51.8	13.3	8.30e-06	0	57	0	557842432	60	5098
2026-01-02 07:20:02.06	34.33	32.46	-48.9	-51.7	13.4	1.06e-05	0	57	0	559939584	60	5026
2026-01-02 07:20:03.05	33.96	32.47	-48.8	-51.5	13.6	9.10e-06	0	57	0	560988160	60	4924
2026-01-02 07:20:04.03	33.60	32.48	-49.1	-51.9	13.3	9.10e-06	0	57	0	563085312	60	5109
2026-01-02 07:20:05.03	33.23	32.49	-49.0	-51.8	13.3	2.21e-05	0	57	0	565182464	60	5076
2026-01-02 07:20:06.02	32.87	32.50	-49.1	-51.9	13.2	3.12e-05	0	57	0	567279616	60	5115
2026-01-02 07:20:07.01	32.50	32.50	-49.0	-51.8	13.4	1.22e-05	0	57	0	568328192	60	5054
2026-01-02 07:20:08.00	32.14	32.51	-49.1	-51.9	13.2	1.44e-05	0	57	0	570425344	60	5143
2026-01-02 07:20:08.99	31.77	32.51	-48.9	-51.6	13.5	9.10e-06	0	57	0	572522496	60	4975
2026-01-02 07:20:09.98	31.40	32.51	-48.8	-51.4	13.7	5.30e-06	0	57	0	574619648	60	4865
2026-01-02 07:20:10.97	31.04	32.51	-48.5	-50.9	14.2	5.30e-06	0	57	0	576716800	60	4596
2026-01-02 07:20:11.96	30.67	32.51	-48.5	-50.9	14.3	1.50e-06	0	57	0	577765376	60	4561
2026-01-02 07:20:12.96	30.30	32.51	-48.4	-50.7	14.5	0.00e+00	0	57	0	579862528	59	4711
2026-01-02 07:20:13.95	29.94	32.51	-48.5	-50.8	14.4	0.00e+00	0	57	0	581959680	59	4775
2026-01-02 07:20:14.93	29.58	32.50	-48.3	-50.5	14.6	0.00e+00	0	57	0	584056832	59	4651
2026-01-02 07:20:15.92	29.21	32.50	-48.3	-50.6	14.6	7.00e-07	0	57	0	585105408	59	4674
2026-01-02 07:20:16.91	28.85	32.49	-48.5	-50.8	14.3	0.00e+00	0	57	0	587202560	59	4793
2026-01-02 07:20:17.90	28.48	32.48	-48.6	-51.1	14.0	2.20e-06	0	57	0	589299712	59	4974
2026-01-02 07:20:18.89	28.12	32.47	-48.6	-51.2	14.0	2.20e-06	0	57	0	591396864	59	5000
2026-01-02 07:20:19.88	27.75	32.46	-48.8	-51.4	13.7	4.50e-06	0	57	0	593494016	59	5147
2026-01-02 07:20:20.87	27.39	32.45	-48.8	-51.4	13.7	6.10e-06	0	57	0	594542592	59	5145
2026-01-02 07:20:21.86	27.02	32.44	-49.0	-51.7	13.4	7.60e-06	0	57	0	596639744	59	5320
2026-01-02 07:20:22.85	26.66	32.42	-49.1	-52.0	13.1	1.60e-05	0	57	0	598736896	60	5181
2026-01-02 07:20:23.84	26.30	32.41	-49.0	-51.7	13.4	1.37e-05	0	57	0	600834048	60	5013
2026-01-02 07:20:24.83	25.93	32.39	-48.8	-51.5	13.6	1.29e-05	0	57	0	601882624	60	4888
2026-01-02 07:20:25.82	25.57	32.37	-48.9	-51.7	13.3	1.44e-05	0	57	0	603979776	60	5012
2026-01-02 07:20:26.81	25.21	32.35	-48.9	-51.9	12.9	2.51e-05	0	57	0	606076928	60	5136
2026-01-02 07:20:27.79	24.85	32.33	-48.9	-52.0	12.6	9.53e-05	0	57	0	608174080	60	5178
2026-01-02 07:20:28.78	24.49	32.31	-48.8	-52.0	12.3	1.40e-04	0	57	0	609222656	60	5187
2026-01-02 07:20:29.76	24.13	32.28	-48.8	-52.1	12.2	1.89e-04	0	57	0	611319808	60	5248
2026-01-02 07:20:30.75	23.77	32.26	-48.8	-52.1	12.2	2.91e-04	0	57	0	613416960	60	5236
2026-01-02 07:20:31.75	23.41	32.23	-48.6	-51.9	12.4	1.24e-04	0	57	0	615514112	60	5116
2026-01-02 07:20:32.73	23.05	32.20	-48.8	-51.9	12.4	1.65e-04	0	57	0	617611264	60	5158
2026-01-02 07:20:33.72	22.70	32.18	-48.7	-51.8	12.6	1.46e-04	0	57	0	618659840	60	5069
2026-01-02 07:20:34.71	22.34	32.15	-48.7	-52.0	12.4	1.27e-04	0	57	0	620756992	60	5169
2026-01-02 07:20:35.69	21.99	32.12	-49.0	-52.6	11.8	3.55e-04	0	58	0	622854144	60	5548
2026-01-02 07:20:36.68	21.63	32.08	-49.2	-53.1	11.2	9.06e-04	0	57	0	624951296	60	5859
2026-01-02 07:20:37.68	21.27	32.05	-49.3	-53.3	10.9	1.92e-03	0	57	0	625999872	60	6015
2026-01-02 07:20:38.67	20.92	32.01	-49.5	-53.7	10.4	4.20e-03	0	57	0	628097024	60	6322
2026-01-02 07:20:39.66	20.56	31.98	-49.7	-54.1	10.0	6.39e-03	0	57	0	630194176	61	6222
2026-01-02 07:20:40.64	20.21	31.94	-49.8	-54.5	9.6	1.03e-02	0	57	0	632291328	61	6511
2026-01-02 07:20:41.64	19.86	31.90	-49.8	-54.7	9.3	1.82e-02	0	57	0	633339904	61	6694
2026-01-02 07:20:42.63	19.50	31.86	-49.9	-55.1	8.8	2.49e-02	0	57	0	635437056	61	6991
2026-01-02 07:20:43.62	19.15	31.82	-50.0	-55.3	8.7	4.01e-02	0	57	0	637534208	61	7139
2026-01-02 07:20:44.61	18.80	31.78	-49.9	-54.8	9.2	2.66e-02	0	57	0	639631360	61	6734
2026-01-02 07:20:45.60	18.46	31.74	-49.6	-54.0	10.1	1.42e-02	0	57	0	641728512	61	6173
2026-01-02 07:20:46.58	18.11	31.69	-49.4	-53.5	10.7	4.13e-03	0	58	0	642777088	61	5821
2026-01-02 07:20:47.57	17.76	31.65	-49.4	-53.3	10.9	2.14e-03	0	57	0	644874240	61	5704
2026-01-02 07:20:48.56	17.42	31.60	-49.5	-53.4	10.8	2.34e-03	0	57	0	646971392	61	5783
2026-01-02 07:20:49.55	17.07	31.55	-49.6	-53.6	10.8	2.79e-03	0	57	0	649068544	61	5868
2026-01-02 07:20:50.54	16.73	31.50	-49.5	-53.5	11.0	2.37e-03	0	57	0	650117120	61	5812
2026-01-02 07:20:51.54	16.38	31.45	-49.6	-53.3	11.2	1.89e-03	0	57	0	652214272	61	5707
2026-01-02 07:20:52.53	16.04	31.40	-49.5	-53.2	11.5	8.90e-04	0	57	0	654311424	61	5613
2026-01-02 07:20:53.52	15.70	31.35	-49.3	-52.6	12.0	4.41e-04	0	58	0	656408576	61	5270
2026-01-02 07:20:54.51	15.36	31.30	-49.0	-52.1	12.6	1.58e-04	0	57	0	657457152	61	4981
2026-01-02 07:20:55.51	15.02	31.24	-48.8	-51.7	13.1	4.42e-05	0	57	0	659554304	60	5005
2026-01-02 07:20:56.49	14.69	31.19	-48.7	-51.5	13.3	1.98e-05	0	57	0	661651456	60	4911
2026-01-02 07:20:57.48	14.35	31.13	-48.7	-51.5	13.5	9.90e-06	0	57	0	663748608	60	4877
2026-01-02 07:20:58.47	14.02	31.08	-48.9	-51.7	13.3	9.10e-06	0	57	0	665845760	60	4988
2026-01-02 07:20:59.46	13.68	31.02	-49.1	-52.0	13.0	2.89e-05	0	57	0	666894336	60	5198
2026-01-02 07:21:00.46	13.35	30.96	-49.3	-52.5	12.5	7.93e-05	0	57	0	668991488	60	5476
2026-01-02 07:21:01.44	13.02	30.90	-49.3	-52.3	12.7	8.08e-05	0	57	0	671088640	60	5399
2026-01-02 07:21:02.43	12.69	30.84	-49.1	-52.1	12.8	7.85e-05	0	57	0	673185792	60	5243
2026-01-02 07:21:03.42	12.36	30.78	-49.1	-52.2	12.8	4.42e-05	0	57	0	674234368	60	5296
2026-01-02 07:21:04.41	12.03	30.71	-49.1	-52.1	12.9	6.86e-05	0	57	0	676331520	60	5254
2026-01-02 07:21:05.41	11.70	30.65	-48.9	-51.8	13.3	2.05e-05	0	57	0	678428672	60	5068
2026-01-02 07:21:06.39	11.38	30.59	-49.0	-51.9	13.1	1.44e-05	0	57	0	680525824	60	5130
2026-01-02 07:21:07.38	11.06	30.52	-49.1	-52.1	12.9	2.97e-05	0	57	0	681574400	60	5248
2026-01-02 07:21:08.37	10.74	30.45	-49.2	-52.2	12.8	4.19e-05	0	57	0	683671552	60	5313
2026-01-02 07:21:09.37	10.41	30.39	-49.3	-52.3	12.8	6.48e-05	0	57	0	685768704	60	5346
2026-01-02 07:21:10.36	10.09	30.32	-49.3	-52.3	12.8	7.55e-05	0	57	0	687865856	60	5360
2026-01-02 07:21:11.35	9.77	30.25	-49.2	-52.3	12.7	7.62e-05	0	57	0	689963008	60	5377
2026-01-02 07:21:12.34	9.46	30.18	-49.1	-52.0	13.0	3.43e-05	0	57	0	691011584	60	5216
2026-01-02 07:21:13.33	9.14	30.11	-49.1	-51.9	13.2	1.37e-05	0	57	0	693108736	60	5108
2026-01-02 07:21:14.31	8.83	30.04	-49.1	-51.9	13.2	2.05e-05	0	57	0	695205888	60	5111
2026-01-02 07:21:15.31	8.52	29.97	-49.1	-51.9	13.1	2.28e-05	0	57	0	697303040	60	5142
2026-01-02 07:21:16.30	8.21	29.89	-49.1	-51.9	13.2	2.51e-05	0	57	0	698351616	60	5129
2026-01-02 07:21:17.29	7.90	29.82	-49.0	-52.0	13.1	2.51e-05	0	57	0	700448768	60	5160
2026-01-02 07:21:18.27	7.59	29.75	-49.1	-52.2	13.0	3.81e-05	0	57	0	702545920	60	5307
2026-01-02 07:21:19.27	7.28	29.67	-49.3	-52.3	12.9	5.11e-05	0	58	0	704643072	60	5345
2026-01-02 07:21:20.27	6.97	29.59	-49.4	-52.5	12.6	8.31e-05	0	57	0	706740224	60	5490
2026-01-02 07:21:21.26	6.67	29.52	-49.2	-52.1	13.0	3.89e-05	0	57	0	707788800	60	5237
2026-01-02 07:21:22.25	6.37	29.44	-49.1	-52.0	13.1	3.35e-05	0	57	0	709885952	60	5202
2026-01-02 07:21:23.24	6.07	29.36	-49.3	-52.2	12.9	3.73e-05	0	57	0	711983104	60	5323
2026-01-02 07:21:24.23	5.77	29.28	-49.1	-52.1	13.0	4.50e-05	0	57	0	714080256	60	5225
2026-01-02 07:21:25.21	5.47	29.20	-49.0	-51.7	13.4	2.13e-05	0	57	0	715128832	60	5034
2026-01-02 07:21:26.20	5.17	29.12	-48.8	-51.5	13.6	5.30e-06	0	57	0	717225984	60	4890
2026-01-02 07:21:27.20	4.88	29.04	-48.7	-51.3	13.8	9.10e-06	0	57	0	719323136	60	4783
2026-01-02 07:21:28.18	4.59	28.96	-48.8	-51.4	13.8	6.10e-06	0	57	0	721420288	60	4828
2026-01-02 07:21:29.18	4.29	28.88	-48.6	-51.1	13.9	3.80e-06	0	57	0	722468864	60	4701
2026-01-02 07:21:30.16	4.00	28.80	-48.6	-51.2	14.0	1.50e-06	0	57	0	724566016	60	4749
2026-01-02 07:21:31.15	3.71	28.72	-48.5	-51.0	14.1	1.50e-06	0	57	0	726663168	60	4642
2026-01-02 07:21:32.14	3.43	28.63	-48.7	-51.4	13.7	2.20e-06	0	57	0	728760320	60	4819
2026-01-02 07:21:33.13	3.14	28.55	-48.6	-51.2	14.0	2.20e-06	0	57	0	730857472	60	4710
2026-01-02 07:21:34.12	2.86	28.46	-48.6	-51.1	14.0	7.00e-07	0	57	0	731906048	60	4702
2026-01-02 07:21:35.11	2.57	28.38	-48.6	-51.2	14.0	4.50e-06	0	57	0	734003200	60	4716
2026-01-02 07:21:36.10	2.29	28.29	-48.4	-50.8	14.3	7.00e-07	0	57	0	736100352	59	4792
2026-01-02 07:21:37.09	2.01	28.21	-48.5	-51.0	14.1	0.00e+00	0	57	0	738197504	59	4906
2026-01-02 07:21:38.09	1.73	28.12	-48.7	-51.2	13.9	6.10e-06	0	57	0	739246080	59	5025
2026-01-02 07:21:39.07	1.46	28.03	-48.9	-51.7	13.4	5.30e-06	0	57	0	741343232	59	5313
2026-01-02 07:21:40.06	1.18	27.95	-48.7	-51.2	13.9	6.10e-06	0	57	0	743440384	59	5006
2026-01-02 07:21:41.05	0.91	27.86	-48.5	-50.9	14.2	1.50e-06	0	57	0	745537536	59	4841
2026-01-02 07:21:42.04	0.64	27.77	-48.4	-50.7	14.4	1.50e-06	0	57	0	746586112	59	4725
2026-01-02 07:21:43.04	0.36	27.68	-48.7	-51.2	13.9	3.00e-06	0	57	0	748683264	59	5013
2026-01-02 07:21:44.03	0.09	27.59	-48.8	-51.4	13.8	3.00e-06	0	57	0	750780416	59	5116
2026-01-02 07:21:45.02	359.82	27.50	-48.6	-51.0	14.0	5.30e-06	0	57	0	752877568	59	4922
2026-01-02 07:21:46.01	359.56	27.41	-48.4	-50.8	14.3	7.00e-07	0	57	0	754974720	59	4789
2026-01-02 07:21:46.99	359.30	27.32	-48.4	-50.7	14.4	1.50e-06	0	57	0	756023296	59	4727
2026-01-02 07:21:47.98	359.03	27.23	-48.3	-50.5	14.6	0.00e+00	0	57	0	758120448	59	4648
2026-01-02 07:21:48.97	358.77	27.14	-48.4	-50.7	14.5	0.00e+00	0	57	0	760217600	59	4720
2026-01-02 07:21:49.96	358.51	27.05	-48.2	-50.4	14.7	0.00e+00	0	57	0	762314752	59	4590
2026-01-02 07:21:50.95	358.25	26.96	-48.4	-50.8	14.3	0.00e+00	0	57	0	763363328	59	4806
2026-01-02 07:21:51.94	358.00	26.86	-48.2	-50.4	14.7	7.00e-07	0	57	0	765460480	59	4586
2026-01-02 07:21:52.92	357.74	26.77	-47.9	-50.0	15.1	0.00e+00	0	57	0	767557632	59	4369
2026-01-02 07:21:53.91	357.49	26.68	-47.6	-49.6	15.5	0.00e+00	0	58	0	769654784	58	4423
2026-01-02 07:21:54.89	357.24	26.59	-47.5	-49.4	15.7	0.00e+00	0	57	0	770703360	58	4307
2026-01-02 07:21:55.89	356.98	26.49	-47.4	-49.2	15.9	0.00e+00	0	57	0	772800512	57	4474
2026-01-02 07:21:56.87	356.74	26.40	-47.4	-49.2	15.9	0.00e+00	0	58	0	774897664	57	4476
2026-01-02 07:21:57.86	356.49	26.31	-47.2	-48.9	16.2	0.00e+00	0	58	0	776994816	57	4336
2026-01-02 07:21:58.85	356.24	26.21	-47.2	-49.0	16.1	0.00e+00	0	58	0	778043392	57	4357
2026-01-02 07:21:59.83	356.00	26.12	-47.1	-48.9	16.2	0.00e+00	0	57	0	780140544	57	4305
2026-01-02 07:22:00.82	355.76	26.02	-47.1	-48.8	16.3	0.00e+00	0	57	0	782237696	57	4258
2026-01-02 07:22:01.80	355.52	25.93	-47.0	-48.8	16.3	0.00e+00	0	57	0	784334848	57	4252
2026-01-02 07:22:02.79	355.28	25.83	-47.1	-48.9	16.2	0.00e+00	0	57	0	786432000	57	4296
2026-01-02 07:22:03.77	355.04	25.74	-46.9	-48.6	16.5	0.00e+00	0	57	0	787480576	57	4173
2026-01-02 07:22:04.76	354.80	25.64	-46.7	-48.3	16.7	0.00e+00	0	57	0	789577728	56	4284
2026-01-02 07:22:05.75	354.56	25.55	-46.6	-48.1	16.9	0.00e+00	0	57	0	791674880	56	4181
2026-01-02 07:22:06.74	354.33	25.45	-46.7	-48.2	16.9	0.00e+00	0	57	0	793772032	56	4237
2026-01-02 07:22:07.73	354.10	25.36	-46.5	-48.1	17.1	0.00e+00	0	57	0	794820608	56	4146
2026-01-02 07:22:08.72	353.86	25.26	-46.4	-47.9	17.1	0.00e+00	0	57	0	796917760	55	4315
2026-01-02 07:22:09.71	353.63	25.16	-46.2	-47.7	17.2	0.00e+00	0	57	0	799014912	55	4234
2026-01-02 07:22:10.70	353.40	25.07	-46.2	-47.6	17.4	0.00e+00	0	57	0	801112064	55	4186
2026-01-02 07:22:11.69	353.18	24.97	-46.1	-47.5	17.4	0.00e+00	0	57	0	802160640	55	4120
2026-01-02 07:22:12.68	352.95	24.87	-46.0	-47.4	17.6	0.00e+00	0	57	0	804257792	55	4069
2026-01-02 07:22:13.66	352.73	24.78	-46.0	-47.5	17.5	0.00e+00	0	57	0	806354944	55	4109
2026-01-02 07:22:14.64	352.50	24.68	-45.9	-47.3	17.6	0.00e+00	0	57	0	808452096	55	4020
2026-01-02 07:22:15.62	352.28	24.58	-45.8	-47.1	17.8	0.00e+00	0	57	0	810549248	54	4176
2026-01-02 07:22:16.61	352.06	24.49	-45.7	-47.0	18.0	0.00e+00	0	57	0	811597824	54	4114
2026-01-02 07:22:17.60	351.84	24.39	-45.8	-47.1	17.8	0.00e+00	0	57	0	813694976	54	4190
2026-01-02 07:22:18.59	351.63	24.29	-45.8	-47.2	17.8	0.00e+00	0	57	0	815792128	54	4195
2026-01-02 07:22:19.58	351.41	24.19	-45.7	-47.1	17.9	0.00e+00	0	57	0	817889280	54	4152
2026-01-02 07:22:20.56	351.20	24.10	-45.6	-46.9	18.0	0.00e+00	0	57	0	818937856	54	4085
2026-01-02 07:22:21.56	350.98	24.00	-45.7	-47.1	17.8	0.00e+00	0	57	0	821035008	54	4148
2026-01-02 07:22:22.54	350.77	23.90	-45.8	-47.2	17.7	0.00e+00	0	57	0	823132160	54	4228
2026-01-02 07:22:23.53	350.56	23.80	-45.9	-47.3	17.7	0.00e+00	0	57	0	825229312	54	4259
2026-01-02 07:22:24.52	350.35	23.70	-45.8	-47.3	17.7	0.00e+00	0	57	0	826277888	54	4243
2026-01-02 07:22:25.51	350.14	23.61	-46.1	-47.6	17.4	0.00e+00	0	57	0	828375040	54	4394
2026-01-02 07:22:26.49	349.93	23.51	-46.1	-47.6	17.4	0.00e+00	0	58	0	830472192	54	4396
2026-01-02 07:22:27.48	349.73	23.41	-45.9	-47.2	17.7	0.00e+00	0	57	0	832569344	54	4238
2026-01-02 07:22:28.46	349.52	23.31	-45.8	-47.1	17.8	0.00e+00	0	57	0	833617920	54	4188
2026-01-02 07:22:29.45	349.32	23.22	-45.8	-47.2	17.8	0.00e+00	0	57	0	835715072	54	4198
2026-01-02 07:22:30.43	349.12	23.12	-45.8	-47.2	17.7	0.00e+00	0	57	0	837812224	54	4226
2026-01-02 07:22:31.42	348.92	23.02	-46.0	-47.4	17.5	0.00e+00	0	57	0	839909376	54	4320
2026-01-02 07:22:32.42	348.72	22.92	-46.1	-47.6	17.3	0.00e+00	0	57	0	842006528	54	4412
2026-01-02 07:22:33.41	348.52	22.82	-46.2	-47.6	17.3	0.00e+00	0	57	0	843055104	54	4437
2026-01-02 07:22:34.40	348.32	22.72	-46.3	-47.8	17.1	0.00e+00	0	57	0	845152256	54	4533
2026-01-02 07:22:35.38	348.13	22.63	-46.3	-47.8	17.1	0.00e+00	0	57	0	847249408	54	4526
2026-01-02 07:22:36.38	347.93	22.53	-46.4	-48.0	16.9	0.00e+00	0	57	0	849346560	54	4624
2026-01-02 07:22:37.37	347.74	22.43	-46.4	-47.9	17.0	0.00e+00	0	57	0	850395136	54	4582
2026-01-02 07:22:38.36	347.55	22.33	-46.5	-48.1	16.7	0.00e+00	0	57	0	852492288	54	4704
2026-01-02 07:22:39.35	347.36	22.23	-46.6	-48.2	16.7	0.00e+00	0	57	0	854589440	55	4464
2026-01-02 07:22:40.35	347.16	22.13	-46.5	-48.1	16.8	0.00e+00	0	57	0	856686592	55	4408
2026-01-02 07:22:41.34	346.98	22.04	-46.6	-48.2	16.7	0.00e+00	0	57	0	857735168	55	4479
2026-01-02 07:22:42.33	346.79	21.94	-46.6	-48.3	16.6	0.00e+00	0	57	0	859832320	55	4520
2026-01-02 07:22:43.32	346.60	21.84	-46.7	-48.3	16.5	0.00e+00	0	57	0	861929472	55	4545
2026-01-02 07:22:44.30	346.42	21.74	-46.6	-48.2	16.6	0.00e+00	0	57	0	864026624	55	4480
2026-01-02 07:22:45.30	346.23	21.64	-46.8	-48.5	16.4	0.00e+00	0	57	0	866123776	55	4602
2026-01-02 07:22:46.29	346.05	21.55	-46.5	-48.1	16.7	0.00e+00	0	57	0	867172352	55	4412
2026-01-02 07:22:47.28	345.87	21.45	-46.3	-47.8	17.0	0.00e+00	0	58	0	869269504	55	4284
2026-01-02 07:22:48.27	345.69	21.35	-46.1	-47.6	17.2	0.00e+00	0	57	0	871366656	55	4185
2026-01-02 07:22:49.27	345.51	21.25	-46.1	-47.6	17.2	0.00e+00	0	57	0	873463808	55	4169
2026-01-02 07:22:50.26	345.33	21.15	-46.2	-47.7	17.1	0.00e+00	0	57	0	874512384	55	4229
2026-01-02 07:22:51.25	345.16	21.06	-46.3	-47.8	17.1	0.00e+00	0	57	0	876609536	55	4253
2026-01-02 07:22:52.24	344.98	20.96	-46.4	-48.0	16.8	0.00e+00	0	57	0	878706688	55	4357
2026-01-02 07:22:53.23	344.81	20.86	-46.5	-48.0	16.8	0.00e+00	0	57	0	880803840	55	4387
2026-01-02 07:22:54.21	344.63	20.77	-46.6	-48.2	16.6	0.00e+00	0	57	0	881852416	55	4482
2026-01-02 07:22:55.20	344.46	20.67	-46.7	-48.4	16.4	0.00e+00	0	57	0	883949568	55	4549
2026-01-02 07:22:56.19	344.29	20.57	-46.6	-48.3	16.6	0.00e+00	0	57	0	886046720	55	4498
2026-01-02 07:22:57.18	344.12	20.48	-46.5	-48.2	16.5	0.00e+00	0	57	0	888143872	55	4474
2026-01-02 07:22:58.17	343.95	20.38	-46.7	-48.4	16.4	0.00e+00	0	57	0	890241024	55	4559
2026-01-02 07:22:59.16	343.78	20.28	-46.7	-48.5	16.2	0.00e+00	0	57	0	891289600	55	4609
2026-01-02 07:23:00.16	343.62	20.18	-46.6	-48.4	16.4	0.00e+00	0	58	0	893386752	55	4553
2026-01-02 07:23:01.14	343.45	20.09	-46.7	-48.4	16.3	0.00e+00	0	57	0	895483904	55	4546
2026-01-02 07:23:02.13	343.29	19.99	-46.9	-48.7	16.0	0.00e+00	0	58	0	897581056	55	4714
2026-01-02 07:23:03.11	343.12	19.90	-46.9	-48.8	15.9	0.00e+00	0	57	0	898629632	55	4773
2026-01-02 07:23:04.10	342.96	19.80	-47.5	-49.5	15.2	0.00e+00	0	57	0	900726784	56	4901
2026-01-02 07:23:05.09	342.80	19.71	-47.5	-49.6	15.1	0.00e+00	0	57	0	902823936	56	4935
2026-01-02 07:23:06.08	342.64	19.61	-47.7	-50.0	14.6	7.00e-07	0	57	0	904921088	57	4871
2026-01-02 07:23:07.06	342.48	19.51	-47.7	-50.1	14.4	0.00e+00	0	57	0	905969664	57	4937
2026-01-02 07:23:08.05	342.32	19.42	-48.2	-50.9	13.5	2.20e-06	0	57	0	908066816	58	5111
2026-01-02 07:23:09.04	342.17	19.32	-48.6	-51.9	12.3	9.53e-05	0	57	0	910163968	59	5438
2026-01-02 07:23:10.04	342.01	19.23	-49.2	-53.2	10.8	9.35e-04	0	57	0	912261120	60	5985
2026-01-02 07:23:11.03	341.85	19.13	-49.3	-53.8	10.1	4.29e-03	0	57	0	914358272	60	6365
2026-01-02 07:23:12.03	341.70	19.04	-49.6	-54.5	9.3	1.43e-02	0	57	0	915406848	60	6914
2026-01-02 07:23:13.01	341.55	18.94	-49.4	-54.4	9.3	1.94e-02	0	57	0	917504000	61	6430
2026-01-02 07:23:14.01	341.39	18.85	-49.5	-54.8	8.8	2.53e-02	0	57	0	919601152	61	6774
2026-01-02 07:23:15.00	341.24	18.75	-49.4	-54.6	9.0	2.88e-02	0	58	0	921698304	61	6576
2026-01-02 07:23:15.99	341.09	18.66	-49.3	-54.3	9.2	2.17e-02	0	57	0	922746880	61	6397
2026-01-02 07:23:16.97	340.94	18.56	-49.4	-54.2	9.5	1.67e-02	0	57	0	924844032	61	6288
2026-01-02 07:23:17.95	340.79	18.47	-49.2	-53.5	10.4	8.13e-03	0	57	0	926941184	61	5812
2026-01-02 07:23:18.95	340.64	18.38	-48.9	-52.6	11.5	2.15e-03	0	57	0	929038336	61	5245
2026-01-02 07:23:19.94	340.50	18.28	-48.7	-51.9	12.3	2.05e-04	0	57	0	931135488	60	5153
2026-01-02 07:23:20.93	340.35	18.19	-48.7	-51.7	12.6	1.10e-04	0	57	0	932184064	60	5038
2026-01-02 07:23:21.91	340.21	18.10	-48.6	-51.6	12.9	6.33e-05	0	57	0	934281216	60	4930
2026-01-02 07:23:22.90	340.06	18.00	-48.7	-51.7	12.8	4.42e-05	0	57	0	936378368	60	5032
2026-01-02 07:23:23.89	339.92	17.91	-48.3	-50.9	13.7	1.98e-05	0	57	0	938475520	59	4853
2026-01-02 07:23:24.88	339.78	17.82	-48.1	-50.6	14.1	3.00e-06	0	57	0	939524096	59	4677
2026-01-02 07:23:25.87	339.64	17.72	-48.2	-50.6	14.1	7.00e-07	0	57	0	941621248	59	4673
2026-01-02 07:23:26.85	339.50	17.63	-48.1	-50.6	14.2	1.50e-06	0	57	0	943718400	59	4652
2026-01-02 07:23:27.85	339.36	17.54	-48.3	-50.8	13.9	7.00e-07	0	57	0	945815552	59	4776
2026-01-02 07:23:28.83	339.22	17.45	-48.3	-50.9	13.9	1.50e-06	0	57	0	946864128	59	4840
2026-01-02 07:23:29.82	339.08	17.36	-48.4	-51.1	13.8	6.10e-06	0	57	0	948961280	59	4927
2026-01-02 07:23:30.80	338.95	17.26	-48.7	-51.6	13.2	6.80e-06	0	58	0	951058432	59	5236
2026-01-02 07:23:31.79	338.81	17.17	-48.5	-51.2	13.6	9.90e-06	0	57	0	953155584	59	5006
2026-01-02 07:23:32.78	338.67	17.08	-48.1	-50.5	14.3	2.20e-06	0	57	0	954204160	59	4626
2026-01-02 07:23:33.76	338.54	16.99	-47.9	-50.1	14.7	0.00e+00	0	57	0	956301312	58	4691
2026-01-02 07:23:34.75	338.41	16.90	-47.8	-50.0	14.9	0.00e+00	0	57	0	958398464	58	4607
2026-01-02 07:23:35.73	338.28	16.81	-47.7	-49.8	15.0	0.00e+00	0	57	0	960495616	58	4518
2026-01-02 07:23:36.72	338.14	16.72	-47.6	-49.8	15.1	0.00e+00	0	57	0	962592768	58	4495
2026-01-02 07:23:37.71	338.01	16.63	-47.6	-49.7	15.1	0.00e+00	0	57	0	963641344	58	4463
2026-01-02 07:23:38.69	337.88	16.54	-47.7	-49.9	15.0	0.00e+00	0	57	0	965738496	58	4550
2026-01-02 07:23:39.68	337.75	16.45	-47.9	-50.1	14.7	0.00e+00	0	57	0	967835648	58	4701
2026-01-02 07:23:40.67	337.62	16.36	-47.9	-50.2	14.7	7.00e-07	0	57	0	969932800	58	4713
2026-01-02 07:23:41.66	337.50	16.27	-47.8	-50.1	14.8	0.00e+00	0	57	0	970981376	58	4655
2026-01-02 07:23:42.64	337.37	16.18	-47.9	-50.2	14.6	7.00e-07	0	57	0	973078528	58	4728
2026-01-02 07:23:43.63	337.24	16.09	-47.9	-50.3	14.6	1.50e-06	0	57	0	975175680	58	4763
2026-01-02 07:23:44.62	337.12	16.00	-48.0	-50.3	14.6	0.00e+00	0	57	0	977272832	58	4776
2026-01-02 07:23:45.61	336.99	15.91	-48.1	-50.5	14.3	7.00e-07	0	57	0	978321408	58	4926
2026-01-02 07:23:46.60	336.87	15.82	-48.1	-50.4	14.4	1.50e-06	0	57	0	980418560	58	4860
2026-01-02 07:23:47.60	336.74	15.73	-48.1	-50.5	14.3	0.00e+00	0	57	0	982515712	58	4887
2026-01-02 07:23:48.59	336.62	15.64	-48.3	-50.7	14.1	7.00e-07	0	58	0	984612864	58	5008
2026-01-02 07:23:49.58	336.50	15.55	-48.2	-50.7	14.2	7.00e-07	0	58	0	986710016	58	4999
2026-01-02 07:23:50.58	336.38	15.46	-48.1	-50.5	14.3	0.00e+00	0	57	0	987758592	58	4904
2026-01-02 07:23:51.57	336.26	15.38	-48.2	-50.5	14.3	7.00e-07	0	57	0	989855744	58	4913
2026-01-02 07:23:52.56	336.14	15.29	-48.2	-50.5	14.3	0.00e+00	0	57	0	991952896	58	4900
2026-01-02 07:23:53.55	336.02	15.20	-48.2	-50.6	14.2	7.00e-07	0	57	0	994050048	58	4974
2026-01-02 07:23:54.54	335.90	15.11	-48.3	-50.7	14.2	3.00e-06	0	57	0	995098624	58	5016
2026-01-02 07:23:55.53	335.78	15.03	-48.2	-50.6	14.2	1.50e-06	0	57	0	997195776	58	4975
2026-01-02 07:23:56.51	335.67	14.94	-48.3	-50.7	14.1	7.00e-07	0	57	0	999292928	58	5010
2026-01-02 07:23:57.50	335.55	14.85	-48.4	-50.9	14.0	2.20e-06	0	57	0	1001390080	58	5106
2026-01-02 07:23:58.50	335.43	14.77	-48.4	-50.9	13.9	3.80e-06	0	58	0	1002438656	58	5135
2026-01-02 07:23:59.49	335.32	14.68	-48.2	-50.6	14.2	0.00e+00	0	57	0	1004535808	58	4976
2026-01-02 07:24:00.48	335.20	14.59	-48.1	-50.4	14.5	7.00e-07	0	57	0	1006632960	58	4822
2026-01-02 07:24:01.46	335.09	14.51	-48.0	-50.2	14.6	7.00e-07	0	57	0	1008730112	58	4753
2026-01-02 07:24:02.44	334.98	14.42	-48.0	-50.3	14.6	7.00e-07	0	57	0	1010827264	58	4763
2026-01-02 07:24:03.43	334.87	14.34	-48.0	-50.3	14.6	0.00e+00	0	57	0	1011875840	58	4772
2026-01-02 07:24:04.42	334.76	14.25	-48.0	-50.3	14.6	7.00e-07	0	57	0	1013972992	58	4772
2026-01-02 07:24:05.40	334.65	14.17	-48.0	-50.3	14.6	7.00e-07	0	57	0	1016070144	58	4783
2026-01-02 07:24:06.39	334.54	14.08	-48.0	-50.2	14.6	0.00e+00	0	58	0	1018167296	58	4740
2026-01-02 07:24:07.38	334.43	13.99	-48.0	-50.3	14.6	0.00e+00	0	57	0	1019215872	58	4769
2026-01-02 07:24:08.36	334.32	13.91	-48.1	-50.4	14.5	0.00e+00	0	57	0	1021313024	58	4847
2026-01-02 07:24:09.36	334.21	13.83	-48.2	-50.5	14.3	7.00e-07	0	57	0	1023410176	58	4916
2026-01-02 07:24:10.35	334.10	13.74	-48.1	-50.5	14.4	1.50e-06	0	57	0	1025507328	58	4879
2026-01-02 07:24:11.34	334.00	13.66	-48.3	-50.7	14.2	7.00e-07	0	58	0	1026555904	58	5002
2026-01-02 07:24:12.32	333.89	13.57	-48.3	-50.7	14.1	1.50e-06	0	57	0	1028653056	58	5040
2026-01-02 07:24:13.31	333.79	13.49	-48.3	-50.7	14.1	3.80e-06	0	57	0	1030750208	58	5010
2026-01-02 07:24:14.30	333.68	13.41	-48.3	-50.8	14.1	1.50e-06	0	57	0	1032847360	58	5067
2026-01-02 07:24:15.28	333.58	13.32	-48.4	-51.0	13.8	3.80e-06	0	57	0	1033895936	58	5187
2026-01-02 07:24:16.26	333.47	13.24	-48.3	-50.7	14.2	2.20e-06	0	57	0	1035993088	58	5036
2026-01-02 07:24:17.25	333.37	13.16	-48.3	-50.7	14.1	7.00e-07	0	57	0	1038090240	58	5020
2026-01-02 07:24:18.24	333.27	13.07	-48.2	-50.7	14.1	1.50e-06	0	57	0	1040187392	58	5032
2026-01-02 07:24:19.23	333.17	12.99	-48.4	-50.8	14.0	3.00e-06	0	57	0	1042284544	58	5099
2026-01-02 07:24:20.22	333.07	12.91	-48.3	-50.9	14.0	3.00e-06	0	58	0	1043333120	58	5109
2026-01-02 07:24:21.21	332.96	12.83	-48.3	-50.8	14.0	2.20e-06	0	57	0	1045430272	58	5080
2026-01-02 07:24:22.19	332.86	12.74	-48.3	-50.8	14.1	7.00e-07	0	57	0	1047527424	58	5062
2026-01-02 07:24:23.19	332.76	12.66	-48.3	-50.8	14.1	2.20e-06	0	57	0	1049624576	58	5062
2026-01-02 07:24:24.18	332.67	12.58	-48.2	-50.7	14.1	3.00e-06	0	58	0	1050673152	58	5015
2026-01-02 07:24:25.17	332.57	12.50	-48.2	-50.6	14.2	2.20e-06	0	57	0	1052770304	58	4957
2026-01-02 07:24:26.17	332.47	12.42	-48.2	-50.5	14.3	0.00e+00	0	58	0	1054867456	58	4918
2026-01-02 07:24:27.16	332.37	12.33	-48.2	-50.6	14.2	1.50e-06	0	57	0	1056964608	58	4948
2026-01-02 07:24:28.15	332.27	12.25	-48.2	-50.7	14.2	7.00e-07	0	57	0	1058013184	58	4987
2026-01-02 07:24:29.14	332.18	12.17	-48.4	-50.9	13.9	2.20e-06	0	57	0	1060110336	58	5108
2026-01-02 07:24:30.11	332.08	12.09	-48.2	-50.7	14.1	3.00e-06	0	57	0	1062207488	58	4996
2026-01-02 07:24:31.10	331.99	12.01	-48.4	-50.9	13.9	2.20e-06	0	57	0	1064304640	58	5117
2026-01-02 07:24:32.08	331.89	11.93	-48.2	-50.6	14.1	1.50e-06	0	57	0	1066401792	58	4981
2026-01-02 07:24:33.07	331.80	11.85	-48.2	-50.6	14.2	1.50e-06	0	58	0	1067450368	58	4954
2026-01-02 07:24:34.06	331.71	11.77	-48.2	-50.6	14.1	7.00e-07	0	57	0	1069547520	58	4978
2026-01-02 07:24:35.06	331.61	11.69	-48.2	-50.7	14.1	0.00e+00	0	57	0	1071644672	58	5008
2026-01-02 07:24:36.05	331.52	11.61	-48.3	-50.7	14.0	0.00e+00	0	57	0	1073741824	58	5039
2026-01-02 07:24:37.05	331.43	11.53	-48.4	-51.0	13.7	6.10e-06	0	58	0	1074790400	58	5216
2026-01-02 07:24:38.03	331.34	11.45	-48.3	-50.8	14.0	1.50e-06	0	57	0	1076887552	58	5066
2026-01-02 07:24:39.02	331.24	11.37	-48.3	-50.8	13.9	7.00e-07	0	57	0	1078984704	58	5088
2026-01-02 07:24:40.00	331.15	11.30	-48.4	-50.9	13.8	5.30e-06	0	58	0	1081081856	58	5158
2026-01-02 07:24:40.99	331.06	11.22	-48.4	-50.9	13.8	3.80e-06	0	58	0	1082130432	58	5138
2026-01-02 07:24:41.97	330.98	11.14	-48.5	-51.1	13.7	3.80e-06	0	57	0	1084227584	58	5232
2026-01-02 07:24:42.97	330.89	11.06	-48.5	-51.1	13.6	9.90e-06	0	57	0	1086324736	58	5260
2026-01-02 07:24:43.96	330.80	10.98	-48.6	-51.3	13.5	4.50e-06	0	58	0	1088421888	58	5357
2026-01-02 07:24:44.94	330.71	10.90	-48.6	-51.3	13.5	7.60e-06	0	57	0	1090519040	59	5043
2026-01-02 07:24:45.93	330.62	10.83	-48.6	-51.4	13.3	1.75e-05	0	57	0	1091567616	59	5117
2026-01-02 07:24:46.91	330.54	10.75	-48.7	-51.4	13.3	1.14e-05	0	57	0	1093664768	59	5134
2026-01-02 07:24:47.90	330.45	10.67	-48.7	-51.5	13.2	1.67e-05	0	57	0	1095761920	59	5204
2026-01-02 07:24:48.89	330.36	10.60	-48.7	-51.8	12.9	3.81e-05	0	57	0	1097859072	59	5341
2026-01-02 07:24:49.89	330.28	10.52	-48.7	-51.7	13.0	3.73e-05	0	58	0	1098907648	59	5296
2026-01-02 07:24:50.88	330.19	10.44	-48.9	-51.9	12.9	3.58e-05	0	57	0	1101004800	59	5417
2026-01-02 07:24:51.87	330.11	10.36	-49.1	-52.2	12.5	6.10e-05	0	58	0	1103101952	59	5604
2026-01-02 07:24:52.85	330.02	10.29	-48.9	-52.0	12.7	9.99e-05	0	57	0	1105199104	59	5486
2026-01-02 07:24:53.84	329.94	10.21	-49.0	-52.1	12.6	9.61e-05	0	57	0	1106247680	59	5573
2026-01-02 07:24:54.83	329.86	10.14	-49.1	-52.4	12.2	1.30e-04	0	57	0	1108344832	60	5436
2026-01-02 07:24:55.82	329.77	10.06	-49.2	-52.5	12.1	2.26e-04	0	57	0	1110441984	60	5510
2026-01-02 07:24:56.81	329.69	9.98	-49.2	-52.5	12.1	2.62e-04	0	57	0	1112539136	60	5511
2026-01-02 07:24:57.81	329.61	9.91	-49.2	-52.6	12.0	3.18e-04	0	57	0	1113587712	60	5570
2026-01-02 07:24:58.80	329.53	9.83	-49.3	-52.7	11.9	3.92e-04	0	57	0	1115684864	60	5646
2026-01-02 07:24:59.79	329.45	9.76	-49.2	-52.7	11.9	4.17e-04	0	57	0	1117782016	60	5613
2026-01-02 07:25:00.79	329.36	9.68	-49.1	-52.5	12.1	3.13e-04	0	57	0	1119879168	60	5518
2026-01-02 07:25:01.78	329.28	9.60	-49.3	-52.8	11.9	3.89e-04	0	58	0	1121976320	60	5669
2026-01-02 07:25:02.77	329.20	9.53	-49.2	-52.5	12.1	4.74e-04	0	57	0	1123024896	60	5526
2026-01-02 07:25:03.76	329.12	9.45	-49.1	-52.3	12.3	2.33e-04	0	58	0	1125122048	60	5370
2026-01-02 07:25:04.75	329.05	9.38	-48.9	-52.1	12.5	1.20e-04	0	57	0	1127219200	60	5242
2026-01-02 07:25:05.73	328.97	9.31	-48.8	-51.9	12.8	6.63e-05	0	57	0	1129316352	60	5119
2026-01-02 07:25:06.72	328.89	9.23	-48.9	-51.9	12.7	6.48e-05	0	57	0	1130364928	60	5131
2026-01-02 07:25:07.71	328.81	9.16	-48.9	-52.1	12.5	1.05e-04	0	58	0	1132462080	60	5226
2026-01-02 07:25:08.69	328.74	9.09	-48.9	-52.1	12.6	9.46e-05	0	57	0	1134559232	60	5228
2026-01-02 07:25:09.67	328.66	9.01	-49.0	-52.4	12.1	2.00e-04	0	57	0	1136656384	60	5444
2026-01-02 07:25:10.67	328.58	8.94	-49.1	-52.4	12.1	3.26e-04	0	57	0	1138753536	60	5452
2026-01-02 07:25:11.67	328.51	8.86	-49.0	-52.3	12.3	1.82e-04	0	57	0	1139802112	60	5370
2026-01-02 07:25:12.66	328.43	8.79	-49.1	-52.3	12.3	1.88e-04	0	57	0	1141899264	60	5398
2026-01-02 07:25:13.65	328.35	8.72	-49.0	-52.3	12.3	1.98e-04	0	57	0	1143996416	60	5352
2026-01-02 07:25:14.63	328.28	8.65	-49.1	-52.5	12.1	2.06e-04	0	57	0	1146093568	60	5481
2026-01-02 07:25:15.62	328.21	8.57	-49.2	-52.6	12.0	3.82e-04	0	57	0	1147142144	60	5543
2026-01-02 07:25:16.61	328.13	8.50	-49.2	-52.7	11.9	3.58e-04	0	57	0	1149239296	60	5600
2026-01-02 07:25:17.60	328.06	8.43	-49.3	-52.8	11.7	5.77e-04	0	57	0	1151336448	60	5667
2026-01-02 07:25:18.59	327.98	8.36	-49.3	-52.8	11.7	4.39e-04	0	57	0	1153433600	60	5721
2026-01-02 07:25:19.58	327.91	8.28	-49.3	-52.9	11.6	7.36e-04	0	57	0	1154482176	60	5764
2026-01-02 07:25:20.57	327.84	8.21	-49.3	-52.9	11.6	5.65e-04	0	57	0	1156579328	60	5730
2026-01-02 07:25:21.57	327.77	8.14	-49.5	-53.3	11.2	9.70e-04	0	57	0	1158676480	60	6005
2026-01-02 07:25:22.56	327.69	8.07	-49.4	-53.3	11.2	1.44e-03	0	57	0	1160773632	60	5993
2026-01-02 07:25:23.55	327.62	8.00	-49.4	-53.1	11.4	9.83e-04	0	57	0	1162870784	60	5874
2026-01-02 07:25:24.54	327.55	7.92	-49.5	-53.2	11.2	1.19e-03	0	57	0	1163919360	60	5970
2026-01-02 07:25:25.52	327.48	7.85	-49.5	-53.3	11.2	1.29e-03	0	57	0	1166016512	60	6008
2026-01-02 07:25:26.50	327.41	7.78	-49.6	-53.5	11.0	1.53e-03	0	57	0	1168113664	61	5847
2026-01-02 07:25:27.49	327.34	7.71	-49.6	-53.7	10.8	2.58e-03	0	57	0	1170210816	61	5934
2026-01-02 07:25:28.48	327.27	7.64	-49.6	-53.6	10.8	2.20e-03	0	57	0	1171259392	61	5893
2026-01-02 07:25:29.46	327.20	7.57	-49.7	-53.8	10.6	2.44e-03	0	57	0	1173356544	61	6059
2026-01-02 07:25:30.45	327.13	7.50	-49.8	-53.9	10.5	4.35e-03	0	57	0	1175453696	61	6107
2026-01-02 07:25:31.44	327.07	7.43	-49.7	-53.8	10.6	3.29e-03	0	57	0	1177550848	61	6051
2026-01-02 07:25:32.43	327.00	7.36	-49.8	-54.0	10.4	4.23e-03	0	57	0	1178599424	61	6194
2026-01-02 07:25:33.42	326.93	7.29	-49.9	-54.2	10.2	6.36e-03	0	57	0	1180696576	61	6312
2026-01-02 07:25:34.41	326.86	7.22	-49.8	-54.1	10.3	5.56e-03	0	57	0	1182793728	61	6231
2026-01-02 07:25:35.39	326.79	7.15	-49.7	-54.0	10.4	4.52e-03	0	57	0	1184890880	61	6136
2026-01-02 07:25:36.38	326.73	7.08	-49.7	-54.1	10.2	5.13e-03	0	57	0	1186988032	61	6268
2026-01-02 07:25:37.37	326.66	7.01	-49.7	-54.1	10.2	6.09e-03	0	57	0	1188036608	61	6239
2026-01-02 07:25:38.36	326.60	6.95	-49.8	-54.1	10.3	5.49e-03	0	58	0	1190133760	61	6244
2026-01-02 07:25:39.35	326.53	6.88	-49.8	-54.1	10.3	6.68e-03	0	57	0	1192230912	61	6227
2026-01-02 07:25:40.34	326.46	6.81	-49.8	-54.1	10.2	6.84e-03	0	57	0	1194328064	61	6263
