passes_logs/2026/01/02/R3.0SM8_Murmansk_STILSPACE/R3.0SM8_Murmansk_STILSPACE__20260102_080302_NOAA_21_JPSS-2_rec.log

#Pass ID: 20260102_080302_NOAA 21 (JPSS-2)
#Satellite: NOAA 21 (JPSS-2)
#Configuration: NOAA-21
#almurnet v.1.7.20240730
#Start time: 2026-01-02 08:07:54

#Version: 2.2.20231116
#Station: R3.0SM8_Murmansk_STILSPACE
#Location: 33.092731 lon 68.902999 lat
#TLE: 1 54234U 22150A   26001.26806856  .00000185  00000+0  10843-3 0  9990
#TLE: 2 54234  98.7484 302.3349 0001277 353.3887   6.7272 14.19530660162860

#Time	Az	El	Level	Level2	SNR	BER	BlckErr	Temp	State	Recorded	gain1	gain2
2026-01-02 08:07:54.97	87.63	32.52	-52.6	-63.5	3.8	8.45e-01	0	57	0	0	67	12967
2026-01-02 08:07:55.95	87.38	32.67	-52.9	-64.4	3.8	1.49e+00	0	58	104	0	68	13602
2026-01-02 08:07:56.94	87.12	32.81	-52.9	-64.4	3.8	1.49e+00	0	58	104	0	68	13574
2026-01-02 08:07:57.94	86.85	32.96	-52.8	-64.4	3.8	1.49e+00	0	58	104	0	68	13601
2026-01-02 08:07:58.92	86.59	33.11	-52.8	-64.4	3.8	1.49e+00	0	57	104	0	68	13615
2026-01-02 08:07:59.92	86.32	33.26	-52.9	-64.4	3.8	1.49e+00	0	58	104	0	68	13595
2026-01-02 08:08:00.91	86.05	33.40	-52.8	-64.4	3.8	1.49e+00	0	58	104	0	68	13624
2026-01-02 08:08:01.89	85.78	33.55	-52.8	-64.4	3.8	1.49e+00	0	58	104	0	68	13604
2026-01-02 08:08:02.89	85.50	33.69	-52.9	-64.3	3.8	1.49e+00	0	58	104	0	68	13560
2026-01-02 08:08:03.88	85.22	33.84	-52.8	-64.4	3.8	1.49e+00	0	58	104	0	68	13572
2026-01-02 08:08:04.88	84.94	33.99	-52.9	-64.3	3.8	1.49e+00	0	58	104	0	68	13531
2026-01-02 08:08:05.86	84.66	34.13	-52.8	-64.3	3.8	1.49e+00	0	57	104	0	68	13494
2026-01-02 08:08:06.84	84.37	34.28	-52.8	-64.3	3.8	1.49e+00	0	58	104	0	68	13503
2026-01-02 08:08:07.83	84.09	34.42	-52.8	-64.3	3.8	1.49e+00	0	58	104	0	68	13493
2026-01-02 08:08:08.82	83.80	34.57	-52.7	-64.3	3.8	1.49e+00	0	58	104	0	68	13478
2026-01-02 08:08:09.81	83.50	34.72	-52.8	-64.3	3.8	1.49e+00	0	58	104	0	68	13508
2026-01-02 08:08:10.80	83.21	34.86	-52.5	-64.2	3.8	1.49e+00	0	58	104	0	68	13413
2026-01-02 08:08:11.80	82.90	35.01	-52.7	-64.3	3.8	1.49e+00	0	58	104	0	68	13423
2026-01-02 08:08:12.80	82.60	35.15	-52.6	-64.2	3.8	1.49e+00	0	58	104	0	68	13383
2026-01-02 08:08:13.79	82.30	35.30	-52.8	-64.2	3.8	1.49e+00	0	58	104	0	68	13394
2026-01-02 08:08:14.78	81.99	35.44	-52.6	-64.2	3.8	1.49e+00	0	58	104	0	68	13400
2026-01-02 08:08:15.77	81.68	35.59	-52.8	-64.2	3.8	1.49e+00	0	58	104	0	68	13413
2026-01-02 08:08:16.75	81.37	35.73	-52.8	-64.2	3.8	1.49e+00	0	58	104	0	68	13336
2026-01-02 08:08:17.74	81.05	35.87	-52.8	-64.2	3.8	1.49e+00	0	58	104	0	68	13330
2026-01-02 08:08:18.73	80.74	36.02	-52.8	-64.2	3.8	1.49e+00	0	58	104	0	68	13283
2026-01-02 08:08:19.72	80.42	36.16	-52.8	-64.2	3.8	1.49e+00	0	58	104	0	68	13331
2026-01-02 08:08:20.70	80.10	36.30	-52.8	-64.3	3.8	1.49e+00	0	58	104	0	68	13428
2026-01-02 08:08:21.69	79.77	36.44	-52.8	-64.3	3.8	1.49e+00	0	58	104	0	68	13422
2026-01-02 08:08:22.69	79.44	36.58	-52.8	-64.2	3.8	1.49e+00	0	58	104	0	68	13388
2026-01-02 08:08:23.68	79.10	36.72	-52.7	-64.2	3.8	1.49e+00	0	58	104	0	68	13340
2026-01-02 08:08:24.67	78.77	36.86	-52.8	-64.2	3.8	1.49e+00	0	58	104	0	68	13396
2026-01-02 08:08:25.66	78.43	37.00	-52.7	-64.2	3.8	1.49e+00	0	58	104	0	68	13316
2026-01-02 08:08:26.65	78.09	37.14	-52.6	-64.2	3.8	1.49e+00	0	58	104	0	68	13299
2026-01-02 08:08:27.64	77.75	37.28	-52.4	-64.2	3.8	1.49e+00	0	58	104	0	68	13318
2026-01-02 08:08:28.63	77.40	37.42	-51.3	-64.1	3.8	1.49e+00	0	58	104	0	65	15648
2026-01-02 08:08:29.61	77.05	37.56	-50.3	-64.1	3.8	1.49e+00	0	58	104	0	63	17631
2026-01-02 08:08:30.59	76.70	37.69	-50.2	-64.1	3.8	1.49e+00	0	58	104	0	63	17634
2026-01-02 08:08:31.59	76.34	37.83	-51.0	-64.1	3.8	1.49e+00	0	58	104	0	64	16571
2026-01-02 08:08:32.58	75.99	37.96	-52.1	-64.1	3.8	1.49e+00	0	58	104	0	66	14826
2026-01-02 08:08:33.58	75.62	38.10	-52.4	-64.0	3.8	1.49e+00	0	58	104	0	66	14680
2026-01-02 08:08:34.57	75.26	38.23	-52.4	-63.9	3.8	1.49e+00	0	58	104	0	66	14418
2026-01-02 08:08:35.56	74.89	38.37	-52.5	-63.5	3.8	1.49e+00	0	58	104	0	66	13885
2026-01-02 08:08:36.56	74.51	38.50	-52.6	-63.3	3.8	1.49e+00	0	58	104	0	67	12696
2026-01-02 08:08:37.55	74.14	38.63	-52.6	-63.3	3.8	1.49e+00	0	58	104	0	67	12766
2026-01-02 08:08:38.54	73.76	38.76	-52.6	-63.3	3.8	1.49e+00	0	57	104	0	67	12792
2026-01-02 08:08:39.53	73.38	38.89	-52.5	-63.5	3.8	1.49e+00	0	58	104	0	67	13078
2026-01-02 08:08:40.52	73.00	39.02	-52.7	-63.8	3.8	1.49e+00	0	58	104	0	67	13532
2026-01-02 08:08:41.52	72.61	39.15	-52.6	-63.9	3.8	1.49e+00	0	58	104	0	67	13720
2026-01-02 08:08:42.51	72.22	39.28	-52.6	-63.8	3.8	1.49e+00	0	58	104	0	67	13456
2026-01-02 08:08:43.50	71.83	39.40	-52.4	-63.6	3.8	1.49e+00	0	58	104	0	67	13216
2026-01-02 08:08:44.49	71.43	39.53	-52.5	-63.9	3.8	1.49e+00	0	58	104	0	67	13617
2026-01-02 08:08:45.48	71.04	39.65	-52.6	-64.0	3.8	1.49e+00	0	58	104	0	67	13862
2026-01-02 08:08:46.47	70.64	39.77	-52.5	-62.8	3.8	1.49e+00	0	58	104	0	67	12088
2026-01-02 08:08:47.45	70.24	39.89	-52.0	-59.3	4.6	1.46e+00	2	58	104	0	67	8075
2026-01-02 08:08:48.44	69.83	40.01	-51.2	-56.1	6.8	2.56e-01	0	58	0	2097152	65	6227
2026-01-02 08:08:49.43	69.42	40.13	-50.6	-54.7	8.1	5.84e-02	0	58	0	5242880	64	5619
2026-01-02 08:08:50.41	69.01	40.24	-50.7	-54.7	8.1	5.59e-02	0	58	0	8388608	64	5635
2026-01-02 08:08:51.41	68.59	40.36	-50.8	-55.1	7.7	8.86e-02	0	58	0	11534336	64	5859
2026-01-02 08:08:52.39	68.17	40.47	-50.8	-55.0	7.7	8.19e-02	0	58	0	14680064	64	5837
2026-01-02 08:08:53.38	67.75	40.59	-50.8	-55.2	7.7	8.83e-02	0	58	0	17825792	64	5925
2026-01-02 08:08:54.38	67.32	40.70	-50.9	-55.4	7.5	1.15e-01	0	58	0	20971520	64	6073
2026-01-02 08:08:55.37	66.90	40.81	-50.9	-55.5	7.3	8.87e-02	0	58	0	24117248	64	6177
2026-01-02 08:08:56.36	66.46	40.92	-51.0	-55.8	7.0	1.86e-01	0	58	0	26214400	64	6395
2026-01-02 08:08:57.35	66.03	41.02	-50.8	-54.9	8.0	7.77e-02	0	57	0	29360128	64	5754
2026-01-02 08:08:58.34	65.59	41.13	-50.3	-53.7	9.2	2.39e-02	0	58	0	32505856	63	5311
2026-01-02 08:08:59.33	65.15	41.23	-49.7	-52.7	10.3	8.34e-03	0	58	0	35651584	62	4995
2026-01-02 08:09:00.32	64.71	41.34	-49.1	-51.7	11.3	2.00e-03	0	57	0	38797312	61	4734
2026-01-02 08:09:01.32	64.26	41.44	-48.6	-50.8	12.3	3.19e-04	0	58	0	41943040	60	4513
2026-01-02 08:09:02.31	63.82	41.54	-48.1	-50.0	13.1	4.88e-05	0	58	0	45088768	59	4371
2026-01-02 08:09:03.30	63.36	41.63	-47.6	-49.3	13.8	7.60e-06	0	58	0	48234496	58	4260
2026-01-02 08:09:04.29	62.91	41.73	-47.3	-48.9	14.2	2.20e-06	0	58	0	51380224	57	4314
2026-01-02 08:09:05.29	62.45	41.82	-47.1	-48.6	14.5	0.00e+00	0	58	0	54525952	57	4149
2026-01-02 08:09:06.28	61.99	41.91	-46.6	-47.9	15.2	0.00e+00	0	58	0	57671680	56	4068
2026-01-02 08:09:07.27	61.53	42.00	-46.2	-47.4	15.6	0.00e+00	0	57	0	60817408	55	4068
2026-01-02 08:09:08.26	61.07	42.09	-46.1	-47.4	15.6	0.00e+00	0	58	0	63963136	55	4054
2026-01-02 08:09:09.24	60.61	42.18	-46.1	-47.4	15.6	7.00e-07	0	58	0	67108864	55	4057
2026-01-02 08:09:10.23	60.14	42.26	-46.1	-47.3	15.7	0.00e+00	0	58	0	70254592	55	4018
2026-01-02 08:09:11.22	59.67	42.34	-46.0	-47.2	15.8	0.00e+00	0	58	0	73400320	55	3959
2026-01-02 08:09:12.21	59.19	42.42	-46.3	-47.6	15.4	0.00e+00	0	58	0	76546048	55	4152
2026-01-02 08:09:13.20	58.72	42.50	-46.5	-47.7	15.3	0.00e+00	0	58	0	79691776	55	4241
2026-01-02 08:09:14.18	58.24	42.58	-46.5	-47.8	15.2	0.00e+00	0	58	0	82837504	55	4271
2026-01-02 08:09:15.18	57.76	42.65	-46.6	-47.9	15.0	0.00e+00	0	58	0	85983232	55	4340
2026-01-02 08:09:16.17	57.28	42.72	-46.2	-47.4	15.5	0.00e+00	0	58	0	89128960	55	4070
2026-01-02 08:09:17.15	56.80	42.79	-46.1	-47.3	15.6	0.00e+00	0	58	0	91226112	55	4040
2026-01-02 08:09:18.14	56.31	42.86	-46.2	-47.4	15.6	0.00e+00	0	58	0	94371840	55	4091
2026-01-02 08:09:19.14	55.82	42.92	-46.5	-47.8	15.2	0.00e+00	0	58	0	97517568	55	4260
2026-01-02 08:09:20.13	55.33	42.99	-46.5	-47.8	15.2	0.00e+00	0	58	0	100663296	55	4265
2026-01-02 08:09:21.12	54.83	43.05	-46.9	-48.4	14.6	7.00e-07	0	58	0	103809024	55	4554
2026-01-02 08:09:22.12	54.33	43.11	-46.6	-48.0	15.0	0.00e+00	0	58	0	106954752	55	4349
2026-01-02 08:09:23.11	53.84	43.16	-46.5	-47.8	15.2	0.00e+00	0	58	0	110100480	55	4260
2026-01-02 08:09:24.10	53.34	43.22	-46.4	-47.7	15.2	0.00e+00	0	58	0	113246208	55	4230
2026-01-02 08:09:25.09	52.84	43.27	-46.3	-47.6	15.3	0.00e+00	0	58	0	116391936	55	4159
2026-01-02 08:09:26.08	52.34	43.32	-46.6	-47.9	15.0	7.00e-07	0	58	0	119537664	55	4332
2026-01-02 08:09:27.08	51.83	43.36	-46.9	-48.4	14.6	0.00e+00	0	58	0	122683392	55	4548
2026-01-02 08:09:28.07	51.33	43.41	-46.9	-48.3	14.7	7.00e-07	0	58	0	125829120	55	4540
2026-01-02 08:09:29.05	50.83	43.45	-47.3	-48.8	14.3	1.50e-06	0	58	0	128974848	56	4522
2026-01-02 08:09:30.04	50.32	43.49	-47.4	-49.0	14.1	7.00e-07	0	58	0	132120576	56	4632
2026-01-02 08:09:31.04	49.81	43.52	-47.4	-48.9	14.2	2.20e-06	0	58	0	135266304	56	4594
2026-01-02 08:09:32.04	49.30	43.56	-47.3	-48.9	14.2	0.00e+00	0	58	0	138412032	56	4579
2026-01-02 08:09:33.03	48.79	43.59	-47.0	-48.5	14.6	2.20e-06	0	58	0	141557760	56	4366
2026-01-02 08:09:34.01	48.28	43.62	-46.7	-48.0	15.1	0.00e+00	0	58	0	144703488	56	4117
2026-01-02 08:09:35.00	47.77	43.64	-46.5	-47.8	15.3	0.00e+00	0	58	0	147849216	56	4039
2026-01-02 08:09:35.99	47.26	43.67	-46.6	-47.9	15.2	0.00e+00	0	58	0	150994944	56	4071
2026-01-02 08:09:36.97	46.75	43.69	-46.2	-47.4	15.6	0.00e+00	0	58	0	154140672	55	4060
2026-01-02 08:09:37.97	46.23	43.71	-46.2	-47.5	15.5	0.00e+00	0	58	0	156237824	55	4114
2026-01-02 08:09:38.95	45.72	43.72	-46.7	-48.0	15.0	0.00e+00	0	58	0	159383552	55	4382
2026-01-02 08:09:39.94	45.21	43.74	-46.6	-48.0	15.0	0.00e+00	0	58	0	162529280	55	4357
2026-01-02 08:09:40.93	44.69	43.75	-46.3	-47.6	15.4	0.00e+00	0	58	0	165675008	55	4170
2026-01-02 08:09:41.91	44.18	43.76	-46.3	-47.6	15.4	0.00e+00	0	58	0	168820736	55	4155
2026-01-02 08:09:42.90	43.66	43.76	-46.4	-47.7	15.3	0.00e+00	0	58	0	171966464	55	4206
2026-01-02 08:09:43.90	43.14	43.76	-46.7	-48.1	14.9	7.00e-07	0	58	0	175112192	55	4394
2026-01-02 08:09:44.88	42.63	43.77	-46.5	-47.8	15.2	0.00e+00	0	58	0	178257920	55	4250
2026-01-02 08:09:45.88	42.11	43.76	-46.4	-47.7	15.3	0.00e+00	0	58	0	181403648	55	4230
2026-01-02 08:09:46.87	41.60	43.76	-46.6	-48.0	15.1	0.00e+00	0	58	0	184549376	55	4353
2026-01-02 08:09:47.86	41.08	43.75	-46.4	-47.7	15.3	0.00e+00	0	58	0	187695104	55	4205
2026-01-02 08:09:48.86	40.56	43.74	-46.4	-47.7	15.3	0.00e+00	0	58	0	190840832	55	4237
2026-01-02 08:09:49.85	40.04	43.73	-46.6	-48.0	15.0	0.00e+00	0	58	0	193986560	55	4344
2026-01-02 08:09:50.84	39.53	43.71	-46.3	-47.6	15.3	0.00e+00	0	58	0	197132288	55	4164
2026-01-02 08:09:51.83	39.02	43.70	-46.2	-47.5	15.5	0.00e+00	0	58	0	200278016	55	4123
2026-01-02 08:09:52.81	38.51	43.68	-46.5	-47.8	15.2	0.00e+00	0	58	0	203423744	55	4275
2026-01-02 08:09:53.80	38.00	43.65	-46.6	-48.0	15.1	0.00e+00	0	58	0	206569472	55	4345
2026-01-02 08:09:54.78	37.49	43.63	-46.6	-48.0	15.0	0.00e+00	0	58	0	209715200	55	4348
2026-01-02 08:09:55.78	36.97	43.60	-46.7	-48.1	14.9	0.00e+00	0	58	0	212860928	55	4400
2026-01-02 08:09:56.77	36.46	43.57	-46.5	-47.9	15.1	0.00e+00	0	58	0	216006656	55	4298
2026-01-02 08:09:57.76	35.95	43.54	-46.6	-48.1	15.0	0.00e+00	0	58	0	218103808	55	4394
2026-01-02 08:09:58.76	35.44	43.50	-46.9	-48.4	14.6	7.00e-07	0	58	0	221249536	55	4547
2026-01-02 08:09:59.75	34.93	43.46	-47.4	-49.0	14.1	7.00e-07	0	58	0	224395264	56	4606
2026-01-02 08:10:00.75	34.42	43.42	-47.4	-49.1	13.9	3.00e-06	0	58	0	227540992	56	4677
2026-01-02 08:10:01.74	33.92	43.38	-47.3	-48.9	14.2	1.50e-06	0	58	0	230686720	56	4558
2026-01-02 08:10:02.73	33.42	43.33	-46.8	-48.2	14.8	0.00e+00	0	58	0	233832448	56	4235
2026-01-02 08:10:03.72	32.92	43.29	-46.8	-48.2	14.8	0.00e+00	0	58	0	236978176	56	4230
2026-01-02 08:10:04.72	32.41	43.24	-47.3	-48.8	14.3	1.50e-06	0	58	0	240123904	56	4531
2026-01-02 08:10:05.70	31.92	43.18	-47.6	-49.3	13.7	3.80e-06	0	58	0	243269632	57	4525
2026-01-02 08:10:06.70	31.42	43.13	-48.0	-49.8	13.2	1.22e-05	0	58	0	246415360	57	4811
2026-01-02 08:10:07.69	30.92	43.07	-48.2	-50.1	13.0	3.50e-05	0	58	0	249561088	58	4701
2026-01-02 08:10:08.67	30.43	43.01	-48.1	-50.0	13.2	3.43e-05	0	58	0	252706816	58	4602
2026-01-02 08:10:09.67	29.94	42.95	-47.9	-49.6	13.4	1.60e-05	0	58	0	255852544	58	4431
2026-01-02 08:10:10.66	29.45	42.89	-47.7	-49.4	13.7	1.06e-05	0	58	0	258998272	58	4325
2026-01-02 08:10:11.65	28.96	42.82	-47.6	-49.2	13.9	5.30e-06	0	58	0	262144000	58	4237
2026-01-02 08:10:12.64	28.48	42.75	-47.6	-49.2	13.9	7.60e-06	0	58	0	265289728	58	4232
2026-01-02 08:10:13.63	27.99	42.68	-47.5	-49.2	13.9	3.00e-06	0	58	0	268435456	58	4200
2026-01-02 08:10:14.62	27.51	42.61	-47.7	-49.4	13.6	9.10e-06	0	58	0	271581184	58	4303
2026-01-02 08:10:15.60	27.04	42.53	-47.8	-49.5	13.5	7.60e-06	0	58	0	274726912	58	4386
2026-01-02 08:10:16.59	26.56	42.46	-48.2	-50.1	13.0	1.29e-05	0	58	0	277872640	58	4683
2026-01-02 08:10:17.57	26.10	42.38	-48.1	-49.9	13.1	3.05e-05	0	58	0	281018368	58	4584
2026-01-02 08:10:18.57	25.62	42.30	-47.3	-48.8	14.3	1.50e-06	0	58	0	284164096	57	4262
2026-01-02 08:10:19.55	25.15	42.21	-46.7	-48.0	15.0	7.00e-07	0	58	0	286261248	56	4108
2026-01-02 08:10:20.54	24.69	42.13	-46.6	-47.9	15.2	0.00e+00	0	58	0	289406976	56	4054
2026-01-02 08:10:21.52	24.23	42.04	-46.9	-48.3	14.8	0.00e+00	0	58	0	292552704	56	4248
2026-01-02 08:10:22.51	23.77	41.95	-47.6	-49.2	13.8	1.50e-06	0	58	0	295698432	57	4489
2026-01-02 08:10:23.50	23.31	41.86	-47.9	-49.7	13.4	2.74e-05	0	58	0	298844160	57	4715
2026-01-02 08:10:24.50	22.85	41.77	-47.5	-49.1	14.0	3.80e-06	0	58	0	301989888	57	4426
2026-01-02 08:10:25.49	22.39	41.68	-47.2	-48.8	14.3	7.00e-07	0	58	0	305135616	57	4250
2026-01-02 08:10:26.47	21.95	41.58	-46.9	-48.4	14.6	7.00e-07	0	58	0	308281344	57	4081
2026-01-02 08:10:27.46	21.50	41.48	-46.8	-48.2	14.8	0.00e+00	0	58	0	311427072	56	4206
2026-01-02 08:10:28.45	21.05	41.38	-47.1	-48.6	14.3	7.00e-07	0	58	0	314572800	56	4437
2026-01-02 08:10:29.44	20.61	41.28	-47.4	-48.9	14.0	3.00e-06	0	58	0	317718528	56	4587
2026-01-02 08:10:30.43	20.17	41.18	-47.1	-48.6	14.4	2.20e-06	0	58	0	320864256	56	4433
2026-01-02 08:10:31.42	19.73	41.07	-46.9	-48.3	14.7	7.00e-07	0	58	0	324009984	56	4254
2026-01-02 08:10:32.41	19.30	40.97	-46.5	-47.8	15.2	0.00e+00	0	58	0	327155712	56	4025
2026-01-02 08:10:33.40	18.87	40.86	-46.3	-47.5	15.3	0.00e+00	0	58	0	330301440	55	4122
2026-01-02 08:10:34.39	18.44	40.75	-46.5	-47.8	15.0	0.00e+00	0	58	0	333447168	55	4265
2026-01-02 08:10:35.38	18.01	40.64	-46.9	-48.3	14.6	0.00e+00	0	58	0	336592896	55	4525
2026-01-02 08:10:36.37	17.59	40.53	-47.7	-49.4	13.6	6.10e-06	0	58	0	339738624	57	4593
2026-01-02 08:10:37.36	17.17	40.41	-48.0	-49.9	13.1	2.13e-05	0	58	0	341835776	57	4831
2026-01-02 08:10:38.35	16.75	40.30	-48.2	-50.1	12.9	6.33e-05	0	58	0	344981504	58	4687
2026-01-02 08:10:39.34	16.34	40.18	-47.4	-49.0	13.9	4.50e-06	0	58	0	348127232	58	4141
2026-01-02 08:10:40.33	15.93	40.07	-46.7	-48.0	14.9	0.00e+00	0	58	0	351272960	56	4136
2026-01-02 08:10:41.32	15.52	39.95	-45.9	-47.2	15.7	0.00e+00	0	58	0	354418688	55	3960
2026-01-02 08:10:42.30	15.12	39.83	-46.0	-47.3	15.6	0.00e+00	0	58	0	357564416	55	4022
2026-01-02 08:10:43.30	14.72	39.71	-46.2	-47.4	15.5	0.00e+00	0	58	0	360710144	55	4075
2026-01-02 08:10:44.28	14.32	39.59	-46.3	-47.5	15.5	0.00e+00	0	58	0	363855872	55	4121
2026-01-02 08:10:45.27	13.93	39.46	-46.8	-48.3	14.7	7.00e-07	0	58	0	367001600	55	4509
2026-01-02 08:10:46.27	13.53	39.34	-47.3	-48.8	14.3	7.00e-07	0	58	0	370147328	56	4525
2026-01-02 08:10:47.26	13.14	39.21	-46.6	-47.9	15.1	0.00e+00	0	58	0	373293056	56	4079
2026-01-02 08:10:48.24	12.76	39.08	-45.7	-46.8	16.1	0.00e+00	0	58	0	376438784	54	4047
2026-01-02 08:10:49.23	12.37	38.96	-45.4	-46.5	16.4	0.00e+00	0	58	0	379584512	54	3896
2026-01-02 08:10:50.22	11.99	38.83	-45.4	-46.5	16.4	0.00e+00	0	58	0	382730240	53	4099
2026-01-02 08:10:51.21	11.62	38.70	-45.6	-46.7	16.1	0.00e+00	0	58	0	385875968	53	4240
2026-01-02 08:10:52.20	11.24	38.57	-46.0	-47.3	15.7	0.00e+00	0	58	0	389021696	53	4498
2026-01-02 08:10:53.20	10.87	38.44	-46.2	-47.4	15.5	0.00e+00	0	58	0	392167424	54	4338
2026-01-02 08:10:54.19	10.50	38.30	-45.9	-47.0	15.8	0.00e+00	0	58	0	395313152	54	4126
2026-01-02 08:10:55.18	10.13	38.17	-45.5	-46.6	16.2	0.00e+00	0	58	0	398458880	54	3917
2026-01-02 08:10:56.17	9.77	38.04	-45.1	-46.1	16.7	0.00e+00	0	58	0	401604608	53	3939
2026-01-02 08:10:57.16	9.41	37.90	-45.0	-46.0	16.9	0.00e+00	0	58	0	403701760	53	3882
2026-01-02 08:10:58.15	9.05	37.77	-45.2	-46.3	16.5	0.00e+00	0	58	0	406847488	53	4006
2026-01-02 08:10:59.15	8.70	37.63	-45.3	-46.3	16.5	0.00e+00	0	58	0	409993216	53	4023
2026-01-02 08:11:00.14	8.35	37.49	-46.1	-47.3	15.5	0.00e+00	0	58	0	413138944	53	4501
2026-01-02 08:11:01.12	8.00	37.36	-47.0	-48.5	14.3	0.00e+00	0	58	0	416284672	55	4632
2026-01-02 08:11:02.12	7.66	37.22	-47.5	-49.1	13.9	7.60e-06	0	58	0	419430400	56	4689
2026-01-02 08:11:03.11	7.31	37.08	-47.2	-48.7	14.3	7.00e-07	0	58	0	422576128	56	4454
2026-01-02 08:11:04.10	6.98	36.94	-46.3	-47.5	15.3	7.00e-07	0	58	0	425721856	55	4140
2026-01-02 08:11:05.09	6.64	36.80	-45.7	-46.8	16.1	0.00e+00	0	58	0	428867584	54	4019
2026-01-02 08:11:06.08	6.31	36.66	-45.8	-46.9	16.1	0.00e+00	0	58	0	432013312	54	4062
2026-01-02 08:11:07.07	5.98	36.52	-46.3	-47.6	15.3	0.00e+00	0	58	0	435159040	54	4438
2026-01-02 08:11:08.05	5.65	36.38	-46.2	-47.5	15.5	0.00e+00	0	58	0	438304768	54	4344
2026-01-02 08:11:09.04	5.33	36.24	-46.5	-47.8	15.2	0.00e+00	0	58	0	441450496	54	4511
2026-01-02 08:11:10.03	5.01	36.09	-47.3	-48.9	14.2	7.00e-07	0	58	0	444596224	56	4582
2026-01-02 08:11:11.02	4.69	35.95	-47.2	-48.8	14.3	3.00e-06	0	58	0	447741952	56	4495
2026-01-02 08:11:12.01	4.37	35.81	-47.3	-48.9	14.2	2.20e-06	0	58	0	450887680	56	4560
2026-01-02 08:11:13.00	4.06	35.67	-46.9	-48.3	14.8	7.00e-07	0	58	0	454033408	56	4254
2026-01-02 08:11:13.99	3.75	35.52	-46.3	-47.6	15.4	0.00e+00	0	58	0	457179136	55	4151
2026-01-02 08:11:14.98	3.44	35.38	-46.0	-47.2	15.7	0.00e+00	0	58	0	460324864	55	3994
2026-01-02 08:11:15.97	3.14	35.23	-46.0	-47.3	15.7	0.00e+00	0	58	0	463470592	55	4005
2026-01-02 08:11:16.96	2.84	35.09	-46.3	-47.6	15.3	0.00e+00	0	58	0	465567744	55	4173
2026-01-02 08:11:17.95	2.54	34.95	-47.4	-49.0	14.1	7.00e-07	0	58	0	468713472	56	4601
2026-01-02 08:11:18.94	2.24	34.80	-47.2	-48.9	14.2	2.20e-06	0	58	0	471859200	56	4553
2026-01-02 08:11:19.93	1.95	34.66	-47.0	-48.5	14.5	0.00e+00	0	58	0	475004928	56	4385
2026-01-02 08:11:20.92	1.66	34.51	-46.2	-47.5	15.4	0.00e+00	0	58	0	478150656	55	4140
2026-01-02 08:11:21.91	1.37	34.36	-45.5	-46.7	16.3	0.00e+00	0	58	0	481296384	54	3966
2026-01-02 08:11:22.91	1.08	34.22	-44.9	-45.9	17.0	0.00e+00	0	58	0	484442112	53	3846
2026-01-02 08:11:23.90	0.79	34.07	-44.6	-45.5	17.4	0.00e+00	0	57	0	487587840	52	3890
2026-01-02 08:11:24.90	0.51	33.92	-44.6	-45.6	17.3	0.00e+00	0	58	0	490733568	52	3936
2026-01-02 08:11:25.88	0.24	33.78	-45.1	-46.2	16.8	0.00e+00	0	58	0	493879296	52	4194
2026-01-02 08:11:26.88	359.96	33.63	-45.5	-46.7	16.3	0.00e+00	0	58	0	497025024	52	4443
2026-01-02 08:11:27.87	359.68	33.49	-45.8	-47.0	16.0	0.00e+00	0	58	0	500170752	53	4343
2026-01-02 08:11:28.87	359.41	33.34	-45.9	-47.1	15.8	0.00e+00	0	58	0	503316480	53	4435
2026-01-02 08:11:29.85	359.14	33.19	-45.7	-46.9	16.0	0.00e+00	0	58	0	506462208	53	4297
2026-01-02 08:11:30.84	358.88	33.05	-45.5	-46.6	16.3	0.00e+00	0	58	0	509607936	53	4167
2026-01-02 08:11:31.83	358.61	32.90	-45.6	-46.7	16.2	0.00e+00	0	58	0	512753664	53	4203
2026-01-02 08:11:32.82	358.35	32.76	-45.4	-46.5	16.5	0.00e+00	0	58	0	515899392	53	4103
2026-01-02 08:11:33.80	358.10	32.61	-45.5	-46.6	16.3	0.00e+00	0	58	0	519045120	53	4174
2026-01-02 08:11:34.79	357.84	32.47	-45.8	-47.0	15.9	0.00e+00	0	58	0	522190848	53	4365
2026-01-02 08:11:35.78	357.59	32.32	-45.6	-46.8	16.1	0.00e+00	0	58	0	525336576	53	4246
2026-01-02 08:11:36.77	357.33	32.17	-45.3	-46.3	16.6	0.00e+00	0	58	0	528482304	53	4039
2026-01-02 08:11:37.77	357.08	32.03	-45.3	-46.3	16.6	0.00e+00	0	58	0	531628032	53	4039
2026-01-02 08:11:38.75	356.84	31.88	-45.4	-46.5	16.3	0.00e+00	0	58	0	533725184	53	4144
2026-01-02 08:11:39.74	356.59	31.74	-45.8	-47.0	16.0	0.00e+00	0	58	0	536870912	53	4341
2026-01-02 08:11:40.73	356.35	31.59	-45.4	-46.5	16.3	0.00e+00	0	58	0	540016640	53	4136
2026-01-02 08:11:41.72	356.11	31.45	-45.0	-46.1	16.8	0.00e+00	0	58	0	543162368	53	3914
2026-01-02 08:11:42.71	355.87	31.30	-44.6	-45.5	17.3	0.00e+00	0	58	0	546308096	52	3901
2026-01-02 08:11:43.70	355.63	31.16	-44.4	-45.3	17.5	0.00e+00	0	58	0	549453824	52	3810
2026-01-02 08:11:44.69	355.40	31.01	-44.6	-45.5	17.3	0.00e+00	0	58	0	552599552	52	3912
2026-01-02 08:11:45.67	355.17	30.87	-44.8	-45.7	17.1	0.00e+00	0	57	0	555745280	52	3995
2026-01-02 08:11:46.66	354.94	30.72	-44.9	-45.9	16.9	0.00e+00	0	58	0	558891008	52	4087
2026-01-02 08:11:47.65	354.71	30.58	-45.2	-46.2	16.6	0.00e+00	0	58	0	562036736	52	4242
2026-01-02 08:11:48.64	354.49	30.44	-45.3	-46.3	16.5	0.00e+00	0	58	0	565182464	52	4283
2026-01-02 08:11:49.63	354.26	30.29	-45.1	-46.2	16.7	0.00e+00	0	58	0	568328192	52	4219
2026-01-02 08:11:50.63	354.04	30.15	-45.0	-46.1	16.8	0.00e+00	0	58	0	571473920	52	4148
2026-01-02 08:11:51.62	353.82	30.00	-44.9	-45.9	16.9	0.00e+00	0	58	0	574619648	52	4098
2026-01-02 08:11:52.60	353.60	29.86	-45.0	-46.1	16.8	0.00e+00	0	58	0	577765376	52	4147
2026-01-02 08:11:53.60	353.38	29.72	-44.9	-45.9	16.9	0.00e+00	0	58	0	580911104	52	4097
2026-01-02 08:11:54.58	353.17	29.58	-44.8	-45.7	17.1	0.00e+00	0	58	0	584056832	52	4004
2026-01-02 08:11:55.58	352.96	29.43	-44.7	-45.6	17.2	0.00e+00	0	58	0	587202560	52	3955
2026-01-02 08:11:56.56	352.75	29.29	-44.8	-45.8	17.1	0.00e+00	0	58	0	589299712	52	4027
2026-01-02 08:11:57.56	352.54	29.15	-44.9	-45.9	17.0	0.00e+00	0	58	0	592445440	52	4059
2026-01-02 08:11:58.55	352.33	29.01	-45.0	-46.1	16.8	0.00e+00	0	58	0	595591168	52	4158
2026-01-02 08:11:59.54	352.13	28.87	-45.2	-46.3	16.6	0.00e+00	0	58	0	598736896	52	4261
2026-01-02 08:12:00.53	351.92	28.73	-45.4	-46.5	16.4	0.00e+00	0	58	0	601882624	52	4360
2026-01-02 08:12:01.51	351.73	28.59	-45.4	-46.5	16.4	0.00e+00	0	58	0	605028352	52	4352
2026-01-02 08:12:02.51	351.52	28.44	-45.1	-46.1	16.7	0.00e+00	0	58	0	608174080	52	4190
2026-01-02 08:12:03.50	351.33	28.30	-44.9	-45.9	16.9	0.00e+00	0	58	0	611319808	52	4089
2026-01-02 08:12:04.49	351.13	28.16	-44.8	-45.8	17.0	0.00e+00	0	58	0	614465536	52	4043
2026-01-02 08:12:05.48	350.94	28.03	-45.0	-46.0	16.8	0.00e+00	0	58	0	617611264	52	4124
2026-01-02 08:12:06.47	350.74	27.89	-44.9	-45.9	16.9	0.00e+00	0	58	0	620756992	52	4086
2026-01-02 08:12:07.46	350.55	27.75	-44.6	-45.6	17.2	0.00e+00	0	58	0	623902720	52	3932
2026-01-02 08:12:08.44	350.37	27.61	-44.4	-45.3	17.4	0.00e+00	0	58	0	627048448	52	3810
2026-01-02 08:12:09.43	350.18	27.47	-44.6	-45.5	17.4	0.00e+00	0	58	0	630194176	51	4120
2026-01-02 08:12:10.42	349.99	27.34	-44.8	-45.7	17.2	0.00e+00	0	57	0	633339904	51	4236
2026-01-02 08:12:11.42	349.81	27.20	-44.8	-45.8	17.1	0.00e+00	0	58	0	636485632	51	4280
2026-01-02 08:12:12.41	349.63	27.06	-44.9	-46.0	17.0	0.00e+00	0	58	0	639631360	51	4342
2026-01-02 08:12:13.40	349.44	26.92	-44.7	-45.7	17.2	0.00e+00	0	58	0	642777088	51	4201
2026-01-02 08:12:14.40	349.26	26.79	-44.5	-45.4	17.5	0.00e+00	0	58	0	645922816	51	4057
2026-01-02 08:12:15.38	349.09	26.65	-44.4	-45.3	17.6	0.00e+00	0	58	0	649068544	51	4021
2026-01-02 08:12:16.37	348.91	26.52	-44.2	-45.1	17.8	0.00e+00	0	58	0	652214272	51	3936
2026-01-02 08:12:17.36	348.74	26.38	-44.1	-44.9	17.9	0.00e+00	0	58	0	654311424	51	3868
2026-01-02 08:12:18.35	348.56	26.25	-44.1	-44.9	17.9	0.00e+00	0	57	0	657457152	51	3858
2026-01-02 08:12:19.34	348.39	26.11	-44.1	-44.9	17.9	0.00e+00	0	58	0	660602880	51	3868
2026-01-02 08:12:20.33	348.22	25.98	-44.2	-45.1	17.8	0.00e+00	0	58	0	663748608	51	3916
2026-01-02 08:12:21.32	348.05	25.84	-44.1	-44.9	17.9	0.00e+00	0	58	0	666894336	51	3854
2026-01-02 08:12:22.31	347.89	25.71	-44.0	-44.8	18.0	0.00e+00	0	58	0	670040064	51	3820
2026-01-02 08:12:23.30	347.72	25.58	-44.1	-44.9	17.9	0.00e+00	0	58	0	673185792	51	3858
2026-01-02 08:12:24.29	347.56	25.45	-44.0	-44.9	18.0	0.00e+00	0	58	0	676331520	51	3835
2026-01-02 08:12:25.28	347.39	25.31	-44.1	-44.9	17.9	0.00e+00	0	58	0	679477248	51	3856
2026-01-02 08:12:26.28	347.23	25.18	-44.2	-45.1	17.8	0.00e+00	0	58	0	682622976	51	3930
2026-01-02 08:12:27.27	347.07	25.05	-44.4	-45.3	17.5	0.00e+00	0	58	0	685768704	51	4018
2026-01-02 08:12:28.26	346.91	24.92	-44.1	-45.0	17.8	0.00e+00	0	58	0	688914432	51	3889
2026-01-02 08:12:29.24	346.75	24.79	-44.0	-44.8	17.9	0.00e+00	0	57	0	692060160	51	3820
2026-01-02 08:12:30.23	346.60	24.66	-44.0	-44.8	18.0	0.00e+00	0	57	0	695205888	51	3806
2026-01-02 08:12:31.23	346.44	24.53	-44.0	-44.9	17.9	0.00e+00	0	58	0	698351616	51	3827
2026-01-02 08:12:32.21	346.29	24.40	-44.1	-44.9	17.8	0.00e+00	0	58	0	701497344	51	3865
2026-01-02 08:12:33.20	346.14	24.27	-44.3	-45.1	17.6	0.00e+00	0	58	0	704643072	51	3958
2026-01-02 08:12:34.19	345.98	24.14	-44.6	-45.6	17.3	0.00e+00	0	58	0	707788800	51	4166
2026-01-02 08:12:35.18	345.83	24.02	-44.5	-45.4	17.4	0.00e+00	0	58	0	710934528	51	4091
2026-01-02 08:12:36.16	345.69	23.89	-44.8	-45.8	17.0	0.00e+00	0	58	0	713031680	51	4274
2026-01-02 08:12:37.16	345.54	23.76	-44.6	-45.6	17.2	0.00e+00	0	58	0	716177408	51	4172
2026-01-02 08:12:38.15	345.39	23.64	-44.6	-45.5	17.3	0.00e+00	0	58	0	719323136	51	4124
2026-01-02 08:12:39.14	345.25	23.51	-44.7	-45.7	17.1	0.00e+00	0	58	0	722468864	51	4233
2026-01-02 08:12:40.13	345.10	23.38	-44.7	-45.7	17.1	0.00e+00	0	58	0	725614592	51	4222
2026-01-02 08:12:41.12	344.96	23.26	-44.6	-45.5	17.3	0.00e+00	0	58	0	728760320	51	4125
2026-01-02 08:12:42.11	344.82	23.13	-44.5	-45.5	17.4	0.00e+00	0	58	0	731906048	51	4107
2026-01-02 08:12:43.10	344.68	23.01	-44.6	-45.6	17.2	0.00e+00	0	58	0	735051776	51	4156
2026-01-02 08:12:44.09	344.54	22.88	-44.7	-45.7	17.1	0.00e+00	0	58	0	738197504	51	4204
2026-01-02 08:12:45.08	344.40	22.76	-44.4	-45.4	17.4	0.00e+00	0	58	0	741343232	51	4054
2026-01-02 08:12:46.06	344.27	22.64	-44.3	-45.2	17.6	0.00e+00	0	58	0	744488960	51	3963
2026-01-02 08:12:47.05	344.13	22.52	-44.2	-45.1	17.7	0.00e+00	0	58	0	747634688	51	3918
2026-01-02 08:12:48.04	344.00	22.39	-44.2	-45.1	17.6	0.00e+00	0	58	0	750780416	51	3938
2026-01-02 08:12:49.03	343.86	22.27	-44.2	-45.1	17.7	0.00e+00	0	58	0	753926144	51	3917
2026-01-02 08:12:50.01	343.73	22.15	-44.5	-45.4	17.3	0.00e+00	0	58	0	757071872	51	4088
2026-01-02 08:12:51.00	343.60	22.03	-44.3	-45.2	17.5	0.00e+00	0	58	0	760217600	51	3984
2026-01-02 08:12:51.99	343.47	21.91	-44.0	-44.9	17.8	0.00e+00	0	58	0	763363328	51	3849
2026-01-02 08:12:52.98	343.34	21.79	-43.8	-44.7	18.0	0.00e+00	0	58	0	766509056	50	3969
2026-01-02 08:12:53.96	343.21	21.67	-43.8	-44.7	18.1	0.00e+00	0	58	0	768606208	50	3959
2026-01-02 08:12:54.94	343.09	21.55	-43.9	-44.7	18.0	0.00e+00	0	58	0	771751936	50	4003
2026-01-02 08:12:55.94	342.96	21.43	-44.0	-44.9	17.8	0.00e+00	0	58	0	774897664	50	4079
2026-01-02 08:12:56.93	342.83	21.31	-44.1	-44.9	17.8	0.00e+00	0	58	0	778043392	50	4095
2026-01-02 08:12:57.92	342.71	21.19	-44.1	-45.0	17.7	0.00e+00	0	58	0	781189120	50	4138
2026-01-02 08:12:58.92	342.58	21.07	-44.3	-45.2	17.5	0.00e+00	0	58	0	784334848	50	4204
2026-01-02 08:12:59.91	342.46	20.96	-44.4	-45.3	17.4	0.00e+00	0	58	0	787480576	50	4291
2026-01-02 08:13:00.90	342.34	20.84	-44.3	-45.2	17.4	0.00e+00	0	57	0	790626304	50	4223
2026-01-02 08:13:01.89	342.22	20.72	-44.2	-45.1	17.6	0.00e+00	0	58	0	793772032	50	4162
2026-01-02 08:13:02.88	342.10	20.61	-44.3	-45.2	17.4	0.00e+00	0	58	0	796917760	50	4232
2026-01-02 08:13:03.86	341.98	20.49	-44.0	-44.9	17.7	0.00e+00	0	58	0	800063488	50	4076
2026-01-02 08:13:04.86	341.86	20.37	-43.9	-44.7	17.7	0.00e+00	0	58	0	803209216	50	4002
2026-01-02 08:13:05.84	341.75	20.26	-43.9	-44.8	17.6	0.00e+00	0	58	0	806354944	50	4024
2026-01-02 08:13:06.84	341.63	20.14	-44.2	-45.2	17.2	0.00e+00	0	58	0	809500672	50	4202
2026-01-02 08:13:07.81	341.52	20.03	-44.5	-45.5	16.9	0.00e+00	0	58	0	812646400	50	4352
2026-01-02 08:13:08.81	341.40	19.92	-44.8	-45.9	16.3	0.00e+00	0	58	0	815792128	51	4326
2026-01-02 08:13:09.80	341.29	19.80	-45.1	-46.3	15.9	0.00e+00	0	58	0	818937856	51	4503
2026-01-02 08:13:10.80	341.17	19.69	-45.2	-46.5	15.5	0.00e+00	0	58	0	822083584	52	4366
2026-01-02 08:13:11.79	341.06	19.58	-45.7	-47.1	14.9	0.00e+00	0	57	0	825229312	53	4402
2026-01-02 08:13:12.78	340.95	19.46	-46.0	-47.5	14.3	7.00e-07	0	58	0	828375040	53	4635
2026-01-02 08:13:13.77	340.84	19.35	-46.3	-48.0	13.9	3.00e-06	0	57	0	831520768	54	4599
2026-01-02 08:13:14.76	340.73	19.24	-46.3	-47.9	14.0	7.00e-07	0	58	0	834666496	54	4569
2026-01-02 08:13:15.75	340.62	19.13	-46.6	-48.3	13.5	8.30e-06	0	57	0	837812224	55	4536
2026-01-02 08:13:16.74	340.52	19.02	-46.6	-48.3	13.6	8.30e-06	0	57	0	839909376	55	4537
2026-01-02 08:13:17.73	340.41	18.91	-46.9	-48.7	13.3	1.22e-05	0	58	0	843055104	55	4718
2026-01-02 08:13:18.71	340.30	18.80	-46.7	-48.4	13.6	1.06e-05	0	58	0	846200832	55	4558
2026-01-02 08:13:19.70	340.20	18.69	-46.3	-47.8	14.3	2.20e-06	0	58	0	849346560	55	4261
2026-01-02 08:13:20.68	340.10	18.58	-45.9	-47.3	14.8	0.00e+00	0	58	0	852492288	55	4026
2026-01-02 08:13:21.67	339.99	18.47	-45.8	-47.1	15.0	7.00e-07	0	57	0	855638016	54	4190
2026-01-02 08:13:22.66	339.89	18.36	-45.7	-47.1	15.2	7.00e-07	0	58	0	858783744	54	4152
2026-01-02 08:13:23.64	339.79	18.26	-45.3	-46.5	15.7	0.00e+00	0	58	0	861929472	53	4125
2026-01-02 08:13:24.63	339.69	18.15	-44.9	-46.1	16.2	0.00e+00	0	58	0	865075200	53	3918
2026-01-02 08:13:25.63	339.59	18.04	-44.7	-45.8	16.5	0.00e+00	0	58	0	868220928	52	4021
2026-01-02 08:13:26.62	339.49	17.93	-44.7	-45.7	16.6	0.00e+00	0	58	0	871366656	52	3993
2026-01-02 08:13:27.61	339.39	17.83	-44.4	-45.4	17.0	0.00e+00	0	58	0	874512384	52	3839
2026-01-02 08:13:28.60	339.29	17.72	-44.3	-45.2	17.3	0.00e+00	0	57	0	877658112	51	3993
2026-01-02 08:13:29.59	339.19	17.61	-44.4	-45.4	17.1	0.00e+00	0	58	0	880803840	51	4062
2026-01-02 08:13:30.58	339.09	17.51	-44.6	-45.5	17.0	0.00e+00	0	57	0	883949568	51	4145
2026-01-02 08:13:31.56	339.00	17.40	-44.9	-45.9	16.7	0.00e+00	0	58	0	887095296	51	4321
2026-01-02 08:13:32.56	338.90	17.30	-44.7	-45.7	16.8	0.00e+00	0	58	0	890241024	51	4239
2026-01-02 08:13:33.55	338.81	17.19	-44.4	-45.3	17.2	0.00e+00	0	58	0	893386752	51	4047
2026-01-02 08:13:34.55	338.71	17.09	-44.2	-45.2	17.4	0.00e+00	0	58	0	896532480	51	3961
2026-01-02 08:13:35.54	338.62	16.98	-44.2	-45.2	17.4	0.00e+00	0	58	0	898629632	51	3963
2026-01-02 08:13:36.53	338.53	16.88	-44.4	-45.4	17.2	0.00e+00	0	58	0	901775360	51	4074
2026-01-02 08:13:37.52	338.43	16.78	-44.5	-45.5	17.1	0.00e+00	0	58	0	904921088	51	4124
2026-01-02 08:13:38.51	338.34	16.68	-44.5	-45.5	17.1	0.00e+00	0	57	0	908066816	51	4118
2026-01-02 08:13:39.51	338.25	16.57	-44.6	-45.6	17.0	0.00e+00	0	58	0	911212544	51	4153
2026-01-02 08:13:40.50	338.16	16.47	-44.9	-45.9	16.7	0.00e+00	0	58	0	914358272	51	4324
2026-01-02 08:13:41.48	338.07	16.37	-44.9	-46.1	16.6	0.00e+00	0	58	0	917504000	51	4405
2026-01-02 08:13:42.47	337.98	16.27	-44.9	-46.1	16.6	0.00e+00	0	58	0	920649728	51	4399
2026-01-02 08:13:43.46	337.89	16.17	-44.9	-46.1	16.5	0.00e+00	0	58	0	923795456	52	4158
2026-01-02 08:13:44.46	337.80	16.07	-44.9	-46.1	16.4	0.00e+00	0	58	0	926941184	52	4172
2026-01-02 08:13:45.45	337.72	15.97	-44.9	-46.1	16.4	0.00e+00	0	58	0	930086912	52	4169
2026-01-02 08:13:46.44	337.63	15.87	-45.0	-46.2	16.3	0.00e+00	0	58	0	933232640	52	4203
2026-01-02 08:13:47.43	337.54	15.77	-45.1	-46.2	16.3	0.00e+00	0	58	0	936378368	52	4211
2026-01-02 08:13:48.41	337.46	15.67	-45.2	-46.4	16.2	0.00e+00	0	58	0	939524096	52	4310
2026-01-02 08:13:49.41	337.37	15.57	-45.3	-46.5	16.1	0.00e+00	0	58	0	942669824	52	4342
2026-01-02 08:13:50.41	337.29	15.47	-45.4	-46.5	16.1	0.00e+00	0	58	0	945815552	52	4377
2026-01-02 08:13:51.40	337.21	15.37	-45.6	-46.8	15.8	0.00e+00	0	58	0	948961280	52	4519
2026-01-02 08:13:52.39	337.12	15.27	-45.7	-47.0	15.6	0.00e+00	0	58	0	952107008	53	4353
2026-01-02 08:13:53.38	337.04	15.17	-45.5	-46.6	15.9	0.00e+00	0	58	0	955252736	53	4184
2026-01-02 08:13:54.36	336.96	15.08	-45.3	-46.5	16.0	0.00e+00	0	58	0	958398464	53	4106
2026-01-02 08:13:55.36	336.88	14.98	-45.3	-46.5	16.1	0.00e+00	0	58	0	961544192	53	4110
2026-01-02 08:13:56.34	336.80	14.88	-45.3	-46.5	16.0	0.00e+00	0	58	0	963641344	53	4122
2026-01-02 08:13:57.33	336.72	14.79	-45.2	-46.4	16.2	0.00e+00	0	58	0	966787072	53	4054
2026-01-02 08:13:58.33	336.64	14.69	-45.3	-46.5	16.1	0.00e+00	0	57	0	969932800	53	4110
2026-01-02 08:13:59.33	336.56	14.59	-45.3	-46.5	16.0	0.00e+00	0	58	0	973078528	53	4122
2026-01-02 08:14:00.31	336.48	14.50	-45.3	-46.4	16.1	0.00e+00	0	58	0	976224256	53	4082
2026-01-02 08:14:01.30	336.40	14.41	-45.3	-46.4	16.1	0.00e+00	0	58	0	979369984	53	4073
2026-01-02 08:14:02.29	336.32	14.31	-45.4	-46.6	16.0	0.00e+00	0	58	0	982515712	53	4160
2026-01-02 08:14:03.27	336.25	14.22	-45.5	-46.7	15.8	0.00e+00	0	58	0	985661440	53	4222
2026-01-02 08:14:04.26	336.17	14.12	-45.7	-46.9	15.7	0.00e+00	0	58	0	988807168	53	4311
2026-01-02 08:14:05.25	336.09	14.03	-45.4	-46.6	15.9	0.00e+00	0	57	0	991952896	53	4173
2026-01-02 08:14:06.24	336.02	13.94	-45.3	-46.4	16.1	0.00e+00	0	58	0	995098624	53	4075
2026-01-02 08:14:07.24	335.94	13.84	-45.2	-46.3	16.2	0.00e+00	0	57	0	998244352	53	4045
2026-01-02 08:14:08.23	335.87	13.75	-45.3	-46.5	16.0	0.00e+00	0	58	0	1001390080	53	4114
2026-01-02 08:14:09.22	335.79	13.66	-45.4	-46.6	15.9	0.00e+00	0	57	0	1004535808	53	4151
2026-01-02 08:14:10.22	335.72	13.56	-45.4	-46.5	16.0	0.00e+00	0	58	0	1007681536	53	4128
2026-01-02 08:14:11.21	335.65	13.47	-45.5	-46.7	15.8	0.00e+00	0	57	0	1010827264	53	4219
2026-01-02 08:14:12.20	335.57	13.38	-45.5	-46.8	15.7	0.00e+00	0	58	0	1013972992	53	4275
2026-01-02 08:14:13.19	335.50	13.29	-45.3	-46.5	16.0	0.00e+00	0	58	0	1017118720	53	4118
2026-01-02 08:14:14.18	335.43	13.20	-45.3	-46.5	16.1	0.00e+00	0	57	0	1020264448	53	4104
2026-01-02 08:14:15.17	335.36	13.11	-45.4	-46.6	15.9	0.00e+00	0	58	0	1023410176	53	4159
2026-01-02 08:14:16.16	335.29	13.02	-45.5	-46.8	15.8	0.00e+00	0	58	0	1026555904	53	4250
2026-01-02 08:14:17.15	335.22	12.93	-45.4	-46.5	16.0	0.00e+00	0	58	0	1029701632	53	4141
2026-01-02 08:14:18.13	335.15	12.84	-45.3	-46.5	16.0	0.00e+00	0	58	0	1031798784	53	4100
2026-01-02 08:14:19.12	335.08	12.75	-45.5	-46.6	15.9	0.00e+00	0	58	0	1034944512	53	4193
2026-01-02 08:14:20.11	335.01	12.66	-45.7	-46.9	15.6	0.00e+00	0	58	0	1038090240	53	4323
2026-01-02 08:14:21.10	334.94	12.57	-45.5	-46.6	15.9	0.00e+00	0	57	0	1041235968	53	4183
2026-01-02 08:14:22.09	334.87	12.48	-45.7	-46.9	15.6	0.00e+00	0	57	0	1044381696	53	4323
2026-01-02 08:14:23.08	334.80	12.39	-45.5	-46.8	15.8	0.00e+00	0	58	0	1047527424	53	4243
2026-01-02 08:14:24.07	334.74	12.30	-45.5	-46.7	15.8	0.00e+00	0	57	0	1050673152	53	4215
2026-01-02 08:14:25.06	334.67	12.22	-45.7	-46.9	15.6	0.00e+00	0	57	0	1053818880	53	4332
2026-01-02 08:14:26.04	334.60	12.13	-45.8	-47.1	15.4	0.00e+00	0	58	0	1056964608	53	4419
2026-01-02 08:14:27.03	334.54	12.04	-45.7	-47.0	15.5	0.00e+00	0	58	0	1060110336	53	4359
2026-01-02 08:14:28.02	334.47	11.95	-45.6	-46.8	15.6	0.00e+00	0	58	0	1063256064	53	4284
2026-01-02 08:14:29.01	334.41	11.87	-45.5	-46.8	15.6	0.00e+00	0	58	0	1066401792	53	4274
2026-01-02 08:14:29.99	334.34	11.78	-45.7	-47.0	15.5	0.00e+00	0	58	0	1069547520	53	4353
2026-01-02 08:14:30.98	334.28	11.70	-45.8	-47.1	15.4	0.00e+00	0	58	0	1072693248	53	4396
2026-01-02 08:14:31.97	334.21	11.61	-45.9	-47.2	15.3	0.00e+00	0	58	0	1075838976	53	4468
2026-01-02 08:14:32.96	334.15	11.52	-45.9	-47.3	15.2	0.00e+00	0	58	0	1078984704	53	4509
2026-01-02 08:14:33.95	334.09	11.44	-46.0	-47.4	15.1	0.00e+00	0	57	0	1082130432	53	4579
2026-01-02 08:14:34.94	334.02	11.35	-46.0	-47.3	15.2	0.00e+00	0	58	0	1084227584	53	4523
2026-01-02 08:14:35.92	333.96	11.27	-46.0	-47.4	15.1	0.00e+00	0	57	0	1087373312	53	4556
2026-01-02 08:14:36.91	333.90	11.18	-45.9	-47.3	15.1	0.00e+00	0	57	0	1090519040	53	4515
2026-01-02 08:14:37.89	333.84	11.10	-46.1	-47.5	15.0	7.00e-07	0	58	0	1093664768	54	4361
2026-01-02 08:14:38.89	333.78	11.01	-46.3	-47.8	14.7	7.00e-07	0	58	0	1096810496	54	4524
2026-01-02 08:14:39.88	333.72	10.93	-46.2	-47.7	14.8	0.00e+00	0	58	0	1099956224	54	4452
2026-01-02 08:14:40.87	333.66	10.85	-46.3	-47.8	14.7	0.00e+00	0	58	0	1103101952	54	4530
2026-01-02 08:14:41.87	333.60	10.76	-46.4	-47.9	14.5	7.00e-07	0	57	0	1106247680	54	4573
2026-01-02 08:14:42.86	333.54	10.68	-46.3	-47.8	14.7	7.00e-07	0	58	0	1109393408	54	4494
2026-01-02 08:14:43.85	333.48	10.60	-46.2	-47.7	14.8	0.00e+00	0	58	0	1112539136	54	4449
2026-01-02 08:14:44.83	333.42	10.51	-46.3	-47.7	14.7	0.00e+00	0	58	0	1115684864	54	4465
2026-01-02 08:14:45.82	333.36	10.43	-46.4	-47.9	14.6	0.00e+00	0	58	0	1118830592	54	4562
2026-01-02 08:14:46.81	333.30	10.35	-46.5	-48.0	14.4	0.00e+00	0	58	0	1121976320	54	4634
2026-01-02 08:14:47.80	333.24	10.27	-46.6	-48.2	14.2	7.00e-07	0	57	0	1125122048	55	4463
2026-01-02 08:14:48.79	333.18	10.19	-46.5	-48.0	14.4	2.20e-06	0	58	0	1128267776	55	4375
2026-01-02 08:14:49.78	333.13	10.10	-46.4	-47.9	14.6	7.00e-07	0	58	0	1131413504	55	4293
2026-01-02 08:14:50.76	333.07	10.02	-46.2	-47.6	14.8	0.00e+00	0	58	0	1134559232	55	4184
2026-01-02 08:14:51.76	333.01	9.94	-46.3	-47.7	14.7	0.00e+00	0	58	0	1137704960	55	4214
2026-01-02 08:14:52.75	332.96	9.86	-46.5	-48.0	14.4	7.00e-07	0	57	0	1140850688	55	4386
2026-01-02 08:14:53.74	332.90	9.78	-46.4	-47.9	14.5	1.50e-06	0	58	0	1143996416	55	4339
2026-01-02 08:14:54.72	332.85	9.70	-46.2	-47.6	14.8	7.00e-07	0	57	0	1146093568	55	4171
2026-01-02 08:14:55.71	332.79	9.62	-46.0	-47.4	15.0	0.00e+00	0	58	0	1149239296	55	4077
2026-01-02 08:14:56.70	332.74	9.54	-46.1	-47.5	14.8	0.00e+00	0	58	0	1152385024	55	4127
2026-01-02 08:14:57.70	332.68	9.46	-46.2	-47.6	14.8	0.00e+00	0	57	0	1155530752	55	4169
2026-01-02 08:14:58.69	332.63	9.38	-46.5	-48.0	14.4	1.50e-06	0	58	0	1158676480	55	4358
2026-01-02 08:14:59.68	332.57	9.30	-46.4	-47.9	14.5	1.50e-06	0	58	0	1161822208	55	4328
2026-01-02 08:15:00.66	332.52	9.22	-46.4	-47.9	14.4	0.00e+00	0	58	0	1164967936	55	4328
2026-01-02 08:15:01.66	332.46	9.14	-46.6	-48.1	14.3	0.00e+00	0	58	0	1168113664	55	4416
2026-01-02 08:15:02.65	332.41	9.07	-46.7	-48.3	14.0	1.50e-06	0	58	0	1171259392	55	4531
2026-01-02 08:15:03.64	332.36	8.99	-46.6	-48.2	14.2	1.50e-06	0	57	0	1174405120	55	4465
2026-01-02 08:15:04.63	332.31	8.91	-46.5	-48.0	14.4	0.00e+00	0	58	0	1177550848	55	4355
2026-01-02 08:15:05.61	332.25	8.83	-46.4	-47.9	14.4	1.50e-06	0	58	0	1180696576	55	4328
2026-01-02 08:15:06.60	332.20	8.75	-46.4	-47.9	14.5	7.00e-07	0	58	0	1183842304	55	4319
2026-01-02 08:15:07.59	332.15	8.68	-46.6	-48.1	14.3	7.00e-07	0	58	0	1186988032	55	4417
2026-01-02 08:15:08.58	332.10	8.60	-46.6	-48.2	14.2	1.50e-06	0	58	0	1190133760	55	4451
2026-01-02 08:15:09.57	332.05	8.52	-46.3	-47.8	14.5	0.00e+00	0	58	0	1193279488	55	4271
2026-01-02 08:15:10.56	332.00	8.45	-46.2	-47.6	14.7	0.00e+00	0	58	0	1196425216	55	4183
2026-01-02 08:15:11.55	331.95	8.37	-46.1	-47.5	14.9	0.00e+00	0	57	0	1199570944	55	4106
2026-01-02 08:15:12.55	331.90	8.29	-46.2	-47.6	14.7	0.00e+00	0	58	0	1202716672	55	4165
2026-01-02 08:15:13.54	331.85	8.22	-46.2	-47.6	14.7	0.00e+00	0	58	0	1205862400	55	4186
2026-01-02 08:15:14.54	331.80	8.14	-46.4	-47.9	14.5	1.50e-06	0	57	0	1209008128	55	4306
2026-01-02 08:15:15.52	331.75	8.06	-46.5	-48.0	14.3	7.00e-07	0	58	0	1211105280	55	4356
2026-01-02 08:15:16.50	331.70	7.99	-46.5	-48.1	14.3	1.50e-06	0	58	0	1214251008	55	4392
2026-01-02 08:15:17.49	331.65	7.91	-46.4	-47.9	14.4	1.50e-06	0	58	0	1217396736	55	4311
2026-01-02 08:15:18.48	331.60	7.84	-46.3	-47.8	14.6	7.00e-07	0	58	0	1220542464	55	4248
2026-01-02 08:15:19.47	331.55	7.76	-46.2	-47.7	14.6	7.00e-07	0	58	0	1223688192	55	4206
2026-01-02 08:15:20.46	331.50	7.69	-46.3	-47.8	14.4	0.00e+00	0	58	0	1226833920	55	4288
2026-01-02 08:15:21.45	331.46	7.61	-46.2	-47.6	14.6	7.00e-07	0	58	0	1229979648	55	4192
2026-01-02 08:15:22.44	331.41	7.54	-46.4	-47.9	14.4	0.00e+00	0	58	0	1233125376	55	4324
2026-01-02 08:15:23.44	331.36	7.47	-46.4	-47.9	14.4	7.00e-07	0	58	0	1236271104	55	4307
2026-01-02 08:15:24.43	331.31	7.39	-46.4	-47.9	14.4	7.00e-07	0	57	0	1239416832	55	4323
2026-01-02 08:15:25.42	331.27	7.32	-46.5	-48.0	14.2	7.00e-07	0	58	0	1242562560	55	4378
2026-01-02 08:15:26.42	331.22	7.24	-46.5	-48.1	14.2	1.50e-06	0	58	0	1245708288	55	4396
2026-01-02 08:15:27.40	331.17	7.17	-46.5	-48.1	14.2	3.00e-06	0	58	0	1248854016	55	4404
2026-01-02 08:15:28.39	331.13	7.10	-46.6	-48.1	14.1	0.00e+00	0	58	0	1251999744	55	4429
2026-01-02 08:15:29.37	331.08	7.03	-46.6	-48.2	14.1	2.20e-06	0	58	0	1255145472	55	4451
2026-01-02 08:15:30.36	331.04	6.95	-46.7	-48.4	13.9	3.00e-06	0	58	0	1258291200	55	4553
2026-01-02 08:15:31.35	330.99	6.88	-46.7	-48.3	13.9	5.30e-06	0	57	0	1261436928	55	4544
2026-01-02 08:15:32.34	330.95	6.81	-46.7	-48.3	13.9	4.50e-06	0	58	0	1264582656	55	4525
2026-01-02 08:15:33.33	330.90	6.74	-46.6	-48.3	13.9	4.50e-06	0	58	0	1267728384	55	4521
2026-01-02 08:15:34.32	330.86	6.66	-46.5	-48.1	14.0	4.50e-06	0	58	0	1270874112	55	4434
2026-01-02 08:15:35.30	330.81	6.59	-46.8	-48.4	13.7	4.50e-06	0	58	0	1272971264	55	4597
2026-01-02 08:15:36.29	330.77	6.52	-46.7	-48.4	13.7	5.30e-06	0	57	0	1276116992	55	4593
2026-01-02 08:15:37.29	330.73	6.45	-46.6	-48.2	13.9	3.00e-06	0	58	0	1279262720	55	4490
2026-01-02 08:15:38.28	330.68	6.38	-46.8	-48.5	13.7	3.00e-06	0	58	0	1282408448	55	4608
2026-01-02 08:15:39.26	330.64	6.31	-46.7	-48.4	13.7	6.80e-06	0	58	0	1285554176	55	4594
2026-01-02 08:15:40.25	330.60	6.24	-47.0	-48.8	13.3	1.60e-05	0	58	0	1288699904	55	4811
2026-01-02 08:15:41.25	330.55	6.16	-46.9	-48.6	13.5	9.90e-06	0	58	0	1291845632	55	4661
2026-01-02 08:15:42.24	330.51	6.09	-47.1	-48.9	13.3	1.98e-05	0	58	0	1294991360	56	4592
2026-01-02 08:15:43.23	330.47	6.02	-47.0	-48.8	13.4	1.37e-05	0	58	0	1298137088	56	4519
2026-01-02 08:15:44.21	330.43	5.95	-46.8	-48.6	13.6	1.37e-05	0	58	0	1301282816	56	4404
2026-01-02 08:15:45.20	330.38	5.88	-47.0	-48.8	13.4	1.06e-05	0	58	0	1304428544	56	4517
2026-01-02 08:15:46.18	330.34	5.81	-47.0	-48.8	13.4	1.90e-05	0	58	0	1307574272	56	4527
2026-01-02 08:15:47.17	330.30	5.74	-47.1	-48.9	13.3	2.05e-05	0	57	0	1310720000	56	4579
2026-01-02 08:15:48.16	330.26	5.67	-47.0	-48.7	13.5	1.44e-05	0	57	0	1313865728	56	4471
2026-01-02 08:15:49.15	330.22	5.60	-46.9	-48.8	13.4	1.67e-05	0	58	0	1317011456	56	4502
2026-01-02 08:15:50.13	330.18	5.54	-47.1	-48.9	13.2	1.44e-05	0	58	0	1320157184	56	4596
2026-01-02 08:15:51.13	330.14	5.47	-47.1	-49.0	13.2	1.75e-05	0	57	0	1323302912	56	4609
2026-01-02 08:15:52.12	330.10	5.40	-47.2	-49.1	13.0	4.27e-05	0	58	0	1326448640	56	4695
2026-01-02 08:15:53.10	330.06	5.33	-47.2	-49.1	13.0	3.35e-05	0	58	0	1329594368	56	4682
2026-01-02 08:15:54.10	330.02	5.26	-47.1	-49.0	13.1	3.20e-05	0	58	0	1331691520	56	4645
2026-01-02 08:15:55.09	329.98	5.19	-47.2	-49.2	12.9	5.11e-05	0	58	0	1334837248	56	4759
2026-01-02 08:15:56.08	329.94	5.12	-47.1	-49.0	13.1	2.13e-05	0	58	0	1337982976	56	4613
2026-01-02 08:15:57.07	329.90	5.05	-49.6	-53.6	8.6	1.02e-04	0	58	0	1341128704	60	6220
2026-01-02 08:15:58.06	329.86	4.99	-51.5	-62.0	3.8	6.46e-01	0	58	104	1344274432	65	12291
2026-01-02 08:15:59.05	329.82	4.92	-51.8	-63.4	3.8	1.49e+00	0	58	104	1344274432	65	14519
2026-01-02 08:16:00.03	329.78	4.85	-52.0	-63.6	3.8	1.49e+00	0	58	104	1344274432	66	14037
2026-01-02 08:16:01.02	329.74	4.78	-52.1	-63.7	3.8	1.49e+00	0	58	104	1344274432	66	14173
2026-01-02 08:16:02.01	329.70	4.72	-52.0	-63.6	3.8	1.49e+00	0	58	104	1344274432	66	13928
2026-01-02 08:16:03.00	329.67	4.65	-52.0	-63.8	3.8	1.49e+00	0	58	104	1344274432	66	14211
2026-01-02 08:16:04.00	329.63	4.58	-52.3	-64.0	3.8	1.49e+00	0	58	104	1344274432	66	14647
2026-01-02 08:16:04.98	329.59	4.52	-52.4	-64.1	3.8	1.49e+00	0	58	104	1344274432	66	14722
2026-01-02 08:16:05.97	329.55	4.45	-52.4	-64.1	3.8	1.49e+00	0	58	104	1344274432	66	14772
2026-01-02 08:16:06.96	329.52	4.38	-52.5	-64.1	3.8	1.49e+00	0	58	104	1344274432	66	14806
2026-01-02 08:16:07.95	329.48	4.32	-52.5	-64.2	3.8	1.49e+00	0	58	104	1344274432	67	14076
2026-01-02 08:16:08.94	329.44	4.25	-52.7	-64.2	3.8	1.49e+00	0	58	104	1344274432	67	14104
2026-01-02 08:16:09.92	329.40	4.18	-52.7	-64.2	3.8	1.49e+00	0	58	104	1344274432	67	14103
2026-01-02 08:16:10.91	329.37	4.12	-52.8	-64.2	3.8	1.49e+00	0	58	104	1344274432	67	14174
2026-01-02 08:16:11.91	329.33	4.05	-52.8	-64.2	3.8	1.49e+00	0	58	104	1344274432	67	14182
2026-01-02 08:16:12.89	329.29	3.99	-52.8	-64.2	3.8	1.49e+00	0	58	104	1344274432	67	14195
2026-01-02 08:16:13.88	329.26	3.92	-52.8	-64.3	3.8	1.49e+00	0	58	104	1344274432	67	14247
2026-01-02 08:16:14.87	329.22	3.86	-52.7	-64.3	3.8	1.49e+00	0	58	104	1344274432	67	14256
2026-01-02 08:16:15.86	329.19	3.79	-52.6	-64.3	3.8	1.49e+00	0	58	104	1344274432	67	14263
2026-01-02 08:16:16.85	329.15	3.73	-52.8	-64.3	3.8	1.49e+00	0	58	104	1344274432	67	14276
2026-01-02 08:16:17.84	329.12	3.66	-52.7	-64.3	3.8	1.49e+00	0	58	104	1344274432	67	14325
2026-01-02 08:16:18.82	329.08	3.60	-52.8	-64.3	3.8	1.49e+00	0	58	104	1344274432	67	14324
2026-01-02 08:16:19.81	329.05	3.53	-52.7	-64.3	3.8	1.49e+00	0	58	104	1344274432	67	14357
2026-01-02 08:16:20.81	329.01	3.47	-52.7	-64.4	3.8	1.49e+00	0	58	104	1344274432	67	14384
2026-01-02 08:16:21.80	328.98	3.40	-52.8	-64.4	3.8	1.49e+00	0	58	104	1344274432	67	14380
2026-01-02 08:16:22.79	328.94	3.34	-52.6	-64.4	3.8	1.49e+00	0	58	104	1344274432	67	14386
2026-01-02 08:16:23.78	328.91	3.27	-52.7	-64.3	3.8	1.49e+00	0	58	104	1344274432	67	14355
2026-01-02 08:16:24.77	328.87	3.21	-52.8	-64.3	3.8	1.49e+00	0	58	104	1344274432	67	14364
2026-01-02 08:16:25.76	328.84	3.15	-52.8	-64.3	3.8	1.49e+00	0	58	104	1344274432	67	14327
2026-01-02 08:16:26.75	328.80	3.08	-52.8	-64.3	3.8	1.49e+00	0	58	104	1344274432	67	14359
2026-01-02 08:16:27.74	328.77	3.02	-52.8	-64.3	3.8	1.49e+00	0	58	104	1344274432	67	14343
2026-01-02 08:16:28.73	328.74	2.95	-52.8	-64.3	3.8	1.49e+00	0	58	104	1344274432	67	14340
2026-01-02 08:16:29.72	328.70	2.89	-52.9	-64.3	3.8	1.49e+00	0	58	104	1344274432	67	14348

#Closed at: 2026-01-02 08:16:30
#Recorded file [1344 MB]: D:/Data/31026_260102_111557.dat