passes_logs/2026/01/02/R3.0SM8_Murmansk_STILSPACE/R3.0SM8_Murmansk_STILSPACE__20260102_223626_NOAA_20_JPSS-1_rec.log

#Pass ID: 20260102_223626_NOAA 20 (JPSS-1)
#Satellite: NOAA 20 (JPSS-1)
#Configuration: NOAA 20
#almurnet v.1.7.20240730
#Start time: 2026-01-02 22:36:28

#Version: 2.2.20231116
#Station: R3.0SM8_Murmansk_STILSPACE
#Location: 33.092731 lon 68.902999 lat
#TLE: 1 43013U 17073A   26002.21975278  .00000202  00000+0  11669-3 0  9999
#TLE: 2 43013  98.7622 303.2950 0001915  57.9213 302.2149 14.19532512420923

#Time	Az	El	Level	Level2	SNR	BER	BlckErr	Temp	State	Recorded	gain1	gain2
2026-01-02 22:36:28.80	20.40	3.13	-52.7	-66.5	3.8	1.49e+00	0	47	0	0	67	18459
2026-01-02 22:36:29.78	20.47	3.18	-52.7	-66.7	3.8	1.49e+00	0	47	104	0	68	17684
2026-01-02 22:36:30.77	20.53	3.24	-52.5	-66.6	3.8	1.49e+00	0	48	104	0	68	17519
2026-01-02 22:36:31.76	20.60	3.30	-52.5	-66.4	3.8	1.49e+00	0	48	104	0	67	18165
2026-01-02 22:36:32.75	20.67	3.36	-52.4	-66.2	3.8	1.49e+00	0	48	104	0	67	17779
2026-01-02 22:36:33.73	20.73	3.42	-52.0	-65.8	3.8	1.49e+00	0	48	104	0	67	16927
2026-01-02 22:36:34.73	20.80	3.48	-51.4	-65.2	3.8	1.49e+00	0	48	104	0	65	17851
2026-01-02 22:36:35.72	20.87	3.53	-51.4	-65.3	3.8	1.49e+00	0	48	104	0	65	17891
2026-01-02 22:36:36.71	20.94	3.59	-51.4	-65.1	3.8	1.49e+00	0	48	104	0	65	17546
2026-01-02 22:36:37.70	21.01	3.65	-51.4	-65.2	3.8	1.49e+00	0	48	104	0	65	17742
2026-01-02 22:36:38.70	21.08	3.71	-51.4	-65.2	3.8	1.49e+00	0	48	104	0	65	17852
2026-01-02 22:36:39.68	21.14	3.77	-51.4	-64.7	3.8	1.49e+00	0	48	104	0	65	16784
2026-01-02 22:36:40.68	21.21	3.83	-51.4	-64.5	3.8	1.49e+00	0	48	104	0	65	16339
2026-01-02 22:36:41.67	21.28	3.89	-51.4	-64.8	3.8	1.49e+00	0	48	104	0	65	16910
2026-01-02 22:36:42.66	21.35	3.95	-51.4	-65.2	3.8	1.49e+00	0	48	104	0	65	17770
2026-01-02 22:36:43.65	21.42	4.01	-51.4	-65.3	3.8	1.49e+00	0	48	104	0	65	17947
2026-01-02 22:36:44.63	21.49	4.07	-51.3	-65.3	3.8	1.49e+00	0	48	104	0	65	17940
2026-01-02 22:36:45.62	21.56	4.12	-51.3	-65.2	3.8	1.49e+00	0	48	104	0	65	17869
2026-01-02 22:36:46.61	21.63	4.18	-51.4	-65.2	3.8	1.49e+00	0	48	104	0	65	17793
2026-01-02 22:36:47.60	21.70	4.24	-51.4	-65.2	3.8	1.49e+00	0	49	104	0	65	17761
2026-01-02 22:36:48.59	21.77	4.30	-51.4	-65.2	3.8	1.49e+00	0	49	104	0	65	17688
2026-01-02 22:36:49.58	21.85	4.36	-51.4	-65.1	3.8	1.49e+00	0	49	104	0	65	17557
2026-01-02 22:36:50.57	21.92	4.42	-51.4	-65.0	3.8	1.49e+00	0	49	104	0	65	17354
2026-01-02 22:36:51.57	21.99	4.48	-51.4	-64.7	3.8	1.49e+00	0	49	104	0	65	16804
2026-01-02 22:36:52.56	22.06	4.54	-51.4	-64.0	3.8	1.49e+00	0	49	104	0	65	15548
2026-01-02 22:36:53.54	22.13	4.60	-51.1	-63.0	3.8	1.49e+00	0	49	104	0	65	13882
2026-01-02 22:36:54.53	22.21	4.66	-51.0	-61.8	4.2	1.48e+00	0	49	0	0	65	12088
2026-01-02 22:36:55.52	22.28	4.73	-51.0	-61.1	4.4	1.32e+00	37	49	0	0	65	11144
2026-01-02 22:36:56.51	22.35	4.79	-51.0	-60.6	4.5	1.03e+00	0	49	0	2097152	65	10506
2026-01-02 22:36:57.50	22.43	4.85	-51.0	-60.3	4.7	9.35e-01	0	49	0	4194304	65	10068
2026-01-02 22:36:58.48	22.50	4.91	-50.9	-59.5	5.1	8.00e-01	0	49	0	5242880	65	9222
2026-01-02 22:36:59.47	22.57	4.97	-50.8	-58.3	5.9	4.56e-01	0	49	0	7340032	64	8521
2026-01-02 22:37:00.46	22.65	5.03	-50.5	-56.9	7.1	2.14e-01	0	49	0	9437184	64	7277
2026-01-02 22:37:01.44	22.72	5.09	-50.5	-56.6	7.5	1.18e-01	0	49	0	10485760	63	7405
2026-01-02 22:37:02.43	22.80	5.15	-50.4	-56.2	8.0	1.01e-01	0	49	0	12582912	63	7060
2026-01-02 22:37:03.42	22.87	5.21	-50.0	-54.9	9.3	2.49e-02	0	49	0	14680064	63	6094
2026-01-02 22:37:04.41	22.95	5.27	-49.7	-54.0	10.3	8.56e-03	0	49	0	16777216	62	5811
2026-01-02 22:37:05.40	23.03	5.33	-49.4	-53.5	10.9	3.71e-03	0	50	0	18874368	62	5465
2026-01-02 22:37:06.39	23.10	5.40	-49.3	-53.0	11.3	1.15e-03	0	50	0	19922944	61	5491
2026-01-02 22:37:07.39	23.18	5.46	-49.1	-52.6	11.7	7.05e-04	0	50	0	22020096	61	5272
2026-01-02 22:37:08.38	23.26	5.52	-48.9	-52.4	12.0	4.06e-04	0	50	0	24117248	61	5114
2026-01-02 22:37:09.37	23.33	5.58	-48.9	-52.3	12.1	2.32e-04	0	50	0	26214400	61	5050
2026-01-02 22:37:10.35	23.41	5.64	-48.9	-52.2	12.3	2.11e-04	0	50	0	27262976	60	5296
2026-01-02 22:37:11.34	23.49	5.71	-48.9	-52.1	12.4	1.21e-04	0	50	0	29360128	60	5243
2026-01-02 22:37:12.33	23.57	5.77	-48.9	-52.0	12.5	1.23e-04	0	50	0	31457280	60	5218
2026-01-02 22:37:13.32	23.64	5.83	-48.9	-52.0	12.7	1.15e-04	0	50	0	33554432	60	5177
2026-01-02 22:37:14.31	23.72	5.89	-49.0	-52.1	12.7	6.94e-05	0	50	0	35651584	60	5238
2026-01-02 22:37:15.30	23.80	5.96	-49.1	-52.3	12.4	1.07e-04	0	50	0	36700160	60	5362
2026-01-02 22:37:16.29	23.88	6.02	-49.1	-52.2	12.5	1.06e-04	0	50	0	38797312	60	5332
2026-01-02 22:37:17.28	23.96	6.08	-49.1	-52.1	12.6	9.99e-05	0	50	0	40894464	60	5279
2026-01-02 22:37:18.27	24.04	6.14	-49.1	-52.1	12.7	7.17e-05	0	50	0	42991616	60	5265
2026-01-02 22:37:19.27	24.12	6.21	-49.1	-52.1	12.7	9.99e-05	0	50	0	44040192	60	5271
2026-01-02 22:37:20.26	24.20	6.27	-49.1	-52.2	12.7	5.49e-05	0	50	0	46137344	60	5282
2026-01-02 22:37:21.26	24.28	6.33	-49.1	-52.1	12.8	5.11e-05	0	50	0	48234496	60	5235
2026-01-02 22:37:22.25	24.37	6.40	-49.1	-52.1	12.8	5.56e-05	0	51	0	50331648	60	5222
2026-01-02 22:37:23.24	24.45	6.46	-49.1	-52.1	12.8	6.48e-05	0	51	0	51380224	60	5259
2026-01-02 22:37:24.23	24.53	6.52	-49.1	-52.2	12.7	6.79e-05	0	50	0	53477376	60	5292
2026-01-02 22:37:25.22	24.61	6.59	-49.2	-52.3	12.6	9.76e-05	0	51	0	55574528	60	5343
2026-01-02 22:37:26.21	24.69	6.65	-49.0	-52.1	12.8	6.33e-05	0	51	0	57671680	60	5235
2026-01-02 22:37:27.19	24.78	6.72	-49.0	-52.0	12.9	4.80e-05	0	51	0	59768832	60	5201
2026-01-02 22:37:28.18	24.86	6.78	-49.1	-52.2	12.8	4.34e-05	0	51	0	60817408	60	5288
2026-01-02 22:37:29.17	24.94	6.84	-49.0	-51.9	13.0	4.34e-05	0	51	0	62914560	60	5132
2026-01-02 22:37:30.15	25.03	6.91	-49.1	-52.1	12.8	4.73e-05	0	51	0	65011712	60	5274
2026-01-02 22:37:31.14	25.11	6.97	-49.1	-52.2	12.8	7.47e-05	0	51	0	67108864	60	5299
2026-01-02 22:37:32.13	25.20	7.04	-49.1	-52.0	12.9	5.56e-05	0	51	0	68157440	60	5189
2026-01-02 22:37:33.11	25.28	7.10	-49.0	-51.9	13.0	3.50e-05	0	51	0	70254592	60	5132
2026-01-02 22:37:34.10	25.36	7.16	-49.0	-51.9	13.1	3.05e-05	0	51	0	72351744	60	5148
2026-01-02 22:37:35.09	25.45	7.23	-49.0	-52.0	13.0	2.97e-05	0	51	0	74448896	60	5187
2026-01-02 22:37:36.08	25.54	7.29	-49.1	-52.2	12.8	4.65e-05	0	51	0	75497472	60	5289
2026-01-02 22:37:37.07	25.62	7.36	-49.2	-52.3	12.7	6.17e-05	0	51	0	77594624	60	5357
2026-01-02 22:37:38.06	25.71	7.42	-49.1	-52.0	13.0	3.58e-05	0	51	0	79691776	60	5178
2026-01-02 22:37:39.06	25.80	7.49	-49.1	-52.0	13.1	4.11e-05	0	51	0	81788928	60	5179
2026-01-02 22:37:40.04	25.89	7.56	-49.1	-52.0	13.0	3.58e-05	0	51	0	83886080	60	5211
2026-01-02 22:37:41.03	25.97	7.62	-49.1	-52.1	13.0	3.89e-05	0	51	0	84934656	60	5220
2026-01-02 22:37:42.02	26.06	7.69	-49.3	-52.3	12.8	4.27e-05	0	51	0	87031808	60	5358
2026-01-02 22:37:43.01	26.15	7.75	-49.1	-52.1	13.0	7.40e-05	0	51	0	89128960	60	5243
2026-01-02 22:37:44.01	26.24	7.82	-48.9	-51.9	13.1	2.82e-05	0	51	0	91226112	60	5140
2026-01-02 22:37:45.00	26.33	7.88	-49.0	-51.9	13.2	2.67e-05	0	51	0	92274688	60	5146
2026-01-02 22:37:45.99	26.42	7.95	-48.9	-51.8	13.3	2.74e-05	0	52	0	94371840	60	5056
2026-01-02 22:37:46.98	26.51	8.02	-48.9	-51.9	13.2	9.90e-06	0	52	0	96468992	60	5111
2026-01-02 22:37:47.97	26.60	8.08	-48.9	-51.8	13.3	1.14e-05	0	52	0	98566144	60	5055
2026-01-02 22:37:48.96	26.69	8.15	-49.1	-52.1	13.0	2.44e-05	0	52	0	100663296	60	5278
2026-01-02 22:37:49.95	26.78	8.22	-48.9	-51.8	13.4	2.74e-05	0	52	0	101711872	60	5044
2026-01-02 22:37:50.94	26.87	8.28	-48.8	-51.5	13.7	1.22e-05	0	52	0	103809024	60	4877
2026-01-02 22:37:51.93	26.97	8.35	-48.6	-51.3	13.9	6.80e-06	0	52	0	105906176	60	4779
2026-01-02 22:37:52.91	27.06	8.42	-48.6	-51.2	14.0	4.50e-06	0	52	0	108003328	60	4715
2026-01-02 22:37:53.89	27.15	8.48	-48.7	-51.3	13.9	1.50e-06	0	52	0	109051904	60	4778
2026-01-02 22:37:54.88	27.24	8.55	-48.9	-51.6	13.6	1.50e-06	0	52	0	111149056	60	4958
2026-01-02 22:37:55.87	27.34	8.62	-49.0	-51.7	13.4	9.90e-06	0	52	0	113246208	60	5013
2026-01-02 22:37:56.86	27.43	8.68	-48.9	-51.7	13.5	1.29e-05	0	52	0	115343360	60	5000
2026-01-02 22:37:57.86	27.53	8.75	-48.9	-51.8	13.4	1.06e-05	0	52	0	116391936	60	5060
2026-01-02 22:37:58.84	27.62	8.82	-49.1	-52.0	13.2	1.90e-05	0	52	0	118489088	60	5167
2026-01-02 22:37:59.83	27.72	8.89	-49.0	-51.9	13.3	2.21e-05	0	52	0	120586240	60	5124
2026-01-02 22:38:00.83	27.81	8.95	-49.1	-52.1	13.1	2.44e-05	0	52	0	122683392	60	5220
2026-01-02 22:38:01.83	27.91	9.02	-49.0	-51.9	13.3	3.20e-05	0	52	0	123731968	60	5135
2026-01-02 22:38:02.81	28.01	9.09	-49.0	-51.8	13.4	1.29e-05	0	52	0	125829120	60	5054
2026-01-02 22:38:03.81	28.11	9.16	-49.0	-51.8	13.3	1.44e-05	0	52	0	127926272	60	5094
2026-01-02 22:38:04.79	28.20	9.23	-49.0	-51.8	13.4	2.28e-05	0	52	0	130023424	60	5063
2026-01-02 22:38:05.78	28.30	9.30	-49.0	-51.8	13.3	1.29e-05	0	52	0	132120576	60	5097
2026-01-02 22:38:06.77	28.40	9.36	-49.0	-51.8	13.4	9.90e-06	0	52	0	133169152	60	5055
2026-01-02 22:38:07.76	28.50	9.43	-49.1	-51.9	13.3	1.37e-05	0	53	0	135266304	60	5113
2026-01-02 22:38:08.75	28.60	9.50	-49.0	-51.7	13.5	1.14e-05	0	52	0	137363456	60	5002
2026-01-02 22:38:09.74	28.70	9.57	-48.8	-51.4	13.8	3.00e-06	0	53	0	139460608	60	4840
2026-01-02 22:38:10.74	28.80	9.64	-48.7	-51.3	13.9	2.20e-06	0	52	0	140509184	60	4769
2026-01-02 22:38:11.73	28.90	9.71	-48.6	-51.1	14.2	2.20e-06	0	53	0	142606336	60	4686
2026-01-02 22:38:12.72	29.00	9.78	-48.5	-51.0	14.2	2.20e-06	0	53	0	144703488	60	4604
2026-01-02 22:38:13.72	29.10	9.85	-48.5	-50.9	14.4	7.00e-07	0	53	0	146800640	60	4558
2026-01-02 22:38:14.70	29.20	9.92	-48.5	-50.8	14.4	7.00e-07	0	53	0	148897792	59	4812
2026-01-02 22:38:15.69	29.31	9.99	-48.6	-50.9	14.3	1.50e-06	0	52	0	149946368	59	4863
2026-01-02 22:38:16.68	29.41	10.06	-48.5	-50.8	14.4	7.00e-07	0	53	0	152043520	59	4799
2026-01-02 22:38:17.67	29.51	10.13	-48.4	-50.7	14.6	1.50e-06	0	53	0	154140672	59	4734
2026-01-02 22:38:18.66	29.62	10.20	-48.4	-50.6	14.7	0.00e+00	0	53	0	156237824	59	4702
2026-01-02 22:38:19.64	29.72	10.27	-48.3	-50.5	14.8	0.00e+00	0	52	0	157286400	59	4617
2026-01-02 22:38:20.62	29.83	10.33	-48.3	-50.6	14.7	7.00e-07	0	53	0	159383552	59	4687
2026-01-02 22:38:21.61	29.93	10.40	-48.4	-50.7	14.6	7.00e-07	0	53	0	161480704	59	4753
2026-01-02 22:38:22.60	30.04	10.48	-48.4	-50.7	14.6	0.00e+00	0	53	0	163577856	59	4758
2026-01-02 22:38:23.58	30.14	10.54	-48.5	-50.8	14.4	1.50e-06	0	53	0	164626432	59	4807
2026-01-02 22:38:24.57	30.25	10.62	-48.6	-51.1	14.3	0.00e+00	0	53	0	166723584	59	4943
2026-01-02 22:38:25.56	30.36	10.69	-48.6	-51.1	14.2	1.50e-06	0	53	0	168820736	59	4945
2026-01-02 22:38:26.54	30.46	10.76	-48.6	-51.0	14.3	0.00e+00	0	53	0	170917888	59	4887
2026-01-02 22:38:27.53	30.57	10.83	-48.7	-51.1	14.3	7.00e-07	0	53	0	171966464	59	4934
2026-01-02 22:38:28.52	30.68	10.90	-48.6	-51.0	14.3	2.20e-06	0	53	0	174063616	59	4919
2026-01-02 22:38:29.50	30.79	10.97	-48.6	-51.0	14.3	7.00e-07	0	53	0	176160768	59	4918
2026-01-02 22:38:30.48	30.90	11.04	-48.7	-51.1	14.2	7.00e-07	0	53	0	178257920	59	4980
2026-01-02 22:38:31.48	31.01	11.11	-48.6	-51.0	14.3	0.00e+00	0	53	0	180355072	59	4888
2026-01-02 22:38:32.47	31.12	11.18	-48.6	-50.9	14.4	7.00e-07	0	53	0	181403648	59	4854
2026-01-02 22:38:33.45	31.23	11.25	-48.5	-50.9	14.5	0.00e+00	0	53	0	183500800	59	4827
2026-01-02 22:38:34.44	31.34	11.33	-48.4	-50.7	14.6	7.00e-07	0	53	0	185597952	59	4755
2026-01-02 22:38:35.42	31.45	11.40	-48.3	-50.5	14.8	0.00e+00	0	53	0	187695104	59	4642
2026-01-02 22:38:36.41	31.57	11.47	-48.2	-50.3	15.0	0.00e+00	0	53	0	188743680	59	4544
2026-01-02 22:38:37.40	31.68	11.54	-48.2	-50.4	15.1	0.00e+00	0	53	0	190840832	59	4550
2026-01-02 22:38:38.38	31.79	11.61	-48.3	-50.5	14.9	0.00e+00	0	53	0	192937984	59	4623
2026-01-02 22:38:39.37	31.91	11.69	-48.4	-50.6	14.7	0.00e+00	0	53	0	195035136	59	4698
2026-01-02 22:38:40.36	32.02	11.76	-48.6	-50.9	14.5	0.00e+00	0	53	0	196083712	59	4822
2026-01-02 22:38:41.34	32.14	11.83	-48.6	-51.0	14.4	1.50e-06	0	53	0	198180864	59	4874
2026-01-02 22:38:42.33	32.25	11.90	-48.7	-51.1	14.3	0.00e+00	0	53	0	200278016	59	4954
2026-01-02 22:38:43.33	32.37	11.98	-48.8	-51.3	14.1	2.20e-06	0	53	0	202375168	59	5089
2026-01-02 22:38:44.32	32.49	12.05	-48.9	-51.5	13.9	6.80e-06	0	53	0	203423744	59	5195
2026-01-02 22:38:45.30	32.61	12.12	-48.9	-51.3	14.1	7.00e-07	0	53	0	205520896	59	5080
2026-01-02 22:38:46.29	32.72	12.19	-48.9	-51.5	13.9	2.20e-06	0	53	0	207618048	59	5184
2026-01-02 22:38:47.29	32.84	12.27	-49.0	-51.7	13.7	4.50e-06	0	53	0	209715200	59	5294
2026-01-02 22:38:48.27	32.96	12.34	-48.9	-51.5	13.9	2.20e-06	0	53	0	211812352	59	5198
2026-01-02 22:38:49.26	33.08	12.42	-48.9	-51.4	14.0	3.00e-06	0	53	0	212860928	59	5135
2026-01-02 22:38:50.26	33.20	12.49	-48.9	-51.4	14.0	1.50e-06	0	53	0	214958080	59	5119
2026-01-02 22:38:51.25	33.33	12.56	-48.9	-51.5	13.9	3.00e-06	0	53	0	217055232	59	5214
2026-01-02 22:38:52.25	33.45	12.64	-48.9	-51.6	13.8	3.80e-06	0	54	0	219152384	59	5221
2026-01-02 22:38:53.23	33.57	12.71	-48.9	-51.4	13.9	1.50e-06	0	53	0	220200960	59	5144
2026-01-02 22:38:54.22	33.69	12.79	-49.1	-51.6	13.7	1.50e-06	0	53	0	222298112	59	5279
2026-01-02 22:38:55.21	33.82	12.86	-48.8	-51.2	14.2	2.20e-06	0	53	0	224395264	59	5039
2026-01-02 22:38:56.20	33.94	12.93	-48.7	-51.0	14.4	2.20e-06	0	54	0	226492416	59	4891
2026-01-02 22:38:57.19	34.07	13.01	-48.5	-50.8	14.6	7.00e-07	0	53	0	227540992	59	4803
2026-01-02 22:38:58.18	34.19	13.08	-48.4	-50.6	14.8	0.00e+00	0	54	0	229638144	59	4672
2026-01-02 22:38:59.17	34.32	13.16	-48.4	-50.7	14.8	1.50e-06	0	54	0	231735296	59	4718
2026-01-02 22:39:00.17	34.45	13.23	-48.5	-50.7	14.7	2.20e-06	0	54	0	233832448	59	4728
2026-01-02 22:39:01.16	34.57	13.31	-48.3	-50.6	14.9	7.00e-07	0	54	0	235929600	59	4665
2026-01-02 22:39:02.15	34.70	13.38	-48.2	-50.3	15.1	7.00e-07	0	54	0	236978176	59	4517
2026-01-02 22:39:03.14	34.83	13.46	-48.1	-50.2	15.2	0.00e+00	0	54	0	239075328	59	4465
2026-01-02 22:39:04.13	34.96	13.53	-48.1	-50.1	15.3	0.00e+00	0	54	0	241172480	59	4415
2026-01-02 22:39:05.13	35.09	13.61	-48.1	-50.2	15.3	0.00e+00	0	54	0	243269632	59	4450
2026-01-02 22:39:06.12	35.22	13.68	-48.2	-50.3	15.2	0.00e+00	0	54	0	244318208	59	4498
2026-01-02 22:39:07.11	35.35	13.76	-48.1	-50.2	15.3	0.00e+00	0	54	0	246415360	59	4453
2026-01-02 22:39:08.10	35.48	13.84	-48.2	-50.2	15.2	0.00e+00	0	54	0	248512512	59	4490
2026-01-02 22:39:09.09	35.62	13.91	-48.3	-50.5	15.0	0.00e+00	0	54	0	250609664	59	4618
2026-01-02 22:39:10.08	35.75	13.99	-48.2	-50.3	15.2	0.00e+00	0	54	0	252706816	59	4519
2026-01-02 22:39:11.07	35.88	14.06	-48.4	-50.6	14.9	0.00e+00	0	54	0	253755392	59	4657
2026-01-02 22:39:12.06	36.02	14.14	-48.5	-50.9	14.6	0.00e+00	0	54	0	255852544	59	4849
2026-01-02 22:39:13.05	36.15	14.21	-48.4	-50.6	14.9	7.00e-07	0	54	0	257949696	59	4655
2026-01-02 22:39:14.03	36.29	14.29	-48.3	-50.4	15.0	0.00e+00	0	54	0	260046848	59	4585
2026-01-02 22:39:15.02	36.42	14.37	-48.2	-50.3	15.2	0.00e+00	0	54	0	261095424	59	4539
2026-01-02 22:39:16.01	36.56	14.44	-48.2	-50.3	15.3	0.00e+00	0	54	0	263192576	59	4494
2026-01-02 22:39:17.00	36.70	14.52	-48.1	-50.1	15.4	0.00e+00	0	54	0	265289728	59	4402
2026-01-02 22:39:17.99	36.84	14.60	-48.1	-50.0	15.4	0.00e+00	0	54	0	267386880	59	4391
2026-01-02 22:39:18.98	36.98	14.67	-48.1	-50.1	15.5	0.00e+00	0	54	0	268435456	59	4397
2026-01-02 22:39:19.98	37.12	14.75	-48.1	-50.2	15.3	0.00e+00	0	54	0	270532608	59	4460
2026-01-02 22:39:20.97	37.26	14.83	-48.2	-50.4	15.1	0.00e+00	0	54	0	272629760	59	4583
2026-01-02 22:39:21.97	37.40	14.90	-48.2	-50.3	15.3	0.00e+00	0	54	0	274726912	59	4511
2026-01-02 22:39:22.95	37.54	14.98	-48.1	-50.2	15.4	0.00e+00	0	54	0	276824064	59	4445
2026-01-02 22:39:23.94	37.68	15.06	-48.2	-50.2	15.3	0.00e+00	0	54	0	277872640	59	4492
2026-01-02 22:39:24.93	37.83	15.13	-48.3	-50.4	15.1	0.00e+00	0	54	0	279969792	59	4553
2026-01-02 22:39:25.92	37.97	15.21	-48.2	-50.2	15.3	0.00e+00	0	54	0	282066944	59	4487
2026-01-02 22:39:26.91	38.11	15.29	-48.1	-50.1	15.4	0.00e+00	0	54	0	284164096	59	4417
2026-01-02 22:39:27.90	38.26	15.37	-48.1	-50.1	15.4	0.00e+00	0	54	0	285212672	59	4412
2026-01-02 22:39:28.89	38.41	15.44	-48.1	-50.0	15.5	0.00e+00	0	54	0	287309824	59	4372
2026-01-02 22:39:29.87	38.55	15.52	-48.0	-49.9	15.6	7.00e-07	0	54	0	289406976	59	4333
2026-01-02 22:39:30.85	38.70	15.60	-48.0	-49.9	15.6	0.00e+00	0	54	0	291504128	59	4321
2026-01-02 22:39:31.84	38.85	15.67	-48.1	-50.2	15.4	0.00e+00	0	54	0	292552704	59	4448
2026-01-02 22:39:32.83	39.00	15.75	-48.0	-50.0	15.5	0.00e+00	0	54	0	294649856	59	4382
2026-01-02 22:39:33.82	39.15	15.83	-48.0	-49.9	15.6	0.00e+00	0	55	0	296747008	59	4330
2026-01-02 22:39:34.81	39.30	15.91	-48.1	-50.0	15.5	0.00e+00	0	54	0	298844160	59	4387
2026-01-02 22:39:35.80	39.45	15.99	-48.2	-50.2	15.3	0.00e+00	0	54	0	300941312	59	4478
2026-01-02 22:39:36.79	39.60	16.06	-48.2	-50.2	15.4	0.00e+00	0	54	0	301989888	59	4469
2026-01-02 22:39:37.78	39.75	16.14	-48.2	-50.2	15.3	0.00e+00	0	54	0	304087040	59	4486
2026-01-02 22:39:38.77	39.91	16.22	-48.4	-50.5	15.1	0.00e+00	0	54	0	306184192	59	4608
2026-01-02 22:39:39.76	40.06	16.30	-48.2	-50.3	15.2	0.00e+00	0	54	0	308281344	59	4502
2026-01-02 22:39:40.74	40.22	16.38	-48.1	-50.0	15.5	0.00e+00	0	54	0	309329920	59	4383
2026-01-02 22:39:41.73	40.37	16.45	-47.8	-49.8	15.8	0.00e+00	0	54	0	311427072	58	4516
2026-01-02 22:39:42.71	40.53	16.53	-47.7	-49.6	15.9	0.00e+00	0	54	0	313524224	58	4441
2026-01-02 22:39:43.71	40.69	16.61	-47.8	-49.6	16.0	0.00e+00	0	54	0	315621376	58	4404
2026-01-02 22:39:44.69	40.84	16.69	-47.6	-49.3	16.2	0.00e+00	0	54	0	316669952	58	4272
2026-01-02 22:39:45.68	41.00	16.77	-47.5	-49.2	16.4	0.00e+00	0	54	0	318767104	58	4242
2026-01-02 22:39:46.68	41.16	16.85	-47.5	-49.2	16.3	0.00e+00	0	54	0	320864256	58	4236
2026-01-02 22:39:47.66	41.32	16.92	-47.5	-49.2	16.4	0.00e+00	0	55	0	322961408	58	4226
2026-01-02 22:39:48.65	41.49	17.00	-47.5	-49.2	16.4	0.00e+00	0	55	0	325058560	58	4203
2026-01-02 22:39:49.64	41.65	17.08	-47.5	-49.2	16.3	0.00e+00	0	55	0	326107136	58	4234
2026-01-02 22:39:50.63	41.81	17.16	-47.5	-49.3	16.3	0.00e+00	0	54	0	328204288	58	4252
2026-01-02 22:39:51.62	41.98	17.24	-47.6	-49.5	16.1	0.00e+00	0	55	0	330301440	58	4345
2026-01-02 22:39:52.61	42.14	17.32	-47.7	-49.5	16.1	0.00e+00	0	55	0	332398592	58	4348
2026-01-02 22:39:53.60	42.31	17.40	-47.7	-49.5	16.1	0.00e+00	0	54	0	333447168	58	4357
2026-01-02 22:39:54.59	42.47	17.48	-47.8	-49.8	15.8	0.00e+00	0	55	0	335544320	58	4505
2026-01-02 22:39:55.59	42.64	17.56	-47.8	-49.7	15.8	0.00e+00	0	55	0	337641472	58	4459
2026-01-02 22:39:56.58	42.81	17.63	-47.8	-49.7	15.9	0.00e+00	0	55	0	339738624	58	4448
2026-01-02 22:39:57.57	42.98	17.71	-47.9	-49.8	15.8	7.00e-07	0	55	0	340787200	58	4507
2026-01-02 22:39:58.56	43.15	17.79	-47.9	-49.8	15.7	0.00e+00	0	55	0	342884352	58	4539
2026-01-02 22:39:59.55	43.32	17.87	-47.9	-49.8	15.7	0.00e+00	0	55	0	344981504	58	4522
2026-01-02 22:40:00.54	43.49	17.95	-48.0	-50.0	15.7	0.00e+00	0	55	0	347078656	58	4608
2026-01-02 22:40:01.53	43.67	18.03	-48.2	-50.2	15.4	0.00e+00	0	55	0	349175808	58	4718
2026-01-02 22:40:02.52	43.84	18.11	-48.2	-50.3	15.4	0.00e+00	0	55	0	350224384	58	4779
2026-01-02 22:40:03.51	44.01	18.19	-48.4	-50.4	15.2	0.00e+00	0	55	0	352321536	58	4866
2026-01-02 22:40:04.51	44.19	18.27	-48.5	-50.6	15.0	0.00e+00	0	55	0	354418688	58	4958
2026-01-02 22:40:05.50	44.37	18.35	-48.4	-50.6	15.0	0.00e+00	0	55	0	356515840	58	4939
2026-01-02 22:40:06.49	44.54	18.42	-48.4	-50.6	15.0	0.00e+00	0	55	0	357564416	58	4939
2026-01-02 22:40:07.48	44.72	18.50	-48.5	-50.7	14.9	0.00e+00	0	55	0	359661568	58	5006
2026-01-02 22:40:08.47	44.90	18.58	-48.5	-50.7	14.9	7.00e-07	0	55	0	361758720	59	4723
2026-01-02 22:40:09.46	45.08	18.66	-48.2	-50.3	15.3	0.00e+00	0	55	0	363855872	59	4508
2026-01-02 22:40:10.45	45.26	18.74	-48.1	-50.0	15.6	0.00e+00	0	55	0	365953024	59	4363
2026-01-02 22:40:11.44	45.44	18.82	-47.9	-49.7	15.8	0.00e+00	0	55	0	367001600	58	4489
2026-01-02 22:40:12.43	45.63	18.90	-47.9	-49.7	15.9	0.00e+00	0	55	0	369098752	58	4468
2026-01-02 22:40:13.41	45.81	18.98	-47.9	-49.7	15.9	0.00e+00	0	55	0	371195904	58	4478
2026-01-02 22:40:14.41	45.99	19.06	-47.9	-49.7	15.9	0.00e+00	0	55	0	373293056	58	4473
2026-01-02 22:40:15.40	46.18	19.13	-47.9	-49.8	15.9	0.00e+00	0	55	0	374341632	58	4513
2026-01-02 22:40:16.39	46.37	19.21	-48.1	-50.1	15.5	0.00e+00	0	55	0	376438784	58	4667
2026-01-02 22:40:17.38	46.55	19.29	-48.2	-50.1	15.4	0.00e+00	0	55	0	378535936	58	4703
2026-01-02 22:40:18.37	46.74	19.37	-47.8	-49.7	15.9	0.00e+00	0	55	0	380633088	58	4453
2026-01-02 22:40:19.35	46.93	19.45	-47.5	-49.3	16.3	0.00e+00	0	55	0	381681664	58	4250
2026-01-02 22:40:20.35	47.12	19.53	-47.3	-48.9	16.7	0.00e+00	0	55	0	383778816	57	4322
2026-01-02 22:40:21.34	47.31	19.61	-47.1	-48.7	16.9	0.00e+00	0	55	0	385875968	57	4207
2026-01-02 22:40:22.32	47.50	19.68	-47.0	-48.6	17.1	0.00e+00	0	55	0	387973120	57	4146
2026-01-02 22:40:23.31	47.69	19.76	-46.9	-48.5	17.1	0.00e+00	0	55	0	390070272	57	4109
2026-01-02 22:40:24.30	47.89	19.84	-46.9	-48.3	17.3	0.00e+00	0	55	0	391118848	56	4271
2026-01-02 22:40:25.29	48.08	19.92	-46.8	-48.3	17.3	0.00e+00	0	55	0	393216000	56	4244
2026-01-02 22:40:26.28	48.28	20.00	-46.9	-48.4	17.2	0.00e+00	0	55	0	395313152	56	4338
2026-01-02 22:40:27.27	48.48	20.07	-47.0	-48.6	17.0	0.00e+00	0	55	0	397410304	56	4411
2026-01-02 22:40:28.25	48.67	20.15	-46.8	-48.4	17.2	0.00e+00	0	55	0	398458880	56	4296
2026-01-02 22:40:29.24	48.87	20.23	-46.8	-48.2	17.3	0.00e+00	0	55	0	400556032	56	4226
2026-01-02 22:40:30.22	49.07	20.31	-46.7	-48.2	17.4	0.00e+00	0	55	0	402653184	56	4226
2026-01-02 22:40:31.20	49.27	20.38	-46.7	-48.2	17.4	0.00e+00	0	55	0	404750336	56	4235
2026-01-02 22:40:32.18	49.47	20.46	-46.8	-48.2	17.4	0.00e+00	0	55	0	405798912	56	4233
2026-01-02 22:40:33.18	49.67	20.54	-46.9	-48.3	17.3	0.00e+00	0	55	0	407896064	56	4280
2026-01-02 22:40:34.17	49.88	20.62	-46.9	-48.4	17.2	0.00e+00	0	55	0	409993216	56	4317
2026-01-02 22:40:35.15	50.08	20.69	-46.7	-48.2	17.4	0.00e+00	0	55	0	412090368	56	4194
2026-01-02 22:40:36.14	50.28	20.77	-46.6	-48.0	17.6	0.00e+00	0	55	0	413138944	56	4116
2026-01-02 22:40:37.13	50.49	20.85	-46.7	-48.1	17.5	0.00e+00	0	55	0	415236096	56	4185
2026-01-02 22:40:38.12	50.70	20.92	-46.8	-48.2	17.4	0.00e+00	0	55	0	417333248	56	4224
2026-01-02 22:40:39.11	50.91	21.00	-46.8	-48.2	17.4	0.00e+00	0	55	0	419430400	56	4217
2026-01-02 22:40:40.09	51.11	21.07	-46.9	-48.3	17.3	0.00e+00	0	55	0	420478976	56	4285
2026-01-02 22:40:41.09	51.33	21.15	-46.8	-48.3	17.3	0.00e+00	0	55	0	422576128	56	4281
2026-01-02 22:40:42.09	51.54	21.23	-46.9	-48.4	17.3	0.00e+00	0	55	0	424673280	56	4294
2026-01-02 22:40:43.07	51.75	21.30	-46.7	-48.2	17.5	0.00e+00	0	55	0	426770432	56	4212
2026-01-02 22:40:44.07	51.97	21.38	-46.7	-48.2	17.4	0.00e+00	0	55	0	428867584	56	4239
2026-01-02 22:40:45.05	52.18	21.46	-46.7	-48.1	17.6	0.00e+00	0	55	0	429916160	56	4163
2026-01-02 22:40:46.03	52.39	21.53	-46.8	-48.2	17.4	0.00e+00	0	55	0	432013312	56	4224
2026-01-02 22:40:47.03	52.61	21.61	-46.6	-48.1	17.5	0.00e+00	0	55	0	434110464	56	4158
2026-01-02 22:40:48.02	52.83	21.68	-46.7	-48.1	17.6	0.00e+00	0	55	0	436207616	56	4165
2026-01-02 22:40:49.01	53.05	21.76	-46.8	-48.3	17.3	0.00e+00	0	55	0	437256192	56	4251
2026-01-02 22:40:49.99	53.27	21.83	-46.9	-48.4	17.2	0.00e+00	0	55	0	439353344	56	4305
2026-01-02 22:40:50.98	53.49	21.91	-47.1	-48.6	17.0	0.00e+00	0	55	0	441450496	56	4413
2026-01-02 22:40:51.98	53.71	21.98	-47.2	-48.7	16.9	0.00e+00	0	55	0	443547648	56	4480
2026-01-02 22:40:52.97	53.94	22.06	-47.1	-48.7	17.0	0.00e+00	0	55	0	445644800	56	4449
2026-01-02 22:40:53.95	54.16	22.13	-47.1	-48.7	16.9	0.00e+00	0	55	0	446693376	56	4476
2026-01-02 22:40:54.94	54.38	22.20	-47.0	-48.6	17.0	0.00e+00	0	56	0	448790528	56	4401
2026-01-02 22:40:55.93	54.61	22.28	-47.0	-48.6	17.0	0.00e+00	0	55	0	450887680	56	4413
2026-01-02 22:40:56.92	54.84	22.35	-47.0	-48.6	17.0	0.00e+00	0	55	0	452984832	56	4431
2026-01-02 22:40:57.92	55.07	22.42	-47.3	-48.9	16.7	0.00e+00	0	55	0	454033408	56	4582
2026-01-02 22:40:58.91	55.30	22.50	-47.5	-49.2	16.5	0.00e+00	0	56	0	456130560	56	4717
2026-01-02 22:40:59.89	55.53	22.57	-47.7	-49.5	16.2	0.00e+00	0	55	0	458227712	57	4599
2026-01-02 22:41:00.88	55.76	22.64	-47.8	-49.6	16.1	0.00e+00	0	55	0	460324864	57	4657
2026-01-02 22:41:01.87	55.99	22.71	-47.9	-49.7	15.9	0.00e+00	0	55	0	461373440	57	4752
2026-01-02 22:41:02.87	56.23	22.78	-47.7	-49.5	16.1	0.00e+00	0	56	0	463470592	57	4647
2026-01-02 22:41:03.85	56.46	22.85	-47.7	-49.5	16.1	0.00e+00	0	56	0	465567744	57	4640
2026-01-02 22:41:04.84	56.69	22.93	-47.8	-49.6	16.0	0.00e+00	0	55	0	467664896	57	4676
2026-01-02 22:41:05.83	56.93	23.00	-47.8	-49.7	16.0	0.00e+00	0	56	0	469762048	57	4717
2026-01-02 22:41:06.82	57.17	23.07	-47.6	-49.3	16.3	0.00e+00	0	56	0	470810624	57	4536
2026-01-02 22:41:07.81	57.41	23.14	-47.4	-49.0	16.7	0.00e+00	0	56	0	472907776	57	4375
2026-01-02 22:41:08.80	57.65	23.21	-47.3	-48.9	16.8	0.00e+00	0	55	0	475004928	57	4314
2026-01-02 22:41:09.79	57.89	23.28	-47.3	-49.0	16.6	0.00e+00	0	55	0	477102080	57	4347
2026-01-02 22:41:10.78	58.13	23.35	-47.5	-49.2	16.5	0.00e+00	0	55	0	478150656	57	4448
2026-01-02 22:41:11.76	58.37	23.41	-47.7	-49.5	16.2	0.00e+00	0	56	0	480247808	57	4617
2026-01-02 22:41:12.76	58.62	23.48	-47.9	-49.7	15.9	0.00e+00	0	56	0	482344960	57	4744
2026-01-02 22:41:13.75	58.86	23.55	-47.9	-49.7	15.9	0.00e+00	0	56	0	484442112	57	4753
2026-01-02 22:41:14.74	59.11	23.62	-47.8	-49.6	16.1	0.00e+00	0	55	0	485490688	57	4691
2026-01-02 22:41:15.73	59.36	23.69	-47.6	-49.3	16.3	0.00e+00	0	56	0	487587840	57	4527
2026-01-02 22:41:16.72	59.61	23.76	-47.6	-49.4	16.4	0.00e+00	0	56	0	489684992	57	4546
2026-01-02 22:41:17.72	59.86	23.82	-47.7	-49.5	16.2	0.00e+00	0	56	0	491782144	57	4630
2026-01-02 22:41:18.70	60.11	23.89	-47.8	-49.6	16.1	0.00e+00	0	56	0	493879296	57	4679
2026-01-02 22:41:19.69	60.36	23.95	-47.9	-49.7	16.0	0.00e+00	0	56	0	494927872	57	4735
2026-01-02 22:41:20.67	60.61	24.02	-48.1	-50.1	15.6	0.00e+00	0	56	0	497025024	58	4675
2026-01-02 22:41:21.67	60.86	24.09	-48.3	-50.4	15.3	0.00e+00	0	56	0	499122176	58	4851
2026-01-02 22:41:22.66	61.12	24.15	-48.6	-50.7	15.0	7.00e-07	0	56	0	501219328	59	4754
2026-01-02 22:41:23.65	61.37	24.21	-48.7	-50.9	14.8	7.00e-07	0	56	0	502267904	59	4857
2026-01-02 22:41:24.63	61.63	24.28	-48.6	-50.8	14.9	0.00e+00	0	56	0	504365056	59	4793
2026-01-02 22:41:25.62	61.89	24.34	-48.5	-50.7	15.0	0.00e+00	0	56	0	506462208	59	4709
2026-01-02 22:41:26.61	62.14	24.40	-48.4	-50.5	15.2	0.00e+00	0	56	0	508559360	59	4624
2026-01-02 22:41:27.60	62.40	24.47	-48.4	-50.4	15.2	7.00e-07	0	56	0	510656512	59	4591
2026-01-02 22:41:28.58	62.66	24.53	-48.5	-50.6	15.2	0.00e+00	0	56	0	511705088	59	4670
2026-01-02 22:41:29.56	62.92	24.59	-48.6	-50.8	14.9	0.00e+00	0	56	0	513802240	59	4809
2026-01-02 22:41:30.54	63.18	24.65	-48.8	-51.0	14.7	7.00e-07	0	56	0	515899392	59	4911
2026-01-02 22:41:31.53	63.44	24.71	-48.9	-51.2	14.5	7.00e-07	0	56	0	516947968	59	5005
2026-01-02 22:41:32.53	63.71	24.77	-49.0	-51.4	14.3	2.20e-06	0	56	0	519045120	59	5122
2026-01-02 22:41:33.52	63.98	24.83	-49.0	-51.5	14.2	1.50e-06	0	56	0	521142272	59	5208
2026-01-02 22:41:34.51	64.24	24.89	-48.9	-51.5	14.2	1.50e-06	0	56	0	523239424	60	4909
2026-01-02 22:41:35.50	64.51	24.95	-49.0	-51.6	14.1	2.20e-06	0	56	0	525336576	60	4942
2026-01-02 22:41:36.49	64.78	25.01	-49.2	-51.8	13.9	1.50e-06	0	56	0	526385152	60	5073
2026-01-02 22:41:37.48	65.05	25.07	-49.3	-52.0	13.7	8.30e-06	0	56	0	528482304	60	5187
2026-01-02 22:41:38.48	65.32	25.12	-49.3	-52.0	13.7	4.50e-06	0	56	0	530579456	60	5202
2026-01-02 22:41:39.47	65.60	25.18	-49.4	-52.2	13.4	2.21e-05	0	56	0	532676608	60	5322
2026-01-02 22:41:40.46	65.87	25.24	-49.4	-52.3	13.4	1.44e-05	0	56	0	533725184	60	5369
2026-01-02 22:41:41.45	66.14	25.29	-49.5	-52.4	13.3	1.60e-05	0	56	0	535822336	60	5411
2026-01-02 22:41:42.44	66.42	25.35	-49.5	-52.4	13.3	1.14e-05	0	56	0	537919488	60	5444
2026-01-02 22:41:43.43	66.69	25.40	-49.6	-52.6	13.1	3.20e-05	0	56	0	540016640	61	5256
2026-01-02 22:41:44.42	66.97	25.46	-49.6	-52.6	13.0	4.73e-05	0	56	0	542113792	61	5271
2026-01-02 22:41:45.41	67.24	25.51	-49.5	-52.4	13.2	2.74e-05	0	56	0	543162368	61	5141
2026-01-02 22:41:46.40	67.52	25.56	-49.7	-52.6	13.1	2.28e-05	0	56	0	545259520	61	5232
2026-01-02 22:41:47.39	67.80	25.61	-49.8	-52.9	12.7	6.71e-05	0	56	0	547356672	61	5459
2026-01-02 22:41:48.38	68.08	25.66	-49.9	-53.2	12.5	8.54e-05	0	56	0	549453824	61	5603
2026-01-02 22:41:49.37	68.36	25.72	-50.2	-53.6	12.0	2.08e-04	0	56	0	550502400	62	5581
2026-01-02 22:41:50.36	68.64	25.77	-50.2	-53.7	11.9	3.51e-04	0	56	0	552599552	62	5648
2026-01-02 22:41:51.35	68.93	25.82	-50.3	-53.8	11.7	5.74e-04	0	56	0	554696704	62	5722
2026-01-02 22:41:52.34	69.21	25.86	-50.1	-53.4	12.2	3.02e-04	0	56	0	556793856	62	5443
2026-01-02 22:41:53.32	69.49	25.91	-49.9	-53.1	12.6	1.66e-04	0	56	0	557842432	62	5250
2026-01-02 22:41:54.32	69.78	25.96	-49.8	-52.9	12.8	6.40e-05	0	56	0	559939584	62	5150
2026-01-02 22:41:55.31	70.07	26.01	-49.8	-52.9	12.8	7.17e-05	0	56	0	562036736	62	5128
2026-01-02 22:41:56.30	70.35	26.05	-49.6	-52.5	13.2	3.35e-05	0	56	0	564133888	62	4897
2026-01-02 22:41:57.28	70.64	26.10	-49.7	-52.8	12.9	3.73e-05	0	56	0	566231040	62	5053
2026-01-02 22:41:58.28	70.93	26.15	-49.6	-52.5	13.2	2.59e-05	0	56	0	567279616	62	4901
2026-01-02 22:41:59.26	71.22	26.19	-49.4	-52.3	13.4	1.29e-05	0	56	0	569376768	62	4789
2026-01-02 22:42:00.25	71.51	26.23	-49.5	-52.3	13.5	1.75e-05	0	56	0	571473920	61	5044
2026-01-02 22:42:01.24	71.80	26.28	-49.5	-52.4	13.3	6.80e-06	0	56	0	573571072	61	5139
2026-01-02 22:42:02.23	72.09	26.32	-49.6	-52.6	13.1	3.43e-05	0	56	0	574619648	61	5279
2026-01-02 22:42:03.22	72.38	26.36	-49.6	-52.5	13.1	3.66e-05	0	56	0	576716800	61	5195
2026-01-02 22:42:04.21	72.67	26.40	-49.5	-52.4	13.3	3.28e-05	0	56	0	578813952	61	5152
2026-01-02 22:42:05.21	72.97	26.44	-49.6	-52.6	13.1	2.82e-05	0	56	0	580911104	61	5225
2026-01-02 22:42:06.20	73.27	26.48	-49.6	-52.6	13.0	3.73e-05	0	56	0	581959680	61	5262
2026-01-02 22:42:07.19	73.56	26.52	-49.3	-52.2	13.5	1.22e-05	0	56	0	584056832	61	5012
2026-01-02 22:42:08.18	73.86	26.56	-49.3	-52.0	13.7	8.30e-06	0	56	0	586153984	61	4881
2026-01-02 22:42:09.17	74.15	26.59	-49.2	-51.9	13.9	1.50e-06	0	56	0	588251136	61	4829
2026-01-02 22:42:10.16	74.45	26.63	-49.1	-51.8	13.9	4.50e-06	0	56	0	590348288	61	4782
2026-01-02 22:42:11.14	74.75	26.67	-49.1	-51.7	14.0	2.20e-06	0	56	0	591396864	61	4758
2026-01-02 22:42:12.14	75.05	26.70	-49.2	-51.9	13.8	7.00e-07	0	56	0	593494016	61	4832
2026-01-02 22:42:13.12	75.34	26.73	-49.0	-51.6	14.2	7.00e-07	0	56	0	595591168	61	4690
2026-01-02 22:42:14.11	75.64	26.77	-48.9	-51.4	14.3	1.50e-06	0	56	0	597688320	61	4580
2026-01-02 22:42:15.10	75.94	26.80	-48.8	-51.2	14.5	7.00e-07	0	56	0	598736896	60	4757
2026-01-02 22:42:16.09	76.25	26.83	-49.0	-51.4	14.4	7.00e-07	0	56	0	600834048	60	4833
2026-01-02 22:42:17.08	76.55	26.86	-49.1	-51.6	14.0	2.20e-06	0	56	0	602931200	60	4979
2026-01-02 22:42:18.06	76.85	26.89	-49.1	-51.8	13.9	7.00e-07	0	56	0	605028352	60	5061
2026-01-02 22:42:19.05	77.15	26.92	-49.3	-52.0	13.7	4.50e-06	0	56	0	606076928	60	5173
2026-01-02 22:42:20.03	77.45	26.95	-49.4	-52.2	13.5	6.10e-06	0	56	0	608174080	60	5328
2026-01-02 22:42:21.03	77.76	26.98	-49.5	-52.4	13.2	2.13e-05	0	56	0	610271232	61	5146
2026-01-02 22:42:22.02	78.06	27.01	-49.7	-52.7	13.0	4.04e-05	0	56	0	612368384	61	5300
2026-01-02 22:42:23.02	78.37	27.03	-49.8	-52.9	12.9	4.42e-05	0	56	0	614465536	61	5409
2026-01-02 22:42:24.01	78.68	27.06	-49.5	-52.4	13.3	2.28e-05	0	56	0	615514112	61	5107
2026-01-02 22:42:25.00	78.98	27.08	-49.4	-52.1	13.5	8.30e-06	0	56	0	617611264	61	4982
2026-01-02 22:42:25.99	79.29	27.10	-49.2	-51.9	13.8	1.14e-05	0	56	0	619708416	61	4849
2026-01-02 22:42:26.98	79.59	27.13	-49.2	-51.8	13.9	6.10e-06	0	56	0	621805568	61	4782
2026-01-02 22:42:27.97	79.90	27.15	-49.0	-51.5	14.1	1.50e-06	0	56	0	622854144	61	4634
2026-01-02 22:42:28.96	80.21	27.17	-49.1	-51.6	14.1	7.00e-07	0	56	0	624951296	61	4668
2026-01-02 22:42:29.94	80.51	27.19	-48.9	-51.4	14.3	2.20e-06	0	56	0	627048448	60	4850
2026-01-02 22:42:30.94	80.83	27.21	-49.1	-51.6	14.1	7.00e-07	0	56	0	629145600	60	4946
2026-01-02 22:42:31.92	81.13	27.23	-49.0	-51.6	14.1	7.00e-07	0	56	0	630194176	60	4950
2026-01-02 22:42:32.91	81.44	27.25	-49.1	-51.8	14.0	3.80e-06	0	56	0	632291328	60	5054
2026-01-02 22:42:33.89	81.75	27.26	-49.1	-51.7	14.1	4.50e-06	0	56	0	634388480	60	4988
2026-01-02 22:42:34.88	82.06	27.28	-49.1	-51.8	14.0	3.00e-06	0	56	0	636485632	60	5059
2026-01-02 22:42:35.87	82.37	27.29	-49.3	-52.0	13.7	6.80e-06	0	56	0	638582784	60	5208
2026-01-02 22:42:36.85	82.67	27.31	-49.2	-51.7	13.9	5.30e-06	0	56	0	639631360	60	5001
2026-01-02 22:42:37.84	82.99	27.32	-49.0	-51.4	14.3	2.20e-06	0	56	0	641728512	60	4855
2026-01-02 22:42:38.83	83.30	27.33	-49.1	-51.5	14.2	1.50e-06	0	56	0	643825664	60	4924
2026-01-02 22:42:39.82	83.61	27.34	-49.3	-51.9	13.8	1.50e-06	0	56	0	645922816	60	5118
2026-01-02 22:42:40.81	83.92	27.35	-49.1	-51.5	14.2	2.20e-06	0	56	0	646971392	60	4916
2026-01-02 22:42:41.80	84.23	27.36	-48.9	-51.3	14.4	7.00e-07	0	56	0	649068544	60	4773
2026-01-02 22:42:42.79	84.54	27.37	-48.7	-51.1	14.6	0.00e+00	0	56	0	651165696	60	4680
2026-01-02 22:42:43.78	84.85	27.38	-48.8	-51.1	14.7	7.00e-07	0	56	0	653262848	60	4675
2026-01-02 22:42:44.77	85.17	27.39	-48.9	-51.3	14.4	0.00e+00	0	56	0	654311424	60	4786
2026-01-02 22:42:45.76	85.48	27.39	-49.1	-51.6	14.2	0.00e+00	0	56	0	656408576	60	4927
2026-01-02 22:42:46.75	85.79	27.40	-48.8	-51.2	14.6	0.00e+00	0	56	0	658505728	60	4711
2026-01-02 22:42:47.75	86.11	27.40	-48.6	-50.8	15.0	0.00e+00	0	56	0	660602880	60	4512
2026-01-02 22:42:48.74	86.42	27.41	-48.3	-50.3	15.4	0.00e+00	0	56	0	662700032	59	4535
2026-01-02 22:42:49.74	86.74	27.41	-48.3	-50.3	15.4	0.00e+00	0	56	0	663748608	59	4538
2026-01-02 22:42:50.73	87.05	27.41	-48.4	-50.5	15.3	0.00e+00	0	56	0	665845760	59	4599
2026-01-02 22:42:51.72	87.36	27.41	-48.4	-50.5	15.2	0.00e+00	0	56	0	667942912	59	4617
2026-01-02 22:42:52.71	87.67	27.41	-48.5	-50.7	15.1	7.00e-07	0	56	0	670040064	59	4710
2026-01-02 22:42:53.69	87.98	27.41	-48.6	-50.7	15.1	0.00e+00	0	56	0	671088640	59	4722
2026-01-02 22:42:54.68	88.30	27.41	-48.5	-50.7	15.1	0.00e+00	0	56	0	673185792	59	4718
2026-01-02 22:42:55.66	88.60	27.41	-48.6	-50.9	14.8	0.00e+00	0	56	0	675282944	59	4843
2026-01-02 22:42:56.66	88.92	27.40	-48.6	-50.8	14.9	0.00e+00	0	56	0	677380096	59	4806
2026-01-02 22:42:57.64	89.23	27.40	-48.5	-50.7	15.1	0.00e+00	0	56	0	678428672	59	4709
2026-01-02 22:42:58.63	89.54	27.39	-48.6	-50.7	15.1	0.00e+00	0	57	0	680525824	59	4728
2026-01-02 22:42:59.62	89.85	27.39	-48.7	-50.8	14.9	0.00e+00	0	56	0	682622976	59	4798
2026-01-02 22:43:00.61	90.17	27.38	-48.8	-51.1	14.6	0.00e+00	0	56	0	684720128	59	4962
2026-01-02 22:43:01.59	90.48	27.37	-49.0	-51.4	14.4	0.00e+00	0	56	0	686817280	59	5117
2026-01-02 22:43:02.58	90.79	27.36	-49.1	-51.7	14.1	7.00e-07	0	56	0	687865856	60	4988
2026-01-02 22:43:03.57	91.10	27.35	-49.2	-51.8	13.9	2.20e-06	0	56	0	689963008	60	5057
2026-01-02 22:43:04.56	91.41	27.34	-49.3	-52.0	13.8	3.80e-06	0	56	0	692060160	60	5179
2026-01-02 22:43:05.55	91.72	27.33	-49.2	-51.9	13.8	3.80e-06	0	56	0	694157312	60	5121
2026-01-02 22:43:06.53	92.03	27.32	-49.0	-51.6	14.1	3.00e-06	0	56	0	695205888	60	4970
2026-01-02 22:43:07.52	92.34	27.30	-49.1	-51.7	14.1	5.30e-06	0	56	0	697303040	60	4990
2026-01-02 22:43:08.51	92.65	27.29	-49.2	-51.7	14.0	2.20e-06	0	56	0	699400192	60	5005
2026-01-02 22:43:09.49	92.96	27.27	-49.2	-51.6	14.0	7.00e-07	0	56	0	701497344	60	4982
2026-01-02 22:43:10.49	93.27	27.26	-49.3	-51.8	13.9	1.50e-06	0	56	0	702545920	60	5094
2026-01-02 22:43:11.48	93.58	27.24	-49.1	-51.7	13.9	9.10e-06	0	56	0	704643072	60	5030
2026-01-02 22:43:12.47	93.89	27.22	-49.1	-51.7	14.1	3.80e-06	0	56	0	706740224	60	5004
2026-01-02 22:43:13.46	94.20	27.20	-49.3	-52.0	13.7	4.50e-06	0	56	0	708837376	60	5178
2026-01-02 22:43:14.46	94.51	27.18	-49.6	-52.4	13.3	1.14e-05	0	56	0	710934528	60	5453
2026-01-02 22:43:15.44	94.82	27.16	-49.8	-52.8	12.8	3.28e-05	0	56	0	711983104	61	5401
2026-01-02 22:43:16.43	95.12	27.14	-49.8	-53.1	12.7	7.78e-05	0	56	0	714080256	61	5545
2026-01-02 22:43:17.42	95.43	27.12	-49.9	-53.3	12.4	1.51e-04	0	57	0	716177408	61	5666
2026-01-02 22:43:18.41	95.74	27.10	-50.0	-53.4	12.3	1.28e-04	0	56	0	718274560	61	5731
2026-01-02 22:43:19.40	96.05	27.07	-50.1	-53.5	12.2	2.56e-04	0	56	0	719323136	62	5483
2026-01-02 22:43:20.39	96.35	27.05	-49.7	-52.8	12.9	5.56e-05	0	57	0	721420288	62	5056
2026-01-02 22:43:21.38	96.66	27.02	-49.4	-52.0	13.7	1.14e-05	0	57	0	723517440	61	4926
2026-01-02 22:43:22.37	96.96	27.00	-49.0	-51.3	14.4	7.00e-07	0	56	0	725614592	61	4534
2026-01-02 22:43:23.36	97.27	26.97	-48.6	-50.9	14.8	7.00e-07	0	56	0	726663168	60	4558
2026-01-02 22:43:24.35	97.57	26.94	-48.5	-50.7	15.0	0.00e+00	0	56	0	728760320	60	4466
2026-01-02 22:43:25.34	97.87	26.91	-48.4	-50.6	15.2	0.00e+00	0	56	0	730857472	60	4400
2026-01-02 22:43:26.33	98.18	26.88	-48.5	-50.6	15.1	0.00e+00	0	56	0	732954624	60	4431
2026-01-02 22:43:27.31	98.48	26.85	-48.5	-50.7	15.1	0.00e+00	0	57	0	735051776	60	4459
2026-01-02 22:43:28.30	98.78	26.82	-48.6	-50.8	15.0	0.00e+00	0	56	0	736100352	60	4507
2026-01-02 22:43:29.28	99.08	26.79	-48.5	-50.7	15.1	0.00e+00	0	56	0	738197504	60	4443
2026-01-02 22:43:30.26	99.38	26.76	-48.6	-50.7	15.0	7.00e-07	0	57	0	740294656	60	4492
2026-01-02 22:43:31.24	99.67	26.72	-48.5	-50.6	15.1	0.00e+00	0	57	0	742391808	60	4396
2026-01-02 22:43:32.23	99.97	26.69	-48.3	-50.3	15.5	0.00e+00	0	56	0	743440384	59	4497
2026-01-02 22:43:33.23	100.27	26.65	-48.2	-50.2	15.5	0.00e+00	0	57	0	745537536	59	4452
2026-01-02 22:43:34.23	100.58	26.62	-48.2	-50.4	15.4	0.00e+00	0	56	0	747634688	59	4556
2026-01-02 22:43:35.21	100.87	26.58	-48.6	-50.7	15.1	0.00e+00	0	56	0	749731840	59	4717
2026-01-02 22:43:36.20	101.17	26.54	-48.4	-50.6	15.2	0.00e+00	0	57	0	750780416	59	4658
2026-01-02 22:43:37.20	101.47	26.50	-48.4	-50.5	15.2	0.00e+00	0	56	0	752877568	59	4643
2026-01-02 22:43:38.19	101.76	26.46	-48.3	-50.4	15.4	0.00e+00	0	56	0	754974720	59	4546
2026-01-02 22:43:39.18	102.06	26.42	-48.3	-50.3	15.5	0.00e+00	0	57	0	757071872	59	4517
2026-01-02 22:43:40.17	102.35	26.38	-48.3	-50.4	15.4	0.00e+00	0	56	0	759169024	59	4568
2026-01-02 22:43:41.16	102.64	26.34	-48.2	-50.2	15.6	0.00e+00	0	56	0	760217600	59	4463
2026-01-02 22:43:42.14	102.93	26.30	-48.2	-50.2	15.6	0.00e+00	0	56	0	762314752	59	4449
2026-01-02 22:43:43.12	103.22	26.26	-48.2	-50.1	15.6	0.00e+00	0	57	0	764411904	59	4425
2026-01-02 22:43:44.11	103.51	26.22	-48.2	-50.2	15.5	0.00e+00	0	56	0	766509056	59	4492
2026-01-02 22:43:45.09	103.80	26.17	-47.8	-49.7	16.1	0.00e+00	0	57	0	767557632	58	4453
2026-01-02 22:43:46.08	104.09	26.13	-47.7	-49.4	16.3	0.00e+00	0	57	0	769654784	58	4334
2026-01-02 22:43:47.07	104.38	26.08	-47.7	-49.5	16.3	0.00e+00	0	57	0	771751936	58	4345
2026-01-02 22:43:48.06	104.67	26.04	-47.8	-49.7	16.1	0.00e+00	0	57	0	773849088	58	4464
2026-01-02 22:43:49.06	104.96	25.99	-48.1	-49.9	15.8	0.00e+00	0	57	0	774897664	58	4586
2026-01-02 22:43:50.04	105.24	25.94	-47.8	-49.6	16.2	0.00e+00	0	57	0	776994816	58	4420
2026-01-02 22:43:51.03	105.53	25.89	-47.5	-49.2	16.6	0.00e+00	0	56	0	779091968	58	4219
2026-01-02 22:43:52.01	105.81	25.85	-47.1	-48.8	17.0	0.00e+00	0	57	0	781189120	57	4258
2026-01-02 22:43:53.00	106.09	25.80	-47.0	-48.6	17.1	0.00e+00	0	56	0	783286272	57	4162
2026-01-02 22:43:54.00	106.38	25.75	-47.1	-48.7	17.1	0.00e+00	0	57	0	784334848	57	4196
2026-01-02 22:43:54.99	106.66	25.70	-47.3	-48.9	16.9	0.00e+00	0	56	0	786432000	57	4297
2026-01-02 22:43:55.98	106.94	25.64	-47.4	-49.0	16.7	0.00e+00	0	57	0	788529152	57	4384
2026-01-02 22:43:56.96	107.22	25.59	-47.8	-49.5	16.2	0.00e+00	0	56	0	790626304	57	4638
2026-01-02 22:43:57.96	107.50	25.54	-47.8	-49.7	16.1	0.00e+00	0	56	0	791674880	57	4711
2026-01-02 22:43:58.95	107.78	25.49	-47.9	-49.8	15.9	0.00e+00	0	57	0	793772032	57	4781
2026-01-02 22:43:59.93	108.05	25.43	-47.8	-49.6	16.2	0.00e+00	0	57	0	795869184	57	4675
2026-01-02 22:44:00.93	108.33	25.38	-47.7	-49.4	16.3	0.00e+00	0	57	0	797966336	57	4596
2026-01-02 22:44:01.92	108.61	25.32	-47.5	-49.2	16.5	0.00e+00	0	56	0	799014912	57	4481
2026-01-02 22:44:02.90	108.88	25.27	-47.5	-49.3	16.4	0.00e+00	0	56	0	801112064	57	4505
2026-01-02 22:44:03.90	109.16	25.21	-47.7	-49.5	16.3	0.00e+00	0	57	0	803209216	57	4613
2026-01-02 22:44:04.89	109.43	25.16	-47.7	-49.4	16.3	0.00e+00	0	57	0	805306368	57	4579
2026-01-02 22:44:05.88	109.70	25.10	-47.8	-49.6	16.2	0.00e+00	0	57	0	806354944	57	4684
2026-01-02 22:44:06.87	109.97	25.04	-47.8	-49.5	16.2	0.00e+00	0	57	0	808452096	57	4626
2026-01-02 22:44:07.86	110.24	24.98	-47.9	-49.8	15.9	0.00e+00	0	57	0	810549248	57	4785
2026-01-02 22:44:08.85	110.51	24.92	-48.1	-50.0	15.7	0.00e+00	0	57	0	812646400	58	4636
2026-01-02 22:44:09.84	110.78	24.86	-48.3	-50.3	15.4	0.00e+00	0	57	0	814743552	58	4802
2026-01-02 22:44:10.82	111.04	24.81	-48.4	-50.5	15.2	0.00e+00	0	57	0	815792128	58	4906
2026-01-02 22:44:11.81	111.31	24.75	-48.4	-50.6	15.2	0.00e+00	0	57	0	817889280	58	4935
2026-01-02 22:44:12.81	111.58	24.68	-48.4	-50.5	15.3	0.00e+00	0	57	0	819986432	58	4896
2026-01-02 22:44:13.81	111.84	24.62	-48.3	-50.3	15.4	0.00e+00	0	57	0	822083584	58	4808
2026-01-02 22:44:14.80	112.11	24.56	-48.3	-50.3	15.4	0.00e+00	0	57	0	823132160	58	4792
2026-01-02 22:44:15.79	112.37	24.50	-48.3	-50.4	15.3	0.00e+00	0	56	0	825229312	58	4864
2026-01-02 22:44:16.77	112.63	24.44	-48.3	-50.3	15.5	0.00e+00	0	57	0	827326464	58	4794
2026-01-02 22:44:17.77	112.89	24.37	-48.1	-50.1	15.6	0.00e+00	0	56	0	829423616	58	4682
2026-01-02 22:44:18.75	113.15	24.31	-48.1	-50.1	15.7	0.00e+00	0	57	0	831520768	58	4666
2026-01-02 22:44:19.75	113.41	24.25	-48.2	-50.2	15.5	0.00e+00	0	57	0	832569344	58	4736
2026-01-02 22:44:20.74	113.66	24.18	-48.2	-50.1	15.6	0.00e+00	0	57	0	834666496	58	4700
2026-01-02 22:44:21.73	113.92	24.12	-48.4	-50.4	15.3	0.00e+00	0	57	0	836763648	58	4850
2026-01-02 22:44:22.72	114.18	24.05	-48.4	-50.4	15.4	0.00e+00	0	57	0	838860800	58	4844
2026-01-02 22:44:23.71	114.43	23.99	-48.5	-50.6	15.1	0.00e+00	0	57	0	839909376	58	4959
2026-01-02 22:44:24.70	114.68	23.92	-48.5	-50.6	15.1	0.00e+00	0	57	0	842006528	59	4701
2026-01-02 22:44:25.69	114.93	23.85	-48.6	-50.8	14.9	0.00e+00	0	57	0	844103680	59	4779
2026-01-02 22:44:26.68	115.18	23.79	-48.4	-50.5	15.3	0.00e+00	0	57	0	846200832	59	4615
2026-01-02 22:44:27.68	115.44	23.72	-48.2	-50.2	15.6	0.00e+00	0	57	0	847249408	59	4445
2026-01-02 22:44:28.66	115.68	23.65	-48.0	-49.8	15.9	0.00e+00	0	57	0	849346560	59	4285
2026-01-02 22:44:29.64	115.93	23.58	-47.8	-49.7	16.0	0.00e+00	0	57	0	851443712	58	4468
2026-01-02 22:44:30.63	116.17	23.52	-47.7	-49.5	16.2	0.00e+00	0	57	0	853540864	58	4371
2026-01-02 22:44:31.62	116.42	23.45	-47.7	-49.5	16.3	0.00e+00	0	57	0	855638016	58	4347
2026-01-02 22:44:32.61	116.66	23.38	-47.8	-49.6	16.1	0.00e+00	0	57	0	856686592	58	4431
2026-01-02 22:44:33.59	116.91	23.31	-48.1	-50.0	15.8	0.00e+00	0	56	0	858783744	58	4619
2026-01-02 22:44:34.58	117.15	23.24	-48.1	-50.1	15.7	0.00e+00	0	57	0	860880896	58	4668
2026-01-02 22:44:35.56	117.39	23.17	-48.1	-50.0	15.7	0.00e+00	0	57	0	862978048	58	4648
2026-01-02 22:44:36.55	117.63	23.10	-48.4	-50.5	15.2	0.00e+00	0	57	0	864026624	58	4893
2026-01-02 22:44:37.54	117.87	23.03	-48.4	-50.6	15.1	0.00e+00	0	56	0	866123776	59	4700
2026-01-02 22:44:38.53	118.10	22.96	-48.6	-50.8	14.9	0.00e+00	0	57	0	868220928	59	4807
2026-01-02 22:44:39.51	118.34	22.89	-48.8	-51.1	14.6	0.00e+00	0	57	0	870318080	59	4968
2026-01-02 22:44:40.50	118.57	22.82	-48.9	-51.2	14.5	7.00e-07	0	57	0	871366656	59	5007
2026-01-02 22:44:41.49	118.81	22.74	-48.8	-51.1	14.6	7.00e-07	0	57	0	873463808	59	4977
2026-01-02 22:44:42.49	119.05	22.67	-48.7	-51.0	14.7	0.00e+00	0	57	0	875560960	59	4890
2026-01-02 22:44:43.48	119.28	22.60	-48.8	-51.0	14.7	7.00e-07	0	57	0	877658112	59	4895
2026-01-02 22:44:44.47	119.51	22.53	-48.9	-51.2	14.5	0.00e+00	0	57	0	879755264	59	5031
2026-01-02 22:44:45.46	119.74	22.45	-48.9	-51.3	14.4	7.00e-07	0	57	0	880803840	59	5059
2026-01-02 22:44:46.46	119.97	22.38	-48.8	-51.1	14.6	0.00e+00	0	57	0	882900992	59	4945
2026-01-02 22:44:47.45	120.20	22.30	-48.7	-50.9	14.8	0.00e+00	0	57	0	884998144	59	4867
2026-01-02 22:44:48.44	120.43	22.23	-48.5	-50.8	15.0	0.00e+00	0	57	0	887095296	59	4761
2026-01-02 22:44:49.43	120.66	22.16	-48.5	-50.7	15.0	0.00e+00	0	57	0	888143872	59	4723
2026-01-02 22:44:50.43	120.88	22.08	-48.3	-50.5	15.2	0.00e+00	0	57	0	890241024	59	4625
2026-01-02 22:44:51.42	121.11	22.01	-48.4	-50.5	15.2	0.00e+00	0	57	0	892338176	59	4615
2026-01-02 22:44:52.41	121.33	21.93	-48.3	-50.5	15.3	0.00e+00	0	57	0	894435328	59	4607
2026-01-02 22:44:53.41	121.56	21.86	-48.4	-50.4	15.3	0.00e+00	0	57	0	896532480	59	4591
2026-01-02 22:44:54.40	121.78	21.78	-48.5	-50.7	15.0	0.00e+00	0	57	0	897581056	59	4752
2026-01-02 22:44:55.39	122.00	21.71	-48.9	-51.2	14.5	0.00e+00	0	57	0	899678208	59	5022
2026-01-02 22:44:56.38	122.22	21.63	-49.1	-51.7	14.0	7.00e-07	0	57	0	901775360	60	5004
2026-01-02 22:44:57.37	122.44	21.56	-49.0	-51.5	14.2	1.50e-06	0	57	0	903872512	60	4917
2026-01-02 22:44:58.36	122.65	21.48	-48.9	-51.4	14.3	1.50e-06	0	57	0	904921088	60	4824
2026-01-02 22:44:59.35	122.87	21.40	-48.8	-51.1	14.6	7.00e-07	0	57	0	907018240	60	4654
2026-01-02 22:45:00.33	123.08	21.33	-48.8	-51.0	14.7	0.00e+00	0	57	0	909115392	60	4635
2026-01-02 22:45:01.32	123.30	21.25	-49.0	-51.4	14.3	7.00e-07	0	57	0	911212544	60	4841
2026-01-02 22:45:02.32	123.51	21.17	-49.3	-51.9	13.8	6.80e-06	0	57	0	912261120	60	5105
2026-01-02 22:45:03.31	123.72	21.10	-49.4	-52.1	13.6	6.10e-06	0	57	0	914358272	60	5231
2026-01-02 22:45:04.30	123.93	21.02	-49.7	-52.7	13.0	2.97e-05	0	57	0	916455424	61	5311
2026-01-02 22:45:05.30	124.15	20.94	-49.7	-52.6	13.0	2.59e-05	0	57	0	918552576	61	5255
2026-01-02 22:45:06.28	124.35	20.87	-49.6	-52.5	13.2	2.36e-05	0	57	0	919601152	61	5183
2026-01-02 22:45:07.26	124.56	20.79	-49.5	-52.2	13.4	2.51e-05	0	57	0	921698304	61	5021
2026-01-02 22:45:08.25	124.76	20.71	-49.4	-52.2	13.5	1.52e-05	0	57	0	923795456	61	4990
2026-01-02 22:45:09.23	124.97	20.64	-49.6	-52.5	13.2	1.52e-05	0	57	0	925892608	61	5160
2026-01-02 22:45:10.22	125.17	20.56	-49.8	-52.8	12.9	4.42e-05	0	57	0	927989760	61	5344
2026-01-02 22:45:11.21	125.38	20.48	-49.7	-52.6	13.0	5.49e-05	0	57	0	929038336	61	5267
2026-01-02 22:45:12.20	125.58	20.40	-49.7	-52.7	13.0	3.81e-05	0	57	0	931135488	61	5308
2026-01-02 22:45:13.20	125.78	20.32	-49.5	-52.5	13.2	3.89e-05	0	57	0	933232640	61	5176
2026-01-02 22:45:14.19	125.98	20.25	-49.4	-52.1	13.6	2.21e-05	0	57	0	935329792	61	4969
2026-01-02 22:45:15.17	126.18	20.17	-49.1	-51.6	14.1	3.80e-06	0	57	0	936378368	61	4669
2026-01-02 22:45:16.16	126.38	20.09	-48.9	-51.3	14.4	0.00e+00	0	57	0	938475520	60	4760
2026-01-02 22:45:17.15	126.58	20.01	-48.7	-51.1	14.6	0.00e+00	0	57	0	940572672	60	4679
2026-01-02 22:45:18.14	126.78	19.93	-48.7	-51.0	14.7	0.00e+00	0	57	0	942669824	60	4632
2026-01-02 22:45:19.14	126.97	19.85	-48.7	-51.0	14.7	0.00e+00	0	57	0	943718400	60	4620
2026-01-02 22:45:20.12	127.17	19.78	-49.2	-51.8	13.9	1.50e-06	0	57	0	945815552	60	5088
2026-01-02 22:45:21.12	127.36	19.70	-49.3	-52.2	13.6	3.00e-06	0	57	0	947912704	60	5283
2026-01-02 22:45:22.10	127.55	19.62	-49.7	-52.7	12.9	2.89e-05	0	57	0	950009856	61	5336
2026-01-02 22:45:23.09	127.75	19.54	-49.4	-52.3	13.4	4.04e-05	0	57	0	952107008	61	5069
2026-01-02 22:45:24.08	127.94	19.46	-49.1	-51.7	14.0	6.10e-06	0	57	0	953155584	61	4717
2026-01-02 22:45:25.07	128.13	19.38	-48.6	-50.8	14.8	0.00e+00	0	57	0	955252736	60	4526
2026-01-02 22:45:26.06	128.32	19.30	-48.1	-50.2	15.5	0.00e+00	0	57	0	957349888	59	4463
2026-01-02 22:45:27.06	128.51	19.22	-48.1	-50.0	15.7	0.00e+00	0	57	0	959447040	59	4376
2026-01-02 22:45:28.05	128.69	19.14	-48.1	-50.0	15.7	0.00e+00	0	57	0	960495616	59	4377
2026-01-02 22:45:29.03	128.88	19.06	-48.3	-50.5	15.2	0.00e+00	0	57	0	962592768	59	4609
2026-01-02 22:45:30.01	129.06	18.99	-48.7	-51.2	14.6	0.00e+00	0	57	0	964689920	59	4989
2026-01-02 22:45:31.00	129.25	18.91	-48.9	-51.3	14.3	0.00e+00	0	57	0	966787072	59	5088
2026-01-02 22:45:31.99	129.43	18.83	-49.2	-51.7	14.0	7.00e-07	0	57	0	967835648	60	5041
2026-01-02 22:45:32.98	129.61	18.75	-49.0	-51.4	14.2	5.30e-06	0	57	0	969932800	60	4861
2026-01-02 22:45:33.96	129.79	18.67	-48.7	-50.9	14.7	0.00e+00	0	57	0	972029952	60	4584
2026-01-02 22:45:34.95	129.97	18.59	-48.5	-50.7	15.0	0.00e+00	0	57	0	974127104	60	4454
2026-01-02 22:45:35.94	130.15	18.51	-48.3	-50.5	15.2	0.00e+00	0	57	0	976224256	59	4632
2026-01-02 22:45:36.92	130.33	18.43	-48.5	-50.6	15.1	0.00e+00	0	57	0	977272832	59	4677
2026-01-02 22:45:37.91	130.51	18.35	-48.5	-50.6	15.1	0.00e+00	0	57	0	979369984	59	4666
2026-01-02 22:45:38.90	130.69	18.27	-48.7	-50.9	14.7	0.00e+00	0	57	0	981467136	59	4853
2026-01-02 22:45:39.88	130.86	18.19	-48.6	-51.0	14.7	0.00e+00	0	57	0	983564288	59	4872
2026-01-02 22:45:40.88	131.04	18.11	-48.8	-51.1	14.6	7.00e-07	0	57	0	984612864	59	4941
2026-01-02 22:45:41.87	131.21	18.03	-48.6	-51.0	14.6	7.00e-07	0	57	0	986710016	59	4903
2026-01-02 22:45:42.86	131.39	17.96	-48.7	-50.9	14.7	0.00e+00	0	57	0	988807168	59	4869
2026-01-02 22:45:43.85	131.56	17.88	-48.7	-51.0	14.7	0.00e+00	0	57	0	990904320	59	4883
2026-01-02 22:45:44.84	131.73	17.80	-48.9	-51.2	14.5	0.00e+00	0	57	0	991952896	59	5004
2026-01-02 22:45:45.82	131.90	17.72	-48.7	-50.9	14.8	0.00e+00	0	57	0	994050048	59	4824
2026-01-02 22:45:46.80	132.07	17.64	-48.4	-50.6	15.1	0.00e+00	0	57	0	996147200	59	4670
2026-01-02 22:45:47.80	132.24	17.56	-48.4	-50.6	15.1	0.00e+00	0	57	0	998244352	59	4666
2026-01-02 22:45:48.78	132.41	17.48	-48.6	-50.8	14.8	0.00e+00	0	57	0	999292928	59	4808
2026-01-02 22:45:49.77	132.57	17.40	-48.6	-50.9	14.7	0.00e+00	0	57	0	1001390080	59	4845
2026-01-02 22:45:50.76	132.74	17.32	-48.8	-51.1	14.6	0.00e+00	0	57	0	1003487232	59	4956
2026-01-02 22:45:51.76	132.91	17.24	-48.7	-50.9	14.7	0.00e+00	0	57	0	1005584384	59	4866
2026-01-02 22:45:52.75	133.07	17.16	-48.7	-51.0	14.7	7.00e-07	0	57	0	1007681536	59	4902
2026-01-02 22:45:53.74	133.24	17.08	-48.8	-51.1	14.6	0.00e+00	0	57	0	1008730112	59	4943
2026-01-02 22:45:54.73	133.40	17.00	-48.9	-51.3	14.4	0.00e+00	0	57	0	1010827264	59	5046
2026-01-02 22:45:55.72	133.56	16.93	-48.6	-50.9	14.7	1.50e-06	0	57	0	1012924416	59	4837
2026-01-02 22:45:56.71	133.73	16.85	-48.6	-50.7	15.0	7.00e-07	0	57	0	1015021568	59	4732
2026-01-02 22:45:57.71	133.89	16.77	-48.5	-50.8	14.8	0.00e+00	0	57	0	1016070144	59	4788
2026-01-02 22:45:58.70	134.05	16.69	-48.7	-51.0	14.6	0.00e+00	0	57	0	1018167296	59	4883
2026-01-02 22:45:59.69	134.21	16.61	-48.7	-51.0	14.6	0.00e+00	0	57	0	1020264448	59	4879
2026-01-02 22:46:00.68	134.37	16.53	-48.7	-51.0	14.6	0.00e+00	0	57	0	1022361600	59	4906
2026-01-02 22:46:01.67	134.52	16.45	-48.9	-51.4	14.3	7.00e-07	0	57	0	1024458752	59	5106
2026-01-02 22:46:02.65	134.68	16.37	-49.1	-51.6	14.0	2.20e-06	0	57	0	1025507328	60	4958
2026-01-02 22:46:03.65	134.84	16.29	-49.0	-51.5	14.1	5.30e-06	0	57	0	1027604480	60	4899
2026-01-02 22:46:04.63	134.99	16.22	-48.8	-51.1	14.5	1.50e-06	0	57	0	1029701632	60	4676
2026-01-02 22:46:05.63	135.15	16.14	-48.5	-50.6	15.0	0.00e+00	0	57	0	1031798784	60	4406
2026-01-02 22:46:06.61	135.30	16.06	-48.3	-50.3	15.3	0.00e+00	0	57	0	1032847360	59	4529
2026-01-02 22:46:07.60	135.45	15.98	-48.2	-50.2	15.4	0.00e+00	0	57	0	1034944512	59	4469
2026-01-02 22:46:08.59	135.60	15.90	-48.1	-50.1	15.5	0.00e+00	0	57	0	1037041664	59	4420
2026-01-02 22:46:09.58	135.75	15.82	-48.1	-50.1	15.5	0.00e+00	0	57	0	1039138816	59	4430
2026-01-02 22:46:10.56	135.90	15.74	-48.2	-50.2	15.4	0.00e+00	0	57	0	1040187392	59	4470
2026-01-02 22:46:11.54	136.05	15.67	-48.3	-50.3	15.3	0.00e+00	0	57	0	1042284544	59	4526
2026-01-02 22:46:12.53	136.20	15.59	-48.2	-50.3	15.3	0.00e+00	0	57	0	1044381696	59	4521
2026-01-02 22:46:13.52	136.35	15.51	-48.4	-50.4	15.2	0.00e+00	0	57	0	1046478848	59	4590
2026-01-02 22:46:14.52	136.50	15.43	-48.2	-50.3	15.4	0.00e+00	0	57	0	1048576000	59	4496
2026-01-02 22:46:15.51	136.65	15.35	-48.3	-50.3	15.3	0.00e+00	0	57	0	1049624576	59	4515
2026-01-02 22:46:16.50	136.79	15.28	-48.4	-50.5	15.1	0.00e+00	0	57	0	1051721728	59	4650
2026-01-02 22:46:17.48	136.94	15.20	-48.6	-50.8	14.8	0.00e+00	0	57	0	1053818880	59	4774
2026-01-02 22:46:18.47	137.08	15.12	-48.6	-50.9	14.8	0.00e+00	0	57	0	1055916032	59	4836
2026-01-02 22:46:19.46	137.22	15.04	-48.6	-51.0	14.6	0.00e+00	0	57	0	1056964608	59	4876
2026-01-02 22:46:20.44	137.37	14.97	-48.7	-51.0	14.7	7.00e-07	0	57	0	1059061760	59	4890
2026-01-02 22:46:21.44	137.51	14.89	-48.8	-51.1	14.5	0.00e+00	0	57	0	1061158912	59	4969
2026-01-02 22:46:22.42	137.65	14.81	-48.9	-51.2	14.4	0.00e+00	0	57	0	1063256064	59	5037
2026-01-02 22:46:23.41	137.79	14.73	-48.7	-51.0	14.6	0.00e+00	0	57	0	1064304640	59	4883
2026-01-02 22:46:24.40	137.93	14.66	-48.6	-50.7	14.9	7.00e-07	0	57	0	1066401792	59	4759
2026-01-02 22:46:25.39	138.07	14.58	-48.5	-50.7	15.0	0.00e+00	0	57	0	1068498944	59	4721
2026-01-02 22:46:26.38	138.21	14.50	-48.6	-50.7	15.0	0.00e+00	0	57	0	1070596096	59	4739
2026-01-02 22:46:27.38	138.35	14.43	-48.5	-50.7	14.9	0.00e+00	0	57	0	1072693248	59	4730
2026-01-02 22:46:28.36	138.49	14.35	-48.5	-50.6	14.9	0.00e+00	0	57	0	1073741824	59	4690
2026-01-02 22:46:29.35	138.62	14.27	-48.5	-50.7	14.8	0.00e+00	0	57	0	1075838976	59	4758
2026-01-02 22:46:30.33	138.76	14.20	-48.6	-50.9	14.6	0.00e+00	0	57	0	1077936128	59	4860
2026-01-02 22:46:31.32	138.89	14.12	-48.7	-51.1	14.5	7.00e-07	0	57	0	1080033280	59	4933
2026-01-02 22:46:32.30	139.03	14.04	-48.6	-51.0	14.6	7.00e-07	0	57	0	1081081856	59	4898
2026-01-02 22:46:33.30	139.16	13.97	-48.9	-51.4	14.2	0.00e+00	0	57	0	1083179008	59	5108
2026-01-02 22:46:34.29	139.30	13.89	-49.0	-51.6	14.0	1.50e-06	0	57	0	1085276160	60	4947
2026-01-02 22:46:35.29	139.43	13.81	-48.8	-51.3	14.2	7.00e-07	0	57	0	1087373312	60	4793
2026-01-02 22:46:36.27	139.56	13.74	-49.1	-51.6	13.9	3.00e-06	0	57	0	1088421888	60	4967
2026-01-02 22:46:37.26	139.69	13.66	-49.2	-51.8	13.7	5.30e-06	0	57	0	1090519040	60	5098
2026-01-02 22:46:38.24	139.82	13.59	-49.2	-52.0	13.6	9.10e-06	0	57	0	1092616192	60	5170
2026-01-02 22:46:39.23	139.95	13.51	-49.4	-52.2	13.4	1.90e-05	0	57	0	1094713344	60	5283
2026-01-02 22:46:40.22	140.08	13.44	-49.5	-52.3	13.2	2.97e-05	0	57	0	1095761920	60	5392
2026-01-02 22:46:41.21	140.21	13.36	-49.5	-52.4	13.2	2.44e-05	0	57	0	1097859072	60	5439
2026-01-02 22:46:42.20	140.34	13.29	-49.6	-52.6	12.9	4.11e-05	0	57	0	1099956224	61	5265
2026-01-02 22:46:43.18	140.47	13.21	-49.6	-52.6	13.0	4.11e-05	0	57	0	1102053376	61	5225
2026-01-02 22:46:44.18	140.60	13.13	-49.8	-52.8	12.6	8.69e-05	0	57	0	1104150528	61	5390
2026-01-02 22:46:45.17	140.72	13.06	-49.6	-52.6	12.8	8.23e-05	0	57	0	1105199104	61	5275
2026-01-02 22:46:46.16	140.85	12.98	-49.4	-52.3	13.2	3.89e-05	0	57	0	1107296256	61	5085
2026-01-02 22:46:47.14	140.97	12.91	-49.3	-52.1	13.4	1.67e-05	0	57	0	1109393408	61	4953
2026-01-02 22:46:48.13	141.10	12.84	-49.2	-51.9	13.6	1.14e-05	0	57	0	1111490560	61	4865
2026-01-02 22:46:49.13	141.22	12.76	-49.1	-51.7	13.8	9.10e-06	0	57	0	1112539136	61	4724
2026-01-02 22:46:50.11	141.34	12.69	-49.1	-51.8	13.8	2.20e-06	0	57	0	1114636288	61	4766
2026-01-02 22:46:51.10	141.47	12.61	-49.2	-51.8	13.7	6.10e-06	0	57	0	1116733440	61	4787
2026-01-02 22:46:52.09	141.59	12.54	-49.2	-51.8	13.7	3.00e-06	0	57	0	1118830592	61	4794
2026-01-02 22:46:53.08	141.71	12.46	-49.4	-52.2	13.3	9.90e-06	0	57	0	1119879168	61	5040
2026-01-02 22:46:54.07	141.83	12.39	-49.1	-51.8	13.6	1.06e-05	0	57	0	1121976320	61	4793
2026-01-02 22:46:55.06	141.95	12.31	-49.4	-52.3	13.2	1.60e-05	0	57	0	1124073472	61	5060
2026-01-02 22:46:56.05	142.07	12.24	-49.1	-52.1	13.4	1.75e-05	0	57	0	1126170624	61	4943
2026-01-02 22:46:57.04	142.19	12.17	-49.5	-52.3	13.1	2.59e-05	0	57	0	1128267776	61	5100
2026-01-02 22:46:58.03	142.31	12.09	-49.5	-52.5	13.0	3.35e-05	0	57	0	1129316352	61	5161
2026-01-02 22:46:59.02	142.43	12.02	-49.6	-52.6	12.9	5.41e-05	0	57	0	1131413504	61	5234
2026-01-02 22:47:00.01	142.55	11.95	-49.6	-52.7	12.8	4.19e-05	0	57	0	1133510656	61	5292
2026-01-02 22:47:01.00	142.66	11.87	-49.8	-53.0	12.4	9.76e-05	0	57	0	1135607808	61	5502
2026-01-02 22:47:01.99	142.78	11.80	-49.7	-52.8	12.7	1.16e-04	0	57	0	1136656384	61	5346
2026-01-02 22:47:02.98	142.90	11.73	-49.7	-52.8	12.6	9.53e-05	0	57	0	1138753536	61	5364
2026-01-02 22:47:03.97	143.01	11.65	-49.7	-52.7	12.7	8.16e-05	0	57	0	1140850688	61	5313
2026-01-02 22:47:04.96	143.13	11.58	-49.7	-52.8	12.6	8.39e-05	0	57	0	1142947840	61	5383
2026-01-02 22:47:05.95	143.24	11.51	-49.5	-52.5	13.0	4.34e-05	0	57	0	1145044992	61	5163
2026-01-02 22:47:06.94	143.36	11.43	-49.3	-52.2	13.3	1.75e-05	0	57	0	1146093568	61	4993
2026-01-02 22:47:07.92	143.47	11.36	-49.1	-51.8	13.6	6.10e-06	0	57	0	1148190720	61	4793
2026-01-02 22:47:08.91	143.58	11.29	-49.1	-51.7	13.8	2.20e-06	0	57	0	1150287872	61	4729
2026-01-02 22:47:09.90	143.69	11.22	-49.1	-51.7	13.7	4.50e-06	0	57	0	1151336448	61	4745
2026-01-02 22:47:10.88	143.80	11.15	-48.9	-51.6	13.8	6.10e-06	0	57	0	1153433600	61	4684
2026-01-02 22:47:11.87	143.91	11.07	-49.0	-51.8	13.6	5.30e-06	0	57	0	1155530752	60	5080
2026-01-02 22:47:12.86	144.02	11.00	-49.0	-51.7	13.7	5.30e-06	0	57	0	1157627904	60	5006
2026-01-02 22:47:13.85	144.13	10.93	-49.2	-51.9	13.5	9.10e-06	0	57	0	1159725056	60	5148
2026-01-02 22:47:14.85	144.25	10.86	-49.2	-52.1	13.3	1.52e-05	0	57	0	1160773632	60	5245
2026-01-02 22:47:15.84	144.35	10.79	-49.1	-52.0	13.4	2.13e-05	0	57	0	1162870784	60	5186
2026-01-02 22:47:16.82	144.46	10.72	-49.4	-52.3	13.1	2.67e-05	0	57	0	1164967936	60	5387
2026-01-02 22:47:17.81	144.57	10.64	-49.3	-52.2	13.2	3.81e-05	0	57	0	1167065088	60	5317
2026-01-02 22:47:18.80	144.68	10.57	-49.3	-52.1	13.2	1.83e-05	0	57	0	1168113664	60	5276
2026-01-02 22:47:19.79	144.78	10.50	-49.5	-52.5	12.9	5.49e-05	0	57	0	1170210816	60	5486
2026-01-02 22:47:20.78	144.89	10.43	-49.3	-52.2	13.2	3.05e-05	0	57	0	1172307968	60	5290
2026-01-02 22:47:21.77	145.00	10.36	-49.1	-51.7	13.7	9.10e-06	0	57	0	1174405120	60	5028
2026-01-02 22:47:22.76	145.10	10.29	-49.0	-51.6	13.8	5.30e-06	0	57	0	1176502272	60	4948
2026-01-02 22:47:23.75	145.21	10.22	-48.8	-51.3	14.1	4.50e-06	0	57	0	1177550848	60	4786
2026-01-02 22:47:24.74	145.31	10.15	-48.8	-51.4	14.1	3.00e-06	0	57	0	1179648000	60	4820
2026-01-02 22:47:25.73	145.42	10.08	-48.7	-51.2	14.2	2.20e-06	0	57	0	1181745152	60	4726
2026-01-02 22:47:26.72	145.52	10.01	-48.7	-51.0	14.4	1.50e-06	0	57	0	1183842304	60	4650
2026-01-02 22:47:27.72	145.62	9.94	-48.8	-51.3	14.1	1.50e-06	0	57	0	1184890880	60	4779
2026-01-02 22:47:28.71	145.73	9.87	-48.6	-51.1	14.3	0.00e+00	0	57	0	1186988032	60	4673
2026-01-02 22:47:29.69	145.83	9.80	-48.5	-50.8	14.6	0.00e+00	0	57	0	1189085184	60	4539
2026-01-02 22:47:30.68	145.93	9.73	-48.5	-50.8	14.5	7.00e-07	0	57	0	1191182336	60	4542
2026-01-02 22:47:31.66	146.03	9.66	-48.5	-50.8	14.5	7.00e-07	0	57	0	1192230912	60	4535
2026-01-02 22:47:32.64	146.13	9.59	-48.6	-50.9	14.4	0.00e+00	0	57	0	1194328064	60	4593
2026-01-02 22:47:33.63	146.23	9.52	-48.7	-51.0	14.3	7.00e-07	0	57	0	1196425216	60	4648
2026-01-02 22:47:34.62	146.33	9.45	-48.7	-51.2	14.2	7.00e-07	0	57	0	1198522368	60	4715
2026-01-02 22:47:35.61	146.43	9.38	-48.8	-51.3	14.0	2.20e-06	0	57	0	1200619520	60	4780
2026-01-02 22:47:36.60	146.53	9.31	-48.8	-51.4	14.0	7.00e-07	0	57	0	1201668096	60	4822
2026-01-02 22:47:37.59	146.63	9.24	-48.9	-51.5	13.9	0.00e+00	0	57	0	1203765248	60	4885
2026-01-02 22:47:38.58	146.73	9.17	-48.9	-51.6	13.8	6.10e-06	0	57	0	1205862400	60	4934
2026-01-02 22:47:39.56	146.82	9.11	-48.9	-51.5	13.8	8.30e-06	0	57	0	1207959552	60	4910
2026-01-02 22:47:40.56	146.92	9.04	-49.0	-51.7	13.6	6.80e-06	0	57	0	1209008128	60	5006
2026-01-02 22:47:41.55	147.02	8.97	-49.0	-51.7	13.6	6.10e-06	0	57	0	1211105280	60	5012
2026-01-02 22:47:42.55	147.11	8.90	-48.9	-51.6	13.7	1.50e-06	0	57	0	1213202432	60	4945
2026-01-02 22:47:43.54	147.21	8.83	-48.9	-51.6	13.7	5.30e-06	0	57	0	1215299584	60	4932
2026-01-02 22:47:44.53	147.31	8.76	-48.9	-51.5	13.8	6.10e-06	0	57	0	1216348160	60	4902
2026-01-02 22:47:45.51	147.40	8.70	-48.9	-51.6	13.7	6.80e-06	0	57	0	1218445312	60	4939
2026-01-02 22:47:46.50	147.49	8.63	-49.0	-51.7	13.6	6.10e-06	0	57	0	1220542464	60	5017
2026-01-02 22:47:47.50	147.59	8.56	-49.0	-51.6	13.7	1.06e-05	0	57	0	1222639616	60	4969
2026-01-02 22:47:48.49	147.68	8.49	-48.9	-51.5	13.8	6.10e-06	0	57	0	1224736768	60	4882
2026-01-02 22:47:49.48	147.78	8.42	-48.9	-51.5	13.8	9.10e-06	0	57	0	1225785344	60	4889
2026-01-02 22:47:50.47	147.87	8.36	-49.0	-51.7	13.6	6.80e-06	0	57	0	1227882496	60	5016
2026-01-02 22:47:51.46	147.96	8.29	-49.1	-51.9	13.3	1.29e-05	0	57	0	1229979648	60	5141
