passes_logs/2026/01/02/R3.0SM8_Murmansk_STILSPACE/R3.0SM8_Murmansk_STILSPACE__20260102_143723_FENGYUN_3D_rec.log

#Pass ID: 20260102_143723_FENGYUN 3D
#Satellite: FENGYUN 3D
#Configuration: FENGYUN 3D
#almurnet v.1.7.20240730
#Start time: 2026-01-02 14:37:23

#Version: 2.2.20231116
#Station: R3.0SM8_Murmansk_STILSPACE
#Location: 33.092731 lon 68.902999 lat
#TLE: 1 43010U 17072A   26001.33100487  .00000602  00000+0  30664-3 0  9999
#TLE: 2 43010  98.9910 332.9374 0001848 133.1047 227.0283 14.19692078421319

#Time	Az	El	Level	Level2	SNR	BER	BlckErr	Temp	State	Recorded	gain1	gain2
2026-01-02 14:37:23.58	233.01	3.01	-52.8	-63.7	3.8	8.46e-01	0	46	0	0	67	13300
2026-01-02 14:37:24.56	233.11	3.06	-52.9	-63.7	3.8	8.46e-01	0	46	104	0	68	12621
2026-01-02 14:37:25.56	233.20	3.10	-52.7	-63.7	3.8	8.47e-01	0	46	104	0	68	12600
2026-01-02 14:37:26.54	233.30	3.15	-52.8	-63.7	3.8	8.46e-01	0	46	104	0	68	12632
2026-01-02 14:37:27.53	233.39	3.20	-52.8	-63.7	3.8	8.46e-01	0	46	104	0	68	12588
2026-01-02 14:37:28.52	233.49	3.25	-52.8	-63.7	3.8	8.45e-01	0	46	104	0	68	12546
2026-01-02 14:37:29.51	233.59	3.30	-52.8	-63.6	3.8	8.46e-01	0	46	104	0	68	12480
2026-01-02 14:37:30.50	233.68	3.35	-52.8	-63.6	3.8	8.45e-01	0	46	104	0	68	12431
2026-01-02 14:37:31.50	233.78	3.40	-52.7	-63.5	3.8	8.47e-01	0	46	104	0	68	12372
2026-01-02 14:37:32.48	233.88	3.45	-52.5	-63.4	3.8	8.47e-01	0	46	104	0	68	12171
2026-01-02 14:37:33.46	233.97	3.50	-52.4	-63.1	3.8	8.46e-01	0	46	104	0	67	12502
2026-01-02 14:37:34.45	234.07	3.54	-52.1	-62.9	3.8	8.46e-01	0	47	104	0	67	12154
2026-01-02 14:37:35.44	234.17	3.59	-51.8	-62.5	3.8	8.46e-01	0	46	104	0	66	12309
2026-01-02 14:37:36.43	234.26	3.64	-51.4	-62.1	3.8	8.47e-01	0	47	104	0	65	12451
2026-01-02 14:37:37.42	234.36	3.69	-51.4	-62.0	3.8	8.47e-01	0	47	104	0	65	12313
2026-01-02 14:37:38.41	234.46	3.74	-51.4	-61.9	3.8	8.46e-01	0	47	104	0	65	12113
2026-01-02 14:37:39.40	234.56	3.79	-51.4	-61.7	3.8	8.45e-01	0	47	104	0	65	11840
2026-01-02 14:37:40.40	234.66	3.84	-51.3	-61.6	3.8	8.46e-01	0	47	104	0	65	11700
2026-01-02 14:37:41.39	234.76	3.89	-51.3	-61.4	3.8	8.46e-01	0	47	104	0	65	11543
2026-01-02 14:37:42.37	234.86	3.94	-51.3	-61.4	3.8	8.45e-01	0	47	104	0	65	11464
2026-01-02 14:37:43.36	234.96	3.99	-51.3	-61.5	3.8	8.46e-01	0	47	104	0	65	11556
2026-01-02 14:37:44.34	235.06	4.04	-51.3	-61.5	3.8	8.46e-01	0	47	104	0	65	11574
2026-01-02 14:37:45.33	235.16	4.08	-51.3	-61.6	3.8	8.46e-01	0	47	104	0	65	11799
2026-01-02 14:37:46.33	235.26	4.13	-51.4	-61.8	3.8	8.46e-01	0	47	104	0	65	11981
2026-01-02 14:37:47.31	235.36	4.18	-51.4	-61.9	3.8	8.46e-01	0	47	104	0	65	12118
2026-01-02 14:37:48.30	235.47	4.23	-51.4	-61.9	3.8	8.45e-01	0	48	104	0	65	12159
2026-01-02 14:37:49.29	235.57	4.28	-51.3	-61.8	3.8	8.47e-01	0	47	104	0	65	12085
2026-01-02 14:37:50.28	235.67	4.33	-51.4	-61.7	3.8	8.46e-01	0	48	104	0	65	11865
2026-01-02 14:37:51.26	235.77	4.38	-51.3	-61.3	3.8	8.46e-01	0	48	104	0	65	11392
2026-01-02 14:37:52.25	235.88	4.43	-51.2	-60.8	3.8	8.46e-01	0	48	104	0	65	10746
2026-01-02 14:37:53.24	235.98	4.48	-51.1	-60.1	3.8	8.45e-01	0	48	104	0	65	9917
2026-01-02 14:37:54.23	236.08	4.53	-51.0	-59.3	3.9	8.44e-01	0	48	104	0	65	8975
2026-01-02 14:37:55.22	236.19	4.58	-50.9	-58.2	4.3	8.39e-01	0	48	0	0	64	8436
2026-01-02 14:37:56.21	236.29	4.63	-50.5	-57.0	4.8	8.09e-01	0	48	0	0	64	7318
2026-01-02 14:37:57.21	236.40	4.68	-50.4	-56.0	5.4	7.44e-01	0	48	0	0	63	6935
2026-01-02 14:37:58.20	236.50	4.73	-50.0	-54.9	6.3	3.39e-01	0	48	0	4194304	63	6083
2026-01-02 14:37:59.19	236.61	4.78	-49.5	-53.6	7.4	1.85e-01	0	48	0	9437184	62	5587
2026-01-02 14:38:00.18	236.72	4.83	-49.0	-52.5	8.5	6.21e-02	0	48	0	14680064	61	5186
2026-01-02 14:38:01.17	236.82	4.87	-48.5	-51.4	9.6	2.08e-02	0	48	0	19922944	60	4830
2026-01-02 14:38:02.17	236.93	4.92	-48.1	-50.7	10.4	8.72e-03	0	48	0	26214400	59	4736
2026-01-02 14:38:03.15	237.04	4.97	-47.6	-50.0	11.1	2.88e-03	0	49	0	31457280	58	4618
2026-01-02 14:38:04.14	237.14	5.02	-47.1	-49.2	12.0	8.25e-04	0	49	0	36700160	57	4475
2026-01-02 14:38:05.13	237.25	5.07	-47.0	-49.1	12.1	4.03e-04	0	49	0	42991616	57	4407
2026-01-02 14:38:06.12	237.36	5.12	-47.3	-49.5	11.7	6.73e-04	0	49	0	48234496	57	4635
2026-01-02 14:38:07.11	237.47	5.17	-47.0	-48.9	12.3	4.45e-04	0	49	0	53477376	57	4338
2026-01-02 14:38:08.09	237.58	5.22	-46.6	-48.5	12.8	1.26e-04	0	49	0	59768832	56	4363
2026-01-02 14:38:09.07	237.68	5.27	-46.4	-48.1	13.2	5.14e-05	0	49	0	65011712	56	4185
2026-01-02 14:38:10.06	237.79	5.32	-46.0	-47.7	13.5	2.74e-05	0	49	0	70254592	55	4199
2026-01-02 14:38:11.05	237.90	5.37	-46.0	-47.6	13.6	1.37e-05	0	49	0	75497472	55	4167
2026-01-02 14:38:12.04	238.01	5.42	-45.8	-47.4	13.9	9.10e-06	0	49	0	81788928	54	4297
2026-01-02 14:38:13.04	238.13	5.47	-45.7	-47.2	14.1	0.00e+00	0	49	0	87031808	54	4210
2026-01-02 14:38:14.03	238.24	5.52	-45.7	-47.2	14.1	3.40e-06	0	49	0	93323264	54	4211
2026-01-02 14:38:15.02	238.35	5.57	-45.7	-47.1	14.2	2.20e-06	0	49	0	98566144	54	4172
2026-01-02 14:38:16.01	238.46	5.62	-45.8	-47.2	14.1	3.40e-06	0	49	0	103809024	54	4225
2026-01-02 14:38:17.00	238.57	5.67	-45.7	-47.1	14.2	5.70e-06	0	49	0	109051904	54	4168
2026-01-02 14:38:18.00	238.69	5.72	-45.7	-47.1	14.2	2.20e-06	0	49	0	115343360	54	4192
2026-01-02 14:38:18.99	238.80	5.77	-45.7	-47.1	14.3	3.40e-06	0	49	0	120586240	54	4166
2026-01-02 14:38:19.98	238.91	5.82	-45.7	-47.2	14.2	1.10e-06	0	49	0	125829120	54	4196
2026-01-02 14:38:20.96	239.02	5.87	-46.0	-47.5	13.9	4.50e-06	0	50	0	132120576	54	4368
2026-01-02 14:38:21.95	239.14	5.92	-46.0	-47.6	13.8	4.50e-06	0	49	0	137363456	54	4415
2026-01-02 14:38:22.95	239.25	5.97	-46.1	-47.7	13.7	5.70e-06	0	49	0	142606336	54	4474
2026-01-02 14:38:23.94	239.37	6.02	-46.1	-47.6	13.8	1.25e-05	0	49	0	148897792	54	4440
2026-01-02 14:38:24.93	239.48	6.07	-46.1	-47.7	13.7	4.50e-06	0	50	0	154140672	54	4459
2026-01-02 14:38:25.92	239.60	6.11	-46.2	-47.8	13.7	1.02e-05	0	50	0	159383552	54	4500
2026-01-02 14:38:26.91	239.71	6.16	-46.2	-47.8	13.7	1.71e-05	0	50	0	165675008	54	4506
2026-01-02 14:38:27.89	239.83	6.21	-46.4	-48.0	13.5	1.83e-05	0	50	0	170917888	54	4622
2026-01-02 14:38:28.88	239.94	6.26	-46.1	-47.6	13.9	1.14e-05	0	50	0	176160768	54	4433
2026-01-02 14:38:29.86	240.06	6.31	-45.7	-47.1	14.4	1.10e-06	0	50	0	181403648	54	4192
2026-01-02 14:38:30.85	240.18	6.36	-45.7	-47.1	14.5	4.50e-06	0	50	0	187695104	54	4156
2026-01-02 14:38:31.84	240.30	6.41	-45.6	-46.9	14.7	2.20e-06	0	50	0	192937984	54	4086
2026-01-02 14:38:32.84	240.41	6.46	-45.8	-47.2	14.4	0.00e+00	0	50	0	198180864	54	4217
2026-01-02 14:38:33.82	240.53	6.51	-45.6	-46.9	14.7	0.00e+00	0	50	0	204472320	54	4060
2026-01-02 14:38:34.81	240.65	6.56	-45.8	-47.2	14.5	0.00e+00	0	50	0	209715200	54	4204
2026-01-02 14:38:35.80	240.77	6.61	-45.6	-46.9	14.7	0.00e+00	0	50	0	214958080	54	4083
2026-01-02 14:38:36.79	240.89	6.66	-45.4	-46.6	15.0	0.00e+00	0	50	0	221249536	54	3953
2026-01-02 14:38:37.79	241.01	6.71	-45.3	-46.5	15.2	0.00e+00	0	50	0	226492416	53	4127
2026-01-02 14:38:38.77	241.13	6.76	-45.3	-46.6	15.0	0.00e+00	0	50	0	231735296	53	4173
2026-01-02 14:38:39.76	241.25	6.81	-45.5	-46.7	14.9	1.10e-06	0	50	0	236978176	53	4237
2026-01-02 14:38:40.75	241.37	6.86	-45.6	-46.9	14.8	1.10e-06	0	50	0	243269632	53	4335
2026-01-02 14:38:41.74	241.49	6.91	-45.5	-46.8	14.9	0.00e+00	0	50	0	248512512	53	4247
2026-01-02 14:38:42.73	241.62	6.96	-45.3	-46.5	15.2	0.00e+00	0	50	0	253755392	53	4141
2026-01-02 14:38:43.72	241.74	7.01	-45.3	-46.5	15.3	0.00e+00	0	51	0	260046848	53	4103
2026-01-02 14:38:44.71	241.86	7.06	-45.2	-46.4	15.3	0.00e+00	0	50	0	265289728	53	4072
2026-01-02 14:38:45.71	241.98	7.11	-45.3	-46.5	15.3	0.00e+00	0	50	0	270532608	53	4100
2026-01-02 14:38:46.70	242.11	7.16	-45.2	-46.4	15.4	0.00e+00	0	51	0	276824064	53	4055
2026-01-02 14:38:47.69	242.23	7.21	-45.0	-46.2	15.6	0.00e+00	0	51	0	282066944	53	3977
2026-01-02 14:38:48.67	242.36	7.25	-45.1	-46.2	15.6	0.00e+00	0	51	0	287309824	53	3998
2026-01-02 14:38:49.66	242.48	7.30	-45.3	-46.5	15.3	0.00e+00	0	51	0	293601280	53	4126
2026-01-02 14:38:50.64	242.60	7.35	-45.3	-46.5	15.3	0.00e+00	0	51	0	298844160	53	4129
2026-01-02 14:38:51.64	242.73	7.40	-45.3	-46.6	15.2	0.00e+00	0	51	0	304087040	53	4154
2026-01-02 14:38:52.63	242.86	7.45	-45.4	-46.6	15.2	0.00e+00	0	51	0	309329920	53	4168
2026-01-02 14:38:53.62	242.98	7.50	-45.4	-46.6	15.2	0.00e+00	0	51	0	315621376	53	4164
2026-01-02 14:38:54.61	243.11	7.55	-45.2	-46.3	15.5	0.00e+00	0	51	0	320864256	53	4046
2026-01-02 14:38:55.60	243.24	7.60	-45.1	-46.2	15.7	0.00e+00	0	51	0	326107136	53	3973
2026-01-02 14:38:56.60	243.37	7.65	-45.1	-46.2	15.7	0.00e+00	0	51	0	332398592	53	3974
2026-01-02 14:38:57.59	243.49	7.70	-44.9	-46.1	15.8	0.00e+00	0	51	0	337641472	53	3919
2026-01-02 14:38:58.59	243.62	7.75	-44.8	-45.9	16.0	0.00e+00	0	51	0	343932928	52	4075
2026-01-02 14:38:59.58	243.75	7.80	-44.8	-45.9	15.9	0.00e+00	0	51	0	349175808	52	4088
2026-01-02 14:39:00.57	243.88	7.85	-45.1	-46.3	15.6	0.00e+00	0	51	0	354418688	52	4275
2026-01-02 14:39:01.57	244.01	7.90	-45.2	-46.4	15.5	0.00e+00	0	51	0	359661568	52	4333
2026-01-02 14:39:02.55	244.14	7.94	-44.9	-46.1	15.8	0.00e+00	0	51	0	365953024	52	4168
2026-01-02 14:39:03.54	244.27	7.99	-44.8	-45.9	16.0	0.00e+00	0	51	0	371195904	52	4065
2026-01-02 14:39:04.54	244.41	8.04	-44.6	-45.6	16.3	0.00e+00	0	51	0	376438784	52	3938
2026-01-02 14:39:05.53	244.54	8.09	-44.5	-45.5	16.4	0.00e+00	0	51	0	382730240	52	3886
2026-01-02 14:39:06.52	244.67	8.14	-44.5	-45.6	16.3	0.00e+00	0	51	0	387973120	52	3931
2026-01-02 14:39:07.50	244.80	8.19	-44.6	-45.7	16.2	0.00e+00	0	51	0	393216000	52	3979
2026-01-02 14:39:08.49	244.93	8.24	-44.6	-45.7	16.2	0.00e+00	0	52	0	399507456	52	3976
2026-01-02 14:39:09.47	245.06	8.29	-44.5	-45.6	16.4	0.00e+00	0	51	0	404750336	52	3926
2026-01-02 14:39:10.47	245.20	8.34	-44.6	-45.6	16.3	0.00e+00	0	52	0	409993216	52	3939
2026-01-02 14:39:11.46	245.33	8.39	-44.6	-45.6	16.3	0.00e+00	0	52	0	415236096	52	3951
2026-01-02 14:39:12.45	245.47	8.43	-44.6	-45.7	16.2	0.00e+00	0	52	0	421527552	52	3977
2026-01-02 14:39:13.44	245.60	8.48	-44.5	-45.6	16.4	0.00e+00	0	52	0	426770432	52	3935
2026-01-02 14:39:14.43	245.74	8.53	-44.6	-45.7	16.3	0.00e+00	0	52	0	432013312	52	3983
2026-01-02 14:39:15.41	245.87	8.58	-44.7	-45.7	16.3	0.00e+00	0	52	0	438304768	52	3989
2026-01-02 14:39:16.40	246.01	8.63	-44.5	-45.5	16.5	0.00e+00	0	52	0	443547648	52	3900
2026-01-02 14:39:17.39	246.14	8.68	-44.4	-45.4	16.6	0.00e+00	0	52	0	448790528	51	4080
2026-01-02 14:39:18.38	246.28	8.73	-44.4	-45.4	16.7	0.00e+00	0	52	0	455081984	51	4073
2026-01-02 14:39:19.37	246.42	8.77	-44.5	-45.5	16.6	0.00e+00	0	52	0	460324864	51	4116
2026-01-02 14:39:20.36	246.56	8.82	-44.4	-45.4	16.7	0.00e+00	0	52	0	465567744	51	4097
2026-01-02 14:39:21.35	246.70	8.87	-44.3	-45.3	16.8	0.00e+00	0	52	0	471859200	51	4039
2026-01-02 14:39:22.34	246.83	8.92	-44.3	-45.3	16.8	0.00e+00	0	52	0	477102080	51	4027
2026-01-02 14:39:23.34	246.97	8.97	-44.4	-45.4	16.7	0.00e+00	0	52	0	482344960	51	4077
2026-01-02 14:39:24.33	247.11	9.02	-44.3	-45.3	16.8	0.00e+00	0	52	0	487587840	51	4022
2026-01-02 14:39:25.31	247.25	9.06	-44.2	-45.2	16.9	0.00e+00	0	52	0	493879296	51	3978
2026-01-02 14:39:26.31	247.40	9.11	-44.4	-45.4	16.7	0.00e+00	0	52	0	499122176	51	4085
2026-01-02 14:39:27.30	247.54	9.16	-44.6	-45.6	16.6	0.00e+00	0	52	0	505413632	51	4148
2026-01-02 14:39:28.28	247.68	9.21	-44.4	-45.4	16.7	0.00e+00	0	52	0	510656512	51	4062
2026-01-02 14:39:29.27	247.82	9.26	-44.2	-45.2	17.0	0.00e+00	0	52	0	515899392	51	3961
2026-01-02 14:39:30.25	247.96	9.30	-44.2	-45.1	17.0	0.00e+00	0	52	0	521142272	51	3950
2026-01-02 14:39:31.24	248.10	9.35	-44.2	-45.1	17.0	0.00e+00	0	52	0	527433728	51	3941
2026-01-02 14:39:32.23	248.25	9.40	-44.1	-45.1	17.0	0.00e+00	0	52	0	532676608	51	3934
2026-01-02 14:39:33.22	248.39	9.45	-44.3	-45.2	16.9	0.00e+00	0	52	0	537919488	51	3996
2026-01-02 14:39:34.21	248.53	9.49	-44.4	-45.4	16.7	0.00e+00	0	52	0	544210944	51	4087
2026-01-02 14:39:35.20	248.68	9.54	-44.2	-45.2	17.0	0.00e+00	0	53	0	549453824	51	3961
2026-01-02 14:39:36.19	248.82	9.59	-44.0	-45.0	17.2	0.00e+00	0	53	0	554696704	51	3878
2026-01-02 14:39:37.18	248.97	9.64	-44.0	-45.0	17.2	0.00e+00	0	53	0	559939584	51	3874
2026-01-02 14:39:38.17	249.11	9.68	-44.1	-45.0	17.2	0.00e+00	0	52	0	566231040	51	3890
2026-01-02 14:39:39.16	249.26	9.73	-44.1	-45.1	17.0	0.00e+00	0	52	0	571473920	51	3942
2026-01-02 14:39:40.15	249.41	9.78	-44.3	-45.3	16.9	0.00e+00	0	52	0	576716800	51	4015
2026-01-02 14:39:41.12	249.55	9.82	-44.2	-45.1	17.1	0.00e+00	0	52	0	583008256	51	3931
2026-01-02 14:39:42.11	249.70	9.87	-44.1	-45.0	17.2	0.00e+00	0	53	0	588251136	51	3888
2026-01-02 14:39:43.10	249.85	9.92	-44.2	-45.1	17.1	0.00e+00	0	52	0	593494016	51	3947
2026-01-02 14:39:44.09	250.00	9.97	-44.3	-45.2	16.9	0.00e+00	0	53	0	599785472	51	3992
2026-01-02 14:39:45.08	250.15	10.01	-44.1	-45.0	17.2	0.00e+00	0	53	0	605028352	51	3892
2026-01-02 14:39:46.06	250.29	10.06	-44.3	-45.2	16.9	0.00e+00	0	53	0	610271232	51	4000
2026-01-02 14:39:47.05	250.44	10.10	-44.2	-45.2	17.0	0.00e+00	0	53	0	615514112	51	3966
2026-01-02 14:39:48.04	250.59	10.15	-44.3	-45.3	16.9	0.00e+00	0	53	0	621805568	51	4021
2026-01-02 14:39:49.03	250.75	10.20	-44.5	-45.5	16.6	0.00e+00	0	53	0	627048448	51	4138
2026-01-02 14:39:50.02	250.90	10.24	-44.2	-45.2	17.0	0.00e+00	0	53	0	632291328	51	3982
2026-01-02 14:39:51.00	251.05	10.29	-44.0	-44.9	17.2	0.00e+00	0	53	0	638582784	51	3866
2026-01-02 14:39:51.99	251.20	10.34	-43.9	-44.8	17.3	0.00e+00	0	53	0	643825664	51	3824
2026-01-02 14:39:52.98	251.35	10.38	-44.0	-44.9	17.3	0.00e+00	0	53	0	649068544	51	3835
2026-01-02 14:39:53.97	251.51	10.43	-43.8	-44.7	17.4	0.00e+00	0	53	0	654311424	50	4001
2026-01-02 14:39:54.96	251.66	10.47	-43.8	-44.7	17.5	0.00e+00	0	53	0	660602880	50	3966
2026-01-02 14:39:55.94	251.81	10.52	-43.8	-44.7	17.5	0.00e+00	0	53	0	665845760	50	3969
2026-01-02 14:39:56.94	251.97	10.57	-43.9	-44.8	17.4	0.00e+00	0	53	0	672137216	50	4018
2026-01-02 14:39:57.92	252.12	10.61	-43.9	-44.8	17.4	0.00e+00	0	53	0	677380096	50	4037
2026-01-02 14:39:58.90	252.28	10.66	-44.1	-45.1	17.1	0.00e+00	0	53	0	682622976	50	4159
2026-01-02 14:39:59.89	252.43	10.70	-44.1	-45.0	17.2	0.00e+00	0	53	0	687865856	50	4125
2026-01-02 14:40:00.88	252.59	10.75	-44.1	-45.0	17.2	0.00e+00	0	53	0	694157312	50	4145
2026-01-02 14:40:01.87	252.75	10.79	-44.3	-45.2	17.0	0.00e+00	0	53	0	699400192	50	4223
2026-01-02 14:40:02.87	252.91	10.84	-44.3	-45.2	17.0	0.00e+00	0	53	0	704643072	50	4229
2026-01-02 14:40:03.85	253.06	10.88	-44.3	-45.2	16.9	0.00e+00	0	53	0	710934528	50	4237
2026-01-02 14:40:04.83	253.22	10.93	-44.5	-45.5	16.7	0.00e+00	0	53	0	716177408	50	4368
2026-01-02 14:40:05.82	253.38	10.97	-44.4	-45.4	16.8	0.00e+00	0	53	0	721420288	51	4083
2026-01-02 14:40:06.80	253.54	11.02	-44.5	-45.5	16.7	0.00e+00	0	53	0	726663168	51	4140
2026-01-02 14:40:07.80	253.70	11.06	-44.4	-45.4	16.8	0.00e+00	0	53	0	732954624	51	4053
2026-01-02 14:40:08.78	253.86	11.11	-44.2	-45.1	17.1	0.00e+00	0	53	0	738197504	51	3936
2026-01-02 14:40:09.77	254.02	11.15	-44.1	-45.0	17.2	0.00e+00	0	54	0	743440384	51	3889
2026-01-02 14:40:10.76	254.18	11.19	-44.1	-45.1	17.1	0.00e+00	0	53	0	749731840	51	3936
2026-01-02 14:40:11.75	254.34	11.24	-44.3	-45.2	17.0	0.00e+00	0	53	0	754974720	51	3990
2026-01-02 14:40:12.76	254.51	11.28	-44.1	-45.0	17.2	0.00e+00	0	54	0	760217600	51	3897
2026-01-02 14:40:13.75	254.67	11.33	-43.9	-44.8	17.4	0.00e+00	0	53	0	766509056	50	4037
2026-01-02 14:40:14.74	254.83	11.37	-43.8	-44.7	17.5	0.00e+00	0	53	0	771751936	50	3985
2026-01-02 14:40:15.72	254.99	11.41	-43.8	-44.7	17.6	0.00e+00	0	53	0	776994816	50	3969
2026-01-02 14:40:16.71	255.16	11.46	-43.7	-44.5	17.7	0.00e+00	0	53	0	783286272	50	3910
2026-01-02 14:40:17.70	255.32	11.50	-43.7	-44.6	17.7	0.00e+00	0	53	0	788529152	50	3922
2026-01-02 14:40:18.68	255.49	11.54	-43.9	-44.8	17.4	0.00e+00	0	53	0	793772032	50	4045
2026-01-02 14:40:19.68	255.65	11.59	-43.9	-44.8	17.5	0.00e+00	0	53	0	799014912	50	4008
2026-01-02 14:40:20.67	255.82	11.63	-43.7	-44.6	17.7	0.00e+00	0	54	0	805306368	50	3915
2026-01-02 14:40:21.66	255.98	11.67	-43.6	-44.5	17.7	0.00e+00	0	54	0	810549248	50	3889
2026-01-02 14:40:22.65	256.15	11.71	-43.6	-44.4	17.8	0.00e+00	0	53	0	815792128	50	3868
2026-01-02 14:40:23.64	256.32	11.76	-43.7	-44.6	17.7	0.00e+00	0	53	0	822083584	50	3928
2026-01-02 14:40:24.63	256.49	11.80	-43.8	-44.6	17.6	0.00e+00	0	54	0	827326464	50	3938
2026-01-02 14:40:25.62	256.66	11.84	-43.9	-44.8	17.4	0.00e+00	0	53	0	832569344	50	4041
2026-01-02 14:40:26.61	256.82	11.88	-43.9	-44.8	17.5	0.00e+00	0	54	0	838860800	50	4008
2026-01-02 14:40:27.60	256.99	11.93	-43.6	-44.5	17.8	0.00e+00	0	54	0	844103680	50	3881
2026-01-02 14:40:28.59	257.16	11.97	-43.5	-44.3	17.9	0.00e+00	0	54	0	849346560	50	3821
2026-01-02 14:40:29.57	257.33	12.01	-43.5	-44.4	17.9	0.00e+00	0	54	0	854589440	50	3826
2026-01-02 14:40:30.55	257.50	12.05	-43.5	-44.4	17.9	0.00e+00	0	54	0	860880896	50	3841
2026-01-02 14:40:31.55	257.67	12.09	-43.6	-44.5	17.8	0.00e+00	0	54	0	866123776	50	3869
2026-01-02 14:40:32.54	257.84	12.13	-43.9	-44.7	17.5	0.00e+00	0	54	0	872415232	50	4000
2026-01-02 14:40:33.53	258.02	12.17	-43.8	-44.7	17.6	0.00e+00	0	54	0	877658112	50	3966
2026-01-02 14:40:34.52	258.19	12.21	-43.5	-44.3	17.9	0.00e+00	0	54	0	882900992	50	3822
2026-01-02 14:40:35.51	258.36	12.26	-43.2	-44.0	18.2	0.00e+00	0	54	0	888143872	49	3903
2026-01-02 14:40:36.51	258.54	12.30	-43.1	-43.9	18.4	0.00e+00	0	54	0	894435328	49	3838
2026-01-02 14:40:37.50	258.71	12.34	-43.1	-43.8	18.4	0.00e+00	0	54	0	899678208	49	3807
2026-01-02 14:40:38.49	258.89	12.38	-43.1	-43.9	18.3	0.00e+00	0	54	0	904921088	49	3839
2026-01-02 14:40:39.48	259.06	12.42	-43.1	-43.9	18.4	0.00e+00	0	54	0	911212544	49	3828
2026-01-02 14:40:40.47	259.24	12.46	-43.3	-44.1	18.1	0.00e+00	0	54	0	916455424	49	3941
2026-01-02 14:40:41.45	259.41	12.50	-43.5	-44.3	18.0	0.00e+00	0	54	0	921698304	49	4011
2026-01-02 14:40:42.44	259.59	12.53	-43.3	-44.0	18.2	0.00e+00	0	54	0	927989760	49	3913
2026-01-02 14:40:43.43	259.76	12.57	-43.3	-44.1	18.2	0.00e+00	0	54	0	933232640	49	3932
2026-01-02 14:40:44.42	259.94	12.61	-43.3	-44.1	18.2	0.00e+00	0	54	0	938475520	49	3935
2026-01-02 14:40:45.40	260.11	12.65	-43.4	-44.2	18.1	0.00e+00	0	54	0	943718400	49	3980
2026-01-02 14:40:46.39	260.29	12.69	-43.4	-44.2	18.1	0.00e+00	0	54	0	950009856	49	3974
2026-01-02 14:40:47.38	260.47	12.73	-43.4	-44.2	18.1	0.00e+00	0	54	0	955252736	49	3983
2026-01-02 14:40:48.37	260.65	12.77	-43.5	-44.3	17.9	0.00e+00	0	54	0	960495616	49	4049
2026-01-02 14:40:49.35	260.83	12.80	-43.5	-44.4	17.9	0.00e+00	0	54	0	966787072	49	4063
2026-01-02 14:40:50.33	261.01	12.84	-43.3	-44.2	18.1	0.00e+00	0	54	0	972029952	49	3961
2026-01-02 14:40:51.32	261.19	12.88	-43.2	-44.0	18.3	0.00e+00	0	54	0	977272832	49	3898
2026-01-02 14:40:52.30	261.36	12.92	-43.1	-43.9	18.4	0.00e+00	0	54	0	982515712	49	3843
2026-01-02 14:40:53.29	261.55	12.95	-43.2	-44.0	18.3	0.00e+00	0	54	0	988807168	49	3875
2026-01-02 14:40:54.27	261.73	12.99	-43.3	-44.1	18.2	0.00e+00	0	54	0	994050048	49	3929
2026-01-02 14:40:55.27	261.91	13.03	-43.4	-44.2	18.0	0.00e+00	0	54	0	999292928	49	3995
2026-01-02 14:40:56.25	262.09	13.06	-43.2	-44.0	18.3	0.00e+00	0	54	0	1005584384	49	3895
2026-01-02 14:40:57.24	262.27	13.10	-43.2	-44.0	18.3	0.00e+00	0	54	0	1010827264	49	3898
2026-01-02 14:40:58.24	262.46	13.14	-43.4	-44.2	18.1	0.00e+00	0	54	0	1016070144	49	3990
2026-01-02 14:40:59.23	262.64	13.17	-43.4	-44.3	18.0	0.00e+00	0	54	0	1022361600	49	4005
2026-01-02 14:41:00.22	262.83	13.21	-43.6	-44.4	17.9	0.00e+00	0	54	0	1027604480	49	4078
2026-01-02 14:41:01.22	263.01	13.25	-43.7	-44.6	17.7	0.00e+00	0	54	0	1032847360	49	4153
2026-01-02 14:41:02.20	263.19	13.28	-43.4	-44.2	18.1	0.00e+00	0	54	0	1039138816	49	3978
2026-01-02 14:41:03.20	263.38	13.32	-43.2	-44.0	18.3	0.00e+00	0	55	0	1044381696	49	3874
2026-01-02 14:41:04.19	263.57	13.35	-43.0	-43.8	18.5	0.00e+00	0	54	0	1049624576	49	3802
2026-01-02 14:41:05.18	263.75	13.39	-43.0	-43.7	18.5	0.00e+00	0	54	0	1054867456	49	3774
2026-01-02 14:41:06.17	263.94	13.42	-42.9	-43.6	18.6	0.00e+00	0	54	0	1061158912	48	3953
2026-01-02 14:41:07.15	264.13	13.45	-42.8	-43.5	18.7	0.00e+00	0	55	0	1066401792	48	3912
2026-01-02 14:41:08.14	264.31	13.49	-42.8	-43.6	18.7	0.00e+00	0	55	0	1072693248	48	3918
2026-01-02 14:41:09.13	264.50	13.52	-42.7	-43.5	18.8	0.00e+00	0	55	0	1077936128	48	3875
2026-01-02 14:41:10.12	264.69	13.56	-42.8	-43.6	18.7	0.00e+00	0	54	0	1083179008	48	3916
2026-01-02 14:41:11.12	264.88	13.59	-43.0	-43.8	18.5	0.00e+00	0	55	0	1088421888	48	4035
2026-01-02 14:41:12.11	265.07	13.62	-43.0	-43.7	18.6	0.00e+00	0	55	0	1094713344	48	4003
2026-01-02 14:41:13.09	265.26	13.66	-43.1	-43.9	18.5	0.00e+00	0	55	0	1099956224	48	4052
2026-01-02 14:41:14.08	265.45	13.69	-43.3	-44.1	18.2	0.00e+00	0	54	0	1105199104	48	4157
2026-01-02 14:41:15.08	265.64	13.72	-43.1	-43.9	18.4	0.00e+00	0	55	0	1111490560	48	4062
2026-01-02 14:41:16.06	265.83	13.75	-43.2	-44.0	18.3	0.00e+00	0	55	0	1116733440	48	4120
2026-01-02 14:41:17.05	266.02	13.78	-43.4	-44.2	18.1	0.00e+00	0	55	0	1121976320	48	4211
2026-01-02 14:41:18.04	266.21	13.82	-43.5	-44.3	18.0	0.00e+00	0	54	0	1128267776	48	4291
2026-01-02 14:41:19.03	266.40	13.85	-43.6	-44.4	17.9	0.00e+00	0	55	0	1133510656	48	4314
2026-01-02 14:41:20.02	266.60	13.88	-43.4	-44.2	18.1	0.00e+00	0	54	0	1138753536	49	3981
2026-01-02 14:41:21.01	266.79	13.91	-43.4	-44.2	18.1	0.00e+00	0	55	0	1143996416	49	3975
2026-01-02 14:41:22.00	266.98	13.94	-43.4	-44.2	18.1	0.00e+00	0	55	0	1150287872	49	3983
2026-01-02 14:41:22.98	267.17	13.97	-43.5	-44.3	18.0	0.00e+00	0	55	0	1155530752	49	4037
2026-01-02 14:41:23.97	267.37	14.00	-43.7	-44.6	17.7	0.00e+00	0	55	0	1160773632	49	4153
2026-01-02 14:41:24.96	267.56	14.03	-43.5	-44.3	18.0	0.00e+00	0	55	0	1167065088	49	4015
2026-01-02 14:41:25.96	267.76	14.06	-43.3	-44.1	18.2	0.00e+00	0	55	0	1172307968	49	3940
2026-01-02 14:41:26.95	267.95	14.09	-43.2	-44.0	18.3	0.00e+00	0	55	0	1177550848	49	3902
2026-01-02 14:41:27.93	268.15	14.12	-43.4	-44.2	18.1	0.00e+00	0	55	0	1183842304	49	3987
2026-01-02 14:41:28.92	268.34	14.15	-43.3	-44.1	18.2	0.00e+00	0	55	0	1189085184	49	3936
2026-01-02 14:41:29.91	268.54	14.18	-43.2	-44.0	18.3	0.00e+00	0	54	0	1194328064	49	3875
2026-01-02 14:41:30.89	268.73	14.20	-43.3	-44.1	18.2	0.00e+00	0	55	0	1200619520	49	3946
2026-01-02 14:41:31.88	268.93	14.23	-43.6	-44.4	17.9	0.00e+00	0	55	0	1205862400	49	4078
2026-01-02 14:41:32.88	269.13	14.26	-43.3	-44.1	18.2	0.00e+00	0	55	0	1211105280	49	3941
2026-01-02 14:41:33.87	269.33	14.29	-43.0	-43.8	18.5	0.00e+00	0	55	0	1216348160	49	3782
2026-01-02 14:41:34.86	269.52	14.31	-42.8	-43.6	18.7	0.00e+00	0	55	0	1222639616	48	3927
2026-01-02 14:41:35.85	269.72	14.34	-42.8	-43.6	18.7	0.00e+00	0	55	0	1227882496	48	3917
2026-01-02 14:41:36.84	269.92	14.37	-42.8	-43.6	18.8	0.00e+00	0	55	0	1233125376	48	3916
2026-01-02 14:41:37.83	270.12	14.39	-42.9	-43.7	18.6	0.00e+00	0	55	0	1239416832	48	3992
2026-01-02 14:41:38.82	270.32	14.42	-42.9	-43.6	18.7	0.00e+00	0	55	0	1244659712	48	3951
2026-01-02 14:41:39.81	270.52	14.45	-42.8	-43.5	18.8	0.00e+00	0	55	0	1249902592	48	3902
2026-01-02 14:41:40.81	270.72	14.47	-42.8	-43.6	18.7	0.00e+00	0	55	0	1256194048	48	3934
2026-01-02 14:41:41.79	270.92	14.50	-43.0	-43.8	18.5	0.00e+00	0	55	0	1261436928	48	4008
2026-01-02 14:41:42.78	271.12	14.52	-42.9	-43.7	18.6	0.00e+00	0	55	0	1266679808	48	3980
2026-01-02 14:41:43.77	271.32	14.54	-42.9	-43.7	18.6	0.00e+00	0	55	0	1272971264	48	3995
2026-01-02 14:41:44.76	271.52	14.57	-43.1	-43.9	18.4	0.00e+00	0	55	0	1278214144	48	4075
2026-01-02 14:41:45.74	271.72	14.59	-42.9	-43.7	18.6	0.00e+00	0	55	0	1283457024	48	3971
2026-01-02 14:41:46.73	271.92	14.62	-42.7	-43.4	18.9	0.00e+00	0	55	0	1288699904	48	3853
2026-01-02 14:41:47.72	272.13	14.64	-42.6	-43.4	18.9	0.00e+00	0	55	0	1294991360	48	3835
2026-01-02 14:41:48.71	272.33	14.66	-42.6	-43.3	19.0	0.00e+00	0	55	0	1300234240	48	3812
2026-01-02 14:41:49.70	272.53	14.69	-42.6	-43.4	19.0	0.00e+00	0	55	0	1305477120	48	3825
2026-01-02 14:41:50.68	272.73	14.71	-42.7	-43.4	18.9	0.00e+00	0	55	0	1311768576	48	3842
2026-01-02 14:41:51.67	272.93	14.73	-42.8	-43.6	18.7	0.00e+00	0	55	0	1317011456	48	3934
2026-01-02 14:41:52.66	273.14	14.75	-42.8	-43.6	18.7	0.00e+00	0	55	0	1322254336	48	3937
2026-01-02 14:41:53.65	273.34	14.77	-42.9	-43.7	18.7	0.00e+00	0	55	0	1328545792	48	3962
2026-01-02 14:41:54.64	273.55	14.79	-42.8	-43.6	18.8	0.00e+00	0	55	0	1333788672	48	3917
2026-01-02 14:41:55.62	273.75	14.81	-42.7	-43.5	18.9	0.00e+00	0	55	0	1339031552	48	3871
2026-01-02 14:41:56.61	273.95	14.83	-42.6	-43.4	18.9	0.00e+00	0	55	0	1344274432	48	3839
2026-01-02 14:41:57.60	274.16	14.85	-42.7	-43.4	18.9	0.00e+00	0	55	0	1350565888	48	3858
2026-01-02 14:41:58.59	274.36	14.87	-42.9	-43.6	18.7	0.00e+00	0	55	0	1355808768	48	3936
2026-01-02 14:41:59.57	274.57	14.89	-42.8	-43.6	18.7	0.00e+00	0	55	0	1361051648	48	3930
2026-01-02 14:42:00.56	274.77	14.91	-42.6	-43.3	19.0	0.00e+00	0	55	0	1367343104	48	3823
2026-01-02 14:42:01.55	274.98	14.93	-42.6	-43.3	19.0	0.00e+00	0	55	0	1372585984	48	3801
2026-01-02 14:42:02.54	275.19	14.95	-42.6	-43.3	19.0	0.00e+00	0	55	0	1377828864	48	3802
2026-01-02 14:42:03.53	275.39	14.97	-42.6	-43.4	19.0	0.00e+00	0	55	0	1383071744	48	3827
2026-01-02 14:42:04.51	275.60	14.99	-42.8	-43.5	18.8	0.00e+00	0	55	0	1389363200	48	3898
2026-01-02 14:42:05.50	275.80	15.00	-42.9	-43.6	18.7	0.00e+00	0	55	0	1394606080	48	3952
2026-01-02 14:42:06.48	276.01	15.02	-42.9	-43.7	18.7	0.00e+00	0	55	0	1400897536	48	3969
2026-01-02 14:42:07.47	276.22	15.04	-43.0	-43.7	18.6	0.00e+00	0	55	0	1406140416	48	4000
2026-01-02 14:42:08.45	276.42	15.05	-43.1	-43.9	18.5	0.00e+00	0	55	0	1411383296	48	4054
2026-01-02 14:42:09.44	276.63	15.07	-43.1	-43.8	18.5	0.00e+00	0	55	0	1416626176	48	4046
2026-01-02 14:42:10.43	276.84	15.08	-43.0	-43.8	18.6	0.00e+00	0	55	0	1421869056	48	4017
2026-01-02 14:42:11.41	277.04	15.10	-42.9	-43.6	18.7	0.00e+00	0	55	0	1428160512	48	3946
2026-01-02 14:42:12.40	277.25	15.12	-42.9	-43.6	18.7	0.00e+00	0	55	0	1433403392	48	3941
2026-01-02 14:42:13.38	277.46	15.13	-42.7	-43.5	18.9	0.00e+00	0	55	0	1438646272	48	3874
2026-01-02 14:42:14.37	277.67	15.14	-42.6	-43.3	19.0	0.00e+00	0	55	0	1444937728	48	3813
2026-01-02 14:42:15.36	277.88	15.16	-42.6	-43.3	19.0	0.00e+00	0	55	0	1450180608	48	3803
2026-01-02 14:42:16.35	278.09	15.17	-42.6	-43.3	19.0	0.00e+00	0	55	0	1455423488	48	3807
2026-01-02 14:42:17.35	278.30	15.19	-42.6	-43.3	19.1	0.00e+00	0	55	0	1461714944	48	3794
2026-01-02 14:42:18.34	278.51	15.20	-42.6	-43.3	19.0	0.00e+00	0	55	0	1466957824	48	3797
2026-01-02 14:42:19.33	278.72	15.21	-42.7	-43.4	18.9	0.00e+00	0	55	0	1472200704	48	3852
2026-01-02 14:42:20.32	278.93	15.22	-42.8	-43.5	18.8	0.00e+00	0	55	0	1478492160	48	3907
2026-01-02 14:42:21.31	279.14	15.24	-42.7	-43.4	19.0	0.00e+00	0	55	0	1483735040	48	3839
2026-01-02 14:42:22.30	279.35	15.25	-42.8	-43.5	18.8	0.00e+00	0	55	0	1488977920	48	3896
2026-01-02 14:42:23.30	279.56	15.26	-43.0	-43.7	18.6	0.00e+00	0	55	0	1495269376	48	3989
2026-01-02 14:42:24.29	279.77	15.27	-43.2	-44.0	18.4	0.00e+00	0	55	0	1500512256	48	4103
2026-01-02 14:42:25.27	279.98	15.28	-43.3	-44.1	18.3	0.00e+00	0	55	0	1505755136	48	4151
2026-01-02 14:42:26.25	280.19	15.29	-43.2	-44.0	18.3	0.00e+00	0	55	0	1510998016	48	4128
2026-01-02 14:42:27.25	280.40	15.30	-43.3	-44.1	18.2	0.00e+00	0	55	0	1517289472	48	4182
2026-01-02 14:42:28.23	280.61	15.31	-43.3	-44.2	18.2	0.00e+00	0	55	0	1522532352	48	4197
2026-01-02 14:42:29.22	280.82	15.32	-43.3	-44.1	18.3	0.00e+00	0	55	0	1527775232	48	4163
2026-01-02 14:42:30.20	281.03	15.33	-43.3	-44.1	18.3	0.00e+00	0	55	0	1534066688	48	4151
2026-01-02 14:42:31.18	281.24	15.34	-43.4	-44.2	18.1	0.00e+00	0	55	0	1539309568	48	4234
2026-01-02 14:42:32.17	281.45	15.34	-43.8	-44.6	17.7	0.00e+00	0	55	0	1544552448	49	4173
2026-01-02 14:42:33.16	281.66	15.35	-43.5	-44.3	18.0	0.00e+00	0	55	0	1550843904	49	4016
2026-01-02 14:42:34.15	281.88	15.36	-43.4	-44.2	18.1	0.00e+00	0	55	0	1556086784	49	3964
2026-01-02 14:42:35.15	282.09	15.36	-43.9	-44.8	17.4	0.00e+00	0	55	0	1561329664	49	4281
2026-01-02 14:42:36.14	282.30	15.37	-43.9	-44.8	17.3	0.00e+00	0	55	0	1567621120	49	4263
2026-01-02 14:42:37.12	282.51	15.38	-44.6	-45.6	16.5	0.00e+00	0	55	0	1572864000	51	4177
2026-01-02 14:42:38.11	282.72	15.38	-44.7	-45.7	16.3	0.00e+00	0	55	0	1578106880	51	4214
2026-01-02 14:42:39.10	282.94	15.39	-45.0	-46.2	15.7	0.00e+00	0	56	0	1583349760	52	4200
2026-01-02 14:42:40.09	283.15	15.39	-45.1	-46.2	15.6	0.00e+00	0	55	0	1589641216	52	4235
2026-01-02 14:42:41.08	283.36	15.40	-45.7	-47.0	14.7	0.00e+00	0	55	0	1594884096	53	4367
2026-01-02 14:42:42.07	283.57	15.40	-45.7	-47.0	14.6	2.20e-06	0	55	0	1600126976	53	4369
2026-01-02 14:42:43.06	283.79	15.41	-46.4	-48.0	13.5	9.10e-06	0	55	0	1606418432	54	4606
2026-01-02 14:42:44.05	284.00	15.41	-46.3	-47.9	13.5	1.48e-05	0	55	0	1611661312	54	4587
2026-01-02 14:42:45.05	284.21	15.41	-47.3	-49.2	12.2	2.10e-04	0	56	0	1616904192	56	4742
2026-01-02 14:42:46.04	284.43	15.42	-47.2	-49.1	12.2	3.50e-04	0	56	0	1623195648	56	4704
2026-01-02 14:42:47.02	284.64	15.42	-47.9	-50.4	10.8	1.79e-03	0	56	0	1628438528	57	5105
2026-01-02 14:42:48.01	284.85	15.42	-47.9	-50.4	10.6	4.11e-03	0	56	0	1633681408	57	5127
2026-01-02 14:42:49.01	285.06	15.42	-48.6	-51.7	9.2	1.57e-02	0	56	0	1639972864	59	5337
2026-01-02 14:42:50.00	285.28	15.43	-48.7	-51.9	8.9	3.24e-02	0	55	0	1645215744	59	5454
2026-01-02 14:42:50.99	285.49	15.43	-48.7	-51.9	8.9	3.51e-02	0	56	0	1650458624	59	5425
2026-01-02 14:42:51.98	285.70	15.43	-49.2	-53.3	7.3	8.42e-02	0	56	0	1656750080	60	6033
2026-01-02 14:42:52.98	285.92	15.43	-49.1	-53.3	7.2	1.47e-01	0	56	0	1661992960	60	6047
2026-01-02 14:42:53.96	286.13	15.43	-49.5	-54.4	6.2	2.48e-01	0	56	0	1667235840	60	6861
2026-01-02 14:42:54.95	286.34	15.43	-49.5	-54.4	6.1	3.29e-01	0	55	0	1672478720	60	6846
2026-01-02 14:42:55.94	286.55	15.43	-49.7	-55.4	5.4	5.50e-01	0	56	0	1677721600	61	7232
2026-01-02 14:42:56.93	286.77	15.42	-49.8	-56.1	5.0	7.54e-01	0	56	0	1678770176	61	7841
2026-01-02 14:42:57.92	286.98	15.42	-49.9	-55.8	5.1	7.64e-01	0	56	0	1678770176	61	7624
2026-01-02 14:42:58.91	287.19	15.42	-49.8	-55.9	5.1	7.64e-01	0	56	0	1679818752	61	7651
2026-01-02 14:42:59.90	287.40	15.42	-49.7	-55.4	5.4	7.29e-01	0	56	0	1680867328	61	7243
2026-01-02 14:43:00.89	287.62	15.42	-49.6	-54.8	5.8	5.06e-01	0	56	0	1684013056	61	6797
2026-01-02 14:43:01.88	287.83	15.41	-49.5	-54.6	6.0	3.83e-01	0	56	0	1689255936	61	6609
2026-01-02 14:43:02.86	288.04	15.41	-49.6	-54.6	6.0	3.52e-01	0	56	0	1695547392	61	6629
2026-01-02 14:43:03.85	288.25	15.41	-49.4	-54.0	6.6	2.86e-01	0	56	0	1700790272	61	6172
2026-01-02 14:43:04.84	288.46	15.40	-49.3	-53.6	6.9	1.91e-01	0	56	0	1706033152	61	5914
2026-01-02 14:43:05.83	288.68	15.40	-49.2	-53.3	7.3	1.54e-01	0	56	0	1712324608	61	5690
2026-01-02 14:43:06.82	288.89	15.39	-49.0	-52.9	7.7	1.13e-01	0	56	0	1717567488	61	5405
2026-01-02 14:43:07.81	289.10	15.39	-48.9	-52.6	8.1	7.97e-02	0	56	0	1722810368	61	5227
2026-01-02 14:43:08.80	289.31	15.38	-48.9	-52.4	8.3	6.48e-02	0	56	0	1729101824	60	5454
2026-01-02 14:43:09.79	289.53	15.38	-48.9	-52.4	8.4	5.82e-02	0	56	0	1734344704	60	5423
2026-01-02 14:43:10.78	289.74	15.37	-48.4	-51.3	9.6	2.85e-02	0	56	0	1739587584	59	5077
2026-01-02 14:43:11.78	289.95	15.36	-48.0	-50.6	10.4	8.28e-03	0	56	0	1744830464	59	4675
2026-01-02 14:43:12.76	290.16	15.36	-47.7	-50.0	11.0	3.00e-03	0	56	0	1751121920	58	4647
2026-01-02 14:43:13.76	290.37	15.35	-47.3	-49.4	11.8	1.12e-03	0	56	0	1756364800	57	4562
2026-01-02 14:43:14.75	290.59	15.34	-46.9	-48.8	12.5	2.36e-04	0	56	0	1762656256	57	4275
2026-01-02 14:43:15.73	290.80	15.33	-46.6	-48.3	13.1	7.78e-05	0	56	0	1767899136	56	4265
2026-01-02 14:43:16.72	291.01	15.32	-46.1	-47.6	13.7	2.28e-05	0	56	0	1773142016	55	4190
2026-01-02 14:43:17.71	291.22	15.32	-45.8	-47.2	14.2	3.40e-06	0	56	0	1778384896	54	4221
2026-01-02 14:43:18.69	291.43	15.31	-45.6	-46.9	14.5	2.20e-06	0	56	0	1784676352	54	4087
2026-01-02 14:43:19.69	291.64	15.30	-45.6	-46.9	14.7	0.00e+00	0	56	0	1789919232	54	4056
2026-01-02 14:43:20.68	291.85	15.29	-45.6	-46.9	14.8	0.00e+00	0	56	0	1795162112	54	4061
2026-01-02 14:43:21.66	292.06	15.28	-45.2	-46.4	15.3	0.00e+00	0	56	0	1801453568	53	4084
2026-01-02 14:43:22.64	292.27	15.27	-44.7	-45.7	16.1	0.00e+00	0	56	0	1806696448	52	4003
2026-01-02 14:43:23.63	292.48	15.26	-44.3	-45.2	16.9	0.00e+00	0	56	0	1811939328	51	3998
2026-01-02 14:43:24.62	292.69	15.24	-44.0	-44.9	17.3	0.00e+00	0	56	0	1817182208	51	3828
2026-01-02 14:43:25.61	292.90	15.23	-43.7	-44.6	17.6	0.00e+00	0	56	0	1823473664	50	3919
2026-01-02 14:43:26.60	293.11	15.22	-43.7	-44.5	17.7	0.00e+00	0	56	0	1828716544	50	3903
2026-01-02 14:43:27.60	293.32	15.21	-43.7	-44.6	17.7	0.00e+00	0	56	0	1833959424	50	3924
2026-01-02 14:43:28.58	293.53	15.20	-43.5	-44.4	17.9	0.00e+00	0	56	0	1840250880	50	3834
2026-01-02 14:43:29.57	293.74	15.18	-43.2	-44.0	18.3	0.00e+00	0	56	0	1845493760	49	3890
2026-01-02 14:43:30.55	293.94	15.17	-43.0	-43.8	18.4	0.00e+00	0	56	0	1850736640	49	3815
2026-01-02 14:43:31.54	294.15	15.16	-42.9	-43.7	18.6	0.00e+00	0	56	0	1857028096	49	3765
2026-01-02 14:43:32.53	294.36	15.14	-43.0	-43.8	18.5	0.00e+00	0	56	0	1862270976	49	3810
2026-01-02 14:43:33.52	294.57	15.13	-43.1	-43.9	18.4	0.00e+00	0	56	0	1867513856	49	3839
2026-01-02 14:43:34.51	294.78	15.11	-43.1	-43.9	18.4	0.00e+00	0	56	0	1872756736	49	3849
2026-01-02 14:43:35.50	294.99	15.10	-43.1	-43.9	18.4	0.00e+00	0	56	0	1879048192	49	3847
2026-01-02 14:43:36.49	295.20	15.08	-43.0	-43.8	18.5	0.00e+00	0	56	0	1884291072	49	3790
2026-01-02 14:43:37.49	295.41	15.07	-43.0	-43.7	18.5	0.00e+00	0	56	0	1890582528	49	3776
2026-01-02 14:43:38.47	295.61	15.05	-43.0	-43.8	18.5	0.00e+00	0	56	0	1895825408	49	3794
2026-01-02 14:43:39.46	295.82	15.03	-43.2	-44.0	18.3	0.00e+00	0	56	0	1901068288	49	3884
2026-01-02 14:43:40.44	296.02	15.02	-43.5	-44.3	18.1	0.00e+00	0	56	0	1906311168	49	4013
2026-01-02 14:43:41.42	296.23	15.00	-43.5	-44.3	18.0	0.00e+00	0	56	0	1911554048	49	4038
2026-01-02 14:43:42.41	296.43	14.98	-43.5	-44.3	18.0	0.00e+00	0	56	0	1917845504	49	4040
2026-01-02 14:43:43.41	296.64	14.96	-43.6	-44.4	17.9	0.00e+00	0	56	0	1923088384	49	4073
2026-01-02 14:43:44.40	296.85	14.95	-43.5	-44.3	18.0	0.00e+00	0	56	0	1929379840	49	4034
2026-01-02 14:43:45.38	297.05	14.93	-43.5	-44.4	17.9	0.00e+00	0	56	0	1934622720	49	4054
2026-01-02 14:43:46.37	297.26	14.91	-43.6	-44.4	17.9	0.00e+00	0	56	0	1939865600	49	4080
2026-01-02 14:43:47.35	297.46	14.89	-43.6	-44.4	17.9	0.00e+00	0	56	0	1945108480	49	4095
2026-01-02 14:43:48.34	297.67	14.87	-43.4	-44.3	18.0	0.00e+00	0	56	0	1951399936	49	4009
2026-01-02 14:43:49.34	297.87	14.85	-43.3	-44.2	18.1	0.00e+00	0	56	0	1956642816	49	3962
2026-01-02 14:43:50.32	298.08	14.83	-43.3	-44.1	18.2	0.00e+00	0	56	0	1961885696	49	3937
2026-01-02 14:43:51.30	298.28	14.81	-43.3	-44.2	18.1	0.00e+00	0	56	0	1968177152	49	3968
2026-01-02 14:43:52.29	298.48	14.79	-43.3	-44.2	18.1	0.00e+00	0	56	0	1973420032	49	3962
2026-01-02 14:43:53.28	298.69	14.77	-43.5	-44.3	18.0	0.00e+00	0	56	0	1978662912	49	4016
2026-01-02 14:43:54.26	298.89	14.75	-43.6	-44.5	17.8	0.00e+00	0	56	0	1983905792	49	4105
2026-01-02 14:43:55.26	299.09	14.73	-43.4	-44.2	18.1	0.00e+00	0	56	0	1990197248	49	3976
2026-01-02 14:43:56.24	299.29	14.70	-43.3	-44.1	18.2	0.00e+00	0	56	0	1995440128	49	3920
2026-01-02 14:43:57.24	299.50	14.68	-43.2	-44.0	18.3	0.00e+00	0	56	0	2001731584	49	3902
2026-01-02 14:43:58.23	299.70	14.66	-43.2	-44.0	18.3	0.00e+00	0	56	0	2006974464	49	3899
2026-01-02 14:43:59.22	299.90	14.64	-43.4	-44.2	18.1	0.00e+00	0	56	0	2012217344	49	3973
2026-01-02 14:44:00.20	300.10	14.61	-43.5	-44.3	18.0	0.00e+00	0	56	0	2017460224	49	4026
2026-01-02 14:44:01.18	300.30	14.59	-43.4	-44.2	18.1	0.00e+00	0	56	0	2023751680	49	3994
2026-01-02 14:44:02.18	300.51	14.56	-43.4	-44.2	18.1	0.00e+00	0	56	0	2028994560	49	3994
2026-01-02 14:44:03.16	300.70	14.54	-43.5	-44.4	17.9	0.00e+00	0	56	0	2034237440	49	4067
2026-01-02 14:44:04.15	300.90	14.52	-43.7	-44.6	17.8	0.00e+00	0	56	0	2040528896	49	4153
2026-01-02 14:44:05.14	301.10	14.49	-43.5	-44.4	17.9	0.00e+00	0	56	0	2045771776	49	4082
2026-01-02 14:44:06.13	301.30	14.47	-43.8	-44.6	17.7	0.00e+00	0	56	0	2051014656	49	4189
2026-01-02 14:44:07.12	301.50	14.44	-44.0	-44.9	17.4	0.00e+00	0	56	0	2056257536	49	4320
2026-01-02 14:44:08.10	301.70	14.42	-43.7	-44.6	17.8	0.00e+00	0	56	0	2062548992	49	4150
2026-01-02 14:44:09.09	301.90	14.39	-43.5	-44.3	18.0	0.00e+00	0	56	0	2067791872	49	4036
2026-01-02 14:44:10.08	302.10	14.36	-43.4	-44.2	18.2	0.00e+00	0	56	0	2073034752	49	3971
2026-01-02 14:44:11.06	302.29	14.34	-43.3	-44.1	18.2	0.00e+00	0	56	0	2079326208	49	3938
2026-01-02 14:44:12.04	302.49	14.31	-43.4	-44.2	18.2	0.00e+00	0	56	0	2084569088	49	3975
2026-01-02 14:44:13.03	302.69	14.28	-43.3	-44.1	18.2	0.00e+00	0	56	0	2089811968	49	3954
2026-01-02 14:44:14.02	302.88	14.26	-43.3	-44.1	18.3	0.00e+00	0	56	0	2095054848	49	3922
2026-01-02 14:44:15.00	303.08	14.23	-43.3	-44.1	18.2	0.00e+00	0	56	0	2101346304	49	3934
2026-01-02 14:44:15.99	303.28	14.20	-43.2	-43.9	18.4	0.00e+00	0	56	0	2106589184	49	3865
2026-01-02 14:44:16.98	303.47	14.17	-43.2	-44.0	18.3	0.00e+00	0	56	0	2111832064	49	3873
2026-01-02 14:44:17.97	303.67	14.15	-43.3	-44.1	18.2	0.00e+00	0	56	0	2118123520	49	3942
2026-01-02 14:44:18.95	303.86	14.12	-43.6	-44.4	17.9	0.00e+00	0	56	0	2123366400	49	4073
2026-01-02 14:44:19.95	304.06	14.09	-43.6	-44.4	17.9	0.00e+00	0	56	0	2128609280	49	4069
2026-01-02 14:44:20.93	304.25	14.06	-43.5	-44.4	18.0	0.00e+00	0	56	0	2134900736	49	4054
2026-01-02 14:44:21.92	304.44	14.03	-43.6	-44.4	17.9	0.00e+00	0	56	0	2140143616	49	4086
2026-01-02 14:44:22.91	304.64	14.00	-43.5	-44.3	18.1	0.00e+00	0	56	0	2145386496	49	4018
2026-01-02 14:44:23.89	304.83	13.97	-43.4	-44.2	18.1	0.00e+00	0	56	0	2150629376	49	3987
2026-01-02 14:44:24.88	305.02	13.94	-43.4	-44.3	18.1	0.00e+00	0	56	0	2156920832	49	4012
2026-01-02 14:44:25.87	305.21	13.91	-43.7	-44.6	17.8	0.00e+00	0	56	0	2162163712	49	4157
2026-01-02 14:44:26.86	305.41	13.88	-43.6	-44.4	17.9	0.00e+00	0	56	0	2167406592	49	4075
2026-01-02 14:44:27.84	305.60	13.85	-43.4	-44.2	18.1	0.00e+00	0	56	0	2173698048	49	3990
2026-01-02 14:44:28.83	305.79	13.82	-43.4	-44.2	18.1	0.00e+00	0	56	0	2178940928	49	3969
2026-01-02 14:44:29.81	305.98	13.78	-43.3	-44.1	18.2	0.00e+00	0	56	0	2184183808	49	3949
2026-01-02 14:44:30.79	306.17	13.75	-43.4	-44.2	18.2	0.00e+00	0	56	0	2189426688	49	3977
2026-01-02 14:44:31.78	306.36	13.72	-43.4	-44.2	18.1	0.00e+00	0	56	0	2195718144	49	3974
2026-01-02 14:44:32.76	306.54	13.69	-43.4	-44.2	18.1	0.00e+00	0	56	0	2200961024	49	3991
2026-01-02 14:44:33.74	306.73	13.66	-43.6	-44.5	17.8	0.00e+00	0	56	0	2206203904	49	4110
2026-01-02 14:44:34.73	306.92	13.62	-43.6	-44.4	17.9	0.00e+00	0	56	0	2212495360	49	4063
2026-01-02 14:44:35.73	307.11	13.59	-43.7	-44.6	17.8	0.00e+00	0	56	0	2217738240	49	4155
2026-01-02 14:44:36.71	307.30	13.56	-43.6	-44.5	17.8	0.00e+00	0	56	0	2222981120	49	4119
2026-01-02 14:44:37.70	307.48	13.52	-43.8	-44.7	17.7	0.00e+00	0	56	0	2229272576	49	4204
2026-01-02 14:44:38.68	307.67	13.49	-43.8	-44.6	17.7	0.00e+00	0	56	0	2234515456	49	4181
2026-01-02 14:44:39.66	307.86	13.46	-43.8	-44.6	17.7	0.00e+00	0	56	0	2239758336	49	4186
2026-01-02 14:44:40.65	308.04	13.42	-43.9	-44.8	17.6	0.00e+00	0	56	0	2245001216	49	4248
2026-01-02 14:44:41.63	308.23	13.39	-44.1	-44.9	17.4	0.00e+00	0	56	0	2251292672	49	4336
2026-01-02 14:44:42.62	308.41	13.35	-44.1	-45.0	17.4	0.00e+00	0	56	0	2256535552	50	4102
2026-01-02 14:44:43.61	308.60	13.32	-43.9	-44.8	17.6	0.00e+00	0	56	0	2261778432	50	4009
2026-01-02 14:44:44.59	308.78	13.28	-44.1	-45.0	17.4	0.00e+00	0	56	0	2268069888	50	4119
2026-01-02 14:44:45.58	308.96	13.25	-44.1	-45.0	17.3	0.00e+00	0	56	0	2273312768	50	4143
2026-01-02 14:44:46.57	309.15	13.21	-43.8	-44.7	17.6	0.00e+00	0	56	0	2278555648	50	3980
2026-01-02 14:44:47.56	309.33	13.18	-43.6	-44.5	17.8	0.00e+00	0	56	0	2283798528	50	3900
2026-01-02 14:44:48.55	309.52	13.14	-43.7	-44.5	17.9	0.00e+00	0	56	0	2290089984	50	3890
2026-01-02 14:44:49.55	309.70	13.11	-43.8	-44.6	17.7	0.00e+00	0	56	0	2295332864	50	3954
2026-01-02 14:44:50.54	309.88	13.07	-44.0	-44.8	17.5	0.00e+00	0	56	0	2300575744	50	4049
2026-01-02 14:44:51.53	310.06	13.03	-43.9	-44.8	17.5	0.00e+00	0	56	0	2306867200	50	4032
2026-01-02 14:44:52.52	310.25	13.00	-43.7	-44.6	17.7	0.00e+00	0	56	0	2312110080	50	3943
2026-01-02 14:44:53.51	310.43	12.96	-43.8	-44.7	17.6	0.00e+00	0	56	0	2317352960	50	3970
2026-01-02 14:44:54.50	310.61	12.92	-43.9	-44.8	17.6	0.00e+00	0	56	0	2323644416	50	4013
2026-01-02 14:44:55.48	310.79	12.89	-44.0	-44.9	17.5	0.00e+00	0	56	0	2328887296	50	4053
2026-01-02 14:44:56.47	310.96	12.85	-44.0	-44.9	17.5	0.00e+00	0	56	0	2334130176	50	4061
2026-01-02 14:44:57.45	311.14	12.81	-43.8	-44.7	17.6	0.00e+00	0	56	0	2339373056	50	3976
2026-01-02 14:44:58.44	311.32	12.77	-43.7	-44.6	17.7	0.00e+00	0	56	0	2345664512	50	3938
2026-01-02 14:44:59.42	311.50	12.73	-43.7	-44.6	17.7	0.00e+00	0	56	0	2350907392	50	3942
2026-01-02 14:45:00.41	311.68	12.70	-43.8	-44.7	17.6	0.00e+00	0	56	0	2356150272	50	3994
2026-01-02 14:45:01.40	311.85	12.66	-43.8	-44.7	17.6	0.00e+00	0	56	0	2362441728	50	3983
2026-01-02 14:45:02.39	312.03	12.62	-43.9	-44.8	17.6	0.00e+00	0	56	0	2367684608	50	4013
2026-01-02 14:45:03.39	312.21	12.58	-44.0	-44.9	17.4	0.00e+00	0	56	0	2372927488	50	4086
2026-01-02 14:45:04.38	312.38	12.54	-44.1	-45.0	17.3	0.00e+00	0	56	0	2379218944	50	4127
2026-01-02 14:45:05.38	312.56	12.50	-43.9	-44.8	17.4	0.00e+00	0	56	0	2384461824	50	4045
2026-01-02 14:45:06.37	312.74	12.46	-43.9	-44.7	17.6	0.00e+00	0	56	0	2389704704	50	4002
2026-01-02 14:45:07.36	312.91	12.42	-43.8	-44.7	17.6	0.00e+00	0	56	0	2395996160	50	3980
2026-01-02 14:45:08.35	313.09	12.38	-43.9	-44.7	17.6	0.00e+00	0	56	0	2401239040	50	3999
2026-01-02 14:45:09.34	313.26	12.34	-44.0	-44.9	17.4	0.00e+00	0	56	0	2406481920	50	4081
2026-01-02 14:45:10.33	313.43	12.30	-44.0	-44.9	17.4	0.00e+00	0	56	0	2411724800	50	4079
2026-01-02 14:45:11.31	313.60	12.26	-43.9	-44.8	17.5	0.00e+00	0	56	0	2418016256	50	4017
2026-01-02 14:45:12.31	313.78	12.22	-43.8	-44.7	17.6	0.00e+00	0	56	0	2423259136	50	3968
2026-01-02 14:45:13.29	313.95	12.18	-44.0	-44.9	17.4	0.00e+00	0	56	0	2428502016	50	4052
2026-01-02 14:45:14.29	314.12	12.14	-44.1	-45.0	17.3	0.00e+00	0	56	0	2434793472	50	4145
2026-01-02 14:45:15.27	314.29	12.10	-44.1	-45.0	17.3	0.00e+00	0	56	0	2440036352	50	4117
2026-01-02 14:45:16.26	314.46	12.06	-44.0	-44.9	17.5	0.00e+00	0	56	0	2445279232	50	4055
2026-01-02 14:45:17.25	314.63	12.02	-44.0	-44.9	17.4	0.00e+00	0	56	0	2451570688	50	4056
2026-01-02 14:45:18.23	314.80	11.98	-43.9	-44.8	17.4	0.00e+00	0	56	0	2456813568	50	4033
2026-01-02 14:45:19.23	314.97	11.94	-43.9	-44.8	17.4	0.00e+00	0	56	0	2462056448	50	4042
2026-01-02 14:45:20.22	315.14	11.89	-44.0	-44.9	17.4	0.00e+00	0	57	0	2467299328	50	4071
2026-01-02 14:45:21.20	315.30	11.85	-44.1	-45.0	17.3	0.00e+00	0	56	0	2473590784	50	4117
2026-01-02 14:45:22.19	315.47	11.81	-44.0	-44.9	17.4	0.00e+00	0	56	0	2478833664	50	4055
2026-01-02 14:45:23.19	315.64	11.77	-44.0	-44.9	17.4	0.00e+00	0	57	0	2485125120	50	4084
2026-01-02 14:45:24.17	315.81	11.73	-44.0	-45.0	17.3	0.00e+00	0	56	0	2490368000	50	4102
2026-01-02 14:45:25.16	315.97	11.68	-44.0	-44.9	17.4	0.00e+00	0	56	0	2495610880	50	4078
2026-01-02 14:45:26.15	316.14	11.64	-44.1	-45.0	17.3	0.00e+00	0	56	0	2500853760	50	4100
2026-01-02 14:45:27.14	316.30	11.60	-44.1	-45.1	17.2	0.00e+00	0	57	0	2507145216	50	4146
2026-01-02 14:45:28.12	316.47	11.56	-44.1	-45.0	17.3	0.00e+00	0	57	0	2512388096	50	4100
2026-01-02 14:45:29.11	316.63	11.51	-43.9	-44.8	17.5	0.00e+00	0	57	0	2517630976	50	4010
2026-01-02 14:45:30.10	316.80	11.47	-43.8	-44.7	17.6	0.00e+00	0	56	0	2523922432	50	3970
2026-01-02 14:45:31.08	316.96	11.43	-43.9	-44.8	17.5	0.00e+00	0	56	0	2529165312	50	4031
2026-01-02 14:45:32.07	317.12	11.38	-44.1	-45.0	17.3	0.00e+00	0	56	0	2534408192	50	4124
2026-01-02 14:45:33.06	317.28	11.34	-44.0	-44.9	17.3	0.00e+00	0	57	0	2539651072	50	4092
2026-01-02 14:45:34.06	317.45	11.30	-44.2	-45.1	17.1	0.00e+00	0	56	0	2545942528	50	4185
2026-01-02 14:45:35.05	317.61	11.25	-44.4	-45.3	16.9	0.00e+00	0	57	0	2551185408	50	4263
2026-01-02 14:45:36.04	317.77	11.21	-44.3	-45.2	17.0	0.00e+00	0	57	0	2557476864	50	4231
2026-01-02 14:45:37.03	317.93	11.16	-44.4	-45.4	16.9	0.00e+00	0	57	0	2562719744	50	4304
2026-01-02 14:45:38.02	318.09	11.12	-44.7	-45.7	16.5	0.00e+00	0	56	0	2567962624	51	4214
2026-01-02 14:45:39.01	318.25	11.08	-44.6	-45.5	16.7	0.00e+00	0	56	0	2573205504	51	4143
2026-01-02 14:45:40.01	318.41	11.03	-44.7	-45.7	16.5	0.00e+00	0	57	0	2579496960	51	4242
2026-01-02 14:45:41.00	318.57	10.99	-44.9	-46.0	16.3	0.00e+00	0	56	0	2584739840	51	4357
2026-01-02 14:45:41.99	318.73	10.94	-44.8	-45.8	16.4	0.00e+00	0	57	0	2589982720	51	4265
2026-01-02 14:45:42.98	318.89	10.90	-44.7	-45.7	16.5	0.00e+00	0	57	0	2596274176	51	4212
2026-01-02 14:45:43.97	319.04	10.85	-44.7	-45.7	16.5	0.00e+00	0	57	0	2601517056	51	4238
2026-01-02 14:45:44.95	319.20	10.81	-44.9	-46.0	16.2	0.00e+00	0	56	0	2606759936	51	4360
2026-01-02 14:45:45.94	319.36	10.76	-44.8	-45.9	16.4	0.00e+00	0	56	0	2613051392	51	4298
2026-01-02 14:45:46.93	319.51	10.72	-45.0	-46.1	16.2	0.00e+00	0	57	0	2618294272	51	4400
2026-01-02 14:45:47.91	319.67	10.67	-44.9	-45.9	16.4	0.00e+00	0	57	0	2623537152	51	4311
2026-01-02 14:45:48.91	319.82	10.63	-44.6	-45.6	16.6	0.00e+00	0	57	0	2628780032	51	4189
2026-01-02 14:45:49.90	319.98	10.58	-44.6	-45.5	16.7	0.00e+00	0	57	0	2635071488	51	4140
2026-01-02 14:45:50.88	320.13	10.54	-44.6	-45.5	16.6	0.00e+00	0	57	0	2640314368	51	4142
2026-01-02 14:45:51.88	320.29	10.49	-44.5	-45.5	16.7	0.00e+00	0	56	0	2645557248	51	4110
2026-01-02 14:45:52.87	320.44	10.45	-44.6	-45.6	16.6	0.00e+00	0	57	0	2651848704	51	4177
2026-01-02 14:45:53.86	320.59	10.40	-44.4	-45.4	16.8	0.00e+00	0	56	0	2657091584	51	4077
2026-01-02 14:45:54.84	320.74	10.36	-44.3	-45.3	16.9	0.00e+00	0	57	0	2662334464	51	4020
2026-01-02 14:45:55.83	320.89	10.31	-44.3	-45.3	17.0	0.00e+00	0	57	0	2668625920	51	4008
2026-01-02 14:45:56.82	321.05	10.26	-44.2	-45.2	17.0	0.00e+00	0	57	0	2673868800	51	3973
2026-01-02 14:45:57.81	321.20	10.22	-44.3	-45.3	16.9	0.00e+00	0	57	0	2679111680	51	4031
2026-01-02 14:45:58.80	321.35	10.17	-44.5	-45.5	16.7	0.00e+00	0	57	0	2685403136	51	4100
2026-01-02 14:45:59.78	321.50	10.13	-44.4	-45.4	16.8	0.00e+00	0	57	0	2690646016	51	4094
2026-01-02 14:46:00.77	321.65	10.08	-44.5	-45.5	16.7	0.00e+00	0	57	0	2695888896	51	4126
2026-01-02 14:46:01.75	321.79	10.03	-44.7	-45.7	16.5	0.00e+00	0	57	0	2701131776	51	4216
2026-01-02 14:46:02.74	321.94	9.99	-44.6	-45.6	16.5	0.00e+00	0	57	0	2707423232	51	4184
2026-01-02 14:46:03.73	322.09	9.94	-44.5	-45.5	16.7	0.00e+00	0	57	0	2712666112	51	4117
2026-01-02 14:46:04.72	322.24	9.89	-44.6	-45.6	16.6	0.00e+00	0	57	0	2717908992	51	4155
2026-01-02 14:46:05.72	322.39	9.85	-44.6	-45.7	16.5	0.00e+00	0	57	0	2724200448	51	4196
2026-01-02 14:46:06.70	322.53	9.80	-44.8	-45.9	16.3	0.00e+00	0	57	0	2729443328	51	4306
2026-01-02 14:46:07.69	322.68	9.75	-44.8	-45.9	16.3	0.00e+00	0	57	0	2734686208	51	4309
2026-01-02 14:46:08.68	322.83	9.71	-44.6	-45.6	16.5	0.00e+00	0	56	0	2739929088	51	4191
2026-01-02 14:46:09.66	322.97	9.66	-44.6	-45.6	16.6	0.00e+00	0	57	0	2746220544	51	4154
2026-01-02 14:46:10.66	323.12	9.61	-44.7	-45.7	16.5	0.00e+00	0	57	0	2751463424	51	4207
2026-01-02 14:46:11.65	323.26	9.57	-44.8	-45.9	16.3	0.00e+00	0	57	0	2756706304	51	4292
2026-01-02 14:46:12.63	323.40	9.52	-44.8	-45.9	16.2	0.00e+00	0	57	0	2762997760	51	4332
2026-01-02 14:46:13.62	323.55	9.47	-44.8	-45.9	16.2	0.00e+00	0	57	0	2768240640	51	4330
2026-01-02 14:46:14.62	323.69	9.42	-44.9	-46.0	16.2	0.00e+00	0	57	0	2773483520	51	4367
2026-01-02 14:46:15.60	323.83	9.38	-45.0	-46.1	15.9	0.00e+00	0	57	0	2779774976	52	4187
2026-01-02 14:46:16.59	323.98	9.33	-45.2	-46.3	15.7	0.00e+00	0	57	0	2785017856	52	4284
2026-01-02 14:46:17.58	324.12	9.28	-45.1	-46.3	15.7	0.00e+00	0	57	0	2790260736	52	4260
2026-01-02 14:46:18.58	324.26	9.23	-45.1	-46.2	15.9	0.00e+00	0	57	0	2796552192	52	4232
2026-01-02 14:46:19.57	324.40	9.19	-45.2	-46.3	15.8	0.00e+00	0	57	0	2801795072	52	4278
2026-01-02 14:46:20.56	324.54	9.14	-45.0	-46.1	16.0	0.00e+00	0	56	0	2807037952	52	4162
2026-01-02 14:46:21.54	324.68	9.09	-44.9	-46.0	16.0	0.00e+00	0	57	0	2813329408	52	4129
2026-01-02 14:46:22.53	324.82	9.04	-44.9	-45.9	16.1	0.00e+00	0	57	0	2818572288	52	4095
2026-01-02 14:46:23.52	324.96	8.99	-45.0	-46.1	15.9	0.00e+00	0	57	0	2823815168	52	4175
2026-01-02 14:46:24.51	325.10	8.95	-45.2	-46.3	15.7	0.00e+00	0	57	0	2829058048	52	4281
2026-01-02 14:46:25.50	325.24	8.90	-45.3	-46.4	15.6	0.00e+00	0	57	0	2835349504	52	4329
2026-01-02 14:46:26.49	325.37	8.85	-45.2	-46.4	15.6	0.00e+00	0	56	0	2840592384	52	4298
2026-01-02 14:46:27.48	325.51	8.80	-45.5	-46.7	15.3	0.00e+00	0	56	0	2845835264	52	4474
2026-01-02 14:46:28.46	325.65	8.76	-45.6	-46.8	15.2	0.00e+00	0	57	0	2852126720	53	4262
2026-01-02 14:46:29.44	325.78	8.71	-45.2	-46.4	15.6	0.00e+00	0	57	0	2857369600	53	4075
2026-01-02 14:46:30.42	325.92	8.66	-45.1	-46.2	15.8	0.00e+00	0	57	0	2862612480	53	3984
2026-01-02 14:46:31.42	326.06	8.61	-45.1	-46.2	15.8	0.00e+00	0	57	0	2867855360	53	3988
2026-01-02 14:46:32.41	326.19	8.56	-45.3	-46.4	15.6	0.00e+00	0	57	0	2874146816	53	4094
2026-01-02 14:46:33.40	326.33	8.51	-45.4	-46.6	15.4	0.00e+00	0	57	0	2879389696	53	4182
2026-01-02 14:46:34.39	326.46	8.47	-45.3	-46.5	15.5	0.00e+00	0	57	0	2885681152	53	4105
2026-01-02 14:46:35.38	326.59	8.42	-45.1	-46.3	15.7	0.00e+00	0	57	0	2890924032	53	4030
2026-01-02 14:46:36.37	326.73	8.37	-45.1	-46.2	15.7	0.00e+00	0	57	0	2896166912	53	3997
2026-01-02 14:46:37.35	326.86	8.32	-45.2	-46.3	15.6	0.00e+00	0	57	0	2901409792	53	4050
2026-01-02 14:46:38.35	326.99	8.27	-45.2	-46.4	15.6	0.00e+00	0	57	0	2907701248	53	4076
2026-01-02 14:46:39.33	327.13	8.22	-45.3	-46.4	15.5	0.00e+00	0	57	0	2912944128	53	4083
2026-01-02 14:46:40.33	327.26	8.18	-45.1	-46.2	15.8	0.00e+00	0	57	0	2918187008	53	3975
2026-01-02 14:46:41.31	327.39	8.13	-44.9	-46.0	15.9	0.00e+00	0	57	0	2924478464	52	4140
2026-01-02 14:46:42.30	327.52	8.08	-44.8	-45.9	16.1	0.00e+00	0	57	0	2929721344	52	4074
2026-01-02 14:46:43.29	327.65	8.03	-45.1	-46.2	15.8	0.00e+00	0	57	0	2934964224	52	4209
2026-01-02 14:46:44.28	327.78	7.98	-45.0	-46.1	15.8	0.00e+00	0	57	0	2940207104	52	4183
2026-01-02 14:46:45.26	327.91	7.93	-45.0	-46.1	15.9	0.00e+00	0	57	0	2946498560	52	4156
2026-01-02 14:46:46.25	328.04	7.88	-45.0	-46.1	15.8	0.00e+00	0	57	0	2951741440	52	4183
2026-01-02 14:46:47.24	328.17	7.84	-45.2	-46.4	15.6	0.00e+00	0	57	0	2956984320	52	4295
2026-01-02 14:46:48.23	328.30	7.79	-45.1	-46.2	15.7	0.00e+00	0	57	0	2963275776	52	4217
2026-01-02 14:46:49.22	328.42	7.74	-45.3	-46.5	15.4	0.00e+00	0	57	0	2968518656	52	4367
2026-01-02 14:46:50.21	328.55	7.69	-45.6	-46.8	15.1	0.00e+00	0	57	0	2973761536	53	4291
2026-01-02 14:46:51.19	328.68	7.64	-45.3	-46.5	15.4	0.00e+00	0	57	0	2980052992	53	4114
2026-01-02 14:46:52.18	328.81	7.59	-45.2	-46.4	15.6	0.00e+00	0	56	0	2985295872	53	4062
2026-01-02 14:46:53.17	328.93	7.54	-45.2	-46.4	15.5	0.00e+00	0	57	0	2990538752	53	4069
2026-01-02 14:46:54.16	329.06	7.49	-45.3	-46.5	15.4	0.00e+00	0	57	0	2995781632	53	4131
2026-01-02 14:46:55.15	329.18	7.44	-45.4	-46.6	15.3	0.00e+00	0	57	0	3002073088	53	4187
2026-01-02 14:46:56.14	329.31	7.40	-45.6	-46.9	15.0	0.00e+00	0	57	0	3007315968	53	4303
2026-01-02 14:46:57.14	329.44	7.35	-45.4	-46.6	15.2	0.00e+00	0	57	0	3013607424	53	4187
2026-01-02 14:46:58.13	329.56	7.30	-45.3	-46.6	15.3	0.00e+00	0	57	0	3018850304	53	4151
2026-01-02 14:46:59.11	329.68	7.25	-45.2	-46.4	15.5	0.00e+00	0	57	0	3024093184	53	4065
2026-01-02 14:47:00.10	329.81	7.20	-45.3	-46.5	15.4	0.00e+00	0	57	0	3029336064	53	4125
2026-01-02 14:47:01.09	329.93	7.15	-45.6	-46.8	15.1	0.00e+00	0	57	0	3035627520	53	4266
2026-01-02 14:47:02.08	330.05	7.10	-45.3	-46.4	15.4	0.00e+00	0	57	0	3040870400	53	4089
2026-01-02 14:47:03.07	330.18	7.05	-45.3	-46.5	15.3	0.00e+00	0	57	0	3046113280	53	4126
2026-01-02 14:47:04.06	330.30	7.00	-45.3	-46.5	15.3	0.00e+00	0	57	0	3052404736	53	4125
2026-01-02 14:47:05.05	330.42	6.95	-45.2	-46.4	15.4	0.00e+00	0	57	0	3057647616	53	4075
2026-01-02 14:47:06.04	330.54	6.90	-45.3	-46.4	15.4	0.00e+00	0	57	0	3062890496	53	4081
2026-01-02 14:47:07.03	330.66	6.86	-45.3	-46.5	15.3	1.10e-06	0	57	0	3068133376	53	4136
2026-01-02 14:47:08.02	330.78	6.81	-45.1	-46.3	15.5	0.00e+00	0	57	0	3074424832	53	4041
2026-01-02 14:47:09.00	330.90	6.76	-45.2	-46.4	15.4	0.00e+00	0	57	0	3079667712	53	4061
2026-01-02 14:47:09.99	331.02	6.71	-45.3	-46.5	15.3	0.00e+00	0	56	0	3085959168	53	4109
2026-01-02 14:47:10.98	331.14	6.66	-45.3	-46.5	15.3	0.00e+00	0	57	0	3091202048	53	4138
2026-01-02 14:47:11.96	331.26	6.61	-45.5	-46.7	15.1	0.00e+00	0	57	0	3096444928	53	4231
2026-01-02 14:47:12.95	331.38	6.56	-45.3	-46.6	15.2	0.00e+00	0	57	0	3101687808	53	4151
2026-01-02 14:47:13.94	331.49	6.51	-45.3	-46.6	15.2	0.00e+00	0	57	0	3107979264	53	4158
2026-01-02 14:47:14.93	331.61	6.46	-45.4	-46.6	15.1	0.00e+00	0	57	0	3113222144	53	4193
2026-01-02 14:47:15.91	331.73	6.41	-45.6	-47.0	14.8	1.10e-06	0	57	0	3118465024	53	4345
2026-01-02 14:47:16.91	331.85	6.36	-45.5	-46.8	15.0	0.00e+00	0	57	0	3124756480	53	4251
2026-01-02 14:47:17.89	331.96	6.32	-45.6	-46.8	14.9	0.00e+00	0	57	0	3129999360	53	4275
2026-01-02 14:47:18.89	332.08	6.27	-45.6	-46.9	14.8	0.00e+00	0	57	0	3135242240	53	4319
2026-01-02 14:47:19.88	332.20	6.22	-45.7	-47.1	14.7	0.00e+00	0	57	0	3140485120	53	4392
2026-01-02 14:47:20.87	332.31	6.17	-45.7	-47.1	14.6	0.00e+00	0	57	0	3146776576	53	4406
2026-01-02 14:47:21.85	332.43	6.12	-45.9	-47.3	14.3	0.00e+00	0	57	0	3152019456	53	4537
2026-01-02 14:47:22.84	332.54	6.07	-45.9	-47.2	14.5	0.00e+00	0	57	0	3157262336	53	4478
2026-01-02 14:47:23.83	332.66	6.02	-46.0	-47.4	14.4	0.00e+00	0	57	0	3163553792	53	4565
2026-01-02 14:47:24.81	332.77	5.97	-45.9	-47.3	14.4	2.20e-06	0	57	0	3168796672	53	4515
2026-01-02 14:47:25.80	332.88	5.92	-45.8	-47.2	14.5	1.10e-06	0	57	0	3174039552	53	4452
2026-01-02 14:47:26.79	333.00	5.87	-46.0	-47.4	14.3	2.20e-06	0	57	0	3180331008	53	4577
2026-01-02 14:47:27.77	333.11	5.82	-45.8	-47.2	14.4	0.00e+00	0	57	0	3185573888	53	4474
2026-01-02 14:47:28.76	333.22	5.77	-45.8	-47.1	14.5	1.10e-06	0	57	0	3190816768	53	4424
2026-01-02 14:47:29.75	333.33	5.73	-45.8	-47.2	14.4	0.00e+00	0	57	0	3196059648	53	4462
2026-01-02 14:47:30.74	333.44	5.68	-45.8	-47.1	14.5	0.00e+00	0	57	0	3202351104	53	4418
2026-01-02 14:47:31.73	333.56	5.63	-45.7	-47.1	14.6	2.20e-06	0	57	0	3207593984	53	4400
2026-01-02 14:47:32.72	333.67	5.58	-45.7	-47.0	14.7	0.00e+00	0	57	0	3212836864	53	4353
2026-01-02 14:47:33.71	333.78	5.53	-45.8	-47.1	14.5	2.20e-06	0	57	0	3219128320	53	4426
2026-01-02 14:47:34.69	333.89	5.48	-45.8	-47.2	14.4	2.20e-06	0	57	0	3224371200	53	4452
2026-01-02 14:47:35.69	334.00	5.43	-45.6	-47.0	14.6	0.00e+00	0	57	0	3229614080	53	4353
2026-01-02 14:47:36.68	334.11	5.38	-45.6	-47.0	14.6	2.20e-06	0	57	0	3234856960	53	4348
2026-01-02 14:47:37.67	334.22	5.33	-45.8	-47.1	14.4	0.00e+00	0	57	0	3241148416	53	4426
2026-01-02 14:47:38.65	334.33	5.28	-46.0	-47.4	14.2	3.40e-06	0	57	0	3246391296	53	4578
2026-01-02 14:47:39.64	334.44	5.23	-46.0	-47.4	14.1	1.10e-06	0	57	0	3252682752	53	4588
2026-01-02 14:47:40.63	334.54	5.18	-45.9	-47.3	14.2	2.20e-06	0	57	0	3257925632	53	4537
2026-01-02 14:47:41.62	334.65	5.14	-45.9	-47.4	14.1	2.20e-06	0	57	0	3263168512	53	4560
2026-01-02 14:47:42.60	334.76	5.09	-45.9	-47.4	14.2	2.20e-06	0	57	0	3268411392	54	4301
2026-01-02 14:47:43.59	334.87	5.04	-45.8	-47.2	14.3	3.40e-06	0	57	0	3274702848	54	4232
2026-01-02 14:47:44.57	334.97	4.99	-51.9	-61.9	3.8	8.31e-01	0	57	104	3277848576	65	12215
2026-01-02 14:47:45.56	335.08	4.94	-52.2	-62.6	3.8	8.47e-01	0	57	104	3277848576	66	12414
2026-01-02 14:47:46.55	335.18	4.89	-52.4	-63.1	3.8	8.46e-01	0	57	104	3277848576	66	13257
2026-01-02 14:47:47.54	335.29	4.84	-52.4	-63.3	3.8	8.46e-01	0	57	104	3277848576	66	13520
2026-01-02 14:47:48.53	335.40	4.79	-52.6	-63.4	3.8	8.46e-01	0	57	104	3277848576	67	12831
2026-01-02 14:47:49.52	335.50	4.74	-52.5	-63.2	3.8	8.47e-01	0	57	104	3277848576	67	12659
2026-01-02 14:47:50.51	335.61	4.69	-52.5	-63.3	3.8	8.46e-01	0	57	104	3277848576	66	13460
2026-01-02 14:47:51.50	335.71	4.65	-52.8	-63.5	3.8	8.46e-01	0	57	104	3277848576	67	13090
2026-01-02 14:47:52.50	335.82	4.60	-52.7	-63.6	3.8	8.46e-01	0	57	104	3277848576	67	13164
2026-01-02 14:47:53.48	335.92	4.55	-52.9	-63.6	3.8	8.45e-01	0	57	104	3277848576	67	13217
2026-01-02 14:47:54.47	336.02	4.50	-52.9	-63.7	3.8	8.46e-01	0	57	104	3277848576	67	13274
2026-01-02 14:47:55.46	336.13	4.45	-52.8	-63.7	3.8	8.46e-01	0	57	104	3277848576	67	13291
2026-01-02 14:47:56.45	336.23	4.40	-52.9	-63.7	3.8	8.45e-01	0	57	104	3277848576	67	13341
2026-01-02 14:47:57.44	336.33	4.35	-53.0	-63.7	3.8	8.45e-01	0	57	104	3277848576	67	13377
2026-01-02 14:47:58.43	336.44	4.30	-52.9	-63.7	3.8	8.45e-01	0	57	104	3277848576	67	13383
2026-01-02 14:47:59.42	336.54	4.25	-53.0	-63.8	3.8	8.46e-01	0	57	104	3277848576	67	13420
2026-01-02 14:48:00.41	336.64	4.20	-53.0	-63.8	3.8	8.46e-01	0	57	104	3277848576	67	13429
2026-01-02 14:48:01.40	336.74	4.16	-52.9	-63.8	3.8	8.46e-01	0	57	104	3277848576	67	13472
2026-01-02 14:48:02.39	336.84	4.11	-53.1	-63.8	3.8	8.44e-01	0	57	104	3277848576	67	13512
2026-01-02 14:48:03.38	336.94	4.06	-53.1	-63.8	3.8	8.47e-01	0	57	104	3277848576	67	13526
2026-01-02 14:48:04.37	337.04	4.01	-53.2	-64.0	3.8	8.46e-01	0	57	104	3277848576	68	12970
2026-01-02 14:48:05.37	337.14	3.96	-53.2	-63.9	3.8	8.45e-01	0	57	104	3277848576	68	12947
2026-01-02 14:48:06.35	337.24	3.91	-53.2	-63.9	3.8	8.47e-01	0	57	104	3277848576	68	12952
2026-01-02 14:48:07.35	337.34	3.86	-53.1	-64.0	3.8	8.46e-01	0	57	104	3277848576	68	12979
2026-01-02 14:48:08.33	337.44	3.81	-53.2	-64.0	3.8	8.46e-01	0	57	104	3277848576	68	12979
2026-01-02 14:48:09.32	337.54	3.77	-53.1	-64.0	3.8	8.46e-01	0	57	104	3277848576	68	12961
2026-01-02 14:48:10.31	337.64	3.72	-53.2	-63.9	3.8	8.46e-01	0	57	104	3277848576	68	12956
2026-01-02 14:48:11.30	337.74	3.67	-53.2	-64.0	3.8	8.47e-01	0	57	104	3277848576	68	13000
2026-01-02 14:48:12.29	337.83	3.62	-53.2	-63.9	3.8	8.46e-01	0	57	104	3277848576	68	12929
2026-01-02 14:48:13.28	337.93	3.57	-53.2	-63.9	3.8	8.46e-01	0	57	104	3277848576	68	12904
2026-01-02 14:48:14.26	338.03	3.52	-53.1	-63.9	3.8	8.46e-01	0	57	104	3277848576	68	12904
2026-01-02 14:48:15.25	338.13	3.47	-53.0	-63.9	3.8	8.47e-01	0	57	104	3277848576	68	12926
2026-01-02 14:48:16.25	338.22	3.43	-53.1	-63.9	3.8	8.46e-01	0	57	104	3277848576	68	12898
2026-01-02 14:48:17.24	338.32	3.38	-52.9	-63.9	3.8	8.46e-01	0	57	104	3277848576	68	12959
2026-01-02 14:48:18.22	338.42	3.33	-53.1	-63.9	3.8	8.47e-01	0	57	104	3277848576	68	12912
2026-01-02 14:48:19.20	338.51	3.28	-53.2	-63.9	3.8	8.46e-01	0	57	104	3277848576	68	12946
2026-01-02 14:48:20.19	338.61	3.23	-53.1	-63.9	3.8	8.46e-01	0	57	104	3277848576	68	12949
2026-01-02 14:48:21.18	338.70	3.18	-53.1	-64.0	3.8	8.45e-01	0	57	104	3277848576	68	12981
2026-01-02 14:48:22.17	338.80	3.14	-53.2	-63.9	3.8	8.46e-01	0	57	104	3277848576	68	12908
2026-01-02 14:48:23.16	338.89	3.09	-53.2	-63.9	3.8	8.47e-01	0	57	104	3277848576	68	12942
2026-01-02 14:48:24.14	338.98	3.04	-53.1	-64.0	3.8	8.47e-01	0	57	104	3277848576	68	12971
2026-01-02 14:48:25.13	339.08	2.99	-53.1	-63.9	3.8	8.46e-01	0	57	104	3277848576	68	12959
2026-01-02 14:48:26.13	339.17	2.94	-53.0	-63.9	3.8	8.46e-01	0	57	104	3277848576	68	12946

#Closed at: 2026-01-02 14:48:27
#Recorded file [3277 MB]: D:/Data/31026_260102_174744.dat