passes_logs/2026/01/02/R3.0SM8_Murmansk_STILSPACE/R3.0SM8_Murmansk_STILSPACE__20260102_115318_AQUA_rec.log

#Pass ID: 20260102_115318_AQUA
#Satellite: AQUA
#Configuration: AQUA
#almurnet v.1.7.20240730
#Start time: 2026-01-02 11:53:18

#Version: 2.2.20231116
#Station: R3.0SM8_Murmansk_STILSPACE
#Location: 33.092731 lon 68.902999 lat
#TLE: 1 27424U 02022A   25365.92641127  .00002078  00000+0  42628-3 0  9999
#TLE: 2 27424  98.4058 327.1196 0001962  94.7781 340.6230 14.61783896258835

#Time	Az	El	Level	Level2	SNR	BER	BlckErr	Temp	State	Recorded	gain1	gain2
2026-01-02 11:53:18.21	168.72	3.01	-54.3	-74.3	3.8	7.44e-01	0	45	0	0	71	36541
2026-01-02 11:53:19.19	168.74	3.08	-54.2	-74.1	3.8	7.48e-01	0	46	104	0	70	38121
2026-01-02 11:53:20.17	168.77	3.15	-54.1	-74.1	3.8	7.46e-01	0	46	104	0	70	37917
2026-01-02 11:53:21.16	168.79	3.22	-54.1	-74.0	3.8	7.44e-01	0	46	104	0	70	37608
2026-01-02 11:53:22.16	168.82	3.28	-54.0	-73.9	3.8	7.43e-01	0	46	104	0	70	37195
2026-01-02 11:53:23.14	168.84	3.35	-53.9	-73.8	3.8	7.46e-01	0	46	104	0	70	36625
2026-01-02 11:53:24.14	168.87	3.42	-53.7	-73.6	3.8	7.46e-01	0	46	104	0	70	35734
2026-01-02 11:53:25.12	168.89	3.49	-53.3	-73.1	3.8	7.42e-01	0	46	104	0	70	33915
2026-01-02 11:53:26.12	168.92	3.56	-53.1	-72.9	3.8	7.46e-01	0	46	104	0	69	35177
2026-01-02 11:53:27.10	168.94	3.63	-53.1	-72.9	3.8	7.43e-01	0	46	104	0	69	34989
2026-01-02 11:53:28.09	168.97	3.70	-53.1	-72.7	3.8	7.45e-01	0	46	104	0	69	34457
2026-01-02 11:53:29.08	168.99	3.77	-53.1	-72.6	3.8	7.42e-01	0	46	104	0	69	33702
2026-01-02 11:53:30.06	169.02	3.84	-53.1	-72.3	3.8	7.45e-01	0	46	104	0	69	32711
2026-01-02 11:53:31.04	169.05	3.91	-53.1	-72.0	3.8	7.46e-01	0	46	104	0	69	31717
2026-01-02 11:53:32.03	169.07	3.98	-53.1	-71.8	3.8	7.44e-01	0	47	104	0	69	30793
2026-01-02 11:53:33.02	169.10	4.05	-53.0	-71.4	3.8	7.48e-01	0	47	104	0	69	29467
2026-01-02 11:53:34.01	169.12	4.12	-53.0	-70.9	3.9	7.42e-01	0	47	104	0	69	28005
2026-01-02 11:53:35.00	169.15	4.19	-53.0	-70.8	3.8	7.44e-01	0	47	104	0	69	27602
2026-01-02 11:53:36.00	169.18	4.26	-53.0	-70.2	4.0	7.39e-01	0	47	104	0	69	25649
2026-01-02 11:53:36.99	169.20	4.33	-53.0	-70.2	3.8	7.41e-01	0	47	104	0	69	25707
2026-01-02 11:53:37.98	169.23	4.40	-53.0	-68.8	4.4	7.25e-01	0	47	104	0	69	21883
2026-01-02 11:53:38.96	169.26	4.47	-52.9	-67.5	4.9	7.10e-01	0	47	0	0	69	18830
2026-01-02 11:53:39.95	169.28	4.55	-52.9	-65.9	5.9	6.85e-01	94	47	0	0	69	15735
2026-01-02 11:53:40.93	169.31	4.62	-52.8	-64.2	7.3	6.55e-01	92	47	0	2097152	69	12897
2026-01-02 11:53:41.93	169.34	4.69	-52.6	-62.4	9.1	6.34e-01	0	47	0	3670016	68	11088
2026-01-02 11:53:42.92	169.37	4.76	-52.4	-60.8	10.8	6.21e-01	0	47	0	5767168	68	9264
2026-01-02 11:53:43.90	169.39	4.84	-52.0	-59.2	12.4	6.11e-01	0	47	0	7864320	67	8166
2026-01-02 11:53:44.90	169.42	4.91	-51.7	-58.0	13.7	6.08e-01	0	48	0	9437184	67	7074
2026-01-02 11:53:45.89	169.45	4.98	-51.3	-56.7	15.1	6.05e-01	0	48	0	11534336	66	6454
2026-01-02 11:53:46.88	169.48	5.06	-51.0	-55.7	16.1	6.07e-01	0	48	0	13107200	65	6094
2026-01-02 11:53:47.87	169.50	5.13	-50.6	-54.8	17.0	6.06e-01	0	48	0	15204352	64	5835
2026-01-02 11:53:48.86	169.53	5.20	-50.6	-54.8	17.0	6.07e-01	0	48	0	16777216	64	5832
2026-01-02 11:53:49.86	169.56	5.28	-50.9	-55.4	16.5	6.07e-01	0	48	0	18874368	64	6271
2026-01-02 11:53:50.85	169.59	5.35	-50.7	-55.0	16.9	6.09e-01	0	48	0	20447232	64	5930
2026-01-02 11:53:51.84	169.62	5.43	-50.5	-54.4	17.5	6.08e-01	0	48	0	22544384	64	5581
2026-01-02 11:53:52.83	169.65	5.50	-50.2	-53.8	18.1	6.06e-01	0	48	0	24117248	64	5213
2026-01-02 11:53:53.83	169.68	5.58	-50.0	-53.4	18.5	6.06e-01	0	48	0	26214400	63	5263
2026-01-02 11:53:54.82	169.71	5.65	-49.8	-53.0	19.0	6.08e-01	0	48	0	28311552	63	4986
2026-01-02 11:53:55.81	169.74	5.73	-49.5	-52.4	19.6	6.07e-01	0	48	0	29884416	62	4952
2026-01-02 11:53:56.80	169.76	5.81	-49.1	-51.8	20.1	6.06e-01	0	48	0	31981568	61	4919
2026-01-02 11:53:57.79	169.79	5.88	-49.1	-51.8	20.1	6.05e-01	0	48	0	33554432	61	4871
2026-01-02 11:53:58.78	169.82	5.96	-49.1	-51.8	20.2	6.07e-01	0	48	0	35651584	61	4920
2026-01-02 11:53:59.77	169.85	6.03	-49.2	-52.0	20.1	6.07e-01	0	48	0	37224448	61	4990
2026-01-02 11:54:00.76	169.88	6.11	-49.2	-51.9	20.1	6.05e-01	0	48	0	39321600	61	4966
2026-01-02 11:54:01.76	169.91	6.19	-49.3	-52.0	20.1	6.07e-01	0	49	0	40894464	61	4995
2026-01-02 11:54:02.76	169.94	6.27	-49.3	-52.1	20.0	6.06e-01	0	49	0	42991616	61	5078
2026-01-02 11:54:03.74	169.97	6.34	-49.4	-52.3	19.8	6.05e-01	0	49	0	44564480	61	5165
2026-01-02 11:54:04.74	170.01	6.42	-49.4	-52.2	19.9	6.07e-01	0	49	0	46661632	61	5141
2026-01-02 11:54:05.73	170.04	6.50	-49.5	-52.4	19.8	6.03e-01	0	49	0	48758784	61	5248
2026-01-02 11:54:06.71	170.07	6.58	-49.6	-52.4	19.7	6.05e-01	0	49	0	50331648	61	5260
2026-01-02 11:54:07.70	170.10	6.66	-49.5	-52.4	19.8	6.05e-01	0	49	0	52428800	61	5221
2026-01-02 11:54:08.69	170.13	6.74	-49.6	-52.5	19.8	6.04e-01	0	49	0	54001664	61	5308
2026-01-02 11:54:09.68	170.16	6.81	-49.7	-52.6	19.6	6.07e-01	0	49	0	56098816	61	5347
2026-01-02 11:54:10.66	170.19	6.89	-49.7	-52.7	19.6	6.08e-01	0	49	0	57671680	61	5416
2026-01-02 11:54:11.65	170.22	6.97	-49.8	-52.9	19.4	6.07e-01	0	49	0	59768832	61	5531
2026-01-02 11:54:12.65	170.26	7.05	-49.9	-53.0	19.3	6.06e-01	0	49	0	61341696	62	5282
2026-01-02 11:54:13.64	170.29	7.13	-49.8	-52.7	19.6	6.07e-01	0	49	0	63438848	62	5138
2026-01-02 11:54:14.63	170.32	7.21	-49.6	-52.4	19.9	6.08e-01	0	49	0	65011712	62	4980
2026-01-02 11:54:15.61	170.35	7.29	-49.5	-52.2	20.1	6.06e-01	0	49	0	67108864	62	4864
2026-01-02 11:54:16.59	170.38	7.37	-49.5	-52.3	20.1	6.07e-01	0	49	0	68681728	62	4878
2026-01-02 11:54:17.58	170.42	7.46	-49.5	-52.2	20.1	6.07e-01	0	49	0	70778880	62	4852
2026-01-02 11:54:18.57	170.45	7.54	-49.6	-52.3	20.1	6.08e-01	0	50	0	72351744	62	4905
2026-01-02 11:54:19.56	170.48	7.62	-49.6	-52.4	20.0	6.06e-01	0	49	0	74448896	62	4943
2026-01-02 11:54:20.55	170.52	7.70	-49.4	-52.0	20.4	6.09e-01	0	50	0	76021760	62	4726
2026-01-02 11:54:21.54	170.55	7.78	-49.1	-51.6	20.7	6.09e-01	0	49	0	78118912	61	4789
2026-01-02 11:54:22.53	170.58	7.87	-49.0	-51.3	21.0	6.04e-01	0	50	0	80216064	61	4647
2026-01-02 11:54:23.52	170.62	7.95	-48.8	-51.1	21.2	6.08e-01	0	49	0	81788928	61	4542
2026-01-02 11:54:24.51	170.65	8.03	-48.8	-51.1	21.3	6.07e-01	0	50	0	83886080	61	4495
2026-01-02 11:54:25.49	170.68	8.12	-48.7	-50.9	21.4	6.08e-01	0	50	0	85458944	61	4441
2026-01-02 11:54:26.49	170.72	8.20	-48.8	-51.0	21.4	6.05e-01	0	50	0	87556096	61	4488
2026-01-02 11:54:27.48	170.75	8.28	-48.8	-51.0	21.4	6.07e-01	0	50	0	89128960	61	4478
2026-01-02 11:54:28.46	170.79	8.37	-48.7	-51.0	21.4	6.07e-01	0	50	0	91226112	61	4452
2026-01-02 11:54:29.45	170.82	8.45	-48.7	-50.9	21.5	6.06e-01	0	50	0	92798976	61	4438
2026-01-02 11:54:30.44	170.86	8.54	-48.7	-50.9	21.5	6.07e-01	0	50	0	94896128	60	4681
2026-01-02 11:54:31.43	170.89	8.62	-48.8	-51.0	21.5	6.08e-01	0	50	0	96468992	60	4722
2026-01-02 11:54:32.41	170.93	8.71	-48.9	-51.2	21.3	6.07e-01	0	50	0	98566144	60	4817
2026-01-02 11:54:33.40	170.97	8.79	-48.8	-51.1	21.3	6.07e-01	0	50	0	100139008	60	4786
2026-01-02 11:54:34.38	171.00	8.88	-48.9	-51.2	21.3	6.05e-01	0	50	0	102236160	60	4816
2026-01-02 11:54:35.38	171.04	8.97	-48.9	-51.2	21.3	6.08e-01	0	50	0	104333312	60	4820
2026-01-02 11:54:36.37	171.07	9.05	-48.9	-51.2	21.3	6.06e-01	0	50	0	105906176	60	4821
2026-01-02 11:54:37.36	171.11	9.14	-48.9	-51.2	21.3	6.06e-01	0	50	0	108003328	60	4857
2026-01-02 11:54:38.35	171.15	9.23	-49.1	-51.4	21.1	6.07e-01	0	50	0	109576192	60	4970
2026-01-02 11:54:39.34	171.18	9.32	-49.2	-51.6	21.0	6.07e-01	0	50	0	111673344	60	5050
2026-01-02 11:54:40.33	171.22	9.41	-49.1	-51.4	21.1	6.07e-01	0	50	0	113246208	60	4963
2026-01-02 11:54:41.33	171.26	9.50	-48.9	-51.2	21.3	6.07e-01	0	50	0	115343360	60	4850
2026-01-02 11:54:42.32	171.30	9.59	-48.9	-51.2	21.4	6.07e-01	0	50	0	116916224	60	4818
2026-01-02 11:54:43.31	171.34	9.67	-48.9	-51.1	21.4	6.07e-01	0	51	0	119013376	60	4814
2026-01-02 11:54:44.30	171.37	9.76	-49.0	-51.3	21.3	6.07e-01	0	51	0	120586240	60	4909
2026-01-02 11:54:45.29	171.41	9.85	-49.1	-51.5	21.0	6.06e-01	0	51	0	122683392	60	5012
2026-01-02 11:54:46.29	171.45	9.95	-49.0	-51.3	21.3	6.07e-01	0	51	0	124780544	60	4899
2026-01-02 11:54:47.27	171.49	10.04	-49.2	-51.6	21.0	6.08e-01	0	51	0	126353408	60	5065
2026-01-02 11:54:48.27	171.53	10.13	-49.3	-51.8	20.8	6.06e-01	0	51	0	128450560	60	5179
2026-01-02 11:54:49.26	171.57	10.22	-49.1	-51.5	21.1	6.04e-01	0	51	0	130023424	60	4985
2026-01-02 11:54:50.25	171.61	10.31	-48.9	-51.1	21.5	6.04e-01	0	51	0	132120576	60	4768
2026-01-02 11:54:51.25	171.65	10.41	-48.7	-50.9	21.7	6.08e-01	0	51	0	133693440	60	4653
2026-01-02 11:54:52.22	171.69	10.50	-48.6	-50.7	21.9	6.08e-01	0	51	0	135790592	60	4583
2026-01-02 11:54:53.21	171.73	10.59	-48.6	-50.7	21.9	6.06e-01	0	51	0	137363456	60	4552
2026-01-02 11:54:54.21	171.77	10.68	-48.6	-50.7	22.0	6.05e-01	0	51	0	139460608	60	4556
2026-01-02 11:54:55.20	171.81	10.78	-48.7	-50.8	21.8	6.05e-01	0	51	0	141033472	60	4645
2026-01-02 11:54:56.18	171.85	10.87	-48.6	-50.6	22.0	6.06e-01	0	51	0	143130624	60	4527
2026-01-02 11:54:57.18	171.89	10.97	-48.4	-50.4	22.2	6.05e-01	0	51	0	145227776	60	4399
2026-01-02 11:54:58.17	171.93	11.06	-48.3	-50.3	22.4	6.08e-01	0	51	0	146800640	60	4361
2026-01-02 11:54:59.16	171.98	11.16	-48.3	-50.2	22.4	6.05e-01	0	51	0	148897792	60	4316
2026-01-02 11:55:00.16	172.02	11.25	-48.3	-50.3	22.4	6.08e-01	0	51	0	150470656	60	4342
2026-01-02 11:55:01.15	172.06	11.35	-48.4	-50.4	22.3	6.07e-01	0	51	0	152567808	60	4409
2026-01-02 11:55:02.14	172.10	11.45	-48.5	-50.6	22.1	6.05e-01	0	51	0	154140672	60	4499
2026-01-02 11:55:03.14	172.15	11.55	-48.4	-50.4	22.3	6.05e-01	0	51	0	156237824	60	4403
2026-01-02 11:55:04.13	172.19	11.64	-48.6	-50.6	22.1	6.06e-01	0	51	0	157810688	60	4500
2026-01-02 11:55:05.11	172.23	11.74	-48.8	-50.9	21.8	6.06e-01	0	52	0	159907840	60	4662
2026-01-02 11:55:06.10	172.28	11.84	-48.6	-50.6	22.1	6.07e-01	0	51	0	161480704	60	4523
2026-01-02 11:55:07.09	172.32	11.94	-48.6	-50.7	22.0	6.06e-01	0	51	0	163577856	60	4555
2026-01-02 11:55:08.09	172.37	12.04	-48.7	-50.8	21.9	6.06e-01	0	51	0	165675008	60	4643
2026-01-02 11:55:09.08	172.41	12.14	-48.6	-50.7	22.0	6.06e-01	0	51	0	167247872	60	4563
2026-01-02 11:55:10.08	172.46	12.24	-48.6	-50.6	22.2	6.08e-01	0	51	0	169345024	60	4511
2026-01-02 11:55:11.07	172.50	12.34	-48.6	-50.7	22.1	6.05e-01	0	52	0	170917888	60	4553
2026-01-02 11:55:12.05	172.55	12.44	-48.6	-50.6	22.2	6.05e-01	0	52	0	173015040	60	4499
2026-01-02 11:55:13.04	172.59	12.54	-48.4	-50.3	22.4	6.09e-01	0	52	0	174587904	60	4366
2026-01-02 11:55:14.03	172.64	12.64	-48.2	-50.1	22.6	6.08e-01	0	52	0	176685056	60	4270
2026-01-02 11:55:15.02	172.69	12.74	-48.2	-50.1	22.7	6.06e-01	0	52	0	178257920	60	4243
2026-01-02 11:55:16.02	172.73	12.85	-48.2	-50.1	22.7	6.06e-01	0	52	0	180355072	60	4251
2026-01-02 11:55:17.00	172.78	12.95	-48.3	-50.2	22.6	6.07e-01	0	52	0	181927936	60	4316
2026-01-02 11:55:17.99	172.83	13.05	-48.2	-50.0	22.7	6.07e-01	0	52	0	184025088	60	4227
2026-01-02 11:55:18.97	172.87	13.16	-48.5	-50.4	22.7	6.07e-01	0	52	0	185597952	59	4659
2026-01-02 11:55:19.95	172.92	13.26	-48.5	-50.4	22.7	6.06e-01	0	52	0	187695104	59	4657
2026-01-02 11:55:20.94	172.97	13.37	-48.6	-50.5	22.7	6.06e-01	0	52	0	189267968	59	4708
2026-01-02 11:55:21.92	173.02	13.47	-48.6	-50.6	22.6	6.06e-01	0	52	0	191365120	59	4774
2026-01-02 11:55:22.91	173.07	13.58	-48.5	-50.4	22.7	6.09e-01	0	52	0	193462272	59	4683
2026-01-02 11:55:23.91	173.12	13.69	-48.4	-50.3	22.8	6.05e-01	0	52	0	195035136	59	4600
2026-01-02 11:55:24.90	173.17	13.79	-48.4	-50.3	22.8	6.04e-01	0	52	0	197132288	59	4627
2026-01-02 11:55:25.89	173.22	13.90	-48.4	-50.2	22.9	6.08e-01	0	52	0	198705152	59	4588
2026-01-02 11:55:26.87	173.27	14.01	-48.5	-50.4	22.8	6.05e-01	0	52	0	200802304	59	4662
2026-01-02 11:55:27.87	173.32	14.12	-48.4	-50.3	22.9	6.03e-01	0	52	0	202375168	59	4609
2026-01-02 11:55:28.86	173.37	14.23	-48.4	-50.2	22.9	6.04e-01	0	53	0	204472320	59	4579
2026-01-02 11:55:29.84	173.42	14.34	-48.4	-50.2	22.9	6.06e-01	0	52	0	206045184	59	4598
2026-01-02 11:55:30.83	173.48	14.45	-48.6	-50.4	22.7	6.07e-01	0	52	0	208142336	59	4705
2026-01-02 11:55:31.82	173.53	14.56	-48.5	-50.4	22.8	6.06e-01	0	52	0	209715200	59	4662
2026-01-02 11:55:32.81	173.58	14.67	-48.5	-50.4	22.8	6.04e-01	0	52	0	211812352	59	4666
2026-01-02 11:55:33.80	173.63	14.78	-48.6	-50.5	22.6	6.06e-01	0	53	0	213385216	59	4755
2026-01-02 11:55:34.78	173.69	14.89	-48.8	-50.8	21.0	6.04e-01	0	52	0	215482368	59	4898
2026-01-02 11:55:35.78	173.74	15.01	-48.4	-50.3	22.5	6.07e-01	0	52	0	217579520	60	4353
2026-01-02 11:55:36.76	173.80	15.12	-48.2	-50.0	22.8	6.08e-01	0	52	0	219152384	60	4236
2026-01-02 11:55:37.76	173.85	15.23	-48.5	-50.3	22.9	6.06e-01	0	52	0	221249536	59	4622
2026-01-02 11:55:38.75	173.91	15.35	-48.4	-50.2	23.0	6.06e-01	0	52	0	222822400	59	4586
2026-01-02 11:55:39.74	173.96	15.46	-48.5	-50.4	22.9	6.07e-01	0	53	0	224919552	59	4656
2026-01-02 11:55:40.73	174.02	15.58	-48.4	-50.3	22.9	6.05e-01	0	53	0	226492416	59	4615
2026-01-02 11:55:41.72	174.08	15.70	-48.3	-50.1	23.1	6.05e-01	0	52	0	228589568	59	4526
2026-01-02 11:55:42.71	174.13	15.81	-48.3	-50.1	23.1	6.06e-01	0	53	0	230162432	59	4530
2026-01-02 11:55:43.70	174.19	15.93	-48.3	-50.1	23.1	6.06e-01	0	53	0	232259584	59	4516
2026-01-02 11:55:44.70	174.25	16.05	-48.3	-50.1	23.1	6.06e-01	0	53	0	233832448	59	4531
2026-01-02 11:55:45.69	174.31	16.17	-48.5	-50.3	23.0	6.04e-01	0	53	0	235929600	59	4616
2026-01-02 11:55:46.69	174.37	16.29	-48.5	-50.3	22.9	6.05e-01	0	53	0	238026752	59	4636
2026-01-02 11:55:47.67	174.43	16.41	-48.5	-50.3	22.9	6.07e-01	0	53	0	239599616	59	4621
2026-01-02 11:55:48.66	174.49	16.53	-48.6	-50.5	22.8	6.07e-01	0	53	0	241696768	59	4712
2026-01-02 11:55:49.64	174.55	16.65	-48.6	-50.4	22.8	6.06e-01	0	53	0	243269632	59	4691
2026-01-02 11:55:50.64	174.61	16.78	-48.5	-50.3	22.9	6.06e-01	0	53	0	245366784	59	4627
2026-01-02 11:55:51.63	174.67	16.90	-48.5	-50.3	23.0	6.06e-01	0	53	0	246939648	59	4609
2026-01-02 11:55:52.62	174.73	17.02	-48.4	-50.2	23.0	6.07e-01	0	53	0	249036800	59	4582
2026-01-02 11:55:53.61	174.79	17.15	-48.6	-50.4	22.9	6.06e-01	0	53	0	250609664	59	4685
2026-01-02 11:55:54.60	174.86	17.27	-48.5	-50.4	22.9	6.06e-01	0	53	0	252706816	59	4661
2026-01-02 11:55:55.59	174.92	17.40	-48.4	-50.2	23.1	6.06e-01	0	53	0	254279680	59	4555
2026-01-02 11:55:56.59	174.98	17.52	-48.3	-50.0	23.2	6.06e-01	0	53	0	256376832	59	4489
2026-01-02 11:55:57.58	175.05	17.65	-48.3	-50.1	23.2	6.05e-01	0	53	0	258473984	59	4506
2026-01-02 11:55:58.57	175.11	17.78	-48.5	-50.3	23.0	6.04e-01	0	53	0	260046848	59	4616
2026-01-02 11:55:59.55	175.18	17.91	-48.5	-50.4	22.9	6.07e-01	0	53	0	262144000	59	4672
2026-01-02 11:56:00.54	175.24	18.03	-48.5	-50.3	23.0	6.10e-01	0	53	0	263716864	59	4631
2026-01-02 11:56:01.53	175.31	18.16	-48.5	-50.3	23.0	6.04e-01	0	53	0	265814016	59	4639
2026-01-02 11:56:02.52	175.38	18.29	-48.5	-50.3	23.0	6.06e-01	0	53	0	267386880	59	4625
2026-01-02 11:56:03.51	175.45	18.43	-48.4	-50.2	23.0	6.05e-01	0	53	0	269484032	59	4594
2026-01-02 11:56:04.50	175.51	18.56	-48.5	-50.3	23.0	6.08e-01	0	53	0	271056896	59	4628
2026-01-02 11:56:05.49	175.58	18.69	-48.5	-50.3	23.0	6.07e-01	0	53	0	273154048	59	4613
2026-01-02 11:56:06.48	175.65	18.82	-48.4	-50.1	23.2	6.06e-01	0	53	0	274726912	59	4540
2026-01-02 11:56:07.47	175.72	18.96	-48.3	-50.1	23.2	6.07e-01	0	53	0	276824064	59	4521
2026-01-02 11:56:08.46	175.79	19.09	-48.4	-50.2	23.1	6.08e-01	0	53	0	278921216	59	4550
2026-01-02 11:56:09.45	175.87	19.23	-48.4	-50.2	23.1	6.05e-01	0	53	0	280494080	59	4580
2026-01-02 11:56:10.43	175.94	19.36	-48.4	-50.2	23.1	6.09e-01	0	53	0	282066944	59	4575
2026-01-02 11:56:11.42	176.01	19.50	-48.4	-50.2	23.1	6.07e-01	0	53	0	284164096	59	4595
2026-01-02 11:56:12.41	176.08	19.64	-48.5	-50.4	23.0	6.07e-01	0	53	0	286261248	59	4663
2026-01-02 11:56:13.40	176.16	19.78	-48.6	-50.4	22.9	6.04e-01	0	53	0	287834112	59	4665
2026-01-02 11:56:14.39	176.23	19.92	-48.4	-50.2	23.2	6.05e-01	0	53	0	289931264	59	4546
2026-01-02 11:56:15.38	176.31	20.06	-48.3	-50.0	23.3	6.07e-01	0	53	0	291504128	59	4466
2026-01-02 11:56:16.38	176.38	20.20	-48.3	-50.0	23.3	6.06e-01	0	53	0	293601280	59	4469
2026-01-02 11:56:17.36	176.46	20.34	-48.4	-50.2	23.2	6.06e-01	0	53	0	295174144	59	4560
2026-01-02 11:56:18.36	176.54	20.48	-48.5	-50.3	23.1	6.05e-01	0	53	0	297271296	59	4607
2026-01-02 11:56:19.35	176.62	20.63	-48.5	-50.2	23.1	6.06e-01	0	53	0	298844160	59	4597
2026-01-02 11:56:20.35	176.70	20.77	-48.6	-50.4	22.9	6.07e-01	0	53	0	300941312	59	4675
2026-01-02 11:56:21.34	176.78	20.92	-48.6	-50.4	23.0	6.05e-01	0	53	0	302514176	59	4659
2026-01-02 11:56:22.33	176.86	21.07	-48.7	-50.5	22.8	6.06e-01	0	53	0	304611328	59	4736
2026-01-02 11:56:23.33	176.94	21.22	-48.8	-50.7	22.7	6.05e-01	0	53	0	306708480	59	4842
2026-01-02 11:56:24.31	177.02	21.36	-48.8	-50.7	22.7	6.07e-01	0	53	0	308281344	59	4817
2026-01-02 11:56:25.30	177.10	21.51	-48.7	-50.6	22.4	6.07e-01	0	53	0	310378496	60	4532
2026-01-02 11:56:26.29	177.19	21.66	-48.8	-50.8	22.2	6.06e-01	0	54	0	311951360	60	4613
2026-01-02 11:56:27.27	177.27	21.81	-48.5	-50.4	22.6	6.07e-01	0	53	0	314048512	60	4415
2026-01-02 11:56:28.26	177.36	21.96	-48.3	-50.1	22.9	6.06e-01	0	54	0	315621376	60	4274
2026-01-02 11:56:29.24	177.44	22.11	-48.2	-50.0	23.1	6.07e-01	0	54	0	317718528	60	4199
2026-01-02 11:56:30.22	177.53	22.27	-48.5	-50.3	23.0	6.04e-01	0	54	0	319291392	59	4629
2026-01-02 11:56:31.20	177.61	22.42	-48.7	-50.5	22.9	6.07e-01	0	54	0	321388544	59	4750
2026-01-02 11:56:32.19	177.70	22.57	-48.8	-50.7	22.7	6.08e-01	0	54	0	322961408	59	4840
2026-01-02 11:56:33.17	177.79	22.73	-48.7	-50.5	22.9	6.05e-01	0	53	0	325058560	59	4753
2026-01-02 11:56:34.16	177.88	22.89	-48.6	-50.4	23.0	6.06e-01	0	54	0	326631424	59	4689
2026-01-02 11:56:35.15	177.97	23.04	-48.6	-50.4	23.0	6.06e-01	0	54	0	328728576	59	4686
2026-01-02 11:56:36.14	178.07	23.20	-48.6	-50.4	23.0	6.03e-01	0	54	0	330301440	59	4676
2026-01-02 11:56:37.13	178.16	23.36	-48.7	-50.5	22.9	6.05e-01	0	54	0	332398592	59	4735
2026-01-02 11:56:38.12	178.25	23.53	-48.8	-50.6	22.8	6.06e-01	0	54	0	334495744	59	4811
2026-01-02 11:56:39.11	178.35	23.69	-48.7	-50.5	22.9	6.07e-01	0	54	0	336068608	59	4740
2026-01-02 11:56:40.10	178.45	23.85	-48.8	-50.7	22.8	6.07e-01	0	54	0	338165760	59	4830
2026-01-02 11:56:41.09	178.54	24.02	-48.6	-50.5	22.6	6.07e-01	0	54	0	339738624	60	4456
2026-01-02 11:56:42.07	178.64	24.18	-49.0	-51.0	22.1	6.06e-01	0	54	0	341835776	60	4737
2026-01-02 11:56:43.06	178.74	24.35	-48.7	-50.6	22.5	6.05e-01	0	54	0	343408640	60	4510
2026-01-02 11:56:44.05	178.84	24.52	-48.5	-50.3	22.8	6.07e-01	0	54	0	345505792	60	4380
2026-01-02 11:56:45.04	178.94	24.68	-48.4	-50.2	22.8	6.09e-01	0	54	0	347078656	60	4331
2026-01-02 11:56:46.03	179.04	24.85	-48.5	-50.3	22.8	6.05e-01	0	54	0	349175808	60	4374
2026-01-02 11:56:47.02	179.15	25.03	-48.5	-50.4	22.7	6.08e-01	0	54	0	350748672	60	4406
2026-01-02 11:56:48.01	179.25	25.20	-48.3	-50.0	23.0	6.07e-01	0	54	0	352845824	60	4224
2026-01-02 11:56:49.00	179.36	25.37	-48.5	-50.2	23.2	6.06e-01	0	54	0	354418688	59	4568
2026-01-02 11:56:49.99	179.46	25.55	-48.5	-50.3	23.1	6.07e-01	0	54	0	356515840	59	4617
2026-01-02 11:56:50.97	179.57	25.72	-48.8	-50.6	22.9	6.08e-01	0	54	0	358612992	59	4796
2026-01-02 11:56:51.96	179.68	25.90	-48.7	-50.5	23.0	6.06e-01	0	54	0	360185856	59	4728
2026-01-02 11:56:52.95	179.79	26.07	-48.9	-50.7	22.7	6.06e-01	0	54	0	361758720	59	4870
2026-01-02 11:56:53.94	179.90	26.25	-48.5	-50.3	22.8	6.06e-01	0	54	0	363855872	60	4390
2026-01-02 11:56:54.93	180.02	26.43	-48.4	-50.3	22.9	6.08e-01	0	54	0	365953024	60	4343
2026-01-02 11:56:55.92	180.13	26.62	-48.2	-49.9	23.2	6.04e-01	0	54	0	367525888	60	4182
2026-01-02 11:56:56.92	180.25	26.80	-48.5	-50.3	23.2	6.08e-01	0	54	0	369623040	59	4604
2026-01-02 11:56:57.91	180.37	26.98	-48.5	-50.3	23.2	6.07e-01	0	54	0	371195904	59	4621
2026-01-02 11:56:58.90	180.49	27.17	-48.6	-50.4	23.1	6.04e-01	0	54	0	373293056	59	4684
2026-01-02 11:56:59.89	180.61	27.36	-48.5	-50.3	23.1	6.07e-01	0	54	0	374865920	59	4641
2026-01-02 11:57:00.87	180.73	27.54	-48.3	-50.1	23.4	6.06e-01	0	54	0	376963072	59	4497
2026-01-02 11:57:01.86	180.85	27.73	-48.2	-49.8	23.6	6.06e-01	0	54	0	378535936	59	4370
2026-01-02 11:57:02.85	180.97	27.92	-48.1	-49.7	23.7	6.08e-01	0	54	0	380633088	59	4331
2026-01-02 11:57:03.84	181.10	28.11	-48.0	-49.6	23.9	6.07e-01	0	54	0	382205952	59	4243
2026-01-02 11:57:04.83	181.23	28.30	-48.0	-49.6	23.8	6.05e-01	0	54	0	384303104	59	4284
2026-01-02 11:57:05.82	181.35	28.50	-48.2	-49.9	23.5	6.07e-01	0	54	0	386400256	59	4422
2026-01-02 11:57:06.81	181.48	28.69	-48.3	-49.9	23.5	6.06e-01	0	54	0	387973120	59	4435
2026-01-02 11:57:07.80	181.62	28.89	-48.3	-50.0	23.5	6.07e-01	0	54	0	390070272	59	4453
2026-01-02 11:57:08.79	181.75	29.09	-48.4	-50.2	23.3	6.07e-01	0	54	0	391643136	59	4554
2026-01-02 11:57:09.78	181.89	29.29	-48.4	-50.1	23.4	6.06e-01	0	54	0	393740288	59	4523
2026-01-02 11:57:10.78	182.02	29.49	-48.3	-50.0	23.4	6.06e-01	0	54	0	395313152	59	4489
2026-01-02 11:57:11.77	182.16	29.69	-48.2	-49.9	23.6	6.06e-01	0	54	0	397410304	59	4393
2026-01-02 11:57:12.76	182.30	29.90	-48.2	-49.9	23.6	6.08e-01	0	54	0	398983168	59	4402
2026-01-02 11:57:13.75	182.45	30.10	-48.0	-49.6	23.8	6.06e-01	0	54	0	401080320	59	4273
2026-01-02 11:57:14.73	182.59	30.31	-48.0	-49.6	23.9	6.07e-01	0	54	0	402653184	59	4263
2026-01-02 11:57:15.72	182.73	30.51	-48.3	-50.0	23.5	6.07e-01	0	54	0	404750336	59	4443
2026-01-02 11:57:16.71	182.88	30.72	-48.2	-49.9	23.6	6.06e-01	0	54	0	406847488	59	4417
2026-01-02 11:57:17.70	183.03	30.93	-48.2	-49.8	23.7	6.07e-01	0	54	0	408420352	59	4376
2026-01-02 11:57:18.68	183.18	31.14	-48.2	-49.9	23.6	6.05e-01	0	54	0	410517504	59	4406
2026-01-02 11:57:19.67	183.34	31.36	-48.2	-49.9	23.6	6.06e-01	0	54	0	412090368	59	4415
2026-01-02 11:57:20.66	183.49	31.57	-48.5	-50.3	23.2	6.06e-01	0	54	0	414187520	59	4619
2026-01-02 11:57:21.65	183.65	31.79	-48.7	-50.5	23.1	6.06e-01	0	54	0	415760384	59	4718
2026-01-02 11:57:22.63	183.81	32.00	-48.7	-50.5	23.1	6.07e-01	0	54	0	417857536	59	4712
2026-01-02 11:57:23.63	183.97	32.22	-48.8	-50.6	23.0	6.07e-01	0	54	0	419430400	59	4780
2026-01-02 11:57:24.62	184.14	32.45	-48.7	-50.6	22.9	6.04e-01	0	54	0	421527552	59	4768
2026-01-02 11:57:25.61	184.30	32.67	-48.8	-50.6	22.9	6.07e-01	0	54	0	423100416	59	4805
2026-01-02 11:57:26.61	184.47	32.89	-48.9	-50.7	22.8	6.06e-01	0	55	0	425197568	59	4850
2026-01-02 11:57:27.60	184.65	33.12	-48.6	-50.4	22.8	6.07e-01	0	54	0	426770432	60	4418
2026-01-02 11:57:28.59	184.82	33.35	-48.8	-50.7	22.5	6.07e-01	0	54	0	428867584	60	4574
2026-01-02 11:57:29.57	184.99	33.57	-48.9	-50.9	22.3	6.09e-01	0	54	0	430964736	60	4678
2026-01-02 11:57:30.56	185.17	33.80	-49.0	-51.0	22.3	6.07e-01	0	55	0	432537600	60	4715
2026-01-02 11:57:31.54	185.35	34.03	-49.0	-51.0	22.2	6.04e-01	0	54	0	434634752	60	4730
2026-01-02 11:57:32.53	185.54	34.26	-48.9	-50.8	22.4	6.06e-01	0	54	0	436207616	60	4632
2026-01-02 11:57:33.53	185.72	34.50	-49.0	-51.0	22.3	6.05e-01	0	54	0	438304768	60	4727
2026-01-02 11:57:34.53	185.91	34.74	-49.1	-51.1	22.1	6.06e-01	0	54	0	439877632	60	4791
2026-01-02 11:57:35.52	186.11	34.98	-49.2	-51.3	21.9	6.04e-01	0	55	0	441974784	60	4912
2026-01-02 11:57:36.50	186.30	35.21	-49.3	-51.5	21.8	6.06e-01	0	55	0	443547648	60	5003
2026-01-02 11:57:37.49	186.50	35.45	-49.2	-51.2	22.0	6.07e-01	0	54	0	445644800	60	4865
2026-01-02 11:57:38.48	186.70	35.70	-49.5	-51.6	21.7	6.05e-01	0	55	0	447217664	61	4803
2026-01-02 11:57:39.46	186.90	35.94	-49.7	-52.0	21.3	6.07e-01	0	55	0	449314816	61	4997
2026-01-02 11:57:40.46	187.11	36.19	-49.9	-52.4	20.9	6.07e-01	0	55	0	451411968	62	4929
2026-01-02 11:57:41.46	187.32	36.44	-50.1	-52.5	20.8	6.06e-01	0	55	0	452984832	62	5024
2026-01-02 11:57:42.44	187.53	36.68	-49.7	-51.9	21.3	6.09e-01	0	55	0	455081984	62	4697
2026-01-02 11:57:43.43	187.75	36.93	-49.6	-51.8	21.5	6.06e-01	0	55	0	456654848	62	4609
2026-01-02 11:57:44.42	187.97	37.18	-49.5	-51.8	21.5	6.08e-01	0	55	0	458752000	62	4599
2026-01-02 11:57:45.41	188.19	37.44	-49.6	-51.9	21.4	6.04e-01	0	55	0	460324864	62	4677
2026-01-02 11:57:46.40	188.42	37.69	-49.7	-52.0	21.3	6.07e-01	0	55	0	462422016	62	4722
2026-01-02 11:57:47.39	188.65	37.95	-49.7	-52.0	21.3	6.07e-01	0	55	0	463994880	62	4718
2026-01-02 11:57:48.38	188.88	38.21	-49.6	-51.8	21.5	6.05e-01	0	55	0	466092032	62	4635
2026-01-02 11:57:49.37	189.12	38.47	-49.7	-52.0	21.3	6.04e-01	0	55	0	467664896	62	4735
2026-01-02 11:57:50.36	189.36	38.73	-49.7	-51.9	21.4	6.05e-01	0	55	0	469762048	62	4700
2026-01-02 11:57:51.35	189.61	38.99	-49.6	-51.8	21.5	6.07e-01	0	55	0	471334912	62	4638
2026-01-02 11:57:52.34	189.86	39.26	-49.6	-51.8	21.5	6.05e-01	0	55	0	473432064	62	4631
2026-01-02 11:57:53.32	190.11	39.52	-49.6	-51.8	21.5	6.05e-01	0	55	0	475004928	62	4624
2026-01-02 11:57:54.31	190.37	39.79	-49.4	-51.6	21.7	6.07e-01	0	55	0	477102080	62	4507
2026-01-02 11:57:55.30	190.63	40.06	-49.5	-51.6	21.7	6.08e-01	0	55	0	478674944	62	4537
2026-01-02 11:57:56.29	190.89	40.33	-49.5	-51.7	21.5	6.07e-01	0	55	0	480772096	62	4596
2026-01-02 11:57:57.29	191.17	40.60	-49.1	-51.2	22.0	6.06e-01	0	55	0	482869248	61	4562
2026-01-02 11:57:58.28	191.44	40.88	-48.7	-50.6	22.7	6.05e-01	0	55	0	484442112	61	4248
2026-01-02 11:57:59.28	191.73	41.15	-48.7	-50.6	22.7	6.05e-01	0	55	0	486539264	60	4523
2026-01-02 11:58:00.26	192.01	41.43	-48.7	-50.5	22.7	6.07e-01	0	55	0	488112128	60	4492
2026-01-02 11:58:01.26	192.30	41.71	-48.4	-50.2	23.1	6.03e-01	0	55	0	490209280	60	4292
2026-01-02 11:58:02.25	192.60	41.99	-48.3	-50.0	23.3	6.06e-01	0	55	0	491782144	60	4207
2026-01-02 11:58:03.24	192.90	42.27	-48.4	-50.1	23.1	6.07e-01	0	55	0	493879296	60	4274
2026-01-02 11:58:04.23	193.20	42.55	-48.5	-50.2	23.4	6.06e-01	0	55	0	495452160	59	4563
2026-01-02 11:58:05.22	193.51	42.83	-48.6	-50.4	23.2	6.06e-01	0	55	0	497549312	59	4678
2026-01-02 11:58:06.20	193.83	43.12	-48.4	-50.1	23.5	6.06e-01	0	55	0	499122176	59	4534
2026-01-02 11:58:07.19	194.15	43.40	-48.4	-50.0	23.5	6.10e-01	0	55	0	501219328	59	4489
2026-01-02 11:58:08.18	194.48	43.69	-48.5	-50.2	23.4	6.07e-01	0	55	0	503316480	59	4553
2026-01-02 11:58:09.17	194.81	43.98	-48.4	-50.0	23.5	6.07e-01	0	55	0	504889344	59	4493
2026-01-02 11:58:10.16	195.15	44.27	-48.2	-49.8	23.8	6.07e-01	0	55	0	506986496	59	4352
2026-01-02 11:58:11.15	195.50	44.56	-48.2	-49.8	23.8	6.07e-01	0	55	0	508559360	59	4383
2026-01-02 11:58:12.14	195.85	44.85	-48.2	-49.9	23.6	6.05e-01	0	55	0	510656512	59	4411
2026-01-02 11:58:13.13	196.21	45.15	-48.1	-49.8	23.8	6.06e-01	0	55	0	512229376	59	4342
2026-01-02 11:58:14.11	196.57	45.44	-48.0	-49.6	23.9	6.07e-01	0	55	0	514326528	59	4277
2026-01-02 11:58:15.11	196.95	45.74	-48.1	-49.7	23.9	6.04e-01	0	55	0	515899392	59	4303
2026-01-02 11:58:16.09	197.33	46.03	-48.0	-49.5	24.0	6.08e-01	0	55	0	517996544	59	4228
2026-01-02 11:58:17.08	197.71	46.33	-48.1	-49.7	23.9	6.07e-01	0	55	0	519569408	59	4295
2026-01-02 11:58:18.08	198.11	46.63	-48.2	-49.9	23.7	6.07e-01	0	55	0	521666560	59	4399
2026-01-02 11:58:19.07	198.51	46.93	-47.9	-49.4	24.1	6.05e-01	0	55	0	523763712	59	4166
2026-01-02 11:58:20.05	198.92	47.22	-48.0	-49.5	24.0	6.05e-01	0	55	0	525336576	59	4236
2026-01-02 11:58:21.05	199.34	47.53	-47.9	-49.5	24.0	6.07e-01	0	55	0	527433728	59	4222
2026-01-02 11:58:22.03	199.76	47.82	-48.1	-49.7	23.8	6.07e-01	0	55	0	529006592	59	4319
2026-01-02 11:58:23.03	200.20	48.13	-48.0	-49.6	23.9	6.07e-01	0	55	0	531103744	59	4281
2026-01-02 11:58:24.02	200.65	48.43	-48.0	-49.6	23.9	6.06e-01	0	55	0	532676608	59	4278
2026-01-02 11:58:25.01	201.10	48.73	-48.0	-49.5	24.1	6.06e-01	0	55	0	534773760	59	4221
2026-01-02 11:58:26.00	201.56	49.04	-48.2	-49.9	23.7	6.08e-01	0	55	0	536346624	59	4408
2026-01-02 11:58:26.98	202.03	49.34	-47.8	-49.4	24.2	6.07e-01	0	55	0	538443776	59	4151
2026-01-02 11:58:27.98	202.51	49.64	-48.2	-49.8	23.8	6.06e-01	0	55	0	540016640	59	4376
2026-01-02 11:58:28.96	202.99	49.94	-48.1	-49.7	23.9	6.05e-01	0	55	0	542113792	59	4316
2026-01-02 11:58:29.95	203.49	50.24	-48.0	-49.6	23.9	6.07e-01	0	55	0	543686656	59	4273
2026-01-02 11:58:30.94	204.00	50.55	-48.2	-49.8	23.8	6.07e-01	0	55	0	545783808	59	4368
2026-01-02 11:58:31.93	204.52	50.85	-48.2	-49.9	23.7	6.06e-01	0	55	0	547880960	59	4394
2026-01-02 11:58:32.92	205.05	51.15	-48.0	-49.6	24.0	6.06e-01	0	55	0	549453824	59	4246
2026-01-02 11:58:33.91	205.59	51.45	-48.1	-49.7	24.0	6.07e-01	0	55	0	551550976	59	4297
2026-01-02 11:58:34.90	206.14	51.75	-48.1	-49.7	23.9	6.04e-01	0	55	0	553123840	59	4321
2026-01-02 11:58:35.88	206.70	52.05	-48.0	-49.5	24.1	6.02e-01	0	55	0	555220992	59	4218
2026-01-02 11:58:36.88	207.28	52.35	-48.1	-49.7	23.9	6.03e-01	0	55	0	556793856	59	4321
2026-01-02 11:58:37.87	207.86	52.65	-48.0	-49.6	23.9	6.02e-01	0	55	0	558891008	59	4250
2026-01-02 11:58:38.85	208.46	52.94	-48.0	-49.6	24.0	6.02e-01	0	55	0	560463872	59	4272
2026-01-02 11:58:39.85	209.07	53.24	-47.9	-49.5	24.1	6.05e-01	0	55	0	562561024	59	4194
2026-01-02 11:58:40.84	209.69	53.53	-47.9	-49.4	24.1	6.03e-01	0	55	0	564133888	59	4190
2026-01-02 11:58:41.84	210.34	53.83	-48.4	-50.0	23.6	6.03e-01	0	55	0	566231040	59	4489
2026-01-02 11:58:42.83	210.98	54.12	-48.2	-49.8	23.7	6.03e-01	0	55	0	568328192	59	4382
2026-01-02 11:58:43.82	211.65	54.41	-48.2	-49.8	23.8	6.03e-01	0	55	0	569901056	59	4381
2026-01-02 11:58:44.81	212.32	54.69	-48.2	-49.8	23.8	6.03e-01	0	55	0	571998208	59	4372
2026-01-02 11:58:45.79	213.00	54.97	-48.5	-50.2	23.4	6.05e-01	0	55	0	573571072	59	4568
2026-01-02 11:58:46.78	213.70	55.25	-48.6	-50.4	23.3	6.03e-01	0	55	0	575668224	59	4666
2026-01-02 11:58:47.77	214.42	55.53	-48.6	-50.4	23.3	6.05e-01	0	55	0	577241088	59	4668
2026-01-02 11:58:48.76	215.15	55.81	-48.7	-50.5	22.8	6.04e-01	0	55	0	579338240	60	4461
2026-01-02 11:58:49.74	215.89	56.08	-48.9	-50.8	22.5	6.00e-01	0	55	0	580911104	60	4649
2026-01-02 11:58:50.74	216.65	56.35	-49.0	-51.0	22.3	6.04e-01	0	55	0	583008256	60	4725
2026-01-02 11:58:51.73	217.43	56.62	-49.1	-51.0	22.3	6.06e-01	0	55	0	584581120	60	4753
2026-01-02 11:58:52.71	218.21	56.88	-49.6	-51.8	21.6	6.02e-01	0	55	0	586678272	61	4900
2026-01-02 11:58:53.71	219.02	57.14	-49.6	-51.8	21.6	6.03e-01	0	55	0	588775424	61	4897
2026-01-02 11:58:54.70	219.84	57.39	-49.4	-51.6	21.8	6.01e-01	0	56	0	590348288	61	4761
2026-01-02 11:58:55.69	220.68	57.64	-49.8	-52.1	21.2	6.03e-01	0	55	0	591921152	61	5091
2026-01-02 11:58:56.68	221.53	57.88	-49.6	-51.9	21.5	6.05e-01	0	55	0	594018304	61	4927
2026-01-02 11:58:57.67	222.39	58.12	-49.7	-51.9	21.5	6.03e-01	0	55	0	596115456	61	4958
2026-01-02 11:58:58.66	223.27	58.36	-49.7	-52.0	21.4	6.03e-01	0	55	0	597688320	61	4984
2026-01-02 11:58:59.65	224.17	58.59	-50.1	-52.5	20.9	6.03e-01	0	55	0	599785472	62	5034
2026-01-02 11:59:00.64	225.08	58.81	-49.9	-52.3	21.0	6.05e-01	0	55	0	601358336	62	4909
2026-01-02 11:59:01.63	226.01	59.03	-49.9	-52.3	21.0	6.04e-01	0	55	0	603455488	62	4911
2026-01-02 11:59:02.62	226.95	59.24	-50.1	-52.5	20.9	6.03e-01	0	55	0	605028352	62	4994
2026-01-02 11:59:03.62	227.92	59.45	-50.2	-52.6	20.7	6.03e-01	0	55	0	607125504	62	5099
2026-01-02 11:59:04.61	228.89	59.65	-50.2	-52.7	20.7	6.03e-01	0	56	0	608698368	62	5142
2026-01-02 11:59:05.60	229.88	59.84	-50.3	-52.8	20.6	6.02e-01	0	55	0	610795520	62	5188
2026-01-02 11:59:06.58	230.87	60.02	-50.5	-53.1	20.3	6.01e-01	0	55	0	612368384	63	5083
2026-01-02 11:59:07.58	231.89	60.20	-50.3	-52.8	20.5	6.03e-01	0	56	0	614465536	63	4925
2026-01-02 11:59:08.57	232.92	60.37	-50.2	-52.7	20.7	6.04e-01	0	55	0	616562688	63	4863
2026-01-02 11:59:09.56	233.97	60.53	-50.3	-52.9	20.5	6.04e-01	0	55	0	618135552	63	4974
2026-01-02 11:59:10.55	235.02	60.69	-50.1	-52.5	20.9	6.05e-01	0	55	0	620232704	63	4715
2026-01-02 11:59:11.54	236.09	60.83	-50.3	-52.9	20.5	6.03e-01	0	56	0	621805568	63	4927
2026-01-02 11:59:12.53	237.17	60.97	-50.3	-52.8	20.6	6.02e-01	0	55	0	623902720	63	4903
2026-01-02 11:59:13.52	238.27	61.10	-50.3	-52.8	20.5	6.04e-01	0	55	0	625475584	63	4903
2026-01-02 11:59:14.51	239.37	61.22	-50.4	-53.1	20.4	6.04e-01	0	55	0	627572736	63	5042
2026-01-02 11:59:15.50	240.48	61.33	-50.6	-53.4	20.0	6.04e-01	0	55	0	629145600	63	5228
2026-01-02 11:59:16.49	241.61	61.43	-50.3	-52.8	20.6	6.02e-01	0	56	0	631242752	63	4903
2026-01-02 11:59:17.48	242.74	61.52	-50.1	-52.4	21.0	6.03e-01	0	56	0	632815616	63	4702
2026-01-02 11:59:18.47	243.88	61.61	-50.3	-52.8	20.6	6.04e-01	0	56	0	634912768	63	4899
2026-01-02 11:59:19.46	245.03	61.68	-50.3	-52.9	20.5	6.05e-01	0	55	0	637009920	63	4972
2026-01-02 11:59:20.45	246.18	61.74	-50.4	-53.0	20.5	6.03e-01	0	56	0	638582784	63	5006
2026-01-02 11:59:21.44	247.34	61.80	-50.2	-52.7	20.7	6.03e-01	0	55	0	640679936	63	4869
2026-01-02 11:59:22.43	248.50	61.84	-50.8	-53.6	19.8	6.02e-01	0	56	0	642252800	63	5401
2026-01-02 11:59:23.42	249.67	61.87	-50.4	-53.1	20.3	6.03e-01	0	56	0	644349952	63	5051
2026-01-02 11:59:24.41	250.84	61.90	-50.4	-52.9	20.5	6.04e-01	0	56	0	645922816	63	4979
2026-01-02 11:59:25.40	252.01	61.91	-50.6	-53.3	20.1	6.02e-01	0	56	0	648019968	63	5176
2026-01-02 11:59:26.39	253.18	61.92	-50.5	-53.1	20.3	6.01e-01	0	56	0	649592832	63	5094
2026-01-02 11:59:27.38	254.36	61.91	-50.0	-52.4	21.0	6.01e-01	0	56	0	651689984	63	4653
2026-01-02 11:59:28.37	255.53	61.89	-50.3	-52.8	20.6	6.02e-01	0	56	0	653262848	63	4904
2026-01-02 11:59:29.35	256.68	61.86	-50.6	-53.3	20.1	6.01e-01	0	56	0	655360000	63	5188
2026-01-02 11:59:30.33	257.84	61.83	-50.1	-52.5	20.9	6.03e-01	0	55	0	656932864	63	4736
2026-01-02 11:59:31.32	259.00	61.78	-50.3	-52.8	20.6	6.03e-01	0	56	0	659030016	63	4885
2026-01-02 11:59:32.31	260.16	61.72	-50.3	-52.9	20.5	6.04e-01	0	56	0	661127168	63	4944
2026-01-02 11:59:33.31	261.32	61.66	-50.3	-52.8	20.6	6.05e-01	0	56	0	662700032	63	4922
2026-01-02 11:59:34.30	262.46	61.58	-50.3	-52.8	20.7	6.03e-01	0	56	0	664797184	63	4899
2026-01-02 11:59:35.29	263.60	61.50	-50.2	-52.6	20.7	6.04e-01	0	56	0	666370048	63	4798
2026-01-02 11:59:36.27	264.72	61.40	-50.4	-53.0	20.5	6.04e-01	0	56	0	668467200	63	4993
2026-01-02 11:59:37.26	265.84	61.30	-50.0	-52.3	21.0	6.03e-01	0	56	0	670040064	63	4643
2026-01-02 11:59:38.25	266.95	61.18	-49.9	-52.2	21.2	6.01e-01	0	56	0	672137216	63	4591
2026-01-02 11:59:39.24	268.05	61.06	-49.9	-52.3	21.1	6.03e-01	0	56	0	673710080	63	4626
2026-01-02 11:59:40.23	269.13	60.93	-50.2	-52.7	20.7	6.03e-01	0	56	0	675807232	63	4838
2026-01-02 11:59:41.22	270.21	60.79	-49.9	-52.2	21.2	6.05e-01	0	56	0	677380096	63	4591
2026-01-02 11:59:42.21	271.28	60.64	-49.6	-51.8	21.6	6.04e-01	0	56	0	679477248	62	4615
2026-01-02 11:59:43.21	272.34	60.48	-50.1	-52.6	20.8	6.04e-01	0	56	0	681574400	62	5055
2026-01-02 11:59:44.20	273.38	60.32	-49.8	-52.2	21.2	6.03e-01	0	56	0	683147264	62	4822
2026-01-02 11:59:45.20	274.41	60.14	-49.9	-52.3	21.1	6.03e-01	0	56	0	685244416	62	4878
2026-01-02 11:59:46.19	275.42	59.96	-50.0	-52.3	21.1	6.02e-01	0	56	0	686817280	62	4909
2026-01-02 11:59:47.17	276.41	59.78	-50.3	-52.8	20.6	6.04e-01	0	56	0	688914432	62	5205
2026-01-02 11:59:48.17	277.40	59.58	-50.2	-52.7	20.7	6.02e-01	0	56	0	690487296	62	5153
2026-01-02 11:59:49.16	278.37	59.38	-50.4	-53.0	20.4	6.03e-01	0	56	0	692584448	63	4992
2026-01-02 11:59:50.16	279.33	59.17	-49.7	-52.0	21.3	6.03e-01	0	56	0	694157312	63	4472
2026-01-02 11:59:51.14	280.25	58.96	-49.8	-52.0	21.4	6.04e-01	0	56	0	696254464	62	4739
2026-01-02 11:59:52.14	281.18	58.74	-49.7	-51.9	21.5	6.03e-01	0	56	0	697827328	62	4683
2026-01-02 11:59:53.13	282.09	58.51	-49.3	-51.3	22.0	6.03e-01	0	56	0	699924480	62	4364
2026-01-02 11:59:54.12	282.98	58.28	-48.9	-50.8	22.5	6.04e-01	0	56	0	702021632	61	4360
2026-01-02 11:59:55.11	283.85	58.05	-49.0	-50.9	22.4	6.03e-01	0	56	0	703594496	61	4424
2026-01-02 11:59:56.09	284.70	57.81	-49.0	-51.0	22.3	6.01e-01	0	56	0	705167360	61	4481
2026-01-02 11:59:57.08	285.55	57.56	-48.8	-50.7	22.5	6.05e-01	0	56	0	707264512	61	4310
2026-01-02 11:59:58.07	286.38	57.31	-48.5	-50.3	23.0	6.02e-01	0	56	0	709361664	60	4376
2026-01-02 11:59:59.06	287.19	57.06	-48.6	-50.5	22.9	6.05e-01	0	56	0	710934528	60	4444
2026-01-02 12:00:00.05	287.99	56.80	-48.4	-50.2	23.1	6.02e-01	0	56	0	713031680	60	4310
2026-01-02 12:00:01.04	288.77	56.54	-48.7	-50.5	22.8	6.03e-01	0	56	0	714604544	60	4487
2026-01-02 12:00:02.03	289.54	56.27	-48.4	-50.1	23.1	6.02e-01	0	56	0	716701696	60	4276
2026-01-02 12:00:03.02	290.29	56.00	-48.3	-50.0	23.3	6.03e-01	0	56	0	718274560	60	4232
2026-01-02 12:00:04.02	291.04	55.73	-48.4	-50.1	23.2	6.03e-01	0	56	0	720371712	60	4286
2026-01-02 12:00:05.00	291.76	55.45	-48.6	-50.5	22.8	6.02e-01	0	56	0	721944576	60	4456
2026-01-02 12:00:05.98	292.46	55.18	-48.4	-50.2	23.1	6.02e-01	0	56	0	724041728	60	4318
2026-01-02 12:00:06.98	293.17	54.89	-48.4	-50.1	23.1	6.04e-01	0	56	0	725614592	60	4281
2026-01-02 12:00:07.96	293.84	54.61	-48.3	-50.0	23.3	6.03e-01	0	56	0	727711744	60	4212
2026-01-02 12:00:08.95	294.51	54.33	-48.4	-50.0	23.5	6.02e-01	0	56	0	729284608	59	4485
2026-01-02 12:00:09.94	295.17	54.04	-48.5	-50.2	23.4	6.03e-01	0	56	0	731381760	59	4580
2026-01-02 12:00:10.92	295.80	53.75	-48.9	-50.7	22.9	6.03e-01	0	56	0	733478912	59	4855
2026-01-02 12:00:11.91	296.43	53.46	-48.4	-50.2	23.1	6.01e-01	0	56	0	735051776	60	4304
2026-01-02 12:00:12.90	297.05	53.17	-48.3	-50.1	23.1	6.04e-01	0	56	0	737148928	60	4256
2026-01-02 12:00:13.89	297.66	52.87	-48.4	-50.1	23.5	6.04e-01	0	56	0	738721792	59	4509
2026-01-02 12:00:14.88	298.25	52.57	-48.6	-50.3	23.3	6.03e-01	0	56	0	740818944	59	4648
2026-01-02 12:00:15.88	298.84	52.27	-48.7	-50.5	23.2	6.01e-01	0	56	0	742391808	59	4710
2026-01-02 12:00:16.87	299.41	51.98	-48.6	-50.4	22.9	6.03e-01	0	56	0	744488960	60	4428
2026-01-02 12:00:17.85	299.96	51.68	-48.8	-50.6	22.7	6.03e-01	0	56	0	746061824	60	4545
2026-01-02 12:00:18.85	300.51	51.38	-48.8	-50.8	22.5	6.02e-01	0	56	0	748158976	60	4601
2026-01-02 12:00:19.84	301.05	51.08	-48.7	-50.5	22.7	6.02e-01	0	56	0	749731840	60	4477
2026-01-02 12:00:20.83	301.58	50.78	-48.9	-50.8	22.5	6.04e-01	0	56	0	751828992	60	4629
2026-01-02 12:00:21.82	302.09	50.47	-49.1	-51.1	22.2	6.03e-01	0	56	0	753926144	60	4797
2026-01-02 12:00:22.81	302.60	50.17	-49.5	-51.7	21.7	6.03e-01	0	56	0	755499008	61	4818
2026-01-02 12:00:23.81	303.10	49.87	-49.3	-51.4	21.9	6.03e-01	0	56	0	757596160	61	4669
2026-01-02 12:00:24.80	303.58	49.57	-49.1	-51.1	22.2	6.05e-01	0	56	0	759169024	61	4522
2026-01-02 12:00:25.79	304.06	49.26	-49.2	-51.2	22.1	6.04e-01	0	56	0	761266176	61	4590
2026-01-02 12:00:26.78	304.52	48.96	-49.2	-51.2	22.1	6.03e-01	0	56	0	762839040	61	4576
2026-01-02 12:00:27.77	304.98	48.66	-49.2	-51.2	22.2	6.04e-01	0	56	0	764936192	61	4556
2026-01-02 12:00:28.76	305.43	48.36	-49.1	-51.1	22.2	6.04e-01	0	56	0	766509056	61	4519
2026-01-02 12:00:29.75	305.87	48.06	-48.9	-50.8	22.4	6.01e-01	0	56	0	768606208	61	4385
2026-01-02 12:00:30.74	306.30	47.76	-48.7	-50.5	22.8	6.05e-01	0	56	0	770179072	60	4457
2026-01-02 12:00:31.72	306.72	47.46	-48.6	-50.5	22.8	6.05e-01	0	56	0	772276224	60	4448
2026-01-02 12:00:32.71	307.13	47.16	-48.7	-50.6	22.7	6.02e-01	0	56	0	774373376	60	4495
2026-01-02 12:00:33.70	307.54	46.87	-48.6	-50.4	22.9	6.04e-01	0	56	0	775946240	60	4403
2026-01-02 12:00:34.69	307.94	46.57	-48.6	-50.4	22.9	6.01e-01	0	56	0	778043392	60	4404
2026-01-02 12:00:35.68	308.33	46.27	-48.8	-50.6	22.7	6.01e-01	0	56	0	779616256	60	4541
2026-01-02 12:00:36.68	308.72	45.97	-48.7	-50.5	22.7	6.03e-01	0	56	0	781713408	60	4489
2026-01-02 12:00:37.67	309.10	45.68	-48.4	-50.2	23.0	6.02e-01	0	56	0	783286272	60	4307
2026-01-02 12:00:38.65	309.47	45.39	-48.4	-50.1	23.1	6.02e-01	0	56	0	785383424	60	4280
2026-01-02 12:00:39.64	309.83	45.09	-48.4	-50.2	23.1	6.04e-01	0	56	0	786956288	60	4300
2026-01-02 12:00:40.64	310.19	44.80	-48.6	-50.4	22.9	6.03e-01	0	56	0	789053440	60	4417
2026-01-02 12:00:41.63	310.54	44.51	-48.7	-50.6	22.7	6.04e-01	0	56	0	790626304	60	4521
2026-01-02 12:00:42.63	310.89	44.21	-48.7	-50.6	22.7	6.05e-01	0	56	0	792723456	60	4516
2026-01-02 12:00:43.62	311.23	43.93	-48.7	-50.5	22.8	6.04e-01	0	56	0	794820608	60	4455
2026-01-02 12:00:44.62	311.56	43.63	-48.8	-50.7	22.6	6.04e-01	0	56	0	796393472	60	4594
2026-01-02 12:00:45.60	311.88	43.35	-48.9	-50.8	22.5	6.04e-01	0	56	0	798490624	60	4637
2026-01-02 12:00:46.59	312.20	43.07	-49.0	-50.9	22.4	6.02e-01	0	56	0	800063488	60	4695
2026-01-02 12:00:47.58	312.52	42.78	-49.2	-51.2	22.1	6.04e-01	0	56	0	802160640	60	4870
2026-01-02 12:00:48.57	312.83	42.50	-49.1	-51.1	22.2	6.02e-01	0	56	0	803733504	60	4793
2026-01-02 12:00:49.57	313.13	42.22	-49.1	-51.2	22.1	6.03e-01	0	56	0	805830656	60	4822
2026-01-02 12:00:50.56	313.43	41.94	-49.3	-51.4	21.9	6.03e-01	0	56	0	807403520	60	4966
2026-01-02 12:00:51.55	313.72	41.66	-49.4	-51.5	21.8	6.02e-01	0	56	0	809500672	61	4752
2026-01-02 12:00:52.54	314.01	41.38	-49.4	-51.5	21.8	6.04e-01	0	56	0	811073536	61	4726
2026-01-02 12:00:53.53	314.30	41.11	-49.6	-51.8	21.5	6.03e-01	0	56	0	813170688	61	4901
2026-01-02 12:00:54.52	314.57	40.83	-49.7	-52.1	21.3	6.02e-01	0	56	0	815267840	61	5049
2026-01-02 12:00:55.52	314.85	40.56	-49.5	-51.7	21.6	6.03e-01	0	56	0	816840704	61	4835
2026-01-02 12:00:56.51	315.12	40.29	-49.3	-51.4	21.9	6.02e-01	0	56	0	818937856	61	4670
2026-01-02 12:00:57.49	315.38	40.02	-49.2	-51.3	22.0	6.04e-01	0	56	0	820510720	61	4599
2026-01-02 12:00:58.49	315.65	39.75	-49.1	-51.0	22.2	6.03e-01	0	56	0	822607872	61	4491
2026-01-02 12:00:59.48	315.90	39.49	-49.0	-51.0	22.3	6.05e-01	0	56	0	824180736	61	4460
2026-01-02 12:01:00.47	316.15	39.22	-49.1	-51.0	22.2	6.03e-01	0	56	0	826277888	61	4487
2026-01-02 12:01:01.46	316.40	38.96	-49.0	-50.9	22.4	6.02e-01	0	56	0	827850752	61	4419
2026-01-02 12:01:02.45	316.65	38.70	-49.0	-51.0	22.3	6.05e-01	0	56	0	829947904	61	4456
2026-01-02 12:01:03.44	316.89	38.44	-49.1	-51.1	22.2	6.03e-01	0	56	0	831520768	61	4523
2026-01-02 12:01:04.43	317.12	38.18	-49.0	-51.0	22.3	6.05e-01	0	56	0	833617920	61	4477
2026-01-02 12:01:05.42	317.35	37.92	-49.2	-51.2	22.1	6.01e-01	0	56	0	835190784	61	4588
2026-01-02 12:01:06.41	317.58	37.67	-49.2	-51.3	22.0	6.04e-01	0	56	0	837287936	61	4638
2026-01-02 12:01:07.40	317.81	37.41	-49.1	-51.2	22.1	6.03e-01	0	56	0	838860800	61	4560
2026-01-02 12:01:08.39	318.03	37.16	-49.1	-51.2	22.1	6.05e-01	0	56	0	840957952	61	4558
2026-01-02 12:01:09.38	318.25	36.91	-49.2	-51.2	22.1	6.03e-01	0	56	0	843055104	61	4577
2026-01-02 12:01:10.36	318.46	36.66	-49.0	-50.9	22.1	6.01e-01	0	56	0	844627968	61	4439
2026-01-02 12:01:11.35	318.67	36.42	-48.8	-50.7	22.5	6.03e-01	0	56	0	846725120	61	4334
2026-01-02 12:01:12.34	318.88	36.17	-48.8	-50.7	22.6	6.03e-01	0	56	0	848297984	61	4307
2026-01-02 12:01:13.33	319.09	35.93	-48.8	-50.6	22.6	6.02e-01	0	56	0	850395136	61	4289
2026-01-02 12:01:14.32	319.29	35.68	-48.7	-50.6	22.7	6.03e-01	0	56	0	851968000	60	4495
2026-01-02 12:01:15.31	319.49	35.44	-48.8	-50.7	22.5	6.04e-01	0	56	0	854065152	60	4559
2026-01-02 12:01:16.31	319.69	35.20	-48.2	-50.0	23.2	6.04e-01	0	56	0	855638016	60	4195
2026-01-02 12:01:17.30	319.88	34.96	-48.2	-49.8	23.7	6.04e-01	0	56	0	857735168	59	4356
2026-01-02 12:01:18.30	320.08	34.72	-47.9	-49.5	24.0	6.04e-01	0	56	0	859308032	59	4204
2026-01-02 12:01:19.29	320.26	34.49	-47.9	-49.4	24.0	6.04e-01	0	56	0	861405184	59	4172
2026-01-02 12:01:20.29	320.45	34.25	-48.0	-49.5	23.9	6.03e-01	0	56	0	863502336	59	4235
2026-01-02 12:01:21.28	320.63	34.02	-48.0	-49.6	23.9	6.02e-01	0	56	0	865075200	59	4251
2026-01-02 12:01:22.27	320.81	33.79	-48.1	-49.7	23.8	6.06e-01	0	56	0	867172352	59	4316
2026-01-02 12:01:23.26	320.99	33.56	-48.0	-49.6	23.8	6.03e-01	0	56	0	868745216	59	4275
2026-01-02 12:01:24.25	321.17	33.34	-48.0	-49.6	23.8	6.05e-01	0	56	0	870842368	59	4288
2026-01-02 12:01:25.24	321.34	33.11	-48.1	-49.7	23.8	6.03e-01	0	56	0	872415232	59	4313
2026-01-02 12:01:26.23	321.51	32.89	-47.9	-49.5	24.0	6.02e-01	0	56	0	874512384	59	4197
2026-01-02 12:01:27.22	321.68	32.67	-48.0	-49.6	23.9	6.04e-01	0	56	0	876085248	59	4278
2026-01-02 12:01:28.20	321.84	32.45	-47.9	-49.4	24.0	6.05e-01	0	56	0	878182400	59	4192
2026-01-02 12:01:29.18	322.01	32.23	-47.8	-49.3	24.1	6.04e-01	0	56	0	879755264	59	4120
2026-01-02 12:01:30.17	322.17	32.01	-47.8	-49.3	24.1	6.03e-01	0	56	0	881852416	59	4135
2026-01-02 12:01:31.16	322.33	31.79	-47.7	-49.2	24.2	6.05e-01	0	56	0	883949568	59	4093
2026-01-02 12:01:32.15	322.48	31.58	-47.8	-49.3	24.1	6.04e-01	0	56	0	885522432	59	4142
2026-01-02 12:01:33.14	322.64	31.37	-48.0	-49.6	23.9	6.03e-01	0	56	0	887619584	59	4243
2026-01-02 12:01:34.13	322.79	31.15	-48.0	-49.6	23.8	6.04e-01	0	56	0	889192448	59	4285
2026-01-02 12:01:35.12	322.94	30.94	-48.2	-49.8	23.6	6.05e-01	0	56	0	891289600	59	4387
2026-01-02 12:01:36.11	323.09	30.73	-47.9	-49.5	23.9	6.05e-01	0	56	0	892862464	59	4227
2026-01-02 12:01:37.10	323.24	30.53	-47.9	-49.4	24.0	6.04e-01	0	56	0	894959616	59	4169
2026-01-02 12:01:38.09	323.39	30.32	-47.9	-49.4	24.0	6.04e-01	0	56	0	896532480	59	4178
2026-01-02 12:01:39.08	323.53	30.11	-48.0	-49.6	23.9	6.02e-01	0	56	0	898629632	59	4254
2026-01-02 12:01:40.08	323.67	29.91	-48.3	-50.0	23.5	6.03e-01	0	56	0	900202496	59	4443
2026-01-02 12:01:41.07	323.81	29.71	-48.0	-49.6	23.8	6.03e-01	0	56	0	902299648	59	4291
2026-01-02 12:01:42.06	323.95	29.51	-47.9	-49.5	24.0	6.03e-01	0	56	0	904396800	59	4199
2026-01-02 12:01:43.05	324.09	29.31	-47.9	-49.4	24.0	6.03e-01	0	56	0	905969664	59	4175
2026-01-02 12:01:44.04	324.22	29.11	-48.0	-49.6	23.9	6.06e-01	0	56	0	908066816	59	4251
2026-01-02 12:01:45.02	324.35	28.91	-48.2	-49.9	23.6	6.02e-01	0	56	0	909639680	59	4395
2026-01-02 12:01:46.02	324.49	28.71	-48.1	-49.7	23.7	6.00e-01	0	56	0	911736832	59	4340
2026-01-02 12:01:47.01	324.62	28.52	-48.2	-49.9	23.5	6.04e-01	0	56	0	913309696	59	4415
2026-01-02 12:01:47.99	324.74	28.33	-48.2	-49.8	23.7	6.03e-01	0	56	0	915406848	59	4361
2026-01-02 12:01:48.99	324.87	28.14	-48.1	-49.8	23.7	6.03e-01	0	56	0	916979712	59	4342
2026-01-02 12:01:49.97	325.00	27.95	-48.1	-49.7	23.7	6.03e-01	0	57	0	919076864	59	4330
2026-01-02 12:01:50.96	325.12	27.76	-48.2	-49.8	23.6	6.03e-01	0	56	0	920649728	59	4383
2026-01-02 12:01:51.95	325.24	27.57	-48.4	-50.2	23.3	6.03e-01	0	56	0	922746880	59	4556
2026-01-02 12:01:52.94	325.36	27.38	-48.3	-50.0	23.4	6.03e-01	0	56	0	924319744	59	4459
2026-01-02 12:01:53.94	325.48	27.20	-48.2	-49.8	23.6	6.04e-01	0	56	0	926416896	59	4381
2026-01-02 12:01:54.92	325.60	27.01	-48.2	-49.8	23.6	6.03e-01	0	56	0	928514048	59	4382
2026-01-02 12:01:55.92	325.72	26.83	-48.3	-49.9	23.5	6.04e-01	0	56	0	930086912	59	4437
2026-01-02 12:01:56.91	325.84	26.65	-48.2	-49.9	23.5	6.02e-01	0	56	0	932184064	59	4412
2026-01-02 12:01:57.90	325.95	26.47	-48.4	-50.1	23.4	6.03e-01	0	56	0	933756928	59	4508
2026-01-02 12:01:58.89	326.06	26.29	-48.3	-50.1	23.4	6.02e-01	0	56	0	935854080	59	4494
2026-01-02 12:01:59.88	326.17	26.11	-48.5	-50.2	23.3	6.03e-01	0	56	0	937426944	59	4584
2026-01-02 12:02:00.85	326.28	25.94	-48.4	-50.2	23.3	6.02e-01	0	56	0	939524096	59	4552
2026-01-02 12:02:01.84	326.39	25.76	-48.5	-50.3	23.2	6.03e-01	0	56	0	941096960	59	4627
2026-01-02 12:02:02.83	326.50	25.59	-48.7	-50.5	22.9	6.02e-01	0	56	0	943194112	59	4756
2026-01-02 12:02:03.82	326.61	25.41	-48.7	-50.5	23.0	6.07e-01	0	56	0	944766976	59	4714
2026-01-02 12:02:04.80	326.71	25.24	-48.8	-50.6	22.9	6.04e-01	0	56	0	946864128	59	4803
2026-01-02 12:02:05.80	326.82	25.07	-48.6	-50.5	22.6	6.01e-01	0	56	0	948436992	60	4482
2026-01-02 12:02:06.79	326.92	24.90	-48.9	-50.9	22.2	6.04e-01	0	56	0	950534144	60	4693
2026-01-02 12:02:07.78	327.02	24.73	-48.8	-50.7	22.5	6.04e-01	0	56	0	952107008	60	4564
2026-01-02 12:02:08.78	327.13	24.56	-48.5	-50.4	22.7	6.04e-01	0	56	0	954204160	60	4396
2026-01-02 12:02:09.77	327.23	24.39	-48.4	-50.2	22.9	6.04e-01	0	56	0	956301312	60	4301
2026-01-02 12:02:10.76	327.32	24.23	-48.4	-50.3	22.8	6.04e-01	0	56	0	957874176	60	4344
2026-01-02 12:02:11.75	327.42	24.06	-48.3	-50.1	22.9	6.02e-01	0	56	0	959971328	60	4278
2026-01-02 12:02:12.75	327.52	23.90	-48.2	-50.0	23.0	6.03e-01	0	56	0	961544192	60	4227
2026-01-02 12:02:13.74	327.62	23.73	-48.2	-49.9	23.1	6.04e-01	0	56	0	963641344	60	4192
2026-01-02 12:02:14.72	327.71	23.57	-48.3	-50.1	22.9	6.04e-01	0	56	0	965214208	60	4246
2026-01-02 12:02:15.72	327.81	23.41	-48.4	-50.3	22.8	6.05e-01	0	56	0	967311360	60	4347
2026-01-02 12:02:16.71	327.90	23.25	-48.4	-50.2	22.9	6.03e-01	0	56	0	968884224	60	4310
2026-01-02 12:02:17.70	327.99	23.09	-48.2	-50.0	23.1	6.04e-01	0	56	0	970981376	60	4216
2026-01-02 12:02:18.69	328.08	22.94	-48.6	-50.3	23.1	6.03e-01	0	56	0	972554240	59	4650
2026-01-02 12:02:19.68	328.17	22.78	-48.6	-50.4	23.0	6.03e-01	0	56	0	974651392	59	4657
2026-01-02 12:02:20.67	328.26	22.62	-48.6	-50.4	23.0	6.03e-01	0	56	0	976748544	59	4657
2026-01-02 12:02:21.66	328.35	22.47	-48.6	-50.4	23.1	6.02e-01	0	56	0	978321408	59	4652
2026-01-02 12:02:22.65	328.44	22.32	-48.5	-50.3	23.1	6.03e-01	0	56	0	980418560	59	4634
2026-01-02 12:02:23.64	328.53	22.16	-48.6	-50.3	23.1	6.04e-01	0	56	0	981991424	59	4648
2026-01-02 12:02:24.62	328.61	22.01	-48.6	-50.3	23.1	6.04e-01	0	56	0	984088576	59	4638
2026-01-02 12:02:25.60	328.70	21.86	-48.4	-50.2	23.3	6.04e-01	0	56	0	985661440	59	4556
2026-01-02 12:02:26.59	328.78	21.71	-48.3	-50.0	23.4	6.02e-01	0	56	0	987758592	59	4489
2026-01-02 12:02:27.59	328.86	21.56	-48.3	-50.0	23.4	6.04e-01	0	56	0	989331456	59	4479
2026-01-02 12:02:28.58	328.95	21.41	-48.4	-50.2	23.2	6.05e-01	0	56	0	991428608	59	4560
2026-01-02 12:02:29.56	329.03	21.27	-48.4	-50.2	23.2	6.02e-01	0	57	0	993001472	59	4546
2026-01-02 12:02:30.54	329.11	21.12	-48.3	-50.0	23.4	6.04e-01	0	56	0	995098624	59	4455
2026-01-02 12:02:31.53	329.19	20.98	-48.3	-49.9	23.4	6.04e-01	0	56	0	996671488	59	4440
2026-01-02 12:02:32.51	329.27	20.83	-48.4	-50.1	23.3	6.06e-01	0	56	0	998768640	59	4506
2026-01-02 12:02:33.50	329.35	20.69	-48.4	-50.2	23.2	6.03e-01	0	56	0	1000341504	59	4552
2026-01-02 12:02:34.49	329.43	20.55	-48.4	-50.1	23.2	6.03e-01	0	57	0	1002438656	59	4543
2026-01-02 12:02:35.48	329.50	20.40	-48.3	-50.0	23.3	6.03e-01	0	56	0	1004535808	59	4464
2026-01-02 12:02:36.47	329.58	20.26	-48.3	-50.0	23.3	6.03e-01	0	56	0	1006108672	59	4461
2026-01-02 12:02:37.46	329.66	20.12	-48.4	-50.1	23.3	6.03e-01	0	56	0	1008205824	59	4533
2026-01-02 12:02:38.45	329.73	19.98	-48.4	-50.2	23.2	6.02e-01	0	56	0	1009778688	59	4565
2026-01-02 12:02:39.44	329.81	19.84	-48.4	-50.2	23.2	6.05e-01	0	56	0	1011875840	59	4558
2026-01-02 12:02:40.43	329.88	19.71	-48.5	-50.3	23.1	6.04e-01	0	56	0	1013448704	59	4622
2026-01-02 12:02:41.42	329.95	19.57	-48.5	-50.3	23.1	6.03e-01	0	56	0	1015545856	59	4613
2026-01-02 12:02:42.41	330.03	19.43	-48.6	-50.4	23.0	6.05e-01	0	56	0	1017118720	59	4658
2026-01-02 12:02:43.41	330.10	19.29	-48.6	-50.4	23.0	6.03e-01	0	56	0	1019215872	59	4663
2026-01-02 12:02:44.40	330.17	19.16	-48.6	-50.4	23.0	6.05e-01	0	56	0	1020788736	59	4670
2026-01-02 12:02:45.38	330.24	19.03	-48.6	-50.5	22.9	6.01e-01	0	56	0	1022885888	59	4723
2026-01-02 12:02:46.38	330.31	18.89	-48.4	-50.2	23.1	6.04e-01	0	56	0	1024983040	59	4563
2026-01-02 12:02:47.37	330.38	18.76	-48.3	-50.0	23.2	6.04e-01	0	56	0	1026555904	59	4472
2026-01-02 12:02:48.37	330.45	18.63	-48.2	-49.9	23.3	6.05e-01	0	56	0	1028653056	59	4441
2026-01-02 12:02:49.35	330.52	18.50	-48.3	-50.0	23.3	6.03e-01	0	57	0	1030225920	59	4484
2026-01-02 12:02:50.33	330.59	18.37	-48.4	-50.1	23.2	6.03e-01	0	56	0	1032323072	59	4520
2026-01-02 12:02:51.33	330.66	18.24	-48.3	-50.0	23.3	6.03e-01	0	56	0	1033895936	59	4466
2026-01-02 12:02:52.31	330.72	18.11	-48.4	-50.2	23.0	6.04e-01	0	56	0	1035993088	59	4579
2026-01-02 12:02:53.30	330.79	17.98	-48.6	-50.4	22.9	6.03e-01	0	56	0	1037565952	59	4685
2026-01-02 12:02:54.29	330.85	17.85	-48.4	-50.2	23.1	6.03e-01	0	56	0	1039663104	59	4556
2026-01-02 12:02:55.28	330.92	17.73	-48.2	-49.9	23.4	6.02e-01	0	56	0	1041235968	59	4410
2026-01-02 12:02:56.27	330.98	17.60	-48.1	-49.8	23.5	6.05e-01	0	56	0	1043333120	59	4360
2026-01-02 12:02:57.25	331.05	17.47	-48.1	-49.8	23.5	6.02e-01	0	57	0	1044905984	59	4362
2026-01-02 12:02:58.24	331.11	17.35	-48.0	-49.7	23.5	6.05e-01	0	57	0	1047003136	59	4302
2026-01-02 12:02:59.23	331.17	17.23	-48.0	-49.6	23.6	6.01e-01	0	57	0	1048576000	59	4288
2026-01-02 12:03:00.23	331.24	17.10	-48.1	-49.7	23.5	6.04e-01	0	57	0	1050673152	59	4322
2026-01-02 12:03:01.22	331.30	16.98	-48.2	-49.9	23.4	6.04e-01	0	57	0	1052770304	59	4418
2026-01-02 12:03:02.21	331.36	16.86	-48.4	-50.2	23.1	6.01e-01	0	56	0	1054343168	59	4561
2026-01-02 12:03:03.19	331.42	16.74	-48.2	-49.9	23.3	6.04e-01	0	56	0	1056440320	59	4408
2026-01-02 12:03:04.18	331.48	16.61	-48.1	-49.8	23.5	6.04e-01	0	57	0	1058013184	59	4362
2026-01-02 12:03:05.17	331.54	16.49	-48.2	-49.9	23.4	6.03e-01	0	57	0	1060110336	59	4406
2026-01-02 12:03:06.16	331.60	16.37	-48.1	-49.8	23.4	6.03e-01	0	56	0	1061683200	59	4370
2026-01-02 12:03:07.15	331.66	16.26	-48.1	-49.8	23.4	6.04e-01	0	57	0	1063780352	59	4372
2026-01-02 12:03:08.14	331.72	16.14	-48.1	-49.8	23.4	6.02e-01	0	56	0	1065353216	59	4384
2026-01-02 12:03:09.12	331.78	16.02	-48.2	-49.9	23.3	6.01e-01	0	56	0	1067450368	59	4434
2026-01-02 12:03:10.12	331.84	15.90	-48.1	-49.8	23.4	6.04e-01	0	56	0	1069023232	59	4362
2026-01-02 12:03:11.10	331.89	15.79	-48.1	-49.7	23.5	6.03e-01	0	57	0	1071120384	59	4337
2026-01-02 12:03:12.10	331.95	15.67	-48.2	-49.9	23.4	6.04e-01	0	56	0	1072693248	59	4397
2026-01-02 12:03:13.09	332.01	15.55	-48.3	-50.0	23.2	6.04e-01	0	56	0	1074790400	59	4478
2026-01-02 12:03:14.08	332.06	15.44	-48.1	-49.8	23.4	6.04e-01	0	57	0	1076887552	59	4391
2026-01-02 12:03:15.08	332.12	15.32	-48.3	-50.1	23.2	6.04e-01	0	56	0	1078460416	59	4502
2026-01-02 12:03:16.07	332.17	15.21	-48.6	-50.4	22.8	6.01e-01	0	56	0	1080557568	59	4693
2026-01-02 12:03:17.07	332.23	15.09	-48.3	-50.1	23.1	6.03e-01	0	57	0	1082130432	59	4530
2026-01-02 12:03:18.06	332.28	14.98	-48.4	-50.2	23.0	6.02e-01	0	56	0	1084227584	59	4589
2026-01-02 12:03:19.04	332.34	14.87	-48.6	-50.4	22.8	6.05e-01	0	56	0	1085800448	59	4695
2026-01-02 12:03:20.04	332.39	14.76	-48.4	-50.2	23.0	6.05e-01	0	56	0	1087897600	59	4565
2026-01-02 12:03:21.03	332.45	14.65	-48.3	-50.1	23.1	6.03e-01	0	57	0	1089470464	59	4508
2026-01-02 12:03:22.02	332.50	14.54	-48.3	-50.0	23.2	6.04e-01	0	57	0	1091567616	59	4477
2026-01-02 12:03:23.01	332.55	14.43	-48.3	-50.1	23.1	6.03e-01	0	57	0	1093664768	59	4505
2026-01-02 12:03:24.00	332.60	14.32	-48.2	-49.9	23.3	6.02e-01	0	56	0	1095237632	59	4417
2026-01-02 12:03:24.99	332.65	14.21	-48.1	-49.8	23.3	6.02e-01	0	56	0	1097334784	59	4377
2026-01-02 12:03:25.98	332.71	14.10	-48.2	-49.9	23.3	6.03e-01	0	56	0	1098907648	59	4413
2026-01-02 12:03:26.97	332.76	13.99	-48.3	-50.0	23.1	6.04e-01	0	57	0	1101004800	59	4490
2026-01-02 12:03:27.96	332.81	13.89	-48.2	-50.0	23.2	6.04e-01	0	57	0	1102577664	59	4445
2026-01-02 12:03:28.94	332.86	13.78	-48.4	-50.2	23.0	6.03e-01	0	57	0	1104674816	59	4551
2026-01-02 12:03:29.93	332.91	13.67	-48.5	-50.3	22.8	6.03e-01	0	57	0	1106247680	59	4632
2026-01-02 12:03:30.93	332.96	13.57	-48.4	-50.2	22.9	6.04e-01	0	56	0	1108344832	59	4579
2026-01-02 12:03:31.92	333.01	13.46	-48.5	-50.3	22.8	6.04e-01	0	57	0	1109917696	59	4639
2026-01-02 12:03:32.91	333.06	13.36	-48.7	-50.6	22.5	6.04e-01	0	56	0	1112014848	59	4791
2026-01-02 12:03:33.90	333.10	13.25	-48.6	-50.5	22.7	6.06e-01	0	57	0	1113587712	59	4709
2026-01-02 12:03:34.90	333.15	13.15	-48.7	-50.6	22.5	6.02e-01	0	56	0	1115684864	59	4810
2026-01-02 12:03:35.89	333.20	13.04	-48.9	-50.9	22.3	6.04e-01	0	57	0	1117782016	59	4948
2026-01-02 12:03:36.88	333.25	12.94	-48.4	-50.3	22.4	6.03e-01	0	57	0	1119354880	60	4376
2026-01-02 12:03:37.86	333.29	12.84	-48.3	-50.2	22.6	6.04e-01	0	57	0	1121452032	60	4335
2026-01-02 12:03:38.84	333.34	12.74	-48.4	-50.4	22.4	6.02e-01	0	56	0	1123024896	60	4394
2026-01-02 12:03:39.83	333.39	12.64	-48.4	-50.3	22.5	6.02e-01	0	57	0	1125122048	60	4345
2026-01-02 12:03:40.82	333.43	12.54	-48.3	-50.2	22.5	6.04e-01	0	56	0	1126694912	60	4329
2026-01-02 12:03:41.80	333.48	12.44	-48.4	-50.3	22.4	6.03e-01	0	57	0	1128792064	60	4357
2026-01-02 12:03:42.79	333.53	12.34	-48.6	-50.6	22.1	6.04e-01	0	56	0	1130364928	60	4501
2026-01-02 12:03:43.78	333.57	12.24	-48.5	-50.5	22.2	6.04e-01	0	57	0	1132462080	60	4460
2026-01-02 12:03:44.76	333.62	12.14	-48.6	-50.6	22.1	6.03e-01	0	56	0	1134034944	60	4526
2026-01-02 12:03:45.74	333.66	12.04	-48.9	-51.0	21.7	6.03e-01	0	57	0	1136132096	60	4753
2026-01-02 12:03:46.72	333.70	11.94	-48.8	-50.9	21.7	6.05e-01	0	57	0	1137704960	60	4702
2026-01-02 12:03:47.71	333.75	11.84	-48.6	-50.6	22.0	6.04e-01	0	57	0	1139802112	60	4513
2026-01-02 12:03:48.70	333.79	11.75	-48.4	-50.3	22.3	6.03e-01	0	57	0	1141374976	60	4374
2026-01-02 12:03:49.69	333.84	11.65	-48.3	-50.2	22.4	6.04e-01	0	57	0	1143472128	60	4311
2026-01-02 12:03:50.68	333.88	11.55	-48.5	-50.5	22.5	6.03e-01	0	56	0	1145044992	59	4716
2026-01-02 12:03:51.68	333.92	11.46	-48.6	-50.5	22.4	6.04e-01	0	57	0	1147142144	59	4754
2026-01-02 12:03:52.67	333.97	11.36	-48.6	-50.6	22.3	6.02e-01	0	57	0	1149239296	59	4803
2026-01-02 12:03:53.66	334.01	11.26	-48.7	-50.7	22.3	6.02e-01	0	57	0	1150812160	59	4824
2026-01-02 12:03:54.66	334.05	11.17	-48.7	-50.7	22.2	6.04e-01	0	56	0	1152909312	59	4852
2026-01-02 12:03:55.65	334.09	11.07	-48.9	-50.9	22.0	6.03e-01	0	57	0	1154482176	59	4970
2026-01-02 12:03:56.64	334.14	10.98	-48.8	-50.9	21.7	6.05e-01	0	56	0	1156579328	60	4675
2026-01-02 12:03:57.63	334.18	10.89	-48.7	-50.8	21.8	6.02e-01	0	57	0	1158152192	60	4648
2026-01-02 12:03:58.62	334.22	10.79	-48.7	-50.8	21.8	6.04e-01	0	57	0	1160249344	60	4615
2026-01-02 12:03:59.62	334.26	10.70	-48.8	-50.9	21.7	6.02e-01	0	57	0	1161822208	60	4663
2026-01-02 12:04:00.60	334.30	10.61	-48.8	-50.9	21.7	6.02e-01	0	57	0	1163919360	60	4684
2026-01-02 12:04:01.59	334.34	10.51	-48.8	-50.9	21.7	6.01e-01	0	57	0	1165492224	60	4669
2026-01-02 12:04:02.58	334.38	10.42	-49.0	-51.2	21.4	6.06e-01	0	57	0	1167589376	60	4835
2026-01-02 12:04:03.57	334.42	10.33	-49.0	-51.2	21.4	6.03e-01	0	57	0	1169686528	60	4844
2026-01-02 12:04:04.57	334.46	10.24	-48.8	-50.9	21.6	6.01e-01	0	57	0	1171259392	60	4689
2026-01-02 12:04:05.56	334.50	10.15	-48.6	-50.7	21.8	6.04e-01	0	57	0	1173356544	60	4598
2026-01-02 12:04:06.55	334.54	10.06	-48.6	-50.7	21.8	6.03e-01	0	57	0	1174929408	60	4577
2026-01-02 12:04:07.55	334.58	9.96	-48.6	-50.8	21.8	6.05e-01	0	57	0	1177026560	60	4602
2026-01-02 12:04:08.54	334.62	9.88	-48.7	-50.9	21.7	6.03e-01	0	57	0	1178599424	60	4661
2026-01-02 12:04:09.52	334.66	9.79	-48.7	-50.8	21.7	6.03e-01	0	57	0	1180696576	60	4648
2026-01-02 12:04:10.51	334.69	9.70	-48.7	-50.8	21.7	6.05e-01	0	56	0	1182269440	60	4631
2026-01-02 12:04:11.50	334.73	9.61	-48.7	-50.9	21.6	6.03e-01	0	56	0	1184366592	60	4687
2026-01-02 12:04:12.49	334.77	9.52	-48.8	-51.1	21.4	6.02e-01	0	57	0	1185939456	60	4769
2026-01-02 12:04:13.48	334.81	9.43	-48.9	-51.1	21.3	6.03e-01	0	56	0	1188036608	60	4810
2026-01-02 12:04:14.46	334.85	9.35	-48.7	-50.9	21.6	6.04e-01	0	57	0	1190133760	60	4674
2026-01-02 12:04:15.46	334.88	9.26	-48.5	-50.6	21.9	6.06e-01	0	57	0	1191706624	60	4509
2026-01-02 12:04:16.44	334.92	9.17	-48.4	-50.5	21.9	6.02e-01	0	57	0	1193803776	60	4465
2026-01-02 12:04:17.43	334.96	9.08	-48.4	-50.5	22.0	6.03e-01	0	57	0	1195376640	60	4449
2026-01-02 12:04:18.43	334.99	9.00	-48.5	-50.6	21.8	6.04e-01	0	57	0	1197473792	60	4526
2026-01-02 12:04:19.42	335.03	8.91	-48.6	-50.7	21.7	6.04e-01	0	57	0	1199046656	60	4593
2026-01-02 12:04:20.40	335.07	8.83	-48.6	-50.7	21.7	6.04e-01	0	56	0	1201143808	60	4569
2026-01-02 12:04:21.39	335.10	8.74	-48.7	-50.9	21.5	6.04e-01	0	56	0	1202716672	60	4674
2026-01-02 12:04:22.38	335.14	8.65	-48.8	-51.1	21.4	6.03e-01	0	57	0	1204813824	60	4762
2026-01-02 12:04:23.37	335.17	8.57	-48.7	-50.9	21.5	6.03e-01	0	56	0	1206386688	60	4659
2026-01-02 12:04:24.36	335.21	8.49	-48.7	-50.8	21.5	6.04e-01	0	56	0	1208483840	60	4649
2026-01-02 12:04:25.35	335.25	8.40	-48.8	-51.0	21.4	6.05e-01	0	56	0	1210056704	60	4739
2026-01-02 12:04:26.34	335.28	8.32	-48.7	-50.9	21.5	6.04e-01	0	57	0	1212153856	60	4672
2026-01-02 12:04:27.33	335.32	8.23	-48.8	-51.1	21.2	6.02e-01	0	56	0	1214251008	60	4803
2026-01-02 12:04:28.32	335.35	8.15	-49.0	-51.3	21.0	6.02e-01	0	56	0	1215823872	60	4914
2026-01-02 12:04:29.30	335.38	8.07	-48.9	-51.2	21.2	6.05e-01	0	57	0	1217921024	60	4853
2026-01-02 12:04:30.28	335.42	7.99	-49.1	-51.5	20.9	6.04e-01	0	57	0	1219493888	60	5002
2026-01-02 12:04:31.28	335.45	7.90	-49.1	-51.6	20.7	6.03e-01	0	57	0	1221591040	60	5079
2026-01-02 12:04:32.26	335.49	7.82	-49.1	-51.6	20.8	6.02e-01	0	57	0	1223163904	60	5072
2026-01-02 12:04:33.25	335.52	7.74	-49.2	-51.7	20.7	6.03e-01	0	57	0	1225261056	60	5117
2026-01-02 12:04:34.24	335.55	7.66	-49.2	-51.7	20.7	6.03e-01	0	57	0	1226833920	60	5108
2026-01-02 12:04:35.23	335.59	7.58	-49.3	-51.9	20.5	6.04e-01	0	57	0	1228931072	60	5221
2026-01-02 12:04:36.22	335.62	7.50	-49.3	-51.9	20.4	6.04e-01	0	57	0	1230503936	61	4979
