passes_logs/2026/01/02/R3.0SM8_Murmansk_STILSPACE/R3.0SM8_Murmansk_STILSPACE__20260102_011611_FENGYUN_3D_rec.log

#Pass ID: 20260102_011611_FENGYUN 3D
#Satellite: FENGYUN 3D
#Configuration: FENGYUN 3D
#almurnet v.1.7.20240730
#Start time: 2026-01-02 01:16:13

#Version: 2.2.20231116
#Station: R3.0SM8_Murmansk_STILSPACE
#Location: 33.092731 lon 68.902999 lat
#TLE: 1 43010U 17072A   26001.33100487  .00000602  00000+0  30664-3 0  9999
#TLE: 2 43010  98.9910 332.9374 0001848 133.1047 227.0283 14.19692078421319

#Time	Az	El	Level	Level2	SNR	BER	BlckErr	Temp	State	Recorded	gain1	gain2
2026-01-02 01:16:13.77	21.69	3.14	-52.3	-63.1	3.8	8.46e-01	0	46	0	0	66	13118
2026-01-02 01:16:14.76	21.74	3.21	-52.2	-62.9	3.8	8.46e-01	0	46	104	0	67	12145
2026-01-02 01:16:15.75	21.79	3.27	-52.1	-62.8	3.8	8.47e-01	0	46	104	0	67	12021
2026-01-02 01:16:16.73	21.84	3.33	-52.0	-62.7	3.8	8.45e-01	0	46	104	0	67	11863
2026-01-02 01:16:17.72	21.89	3.39	-51.8	-62.5	3.8	8.44e-01	0	46	104	0	66	12312
2026-01-02 01:16:18.71	21.94	3.45	-51.1	-61.8	3.8	8.47e-01	0	46	104	0	65	12014
2026-01-02 01:16:19.70	21.99	3.52	-50.5	-60.6	3.8	8.46e-01	0	46	104	0	64	11052
2026-01-02 01:16:20.69	22.04	3.58	-50.5	-60.3	3.8	8.45e-01	0	46	104	0	64	10690
2026-01-02 01:16:21.67	22.09	3.64	-50.5	-60.0	3.8	8.46e-01	0	47	104	0	64	10306
2026-01-02 01:16:22.67	22.14	3.70	-50.5	-60.1	3.8	8.46e-01	0	46	104	0	64	10510
2026-01-02 01:16:23.66	22.19	3.77	-50.6	-60.1	3.8	8.46e-01	0	47	104	0	64	10436
2026-01-02 01:16:24.65	22.24	3.83	-50.6	-59.7	3.8	8.45e-01	0	47	104	0	63	10569
2026-01-02 01:16:25.64	22.29	3.89	-50.3	-58.2	4.1	8.41e-01	0	47	104	0	63	8906
2026-01-02 01:16:26.62	22.34	3.96	-50.2	-57.2	4.4	8.28e-01	0	47	0	0	63	7973
2026-01-02 01:16:27.61	22.39	4.02	-50.0	-56.6	4.7	8.01e-01	0	47	0	0	63	7386
2026-01-02 01:16:28.59	22.44	4.08	-50.1	-56.8	4.6	8.13e-01	0	47	0	0	63	7622
2026-01-02 01:16:29.57	22.49	4.15	-50.0	-56.7	4.7	8.13e-01	0	47	0	0	63	7479
2026-01-02 01:16:30.55	22.54	4.21	-50.0	-56.6	4.7	8.00e-01	0	47	0	0	63	7440
2026-01-02 01:16:31.54	22.59	4.27	-49.9	-56.2	4.9	7.96e-01	0	47	0	0	63	7118
2026-01-02 01:16:32.53	22.65	4.34	-49.8	-55.8	5.1	7.72e-01	0	47	0	0	62	7155
2026-01-02 01:16:33.52	22.70	4.40	-49.6	-55.0	5.6	6.09e-01	0	47	0	0	62	6508
2026-01-02 01:16:34.50	22.75	4.46	-49.2	-54.2	6.2	3.28e-01	0	47	0	5242880	61	6280
2026-01-02 01:16:35.49	22.80	4.53	-49.1	-53.6	6.8	2.19e-01	0	47	0	11534336	60	6220
2026-01-02 01:16:36.48	22.85	4.59	-49.2	-53.8	6.5	2.27e-01	0	47	0	16777216	60	6390
2026-01-02 01:16:37.47	22.91	4.66	-49.1	-53.5	6.8	2.22e-01	0	48	0	22020096	60	6194
2026-01-02 01:16:38.46	22.96	4.72	-49.0	-53.4	7.0	2.02e-01	0	48	0	28311552	60	6062
2026-01-02 01:16:39.43	23.01	4.79	-49.1	-53.6	6.7	2.06e-01	0	48	0	33554432	60	6258
2026-01-02 01:16:40.43	23.07	4.85	-49.2	-53.7	6.6	2.51e-01	0	48	0	38797312	60	6313
2026-01-02 01:16:41.41	23.12	4.92	-49.2	-53.6	6.7	2.26e-01	0	48	0	44040192	60	6253
2026-01-02 01:16:42.40	23.17	4.98	-49.1	-53.7	6.6	1.98e-01	0	48	0	50331648	60	6306
2026-01-02 01:16:43.39	23.23	5.05	-49.1	-53.4	6.9	2.15e-01	0	48	0	55574528	60	6106
2026-01-02 01:16:44.38	23.28	5.11	-48.7	-52.3	8.0	1.03e-01	0	48	0	61865984	60	5353
2026-01-02 01:16:45.37	23.34	5.18	-48.2	-51.2	9.2	3.00e-02	0	48	0	67108864	59	5020
2026-01-02 01:16:46.37	23.39	5.25	-48.2	-51.3	9.1	2.40e-02	0	48	0	72351744	59	5098
2026-01-02 01:16:47.36	23.45	5.31	-48.1	-51.0	9.5	2.48e-02	0	48	0	77594624	59	4886
2026-01-02 01:16:48.34	23.50	5.38	-47.9	-50.6	10.0	9.85e-03	0	48	0	83886080	58	4970
2026-01-02 01:16:49.33	23.56	5.45	-47.5	-49.9	10.8	4.26e-03	0	48	0	89128960	58	4594
2026-01-02 01:16:50.31	23.61	5.51	-47.3	-49.7	11.1	1.95e-03	0	48	0	94371840	57	4709
2026-01-02 01:16:51.30	23.67	5.58	-47.3	-49.6	11.3	1.49e-03	0	49	0	100663296	57	4662
2026-01-02 01:16:52.28	23.73	5.65	-47.4	-49.6	11.3	1.30e-03	0	49	0	105906176	57	4682
2026-01-02 01:16:53.27	23.78	5.71	-47.5	-49.8	11.1	2.45e-03	0	48	0	111149056	57	4776
2026-01-02 01:16:54.26	23.84	5.78	-46.9	-48.9	12.0	7.15e-04	0	49	0	116391936	57	4337
2026-01-02 01:16:55.25	23.90	5.85	-46.4	-48.1	12.9	1.26e-04	0	49	0	122683392	56	4169
2026-01-02 01:16:56.24	23.95	5.91	-45.8	-47.3	13.7	1.60e-05	0	49	0	127926272	54	4262
2026-01-02 01:16:57.22	24.01	5.98	-45.4	-46.8	14.2	3.40e-06	0	49	0	133169152	54	4039
2026-01-02 01:16:58.21	24.07	6.05	-45.1	-46.4	14.7	0.00e+00	0	49	0	139460608	53	4069
2026-01-02 01:16:59.20	24.13	6.12	-44.7	-45.9	15.2	0.00e+00	0	49	0	144703488	52	4085
2026-01-02 01:17:00.18	24.18	6.18	-44.4	-45.5	15.7	0.00e+00	0	49	0	149946368	51	4122
2026-01-02 01:17:01.18	24.24	6.25	-44.3	-45.4	15.9	0.00e+00	0	49	0	156237824	51	4069
2026-01-02 01:17:02.17	24.30	6.32	-44.3	-45.4	15.9	0.00e+00	0	49	0	161480704	51	4068
2026-01-02 01:17:03.16	24.36	6.39	-44.5	-45.6	15.7	0.00e+00	0	49	0	166723584	51	4166
2026-01-02 01:17:04.14	24.42	6.46	-44.5	-45.7	15.6	0.00e+00	0	49	0	171966464	51	4197
2026-01-02 01:17:05.13	24.48	6.53	-44.4	-45.5	15.8	0.00e+00	0	49	0	178257920	51	4134
2026-01-02 01:17:06.11	24.54	6.60	-44.3	-45.4	16.0	0.00e+00	0	49	0	183500800	51	4061
2026-01-02 01:17:07.10	24.60	6.67	-44.2	-45.3	16.0	0.00e+00	0	49	0	188743680	51	4035
2026-01-02 01:17:08.09	24.66	6.74	-44.3	-45.4	16.0	0.00e+00	0	49	0	195035136	51	4052
2026-01-02 01:17:09.07	24.72	6.80	-44.5	-45.6	15.7	0.00e+00	0	49	0	200278016	51	4181
2026-01-02 01:17:10.06	24.78	6.87	-44.6	-45.7	15.6	0.00e+00	0	49	0	205520896	51	4222
2026-01-02 01:17:11.06	24.84	6.94	-44.6	-45.7	15.6	0.00e+00	0	50	0	211812352	51	4241
2026-01-02 01:17:12.04	24.90	7.01	-44.8	-46.0	15.3	1.10e-06	0	50	0	217055232	51	4383
2026-01-02 01:17:13.03	24.96	7.08	-44.7	-45.8	15.5	0.00e+00	0	50	0	222298112	51	4291
2026-01-02 01:17:14.02	25.03	7.16	-44.8	-45.9	15.5	0.00e+00	0	50	0	227540992	51	4324
2026-01-02 01:17:15.01	25.09	7.23	-44.6	-45.7	15.7	0.00e+00	0	50	0	233832448	51	4224
2026-01-02 01:17:16.00	25.15	7.30	-44.6	-45.8	15.6	0.00e+00	0	50	0	239075328	51	4244
2026-01-02 01:17:16.98	25.21	7.37	-44.8	-46.0	15.4	0.00e+00	0	50	0	244318208	51	4347
2026-01-02 01:17:17.98	25.28	7.44	-44.6	-45.8	15.7	0.00e+00	0	50	0	250609664	51	4244
2026-01-02 01:17:18.97	25.34	7.51	-44.5	-45.6	15.8	0.00e+00	0	50	0	255852544	51	4174
2026-01-02 01:17:19.96	25.40	7.58	-44.4	-45.4	16.0	0.00e+00	0	50	0	261095424	51	4090
2026-01-02 01:17:20.95	25.47	7.65	-44.3	-45.3	16.1	0.00e+00	0	50	0	267386880	51	4042
2026-01-02 01:17:21.93	25.53	7.72	-44.3	-45.4	16.1	0.00e+00	0	50	0	272629760	51	4088
2026-01-02 01:17:22.92	25.60	7.80	-44.3	-45.4	16.1	0.00e+00	0	50	0	277872640	51	4075
2026-01-02 01:17:23.92	25.66	7.87	-44.5	-45.6	15.9	0.00e+00	0	50	0	283115520	51	4172
2026-01-02 01:17:24.90	25.73	7.94	-44.3	-45.3	16.2	0.00e+00	0	50	0	289406976	51	4049
2026-01-02 01:17:25.89	25.79	8.01	-44.1	-45.2	16.3	0.00e+00	0	50	0	294649856	51	3977
2026-01-02 01:17:26.89	25.86	8.09	-44.2	-45.3	16.3	0.00e+00	0	50	0	300941312	51	4011
2026-01-02 01:17:27.87	25.92	8.16	-44.5	-45.7	15.8	0.00e+00	0	50	0	306184192	51	4212
2026-01-02 01:17:28.85	25.99	8.23	-44.4	-45.5	16.0	0.00e+00	0	50	0	311427072	51	4114
2026-01-02 01:17:29.84	26.05	8.30	-44.4	-45.6	16.0	0.00e+00	0	50	0	316669952	51	4148
2026-01-02 01:17:30.82	26.12	8.38	-44.5	-45.6	15.9	0.00e+00	0	50	0	322961408	51	4191
2026-01-02 01:17:31.81	26.19	8.45	-44.6	-45.8	15.8	0.00e+00	0	50	0	328204288	51	4263
2026-01-02 01:17:32.81	26.26	8.53	-44.5	-45.6	15.9	0.00e+00	0	50	0	333447168	51	4166
2026-01-02 01:17:33.80	26.32	8.60	-44.4	-45.5	16.1	0.00e+00	0	51	0	339738624	51	4110
2026-01-02 01:17:34.79	26.39	8.67	-44.3	-45.4	16.1	0.00e+00	0	51	0	344981504	51	4071
2026-01-02 01:17:35.79	26.46	8.75	-44.3	-45.4	16.2	0.00e+00	0	51	0	350224384	51	4069
2026-01-02 01:17:36.78	26.53	8.82	-44.2	-45.3	16.3	0.00e+00	0	51	0	356515840	51	4032
2026-01-02 01:17:37.77	26.60	8.90	-44.4	-45.5	16.0	0.00e+00	0	51	0	361758720	51	4134
2026-01-02 01:17:38.76	26.67	8.97	-44.7	-45.8	15.8	0.00e+00	0	51	0	367001600	51	4257
2026-01-02 01:17:39.75	26.74	9.05	-44.5	-45.6	16.0	0.00e+00	0	51	0	372244480	51	4171
2026-01-02 01:17:40.74	26.81	9.12	-44.1	-45.2	16.4	0.00e+00	0	51	0	378535936	51	3973
2026-01-02 01:17:41.72	26.88	9.20	-43.8	-44.8	16.8	0.00e+00	0	51	0	383778816	50	4026
2026-01-02 01:17:42.71	26.95	9.27	-43.5	-44.5	17.1	0.00e+00	0	51	0	389021696	50	3886
2026-01-02 01:17:43.70	27.02	9.35	-43.5	-44.4	17.2	0.00e+00	0	51	0	395313152	50	3865
2026-01-02 01:17:44.70	27.09	9.43	-43.6	-44.5	17.2	0.00e+00	0	51	0	400556032	50	3891
2026-01-02 01:17:45.69	27.17	9.50	-43.6	-44.5	17.2	0.00e+00	0	51	0	405798912	50	3892
2026-01-02 01:17:46.68	27.24	9.58	-43.6	-44.6	17.0	0.00e+00	0	51	0	412090368	50	3917
2026-01-02 01:17:47.67	27.31	9.66	-43.7	-44.6	17.0	0.00e+00	0	51	0	417333248	50	3954
2026-01-02 01:17:48.65	27.38	9.73	-43.6	-44.6	17.1	0.00e+00	0	51	0	422576128	50	3926
2026-01-02 01:17:49.64	27.46	9.81	-43.5	-44.4	17.3	0.00e+00	0	51	0	428867584	50	3847
2026-01-02 01:17:50.63	27.53	9.89	-43.4	-44.3	17.4	0.00e+00	0	51	0	434110464	49	4022
2026-01-02 01:17:51.63	27.60	9.97	-43.4	-44.3	17.4	0.00e+00	0	51	0	439353344	49	4023
2026-01-02 01:17:52.63	27.68	10.04	-43.5	-44.4	17.3	0.00e+00	0	51	0	445644800	49	4056
2026-01-02 01:17:53.61	27.75	10.12	-43.5	-44.4	17.3	0.00e+00	0	51	0	450887680	49	4059
2026-01-02 01:17:54.61	27.83	10.20	-43.3	-44.2	17.5	0.00e+00	0	51	0	456130560	49	3967
2026-01-02 01:17:55.60	27.91	10.28	-43.3	-44.1	17.5	0.00e+00	0	52	0	462422016	49	3955
2026-01-02 01:17:56.59	27.98	10.36	-43.4	-44.3	17.4	0.00e+00	0	52	0	467664896	49	4011
2026-01-02 01:17:57.58	28.06	10.44	-43.4	-44.3	17.4	0.00e+00	0	52	0	472907776	49	4024
2026-01-02 01:17:58.57	28.13	10.52	-43.5	-44.4	17.3	0.00e+00	0	52	0	478150656	49	4084
2026-01-02 01:17:59.56	28.21	10.59	-43.3	-44.1	17.5	0.00e+00	0	52	0	484442112	49	3951
2026-01-02 01:18:00.55	28.29	10.67	-43.4	-44.3	17.4	0.00e+00	0	52	0	489684992	49	4032
2026-01-02 01:18:01.54	28.37	10.75	-43.2	-44.1	17.6	0.00e+00	0	52	0	494927872	49	3936
2026-01-02 01:18:02.53	28.45	10.83	-43.2	-44.1	17.6	0.00e+00	0	52	0	501219328	49	3931
2026-01-02 01:18:03.51	28.52	10.91	-43.3	-44.1	17.6	0.00e+00	0	52	0	506462208	49	3957
2026-01-02 01:18:04.51	28.60	10.99	-43.3	-44.1	17.6	0.00e+00	0	52	0	511705088	49	3955
2026-01-02 01:18:05.50	28.68	11.07	-43.3	-44.2	17.6	0.00e+00	0	52	0	517996544	49	3965
2026-01-02 01:18:06.48	28.76	11.15	-43.3	-44.2	17.5	0.00e+00	0	52	0	523239424	49	3987
2026-01-02 01:18:07.48	28.84	11.24	-43.1	-43.9	17.8	0.00e+00	0	52	0	528482304	49	3856
2026-01-02 01:18:08.47	28.92	11.32	-43.1	-43.9	17.8	0.00e+00	0	52	0	533725184	49	3840
2026-01-02 01:18:09.46	29.01	11.40	-43.0	-43.8	17.9	0.00e+00	0	52	0	540016640	49	3803
2026-01-02 01:18:10.45	29.09	11.48	-43.0	-43.8	17.9	0.00e+00	0	52	0	545259520	49	3814
2026-01-02 01:18:11.45	29.17	11.56	-43.0	-43.8	17.9	0.00e+00	0	52	0	551550976	49	3823
2026-01-02 01:18:12.44	29.25	11.64	-42.9	-43.8	18.0	0.00e+00	0	52	0	556793856	48	4009
2026-01-02 01:18:13.43	29.34	11.73	-42.9	-43.8	18.0	0.00e+00	0	52	0	562036736	48	4013
2026-01-02 01:18:14.41	29.42	11.81	-43.0	-43.8	17.9	0.00e+00	0	52	0	567279616	48	4036
2026-01-02 01:18:15.41	29.50	11.89	-42.8	-43.6	18.1	0.00e+00	0	52	0	573571072	48	3930
2026-01-02 01:18:16.41	29.59	11.98	-42.7	-43.5	18.3	0.00e+00	0	52	0	578813952	48	3900
2026-01-02 01:18:17.39	29.67	12.06	-42.8	-43.6	18.1	0.00e+00	0	52	0	584056832	48	3948
2026-01-02 01:18:18.38	29.76	12.14	-42.9	-43.7	18.1	0.00e+00	0	52	0	590348288	48	3968
2026-01-02 01:18:19.37	29.84	12.23	-42.8	-43.6	18.2	0.00e+00	0	52	0	595591168	48	3914
2026-01-02 01:18:20.36	29.93	12.31	-42.7	-43.5	18.3	0.00e+00	0	52	0	600834048	48	3880
2026-01-02 01:18:21.36	30.02	12.39	-42.8	-43.6	18.2	0.00e+00	0	52	0	607125504	48	3936
2026-01-02 01:18:22.35	30.10	12.48	-42.8	-43.6	18.2	0.00e+00	0	52	0	612368384	48	3938
2026-01-02 01:18:23.33	30.19	12.56	-42.9	-43.7	18.1	0.00e+00	0	53	0	617611264	48	3962
2026-01-02 01:18:24.30	30.28	12.65	-42.8	-43.5	18.3	0.00e+00	0	52	0	622854144	48	3902
2026-01-02 01:18:25.30	30.36	12.73	-43.0	-43.8	18.0	0.00e+00	0	52	0	629145600	48	4027
2026-01-02 01:18:26.29	30.45	12.82	-42.9	-43.7	18.1	0.00e+00	0	53	0	634388480	48	3993
2026-01-02 01:18:27.28	30.54	12.90	-43.0	-43.8	18.0	0.00e+00	0	52	0	640679936	48	4043
2026-01-02 01:18:28.26	30.63	12.99	-42.9	-43.7	18.2	0.00e+00	0	53	0	645922816	48	3965
2026-01-02 01:18:29.24	30.72	13.07	-42.7	-43.5	18.4	0.00e+00	0	53	0	651165696	48	3871
2026-01-02 01:18:30.22	30.81	13.16	-42.7	-43.4	18.4	0.00e+00	0	53	0	656408576	48	3855
2026-01-02 01:18:31.22	30.90	13.25	-42.6	-43.4	18.5	0.00e+00	0	53	0	661651456	48	3833
2026-01-02 01:18:32.21	31.00	13.33	-42.5	-43.3	18.5	0.00e+00	0	53	0	667942912	48	3803
2026-01-02 01:18:33.20	31.09	13.42	-42.6	-43.4	18.5	0.00e+00	0	53	0	673185792	48	3826
2026-01-02 01:18:34.19	31.18	13.51	-42.5	-43.3	18.5	0.00e+00	0	53	0	679477248	48	3801
2026-01-02 01:18:35.18	31.27	13.59	-42.6	-43.3	18.5	0.00e+00	0	53	0	684720128	48	3812
2026-01-02 01:18:36.18	31.37	13.68	-42.7	-43.4	18.4	0.00e+00	0	53	0	689963008	48	3867
2026-01-02 01:18:37.17	31.46	13.77	-42.4	-43.2	18.7	0.00e+00	0	53	0	695205888	48	3744
2026-01-02 01:18:38.15	31.56	13.86	-42.2	-43.0	18.7	0.00e+00	0	53	0	701497344	47	3877
2026-01-02 01:18:39.15	31.65	13.95	-42.3	-43.1	18.6	0.00e+00	0	53	0	706740224	47	3934
2026-01-02 01:18:40.13	31.75	14.04	-42.2	-42.9	18.8	0.00e+00	0	53	0	713031680	47	3864
2026-01-02 01:18:41.12	31.85	14.13	-42.2	-42.9	18.8	0.00e+00	0	53	0	718274560	47	3857
2026-01-02 01:18:42.11	31.94	14.21	-42.3	-43.1	18.6	0.00e+00	0	53	0	723517440	47	3924
2026-01-02 01:18:43.10	32.04	14.30	-42.3	-43.0	18.7	0.00e+00	0	53	0	728760320	47	3892
2026-01-02 01:18:44.09	32.14	14.39	-42.2	-42.9	18.8	0.00e+00	0	53	0	735051776	47	3847
2026-01-02 01:18:45.08	32.24	14.48	-42.2	-42.9	18.7	0.00e+00	0	53	0	740294656	47	3861
2026-01-02 01:18:46.07	32.34	14.57	-42.4	-43.1	18.6	0.00e+00	0	53	0	745537536	47	3942
2026-01-02 01:18:47.05	32.44	14.66	-42.4	-43.2	18.6	0.00e+00	0	53	0	751828992	47	3959
2026-01-02 01:18:48.04	32.54	14.75	-42.5	-43.3	18.5	0.00e+00	0	53	0	757071872	47	4012
2026-01-02 01:18:49.03	32.64	14.85	-42.3	-43.0	18.7	0.00e+00	0	53	0	762314752	47	3891
2026-01-02 01:18:50.03	32.74	14.94	-42.1	-42.8	18.9	0.00e+00	0	53	0	768606208	47	3812
2026-01-02 01:18:51.02	32.85	15.03	-42.1	-42.8	18.9	0.00e+00	0	53	0	773849088	47	3819
2026-01-02 01:18:52.01	32.95	15.12	-42.2	-42.9	18.7	0.00e+00	0	53	0	779091968	47	3868
2026-01-02 01:18:53.00	33.05	15.21	-42.3	-43.1	18.6	0.00e+00	0	53	0	784334848	47	3932
2026-01-02 01:18:53.99	33.16	15.31	-42.2	-43.0	18.8	0.00e+00	0	53	0	790626304	47	3875
2026-01-02 01:18:54.98	33.26	15.40	-42.4	-43.1	18.6	0.00e+00	0	53	0	795869184	47	3949
2026-01-02 01:18:55.97	33.37	15.49	-42.6	-43.4	18.4	0.00e+00	0	53	0	802160640	47	4072
2026-01-02 01:18:56.96	33.47	15.59	-42.4	-43.1	18.6	0.00e+00	0	53	0	807403520	47	3939
2026-01-02 01:18:57.95	33.58	15.68	-42.2	-42.9	18.9	0.00e+00	0	53	0	812646400	47	3848
2026-01-02 01:18:58.94	33.69	15.77	-42.1	-42.8	18.9	0.00e+00	0	53	0	817889280	47	3807
2026-01-02 01:18:59.93	33.80	15.87	-42.1	-42.8	19.0	0.00e+00	0	53	0	824180736	47	3804
2026-01-02 01:19:00.92	33.90	15.96	-42.1	-42.8	18.9	0.00e+00	0	54	0	829423616	47	3806
2026-01-02 01:19:01.91	34.01	16.06	-42.3	-43.0	18.7	0.00e+00	0	54	0	834666496	47	3905
2026-01-02 01:19:02.90	34.12	16.15	-42.2	-42.9	18.9	0.00e+00	0	54	0	840957952	47	3851
2026-01-02 01:19:03.90	34.24	16.25	-42.0	-42.7	19.1	0.00e+00	0	54	0	846200832	47	3751
2026-01-02 01:19:04.88	34.35	16.34	-42.0	-42.7	19.1	0.00e+00	0	54	0	851443712	46	3981
2026-01-02 01:19:05.87	34.46	16.44	-42.0	-42.7	19.1	0.00e+00	0	54	0	857735168	46	3962
2026-01-02 01:19:06.86	34.57	16.53	-41.9	-42.6	19.2	0.00e+00	0	54	0	862978048	46	3926
2026-01-02 01:19:07.85	34.68	16.63	-41.8	-42.5	19.3	0.00e+00	0	54	0	868220928	46	3899
2026-01-02 01:19:08.83	34.80	16.73	-41.8	-42.6	19.2	0.00e+00	0	54	0	873463808	46	3916
2026-01-02 01:19:09.83	34.91	16.82	-42.0	-42.7	19.0	0.00e+00	0	54	0	879755264	46	3998
2026-01-02 01:19:10.82	35.03	16.92	-41.8	-42.5	19.3	0.00e+00	0	54	0	884998144	46	3887
2026-01-02 01:19:11.80	35.14	17.02	-41.7	-42.4	19.4	0.00e+00	0	54	0	890241024	46	3839
2026-01-02 01:19:12.78	35.26	17.11	-41.6	-42.3	19.5	0.00e+00	0	54	0	896532480	46	3789
2026-01-02 01:19:13.76	35.38	17.21	-41.6	-42.3	19.5	0.00e+00	0	54	0	901775360	46	3797
2026-01-02 01:19:14.75	35.49	17.31	-41.7	-42.4	19.4	0.00e+00	0	54	0	907018240	46	3840
2026-01-02 01:19:15.75	35.61	17.41	-41.7	-42.4	19.4	0.00e+00	0	54	0	912261120	46	3828
2026-01-02 01:19:16.73	35.73	17.51	-41.7	-42.4	19.4	0.00e+00	0	54	0	918552576	46	3831
2026-01-02 01:19:17.72	35.85	17.61	-41.8	-42.5	19.3	0.00e+00	0	54	0	923795456	46	3884
2026-01-02 01:19:18.72	35.98	17.71	-41.9	-42.6	19.2	0.00e+00	0	54	0	930086912	46	3943
2026-01-02 01:19:19.71	36.10	17.81	-42.0	-42.7	19.1	0.00e+00	0	54	0	935329792	46	3991
2026-01-02 01:19:20.70	36.22	17.91	-42.2	-42.9	18.9	0.00e+00	0	54	0	940572672	46	4083
2026-01-02 01:19:21.68	36.35	18.00	-42.1	-42.9	19.0	0.00e+00	0	54	0	945815552	46	4056
2026-01-02 01:19:22.68	36.47	18.11	-42.2	-42.9	18.9	0.00e+00	0	54	0	952107008	46	4066
2026-01-02 01:19:23.66	36.60	18.21	-42.2	-42.9	18.9	0.00e+00	0	54	0	957349888	46	4086
2026-01-02 01:19:24.65	36.72	18.31	-42.4	-43.1	18.7	0.00e+00	0	54	0	962592768	46	4171
2026-01-02 01:19:25.64	36.85	18.41	-42.3	-43.1	18.8	0.00e+00	0	54	0	968884224	46	4146
2026-01-02 01:19:26.63	36.98	18.51	-42.3	-43.1	18.8	0.00e+00	0	54	0	974127104	46	4150
2026-01-02 01:19:27.62	37.10	18.61	-42.5	-43.3	18.5	0.00e+00	0	54	0	979369984	46	4261
2026-01-02 01:19:28.61	37.23	18.71	-42.3	-43.0	18.8	0.00e+00	0	54	0	984612864	47	3906
2026-01-02 01:19:29.59	37.36	18.82	-41.9	-42.6	19.3	0.00e+00	0	54	0	990904320	47	3696
2026-01-02 01:19:30.58	37.49	18.92	-41.6	-42.3	19.5	0.00e+00	0	54	0	996147200	46	3809
2026-01-02 01:19:31.57	37.63	19.02	-41.5	-42.1	19.7	0.00e+00	0	54	0	1001390080	46	3736
2026-01-02 01:19:32.56	37.76	19.13	-41.5	-42.2	19.6	0.00e+00	0	54	0	1007681536	46	3751
2026-01-02 01:19:33.56	37.89	19.23	-41.4	-42.1	19.8	0.00e+00	0	54	0	1012924416	46	3702
2026-01-02 01:19:34.54	38.03	19.33	-41.5	-42.2	19.6	0.00e+00	0	54	0	1018167296	45	3960
2026-01-02 01:19:35.52	38.16	19.44	-41.5	-42.2	19.7	0.00e+00	0	54	0	1024458752	45	3966
2026-01-02 01:19:36.52	38.30	19.54	-41.2	-41.9	19.9	0.00e+00	0	55	0	1029701632	45	3836
2026-01-02 01:19:37.51	38.44	19.65	-41.1	-41.7	20.0	0.00e+00	0	54	0	1034944512	45	3774
2026-01-02 01:19:38.49	38.57	19.75	-41.1	-41.8	20.1	0.00e+00	0	55	0	1041235968	45	3792
2026-01-02 01:19:39.47	38.71	19.85	-41.3	-42.0	19.9	0.00e+00	0	54	0	1046478848	45	3869
2026-01-02 01:19:40.47	38.85	19.96	-41.3	-41.9	19.9	0.00e+00	0	54	0	1051721728	45	3853
2026-01-02 01:19:41.46	38.99	20.07	-41.1	-41.7	20.1	0.00e+00	0	54	0	1056964608	45	3768
2026-01-02 01:19:42.44	39.14	20.17	-41.0	-41.6	20.2	0.00e+00	0	54	0	1063256064	45	3720
2026-01-02 01:19:43.43	39.28	20.28	-41.0	-41.6	20.2	0.00e+00	0	54	0	1068498944	45	3712
2026-01-02 01:19:44.42	39.42	20.39	-41.0	-41.6	20.2	0.00e+00	0	54	0	1073741824	45	3718
2026-01-02 01:19:45.41	39.57	20.49	-41.0	-41.6	20.2	0.00e+00	0	54	0	1080033280	45	3730
2026-01-02 01:19:46.41	39.71	20.60	-41.1	-41.7	20.1	0.00e+00	0	55	0	1085276160	45	3775
2026-01-02 01:19:47.39	39.86	20.71	-41.1	-41.7	20.1	0.00e+00	0	54	0	1090519040	45	3778
2026-01-02 01:19:48.38	40.01	20.82	-41.2	-41.8	20.0	0.00e+00	0	55	0	1096810496	45	3818
2026-01-02 01:19:49.37	40.16	20.92	-41.3	-41.9	19.9	0.00e+00	0	55	0	1102053376	45	3858
2026-01-02 01:19:50.36	40.31	21.03	-41.1	-41.7	20.1	0.00e+00	0	54	0	1107296256	45	3768
2026-01-02 01:19:51.35	40.46	21.14	-41.1	-41.8	20.1	0.00e+00	0	54	0	1112539136	45	3795
2026-01-02 01:19:52.35	40.61	21.25	-41.3	-41.9	19.9	0.00e+00	0	55	0	1118830592	45	3860
2026-01-02 01:19:53.33	40.76	21.36	-41.4	-42.0	19.8	0.00e+00	0	55	0	1124073472	45	3907
2026-01-02 01:19:54.32	40.92	21.47	-41.2	-41.9	20.0	0.00e+00	0	55	0	1130364928	45	3832
2026-01-02 01:19:55.31	41.07	21.58	-41.2	-41.8	20.1	0.00e+00	0	55	0	1135607808	45	3808
2026-01-02 01:19:56.30	41.23	21.69	-41.2	-41.9	20.0	0.00e+00	0	55	0	1140850688	45	3830
2026-01-02 01:19:57.28	41.38	21.80	-41.3	-42.0	19.9	0.00e+00	0	55	0	1146093568	45	3872
2026-01-02 01:19:58.28	41.54	21.91	-41.4	-42.0	19.8	0.00e+00	0	54	0	1152385024	45	3906
2026-01-02 01:19:59.28	41.70	22.02	-41.5	-42.2	19.6	0.00e+00	0	55	0	1157627904	45	3979
2026-01-02 01:20:00.26	41.86	22.13	-41.4	-42.0	19.8	0.00e+00	0	55	0	1162870784	45	3907
2026-01-02 01:20:01.25	42.02	22.25	-41.3	-42.0	19.8	0.00e+00	0	54	0	1169162240	45	3886
2026-01-02 01:20:02.25	42.19	22.36	-41.2	-41.9	20.0	0.00e+00	0	55	0	1174405120	45	3831
2026-01-02 01:20:03.24	42.35	22.47	-41.2	-41.8	20.1	0.00e+00	0	55	0	1179648000	45	3798
2026-01-02 01:20:04.23	42.52	22.58	-41.1	-41.8	20.1	0.00e+00	0	55	0	1185939456	45	3788
2026-01-02 01:20:05.22	42.68	22.69	-41.1	-41.7	20.1	0.00e+00	0	55	0	1191182336	45	3767
2026-01-02 01:20:06.21	42.85	22.81	-41.1	-41.7	20.1	0.00e+00	0	55	0	1196425216	45	3770
2026-01-02 01:20:07.19	43.02	22.92	-41.4	-42.0	19.8	0.00e+00	0	55	0	1201668096	45	3902
2026-01-02 01:20:08.18	43.19	23.03	-41.0	-41.7	20.2	0.00e+00	0	55	0	1207959552	45	3747
2026-01-02 01:20:09.16	43.36	23.15	-40.8	-41.4	20.5	0.00e+00	0	55	0	1213202432	44	3831
2026-01-02 01:20:10.15	43.53	23.26	-40.5	-41.1	20.7	0.00e+00	0	55	0	1218445312	44	3714
2026-01-02 01:20:11.14	43.70	23.37	-40.2	-40.8	20.9	0.00e+00	0	55	0	1224736768	43	3804
2026-01-02 01:20:12.12	43.88	23.49	-40.2	-40.7	21.0	0.00e+00	0	55	0	1229979648	43	3772
2026-01-02 01:20:13.12	44.05	23.60	-40.2	-40.8	20.9	0.00e+00	0	55	0	1235222528	43	3808
2026-01-02 01:20:14.10	44.23	23.72	-40.3	-40.9	20.9	0.00e+00	0	55	0	1240465408	43	3826
2026-01-02 01:20:15.09	44.41	23.83	-40.2	-40.8	20.9	0.00e+00	0	55	0	1246756864	43	3808
2026-01-02 01:20:16.08	44.59	23.95	-40.2	-40.8	20.9	0.00e+00	0	55	0	1251999744	43	3811
2026-01-02 01:20:17.07	44.77	24.06	-40.2	-40.8	21.0	0.00e+00	0	55	0	1257242624	43	3781
2026-01-02 01:20:18.06	44.95	24.18	-40.2	-40.8	20.9	0.00e+00	0	55	0	1263534080	43	3800
2026-01-02 01:20:19.05	45.14	24.29	-40.5	-41.1	20.7	0.00e+00	0	55	0	1268776960	43	3917
2026-01-02 01:20:20.03	45.32	24.41	-40.5	-41.1	20.7	0.00e+00	0	55	0	1274019840	43	3921
2026-01-02 01:20:21.02	45.50	24.52	-40.5	-41.1	20.6	0.00e+00	0	55	0	1280311296	43	3955
2026-01-02 01:20:22.01	45.69	24.64	-40.6	-41.2	20.5	0.00e+00	0	55	0	1285554176	43	3987
2026-01-02 01:20:23.00	45.88	24.76	-40.5	-41.1	20.6	0.00e+00	0	55	0	1290797056	43	3950
2026-01-02 01:20:23.98	46.07	24.87	-40.6	-41.2	20.6	0.00e+00	0	55	0	1297088512	43	3992
2026-01-02 01:20:24.96	46.26	24.99	-40.5	-41.2	20.6	0.00e+00	0	55	0	1302331392	43	3964
2026-01-02 01:20:25.95	46.45	25.11	-40.6	-41.2	20.6	0.00e+00	0	55	0	1307574272	43	3982
2026-01-02 01:20:26.93	46.65	25.22	-40.5	-41.1	20.7	0.00e+00	0	55	0	1312817152	43	3925
2026-01-02 01:20:27.92	46.84	25.34	-40.6	-41.2	20.5	0.00e+00	0	55	0	1319108608	43	3963
2026-01-02 01:20:28.89	47.03	25.46	-40.4	-40.9	20.8	0.00e+00	0	55	0	1324351488	43	3863
2026-01-02 01:20:29.88	47.23	25.58	-40.0	-40.6	21.1	0.00e+00	0	55	0	1329594368	43	3714
2026-01-02 01:20:30.87	47.43	25.69	-40.0	-40.5	21.2	0.00e+00	0	55	0	1334837248	43	3689
2026-01-02 01:20:31.85	47.63	25.81	-40.0	-40.5	21.2	0.00e+00	0	55	0	1341128704	42	3910
2026-01-02 01:20:32.83	47.83	25.93	-39.9	-40.4	21.3	0.00e+00	0	55	0	1346371584	42	3860
2026-01-02 01:20:33.83	48.04	26.05	-39.8	-40.3	21.4	0.00e+00	0	55	0	1351614464	42	3817
2026-01-02 01:20:34.81	48.24	26.17	-39.9	-40.5	21.2	0.00e+00	0	55	0	1357905920	42	3892
2026-01-02 01:20:35.81	48.45	26.29	-39.8	-40.4	21.4	0.00e+00	0	55	0	1363148800	42	3825
2026-01-02 01:20:36.79	48.66	26.40	-39.8	-40.3	21.4	0.00e+00	0	55	0	1368391680	42	3819
2026-01-02 01:20:37.79	48.87	26.52	-39.9	-40.4	21.3	0.00e+00	0	55	0	1374683136	42	3868
2026-01-02 01:20:38.77	49.08	26.64	-39.9	-40.4	21.3	0.00e+00	0	55	0	1379926016	42	3858
2026-01-02 01:20:39.76	49.30	26.76	-39.9	-40.5	21.2	0.00e+00	0	55	0	1385168896	42	3869
2026-01-02 01:20:40.76	49.52	26.88	-40.0	-40.6	21.2	0.00e+00	0	55	0	1390411776	42	3924
2026-01-02 01:20:41.74	49.73	27.00	-40.1	-40.7	21.1	0.00e+00	0	55	0	1396703232	42	3960
2026-01-02 01:20:42.73	49.95	27.12	-40.0	-40.5	21.2	0.00e+00	0	55	0	1401946112	42	3897
2026-01-02 01:20:43.72	50.17	27.24	-39.8	-40.3	21.5	0.00e+00	0	55	0	1408237568	42	3798
2026-01-02 01:20:44.72	50.39	27.36	-39.6	-40.1	21.6	0.00e+00	0	55	0	1413480448	42	3735
2026-01-02 01:20:45.72	50.62	27.48	-39.8	-40.3	21.4	0.00e+00	0	55	0	1418723328	42	3796
2026-01-02 01:20:46.71	50.85	27.60	-39.8	-40.4	21.4	0.00e+00	0	55	0	1423966208	42	3840
2026-01-02 01:20:47.70	51.07	27.72	-39.7	-40.3	21.5	0.00e+00	0	55	0	1430257664	42	3785
2026-01-02 01:20:48.68	51.30	27.84	-39.6	-40.2	21.5	0.00e+00	0	55	0	1435500544	42	3752
2026-01-02 01:20:49.67	51.53	27.96	-39.6	-40.1	21.6	0.00e+00	0	55	0	1440743424	42	3718
2026-01-02 01:20:50.66	51.76	28.08	-39.6	-40.1	21.6	0.00e+00	0	56	0	1447034880	42	3715
2026-01-02 01:20:51.65	51.99	28.21	-39.6	-40.1	21.6	0.00e+00	0	55	0	1452277760	42	3727
2026-01-02 01:20:52.63	52.23	28.32	-39.7	-40.2	21.5	0.00e+00	0	56	0	1457520640	42	3768
2026-01-02 01:20:53.62	52.46	28.45	-39.7	-40.3	21.5	0.00e+00	0	56	0	1463812096	42	3793
2026-01-02 01:20:54.60	52.70	28.56	-39.8	-40.4	21.4	0.00e+00	0	55	0	1469054976	42	3835
2026-01-02 01:20:55.60	52.94	28.69	-39.9	-40.5	21.3	0.00e+00	0	55	0	1474297856	42	3870
2026-01-02 01:20:56.58	53.18	28.81	-39.8	-40.3	21.4	0.00e+00	0	55	0	1479540736	42	3805
2026-01-02 01:20:57.57	53.43	28.93	-39.5	-40.1	21.7	0.00e+00	0	56	0	1485832192	42	3703
2026-01-02 01:20:58.56	53.67	29.05	-39.5	-40.0	21.7	0.00e+00	0	55	0	1491075072	42	3662
2026-01-02 01:20:59.55	53.92	29.17	-39.6	-40.1	21.6	0.00e+00	0	56	0	1496317952	42	3709
2026-01-02 01:21:00.53	54.17	29.29	-39.7	-40.2	21.5	0.00e+00	0	56	0	1502609408	42	3758
2026-01-02 01:21:01.52	54.42	29.41	-39.6	-40.2	21.5	0.00e+00	0	55	0	1507852288	42	3751
2026-01-02 01:21:02.52	54.68	29.53	-39.6	-40.2	21.6	0.00e+00	0	56	0	1513095168	42	3744
2026-01-02 01:21:03.50	54.93	29.65	-39.6	-40.2	21.6	0.00e+00	0	56	0	1519386624	42	3743
2026-01-02 01:21:04.48	55.18	29.77	-39.8	-40.4	21.4	0.00e+00	0	56	0	1524629504	42	3827
2026-01-02 01:21:05.47	55.44	29.89	-39.7	-40.2	21.5	0.00e+00	0	56	0	1529872384	42	3777
2026-01-02 01:21:06.46	55.70	30.00	-39.4	-39.9	21.8	0.00e+00	0	56	0	1535115264	42	3640
2026-01-02 01:21:07.45	55.96	30.12	-39.5	-40.0	21.7	0.00e+00	0	56	0	1541406720	41	3895
2026-01-02 01:21:08.44	56.23	30.24	-39.6	-40.2	21.6	0.00e+00	0	56	0	1546649600	41	3963
2026-01-02 01:21:09.43	56.50	30.36	-39.6	-40.2	21.6	0.00e+00	0	56	0	1551892480	41	3968
2026-01-02 01:21:10.42	56.76	30.48	-39.7	-40.3	21.5	0.00e+00	0	56	0	1558183936	41	4008
2026-01-02 01:21:11.40	57.03	30.60	-39.7	-40.3	21.5	0.00e+00	0	56	0	1563426816	41	4009
2026-01-02 01:21:12.40	57.31	30.72	-39.7	-40.3	21.5	0.00e+00	0	56	0	1568669696	41	4005
2026-01-02 01:21:13.39	57.58	30.84	-39.6	-40.1	21.6	0.00e+00	0	56	0	1574961152	41	3936
2026-01-02 01:21:14.37	57.86	30.96	-39.7	-40.2	21.5	0.00e+00	0	56	0	1580204032	41	3982
2026-01-02 01:21:15.37	58.14	31.08	-39.7	-40.3	21.5	0.00e+00	0	56	0	1585446912	41	4025
2026-01-02 01:21:16.36	58.42	31.19	-39.8	-40.3	21.4	0.00e+00	0	56	0	1590689792	41	4042
2026-01-02 01:21:17.35	58.70	31.31	-39.8	-40.4	21.3	0.00e+00	0	56	0	1596981248	41	4068
2026-01-02 01:21:18.34	58.98	31.43	-39.9	-40.4	21.3	0.00e+00	0	56	0	1602224128	41	4087
2026-01-02 01:21:19.33	59.27	31.55	-39.8	-40.4	21.4	0.00e+00	0	56	0	1608515584	41	4059
2026-01-02 01:21:20.33	59.56	31.66	-39.8	-40.4	21.4	0.00e+00	0	56	0	1613758464	41	4058
2026-01-02 01:21:21.31	59.85	31.78	-39.5	-40.0	21.7	0.00e+00	0	56	0	1619001344	41	3903
2026-01-02 01:21:22.30	60.14	31.89	-39.3	-39.8	21.9	0.00e+00	0	56	0	1624244224	41	3802
2026-01-02 01:21:23.29	60.44	32.01	-39.3	-39.8	21.9	0.00e+00	0	56	0	1630535680	41	3823
2026-01-02 01:21:24.28	60.73	32.13	-39.5	-40.0	21.7	0.00e+00	0	56	0	1635778560	41	3909
2026-01-02 01:21:25.27	61.03	32.24	-39.6	-40.1	21.6	0.00e+00	0	56	0	1641021440	41	3957
2026-01-02 01:21:26.26	61.33	32.36	-39.7	-40.2	21.5	0.00e+00	0	56	0	1647312896	41	3996
2026-01-02 01:21:27.25	61.63	32.47	-39.5	-40.0	21.8	0.00e+00	0	56	0	1652555776	41	3885
2026-01-02 01:21:28.24	61.94	32.58	-39.3	-39.8	21.9	0.00e+00	0	56	0	1657798656	41	3823
2026-01-02 01:21:29.21	62.24	32.69	-39.4	-39.9	21.8	0.00e+00	0	56	0	1663041536	41	3847
2026-01-02 01:21:30.19	62.55	32.81	-39.4	-40.0	21.8	0.00e+00	0	56	0	1669332992	41	3876
2026-01-02 01:21:31.17	62.86	32.92	-39.2	-39.7	22.0	0.00e+00	0	56	0	1674575872	41	3760
2026-01-02 01:21:32.16	63.17	33.03	-39.2	-39.8	22.0	0.00e+00	0	56	0	1679818752	41	3782
2026-01-02 01:21:33.14	63.48	33.14	-39.5	-40.0	21.7	0.00e+00	0	56	0	1686110208	41	3889
2026-01-02 01:21:34.13	63.80	33.25	-39.4	-39.9	21.8	0.00e+00	0	56	0	1691353088	41	3867
2026-01-02 01:21:35.12	64.12	33.36	-39.6	-40.2	21.6	0.00e+00	0	56	0	1696595968	41	3972
2026-01-02 01:21:36.11	64.44	33.47	-39.4	-40.0	21.8	0.00e+00	0	56	0	1701838848	41	3880
2026-01-02 01:21:37.10	64.76	33.58	-39.7	-40.3	21.5	0.00e+00	0	56	0	1708130304	41	4018
2026-01-02 01:21:38.08	65.09	33.69	-40.0	-40.5	21.2	0.00e+00	0	56	0	1713373184	41	4132
2026-01-02 01:21:39.08	65.42	33.80	-39.8	-40.3	21.5	0.00e+00	0	56	0	1718616064	41	4033
2026-01-02 01:21:40.07	65.75	33.90	-39.6	-40.1	21.6	0.00e+00	0	56	0	1724907520	41	3954
2026-01-02 01:21:41.06	66.08	34.01	-39.3	-39.9	21.9	0.00e+00	0	56	0	1730150400	41	3828
2026-01-02 01:21:42.05	66.42	34.11	-39.3	-39.8	21.9	0.00e+00	0	56	0	1735393280	41	3811
2026-01-02 01:21:43.03	66.75	34.22	-39.6	-40.2	21.6	0.00e+00	0	56	0	1741684736	41	3960
2026-01-02 01:21:44.03	67.09	34.32	-39.5	-40.0	21.7	0.00e+00	0	56	0	1746927616	41	3898
2026-01-02 01:21:45.02	67.43	34.43	-39.9	-40.5	21.3	0.00e+00	0	56	0	1752170496	41	4118
2026-01-02 01:21:46.01	67.78	34.53	-39.9	-40.4	21.3	0.00e+00	0	56	0	1757413376	41	4084
2026-01-02 01:21:47.00	68.12	34.63	-40.0	-40.6	21.3	0.00e+00	0	56	0	1763704832	41	4151
2026-01-02 01:21:48.00	68.47	34.73	-39.7	-40.2	21.6	0.00e+00	0	56	0	1768947712	41	3988
2026-01-02 01:21:48.99	68.82	34.83	-39.3	-39.8	21.9	0.00e+00	0	56	0	1775239168	41	3820
2026-01-02 01:21:49.99	69.18	34.94	-39.2	-39.7	22.0	0.00e+00	0	56	0	1780482048	41	3748
2026-01-02 01:21:50.98	69.53	35.03	-39.3	-39.8	21.9	0.00e+00	0	56	0	1785724928	41	3809
2026-01-02 01:21:51.97	69.89	35.13	-39.4	-40.0	21.8	0.00e+00	0	56	0	1792016384	41	3873
2026-01-02 01:21:52.96	70.25	35.23	-39.9	-40.5	21.3	0.00e+00	0	56	0	1797259264	41	4110
2026-01-02 01:21:53.94	70.61	35.32	-39.7	-40.3	21.5	0.00e+00	0	56	0	1802502144	41	4016
2026-01-02 01:21:54.93	70.97	35.42	-40.0	-40.6	21.2	0.00e+00	0	56	0	1808793600	41	4152
2026-01-02 01:21:55.93	71.34	35.51	-39.7	-40.2	21.6	0.00e+00	0	56	0	1814036480	41	3998
2026-01-02 01:21:56.91	71.70	35.61	-39.3	-39.9	21.8	0.00e+00	0	56	0	1819279360	41	3838
2026-01-02 01:21:57.91	72.07	35.70	-39.2	-39.7	22.0	0.00e+00	0	56	0	1824522240	41	3746
2026-01-02 01:21:58.88	72.43	35.79	-39.1	-39.6	22.2	0.00e+00	0	56	0	1830813696	41	3705
2026-01-02 01:21:59.87	72.81	35.88	-39.1	-39.7	22.1	0.00e+00	0	56	0	1836056576	41	3739
2026-01-02 01:22:00.86	73.18	35.97	-39.1	-39.6	22.2	0.00e+00	0	56	0	1841299456	41	3714
2026-01-02 01:22:01.84	73.56	36.05	-39.2	-39.7	22.1	0.00e+00	0	56	0	1847590912	41	3762
2026-01-02 01:22:02.83	73.93	36.14	-39.4	-39.9	21.9	0.00e+00	0	56	0	1852833792	41	3857
2026-01-02 01:22:03.81	74.31	36.22	-39.3	-39.8	21.9	0.00e+00	0	56	0	1858076672	41	3806
2026-01-02 01:22:04.80	74.69	36.31	-39.2	-39.7	22.1	0.00e+00	0	56	0	1863319552	41	3751
2026-01-02 01:22:05.80	75.08	36.39	-39.2	-39.7	22.1	0.00e+00	0	56	0	1869611008	41	3742
2026-01-02 01:22:06.78	75.47	36.47	-39.1	-39.6	22.1	0.00e+00	0	56	0	1874853888	41	3725
2026-01-02 01:22:07.77	75.85	36.55	-39.2	-39.7	22.0	0.00e+00	0	56	0	1880096768	41	3776
2026-01-02 01:22:08.76	76.24	36.63	-39.3	-39.8	21.9	0.00e+00	0	56	0	1886388224	41	3813
2026-01-02 01:22:09.75	76.64	36.71	-39.1	-39.6	22.1	0.00e+00	0	56	0	1891631104	41	3727
2026-01-02 01:22:10.73	77.03	36.79	-38.9	-39.4	22.3	0.00e+00	0	56	0	1896873984	41	3626
2026-01-02 01:22:11.72	77.42	36.86	-38.9	-39.4	22.4	0.00e+00	0	56	0	1902116864	40	3836
2026-01-02 01:22:12.71	77.82	36.94	-39.2	-39.7	22.0	0.00e+00	0	56	0	1908408320	40	3996
2026-01-02 01:22:13.70	78.22	37.01	-39.3	-39.8	22.0	0.00e+00	0	56	0	1913651200	40	4038
2026-01-02 01:22:14.69	78.62	37.08	-39.4	-40.0	21.8	0.00e+00	0	56	0	1918894080	40	4099
2026-01-02 01:22:15.68	79.02	37.15	-39.4	-39.9	21.8	0.00e+00	0	56	0	1925185536	40	4094
2026-01-02 01:22:16.67	79.43	37.22	-39.4	-39.9	21.8	0.00e+00	0	56	0	1930428416	40	4082
2026-01-02 01:22:17.66	79.84	37.29	-39.4	-40.0	21.8	0.00e+00	0	57	0	1935671296	40	4100
2026-01-02 01:22:18.65	80.24	37.35	-39.6	-40.1	21.6	0.00e+00	0	56	0	1941962752	41	3958
2026-01-02 01:22:19.63	80.65	37.42	-39.5	-40.1	21.7	0.00e+00	0	56	0	1947205632	41	3924
2026-01-02 01:22:20.63	81.06	37.48	-39.3	-39.8	21.9	0.00e+00	0	56	0	1952448512	41	3813
2026-01-02 01:22:21.62	81.48	37.54	-39.2	-39.7	22.0	0.00e+00	0	56	0	1957691392	41	3762
2026-01-02 01:22:22.61	81.89	37.60	-39.2	-39.7	22.0	0.00e+00	0	56	0	1963982848	41	3761
2026-01-02 01:22:23.60	82.31	37.66	-39.3	-39.9	21.9	0.00e+00	0	56	0	1969225728	41	3827
2026-01-02 01:22:24.59	82.72	37.72	-39.4	-39.9	21.8	0.00e+00	0	57	0	1975517184	41	3850
2026-01-02 01:22:25.58	83.14	37.77	-39.4	-39.9	21.8	0.00e+00	0	56	0	1980760064	41	3867
2026-01-02 01:22:26.57	83.56	37.82	-39.4	-39.9	21.9	0.00e+00	0	56	0	1986002944	41	3843
2026-01-02 01:22:27.55	83.98	37.87	-39.1	-39.6	22.1	0.00e+00	0	56	0	1991245824	41	3710
2026-01-02 01:22:28.55	84.41	37.93	-38.9	-39.4	22.3	0.00e+00	0	57	0	1997537280	41	3649
2026-01-02 01:22:29.54	84.83	37.97	-38.8	-39.3	22.4	0.00e+00	0	56	0	2002780160	40	3799
2026-01-02 01:22:30.52	85.25	38.02	-38.8	-39.3	22.4	0.00e+00	0	56	0	2008023040	40	3794
2026-01-02 01:22:31.51	85.68	38.07	-39.1	-39.6	22.1	0.00e+00	0	56	0	2014314496	40	3948
2026-01-02 01:22:32.50	86.11	38.11	-39.1	-39.6	22.1	0.00e+00	0	56	0	2019557376	40	3951
2026-01-02 01:22:33.49	86.53	38.15	-38.9	-39.4	22.4	0.00e+00	0	56	0	2024800256	40	3829
2026-01-02 01:22:34.49	86.97	38.19	-38.7	-39.2	22.5	0.00e+00	0	56	0	2031091712	40	3772
2026-01-02 01:22:35.48	87.40	38.23	-38.9	-39.4	22.3	0.00e+00	0	56	0	2036334592	40	3835
2026-01-02 01:22:36.47	87.83	38.27	-39.2	-39.7	22.0	0.00e+00	0	56	0	2041577472	40	3990
2026-01-02 01:22:37.46	88.26	38.30	-39.3	-39.8	21.9	0.00e+00	0	56	0	2046820352	40	4041
2026-01-02 01:22:38.46	88.70	38.33	-39.1	-39.7	22.1	0.00e+00	0	56	0	2053111808	40	3960
2026-01-02 01:22:39.44	89.13	38.37	-39.0	-39.5	22.2	0.00e+00	0	57	0	2058354688	40	3907
2026-01-02 01:22:40.44	89.57	38.39	-39.0	-39.5	22.2	0.00e+00	0	56	0	2064646144	40	3894
2026-01-02 01:22:41.43	90.01	38.42	-38.8	-39.3	22.4	0.00e+00	0	57	0	2069889024	40	3816
2026-01-02 01:22:42.41	90.44	38.45	-38.8	-39.4	22.4	0.00e+00	0	57	0	2075131904	40	3826
2026-01-02 01:22:43.40	90.88	38.47	-38.9	-39.3	22.4	0.00e+00	0	56	0	2080374784	40	3822
2026-01-02 01:22:44.39	91.32	38.49	-38.8	-39.3	22.4	0.00e+00	0	57	0	2086666240	40	3820
2026-01-02 01:22:45.38	91.75	38.51	-38.9	-39.4	22.3	0.00e+00	0	56	0	2091909120	40	3860
2026-01-02 01:22:46.37	92.19	38.53	-38.9	-39.4	22.3	0.00e+00	0	57	0	2098200576	40	3868
2026-01-02 01:22:47.36	92.63	38.55	-39.2	-39.7	22.0	0.00e+00	0	57	0	2103443456	40	4002
2026-01-02 01:22:48.35	93.07	38.57	-39.3	-39.8	22.0	0.00e+00	0	57	0	2108686336	40	4035
2026-01-02 01:22:49.33	93.51	38.58	-39.1	-39.6	22.1	0.00e+00	0	57	0	2113929216	40	3920
2026-01-02 01:22:50.32	93.95	38.59	-38.9	-39.5	22.3	0.00e+00	0	57	0	2120220672	40	3869
2026-01-02 01:22:51.32	94.40	38.60	-39.0	-39.5	22.3	0.00e+00	0	57	0	2125463552	40	3883
2026-01-02 01:22:52.30	94.83	38.61	-39.1	-39.6	22.2	0.00e+00	0	57	0	2130706432	40	3929
2026-01-02 01:22:53.29	95.27	38.61	-39.1	-39.7	22.1	0.00e+00	0	57	0	2136997888	40	3968
2026-01-02 01:22:54.28	95.72	38.62	-38.8	-39.4	22.4	0.00e+00	0	57	0	2142240768	40	3827
2026-01-02 01:22:55.27	96.16	38.62	-38.7	-39.2	22.5	0.00e+00	0	57	0	2147483648	40	3752
2026-01-02 01:22:56.26	96.60	38.62	-38.9	-39.4	22.3	0.00e+00	0	57	0	2152726528	40	3860
2026-01-02 01:22:57.25	97.04	38.62	-39.0	-39.5	22.2	0.00e+00	0	57	0	2159017984	40	3879
2026-01-02 01:22:58.23	97.48	38.61	-39.1	-39.6	22.1	0.00e+00	0	57	0	2164260864	40	3937
2026-01-02 01:22:59.23	97.93	38.61	-39.0	-39.5	22.2	0.00e+00	0	57	0	2169503744	40	3898
2026-01-02 01:23:00.22	98.37	38.60	-39.0	-39.5	22.2	0.00e+00	0	57	0	2175795200	40	3886
2026-01-02 01:23:01.21	98.81	38.59	-38.9	-39.4	22.4	0.00e+00	0	57	0	2181038080	40	3829
2026-01-02 01:23:02.20	99.25	38.58	-39.0	-39.5	22.2	0.00e+00	0	57	0	2186280960	40	3902
2026-01-02 01:23:03.18	99.69	38.56	-39.1	-39.6	22.2	0.00e+00	0	57	0	2192572416	40	3936
2026-01-02 01:23:04.17	100.13	38.55	-38.9	-39.4	22.3	0.00e+00	0	57	0	2197815296	40	3843
2026-01-02 01:23:05.16	100.57	38.53	-38.7	-39.2	22.5	0.00e+00	0	57	0	2203058176	40	3745
2026-01-02 01:23:06.15	101.00	38.51	-38.7	-39.2	22.6	0.00e+00	0	57	0	2208301056	40	3746
2026-01-02 01:23:07.14	101.44	38.49	-38.8	-39.3	22.4	0.00e+00	0	57	0	2214592512	40	3801
2026-01-02 01:23:08.13	101.88	38.47	-39.1	-39.7	22.1	0.00e+00	0	57	0	2219835392	40	3962
2026-01-02 01:23:09.12	102.32	38.45	-39.0	-39.5	22.2	0.00e+00	0	57	0	2225078272	40	3889
2026-01-02 01:23:10.11	102.76	38.42	-38.9	-39.5	22.3	0.00e+00	0	57	0	2231369728	40	3869
2026-01-02 01:23:11.10	103.19	38.39	-39.1	-39.6	22.2	0.00e+00	0	57	0	2236612608	40	3927
2026-01-02 01:23:12.10	103.63	38.36	-39.3	-39.8	22.0	0.00e+00	0	57	0	2241855488	40	4029
2026-01-02 01:23:13.08	104.06	38.33	-39.0	-39.5	22.2	0.00e+00	0	57	0	2248146944	40	3899
2026-01-02 01:23:14.07	104.50	38.30	-39.0	-39.5	22.2	0.00e+00	0	57	0	2253389824	40	3912
2026-01-02 01:23:15.06	104.93	38.26	-39.3	-39.8	22.0	0.00e+00	0	57	0	2258632704	40	4036
2026-01-02 01:23:16.05	105.36	38.23	-39.2	-39.8	22.0	0.00e+00	0	57	0	2264924160	40	4005
2026-01-02 01:23:17.04	105.79	38.19	-39.4	-39.9	21.9	0.00e+00	0	57	0	2270167040	40	4093
2026-01-02 01:23:18.03	106.22	38.15	-39.2	-39.7	22.0	0.00e+00	0	57	0	2275409920	40	4001
2026-01-02 01:23:19.01	106.65	38.11	-39.2	-39.7	22.0	0.00e+00	0	57	0	2280652800	40	3992
2026-01-02 01:23:20.01	107.08	38.06	-39.3	-39.8	21.9	0.00e+00	0	57	0	2286944256	40	4050
2026-01-02 01:23:20.98	107.50	38.02	-39.6	-40.2	21.6	0.00e+00	0	57	0	2292187136	41	3976
2026-01-02 01:23:21.97	107.93	37.97	-39.3	-39.8	22.0	0.00e+00	0	57	0	2297430016	41	3796
2026-01-02 01:23:22.96	108.35	37.92	-39.0	-39.5	22.3	0.00e+00	0	57	0	2303721472	41	3659
2026-01-02 01:23:23.95	108.77	37.87	-38.9	-39.4	22.4	0.00e+00	0	57	0	2308964352	40	3829
2026-01-02 01:23:24.94	109.19	37.82	-38.9	-39.4	22.3	0.00e+00	0	57	0	2314207232	40	3850
2026-01-02 01:23:25.93	109.62	37.77	-38.9	-39.4	22.3	0.00e+00	0	57	0	2320498688	40	3865
2026-01-02 01:23:26.92	110.03	37.71	-39.1	-39.6	22.2	0.00e+00	0	57	0	2325741568	40	3928
2026-01-02 01:23:27.91	110.45	37.66	-39.1	-39.7	22.1	0.00e+00	0	57	0	2330984448	40	3959
2026-01-02 01:23:28.90	110.87	37.60	-39.3	-39.9	21.9	0.00e+00	0	57	0	2336227328	40	4053
2026-01-02 01:23:29.89	111.28	37.54	-39.4	-40.0	21.8	0.00e+00	0	57	0	2342518784	40	4103
2026-01-02 01:23:30.87	111.69	37.48	-39.2	-39.7	22.1	0.00e+00	0	57	0	2347761664	40	3984
2026-01-02 01:23:31.86	112.10	37.41	-38.9	-39.4	22.3	0.00e+00	0	57	0	2353004544	40	3846
2026-01-02 01:23:32.85	112.51	37.35	-38.9	-39.4	22.3	0.00e+00	0	57	0	2359296000	40	3854
2026-01-02 01:23:33.84	112.92	37.28	-39.1	-39.6	22.2	0.00e+00	0	57	0	2364538880	40	3934
2026-01-02 01:23:34.82	113.33	37.22	-39.2	-39.7	22.2	0.00e+00	0	57	0	2369781760	40	3984
2026-01-02 01:23:35.81	113.73	37.15	-39.2	-39.7	22.1	0.00e+00	0	57	0	2376073216	40	3980
2026-01-02 01:23:36.80	114.14	37.08	-39.2	-39.8	22.0	0.00e+00	0	57	0	2381316096	40	4006
2026-01-02 01:23:37.79	114.54	37.01	-39.3	-39.8	21.9	0.00e+00	0	57	0	2386558976	40	4047
2026-01-02 01:23:38.79	114.94	36.93	-39.1	-39.6	22.2	0.00e+00	0	57	0	2392850432	40	3944
2026-01-02 01:23:39.77	115.34	36.86	-38.9	-39.4	22.3	0.00e+00	0	57	0	2398093312	40	3862
2026-01-02 01:23:40.75	115.73	36.78	-39.0	-39.5	22.3	0.00e+00	0	57	0	2403336192	40	3888
2026-01-02 01:23:41.74	116.12	36.71	-39.0	-39.6	22.2	0.00e+00	0	57	0	2408579072	40	3917
2026-01-02 01:23:42.73	116.52	36.63	-39.2	-39.7	22.0	0.00e+00	0	57	0	2414870528	40	4002
2026-01-02 01:23:43.72	116.91	36.55	-39.2	-39.7	22.0	0.00e+00	0	57	0	2420113408	40	4000
2026-01-02 01:23:44.71	117.30	36.47	-39.3	-39.8	22.0	0.00e+00	0	57	0	2425356288	40	4032
2026-01-02 01:23:45.70	117.68	36.39	-39.3	-39.8	21.9	0.00e+00	0	57	0	2431647744	40	4051
2026-01-02 01:23:46.69	118.07	36.30	-39.5	-40.0	21.8	0.00e+00	0	57	0	2436890624	40	4129
2026-01-02 01:23:47.68	118.45	36.22	-39.7	-40.3	21.5	0.00e+00	0	57	0	2442133504	41	4027
2026-01-02 01:23:48.67	118.83	36.13	-39.8	-40.3	21.5	0.00e+00	0	57	0	2447376384	41	4045
2026-01-02 01:23:49.67	119.22	36.04	-39.8	-40.3	21.5	0.00e+00	0	57	0	2453667840	41	4035
2026-01-02 01:23:50.66	119.60	35.96	-39.9	-40.4	21.4	0.00e+00	0	57	0	2458910720	41	4096
2026-01-02 01:23:51.64	119.97	35.87	-39.9	-40.4	21.4	0.00e+00	0	57	0	2465202176	41	4095
2026-01-02 01:23:52.63	120.34	35.78	-39.9	-40.5	21.4	0.00e+00	0	57	0	2470445056	41	4125
2026-01-02 01:23:53.62	120.71	35.69	-40.2	-40.7	21.1	0.00e+00	0	57	0	2475687936	42	4002
2026-01-02 01:23:54.62	121.09	35.59	-40.3	-40.8	21.0	0.00e+00	0	57	0	2480930816	42	4045
2026-01-02 01:23:55.61	121.45	35.50	-40.1	-40.6	21.2	0.00e+00	0	57	0	2487222272	42	3943
2026-01-02 01:23:56.60	121.82	35.41	-40.2	-40.8	21.1	0.00e+00	0	57	0	2492465152	42	4032
2026-01-02 01:23:57.60	122.19	35.31	-40.5	-41.1	20.8	0.00e+00	0	57	0	2497708032	42	4155
2026-01-02 01:23:58.58	122.54	35.21	-40.5	-41.1	20.8	0.00e+00	0	57	0	2503999488	42	4152
2026-01-02 01:23:59.57	122.90	35.12	-40.5	-41.1	20.8	0.00e+00	0	57	0	2509242368	42	4184
2026-01-02 01:24:00.56	123.26	35.02	-40.6	-41.2	20.7	0.00e+00	0	57	0	2514485248	43	3978
2026-01-02 01:24:01.55	123.61	34.92	-40.4	-41.0	20.8	0.00e+00	0	57	0	2520776704	43	3894
2026-01-02 01:24:02.54	123.97	34.82	-40.0	-40.5	21.3	0.00e+00	0	57	0	2526019584	43	3690
2026-01-02 01:24:03.52	124.31	34.72	-39.9	-40.4	21.4	0.00e+00	0	57	0	2531262464	42	3866
2026-01-02 01:24:04.51	124.66	34.62	-40.0	-40.6	21.3	0.00e+00	0	57	0	2536505344	42	3937
2026-01-02 01:24:05.50	125.01	34.51	-40.2	-40.7	21.1	0.00e+00	0	57	0	2542796800	42	4000
2026-01-02 01:24:06.48	125.35	34.41	-40.1	-40.7	21.2	0.00e+00	0	57	0	2548039680	42	3984
2026-01-02 01:24:07.48	125.69	34.31	-40.3	-40.9	21.0	0.00e+00	0	57	0	2554331136	42	4056
2026-01-02 01:24:08.47	126.03	34.20	-40.4	-41.0	20.9	0.00e+00	0	57	0	2559574016	42	4109
2026-01-02 01:24:09.46	126.37	34.10	-40.0	-40.6	21.3	0.00e+00	0	57	0	2564816896	42	3931
2026-01-02 01:24:10.45	126.71	33.99	-39.8	-40.3	21.5	0.00e+00	0	57	0	2570059776	42	3804
2026-01-02 01:24:11.44	127.04	33.88	-39.7	-40.2	21.6	0.00e+00	0	57	0	2576351232	42	3776
2026-01-02 01:24:12.42	127.37	33.78	-39.7	-40.3	21.6	0.00e+00	0	57	0	2581594112	42	3797
2026-01-02 01:24:13.41	127.70	33.67	-39.8	-40.4	21.5	0.00e+00	0	57	0	2586836992	42	3832
2026-01-02 01:24:14.40	128.02	33.56	-39.7	-40.2	21.6	0.00e+00	0	57	0	2593128448	42	3770
2026-01-02 01:24:15.38	128.35	33.45	-39.6	-40.1	21.7	0.00e+00	0	57	0	2598371328	42	3737
2026-01-02 01:24:16.37	128.67	33.34	-39.7	-40.2	21.6	0.00e+00	0	57	0	2603614208	42	3761
2026-01-02 01:24:17.37	128.99	33.23	-39.8	-40.3	21.5	0.00e+00	0	57	0	2608857088	42	3814
2026-01-02 01:24:18.36	129.31	33.12	-39.8	-40.3	21.5	0.00e+00	0	57	0	2615148544	42	3801
2026-01-02 01:24:19.35	129.63	33.01	-40.0	-40.6	21.3	0.00e+00	0	57	0	2620391424	42	3930
2026-01-02 01:24:20.34	129.94	32.89	-40.0	-40.6	21.3	0.00e+00	0	57	0	2625634304	42	3927
2026-01-02 01:24:21.33	130.25	32.78	-40.2	-40.7	21.1	0.00e+00	0	57	0	2631925760	42	3998
2026-01-02 01:24:22.32	130.56	32.67	-40.3	-40.9	21.0	0.00e+00	0	57	0	2637168640	42	4066
2026-01-02 01:24:23.30	130.87	32.56	-40.1	-40.7	21.1	0.00e+00	0	57	0	2642411520	42	4000
2026-01-02 01:24:24.30	131.18	32.44	-40.4	-40.9	20.9	0.00e+00	0	57	0	2648702976	42	4092
2026-01-02 01:24:25.29	131.48	32.32	-40.5	-41.0	20.8	0.00e+00	0	57	0	2653945856	42	4144
2026-01-02 01:24:26.27	131.78	32.21	-40.2	-40.8	20.8	0.00e+00	0	57	0	2659188736	42	4050
2026-01-02 01:24:27.27	132.08	32.09	-40.5	-41.1	20.6	0.00e+00	0	57	0	2665480192	43	3950
2026-01-02 01:24:28.25	132.38	31.98	-40.2	-40.8	20.9	0.00e+00	0	57	0	2670723072	43	3799
2026-01-02 01:24:29.24	132.67	31.86	-40.0	-40.6	21.0	0.00e+00	0	57	0	2675965952	43	3735
2026-01-02 01:24:30.22	132.96	31.75	-40.0	-40.6	21.0	0.00e+00	0	57	0	2682257408	43	3718
2026-01-02 01:24:31.20	133.25	31.63	-40.0	-40.6	21.0	0.00e+00	0	57	0	2687500288	43	3712
2026-01-02 01:24:32.19	133.54	31.51	-39.9	-40.6	21.1	0.00e+00	0	57	0	2692743168	43	3696
2026-01-02 01:24:33.18	133.83	31.40	-39.7	-40.3	21.2	0.00e+00	0	57	0	2697986048	42	3824
2026-01-02 01:24:34.16	134.11	31.28	-39.7	-40.3	21.2	0.00e+00	0	57	0	2704277504	42	3816
2026-01-02 01:24:35.15	134.39	31.16	-39.7	-40.4	21.2	0.00e+00	0	57	0	2709520384	42	3826
2026-01-02 01:24:36.14	134.67	31.04	-39.8	-40.4	21.1	0.00e+00	0	57	0	2714763264	42	3857
2026-01-02 01:24:37.13	134.95	30.92	-39.7	-40.3	21.2	0.00e+00	0	57	0	2721054720	42	3811
2026-01-02 01:24:38.11	135.22	30.81	-39.6	-40.2	21.4	0.00e+00	0	57	0	2726297600	42	3777
2026-01-02 01:24:39.10	135.50	30.69	-39.8	-40.4	21.3	0.00e+00	0	57	0	2731540480	42	3828
2026-01-02 01:24:40.09	135.77	30.57	-40.1	-40.7	20.9	0.00e+00	0	57	0	2736783360	42	3982
2026-01-02 01:24:41.08	136.04	30.45	-39.8	-40.4	21.2	0.00e+00	0	57	0	2743074816	42	3866
2026-01-02 01:24:42.07	136.31	30.33	-40.3	-40.9	20.7	0.00e+00	0	57	0	2748317696	42	4091
2026-01-02 01:24:43.05	136.58	30.21	-40.0	-40.7	21.0	0.00e+00	0	57	0	2753560576	42	3972
2026-01-02 01:24:44.05	136.85	30.09	-40.4	-41.1	20.6	0.00e+00	0	57	0	2759852032	42	4148
2026-01-02 01:24:45.03	137.11	29.97	-40.4	-41.1	20.6	0.00e+00	0	57	0	2765094912	42	4153
2026-01-02 01:24:46.03	137.37	29.85	-40.4	-41.0	20.6	0.00e+00	0	57	0	2770337792	42	4140
2026-01-02 01:24:47.01	137.63	29.73	-40.5	-41.1	20.5	0.00e+00	0	57	0	2775580672	42	4176
2026-01-02 01:24:48.01	137.89	29.61	-40.7	-41.4	20.3	0.00e+00	0	57	0	2781872128	43	4056
2026-01-02 01:24:49.00	138.14	29.49	-40.6	-41.3	20.3	0.00e+00	0	57	0	2787115008	43	4023
2026-01-02 01:24:49.99	138.40	29.36	-40.9	-41.6	20.1	0.00e+00	0	57	0	2793406464	43	4160
2026-01-02 01:24:50.98	138.65	29.24	-40.9	-41.7	20.1	0.00e+00	0	57	0	2798649344	43	4198
2026-01-02 01:24:51.97	138.90	29.12	-41.5	-42.3	19.5	0.00e+00	0	57	0	2803892224	44	4251
2026-01-02 01:24:52.96	139.15	29.00	-41.1	-41.9	19.9	0.00e+00	0	57	0	2809135104	44	4063
2026-01-02 01:24:53.94	139.39	28.88	-40.6	-41.3	20.5	0.00e+00	0	57	0	2815426560	44	3795
2026-01-02 01:24:54.94	139.64	28.76	-40.2	-40.9	20.7	0.00e+00	0	57	0	2820669440	43	3828
2026-01-02 01:24:55.92	139.88	28.64	-40.0	-40.7	20.9	0.00e+00	0	57	0	2825912320	43	3739
2026-01-02 01:24:56.92	140.12	28.52	-40.1	-40.7	20.9	0.00e+00	0	57	0	2832203776	43	3761
2026-01-02 01:24:57.91	140.36	28.40	-40.0	-40.6	21.0	0.00e+00	0	57	0	2837446656	43	3730
2026-01-02 01:24:58.89	140.60	28.28	-40.0	-40.6	21.0	0.00e+00	0	57	0	2842689536	43	3728
2026-01-02 01:24:59.88	140.83	28.15	-40.0	-40.7	20.9	0.00e+00	0	57	0	2848980992	43	3749
2026-01-02 01:25:00.87	141.07	28.03	-40.1	-40.7	20.9	0.00e+00	0	57	0	2854223872	43	3756
2026-01-02 01:25:01.86	141.30	27.91	-40.0	-40.6	21.0	0.00e+00	0	57	0	2859466752	43	3717
2026-01-02 01:25:02.84	141.53	27.79	-39.9	-40.5	21.0	0.00e+00	0	57	0	2864709632	42	3910
2026-01-02 01:25:03.83	141.76	27.67	-39.9	-40.5	21.1	0.00e+00	0	57	0	2871001088	42	3893
2026-01-02 01:25:04.83	141.99	27.55	-40.1	-40.8	20.8	0.00e+00	0	57	0	2876243968	42	4013
2026-01-02 01:25:05.82	142.21	27.43	-40.0	-40.6	21.0	0.00e+00	0	57	0	2881486848	42	3950
2026-01-02 01:25:06.81	142.44	27.31	-40.2	-40.8	20.8	0.00e+00	0	57	0	2887778304	42	4031
2026-01-02 01:25:07.79	142.66	27.19	-40.1	-40.7	20.9	0.00e+00	0	57	0	2893021184	42	3999
2026-01-02 01:25:08.78	142.88	27.07	-39.9	-40.6	21.0	0.00e+00	0	57	0	2898264064	42	3926
2026-01-02 01:25:09.78	143.10	26.95	-39.9	-40.5	21.0	0.00e+00	0	57	0	2904555520	42	3905
2026-01-02 01:25:10.77	143.31	26.82	-39.9	-40.6	21.0	0.00e+00	0	57	0	2909798400	42	3917
2026-01-02 01:25:11.76	143.53	26.70	-40.0	-40.6	21.0	0.00e+00	0	57	0	2915041280	42	3958
2026-01-02 01:25:12.75	143.74	26.58	-40.0	-40.6	21.0	0.00e+00	0	57	0	2921332736	42	3930
2026-01-02 01:25:13.74	143.96	26.46	-39.8	-40.4	21.1	0.00e+00	0	57	0	2926575616	42	3860
2026-01-02 01:25:14.73	144.17	26.34	-39.8	-40.4	21.2	0.00e+00	0	57	0	2931818496	42	3845
2026-01-02 01:25:15.71	144.38	26.23	-39.7	-40.3	21.2	0.00e+00	0	57	0	2937061376	42	3821
2026-01-02 01:25:16.71	144.59	26.10	-39.8	-40.4	21.2	0.00e+00	0	57	0	2943352832	42	3849
2026-01-02 01:25:17.69	144.79	25.99	-40.0	-40.6	21.0	0.00e+00	0	57	0	2948595712	42	3927
2026-01-02 01:25:18.68	145.00	25.87	-40.1	-40.7	20.9	0.00e+00	0	58	0	2954887168	42	4004
2026-01-02 01:25:19.67	145.20	25.75	-40.2	-40.8	20.8	0.00e+00	0	57	0	2960130048	42	4042
2026-01-02 01:25:20.66	145.40	25.63	-40.3	-41.0	20.7	0.00e+00	0	57	0	2965372928	42	4101
2026-01-02 01:25:21.65	145.60	25.51	-40.3	-41.0	20.6	0.00e+00	0	58	0	2970615808	42	4122
2026-01-02 01:25:22.64	145.80	25.39	-40.5	-41.2	20.5	0.00e+00	0	57	0	2976907264	42	4198
2026-01-02 01:25:23.63	146.00	25.27	-40.5	-41.2	20.5	0.00e+00	0	57	0	2982150144	42	4196
2026-01-02 01:25:24.61	146.19	25.15	-40.4	-41.1	20.5	0.00e+00	0	57	0	2987393024	42	4178
2026-01-02 01:25:25.61	146.39	25.04	-40.4	-41.1	20.5	0.00e+00	0	57	0	2993684480	42	4165
2026-01-02 01:25:26.59	146.58	24.92	-40.2	-40.8	20.8	0.00e+00	0	57	0	2998927360	42	4049
2026-01-02 01:25:27.58	146.77	24.80	-40.1	-40.7	20.9	0.00e+00	0	57	0	3004170240	42	3974
2026-01-02 01:25:28.56	146.96	24.68	-40.1	-40.7	20.9	0.00e+00	0	57	0	3009413120	42	3977
2026-01-02 01:25:29.55	147.15	24.57	-40.1	-40.8	20.8	0.00e+00	0	57	0	3015704576	42	4023
2026-01-02 01:25:30.53	147.34	24.45	-40.4	-41.1	20.5	0.00e+00	0	57	0	3020947456	42	4154
2026-01-02 01:25:31.52	147.52	24.33	-40.5	-41.2	20.4	0.00e+00	0	57	0	3026190336	42	4232
2026-01-02 01:25:32.52	147.71	24.22	-40.6	-41.3	20.3	0.00e+00	0	57	0	3032481792	42	4265
2026-01-02 01:25:33.51	147.89	24.10	-40.8	-41.5	20.1	0.00e+00	0	57	0	3037724672	43	4108
2026-01-02 01:25:34.50	148.08	23.98	-40.7	-41.5	20.1	0.00e+00	0	57	0	3042967552	43	4106
2026-01-02 01:25:35.49	148.26	23.87	-40.8	-41.5	20.1	0.00e+00	0	57	0	3049259008	43	4119
2026-01-02 01:25:36.48	148.44	23.75	-40.7	-41.4	20.2	0.00e+00	0	57	0	3054501888	43	4095
2026-01-02 01:25:37.47	148.62	23.64	-40.9	-41.6	20.0	0.00e+00	0	57	0	3059744768	43	4187
2026-01-02 01:25:38.46	148.79	23.52	-41.0	-41.7	19.9	0.00e+00	0	57	0	3064987648	43	4205
2026-01-02 01:25:39.45	148.97	23.40	-40.7	-41.4	20.2	0.00e+00	0	57	0	3071279104	43	4061
2026-01-02 01:25:40.42	149.14	23.29	-40.5	-41.1	20.5	0.00e+00	0	58	0	3076521984	43	3955
2026-01-02 01:25:41.42	149.32	23.18	-40.4	-41.0	20.5	0.00e+00	0	57	0	3081764864	43	3899
2026-01-02 01:25:42.40	149.49	23.06	-40.4	-41.0	20.5	0.00e+00	0	58	0	3088056320	43	3909
2026-01-02 01:25:43.39	149.66	22.95	-40.5	-41.1	20.5	0.00e+00	0	58	0	3093299200	43	3945
2026-01-02 01:25:44.38	149.83	22.83	-40.4	-41.1	20.5	0.00e+00	0	58	0	3098542080	43	3932
2026-01-02 01:25:45.37	150.00	22.72	-40.6	-41.2	20.4	0.00e+00	0	58	0	3104833536	43	3989
2026-01-02 01:25:46.36	150.16	22.61	-40.5	-41.2	20.4	0.00e+00	0	57	0	3110076416	43	3984
2026-01-02 01:25:47.35	150.33	22.49	-40.7	-41.4	20.2	0.00e+00	0	57	0	3115319296	43	4055
2026-01-02 01:25:48.34	150.49	22.38	-40.8	-41.5	20.1	0.00e+00	0	58	0	3121610752	43	4131
2026-01-02 01:25:49.32	150.66	22.27	-40.7	-41.3	20.2	0.00e+00	0	58	0	3126853632	43	4051
2026-01-02 01:25:50.31	150.82	22.16	-40.9	-41.6	20.1	0.00e+00	0	58	0	3132096512	43	4146
2026-01-02 01:25:51.30	150.98	22.05	-41.0	-41.7	19.9	0.00e+00	0	57	0	3137339392	43	4211
2026-01-02 01:25:52.28	151.14	21.93	-40.8	-41.5	20.1	0.00e+00	0	57	0	3143630848	43	4131
2026-01-02 01:25:53.27	151.30	21.82	-40.7	-41.4	20.2	0.00e+00	0	57	0	3148873728	43	4075
2026-01-02 01:25:54.26	151.46	21.71	-40.7	-41.4	20.2	0.00e+00	0	58	0	3154116608	43	4075
2026-01-02 01:25:55.25	151.62	21.60	-40.8	-41.5	20.1	0.00e+00	0	57	0	3160408064	43	4107
2026-01-02 01:25:56.24	151.77	21.49	-40.8	-41.5	20.1	0.00e+00	0	57	0	3165650944	43	4113
2026-01-02 01:25:57.22	151.93	21.38	-40.9	-41.6	20.0	0.00e+00	0	57	0	3170893824	43	4187
2026-01-02 01:25:58.21	152.08	21.27	-41.3	-42.0	19.7	0.00e+00	0	58	0	3176136704	44	4133
2026-01-02 01:25:59.20	152.23	21.16	-41.1	-41.8	19.8	0.00e+00	0	58	0	3182428160	44	4051
2026-01-02 01:26:00.19	152.38	21.05	-41.4	-42.2	19.6	0.00e+00	0	58	0	3187671040	44	4198
2026-01-02 01:26:01.18	152.54	20.94	-41.9	-42.6	19.1	0.00e+00	0	57	0	3192913920	45	4184
2026-01-02 01:26:02.17	152.69	20.83	-41.8	-42.6	19.2	0.00e+00	0	58	0	3199205376	45	4150
2026-01-02 01:26:03.16	152.83	20.72	-41.8	-42.6	19.1	0.00e+00	0	58	0	3204448256	45	4174
2026-01-02 01:26:04.15	152.98	20.61	-42.0	-42.8	19.0	0.00e+00	0	58	0	3209691136	45	4259
2026-01-02 01:26:05.15	153.13	20.50	-42.0	-42.7	19.0	0.00e+00	0	58	0	3215982592	45	4238
2026-01-02 01:26:06.14	153.28	20.40	-42.0	-42.8	19.0	0.00e+00	0	58	0	3221225472	45	4267
2026-01-02 01:26:07.13	153.42	20.29	-42.2	-43.0	18.8	0.00e+00	0	58	0	3226468352	46	4139
2026-01-02 01:26:08.11	153.56	20.18	-42.1	-42.9	18.9	0.00e+00	0	57	0	3232759808	46	4088
2026-01-02 01:26:09.11	153.71	20.07	-42.6	-43.5	18.3	0.00e+00	0	58	0	3238002688	47	4120
2026-01-02 01:26:10.10	153.85	19.97	-42.2	-43.0	18.8	0.00e+00	0	58	0	3243245568	47	3895
2026-01-02 01:26:11.09	153.99	19.86	-41.9	-42.7	19.1	0.00e+00	0	58	0	3249537024	46	3961
2026-01-02 01:26:12.08	154.13	19.76	-41.7	-42.4	19.3	0.00e+00	0	58	0	3254779904	46	3862
2026-01-02 01:26:13.07	154.27	19.65	-41.6	-42.3	19.4	0.00e+00	0	57	0	3260022784	46	3817
2026-01-02 01:26:14.06	154.41	19.54	-41.6	-42.3	19.4	0.00e+00	0	58	0	3265265664	46	3819
2026-01-02 01:26:15.05	154.55	19.44	-41.6	-42.3	19.4	0.00e+00	0	58	0	3271557120	46	3823
2026-01-02 01:26:16.03	154.68	19.33	-41.4	-42.1	19.6	0.00e+00	0	58	0	3276800000	46	3737
2026-01-02 01:26:17.02	154.82	19.23	-41.4	-42.1	19.6	0.00e+00	0	58	0	3283091456	45	3926
2026-01-02 01:26:18.01	154.95	19.12	-41.4	-42.2	19.6	0.00e+00	0	58	0	3288334336	45	3964
2026-01-02 01:26:19.00	155.08	19.02	-41.4	-42.1	19.6	0.00e+00	0	57	0	3293577216	45	3955
2026-01-02 01:26:19.99	155.22	18.92	-41.5	-42.3	19.4	0.00e+00	0	58	0	3298820096	45	4021
2026-01-02 01:26:20.97	155.35	18.81	-41.6	-42.4	19.4	0.00e+00	0	58	0	3305111552	45	4056
2026-01-02 01:26:21.96	155.48	18.71	-41.8	-42.6	19.2	0.00e+00	0	57	0	3310354432	45	4159
2026-01-02 01:26:22.95	155.61	18.61	-41.7	-42.5	19.2	0.00e+00	0	58	0	3315597312	45	4122
2026-01-02 01:26:23.94	155.74	18.50	-41.9	-42.7	19.0	0.00e+00	0	58	0	3321888768	45	4238
2026-01-02 01:26:24.93	155.87	18.40	-41.9	-42.7	19.1	0.00e+00	0	58	0	3327131648	45	4204
2026-01-02 01:26:25.91	155.99	18.30	-42.0	-42.8	19.0	0.00e+00	0	58	0	3332374528	45	4260
2026-01-02 01:26:26.89	156.12	18.20	-42.3	-43.1	18.6	0.00e+00	0	58	0	3337617408	46	4192
2026-01-02 01:26:27.89	156.25	18.10	-42.5	-43.3	18.5	0.00e+00	0	58	0	3343908864	46	4277
2026-01-02 01:26:28.87	156.37	18.00	-42.4	-43.2	18.6	0.00e+00	0	57	0	3349151744	46	4226
2026-01-02 01:26:29.86	156.50	17.90	-42.4	-43.2	18.6	0.00e+00	0	57	0	3354394624	46	4221
2026-01-02 01:26:30.83	156.62	17.80	-42.5	-43.3	18.5	0.00e+00	0	58	0	3360686080	46	4283
2026-01-02 01:26:31.82	156.74	17.70	-42.6	-43.5	18.3	0.00e+00	0	58	0	3365928960	46	4341
2026-01-02 01:26:32.82	156.86	17.60	-42.5	-43.3	18.5	0.00e+00	0	58	0	3371171840	47	4033
2026-01-02 01:26:33.81	156.98	17.50	-42.3	-43.2	18.6	0.00e+00	0	58	0	3376414720	47	3964
2026-01-02 01:26:34.80	157.11	17.40	-42.2	-43.0	18.8	0.00e+00	0	58	0	3382706176	47	3886
2026-01-02 01:26:35.79	157.22	17.30	-42.2	-43.0	18.7	0.00e+00	0	58	0	3387949056	47	3897
2026-01-02 01:26:36.78	157.34	17.20	-42.5	-43.4	18.4	0.00e+00	0	58	0	3393191936	47	4054
2026-01-02 01:26:37.77	157.46	17.10	-42.3	-43.2	18.6	0.00e+00	0	58	0	3399483392	47	3965
2026-01-02 01:26:38.76	157.58	17.00	-42.1	-42.9	18.9	0.00e+00	0	58	0	3404726272	47	3832
2026-01-02 01:26:39.74	157.70	16.90	-41.9	-42.7	19.1	0.00e+00	0	58	0	3409969152	47	3751
2026-01-02 01:26:40.74	157.81	16.80	-42.0	-42.8	18.9	0.00e+00	0	58	0	3416260608	47	3816
2026-01-02 01:26:41.73	157.93	16.71	-42.4	-43.2	18.6	0.00e+00	0	58	0	3421503488	47	3963
2026-01-02 01:26:42.73	158.04	16.61	-42.5	-43.3	18.5	0.00e+00	0	58	0	3426746368	47	4023
2026-01-02 01:26:43.71	158.16	16.51	-42.5	-43.3	18.4	0.00e+00	0	58	0	3431989248	47	4036
2026-01-02 01:26:44.71	158.27	16.41	-42.6	-43.5	18.3	0.00e+00	0	58	0	3438280704	47	4112
2026-01-02 01:26:45.70	158.38	16.32	-42.7	-43.6	18.2	0.00e+00	0	58	0	3443523584	47	4148
2026-01-02 01:26:46.69	158.50	16.22	-42.8	-43.7	18.1	0.00e+00	0	58	0	3449815040	47	4195
2026-01-02 01:26:47.67	158.61	16.13	-42.8	-43.7	18.1	0.00e+00	0	58	0	3455057920	47	4202
2026-01-02 01:26:48.66	158.72	16.03	-43.0	-43.9	17.9	0.00e+00	0	58	0	3460300800	47	4335
2026-01-02 01:26:49.65	158.83	15.94	-43.2	-44.1	17.9	0.00e+00	0	58	0	3465543680	48	4166
2026-01-02 01:26:50.64	158.94	15.84	-42.9	-43.8	18.2	0.00e+00	0	58	0	3471835136	48	4020
2026-01-02 01:26:51.62	159.04	15.75	-42.7	-43.6	18.4	0.00e+00	0	58	0	3477078016	48	3922
2026-01-02 01:26:52.60	159.15	15.65	-42.6	-43.5	18.5	0.00e+00	0	58	0	3482320896	48	3885
2026-01-02 01:26:53.59	159.26	15.56	-42.7	-43.5	18.4	0.00e+00	0	57	0	3488612352	48	3911
2026-01-02 01:26:54.57	159.36	15.47	-42.7	-43.6	18.3	0.00e+00	0	58	0	3493855232	48	3927
2026-01-02 01:26:55.56	159.47	15.37	-42.8	-43.6	18.3	0.00e+00	0	58	0	3499098112	48	3944
2026-01-02 01:26:56.54	159.57	15.28	-42.7	-43.6	18.3	0.00e+00	0	58	0	3504340992	48	3939
2026-01-02 01:26:57.54	159.68	15.19	-42.8	-43.7	18.3	0.00e+00	0	58	0	3510632448	48	3968
2026-01-02 01:26:58.52	159.78	15.09	-42.8	-43.7	18.2	0.00e+00	0	58	0	3515875328	48	3983
2026-01-02 01:26:59.52	159.89	15.00	-42.9	-43.7	18.2	0.00e+00	0	58	0	3521118208	48	3999
2026-01-02 01:27:00.51	159.99	14.91	-43.0	-43.9	18.1	0.00e+00	0	58	0	3527409664	48	4065
2026-01-02 01:27:01.50	160.09	14.82	-43.0	-43.9	18.0	0.00e+00	0	58	0	3532652544	48	4088
2026-01-02 01:27:02.49	160.19	14.72	-43.0	-43.9	18.0	0.00e+00	0	58	0	3537895424	48	4076
2026-01-02 01:27:03.48	160.29	14.63	-43.2	-44.0	17.9	0.00e+00	0	58	0	3544186880	48	4144
2026-01-02 01:27:04.46	160.39	14.54	-43.2	-44.1	17.9	0.00e+00	0	58	0	3549429760	48	4151
2026-01-02 01:27:05.46	160.49	14.45	-43.1	-44.0	17.9	0.00e+00	0	58	0	3554672640	48	4136
2026-01-02 01:27:06.45	160.59	14.36	-43.2	-44.1	17.8	0.00e+00	0	58	0	3560964096	48	4173
2026-01-02 01:27:07.44	160.69	14.27	-43.2	-44.1	17.8	0.00e+00	0	58	0	3566206976	48	4156
2026-01-02 01:27:08.43	160.79	14.18	-43.2	-44.1	17.8	0.00e+00	0	58	0	3571449856	48	4178
2026-01-02 01:27:09.41	160.89	14.09	-43.1	-43.9	18.0	0.00e+00	0	58	0	3576692736	48	4085
2026-01-02 01:27:10.40	160.98	14.00	-43.0	-43.8	18.1	0.00e+00	0	58	0	3582984192	48	4035
2026-01-02 01:27:11.39	161.08	13.91	-42.9	-43.8	18.1	0.00e+00	0	58	0	3588227072	48	4022
2026-01-02 01:27:12.38	161.18	13.82	-43.0	-43.9	18.0	0.00e+00	0	58	0	3593469952	48	4059
2026-01-02 01:27:13.37	161.27	13.73	-42.9	-43.8	18.1	0.00e+00	0	58	0	3599761408	48	4021
2026-01-02 01:27:14.35	161.36	13.64	-42.9	-43.8	18.1	0.00e+00	0	58	0	3605004288	48	4025
2026-01-02 01:27:15.35	161.46	13.55	-43.1	-43.9	17.9	0.00e+00	0	58	0	3610247168	48	4095
2026-01-02 01:27:16.33	161.55	13.47	-43.2	-44.1	17.8	0.00e+00	0	58	0	3616538624	48	4169
2026-01-02 01:27:17.33	161.65	13.38	-43.2	-44.0	17.9	0.00e+00	0	58	0	3621781504	48	4139
2026-01-02 01:27:18.32	161.74	13.29	-43.2	-44.1	17.7	0.00e+00	0	58	0	3627024384	48	4190
2026-01-02 01:27:19.32	161.83	13.20	-43.1	-44.0	17.8	0.00e+00	0	58	0	3632267264	48	4145
2026-01-02 01:27:20.30	161.92	13.12	-43.2	-44.1	17.8	0.00e+00	0	58	0	3638558720	48	4169
2026-01-02 01:27:21.30	162.01	13.03	-43.2	-44.2	17.7	0.00e+00	0	58	0	3643801600	48	4206
2026-01-02 01:27:22.27	162.10	12.94	-43.3	-44.2	17.7	0.00e+00	0	58	0	3650093056	48	4212
2026-01-02 01:27:23.27	162.19	12.85	-43.2	-44.1	17.8	0.00e+00	0	58	0	3655335936	48	4183
2026-01-02 01:27:24.26	162.28	12.77	-43.2	-44.1	17.7	0.00e+00	0	58	0	3660578816	48	4185
2026-01-02 01:27:25.25	162.37	12.68	-43.3	-44.2	17.7	0.00e+00	0	58	0	3665821696	48	4211
2026-01-02 01:27:26.24	162.46	12.60	-43.4	-44.3	17.6	0.00e+00	0	58	0	3672113152	48	4262
2026-01-02 01:27:27.22	162.55	12.51	-43.6	-44.5	17.4	0.00e+00	0	58	0	3677356032	49	4121
2026-01-02 01:27:28.21	162.64	12.43	-43.4	-44.3	17.5	0.00e+00	0	58	0	3682598912	49	4031
2026-01-02 01:27:29.20	162.72	12.34	-43.3	-44.2	17.6	0.00e+00	0	58	0	3688890368	49	3995
2026-01-02 01:27:30.18	162.81	12.26	-43.4	-44.4	17.5	0.00e+00	0	58	0	3694133248	49	4064
2026-01-02 01:27:31.17	162.90	12.17	-43.6	-44.6	17.3	0.00e+00	0	58	0	3699376128	49	4164
