passes_logs/2026/01/02/R3.0SM8_Murmansk_STILSPACE/R3.0SM8_Murmansk_STILSPACE__20260102_003514_AQUA_rec.log

#Pass ID: 20260102_003514_AQUA
#Satellite: AQUA
#Configuration: AQUA
#almurnet v.1.7.20240730
#Start time: 2026-01-02 00:35:16

#Version: 2.2.20231116
#Station: R3.0SM8_Murmansk_STILSPACE
#Location: 33.092731 lon 68.902999 lat
#TLE: 1 27424U 02022A   25365.92641127  .00002078  00000+0  42628-3 0  9999
#TLE: 2 27424  98.4058 327.1196 0001962  94.7781 340.6230 14.61783896258835

#Time	Az	El	Level	Level2	SNR	BER	BlckErr	Temp	State	Recorded	gain1	gain2
2026-01-02 00:35:16.28	22.16	3.09	-54.0	-73.9	3.8	7.45e-01	0	47	0	0	70	37085
2026-01-02 00:35:17.26	22.23	3.15	-53.7	-73.6	3.8	7.44e-01	0	47	104	0	70	35967
2026-01-02 00:35:18.25	22.30	3.22	-53.6	-73.5	3.8	7.44e-01	0	48	104	0	70	35445
2026-01-02 00:35:19.23	22.36	3.28	-53.4	-73.2	3.8	7.43e-01	0	48	104	0	70	34447
2026-01-02 00:35:20.23	22.43	3.34	-53.1	-72.6	3.8	7.47e-01	0	48	104	0	69	33704
2026-01-02 00:35:21.22	22.50	3.40	-53.0	-72.7	3.8	7.44e-01	0	48	104	0	69	34113
2026-01-02 00:35:22.20	22.57	3.46	-53.0	-72.6	3.8	7.44e-01	0	48	104	0	69	33706
2026-01-02 00:35:23.18	22.64	3.53	-53.0	-72.6	3.8	7.48e-01	0	48	104	0	69	33980
2026-01-02 00:35:24.17	22.70	3.59	-53.0	-72.8	3.8	7.44e-01	0	48	104	0	69	34651
2026-01-02 00:35:25.17	22.77	3.65	-53.0	-72.8	3.8	7.41e-01	0	48	104	0	69	34831
2026-01-02 00:35:26.16	22.84	3.72	-53.0	-72.9	3.8	7.42e-01	0	48	104	0	69	34948
2026-01-02 00:35:27.14	22.91	3.78	-53.0	-72.8	3.8	7.47e-01	0	48	104	0	69	34825
2026-01-02 00:35:28.13	22.98	3.84	-53.0	-72.8	3.8	7.40e-01	0	48	104	0	69	34799
2026-01-02 00:35:29.11	23.05	3.90	-53.0	-72.8	3.8	7.46e-01	0	48	104	0	69	34714
2026-01-02 00:35:30.09	23.12	3.97	-53.0	-72.7	3.8	7.45e-01	0	48	104	0	69	34475
2026-01-02 00:35:31.07	23.19	4.03	-53.0	-72.7	3.8	7.44e-01	0	48	104	0	69	34362
2026-01-02 00:35:32.05	23.26	4.09	-53.0	-72.8	3.8	7.44e-01	0	48	104	0	69	34544
2026-01-02 00:35:33.03	23.34	4.16	-53.0	-72.7	3.8	7.48e-01	0	48	104	0	69	34439
2026-01-02 00:35:34.03	23.41	4.22	-53.0	-72.8	3.8	7.48e-01	0	48	104	0	69	34580
2026-01-02 00:35:35.01	23.48	4.28	-53.0	-72.8	3.8	7.43e-01	0	48	104	0	69	34818
2026-01-02 00:35:36.01	23.55	4.35	-53.0	-72.9	3.8	7.44e-01	0	48	104	0	69	35057
2026-01-02 00:35:37.00	23.63	4.41	-53.0	-72.7	3.8	7.45e-01	0	49	104	0	69	34108
2026-01-02 00:35:37.99	23.70	4.48	-53.0	-71.9	3.8	7.45e-01	0	49	104	0	69	31112
2026-01-02 00:35:38.97	23.77	4.54	-53.0	-70.0	4.1	7.38e-01	0	49	104	0	69	25087
2026-01-02 00:35:39.97	23.85	4.61	-52.9	-67.6	4.4	7.11e-01	0	49	104	0	69	19034
2026-01-02 00:35:40.95	23.92	4.67	-52.8	-65.1	6.5	6.74e-01	92	49	0	524288	69	14288
2026-01-02 00:35:41.94	24.00	4.74	-52.6	-62.9	8.7	6.36e-01	7	49	0	2621440	68	11777
2026-01-02 00:35:42.92	24.07	4.80	-52.4	-61.0	10.6	6.17e-01	0	49	0	4194304	68	9464
2026-01-02 00:35:43.90	24.14	4.87	-52.0	-59.3	12.4	6.08e-01	0	49	0	6291456	67	8253
2026-01-02 00:35:44.89	24.22	4.93	-51.7	-57.9	13.9	6.06e-01	0	49	0	7864320	66	7437
2026-01-02 00:35:45.88	24.30	5.00	-51.2	-56.5	15.3	6.03e-01	0	49	0	9961472	66	6310
2026-01-02 00:35:46.86	24.37	5.06	-51.2	-56.4	15.4	6.03e-01	0	49	0	11534336	65	6607
2026-01-02 00:35:47.85	24.45	5.13	-51.5	-57.1	14.7	6.03e-01	0	49	0	13631488	65	7163
2026-01-02 00:35:48.84	24.53	5.20	-51.3	-56.6	15.2	6.04e-01	0	49	0	15204352	65	6749
2026-01-02 00:35:49.83	24.60	5.26	-51.1	-55.9	15.8	6.03e-01	0	49	0	17301504	65	6251
2026-01-02 00:35:50.82	24.68	5.33	-50.8	-55.3	16.4	6.03e-01	0	50	0	18874368	65	5842
2026-01-02 00:35:51.81	24.76	5.40	-50.2	-54.5	16.9	6.04e-01	0	50	0	20971520	64	5624
2026-01-02 00:35:52.79	24.84	5.46	-50.4	-54.4	17.5	6.02e-01	0	50	0	23068672	64	5554
2026-01-02 00:35:53.79	24.92	5.53	-50.2	-53.8	17.9	6.02e-01	0	50	0	24641536	64	5217
2026-01-02 00:35:54.77	25.00	5.60	-50.1	-53.7	18.3	6.02e-01	0	50	0	26738688	63	5407
2026-01-02 00:35:55.76	25.07	5.66	-50.2	-53.8	18.2	6.01e-01	0	50	0	28311552	63	5483
2026-01-02 00:35:56.75	25.16	5.73	-50.2	-53.8	18.1	6.03e-01	0	50	0	30408704	63	5502
2026-01-02 00:35:57.73	25.23	5.80	-50.4	-54.2	17.8	6.04e-01	0	50	0	31981568	63	5738
2026-01-02 00:35:58.72	25.32	5.86	-50.3	-53.9	18.0	6.02e-01	0	50	0	34078720	63	5566
2026-01-02 00:35:59.72	25.40	5.93	-50.1	-53.5	18.5	6.03e-01	0	50	0	35651584	63	5308
2026-01-02 00:36:00.70	25.48	6.00	-49.8	-53.0	18.9	6.04e-01	0	50	0	37748736	63	5001
2026-01-02 00:36:01.69	25.56	6.07	-49.6	-52.5	19.4	6.04e-01	0	50	0	39321600	62	5039
2026-01-02 00:36:02.67	25.64	6.14	-49.4	-52.3	19.6	6.03e-01	0	50	0	41418752	62	4893
2026-01-02 00:36:03.65	25.72	6.20	-49.3	-52.1	19.8	6.02e-01	0	50	0	42991616	62	4808
2026-01-02 00:36:04.64	25.81	6.27	-49.3	-52.1	19.9	6.01e-01	0	50	0	45088768	62	4787
2026-01-02 00:36:05.63	25.89	6.34	-49.2	-51.9	19.9	6.02e-01	0	50	0	46661632	62	4703
2026-01-02 00:36:06.62	25.97	6.41	-49.2	-52.0	19.9	6.02e-01	0	50	0	48758784	61	5012
2026-01-02 00:36:07.62	26.06	6.48	-49.4	-52.2	19.7	6.01e-01	0	50	0	50331648	61	5154
2026-01-02 00:36:08.61	26.14	6.55	-49.4	-52.2	19.7	6.02e-01	0	50	0	52428800	61	5140
2026-01-02 00:36:09.59	26.23	6.62	-49.2	-52.0	20.0	6.05e-01	0	50	0	54525952	61	5008
2026-01-02 00:36:10.59	26.32	6.69	-49.1	-51.7	20.2	6.03e-01	0	51	0	56098816	61	4856
2026-01-02 00:36:11.58	26.40	6.76	-49.0	-51.6	20.4	6.03e-01	0	51	0	58195968	61	4807
2026-01-02 00:36:12.57	26.49	6.83	-49.0	-51.6	20.4	6.03e-01	0	51	0	59768832	61	4773
2026-01-02 00:36:13.56	26.58	6.90	-48.9	-51.5	20.5	6.03e-01	0	50	0	61865984	61	4728
2026-01-02 00:36:14.55	26.66	6.97	-49.0	-51.6	20.5	6.00e-01	0	51	0	63438848	61	4784
2026-01-02 00:36:15.54	26.75	7.04	-49.2	-51.8	20.4	6.03e-01	0	51	0	65536000	61	4910
2026-01-02 00:36:16.53	26.84	7.11	-49.1	-51.7	20.4	6.01e-01	0	51	0	67108864	61	4867
2026-01-02 00:36:17.52	26.93	7.18	-49.0	-51.5	20.5	6.02e-01	0	51	0	69206016	61	4745
2026-01-02 00:36:18.51	27.02	7.25	-48.9	-51.4	20.7	6.03e-01	0	51	0	70778880	61	4659
2026-01-02 00:36:19.49	27.11	7.32	-48.9	-51.4	20.6	6.03e-01	0	51	0	72876032	61	4695
2026-01-02 00:36:20.47	27.19	7.39	-48.8	-51.3	20.7	6.04e-01	0	51	0	74448896	61	4624
2026-01-02 00:36:21.46	27.28	7.46	-48.9	-51.3	20.8	6.04e-01	0	51	0	76546048	61	4644
2026-01-02 00:36:22.45	27.38	7.53	-48.8	-51.3	20.8	6.04e-01	0	51	0	78643200	61	4622
2026-01-02 00:36:23.44	27.47	7.61	-48.8	-51.2	20.8	6.05e-01	0	51	0	80216064	61	4592
2026-01-02 00:36:24.43	27.56	7.68	-48.9	-51.3	20.8	6.02e-01	0	51	0	82313216	61	4646
2026-01-02 00:36:25.42	27.65	7.75	-48.8	-51.3	20.8	6.03e-01	0	51	0	83886080	61	4614
2026-01-02 00:36:26.42	27.75	7.82	-48.9	-51.3	20.8	6.02e-01	0	51	0	85983232	61	4638
2026-01-02 00:36:27.41	27.84	7.90	-48.9	-51.4	20.7	6.04e-01	0	51	0	87556096	61	4684
2026-01-02 00:36:28.39	27.93	7.97	-48.8	-51.3	20.7	6.03e-01	0	51	0	89653248	61	4613
2026-01-02 00:36:29.38	28.03	8.04	-48.9	-51.4	20.7	6.02e-01	0	51	0	91226112	61	4662
2026-01-02 00:36:30.36	28.12	8.11	-49.0	-51.5	20.8	6.01e-01	0	51	0	93323264	61	4707
2026-01-02 00:36:31.35	28.21	8.19	-48.9	-51.3	20.8	6.04e-01	0	51	0	94896128	61	4622
2026-01-02 00:36:32.33	28.31	8.26	-49.0	-51.5	20.8	6.02e-01	0	51	0	96993280	61	4710
2026-01-02 00:36:33.32	28.41	8.33	-49.1	-51.6	20.6	6.04e-01	0	52	0	98566144	61	4807
2026-01-02 00:36:34.31	28.50	8.41	-48.9	-51.3	20.9	6.02e-01	0	52	0	100663296	61	4643
2026-01-02 00:36:35.30	28.60	8.48	-48.8	-51.2	20.9	6.01e-01	0	52	0	102760448	61	4592
2026-01-02 00:36:36.30	28.70	8.55	-48.8	-51.2	20.9	6.05e-01	0	52	0	104333312	61	4593
2026-01-02 00:36:37.30	28.80	8.63	-48.9	-51.4	20.8	6.01e-01	0	52	0	106430464	61	4654
2026-01-02 00:36:38.29	28.90	8.70	-48.9	-51.4	20.8	6.03e-01	0	52	0	108003328	61	4653
2026-01-02 00:36:39.27	28.99	8.78	-49.0	-51.5	20.8	6.01e-01	0	52	0	110100480	61	4706
2026-01-02 00:36:40.27	29.09	8.85	-48.9	-51.3	20.9	6.03e-01	0	52	0	111673344	61	4618
2026-01-02 00:36:41.26	29.20	8.93	-48.7	-51.1	21.2	6.02e-01	0	52	0	113770496	61	4511
2026-01-02 00:36:42.25	29.30	9.00	-48.9	-51.3	21.0	6.04e-01	0	52	0	115343360	61	4609
2026-01-02 00:36:43.23	29.40	9.08	-49.0	-51.4	20.9	6.03e-01	0	52	0	117440512	61	4697
2026-01-02 00:36:44.21	29.50	9.15	-48.7	-51.0	21.2	6.03e-01	0	52	0	119013376	61	4475
2026-01-02 00:36:45.20	29.60	9.23	-48.6	-50.9	21.4	6.00e-01	0	52	0	121110528	60	4657
2026-01-02 00:36:46.19	29.70	9.30	-48.5	-50.7	21.5	6.02e-01	0	52	0	123207680	60	4586
2026-01-02 00:36:47.18	29.81	9.38	-48.6	-50.8	21.5	6.02e-01	0	52	0	124780544	60	4612
2026-01-02 00:36:48.17	29.91	9.46	-48.6	-50.8	21.6	6.03e-01	0	52	0	126877696	60	4610
2026-01-02 00:36:49.16	30.02	9.53	-48.7	-50.9	21.3	6.02e-01	0	52	0	128450560	60	4705
2026-01-02 00:36:50.15	30.12	9.61	-48.6	-50.8	21.5	6.03e-01	0	52	0	130547712	60	4613
2026-01-02 00:36:51.14	30.23	9.68	-48.7	-50.9	21.4	6.01e-01	0	52	0	132120576	60	4694
2026-01-02 00:36:52.13	30.33	9.76	-48.8	-51.1	21.1	6.02e-01	0	52	0	134217728	60	4772
2026-01-02 00:36:53.12	30.44	9.84	-48.6	-50.9	21.4	6.03e-01	0	52	0	135790592	60	4659
2026-01-02 00:36:54.10	30.55	9.92	-48.4	-50.6	21.4	6.02e-01	0	52	0	137887744	60	4504
2026-01-02 00:36:55.10	30.66	9.99	-48.4	-50.6	21.7	6.03e-01	0	52	0	139460608	60	4501
2026-01-02 00:36:56.09	30.76	10.07	-48.4	-50.6	21.7	6.02e-01	0	52	0	141557760	60	4510
2026-01-02 00:36:57.08	30.87	10.15	-48.4	-50.6	21.8	6.05e-01	0	52	0	143654912	60	4498
2026-01-02 00:36:58.07	30.98	10.23	-48.5	-50.7	21.6	6.03e-01	0	52	0	145227776	60	4583
2026-01-02 00:36:59.05	31.09	10.30	-48.4	-50.5	21.9	6.03e-01	0	52	0	146800640	60	4449
2026-01-02 00:37:00.04	31.20	10.38	-48.4	-50.5	21.8	5.99e-01	0	52	0	148897792	60	4471
2026-01-02 00:37:01.03	31.32	10.46	-48.4	-50.5	21.8	6.03e-01	0	53	0	150994944	60	4465
2026-01-02 00:37:02.03	31.43	10.54	-48.4	-50.6	21.8	6.02e-01	0	52	0	152567808	60	4502
2026-01-02 00:37:03.02	31.54	10.62	-48.6	-50.8	21.5	6.04e-01	0	53	0	154664960	60	4636
2026-01-02 00:37:04.01	31.66	10.70	-48.6	-50.8	21.6	6.02e-01	0	52	0	156237824	60	4611
2026-01-02 00:37:04.99	31.77	10.78	-48.6	-50.7	21.6	6.05e-01	0	53	0	158334976	60	4598
2026-01-02 00:37:05.97	31.88	10.86	-48.6	-50.8	21.5	6.04e-01	0	53	0	159907840	60	4645
2026-01-02 00:37:06.96	32.00	10.94	-48.7	-51.0	21.5	6.02e-01	0	53	0	162004992	60	4715
2026-01-02 00:37:07.95	32.12	11.02	-48.7	-50.9	21.5	6.02e-01	0	53	0	163577856	60	4675
2026-01-02 00:37:08.93	32.23	11.10	-48.8	-51.0	21.5	6.03e-01	0	52	0	165675008	60	4758
2026-01-02 00:37:09.92	32.35	11.18	-48.9	-51.3	21.1	6.02e-01	0	53	0	167247872	60	4878
2026-01-02 00:37:10.92	32.47	11.26	-48.8	-51.0	21.3	6.05e-01	0	53	0	169345024	60	4747
2026-01-02 00:37:11.90	32.59	11.34	-48.6	-50.8	21.6	6.03e-01	0	53	0	170917888	60	4611
2026-01-02 00:37:12.89	32.71	11.42	-48.4	-50.5	21.8	6.01e-01	0	53	0	173015040	60	4470
2026-01-02 00:37:13.87	32.82	11.50	-48.3	-50.4	22.0	6.02e-01	0	53	0	174587904	60	4411
2026-01-02 00:37:14.86	32.95	11.58	-48.4	-50.5	22.0	6.03e-01	0	53	0	176685056	60	4459
2026-01-02 00:37:15.85	33.07	11.66	-48.5	-50.6	21.8	6.01e-01	0	53	0	178782208	60	4505
2026-01-02 00:37:16.84	33.19	11.74	-48.6	-50.8	21.7	6.04e-01	0	53	0	180355072	60	4630
2026-01-02 00:37:17.82	33.31	11.82	-48.5	-50.6	21.8	6.02e-01	0	53	0	182452224	60	4499
2026-01-02 00:37:18.81	33.44	11.91	-48.3	-50.4	22.1	6.00e-01	0	53	0	184025088	60	4404
2026-01-02 00:37:19.80	33.56	11.99	-48.2	-50.2	22.2	6.01e-01	0	53	0	186122240	60	4335
2026-01-02 00:37:20.79	33.69	12.07	-48.3	-50.3	22.1	6.03e-01	0	53	0	187695104	60	4348
2026-01-02 00:37:21.77	33.81	12.15	-48.4	-50.5	22.0	6.02e-01	0	53	0	189792256	60	4472
2026-01-02 00:37:22.76	33.94	12.24	-48.4	-50.5	21.9	6.03e-01	0	53	0	191365120	60	4473
2026-01-02 00:37:23.76	34.07	12.32	-48.5	-50.6	21.9	6.03e-01	0	53	0	193462272	60	4532
2026-01-02 00:37:24.75	34.19	12.40	-48.6	-50.7	21.8	6.04e-01	0	53	0	195035136	60	4573
2026-01-02 00:37:25.74	34.32	12.49	-48.5	-50.5	21.8	6.01e-01	0	53	0	197132288	60	4489
2026-01-02 00:37:26.74	34.45	12.57	-48.5	-50.6	22.0	6.03e-01	0	53	0	199229440	60	4535
2026-01-02 00:37:27.73	34.58	12.66	-48.4	-50.5	22.0	6.01e-01	0	53	0	200802304	60	4465
2026-01-02 00:37:28.72	34.72	12.74	-48.5	-50.7	21.8	6.02e-01	0	53	0	202899456	60	4548
2026-01-02 00:37:29.69	34.84	12.82	-48.4	-50.5	22.0	6.03e-01	0	53	0	204472320	60	4455
2026-01-02 00:37:30.67	34.98	12.91	-48.3	-50.3	22.2	6.03e-01	0	53	0	206569472	60	4343
2026-01-02 00:37:31.66	35.11	12.99	-48.5	-50.5	22.2	6.02e-01	0	53	0	208142336	59	4740
2026-01-02 00:37:32.65	35.24	13.07	-48.6	-50.6	22.2	6.03e-01	0	53	0	210239488	59	4793
2026-01-02 00:37:33.64	35.38	13.16	-48.7	-50.8	22.1	6.02e-01	0	53	0	211812352	59	4886
2026-01-02 00:37:34.63	35.52	13.25	-48.7	-50.8	22.0	5.99e-01	0	53	0	213909504	59	4912
2026-01-02 00:37:35.62	35.65	13.33	-48.7	-50.7	22.1	6.05e-01	0	53	0	215482368	59	4869
2026-01-02 00:37:36.62	35.79	13.42	-48.8	-50.9	22.0	6.03e-01	0	53	0	217579520	59	4980
2026-01-02 00:37:37.61	35.93	13.50	-48.8	-50.9	22.0	6.01e-01	0	53	0	219152384	59	4927
2026-01-02 00:37:38.60	36.07	13.59	-48.7	-50.7	22.1	6.04e-01	0	53	0	221249536	59	4855
2026-01-02 00:37:39.59	36.21	13.68	-48.7	-50.7	22.1	6.02e-01	0	54	0	223346688	59	4864
2026-01-02 00:37:40.57	36.35	13.76	-48.9	-51.0	21.9	6.04e-01	0	54	0	224919552	59	5009
2026-01-02 00:37:41.56	36.49	13.85	-48.7	-50.9	21.7	6.03e-01	0	54	0	226492416	60	4668
2026-01-02 00:37:42.55	36.63	13.93	-48.7	-50.8	21.7	6.04e-01	0	54	0	228589568	60	4636
2026-01-02 00:37:43.53	36.77	14.02	-48.4	-50.5	22.1	6.02e-01	0	54	0	230686720	60	4450
2026-01-02 00:37:44.52	36.92	14.11	-48.3	-50.2	22.3	6.05e-01	0	54	0	232259584	60	4328
2026-01-02 00:37:45.49	37.06	14.19	-48.5	-50.5	22.4	6.02e-01	0	54	0	234356736	59	4707
2026-01-02 00:37:46.48	37.21	14.28	-48.5	-50.5	22.4	6.02e-01	0	54	0	235929600	59	4714
2026-01-02 00:37:47.47	37.35	14.37	-48.6	-50.6	22.3	6.04e-01	0	54	0	238026752	59	4796
2026-01-02 00:37:48.46	37.50	14.46	-48.6	-50.6	22.2	6.04e-01	0	54	0	239599616	59	4810
2026-01-02 00:37:49.45	37.65	14.54	-48.5	-50.5	22.4	6.04e-01	0	53	0	241696768	59	4707
2026-01-02 00:37:50.44	37.80	14.63	-48.4	-50.4	22.5	6.03e-01	0	54	0	243269632	59	4675
2026-01-02 00:37:51.43	37.95	14.72	-48.6	-50.6	22.3	6.04e-01	0	54	0	245366784	59	4805
2026-01-02 00:37:52.42	38.10	14.81	-48.6	-50.6	22.3	6.03e-01	0	54	0	246939648	59	4809
2026-01-02 00:37:53.41	38.26	14.90	-48.5	-50.5	22.5	6.00e-01	0	54	0	249036800	59	4720
2026-01-02 00:37:54.39	38.41	14.99	-48.7	-50.7	22.2	6.03e-01	0	54	0	250609664	59	4841
2026-01-02 00:37:55.38	38.56	15.08	-48.7	-50.8	22.1	6.02e-01	0	54	0	252706816	59	4874
2026-01-02 00:37:56.36	38.72	15.16	-48.5	-50.5	22.4	6.00e-01	0	54	0	254279680	59	4734
2026-01-02 00:37:57.36	38.87	15.26	-48.4	-50.4	22.5	6.02e-01	0	54	0	256376832	59	4664
2026-01-02 00:37:58.35	39.03	15.35	-48.4	-50.3	22.7	6.02e-01	0	54	0	258473984	59	4601
2026-01-02 00:37:59.33	39.19	15.43	-48.4	-50.3	22.6	6.03e-01	0	54	0	260046848	59	4604
2026-01-02 00:38:00.32	39.35	15.52	-48.4	-50.3	22.6	6.03e-01	0	54	0	262144000	59	4617
2026-01-02 00:38:01.30	39.51	15.61	-48.6	-50.5	22.4	6.05e-01	0	54	0	263716864	59	4745
2026-01-02 00:38:02.29	39.67	15.70	-48.5	-50.5	22.5	6.02e-01	0	54	0	265814016	59	4745
2026-01-02 00:38:03.28	39.83	15.79	-48.7	-50.7	22.3	6.04e-01	0	54	0	267386880	59	4833
2026-01-02 00:38:04.27	39.99	15.89	-48.4	-50.4	22.6	6.04e-01	0	54	0	269484032	59	4654
2026-01-02 00:38:05.26	40.16	15.98	-48.2	-50.1	22.8	6.03e-01	0	54	0	271056896	59	4504
2026-01-02 00:38:06.25	40.32	16.07	-48.1	-49.9	23.0	6.04e-01	0	54	0	273154048	59	4426
2026-01-02 00:38:07.25	40.49	16.16	-48.1	-49.9	23.0	6.03e-01	0	54	0	274726912	59	4411
2026-01-02 00:38:08.23	40.66	16.25	-48.1	-49.9	23.1	6.03e-01	0	54	0	276824064	59	4403
2026-01-02 00:38:09.23	40.83	16.34	-48.2	-50.0	23.0	6.01e-01	0	54	0	278396928	59	4457
2026-01-02 00:38:10.21	41.00	16.43	-48.3	-50.1	22.8	6.04e-01	0	54	0	280494080	59	4545
2026-01-02 00:38:11.20	41.17	16.53	-48.4	-50.3	22.7	6.02e-01	0	54	0	282591232	59	4601
2026-01-02 00:38:12.20	41.34	16.62	-48.2	-50.0	22.9	6.04e-01	0	54	0	284164096	59	4479
2026-01-02 00:38:13.19	41.51	16.71	-48.1	-49.8	23.1	6.01e-01	0	54	0	286261248	59	4384
2026-01-02 00:38:14.18	41.69	16.80	-48.0	-49.8	23.1	6.00e-01	0	54	0	287834112	59	4372
2026-01-02 00:38:15.17	41.86	16.90	-48.1	-49.8	23.1	6.06e-01	0	54	0	289931264	59	4387
2026-01-02 00:38:16.16	42.04	16.99	-48.1	-49.8	23.1	6.05e-01	0	54	0	291504128	59	4377
2026-01-02 00:38:17.15	42.22	17.08	-48.2	-50.0	23.0	6.02e-01	0	54	0	293601280	59	4458
2026-01-02 00:38:18.14	42.39	17.17	-48.1	-49.9	23.0	6.05e-01	0	54	0	295174144	59	4432
2026-01-02 00:38:19.12	42.57	17.27	-48.2	-50.1	23.0	6.04e-01	0	54	0	297271296	59	4497
2026-01-02 00:38:20.10	42.75	17.36	-48.4	-50.3	22.6	6.00e-01	0	54	0	298844160	59	4631
2026-01-02 00:38:21.08	42.93	17.45	-48.2	-50.0	22.9	6.03e-01	0	54	0	300941312	59	4470
2026-01-02 00:38:22.08	43.12	17.55	-48.0	-49.8	23.2	6.04e-01	0	54	0	303038464	59	4343
2026-01-02 00:38:23.07	43.30	17.64	-47.9	-49.6	23.3	6.02e-01	0	54	0	304611328	59	4291
2026-01-02 00:38:24.06	43.49	17.73	-48.0	-49.7	23.2	6.03e-01	0	54	0	306184192	59	4324
2026-01-02 00:38:25.05	43.67	17.83	-48.1	-49.8	23.1	6.03e-01	0	54	0	308281344	59	4384
2026-01-02 00:38:26.03	43.86	17.92	-48.2	-50.0	23.0	6.02e-01	0	54	0	310378496	59	4492
2026-01-02 00:38:27.03	44.05	18.02	-48.1	-49.9	23.1	6.02e-01	0	54	0	311951360	59	4394
2026-01-02 00:38:28.02	44.24	18.11	-48.2	-50.1	23.0	6.00e-01	0	54	0	314048512	59	4497
2026-01-02 00:38:29.00	44.43	18.20	-48.5	-50.4	22.6	6.03e-01	0	54	0	315621376	59	4692
2026-01-02 00:38:29.99	44.62	18.30	-48.3	-50.2	22.8	6.02e-01	0	54	0	317718528	59	4575
2026-01-02 00:38:30.98	44.81	18.39	-48.5	-50.4	22.6	6.05e-01	0	54	0	319291392	59	4676
2026-01-02 00:38:31.97	45.01	18.49	-48.7	-50.6	22.4	6.03e-01	0	54	0	321388544	59	4803
2026-01-02 00:38:32.95	45.20	18.58	-48.5	-50.4	22.7	6.04e-01	0	54	0	322961408	59	4678
2026-01-02 00:38:33.95	45.40	18.68	-48.2	-50.0	23.0	6.03e-01	0	54	0	325058560	59	4478
2026-01-02 00:38:34.94	45.60	18.77	-48.2	-50.0	23.0	6.01e-01	0	54	0	326631424	59	4481
2026-01-02 00:38:35.93	45.80	18.87	-48.2	-50.0	22.8	6.02e-01	0	55	0	328728576	59	4493
2026-01-02 00:38:36.92	46.00	18.96	-48.2	-50.0	23.0	6.03e-01	0	55	0	330301440	59	4464
2026-01-02 00:38:37.90	46.21	19.06	-48.3	-50.2	22.8	6.02e-01	0	54	0	332398592	59	4546
2026-01-02 00:38:38.89	46.41	19.15	-48.2	-50.0	23.0	6.03e-01	0	55	0	334495744	59	4489
2026-01-02 00:38:39.88	46.62	19.25	-48.2	-50.0	23.0	6.02e-01	0	54	0	336068608	59	4452
2026-01-02 00:38:40.87	46.82	19.34	-48.2	-50.0	23.0	6.04e-01	0	54	0	338165760	59	4459
2026-01-02 00:38:41.86	47.03	19.44	-48.3	-50.2	22.9	6.04e-01	0	54	0	339738624	59	4557
2026-01-02 00:38:42.84	47.24	19.53	-48.3	-50.1	22.9	6.02e-01	0	55	0	341835776	59	4543
2026-01-02 00:38:43.83	47.45	19.63	-48.4	-50.2	22.8	6.03e-01	0	55	0	343408640	59	4582
2026-01-02 00:38:44.83	47.66	19.72	-48.2	-50.0	23.0	6.04e-01	0	55	0	345505792	59	4477
2026-01-02 00:38:45.82	47.88	19.82	-48.1	-49.9	23.1	6.03e-01	0	55	0	347078656	59	4412
2026-01-02 00:38:46.82	48.09	19.92	-48.2	-50.0	23.0	6.02e-01	0	55	0	349175808	59	4459
2026-01-02 00:38:47.79	48.31	20.01	-48.3	-50.2	22.9	6.03e-01	0	55	0	350748672	59	4557
2026-01-02 00:38:48.79	48.53	20.11	-48.2	-50.1	22.9	6.03e-01	0	55	0	352845824	59	4495
2026-01-02 00:38:49.77	48.74	20.20	-48.2	-50.0	23.0	6.02e-01	0	55	0	354418688	59	4461
2026-01-02 00:38:50.76	48.96	20.30	-48.3	-50.2	22.8	6.05e-01	0	55	0	356515840	59	4549
2026-01-02 00:38:51.76	49.19	20.39	-48.3	-50.2	22.9	6.03e-01	0	55	0	358612992	59	4552
2026-01-02 00:38:52.74	49.41	20.49	-48.3	-50.1	22.9	6.03e-01	0	55	0	360185856	59	4517
2026-01-02 00:38:53.73	49.63	20.58	-48.4	-50.2	22.9	6.02e-01	0	55	0	362283008	59	4578
2026-01-02 00:38:54.72	49.86	20.68	-48.3	-50.1	23.0	6.01e-01	0	55	0	363855872	59	4535
2026-01-02 00:38:55.71	50.09	20.77	-48.2	-50.0	23.0	6.05e-01	0	55	0	365953024	59	4475
2026-01-02 00:38:56.71	50.32	20.87	-48.3	-50.1	22.9	6.01e-01	0	55	0	367525888	59	4527
2026-01-02 00:38:57.69	50.55	20.97	-48.4	-50.3	22.7	6.03e-01	0	55	0	369623040	59	4641
2026-01-02 00:38:58.68	50.78	21.06	-48.4	-50.2	22.8	6.04e-01	0	55	0	371195904	59	4592
2026-01-02 00:38:59.67	51.01	21.16	-48.3	-50.1	22.9	6.04e-01	0	55	0	373293056	59	4507
2026-01-02 00:39:00.66	51.25	21.25	-48.3	-50.1	22.9	6.00e-01	0	55	0	374865920	59	4525
2026-01-02 00:39:01.65	51.48	21.35	-48.3	-50.1	22.9	6.02e-01	0	55	0	376963072	59	4538
2026-01-02 00:39:02.65	51.72	21.44	-48.3	-50.1	22.9	6.04e-01	0	55	0	379060224	59	4545
2026-01-02 00:39:03.64	51.96	21.54	-48.4	-50.2	22.8	6.03e-01	0	55	0	380633088	59	4577
2026-01-02 00:39:04.64	52.21	21.63	-48.4	-50.3	22.8	6.03e-01	0	55	0	382730240	59	4612
2026-01-02 00:39:05.62	52.45	21.73	-48.5	-50.4	22.6	6.05e-01	0	55	0	384303104	59	4669
2026-01-02 00:39:06.60	52.69	21.82	-48.4	-50.3	22.7	6.03e-01	0	55	0	386400256	59	4602
2026-01-02 00:39:07.60	52.94	21.92	-48.4	-50.2	22.8	6.04e-01	0	55	0	387973120	59	4585
2026-01-02 00:39:08.59	53.19	22.01	-48.4	-50.3	22.8	6.03e-01	0	55	0	390070272	59	4621
2026-01-02 00:39:09.57	53.43	22.10	-48.5	-50.4	22.7	6.00e-01	0	55	0	391643136	59	4667
2026-01-02 00:39:10.56	53.68	22.20	-48.5	-50.4	22.7	6.01e-01	0	55	0	393740288	59	4657
2026-01-02 00:39:11.55	53.93	22.29	-48.6	-50.6	22.5	6.02e-01	0	55	0	395313152	59	4766
2026-01-02 00:39:12.54	54.19	22.39	-48.6	-50.5	22.6	6.04e-01	0	55	0	397410304	59	4732
2026-01-02 00:39:13.53	54.44	22.48	-48.4	-50.3	22.8	6.02e-01	0	55	0	399507456	59	4609
2026-01-02 00:39:14.52	54.70	22.57	-48.4	-50.3	22.8	6.03e-01	0	55	0	401080320	59	4605
2026-01-02 00:39:15.50	54.95	22.67	-48.4	-50.3	22.7	6.02e-01	0	55	0	402653184	59	4633
2026-01-02 00:39:16.49	55.21	22.76	-48.5	-50.4	22.7	6.03e-01	0	55	0	404750336	59	4673
2026-01-02 00:39:17.47	55.47	22.85	-48.5	-50.4	22.7	6.04e-01	0	55	0	406323200	59	4673
2026-01-02 00:39:18.46	55.74	22.94	-48.5	-50.3	22.8	6.03e-01	0	55	0	408420352	59	4643
2026-01-02 00:39:19.44	56.00	23.04	-48.5	-50.4	22.7	6.04e-01	0	55	0	410517504	59	4678
2026-01-02 00:39:20.43	56.26	23.13	-48.5	-50.4	22.7	6.03e-01	0	55	0	412090368	59	4694
2026-01-02 00:39:21.43	56.54	23.22	-48.6	-50.5	22.5	6.01e-01	0	55	0	414187520	59	4759
2026-01-02 00:39:22.42	56.81	23.31	-48.6	-50.5	22.6	6.03e-01	0	55	0	415760384	59	4734
2026-01-02 00:39:23.41	57.08	23.41	-48.6	-50.6	22.5	6.01e-01	0	55	0	417857536	59	4767
2026-01-02 00:39:24.40	57.35	23.50	-48.8	-50.8	22.3	6.00e-01	0	55	0	419430400	59	4892
2026-01-02 00:39:25.39	57.62	23.59	-48.8	-50.8	22.0	6.03e-01	0	55	0	421527552	60	4641
2026-01-02 00:39:26.38	57.90	23.68	-48.9	-51.0	21.8	6.03e-01	0	55	0	423100416	60	4724
2026-01-02 00:39:27.38	58.18	23.77	-48.6	-50.7	22.1	6.01e-01	0	55	0	425197568	60	4556
2026-01-02 00:39:28.35	58.45	23.86	-48.5	-50.4	22.4	6.04e-01	0	55	0	426770432	60	4418
2026-01-02 00:39:29.34	58.73	23.95	-48.3	-50.2	22.5	6.03e-01	0	55	0	428867584	60	4337
2026-01-02 00:39:30.33	59.02	24.04	-48.3	-50.1	22.6	6.03e-01	0	55	0	430964736	60	4279
2026-01-02 00:39:31.31	59.30	24.12	-48.2	-50.1	22.7	6.03e-01	0	55	0	432537600	60	4252
2026-01-02 00:39:32.29	59.58	24.21	-48.6	-50.5	22.6	6.05e-01	0	55	0	434634752	59	4742
2026-01-02 00:39:33.28	59.87	24.30	-48.7	-50.7	22.2	6.02e-01	0	55	0	436207616	59	4859
2026-01-02 00:39:34.27	60.16	24.39	-48.7	-50.6	22.4	6.03e-01	0	55	0	438304768	59	4800
2026-01-02 00:39:35.25	60.45	24.47	-48.7	-50.7	22.4	6.00e-01	0	55	0	439877632	59	4833
2026-01-02 00:39:36.25	60.74	24.56	-48.6	-50.5	22.1	6.04e-01	0	55	0	441974784	60	4485
2026-01-02 00:39:37.24	61.04	24.65	-48.7	-50.8	22.0	6.02e-01	0	55	0	443547648	60	4629
2026-01-02 00:39:38.23	61.33	24.73	-49.0	-51.1	21.7	6.02e-01	0	55	0	445644800	60	4806
2026-01-02 00:39:39.22	61.63	24.82	-48.9	-51.0	21.8	6.02e-01	0	55	0	447217664	60	4753
2026-01-02 00:39:40.21	61.93	24.91	-48.9	-51.1	21.7	6.03e-01	0	55	0	449314816	60	4777
2026-01-02 00:39:41.20	62.23	24.99	-49.2	-51.4	21.4	6.03e-01	0	55	0	450887680	60	4971
2026-01-02 00:39:42.19	62.53	25.07	-49.1	-51.3	21.6	6.02e-01	0	55	0	452984832	60	4876
2026-01-02 00:39:43.18	62.84	25.16	-49.1	-51.3	21.5	6.01e-01	0	55	0	455081984	60	4887
2026-01-02 00:39:44.17	63.14	25.24	-49.1	-51.4	21.4	6.02e-01	0	55	0	456654848	60	4929
2026-01-02 00:39:45.15	63.45	25.32	-49.0	-51.2	21.6	6.03e-01	0	55	0	458752000	60	4828
2026-01-02 00:39:46.13	63.75	25.40	-48.9	-51.1	21.8	6.04e-01	0	55	0	460324864	60	4761
2026-01-02 00:39:47.13	64.07	25.49	-48.9	-51.0	21.8	6.02e-01	0	55	0	461897728	60	4753
2026-01-02 00:39:48.12	64.38	25.57	-49.0	-51.1	21.7	6.02e-01	0	55	0	463994880	60	4809
2026-01-02 00:39:49.11	64.69	25.65	-49.2	-51.5	21.4	6.03e-01	0	55	0	466092032	60	4998
2026-01-02 00:39:50.10	65.01	25.73	-49.0	-51.2	21.7	6.02e-01	0	56	0	467664896	60	4828
2026-01-02 00:39:51.09	65.33	25.81	-49.2	-51.4	21.4	6.03e-01	0	56	0	469762048	60	4975
2026-01-02 00:39:52.08	65.64	25.88	-49.0	-51.2	21.6	6.03e-01	0	55	0	471334912	60	4849
2026-01-02 00:39:53.07	65.97	25.96	-48.8	-50.9	21.9	6.01e-01	0	56	0	473432064	60	4656
2026-01-02 00:39:54.07	66.29	26.04	-48.6	-50.5	22.2	6.04e-01	0	56	0	475004928	60	4485
2026-01-02 00:39:55.05	66.61	26.12	-48.4	-50.4	22.4	6.04e-01	0	56	0	477102080	60	4406
2026-01-02 00:39:56.04	66.94	26.19	-48.4	-50.3	22.5	6.01e-01	0	56	0	478674944	60	4344
2026-01-02 00:39:57.03	67.26	26.27	-48.4	-50.4	22.4	6.04e-01	0	56	0	480772096	60	4409
2026-01-02 00:39:58.02	67.59	26.34	-48.3	-50.2	22.6	6.02e-01	0	56	0	482344960	60	4332
2026-01-02 00:39:59.00	67.92	26.41	-48.5	-50.4	22.8	6.02e-01	0	56	0	484442112	59	4664
2026-01-02 00:39:59.99	68.25	26.49	-48.7	-50.7	22.4	6.02e-01	0	56	0	486539264	59	4838
2026-01-02 00:40:00.98	68.58	26.56	-48.7	-50.6	22.5	6.04e-01	0	55	0	488112128	59	4786
2026-01-02 00:40:01.97	68.92	26.63	-48.6	-50.6	22.5	6.04e-01	0	56	0	490209280	59	4769
2026-01-02 00:40:02.96	69.25	26.70	-48.8	-50.8	22.5	6.02e-01	0	56	0	491782144	59	4878
2026-01-02 00:40:03.95	69.59	26.77	-48.8	-50.8	22.4	6.03e-01	0	55	0	493879296	59	4871
2026-01-02 00:40:04.94	69.93	26.84	-48.9	-50.9	22.3	6.05e-01	0	56	0	495452160	59	4952
2026-01-02 00:40:05.94	70.28	26.91	-48.8	-50.8	22.4	6.01e-01	0	56	0	497549312	59	4889
2026-01-02 00:40:06.92	70.61	26.97	-48.7	-50.7	22.2	6.04e-01	0	56	0	499122176	60	4564
2026-01-02 00:40:07.92	70.96	27.04	-48.5	-50.4	22.4	6.02e-01	0	56	0	501219328	60	4417
2026-01-02 00:40:08.90	71.30	27.10	-48.5	-50.4	22.4	6.01e-01	0	56	0	502792192	60	4435
2026-01-02 00:40:09.89	71.65	27.17	-48.5	-50.5	22.3	6.03e-01	0	56	0	504889344	60	4481
2026-01-02 00:40:10.87	71.99	27.23	-48.7	-50.7	22.2	6.02e-01	0	56	0	506462208	60	4556
2026-01-02 00:40:11.86	72.34	27.29	-48.4	-50.3	22.5	6.03e-01	0	56	0	508559360	60	4370
2026-01-02 00:40:12.85	72.70	27.35	-48.4	-50.4	22.4	6.02e-01	0	55	0	510656512	60	4410
2026-01-02 00:40:13.84	73.05	27.42	-48.5	-50.5	22.3	6.02e-01	0	56	0	512229376	60	4455
2026-01-02 00:40:14.83	73.40	27.47	-48.5	-50.4	22.4	6.03e-01	0	56	0	514326528	60	4433
2026-01-02 00:40:15.82	73.76	27.53	-48.7	-50.7	22.1	6.04e-01	0	56	0	515899392	60	4566
2026-01-02 00:40:16.80	74.11	27.59	-48.7	-50.7	22.1	6.03e-01	0	56	0	517996544	60	4581
2026-01-02 00:40:17.79	74.47	27.65	-48.8	-50.9	21.9	6.01e-01	0	56	0	519569408	60	4673
2026-01-02 00:40:18.77	74.82	27.70	-48.7	-50.7	22.1	6.03e-01	0	56	0	521666560	60	4583
2026-01-02 00:40:19.76	75.18	27.76	-48.5	-50.5	22.3	6.02e-01	0	56	0	523239424	60	4453
2026-01-02 00:40:20.75	75.54	27.81	-48.3	-50.2	22.6	6.03e-01	0	56	0	525336576	60	4304
2026-01-02 00:40:21.75	75.91	27.86	-48.3	-50.2	22.6	6.00e-01	0	56	0	526909440	60	4299
2026-01-02 00:40:22.74	76.27	27.91	-48.3	-50.1	22.7	6.03e-01	0	56	0	529006592	60	4287
2026-01-02 00:40:23.73	76.64	27.97	-48.2	-50.1	22.7	6.03e-01	0	56	0	531103744	60	4248
2026-01-02 00:40:24.72	77.00	28.01	-48.6	-50.5	22.7	6.03e-01	0	56	0	532676608	59	4724
2026-01-02 00:40:25.71	77.37	28.06	-48.8	-50.8	22.4	6.02e-01	0	56	0	534773760	59	4919
2026-01-02 00:40:26.70	77.74	28.11	-48.3	-50.2	22.6	6.03e-01	0	56	0	536346624	60	4310
2026-01-02 00:40:27.69	78.11	28.16	-48.5	-50.3	22.8	6.03e-01	0	56	0	538443776	59	4627
2026-01-02 00:40:28.68	78.48	28.20	-48.5	-50.3	22.8	6.03e-01	0	56	0	540016640	59	4628
2026-01-02 00:40:29.67	78.85	28.24	-48.7	-50.6	22.6	6.03e-01	0	56	0	542113792	59	4803
2026-01-02 00:40:30.66	79.23	28.29	-48.8	-50.9	22.3	6.01e-01	0	56	0	543686656	59	4935
2026-01-02 00:40:31.65	79.60	28.33	-48.8	-50.7	22.4	6.02e-01	0	56	0	545783808	59	4867
2026-01-02 00:40:32.64	79.97	28.37	-48.7	-50.7	22.5	6.04e-01	0	56	0	547356672	59	4842
2026-01-02 00:40:33.63	80.35	28.40	-48.6	-50.5	22.4	6.01e-01	0	56	0	549453824	60	4484
2026-01-02 00:40:34.61	80.72	28.44	-48.8	-50.8	22.0	6.04e-01	0	56	0	551026688	60	4650
2026-01-02 00:40:35.60	81.10	28.48	-48.7	-50.7	22.1	6.04e-01	0	56	0	553123840	60	4585
2026-01-02 00:40:36.59	81.48	28.51	-48.8	-50.9	22.0	6.04e-01	0	56	0	555220992	60	4685
2026-01-02 00:40:37.57	81.85	28.55	-48.7	-50.7	22.2	6.04e-01	0	56	0	556793856	60	4554
2026-01-02 00:40:38.55	82.23	28.58	-48.4	-50.4	22.5	6.01e-01	0	56	0	558366720	60	4394
2026-01-02 00:40:39.53	82.61	28.61	-48.5	-50.5	22.3	6.02e-01	0	56	0	560463872	60	4458
2026-01-02 00:40:40.52	82.99	28.64	-48.4	-50.4	22.5	6.04e-01	0	56	0	562036736	60	4395
2026-01-02 00:40:41.51	83.37	28.67	-48.2	-50.1	22.7	6.03e-01	0	56	0	564133888	60	4259
2026-01-02 00:40:42.50	83.75	28.70	-48.4	-50.3	22.6	6.03e-01	0	56	0	566231040	60	4352
2026-01-02 00:40:43.49	84.14	28.72	-48.5	-50.4	22.3	6.02e-01	0	56	0	567803904	60	4441
2026-01-02 00:40:44.48	84.52	28.75	-48.4	-50.4	22.4	6.01e-01	0	56	0	569901056	60	4397
2026-01-02 00:40:45.47	84.91	28.77	-48.2	-50.1	22.7	6.05e-01	0	56	0	571473920	60	4270
2026-01-02 00:40:46.45	85.29	28.79	-48.4	-50.2	22.9	6.02e-01	0	56	0	573571072	59	4575
2026-01-02 00:40:47.43	85.67	28.81	-48.4	-50.2	23.0	6.04e-01	0	56	0	575143936	59	4573
2026-01-02 00:40:48.41	86.05	28.83	-48.5	-50.3	22.8	6.01e-01	0	56	0	577241088	59	4651
2026-01-02 00:40:49.41	86.44	28.85	-48.4	-50.3	22.9	6.03e-01	0	56	0	578813952	59	4599
2026-01-02 00:40:50.40	86.83	28.87	-48.4	-50.2	22.9	6.03e-01	0	56	0	580911104	59	4582
2026-01-02 00:40:51.39	87.22	28.88	-48.2	-49.9	23.2	6.03e-01	0	56	0	582483968	59	4425
2026-01-02 00:40:52.37	87.60	28.90	-48.1	-49.9	23.3	6.02e-01	0	56	0	584581120	59	4397
2026-01-02 00:40:53.35	87.99	28.91	-48.4	-50.2	22.9	6.03e-01	0	56	0	586153984	59	4593
2026-01-02 00:40:54.34	88.37	28.92	-48.1	-49.9	23.3	6.03e-01	0	56	0	588251136	59	4404
2026-01-02 00:40:55.33	88.76	28.93	-48.2	-49.9	23.2	6.05e-01	0	56	0	590348288	59	4408
2026-01-02 00:40:56.31	89.15	28.94	-48.4	-50.3	22.9	6.03e-01	0	56	0	591921152	59	4599
2026-01-02 00:40:57.30	89.54	28.95	-48.2	-49.9	23.2	6.03e-01	0	56	0	594018304	59	4425
2026-01-02 00:40:58.30	89.93	28.95	-48.1	-49.8	23.3	6.05e-01	0	56	0	595591168	59	4362
2026-01-02 00:40:59.29	90.32	28.96	-48.2	-50.0	23.2	6.05e-01	0	56	0	597688320	59	4452
2026-01-02 00:41:00.29	90.71	28.96	-48.0	-49.8	23.4	6.01e-01	0	56	0	599261184	59	4342
2026-01-02 00:41:01.28	91.10	28.96	-48.1	-49.9	23.3	6.03e-01	0	56	0	601358336	59	4417
2026-01-02 00:41:02.27	91.49	28.96	-48.3	-50.0	23.2	6.02e-01	0	56	0	602931200	59	4485
2026-01-02 00:41:03.26	91.88	28.96	-48.4	-50.2	23.0	6.02e-01	0	56	0	605028352	59	4567
2026-01-02 00:41:04.26	92.28	28.96	-48.3	-50.1	23.0	6.01e-01	0	56	0	606601216	59	4517
2026-01-02 00:41:05.25	92.67	28.95	-48.4	-50.2	23.0	6.03e-01	0	56	0	608698368	59	4565
2026-01-02 00:41:06.24	93.06	28.95	-48.2	-49.9	23.2	6.02e-01	0	56	0	610795520	59	4434
2026-01-02 00:41:07.23	93.45	28.94	-48.2	-49.9	23.2	6.01e-01	0	56	0	612368384	59	4423
2026-01-02 00:41:08.22	93.84	28.93	-48.1	-49.8	23.4	6.04e-01	0	56	0	614465536	59	4355
2026-01-02 00:41:09.21	94.23	28.92	-48.1	-49.8	23.4	6.02e-01	0	56	0	616038400	59	4354
2026-01-02 00:41:10.20	94.62	28.91	-48.1	-49.8	23.4	6.03e-01	0	56	0	618135552	59	4357
2026-01-02 00:41:11.19	95.00	28.90	-48.2	-49.9	23.1	6.04e-01	0	56	0	619708416	59	4437
2026-01-02 00:41:12.17	95.39	28.89	-48.0	-49.7	23.4	6.02e-01	0	56	0	621805568	59	4318
2026-01-02 00:41:13.17	95.78	28.87	-47.9	-49.6	23.5	6.03e-01	0	56	0	623378432	59	4274
2026-01-02 00:41:14.15	96.16	28.86	-47.8	-49.5	23.7	6.01e-01	0	56	0	625475584	59	4195
2026-01-02 00:41:15.14	96.55	28.84	-47.8	-49.4	23.7	6.04e-01	0	56	0	627048448	59	4192
2026-01-02 00:41:16.13	96.94	28.82	-47.8	-49.5	23.7	6.02e-01	0	56	0	629145600	59	4197
2026-01-02 00:41:17.12	97.32	28.80	-47.9	-49.6	23.5	6.04e-01	0	56	0	630718464	59	4270
2026-01-02 00:41:18.11	97.71	28.78	-48.1	-49.8	23.3	6.01e-01	0	56	0	632815616	59	4388
2026-01-02 00:41:19.10	98.10	28.76	-47.8	-49.4	23.7	6.04e-01	0	56	0	634912768	59	4169
2026-01-02 00:41:20.10	98.48	28.73	-47.7	-49.3	23.8	6.02e-01	0	56	0	636485632	58	4370
2026-01-02 00:41:21.08	98.86	28.71	-48.0	-49.6	23.5	6.01e-01	0	56	0	638582784	58	4543
2026-01-02 00:41:22.06	99.24	28.68	-47.8	-49.5	23.6	6.03e-01	0	56	0	640155648	58	4453
2026-01-02 00:41:23.05	99.63	28.65	-47.9	-49.5	23.6	6.04e-01	0	56	0	642252800	58	4478
2026-01-02 00:41:24.05	100.01	28.62	-47.8	-49.5	23.6	6.02e-01	0	56	0	643825664	58	4467
2026-01-02 00:41:25.04	100.40	28.59	-47.9	-49.6	23.5	6.04e-01	0	56	0	645922816	58	4495
2026-01-02 00:41:26.03	100.78	28.56	-48.1	-49.8	23.3	6.03e-01	0	56	0	647495680	58	4620
2026-01-02 00:41:27.02	101.16	28.53	-48.1	-49.9	23.3	6.00e-01	0	56	0	649592832	58	4663
2026-01-02 00:41:28.00	101.53	28.49	-48.2	-50.0	23.2	6.02e-01	0	56	0	651165696	58	4732
2026-01-02 00:41:28.98	101.91	28.46	-48.0	-49.7	23.5	6.02e-01	0	56	0	653262848	58	4561
2026-01-02 00:41:29.96	102.28	28.42	-48.0	-49.7	23.4	6.04e-01	0	56	0	654835712	58	4596
2026-01-02 00:41:30.94	102.65	28.38	-48.2	-49.9	23.2	6.04e-01	0	56	0	656932864	58	4697
2026-01-02 00:41:31.92	103.02	28.34	-48.1	-49.8	23.3	6.03e-01	0	56	0	658505728	58	4636
2026-01-02 00:41:32.91	103.40	28.30	-48.0	-49.7	23.4	6.02e-01	0	56	0	660602880	58	4570
2026-01-02 00:41:33.90	103.77	28.26	-48.1	-49.8	23.3	6.02e-01	0	56	0	662175744	58	4617
2026-01-02 00:41:34.89	104.15	28.22	-48.2	-49.9	23.2	6.04e-01	0	56	0	664272896	58	4688
2026-01-02 00:41:35.88	104.52	28.17	-48.4	-50.2	23.0	6.03e-01	0	56	0	666370048	58	4824
2026-01-02 00:41:36.88	104.89	28.13	-48.3	-50.1	23.0	6.02e-01	0	56	0	667942912	59	4545
2026-01-02 00:41:37.86	105.26	28.08	-48.3	-50.1	23.0	6.04e-01	0	56	0	670040064	59	4526
2026-01-02 00:41:38.86	105.63	28.03	-48.5	-50.3	22.9	6.03e-01	0	56	0	671612928	59	4645
2026-01-02 00:41:39.85	106.00	27.98	-48.5	-50.4	22.8	6.02e-01	0	56	0	673710080	59	4657
2026-01-02 00:41:40.83	106.36	27.93	-48.6	-50.5	22.6	6.04e-01	0	56	0	675282944	59	4732
2026-01-02 00:41:41.82	106.72	27.88	-48.9	-50.9	22.3	6.03e-01	0	56	0	677380096	59	4957
2026-01-02 00:41:42.82	107.09	27.83	-48.8	-50.9	21.9	6.02e-01	0	56	0	678952960	60	4679
2026-01-02 00:41:43.81	107.45	27.78	-48.6	-50.6	22.2	6.04e-01	0	56	0	681050112	60	4528
2026-01-02 00:41:44.79	107.81	27.72	-48.3	-50.2	22.6	6.02e-01	0	56	0	682622976	60	4297
2026-01-02 00:41:45.77	108.17	27.67	-48.5	-50.3	22.9	6.03e-01	0	56	0	684720128	59	4626
2026-01-02 00:41:46.76	108.53	27.61	-48.6	-50.6	22.6	6.02e-01	0	56	0	686292992	59	4761
2026-01-02 00:41:47.75	108.89	27.56	-48.6	-50.6	22.6	6.03e-01	0	56	0	688390144	59	4769
2026-01-02 00:41:48.74	109.24	27.50	-48.8	-50.8	22.4	6.04e-01	0	56	0	690487296	59	4875
2026-01-02 00:41:49.73	109.60	27.44	-48.3	-50.2	22.7	6.03e-01	0	56	0	692060160	60	4300
2026-01-02 00:41:50.72	109.95	27.38	-48.4	-50.2	23.0	6.03e-01	0	56	0	694157312	59	4552
2026-01-02 00:41:51.71	110.30	27.32	-48.4	-50.2	22.9	6.03e-01	0	56	0	695730176	59	4594
2026-01-02 00:41:52.70	110.65	27.25	-48.3	-50.1	23.1	6.02e-01	0	56	0	697827328	59	4514
2026-01-02 00:41:53.69	111.00	27.19	-48.1	-49.8	23.4	6.02e-01	0	56	0	699400192	59	4350
2026-01-02 00:41:54.68	111.35	27.13	-48.0	-49.7	23.4	6.01e-01	0	56	0	701497344	59	4316
2026-01-02 00:41:55.67	111.70	27.06	-48.1	-49.8	23.3	6.03e-01	0	56	0	703070208	59	4359
2026-01-02 00:41:56.65	112.04	27.00	-48.1	-49.8	23.4	6.03e-01	0	56	0	705167360	59	4349
2026-01-02 00:41:57.64	112.38	26.93	-48.0	-49.7	23.4	6.03e-01	0	56	0	706740224	59	4334
2026-01-02 00:41:58.62	112.72	26.86	-48.1	-49.9	23.3	6.02e-01	0	56	0	708837376	59	4399
2026-01-02 00:41:59.61	113.06	26.79	-48.1	-49.9	23.2	6.03e-01	0	56	0	710410240	59	4410
2026-01-02 00:42:00.61	113.41	26.72	-48.1	-49.8	23.3	6.03e-01	0	56	0	712507392	59	4383
2026-01-02 00:42:01.60	113.74	26.65	-48.1	-49.8	23.3	6.05e-01	0	56	0	714604544	59	4374
2026-01-02 00:42:02.59	114.08	26.58	-48.2	-50.0	23.1	6.03e-01	0	56	0	716177408	59	4442
2026-01-02 00:42:03.58	114.41	26.51	-48.4	-50.2	23.0	6.04e-01	0	56	0	718274560	59	4555
2026-01-02 00:42:04.57	114.75	26.44	-48.4	-50.2	22.9	6.04e-01	0	56	0	719847424	59	4594
2026-01-02 00:42:05.56	115.08	26.36	-48.3	-50.0	23.1	6.03e-01	0	56	0	721944576	59	4481
2026-01-02 00:42:06.55	115.41	26.29	-48.3	-50.1	23.1	6.02e-01	0	56	0	723517440	59	4503
2026-01-02 00:42:07.54	115.74	26.21	-48.4	-50.3	22.9	6.03e-01	0	56	0	725614592	59	4616
2026-01-02 00:42:08.53	116.06	26.14	-48.6	-50.4	22.7	6.02e-01	0	56	0	727187456	59	4694
2026-01-02 00:42:09.51	116.39	26.06	-48.6	-50.5	22.6	6.02e-01	0	56	0	729284608	59	4745
2026-01-02 00:42:10.50	116.71	25.99	-48.6	-50.5	22.6	6.03e-01	0	56	0	730857472	59	4759
2026-01-02 00:42:11.49	117.03	25.91	-48.8	-50.8	22.4	6.01e-01	0	56	0	732954624	59	4886
2026-01-02 00:42:12.48	117.35	25.83	-48.7	-50.8	22.1	6.05e-01	0	56	0	734527488	60	4613
2026-01-02 00:42:13.48	117.67	25.75	-48.7	-50.7	22.1	6.01e-01	0	56	0	736624640	60	4571
2026-01-02 00:42:14.47	117.99	25.67	-48.4	-50.3	22.5	6.03e-01	0	56	0	738197504	60	4348
2026-01-02 00:42:15.46	118.31	25.59	-48.3	-50.1	22.7	6.02e-01	0	57	0	740294656	60	4286
2026-01-02 00:42:16.44	118.62	25.51	-48.4	-50.3	22.6	6.04e-01	0	56	0	742391808	60	4351
2026-01-02 00:42:17.43	118.93	25.43	-48.5	-50.5	22.4	6.02e-01	0	56	0	743964672	60	4453
2026-01-02 00:42:18.41	119.24	25.35	-48.5	-50.5	22.3	6.04e-01	0	56	0	746061824	60	4474
2026-01-02 00:42:19.41	119.55	25.26	-48.2	-50.0	22.8	6.04e-01	0	56	0	747634688	60	4216
2026-01-02 00:42:20.39	119.85	25.18	-48.5	-50.3	22.9	6.02e-01	0	56	0	749731840	59	4620
2026-01-02 00:42:21.39	120.16	25.10	-48.6	-50.5	22.7	6.02e-01	0	56	0	751304704	59	4724
2026-01-02 00:42:22.37	120.46	25.01	-48.4	-50.2	22.9	6.02e-01	0	56	0	753401856	59	4579
2026-01-02 00:42:23.37	120.77	24.93	-48.2	-50.0	23.1	6.02e-01	0	56	0	754974720	59	4460
2026-01-02 00:42:24.36	121.07	24.84	-48.1	-49.9	23.3	6.03e-01	0	56	0	757071872	59	4399
2026-01-02 00:42:25.35	121.37	24.76	-48.1	-49.9	23.3	6.04e-01	0	56	0	758644736	59	4395
2026-01-02 00:42:26.34	121.67	24.67	-48.2	-50.0	23.1	6.02e-01	0	56	0	760741888	59	4442
2026-01-02 00:42:27.33	121.96	24.58	-48.2	-50.0	23.1	6.01e-01	0	56	0	762839040	59	4470
2026-01-02 00:42:28.32	122.26	24.50	-48.0	-49.7	23.3	6.03e-01	0	56	0	764411904	59	4337
2026-01-02 00:42:29.30	122.55	24.41	-48.0	-49.7	23.4	6.00e-01	0	56	0	766509056	59	4294
2026-01-02 00:42:30.29	122.84	24.32	-48.0	-49.7	23.4	6.02e-01	0	56	0	768081920	59	4308
2026-01-02 00:42:31.28	123.13	24.23	-48.0	-49.8	23.4	6.03e-01	0	56	0	770179072	59	4345
2026-01-02 00:42:32.27	123.41	24.14	-48.1	-49.8	23.3	6.02e-01	0	56	0	771751936	59	4374
2026-01-02 00:42:33.27	123.70	24.05	-48.2	-50.0	23.2	6.00e-01	0	56	0	773849088	59	4457
2026-01-02 00:42:34.26	123.99	23.96	-48.2	-49.9	23.2	6.02e-01	0	56	0	775421952	59	4439
2026-01-02 00:42:35.25	124.27	23.87	-48.3	-50.1	23.0	6.04e-01	0	56	0	777519104	59	4514
2026-01-02 00:42:36.23	124.55	23.78	-48.1	-49.9	23.2	6.01e-01	0	56	0	779091968	59	4401
2026-01-02 00:42:37.22	124.83	23.69	-48.1	-49.8	23.3	6.04e-01	0	56	0	781189120	59	4361
2026-01-02 00:42:38.22	125.11	23.60	-48.0	-49.7	23.4	6.03e-01	0	56	0	782761984	59	4308
2026-01-02 00:42:39.20	125.38	23.51	-47.9	-49.6	23.5	6.03e-01	0	56	0	784859136	59	4256
2026-01-02 00:42:40.19	125.65	23.42	-48.0	-49.7	23.4	6.04e-01	0	56	0	786956288	59	4307
2026-01-02 00:42:41.18	125.93	23.33	-47.9	-49.6	23.5	6.02e-01	0	56	0	788529152	59	4261
2026-01-02 00:42:42.17	126.20	23.24	-48.0	-49.7	23.4	6.02e-01	0	56	0	790626304	59	4319
2026-01-02 00:42:43.16	126.47	23.14	-48.1	-49.8	23.3	6.03e-01	0	56	0	792199168	59	4384
2026-01-02 00:42:44.15	126.74	23.05	-48.2	-49.9	23.1	6.01e-01	0	56	0	794296320	59	4438
2026-01-02 00:42:45.12	127.00	22.96	-48.0	-49.7	23.4	6.01e-01	0	56	0	795869184	59	4297
2026-01-02 00:42:46.11	127.26	22.87	-47.9	-49.6	23.5	6.02e-01	0	56	0	797966336	59	4264
2026-01-02 00:42:47.11	127.53	22.77	-47.9	-49.6	23.5	6.03e-01	0	56	0	799539200	59	4251
2026-01-02 00:42:48.09	127.79	22.68	-47.9	-49.5	23.5	6.03e-01	0	56	0	801636352	59	4238
2026-01-02 00:42:49.08	128.04	22.58	-47.9	-49.6	23.4	6.01e-01	0	56	0	803209216	59	4279
2026-01-02 00:42:50.06	128.30	22.49	-48.2	-49.9	23.2	6.02e-01	0	56	0	805306368	59	4422
2026-01-02 00:42:51.05	128.56	22.40	-48.0	-49.7	23.4	6.02e-01	0	56	0	806879232	59	4334
2026-01-02 00:42:52.05	128.81	22.30	-48.1	-49.9	23.2	6.01e-01	0	56	0	808976384	59	4401
2026-01-02 00:42:53.04	129.07	22.21	-48.2	-50.0	23.1	6.02e-01	0	56	0	810549248	59	4483
2026-01-02 00:42:54.03	129.32	22.11	-48.1	-49.8	23.3	6.03e-01	0	56	0	812646400	59	4368
2026-01-02 00:42:55.02	129.57	22.02	-48.1	-49.9	23.1	5.99e-01	0	56	0	814219264	59	4423
2026-01-02 00:42:56.02	129.82	21.92	-48.1	-49.9	23.2	6.04e-01	0	56	0	816316416	59	4396
2026-01-02 00:42:57.01	130.07	21.83	-48.1	-49.9	23.2	6.04e-01	0	56	0	818413568	59	4406
2026-01-02 00:42:58.00	130.31	21.73	-48.2	-50.0	23.0	6.01e-01	0	56	0	819986432	59	4473
2026-01-02 00:42:58.99	130.56	21.64	-48.4	-50.2	22.9	6.05e-01	0	57	0	822083584	59	4564
2026-01-02 00:42:59.98	130.80	21.54	-48.7	-50.6	22.5	6.01e-01	0	56	0	823656448	59	4791
2026-01-02 00:43:00.97	131.04	21.45	-48.6	-50.5	22.0	6.02e-01	0	56	0	825753600	60	4489
2026-01-02 00:43:01.96	131.28	21.35	-48.5	-50.4	22.3	6.02e-01	0	56	0	827326464	60	4420
2026-01-02 00:43:02.94	131.52	21.25	-48.3	-50.3	22.5	6.02e-01	0	56	0	829423616	60	4347
2026-01-02 00:43:03.93	131.75	21.16	-48.3	-50.2	22.6	6.04e-01	0	56	0	830996480	60	4293
2026-01-02 00:43:04.92	131.99	21.06	-48.3	-50.2	22.5	6.01e-01	0	56	0	833093632	60	4324
2026-01-02 00:43:05.92	132.22	20.97	-48.4	-50.3	22.5	6.05e-01	0	56	0	834666496	60	4349
2026-01-02 00:43:06.91	132.45	20.87	-48.7	-50.8	22.0	6.00e-01	0	56	0	836763648	60	4622
2026-01-02 00:43:07.89	132.68	20.77	-48.4	-50.4	22.3	6.02e-01	0	56	0	838860800	60	4393
2026-01-02 00:43:08.88	132.91	20.68	-48.4	-50.2	22.9	6.02e-01	0	56	0	840433664	59	4567
2026-01-02 00:43:09.87	133.14	20.58	-48.1	-49.9	23.2	6.04e-01	0	56	0	842530816	59	4395
2026-01-02 00:43:10.85	133.36	20.49	-48.0	-49.6	23.4	6.03e-01	0	56	0	844103680	59	4288
2026-01-02 00:43:11.84	133.59	20.39	-47.9	-49.6	23.4	6.01e-01	0	56	0	846200832	59	4287
2026-01-02 00:43:12.82	133.81	20.30	-48.0	-49.7	23.4	6.05e-01	0	56	0	847773696	59	4298
2026-01-02 00:43:13.81	134.03	20.20	-47.9	-49.6	23.4	6.00e-01	0	56	0	849870848	59	4283
2026-01-02 00:43:14.80	134.25	20.10	-47.8	-49.5	23.5	6.02e-01	0	56	0	851443712	59	4219
2026-01-02 00:43:15.79	134.47	20.01	-47.8	-49.5	23.5	6.02e-01	0	56	0	853540864	59	4194
2026-01-02 00:43:16.77	134.68	19.91	-47.9	-49.6	23.5	6.03e-01	0	56	0	855113728	59	4247
2026-01-02 00:43:17.77	134.90	19.81	-48.1	-49.8	23.3	6.03e-01	0	56	0	857210880	59	4364
2026-01-02 00:43:18.76	135.12	19.72	-47.9	-49.6	23.4	6.02e-01	0	57	0	858783744	59	4285
2026-01-02 00:43:19.75	135.33	19.62	-48.0	-49.7	23.4	6.03e-01	0	56	0	860880896	59	4293
2026-01-02 00:43:20.74	135.54	19.53	-47.9	-49.6	23.4	6.03e-01	0	56	0	862978048	59	4264
2026-01-02 00:43:21.73	135.75	19.43	-47.9	-49.6	23.5	6.01e-01	0	56	0	864550912	59	4243
2026-01-02 00:43:22.72	135.96	19.33	-47.9	-49.6	23.5	6.03e-01	0	56	0	866648064	59	4264
2026-01-02 00:43:23.70	136.17	19.24	-47.9	-49.6	23.3	6.03e-01	0	56	0	868220928	59	4291
2026-01-02 00:43:24.70	136.38	19.14	-47.9	-49.6	23.4	6.04e-01	0	56	0	870318080	59	4266
2026-01-02 00:43:25.68	136.58	19.05	-47.8	-49.5	23.6	6.01e-01	0	56	0	871890944	59	4208
2026-01-02 00:43:26.67	136.78	18.95	-47.8	-49.5	23.5	6.03e-01	0	56	0	873988096	59	4228
2026-01-02 00:43:27.67	136.99	18.86	-48.0	-49.7	23.3	6.05e-01	0	57	0	875560960	59	4307
2026-01-02 00:43:28.65	137.19	18.76	-47.9	-49.6	23.4	6.02e-01	0	57	0	877658112	59	4287
2026-01-02 00:43:29.64	137.39	18.66	-47.8	-49.4	23.6	6.02e-01	0	57	0	879230976	59	4171
2026-01-02 00:43:30.63	137.59	18.57	-47.6	-49.3	23.7	6.02e-01	0	56	0	881328128	58	4347
2026-01-02 00:43:31.63	137.79	18.47	-47.6	-49.2	23.8	6.01e-01	0	56	0	882900992	58	4334
2026-01-02 00:43:32.62	137.98	18.38	-47.7	-49.4	23.6	6.02e-01	0	57	0	884998144	58	4392
2026-01-02 00:43:33.61	138.18	18.28	-47.7	-49.3	23.6	6.03e-01	0	56	0	887095296	58	4373
2026-01-02 00:43:34.60	138.37	18.19	-47.7	-49.4	23.6	6.03e-01	0	56	0	888668160	58	4396
2026-01-02 00:43:35.59	138.56	18.09	-47.7	-49.3	23.7	6.03e-01	0	57	0	890765312	58	4366
2026-01-02 00:43:36.57	138.75	18.00	-47.6	-49.3	23.7	6.02e-01	0	56	0	892338176	58	4341
2026-01-02 00:43:37.57	138.95	17.90	-47.7	-49.4	23.6	6.02e-01	0	56	0	894435328	58	4401
2026-01-02 00:43:38.56	139.13	17.81	-47.7	-49.4	23.6	6.03e-01	0	56	0	896008192	58	4398
2026-01-02 00:43:39.55	139.32	17.71	-47.6	-49.2	23.7	6.01e-01	0	56	0	898105344	58	4338
2026-01-02 00:43:40.54	139.51	17.62	-47.6	-49.2	23.7	6.03e-01	0	57	0	899678208	58	4326
2026-01-02 00:43:41.53	139.69	17.53	-47.7	-49.3	23.7	6.03e-01	0	56	0	901775360	58	4369
2026-01-02 00:43:42.52	139.88	17.43	-47.7	-49.4	23.6	6.02e-01	0	56	0	903348224	58	4395
2026-01-02 00:43:43.51	140.06	17.34	-47.7	-49.4	23.6	6.02e-01	0	56	0	905445376	58	4414
2026-01-02 00:43:44.49	140.24	17.24	-47.8	-49.4	23.5	6.02e-01	0	56	0	907018240	58	4439
2026-01-02 00:43:45.48	140.42	17.15	-48.0	-49.7	23.3	6.03e-01	0	56	0	909115392	58	4568
2026-01-02 00:43:46.47	140.60	17.06	-48.0	-49.7	23.2	6.03e-01	0	56	0	910688256	58	4585
2026-01-02 00:43:47.46	140.78	16.96	-47.8	-49.5	23.4	6.01e-01	0	56	0	912785408	58	4488
2026-01-02 00:43:48.44	140.95	16.87	-47.8	-49.5	23.4	6.03e-01	0	56	0	914882560	58	4457
2026-01-02 00:43:49.44	141.13	16.78	-47.7	-49.4	23.6	6.02e-01	0	56	0	916455424	58	4397
2026-01-02 00:43:50.42	141.30	16.68	-47.7	-49.3	23.6	6.01e-01	0	57	0	918552576	58	4382
2026-01-02 00:43:51.41	141.48	16.59	-47.7	-49.3	23.6	6.02e-01	0	56	0	920125440	58	4389
2026-01-02 00:43:52.40	141.65	16.50	-47.9	-49.6	23.4	6.02e-01	0	56	0	922222592	58	4502
2026-01-02 00:43:53.39	141.82	16.41	-48.0	-49.8	23.2	6.02e-01	0	57	0	923795456	58	4624
2026-01-02 00:43:54.37	141.99	16.31	-48.1	-49.9	23.1	6.02e-01	0	56	0	925892608	58	4663
2026-01-02 00:43:55.36	142.16	16.22	-48.0	-49.7	23.2	6.05e-01	0	56	0	927465472	58	4578
2026-01-02 00:43:56.34	142.33	16.13	-47.9	-49.6	23.2	6.06e-01	0	56	0	929562624	58	4534
2026-01-02 00:43:57.32	142.49	16.04	-48.0	-49.7	23.2	6.04e-01	0	56	0	931135488	58	4563
2026-01-02 00:43:58.31	142.66	15.95	-48.0	-49.8	23.1	6.03e-01	0	57	0	933232640	58	4629
2026-01-02 00:43:59.31	142.82	15.86	-48.1	-49.9	23.0	6.04e-01	0	56	0	934805504	58	4700
2026-01-02 00:44:00.30	142.99	15.76	-47.9	-49.6	23.2	6.03e-01	0	56	0	936902656	58	4540
2026-01-02 00:44:01.29	143.15	15.67	-47.8	-49.5	23.4	6.03e-01	0	56	0	938999808	58	4469
2026-01-02 00:44:02.29	143.31	15.58	-47.9	-49.6	23.3	6.03e-01	0	57	0	940572672	58	4511
2026-01-02 00:44:03.28	143.48	15.49	-47.9	-49.6	23.3	6.02e-01	0	56	0	942669824	58	4511
2026-01-02 00:44:04.26	143.63	15.40	-47.9	-49.7	23.3	6.03e-01	0	56	0	944242688	58	4548
2026-01-02 00:44:05.25	143.79	15.31	-48.1	-49.8	23.1	6.02e-01	0	56	0	946339840	58	4635
2026-01-02 00:44:06.25	143.95	15.22	-47.9	-49.6	23.3	6.01e-01	0	56	0	947912704	58	4535
2026-01-02 00:44:07.24	144.11	15.13	-48.1	-49.8	23.1	6.03e-01	0	56	0	950009856	58	4641
2026-01-02 00:44:08.22	144.26	15.04	-48.2	-50.0	22.9	6.03e-01	0	57	0	951582720	58	4724
2026-01-02 00:44:09.20	144.42	14.95	-48.0	-49.8	23.1	6.02e-01	0	57	0	953679872	58	4609
2026-01-02 00:44:10.19	144.57	14.86	-47.9	-49.6	23.3	6.05e-01	0	56	0	955252736	58	4530
2026-01-02 00:44:11.18	144.72	14.77	-47.8	-49.5	23.4	6.04e-01	0	57	0	957349888	58	4467
2026-01-02 00:44:12.16	144.88	14.68	-47.8	-49.6	23.3	6.03e-01	0	56	0	958922752	58	4497
2026-01-02 00:44:13.15	145.03	14.59	-47.8	-49.6	23.3	6.03e-01	0	56	0	961019904	58	4496
2026-01-02 00:44:14.14	145.18	14.50	-47.9	-49.7	23.2	6.02e-01	0	57	0	963117056	58	4555
2026-01-02 00:44:15.13	145.33	14.42	-48.0	-49.8	23.1	6.03e-01	0	57	0	964689920	58	4604
2026-01-02 00:44:16.12	145.47	14.33	-47.9	-49.7	23.2	6.01e-01	0	57	0	966787072	58	4547
2026-01-02 00:44:17.11	145.62	14.24	-47.9	-49.7	23.2	6.04e-01	0	56	0	968359936	58	4561
2026-01-02 00:44:18.10	145.77	14.15	-48.0	-49.8	23.1	6.02e-01	0	57	0	970457088	58	4639
2026-01-02 00:44:19.09	145.91	14.06	-48.2	-50.0	22.8	6.01e-01	0	56	0	972029952	58	4738
2026-01-02 00:44:20.08	146.06	13.97	-48.0	-49.8	23.1	6.03e-01	0	57	0	974127104	58	4611
2026-01-02 00:44:21.07	146.20	13.89	-48.1	-49.9	22.9	6.02e-01	0	57	0	975699968	58	4692
2026-01-02 00:44:22.06	146.35	13.80	-48.3	-50.2	22.7	5.99e-01	0	57	0	977797120	58	4819
2026-01-02 00:44:23.05	146.49	13.71	-48.1	-49.9	23.0	6.02e-01	0	56	0	979369984	58	4676
2026-01-02 00:44:24.04	146.63	13.63	-48.3	-50.1	22.7	6.03e-01	0	56	0	981467136	58	4810
2026-01-02 00:44:25.03	146.77	13.54	-48.4	-50.3	22.6	6.01e-01	0	56	0	983564288	58	4894
2026-01-02 00:44:26.01	146.91	13.45	-48.2	-50.1	22.8	6.03e-01	0	56	0	985137152	58	4776
2026-01-02 00:44:27.00	147.05	13.37	-48.2	-50.1	22.8	6.03e-01	0	57	0	986710016	58	4776
2026-01-02 00:44:27.99	147.19	13.28	-48.3	-50.2	22.7	6.01e-01	0	57	0	988807168	58	4828
2026-01-02 00:44:28.97	147.32	13.20	-48.3	-50.2	22.7	6.01e-01	0	57	0	990380032	58	4822
2026-01-02 00:44:29.96	147.46	13.11	-48.4	-50.3	22.6	6.03e-01	0	56	0	992477184	58	4872
2026-01-02 00:44:30.94	147.59	13.02	-48.5	-50.5	22.4	6.03e-01	0	57	0	994574336	59	4741
2026-01-02 00:44:31.92	147.73	12.94	-48.4	-50.4	22.5	6.02e-01	0	57	0	996147200	59	4668
2026-01-02 00:44:32.91	147.86	12.85	-48.6	-50.6	22.3	6.02e-01	0	57	0	998244352	59	4804
2026-01-02 00:44:33.91	147.99	12.77	-48.5	-50.4	22.5	6.04e-01	0	57	0	999817216	59	4684
2026-01-02 00:44:34.90	148.13	12.68	-48.3	-50.2	22.6	6.04e-01	0	57	0	1001914368	59	4591
2026-01-02 00:44:35.89	148.26	12.60	-48.3	-50.1	22.7	6.03e-01	0	57	0	1003487232	59	4541
2026-01-02 00:44:36.88	148.39	12.51	-48.3	-50.2	22.7	5.98e-01	0	57	0	1005584384	59	4554
2026-01-02 00:44:37.86	148.52	12.43	-48.2	-50.1	22.8	6.04e-01	0	56	0	1007157248	59	4503
2026-01-02 00:44:38.85	148.65	12.35	-48.4	-50.3	22.5	6.01e-01	0	57	0	1009254400	59	4636
2026-01-02 00:44:39.83	148.77	12.26	-48.3	-50.2	22.6	6.05e-01	0	57	0	1010827264	59	4562
2026-01-02 00:44:40.82	148.90	12.18	-48.1	-49.9	22.8	6.03e-01	0	57	0	1012924416	59	4433
2026-01-02 00:44:41.81	149.03	12.10	-48.0	-49.8	22.9	6.01e-01	0	57	0	1014497280	59	4380
2026-01-02 00:44:42.80	149.16	12.01	-48.0	-49.8	22.9	6.04e-01	0	57	0	1016594432	59	4381
2026-01-02 00:44:43.78	149.28	11.93	-48.0	-49.8	23.0	6.02e-01	0	57	0	1018691584	59	4372
2026-01-02 00:44:44.77	149.40	11.85	-48.1	-49.9	22.9	6.03e-01	0	57	0	1020264448	59	4408
2026-01-02 00:44:45.76	149.53	11.77	-48.0	-49.8	22.9	6.02e-01	0	57	0	1022361600	59	4391
2026-01-02 00:44:46.75	149.65	11.68	-48.0	-49.8	23.0	6.02e-01	0	57	0	1023934464	59	4366
2026-01-02 00:44:47.74	149.77	11.60	-48.0	-49.8	23.0	6.03e-01	0	57	0	1026031616	59	4369
2026-01-02 00:44:48.72	149.90	11.52	-48.1	-49.9	22.9	6.02e-01	0	57	0	1027604480	59	4412
2026-01-02 00:44:49.71	150.02	11.44	-48.1	-49.9	22.9	6.03e-01	0	57	0	1029701632	59	4408
2026-01-02 00:44:50.70	150.14	11.36	-48.1	-49.9	22.8	6.03e-01	0	57	0	1031274496	59	4439
2026-01-02 00:44:51.68	150.26	11.28	-48.3	-50.2	22.6	6.00e-01	0	57	0	1033371648	59	4555
2026-01-02 00:44:52.68	150.38	11.19	-48.2	-50.1	22.7	6.04e-01	0	57	0	1034944512	59	4501
2026-01-02 00:44:53.67	150.49	11.11	-48.2	-50.0	22.8	6.03e-01	0	57	0	1037041664	59	4474
2026-01-02 00:44:54.65	150.61	11.03	-48.2	-50.0	22.8	6.01e-01	0	57	0	1038614528	59	4470
2026-01-02 00:44:55.63	150.73	10.95	-48.3	-50.2	22.6	6.03e-01	0	57	0	1040711680	59	4569
2026-01-02 00:44:56.62	150.84	10.87	-48.3	-50.2	22.6	6.05e-01	0	57	0	1042284544	59	4549
2026-01-02 00:44:57.61	150.96	10.79	-48.2	-50.2	22.6	6.03e-01	0	57	0	1044381696	59	4546
2026-01-02 00:44:58.61	151.08	10.71	-48.3	-50.2	22.6	6.02e-01	0	57	0	1045954560	59	4570
2026-01-02 00:44:59.60	151.19	10.63	-48.3	-50.2	22.5	6.04e-01	0	57	0	1048051712	59	4596
2026-01-02 00:45:00.59	151.30	10.55	-48.4	-50.3	22.4	6.03e-01	0	57	0	1050148864	59	4649
2026-01-02 00:45:01.57	151.42	10.47	-48.4	-50.4	22.4	6.04e-01	0	57	0	1051721728	59	4687
2026-01-02 00:45:02.57	151.53	10.39	-48.5	-50.5	22.3	6.00e-01	0	57	0	1053818880	59	4714
2026-01-02 00:45:03.56	151.64	10.31	-48.6	-50.6	22.1	6.02e-01	0	57	0	1055391744	59	4812
2026-01-02 00:45:04.55	151.75	10.23	-48.6	-50.6	22.1	6.03e-01	0	57	0	1057488896	59	4791
2026-01-02 00:45:05.53	151.86	10.16	-48.6	-50.6	22.1	6.04e-01	0	57	0	1059061760	59	4793
2026-01-02 00:45:06.53	151.97	10.08	-48.6	-50.6	22.1	6.04e-01	0	57	0	1061158912	59	4811
2026-01-02 00:45:07.53	152.08	10.00	-48.6	-50.7	22.1	6.01e-01	0	57	0	1062731776	59	4834
2026-01-02 00:45:08.51	152.19	9.92	-48.6	-50.7	22.1	6.03e-01	0	57	0	1064828928	59	4831
2026-01-02 00:45:09.50	152.30	9.84	-48.7	-50.9	21.8	6.04e-01	0	57	0	1066401792	59	4929
2026-01-02 00:45:10.49	152.41	9.76	-48.8	-50.9	21.8	6.02e-01	0	57	0	1068498944	59	4965
2026-01-02 00:45:11.48	152.52	9.69	-48.6	-50.7	22.0	6.04e-01	0	57	0	1070596096	59	4864
2026-01-02 00:45:12.46	152.62	9.61	-48.6	-50.7	22.0	6.05e-01	0	57	0	1072168960	59	4853
2026-01-02 00:45:13.45	152.73	9.53	-48.7	-50.9	21.8	6.03e-01	0	57	0	1074266112	59	4957
2026-01-02 00:45:14.44	152.83	9.46	-48.8	-50.9	21.7	6.04e-01	0	57	0	1075838976	59	4979
2026-01-02 00:45:15.43	152.94	9.38	-48.7	-50.8	21.8	6.00e-01	0	57	0	1077936128	59	4924
2026-01-02 00:45:16.42	153.04	9.30	-48.7	-50.8	21.9	6.00e-01	0	57	0	1079508992	59	4919
2026-01-02 00:45:17.41	153.14	9.23	-48.7	-50.9	21.8	6.02e-01	0	57	0	1081606144	59	4937
2026-01-02 00:45:18.40	153.25	9.15	-48.7	-50.8	21.9	6.02e-01	0	57	0	1083179008	59	4895
2026-01-02 00:45:19.38	153.35	9.07	-48.7	-50.8	21.8	6.02e-01	0	57	0	1085276160	59	4904
2026-01-02 00:45:20.37	153.45	9.00	-48.7	-50.8	21.9	6.02e-01	0	57	0	1086849024	59	4896
2026-01-02 00:45:21.35	153.55	8.92	-48.8	-50.9	21.7	6.01e-01	0	57	0	1088946176	59	4963
2026-01-02 00:45:22.34	153.65	8.85	-48.6	-50.8	21.5	6.01e-01	0	57	0	1090519040	60	4603
2026-01-02 00:45:23.33	153.75	8.77	-48.7	-51.0	21.3	6.03e-01	0	57	0	1092616192	60	4727
2026-01-02 00:45:24.32	153.85	8.70	-48.8	-51.1	21.1	6.02e-01	0	57	0	1094189056	60	4804
2026-01-02 00:45:25.31	153.95	8.62	-48.8	-51.0	21.3	6.03e-01	0	57	0	1096286208	60	4743
2026-01-02 00:45:26.30	154.05	8.55	-48.9	-51.2	21.1	6.03e-01	0	57	0	1098383360	60	4850
2026-01-02 00:45:27.29	154.15	8.47	-48.7	-51.0	21.3	6.05e-01	0	57	0	1099956224	60	4721
2026-01-02 00:45:28.28	154.25	8.40	-48.6	-50.8	21.4	6.02e-01	0	57	0	1102053376	60	4623
2026-01-02 00:45:29.27	154.34	8.32	-48.5	-50.7	21.5	6.03e-01	0	57	0	1103626240	60	4574
2026-01-02 00:45:30.25	154.44	8.25	-48.5	-50.7	21.5	6.02e-01	0	57	0	1105723392	60	4574
2026-01-02 00:45:31.24	154.54	8.18	-48.5	-50.8	21.5	6.04e-01	0	57	0	1107296256	60	4604
2026-01-02 00:45:32.24	154.63	8.10	-48.7	-51.0	21.2	6.03e-01	0	57	0	1109393408	60	4749
2026-01-02 00:45:33.22	154.73	8.03	-48.5	-50.7	21.5	6.01e-01	0	57	0	1110966272	60	4582
2026-01-02 00:45:34.21	154.82	7.96	-48.4	-50.5	21.6	6.03e-01	0	57	0	1113063424	60	4481
2026-01-02 00:45:35.19	154.91	7.88	-48.3	-50.5	21.7	6.02e-01	0	57	0	1114636288	60	4444
2026-01-02 00:45:36.18	155.01	7.81	-48.4	-50.6	21.5	6.02e-01	0	57	0	1116733440	60	4521
2026-01-02 00:45:37.17	155.10	7.74	-48.5	-50.7	21.4	6.03e-01	0	57	0	1118306304	60	4598
2026-01-02 00:45:38.16	155.19	7.67	-48.5	-50.8	21.3	6.03e-01	0	57	0	1120403456	60	4608
2026-01-02 00:45:39.16	155.29	7.59	-48.6	-50.8	21.3	6.02e-01	0	57	0	1122500608	60	4644
2026-01-02 00:45:40.15	155.38	7.52	-48.6	-50.9	21.2	6.04e-01	0	57	0	1124073472	60	4656
2026-01-02 00:45:41.14	155.47	7.45	-48.6	-50.8	21.3	6.03e-01	0	56	0	1126170624	60	4639
2026-01-02 00:45:42.13	155.56	7.38	-48.6	-50.8	21.3	6.05e-01	0	57	0	1127743488	60	4643
2026-01-02 00:45:43.12	155.65	7.30	-48.6	-50.9	21.2	6.03e-01	0	57	0	1129840640	60	4663
2026-01-02 00:45:44.11	155.74	7.23	-48.7	-51.1	20.9	6.02e-01	0	57	0	1131413504	60	4800
2026-01-02 00:45:45.09	155.83	7.16	-48.6	-50.9	21.2	6.04e-01	0	57	0	1133510656	60	4656
2026-01-02 00:45:46.08	155.92	7.09	-48.5	-50.8	21.3	6.01e-01	0	57	0	1135083520	60	4607
2026-01-02 00:45:47.07	156.01	7.02	-48.5	-50.8	21.2	6.04e-01	0	57	0	1137180672	60	4629
2026-01-02 00:45:48.06	156.09	6.95	-48.5	-50.8	21.2	6.01e-01	0	57	0	1138753536	60	4641
2026-01-02 00:45:49.04	156.18	6.88	-48.7	-51.1	20.9	6.04e-01	0	57	0	1140850688	60	4813
2026-01-02 00:45:50.03	156.27	6.81	-48.6	-51.0	21.0	6.03e-01	0	57	0	1142423552	60	4742
2026-01-02 00:45:51.02	156.36	6.74	-48.7	-51.2	20.9	6.00e-01	0	57	0	1144520704	60	4821
2026-01-02 00:45:52.01	156.44	6.67	-48.8	-51.3	20.7	6.03e-01	0	57	0	1146093568	60	4916
2026-01-02 00:45:53.01	156.53	6.60	-48.7	-51.2	20.8	6.04e-01	0	57	0	1148190720	60	4829
2026-01-02 00:45:54.00	156.61	6.53	-48.8	-51.3	20.7	6.03e-01	0	57	0	1150287872	60	4886
2026-01-02 00:45:54.99	156.70	6.46	-49.0	-51.6	20.4	6.05e-01	0	57	0	1151860736	60	5062
2026-01-02 00:45:55.98	156.78	6.39	-48.9	-51.4	20.6	6.02e-01	0	57	0	1153957888	60	4958
2026-01-02 00:45:56.97	156.87	6.32	-48.8	-51.3	20.6	6.03e-01	0	57	0	1155530752	60	4911
2026-01-02 00:45:57.96	156.95	6.25	-48.9	-51.5	20.1	6.02e-01	0	57	0	1157627904	60	4994
2026-01-02 00:45:58.95	157.04	6.18	-48.9	-51.4	20.4	6.02e-01	0	57	0	1159200768	60	4981
2026-01-02 00:45:59.94	157.12	6.11	-48.8	-51.3	20.5	6.02e-01	0	57	0	1161297920	60	4901
2026-01-02 00:46:00.93	157.20	6.04	-48.8	-51.4	20.3	6.04e-01	0	57	0	1162870784	60	4939
2026-01-02 00:46:01.92	157.28	5.97	-48.9	-51.6	20.0	6.01e-01	0	57	0	1164967936	60	5081
2026-01-02 00:46:02.90	157.36	5.90	-48.9	-51.7	19.7	6.03e-01	0	57	0	1166540800	60	5158
2026-01-02 00:46:03.89	157.45	5.83	-48.8	-51.6	19.7	6.04e-01	0	57	0	1168637952	60	5100
2026-01-02 00:46:04.88	157.53	5.77	-48.9	-52.0	19.3	6.02e-01	0	57	0	1170735104	60	5283
2026-01-02 00:46:05.87	157.61	5.70	-48.9	-52.1	18.9	6.05e-01	0	57	0	1172307968	60	5382
2026-01-02 00:46:06.85	157.69	5.63	-49.2	-52.7	18.3	6.02e-01	0	57	0	1174405120	60	5780
2026-01-02 00:46:07.85	157.77	5.56	-49.3	-53.3	17.5	6.05e-01	0	57	0	1175977984	60	6136
2026-01-02 00:46:08.84	157.85	5.49	-49.5	-53.8	16.8	6.02e-01	0	57	0	1178075136	61	6159
2026-01-02 00:46:09.82	157.92	5.43	-49.8	-54.8	15.6	6.03e-01	0	57	0	1179648000	61	6926
2026-01-02 00:46:10.82	158.00	5.36	-50.0	-55.6	14.6	6.04e-01	0	57	0	1181745152	62	7160
2026-01-02 00:46:11.81	158.08	5.29	-50.1	-56.7	13.3	6.05e-01	0	57	0	1183318016	62	8145
2026-01-02 00:46:12.79	158.16	5.23	-50.2	-57.5	12.3	6.10e-01	0	57	0	1185415168	62	8936
2026-01-02 00:46:13.79	158.24	5.16	-50.3	-58.7	10.6	6.18e-01	0	57	0	1186988032	62	10271
2026-01-02 00:46:14.78	158.32	5.09	-50.3	-59.6	9.8	6.23e-01	0	57	0	1189085184	62	11309
2026-01-02 00:46:15.77	158.39	5.03	-50.5	-60.0	9.3	6.26e-01	0	57	0	1190658048	63	11228
2026-01-02 00:46:16.77	158.47	4.96	-53.1	-72.7	3.8	7.44e-01	0	57	104	1191182336	68	36286
2026-01-02 00:46:17.75	158.54	4.89	-53.5	-73.4	3.8	7.46e-01	0	57	104	1191182336	69	37099
2026-01-02 00:46:18.74	158.62	4.83	-53.8	-73.6	3.8	7.47e-01	0	57	104	1191182336	69	38161
2026-01-02 00:46:19.73	158.70	4.76	-53.9	-73.8	3.8	7.47e-01	0	57	104	1191182336	69	38812
2026-01-02 00:46:20.71	158.77	4.70	-54.0	-73.8	3.8	7.48e-01	0	57	104	1191182336	70	36944
2026-01-02 00:46:21.71	158.85	4.63	-54.0	-73.9	3.8	7.43e-01	0	57	104	1191182336	70	37178
2026-01-02 00:46:22.70	158.92	4.56	-54.1	-74.0	3.8	7.47e-01	0	57	104	1191182336	70	37395
2026-01-02 00:46:23.68	158.99	4.50	-54.1	-74.0	3.8	7.43e-01	0	57	104	1191182336	70	37531
2026-01-02 00:46:24.67	159.07	4.43	-54.1	-74.0	3.8	7.44e-01	0	57	104	1191182336	70	37791
2026-01-02 00:46:25.67	159.14	4.37	-54.2	-74.1	3.8	7.45e-01	0	57	104	1191182336	70	37808
2026-01-02 00:46:26.66	159.21	4.30	-54.2	-74.1	3.8	7.47e-01	0	57	104	1191182336	70	37963
2026-01-02 00:46:27.65	159.29	4.24	-54.2	-74.1	3.8	7.46e-01	0	57	104	1191182336	70	37935
2026-01-02 00:46:28.63	159.36	4.17	-54.2	-74.1	3.8	7.49e-01	0	57	104	1191182336	70	38051
2026-01-02 00:46:29.62	159.43	4.11	-54.2	-74.1	3.8	7.45e-01	0	57	104	1191182336	70	38092
2026-01-02 00:46:30.60	159.50	4.05	-54.2	-74.1	3.8	7.44e-01	0	57	104	1191182336	70	38107
2026-01-02 00:46:31.59	159.57	3.98	-54.2	-74.2	3.8	7.45e-01	0	57	104	1191182336	70	38257
2026-01-02 00:46:32.58	159.64	3.92	-54.3	-74.2	3.8	7.45e-01	0	57	104	1191182336	70	38433
2026-01-02 00:46:33.57	159.71	3.85	-54.3	-74.2	3.8	7.47e-01	0	57	104	1191182336	70	38374
2026-01-02 00:46:34.55	159.78	3.79	-54.3	-74.2	3.8	7.42e-01	0	57	104	1191182336	70	38486
2026-01-02 00:46:35.54	159.85	3.73	-54.3	-74.2	3.8	7.47e-01	0	57	104	1191182336	70	38569
2026-01-02 00:46:36.54	159.92	3.66	-54.3	-74.2	3.8	7.47e-01	0	57	104	1191182336	70	38588
2026-01-02 00:46:37.53	159.99	3.60	-54.3	-74.2	3.8	7.49e-01	0	57	104	1191182336	70	38679
2026-01-02 00:46:38.51	160.06	3.54	-54.4	-74.3	3.8	7.43e-01	0	57	104	1191182336	70	38751
