passes_logs/2026/01/02/R3.0SM8_Murmansk_STILSPACE/R3.0SM8_Murmansk_STILSPACE__20260102_035553_NOAA_20_JPSS-1_rec.log

#Pass ID: 20260102_035553_NOAA 20 (JPSS-1)
#Satellite: NOAA 20 (JPSS-1)
#Configuration: NOAA 20
#almurnet v.1.7.20240730
#Start time: 2026-01-02 04:02:15

#Version: 2.2.20231116
#Station: R3.0SM8_Murmansk_STILSPACE
#Location: 33.092731 lon 68.902999 lat
#TLE: 1 43013U 17073A   26001.30344297  .00000183  00000+0  10758-3 0  9995
#TLE: 2 43013  98.7621 302.3885 0001938  59.1624 300.9742 14.19532032420790

#Time	Az	El	Level	Level2	SNR	BER	BlckErr	Temp	State	Recorded	gain1	gain2
2026-01-02 04:02:15.20	339.30	25.97	-54.5	-74.4	3.8	7.45e-01	0	56	0	0	71	37146
2026-01-02 04:02:16.18	339.01	25.96	-52.6	-66.6	3.8	1.49e+00	0	57	104	0	68	17580
2026-01-02 04:02:17.18	338.71	25.95	-52.7	-66.6	3.8	1.49e+00	0	57	104	0	68	17611
2026-01-02 04:02:18.16	338.41	25.94	-52.7	-66.6	3.8	1.49e+00	0	57	104	0	68	17587
2026-01-02 04:02:19.15	338.12	25.93	-52.7	-66.5	3.8	1.49e+00	0	57	104	0	67	18449
2026-01-02 04:02:20.14	337.82	25.91	-52.7	-66.5	3.8	1.49e+00	0	57	104	0	67	18413
2026-01-02 04:02:21.13	337.52	25.90	-52.6	-66.5	3.8	1.49e+00	0	57	104	0	67	18427
2026-01-02 04:02:22.12	337.23	25.88	-52.7	-66.5	3.8	1.49e+00	0	57	104	0	67	18409
2026-01-02 04:02:23.11	336.93	25.87	-52.7	-66.5	3.8	1.49e+00	0	57	104	0	67	18400
2026-01-02 04:02:24.09	336.64	25.85	-52.6	-66.5	3.8	1.49e+00	0	57	104	0	67	18334
2026-01-02 04:02:25.08	336.34	25.83	-52.6	-66.5	3.8	1.49e+00	0	57	104	0	67	18349
2026-01-02 04:02:26.08	336.04	25.82	-52.6	-66.5	3.8	1.49e+00	0	57	104	0	67	18339
2026-01-02 04:02:27.07	335.75	25.80	-52.6	-66.4	3.8	1.49e+00	0	57	104	0	67	18285
2026-01-02 04:02:28.06	335.45	25.78	-52.6	-66.4	3.8	1.49e+00	0	57	104	0	67	18223
2026-01-02 04:02:29.04	335.16	25.76	-52.6	-66.4	3.8	1.49e+00	0	57	104	0	67	18195
2026-01-02 04:02:30.03	334.87	25.74	-52.5	-66.3	3.8	1.49e+00	0	57	104	0	67	18053
2026-01-02 04:02:31.01	334.58	25.72	-52.5	-66.4	3.8	1.49e+00	0	57	104	0	67	18140
2026-01-02 04:02:32.01	334.28	25.69	-52.6	-66.4	3.8	1.49e+00	0	57	104	0	67	18150
2026-01-02 04:02:33.01	333.99	25.67	-52.4	-66.3	3.8	1.49e+00	0	57	104	0	67	18084
2026-01-02 04:02:34.00	333.69	25.64	-52.4	-66.3	3.8	1.49e+00	0	57	104	0	67	18055
2026-01-02 04:02:34.99	333.40	25.62	-52.4	-66.3	3.8	1.49e+00	0	57	104	0	67	18045
2026-01-02 04:02:35.98	333.11	25.59	-52.4	-66.2	3.8	1.49e+00	0	57	104	0	67	17713
2026-01-02 04:02:36.98	332.82	25.57	-52.4	-66.3	3.8	1.49e+00	0	57	104	0	67	17910
2026-01-02 04:02:37.97	332.53	25.54	-52.3	-66.2	3.8	1.49e+00	0	57	104	0	67	17828
2026-01-02 04:02:38.95	332.24	25.51	-52.3	-66.2	3.8	1.49e+00	0	57	104	0	67	17871
2026-01-02 04:02:39.94	331.95	25.48	-52.4	-66.2	3.8	1.49e+00	0	57	104	0	67	17855
2026-01-02 04:02:40.93	331.66	25.45	-52.4	-66.2	3.8	1.49e+00	0	57	104	0	67	17810
2026-01-02 04:02:41.93	331.37	25.42	-52.4	-66.2	3.8	1.49e+00	0	57	104	0	67	17844
2026-01-02 04:02:42.93	331.08	25.39	-52.4	-66.2	3.8	1.49e+00	0	57	104	0	67	17789
2026-01-02 04:02:43.92	330.80	25.36	-52.4	-66.2	3.8	1.49e+00	0	57	104	0	67	17787
2026-01-02 04:02:44.91	330.51	25.32	-52.4	-66.2	3.8	1.49e+00	0	57	104	0	67	17763
2026-01-02 04:02:45.90	330.22	25.29	-52.3	-66.2	3.8	1.49e+00	0	57	104	0	67	17736
2026-01-02 04:02:46.88	329.94	25.26	-52.4	-66.2	3.8	1.49e+00	0	57	104	0	67	17775
2026-01-02 04:02:47.87	329.66	25.22	-52.4	-66.2	3.8	1.49e+00	0	57	104	0	67	17871
2026-01-02 04:02:48.86	329.37	25.18	-52.4	-66.2	3.8	1.49e+00	0	57	104	0	67	17875
2026-01-02 04:02:49.85	329.09	25.15	-52.4	-66.2	3.8	1.49e+00	0	57	104	0	67	17873
2026-01-02 04:02:50.84	328.81	25.11	-52.4	-66.2	3.8	1.49e+00	0	57	104	0	67	17785
2026-01-02 04:02:51.84	328.52	25.07	-52.3	-66.2	3.8	1.49e+00	0	57	104	0	67	17735
2026-01-02 04:02:52.83	328.24	25.03	-52.4	-66.2	3.8	1.49e+00	0	57	104	0	67	17775
2026-01-02 04:02:53.82	327.96	24.99	-52.4	-66.2	3.8	1.49e+00	0	57	104	0	67	17819
2026-01-02 04:02:54.81	327.68	24.95	-52.3	-66.2	3.8	1.49e+00	0	57	104	0	67	17711
2026-01-02 04:02:55.80	327.40	24.91	-52.4	-66.1	3.8	1.49e+00	0	57	104	0	67	17630
2026-01-02 04:02:56.79	327.12	24.87	-52.4	-66.2	3.8	1.49e+00	0	57	104	0	67	17781
2026-01-02 04:02:57.78	326.85	24.83	-52.3	-66.2	3.8	1.49e+00	0	57	104	0	67	17858
2026-01-02 04:02:58.78	326.57	24.79	-52.4	-66.0	3.8	1.49e+00	0	57	104	0	67	17334
2026-01-02 04:02:59.78	326.29	24.74	-52.4	-65.1	3.8	1.49e+00	0	57	104	0	67	15685
2026-01-02 04:03:00.77	326.01	24.70	-52.3	-64.0	3.8	1.49e+00	0	57	104	0	67	13735
2026-01-02 04:03:01.76	325.74	24.65	-52.1	-63.1	3.9	1.46e+00	0	57	104	0	67	12423
2026-01-02 04:03:02.75	325.47	24.61	-52.1	-62.6	4.2	1.40e+00	0	57	0	0	67	11759
2026-01-02 04:03:03.73	325.20	24.56	-52.1	-61.6	4.6	1.16e+00	0	57	0	0	67	10433
2026-01-02 04:03:04.72	324.92	24.52	-51.5	-58.3	6.6	4.50e-01	0	57	0	2097152	66	7589
2026-01-02 04:03:05.71	324.65	24.47	-50.4	-54.6	10.4	4.03e-02	0	57	0	4194304	63	5868
2026-01-02 04:03:06.69	324.38	24.42	-49.1	-51.8	13.3	5.92e-04	0	57	0	6291456	61	4805
2026-01-02 04:03:07.69	324.11	24.37	-48.1	-50.3	15.0	0.00e+00	0	57	0	7340032	59	4494
2026-01-02 04:03:08.67	323.85	24.32	-48.0	-50.1	15.2	0.00e+00	0	57	0	9437184	59	4400
2026-01-02 04:03:09.66	323.58	24.27	-48.2	-50.4	14.8	0.00e+00	0	57	0	11534336	59	4565
2026-01-02 04:03:10.65	323.31	24.22	-48.2	-50.4	14.9	0.00e+00	0	57	0	13631488	59	4547
2026-01-02 04:03:11.64	323.05	24.17	-48.2	-50.4	14.8	0.00e+00	0	57	0	14680064	59	4598
2026-01-02 04:03:12.63	322.78	24.12	-48.2	-50.4	14.8	0.00e+00	0	57	0	16777216	59	4588
2026-01-02 04:03:13.62	322.52	24.07	-48.3	-50.5	14.8	0.00e+00	0	57	0	18874368	59	4610
2026-01-02 04:03:14.61	322.25	24.02	-48.4	-50.7	14.5	0.00e+00	0	57	0	20971520	59	4755
2026-01-02 04:03:15.60	321.99	23.96	-48.5	-50.8	14.4	0.00e+00	0	57	0	23068672	59	4788
2026-01-02 04:03:16.59	321.73	23.91	-48.5	-51.0	14.3	7.00e-07	0	57	0	24117248	59	4888
2026-01-02 04:03:17.58	321.47	23.86	-48.6	-51.1	14.2	3.80e-06	0	57	0	26214400	59	4949
2026-01-02 04:03:18.57	321.21	23.80	-48.8	-51.2	14.0	7.00e-07	0	57	0	28311552	59	5037
2026-01-02 04:03:19.56	320.95	23.75	-48.6	-51.1	14.2	3.00e-06	0	57	0	30408704	59	4933
2026-01-02 04:03:20.55	320.69	23.69	-48.4	-50.7	14.5	7.00e-07	0	57	0	31457280	59	4752
2026-01-02 04:03:21.54	320.43	23.64	-48.3	-50.5	14.7	0.00e+00	0	57	0	33554432	59	4632
2026-01-02 04:03:22.53	320.18	23.58	-48.3	-50.4	14.8	0.00e+00	0	57	0	35651584	59	4586
2026-01-02 04:03:23.52	319.92	23.52	-48.2	-50.4	14.8	0.00e+00	0	57	0	37748736	59	4576
2026-01-02 04:03:24.51	319.67	23.46	-48.4	-50.7	14.6	7.00e-07	0	57	0	39845888	59	4745
2026-01-02 04:03:25.49	319.42	23.41	-48.4	-50.8	14.4	0.00e+00	0	57	0	40894464	59	4762
2026-01-02 04:03:26.48	319.16	23.35	-48.2	-50.4	14.8	0.00e+00	0	57	0	42991616	59	4578
2026-01-02 04:03:27.47	318.91	23.29	-48.0	-50.1	15.1	0.00e+00	0	57	0	45088768	59	4430
2026-01-02 04:03:28.46	318.66	23.23	-47.9	-49.9	15.3	0.00e+00	0	57	0	47185920	58	4587
2026-01-02 04:03:29.44	318.41	23.17	-48.0	-50.2	15.1	0.00e+00	0	57	0	48234496	58	4716
2026-01-02 04:03:30.42	318.17	23.11	-48.2	-50.4	14.9	0.00e+00	0	57	0	50331648	58	4819
2026-01-02 04:03:31.41	317.92	23.05	-48.0	-50.2	15.1	0.00e+00	0	57	0	52428800	58	4709
2026-01-02 04:03:32.40	317.67	22.99	-47.9	-50.0	15.3	0.00e+00	0	57	0	54525952	58	4607
2026-01-02 04:03:33.39	317.43	22.93	-47.9	-49.9	15.4	0.00e+00	0	57	0	55574528	58	4555
2026-01-02 04:03:34.38	317.18	22.86	-48.0	-50.0	15.2	0.00e+00	0	57	0	57671680	58	4639
2026-01-02 04:03:35.38	316.94	22.80	-48.1	-50.3	15.0	0.00e+00	0	57	0	59768832	58	4762
2026-01-02 04:03:36.37	316.69	22.74	-48.3	-50.5	14.7	7.00e-07	0	57	0	61865984	58	4896
2026-01-02 04:03:37.35	316.46	22.67	-48.4	-50.6	14.6	0.00e+00	0	57	0	62914560	58	4978
2026-01-02 04:03:38.35	316.21	22.61	-48.4	-50.7	14.4	0.00e+00	0	57	0	65011712	58	5032
2026-01-02 04:03:39.33	315.98	22.55	-48.4	-50.7	14.5	7.00e-07	0	57	0	67108864	58	5040
2026-01-02 04:03:40.32	315.74	22.48	-48.5	-50.9	14.3	7.00e-07	0	57	0	69206016	58	5124
2026-01-02 04:03:41.30	315.50	22.42	-48.5	-50.9	14.4	0.00e+00	0	57	0	71303168	59	4817
2026-01-02 04:03:42.28	315.27	22.35	-48.3	-50.6	14.6	0.00e+00	0	57	0	72351744	59	4669
2026-01-02 04:03:43.27	315.03	22.29	-48.3	-50.6	14.6	0.00e+00	0	57	0	74448896	59	4662
2026-01-02 04:03:44.26	314.80	22.22	-48.0	-50.1	15.1	0.00e+00	0	57	0	76546048	59	4420
2026-01-02 04:03:45.25	314.56	22.16	-47.7	-49.6	15.6	0.00e+00	0	57	0	78643200	58	4438
2026-01-02 04:03:46.24	314.33	22.09	-47.5	-49.4	15.8	0.00e+00	0	57	0	79691776	58	4319
2026-01-02 04:03:47.24	314.10	22.02	-47.5	-49.3	15.9	0.00e+00	0	57	0	81788928	58	4280
2026-01-02 04:03:48.22	313.87	21.95	-47.4	-49.3	15.9	0.00e+00	0	57	0	83886080	57	4503
2026-01-02 04:03:49.21	313.64	21.89	-47.3	-49.2	16.0	0.00e+00	0	57	0	85983232	57	4463
2026-01-02 04:03:50.20	313.41	21.82	-47.1	-48.8	16.3	0.00e+00	0	57	0	87031808	57	4287
2026-01-02 04:03:51.19	313.18	21.75	-47.0	-48.7	16.5	0.00e+00	0	57	0	89128960	57	4213
2026-01-02 04:03:52.17	312.96	21.68	-47.0	-48.6	16.6	0.00e+00	0	57	0	91226112	57	4184
2026-01-02 04:03:53.17	312.73	21.61	-46.9	-48.6	16.6	0.00e+00	0	57	0	93323264	57	4150
2026-01-02 04:03:54.16	312.50	21.54	-47.0	-48.7	16.5	0.00e+00	0	57	0	95420416	57	4212
2026-01-02 04:03:55.14	312.28	21.48	-47.2	-48.9	16.3	0.00e+00	0	57	0	96468992	57	4300
2026-01-02 04:03:56.14	312.06	21.41	-47.1	-48.8	16.3	0.00e+00	0	57	0	98566144	57	4285
2026-01-02 04:03:57.13	311.84	21.34	-47.1	-48.8	16.4	0.00e+00	0	57	0	100663296	57	4283
2026-01-02 04:03:58.11	311.62	21.27	-47.2	-48.9	16.3	0.00e+00	0	57	0	102760448	57	4317
2026-01-02 04:03:59.11	311.40	21.19	-47.1	-48.8	16.3	0.00e+00	0	57	0	103809024	57	4270
2026-01-02 04:04:00.10	311.18	21.12	-47.2	-48.9	16.3	0.00e+00	0	57	0	105906176	57	4320
2026-01-02 04:04:01.09	310.96	21.05	-47.2	-48.9	16.3	0.00e+00	0	57	0	108003328	57	4315
2026-01-02 04:04:02.07	310.74	20.98	-47.4	-49.2	15.9	0.00e+00	0	57	0	110100480	57	4491
2026-01-02 04:04:03.05	310.53	20.91	-47.2	-48.9	16.3	0.00e+00	0	57	0	111149056	57	4340
2026-01-02 04:04:04.04	310.32	20.84	-46.9	-48.6	16.6	0.00e+00	0	57	0	113246208	57	4155
2026-01-02 04:04:05.02	310.11	20.77	-46.8	-48.4	16.8	0.00e+00	0	57	0	115343360	56	4300
2026-01-02 04:04:06.02	309.89	20.70	-46.8	-48.4	16.8	0.00e+00	0	57	0	117440512	56	4317
2026-01-02 04:04:07.01	309.68	20.62	-46.8	-48.5	16.7	0.00e+00	0	57	0	119537664	56	4345
2026-01-02 04:04:08.00	309.47	20.55	-46.9	-48.6	16.6	0.00e+00	0	57	0	120586240	56	4423
2026-01-02 04:04:08.99	309.26	20.48	-46.9	-48.5	16.6	0.00e+00	0	57	0	122683392	56	4365
2026-01-02 04:04:09.98	309.05	20.41	-46.9	-48.6	16.6	0.00e+00	0	57	0	124780544	56	4428
2026-01-02 04:04:10.97	308.84	20.33	-47.1	-48.9	16.3	0.00e+00	0	57	0	126877696	56	4551
2026-01-02 04:04:11.96	308.64	20.26	-47.0	-48.7	16.5	0.00e+00	0	57	0	127926272	56	4442
2026-01-02 04:04:12.95	308.43	20.19	-46.9	-48.5	16.6	0.00e+00	0	57	0	130023424	56	4391
2026-01-02 04:04:13.94	308.23	20.11	-47.0	-48.6	16.6	0.00e+00	0	57	0	132120576	56	4426
2026-01-02 04:04:14.92	308.02	20.04	-46.9	-48.5	16.7	0.00e+00	0	57	0	134217728	56	4367
2026-01-02 04:04:15.91	307.82	19.97	-46.9	-48.6	16.6	0.00e+00	0	57	0	135266304	56	4410
2026-01-02 04:04:16.89	307.62	19.89	-47.0	-48.8	16.4	0.00e+00	0	57	0	137363456	56	4500
2026-01-02 04:04:17.88	307.42	19.82	-46.8	-48.5	16.7	0.00e+00	0	57	0	139460608	56	4351
2026-01-02 04:04:18.87	307.22	19.74	-46.6	-48.2	16.9	0.00e+00	0	57	0	141557760	56	4205
2026-01-02 04:04:19.86	307.02	19.67	-46.5	-48.1	17.1	0.00e+00	0	57	0	142606336	56	4157
2026-01-02 04:04:20.85	306.83	19.59	-46.5	-48.1	17.1	0.00e+00	0	57	0	144703488	56	4155
2026-01-02 04:04:21.84	306.63	19.52	-46.5	-48.1	17.0	0.00e+00	0	57	0	146800640	56	4158
2026-01-02 04:04:22.82	306.44	19.45	-46.6	-48.1	17.0	0.00e+00	0	57	0	148897792	56	4164
2026-01-02 04:04:23.81	306.24	19.37	-46.6	-48.2	16.9	0.00e+00	0	57	0	150994944	55	4443
2026-01-02 04:04:24.80	306.05	19.30	-46.5	-48.0	17.0	0.00e+00	0	57	0	152043520	55	4370
2026-01-02 04:04:25.79	305.85	19.22	-46.3	-47.8	17.2	0.00e+00	0	57	0	154140672	55	4286
2026-01-02 04:04:26.79	305.66	19.14	-46.3	-47.8	17.2	0.00e+00	0	57	0	156237824	55	4267
2026-01-02 04:04:27.77	305.47	19.07	-46.3	-47.7	17.3	0.00e+00	0	57	0	158334976	55	4230
2026-01-02 04:04:28.75	305.28	18.99	-46.3	-47.8	17.2	0.00e+00	0	57	0	159383552	55	4252
2026-01-02 04:04:29.74	305.09	18.92	-46.3	-47.8	17.2	0.00e+00	0	57	0	161480704	55	4259
2026-01-02 04:04:30.73	304.91	18.84	-46.5	-48.0	17.0	0.00e+00	0	57	0	163577856	55	4387
2026-01-02 04:04:31.72	304.72	18.77	-46.4	-47.9	17.1	0.00e+00	0	57	0	165675008	55	4312
2026-01-02 04:04:32.71	304.53	18.69	-46.2	-47.7	17.4	0.00e+00	0	57	0	166723584	55	4195
2026-01-02 04:04:33.70	304.35	18.62	-46.0	-47.4	17.6	0.00e+00	0	57	0	168820736	55	4060
2026-01-02 04:04:34.69	304.16	18.54	-45.9	-47.3	17.7	0.00e+00	0	57	0	170917888	55	4023
2026-01-02 04:04:35.68	303.98	18.46	-46.0	-47.4	17.6	0.00e+00	0	57	0	173015040	55	4089
2026-01-02 04:04:36.66	303.80	18.39	-46.0	-47.3	17.7	0.00e+00	0	57	0	175112192	55	4047
2026-01-02 04:04:37.65	303.62	18.31	-46.0	-47.4	17.6	0.00e+00	0	57	0	176160768	54	4318
2026-01-02 04:04:38.63	303.44	18.24	-46.2	-47.6	17.4	0.00e+00	0	57	0	178257920	54	4418
2026-01-02 04:04:39.61	303.26	18.16	-46.2	-47.6	17.3	0.00e+00	0	57	0	180355072	54	4439
2026-01-02 04:04:40.59	303.08	18.08	-46.1	-47.5	17.5	0.00e+00	0	57	0	181403648	54	4356
2026-01-02 04:04:41.58	302.91	18.01	-46.1	-47.5	17.5	0.00e+00	0	57	0	183500800	54	4370
2026-01-02 04:04:42.57	302.73	17.93	-46.2	-47.6	17.4	0.00e+00	0	57	0	185597952	54	4417
2026-01-02 04:04:43.56	302.55	17.85	-46.2	-47.7	17.3	0.00e+00	0	57	0	187695104	54	4473
2026-01-02 04:04:44.55	302.38	17.78	-46.4	-47.9	17.1	0.00e+00	0	57	0	189792256	54	4575
2026-01-02 04:04:45.53	302.20	17.70	-46.4	-47.9	17.1	0.00e+00	0	57	0	190840832	54	4554
2026-01-02 04:04:46.52	302.03	17.63	-46.2	-47.7	17.2	0.00e+00	0	57	0	192937984	54	4481
2026-01-02 04:04:47.52	301.86	17.55	-46.2	-47.7	17.2	0.00e+00	0	57	0	195035136	54	4450
2026-01-02 04:04:48.50	301.69	17.47	-46.3	-47.8	17.0	0.00e+00	0	57	0	197132288	54	4531
2026-01-02 04:04:49.48	301.52	17.40	-46.2	-47.7	17.0	0.00e+00	0	57	0	198180864	54	4487
2026-01-02 04:04:50.48	301.35	17.32	-46.2	-47.9	16.7	0.00e+00	0	57	0	200278016	54	4550
2026-01-02 04:04:51.46	301.18	17.24	-46.3	-47.9	16.5	0.00e+00	0	57	0	202375168	54	4591
2026-01-02 04:04:52.46	301.01	17.16	-46.1	-47.8	16.6	0.00e+00	0	57	0	204472320	54	4517
2026-01-02 04:04:53.45	300.84	17.09	-46.1	-47.7	16.8	0.00e+00	0	57	0	206569472	54	4458
2026-01-02 04:04:54.44	300.68	17.01	-46.0	-47.6	16.9	0.00e+00	0	57	0	207618048	54	4417
2026-01-02 04:04:55.43	300.51	16.93	-46.1	-47.6	16.9	0.00e+00	0	57	0	209715200	54	4437
2026-01-02 04:04:56.42	300.35	16.86	-46.1	-47.7	16.9	0.00e+00	0	57	0	211812352	54	4455
2026-01-02 04:04:57.41	300.18	16.78	-46.3	-47.9	16.7	0.00e+00	0	57	0	213909504	54	4582
2026-01-02 04:04:58.40	300.02	16.70	-46.4	-48.0	16.7	0.00e+00	0	57	0	214958080	54	4616
2026-01-02 04:04:59.39	299.86	16.63	-46.3	-47.8	17.1	0.00e+00	0	57	0	217055232	54	4494
2026-01-02 04:05:00.38	299.70	16.55	-46.1	-47.6	17.3	0.00e+00	0	57	0	219152384	54	4408
2026-01-02 04:05:01.37	299.53	16.47	-46.1	-47.6	17.4	0.00e+00	0	57	0	221249536	54	4404
2026-01-02 04:05:02.36	299.37	16.39	-46.2	-47.7	17.2	0.00e+00	0	57	0	222298112	54	4469
2026-01-02 04:05:03.35	299.22	16.32	-46.2	-47.7	17.3	0.00e+00	0	57	0	224395264	54	4463
2026-01-02 04:05:04.34	299.06	16.24	-46.3	-47.8	17.2	0.00e+00	0	57	0	226492416	54	4506
2026-01-02 04:05:05.33	298.90	16.16	-46.4	-47.9	17.0	0.00e+00	0	57	0	228589568	54	4598
2026-01-02 04:05:06.31	298.75	16.09	-46.5	-48.1	16.9	0.00e+00	0	57	0	230686720	54	4653
2026-01-02 04:05:07.30	298.59	16.01	-46.4	-47.9	17.1	0.00e+00	0	57	0	231735296	54	4573
2026-01-02 04:05:08.29	298.44	15.93	-46.4	-48.0	17.0	0.00e+00	0	57	0	233832448	54	4625
2026-01-02 04:05:09.28	298.28	15.86	-46.5	-48.1	16.8	0.00e+00	0	57	0	235929600	54	4672
2026-01-02 04:05:10.27	298.13	15.78	-46.5	-48.1	16.8	0.00e+00	0	57	0	238026752	54	4669
2026-01-02 04:05:11.25	297.98	15.71	-46.6	-48.3	16.6	0.00e+00	0	57	0	239075328	55	4513
2026-01-02 04:05:12.24	297.83	15.63	-46.3	-48.4	16.5	0.00e+00	0	57	0	241172480	55	4546
2026-01-02 04:05:13.23	297.68	15.55	-46.8	-48.5	16.3	0.00e+00	0	57	0	243269632	55	4636
2026-01-02 04:05:14.22	297.53	15.48	-46.9	-48.6	16.3	0.00e+00	0	57	0	245366784	55	4676
2026-01-02 04:05:15.22	297.38	15.40	-47.0	-48.8	16.1	0.00e+00	0	57	0	246415360	55	4779
2026-01-02 04:05:16.21	297.23	15.32	-47.0	-48.8	16.0	0.00e+00	0	57	0	248512512	55	4813
2026-01-02 04:05:17.20	297.08	15.24	-47.2	-49.1	15.9	0.00e+00	0	57	0	250609664	56	4686
2026-01-02 04:05:18.19	296.93	15.17	-47.3	-49.1	15.9	0.00e+00	0	57	0	252706816	56	4699
2026-01-02 04:05:19.18	296.79	15.09	-47.3	-49.2	15.8	0.00e+00	0	57	0	254803968	56	4753
2026-01-02 04:05:20.17	296.64	15.02	-47.4	-49.4	15.6	0.00e+00	0	57	0	255852544	56	4817
2026-01-02 04:05:21.17	296.49	14.94	-47.4	-49.3	15.7	0.00e+00	0	57	0	257949696	56	4765
2026-01-02 04:05:22.15	296.35	14.86	-47.5	-49.4	15.6	0.00e+00	0	57	0	260046848	56	4839
2026-01-02 04:05:23.14	296.21	14.79	-47.3	-49.1	15.9	0.00e+00	0	57	0	262144000	56	4687
2026-01-02 04:05:24.14	296.07	14.71	-47.2	-49.0	16.0	0.00e+00	0	57	0	263192576	56	4611
2026-01-02 04:05:25.12	295.93	14.64	-47.1	-48.9	16.0	0.00e+00	0	57	0	265289728	56	4592
2026-01-02 04:05:26.11	295.78	14.56	-47.1	-48.9	16.0	0.00e+00	0	57	0	267386880	56	4575
2026-01-02 04:05:27.10	295.64	14.48	-47.2	-49.1	15.9	0.00e+00	0	57	0	269484032	56	4655
2026-01-02 04:05:28.08	295.51	14.41	-47.2	-49.0	15.9	0.00e+00	0	57	0	270532608	56	4646
2026-01-02 04:05:29.07	295.37	14.33	-47.3	-49.2	15.7	0.00e+00	0	57	0	272629760	56	4745
2026-01-02 04:05:30.05	295.23	14.26	-47.5	-49.5	15.4	0.00e+00	0	57	0	274726912	56	4874
2026-01-02 04:05:31.03	295.10	14.18	-47.4	-49.4	15.5	0.00e+00	0	57	0	276824064	56	4826
2026-01-02 04:05:32.03	294.96	14.11	-47.5	-49.4	15.5	0.00e+00	0	57	0	277872640	56	4864
2026-01-02 04:05:33.02	294.82	14.03	-47.5	-49.5	15.4	0.00e+00	0	57	0	279969792	56	4918
2026-01-02 04:05:34.02	294.69	13.95	-47.6	-49.6	15.3	0.00e+00	0	57	0	282066944	56	4953
2026-01-02 04:05:35.00	294.55	13.88	-47.7	-49.9	15.0	0.00e+00	0	57	0	284164096	57	4816
2026-01-02 04:05:36.00	294.42	13.80	-47.6	-49.6	15.2	0.00e+00	0	57	0	286261248	57	4696
2026-01-02 04:05:36.99	294.28	13.73	-47.5	-49.5	15.3	0.00e+00	0	57	0	287309824	57	4622
2026-01-02 04:05:37.97	294.15	13.65	-47.6	-49.6	15.2	0.00e+00	0	57	0	289406976	57	4704
2026-01-02 04:05:38.97	294.02	13.58	-47.7	-49.8	15.0	0.00e+00	0	57	0	291504128	57	4804
2026-01-02 04:05:39.96	293.89	13.50	-47.6	-49.8	15.0	0.00e+00	0	57	0	293601280	57	4768
2026-01-02 04:05:40.95	293.76	13.43	-47.7	-49.9	14.9	0.00e+00	0	57	0	294649856	57	4831
2026-01-02 04:05:41.94	293.63	13.35	-47.7	-49.9	14.9	0.00e+00	0	57	0	296747008	57	4827
2026-01-02 04:05:42.94	293.50	13.28	-47.8	-50.0	14.7	0.00e+00	0	57	0	298844160	57	4906
2026-01-02 04:05:43.93	293.37	13.20	-47.8	-50.0	14.7	0.00e+00	0	57	0	300941312	57	4904
2026-01-02 04:05:44.92	293.24	13.13	-47.9	-50.2	14.6	0.00e+00	0	57	0	303038464	57	5000
2026-01-02 04:05:45.91	293.12	13.05	-47.9	-50.1	14.6	0.00e+00	0	57	0	304087040	57	4969
2026-01-02 04:05:46.89	292.99	12.98	-47.8	-50.1	14.7	1.50e-06	0	57	0	306184192	57	4952
2026-01-02 04:05:47.89	292.86	12.91	-47.9	-50.3	14.5	7.00e-07	0	57	0	308281344	57	5048
2026-01-02 04:05:48.88	292.74	12.83	-47.9	-50.3	14.5	7.00e-07	0	57	0	310378496	57	5048
2026-01-02 04:05:49.87	292.61	12.76	-48.0	-50.4	14.3	1.50e-06	0	57	0	311427072	57	5121
2026-01-02 04:05:50.85	292.49	12.68	-48.0	-50.4	14.2	1.50e-06	0	57	0	313524224	57	5153
2026-01-02 04:05:51.84	292.37	12.61	-48.2	-50.6	14.1	0.00e+00	0	57	0	315621376	58	4961
2026-01-02 04:05:52.83	292.25	12.54	-48.2	-50.8	13.8	3.80e-06	0	57	0	317718528	58	5080
2026-01-02 04:05:53.81	292.13	12.46	-48.2	-50.8	13.7	5.30e-06	0	57	0	318767104	58	5098
2026-01-02 04:05:54.81	292.00	12.39	-48.3	-51.0	13.5	8.30e-06	0	57	0	320864256	58	5215
2026-01-02 04:05:55.79	291.88	12.32	-48.3	-51.0	13.5	1.14e-05	0	57	0	322961408	58	5198
2026-01-02 04:05:56.77	291.76	12.24	-48.4	-51.2	13.3	1.75e-05	0	57	0	325058560	58	5305
2026-01-02 04:05:57.76	291.65	12.17	-48.4	-51.2	13.2	2.67e-05	0	57	0	327155712	58	5317
2026-01-02 04:05:58.75	291.53	12.10	-48.5	-51.4	12.9	2.82e-05	0	57	0	328204288	58	5447
2026-01-02 04:05:59.73	291.41	12.02	-48.6	-51.7	12.5	6.94e-05	0	57	0	330301440	59	5326
2026-01-02 04:06:00.72	291.29	11.95	-48.7	-51.9	12.3	1.71e-04	0	57	0	332398592	59	5449
2026-01-02 04:06:01.72	291.17	11.88	-48.7	-52.0	12.1	2.59e-04	0	57	0	334495744	59	5520
2026-01-02 04:06:02.71	291.06	11.80	-48.8	-52.2	11.8	3.49e-04	0	57	0	335544320	59	5636
2026-01-02 04:06:03.70	290.94	11.73	-48.9	-52.4	11.6	7.09e-04	0	57	0	337641472	59	5758
2026-01-02 04:06:04.69	290.83	11.66	-48.9	-52.6	11.3	9.38e-04	0	57	0	339738624	59	5918
2026-01-02 04:06:05.68	290.71	11.59	-48.9	-52.7	11.2	1.32e-03	0	57	0	341835776	59	5982
2026-01-02 04:06:06.67	290.60	11.51	-49.0	-52.8	11.1	1.42e-03	0	57	0	342884352	59	6052
2026-01-02 04:06:07.66	290.48	11.44	-49.1	-53.0	10.9	2.35e-03	0	57	0	344981504	59	6152
2026-01-02 04:06:08.64	290.37	11.37	-49.1	-53.2	10.6	2.78e-03	0	57	0	347078656	60	5948
2026-01-02 04:06:09.64	290.26	11.30	-49.1	-53.2	10.5	3.96e-03	0	57	0	349175808	60	5978
2026-01-02 04:06:10.62	290.15	11.23	-49.1	-53.4	10.3	4.33e-03	0	57	0	351272960	60	6088
2026-01-02 04:06:11.61	290.04	11.15	-49.0	-53.5	10.1	6.55e-03	0	57	0	352321536	60	6149
2026-01-02 04:06:12.60	289.93	11.08	-49.2	-53.8	9.7	9.48e-03	0	57	0	354418688	60	6410
2026-01-02 04:06:13.59	289.82	11.01	-49.3	-54.1	9.4	1.44e-02	0	57	0	356515840	60	6609
2026-01-02 04:06:14.57	289.71	10.94	-49.3	-54.3	9.2	1.49e-02	0	57	0	358612992	60	6729
2026-01-02 04:06:15.56	289.60	10.87	-49.4	-54.5	9.0	2.46e-02	0	57	0	359661568	60	6882
2026-01-02 04:06:16.55	289.49	10.80	-49.4	-54.6	8.8	2.82e-02	0	57	0	361758720	60	7001
2026-01-02 04:06:17.54	289.38	10.73	-49.4	-54.8	8.5	3.68e-02	0	57	0	363855872	60	7181
2026-01-02 04:06:18.53	289.27	10.65	-49.5	-55.1	8.3	4.38e-02	0	57	0	365953024	60	7386
2026-01-02 04:06:19.52	289.17	10.58	-49.5	-55.2	8.1	5.74e-02	0	57	0	367001600	60	7511
2026-01-02 04:06:20.51	289.06	10.51	-49.6	-55.4	8.0	6.52e-02	0	57	0	369098752	61	7230
2026-01-02 04:06:21.50	288.96	10.44	-49.6	-55.5	7.8	7.53e-02	0	57	0	371195904	61	7357
2026-01-02 04:06:22.49	288.85	10.37	-49.6	-55.6	7.6	8.62e-02	0	57	0	373293056	61	7440
2026-01-02 04:06:23.48	288.75	10.30	-49.7	-55.7	7.6	9.32e-02	0	57	0	374341632	61	7535
2026-01-02 04:06:24.47	288.64	10.23	-49.7	-55.8	7.5	1.05e-01	0	57	0	376438784	61	7618
2026-01-02 04:06:25.46	288.54	10.16	-49.7	-55.8	7.5	1.07e-01	0	57	0	378535936	61	7572
2026-01-02 04:06:26.44	288.44	10.09	-49.7	-55.8	7.4	1.14e-01	0	57	0	380633088	61	7624
2026-01-02 04:06:27.43	288.33	10.02	-49.7	-55.8	7.4	1.11e-01	0	57	0	382730240	61	7581
2026-01-02 04:06:28.41	288.23	9.95	-49.6	-55.7	7.5	1.03e-01	0	57	0	383778816	61	7507
2026-01-02 04:06:29.38	288.13	9.88	-49.6	-55.7	7.5	1.04e-01	0	57	0	385875968	61	7521
2026-01-02 04:06:30.36	288.03	9.81	-49.7	-56.0	7.3	1.14e-01	0	57	0	387973120	61	7742
2026-01-02 04:06:31.35	287.93	9.74	-49.7	-56.1	7.2	1.42e-01	0	57	0	390070272	61	7848
2026-01-02 04:06:32.33	287.83	9.67	-49.6	-55.9	7.4	1.27e-01	0	57	0	391118848	61	7636
2026-01-02 04:06:33.32	287.73	9.60	-49.5	-55.6	7.6	1.04e-01	0	57	0	393216000	61	7449
2026-01-02 04:06:34.31	287.63	9.53	-49.5	-55.4	7.8	8.25e-02	0	57	0	395313152	61	7263
2026-01-02 04:06:35.31	287.53	9.46	-49.4	-55.3	7.9	7.44e-02	0	57	0	397410304	61	7167
2026-01-02 04:06:36.30	287.43	9.39	-49.5	-55.3	7.9	7.02e-02	0	57	0	398458880	61	7198
2026-01-02 04:06:37.30	287.34	9.32	-49.6	-55.4	7.9	7.64e-02	0	57	0	400556032	61	7251
2026-01-02 04:06:38.29	287.24	9.25	-49.5	-55.2	8.1	6.22e-02	0	57	0	402653184	61	7051
2026-01-02 04:06:39.28	287.14	9.19	-49.4	-54.9	8.4	5.12e-02	0	57	0	404750336	61	6842
2026-01-02 04:06:40.26	287.05	9.12	-49.4	-54.8	8.5	4.47e-02	0	57	0	406847488	61	6793
2026-01-02 04:06:41.25	286.95	9.05	-49.4	-54.8	8.5	4.08e-02	0	57	0	407896064	61	6752
2026-01-02 04:06:42.24	286.85	8.98	-49.4	-54.9	8.5	4.19e-02	0	57	0	409993216	60	7225
2026-01-02 04:06:43.23	286.76	8.91	-49.5	-55.0	8.3	4.83e-02	0	57	0	412090368	60	7332
2026-01-02 04:06:44.22	286.67	8.84	-49.5	-55.1	8.3	5.15e-02	0	57	0	414187520	60	7415
2026-01-02 04:06:45.21	286.57	8.77	-49.5	-55.1	8.3	4.98e-02	0	57	0	415236096	60	7388
2026-01-02 04:06:46.20	286.48	8.71	-49.6	-55.2	8.2	5.13e-02	0	57	0	417333248	60	7460
2026-01-02 04:06:47.19	286.38	8.64	-49.6	-55.4	8.0	6.59e-02	0	57	0	419430400	61	7256
2026-01-02 04:06:48.19	286.29	8.57	-49.6	-55.2	8.1	6.34e-02	0	57	0	421527552	61	7102
2026-01-02 04:06:49.18	286.20	8.50	-49.6	-55.4	7.8	7.98e-02	0	57	0	422576128	61	7272
2026-01-02 04:06:50.16	286.11	8.43	-49.6	-55.7	7.5	1.04e-01	0	57	0	424673280	61	7519
2026-01-02 04:06:51.15	286.02	8.37	-49.5	-55.2	8.0	9.54e-02	0	57	0	426770432	61	7117
2026-01-02 04:06:52.15	285.92	8.30	-49.5	-55.1	8.2	7.27e-02	0	57	0	428867584	61	6994
2026-01-02 04:06:53.14	285.83	8.23	-49.4	-54.9	8.5	5.38e-02	0	57	0	430964736	61	6824
2026-01-02 04:06:54.13	285.74	8.16	-49.5	-54.8	8.5	4.52e-02	0	57	0	432013312	60	7204
2026-01-02 04:06:55.13	285.65	8.10	-49.4	-54.8	8.6	4.41e-02	0	57	0	434110464	60	7165
2026-01-02 04:06:56.12	285.56	8.03	-49.3	-54.7	8.7	3.56e-02	0	57	0	436207616	60	7057
2026-01-02 04:06:57.11	285.47	7.96	-49.4	-54.9	8.4	4.70e-02	0	57	0	438304768	60	7253
2026-01-02 04:06:58.11	285.39	7.89	-49.4	-54.6	8.8	3.83e-02	0	57	0	439353344	60	7010
2026-01-02 04:06:59.10	285.30	7.83	-49.3	-54.3	9.1	2.88e-02	0	57	0	441450496	60	6781
2026-01-02 04:07:00.08	285.21	7.76	-49.3	-54.2	9.3	2.03e-02	0	57	0	443547648	60	6696
2026-01-02 04:07:01.08	285.12	7.69	-49.4	-54.3	9.3	2.35e-02	0	57	0	445644800	60	6747
2026-01-02 04:07:02.07	285.04	7.63	-49.3	-54.2	9.4	2.00e-02	0	57	0	447741952	60	6670
2026-01-02 04:07:03.06	284.95	7.56	-49.3	-54.2	9.3	1.88e-02	0	57	0	448790528	60	6680
2026-01-02 04:07:04.05	284.86	7.50	-49.4	-54.4	9.1	2.09e-02	0	57	0	450887680	60	6876
2026-01-02 04:07:05.04	284.78	7.43	-49.4	-54.4	9.2	2.26e-02	0	57	0	452984832	60	6817
2026-01-02 04:07:06.02	284.69	7.36	-49.6	-54.8	8.7	2.85e-02	0	57	0	455081984	60	7180
2026-01-02 04:07:07.00	284.61	7.30	-49.5	-54.5	9.0	3.00e-02	0	57	0	456130560	60	6907
2026-01-02 04:07:08.00	284.53	7.23	-49.3	-54.1	9.5	1.68e-02	0	57	0	458227712	60	6599
2026-01-02 04:07:08.99	284.44	7.17	-49.2	-53.9	9.7	1.26e-02	0	57	0	460324864	60	6449
2026-01-02 04:07:09.97	284.36	7.10	-49.2	-53.8	9.7	1.10e-02	0	57	0	462422016	60	6411
2026-01-02 04:07:10.96	284.28	7.04	-49.2	-53.9	9.6	1.17e-02	0	57	0	463470592	60	6478
2026-01-02 04:07:11.95	284.19	6.97	-49.2	-53.9	9.6	1.18e-02	0	57	0	465567744	60	6455
2026-01-02 04:07:12.94	284.11	6.91	-49.2	-53.9	9.5	1.32e-02	0	57	0	467664896	60	6460
2026-01-02 04:07:13.93	284.03	6.84	-49.1	-53.8	9.5	1.38e-02	0	57	0	469762048	60	6420
2026-01-02 04:07:14.92	283.95	6.78	-49.1	-53.9	9.5	1.51e-02	0	57	0	470810624	60	6438
2026-01-02 04:07:15.91	283.87	6.71	-49.0	-54.0	9.2	1.74e-02	0	57	0	472907776	60	6536
2026-01-02 04:07:16.90	283.78	6.65	-49.1	-54.1	9.0	2.38e-02	0	57	0	475004928	60	6641
2026-01-02 04:07:17.88	283.71	6.58	-49.1	-54.3	8.8	2.82e-02	0	57	0	477102080	60	6752
2026-01-02 04:07:18.87	283.63	6.52	-49.0	-54.0	9.1	2.55e-02	0	57	0	479199232	60	6530
2026-01-02 04:07:19.86	283.55	6.45	-49.0	-53.9	9.2	2.14e-02	0	57	0	480247808	60	6462
2026-01-02 04:07:20.85	283.47	6.39	-48.9	-53.8	9.2	2.22e-02	0	57	0	482344960	60	6412
2026-01-02 04:07:21.83	283.39	6.33	-49.0	-54.1	9.0	2.08e-02	0	57	0	484442112	60	6572
2026-01-02 04:07:22.82	283.31	6.26	-48.9	-53.9	9.2	2.08e-02	0	57	0	486539264	60	6431
2026-01-02 04:07:23.82	283.23	6.20	-48.8	-53.7	9.2	2.13e-02	0	57	0	487587840	60	6343
2026-01-02 04:07:24.81	283.15	6.13	-48.7	-53.5	9.3	1.82e-02	0	57	0	489684992	60	6166
2026-01-02 04:07:25.81	283.07	6.07	-48.7	-53.5	9.4	1.61e-02	0	57	0	491782144	60	6164
2026-01-02 04:07:26.79	283.00	6.00	-48.6	-53.5	9.3	1.83e-02	0	57	0	493879296	60	6195
2026-01-02 04:07:27.78	282.92	5.94	-48.6	-53.5	9.3	2.03e-02	0	57	0	494927872	60	6184
2026-01-02 04:07:28.77	282.84	5.88	-48.7	-53.7	9.1	2.22e-02	0	57	0	497025024	60	6315
2026-01-02 04:07:29.75	282.77	5.81	-48.7	-53.9	8.8	2.54e-02	0	58	0	499122176	60	6447
2026-01-02 04:07:30.73	282.69	5.75	-48.8	-54.1	8.6	3.45e-02	0	57	0	501219328	60	6590
2026-01-02 04:07:31.72	282.62	5.69	-48.8	-54.2	8.5	4.07e-02	0	57	0	503316480	60	6651
2026-01-02 04:07:32.71	282.54	5.63	-48.7	-54.3	8.4	4.71e-02	0	57	0	504365056	60	6726
2026-01-02 04:07:33.70	282.47	5.56	-48.8	-54.6	7.9	6.61e-02	0	57	0	506462208	60	6968
2026-01-02 04:07:34.69	282.39	5.50	-48.9	-54.9	7.7	7.98e-02	0	57	0	508559360	60	7242
2026-01-02 04:07:35.67	282.32	5.44	-48.9	-55.2	7.3	1.10e-01	0	57	0	510656512	60	7505
2026-01-02 04:07:36.66	282.25	5.37	-48.9	-55.4	7.0	1.46e-01	0	57	0	511705088	60	7693
2026-01-02 04:07:37.66	282.17	5.31	-48.9	-55.5	6.9	1.61e-01	0	57	0	513802240	60	7751
2026-01-02 04:07:38.65	282.10	5.25	-48.9	-55.7	6.7	1.88e-01	0	57	0	515899392	60	7959
2026-01-02 04:07:39.64	282.03	5.19	-48.9	-55.9	6.5	2.17e-01	0	57	0	517996544	60	8119
2026-01-02 04:07:40.63	281.95	5.12	-48.9	-56.3	6.1	2.53e-01	0	57	0	519045120	60	8497
2026-01-02 04:07:41.62	281.88	5.06	-49.0	-56.7	5.9	3.60e-01	0	57	0	521142272	60	8889
2026-01-02 04:07:42.60	281.81	5.00	-50.1	-63.9	3.8	1.48e+00	0	57	104	522190848	62	18116
2026-01-02 04:07:43.59	281.74	4.94	-50.6	-64.4	3.8	1.49e+00	0	57	104	522190848	63	18290
2026-01-02 04:07:44.58	281.67	4.88	-51.9	-65.8	3.8	1.49e+00	0	57	104	522190848	65	19005
2026-01-02 04:07:45.57	281.60	4.82	-52.1	-66.0	3.8	1.49e+00	0	57	104	522190848	66	18397
2026-01-02 04:07:46.56	281.53	4.75	-52.1	-66.1	3.8	1.49e+00	0	58	104	522190848	66	18567
2026-01-02 04:07:47.54	281.46	4.69	-52.0	-65.9	3.8	1.49e+00	0	57	104	522190848	66	18101
2026-01-02 04:07:48.54	281.39	4.63	-52.1	-66.1	3.8	1.49e+00	0	57	104	522190848	66	18557
2026-01-02 04:07:49.53	281.32	4.57	-52.3	-66.2	3.8	1.49e+00	0	57	104	522190848	66	18796
2026-01-02 04:07:50.52	281.25	4.51	-52.4	-66.2	3.8	1.49e+00	0	58	104	522190848	66	18931
2026-01-02 04:07:51.51	281.18	4.45	-52.5	-66.3	3.8	1.49e+00	0	57	104	522190848	66	19025
2026-01-02 04:07:52.50	281.11	4.39	-52.4	-66.3	3.8	1.49e+00	0	58	104	522190848	66	19072
2026-01-02 04:07:53.48	281.04	4.33	-52.5	-66.3	3.8	1.49e+00	0	57	104	522190848	66	19120
2026-01-02 04:07:54.47	280.97	4.26	-52.5	-66.4	3.8	1.49e+00	0	58	104	522190848	66	19205
2026-01-02 04:07:55.46	280.90	4.20	-52.6	-66.4	3.8	1.49e+00	0	57	104	522190848	66	19176
2026-01-02 04:07:56.45	280.84	4.14	-52.6	-66.4	3.8	1.49e+00	0	58	104	522190848	66	19264
2026-01-02 04:07:57.45	280.77	4.08	-52.6	-66.4	3.8	1.49e+00	0	58	104	522190848	67	18231
2026-01-02 04:07:58.44	280.70	4.02	-52.5	-66.4	3.8	1.49e+00	0	58	104	522190848	67	18229
2026-01-02 04:07:59.43	280.63	3.96	-52.6	-66.4	3.8	1.49e+00	0	57	104	522190848	67	18257
2026-01-02 04:08:00.42	280.57	3.90	-52.5	-66.4	3.8	1.49e+00	0	58	104	522190848	67	18272
2026-01-02 04:08:01.41	280.50	3.84	-52.6	-66.4	3.8	1.49e+00	0	58	104	522190848	67	18290
2026-01-02 04:08:02.40	280.44	3.78	-52.6	-66.5	3.8	1.49e+00	0	57	104	522190848	67	18339
2026-01-02 04:08:03.39	280.37	3.72	-52.6	-66.5	3.8	1.49e+00	0	58	104	522190848	67	18388
2026-01-02 04:08:04.38	280.31	3.66	-52.6	-66.5	3.8	1.49e+00	0	58	104	522190848	67	18397
2026-01-02 04:08:05.37	280.24	3.60	-52.6	-66.5	3.8	1.49e+00	0	58	104	522190848	67	18380
2026-01-02 04:08:06.37	280.18	3.54	-52.6	-66.5	3.8	1.49e+00	0	58	104	522190848	67	18419
2026-01-02 04:08:07.36	280.11	3.48	-52.6	-66.5	3.8	1.49e+00	0	57	104	522190848	67	18432
2026-01-02 04:08:08.35	280.05	3.42	-52.6	-66.5	3.8	1.49e+00	0	57	104	522190848	67	18381
2026-01-02 04:08:09.34	279.98	3.36	-52.7	-66.5	3.8	1.49e+00	0	58	104	522190848	67	18436
2026-01-02 04:08:10.33	279.92	3.30	-52.6	-66.5	3.8	1.49e+00	0	57	104	522190848	67	18379
2026-01-02 04:08:11.31	279.86	3.24	-52.5	-66.5	3.8	1.49e+00	0	57	104	522190848	67	18386
2026-01-02 04:08:12.31	279.79	3.18	-52.7	-66.5	3.8	1.49e+00	0	57	104	522190848	67	18403
2026-01-02 04:08:13.30	279.73	3.12	-52.7	-66.5	3.8	1.49e+00	0	57	104	522190848	67	18359
2026-01-02 04:08:14.30	279.67	3.07	-52.7	-66.5	3.8	1.49e+00	0	57	104	522190848	67	18347
2026-01-02 04:08:15.29	279.60	3.01	-52.6	-66.5	3.8	1.49e+00	0	57	104	522190848	67	18336
2026-01-02 04:08:16.27	279.54	2.95	-52.6	-66.5	3.8	1.49e+00	0	58	104	522190848	67	18421

#Closed at: 2026-01-02 04:08:16
#Recorded file [522 MB]: D:/Data/31026_260102_070742.dat