passes_logs/2026/01/02/R3.0SM8_Murmansk_STILSPACE/R3.0SM8_Murmansk_STILSPACE__20260102_033516_SUOMI_NPP_rec.log

#Pass ID: 20260102_033516_SUOMI NPP
#Satellite: SUOMI NPP
#Configuration: NPP
#almurnet v.1.7.20240730
#Start time: 2026-01-02 03:35:16

#Version: 2.2.20231116
#Station: R3.0SM8_Murmansk_STILSPACE
#Location: 33.092731 lon 68.902999 lat
#TLE: 1 37849U 11061A   26001.07732418  .00000182  00000+0  10735-3 0  9990
#TLE: 2 37849  98.7795 303.2470 0002580  87.2016 272.9455 14.19520779734739

#Time	Az	El	Level	Level2	SNR	BER	BlckErr	Temp	State	Recorded	gain1	gain2
2026-01-02 03:35:16.48	41.28	3.00	-52.3	-66.2	3.8	1.49e+00	0	45	0	0	66	18775
2026-01-02 03:35:17.47	41.22	3.06	-52.2	-66.1	3.8	1.49e+00	0	46	104	0	66	18542
2026-01-02 03:35:18.46	41.16	3.12	-52.2	-66.0	3.8	1.49e+00	0	46	104	0	66	18426
2026-01-02 03:35:19.45	41.10	3.18	-52.2	-66.0	3.8	1.49e+00	0	46	104	0	66	18431
2026-01-02 03:35:20.44	41.04	3.24	-52.1	-65.9	3.8	1.49e+00	0	46	104	0	66	18300
2026-01-02 03:35:21.42	40.99	3.30	-52.0	-65.9	3.8	1.49e+00	0	46	104	0	66	18136
2026-01-02 03:35:22.41	40.93	3.36	-51.9	-65.7	3.8	1.49e+00	0	46	104	0	66	17871
2026-01-02 03:35:23.41	40.87	3.42	-51.6	-65.5	3.8	1.49e+00	0	46	104	0	66	17397
2026-01-02 03:35:24.40	40.81	3.48	-51.4	-65.2	3.8	1.49e+00	0	46	104	0	65	17807
2026-01-02 03:35:25.38	40.75	3.54	-51.4	-65.2	3.8	1.49e+00	0	46	104	0	65	17725
2026-01-02 03:35:26.37	40.69	3.60	-51.4	-65.2	3.8	1.49e+00	0	47	104	0	65	17708
2026-01-02 03:35:27.35	40.63	3.66	-51.3	-65.2	3.8	1.49e+00	0	46	104	0	65	17769
2026-01-02 03:35:28.34	40.57	3.73	-51.0	-65.2	3.8	1.49e+00	0	47	104	0	65	17827
2026-01-02 03:35:29.33	40.51	3.79	-51.4	-65.2	3.8	1.49e+00	0	47	104	0	65	17692
2026-01-02 03:35:30.32	40.45	3.85	-51.4	-65.2	3.8	1.49e+00	0	47	104	0	65	17747
2026-01-02 03:35:31.30	40.39	3.91	-51.4	-65.1	3.8	1.49e+00	0	47	104	0	65	17622
2026-01-02 03:35:32.29	40.33	3.97	-51.4	-65.1	3.8	1.49e+00	0	47	104	0	65	17507
2026-01-02 03:35:33.28	40.27	4.03	-51.4	-65.0	3.8	1.49e+00	0	47	104	0	65	17386
2026-01-02 03:35:34.27	40.21	4.09	-51.4	-64.8	3.8	1.49e+00	0	47	104	0	65	17074
2026-01-02 03:35:35.27	40.15	4.16	-51.3	-64.5	3.8	1.49e+00	0	47	104	0	65	16502
2026-01-02 03:35:36.25	40.08	4.22	-51.4	-64.2	3.8	1.49e+00	0	47	104	0	65	15926
2026-01-02 03:35:37.24	40.02	4.28	-51.3	-63.8	3.8	1.49e+00	0	47	104	0	65	15204
2026-01-02 03:35:38.22	39.96	4.34	-51.3	-63.3	3.8	1.49e+00	0	47	104	0	65	14268
2026-01-02 03:35:39.21	39.90	4.40	-51.2	-62.5	3.9	1.47e+00	0	47	104	0	65	13041
2026-01-02 03:35:40.19	39.83	4.46	-51.1	-61.6	4.2	1.40e+00	0	47	0	0	65	11738
2026-01-02 03:35:41.18	39.77	4.53	-51.0	-60.5	4.6	1.25e+00	0	48	0	1048576	65	10396
2026-01-02 03:35:42.17	39.71	4.59	-50.9	-59.8	4.9	8.52e-01	0	48	0	2097152	64	10142
2026-01-02 03:35:43.16	39.64	4.65	-50.8	-59.0	5.4	5.39e-01	0	48	0	4194304	64	9205
2026-01-02 03:35:44.15	39.58	4.71	-50.6	-58.0	6.1	4.10e-01	0	48	0	6291456	64	8243
2026-01-02 03:35:45.13	39.51	4.78	-50.5	-57.4	6.6	2.52e-01	0	48	0	8388608	64	7684
2026-01-02 03:35:46.11	39.45	4.84	-50.5	-57.4	6.7	2.04e-01	0	48	0	9437184	63	8102
2026-01-02 03:35:47.10	39.38	4.90	-50.4	-56.8	7.1	1.63e-01	0	48	0	11534336	63	7614
2026-01-02 03:35:48.09	39.32	4.96	-50.3	-56.3	7.7	1.03e-01	0	48	0	13631488	63	7130
2026-01-02 03:35:49.08	39.25	5.03	-50.3	-56.1	7.8	7.20e-02	0	48	0	15728640	63	7008
2026-01-02 03:35:50.07	39.19	5.09	-50.3	-56.3	7.7	8.84e-02	0	48	0	17825792	63	7192
2026-01-02 03:35:51.06	39.12	5.15	-50.3	-56.2	7.8	7.13e-02	0	48	0	18874368	63	7099
2026-01-02 03:35:52.05	39.05	5.22	-50.3	-56.1	7.9	8.38e-02	0	48	0	20971520	63	7027
2026-01-02 03:35:53.04	38.99	5.28	-50.3	-56.3	7.7	7.78e-02	0	48	0	23068672	63	7173
2026-01-02 03:35:54.03	38.92	5.35	-50.3	-55.9	8.1	7.38e-02	0	48	0	25165824	63	6856
2026-01-02 03:35:55.01	38.85	5.41	-50.2	-55.9	8.2	6.03e-02	0	48	0	26214400	63	6806
2026-01-02 03:35:56.00	38.78	5.47	-50.2	-55.9	8.2	4.97e-02	0	48	0	28311552	63	6821
2026-01-02 03:35:56.98	38.72	5.54	-50.2	-56.0	8.1	5.52e-02	0	48	0	30408704	63	6882
2026-01-02 03:35:57.97	38.65	5.60	-50.5	-56.6	7.5	7.10e-02	0	49	0	32505856	63	7406
2026-01-02 03:35:58.97	38.58	5.67	-50.2	-55.9	8.2	7.20e-02	0	49	0	33554432	63	6845
2026-01-02 03:35:59.96	38.51	5.73	-50.0	-55.2	8.8	4.20e-02	0	49	0	35651584	63	6342
2026-01-02 03:36:00.96	38.44	5.80	-49.7	-54.4	9.6	2.15e-02	0	49	0	37748736	62	6129
2026-01-02 03:36:01.95	38.37	5.86	-49.6	-54.0	10.1	7.47e-03	0	49	0	39845888	62	5814
2026-01-02 03:36:02.94	38.30	5.93	-49.4	-53.5	10.6	5.22e-03	0	49	0	41943040	61	5800
2026-01-02 03:36:03.93	38.23	5.99	-49.2	-53.1	11.0	2.72e-03	0	49	0	42991616	61	5579
2026-01-02 03:36:04.92	38.15	6.06	-49.1	-52.9	11.2	1.10e-03	0	49	0	45088768	61	5457
2026-01-02 03:36:05.92	38.08	6.12	-48.9	-52.6	11.5	9.80e-04	0	49	0	47185920	61	5258
2026-01-02 03:36:06.91	38.01	6.19	-48.8	-52.2	11.9	5.66e-04	0	49	0	49283072	60	5338
2026-01-02 03:36:07.90	37.94	6.25	-48.8	-52.3	11.8	3.51e-04	0	49	0	50331648	60	5360
2026-01-02 03:36:08.89	37.87	6.32	-48.6	-52.0	12.2	2.05e-04	0	49	0	52428800	60	5192
2026-01-02 03:36:09.88	37.79	6.38	-48.7	-52.1	12.1	2.39e-04	0	49	0	54525952	60	5271
2026-01-02 03:36:10.87	37.72	6.45	-48.7	-52.0	12.2	3.89e-04	0	49	0	56623104	60	5213
2026-01-02 03:36:11.86	37.65	6.52	-48.7	-52.3	11.9	2.68e-04	0	49	0	58720256	60	5375
2026-01-02 03:36:12.85	37.57	6.58	-48.8	-52.5	11.7	4.52e-04	0	49	0	59768832	60	5487
2026-01-02 03:36:13.84	37.50	6.65	-48.8	-52.4	11.8	5.03e-04	0	49	0	61865984	60	5421
2026-01-02 03:36:14.83	37.42	6.71	-48.9	-52.5	11.7	5.63e-04	0	49	0	63963136	60	5470
2026-01-02 03:36:15.82	37.35	6.78	-49.0	-52.8	11.3	4.16e-04	0	50	0	66060288	60	5722
2026-01-02 03:36:16.80	37.28	6.85	-48.8	-52.3	11.9	4.25e-04	0	50	0	67108864	60	5364
2026-01-02 03:36:17.79	37.20	6.91	-48.6	-52.0	12.3	3.35e-04	0	50	0	69206016	60	5198
2026-01-02 03:36:18.78	37.12	6.98	-48.6	-52.1	12.1	4.53e-04	0	50	0	71303168	60	5238
2026-01-02 03:36:19.77	37.05	7.05	-48.6	-51.9	12.3	1.95e-04	0	50	0	73400320	60	5118
2026-01-02 03:36:20.75	36.97	7.11	-48.7	-52.1	12.2	1.80e-04	0	50	0	74448896	60	5220
2026-01-02 03:36:21.75	36.89	7.18	-48.6	-51.9	12.3	2.23e-04	0	50	0	76546048	60	5140
2026-01-02 03:36:22.74	36.82	7.25	-48.5	-51.7	12.6	1.63e-04	0	50	0	78643200	60	5012
2026-01-02 03:36:23.73	36.74	7.32	-48.8	-52.3	12.0	1.01e-04	0	50	0	80740352	60	5347
2026-01-02 03:36:24.72	36.66	7.38	-48.6	-51.8	12.5	1.31e-04	0	50	0	82837504	60	5076
2026-01-02 03:36:25.71	36.58	7.45	-48.5	-51.6	12.7	1.27e-04	0	50	0	83886080	60	4969
2026-01-02 03:36:26.69	36.50	7.52	-48.6	-51.8	12.5	1.30e-04	0	50	0	85983232	60	5057
2026-01-02 03:36:27.69	36.42	7.59	-48.4	-51.6	12.7	8.77e-05	0	50	0	88080384	60	4976
2026-01-02 03:36:28.68	36.34	7.66	-48.6	-51.7	12.6	8.08e-05	0	50	0	90177536	60	5040
2026-01-02 03:36:29.66	36.27	7.72	-48.5	-51.7	12.7	1.10e-04	0	50	0	91226112	60	4988
2026-01-02 03:36:30.63	36.19	7.79	-48.5	-51.6	12.8	6.79e-05	0	50	0	93323264	60	4933
2026-01-02 03:36:31.62	36.11	7.86	-48.5	-51.8	12.7	4.95e-05	0	50	0	95420416	60	5078
2026-01-02 03:36:32.61	36.02	7.93	-48.4	-51.3	13.0	3.96e-05	0	50	0	97517568	59	5085
2026-01-02 03:36:33.60	35.94	8.00	-48.3	-51.1	13.3	1.90e-05	0	50	0	98566144	59	4955
2026-01-02 03:36:34.59	35.86	8.07	-48.4	-51.3	13.1	2.36e-05	0	50	0	100663296	59	5080
2026-01-02 03:36:35.58	35.78	8.13	-48.3	-51.1	13.3	2.51e-05	0	50	0	102760448	59	4967
2026-01-02 03:36:36.57	35.70	8.20	-48.3	-51.2	13.2	1.75e-05	0	50	0	104857600	59	5017
2026-01-02 03:36:37.56	35.61	8.27	-48.4	-51.2	13.1	5.03e-05	0	51	0	105906176	59	5029
2026-01-02 03:36:38.55	35.53	8.34	-48.1	-50.8	13.6	1.44e-05	0	51	0	108003328	59	4803
2026-01-02 03:36:39.54	35.44	8.41	-48.1	-50.8	13.6	2.20e-06	0	51	0	110100480	59	4788
2026-01-02 03:36:40.53	35.36	8.48	-48.1	-50.8	13.6	4.50e-06	0	51	0	112197632	59	4789
2026-01-02 03:36:41.52	35.27	8.55	-48.2	-50.9	13.5	6.80e-06	0	51	0	114294784	59	4829
2026-01-02 03:36:42.51	35.19	8.62	-48.2	-51.0	13.4	1.29e-05	0	51	0	115343360	59	4884
2026-01-02 03:36:43.50	35.10	8.69	-48.2	-50.9	13.6	1.06e-05	0	51	0	117440512	58	5102
2026-01-02 03:36:44.49	35.02	8.76	-48.1	-50.7	13.7	7.60e-06	0	51	0	119537664	58	5031
2026-01-02 03:36:45.48	34.93	8.83	-48.2	-50.9	13.6	1.06e-05	0	51	0	121634816	58	5127
2026-01-02 03:36:46.46	34.84	8.90	-48.2	-51.0	13.5	7.60e-06	0	51	0	122683392	58	5165
2026-01-02 03:36:47.45	34.76	8.97	-48.2	-51.0	13.5	1.22e-05	0	51	0	124780544	58	5202
2026-01-02 03:36:48.44	34.67	9.04	-48.4	-51.2	13.3	2.21e-05	0	51	0	126877696	58	5310
2026-01-02 03:36:49.43	34.58	9.11	-48.3	-51.2	13.4	1.60e-05	0	51	0	128974848	58	5287
2026-01-02 03:36:50.41	34.49	9.18	-48.5	-51.4	13.1	1.29e-05	0	51	0	130023424	58	5424
2026-01-02 03:36:51.41	34.40	9.26	-48.3	-51.0	13.5	1.22e-05	0	51	0	132120576	58	5199
2026-01-02 03:36:52.39	34.31	9.33	-48.3	-51.1	13.4	9.90e-06	0	51	0	134217728	58	5274
2026-01-02 03:36:53.38	34.22	9.40	-48.4	-51.3	13.2	1.75e-05	0	51	0	136314880	58	5394
2026-01-02 03:36:54.38	34.13	9.47	-48.4	-51.3	13.2	1.29e-05	0	51	0	138412032	58	5341
2026-01-02 03:36:55.36	34.04	9.54	-48.5	-51.3	13.2	2.36e-05	0	51	0	139460608	58	5401
2026-01-02 03:36:56.35	33.95	9.61	-48.5	-51.4	13.1	2.59e-05	0	51	0	141557760	59	5132
2026-01-02 03:36:57.34	33.86	9.69	-48.7	-51.7	12.9	2.74e-05	0	51	0	143654912	59	5307
2026-01-02 03:36:58.33	33.76	9.76	-48.8	-51.8	12.7	7.17e-05	0	51	0	145752064	59	5395
2026-01-02 03:36:59.32	33.67	9.83	-48.6	-51.6	13.0	4.65e-05	0	51	0	146800640	59	5237
2026-01-02 03:37:00.31	33.58	9.90	-48.6	-51.7	12.9	4.19e-05	0	51	0	148897792	59	5306
2026-01-02 03:37:01.30	33.48	9.97	-48.9	-52.0	12.6	6.56e-05	0	52	0	150994944	59	5516
2026-01-02 03:37:02.29	33.39	10.05	-48.9	-52.1	12.5	9.23e-05	0	52	0	153092096	59	5559
2026-01-02 03:37:03.28	33.29	10.12	-48.9	-51.9	12.6	9.15e-05	0	52	0	154140672	59	5463
2026-01-02 03:37:04.27	33.20	10.19	-49.0	-52.2	12.4	1.01e-04	0	52	0	156237824	59	5606
2026-01-02 03:37:05.25	33.10	10.26	-49.0	-52.3	12.3	1.28e-04	0	52	0	158334976	59	5692
2026-01-02 03:37:06.24	33.01	10.34	-49.1	-52.6	12.0	2.62e-04	0	52	0	160432128	60	5547
2026-01-02 03:37:07.22	32.91	10.41	-49.0	-52.3	12.3	2.10e-04	0	52	0	162529280	60	5365
2026-01-02 03:37:08.21	32.81	10.48	-49.1	-52.5	12.1	1.90e-04	0	52	0	163577856	60	5497
2026-01-02 03:37:09.20	32.72	10.56	-49.3	-53.0	11.5	7.45e-04	0	52	0	165675008	60	5839
2026-01-02 03:37:10.19	32.62	10.63	-49.0	-52.2	12.3	2.75e-04	0	52	0	167772160	60	5334
2026-01-02 03:37:11.18	32.52	10.71	-48.8	-51.9	12.7	8.31e-05	0	52	0	169869312	60	5108
2026-01-02 03:37:12.17	32.42	10.78	-48.7	-51.7	12.9	4.80e-05	0	52	0	170917888	60	5015
2026-01-02 03:37:13.16	32.32	10.85	-48.5	-51.2	13.4	1.98e-05	0	52	0	173015040	59	5036
2026-01-02 03:37:14.15	32.22	10.93	-48.4	-51.1	13.6	9.90e-06	0	52	0	175112192	59	4936
2026-01-02 03:37:15.14	32.12	11.00	-48.5	-51.2	13.4	1.06e-05	0	52	0	177209344	59	5039
2026-01-02 03:37:16.13	32.02	11.08	-48.3	-51.0	13.6	1.22e-05	0	52	0	179306496	59	4924
2026-01-02 03:37:17.12	31.91	11.15	-48.2	-50.9	13.8	5.30e-06	0	52	0	180355072	59	4817
2026-01-02 03:37:18.10	31.81	11.22	-48.5	-51.3	13.4	1.06e-05	0	52	0	182452224	59	5044
2026-01-02 03:37:19.10	31.71	11.30	-48.5	-51.4	13.2	1.83e-05	0	52	0	184549376	59	5131
2026-01-02 03:37:20.08	31.60	11.37	-48.6	-51.5	13.2	2.13e-05	0	52	0	185597952	59	5164
2026-01-02 03:37:21.07	31.50	11.45	-48.3	-51.1	13.5	9.10e-06	0	52	0	187695104	59	4976
2026-01-02 03:37:22.05	31.40	11.52	-48.6	-51.4	13.2	1.29e-05	0	52	0	189792256	59	5127
2026-01-02 03:37:23.04	31.29	11.60	-48.8	-51.8	12.9	3.12e-05	0	52	0	191889408	59	5349
2026-01-02 03:37:24.03	31.19	11.68	-48.5	-51.5	13.2	3.20e-05	0	52	0	193986560	59	5162
2026-01-02 03:37:25.02	31.08	11.75	-48.3	-51.0	13.6	1.52e-05	0	52	0	195035136	59	4902
2026-01-02 03:37:26.01	30.97	11.83	-48.2	-50.9	13.8	8.30e-06	0	52	0	197132288	59	4830
2026-01-02 03:37:27.00	30.86	11.90	-48.2	-50.9	13.7	7.60e-06	0	52	0	199229440	59	4849
2026-01-02 03:37:27.99	30.76	11.98	-48.3	-51.1	13.6	7.00e-07	0	52	0	201326592	59	4938
2026-01-02 03:37:28.98	30.65	12.06	-48.4	-51.1	13.6	9.10e-06	0	53	0	202375168	59	4961
2026-01-02 03:37:29.96	30.54	12.13	-48.4	-51.1	13.5	8.30e-06	0	52	0	204472320	59	4957
2026-01-02 03:37:30.96	30.43	12.21	-48.4	-51.2	13.5	5.30e-06	0	53	0	206569472	59	4984
2026-01-02 03:37:31.95	30.32	12.29	-48.2	-50.8	13.8	7.60e-06	0	52	0	208666624	59	4808
2026-01-02 03:37:32.93	30.21	12.36	-48.4	-51.2	13.5	4.50e-06	0	52	0	209715200	59	5006
2026-01-02 03:37:33.92	30.09	12.44	-48.4	-51.1	13.5	1.60e-05	0	53	0	211812352	59	4973
2026-01-02 03:37:34.91	29.98	12.52	-48.4	-51.2	13.5	9.90e-06	0	53	0	213909504	59	4987
2026-01-02 03:37:35.90	29.87	12.59	-48.2	-50.9	13.8	1.50e-06	0	53	0	216006656	59	4824
2026-01-02 03:37:36.89	29.76	12.67	-48.3	-50.9	13.7	4.50e-06	0	53	0	218103808	59	4862
2026-01-02 03:37:37.89	29.64	12.75	-48.2	-50.8	13.8	3.00e-06	0	53	0	219152384	59	4802
2026-01-02 03:37:38.88	29.53	12.83	-48.2	-50.8	13.9	7.00e-07	0	53	0	221249536	59	4788
2026-01-02 03:37:39.87	29.41	12.90	-48.3	-51.0	13.7	5.30e-06	0	53	0	223346688	59	4905
2026-01-02 03:37:40.86	29.29	12.98	-48.3	-50.9	13.8	2.20e-06	0	53	0	225443840	59	4856
2026-01-02 03:37:41.85	29.18	13.06	-48.3	-50.9	13.8	4.50e-06	0	53	0	226492416	59	4837
2026-01-02 03:37:42.84	29.06	13.14	-48.4	-51.1	13.6	3.80e-06	0	53	0	228589568	59	4959
2026-01-02 03:37:43.83	28.94	13.22	-48.0	-50.5	14.2	7.60e-06	0	53	0	230686720	59	4631
2026-01-02 03:37:44.82	28.82	13.29	-48.1	-50.6	14.1	7.00e-07	0	53	0	232783872	58	4975
2026-01-02 03:37:45.81	28.70	13.37	-48.0	-50.5	14.2	7.00e-07	0	53	0	234881024	58	4919
2026-01-02 03:37:46.80	28.58	13.45	-48.0	-50.5	14.3	7.00e-07	0	53	0	235929600	58	4872
2026-01-02 03:37:47.78	28.46	13.53	-48.2	-50.7	14.1	0.00e+00	0	53	0	238026752	58	4986
2026-01-02 03:37:48.77	28.34	13.61	-48.2	-50.6	14.1	1.50e-06	0	53	0	240123904	58	4966
2026-01-02 03:37:49.76	28.22	13.69	-48.2	-50.6	14.1	0.00e+00	0	53	0	242221056	58	4977
2026-01-02 03:37:50.75	28.10	13.77	-48.3	-50.9	13.9	3.00e-06	0	53	0	243269632	58	5113
2026-01-02 03:37:51.74	27.97	13.85	-48.1	-50.7	14.0	6.10e-06	0	53	0	245366784	58	4997
2026-01-02 03:37:52.73	27.85	13.92	-48.2	-50.8	13.9	1.50e-06	0	53	0	247463936	58	5100
2026-01-02 03:37:53.72	27.73	14.00	-48.4	-51.0	13.8	2.20e-06	0	53	0	249561088	58	5169
2026-01-02 03:37:54.71	27.60	14.08	-48.5	-51.2	13.5	1.50e-06	0	53	0	250609664	58	5320
2026-01-02 03:37:55.69	27.48	14.16	-48.6	-51.3	13.4	1.90e-05	0	53	0	252706816	59	5079
2026-01-02 03:37:56.67	27.35	14.24	-48.5	-51.2	13.5	9.10e-06	0	53	0	254803968	59	5037
2026-01-02 03:37:57.67	27.22	14.32	-48.5	-51.3	13.5	2.20e-06	0	53	0	256901120	59	5043
2026-01-02 03:37:58.65	27.09	14.40	-48.6	-51.4	13.3	1.75e-05	0	53	0	258998272	59	5155
2026-01-02 03:37:59.64	26.97	14.48	-48.3	-50.9	13.9	1.75e-05	0	53	0	260046848	59	4827
2026-01-02 03:38:00.63	26.84	14.56	-48.5	-51.3	13.5	1.52e-05	0	53	0	262144000	59	5081
2026-01-02 03:38:01.62	26.71	14.64	-48.6	-51.5	13.3	1.83e-05	0	53	0	264241152	59	5167
2026-01-02 03:38:02.61	26.57	14.72	-48.7	-51.5	13.3	1.52e-05	0	53	0	266338304	59	5181
2026-01-02 03:38:03.60	26.44	14.80	-48.8	-51.8	13.0	3.89e-05	0	53	0	267386880	59	5365
2026-01-02 03:38:04.59	26.31	14.88	-48.9	-51.9	12.9	3.50e-05	0	53	0	269484032	59	5440
2026-01-02 03:38:05.58	26.18	14.97	-49.0	-52.0	12.8	6.25e-05	0	53	0	271581184	59	5513
2026-01-02 03:38:06.56	26.04	15.05	-49.0	-52.2	12.5	1.03e-04	0	53	0	273678336	60	5314
2026-01-02 03:38:07.55	25.91	15.13	-48.5	-51.2	13.4	5.03e-05	0	53	0	274726912	60	4749
2026-01-02 03:38:08.53	25.78	15.21	-48.3	-50.9	13.9	6.10e-06	0	53	0	276824064	59	4825
2026-01-02 03:38:09.52	25.64	15.29	-48.0	-50.4	14.3	7.00e-07	0	53	0	278921216	59	4577
2026-01-02 03:38:10.51	25.50	15.37	-47.6	-49.8	15.0	0.00e+00	0	53	0	281018368	58	4508
2026-01-02 03:38:11.50	25.37	15.45	-47.6	-49.8	15.0	0.00e+00	0	53	0	282066944	58	4495
2026-01-02 03:38:12.49	25.23	15.53	-47.6	-49.8	14.9	0.00e+00	0	54	0	284164096	58	4528
2026-01-02 03:38:13.49	25.09	15.62	-47.7	-49.9	14.8	0.00e+00	0	54	0	286261248	58	4563
2026-01-02 03:38:14.48	24.95	15.70	-47.8	-50.1	14.6	0.00e+00	0	54	0	288358400	58	4693
2026-01-02 03:38:15.47	24.80	15.78	-47.6	-49.9	14.9	0.00e+00	0	54	0	290455552	58	4574
2026-01-02 03:38:16.45	24.66	15.86	-47.7	-49.9	14.9	7.00e-07	0	54	0	291504128	58	4555
2026-01-02 03:38:17.44	24.52	15.94	-47.6	-49.7	15.0	0.00e+00	0	54	0	293601280	58	4480
2026-01-02 03:38:18.43	24.38	16.02	-47.1	-49.0	15.8	0.00e+00	0	53	0	295698432	57	4342
2026-01-02 03:38:19.42	24.23	16.11	-47.3	-49.3	15.5	0.00e+00	0	54	0	297795584	57	4534
2026-01-02 03:38:20.41	24.09	16.19	-47.3	-49.3	15.5	0.00e+00	0	54	0	298844160	57	4511
2026-01-02 03:38:21.41	23.94	16.27	-47.1	-49.0	15.8	0.00e+00	0	54	0	300941312	57	4349
2026-01-02 03:38:22.40	23.80	16.36	-47.1	-49.1	15.7	0.00e+00	0	54	0	303038464	56	4664
2026-01-02 03:38:23.39	23.65	16.44	-47.1	-49.0	15.8	0.00e+00	0	54	0	305135616	56	4636
2026-01-02 03:38:24.38	23.50	16.52	-47.1	-49.0	15.8	0.00e+00	0	54	0	306184192	56	4629
2026-01-02 03:38:25.37	23.35	16.60	-47.2	-49.2	15.6	0.00e+00	0	54	0	308281344	56	4731
2026-01-02 03:38:26.35	23.20	16.69	-46.9	-48.8	16.0	0.00e+00	0	54	0	310378496	56	4517
2026-01-02 03:38:27.34	23.05	16.77	-47.2	-49.2	15.6	7.00e-07	0	54	0	312475648	56	4744
2026-01-02 03:38:28.33	22.90	16.85	-47.2	-49.2	15.5	0.00e+00	0	54	0	314572800	56	4756
2026-01-02 03:38:29.32	22.75	16.93	-47.2	-49.1	15.7	0.00e+00	0	54	0	315621376	56	4656
2026-01-02 03:38:30.30	22.60	17.02	-47.1	-49.0	15.8	0.00e+00	0	54	0	317718528	56	4641
2026-01-02 03:38:31.29	22.44	17.10	-47.3	-49.3	15.5	0.00e+00	0	54	0	319815680	56	4795
2026-01-02 03:38:32.28	22.29	17.18	-47.3	-49.3	15.5	0.00e+00	0	54	0	321912832	56	4789
2026-01-02 03:38:33.28	22.13	17.27	-47.2	-49.2	15.6	0.00e+00	0	54	0	322961408	56	4737
2026-01-02 03:38:34.27	21.97	17.35	-47.2	-49.2	15.6	0.00e+00	0	54	0	325058560	56	4717
2026-01-02 03:38:35.25	21.82	17.43	-47.6	-49.7	15.1	0.00e+00	0	54	0	327155712	57	4749
2026-01-02 03:38:36.24	21.66	17.52	-47.7	-50.0	14.8	0.00e+00	0	54	0	329252864	57	4871
2026-01-02 03:38:37.22	21.50	17.60	-47.6	-49.8	15.1	0.00e+00	0	54	0	330301440	57	4777
2026-01-02 03:38:38.21	21.34	17.68	-47.7	-49.9	14.9	0.00e+00	0	54	0	332398592	57	4842
2026-01-02 03:38:39.20	21.18	17.77	-47.6	-49.8	15.0	0.00e+00	0	54	0	334495744	57	4775
2026-01-02 03:38:40.19	21.02	17.85	-47.6	-49.7	15.1	0.00e+00	0	54	0	336592896	57	4753
2026-01-02 03:38:41.18	20.85	17.94	-47.5	-49.6	15.2	0.00e+00	0	54	0	338690048	57	4685
2026-01-02 03:38:42.17	20.69	18.02	-47.6	-49.8	15.0	0.00e+00	0	54	0	339738624	57	4800
2026-01-02 03:38:43.16	20.53	18.10	-47.6	-49.8	14.9	0.00e+00	0	54	0	341835776	57	4811
2026-01-02 03:38:44.15	20.36	18.19	-47.4	-49.4	15.4	0.00e+00	0	54	0	343932928	57	4590
2026-01-02 03:38:45.15	20.19	18.27	-47.2	-49.1	15.7	0.00e+00	0	54	0	346030080	57	4436
2026-01-02 03:38:46.14	20.02	18.36	-47.2	-49.2	15.5	0.00e+00	0	54	0	347078656	57	4480
2026-01-02 03:38:47.12	19.86	18.44	-47.0	-49.0	15.8	0.00e+00	0	54	0	349175808	57	4378
2026-01-02 03:38:48.12	19.69	18.52	-47.1	-49.0	15.8	0.00e+00	0	54	0	351272960	57	4342
2026-01-02 03:38:49.11	19.52	18.61	-47.1	-49.0	15.8	0.00e+00	0	54	0	353370112	57	4356
2026-01-02 03:38:50.10	19.34	18.69	-47.1	-49.1	15.8	0.00e+00	0	54	0	355467264	57	4403
2026-01-02 03:38:51.09	19.17	18.78	-47.4	-49.4	15.4	0.00e+00	0	54	0	356515840	57	4578
2026-01-02 03:38:52.08	19.00	18.86	-47.4	-49.5	15.3	0.00e+00	0	54	0	358612992	57	4646
2026-01-02 03:38:53.07	18.82	18.94	-47.6	-49.8	15.1	0.00e+00	0	54	0	360710144	57	4761
2026-01-02 03:38:54.06	18.65	19.03	-47.6	-49.8	15.0	0.00e+00	0	54	0	362807296	57	4808
2026-01-02 03:38:55.05	18.47	19.11	-47.8	-50.2	14.7	0.00e+00	0	54	0	363855872	57	4992
2026-01-02 03:38:56.04	18.29	19.20	-47.7	-49.9	14.8	0.00e+00	0	54	0	365953024	57	4855
2026-01-02 03:38:57.03	18.12	19.28	-47.8	-50.1	14.7	0.00e+00	0	54	0	368050176	57	4964
2026-01-02 03:38:58.02	17.94	19.36	-48.1	-50.5	14.4	0.00e+00	0	54	0	370147328	57	5187
2026-01-02 03:38:59.02	17.75	19.45	-47.9	-50.2	14.6	7.00e-07	0	54	0	371195904	58	4734
2026-01-02 03:39:00.01	17.57	19.53	-48.0	-50.4	14.5	7.00e-07	0	55	0	373293056	58	4833
2026-01-02 03:39:01.00	17.39	19.62	-48.1	-50.5	14.4	7.00e-07	0	55	0	375390208	58	4886
2026-01-02 03:39:01.98	17.21	19.70	-48.0	-50.3	14.6	1.50e-06	0	54	0	377487360	58	4774
2026-01-02 03:39:02.98	17.02	19.79	-47.9	-50.2	14.7	0.00e+00	0	54	0	378535936	58	4713
2026-01-02 03:39:03.97	16.84	19.87	-47.9	-50.2	14.6	0.00e+00	0	55	0	380633088	58	4732
2026-01-02 03:39:04.96	16.65	19.95	-47.9	-50.2	14.7	0.00e+00	0	55	0	382730240	58	4714
2026-01-02 03:39:05.95	16.46	20.04	-47.6	-49.9	15.0	0.00e+00	0	55	0	384827392	58	4557
2026-01-02 03:39:06.94	16.27	20.12	-47.5	-49.5	15.3	0.00e+00	0	55	0	386924544	57	4630
2026-01-02 03:39:07.94	16.08	20.21	-47.5	-49.7	15.2	0.00e+00	0	55	0	387973120	57	4707
2026-01-02 03:39:08.93	15.89	20.29	-47.3	-49.3	15.4	0.00e+00	0	55	0	390070272	57	4542
2026-01-02 03:39:09.91	15.70	20.37	-47.7	-49.9	14.9	0.00e+00	0	55	0	392167424	57	4833
2026-01-02 03:39:10.91	15.51	20.46	-47.5	-49.6	15.2	0.00e+00	0	55	0	394264576	57	4685
2026-01-02 03:39:11.90	15.31	20.54	-47.7	-49.9	15.0	0.00e+00	0	55	0	395313152	57	4841
2026-01-02 03:39:12.89	15.12	20.62	-47.7	-50.0	14.9	7.00e-07	0	54	0	397410304	57	4885
2026-01-02 03:39:13.88	14.92	20.71	-47.8	-50.0	14.9	0.00e+00	0	55	0	399507456	57	4896
2026-01-02 03:39:14.86	14.73	20.79	-47.9	-50.2	14.7	0.00e+00	0	55	0	401604608	57	4998
2026-01-02 03:39:15.84	14.53	20.87	-47.8	-50.1	14.8	0.00e+00	0	55	0	403701760	57	4929
2026-01-02 03:39:16.83	14.33	20.96	-47.9	-50.2	14.8	0.00e+00	0	55	0	404750336	57	4988
2026-01-02 03:39:17.82	14.13	21.04	-47.7	-49.9	15.0	0.00e+00	0	55	0	406847488	57	4844
2026-01-02 03:39:18.79	13.93	21.12	-47.4	-49.4	15.5	7.00e-07	0	55	0	408944640	57	4589
2026-01-02 03:39:19.78	13.73	21.20	-47.4	-49.4	15.4	0.00e+00	0	55	0	411041792	57	4582
2026-01-02 03:39:20.77	13.53	21.29	-47.2	-49.1	15.8	0.00e+00	0	55	0	412090368	57	4425
2026-01-02 03:39:21.76	13.32	21.37	-47.1	-49.0	15.9	0.00e+00	0	55	0	414187520	57	4360
2026-01-02 03:39:22.75	13.12	21.45	-47.3	-49.3	15.6	0.00e+00	0	55	0	416284672	57	4514
2026-01-02 03:39:23.74	12.91	21.53	-47.5	-49.5	15.3	0.00e+00	0	55	0	418381824	57	4649
2026-01-02 03:39:24.74	12.70	21.62	-47.7	-49.8	15.1	0.00e+00	0	55	0	419430400	57	4789
2026-01-02 03:39:25.72	12.49	21.70	-47.6	-49.7	15.2	0.00e+00	0	55	0	421527552	57	4755
2026-01-02 03:39:26.71	12.28	21.78	-47.5	-49.5	15.3	0.00e+00	0	55	0	423624704	57	4624
2026-01-02 03:39:27.70	12.07	21.86	-47.8	-50.0	14.9	0.00e+00	0	55	0	425721856	57	4874
2026-01-02 03:39:28.69	11.86	21.94	-47.3	-49.4	15.4	0.00e+00	0	55	0	427819008	57	4567
2026-01-02 03:39:29.67	11.65	22.02	-47.4	-49.4	15.5	0.00e+00	0	55	0	428867584	57	4590
2026-01-02 03:39:30.66	11.43	22.10	-47.2	-49.2	15.7	0.00e+00	0	55	0	430964736	57	4476
2026-01-02 03:39:31.64	11.22	22.18	-47.5	-49.6	15.3	7.00e-07	0	55	0	433061888	57	4664
2026-01-02 03:39:32.63	11.00	22.27	-47.4	-49.5	15.4	0.00e+00	0	55	0	435159040	57	4601
2026-01-02 03:39:33.62	10.78	22.35	-47.0	-48.9	15.9	0.00e+00	0	55	0	436207616	57	4311
2026-01-02 03:39:34.62	10.56	22.43	-46.7	-48.5	16.2	0.00e+00	0	55	0	438304768	56	4381
2026-01-02 03:39:35.60	10.34	22.51	-46.2	-47.8	16.8	0.00e+00	0	55	0	440401920	55	4280
2026-01-02 03:39:36.59	10.12	22.59	-46.3	-47.9	16.7	0.00e+00	0	55	0	442499072	55	4323
2026-01-02 03:39:37.58	9.90	22.67	-46.1	-47.7	16.8	0.00e+00	0	55	0	443547648	55	4218
2026-01-02 03:39:38.56	9.67	22.75	-46.3	-47.9	16.5	0.00e+00	0	55	0	445644800	55	4340
2026-01-02 03:39:39.55	9.45	22.83	-46.7	-48.7	15.8	0.00e+00	0	55	0	447741952	55	4711
2026-01-02 03:39:40.53	9.22	22.90	-47.3	-49.6	14.8	0.00e+00	0	55	0	449839104	56	4965
2026-01-02 03:39:41.53	8.99	22.98	-47.7	-50.2	14.2	0.00e+00	0	55	0	450887680	57	5000
2026-01-02 03:39:42.52	8.77	23.06	-47.7	-50.2	14.1	0.00e+00	0	55	0	452984832	57	5016
2026-01-02 03:39:43.51	8.54	23.14	-47.9	-50.6	13.6	4.50e-06	0	55	0	455081984	57	5274
2026-01-02 03:39:44.50	8.30	23.22	-48.3	-51.4	12.7	3.28e-05	0	55	0	457179136	58	5459
2026-01-02 03:39:45.49	8.07	23.30	-48.5	-51.9	12.1	1.91e-04	0	55	0	459276288	58	5768
2026-01-02 03:39:46.48	7.84	23.37	-48.7	-52.4	11.3	3.55e-04	0	55	0	460324864	59	5786
2026-01-02 03:39:47.46	7.61	23.45	-48.8	-52.8	10.8	2.49e-03	0	55	0	462422016	59	6040
2026-01-02 03:39:48.46	7.37	23.53	-48.5	-52.1	11.4	1.69e-03	0	55	0	464519168	59	5580
2026-01-02 03:39:49.44	7.13	23.61	-48.3	-51.7	11.8	8.60e-04	0	55	0	466616320	59	5326
2026-01-02 03:39:50.42	6.90	23.68	-48.0	-51.2	12.4	3.03e-04	0	55	0	467664896	59	5013
2026-01-02 03:39:51.42	6.66	23.76	-47.8	-50.6	13.2	4.88e-05	0	55	0	469762048	57	5248
2026-01-02 03:39:52.40	6.42	23.83	-47.6	-50.2	13.9	3.80e-06	0	55	0	471859200	57	4996
2026-01-02 03:39:53.39	6.18	23.91	-47.5	-49.8	14.4	1.50e-06	0	55	0	473956352	57	4799
2026-01-02 03:39:54.38	5.93	23.98	-47.4	-49.5	14.9	0.00e+00	0	55	0	475004928	56	4924
2026-01-02 03:39:55.37	5.69	24.06	-47.7	-50.0	14.7	7.00e-07	0	55	0	477102080	57	4872
2026-01-02 03:39:56.35	5.45	24.13	-47.6	-49.8	14.9	7.00e-07	0	55	0	479199232	57	4796
2026-01-02 03:39:57.35	5.20	24.21	-47.2	-49.2	15.4	7.00e-07	0	55	0	481296384	56	4729
2026-01-02 03:39:58.34	4.95	24.28	-47.4	-49.6	14.8	0.00e+00	0	55	0	483393536	56	4962
2026-01-02 03:39:59.32	4.70	24.35	-47.9	-50.5	13.8	7.00e-07	0	55	0	484442112	57	5193
2026-01-02 03:40:00.30	4.46	24.43	-48.8	-52.5	11.3	1.74e-04	0	55	0	486539264	59	5833
2026-01-02 03:40:01.29	4.21	24.50	-49.1	-53.9	9.6	2.75e-03	0	55	0	488636416	60	6430
2026-01-02 03:40:02.28	3.95	24.57	-49.4	-54.8	8.6	3.75e-02	0	55	0	490733568	60	7133
2026-01-02 03:40:03.26	3.70	24.64	-49.2	-54.1	9.3	3.13e-02	0	55	0	491782144	60	6571
2026-01-02 03:40:04.26	3.45	24.71	-48.7	-52.6	10.9	8.88e-03	0	55	0	493879296	60	5558
2026-01-02 03:40:05.25	3.19	24.78	-47.9	-50.7	13.2	5.95e-04	0	55	0	495976448	59	4731
2026-01-02 03:40:06.24	2.93	24.85	-47.0	-49.0	15.3	0.00e+00	0	55	0	498073600	57	4363
2026-01-02 03:40:07.24	2.67	24.93	-46.5	-48.2	16.4	0.00e+00	0	55	0	499122176	56	4196
2026-01-02 03:40:08.22	2.42	24.99	-46.3	-48.0	16.7	0.00e+00	0	55	0	501219328	55	4352
2026-01-02 03:40:09.21	2.16	25.06	-46.5	-48.1	16.6	0.00e+00	0	55	0	503316480	55	4434
2026-01-02 03:40:10.21	1.89	25.13	-46.3	-47.8	16.9	0.00e+00	0	55	0	505413632	55	4289
2026-01-02 03:40:11.20	1.63	25.20	-46.4	-48.0	16.8	0.00e+00	0	55	0	507510784	55	4347
2026-01-02 03:40:12.18	1.37	25.27	-46.6	-48.4	16.3	0.00e+00	0	55	0	508559360	55	4566
2026-01-02 03:40:13.16	1.10	25.33	-46.5	-48.1	16.6	0.00e+00	0	55	0	510656512	55	4435
2026-01-02 03:40:14.15	0.84	25.40	-47.2	-49.1	15.8	0.00e+00	0	55	0	512753664	56	4702
2026-01-02 03:40:15.14	0.57	25.47	-47.2	-49.2	15.8	0.00e+00	0	55	0	514850816	56	4718
2026-01-02 03:40:16.13	0.30	25.53	-47.4	-49.5	15.4	0.00e+00	0	55	0	515899392	56	4903
2026-01-02 03:40:17.11	0.04	25.60	-47.6	-49.7	15.2	0.00e+00	0	55	0	517996544	57	4755
2026-01-02 03:40:18.10	359.77	25.66	-47.2	-49.2	15.8	0.00e+00	0	55	0	520093696	57	4458
2026-01-02 03:40:19.09	359.49	25.73	-47.0	-48.9	16.1	0.00e+00	0	55	0	522190848	57	4292
2026-01-02 03:40:20.08	359.22	25.79	-47.0	-48.8	16.1	0.00e+00	0	55	0	523239424	56	4534
2026-01-02 03:40:21.07	358.95	25.85	-47.4	-49.4	15.6	0.00e+00	0	55	0	525336576	56	4837
2026-01-02 03:40:22.06	358.67	25.91	-47.4	-49.5	15.4	0.00e+00	0	55	0	527433728	56	4892
2026-01-02 03:40:23.06	358.39	25.98	-47.5	-49.6	15.3	0.00e+00	0	55	0	529530880	56	4972
2026-01-02 03:40:24.05	358.12	26.04	-47.1	-49.0	15.9	0.00e+00	0	55	0	531628032	56	4647
2026-01-02 03:40:25.04	357.84	26.10	-46.9	-48.7	16.2	0.00e+00	0	55	0	532676608	56	4448
2026-01-02 03:40:26.02	357.56	26.16	-46.6	-48.4	16.5	0.00e+00	0	55	0	534773760	56	4292
2026-01-02 03:40:27.01	357.28	26.22	-46.7	-48.4	16.6	0.00e+00	0	55	0	536870912	56	4309
2026-01-02 03:40:27.99	357.00	26.27	-46.9	-48.6	16.4	0.00e+00	0	56	0	538968064	56	4419
2026-01-02 03:40:28.98	356.72	26.33	-46.7	-48.4	16.5	0.00e+00	0	55	0	540016640	56	4335
2026-01-02 03:40:29.96	356.44	26.39	-46.6	-48.3	16.7	0.00e+00	0	55	0	542113792	56	4243
2026-01-02 03:40:30.96	356.15	26.45	-46.6	-48.2	16.7	0.00e+00	0	55	0	544210944	56	4238
2026-01-02 03:40:31.94	355.87	26.50	-46.6	-48.3	16.7	0.00e+00	0	55	0	546308096	56	4256
2026-01-02 03:40:32.93	355.58	26.56	-46.8	-48.6	16.4	0.00e+00	0	56	0	547356672	56	4397
2026-01-02 03:40:33.92	355.30	26.61	-46.7	-48.3	16.7	0.00e+00	0	55	0	549453824	56	4291
2026-01-02 03:40:34.91	355.01	26.67	-46.3	-47.9	16.9	0.00e+00	0	55	0	551550976	55	4307
2026-01-02 03:40:35.90	354.72	26.72	-46.3	-47.9	16.9	0.00e+00	0	55	0	553648128	55	4316
2026-01-02 03:40:36.90	354.42	26.77	-46.4	-48.0	16.8	0.00e+00	0	56	0	554696704	55	4384
2026-01-02 03:40:37.89	354.13	26.82	-46.7	-48.4	16.4	0.00e+00	0	56	0	556793856	55	4560
2026-01-02 03:40:38.87	353.84	26.88	-46.4	-48.0	16.8	0.00e+00	0	55	0	558891008	55	4377
2026-01-02 03:40:39.86	353.55	26.93	-46.4	-48.0	16.8	0.00e+00	0	56	0	560988160	55	4374
2026-01-02 03:40:40.85	353.26	26.98	-46.5	-48.1	16.7	0.00e+00	0	55	0	563085312	55	4406
2026-01-02 03:40:41.84	352.96	27.02	-46.7	-48.5	16.3	0.00e+00	0	55	0	564133888	55	4610
2026-01-02 03:40:42.83	352.66	27.07	-47.0	-48.9	16.0	0.00e+00	0	56	0	566231040	55	4816
2026-01-02 03:40:43.82	352.37	27.12	-46.9	-48.7	16.2	0.00e+00	0	56	0	568328192	55	4740
2026-01-02 03:40:44.81	352.07	27.17	-47.1	-48.9	16.0	0.00e+00	0	56	0	570425344	55	4858
2026-01-02 03:40:45.80	351.77	27.21	-47.0	-48.9	16.1	0.00e+00	0	56	0	571473920	56	4546
2026-01-02 03:40:46.79	351.47	27.26	-47.2	-49.2	15.8	0.00e+00	0	56	0	573571072	56	4707
2026-01-02 03:40:47.78	351.17	27.30	-47.2	-49.1	15.9	0.00e+00	0	56	0	575668224	56	4661
2026-01-02 03:40:48.77	350.87	27.34	-47.4	-49.5	15.5	0.00e+00	0	56	0	577765376	56	4881
2026-01-02 03:40:49.76	350.57	27.39	-47.6	-49.8	15.2	0.00e+00	0	56	0	578813952	57	4760
2026-01-02 03:40:50.74	350.27	27.43	-47.8	-50.1	14.9	0.00e+00	0	56	0	580911104	57	4928
2026-01-02 03:40:51.72	349.97	27.47	-47.6	-49.7	15.2	0.00e+00	0	56	0	583008256	57	4736
2026-01-02 03:40:52.71	349.66	27.51	-47.4	-49.3	15.6	0.00e+00	0	56	0	585105408	57	4531
2026-01-02 03:40:53.70	349.36	27.55	-47.1	-49.0	15.9	0.00e+00	0	56	0	587202560	57	4344
2026-01-02 03:40:54.69	349.05	27.59	-47.2	-49.2	15.8	0.00e+00	0	56	0	588251136	56	4708
2026-01-02 03:40:55.67	348.75	27.62	-47.3	-49.3	15.7	0.00e+00	0	56	0	590348288	56	4786
2026-01-02 03:40:56.65	348.44	27.66	-47.5	-49.5	15.5	0.00e+00	0	56	0	592445440	56	4881
2026-01-02 03:40:57.65	348.13	27.70	-47.5	-49.6	15.4	0.00e+00	0	56	0	594542592	57	4667
2026-01-02 03:40:58.63	347.83	27.73	-47.5	-49.5	15.4	0.00e+00	0	56	0	595591168	57	4643
2026-01-02 03:40:59.62	347.52	27.77	-47.6	-49.7	15.3	0.00e+00	0	56	0	597688320	57	4712
2026-01-02 03:41:00.61	347.21	27.80	-47.7	-49.8	15.2	0.00e+00	0	56	0	599785472	57	4774
2026-01-02 03:41:01.60	346.90	27.83	-48.0	-50.2	14.8	0.00e+00	0	56	0	601882624	57	5013
2026-01-02 03:41:02.59	346.58	27.86	-48.3	-50.8	14.2	2.20e-06	0	56	0	602931200	58	5086
2026-01-02 03:41:03.58	346.27	27.89	-48.6	-51.3	13.7	4.50e-06	0	56	0	605028352	59	5060
2026-01-02 03:41:04.57	345.96	27.92	-48.7	-51.6	13.4	1.06e-05	0	56	0	607125504	59	5241
2026-01-02 03:41:05.56	345.65	27.95	-48.9	-51.8	13.2	1.83e-05	0	56	0	609222656	59	5394
2026-01-02 03:41:06.55	345.33	27.98	-48.5	-51.2	13.8	4.50e-06	0	56	0	610271232	59	4996
2026-01-02 03:41:07.54	345.02	28.01	-48.3	-50.8	14.1	4.50e-06	0	56	0	612368384	59	4812
2026-01-02 03:41:08.53	344.70	28.03	-48.3	-50.8	14.1	3.00e-06	0	56	0	614465536	59	4804
2026-01-02 03:41:09.52	344.39	28.06	-48.4	-50.9	14.1	7.00e-07	0	56	0	616562688	59	4845
2026-01-02 03:41:10.51	344.07	28.08	-48.4	-51.0	14.0	6.10e-06	0	56	0	618659840	59	4917
2026-01-02 03:41:11.49	343.76	28.10	-48.5	-51.1	14.0	2.20e-06	0	56	0	619708416	59	4938
2026-01-02 03:41:12.48	343.44	28.13	-48.5	-51.1	13.9	1.06e-05	0	56	0	621805568	59	4935
2026-01-02 03:41:13.48	343.12	28.15	-48.1	-50.5	14.4	7.00e-07	0	56	0	623902720	59	4632
2026-01-02 03:41:14.46	342.81	28.17	-47.9	-50.2	14.7	0.00e+00	0	56	0	625999872	59	4452
2026-01-02 03:41:15.45	342.49	28.19	-47.9	-50.3	14.7	0.00e+00	0	56	0	627048448	58	4768
2026-01-02 03:41:16.44	342.17	28.20	-48.0	-50.3	14.6	0.00e+00	0	56	0	629145600	58	4805
2026-01-02 03:41:17.43	341.85	28.22	-47.9	-50.3	14.7	0.00e+00	0	56	0	631242752	58	4779
2026-01-02 03:41:18.42	341.53	28.24	-48.2	-50.7	14.2	7.00e-07	0	56	0	633339904	58	5026
2026-01-02 03:41:19.41	341.21	28.25	-48.4	-51.0	14.0	3.80e-06	0	56	0	634388480	58	5192
2026-01-02 03:41:20.40	340.89	28.27	-48.2	-50.6	14.3	7.00e-07	0	56	0	636485632	58	4956
2026-01-02 03:41:21.40	340.57	28.28	-47.7	-49.9	15.0	0.00e+00	0	56	0	638582784	58	4595
2026-01-02 03:41:22.39	340.25	28.29	-47.5	-49.5	15.3	0.00e+00	0	56	0	640679936	58	4391
2026-01-02 03:41:23.39	339.93	28.30	-47.6	-49.8	15.1	0.00e+00	0	56	0	642777088	58	4536
2026-01-02 03:41:24.38	339.61	28.32	-47.9	-50.3	14.6	0.00e+00	0	56	0	643825664	58	4810
2026-01-02 03:41:25.36	339.29	28.32	-48.2	-50.8	14.0	0.00e+00	0	56	0	645922816	58	5100
2026-01-02 03:41:26.36	338.96	28.33	-48.5	-51.3	13.7	6.80e-06	0	56	0	648019968	58	5355
2026-01-02 03:41:27.34	338.65	28.34	-48.5	-51.5	13.5	6.10e-06	0	56	0	650117120	59	5169
2026-01-02 03:41:28.33	338.32	28.35	-48.4	-51.0	13.9	3.00e-06	0	56	0	651165696	59	4914
2026-01-02 03:41:29.31	338.01	28.35	-47.8	-50.0	14.9	7.00e-07	0	56	0	653262848	58	4602
2026-01-02 03:41:30.30	337.68	28.36	-47.4	-49.4	15.5	0.00e+00	0	56	0	655360000	57	4552
2026-01-02 03:41:31.28	337.37	28.36	-47.1	-49.0	16.0	0.00e+00	0	56	0	657457152	57	4361
2026-01-02 03:41:32.27	337.04	28.36	-47.0	-48.8	16.1	0.00e+00	0	56	0	658505728	57	4275
2026-01-02 03:41:33.26	336.72	28.36	-47.3	-49.3	15.7	0.00e+00	0	56	0	660602880	57	4504
2026-01-02 03:41:34.25	336.40	28.36	-47.5	-49.6	15.5	0.00e+00	0	56	0	662700032	57	4657
2026-01-02 03:41:35.24	336.08	28.36	-47.8	-50.0	15.0	0.00e+00	0	56	0	664797184	57	4888
2026-01-02 03:41:36.23	335.76	28.36	-48.0	-50.4	14.6	1.50e-06	0	56	0	666894336	57	5106
2026-01-02 03:41:37.22	335.43	28.36	-48.3	-50.7	14.2	7.00e-07	0	56	0	667942912	58	5035
2026-01-02 03:41:38.21	335.11	28.35	-48.3	-50.7	14.3	0.00e+00	0	56	0	670040064	58	5040
2026-01-02 03:41:39.20	334.79	28.35	-48.3	-50.7	14.3	1.50e-06	0	56	0	672137216	58	5015
2026-01-02 03:41:40.19	334.47	28.34	-48.1	-50.4	14.6	0.00e+00	0	56	0	674234368	58	4864
2026-01-02 03:41:41.17	334.15	28.34	-47.6	-49.7	15.3	7.00e-07	0	56	0	675282944	58	4480
2026-01-02 03:41:42.16	333.83	28.33	-47.2	-49.2	15.8	0.00e+00	0	56	0	677380096	57	4477
2026-01-02 03:41:43.15	333.51	28.32	-47.2	-49.0	15.9	0.00e+00	0	56	0	679477248	57	4391
2026-01-02 03:41:44.15	333.19	28.31	-47.4	-49.4	15.7	0.00e+00	0	56	0	681574400	57	4551
2026-01-02 03:41:45.14	332.86	28.30	-47.7	-49.8	15.3	0.00e+00	0	56	0	683671552	57	4779
2026-01-02 03:41:46.13	332.54	28.29	-47.9	-50.1	14.9	0.00e+00	0	56	0	684720128	57	4978
2026-01-02 03:41:47.11	332.23	28.28	-47.9	-50.1	14.9	0.00e+00	0	56	0	686817280	57	4934
2026-01-02 03:41:48.09	331.91	28.26	-47.8	-50.0	15.0	0.00e+00	0	56	0	688914432	57	4913
2026-01-02 03:41:49.08	331.59	28.25	-48.0	-50.3	14.6	0.00e+00	0	56	0	689963008	58	4795
2026-01-02 03:41:50.07	331.27	28.23	-47.8	-50.0	15.0	0.00e+00	0	56	0	692060160	58	4603
2026-01-02 03:41:51.05	330.96	28.22	-47.6	-49.6	15.5	0.00e+00	0	56	0	694157312	58	4418
2026-01-02 03:41:52.04	330.64	28.20	-47.5	-49.5	15.5	0.00e+00	0	56	0	696254464	57	4649
2026-01-02 03:41:53.03	330.32	28.18	-47.3	-49.2	15.8	0.00e+00	0	56	0	698351616	57	4488
2026-01-02 03:41:54.01	330.00	28.16	-47.1	-49.0	16.0	0.00e+00	0	56	0	699400192	57	4377
2026-01-02 03:41:55.01	329.68	28.14	-47.2	-49.1	15.9	0.00e+00	0	56	0	701497344	57	4414
2026-01-02 03:41:55.99	329.37	28.12	-46.7	-48.4	16.5	0.00e+00	0	56	0	703594496	56	4333
2026-01-02 03:41:56.98	329.05	28.10	-46.7	-48.3	16.7	0.00e+00	0	56	0	705691648	56	4286
2026-01-02 03:41:57.97	328.74	28.07	-46.6	-48.2	16.8	0.00e+00	0	56	0	706740224	56	4208
2026-01-02 03:41:58.96	328.42	28.05	-46.6	-48.3	16.6	0.00e+00	0	56	0	708837376	55	4537
2026-01-02 03:41:59.95	328.10	28.02	-46.9	-48.7	16.2	0.00e+00	0	56	0	710934528	55	4733
2026-01-02 03:42:00.93	327.79	28.00	-46.8	-48.5	16.3	0.00e+00	0	56	0	713031680	55	4644
2026-01-02 03:42:01.93	327.48	27.97	-46.8	-48.6	16.3	0.00e+00	0	56	0	714080256	55	4656
2026-01-02 03:42:02.92	327.16	27.94	-46.7	-48.5	16.4	0.00e+00	0	56	0	716177408	55	4613
2026-01-02 03:42:03.91	326.85	27.91	-46.5	-48.1	16.8	0.00e+00	0	56	0	718274560	55	4424
2026-01-02 03:42:04.89	326.54	27.88	-46.9	-48.7	16.3	0.00e+00	0	56	0	720371712	55	4706
2026-01-02 03:42:05.88	326.23	27.85	-46.9	-48.7	16.2	0.00e+00	0	56	0	722468864	55	4711
2026-01-02 03:42:06.88	325.91	27.82	-47.0	-48.8	16.1	0.00e+00	0	56	0	723517440	55	4794
2026-01-02 03:42:07.86	325.61	27.79	-47.2	-49.1	15.9	0.00e+00	0	56	0	725614592	56	4671
2026-01-02 03:42:08.85	325.30	27.75	-47.5	-49.4	15.6	0.00e+00	0	56	0	727711744	56	4864
2026-01-02 03:42:09.84	324.99	27.72	-47.7	-49.8	15.3	0.00e+00	0	56	0	729808896	57	4763
2026-01-02 03:42:10.82	324.68	27.68	-47.6	-49.7	15.3	0.00e+00	0	56	0	730857472	57	4736
2026-01-02 03:42:11.82	324.37	27.65	-47.7	-49.8	15.2	0.00e+00	0	56	0	732954624	57	4787
2026-01-02 03:42:12.81	324.06	27.61	-47.8	-49.9	15.2	0.00e+00	0	56	0	735051776	57	4854
2026-01-02 03:42:13.80	323.75	27.57	-47.8	-49.8	15.2	0.00e+00	0	56	0	737148928	57	4814
2026-01-02 03:42:14.79	323.45	27.53	-48.0	-50.3	14.8	0.00e+00	0	56	0	739246080	57	5049
2026-01-02 03:42:15.78	323.14	27.49	-48.4	-50.9	14.1	7.00e-07	0	56	0	740294656	58	5125
2026-01-02 03:42:16.77	322.84	27.45	-48.5	-51.0	14.0	3.80e-06	0	56	0	742391808	59	4910
2026-01-02 03:42:17.75	322.54	27.41	-48.4	-50.9	14.1	7.00e-07	0	56	0	744488960	59	4852
2026-01-02 03:42:18.73	322.24	27.37	-48.3	-50.7	14.4	0.00e+00	0	56	0	746586112	59	4735
2026-01-02 03:42:19.73	321.93	27.33	-48.3	-50.7	14.4	0.00e+00	0	56	0	747634688	59	4712
2026-01-02 03:42:20.71	321.64	27.28	-47.9	-50.0	15.1	7.00e-07	0	56	0	749731840	58	4605
2026-01-02 03:42:21.70	321.34	27.24	-47.6	-49.5	15.5	0.00e+00	0	56	0	751828992	58	4372
2026-01-02 03:42:22.68	321.04	27.19	-47.6	-49.6	15.4	0.00e+00	0	56	0	753926144	58	4416
2026-01-02 03:42:23.67	320.74	27.15	-47.6	-49.6	15.5	0.00e+00	0	56	0	754974720	58	4397
2026-01-02 03:42:24.66	320.44	27.10	-47.6	-49.5	15.5	0.00e+00	0	56	0	757071872	58	4372
2026-01-02 03:42:25.64	320.15	27.05	-47.5	-49.4	15.7	0.00e+00	0	56	0	759169024	58	4310
2026-01-02 03:42:26.63	319.85	27.01	-47.5	-49.6	15.5	0.00e+00	0	56	0	761266176	58	4402
2026-01-02 03:42:27.62	319.56	26.96	-47.2	-49.1	16.0	0.00e+00	0	56	0	762314752	57	4410
2026-01-02 03:42:28.61	319.26	26.91	-47.1	-49.0	16.0	0.00e+00	0	56	0	764411904	57	4342
2026-01-02 03:42:29.59	318.97	26.86	-47.1	-48.9	16.1	0.00e+00	0	56	0	766509056	57	4328
2026-01-02 03:42:30.57	318.68	26.81	-47.3	-49.3	15.8	0.00e+00	0	56	0	768606208	57	4505
2026-01-02 03:42:31.57	318.39	26.75	-47.3	-49.3	15.9	0.00e+00	0	56	0	769654784	57	4517
2026-01-02 03:42:32.55	318.10	26.70	-47.5	-49.5	15.6	0.00e+00	0	56	0	771751936	57	4619
2026-01-02 03:42:33.54	317.81	26.65	-47.6	-49.6	15.5	0.00e+00	0	56	0	773849088	57	4662
2026-01-02 03:42:34.53	317.52	26.59	-47.9	-50.1	14.9	0.00e+00	0	56	0	775946240	58	4699
2026-01-02 03:42:35.53	317.23	26.54	-47.9	-50.2	14.9	0.00e+00	0	56	0	778043392	58	4710
2026-01-02 03:42:36.52	316.95	26.48	-47.8	-50.0	15.0	0.00e+00	0	56	0	779091968	57	4908
2026-01-02 03:42:37.51	316.66	26.42	-47.8	-50.0	15.1	7.00e-07	0	56	0	781189120	57	4873
2026-01-02 03:42:38.50	316.38	26.37	-47.9	-50.1	14.9	7.00e-07	0	56	0	783286272	57	4938
2026-01-02 03:42:39.49	316.09	26.31	-47.8	-49.9	15.0	0.00e+00	0	56	0	785383424	57	4834
2026-01-02 03:42:40.48	315.81	26.25	-48.2	-50.5	14.5	0.00e+00	0	56	0	786432000	58	4915
2026-01-02 03:42:41.47	315.53	26.19	-48.2	-50.7	14.4	0.00e+00	0	56	0	788529152	58	4997
2026-01-02 03:42:42.46	315.25	26.13	-48.3	-50.7	14.4	7.00e-07	0	56	0	790626304	58	5001
2026-01-02 03:42:43.45	314.97	26.07	-48.5	-51.0	14.0	3.00e-06	0	56	0	792723456	58	5213
2026-01-02 03:42:44.44	314.69	26.01	-48.4	-51.0	14.1	2.20e-06	0	56	0	794820608	58	5178
2026-01-02 03:42:45.42	314.42	25.95	-48.7	-51.4	13.6	1.50e-06	0	56	0	795869184	59	5131
2026-01-02 03:42:46.41	314.14	25.89	-48.5	-51.1	14.0	3.80e-06	0	56	0	797966336	59	4939
2026-01-02 03:42:47.39	313.87	25.83	-48.1	-50.6	14.4	1.50e-06	0	56	0	800063488	58	4945
2026-01-02 03:42:48.38	313.60	25.76	-48.1	-50.5	14.6	7.00e-07	0	56	0	802160640	58	4895
2026-01-02 03:42:49.38	313.32	25.70	-48.2	-50.5	14.5	0.00e+00	0	56	0	803209216	58	4914
2026-01-02 03:42:50.36	313.05	25.64	-48.1	-50.4	14.6	7.00e-07	0	56	0	805306368	58	4835
2026-01-02 03:42:51.35	312.78	25.57	-47.8	-50.0	15.0	0.00e+00	0	56	0	807403520	58	4623
2026-01-02 03:42:52.35	312.51	25.51	-47.4	-49.3	15.7	0.00e+00	0	56	0	809500672	57	4518
2026-01-02 03:42:53.33	312.24	25.44	-47.2	-49.1	15.8	0.00e+00	0	56	0	810549248	57	4416
2026-01-02 03:42:54.32	311.98	25.37	-47.1	-49.0	16.0	0.00e+00	0	56	0	812646400	57	4362
2026-01-02 03:42:55.32	311.71	25.31	-47.1	-49.0	15.9	0.00e+00	0	56	0	814743552	57	4369
2026-01-02 03:42:56.31	311.44	25.24	-47.0	-48.8	16.2	0.00e+00	0	56	0	816840704	56	4514
2026-01-02 03:42:57.30	311.18	25.17	-46.6	-48.3	16.6	0.00e+00	0	56	0	818937856	56	4291
2026-01-02 03:42:58.29	310.92	25.10	-46.6	-48.3	16.6	0.00e+00	0	56	0	819986432	56	4252
2026-01-02 03:42:59.29	310.65	25.03	-46.4	-48.1	16.8	0.00e+00	0	56	0	822083584	55	4402
2026-01-02 03:43:00.28	310.39	24.96	-46.4	-48.0	16.7	0.00e+00	0	56	0	824180736	55	4379
2026-01-02 03:43:01.27	310.13	24.89	-46.9	-48.8	16.1	0.00e+00	0	56	0	826277888	55	4762
2026-01-02 03:43:02.26	309.88	24.82	-47.5	-49.7	15.3	0.00e+00	0	56	0	827326464	56	5004
2026-01-02 03:43:03.25	309.62	24.75	-47.9	-50.2	14.8	0.00e+00	0	56	0	829423616	57	5016
2026-01-02 03:43:04.24	309.36	24.68	-48.1	-50.5	14.5	7.00e-07	0	56	0	831520768	58	4871
2026-01-02 03:43:05.22	309.11	24.61	-48.1	-50.5	14.4	0.00e+00	0	56	0	833617920	58	4894
2026-01-02 03:43:06.22	308.86	24.54	-48.2	-50.7	14.3	0.00e+00	0	56	0	834666496	58	5028
2026-01-02 03:43:07.21	308.60	24.47	-48.1	-50.6	14.3	3.00e-06	0	56	0	836763648	58	4981
2026-01-02 03:43:08.20	308.35	24.39	-48.0	-50.5	14.6	0.00e+00	0	56	0	838860800	58	4896
2026-01-02 03:43:09.18	308.11	24.32	-48.2	-50.7	14.2	0.00e+00	0	56	0	840957952	58	5031
2026-01-02 03:43:10.17	307.86	24.25	-48.1	-50.5	14.4	0.00e+00	0	56	0	843055104	58	4922
2026-01-02 03:43:11.16	307.61	24.17	-47.9	-50.2	14.8	7.00e-07	0	56	0	844103680	58	4730
2026-01-02 03:43:12.15	307.36	24.10	-47.6	-49.7	15.3	0.00e+00	0	56	0	846200832	58	4481
2026-01-02 03:43:13.14	307.12	24.02	-47.5	-49.6	15.3	0.00e+00	0	56	0	848297984	57	4697
2026-01-02 03:43:14.14	306.87	23.95	-47.6	-49.7	15.2	0.00e+00	0	57	0	850395136	57	4733
2026-01-02 03:43:15.13	306.63	23.87	-47.6	-49.9	15.1	0.00e+00	0	56	0	851443712	57	4839
2026-01-02 03:43:16.12	306.39	23.80	-47.6	-49.8	15.2	0.00e+00	0	56	0	853540864	57	4775
2026-01-02 03:43:17.11	306.15	23.72	-47.5	-49.7	15.2	0.00e+00	0	57	0	855638016	57	4759
2026-01-02 03:43:18.10	305.91	23.64	-47.5	-49.6	15.4	0.00e+00	0	56	0	857735168	57	4685
2026-01-02 03:43:19.09	305.67	23.57	-47.4	-49.5	15.5	0.00e+00	0	57	0	859832320	56	4895
2026-01-02 03:43:20.08	305.43	23.49	-47.1	-49.1	15.9	0.00e+00	0	56	0	860880896	56	4656
2026-01-02 03:43:21.06	305.20	23.41	-46.9	-48.7	16.3	0.00e+00	0	57	0	862978048	56	4471
2026-01-02 03:43:22.05	304.97	23.34	-46.6	-48.3	16.5	0.00e+00	0	57	0	865075200	55	4529
2026-01-02 03:43:23.04	304.73	23.26	-46.8	-48.5	16.4	0.00e+00	0	56	0	867172352	55	4639
2026-01-02 03:43:24.04	304.50	23.18	-47.2	-49.2	15.8	0.00e+00	0	56	0	868220928	56	4709
2026-01-02 03:43:25.03	304.27	23.10	-46.8	-48.5	16.5	0.00e+00	0	56	0	870318080	56	4363
2026-01-02 03:43:26.02	304.04	23.02	-46.5	-48.2	16.8	0.00e+00	0	56	0	872415232	56	4221
2026-01-02 03:43:27.00	303.81	22.94	-46.5	-48.2	16.7	0.00e+00	0	57	0	874512384	56	4229
2026-01-02 03:43:27.99	303.58	22.87	-46.6	-48.5	16.3	0.00e+00	0	56	0	875560960	55	4617
2026-01-02 03:43:28.97	303.36	22.79	-46.6	-48.3	16.6	0.00e+00	0	57	0	877658112	55	4500
2026-01-02 03:43:29.95	303.14	22.71	-46.5	-48.2	16.6	0.00e+00	0	57	0	879755264	55	4492
2026-01-02 03:43:30.94	302.91	22.63	-46.6	-48.3	16.5	0.00e+00	0	56	0	881852416	55	4521
2026-01-02 03:43:31.93	302.69	22.55	-46.5	-48.1	16.7	0.00e+00	0	56	0	882900992	55	4431
2026-01-02 03:43:32.92	302.47	22.47	-46.4	-48.0	16.7	0.00e+00	0	57	0	884998144	55	4368
2026-01-02 03:43:33.91	302.25	22.39	-46.3	-47.9	16.9	0.00e+00	0	56	0	887095296	55	4292
2026-01-02 03:43:34.90	302.03	22.31	-46.3	-47.9	16.9	0.00e+00	0	56	0	889192448	55	4292
2026-01-02 03:43:35.90	301.81	22.22	-46.0	-47.5	17.2	0.00e+00	0	57	0	891289600	55	4118
2026-01-02 03:43:36.88	301.59	22.14	-46.1	-47.6	17.2	0.00e+00	0	56	0	892338176	54	4413
2026-01-02 03:43:37.87	301.38	22.06	-46.3	-47.9	16.9	0.00e+00	0	57	0	894435328	54	4579
2026-01-02 03:43:38.86	301.16	21.98	-46.2	-47.7	17.0	0.00e+00	0	57	0	896532480	54	4483
2026-01-02 03:43:39.85	300.95	21.90	-46.0	-47.6	17.2	0.00e+00	0	57	0	898629632	54	4420
2026-01-02 03:43:40.84	300.74	21.82	-46.1	-47.6	17.1	0.00e+00	0	57	0	899678208	54	4437
2026-01-02 03:43:41.83	300.53	21.74	-46.2	-47.8	17.0	0.00e+00	0	57	0	901775360	54	4526
2026-01-02 03:43:42.81	300.32	21.66	-46.5	-48.2	16.6	0.00e+00	0	56	0	903872512	54	4747
2026-01-02 03:43:43.80	300.11	21.57	-46.8	-48.6	16.2	0.00e+00	0	56	0	905969664	55	4666
2026-01-02 03:43:44.80	299.90	21.49	-46.9	-48.7	16.1	0.00e+00	0	57	0	907018240	55	4746
2026-01-02 03:43:45.79	299.69	21.41	-47.0	-48.9	15.9	0.00e+00	0	57	0	909115392	55	4860
2026-01-02 03:43:46.78	299.49	21.32	-47.2	-49.1	15.9	0.00e+00	0	57	0	911212544	56	4678
2026-01-02 03:43:47.76	299.28	21.24	-47.3	-49.3	15.6	0.00e+00	0	57	0	913309696	56	4785
2026-01-02 03:43:48.75	299.08	21.16	-47.2	-49.1	15.8	0.00e+00	0	57	0	915406848	56	4700
2026-01-02 03:43:49.75	298.87	21.08	-47.2	-49.2	15.7	0.00e+00	0	57	0	916455424	56	4729
2026-01-02 03:43:50.75	298.67	20.99	-47.4	-49.3	15.6	0.00e+00	0	56	0	918552576	56	4807
2026-01-02 03:43:51.73	298.47	20.91	-47.3	-49.2	15.7	0.00e+00	0	57	0	920649728	56	4731
2026-01-02 03:43:52.72	298.27	20.83	-47.0	-48.9	16.0	0.00e+00	0	57	0	922746880	56	4555
2026-01-02 03:43:53.72	298.07	20.74	-46.8	-48.6	16.2	0.00e+00	0	56	0	923795456	55	4660
2026-01-02 03:43:54.70	297.88	20.66	-46.6	-48.4	16.4	0.00e+00	0	57	0	925892608	55	4580
2026-01-02 03:43:55.70	297.68	20.57	-46.2	-47.9	16.9	0.00e+00	0	57	0	927989760	55	4301
2026-01-02 03:43:56.69	297.49	20.49	-45.9	-47.5	17.3	0.00e+00	0	57	0	930086912	54	4342
2026-01-02 03:43:57.67	297.29	20.41	-45.5	-47.0	17.7	0.00e+00	0	57	0	931135488	54	4110
2026-01-02 03:43:58.66	297.10	20.32	-45.3	-46.7	17.8	0.00e+00	0	57	0	933232640	53	4215
2026-01-02 03:43:59.66	296.91	20.24	-45.3	-46.7	17.7	0.00e+00	0	57	0	935329792	53	4196
2026-01-02 03:44:00.66	296.72	20.16	-45.2	-46.6	17.7	0.00e+00	0	57	0	937426944	53	4156
2026-01-02 03:44:01.65	296.53	20.07	-45.2	-46.6	17.7	0.00e+00	0	56	0	939524096	53	4189
2026-01-02 03:44:02.64	296.34	19.99	-45.3	-46.7	17.6	0.00e+00	0	57	0	940572672	52	4482
2026-01-02 03:44:03.62	296.15	19.90	-45.4	-46.9	17.6	0.00e+00	0	56	0	942669824	52	4546
2026-01-02 03:44:04.61	295.97	19.82	-45.6	-47.0	17.5	0.00e+00	0	57	0	944766976	53	4377
2026-01-02 03:44:05.60	295.78	19.74	-45.8	-47.3	17.4	0.00e+00	0	57	0	946864128	53	4511
2026-01-02 03:44:06.59	295.60	19.65	-45.8	-47.3	17.4	0.00e+00	0	57	0	947912704	53	4522
2026-01-02 03:44:07.59	295.41	19.57	-46.1	-47.6	17.1	0.00e+00	0	57	0	950009856	54	4435
2026-01-02 03:44:08.58	295.23	19.48	-46.3	-48.0	16.8	0.00e+00	0	57	0	952107008	54	4610
2026-01-02 03:44:09.57	295.05	19.40	-46.2	-47.8	16.9	0.00e+00	0	57	0	954204160	54	4524
2026-01-02 03:44:10.56	294.87	19.31	-46.0	-47.5	17.3	0.00e+00	0	57	0	956301312	54	4355
2026-01-02 03:44:11.55	294.69	19.23	-45.8	-47.3	17.4	0.00e+00	0	56	0	957349888	54	4267
2026-01-02 03:44:12.54	294.51	19.15	-45.7	-47.1	17.6	0.00e+00	0	57	0	959447040	54	4191
2026-01-02 03:44:13.54	294.33	19.06	-45.8	-47.2	17.5	0.00e+00	0	57	0	961544192	54	4225
2026-01-02 03:44:14.53	294.15	18.98	-45.9	-47.4	17.4	0.00e+00	0	57	0	963641344	54	4307
2026-01-02 03:44:15.52	293.98	18.89	-46.0	-47.5	17.3	0.00e+00	0	57	0	964689920	54	4343
2026-01-02 03:44:16.52	293.80	18.81	-46.0	-47.5	17.2	0.00e+00	0	57	0	966787072	54	4367
2026-01-02 03:44:17.51	293.63	18.72	-46.2	-47.8	17.0	0.00e+00	0	57	0	968884224	54	4509
2026-01-02 03:44:18.50	293.46	18.64	-46.3	-47.9	16.9	0.00e+00	0	57	0	970981376	54	4551
2026-01-02 03:44:19.49	293.29	18.55	-46.4	-48.0	16.7	0.00e+00	0	57	0	973078528	54	4643
2026-01-02 03:44:20.48	293.12	18.47	-46.5	-48.2	16.5	0.00e+00	0	57	0	974127104	54	4752
2026-01-02 03:44:21.47	292.95	18.39	-46.8	-48.6	16.2	0.00e+00	0	57	0	976224256	55	4668
2026-01-02 03:44:22.46	292.78	18.30	-46.8	-48.7	16.0	0.00e+00	0	57	0	978321408	55	4707
2026-01-02 03:44:23.45	292.61	18.22	-46.8	-48.6	16.0	0.00e+00	0	57	0	980418560	55	4684
2026-01-02 03:44:24.45	292.44	18.13	-46.8	-48.7	15.8	0.00e+00	0	57	0	981467136	55	4723
2026-01-02 03:44:25.44	292.28	18.05	-46.9	-48.8	15.7	0.00e+00	0	57	0	983564288	55	4783
2026-01-02 03:44:26.43	292.11	17.96	-47.0	-48.9	15.5	0.00e+00	0	57	0	985661440	55	4855
2026-01-02 03:44:27.43	291.95	17.88	-47.3	-49.4	15.1	0.00e+00	0	57	0	987758592	56	4858
2026-01-02 03:44:28.42	291.78	17.80	-47.5	-49.8	14.5	0.00e+00	0	57	0	988807168	56	5085
2026-01-02 03:44:29.40	291.62	17.71	-47.5	-49.8	14.5	0.00e+00	0	57	0	990904320	57	4782
2026-01-02 03:44:30.38	291.46	17.63	-47.8	-50.4	13.8	3.00e-06	0	57	0	993001472	57	5122
2026-01-02 03:44:31.37	291.30	17.55	-48.3	-51.3	12.8	4.50e-05	0	57	0	995098624	58	5395
2026-01-02 03:44:32.35	291.14	17.46	-48.6	-52.0	12.0	1.69e-04	0	57	0	996147200	59	5471
2026-01-02 03:44:33.34	290.99	17.38	-48.9	-52.7	11.2	7.93e-04	0	57	0	998244352	59	5940
2026-01-02 03:44:34.33	290.83	17.30	-49.0	-53.2	10.6	1.83e-03	0	57	0	1000341504	60	5953
2026-01-02 03:44:35.32	290.67	17.21	-49.1	-53.5	10.1	6.41e-03	0	57	0	1002438656	60	6187
2026-01-02 03:44:36.31	290.52	17.13	-49.1	-53.5	10.1	6.32e-03	0	57	0	1004535808	60	6148
2026-01-02 03:44:37.30	290.36	17.05	-49.2	-53.7	9.9	7.61e-03	0	57	0	1005584384	60	6312
2026-01-02 03:44:38.28	290.21	16.96	-49.2	-53.9	9.6	1.06e-02	0	57	0	1007681536	60	6462
2026-01-02 03:44:39.26	290.06	16.88	-49.2	-54.1	9.4	1.53e-02	0	57	0	1009778688	60	6593
2026-01-02 03:44:40.25	289.91	16.80	-49.3	-54.3	9.1	2.01e-02	0	57	0	1011875840	60	6755
2026-01-02 03:44:41.24	289.75	16.71	-49.4	-54.6	8.8	2.68e-02	0	57	0	1012924416	60	6965
2026-01-02 03:44:42.23	289.60	16.63	-49.3	-54.5	8.8	2.93e-02	0	57	0	1015021568	60	6920
2026-01-02 03:44:43.22	289.45	16.55	-49.4	-54.9	8.4	3.71e-02	0	57	0	1017118720	60	7224
2026-01-02 03:44:44.21	289.30	16.47	-49.5	-55.3	8.0	6.17e-02	0	57	0	1019215872	60	7616
2026-01-02 03:44:45.20	289.16	16.38	-49.6	-55.5	7.8	7.26e-02	0	57	0	1020264448	60	7781
2026-01-02 03:44:46.19	289.01	16.30	-49.8	-56.3	7.0	1.43e-01	0	57	0	1022361600	61	8019
2026-01-02 03:44:47.18	288.86	16.22	-49.8	-56.7	6.6	2.00e-01	0	57	0	1024458752	61	8403
2026-01-02 03:44:48.16	288.72	16.14	-50.0	-57.5	5.9	2.79e-01	0	57	0	1026555904	61	9255
2026-01-02 03:44:49.15	288.57	16.05	-50.0	-58.1	5.5	3.96e-01	0	57	0	1028653056	61	9863
2026-01-02 03:44:50.14	288.43	15.97	-50.1	-58.7	5.1	6.01e-01	0	57	0	1029701632	62	10014
2026-01-02 03:44:51.13	288.29	15.89	-50.1	-59.2	4.8	8.03e-01	0	57	0	1031798784	62	10653
2026-01-02 03:44:52.11	288.15	15.81	-50.2	-59.7	4.6	8.88e-01	0	57	0	1033895936	62	11196
2026-01-02 03:44:53.10	288.00	15.72	-50.1	-59.6	4.6	9.46e-01	0	57	0	1035993088	62	11132
2026-01-02 03:44:54.09	287.86	15.64	-49.3	-59.4	4.7	9.16e-01	0	57	0	1037041664	62	10878
2026-01-02 03:44:55.07	287.72	15.56	-50.1	-59.4	4.6	9.06e-01	0	57	0	1039138816	62	10890
2026-01-02 03:44:56.06	287.59	15.48	-50.0	-59.1	4.8	8.72e-01	0	57	0	1041235968	62	10476
2026-01-02 03:44:57.05	287.45	15.40	-50.0	-59.5	4.6	9.02e-01	0	57	0	1043333120	62	10975
2026-01-02 03:44:58.04	287.31	15.32	-50.0	-59.5	4.6	9.80e-01	0	56	0	1044381696	62	10978
2026-01-02 03:44:59.02	287.17	15.24	-50.0	-59.6	4.5	9.49e-01	0	57	0	1046478848	62	11030
2026-01-02 03:45:00.02	287.04	15.15	-50.1	-59.9	4.4	1.07e+00	0	57	0	1048576000	62	11521
2026-01-02 03:45:01.00	286.90	15.07	-50.0	-60.0	4.4	1.27e+00	0	57	0	1050673152	62	11586
2026-01-02 03:45:01.99	286.77	14.99	-50.1	-60.3	4.3	1.33e+00	0	57	0	1051721728	62	11961
2026-01-02 03:45:02.98	286.63	14.91	-50.1	-60.1	4.3	1.32e+00	0	57	0	1051721728	61	12481
2026-01-02 03:45:03.97	286.50	14.83	-50.0	-59.9	4.4	1.27e+00	0	57	0	1053818880	61	12178
2026-01-02 03:45:04.96	286.37	14.75	-50.0	-59.6	4.5	1.17e+00	0	57	0	1055916032	61	11689
2026-01-02 03:45:05.95	286.24	14.67	-49.9	-58.5	5.1	7.81e-01	0	57	0	1058013184	61	10313
2026-01-02 03:45:06.94	286.10	14.59	-49.8	-57.6	5.7	5.33e-01	0	57	0	1059061760	61	9306
2026-01-02 03:45:07.93	285.97	14.51	-49.5	-56.2	6.7	2.81e-01	0	57	0	1061158912	61	7980
2026-01-02 03:45:08.92	285.84	14.43	-49.3	-55.3	7.7	1.42e-01	0	57	0	1063256064	60	7619
2026-01-02 03:45:09.91	285.72	14.35	-49.1	-54.5	8.6	4.70e-02	0	57	0	1065353216	60	6912
2026-01-02 03:45:10.90	285.59	14.27	-49.0	-54.1	9.0	3.00e-02	0	57	0	1066401792	60	6617
2026-01-02 03:45:11.89	285.46	14.19	-49.0	-53.8	9.5	1.90e-02	0	57	0	1068498944	60	6364
2026-01-02 03:45:12.88	285.33	14.11	-49.1	-53.9	9.4	1.63e-02	0	57	0	1070596096	60	6487
2026-01-02 03:45:13.87	285.21	14.03	-49.0	-53.5	9.9	1.24e-02	0	57	0	1072693248	60	6166
2026-01-02 03:45:14.86	285.08	13.95	-49.0	-53.4	10.0	6.88e-03	0	57	0	1073741824	59	6479
2026-01-02 03:45:15.85	284.96	13.87	-49.1	-53.8	9.6	9.95e-03	0	57	0	1075838976	60	6378
2026-01-02 03:45:16.85	284.83	13.79	-49.0	-53.3	10.3	7.51e-03	0	57	0	1077936128	60	6002
2026-01-02 03:45:17.84	284.71	13.71	-48.8	-52.7	11.0	2.58e-03	0	57	0	1080033280	59	5927
2026-01-02 03:45:18.83	284.59	13.63	-48.6	-52.1	11.7	1.04e-03	0	57	0	1082130432	59	5542
2026-01-02 03:45:19.81	284.47	13.55	-48.6	-51.9	12.0	4.52e-04	0	57	0	1083179008	59	5453
2026-01-02 03:45:20.80	284.34	13.47	-48.5	-51.6	12.5	1.68e-04	0	57	0	1085276160	59	5240
2026-01-02 03:45:21.80	284.22	13.39	-48.5	-51.6	12.5	9.99e-05	0	57	0	1087373312	59	5272
2026-01-02 03:45:22.79	284.10	13.31	-48.6	-51.8	12.3	1.40e-04	0	57	0	1089470464	59	5376
2026-01-02 03:45:23.78	283.98	13.24	-48.8	-52.0	12.1	1.42e-04	0	57	0	1090519040	59	5528
2026-01-02 03:45:24.77	283.86	13.16	-48.7	-51.9	12.2	2.31e-04	0	57	0	1092616192	59	5446
2026-01-02 03:45:25.76	283.75	13.08	-48.6	-51.6	12.6	1.43e-04	0	57	0	1094713344	59	5228
2026-01-02 03:45:26.75	283.63	13.00	-48.4	-51.3	13.1	5.72e-05	0	57	0	1096810496	59	5065
2026-01-02 03:45:27.75	283.51	12.92	-48.3	-51.1	13.2	2.36e-05	0	57	0	1098907648	59	4976
2026-01-02 03:45:28.74	283.39	12.84	-48.2	-51.0	13.4	1.67e-05	0	57	0	1099956224	58	5177
2026-01-02 03:45:29.72	283.28	12.77	-48.1	-50.7	13.7	1.14e-05	0	57	0	1102053376	58	5019
2026-01-02 03:45:30.71	283.17	12.69	-48.0	-50.5	13.8	9.10e-06	0	57	0	1104150528	58	4926
2026-01-02 03:45:31.69	283.05	12.61	-48.2	-50.9	13.5	7.60e-06	0	57	0	1106247680	58	5126
2026-01-02 03:45:32.69	282.94	12.53	-48.1	-50.7	13.8	1.14e-05	0	57	0	1107296256	58	5010
2026-01-02 03:45:33.68	282.82	12.46	-48.1	-50.6	13.8	7.00e-07	0	57	0	1109393408	58	4960
2026-01-02 03:45:34.67	282.71	12.38	-48.1	-50.7	13.8	3.80e-06	0	57	0	1111490560	58	5021
2026-01-02 03:45:35.67	282.60	12.30	-48.1	-50.6	13.9	5.30e-06	0	57	0	1113587712	58	4967
2026-01-02 03:45:36.65	282.49	12.23	-48.3	-50.9	13.6	1.22e-05	0	57	0	1114636288	58	5121
2026-01-02 03:45:37.64	282.38	12.15	-48.3	-50.9	13.6	1.60e-05	0	57	0	1116733440	58	5155
2026-01-02 03:45:38.63	282.27	12.07	-48.5	-51.4	13.1	9.90e-06	0	57	0	1118830592	58	5433
2026-01-02 03:45:39.62	282.16	12.00	-48.7	-51.7	12.8	3.58e-05	0	57	0	1120927744	59	5330
2026-01-02 03:45:40.62	282.05	11.92	-48.8	-51.9	12.6	9.68e-05	0	57	0	1121976320	59	5450
2026-01-02 03:45:41.61	281.94	11.84	-48.8	-51.8	12.7	9.76e-05	0	57	0	1124073472	59	5394
2026-01-02 03:45:42.60	281.83	11.77	-48.8	-51.9	12.6	8.77e-05	0	57	0	1126170624	59	5411
2026-01-02 03:45:43.59	281.73	11.69	-48.6	-51.5	13.1	4.73e-05	0	57	0	1128267776	59	5183
2026-01-02 03:45:44.58	281.62	11.62	-48.4	-51.1	13.5	2.67e-05	0	57	0	1130364928	59	4944
2026-01-02 03:45:45.57	281.51	11.54	-48.2	-50.8	13.8	8.30e-06	0	57	0	1131413504	59	4791
2026-01-02 03:45:46.56	281.41	11.46	-48.1	-50.7	13.9	1.50e-06	0	57	0	1133510656	59	4713
2026-01-02 03:45:47.55	281.30	11.39	-48.1	-50.7	13.9	2.20e-06	0	57	0	1135607808	59	4718
2026-01-02 03:45:48.55	281.20	11.31	-48.0	-50.5	14.0	3.80e-06	0	57	0	1137704960	59	4631
2026-01-02 03:45:49.53	281.09	11.24	-47.9	-50.3	14.2	0.00e+00	0	57	0	1138753536	57	5096
2026-01-02 03:45:50.53	280.99	11.16	-48.1	-50.7	13.9	3.00e-06	0	57	0	1140850688	58	4986
2026-01-02 03:45:51.51	280.89	11.09	-48.1	-50.7	13.9	6.80e-06	0	57	0	1142947840	58	5028
2026-01-02 03:45:52.50	280.79	11.01	-48.0	-50.5	14.0	3.00e-06	0	57	0	1145044992	58	4901
2026-01-02 03:45:53.49	280.68	10.94	-48.0	-50.6	14.0	2.20e-06	0	57	0	1147142144	58	4928
2026-01-02 03:45:54.49	280.58	10.86	-48.2	-50.8	13.7	6.10e-06	0	57	0	1148190720	58	5083
2026-01-02 03:45:55.48	280.48	10.79	-48.4	-51.2	13.3	1.06e-05	0	57	0	1150287872	58	5297
2026-01-02 03:45:56.46	280.38	10.72	-48.6	-51.5	12.9	2.89e-05	0	57	0	1152385024	59	5208
2026-01-02 03:45:57.45	280.28	10.64	-48.8	-52.0	12.4	7.55e-05	0	57	0	1154482176	59	5502
2026-01-02 03:45:58.44	280.18	10.57	-48.9	-52.2	12.3	2.15e-04	0	57	0	1155530752	59	5611
2026-01-02 03:45:59.43	280.09	10.50	-49.0	-52.4	12.0	2.79e-04	0	57	0	1157627904	59	5768
2026-01-02 03:46:00.42	279.99	10.42	-49.0	-52.5	11.8	3.66e-04	0	57	0	1159725056	60	5518
2026-01-02 03:46:01.41	279.89	10.35	-49.2	-53.0	11.4	8.74e-04	0	57	0	1161822208	60	5800
2026-01-02 03:46:02.40	279.79	10.28	-49.3	-53.1	11.2	1.36e-03	0	57	0	1162870784	60	5881
2026-01-02 03:46:03.38	279.70	10.20	-49.5	-53.7	10.6	2.73e-03	0	57	0	1164967936	60	6280
2026-01-02 03:46:04.37	279.60	10.13	-49.4	-53.6	10.6	2.50e-03	0	57	0	1167065088	60	6266
2026-01-02 03:46:05.36	279.51	10.06	-49.6	-53.8	10.3	5.22e-03	0	57	0	1169162240	61	6061
2026-01-02 03:46:06.36	279.41	9.98	-49.4	-53.6	10.6	3.34e-03	0	57	0	1171259392	61	5876
2026-01-02 03:46:07.34	279.32	9.91	-49.3	-53.3	10.8	2.66e-03	0	57	0	1172307968	61	5718
2026-01-02 03:46:08.33	279.22	9.84	-49.1	-53.0	11.1	2.15e-03	0	57	0	1174405120	61	5495
2026-01-02 03:46:09.32	279.13	9.77	-49.0	-52.8	11.3	1.24e-03	0	57	0	1176502272	60	5697
2026-01-02 03:46:10.30	279.04	9.70	-48.9	-52.5	11.5	9.96e-04	0	57	0	1178599424	60	5528
2026-01-02 03:46:11.29	278.94	9.62	-48.8	-52.5	11.6	7.69e-04	0	57	0	1179648000	60	5475
2026-01-02 03:46:12.28	278.85	9.55	-48.9	-52.5	11.5	7.16e-04	0	57	0	1181745152	59	5798
2026-01-02 03:46:13.26	278.76	9.48	-48.7	-52.3	11.6	7.04e-04	0	57	0	1183842304	59	5671
2026-01-02 03:46:14.25	278.67	9.41	-48.7	-52.2	11.6	6.39e-04	0	57	0	1185939456	59	5641
2026-01-02 03:46:15.24	278.58	9.34	-48.6	-52.2	11.7	5.30e-04	0	57	0	1186988032	59	5615
2026-01-02 03:46:16.23	278.49	9.27	-48.7	-52.4	11.3	9.33e-04	0	57	0	1189085184	59	5757
2026-01-02 03:46:17.23	278.40	9.19	-48.7	-52.4	11.2	1.32e-03	0	57	0	1191182336	59	5760
2026-01-02 03:46:18.21	278.31	9.12	-48.6	-52.2	11.4	1.10e-03	0	57	0	1193279488	59	5650
2026-01-02 03:46:19.21	278.22	9.05	-48.7	-52.4	11.2	1.21e-03	0	57	0	1195376640	59	5771
2026-01-02 03:46:20.19	278.13	8.98	-48.9	-52.9	10.7	2.70e-03	0	57	0	1196425216	59	6105
2026-01-02 03:46:21.19	278.04	8.91	-48.8	-52.8	10.7	2.92e-03	0	57	0	1198522368	59	6045
2026-01-02 03:46:22.17	277.96	8.84	-48.9	-53.1	10.4	3.53e-03	0	57	0	1200619520	59	6255
2026-01-02 03:46:23.17	277.87	8.77	-48.9	-53.2	10.2	5.40e-03	0	57	0	1202716672	59	6313
2026-01-02 03:46:24.16	277.78	8.70	-49.0	-53.5	9.9	8.96e-03	0	57	0	1203765248	59	6519
2026-01-02 03:46:25.15	277.69	8.63	-49.0	-53.7	9.6	1.17e-02	0	57	0	1205862400	60	6332
2026-01-02 03:46:26.14	277.61	8.56	-49.0	-53.8	9.3	1.42e-02	0	57	0	1207959552	60	6396
2026-01-02 03:46:27.12	277.52	8.49	-49.1	-54.1	9.1	1.80e-02	0	57	0	1210056704	60	6618
2026-01-02 03:46:28.11	277.44	8.42	-48.9	-53.9	9.2	2.20e-02	0	57	0	1211105280	60	6468
2026-01-02 03:46:29.10	277.35	8.35	-49.0	-54.1	9.0	2.55e-02	0	57	0	1213202432	60	6616
2026-01-02 03:46:30.09	277.27	8.28	-48.9	-54.1	8.9	2.39e-02	0	57	0	1215299584	60	6590
2026-01-02 03:46:31.08	277.19	8.21	-48.8	-53.9	9.0	2.62e-02	0	57	0	1217396736	60	6458
2026-01-02 03:46:32.07	277.10	8.14	-48.7	-53.7	9.2	2.42e-02	0	57	0	1218445312	60	6315
2026-01-02 03:46:33.06	277.02	8.07	-48.9	-53.9	9.0	2.43e-02	0	57	0	1220542464	59	6855
2026-01-02 03:46:34.05	276.94	8.00	-48.9	-54.0	8.9	2.72e-02	0	57	0	1222639616	59	6899
2026-01-02 03:46:35.04	276.85	7.93	-48.8	-53.8	9.0	2.52e-02	0	57	0	1224736768	59	6760
2026-01-02 03:46:36.03	276.77	7.87	-48.7	-53.6	9.1	2.16e-02	0	57	0	1226833920	59	6582
2026-01-02 03:46:37.02	276.69	7.80	-48.5	-53.3	9.4	1.99e-02	0	57	0	1227882496	59	6374
2026-01-02 03:46:38.00	276.61	7.73	-48.5	-53.3	9.3	1.98e-02	0	57	0	1229979648	59	6367
2026-01-02 03:46:38.99	276.53	7.66	-48.4	-53.3	9.1	1.96e-02	0	57	0	1232076800	59	6415
