passes_logs/2026/01/02/R3.0SM8_Murmansk_STILSPACE/R3.0SM8_Murmansk_STILSPACE__20260102_075530_FENGYUN_3D_rec.log

#Pass ID: 20260102_075530_FENGYUN 3D
#Satellite: FENGYUN 3D
#Configuration: FENGYUN 3D
#almurnet v.1.7.20240730
#Start time: 2026-01-02 07:55:30

#Version: 2.2.20231116
#Station: R3.0SM8_Murmansk_STILSPACE
#Location: 33.092731 lon 68.902999 lat
#TLE: 1 43010U 17072A   26001.33100487  .00000602  00000+0  30664-3 0  9999
#TLE: 2 43010  98.9910 332.9374 0001848 133.1047 227.0283 14.19692078421319

#Time	Az	El	Level	Level2	SNR	BER	BlckErr	Temp	State	Recorded	gain1	gain2
2026-01-02 07:55:30.65	73.31	3.02	-52.4	-63.2	3.8	8.46e-01	0	45	0	0	66	13292
2026-01-02 07:55:31.64	73.25	3.08	-52.3	-63.0	3.8	8.47e-01	0	46	104	0	67	12370
2026-01-02 07:55:32.63	73.18	3.14	-52.1	-63.0	3.8	8.47e-01	0	46	104	0	67	12264
2026-01-02 07:55:33.62	73.12	3.20	-52.0	-62.9	3.8	8.46e-01	0	46	104	0	67	12212
2026-01-02 07:55:34.62	73.05	3.26	-52.2	-62.9	3.8	8.48e-01	0	46	104	0	67	12110
2026-01-02 07:55:35.61	72.99	3.32	-52.0	-62.8	3.8	8.45e-01	0	46	104	0	67	12006
2026-01-02 07:55:36.60	72.92	3.38	-51.9	-62.6	3.8	8.46e-01	0	46	104	0	66	12474
2026-01-02 07:55:37.59	72.86	3.43	-51.8	-62.4	3.8	8.46e-01	0	46	104	0	66	12135
2026-01-02 07:55:38.58	72.79	3.49	-51.5	-62.1	3.8	8.47e-01	0	46	104	0	65	12515
2026-01-02 07:55:39.57	72.72	3.55	-51.5	-62.1	3.8	8.46e-01	0	46	104	0	65	12473
2026-01-02 07:55:40.56	72.66	3.61	-51.4	-62.1	3.8	8.47e-01	0	46	104	0	65	12455
2026-01-02 07:55:41.56	72.59	3.67	-51.5	-62.1	3.8	8.46e-01	0	47	104	0	65	12451
2026-01-02 07:55:42.55	72.52	3.73	-51.4	-62.2	3.8	8.45e-01	0	47	104	0	65	12561
2026-01-02 07:55:43.54	72.45	3.79	-51.3	-62.1	3.8	8.45e-01	0	47	104	0	65	12463
2026-01-02 07:55:44.53	72.38	3.85	-51.4	-62.2	3.8	8.45e-01	0	47	104	0	65	12567
2026-01-02 07:55:45.52	72.32	3.91	-51.4	-62.2	3.8	8.46e-01	0	47	104	0	65	12520
2026-01-02 07:55:46.51	72.25	3.97	-51.3	-62.2	3.8	8.46e-01	0	47	104	0	65	12630
2026-01-02 07:55:47.50	72.18	4.03	-51.3	-62.3	3.8	8.47e-01	0	47	104	0	65	12674
2026-01-02 07:55:48.49	72.11	4.09	-51.5	-62.2	3.8	8.47e-01	0	47	104	0	65	12617
2026-01-02 07:55:49.48	72.04	4.15	-51.3	-62.2	3.8	8.45e-01	0	47	104	0	65	12525
2026-01-02 07:55:50.47	71.97	4.21	-51.5	-62.0	3.8	8.46e-01	0	47	104	0	65	12327
2026-01-02 07:55:51.46	71.90	4.27	-51.4	-61.8	3.8	8.47e-01	0	47	104	0	65	12068
2026-01-02 07:55:52.46	71.83	4.33	-51.3	-61.4	3.8	8.46e-01	0	47	104	0	65	11499
2026-01-02 07:55:53.44	71.76	4.39	-51.4	-60.9	3.8	8.46e-01	0	47	104	0	65	10828
2026-01-02 07:55:54.44	71.69	4.45	-51.1	-60.1	3.8	8.44e-01	0	47	104	0	65	9881
2026-01-02 07:55:55.42	71.62	4.51	-51.1	-59.0	4.1	8.41e-01	0	47	0	0	65	8715
2026-01-02 07:55:56.41	71.54	4.57	-50.8	-58.1	4.4	8.34e-01	0	48	0	0	64	8275
2026-01-02 07:55:57.40	71.47	4.63	-50.6	-57.0	4.8	7.97e-01	0	48	0	0	64	7312
2026-01-02 07:55:58.39	71.40	4.69	-50.5	-56.0	5.5	7.30e-01	0	48	0	0	63	6888
2026-01-02 07:55:59.38	71.33	4.76	-50.1	-55.1	6.2	4.10e-01	0	48	0	4194304	63	6218
2026-01-02 07:56:00.37	71.26	4.82	-49.9	-54.2	6.8	2.14e-01	0	48	0	9437184	62	5992
2026-01-02 07:56:01.36	71.18	4.88	-49.4	-53.3	7.8	1.24e-01	0	48	0	14680064	62	5348
2026-01-02 07:56:02.35	71.11	4.94	-49.2	-52.6	8.4	6.18e-02	0	48	0	19922944	61	5263
2026-01-02 07:56:03.35	71.03	5.00	-49.0	-52.2	8.8	4.10e-02	0	48	0	26214400	61	5037
2026-01-02 07:56:04.33	70.96	5.06	-48.7	-51.8	9.2	2.79e-02	0	48	0	31457280	60	5095
2026-01-02 07:56:05.32	70.89	5.12	-48.7	-52.0	9.1	2.47e-02	0	48	0	37748736	60	5169
2026-01-02 07:56:06.31	70.81	5.18	-48.8	-52.1	9.0	3.53e-02	0	48	0	42991616	60	5251
2026-01-02 07:56:07.30	70.74	5.25	-48.7	-51.8	9.3	2.36e-02	0	48	0	48234496	60	5052
2026-01-02 07:56:08.29	70.66	5.31	-48.6	-51.6	9.5	1.96e-02	0	49	0	53477376	60	4945
2026-01-02 07:56:09.28	70.58	5.37	-48.6	-51.5	9.6	1.44e-02	0	48	0	59768832	60	4889
2026-01-02 07:56:10.26	70.51	5.43	-48.4	-51.3	9.9	1.17e-02	0	49	0	65011712	60	4773
2026-01-02 07:56:11.25	70.43	5.49	-48.4	-51.1	9.9	1.29e-02	0	49	0	70254592	60	4695
2026-01-02 07:56:12.25	70.35	5.56	-48.6	-51.4	9.8	1.26e-02	0	49	0	76546048	59	5113
2026-01-02 07:56:13.24	70.28	5.62	-48.9	-52.0	9.1	3.38e-02	0	49	0	81788928	60	5218
2026-01-02 07:56:14.23	70.20	5.68	-48.4	-51.0	10.2	1.41e-02	0	49	0	87031808	59	4894
2026-01-02 07:56:15.21	70.12	5.74	-47.8	-50.0	11.2	2.56e-03	0	49	0	93323264	58	4649
2026-01-02 07:56:16.20	70.04	5.81	-47.3	-49.3	12.0	8.12e-04	0	49	0	98566144	57	4523
2026-01-02 07:56:17.19	69.97	5.87	-46.8	-48.6	12.7	1.62e-04	0	49	0	103809024	56	4424
2026-01-02 07:56:18.17	69.89	5.93	-46.2	-47.9	13.3	3.20e-05	0	49	0	109051904	55	4322
2026-01-02 07:56:19.16	69.81	5.99	-45.9	-47.4	13.8	1.14e-05	0	49	0	115343360	54	4329
2026-01-02 07:56:20.14	69.73	6.06	-45.6	-47.0	14.2	4.50e-06	0	49	0	120586240	54	4127
2026-01-02 07:56:21.13	69.65	6.12	-45.3	-46.7	14.5	1.10e-06	0	49	0	125829120	53	4207
2026-01-02 07:56:22.11	69.57	6.18	-45.1	-46.4	14.9	2.20e-06	0	49	0	132120576	53	4065
2026-01-02 07:56:23.10	69.49	6.25	-44.7	-45.9	15.3	0.00e+00	0	49	0	137363456	52	4096
2026-01-02 07:56:24.09	69.41	6.31	-44.6	-45.9	15.3	0.00e+00	0	49	0	142606336	52	4062
2026-01-02 07:56:25.08	69.33	6.37	-44.8	-46.1	15.2	0.00e+00	0	49	0	148897792	52	4150
2026-01-02 07:56:26.08	69.24	6.44	-44.7	-45.9	15.4	0.00e+00	0	49	0	154140672	52	4079
2026-01-02 07:56:27.07	69.16	6.50	-44.8	-46.0	15.3	0.00e+00	0	49	0	159383552	52	4110
2026-01-02 07:56:28.05	69.08	6.56	-44.9	-46.2	15.1	0.00e+00	0	50	0	165675008	52	4219
2026-01-02 07:56:29.05	69.00	6.63	-45.0	-46.2	15.2	0.00e+00	0	50	0	170917888	52	4220
2026-01-02 07:56:30.04	68.91	6.69	-45.1	-46.4	15.0	0.00e+00	0	50	0	176160768	52	4298
2026-01-02 07:56:31.03	68.83	6.76	-45.3	-46.6	14.7	1.10e-06	0	50	0	181403648	52	4441
2026-01-02 07:56:32.02	68.75	6.82	-45.0	-46.3	15.1	1.10e-06	0	50	0	187695104	52	4246
2026-01-02 07:56:33.02	68.66	6.89	-44.9	-46.1	15.2	0.00e+00	0	50	0	192937984	52	4180
2026-01-02 07:56:34.00	68.58	6.95	-44.9	-46.1	15.2	0.00e+00	0	50	0	198180864	52	4193
2026-01-02 07:56:34.99	68.49	7.01	-44.8	-46.1	15.3	0.00e+00	0	50	0	204472320	52	4159
2026-01-02 07:56:35.98	68.40	7.08	-44.9	-46.2	15.2	0.00e+00	0	50	0	209715200	52	4207
2026-01-02 07:56:36.97	68.32	7.14	-44.9	-46.1	15.2	0.00e+00	0	50	0	214958080	52	4177
2026-01-02 07:56:37.96	68.23	7.21	-45.2	-46.5	14.9	0.00e+00	0	50	0	221249536	52	4367
2026-01-02 07:56:38.95	68.15	7.27	-44.9	-46.2	15.2	0.00e+00	0	50	0	226492416	52	4202
2026-01-02 07:56:39.94	68.06	7.34	-44.6	-45.8	15.6	0.00e+00	0	50	0	231735296	52	4010
2026-01-02 07:56:40.93	67.97	7.40	-44.4	-45.6	15.8	0.00e+00	0	50	0	238026752	52	3918
2026-01-02 07:56:41.92	67.88	7.47	-44.6	-45.7	15.6	0.00e+00	0	50	0	243269632	52	3997
2026-01-02 07:56:42.91	67.79	7.53	-44.9	-46.1	15.3	1.10e-06	0	50	0	248512512	52	4168
2026-01-02 07:56:43.90	67.70	7.60	-44.9	-46.2	15.3	0.00e+00	0	50	0	253755392	52	4197
2026-01-02 07:56:44.89	67.62	7.66	-44.9	-46.1	15.2	0.00e+00	0	50	0	260046848	52	4188
2026-01-02 07:56:45.89	67.53	7.73	-44.9	-46.1	15.3	0.00e+00	0	50	0	265289728	52	4164
2026-01-02 07:56:46.88	67.43	7.80	-44.9	-46.1	15.3	0.00e+00	0	50	0	270532608	52	4189
2026-01-02 07:56:47.86	67.35	7.86	-45.0	-46.2	15.2	0.00e+00	0	50	0	276824064	52	4233
2026-01-02 07:56:48.86	67.25	7.93	-45.0	-46.3	15.1	0.00e+00	0	50	0	282066944	52	4260
2026-01-02 07:56:49.84	67.16	7.99	-44.9	-46.1	15.3	0.00e+00	0	51	0	287309824	52	4180
2026-01-02 07:56:50.83	67.07	8.06	-45.1	-46.4	15.1	0.00e+00	0	50	0	293601280	52	4295
2026-01-02 07:56:51.83	66.98	8.13	-45.0	-46.2	15.3	0.00e+00	0	51	0	298844160	52	4202
2026-01-02 07:56:52.81	66.89	8.19	-44.5	-45.6	15.8	0.00e+00	0	51	0	304087040	52	3956
2026-01-02 07:56:53.80	66.79	8.26	-44.4	-45.4	16.1	0.00e+00	0	51	0	309329920	51	4092
2026-01-02 07:56:54.79	66.70	8.33	-44.5	-45.6	16.0	0.00e+00	0	51	0	315621376	51	4156
2026-01-02 07:56:55.78	66.61	8.39	-44.7	-45.8	15.8	0.00e+00	0	51	0	320864256	51	4264
2026-01-02 07:56:56.77	66.51	8.46	-44.9	-46.0	15.6	0.00e+00	0	51	0	327155712	51	4377
2026-01-02 07:56:57.76	66.42	8.53	-45.0	-46.2	15.4	0.00e+00	0	51	0	332398592	51	4476
2026-01-02 07:56:58.76	66.32	8.59	-44.8	-45.9	15.6	0.00e+00	0	51	0	337641472	52	4086
2026-01-02 07:56:59.74	66.22	8.66	-44.6	-45.7	15.8	0.00e+00	0	51	0	342884352	52	3986
2026-01-02 07:57:00.73	66.13	8.73	-44.4	-45.5	16.0	0.00e+00	0	51	0	349175808	52	3885
2026-01-02 07:57:01.73	66.03	8.79	-44.3	-45.3	16.2	0.00e+00	0	51	0	354418688	51	4046
2026-01-02 07:57:02.72	65.93	8.86	-44.4	-45.5	16.1	0.00e+00	0	51	0	359661568	51	4111
2026-01-02 07:57:03.71	65.84	8.93	-44.6	-45.7	15.9	0.00e+00	0	51	0	365953024	51	4235
2026-01-02 07:57:04.69	65.74	9.00	-44.5	-45.5	16.1	0.00e+00	0	51	0	371195904	51	4141
2026-01-02 07:57:05.69	65.64	9.06	-44.2	-45.3	16.4	0.00e+00	0	51	0	376438784	51	4005
2026-01-02 07:57:06.68	65.54	9.13	-43.9	-44.9	16.7	0.00e+00	0	51	0	382730240	51	3844
2026-01-02 07:57:07.67	65.44	9.20	-43.8	-44.8	16.8	0.00e+00	0	51	0	387973120	50	4041
2026-01-02 07:57:08.66	65.34	9.27	-43.9	-44.9	16.7	0.00e+00	0	51	0	393216000	50	4077
2026-01-02 07:57:09.65	65.24	9.34	-44.0	-45.0	16.7	0.00e+00	0	52	0	398458880	50	4100
2026-01-02 07:57:10.64	65.14	9.40	-44.0	-45.0	16.7	0.00e+00	0	51	0	404750336	50	4114
2026-01-02 07:57:11.64	65.04	9.47	-44.0	-45.0	16.7	0.00e+00	0	51	0	409993216	50	4129
2026-01-02 07:57:12.63	64.93	9.54	-44.0	-45.0	16.6	0.00e+00	0	52	0	416284672	50	4138
2026-01-02 07:57:13.62	64.83	9.61	-43.9	-44.9	16.7	0.00e+00	0	52	0	421527552	50	4094
2026-01-02 07:57:14.61	64.73	9.68	-44.0	-45.0	16.6	0.00e+00	0	52	0	426770432	50	4144
2026-01-02 07:57:15.60	64.62	9.75	-43.9	-44.9	16.7	0.00e+00	0	52	0	432013312	50	4073
2026-01-02 07:57:16.60	64.52	9.82	-44.0	-44.9	16.8	0.00e+00	0	52	0	438304768	50	4096
2026-01-02 07:57:17.59	64.42	9.89	-44.1	-45.1	16.6	0.00e+00	0	52	0	443547648	50	4178
2026-01-02 07:57:18.58	64.31	9.95	-44.1	-45.1	16.6	0.00e+00	0	52	0	449839104	50	4184
2026-01-02 07:57:19.57	64.20	10.02	-44.2	-45.2	16.5	0.00e+00	0	52	0	455081984	50	4207
2026-01-02 07:57:20.56	64.10	10.09	-44.0	-45.0	16.7	0.00e+00	0	52	0	460324864	50	4118
2026-01-02 07:57:21.55	63.99	10.16	-44.0	-45.0	16.7	0.00e+00	0	52	0	465567744	50	4127
2026-01-02 07:57:22.54	63.88	10.23	-44.0	-45.0	16.7	0.00e+00	0	52	0	471859200	50	4119
2026-01-02 07:57:23.53	63.78	10.30	-44.1	-45.1	16.6	0.00e+00	0	52	0	477102080	50	4177
2026-01-02 07:57:24.52	63.67	10.37	-44.1	-45.1	16.6	0.00e+00	0	52	0	482344960	50	4176
2026-01-02 07:57:25.51	63.56	10.44	-44.0	-45.0	16.7	0.00e+00	0	52	0	488636416	50	4112
2026-01-02 07:57:26.51	63.45	10.51	-44.1	-45.1	16.7	0.00e+00	0	52	0	493879296	50	4157
2026-01-02 07:57:27.51	63.34	10.58	-44.3	-45.3	16.5	0.00e+00	0	52	0	500170752	50	4258
2026-01-02 07:57:28.50	63.23	10.65	-44.3	-45.3	16.4	0.00e+00	0	52	0	505413632	50	4281
2026-01-02 07:57:29.48	63.12	10.72	-44.3	-45.4	16.4	0.00e+00	0	52	0	510656512	50	4294
2026-01-02 07:57:30.46	63.01	10.79	-44.2	-45.3	16.5	0.00e+00	0	52	0	515899392	50	4246
2026-01-02 07:57:31.44	62.90	10.86	-44.0	-45.0	16.8	0.00e+00	0	52	0	521142272	50	4104
2026-01-02 07:57:32.43	62.79	10.93	-43.9	-44.9	16.9	0.00e+00	0	52	0	527433728	50	4060
2026-01-02 07:57:33.42	62.67	11.00	-43.8	-44.8	17.0	0.00e+00	0	52	0	532676608	50	4019
2026-01-02 07:57:34.40	62.56	11.07	-43.8	-44.8	16.9	0.00e+00	0	52	0	537919488	50	4022
2026-01-02 07:57:35.40	62.45	11.14	-43.8	-44.8	17.0	0.00e+00	0	52	0	544210944	50	4010
2026-01-02 07:57:36.39	62.33	11.21	-44.0	-44.9	16.9	0.00e+00	0	52	0	549453824	50	4078
2026-01-02 07:57:37.38	62.22	11.28	-44.0	-45.0	16.8	0.00e+00	0	53	0	554696704	50	4124
2026-01-02 07:57:38.37	62.10	11.35	-43.7	-44.6	17.2	0.00e+00	0	52	0	560988160	50	3924
2026-01-02 07:57:39.36	61.98	11.42	-43.5	-44.4	17.4	0.00e+00	0	52	0	566231040	50	3852
2026-01-02 07:57:40.35	61.87	11.49	-43.5	-44.4	17.4	0.00e+00	0	52	0	571473920	49	4060
2026-01-02 07:57:41.34	61.75	11.56	-43.5	-44.4	17.4	0.00e+00	0	52	0	577765376	49	4061
2026-01-02 07:57:42.32	61.63	11.64	-43.6	-44.5	17.2	0.00e+00	0	53	0	583008256	49	4143
2026-01-02 07:57:43.32	61.51	11.71	-43.5	-44.4	17.4	0.00e+00	0	53	0	588251136	49	4061
2026-01-02 07:57:44.31	61.39	11.78	-43.4	-44.4	17.5	0.00e+00	0	52	0	594542592	49	4053
2026-01-02 07:57:45.30	61.27	11.85	-43.6	-44.5	17.3	0.00e+00	0	53	0	599785472	49	4133
2026-01-02 07:57:46.29	61.15	11.92	-43.7	-44.6	17.2	0.00e+00	0	53	0	605028352	49	4173
2026-01-02 07:57:47.28	61.03	11.99	-43.4	-44.3	17.5	0.00e+00	0	53	0	610271232	49	4010
2026-01-02 07:57:48.27	60.91	12.06	-43.3	-44.2	17.5	0.00e+00	0	53	0	616562688	49	3986
2026-01-02 07:57:49.26	60.79	12.14	-43.4	-44.3	17.5	0.00e+00	0	53	0	621805568	49	4015
2026-01-02 07:57:50.24	60.66	12.21	-43.3	-44.2	17.6	0.00e+00	0	53	0	627048448	49	3983
2026-01-02 07:57:51.23	60.54	12.28	-43.3	-44.2	17.6	0.00e+00	0	53	0	633339904	49	3983
2026-01-02 07:57:52.22	60.42	12.35	-43.5	-44.4	17.4	0.00e+00	0	53	0	638582784	49	4063
2026-01-02 07:57:53.21	60.29	12.42	-43.6	-44.5	17.3	0.00e+00	0	53	0	643825664	49	4129
2026-01-02 07:57:54.19	60.17	12.49	-43.5	-44.4	17.3	0.00e+00	0	53	0	649068544	49	4095
2026-01-02 07:57:55.18	60.04	12.57	-43.7	-44.6	17.2	0.00e+00	0	53	0	655360000	49	4184
2026-01-02 07:57:56.17	59.92	12.64	-43.5	-44.4	17.4	0.00e+00	0	53	0	660602880	49	4061
2026-01-02 07:57:57.16	59.79	12.71	-43.2	-44.1	17.7	0.00e+00	0	53	0	666894336	49	3917
2026-01-02 07:57:58.15	59.66	12.78	-43.0	-43.9	17.9	0.00e+00	0	53	0	672137216	49	3843
2026-01-02 07:57:59.15	59.53	12.86	-43.1	-43.9	17.9	0.00e+00	0	53	0	677380096	49	3857
2026-01-02 07:58:00.13	59.40	12.93	-43.0	-43.8	18.0	0.00e+00	0	53	0	682622976	49	3813
2026-01-02 07:58:01.13	59.27	13.00	-43.0	-43.9	17.9	0.00e+00	0	53	0	688914432	49	3837
2026-01-02 07:58:02.12	59.14	13.07	-43.0	-43.9	18.0	0.00e+00	0	53	0	694157312	49	3827
2026-01-02 07:58:03.11	59.01	13.15	-43.0	-43.9	18.0	0.00e+00	0	53	0	700448768	49	3834
2026-01-02 07:58:04.11	58.88	13.22	-43.2	-44.0	17.8	0.00e+00	0	53	0	705691648	49	3900
2026-01-02 07:58:05.10	58.74	13.29	-43.3	-44.2	17.7	0.00e+00	0	53	0	710934528	49	3970
2026-01-02 07:58:06.09	58.61	13.37	-43.6	-44.5	17.4	0.00e+00	0	53	0	716177408	49	4116
2026-01-02 07:58:07.08	58.48	13.44	-43.5	-44.4	17.4	0.00e+00	0	53	0	722468864	49	4089
2026-01-02 07:58:08.07	58.34	13.51	-43.5	-44.4	17.4	0.00e+00	0	53	0	727711744	49	4062
2026-01-02 07:58:09.06	58.21	13.59	-43.7	-44.6	17.3	0.00e+00	0	53	0	732954624	49	4166
2026-01-02 07:58:10.04	58.07	13.66	-43.5	-44.4	17.4	0.00e+00	0	53	0	739246080	49	4078
2026-01-02 07:58:11.04	57.93	13.73	-43.5	-44.4	17.5	0.00e+00	0	53	0	744488960	49	4052
2026-01-02 07:58:12.02	57.80	13.81	-43.4	-44.3	17.6	0.00e+00	0	53	0	749731840	49	4007
2026-01-02 07:58:13.02	57.66	13.88	-43.3	-44.2	17.7	0.00e+00	0	53	0	756023296	49	3977
2026-01-02 07:58:14.00	57.52	13.95	-43.6	-44.5	17.3	0.00e+00	0	53	0	761266176	49	4144
2026-01-02 07:58:14.99	57.38	14.03	-43.3	-44.2	17.7	0.00e+00	0	54	0	766509056	49	3964
2026-01-02 07:58:15.98	57.24	14.10	-43.0	-43.8	18.0	0.00e+00	0	53	0	771751936	49	3817
2026-01-02 07:58:16.97	57.10	14.17	-42.8	-43.6	18.2	0.00e+00	0	54	0	778043392	48	3938
2026-01-02 07:58:17.96	56.96	14.25	-42.7	-43.5	18.3	0.00e+00	0	54	0	783286272	48	3907
2026-01-02 07:58:18.95	56.82	14.32	-42.7	-43.5	18.3	0.00e+00	0	54	0	788529152	48	3894
2026-01-02 07:58:19.94	56.67	14.39	-42.7	-43.5	18.4	0.00e+00	0	54	0	794820608	48	3891
2026-01-02 07:58:20.93	56.53	14.47	-42.8	-43.6	18.3	0.00e+00	0	53	0	800063488	48	3943
2026-01-02 07:58:21.92	56.39	14.54	-43.0	-43.8	18.1	0.00e+00	0	54	0	805306368	48	4016
2026-01-02 07:58:22.90	56.24	14.61	-42.8	-43.6	18.3	0.00e+00	0	54	0	810549248	48	3930
2026-01-02 07:58:23.89	56.10	14.69	-42.6	-43.4	18.4	0.00e+00	0	54	0	816840704	48	3856
2026-01-02 07:58:24.88	55.95	14.76	-42.7	-43.5	18.4	0.00e+00	0	53	0	822083584	48	3872
2026-01-02 07:58:25.88	55.80	14.84	-42.9	-43.6	18.3	0.00e+00	0	54	0	828375040	48	3954
2026-01-02 07:58:26.86	55.65	14.91	-43.2	-44.0	17.9	0.00e+00	0	54	0	833617920	48	4137
2026-01-02 07:58:27.85	55.50	14.98	-42.9	-43.8	18.1	0.00e+00	0	54	0	838860800	48	4005
2026-01-02 07:58:28.83	55.36	15.06	-42.7	-43.5	18.4	0.00e+00	0	54	0	844103680	48	3887
2026-01-02 07:58:29.82	55.21	15.13	-42.5	-43.3	18.6	0.00e+00	0	54	0	850395136	48	3798
2026-01-02 07:58:30.81	55.05	15.20	-42.5	-43.2	18.6	0.00e+00	0	54	0	855638016	48	3779
2026-01-02 07:58:31.80	54.90	15.28	-42.4	-43.2	18.7	0.00e+00	0	54	0	860880896	48	3743
2026-01-02 07:58:32.79	54.75	15.35	-42.5	-43.3	18.6	0.00e+00	0	54	0	867172352	48	3794
2026-01-02 07:58:33.78	54.60	15.43	-42.7	-43.5	18.5	0.00e+00	0	54	0	872415232	48	3881
2026-01-02 07:58:34.77	54.44	15.50	-42.6	-43.4	18.6	0.00e+00	0	54	0	877658112	48	3826
2026-01-02 07:58:35.76	54.29	15.58	-42.3	-43.0	18.7	0.00e+00	0	54	0	883949568	47	3912
2026-01-02 07:58:36.75	54.13	15.65	-42.2	-42.9	18.8	0.00e+00	0	54	0	889192448	47	3856
2026-01-02 07:58:37.74	53.97	15.72	-42.2	-42.9	18.8	0.00e+00	0	54	0	894435328	47	3863
2026-01-02 07:58:38.73	53.82	15.80	-42.3	-43.1	18.7	0.00e+00	0	54	0	899678208	47	3917
2026-01-02 07:58:39.72	53.66	15.87	-42.3	-43.1	18.7	0.00e+00	0	54	0	905969664	47	3935
2026-01-02 07:58:40.71	53.50	15.95	-42.5	-43.3	18.5	0.00e+00	0	54	0	911212544	47	4034
2026-01-02 07:58:41.70	53.34	16.02	-42.5	-43.2	18.5	0.00e+00	0	54	0	916455424	47	4001
2026-01-02 07:58:42.69	53.18	16.09	-42.3	-43.0	18.7	0.00e+00	0	54	0	922746880	47	3910
2026-01-02 07:58:43.68	53.02	16.17	-42.3	-43.0	18.7	0.00e+00	0	54	0	927989760	47	3894
2026-01-02 07:58:44.67	52.86	16.24	-42.3	-43.1	18.7	0.00e+00	0	54	0	933232640	47	3935
2026-01-02 07:58:45.67	52.69	16.32	-42.5	-43.3	18.5	0.00e+00	0	54	0	939524096	47	4032
2026-01-02 07:58:46.66	52.53	16.39	-42.5	-43.3	18.5	0.00e+00	0	54	0	944766976	47	4010
2026-01-02 07:58:47.66	52.36	16.47	-42.5	-43.3	18.5	0.00e+00	0	54	0	950009856	47	4007
2026-01-02 07:58:48.66	52.19	16.54	-42.7	-43.5	18.2	0.00e+00	0	54	0	956301312	47	4139
2026-01-02 07:58:49.65	52.03	16.62	-42.6	-43.4	18.4	0.00e+00	0	54	0	961544192	47	4076
2026-01-02 07:58:50.62	51.86	16.69	-42.3	-43.0	18.7	0.00e+00	0	54	0	966787072	47	3901
2026-01-02 07:58:51.62	51.69	16.76	-42.0	-42.7	19.0	0.00e+00	0	54	0	973078528	47	3768
2026-01-02 07:58:52.61	51.53	16.84	-41.9	-42.6	19.2	0.00e+00	0	54	0	978321408	47	3720
2026-01-02 07:58:53.60	51.36	16.91	-41.9	-42.6	19.2	0.00e+00	0	54	0	983564288	46	3929
2026-01-02 07:58:54.59	51.19	16.98	-41.9	-42.6	19.1	0.00e+00	0	54	0	989855744	46	3933
2026-01-02 07:58:55.58	51.01	17.06	-41.9	-42.6	19.1	0.00e+00	0	54	0	995098624	46	3949
2026-01-02 07:58:56.57	50.84	17.13	-41.9	-42.6	19.2	0.00e+00	0	54	0	1000341504	46	3940
2026-01-02 07:58:57.56	50.67	17.21	-41.8	-42.6	19.2	0.00e+00	0	54	0	1006632960	46	3919
2026-01-02 07:58:58.55	50.49	17.28	-41.8	-42.5	19.2	0.00e+00	0	54	0	1011875840	46	3913
2026-01-02 07:58:59.54	50.32	17.35	-41.8	-42.5	19.3	0.00e+00	0	54	0	1017118720	46	3893
2026-01-02 07:59:00.53	50.14	17.43	-41.9	-42.6	19.2	0.00e+00	0	54	0	1022361600	46	3929
2026-01-02 07:59:01.52	49.97	17.50	-42.0	-42.7	19.1	0.00e+00	0	55	0	1028653056	46	3996
2026-01-02 07:59:02.51	49.79	17.57	-42.0	-42.7	19.0	0.00e+00	0	54	0	1033895936	46	4002
2026-01-02 07:59:03.50	49.61	17.65	-42.0	-42.7	19.0	0.00e+00	0	55	0	1039138816	46	4001
2026-01-02 07:59:04.49	49.43	17.72	-42.1	-42.8	19.0	0.00e+00	0	54	0	1045430272	46	4030
2026-01-02 07:59:05.48	49.25	17.79	-42.0	-42.8	19.1	0.00e+00	0	55	0	1050673152	46	4011
2026-01-02 07:59:06.47	49.07	17.87	-42.0	-42.7	19.1	0.00e+00	0	55	0	1055916032	46	3983
2026-01-02 07:59:07.46	48.89	17.94	-41.9	-42.6	19.2	0.00e+00	0	55	0	1062207488	46	3955
2026-01-02 07:59:08.45	48.71	18.01	-41.9	-42.6	19.2	0.00e+00	0	54	0	1067450368	46	3935
2026-01-02 07:59:09.44	48.52	18.09	-41.9	-42.6	19.2	0.00e+00	0	54	0	1072693248	46	3957
2026-01-02 07:59:10.43	48.34	18.16	-42.0	-42.7	19.1	0.00e+00	0	55	0	1078984704	46	3978
2026-01-02 07:59:11.41	48.15	18.23	-41.8	-42.4	19.3	0.00e+00	0	54	0	1084227584	46	3866
2026-01-02 07:59:12.40	47.97	18.30	-41.6	-42.3	19.5	0.00e+00	0	55	0	1089470464	46	3789
2026-01-02 07:59:13.38	47.78	18.38	-41.6	-42.2	19.6	0.00e+00	0	55	0	1094713344	46	3771
2026-01-02 07:59:14.38	47.59	18.45	-41.6	-42.3	19.5	0.00e+00	0	55	0	1101004800	46	3795
2026-01-02 07:59:15.37	47.40	18.52	-41.7	-42.4	19.5	0.00e+00	0	55	0	1106247680	46	3831
2026-01-02 07:59:16.36	47.21	18.59	-41.6	-42.3	19.5	0.00e+00	0	55	0	1111490560	46	3818
2026-01-02 07:59:17.35	47.02	18.66	-41.6	-42.3	19.5	0.00e+00	0	55	0	1117782016	46	3805
2026-01-02 07:59:18.33	46.83	18.74	-41.7	-42.3	19.4	0.00e+00	0	55	0	1123024896	46	3824
2026-01-02 07:59:19.33	46.64	18.81	-41.6	-42.3	19.5	0.00e+00	0	55	0	1128267776	46	3804
2026-01-02 07:59:20.31	46.45	18.88	-41.6	-42.3	19.5	0.00e+00	0	55	0	1134559232	46	3811
2026-01-02 07:59:21.31	46.25	18.95	-41.6	-42.2	19.6	0.00e+00	0	55	0	1139802112	46	3779
2026-01-02 07:59:22.29	46.06	19.02	-41.4	-42.0	19.8	0.00e+00	0	54	0	1145044992	45	3890
2026-01-02 07:59:23.29	45.86	19.09	-41.2	-41.9	19.9	0.00e+00	0	55	0	1150287872	45	3835
2026-01-02 07:59:24.28	45.66	19.17	-41.2	-41.8	19.9	0.00e+00	0	55	0	1156579328	45	3824
2026-01-02 07:59:25.27	45.46	19.24	-41.1	-41.8	20.0	0.00e+00	0	55	0	1161822208	45	3790
2026-01-02 07:59:26.26	45.26	19.31	-41.1	-41.7	20.0	0.00e+00	0	55	0	1168113664	45	3751
2026-01-02 07:59:27.24	45.06	19.38	-41.0	-41.7	20.1	0.00e+00	0	55	0	1173356544	45	3747
2026-01-02 07:59:28.23	44.86	19.45	-41.2	-41.8	20.0	0.00e+00	0	55	0	1178599424	45	3823
2026-01-02 07:59:29.22	44.66	19.52	-41.4	-42.1	19.7	0.00e+00	0	55	0	1183842304	45	3926
2026-01-02 07:59:30.21	44.46	19.59	-41.2	-41.9	20.0	0.00e+00	0	55	0	1190133760	45	3829
2026-01-02 07:59:31.18	44.26	19.66	-41.4	-42.0	19.8	0.00e+00	0	55	0	1195376640	45	3908
2026-01-02 07:59:32.17	44.05	19.73	-41.2	-41.8	20.0	0.00e+00	0	55	0	1200619520	45	3801
2026-01-02 07:59:33.16	43.85	19.80	-41.0	-41.7	20.1	0.00e+00	0	55	0	1206910976	45	3743
2026-01-02 07:59:34.15	43.64	19.87	-40.9	-41.6	20.2	0.00e+00	0	55	0	1212153856	45	3704
2026-01-02 07:59:35.14	43.43	19.93	-40.9	-41.5	20.3	0.00e+00	0	55	0	1217396736	44	3899
2026-01-02 07:59:36.13	43.23	20.00	-41.0	-41.6	20.2	0.00e+00	0	55	0	1222639616	44	3936
2026-01-02 07:59:37.12	43.02	20.07	-41.0	-41.7	20.1	0.00e+00	0	55	0	1228931072	44	3975
2026-01-02 07:59:38.10	42.81	20.14	-41.2	-41.9	19.9	0.00e+00	0	55	0	1234173952	44	4066
2026-01-02 07:59:39.10	42.59	20.21	-41.1	-41.7	20.1	0.00e+00	0	55	0	1239416832	44	4001
2026-01-02 07:59:40.09	42.38	20.28	-41.1	-41.8	20.1	0.00e+00	0	55	0	1245708288	44	4007
2026-01-02 07:59:41.08	42.17	20.34	-41.1	-41.8	20.0	0.00e+00	0	55	0	1250951168	44	4023
2026-01-02 07:59:42.08	41.95	20.41	-41.3	-41.9	19.9	0.00e+00	0	55	0	1256194048	44	4086
2026-01-02 07:59:43.06	41.74	20.48	-41.2	-41.8	20.0	0.00e+00	0	55	0	1262485504	44	4044
2026-01-02 07:59:44.05	41.52	20.55	-41.3	-42.0	19.9	0.00e+00	0	55	0	1267728384	44	4105
2026-01-02 07:59:45.04	41.30	20.61	-41.2	-41.9	19.9	0.00e+00	0	55	0	1272971264	44	4056
2026-01-02 07:59:46.03	41.09	20.68	-41.3	-41.9	19.9	0.00e+00	0	55	0	1279262720	44	4091
2026-01-02 07:59:47.02	40.87	20.75	-41.2	-41.9	19.9	0.00e+00	0	55	0	1284505600	44	4059
2026-01-02 07:59:48.00	40.65	20.81	-41.1	-41.8	20.0	0.00e+00	0	55	0	1289748480	44	4025
2026-01-02 07:59:48.99	40.43	20.88	-41.3	-42.0	19.8	0.00e+00	0	55	0	1294991360	44	4118
2026-01-02 07:59:49.97	40.21	20.94	-41.5	-42.2	19.6	0.00e+00	0	55	0	1301282816	44	4231
2026-01-02 07:59:50.96	39.99	21.01	-41.1	-41.8	20.0	0.00e+00	0	55	0	1306525696	44	4012
2026-01-02 07:59:51.95	39.76	21.07	-40.7	-41.4	20.4	0.00e+00	0	55	0	1311768576	44	3832
2026-01-02 07:59:52.94	39.54	21.14	-40.7	-41.3	20.5	0.00e+00	0	55	0	1318060032	44	3785
2026-01-02 07:59:53.93	39.31	21.20	-40.7	-41.3	20.5	0.00e+00	0	55	0	1323302912	44	3821
2026-01-02 07:59:54.92	39.08	21.27	-41.0	-41.6	20.2	0.00e+00	0	55	0	1328545792	44	3941
2026-01-02 07:59:55.90	38.86	21.33	-40.9	-41.6	20.2	0.00e+00	0	55	0	1333788672	44	3929
2026-01-02 07:59:56.89	38.63	21.39	-41.0	-41.7	20.1	0.00e+00	0	55	0	1340080128	44	3972
2026-01-02 07:59:57.88	38.40	21.45	-40.9	-41.6	20.2	0.00e+00	0	55	0	1345323008	44	3915
2026-01-02 07:59:58.87	38.17	21.52	-40.9	-41.5	20.3	0.00e+00	0	55	0	1350565888	44	3907
2026-01-02 07:59:59.86	37.94	21.58	-40.8	-41.4	20.4	0.00e+00	0	55	0	1356857344	44	3854
2026-01-02 08:00:00.85	37.71	21.64	-40.7	-41.3	20.5	0.00e+00	0	55	0	1362100224	44	3824
2026-01-02 08:00:01.84	37.47	21.70	-40.7	-41.3	20.5	0.00e+00	0	55	0	1367343104	44	3794
2026-01-02 08:00:02.83	37.24	21.76	-40.7	-41.3	20.5	0.00e+00	0	55	0	1373634560	44	3794
2026-01-02 08:00:03.82	37.00	21.83	-40.7	-41.3	20.5	0.00e+00	0	55	0	1378877440	44	3798
2026-01-02 08:00:04.81	36.77	21.89	-40.9	-41.5	20.3	0.00e+00	0	55	0	1384120320	44	3897
2026-01-02 08:00:05.80	36.53	21.95	-40.7	-41.4	20.4	0.00e+00	0	55	0	1389363200	44	3833
2026-01-02 08:00:06.78	36.30	22.01	-40.7	-41.3	20.5	0.00e+00	0	56	0	1395654656	44	3800
2026-01-02 08:00:07.78	36.05	22.06	-40.8	-41.5	20.3	0.00e+00	0	55	0	1400897536	44	3874
2026-01-02 08:00:08.77	35.81	22.12	-40.8	-41.4	20.4	0.00e+00	0	55	0	1407188992	44	3862
2026-01-02 08:00:09.77	35.57	22.18	-40.9	-41.5	20.3	0.00e+00	0	55	0	1412431872	44	3904
2026-01-02 08:00:10.75	35.33	22.24	-41.1	-41.8	20.0	0.00e+00	0	55	0	1417674752	44	4011
2026-01-02 08:00:11.74	35.09	22.30	-41.0	-41.7	20.1	0.00e+00	0	55	0	1422917632	44	3971
2026-01-02 08:00:12.73	34.85	22.36	-40.8	-41.5	20.3	0.00e+00	0	55	0	1429209088	44	3872
2026-01-02 08:00:13.72	34.60	22.41	-40.8	-41.4	20.4	0.00e+00	0	55	0	1434451968	44	3844
2026-01-02 08:00:14.71	34.36	22.47	-40.8	-41.4	20.4	0.00e+00	0	55	0	1439694848	44	3854
2026-01-02 08:00:15.70	34.11	22.52	-40.8	-41.5	20.4	0.00e+00	0	55	0	1445986304	44	3877
2026-01-02 08:00:16.70	33.86	22.58	-41.0	-41.6	20.2	0.00e+00	0	55	0	1451229184	44	3956
2026-01-02 08:00:17.69	33.61	22.64	-40.9	-41.6	20.2	0.00e+00	0	55	0	1456472064	44	3914
2026-01-02 08:00:18.68	33.36	22.69	-40.7	-41.4	20.5	0.00e+00	0	55	0	1462763520	44	3825
2026-01-02 08:00:19.67	33.11	22.74	-40.8	-41.4	20.4	0.00e+00	0	56	0	1468006400	44	3833
2026-01-02 08:00:20.65	32.87	22.80	-40.7	-41.4	20.5	0.00e+00	0	56	0	1473249280	44	3827
2026-01-02 08:00:21.64	32.62	22.85	-40.8	-41.5	20.4	0.00e+00	0	55	0	1478492160	44	3874
2026-01-02 08:00:22.62	32.37	22.90	-41.0	-41.6	20.2	0.00e+00	0	56	0	1484783616	44	3943
2026-01-02 08:00:23.61	32.11	22.96	-40.9	-41.5	20.3	0.00e+00	0	55	0	1490026496	44	3911
2026-01-02 08:00:24.60	31.86	23.01	-40.7	-41.3	20.5	0.00e+00	0	56	0	1495269376	44	3801
2026-01-02 08:00:25.60	31.60	23.06	-40.5	-41.1	20.7	0.00e+00	0	56	0	1501560832	44	3721
2026-01-02 08:00:26.59	31.35	23.11	-40.5	-41.1	20.7	0.00e+00	0	55	0	1506803712	44	3712
2026-01-02 08:00:27.58	31.09	23.16	-40.4	-41.0	20.8	0.00e+00	0	55	0	1512046592	44	3679
2026-01-02 08:00:28.56	30.83	23.21	-40.3	-40.9	20.8	0.00e+00	0	55	0	1518338048	43	3836
2026-01-02 08:00:29.53	30.58	23.26	-40.5	-41.1	20.6	0.00e+00	0	56	0	1523580928	43	3928
2026-01-02 08:00:30.52	30.32	23.31	-40.6	-41.2	20.6	0.00e+00	0	56	0	1528823808	43	3977
2026-01-02 08:00:31.51	30.06	23.35	-40.3	-40.9	20.8	0.00e+00	0	56	0	1535115264	43	3859
2026-01-02 08:00:32.50	29.80	23.40	-40.2	-40.8	20.9	0.00e+00	0	56	0	1540358144	43	3818
2026-01-02 08:00:33.49	29.54	23.45	-40.3	-40.9	20.9	0.00e+00	0	56	0	1545601024	43	3829
2026-01-02 08:00:34.48	29.28	23.49	-40.2	-40.8	20.9	0.00e+00	0	55	0	1550843904	43	3792
2026-01-02 08:00:35.46	29.02	23.54	-40.1	-40.7	21.0	0.00e+00	0	56	0	1557135360	43	3752
2026-01-02 08:00:36.45	28.75	23.58	-40.2	-40.8	21.0	0.00e+00	0	56	0	1562378240	43	3781
2026-01-02 08:00:37.44	28.49	23.63	-40.4	-41.0	20.8	0.00e+00	0	56	0	1567621120	43	3879
2026-01-02 08:00:38.42	28.23	23.67	-40.5	-41.1	20.6	0.00e+00	0	56	0	1573912576	43	3922
2026-01-02 08:00:39.41	27.96	23.72	-40.4	-41.0	20.8	0.00e+00	0	56	0	1579155456	43	3871
2026-01-02 08:00:40.40	27.69	23.76	-40.5	-41.1	20.7	0.00e+00	0	56	0	1584398336	43	3932
2026-01-02 08:00:41.39	27.43	23.80	-40.5	-41.1	20.6	0.00e+00	0	56	0	1589641216	43	3927
2026-01-02 08:00:42.37	27.16	23.84	-40.4	-41.0	20.7	0.00e+00	0	56	0	1595932672	43	3894
2026-01-02 08:00:43.36	26.89	23.88	-40.6	-41.2	20.5	0.00e+00	0	56	0	1601175552	43	3984
2026-01-02 08:00:44.35	26.62	23.92	-40.8	-41.4	20.3	0.00e+00	0	56	0	1606418432	43	4086
2026-01-02 08:00:45.33	26.36	23.96	-40.6	-41.3	20.5	0.00e+00	0	56	0	1612709888	43	4012
2026-01-02 08:00:46.33	26.08	24.00	-40.6	-41.2	20.5	0.00e+00	0	56	0	1617952768	43	3999
2026-01-02 08:00:47.32	25.81	24.04	-40.7	-41.3	20.5	0.00e+00	0	56	0	1623195648	43	4028
2026-01-02 08:00:48.31	25.54	24.08	-40.5	-41.1	20.6	0.00e+00	0	56	0	1629487104	43	3927
2026-01-02 08:00:49.30	25.27	24.12	-40.3	-40.9	20.8	0.00e+00	0	56	0	1634729984	43	3846
2026-01-02 08:00:50.29	24.99	24.15	-40.3	-40.8	20.8	0.00e+00	0	56	0	1639972864	43	3818
2026-01-02 08:00:51.28	24.72	24.19	-40.3	-40.9	20.8	0.00e+00	0	56	0	1646264320	43	3837
2026-01-02 08:00:52.26	24.45	24.22	-40.5	-41.1	20.6	0.00e+00	0	56	0	1651507200	43	3931
2026-01-02 08:00:53.26	24.17	24.26	-40.6	-41.2	20.5	0.00e+00	0	56	0	1656750080	43	3996
2026-01-02 08:00:54.25	23.89	24.29	-40.4	-41.0	20.7	0.00e+00	0	56	0	1661992960	43	3890
2026-01-02 08:00:55.24	23.61	24.33	-40.5	-41.1	20.7	0.00e+00	0	56	0	1668284416	43	3914
2026-01-02 08:00:56.22	23.34	24.36	-40.4	-41.0	20.7	0.00e+00	0	56	0	1673527296	43	3893
2026-01-02 08:00:57.21	23.06	24.39	-40.5	-41.0	20.7	0.00e+00	0	56	0	1678770176	43	3909
2026-01-02 08:00:58.20	22.78	24.42	-40.5	-41.1	20.6	0.00e+00	0	56	0	1685061632	43	3937
2026-01-02 08:00:59.19	22.51	24.45	-40.6	-41.3	20.4	0.00e+00	0	56	0	1690304512	43	4007
2026-01-02 08:01:00.17	22.23	24.48	-40.4	-41.0	20.7	0.00e+00	0	56	0	1695547392	43	3894
2026-01-02 08:01:01.16	21.95	24.51	-40.3	-40.9	20.8	0.00e+00	0	56	0	1701838848	43	3844
2026-01-02 08:01:02.15	21.67	24.54	-40.3	-40.8	20.9	0.00e+00	0	56	0	1707081728	43	3824
2026-01-02 08:01:03.14	21.39	24.57	-40.3	-40.9	20.8	0.00e+00	0	56	0	1712324608	43	3841
2026-01-02 08:01:04.13	21.11	24.59	-40.2	-40.8	20.9	0.00e+00	0	56	0	1717567488	43	3814
2026-01-02 08:01:05.11	20.83	24.62	-40.2	-40.8	21.0	0.00e+00	0	56	0	1723858944	43	3786
2026-01-02 08:01:06.11	20.54	24.64	-40.2	-40.8	20.9	0.00e+00	0	56	0	1729101824	43	3811
2026-01-02 08:01:07.10	20.26	24.67	-40.3	-40.9	20.8	0.00e+00	0	56	0	1734344704	43	3835
2026-01-02 08:01:08.09	19.97	24.69	-40.7	-41.3	20.5	0.00e+00	0	56	0	1740636160	43	4014
2026-01-02 08:01:09.08	19.69	24.72	-40.5	-41.1	20.6	0.00e+00	0	56	0	1745879040	43	3957
2026-01-02 08:01:10.07	19.41	24.74	-40.4	-41.0	20.8	0.00e+00	0	56	0	1751121920	43	3881
2026-01-02 08:01:11.06	19.12	24.76	-40.3	-41.0	20.8	0.00e+00	0	56	0	1757413376	43	3872
2026-01-02 08:01:12.05	18.84	24.78	-40.5	-41.1	20.7	0.00e+00	0	56	0	1762656256	43	3923
2026-01-02 08:01:13.04	18.55	24.80	-40.7	-41.3	20.4	0.00e+00	0	56	0	1767899136	43	4047
2026-01-02 08:01:14.03	18.27	24.82	-40.6	-41.2	20.5	0.00e+00	0	56	0	1774190592	43	3967
2026-01-02 08:01:15.01	17.98	24.84	-40.8	-41.4	20.3	0.00e+00	0	56	0	1779433472	43	4096
2026-01-02 08:01:16.00	17.70	24.86	-40.6	-41.2	20.5	0.00e+00	0	56	0	1784676352	43	3988
2026-01-02 08:01:17.00	17.41	24.87	-40.4	-41.0	20.7	0.00e+00	0	56	0	1789919232	43	3879
2026-01-02 08:01:17.99	17.12	24.89	-40.3	-40.8	20.9	0.00e+00	0	56	0	1796210688	43	3815
2026-01-02 08:01:18.98	16.83	24.91	-40.3	-40.9	20.8	0.00e+00	0	56	0	1801453568	43	3839
2026-01-02 08:01:19.97	16.55	24.92	-40.2	-40.8	20.9	0.00e+00	0	56	0	1806696448	43	3782
2026-01-02 08:01:20.96	16.26	24.94	-40.3	-40.9	20.8	0.00e+00	0	56	0	1812987904	43	3828
2026-01-02 08:01:21.95	15.97	24.95	-40.5	-41.1	20.6	0.00e+00	0	56	0	1818230784	43	3932
2026-01-02 08:01:22.95	15.68	24.96	-40.1	-40.6	21.0	0.00e+00	0	56	0	1823473664	43	3736
2026-01-02 08:01:23.95	15.39	24.97	-39.8	-40.4	21.3	0.00e+00	0	56	0	1829765120	42	3834
2026-01-02 08:01:24.93	15.10	24.98	-39.6	-40.2	21.4	0.00e+00	0	56	0	1835008000	42	3748
2026-01-02 08:01:25.93	14.81	24.99	-39.7	-40.2	21.4	0.00e+00	0	56	0	1840250880	42	3774
2026-01-02 08:01:26.92	14.52	25.00	-39.9	-40.4	21.2	0.00e+00	0	56	0	1846542336	42	3856
2026-01-02 08:01:27.91	14.23	25.01	-40.0	-40.6	21.0	0.00e+00	0	56	0	1851785216	42	3939
2026-01-02 08:01:28.89	13.94	25.02	-40.0	-40.6	21.0	0.00e+00	0	56	0	1857028096	42	3915
2026-01-02 08:01:29.87	13.66	25.03	-39.9	-40.5	21.1	0.00e+00	0	56	0	1863319552	42	3880
2026-01-02 08:01:30.85	13.37	25.03	-39.9	-40.5	21.0	0.00e+00	0	56	0	1868562432	42	3884
2026-01-02 08:01:31.85	13.08	25.04	-39.9	-40.4	20.9	0.00e+00	0	56	0	1873805312	42	3866
2026-01-02 08:01:32.84	12.79	25.04	-40.1	-40.7	20.6	0.00e+00	0	56	0	1879048192	42	3969
2026-01-02 08:01:33.83	12.50	25.05	-40.0	-40.7	20.5	0.00e+00	0	56	0	1885339648	42	3966
2026-01-02 08:01:34.82	12.21	25.05	-40.4	-41.1	20.1	0.00e+00	0	56	0	1890582528	42	4150
2026-01-02 08:01:35.81	11.92	25.05	-40.6	-41.3	19.8	0.00e+00	0	56	0	1896873984	43	4027
2026-01-02 08:01:36.80	11.63	25.05	-41.0	-41.7	19.3	0.00e+00	0	56	0	1902116864	43	4216
2026-01-02 08:01:37.79	11.34	25.05	-41.5	-42.2	18.9	0.00e+00	0	56	0	1907359744	44	4213
2026-01-02 08:01:38.78	11.05	25.05	-42.0	-42.8	18.1	0.00e+00	0	56	0	1912602624	45	4270
2026-01-02 08:01:39.77	10.76	25.05	-42.5	-43.3	17.4	0.00e+00	0	56	0	1918894080	46	4283
2026-01-02 08:01:40.76	10.47	25.05	-43.5	-44.6	16.0	0.00e+00	0	56	0	1924136960	48	4426
2026-01-02 08:01:41.76	10.18	25.05	-44.2	-45.5	15.0	0.00e+00	0	56	0	1929379840	50	4364
2026-01-02 08:01:42.74	9.89	25.04	-44.9	-46.4	13.9	1.10e-06	0	56	0	1935671296	51	4573
2026-01-02 08:01:43.73	9.60	25.04	-45.2	-46.9	13.3	3.66e-05	0	56	0	1940914176	52	4579
2026-01-02 08:01:44.72	9.31	25.03	-45.8	-47.7	12.5	7.20e-05	0	56	0	1946157056	53	4708
2026-01-02 08:01:45.71	9.02	25.03	-45.8	-47.7	12.6	1.90e-04	0	56	0	1952448512	53	4714
2026-01-02 08:01:46.71	8.73	25.02	-45.8	-47.7	12.7	1.23e-04	0	56	0	1957691392	53	4708
2026-01-02 08:01:47.70	8.44	25.01	-45.1	-46.5	14.0	3.77e-05	0	56	0	1962934272	53	4145
2026-01-02 08:01:48.69	8.15	25.00	-43.8	-44.9	16.2	0.00e+00	0	56	0	1968177152	50	4063
2026-01-02 08:01:49.68	7.86	24.99	-42.8	-43.7	17.6	0.00e+00	0	56	0	1974468608	48	3984
2026-01-02 08:01:50.67	7.57	24.98	-42.1	-42.9	18.4	0.00e+00	0	56	0	1979711488	47	3827
2026-01-02 08:01:51.66	7.28	24.97	-41.6	-42.3	19.1	0.00e+00	0	56	0	1986002944	46	3809
2026-01-02 08:01:52.65	6.99	24.96	-41.1	-41.8	19.7	0.00e+00	0	56	0	1991245824	45	3795
2026-01-02 08:01:53.65	6.70	24.95	-41.2	-41.8	19.8	0.00e+00	0	56	0	1996488704	45	3813
2026-01-02 08:01:54.64	6.41	24.94	-40.9	-41.6	20.1	0.00e+00	0	56	0	2001731584	45	3699
2026-01-02 08:01:55.63	6.13	24.92	-40.2	-40.8	20.7	0.00e+00	0	56	0	2008023040	43	3814
2026-01-02 08:01:56.61	5.84	24.91	-39.9	-40.5	21.0	0.00e+00	0	56	0	2013265920	43	3671
2026-01-02 08:01:57.60	5.55	24.89	-39.9	-40.5	21.0	0.00e+00	0	56	0	2018508800	42	3875
2026-01-02 08:01:58.60	5.26	24.88	-40.3	-40.9	20.4	0.00e+00	0	57	0	2024800256	42	4079
2026-01-02 08:01:59.59	4.98	24.86	-41.3	-42.1	19.1	0.00e+00	0	56	0	2030043136	44	4148
2026-01-02 08:02:00.57	4.69	24.84	-42.8	-43.7	17.1	0.00e+00	0	56	0	2035286016	47	4241
2026-01-02 08:02:01.57	4.40	24.82	-45.2	-46.7	13.9	0.00e+00	0	56	0	2041577472	52	4446
2026-01-02 08:02:02.55	4.12	24.80	-46.3	-48.4	12.0	3.16e-04	0	57	0	2046820352	54	4834
2026-01-02 08:02:03.55	3.83	24.78	-46.1	-47.9	12.7	2.01e-04	0	56	0	2052063232	54	4583
2026-01-02 08:02:04.54	3.55	24.76	-44.7	-46.0	15.0	3.40e-06	0	56	0	2057306112	52	4107
2026-01-02 08:02:05.53	3.26	24.74	-43.4	-44.3	17.2	0.00e+00	0	56	0	2063597568	50	3793
2026-01-02 08:02:06.52	2.98	24.72	-42.7	-43.5	18.4	0.00e+00	0	57	0	2068840448	48	3883
2026-01-02 08:02:07.51	2.70	24.70	-42.9	-43.7	18.3	0.00e+00	0	57	0	2075131904	48	3983
2026-01-02 08:02:08.49	2.42	24.67	-43.0	-43.8	18.2	0.00e+00	0	56	0	2080374784	48	4029
2026-01-02 08:02:09.49	2.13	24.65	-42.6	-43.3	18.6	0.00e+00	0	56	0	2085617664	48	3812
2026-01-02 08:02:10.48	1.85	24.62	-42.7	-43.5	18.6	0.00e+00	0	57	0	2090860544	48	3880
2026-01-02 08:02:11.47	1.57	24.60	-42.8	-43.6	18.5	0.00e+00	0	57	0	2097152000	48	3931
2026-01-02 08:02:12.46	1.28	24.57	-42.9	-43.7	18.3	0.00e+00	0	57	0	2102394880	48	4000
2026-01-02 08:02:13.43	1.01	24.54	-42.7	-43.4	18.6	0.00e+00	0	57	0	2107637760	48	3863
2026-01-02 08:02:14.41	0.73	24.51	-42.5	-43.2	18.8	0.00e+00	0	56	0	2113929216	48	3770
2026-01-02 08:02:15.41	0.45	24.49	-42.5	-43.3	18.8	0.00e+00	0	57	0	2119172096	48	3788
2026-01-02 08:02:16.40	0.17	24.46	-42.5	-43.2	18.8	0.00e+00	0	57	0	2124414976	48	3767
2026-01-02 08:02:17.39	359.89	24.43	-42.1	-42.9	19.0	0.00e+00	0	57	0	2129657856	47	3832
2026-01-02 08:02:18.38	359.61	24.39	-41.6	-42.2	19.6	0.00e+00	0	57	0	2135949312	46	3772
2026-01-02 08:02:19.37	359.33	24.36	-41.0	-41.6	20.2	0.00e+00	0	57	0	2141192192	45	3722
2026-01-02 08:02:20.35	359.06	24.33	-40.5	-41.0	20.8	0.00e+00	0	57	0	2147483648	44	3694
2026-01-02 08:02:21.34	358.78	24.30	-40.1	-40.7	21.0	0.00e+00	0	57	0	2152726528	43	3741
2026-01-02 08:02:22.33	358.51	24.26	-39.9	-40.4	21.2	0.00e+00	0	57	0	2157969408	42	3860
2026-01-02 08:02:23.32	358.23	24.23	-39.8	-40.4	21.3	0.00e+00	0	57	0	2163212288	42	3844
2026-01-02 08:02:24.31	357.96	24.19	-39.8	-40.4	21.3	0.00e+00	0	57	0	2169503744	42	3836
2026-01-02 08:02:25.30	357.68	24.16	-39.7	-40.3	21.4	0.00e+00	0	57	0	2174746624	42	3797
2026-01-02 08:02:26.29	357.41	24.12	-39.7	-40.2	21.4	0.00e+00	0	57	0	2179989504	42	3779
2026-01-02 08:02:27.28	357.14	24.08	-39.9	-40.4	21.3	0.00e+00	0	57	0	2186280960	42	3855
2026-01-02 08:02:28.27	356.86	24.05	-40.0	-40.6	21.0	0.00e+00	0	57	0	2191523840	42	3929
2026-01-02 08:02:29.26	356.59	24.01	-40.0	-40.6	21.1	0.00e+00	0	57	0	2196766720	42	3935
2026-01-02 08:02:30.26	356.32	23.97	-40.3	-40.9	20.8	0.00e+00	0	57	0	2203058176	42	4068
2026-01-02 08:02:31.24	356.05	23.93	-40.3	-40.9	20.8	0.00e+00	0	57	0	2208301056	42	4077
2026-01-02 08:02:32.23	355.78	23.89	-40.4	-41.0	20.7	0.00e+00	0	57	0	2213543936	42	4106
2026-01-02 08:02:33.22	355.51	23.85	-40.5	-41.1	20.6	0.00e+00	0	57	0	2218786816	42	4185
2026-01-02 08:02:34.21	355.24	23.81	-40.7	-41.3	20.4	0.00e+00	0	57	0	2225078272	43	4017
2026-01-02 08:02:35.19	354.98	23.77	-40.4	-41.0	20.7	0.00e+00	0	57	0	2230321152	43	3898
2026-01-02 08:02:36.19	354.71	23.72	-40.2	-40.8	20.9	0.00e+00	0	57	0	2235564032	43	3808
2026-01-02 08:02:37.18	354.44	23.68	-40.4	-40.9	20.8	0.00e+00	0	57	0	2241855488	43	3864
2026-01-02 08:02:38.17	354.18	23.63	-40.5	-41.0	20.6	0.00e+00	0	57	0	2247098368	43	3907
2026-01-02 08:02:39.16	353.91	23.59	-40.7	-41.3	20.4	0.00e+00	0	57	0	2252341248	43	4017
2026-01-02 08:02:40.15	353.65	23.54	-40.4	-41.0	20.7	0.00e+00	0	57	0	2257584128	43	3884
2026-01-02 08:02:41.14	353.39	23.50	-40.1	-40.7	21.0	0.00e+00	0	57	0	2263875584	43	3748
2026-01-02 08:02:42.13	353.13	23.45	-39.9	-40.5	21.1	0.00e+00	0	57	0	2269118464	43	3674
2026-01-02 08:02:43.12	352.86	23.41	-40.0	-40.5	21.1	0.00e+00	0	57	0	2275409920	43	3682
2026-01-02 08:02:44.11	352.60	23.36	-40.1	-40.7	21.0	0.00e+00	0	57	0	2280652800	43	3772
2026-01-02 08:02:45.10	352.34	23.31	-40.5	-41.1	20.6	0.00e+00	0	57	0	2285895680	43	3936
2026-01-02 08:02:46.10	352.08	23.26	-40.3	-40.9	20.8	0.00e+00	0	57	0	2291138560	43	3834
2026-01-02 08:02:47.08	351.83	23.21	-40.5	-41.1	20.5	0.00e+00	0	57	0	2297430016	43	3954
2026-01-02 08:02:48.07	351.57	23.16	-40.2	-40.8	20.8	0.00e+00	0	57	0	2302672896	43	3800
2026-01-02 08:02:49.06	351.31	23.11	-40.0	-40.6	21.1	0.00e+00	0	57	0	2307915776	43	3697
2026-01-02 08:02:50.05	351.06	23.06	-40.0	-40.5	21.1	0.00e+00	0	57	0	2314207232	43	3687
2026-01-02 08:02:51.04	350.80	23.01	-40.1	-40.7	20.9	0.00e+00	0	57	0	2319450112	43	3746
2026-01-02 08:02:52.02	350.55	22.96	-40.2	-40.8	20.9	0.00e+00	0	57	0	2324692992	43	3785
2026-01-02 08:02:53.02	350.29	22.91	-40.2	-40.7	20.9	0.00e+00	0	57	0	2330984448	43	3774
2026-01-02 08:02:54.01	350.04	22.86	-40.2	-40.8	20.8	0.00e+00	0	57	0	2336227328	43	3812
2026-01-02 08:02:55.00	349.79	22.80	-40.4	-41.0	20.7	0.00e+00	0	57	0	2341470208	43	3879
2026-01-02 08:02:55.99	349.54	22.75	-40.3	-40.9	20.8	0.00e+00	0	57	0	2346713088	43	3836
2026-01-02 08:02:56.98	349.29	22.69	-40.5	-41.1	20.5	0.00e+00	0	57	0	2353004544	43	3948
2026-01-02 08:02:57.97	349.04	22.64	-40.5	-41.1	20.5	0.00e+00	0	57	0	2358247424	43	3943
2026-01-02 08:02:58.97	348.79	22.58	-40.5	-41.1	20.5	0.00e+00	0	57	0	2364538880	43	3928
2026-01-02 08:02:59.96	348.54	22.53	-40.6	-41.2	20.4	0.00e+00	0	57	0	2369781760	43	4001
2026-01-02 08:03:00.95	348.30	22.47	-40.5	-41.1	20.6	0.00e+00	0	57	0	2375024640	43	3920
2026-01-02 08:03:01.94	348.05	22.42	-40.3	-40.9	20.7	0.00e+00	0	57	0	2380267520	43	3863
2026-01-02 08:03:02.93	347.81	22.36	-40.4	-41.0	20.7	0.00e+00	0	57	0	2386558976	43	3869
2026-01-02 08:03:03.92	347.57	22.30	-40.5	-41.1	20.6	0.00e+00	0	57	0	2391801856	43	3929
2026-01-02 08:03:04.92	347.32	22.24	-40.8	-41.4	20.3	0.00e+00	0	57	0	2397044736	43	4055
2026-01-02 08:03:05.91	347.08	22.19	-40.5	-41.1	20.6	0.00e+00	0	57	0	2403336192	43	3918
2026-01-02 08:03:06.90	346.84	22.13	-40.3	-40.9	20.7	0.00e+00	0	57	0	2408579072	43	3843
2026-01-02 08:03:07.90	346.60	22.07	-40.3	-40.8	20.8	0.00e+00	0	57	0	2413821952	43	3823
2026-01-02 08:03:08.88	346.36	22.01	-40.5	-41.1	20.6	0.00e+00	0	57	0	2420113408	43	3931
2026-01-02 08:03:09.88	346.12	21.95	-40.4	-41.0	20.6	0.00e+00	0	57	0	2425356288	43	3887
2026-01-02 08:03:10.87	345.88	21.89	-40.6	-41.2	20.5	0.00e+00	0	57	0	2430599168	43	3959
2026-01-02 08:03:11.86	345.65	21.83	-40.9	-41.5	20.1	0.00e+00	0	57	0	2436890624	43	4134
2026-01-02 08:03:12.84	345.41	21.77	-40.7	-41.3	20.3	0.00e+00	0	57	0	2442133504	43	4035
2026-01-02 08:03:13.84	345.18	21.71	-40.6	-41.2	20.5	0.00e+00	0	57	0	2447376384	43	3966
2026-01-02 08:03:14.83	344.94	21.64	-40.9	-41.5	20.1	0.00e+00	0	57	0	2453667840	43	4142
2026-01-02 08:03:15.82	344.71	21.58	-40.8	-41.4	20.2	0.00e+00	0	57	0	2458910720	43	4093
2026-01-02 08:03:16.82	344.48	21.52	-40.9	-41.5	20.1	0.00e+00	0	57	0	2464153600	43	4139
2026-01-02 08:03:17.80	344.25	21.46	-41.0	-41.6	20.0	0.00e+00	0	57	0	2469396480	43	4177
2026-01-02 08:03:18.80	344.02	21.39	-41.3	-42.0	19.8	0.00e+00	0	57	0	2475687936	44	4119
2026-01-02 08:03:19.79	343.79	21.33	-41.1	-41.8	20.0	0.00e+00	0	57	0	2480930816	44	4023
2026-01-02 08:03:20.78	343.56	21.27	-40.9	-41.6	20.2	0.00e+00	0	57	0	2487222272	44	3918
2026-01-02 08:03:21.77	343.34	21.20	-40.8	-41.4	20.3	0.00e+00	0	57	0	2492465152	44	3851
2026-01-02 08:03:22.76	343.11	21.14	-40.9	-41.5	20.3	0.00e+00	0	57	0	2497708032	44	3879
2026-01-02 08:03:23.75	342.88	21.07	-40.7	-41.3	20.4	0.00e+00	0	57	0	2502950912	44	3813
2026-01-02 08:03:24.74	342.66	21.01	-40.7	-41.4	20.3	0.00e+00	0	57	0	2509242368	44	3832
2026-01-02 08:03:25.73	342.44	20.94	-40.8	-41.5	20.2	0.00e+00	0	57	0	2514485248	44	3879
2026-01-02 08:03:26.71	342.22	20.88	-40.9	-41.5	20.2	0.00e+00	0	57	0	2519728128	44	3892
2026-01-02 08:03:27.70	342.00	20.81	-41.0	-41.7	20.0	0.00e+00	0	57	0	2526019584	44	3965
2026-01-02 08:03:28.68	341.78	20.75	-41.0	-41.6	20.1	0.00e+00	0	57	0	2531262464	44	3930
2026-01-02 08:03:29.66	341.56	20.68	-41.0	-41.6	20.0	0.00e+00	0	57	0	2536505344	44	3947
2026-01-02 08:03:30.64	341.35	20.62	-41.5	-42.1	19.5	0.00e+00	0	57	0	2541748224	44	4189
2026-01-02 08:03:31.63	341.13	20.55	-41.6	-42.3	19.4	0.00e+00	0	57	0	2548039680	45	4025
2026-01-02 08:03:32.62	340.91	20.48	-41.8	-42.5	19.1	0.00e+00	0	57	0	2553282560	45	4138
2026-01-02 08:03:33.61	340.70	20.42	-42.1	-42.8	18.8	0.00e+00	0	57	0	2558525440	46	4034
2026-01-02 08:03:34.60	340.48	20.35	-42.3	-43.1	18.4	0.00e+00	0	57	0	2564816896	46	4180
2026-01-02 08:03:35.59	340.27	20.28	-42.7	-43.6	17.9	0.00e+00	0	57	0	2570059776	47	4156
2026-01-02 08:03:36.58	340.06	20.21	-43.4	-44.3	17.3	1.10e-06	0	57	0	2575302656	48	4259
2026-01-02 08:03:37.57	339.85	20.14	-43.9	-44.8	16.7	0.00e+00	0	57	0	2581594112	49	4280
2026-01-02 08:03:38.57	339.63	20.08	-44.1	-45.2	16.3	0.00e+00	0	57	0	2586836992	50	4196
2026-01-02 08:03:39.56	339.43	20.01	-44.3	-45.4	16.0	0.00e+00	0	57	0	2592079872	50	4307
2026-01-02 08:03:40.55	339.22	19.94	-44.3	-45.4	15.9	0.00e+00	0	57	0	2597322752	50	4312
2026-01-02 08:03:41.53	339.01	19.87	-44.3	-45.4	15.9	0.00e+00	0	57	0	2603614208	50	4317
2026-01-02 08:03:42.52	338.80	19.80	-44.4	-45.5	15.8	0.00e+00	0	57	0	2608857088	50	4368
2026-01-02 08:03:43.51	338.60	19.73	-44.4	-45.5	15.8	0.00e+00	0	57	0	2615148544	51	4132
2026-01-02 08:03:44.50	338.39	19.66	-43.9	-44.9	16.4	0.00e+00	0	57	0	2620391424	51	3845
2026-01-02 08:03:45.50	338.19	19.59	-43.3	-44.2	17.1	0.00e+00	0	57	0	2625634304	49	4003
2026-01-02 08:03:46.50	337.98	19.52	-43.0	-43.9	17.6	0.00e+00	0	57	0	2630877184	49	3829
2026-01-02 08:03:47.49	337.78	19.45	-42.8	-43.6	17.8	0.00e+00	0	57	0	2637168640	48	3958
2026-01-02 08:03:48.47	337.58	19.38	-42.5	-43.3	18.2	0.00e+00	0	57	0	2642411520	48	3822
2026-01-02 08:03:49.47	337.38	19.31	-41.9	-42.6	18.7	0.00e+00	0	57	0	2647654400	47	3728
2026-01-02 08:03:50.46	337.18	19.24	-41.5	-42.2	19.2	0.00e+00	0	57	0	2653945856	46	3742
2026-01-02 08:03:51.45	336.98	19.17	-41.3	-41.9	19.5	0.00e+00	0	57	0	2659188736	45	3861
2026-01-02 08:03:52.44	336.79	19.10	-41.1	-41.7	19.7	0.00e+00	0	57	0	2664431616	45	3779
2026-01-02 08:03:53.43	336.59	19.02	-40.9	-41.5	19.9	0.00e+00	0	57	0	2670723072	44	3910
2026-01-02 08:03:54.43	336.39	18.95	-40.9	-41.5	20.0	0.00e+00	0	57	0	2675965952	44	3899
2026-01-02 08:03:55.42	336.20	18.88	-41.2	-41.9	19.7	0.00e+00	0	57	0	2681208832	44	4056
2026-01-02 08:03:56.42	336.00	18.81	-41.7	-42.4	19.1	0.00e+00	0	57	0	2687500288	45	4097
2026-01-02 08:03:57.41	335.81	18.74	-41.9	-42.6	19.1	0.00e+00	0	57	0	2692743168	45	4181
2026-01-02 08:03:58.40	335.62	18.66	-42.0	-42.7	18.9	0.00e+00	0	57	0	2697986048	45	4241
2026-01-02 08:03:59.39	335.43	18.59	-41.9	-42.6	19.1	0.00e+00	0	57	0	2704277504	46	3949
2026-01-02 08:04:00.39	335.24	18.52	-41.7	-42.4	19.4	0.00e+00	0	57	0	2709520384	46	3828
2026-01-02 08:04:01.38	335.05	18.45	-41.5	-42.2	19.5	0.00e+00	0	57	0	2714763264	46	3755
2026-01-02 08:04:02.37	334.86	18.37	-41.6	-42.3	19.5	0.00e+00	0	57	0	2721054720	46	3808
2026-01-02 08:04:03.35	334.67	18.30	-41.8	-42.5	19.3	0.00e+00	0	57	0	2726297600	46	3874
2026-01-02 08:04:04.35	334.48	18.23	-41.8	-42.5	19.3	0.00e+00	0	57	0	2731540480	46	3882
2026-01-02 08:04:05.34	334.30	18.16	-41.9	-42.6	19.2	0.00e+00	0	57	0	2737831936	46	3929
2026-01-02 08:04:06.33	334.12	18.08	-41.6	-42.3	19.5	0.00e+00	0	57	0	2743074816	46	3813
2026-01-02 08:04:07.32	333.93	18.01	-41.5	-42.2	19.6	0.00e+00	0	57	0	2748317696	46	3740
2026-01-02 08:04:08.30	333.75	17.94	-41.3	-42.0	19.8	0.00e+00	0	58	0	2753560576	45	3880
2026-01-02 08:04:09.29	333.57	17.87	-41.2	-41.8	20.0	0.00e+00	0	57	0	2759852032	45	3817
2026-01-02 08:04:10.28	333.39	17.79	-41.1	-41.8	19.9	0.00e+00	0	57	0	2765094912	45	3796
2026-01-02 08:04:11.28	333.21	17.72	-41.1	-41.8	20.0	0.00e+00	0	57	0	2770337792	45	3793
2026-01-02 08:04:12.27	333.03	17.65	-41.3	-41.9	19.9	0.00e+00	0	57	0	2776629248	45	3855
2026-01-02 08:04:13.26	332.85	17.57	-41.3	-42.0	19.8	0.00e+00	0	57	0	2781872128	45	3869
2026-01-02 08:04:14.25	332.67	17.50	-41.4	-42.1	19.7	0.00e+00	0	57	0	2787115008	45	3931
2026-01-02 08:04:15.24	332.50	17.42	-41.6	-42.3	19.5	0.00e+00	0	57	0	2793406464	45	4026
2026-01-02 08:04:16.22	332.32	17.35	-41.6	-42.3	19.5	0.00e+00	0	57	0	2798649344	45	4043
2026-01-02 08:04:17.21	332.15	17.28	-41.8	-42.5	19.3	0.00e+00	0	57	0	2803892224	45	4125
2026-01-02 08:04:18.20	331.97	17.20	-41.7	-42.4	19.4	0.00e+00	0	57	0	2809135104	45	4089
2026-01-02 08:04:19.19	331.80	17.13	-41.9	-42.6	19.2	0.00e+00	0	57	0	2815426560	45	4167
2026-01-02 08:04:20.17	331.63	17.06	-41.7	-42.4	19.3	0.00e+00	0	57	0	2820669440	45	4090
2026-01-02 08:04:21.16	331.46	16.98	-42.0	-42.7	19.1	0.00e+00	0	57	0	2826960896	45	4218
2026-01-02 08:04:22.14	331.29	16.91	-42.3	-43.0	18.8	0.00e+00	0	57	0	2832203776	46	4125
2026-01-02 08:04:23.13	331.12	16.84	-42.3	-43.0	18.8	0.00e+00	0	57	0	2837446656	46	4136
2026-01-02 08:04:24.11	330.95	16.76	-42.4	-43.2	18.6	0.00e+00	0	57	0	2842689536	46	4213
2026-01-02 08:04:25.10	330.79	16.69	-42.6	-43.4	18.5	0.00e+00	0	57	0	2847932416	47	4060
2026-01-02 08:04:26.09	330.62	16.62	-42.3	-43.1	18.8	0.00e+00	0	57	0	2854223872	47	3936
2026-01-02 08:04:27.08	330.45	16.54	-42.2	-42.9	18.9	0.00e+00	0	57	0	2859466752	47	3844
2026-01-02 08:04:28.07	330.29	16.47	-42.1	-42.8	19.0	0.00e+00	0	57	0	2865758208	47	3813
2026-01-02 08:04:29.05	330.12	16.39	-42.2	-42.9	18.9	0.00e+00	0	57	0	2871001088	47	3838
2026-01-02 08:04:30.03	329.96	16.32	-42.2	-42.9	18.9	0.00e+00	0	57	0	2876243968	47	3846
2026-01-02 08:04:31.01	329.80	16.25	-42.6	-43.4	18.4	0.00e+00	0	57	0	2881486848	47	4062
2026-01-02 08:04:32.00	329.64	16.17	-42.3	-43.0	18.8	0.00e+00	0	57	0	2886729728	47	3910
2026-01-02 08:04:32.99	329.48	16.10	-42.0	-42.7	19.1	0.00e+00	0	57	0	2893021184	47	3767
2026-01-02 08:04:33.98	329.32	16.03	-41.9	-42.6	19.2	0.00e+00	0	57	0	2898264064	46	3919
2026-01-02 08:04:34.97	329.16	15.95	-41.8	-42.5	19.3	0.00e+00	0	57	0	2904555520	46	3893
2026-01-02 08:04:35.97	329.00	15.88	-42.0	-42.7	19.1	0.00e+00	0	57	0	2909798400	46	3989
2026-01-02 08:04:36.96	328.84	15.80	-42.1	-42.8	19.0	0.00e+00	0	57	0	2915041280	46	4030
2026-01-02 08:04:37.96	328.68	15.73	-42.1	-42.8	19.0	0.00e+00	0	57	0	2921332736	46	4032
2026-01-02 08:04:38.95	328.52	15.65	-42.2	-42.9	18.9	0.00e+00	0	57	0	2926575616	46	4082
2026-01-02 08:04:39.94	328.37	15.58	-42.1	-42.8	19.0	0.00e+00	0	58	0	2931818496	46	4048
2026-01-02 08:04:40.92	328.21	15.51	-42.1	-42.9	18.9	0.00e+00	0	57	0	2937061376	46	4064
2026-01-02 08:04:41.91	328.06	15.43	-42.1	-42.9	19.0	0.00e+00	0	57	0	2943352832	46	4053
2026-01-02 08:04:42.90	327.91	15.36	-42.2	-42.9	18.9	0.00e+00	0	57	0	2948595712	46	4093
2026-01-02 08:04:43.89	327.75	15.28	-42.1	-42.9	18.9	0.00e+00	0	57	0	2953838592	46	4063
2026-01-02 08:04:44.88	327.60	15.21	-42.0	-42.7	19.1	0.00e+00	0	57	0	2960130048	46	4001
2026-01-02 08:04:45.87	327.45	15.14	-42.1	-42.8	19.0	0.00e+00	0	57	0	2965372928	46	4035
2026-01-02 08:04:46.86	327.30	15.06	-42.3	-43.1	18.7	0.00e+00	0	57	0	2970615808	46	4170
2026-01-02 08:04:47.85	327.15	14.99	-42.3	-43.0	18.8	0.00e+00	0	57	0	2975858688	46	4138
2026-01-02 08:04:48.84	327.00	14.91	-42.3	-43.0	18.8	0.00e+00	0	57	0	2982150144	46	4137
2026-01-02 08:04:49.83	326.85	14.84	-42.4	-43.2	18.6	0.00e+00	0	57	0	2987393024	46	4212
2026-01-02 08:04:50.82	326.71	14.77	-42.3	-43.0	18.7	0.00e+00	0	57	0	2993684480	46	4132
2026-01-02 08:04:51.82	326.56	14.69	-42.3	-43.0	18.8	0.00e+00	0	57	0	2998927360	46	4121
2026-01-02 08:04:52.81	326.41	14.62	-42.3	-43.0	18.8	0.00e+00	0	57	0	3004170240	46	4129
2026-01-02 08:04:53.80	326.27	14.54	-42.5	-43.2	18.6	0.00e+00	0	58	0	3009413120	46	4238
2026-01-02 08:04:54.79	326.12	14.47	-42.5	-43.2	18.6	0.00e+00	0	57	0	3015704576	46	4229
2026-01-02 08:04:55.78	325.98	14.40	-42.6	-43.4	18.4	0.00e+00	0	57	0	3020947456	47	4087
2026-01-02 08:04:56.77	325.84	14.32	-42.6	-43.4	18.4	0.00e+00	0	57	0	3027238912	47	4055
2026-01-02 08:04:57.77	325.69	14.25	-42.6	-43.4	18.3	0.00e+00	0	57	0	3032481792	47	4096
2026-01-02 08:04:58.76	325.55	14.17	-42.9	-43.8	18.0	0.00e+00	0	57	0	3037724672	47	4258
2026-01-02 08:04:59.76	325.41	14.10	-42.8	-43.6	18.2	0.00e+00	0	57	0	3044016128	47	4186
2026-01-02 08:05:00.75	325.27	14.03	-42.5	-43.3	18.5	0.00e+00	0	57	0	3049259008	47	4036
2026-01-02 08:05:01.73	325.13	13.95	-42.3	-43.1	18.7	0.00e+00	0	57	0	3054501888	47	3945
2026-01-02 08:05:02.72	324.99	13.88	-42.3	-43.1	18.7	0.00e+00	0	57	0	3059744768	47	3920
2026-01-02 08:05:03.71	324.86	13.81	-42.3	-43.1	18.7	0.00e+00	0	57	0	3066036224	47	3915
2026-01-02 08:05:04.70	324.72	13.73	-42.3	-43.1	18.7	0.00e+00	0	57	0	3071279104	47	3929
2026-01-02 08:05:05.69	324.58	13.66	-42.4	-43.2	18.6	0.00e+00	0	57	0	3076521984	47	3974
2026-01-02 08:05:06.68	324.45	13.59	-42.5	-43.2	18.6	0.00e+00	0	57	0	3082813440	47	3987
2026-01-02 08:05:07.68	324.31	13.51	-42.5	-43.3	18.5	0.00e+00	0	57	0	3088056320	47	4008
2026-01-02 08:05:08.67	324.17	13.44	-42.7	-43.4	18.3	0.00e+00	0	57	0	3093299200	47	4096
2026-01-02 08:05:09.66	324.04	13.37	-42.6	-43.4	18.4	0.00e+00	0	58	0	3099590656	47	4082
2026-01-02 08:05:10.64	323.91	13.30	-42.7	-43.4	18.3	0.00e+00	0	57	0	3104833536	47	4091
2026-01-02 08:05:11.63	323.78	13.22	-42.7	-43.4	18.3	0.00e+00	0	57	0	3110076416	47	4087
2026-01-02 08:05:12.62	323.65	13.15	-42.6	-43.4	18.3	0.00e+00	0	58	0	3116367872	47	4079
2026-01-02 08:05:13.61	323.51	13.08	-42.8	-43.6	18.1	0.00e+00	0	57	0	3121610752	47	4192
2026-01-02 08:05:14.60	323.38	13.00	-42.9	-43.7	18.0	0.00e+00	0	57	0	3126853632	47	4227
2026-01-02 08:05:15.59	323.25	12.93	-42.9	-43.8	18.0	0.00e+00	0	57	0	3132096512	47	4246
2026-01-02 08:05:16.57	323.13	12.86	-43.0	-43.9	17.9	0.00e+00	0	57	0	3138387968	47	4306
2026-01-02 08:05:17.57	323.00	12.79	-43.2	-44.0	17.9	0.00e+00	0	57	0	3143630848	48	4144
2026-01-02 08:05:18.56	322.87	12.72	-43.2	-44.1	17.9	0.00e+00	0	57	0	3148873728	48	4162
2026-01-02 08:05:19.55	322.74	12.64	-43.3	-44.2	17.7	0.00e+00	0	57	0	3155165184	48	4214
2026-01-02 08:05:20.54	322.61	12.57	-43.4	-44.2	17.7	0.00e+00	0	57	0	3159359488	48	4215
2026-01-02 08:05:21.53	322.49	12.50	-43.3	-44.1	17.8	0.00e+00	0	57	0	3165650944	48	4193
2026-01-02 08:05:22.52	322.36	12.43	-43.6	-44.5	17.4	0.00e+00	0	58	0	3171942400	48	4351
2026-01-02 08:05:23.51	322.24	12.35	-43.6	-44.5	17.4	0.00e+00	0	58	0	3177185280	49	4123
2026-01-02 08:05:24.50	322.11	12.28	-43.7	-44.6	17.3	0.00e+00	0	57	0	3182428160	49	4166
2026-01-02 08:05:25.50	321.99	12.21	-43.8	-44.7	17.2	0.00e+00	0	57	0	3187671040	49	4213
2026-01-02 08:05:26.49	321.87	12.14	-43.9	-44.8	17.1	0.00e+00	0	58	0	3193962496	49	4270
2026-01-02 08:05:27.48	321.74	12.07	-43.9	-44.8	17.0	0.00e+00	0	58	0	3199205376	49	4290
2026-01-02 08:05:28.46	321.62	12.00	-43.8	-44.7	17.2	0.00e+00	0	58	0	3205496832	49	4236
2026-01-02 08:05:29.46	321.50	11.92	-43.8	-44.8	17.1	0.00e+00	0	58	0	3210739712	49	4248
2026-01-02 08:05:30.44	321.38	11.85	-44.0	-45.0	17.0	0.00e+00	0	57	0	3215982592	49	4345
2026-01-02 08:05:31.44	321.26	11.78	-44.2	-45.2	16.8	0.00e+00	0	57	0	3221225472	50	4195
2026-01-02 08:05:32.44	321.14	11.71	-43.9	-44.8	17.1	0.00e+00	0	57	0	3227516928	50	4024
2026-01-02 08:05:33.42	321.02	11.64	-43.6	-44.5	17.4	0.00e+00	0	58	0	3232759808	50	3881
2026-01-02 08:05:34.41	320.91	11.57	-43.6	-44.5	17.4	0.00e+00	0	58	0	3238002688	50	3886
2026-01-02 08:05:35.40	320.79	11.50	-43.7	-44.6	17.3	0.00e+00	0	57	0	3244294144	50	3942
2026-01-02 08:05:36.39	320.67	11.42	-43.8	-44.7	17.2	0.00e+00	0	57	0	3249537024	50	3988
2026-01-02 08:05:37.39	320.55	11.35	-43.8	-44.8	17.1	0.00e+00	0	57	0	3254779904	50	4022
2026-01-02 08:05:38.38	320.44	11.28	-43.9	-44.9	17.0	0.00e+00	0	57	0	3261071360	50	4068
2026-01-02 08:05:39.36	320.32	11.21	-44.0	-44.9	16.9	0.00e+00	0	57	0	3266314240	50	4092
2026-01-02 08:05:40.35	320.21	11.14	-43.9	-44.9	17.0	0.00e+00	0	57	0	3271557120	50	4070
2026-01-02 08:05:41.34	320.10	11.07	-44.1	-45.0	16.9	0.00e+00	0	58	0	3276800000	50	4140
2026-01-02 08:05:42.33	319.98	11.00	-44.2	-45.2	16.7	0.00e+00	0	58	0	3283091456	50	4220
2026-01-02 08:05:43.33	319.87	10.93	-44.2	-45.1	16.8	0.00e+00	0	57	0	3288334336	50	4176
2026-01-02 08:05:44.31	319.76	10.86	-44.2	-45.2	16.7	0.00e+00	0	57	0	3294625792	50	4217
2026-01-02 08:05:45.30	319.65	10.79	-44.1	-45.0	16.8	0.00e+00	0	57	0	3299868672	50	4124
2026-01-02 08:05:46.29	319.53	10.72	-44.0	-45.0	16.9	0.00e+00	0	57	0	3305111552	50	4115
2026-01-02 08:05:47.28	319.42	10.65	-44.2	-45.2	16.7	0.00e+00	0	57	0	3310354432	50	4196
2026-01-02 08:05:48.27	319.31	10.58	-44.4	-45.4	16.5	0.00e+00	0	58	0	3316645888	50	4310
2026-01-02 08:05:49.26	319.20	10.51	-44.4	-45.4	16.4	0.00e+00	0	57	0	3321888768	50	4335
2026-01-02 08:05:50.25	319.10	10.44	-44.6	-45.7	16.2	0.00e+00	0	57	0	3327131648	51	4194
2026-01-02 08:05:51.23	318.99	10.37	-44.3	-45.3	16.5	0.00e+00	0	57	0	3333423104	51	4032
2026-01-02 08:05:52.22	318.88	10.30	-44.1	-45.1	16.8	0.00e+00	0	57	0	3338665984	51	3923
2026-01-02 08:05:53.21	318.77	10.23	-44.1	-45.1	16.8	0.00e+00	0	57	0	3343908864	51	3917
2026-01-02 08:05:54.21	318.66	10.16	-44.2	-45.2	16.6	0.00e+00	0	58	0	3350200320	51	3990
2026-01-02 08:05:55.20	318.56	10.09	-44.1	-45.0	16.8	0.00e+00	0	57	0	3355443200	51	3911
2026-01-02 08:05:56.18	318.45	10.03	-43.9	-44.9	16.9	0.00e+00	0	57	0	3360686080	51	3851
2026-01-02 08:05:57.17	318.35	9.96	-43.9	-44.8	17.0	0.00e+00	0	57	0	3366977536	50	4039
2026-01-02 08:05:58.17	318.24	9.89	-43.9	-44.8	17.0	0.00e+00	0	57	0	3372220416	50	4033
2026-01-02 08:05:59.16	318.14	9.82	-43.8	-44.8	17.1	0.00e+00	0	58	0	3377463296	50	4010
2026-01-02 08:06:00.15	318.03	9.75	-43.9	-44.9	17.0	0.00e+00	0	57	0	3382706176	50	4056
2026-01-02 08:06:01.14	317.93	9.68	-44.1	-45.1	16.7	0.00e+00	0	57	0	3388997632	50	4163
2026-01-02 08:06:02.13	317.83	9.61	-44.3	-45.3	16.5	0.00e+00	0	58	0	3394240512	50	4266
2026-01-02 08:06:03.13	317.72	9.54	-44.2	-45.2	16.6	0.00e+00	0	58	0	3399483392	50	4205
2026-01-02 08:06:04.12	317.62	9.47	-44.3	-45.4	16.4	0.00e+00	0	58	0	3405774848	50	4301
2026-01-02 08:06:05.11	317.52	9.41	-44.1	-45.2	16.6	0.00e+00	0	58	0	3411017728	50	4195
2026-01-02 08:06:06.10	317.42	9.34	-44.1	-45.1	16.6	0.00e+00	0	57	0	3416260608	50	4188
2026-01-02 08:06:07.10	317.32	9.27	-44.1	-45.0	16.8	0.00e+00	0	58	0	3422552064	50	4132
2026-01-02 08:06:08.08	317.22	9.20	-44.1	-45.0	16.7	0.00e+00	0	57	0	3427794944	50	4135
2026-01-02 08:06:09.06	317.12	9.14	-44.3	-45.3	16.5	0.00e+00	0	57	0	3433037824	50	4254
2026-01-02 08:06:10.05	317.02	9.07	-44.1	-45.0	16.7	0.00e+00	0	58	0	3438280704	50	4142
2026-01-02 08:06:11.03	316.92	9.00	-44.0	-44.9	16.8	0.00e+00	0	57	0	3444572160	50	4094
2026-01-02 08:06:12.02	316.83	8.93	-44.0	-45.0	16.8	0.00e+00	0	58	0	3449815040	50	4112
2026-01-02 08:06:13.01	316.73	8.87	-44.3	-45.3	16.5	0.00e+00	0	58	0	3456106496	50	4260
2026-01-02 08:06:14.00	316.63	8.80	-44.1	-45.1	16.7	0.00e+00	0	57	0	3461349376	50	4165
2026-01-02 08:06:14.99	316.54	8.73	-44.1	-45.1	16.7	0.00e+00	0	57	0	3466592256	50	4159
2026-01-02 08:06:15.98	316.44	8.66	-44.3	-45.3	16.5	0.00e+00	0	58	0	3471835136	50	4261
2026-01-02 08:06:16.97	316.34	8.60	-44.2	-45.2	16.6	0.00e+00	0	58	0	3478126592	50	4208
2026-01-02 08:06:17.96	316.25	8.53	-44.3	-45.3	16.4	0.00e+00	0	58	0	3483369472	50	4281
2026-01-02 08:06:18.95	316.15	8.46	-44.5	-45.6	16.1	0.00e+00	0	58	0	3488612352	50	4423
2026-01-02 08:06:19.92	316.06	8.40	-44.4	-45.5	16.2	0.00e+00	0	58	0	3494903808	51	4127
2026-01-02 08:06:20.91	315.97	8.33	-44.7	-45.8	15.9	0.00e+00	0	58	0	3500146688	51	4281
2026-01-02 08:06:21.90	315.87	8.26	-44.8	-46.0	15.8	0.00e+00	0	57	0	3505389568	51	4347
2026-01-02 08:06:22.89	315.78	8.20	-44.7	-45.8	15.9	0.00e+00	0	57	0	3510632448	51	4290
2026-01-02 08:06:23.89	315.69	8.13	-44.8	-45.9	15.8	0.00e+00	0	58	0	3516923904	51	4317
2026-01-02 08:06:24.87	315.60	8.07	-44.8	-46.0	15.7	0.00e+00	0	57	0	3522166784	51	4352
2026-01-02 08:06:25.87	315.50	8.00	-45.1	-46.3	15.4	0.00e+00	0	58	0	3527409664	51	4501
2026-01-02 08:06:26.86	315.41	7.93	-44.8	-46.0	15.6	0.00e+00	0	58	0	3533701120	52	4112
2026-01-02 08:06:27.85	315.32	7.87	-45.0	-46.2	15.4	0.00e+00	0	58	0	3538944000	52	4228
2026-01-02 08:06:28.84	315.23	7.80	-45.0	-46.1	15.4	0.00e+00	0	58	0	3544186880	52	4185
2026-01-02 08:06:29.82	315.14	7.74	-44.5	-45.6	16.0	0.00e+00	0	58	0	3550478336	52	3955
2026-01-02 08:06:30.81	315.05	7.67	-44.4	-45.5	16.1	0.00e+00	0	58	0	3555721216	52	3872
2026-01-02 08:06:31.80	314.96	7.60	-44.4	-45.5	16.2	0.00e+00	0	58	0	3560964096	51	4117
2026-01-02 08:06:32.78	314.87	7.54	-44.4	-45.4	16.2	0.00e+00	0	58	0	3566206976	51	4085
2026-01-02 08:06:33.77	314.79	7.47	-44.4	-45.4	16.2	0.00e+00	0	57	0	3572498432	51	4068
2026-01-02 08:06:34.76	314.70	7.41	-44.3	-45.3	16.3	0.00e+00	0	58	0	3577741312	51	4032
2026-01-02 08:06:35.74	314.61	7.35	-44.3	-45.4	16.3	0.00e+00	0	58	0	3582984192	51	4062
2026-01-02 08:06:36.74	314.52	7.28	-44.3	-45.4	16.3	0.00e+00	0	58	0	3589275648	51	4058
2026-01-02 08:06:37.73	314.44	7.21	-44.4	-45.5	16.2	0.00e+00	0	57	0	3594518528	51	4111
2026-01-02 08:06:38.72	314.35	7.15	-44.4	-45.5	16.2	0.00e+00	0	57	0	3599761408	51	4102
2026-01-02 08:06:39.71	314.26	7.09	-44.5	-45.5	16.1	0.00e+00	0	57	0	3606052864	51	4138
2026-01-02 08:06:40.69	314.18	7.02	-44.4	-45.4	16.2	0.00e+00	0	57	0	3611295744	51	4091
2026-01-02 08:06:41.67	314.10	6.96	-44.6	-45.8	15.8	0.00e+00	0	58	0	3616538624	51	4244
2026-01-02 08:06:42.67	314.01	6.89	-44.7	-45.8	15.8	0.00e+00	0	58	0	3622830080	51	4287
2026-01-02 08:06:43.65	313.93	6.83	-44.9	-46.1	15.5	0.00e+00	0	57	0	3628072960	51	4397
2026-01-02 08:06:44.64	313.84	6.76	-44.8	-45.9	15.6	0.00e+00	0	57	0	3633315840	51	4328
2026-01-02 08:06:45.63	313.76	6.70	-44.5	-45.6	15.9	0.00e+00	0	58	0	3638558720	51	4179
2026-01-02 08:06:46.63	313.68	6.64	-44.4	-45.4	16.1	0.00e+00	0	58	0	3644850176	51	4096
2026-01-02 08:06:47.61	313.59	6.57	-44.3	-45.5	16.1	0.00e+00	0	58	0	3650093056	51	4104
2026-01-02 08:06:48.60	313.51	6.51	-44.6	-45.8	15.8	0.00e+00	0	58	0	3655335936	51	4249
2026-01-02 08:06:49.58	313.43	6.45	-44.5	-45.6	16.0	0.00e+00	0	58	0	3661627392	51	4168
2026-01-02 08:06:50.58	313.35	6.38	-44.5	-45.6	15.9	0.00e+00	0	58	0	3666870272	51	4172
