passes_logs/2026/01/02/R3.0SM8_Murmansk_STILSPACE/R3.0SM8_Murmansk_STILSPACE__20260102_070353_AQUA_rec.log

#Pass ID: 20260102_070353_AQUA
#Satellite: AQUA
#Configuration: AQUA
#almurnet v.1.7.20240730
#Start time: 2026-01-02 07:06:06

#Version: 2.2.20231116
#Station: R3.0SM8_Murmansk_STILSPACE
#Location: 33.092731 lon 68.902999 lat
#TLE: 1 27424U 02022A   25365.92641127  .00002078  00000+0  42628-3 0  9999
#TLE: 2 27424  98.4058 327.1196 0001962  94.7781 340.6230 14.61783896258835

#Time	Az	El	Level	Level2	SNR	BER	BlckErr	Temp	State	Recorded	gain1	gain2
2026-01-02 07:06:06.00	44.13	11.18	-52.5	-66.4	3.8	1.49e+00	0	57	0	0	67	18277
2026-01-02 07:06:06.98	43.97	11.24	-54.4	-74.3	3.8	7.41e-01	0	57	104	0	71	36904
2026-01-02 07:06:07.97	43.81	11.31	-54.5	-74.4	3.8	7.46e-01	0	57	104	0	71	36974
2026-01-02 07:06:08.96	43.64	11.37	-54.5	-74.4	3.8	7.44e-01	0	57	104	0	71	37005
2026-01-02 07:06:09.96	43.48	11.43	-54.5	-74.4	3.8	7.45e-01	0	57	104	0	71	37088
2026-01-02 07:06:10.94	43.32	11.50	-54.5	-74.4	3.8	7.44e-01	0	57	104	0	71	37076
2026-01-02 07:06:11.93	43.15	11.56	-54.5	-74.4	3.8	7.47e-01	0	57	104	0	71	37007
2026-01-02 07:06:12.92	42.99	11.62	-54.5	-74.4	3.8	7.46e-01	0	57	104	0	71	37011
2026-01-02 07:06:13.91	42.82	11.69	-54.4	-74.3	3.8	7.46e-01	0	57	104	0	71	36940
2026-01-02 07:06:14.90	42.65	11.75	-54.4	-74.3	3.8	7.48e-01	0	57	104	0	71	36883
2026-01-02 07:06:15.90	42.48	11.81	-54.4	-74.3	3.8	7.45e-01	0	57	104	0	71	36820
2026-01-02 07:06:16.89	42.31	11.88	-54.4	-74.3	3.8	7.45e-01	0	57	104	0	71	36786
2026-01-02 07:06:17.88	42.14	11.94	-54.4	-74.3	3.8	7.46e-01	0	57	104	0	71	36732
2026-01-02 07:06:18.87	41.97	12.00	-54.4	-74.3	3.8	7.46e-01	0	57	104	0	71	36723
2026-01-02 07:06:19.86	41.80	12.06	-54.4	-74.3	3.8	7.44e-01	0	57	104	0	71	36676
2026-01-02 07:06:20.85	41.63	12.13	-54.4	-74.3	3.8	7.41e-01	0	57	104	0	71	36609
2026-01-02 07:06:21.84	41.46	12.19	-54.3	-74.2	3.8	7.43e-01	0	57	104	0	71	36490
2026-01-02 07:06:22.84	41.28	12.25	-54.3	-74.2	3.8	7.46e-01	0	57	104	0	71	36331
2026-01-02 07:06:23.83	41.11	12.32	-54.3	-74.2	3.8	7.45e-01	0	57	104	0	71	36263
2026-01-02 07:06:24.82	40.93	12.38	-54.3	-74.2	3.8	7.45e-01	0	57	104	0	71	36152
2026-01-02 07:06:25.80	40.76	12.44	-54.3	-74.1	3.8	7.46e-01	0	58	104	0	71	36071
2026-01-02 07:06:26.80	40.58	12.50	-54.3	-74.1	3.8	7.44e-01	0	57	104	0	71	35939
2026-01-02 07:06:27.78	40.40	12.56	-54.2	-74.1	3.8	7.44e-01	0	57	104	0	71	35795
2026-01-02 07:06:28.76	40.23	12.63	-54.2	-73.8	3.8	7.49e-01	0	57	104	0	71	34873
2026-01-02 07:06:29.74	40.05	12.69	-54.1	-73.8	3.8	7.46e-01	0	58	104	0	71	34741
2026-01-02 07:06:30.72	39.87	12.75	-54.1	-73.8	3.8	7.42e-01	0	57	104	0	71	34559
2026-01-02 07:06:31.71	39.69	12.81	-54.0	-73.8	3.8	7.47e-01	0	57	104	0	71	34566
2026-01-02 07:06:32.70	39.51	12.87	-54.0	-72.6	3.8	7.45e-01	0	57	104	0	71	30120
2026-01-02 07:06:33.70	39.32	12.93	-54.0	-72.7	3.8	7.42e-01	0	57	104	0	71	30567
2026-01-02 07:06:34.69	39.14	13.00	-54.0	-73.1	3.8	7.44e-01	0	57	104	0	71	31888
2026-01-02 07:06:35.68	38.95	13.06	-54.0	-73.4	3.8	7.42e-01	0	57	104	0	71	33272
2026-01-02 07:06:36.67	38.77	13.12	-54.0	-73.7	3.8	7.43e-01	0	57	104	0	71	34228
2026-01-02 07:06:37.66	38.58	13.18	-54.0	-73.6	3.8	7.41e-01	0	57	104	0	71	33826
2026-01-02 07:06:38.66	38.39	13.24	-54.0	-73.3	3.8	7.40e-01	0	57	104	0	71	32643
2026-01-02 07:06:39.65	38.21	13.30	-54.0	-73.1	3.8	7.44e-01	0	57	104	0	71	32037
2026-01-02 07:06:40.62	38.02	13.36	-54.0	-73.1	3.8	7.45e-01	0	57	104	0	71	32065
2026-01-02 07:06:41.62	37.83	13.42	-54.0	-73.3	3.8	7.47e-01	0	57	104	0	71	32702
2026-01-02 07:06:42.61	37.64	13.48	-54.0	-73.4	3.8	7.49e-01	0	57	104	0	71	33244
2026-01-02 07:06:43.61	37.45	13.54	-54.0	-73.5	3.8	7.45e-01	0	57	104	0	71	33475
2026-01-02 07:06:44.60	37.26	13.60	-54.0	-73.5	3.8	7.43e-01	0	57	104	0	71	33637
2026-01-02 07:06:45.59	37.06	13.66	-54.0	-73.5	3.8	7.45e-01	0	58	104	0	71	33491
2026-01-02 07:06:46.57	36.87	13.72	-54.0	-73.4	3.8	7.45e-01	0	57	104	0	71	33040
2026-01-02 07:06:47.56	36.68	13.78	-54.0	-73.0	3.8	7.44e-01	0	57	104	0	71	31696
2026-01-02 07:06:48.55	36.48	13.84	-53.9	-71.9	3.9	7.41e-01	0	58	104	0	71	28026
2026-01-02 07:06:49.53	36.29	13.90	-53.9	-71.1	3.9	7.40e-01	0	57	104	0	71	25434
2026-01-02 07:06:50.52	36.09	13.96	-53.9	-69.9	4.2	7.26e-01	0	57	104	0	71	22216
2026-01-02 07:06:51.51	35.89	14.02	-53.9	-70.5	4.2	7.42e-01	0	57	104	0	71	23755
2026-01-02 07:06:52.49	35.70	14.08	-53.9	-70.3	4.0	7.39e-01	0	57	104	0	71	23178
2026-01-02 07:06:53.48	35.50	14.14	-53.9	-69.3	4.5	7.24e-01	0	57	104	0	71	20766
2026-01-02 07:06:54.48	35.29	14.20	-53.8	-67.0	5.8	6.89e-01	91	57	0	0	71	15929
2026-01-02 07:06:55.46	35.09	14.26	-53.6	-64.1	8.3	6.38e-01	27	58	0	1572864	70	12072
2026-01-02 07:06:56.45	34.89	14.31	-53.2	-61.1	11.5	6.10e-01	0	57	0	3670016	69	9021
2026-01-02 07:06:57.44	34.69	14.37	-52.5	-58.3	14.4	5.99e-01	0	57	0	5242880	68	6941
2026-01-02 07:06:58.43	34.49	14.43	-51.7	-56.1	16.6	6.03e-01	0	57	0	7340032	67	5665
2026-01-02 07:06:59.42	34.28	14.49	-51.0	-54.6	18.1	6.04e-01	0	57	0	8912896	65	5382
2026-01-02 07:07:00.41	34.07	14.55	-50.8	-54.2	18.6	6.03e-01	0	57	0	11010048	65	5153
2026-01-02 07:07:01.39	33.87	14.60	-50.8	-54.2	18.5	6.01e-01	0	58	0	12582912	65	5135
2026-01-02 07:07:02.38	33.66	14.66	-50.8	-54.3	18.5	6.01e-01	0	57	0	14680064	65	5176
2026-01-02 07:07:03.38	33.45	14.72	-50.8	-54.1	18.6	6.03e-01	0	57	0	16252928	65	5093
2026-01-02 07:07:04.37	33.24	14.77	-50.7	-54.1	18.7	6.02e-01	0	57	0	18350080	65	5063
2026-01-02 07:07:05.36	33.03	14.83	-50.8	-54.2	18.5	6.01e-01	0	57	0	19922944	65	5118
2026-01-02 07:07:06.34	32.82	14.89	-50.6	-53.9	18.8	6.00e-01	0	57	0	22020096	64	5225
2026-01-02 07:07:07.33	32.61	14.94	-50.3	-53.2	19.6	6.02e-01	0	57	0	23592960	63	5134
2026-01-02 07:07:08.32	32.40	15.00	-49.8	-52.4	20.3	6.02e-01	0	57	0	25690112	63	4699
2026-01-02 07:07:09.31	32.19	15.05	-49.4	-51.7	21.0	6.03e-01	0	57	0	27787264	62	4598
2026-01-02 07:07:10.29	31.98	15.11	-49.0	-51.2	21.5	6.01e-01	0	57	0	29360128	61	4598
2026-01-02 07:07:11.28	31.76	15.16	-48.7	-50.7	22.0	6.02e-01	0	57	0	31457280	60	4578
2026-01-02 07:07:12.26	31.55	15.22	-48.4	-50.3	22.4	6.01e-01	0	57	0	33030144	60	4352
2026-01-02 07:07:13.25	31.33	15.27	-48.2	-50.1	22.6	5.99e-01	0	57	0	35127296	60	4278
2026-01-02 07:07:14.25	31.11	15.33	-48.2	-50.1	22.6	6.03e-01	0	57	0	36700160	60	4257
2026-01-02 07:07:15.24	30.89	15.38	-48.2	-50.1	22.6	6.04e-01	0	57	0	38797312	60	4249
2026-01-02 07:07:16.23	30.67	15.44	-48.4	-50.3	22.4	6.03e-01	0	57	0	40370176	60	4379
2026-01-02 07:07:17.22	30.45	15.49	-48.5	-50.4	22.3	6.03e-01	0	57	0	42467328	60	4432
2026-01-02 07:07:18.20	30.23	15.54	-48.3	-50.2	22.5	6.02e-01	0	57	0	44040192	60	4335
2026-01-02 07:07:19.20	30.01	15.60	-48.2	-50.1	22.6	6.01e-01	0	57	0	46137344	60	4259
2026-01-02 07:07:20.19	29.79	15.65	-48.5	-50.4	22.6	6.01e-01	0	57	0	47710208	59	4691
2026-01-02 07:07:21.19	29.56	15.70	-48.5	-50.4	22.7	6.00e-01	0	57	0	49807360	59	4669
2026-01-02 07:07:22.17	29.34	15.75	-48.6	-50.5	22.6	6.04e-01	0	57	0	51380224	59	4717
2026-01-02 07:07:23.16	29.11	15.81	-48.8	-50.8	22.3	6.03e-01	0	57	0	53477376	59	4886
2026-01-02 07:07:24.15	28.89	15.86	-48.8	-50.8	22.2	6.01e-01	0	57	0	55574528	59	4910
2026-01-02 07:07:25.14	28.66	15.91	-48.6	-50.6	22.2	6.01e-01	0	57	0	57147392	60	4513
2026-01-02 07:07:26.14	28.43	15.96	-48.6	-50.6	22.2	6.04e-01	0	57	0	59244544	60	4501
2026-01-02 07:07:27.13	28.20	16.01	-48.5	-50.5	22.2	6.05e-01	0	57	0	60817408	60	4463
2026-01-02 07:07:28.12	27.97	16.06	-48.4	-50.3	22.4	6.03e-01	0	57	0	62914560	60	4356
2026-01-02 07:07:29.10	27.74	16.11	-48.4	-50.3	22.4	6.04e-01	0	57	0	64487424	60	4367
2026-01-02 07:07:30.08	27.51	16.16	-48.6	-50.6	22.1	6.03e-01	0	57	0	66584576	60	4533
2026-01-02 07:07:31.06	27.29	16.21	-48.4	-50.4	22.3	6.04e-01	0	57	0	68157440	60	4426
2026-01-02 07:07:32.05	27.05	16.26	-48.3	-50.3	22.5	6.01e-01	0	57	0	70254592	60	4348
2026-01-02 07:07:33.04	26.82	16.31	-48.2	-50.1	22.6	6.02e-01	0	58	0	71827456	60	4266
2026-01-02 07:07:34.03	26.58	16.35	-48.2	-50.1	22.7	6.02e-01	0	57	0	73924608	60	4264
2026-01-02 07:07:35.02	26.35	16.40	-48.5	-50.4	22.6	6.02e-01	0	57	0	75497472	59	4702
2026-01-02 07:07:36.01	26.11	16.45	-48.5	-50.4	22.7	6.01e-01	0	57	0	77594624	59	4688
2026-01-02 07:07:37.00	25.88	16.50	-48.5	-50.4	22.7	6.03e-01	0	57	0	79691776	59	4699
2026-01-02 07:07:37.99	25.64	16.54	-48.6	-50.6	22.5	6.02e-01	0	57	0	81264640	59	4780
2026-01-02 07:07:38.99	25.40	16.59	-48.6	-50.5	22.6	6.02e-01	0	57	0	83361792	59	4737
2026-01-02 07:07:39.97	25.16	16.64	-48.7	-50.7	22.4	6.00e-01	0	57	0	84934656	59	4840
2026-01-02 07:07:40.96	24.92	16.68	-48.9	-50.9	22.2	6.04e-01	0	57	0	87031808	59	4968
2026-01-02 07:07:41.95	24.68	16.73	-48.5	-50.5	22.3	6.02e-01	0	57	0	88604672	60	4468
2026-01-02 07:07:42.94	24.44	16.77	-48.6	-50.5	22.2	6.04e-01	0	57	0	90701824	60	4493
2026-01-02 07:07:43.92	24.20	16.81	-48.5	-50.5	22.3	6.01e-01	0	57	0	92274688	60	4449
2026-01-02 07:07:44.91	23.96	16.86	-48.5	-50.5	22.3	6.01e-01	0	57	0	94371840	60	4455
2026-01-02 07:07:45.89	23.72	16.90	-48.6	-50.6	22.2	6.05e-01	0	57	0	95944704	60	4515
2026-01-02 07:07:46.88	23.47	16.94	-48.7	-50.7	22.0	6.00e-01	0	57	0	98041856	60	4594
2026-01-02 07:07:47.87	23.23	16.99	-48.6	-50.6	22.1	6.04e-01	0	57	0	99614720	60	4516
2026-01-02 07:07:48.86	22.98	17.03	-48.7	-50.8	22.0	6.03e-01	0	57	0	101711872	60	4636
2026-01-02 07:07:49.85	22.73	17.07	-49.0	-51.2	21.7	6.03e-01	0	57	0	103809024	60	4817
2026-01-02 07:07:50.84	22.49	17.11	-48.8	-51.0	21.8	6.03e-01	0	57	0	105381888	60	4712
2026-01-02 07:07:51.82	22.24	17.15	-48.7	-50.7	22.1	5.99e-01	0	57	0	107479040	60	4582
2026-01-02 07:07:52.82	21.99	17.19	-48.5	-50.5	22.3	5.99e-01	0	57	0	109051904	60	4446
2026-01-02 07:07:53.80	21.74	17.23	-48.4	-50.4	22.4	6.01e-01	0	57	0	111149056	60	4397
2026-01-02 07:07:54.79	21.49	17.27	-48.5	-50.4	22.3	6.04e-01	0	57	0	112721920	60	4436
2026-01-02 07:07:55.78	21.24	17.31	-48.4	-50.3	22.4	6.00e-01	0	57	0	114819072	60	4381
2026-01-02 07:07:56.77	20.99	17.35	-48.4	-50.3	22.5	6.02e-01	0	57	0	116391936	60	4358
2026-01-02 07:07:57.76	20.74	17.39	-48.4	-50.3	22.5	6.03e-01	0	57	0	118489088	60	4368
2026-01-02 07:07:58.75	20.48	17.43	-48.5	-50.4	22.4	6.00e-01	0	57	0	120061952	60	4436
2026-01-02 07:07:59.73	20.23	17.46	-48.4	-50.3	22.4	5.99e-01	0	57	0	122159104	60	4363
2026-01-02 07:08:00.72	19.98	17.50	-48.3	-50.2	22.5	6.02e-01	0	57	0	123731968	60	4323
2026-01-02 07:08:01.71	19.72	17.54	-48.3	-50.2	22.5	6.03e-01	0	57	0	125829120	60	4337
2026-01-02 07:08:02.69	19.47	17.57	-48.5	-50.5	22.3	6.02e-01	0	57	0	127401984	60	4451
2026-01-02 07:08:03.69	19.21	17.61	-48.5	-50.4	22.3	6.00e-01	0	57	0	129499136	60	4423
2026-01-02 07:08:04.67	18.96	17.64	-48.5	-50.4	22.3	6.01e-01	0	57	0	131072000	60	4437
2026-01-02 07:08:05.66	18.70	17.68	-48.6	-50.7	22.2	6.01e-01	0	57	0	133169152	60	4547
2026-01-02 07:08:06.65	18.44	17.71	-48.8	-50.9	21.9	6.03e-01	0	57	0	134742016	60	4689
2026-01-02 07:08:07.63	18.19	17.74	-48.8	-50.9	21.9	5.99e-01	0	57	0	136839168	60	4658
2026-01-02 07:08:08.62	17.93	17.77	-48.8	-50.8	21.9	6.03e-01	0	57	0	138936320	60	4642
2026-01-02 07:08:09.61	17.67	17.81	-48.7	-50.7	22.1	6.02e-01	0	57	0	140509184	60	4585
2026-01-02 07:08:10.60	17.41	17.84	-48.6	-50.6	22.1	6.03e-01	0	57	0	142606336	60	4539
2026-01-02 07:08:11.58	17.15	17.87	-48.7	-50.8	22.0	6.00e-01	0	57	0	144179200	60	4601
2026-01-02 07:08:12.57	16.89	17.90	-48.9	-51.0	21.8	6.02e-01	0	57	0	146276352	60	4722
2026-01-02 07:08:13.55	16.63	17.93	-48.8	-50.9	21.8	6.01e-01	0	57	0	147849216	60	4701
2026-01-02 07:08:14.55	16.36	17.96	-48.8	-50.9	21.9	6.01e-01	0	57	0	149946368	60	4656
2026-01-02 07:08:15.53	16.10	17.99	-48.6	-50.6	22.1	6.04e-01	0	57	0	151519232	60	4528
2026-01-02 07:08:16.52	15.84	18.02	-48.4	-50.3	22.5	6.02e-01	0	57	0	153616384	60	4350
2026-01-02 07:08:17.52	15.57	18.04	-48.3	-50.2	22.6	6.05e-01	0	57	0	155189248	60	4318
2026-01-02 07:08:18.51	15.30	18.07	-48.4	-50.3	22.4	6.01e-01	0	57	0	157286400	60	4373
2026-01-02 07:08:19.50	15.04	18.10	-48.5	-50.5	22.2	6.00e-01	0	57	0	159383552	60	4469
2026-01-02 07:08:20.49	14.77	18.12	-48.5	-50.5	22.3	6.00e-01	0	57	0	160956416	60	4444
2026-01-02 07:08:21.48	14.51	18.15	-48.5	-50.4	22.4	6.02e-01	0	57	0	163053568	60	4421
2026-01-02 07:08:22.48	14.24	18.17	-48.5	-50.5	22.3	6.04e-01	0	57	0	164626432	60	4468
2026-01-02 07:08:23.47	13.97	18.20	-48.6	-50.5	22.2	6.03e-01	0	57	0	166723584	60	4489
2026-01-02 07:08:24.46	13.70	18.22	-48.6	-50.6	22.2	6.04e-01	0	57	0	168296448	60	4502
2026-01-02 07:08:25.45	13.43	18.24	-48.6	-50.6	22.2	6.02e-01	0	57	0	170393600	60	4517
2026-01-02 07:08:26.44	13.16	18.27	-48.5	-50.4	22.3	6.02e-01	0	57	0	171966464	60	4440
2026-01-02 07:08:27.43	12.90	18.29	-48.5	-50.4	22.3	6.00e-01	0	57	0	174063616	60	4425
2026-01-02 07:08:28.41	12.63	18.31	-48.6	-50.6	22.1	6.00e-01	0	57	0	175636480	60	4532
2026-01-02 07:08:29.40	12.36	18.33	-48.6	-50.5	22.2	6.00e-01	0	57	0	177733632	60	4491
2026-01-02 07:08:30.39	12.09	18.35	-48.6	-50.6	22.2	6.02e-01	0	57	0	179306496	60	4497
2026-01-02 07:08:31.38	11.82	18.37	-48.5	-50.5	22.2	6.00e-01	0	57	0	181403648	60	4485
2026-01-02 07:08:32.37	11.55	18.39	-48.5	-50.4	22.3	6.00e-01	0	57	0	183500800	60	4435
2026-01-02 07:08:33.36	11.28	18.41	-48.6	-50.6	22.2	6.03e-01	0	57	0	185073664	60	4519
2026-01-02 07:08:34.35	11.00	18.42	-48.7	-50.8	21.9	6.03e-01	0	57	0	187170816	60	4636
2026-01-02 07:08:35.33	10.74	18.44	-48.8	-50.8	21.9	6.04e-01	0	57	0	188743680	60	4649
2026-01-02 07:08:36.32	10.46	18.46	-48.7	-50.7	22.0	6.03e-01	0	57	0	190840832	60	4583
2026-01-02 07:08:37.31	10.19	18.47	-48.8	-50.9	21.8	6.05e-01	0	57	0	192413696	60	4702
2026-01-02 07:08:38.30	9.92	18.49	-49.0	-51.2	21.6	6.02e-01	0	57	0	194510848	60	4848
2026-01-02 07:08:39.28	9.65	18.50	-48.8	-50.9	21.8	6.03e-01	0	57	0	196083712	60	4686
2026-01-02 07:08:40.26	9.38	18.51	-48.7	-50.7	22.0	6.01e-01	0	57	0	198180864	60	4597
2026-01-02 07:08:41.24	9.11	18.53	-48.7	-50.8	22.0	6.04e-01	0	57	0	199753728	60	4607
2026-01-02 07:08:42.23	8.83	18.54	-48.7	-50.7	22.0	6.01e-01	0	57	0	201850880	60	4595
2026-01-02 07:08:43.22	8.56	18.55	-48.8	-50.9	21.8	6.02e-01	0	57	0	203423744	60	4687
2026-01-02 07:08:44.21	8.28	18.56	-48.7	-50.8	21.9	6.03e-01	0	57	0	205520896	60	4637
2026-01-02 07:08:45.19	8.01	18.57	-48.7	-50.8	21.9	6.03e-01	0	57	0	207093760	60	4633
2026-01-02 07:08:46.17	7.74	18.58	-48.8	-50.9	21.9	6.02e-01	0	57	0	209190912	60	4657
2026-01-02 07:08:47.16	7.46	18.59	-48.8	-51.0	21.7	6.03e-01	0	57	0	210763776	60	4721
2026-01-02 07:08:48.15	7.19	18.60	-48.8	-50.9	21.8	6.03e-01	0	57	0	212860928	60	4680
2026-01-02 07:08:49.14	6.91	18.61	-49.0	-51.2	21.4	6.05e-01	0	57	0	214433792	60	4846
2026-01-02 07:08:50.13	6.64	18.62	-48.8	-51.0	21.6	6.04e-01	0	57	0	216530944	60	4717
2026-01-02 07:08:51.12	6.36	18.62	-49.0	-51.3	21.1	6.04e-01	0	57	0	218628096	60	4913
2026-01-02 07:08:52.11	6.09	18.63	-49.0	-51.5	20.8	6.01e-01	0	57	0	220200960	60	5004
2026-01-02 07:08:53.10	5.81	18.63	-49.5	-52.3	20.0	6.04e-01	0	57	0	222298112	61	5160
2026-01-02 07:08:54.09	5.54	18.64	-49.6	-52.6	19.6	6.04e-01	0	57	0	223870976	61	5341
2026-01-02 07:08:55.08	5.26	18.64	-50.3	-54.0	17.8	6.03e-01	0	57	0	225968128	62	5992
2026-01-02 07:08:56.06	4.99	18.65	-50.3	-54.6	16.7	6.04e-01	0	57	0	227540992	62	6406
2026-01-02 07:08:57.05	4.71	18.65	-50.5	-56.1	14.6	6.01e-01	0	57	0	229638144	63	7178
2026-01-02 07:08:58.05	4.43	18.65	-50.4	-56.7	13.7	6.03e-01	0	57	0	231211008	63	7674
2026-01-02 07:08:59.03	4.16	18.65	-50.5	-57.5	12.7	6.04e-01	0	57	0	233308160	63	8416
2026-01-02 07:09:00.02	3.88	18.65	-50.5	-57.5	12.7	6.02e-01	0	57	0	234881024	63	8458
2026-01-02 07:09:01.02	3.60	18.65	-50.7	-58.3	11.9	6.07e-01	0	57	0	236978176	63	9189
2026-01-02 07:09:02.01	3.33	18.65	-50.6	-58.6	11.3	6.10e-01	0	57	0	239075328	63	9576
2026-01-02 07:09:02.99	3.05	18.65	-50.6	-59.6	10.2	6.17e-01	0	57	0	240648192	63	10699
2026-01-02 07:09:03.97	2.78	18.65	-50.5	-58.8	10.8	6.13e-01	0	57	0	242745344	63	9799
2026-01-02 07:09:04.95	2.51	18.65	-50.4	-57.4	12.7	6.05e-01	0	57	0	244318208	63	8304
2026-01-02 07:09:05.94	2.23	18.64	-50.4	-55.8	14.8	6.02e-01	0	57	0	246415360	63	6904
2026-01-02 07:09:06.94	1.95	18.64	-50.2	-54.3	17.2	6.03e-01	0	57	0	247988224	63	5798
2026-01-02 07:09:07.92	1.68	18.64	-49.8	-52.8	19.4	6.01e-01	0	57	0	250085376	63	4873
2026-01-02 07:09:08.90	1.41	18.63	-49.6	-52.3	20.2	6.00e-01	0	57	0	251658240	62	4905
2026-01-02 07:09:09.89	1.13	18.62	-49.6	-52.2	20.5	6.02e-01	0	57	0	253755392	62	4857
2026-01-02 07:09:10.88	0.85	18.62	-49.4	-51.8	20.8	6.00e-01	0	57	0	255328256	62	4609
2026-01-02 07:09:11.87	0.58	18.61	-49.0	-51.3	21.4	6.04e-01	0	57	0	257425408	61	4602
2026-01-02 07:09:12.85	0.31	18.60	-48.8	-50.9	21.7	6.03e-01	0	57	0	258998272	61	4411
2026-01-02 07:09:13.84	0.03	18.59	-48.9	-51.0	21.6	6.00e-01	0	57	0	261095424	61	4493
2026-01-02 07:09:14.83	359.76	18.58	-48.9	-51.1	21.6	6.03e-01	0	57	0	262668288	61	4499
2026-01-02 07:09:15.82	359.48	18.58	-49.0	-51.2	21.4	6.02e-01	0	57	0	264765440	61	4589
2026-01-02 07:09:16.82	359.20	18.56	-48.9	-51.1	21.6	6.01e-01	0	57	0	266862592	61	4506
2026-01-02 07:09:17.80	358.93	18.55	-48.7	-50.8	21.7	6.01e-01	0	57	0	268435456	61	4379
2026-01-02 07:09:18.79	358.66	18.54	-48.6	-50.6	22.0	6.03e-01	0	57	0	270008320	60	4519
2026-01-02 07:09:19.77	358.39	18.53	-48.4	-50.5	22.1	6.03e-01	0	57	0	272105472	60	4442
2026-01-02 07:09:20.76	358.11	18.52	-48.6	-50.6	21.9	6.03e-01	0	57	0	274202624	60	4544
2026-01-02 07:09:21.75	357.84	18.50	-48.5	-50.6	22.0	6.02e-01	0	57	0	275775488	60	4500
2026-01-02 07:09:22.74	357.57	18.49	-48.6	-50.7	21.8	6.03e-01	0	57	0	277872640	60	4597
2026-01-02 07:09:23.72	357.30	18.47	-48.7	-50.8	21.8	6.01e-01	0	57	0	279445504	60	4644
2026-01-02 07:09:24.71	357.02	18.46	-48.6	-50.7	21.9	6.03e-01	0	57	0	281542656	60	4569
2026-01-02 07:09:25.69	356.75	18.44	-48.7	-50.8	21.8	6.05e-01	0	57	0	283115520	60	4606
2026-01-02 07:09:26.68	356.48	18.43	-48.7	-50.8	21.8	6.03e-01	0	57	0	285212672	60	4627
2026-01-02 07:09:27.67	356.21	18.41	-49.0	-51.2	21.4	6.02e-01	0	57	0	286785536	60	4862
2026-01-02 07:09:28.66	355.94	18.39	-49.0	-51.2	21.4	6.00e-01	0	57	0	288882688	60	4847
2026-01-02 07:09:29.64	355.67	18.37	-49.0	-51.3	21.3	6.04e-01	0	57	0	290455552	60	4923
2026-01-02 07:09:30.63	355.40	18.35	-49.1	-51.4	21.3	6.04e-01	0	57	0	292552704	60	4944
2026-01-02 07:09:31.62	355.13	18.33	-49.0	-51.3	21.3	6.03e-01	0	57	0	294125568	60	4907
2026-01-02 07:09:32.61	354.86	18.31	-48.8	-51.0	21.6	6.03e-01	0	57	0	296222720	60	4724
2026-01-02 07:09:33.60	354.59	18.29	-48.7	-50.8	21.8	6.02e-01	0	57	0	298319872	60	4601
2026-01-02 07:09:34.58	354.32	18.27	-48.8	-51.0	21.6	6.02e-01	0	57	0	299892736	60	4706
2026-01-02 07:09:35.58	354.05	18.25	-48.8	-51.0	21.6	6.02e-01	0	57	0	301989888	60	4712
2026-01-02 07:09:36.56	353.79	18.22	-48.8	-51.0	21.5	6.02e-01	0	57	0	303562752	60	4728
2026-01-02 07:09:37.54	353.52	18.20	-49.0	-51.3	21.3	6.04e-01	0	57	0	305659904	60	4886
2026-01-02 07:09:38.53	353.26	18.18	-48.9	-51.2	21.3	6.03e-01	0	57	0	307232768	60	4853
2026-01-02 07:09:39.52	352.99	18.15	-49.1	-51.5	21.1	6.02e-01	0	57	0	309329920	60	4992
2026-01-02 07:09:40.52	352.72	18.13	-48.9	-51.2	21.3	6.02e-01	0	57	0	310902784	60	4838
2026-01-02 07:09:41.51	352.45	18.10	-48.7	-50.8	21.6	6.04e-01	0	57	0	312999936	60	4631
2026-01-02 07:09:42.50	352.19	18.08	-48.5	-50.5	21.9	6.00e-01	0	57	0	314572800	60	4493
2026-01-02 07:09:43.49	351.92	18.05	-48.5	-50.6	21.8	6.00e-01	0	57	0	316669952	60	4502
2026-01-02 07:09:44.48	351.66	18.02	-48.6	-50.8	21.6	6.02e-01	0	57	0	318242816	60	4603
2026-01-02 07:09:45.46	351.40	17.99	-48.6	-50.7	21.6	6.01e-01	0	57	0	320339968	60	4581
2026-01-02 07:09:46.45	351.13	17.96	-48.3	-50.4	21.9	6.02e-01	0	57	0	321912832	60	4421
2026-01-02 07:09:47.44	350.87	17.93	-48.4	-50.4	21.9	6.06e-01	0	57	0	324009984	60	4425
2026-01-02 07:09:48.43	350.61	17.90	-48.4	-50.4	21.9	6.02e-01	0	57	0	326107136	60	4437
2026-01-02 07:09:49.41	350.35	17.87	-48.3	-50.4	22.0	6.04e-01	0	57	0	327680000	60	4393
2026-01-02 07:09:50.40	350.09	17.84	-48.6	-50.7	21.6	6.01e-01	0	57	0	329777152	60	4581
2026-01-02 07:09:51.38	349.83	17.81	-48.7	-51.0	21.4	6.03e-01	0	57	0	331350016	60	4719
2026-01-02 07:09:52.37	349.57	17.78	-48.7	-51.0	21.5	6.01e-01	0	57	0	333447168	60	4710
2026-01-02 07:09:53.36	349.31	17.75	-48.6	-50.7	21.6	6.02e-01	0	57	0	335020032	60	4574
2026-01-02 07:09:54.35	349.05	17.72	-48.2	-50.2	22.1	6.00e-01	0	57	0	337117184	60	4335
2026-01-02 07:09:55.34	348.79	17.68	-48.4	-50.4	22.2	6.03e-01	0	57	0	338690048	59	4698
2026-01-02 07:09:56.33	348.54	17.65	-48.6	-50.7	21.8	6.03e-01	0	57	0	340787200	59	4847
2026-01-02 07:09:57.32	348.28	17.61	-48.6	-50.8	21.6	6.03e-01	0	57	0	342360064	59	4894
2026-01-02 07:09:58.31	348.02	17.58	-48.6	-50.9	21.1	6.02e-01	0	57	0	344457216	60	4672
2026-01-02 07:09:59.29	347.77	17.54	-48.9	-51.5	20.4	6.00e-01	0	57	0	346030080	60	4992
2026-01-02 07:10:00.28	347.51	17.51	-49.5	-52.6	19.2	6.02e-01	0	57	0	348127232	61	5372
2026-01-02 07:10:01.27	347.26	17.47	-50.2	-54.3	17.2	6.01e-01	0	57	0	349700096	62	6182
2026-01-02 07:10:02.26	347.01	17.43	-50.7	-55.8	15.6	6.02e-01	0	57	0	351797248	63	6904
2026-01-02 07:10:03.25	346.75	17.40	-50.9	-56.9	14.1	6.00e-01	0	57	0	353894400	64	7437
2026-01-02 07:10:04.24	346.50	17.36	-51.2	-58.6	12.2	6.08e-01	0	57	0	355467264	64	9030
2026-01-02 07:10:05.22	346.25	17.32	-51.3	-59.7	10.9	6.15e-01	0	57	0	357564416	64	10261
2026-01-02 07:10:06.21	346.00	17.28	-50.8	-57.2	13.5	6.02e-01	0	57	0	359137280	64	7687
2026-01-02 07:10:07.20	345.75	17.24	-50.4	-55.4	15.5	6.03e-01	0	57	0	361234432	64	6249
2026-01-02 07:10:08.20	345.50	17.20	-50.7	-55.7	15.6	6.04e-01	0	57	0	362807296	63	6840
2026-01-02 07:10:09.18	345.25	17.16	-50.6	-55.1	16.4	6.00e-01	0	57	0	364904448	63	6368
2026-01-02 07:10:10.16	345.01	17.12	-50.6	-55.2	16.3	6.02e-01	0	57	0	366477312	63	6436
2026-01-02 07:10:11.15	344.76	17.08	-50.5	-54.7	16.9	6.01e-01	0	57	0	368574464	63	6129
2026-01-02 07:10:12.13	344.51	17.04	-50.1	-53.8	17.8	6.03e-01	0	57	0	370147328	63	5489
2026-01-02 07:10:13.12	344.27	17.00	-50.2	-54.0	17.7	6.02e-01	0	57	0	372244480	63	5629
2026-01-02 07:10:14.11	344.02	16.95	-49.0	-51.7	20.0	6.02e-01	0	57	0	373817344	61	4862
2026-01-02 07:10:15.10	343.78	16.91	-48.5	-51.0	20.5	6.01e-01	0	57	0	375914496	60	4709
2026-01-02 07:10:16.09	343.53	16.87	-49.1	-52.0	19.8	6.04e-01	0	57	0	377487360	60	5286
2026-01-02 07:10:17.09	343.29	16.82	-48.3	-50.5	21.6	6.01e-01	0	57	0	379584512	59	4729
2026-01-02 07:10:18.08	343.05	16.78	-48.4	-50.6	21.2	6.04e-01	0	57	0	381681664	59	4793
2026-01-02 07:10:19.07	342.81	16.73	-48.4	-50.7	21.4	6.02e-01	0	57	0	383254528	59	4836
2026-01-02 07:10:20.06	342.56	16.69	-47.7	-49.6	22.5	6.01e-01	0	57	0	385351680	58	4500
2026-01-02 07:10:21.04	342.33	16.64	-48.6	-51.2	20.7	6.03e-01	0	57	0	386924544	60	4818
2026-01-02 07:10:22.03	342.09	16.60	-48.6	-51.1	20.8	6.01e-01	0	57	0	389021696	60	4764
2026-01-02 07:10:23.02	341.85	16.55	-49.7	-52.9	18.9	6.03e-01	0	57	0	390594560	61	5559
2026-01-02 07:10:24.00	341.61	16.51	-49.5	-52.5	19.4	6.03e-01	0	57	0	392691712	61	5292
2026-01-02 07:10:24.99	341.38	16.46	-48.7	-51.2	20.5	6.00e-01	0	57	0	394264576	61	4546
2026-01-02 07:10:25.98	341.14	16.41	-48.8	-51.3	20.4	6.03e-01	0	57	0	396361728	60	4920
2026-01-02 07:10:26.96	340.91	16.36	-48.3	-50.4	21.9	6.01e-01	0	57	0	397934592	59	4658
2026-01-02 07:10:27.96	340.67	16.32	-48.8	-51.1	21.2	6.02e-01	0	57	0	400031744	59	5060
2026-01-02 07:10:28.94	340.44	16.27	-48.9	-51.1	21.4	6.00e-01	0	57	0	401604608	59	5084
2026-01-02 07:10:29.92	340.21	16.22	-48.7	-50.9	21.2	6.03e-01	0	57	0	403701760	60	4695
2026-01-02 07:10:30.90	339.98	16.17	-49.0	-51.4	21.0	6.04e-01	0	57	0	405798912	60	4934
2026-01-02 07:10:31.89	339.75	16.12	-48.3	-50.2	22.1	6.01e-01	0	57	0	407371776	60	4340
2026-01-02 07:10:32.88	339.52	16.07	-49.0	-51.3	21.0	6.00e-01	0	57	0	408944640	60	4912
2026-01-02 07:10:33.87	339.29	16.02	-49.0	-51.3	21.1	6.03e-01	0	57	0	411041792	60	4926
2026-01-02 07:10:34.86	339.06	15.97	-48.5	-50.7	21.7	6.01e-01	0	57	0	413138944	60	4558
2026-01-02 07:10:35.85	338.83	15.92	-48.5	-50.5	22.1	6.00e-01	0	57	0	414711808	59	4735
2026-01-02 07:10:36.85	338.60	15.87	-48.5	-50.7	21.6	6.03e-01	0	57	0	416808960	60	4574
2026-01-02 07:10:37.84	338.38	15.82	-48.8	-50.9	21.9	6.02e-01	0	57	0	418381824	59	4966
2026-01-02 07:10:38.83	338.15	15.76	-48.4	-50.5	21.9	6.03e-01	0	57	0	420478976	60	4454
2026-01-02 07:10:39.82	337.93	15.71	-48.9	-51.1	21.4	6.04e-01	0	57	0	422051840	60	4810
2026-01-02 07:10:40.81	337.70	15.66	-48.4	-50.4	22.0	6.02e-01	0	57	0	424148992	60	4409
2026-01-02 07:10:41.81	337.48	15.61	-48.6	-50.7	21.8	6.04e-01	0	57	0	425721856	60	4585
2026-01-02 07:10:42.80	337.26	15.55	-48.4	-50.4	22.2	6.04e-01	0	57	0	427819008	60	4409
2026-01-02 07:10:43.79	337.03	15.50	-48.8	-51.0	21.6	6.00e-01	0	57	0	429391872	60	4724
2026-01-02 07:10:44.78	336.81	15.45	-48.7	-50.9	21.7	6.03e-01	0	57	0	431489024	60	4663
2026-01-02 07:10:45.77	336.60	15.39	-48.6	-50.7	21.9	6.04e-01	0	57	0	433586176	60	4572
2026-01-02 07:10:46.76	336.38	15.34	-48.9	-51.1	21.5	6.04e-01	0	57	0	435159040	60	4775
2026-01-02 07:10:47.75	336.16	15.28	-48.8	-50.9	21.6	6.01e-01	0	57	0	437256192	60	4705
2026-01-02 07:10:48.73	335.94	15.23	-48.5	-50.5	22.1	6.01e-01	0	57	0	438829056	60	4478
2026-01-02 07:10:49.73	335.73	15.18	-48.6	-50.7	21.9	6.02e-01	0	57	0	440926208	60	4546
2026-01-02 07:10:50.71	335.51	15.12	-48.7	-50.8	21.8	6.04e-01	0	57	0	442499072	60	4644
2026-01-02 07:10:51.70	335.30	15.07	-48.5	-50.4	22.1	6.00e-01	0	57	0	444596224	60	4440
2026-01-02 07:10:52.69	335.09	15.01	-49.3	-51.7	21.0	6.02e-01	0	57	0	446169088	60	5137
2026-01-02 07:10:53.68	334.87	14.95	-48.7	-50.8	21.8	6.00e-01	0	57	0	448266240	60	4600
2026-01-02 07:10:54.66	334.66	14.90	-48.8	-51.0	21.6	6.00e-01	0	57	0	449839104	60	4750
2026-01-02 07:10:55.65	334.45	14.84	-48.6	-50.7	22.0	6.04e-01	0	57	0	451936256	60	4561
2026-01-02 07:10:56.63	334.24	14.79	-48.9	-51.0	21.6	6.00e-01	0	57	0	453509120	60	4755
2026-01-02 07:10:57.62	334.04	14.73	-49.1	-51.4	21.3	6.03e-01	0	57	0	455606272	60	4933
2026-01-02 07:10:58.61	333.83	14.67	-48.7	-50.8	21.9	6.00e-01	0	57	0	457703424	60	4603
2026-01-02 07:10:59.60	333.62	14.62	-49.3	-51.7	20.9	6.02e-01	0	57	0	459276288	60	5119
2026-01-02 07:11:00.58	333.41	14.56	-48.6	-50.6	22.1	6.03e-01	0	57	0	461373440	60	4498
2026-01-02 07:11:01.57	333.21	14.50	-49.1	-51.4	21.1	6.04e-01	0	57	0	462946304	60	4970
2026-01-02 07:11:02.56	333.00	14.44	-48.7	-50.7	21.9	6.00e-01	0	57	0	465043456	60	4590
2026-01-02 07:11:03.55	332.80	14.39	-49.0	-51.3	21.3	6.04e-01	0	57	0	466616320	60	4874
2026-01-02 07:11:04.53	332.60	14.33	-48.8	-50.9	21.8	6.02e-01	0	57	0	468713472	60	4662
2026-01-02 07:11:05.53	332.39	14.27	-48.8	-50.9	21.6	6.01e-01	0	57	0	470286336	60	4684
2026-01-02 07:11:06.51	332.20	14.21	-49.2	-51.5	21.2	6.04e-01	0	57	0	472383488	60	5028
2026-01-02 07:11:07.50	331.99	14.15	-48.8	-50.9	21.7	6.01e-01	0	57	0	473956352	61	4417
2026-01-02 07:11:08.49	331.80	14.09	-48.9	-51.1	21.5	6.02e-01	0	57	0	476053504	60	4799
2026-01-02 07:11:09.48	331.60	14.03	-48.6	-50.6	22.0	6.02e-01	0	57	0	477626368	60	4540
2026-01-02 07:11:10.48	331.40	13.97	-49.1	-51.4	21.3	6.00e-01	0	57	0	479723520	60	4948
2026-01-02 07:11:11.47	331.20	13.92	-48.9	-51.0	21.6	6.05e-01	0	57	0	481820672	60	4751
2026-01-02 07:11:12.46	331.00	13.86	-49.0	-51.3	21.4	6.00e-01	0	57	0	483393536	60	4890
2026-01-02 07:11:13.45	330.81	13.80	-48.9	-51.0	21.7	6.03e-01	0	57	0	485490688	60	4725
2026-01-02 07:11:14.44	330.61	13.74	-49.2	-51.6	21.0	6.00e-01	0	57	0	487063552	60	5078
2026-01-02 07:11:15.43	330.42	13.68	-48.7	-50.8	21.9	6.02e-01	0	57	0	489160704	60	4599
2026-01-02 07:11:16.42	330.23	13.62	-49.2	-51.6	20.9	5.99e-01	0	57	0	490733568	60	5087
2026-01-02 07:11:17.42	330.03	13.56	-48.7	-50.7	21.9	6.02e-01	0	57	0	492830720	60	4587
2026-01-02 07:11:18.40	329.84	13.50	-49.5	-52.1	20.5	6.03e-01	0	57	0	494403584	61	5090
2026-01-02 07:11:19.39	329.65	13.43	-48.8	-51.0	21.7	6.02e-01	0	57	0	496500736	61	4449
2026-01-02 07:11:20.37	329.47	13.37	-49.6	-52.2	20.5	6.02e-01	0	57	0	498073600	61	5139
2026-01-02 07:11:21.37	329.27	13.31	-49.4	-51.8	20.8	6.01e-01	0	57	0	500170752	61	4920
2026-01-02 07:11:22.34	329.09	13.25	-49.2	-51.5	21.2	6.00e-01	0	57	0	502267904	61	4709
2026-01-02 07:11:23.32	328.91	13.19	-49.1	-51.4	21.2	6.02e-01	0	57	0	503840768	61	4702
2026-01-02 07:11:24.31	328.72	13.13	-49.2	-51.6	21.1	6.00e-01	0	57	0	505413632	61	4781
2026-01-02 07:11:25.30	328.53	13.07	-49.3	-51.6	21.0	6.01e-01	0	57	0	507510784	61	4809
2026-01-02 07:11:26.29	328.35	13.01	-49.5	-52.0	20.7	6.02e-01	0	57	0	509607936	61	4992
2026-01-02 07:11:27.27	328.17	12.95	-49.2	-51.6	21.1	6.00e-01	0	57	0	511180800	61	4779
2026-01-02 07:11:28.26	327.98	12.89	-49.6	-52.1	20.6	6.02e-01	0	57	0	513277952	61	5074
2026-01-02 07:11:29.24	327.80	12.83	-49.3	-51.7	21.0	5.99e-01	0	57	0	514850816	61	4819
2026-01-02 07:11:30.23	327.62	12.76	-49.6	-52.1	20.6	6.01e-01	0	57	0	516947968	61	5068
2026-01-02 07:11:31.22	327.44	12.70	-49.7	-52.4	20.3	6.04e-01	0	57	0	518520832	61	5231
2026-01-02 07:11:32.21	327.26	12.64	-49.4	-51.9	20.8	6.00e-01	0	57	0	520617984	61	4946
2026-01-02 07:11:33.20	327.09	12.58	-49.4	-51.8	20.8	6.02e-01	0	57	0	522190848	61	4902
2026-01-02 07:11:34.19	326.91	12.52	-49.5	-51.9	20.7	6.00e-01	0	57	0	524288000	61	4973
2026-01-02 07:11:35.18	326.73	12.45	-50.0	-52.9	19.7	6.01e-01	0	57	0	525860864	62	5252
2026-01-02 07:11:36.16	326.56	12.39	-49.6	-52.1	20.4	6.02e-01	0	57	0	527958016	62	4809
2026-01-02 07:11:37.16	326.38	12.33	-49.8	-52.6	20.1	6.02e-01	0	57	0	529530880	62	5044
2026-01-02 07:11:38.15	326.20	12.27	-50.1	-53.1	19.5	6.03e-01	0	57	0	531628032	62	5356
2026-01-02 07:11:39.14	326.03	12.20	-49.5	-52.0	20.7	6.04e-01	0	57	0	533725184	62	4715
2026-01-02 07:11:40.13	325.86	12.14	-49.5	-52.0	20.6	6.03e-01	0	57	0	535298048	62	4724
2026-01-02 07:11:41.11	325.69	12.08	-49.5	-52.1	20.5	6.04e-01	0	57	0	537395200	62	4767
2026-01-02 07:11:42.11	325.51	12.02	-49.4	-51.8	20.8	6.04e-01	0	57	0	538968064	62	4633
2026-01-02 07:11:43.09	325.34	11.95	-49.4	-51.8	20.8	6.03e-01	0	57	0	541065216	62	4639
2026-01-02 07:11:44.09	325.17	11.89	-49.9	-52.7	19.9	6.03e-01	0	57	0	542638080	62	5104
2026-01-02 07:11:45.07	325.01	11.83	-49.1	-51.4	21.1	6.03e-01	0	57	0	544735232	61	4695
2026-01-02 07:11:46.07	324.84	11.76	-49.1	-51.4	21.2	6.03e-01	0	57	0	546308096	61	4673
2026-01-02 07:11:47.06	324.67	11.70	-49.2	-51.5	21.0	6.03e-01	0	57	0	548405248	61	4751
2026-01-02 07:11:48.05	324.50	11.64	-48.9	-51.1	21.5	6.01e-01	0	57	0	549978112	61	4533
2026-01-02 07:11:49.03	324.34	11.58	-49.5	-52.0	20.6	6.03e-01	0	57	0	552075264	61	5004
2026-01-02 07:11:50.03	324.17	11.51	-49.3	-51.7	20.8	6.04e-01	0	57	0	554172416	61	4861
2026-01-02 07:11:51.02	324.01	11.45	-48.9	-51.2	21.4	6.01e-01	0	57	0	555745280	61	4546
2026-01-02 07:11:52.02	323.84	11.39	-49.0	-51.4	21.2	6.04e-01	0	57	0	557842432	61	4658
2026-01-02 07:11:53.01	323.68	11.32	-49.0	-51.2	21.3	6.03e-01	0	57	0	559415296	61	4583
2026-01-02 07:11:54.00	323.52	11.26	-49.0	-51.2	21.3	6.02e-01	0	57	0	561512448	61	4574
2026-01-02 07:11:54.98	323.36	11.20	-49.4	-51.9	20.7	6.02e-01	0	57	0	563085312	61	4975
2026-01-02 07:11:55.98	323.19	11.13	-49.1	-51.4	21.0	6.02e-01	0	57	0	565182464	61	4704
2026-01-02 07:11:56.97	323.04	11.07	-48.9	-51.1	21.4	6.03e-01	0	57	0	566755328	61	4535
2026-01-02 07:11:57.96	322.88	11.01	-49.2	-51.7	20.9	6.03e-01	0	57	0	568852480	61	4818
2026-01-02 07:11:58.96	322.72	10.94	-49.2	-51.6	20.9	6.02e-01	0	57	0	570425344	61	4760
2026-01-02 07:11:59.94	322.56	10.88	-49.0	-51.3	21.2	6.00e-01	0	57	0	572522496	61	4631
2026-01-02 07:12:00.94	322.40	10.82	-49.5	-52.1	20.5	6.02e-01	0	57	0	574619648	61	5076
2026-01-02 07:12:01.93	322.25	10.75	-49.5	-52.0	20.5	6.02e-01	0	57	0	576192512	61	5039
2026-01-02 07:12:02.92	322.09	10.69	-48.9	-51.2	21.3	6.02e-01	0	57	0	578289664	61	4559
2026-01-02 07:12:03.91	321.94	10.62	-49.0	-51.3	21.2	6.02e-01	0	57	0	579862528	61	4602
2026-01-02 07:12:04.90	321.78	10.56	-49.3	-51.8	20.7	6.02e-01	0	57	0	581959680	61	4912
2026-01-02 07:12:05.90	321.63	10.50	-49.1	-51.5	20.9	6.04e-01	0	57	0	583532544	61	4719
2026-01-02 07:12:06.89	321.48	10.43	-48.9	-51.1	21.3	6.02e-01	0	57	0	585629696	61	4540
2026-01-02 07:12:07.88	321.32	10.37	-49.4	-52.0	20.4	6.01e-01	0	57	0	587202560	61	5037
2026-01-02 07:12:08.87	321.17	10.31	-49.4	-51.9	20.5	6.03e-01	0	57	0	589299712	61	4955
2026-01-02 07:12:09.87	321.02	10.24	-49.2	-51.6	20.9	6.02e-01	0	57	0	590872576	61	4765
2026-01-02 07:12:10.86	320.87	10.18	-49.6	-52.2	20.3	6.03e-01	0	57	0	592969728	61	5133
2026-01-02 07:12:11.85	320.72	10.12	-49.9	-52.8	19.7	6.01e-01	0	57	0	595066880	62	5170
2026-01-02 07:12:12.85	320.57	10.05	-49.7	-52.4	20.0	6.02e-01	0	57	0	596639744	62	4928
2026-01-02 07:12:13.84	320.43	9.99	-49.8	-52.4	20.1	6.01e-01	0	57	0	598736896	62	4983
2026-01-02 07:12:14.82	320.28	9.93	-50.1	-53.0	19.4	6.00e-01	0	57	0	600309760	62	5332
2026-01-02 07:12:15.81	320.14	9.86	-50.4	-53.7	18.8	6.01e-01	0	57	0	602406912	63	5439
2026-01-02 07:12:16.80	319.99	9.80	-50.1	-53.0	19.4	6.02e-01	0	57	0	603979776	63	5041
2026-01-02 07:12:17.79	319.85	9.74	-50.2	-53.3	19.2	6.03e-01	0	57	0	606076928	63	5218
2026-01-02 07:12:18.78	319.70	9.67	-50.5	-54.0	18.6	6.02e-01	0	57	0	607649792	63	5593
2026-01-02 07:12:19.76	319.56	9.61	-50.6	-54.0	18.5	6.02e-01	0	57	0	609746944	63	5623
2026-01-02 07:12:20.75	319.42	9.55	-50.1	-53.1	19.4	6.03e-01	0	57	0	611319808	63	5077
2026-01-02 07:12:21.74	319.28	9.48	-50.1	-53.1	19.3	6.00e-01	0	57	0	613416960	63	5076
2026-01-02 07:12:22.73	319.14	9.42	-50.3	-53.6	19.0	6.03e-01	0	57	0	615514112	63	5363
2026-01-02 07:12:23.73	318.99	9.35	-50.4	-53.7	18.8	6.03e-01	0	57	0	617086976	63	5428
2026-01-02 07:12:24.72	318.85	9.29	-50.4	-53.6	18.9	6.01e-01	0	57	0	619184128	63	5352
2026-01-02 07:12:25.71	318.72	9.23	-50.2	-53.2	19.2	6.03e-01	0	57	0	620756992	63	5138
2026-01-02 07:12:26.70	318.58	9.17	-50.3	-53.5	18.9	6.02e-01	0	57	0	622854144	63	5301
2026-01-02 07:12:27.70	318.44	9.10	-50.4	-53.8	18.6	6.03e-01	0	57	0	624427008	63	5517
2026-01-02 07:12:28.68	318.30	9.04	-49.9	-52.7	19.6	6.01e-01	0	57	0	626524160	63	4853
2026-01-02 07:12:29.67	318.17	8.98	-49.4	-52.0	20.4	6.01e-01	0	57	0	628097024	62	4717
2026-01-02 07:12:30.66	318.03	8.91	-49.6	-52.3	20.0	6.01e-01	0	57	0	630194176	62	4904
2026-01-02 07:12:31.65	317.89	8.85	-50.0	-53.1	19.4	6.02e-01	0	57	0	631767040	62	5343
2026-01-02 07:12:32.64	317.76	8.79	-49.8	-52.6	19.7	6.02e-01	0	57	0	633864192	62	5064
2026-01-02 07:12:33.64	317.63	8.72	-49.4	-51.9	20.4	6.02e-01	0	57	0	635437056	62	4676
2026-01-02 07:12:34.63	317.49	8.66	-49.4	-52.0	20.4	6.01e-01	0	57	0	637534208	62	4708
2026-01-02 07:12:35.62	317.36	8.60	-49.9	-52.9	19.5	6.02e-01	0	57	0	639107072	62	5232
2026-01-02 07:12:36.61	317.23	8.53	-49.9	-52.9	19.4	6.02e-01	0	57	0	641204224	62	5275
2026-01-02 07:12:37.59	317.10	8.47	-49.7	-52.4	19.9	6.02e-01	0	57	0	643301376	62	4964
2026-01-02 07:12:38.58	316.97	8.41	-49.6	-52.3	20.1	6.03e-01	0	57	0	644874240	62	4910
2026-01-02 07:12:39.58	316.84	8.35	-49.8	-52.6	19.8	5.99e-01	0	57	0	646971392	62	5059
2026-01-02 07:12:40.56	316.71	8.28	-50.0	-53.1	19.3	6.03e-01	0	57	0	648544256	62	5385
2026-01-02 07:12:41.54	316.58	8.22	-50.1	-53.3	19.1	6.03e-01	0	57	0	650641408	62	5468
2026-01-02 07:12:42.53	316.45	8.16	-50.1	-53.1	19.2	6.04e-01	0	57	0	652214272	62	5375
2026-01-02 07:12:43.52	316.32	8.10	-50.1	-53.1	19.3	6.00e-01	0	57	0	654311424	62	5362
2026-01-02 07:12:44.51	316.20	8.03	-50.1	-53.2	19.2	6.02e-01	0	57	0	655884288	62	5414
2026-01-02 07:12:45.50	316.07	7.97	-50.1	-53.1	19.2	6.07e-01	0	57	0	657981440	62	5385
2026-01-02 07:12:46.49	315.95	7.91	-50.2	-53.4	18.9	6.03e-01	0	57	0	659554304	62	5588
2026-01-02 07:12:47.48	315.82	7.85	-50.3	-53.5	18.8	6.04e-01	0	57	0	661651456	62	5620
2026-01-02 07:12:48.45	315.70	7.78	-50.1	-53.1	19.2	6.03e-01	0	57	0	663224320	62	5401
2026-01-02 07:12:49.44	315.57	7.72	-49.9	-52.8	19.5	6.01e-01	0	57	0	665321472	62	5218
2026-01-02 07:12:50.43	315.45	7.66	-50.0	-53.1	19.2	6.02e-01	0	57	0	667418624	62	5350
2026-01-02 07:12:51.41	315.33	7.60	-50.2	-53.4	18.9	6.02e-01	0	57	0	668991488	62	5563
2026-01-02 07:12:52.40	315.21	7.54	-50.2	-53.5	18.8	6.03e-01	0	57	0	671088640	62	5656
2026-01-02 07:12:53.39	315.09	7.47	-50.0	-53.0	19.2	6.06e-01	0	57	0	672661504	62	5310
2026-01-02 07:12:54.37	314.97	7.41	-49.5	-52.3	19.7	6.00e-01	0	57	0	674758656	62	4883
2026-01-02 07:12:55.36	314.85	7.35	-49.5	-52.1	20.1	6.00e-01	0	57	0	676331520	62	4814
2026-01-02 07:12:56.36	314.72	7.29	-49.4	-52.0	20.2	6.00e-01	0	57	0	678428672	62	4743
2026-01-02 07:12:57.35	314.60	7.23	-49.4	-52.1	20.2	6.02e-01	0	57	0	680001536	62	4772
2026-01-02 07:12:58.34	314.49	7.16	-49.5	-52.2	20.0	6.04e-01	0	57	0	682098688	62	4832
2026-01-02 07:12:59.33	314.37	7.10	-49.4	-52.1	20.1	6.02e-01	0	57	0	683671552	62	4767
2026-01-02 07:13:00.32	314.25	7.04	-49.3	-51.9	20.3	6.03e-01	0	57	0	685768704	62	4661
2026-01-02 07:13:01.31	314.13	6.98	-49.4	-52.0	20.2	6.04e-01	0	57	0	687341568	62	4731
2026-01-02 07:13:02.30	314.02	6.92	-49.4	-52.1	20.1	6.03e-01	0	57	0	689438720	62	4790
2026-01-02 07:13:03.30	313.90	6.86	-49.6	-52.4	19.8	6.02e-01	0	57	0	691535872	62	4949
2026-01-02 07:13:04.29	313.78	6.79	-49.6	-52.4	19.8	6.02e-01	0	57	0	693108736	62	4954
2026-01-02 07:13:05.28	313.67	6.73	-49.7	-52.6	19.6	6.01e-01	0	57	0	695205888	62	5084
2026-01-02 07:13:06.27	313.55	6.67	-49.6	-52.5	19.7	6.02e-01	0	57	0	696778752	62	4997
2026-01-02 07:13:07.26	313.44	6.61	-49.7	-52.5	19.7	6.06e-01	0	57	0	698875904	62	5036
2026-01-02 07:13:08.25	313.33	6.55	-49.8	-52.8	19.4	6.04e-01	0	57	0	700448768	62	5192
2026-01-02 07:13:09.24	313.21	6.49	-49.9	-53.0	19.2	6.02e-01	0	57	0	702545920	62	5309
2026-01-02 07:13:10.24	313.10	6.43	-49.7	-52.7	19.5	6.02e-01	0	57	0	704118784	62	5113
2026-01-02 07:13:11.23	312.99	6.36	-49.7	-52.7	19.4	6.02e-01	0	57	0	706215936	62	5140
2026-01-02 07:13:12.22	312.88	6.30	-50.0	-53.2	19.0	6.04e-01	0	57	0	708313088	62	5429
2026-01-02 07:13:13.22	312.77	6.24	-50.0	-53.3	18.9	6.01e-01	0	57	0	709885952	62	5476
2026-01-02 07:13:14.21	312.66	6.18	-49.9	-53.0	19.2	6.01e-01	0	57	0	711983104	62	5298
2026-01-02 07:13:15.20	312.55	6.12	-49.9	-53.0	19.2	6.02e-01	0	57	0	713555968	62	5283
2026-01-02 07:13:16.19	312.44	6.06	-49.9	-52.9	19.3	6.03e-01	0	57	0	715653120	62	5261
2026-01-02 07:13:17.18	312.33	6.00	-50.0	-53.1	19.0	6.03e-01	0	57	0	717225984	62	5375
2026-01-02 07:13:18.17	312.22	5.94	-49.9	-53.1	19.0	6.00e-01	0	57	0	719323136	62	5370
2026-01-02 07:13:19.15	312.11	5.88	-49.9	-53.0	19.1	6.01e-01	0	57	0	720896000	62	5337
2026-01-02 07:13:20.14	312.01	5.82	-49.7	-52.8	19.3	6.00e-01	0	57	0	722993152	62	5163
2026-01-02 07:13:21.14	311.90	5.76	-49.6	-52.6	19.4	6.04e-01	0	57	0	724566016	62	5092
2026-01-02 07:13:22.13	311.79	5.70	-49.7	-52.7	19.3	6.01e-01	0	57	0	726663168	62	5112
2026-01-02 07:13:23.10	311.69	5.64	-49.8	-52.9	19.2	6.02e-01	0	57	0	728236032	62	5228
2026-01-02 07:13:24.09	311.59	5.58	-49.6	-52.6	19.4	6.02e-01	0	57	0	730333184	62	5046
2026-01-02 07:13:25.08	311.48	5.52	-49.6	-52.6	19.3	6.00e-01	0	57	0	731906048	62	5099
2026-01-02 07:13:26.08	311.38	5.46	-49.5	-52.5	19.5	6.02e-01	0	57	0	734003200	62	5003
2026-01-02 07:13:27.06	311.27	5.40	-49.8	-53.1	18.9	6.01e-01	0	57	0	735576064	62	5341
2026-01-02 07:13:28.05	311.17	5.34	-49.7	-52.9	19.0	6.01e-01	0	57	0	737673216	62	5225
2026-01-02 07:13:29.03	311.07	5.28	-49.7	-52.8	19.1	6.03e-01	0	57	0	739770368	62	5161
2026-01-02 07:13:30.02	310.97	5.22	-49.7	-52.9	19.0	6.03e-01	0	57	0	741343232	62	5253
2026-01-02 07:13:31.00	310.86	5.16	-49.8	-52.9	18.9	6.00e-01	0	57	0	743440384	62	5277
2026-01-02 07:13:32.00	310.76	5.10	-49.9	-53.2	18.7	6.00e-01	0	57	0	745013248	62	5416
2026-01-02 07:13:32.99	310.66	5.04	-52.5	-61.3	12.0	6.14e-01	0	57	0	747110400	67	10407
2026-01-02 07:13:33.99	310.56	4.98	-53.4	-72.7	3.8	7.47e-01	0	57	104	747110400	68	36377
2026-01-02 07:13:34.98	310.46	4.92	-53.6	-73.5	3.8	7.45e-01	0	57	104	747110400	69	37379
2026-01-02 07:13:35.96	310.36	4.86	-53.5	-73.4	3.8	7.44e-01	0	57	104	747110400	69	36990
2026-01-02 07:13:36.95	310.26	4.80	-50.0	-69.6	3.8	7.47e-01	0	57	104	747110400	62	36014
2026-01-02 07:13:37.94	310.16	4.74	-53.4	-73.2	3.8	7.46e-01	0	57	104	747110400	68	38464
2026-01-02 07:13:38.94	310.07	4.68	-53.9	-73.8	3.8	7.44e-01	0	57	104	747110400	70	36759
2026-01-02 07:13:39.93	309.97	4.62	-54.1	-74.0	3.8	7.44e-01	0	57	104	747110400	70	37386
2026-01-02 07:13:40.93	309.87	4.56	-54.1	-74.0	3.8	7.48e-01	0	57	104	747110400	70	37647
2026-01-02 07:13:41.92	309.77	4.50	-54.2	-74.1	3.8	7.45e-01	0	57	104	747110400	70	37913
2026-01-02 07:13:42.90	309.68	4.45	-54.2	-74.1	3.8	7.45e-01	0	57	104	747110400	70	38039
2026-01-02 07:13:43.89	309.58	4.39	-54.2	-74.1	3.8	7.44e-01	0	57	104	747110400	70	38095
2026-01-02 07:13:44.87	309.49	4.33	-54.2	-74.1	3.8	7.48e-01	0	57	104	747110400	70	37999
2026-01-02 07:13:45.86	309.39	4.27	-54.3	-74.2	3.7	7.44e-01	0	57	104	747110400	70	38284
2026-01-02 07:13:46.85	309.30	4.21	-54.3	-74.2	3.8	7.46e-01	0	57	104	747110400	70	38507
2026-01-02 07:13:47.84	309.20	4.15	-54.3	-74.2	3.8	7.44e-01	0	57	104	747110400	70	38636
2026-01-02 07:13:48.83	309.11	4.09	-54.4	-74.3	3.8	7.46e-01	0	57	104	747110400	70	38829
2026-01-02 07:13:49.82	309.02	4.04	-54.4	-74.3	3.8	7.43e-01	0	57	104	747110400	70	38867
2026-01-02 07:13:50.82	308.92	3.98	-54.4	-74.3	3.8	7.49e-01	0	57	104	747110400	70	38869
2026-01-02 07:13:51.81	308.83	3.92	-54.4	-74.3	3.8	7.44e-01	0	57	104	747110400	71	36781
2026-01-02 07:13:52.81	308.74	3.86	-54.4	-74.3	3.8	7.43e-01	0	57	104	747110400	71	36805
2026-01-02 07:13:53.79	308.65	3.80	-54.4	-74.3	3.8	7.48e-01	0	57	104	747110400	71	36855
2026-01-02 07:13:54.78	308.56	3.74	-54.4	-74.3	3.8	7.42e-01	0	57	104	747110400	71	36942
2026-01-02 07:13:55.77	308.46	3.69	-54.4	-74.4	3.8	7.44e-01	0	57	104	747110400	71	36992
2026-01-02 07:13:56.76	308.37	3.63	-54.5	-74.4	3.8	7.44e-01	0	57	104	747110400	71	36954
2026-01-02 07:13:57.74	308.28	3.57	-54.5	-74.4	3.8	7.44e-01	0	57	104	747110400	71	37051
2026-01-02 07:13:58.72	308.20	3.51	-54.5	-74.4	3.8	7.43e-01	0	57	104	747110400	71	37013
2026-01-02 07:13:59.71	308.11	3.46	-54.4	-74.4	3.8	7.43e-01	0	57	104	747110400	71	37022
2026-01-02 07:14:00.71	308.02	3.40	-54.4	-74.4	3.8	7.43e-01	0	57	104	747110400	71	36950
2026-01-02 07:14:01.70	307.93	3.34	-54.4	-74.3	3.8	7.45e-01	0	57	104	747110400	71	36917
2026-01-02 07:14:02.69	307.84	3.28	-54.4	-74.3	3.8	7.43e-01	0	57	104	747110400	71	36886
2026-01-02 07:14:03.67	307.75	3.23	-54.4	-74.3	3.8	7.48e-01	0	57	104	747110400	71	36915
2026-01-02 07:14:04.66	307.67	3.17	-54.4	-74.3	3.8	7.45e-01	0	57	104	747110400	71	36897
2026-01-02 07:14:05.65	307.58	3.11	-54.4	-74.3	3.8	7.48e-01	0	57	104	747110400	71	36879
2026-01-02 07:14:06.64	307.49	3.05	-54.4	-74.4	3.8	7.45e-01	0	57	104	747110400	71	36951
2026-01-02 07:14:07.63	307.41	3.00	-54.4	-74.3	3.8	7.46e-01	0	57	104	747110400	71	36877

#Closed at: 2026-01-02 07:14:07
#Recorded file [747 MB]: D:/Data/31026_260102_101333.dat