passes_logs/2026/01/02/R3.0SM8_Murmansk_STILSPACE/R3.0SM8_Murmansk_STILSPACE__20260102_205608_NOAA_20_JPSS-1_rec.log

#Pass ID: 20260102_205608_NOAA 20 (JPSS-1)
#Satellite: NOAA 20 (JPSS-1)
#Configuration: NOAA 20
#almurnet v.1.7.20240730
#Start time: 2026-01-02 20:56:08

#Version: 2.2.20231116
#Station: R3.0SM8_Murmansk_STILSPACE
#Location: 33.092731 lon 68.902999 lat
#TLE: 1 43013U 17073A   26002.21975278  .00000202  00000+0  11669-3 0  9999
#TLE: 2 43013  98.7622 303.2950 0001915  57.9213 302.2149 14.19532512420923

#Time	Az	El	Level	Level2	SNR	BER	BlckErr	Temp	State	Recorded	gain1	gain2
2026-01-02 20:56:08.47	21.56	3.00	-52.8	-66.8	3.8	1.49e+00	0	45	0	0	67	19105
2026-01-02 20:56:09.45	21.67	3.03	-52.8	-67.0	3.8	1.49e+00	0	45	104	0	68	18345
2026-01-02 20:56:10.44	21.79	3.07	-52.9	-67.0	3.8	1.49e+00	0	46	104	0	68	18309
2026-01-02 20:56:11.43	21.90	3.11	-52.9	-67.0	3.8	1.49e+00	0	46	104	0	68	18339
2026-01-02 20:56:12.42	22.01	3.15	-52.9	-67.0	3.8	1.49e+00	0	46	104	0	68	18338
2026-01-02 20:56:13.42	22.13	3.19	-52.7	-66.9	3.8	1.49e+00	0	46	104	0	68	18287
2026-01-02 20:56:14.40	22.24	3.23	-53.0	-66.9	3.8	1.49e+00	0	46	104	0	68	18303
2026-01-02 20:56:15.39	22.35	3.27	-52.9	-66.9	3.8	1.49e+00	0	46	104	0	68	18231
2026-01-02 20:56:16.38	22.47	3.30	-53.0	-66.9	3.8	1.49e+00	0	46	104	0	68	18244
2026-01-02 20:56:17.38	22.58	3.34	-52.8	-66.9	3.8	1.49e+00	0	46	104	0	68	18215
2026-01-02 20:56:18.37	22.70	3.38	-52.8	-66.9	3.8	1.49e+00	0	46	104	0	68	18156
2026-01-02 20:56:19.35	22.81	3.42	-52.9	-66.9	3.8	1.49e+00	0	46	104	0	68	18208
2026-01-02 20:56:20.34	22.93	3.46	-52.9	-66.9	3.8	1.49e+00	0	46	104	0	68	18140
2026-01-02 20:56:21.33	23.05	3.50	-52.8	-66.9	3.8	1.49e+00	0	46	104	0	68	18101
2026-01-02 20:56:22.32	23.16	3.53	-52.8	-66.8	3.8	1.49e+00	0	47	104	0	68	18094
2026-01-02 20:56:23.32	23.28	3.57	-52.9	-66.8	3.8	1.49e+00	0	46	104	0	68	17989
2026-01-02 20:56:24.30	23.39	3.61	-52.7	-66.8	3.8	1.49e+00	0	47	104	0	68	17933
2026-01-02 20:56:25.29	23.51	3.65	-52.9	-66.8	3.8	1.49e+00	0	47	104	0	68	17949
2026-01-02 20:56:26.28	23.63	3.69	-52.9	-66.8	3.8	1.49e+00	0	47	104	0	68	17930
2026-01-02 20:56:27.27	23.75	3.72	-52.8	-66.7	3.8	1.49e+00	0	47	104	0	68	17840
2026-01-02 20:56:28.26	23.87	3.76	-52.8	-66.7	3.8	1.49e+00	0	47	104	0	68	17806
2026-01-02 20:56:29.25	23.98	3.80	-52.7	-66.7	3.8	1.49e+00	0	47	104	0	68	17694
2026-01-02 20:56:30.23	24.10	3.84	-52.8	-66.6	3.8	1.49e+00	0	47	104	0	68	17577
2026-01-02 20:56:31.21	24.22	3.87	-52.6	-66.5	3.8	1.49e+00	0	47	104	0	68	17421
2026-01-02 20:56:32.19	24.34	3.91	-52.6	-66.4	3.8	1.49e+00	0	47	104	0	68	17177
2026-01-02 20:56:33.18	24.46	3.95	-52.3	-66.1	3.8	1.49e+00	0	47	104	0	67	17670
2026-01-02 20:56:34.16	24.57	3.99	-52.1	-65.9	3.8	1.49e+00	0	47	104	0	67	17124
2026-01-02 20:56:35.15	24.69	4.02	-51.9	-65.8	3.8	1.49e+00	0	48	104	0	66	17993
2026-01-02 20:56:36.15	24.82	4.06	-51.9	-65.8	3.8	1.49e+00	0	47	104	0	66	17964
2026-01-02 20:56:37.14	24.94	4.10	-51.9	-65.8	3.8	1.49e+00	0	47	104	0	66	17911
2026-01-02 20:56:38.12	25.06	4.14	-51.9	-65.8	3.8	1.49e+00	0	47	104	0	66	17926
2026-01-02 20:56:39.11	25.18	4.17	-51.9	-65.8	3.8	1.49e+00	0	48	104	0	66	17934
2026-01-02 20:56:40.10	25.30	4.21	-52.0	-65.7	3.8	1.49e+00	0	48	104	0	66	17867
2026-01-02 20:56:41.10	25.42	4.25	-51.9	-65.8	3.8	1.49e+00	0	48	104	0	66	17946
2026-01-02 20:56:42.09	25.54	4.29	-51.7	-65.8	3.8	1.49e+00	0	48	104	0	66	17940
2026-01-02 20:56:43.08	25.67	4.32	-51.8	-65.8	3.8	1.49e+00	0	48	104	0	66	17984
2026-01-02 20:56:44.07	25.79	4.36	-51.7	-65.8	3.8	1.49e+00	0	48	104	0	66	18041
2026-01-02 20:56:45.05	25.91	4.40	-51.9	-65.8	3.8	1.49e+00	0	48	104	0	66	18025
2026-01-02 20:56:46.05	26.04	4.44	-51.9	-65.8	3.8	1.49e+00	0	48	104	0	66	18002
2026-01-02 20:56:47.04	26.16	4.47	-51.8	-65.8	3.8	1.49e+00	0	48	104	0	66	17898
2026-01-02 20:56:48.03	26.28	4.51	-51.9	-65.7	3.8	1.49e+00	0	48	104	0	66	17784
2026-01-02 20:56:49.02	26.41	4.55	-51.8	-65.7	3.8	1.49e+00	0	48	104	0	66	17684
2026-01-02 20:56:50.00	26.53	4.58	-51.9	-65.5	3.8	1.49e+00	0	48	104	0	66	17478
2026-01-02 20:56:50.99	26.66	4.62	-51.9	-65.6	3.8	1.49e+00	0	48	104	0	66	17484
2026-01-02 20:56:51.98	26.78	4.66	-51.8	-65.6	3.8	1.49e+00	0	48	104	0	66	17650
2026-01-02 20:56:52.98	26.91	4.69	-51.8	-65.7	3.8	1.49e+00	0	49	104	0	66	17790
2026-01-02 20:56:53.96	27.03	4.73	-51.9	-65.7	3.8	1.49e+00	0	49	104	0	66	17748
2026-01-02 20:56:54.96	27.16	4.77	-51.8	-65.3	3.8	1.49e+00	0	49	104	0	66	17074
2026-01-02 20:56:55.95	27.29	4.80	-51.7	-64.5	3.8	1.49e+00	0	49	104	0	66	15432
2026-01-02 20:56:56.94	27.41	4.84	-51.8	-63.1	4.0	1.49e+00	0	49	104	0	66	13169
2026-01-02 20:56:57.93	27.54	4.87	-51.7	-61.6	4.4	1.37e+00	59	49	0	0	66	11101
2026-01-02 20:56:58.92	27.67	4.91	-51.4	-60.0	5.2	8.65e-01	0	49	0	1048576	65	9745
2026-01-02 20:56:59.92	27.79	4.95	-51.1	-58.2	6.5	4.51e-01	0	49	0	3145728	65	7948
2026-01-02 20:57:00.91	27.92	4.98	-50.8	-56.8	7.3	1.97e-01	0	49	0	5242880	64	7179
2026-01-02 20:57:01.90	28.05	5.02	-50.4	-55.6	8.8	4.22e-02	0	49	0	7340032	64	6253
2026-01-02 20:57:02.90	28.18	5.06	-50.3	-55.1	9.6	1.74e-02	0	49	0	8388608	63	6235
2026-01-02 20:57:03.88	28.31	5.09	-50.6	-56.1	8.6	2.17e-02	0	49	0	10485760	63	6993
2026-01-02 20:57:04.88	28.44	5.13	-50.4	-55.4	9.0	2.43e-02	0	49	0	12582912	63	6462
2026-01-02 20:57:05.87	28.57	5.16	-50.3	-55.0	9.6	1.49e-02	0	49	0	14680064	63	6146
2026-01-02 20:57:06.86	28.70	5.20	-50.2	-54.7	10.1	9.69e-03	0	49	0	16777216	63	5952
2026-01-02 20:57:07.86	28.83	5.24	-49.8	-54.1	10.6	5.40e-03	0	49	0	17825792	62	5872
2026-01-02 20:57:08.85	28.96	5.27	-49.7	-53.6	11.2	1.88e-03	0	50	0	19922944	62	5571
2026-01-02 20:57:09.84	29.09	5.31	-49.5	-53.2	11.4	1.30e-03	0	49	0	22020096	62	5318
2026-01-02 20:57:10.82	29.22	5.34	-49.4	-52.9	11.7	7.97e-04	0	50	0	24117248	62	5115
2026-01-02 20:57:11.80	29.35	5.38	-49.4	-53.0	11.7	5.27e-04	0	49	0	25165824	61	5521
2026-01-02 20:57:12.79	29.48	5.41	-49.5	-53.1	11.7	5.64e-04	0	49	0	27262976	61	5560
2026-01-02 20:57:13.78	29.61	5.45	-49.6	-53.3	11.5	8.32e-04	0	50	0	29360128	61	5718
2026-01-02 20:57:14.76	29.74	5.48	-49.5	-53.1	11.6	8.34e-04	0	49	0	31457280	61	5555
2026-01-02 20:57:15.75	29.87	5.52	-49.4	-52.9	11.9	6.29e-04	0	50	0	32505856	61	5457
2026-01-02 20:57:16.74	30.01	5.55	-49.5	-53.1	11.6	4.95e-04	0	50	0	34603008	61	5547
2026-01-02 20:57:17.73	30.14	5.59	-49.7	-53.4	11.4	6.97e-04	0	50	0	36700160	61	5766
2026-01-02 20:57:18.73	30.28	5.62	-49.7	-53.4	11.4	9.52e-04	0	50	0	38797312	61	5768
2026-01-02 20:57:19.72	30.41	5.66	-49.3	-52.7	12.0	3.96e-04	0	50	0	39845888	61	5338
2026-01-02 20:57:20.70	30.54	5.69	-49.2	-52.6	12.2	2.82e-04	0	50	0	41943040	61	5223
2026-01-02 20:57:21.69	30.68	5.73	-49.3	-52.7	12.0	1.95e-04	0	50	0	44040192	61	5288
2026-01-02 20:57:22.68	30.81	5.76	-49.3	-52.8	12.1	2.94e-04	0	50	0	46137344	61	5346
2026-01-02 20:57:23.67	30.94	5.79	-49.4	-52.7	12.1	3.95e-04	0	50	0	48234496	61	5340
2026-01-02 20:57:24.66	31.08	5.83	-49.5	-53.1	11.6	2.84e-04	0	50	0	49283072	61	5557
2026-01-02 20:57:25.66	31.22	5.86	-49.3	-52.8	12.1	4.87e-04	0	50	0	51380224	61	5387
2026-01-02 20:57:26.65	31.35	5.90	-49.1	-52.4	12.4	2.78e-04	0	50	0	53477376	61	5128
2026-01-02 20:57:27.64	31.49	5.93	-49.2	-52.5	12.2	2.06e-04	0	50	0	55574528	61	5193
2026-01-02 20:57:28.63	31.62	5.97	-49.1	-52.4	12.3	1.66e-04	0	50	0	56623104	61	5113
2026-01-02 20:57:29.61	31.76	6.00	-49.4	-52.7	12.0	1.89e-04	0	50	0	58720256	61	5282
2026-01-02 20:57:30.61	31.90	6.03	-49.4	-52.7	12.2	3.53e-04	0	51	0	60817408	61	5340
2026-01-02 20:57:31.59	32.03	6.07	-49.2	-52.4	12.6	1.49e-04	0	50	0	62914560	61	5122
2026-01-02 20:57:32.58	32.17	6.10	-49.1	-52.1	12.7	8.92e-05	0	50	0	65011712	61	4974
2026-01-02 20:57:33.57	32.31	6.13	-48.9	-52.0	12.8	7.93e-05	0	50	0	66060288	60	5169
2026-01-02 20:57:34.56	32.45	6.17	-48.9	-51.8	12.9	5.18e-05	0	50	0	68157440	60	5098
2026-01-02 20:57:35.55	32.59	6.20	-48.9	-51.9	13.1	4.42e-05	0	51	0	70254592	60	5111
2026-01-02 20:57:36.53	32.72	6.23	-49.0	-51.9	12.9	4.34e-05	0	51	0	72351744	60	5154
2026-01-02 20:57:37.52	32.86	6.27	-49.1	-52.2	12.9	8.16e-05	0	51	0	73400320	60	5319
2026-01-02 20:57:38.51	33.00	6.30	-49.0	-52.1	12.8	6.33e-05	0	50	0	75497472	60	5264
2026-01-02 20:57:39.50	33.14	6.33	-49.1	-52.2	12.7	7.55e-05	0	51	0	77594624	60	5301
2026-01-02 20:57:40.49	33.28	6.36	-49.1	-52.3	12.7	1.11e-04	0	51	0	79691776	60	5344
2026-01-02 20:57:41.47	33.42	6.40	-49.1	-52.3	12.7	1.04e-04	0	51	0	80740352	60	5367
2026-01-02 20:57:42.46	33.56	6.43	-49.0	-52.1	12.9	8.23e-05	0	51	0	82837504	60	5253
2026-01-02 20:57:43.45	33.70	6.46	-49.3	-52.6	12.4	1.24e-04	0	51	0	84934656	60	5592
2026-01-02 20:57:44.42	33.84	6.49	-49.2	-52.4	12.3	1.68e-04	0	51	0	87031808	60	5431
2026-01-02 20:57:45.41	33.98	6.53	-49.2	-52.5	12.5	1.20e-04	0	51	0	88080384	60	5483
2026-01-02 20:57:46.40	34.12	6.56	-49.2	-52.5	12.3	1.70e-04	0	51	0	90177536	60	5493
2026-01-02 20:57:47.38	34.27	6.59	-49.2	-52.5	12.7	1.18e-04	0	51	0	92274688	60	5509
2026-01-02 20:57:48.37	34.41	6.62	-49.1	-52.4	12.4	1.16e-04	0	51	0	94371840	60	5414
2026-01-02 20:57:49.35	34.55	6.65	-49.3	-52.6	12.3	1.69e-04	0	51	0	96468992	60	5541
2026-01-02 20:57:50.35	34.69	6.69	-49.2	-52.5	12.4	1.04e-04	0	51	0	97517568	60	5477
2026-01-02 20:57:51.34	34.84	6.72	-49.2	-52.6	12.1	2.23e-04	0	51	0	99614720	60	5536
2026-01-02 20:57:52.32	34.98	6.75	-49.5	-53.0	12.0	3.71e-04	0	51	0	101711872	61	5503
2026-01-02 20:57:53.31	35.12	6.78	-49.2	-52.4	12.4	2.64e-04	0	51	0	103809024	61	5119
2026-01-02 20:57:54.30	35.27	6.81	-49.1	-52.2	12.7	1.13e-04	0	51	0	104857600	61	5035
2026-01-02 20:57:55.30	35.41	6.84	-49.0	-52.2	12.8	9.15e-05	0	51	0	106954752	61	4990
2026-01-02 20:57:56.28	35.56	6.87	-49.0	-52.1	12.7	8.08e-05	0	51	0	109051904	61	4974
2026-01-02 20:57:57.27	35.70	6.91	-49.2	-52.3	12.8	7.78e-05	0	51	0	111149056	61	5094
2026-01-02 20:57:58.26	35.85	6.94	-49.1	-52.2	12.6	7.40e-05	0	51	0	112197632	61	5022
2026-01-02 20:57:59.25	35.99	6.97	-49.2	-52.4	12.6	7.09e-05	0	51	0	114294784	61	5128
2026-01-02 20:58:00.23	36.14	7.00	-49.2	-52.3	12.4	7.93e-05	0	51	0	116391936	61	5063
2026-01-02 20:58:01.22	36.28	7.03	-49.1	-52.1	12.8	8.31e-05	0	52	0	118489088	61	4977
2026-01-02 20:58:02.21	36.43	7.06	-49.3	-52.5	12.6	1.17e-04	0	52	0	119537664	61	5209
2026-01-02 20:58:03.19	36.58	7.09	-49.2	-52.3	12.7	9.76e-05	0	52	0	121634816	61	5084
2026-01-02 20:58:04.17	36.72	7.12	-49.2	-52.3	12.5	1.14e-04	0	52	0	123731968	61	5067
2026-01-02 20:58:05.16	36.87	7.15	-49.3	-52.5	12.4	1.03e-04	0	52	0	125829120	61	5191
2026-01-02 20:58:06.15	37.02	7.18	-49.4	-52.6	12.3	1.64e-04	0	52	0	127926272	61	5276
2026-01-02 20:58:07.13	37.16	7.21	-49.3	-52.5	12.4	1.68e-04	0	52	0	128974848	61	5216
2026-01-02 20:58:08.12	37.31	7.24	-49.4	-52.8	12.4	1.75e-04	0	52	0	131072000	61	5378
2026-01-02 20:58:09.12	37.46	7.27	-49.3	-52.7	12.3	1.67e-04	0	52	0	133169152	61	5306
2026-01-02 20:58:10.10	37.61	7.30	-49.2	-52.6	12.4	1.36e-04	0	52	0	135266304	61	5240
2026-01-02 20:58:11.09	37.76	7.33	-49.4	-52.8	12.2	1.95e-04	0	52	0	136314880	61	5346
2026-01-02 20:58:12.08	37.91	7.35	-49.3	-52.7	12.3	1.71e-04	0	52	0	138412032	61	5280
2026-01-02 20:58:13.07	38.06	7.38	-49.4	-52.8	12.3	1.77e-04	0	52	0	140509184	61	5341
2026-01-02 20:58:14.07	38.21	7.41	-49.4	-52.7	12.3	2.17e-04	0	52	0	142606336	61	5333
2026-01-02 20:58:15.06	38.36	7.44	-49.2	-52.4	12.4	1.56e-04	0	52	0	143654912	61	5157
2026-01-02 20:58:16.04	38.51	7.47	-49.2	-52.4	12.3	1.75e-04	0	52	0	145752064	61	5153
2026-01-02 20:58:17.04	38.66	7.50	-49.5	-52.9	12.3	1.99e-04	0	52	0	147849216	61	5455
2026-01-02 20:58:18.02	38.81	7.53	-49.4	-52.7	12.4	1.73e-04	0	52	0	149946368	61	5338
2026-01-02 20:58:19.01	38.96	7.55	-49.4	-52.8	12.3	1.72e-04	0	52	0	152043520	61	5402
2026-01-02 20:58:20.01	39.12	7.58	-49.4	-52.7	12.2	1.45e-04	0	52	0	153092096	61	5340
2026-01-02 20:58:20.99	39.27	7.61	-49.3	-52.7	12.3	1.50e-04	0	52	0	155189248	61	5283
2026-01-02 20:58:21.98	39.42	7.64	-49.3	-52.5	12.4	1.49e-04	0	52	0	157286400	61	5169
2026-01-02 20:58:22.97	39.57	7.67	-49.3	-52.6	12.5	1.25e-04	0	52	0	159383552	61	5269
2026-01-02 20:58:23.96	39.72	7.69	-49.3	-52.4	12.6	9.07e-05	0	52	0	160432128	61	5120
2026-01-02 20:58:24.95	39.88	7.72	-49.3	-52.5	12.6	8.46e-05	0	52	0	162529280	61	5181
2026-01-02 20:58:25.94	40.03	7.75	-49.4	-52.7	12.4	1.49e-04	0	52	0	164626432	61	5280
2026-01-02 20:58:26.93	40.18	7.78	-49.4	-52.6	12.5	1.51e-04	0	52	0	166723584	61	5230
2026-01-02 20:58:27.92	40.34	7.80	-49.4	-52.7	12.4	1.55e-04	0	52	0	167772160	61	5303
2026-01-02 20:58:28.90	40.49	7.83	-49.4	-52.7	12.4	1.45e-04	0	52	0	169869312	61	5300
2026-01-02 20:58:29.88	40.64	7.86	-49.4	-52.6	12.6	1.15e-04	0	52	0	171966464	61	5231
2026-01-02 20:58:30.87	40.80	7.88	-49.3	-52.6	12.5	1.27e-04	0	52	0	174063616	61	5251
2026-01-02 20:58:31.86	40.95	7.91	-49.4	-52.7	12.3	1.57e-04	0	52	0	176160768	61	5308
2026-01-02 20:58:32.85	41.11	7.93	-49.4	-52.8	12.3	1.57e-04	0	52	0	177209344	61	5375
2026-01-02 20:58:33.84	41.27	7.96	-49.6	-52.9	12.0	1.98e-04	0	52	0	179306496	61	5423
2026-01-02 20:58:34.83	41.42	7.99	-49.5	-52.8	12.3	2.17e-04	0	52	0	181403648	61	5368
2026-01-02 20:58:35.82	41.58	8.01	-49.4	-52.6	12.3	1.71e-04	0	53	0	183500800	61	5244
2026-01-02 20:58:36.81	41.73	8.04	-49.5	-52.9	12.1	1.94e-04	0	53	0	184549376	61	5421
2026-01-02 20:58:37.80	41.89	8.06	-49.5	-52.9	12.2	2.37e-04	0	53	0	186646528	61	5437
2026-01-02 20:58:38.79	42.05	8.09	-49.4	-52.6	12.3	1.98e-04	0	53	0	188743680	61	5263
2026-01-02 20:58:39.78	42.21	8.11	-49.4	-52.5	12.6	1.31e-04	0	53	0	190840832	61	5198
2026-01-02 20:58:40.77	42.36	8.14	-49.4	-52.6	12.6	9.00e-05	0	53	0	192937984	61	5219
2026-01-02 20:58:41.76	42.52	8.16	-49.4	-52.6	12.5	1.55e-04	0	53	0	193986560	61	5221
2026-01-02 20:58:42.75	42.68	8.19	-49.6	-52.8	12.2	1.85e-04	0	53	0	196083712	61	5390
2026-01-02 20:58:43.74	42.84	8.21	-49.4	-52.6	12.4	2.07e-04	0	53	0	198180864	61	5258
2026-01-02 20:58:44.74	43.00	8.24	-49.3	-52.3	12.7	1.01e-04	0	53	0	200278016	61	5068
2026-01-02 20:58:45.72	43.15	8.26	-49.3	-52.3	12.7	8.31e-05	0	53	0	201326592	61	5099
2026-01-02 20:58:46.72	43.32	8.29	-49.2	-52.2	12.9	5.26e-05	0	53	0	203423744	61	5007
2026-01-02 20:58:47.71	43.47	8.31	-49.3	-52.4	12.8	5.56e-05	0	53	0	205520896	61	5113
2026-01-02 20:58:48.69	43.63	8.33	-49.1	-52.2	12.9	5.41e-05	0	53	0	207618048	61	4987
2026-01-02 20:58:49.68	43.79	8.36	-49.2	-52.2	12.8	6.71e-05	0	53	0	208666624	61	5033
2026-01-02 20:58:50.67	43.95	8.38	-49.2	-52.3	12.9	6.25e-05	0	53	0	210763776	61	5051
2026-01-02 20:58:51.66	44.11	8.40	-49.3	-52.4	12.7	6.56e-05	0	53	0	212860928	61	5139
2026-01-02 20:58:52.65	44.27	8.43	-49.3	-52.4	12.8	6.86e-05	0	53	0	214958080	61	5104
2026-01-02 20:58:53.64	44.43	8.45	-49.3	-52.4	12.8	6.71e-05	0	53	0	216006656	61	5125
2026-01-02 20:58:54.63	44.60	8.47	-49.4	-52.6	12.7	8.08e-05	0	53	0	218103808	61	5237
2026-01-02 20:58:55.62	44.76	8.49	-49.6	-52.8	12.3	1.18e-04	0	53	0	220200960	61	5374
2026-01-02 20:58:56.61	44.92	8.52	-49.5	-52.7	12.4	1.70e-04	0	53	0	222298112	61	5294
2026-01-02 20:58:57.60	45.08	8.54	-49.5	-52.7	12.4	1.51e-04	0	53	0	224395264	61	5317
2026-01-02 20:58:58.59	45.24	8.56	-49.6	-52.9	12.2	1.88e-04	0	53	0	225443840	61	5460
2026-01-02 20:58:59.57	45.40	8.58	-49.6	-52.9	12.3	2.52e-04	0	53	0	227540992	61	5437
2026-01-02 20:59:00.56	45.57	8.60	-49.5	-52.8	12.3	1.45e-04	0	53	0	229638144	61	5358
2026-01-02 20:59:01.55	45.73	8.62	-49.6	-52.8	12.3	1.98e-04	0	53	0	231735296	61	5369
2026-01-02 20:59:02.55	45.89	8.65	-49.6	-52.9	12.2	2.74e-04	0	53	0	232783872	61	5433
2026-01-02 20:59:03.53	46.05	8.67	-49.6	-52.9	12.3	1.59e-04	0	53	0	234881024	61	5415
2026-01-02 20:59:04.52	46.22	8.69	-49.7	-53.1	12.0	2.30e-04	0	53	0	236978176	61	5587
2026-01-02 20:59:05.50	46.38	8.71	-49.7	-53.2	11.9	4.34e-04	0	53	0	239075328	61	5632
2026-01-02 20:59:06.49	46.54	8.73	-49.6	-53.0	12.2	2.62e-04	0	53	0	240123904	61	5497
2026-01-02 20:59:07.49	46.71	8.75	-49.6	-52.9	12.2	1.79e-04	0	53	0	242221056	61	5447
2026-01-02 20:59:08.49	46.88	8.77	-49.5	-52.8	12.4	1.69e-04	0	54	0	244318208	61	5365
2026-01-02 20:59:09.47	47.04	8.79	-49.5	-52.8	12.3	1.53e-04	0	53	0	246415360	61	5389
2026-01-02 20:59:10.47	47.20	8.81	-49.5	-52.8	12.3	1.82e-04	0	53	0	248512512	61	5360
2026-01-02 20:59:11.47	47.37	8.83	-49.6	-52.9	12.4	1.63e-04	0	53	0	249561088	61	5412
2026-01-02 20:59:12.46	47.54	8.85	-49.6	-52.9	12.2	1.67e-04	0	54	0	251658240	61	5419
2026-01-02 20:59:13.44	47.70	8.87	-49.6	-52.8	12.4	1.83e-04	0	53	0	253755392	61	5348
2026-01-02 20:59:14.43	47.87	8.89	-49.4	-52.6	12.5	1.36e-04	0	53	0	255852544	61	5229
2026-01-02 20:59:15.42	48.03	8.90	-49.3	-52.4	12.8	7.09e-05	0	54	0	256901120	61	5105
2026-01-02 20:59:16.42	48.20	8.92	-49.2	-52.2	13.0	3.89e-05	0	54	0	258998272	61	5016
2026-01-02 20:59:17.41	48.37	8.94	-49.2	-52.1	13.1	3.28e-05	0	54	0	261095424	61	4948
2026-01-02 20:59:18.40	48.53	8.96	-49.2	-52.1	13.0	3.73e-05	0	54	0	263192576	61	4981
2026-01-02 20:59:19.39	48.70	8.98	-49.1	-52.2	12.9	5.79e-05	0	53	0	265289728	61	5006
2026-01-02 20:59:20.37	48.86	9.00	-49.2	-52.1	13.1	3.43e-05	0	54	0	266338304	61	4966
2026-01-02 20:59:21.37	49.03	9.01	-49.2	-52.1	13.0	2.97e-05	0	53	0	268435456	61	4935
2026-01-02 20:59:22.35	49.20	9.03	-49.3	-52.3	12.9	2.89e-05	0	54	0	270532608	61	5052
2026-01-02 20:59:23.34	49.37	9.05	-49.4	-52.4	12.8	5.72e-05	0	54	0	272629760	61	5117
2026-01-02 20:59:24.33	49.53	9.07	-49.1	-52.2	12.9	5.18e-05	0	54	0	273678336	61	5034
2026-01-02 20:59:25.32	49.70	9.08	-49.2	-52.3	12.9	5.26e-05	0	54	0	275775488	61	5078
2026-01-02 20:59:26.31	49.87	9.10	-49.3	-52.4	12.8	6.02e-05	0	54	0	277872640	61	5102
2026-01-02 20:59:27.29	50.04	9.12	-49.4	-52.4	12.7	8.16e-05	0	54	0	279969792	61	5123
2026-01-02 20:59:28.28	50.20	9.13	-49.3	-52.5	12.6	7.40e-05	0	54	0	281018368	61	5169
2026-01-02 20:59:29.27	50.37	9.15	-49.4	-52.7	12.5	9.61e-05	0	54	0	283115520	61	5315
2026-01-02 20:59:30.24	50.54	9.16	-49.6	-52.8	12.3	1.68e-04	0	54	0	285212672	61	5391
2026-01-02 20:59:31.25	50.71	9.18	-49.5	-52.6	12.6	1.12e-04	0	54	0	287309824	61	5268
2026-01-02 20:59:32.24	50.88	9.19	-49.4	-52.5	12.7	7.78e-05	0	54	0	289406976	61	5191
2026-01-02 20:59:33.22	51.05	9.21	-49.3	-52.4	12.8	5.87e-05	0	54	0	290455552	61	5115
2026-01-02 20:59:34.22	51.22	9.22	-49.3	-52.3	12.8	8.01e-05	0	54	0	292552704	61	5099
2026-01-02 20:59:35.21	51.39	9.24	-49.4	-52.6	12.6	8.69e-05	0	54	0	294649856	61	5222
2026-01-02 20:59:36.19	51.56	9.25	-49.3	-52.4	12.8	7.24e-05	0	54	0	296747008	61	5131
2026-01-02 20:59:37.18	51.73	9.27	-49.4	-52.5	12.7	4.73e-05	0	54	0	297795584	61	5168
2026-01-02 20:59:38.17	51.90	9.28	-49.4	-52.6	12.6	9.53e-05	0	54	0	299892736	61	5241
2026-01-02 20:59:39.16	52.07	9.30	-49.4	-52.6	12.6	9.61e-05	0	54	0	301989888	61	5227
2026-01-02 20:59:40.14	52.24	9.31	-49.5	-52.8	12.4	1.41e-04	0	54	0	304087040	61	5388
2026-01-02 20:59:41.14	52.41	9.32	-49.6	-52.9	12.3	1.88e-04	0	54	0	305135616	61	5448
2026-01-02 20:59:42.13	52.58	9.34	-49.7	-53.2	12.0	3.57e-04	0	54	0	307232768	61	5640
2026-01-02 20:59:43.12	52.75	9.35	-49.6	-53.2	12.0	3.32e-04	0	54	0	309329920	61	5620
2026-01-02 20:59:44.11	52.92	9.36	-49.7	-53.3	11.7	4.30e-04	0	54	0	311427072	61	5713
2026-01-02 20:59:45.10	53.09	9.38	-49.7	-53.2	11.9	5.49e-04	0	54	0	312475648	61	5655
2026-01-02 20:59:46.09	53.26	9.39	-49.8	-53.6	11.6	6.78e-04	0	54	0	314572800	61	5871
2026-01-02 20:59:47.09	53.44	9.40	-50.0	-53.9	11.2	1.07e-03	0	54	0	316669952	61	6086
2026-01-02 20:59:48.07	53.61	9.41	-50.0	-53.9	11.2	1.31e-03	0	54	0	318767104	61	6079
2026-01-02 20:59:49.06	53.78	9.42	-50.0	-53.9	11.3	1.32e-03	0	54	0	320864256	61	6085
2026-01-02 20:59:50.05	53.95	9.44	-50.0	-53.9	11.3	1.31e-03	0	54	0	321912832	61	6075
2026-01-02 20:59:51.05	54.12	9.45	-50.0	-53.9	11.2	1.20e-03	0	54	0	324009984	61	6098
2026-01-02 20:59:52.03	54.29	9.46	-50.2	-54.1	11.1	1.57e-03	0	54	0	326107136	62	5866
2026-01-02 20:59:53.02	54.47	9.47	-50.2	-54.3	10.8	2.21e-03	0	54	0	328204288	62	6032
2026-01-02 20:59:54.02	54.64	9.48	-50.1	-54.1	11.1	1.70e-03	0	54	0	329252864	62	5881
2026-01-02 20:59:55.00	54.81	9.49	-50.0	-53.8	11.4	1.30e-03	0	54	0	331350016	62	5679
2026-01-02 20:59:55.99	54.98	9.50	-50.1	-53.9	11.2	1.11e-03	0	54	0	333447168	62	5782
2026-01-02 20:59:56.99	55.16	9.51	-50.2	-54.1	11.1	1.57e-03	0	54	0	335544320	62	5871
2026-01-02 20:59:57.98	55.33	9.52	-50.4	-54.5	10.7	2.54e-03	0	54	0	337641472	62	6151
2026-01-02 20:59:58.97	55.50	9.53	-50.3	-54.3	10.8	2.59e-03	0	54	0	338690048	62	6032
2026-01-02 20:59:59.96	55.68	9.54	-50.4	-54.8	10.4	3.08e-03	0	54	0	340787200	62	6353
2026-01-02 21:00:00.96	55.85	9.55	-50.3	-54.5	10.7	3.63e-03	0	54	0	342884352	62	6188
2026-01-02 21:00:01.95	56.03	9.56	-50.3	-54.4	10.8	2.97e-03	0	54	0	344981504	62	6063
2026-01-02 21:00:02.94	56.20	9.57	-50.2	-54.1	11.0	2.06e-03	0	54	0	346030080	62	5861
2026-01-02 21:00:03.92	56.37	9.58	-50.3	-54.3	10.8	2.01e-03	0	54	0	348127232	62	6032
2026-01-02 21:00:04.91	56.54	9.58	-50.4	-54.7	10.4	3.74e-03	0	55	0	350224384	62	6327
2026-01-02 21:00:05.90	56.72	9.59	-50.3	-54.4	10.8	3.43e-03	0	54	0	352321536	62	6068
2026-01-02 21:00:06.89	56.89	9.60	-50.1	-53.9	11.2	1.62e-03	0	54	0	353370112	62	5766
2026-01-02 21:00:07.88	57.07	9.61	-50.0	-53.7	11.5	1.16e-03	0	54	0	355467264	62	5629
2026-01-02 21:00:08.87	57.24	9.61	-50.0	-53.6	11.7	6.19e-04	0	54	0	357564416	62	5549
2026-01-02 21:00:09.85	57.41	9.62	-49.9	-53.5	11.7	5.53e-04	0	54	0	359661568	62	5515
2026-01-02 21:00:10.84	57.59	9.63	-49.9	-53.4	11.8	6.18e-04	0	55	0	361758720	62	5424
2026-01-02 21:00:11.84	57.76	9.64	-49.9	-53.5	11.7	4.65e-04	0	55	0	362807296	62	5474
2026-01-02 21:00:12.82	57.93	9.64	-49.8	-53.3	12.0	3.92e-04	0	54	0	364904448	62	5345
2026-01-02 21:00:13.82	58.11	9.65	-49.6	-52.9	12.4	2.44e-04	0	55	0	367001600	62	5127
2026-01-02 21:00:14.81	58.29	9.65	-49.5	-52.7	12.5	1.02e-04	0	54	0	369098752	62	4991
2026-01-02 21:00:15.80	58.46	9.66	-49.5	-52.7	12.5	1.20e-04	0	55	0	370147328	61	5289
2026-01-02 21:00:16.78	58.63	9.67	-49.6	-52.9	12.3	1.56e-04	0	54	0	372244480	61	5457
2026-01-02 21:00:17.77	58.81	9.67	-49.6	-52.8	12.5	1.91e-04	0	55	0	374341632	61	5377
2026-01-02 21:00:18.76	58.98	9.68	-49.5	-52.9	12.4	1.32e-04	0	55	0	376438784	61	5424
2026-01-02 21:00:19.76	59.16	9.68	-49.5	-52.8	12.4	1.31e-04	0	54	0	377487360	61	5347
2026-01-02 21:00:20.74	59.33	9.69	-49.6	-52.8	12.4	1.33e-04	0	55	0	379584512	61	5372
2026-01-02 21:00:21.73	59.51	9.69	-49.6	-52.8	12.5	1.27e-04	0	55	0	381681664	61	5344
2026-01-02 21:00:22.72	59.68	9.69	-49.5	-52.8	12.3	1.25e-04	0	54	0	383778816	61	5365
2026-01-02 21:00:23.71	59.86	9.70	-49.6	-52.9	12.3	2.02e-04	0	55	0	385875968	61	5428
2026-01-02 21:00:24.70	60.03	9.70	-49.5	-52.7	12.7	1.45e-04	0	54	0	386924544	61	5295
2026-01-02 21:00:25.69	60.21	9.71	-49.4	-52.6	12.6	7.62e-05	0	55	0	389021696	61	5274
2026-01-02 21:00:26.68	60.38	9.71	-49.6	-52.9	12.4	1.49e-04	0	55	0	391118848	61	5405
2026-01-02 21:00:27.67	60.56	9.71	-49.5	-52.7	12.5	1.31e-04	0	55	0	393216000	61	5291
2026-01-02 21:00:28.65	60.73	9.71	-49.4	-52.5	12.7	8.31e-05	0	55	0	394264576	61	5178
2026-01-02 21:00:29.62	60.90	9.72	-49.1	-52.0	13.3	3.43e-05	0	55	0	396361728	61	4888
2026-01-02 21:00:30.60	61.08	9.72	-49.1	-52.0	13.2	2.67e-05	0	55	0	398458880	61	4926
2026-01-02 21:00:31.59	61.25	9.72	-49.0	-51.8	13.4	1.44e-05	0	55	0	400556032	61	4779
2026-01-02 21:00:32.57	61.43	9.72	-49.0	-51.8	13.4	1.90e-05	0	55	0	401604608	61	4794
2026-01-02 21:00:33.56	61.60	9.72	-49.0	-51.8	13.5	1.37e-05	0	55	0	403701760	61	4771
2026-01-02 21:00:34.55	61.78	9.73	-49.0	-51.8	13.5	1.44e-05	0	55	0	405798912	61	4792
2026-01-02 21:00:35.54	61.95	9.73	-49.1	-51.8	13.4	1.22e-05	0	55	0	407896064	61	4795
2026-01-02 21:00:36.52	62.12	9.73	-49.0	-51.7	13.5	7.60e-06	0	55	0	408944640	61	4734
2026-01-02 21:00:37.52	62.30	9.73	-49.0	-51.7	13.6	9.90e-06	0	55	0	411041792	61	4724
2026-01-02 21:00:38.50	62.48	9.73	-49.1	-51.9	13.5	6.80e-06	0	55	0	413138944	60	5112
2026-01-02 21:00:39.49	62.65	9.73	-49.0	-51.9	13.4	1.37e-05	0	55	0	415236096	60	5113
2026-01-02 21:00:40.48	62.83	9.73	-49.1	-51.9	13.4	1.52e-05	0	55	0	417333248	60	5107
2026-01-02 21:00:41.46	63.00	9.73	-49.0	-51.8	13.5	1.06e-05	0	55	0	418381824	60	5079
2026-01-02 21:00:42.46	63.18	9.73	-48.9	-51.7	13.6	9.10e-06	0	55	0	420478976	60	5034
2026-01-02 21:00:43.45	63.35	9.73	-49.0	-51.8	13.5	9.10e-06	0	55	0	422576128	60	5087
2026-01-02 21:00:44.44	63.53	9.73	-49.0	-51.7	13.5	1.22e-05	0	55	0	424673280	60	5028
2026-01-02 21:00:45.42	63.70	9.73	-49.0	-51.8	13.5	8.30e-06	0	55	0	425721856	60	5046
2026-01-02 21:00:46.41	63.88	9.72	-49.1	-51.9	13.5	1.06e-05	0	55	0	427819008	60	5106
2026-01-02 21:00:47.40	64.05	9.72	-49.2	-52.1	13.1	1.44e-05	0	55	0	429916160	60	5253
2026-01-02 21:00:48.40	64.23	9.72	-49.2	-52.1	13.2	3.73e-05	0	55	0	432013312	60	5243
2026-01-02 21:00:49.39	64.41	9.72	-48.9	-51.7	13.6	1.67e-05	0	55	0	433061888	60	5011
2026-01-02 21:00:50.38	64.58	9.72	-48.8	-51.4	13.8	5.30e-06	0	55	0	435159040	60	4867
2026-01-02 21:00:51.36	64.75	9.71	-48.7	-51.3	14.0	5.30e-06	0	55	0	437256192	60	4789
2026-01-02 21:00:52.35	64.93	9.71	-48.7	-51.3	14.0	8.30e-06	0	55	0	439353344	60	4771
2026-01-02 21:00:53.34	65.10	9.71	-48.8	-51.5	13.8	3.80e-06	0	55	0	441450496	60	4907
2026-01-02 21:00:54.33	65.28	9.71	-49.0	-51.7	13.4	6.80e-06	0	55	0	442499072	60	5039
2026-01-02 21:00:55.32	65.46	9.70	-49.1	-51.9	13.3	1.44e-05	0	55	0	444596224	60	5115
2026-01-02 21:00:56.31	65.63	9.70	-48.9	-51.6	13.6	7.60e-06	0	55	0	446693376	60	4979
2026-01-02 21:00:57.30	65.81	9.69	-48.8	-51.5	13.9	3.80e-06	0	55	0	448790528	60	4885
2026-01-02 21:00:58.28	65.98	9.69	-48.7	-51.3	13.9	2.20e-06	0	55	0	449839104	60	4776
2026-01-02 21:00:59.28	66.16	9.69	-48.8	-51.3	14.0	6.80e-06	0	55	0	451936256	60	4789
2026-01-02 21:01:00.26	66.33	9.68	-48.7	-51.3	13.9	9.10e-06	0	55	0	454033408	60	4776
2026-01-02 21:01:01.26	66.51	9.68	-48.7	-51.2	14.1	2.20e-06	0	55	0	456130560	60	4715
2026-01-02 21:01:02.25	66.68	9.67	-48.7	-51.3	13.9	4.50e-06	0	55	0	457179136	60	4769
2026-01-02 21:01:03.24	66.86	9.67	-48.7	-51.3	13.9	3.80e-06	0	55	0	459276288	60	4808
2026-01-02 21:01:04.23	67.03	9.66	-48.6	-51.0	14.1	2.20e-06	0	55	0	461373440	60	4647
2026-01-02 21:01:05.21	67.20	9.65	-48.5	-50.9	14.4	7.00e-07	0	55	0	463470592	60	4556
2026-01-02 21:01:06.20	67.38	9.65	-48.5	-50.8	14.5	7.00e-07	0	55	0	465567744	59	4777
2026-01-02 21:01:07.19	67.55	9.64	-48.4	-50.8	14.5	7.00e-07	0	55	0	466616320	59	4768
2026-01-02 21:01:08.18	67.73	9.63	-48.5	-50.8	14.4	1.50e-06	0	55	0	468713472	59	4795
2026-01-02 21:01:09.17	67.90	9.63	-48.5	-50.9	14.4	3.00e-06	0	55	0	470810624	59	4863
2026-01-02 21:01:10.16	68.08	9.62	-48.5	-50.9	14.3	0.00e+00	0	55	0	472907776	59	4859
2026-01-02 21:01:11.16	68.25	9.61	-48.5	-51.0	14.2	7.00e-07	0	55	0	473956352	59	4874
2026-01-02 21:01:12.15	68.43	9.61	-48.5	-51.0	14.3	1.50e-06	0	55	0	476053504	59	4915
2026-01-02 21:01:13.14	68.60	9.60	-48.6	-51.1	14.3	7.00e-07	0	55	0	478150656	59	4927
2026-01-02 21:01:14.13	68.77	9.59	-48.6	-51.1	14.1	7.00e-07	0	55	0	480247808	59	4979
2026-01-02 21:01:15.12	68.95	9.58	-48.7	-51.3	14.1	0.00e+00	0	55	0	482344960	59	5047
2026-01-02 21:01:16.11	69.12	9.57	-48.7	-51.2	14.1	2.20e-06	0	55	0	483393536	59	5016
2026-01-02 21:01:17.10	69.29	9.57	-48.7	-51.2	14.0	2.20e-06	0	55	0	485490688	59	5017
2026-01-02 21:01:18.09	69.47	9.56	-48.7	-51.3	13.9	1.50e-06	0	55	0	487587840	59	5096
2026-01-02 21:01:19.08	69.64	9.55	-49.0	-51.7	13.6	3.00e-06	0	55	0	489684992	59	5340
2026-01-02 21:01:20.07	69.82	9.54	-48.9	-51.6	13.8	7.60e-06	0	55	0	490733568	59	5261
2026-01-02 21:01:21.05	69.99	9.53	-49.1	-51.9	13.5	9.10e-06	0	55	0	492830720	59	5452
2026-01-02 21:01:22.04	70.16	9.52	-48.9	-51.6	13.5	1.29e-05	0	55	0	494927872	60	4944
2026-01-02 21:01:23.04	70.33	9.51	-49.2	-52.1	13.2	1.29e-05	0	55	0	497025024	60	5222
2026-01-02 21:01:24.03	70.51	9.50	-49.0	-51.8	13.4	6.10e-06	0	55	0	498073600	60	5094
2026-01-02 21:01:25.02	70.68	9.49	-48.9	-51.7	13.5	1.06e-05	0	55	0	500170752	60	5028
2026-01-02 21:01:26.01	70.85	9.48	-49.0	-51.9	13.5	7.60e-06	0	55	0	502267904	60	5101
2026-01-02 21:01:27.00	71.03	9.47	-49.1	-52.1	13.2	1.75e-05	0	55	0	504365056	60	5225
2026-01-02 21:01:27.99	71.20	9.46	-49.2	-52.3	13.0	3.66e-05	0	55	0	505413632	60	5356
2026-01-02 21:01:28.98	71.37	9.45	-49.1	-52.1	13.1	2.59e-05	0	55	0	507510784	60	5246
2026-01-02 21:01:29.96	71.54	9.43	-49.0	-52.0	13.3	2.36e-05	0	55	0	509607936	60	5165
2026-01-02 21:01:30.95	71.71	9.42	-49.1	-52.1	13.1	2.67e-05	0	55	0	511705088	60	5264
2026-01-02 21:01:31.94	71.89	9.41	-49.2	-52.2	13.0	3.28e-05	0	55	0	513802240	60	5337
2026-01-02 21:01:32.93	72.06	9.40	-49.3	-52.1	13.1	3.81e-05	0	55	0	514850816	60	5270
2026-01-02 21:01:33.92	72.23	9.39	-49.3	-52.4	12.8	3.05e-05	0	55	0	516947968	60	5444
2026-01-02 21:01:34.92	72.40	9.37	-49.2	-52.0	13.2	3.96e-05	0	55	0	519045120	60	5190
2026-01-02 21:01:35.90	72.57	9.36	-49.0	-51.8	13.4	1.14e-05	0	55	0	521142272	60	5092
2026-01-02 21:01:36.90	72.74	9.35	-48.8	-51.4	13.8	3.00e-06	0	55	0	522190848	60	4858
2026-01-02 21:01:37.88	72.91	9.34	-48.7	-51.2	14.0	3.00e-06	0	55	0	524288000	60	4751
2026-01-02 21:01:38.87	73.08	9.32	-48.7	-51.2	14.1	7.00e-07	0	55	0	526385152	60	4708
2026-01-02 21:01:39.85	73.25	9.31	-48.6	-51.0	14.2	7.00e-07	0	55	0	528482304	60	4627
2026-01-02 21:01:40.84	73.42	9.29	-48.5	-50.9	14.4	7.00e-07	0	55	0	529530880	60	4572
2026-01-02 21:01:41.83	73.60	9.28	-48.5	-50.8	14.4	0.00e+00	0	55	0	531628032	60	4522
2026-01-02 21:01:42.82	73.77	9.27	-48.6	-51.1	14.2	0.00e+00	0	55	0	533725184	60	4694
2026-01-02 21:01:43.82	73.94	9.25	-48.6	-51.2	14.0	1.50e-06	0	56	0	535822336	60	4745
2026-01-02 21:01:44.81	74.11	9.24	-48.8	-51.3	13.9	4.50e-06	0	55	0	537919488	60	4796
2026-01-02 21:01:45.80	74.28	9.22	-48.8	-51.4	13.8	3.80e-06	0	55	0	538968064	60	4856
2026-01-02 21:01:46.79	74.45	9.21	-48.9	-51.6	13.6	7.60e-06	0	55	0	541065216	60	4978
2026-01-02 21:01:47.78	74.62	9.19	-48.9	-51.6	13.7	6.10e-06	0	55	0	543162368	60	4930
2026-01-02 21:01:48.78	74.79	9.18	-49.0	-51.7	13.6	4.50e-06	0	55	0	545259520	60	5003
2026-01-02 21:01:49.76	74.96	9.16	-49.0	-51.7	13.6	9.90e-06	0	55	0	546308096	60	4987
2026-01-02 21:01:50.75	75.12	9.14	-49.0	-51.7	13.5	9.10e-06	0	55	0	548405248	60	5040
2026-01-02 21:01:51.73	75.29	9.13	-49.1	-51.9	13.4	1.06e-05	0	55	0	550502400	60	5130
2026-01-02 21:01:52.72	75.46	9.11	-49.1	-51.9	13.4	1.22e-05	0	55	0	552599552	60	5125
2026-01-02 21:01:53.70	75.63	9.10	-49.0	-51.8	13.5	9.90e-06	0	55	0	553648128	60	5072
2026-01-02 21:01:54.69	75.80	9.08	-48.9	-51.7	13.6	7.60e-06	0	55	0	555745280	60	4985
2026-01-02 21:01:55.67	75.96	9.06	-48.9	-51.7	13.7	7.60e-06	0	55	0	557842432	60	4985
2026-01-02 21:01:56.67	76.13	9.05	-48.9	-51.7	13.6	5.30e-06	0	55	0	559939584	60	4994
2026-01-02 21:01:57.65	76.30	9.03	-49.1	-51.8	13.4	2.05e-05	0	55	0	562036736	60	5087
2026-01-02 21:01:58.64	76.46	9.01	-49.1	-51.8	13.4	1.52e-05	0	55	0	563085312	60	5093
2026-01-02 21:01:59.63	76.63	8.99	-48.9	-51.5	13.7	9.90e-06	0	55	0	565182464	60	4902
2026-01-02 21:02:00.62	76.80	8.97	-48.8	-51.5	13.8	3.80e-06	0	56	0	567279616	60	4896
2026-01-02 21:02:01.61	76.97	8.96	-48.8	-51.4	13.8	2.20e-06	0	55	0	569376768	60	4853
2026-01-02 21:02:02.60	77.13	8.94	-48.8	-51.4	13.8	3.00e-06	0	56	0	570425344	60	4863
2026-01-02 21:02:03.58	77.30	8.92	-48.9	-51.6	13.7	3.80e-06	0	56	0	572522496	60	4943
2026-01-02 21:02:04.58	77.47	8.90	-48.8	-51.4	13.8	6.80e-06	0	55	0	574619648	60	4845
2026-01-02 21:02:05.56	77.63	8.88	-48.6	-51.2	14.1	7.00e-07	0	56	0	576716800	60	4708
2026-01-02 21:02:06.54	77.79	8.86	-48.4	-50.9	14.3	0.00e+00	0	55	0	577765376	60	4582
2026-01-02 21:02:07.54	77.96	8.84	-48.4	-50.8	14.4	0.00e+00	0	56	0	579862528	60	4544
2026-01-02 21:02:08.53	78.13	8.82	-48.6	-51.0	14.3	7.00e-07	0	56	0	581959680	59	4876
2026-01-02 21:02:09.51	78.29	8.81	-48.7	-51.1	14.2	7.00e-07	0	55	0	584056832	59	4959
2026-01-02 21:02:10.51	78.46	8.79	-48.7	-51.1	14.1	1.50e-06	0	55	0	585105408	59	4979
2026-01-02 21:02:11.49	78.62	8.77	-48.7	-51.1	14.2	0.00e+00	0	55	0	587202560	59	4952
2026-01-02 21:02:12.49	78.79	8.74	-48.6	-51.1	14.2	1.50e-06	0	56	0	589299712	59	4939
2026-01-02 21:02:13.48	78.95	8.72	-48.8	-51.3	14.0	5.30e-06	0	56	0	591396864	59	5048
2026-01-02 21:02:14.47	79.12	8.70	-48.7	-51.2	14.0	2.20e-06	0	55	0	593494016	59	5003
2026-01-02 21:02:15.45	79.28	8.68	-48.7	-51.1	14.2	1.50e-06	0	56	0	594542592	59	4951
2026-01-02 21:02:16.44	79.44	8.66	-48.5	-51.0	14.3	7.00e-07	0	56	0	596639744	59	4906
2026-01-02 21:02:17.44	79.61	8.64	-48.7	-51.2	14.0	0.00e+00	0	55	0	598736896	59	4995
2026-01-02 21:02:18.42	79.77	8.62	-48.8	-51.3	13.9	3.80e-06	0	56	0	600834048	59	5097
2026-01-02 21:02:19.41	79.93	8.60	-48.7	-51.3	14.0	2.20e-06	0	56	0	601882624	59	5056
2026-01-02 21:02:20.39	80.09	8.58	-48.7	-51.2	14.0	3.00e-06	0	56	0	603979776	59	5035
2026-01-02 21:02:21.39	80.26	8.55	-48.8	-51.3	13.9	7.00e-07	0	56	0	606076928	59	5098
2026-01-02 21:02:22.37	80.42	8.53	-48.8	-51.5	13.8	3.80e-06	0	56	0	608174080	59	5164
2026-01-02 21:02:23.36	80.58	8.51	-48.7	-51.2	14.0	1.50e-06	0	56	0	609222656	59	5023
2026-01-02 21:02:24.35	80.74	8.49	-48.9	-51.4	13.8	2.20e-06	0	56	0	611319808	59	5146
2026-01-02 21:02:25.34	80.90	8.47	-48.8	-51.4	13.9	3.00e-06	0	56	0	613416960	59	5129
2026-01-02 21:02:26.33	81.07	8.44	-48.6	-51.1	14.2	3.00e-06	0	56	0	615514112	59	4929
2026-01-02 21:02:27.32	81.23	8.42	-48.5	-50.8	14.4	0.00e+00	0	56	0	617611264	59	4814
2026-01-02 21:02:28.29	81.38	8.40	-48.3	-50.6	14.6	0.00e+00	0	56	0	618659840	59	4690
2026-01-02 21:02:29.28	81.55	8.37	-48.4	-50.7	14.6	0.00e+00	0	56	0	620756992	59	4738
2026-01-02 21:02:30.26	81.70	8.35	-48.5	-51.0	14.3	2.20e-06	0	56	0	622854144	59	4884
2026-01-02 21:02:31.24	81.86	8.33	-48.8	-51.3	13.9	2.20e-06	0	56	0	624951296	59	5067
2026-01-02 21:02:32.23	82.02	8.30	-48.8	-51.3	13.9	1.50e-06	0	56	0	625999872	59	5086
2026-01-02 21:02:33.22	82.18	8.28	-48.9	-51.6	13.6	4.50e-06	0	56	0	628097024	59	5266
2026-01-02 21:02:34.21	82.34	8.26	-48.9	-51.6	13.7	9.10e-06	0	56	0	630194176	59	5233
2026-01-02 21:02:35.20	82.50	8.23	-49.0	-51.8	13.4	1.52e-05	0	56	0	632291328	59	5397
2026-01-02 21:02:36.19	82.66	8.21	-49.0	-51.8	13.5	1.29e-05	0	56	0	633339904	59	5361
2026-01-02 21:02:37.18	82.82	8.18	-49.1	-51.9	13.3	1.06e-05	0	56	0	635437056	60	5149
2026-01-02 21:02:38.17	82.98	8.16	-49.1	-52.0	13.2	1.52e-05	0	56	0	637534208	60	5163
2026-01-02 21:02:39.16	83.14	8.13	-49.0	-51.8	13.4	1.44e-05	0	56	0	639631360	60	5084
2026-01-02 21:02:40.14	83.29	8.11	-48.9	-51.6	13.6	4.50e-06	0	56	0	641728512	60	4928
2026-01-02 21:02:41.13	83.45	8.08	-48.8	-51.5	13.7	6.80e-06	0	56	0	642777088	60	4879
2026-01-02 21:02:42.11	83.61	8.06	-48.8	-51.5	13.7	6.10e-06	0	56	0	644874240	60	4874
2026-01-02 21:02:43.10	83.76	8.03	-48.9	-51.6	13.6	4.50e-06	0	56	0	646971392	60	4953
2026-01-02 21:02:44.09	83.92	8.01	-49.1	-51.9	13.3	1.75e-05	0	56	0	649068544	60	5110
2026-01-02 21:02:45.08	84.08	7.98	-48.9	-51.7	13.5	6.10e-06	0	56	0	650117120	60	5012
2026-01-02 21:02:46.07	84.23	7.95	-49.1	-52.0	13.2	1.37e-05	0	56	0	652214272	60	5171
2026-01-02 21:02:47.06	84.39	7.93	-49.0	-51.8	13.4	1.44e-05	0	56	0	654311424	60	5062
2026-01-02 21:02:48.05	84.54	7.90	-49.0	-51.9	13.3	1.06e-05	0	56	0	656408576	60	5117
2026-01-02 21:02:49.03	84.70	7.88	-49.1	-52.0	13.1	1.52e-05	0	56	0	657457152	60	5212
2026-01-02 21:02:50.02	84.85	7.85	-49.3	-52.4	12.7	4.88e-05	0	56	0	659554304	60	5444
2026-01-02 21:02:51.01	85.01	7.82	-49.2	-52.3	12.9	5.72e-05	0	56	0	661651456	60	5365
2026-01-02 21:02:52.00	85.16	7.80	-49.2	-52.2	12.9	4.88e-05	0	56	0	663748608	60	5310
2026-01-02 21:02:52.99	85.32	7.77	-49.2	-52.2	12.9	3.50e-05	0	56	0	664797184	60	5309
2026-01-02 21:02:53.98	85.47	7.74	-49.2	-52.4	12.7	6.56e-05	0	56	0	666894336	60	5450
2026-01-02 21:02:54.98	85.63	7.71	-49.4	-52.7	12.5	9.07e-05	0	56	0	668991488	60	5601
2026-01-02 21:02:55.96	85.78	7.69	-49.7	-53.1	12.0	2.10e-04	0	56	0	671088640	61	5553
2026-01-02 21:02:56.95	85.93	7.66	-49.7	-53.2	11.9	3.87e-04	0	56	0	673185792	61	5656
2026-01-02 21:02:57.94	86.09	7.63	-49.9	-53.6	11.5	6.71e-04	0	56	0	674234368	61	5908
2026-01-02 21:02:58.93	86.24	7.60	-49.9	-53.7	11.3	1.10e-03	0	56	0	676331520	61	5964
2026-01-02 21:02:59.93	86.39	7.57	-50.0	-53.9	11.2	1.21e-03	0	56	0	678428672	61	6079
2026-01-02 21:03:00.92	86.55	7.55	-50.0	-53.8	11.2	1.50e-03	0	56	0	680525824	61	6055
2026-01-02 21:03:01.91	86.70	7.52	-50.0	-53.8	11.3	1.16e-03	0	56	0	681574400	61	6002
2026-01-02 21:03:02.89	86.85	7.49	-49.9	-53.6	11.4	1.11e-03	0	56	0	683671552	61	5921
2026-01-02 21:03:03.88	87.00	7.46	-49.9	-53.6	11.5	9.16e-04	0	56	0	685768704	61	5896
2026-01-02 21:03:04.88	87.15	7.43	-49.8	-53.5	11.6	6.87e-04	0	56	0	687865856	61	5818
2026-01-02 21:03:05.87	87.30	7.40	-49.9	-53.6	11.5	8.21e-04	0	56	0	688914432	61	5884
2026-01-02 21:03:06.87	87.45	7.37	-50.0	-53.9	11.2	1.19e-03	0	56	0	691011584	61	6093
2026-01-02 21:03:07.86	87.60	7.34	-50.0	-53.8	11.3	1.53e-03	0	56	0	693108736	62	5668
2026-01-02 21:03:08.85	87.75	7.31	-49.9	-53.6	11.5	9.20e-04	0	56	0	695205888	62	5552
2026-01-02 21:03:09.84	87.90	7.28	-49.8	-53.5	11.5	7.89e-04	0	56	0	697303040	62	5524
2026-01-02 21:03:10.83	88.05	7.26	-49.9	-53.6	11.5	7.91e-04	0	56	0	698351616	62	5540
2026-01-02 21:03:11.82	88.20	7.23	-49.9	-53.6	11.5	8.01e-04	0	56	0	700448768	62	5556
2026-01-02 21:03:12.82	88.35	7.20	-49.9	-53.7	11.4	8.82e-04	0	56	0	702545920	62	5608
2026-01-02 21:03:13.80	88.50	7.17	-49.9	-53.7	11.4	1.09e-03	0	56	0	704643072	62	5597
2026-01-02 21:03:14.79	88.65	7.14	-49.8	-53.5	11.6	7.96e-04	0	56	0	705691648	62	5469
2026-01-02 21:03:15.78	88.80	7.11	-49.8	-53.5	11.6	7.04e-04	0	56	0	707788800	62	5488
2026-01-02 21:03:16.76	88.94	7.08	-50.0	-53.7	11.4	8.96e-04	0	56	0	709885952	62	5595
2026-01-02 21:03:17.75	89.09	7.04	-50.1	-53.9	11.1	1.31e-03	0	56	0	711983104	62	5762
2026-01-02 21:03:18.74	89.24	7.01	-50.2	-54.2	10.8	1.68e-03	0	56	0	714080256	62	5939
2026-01-02 21:03:19.74	89.38	6.98	-50.2	-54.4	10.6	3.27e-03	0	56	0	715128832	62	6085
2026-01-02 21:03:20.73	89.53	6.95	-50.4	-54.9	10.1	5.47e-03	0	56	0	717225984	62	6445
2026-01-02 21:03:21.73	89.68	6.92	-50.5	-55.1	9.9	8.68e-03	0	56	0	719323136	62	6594
2026-01-02 21:03:22.71	89.82	6.89	-50.6	-55.3	9.7	8.99e-03	0	56	0	721420288	63	6394
2026-01-02 21:03:23.71	89.97	6.86	-50.6	-55.3	9.7	1.27e-02	0	56	0	722468864	63	6350
2026-01-02 21:03:24.70	90.11	6.83	-50.5	-55.2	9.8	1.13e-02	0	56	0	724566016	63	6284
2026-01-02 21:03:25.69	90.26	6.80	-50.5	-55.2	9.7	1.07e-02	0	56	0	726663168	63	6346
2026-01-02 21:03:26.68	90.40	6.76	-50.6	-55.4	9.6	1.29e-02	0	56	0	728760320	63	6445
2026-01-02 21:03:27.67	90.55	6.73	-50.5	-55.2	9.7	1.25e-02	0	56	0	730857472	63	6328
2026-01-02 21:03:28.67	90.69	6.70	-50.4	-55.1	9.8	1.03e-02	0	56	0	731906048	63	6221
2026-01-02 21:03:29.65	90.84	6.67	-50.3	-55.0	9.9	9.22e-03	0	56	0	734003200	63	6180
2026-01-02 21:03:30.63	90.98	6.64	-50.4	-55.0	9.9	8.77e-03	0	56	0	736100352	63	6155
2026-01-02 21:03:31.63	91.12	6.61	-50.4	-54.9	10.0	7.47e-03	0	56	0	738197504	63	6072
2026-01-02 21:03:32.62	91.27	6.57	-50.4	-54.8	10.1	6.88e-03	0	56	0	739246080	63	6045
2026-01-02 21:03:33.61	91.41	6.54	-50.4	-54.9	10.1	6.94e-03	0	56	0	741343232	63	6098
2026-01-02 21:03:34.60	91.55	6.51	-50.3	-54.7	10.2	6.35e-03	0	56	0	743440384	63	5964
2026-01-02 21:03:35.59	91.69	6.48	-50.2	-54.6	10.4	5.33e-03	0	56	0	745537536	63	5878
2026-01-02 21:03:36.57	91.83	6.44	-50.2	-54.4	10.5	4.26e-03	0	56	0	746586112	63	5762
2026-01-02 21:03:37.56	91.97	6.41	-50.2	-54.4	10.5	4.14e-03	0	56	0	748683264	63	5765
2026-01-02 21:03:38.55	92.11	6.38	-50.2	-54.5	10.5	3.84e-03	0	56	0	750780416	63	5801
2026-01-02 21:03:39.54	92.25	6.34	-50.3	-54.7	10.2	4.84e-03	0	56	0	752877568	63	5971
2026-01-02 21:03:40.53	92.40	6.31	-50.3	-54.7	10.2	6.94e-03	0	56	0	754974720	63	5975
2026-01-02 21:03:41.51	92.53	6.28	-50.3	-54.8	10.2	6.10e-03	0	56	0	756023296	63	6031
2026-01-02 21:03:42.50	92.67	6.25	-50.3	-54.9	10.0	7.80e-03	0	56	0	758120448	63	6116
2026-01-02 21:03:43.49	92.81	6.21	-50.3	-54.6	10.3	6.22e-03	0	56	0	760217600	63	5921
2026-01-02 21:03:44.48	92.95	6.18	-50.2	-54.7	10.2	5.36e-03	0	56	0	762314752	63	5933
2026-01-02 21:03:45.47	93.09	6.15	-50.3	-54.7	10.2	6.16e-03	0	56	0	763363328	63	5984
2026-01-02 21:03:46.46	93.23	6.11	-50.3	-54.7	10.2	5.80e-03	0	56	0	765460480	63	5955
2026-01-02 21:03:47.44	93.37	6.08	-50.4	-55.0	9.9	6.99e-03	0	56	0	767557632	63	6139
2026-01-02 21:03:48.44	93.51	6.04	-50.2	-54.8	10.1	9.43e-03	0	56	0	769654784	63	6021
2026-01-02 21:03:49.43	93.64	6.01	-50.1	-54.3	10.6	3.72e-03	0	56	0	770703360	63	5677
2026-01-02 21:03:50.43	93.78	5.98	-50.0	-54.0	10.9	2.51e-03	0	56	0	772800512	63	5522
2026-01-02 21:03:51.41	93.92	5.94	-50.0	-54.0	11.0	1.91e-03	0	56	0	774897664	63	5477
2026-01-02 21:03:52.39	94.05	5.91	-50.1	-54.2	10.7	2.23e-03	0	56	0	776994816	63	5618
2026-01-02 21:03:53.38	94.19	5.87	-50.3	-54.5	10.4	4.21e-03	0	56	0	778043392	63	5844
2026-01-02 21:03:54.37	94.33	5.84	-50.2	-54.5	10.4	4.22e-03	0	56	0	780140544	63	5846
2026-01-02 21:03:55.36	94.46	5.80	-50.4	-54.8	10.1	6.54e-03	0	56	0	782237696	63	6044
2026-01-02 21:03:56.35	94.60	5.77	-50.4	-55.0	9.9	7.42e-03	0	56	0	784334848	63	6167
2026-01-02 21:03:57.35	94.73	5.74	-50.5	-55.2	9.7	1.12e-02	0	56	0	786432000	63	6302
2026-01-02 21:03:58.34	94.87	5.70	-50.4	-55.0	9.8	1.09e-02	0	56	0	787480576	63	6192
2026-01-02 21:03:59.34	95.00	5.67	-50.4	-54.9	9.9	9.48e-03	0	57	0	789577728	63	6128
2026-01-02 21:04:00.32	95.14	5.63	-50.3	-54.7	10.1	7.03e-03	0	56	0	791674880	63	5986
2026-01-02 21:04:01.31	95.27	5.60	-50.4	-54.9	10.0	7.34e-03	0	56	0	793772032	63	6096
2026-01-02 21:04:02.31	95.41	5.56	-50.4	-54.8	9.9	7.83e-03	0	56	0	794820608	63	6060
2026-01-02 21:04:03.30	95.54	5.53	-50.4	-55.0	9.9	9.93e-03	0	56	0	796917760	63	6139
2026-01-02 21:04:04.29	95.67	5.49	-50.2	-54.3	10.5	4.80e-03	0	57	0	799014912	63	5694
2026-01-02 21:04:05.27	95.80	5.46	-50.0	-53.9	10.9	2.32e-03	0	56	0	801112064	63	5451
2026-01-02 21:04:06.26	95.94	5.42	-49.8	-53.7	11.2	1.80e-03	0	56	0	802160640	62	5623
2026-01-02 21:04:07.25	96.07	5.38	-49.8	-53.5	11.4	1.15e-03	0	56	0	804257792	62	5499
2026-01-02 21:04:08.24	96.20	5.35	-49.8	-53.6	11.3	1.08e-03	0	57	0	806354944	62	5579
2026-01-02 21:04:09.22	96.33	5.31	-49.8	-53.7	11.2	1.31e-03	0	56	0	808452096	62	5633
2026-01-02 21:04:10.21	96.46	5.28	-49.8	-53.6	11.3	1.16e-03	0	56	0	810549248	62	5529
2026-01-02 21:04:11.20	96.59	5.24	-49.8	-53.5	11.3	1.16e-03	0	56	0	811597824	62	5521
2026-01-02 21:04:12.19	96.72	5.21	-49.8	-53.6	11.2	1.22e-03	0	56	0	813694976	62	5579
2026-01-02 21:04:13.18	96.85	5.17	-49.9	-53.7	11.1	1.47e-03	0	56	0	815792128	62	5623
2026-01-02 21:04:14.18	96.98	5.13	-49.7	-53.6	11.3	1.43e-03	0	56	0	817889280	62	5537
2026-01-02 21:04:15.17	97.11	5.10	-49.7	-53.4	11.4	1.01e-03	0	57	0	818937856	62	5427
2026-01-02 21:04:16.15	97.24	5.06	-49.6	-53.5	11.3	1.08e-03	0	56	0	821035008	62	5468
2026-01-02 21:04:17.14	97.37	5.03	-51.7	-62.8	4.3	1.86e-03	56	56	0	823132160	65	13415
2026-01-02 21:04:18.12	97.50	4.99	-52.2	-66.1	3.8	1.49e+00	0	56	104	823132160	66	18597
2026-01-02 21:04:19.12	97.63	4.95	-52.2	-66.3	3.8	1.49e+00	0	56	104	823132160	66	19132
2026-01-02 21:04:20.11	97.76	4.92	-52.3	-66.4	3.8	1.49e+00	0	57	104	823132160	66	19358
2026-01-02 21:04:21.10	97.88	4.88	-52.6	-66.5	3.8	1.49e+00	0	57	104	823132160	67	18497
2026-01-02 21:04:22.08	98.01	4.84	-52.7	-66.6	3.8	1.49e+00	0	57	104	823132160	67	18637
2026-01-02 21:04:23.07	98.14	4.81	-52.8	-66.7	3.8	1.49e+00	0	57	104	823132160	67	18819
2026-01-02 21:04:24.06	98.26	4.77	-52.8	-66.7	3.8	1.49e+00	0	56	104	823132160	67	18872
2026-01-02 21:04:25.04	98.39	4.73	-52.4	-66.4	3.8	1.49e+00	0	57	104	823132160	67	18172
2026-01-02 21:04:26.03	98.51	4.70	-52.8	-66.7	3.8	1.49e+00	0	57	104	823132160	67	18912
2026-01-02 21:04:27.02	98.64	4.66	-52.9	-66.8	3.8	1.49e+00	0	57	104	823132160	67	18966
2026-01-02 21:04:28.01	98.77	4.62	-52.9	-66.8	3.8	1.49e+00	0	57	104	823132160	67	18973
2026-01-02 21:04:29.00	98.89	4.59	-52.9	-66.8	3.8	1.49e+00	0	56	104	823132160	67	19104
2026-01-02 21:04:29.98	99.02	4.55	-53.0	-66.8	3.8	1.49e+00	0	57	104	823132160	67	19133
2026-01-02 21:04:30.97	99.14	4.51	-52.9	-66.8	3.8	1.49e+00	0	57	104	823132160	67	19163
2026-01-02 21:04:31.95	99.26	4.48	-53.0	-66.9	3.8	1.49e+00	0	56	104	823132160	67	19262
2026-01-02 21:04:32.94	99.39	4.44	-52.7	-66.9	3.8	1.49e+00	0	56	104	823132160	67	19265
2026-01-02 21:04:33.93	99.51	4.40	-52.9	-66.9	3.8	1.49e+00	0	57	104	823132160	67	19287
2026-01-02 21:04:34.92	99.64	4.36	-52.8	-66.9	3.8	1.49e+00	0	57	104	823132160	67	19313
2026-01-02 21:04:35.90	99.76	4.33	-52.8	-66.9	3.8	1.49e+00	0	57	104	823132160	67	19303
2026-01-02 21:04:36.89	99.88	4.29	-52.9	-66.9	3.8	1.49e+00	0	56	104	823132160	67	19277
2026-01-02 21:04:37.87	100.00	4.25	-52.9	-67.0	3.8	1.49e+00	0	57	104	823132160	67	19400
2026-01-02 21:04:38.86	100.12	4.22	-53.1	-67.1	3.8	1.49e+00	0	56	104	823132160	68	18561
2026-01-02 21:04:39.85	100.25	4.18	-53.0	-67.1	3.8	1.49e+00	0	57	104	823132160	68	18559
2026-01-02 21:04:40.84	100.37	4.14	-53.2	-67.1	3.8	1.49e+00	0	57	104	823132160	68	18589
2026-01-02 21:04:41.83	100.49	4.10	-53.2	-67.1	3.8	1.49e+00	0	57	104	823132160	68	18592
2026-01-02 21:04:42.81	100.61	4.07	-53.1	-67.1	3.8	1.49e+00	0	57	104	823132160	68	18596
2026-01-02 21:04:43.80	100.73	4.03	-53.2	-67.1	3.8	1.49e+00	0	57	104	823132160	68	18613
2026-01-02 21:04:44.79	100.85	3.99	-53.2	-67.1	3.8	1.49e+00	0	57	104	823132160	68	18599
2026-01-02 21:04:45.78	100.97	3.95	-53.2	-67.1	3.8	1.49e+00	0	57	104	823132160	68	18522
2026-01-02 21:04:46.77	101.09	3.91	-53.0	-67.1	3.8	1.49e+00	0	57	104	823132160	68	18570
2026-01-02 21:04:47.76	101.21	3.88	-53.1	-67.0	3.8	1.49e+00	0	57	104	823132160	68	18517
2026-01-02 21:04:48.74	101.33	3.84	-53.1	-67.1	3.8	1.49e+00	0	57	104	823132160	68	18549
2026-01-02 21:04:49.73	101.45	3.80	-53.1	-67.1	3.8	1.49e+00	0	57	104	823132160	68	18561
2026-01-02 21:04:50.73	101.57	3.76	-53.1	-67.1	3.8	1.49e+00	0	57	104	823132160	68	18556
2026-01-02 21:04:51.72	101.69	3.72	-53.1	-67.1	3.8	1.49e+00	0	57	104	823132160	68	18541
2026-01-02 21:04:52.71	101.80	3.69	-53.1	-67.1	3.8	1.49e+00	0	57	104	823132160	68	18570
2026-01-02 21:04:53.70	101.92	3.65	-53.0	-67.1	3.8	1.49e+00	0	57	104	823132160	68	18590
2026-01-02 21:04:54.69	102.04	3.61	-53.0	-67.1	3.8	1.49e+00	0	57	104	823132160	68	18566
2026-01-02 21:04:55.68	102.16	3.57	-52.9	-67.1	3.8	1.49e+00	0	57	104	823132160	68	18556
2026-01-02 21:04:56.67	102.27	3.53	-53.0	-67.1	3.8	1.49e+00	0	57	104	823132160	68	18536
2026-01-02 21:04:57.67	102.39	3.49	-53.1	-67.1	3.8	1.49e+00	0	57	104	823132160	68	18576
2026-01-02 21:04:58.66	102.51	3.45	-53.0	-67.1	3.8	1.49e+00	0	57	104	823132160	68	18537
2026-01-02 21:04:59.65	102.62	3.42	-53.1	-67.1	3.8	1.49e+00	0	57	104	823132160	68	18560
2026-01-02 21:05:00.63	102.74	3.38	-53.2	-67.1	3.8	1.49e+00	0	57	104	823132160	68	18591
2026-01-02 21:05:01.62	102.85	3.34	-53.2	-67.1	3.8	1.49e+00	0	57	104	823132160	68	18571
2026-01-02 21:05:02.60	102.97	3.30	-53.2	-67.0	3.8	1.49e+00	0	57	104	823132160	68	18514
2026-01-02 21:05:03.59	103.08	3.26	-53.2	-67.1	3.8	1.49e+00	0	57	104	823132160	68	18568
2026-01-02 21:05:04.58	103.20	3.22	-53.2	-67.1	3.8	1.49e+00	0	57	104	823132160	68	18584
2026-01-02 21:05:05.57	103.31	3.18	-53.2	-67.1	3.8	1.49e+00	0	57	104	823132160	68	18569
2026-01-02 21:05:06.56	103.43	3.15	-53.1	-67.1	3.8	1.49e+00	0	57	104	823132160	68	18528
2026-01-02 21:05:07.55	103.54	3.11	-53.1	-67.1	3.8	1.49e+00	0	57	104	823132160	68	18524
2026-01-02 21:05:08.54	103.65	3.07	-53.0	-67.0	3.8	1.49e+00	0	57	104	823132160	68	18502
2026-01-02 21:05:09.53	103.77	3.03	-53.1	-67.0	3.8	1.49e+00	0	57	104	823132160	68	18497
2026-01-02 21:05:10.52	103.88	2.99	-53.2	-67.1	3.8	1.49e+00	0	57	104	823132160	68	18527
2026-01-02 21:05:11.50	103.99	2.95	-53.0	-67.1	3.8	1.49e+00	0	57	104	823132160	68	18553
2026-01-02 21:05:12.48	104.10	2.91	-53.1	-67.0	3.8	1.49e+00	0	57	104	823132160	68	18507

#Closed at: 2026-01-02 21:05:13
#Recorded file [823 MB]: D:/Data/31026_260103_000417.dat