passes_logs/2026/01/02/R3.0SM8_Murmansk_STILSPACE/R3.0SM8_Murmansk_STILSPACE__20260102_103327_NOAA_20_JPSS-1_rec.log

#Pass ID: 20260102_103327_NOAA 20 (JPSS-1)
#Satellite: NOAA 20 (JPSS-1)
#Configuration: NOAA 20
#almurnet v.1.7.20240730
#Start time: 2026-01-02 10:33:28

#Version: 2.2.20231116
#Station: R3.0SM8_Murmansk_STILSPACE
#Location: 33.092731 lon 68.902999 lat
#TLE: 1 43013U 17073A   26001.30344297  .00000183  00000+0  10758-3 0  9995
#TLE: 2 43013  98.7621 302.3885 0001938  59.1624 300.9742 14.19532032420790

#Time	Az	El	Level	Level2	SNR	BER	BlckErr	Temp	State	Recorded	gain1	gain2
2026-01-02 10:33:28.21	177.51	3.05	-52.2	-66.2	3.8	1.49e+00	0	47	0	0	66	18873
2026-01-02 10:33:29.18	177.54	3.11	-52.0	-66.0	3.8	1.49e+00	0	48	104	0	67	17445
2026-01-02 10:33:30.17	177.58	3.18	-52.0	-66.0	3.8	1.49e+00	0	48	104	0	67	17295
2026-01-02 10:33:31.16	177.61	3.24	-51.9	-65.8	3.8	1.49e+00	0	48	104	0	66	18055
2026-01-02 10:33:32.15	177.65	3.31	-51.9	-65.7	3.8	1.49e+00	0	48	104	0	66	17817
2026-01-02 10:33:33.15	177.68	3.37	-51.7	-65.5	3.8	1.49e+00	0	48	104	0	66	17286
2026-01-02 10:33:34.14	177.71	3.44	-51.5	-65.3	3.8	1.49e+00	0	48	104	0	65	18068
2026-01-02 10:33:35.13	177.75	3.50	-51.5	-65.3	3.8	1.49e+00	0	48	104	0	65	18029
2026-01-02 10:33:36.12	177.78	3.57	-51.5	-65.3	3.8	1.49e+00	0	48	104	0	65	17953
2026-01-02 10:33:37.12	177.82	3.63	-51.4	-65.3	3.8	1.49e+00	0	48	104	0	65	17973
2026-01-02 10:33:38.11	177.85	3.70	-51.4	-65.3	3.8	1.49e+00	0	48	104	0	65	17966
2026-01-02 10:33:39.10	177.89	3.77	-51.5	-65.2	3.8	1.49e+00	0	49	104	0	65	17871
2026-01-02 10:33:40.09	177.92	3.83	-51.3	-65.2	3.8	1.49e+00	0	49	104	0	65	17810
2026-01-02 10:33:41.08	177.96	3.90	-51.3	-65.2	3.8	1.49e+00	0	49	104	0	65	17717
2026-01-02 10:33:42.07	177.99	3.96	-51.3	-65.1	3.8	1.49e+00	0	49	104	0	65	17676
2026-01-02 10:33:43.06	178.03	4.03	-51.4	-65.1	3.8	1.49e+00	0	49	104	0	65	17572
2026-01-02 10:33:44.05	178.06	4.10	-51.5	-65.0	3.8	1.49e+00	0	49	104	0	65	17309
2026-01-02 10:33:45.04	178.10	4.16	-51.4	-64.9	3.8	1.49e+00	0	49	104	0	65	17153
2026-01-02 10:33:46.04	178.14	4.23	-51.4	-64.8	3.8	1.49e+00	0	49	104	0	65	17069
2026-01-02 10:33:47.03	178.17	4.30	-51.5	-64.6	3.8	1.49e+00	0	49	104	0	65	16592
2026-01-02 10:33:48.03	178.21	4.37	-51.4	-64.2	3.8	1.49e+00	0	49	104	0	65	15916
2026-01-02 10:33:49.02	178.24	4.43	-51.4	-63.7	3.8	1.49e+00	0	49	104	0	65	15033
2026-01-02 10:33:50.01	178.28	4.50	-51.4	-63.1	3.8	1.49e+00	0	49	104	0	65	13892
2026-01-02 10:33:50.99	178.32	4.57	-51.3	-62.1	4.1	1.45e+00	0	49	0	0	65	12409
2026-01-02 10:33:51.98	178.35	4.63	-51.2	-61.0	4.5	1.34e+00	31	49	0	0	65	10911
2026-01-02 10:33:52.97	178.39	4.70	-51.0	-59.9	4.9	9.03e-01	0	49	0	2097152	65	9711
2026-01-02 10:33:53.95	178.43	4.77	-50.8	-58.9	5.6	6.24e-01	0	49	0	3145728	64	9089
2026-01-02 10:33:54.94	178.47	4.84	-50.7	-58.1	6.1	3.41e-01	0	49	0	5242880	64	8304
2026-01-02 10:33:55.92	178.50	4.91	-50.5	-57.0	7.1	2.00e-01	0	49	0	7340032	64	7320
2026-01-02 10:33:56.91	178.54	4.97	-50.4	-56.4	7.8	1.05e-01	0	49	0	9437184	63	7222
2026-01-02 10:33:57.90	178.58	5.04	-50.1	-55.6	8.6	6.02e-02	0	50	0	10485760	63	6608
2026-01-02 10:33:58.89	178.62	5.11	-50.1	-55.3	8.9	3.10e-02	0	50	0	12582912	63	6373
2026-01-02 10:33:59.87	178.65	5.18	-50.4	-56.0	8.1	3.77e-02	0	50	0	14680064	63	6955
2026-01-02 10:34:00.86	178.69	5.25	-50.3	-55.7	8.5	5.71e-02	0	50	0	16777216	63	6661
2026-01-02 10:34:01.85	178.73	5.32	-50.0	-54.8	9.3	3.13e-02	0	50	0	18874368	63	6057
2026-01-02 10:34:02.85	178.77	5.39	-49.7	-54.1	10.1	9.28e-03	0	50	0	19922944	62	5881
2026-01-02 10:34:03.83	178.81	5.46	-49.5	-53.6	10.7	4.48e-03	0	50	0	22020096	62	5554
2026-01-02 10:34:04.82	178.85	5.53	-49.2	-53.1	11.2	2.46e-03	0	50	0	24117248	61	5547
2026-01-02 10:34:05.81	178.89	5.60	-49.0	-52.6	11.7	7.60e-04	0	50	0	26214400	61	5277
2026-01-02 10:34:06.80	178.92	5.67	-48.9	-52.3	12.0	4.90e-04	0	50	0	27262976	60	5365
2026-01-02 10:34:07.80	178.96	5.74	-48.7	-52.0	12.3	1.97e-04	0	50	0	29360128	60	5185
2026-01-02 10:34:08.79	179.00	5.81	-48.6	-51.8	12.5	1.46e-04	0	50	0	31457280	60	5064
2026-01-02 10:34:09.78	179.04	5.88	-48.5	-51.4	13.0	4.19e-05	0	50	0	33554432	59	5140
2026-01-02 10:34:10.77	179.08	5.95	-48.4	-51.3	13.1	2.51e-05	0	50	0	35651584	59	5060
2026-01-02 10:34:11.76	179.12	6.02	-48.4	-51.3	13.1	2.51e-05	0	51	0	36700160	59	5069
2026-01-02 10:34:12.75	179.16	6.09	-48.5	-51.4	13.0	3.66e-05	0	50	0	38797312	59	5126
2026-01-02 10:34:13.73	179.20	6.17	-48.3	-51.2	13.2	1.90e-05	0	51	0	40894464	59	5027
2026-01-02 10:34:14.72	179.24	6.24	-48.5	-51.4	13.0	3.28e-05	0	51	0	42991616	59	5125
2026-01-02 10:34:15.72	179.29	6.31	-48.4	-51.4	13.0	3.89e-05	0	50	0	44040192	59	5134
2026-01-02 10:34:16.70	179.33	6.38	-48.4	-51.2	13.2	3.58e-05	0	51	0	46137344	59	5029
2026-01-02 10:34:17.69	179.37	6.45	-48.4	-51.2	13.2	2.05e-05	0	51	0	48234496	59	5010
2026-01-02 10:34:18.67	179.41	6.53	-48.4	-51.2	13.3	1.60e-05	0	51	0	50331648	59	5006
2026-01-02 10:34:19.66	179.45	6.60	-48.4	-51.1	13.3	1.60e-05	0	51	0	51380224	59	4983
2026-01-02 10:34:20.65	179.49	6.67	-48.4	-51.2	13.3	2.13e-05	0	51	0	53477376	59	5019
2026-01-02 10:34:21.65	179.53	6.75	-48.4	-51.2	13.3	9.90e-06	0	51	0	55574528	59	4993
2026-01-02 10:34:22.64	179.58	6.82	-48.5	-51.3	13.2	1.37e-05	0	51	0	57671680	59	5096
2026-01-02 10:34:23.63	179.62	6.89	-48.5	-51.3	13.2	2.74e-05	0	51	0	58720256	59	5089
2026-01-02 10:34:24.61	179.66	6.97	-48.4	-51.2	13.3	1.37e-05	0	51	0	60817408	59	4986
2026-01-02 10:34:25.60	179.70	7.04	-48.4	-51.1	13.4	8.30e-06	0	51	0	62914560	59	4960
2026-01-02 10:34:26.58	179.75	7.11	-48.3	-51.1	13.4	1.29e-05	0	51	0	65011712	59	4971
2026-01-02 10:34:27.57	179.79	7.19	-48.4	-51.1	13.5	8.30e-06	0	51	0	67108864	59	4931
2026-01-02 10:34:28.55	179.83	7.26	-48.3	-51.1	13.5	7.60e-06	0	51	0	68157440	59	4961
2026-01-02 10:34:29.53	179.88	7.33	-48.3	-51.0	13.5	1.14e-05	0	51	0	70254592	59	4903
2026-01-02 10:34:30.51	179.92	7.41	-48.3	-51.1	13.5	9.10e-06	0	51	0	72351744	59	4938
2026-01-02 10:34:31.49	179.96	7.48	-48.4	-51.1	13.4	2.21e-05	0	51	0	74448896	59	4976
2026-01-02 10:34:32.48	180.01	7.56	-48.4	-51.0	13.6	8.30e-06	0	51	0	75497472	59	4924
2026-01-02 10:34:33.47	180.05	7.63	-48.3	-51.0	13.6	6.10e-06	0	51	0	77594624	59	4915
2026-01-02 10:34:34.46	180.10	7.71	-48.4	-51.1	13.5	1.29e-05	0	51	0	79691776	59	4938
2026-01-02 10:34:35.46	180.14	7.79	-48.4	-51.0	13.6	6.10e-06	0	51	0	81788928	59	4903
2026-01-02 10:34:36.45	180.19	7.86	-48.5	-51.1	13.5	6.80e-06	0	51	0	82837504	59	4977
2026-01-02 10:34:37.45	180.23	7.94	-48.5	-51.2	13.5	1.06e-05	0	51	0	84934656	59	4991
2026-01-02 10:34:38.43	180.28	8.02	-48.4	-51.0	13.6	1.29e-05	0	51	0	87031808	59	4904
2026-01-02 10:34:39.42	180.32	8.09	-48.3	-50.9	13.7	6.80e-06	0	52	0	89128960	59	4847
2026-01-02 10:34:40.41	180.37	8.17	-48.3	-50.9	13.8	3.00e-06	0	52	0	91226112	59	4829
2026-01-02 10:34:41.39	180.41	8.25	-48.3	-50.9	13.8	2.20e-06	0	52	0	92274688	59	4819
2026-01-02 10:34:42.39	180.46	8.32	-48.3	-50.9	13.8	6.10e-06	0	51	0	94371840	59	4833
2026-01-02 10:34:43.38	180.51	8.40	-48.3	-50.9	13.8	2.20e-06	0	52	0	96468992	59	4856
2026-01-02 10:34:44.37	180.55	8.48	-48.4	-51.0	13.7	3.00e-06	0	52	0	98566144	59	4918
2026-01-02 10:34:45.36	180.60	8.56	-48.5	-51.2	13.5	1.22e-05	0	52	0	99614720	59	5005
2026-01-02 10:34:46.35	180.65	8.64	-48.6	-51.4	13.3	1.83e-05	0	52	0	101711872	59	5128
2026-01-02 10:34:47.34	180.70	8.72	-48.4	-51.0	13.7	1.22e-05	0	52	0	103809024	59	4875
2026-01-02 10:34:48.33	180.74	8.79	-48.3	-50.9	13.8	3.00e-06	0	52	0	105906176	59	4833
2026-01-02 10:34:49.32	180.79	8.87	-48.2	-50.7	14.1	2.20e-06	0	52	0	106954752	59	4713
2026-01-02 10:34:50.31	180.84	8.95	-48.2	-50.7	14.0	1.50e-06	0	52	0	109051904	59	4739
2026-01-02 10:34:51.29	180.89	9.03	-48.3	-50.7	14.0	3.00e-06	0	52	0	111149056	59	4752
2026-01-02 10:34:52.29	180.94	9.11	-48.1	-50.6	14.1	3.00e-06	0	52	0	113246208	59	4693
2026-01-02 10:34:53.28	180.99	9.19	-48.2	-50.7	14.1	7.00e-07	0	52	0	115343360	59	4737
2026-01-02 10:34:54.27	181.04	9.27	-48.1	-50.5	14.2	3.00e-06	0	52	0	116391936	59	4649
2026-01-02 10:34:55.26	181.08	9.35	-48.0	-50.4	14.4	0.00e+00	0	52	0	118489088	59	4552
2026-01-02 10:34:56.25	181.13	9.43	-48.0	-50.4	14.4	1.50e-06	0	52	0	120586240	59	4565
2026-01-02 10:34:57.24	181.18	9.51	-48.0	-50.4	14.4	0.00e+00	0	52	0	122683392	59	4562
2026-01-02 10:34:58.23	181.23	9.60	-47.9	-50.2	14.5	0.00e+00	0	52	0	123731968	59	4487
2026-01-02 10:34:59.22	181.29	9.68	-48.0	-50.3	14.5	0.00e+00	0	52	0	125829120	58	4796
2026-01-02 10:35:00.21	181.34	9.76	-47.9	-50.2	14.6	7.00e-07	0	52	0	127926272	58	4743
2026-01-02 10:35:01.19	181.39	9.84	-47.9	-50.2	14.6	7.00e-07	0	52	0	130023424	58	4758
2026-01-02 10:35:02.17	181.44	9.92	-48.1	-50.5	14.3	0.00e+00	0	53	0	131072000	58	4901
2026-01-02 10:35:03.16	181.49	10.00	-47.9	-50.2	14.6	7.00e-07	0	52	0	133169152	58	4730
2026-01-02 10:35:04.15	181.54	10.09	-47.8	-50.1	14.7	0.00e+00	0	52	0	135266304	58	4666
2026-01-02 10:35:05.14	181.59	10.17	-47.8	-50.1	14.7	0.00e+00	0	53	0	137363456	58	4682
2026-01-02 10:35:06.13	181.65	10.25	-47.8	-50.0	14.8	0.00e+00	0	52	0	138412032	58	4643
2026-01-02 10:35:07.13	181.70	10.34	-47.8	-50.1	14.8	0.00e+00	0	52	0	140509184	58	4662
2026-01-02 10:35:08.12	181.75	10.42	-47.9	-50.2	14.7	1.50e-06	0	53	0	142606336	58	4722
2026-01-02 10:35:09.11	181.80	10.51	-48.0	-50.4	14.5	0.00e+00	0	53	0	144703488	58	4825
2026-01-02 10:35:10.10	181.86	10.59	-47.8	-50.1	14.8	0.00e+00	0	53	0	146800640	58	4670
2026-01-02 10:35:11.09	181.91	10.68	-47.8	-50.0	14.9	0.00e+00	0	53	0	147849216	58	4614
2026-01-02 10:35:12.08	181.97	10.76	-47.7	-49.9	15.0	0.00e+00	0	53	0	149946368	58	4556
2026-01-02 10:35:13.07	182.02	10.85	-47.8	-49.9	14.9	0.00e+00	0	52	0	152043520	58	4597
2026-01-02 10:35:14.06	182.07	10.93	-47.8	-50.0	14.9	0.00e+00	0	53	0	154140672	58	4620
2026-01-02 10:35:15.05	182.13	11.02	-47.9	-50.2	14.7	7.00e-07	0	53	0	155189248	58	4718
2026-01-02 10:35:16.05	182.19	11.10	-48.1	-50.5	14.4	7.00e-07	0	53	0	157286400	58	4886
2026-01-02 10:35:17.03	182.24	11.19	-47.9	-50.2	14.7	0.00e+00	0	53	0	159383552	58	4721
2026-01-02 10:35:18.03	182.30	11.28	-47.7	-49.8	15.0	0.00e+00	0	53	0	161480704	58	4542
2026-01-02 10:35:19.02	182.35	11.36	-47.7	-49.8	15.1	0.00e+00	0	53	0	163577856	58	4510
2026-01-02 10:35:20.00	182.41	11.45	-47.6	-49.7	15.2	0.00e+00	0	53	0	164626432	58	4490
2026-01-02 10:35:20.98	182.47	11.54	-47.6	-49.7	15.2	7.00e-07	0	53	0	166723584	58	4453
2026-01-02 10:35:21.97	182.52	11.62	-47.7	-49.8	15.1	7.00e-07	0	53	0	168820736	58	4534
2026-01-02 10:35:22.96	182.58	11.71	-47.8	-50.0	14.9	0.00e+00	0	53	0	170917888	58	4634
2026-01-02 10:35:23.95	182.64	11.80	-47.6	-49.8	15.1	0.00e+00	0	53	0	171966464	58	4502
2026-01-02 10:35:24.93	182.70	11.89	-47.6	-49.7	15.3	0.00e+00	0	53	0	174063616	58	4449
2026-01-02 10:35:25.92	182.75	11.98	-47.6	-49.7	15.2	0.00e+00	0	53	0	176160768	58	4469
2026-01-02 10:35:26.91	182.81	12.07	-47.7	-49.9	15.0	0.00e+00	0	53	0	178257920	58	4564
2026-01-02 10:35:27.89	182.87	12.16	-47.7	-49.9	15.1	0.00e+00	0	53	0	179306496	58	4550
2026-01-02 10:35:28.88	182.93	12.25	-47.7	-49.9	15.1	0.00e+00	0	53	0	181403648	58	4554
2026-01-02 10:35:29.86	182.99	12.33	-47.7	-49.9	15.1	0.00e+00	0	53	0	183500800	58	4568
2026-01-02 10:35:30.84	183.05	12.42	-47.9	-50.1	14.9	0.00e+00	0	53	0	185597952	58	4663
2026-01-02 10:35:31.83	183.11	12.51	-47.8	-49.9	15.0	0.00e+00	0	53	0	186646528	58	4585
2026-01-02 10:35:32.82	183.17	12.61	-47.7	-49.8	15.2	0.00e+00	0	53	0	188743680	58	4510
2026-01-02 10:35:33.82	183.23	12.70	-47.7	-49.8	15.2	0.00e+00	0	53	0	190840832	58	4510
2026-01-02 10:35:34.81	183.29	12.79	-47.6	-49.7	15.2	0.00e+00	0	54	0	192937984	58	4480
2026-01-02 10:35:35.80	183.36	12.88	-47.8	-49.9	15.1	7.00e-07	0	53	0	195035136	58	4577
2026-01-02 10:35:36.79	183.42	12.97	-47.7	-49.8	15.2	0.00e+00	0	53	0	196083712	58	4498
2026-01-02 10:35:37.78	183.48	13.07	-47.5	-49.5	15.5	0.00e+00	0	53	0	198180864	58	4360
2026-01-02 10:35:38.77	183.54	13.16	-47.4	-49.3	15.7	0.00e+00	0	53	0	200278016	57	4522
2026-01-02 10:35:39.76	183.61	13.25	-47.3	-49.2	15.8	0.00e+00	0	54	0	202375168	57	4467
2026-01-02 10:35:40.74	183.67	13.35	-47.2	-49.1	15.9	0.00e+00	0	54	0	203423744	57	4426
2026-01-02 10:35:41.72	183.73	13.44	-47.3	-49.2	15.7	0.00e+00	0	53	0	205520896	57	4479
2026-01-02 10:35:42.71	183.80	13.53	-47.2	-49.1	15.9	0.00e+00	0	54	0	207618048	57	4416
2026-01-02 10:35:43.70	183.86	13.63	-47.2	-49.1	15.9	0.00e+00	0	54	0	209715200	57	4414
2026-01-02 10:35:44.69	183.93	13.72	-47.2	-49.1	15.9	0.00e+00	0	54	0	210763776	57	4412
2026-01-02 10:35:45.68	183.99	13.82	-47.2	-49.0	16.0	0.00e+00	0	54	0	212860928	57	4367
2026-01-02 10:35:46.67	184.06	13.91	-47.2	-49.0	16.0	0.00e+00	0	54	0	214958080	57	4373
2026-01-02 10:35:47.66	184.13	14.01	-47.3	-49.2	15.8	0.00e+00	0	54	0	217055232	57	4477
2026-01-02 10:35:48.66	184.19	14.11	-47.2	-49.1	15.9	0.00e+00	0	54	0	218103808	57	4419
2026-01-02 10:35:49.65	184.26	14.20	-47.2	-49.0	16.0	0.00e+00	0	54	0	220200960	57	4368
2026-01-02 10:35:50.64	184.33	14.30	-47.2	-49.0	15.9	0.00e+00	0	54	0	222298112	57	4390
2026-01-02 10:35:51.63	184.40	14.40	-47.3	-49.1	15.9	0.00e+00	0	54	0	224395264	57	4429
2026-01-02 10:35:52.62	184.46	14.50	-47.3	-49.3	15.7	0.00e+00	0	54	0	226492416	57	4496
2026-01-02 10:35:53.61	184.53	14.59	-47.3	-49.3	15.8	0.00e+00	0	54	0	227540992	57	4497
2026-01-02 10:35:54.59	184.60	14.69	-47.3	-49.2	15.8	0.00e+00	0	54	0	229638144	57	4490
2026-01-02 10:35:55.58	184.67	14.79	-47.3	-49.2	15.8	0.00e+00	0	54	0	231735296	57	4466
2026-01-02 10:35:56.57	184.74	14.89	-47.3	-49.1	15.9	0.00e+00	0	54	0	233832448	57	4441
2026-01-02 10:35:57.55	184.81	14.99	-47.3	-49.2	15.9	0.00e+00	0	54	0	234881024	57	4449
2026-01-02 10:35:58.54	184.88	15.09	-47.3	-49.2	15.9	0.00e+00	0	54	0	236978176	57	4446
2026-01-02 10:35:59.53	184.95	15.19	-47.2	-49.1	16.0	0.00e+00	0	54	0	239075328	57	4394
2026-01-02 10:36:00.52	185.03	15.29	-47.2	-49.1	15.9	0.00e+00	0	54	0	241172480	57	4419
2026-01-02 10:36:01.52	185.10	15.39	-47.3	-49.2	15.8	0.00e+00	0	54	0	243269632	57	4490
2026-01-02 10:36:02.50	185.17	15.49	-47.3	-49.2	15.9	0.00e+00	0	54	0	244318208	57	4449
2026-01-02 10:36:03.50	185.25	15.60	-47.1	-48.8	16.2	0.00e+00	0	54	0	246415360	57	4290
2026-01-02 10:36:04.49	185.32	15.70	-46.9	-48.5	16.5	0.00e+00	0	54	0	248512512	56	4381
2026-01-02 10:36:05.47	185.39	15.80	-46.8	-48.4	16.6	0.00e+00	0	54	0	250609664	56	4324
2026-01-02 10:36:06.45	185.47	15.90	-46.7	-48.4	16.7	0.00e+00	0	54	0	251658240	56	4307
2026-01-02 10:36:07.45	185.54	16.01	-46.8	-48.5	16.6	0.00e+00	0	54	0	253755392	56	4347
2026-01-02 10:36:08.44	185.62	16.11	-46.9	-48.6	16.5	0.00e+00	0	54	0	255852544	56	4404
2026-01-02 10:36:09.43	185.70	16.21	-47.0	-48.7	16.4	0.00e+00	0	54	0	257949696	56	4481
2026-01-02 10:36:10.43	185.77	16.32	-47.0	-48.7	16.4	0.00e+00	0	54	0	258998272	56	4464
2026-01-02 10:36:11.41	185.85	16.42	-46.8	-48.5	16.5	0.00e+00	0	54	0	261095424	56	4382
2026-01-02 10:36:12.40	185.93	16.53	-46.8	-48.5	16.6	0.00e+00	0	54	0	263192576	56	4343
2026-01-02 10:36:13.39	186.01	16.63	-46.9	-48.6	16.5	0.00e+00	0	55	0	265289728	56	4416
2026-01-02 10:36:14.38	186.09	16.74	-46.9	-48.7	16.4	0.00e+00	0	54	0	267386880	56	4455
2026-01-02 10:36:15.37	186.17	16.85	-46.8	-48.5	16.6	0.00e+00	0	54	0	268435456	56	4365
2026-01-02 10:36:16.36	186.25	16.95	-46.8	-48.4	16.6	0.00e+00	0	54	0	270532608	56	4334
2026-01-02 10:36:17.35	186.33	17.06	-46.7	-48.3	16.7	0.00e+00	0	55	0	272629760	56	4291
2026-01-02 10:36:18.34	186.41	17.17	-46.7	-48.3	16.7	0.00e+00	0	54	0	274726912	56	4278
2026-01-02 10:36:19.33	186.49	17.28	-46.7	-48.4	16.7	0.00e+00	0	54	0	275775488	56	4312
2026-01-02 10:36:20.31	186.57	17.39	-46.8	-48.5	16.6	0.00e+00	0	54	0	277872640	56	4341
2026-01-02 10:36:21.30	186.65	17.50	-46.9	-48.6	16.5	0.00e+00	0	54	0	279969792	56	4405
2026-01-02 10:36:22.29	186.74	17.60	-46.6	-48.2	16.9	0.00e+00	0	55	0	282066944	56	4220
2026-01-02 10:36:23.28	186.82	17.72	-46.4	-48.0	17.1	0.00e+00	0	54	0	283115520	56	4107
2026-01-02 10:36:24.27	186.90	17.83	-46.2	-47.7	17.3	0.00e+00	0	55	0	285212672	55	4196
2026-01-02 10:36:25.26	186.99	17.94	-46.2	-47.6	17.4	0.00e+00	0	55	0	287309824	55	4171
2026-01-02 10:36:26.25	187.08	18.05	-46.2	-47.6	17.3	0.00e+00	0	55	0	289406976	55	4187
2026-01-02 10:36:27.24	187.16	18.16	-46.3	-47.8	17.2	0.00e+00	0	55	0	291504128	55	4252
2026-01-02 10:36:28.23	187.25	18.27	-46.4	-48.0	17.0	0.00e+00	0	55	0	292552704	55	4348
2026-01-02 10:36:29.21	187.34	18.38	-46.5	-48.1	16.9	0.00e+00	0	55	0	294649856	55	4419
2026-01-02 10:36:30.20	187.42	18.50	-46.3	-47.9	17.1	0.00e+00	0	55	0	296747008	55	4303
2026-01-02 10:36:31.19	187.51	18.61	-46.2	-47.6	17.4	0.00e+00	0	55	0	298844160	55	4187
2026-01-02 10:36:32.17	187.60	18.72	-46.1	-47.5	17.5	0.00e+00	0	55	0	299892736	55	4133
2026-01-02 10:36:33.17	187.69	18.84	-46.1	-47.5	17.5	0.00e+00	0	55	0	301989888	55	4145
2026-01-02 10:36:34.16	187.78	18.95	-46.0	-47.5	17.5	0.00e+00	0	55	0	304087040	55	4107
2026-01-02 10:36:35.15	187.87	19.07	-46.2	-47.6	17.4	0.00e+00	0	55	0	306184192	55	4166
2026-01-02 10:36:36.14	187.97	19.19	-46.3	-47.8	17.2	0.00e+00	0	55	0	307232768	55	4285
2026-01-02 10:36:37.13	188.06	19.30	-46.1	-47.6	17.4	0.00e+00	0	55	0	309329920	55	4182
2026-01-02 10:36:38.12	188.15	19.42	-46.1	-47.5	17.5	0.00e+00	0	55	0	311427072	55	4114
2026-01-02 10:36:39.10	188.24	19.54	-46.1	-47.5	17.5	0.00e+00	0	55	0	313524224	55	4141
2026-01-02 10:36:40.10	188.34	19.65	-46.1	-47.5	17.5	0.00e+00	0	55	0	314572800	55	4133
2026-01-02 10:36:41.08	188.43	19.77	-46.2	-47.6	17.4	0.00e+00	0	55	0	316669952	55	4182
2026-01-02 10:36:42.07	188.53	19.89	-46.4	-47.9	17.2	0.00e+00	0	55	0	318767104	55	4297
2026-01-02 10:36:43.06	188.63	20.01	-46.2	-47.6	17.4	0.00e+00	0	55	0	320864256	55	4186
2026-01-02 10:36:44.05	188.73	20.13	-46.3	-47.8	17.2	0.00e+00	0	55	0	322961408	55	4283
2026-01-02 10:36:45.03	188.82	20.25	-46.6	-48.2	16.9	0.00e+00	0	55	0	324009984	55	4442
2026-01-02 10:36:46.02	188.92	20.37	-46.4	-47.9	17.2	0.00e+00	0	55	0	326107136	55	4295
2026-01-02 10:36:47.00	189.02	20.49	-46.4	-48.0	17.1	0.00e+00	0	55	0	328204288	55	4350
2026-01-02 10:36:48.00	189.12	20.61	-46.6	-48.2	16.8	0.00e+00	0	55	0	330301440	55	4484
2026-01-02 10:36:48.99	189.22	20.74	-46.5	-48.0	17.0	0.00e+00	0	55	0	331350016	55	4381
2026-01-02 10:36:49.98	189.33	20.86	-46.4	-47.9	17.1	0.00e+00	0	55	0	333447168	55	4331
2026-01-02 10:36:50.97	189.43	20.98	-46.4	-47.9	17.2	0.00e+00	0	55	0	335544320	55	4318
2026-01-02 10:36:51.96	189.53	21.11	-46.4	-47.9	17.2	0.00e+00	0	55	0	337641472	55	4321
2026-01-02 10:36:52.94	189.64	21.23	-46.5	-48.1	16.9	0.00e+00	0	55	0	338690048	55	4414
2026-01-02 10:36:53.93	189.74	21.35	-46.4	-48.0	17.1	0.00e+00	0	55	0	340787200	55	4342
2026-01-02 10:36:54.92	189.85	21.48	-46.2	-47.7	17.4	0.00e+00	0	55	0	342884352	55	4208
2026-01-02 10:36:55.91	189.95	21.61	-46.2	-47.6	17.4	0.00e+00	0	55	0	344981504	55	4181
2026-01-02 10:36:56.90	190.06	21.73	-46.2	-47.6	17.4	0.00e+00	0	55	0	347078656	55	4181
2026-01-02 10:36:57.90	190.17	21.86	-46.1	-47.5	17.5	0.00e+00	0	55	0	348127232	55	4121
2026-01-02 10:36:58.89	190.28	21.99	-46.1	-47.5	17.6	0.00e+00	0	55	0	350224384	55	4125
2026-01-02 10:36:59.88	190.39	22.12	-46.2	-47.7	17.4	0.00e+00	0	55	0	352321536	55	4195
2026-01-02 10:37:00.86	190.50	22.24	-46.3	-47.8	17.3	0.00e+00	0	55	0	354418688	55	4260
2026-01-02 10:37:01.85	190.61	22.37	-46.1	-47.5	17.6	0.00e+00	0	55	0	355467264	55	4122
2026-01-02 10:37:02.84	190.73	22.50	-45.9	-47.3	17.7	0.00e+00	0	55	0	357564416	55	4039
2026-01-02 10:37:03.83	190.84	22.63	-45.9	-47.2	17.8	0.00e+00	0	55	0	359661568	54	4221
2026-01-02 10:37:04.81	190.95	22.76	-45.8	-47.2	17.9	0.00e+00	0	55	0	361758720	54	4208
2026-01-02 10:37:05.80	191.07	22.90	-46.0	-47.4	17.7	0.00e+00	0	55	0	362807296	54	4312
2026-01-02 10:37:06.79	191.19	23.03	-45.9	-47.3	17.8	0.00e+00	0	55	0	364904448	54	4271
2026-01-02 10:37:07.79	191.31	23.16	-46.1	-47.5	17.6	0.00e+00	0	55	0	367001600	54	4343
2026-01-02 10:37:08.78	191.42	23.29	-46.2	-47.7	17.4	0.00e+00	0	55	0	369098752	54	4476
2026-01-02 10:37:09.76	191.54	23.43	-46.1	-47.5	17.5	0.00e+00	0	55	0	371195904	54	4383
2026-01-02 10:37:10.76	191.66	23.56	-46.0	-47.4	17.7	0.00e+00	0	55	0	372244480	54	4322
2026-01-02 10:37:11.74	191.78	23.70	-45.9	-47.3	17.8	0.00e+00	0	55	0	374341632	54	4271
2026-01-02 10:37:12.74	191.91	23.83	-46.0	-47.4	17.7	0.00e+00	0	56	0	376438784	54	4305
2026-01-02 10:37:13.72	192.03	23.97	-45.9	-47.3	17.8	0.00e+00	0	55	0	378535936	54	4255
2026-01-02 10:37:14.71	192.16	24.10	-46.0	-47.4	17.7	0.00e+00	0	55	0	379584512	54	4329
2026-01-02 10:37:15.70	192.28	24.24	-46.0	-47.4	17.7	0.00e+00	0	55	0	381681664	54	4309
2026-01-02 10:37:16.70	192.41	24.38	-46.1	-47.6	17.5	0.00e+00	0	55	0	383778816	54	4402
2026-01-02 10:37:17.69	192.54	24.52	-46.1	-47.5	17.6	0.00e+00	0	55	0	385875968	54	4380
2026-01-02 10:37:18.67	192.67	24.66	-46.3	-47.8	17.3	0.00e+00	0	55	0	387973120	54	4509
2026-01-02 10:37:19.66	192.80	24.80	-46.3	-47.8	17.3	0.00e+00	0	55	0	389021696	54	4511
2026-01-02 10:37:20.65	192.93	24.94	-46.4	-47.9	17.3	0.00e+00	0	55	0	391118848	54	4558
2026-01-02 10:37:21.64	193.06	25.08	-46.5	-48.1	17.1	0.00e+00	0	55	0	393216000	54	4661
2026-01-02 10:37:22.63	193.19	25.22	-46.6	-48.2	17.0	0.00e+00	0	55	0	395313152	55	4445
2026-01-02 10:37:23.63	193.33	25.36	-46.6	-48.2	16.9	0.00e+00	0	55	0	396361728	55	4458
2026-01-02 10:37:24.62	193.46	25.51	-46.7	-48.3	16.8	0.00e+00	0	56	0	398458880	55	4534
2026-01-02 10:37:25.62	193.60	25.65	-46.8	-48.4	16.8	0.00e+00	0	55	0	400556032	55	4557
2026-01-02 10:37:26.61	193.74	25.79	-46.8	-48.4	16.7	0.00e+00	0	55	0	402653184	55	4553
2026-01-02 10:37:27.60	193.88	25.94	-46.8	-48.5	16.7	0.00e+00	0	56	0	403701760	55	4603
2026-01-02 10:37:28.59	194.02	26.08	-46.9	-48.6	16.6	0.00e+00	0	56	0	405798912	55	4652
2026-01-02 10:37:29.58	194.16	26.23	-46.9	-48.6	16.5	0.00e+00	0	56	0	407896064	55	4689
2026-01-02 10:37:30.57	194.31	26.37	-46.9	-48.6	16.6	0.00e+00	0	55	0	409993216	55	4668
2026-01-02 10:37:31.56	194.45	26.52	-47.0	-48.6	16.5	0.00e+00	0	56	0	412090368	55	4699
2026-01-02 10:37:32.54	194.60	26.67	-47.2	-48.9	16.4	0.00e+00	0	56	0	413138944	56	4553
2026-01-02 10:37:33.53	194.74	26.82	-47.1	-48.9	16.4	0.00e+00	0	56	0	415236096	56	4551
2026-01-02 10:37:34.52	194.89	26.96	-47.1	-48.8	16.5	0.00e+00	0	56	0	417333248	56	4518
2026-01-02 10:37:35.52	195.04	27.12	-47.1	-48.9	16.4	0.00e+00	0	56	0	419430400	56	4559
2026-01-02 10:37:36.51	195.19	27.27	-47.1	-48.8	16.4	0.00e+00	0	56	0	420478976	56	4540
2026-01-02 10:37:37.50	195.35	27.42	-47.2	-49.0	16.3	0.00e+00	0	56	0	422576128	56	4604
2026-01-02 10:37:38.48	195.50	27.57	-47.2	-48.9	16.4	0.00e+00	0	56	0	424673280	56	4573
2026-01-02 10:37:39.47	195.65	27.72	-47.2	-48.9	16.4	0.00e+00	0	56	0	426770432	56	4566
2026-01-02 10:37:40.46	195.81	27.87	-47.2	-48.9	16.4	0.00e+00	0	56	0	428867584	56	4588
2026-01-02 10:37:41.45	195.97	28.02	-47.3	-49.1	16.2	0.00e+00	0	56	0	429916160	56	4691
2026-01-02 10:37:42.45	196.13	28.18	-47.4	-49.3	16.0	0.00e+00	0	56	0	432013312	56	4770
2026-01-02 10:37:43.44	196.29	28.33	-47.4	-49.3	16.0	0.00e+00	0	56	0	434110464	56	4797
2026-01-02 10:37:44.43	196.45	28.49	-47.5	-49.5	15.8	0.00e+00	0	56	0	436207616	57	4609
2026-01-02 10:37:45.42	196.62	28.64	-47.8	-49.8	15.5	0.00e+00	0	56	0	437256192	57	4784
2026-01-02 10:37:46.41	196.78	28.80	-48.0	-50.2	15.2	0.00e+00	0	56	0	439353344	57	4984
2026-01-02 10:37:47.40	196.95	28.96	-48.2	-50.3	15.0	7.00e-07	0	56	0	441450496	58	4806
2026-01-02 10:37:48.39	197.12	29.11	-48.3	-50.6	14.7	0.00e+00	0	56	0	443547648	58	4938
2026-01-02 10:37:49.38	197.29	29.27	-48.4	-50.7	14.6	0.00e+00	0	56	0	444596224	58	5006
2026-01-02 10:37:50.37	197.46	29.43	-48.5	-50.9	14.4	1.50e-06	0	56	0	446693376	58	5142
2026-01-02 10:37:51.36	197.64	29.59	-48.6	-50.9	14.4	2.20e-06	0	56	0	448790528	58	5137
2026-01-02 10:37:52.35	197.81	29.75	-48.6	-51.1	14.2	7.00e-07	0	56	0	450887680	59	4983
2026-01-02 10:37:53.34	197.99	29.91	-48.6	-51.2	14.1	7.00e-07	0	56	0	451936256	59	4997
2026-01-02 10:37:54.34	198.17	30.07	-48.8	-51.2	14.1	2.20e-06	0	56	0	454033408	59	5023
2026-01-02 10:37:55.32	198.35	30.23	-48.8	-51.3	14.0	5.30e-06	0	56	0	456130560	59	5058
2026-01-02 10:37:56.32	198.54	30.40	-48.7	-51.0	14.3	0.00e+00	0	56	0	458227712	59	4917
2026-01-02 10:37:57.31	198.72	30.56	-48.6	-51.0	14.3	1.50e-06	0	56	0	460324864	59	4882
2026-01-02 10:37:58.29	198.90	30.72	-48.6	-51.1	14.3	1.50e-06	0	56	0	461373440	59	4927
2026-01-02 10:37:59.28	199.09	30.88	-48.9	-51.5	13.8	3.80e-06	0	56	0	463470592	59	5170
2026-01-02 10:38:00.26	199.28	31.05	-48.8	-51.3	13.9	2.20e-06	0	56	0	465567744	59	5098
2026-01-02 10:38:01.25	199.47	31.21	-48.7	-51.2	14.1	1.50e-06	0	56	0	467664896	59	5010
2026-01-02 10:38:02.23	199.66	31.38	-48.9	-51.5	13.8	3.80e-06	0	56	0	468713472	59	5175
2026-01-02 10:38:03.22	199.86	31.54	-48.8	-51.4	13.9	1.50e-06	0	56	0	470810624	59	5115
2026-01-02 10:38:04.22	200.06	31.71	-48.9	-51.5	13.8	6.80e-06	0	56	0	472907776	59	5191
2026-01-02 10:38:05.21	200.26	31.88	-48.8	-51.4	13.9	4.50e-06	0	56	0	475004928	59	5130
2026-01-02 10:38:06.19	200.46	32.05	-48.9	-51.6	13.6	5.30e-06	0	56	0	476053504	59	5277
2026-01-02 10:38:07.18	200.66	32.21	-48.8	-51.4	13.9	6.10e-06	0	56	0	478150656	59	5157
2026-01-02 10:38:08.17	200.87	32.38	-48.9	-51.5	13.8	4.50e-06	0	56	0	480247808	59	5193
2026-01-02 10:38:09.15	201.07	32.55	-48.8	-51.4	13.9	3.00e-06	0	56	0	482344960	59	5149
2026-01-02 10:38:10.14	201.28	32.72	-49.0	-51.6	13.7	3.80e-06	0	56	0	484442112	59	5278
2026-01-02 10:38:11.13	201.50	32.89	-49.0	-51.6	13.6	6.80e-06	0	56	0	485490688	59	5277
2026-01-02 10:38:12.13	201.71	33.07	-48.9	-51.5	13.8	4.50e-06	0	56	0	487587840	59	5172
2026-01-02 10:38:13.12	201.93	33.24	-48.8	-51.4	14.0	7.00e-07	0	56	0	489684992	59	5101
2026-01-02 10:38:14.10	202.15	33.41	-48.7	-51.3	14.0	1.50e-06	0	56	0	491782144	59	5057
2026-01-02 10:38:15.09	202.37	33.58	-48.7	-51.2	14.1	2.20e-06	0	56	0	492830720	59	5032
2026-01-02 10:38:16.07	202.59	33.75	-48.8	-51.3	14.0	2.20e-06	0	56	0	494927872	59	5089
2026-01-02 10:38:17.06	202.81	33.93	-49.0	-51.5	13.8	4.50e-06	0	56	0	497025024	59	5192
2026-01-02 10:38:18.06	203.05	34.11	-48.5	-50.9	14.4	1.50e-06	0	56	0	499122176	59	4832
2026-01-02 10:38:19.05	203.28	34.28	-48.4	-50.8	14.5	0.00e+00	0	56	0	500170752	59	4805
2026-01-02 10:38:20.05	203.51	34.46	-48.5	-50.8	14.6	0.00e+00	0	56	0	502267904	59	4783
2026-01-02 10:38:21.03	203.74	34.63	-48.4	-50.7	14.7	0.00e+00	0	56	0	504365056	59	4724
2026-01-02 10:38:22.02	203.98	34.81	-48.4	-50.7	14.7	7.00e-07	0	56	0	506462208	59	4721
2026-01-02 10:38:23.01	204.22	34.99	-48.4	-50.8	14.6	7.00e-07	0	56	0	508559360	59	4777
2026-01-02 10:38:24.00	204.47	35.16	-48.3	-50.5	14.8	0.00e+00	0	56	0	509607936	59	4619
2026-01-02 10:38:24.99	204.71	35.34	-48.3	-50.6	14.7	7.00e-07	0	56	0	511705088	59	4684
2026-01-02 10:38:25.98	204.96	35.52	-48.6	-50.9	14.4	1.50e-06	0	56	0	513802240	59	4855
2026-01-02 10:38:26.97	205.21	35.70	-48.2	-50.4	15.0	0.00e+00	0	56	0	515899392	59	4577
2026-01-02 10:38:27.95	205.46	35.88	-48.0	-50.0	15.3	0.00e+00	0	56	0	516947968	59	4361
2026-01-02 10:38:28.94	205.72	36.06	-47.7	-49.5	15.9	0.00e+00	0	56	0	519045120	58	4382
2026-01-02 10:38:29.92	205.98	36.23	-47.4	-49.1	16.1	0.00e+00	0	56	0	521142272	57	4441
2026-01-02 10:38:30.91	206.24	36.41	-47.1	-48.9	16.5	0.00e+00	0	56	0	523239424	57	4304
2026-01-02 10:38:31.90	206.50	36.59	-47.0	-48.6	16.7	0.00e+00	0	56	0	524288000	57	4190
2026-01-02 10:38:32.89	206.77	36.77	-46.9	-48.5	16.9	0.00e+00	0	56	0	526385152	56	4362
2026-01-02 10:38:33.87	207.04	36.95	-46.9	-48.5	16.9	0.00e+00	0	56	0	528482304	56	4370
2026-01-02 10:38:34.86	207.31	37.14	-46.7	-48.2	17.1	0.00e+00	0	56	0	530579456	56	4220
2026-01-02 10:38:35.84	207.59	37.32	-46.6	-48.0	17.3	0.00e+00	0	56	0	531628032	56	4145
2026-01-02 10:38:36.84	207.87	37.50	-46.5	-48.0	17.4	0.00e+00	0	56	0	533725184	56	4128
2026-01-02 10:38:37.83	208.15	37.68	-46.8	-48.4	17.0	0.00e+00	0	56	0	535822336	56	4301
2026-01-02 10:38:38.82	208.44	37.86	-46.9	-48.6	16.8	0.00e+00	0	56	0	537919488	56	4394
2026-01-02 10:38:39.81	208.73	38.05	-47.0	-48.6	16.7	0.00e+00	0	56	0	540016640	56	4440
2026-01-02 10:38:40.79	209.02	38.23	-46.9	-48.5	16.9	0.00e+00	0	56	0	541065216	56	4344
2026-01-02 10:38:41.78	209.31	38.41	-46.7	-48.3	17.1	0.00e+00	0	56	0	543162368	56	4250
2026-01-02 10:38:42.77	209.61	38.59	-46.6	-48.1	17.3	0.00e+00	0	56	0	545259520	56	4160
2026-01-02 10:38:43.76	209.91	38.78	-46.6	-48.1	17.2	0.00e+00	0	56	0	547356672	56	4190
2026-01-02 10:38:44.75	210.22	38.96	-46.8	-48.4	16.9	0.00e+00	0	56	0	548405248	56	4332
2026-01-02 10:38:45.75	210.53	39.15	-47.0	-48.6	16.7	0.00e+00	0	56	0	550502400	56	4422
2026-01-02 10:38:46.74	210.84	39.33	-47.2	-48.9	16.5	0.00e+00	0	56	0	552599552	56	4575
2026-01-02 10:38:47.73	211.16	39.51	-47.2	-48.9	16.5	0.00e+00	0	56	0	554696704	56	4566
2026-01-02 10:38:48.72	211.48	39.70	-47.3	-48.9	16.4	0.00e+00	0	56	0	556793856	56	4590
2026-01-02 10:38:49.72	211.80	39.88	-47.5	-49.4	16.0	0.00e+00	0	56	0	557842432	56	4822
2026-01-02 10:38:50.71	212.13	40.07	-47.4	-49.3	16.1	0.00e+00	0	56	0	559939584	56	4763
2026-01-02 10:38:51.71	212.47	40.25	-47.6	-49.5	15.9	0.00e+00	0	56	0	562036736	57	4608
2026-01-02 10:38:52.70	212.80	40.43	-47.4	-49.2	16.2	0.00e+00	0	56	0	564133888	57	4461
2026-01-02 10:38:53.69	213.14	40.62	-47.2	-49.0	16.4	0.00e+00	0	56	0	565182464	57	4354
2026-01-02 10:38:54.68	213.48	40.80	-47.1	-48.7	16.6	0.00e+00	0	56	0	567279616	57	4237
2026-01-02 10:38:55.67	213.82	40.98	-47.1	-48.8	16.6	0.00e+00	0	56	0	569376768	57	4249
2026-01-02 10:38:56.66	214.17	41.17	-47.1	-48.7	16.6	0.00e+00	0	56	0	571473920	57	4233
2026-01-02 10:38:57.66	214.53	41.35	-47.3	-49.0	16.4	0.00e+00	0	56	0	572522496	57	4373
2026-01-02 10:38:58.65	214.89	41.53	-47.3	-49.1	16.2	0.00e+00	0	56	0	574619648	57	4437
2026-01-02 10:38:59.64	215.25	41.71	-47.7	-49.6	15.8	0.00e+00	0	56	0	576716800	57	4654
2026-01-02 10:39:00.64	215.62	41.90	-47.6	-49.5	15.9	0.00e+00	0	56	0	578813952	57	4614
2026-01-02 10:39:01.62	215.98	42.08	-47.8	-49.7	15.7	0.00e+00	0	57	0	580911104	57	4716
2026-01-02 10:39:02.62	216.36	42.26	-47.6	-49.4	15.9	0.00e+00	0	56	0	581959680	57	4593
2026-01-02 10:39:03.60	216.73	42.44	-47.5	-49.3	16.1	0.00e+00	0	56	0	584056832	57	4500
2026-01-02 10:39:04.58	217.11	42.61	-47.4	-49.1	16.3	0.00e+00	0	56	0	586153984	57	4425
2026-01-02 10:39:05.58	217.50	42.80	-47.4	-49.2	16.2	0.00e+00	0	56	0	588251136	57	4460
2026-01-02 10:39:06.57	217.89	42.97	-47.5	-49.3	16.0	0.00e+00	0	56	0	589299712	57	4532
2026-01-02 10:39:07.57	218.29	43.15	-48.0	-50.0	15.4	0.00e+00	0	56	0	591396864	57	4876
2026-01-02 10:39:08.55	218.68	43.33	-48.0	-50.0	15.4	0.00e+00	0	56	0	593494016	58	4634
2026-01-02 10:39:09.54	219.09	43.51	-47.8	-49.7	15.8	0.00e+00	0	56	0	595591168	58	4447
2026-01-02 10:39:10.53	219.49	43.68	-47.5	-49.4	16.0	0.00e+00	0	56	0	597688320	58	4295
2026-01-02 10:39:11.52	219.91	43.86	-47.4	-49.2	16.2	0.00e+00	0	57	0	598736896	57	4457
2026-01-02 10:39:12.52	220.33	44.03	-47.3	-49.1	16.2	0.00e+00	0	56	0	600834048	57	4438
2026-01-02 10:39:13.51	220.75	44.21	-47.5	-49.3	16.1	0.00e+00	0	57	0	602931200	57	4519
2026-01-02 10:39:14.50	221.17	44.38	-47.8	-49.7	15.6	0.00e+00	0	56	0	605028352	57	4736
2026-01-02 10:39:15.49	221.60	44.55	-48.1	-50.3	15.1	0.00e+00	0	57	0	606076928	58	4808
2026-01-02 10:39:16.48	222.04	44.72	-48.5	-50.8	14.7	0.00e+00	0	56	0	608174080	58	5050
2026-01-02 10:39:17.48	222.48	44.89	-48.5	-50.9	14.5	0.00e+00	0	56	0	610271232	59	4821
2026-01-02 10:39:18.47	222.92	45.06	-48.2	-50.5	14.9	7.00e-07	0	56	0	612368384	59	4608
2026-01-02 10:39:19.45	223.37	45.22	-48.0	-50.0	15.4	0.00e+00	0	56	0	613416960	59	4377
2026-01-02 10:39:20.44	223.82	45.39	-47.9	-49.9	15.5	7.00e-07	0	56	0	615514112	58	4567
2026-01-02 10:39:21.43	224.28	45.55	-48.0	-50.0	15.4	7.00e-07	0	56	0	617611264	58	4636
2026-01-02 10:39:22.42	224.74	45.72	-48.0	-50.2	15.3	0.00e+00	0	56	0	619708416	58	4710
2026-01-02 10:39:23.41	225.21	45.88	-48.1	-50.3	15.2	0.00e+00	0	57	0	621805568	58	4766
2026-01-02 10:39:24.39	225.68	46.04	-48.1	-50.2	15.3	7.00e-07	0	57	0	622854144	58	4724
2026-01-02 10:39:25.38	226.15	46.20	-48.2	-50.3	15.2	0.00e+00	0	56	0	624951296	58	4792
2026-01-02 10:39:26.38	226.64	46.35	-48.3	-50.5	15.0	0.00e+00	0	56	0	627048448	58	4874
2026-01-02 10:39:27.37	227.13	46.51	-48.2	-50.3	15.1	0.00e+00	0	56	0	629145600	58	4772
2026-01-02 10:39:28.35	227.61	46.66	-47.9	-50.0	15.4	0.00e+00	0	57	0	630194176	58	4624
2026-01-02 10:39:29.34	228.11	46.81	-48.0	-50.0	15.4	0.00e+00	0	56	0	632291328	58	4648
2026-01-02 10:39:30.32	228.60	46.96	-48.1	-50.3	15.2	0.00e+00	0	57	0	634388480	58	4764
2026-01-02 10:39:31.30	229.10	47.11	-48.1	-50.3	15.1	0.00e+00	0	57	0	636485632	58	4784
2026-01-02 10:39:32.30	229.62	47.26	-48.1	-50.3	15.1	0.00e+00	0	56	0	637534208	58	4785
2026-01-02 10:39:33.29	230.13	47.40	-47.8	-49.8	15.6	0.00e+00	0	56	0	639631360	58	4514
2026-01-02 10:39:34.28	230.65	47.55	-47.7	-49.7	15.7	0.00e+00	0	57	0	641728512	58	4474
2026-01-02 10:39:35.28	231.18	47.69	-47.6	-49.6	15.9	0.00e+00	0	57	0	643825664	58	4399
2026-01-02 10:39:36.27	231.71	47.83	-47.6	-49.5	15.9	0.00e+00	0	56	0	645922816	58	4367
2026-01-02 10:39:37.25	232.24	47.96	-47.5	-49.3	16.1	0.00e+00	0	56	0	646971392	58	4270
2026-01-02 10:39:38.25	232.78	48.10	-47.8	-49.7	15.8	0.00e+00	0	57	0	649068544	58	4444
2026-01-02 10:39:39.23	233.32	48.23	-47.9	-49.8	15.6	0.00e+00	0	57	0	651165696	58	4538
2026-01-02 10:39:40.22	233.86	48.36	-47.9	-49.9	15.5	0.00e+00	0	57	0	653262848	58	4578
2026-01-02 10:39:41.21	234.42	48.49	-47.5	-49.4	16.0	0.00e+00	0	57	0	654311424	58	4302
2026-01-02 10:39:42.20	234.97	48.61	-47.5	-49.3	16.2	0.00e+00	0	57	0	656408576	58	4258
2026-01-02 10:39:43.18	235.53	48.73	-47.6	-49.5	16.0	0.00e+00	0	57	0	658505728	58	4341
2026-01-02 10:39:44.17	236.09	48.85	-47.7	-49.6	15.8	0.00e+00	0	56	0	660602880	58	4421
2026-01-02 10:39:45.16	236.66	48.97	-47.9	-49.7	15.7	0.00e+00	0	56	0	661651456	58	4488
2026-01-02 10:39:46.16	237.24	49.09	-47.9	-49.8	15.6	0.00e+00	0	57	0	663748608	58	4534
2026-01-02 10:39:47.15	237.82	49.20	-48.0	-50.0	15.4	0.00e+00	0	56	0	665845760	58	4625
2026-01-02 10:39:48.14	238.40	49.31	-47.9	-49.9	15.6	0.00e+00	0	57	0	667942912	58	4581
2026-01-02 10:39:49.12	238.98	49.41	-48.1	-50.2	15.2	0.00e+00	0	56	0	670040064	58	4744
2026-01-02 10:39:50.11	239.57	49.51	-48.7	-51.1	14.3	7.00e-07	0	57	0	671088640	59	4944
2026-01-02 10:39:51.09	240.16	49.61	-49.0	-51.6	13.8	3.80e-06	0	57	0	673185792	59	5256
2026-01-02 10:39:52.08	240.75	49.71	-48.9	-51.6	13.9	3.00e-06	0	57	0	675282944	59	5222
2026-01-02 10:39:53.07	241.35	49.80	-48.6	-51.0	14.4	7.00e-07	0	57	0	677380096	59	4893
2026-01-02 10:39:54.06	241.96	49.90	-48.4	-50.6	14.8	0.00e+00	0	57	0	678428672	59	4701
2026-01-02 10:39:55.04	242.56	49.98	-48.7	-51.1	14.4	0.00e+00	0	57	0	680525824	59	4946
2026-01-02 10:39:56.03	243.17	50.07	-48.6	-50.9	14.5	7.00e-07	0	57	0	682622976	59	4853
2026-01-02 10:39:57.02	243.79	50.15	-48.9	-51.5	14.0	2.20e-06	0	57	0	684720128	59	5185
2026-01-02 10:39:58.02	244.41	50.23	-48.7	-51.2	14.2	7.00e-07	0	57	0	685768704	59	5000
2026-01-02 10:39:59.01	245.03	50.30	-48.4	-50.6	14.8	7.00e-07	0	57	0	687865856	59	4687
2026-01-02 10:40:00.00	245.66	50.37	-48.0	-50.0	15.4	0.00e+00	0	57	0	689963008	59	4354
2026-01-02 10:40:00.99	246.29	50.44	-47.5	-49.3	16.2	0.00e+00	0	57	0	692060160	58	4247
2026-01-02 10:40:01.98	246.92	50.51	-47.3	-49.1	16.4	0.00e+00	0	57	0	694157312	57	4405
2026-01-02 10:40:02.96	247.54	50.57	-47.5	-49.3	16.1	0.00e+00	0	57	0	695205888	57	4528
2026-01-02 10:40:03.94	248.17	50.62	-47.4	-49.2	16.2	0.00e+00	0	57	0	697303040	57	4468
2026-01-02 10:40:04.93	248.81	50.68	-47.6	-49.4	16.1	0.00e+00	0	57	0	699400192	57	4561
2026-01-02 10:40:05.92	249.45	50.73	-47.6	-49.5	15.9	0.00e+00	0	57	0	701497344	57	4634
2026-01-02 10:40:06.92	250.09	50.77	-47.7	-49.6	15.9	0.00e+00	0	57	0	702545920	57	4654
2026-01-02 10:40:07.91	250.74	50.82	-47.6	-49.4	16.0	0.00e+00	0	57	0	704643072	57	4597
2026-01-02 10:40:08.89	251.38	50.86	-47.5	-49.3	16.1	0.00e+00	0	57	0	706740224	57	4518
2026-01-02 10:40:09.87	252.02	50.89	-47.5	-49.3	16.1	0.00e+00	0	57	0	708837376	57	4517
2026-01-02 10:40:10.86	252.66	50.92	-47.6	-49.4	16.0	0.00e+00	0	57	0	709885952	57	4589
2026-01-02 10:40:11.84	253.31	50.95	-47.2	-48.8	16.6	0.00e+00	0	57	0	711983104	57	4274
2026-01-02 10:40:12.83	253.96	50.98	-47.3	-49.0	16.3	0.00e+00	0	57	0	714080256	57	4391
2026-01-02 10:40:13.82	254.61	51.00	-47.4	-49.2	16.2	0.00e+00	0	57	0	716177408	57	4449
2026-01-02 10:40:14.81	255.26	51.01	-47.5	-49.2	16.2	0.00e+00	0	57	0	717225984	57	4475
2026-01-02 10:40:15.80	255.91	51.03	-47.2	-48.9	16.5	0.00e+00	0	57	0	719323136	57	4302
2026-01-02 10:40:16.79	256.56	51.03	-47.1	-48.7	16.7	0.00e+00	0	57	0	721420288	57	4204
2026-01-02 10:40:17.79	257.22	51.04	-47.3	-49.1	16.4	0.00e+00	0	57	0	723517440	57	4419
2026-01-02 10:40:18.78	257.88	51.04	-47.8	-49.8	15.6	0.00e+00	0	57	0	725614592	57	4778
2026-01-02 10:40:19.77	258.53	51.04	-48.0	-50.0	15.4	0.00e+00	0	57	0	726663168	57	4884
2026-01-02 10:40:20.77	259.19	51.03	-48.1	-50.2	15.3	0.00e+00	0	57	0	728760320	58	4714
2026-01-02 10:40:21.76	259.84	51.02	-48.3	-50.5	14.9	7.00e-07	0	57	0	730857472	58	4926
2026-01-02 10:40:22.75	260.50	51.01	-48.4	-50.6	14.8	7.00e-07	0	57	0	732954624	58	4965
2026-01-02 10:40:23.74	261.15	50.99	-48.7	-51.1	14.3	0.00e+00	0	57	0	734003200	59	4952
2026-01-02 10:40:24.74	261.81	50.97	-48.6	-51.0	14.4	0.00e+00	0	57	0	736100352	59	4914
2026-01-02 10:40:25.73	262.45	50.94	-48.5	-50.8	14.7	0.00e+00	0	57	0	738197504	59	4776
2026-01-02 10:40:26.72	263.10	50.91	-48.5	-50.7	14.7	0.00e+00	0	57	0	740294656	59	4731
2026-01-02 10:40:27.71	263.75	50.88	-48.5	-50.7	14.7	0.00e+00	0	57	0	741343232	59	4721
2026-01-02 10:40:28.70	264.40	50.84	-48.7	-51.1	14.3	0.00e+00	0	57	0	743440384	59	4977
2026-01-02 10:40:29.68	265.03	50.80	-49.0	-51.8	13.6	2.20e-06	0	57	0	745537536	60	5043
2026-01-02 10:40:30.67	265.68	50.76	-48.9	-51.5	13.9	3.80e-06	0	57	0	747634688	60	4907
2026-01-02 10:40:31.66	266.32	50.71	-48.2	-50.4	15.0	1.50e-06	0	57	0	749731840	59	4562
2026-01-02 10:40:32.64	266.95	50.66	-47.7	-49.6	15.9	0.00e+00	0	57	0	750780416	58	4413
2026-01-02 10:40:33.62	267.58	50.61	-47.8	-49.7	15.7	0.00e+00	0	57	0	752877568	58	4453
2026-01-02 10:40:34.62	268.22	50.55	-48.0	-50.1	15.4	0.00e+00	0	57	0	754974720	58	4671
2026-01-02 10:40:35.60	268.84	50.49	-48.3	-50.5	14.9	0.00e+00	0	57	0	757071872	58	4895
2026-01-02 10:40:36.59	269.47	50.42	-48.1	-50.1	15.3	7.00e-07	0	57	0	758120448	58	4699
2026-01-02 10:40:37.58	270.10	50.35	-47.9	-49.9	15.5	0.00e+00	0	57	0	760217600	58	4568
2026-01-02 10:40:38.57	270.72	50.28	-48.0	-50.1	15.3	0.00e+00	0	57	0	762314752	58	4699
2026-01-02 10:40:39.57	271.34	50.20	-48.7	-51.1	14.3	0.00e+00	0	57	0	764411904	59	4971
2026-01-02 10:40:40.56	271.96	50.12	-49.0	-51.7	13.8	2.20e-06	0	57	0	765460480	60	4989
2026-01-02 10:40:41.55	272.57	50.04	-48.4	-50.6	14.9	3.00e-06	0	57	0	767557632	59	4662
2026-01-02 10:40:42.54	273.18	49.96	-48.0	-50.0	15.5	0.00e+00	0	57	0	769654784	59	4357
2026-01-02 10:40:43.53	273.79	49.87	-48.0	-50.0	15.4	0.00e+00	0	57	0	771751936	59	4376
2026-01-02 10:40:44.52	274.39	49.77	-48.7	-51.2	14.2	0.00e+00	0	57	0	773849088	59	5041
2026-01-02 10:40:45.51	274.99	49.68	-49.5	-52.6	12.8	1.14e-05	0	57	0	774897664	60	5560
2026-01-02 10:40:46.50	275.59	49.58	-49.6	-52.8	12.5	1.54e-04	0	57	0	776994816	61	5363
2026-01-02 10:40:47.49	276.18	49.48	-49.1	-51.8	13.5	3.20e-05	0	57	0	779091968	61	4811
2026-01-02 10:40:48.47	276.76	49.38	-49.1	-51.8	13.6	8.30e-06	0	57	0	781189120	61	4773
2026-01-02 10:40:49.46	277.35	49.27	-49.5	-52.6	12.8	2.28e-05	0	57	0	782237696	61	5252
2026-01-02 10:40:50.46	277.93	49.16	-50.1	-53.9	11.5	3.51e-04	0	57	0	784334848	62	5756
2026-01-02 10:40:51.45	278.51	49.05	-50.5	-54.6	10.7	2.21e-03	0	57	0	786432000	62	6239
2026-01-02 10:40:52.44	279.08	48.93	-50.0	-53.6	11.8	1.17e-03	0	57	0	788529152	62	5529
2026-01-02 10:40:53.44	279.65	48.81	-49.5	-52.6	12.8	1.16e-04	0	57	0	790626304	62	4941
2026-01-02 10:40:54.43	280.21	48.69	-49.8	-53.1	12.3	6.33e-05	0	57	0	791674880	62	5239
2026-01-02 10:40:55.43	280.78	48.57	-50.1	-53.9	11.4	5.39e-04	0	57	0	793772032	62	5726
2026-01-02 10:40:56.42	281.33	48.44	-50.3	-54.1	11.2	1.13e-03	0	57	0	795869184	62	5884
2026-01-02 10:40:57.41	281.88	48.32	-49.9	-53.5	11.8	6.56e-04	0	57	0	797966336	62	5481
2026-01-02 10:40:58.39	282.42	48.19	-49.4	-52.4	13.0	7.85e-05	0	57	0	799014912	61	5153
2026-01-02 10:40:59.37	282.95	48.06	-49.6	-52.8	12.6	3.35e-05	0	57	0	801112064	61	5343
2026-01-02 10:41:00.36	283.49	47.92	-50.1	-53.8	11.5	2.00e-04	0	57	0	803209216	62	5681
2026-01-02 10:41:01.36	284.02	47.78	-50.4	-54.5	10.8	1.94e-03	0	57	0	805306368	62	6179
2026-01-02 10:41:02.35	284.55	47.64	-49.9	-53.3	12.0	1.31e-03	0	57	0	806354944	62	5369
2026-01-02 10:41:03.34	285.07	47.50	-48.6	-51.0	14.4	1.83e-05	0	57	0	808452096	60	4636
2026-01-02 10:41:04.34	285.59	47.36	-48.4	-50.7	14.8	0.00e+00	0	57	0	810549248	59	4725
2026-01-02 10:41:05.32	286.10	47.21	-48.8	-51.3	14.2	7.00e-07	0	57	0	812646400	59	5047
2026-01-02 10:41:06.30	286.60	47.07	-48.9	-51.6	13.8	4.50e-06	0	57	0	814743552	59	5226
2026-01-02 10:41:07.29	287.10	46.92	-48.5	-50.9	14.6	2.20e-06	0	57	0	815792128	59	4821
2026-01-02 10:41:08.27	287.60	46.77	-48.2	-50.3	15.2	0.00e+00	0	57	0	817889280	59	4511
2026-01-02 10:41:09.26	288.09	46.62	-48.1	-50.2	15.2	0.00e+00	0	57	0	819986432	59	4451
2026-01-02 10:41:10.24	288.57	46.46	-48.3	-50.4	15.0	0.00e+00	0	57	0	822083584	59	4580
2026-01-02 10:41:11.23	289.06	46.31	-48.5	-50.8	14.6	0.00e+00	0	57	0	823132160	59	4801
2026-01-02 10:41:12.22	289.54	46.15	-48.3	-50.4	15.0	0.00e+00	0	57	0	825229312	59	4578
2026-01-02 10:41:13.21	290.01	45.99	-48.1	-50.3	15.1	0.00e+00	0	57	0	827326464	59	4518
2026-01-02 10:41:14.20	290.48	45.83	-48.0	-50.1	15.3	7.00e-07	0	57	0	829423616	59	4392
2026-01-02 10:41:15.17	290.93	45.67	-47.9	-49.9	15.6	0.00e+00	0	57	0	830472192	58	4565
2026-01-02 10:41:16.16	291.39	45.51	-48.1	-50.2	15.2	0.00e+00	0	57	0	832569344	58	4731
2026-01-02 10:41:17.15	291.85	45.35	-48.4	-50.7	14.7	0.00e+00	0	57	0	834666496	58	4995
2026-01-02 10:41:18.14	292.30	45.18	-48.4	-50.7	14.8	0.00e+00	0	57	0	836763648	58	4987
2026-01-02 10:41:19.14	292.75	45.01	-48.8	-51.3	14.1	7.00e-07	0	57	0	837812224	59	5051
2026-01-02 10:41:20.12	293.19	44.85	-48.9	-51.5	13.8	4.50e-06	0	57	0	839909376	59	5194
2026-01-02 10:41:21.11	293.62	44.68	-49.0	-51.7	13.6	6.80e-06	0	57	0	842006528	60	5028
2026-01-02 10:41:22.11	294.06	44.51	-48.5	-50.9	14.5	2.20e-06	0	57	0	844103680	60	4572
2026-01-02 10:41:23.09	294.48	44.34	-48.1	-50.2	15.2	0.00e+00	0	57	0	846200832	59	4469
2026-01-02 10:41:24.08	294.91	44.16	-48.0	-50.1	15.3	0.00e+00	0	57	0	847249408	59	4409
2026-01-02 10:41:25.07	295.33	43.99	-48.1	-50.1	15.3	0.00e+00	0	57	0	849346560	59	4438
2026-01-02 10:41:26.05	295.74	43.82	-48.0	-50.0	15.4	0.00e+00	0	57	0	851443712	59	4374
2026-01-02 10:41:27.03	296.14	43.65	-47.9	-49.8	15.6	0.00e+00	0	57	0	853540864	58	4528
2026-01-02 10:41:28.02	296.55	43.47	-47.8	-49.8	15.6	0.00e+00	0	57	0	854589440	58	4530
2026-01-02 10:41:29.00	296.94	43.30	-47.4	-49.1	16.3	0.00e+00	0	57	0	856686592	57	4439
2026-01-02 10:41:29.98	297.34	43.12	-47.1	-48.7	16.6	0.00e+00	0	57	0	858783744	57	4239
2026-01-02 10:41:30.98	297.73	42.94	-47.3	-49.0	16.4	0.00e+00	0	57	0	860880896	57	4384
2026-01-02 10:41:31.97	298.12	42.77	-47.9	-49.9	15.5	0.00e+00	0	57	0	861929472	57	4851
2026-01-02 10:41:32.96	298.51	42.59	-48.5	-50.7	14.7	0.00e+00	0	57	0	864026624	58	5034
2026-01-02 10:41:33.95	298.88	42.41	-48.3	-50.5	14.9	0.00e+00	0	57	0	866123776	58	4878
2026-01-02 10:41:34.95	299.26	42.23	-47.6	-49.4	16.0	0.00e+00	0	57	0	868220928	58	4340
2026-01-02 10:41:35.93	299.63	42.05	-47.2	-48.9	16.5	0.00e+00	0	57	0	870318080	57	4314
2026-01-02 10:41:36.92	300.00	41.87	-47.6	-49.4	16.0	0.00e+00	0	57	0	871366656	57	4556
2026-01-02 10:41:37.91	300.36	41.69	-48.3	-50.5	15.0	0.00e+00	0	57	0	873463808	58	4877
2026-01-02 10:41:38.90	300.72	41.51	-48.9	-51.5	13.8	3.00e-06	0	57	0	875560960	59	5180
2026-01-02 10:41:39.90	301.08	41.32	-48.9	-51.5	13.9	7.60e-06	0	57	0	877658112	59	5178
2026-01-02 10:41:40.89	301.43	41.14	-48.5	-50.8	14.6	0.00e+00	0	57	0	878706688	59	4788
2026-01-02 10:41:41.88	301.78	40.96	-48.1	-50.2	15.2	0.00e+00	0	57	0	880803840	59	4480
2026-01-02 10:41:42.87	302.12	40.78	-48.2	-50.2	15.2	0.00e+00	0	57	0	882900992	59	4492
2026-01-02 10:41:43.86	302.46	40.60	-48.1	-50.2	15.2	0.00e+00	0	57	0	884998144	59	4473
2026-01-02 10:41:44.84	302.80	40.41	-48.7	-51.2	14.2	7.00e-07	0	57	0	886046720	59	5025
2026-01-02 10:41:45.83	303.13	40.23	-49.1	-51.9	13.4	4.50e-06	0	57	0	888143872	60	5118
2026-01-02 10:41:46.83	303.46	40.05	-49.3	-52.2	13.1	1.75e-05	0	57	0	890241024	60	5310
2026-01-02 10:41:47.81	303.78	39.87	-48.9	-51.5	13.7	1.67e-05	0	57	0	892338176	60	4924
2026-01-02 10:41:48.80	304.10	39.68	-48.6	-51.0	14.4	7.00e-07	0	57	0	894435328	60	4614
2026-01-02 10:41:49.78	304.42	39.50	-48.7	-51.2	14.2	0.00e+00	0	57	0	895483904	60	4731
2026-01-02 10:41:50.77	304.73	39.32	-49.2	-52.0	13.3	7.60e-06	0	57	0	897581056	60	5199
2026-01-02 10:41:51.76	305.04	39.14	-49.8	-53.1	12.2	1.01e-04	0	57	0	899678208	61	5582
2026-01-02 10:41:52.75	305.35	38.95	-49.9	-53.5	11.8	4.60e-04	0	57	0	901775360	61	5814
2026-01-02 10:41:53.73	305.65	38.77	-50.0	-53.7	11.6	6.90e-04	0	57	0	902823936	61	5945
2026-01-02 10:41:54.72	305.95	38.59	-49.7	-53.1	12.1	4.13e-04	0	57	0	904921088	61	5564
2026-01-02 10:41:55.71	306.25	38.41	-49.3	-52.4	12.9	8.92e-05	0	57	0	907018240	61	5117
2026-01-02 10:41:56.70	306.54	38.23	-49.0	-51.7	13.6	2.59e-05	0	57	0	909115392	61	4740
2026-01-02 10:41:57.68	306.83	38.05	-48.9	-51.5	13.9	3.00e-06	0	57	0	910163968	60	4871
2026-01-02 10:41:58.68	307.12	37.86	-48.8	-51.4	14.0	4.50e-06	0	57	0	912261120	60	4821
2026-01-02 10:41:59.67	307.41	37.68	-49.0	-51.7	13.7	3.00e-06	0	57	0	914358272	60	4998
2026-01-02 10:42:00.65	307.69	37.50	-49.5	-52.6	12.7	1.22e-05	0	57	0	916455424	60	5560
2026-01-02 10:42:01.64	307.97	37.32	-49.7	-53.0	12.3	1.33e-04	0	57	0	917504000	61	5466
2026-01-02 10:42:02.64	308.24	37.14	-49.4	-52.5	12.9	1.12e-04	0	57	0	919601152	61	5164
2026-01-02 10:42:03.63	308.52	36.96	-48.8	-51.4	14.0	2.05e-05	0	57	0	921698304	60	4820
2026-01-02 10:42:04.62	308.79	36.78	-48.3	-50.5	14.9	0.00e+00	0	57	0	923795456	59	4613
2026-01-02 10:42:05.61	309.05	36.60	-48.1	-50.2	15.2	0.00e+00	0	57	0	925892608	59	4474
2026-01-02 10:42:06.59	309.31	36.42	-48.6	-50.8	14.6	0.00e+00	0	57	0	926941184	59	4801
2026-01-02 10:42:07.57	309.57	36.24	-49.0	-51.6	13.7	2.20e-06	0	57	0	929038336	59	5277
2026-01-02 10:42:08.56	309.83	36.06	-49.6	-52.8	12.5	7.60e-06	0	57	0	931135488	61	5382
2026-01-02 10:42:09.54	310.08	35.89	-50.3	-54.4	11.0	1.53e-03	0	57	0	933232640	62	6064
2026-01-02 10:42:10.54	310.34	35.71	-50.4	-54.7	10.6	2.64e-03	0	57	0	934281216	62	6276
2026-01-02 10:42:11.53	310.59	35.53	-49.9	-53.4	11.8	2.62e-03	0	57	0	936378368	62	5448
2026-01-02 10:42:12.51	310.83	35.35	-48.7	-51.3	14.1	1.06e-05	0	57	0	938475520	60	4762
2026-01-02 10:42:13.50	311.08	35.18	-47.9	-49.9	15.5	0.00e+00	0	57	0	940572672	58	4548
2026-01-02 10:42:14.49	311.32	35.00	-47.4	-49.1	16.2	0.00e+00	0	57	0	941621248	57	4411
2026-01-02 10:42:15.47	311.56	34.82	-47.5	-49.4	16.0	0.00e+00	0	57	0	943718400	57	4557
2026-01-02 10:42:16.46	311.80	34.65	-48.2	-50.3	15.0	0.00e+00	0	57	0	945815552	58	4811
2026-01-02 10:42:17.45	312.03	34.47	-49.1	-51.8	13.5	0.00e+00	0	57	0	947912704	59	5383
2026-01-02 10:42:18.43	312.26	34.30	-49.8	-53.4	11.9	1.26e-04	0	57	0	950009856	61	5736
2026-01-02 10:42:19.43	312.49	34.12	-50.1	-54.0	11.3	6.87e-04	0	57	0	951058432	62	5796
2026-01-02 10:42:20.42	312.72	33.95	-49.8	-53.2	12.1	7.00e-04	0	57	0	953155584	62	5314
2026-01-02 10:42:21.41	312.95	33.78	-48.8	-51.4	13.9	2.44e-05	0	57	0	955252736	60	4869
2026-01-02 10:42:22.39	313.17	33.61	-48.1	-50.2	15.2	7.00e-07	0	57	0	957349888	59	4449
2026-01-02 10:42:23.38	313.39	33.43	-47.8	-49.9	15.5	0.00e+00	0	57	0	958398464	58	4550
2026-01-02 10:42:24.37	313.60	33.26	-47.9	-49.9	15.5	0.00e+00	0	57	0	960495616	58	4578
2026-01-02 10:42:25.36	313.82	33.09	-48.4	-50.6	14.7	0.00e+00	0	57	0	962592768	58	4975
2026-01-02 10:42:26.34	314.03	32.92	-49.0	-51.7	13.7	7.00e-07	0	57	0	964689920	59	5316
2026-01-02 10:42:27.33	314.24	32.75	-49.5	-52.7	12.5	8.31e-05	0	57	0	965738496	60	5654
2026-01-02 10:42:28.32	314.45	32.58	-49.8	-53.2	12.1	3.04e-04	0	57	0	967835648	61	5645
2026-01-02 10:42:29.31	314.66	32.41	-49.5	-52.8	12.5	2.59e-04	0	57	0	969932800	61	5362
2026-01-02 10:42:30.29	314.86	32.25	-49.0	-51.9	13.4	6.79e-05	0	57	0	972029952	61	4820
2026-01-02 10:42:31.28	315.07	32.08	-48.6	-51.0	14.4	1.50e-06	0	57	0	974127104	60	4615
2026-01-02 10:42:32.27	315.27	31.91	-48.4	-50.7	14.7	0.00e+00	0	57	0	975175680	59	4706
2026-01-02 10:42:33.26	315.47	31.75	-48.4	-50.7	14.7	0.00e+00	0	57	0	977272832	59	4724
2026-01-02 10:42:34.25	315.66	31.58	-48.0	-50.1	15.2	0.00e+00	0	57	0	979369984	59	4407
2026-01-02 10:42:35.24	315.86	31.41	-48.3	-50.6	14.8	0.00e+00	0	57	0	981467136	59	4669
2026-01-02 10:42:36.22	316.05	31.25	-48.8	-51.3	14.1	7.00e-07	0	57	0	982515712	59	5067
2026-01-02 10:42:37.21	316.24	31.09	-49.3	-52.3	13.0	3.00e-06	0	57	0	984612864	60	5355
2026-01-02 10:42:38.20	316.43	30.92	-49.7	-53.2	12.1	9.61e-05	0	57	0	986710016	61	5593
2026-01-02 10:42:39.19	316.62	30.76	-50.0	-53.9	11.4	8.18e-04	0	57	0	988807168	61	6081
2026-01-02 10:42:40.19	316.81	30.59	-50.1	-54.0	11.2	1.20e-03	0	57	0	989855744	62	5838
2026-01-02 10:42:41.17	316.99	30.43	-50.0	-53.8	11.4	1.49e-03	0	57	0	991952896	62	5689
2026-01-02 10:42:42.16	317.17	30.27	-49.4	-52.5	12.7	1.41e-04	0	57	0	994050048	62	4922
2026-01-02 10:42:43.15	317.35	30.11	-48.8	-51.5	13.8	9.90e-06	0	57	0	996147200	60	4879
2026-01-02 10:42:44.14	317.53	29.95	-48.4	-50.6	14.7	7.00e-07	0	57	0	997195776	59	4702
2026-01-02 10:42:45.13	317.71	29.79	-48.2	-50.4	14.9	7.00e-07	0	57	0	999292928	59	4583
2026-01-02 10:42:46.12	317.88	29.63	-48.1	-50.1	15.2	0.00e+00	0	57	0	1001390080	59	4437
2026-01-02 10:42:47.11	318.06	29.47	-48.2	-50.4	14.9	0.00e+00	0	57	0	1003487232	59	4578
2026-01-02 10:42:48.10	318.23	29.32	-48.4	-50.7	14.6	0.00e+00	0	57	0	1005584384	59	4725
2026-01-02 10:42:49.09	318.40	29.16	-48.5	-50.8	14.5	7.00e-07	0	57	0	1006632960	59	4781
2026-01-02 10:42:50.07	318.56	29.01	-48.9	-51.5	13.8	1.50e-06	0	57	0	1008730112	59	5198
2026-01-02 10:42:51.07	318.73	28.85	-48.9	-51.6	13.7	6.80e-06	0	57	0	1010827264	59	5276
2026-01-02 10:42:52.06	318.90	28.69	-49.0	-51.7	13.6	6.80e-06	0	57	0	1012924416	59	5332
2026-01-02 10:42:53.04	319.06	28.54	-48.9	-51.5	13.8	7.60e-06	0	57	0	1013972992	59	5177
2026-01-02 10:42:54.03	319.22	28.39	-48.8	-51.2	14.1	3.00e-06	0	57	0	1016070144	59	5020
2026-01-02 10:42:55.02	319.38	28.23	-48.5	-51.0	14.3	7.00e-07	0	57	0	1018167296	59	4879
2026-01-02 10:42:56.01	319.54	28.08	-48.5	-50.9	14.4	7.00e-07	0	57	0	1020264448	59	4826
2026-01-02 10:42:57.00	319.70	27.93	-48.1	-50.3	15.0	0.00e+00	0	57	0	1021313024	59	4512
2026-01-02 10:42:57.99	319.86	27.77	-47.9	-50.0	15.3	0.00e+00	0	57	0	1023410176	59	4372
2026-01-02 10:42:58.98	320.01	27.62	-48.0	-50.1	15.3	0.00e+00	0	57	0	1025507328	58	4682
2026-01-02 10:42:59.97	320.17	27.47	-47.8	-49.8	15.5	0.00e+00	0	57	0	1027604480	58	4516
2026-01-02 10:43:00.96	320.32	27.32	-47.6	-49.5	15.8	0.00e+00	0	57	0	1029701632	58	4347
2026-01-02 10:43:01.94	320.47	27.18	-47.8	-49.8	15.6	0.00e+00	0	58	0	1030750208	58	4494
2026-01-02 10:43:02.93	320.62	27.03	-47.7	-49.7	15.7	0.00e+00	0	57	0	1032847360	58	4443
2026-01-02 10:43:03.92	320.77	26.88	-47.8	-49.8	15.5	0.00e+00	0	57	0	1034944512	58	4514
2026-01-02 10:43:04.91	320.91	26.73	-47.9	-49.9	15.4	0.00e+00	0	57	0	1037041664	58	4569
2026-01-02 10:43:05.90	321.06	26.59	-48.0	-50.0	15.3	0.00e+00	0	57	0	1038090240	58	4615
2026-01-02 10:43:06.89	321.20	26.44	-48.0	-50.1	15.2	0.00e+00	0	57	0	1040187392	58	4665
2026-01-02 10:43:07.88	321.35	26.29	-48.1	-50.3	15.0	0.00e+00	0	57	0	1042284544	58	4805
2026-01-02 10:43:08.87	321.49	26.15	-48.1	-50.3	15.0	0.00e+00	0	57	0	1044381696	58	4799
2026-01-02 10:43:09.85	321.63	26.01	-48.1	-50.3	15.0	0.00e+00	0	57	0	1045430272	58	4783
2026-01-02 10:43:10.83	321.77	25.86	-48.2	-50.4	14.9	7.00e-07	0	57	0	1047527424	58	4848
2026-01-02 10:43:11.82	321.90	25.72	-48.0	-50.2	15.1	0.00e+00	0	57	0	1049624576	58	4715
2026-01-02 10:43:12.80	322.04	25.58	-47.9	-50.0	15.3	0.00e+00	0	58	0	1051721728	58	4623
2026-01-02 10:43:13.80	322.18	25.44	-47.7	-49.8	15.5	0.00e+00	0	57	0	1052770304	58	4512
2026-01-02 10:43:14.79	322.31	25.30	-47.8	-49.9	15.5	0.00e+00	0	57	0	1054867456	58	4552
2026-01-02 10:43:15.76	322.44	25.16	-47.8	-49.7	15.6	0.00e+00	0	58	0	1056964608	58	4468
2026-01-02 10:43:16.76	322.58	25.02	-47.8	-49.7	15.6	0.00e+00	0	57	0	1059061760	58	4480
2026-01-02 10:43:17.74	322.71	24.88	-47.8	-49.8	15.5	0.00e+00	0	57	0	1061158912	58	4510
2026-01-02 10:43:18.72	322.83	24.74	-47.9	-50.0	15.3	0.00e+00	0	57	0	1062207488	58	4599
2026-01-02 10:43:19.71	322.96	24.60	-48.1	-50.3	15.0	0.00e+00	0	57	0	1064304640	58	4769
2026-01-02 10:43:20.70	323.09	24.46	-48.1	-50.3	15.0	0.00e+00	0	58	0	1066401792	58	4783
2026-01-02 10:43:21.70	323.22	24.33	-48.3	-50.6	14.7	0.00e+00	0	57	0	1068498944	58	4947
2026-01-02 10:43:22.69	323.35	24.19	-48.4	-50.7	14.6	0.00e+00	0	57	0	1069547520	58	5013
2026-01-02 10:43:23.68	323.47	24.05	-48.3	-50.5	14.8	0.00e+00	0	57	0	1071644672	58	4896
2026-01-02 10:43:24.66	323.59	23.92	-48.1	-50.3	15.0	7.00e-07	0	57	0	1073741824	58	4773
2026-01-02 10:43:25.65	323.72	23.78	-48.0	-50.1	15.2	0.00e+00	0	57	0	1075838976	58	4681
2026-01-02 10:43:26.64	323.84	23.65	-47.9	-49.9	15.3	7.00e-07	0	57	0	1076887552	58	4595
2026-01-02 10:43:27.63	323.96	23.52	-47.9	-49.9	15.3	0.00e+00	0	57	0	1078984704	58	4546
2026-01-02 10:43:28.62	324.08	23.38	-47.6	-49.4	15.8	0.00e+00	0	57	0	1081081856	58	4318
2026-01-02 10:43:29.60	324.19	23.25	-47.5	-49.4	15.9	0.00e+00	0	58	0	1083179008	58	4314
2026-01-02 10:43:30.59	324.31	23.12	-47.5	-49.4	15.9	0.00e+00	0	57	0	1085276160	58	4310
2026-01-02 10:43:31.57	324.43	22.99	-47.4	-49.2	16.1	0.00e+00	0	57	0	1086324736	58	4226
2026-01-02 10:43:32.55	324.54	22.86	-47.5	-49.3	15.9	0.00e+00	0	57	0	1088421888	57	4540
2026-01-02 10:43:33.54	324.66	22.73	-47.5	-49.4	15.8	0.00e+00	0	57	0	1090519040	57	4579
2026-01-02 10:43:34.52	324.77	22.60	-47.5	-49.4	15.8	0.00e+00	0	57	0	1092616192	57	4564
2026-01-02 10:43:35.51	324.88	22.47	-47.6	-49.5	15.8	0.00e+00	0	57	0	1093664768	57	4607
2026-01-02 10:43:36.50	325.00	22.34	-47.5	-49.4	15.9	0.00e+00	0	57	0	1095761920	57	4554
2026-01-02 10:43:37.49	325.11	22.22	-47.5	-49.4	15.9	0.00e+00	0	57	0	1097859072	57	4555
2026-01-02 10:43:38.48	325.22	22.09	-47.5	-49.3	15.9	0.00e+00	0	57	0	1099956224	57	4537
2026-01-02 10:43:39.47	325.33	21.96	-47.4	-49.3	16.0	0.00e+00	0	57	0	1101004800	57	4495
2026-01-02 10:43:40.46	325.44	21.83	-47.5	-49.3	15.9	0.00e+00	0	58	0	1103101952	57	4544
2026-01-02 10:43:41.44	325.54	21.71	-47.5	-49.4	15.8	0.00e+00	0	57	0	1105199104	57	4580
2026-01-02 10:43:42.42	325.65	21.59	-47.5	-49.5	15.8	0.00e+00	0	57	0	1107296256	57	4602
2026-01-02 10:43:43.41	325.76	21.46	-47.7	-49.7	15.5	0.00e+00	0	57	0	1108344832	57	4725
2026-01-02 10:43:44.40	325.86	21.34	-47.8	-49.9	15.4	0.00e+00	0	58	0	1110441984	57	4834
2026-01-02 10:43:45.38	325.96	21.21	-47.9	-49.9	15.3	0.00e+00	0	58	0	1112539136	57	4857
2026-01-02 10:43:46.37	326.07	21.09	-47.9	-50.1	15.2	0.00e+00	0	57	0	1114636288	57	4933
2026-01-02 10:43:47.37	326.17	20.97	-47.9	-50.1	15.1	0.00e+00	0	57	0	1116733440	57	4952
2026-01-02 10:43:48.36	326.27	20.84	-48.1	-50.2	15.0	0.00e+00	0	57	0	1117782016	58	4745
2026-01-02 10:43:49.35	326.38	20.72	-48.2	-50.4	14.8	0.00e+00	0	57	0	1119879168	58	4832
2026-01-02 10:43:50.34	326.48	20.60	-48.2	-50.4	14.8	0.00e+00	0	57	0	1121976320	58	4856
2026-01-02 10:43:51.33	326.58	20.48	-48.2	-50.3	14.9	0.00e+00	0	57	0	1124073472	58	4814
2026-01-02 10:43:52.33	326.68	20.36	-48.2	-50.4	14.8	0.00e+00	0	57	0	1125122048	58	4869
2026-01-02 10:43:53.31	326.77	20.24	-48.2	-50.5	14.7	1.50e-06	0	57	0	1127219200	58	4891
2026-01-02 10:43:54.29	326.87	20.12	-48.1	-50.2	15.0	0.00e+00	0	57	0	1129316352	58	4758
2026-01-02 10:43:55.28	326.97	20.00	-48.0	-50.2	15.0	0.00e+00	0	57	0	1131413504	58	4714
2026-01-02 10:43:56.28	327.07	19.88	-48.0	-50.2	15.0	0.00e+00	0	57	0	1132462080	58	4733
2026-01-02 10:43:57.26	327.16	19.77	-48.1	-50.2	15.0	0.00e+00	0	57	0	1134559232	58	4747
2026-01-02 10:43:58.25	327.26	19.65	-48.2	-50.4	14.8	7.00e-07	0	58	0	1136656384	58	4838
2026-01-02 10:43:59.23	327.35	19.53	-47.9	-50.0	15.1	0.00e+00	0	57	0	1138753536	58	4643
2026-01-02 10:44:00.22	327.44	19.42	-47.8	-49.9	15.3	0.00e+00	0	57	0	1140850688	58	4561
2026-01-02 10:44:01.21	327.54	19.30	-47.8	-49.9	15.3	0.00e+00	0	57	0	1141899264	58	4558
2026-01-02 10:44:02.19	327.63	19.19	-48.0	-50.1	15.1	0.00e+00	0	57	0	1143996416	58	4668
2026-01-02 10:44:03.17	327.72	19.07	-48.2	-50.4	14.7	0.00e+00	0	57	0	1146093568	58	4863
2026-01-02 10:44:04.16	327.81	18.96	-48.2	-50.4	14.7	0.00e+00	0	58	0	1148190720	58	4849
2026-01-02 10:44:05.16	327.90	18.84	-48.2	-50.4	14.7	0.00e+00	0	57	0	1149239296	58	4862
2026-01-02 10:44:06.15	327.99	18.73	-48.3	-50.6	14.6	0.00e+00	0	57	0	1151336448	58	4948
2026-01-02 10:44:07.14	328.08	18.61	-48.3	-50.6	14.6	1.50e-06	0	57	0	1153433600	58	4936
2026-01-02 10:44:08.13	328.17	18.50	-48.3	-50.6	14.6	0.00e+00	0	58	0	1155530752	58	4960
2026-01-02 10:44:09.12	328.25	18.39	-48.4	-50.7	14.5	7.00e-07	0	57	0	1156579328	58	5013
2026-01-02 10:44:10.11	328.34	18.28	-48.2	-50.5	14.7	0.00e+00	0	58	0	1158676480	58	4894
2026-01-02 10:44:11.10	328.43	18.17	-48.1	-50.3	14.9	0.00e+00	0	57	0	1160773632	58	4793
2026-01-02 10:44:12.09	328.51	18.06	-48.0	-50.2	15.0	0.00e+00	0	57	0	1162870784	58	4709
2026-01-02 10:44:13.08	328.60	17.94	-48.0	-50.1	15.1	0.00e+00	0	57	0	1164967936	58	4664
2026-01-02 10:44:14.07	328.68	17.83	-47.9	-50.1	15.1	0.00e+00	0	57	0	1166016512	58	4671
2026-01-02 10:44:15.06	328.77	17.72	-47.8	-49.8	15.4	0.00e+00	0	57	0	1168113664	58	4523
2026-01-02 10:44:16.05	328.85	17.62	-47.9	-50.1	15.1	0.00e+00	0	57	0	1170210816	58	4663
2026-01-02 10:44:17.04	328.94	17.51	-47.7	-49.7	15.5	0.00e+00	0	57	0	1172307968	58	4469
2026-01-02 10:44:18.03	329.02	17.40	-47.5	-49.4	15.8	0.00e+00	0	57	0	1173356544	58	4296
2026-01-02 10:44:19.03	329.10	17.29	-47.3	-49.2	16.0	0.00e+00	0	57	0	1175453696	57	4459
2026-01-02 10:44:20.02	329.18	17.18	-47.3	-49.2	16.0	0.00e+00	0	57	0	1177550848	57	4464
2026-01-02 10:44:21.01	329.26	17.08	-47.3	-49.1	16.0	0.00e+00	0	57	0	1179648000	57	4412
2026-01-02 10:44:22.00	329.34	16.97	-47.4	-49.2	15.9	0.00e+00	0	57	0	1180696576	57	4472
2026-01-02 10:44:22.99	329.42	16.86	-47.3	-49.1	16.0	0.00e+00	0	57	0	1182793728	57	4434
2026-01-02 10:44:23.98	329.50	16.76	-47.4	-49.2	15.9	0.00e+00	0	57	0	1184890880	57	4484
2026-01-02 10:44:24.96	329.58	16.65	-47.4	-49.3	15.8	0.00e+00	0	58	0	1186988032	57	4529
2026-01-02 10:44:25.96	329.66	16.55	-47.5	-49.4	15.7	0.00e+00	0	57	0	1189085184	57	4566
2026-01-02 10:44:26.95	329.74	16.44	-47.6	-49.5	15.6	0.00e+00	0	58	0	1190133760	57	4638
2026-01-02 10:44:27.95	329.82	16.34	-47.6	-49.6	15.5	0.00e+00	0	58	0	1192230912	57	4698
2026-01-02 10:44:28.93	329.89	16.23	-47.7	-49.8	15.3	0.00e+00	0	57	0	1194328064	57	4786
2026-01-02 10:44:29.92	329.97	16.13	-47.9	-50.0	15.1	0.00e+00	0	58	0	1196425216	57	4917
2026-01-02 10:44:30.91	330.04	16.03	-47.9	-50.0	15.1	0.00e+00	0	58	0	1197473792	57	4919
2026-01-02 10:44:31.90	330.12	15.92	-48.0	-50.2	14.9	7.00e-07	0	57	0	1199570944	57	5027
2026-01-02 10:44:32.89	330.19	15.82	-48.0	-50.1	15.0	0.00e+00	0	58	0	1201668096	57	4959
2026-01-02 10:44:33.88	330.27	15.72	-48.0	-50.2	14.9	0.00e+00	0	58	0	1203765248	57	5022
2026-01-02 10:44:34.87	330.34	15.62	-47.9	-50.1	15.0	0.00e+00	0	57	0	1205862400	57	4953
2026-01-02 10:44:35.85	330.41	15.52	-47.9	-50.2	14.9	0.00e+00	0	57	0	1206910976	57	5007
2026-01-02 10:44:36.84	330.49	15.42	-47.9	-50.0	15.1	0.00e+00	0	57	0	1209008128	57	4921
2026-01-02 10:44:37.82	330.56	15.32	-47.7	-49.8	15.2	0.00e+00	0	57	0	1211105280	57	4813
2026-01-02 10:44:38.82	330.63	15.22	-47.7	-49.7	15.4	0.00e+00	0	58	0	1213202432	57	4739
2026-01-02 10:44:39.81	330.70	15.12	-47.6	-49.7	15.4	0.00e+00	0	58	0	1214251008	57	4721
2026-01-02 10:44:40.80	330.77	15.02	-47.6	-49.6	15.4	0.00e+00	0	58	0	1216348160	57	4687
2026-01-02 10:44:41.79	330.84	14.92	-47.6	-49.6	15.5	0.00e+00	0	58	0	1218445312	57	4668
2026-01-02 10:44:42.76	330.91	14.82	-47.7	-49.7	15.4	0.00e+00	0	58	0	1220542464	57	4718
2026-01-02 10:44:43.75	330.98	14.73	-47.8	-49.9	15.2	0.00e+00	0	57	0	1221591040	57	4840
2026-01-02 10:44:44.74	331.05	14.63	-47.7	-49.8	15.3	0.00e+00	0	58	0	1223688192	57	4782
2026-01-02 10:44:45.73	331.12	14.53	-47.5	-49.4	15.6	0.00e+00	0	58	0	1225785344	57	4598
