passes_logs/2026/01/02/R3.0SM8_Murmansk_STILSPACE/R3.0SM8_Murmansk_STILSPACE__20260102_043650_FENGYUN_3D_rec.log

#Pass ID: 20260102_043650_FENGYUN 3D
#Satellite: FENGYUN 3D
#Configuration: FENGYUN 3D
#almurnet v.1.7.20240730
#Start time: 2026-01-02 04:36:50

#Version: 2.2.20231116
#Station: R3.0SM8_Murmansk_STILSPACE
#Location: 33.092731 lon 68.902999 lat
#TLE: 1 43010U 17072A   26001.33100487  .00000602  00000+0  30664-3 0  9999
#TLE: 2 43010  98.9910 332.9374 0001848 133.1047 227.0283 14.19692078421319

#Time	Az	El	Level	Level2	SNR	BER	BlckErr	Temp	State	Recorded	gain1	gain2
2026-01-02 04:36:50.38	34.38	2.98	-52.5	-63.2	3.8	8.45e-01	0	46	0	0	67	12589
2026-01-02 04:36:51.36	34.34	3.05	-52.4	-63.1	3.8	8.46e-01	0	46	104	0	67	12469
2026-01-02 04:36:52.35	34.30	3.11	-52.2	-63.1	3.8	8.45e-01	0	46	104	0	67	12408
2026-01-02 04:36:53.34	34.26	3.17	-52.2	-63.0	3.8	8.45e-01	0	46	104	0	67	12370
2026-01-02 04:36:54.32	34.22	3.23	-52.3	-63.0	3.8	8.46e-01	0	47	104	0	67	12256
2026-01-02 04:36:55.32	34.18	3.30	-52.1	-62.9	3.8	8.46e-01	0	47	104	0	67	12156
2026-01-02 04:36:56.31	34.13	3.36	-52.1	-62.8	3.8	8.46e-01	0	47	104	0	67	12003
2026-01-02 04:36:57.30	34.09	3.42	-51.9	-62.5	3.8	8.45e-01	0	47	104	0	66	12333
2026-01-02 04:36:58.29	34.05	3.49	-51.5	-62.0	3.8	8.46e-01	0	47	104	0	66	11598
2026-01-02 04:36:59.28	34.01	3.55	-51.5	-62.1	3.8	8.45e-01	0	47	104	0	66	11757
2026-01-02 04:37:00.26	33.96	3.62	-51.4	-62.0	3.8	8.46e-01	0	47	104	0	66	11671
2026-01-02 04:37:01.24	33.92	3.68	-51.5	-62.0	3.8	8.46e-01	0	47	104	0	66	11607
2026-01-02 04:37:02.23	33.88	3.74	-51.4	-61.9	3.8	8.45e-01	0	47	104	0	65	12144
2026-01-02 04:37:03.21	33.84	3.81	-51.5	-61.8	3.8	8.46e-01	0	47	104	0	65	12006
2026-01-02 04:37:04.21	33.79	3.87	-51.5	-61.6	3.8	8.46e-01	0	47	104	0	65	11797
2026-01-02 04:37:05.20	33.75	3.94	-51.4	-61.5	3.8	8.46e-01	0	47	104	0	65	11626
2026-01-02 04:37:06.19	33.71	4.00	-51.4	-61.1	3.8	8.46e-01	0	47	104	0	65	11156
2026-01-02 04:37:07.18	33.66	4.07	-51.3	-60.8	3.8	8.45e-01	0	48	104	0	65	10768
2026-01-02 04:37:08.18	33.62	4.13	-51.3	-60.3	3.8	8.45e-01	0	48	104	0	65	10121
2026-01-02 04:37:09.16	33.57	4.20	-51.2	-59.7	3.9	8.45e-01	0	48	104	0	64	10013
2026-01-02 04:37:10.15	33.53	4.26	-51.1	-58.8	4.2	8.40e-01	0	48	0	0	64	8996
2026-01-02 04:37:11.15	33.48	4.33	-50.9	-58.0	4.4	8.32e-01	0	48	0	0	64	8271
2026-01-02 04:37:12.14	33.44	4.39	-50.6	-57.0	4.9	8.00e-01	0	48	0	0	64	7340
2026-01-02 04:37:13.13	33.39	4.46	-50.4	-56.1	5.4	7.39e-01	0	48	0	0	64	6572
2026-01-02 04:37:14.12	33.35	4.52	-50.2	-55.4	6.0	5.40e-01	0	48	0	2097152	63	6430
2026-01-02 04:37:15.11	33.30	4.59	-50.0	-54.4	6.7	2.22e-01	0	48	0	7340032	63	5768
2026-01-02 04:37:16.10	33.26	4.66	-49.5	-53.2	7.9	1.26e-01	0	48	0	13631488	62	5318
2026-01-02 04:37:17.08	33.21	4.72	-49.1	-52.6	8.4	7.16e-02	0	48	0	18874368	61	5271
2026-01-02 04:37:18.06	33.16	4.79	-48.8	-51.9	9.2	3.22e-02	0	48	0	24117248	60	5149
2026-01-02 04:37:19.05	33.12	4.85	-48.4	-51.2	9.9	1.74e-02	0	48	0	29360128	60	4743
2026-01-02 04:37:20.04	33.07	4.92	-48.0	-50.5	10.7	4.16e-03	0	49	0	35651584	59	4604
2026-01-02 04:37:21.03	33.02	4.99	-47.8	-50.1	11.1	2.43e-03	0	49	0	40894464	58	4700
2026-01-02 04:37:22.02	32.98	5.05	-47.5	-49.6	11.6	1.19e-03	0	48	0	46137344	58	4423
2026-01-02 04:37:23.00	32.93	5.12	-47.5	-49.6	11.7	7.19e-04	0	48	0	52428800	57	4671
2026-01-02 04:37:23.99	32.88	5.19	-47.7	-49.9	11.3	1.37e-03	0	49	0	57671680	57	4846
2026-01-02 04:37:24.98	32.83	5.25	-47.4	-49.5	11.8	7.86e-04	0	49	0	62914560	57	4599
2026-01-02 04:37:25.97	32.78	5.32	-47.3	-49.2	12.1	5.43e-04	0	49	0	68157440	57	4488
2026-01-02 04:37:26.96	32.74	5.39	-47.1	-49.0	12.3	2.71e-04	0	49	0	74448896	57	4356
2026-01-02 04:37:27.94	32.69	5.46	-46.9	-48.7	12.6	1.62e-04	0	49	0	79691776	56	4465
2026-01-02 04:37:28.93	32.64	5.52	-46.9	-48.7	12.6	1.13e-04	0	49	0	84934656	56	4470
2026-01-02 04:37:29.91	32.59	5.59	-47.0	-48.8	12.5	1.49e-04	0	49	0	91226112	56	4543
2026-01-02 04:37:30.89	32.54	5.66	-47.3	-49.2	12.1	3.44e-04	0	49	0	96468992	56	4751
2026-01-02 04:37:31.88	32.49	5.73	-47.0	-48.8	12.5	3.20e-04	0	49	0	101711872	56	4530
2026-01-02 04:37:32.86	32.44	5.80	-46.6	-48.3	13.2	4.11e-05	0	49	0	106954752	56	4245
2026-01-02 04:37:33.85	32.39	5.86	-46.1	-47.7	13.6	3.08e-05	0	49	0	113246208	55	4210
2026-01-02 04:37:34.84	32.34	5.93	-45.9	-47.3	13.9	9.10e-06	0	49	0	118489088	55	4050
2026-01-02 04:37:35.82	32.29	6.00	-45.4	-46.7	14.6	2.20e-06	0	49	0	123731968	54	3997
2026-01-02 04:37:36.82	32.24	6.07	-45.3	-46.6	14.7	0.00e+00	0	49	0	130023424	53	4178
2026-01-02 04:37:37.81	32.19	6.14	-45.0	-46.2	15.1	0.00e+00	0	49	0	135266304	53	3984
2026-01-02 04:37:38.80	32.14	6.21	-44.8	-46.0	15.3	1.10e-06	0	50	0	140509184	52	4127
2026-01-02 04:37:39.79	32.08	6.28	-44.9	-46.1	15.3	0.00e+00	0	49	0	146800640	52	4153
2026-01-02 04:37:40.78	32.03	6.35	-44.9	-46.1	15.2	0.00e+00	0	50	0	152043520	52	4174
2026-01-02 04:37:41.77	31.98	6.42	-44.9	-46.1	15.2	0.00e+00	0	50	0	157286400	52	4175
2026-01-02 04:37:42.76	31.93	6.49	-45.1	-46.4	15.0	0.00e+00	0	50	0	162529280	52	4295
2026-01-02 04:37:43.75	31.87	6.56	-44.9	-46.1	15.3	0.00e+00	0	50	0	168820736	52	4169
2026-01-02 04:37:44.73	31.82	6.63	-44.8	-46.0	15.4	0.00e+00	0	50	0	174063616	52	4124
2026-01-02 04:37:45.72	31.77	6.70	-44.8	-46.0	15.4	0.00e+00	0	50	0	179306496	52	4122
2026-01-02 04:37:46.71	31.71	6.77	-45.1	-46.3	15.1	0.00e+00	0	50	0	185597952	52	4269
2026-01-02 04:37:47.70	31.66	6.84	-44.9	-46.2	15.2	0.00e+00	0	50	0	190840832	52	4222
2026-01-02 04:37:48.69	31.61	6.91	-45.0	-46.2	15.2	0.00e+00	0	50	0	196083712	52	4222
2026-01-02 04:37:49.67	31.55	6.98	-45.1	-46.3	15.1	0.00e+00	0	50	0	202375168	52	4276
2026-01-02 04:37:50.66	31.50	7.06	-45.0	-46.2	15.3	0.00e+00	0	50	0	207618048	52	4199
2026-01-02 04:37:51.65	31.44	7.13	-44.9	-46.0	15.4	0.00e+00	0	50	0	212860928	52	4136
2026-01-02 04:37:52.63	31.39	7.20	-44.8	-46.0	15.5	0.00e+00	0	50	0	219152384	52	4107
2026-01-02 04:37:53.63	31.33	7.27	-44.7	-45.9	15.6	0.00e+00	0	50	0	224395264	52	4060
2026-01-02 04:37:54.62	31.27	7.34	-44.9	-46.1	15.4	0.00e+00	0	50	0	229638144	52	4149
2026-01-02 04:37:55.61	31.22	7.42	-44.9	-46.1	15.3	0.00e+00	0	50	0	234881024	52	4179
2026-01-02 04:37:56.59	31.16	7.49	-44.6	-45.8	15.7	0.00e+00	0	50	0	241172480	52	4008
2026-01-02 04:37:57.58	31.10	7.56	-44.5	-45.6	15.9	0.00e+00	0	50	0	246415360	52	3924
2026-01-02 04:37:58.56	31.05	7.63	-44.4	-45.5	16.0	0.00e+00	0	51	0	251658240	52	3895
2026-01-02 04:37:59.55	30.99	7.71	-44.5	-45.6	15.9	0.00e+00	0	50	0	257949696	52	3955
2026-01-02 04:38:00.53	30.93	7.78	-44.5	-45.6	15.8	0.00e+00	0	51	0	263192576	52	3946
2026-01-02 04:38:01.52	30.87	7.85	-44.6	-45.7	15.9	0.00e+00	0	51	0	268435456	51	4203
2026-01-02 04:38:02.51	30.82	7.93	-44.5	-45.6	16.0	0.00e+00	0	51	0	273678336	51	4191
2026-01-02 04:38:03.49	30.76	8.00	-44.5	-45.6	16.0	0.00e+00	0	51	0	279969792	51	4164
2026-01-02 04:38:04.48	30.70	8.07	-44.6	-45.7	15.9	0.00e+00	0	51	0	285212672	51	4232
2026-01-02 04:38:05.47	30.64	8.15	-44.6	-45.7	16.0	0.00e+00	0	51	0	290455552	51	4203
2026-01-02 04:38:06.46	30.58	8.22	-44.5	-45.6	16.0	0.00e+00	0	51	0	296747008	51	4168
2026-01-02 04:38:07.45	30.52	8.30	-44.5	-45.5	16.1	0.00e+00	0	51	0	301989888	51	4139
2026-01-02 04:38:08.43	30.46	8.37	-44.4	-45.5	16.1	0.00e+00	0	51	0	307232768	51	4131
2026-01-02 04:38:09.42	30.40	8.45	-44.4	-45.4	16.2	0.00e+00	0	51	0	312475648	51	4087
2026-01-02 04:38:10.41	30.34	8.52	-44.4	-45.4	16.2	0.00e+00	0	51	0	318767104	51	4093
2026-01-02 04:38:11.40	30.28	8.60	-44.5	-45.5	16.1	0.00e+00	0	51	0	324009984	51	4131
2026-01-02 04:38:12.39	30.21	8.67	-44.5	-45.6	16.1	0.00e+00	0	51	0	330301440	51	4165
2026-01-02 04:38:13.38	30.15	8.75	-44.2	-45.3	16.4	0.00e+00	0	51	0	335544320	51	4019
2026-01-02 04:38:14.37	30.09	8.82	-44.2	-45.3	16.4	0.00e+00	0	51	0	340787200	51	4005
2026-01-02 04:38:15.37	30.03	8.90	-44.3	-45.3	16.4	0.00e+00	0	51	0	346030080	51	4026
2026-01-02 04:38:16.35	29.96	8.98	-44.2	-45.2	16.5	0.00e+00	0	51	0	352321536	51	3972
2026-01-02 04:38:17.34	29.90	9.05	-44.1	-45.1	16.6	0.00e+00	0	51	0	357564416	51	3926
2026-01-02 04:38:18.33	29.84	9.13	-44.0	-45.0	16.7	0.00e+00	0	51	0	362807296	51	3913
2026-01-02 04:38:19.32	29.77	9.21	-44.0	-45.0	16.7	0.00e+00	0	51	0	369098752	51	3891
2026-01-02 04:38:20.31	29.71	9.28	-44.1	-45.1	16.6	0.00e+00	0	51	0	374341632	51	3927
2026-01-02 04:38:21.31	29.64	9.36	-44.1	-45.1	16.7	0.00e+00	0	51	0	379584512	51	3916
2026-01-02 04:38:22.29	29.58	9.44	-44.2	-45.2	16.6	0.00e+00	0	52	0	385875968	51	3963
2026-01-02 04:38:23.28	29.51	9.52	-44.3	-45.3	16.4	0.00e+00	0	52	0	391118848	51	4050
2026-01-02 04:38:24.27	29.45	9.59	-44.1	-45.1	16.7	0.00e+00	0	52	0	396361728	51	3928
2026-01-02 04:38:25.26	29.38	9.67	-44.0	-45.0	16.8	0.00e+00	0	52	0	401604608	51	3884
2026-01-02 04:38:26.24	29.31	9.75	-44.1	-45.1	16.6	0.00e+00	0	52	0	407896064	51	3939
2026-01-02 04:38:27.23	29.25	9.83	-44.2	-45.3	16.5	0.00e+00	0	52	0	413138944	51	4011
2026-01-02 04:38:28.22	29.18	9.91	-44.1	-45.2	16.6	0.00e+00	0	52	0	418381824	51	3963
2026-01-02 04:38:29.20	29.11	9.99	-44.2	-45.1	16.6	0.00e+00	0	52	0	424673280	51	3951
2026-01-02 04:38:30.18	29.04	10.06	-44.2	-45.2	16.6	0.00e+00	0	52	0	429916160	51	3969
2026-01-02 04:38:31.17	28.98	10.14	-44.2	-45.3	16.5	0.00e+00	0	52	0	435159040	51	4007
2026-01-02 04:38:32.16	28.91	10.22	-44.3	-45.4	16.4	0.00e+00	0	52	0	440401920	51	4065
2026-01-02 04:38:33.15	28.84	10.30	-44.4	-45.4	16.4	0.00e+00	0	52	0	446693376	51	4067
2026-01-02 04:38:34.14	28.77	10.38	-44.5	-45.6	16.2	0.00e+00	0	52	0	451936256	51	4171
2026-01-02 04:38:35.12	28.70	10.46	-44.2	-45.3	16.5	0.00e+00	0	52	0	457179136	51	4006
2026-01-02 04:38:36.12	28.63	10.54	-44.1	-45.0	16.8	0.00e+00	0	52	0	463470592	51	3910
2026-01-02 04:38:37.10	28.56	10.62	-43.9	-44.9	16.9	0.00e+00	0	52	0	468713472	51	3853
2026-01-02 04:38:38.09	28.48	10.70	-43.9	-44.8	17.0	0.00e+00	0	52	0	473956352	50	4043
2026-01-02 04:38:39.09	28.41	10.79	-43.8	-44.8	17.0	0.00e+00	0	52	0	480247808	50	4030
2026-01-02 04:38:40.07	28.34	10.87	-43.8	-44.7	17.2	0.00e+00	0	52	0	485490688	50	3983
2026-01-02 04:38:41.05	28.27	10.95	-43.8	-44.7	17.1	0.00e+00	0	52	0	490733568	50	3989
2026-01-02 04:38:42.04	28.19	11.03	-43.9	-44.8	17.0	0.00e+00	0	52	0	497025024	50	4049
2026-01-02 04:38:43.01	28.12	11.11	-44.1	-45.0	16.8	0.00e+00	0	52	0	502267904	50	4141
2026-01-02 04:38:44.00	28.05	11.19	-43.9	-44.8	17.0	0.00e+00	0	52	0	507510784	50	4023
2026-01-02 04:38:44.99	27.97	11.27	-43.7	-44.5	17.3	0.00e+00	0	52	0	512753664	50	3908
2026-01-02 04:38:45.97	27.90	11.36	-43.5	-44.4	17.4	0.00e+00	0	53	0	519045120	50	3860
2026-01-02 04:38:46.96	27.82	11.44	-43.6	-44.5	17.4	0.00e+00	0	52	0	524288000	50	3878
2026-01-02 04:38:47.95	27.75	11.52	-43.6	-44.5	17.3	0.00e+00	0	53	0	529530880	50	3909
2026-01-02 04:38:48.94	27.67	11.61	-43.8	-44.7	17.2	0.00e+00	0	53	0	535822336	50	3983
2026-01-02 04:38:49.93	27.59	11.69	-43.6	-44.5	17.4	0.00e+00	0	52	0	541065216	50	3873
2026-01-02 04:38:50.91	27.52	11.77	-43.4	-44.3	17.6	0.00e+00	0	53	0	546308096	50	3786
2026-01-02 04:38:51.91	27.44	11.86	-43.3	-44.2	17.7	0.00e+00	0	53	0	551550976	49	3972
2026-01-02 04:38:52.90	27.36	11.94	-43.3	-44.2	17.6	0.00e+00	0	53	0	557842432	49	3975
2026-01-02 04:38:53.89	27.28	12.03	-43.5	-44.3	17.5	0.00e+00	0	53	0	563085312	49	4045
2026-01-02 04:38:54.88	27.20	12.11	-43.5	-44.4	17.4	0.00e+00	0	53	0	568328192	49	4087
2026-01-02 04:38:55.87	27.12	12.20	-43.5	-44.4	17.5	0.00e+00	0	53	0	574619648	49	4074
2026-01-02 04:38:56.86	27.04	12.28	-43.6	-44.5	17.4	0.00e+00	0	53	0	579862528	49	4126
2026-01-02 04:38:57.85	26.96	12.37	-43.8	-44.7	17.2	0.00e+00	0	53	0	585105408	49	4225
2026-01-02 04:38:58.84	26.88	12.45	-43.7	-44.6	17.3	0.00e+00	0	53	0	591396864	49	4152
2026-01-02 04:38:59.83	26.80	12.54	-43.5	-44.3	17.5	0.00e+00	0	53	0	596639744	49	4051
2026-01-02 04:39:00.82	26.72	12.63	-43.3	-44.2	17.7	0.00e+00	0	53	0	601882624	49	3969
2026-01-02 04:39:01.81	26.64	12.71	-43.4	-44.2	17.7	0.00e+00	0	53	0	608174080	49	3992
2026-01-02 04:39:02.80	26.55	12.80	-43.4	-44.3	17.6	0.00e+00	0	53	0	613416960	49	4026
2026-01-02 04:39:03.79	26.47	12.89	-43.7	-44.6	17.3	0.00e+00	0	53	0	618659840	49	4156
2026-01-02 04:39:04.78	26.39	12.97	-43.5	-44.4	17.5	0.00e+00	0	53	0	624951296	49	4056
2026-01-02 04:39:05.77	26.30	13.06	-43.2	-44.1	17.8	0.00e+00	0	53	0	630194176	49	3924
2026-01-02 04:39:06.76	26.22	13.15	-43.1	-43.9	18.0	0.00e+00	0	53	0	635437056	49	3850
2026-01-02 04:39:07.75	26.13	13.24	-43.1	-43.9	18.0	0.00e+00	0	53	0	640679936	49	3846
2026-01-02 04:39:08.74	26.04	13.32	-43.1	-43.9	18.0	0.00e+00	0	53	0	646971392	49	3855
2026-01-02 04:39:09.73	25.96	13.41	-43.2	-44.0	17.9	0.00e+00	0	53	0	652214272	49	3899
2026-01-02 04:39:10.71	25.87	13.50	-43.3	-44.2	17.7	0.00e+00	0	53	0	657457152	49	3977
2026-01-02 04:39:11.71	25.78	13.59	-43.3	-44.1	17.8	0.00e+00	0	53	0	663748608	49	3948
2026-01-02 04:39:12.70	25.69	13.68	-43.0	-43.9	18.1	0.00e+00	0	53	0	668991488	49	3830
2026-01-02 04:39:13.69	25.60	13.77	-43.0	-43.8	18.1	0.00e+00	0	53	0	674234368	49	3784
2026-01-02 04:39:14.68	25.52	13.86	-42.9	-43.7	18.2	0.00e+00	0	53	0	679477248	49	3771
2026-01-02 04:39:15.67	25.42	13.95	-43.0	-43.8	18.1	0.00e+00	0	53	0	685768704	49	3791
2026-01-02 04:39:16.66	25.33	14.04	-43.0	-43.8	18.1	0.00e+00	0	53	0	691011584	49	3815
2026-01-02 04:39:17.65	25.24	14.13	-43.1	-43.9	18.1	0.00e+00	0	54	0	697303040	49	3839
2026-01-02 04:39:18.64	25.15	14.22	-43.1	-43.9	18.0	0.00e+00	0	53	0	702545920	49	3858
2026-01-02 04:39:19.64	25.06	14.31	-43.2	-44.1	17.9	0.00e+00	0	53	0	707788800	49	3927
2026-01-02 04:39:20.63	24.96	14.40	-43.2	-44.0	18.0	0.00e+00	0	53	0	713031680	49	3881
2026-01-02 04:39:21.62	24.87	14.50	-43.0	-43.8	18.1	0.00e+00	0	53	0	719323136	49	3813
2026-01-02 04:39:22.61	24.78	14.59	-42.9	-43.7	18.2	0.00e+00	0	53	0	724566016	48	3999
2026-01-02 04:39:23.60	24.68	14.68	-42.9	-43.7	18.2	0.00e+00	0	53	0	730857472	48	3997
2026-01-02 04:39:24.60	24.59	14.77	-42.9	-43.7	18.2	0.00e+00	0	53	0	736100352	48	3995
2026-01-02 04:39:25.58	24.49	14.86	-43.0	-43.8	18.1	0.00e+00	0	54	0	741343232	48	4045
2026-01-02 04:39:26.57	24.39	14.96	-43.0	-43.8	18.1	0.00e+00	0	53	0	746586112	48	4045
2026-01-02 04:39:27.56	24.30	15.05	-42.9	-43.7	18.2	0.00e+00	0	54	0	752877568	48	4003
2026-01-02 04:39:28.55	24.20	15.14	-42.9	-43.7	18.3	0.00e+00	0	54	0	758120448	48	3973
2026-01-02 04:39:29.54	24.10	15.24	-43.0	-43.8	18.2	0.00e+00	0	54	0	763363328	48	4031
2026-01-02 04:39:30.53	24.00	15.33	-43.1	-43.9	18.1	0.00e+00	0	54	0	769654784	48	4063
2026-01-02 04:39:31.51	23.90	15.43	-43.0	-43.8	18.2	0.00e+00	0	54	0	774897664	48	4037
2026-01-02 04:39:32.50	23.80	15.52	-42.9	-43.7	18.3	0.00e+00	0	54	0	780140544	48	3987
2026-01-02 04:39:33.49	23.70	15.62	-42.9	-43.7	18.3	0.00e+00	0	54	0	786432000	48	3963
2026-01-02 04:39:34.47	23.60	15.71	-42.8	-43.6	18.3	0.00e+00	0	54	0	791674880	48	3946
2026-01-02 04:39:35.46	23.50	15.80	-42.7	-43.5	18.5	0.00e+00	0	54	0	796917760	48	3888
2026-01-02 04:39:36.45	23.39	15.90	-42.8	-43.5	18.4	0.00e+00	0	54	0	802160640	48	3899
2026-01-02 04:39:37.44	23.29	16.00	-42.9	-43.7	18.3	0.00e+00	0	54	0	808452096	48	3962
2026-01-02 04:39:38.43	23.19	16.09	-42.9	-43.6	18.4	0.00e+00	0	54	0	813694976	48	3953
2026-01-02 04:39:39.43	23.08	16.19	-42.7	-43.5	18.5	0.00e+00	0	54	0	818937856	48	3898
2026-01-02 04:39:40.42	22.97	16.29	-42.7	-43.4	18.5	0.00e+00	0	54	0	825229312	48	3857
2026-01-02 04:39:41.41	22.87	16.38	-42.8	-43.6	18.4	0.00e+00	0	54	0	830472192	48	3939
2026-01-02 04:39:42.40	22.76	16.48	-42.9	-43.7	18.4	0.00e+00	0	54	0	835715072	48	3960
2026-01-02 04:39:43.39	22.65	16.58	-42.7	-43.5	18.5	0.00e+00	0	54	0	842006528	48	3903
2026-01-02 04:39:44.38	22.54	16.68	-43.0	-43.8	18.2	0.00e+00	0	54	0	847249408	48	4010
2026-01-02 04:39:45.37	22.43	16.78	-43.0	-43.8	18.2	0.00e+00	0	54	0	852492288	48	4017
2026-01-02 04:39:46.36	22.32	16.87	-42.6	-43.3	18.6	0.00e+00	0	54	0	858783744	48	3824
2026-01-02 04:39:47.35	22.21	16.97	-42.2	-43.0	18.9	0.00e+00	0	54	0	864026624	47	3885
2026-01-02 04:39:48.34	22.10	17.07	-42.2	-42.9	18.9	0.00e+00	0	54	0	869269504	47	3852
2026-01-02 04:39:49.33	21.99	17.17	-42.2	-42.9	18.9	0.00e+00	0	54	0	874512384	47	3852
2026-01-02 04:39:50.32	21.87	17.27	-42.3	-43.0	18.8	0.00e+00	0	54	0	880803840	47	3902
2026-01-02 04:39:51.31	21.76	17.37	-42.4	-43.2	18.7	0.00e+00	0	54	0	886046720	47	3961
2026-01-02 04:39:52.30	21.65	17.47	-42.3	-43.0	18.8	0.00e+00	0	54	0	891289600	47	3905
2026-01-02 04:39:53.28	21.53	17.57	-42.4	-43.2	18.7	0.00e+00	0	54	0	897581056	47	3965
2026-01-02 04:39:54.27	21.41	17.67	-42.3	-43.0	18.9	0.00e+00	0	54	0	902823936	47	3891
2026-01-02 04:39:55.26	21.30	17.77	-42.1	-42.8	19.0	0.00e+00	0	54	0	908066816	47	3817
2026-01-02 04:39:56.25	21.18	17.87	-42.0	-42.8	19.1	0.00e+00	0	54	0	914358272	47	3783
2026-01-02 04:39:57.23	21.06	17.97	-42.0	-42.8	19.1	0.00e+00	0	54	0	919601152	47	3785
2026-01-02 04:39:58.22	20.94	18.08	-42.0	-42.7	19.2	0.00e+00	0	54	0	924844032	47	3748
2026-01-02 04:39:59.22	20.82	18.18	-42.0	-42.7	19.1	0.00e+00	0	54	0	930086912	47	3772
2026-01-02 04:40:00.21	20.70	18.28	-42.2	-42.9	19.0	0.00e+00	0	55	0	936378368	47	3840
2026-01-02 04:40:01.20	20.58	18.39	-42.0	-42.7	19.2	0.00e+00	0	54	0	941621248	47	3755
2026-01-02 04:40:02.19	20.45	18.49	-41.8	-42.5	19.4	0.00e+00	0	54	0	947912704	46	3900
2026-01-02 04:40:03.18	20.33	18.59	-41.8	-42.5	19.4	0.00e+00	0	54	0	953155584	46	3902
2026-01-02 04:40:04.18	20.20	18.70	-41.8	-42.5	19.4	0.00e+00	0	55	0	958398464	46	3896
2026-01-02 04:40:05.17	20.08	18.80	-41.9	-42.6	19.3	0.00e+00	0	55	0	963641344	46	3931
2026-01-02 04:40:06.16	19.95	18.91	-41.9	-42.6	19.2	0.00e+00	0	55	0	969932800	46	3947
2026-01-02 04:40:07.14	19.82	19.01	-41.8	-42.5	19.4	0.00e+00	0	55	0	975175680	46	3882
2026-01-02 04:40:08.13	19.70	19.11	-41.7	-42.4	19.5	0.00e+00	0	55	0	980418560	46	3847
2026-01-02 04:40:09.12	19.57	19.22	-41.7	-42.4	19.4	0.00e+00	0	55	0	986710016	46	3857
2026-01-02 04:40:10.11	19.44	19.32	-41.7	-42.4	19.5	0.00e+00	0	55	0	991952896	46	3861
2026-01-02 04:40:11.11	19.30	19.43	-41.8	-42.5	19.4	0.00e+00	0	55	0	997195776	46	3879
2026-01-02 04:40:12.09	19.17	19.54	-41.9	-42.6	19.2	0.00e+00	0	55	0	1003487232	46	3955
2026-01-02 04:40:13.07	19.04	19.64	-42.2	-42.9	19.0	0.00e+00	0	55	0	1008730112	46	4084
2026-01-02 04:40:14.06	18.91	19.75	-41.8	-42.5	19.4	0.00e+00	0	55	0	1013972992	46	3898
2026-01-02 04:40:15.05	18.77	19.86	-41.6	-42.2	19.7	0.00e+00	0	55	0	1020264448	46	3770
2026-01-02 04:40:16.03	18.64	19.96	-41.4	-42.0	19.8	0.00e+00	0	55	0	1025507328	46	3685
2026-01-02 04:40:17.02	18.50	20.07	-41.3	-42.0	19.9	0.00e+00	0	55	0	1030750208	45	3892
2026-01-02 04:40:18.01	18.36	20.18	-41.3	-42.0	19.9	0.00e+00	0	55	0	1035993088	45	3888
2026-01-02 04:40:19.00	18.22	20.28	-41.5	-42.2	19.7	0.00e+00	0	55	0	1042284544	45	3961
2026-01-02 04:40:19.99	18.08	20.39	-41.8	-42.5	19.4	0.00e+00	0	55	0	1047527424	45	4105
2026-01-02 04:40:20.98	17.94	20.50	-41.6	-42.3	19.6	0.00e+00	0	55	0	1052770304	45	4029
2026-01-02 04:40:21.97	17.80	20.61	-41.4	-42.1	19.8	0.00e+00	0	55	0	1059061760	45	3942
2026-01-02 04:40:22.95	17.66	20.72	-41.4	-42.1	19.8	0.00e+00	0	55	0	1064304640	45	3929
2026-01-02 04:40:23.95	17.52	20.83	-41.6	-42.2	19.7	0.00e+00	0	55	0	1069547520	45	4000
2026-01-02 04:40:24.94	17.37	20.94	-41.7	-42.3	19.6	0.00e+00	0	55	0	1075838976	45	4042
2026-01-02 04:40:25.93	17.22	21.05	-41.6	-42.3	19.6	0.00e+00	0	55	0	1081081856	45	4023
2026-01-02 04:40:26.91	17.08	21.16	-41.6	-42.3	19.6	0.00e+00	0	55	0	1086324736	45	4035
2026-01-02 04:40:27.91	16.93	21.27	-41.7	-42.4	19.5	0.00e+00	0	55	0	1091567616	45	4081
2026-01-02 04:40:28.89	16.78	21.38	-41.5	-42.1	19.8	0.00e+00	0	55	0	1097859072	45	3948
2026-01-02 04:40:29.88	16.63	21.49	-41.2	-41.8	20.1	0.00e+00	0	55	0	1103101952	45	3816
2026-01-02 04:40:30.86	16.48	21.60	-41.0	-41.7	20.2	0.00e+00	0	55	0	1108344832	45	3740
2026-01-02 04:40:31.85	16.33	21.71	-40.9	-41.6	20.3	0.00e+00	0	55	0	1114636288	45	3713
2026-01-02 04:40:32.84	16.17	21.83	-41.0	-41.7	20.2	0.00e+00	0	55	0	1119879168	45	3751
2026-01-02 04:40:33.83	16.02	21.94	-40.9	-41.5	20.3	0.00e+00	0	55	0	1125122048	45	3685
2026-01-02 04:40:34.82	15.86	22.05	-40.8	-41.4	20.5	0.00e+00	0	55	0	1130364928	44	3841
2026-01-02 04:40:35.81	15.71	22.16	-40.9	-41.5	20.4	0.00e+00	0	55	0	1136656384	44	3877
2026-01-02 04:40:36.79	15.55	22.27	-41.0	-41.7	20.2	0.00e+00	0	55	0	1141899264	44	3966
2026-01-02 04:40:37.78	15.39	22.39	-40.9	-41.5	20.3	0.00e+00	0	55	0	1147142144	44	3912
2026-01-02 04:40:38.76	15.23	22.50	-40.9	-41.5	20.4	0.00e+00	0	55	0	1153433600	44	3888
2026-01-02 04:40:39.75	15.07	22.61	-41.0	-41.6	20.3	0.00e+00	0	55	0	1158676480	44	3949
2026-01-02 04:40:40.74	14.91	22.73	-40.9	-41.5	20.4	0.00e+00	0	55	0	1163919360	44	3889
2026-01-02 04:40:41.74	14.74	22.84	-40.7	-41.3	20.6	0.00e+00	0	55	0	1170210816	44	3814
2026-01-02 04:40:42.73	14.57	22.96	-40.7	-41.3	20.6	0.00e+00	0	55	0	1175453696	44	3791
2026-01-02 04:40:43.72	14.41	23.07	-40.7	-41.3	20.5	0.00e+00	0	55	0	1180696576	44	3820
2026-01-02 04:40:44.71	14.24	23.19	-40.8	-41.4	20.5	0.00e+00	0	55	0	1186988032	44	3836
2026-01-02 04:40:45.68	14.07	23.30	-41.0	-41.6	20.3	0.00e+00	0	55	0	1192230912	44	3958
2026-01-02 04:40:46.67	13.90	23.42	-41.0	-41.7	20.2	0.00e+00	0	55	0	1197473792	44	3965
2026-01-02 04:40:47.66	13.73	23.53	-40.9	-41.5	20.4	0.00e+00	0	55	0	1202716672	44	3884
2026-01-02 04:40:48.65	13.56	23.65	-40.8	-41.4	20.4	0.00e+00	0	55	0	1209008128	44	3852
2026-01-02 04:40:49.64	13.38	23.76	-40.8	-41.4	20.4	0.00e+00	0	55	0	1214251008	44	3843
2026-01-02 04:40:50.63	13.21	23.88	-40.9	-41.5	20.3	0.00e+00	0	55	0	1219493888	44	3892
2026-01-02 04:40:51.62	13.03	24.00	-41.0	-41.7	20.1	0.00e+00	0	55	0	1225785344	44	3968
2026-01-02 04:40:52.60	12.85	24.11	-41.0	-41.6	20.2	0.00e+00	0	55	0	1231028224	44	3939
2026-01-02 04:40:53.60	12.67	24.23	-40.8	-41.5	20.3	0.00e+00	0	55	0	1236271104	44	3870
2026-01-02 04:40:54.59	12.49	24.35	-40.8	-41.4	20.3	0.00e+00	0	55	0	1242562560	44	3864
2026-01-02 04:40:55.58	12.31	24.47	-40.7	-41.4	20.2	0.00e+00	0	56	0	1247805440	44	3835
2026-01-02 04:40:56.57	12.12	24.58	-41.0	-41.7	19.8	0.00e+00	0	55	0	1253048320	44	3985
2026-01-02 04:40:57.56	11.94	24.70	-41.4	-42.1	19.3	0.00e+00	0	56	0	1259339776	44	4152
2026-01-02 04:40:58.55	11.75	24.82	-41.6	-42.4	18.9	0.00e+00	0	55	0	1264582656	45	4061
2026-01-02 04:40:59.54	11.56	24.94	-42.1	-42.9	18.3	0.00e+00	0	55	0	1269825536	46	4088
2026-01-02 04:41:00.53	11.37	25.06	-42.6	-43.5	17.6	0.00e+00	0	55	0	1276116992	46	4343
2026-01-02 04:41:01.52	11.18	25.18	-43.2	-44.2	16.8	0.00e+00	0	55	0	1281359872	48	4217
2026-01-02 04:41:02.50	10.99	25.29	-44.1	-45.3	15.5	0.00e+00	0	56	0	1286602752	50	4268
2026-01-02 04:41:03.49	10.80	25.41	-44.9	-46.3	14.4	1.10e-06	0	55	0	1291845632	51	4499
2026-01-02 04:41:04.47	10.60	25.53	-45.6	-47.3	13.0	1.02e-05	0	56	0	1298137088	53	4545
2026-01-02 04:41:05.46	10.40	25.65	-46.3	-48.4	11.9	5.93e-04	0	55	0	1303379968	54	4831
2026-01-02 04:41:06.44	10.21	25.77	-46.7	-48.8	11.5	8.54e-04	0	56	0	1308622848	55	4813
2026-01-02 04:41:07.43	10.01	25.89	-46.6	-48.7	11.8	1.38e-03	0	56	0	1314914304	55	4733
2026-01-02 04:41:08.42	9.81	26.01	-46.1	-47.9	12.7	1.83e-04	0	56	0	1320157184	55	4305
2026-01-02 04:41:09.42	9.60	26.13	-45.4	-46.9	13.9	1.94e-05	0	55	0	1325400064	54	4068
2026-01-02 04:41:10.40	9.40	26.25	-44.5	-45.8	15.2	0.00e+00	0	56	0	1330642944	52	4005
2026-01-02 04:41:11.40	9.19	26.37	-43.7	-44.7	16.4	0.00e+00	0	56	0	1336934400	50	3996
2026-01-02 04:41:12.38	8.98	26.49	-43.1	-44.0	17.3	0.00e+00	0	55	0	1342177280	49	3885
2026-01-02 04:41:13.37	8.77	26.61	-42.6	-43.5	17.9	0.00e+00	0	56	0	1347420160	48	3885
2026-01-02 04:41:14.36	8.56	26.73	-42.4	-43.2	18.3	0.00e+00	0	56	0	1353711616	48	3763
2026-01-02 04:41:15.35	8.35	26.85	-42.1	-42.8	18.7	0.00e+00	0	56	0	1358954496	47	3813
2026-01-02 04:41:16.34	8.14	26.97	-41.4	-42.1	19.6	0.00e+00	0	56	0	1364197376	46	3709
2026-01-02 04:41:17.33	7.92	27.09	-41.6	-42.2	19.5	0.00e+00	0	56	0	1370488832	46	3775
2026-01-02 04:41:18.32	7.70	27.21	-41.7	-42.4	19.4	0.00e+00	0	56	0	1375731712	46	3843
2026-01-02 04:41:19.31	7.48	27.34	-41.6	-42.3	19.5	0.00e+00	0	56	0	1380974592	46	3812
2026-01-02 04:41:20.30	7.26	27.46	-41.7	-42.4	19.4	0.00e+00	0	56	0	1387266048	46	3853
2026-01-02 04:41:21.29	7.04	27.58	-41.9	-42.6	19.2	0.00e+00	0	56	0	1392508928	46	3934
2026-01-02 04:41:22.28	6.81	27.70	-41.8	-42.5	19.2	0.00e+00	0	56	0	1397751808	46	3910
2026-01-02 04:41:23.27	6.59	27.82	-41.4	-42.1	19.7	0.00e+00	0	56	0	1402994688	46	3715
2026-01-02 04:41:24.25	6.36	27.94	-41.1	-41.7	20.1	0.00e+00	0	56	0	1409286144	45	3759
2026-01-02 04:41:25.24	6.13	28.06	-40.7	-41.3	20.6	0.00e+00	0	56	0	1414529024	44	3796
2026-01-02 04:41:26.22	5.90	28.18	-40.5	-41.0	20.8	0.00e+00	0	56	0	1419771904	44	3690
2026-01-02 04:41:27.21	5.67	28.30	-40.2	-40.8	21.0	0.00e+00	0	56	0	1426063360	43	3810
2026-01-02 04:41:28.20	5.43	28.42	-40.3	-40.9	20.9	0.00e+00	0	56	0	1431306240	43	3825
2026-01-02 04:41:29.18	5.20	28.54	-40.0	-40.6	21.2	0.00e+00	0	56	0	1436549120	43	3713
2026-01-02 04:41:30.17	4.96	28.67	-40.0	-40.5	21.3	0.00e+00	0	56	0	1441792000	43	3686
2026-01-02 04:41:31.16	4.72	28.79	-40.0	-40.5	21.2	0.00e+00	0	56	0	1448083456	43	3694
2026-01-02 04:41:32.15	4.48	28.91	-39.9	-40.4	21.4	0.00e+00	0	56	0	1453326336	42	3854
2026-01-02 04:41:33.14	4.23	29.03	-39.9	-40.4	21.4	0.00e+00	0	56	0	1458569216	42	3850
2026-01-02 04:41:34.12	3.99	29.15	-40.0	-40.5	21.3	0.00e+00	0	56	0	1464860672	42	3910
2026-01-02 04:41:35.12	3.74	29.27	-40.1	-40.7	21.2	0.00e+00	0	56	0	1470103552	42	3967
2026-01-02 04:41:36.11	3.49	29.39	-40.1	-40.6	21.2	0.00e+00	0	56	0	1475346432	42	3954
2026-01-02 04:41:37.10	3.23	29.51	-40.2	-40.7	21.1	0.00e+00	0	56	0	1481637888	42	4003
2026-01-02 04:41:38.08	2.98	29.63	-40.1	-40.7	21.1	0.00e+00	0	56	0	1486880768	42	3978
2026-01-02 04:41:39.07	2.73	29.75	-40.2	-40.7	21.1	0.00e+00	0	56	0	1492123648	42	4004
2026-01-02 04:41:40.06	2.47	29.87	-40.4	-40.9	20.9	0.00e+00	0	56	0	1497366528	42	4096
2026-01-02 04:41:41.05	2.21	29.99	-40.2	-40.8	21.0	0.00e+00	0	56	0	1503657984	42	4035
2026-01-02 04:41:42.05	1.95	30.11	-40.3	-40.9	21.0	0.00e+00	0	56	0	1508900864	42	4061
2026-01-02 04:41:43.04	1.68	30.23	-40.2	-40.8	21.0	0.00e+00	0	56	0	1515192320	42	4033
2026-01-02 04:41:44.02	1.42	30.35	-40.5	-41.1	20.8	0.00e+00	0	56	0	1520435200	42	4152
2026-01-02 04:41:45.01	1.15	30.47	-40.2	-40.8	21.0	0.00e+00	0	56	0	1525678080	42	4033
2026-01-02 04:41:46.00	0.88	30.59	-40.1	-40.6	21.2	0.00e+00	0	56	0	1530920960	42	3958
2026-01-02 04:41:46.98	0.61	30.71	-40.3	-40.8	21.0	0.00e+00	0	56	0	1537212416	42	4040
2026-01-02 04:41:47.97	0.34	30.83	-40.5	-41.1	20.8	0.00e+00	0	56	0	1542455296	42	4167
2026-01-02 04:41:48.96	0.06	30.95	-40.2	-40.7	21.1	0.00e+00	0	56	0	1547698176	42	4000
2026-01-02 04:41:49.95	359.79	31.06	-40.2	-40.7	21.1	0.00e+00	0	56	0	1553989632	42	3994
2026-01-02 04:41:50.94	359.51	31.18	-40.4	-40.9	20.9	0.00e+00	0	56	0	1559232512	42	4097
2026-01-02 04:41:51.93	359.22	31.30	-40.2	-40.7	21.1	0.00e+00	0	56	0	1564475392	42	4000
2026-01-02 04:41:52.92	358.94	31.42	-40.0	-40.6	21.3	0.00e+00	0	56	0	1569718272	42	3928
2026-01-02 04:41:53.90	358.66	31.53	-40.0	-40.6	21.3	0.00e+00	0	56	0	1576009728	42	3924
2026-01-02 04:41:54.89	358.37	31.65	-40.0	-40.5	21.3	0.00e+00	0	56	0	1581252608	42	3901
2026-01-02 04:41:55.88	358.08	31.77	-39.8	-40.3	21.5	0.00e+00	0	56	0	1586495488	42	3812
2026-01-02 04:41:56.87	357.79	31.88	-39.6	-40.1	21.7	0.00e+00	0	56	0	1592786944	42	3726
2026-01-02 04:41:57.86	357.49	32.00	-39.6	-40.1	21.7	0.00e+00	0	56	0	1598029824	42	3722
2026-01-02 04:41:58.84	357.20	32.11	-39.5	-40.0	21.8	0.00e+00	0	56	0	1603272704	42	3687
2026-01-02 04:41:59.84	356.90	32.23	-39.5	-40.1	21.8	0.00e+00	0	56	0	1609564160	42	3710
2026-01-02 04:42:00.82	356.60	32.34	-39.7	-40.3	21.6	0.00e+00	0	56	0	1614807040	42	3782
2026-01-02 04:42:01.82	356.29	32.46	-39.8	-40.4	21.5	0.00e+00	0	56	0	1620049920	42	3833
2026-01-02 04:42:02.80	355.99	32.57	-39.8	-40.3	21.5	0.00e+00	0	56	0	1626341376	42	3809
2026-01-02 04:42:03.79	355.68	32.68	-39.8	-40.3	21.5	0.00e+00	0	56	0	1631584256	42	3812
2026-01-02 04:42:04.78	355.37	32.79	-39.9	-40.4	21.4	0.00e+00	0	56	0	1636827136	42	3866
2026-01-02 04:42:05.77	355.06	32.90	-39.8	-40.3	21.5	0.00e+00	0	56	0	1642070016	42	3806
2026-01-02 04:42:06.76	354.75	33.01	-39.7	-40.2	21.6	0.00e+00	0	56	0	1648361472	42	3778
2026-01-02 04:42:07.76	354.43	33.13	-39.7	-40.2	21.6	0.00e+00	0	56	0	1653604352	42	3776
2026-01-02 04:42:08.74	354.12	33.24	-39.8	-40.4	21.5	0.00e+00	0	56	0	1658847232	42	3832
2026-01-02 04:42:09.73	353.80	33.34	-39.7	-40.2	21.7	0.00e+00	0	56	0	1665138688	42	3755
2026-01-02 04:42:10.73	353.47	33.45	-39.5	-40.0	21.8	0.00e+00	0	56	0	1670381568	42	3687
2026-01-02 04:42:11.71	353.15	33.56	-39.4	-39.9	21.9	0.00e+00	0	56	0	1675624448	42	3629
2026-01-02 04:42:12.70	352.82	33.67	-39.4	-39.9	21.8	0.00e+00	0	56	0	1681915904	41	3855
2026-01-02 04:42:13.68	352.50	33.77	-39.5	-40.0	21.7	0.00e+00	0	56	0	1687158784	41	3912
2026-01-02 04:42:14.67	352.17	33.88	-39.6	-40.1	21.7	0.00e+00	0	56	0	1692401664	41	3953
2026-01-02 04:42:15.66	351.83	33.99	-39.7	-40.3	21.5	0.00e+00	0	56	0	1697644544	41	4029
2026-01-02 04:42:16.66	351.49	34.09	-39.9	-40.5	21.4	0.00e+00	0	56	0	1703936000	41	4114
2026-01-02 04:42:17.65	351.16	34.19	-39.9	-40.5	21.3	0.00e+00	0	56	0	1709178880	41	4114
2026-01-02 04:42:18.63	350.82	34.30	-39.9	-40.5	21.3	0.00e+00	0	57	0	1715470336	41	4123
2026-01-02 04:42:19.62	350.48	34.40	-40.2	-40.8	21.1	0.00e+00	0	56	0	1720713216	42	4019
2026-01-02 04:42:20.61	350.13	34.50	-40.3	-40.8	21.1	0.00e+00	0	57	0	1725956096	42	4045
2026-01-02 04:42:21.60	349.79	34.60	-40.1	-40.7	21.2	0.00e+00	0	56	0	1731198976	42	3960
2026-01-02 04:42:22.58	349.44	34.70	-39.9	-40.5	21.4	0.00e+00	0	56	0	1737490432	42	3870
2026-01-02 04:42:23.57	349.09	34.80	-39.8	-40.4	21.5	0.00e+00	0	56	0	1742733312	42	3826
2026-01-02 04:42:24.56	348.74	34.89	-39.8	-40.3	21.6	0.00e+00	0	56	0	1747976192	42	3798
2026-01-02 04:42:25.54	348.39	34.99	-39.6	-40.2	21.7	0.00e+00	0	56	0	1754267648	42	3744
2026-01-02 04:42:26.53	348.03	35.09	-39.6	-40.1	21.7	0.00e+00	0	57	0	1759510528	42	3725
2026-01-02 04:42:27.52	347.67	35.18	-39.6	-40.2	21.7	0.00e+00	0	56	0	1764753408	42	3750
2026-01-02 04:42:28.51	347.31	35.27	-39.5	-40.1	21.8	0.00e+00	0	56	0	1769996288	42	3695
2026-01-02 04:42:29.49	346.95	35.37	-39.3	-39.8	22.0	0.00e+00	0	56	0	1776287744	41	3812
2026-01-02 04:42:30.47	346.59	35.46	-39.2	-39.7	22.1	0.00e+00	0	56	0	1781530624	41	3753
2026-01-02 04:42:31.46	346.22	35.55	-39.2	-39.7	22.1	0.00e+00	0	56	0	1786773504	41	3779
2026-01-02 04:42:32.45	345.85	35.64	-39.3	-39.8	22.0	0.00e+00	0	56	0	1793064960	41	3823
2026-01-02 04:42:33.44	345.48	35.73	-39.4	-39.9	21.9	0.00e+00	0	57	0	1798307840	41	3844
2026-01-02 04:42:34.42	345.11	35.81	-39.4	-39.9	22.0	0.00e+00	0	57	0	1803550720	41	3836
2026-01-02 04:42:35.41	344.74	35.90	-39.4	-39.9	21.9	0.00e+00	0	56	0	1808793600	41	3863
2026-01-02 04:42:36.40	344.36	35.98	-39.5	-40.1	21.8	0.00e+00	0	57	0	1815085056	41	3923
2026-01-02 04:42:37.39	343.98	36.07	-39.7	-40.2	21.7	0.00e+00	0	56	0	1820327936	41	3981
2026-01-02 04:42:38.38	343.60	36.15	-39.6	-40.1	21.7	0.00e+00	0	56	0	1825570816	41	3943
2026-01-02 04:42:39.36	343.22	36.23	-39.6	-40.1	21.7	0.00e+00	0	56	0	1831862272	41	3941
2026-01-02 04:42:40.35	342.83	36.31	-39.6	-40.1	21.7	0.00e+00	0	56	0	1837105152	41	3943
2026-01-02 04:42:41.35	342.44	36.39	-39.6	-40.1	21.7	0.00e+00	0	56	0	1842348032	41	3941
2026-01-02 04:42:42.34	342.05	36.47	-39.6	-40.2	21.7	0.00e+00	0	56	0	1848639488	41	3960
2026-01-02 04:42:43.33	341.66	36.54	-39.7	-40.3	21.6	0.00e+00	0	57	0	1853882368	41	4008
2026-01-02 04:42:44.32	341.27	36.62	-39.7	-40.3	21.6	0.00e+00	0	57	0	1859125248	41	4005
2026-01-02 04:42:45.30	340.88	36.69	-39.7	-40.3	21.6	0.00e+00	0	56	0	1865416704	41	4008
2026-01-02 04:42:46.30	340.48	36.76	-39.9	-40.4	21.4	0.00e+00	0	56	0	1870659584	41	4086
2026-01-02 04:42:47.29	340.08	36.83	-40.0	-40.6	21.3	0.00e+00	0	56	0	1875902464	41	4151
2026-01-02 04:42:48.28	339.68	36.90	-39.9	-40.4	21.4	0.00e+00	0	56	0	1881145344	41	4095
2026-01-02 04:42:49.27	339.28	36.97	-40.0	-40.6	21.3	0.00e+00	0	57	0	1887436800	41	4158
2026-01-02 04:42:50.26	338.88	37.04	-40.2	-40.8	21.1	0.00e+00	0	56	0	1892679680	42	4027
2026-01-02 04:42:51.26	338.47	37.10	-40.1	-40.7	21.2	0.00e+00	0	57	0	1897922560	42	3978
2026-01-02 04:42:52.24	338.07	37.16	-40.3	-40.9	21.0	0.00e+00	0	56	0	1904214016	42	4075
2026-01-02 04:42:53.24	337.66	37.23	-40.2	-40.8	21.1	0.00e+00	0	57	0	1909456896	42	4039
2026-01-02 04:42:54.23	337.25	37.29	-40.4	-41.0	20.9	0.00e+00	0	57	0	1914699776	42	4124
2026-01-02 04:42:55.22	336.84	37.34	-39.9	-40.5	21.4	0.00e+00	0	57	0	1920991232	42	3882
2026-01-02 04:42:56.21	336.42	37.40	-39.7	-40.3	21.6	0.00e+00	0	57	0	1926234112	42	3800
2026-01-02 04:42:57.21	336.01	37.46	-39.6	-40.2	21.7	0.00e+00	0	57	0	1931476992	42	3742
2026-01-02 04:42:58.20	335.59	37.51	-39.5	-40.1	21.8	0.00e+00	0	56	0	1937768448	42	3705
2026-01-02 04:42:59.19	335.17	37.56	-39.6	-40.1	21.8	0.00e+00	0	57	0	1943011328	42	3729
2026-01-02 04:43:00.17	334.76	37.61	-39.5	-40.0	21.9	0.00e+00	0	57	0	1948254208	42	3670
2026-01-02 04:43:01.16	334.34	37.66	-39.4	-39.9	21.9	0.00e+00	0	57	0	1954545664	42	3646
2026-01-02 04:43:02.15	333.92	37.71	-39.5	-40.0	21.9	0.00e+00	0	57	0	1959788544	42	3684
2026-01-02 04:43:03.14	333.50	37.75	-39.6	-40.1	21.7	0.00e+00	0	57	0	1965031424	42	3733
2026-01-02 04:43:04.14	333.07	37.80	-39.5	-40.0	21.9	0.00e+00	0	57	0	1971322880	42	3661
2026-01-02 04:43:05.13	332.65	37.84	-39.3	-39.8	22.1	0.00e+00	0	57	0	1976565760	41	3795
2026-01-02 04:43:06.12	332.22	37.88	-39.3	-39.8	22.0	0.00e+00	0	57	0	1981808640	41	3803
2026-01-02 04:43:07.10	331.80	37.92	-39.2	-39.7	22.1	0.00e+00	0	57	0	1987051520	41	3780
2026-01-02 04:43:08.09	331.37	37.95	-39.3	-39.8	22.1	0.00e+00	0	57	0	1993342976	41	3792
2026-01-02 04:43:09.08	330.95	37.99	-39.4	-40.0	21.9	0.00e+00	0	57	0	1998585856	41	3874
2026-01-02 04:43:10.06	330.52	38.02	-39.3	-39.9	22.0	0.00e+00	0	57	0	2003828736	41	3835
2026-01-02 04:43:11.06	330.09	38.05	-39.5	-40.0	21.8	0.00e+00	0	57	0	2010120192	41	3897
2026-01-02 04:43:12.05	329.66	38.08	-39.7	-40.3	21.6	0.00e+00	0	57	0	2015363072	41	4022
2026-01-02 04:43:13.04	329.23	38.11	-39.4	-39.9	22.0	0.00e+00	0	57	0	2020605952	41	3857
2026-01-02 04:43:14.03	328.79	38.13	-39.4	-39.9	22.0	0.00e+00	0	57	0	2026897408	41	3836
2026-01-02 04:43:15.03	328.36	38.16	-39.6	-40.1	21.7	0.00e+00	0	57	0	2032140288	41	3952
2026-01-02 04:43:16.02	327.92	38.18	-39.8	-40.3	21.6	0.00e+00	0	57	0	2037383168	41	4033
2026-01-02 04:43:17.01	327.49	38.20	-39.9	-40.4	21.5	0.00e+00	0	57	0	2043674624	41	4093
2026-01-02 04:43:18.01	327.05	38.22	-39.7	-40.2	21.7	0.00e+00	0	57	0	2048917504	41	3991
2026-01-02 04:43:18.99	326.62	38.24	-39.6	-40.1	21.8	0.00e+00	0	57	0	2054160384	41	3928
2026-01-02 04:43:19.98	326.19	38.25	-39.6	-40.1	21.8	0.00e+00	0	57	0	2060451840	41	3956
2026-01-02 04:43:20.97	325.75	38.26	-39.4	-39.9	21.9	0.00e+00	0	57	0	2065694720	41	3845
2026-01-02 04:43:21.96	325.31	38.27	-39.3	-39.8	22.0	0.00e+00	0	57	0	2070937600	41	3811
2026-01-02 04:43:22.95	324.88	38.28	-39.3	-39.8	22.1	0.00e+00	0	57	0	2076180480	41	3800
2026-01-02 04:43:23.94	324.44	38.29	-39.2	-39.7	22.1	0.00e+00	0	57	0	2082471936	41	3770
2026-01-02 04:43:24.93	324.01	38.29	-39.4	-39.9	22.0	0.00e+00	0	57	0	2087714816	41	3837
2026-01-02 04:43:25.93	323.56	38.30	-39.8	-40.3	21.6	0.00e+00	0	57	0	2092957696	41	4029
2026-01-02 04:43:26.91	323.13	38.30	-39.7	-40.3	21.6	0.00e+00	0	57	0	2099249152	41	4007
2026-01-02 04:43:27.90	322.69	38.30	-39.5	-40.0	21.9	0.00e+00	0	57	0	2104492032	41	3905
2026-01-02 04:43:28.88	322.26	38.30	-39.4	-40.0	21.9	0.00e+00	0	57	0	2109734912	41	3871
2026-01-02 04:43:29.86	321.83	38.29	-39.5	-40.0	21.8	0.00e+00	0	57	0	2116026368	41	3908
2026-01-02 04:43:30.85	321.39	38.28	-39.8	-40.3	21.6	0.00e+00	0	57	0	2121269248	41	4041
2026-01-02 04:43:31.84	320.96	38.28	-39.6	-40.2	21.7	0.00e+00	0	57	0	2126512128	41	3981
2026-01-02 04:43:32.84	320.52	38.27	-39.7	-40.2	21.7	0.00e+00	0	57	0	2132803584	41	3970
2026-01-02 04:43:33.83	320.08	38.25	-39.8	-40.3	21.6	0.00e+00	0	57	0	2138046464	41	4048
2026-01-02 04:43:34.81	319.65	38.24	-40.0	-40.5	21.4	0.00e+00	0	57	0	2143289344	41	4134
2026-01-02 04:43:35.80	319.21	38.22	-40.0	-40.5	21.4	0.00e+00	0	57	0	2148532224	41	4128
2026-01-02 04:43:36.78	318.78	38.21	-39.8	-40.4	21.6	0.00e+00	0	56	0	2154823680	41	4053
2026-01-02 04:43:37.77	318.35	38.19	-39.8	-40.3	21.6	0.00e+00	0	57	0	2160066560	41	4048
2026-01-02 04:43:38.76	317.92	38.17	-40.1	-40.6	21.3	0.00e+00	0	57	0	2165309440	41	4175
2026-01-02 04:43:39.75	317.48	38.14	-39.9	-40.5	21.4	0.00e+00	0	57	0	2171600896	42	3890
2026-01-02 04:43:40.74	317.05	38.12	-40.0	-40.6	21.4	0.00e+00	0	57	0	2176843776	42	3927
2026-01-02 04:43:41.72	316.62	38.09	-39.9	-40.4	21.5	0.00e+00	0	57	0	2182086656	42	3862
2026-01-02 04:43:42.71	316.19	38.06	-39.5	-40.0	21.9	0.00e+00	0	57	0	2187329536	42	3662
2026-01-02 04:43:43.69	315.77	38.03	-39.1	-39.6	22.2	0.00e+00	0	57	0	2193620992	41	3726
2026-01-02 04:43:44.68	315.34	38.00	-39.2	-39.7	22.2	0.00e+00	0	57	0	2198863872	41	3751
2026-01-02 04:43:45.67	314.91	37.97	-39.4	-39.9	22.0	0.00e+00	0	57	0	2204106752	41	3847
2026-01-02 04:43:46.66	314.48	37.93	-39.5	-40.0	21.9	0.00e+00	0	57	0	2210398208	41	3905
2026-01-02 04:43:47.65	314.06	37.89	-39.4	-40.0	21.9	0.00e+00	0	57	0	2215641088	41	3870
2026-01-02 04:43:48.65	313.63	37.85	-39.4	-39.9	22.0	0.00e+00	0	57	0	2220883968	41	3840
2026-01-02 04:43:49.64	313.20	37.81	-39.6	-40.1	21.8	0.00e+00	0	57	0	2227175424	41	3927
2026-01-02 04:43:50.63	312.78	37.77	-39.6	-40.1	21.8	0.00e+00	0	57	0	2232418304	41	3953
2026-01-02 04:43:51.63	312.35	37.72	-39.6	-40.1	21.8	0.00e+00	0	57	0	2237661184	41	3924
2026-01-02 04:43:52.62	311.93	37.68	-39.7	-40.2	21.7	0.00e+00	0	57	0	2243952640	41	3974
2026-01-02 04:43:53.61	311.51	37.63	-39.8	-40.4	21.6	0.00e+00	0	57	0	2249195520	41	4056
2026-01-02 04:43:54.60	311.09	37.58	-39.9	-40.4	21.5	0.00e+00	0	57	0	2254438400	41	4094
2026-01-02 04:43:55.58	310.68	37.53	-39.9	-40.4	21.5	0.00e+00	0	57	0	2260729856	41	4083
2026-01-02 04:43:56.57	310.26	37.48	-39.8	-40.4	21.5	0.00e+00	0	57	0	2265972736	41	4063
2026-01-02 04:43:57.56	309.85	37.42	-39.8	-40.4	21.5	0.00e+00	0	57	0	2271215616	41	4062
2026-01-02 04:43:58.55	309.43	37.36	-39.9	-40.5	21.4	0.00e+00	0	57	0	2276458496	41	4115
2026-01-02 04:43:59.54	309.02	37.31	-39.9	-40.5	21.5	0.00e+00	0	57	0	2282749952	41	4108
2026-01-02 04:44:00.53	308.61	37.25	-40.0	-40.5	21.4	0.00e+00	0	57	0	2287992832	41	4141
2026-01-02 04:44:01.52	308.20	37.19	-40.4	-40.9	21.0	0.00e+00	0	57	0	2293235712	42	4087
2026-01-02 04:44:02.51	307.80	37.12	-40.5	-41.1	20.9	0.00e+00	0	57	0	2299527168	43	3924
2026-01-02 04:44:03.50	307.39	37.06	-40.2	-40.8	21.2	0.00e+00	0	57	0	2304770048	43	3787
2026-01-02 04:44:04.49	306.99	36.99	-40.0	-40.6	21.4	0.00e+00	0	57	0	2310012928	43	3697
2026-01-02 04:44:05.47	306.59	36.93	-40.0	-40.6	21.4	0.00e+00	0	57	0	2315255808	43	3699
2026-01-02 04:44:06.46	306.19	36.86	-40.1	-40.7	21.2	0.00e+00	0	57	0	2321547264	43	3766
2026-01-02 04:44:07.45	305.79	36.79	-40.0	-40.6	21.3	0.00e+00	0	57	0	2326790144	43	3713
2026-01-02 04:44:08.42	305.40	36.72	-39.6	-40.2	21.8	0.00e+00	0	57	0	2332033024	42	3739
2026-01-02 04:44:09.41	305.00	36.65	-39.3	-39.8	22.1	0.00e+00	0	57	0	2338324480	41	3804
2026-01-02 04:44:10.40	304.61	36.57	-39.2	-39.7	22.1	0.00e+00	0	57	0	2343567360	41	3770
2026-01-02 04:44:11.38	304.22	36.50	-39.4	-39.9	22.0	0.00e+00	0	57	0	2348810240	41	3842
2026-01-02 04:44:12.37	303.83	36.42	-39.4	-39.9	22.0	0.00e+00	0	57	0	2354053120	41	3859
2026-01-02 04:44:13.36	303.44	36.34	-39.4	-39.9	21.9	0.00e+00	0	57	0	2360344576	41	3868
2026-01-02 04:44:14.34	303.06	36.26	-39.6	-40.1	21.8	0.00e+00	0	57	0	2365587456	41	3958
2026-01-02 04:44:15.33	302.68	36.18	-39.8	-40.3	21.6	0.00e+00	0	57	0	2370830336	41	4049
2026-01-02 04:44:16.31	302.30	36.10	-39.4	-39.9	21.9	0.00e+00	0	57	0	2377121792	41	3865
2026-01-02 04:44:17.30	301.92	36.02	-39.1	-39.6	22.2	0.00e+00	0	57	0	2382364672	41	3737
2026-01-02 04:44:18.29	301.54	35.93	-39.0	-39.5	22.3	0.00e+00	0	57	0	2387607552	41	3688
2026-01-02 04:44:19.28	301.16	35.85	-39.1	-39.6	22.3	0.00e+00	0	57	0	2393899008	41	3708
2026-01-02 04:44:20.26	300.79	35.76	-39.2	-39.7	22.2	0.00e+00	0	57	0	2399141888	41	3755
2026-01-02 04:44:21.25	300.42	35.67	-39.5	-40.0	21.9	0.00e+00	0	57	0	2404384768	41	3881
2026-01-02 04:44:22.24	300.05	35.58	-39.4	-40.0	21.9	0.00e+00	0	57	0	2410676224	41	3870
2026-01-02 04:44:23.23	299.68	35.49	-39.5	-40.0	21.9	0.00e+00	0	57	0	2415919104	41	3886
2026-01-02 04:44:24.21	299.31	35.40	-39.5	-40.1	21.9	0.00e+00	0	57	0	2421161984	41	3917
2026-01-02 04:44:25.20	298.95	35.31	-39.6	-40.1	21.8	0.00e+00	0	57	0	2426404864	41	3948
2026-01-02 04:44:26.19	298.59	35.22	-39.7	-40.2	21.6	0.00e+00	0	57	0	2432696320	41	4004
2026-01-02 04:44:27.18	298.23	35.12	-39.8	-40.3	21.6	0.00e+00	0	57	0	2437939200	41	4026
2026-01-02 04:44:28.17	297.87	35.03	-39.8	-40.3	21.6	0.00e+00	0	57	0	2443182080	41	4037
2026-01-02 04:44:29.15	297.52	34.93	-39.8	-40.4	21.5	0.00e+00	0	57	0	2449473536	41	4055
2026-01-02 04:44:30.13	297.16	34.84	-39.6	-40.1	21.7	0.00e+00	0	57	0	2454716416	41	3955
2026-01-02 04:44:31.12	296.81	34.74	-39.5	-40.1	21.8	0.00e+00	0	57	0	2459959296	41	3921
2026-01-02 04:44:32.11	296.46	34.64	-39.7	-40.2	21.7	0.00e+00	0	57	0	2465202176	41	3985
2026-01-02 04:44:33.10	296.11	34.54	-39.6	-40.1	21.8	0.00e+00	0	57	0	2471493632	41	3932
2026-01-02 04:44:34.08	295.77	34.44	-39.9	-40.4	21.5	0.00e+00	0	57	0	2476736512	41	4084
2026-01-02 04:44:35.07	295.43	34.34	-39.4	-39.9	22.0	0.00e+00	0	57	0	2481979392	41	3851
2026-01-02 04:44:36.06	295.09	34.23	-39.1	-39.6	22.2	0.00e+00	0	57	0	2488270848	41	3723
2026-01-02 04:44:37.05	294.75	34.13	-39.1	-39.6	22.3	0.00e+00	0	57	0	2493513728	41	3706
2026-01-02 04:44:38.04	294.41	34.03	-39.1	-39.6	22.3	0.00e+00	0	57	0	2498756608	41	3719
2026-01-02 04:44:39.03	294.08	33.92	-39.1	-39.6	22.2	0.00e+00	0	57	0	2505048064	41	3726
2026-01-02 04:44:40.02	293.74	33.81	-39.2	-39.7	22.1	0.00e+00	0	57	0	2510290944	41	3758
2026-01-02 04:44:41.01	293.41	33.71	-39.1	-39.6	22.2	0.00e+00	0	57	0	2515533824	41	3729
2026-01-02 04:44:42.00	293.09	33.60	-39.3	-39.8	22.1	0.00e+00	0	57	0	2521825280	41	3796
2026-01-02 04:44:42.99	292.76	33.49	-39.3	-39.8	22.1	0.00e+00	0	57	0	2527068160	41	3805
2026-01-02 04:44:43.98	292.44	33.38	-39.3	-39.8	22.0	0.00e+00	0	57	0	2532311040	41	3821
2026-01-02 04:44:44.98	292.11	33.27	-39.1	-39.6	22.2	0.00e+00	0	57	0	2537553920	41	3713
2026-01-02 04:44:45.97	291.79	33.16	-39.1	-39.6	22.3	0.00e+00	0	57	0	2543845376	41	3710
2026-01-02 04:44:46.96	291.47	33.05	-39.2	-39.7	22.2	0.00e+00	0	57	0	2549088256	41	3749
2026-01-02 04:44:47.96	291.16	32.94	-39.3	-39.8	22.0	0.00e+00	0	57	0	2554331136	41	3811
2026-01-02 04:44:48.94	290.85	32.83	-39.3	-39.8	22.1	0.00e+00	0	57	0	2560622592	41	3788
2026-01-02 04:44:49.93	290.53	32.72	-39.3	-39.8	22.1	0.00e+00	0	57	0	2565865472	41	3803
2026-01-02 04:44:50.91	290.23	32.61	-39.5	-40.1	21.8	0.00e+00	0	57	0	2571108352	41	3918
2026-01-02 04:44:51.90	289.92	32.49	-39.5	-40.1	21.8	0.00e+00	0	57	0	2577399808	41	3921
2026-01-02 04:44:52.89	289.62	32.38	-39.5	-40.1	21.8	0.00e+00	0	57	0	2582642688	41	3914
2026-01-02 04:44:53.88	289.32	32.26	-39.5	-40.1	21.8	0.00e+00	0	57	0	2587885568	41	3919
2026-01-02 04:44:54.87	289.02	32.15	-39.6	-40.1	21.8	0.00e+00	0	57	0	2593128448	41	3934
2026-01-02 04:44:55.85	288.72	32.04	-39.9	-40.4	21.5	0.00e+00	0	57	0	2599419904	41	4075
2026-01-02 04:44:56.84	288.42	31.92	-39.7	-40.2	21.6	0.00e+00	0	57	0	2604662784	41	4004
2026-01-02 04:44:57.83	288.13	31.80	-39.5	-40.1	21.8	0.00e+00	0	57	0	2609905664	41	3929
2026-01-02 04:44:58.82	287.84	31.69	-39.4	-40.0	21.9	0.00e+00	0	57	0	2616197120	41	3879
2026-01-02 04:44:59.81	287.55	31.57	-39.5	-40.0	21.8	0.00e+00	0	57	0	2621440000	41	3910
2026-01-02 04:45:00.81	287.26	31.45	-39.5	-40.0	21.8	0.00e+00	0	57	0	2626682880	41	3899
2026-01-02 04:45:01.80	286.97	31.34	-39.7	-40.2	21.7	0.00e+00	0	57	0	2632974336	41	3974
2026-01-02 04:45:02.79	286.69	31.22	-39.6	-40.2	21.7	0.00e+00	0	57	0	2638217216	41	3973
2026-01-02 04:45:03.79	286.41	31.10	-39.7	-40.2	21.6	0.00e+00	0	57	0	2643460096	41	3990
2026-01-02 04:45:04.78	286.13	30.98	-39.7	-40.3	21.6	0.00e+00	0	57	0	2649751552	41	4022
2026-01-02 04:45:05.77	285.85	30.86	-39.8	-40.3	21.6	0.00e+00	0	57	0	2654994432	41	4032
2026-01-02 04:45:06.76	285.57	30.74	-39.9	-40.4	21.5	0.00e+00	0	57	0	2660237312	41	4095
2026-01-02 04:45:07.75	285.30	30.62	-39.8	-40.3	21.5	0.00e+00	0	57	0	2666528768	41	4035
2026-01-02 04:45:08.73	285.03	30.50	-39.6	-40.1	21.8	0.00e+00	0	57	0	2671771648	41	3947
2026-01-02 04:45:09.71	284.77	30.39	-39.4	-40.0	21.9	0.00e+00	0	57	0	2677014528	41	3870
2026-01-02 04:45:10.70	284.50	30.27	-39.4	-39.9	22.0	0.00e+00	0	57	0	2683305984	41	3834
2026-01-02 04:45:11.69	284.24	30.15	-39.3	-39.8	22.1	0.00e+00	0	57	0	2688548864	41	3790
2026-01-02 04:45:12.68	283.97	30.03	-39.2	-39.8	22.1	0.00e+00	0	57	0	2693791744	41	3781
2026-01-02 04:45:13.66	283.71	29.91	-39.4	-40.0	21.9	0.00e+00	0	57	0	2699034624	41	3871
2026-01-02 04:45:14.65	283.45	29.79	-39.6	-40.1	21.7	0.00e+00	0	57	0	2705326080	41	3947
2026-01-02 04:45:15.63	283.20	29.67	-39.7	-40.2	21.6	0.00e+00	0	57	0	2710568960	41	3996
2026-01-02 04:45:16.62	282.94	29.55	-39.8	-40.3	21.5	0.00e+00	0	57	0	2715811840	41	4050
2026-01-02 04:45:17.61	282.69	29.42	-39.8	-40.3	21.5	0.00e+00	0	57	0	2722103296	41	4045
2026-01-02 04:45:18.60	282.44	29.30	-39.8	-40.4	21.5	0.00e+00	0	57	0	2727346176	41	4061
2026-01-02 04:45:19.59	282.19	29.18	-39.9	-40.4	21.4	0.00e+00	0	57	0	2732589056	41	4085
2026-01-02 04:45:20.58	281.94	29.06	-40.1	-40.7	21.2	0.00e+00	0	57	0	2737831936	42	3970
2026-01-02 04:45:21.57	281.70	28.94	-40.2	-40.7	21.2	0.00e+00	0	57	0	2744123392	42	3992
2026-01-02 04:45:22.55	281.46	28.82	-40.2	-40.8	21.1	0.00e+00	0	57	0	2749366272	42	4028
2026-01-02 04:45:23.55	281.21	28.70	-40.2	-40.8	21.1	0.00e+00	0	57	0	2754609152	42	4021
2026-01-02 04:45:24.53	280.97	28.58	-39.9	-40.4	21.5	0.00e+00	0	57	0	2760900608	42	3859
2026-01-02 04:45:25.52	280.73	28.45	-39.7	-40.2	21.6	0.00e+00	0	57	0	2766143488	42	3778
2026-01-02 04:45:26.52	280.50	28.33	-39.7	-40.3	21.6	0.00e+00	0	57	0	2771386368	42	3795
2026-01-02 04:45:27.51	280.26	28.21	-39.8	-40.4	21.5	0.00e+00	0	57	0	2777677824	42	3844
2026-01-02 04:45:28.49	280.03	28.09	-40.0	-40.5	21.4	0.00e+00	0	57	0	2782920704	42	3895
2026-01-02 04:45:29.47	279.80	27.97	-40.0	-40.6	21.3	0.00e+00	0	57	0	2788163584	42	3925
2026-01-02 04:45:30.45	279.57	27.85	-40.0	-40.5	21.4	0.00e+00	0	57	0	2793406464	42	3899
2026-01-02 04:45:31.44	279.35	27.73	-40.0	-40.6	21.3	0.00e+00	0	57	0	2799697920	42	3939
2026-01-02 04:45:32.42	279.12	27.61	-40.1	-40.7	21.2	0.00e+00	0	57	0	2804940800	42	3986
2026-01-02 04:45:33.41	278.90	27.49	-40.2	-40.7	21.2	0.00e+00	0	57	0	2810183680	42	4001
2026-01-02 04:45:34.40	278.68	27.36	-40.1	-40.6	21.3	0.00e+00	0	57	0	2816475136	42	3947
2026-01-02 04:45:35.39	278.46	27.24	-40.1	-40.7	21.2	0.00e+00	0	57	0	2821718016	42	3961
2026-01-02 04:45:36.38	278.24	27.12	-40.0	-40.5	21.4	0.00e+00	0	57	0	2826960896	42	3910
2026-01-02 04:45:37.37	278.02	27.00	-39.9	-40.5	21.4	0.00e+00	0	57	0	2832203776	42	3881
2026-01-02 04:45:38.35	277.80	26.88	-40.0	-40.5	21.4	0.00e+00	0	57	0	2838495232	42	3909
2026-01-02 04:45:39.34	277.59	26.76	-40.2	-40.8	21.2	0.00e+00	0	57	0	2843738112	42	4014
2026-01-02 04:45:40.33	277.38	26.64	-40.4	-41.0	21.0	0.00e+00	0	57	0	2848980992	42	4100
2026-01-02 04:45:41.32	277.17	26.52	-40.3	-40.8	21.1	0.00e+00	0	57	0	2855272448	42	4046
2026-01-02 04:45:42.31	276.96	26.40	-40.2	-40.8	21.1	0.00e+00	0	57	0	2860515328	42	4030
2026-01-02 04:45:43.29	276.75	26.28	-40.3	-40.8	21.1	0.00e+00	0	57	0	2865758208	42	4042
2026-01-02 04:45:44.28	276.55	26.16	-40.2	-40.7	21.2	0.00e+00	0	57	0	2871001088	42	4000
2026-01-02 04:45:45.27	276.34	26.04	-40.2	-40.8	21.1	0.00e+00	0	57	0	2877292544	42	4008
2026-01-02 04:45:46.27	276.14	25.91	-40.3	-40.9	21.0	0.00e+00	0	57	0	2882535424	42	4066
2026-01-02 04:45:47.26	275.94	25.79	-40.3	-40.8	21.1	0.00e+00	0	57	0	2888826880	42	4039
2026-01-02 04:45:48.24	275.74	25.68	-40.2	-40.8	21.1	0.00e+00	0	57	0	2894069760	42	4025
2026-01-02 04:45:49.23	275.54	25.56	-40.3	-40.9	21.0	0.00e+00	0	57	0	2899312640	42	4073
2026-01-02 04:45:50.22	275.34	25.44	-40.3	-40.9	21.0	0.00e+00	0	57	0	2904555520	42	4059
2026-01-02 04:45:51.20	275.15	25.32	-40.5	-41.1	20.9	0.00e+00	0	57	0	2910846976	42	4155
2026-01-02 04:45:52.18	274.96	25.20	-40.7	-41.3	20.7	0.00e+00	0	57	0	2916089856	43	4016
2026-01-02 04:45:53.18	274.76	25.08	-40.5	-41.1	20.8	0.00e+00	0	57	0	2921332736	43	3948
2026-01-02 04:45:54.17	274.57	24.96	-40.6	-41.2	20.7	0.00e+00	0	57	0	2927624192	43	3963
2026-01-02 04:45:55.15	274.38	24.84	-40.7	-41.3	20.6	0.00e+00	0	57	0	2932867072	43	4025
2026-01-02 04:45:56.14	274.20	24.72	-40.7	-41.3	20.6	0.00e+00	0	57	0	2938109952	43	4020
2026-01-02 04:45:57.13	274.01	24.61	-40.8	-41.4	20.6	0.00e+00	0	57	0	2943352832	43	4058
2026-01-02 04:45:58.12	273.82	24.49	-40.9	-41.5	20.4	0.00e+00	0	57	0	2949644288	43	4129
2026-01-02 04:45:59.11	273.64	24.37	-40.7	-41.3	20.6	0.00e+00	0	57	0	2954887168	43	4019
2026-01-02 04:46:00.10	273.46	24.25	-40.5	-41.1	20.8	0.00e+00	0	57	0	2961178624	43	3940
2026-01-02 04:46:01.08	273.28	24.13	-40.7	-41.2	20.7	0.00e+00	0	57	0	2966421504	43	4002
2026-01-02 04:46:02.06	273.10	24.02	-40.9	-41.5	20.4	0.00e+00	0	57	0	2971664384	43	4106
2026-01-02 04:46:03.06	272.92	23.90	-40.6	-41.2	20.7	0.00e+00	0	57	0	2976907264	43	3981
2026-01-02 04:46:04.05	272.74	23.78	-40.4	-41.0	20.9	0.00e+00	0	57	0	2983198720	43	3889
2026-01-02 04:46:05.03	272.57	23.67	-40.4	-40.9	20.9	0.00e+00	0	57	0	2988441600	43	3858
2026-01-02 04:46:06.01	272.40	23.55	-40.4	-41.0	20.9	0.00e+00	0	57	0	2993684480	43	3872
2026-01-02 04:46:07.01	272.22	23.44	-40.4	-40.9	21.0	0.00e+00	0	57	0	2999975936	43	3861
2026-01-02 04:46:07.99	272.05	23.32	-40.3	-40.9	21.0	0.00e+00	0	57	0	3005218816	43	3847
2026-01-02 04:46:08.98	271.88	23.20	-40.5	-41.0	20.9	0.00e+00	0	57	0	3010461696	43	3907
2026-01-02 04:46:09.97	271.71	23.09	-40.7	-41.3	20.6	0.00e+00	0	57	0	3015704576	43	4020
2026-01-02 04:46:10.96	271.54	22.97	-40.5	-41.1	20.8	0.00e+00	0	57	0	3021996032	43	3925
2026-01-02 04:46:11.95	271.38	22.86	-40.3	-40.9	21.0	0.00e+00	0	57	0	3027238912	43	3835
2026-01-02 04:46:12.95	271.21	22.74	-40.2	-40.8	21.1	0.00e+00	0	57	0	3032481792	43	3799
2026-01-02 04:46:13.94	271.05	22.63	-40.3	-40.9	21.0	0.00e+00	0	57	0	3038773248	43	3825
2026-01-02 04:46:14.93	270.88	22.51	-40.3	-40.9	21.0	0.00e+00	0	57	0	3044016128	43	3832
2026-01-02 04:46:15.92	270.72	22.40	-40.5	-41.0	20.8	0.00e+00	0	57	0	3049259008	43	3908
2026-01-02 04:46:16.91	270.56	22.29	-40.4	-41.0	20.9	0.00e+00	0	57	0	3055550464	43	3881
2026-01-02 04:46:17.90	270.40	22.17	-40.6	-41.2	20.7	0.00e+00	0	57	0	3060793344	43	3961
2026-01-02 04:46:18.89	270.24	22.06	-40.5	-41.1	20.8	0.00e+00	0	57	0	3066036224	43	3934
2026-01-02 04:46:19.88	270.09	21.95	-40.5	-41.1	20.7	0.00e+00	0	57	0	3071279104	43	3950
2026-01-02 04:46:20.87	269.93	21.83	-40.7	-41.3	20.6	0.00e+00	0	57	0	3077570560	43	4005
2026-01-02 04:46:21.86	269.78	21.72	-40.8	-41.4	20.5	0.00e+00	0	57	0	3082813440	43	4054
2026-01-02 04:46:22.84	269.62	21.61	-40.7	-41.3	20.5	0.00e+00	0	57	0	3089104896	43	4043
2026-01-02 04:46:23.83	269.47	21.50	-40.8	-41.4	20.5	0.00e+00	0	57	0	3094347776	43	4057
2026-01-02 04:46:24.81	269.32	21.39	-40.8	-41.4	20.5	0.00e+00	0	57	0	3099590656	43	4062
2026-01-02 04:46:25.80	269.17	21.28	-40.8	-41.5	20.4	0.00e+00	0	57	0	3104833536	43	4100
2026-01-02 04:46:26.79	269.02	21.17	-41.0	-41.6	20.3	0.00e+00	0	57	0	3111124992	43	4155
2026-01-02 04:46:27.78	268.87	21.06	-41.0	-41.6	20.3	0.00e+00	0	57	0	3116367872	43	4156
2026-01-02 04:46:28.77	268.73	20.94	-41.0	-41.6	20.3	0.00e+00	0	57	0	3121610752	43	4165
2026-01-02 04:46:29.76	268.58	20.83	-41.0	-41.6	20.3	0.00e+00	0	57	0	3127902208	43	4161
2026-01-02 04:46:30.75	268.44	20.72	-41.0	-41.6	20.3	0.00e+00	0	57	0	3133145088	43	4159
2026-01-02 04:46:31.74	268.29	20.62	-41.1	-41.7	20.2	0.00e+00	0	57	0	3138387968	43	4221
2026-01-02 04:46:32.73	268.15	20.51	-41.2	-41.8	20.2	0.00e+00	0	57	0	3143630848	44	4022
2026-01-02 04:46:33.71	268.01	20.40	-41.3	-41.9	20.1	0.00e+00	0	57	0	3149922304	44	4080
2026-01-02 04:46:34.69	267.87	20.29	-41.2	-41.8	20.2	0.00e+00	0	57	0	3155165184	44	4029
2026-01-02 04:46:35.68	267.73	20.18	-41.0	-41.6	20.3	0.00e+00	0	57	0	3160408064	44	3954
2026-01-02 04:46:36.67	267.59	20.07	-41.0	-41.7	20.3	0.00e+00	0	57	0	3166699520	44	3962
2026-01-02 04:46:37.66	267.45	19.97	-41.1	-41.7	20.3	0.00e+00	0	57	0	3171942400	44	3980
2026-01-02 04:46:38.65	267.32	19.86	-41.3	-41.9	20.1	0.00e+00	0	57	0	3177185280	44	4075
2026-01-02 04:46:39.63	267.18	19.75	-41.2	-41.9	20.1	0.00e+00	0	57	0	3182428160	44	4060
2026-01-02 04:46:40.62	267.05	19.64	-41.3	-42.0	20.0	0.00e+00	0	57	0	3188719616	44	4113
2026-01-02 04:46:41.60	266.91	19.54	-41.3	-42.0	20.0	0.00e+00	0	57	0	3193962496	44	4114
2026-01-02 04:46:42.59	266.78	19.43	-41.2	-41.8	20.2	0.00e+00	0	57	0	3199205376	44	4042
2026-01-02 04:46:43.58	266.65	19.33	-41.1	-41.8	20.2	0.00e+00	0	57	0	3205496832	44	4006
2026-01-02 04:46:44.57	266.52	19.22	-41.1	-41.7	20.2	0.00e+00	0	57	0	3210739712	44	4002
2026-01-02 04:46:45.56	266.39	19.11	-41.2	-41.9	20.1	0.00e+00	0	57	0	3215982592	44	4059
2026-01-02 04:46:46.54	266.26	19.01	-41.4	-42.1	19.9	0.00e+00	0	57	0	3222274048	44	4150
2026-01-02 04:46:47.53	266.13	18.91	-41.5	-42.2	19.8	0.00e+00	0	57	0	3227516928	44	4194
2026-01-02 04:46:48.52	266.00	18.80	-41.4	-42.0	19.9	0.00e+00	0	57	0	3232759808	44	4130
2026-01-02 04:46:49.52	265.88	18.70	-41.5	-42.1	19.8	0.00e+00	0	57	0	3239051264	44	4187
2026-01-02 04:46:50.51	265.75	18.59	-41.5	-42.2	19.8	0.00e+00	0	57	0	3244294144	44	4207
2026-01-02 04:46:51.50	265.63	18.49	-41.4	-42.1	19.9	0.00e+00	0	57	0	3249537024	44	4163
2026-01-02 04:46:52.49	265.50	18.38	-41.6	-42.3	19.7	0.00e+00	0	57	0	3255828480	44	4247
2026-01-02 04:46:53.48	265.38	18.28	-41.6	-42.2	19.7	0.00e+00	0	57	0	3261071360	45	4000
2026-01-02 04:46:54.47	265.26	18.18	-41.6	-42.2	19.7	0.00e+00	0	57	0	3266314240	45	3994
2026-01-02 04:46:55.45	265.14	18.08	-41.8	-42.5	19.5	0.00e+00	0	57	0	3271557120	45	4112
2026-01-02 04:46:56.45	265.01	17.97	-41.9	-42.6	19.4	0.00e+00	0	57	0	3277848576	45	4164
2026-01-02 04:46:57.44	264.89	17.87	-41.9	-42.6	19.4	0.00e+00	0	57	0	3283091456	45	4175
2026-01-02 04:46:58.42	264.78	17.77	-41.9	-42.6	19.4	0.00e+00	0	57	0	3288334336	45	4169
2026-01-02 04:46:59.41	264.66	17.67	-41.8	-42.4	19.5	0.00e+00	0	57	0	3294625792	45	4098
2026-01-02 04:47:00.40	264.54	17.57	-41.8	-42.5	19.5	0.00e+00	0	57	0	3299868672	45	4115
2026-01-02 04:47:01.39	264.43	17.47	-42.0	-42.7	19.3	0.00e+00	0	57	0	3305111552	45	4194
2026-01-02 04:47:02.37	264.31	17.37	-42.2	-42.9	19.1	0.00e+00	0	57	0	3310354432	46	4063
2026-01-02 04:47:03.36	264.20	17.27	-42.0	-42.7	19.3	0.00e+00	0	57	0	3316645888	46	3977
2026-01-02 04:47:04.35	264.08	17.17	-41.9	-42.6	19.4	0.00e+00	0	57	0	3321888768	46	3949
2026-01-02 04:47:05.34	263.97	17.07	-41.9	-42.6	19.4	0.00e+00	0	57	0	3328180224	46	3938
2026-01-02 04:47:06.33	263.86	16.97	-42.0	-42.7	19.3	0.00e+00	0	57	0	3333423104	46	3980
2026-01-02 04:47:07.32	263.74	16.87	-42.1	-42.8	19.2	0.00e+00	0	57	0	3338665984	46	4035
2026-01-02 04:47:08.30	263.63	16.77	-42.2	-42.9	19.1	0.00e+00	0	57	0	3343908864	46	4074
2026-01-02 04:47:09.29	263.52	16.67	-42.0	-42.7	19.3	0.00e+00	0	57	0	3350200320	46	3966
2026-01-02 04:47:10.28	263.41	16.57	-41.9	-42.6	19.4	0.00e+00	0	57	0	3355443200	46	3944
2026-01-02 04:47:11.28	263.30	16.47	-42.1	-42.8	19.1	0.00e+00	0	57	0	3360686080	46	4028
2026-01-02 04:47:12.25	263.20	16.38	-42.2	-42.9	19.0	0.00e+00	0	57	0	3366977536	46	4091
2026-01-02 04:47:13.24	263.09	16.28	-42.0	-42.7	19.2	0.00e+00	0	57	0	3372220416	46	3999
2026-01-02 04:47:14.24	262.98	16.18	-42.1	-42.8	19.1	0.00e+00	0	57	0	3377463296	46	4045
2026-01-02 04:47:15.22	262.88	16.09	-42.0	-42.7	19.2	0.00e+00	0	57	0	3382706176	46	3999
2026-01-02 04:47:16.21	262.77	15.99	-42.1	-42.8	19.2	0.00e+00	0	57	0	3388997632	46	4019
2026-01-02 04:47:17.20	262.67	15.89	-42.2	-42.9	19.0	0.00e+00	0	57	0	3394240512	46	4077
2026-01-02 04:47:18.19	262.56	15.80	-42.2	-42.9	19.1	0.00e+00	0	57	0	3399483392	46	4083
2026-01-02 04:47:19.18	262.46	15.70	-42.3	-43.1	18.9	0.00e+00	0	57	0	3405774848	46	4152
2026-01-02 04:47:20.17	262.36	15.61	-42.2	-42.9	19.0	0.00e+00	0	57	0	3411017728	46	4073
2026-01-02 04:47:21.16	262.26	15.51	-42.3	-43.0	18.9	0.00e+00	0	57	0	3416260608	46	4132
2026-01-02 04:47:22.15	262.15	15.42	-42.4	-43.1	18.9	0.00e+00	0	57	0	3422552064	46	4175
2026-01-02 04:47:23.13	262.05	15.32	-42.4	-43.1	18.9	0.00e+00	0	57	0	3427794944	46	4163
2026-01-02 04:47:24.13	261.95	15.23	-42.5	-43.2	18.7	0.00e+00	0	57	0	3433037824	46	4225
2026-01-02 04:47:25.11	261.86	15.13	-42.5	-43.3	18.7	0.00e+00	0	57	0	3438280704	46	4254
2026-01-02 04:47:26.11	261.76	15.04	-42.6	-43.4	18.6	0.00e+00	0	57	0	3444572160	47	4052
2026-01-02 04:47:27.10	261.66	14.94	-42.4	-43.2	18.8	0.00e+00	0	57	0	3449815040	47	3969
2026-01-02 04:47:28.09	261.56	14.85	-42.4	-43.2	18.7	0.00e+00	0	57	0	3456106496	47	3975
2026-01-02 04:47:29.08	261.46	14.76	-42.5	-43.2	18.7	0.00e+00	0	57	0	3461349376	47	3996
2026-01-02 04:47:30.06	261.37	14.67	-42.7	-43.4	18.5	0.00e+00	0	57	0	3466592256	47	4091
2026-01-02 04:47:31.05	261.27	14.57	-42.6	-43.3	18.6	0.00e+00	0	57	0	3471835136	47	4026
2026-01-02 04:47:32.04	261.18	14.48	-42.5	-43.2	18.7	0.00e+00	0	57	0	3478126592	47	3994
2026-01-02 04:47:33.03	261.08	14.39	-42.5	-43.3	18.7	0.00e+00	0	57	0	3483369472	47	4012
2026-01-02 04:47:34.02	260.99	14.30	-42.7	-43.4	18.5	0.00e+00	0	58	0	3488612352	47	4092
2026-01-02 04:47:35.01	260.90	14.21	-42.6	-43.4	18.6	0.00e+00	0	57	0	3494903808	47	4055
2026-01-02 04:47:36.00	260.80	14.12	-42.5	-43.2	18.7	0.00e+00	0	57	0	3500146688	47	3987
2026-01-02 04:47:36.99	260.71	14.02	-42.5	-43.3	18.6	0.00e+00	0	58	0	3505389568	47	4018
2026-01-02 04:47:37.98	260.62	13.93	-42.7	-43.5	18.5	0.00e+00	0	57	0	3510632448	47	4099
2026-01-02 04:47:38.97	260.53	13.84	-42.6	-43.4	18.5	0.00e+00	0	57	0	3516923904	47	4068
2026-01-02 04:47:39.96	260.44	13.75	-42.7	-43.5	18.4	0.00e+00	0	57	0	3522166784	47	4111
2026-01-02 04:47:40.94	260.35	13.66	-43.0	-43.8	18.1	0.00e+00	0	58	0	3528458240	47	4266
2026-01-02 04:47:41.92	260.26	13.58	-42.8	-43.6	18.3	0.00e+00	0	57	0	3533701120	47	4170
2026-01-02 04:47:42.91	260.17	13.49	-42.7	-43.5	18.4	0.00e+00	0	58	0	3538944000	47	4112
2026-01-02 04:47:43.91	260.09	13.40	-42.7	-43.4	18.4	0.00e+00	0	57	0	3544186880	47	4095
2026-01-02 04:47:44.90	260.00	13.31	-42.7	-43.5	18.4	0.00e+00	0	58	0	3550478336	47	4100
2026-01-02 04:47:45.89	259.91	13.22	-42.7	-43.5	18.4	0.00e+00	0	57	0	3555721216	47	4107
2026-01-02 04:47:46.88	259.82	13.13	-42.7	-43.5	18.4	0.00e+00	0	57	0	3560964096	47	4138
2026-01-02 04:47:47.86	259.74	13.04	-42.8	-43.6	18.3	0.00e+00	0	57	0	3567255552	47	4159
2026-01-02 04:47:48.85	259.65	12.96	-42.8	-43.6	18.2	0.00e+00	0	58	0	3572498432	47	4184
2026-01-02 04:47:49.84	259.57	12.87	-43.0	-43.8	18.1	0.00e+00	0	58	0	3577741312	47	4278
2026-01-02 04:47:50.83	259.49	12.78	-42.9	-43.7	18.1	0.00e+00	0	57	0	3582984192	47	4234
2026-01-02 04:47:51.82	259.40	12.69	-43.0	-43.9	18.0	0.00e+00	0	58	0	3589275648	47	4304
2026-01-02 04:47:52.81	259.32	12.61	-43.2	-44.0	18.0	0.00e+00	0	58	0	3594518528	48	4140
2026-01-02 04:47:53.80	259.24	12.52	-43.3	-44.1	17.9	0.00e+00	0	57	0	3599761408	48	4176
2026-01-02 04:47:54.79	259.15	12.43	-43.4	-44.3	17.8	0.00e+00	0	58	0	3606052864	48	4251
2026-01-02 04:47:55.78	259.07	12.35	-43.4	-44.2	17.8	0.00e+00	0	57	0	3611295744	48	4228
2026-01-02 04:47:56.78	258.99	12.26	-43.5	-44.4	17.7	0.00e+00	0	58	0	3616538624	48	4299
2026-01-02 04:47:57.76	258.91	12.18	-43.5	-44.3	17.7	0.00e+00	0	57	0	3622830080	48	4286
2026-01-02 04:47:58.75	258.83	12.09	-43.6	-44.4	17.6	0.00e+00	0	57	0	3628072960	48	4340
2026-01-02 04:47:59.74	258.75	12.01	-43.5	-44.3	17.7	0.00e+00	0	58	0	3633315840	49	4050
2026-01-02 04:48:00.73	258.67	11.92	-43.6	-44.5	17.5	0.00e+00	0	57	0	3639607296	49	4120
2026-01-02 04:48:01.72	258.59	11.84	-43.9	-44.8	17.2	0.00e+00	0	58	0	3644850176	49	4288
2026-01-02 04:48:02.70	258.51	11.75	-43.8	-44.7	17.3	0.00e+00	0	57	0	3650093056	49	4239
2026-01-02 04:48:03.70	258.44	11.67	-43.6	-44.5	17.5	0.00e+00	0	57	0	3656384512	49	4112
2026-01-02 04:48:04.69	258.36	11.58	-43.4	-44.3	17.7	0.00e+00	0	57	0	3661627392	49	4023
2026-01-02 04:48:05.66	258.28	11.50	-43.4	-44.2	17.8	0.00e+00	0	58	0	3666870272	49	3994
2026-01-02 04:48:06.66	258.20	11.42	-43.4	-44.3	17.7	0.00e+00	0	57	0	3672113152	49	4011
