passes_logs/2026/01/02/R3.0SM8_Murmansk_STILSPACE/R3.0SM8_Murmansk_STILSPACE__20260102_094248_NOAA_21_JPSS-2_rec.log

#Pass ID: 20260102_094248_NOAA 21 (JPSS-2)
#Satellite: NOAA 21 (JPSS-2)
#Configuration: NOAA-21
#almurnet v.1.7.20240730
#Start time: 2026-01-02 09:47:30

#Version: 2.2.20231116
#Station: R3.0SM8_Murmansk_STILSPACE
#Location: 33.092731 lon 68.902999 lat
#TLE: 1 54234U 22150A   26001.26806856  .00000185  00000+0  10843-3 0  9990
#TLE: 2 54234  98.7484 302.3349 0001277 353.3887   6.7272 14.19530660162860

#Time	Az	El	Level	Level2	SNR	BER	BlckErr	Temp	State	Recorded	gain1	gain2
2026-01-02 09:47:30.56	161.38	36.75	-52.8	-63.6	3.8	8.47e-01	0	56	0	0	67	13121
2026-01-02 09:47:31.54	161.42	36.98	-52.9	-64.4	3.8	1.49e+00	0	57	104	0	68	13667
2026-01-02 09:47:32.53	161.47	37.22	-53.0	-64.4	3.8	1.49e+00	0	57	104	0	68	13725
2026-01-02 09:47:33.52	161.52	37.46	-52.8	-64.4	3.8	1.49e+00	0	57	104	0	68	13723
2026-01-02 09:47:34.51	161.57	37.70	-52.9	-64.5	3.8	1.49e+00	0	57	104	0	68	13745
2026-01-02 09:47:35.50	161.62	37.94	-52.9	-64.4	3.8	1.49e+00	0	57	104	0	68	13708
2026-01-02 09:47:36.49	161.67	38.19	-53.0	-64.5	3.8	1.49e+00	0	57	104	0	68	13737
2026-01-02 09:47:37.49	161.72	38.44	-53.0	-64.4	3.8	1.49e+00	0	57	104	0	68	13715
2026-01-02 09:47:38.47	161.77	38.68	-52.9	-64.4	3.8	1.49e+00	0	57	104	0	68	13711
2026-01-02 09:47:39.46	161.82	38.93	-52.9	-64.4	3.8	1.49e+00	0	57	104	0	68	13703
2026-01-02 09:47:40.45	161.87	39.18	-52.9	-64.4	3.8	1.49e+00	0	57	104	0	68	13671
2026-01-02 09:47:41.45	161.93	39.44	-53.0	-64.4	3.8	1.49e+00	0	57	104	0	68	13713
2026-01-02 09:47:42.45	161.98	39.69	-52.9	-64.4	3.8	1.49e+00	0	57	104	0	68	13697
2026-01-02 09:47:43.44	162.04	39.95	-52.9	-64.5	3.8	1.49e+00	0	57	104	0	68	13732
2026-01-02 09:47:44.43	162.09	40.21	-52.9	-64.5	3.8	1.49e+00	0	57	104	0	68	13730
2026-01-02 09:47:45.42	162.15	40.47	-52.9	-64.4	3.8	1.49e+00	0	57	104	0	68	13644
2026-01-02 09:47:46.41	162.20	40.73	-52.8	-64.4	3.8	1.49e+00	0	57	104	0	68	13673
2026-01-02 09:47:47.40	162.26	41.00	-52.9	-64.4	3.8	1.49e+00	0	57	104	0	68	13668
2026-01-02 09:47:48.39	162.32	41.26	-52.9	-64.4	3.8	1.49e+00	0	57	104	0	68	13676
2026-01-02 09:47:49.38	162.38	41.53	-52.8	-64.4	3.8	1.49e+00	0	57	104	0	68	13691
2026-01-02 09:47:50.37	162.44	41.80	-52.9	-64.4	3.8	1.49e+00	0	57	104	0	68	13673
2026-01-02 09:47:51.36	162.50	42.07	-53.0	-64.4	3.8	1.49e+00	0	57	104	0	68	13709
2026-01-02 09:47:52.35	162.57	42.35	-52.8	-64.4	3.8	1.49e+00	0	57	104	0	68	13622
2026-01-02 09:47:53.34	162.63	42.62	-52.9	-64.4	3.8	1.49e+00	0	57	104	0	68	13706
2026-01-02 09:47:54.33	162.70	42.90	-52.7	-64.4	3.8	1.49e+00	0	57	104	0	68	13680
2026-01-02 09:47:55.31	162.76	43.18	-52.8	-64.4	3.8	1.49e+00	0	57	104	0	68	13688
2026-01-02 09:47:56.31	162.83	43.46	-52.9	-64.4	3.8	1.49e+00	0	57	104	0	68	13652
2026-01-02 09:47:57.30	162.90	43.75	-52.8	-64.4	3.8	1.49e+00	0	57	104	0	68	13631
2026-01-02 09:47:58.30	162.97	44.04	-53.0	-64.4	3.8	1.49e+00	0	57	104	0	68	13664
2026-01-02 09:47:59.29	163.04	44.33	-52.8	-64.4	3.8	1.49e+00	0	57	104	0	68	13682
2026-01-02 09:48:00.28	163.11	44.62	-52.9	-64.4	3.8	1.49e+00	0	57	104	0	68	13660
2026-01-02 09:48:01.28	163.18	44.91	-52.7	-64.4	3.8	1.49e+00	0	57	104	0	68	13637
2026-01-02 09:48:02.27	163.26	45.21	-52.9	-64.4	3.8	1.49e+00	0	57	104	0	68	13664
2026-01-02 09:48:03.26	163.33	45.50	-52.9	-64.4	3.8	1.49e+00	0	57	104	0	68	13640
2026-01-02 09:48:04.24	163.41	45.80	-52.9	-64.3	3.8	1.49e+00	0	57	104	0	68	13551
2026-01-02 09:48:05.23	163.49	46.10	-52.8	-64.3	3.8	1.49e+00	0	57	104	0	68	13508
2026-01-02 09:48:06.22	163.57	46.40	-52.9	-64.3	3.8	1.49e+00	0	57	104	0	68	13560
2026-01-02 09:48:07.22	163.65	46.71	-52.9	-64.3	3.8	1.49e+00	0	57	104	0	68	13550
2026-01-02 09:48:08.21	163.73	47.02	-52.9	-64.3	3.8	1.49e+00	0	57	104	0	68	13546
2026-01-02 09:48:09.20	163.82	47.33	-52.8	-64.3	3.8	1.49e+00	0	57	104	0	68	13531
2026-01-02 09:48:10.19	163.91	47.64	-52.9	-64.4	3.8	1.49e+00	0	57	104	0	68	13644
2026-01-02 09:48:11.17	163.99	47.95	-52.9	-64.5	3.8	1.49e+00	0	57	104	0	68	13733
2026-01-02 09:48:12.16	164.08	48.27	-52.9	-64.4	3.8	1.49e+00	0	57	104	0	68	13662
2026-01-02 09:48:13.16	164.17	48.59	-52.8	-64.4	3.8	1.49e+00	0	57	104	0	68	13635
2026-01-02 09:48:14.15	164.27	48.91	-52.8	-64.3	3.8	1.49e+00	0	57	104	0	68	13530
2026-01-02 09:48:15.13	164.36	49.23	-52.7	-64.2	3.8	1.49e+00	0	57	104	0	68	13321
2026-01-02 09:48:16.13	164.46	49.56	-52.8	-64.2	3.8	1.49e+00	0	57	104	0	68	13353
2026-01-02 09:48:17.12	164.56	49.89	-52.8	-64.4	3.8	1.49e+00	0	57	104	0	68	13570
2026-01-02 09:48:18.11	164.66	50.22	-52.7	-64.3	3.8	1.49e+00	0	57	104	0	68	13530
2026-01-02 09:48:19.09	164.76	50.55	-52.8	-64.2	3.8	1.49e+00	0	57	104	0	68	13401
2026-01-02 09:48:20.08	164.87	50.88	-52.8	-64.2	3.8	1.49e+00	0	57	104	0	68	13330
2026-01-02 09:48:21.08	164.98	51.22	-52.8	-64.5	3.8	1.49e+00	0	57	104	0	68	13730
2026-01-02 09:48:22.07	165.09	51.56	-52.8	-63.8	3.8	1.49e+00	0	57	104	0	68	12767
2026-01-02 09:48:23.06	165.20	51.91	-52.6	-62.0	4.0	1.49e+00	0	57	104	0	68	10298
2026-01-02 09:48:24.04	165.31	52.25	-52.2	-59.7	4.5	1.45e+00	6	57	104	0	67	8428
2026-01-02 09:48:25.04	165.43	52.60	-50.7	-54.6	8.2	1.12e-01	0	58	0	1048576	64	5578
2026-01-02 09:48:26.03	165.55	52.95	-50.5	-54.0	9.0	2.29e-02	0	58	0	4194304	63	5509
2026-01-02 09:48:27.01	165.67	53.29	-51.2	-55.8	7.2	8.39e-02	0	57	0	7340032	64	6380
2026-01-02 09:48:28.01	165.80	53.65	-50.6	-54.4	8.5	6.30e-02	0	57	0	10485760	64	5440
2026-01-02 09:48:28.99	165.93	54.00	-50.0	-53.1	10.0	1.19e-02	0	57	0	13631488	63	4981
2026-01-02 09:48:29.97	166.06	54.36	-49.2	-51.7	11.5	1.13e-03	0	58	0	16777216	61	4707
2026-01-02 09:48:30.96	166.20	54.72	-48.4	-50.3	12.9	1.29e-04	0	58	0	19922944	59	4536
2026-01-02 09:48:31.94	166.33	55.08	-47.7	-49.3	13.9	7.00e-07	0	57	0	23068672	58	4257
2026-01-02 09:48:32.94	166.48	55.44	-47.0	-48.6	14.7	7.00e-07	0	58	0	26214400	57	4150
2026-01-02 09:48:33.93	166.62	55.81	-46.7	-48.0	15.2	0.00e+00	0	57	0	29360128	56	4133
2026-01-02 09:48:34.91	166.77	56.18	-46.2	-47.4	15.7	0.00e+00	0	58	0	32505856	55	4091
2026-01-02 09:48:35.91	166.93	56.55	-46.0	-47.1	16.0	0.00e+00	0	57	0	35651584	55	3943
2026-01-02 09:48:36.90	167.09	56.93	-45.8	-46.9	16.2	0.00e+00	0	57	0	38797312	54	4081
2026-01-02 09:48:37.89	167.25	57.30	-45.7	-46.8	16.3	0.00e+00	0	57	0	41943040	54	4009
2026-01-02 09:48:38.88	167.41	57.68	-45.5	-46.6	16.5	0.00e+00	0	58	0	45088768	54	3931
2026-01-02 09:48:39.86	167.58	58.06	-45.4	-46.5	16.6	0.00e+00	0	58	0	48234496	53	4123
2026-01-02 09:48:40.86	167.76	58.45	-45.3	-46.3	16.8	0.00e+00	0	58	0	50331648	53	4035
2026-01-02 09:48:41.85	167.94	58.83	-45.5	-46.6	16.6	0.00e+00	0	57	0	53477376	53	4153
2026-01-02 09:48:42.84	168.13	59.22	-45.0	-46.0	17.1	0.00e+00	0	58	0	56623104	53	3882
2026-01-02 09:48:43.82	168.32	59.61	-44.1	-45.0	18.2	0.00e+00	0	58	0	59768832	51	3897
2026-01-02 09:48:44.82	168.52	60.00	-43.6	-44.3	18.8	0.00e+00	0	58	0	62914560	50	3813
2026-01-02 09:48:45.81	168.72	60.40	-43.2	-43.9	19.1	0.00e+00	0	57	0	66060288	49	3857
2026-01-02 09:48:46.80	168.93	60.79	-43.2	-43.9	19.2	0.00e+00	0	57	0	69206016	49	3841
2026-01-02 09:48:47.78	169.15	61.19	-43.2	-43.9	19.2	0.00e+00	0	57	0	72351744	49	3837
2026-01-02 09:48:48.77	169.37	61.59	-42.9	-43.6	19.5	0.00e+00	0	57	0	75497472	49	3705
2026-01-02 09:48:49.76	169.60	61.99	-42.8	-43.5	19.5	0.00e+00	0	57	0	78643200	48	3881
2026-01-02 09:48:50.76	169.84	62.40	-43.2	-43.9	19.2	0.00e+00	0	57	0	81788928	48	4075
2026-01-02 09:48:51.75	170.09	62.81	-43.2	-43.9	19.2	0.00e+00	0	57	0	84934656	48	4059
2026-01-02 09:48:52.74	170.34	63.22	-43.4	-44.1	19.0	0.00e+00	0	57	0	88080384	48	4161
2026-01-02 09:48:53.72	170.60	63.62	-43.2	-43.9	19.2	0.00e+00	0	57	0	91226112	48	4091
2026-01-02 09:48:54.71	170.88	64.03	-43.0	-43.6	19.4	0.00e+00	0	58	0	94371840	48	3949
2026-01-02 09:48:55.70	171.16	64.45	-42.8	-43.5	19.6	0.00e+00	0	57	0	97517568	48	3892
2026-01-02 09:48:56.70	171.45	64.87	-43.0	-43.6	19.4	0.00e+00	0	57	0	100663296	48	3955
2026-01-02 09:48:57.69	171.76	65.29	-42.9	-43.6	19.4	0.00e+00	0	57	0	103809024	48	3953
2026-01-02 09:48:58.67	172.07	65.70	-43.0	-43.7	19.4	0.00e+00	0	58	0	106954752	48	3997
2026-01-02 09:48:59.65	172.39	66.12	-42.9	-43.6	19.4	0.00e+00	0	58	0	109051904	48	3915
2026-01-02 09:49:00.64	172.73	66.54	-42.7	-43.4	19.6	0.00e+00	0	57	0	112197632	48	3840
2026-01-02 09:49:01.64	173.09	66.97	-42.8	-43.4	19.5	0.00e+00	0	58	0	115343360	48	3860
2026-01-02 09:49:02.63	173.46	67.39	-43.0	-43.6	19.3	0.00e+00	0	57	0	118489088	48	3951
2026-01-02 09:49:03.62	173.84	67.82	-43.1	-43.8	19.3	0.00e+00	0	58	0	121634816	48	4016
2026-01-02 09:49:04.62	174.24	68.25	-42.9	-43.6	19.5	0.00e+00	0	58	0	124780544	48	3932
2026-01-02 09:49:05.61	174.66	68.68	-43.0	-43.6	19.3	0.00e+00	0	58	0	127926272	48	3954
2026-01-02 09:49:06.60	175.10	69.11	-42.8	-43.5	19.5	0.00e+00	0	57	0	131072000	48	3891
2026-01-02 09:49:07.60	175.56	69.54	-42.8	-43.5	19.5	0.00e+00	0	58	0	134217728	48	3891
2026-01-02 09:49:08.58	176.03	69.97	-42.7	-43.4	19.7	0.00e+00	0	57	0	137363456	48	3827
2026-01-02 09:49:09.57	176.52	70.40	-42.9	-43.6	19.5	0.00e+00	0	58	0	140509184	48	3919
2026-01-02 09:49:10.56	177.04	70.83	-43.0	-43.7	19.4	0.00e+00	0	57	0	143654912	48	3995
2026-01-02 09:49:11.56	177.60	71.27	-43.3	-44.0	19.1	0.00e+00	0	57	0	146800640	48	4114
2026-01-02 09:49:12.55	178.17	71.70	-43.3	-44.0	19.0	0.00e+00	0	57	0	149946368	48	4124
2026-01-02 09:49:13.54	178.77	72.13	-43.4	-44.1	19.0	0.00e+00	0	57	0	153092096	48	4168
2026-01-02 09:49:14.54	179.42	72.57	-43.6	-44.3	18.8	0.00e+00	0	58	0	156237824	48	4260
2026-01-02 09:49:15.53	180.08	73.00	-43.4	-44.1	19.0	0.00e+00	0	58	0	159383552	49	3925
2026-01-02 09:49:16.52	180.79	73.43	-43.2	-43.9	19.1	0.00e+00	0	58	0	162529280	49	3864
2026-01-02 09:49:17.50	181.53	73.86	-43.6	-44.4	18.8	0.00e+00	0	57	0	165675008	49	4052
2026-01-02 09:49:18.49	182.31	74.29	-43.9	-44.6	18.5	0.00e+00	0	57	0	168820736	49	4189
2026-01-02 09:49:19.48	183.14	74.71	-43.8	-44.5	18.6	0.00e+00	0	58	0	171966464	49	4144
2026-01-02 09:49:20.48	184.04	75.14	-44.1	-44.9	18.3	0.00e+00	0	58	0	175112192	49	4305
2026-01-02 09:49:21.46	184.96	75.56	-44.2	-45.0	18.1	0.00e+00	0	58	0	177209344	50	4119
2026-01-02 09:49:22.45	185.95	75.98	-44.2	-45.0	18.1	0.00e+00	0	57	0	180355072	50	4143
2026-01-02 09:49:23.44	187.01	76.40	-44.4	-45.2	17.9	0.00e+00	0	57	0	183500800	50	4232
2026-01-02 09:49:24.43	188.14	76.82	-44.4	-45.3	17.8	0.00e+00	0	58	0	186646528	50	4270
2026-01-02 09:49:25.42	189.34	77.23	-44.5	-45.4	17.7	0.00e+00	0	58	0	189792256	51	4067
2026-01-02 09:49:26.41	190.62	77.63	-44.2	-45.0	18.1	0.00e+00	0	57	0	192937984	51	3889
2026-01-02 09:49:27.39	191.97	78.03	-44.3	-45.1	18.0	0.00e+00	0	57	0	196083712	51	3945
2026-01-02 09:49:28.38	193.43	78.42	-44.1	-44.9	18.2	0.00e+00	0	58	0	199229440	51	3849
2026-01-02 09:49:29.37	195.00	78.81	-44.3	-45.1	18.0	0.00e+00	0	57	0	202375168	51	3935
2026-01-02 09:49:30.36	196.68	79.19	-44.1	-44.9	18.2	0.00e+00	0	57	0	205520896	51	3845
2026-01-02 09:49:31.35	198.49	79.56	-43.7	-44.5	18.6	0.00e+00	0	57	0	208666624	50	3869
2026-01-02 09:49:32.34	200.42	79.92	-43.2	-43.9	19.1	0.00e+00	0	57	0	211812352	49	3862
2026-01-02 09:49:33.32	202.48	80.26	-42.8	-43.5	19.4	0.00e+00	0	57	0	214958080	48	3894
2026-01-02 09:49:34.31	204.71	80.60	-43.2	-43.9	19.2	0.00e+00	0	58	0	218103808	48	4077
2026-01-02 09:49:35.30	207.11	80.92	-43.1	-43.8	19.3	0.00e+00	0	57	0	221249536	48	4024
2026-01-02 09:49:36.30	209.70	81.23	-43.2	-43.9	19.2	0.00e+00	0	57	0	224395264	48	4073
2026-01-02 09:49:37.29	212.45	81.51	-43.1	-43.8	19.3	0.00e+00	0	57	0	227540992	48	4018
2026-01-02 09:49:38.28	215.39	81.78	-42.9	-43.6	19.4	0.00e+00	0	57	0	230686720	48	3933
2026-01-02 09:49:39.27	218.52	82.02	-43.3	-44.1	18.9	0.00e+00	0	58	0	233832448	48	4159
2026-01-02 09:49:40.27	221.87	82.24	-43.3	-44.0	19.1	0.00e+00	0	57	0	236978176	48	4106
2026-01-02 09:49:41.27	225.41	82.44	-43.1	-43.8	19.2	0.00e+00	0	57	0	239075328	48	4018
2026-01-02 09:49:42.26	229.08	82.60	-43.3	-44.1	18.9	0.00e+00	0	58	0	242221056	48	4155
2026-01-02 09:49:43.25	232.90	82.73	-43.8	-44.5	18.5	0.00e+00	0	57	0	245366784	49	4134
2026-01-02 09:49:44.24	236.84	82.83	-44.4	-45.2	17.9	0.00e+00	0	58	0	248512512	50	4209
2026-01-02 09:49:45.22	240.83	82.89	-44.9	-45.8	17.4	0.00e+00	0	57	0	251658240	51	4278
2026-01-02 09:49:46.21	244.91	82.92	-45.8	-46.9	16.2	0.00e+00	0	57	0	254803968	53	4318
2026-01-02 09:49:47.20	249.01	82.91	-45.6	-46.6	16.5	0.00e+00	0	57	0	257949696	53	4193
2026-01-02 09:49:48.20	253.12	82.87	-45.4	-46.5	16.6	0.00e+00	0	57	0	261095424	53	4101
2026-01-02 09:49:49.19	257.12	82.79	-45.4	-46.5	16.6	0.00e+00	0	57	0	264241152	53	4140
2026-01-02 09:49:50.18	261.01	82.68	-45.6	-46.7	16.4	0.00e+00	0	57	0	267386880	53	4232
2026-01-02 09:49:51.17	264.77	82.53	-45.3	-46.3	16.8	0.00e+00	0	58	0	270532608	53	4034
2026-01-02 09:49:52.17	268.40	82.36	-45.5	-46.6	16.5	0.00e+00	0	58	0	273678336	53	4172
2026-01-02 09:49:53.16	271.83	82.15	-45.9	-47.1	16.1	0.00e+00	0	58	0	276824064	53	4403
2026-01-02 09:49:54.16	275.09	81.92	-45.9	-47.0	16.1	0.00e+00	0	57	0	279969792	53	4390
2026-01-02 09:49:55.15	278.14	81.67	-46.2	-47.4	15.7	0.00e+00	0	58	0	283115520	54	4336
2026-01-02 09:49:56.14	281.00	81.39	-46.9	-48.3	14.9	0.00e+00	0	57	0	286261248	55	4528
2026-01-02 09:49:57.13	283.67	81.10	-47.6	-49.2	14.0	2.20e-06	0	57	0	289406976	57	4464
2026-01-02 09:49:58.12	286.16	80.79	-48.1	-49.8	13.4	2.44e-05	0	58	0	292552704	58	4541
2026-01-02 09:49:59.11	288.49	80.46	-47.2	-48.8	14.5	2.20e-06	0	58	0	295698432	57	4258
2026-01-02 09:50:00.10	290.65	80.12	-46.9	-48.2	15.0	7.00e-07	0	58	0	298844160	56	4233
2026-01-02 09:50:01.09	292.67	79.77	-46.2	-47.5	15.7	0.00e+00	0	57	0	301989888	55	4101
2026-01-02 09:50:02.08	294.55	79.40	-45.4	-46.5	16.7	0.00e+00	0	58	0	304087040	54	3878
2026-01-02 09:50:03.07	296.30	79.03	-44.8	-45.7	17.3	0.00e+00	0	58	0	307232768	52	3990
2026-01-02 09:50:04.07	297.94	78.64	-44.5	-45.4	17.5	0.00e+00	0	57	0	310378496	52	3841
2026-01-02 09:50:05.06	299.46	78.25	-43.7	-44.5	18.5	0.00e+00	0	58	0	313524224	50	3906
2026-01-02 09:50:06.04	300.87	77.86	-42.9	-43.6	19.5	0.00e+00	0	58	0	316669952	49	3705
2026-01-02 09:50:07.04	302.21	77.45	-43.3	-44.0	19.1	0.00e+00	0	58	0	319815680	48	4120
2026-01-02 09:50:08.02	303.44	77.05	-44.5	-45.4	17.8	0.00e+00	0	57	0	322961408	50	4311
2026-01-02 09:50:09.02	304.62	76.64	-44.3	-45.2	17.9	0.00e+00	0	57	0	326107136	50	4217
2026-01-02 09:50:10.01	305.71	76.22	-43.8	-44.5	18.6	0.00e+00	0	58	0	329252864	50	3893
2026-01-02 09:50:11.00	306.74	75.80	-43.8	-44.6	18.5	0.00e+00	0	58	0	332398592	50	3927
2026-01-02 09:50:11.98	307.70	75.38	-44.0	-44.8	18.3	0.00e+00	0	58	0	335544320	50	4040
2026-01-02 09:50:12.98	308.62	74.96	-43.7	-44.4	18.6	0.00e+00	0	57	0	338690048	50	3851
2026-01-02 09:50:13.96	309.47	74.54	-43.9	-44.7	18.4	0.00e+00	0	57	0	341835776	50	3990
2026-01-02 09:50:14.95	310.28	74.11	-44.6	-45.5	17.7	0.00e+00	0	58	0	344981504	51	4134
2026-01-02 09:50:15.94	311.05	73.68	-44.4	-45.2	17.9	0.00e+00	0	58	0	348127232	51	4001
2026-01-02 09:50:16.94	311.78	73.25	-43.1	-43.7	19.3	0.00e+00	0	57	0	351272960	49	3774
2026-01-02 09:50:17.93	312.47	72.81	-42.6	-43.2	19.8	0.00e+00	0	58	0	354418688	48	3776
2026-01-02 09:50:18.92	313.12	72.38	-42.6	-43.3	19.7	0.00e+00	0	58	0	357564416	48	3796
2026-01-02 09:50:19.91	313.74	71.95	-42.8	-43.4	19.6	0.00e+00	0	58	0	360710144	48	3861
2026-01-02 09:50:20.90	314.33	71.52	-42.9	-43.6	19.4	0.00e+00	0	58	0	363855872	48	3938
2026-01-02 09:50:21.89	314.89	71.09	-43.2	-43.9	19.2	0.00e+00	0	57	0	365953024	48	4065
2026-01-02 09:50:22.88	315.43	70.66	-43.1	-43.8	19.2	0.00e+00	0	58	0	369098752	48	4009
2026-01-02 09:50:23.87	315.94	70.23	-42.7	-43.3	19.5	0.00e+00	0	57	0	372244480	48	3818
2026-01-02 09:50:24.86	316.43	69.80	-42.3	-42.9	19.8	0.00e+00	0	58	0	375390208	47	3848
2026-01-02 09:50:25.85	316.89	69.37	-42.7	-43.4	19.5	0.00e+00	0	57	0	378535936	47	4055
2026-01-02 09:50:26.84	317.34	68.94	-43.4	-44.2	18.9	0.00e+00	0	58	0	381681664	48	4209
2026-01-02 09:50:27.83	317.77	68.51	-44.8	-45.8	17.4	0.00e+00	0	58	0	384827392	51	4273
2026-01-02 09:50:28.81	318.17	68.09	-45.2	-46.3	16.9	0.00e+00	0	57	0	387973120	52	4243
2026-01-02 09:50:29.79	318.56	67.66	-44.8	-45.7	17.3	0.00e+00	0	57	0	391118848	52	3998
2026-01-02 09:50:30.78	318.94	67.24	-44.2	-45.1	18.0	0.00e+00	0	58	0	394264576	51	3920
2026-01-02 09:50:31.77	319.30	66.82	-43.5	-44.2	18.8	0.00e+00	0	58	0	397410304	50	3759
2026-01-02 09:50:32.76	319.65	66.39	-43.2	-43.9	19.1	0.00e+00	0	58	0	400556032	49	3855
2026-01-02 09:50:33.76	319.98	65.97	-43.5	-44.2	18.6	0.00e+00	0	57	0	403701760	49	3988
2026-01-02 09:50:34.75	320.31	65.55	-44.1	-44.9	17.9	0.00e+00	0	58	0	406847488	49	4325
2026-01-02 09:50:35.73	320.61	65.14	-44.8	-45.7	17.1	0.00e+00	0	58	0	409993216	51	4241
2026-01-02 09:50:36.72	320.91	64.72	-44.9	-45.9	17.1	0.00e+00	0	57	0	413138944	51	4330
2026-01-02 09:50:37.71	321.20	64.31	-44.3	-45.1	17.9	0.00e+00	0	57	0	416284672	51	3938
2026-01-02 09:50:38.70	321.48	63.89	-43.0	-43.7	19.2	0.00e+00	0	57	0	419430400	49	3768
2026-01-02 09:50:39.69	321.75	63.48	-42.2	-42.8	19.9	0.00e+00	0	58	0	422576128	47	3814
2026-01-02 09:50:40.68	322.01	63.07	-42.2	-42.8	19.9	0.00e+00	0	58	0	425721856	47	3810
2026-01-02 09:50:41.66	322.26	62.67	-42.6	-43.3	19.6	0.00e+00	0	58	0	428867584	47	4012
2026-01-02 09:50:42.66	322.50	62.26	-43.9	-44.7	18.3	0.00e+00	0	58	0	430964736	49	4227
2026-01-02 09:50:43.64	322.73	61.86	-45.2	-46.2	16.7	0.00e+00	0	58	0	434110464	52	4239
2026-01-02 09:50:44.63	322.96	61.46	-46.4	-47.8	15.3	0.00e+00	0	57	0	437256192	54	4509
2026-01-02 09:50:45.62	323.18	61.06	-46.2	-47.6	15.5	0.00e+00	0	58	0	440401920	55	4159
2026-01-02 09:50:46.61	323.40	60.67	-44.5	-45.5	17.5	0.00e+00	0	58	0	443547648	52	3887
2026-01-02 09:50:47.59	323.60	60.28	-43.3	-44.0	19.0	0.00e+00	0	58	0	446693376	49	3889
2026-01-02 09:50:48.58	323.80	59.88	-42.8	-43.4	19.5	0.00e+00	0	58	0	449839104	48	3863
2026-01-02 09:50:49.56	324.00	59.50	-43.1	-43.8	19.2	0.00e+00	0	57	0	452984832	48	4021
2026-01-02 09:50:50.55	324.19	59.11	-43.4	-44.1	18.8	0.00e+00	0	57	0	456130560	48	4174
2026-01-02 09:50:51.54	324.37	58.72	-43.7	-44.5	18.5	0.00e+00	0	58	0	459276288	49	4109
2026-01-02 09:50:52.53	324.55	58.34	-44.4	-45.2	17.8	0.00e+00	0	58	0	462422016	50	4237
2026-01-02 09:50:53.52	324.73	57.96	-45.0	-46.0	17.1	0.00e+00	0	58	0	465567744	51	4378
2026-01-02 09:50:54.51	324.89	57.58	-45.1	-46.2	16.8	0.00e+00	0	58	0	468713472	52	4194
2026-01-02 09:50:55.49	325.06	57.21	-44.7	-45.7	17.0	0.00e+00	0	58	0	471859200	52	3979
2026-01-02 09:50:56.48	325.22	56.83	-44.2	-45.0	17.7	0.00e+00	0	58	0	475004928	51	3894
2026-01-02 09:50:57.47	325.38	56.46	-43.9	-44.7	18.2	0.00e+00	0	58	0	478150656	50	3990
2026-01-02 09:50:58.46	325.53	56.09	-44.4	-45.3	17.8	0.00e+00	0	58	0	481296384	50	4243
2026-01-02 09:50:59.45	325.68	55.72	-44.6	-45.5	17.4	0.00e+00	0	58	0	483393536	51	4131
2026-01-02 09:51:00.45	325.82	55.35	-45.1	-46.0	16.7	0.00e+00	0	57	0	486539264	52	4144
2026-01-02 09:51:01.44	325.96	54.99	-45.3	-46.4	16.4	0.00e+00	0	58	0	489684992	52	4294
2026-01-02 09:51:02.42	326.10	54.63	-45.5	-46.6	16.4	0.00e+00	0	58	0	492830720	52	4396
2026-01-02 09:51:03.41	326.23	54.27	-45.7	-46.9	16.1	0.00e+00	0	58	0	495976448	53	4297
2026-01-02 09:51:04.40	326.37	53.92	-45.9	-47.1	15.9	0.00e+00	0	58	0	499122176	53	4439
2026-01-02 09:51:05.39	326.49	53.56	-45.9	-47.1	16.0	0.00e+00	0	58	0	502267904	53	4398
2026-01-02 09:51:06.39	326.62	53.21	-46.1	-47.3	15.6	0.00e+00	0	58	0	505413632	53	4542
2026-01-02 09:51:07.37	326.74	52.86	-45.9	-47.1	15.9	0.00e+00	0	58	0	508559360	54	4164
2026-01-02 09:51:08.36	326.86	52.52	-45.1	-46.1	16.8	0.00e+00	0	57	0	511705088	53	3942
2026-01-02 09:51:09.36	326.98	52.17	-44.9	-45.8	17.2	0.00e+00	0	58	0	514850816	52	4042
2026-01-02 09:51:10.34	327.09	51.83	-45.0	-46.0	17.0	0.00e+00	0	57	0	517996544	52	4108
2026-01-02 09:51:11.33	327.20	51.49	-45.2	-46.2	16.6	0.00e+00	0	58	0	521142272	52	4225
2026-01-02 09:51:12.32	327.31	51.15	-45.9	-47.0	16.0	0.00e+00	0	58	0	524288000	53	4356
2026-01-02 09:51:13.31	327.42	50.82	-46.9	-48.3	14.8	0.00e+00	0	58	0	527433728	55	4525
2026-01-02 09:51:14.30	327.53	50.48	-47.5	-49.1	14.1	2.20e-06	0	58	0	530579456	56	4695
2026-01-02 09:51:15.28	327.63	50.16	-47.5	-49.2	13.9	5.30e-06	0	58	0	533725184	57	4484
2026-01-02 09:51:16.26	327.73	49.83	-47.2	-48.7	14.4	1.50e-06	0	58	0	536870912	57	4224
2026-01-02 09:51:17.26	327.83	49.50	-46.8	-48.2	15.0	0.00e+00	0	58	0	540016640	56	4213
2026-01-02 09:51:18.26	327.92	49.17	-46.8	-48.2	15.0	0.00e+00	0	58	0	543162368	56	4219
2026-01-02 09:51:19.25	328.02	48.85	-47.1	-48.6	14.7	0.00e+00	0	58	0	545259520	56	4410
2026-01-02 09:51:20.24	328.11	48.53	-46.7	-48.1	15.1	0.00e+00	0	57	0	548405248	56	4176
2026-01-02 09:51:21.23	328.20	48.22	-46.5	-47.8	15.4	0.00e+00	0	58	0	551550976	56	4024
2026-01-02 09:51:22.22	328.29	47.90	-46.6	-47.9	15.1	0.00e+00	0	57	0	554696704	56	4077
2026-01-02 09:51:23.21	328.38	47.59	-46.5	-47.8	15.3	0.00e+00	0	58	0	557842432	56	4033
2026-01-02 09:51:24.20	328.46	47.28	-46.2	-47.4	15.6	0.00e+00	0	58	0	560988160	55	4093
2026-01-02 09:51:25.18	328.55	46.97	-46.3	-47.6	15.5	0.00e+00	0	58	0	564133888	55	4149
2026-01-02 09:51:26.17	328.63	46.67	-46.7	-48.1	14.8	0.00e+00	0	58	0	567279616	55	4421
2026-01-02 09:51:27.16	328.71	46.36	-47.2	-48.7	14.3	0.00e+00	0	58	0	570425344	56	4467
2026-01-02 09:51:28.15	328.79	46.06	-47.6	-49.4	13.7	3.80e-06	0	58	0	573571072	57	4548
2026-01-02 09:51:29.13	328.87	45.77	-47.8	-49.5	13.6	7.60e-06	0	57	0	576716800	57	4642
2026-01-02 09:51:30.12	328.94	45.47	-47.9	-49.8	13.3	1.52e-05	0	58	0	579862528	57	4788
2026-01-02 09:51:31.10	329.02	45.18	-47.3	-48.9	14.2	1.50e-06	0	58	0	583008256	57	4327
2026-01-02 09:51:32.08	329.09	44.89	-46.8	-48.1	15.0	7.00e-07	0	58	0	586153984	56	4189
2026-01-02 09:51:33.07	329.16	44.60	-46.5	-47.8	15.4	0.00e+00	0	58	0	589299712	56	4030
2026-01-02 09:51:34.06	329.24	44.31	-46.8	-48.2	15.0	0.00e+00	0	58	0	592445440	56	4199
2026-01-02 09:51:35.04	329.31	44.02	-46.9	-48.3	14.8	0.00e+00	0	58	0	594542592	56	4288
2026-01-02 09:51:36.03	329.38	43.74	-47.4	-49.0	14.2	7.00e-07	0	58	0	597688320	56	4621
2026-01-02 09:51:37.02	329.44	43.45	-47.3	-49.0	14.2	2.20e-06	0	57	0	600834048	56	4604
2026-01-02 09:51:38.00	329.51	43.18	-47.5	-49.1	14.0	2.20e-06	0	58	0	603979776	56	4683
2026-01-02 09:51:38.99	329.58	42.90	-47.0	-48.4	14.7	1.50e-06	0	58	0	607125504	56	4333
2026-01-02 09:51:39.98	329.64	42.62	-46.1	-47.4	15.6	0.00e+00	0	58	0	610271232	55	4064
2026-01-02 09:51:40.97	329.70	42.35	-45.9	-47.0	16.0	0.00e+00	0	58	0	613416960	54	4123
2026-01-02 09:51:41.95	329.77	42.08	-45.8	-46.9	16.1	0.00e+00	0	58	0	616562688	54	4063
2026-01-02 09:51:42.94	329.83	41.81	-45.6	-46.6	16.4	0.00e+00	0	58	0	619708416	54	3936
2026-01-02 09:51:43.93	329.89	41.54	-45.5	-46.6	16.4	0.00e+00	0	58	0	622854144	54	3941
2026-01-02 09:51:44.92	329.95	41.27	-45.8	-46.9	16.1	0.00e+00	0	58	0	625999872	54	4093
2026-01-02 09:51:45.92	330.01	41.00	-46.1	-47.3	15.7	0.00e+00	0	58	0	629145600	54	4262
2026-01-02 09:51:46.91	330.07	40.74	-46.3	-47.6	15.4	0.00e+00	0	58	0	632291328	54	4410
2026-01-02 09:51:47.90	330.12	40.48	-46.5	-47.8	15.2	0.00e+00	0	58	0	635437056	54	4532
2026-01-02 09:51:48.89	330.18	40.22	-46.5	-47.8	15.2	0.00e+00	0	58	0	638582784	54	4538
2026-01-02 09:51:49.87	330.24	39.97	-46.4	-47.7	15.3	0.00e+00	0	58	0	641728512	54	4487
2026-01-02 09:51:50.86	330.29	39.71	-46.4	-47.7	15.3	0.00e+00	0	58	0	644874240	54	4480
2026-01-02 09:51:51.85	330.34	39.46	-46.6	-47.9	15.1	0.00e+00	0	58	0	648019968	55	4323
2026-01-02 09:51:52.84	330.40	39.20	-46.4	-47.7	15.3	0.00e+00	0	58	0	651165696	55	4207
2026-01-02 09:51:53.83	330.45	38.95	-46.0	-47.2	15.8	0.00e+00	0	58	0	654311424	55	3974
2026-01-02 09:51:54.82	330.50	38.71	-45.8	-46.9	16.0	0.00e+00	0	58	0	657457152	54	4090
2026-01-02 09:51:55.80	330.55	38.46	-46.0	-47.2	15.8	0.00e+00	0	58	0	659554304	54	4223
2026-01-02 09:51:56.79	330.60	38.22	-46.2	-47.5	15.5	0.00e+00	0	58	0	662700032	54	4362
2026-01-02 09:51:57.78	330.65	37.97	-46.3	-47.6	15.4	7.00e-07	0	58	0	665845760	54	4418
2026-01-02 09:51:58.76	330.70	37.74	-46.3	-47.6	15.4	0.00e+00	0	58	0	668991488	54	4438
2026-01-02 09:51:59.75	330.75	37.50	-46.2	-47.5	15.5	7.00e-07	0	58	0	672137216	54	4352
2026-01-02 09:52:00.74	330.80	37.26	-46.1	-47.4	15.6	0.00e+00	0	58	0	675282944	54	4294
2026-01-02 09:52:01.73	330.84	37.02	-46.2	-47.5	15.4	0.00e+00	0	57	0	678428672	54	4346
2026-01-02 09:52:02.72	330.89	36.79	-46.0	-47.1	15.7	0.00e+00	0	58	0	681574400	54	4190
2026-01-02 09:52:03.70	330.94	36.56	-45.6	-46.7	16.0	0.00e+00	0	58	0	684720128	54	3999
2026-01-02 09:52:04.70	330.98	36.32	-45.7	-46.9	15.8	0.00e+00	0	57	0	687865856	54	4093
2026-01-02 09:52:05.68	331.03	36.10	-45.7	-46.9	15.9	0.00e+00	0	58	0	691011584	54	4064
2026-01-02 09:52:06.67	331.07	35.87	-45.6	-46.8	16.1	0.00e+00	0	58	0	694157312	54	4021
2026-01-02 09:52:07.66	331.11	35.64	-45.7	-46.8	16.1	0.00e+00	0	58	0	697303040	54	4037
2026-01-02 09:52:08.64	331.16	35.42	-45.6	-46.7	16.3	0.00e+00	0	58	0	700448768	54	3975
2026-01-02 09:52:09.63	331.20	35.20	-45.3	-46.4	16.5	0.00e+00	0	58	0	703594496	53	4073
2026-01-02 09:52:10.61	331.24	34.98	-45.4	-46.4	16.5	0.00e+00	0	58	0	706740224	53	4075
2026-01-02 09:52:11.60	331.28	34.76	-45.4	-46.5	16.5	0.00e+00	0	58	0	708837376	53	4115
2026-01-02 09:52:12.59	331.32	34.54	-45.5	-46.6	16.4	0.00e+00	0	58	0	711983104	53	4161
2026-01-02 09:52:13.58	331.36	34.32	-45.4	-46.5	16.4	0.00e+00	0	58	0	715128832	53	4133
2026-01-02 09:52:14.57	331.40	34.11	-45.4	-46.5	16.5	0.00e+00	0	58	0	718274560	53	4120
2026-01-02 09:52:15.56	331.44	33.89	-45.4	-46.5	16.5	0.00e+00	0	58	0	721420288	53	4102
2026-01-02 09:52:16.55	331.48	33.68	-45.2	-46.2	16.7	0.00e+00	0	58	0	724566016	53	4004
2026-01-02 09:52:17.54	331.52	33.47	-45.0	-46.0	16.9	0.00e+00	0	58	0	727711744	53	3873
2026-01-02 09:52:18.53	331.56	33.26	-45.0	-46.0	16.9	0.00e+00	0	58	0	730857472	53	3898
2026-01-02 09:52:19.52	331.60	33.05	-45.0	-46.0	17.0	0.00e+00	0	58	0	734003200	53	3874
2026-01-02 09:52:20.52	331.63	32.84	-44.6	-45.5	17.5	0.00e+00	0	57	0	737148928	52	3878
2026-01-02 09:52:21.50	331.67	32.64	-44.4	-45.3	17.7	0.00e+00	0	58	0	740294656	51	4033
2026-01-02 09:52:22.49	331.71	32.43	-44.4	-45.2	17.8	0.00e+00	0	58	0	743440384	51	4002
2026-01-02 09:52:23.48	331.74	32.23	-44.4	-45.3	17.7	0.00e+00	0	57	0	746586112	51	4025
2026-01-02 09:52:24.46	331.78	32.03	-44.5	-45.4	17.6	0.00e+00	0	58	0	749731840	51	4060
2026-01-02 09:52:25.45	331.81	31.83	-44.3	-45.2	17.8	0.00e+00	0	58	0	752877568	51	3965
2026-01-02 09:52:26.45	331.85	31.63	-44.4	-45.2	17.8	0.00e+00	0	58	0	756023296	51	3995
2026-01-02 09:52:27.44	331.88	31.43	-44.5	-45.4	17.6	0.00e+00	0	58	0	759169024	51	4068
2026-01-02 09:52:28.42	331.92	31.24	-44.4	-45.3	17.7	0.00e+00	0	57	0	762314752	51	4042
2026-01-02 09:52:29.41	331.95	31.04	-44.5	-45.4	17.6	0.00e+00	0	58	0	765460480	51	4059
2026-01-02 09:52:30.40	331.99	30.85	-44.5	-45.4	17.6	0.00e+00	0	58	0	767557632	51	4086
2026-01-02 09:52:31.38	332.02	30.66	-44.6	-45.6	17.4	0.00e+00	0	58	0	770703360	51	4155
2026-01-02 09:52:32.38	332.05	30.47	-44.8	-45.7	17.3	0.00e+00	0	58	0	773849088	51	4232
2026-01-02 09:52:33.37	332.08	30.28	-44.6	-45.5	17.4	0.00e+00	0	58	0	776994816	51	4130
2026-01-02 09:52:34.36	332.12	30.09	-44.5	-45.4	17.6	0.00e+00	0	58	0	780140544	51	4067
2026-01-02 09:52:35.35	332.15	29.90	-44.5	-45.4	17.6	0.00e+00	0	58	0	783286272	51	4076
2026-01-02 09:52:36.34	332.18	29.72	-44.6	-45.6	17.4	0.00e+00	0	58	0	786432000	51	4161
2026-01-02 09:52:37.33	332.21	29.53	-44.7	-45.7	17.3	0.00e+00	0	58	0	789577728	51	4216
2026-01-02 09:52:38.31	332.24	29.35	-44.8	-45.8	17.2	0.00e+00	0	58	0	792723456	51	4263
2026-01-02 09:52:39.30	332.27	29.17	-44.8	-45.8	17.2	0.00e+00	0	58	0	795869184	51	4279
2026-01-02 09:52:40.29	332.30	28.99	-45.0	-46.1	16.9	0.00e+00	0	58	0	799014912	51	4406
2026-01-02 09:52:41.28	332.33	28.81	-45.0	-46.0	16.9	0.00e+00	0	58	0	802160640	51	4386
2026-01-02 09:52:42.27	332.36	28.63	-45.2	-46.3	16.6	0.00e+00	0	58	0	805306368	52	4277
2026-01-02 09:52:43.26	332.39	28.45	-45.5	-46.7	16.2	0.00e+00	0	58	0	808452096	52	4470
2026-01-02 09:52:44.26	332.42	28.27	-45.7	-46.8	16.1	0.00e+00	0	58	0	811597824	53	4290
2026-01-02 09:52:45.25	332.45	28.09	-45.6	-46.9	16.1	0.00e+00	0	58	0	814743552	53	4293
2026-01-02 09:52:46.24	332.48	27.92	-45.8	-47.0	15.9	0.00e+00	0	57	0	817889280	53	4375
2026-01-02 09:52:47.23	332.51	27.75	-45.8	-47.0	15.9	0.00e+00	0	58	0	821035008	53	4353
2026-01-02 09:52:48.23	332.53	27.57	-45.9	-47.1	15.8	0.00e+00	0	58	0	824180736	53	4407
2026-01-02 09:52:49.21	332.56	27.40	-45.9	-47.2	15.7	0.00e+00	0	58	0	827326464	53	4458
2026-01-02 09:52:50.21	332.59	27.23	-45.8	-47.0	15.9	0.00e+00	0	58	0	830472192	53	4381
2026-01-02 09:52:51.19	332.62	27.06	-46.0	-47.3	15.6	0.00e+00	0	58	0	832569344	53	4495
2026-01-02 09:52:52.19	332.64	26.89	-45.7	-46.9	16.1	0.00e+00	0	58	0	835715072	53	4293
2026-01-02 09:52:53.18	332.67	26.73	-45.3	-46.4	16.4	0.00e+00	0	58	0	838860800	53	4090
2026-01-02 09:52:54.16	332.70	26.56	-45.1	-46.1	16.8	0.00e+00	0	58	0	842006528	53	3958
2026-01-02 09:52:55.15	332.72	26.40	-44.9	-45.9	16.9	0.00e+00	0	58	0	845152256	53	3860
2026-01-02 09:52:56.14	332.75	26.23	-44.9	-45.9	17.0	0.00e+00	0	57	0	848297984	52	4070
2026-01-02 09:52:57.13	332.78	26.07	-44.7	-45.7	17.2	0.00e+00	0	58	0	851443712	52	3963
2026-01-02 09:52:58.12	332.80	25.91	-44.4	-45.3	17.5	0.00e+00	0	58	0	854589440	52	3818
2026-01-02 09:52:59.11	332.83	25.75	-44.4	-45.3	17.7	0.00e+00	0	58	0	857735168	51	4022
2026-01-02 09:53:00.10	332.85	25.59	-44.3	-45.1	17.8	0.00e+00	0	58	0	860880896	51	3955
2026-01-02 09:53:01.09	332.88	25.43	-44.3	-45.2	17.7	0.00e+00	0	58	0	864026624	51	4001
2026-01-02 09:53:02.08	332.90	25.27	-44.1	-44.9	18.0	0.00e+00	0	58	0	867172352	51	3862
2026-01-02 09:53:03.08	332.93	25.11	-44.0	-44.8	18.1	0.00e+00	0	58	0	870318080	51	3806
2026-01-02 09:53:04.07	332.95	24.95	-43.9	-44.7	18.2	0.00e+00	0	58	0	873463808	50	3990
2026-01-02 09:53:05.06	332.98	24.80	-44.1	-44.9	18.0	0.00e+00	0	58	0	876609536	50	4080
2026-01-02 09:53:06.05	333.00	24.64	-44.0	-44.9	18.0	0.00e+00	0	58	0	879755264	50	4064
2026-01-02 09:53:07.04	333.02	24.49	-44.0	-44.8	18.1	0.00e+00	0	58	0	882900992	50	4019
2026-01-02 09:53:08.03	333.05	24.34	-43.9	-44.7	18.2	0.00e+00	0	58	0	886046720	50	3989
2026-01-02 09:53:09.02	333.07	24.19	-43.9	-44.8	18.1	0.00e+00	0	58	0	889192448	50	4007
2026-01-02 09:53:10.01	333.09	24.04	-44.0	-44.8	18.1	0.00e+00	0	58	0	892338176	50	4017
2026-01-02 09:53:10.99	333.12	23.89	-44.2	-45.0	17.8	0.00e+00	0	58	0	894435328	50	4144
2026-01-02 09:53:11.98	333.14	23.74	-44.1	-44.9	18.0	0.00e+00	0	58	0	897581056	50	4067
2026-01-02 09:53:12.97	333.16	23.59	-44.3	-45.2	17.7	0.00e+00	0	58	0	900726784	50	4198
2026-01-02 09:53:13.96	333.19	23.44	-44.3	-45.2	17.7	0.00e+00	0	58	0	903872512	50	4207
2026-01-02 09:53:14.96	333.21	23.29	-44.5	-45.4	17.5	0.00e+00	0	58	0	907018240	50	4311
2026-01-02 09:53:15.95	333.23	23.15	-44.6	-45.6	17.3	0.00e+00	0	58	0	910163968	51	4147
2026-01-02 09:53:16.94	333.25	23.00	-44.4	-45.3	17.5	0.00e+00	0	58	0	913309696	51	4049
2026-01-02 09:53:17.93	333.27	22.86	-44.5	-45.5	17.4	0.00e+00	0	58	0	916455424	51	4112
2026-01-02 09:53:18.92	333.30	22.72	-44.8	-45.7	17.1	0.00e+00	0	58	0	919601152	51	4242
2026-01-02 09:53:19.92	333.32	22.57	-44.7	-45.7	17.2	0.00e+00	0	58	0	922746880	51	4206
2026-01-02 09:53:20.91	333.34	22.43	-45.0	-46.0	16.8	0.00e+00	0	58	0	925892608	52	4134
2026-01-02 09:53:21.90	333.36	22.29	-45.0	-46.0	16.7	0.00e+00	0	58	0	929038336	52	4135
2026-01-02 09:53:22.89	333.38	22.15	-45.3	-46.4	16.4	0.00e+00	0	58	0	932184064	52	4299
2026-01-02 09:53:23.87	333.40	22.01	-45.4	-46.5	16.2	0.00e+00	0	58	0	935329792	52	4352
2026-01-02 09:53:24.86	333.42	21.87	-45.2	-46.3	16.3	0.00e+00	0	58	0	938475520	52	4264
2026-01-02 09:53:25.85	333.44	21.73	-45.0	-46.1	16.6	0.00e+00	0	58	0	941621248	52	4172
2026-01-02 09:53:26.84	333.46	21.60	-44.9	-45.9	16.7	0.00e+00	0	58	0	944766976	52	4096
2026-01-02 09:53:27.83	333.49	21.46	-44.8	-45.8	16.8	0.00e+00	0	58	0	947912704	52	4048
2026-01-02 09:53:28.82	333.51	21.32	-44.8	-45.9	16.8	0.00e+00	0	58	0	951058432	52	4057
2026-01-02 09:53:29.81	333.53	21.19	-44.8	-45.8	16.8	0.00e+00	0	57	0	954204160	52	4045
2026-01-02 09:53:30.80	333.55	21.05	-44.7	-45.7	16.9	0.00e+00	0	58	0	956301312	52	3997
2026-01-02 09:53:31.78	333.57	20.92	-44.9	-45.9	16.7	0.00e+00	0	58	0	959447040	52	4067
2026-01-02 09:53:32.76	333.58	20.79	-44.8	-45.9	16.7	0.00e+00	0	58	0	962592768	52	4056
2026-01-02 09:53:33.75	333.60	20.66	-44.8	-45.9	16.6	0.00e+00	0	58	0	965738496	52	4063
2026-01-02 09:53:34.73	333.62	20.53	-44.8	-45.9	16.6	0.00e+00	0	58	0	968884224	52	4055
2026-01-02 09:53:35.73	333.64	20.40	-44.7	-45.8	16.6	0.00e+00	0	58	0	972029952	52	4043
2026-01-02 09:53:36.72	333.66	20.27	-44.4	-45.4	17.0	0.00e+00	0	58	0	975175680	52	3845
2026-01-02 09:53:37.72	333.68	20.14	-44.0	-44.9	17.6	0.00e+00	0	58	0	978321408	51	3839
2026-01-02 09:53:38.71	333.70	20.01	-43.7	-44.6	17.8	0.00e+00	0	58	0	981467136	50	3928
2026-01-02 09:53:39.70	333.72	19.88	-43.9	-44.7	17.7	0.00e+00	0	58	0	984612864	50	4003
2026-01-02 09:53:40.69	333.74	19.75	-44.2	-45.1	17.4	0.00e+00	0	58	0	987758592	50	4185
2026-01-02 09:53:41.68	333.76	19.62	-44.9	-45.9	16.7	0.00e+00	0	58	0	990904320	51	4306
2026-01-02 09:53:42.67	333.77	19.50	-45.2	-46.3	16.2	0.00e+00	0	58	0	994050048	52	4291
2026-01-02 09:53:43.66	333.79	19.37	-45.1	-46.2	16.3	0.00e+00	0	58	0	997195776	52	4229
2026-01-02 09:53:44.65	333.81	19.25	-45.1	-46.2	16.4	0.00e+00	0	58	0	1000341504	52	4205
2026-01-02 09:53:45.64	333.83	19.12	-44.8	-45.8	16.7	0.00e+00	0	58	0	1003487232	52	4047
2026-01-02 09:53:46.64	333.85	19.00	-44.7	-45.7	16.8	0.00e+00	0	58	0	1006632960	52	4002
2026-01-02 09:53:47.63	333.87	18.87	-45.2	-46.3	16.2	0.00e+00	0	58	0	1009778688	52	4286
2026-01-02 09:53:48.62	333.88	18.75	-45.4	-46.6	16.1	0.00e+00	0	58	0	1012924416	52	4413
2026-01-02 09:53:49.61	333.90	18.63	-45.6	-46.8	15.9	0.00e+00	0	58	0	1016070144	52	4519
2026-01-02 09:53:50.59	333.92	18.51	-45.6	-46.8	15.8	0.00e+00	0	58	0	1018167296	53	4275
2026-01-02 09:53:51.58	333.94	18.39	-45.4	-46.6	16.1	0.00e+00	0	58	0	1021313024	53	4148
2026-01-02 09:53:52.57	333.95	18.27	-45.6	-46.7	16.0	0.00e+00	0	58	0	1024458752	53	4236
2026-01-02 09:53:53.56	333.97	18.15	-45.8	-47.1	15.7	0.00e+00	0	58	0	1027604480	53	4393
2026-01-02 09:53:54.54	333.99	18.03	-45.6	-46.8	15.9	0.00e+00	0	58	0	1030750208	53	4290
2026-01-02 09:53:55.53	334.00	17.91	-45.4	-46.5	16.2	0.00e+00	0	58	0	1033895936	53	4127
2026-01-02 09:53:56.52	334.02	17.80	-45.2	-46.3	16.4	0.00e+00	0	58	0	1037041664	53	4007
2026-01-02 09:53:57.50	334.04	17.68	-45.0	-46.1	16.6	0.00e+00	0	58	0	1040187392	53	3941
2026-01-02 09:53:58.49	334.05	17.56	-45.0	-46.0	16.7	0.00e+00	0	58	0	1043333120	53	3906
2026-01-02 09:53:59.48	334.07	17.45	-45.0	-46.0	16.7	0.00e+00	0	58	0	1046478848	53	3896
2026-01-02 09:54:00.47	334.09	17.33	-45.1	-46.2	16.6	0.00e+00	0	58	0	1049624576	53	3968
2026-01-02 09:54:01.46	334.10	17.22	-45.3	-46.4	16.3	0.00e+00	0	58	0	1052770304	53	4084
2026-01-02 09:54:02.45	334.12	17.10	-45.4	-46.5	16.2	0.00e+00	0	58	0	1055916032	53	4109
2026-01-02 09:54:03.44	334.14	16.99	-45.3	-46.3	16.4	0.00e+00	0	58	0	1059061760	53	4049
2026-01-02 09:54:04.43	334.15	16.88	-45.6	-46.7	16.0	0.00e+00	0	58	0	1062207488	53	4240
2026-01-02 09:54:05.43	334.17	16.76	-45.7	-46.9	15.8	0.00e+00	0	58	0	1065353216	53	4295
2026-01-02 09:54:06.42	334.19	16.65	-45.3	-46.5	16.2	0.00e+00	0	58	0	1068498944	53	4103
2026-01-02 09:54:07.41	334.20	16.54	-45.1	-46.2	16.5	0.00e+00	0	58	0	1071644672	53	3993
2026-01-02 09:54:08.41	334.22	16.42	-45.0	-46.0	16.6	0.00e+00	0	58	0	1074790400	53	3908
2026-01-02 09:54:09.39	334.23	16.31	-45.0	-46.1	16.6	0.00e+00	0	58	0	1076887552	53	3926
2026-01-02 09:54:10.39	334.25	16.20	-45.1	-46.1	16.5	0.00e+00	0	58	0	1080033280	53	3949
2026-01-02 09:54:11.37	334.26	16.09	-45.2	-46.2	16.5	0.00e+00	0	58	0	1083179008	53	4003
2026-01-02 09:54:12.36	334.28	15.98	-45.0	-46.0	16.7	0.00e+00	0	58	0	1086324736	53	3901
2026-01-02 09:54:13.35	334.30	15.88	-45.0	-46.1	16.6	0.00e+00	0	58	0	1089470464	53	3919
2026-01-02 09:54:14.33	334.31	15.77	-45.1	-46.2	16.5	0.00e+00	0	58	0	1092616192	53	3962
2026-01-02 09:54:15.32	334.33	15.66	-45.2	-46.3	16.4	0.00e+00	0	58	0	1095761920	53	4013
2026-01-02 09:54:16.31	334.34	15.55	-45.2	-46.3	16.4	0.00e+00	0	58	0	1098907648	53	4011
2026-01-02 09:54:17.30	334.36	15.45	-45.3	-46.4	16.3	0.00e+00	0	58	0	1102053376	53	4057
2026-01-02 09:54:18.29	334.37	15.34	-45.2	-46.2	16.4	0.00e+00	0	58	0	1105199104	53	3997
2026-01-02 09:54:19.28	334.39	15.23	-45.1	-46.1	16.6	0.00e+00	0	58	0	1108344832	53	3938
2026-01-02 09:54:20.27	334.40	15.13	-45.1	-46.2	16.5	0.00e+00	0	58	0	1111490560	53	3979
2026-01-02 09:54:21.26	334.42	15.02	-45.3	-46.4	16.2	0.00e+00	0	58	0	1114636288	53	4084
2026-01-02 09:54:22.25	334.43	14.92	-45.2	-46.2	16.4	0.00e+00	0	58	0	1117782016	53	4001
2026-01-02 09:54:23.24	334.45	14.81	-45.0	-46.1	16.5	0.00e+00	0	58	0	1120927744	53	3934
2026-01-02 09:54:24.22	334.46	14.71	-45.1	-46.1	16.5	0.00e+00	0	58	0	1124073472	53	3951
2026-01-02 09:54:25.21	334.47	14.61	-45.2	-46.3	16.4	0.00e+00	0	58	0	1127219200	53	4006
2026-01-02 09:54:26.20	334.49	14.51	-45.1	-46.2	16.4	0.00e+00	0	58	0	1130364928	53	3986
2026-01-02 09:54:27.18	334.50	14.40	-45.2	-46.2	16.4	0.00e+00	0	58	0	1133510656	53	3999
2026-01-02 09:54:28.17	334.52	14.30	-45.2	-46.4	16.3	0.00e+00	0	58	0	1136656384	53	4056
2026-01-02 09:54:29.15	334.53	14.20	-45.1	-46.2	16.4	0.00e+00	0	58	0	1138753536	53	3991
2026-01-02 09:54:30.13	334.55	14.10	-45.1	-46.2	16.4	0.00e+00	0	58	0	1141899264	53	3983
2026-01-02 09:54:31.11	334.56	14.00	-45.2	-46.4	16.2	0.00e+00	0	58	0	1145044992	53	4054
2026-01-02 09:54:32.10	334.57	13.90	-45.3	-46.5	16.2	0.00e+00	0	58	0	1148190720	53	4106
2026-01-02 09:54:33.08	334.59	13.80	-45.3	-46.5	16.2	0.00e+00	0	58	0	1151336448	53	4105
2026-01-02 09:54:34.07	334.60	13.70	-45.3	-46.4	16.2	0.00e+00	0	58	0	1154482176	53	4079
2026-01-02 09:54:35.06	334.62	13.60	-45.3	-46.4	16.2	0.00e+00	0	58	0	1157627904	53	4067
2026-01-02 09:54:36.04	334.63	13.51	-45.5	-46.7	15.9	0.00e+00	0	58	0	1160773632	53	4210
2026-01-02 09:54:37.03	334.64	13.41	-45.4	-46.5	16.1	0.00e+00	0	58	0	1163919360	53	4116
2026-01-02 09:54:38.02	334.66	13.31	-45.5	-46.7	15.9	0.00e+00	0	58	0	1167065088	53	4227
2026-01-02 09:54:39.00	334.67	13.21	-45.4	-46.5	16.0	0.00e+00	0	58	0	1170210816	53	4134
2026-01-02 09:54:40.00	334.68	13.11	-45.2	-46.3	16.3	0.00e+00	0	58	0	1173356544	53	4031
2026-01-02 09:54:40.99	334.70	13.02	-45.2	-46.3	16.2	0.00e+00	0	58	0	1176502272	53	4049
2026-01-02 09:54:41.98	334.71	12.92	-45.2	-46.4	16.2	0.00e+00	0	58	0	1179648000	53	4059
2026-01-02 09:54:42.96	334.72	12.83	-45.2	-46.3	16.2	0.00e+00	0	58	0	1182793728	53	4024
2026-01-02 09:54:43.95	334.74	12.73	-45.2	-46.4	16.2	0.00e+00	0	58	0	1184890880	53	4058
2026-01-02 09:54:44.94	334.75	12.64	-45.2	-46.3	16.2	0.00e+00	0	58	0	1188036608	53	4042
2026-01-02 09:54:45.93	334.76	12.54	-45.2	-46.3	16.2	0.00e+00	0	58	0	1191182336	53	4045
2026-01-02 09:54:46.92	334.78	12.45	-45.3	-46.5	16.0	0.00e+00	0	58	0	1194328064	53	4123
2026-01-02 09:54:47.92	334.79	12.35	-45.2	-46.4	16.1	0.00e+00	0	58	0	1197473792	53	4066
2026-01-02 09:54:48.91	334.80	12.26	-45.3	-46.5	16.0	0.00e+00	0	58	0	1200619520	53	4116
2026-01-02 09:54:49.90	334.82	12.16	-45.4	-46.6	15.9	0.00e+00	0	58	0	1203765248	53	4187
2026-01-02 09:54:50.88	334.83	12.07	-45.7	-46.9	15.6	0.00e+00	0	58	0	1206910976	53	4331
2026-01-02 09:54:51.87	334.84	11.98	-45.6	-46.8	15.7	0.00e+00	0	58	0	1210056704	53	4258
2026-01-02 09:54:52.86	334.85	11.89	-45.3	-46.5	15.9	0.00e+00	0	58	0	1213202432	53	4136
2026-01-02 09:54:53.85	334.87	11.79	-45.2	-46.4	16.1	0.00e+00	0	58	0	1216348160	53	4062
2026-01-02 09:54:54.83	334.88	11.70	-45.3	-46.4	16.0	0.00e+00	0	58	0	1219493888	53	4083
2026-01-02 09:54:55.82	334.89	11.61	-45.3	-46.5	16.0	0.00e+00	0	58	0	1222639616	53	4100
2026-01-02 09:54:56.81	334.90	11.52	-45.2	-46.4	16.1	0.00e+00	0	58	0	1225785344	53	4052
2026-01-02 09:54:57.81	334.92	11.43	-45.3	-46.4	16.1	0.00e+00	0	58	0	1228931072	53	4075
2026-01-02 09:54:58.80	334.93	11.34	-45.5	-46.6	15.8	0.00e+00	0	58	0	1232076800	53	4183
2026-01-02 09:54:59.79	334.94	11.25	-45.4	-46.6	15.8	0.00e+00	0	58	0	1235222528	53	4179
2026-01-02 09:55:00.78	334.95	11.16	-45.3	-46.5	16.0	0.00e+00	0	58	0	1238368256	53	4106
2026-01-02 09:55:01.77	334.97	11.07	-45.2	-46.4	16.1	0.00e+00	0	58	0	1241513984	53	4061
2026-01-02 09:55:02.75	334.98	10.98	-45.3	-46.6	15.9	0.00e+00	0	58	0	1243611136	53	4148
2026-01-02 09:55:03.74	334.99	10.89	-45.3	-46.5	15.9	0.00e+00	0	58	0	1246756864	53	4123
2026-01-02 09:55:04.72	335.00	10.81	-45.4	-46.6	15.8	0.00e+00	0	58	0	1249902592	53	4173
2026-01-02 09:55:05.71	335.02	10.72	-45.7	-46.9	15.5	0.00e+00	0	58	0	1253048320	53	4316
2026-01-02 09:55:06.70	335.03	10.63	-45.6	-46.8	15.6	0.00e+00	0	58	0	1256194048	53	4258
2026-01-02 09:55:07.68	335.04	10.54	-45.3	-46.6	15.8	0.00e+00	0	58	0	1259339776	53	4148
2026-01-02 09:55:08.67	335.05	10.46	-45.3	-46.4	16.0	0.00e+00	0	58	0	1262485504	53	4081
2026-01-02 09:55:09.66	335.06	10.37	-45.4	-46.5	15.9	0.00e+00	0	58	0	1265631232	53	4136
2026-01-02 09:55:10.66	335.08	10.28	-45.4	-46.6	15.8	0.00e+00	0	58	0	1268776960	53	4162
2026-01-02 09:55:11.65	335.09	10.20	-45.4	-46.6	15.7	0.00e+00	0	58	0	1271922688	53	4176
2026-01-02 09:55:12.64	335.10	10.11	-45.4	-46.7	15.7	0.00e+00	0	58	0	1275068416	53	4197
2026-01-02 09:55:13.63	335.11	10.02	-45.4	-46.6	15.7	0.00e+00	0	58	0	1278214144	53	4186
2026-01-02 09:55:14.62	335.12	9.94	-45.4	-46.8	15.5	0.00e+00	0	58	0	1281359872	53	4271
2026-01-02 09:55:15.61	335.13	9.85	-45.3	-46.8	15.6	0.00e+00	0	58	0	1284505600	53	4250
2026-01-02 09:55:16.59	335.15	9.77	-45.4	-47.1	15.3	0.00e+00	0	58	0	1287651328	53	4406
2026-01-02 09:55:17.58	335.16	9.68	-45.3	-47.2	15.2	0.00e+00	0	58	0	1290797056	53	4443
2026-01-02 09:55:18.57	335.17	9.60	-45.2	-47.3	15.1	0.00e+00	0	58	0	1293942784	53	4495
2026-01-02 09:55:19.56	335.18	9.52	-45.0	-47.2	15.1	0.00e+00	0	58	0	1297088512	53	4456
2026-01-02 09:55:20.55	335.19	9.43	-45.0	-47.3	15.0	0.00e+00	0	58	0	1300234240	53	4507
2026-01-02 09:55:21.53	335.20	9.35	-45.3	-47.5	14.8	0.00e+00	0	58	0	1303379968	53	4621
2026-01-02 09:55:22.51	335.22	9.27	-45.6	-47.6	14.7	7.00e-07	0	58	0	1305477120	53	4671
2026-01-02 09:55:23.49	335.23	9.19	-45.8	-47.5	14.8	0.00e+00	0	58	0	1308622848	53	4645
2026-01-02 09:55:24.48	335.24	9.10	-46.0	-47.7	14.6	0.00e+00	0	58	0	1311768576	53	4748
2026-01-02 09:55:25.46	335.25	9.02	-46.2	-47.9	14.4	7.00e-07	0	58	0	1314914304	54	4550
2026-01-02 09:55:26.45	335.26	8.94	-46.3	-47.8	14.5	7.00e-07	0	58	0	1318060032	54	4542
2026-01-02 09:55:27.44	335.27	8.86	-46.5	-48.2	14.1	2.20e-06	0	58	0	1321205760	54	4730
2026-01-02 09:55:28.43	335.28	8.78	-46.7	-48.4	13.9	3.00e-06	0	58	0	1324351488	55	4548
2026-01-02 09:55:29.42	335.29	8.70	-46.6	-48.3	14.0	1.50e-06	0	58	0	1327497216	55	4512
2026-01-02 09:55:30.41	335.30	8.61	-46.6	-48.3	14.0	6.10e-06	0	58	0	1330642944	55	4502
2026-01-02 09:55:31.38	335.32	8.54	-46.5	-48.1	14.2	1.50e-06	0	58	0	1333788672	55	4409
2026-01-02 09:55:32.38	335.33	8.45	-46.5	-48.1	14.2	0.00e+00	0	58	0	1336934400	55	4400
2026-01-02 09:55:33.37	335.34	8.37	-46.6	-48.3	14.0	7.00e-07	0	58	0	1340080128	55	4510
2026-01-02 09:55:34.36	335.35	8.29	-46.7	-48.3	14.0	7.00e-07	0	58	0	1343225856	55	4510
2026-01-02 09:55:35.35	335.36	8.21	-46.7	-48.3	14.0	1.50e-06	0	58	0	1346371584	55	4518
2026-01-02 09:55:36.34	335.37	8.14	-46.4	-48.0	14.3	7.00e-07	0	58	0	1349517312	55	4363
2026-01-02 09:55:37.33	335.38	8.06	-46.4	-48.0	14.3	7.00e-07	0	58	0	1352663040	55	4352
2026-01-02 09:55:38.31	335.39	7.98	-46.4	-48.0	14.3	7.00e-07	0	58	0	1355808768	55	4357
2026-01-02 09:55:39.30	335.40	7.90	-46.5	-48.1	14.1	7.00e-07	0	58	0	1357905920	55	4417
2026-01-02 09:55:40.30	335.41	7.82	-46.7	-48.4	13.8	1.50e-06	0	58	0	1361051648	55	4568
2026-01-02 09:55:41.27	335.42	7.74	-46.6	-48.3	13.9	3.00e-06	0	58	0	1364197376	55	4522
2026-01-02 09:55:42.26	335.44	7.67	-46.9	-48.6	13.7	7.60e-06	0	58	0	1367343104	55	4662
2026-01-02 09:55:43.25	335.45	7.59	-46.6	-48.3	13.9	3.80e-06	0	58	0	1370488832	55	4498
2026-01-02 09:55:44.24	335.46	7.51	-46.9	-48.6	13.6	7.60e-06	0	58	0	1373634560	55	4684
2026-01-02 09:55:45.23	335.47	7.43	-47.2	-49.1	13.2	1.67e-05	0	58	0	1376780288	56	4658
2026-01-02 09:55:46.22	335.48	7.36	-47.0	-48.8	13.5	1.14e-05	0	58	0	1379926016	56	4503
2026-01-02 09:55:47.22	335.49	7.28	-47.3	-49.1	13.2	1.75e-05	0	58	0	1383071744	56	4679
2026-01-02 09:55:48.21	335.50	7.20	-47.4	-49.3	13.0	2.36e-05	0	58	0	1386217472	56	4780
2026-01-02 09:55:49.20	335.51	7.13	-47.3	-49.2	13.1	3.81e-05	0	58	0	1389363200	56	4751
2026-01-02 09:55:50.19	335.52	7.05	-47.5	-49.5	12.8	5.72e-05	0	58	0	1392508928	56	4887
2026-01-02 09:55:51.17	335.53	6.97	-47.4	-49.4	12.9	4.80e-05	0	58	0	1395654656	56	4832
2026-01-02 09:55:52.16	335.54	6.90	-47.5	-49.4	12.8	5.72e-05	0	58	0	1398800384	56	4843
2026-01-02 09:55:53.15	335.55	6.82	-47.7	-49.7	12.5	9.53e-05	0	58	0	1401946112	57	4759
2026-01-02 09:55:54.14	335.56	6.75	-47.5	-49.5	12.7	9.23e-05	0	58	0	1405091840	57	4649
2026-01-02 09:55:55.14	335.57	6.67	-47.2	-49.1	13.1	2.82e-05	0	58	0	1408237568	57	4424
2026-01-02 09:55:56.13	335.58	6.60	-47.2	-49.1	13.2	1.60e-05	0	58	0	1411383296	57	4395
2026-01-02 09:55:57.12	335.59	6.52	-46.9	-48.7	13.5	1.14e-05	0	58	0	1414529024	57	4231
2026-01-02 09:55:58.11	335.60	6.45	-46.9	-48.6	13.6	8.30e-06	0	58	0	1417674752	56	4422
2026-01-02 09:55:59.10	335.61	6.38	-46.8	-48.5	13.7	7.60e-06	0	58	0	1419771904	56	4349
2026-01-02 09:56:00.08	335.62	6.30	-46.8	-48.6	13.6	9.90e-06	0	58	0	1422917632	56	4419
2026-01-02 09:56:01.06	335.63	6.23	-46.8	-48.5	13.7	8.30e-06	0	58	0	1426063360	56	4362
2026-01-02 09:56:02.05	335.64	6.16	-46.7	-48.5	13.7	7.60e-06	0	58	0	1429209088	56	4344
2026-01-02 09:56:03.04	335.65	6.08	-46.7	-48.5	13.7	6.10e-06	0	58	0	1432354816	56	4342
2026-01-02 09:56:04.03	335.66	6.01	-46.8	-48.6	13.5	1.90e-05	0	58	0	1435500544	56	4420
2026-01-02 09:56:05.02	335.67	5.94	-46.8	-48.6	13.6	4.50e-06	0	58	0	1438646272	56	4392
2026-01-02 09:56:06.02	335.68	5.86	-46.8	-48.5	13.6	9.90e-06	0	58	0	1441792000	56	4387
2026-01-02 09:56:07.01	335.69	5.79	-46.9	-48.7	13.4	1.22e-05	0	58	0	1444937728	56	4480
2026-01-02 09:56:08.00	335.70	5.72	-46.8	-48.6	13.5	1.22e-05	0	58	0	1448083456	56	4424
2026-01-02 09:56:08.98	335.71	5.65	-46.9	-48.7	13.3	1.67e-05	0	58	0	1451229184	56	4484
2026-01-02 09:56:09.97	335.72	5.57	-46.9	-48.7	13.4	1.75e-05	0	58	0	1454374912	56	4463
2026-01-02 09:56:10.95	335.73	5.50	-47.0	-48.9	13.2	2.05e-05	0	58	0	1457520640	56	4559
2026-01-02 09:56:11.94	335.74	5.43	-47.2	-49.2	12.8	4.73e-05	0	58	0	1460666368	56	4755
2026-01-02 09:56:12.93	335.75	5.36	-47.3	-49.3	12.7	8.08e-05	0	58	0	1463812096	56	4807
2026-01-02 09:56:13.93	335.76	5.29	-47.2	-49.2	12.8	6.94e-05	0	58	0	1466957824	56	4732
2026-01-02 09:56:14.91	335.77	5.22	-47.3	-49.3	12.7	7.40e-05	0	58	0	1470103552	56	4813
2026-01-02 09:56:15.90	335.78	5.15	-47.4	-49.4	12.6	9.46e-05	0	58	0	1472200704	56	4830
2026-01-02 09:56:16.88	335.79	5.08	-48.2	-50.8	11.3	2.38e-04	0	58	0	1475346432	58	5075
2026-01-02 09:56:17.87	335.80	5.01	-51.7	-63.1	3.8	1.49e+00	0	58	104	1476395008	65	13919
2026-01-02 09:56:18.86	335.81	4.94	-52.0	-63.5	3.8	1.49e+00	0	58	104	1476395008	65	14619
2026-01-02 09:56:19.85	335.82	4.87	-52.2	-63.7	3.8	1.49e+00	0	58	104	1476395008	66	14207
2026-01-02 09:56:20.84	335.83	4.80	-52.3	-63.9	3.8	1.49e+00	0	58	104	1476395008	66	14384
2026-01-02 09:56:21.83	335.84	4.73	-52.4	-63.9	3.8	1.49e+00	0	58	104	1476395008	66	14518
2026-01-02 09:56:22.82	335.85	4.66	-52.0	-63.5	3.8	1.49e+00	0	58	104	1476395008	66	13796
2026-01-02 09:56:23.82	335.86	4.59	-52.4	-64.0	3.8	1.49e+00	0	58	104	1476395008	66	14569
2026-01-02 09:56:24.80	335.87	4.52	-52.6	-64.1	3.8	1.49e+00	0	58	104	1476395008	66	14714
2026-01-02 09:56:25.80	335.88	4.45	-52.6	-64.1	3.8	1.49e+00	0	58	104	1476395008	67	13961
2026-01-02 09:56:26.78	335.89	4.38	-52.5	-64.1	3.8	1.49e+00	0	58	104	1476395008	67	14003
2026-01-02 09:56:27.77	335.89	4.31	-52.6	-64.2	3.8	1.49e+00	0	58	104	1476395008	67	14079
2026-01-02 09:56:28.76	335.90	4.25	-52.7	-64.2	3.8	1.49e+00	0	58	104	1476395008	67	14128
2026-01-02 09:56:29.75	335.91	4.18	-52.7	-64.2	3.8	1.49e+00	0	58	104	1476395008	67	14168
2026-01-02 09:56:30.73	335.92	4.11	-52.7	-64.2	3.8	1.49e+00	0	58	104	1476395008	67	14205
2026-01-02 09:56:31.71	335.93	4.04	-52.7	-64.3	3.8	1.49e+00	0	58	104	1476395008	67	14240
2026-01-02 09:56:32.70	335.94	3.98	-52.7	-64.3	3.8	1.49e+00	0	58	104	1476395008	67	14212
2026-01-02 09:56:33.69	335.95	3.91	-52.6	-64.3	3.8	1.49e+00	0	58	104	1476395008	67	14235
2026-01-02 09:56:34.68	335.96	3.84	-52.7	-64.3	3.8	1.49e+00	0	58	104	1476395008	67	14261
2026-01-02 09:56:35.66	335.97	3.77	-52.7	-64.3	3.8	1.49e+00	0	58	104	1476395008	67	14295
2026-01-02 09:56:36.65	335.98	3.71	-52.6	-64.3	3.8	1.49e+00	0	58	104	1476395008	67	14314
2026-01-02 09:56:37.64	335.99	3.64	-52.7	-64.3	3.8	1.49e+00	0	58	104	1476395008	67	14267
2026-01-02 09:56:38.63	336.00	3.57	-52.7	-64.3	3.8	1.49e+00	0	58	104	1476395008	67	14356
2026-01-02 09:56:39.62	336.01	3.51	-52.6	-64.3	3.8	1.49e+00	0	58	104	1476395008	67	14299
2026-01-02 09:56:40.61	336.01	3.44	-52.7	-64.4	3.8	1.49e+00	0	58	104	1476395008	67	14383
2026-01-02 09:56:41.60	336.02	3.37	-52.8	-64.3	3.8	1.49e+00	0	58	104	1476395008	67	14373
2026-01-02 09:56:42.60	336.03	3.31	-52.7	-64.3	3.8	1.49e+00	0	58	104	1476395008	67	14326
2026-01-02 09:56:43.58	336.04	3.24	-52.8	-64.3	3.8	1.49e+00	0	58	104	1476395008	67	14373
2026-01-02 09:56:44.57	336.05	3.18	-52.8	-64.4	3.8	1.49e+00	0	58	104	1476395008	67	14380
2026-01-02 09:56:45.56	336.06	3.11	-52.9	-64.3	3.8	1.49e+00	0	58	104	1476395008	67	14340
2026-01-02 09:56:46.55	336.07	3.05	-52.8	-64.3	3.8	1.49e+00	0	58	104	1476395008	67	14335
2026-01-02 09:56:47.53	336.08	2.98	-52.7	-64.3	3.8	1.49e+00	0	58	104	1476395008	67	14343

#Closed at: 2026-01-02 09:56:48
#Recorded file [1476 MB]: D:/Data/31026_260102_125617.dat