passes_logs/2026/01/02/R3.0SM8_Murmansk_STILSPACE/R3.0SM8_Murmansk_STILSPACE__20260102_030324_FENGYUN_3E_rec.log

#Pass ID: 20260102_030324_FENGYUN 3E
#Satellite: FENGYUN 3E
#Configuration: FENGYUN 3E
#almurnet v.1.7.20240730
#Start time: 2026-01-02 03:10:42

#Version: 2.2.20231116
#Station: R3.0SM8_Murmansk_STILSPACE
#Location: 33.092731 lon 68.902999 lat
#TLE: 1 49008U 21062A   26001.26445318  .00000475  00000+0  24453-3 0  9990
#TLE: 2 49008  98.7480   6.5551 0001357 167.8415 192.2795 14.19884467232890

#Time	Az	El	Level	Level2	SNR	BER	BlckErr	Temp	State	Recorded	gain1	gain2
2026-01-02 03:10:42.89	105.48	29.10	-52.6	-63.5	3.8	8.47e-01	0	57	0	0	67	12970
2026-01-02 03:10:43.87	105.79	29.05	-52.8	-63.0	3.8	8.46e-01	0	58	104	0	68	11432
2026-01-02 03:10:44.86	106.11	29.00	-52.7	-62.9	3.8	8.45e-01	0	58	104	0	67	12013
2026-01-02 03:10:45.85	106.43	28.95	-52.7	-62.9	3.8	8.46e-01	0	58	104	0	67	12023
2026-01-02 03:10:46.84	106.74	28.90	-52.6	-62.9	3.8	8.45e-01	0	58	104	0	67	12023
2026-01-02 03:10:47.83	107.06	28.85	-52.7	-62.9	3.8	8.46e-01	0	58	104	0	67	11980
2026-01-02 03:10:48.82	107.37	28.80	-52.7	-62.9	3.8	8.46e-01	0	58	104	0	67	11978
2026-01-02 03:10:49.81	107.69	28.75	-52.5	-61.6	3.8	8.45e-01	0	58	104	0	67	10409
2026-01-02 03:10:50.80	108.00	28.69	-52.6	-62.8	3.8	8.47e-01	0	58	104	0	67	11937
2026-01-02 03:10:51.79	108.31	28.64	-52.7	-62.8	3.8	8.46e-01	0	58	104	0	67	11923
2026-01-02 03:10:52.78	108.62	28.58	-52.7	-62.8	3.8	8.46e-01	0	58	104	0	67	11850
2026-01-02 03:10:53.77	108.93	28.53	-52.6	-62.8	3.8	8.46e-01	0	58	104	0	67	11933
2026-01-02 03:10:54.76	109.23	28.47	-52.7	-62.8	3.8	8.45e-01	0	58	104	0	67	11948
2026-01-02 03:10:55.74	109.54	28.41	-52.6	-62.8	3.8	8.45e-01	0	58	104	0	67	11920
2026-01-02 03:10:56.74	109.85	28.35	-52.6	-62.8	3.8	8.47e-01	0	58	104	0	67	11911
2026-01-02 03:10:57.73	110.15	28.29	-52.6	-62.8	3.8	8.46e-01	0	58	104	0	67	11881
2026-01-02 03:10:58.72	110.45	28.23	-52.6	-62.8	3.8	8.46e-01	0	58	104	0	67	11934
2026-01-02 03:10:59.71	110.75	28.17	-52.6	-62.7	3.8	8.48e-01	0	58	104	0	67	11797
2026-01-02 03:11:00.69	111.05	28.11	-52.6	-62.8	3.8	8.46e-01	0	58	104	0	67	11862
2026-01-02 03:11:01.69	111.36	28.05	-52.6	-62.7	3.8	8.46e-01	0	58	104	0	67	11749
2026-01-02 03:11:02.68	111.65	27.99	-52.4	-62.1	3.8	8.46e-01	0	58	104	0	67	10921
2026-01-02 03:11:03.67	111.95	27.92	-52.4	-62.7	3.8	8.47e-01	0	58	104	0	67	11704
2026-01-02 03:11:04.66	112.25	27.86	-52.5	-62.6	3.8	8.47e-01	0	58	104	0	67	11648
2026-01-02 03:11:05.65	112.54	27.80	-52.5	-62.5	3.8	8.47e-01	0	58	104	0	67	11442
2026-01-02 03:11:06.64	112.84	27.73	-52.4	-62.3	3.8	8.48e-01	0	58	104	0	67	11212
2026-01-02 03:11:07.63	113.13	27.66	-52.4	-62.3	3.8	8.46e-01	0	58	104	0	67	11169
2026-01-02 03:11:08.63	113.42	27.60	-52.4	-62.5	3.8	8.45e-01	0	58	104	0	67	11449
2026-01-02 03:11:09.62	113.71	27.53	-52.5	-62.6	3.8	8.47e-01	0	58	104	0	67	11602
2026-01-02 03:11:10.60	114.00	27.46	-52.5	-62.6	3.8	8.46e-01	0	58	104	0	67	11632
2026-01-02 03:11:11.59	114.29	27.39	-52.5	-62.7	3.8	8.46e-01	0	58	104	0	67	11743
2026-01-02 03:11:12.58	114.58	27.32	-52.5	-62.6	3.8	8.46e-01	0	58	104	0	67	11646
2026-01-02 03:11:13.57	114.86	27.26	-52.5	-62.4	3.8	8.47e-01	0	58	104	0	67	11341
2026-01-02 03:11:14.55	115.14	27.19	-52.5	-62.4	3.8	8.47e-01	0	58	104	0	67	11338
2026-01-02 03:11:15.54	115.43	27.12	-52.5	-62.6	3.8	8.45e-01	0	58	104	0	67	11564
2026-01-02 03:11:16.53	115.71	27.04	-52.5	-62.6	3.8	8.46e-01	0	58	104	0	67	11596
2026-01-02 03:11:17.52	115.99	26.97	-52.5	-62.5	3.8	8.45e-01	0	58	104	0	67	11491
2026-01-02 03:11:18.52	116.27	26.90	-52.5	-62.4	3.8	8.46e-01	0	58	104	0	67	11342
2026-01-02 03:11:19.50	116.55	26.83	-52.5	-62.4	3.8	8.45e-01	0	58	104	0	67	11344
2026-01-02 03:11:20.48	116.82	26.75	-52.5	-62.3	3.8	8.46e-01	0	58	104	0	67	11267
2026-01-02 03:11:21.46	117.09	26.68	-52.5	-62.2	3.8	8.46e-01	0	58	104	0	67	11035
2026-01-02 03:11:22.45	117.37	26.61	-52.4	-62.5	3.8	8.45e-01	0	58	104	0	67	11496
2026-01-02 03:11:23.44	117.64	26.53	-52.5	-62.6	3.8	8.46e-01	0	58	104	0	67	11673
2026-01-02 03:11:24.43	117.91	26.46	-52.4	-62.1	3.8	8.46e-01	0	58	104	0	67	10928
2026-01-02 03:11:25.42	118.18	26.38	-52.3	-61.3	3.8	8.44e-01	0	58	104	0	67	9949
2026-01-02 03:11:26.41	118.45	26.30	-52.2	-60.9	3.8	8.45e-01	0	58	104	0	67	9562
2026-01-02 03:11:27.40	118.72	26.23	-52.2	-61.1	3.8	8.45e-01	0	58	104	0	67	9763
2026-01-02 03:11:28.38	118.99	26.15	-52.2	-61.1	3.8	8.45e-01	0	58	104	0	67	9807
2026-01-02 03:11:29.36	119.25	26.07	-52.3	-61.0	3.8	8.45e-01	0	58	104	0	67	9661
2026-01-02 03:11:30.35	119.51	26.00	-52.3	-61.4	3.8	8.47e-01	0	58	104	0	67	10165
2026-01-02 03:11:31.34	119.78	25.92	-52.5	-62.2	3.8	8.46e-01	0	58	104	0	67	11044
2026-01-02 03:11:32.32	120.04	25.84	-52.3	-61.0	3.8	8.46e-01	0	58	104	0	67	9695
2026-01-02 03:11:33.31	120.30	25.76	-51.7	-57.7	4.7	8.33e-01	0	58	0	0	66	7001
2026-01-02 03:11:34.30	120.56	25.68	-50.6	-54.5	6.9	2.54e-01	0	58	0	3145728	64	5437
2026-01-02 03:11:35.29	120.81	25.60	-49.4	-52.0	9.5	3.14e-02	0	58	0	10485760	61	4819
2026-01-02 03:11:36.27	121.07	25.52	-48.1	-50.0	11.6	2.29e-03	0	58	0	16777216	59	4329
2026-01-02 03:11:37.26	121.32	25.44	-47.4	-48.9	12.7	9.26e-05	0	58	0	24117248	57	4289
2026-01-02 03:11:38.24	121.58	25.36	-47.5	-49.1	12.6	9.15e-05	0	58	0	31457280	57	4362
2026-01-02 03:11:39.23	121.83	25.28	-47.6	-49.3	12.4	2.44e-04	0	58	0	37748736	57	4447
2026-01-02 03:11:40.22	122.08	25.20	-47.5	-49.0	12.7	9.95e-05	0	58	0	45088768	57	4335
2026-01-02 03:11:41.21	122.33	25.12	-47.4	-49.0	12.7	7.32e-05	0	58	0	52428800	57	4325
2026-01-02 03:11:42.19	122.58	25.04	-47.5	-49.1	12.5	1.28e-04	0	58	0	59768832	57	4386
2026-01-02 03:11:43.18	122.83	24.95	-47.9	-49.7	12.0	2.61e-04	0	58	0	67108864	57	4673
2026-01-02 03:11:44.16	123.07	24.87	-48.7	-50.8	10.8	2.77e-03	0	58	0	74448896	59	4729
2026-01-02 03:11:45.15	123.32	24.79	-47.7	-49.4	12.3	3.33e-04	0	58	0	80740352	58	4259
2026-01-02 03:11:46.15	123.56	24.70	-46.7	-48.0	13.7	1.71e-05	0	58	0	88080384	56	4068
2026-01-02 03:11:47.13	123.80	24.62	-45.6	-46.7	15.0	1.10e-06	0	58	0	95420416	54	3915
2026-01-02 03:11:48.12	124.04	24.54	-44.7	-45.6	16.0	0.00e+00	0	58	0	102760448	52	3881
2026-01-02 03:11:49.11	124.29	24.45	-43.9	-44.7	17.1	0.00e+00	0	58	0	110100480	50	3914
2026-01-02 03:11:50.10	124.52	24.37	-43.2	-43.8	17.9	0.00e+00	0	58	0	116391936	49	3780
2026-01-02 03:11:51.09	124.76	24.28	-42.5	-43.2	18.5	0.00e+00	0	58	0	123731968	48	3703
2026-01-02 03:11:52.07	125.00	24.20	-42.0	-42.6	18.9	0.00e+00	0	58	0	131072000	46	3878
2026-01-02 03:11:53.07	125.23	24.12	-41.6	-42.1	19.4	0.00e+00	0	58	0	138412032	46	3678
2026-01-02 03:11:54.06	125.47	24.03	-41.2	-41.7	19.7	0.00e+00	0	58	0	145752064	45	3733
2026-01-02 03:11:55.05	125.70	23.94	-41.0	-41.5	20.0	0.00e+00	0	58	0	153092096	44	3833
2026-01-02 03:11:56.04	125.93	23.86	-40.7	-41.3	20.2	0.00e+00	0	58	0	159383552	44	3738
2026-01-02 03:11:57.02	126.16	23.77	-40.6	-41.1	20.3	0.00e+00	0	58	0	166723584	44	3688
2026-01-02 03:11:58.02	126.39	23.69	-40.8	-41.4	20.1	0.00e+00	0	58	0	174063616	44	3790
2026-01-02 03:11:59.01	126.62	23.60	-41.3	-41.8	19.7	0.00e+00	0	58	0	181403648	44	3987
2026-01-02 03:12:00.00	126.85	23.51	-40.9	-41.5	20.0	0.00e+00	0	58	0	188743680	44	3830
2026-01-02 03:12:00.99	127.07	23.43	-40.8	-41.3	20.1	0.00e+00	0	58	0	196083712	44	3768
2026-01-02 03:12:01.99	127.30	23.34	-40.7	-41.2	20.0	0.00e+00	0	58	0	202375168	44	3726
2026-01-02 03:12:02.98	127.52	23.25	-40.8	-41.3	20.1	0.00e+00	0	58	0	209715200	44	3768
2026-01-02 03:12:03.97	127.75	23.17	-41.0	-41.5	19.9	0.00e+00	0	58	0	217055232	44	3868
2026-01-02 03:12:04.96	127.97	23.08	-40.7	-41.3	20.1	0.00e+00	0	58	0	224395264	44	3743
2026-01-02 03:12:05.94	128.18	22.99	-40.9	-41.5	20.0	0.00e+00	0	58	0	231735296	44	3833
2026-01-02 03:12:06.93	128.40	22.91	-41.2	-41.7	19.8	0.00e+00	0	58	0	238026752	44	3930
2026-01-02 03:12:07.93	128.62	22.82	-40.9	-41.4	20.0	0.00e+00	0	58	0	245366784	44	3800
2026-01-02 03:12:08.91	128.84	22.73	-40.6	-41.1	20.3	0.00e+00	0	58	0	252706816	44	3658
2026-01-02 03:12:09.90	129.05	22.64	-40.3	-40.8	20.5	0.00e+00	0	58	0	260046848	43	3739
2026-01-02 03:12:10.88	129.26	22.56	-40.2	-40.7	20.5	0.00e+00	0	58	0	267386880	43	3723
2026-01-02 03:12:11.87	129.47	22.47	-40.3	-40.8	20.6	0.00e+00	0	58	0	273678336	43	3740
2026-01-02 03:12:12.86	129.69	22.38	-40.3	-40.7	20.6	0.00e+00	0	58	0	281018368	43	3737
2026-01-02 03:12:13.85	129.90	22.29	-40.4	-40.9	20.4	0.00e+00	0	58	0	288358400	43	3788
2026-01-02 03:12:14.83	130.10	22.20	-40.5	-41.0	20.3	0.00e+00	0	58	0	295698432	43	3830
2026-01-02 03:12:15.82	130.31	22.12	-40.7	-41.2	20.1	0.00e+00	0	58	0	301989888	43	3920
2026-01-02 03:12:16.81	130.52	22.03	-40.7	-41.2	20.1	0.00e+00	0	58	0	309329920	43	3935
2026-01-02 03:12:17.80	130.72	21.94	-40.8	-41.3	20.0	0.00e+00	0	58	0	316669952	43	3976
2026-01-02 03:12:18.78	130.93	21.85	-40.9	-41.5	19.8	0.00e+00	0	58	0	324009984	43	4058
2026-01-02 03:12:19.77	131.13	21.76	-40.9	-41.4	19.9	0.00e+00	0	58	0	331350016	43	4047
2026-01-02 03:12:20.76	131.33	21.67	-41.0	-41.5	19.8	0.00e+00	0	58	0	337641472	43	4076
2026-01-02 03:12:21.75	131.53	21.59	-41.1	-41.7	19.6	0.00e+00	0	58	0	344981504	43	4163
2026-01-02 03:12:22.74	131.73	21.50	-41.0	-41.6	19.8	0.00e+00	0	58	0	352321536	44	3878
2026-01-02 03:12:23.73	131.93	21.41	-40.9	-41.4	20.0	0.00e+00	0	58	0	359661568	44	3801
2026-01-02 03:12:24.71	132.13	21.32	-40.7	-41.2	20.2	0.00e+00	0	58	0	367001600	44	3728
2026-01-02 03:12:25.70	132.32	21.23	-40.7	-41.2	20.2	0.00e+00	0	58	0	374341632	44	3735
2026-01-02 03:12:26.68	132.52	21.14	-40.8	-41.4	20.0	0.00e+00	0	58	0	380633088	44	3784
2026-01-02 03:12:27.67	132.71	21.05	-40.8	-41.3	20.1	0.00e+00	0	58	0	387973120	44	3775
2026-01-02 03:12:28.67	132.91	20.97	-40.8	-41.3	20.1	0.00e+00	0	58	0	395313152	44	3761
2026-01-02 03:12:29.65	133.10	20.88	-40.9	-41.4	20.0	0.00e+00	0	58	0	402653184	44	3785
2026-01-02 03:12:30.65	133.29	20.79	-40.9	-41.5	20.0	0.00e+00	0	58	0	409993216	44	3827
2026-01-02 03:12:31.64	133.48	20.70	-41.1	-41.6	19.8	0.00e+00	0	58	0	417333248	44	3909
2026-01-02 03:12:32.62	133.67	20.61	-41.3	-41.8	19.5	0.00e+00	0	58	0	423624704	44	3993
2026-01-02 03:12:33.61	133.86	20.52	-41.4	-42.0	19.5	0.00e+00	0	58	0	430964736	44	4061
2026-01-02 03:12:34.60	134.04	20.43	-41.5	-42.0	19.4	0.00e+00	0	58	0	438304768	44	4086
2026-01-02 03:12:35.57	134.23	20.35	-41.5	-42.1	19.3	0.00e+00	0	58	0	444596224	44	4113
2026-01-02 03:12:36.56	134.41	20.26	-41.7	-42.3	19.2	0.00e+00	0	58	0	451936256	44	4200
2026-01-02 03:12:37.55	134.60	20.17	-41.7	-42.3	19.1	0.00e+00	0	58	0	459276288	45	3980
2026-01-02 03:12:38.53	134.78	20.08	-41.6	-42.2	19.3	0.00e+00	0	58	0	466616320	45	3914
2026-01-02 03:12:39.52	134.96	19.99	-41.8	-42.4	19.0	0.00e+00	0	58	0	473956352	45	4019
2026-01-02 03:12:40.51	135.14	19.90	-41.7	-42.2	19.2	0.00e+00	0	58	0	480247808	45	3957
2026-01-02 03:12:41.50	135.32	19.81	-41.3	-41.9	19.5	0.00e+00	0	58	0	487587840	45	3794
2026-01-02 03:12:42.50	135.50	19.73	-41.1	-41.7	19.7	0.00e+00	0	58	0	494927872	45	3698
2026-01-02 03:12:43.49	135.68	19.64	-41.1	-41.6	19.7	0.00e+00	0	58	0	502267904	45	3670
2026-01-02 03:12:44.48	135.85	19.55	-41.0	-41.6	19.8	0.00e+00	0	58	0	509607936	45	3659
2026-01-02 03:12:45.47	136.03	19.46	-41.1	-41.6	19.7	0.00e+00	0	58	0	516947968	44	3912
2026-01-02 03:12:46.46	136.20	19.37	-41.2	-41.7	19.7	0.00e+00	0	58	0	523239424	44	3937
2026-01-02 03:12:47.45	136.38	19.28	-41.3	-41.8	19.6	0.00e+00	0	58	0	530579456	44	3992
2026-01-02 03:12:48.44	136.55	19.20	-41.4	-41.9	19.4	0.00e+00	0	58	0	537919488	44	4049
2026-01-02 03:12:49.43	136.72	19.11	-41.3	-41.8	19.6	0.00e+00	0	58	0	545259520	44	3977
2026-01-02 03:12:50.42	136.89	19.02	-41.3	-41.9	19.5	0.00e+00	0	58	0	552599552	44	4024
2026-01-02 03:12:51.40	137.06	18.93	-41.6	-42.2	19.2	0.00e+00	0	58	0	558891008	44	4164
2026-01-02 03:12:52.39	137.23	18.84	-41.8	-42.4	19.0	0.00e+00	0	58	0	566231040	45	4010
2026-01-02 03:12:53.38	137.40	18.76	-41.9	-42.4	18.9	0.00e+00	0	58	0	573571072	45	4050
2026-01-02 03:12:54.36	137.57	18.67	-42.0	-42.6	18.8	0.00e+00	0	58	0	580911104	45	4104
2026-01-02 03:12:55.35	137.73	18.58	-41.9	-42.6	18.8	0.00e+00	0	58	0	588251136	45	4100
2026-01-02 03:12:56.34	137.90	18.49	-42.0	-42.7	18.7	0.00e+00	0	58	0	595591168	45	4154
2026-01-02 03:12:57.32	138.06	18.41	-42.0	-42.6	18.7	0.00e+00	0	58	0	601882624	45	4143
2026-01-02 03:12:58.31	138.22	18.32	-42.0	-42.6	18.8	0.00e+00	0	58	0	609222656	45	4123
2026-01-02 03:12:59.30	138.39	18.23	-42.1	-42.8	18.6	0.00e+00	0	58	0	616562688	45	4195
2026-01-02 03:13:00.29	138.55	18.14	-41.7	-42.3	19.0	0.00e+00	0	58	0	623902720	45	3990
2026-01-02 03:13:01.28	138.71	18.06	-41.6	-42.1	19.2	0.00e+00	0	58	0	630194176	45	3912
2026-01-02 03:13:02.27	138.87	17.97	-41.4	-42.0	19.4	0.00e+00	0	58	0	637534208	45	3846
2026-01-02 03:13:03.26	139.03	17.88	-41.3	-41.9	19.4	0.00e+00	0	58	0	644874240	45	3799
2026-01-02 03:13:04.25	139.19	17.80	-41.3	-41.9	19.5	0.00e+00	0	58	0	652214272	45	3789
2026-01-02 03:13:05.24	139.34	17.71	-41.4	-42.0	19.4	0.00e+00	0	58	0	659554304	45	3833
2026-01-02 03:13:06.23	139.50	17.62	-41.5	-42.1	19.3	0.00e+00	0	58	0	666894336	45	3890
2026-01-02 03:13:07.22	139.66	17.54	-41.7	-42.2	19.1	0.00e+00	0	58	0	673185792	45	3956
2026-01-02 03:13:08.20	139.81	17.45	-41.5	-42.1	19.3	0.00e+00	0	58	0	680525824	45	3889
2026-01-02 03:13:09.19	139.96	17.36	-41.5	-42.1	19.2	0.00e+00	0	58	0	687865856	45	3899
2026-01-02 03:13:10.18	140.12	17.28	-41.6	-42.2	19.1	0.00e+00	0	58	0	695205888	45	3948
2026-01-02 03:13:11.16	140.27	17.19	-41.7	-42.3	19.1	0.00e+00	0	58	0	701497344	45	3960
2026-01-02 03:13:12.15	140.42	17.11	-41.8	-42.4	18.9	0.00e+00	0	58	0	708837376	45	4024
2026-01-02 03:13:13.14	140.57	17.02	-41.9	-42.5	18.8	0.00e+00	0	58	0	716177408	45	4091
2026-01-02 03:13:14.13	140.72	16.93	-41.9	-42.5	18.9	0.00e+00	0	58	0	723517440	45	4071
2026-01-02 03:13:15.12	140.87	16.85	-42.1	-42.8	18.5	0.00e+00	0	58	0	730857472	45	4202
2026-01-02 03:13:16.11	141.01	16.76	-42.0	-42.7	18.7	0.00e+00	0	58	0	738197504	45	4151
2026-01-02 03:13:17.10	141.16	16.68	-42.2	-42.9	18.3	0.00e+00	0	58	0	744488960	46	4014
2026-01-02 03:13:18.09	141.31	16.59	-42.4	-43.0	18.3	0.00e+00	0	58	0	751828992	46	4097
2026-01-02 03:13:19.07	141.45	16.51	-42.3	-43.0	18.4	0.00e+00	0	58	0	759169024	46	4057
2026-01-02 03:13:20.06	141.60	16.42	-42.4	-43.0	18.4	0.00e+00	0	58	0	766509056	46	4090
2026-01-02 03:13:21.05	141.74	16.34	-42.5	-43.1	18.2	0.00e+00	0	58	0	773849088	46	4142
2026-01-02 03:13:22.05	141.89	16.25	-42.7	-43.4	18.0	0.00e+00	0	58	0	780140544	46	4267
2026-01-02 03:13:23.04	142.03	16.17	-42.4	-43.1	18.3	0.00e+00	0	58	0	787480576	47	3873
2026-01-02 03:13:24.03	142.17	16.08	-42.2	-42.9	18.5	0.00e+00	0	58	0	794820608	47	3782
2026-01-02 03:13:25.02	142.31	16.00	-42.2	-42.9	18.5	0.00e+00	0	58	0	802160640	47	3789
2026-01-02 03:13:26.01	142.45	15.91	-42.3	-43.0	18.4	0.00e+00	0	58	0	809500672	47	3837
2026-01-02 03:13:26.99	142.59	15.83	-42.1	-42.7	18.6	0.00e+00	0	58	0	816840704	47	3729
2026-01-02 03:13:27.98	142.73	15.75	-42.3	-43.0	18.4	0.00e+00	0	58	0	823132160	47	3829
2026-01-02 03:13:28.97	142.87	15.66	-42.1	-42.7	18.6	0.00e+00	0	58	0	830472192	47	3713
2026-01-02 03:13:29.95	143.00	15.58	-41.9	-42.5	18.8	0.00e+00	0	58	0	837812224	46	3858
2026-01-02 03:13:30.94	143.14	15.50	-41.8	-42.4	19.0	0.00e+00	0	58	0	845152256	46	3784
2026-01-02 03:13:31.92	143.27	15.41	-41.8	-42.4	18.9	0.00e+00	0	58	0	851443712	46	3794
2026-01-02 03:13:32.91	143.41	15.33	-42.0	-42.6	18.7	0.00e+00	0	58	0	858783744	46	3900
2026-01-02 03:13:33.90	143.54	15.25	-42.2	-42.8	18.5	0.00e+00	0	58	0	866123776	46	3983
2026-01-02 03:13:34.89	143.68	15.16	-42.1	-42.7	18.6	0.00e+00	0	58	0	873463808	46	3936
2026-01-02 03:13:35.87	143.81	15.08	-42.1	-42.7	18.6	0.00e+00	0	58	0	879755264	46	3935
2026-01-02 03:13:36.87	143.94	15.00	-42.2	-42.9	18.4	0.00e+00	0	58	0	887095296	46	4020
2026-01-02 03:13:37.85	144.07	14.92	-42.3	-43.0	18.4	0.00e+00	0	58	0	894435328	46	4062
2026-01-02 03:13:38.84	144.20	14.83	-42.4	-43.0	18.3	0.00e+00	0	58	0	901775360	46	4090
2026-01-02 03:13:39.82	144.33	14.75	-42.6	-43.3	18.1	0.00e+00	0	58	0	909115392	46	4201
2026-01-02 03:13:40.82	144.46	14.67	-42.5	-43.2	18.1	0.00e+00	0	58	0	916455424	46	4156
2026-01-02 03:13:41.80	144.59	14.59	-42.7	-43.4	18.0	0.00e+00	0	58	0	922746880	46	4250
2026-01-02 03:13:42.80	144.72	14.50	-42.6	-43.2	18.1	0.00e+00	0	58	0	930086912	47	3958
2026-01-02 03:13:43.78	144.84	14.42	-42.4	-43.1	18.2	0.00e+00	0	58	0	937426944	47	3870
2026-01-02 03:13:44.77	144.97	14.34	-42.2	-42.9	18.4	0.00e+00	0	58	0	944766976	47	3798
2026-01-02 03:13:45.76	145.10	14.26	-42.2	-42.9	18.4	0.00e+00	0	58	0	952107008	47	3799
2026-01-02 03:13:46.75	145.22	14.18	-42.2	-42.8	18.4	0.00e+00	0	58	0	959447040	47	3779
2026-01-02 03:13:47.75	145.35	14.10	-42.1	-42.8	18.5	0.00e+00	0	58	0	965738496	47	3754
2026-01-02 03:13:48.74	145.47	14.02	-42.2	-42.8	18.5	0.00e+00	0	58	0	973078528	47	3775
2026-01-02 03:13:49.73	145.59	13.94	-42.2	-42.8	18.4	0.00e+00	0	58	0	980418560	47	3763
2026-01-02 03:13:50.72	145.72	13.85	-42.1	-42.8	18.5	0.00e+00	0	58	0	987758592	47	3751
2026-01-02 03:13:51.70	145.84	13.77	-42.3	-42.9	18.3	0.00e+00	0	58	0	995098624	47	3814
2026-01-02 03:13:52.69	145.96	13.69	-42.3	-43.0	18.2	0.00e+00	0	58	0	1001390080	47	3829
2026-01-02 03:13:53.68	146.08	13.61	-42.4	-43.0	18.2	0.00e+00	0	58	0	1008730112	47	3859
2026-01-02 03:13:54.66	146.20	13.53	-42.4	-43.1	18.2	0.00e+00	0	58	0	1016070144	47	3874
2026-01-02 03:13:55.66	146.32	13.45	-42.6	-43.3	18.0	0.00e+00	0	58	0	1023410176	47	3965
2026-01-02 03:13:56.64	146.44	13.37	-42.6	-43.3	17.9	0.00e+00	0	58	0	1030750208	47	4003
2026-01-02 03:13:57.64	146.56	13.29	-42.7	-43.4	17.9	0.00e+00	0	58	0	1038090240	47	4039
2026-01-02 03:13:58.63	146.67	13.21	-42.8	-43.5	17.8	0.00e+00	0	58	0	1044381696	47	4064
2026-01-02 03:13:59.62	146.79	13.14	-42.8	-43.5	17.8	0.00e+00	0	58	0	1051721728	47	4074
2026-01-02 03:14:00.61	146.91	13.06	-43.0	-43.7	17.5	0.00e+00	0	58	0	1059061760	47	4168
2026-01-02 03:14:01.59	147.02	12.98	-42.9	-43.7	17.6	0.00e+00	0	58	0	1066401792	47	4149
2026-01-02 03:14:02.58	147.14	12.90	-42.9	-43.7	17.6	0.00e+00	0	58	0	1073741824	47	4154
2026-01-02 03:14:03.58	147.25	12.82	-43.0	-43.8	17.5	0.00e+00	0	58	0	1080033280	47	4219
2026-01-02 03:14:04.57	147.37	12.74	-43.0	-43.8	17.5	0.00e+00	0	58	0	1087373312	47	4213
2026-01-02 03:14:05.55	147.48	12.66	-43.0	-43.7	17.6	0.00e+00	0	58	0	1094713344	47	4167
2026-01-02 03:14:06.53	147.59	12.59	-43.0	-43.7	17.6	0.00e+00	0	58	0	1102053376	47	4165
2026-01-02 03:14:07.52	147.70	12.51	-43.0	-43.8	17.5	0.00e+00	0	58	0	1108344832	47	4207
2026-01-02 03:14:08.51	147.82	12.43	-43.0	-43.8	17.5	0.00e+00	0	58	0	1115684864	47	4219
2026-01-02 03:14:09.51	147.93	12.35	-42.9	-43.6	17.6	0.00e+00	0	58	0	1123024896	47	4135
2026-01-02 03:14:10.50	148.04	12.27	-42.7	-43.4	17.8	0.00e+00	0	58	0	1130364928	47	4038
2026-01-02 03:14:11.48	148.15	12.20	-42.7	-43.5	17.8	0.00e+00	0	58	0	1137704960	47	4057
2026-01-02 03:14:12.47	148.26	12.12	-42.7	-43.4	17.8	0.00e+00	0	58	0	1143996416	47	4045
2026-01-02 03:14:13.46	148.37	12.04	-42.7	-43.4	17.8	0.00e+00	0	58	0	1151336448	47	4046
2026-01-02 03:14:14.44	148.47	11.97	-42.9	-43.7	17.6	0.00e+00	0	58	0	1158676480	47	4155
2026-01-02 03:14:15.43	148.58	11.89	-43.0	-43.7	17.5	0.00e+00	0	58	0	1166016512	47	4192
2026-01-02 03:14:16.42	148.69	11.81	-42.8	-43.6	17.6	0.00e+00	0	58	0	1173356544	47	4106
2026-01-02 03:14:17.41	148.80	11.73	-42.8	-43.5	17.7	0.00e+00	0	58	0	1180696576	47	4081
2026-01-02 03:14:18.39	148.90	11.66	-42.8	-43.5	17.7	0.00e+00	0	58	0	1186988032	47	4090
2026-01-02 03:14:19.38	149.01	11.58	-42.9	-43.7	17.5	0.00e+00	0	58	0	1194328064	47	4149
2026-01-02 03:14:20.36	149.11	11.51	-43.1	-43.8	17.4	0.00e+00	0	58	0	1201668096	47	4230
2026-01-02 03:14:21.36	149.22	11.43	-43.3	-44.1	17.3	0.00e+00	0	58	0	1209008128	48	4115
2026-01-02 03:14:22.35	149.32	11.35	-43.4	-44.1	17.3	0.00e+00	0	58	0	1216348160	48	4136
2026-01-02 03:14:23.34	149.43	11.28	-43.4	-44.2	17.2	0.00e+00	0	58	0	1222639616	48	4161
2026-01-02 03:14:24.32	149.53	11.20	-43.4	-44.1	17.2	0.00e+00	0	58	0	1229979648	48	4141
2026-01-02 03:14:25.31	149.63	11.13	-43.4	-44.2	17.2	0.00e+00	0	58	0	1237319680	48	4174
2026-01-02 03:14:26.30	149.73	11.05	-43.6	-44.4	17.0	0.00e+00	0	58	0	1244659712	48	4264
2026-01-02 03:14:27.29	149.83	10.98	-43.8	-44.6	16.8	0.00e+00	0	58	0	1251999744	49	4131
2026-01-02 03:14:28.28	149.94	10.90	-43.6	-44.4	17.0	0.00e+00	0	58	0	1259339776	49	4012
2026-01-02 03:14:29.26	150.04	10.83	-43.4	-44.2	17.1	0.00e+00	0	58	0	1265631232	49	3934
2026-01-02 03:14:30.25	150.14	10.75	-43.4	-44.2	17.2	0.00e+00	0	58	0	1272971264	49	3923
2026-01-02 03:14:31.24	150.23	10.68	-43.5	-44.3	17.1	0.00e+00	0	58	0	1280311296	49	3993
2026-01-02 03:14:32.22	150.33	10.61	-43.6	-44.4	16.9	0.00e+00	0	57	0	1286602752	49	4046
2026-01-02 03:14:33.21	150.43	10.53	-43.6	-44.4	17.0	0.00e+00	0	58	0	1293942784	49	4014
2026-01-02 03:14:34.20	150.53	10.46	-43.7	-44.5	16.8	0.00e+00	0	58	0	1301282816	49	4098
2026-01-02 03:14:35.19	150.63	10.38	-43.8	-44.6	16.7	0.00e+00	0	58	0	1308622848	49	4141
2026-01-02 03:14:36.18	150.73	10.31	-43.7	-44.5	16.8	0.00e+00	0	58	0	1315962880	49	4083
2026-01-02 03:14:37.17	150.82	10.24	-43.7	-44.5	16.9	0.00e+00	0	58	0	1322254336	49	4055
2026-01-02 03:14:38.15	150.92	10.16	-43.7	-44.6	16.8	0.00e+00	0	58	0	1329594368	49	4110
2026-01-02 03:14:39.14	151.01	10.09	-44.0	-44.8	16.5	0.00e+00	0	58	0	1336934400	49	4236
2026-01-02 03:14:40.13	151.11	10.02	-43.7	-44.5	16.8	0.00e+00	0	58	0	1344274432	49	4098
2026-01-02 03:14:41.12	151.20	9.94	-43.6	-44.4	17.0	0.00e+00	0	58	0	1351614464	49	4008
2026-01-02 03:14:42.11	151.30	9.87	-43.5	-44.3	17.0	0.00e+00	0	58	0	1358954496	49	3999
2026-01-02 03:14:43.10	151.39	9.80	-43.5	-44.3	17.0	0.00e+00	0	58	0	1365245952	49	3993
2026-01-02 03:14:44.08	151.49	9.73	-43.5	-44.3	17.0	0.00e+00	0	58	0	1372585984	49	4001
2026-01-02 03:14:45.07	151.58	9.65	-43.6	-44.5	16.8	0.00e+00	0	58	0	1379926016	49	4059
2026-01-02 03:14:46.05	151.67	9.58	-43.6	-44.4	16.9	0.00e+00	0	58	0	1387266048	49	4022
2026-01-02 03:14:47.05	151.76	9.51	-43.7	-44.5	16.8	0.00e+00	0	58	0	1394606080	49	4081
2026-01-02 03:14:48.03	151.86	9.44	-43.8	-44.7	16.6	0.00e+00	0	58	0	1401946112	49	4158
2026-01-02 03:14:49.02	151.95	9.37	-44.1	-44.9	16.4	0.00e+00	0	58	0	1408237568	49	4287
2026-01-02 03:14:50.01	152.04	9.30	-43.9	-44.8	16.5	0.00e+00	0	58	0	1415577600	49	4202
2026-01-02 03:14:51.00	152.13	9.22	-43.8	-44.6	16.6	0.00e+00	0	58	0	1422917632	49	4130
2026-01-02 03:14:51.99	152.22	9.15	-43.7	-44.6	16.7	0.00e+00	0	58	0	1430257664	49	4109
2026-01-02 03:14:52.99	152.31	9.08	-43.8	-44.6	16.6	0.00e+00	0	58	0	1437597696	49	4141
2026-01-02 03:14:53.98	152.40	9.01	-43.8	-44.6	16.7	0.00e+00	0	58	0	1443889152	49	4112
2026-01-02 03:14:54.97	152.49	8.94	-43.8	-44.6	16.7	0.00e+00	0	58	0	1451229184	49	4118
2026-01-02 03:14:55.96	152.58	8.87	-43.8	-44.7	16.6	0.00e+00	0	58	0	1458569216	49	4155
2026-01-02 03:14:56.94	152.66	8.80	-43.8	-44.7	16.5	0.00e+00	0	58	0	1465909248	49	4173
2026-01-02 03:14:57.94	152.75	8.73	-43.8	-44.6	16.6	0.00e+00	0	58	0	1473249280	49	4140
2026-01-02 03:14:58.92	152.84	8.66	-43.8	-44.7	16.6	0.00e+00	0	58	0	1479540736	49	4164
2026-01-02 03:14:59.91	152.93	8.59	-43.8	-44.7	16.5	0.00e+00	0	58	0	1486880768	49	4177
2026-01-02 03:15:00.90	153.01	8.52	-43.9	-44.8	16.4	0.00e+00	0	58	0	1494220800	49	4219
2026-01-02 03:15:01.89	153.10	8.45	-44.2	-45.1	16.1	0.00e+00	0	58	0	1501560832	49	4368
2026-01-02 03:15:02.87	153.18	8.38	-44.0	-44.9	16.3	0.00e+00	0	58	0	1507852288	50	4032
2026-01-02 03:15:03.86	153.27	8.31	-43.9	-44.8	16.4	0.00e+00	0	58	0	1515192320	50	3982
2026-01-02 03:15:04.85	153.35	8.24	-43.8	-44.7	16.5	0.00e+00	0	58	0	1522532352	50	3947
2026-01-02 03:15:05.84	153.44	8.17	-43.9	-44.7	16.4	0.00e+00	0	58	0	1529872384	50	3951
2026-01-02 03:15:06.83	153.52	8.10	-43.9	-44.8	16.4	0.00e+00	0	58	0	1537212416	50	3991
2026-01-02 03:15:07.82	153.61	8.03	-44.1	-45.0	16.2	0.00e+00	0	58	0	1543503872	50	4077
2026-01-02 03:15:08.81	153.69	7.96	-44.1	-45.0	16.2	0.00e+00	0	58	0	1550843904	50	4052
2026-01-02 03:15:09.80	153.77	7.89	-44.0	-44.9	16.3	0.00e+00	0	58	0	1558183936	50	4011
2026-01-02 03:15:10.79	153.86	7.82	-44.0	-44.9	16.3	0.00e+00	0	58	0	1565523968	50	4019
2026-01-02 03:15:11.78	153.94	7.76	-44.0	-44.9	16.2	0.00e+00	0	58	0	1572864000	50	4035
2026-01-02 03:15:12.77	154.02	7.69	-44.2	-45.1	16.0	0.00e+00	0	58	0	1580204032	50	4141
2026-01-02 03:15:13.76	154.10	7.62	-44.3	-45.3	15.8	1.10e-06	0	58	0	1586495488	50	4213
2026-01-02 03:15:14.75	154.18	7.55	-44.3	-45.2	15.8	0.00e+00	0	58	0	1593835520	50	4188
2026-01-02 03:15:15.74	154.26	7.48	-44.3	-45.2	15.8	0.00e+00	0	58	0	1601175552	50	4192
2026-01-02 03:15:16.73	154.35	7.41	-44.4	-45.4	15.7	0.00e+00	0	58	0	1608515584	50	4246
2026-01-02 03:15:17.73	154.43	7.35	-44.4	-45.4	15.7	0.00e+00	0	58	0	1615855616	50	4262
2026-01-02 03:15:18.72	154.51	7.28	-44.4	-45.4	15.6	0.00e+00	0	58	0	1623195648	50	4274
2026-01-02 03:15:19.71	154.59	7.21	-44.7	-45.7	15.3	0.00e+00	0	58	0	1629487104	51	4185
2026-01-02 03:15:20.70	154.66	7.14	-44.7	-45.7	15.4	0.00e+00	0	58	0	1636827136	51	4157
2026-01-02 03:15:21.69	154.74	7.08	-44.4	-45.4	15.6	0.00e+00	0	58	0	1644167168	51	4020
2026-01-02 03:15:22.68	154.82	7.01	-44.3	-45.2	15.8	0.00e+00	0	58	0	1651507200	51	3954
2026-01-02 03:15:23.66	154.90	6.94	-44.3	-45.3	15.8	0.00e+00	0	58	0	1658847232	51	3970
2026-01-02 03:15:24.65	154.98	6.88	-44.4	-45.4	15.7	0.00e+00	0	58	0	1665138688	51	4010
2026-01-02 03:15:25.64	155.05	6.81	-44.3	-45.3	15.8	0.00e+00	0	58	0	1672478720	51	3973
2026-01-02 03:15:26.62	155.13	6.74	-44.2	-45.1	15.9	0.00e+00	0	58	0	1679818752	51	3891
2026-01-02 03:15:27.61	155.21	6.68	-44.2	-45.2	15.8	0.00e+00	0	58	0	1687158784	51	3935
2026-01-02 03:15:28.60	155.28	6.61	-44.3	-45.3	15.7	0.00e+00	0	58	0	1694498816	51	3984
2026-01-02 03:15:29.59	155.36	6.54	-44.4	-45.4	15.6	0.00e+00	0	58	0	1701838848	51	4006
2026-01-02 03:15:30.57	155.44	6.48	-44.3	-45.3	15.6	0.00e+00	0	58	0	1708130304	51	3996
2026-01-02 03:15:31.56	155.51	6.41	-44.2	-45.2	15.7	0.00e+00	0	58	0	1715470336	51	3931
2026-01-02 03:15:32.55	155.59	6.35	-44.2	-45.2	15.7	0.00e+00	0	58	0	1722810368	51	3931
2026-01-02 03:15:33.55	155.66	6.28	-44.3	-45.3	15.7	0.00e+00	0	58	0	1730150400	51	3959
2026-01-02 03:15:34.53	155.74	6.22	-44.3	-45.3	15.6	0.00e+00	0	58	0	1737490432	51	3997
2026-01-02 03:15:35.52	155.81	6.15	-44.5	-45.5	15.4	0.00e+00	0	58	0	1743781888	51	4077
2026-01-02 03:15:36.51	155.88	6.09	-44.5	-45.5	15.3	0.00e+00	0	58	0	1751121920	51	4091
2026-01-02 03:15:37.49	155.96	6.02	-44.6	-45.6	15.2	0.00e+00	0	58	0	1758461952	51	4132
2026-01-02 03:15:38.49	156.03	5.96	-44.7	-45.7	15.1	0.00e+00	0	58	0	1765801984	51	4193
2026-01-02 03:15:39.48	156.10	5.89	-44.7	-45.7	15.1	0.00e+00	0	58	0	1773142016	51	4193
2026-01-02 03:15:40.48	156.18	5.82	-44.6	-45.7	15.1	0.00e+00	0	58	0	1780482048	51	4168
2026-01-02 03:15:41.47	156.25	5.76	-44.5	-45.5	15.2	0.00e+00	0	58	0	1786773504	51	4098
2026-01-02 03:15:42.45	156.32	5.70	-44.4	-45.5	15.3	0.00e+00	0	58	0	1794113536	51	4068
2026-01-02 03:15:43.44	156.39	5.63	-44.5	-45.6	15.2	0.00e+00	0	58	0	1801453568	51	4105
2026-01-02 03:15:44.43	156.46	5.57	-44.6	-45.7	15.0	0.00e+00	0	58	0	1808793600	51	4159
2026-01-02 03:15:45.41	156.53	5.50	-44.6	-45.6	15.0	0.00e+00	0	58	0	1815085056	51	4139
2026-01-02 03:15:46.40	156.61	5.44	-44.7	-45.8	14.9	0.00e+00	0	58	0	1822425088	51	4202
2026-01-02 03:15:47.39	156.68	5.38	-44.7	-45.9	14.7	0.00e+00	0	58	0	1829765120	51	4267
2026-01-02 03:15:48.38	156.75	5.31	-44.7	-45.9	14.6	1.10e-06	0	58	0	1837105152	51	4269
2026-01-02 03:15:49.36	156.82	5.25	-44.9	-46.1	14.4	1.10e-06	0	58	0	1844445184	51	4345
2026-01-02 03:15:50.34	156.88	5.19	-44.8	-45.9	14.4	0.00e+00	0	58	0	1850736640	51	4291
2026-01-02 03:15:51.34	156.95	5.12	-44.9	-46.2	14.2	2.20e-06	0	58	0	1858076672	51	4393
2026-01-02 03:15:52.32	157.02	5.06	-45.1	-46.4	13.8	4.50e-06	0	58	0	1865416704	51	4532
2026-01-02 03:15:53.30	157.09	5.00	-51.3	-60.7	3.8	4.41e-01	0	58	104	1870659584	64	11066
2026-01-02 03:15:54.29	157.16	4.93	-51.9	-62.1	3.8	8.46e-01	0	58	104	1870659584	65	12246
2026-01-02 03:15:55.28	157.23	4.87	-52.1	-62.4	3.8	8.47e-01	0	58	104	1870659584	65	12667
2026-01-02 03:15:56.27	157.30	4.81	-52.3	-62.5	3.8	8.46e-01	0	58	104	1870659584	66	12143
2026-01-02 03:15:57.25	157.36	4.75	-52.3	-62.5	3.8	8.47e-01	0	58	104	1870659584	66	12194
2026-01-02 03:15:58.24	157.43	4.68	-52.4	-62.6	3.8	8.45e-01	0	58	104	1870659584	66	12288
2026-01-02 03:15:59.23	157.50	4.62	-52.4	-62.6	3.8	8.46e-01	0	58	104	1870659584	66	12343
2026-01-02 03:16:00.22	157.56	4.56	-52.4	-62.6	3.8	8.45e-01	0	58	104	1870659584	66	12369
2026-01-02 03:16:01.21	157.63	4.50	-52.5	-62.7	3.8	8.46e-01	0	58	104	1870659584	66	12438
2026-01-02 03:16:02.19	157.70	4.43	-52.6	-62.8	3.8	8.46e-01	0	58	104	1870659584	66	12548
2026-01-02 03:16:03.17	157.76	4.37	-52.6	-62.7	3.8	8.46e-01	0	58	104	1870659584	66	12509
2026-01-02 03:16:04.16	157.83	4.31	-52.5	-62.8	3.8	8.46e-01	0	58	104	1870659584	66	12569
2026-01-02 03:16:05.15	157.89	4.25	-52.4	-62.7	3.8	8.46e-01	0	58	104	1870659584	66	12517
2026-01-02 03:16:06.14	157.96	4.19	-52.4	-62.8	3.8	8.46e-01	0	58	104	1870659584	66	12547
2026-01-02 03:16:07.14	158.03	4.13	-52.4	-62.8	3.8	8.47e-01	0	58	104	1870659584	66	12610
2026-01-02 03:16:08.12	158.09	4.06	-52.6	-62.8	3.8	8.47e-01	0	58	104	1870659584	66	12601
2026-01-02 03:16:09.11	158.15	4.00	-52.7	-62.8	3.8	8.46e-01	0	58	104	1870659584	66	12639
2026-01-02 03:16:10.10	158.22	3.94	-52.7	-62.8	3.8	8.45e-01	0	58	104	1870659584	67	11912
2026-01-02 03:16:11.09	158.28	3.88	-52.7	-62.9	3.8	8.46e-01	0	58	104	1870659584	67	12021
2026-01-02 03:16:12.08	158.35	3.82	-52.6	-62.9	3.8	8.45e-01	0	58	104	1870659584	67	11973
2026-01-02 03:16:13.06	158.41	3.76	-52.6	-62.9	3.8	8.45e-01	0	58	104	1870659584	67	12016
2026-01-02 03:16:14.05	158.47	3.70	-52.6	-62.9	3.8	8.45e-01	0	58	104	1870659584	67	11981
2026-01-02 03:16:15.04	158.54	3.64	-52.7	-62.9	3.8	8.46e-01	0	58	104	1870659584	67	12042
2026-01-02 03:16:16.04	158.60	3.58	-52.7	-62.9	3.8	8.46e-01	0	58	104	1870659584	67	12015
2026-01-02 03:16:17.02	158.66	3.52	-52.7	-63.0	3.8	8.47e-01	0	58	104	1870659584	67	12101
2026-01-02 03:16:18.02	158.72	3.46	-52.7	-63.0	3.8	8.46e-01	0	58	104	1870659584	67	12112
2026-01-02 03:16:19.00	158.79	3.40	-52.7	-62.9	3.8	8.46e-01	0	58	104	1870659584	67	12059
2026-01-02 03:16:20.00	158.85	3.34	-52.7	-62.9	3.8	8.46e-01	0	58	104	1870659584	67	12086
2026-01-02 03:16:20.98	158.91	3.28	-52.7	-63.0	3.8	8.46e-01	0	58	104	1870659584	67	12116
2026-01-02 03:16:21.98	158.97	3.22	-52.6	-62.9	3.8	8.47e-01	0	58	104	1870659584	67	12022
2026-01-02 03:16:22.97	159.03	3.16	-52.7	-62.9	3.8	8.46e-01	0	58	104	1870659584	67	12034
2026-01-02 03:16:23.96	159.09	3.10	-52.7	-62.9	3.8	8.47e-01	0	58	104	1870659584	67	11998
2026-01-02 03:16:24.96	159.15	3.04	-52.6	-62.9	3.8	8.47e-01	0	58	104	1870659584	67	12013
2026-01-02 03:16:25.95	159.21	2.98	-52.7	-62.9	3.8	8.46e-01	0	58	104	1870659584	67	11965

#Closed at: 2026-01-02 03:16:26
#Recorded file [1870 MB]: D:/Data/31026_260102_061553.dat