passes_logs/2026/01/02/R3.0SM8_Murmansk_STILSPACE/R3.0SM8_Murmansk_STILSPACE__20260102_021251_AQUA_rec.log

#Pass ID: 20260102_021251_AQUA
#Satellite: AQUA
#Configuration: AQUA
#almurnet v.1.7.20240730
#Start time: 2026-01-02 02:12:52

#Version: 2.2.20231116
#Station: R3.0SM8_Murmansk_STILSPACE
#Location: 33.092731 lon 68.902999 lat
#TLE: 1 27424U 02022A   25365.92641127  .00002078  00000+0  42628-3 0  9999
#TLE: 2 27424  98.4058 327.1196 0001962  94.7781 340.6230 14.61783896258835

#Time	Az	El	Level	Level2	SNR	BER	BlckErr	Temp	State	Recorded	gain1	gain2
2026-01-02 02:12:52.48	23.46	3.06	-54.1	-74.0	3.8	7.45e-01	0	49	0	0	70	37693
2026-01-02 02:12:53.47	23.47	3.13	-53.8	-73.7	3.8	7.44e-01	0	49	104	0	70	36128
2026-01-02 02:12:54.47	23.48	3.19	-53.6	-73.5	3.8	7.44e-01	0	49	104	0	70	35306
2026-01-02 02:12:55.45	23.49	3.26	-53.2	-73.0	3.8	7.43e-01	0	49	104	0	70	33559
2026-01-02 02:12:56.43	23.49	3.33	-51.1	-65.5	3.9	7.44e-01	0	49	104	0	65	18924
2026-01-02 02:12:57.42	23.50	3.40	-50.3	-63.8	3.8	7.45e-01	0	49	104	0	64	16366
2026-01-02 02:12:58.41	23.51	3.47	-50.1	-63.2	3.8	7.43e-01	0	49	104	0	63	16252
2026-01-02 02:12:59.40	23.51	3.54	-49.9	-62.9	3.8	7.47e-01	0	50	104	0	63	15688
2026-01-02 02:13:00.39	23.52	3.61	-49.7	-62.5	3.8	7.45e-01	0	50	104	0	62	15863
2026-01-02 02:13:01.38	23.53	3.68	-49.7	-62.5	3.8	7.44e-01	0	49	104	0	62	15930
2026-01-02 02:13:02.37	23.53	3.75	-49.8	-62.7	3.8	7.43e-01	0	50	104	0	62	16144
2026-01-02 02:13:03.36	23.54	3.82	-49.7	-62.4	3.8	7.44e-01	0	50	104	0	62	15754
2026-01-02 02:13:04.35	23.55	3.89	-49.9	-62.9	3.8	7.47e-01	0	50	104	0	62	16579
2026-01-02 02:13:05.34	23.55	3.96	-50.2	-63.4	3.8	7.46e-01	0	50	104	0	62	17593
2026-01-02 02:13:06.34	23.56	4.03	-50.2	-63.4	3.8	7.47e-01	0	50	104	0	62	17656
2026-01-02 02:13:07.32	23.57	4.10	-50.2	-63.3	3.8	7.45e-01	0	50	104	0	62	17469
2026-01-02 02:13:08.31	23.57	4.17	-50.2	-63.6	3.8	7.43e-01	0	50	104	0	62	17913
2026-01-02 02:13:09.30	23.58	4.24	-50.3	-63.7	3.8	7.49e-01	0	50	104	0	62	18120
2026-01-02 02:13:10.28	23.59	4.31	-50.3	-63.7	3.8	7.43e-01	0	50	104	0	62	18189
2026-01-02 02:13:11.27	23.60	4.39	-50.4	-64.0	3.8	7.45e-01	0	50	104	0	63	17716
2026-01-02 02:13:12.26	23.60	4.46	-50.5	-64.1	3.8	7.42e-01	0	50	104	0	63	18065
2026-01-02 02:13:13.25	23.61	4.53	-50.7	-64.5	3.8	7.46e-01	0	50	104	0	63	18866
2026-01-02 02:13:14.24	23.62	4.60	-50.8	-64.7	3.8	7.46e-01	0	50	104	0	63	19302
2026-01-02 02:13:15.24	23.62	4.68	-50.8	-65.0	3.8	7.42e-01	0	50	104	0	64	18760
2026-01-02 02:13:16.23	23.63	4.75	-51.0	-65.4	3.8	7.44e-01	0	50	104	0	64	19756
2026-01-02 02:13:17.22	23.64	4.82	-51.2	-65.9	3.8	7.47e-01	0	50	104	0	64	20958
2026-01-02 02:13:18.20	23.65	4.89	-51.3	-66.2	3.8	7.48e-01	0	51	104	0	64	21695
2026-01-02 02:13:19.19	23.65	4.97	-51.4	-66.6	3.8	7.43e-01	0	51	104	0	65	21292
2026-01-02 02:13:20.18	23.66	5.04	-51.5	-67.0	3.8	7.45e-01	0	51	104	0	65	22331
2026-01-02 02:13:21.17	23.67	5.12	-51.4	-66.6	3.8	7.42e-01	0	51	104	0	65	21329
2026-01-02 02:13:22.16	23.67	5.19	-51.0	-65.4	3.8	7.44e-01	0	51	104	0	65	18545
2026-01-02 02:13:23.15	23.68	5.27	-50.5	-64.2	3.8	7.43e-01	0	51	104	0	64	17201
2026-01-02 02:13:24.14	23.69	5.34	-50.2	-63.5	3.9	7.43e-01	0	51	104	0	63	16735
2026-01-02 02:13:25.13	23.70	5.41	-49.8	-62.6	3.8	7.44e-01	0	51	104	0	63	15203
2026-01-02 02:13:26.12	23.70	5.49	-49.6	-62.2	3.8	7.44e-01	0	51	104	0	62	15270
2026-01-02 02:13:27.10	23.71	5.56	-49.8	-62.5	3.8	7.47e-01	0	51	104	0	62	15883
2026-01-02 02:13:28.09	23.72	5.64	-50.1	-63.1	3.8	7.44e-01	0	51	104	0	62	16940
2026-01-02 02:13:29.08	23.72	5.72	-50.5	-63.8	3.8	7.45e-01	0	51	104	0	63	17343
2026-01-02 02:13:30.07	23.73	5.79	-50.8	-64.3	3.8	7.43e-01	0	51	104	0	63	18335
2026-01-02 02:13:31.06	23.74	5.87	-51.0	-64.8	3.8	7.42e-01	0	51	104	0	64	18340
2026-01-02 02:13:32.05	23.75	5.95	-51.2	-65.4	3.8	7.41e-01	0	51	104	0	64	19622
2026-01-02 02:13:33.05	23.75	6.02	-51.0	-64.7	3.8	7.45e-01	0	51	104	0	64	18241
2026-01-02 02:13:34.03	23.76	6.10	-50.8	-64.2	3.8	7.47e-01	0	51	104	0	64	17207
2026-01-02 02:13:35.02	23.77	6.18	-50.8	-64.4	3.8	7.43e-01	0	51	104	0	64	17572
2026-01-02 02:13:36.00	23.78	6.25	-51.2	-65.2	3.8	7.45e-01	0	51	104	0	64	19182
2026-01-02 02:13:37.00	23.78	6.33	-51.4	-65.7	3.8	7.44e-01	0	51	104	0	64	20310
2026-01-02 02:13:37.98	23.79	6.41	-51.6	-66.2	3.8	7.45e-01	0	52	104	0	65	20503
2026-01-02 02:13:38.97	23.80	6.49	-51.7	-66.7	3.8	7.45e-01	0	51	104	0	65	21539
2026-01-02 02:13:39.97	23.81	6.57	-51.7	-66.5	3.8	7.46e-01	0	51	104	0	65	21195
2026-01-02 02:13:40.96	23.81	6.65	-51.6	-66.2	3.8	7.43e-01	0	52	104	0	65	20311
2026-01-02 02:13:41.96	23.82	6.73	-51.3	-65.6	3.8	7.44e-01	0	52	104	0	65	18974
2026-01-02 02:13:42.95	23.83	6.81	-51.0	-64.8	3.8	7.45e-01	0	52	104	0	65	17322
2026-01-02 02:13:43.94	23.84	6.89	-50.8	-64.4	3.8	7.44e-01	0	52	104	0	65	16511
2026-01-02 02:13:44.94	23.84	6.97	-50.9	-64.4	3.8	7.47e-01	0	52	104	0	65	16682
2026-01-02 02:13:45.92	23.85	7.05	-51.2	-65.1	3.8	7.45e-01	0	52	104	0	65	18008
2026-01-02 02:13:46.92	23.86	7.13	-51.4	-65.6	3.8	7.46e-01	0	52	104	0	65	19090
2026-01-02 02:13:47.91	23.87	7.21	-51.8	-66.6	3.8	7.46e-01	0	52	104	0	65	21344
2026-01-02 02:13:48.90	23.87	7.29	-52.1	-67.8	3.8	7.43e-01	0	52	104	0	66	23247
2026-01-02 02:13:49.89	23.88	7.37	-52.3	-68.5	3.8	7.44e-01	0	52	104	0	66	25154
2026-01-02 02:13:50.88	23.89	7.45	-52.4	-69.0	3.8	7.47e-01	0	52	104	0	67	25207
2026-01-02 02:13:51.87	23.90	7.54	-52.5	-69.3	3.8	7.44e-01	0	52	104	0	67	25933
2026-01-02 02:13:52.86	23.91	7.62	-52.5	-69.3	3.8	7.47e-01	0	52	104	0	67	26019
2026-01-02 02:13:53.85	23.91	7.70	-52.6	-69.4	3.8	7.44e-01	0	52	104	0	67	26182
2026-01-02 02:13:54.84	23.92	7.78	-52.6	-69.6	3.8	7.44e-01	0	52	104	0	67	26915
2026-01-02 02:13:55.83	23.93	7.87	-52.7	-69.8	3.8	7.44e-01	0	52	104	0	67	27650
2026-01-02 02:13:56.82	23.94	7.95	-52.7	-69.8	3.8	7.44e-01	0	52	104	0	67	27603
2026-01-02 02:13:57.81	23.94	8.04	-52.7	-69.6	3.8	7.44e-01	0	53	104	0	67	26967
2026-01-02 02:13:58.80	23.95	8.12	-52.8	-70.0	3.8	7.45e-01	0	52	104	0	67	28228
2026-01-02 02:13:59.79	23.96	8.20	-52.7	-69.8	3.8	7.47e-01	0	52	104	0	67	27563
2026-01-02 02:14:00.78	23.97	8.29	-52.6	-69.0	3.8	7.43e-01	0	53	104	0	67	25104
2026-01-02 02:14:01.78	23.98	8.38	-52.4	-68.1	3.8	7.43e-01	0	53	104	0	67	22698
2026-01-02 02:14:02.77	23.98	8.46	-52.1	-67.1	3.8	7.47e-01	0	53	104	0	67	20236
2026-01-02 02:14:03.76	23.99	8.55	-51.7	-66.0	3.8	7.45e-01	0	52	104	0	67	17835
2026-01-02 02:14:04.75	24.00	8.63	-51.6	-65.7	3.8	7.47e-01	0	53	104	0	66	18208
2026-01-02 02:14:05.74	24.01	8.72	-51.6	-65.6	3.8	7.46e-01	0	53	104	0	66	18084
2026-01-02 02:14:06.72	24.02	8.81	-51.5	-65.6	3.8	7.45e-01	0	53	104	0	66	17948
2026-01-02 02:14:07.70	24.02	8.89	-51.6	-65.7	3.8	7.43e-01	0	53	104	0	66	18169
2026-01-02 02:14:08.68	24.03	8.98	-51.7	-65.8	3.8	7.45e-01	0	53	104	0	66	18500
2026-01-02 02:14:09.68	24.04	9.07	-51.8	-66.1	3.8	7.43e-01	0	53	104	0	66	19126
2026-01-02 02:14:10.67	24.05	9.16	-51.6	-65.7	3.9	7.44e-01	0	53	104	0	66	18210
2026-01-02 02:14:11.66	24.06	9.24	-51.3	-64.9	3.8	7.42e-01	0	53	104	0	66	16632
2026-01-02 02:14:12.67	24.07	9.34	-50.9	-64.1	3.8	7.44e-01	0	53	104	0	65	15959
2026-01-02 02:14:13.65	24.07	9.42	-50.5	-63.4	3.8	7.43e-01	0	53	104	0	64	15607
2026-01-02 02:14:14.65	24.08	9.51	-49.7	-62.3	3.8	7.49e-01	0	53	104	0	63	14691
2026-01-02 02:14:15.63	24.09	9.60	-49.9	-62.2	3.8	7.43e-01	0	53	104	0	63	14465
2026-01-02 02:14:16.63	24.10	9.69	-49.9	-62.1	3.8	7.40e-01	0	53	104	0	63	14330
2026-01-02 02:14:17.62	24.11	9.79	-50.2	-62.7	3.8	7.44e-01	0	53	104	0	63	15244
2026-01-02 02:14:18.61	24.12	9.88	-50.5	-63.1	3.8	7.46e-01	0	53	104	0	63	16121
2026-01-02 02:14:19.60	24.12	9.97	-50.8	-63.8	3.8	7.45e-01	0	53	104	0	63	17316
2026-01-02 02:14:20.59	24.13	10.06	-50.7	-63.6	3.8	7.43e-01	0	53	104	0	64	16077
2026-01-02 02:14:21.58	24.14	10.15	-50.3	-62.9	3.8	7.42e-01	0	53	104	0	64	14841
2026-01-02 02:14:22.57	24.15	10.24	-50.1	-62.5	3.8	7.43e-01	0	53	104	0	63	14888
2026-01-02 02:14:23.56	24.16	10.34	-49.7	-61.9	3.8	7.47e-01	0	53	104	0	63	13887
2026-01-02 02:14:24.55	24.17	10.43	-49.7	-61.8	3.8	7.43e-01	0	53	104	0	62	14593
2026-01-02 02:14:25.53	24.17	10.52	-49.9	-62.1	3.8	7.40e-01	0	53	104	0	62	15142
2026-01-02 02:14:26.52	24.18	10.62	-50.2	-62.6	3.8	7.43e-01	0	53	104	0	62	16115
2026-01-02 02:14:27.50	24.19	10.71	-50.4	-63.0	3.9	7.43e-01	0	53	104	0	63	15889
2026-01-02 02:14:28.49	24.20	10.81	-50.8	-63.8	3.8	7.41e-01	0	53	104	0	63	17302
2026-01-02 02:14:29.47	24.21	10.90	-50.9	-64.0	3.8	7.47e-01	0	53	104	0	64	16727
2026-01-02 02:14:30.45	24.22	11.00	-50.7	-63.5	3.8	7.44e-01	0	53	104	0	64	15935
2026-01-02 02:14:31.44	24.23	11.09	-50.5	-63.2	3.8	7.45e-01	0	53	104	0	64	15348
2026-01-02 02:14:32.43	24.24	11.19	-50.3	-62.9	3.8	7.44e-01	0	54	104	0	64	14850
2026-01-02 02:14:33.42	24.24	11.29	-50.2	-62.8	3.8	7.46e-01	0	54	104	0	64	14572
2026-01-02 02:14:34.42	24.25	11.38	-50.3	-62.8	3.8	7.45e-01	0	53	104	0	63	15442
2026-01-02 02:14:35.40	24.26	11.48	-50.5	-63.1	3.8	7.43e-01	0	54	104	0	63	15960
2026-01-02 02:14:36.39	24.27	11.58	-50.8	-63.8	3.8	7.44e-01	0	53	104	0	64	16413
2026-01-02 02:14:37.37	24.28	11.68	-51.3	-64.8	3.8	7.48e-01	0	54	104	0	64	18462
2026-01-02 02:14:38.36	24.29	11.78	-51.8	-65.8	3.8	7.47e-01	0	54	104	0	65	19503
2026-01-02 02:14:39.35	24.30	11.88	-52.2	-67.0	3.8	7.41e-01	0	54	104	0	66	21102
2026-01-02 02:14:40.33	24.31	11.98	-52.6	-67.9	3.8	7.45e-01	0	54	104	0	67	22133
2026-01-02 02:14:41.32	24.32	12.08	-52.8	-68.7	3.8	7.44e-01	0	54	104	0	67	24185
2026-01-02 02:14:42.30	24.32	12.18	-52.9	-69.0	3.8	7.47e-01	0	54	104	0	67	25049
2026-01-02 02:14:43.30	24.33	12.28	-53.0	-69.4	3.8	7.41e-01	0	54	104	0	68	24968
2026-01-02 02:14:44.28	24.34	12.38	-53.1	-69.8	3.8	7.45e-01	0	54	104	0	68	26039
2026-01-02 02:14:45.27	24.35	12.48	-53.0	-69.5	3.8	7.47e-01	0	54	104	0	68	25117
2026-01-02 02:14:46.26	24.36	12.59	-52.9	-69.1	3.8	7.45e-01	0	54	104	0	68	24054
2026-01-02 02:14:47.25	24.37	12.69	-52.9	-68.8	3.8	7.44e-01	0	54	104	0	68	23284
2026-01-02 02:14:48.24	24.38	12.79	-52.9	-68.8	3.8	7.45e-01	0	54	104	0	68	23277
2026-01-02 02:14:49.24	24.39	12.90	-53.0	-69.3	3.8	7.44e-01	0	54	104	0	68	24411
2026-01-02 02:14:50.23	24.40	13.00	-52.8	-68.5	3.8	7.44e-01	0	54	104	0	68	22414
2026-01-02 02:14:51.22	24.41	13.11	-52.5	-67.6	3.8	7.45e-01	0	54	104	0	68	20156
2026-01-02 02:14:52.21	24.42	13.22	-52.2	-66.5	3.8	7.46e-01	0	54	104	0	68	17855
2026-01-02 02:14:53.19	24.43	13.32	-51.7	-65.4	3.8	7.48e-01	0	54	104	0	66	17519
2026-01-02 02:14:54.18	24.44	13.43	-51.2	-64.5	3.8	7.46e-01	0	54	104	0	66	15797
2026-01-02 02:14:55.18	24.45	13.54	-51.2	-64.5	3.8	7.45e-01	0	54	104	0	66	15807
2026-01-02 02:14:56.16	24.46	13.64	-51.3	-64.6	3.8	7.43e-01	0	54	104	0	66	15975
2026-01-02 02:14:57.16	24.47	13.75	-51.4	-64.8	3.8	7.45e-01	0	54	104	0	66	16356
2026-01-02 02:14:58.14	24.48	13.86	-51.5	-65.1	3.8	7.44e-01	0	54	104	0	66	16921
2026-01-02 02:14:59.13	24.49	13.97	-51.6	-65.4	3.8	7.43e-01	0	54	104	0	66	17495
2026-01-02 02:15:00.13	24.50	14.08	-51.7	-65.7	3.8	7.46e-01	0	54	104	0	66	18154
2026-01-02 02:15:01.12	24.51	14.19	-51.3	-64.7	3.8	7.46e-01	0	54	104	0	66	16224
2026-01-02 02:15:02.11	24.52	14.30	-50.9	-63.8	3.8	7.41e-01	0	54	104	0	65	15543
2026-01-02 02:15:03.10	24.53	14.42	-50.5	-63.1	3.8	7.44e-01	0	54	104	0	64	15152
2026-01-02 02:15:04.08	24.54	14.53	-50.2	-62.5	3.8	7.44e-01	0	54	104	0	63	14985
2026-01-02 02:15:05.06	24.55	14.64	-49.8	-61.9	3.8	7.45e-01	0	54	104	0	63	13951
2026-01-02 02:15:06.05	24.56	14.75	-49.5	-61.4	3.8	7.43e-01	0	55	104	0	62	13992
2026-01-02 02:15:07.04	24.57	14.87	-49.8	-61.9	3.8	7.46e-01	0	54	104	0	62	14828
2026-01-02 02:15:08.02	24.58	14.98	-50.2	-62.6	3.8	7.44e-01	0	54	104	0	62	15944
2026-01-02 02:15:09.01	24.59	15.10	-49.9	-62.0	3.8	7.45e-01	0	54	104	0	62	14986
2026-01-02 02:15:10.00	24.60	15.21	-49.4	-61.3	3.8	7.43e-01	0	54	104	0	62	13879
2026-01-02 02:15:11.00	24.61	15.33	-49.0	-60.7	3.8	7.45e-01	0	55	104	0	61	13692
2026-01-02 02:15:11.98	24.62	15.45	-48.8	-60.4	3.8	7.44e-01	0	55	104	0	61	13177
2026-01-02 02:15:12.97	24.63	15.57	-48.5	-60.1	3.8	7.46e-01	0	55	104	0	60	13428
2026-01-02 02:15:13.96	24.64	15.68	-48.3	-59.7	3.8	7.46e-01	0	54	104	0	60	12852
2026-01-02 02:15:14.96	24.65	15.80	-48.4	-59.9	3.8	7.43e-01	0	55	104	0	60	13179
2026-01-02 02:15:15.94	24.66	15.92	-48.7	-60.3	3.8	7.47e-01	0	55	104	0	60	13839
2026-01-02 02:15:16.94	24.67	16.04	-49.1	-60.9	3.8	7.42e-01	0	54	104	0	60	14758
2026-01-02 02:15:17.92	24.68	16.16	-49.5	-61.5	3.8	7.44e-01	0	55	104	0	61	14909
2026-01-02 02:15:18.92	24.69	16.29	-50.0	-62.2	3.8	7.48e-01	0	55	104	0	62	15343
2026-01-02 02:15:19.90	24.70	16.41	-50.0	-62.1	3.8	7.44e-01	0	55	104	0	62	15171
2026-01-02 02:15:20.89	24.71	16.53	-49.9	-62.1	3.8	7.43e-01	0	55	104	0	62	15151
2026-01-02 02:15:21.89	24.72	16.66	-50.0	-62.1	3.8	7.48e-01	0	55	104	0	62	15213
2026-01-02 02:15:22.87	24.74	16.78	-50.1	-62.3	3.8	7.43e-01	0	55	104	0	62	15498
2026-01-02 02:15:23.86	24.75	16.91	-50.3	-62.6	3.8	7.45e-01	0	55	104	0	62	16118
2026-01-02 02:15:24.84	24.76	17.03	-50.6	-63.1	3.8	7.43e-01	0	55	104	0	63	16000
2026-01-02 02:15:25.84	24.77	17.16	-50.9	-63.8	3.8	7.44e-01	0	55	104	0	64	16335
2026-01-02 02:15:26.83	24.78	17.29	-51.4	-65.0	3.8	7.43e-01	0	55	104	0	65	17843
2026-01-02 02:15:27.82	24.79	17.41	-52.0	-65.9	3.9	7.44e-01	0	55	104	0	66	18519
2026-01-02 02:15:28.80	24.80	17.54	-52.4	-67.0	3.8	7.42e-01	0	55	104	0	67	20046
2026-01-02 02:15:29.79	24.81	17.67	-52.8	-68.2	3.8	7.49e-01	0	55	104	0	67	22953
2026-01-02 02:15:30.77	24.83	17.80	-53.2	-69.3	3.8	7.48e-01	0	55	104	0	68	24589
2026-01-02 02:15:31.76	24.84	17.93	-53.3	-70.0	3.8	7.42e-01	0	55	104	0	68	26473
2026-01-02 02:15:32.74	24.85	18.06	-53.3	-69.8	3.8	7.44e-01	0	55	104	0	68	26013
2026-01-02 02:15:33.74	24.86	18.20	-53.2	-69.2	3.8	7.43e-01	0	55	104	0	68	24366
2026-01-02 02:15:34.71	24.87	18.33	-53.0	-68.7	3.8	7.45e-01	0	55	104	0	68	22915
2026-01-02 02:15:35.69	24.88	18.46	-52.9	-68.3	3.8	7.48e-01	0	55	104	0	68	21923
2026-01-02 02:15:36.69	24.90	18.60	-52.8	-68.1	3.8	7.46e-01	0	55	104	0	68	21368
2026-01-02 02:15:37.68	24.91	18.73	-52.8	-68.0	3.8	7.47e-01	0	55	104	0	68	21143
2026-01-02 02:15:38.67	24.92	18.87	-53.0	-68.4	3.8	7.45e-01	0	55	104	0	68	22260
2026-01-02 02:15:39.66	24.93	19.01	-52.9	-68.3	3.8	7.42e-01	0	55	104	0	68	21756
2026-01-02 02:15:40.64	24.95	19.14	-52.6	-67.3	3.8	7.42e-01	0	55	104	0	68	19472
2026-01-02 02:15:41.63	24.96	19.28	-52.2	-66.4	3.8	7.42e-01	0	55	104	0	68	17577
2026-01-02 02:15:42.62	24.97	19.42	-51.8	-65.4	3.8	7.45e-01	0	55	104	0	67	16520
2026-01-02 02:15:43.61	24.98	19.57	-51.2	-64.3	3.8	7.46e-01	0	55	104	0	66	15529
2026-01-02 02:15:44.59	24.99	19.71	-51.0	-63.8	3.8	7.42e-01	0	55	104	0	65	15512
2026-01-02 02:15:45.58	25.01	19.85	-51.1	-64.0	3.8	7.45e-01	0	55	104	0	65	15815
2026-01-02 02:15:46.57	25.02	19.99	-51.3	-64.4	3.8	7.47e-01	0	55	104	0	65	16546
2026-01-02 02:15:47.55	25.03	20.14	-51.5	-64.8	3.8	7.42e-01	0	55	104	0	65	17289
2026-01-02 02:15:48.54	25.05	20.28	-51.7	-65.2	3.8	7.45e-01	0	55	104	0	65	18204
2026-01-02 02:15:49.52	25.06	20.43	-52.0	-65.8	3.8	7.41e-01	0	55	104	0	66	18485
2026-01-02 02:15:50.52	25.07	20.58	-51.9	-65.6	3.8	7.41e-01	0	55	104	0	66	18072
2026-01-02 02:15:51.51	25.09	20.72	-51.5	-64.8	3.8	7.47e-01	0	55	104	0	66	16385
2026-01-02 02:15:52.50	25.10	20.87	-51.2	-64.0	3.8	7.45e-01	0	55	104	0	65	15909
2026-01-02 02:15:53.50	25.11	21.03	-50.8	-63.4	3.8	7.44e-01	0	55	104	0	65	14828
2026-01-02 02:15:54.49	25.13	21.18	-50.4	-62.8	3.8	7.43e-01	0	55	104	0	64	14703
2026-01-02 02:15:55.48	25.14	21.33	-50.2	-62.5	3.8	7.46e-01	0	55	104	0	64	14113
2026-01-02 02:15:56.47	25.15	21.48	-50.1	-62.2	3.8	7.44e-01	0	55	104	0	63	14417
2026-01-02 02:15:57.47	25.17	21.64	-49.7	-61.6	3.8	7.44e-01	0	55	104	0	62	14237
2026-01-02 02:15:58.45	25.18	21.79	-49.3	-61.0	3.8	7.44e-01	0	56	104	0	62	13412
2026-01-02 02:15:59.44	25.19	21.95	-49.0	-60.6	3.8	7.42e-01	0	55	104	0	61	13537
2026-01-02 02:16:00.43	25.21	22.11	-48.9	-60.4	3.8	7.43e-01	0	56	104	0	61	13208
2026-01-02 02:16:01.42	25.22	22.26	-48.7	-60.3	3.8	7.41e-01	0	55	104	0	61	12972
2026-01-02 02:16:02.41	25.24	22.42	-48.8	-60.3	3.8	7.43e-01	0	55	104	0	61	12991
2026-01-02 02:16:03.40	25.25	22.59	-48.8	-60.3	3.8	7.44e-01	0	55	104	0	61	12966
2026-01-02 02:16:04.39	25.27	22.75	-48.7	-60.2	3.8	7.42e-01	0	55	104	0	60	13623
2026-01-02 02:16:05.37	25.28	22.91	-48.9	-60.5	3.8	7.44e-01	0	55	104	0	60	14078
2026-01-02 02:16:06.36	25.30	23.07	-49.2	-60.9	3.8	7.46e-01	0	55	104	0	60	14842
2026-01-02 02:16:07.35	25.31	23.24	-49.6	-61.4	3.8	7.46e-01	0	55	104	0	61	14766
2026-01-02 02:16:08.35	25.33	23.41	-50.0	-62.0	3.9	7.47e-01	0	56	104	0	62	14965
2026-01-02 02:16:09.34	25.34	23.57	-50.3	-62.6	3.8	7.47e-01	0	56	104	0	62	16052
2026-01-02 02:16:10.33	25.36	23.74	-50.5	-62.9	3.8	7.45e-01	0	56	104	0	63	15591
2026-01-02 02:16:11.32	25.37	23.91	-50.7	-63.2	3.8	7.45e-01	0	56	104	0	63	16244
2026-01-02 02:16:12.31	25.39	24.08	-50.9	-63.7	3.8	7.44e-01	0	56	104	0	64	16172
2026-01-02 02:16:13.29	25.40	24.25	-51.3	-64.4	3.8	7.44e-01	0	56	104	0	64	17565
2026-01-02 02:16:14.28	25.42	24.43	-51.6	-64.9	3.8	7.49e-01	0	56	104	0	65	17528
2026-01-02 02:16:15.27	25.43	24.60	-51.5	-64.6	3.8	7.41e-01	0	56	104	0	65	17060
2026-01-02 02:16:16.26	25.45	24.78	-51.8	-65.3	3.8	7.42e-01	0	56	104	0	65	18483
2026-01-02 02:16:17.25	25.47	24.96	-52.4	-66.6	3.8	7.46e-01	0	56	104	0	66	20248
2026-01-02 02:16:18.24	25.48	25.14	-52.8	-67.7	3.8	7.47e-01	0	56	104	0	67	21518
2026-01-02 02:16:19.23	25.50	25.32	-53.2	-68.7	3.8	7.42e-01	0	56	104	0	68	22922
2026-01-02 02:16:20.24	25.52	25.50	-53.5	-70.0	3.8	7.43e-01	0	56	104	0	69	25212
2026-01-02 02:16:21.23	25.53	25.68	-53.7	-70.7	3.8	7.43e-01	0	56	104	0	69	27284
2026-01-02 02:16:22.21	25.55	25.87	-53.5	-70.0	3.8	7.47e-01	0	56	104	0	69	25170
2026-01-02 02:16:23.20	25.57	26.05	-53.3	-69.3	3.8	7.43e-01	0	56	104	0	69	23159
2026-01-02 02:16:24.20	25.58	26.24	-53.2	-68.8	3.8	7.45e-01	0	56	104	0	69	21905
2026-01-02 02:16:25.19	25.60	26.43	-53.1	-68.4	3.8	7.43e-01	0	56	104	0	69	20967
2026-01-02 02:16:26.18	25.62	26.62	-53.0	-68.3	3.8	7.47e-01	0	56	104	0	69	20568
2026-01-02 02:16:27.16	25.64	26.81	-53.0	-68.2	3.8	7.46e-01	0	56	104	0	69	20464
2026-01-02 02:16:28.14	25.65	27.00	-53.0	-68.2	3.8	7.44e-01	0	56	104	0	69	20492
2026-01-02 02:16:29.13	25.67	27.19	-53.2	-68.8	3.8	7.45e-01	0	56	104	0	69	21934
2026-01-02 02:16:30.10	25.69	27.38	-52.9	-67.8	3.8	7.44e-01	0	56	104	0	69	19596
2026-01-02 02:16:31.09	25.71	27.58	-52.5	-66.7	3.8	7.44e-01	0	56	104	0	68	18187
2026-01-02 02:16:32.09	25.73	27.78	-51.9	-65.5	3.8	7.41e-01	0	56	104	0	67	16869
2026-01-02 02:16:33.08	25.75	27.98	-51.4	-64.4	3.8	7.46e-01	0	56	104	0	66	15617
2026-01-02 02:16:34.07	25.76	28.19	-50.9	-63.5	3.8	7.42e-01	0	56	104	0	65	15016
2026-01-02 02:16:35.06	25.78	28.39	-51.0	-63.7	3.8	7.43e-01	0	56	104	0	65	15272
2026-01-02 02:16:36.05	25.80	28.59	-51.2	-64.0	3.8	7.47e-01	0	56	104	0	65	15904
2026-01-02 02:16:37.04	25.82	28.80	-51.4	-64.6	3.8	7.45e-01	0	56	104	0	65	16967
2026-01-02 02:16:38.04	25.84	29.01	-51.6	-65.0	3.8	7.44e-01	0	56	104	0	65	17742
2026-01-02 02:16:39.03	25.86	29.22	-51.4	-64.5	3.8	7.44e-01	0	56	104	0	65	16843
2026-01-02 02:16:40.02	25.88	29.43	-51.1	-63.9	3.8	7.43e-01	0	56	104	0	65	15668
2026-01-02 02:16:41.01	25.90	29.65	-50.4	-62.8	3.8	7.46e-01	0	56	104	0	64	14623
2026-01-02 02:16:42.01	25.92	29.86	-50.1	-62.1	3.8	7.46e-01	0	56	104	0	63	14366
2026-01-02 02:16:43.00	25.94	30.08	-49.6	-61.4	3.8	7.43e-01	0	56	104	0	62	14036
2026-01-02 02:16:43.99	25.97	30.30	-49.3	-61.0	3.8	7.42e-01	0	56	104	0	62	13264
2026-01-02 02:16:44.98	25.99	30.52	-48.9	-60.5	3.8	7.45e-01	0	56	104	0	61	13366
2026-01-02 02:16:45.97	26.01	30.74	-48.7	-60.2	3.8	7.41e-01	0	56	104	0	61	12853
2026-01-02 02:16:46.96	26.03	30.97	-48.4	-59.8	3.9	7.45e-01	0	56	104	0	60	13041
2026-01-02 02:16:47.95	26.05	31.19	-48.2	-59.5	3.8	7.42e-01	0	56	104	0	60	12584
2026-01-02 02:16:48.94	26.07	31.42	-48.5	-59.9	3.8	7.40e-01	0	56	104	0	59	13909
2026-01-02 02:16:49.94	26.10	31.65	-48.6	-60.0	3.8	7.45e-01	0	56	104	0	59	14114
2026-01-02 02:16:50.92	26.12	31.88	-48.9	-60.4	3.8	7.46e-01	0	56	104	0	59	14750
2026-01-02 02:16:51.91	26.14	32.12	-49.0	-60.6	3.8	7.42e-01	0	56	104	0	60	14285
2026-01-02 02:16:52.89	26.17	32.35	-49.6	-61.5	3.8	7.43e-01	0	56	104	0	61	14908
2026-01-02 02:16:53.88	26.19	32.59	-49.9	-62.1	3.8	7.45e-01	0	56	104	0	62	15058
2026-01-02 02:16:54.88	26.22	32.83	-50.3	-62.6	3.8	7.47e-01	0	56	104	0	62	16070
2026-01-02 02:16:55.86	26.24	33.07	-50.5	-63.1	3.8	7.46e-01	0	56	104	0	63	16030
2026-01-02 02:16:56.85	26.26	33.31	-50.7	-63.4	3.8	7.45e-01	0	56	104	0	63	16691
2026-01-02 02:16:57.85	26.29	33.56	-51.0	-64.1	3.8	7.48e-01	0	56	104	0	64	16893
2026-01-02 02:16:58.84	26.31	33.81	-51.3	-64.7	3.8	7.47e-01	0	56	104	0	64	18274
2026-01-02 02:16:59.82	26.34	34.06	-51.5	-65.2	3.8	7.46e-01	0	56	104	0	65	18256
2026-01-02 02:17:00.81	26.37	34.31	-51.6	-65.6	3.8	7.44e-01	0	56	104	0	65	19059
2026-01-02 02:17:01.80	26.39	34.57	-51.6	-65.9	3.8	7.45e-01	0	56	104	0	65	19682
2026-01-02 02:17:02.79	26.42	34.82	-51.4	-65.3	3.8	7.45e-01	0	56	104	0	65	18453
2026-01-02 02:17:03.77	26.45	35.08	-51.0	-64.3	3.8	7.42e-01	0	56	104	0	65	16452
2026-01-02 02:17:04.77	26.47	35.34	-50.7	-63.3	3.8	7.47e-01	0	56	104	0	64	15547
2026-01-02 02:17:05.76	26.50	35.61	-51.1	-64.3	3.8	7.45e-01	0	56	104	0	64	17408
2026-01-02 02:17:06.74	26.53	35.87	-51.9	-66.0	3.8	7.44e-01	0	56	104	0	65	20048
2026-01-02 02:17:07.74	26.56	36.14	-52.5	-67.5	3.8	7.44e-01	0	56	104	0	67	21043
2026-01-02 02:17:08.73	26.59	36.41	-52.7	-68.0	3.8	7.47e-01	0	56	104	0	67	22333
2026-01-02 02:17:09.71	26.62	36.68	-53.1	-69.1	3.8	7.44e-01	0	56	104	0	68	24008
2026-01-02 02:17:10.71	26.65	36.96	-53.5	-70.8	3.8	7.44e-01	0	56	104	0	69	27588
2026-01-02 02:17:11.70	26.68	37.24	-53.5	-70.5	3.8	7.45e-01	0	56	104	0	69	26701
2026-01-02 02:17:12.69	26.71	37.52	-53.5	-70.0	3.8	7.43e-01	0	56	104	0	69	25155
2026-01-02 02:17:13.69	26.74	37.81	-53.5	-70.0	3.8	7.45e-01	0	56	104	0	69	25036
2026-01-02 02:17:14.67	26.77	38.09	-53.5	-69.7	3.8	7.45e-01	0	56	104	0	69	24221
2026-01-02 02:17:15.67	26.80	38.38	-53.4	-69.4	3.8	7.46e-01	0	56	104	0	69	23557
2026-01-02 02:17:16.66	26.84	38.67	-53.4	-69.4	3.8	7.46e-01	0	56	104	0	69	23468
2026-01-02 02:17:17.64	26.87	38.96	-53.4	-69.5	3.8	7.44e-01	0	56	104	0	69	23640
2026-01-02 02:17:18.62	26.90	39.26	-53.6	-70.0	3.8	7.44e-01	0	56	104	0	69	25058
2026-01-02 02:17:19.61	26.94	39.55	-53.5	-69.8	3.8	7.44e-01	0	56	104	0	69	24668
2026-01-02 02:17:20.60	26.97	39.86	-53.3	-69.0	3.8	7.42e-01	0	56	104	0	69	22381
2026-01-02 02:17:21.60	27.01	40.16	-53.0	-67.9	3.8	7.43e-01	0	56	104	0	69	19622
2026-01-02 02:17:22.59	27.05	40.47	-52.5	-66.7	3.8	7.44e-01	0	56	104	0	68	18238
2026-01-02 02:17:23.58	27.08	40.78	-52.1	-65.8	3.8	7.49e-01	0	56	104	0	67	17324
2026-01-02 02:17:24.57	27.12	41.09	-51.9	-65.5	3.8	7.49e-01	0	56	104	0	67	16814
2026-01-02 02:17:25.56	27.16	41.41	-52.0	-65.5	3.8	7.46e-01	0	56	104	0	67	16827
2026-01-02 02:17:26.54	27.20	41.73	-51.9	-65.4	3.8	7.46e-01	0	56	104	0	67	16527
2026-01-02 02:17:27.53	27.24	42.05	-51.6	-64.7	3.8	7.47e-01	0	56	104	0	66	16176
2026-01-02 02:17:28.52	27.28	42.37	-51.3	-64.2	3.8	7.47e-01	0	56	104	0	66	15327
2026-01-02 02:17:29.51	27.32	42.70	-51.2	-64.1	3.8	7.42e-01	0	57	104	0	66	15056
2026-01-02 02:17:30.50	27.36	43.03	-50.9	-63.4	3.8	7.46e-01	0	57	104	0	65	14792
2026-01-02 02:17:31.49	27.40	43.36	-50.3	-62.6	3.8	7.45e-01	0	57	104	0	64	14228
2026-01-02 02:17:32.49	27.45	43.70	-49.8	-61.7	3.8	7.42e-01	0	57	104	0	63	13665
2026-01-02 02:17:33.48	27.49	44.04	-49.4	-61.1	3.8	7.44e-01	0	57	104	0	62	13457
2026-01-02 02:17:34.47	27.54	44.39	-49.1	-60.7	3.8	7.47e-01	0	57	104	0	61	13678
2026-01-02 02:17:35.46	27.58	44.73	-48.8	-60.3	3.8	7.44e-01	0	57	104	0	61	13053
2026-01-02 02:17:36.45	27.63	45.08	-48.5	-59.9	3.8	7.46e-01	0	56	104	0	60	13150
2026-01-02 02:17:37.44	27.68	45.44	-48.8	-60.2	3.8	7.44e-01	0	57	104	0	60	13723
2026-01-02 02:17:38.43	27.73	45.79	-49.2	-60.8	3.8	7.44e-01	0	56	104	0	60	14701
2026-01-02 02:17:39.43	27.78	46.16	-49.6	-61.3	3.8	7.45e-01	0	57	104	0	61	14567
2026-01-02 02:17:40.42	27.83	46.52	-50.2	-62.2	3.8	7.43e-01	0	57	104	0	62	15240
2026-01-02 02:17:41.40	27.88	46.88	-50.9	-63.4	3.8	7.43e-01	0	57	104	0	63	16524
2026-01-02 02:17:42.39	27.94	47.25	-51.5	-64.5	3.8	7.43e-01	0	57	104	0	65	16709
2026-01-02 02:17:43.38	27.99	47.62	-51.9	-65.3	3.8	7.43e-01	0	57	104	0	66	17388
2026-01-02 02:17:44.37	28.05	48.00	-51.9	-65.1	3.8	7.45e-01	0	57	104	0	66	17063
2026-01-02 02:17:45.37	28.11	48.38	-52.0	-65.4	3.8	7.46e-01	0	57	104	0	66	17656
2026-01-02 02:17:46.36	28.16	48.77	-52.2	-65.9	3.8	7.43e-01	0	56	104	0	66	18610
2026-01-02 02:17:47.35	28.22	49.15	-52.3	-66.2	3.8	7.46e-01	0	57	104	0	66	19348
2026-01-02 02:17:48.34	28.29	49.54	-52.5	-66.5	3.8	7.45e-01	0	57	104	0	67	18904
2026-01-02 02:17:49.32	28.35	49.93	-52.7	-67.0	3.8	7.42e-01	0	57	104	0	67	19987
2026-01-02 02:17:50.31	28.41	50.33	-53.0	-67.9	3.8	7.45e-01	0	57	104	0	68	20894
2026-01-02 02:17:51.31	28.48	50.73	-52.4	-66.4	3.8	7.45e-01	0	57	104	0	68	17544
2026-01-02 02:17:52.29	28.55	51.13	-51.9	-65.3	3.8	7.41e-01	0	57	104	0	67	16365
2026-01-02 02:17:53.29	28.62	51.55	-51.4	-64.4	3.8	7.43e-01	0	57	104	0	66	15715
2026-01-02 02:17:54.28	28.69	51.96	-50.7	-63.1	3.8	7.45e-01	0	57	104	0	65	14359
2026-01-02 02:17:55.27	28.76	52.37	-50.3	-62.4	3.8	7.45e-01	0	57	104	0	64	13962
2026-01-02 02:17:56.26	28.84	52.79	-50.8	-63.4	3.8	7.43e-01	0	57	104	0	64	15587
2026-01-02 02:17:57.25	28.92	53.22	-51.4	-64.5	3.8	7.40e-01	0	57	104	0	65	16750
2026-01-02 02:17:58.24	29.00	53.64	-52.0	-65.4	3.8	7.40e-01	0	57	104	0	66	17556
2026-01-02 02:17:59.23	29.08	54.07	-52.5	-66.7	3.8	7.44e-01	0	57	104	0	67	19201
2026-01-02 02:18:00.22	29.16	54.51	-53.2	-68.3	3.8	7.46e-01	0	57	104	0	68	21908
2026-01-02 02:18:01.21	29.25	54.94	-53.5	-69.2	3.8	7.41e-01	0	57	104	0	69	22836
2026-01-02 02:18:02.20	29.34	55.38	-53.3	-68.6	3.8	7.44e-01	0	57	104	0	69	21452
2026-01-02 02:18:03.19	29.43	55.83	-53.1	-68.0	3.8	7.45e-01	0	57	104	0	69	19984
2026-01-02 02:18:04.18	29.53	56.28	-53.0	-67.9	3.8	7.43e-01	0	57	104	0	69	19616
2026-01-02 02:18:05.17	29.63	56.73	-53.0	-67.8	3.8	7.43e-01	0	57	104	0	69	19527
2026-01-02 02:18:06.15	29.73	57.18	-52.9	-67.6	3.8	7.44e-01	0	57	104	0	69	18977
2026-01-02 02:18:07.15	29.84	57.65	-53.1	-67.9	3.8	7.44e-01	0	57	104	0	69	19666
2026-01-02 02:18:08.13	29.94	58.11	-53.2	-68.4	3.8	7.45e-01	0	57	104	0	68	22082
2026-01-02 02:18:09.12	30.06	58.57	-53.5	-69.5	3.8	7.43e-01	0	57	104	0	69	23652
2026-01-02 02:18:10.11	30.17	59.05	-53.2	-68.2	3.8	7.43e-01	0	57	104	0	69	20336
2026-01-02 02:18:11.10	30.29	59.52	-53.0	-67.7	3.8	7.43e-01	0	57	104	0	69	19207
2026-01-02 02:18:12.09	30.42	60.00	-52.6	-66.7	3.8	7.44e-01	0	57	104	0	68	18285
2026-01-02 02:18:13.09	30.55	60.49	-52.2	-65.6	3.9	7.42e-01	0	57	104	0	68	16094
2026-01-02 02:18:14.08	30.68	60.97	-51.9	-65.3	3.8	7.44e-01	0	57	104	0	66	17422
2026-01-02 02:18:15.07	30.82	61.46	-51.6	-55.4	17.4	6.02e-01	0	57	104	0	66	5537
2026-01-02 02:18:16.05	30.96	61.95	-51.4	-55.0	18.2	6.02e-01	0	57	0	1572864	66	5318
2026-01-02 02:18:17.04	31.12	62.45	-51.9	-56.0	17.3	6.03e-01	0	57	0	3145728	65	6320
2026-01-02 02:18:18.04	31.27	62.96	-51.9	-56.1	17.1	6.01e-01	0	57	0	5242880	66	6018
2026-01-02 02:18:19.03	31.44	63.46	-51.9	-56.1	17.2	6.04e-01	0	57	0	6815744	66	6029
2026-01-02 02:18:20.02	31.61	63.97	-52.3	-57.1	16.2	6.02e-01	0	57	0	8912896	66	6746
2026-01-02 02:18:21.01	31.79	64.48	-52.5	-57.6	15.7	6.03e-01	0	57	0	10485760	67	6724
2026-01-02 02:18:21.99	31.97	64.99	-52.8	-58.4	14.9	6.02e-01	0	57	0	12582912	67	7401
2026-01-02 02:18:22.98	32.17	65.51	-52.7	-58.1	15.2	6.03e-01	0	57	0	14155776	67	7163
2026-01-02 02:18:23.97	32.37	66.03	-52.4	-57.1	16.1	6.01e-01	0	57	0	16252928	67	6406
2026-01-02 02:18:24.96	32.58	66.55	-52.4	-57.2	16.0	6.02e-01	0	57	0	18350080	67	6482
2026-01-02 02:18:25.94	32.81	67.08	-52.3	-56.9	16.3	6.04e-01	0	57	0	19922944	67	6267
2026-01-02 02:18:26.92	33.04	67.60	-52.8	-58.5	14.8	6.03e-01	0	57	0	21495808	67	7516
2026-01-02 02:18:27.91	33.29	68.14	-52.7	-58.0	15.2	6.04e-01	0	57	0	23592960	68	6684
2026-01-02 02:18:28.90	33.55	68.67	-52.7	-57.9	15.4	6.00e-01	0	57	0	25690112	68	6626
2026-01-02 02:18:29.88	33.82	69.21	-52.6	-57.7	15.5	6.03e-01	0	57	0	27262976	68	6476
2026-01-02 02:18:30.86	34.11	69.75	-52.7	-57.9	15.4	6.01e-01	0	57	0	29360128	68	6623
2026-01-02 02:18:31.85	34.42	70.29	-52.7	-57.9	15.3	6.00e-01	0	57	0	30932992	68	6646
2026-01-02 02:18:32.84	34.75	70.84	-52.6	-57.5	15.8	5.99e-01	0	57	0	33030144	68	6320
2026-01-02 02:18:33.83	35.10	71.39	-52.6	-57.6	15.7	6.03e-01	0	57	0	34603008	68	6375
2026-01-02 02:18:34.81	35.46	71.94	-52.5	-57.4	15.9	6.04e-01	0	57	0	36700160	68	6235
2026-01-02 02:18:35.80	35.86	72.49	-52.2	-56.6	16.7	6.01e-01	0	57	0	38273024	68	5665
2026-01-02 02:18:36.79	36.28	73.05	-51.7	-55.6	17.7	6.02e-01	0	57	0	40370176	67	5347
2026-01-02 02:18:37.78	36.73	73.61	-51.4	-55.0	18.3	6.01e-01	0	57	0	41943040	66	5289
2026-01-02 02:18:38.76	37.21	74.16	-51.1	-54.3	19.0	6.03e-01	0	57	0	44040192	65	5165
2026-01-02 02:18:39.75	37.73	74.73	-50.8	-53.9	19.3	6.04e-01	0	57	0	45613056	65	4969
2026-01-02 02:18:40.74	38.29	75.29	-50.5	-53.3	20.0	6.01e-01	0	57	0	47710208	64	4882
2026-01-02 02:18:41.73	38.90	75.86	-50.4	-53.2	20.1	6.03e-01	0	57	0	49283072	64	4818
2026-01-02 02:18:42.71	39.56	76.42	-50.0	-52.4	20.8	6.01e-01	0	57	0	51380224	63	4702
2026-01-02 02:18:43.70	40.28	76.98	-50.0	-52.4	20.8	6.01e-01	0	57	0	53477376	63	4704
2026-01-02 02:18:44.69	41.06	77.55	-49.8	-52.2	21.1	6.03e-01	0	57	0	55050240	63	4556
2026-01-02 02:18:45.68	41.93	78.11	-49.8	-52.1	21.1	6.02e-01	0	57	0	57147392	62	4802
2026-01-02 02:18:46.67	42.88	78.68	-49.3	-51.4	21.8	6.02e-01	0	57	0	58720256	62	4414
2026-01-02 02:18:47.65	43.92	79.23	-49.2	-51.2	22.0	6.04e-01	0	57	0	60817408	62	4315
2026-01-02 02:18:48.64	45.09	79.80	-49.1	-51.1	22.2	6.02e-01	0	57	0	62390272	61	4503
2026-01-02 02:18:49.63	46.40	80.35	-49.0	-50.9	22.3	6.02e-01	0	57	0	64487424	61	4437
2026-01-02 02:18:50.62	47.87	80.91	-48.4	-50.2	23.0	6.02e-01	0	57	0	66060288	60	4296
2026-01-02 02:18:51.60	49.52	81.45	-48.3	-50.1	23.1	6.02e-01	0	57	0	68157440	60	4244
2026-01-02 02:18:52.59	51.41	81.99	-48.3	-50.0	23.1	6.03e-01	0	57	0	69730304	60	4242
2026-01-02 02:18:53.59	53.60	82.53	-48.5	-50.3	23.0	6.04e-01	0	57	0	71827456	59	4606
2026-01-02 02:18:54.57	56.07	83.05	-48.4	-50.1	23.4	6.00e-01	0	57	0	73400320	59	4522
2026-01-02 02:18:55.56	58.97	83.56	-48.8	-50.6	22.9	6.00e-01	0	57	0	75497472	59	4814
2026-01-02 02:18:56.55	62.37	84.05	-48.7	-50.5	23.0	6.01e-01	0	57	0	77594624	59	4728
2026-01-02 02:18:57.54	66.35	84.52	-48.7	-50.5	22.7	6.04e-01	0	57	0	79167488	60	4480
2026-01-02 02:18:58.53	71.06	84.95	-49.2	-51.2	22.0	6.05e-01	0	57	0	80740352	60	4854
2026-01-02 02:18:59.52	76.62	85.35	-49.1	-51.1	22.0	6.02e-01	0	57	0	82837504	60	4800
2026-01-02 02:19:00.50	83.07	85.69	-49.2	-51.4	21.9	6.01e-01	0	57	0	84934656	60	4927
2026-01-02 02:19:01.49	90.60	85.97	-49.5	-51.8	21.4	6.01e-01	0	57	0	86507520	61	4888
2026-01-02 02:19:02.48	99.10	86.18	-48.9	-50.9	22.3	6.02e-01	0	57	0	88604672	61	4426
2026-01-02 02:19:03.46	108.23	86.29	-48.7	-50.6	22.6	6.01e-01	0	57	0	90177536	60	4537
2026-01-02 02:19:04.44	117.67	86.30	-49.0	-51.0	22.1	6.00e-01	0	57	0	92274688	60	4752
2026-01-02 02:19:05.43	127.01	86.21	-48.8	-50.7	22.4	6.02e-01	0	57	0	93847552	60	4590
2026-01-02 02:19:06.42	135.70	86.03	-49.2	-51.3	22.0	6.02e-01	0	57	0	95944704	60	4878
2026-01-02 02:19:07.41	143.48	85.76	-49.4	-51.6	21.7	6.03e-01	0	57	0	97517568	61	4788
2026-01-02 02:19:08.40	150.22	85.43	-50.0	-52.4	20.8	6.01e-01	0	57	0	99614720	62	4979
2026-01-02 02:19:09.39	155.99	85.05	-50.2	-52.8	20.4	6.03e-01	0	57	0	101187584	62	5186
2026-01-02 02:19:10.38	160.88	84.62	-50.7	-53.7	19.6	6.01e-01	0	57	0	103284736	63	5428
2026-01-02 02:19:11.37	165.01	84.16	-50.9	-54.0	19.2	6.04e-01	0	57	0	104857600	64	5308
2026-01-02 02:19:12.35	168.50	83.68	-51.1	-54.4	18.8	6.03e-01	0	57	0	106954752	64	5578
2026-01-02 02:19:13.34	171.51	83.17	-51.3	-54.9	18.3	6.00e-01	0	57	0	109051904	65	5553
2026-01-02 02:19:14.34	174.12	82.65	-51.6	-55.3	17.9	6.01e-01	0	57	0	110624768	65	5833
2026-01-02 02:19:15.32	176.33	82.12	-51.5	-55.2	18.0	6.02e-01	0	57	0	112721920	65	5758
2026-01-02 02:19:16.30	178.26	81.58	-51.7	-55.6	17.6	6.02e-01	0	57	0	114294784	65	6012
2026-01-02 02:19:17.28	179.96	81.04	-51.5	-55.2	18.1	6.02e-01	0	57	0	116391936	65	5757
2026-01-02 02:19:18.27	181.48	80.49	-51.4	-54.9	18.2	6.06e-01	0	57	0	117964800	65	5585
2026-01-02 02:19:19.26	182.82	79.93	-51.5	-55.3	18.0	6.00e-01	0	57	0	120061952	65	5791
2026-01-02 02:19:20.26	184.04	79.36	-51.5	-55.2	18.0	6.00e-01	0	57	0	121634816	65	5745
2026-01-02 02:19:21.25	185.12	78.80	-51.5	-55.2	17.9	5.99e-01	0	57	0	123731968	65	5782
2026-01-02 02:19:22.23	186.08	78.24	-51.5	-55.2	18.0	6.03e-01	0	57	0	125304832	65	5776
2026-01-02 02:19:23.22	186.96	77.67	-51.0	-54.1	19.0	6.02e-01	0	57	0	127401984	65	5089
2026-01-02 02:19:24.21	187.77	77.11	-50.9	-54.1	19.1	6.03e-01	0	57	0	128974848	65	5064
2026-01-02 02:19:25.19	188.49	76.55	-50.8	-53.9	19.3	6.03e-01	0	57	0	131072000	65	4943
2026-01-02 02:19:26.18	189.17	75.98	-51.0	-54.2	19.0	6.02e-01	0	57	0	132644864	65	5144
2026-01-02 02:19:27.18	189.80	75.41	-51.3	-54.7	18.5	6.01e-01	0	57	0	134742016	65	5446
2026-01-02 02:19:28.17	190.37	74.84	-51.3	-54.7	18.5	6.03e-01	0	57	0	136839168	65	5434
2026-01-02 02:19:29.15	190.89	74.29	-51.6	-55.3	17.9	6.00e-01	0	57	0	138412032	65	5817
2026-01-02 02:19:30.14	191.39	73.72	-51.2	-54.6	18.5	6.01e-01	0	57	0	140509184	65	5358
2026-01-02 02:19:31.13	191.84	73.16	-51.1	-54.4	18.8	6.02e-01	0	57	0	142082048	65	5261
2026-01-02 02:19:32.12	192.27	72.61	-51.6	-55.5	17.7	6.01e-01	0	57	0	144179200	65	5955
2026-01-02 02:19:33.11	192.67	72.05	-51.4	-54.9	18.3	6.03e-01	0	57	0	145752064	65	5536
2026-01-02 02:19:34.10	193.05	71.49	-51.4	-54.9	18.3	6.01e-01	0	57	0	147849216	65	5560
2026-01-02 02:19:35.09	193.40	70.94	-51.1	-54.4	18.8	6.02e-01	0	57	0	149422080	65	5233
2026-01-02 02:19:36.08	193.73	70.39	-51.8	-55.8	17.5	6.05e-01	0	57	0	151519232	65	6150
2026-01-02 02:19:37.07	194.04	69.85	-51.8	-55.9	17.3	6.03e-01	0	57	0	153092096	65	6222
2026-01-02 02:19:38.06	194.34	69.30	-51.4	-54.9	18.3	6.03e-01	0	57	0	155189248	65	5545
2026-01-02 02:19:39.04	194.62	68.77	-51.0	-54.2	19.0	6.02e-01	0	57	0	157286400	65	5133
2026-01-02 02:19:40.04	194.88	68.22	-51.1	-54.4	18.7	6.01e-01	0	57	0	158859264	65	5230
2026-01-02 02:19:41.04	195.14	67.68	-51.3	-54.8	18.4	6.04e-01	0	57	0	160956416	65	5528
2026-01-02 02:19:42.02	195.37	67.15	-51.3	-54.8	18.3	6.04e-01	0	57	0	162529280	65	5497
2026-01-02 02:19:43.01	195.60	66.62	-51.1	-54.3	18.9	6.01e-01	0	57	0	164626432	65	5188
2026-01-02 02:19:44.00	195.81	66.10	-50.8	-53.8	19.4	6.01e-01	0	57	0	166199296	65	4908
2026-01-02 02:19:44.98	196.02	65.58	-50.9	-53.9	19.2	6.03e-01	0	57	0	168296448	65	4976
2026-01-02 02:19:45.98	196.22	65.06	-50.8	-53.9	19.3	6.01e-01	0	57	0	169869312	65	4938
2026-01-02 02:19:46.97	196.40	64.54	-50.4	-53.2	20.0	6.04e-01	0	57	0	171966464	64	4819
2026-01-02 02:19:47.96	196.58	64.03	-50.3	-53.0	20.2	6.01e-01	0	57	0	173539328	64	4724
2026-01-02 02:19:48.95	196.75	63.52	-50.1	-52.6	20.6	6.03e-01	0	57	0	175636480	63	4793
2026-01-02 02:19:49.94	196.92	63.01	-50.6	-53.4	19.7	6.03e-01	0	57	0	177209344	63	5240
2026-01-02 02:19:50.93	197.08	62.51	-50.5	-53.3	20.0	6.03e-01	0	57	0	179306496	63	5167
2026-01-02 02:19:51.92	197.23	62.01	-50.6	-53.5	19.7	6.04e-01	0	57	0	180879360	63	5286
2026-01-02 02:19:52.91	197.38	61.51	-49.6	-51.9	21.3	6.01e-01	0	57	0	182976512	62	4675
2026-01-02 02:19:53.90	197.52	61.02	-49.4	-51.6	21.6	6.01e-01	0	57	0	185073664	62	4530
2026-01-02 02:19:54.89	197.65	60.53	-49.3	-51.5	21.7	6.01e-01	0	57	0	186646528	62	4442
2026-01-02 02:19:55.88	197.78	60.05	-49.1	-51.1	22.0	6.01e-01	0	57	0	188743680	61	4544
2026-01-02 02:19:56.87	197.91	59.57	-48.9	-50.9	22.3	6.02e-01	0	57	0	190316544	61	4415
2026-01-02 02:19:57.86	198.03	59.09	-48.9	-50.8	22.3	6.03e-01	0	57	0	192413696	61	4390
2026-01-02 02:19:58.85	198.14	58.62	-48.2	-49.9	23.1	6.04e-01	0	57	0	193986560	60	4174
2026-01-02 02:19:59.83	198.26	58.16	-48.6	-50.4	22.8	6.03e-01	0	57	0	196083712	60	4407
2026-01-02 02:20:00.82	198.37	57.69	-48.8	-50.7	22.4	6.05e-01	0	57	0	197656576	60	4595
2026-01-02 02:20:01.81	198.47	57.23	-48.8	-50.8	22.4	6.03e-01	0	57	0	199753728	60	4609
2026-01-02 02:20:02.80	198.57	56.77	-48.4	-50.2	22.9	6.05e-01	0	57	0	201326592	60	4321
2026-01-02 02:20:03.78	198.67	56.32	-48.2	-49.8	23.5	6.03e-01	0	57	0	203423744	59	4390
2026-01-02 02:20:04.78	198.77	55.86	-47.7	-49.2	24.2	6.04e-01	0	57	0	204996608	59	4058
2026-01-02 02:20:05.77	198.86	55.42	-47.6	-49.1	24.3	6.02e-01	0	57	0	207093760	58	4260
2026-01-02 02:20:06.75	198.95	54.98	-47.9	-49.5	23.9	6.00e-01	0	57	0	209190912	58	4451
2026-01-02 02:20:07.75	199.04	54.54	-47.7	-49.3	24.1	6.02e-01	0	57	0	210763776	58	4347
2026-01-02 02:20:08.75	199.12	54.10	-47.4	-48.9	24.4	6.02e-01	0	57	0	212860928	58	4167
2026-01-02 02:20:09.74	199.21	53.66	-47.3	-48.8	24.6	6.00e-01	0	57	0	214433792	58	4101
2026-01-02 02:20:10.72	199.29	53.24	-47.4	-48.9	24.5	6.01e-01	0	57	0	216530944	58	4152
2026-01-02 02:20:11.71	199.36	52.82	-47.6	-49.1	24.4	6.01e-01	0	57	0	218103808	58	4248
2026-01-02 02:20:12.70	199.44	52.40	-47.6	-49.1	24.2	6.03e-01	0	57	0	220200960	58	4282
2026-01-02 02:20:13.69	199.51	51.98	-47.8	-49.4	24.1	6.03e-01	0	57	0	221773824	58	4409
2026-01-02 02:20:14.68	199.59	51.56	-47.9	-49.5	23.9	6.01e-01	0	57	0	223870976	58	4473
2026-01-02 02:20:15.66	199.66	51.16	-48.3	-49.9	23.5	6.06e-01	0	57	0	225443840	58	4701
2026-01-02 02:20:16.65	199.72	50.75	-48.4	-50.1	23.4	6.03e-01	0	57	0	227540992	59	4525
2026-01-02 02:20:17.64	199.79	50.35	-48.6	-50.4	23.0	6.03e-01	0	57	0	229638144	59	4704
2026-01-02 02:20:18.63	199.86	49.95	-48.6	-50.4	23.0	6.03e-01	0	57	0	231211008	59	4676
2026-01-02 02:20:19.62	199.92	49.56	-48.5	-50.3	23.1	6.04e-01	0	57	0	233308160	59	4622
2026-01-02 02:20:20.61	199.98	49.16	-48.6	-50.4	23.0	6.03e-01	0	57	0	234881024	59	4690
2026-01-02 02:20:21.60	200.04	48.78	-48.8	-50.7	22.7	6.03e-01	0	57	0	236978176	59	4834
2026-01-02 02:20:22.58	200.10	48.40	-48.6	-50.5	22.6	6.00e-01	0	57	0	238551040	60	4477
2026-01-02 02:20:23.57	200.16	48.01	-49.1	-51.2	22.0	6.00e-01	0	57	0	240648192	60	4815
2026-01-02 02:20:24.57	200.21	47.63	-49.0	-51.0	22.1	6.02e-01	0	57	0	242221056	60	4742
2026-01-02 02:20:25.56	200.27	47.26	-48.6	-50.5	22.6	6.00e-01	0	57	0	244318208	60	4471
2026-01-02 02:20:26.55	200.32	46.89	-48.4	-50.2	22.8	6.02e-01	0	57	0	245891072	60	4334
2026-01-02 02:20:27.54	200.37	46.52	-48.5	-50.3	23.1	6.02e-01	0	57	0	247988224	59	4631
2026-01-02 02:20:28.53	200.43	46.16	-48.6	-50.3	23.1	6.01e-01	0	57	0	249561088	59	4639
2026-01-02 02:20:29.52	200.48	45.80	-48.6	-50.4	23.0	6.04e-01	0	57	0	251658240	59	4676
2026-01-02 02:20:30.50	200.53	45.44	-48.4	-50.1	23.4	6.02e-01	0	57	0	253755392	59	4508
2026-01-02 02:20:31.49	200.57	45.09	-48.4	-50.1	23.3	6.03e-01	0	57	0	255328256	59	4525
2026-01-02 02:20:32.48	200.62	44.74	-48.5	-50.2	23.2	6.03e-01	0	57	0	257425408	59	4581
2026-01-02 02:20:33.47	200.67	44.39	-48.6	-50.3	23.1	6.00e-01	0	57	0	258998272	59	4637
2026-01-02 02:20:34.46	200.71	44.04	-48.5	-50.3	23.1	6.04e-01	0	57	0	261095424	59	4636
2026-01-02 02:20:35.44	200.76	43.71	-48.7	-50.5	23.0	6.04e-01	0	57	0	262668288	59	4718
2026-01-02 02:20:36.44	200.80	43.36	-48.7	-50.6	22.9	6.03e-01	0	57	0	264765440	59	4777
2026-01-02 02:20:37.42	200.84	43.03	-48.8	-50.6	22.8	6.02e-01	0	57	0	266338304	59	4789
2026-01-02 02:20:38.42	200.89	42.70	-48.8	-50.7	22.8	6.01e-01	0	57	0	268435456	59	4815
2026-01-02 02:20:39.41	200.93	42.37	-48.7	-50.6	22.5	6.02e-01	0	57	0	270008320	60	4527
2026-01-02 02:20:40.40	200.97	42.04	-49.0	-51.0	22.1	6.04e-01	0	57	0	272105472	60	4731
2026-01-02 02:20:41.39	201.01	41.72	-49.2	-51.2	21.9	6.02e-01	0	57	0	273678336	60	4868
2026-01-02 02:20:42.38	201.05	41.40	-49.5	-51.8	21.4	6.02e-01	0	57	0	275775488	61	4905
2026-01-02 02:20:43.37	201.08	41.08	-49.5	-51.7	21.4	6.03e-01	0	57	0	277348352	61	4869
2026-01-02 02:20:44.35	201.12	40.77	-49.5	-51.7	21.4	6.01e-01	0	57	0	279445504	61	4867
2026-01-02 02:20:45.35	201.16	40.45	-49.5	-51.8	21.3	6.02e-01	0	57	0	281542656	61	4891
2026-01-02 02:20:46.34	201.19	40.15	-49.6	-51.9	21.3	6.02e-01	0	57	0	283115520	61	4928
2026-01-02 02:20:47.34	201.23	39.84	-49.4	-51.6	21.6	6.03e-01	0	57	0	285212672	61	4765
2026-01-02 02:20:48.32	201.27	39.54	-49.4	-51.6	21.6	6.01e-01	0	57	0	286785536	61	4771
2026-01-02 02:20:49.32	201.30	39.23	-49.6	-51.9	21.2	6.04e-01	0	57	0	288882688	61	4954
2026-01-02 02:20:50.31	201.33	38.94	-49.7	-52.1	21.1	6.03e-01	0	57	0	290455552	61	5071
2026-01-02 02:20:51.31	201.37	38.64	-49.8	-52.2	20.9	6.01e-01	0	57	0	292552704	61	5155
2026-01-02 02:20:52.30	201.40	38.35	-49.4	-51.7	21.5	6.01e-01	0	57	0	294125568	61	4817
2026-01-02 02:20:53.29	201.43	38.06	-49.2	-51.3	21.8	6.00e-01	0	57	0	296222720	61	4609
2026-01-02 02:20:54.29	201.46	37.77	-49.0	-51.1	22.0	6.03e-01	0	57	0	298319872	61	4504
2026-01-02 02:20:55.28	201.50	37.48	-48.9	-50.9	22.2	6.02e-01	0	57	0	299892736	61	4430
2026-01-02 02:20:56.27	201.53	37.20	-48.8	-50.7	22.4	6.03e-01	0	57	0	301989888	61	4321
2026-01-02 02:20:57.25	201.56	36.92	-48.7	-50.6	22.4	6.02e-01	0	57	0	303562752	61	4286
2026-01-02 02:20:58.25	201.59	36.64	-48.5	-50.4	22.6	6.02e-01	0	57	0	305659904	60	4429
2026-01-02 02:20:59.24	201.62	36.37	-48.5	-50.4	22.7	6.02e-01	0	57	0	307232768	60	4415
2026-01-02 02:21:00.24	201.65	36.10	-48.6	-50.5	22.6	6.00e-01	0	57	0	309329920	60	4456
2026-01-02 02:21:01.22	201.67	35.83	-48.7	-50.6	22.5	6.01e-01	0	57	0	310902784	60	4542
2026-01-02 02:21:02.21	201.70	35.56	-49.0	-51.0	22.1	6.00e-01	0	57	0	312999936	60	4716
2026-01-02 02:21:03.21	201.73	35.29	-48.5	-50.3	22.7	6.04e-01	0	57	0	314572800	60	4362
2026-01-02 02:21:04.20	201.76	35.03	-48.2	-50.0	23.1	6.02e-01	0	57	0	316669952	60	4204
2026-01-02 02:21:05.19	201.78	34.77	-48.5	-50.3	23.1	6.03e-01	0	57	0	318767104	59	4613
2026-01-02 02:21:06.18	201.81	34.51	-48.5	-50.3	23.0	6.02e-01	0	57	0	320339968	59	4619
2026-01-02 02:21:07.17	201.84	34.26	-48.4	-50.2	23.2	6.01e-01	0	57	0	322437120	59	4556
2026-01-02 02:21:08.16	201.86	34.00	-48.4	-50.1	23.3	6.00e-01	0	57	0	324009984	59	4532
2026-01-02 02:21:09.15	201.89	33.75	-48.5	-50.2	23.1	6.03e-01	0	57	0	326107136	59	4591
2026-01-02 02:21:10.14	201.91	33.50	-48.5	-50.3	23.0	6.03e-01	0	57	0	327680000	59	4627
2026-01-02 02:21:11.13	201.94	33.26	-48.2	-49.9	23.4	6.01e-01	0	57	0	329777152	59	4413
2026-01-02 02:21:12.12	201.96	33.01	-48.0	-49.7	23.7	6.01e-01	0	57	0	331350016	59	4297
2026-01-02 02:21:13.11	201.99	32.77	-47.8	-49.3	24.0	6.01e-01	0	57	0	333447168	59	4130
2026-01-02 02:21:14.10	202.01	32.53	-47.6	-49.2	24.1	6.00e-01	0	57	0	335020032	58	4301
2026-01-02 02:21:15.09	202.03	32.29	-47.6	-49.1	24.2	6.01e-01	0	57	0	337117184	58	4264
2026-01-02 02:21:16.07	202.06	32.06	-47.7	-49.2	24.0	6.01e-01	0	57	0	338690048	58	4338
2026-01-02 02:21:17.07	202.08	31.82	-47.6	-49.2	24.1	6.00e-01	0	57	0	340787200	58	4303
2026-01-02 02:21:18.05	202.10	31.59	-48.0	-49.6	23.8	6.02e-01	0	57	0	342884352	58	4518
2026-01-02 02:21:19.04	202.13	31.36	-47.7	-49.3	24.0	6.04e-01	0	57	0	344457216	58	4377
2026-01-02 02:21:20.03	202.15	31.13	-47.6	-49.1	24.2	6.05e-01	0	57	0	346554368	58	4271
2026-01-02 02:21:21.02	202.17	30.90	-47.5	-49.0	24.3	6.00e-01	0	57	0	348127232	58	4237
2026-01-02 02:21:22.01	202.19	30.68	-47.4	-48.9	24.4	6.02e-01	0	57	0	350224384	58	4152
2026-01-02 02:21:23.00	202.21	30.45	-47.4	-48.9	24.4	6.04e-01	0	57	0	351797248	58	4163
2026-01-02 02:21:23.99	202.23	30.23	-47.4	-48.8	24.5	6.01e-01	0	57	0	353894400	58	4126
2026-01-02 02:21:24.98	202.26	30.01	-47.5	-49.0	24.3	6.04e-01	0	57	0	355467264	58	4223
2026-01-02 02:21:25.97	202.28	29.79	-47.5	-49.0	24.0	6.05e-01	0	57	0	357564416	58	4226
2026-01-02 02:21:26.96	202.30	29.58	-47.7	-49.3	24.0	6.01e-01	0	57	0	359137280	58	4353
2026-01-02 02:21:27.94	202.32	29.37	-47.8	-49.3	23.9	6.02e-01	0	57	0	361234432	58	4382
2026-01-02 02:21:28.92	202.34	29.16	-47.9	-49.5	23.8	6.04e-01	0	57	0	362807296	58	4460
2026-01-02 02:21:29.91	202.36	28.95	-47.8	-49.4	23.9	6.02e-01	0	57	0	364904448	58	4408
2026-01-02 02:21:30.89	202.38	28.74	-47.8	-49.4	23.8	6.01e-01	0	57	0	367001600	58	4420
2026-01-02 02:21:31.88	202.39	28.53	-48.0	-49.6	23.6	6.05e-01	0	57	0	368574464	58	4542
2026-01-02 02:21:32.87	202.41	28.32	-47.8	-49.4	23.8	6.04e-01	0	57	0	370147328	58	4430
2026-01-02 02:21:33.86	202.43	28.12	-47.7	-49.2	24.0	6.03e-01	0	57	0	372244480	58	4322
2026-01-02 02:21:34.86	202.45	27.92	-47.6	-49.2	24.1	6.01e-01	0	57	0	374341632	58	4302
2026-01-02 02:21:35.84	202.47	27.72	-47.7	-49.2	24.0	6.05e-01	0	57	0	375914496	58	4325
2026-01-02 02:21:36.83	202.49	27.52	-47.9	-49.4	23.8	6.03e-01	0	57	0	378011648	58	4440
2026-01-02 02:21:37.82	202.51	27.32	-47.8	-49.4	23.9	6.06e-01	0	57	0	379584512	58	4426
2026-01-02 02:21:38.81	202.52	27.12	-47.9	-49.6	23.7	6.02e-01	0	57	0	381681664	58	4502
2026-01-02 02:21:39.81	202.54	26.93	-47.9	-49.6	23.7	6.03e-01	0	57	0	383254528	58	4494
2026-01-02 02:21:40.80	202.56	26.73	-48.1	-49.7	23.6	6.00e-01	0	57	0	385351680	58	4583
2026-01-02 02:21:41.79	202.58	26.54	-48.0	-49.7	23.6	6.06e-01	0	57	0	386924544	58	4560
2026-01-02 02:21:42.78	202.59	26.35	-48.1	-49.7	23.5	6.02e-01	0	57	0	389021696	58	4586
2026-01-02 02:21:43.77	202.61	26.16	-48.2	-49.9	23.4	6.02e-01	0	57	0	390594560	58	4701
2026-01-02 02:21:44.77	202.63	25.97	-48.2	-49.9	23.3	6.02e-01	0	57	0	392691712	58	4703
2026-01-02 02:21:45.75	202.65	25.79	-48.4	-50.1	23.2	6.01e-01	0	57	0	394788864	58	4794
2026-01-02 02:21:46.74	202.66	25.60	-48.4	-50.1	23.2	6.00e-01	0	57	0	396361728	59	4528
2026-01-02 02:21:47.72	202.68	25.42	-48.5	-50.3	23.0	6.02e-01	0	57	0	398458880	59	4639
2026-01-02 02:21:48.71	202.69	25.24	-48.7	-50.6	22.7	6.02e-01	0	57	0	400031744	59	4800
2026-01-02 02:21:49.71	202.71	25.06	-48.8	-50.7	22.6	5.99e-01	0	57	0	402128896	59	4824
2026-01-02 02:21:50.70	202.73	24.88	-48.8	-50.8	22.6	6.04e-01	0	57	0	403701760	59	4877
2026-01-02 02:21:51.69	202.74	24.70	-48.7	-50.7	22.3	6.01e-01	0	57	0	405798912	60	4553
2026-01-02 02:21:52.69	202.76	24.52	-49.0	-51.2	21.8	6.03e-01	0	57	0	407371776	60	4816
2026-01-02 02:21:53.68	202.77	24.34	-49.0	-51.1	21.8	6.02e-01	0	57	0	409468928	60	4800
2026-01-02 02:21:54.66	202.79	24.17	-49.1	-51.2	21.8	6.02e-01	0	57	0	411041792	60	4830
2026-01-02 02:21:55.64	202.80	24.00	-49.0	-51.1	21.8	6.02e-01	0	57	0	413138944	60	4795
2026-01-02 02:21:56.64	202.82	23.83	-48.7	-50.7	22.3	6.04e-01	0	57	0	415236096	60	4564
2026-01-02 02:21:57.62	202.83	23.66	-48.5	-50.5	22.5	6.01e-01	0	57	0	416808960	60	4445
2026-01-02 02:21:58.62	202.85	23.49	-48.5	-50.3	22.6	6.03e-01	0	57	0	418906112	60	4379
2026-01-02 02:21:59.61	202.86	23.32	-48.5	-50.4	22.5	6.00e-01	0	57	0	420478976	60	4409
2026-01-02 02:22:00.61	202.88	23.15	-48.5	-50.4	22.5	6.02e-01	0	57	0	422576128	60	4426
2026-01-02 02:22:01.60	202.89	22.98	-48.6	-50.6	22.4	6.02e-01	0	57	0	424148992	60	4495
2026-01-02 02:22:02.59	202.91	22.82	-48.6	-50.6	22.3	6.01e-01	0	57	0	426246144	60	4494
2026-01-02 02:22:03.58	202.92	22.66	-48.3	-50.2	22.7	6.00e-01	0	57	0	427819008	60	4312
2026-01-02 02:22:04.58	202.94	22.49	-48.5	-50.3	22.9	6.01e-01	0	57	0	429916160	59	4645
2026-01-02 02:22:05.57	202.95	22.33	-48.4	-50.2	23.0	6.02e-01	0	57	0	431489024	59	4598
2026-01-02 02:22:06.56	202.96	22.17	-48.6	-50.5	22.7	6.04e-01	0	57	0	433586176	59	4731
2026-01-02 02:22:07.55	202.98	22.01	-48.8	-50.7	22.5	6.04e-01	0	57	0	435683328	59	4857
2026-01-02 02:22:08.54	202.99	21.85	-48.8	-50.8	22.5	6.02e-01	0	57	0	437256192	59	4873
2026-01-02 02:22:09.52	203.01	21.70	-48.8	-50.7	22.5	6.02e-01	0	57	0	439353344	59	4836
2026-01-02 02:22:10.52	203.02	21.54	-48.8	-50.8	22.5	6.05e-01	0	57	0	440926208	59	4879
2026-01-02 02:22:11.50	203.03	21.39	-48.6	-50.5	22.4	6.04e-01	0	57	0	443023360	60	4493
2026-01-02 02:22:12.49	203.05	21.23	-48.8	-50.9	22.0	6.03e-01	0	57	0	444596224	60	4669
2026-01-02 02:22:13.48	203.06	21.08	-48.9	-51.0	21.9	6.02e-01	0	57	0	446693376	60	4735
2026-01-02 02:22:14.48	203.07	20.93	-48.8	-50.8	22.1	6.00e-01	0	57	0	448266240	60	4640
2026-01-02 02:22:15.47	203.09	20.78	-49.1	-51.3	21.6	6.03e-01	0	57	0	450363392	60	4903
2026-01-02 02:22:16.46	203.10	20.63	-49.3	-51.5	21.3	6.02e-01	0	57	0	451936256	60	5022
2026-01-02 02:22:17.44	203.11	20.48	-49.2	-51.5	21.4	6.02e-01	0	57	0	454033408	60	4999
2026-01-02 02:22:18.43	203.12	20.33	-49.4	-51.7	21.2	6.03e-01	0	57	0	455606272	61	4818
2026-01-02 02:22:19.42	203.14	20.18	-49.0	-51.1	21.8	6.02e-01	0	57	0	457703424	61	4503
2026-01-02 02:22:20.41	203.15	20.04	-48.6	-50.6	22.3	6.02e-01	0	57	0	459800576	60	4497
2026-01-02 02:22:21.40	203.16	19.89	-48.3	-50.2	22.6	6.02e-01	0	57	0	461373440	60	4296
2026-01-02 02:22:22.39	203.17	19.75	-48.5	-50.3	22.9	6.01e-01	0	57	0	463470592	59	4629
2026-01-02 02:22:23.38	203.19	19.61	-48.4	-50.2	23.0	6.03e-01	0	57	0	465043456	59	4560
2026-01-02 02:22:24.37	203.20	19.46	-48.5	-50.3	22.9	6.01e-01	0	57	0	467140608	59	4628
2026-01-02 02:22:25.36	203.21	19.32	-48.4	-50.2	23.0	6.03e-01	0	57	0	468713472	59	4551
2026-01-02 02:22:26.35	203.22	19.18	-48.3	-50.1	23.1	6.02e-01	0	57	0	470810624	59	4496
2026-01-02 02:22:27.34	203.23	19.04	-48.3	-50.1	23.1	6.03e-01	0	57	0	472383488	59	4497
2026-01-02 02:22:28.33	203.25	18.90	-48.3	-50.0	23.1	6.01e-01	0	57	0	474480640	59	4490
2026-01-02 02:22:29.33	203.26	18.76	-48.3	-50.1	22.8	6.04e-01	0	57	0	476053504	59	4540
2026-01-02 02:22:30.31	203.27	18.63	-48.5	-50.3	22.8	6.02e-01	0	57	0	478150656	59	4614
2026-01-02 02:22:31.30	203.28	18.49	-48.4	-50.2	23.0	6.02e-01	0	57	0	480247808	59	4560
2026-01-02 02:22:32.29	203.29	18.36	-48.6	-50.4	22.7	6.01e-01	0	57	0	481820672	59	4702
2026-01-02 02:22:33.28	203.31	18.22	-48.8	-50.7	22.4	6.01e-01	0	57	0	483393536	59	4849
2026-01-02 02:22:34.27	203.32	18.09	-48.6	-50.4	22.7	6.03e-01	0	57	0	485490688	59	4698
2026-01-02 02:22:35.26	203.33	17.95	-48.8	-50.7	22.4	6.03e-01	0	57	0	487587840	59	4860
2026-01-02 02:22:36.24	203.34	17.82	-48.5	-50.4	22.7	6.03e-01	0	57	0	489160704	59	4690
2026-01-02 02:22:37.23	203.35	17.69	-48.4	-50.2	22.9	6.01e-01	0	57	0	491257856	59	4562
2026-01-02 02:22:38.22	203.36	17.56	-48.3	-50.1	23.0	6.01e-01	0	57	0	492830720	59	4497
2026-01-02 02:22:39.21	203.37	17.43	-48.2	-50.0	23.1	6.02e-01	0	57	0	494927872	59	4483
2026-01-02 02:22:40.20	203.38	17.30	-48.2	-50.0	23.0	6.02e-01	0	57	0	496500736	59	4489
2026-01-02 02:22:41.19	203.39	17.17	-48.2	-50.0	23.1	6.02e-01	0	57	0	498597888	59	4484
2026-01-02 02:22:42.18	203.41	17.04	-48.3	-50.1	23.0	6.03e-01	0	57	0	500170752	59	4509
2026-01-02 02:22:43.17	203.42	16.92	-48.4	-50.3	22.8	6.02e-01	0	58	0	502267904	59	4603
2026-01-02 02:22:44.16	203.43	16.79	-48.3	-50.1	23.0	6.01e-01	0	57	0	503840768	59	4520
2026-01-02 02:22:45.15	203.44	16.67	-48.3	-50.0	23.0	6.02e-01	0	57	0	505937920	59	4490
2026-01-02 02:22:46.14	203.45	16.54	-48.3	-50.0	23.0	6.01e-01	0	57	0	508035072	59	4488
2026-01-02 02:22:47.12	203.46	16.42	-48.4	-50.2	22.9	6.02e-01	0	57	0	509607936	59	4566
2026-01-02 02:22:48.12	203.47	16.29	-48.5	-50.3	22.7	6.00e-01	0	57	0	511705088	59	4646
2026-01-02 02:22:49.10	203.48	16.17	-48.4	-50.2	22.9	6.00e-01	0	57	0	513277952	59	4569
2026-01-02 02:22:50.10	203.49	16.05	-48.4	-50.3	22.8	6.01e-01	0	57	0	515375104	59	4616
2026-01-02 02:22:51.09	203.50	15.93	-48.6	-50.5	22.5	6.04e-01	0	57	0	516947968	59	4757
2026-01-02 02:22:52.08	203.51	15.81	-48.5	-50.3	22.7	6.01e-01	0	57	0	519045120	59	4635
2026-01-02 02:22:53.07	203.52	15.69	-48.7	-50.6	22.5	6.01e-01	0	57	0	520617984	59	4790
2026-01-02 02:22:54.06	203.53	15.57	-48.8	-50.8	22.2	6.01e-01	0	57	0	522715136	59	4923
2026-01-02 02:22:55.05	203.54	15.45	-48.7	-50.6	22.4	6.00e-01	0	57	0	524288000	59	4791
2026-01-02 02:22:56.04	203.55	15.33	-48.5	-50.4	22.6	6.03e-01	0	57	0	526385152	59	4656
2026-01-02 02:22:57.02	203.56	15.21	-48.4	-50.2	22.8	6.00e-01	0	57	0	527958016	59	4589
2026-01-02 02:22:58.01	203.57	15.10	-48.4	-50.2	22.7	6.02e-01	0	57	0	530055168	59	4598
2026-01-02 02:22:59.00	203.58	14.98	-48.4	-50.2	22.8	6.03e-01	0	57	0	532152320	59	4587
2026-01-02 02:22:59.98	203.59	14.86	-48.4	-50.3	22.7	6.01e-01	0	57	0	533725184	59	4618
2026-01-02 02:23:00.98	203.60	14.75	-48.7	-50.6	22.4	6.04e-01	0	57	0	535822336	59	4799
2026-01-02 02:23:01.96	203.61	14.63	-48.4	-50.3	22.4	6.01e-01	0	57	0	537395200	59	4615
2026-01-02 02:23:02.95	203.62	14.52	-48.2	-50.0	23.0	6.00e-01	0	57	0	539492352	59	4463
2026-01-02 02:23:03.94	203.63	14.41	-48.1	-49.9	23.1	6.04e-01	0	57	0	541065216	59	4396
2026-01-02 02:23:04.93	203.64	14.29	-48.1	-49.9	23.1	6.04e-01	0	58	0	543162368	59	4429
2026-01-02 02:23:05.93	203.65	14.18	-48.3	-50.2	22.8	6.01e-01	0	57	0	544735232	59	4555
2026-01-02 02:23:06.91	203.66	14.07	-48.4	-50.2	22.7	6.00e-01	0	57	0	546832384	59	4591
2026-01-02 02:23:07.91	203.67	13.96	-48.4	-50.3	22.7	6.03e-01	0	57	0	548405248	59	4608
2026-01-02 02:23:08.89	203.68	13.85	-48.5	-50.4	22.6	6.06e-01	0	57	0	550502400	59	4684
2026-01-02 02:23:09.88	203.69	13.74	-48.4	-50.3	22.7	6.03e-01	0	57	0	552599552	59	4631
2026-01-02 02:23:10.86	203.70	13.63	-48.4	-50.2	22.8	6.03e-01	0	57	0	554172416	59	4580
2026-01-02 02:23:11.85	203.70	13.52	-48.4	-50.2	22.7	6.03e-01	0	57	0	556269568	59	4596
2026-01-02 02:23:12.84	203.71	13.41	-48.6	-50.5	22.4	6.00e-01	0	57	0	557842432	59	4751
2026-01-02 02:23:13.83	203.72	13.31	-48.4	-50.3	22.6	6.03e-01	0	58	0	559415296	59	4638
2026-01-02 02:23:14.82	203.73	13.20	-48.2	-50.0	22.9	6.01e-01	0	57	0	561512448	59	4479
2026-01-02 02:23:15.80	203.74	13.09	-48.1	-49.9	23.1	6.02e-01	0	57	0	563609600	59	4393
2026-01-02 02:23:16.79	203.75	12.99	-48.2	-50.0	23.0	6.02e-01	0	57	0	565182464	59	4447
2026-01-02 02:23:17.78	203.76	12.88	-48.4	-50.2	22.7	6.05e-01	0	57	0	567279616	59	4582
2026-01-02 02:23:18.77	203.77	12.78	-48.4	-50.3	22.6	6.01e-01	0	57	0	568852480	59	4637
2026-01-02 02:23:19.75	203.78	12.67	-48.4	-50.4	22.6	6.03e-01	0	57	0	570949632	59	4652
2026-01-02 02:23:20.74	203.79	12.57	-48.5	-50.4	22.5	6.00e-01	0	57	0	572522496	59	4681
2026-01-02 02:23:21.73	203.79	12.46	-48.5	-50.4	22.5	5.99e-01	0	57	0	574619648	59	4692
2026-01-02 02:23:22.71	203.80	12.36	-48.6	-50.6	22.4	6.05e-01	0	57	0	576192512	59	4761
2026-01-02 02:23:23.69	203.81	12.26	-48.6	-50.6	22.4	6.00e-01	0	58	0	578289664	59	4773
2026-01-02 02:23:24.68	203.82	12.16	-48.6	-50.6	22.3	6.03e-01	0	57	0	579862528	59	4792
2026-01-02 02:23:25.67	203.83	12.06	-48.6	-50.5	22.4	6.03e-01	0	57	0	581959680	59	4754
2026-01-02 02:23:26.67	203.84	11.95	-48.5	-50.4	22.5	6.02e-01	0	57	0	583532544	59	4679
2026-01-02 02:23:27.65	203.85	11.85	-48.3	-50.2	22.7	6.00e-01	0	57	0	585629696	59	4565
2026-01-02 02:23:28.64	203.85	11.75	-48.4	-50.3	22.6	6.02e-01	0	57	0	587726848	59	4605
2026-01-02 02:23:29.63	203.86	11.65	-48.4	-50.4	22.5	6.02e-01	0	57	0	589299712	59	4652
2026-01-02 02:23:30.62	203.87	11.55	-48.5	-50.4	22.5	6.04e-01	0	57	0	591396864	59	4687
2026-01-02 02:23:31.60	203.88	11.46	-48.4	-50.3	22.6	6.02e-01	0	57	0	592969728	59	4629
2026-01-02 02:23:32.59	203.89	11.36	-48.4	-50.3	22.6	6.03e-01	0	57	0	595066880	59	4601
2026-01-02 02:23:33.57	203.90	11.26	-48.4	-50.3	22.5	6.03e-01	0	57	0	596639744	59	4639
2026-01-02 02:23:34.55	203.90	11.16	-48.4	-50.3	22.5	6.03e-01	0	57	0	598736896	59	4650
2026-01-02 02:23:35.55	203.91	11.06	-48.4	-50.4	22.5	6.03e-01	0	57	0	600309760	59	4667
2026-01-02 02:23:36.54	203.92	10.97	-48.5	-50.4	22.4	6.04e-01	0	57	0	602406912	59	4693
2026-01-02 02:23:37.52	203.93	10.87	-48.6	-50.6	22.3	6.03e-01	0	57	0	603979776	59	4796
2026-01-02 02:23:38.51	203.94	10.78	-48.6	-50.7	22.2	6.02e-01	0	57	0	606076928	59	4819
2026-01-02 02:23:39.51	203.95	10.68	-48.5	-50.5	22.3	6.00e-01	0	57	0	607649792	59	4731
2026-01-02 02:23:40.50	203.95	10.58	-48.5	-50.5	22.3	6.05e-01	0	58	0	609746944	59	4746
2026-01-02 02:23:41.49	203.96	10.49	-48.6	-50.7	22.2	6.03e-01	0	57	0	611844096	59	4817
2026-01-02 02:23:42.48	203.97	10.40	-48.7	-50.7	22.1	6.03e-01	0	57	0	613416960	59	4854
2026-01-02 02:23:43.47	203.98	10.30	-48.6	-50.6	22.2	6.02e-01	0	57	0	615514112	59	4788
2026-01-02 02:23:44.45	203.99	10.21	-48.6	-50.6	22.2	6.02e-01	0	57	0	617086976	59	4790
2026-01-02 02:23:45.44	203.99	10.12	-48.6	-50.6	22.2	6.03e-01	0	57	0	619184128	59	4794
2026-01-02 02:23:46.43	204.00	10.02	-48.6	-50.6	22.2	6.02e-01	0	57	0	620756992	59	4809
2026-01-02 02:23:47.43	204.01	9.93	-48.7	-50.7	22.0	6.02e-01	0	57	0	622854144	59	4867
2026-01-02 02:23:48.41	204.02	9.84	-48.8	-50.9	21.9	6.02e-01	0	57	0	624427008	59	4949
2026-01-02 02:23:49.40	204.03	9.75	-48.6	-50.7	22.1	6.03e-01	0	57	0	626524160	59	4818
2026-01-02 02:23:50.39	204.03	9.66	-48.7	-50.7	22.1	6.00e-01	0	57	0	628097024	59	4867
2026-01-02 02:23:51.38	204.04	9.56	-48.8	-51.0	21.8	6.03e-01	0	57	0	630194176	59	4996
2026-01-02 02:23:52.38	204.05	9.47	-48.7	-51.0	21.5	6.01e-01	0	57	0	631767040	60	4712
2026-01-02 02:23:53.36	204.06	9.38	-48.9	-51.1	21.2	6.02e-01	0	57	0	633864192	60	4813
2026-01-02 02:23:54.35	204.06	9.29	-48.6	-50.8	21.6	6.03e-01	0	57	0	635961344	60	4623
2026-01-02 02:23:55.34	204.07	9.20	-48.5	-50.5	21.8	6.03e-01	0	57	0	637534208	60	4491
2026-01-02 02:23:56.33	204.08	9.12	-48.3	-50.4	22.0	6.04e-01	0	57	0	639107072	60	4413
2026-01-02 02:23:57.32	204.09	9.03	-48.2	-50.2	22.1	6.03e-01	0	57	0	641204224	60	4336
2026-01-02 02:23:58.30	204.10	8.94	-48.3	-50.3	22.0	6.02e-01	0	57	0	643301376	60	4377
2026-01-02 02:23:59.29	204.10	8.85	-48.2	-50.3	22.1	6.04e-01	0	57	0	644874240	60	4341
2026-01-02 02:24:00.29	204.11	8.76	-48.3	-50.3	22.0	6.02e-01	0	57	0	646971392	60	4385
2026-01-02 02:24:01.28	204.12	8.67	-48.4	-50.5	21.9	6.01e-01	0	57	0	648544256	60	4450
2026-01-02 02:24:02.26	204.13	8.59	-48.3	-50.4	21.9	6.02e-01	0	57	0	650641408	60	4419
2026-01-02 02:24:03.26	204.13	8.50	-48.3	-50.4	22.0	6.01e-01	0	57	0	652214272	60	4408
2026-01-02 02:24:04.25	204.14	8.41	-48.4	-50.5	21.8	6.03e-01	0	58	0	654311424	60	4474
2026-01-02 02:24:05.24	204.15	8.33	-48.5	-50.6	21.7	6.05e-01	0	57	0	655884288	60	4523
2026-01-02 02:24:06.23	204.16	8.24	-48.6	-50.8	21.5	6.06e-01	0	57	0	657981440	60	4633
2026-01-02 02:24:07.21	204.16	8.16	-48.5	-50.7	21.7	6.03e-01	0	57	0	659554304	60	4549
2026-01-02 02:24:08.20	204.17	8.07	-48.6	-50.9	21.4	6.03e-01	0	57	0	661651456	60	4661
2026-01-02 02:24:09.19	204.18	7.99	-48.9	-51.2	21.1	6.01e-01	0	57	0	663748608	60	4824
2026-01-02 02:24:10.18	204.18	7.90	-48.6	-50.8	21.4	6.05e-01	0	57	0	665321472	60	4646
2026-01-02 02:24:11.16	204.19	7.82	-48.6	-50.8	21.5	6.04e-01	0	57	0	667418624	60	4632
2026-01-02 02:24:12.16	204.20	7.74	-48.6	-50.8	21.5	6.03e-01	0	57	0	668991488	60	4600
2026-01-02 02:24:13.14	204.21	7.65	-48.6	-50.8	21.5	6.06e-01	0	57	0	671088640	60	4611
2026-01-02 02:24:14.13	204.21	7.57	-48.8	-51.1	21.2	6.02e-01	0	57	0	672661504	60	4761
2026-01-02 02:24:15.12	204.22	7.49	-48.7	-51.0	21.3	6.03e-01	0	57	0	674758656	60	4712
2026-01-02 02:24:16.11	204.23	7.40	-48.6	-50.9	21.4	6.02e-01	0	57	0	676331520	60	4665
2026-01-02 02:24:17.10	204.23	7.32	-48.6	-50.9	21.3	6.02e-01	0	57	0	678428672	60	4668
2026-01-02 02:24:18.09	204.24	7.24	-48.6	-50.9	21.4	6.02e-01	0	57	0	680001536	60	4654
2026-01-02 02:24:19.07	204.25	7.16	-48.6	-50.9	21.3	6.00e-01	0	57	0	682098688	60	4669
2026-01-02 02:24:20.05	204.26	7.08	-48.8	-51.1	21.1	6.02e-01	0	57	0	683671552	60	4791
2026-01-02 02:24:21.05	204.26	7.00	-48.7	-51.1	21.1	6.04e-01	0	57	0	685768704	60	4763
2026-01-02 02:24:22.04	204.27	6.92	-48.8	-51.2	21.0	6.01e-01	0	57	0	687865856	60	4827
2026-01-02 02:24:23.03	204.28	6.84	-48.7	-51.0	21.1	6.02e-01	0	57	0	689438720	60	4753
2026-01-02 02:24:24.02	204.28	6.76	-48.8	-51.1	21.1	6.02e-01	0	57	0	691535872	60	4788
2026-01-02 02:24:25.01	204.29	6.68	-48.8	-51.1	21.0	6.03e-01	0	57	0	693108736	60	4806
2026-01-02 02:24:26.00	204.30	6.60	-48.9	-51.3	20.8	6.02e-01	0	58	0	695205888	60	4921
2026-01-02 02:24:26.99	204.30	6.52	-48.9	-51.3	20.8	6.02e-01	0	57	0	696778752	60	4907
2026-01-02 02:24:27.98	204.31	6.44	-48.8	-51.1	21.0	6.01e-01	0	57	0	698875904	60	4810
2026-01-02 02:24:28.96	204.32	6.36	-48.7	-51.0	21.1	6.04e-01	0	57	0	700448768	60	4741
2026-01-02 02:24:29.95	204.33	6.28	-48.7	-51.1	21.0	6.03e-01	0	57	0	702545920	60	4795
2026-01-02 02:24:30.93	204.33	6.20	-48.8	-51.2	20.8	6.06e-01	0	57	0	704118784	60	4856
2026-01-02 02:24:31.92	204.34	6.12	-48.8	-51.3	20.8	6.01e-01	0	57	0	706215936	60	4871
2026-01-02 02:24:32.91	204.35	6.05	-48.8	-51.2	20.8	6.00e-01	0	57	0	707788800	60	4846
2026-01-02 02:24:33.89	204.35	5.97	-48.9	-51.3	20.7	6.07e-01	0	58	0	709885952	60	4902
2026-01-02 02:24:34.88	204.36	5.89	-49.0	-51.5	20.5	6.00e-01	0	57	0	711458816	60	5031
2026-01-02 02:24:35.87	204.37	5.82	-49.0	-51.5	20.4	6.03e-01	0	57	0	713555968	60	5041
2026-01-02 02:24:36.86	204.37	5.74	-49.0	-51.6	20.4	6.03e-01	0	58	0	715653120	60	5065
