passes_logs/2026/01/02/R3.0SM8_Murmansk_STILSPACE/R3.0SM8_Murmansk_STILSPACE__20260102_232630_NOAA_21_JPSS-2_rec.log

#Pass ID: 20260102_232630_NOAA 21 (JPSS-2)
#Satellite: NOAA 21 (JPSS-2)
#Configuration: NOAA-21
#almurnet v.1.7.20240730
#Start time: 2026-01-02 23:26:53

#Version: 2.2.20231116
#Station: R3.0SM8_Murmansk_STILSPACE
#Location: 33.092731 lon 68.902999 lat
#TLE: 1 54234U 22150A   26002.25486487  .00000200  00000+0  11573-3 0  9993
#TLE: 2 54234  98.7485 303.3096 0001220 350.9074   9.2080 14.19531212163006

#Time	Az	El	Level	Level2	SNR	BER	BlckErr	Temp	State	Recorded	gain1	gain2
2026-01-02 23:26:53.03	22.25	4.43	-53.3	-64.1	3.8	8.47e-01	0	57	0	0	68	13143
2026-01-02 23:26:54.01	22.30	4.50	-53.4	-64.9	3.8	1.49e+00	0	57	104	0	69	13604
2026-01-02 23:26:55.00	22.34	4.56	-53.4	-64.9	3.8	1.49e+00	0	57	104	0	69	13646
2026-01-02 23:26:55.99	22.38	4.63	-53.4	-64.9	3.8	1.49e+00	0	57	104	0	69	13628
2026-01-02 23:26:56.98	22.43	4.70	-53.3	-64.9	3.8	1.49e+00	0	57	104	0	69	13588
2026-01-02 23:26:57.97	22.47	4.76	-53.3	-64.9	3.8	1.49e+00	0	57	104	0	69	13613
2026-01-02 23:26:58.96	22.52	4.83	-53.4	-64.9	3.8	1.49e+00	0	57	104	0	69	13596
2026-01-02 23:26:59.95	22.56	4.90	-53.4	-64.9	3.8	1.49e+00	0	57	104	0	69	13660
2026-01-02 23:27:00.95	22.61	4.96	-53.3	-64.9	3.8	1.49e+00	0	57	104	0	69	13664
2026-01-02 23:27:01.93	22.65	5.03	-53.4	-64.9	3.8	1.49e+00	0	57	104	0	69	13700
2026-01-02 23:27:02.92	22.70	5.10	-53.4	-64.9	3.8	1.49e+00	0	57	104	0	69	13688
2026-01-02 23:27:03.91	22.75	5.16	-53.4	-64.9	3.8	1.49e+00	0	57	104	0	69	13663
2026-01-02 23:27:04.90	22.79	5.23	-53.4	-64.9	3.8	1.49e+00	0	57	104	0	69	13651
2026-01-02 23:27:05.88	22.84	5.30	-53.4	-64.9	3.8	1.49e+00	0	57	104	0	69	13665
2026-01-02 23:27:06.87	22.88	5.37	-53.3	-64.9	3.8	1.49e+00	0	57	104	0	69	13617
2026-01-02 23:27:07.87	22.93	5.43	-53.4	-64.9	3.8	1.49e+00	0	57	104	0	69	13654
2026-01-02 23:27:08.85	22.98	5.50	-53.2	-64.9	3.8	1.49e+00	0	57	104	0	69	13601
2026-01-02 23:27:09.84	23.02	5.57	-53.4	-64.9	3.8	1.49e+00	0	57	104	0	69	13599
2026-01-02 23:27:10.83	23.07	5.64	-53.4	-64.8	3.8	1.49e+00	0	57	104	0	69	13555
2026-01-02 23:27:11.83	23.12	5.71	-53.4	-64.8	3.8	1.49e+00	0	57	104	0	69	13529
2026-01-02 23:27:12.82	23.17	5.78	-53.3	-64.8	3.8	1.49e+00	0	57	104	0	69	13516
2026-01-02 23:27:13.80	23.21	5.85	-53.1	-64.7	3.8	1.49e+00	0	57	104	0	69	13281
2026-01-02 23:27:14.79	23.26	5.91	-52.0	-63.5	3.8	1.49e+00	0	57	104	0	67	13083
2026-01-02 23:27:15.78	23.31	5.98	-52.8	-64.4	3.8	1.49e+00	0	57	104	0	67	14377
2026-01-02 23:27:16.77	23.36	6.05	-53.1	-64.7	3.8	1.49e+00	0	57	104	0	68	14177
2026-01-02 23:27:17.76	23.41	6.12	-53.2	-64.7	3.8	1.49e+00	0	57	104	0	68	14169
2026-01-02 23:27:18.75	23.45	6.19	-53.1	-64.7	3.8	1.49e+00	0	57	104	0	68	14104
2026-01-02 23:27:19.73	23.50	6.26	-53.0	-64.6	3.8	1.49e+00	0	57	104	0	68	13985
2026-01-02 23:27:20.72	23.55	6.33	-52.8	-64.6	3.8	1.49e+00	0	58	104	0	68	13953
2026-01-02 23:27:21.72	23.60	6.40	-53.0	-64.5	3.8	1.49e+00	0	57	104	0	68	13824
2026-01-02 23:27:22.71	23.65	6.47	-52.9	-64.4	3.8	1.49e+00	0	57	104	0	68	13600
2026-01-02 23:27:23.70	23.70	6.54	-52.7	-64.2	3.8	1.49e+00	0	57	104	0	68	13336
2026-01-02 23:27:24.69	23.75	6.62	-52.6	-63.7	3.8	1.49e+00	0	57	104	0	68	12615
2026-01-02 23:27:25.67	23.80	6.69	-52.5	-63.3	3.8	1.49e+00	0	57	104	0	67	12694
2026-01-02 23:27:26.66	23.85	6.76	-52.4	-62.8	3.8	1.49e+00	0	57	104	0	67	12021
2026-01-02 23:27:27.66	23.90	6.83	-52.3	-62.0	3.9	1.49e+00	0	57	104	0	67	10972
2026-01-02 23:27:28.64	23.95	6.90	-52.2	-60.7	3.9	1.47e+00	0	57	104	0	67	9403
2026-01-02 23:27:29.62	24.00	6.97	-51.9	-59.6	4.5	1.45e+00	8	57	104	0	67	8284
2026-01-02 23:27:30.61	24.05	7.04	-51.7	-58.6	4.9	1.47e+00	0	57	104	0	66	7814
2026-01-02 23:27:31.60	24.11	7.12	-51.5	-57.7	5.5	5.25e-01	0	57	0	2097152	66	7042
2026-01-02 23:27:32.59	24.16	7.19	-51.3	-56.7	6.1	3.18e-01	0	57	0	5242880	65	6709
2026-01-02 23:27:33.57	24.21	7.26	-51.1	-56.0	6.8	2.14e-01	0	57	0	8388608	65	6144
2026-01-02 23:27:34.55	24.26	7.33	-50.7	-55.1	7.6	1.19e-01	0	57	0	11534336	64	5910
2026-01-02 23:27:35.54	24.31	7.40	-50.5	-54.4	8.3	5.99e-02	0	57	0	14680064	64	5423
2026-01-02 23:27:36.53	24.37	7.48	-50.2	-53.7	9.1	2.42e-02	0	57	0	17825792	63	5306
2026-01-02 23:27:37.53	24.42	7.55	-49.8	-52.9	10.0	9.40e-03	0	57	0	20971520	62	5105
2026-01-02 23:27:38.52	24.47	7.62	-49.4	-52.1	10.7	4.08e-03	0	57	0	24117248	61	4967
2026-01-02 23:27:39.52	24.53	7.70	-48.9	-51.3	11.6	9.87e-04	0	57	0	27262976	61	4534
2026-01-02 23:27:40.51	24.58	7.77	-48.5	-50.7	12.2	2.68e-04	0	57	0	30408704	60	4459
2026-01-02 23:27:41.50	24.64	7.85	-48.2	-50.2	12.7	6.71e-05	0	57	0	33554432	59	4473
2026-01-02 23:27:42.49	24.69	7.92	-47.9	-49.7	13.3	3.28e-05	0	57	0	35651584	59	4227
2026-01-02 23:27:43.48	24.74	8.00	-47.7	-49.4	13.5	8.30e-06	0	57	0	38797312	58	4337
2026-01-02 23:27:44.46	24.80	8.07	-47.6	-49.2	13.8	5.30e-06	0	57	0	41943040	58	4230
2026-01-02 23:27:45.45	24.85	8.14	-47.4	-49.1	13.9	2.20e-06	0	58	0	45088768	58	4161
2026-01-02 23:27:46.44	24.91	8.22	-47.5	-49.1	13.9	2.20e-06	0	57	0	48234496	58	4188
2026-01-02 23:27:47.43	24.96	8.30	-47.5	-49.2	13.8	3.00e-06	0	57	0	51380224	58	4199
2026-01-02 23:27:48.42	25.02	8.37	-47.4	-49.0	14.0	5.30e-06	0	57	0	54525952	57	4375
2026-01-02 23:27:49.41	25.08	8.45	-47.4	-49.1	13.9	1.50e-06	0	57	0	57671680	57	4409
2026-01-02 23:27:50.40	25.13	8.52	-47.4	-49.1	13.9	2.20e-06	0	57	0	60817408	57	4435
2026-01-02 23:27:51.39	25.19	8.60	-47.4	-49.1	13.9	1.50e-06	0	57	0	63963136	57	4415
2026-01-02 23:27:52.37	25.25	8.67	-47.3	-49.0	14.0	3.00e-06	0	57	0	67108864	57	4353
2026-01-02 23:27:53.37	25.30	8.75	-47.4	-49.0	14.0	7.00e-07	0	57	0	70254592	57	4361
2026-01-02 23:27:54.35	25.36	8.83	-47.4	-49.1	14.0	3.00e-06	0	57	0	73400320	57	4404
2026-01-02 23:27:55.34	25.42	8.90	-47.5	-49.1	13.9	6.80e-06	0	57	0	76546048	57	4432
2026-01-02 23:27:56.33	25.48	8.98	-47.1	-48.7	14.4	7.00e-07	0	57	0	79691776	57	4215
2026-01-02 23:27:57.32	25.53	9.06	-46.9	-48.4	14.7	0.00e+00	0	57	0	82837504	57	4073
2026-01-02 23:27:58.32	25.59	9.14	-46.8	-48.2	14.9	0.00e+00	0	57	0	85983232	56	4209
2026-01-02 23:27:59.31	25.65	9.21	-46.7	-48.1	15.0	0.00e+00	0	57	0	89128960	56	4168
2026-01-02 23:28:00.30	25.71	9.29	-46.6	-48.0	15.1	0.00e+00	0	57	0	92274688	56	4130
2026-01-02 23:28:01.29	25.77	9.37	-46.6	-48.0	15.1	7.00e-07	0	57	0	95420416	56	4106
2026-01-02 23:28:02.28	25.83	9.45	-46.7	-48.1	15.0	0.00e+00	0	57	0	97517568	56	4156
2026-01-02 23:28:03.26	25.89	9.53	-46.8	-48.2	14.9	0.00e+00	0	57	0	100663296	56	4223
2026-01-02 23:28:04.25	25.95	9.61	-46.5	-47.9	15.2	0.00e+00	0	57	0	103809024	56	4069
2026-01-02 23:28:05.24	26.01	9.69	-46.4	-47.7	15.4	0.00e+00	0	57	0	106954752	56	3984
2026-01-02 23:28:06.23	26.07	9.76	-46.3	-47.6	15.4	0.00e+00	0	57	0	110100480	55	4149
2026-01-02 23:28:07.22	26.13	9.84	-46.3	-47.5	15.5	0.00e+00	0	57	0	113246208	55	4139
2026-01-02 23:28:08.21	26.19	9.92	-46.2	-47.5	15.5	0.00e+00	0	57	0	116391936	55	4126
2026-01-02 23:28:09.20	26.26	10.00	-46.3	-47.6	15.4	0.00e+00	0	57	0	119537664	55	4169
2026-01-02 23:28:10.19	26.32	10.08	-46.4	-47.7	15.3	0.00e+00	0	57	0	122683392	55	4215
2026-01-02 23:28:11.18	26.38	10.17	-46.3	-47.5	15.5	0.00e+00	0	57	0	125829120	55	4145
2026-01-02 23:28:12.18	26.44	10.25	-46.2	-47.4	15.6	0.00e+00	0	58	0	128974848	55	4087
2026-01-02 23:28:13.17	26.51	10.33	-46.2	-47.5	15.6	0.00e+00	0	57	0	132120576	55	4108
2026-01-02 23:28:14.17	26.57	10.41	-46.4	-47.6	15.4	0.00e+00	0	57	0	135266304	55	4176
2026-01-02 23:28:15.16	26.63	10.49	-46.4	-47.7	15.4	0.00e+00	0	57	0	138412032	55	4196
2026-01-02 23:28:16.15	26.70	10.57	-46.4	-47.7	15.3	7.00e-07	0	57	0	141557760	55	4233
2026-01-02 23:28:17.14	26.76	10.66	-46.3	-47.6	15.5	0.00e+00	0	57	0	144703488	55	4153
2026-01-02 23:28:18.13	26.83	10.74	-46.2	-47.5	15.6	0.00e+00	0	57	0	147849216	55	4109
2026-01-02 23:28:19.11	26.89	10.82	-46.3	-47.5	15.5	0.00e+00	0	57	0	150994944	55	4135
2026-01-02 23:28:20.10	26.96	10.90	-46.2	-47.5	15.5	0.00e+00	0	57	0	154140672	55	4121
2026-01-02 23:28:21.09	27.02	10.98	-46.4	-47.8	15.3	0.00e+00	0	57	0	157286400	55	4247
2026-01-02 23:28:22.08	27.09	11.07	-46.4	-47.7	15.4	0.00e+00	0	57	0	160432128	55	4225
2026-01-02 23:28:23.07	27.16	11.15	-46.4	-47.7	15.4	0.00e+00	0	57	0	162529280	55	4206
2026-01-02 23:28:24.06	27.22	11.24	-46.5	-47.9	15.2	0.00e+00	0	57	0	165675008	55	4327
2026-01-02 23:28:25.05	27.29	11.32	-46.4	-47.7	15.4	7.00e-07	0	57	0	168820736	55	4229
2026-01-02 23:28:26.04	27.36	11.40	-46.4	-47.6	15.5	0.00e+00	0	57	0	171966464	55	4191
2026-01-02 23:28:27.03	27.43	11.49	-46.4	-47.6	15.4	0.00e+00	0	57	0	175112192	55	4188
2026-01-02 23:28:28.02	27.49	11.57	-46.3	-47.6	15.5	0.00e+00	0	57	0	178257920	55	4165
2026-01-02 23:28:29.01	27.56	11.66	-46.5	-47.8	15.3	0.00e+00	0	57	0	181403648	55	4280
2026-01-02 23:28:29.99	27.63	11.74	-46.3	-47.6	15.5	0.00e+00	0	58	0	184549376	55	4177
2026-01-02 23:28:30.98	27.70	11.83	-46.1	-47.3	15.8	0.00e+00	0	57	0	187695104	55	4040
2026-01-02 23:28:31.96	27.77	11.91	-45.9	-47.1	16.0	0.00e+00	0	57	0	190840832	55	3937
2026-01-02 23:28:32.95	27.84	12.00	-45.8	-47.0	16.2	0.00e+00	0	57	0	193986560	54	4106
2026-01-02 23:28:33.94	27.91	12.09	-45.9	-47.0	16.1	0.00e+00	0	57	0	197132288	54	4121
2026-01-02 23:28:34.93	27.98	12.17	-45.9	-47.0	16.1	0.00e+00	0	58	0	200278016	54	4140
2026-01-02 23:28:35.92	28.05	12.26	-45.9	-47.0	16.1	0.00e+00	0	57	0	203423744	54	4138
2026-01-02 23:28:36.90	28.12	12.34	-46.1	-47.3	15.8	0.00e+00	0	57	0	206569472	54	4268
2026-01-02 23:28:37.90	28.20	12.43	-45.9	-47.0	16.1	0.00e+00	0	57	0	209715200	54	4127
2026-01-02 23:28:38.89	28.27	12.52	-45.7	-46.8	16.3	0.00e+00	0	57	0	212860928	54	4024
2026-01-02 23:28:39.88	28.34	12.61	-45.5	-46.6	16.5	0.00e+00	0	57	0	214958080	54	3947
2026-01-02 23:28:40.87	28.41	12.70	-45.6	-46.6	16.5	0.00e+00	0	57	0	218103808	54	3949
2026-01-02 23:28:41.87	28.49	12.79	-45.5	-46.6	16.5	0.00e+00	0	57	0	221249536	54	3935
2026-01-02 23:28:42.86	28.56	12.88	-45.6	-46.7	16.5	0.00e+00	0	57	0	224395264	54	3979
2026-01-02 23:28:43.85	28.64	12.96	-45.5	-46.6	16.6	0.00e+00	0	57	0	227540992	54	3930
2026-01-02 23:28:44.84	28.71	13.05	-45.4	-46.5	16.6	0.00e+00	0	57	0	230686720	54	3893
2026-01-02 23:28:45.82	28.79	13.14	-45.5	-46.5	16.7	0.00e+00	0	57	0	233832448	54	3897
2026-01-02 23:28:46.81	28.86	13.23	-45.6	-46.7	16.5	0.00e+00	0	57	0	236978176	54	3982
2026-01-02 23:28:47.80	28.94	13.32	-45.5	-46.6	16.6	0.00e+00	0	57	0	240123904	54	3945
2026-01-02 23:28:48.79	29.02	13.41	-45.4	-46.5	16.7	0.00e+00	0	57	0	243269632	54	3883
2026-01-02 23:28:49.77	29.09	13.50	-45.4	-46.5	16.7	0.00e+00	0	57	0	246415360	54	3887
2026-01-02 23:28:50.77	29.17	13.60	-45.5	-46.6	16.6	0.00e+00	0	57	0	249561088	54	3932
2026-01-02 23:28:51.76	29.25	13.69	-45.6	-46.7	16.5	0.00e+00	0	57	0	252706816	54	3988
2026-01-02 23:28:52.75	29.33	13.78	-45.6	-46.7	16.5	0.00e+00	0	57	0	255852544	54	3966
2026-01-02 23:28:53.74	29.41	13.87	-45.5	-46.6	16.6	0.00e+00	0	58	0	258998272	54	3937
2026-01-02 23:28:54.73	29.49	13.96	-45.6	-46.6	16.6	0.00e+00	0	57	0	262144000	54	3942
2026-01-02 23:28:55.71	29.56	14.06	-45.6	-46.7	16.5	0.00e+00	0	57	0	265289728	54	3985
2026-01-02 23:28:56.70	29.64	14.15	-45.6	-46.7	16.5	0.00e+00	0	57	0	268435456	54	4001
2026-01-02 23:28:57.69	29.73	14.24	-45.7	-46.8	16.4	0.00e+00	0	57	0	271581184	54	4024
2026-01-02 23:28:58.68	29.81	14.33	-45.9	-47.0	16.2	0.00e+00	0	57	0	274726912	54	4127
2026-01-02 23:28:59.67	29.89	14.43	-45.8	-47.0	16.2	0.00e+00	0	57	0	276824064	54	4108
2026-01-02 23:29:00.67	29.97	14.52	-45.9	-47.1	16.1	0.00e+00	0	57	0	279969792	54	4154
2026-01-02 23:29:01.65	30.05	14.62	-46.0	-47.2	16.0	0.00e+00	0	57	0	283115520	54	4217
2026-01-02 23:29:02.64	30.14	14.71	-46.0	-47.2	16.1	0.00e+00	0	57	0	286261248	54	4203
2026-01-02 23:29:03.64	30.22	14.81	-46.0	-47.2	16.1	0.00e+00	0	57	0	289406976	54	4203
2026-01-02 23:29:04.63	30.31	14.90	-46.0	-47.2	16.1	0.00e+00	0	58	0	292552704	54	4196
2026-01-02 23:29:05.62	30.39	15.00	-46.0	-47.2	16.0	0.00e+00	0	57	0	295698432	54	4227
2026-01-02 23:29:06.60	30.48	15.09	-46.2	-47.4	15.8	0.00e+00	0	57	0	298844160	54	4323
2026-01-02 23:29:07.59	30.56	15.19	-46.1	-47.3	15.9	0.00e+00	0	57	0	301989888	54	4279
2026-01-02 23:29:08.58	30.65	15.29	-46.2	-47.5	15.7	0.00e+00	0	57	0	305135616	54	4364
2026-01-02 23:29:09.57	30.73	15.39	-46.2	-47.4	15.9	0.00e+00	0	57	0	308281344	54	4318
2026-01-02 23:29:10.56	30.82	15.48	-46.0	-47.1	16.2	0.00e+00	0	57	0	311427072	54	4161
2026-01-02 23:29:11.55	30.91	15.58	-45.9	-47.0	16.2	0.00e+00	0	57	0	314572800	54	4137
2026-01-02 23:29:12.54	31.00	15.68	-46.0	-47.1	16.2	0.00e+00	0	57	0	317718528	54	4159
2026-01-02 23:29:13.53	31.09	15.78	-46.0	-47.1	16.1	0.00e+00	0	57	0	320864256	54	4193
2026-01-02 23:29:14.52	31.18	15.88	-46.0	-47.1	16.2	0.00e+00	0	57	0	324009984	54	4174
2026-01-02 23:29:15.50	31.27	15.97	-46.0	-47.1	16.1	0.00e+00	0	57	0	327155712	54	4183
2026-01-02 23:29:16.50	31.36	16.07	-46.2	-47.4	15.9	0.00e+00	0	57	0	330301440	54	4328
2026-01-02 23:29:17.49	31.45	16.17	-46.2	-47.4	15.9	0.00e+00	0	57	0	333447168	54	4323
2026-01-02 23:29:18.49	31.54	16.28	-46.0	-47.2	16.1	0.00e+00	0	57	0	336592896	54	4229
2026-01-02 23:29:19.48	31.63	16.38	-46.1	-47.2	16.1	0.00e+00	0	57	0	338690048	54	4241
2026-01-02 23:29:20.47	31.73	16.48	-46.2	-47.4	15.9	0.00e+00	0	57	0	341835776	54	4333
2026-01-02 23:29:21.46	31.82	16.58	-46.3	-47.5	15.8	0.00e+00	0	57	0	344981504	54	4357
2026-01-02 23:29:22.45	31.92	16.68	-46.3	-47.5	15.8	0.00e+00	0	57	0	348127232	54	4370
2026-01-02 23:29:23.44	32.01	16.78	-46.4	-47.6	15.7	0.00e+00	0	57	0	351272960	54	4431
2026-01-02 23:29:24.43	32.11	16.88	-46.3	-47.6	15.7	0.00e+00	0	57	0	354418688	54	4424
2026-01-02 23:29:25.42	32.20	16.99	-46.3	-47.4	15.9	0.00e+00	0	57	0	357564416	54	4337
2026-01-02 23:29:26.42	32.30	17.09	-46.1	-47.3	16.0	0.00e+00	0	58	0	360710144	54	4255
2026-01-02 23:29:27.41	32.40	17.19	-46.1	-47.2	16.1	0.00e+00	0	57	0	363855872	54	4231
2026-01-02 23:29:28.40	32.50	17.30	-46.1	-47.2	16.1	0.00e+00	0	57	0	367001600	54	4242
2026-01-02 23:29:29.37	32.59	17.40	-46.1	-47.2	16.1	0.00e+00	0	57	0	370147328	54	4225
2026-01-02 23:29:30.35	32.69	17.50	-46.2	-47.3	16.0	0.00e+00	0	57	0	373293056	54	4285
2026-01-02 23:29:31.35	32.79	17.61	-46.2	-47.4	15.9	0.00e+00	0	57	0	376438784	54	4334
2026-01-02 23:29:32.34	32.89	17.71	-46.2	-47.4	16.0	0.00e+00	0	57	0	379584512	54	4301
2026-01-02 23:29:33.33	32.99	17.82	-46.2	-47.4	15.9	0.00e+00	0	57	0	382730240	54	4319
2026-01-02 23:29:34.31	33.09	17.92	-46.3	-47.6	15.8	0.00e+00	0	57	0	385875968	54	4398
2026-01-02 23:29:35.31	33.20	18.03	-46.5	-47.7	15.6	0.00e+00	0	57	0	389021696	54	4477
2026-01-02 23:29:36.30	33.30	18.14	-46.3	-47.6	15.7	0.00e+00	0	57	0	392167424	54	4408
2026-01-02 23:29:37.28	33.40	18.24	-46.3	-47.5	15.8	0.00e+00	0	57	0	395313152	54	4381
2026-01-02 23:29:38.28	33.51	18.35	-46.4	-47.6	15.7	0.00e+00	0	57	0	397410304	54	4436
2026-01-02 23:29:39.27	33.62	18.46	-46.4	-47.6	15.7	0.00e+00	0	57	0	400556032	54	4436
2026-01-02 23:29:40.25	33.72	18.57	-46.2	-47.4	16.0	0.00e+00	0	57	0	403701760	54	4304
2026-01-02 23:29:41.24	33.83	18.68	-46.1	-47.2	16.1	0.00e+00	0	57	0	406847488	54	4235
2026-01-02 23:29:42.23	33.93	18.79	-46.0	-47.2	16.2	0.00e+00	0	57	0	409993216	54	4208
2026-01-02 23:29:43.22	34.04	18.89	-46.0	-47.1	16.3	0.00e+00	0	57	0	413138944	54	4156
2026-01-02 23:29:44.21	34.15	19.00	-45.9	-47.1	16.3	0.00e+00	0	58	0	416284672	54	4167
2026-01-02 23:29:45.20	34.26	19.11	-45.7	-46.8	16.6	0.00e+00	0	57	0	419430400	54	4007
2026-01-02 23:29:46.19	34.37	19.23	-45.6	-46.7	16.7	0.00e+00	0	57	0	422576128	54	3961
2026-01-02 23:29:47.18	34.48	19.34	-45.6	-46.6	16.8	0.00e+00	0	58	0	425721856	54	3939
2026-01-02 23:29:48.18	34.60	19.45	-45.5	-46.5	16.8	0.00e+00	0	57	0	428867584	54	3895
2026-01-02 23:29:49.17	34.71	19.56	-45.5	-46.6	16.8	0.00e+00	0	57	0	432013312	54	3920
2026-01-02 23:29:50.16	34.82	19.67	-45.6	-46.7	16.7	0.00e+00	0	57	0	435159040	54	3971
2026-01-02 23:29:51.15	34.94	19.79	-45.7	-46.8	16.6	0.00e+00	0	57	0	438304768	54	4012
2026-01-02 23:29:52.14	35.05	19.90	-45.5	-46.6	16.8	0.00e+00	0	57	0	441450496	54	3917
2026-01-02 23:29:53.12	35.17	20.01	-45.4	-46.4	17.0	0.00e+00	0	57	0	444596224	53	4056
2026-01-02 23:29:54.12	35.29	20.13	-45.3	-46.3	17.0	0.00e+00	0	57	0	447741952	53	4022
2026-01-02 23:29:55.11	35.41	20.24	-45.3	-46.3	17.0	0.00e+00	0	57	0	450887680	53	4026
2026-01-02 23:29:56.09	35.52	20.35	-45.1	-46.1	17.2	0.00e+00	0	57	0	454033408	53	3923
2026-01-02 23:29:57.08	35.64	20.47	-45.2	-46.2	17.1	0.00e+00	0	57	0	457179136	53	3984
2026-01-02 23:29:58.07	35.76	20.58	-45.0	-45.9	17.4	0.00e+00	0	57	0	459276288	53	3843
2026-01-02 23:29:59.06	35.88	20.70	-44.8	-45.7	17.6	0.00e+00	0	57	0	462422016	52	3986
2026-01-02 23:30:00.04	36.00	20.81	-44.8	-45.7	17.6	0.00e+00	0	57	0	465567744	52	3993
2026-01-02 23:30:01.04	36.13	20.93	-44.6	-45.5	17.8	0.00e+00	0	57	0	468713472	52	3898
2026-01-02 23:30:02.02	36.25	21.05	-44.6	-45.5	17.8	0.00e+00	0	57	0	471859200	52	3878
2026-01-02 23:30:03.02	36.38	21.17	-44.5	-45.3	18.0	0.00e+00	0	57	0	475004928	52	3814
2026-01-02 23:30:04.00	36.50	21.28	-44.4	-45.3	18.0	0.00e+00	0	57	0	478150656	52	3791
2026-01-02 23:30:05.00	36.63	21.40	-44.6	-45.4	17.9	0.00e+00	0	57	0	481296384	52	3865
2026-01-02 23:30:05.98	36.76	21.52	-44.5	-45.3	18.0	0.00e+00	0	57	0	484442112	52	3794
2026-01-02 23:30:06.97	36.89	21.64	-44.4	-45.3	18.1	0.00e+00	0	57	0	487587840	52	3782
2026-01-02 23:30:07.96	37.02	21.76	-44.4	-45.3	18.0	0.00e+00	0	57	0	490733568	52	3788
2026-01-02 23:30:08.94	37.14	21.88	-44.6	-45.4	17.9	0.00e+00	0	57	0	493879296	52	3850
2026-01-02 23:30:09.94	37.28	22.00	-44.8	-45.6	17.7	0.00e+00	0	57	0	497025024	52	3949
2026-01-02 23:30:10.93	37.41	22.12	-44.6	-45.5	17.8	0.00e+00	0	57	0	500170752	52	3892
2026-01-02 23:30:11.92	37.54	22.24	-44.6	-45.4	17.9	0.00e+00	0	57	0	503316480	52	3861
2026-01-02 23:30:12.90	37.68	22.36	-44.6	-45.5	17.8	0.00e+00	0	57	0	506462208	52	3894
2026-01-02 23:30:13.90	37.81	22.48	-44.8	-45.7	17.7	0.00e+00	0	58	0	509607936	52	3959
2026-01-02 23:30:14.89	37.95	22.61	-45.0	-45.9	17.5	0.00e+00	0	57	0	512753664	52	4072
2026-01-02 23:30:15.88	38.09	22.73	-44.7	-45.6	17.8	0.00e+00	0	57	0	515899392	52	3924
2026-01-02 23:30:16.87	38.23	22.85	-44.9	-45.8	17.5	0.00e+00	0	57	0	517996544	52	4031
2026-01-02 23:30:17.86	38.37	22.98	-44.8	-45.7	17.7	0.00e+00	0	57	0	521142272	52	3963
2026-01-02 23:30:18.85	38.51	23.10	-44.6	-45.5	17.9	0.00e+00	0	57	0	524288000	52	3877
2026-01-02 23:30:19.84	38.65	23.23	-44.5	-45.4	18.0	0.00e+00	0	57	0	527433728	52	3839
2026-01-02 23:30:20.83	38.79	23.35	-44.6	-45.5	17.9	0.00e+00	0	57	0	530579456	52	3884
2026-01-02 23:30:21.82	38.94	23.48	-44.8	-45.7	17.6	0.00e+00	0	57	0	533725184	52	3993
2026-01-02 23:30:22.81	39.08	23.60	-45.2	-46.1	17.3	0.00e+00	0	57	0	536870912	52	4175
2026-01-02 23:30:23.81	39.23	23.73	-44.9	-45.8	17.5	0.00e+00	0	57	0	540016640	52	4051
2026-01-02 23:30:24.80	39.38	23.86	-44.7	-45.6	17.8	0.00e+00	0	57	0	543162368	52	3915
2026-01-02 23:30:25.79	39.52	23.98	-44.5	-45.3	18.0	0.00e+00	0	57	0	546308096	52	3817
2026-01-02 23:30:26.78	39.67	24.11	-44.5	-45.3	18.0	0.00e+00	0	57	0	549453824	52	3804
2026-01-02 23:30:27.77	39.83	24.24	-44.5	-45.4	18.0	0.00e+00	0	57	0	552599552	52	3838
2026-01-02 23:30:28.75	39.98	24.37	-44.5	-45.3	18.0	0.00e+00	0	57	0	555745280	52	3820
2026-01-02 23:30:29.74	40.13	24.50	-44.5	-45.3	18.0	0.00e+00	0	57	0	558891008	52	3818
2026-01-02 23:30:30.72	40.28	24.63	-44.7	-45.5	17.9	0.00e+00	0	57	0	562036736	52	3903
2026-01-02 23:30:31.70	40.44	24.75	-44.8	-45.6	17.7	0.00e+00	0	57	0	565182464	52	3956
2026-01-02 23:30:32.69	40.59	24.88	-44.9	-45.8	17.6	0.00e+00	0	57	0	568328192	52	4037
2026-01-02 23:30:33.67	40.75	25.01	-44.9	-45.9	17.5	0.00e+00	0	57	0	571473920	52	4056
2026-01-02 23:30:34.66	40.91	25.14	-45.1	-46.0	17.4	0.00e+00	0	57	0	574619648	52	4132
2026-01-02 23:30:35.64	41.07	25.27	-45.1	-46.1	17.3	0.00e+00	0	57	0	577765376	52	4154
2026-01-02 23:30:36.63	41.23	25.41	-45.1	-46.1	17.3	0.00e+00	0	57	0	580911104	52	4170
2026-01-02 23:30:37.62	41.40	25.54	-45.2	-46.2	17.2	0.00e+00	0	57	0	583008256	52	4219
2026-01-02 23:30:38.61	41.56	25.67	-45.2	-46.1	17.2	0.00e+00	0	57	0	586153984	52	4193
2026-01-02 23:30:39.59	41.72	25.80	-45.1	-46.0	17.4	0.00e+00	0	57	0	589299712	52	4133
2026-01-02 23:30:40.58	41.89	25.94	-45.1	-46.0	17.3	0.00e+00	0	57	0	592445440	52	4145
2026-01-02 23:30:41.57	42.06	26.07	-45.2	-46.2	17.3	0.00e+00	0	57	0	595591168	52	4199
2026-01-02 23:30:42.56	42.23	26.21	-45.4	-46.4	17.1	0.00e+00	0	57	0	598736896	52	4296
2026-01-02 23:30:43.56	42.40	26.34	-45.4	-46.4	17.0	0.00e+00	0	57	0	601882624	52	4320
2026-01-02 23:30:44.55	42.58	26.48	-45.4	-46.4	17.0	0.00e+00	0	57	0	605028352	52	4326
2026-01-02 23:30:45.54	42.75	26.61	-45.3	-46.3	17.1	0.00e+00	0	57	0	608174080	52	4259
2026-01-02 23:30:46.52	42.93	26.75	-45.2	-46.2	17.2	0.00e+00	0	57	0	611319808	52	4207
2026-01-02 23:30:47.52	43.11	26.89	-45.2	-46.1	17.3	0.00e+00	0	57	0	614465536	52	4192
2026-01-02 23:30:48.50	43.28	27.02	-45.2	-46.2	17.2	0.00e+00	0	57	0	617611264	52	4229
2026-01-02 23:30:49.48	43.46	27.16	-45.2	-46.1	17.3	0.00e+00	0	57	0	620756992	52	4190
2026-01-02 23:30:50.47	43.64	27.30	-45.2	-46.1	17.4	0.00e+00	0	57	0	623902720	52	4161
2026-01-02 23:30:51.46	43.83	27.43	-45.2	-46.1	17.3	0.00e+00	0	57	0	627048448	52	4172
2026-01-02 23:30:52.45	44.01	27.57	-45.2	-46.2	17.2	0.00e+00	0	57	0	630194176	52	4211
2026-01-02 23:30:53.44	44.20	27.71	-45.5	-46.5	17.0	0.00e+00	0	57	0	633339904	52	4352
2026-01-02 23:30:54.42	44.39	27.85	-45.5	-46.5	17.0	0.00e+00	0	57	0	635437056	52	4366
2026-01-02 23:30:55.41	44.58	27.99	-45.6	-46.7	16.8	0.00e+00	0	57	0	638582784	53	4203
2026-01-02 23:30:56.40	44.77	28.13	-45.7	-46.7	16.8	0.00e+00	0	58	0	641728512	53	4221
2026-01-02 23:30:57.38	44.96	28.27	-45.6	-46.7	16.7	0.00e+00	0	57	0	644874240	53	4210
2026-01-02 23:30:58.37	45.15	28.41	-45.6	-46.6	16.9	0.00e+00	0	57	0	648019968	53	4159
2026-01-02 23:30:59.37	45.35	28.55	-45.6	-46.6	16.8	0.00e+00	0	57	0	651165696	53	4193
2026-01-02 23:31:00.35	45.55	28.69	-45.5	-46.5	17.0	0.00e+00	0	57	0	654311424	53	4107
2026-01-02 23:31:01.34	45.75	28.83	-45.2	-46.2	17.3	0.00e+00	0	57	0	657457152	53	3977
2026-01-02 23:31:02.33	45.95	28.98	-45.2	-46.1	17.3	0.00e+00	0	57	0	660602880	53	3941
2026-01-02 23:31:03.31	46.15	29.12	-45.2	-46.1	17.3	0.00e+00	0	57	0	663748608	53	3949
2026-01-02 23:31:04.30	46.36	29.26	-45.3	-46.2	17.2	0.00e+00	0	57	0	666894336	53	3986
2026-01-02 23:31:05.29	46.56	29.40	-45.3	-46.3	17.2	0.00e+00	0	57	0	670040064	53	4009
2026-01-02 23:31:06.29	46.77	29.55	-45.3	-46.3	17.1	0.00e+00	0	57	0	673185792	53	4025
2026-01-02 23:31:07.28	46.99	29.69	-45.5	-46.5	17.0	0.00e+00	0	57	0	676331520	53	4124
2026-01-02 23:31:08.27	47.20	29.84	-45.6	-46.6	16.8	0.00e+00	0	57	0	679477248	53	4189
2026-01-02 23:31:09.27	47.41	29.98	-45.3	-46.3	17.1	0.00e+00	0	57	0	682622976	53	4014
2026-01-02 23:31:10.26	47.63	30.13	-45.1	-46.1	17.4	0.00e+00	0	57	0	685768704	53	3920
2026-01-02 23:31:11.25	47.85	30.27	-45.1	-46.1	17.4	0.00e+00	0	57	0	688914432	53	3918
2026-01-02 23:31:12.24	48.07	30.42	-45.2	-46.2	17.3	0.00e+00	0	57	0	692060160	53	3969
2026-01-02 23:31:13.23	48.29	30.56	-45.2	-46.2	17.3	0.00e+00	0	57	0	694157312	53	3974
2026-01-02 23:31:14.22	48.51	30.71	-45.3	-46.3	17.2	0.00e+00	0	57	0	697303040	53	4013
2026-01-02 23:31:15.20	48.74	30.86	-45.6	-46.6	16.9	0.00e+00	0	57	0	700448768	53	4175
2026-01-02 23:31:16.19	48.97	31.00	-45.8	-46.9	16.6	0.00e+00	0	57	0	703594496	53	4295
2026-01-02 23:31:17.18	49.20	31.15	-46.0	-47.1	16.4	0.00e+00	0	57	0	706740224	53	4406
2026-01-02 23:31:18.17	49.43	31.30	-45.9	-47.0	16.5	0.00e+00	0	57	0	709885952	53	4381
2026-01-02 23:31:19.16	49.66	31.44	-46.1	-47.2	16.3	0.00e+00	0	57	0	713031680	54	4235
2026-01-02 23:31:20.15	49.90	31.59	-46.0	-47.2	16.3	0.00e+00	0	57	0	716177408	54	4232
2026-01-02 23:31:21.13	50.13	31.74	-45.9	-47.0	16.4	0.00e+00	0	57	0	719323136	54	4137
2026-01-02 23:31:22.12	50.38	31.89	-46.1	-47.2	16.3	0.00e+00	0	57	0	722468864	54	4227
2026-01-02 23:31:23.11	50.62	32.03	-46.2	-47.4	16.1	0.00e+00	0	57	0	725614592	54	4323
2026-01-02 23:31:24.10	50.86	32.18	-46.2	-47.4	16.1	0.00e+00	0	57	0	728760320	54	4317
2026-01-02 23:31:25.09	51.11	32.33	-46.5	-47.7	15.8	0.00e+00	0	57	0	731906048	54	4479
2026-01-02 23:31:26.08	51.36	32.48	-46.4	-47.6	15.9	0.00e+00	0	57	0	735051776	54	4420
2026-01-02 23:31:27.07	51.61	32.63	-46.6	-47.8	15.7	0.00e+00	0	57	0	738197504	55	4272
2026-01-02 23:31:28.05	51.86	32.78	-46.1	-47.3	16.2	0.00e+00	0	57	0	741343232	55	4022
2026-01-02 23:31:29.03	52.12	32.92	-45.9	-47.0	16.6	0.00e+00	0	57	0	744488960	54	4101
2026-01-02 23:31:30.01	52.37	33.07	-45.8	-46.8	16.7	0.00e+00	0	57	0	747634688	54	4047
2026-01-02 23:31:30.99	52.63	33.22	-45.9	-47.0	16.5	0.00e+00	0	57	0	749731840	54	4120
2026-01-02 23:31:31.98	52.89	33.37	-46.0	-47.0	16.5	0.00e+00	0	57	0	752877568	54	4134
2026-01-02 23:31:32.97	53.16	33.52	-46.3	-47.4	16.1	0.00e+00	0	57	0	756023296	54	4333
2026-01-02 23:31:33.95	53.42	33.67	-46.4	-47.6	16.0	0.00e+00	0	57	0	759169024	54	4402
2026-01-02 23:31:34.94	53.69	33.82	-46.4	-47.6	15.9	0.00e+00	0	57	0	762314752	54	4441
2026-01-02 23:31:35.93	53.97	33.97	-46.4	-47.7	15.9	0.00e+00	0	57	0	765460480	54	4450
2026-01-02 23:31:36.92	54.24	34.12	-46.3	-47.4	16.1	0.00e+00	0	57	0	768606208	54	4325
2026-01-02 23:31:37.91	54.52	34.27	-46.1	-47.3	16.3	0.00e+00	0	57	0	771751936	54	4243
2026-01-02 23:31:38.90	54.80	34.42	-46.1	-47.2	16.3	0.00e+00	0	57	0	774897664	54	4237
2026-01-02 23:31:39.89	55.08	34.56	-46.1	-47.2	16.3	0.00e+00	0	57	0	778043392	54	4223
2026-01-02 23:31:40.88	55.37	34.71	-46.2	-47.3	16.2	0.00e+00	0	57	0	781189120	54	4289
2026-01-02 23:31:41.88	55.66	34.87	-46.5	-47.7	15.9	0.00e+00	0	57	0	784334848	54	4453
2026-01-02 23:31:42.88	55.95	35.02	-46.5	-47.7	15.8	0.00e+00	0	57	0	787480576	54	4471
2026-01-02 23:31:43.87	56.24	35.17	-46.6	-47.8	15.7	0.00e+00	0	57	0	790626304	55	4286
2026-01-02 23:31:44.86	56.54	35.32	-46.7	-47.9	15.7	0.00e+00	0	57	0	793772032	55	4318
2026-01-02 23:31:45.85	56.84	35.46	-46.6	-47.8	15.7	0.00e+00	0	57	0	796917760	55	4288
2026-01-02 23:31:46.83	57.14	35.61	-46.7	-47.9	15.6	0.00e+00	0	57	0	800063488	55	4326
2026-01-02 23:31:47.83	57.44	35.76	-46.5	-47.7	15.8	0.00e+00	0	57	0	803209216	55	4209
2026-01-02 23:31:48.81	57.75	35.91	-46.4	-47.6	15.9	0.00e+00	0	57	0	806354944	55	4175
2026-01-02 23:31:49.81	58.06	36.06	-46.5	-47.7	15.8	0.00e+00	0	57	0	809500672	55	4216
2026-01-02 23:31:50.79	58.37	36.21	-46.5	-47.6	15.9	0.00e+00	0	57	0	811597824	55	4193
2026-01-02 23:31:51.78	58.68	36.35	-46.7	-48.0	15.6	0.00e+00	0	57	0	814743552	55	4355
2026-01-02 23:31:52.77	59.00	36.50	-46.7	-48.0	15.6	0.00e+00	0	57	0	817889280	55	4360
2026-01-02 23:31:53.75	59.32	36.65	-46.5	-47.7	15.8	0.00e+00	0	57	0	821035008	55	4207
2026-01-02 23:31:54.74	59.64	36.79	-46.4	-47.6	15.9	0.00e+00	0	57	0	824180736	55	4174
2026-01-02 23:31:55.73	59.97	36.94	-46.5	-47.7	15.9	0.00e+00	0	57	0	827326464	55	4202
2026-01-02 23:31:56.72	60.30	37.09	-46.5	-47.6	15.9	0.00e+00	0	57	0	830472192	55	4191
2026-01-02 23:31:57.71	60.63	37.23	-46.6	-47.7	15.8	0.00e+00	0	57	0	833617920	55	4237
2026-01-02 23:31:58.70	60.96	37.38	-46.7	-47.9	15.6	0.00e+00	0	57	0	836763648	55	4319
2026-01-02 23:31:59.69	61.30	37.52	-46.9	-48.2	15.4	0.00e+00	0	57	0	839909376	55	4443
2026-01-02 23:32:00.67	61.64	37.67	-46.8	-48.0	15.5	0.00e+00	0	57	0	843055104	55	4391
2026-01-02 23:32:01.66	61.98	37.81	-46.6	-47.8	15.7	0.00e+00	0	57	0	846200832	55	4279
2026-01-02 23:32:02.66	62.33	37.96	-46.5	-47.7	15.8	0.00e+00	0	57	0	849346560	55	4226
2026-01-02 23:32:03.65	62.68	38.10	-46.7	-47.9	15.6	0.00e+00	0	57	0	852492288	55	4337
2026-01-02 23:32:04.64	63.04	38.24	-46.6	-47.8	15.8	0.00e+00	0	57	0	855638016	55	4257
2026-01-02 23:32:05.63	63.39	38.38	-46.5	-47.7	15.9	0.00e+00	0	57	0	858783744	55	4203
2026-01-02 23:32:06.62	63.75	38.53	-46.5	-47.7	15.8	0.00e+00	0	57	0	861929472	55	4216
2026-01-02 23:32:07.61	64.12	38.67	-46.4	-47.6	15.9	0.00e+00	0	57	0	865075200	55	4169
2026-01-02 23:32:08.60	64.48	38.81	-46.6	-47.8	15.8	0.00e+00	0	57	0	868220928	55	4252
2026-01-02 23:32:09.58	64.85	38.94	-46.7	-47.9	15.6	0.00e+00	0	57	0	871366656	55	4340
2026-01-02 23:32:10.57	65.22	39.08	-46.9	-48.2	15.3	0.00e+00	0	57	0	873463808	55	4485
2026-01-02 23:32:11.56	65.59	39.22	-47.2	-48.6	15.1	0.00e+00	0	57	0	876609536	56	4404
2026-01-02 23:32:12.55	65.97	39.36	-47.2	-48.5	15.1	0.00e+00	0	57	0	879755264	56	4348
2026-01-02 23:32:13.54	66.35	39.49	-46.9	-48.2	15.5	0.00e+00	0	57	0	882900992	56	4210
2026-01-02 23:32:14.53	66.73	39.63	-46.9	-48.1	15.5	0.00e+00	0	57	0	886046720	56	4179
2026-01-02 23:32:15.52	67.12	39.76	-47.1	-48.5	15.2	0.00e+00	0	57	0	889192448	56	4350
2026-01-02 23:32:16.51	67.51	39.90	-47.3	-48.7	14.9	0.00e+00	0	57	0	892338176	56	4459
2026-01-02 23:32:17.50	67.91	40.03	-47.5	-49.0	14.6	0.00e+00	0	57	0	895483904	56	4612
2026-01-02 23:32:18.49	68.30	40.16	-47.8	-49.3	14.4	0.00e+00	0	57	0	898629632	57	4495
2026-01-02 23:32:19.48	68.70	40.29	-47.9	-49.5	14.2	7.00e-07	0	57	0	901775360	57	4608
2026-01-02 23:32:20.47	69.11	40.42	-48.0	-49.6	14.1	3.80e-06	0	57	0	904921088	57	4686
2026-01-02 23:32:21.47	69.52	40.55	-48.1	-49.8	13.9	4.50e-06	0	57	0	908066816	58	4500
2026-01-02 23:32:22.45	69.92	40.67	-47.9	-49.5	14.2	1.50e-06	0	57	0	911212544	58	4369
2026-01-02 23:32:23.44	70.34	40.80	-47.5	-48.9	14.8	1.50e-06	0	57	0	914358272	58	4087
2026-01-02 23:32:24.43	70.75	40.92	-47.4	-48.7	15.0	1.50e-06	0	57	0	917504000	57	4233
2026-01-02 23:32:25.42	71.17	41.05	-47.5	-48.9	14.8	0.00e+00	0	57	0	920649728	57	4293
2026-01-02 23:32:26.41	71.59	41.17	-47.7	-49.2	14.5	7.00e-07	0	57	0	923795456	57	4453
2026-01-02 23:32:27.40	72.02	41.29	-48.0	-49.5	14.1	0.00e+00	0	57	0	926941184	57	4627
2026-01-02 23:32:28.39	72.45	41.41	-48.0	-49.6	14.2	7.00e-07	0	57	0	930086912	57	4655
2026-01-02 23:32:29.38	72.88	41.53	-48.2	-49.8	13.8	2.20e-06	0	57	0	932184064	58	4525
2026-01-02 23:32:30.36	73.31	41.64	-48.3	-49.9	13.7	5.30e-06	0	57	0	935329792	58	4593
2026-01-02 23:32:31.35	73.75	41.76	-48.2	-50.1	13.6	6.80e-06	0	57	0	938475520	58	4653
2026-01-02 23:32:32.34	74.19	41.87	-48.3	-50.0	13.8	6.10e-06	0	57	0	941621248	58	4614
2026-01-02 23:32:33.32	74.63	41.98	-48.3	-50.1	13.6	6.80e-06	0	57	0	944766976	58	4685
2026-01-02 23:32:34.32	75.08	42.10	-48.2	-49.9	13.8	3.00e-06	0	57	0	947912704	58	4583
2026-01-02 23:32:35.31	75.53	42.21	-48.2	-49.9	13.8	1.22e-05	0	57	0	951058432	58	4577
2026-01-02 23:32:36.30	75.98	42.31	-48.2	-49.9	13.8	6.10e-06	0	57	0	954204160	58	4590
2026-01-02 23:32:37.29	76.44	42.42	-48.2	-49.9	13.8	5.30e-06	0	57	0	957349888	58	4595
2026-01-02 23:32:38.28	76.90	42.52	-48.2	-49.9	13.8	4.50e-06	0	57	0	960495616	58	4592
2026-01-02 23:32:39.26	77.35	42.62	-48.0	-49.6	14.0	3.80e-06	0	57	0	963641344	58	4436
2026-01-02 23:32:40.26	77.82	42.73	-47.9	-49.5	14.2	1.50e-06	0	57	0	966787072	58	4363
2026-01-02 23:32:41.25	78.29	42.82	-48.0	-49.6	14.2	7.00e-07	0	57	0	969932800	58	4392
2026-01-02 23:32:42.23	78.76	42.92	-47.8	-49.3	14.3	0.00e+00	0	57	0	973078528	58	4249
2026-01-02 23:32:43.22	79.23	43.02	-48.0	-49.6	14.0	4.50e-06	0	57	0	976224256	58	4430
2026-01-02 23:32:44.20	79.70	43.11	-48.3	-50.0	13.7	4.50e-06	0	57	0	979369984	58	4614
2026-01-02 23:32:45.19	80.18	43.20	-48.3	-50.0	13.6	5.30e-06	0	57	0	982515712	58	4649
2026-01-02 23:32:46.18	80.66	43.29	-48.0	-49.6	14.1	2.20e-06	0	57	0	985661440	58	4411
2026-01-02 23:32:47.17	81.15	43.38	-48.1	-49.8	13.9	7.00e-07	0	57	0	987758592	58	4498
2026-01-02 23:32:48.17	81.64	43.46	-47.9	-49.5	14.1	1.50e-06	0	57	0	990904320	58	4383
2026-01-02 23:32:49.15	82.12	43.54	-48.0	-49.6	14.0	2.20e-06	0	57	0	994050048	58	4405
2026-01-02 23:32:50.15	82.62	43.63	-48.3	-50.1	13.5	1.06e-05	0	57	0	997195776	58	4679
2026-01-02 23:32:51.14	83.11	43.71	-48.4	-50.1	13.6	1.06e-05	0	57	0	1000341504	58	4700
2026-01-02 23:32:52.12	83.61	43.78	-48.0	-49.6	14.1	5.30e-06	0	57	0	1003487232	58	4419
2026-01-02 23:32:53.10	84.10	43.86	-47.7	-49.1	14.6	7.00e-07	0	57	0	1006632960	58	4170
2026-01-02 23:32:54.09	84.60	43.93	-47.8	-49.3	14.4	0.00e+00	0	57	0	1009778688	58	4271
2026-01-02 23:32:55.07	85.10	44.00	-48.1	-49.7	13.9	2.20e-06	0	57	0	1012924416	58	4489
2026-01-02 23:32:56.06	85.61	44.07	-48.0	-49.6	14.0	7.00e-07	0	57	0	1016070144	58	4410
2026-01-02 23:32:57.05	86.11	44.13	-48.0	-49.5	14.1	7.00e-07	0	57	0	1019215872	58	4363
2026-01-02 23:32:58.03	86.62	44.19	-47.9	-49.4	14.3	1.50e-06	0	57	0	1022361600	58	4314
2026-01-02 23:32:59.02	87.13	44.25	-47.9	-49.3	14.4	0.00e+00	0	57	0	1025507328	58	4291
2026-01-02 23:33:00.01	87.64	44.31	-47.5	-48.9	14.8	7.00e-07	0	57	0	1028653056	58	4080
2026-01-02 23:33:01.01	88.16	44.37	-47.3	-48.7	15.0	0.00e+00	0	57	0	1031798784	57	4208
2026-01-02 23:33:02.00	88.68	44.42	-47.2	-48.5	15.2	0.00e+00	0	57	0	1034944512	57	4103
2026-01-02 23:33:03.00	89.21	44.47	-47.2	-48.4	15.3	0.00e+00	0	57	0	1038090240	57	4095
2026-01-02 23:33:03.98	89.72	44.52	-47.4	-48.8	14.9	0.00e+00	0	57	0	1041235968	57	4244
2026-01-02 23:33:04.98	90.25	44.57	-47.5	-48.9	14.8	0.00e+00	0	57	0	1044381696	57	4307
2026-01-02 23:33:05.97	90.77	44.61	-47.8	-49.4	14.3	7.00e-07	0	57	0	1046478848	57	4549
2026-01-02 23:33:06.95	91.29	44.65	-47.8	-49.3	14.3	7.00e-07	0	57	0	1049624576	57	4543
2026-01-02 23:33:07.94	91.82	44.69	-48.0	-49.5	14.2	7.00e-07	0	57	0	1052770304	57	4641
2026-01-02 23:33:08.93	92.35	44.73	-48.2	-49.9	13.8	7.00e-07	0	57	0	1055916032	58	4562
2026-01-02 23:33:09.92	92.87	44.76	-48.3	-50.0	13.7	8.30e-06	0	57	0	1059061760	58	4628
2026-01-02 23:33:10.91	93.40	44.79	-48.2	-49.9	13.9	4.50e-06	0	57	0	1062207488	58	4551
2026-01-02 23:33:11.90	93.94	44.82	-48.0	-49.6	14.1	3.80e-06	0	57	0	1065353216	58	4426
2026-01-02 23:33:12.89	94.47	44.84	-48.1	-49.7	14.1	4.50e-06	0	57	0	1068498944	58	4467
2026-01-02 23:33:13.89	95.01	44.87	-47.8	-49.3	14.4	7.00e-07	0	57	0	1071644672	58	4243
2026-01-02 23:33:14.88	95.54	44.89	-47.7	-49.2	14.5	7.00e-07	0	57	0	1074790400	58	4197
2026-01-02 23:33:15.87	96.07	44.90	-47.4	-48.8	14.9	0.00e+00	0	57	0	1077936128	57	4264
2026-01-02 23:33:16.86	96.61	44.92	-47.3	-48.7	14.9	0.00e+00	0	57	0	1081081856	57	4233
2026-01-02 23:33:17.86	97.15	44.93	-47.5	-49.0	14.7	0.00e+00	0	57	0	1084227584	57	4346
2026-01-02 23:33:18.84	97.68	44.94	-47.3	-48.7	15.0	0.00e+00	0	57	0	1087373312	57	4203
2026-01-02 23:33:19.83	98.21	44.95	-47.4	-48.7	14.9	0.00e+00	0	57	0	1090519040	57	4225
2026-01-02 23:33:20.82	98.75	44.95	-47.7	-49.2	14.4	0.00e+00	0	57	0	1093664768	57	4488
2026-01-02 23:33:21.81	99.28	44.95	-48.2	-49.8	13.9	2.20e-06	0	57	0	1096810496	58	4535
2026-01-02 23:33:22.80	99.82	44.95	-48.1	-49.7	13.9	3.80e-06	0	57	0	1099956224	58	4487
2026-01-02 23:33:23.79	100.35	44.95	-48.0	-49.7	14.0	5.30e-06	0	57	0	1103101952	58	4467
2026-01-02 23:33:24.78	100.89	44.94	-47.9	-49.4	14.2	1.50e-06	0	57	0	1106247680	58	4326
2026-01-02 23:33:25.77	101.43	44.93	-47.8	-49.4	14.3	1.50e-06	0	57	0	1108344832	58	4297
2026-01-02 23:33:26.76	101.96	44.92	-47.8	-49.4	14.2	3.00e-06	0	57	0	1111490560	58	4332
2026-01-02 23:33:27.75	102.49	44.90	-47.7	-49.2	14.6	7.00e-07	0	57	0	1114636288	58	4207
2026-01-02 23:33:28.72	103.02	44.88	-47.7	-49.2	14.5	0.00e+00	0	57	0	1117782016	58	4216
2026-01-02 23:33:29.72	103.56	44.86	-47.4	-48.8	14.9	7.00e-07	0	57	0	1120927744	58	4040
2026-01-02 23:33:30.71	104.09	44.84	-47.1	-48.4	15.2	0.00e+00	0	57	0	1124073472	57	4090
2026-01-02 23:33:31.69	104.62	44.81	-47.1	-48.4	15.3	0.00e+00	0	57	0	1127219200	57	4078
2026-01-02 23:33:32.68	105.15	44.79	-47.2	-48.5	15.1	0.00e+00	0	57	0	1130364928	57	4124
2026-01-02 23:33:33.66	105.67	44.75	-47.1	-48.4	15.3	0.00e+00	0	57	0	1133510656	57	4071
2026-01-02 23:33:34.65	106.20	44.72	-46.8	-48.1	15.6	0.00e+00	0	57	0	1136656384	56	4146
2026-01-02 23:33:35.64	106.73	44.68	-46.9	-48.1	15.5	0.00e+00	0	57	0	1139802112	56	4188
2026-01-02 23:33:36.63	107.25	44.65	-47.1	-48.4	15.2	0.00e+00	0	57	0	1142947840	56	4332
2026-01-02 23:33:37.61	107.77	44.60	-47.4	-48.8	14.9	0.00e+00	0	57	0	1146093568	56	4509
2026-01-02 23:33:38.61	108.30	44.56	-47.5	-49.0	14.7	0.00e+00	0	57	0	1149239296	56	4616
2026-01-02 23:33:39.60	108.82	44.51	-47.5	-48.9	14.8	0.00e+00	0	57	0	1152385024	56	4567
2026-01-02 23:33:40.58	109.34	44.47	-47.4	-48.8	14.9	0.00e+00	0	57	0	1155530752	56	4508
2026-01-02 23:33:41.58	109.86	44.41	-47.3	-48.7	15.0	0.00e+00	0	57	0	1158676480	56	4467
2026-01-02 23:33:42.56	110.38	44.36	-47.3	-48.7	15.0	0.00e+00	0	57	0	1161822208	56	4486
2026-01-02 23:33:43.55	110.89	44.30	-47.7	-49.1	14.6	0.00e+00	0	57	0	1164967936	57	4430
2026-01-02 23:33:44.54	111.41	44.24	-48.0	-49.6	14.1	2.20e-06	0	57	0	1167065088	57	4663
2026-01-02 23:33:45.52	111.91	44.18	-48.1	-49.8	13.9	1.50e-06	0	57	0	1170210816	58	4528
2026-01-02 23:33:46.52	112.43	44.12	-48.3	-50.1	13.5	6.80e-06	0	57	0	1173356544	58	4664
2026-01-02 23:33:47.51	112.94	44.05	-48.1	-49.8	13.9	5.30e-06	0	57	0	1176502272	58	4514
2026-01-02 23:33:48.50	113.44	43.99	-48.1	-49.7	13.9	3.80e-06	0	57	0	1179648000	58	4474
2026-01-02 23:33:49.49	113.95	43.91	-48.1	-49.7	14.0	1.50e-06	0	57	0	1182793728	58	4473
2026-01-02 23:33:50.48	114.45	43.84	-47.9	-49.4	14.3	1.50e-06	0	57	0	1185939456	58	4321
2026-01-02 23:33:51.47	114.95	43.77	-47.7	-49.2	14.5	1.50e-06	0	57	0	1189085184	58	4214
2026-01-02 23:33:52.45	115.44	43.69	-47.6	-49.2	14.5	0.00e+00	0	57	0	1192230912	58	4195
2026-01-02 23:33:53.44	115.93	43.61	-48.0	-49.6	14.1	7.00e-07	0	57	0	1195376640	58	4423
2026-01-02 23:33:54.43	116.42	43.53	-48.3	-50.0	13.6	9.10e-06	0	57	0	1198522368	58	4651
2026-01-02 23:33:55.42	116.91	43.44	-48.3	-50.0	13.7	9.10e-06	0	57	0	1201668096	58	4613
2026-01-02 23:33:56.40	117.40	43.36	-47.7	-49.1	14.6	7.00e-07	0	57	0	1204813824	58	4174
2026-01-02 23:33:57.39	117.88	43.27	-46.9	-48.2	15.4	0.00e+00	0	57	0	1207959552	57	3992
2026-01-02 23:33:58.39	118.37	43.18	-47.0	-48.3	15.3	0.00e+00	0	57	0	1211105280	56	4250
2026-01-02 23:33:59.38	118.85	43.09	-47.2	-48.5	15.1	0.00e+00	0	57	0	1214251008	56	4376
2026-01-02 23:34:00.36	119.32	43.00	-47.1	-48.5	15.1	0.00e+00	0	57	0	1217396736	56	4367
2026-01-02 23:34:01.35	119.79	42.90	-47.1	-48.4	15.3	0.00e+00	0	57	0	1220542464	56	4328
2026-01-02 23:34:02.35	120.27	42.80	-47.2	-48.5	15.1	0.00e+00	0	57	0	1223688192	56	4366
2026-01-02 23:34:03.33	120.73	42.70	-47.4	-48.8	14.8	0.00e+00	0	57	0	1226833920	56	4510
2026-01-02 23:34:04.32	121.20	42.60	-47.5	-49.0	14.7	0.00e+00	0	57	0	1228931072	56	4617
2026-01-02 23:34:05.30	121.65	42.50	-47.6	-49.1	14.5	0.00e+00	0	57	0	1232076800	57	4413
2026-01-02 23:34:06.29	122.11	42.40	-47.2	-48.5	15.1	7.00e-07	0	57	0	1235222528	57	4142
2026-01-02 23:34:07.28	122.57	42.29	-47.2	-48.5	15.2	0.00e+00	0	57	0	1238368256	57	4129
2026-01-02 23:34:08.27	123.02	42.18	-47.5	-49.0	14.7	7.00e-07	0	57	0	1241513984	57	4364
2026-01-02 23:34:09.26	123.47	42.07	-47.5	-49.0	14.6	7.00e-07	0	57	0	1244659712	57	4379
2026-01-02 23:34:10.26	123.92	41.96	-47.5	-48.9	14.8	7.00e-07	0	57	0	1247805440	57	4325
2026-01-02 23:34:11.25	124.37	41.85	-47.4	-48.8	14.8	0.00e+00	0	57	0	1250951168	57	4273
2026-01-02 23:34:12.24	124.81	41.73	-47.3	-48.7	14.9	0.00e+00	0	57	0	1254096896	57	4236
2026-01-02 23:34:13.24	125.25	41.61	-46.8	-48.1	15.6	0.00e+00	0	57	0	1257242624	56	4158
2026-01-02 23:34:14.22	125.68	41.50	-46.7	-47.8	15.8	0.00e+00	0	57	0	1260388352	56	4051
2026-01-02 23:34:15.22	126.12	41.38	-46.6	-47.8	15.9	0.00e+00	0	57	0	1263534080	56	4043
2026-01-02 23:34:16.21	126.55	41.26	-46.7	-47.9	15.7	0.00e+00	0	57	0	1266679808	56	4090
2026-01-02 23:34:17.20	126.97	41.14	-46.9	-48.2	15.5	0.00e+00	0	57	0	1269825536	56	4206
2026-01-02 23:34:18.19	127.40	41.01	-47.1	-48.4	15.3	0.00e+00	0	57	0	1272971264	56	4336
2026-01-02 23:34:19.19	127.82	40.89	-46.8	-48.1	15.6	0.00e+00	0	57	0	1276116992	56	4174
2026-01-02 23:34:20.18	128.23	40.76	-46.6	-47.8	15.8	0.00e+00	0	57	0	1279262720	56	4049
2026-01-02 23:34:21.17	128.65	40.64	-46.6	-47.8	15.9	0.00e+00	0	57	0	1282408448	56	4032
2026-01-02 23:34:22.16	129.06	40.51	-46.5	-47.7	16.1	0.00e+00	0	57	0	1285554176	56	3976
2026-01-02 23:34:23.16	129.47	40.38	-46.3	-47.4	16.2	0.00e+00	0	57	0	1288699904	55	4054
2026-01-02 23:34:24.14	129.87	40.25	-46.5	-47.7	15.6	0.00e+00	0	57	0	1291845632	55	4236
2026-01-02 23:34:25.14	130.27	40.12	-47.0	-48.3	15.2	0.00e+00	0	57	0	1293942784	55	4528
2026-01-02 23:34:26.13	130.67	39.99	-47.2	-48.6	15.0	0.00e+00	0	57	0	1297088512	56	4430
2026-01-02 23:34:27.12	131.06	39.85	-47.2	-48.6	15.1	1.50e-06	0	57	0	1300234240	56	4440
2026-01-02 23:34:28.10	131.45	39.72	-47.3	-48.8	14.9	0.00e+00	0	57	0	1303379968	56	4494
2026-01-02 23:34:29.09	131.84	39.59	-47.4	-48.9	14.8	0.00e+00	0	57	0	1306525696	56	4551
2026-01-02 23:34:30.07	132.22	39.45	-47.5	-49.0	14.7	7.00e-07	0	57	0	1309671424	56	4624
2026-01-02 23:34:31.06	132.60	39.31	-47.4	-48.9	14.8	0.00e+00	0	57	0	1312817152	56	4548
2026-01-02 23:34:32.05	132.98	39.18	-47.5	-48.9	14.7	0.00e+00	0	57	0	1315962880	56	4584
2026-01-02 23:34:33.04	133.35	39.04	-47.6	-49.1	14.5	7.00e-07	0	57	0	1319108608	57	4427
2026-01-02 23:34:34.03	133.72	38.90	-47.6	-49.1	14.5	0.00e+00	0	57	0	1322254336	57	4417
2026-01-02 23:34:35.02	134.09	38.76	-47.5	-49.0	14.6	0.00e+00	0	57	0	1325400064	57	4349
2026-01-02 23:34:36.01	134.46	38.62	-47.6	-49.1	14.5	7.00e-07	0	57	0	1328545792	57	4434
2026-01-02 23:34:37.00	134.82	38.48	-47.3	-48.8	14.9	0.00e+00	0	57	0	1331691520	57	4262
2026-01-02 23:34:37.98	135.17	38.34	-47.2	-48.5	15.1	0.00e+00	0	57	0	1334837248	57	4141
2026-01-02 23:34:38.97	135.53	38.19	-47.0	-48.2	15.3	0.00e+00	0	57	0	1337982976	57	4004
2026-01-02 23:34:39.96	135.88	38.05	-47.1	-48.4	15.3	0.00e+00	0	57	0	1341128704	57	4061
2026-01-02 23:34:40.94	136.23	37.91	-47.4	-48.7	14.9	0.00e+00	0	57	0	1344274432	57	4232
2026-01-02 23:34:41.93	136.58	37.76	-47.2	-48.5	15.1	0.00e+00	0	57	0	1346371584	57	4137
2026-01-02 23:34:42.92	136.92	37.62	-46.7	-47.9	15.8	0.00e+00	0	57	0	1349517312	56	4053
2026-01-02 23:34:43.92	137.27	37.47	-46.4	-47.5	16.1	0.00e+00	0	57	0	1352663040	56	3910
2026-01-02 23:34:44.90	137.60	37.33	-46.3	-47.4	16.1	0.00e+00	0	57	0	1355808768	55	4080
2026-01-02 23:34:45.89	137.94	37.18	-46.6	-47.8	15.7	0.00e+00	0	57	0	1358954496	55	4250
2026-01-02 23:34:46.87	138.26	37.04	-46.2	-47.4	16.1	0.00e+00	0	57	0	1362100224	55	4070
2026-01-02 23:34:47.86	138.59	36.89	-46.0	-47.0	16.5	0.00e+00	0	57	0	1365245952	55	3891
2026-01-02 23:34:48.86	138.92	36.74	-45.9	-47.0	16.5	0.00e+00	0	57	0	1368391680	54	4112
2026-01-02 23:34:49.85	139.25	36.59	-45.9	-46.9	16.6	0.00e+00	0	57	0	1371537408	54	4092
2026-01-02 23:34:50.83	139.56	36.45	-45.9	-47.0	16.5	0.00e+00	0	57	0	1374683136	54	4121
2026-01-02 23:34:51.83	139.89	36.30	-46.0	-47.1	16.4	0.00e+00	0	57	0	1377828864	54	4184
2026-01-02 23:34:52.82	140.20	36.15	-46.1	-47.2	16.4	0.00e+00	0	57	0	1380974592	54	4205
2026-01-02 23:34:53.81	140.51	36.00	-46.2	-47.3	16.2	0.00e+00	0	57	0	1384120320	54	4273
2026-01-02 23:34:54.81	140.82	35.85	-46.2	-47.3	16.2	0.00e+00	0	57	0	1387266048	54	4284
2026-01-02 23:34:55.80	141.13	35.70	-46.1	-47.3	16.2	0.00e+00	0	57	0	1390411776	54	4246
2026-01-02 23:34:56.79	141.44	35.55	-46.0	-47.2	16.3	0.00e+00	0	57	0	1393557504	54	4207
2026-01-02 23:34:57.78	141.74	35.40	-46.0	-47.1	16.4	0.00e+00	0	57	0	1396703232	54	4149
2026-01-02 23:34:58.77	142.03	35.25	-46.1	-47.2	16.3	0.00e+00	0	57	0	1399848960	54	4211
2026-01-02 23:34:59.76	142.33	35.10	-46.0	-47.1	16.4	0.00e+00	0	57	0	1402994688	54	4149
2026-01-02 23:35:00.75	142.62	34.95	-45.9	-46.9	16.6	0.00e+00	0	57	0	1406140416	54	4079
2026-01-02 23:35:01.74	142.91	34.80	-46.0	-47.0	16.5	0.00e+00	0	57	0	1409286144	54	4142
2026-01-02 23:35:02.73	143.20	34.65	-46.1	-47.2	16.3	0.00e+00	0	57	0	1412431872	54	4219
2026-01-02 23:35:03.72	143.49	34.50	-46.2	-47.4	16.1	0.00e+00	0	57	0	1414529024	54	4317
2026-01-02 23:35:04.70	143.77	34.35	-46.3	-47.4	16.1	0.00e+00	0	57	0	1417674752	54	4328
2026-01-02 23:35:05.69	144.05	34.20	-46.3	-47.4	16.1	0.00e+00	0	57	0	1420820480	54	4317
2026-01-02 23:35:06.67	144.32	34.05	-46.4	-47.5	16.0	0.00e+00	0	57	0	1423966208	54	4390
2026-01-02 23:35:07.66	144.60	33.90	-46.3	-47.5	16.0	0.00e+00	0	57	0	1427111936	54	4372
2026-01-02 23:35:08.65	144.87	33.75	-46.3	-47.4	16.0	0.00e+00	0	57	0	1430257664	54	4336
2026-01-02 23:35:09.65	145.14	33.60	-46.5	-47.7	15.8	0.00e+00	0	57	0	1433403392	54	4482
2026-01-02 23:35:10.64	145.41	33.45	-46.5	-47.6	15.9	0.00e+00	0	57	0	1436549120	55	4182
2026-01-02 23:35:11.63	145.68	33.30	-46.3	-47.5	16.1	0.00e+00	0	57	0	1439694848	55	4120
2026-01-02 23:35:12.63	145.94	33.15	-46.4	-47.5	16.0	0.00e+00	0	57	0	1442840576	55	4136
2026-01-02 23:35:13.61	146.20	33.00	-46.4	-47.6	15.9	0.00e+00	0	57	0	1445986304	55	4152
2026-01-02 23:35:14.59	146.45	32.85	-46.6	-47.9	15.7	0.00e+00	0	57	0	1449132032	55	4293
2026-01-02 23:35:15.59	146.71	32.70	-46.5	-47.8	15.7	0.00e+00	0	57	0	1452277760	55	4266
2026-01-02 23:35:16.59	146.97	32.55	-46.7	-47.9	15.6	0.00e+00	0	57	0	1455423488	55	4320
2026-01-02 23:35:17.58	147.22	32.40	-46.4	-47.6	15.9	0.00e+00	0	57	0	1458569216	55	4187
2026-01-02 23:35:18.56	147.47	32.25	-46.2	-47.3	16.2	0.00e+00	0	57	0	1461714944	55	4031
2026-01-02 23:35:19.55	147.71	32.10	-45.8	-46.9	16.7	0.00e+00	0	57	0	1464860672	54	4078
2026-01-02 23:35:20.54	147.96	31.95	-45.5	-46.5	17.0	0.00e+00	0	57	0	1468006400	54	3883
2026-01-02 23:35:21.53	148.20	31.80	-45.3	-46.2	17.3	0.00e+00	0	57	0	1471152128	53	3984
2026-01-02 23:35:22.52	148.44	31.65	-45.1	-46.1	17.4	0.00e+00	0	57	0	1473249280	53	3934
2026-01-02 23:35:23.51	148.68	31.51	-45.0	-45.9	17.5	0.00e+00	0	57	0	1476395008	53	3847
2026-01-02 23:35:24.50	148.92	31.36	-44.9	-45.8	17.7	0.00e+00	0	57	0	1479540736	53	3786
2026-01-02 23:35:25.50	149.15	31.21	-44.7	-45.6	17.8	0.00e+00	0	57	0	1482686464	52	3927
2026-01-02 23:35:26.49	149.38	31.06	-44.7	-45.5	17.9	0.00e+00	0	57	0	1485832192	52	3878
2026-01-02 23:35:27.48	149.61	30.91	-44.7	-45.5	17.9	0.00e+00	0	57	0	1488977920	52	3891
2026-01-02 23:35:28.47	149.84	30.77	-44.7	-45.5	17.9	0.00e+00	0	57	0	1492123648	52	3904
2026-01-02 23:35:29.46	150.07	30.62	-44.8	-45.7	17.7	0.00e+00	0	57	0	1495269376	52	3989
2026-01-02 23:35:30.44	150.29	30.47	-44.9	-45.8	17.7	0.00e+00	0	57	0	1498415104	52	4005
2026-01-02 23:35:31.43	150.51	30.33	-44.9	-45.8	17.7	0.00e+00	0	57	0	1501560832	52	4019
2026-01-02 23:35:32.42	150.73	30.18	-45.1	-46.0	17.4	0.00e+00	0	57	0	1504706560	52	4131
2026-01-02 23:35:33.41	150.95	30.04	-45.2	-46.1	17.4	0.00e+00	0	57	0	1507852288	52	4165
2026-01-02 23:35:34.39	151.16	29.89	-45.0	-46.0	17.4	0.00e+00	0	57	0	1510998016	52	4105
2026-01-02 23:35:35.38	151.38	29.75	-45.1	-46.0	17.4	0.00e+00	0	57	0	1514143744	52	4121
2026-01-02 23:35:36.36	151.59	29.60	-45.3	-46.2	17.2	0.00e+00	0	57	0	1517289472	52	4235
2026-01-02 23:35:37.34	151.79	29.46	-45.5	-46.5	17.0	0.00e+00	0	57	0	1520435200	52	4351
2026-01-02 23:35:38.32	152.00	29.32	-45.4	-46.3	17.1	0.00e+00	0	57	0	1522532352	52	4282
2026-01-02 23:35:39.31	152.21	29.17	-45.5	-46.5	16.9	0.00e+00	0	57	0	1525678080	53	4129
2026-01-02 23:35:40.30	152.41	29.03	-45.5	-46.5	16.9	0.00e+00	0	57	0	1528823808	53	4141
2026-01-02 23:35:41.29	152.62	28.89	-45.7	-46.7	16.7	0.00e+00	0	57	0	1531969536	53	4234
2026-01-02 23:35:42.28	152.82	28.74	-45.6	-46.7	16.8	0.00e+00	0	57	0	1535115264	53	4203
2026-01-02 23:35:43.27	153.02	28.60	-45.6	-46.6	16.8	0.00e+00	0	57	0	1538260992	53	4177
2026-01-02 23:35:44.25	153.21	28.46	-45.7	-46.7	16.7	0.00e+00	0	57	0	1541406720	53	4241
2026-01-02 23:35:45.24	153.41	28.32	-45.8	-46.9	16.5	0.00e+00	0	57	0	1544552448	53	4308
2026-01-02 23:35:46.23	153.60	28.18	-45.7	-46.7	16.7	0.00e+00	0	57	0	1547698176	53	4228
2026-01-02 23:35:47.22	153.80	28.04	-45.7	-46.7	16.7	0.00e+00	0	57	0	1550843904	53	4242
2026-01-02 23:35:48.22	153.99	27.89	-45.8	-46.8	16.6	0.00e+00	0	57	0	1553989632	53	4281
2026-01-02 23:35:49.20	154.18	27.75	-45.8	-46.9	16.5	0.00e+00	0	57	0	1557135360	53	4292
2026-01-02 23:35:50.19	154.37	27.61	-45.7	-46.7	16.7	0.00e+00	0	57	0	1560281088	53	4233
2026-01-02 23:35:51.18	154.55	27.48	-45.9	-47.0	16.4	0.00e+00	0	57	0	1563426816	53	4343
2026-01-02 23:35:52.17	154.74	27.34	-45.6	-46.7	16.8	0.00e+00	0	57	0	1566572544	53	4200
2026-01-02 23:35:53.16	154.92	27.20	-45.5	-46.5	16.9	0.00e+00	0	57	0	1569718272	53	4115
2026-01-02 23:35:54.15	155.10	27.06	-45.3	-46.3	17.1	0.00e+00	0	57	0	1572864000	53	4038
2026-01-02 23:35:55.14	155.28	26.92	-45.1	-46.0	17.3	0.00e+00	0	57	0	1576009728	53	3913
2026-01-02 23:35:56.14	155.46	26.78	-45.2	-46.2	17.3	0.00e+00	0	57	0	1579155456	53	3962
2026-01-02 23:35:57.13	155.64	26.65	-45.3	-46.3	17.1	0.00e+00	0	57	0	1582301184	53	4014
2026-01-02 23:35:58.12	155.82	26.51	-44.9	-45.8	17.5	0.00e+00	0	57	0	1584398336	53	3822
2026-01-02 23:35:59.12	155.99	26.37	-44.8	-45.7	17.6	0.00e+00	0	57	0	1587544064	52	4000
2026-01-02 23:36:00.11	156.17	26.24	-44.9	-45.8	17.6	0.00e+00	0	57	0	1590689792	52	4018
2026-01-02 23:36:01.10	156.34	26.10	-44.9	-45.8	17.5	0.00e+00	0	57	0	1593835520	52	4033
2026-01-02 23:36:02.09	156.51	25.96	-45.0	-46.0	17.4	0.00e+00	0	57	0	1596981248	52	4114
2026-01-02 23:36:03.08	156.68	25.83	-45.2	-46.2	17.2	0.00e+00	0	57	0	1600126976	52	4228
2026-01-02 23:36:04.07	156.84	25.70	-45.2	-46.2	17.2	0.00e+00	0	57	0	1603272704	52	4199
2026-01-02 23:36:05.05	157.01	25.56	-45.5	-46.5	16.9	0.00e+00	0	57	0	1606418432	52	4355
2026-01-02 23:36:06.04	157.17	25.43	-45.3	-46.3	17.1	0.00e+00	0	57	0	1609564160	52	4260
2026-01-02 23:36:07.04	157.34	25.30	-45.0	-45.9	17.4	0.00e+00	0	57	0	1612709888	52	4086
2026-01-02 23:36:08.03	157.50	25.16	-44.9	-45.9	17.5	0.00e+00	0	57	0	1615855616	52	4061
2026-01-02 23:36:09.02	157.66	25.03	-44.9	-45.8	17.6	0.00e+00	0	57	0	1619001344	52	4019
2026-01-02 23:36:10.01	157.82	24.90	-44.9	-45.8	17.6	0.00e+00	0	57	0	1622147072	52	4026
2026-01-02 23:36:10.99	157.97	24.77	-45.1	-46.0	17.4	0.00e+00	0	57	0	1625292800	52	4143
2026-01-02 23:36:11.98	158.13	24.64	-45.2	-46.1	17.2	0.00e+00	0	57	0	1628438528	52	4175
2026-01-02 23:36:12.97	158.29	24.51	-45.0	-45.9	17.4	0.00e+00	0	57	0	1631584256	52	4081
2026-01-02 23:36:13.96	158.44	24.38	-45.0	-45.9	17.5	0.00e+00	0	57	0	1634729984	52	4059
2026-01-02 23:36:14.94	158.59	24.25	-45.0	-45.9	17.4	0.00e+00	0	57	0	1637875712	52	4085
2026-01-02 23:36:15.93	158.74	24.12	-45.0	-45.9	17.4	0.00e+00	0	57	0	1641021440	52	4067
2026-01-02 23:36:16.92	158.90	23.99	-45.1	-46.0	17.3	0.00e+00	0	57	0	1644167168	52	4133
2026-01-02 23:36:17.91	159.04	23.87	-45.1	-46.1	17.3	0.00e+00	0	57	0	1647312896	52	4150
2026-01-02 23:36:18.90	159.19	23.74	-45.5	-46.5	16.9	0.00e+00	0	57	0	1649410048	52	4373
2026-01-02 23:36:19.89	159.34	23.61	-45.2	-46.2	17.1	0.00e+00	0	57	0	1652555776	53	3986
2026-01-02 23:36:20.88	159.49	23.48	-45.0	-45.9	17.5	0.00e+00	0	57	0	1655701504	53	3828
2026-01-02 23:36:21.87	159.63	23.36	-44.9	-45.8	17.6	0.00e+00	0	57	0	1658847232	52	4023
2026-01-02 23:36:22.86	159.77	23.23	-44.8	-45.7	17.6	0.00e+00	0	57	0	1661992960	52	3990
2026-01-02 23:36:23.84	159.92	23.11	-44.8	-45.7	17.6	0.00e+00	0	57	0	1665138688	52	3974
2026-01-02 23:36:24.84	160.06	22.98	-44.9	-45.8	17.4	0.00e+00	0	57	0	1668284416	52	4050
2026-01-02 23:36:25.83	160.20	22.86	-45.0	-46.0	17.4	0.00e+00	0	57	0	1671430144	52	4101
2026-01-02 23:36:26.82	160.34	22.73	-45.1	-46.0	17.3	0.00e+00	0	57	0	1674575872	52	4116
2026-01-02 23:36:27.81	160.48	22.61	-45.1	-46.0	17.3	0.00e+00	0	57	0	1677721600	52	4141
2026-01-02 23:36:28.80	160.61	22.48	-45.3	-46.3	17.1	0.00e+00	0	57	0	1680867328	52	4252
2026-01-02 23:36:29.78	160.75	22.36	-45.3	-46.3	17.0	0.00e+00	0	57	0	1684013056	52	4253
2026-01-02 23:36:30.76	160.88	22.24	-45.4	-46.3	17.0	0.00e+00	0	57	0	1687158784	52	4283
2026-01-02 23:36:31.75	161.02	22.12	-45.3	-46.2	17.1	0.00e+00	0	57	0	1690304512	52	4225
2026-01-02 23:36:32.74	161.15	22.00	-45.2	-46.1	17.2	0.00e+00	0	57	0	1693450240	52	4175
2026-01-02 23:36:33.74	161.28	21.87	-45.2	-46.2	17.1	0.00e+00	0	57	0	1696595968	52	4219
2026-01-02 23:36:34.74	161.42	21.75	-45.2	-46.2	17.1	0.00e+00	0	57	0	1699741696	52	4210
2026-01-02 23:36:35.73	161.55	21.63	-45.1	-46.1	17.2	0.00e+00	0	57	0	1702887424	52	4161
2026-01-02 23:36:36.71	161.67	21.51	-45.1	-46.1	17.2	0.00e+00	0	57	0	1706033152	52	4174
2026-01-02 23:36:37.71	161.80	21.39	-45.0	-46.0	17.3	0.00e+00	0	57	0	1709178880	52	4132
2026-01-02 23:36:38.70	161.93	21.27	-45.1	-46.0	17.3	0.00e+00	0	57	0	1711276032	52	4133
2026-01-02 23:36:39.68	162.05	21.16	-45.1	-46.1	17.2	0.00e+00	0	57	0	1714421760	52	4166
2026-01-02 23:36:40.67	162.18	21.04	-45.3	-46.3	17.1	0.00e+00	0	57	0	1717567488	52	4250
2026-01-02 23:36:41.66	162.30	20.92	-45.3	-46.3	17.0	0.00e+00	0	57	0	1720713216	52	4265
2026-01-02 23:36:42.65	162.43	20.80	-45.4	-46.5	16.9	0.00e+00	0	57	0	1723858944	52	4347
2026-01-02 23:36:43.64	162.55	20.69	-45.6	-46.6	16.7	0.00e+00	0	57	0	1727004672	52	4421
2026-01-02 23:36:44.62	162.67	20.57	-45.7	-46.7	16.6	0.00e+00	0	57	0	1730150400	53	4242
2026-01-02 23:36:45.61	162.79	20.45	-45.6	-46.7	16.6	0.00e+00	0	57	0	1733296128	53	4212
2026-01-02 23:36:46.60	162.91	20.34	-45.5	-46.6	16.8	0.00e+00	0	57	0	1736441856	53	4147
2026-01-02 23:36:47.59	163.03	20.22	-45.5	-46.5	16.8	0.00e+00	0	57	0	1739587584	53	4114
2026-01-02 23:36:48.57	163.15	20.11	-45.6	-46.6	16.7	0.00e+00	0	57	0	1742733312	53	4176
2026-01-02 23:36:49.56	163.27	20.00	-45.5	-46.6	16.7	0.00e+00	0	57	0	1745879040	53	4157
2026-01-02 23:36:50.54	163.38	19.88	-45.5	-46.5	16.8	0.00e+00	0	57	0	1749024768	53	4127
2026-01-02 23:36:51.53	163.50	19.77	-45.4	-46.4	16.9	0.00e+00	0	57	0	1752170496	53	4083
2026-01-02 23:36:52.51	163.61	19.66	-45.2	-46.2	17.1	0.00e+00	0	57	0	1755316224	53	3992
2026-01-02 23:36:53.50	163.73	19.54	-45.1	-46.1	17.2	0.00e+00	0	57	0	1758461952	53	3936
2026-01-02 23:36:54.48	163.84	19.43	-45.3	-46.3	17.1	0.00e+00	0	57	0	1761607680	53	4005
2026-01-02 23:36:55.47	163.95	19.32	-45.3	-46.3	17.0	0.00e+00	0	57	0	1763704832	53	4017
2026-01-02 23:36:56.46	164.06	19.21	-45.3	-46.2	17.1	0.00e+00	0	57	0	1766850560	53	3996
2026-01-02 23:36:57.45	164.17	19.10	-45.4	-46.4	16.9	0.00e+00	0	57	0	1769996288	53	4063
2026-01-02 23:36:58.44	164.28	18.99	-45.3	-46.3	16.9	0.00e+00	0	57	0	1773142016	53	4026
2026-01-02 23:36:59.43	164.39	18.88	-45.1	-46.1	17.2	0.00e+00	0	57	0	1776287744	53	3914
2026-01-02 23:37:00.42	164.50	18.77	-45.0	-45.9	17.3	0.00e+00	0	57	0	1779433472	53	3850
2026-01-02 23:37:01.41	164.61	18.66	-45.0	-45.9	17.4	0.00e+00	0	57	0	1782579200	53	3842
2026-01-02 23:37:02.40	164.72	18.55	-45.0	-46.0	17.3	0.00e+00	0	57	0	1785724928	53	3869
2026-01-02 23:37:03.39	164.82	18.44	-44.9	-45.8	17.4	0.00e+00	0	57	0	1788870656	53	3806
2026-01-02 23:37:04.38	164.93	18.33	-44.9	-45.8	17.5	0.00e+00	0	57	0	1792016384	52	4009
2026-01-02 23:37:05.37	165.03	18.22	-44.9	-45.8	17.4	0.00e+00	0	57	0	1795162112	52	4026
2026-01-02 23:37:06.35	165.14	18.11	-44.8	-45.6	17.6	0.00e+00	0	57	0	1798307840	52	3956
2026-01-02 23:37:07.34	165.24	18.01	-44.8	-45.6	17.6	0.00e+00	0	57	0	1801453568	52	3955
2026-01-02 23:37:08.33	165.34	17.90	-44.8	-45.7	17.5	0.00e+00	0	57	0	1804599296	52	3982
2026-01-02 23:37:09.32	165.45	17.79	-44.8	-45.8	17.5	0.00e+00	0	57	0	1807745024	52	4016
2026-01-02 23:37:10.31	165.55	17.69	-45.1	-46.1	17.2	0.00e+00	0	57	0	1810890752	52	4163
2026-01-02 23:37:11.30	165.65	17.58	-45.2	-46.2	17.0	0.00e+00	0	57	0	1814036480	52	4236
2026-01-02 23:37:12.29	165.75	17.47	-45.5	-46.6	16.7	0.00e+00	0	57	0	1817182208	52	4401
2026-01-02 23:37:13.28	165.85	17.37	-45.5	-46.6	16.7	0.00e+00	0	57	0	1819279360	52	4402
2026-01-02 23:37:14.27	165.95	17.27	-45.7	-46.8	16.5	0.00e+00	0	57	0	1822425088	53	4247
2026-01-02 23:37:15.25	166.04	17.16	-45.6	-46.7	16.6	0.00e+00	0	57	0	1825570816	53	4221
2026-01-02 23:37:16.24	166.14	17.06	-45.7	-46.9	16.4	0.00e+00	0	57	0	1828716544	53	4303
2026-01-02 23:37:17.23	166.24	16.95	-45.9	-47.0	16.2	0.00e+00	0	57	0	1831862272	53	4389
2026-01-02 23:37:18.22	166.33	16.85	-46.0	-47.2	16.1	0.00e+00	0	57	0	1835008000	53	4456
2026-01-02 23:37:19.21	166.43	16.75	-46.2	-47.3	16.0	0.00e+00	0	57	0	1838153728	54	4284
2026-01-02 23:37:20.21	166.53	16.64	-46.2	-47.4	15.9	0.00e+00	0	57	0	1841299456	54	4323
2026-01-02 23:37:21.19	166.62	16.54	-46.3	-47.4	15.9	0.00e+00	0	57	0	1844445184	54	4340
2026-01-02 23:37:22.19	166.71	16.44	-46.2	-47.4	15.9	0.00e+00	0	57	0	1847590912	54	4327
2026-01-02 23:37:23.18	166.81	16.34	-46.4	-47.6	15.6	0.00e+00	0	57	0	1850736640	54	4435
2026-01-02 23:37:24.16	166.90	16.24	-46.1	-47.3	16.0	0.00e+00	0	57	0	1853882368	54	4250
2026-01-02 23:37:25.15	166.99	16.14	-45.9	-47.0	16.2	0.00e+00	0	57	0	1857028096	54	4120
2026-01-02 23:37:26.14	167.08	16.04	-45.8	-46.9	16.3	0.00e+00	0	57	0	1860173824	54	4093
2026-01-02 23:37:27.12	167.17	15.94	-45.8	-47.0	16.3	0.00e+00	0	57	0	1863319552	54	4100
2026-01-02 23:37:28.10	167.26	15.84	-45.7	-46.8	16.4	0.00e+00	0	57	0	1866465280	54	4038
2026-01-02 23:37:29.09	167.35	15.74	-45.8	-46.9	16.4	0.00e+00	0	57	0	1869611008	54	4068
2026-01-02 23:37:30.07	167.44	15.64	-45.6	-46.7	16.5	0.00e+00	0	57	0	1872756736	54	3994
2026-01-02 23:37:31.05	167.53	15.54	-45.7	-46.7	16.5	0.00e+00	0	57	0	1875902464	54	3992
2026-01-02 23:37:32.04	167.62	15.45	-45.8	-46.9	16.4	0.00e+00	0	57	0	1877999616	54	4065
2026-01-02 23:37:33.04	167.70	15.35	-45.6	-46.7	16.5	0.00e+00	0	57	0	1881145344	54	3982
2026-01-02 23:37:34.03	167.79	15.25	-45.6	-46.7	16.5	0.00e+00	0	57	0	1884291072	54	3973
2026-01-02 23:37:35.01	167.88	15.15	-45.7	-46.8	16.4	0.00e+00	0	57	0	1887436800	54	4048
2026-01-02 23:37:36.00	167.96	15.05	-45.8	-46.9	16.3	0.00e+00	0	57	0	1890582528	54	4085
2026-01-02 23:37:37.00	168.05	14.96	-46.0	-47.1	16.1	0.00e+00	0	57	0	1893728256	54	4192
2026-01-02 23:37:37.97	168.13	14.86	-45.8	-46.9	16.3	0.00e+00	0	57	0	1896873984	54	4094
2026-01-02 23:37:38.96	168.22	14.77	-45.9	-47.1	16.2	0.00e+00	0	57	0	1900019712	54	4148
2026-01-02 23:37:39.95	168.30	14.67	-46.2	-47.4	15.8	0.00e+00	0	57	0	1903165440	54	4330
2026-01-02 23:37:40.93	168.38	14.58	-46.0	-47.1	16.2	0.00e+00	0	57	0	1906311168	54	4171
2026-01-02 23:37:41.92	168.46	14.48	-45.8	-46.9	16.4	0.00e+00	0	57	0	1909456896	54	4064
2026-01-02 23:37:42.92	168.55	14.39	-45.6	-46.7	16.5	0.00e+00	0	57	0	1912602624	54	3969
2026-01-02 23:37:43.90	168.63	14.29	-45.6	-46.7	16.6	0.00e+00	0	57	0	1915748352	54	3963
2026-01-02 23:37:44.89	168.71	14.20	-45.8	-46.9	16.4	0.00e+00	0	57	0	1918894080	54	4071
2026-01-02 23:37:45.88	168.79	14.10	-45.8	-46.8	16.4	0.00e+00	0	57	0	1922039808	54	4048
2026-01-02 23:37:46.88	168.87	14.01	-45.7	-46.7	16.4	0.00e+00	0	57	0	1925185536	54	4001
2026-01-02 23:37:47.87	168.95	13.92	-45.7	-46.8	16.4	0.00e+00	0	57	0	1928331264	54	4022
2026-01-02 23:37:48.86	169.03	13.82	-45.7	-46.8	16.4	0.00e+00	0	57	0	1931476992	54	4016
2026-01-02 23:37:49.85	169.11	13.73	-45.9	-46.9	16.2	0.00e+00	0	57	0	1934622720	54	4096
2026-01-02 23:37:50.84	169.19	13.64	-45.9	-47.0	16.2	0.00e+00	0	57	0	1937768448	54	4130
2026-01-02 23:37:51.83	169.27	13.55	-46.0	-47.1	16.1	0.00e+00	0	57	0	1939865600	54	4192
2026-01-02 23:37:52.82	169.34	13.45	-46.1	-47.3	15.9	0.00e+00	0	57	0	1943011328	54	4249
2026-01-02 23:37:53.81	169.42	13.36	-46.1	-47.2	16.0	0.00e+00	0	57	0	1946157056	54	4228
2026-01-02 23:37:54.80	169.50	13.27	-46.0	-47.2	16.0	0.00e+00	0	57	0	1949302784	54	4219
2026-01-02 23:37:55.79	169.57	13.18	-46.1	-47.3	15.9	0.00e+00	0	57	0	1952448512	54	4278
2026-01-02 23:37:56.78	169.65	13.09	-46.4	-47.6	15.6	0.00e+00	0	57	0	1955594240	54	4411
2026-01-02 23:37:57.77	169.73	13.00	-46.3	-47.5	15.7	0.00e+00	0	57	0	1958739968	54	4385
2026-01-02 23:37:58.76	169.80	12.91	-46.2	-47.4	15.7	0.00e+00	0	57	0	1961885696	54	4327
2026-01-02 23:37:59.74	169.87	12.82	-46.3	-47.5	15.7	0.00e+00	0	57	0	1965031424	54	4353
2026-01-02 23:38:00.72	169.95	12.73	-46.3	-47.6	15.6	0.00e+00	0	57	0	1968177152	54	4392
2026-01-02 23:38:01.71	170.02	12.64	-46.5	-47.8	15.4	0.00e+00	0	57	0	1971322880	54	4508
2026-01-02 23:38:02.71	170.09	12.55	-46.4	-47.7	15.5	0.00e+00	0	57	0	1974468608	54	4461
2026-01-02 23:38:03.70	170.17	12.46	-46.3	-47.6	15.6	0.00e+00	0	57	0	1977614336	54	4416
2026-01-02 23:38:04.70	170.24	12.38	-46.3	-47.5	15.6	0.00e+00	0	57	0	1980760064	54	4382
2026-01-02 23:38:05.68	170.31	12.29	-46.3	-47.6	15.5	0.00e+00	0	57	0	1983905792	54	4426
2026-01-02 23:38:06.67	170.38	12.20	-46.5	-47.8	15.4	0.00e+00	0	57	0	1987051520	54	4510
2026-01-02 23:38:07.66	170.45	12.11	-46.4	-47.7	15.5	0.00e+00	0	57	0	1990197248	54	4443
2026-01-02 23:38:08.64	170.52	12.03	-46.2	-47.4	15.7	0.00e+00	0	57	0	1993342976	54	4340
2026-01-02 23:38:09.63	170.59	11.94	-46.2	-47.4	15.7	7.00e-07	0	57	0	1995440128	54	4310
2026-01-02 23:38:10.61	170.66	11.85	-46.2	-47.4	15.7	0.00e+00	0	57	0	1998585856	54	4308
2026-01-02 23:38:11.61	170.73	11.77	-46.2	-47.4	15.7	0.00e+00	0	57	0	2001731584	54	4317
2026-01-02 23:38:12.60	170.80	11.68	-46.2	-47.5	15.7	0.00e+00	0	57	0	2004877312	54	4357
2026-01-02 23:38:13.58	170.87	11.60	-46.4	-47.6	15.5	0.00e+00	0	57	0	2008023040	54	4432
