passes_logs/2026/01/02/R3.0SM8_Murmansk_STILSPACE/R3.0SM8_Murmansk_STILSPACE__20260102_093415_FENGYUN_3D_rec.log

#Pass ID: 20260102_093415_FENGYUN 3D
#Satellite: FENGYUN 3D
#Configuration: FENGYUN 3D
#almurnet v.1.7.20240730
#Start time: 2026-01-02 09:34:14

#Version: 2.2.20231116
#Station: R3.0SM8_Murmansk_STILSPACE
#Location: 33.092731 lon 68.902999 lat
#TLE: 1 43010U 17072A   26001.33100487  .00000602  00000+0  30664-3 0  9999
#TLE: 2 43010  98.9910 332.9374 0001848 133.1047 227.0283 14.19692078421319

#Time	Az	El	Level	Level2	SNR	BER	BlckErr	Temp	State	Recorded	gain1	gain2
2026-01-02 09:34:14.92	105.94	2.98	-52.4	-63.2	3.8	8.45e-01	0	45	0	0	67	12593
2026-01-02 09:34:15.91	105.89	3.05	-52.2	-63.1	3.8	8.45e-01	0	46	104	0	67	12459
2026-01-02 09:34:16.88	105.85	3.11	-52.2	-63.1	3.8	8.46e-01	0	45	104	0	67	12392
2026-01-02 09:34:17.87	105.81	3.17	-52.2	-63.0	3.8	8.47e-01	0	46	104	0	67	12346
2026-01-02 09:34:18.87	105.76	3.23	-52.0	-63.0	3.8	8.47e-01	0	46	104	0	67	12309
2026-01-02 09:34:19.85	105.72	3.30	-52.1	-62.9	3.8	8.46e-01	0	46	104	0	67	12218
2026-01-02 09:34:20.84	105.67	3.36	-52.0	-62.8	3.8	8.45e-01	0	46	104	0	67	12085
2026-01-02 09:34:21.83	105.63	3.42	-51.9	-62.7	3.8	8.47e-01	0	46	104	0	66	12576
2026-01-02 09:34:22.82	105.58	3.49	-51.7	-62.4	3.8	8.46e-01	0	46	104	0	66	12169
2026-01-02 09:34:23.81	105.54	3.55	-51.5	-62.2	3.8	8.45e-01	0	46	104	0	66	11877
2026-01-02 09:34:24.80	105.49	3.61	-51.4	-62.2	3.8	8.45e-01	0	46	104	0	66	11910
2026-01-02 09:34:25.79	105.45	3.68	-51.6	-62.2	3.8	8.46e-01	0	46	104	0	66	11889
2026-01-02 09:34:26.78	105.40	3.74	-51.6	-62.1	3.8	8.46e-01	0	46	104	0	66	11793
2026-01-02 09:34:27.77	105.35	3.80	-51.6	-62.2	3.8	8.46e-01	0	46	104	0	66	11874
2026-01-02 09:34:28.74	105.31	3.87	-51.6	-62.1	3.8	8.46e-01	0	47	104	0	66	11759
2026-01-02 09:34:29.73	105.26	3.93	-51.4	-61.9	3.8	8.47e-01	0	47	104	0	65	12228
2026-01-02 09:34:30.72	105.22	4.00	-51.4	-61.8	3.8	8.46e-01	0	47	104	0	65	12067
2026-01-02 09:34:31.71	105.17	4.06	-51.4	-61.7	3.8	8.46e-01	0	47	104	0	65	11838
2026-01-02 09:34:32.70	105.12	4.13	-51.3	-61.4	3.8	8.46e-01	0	47	104	0	65	11449
2026-01-02 09:34:33.68	105.07	4.19	-51.4	-61.0	3.8	8.45e-01	0	47	104	0	65	10990
2026-01-02 09:34:34.67	105.03	4.25	-51.4	-60.6	3.8	8.46e-01	0	47	104	0	65	10516
2026-01-02 09:34:35.67	104.98	4.32	-51.2	-60.0	3.8	8.44e-01	0	47	104	0	65	9790
2026-01-02 09:34:36.66	104.93	4.39	-51.2	-59.5	3.9	8.43e-01	0	47	104	0	65	9250
2026-01-02 09:34:37.66	104.88	4.45	-51.0	-58.6	4.2	8.38e-01	0	47	0	0	65	8354
2026-01-02 09:34:38.65	104.83	4.52	-50.9	-57.8	4.5	8.26e-01	0	47	0	0	64	8076
2026-01-02 09:34:39.63	104.78	4.58	-50.7	-57.1	4.9	7.95e-01	0	47	0	0	64	7397
2026-01-02 09:34:40.62	104.74	4.65	-50.6	-56.4	5.2	7.52e-01	0	47	0	0	64	6852
2026-01-02 09:34:41.61	104.69	4.71	-50.4	-55.7	5.8	6.53e-01	0	48	0	1048576	63	6657
2026-01-02 09:34:42.60	104.64	4.78	-50.1	-55.0	6.3	3.25e-01	0	47	0	6291456	63	6159
2026-01-02 09:34:43.58	104.59	4.85	-50.0	-54.3	6.9	2.38e-01	0	48	0	12582912	63	5708
2026-01-02 09:34:44.58	104.54	4.91	-49.7	-53.5	7.7	1.17e-01	0	48	0	17825792	62	5518
2026-01-02 09:34:45.57	104.49	4.98	-49.3	-52.9	8.3	7.14e-02	0	48	0	23068672	61	5420
2026-01-02 09:34:46.56	104.44	5.05	-49.2	-52.6	8.6	4.09e-02	0	48	0	29360128	61	5241
2026-01-02 09:34:47.55	104.39	5.11	-49.3	-52.8	8.4	4.82e-02	0	48	0	34603008	61	5368
2026-01-02 09:34:48.55	104.33	5.18	-49.5	-53.0	8.2	7.96e-02	0	48	0	39845888	61	5522
2026-01-02 09:34:49.53	104.28	5.25	-49.2	-52.4	8.8	4.40e-02	0	48	0	46137344	61	5149
2026-01-02 09:34:50.52	104.23	5.31	-48.8	-51.9	9.3	2.63e-02	0	48	0	51380224	60	5135
2026-01-02 09:34:51.49	104.18	5.38	-48.5	-51.4	9.9	1.35e-02	0	48	0	56623104	60	4836
2026-01-02 09:34:52.48	104.13	5.45	-48.4	-51.2	10.1	9.37e-03	0	48	0	62914560	59	4998
2026-01-02 09:34:53.47	104.08	5.52	-48.3	-50.9	10.4	6.22e-03	0	48	0	68157440	59	4851
2026-01-02 09:34:54.45	104.03	5.58	-48.4	-51.0	10.3	6.88e-03	0	48	0	73400320	59	4921
2026-01-02 09:34:55.44	103.97	5.65	-48.7	-51.4	9.9	8.00e-03	0	48	0	78643200	59	5141
2026-01-02 09:34:56.42	103.92	5.72	-48.8	-51.6	9.7	1.92e-02	0	48	0	84934656	59	5256
2026-01-02 09:34:57.41	103.87	5.79	-48.3	-50.8	10.5	6.42e-03	0	49	0	90177536	59	4805
2026-01-02 09:34:58.40	103.81	5.86	-47.7	-50.0	11.4	1.97e-03	0	48	0	95420416	58	4602
2026-01-02 09:34:59.38	103.76	5.92	-47.2	-49.1	12.3	3.38e-04	0	49	0	101711872	57	4422
2026-01-02 09:35:00.37	103.71	5.99	-46.8	-48.6	12.9	9.72e-05	0	49	0	106954752	56	4405
2026-01-02 09:35:01.35	103.65	6.06	-46.4	-48.1	13.4	2.97e-05	0	49	0	112197632	56	4158
2026-01-02 09:35:02.34	103.60	6.13	-46.0	-47.6	13.8	9.10e-06	0	49	0	117440512	55	4167
2026-01-02 09:35:03.33	103.54	6.20	-45.7	-47.1	14.2	1.10e-06	0	49	0	123731968	54	4189
2026-01-02 09:35:04.32	103.49	6.27	-45.4	-46.8	14.5	1.10e-06	0	49	0	128974848	54	4050
2026-01-02 09:35:05.31	103.43	6.34	-45.1	-46.4	14.9	0.00e+00	0	49	0	134217728	53	4069
2026-01-02 09:35:06.30	103.38	6.41	-44.9	-46.2	15.1	0.00e+00	0	49	0	140509184	53	3994
2026-01-02 09:35:07.29	103.32	6.48	-45.0	-46.3	15.1	0.00e+00	0	49	0	145752064	53	4007
2026-01-02 09:35:08.28	103.26	6.55	-45.0	-46.3	15.1	0.00e+00	0	49	0	150994944	53	4037
2026-01-02 09:35:09.27	103.21	6.62	-45.1	-46.4	15.0	0.00e+00	0	49	0	157286400	53	4072
2026-01-02 09:35:10.25	103.15	6.69	-44.9	-46.2	15.2	0.00e+00	0	49	0	162529280	53	3985
2026-01-02 09:35:11.24	103.09	6.76	-44.8	-46.1	15.3	0.00e+00	0	49	0	167772160	52	4170
2026-01-02 09:35:12.23	103.04	6.83	-44.8	-46.1	15.3	0.00e+00	0	49	0	174063616	52	4153
2026-01-02 09:35:13.21	102.98	6.90	-44.9	-46.2	15.2	0.00e+00	0	49	0	179306496	52	4200
2026-01-02 09:35:14.21	102.92	6.97	-44.9	-46.2	15.2	0.00e+00	0	49	0	184549376	52	4237
2026-01-02 09:35:15.20	102.86	7.04	-44.8	-46.0	15.4	0.00e+00	0	50	0	189792256	52	4145
2026-01-02 09:35:16.18	102.80	7.11	-44.5	-45.7	15.7	0.00e+00	0	49	0	196083712	52	3991
2026-01-02 09:35:17.17	102.75	7.18	-44.6	-45.8	15.6	0.00e+00	0	50	0	201326592	52	4016
2026-01-02 09:35:18.15	102.69	7.26	-44.6	-45.8	15.7	0.00e+00	0	50	0	206569472	52	4011
2026-01-02 09:35:19.14	102.63	7.33	-44.7	-45.9	15.5	0.00e+00	0	50	0	212860928	52	4074
2026-01-02 09:35:20.14	102.57	7.40	-44.7	-46.0	15.5	0.00e+00	0	50	0	218103808	52	4100
2026-01-02 09:35:21.13	102.51	7.47	-44.7	-45.9	15.5	0.00e+00	0	50	0	223346688	52	4094
2026-01-02 09:35:22.12	102.45	7.55	-44.8	-46.1	15.4	0.00e+00	0	50	0	228589568	52	4150
2026-01-02 09:35:23.11	102.38	7.62	-44.9	-46.2	15.3	0.00e+00	0	50	0	234881024	52	4211
2026-01-02 09:35:24.10	102.32	7.69	-45.1	-46.4	15.1	0.00e+00	0	50	0	240123904	52	4328
2026-01-02 09:35:25.09	102.26	7.76	-44.8	-46.1	15.4	0.00e+00	0	50	0	245366784	52	4164
2026-01-02 09:35:26.08	102.20	7.84	-44.6	-45.8	15.7	0.00e+00	0	50	0	251658240	52	4014
2026-01-02 09:35:27.07	102.14	7.91	-44.5	-45.7	15.8	0.00e+00	0	50	0	256901120	52	3973
2026-01-02 09:35:28.06	102.08	7.98	-44.6	-45.8	15.7	0.00e+00	0	50	0	262144000	52	4033
2026-01-02 09:35:29.05	102.01	8.06	-44.8	-46.0	15.5	0.00e+00	0	50	0	268435456	52	4122
2026-01-02 09:35:30.03	101.95	8.13	-44.5	-45.6	15.9	0.00e+00	0	50	0	273678336	52	3933
2026-01-02 09:35:31.02	101.89	8.20	-44.3	-45.4	16.2	0.00e+00	0	50	0	278921216	51	4082
2026-01-02 09:35:32.01	101.82	8.28	-44.2	-45.3	16.3	0.00e+00	0	50	0	285212672	51	4027
2026-01-02 09:35:33.00	101.76	8.35	-44.2	-45.3	16.3	0.00e+00	0	50	0	290455552	51	4033
2026-01-02 09:35:33.99	101.69	8.43	-44.4	-45.5	16.1	0.00e+00	0	50	0	295698432	51	4127
2026-01-02 09:35:34.97	101.63	8.50	-44.3	-45.4	16.2	0.00e+00	0	50	0	301989888	51	4077
2026-01-02 09:35:35.97	101.56	8.58	-44.4	-45.4	16.2	0.00e+00	0	50	0	307232768	51	4095
2026-01-02 09:35:36.95	101.50	8.65	-44.5	-45.6	16.1	0.00e+00	0	50	0	312475648	51	4161
2026-01-02 09:35:37.94	101.43	8.73	-44.8	-46.0	15.7	0.00e+00	0	51	0	317718528	51	4359
2026-01-02 09:35:38.93	101.37	8.80	-44.7	-45.8	15.8	0.00e+00	0	50	0	324009984	51	4274
2026-01-02 09:35:39.91	101.30	8.88	-44.4	-45.5	16.2	0.00e+00	0	51	0	329252864	51	4123
2026-01-02 09:35:40.90	101.23	8.95	-44.2	-45.2	16.5	0.00e+00	0	51	0	334495744	51	3991
2026-01-02 09:35:41.88	101.17	9.03	-44.1	-45.1	16.5	0.00e+00	0	51	0	340787200	51	3953
2026-01-02 09:35:42.87	101.10	9.11	-44.1	-45.1	16.5	0.00e+00	0	51	0	346030080	51	3947
2026-01-02 09:35:43.87	101.03	9.18	-44.1	-45.1	16.5	0.00e+00	0	51	0	351272960	51	3953
2026-01-02 09:35:44.86	100.96	9.26	-44.3	-45.3	16.4	0.00e+00	0	51	0	356515840	51	4044
2026-01-02 09:35:45.84	100.90	9.34	-44.1	-45.2	16.5	0.00e+00	0	51	0	362807296	51	3968
2026-01-02 09:35:46.84	100.83	9.41	-44.2	-45.3	16.4	0.00e+00	0	51	0	368050176	51	4033
2026-01-02 09:35:47.83	100.76	9.49	-44.5	-45.6	16.1	0.00e+00	0	51	0	374341632	51	4165
2026-01-02 09:35:48.82	100.69	9.57	-44.3	-45.4	16.3	0.00e+00	0	51	0	379584512	51	4096
2026-01-02 09:35:49.81	100.62	9.65	-44.1	-45.2	16.6	0.00e+00	0	51	0	384827392	51	3960
2026-01-02 09:35:50.80	100.54	9.72	-43.9	-44.9	16.7	0.00e+00	0	51	0	390070272	51	3868
2026-01-02 09:35:51.78	100.47	9.80	-43.9	-44.9	16.8	0.00e+00	0	51	0	396361728	50	4059
2026-01-02 09:35:52.77	100.40	9.88	-43.9	-44.9	16.9	0.00e+00	0	51	0	401604608	50	4062
2026-01-02 09:35:53.76	100.33	9.96	-43.9	-44.9	16.8	0.00e+00	0	51	0	406847488	50	4080
2026-01-02 09:35:54.75	100.26	10.04	-44.0	-45.0	16.7	0.00e+00	0	51	0	413138944	50	4143
2026-01-02 09:35:55.74	100.19	10.11	-43.9	-44.9	16.8	0.00e+00	0	51	0	418381824	50	4080
2026-01-02 09:35:56.73	100.11	10.19	-43.8	-44.8	16.9	0.00e+00	0	51	0	423624704	50	4028
2026-01-02 09:35:57.72	100.04	10.27	-43.8	-44.8	17.0	0.00e+00	0	51	0	428867584	50	4006
2026-01-02 09:35:58.70	99.97	10.35	-43.8	-44.8	16.9	0.00e+00	0	51	0	435159040	50	4027
2026-01-02 09:35:59.69	99.89	10.43	-43.9	-44.9	16.8	0.00e+00	0	51	0	440401920	50	4086
2026-01-02 09:36:00.68	99.82	10.51	-43.9	-44.9	16.8	0.00e+00	0	51	0	445644800	50	4081
2026-01-02 09:36:01.67	99.74	10.59	-43.9	-44.9	16.8	0.00e+00	0	51	0	451936256	50	4083
2026-01-02 09:36:02.66	99.67	10.67	-44.0	-45.1	16.7	0.00e+00	0	52	0	457179136	50	4162
2026-01-02 09:36:03.64	99.59	10.75	-44.3	-45.4	16.4	0.00e+00	0	52	0	462422016	50	4294
2026-01-02 09:36:04.63	99.51	10.83	-44.2	-45.2	16.5	0.00e+00	0	52	0	468713472	50	4240
2026-01-02 09:36:05.62	99.44	10.91	-44.0	-45.0	16.8	0.00e+00	0	52	0	473956352	50	4127
2026-01-02 09:36:06.61	99.36	10.99	-43.8	-44.8	17.0	0.00e+00	0	52	0	479199232	50	4031
2026-01-02 09:36:07.60	99.28	11.08	-43.8	-44.8	17.0	0.00e+00	0	52	0	484442112	50	4013
2026-01-02 09:36:08.59	99.20	11.16	-43.8	-44.8	17.0	0.00e+00	0	52	0	490733568	50	4017
2026-01-02 09:36:09.57	99.13	11.24	-43.8	-44.8	17.0	0.00e+00	0	52	0	495976448	50	4014
2026-01-02 09:36:10.57	99.05	11.32	-43.8	-44.8	17.0	0.00e+00	0	52	0	501219328	50	4010
2026-01-02 09:36:11.56	98.97	11.40	-43.9	-44.9	16.9	0.00e+00	0	52	0	507510784	50	4091
2026-01-02 09:36:12.55	98.89	11.49	-43.9	-44.9	16.9	0.00e+00	0	52	0	512753664	50	4068
2026-01-02 09:36:13.54	98.80	11.57	-43.6	-44.6	17.2	0.00e+00	0	52	0	517996544	50	3916
2026-01-02 09:36:14.53	98.72	11.65	-43.5	-44.5	17.3	0.00e+00	0	52	0	524288000	50	3870
2026-01-02 09:36:15.52	98.64	11.74	-43.6	-44.5	17.3	0.00e+00	0	52	0	529530880	50	3903
2026-01-02 09:36:16.51	98.56	11.82	-43.6	-44.5	17.3	0.00e+00	0	52	0	534773760	50	3904
2026-01-02 09:36:17.50	98.48	11.90	-43.7	-44.7	17.2	0.00e+00	0	52	0	541065216	50	3970
2026-01-02 09:36:18.49	98.39	11.99	-43.6	-44.5	17.3	0.00e+00	0	52	0	546308096	50	3909
2026-01-02 09:36:19.48	98.31	12.07	-43.4	-44.3	17.5	0.00e+00	0	52	0	551550976	50	3813
2026-01-02 09:36:20.48	98.23	12.16	-43.3	-44.2	17.6	0.00e+00	0	52	0	557842432	49	3981
2026-01-02 09:36:21.46	98.14	12.24	-43.3	-44.2	17.6	0.00e+00	0	52	0	563085312	49	3976
2026-01-02 09:36:22.45	98.06	12.32	-43.4	-44.3	17.5	0.00e+00	0	52	0	568328192	49	4035
2026-01-02 09:36:23.44	97.97	12.41	-43.4	-44.3	17.5	0.00e+00	0	52	0	574619648	49	4039
2026-01-02 09:36:24.42	97.89	12.49	-43.2	-44.1	17.7	0.00e+00	0	52	0	579862528	49	3957
2026-01-02 09:36:25.42	97.80	12.58	-43.2	-44.1	17.7	0.00e+00	0	52	0	585105408	49	3953
2026-01-02 09:36:26.42	97.71	12.67	-43.2	-44.1	17.7	0.00e+00	0	52	0	590348288	49	3935
2026-01-02 09:36:27.41	97.62	12.75	-43.2	-44.1	17.7	0.00e+00	0	52	0	596639744	49	3928
2026-01-02 09:36:28.39	97.54	12.84	-43.2	-44.1	17.7	0.00e+00	0	52	0	601882624	49	3922
2026-01-02 09:36:29.38	97.45	12.92	-43.2	-44.1	17.7	0.00e+00	0	52	0	607125504	49	3944
2026-01-02 09:36:30.36	97.36	13.01	-43.1	-44.0	17.8	0.00e+00	0	52	0	613416960	49	3899
2026-01-02 09:36:31.35	97.27	13.10	-43.2	-44.1	17.7	0.00e+00	0	52	0	618659840	49	3932
2026-01-02 09:36:32.34	97.18	13.18	-43.1	-44.0	17.9	0.00e+00	0	52	0	623902720	49	3873
2026-01-02 09:36:33.33	97.09	13.27	-43.1	-43.9	17.9	0.00e+00	0	53	0	630194176	49	3868
2026-01-02 09:36:34.32	97.00	13.36	-43.4	-44.3	17.6	0.00e+00	0	52	0	635437056	49	4014
2026-01-02 09:36:35.31	96.91	13.45	-43.5	-44.4	17.4	0.00e+00	0	53	0	640679936	49	4095
2026-01-02 09:36:36.31	96.81	13.53	-43.4	-44.3	17.6	0.00e+00	0	52	0	645922816	49	4021
2026-01-02 09:36:37.30	96.72	13.62	-43.5	-44.5	17.4	0.00e+00	0	53	0	652214272	49	4125
2026-01-02 09:36:38.28	96.63	13.71	-43.2	-44.1	17.8	0.00e+00	0	53	0	657457152	49	3944
2026-01-02 09:36:39.28	96.53	13.80	-43.1	-44.0	17.9	0.00e+00	0	53	0	663748608	49	3874
2026-01-02 09:36:40.26	96.44	13.89	-43.3	-44.2	17.7	0.00e+00	0	53	0	668991488	49	3963
2026-01-02 09:36:41.25	96.34	13.98	-43.3	-44.2	17.7	0.00e+00	0	53	0	674234368	49	3982
2026-01-02 09:36:42.24	96.25	14.07	-43.3	-44.2	17.7	0.00e+00	0	53	0	679477248	49	3989
2026-01-02 09:36:43.22	96.15	14.16	-43.4	-44.3	17.5	0.00e+00	0	53	0	685768704	49	4039
2026-01-02 09:36:44.21	96.05	14.25	-43.1	-44.0	17.8	0.00e+00	0	53	0	691011584	49	3894
2026-01-02 09:36:45.21	95.95	14.34	-43.0	-43.9	17.9	0.00e+00	0	53	0	696254464	49	3849
2026-01-02 09:36:46.19	95.86	14.43	-42.9	-43.8	18.1	0.00e+00	0	53	0	702545920	49	3800
2026-01-02 09:36:47.18	95.76	14.52	-43.0	-43.8	18.0	0.00e+00	0	53	0	707788800	48	4029
2026-01-02 09:36:48.17	95.66	14.61	-43.0	-43.8	18.0	0.00e+00	0	53	0	713031680	48	4032
2026-01-02 09:36:49.17	95.56	14.70	-42.9	-43.7	18.1	0.00e+00	0	53	0	718274560	48	4000
2026-01-02 09:36:50.15	95.46	14.79	-42.9	-43.8	18.0	0.00e+00	0	53	0	724566016	48	4031
2026-01-02 09:36:51.14	95.35	14.88	-42.9	-43.7	18.0	0.00e+00	0	53	0	729808896	48	4003
2026-01-02 09:36:52.13	95.25	14.97	-42.8	-43.7	18.2	0.00e+00	0	53	0	735051776	48	3967
2026-01-02 09:36:53.12	95.15	15.07	-42.8	-43.7	18.2	0.00e+00	0	53	0	741343232	48	3965
2026-01-02 09:36:54.11	95.05	15.16	-43.1	-44.0	17.9	0.00e+00	0	53	0	746586112	48	4130
2026-01-02 09:36:55.10	94.94	15.25	-42.9	-43.8	18.1	0.00e+00	0	53	0	751828992	48	4014
2026-01-02 09:36:56.10	94.84	15.35	-42.7	-43.6	18.3	0.00e+00	0	53	0	758120448	48	3935
2026-01-02 09:36:57.08	94.73	15.44	-43.0	-43.8	18.1	0.00e+00	0	53	0	763363328	48	4047
2026-01-02 09:36:58.06	94.63	15.53	-42.8	-43.6	18.2	0.00e+00	0	53	0	768606208	48	3954
2026-01-02 09:36:59.05	94.52	15.62	-42.8	-43.6	18.3	0.00e+00	0	53	0	773849088	48	3942
2026-01-02 09:37:00.04	94.41	15.72	-42.8	-43.7	18.3	0.00e+00	0	53	0	780140544	48	3968
2026-01-02 09:37:01.04	94.30	15.81	-43.0	-43.9	18.0	0.00e+00	0	53	0	785383424	48	4060
2026-01-02 09:37:02.03	94.19	15.91	-42.7	-43.5	18.4	0.00e+00	0	53	0	791674880	48	3909
2026-01-02 09:37:03.02	94.08	16.00	-42.6	-43.4	18.5	0.00e+00	0	53	0	796917760	48	3841
2026-01-02 09:37:04.01	93.97	16.10	-42.6	-43.4	18.5	0.00e+00	0	53	0	802160640	48	3846
2026-01-02 09:37:04.99	93.86	16.19	-42.7	-43.5	18.4	0.00e+00	0	53	0	807403520	48	3884
2026-01-02 09:37:05.98	93.75	16.29	-42.7	-43.5	18.5	0.00e+00	0	53	0	813694976	48	3883
2026-01-02 09:37:06.97	93.64	16.38	-42.9	-43.7	18.3	0.00e+00	0	53	0	818937856	48	3985
2026-01-02 09:37:07.96	93.52	16.48	-42.7	-43.4	18.6	0.00e+00	0	53	0	824180736	48	3860
2026-01-02 09:37:08.95	93.41	16.58	-42.5	-43.2	18.8	0.00e+00	0	53	0	830472192	48	3753
2026-01-02 09:37:09.94	93.30	16.67	-42.2	-42.9	18.9	0.00e+00	0	53	0	835715072	47	3860
2026-01-02 09:37:10.93	93.18	16.77	-42.2	-42.9	18.9	0.00e+00	0	53	0	840957952	47	3867
2026-01-02 09:37:11.92	93.06	16.87	-42.2	-43.0	18.9	0.00e+00	0	53	0	847249408	47	3870
2026-01-02 09:37:12.91	92.95	16.97	-42.3	-43.0	18.9	0.00e+00	0	53	0	852492288	47	3906
2026-01-02 09:37:13.90	92.83	17.06	-42.4	-43.2	18.7	0.00e+00	0	54	0	857735168	47	3962
2026-01-02 09:37:14.88	92.71	17.16	-42.3	-43.1	18.8	0.00e+00	0	54	0	864026624	47	3924
2026-01-02 09:37:15.87	92.59	17.26	-42.3	-43.1	18.8	0.00e+00	0	54	0	869269504	47	3936
2026-01-02 09:37:16.86	92.47	17.36	-42.5	-43.2	18.6	0.00e+00	0	54	0	874512384	47	4000
2026-01-02 09:37:17.85	92.35	17.46	-42.4	-43.2	18.7	0.00e+00	0	54	0	879755264	47	3978
2026-01-02 09:37:18.84	92.23	17.55	-42.4	-43.2	18.7	0.00e+00	0	54	0	886046720	47	3979
2026-01-02 09:37:19.82	92.11	17.65	-42.5	-43.3	18.6	0.00e+00	0	53	0	891289600	47	4011
2026-01-02 09:37:20.81	91.98	17.75	-42.7	-43.5	18.4	0.00e+00	0	53	0	896532480	47	4116
2026-01-02 09:37:21.80	91.86	17.85	-42.5	-43.3	18.6	0.00e+00	0	54	0	902823936	47	4026
2026-01-02 09:37:22.78	91.73	17.95	-42.3	-43.0	18.8	0.00e+00	0	54	0	908066816	47	3913
2026-01-02 09:37:23.78	91.61	18.05	-42.1	-42.9	19.0	0.00e+00	0	54	0	913309696	47	3834
2026-01-02 09:37:24.77	91.48	18.15	-42.0	-42.7	19.2	0.00e+00	0	54	0	918552576	47	3758
2026-01-02 09:37:25.76	91.35	18.25	-42.0	-42.7	19.2	0.00e+00	0	54	0	924844032	47	3752
2026-01-02 09:37:26.75	91.22	18.36	-42.0	-42.7	19.2	0.00e+00	0	54	0	930086912	47	3750
2026-01-02 09:37:27.75	91.09	18.46	-42.1	-42.9	19.0	0.00e+00	0	54	0	935329792	47	3826
2026-01-02 09:37:28.73	90.96	18.56	-42.0	-42.7	19.2	0.00e+00	0	54	0	941621248	47	3752
2026-01-02 09:37:29.71	90.83	18.66	-41.8	-42.5	19.4	0.00e+00	0	54	0	946864128	46	3881
2026-01-02 09:37:30.69	90.70	18.76	-41.8	-42.5	19.4	0.00e+00	0	54	0	952107008	46	3906
2026-01-02 09:37:31.68	90.57	18.86	-41.8	-42.5	19.4	0.00e+00	0	54	0	958398464	46	3896
2026-01-02 09:37:32.67	90.44	18.97	-42.0	-42.7	19.2	0.00e+00	0	54	0	963641344	46	3991
2026-01-02 09:37:33.66	90.30	19.07	-42.0	-42.7	19.2	0.00e+00	0	54	0	968884224	46	3985
2026-01-02 09:37:34.65	90.16	19.17	-42.0	-42.7	19.2	0.00e+00	0	54	0	974127104	46	3965
2026-01-02 09:37:35.64	90.03	19.27	-42.0	-42.7	19.2	0.00e+00	0	54	0	980418560	46	3987
2026-01-02 09:37:36.63	89.89	19.38	-41.9	-42.6	19.3	0.00e+00	0	54	0	985661440	46	3919
2026-01-02 09:37:37.62	89.75	19.48	-41.7	-42.4	19.5	0.00e+00	0	54	0	991952896	46	3839
2026-01-02 09:37:38.62	89.61	19.59	-41.8	-42.4	19.5	0.00e+00	0	54	0	997195776	46	3863
2026-01-02 09:37:39.61	89.47	19.69	-42.0	-42.7	19.2	0.00e+00	0	54	0	1002438656	46	3971
2026-01-02 09:37:40.60	89.33	19.80	-41.9	-42.6	19.3	0.00e+00	0	54	0	1007681536	46	3935
2026-01-02 09:37:41.59	89.19	19.90	-41.7	-42.3	19.6	0.00e+00	0	54	0	1013972992	46	3818
2026-01-02 09:37:42.58	89.04	20.01	-41.5	-42.1	19.8	0.00e+00	0	54	0	1019215872	46	3728
2026-01-02 09:37:43.57	88.90	20.11	-41.5	-42.2	19.7	0.00e+00	0	54	0	1024458752	46	3762
2026-01-02 09:37:44.56	88.75	20.22	-41.5	-42.2	19.7	0.00e+00	0	54	0	1030750208	46	3766
2026-01-02 09:37:45.56	88.60	20.33	-41.5	-42.2	19.7	0.00e+00	0	54	0	1035993088	46	3767
2026-01-02 09:37:46.54	88.46	20.43	-41.8	-42.5	19.4	0.00e+00	0	54	0	1041235968	46	3913
2026-01-02 09:37:47.52	88.31	20.54	-41.9	-42.6	19.3	0.00e+00	0	54	0	1047527424	46	3932
2026-01-02 09:37:48.52	88.16	20.64	-41.6	-42.3	19.6	0.00e+00	0	54	0	1052770304	46	3795
2026-01-02 09:37:49.50	88.01	20.75	-41.5	-42.1	19.8	0.00e+00	0	54	0	1058013184	46	3721
2026-01-02 09:37:50.50	87.85	20.86	-41.4	-42.0	19.9	0.00e+00	0	54	0	1063256064	45	3909
2026-01-02 09:37:51.49	87.70	20.97	-41.4	-42.0	19.9	0.00e+00	0	54	0	1069547520	45	3899
2026-01-02 09:37:52.48	87.55	21.07	-41.3	-42.0	19.9	0.00e+00	0	54	0	1074790400	45	3870
2026-01-02 09:37:53.47	87.39	21.18	-41.2	-41.9	20.0	0.00e+00	0	54	0	1080033280	45	3839
2026-01-02 09:37:54.45	87.24	21.29	-41.3	-41.9	20.0	0.00e+00	0	54	0	1086324736	45	3858
2026-01-02 09:37:55.44	87.08	21.40	-41.2	-41.8	20.0	0.00e+00	0	54	0	1091567616	45	3820
2026-01-02 09:37:56.42	86.92	21.50	-40.9	-41.5	20.3	0.00e+00	0	54	0	1096810496	45	3685
2026-01-02 09:37:57.41	86.76	21.61	-40.8	-41.4	20.5	0.00e+00	0	54	0	1103101952	44	3853
2026-01-02 09:37:58.40	86.60	21.72	-40.8	-41.4	20.5	0.00e+00	0	54	0	1108344832	44	3845
2026-01-02 09:37:59.39	86.44	21.83	-40.9	-41.5	20.4	0.00e+00	0	54	0	1113587712	44	3881
2026-01-02 09:38:00.38	86.28	21.94	-41.0	-41.7	20.2	0.00e+00	0	54	0	1119879168	44	3960
2026-01-02 09:38:01.37	86.11	22.05	-41.2	-41.8	20.1	0.00e+00	0	54	0	1125122048	44	4037
2026-01-02 09:38:02.36	85.95	22.16	-41.1	-41.7	20.2	0.00e+00	0	54	0	1130364928	44	3997
2026-01-02 09:38:03.35	85.78	22.27	-41.3	-41.9	20.0	0.00e+00	0	54	0	1135607808	44	4093
2026-01-02 09:38:04.34	85.61	22.38	-41.4	-42.0	19.9	0.00e+00	0	54	0	1141899264	44	4143
2026-01-02 09:38:05.33	85.44	22.49	-41.2	-41.8	20.1	0.00e+00	0	54	0	1147142144	44	4040
2026-01-02 09:38:06.32	85.27	22.60	-41.3	-42.0	20.0	0.00e+00	0	54	0	1152385024	44	4113
2026-01-02 09:38:07.30	85.10	22.71	-41.4	-42.0	19.9	0.00e+00	0	54	0	1158676480	44	4131
2026-01-02 09:38:08.30	84.93	22.82	-41.1	-41.7	20.2	0.00e+00	0	54	0	1163919360	44	3988
2026-01-02 09:38:09.29	84.75	22.94	-41.0	-41.6	20.3	0.00e+00	0	54	0	1169162240	44	3935
2026-01-02 09:38:10.27	84.58	23.05	-41.0	-41.6	20.3	0.00e+00	0	54	0	1175453696	44	3945
2026-01-02 09:38:11.26	84.40	23.16	-41.1	-41.7	20.2	0.00e+00	0	54	0	1180696576	44	3967
2026-01-02 09:38:12.25	84.23	23.27	-41.0	-41.6	20.3	0.00e+00	0	54	0	1185939456	44	3934
2026-01-02 09:38:13.24	84.05	23.38	-40.9	-41.6	20.4	0.00e+00	0	55	0	1192230912	44	3920
2026-01-02 09:38:14.24	83.86	23.50	-41.1	-41.8	20.2	0.00e+00	0	55	0	1197473792	44	4016
2026-01-02 09:38:15.22	83.68	23.61	-41.3	-42.0	20.0	0.00e+00	0	54	0	1202716672	44	4114
2026-01-02 09:38:16.20	83.50	23.72	-41.1	-41.7	20.2	0.00e+00	0	55	0	1207959552	44	4004
2026-01-02 09:38:17.19	83.32	23.83	-41.0	-41.6	20.3	0.00e+00	0	55	0	1214251008	44	3942
2026-01-02 09:38:18.18	83.13	23.94	-40.9	-41.6	20.4	0.00e+00	0	54	0	1219493888	44	3920
2026-01-02 09:38:19.17	82.95	24.06	-41.0	-41.6	20.3	0.00e+00	0	55	0	1224736768	44	3949
2026-01-02 09:38:20.16	82.76	24.17	-41.1	-41.7	20.2	0.00e+00	0	54	0	1231028224	44	3978
2026-01-02 09:38:21.14	82.57	24.28	-40.8	-41.4	20.6	0.00e+00	0	54	0	1236271104	44	3837
2026-01-02 09:38:22.13	82.38	24.40	-40.7	-41.3	20.6	0.00e+00	0	55	0	1241513984	44	3803
2026-01-02 09:38:23.12	82.18	24.51	-40.8	-41.4	20.5	0.00e+00	0	55	0	1247805440	44	3848
2026-01-02 09:38:24.11	81.99	24.62	-40.7	-41.3	20.6	0.00e+00	0	54	0	1253048320	44	3822
2026-01-02 09:38:25.09	81.80	24.74	-40.8	-41.4	20.6	0.00e+00	0	55	0	1258291200	44	3831
2026-01-02 09:38:26.08	81.60	24.85	-40.6	-41.2	20.7	0.00e+00	0	54	0	1263534080	44	3769
2026-01-02 09:38:27.06	81.40	24.96	-40.7	-41.3	20.6	0.00e+00	0	54	0	1269825536	44	3813
2026-01-02 09:38:28.05	81.20	25.08	-41.0	-41.6	20.3	0.00e+00	0	55	0	1275068416	44	3941
2026-01-02 09:38:29.03	81.00	25.19	-40.8	-41.4	20.6	0.00e+00	0	55	0	1280311296	44	3825
2026-01-02 09:38:30.01	80.80	25.30	-41.0	-41.6	20.4	0.00e+00	0	55	0	1285554176	44	3932
2026-01-02 09:38:30.99	80.60	25.42	-41.3	-42.0	20.0	0.00e+00	0	55	0	1291845632	44	4119
2026-01-02 09:38:31.99	80.39	25.53	-41.0	-41.6	20.3	0.00e+00	0	55	0	1297088512	44	3947
2026-01-02 09:38:32.99	80.18	25.65	-41.1	-41.8	20.2	0.00e+00	0	55	0	1302331392	44	4017
2026-01-02 09:38:33.97	79.98	25.76	-41.4	-42.0	20.0	0.00e+00	0	55	0	1308622848	44	4129
2026-01-02 09:38:34.96	79.77	25.88	-41.3	-41.9	20.1	0.00e+00	0	55	0	1313865728	44	4089
2026-01-02 09:38:35.95	79.55	25.99	-41.4	-42.1	19.9	0.00e+00	0	55	0	1319108608	44	4148
2026-01-02 09:38:36.94	79.34	26.11	-41.6	-42.2	19.8	0.00e+00	0	55	0	1325400064	44	4236
2026-01-02 09:38:37.93	79.12	26.22	-41.2	-41.9	20.1	0.00e+00	0	55	0	1330642944	45	3835
2026-01-02 09:38:38.92	78.91	26.34	-40.9	-41.6	20.4	0.00e+00	0	55	0	1335885824	45	3697
2026-01-02 09:38:39.92	78.69	26.45	-40.7	-41.3	20.7	0.00e+00	0	55	0	1342177280	44	3799
2026-01-02 09:38:40.91	78.47	26.57	-40.5	-41.0	20.9	0.00e+00	0	55	0	1347420160	44	3691
2026-01-02 09:38:41.91	78.24	26.69	-40.2	-40.7	21.1	0.00e+00	0	55	0	1352663040	43	3772
2026-01-02 09:38:42.90	78.02	26.80	-40.2	-40.8	21.0	0.00e+00	0	55	0	1358954496	43	3797
2026-01-02 09:38:43.90	77.79	26.92	-40.2	-40.7	21.1	0.00e+00	0	55	0	1364197376	43	3778
2026-01-02 09:38:44.88	77.57	27.03	-40.2	-40.8	21.0	0.00e+00	0	55	0	1369440256	43	3811
2026-01-02 09:38:45.87	77.34	27.15	-40.2	-40.8	21.0	0.00e+00	0	55	0	1374683136	43	3800
2026-01-02 09:38:46.86	77.11	27.26	-40.2	-40.8	21.0	0.00e+00	0	55	0	1380974592	43	3814
2026-01-02 09:38:47.85	76.88	27.38	-40.3	-40.8	21.0	0.00e+00	0	55	0	1386217472	43	3811
2026-01-02 09:38:48.84	76.65	27.49	-40.5	-41.1	20.8	0.00e+00	0	55	0	1392508928	43	3917
2026-01-02 09:38:49.83	76.41	27.61	-40.2	-40.8	21.1	0.00e+00	0	55	0	1397751808	43	3792
2026-01-02 09:38:50.82	76.18	27.72	-40.1	-40.6	21.2	0.00e+00	0	55	0	1402994688	43	3732
2026-01-02 09:38:51.81	75.94	27.84	-40.0	-40.5	21.3	0.00e+00	0	55	0	1408237568	43	3678
2026-01-02 09:38:52.79	75.70	27.95	-40.1	-40.7	21.2	0.00e+00	0	55	0	1414529024	43	3743
2026-01-02 09:38:53.78	75.46	28.07	-40.1	-40.7	21.2	0.00e+00	0	55	0	1419771904	43	3738
2026-01-02 09:38:54.76	75.22	28.18	-40.1	-40.6	21.2	0.00e+00	0	55	0	1425014784	43	3726
2026-01-02 09:38:55.75	74.97	28.29	-40.1	-40.7	21.1	0.00e+00	0	55	0	1431306240	43	3767
2026-01-02 09:38:56.73	74.73	28.41	-40.4	-41.0	20.9	0.00e+00	0	55	0	1436549120	43	3893
2026-01-02 09:38:57.72	74.48	28.52	-40.4	-40.9	20.9	0.00e+00	0	55	0	1441792000	43	3863
2026-01-02 09:38:58.71	74.23	28.64	-40.5	-41.1	20.8	0.00e+00	0	55	0	1447034880	43	3918
2026-01-02 09:38:59.70	73.98	28.75	-40.4	-41.0	20.8	0.00e+00	0	55	0	1453326336	43	3905
2026-01-02 09:39:00.69	73.72	28.86	-40.4	-41.0	20.9	0.00e+00	0	55	0	1458569216	43	3895
2026-01-02 09:39:01.68	73.46	28.98	-40.5	-41.1	20.7	0.00e+00	0	55	0	1463812096	43	3951
2026-01-02 09:39:02.67	73.21	29.09	-40.5	-41.1	20.8	0.00e+00	0	55	0	1470103552	43	3922
2026-01-02 09:39:03.66	72.95	29.20	-40.3	-40.9	20.9	0.00e+00	0	55	0	1475346432	43	3851
2026-01-02 09:39:04.65	72.69	29.32	-40.4	-40.9	20.9	0.00e+00	0	55	0	1480589312	43	3866
2026-01-02 09:39:05.64	72.42	29.43	-40.5	-41.2	20.7	0.00e+00	0	55	0	1486880768	43	3963
2026-01-02 09:39:06.63	72.16	29.54	-40.4	-41.0	20.9	0.00e+00	0	55	0	1492123648	43	3889
2026-01-02 09:39:07.61	71.89	29.65	-40.1	-40.7	21.2	0.00e+00	0	55	0	1497366528	43	3753
2026-01-02 09:39:08.60	71.62	29.77	-40.0	-40.5	21.3	0.00e+00	0	55	0	1502609408	43	3678
2026-01-02 09:39:09.59	71.35	29.88	-40.0	-40.6	21.3	0.00e+00	0	55	0	1508900864	43	3698
2026-01-02 09:39:10.58	71.08	29.99	-40.2	-40.8	21.1	0.00e+00	0	55	0	1514143744	43	3805
2026-01-02 09:39:11.57	70.81	30.10	-40.2	-40.8	21.1	0.00e+00	0	55	0	1520435200	43	3809
2026-01-02 09:39:12.56	70.53	30.21	-40.3	-40.8	21.0	0.00e+00	0	55	0	1525678080	43	3817
2026-01-02 09:39:13.55	70.25	30.32	-40.2	-40.8	21.1	0.00e+00	0	55	0	1530920960	43	3797
2026-01-02 09:39:14.53	69.97	30.43	-39.9	-40.5	21.3	0.00e+00	0	55	0	1536163840	43	3665
2026-01-02 09:39:15.52	69.69	30.54	-39.8	-40.4	21.5	0.00e+00	0	55	0	1541406720	42	3833
2026-01-02 09:39:16.51	69.41	30.65	-39.8	-40.4	21.5	0.00e+00	0	55	0	1547698176	42	3827
2026-01-02 09:39:17.49	69.12	30.76	-39.7	-40.2	21.6	0.00e+00	0	55	0	1552941056	42	3777
2026-01-02 09:39:18.48	68.83	30.87	-39.8	-40.3	21.6	0.00e+00	0	55	0	1559232512	42	3798
2026-01-02 09:39:19.47	68.54	30.97	-39.8	-40.4	21.5	0.00e+00	0	55	0	1564475392	42	3831
2026-01-02 09:39:20.46	68.25	31.08	-39.7	-40.2	21.6	0.00e+00	0	55	0	1569718272	42	3765
2026-01-02 09:39:21.45	67.96	31.19	-39.5	-40.1	21.8	0.00e+00	0	55	0	1574961152	42	3709
2026-01-02 09:39:22.44	67.66	31.30	-39.5	-40.0	21.8	0.00e+00	0	55	0	1581252608	42	3681
2026-01-02 09:39:23.43	67.36	31.40	-39.5	-40.1	21.8	0.00e+00	0	55	0	1586495488	42	3710
2026-01-02 09:39:24.41	67.07	31.51	-39.6	-40.1	21.7	0.00e+00	0	55	0	1591738368	42	3728
2026-01-02 09:39:25.40	66.77	31.61	-39.6	-40.1	21.7	0.00e+00	0	55	0	1598029824	42	3732
2026-01-02 09:39:26.40	66.46	31.72	-39.5	-40.1	21.8	0.00e+00	0	55	0	1603272704	42	3715
2026-01-02 09:39:27.39	66.15	31.82	-39.7	-40.2	21.7	0.00e+00	0	55	0	1608515584	42	3758
2026-01-02 09:39:28.38	65.84	31.93	-39.8	-40.3	21.5	0.00e+00	0	55	0	1614807040	42	3813
2026-01-02 09:39:29.36	65.54	32.03	-39.7	-40.2	21.6	0.00e+00	0	55	0	1620049920	42	3767
2026-01-02 09:39:30.34	65.23	32.13	-39.6	-40.2	21.7	0.00e+00	0	55	0	1625292800	42	3741
2026-01-02 09:39:31.33	64.92	32.23	-39.8	-40.3	21.5	0.00e+00	0	55	0	1630535680	42	3819
2026-01-02 09:39:32.32	64.60	32.33	-39.8	-40.4	21.5	0.00e+00	0	55	0	1636827136	42	3830
2026-01-02 09:39:33.32	64.28	32.44	-39.6	-40.1	21.7	0.00e+00	0	55	0	1642070016	42	3731
2026-01-02 09:39:34.30	63.96	32.53	-39.6	-40.1	21.7	0.00e+00	0	55	0	1647312896	42	3720
2026-01-02 09:39:35.29	63.64	32.63	-39.6	-40.1	21.7	0.00e+00	0	55	0	1653604352	42	3735
2026-01-02 09:39:36.28	63.32	32.73	-39.7	-40.2	21.6	0.00e+00	0	56	0	1658847232	42	3780
2026-01-02 09:39:37.27	62.99	32.83	-39.7	-40.3	21.6	0.00e+00	0	55	0	1664090112	42	3798
2026-01-02 09:39:38.26	62.66	32.93	-39.8	-40.3	21.5	0.00e+00	0	55	0	1670381568	42	3804
2026-01-02 09:39:39.25	62.33	33.02	-39.8	-40.4	21.5	0.00e+00	0	55	0	1675624448	42	3838
2026-01-02 09:39:40.24	62.00	33.12	-39.6	-40.1	21.7	0.00e+00	0	55	0	1680867328	42	3731
2026-01-02 09:39:41.23	61.67	33.21	-39.5	-40.1	21.8	0.00e+00	0	55	0	1687158784	42	3700
2026-01-02 09:39:42.23	61.33	33.31	-39.5	-40.0	21.8	0.00e+00	0	55	0	1692401664	42	3689
2026-01-02 09:39:43.21	61.00	33.40	-39.4	-40.0	21.9	0.00e+00	0	55	0	1697644544	42	3662
2026-01-02 09:39:44.21	60.65	33.49	-39.5	-40.0	21.8	0.00e+00	0	56	0	1702887424	42	3678
2026-01-02 09:39:45.20	60.31	33.58	-39.6	-40.2	21.7	0.00e+00	0	55	0	1709178880	42	3751
2026-01-02 09:39:46.20	59.97	33.68	-39.8	-40.4	21.5	0.00e+00	0	55	0	1714421760	42	3834
2026-01-02 09:39:47.18	59.62	33.76	-39.6	-40.2	21.7	0.00e+00	0	55	0	1720713216	42	3748
2026-01-02 09:39:48.18	59.27	33.85	-39.7	-40.3	21.6	0.00e+00	0	55	0	1725956096	42	3784
2026-01-02 09:39:49.17	58.92	33.94	-39.8	-40.4	21.5	0.00e+00	0	55	0	1731198976	42	3829
2026-01-02 09:39:50.15	58.58	34.03	-40.0	-40.5	21.4	0.00e+00	0	55	0	1736441856	42	3906
2026-01-02 09:39:51.14	58.22	34.11	-39.9	-40.5	21.4	0.00e+00	0	55	0	1742733312	42	3886
2026-01-02 09:39:52.13	57.87	34.20	-40.2	-40.7	21.2	0.00e+00	0	56	0	1747976192	42	3991
2026-01-02 09:39:53.11	57.52	34.28	-40.2	-40.8	21.2	0.00e+00	0	56	0	1753219072	42	4007
2026-01-02 09:39:54.10	57.16	34.36	-40.4	-40.9	21.0	0.00e+00	0	56	0	1759510528	42	4095
2026-01-02 09:39:55.09	56.80	34.45	-40.2	-40.8	21.2	0.00e+00	0	56	0	1764753408	42	4005
2026-01-02 09:39:56.08	56.44	34.53	-40.1	-40.7	21.2	0.00e+00	0	55	0	1769996288	42	3993
2026-01-02 09:39:57.07	56.07	34.60	-40.0	-40.6	21.3	0.00e+00	0	55	0	1776287744	42	3924
2026-01-02 09:39:58.05	55.71	34.68	-40.5	-41.0	20.9	0.00e+00	0	55	0	1781530624	42	4143
2026-01-02 09:39:59.04	55.35	34.76	-40.2	-40.8	21.2	0.00e+00	0	55	0	1786773504	42	4007
2026-01-02 09:40:00.03	54.98	34.84	-39.9	-40.5	21.4	0.00e+00	0	55	0	1792016384	42	3890
2026-01-02 09:40:01.02	54.61	34.91	-39.5	-40.0	21.9	0.00e+00	0	56	0	1798307840	42	3676
2026-01-02 09:40:02.01	54.23	34.98	-39.1	-39.6	22.2	0.00e+00	0	56	0	1803550720	41	3718
2026-01-02 09:40:03.01	53.86	35.06	-39.0	-39.5	22.3	0.00e+00	0	55	0	1808793600	41	3672
2026-01-02 09:40:04.00	53.48	35.13	-39.2	-39.7	22.2	0.00e+00	0	55	0	1815085056	41	3757
2026-01-02 09:40:04.99	53.10	35.20	-39.4	-39.9	21.9	0.00e+00	0	56	0	1820327936	41	3862
2026-01-02 09:40:05.98	52.73	35.27	-39.3	-39.8	22.0	0.00e+00	0	55	0	1825570816	41	3822
2026-01-02 09:40:06.97	52.34	35.33	-39.2	-39.8	22.1	0.00e+00	0	56	0	1830813696	41	3787
2026-01-02 09:40:07.96	51.96	35.40	-39.4	-39.9	22.0	0.00e+00	0	55	0	1837105152	41	3831
2026-01-02 09:40:08.95	51.58	35.46	-39.3	-39.8	22.1	0.00e+00	0	55	0	1842348032	41	3794
2026-01-02 09:40:09.95	51.19	35.53	-39.3	-39.8	22.0	0.00e+00	0	55	0	1848639488	41	3824
2026-01-02 09:40:10.94	50.80	35.59	-39.5	-40.0	21.9	0.00e+00	0	56	0	1853882368	41	3889
2026-01-02 09:40:11.93	50.42	35.65	-39.4	-39.9	21.9	0.00e+00	0	56	0	1859125248	41	3858
2026-01-02 09:40:12.93	50.02	35.71	-39.4	-39.9	21.9	0.00e+00	0	56	0	1865416704	41	3862
2026-01-02 09:40:13.92	49.63	35.77	-39.5	-40.1	21.8	0.00e+00	0	56	0	1870659584	41	3916
2026-01-02 09:40:14.91	49.24	35.82	-39.8	-40.4	21.5	0.00e+00	0	56	0	1875902464	41	4052
2026-01-02 09:40:15.90	48.85	35.88	-39.7	-40.3	21.6	0.00e+00	0	56	0	1881145344	41	4016
2026-01-02 09:40:16.88	48.46	35.93	-39.9	-40.5	21.4	0.00e+00	0	56	0	1887436800	41	4118
2026-01-02 09:40:17.87	48.06	35.98	-39.9	-40.5	21.5	0.00e+00	0	56	0	1892679680	41	4105
2026-01-02 09:40:18.85	47.67	36.03	-39.8	-40.4	21.5	0.00e+00	0	56	0	1897922560	41	4075
2026-01-02 09:40:19.84	47.27	36.08	-40.0	-40.6	21.3	0.00e+00	0	56	0	1904214016	41	4156
2026-01-02 09:40:20.83	46.87	36.13	-39.9	-40.5	21.4	0.00e+00	0	56	0	1909456896	41	4100
2026-01-02 09:40:21.82	46.47	36.18	-39.7	-40.3	21.6	0.00e+00	0	56	0	1914699776	41	4024
2026-01-02 09:40:22.81	46.07	36.22	-39.8	-40.3	21.6	0.00e+00	0	56	0	1919942656	41	4040
2026-01-02 09:40:23.80	45.66	36.26	-39.6	-40.1	21.7	0.00e+00	0	56	0	1926234112	41	3958
2026-01-02 09:40:24.79	45.26	36.30	-40.0	-40.6	21.3	0.00e+00	0	56	0	1931476992	41	4177
2026-01-02 09:40:25.78	44.85	36.34	-40.1	-40.7	21.2	0.00e+00	0	56	0	1937768448	42	3977
2026-01-02 09:40:26.77	44.45	36.38	-40.4	-41.0	21.0	0.00e+00	0	56	0	1943011328	42	4102
2026-01-02 09:40:27.76	44.04	36.42	-40.2	-40.8	21.1	0.00e+00	0	56	0	1948254208	42	4033
2026-01-02 09:40:28.76	43.63	36.45	-39.9	-40.4	21.5	0.00e+00	0	56	0	1953497088	42	3851
2026-01-02 09:40:29.75	43.22	36.49	-39.6	-40.1	21.8	0.00e+00	0	56	0	1959788544	42	3709
2026-01-02 09:40:30.73	42.81	36.52	-39.4	-39.9	22.0	0.00e+00	0	56	0	1965031424	42	3642
2026-01-02 09:40:31.72	42.40	36.55	-39.4	-40.0	21.9	0.00e+00	0	56	0	1971322880	41	3883
2026-01-02 09:40:32.71	41.99	36.58	-39.5	-40.0	21.8	0.00e+00	0	56	0	1976565760	41	3910
2026-01-02 09:40:33.71	41.58	36.60	-39.5	-40.0	21.8	0.00e+00	0	56	0	1981808640	41	3899
2026-01-02 09:40:34.70	41.16	36.63	-39.6	-40.1	21.7	0.00e+00	0	56	0	1987051520	41	3950
2026-01-02 09:40:35.69	40.75	36.65	-39.7	-40.3	21.6	0.00e+00	0	56	0	1993342976	41	4010
2026-01-02 09:40:36.69	40.33	36.67	-39.6	-40.1	21.8	0.00e+00	0	56	0	1998585856	41	3934
2026-01-02 09:40:37.68	39.92	36.69	-39.4	-39.9	21.9	0.00e+00	0	56	0	2003828736	41	3847
2026-01-02 09:40:38.67	39.50	36.71	-39.4	-39.9	21.9	0.00e+00	0	56	0	2010120192	41	3853
2026-01-02 09:40:39.67	39.09	36.73	-39.4	-40.0	21.9	0.00e+00	0	56	0	2015363072	41	3882
2026-01-02 09:40:40.66	38.67	36.74	-39.5	-40.0	21.9	0.00e+00	0	56	0	2020605952	41	3906
2026-01-02 09:40:41.65	38.25	36.76	-39.5	-40.1	21.8	0.00e+00	0	56	0	2026897408	41	3921
2026-01-02 09:40:42.64	37.84	36.77	-39.7	-40.3	21.6	0.00e+00	0	56	0	2032140288	41	4013
2026-01-02 09:40:43.64	37.42	36.78	-39.8	-40.3	21.5	0.00e+00	0	56	0	2037383168	41	4048
2026-01-02 09:40:44.62	37.01	36.78	-40.0	-40.6	21.3	0.00e+00	0	56	0	2042626048	41	4161
2026-01-02 09:40:45.61	36.59	36.79	-40.1	-40.6	21.3	0.00e+00	0	56	0	2048917504	42	3956
2026-01-02 09:40:46.60	36.17	36.79	-39.9	-40.5	21.5	0.00e+00	0	56	0	2054160384	42	3870
2026-01-02 09:40:47.58	35.76	36.80	-39.8	-40.4	21.5	0.00e+00	0	56	0	2060451840	42	3825
2026-01-02 09:40:48.57	35.34	36.80	-39.7	-40.3	21.6	0.00e+00	0	56	0	2065694720	42	3791
2026-01-02 09:40:49.55	34.93	36.80	-39.7	-40.3	21.6	0.00e+00	0	56	0	2070937600	42	3783
2026-01-02 09:40:50.54	34.51	36.80	-39.6	-40.2	21.7	0.00e+00	0	56	0	2076180480	42	3756
2026-01-02 09:40:51.53	34.10	36.79	-39.9	-40.5	21.4	0.00e+00	0	56	0	2082471936	42	3869
2026-01-02 09:40:52.52	33.68	36.78	-39.9	-40.4	21.5	0.00e+00	0	56	0	2087714816	42	3867
2026-01-02 09:40:53.51	33.26	36.78	-39.9	-40.5	21.4	0.00e+00	0	56	0	2092957696	42	3869
2026-01-02 09:40:54.51	32.84	36.77	-39.9	-40.5	21.4	0.00e+00	0	56	0	2099249152	42	3894
2026-01-02 09:40:55.50	32.43	36.76	-39.7	-40.3	21.6	0.00e+00	0	56	0	2104492032	42	3783
2026-01-02 09:40:56.48	32.01	36.74	-39.5	-40.1	21.8	0.00e+00	0	56	0	2109734912	42	3700
2026-01-02 09:40:57.47	31.60	36.73	-39.4	-40.0	21.9	0.00e+00	0	56	0	2116026368	42	3664
2026-01-02 09:40:58.47	31.18	36.71	-39.4	-39.9	21.9	0.00e+00	0	56	0	2121269248	42	3643
2026-01-02 09:40:59.45	30.77	36.69	-39.6	-40.2	21.7	0.00e+00	0	56	0	2126512128	42	3743
2026-01-02 09:41:00.45	30.35	36.67	-39.9	-40.4	21.5	0.00e+00	0	56	0	2131755008	42	3852
2026-01-02 09:41:01.44	29.94	36.65	-39.6	-40.2	21.7	0.00e+00	0	56	0	2138046464	42	3752
2026-01-02 09:41:02.43	29.52	36.63	-39.4	-40.0	21.9	0.00e+00	0	56	0	2143289344	42	3659
2026-01-02 09:41:03.42	29.11	36.61	-39.3	-39.8	22.0	0.00e+00	0	56	0	2148532224	41	3819
2026-01-02 09:41:04.40	28.70	36.58	-39.6	-40.1	21.8	0.00e+00	0	56	0	2154823680	41	3937
2026-01-02 09:41:05.40	28.29	36.55	-39.8	-40.3	21.5	0.00e+00	0	56	0	2160066560	41	4030
2026-01-02 09:41:06.38	27.88	36.52	-39.7	-40.3	21.6	0.00e+00	0	56	0	2165309440	41	4022
2026-01-02 09:41:07.38	27.47	36.49	-39.6	-40.2	21.7	0.00e+00	0	56	0	2171600896	41	3969
2026-01-02 09:41:08.37	27.06	36.46	-39.7	-40.2	21.6	0.00e+00	0	56	0	2176843776	41	3984
2026-01-02 09:41:09.36	26.65	36.42	-39.7	-40.3	21.6	0.00e+00	0	56	0	2182086656	41	4006
2026-01-02 09:41:10.35	26.25	36.39	-39.5	-40.1	21.8	0.00e+00	0	56	0	2188378112	41	3914
2026-01-02 09:41:11.34	25.84	36.35	-39.4	-39.9	21.9	0.00e+00	0	56	0	2193620992	41	3861
2026-01-02 09:41:12.33	25.44	36.31	-39.5	-40.0	21.8	0.00e+00	0	56	0	2198863872	41	3886
2026-01-02 09:41:13.32	25.03	36.27	-39.8	-40.4	21.3	0.00e+00	0	56	0	2204106752	41	4062
2026-01-02 09:41:14.31	24.63	36.22	-40.4	-41.0	20.7	0.00e+00	0	56	0	2210398208	42	4107
2026-01-02 09:41:15.30	24.23	36.18	-40.4	-41.0	20.5	0.00e+00	0	56	0	2215641088	42	4120
2026-01-02 09:41:16.29	23.83	36.14	-40.8	-41.4	20.2	0.00e+00	0	56	0	2220883968	43	4078
2026-01-02 09:41:17.27	23.43	36.09	-40.3	-40.8	20.7	0.00e+00	0	56	0	2227175424	43	3824
2026-01-02 09:41:18.26	23.03	36.04	-39.8	-40.4	21.1	0.00e+00	0	56	0	2232418304	42	3857
2026-01-02 09:41:19.25	22.63	35.99	-39.5	-40.0	21.6	0.00e+00	0	56	0	2237661184	42	3692
2026-01-02 09:41:20.24	22.24	35.94	-39.3	-39.8	21.9	0.00e+00	0	56	0	2243952640	41	3814
2026-01-02 09:41:21.23	21.84	35.88	-39.4	-39.9	21.9	0.00e+00	0	56	0	2249195520	41	3838
2026-01-02 09:41:22.21	21.46	35.83	-39.5	-40.0	21.8	0.00e+00	0	56	0	2254438400	41	3913
2026-01-02 09:41:23.20	21.06	35.77	-39.3	-39.8	22.0	0.00e+00	0	56	0	2260729856	41	3806
2026-01-02 09:41:24.20	20.67	35.72	-39.4	-39.9	21.9	0.00e+00	0	56	0	2265972736	41	3847
2026-01-02 09:41:25.19	20.28	35.66	-39.6	-40.1	21.8	0.00e+00	0	56	0	2271215616	41	3940
2026-01-02 09:41:26.17	19.90	35.60	-39.4	-39.9	21.9	0.00e+00	0	56	0	2277507072	41	3862
2026-01-02 09:41:27.17	19.51	35.54	-39.3	-39.8	22.0	0.00e+00	0	56	0	2282749952	41	3807
2026-01-02 09:41:28.17	19.12	35.47	-39.3	-39.8	22.0	0.00e+00	0	56	0	2287992832	41	3798
2026-01-02 09:41:29.15	18.74	35.41	-39.5	-40.0	21.8	0.00e+00	0	56	0	2293235712	41	3903
2026-01-02 09:41:30.13	18.36	35.34	-39.3	-39.8	22.0	0.00e+00	0	56	0	2299527168	41	3818
2026-01-02 09:41:31.12	17.98	35.28	-39.3	-39.8	22.0	0.00e+00	0	56	0	2304770048	41	3797
2026-01-02 09:41:32.11	17.60	35.21	-39.3	-39.8	22.0	0.00e+00	0	56	0	2310012928	41	3810
2026-01-02 09:41:33.09	17.23	35.14	-39.5	-40.0	21.9	0.00e+00	0	56	0	2316304384	41	3886
2026-01-02 09:41:34.09	16.85	35.07	-39.4	-39.9	22.0	0.00e+00	0	56	0	2321547264	41	3842
2026-01-02 09:41:35.07	16.48	35.00	-39.5	-40.0	21.8	0.00e+00	0	56	0	2326790144	41	3909
2026-01-02 09:41:36.06	16.11	34.92	-39.8	-40.3	21.5	0.00e+00	0	56	0	2332033024	41	4047
2026-01-02 09:41:37.06	15.73	34.85	-40.1	-40.6	21.3	0.00e+00	0	56	0	2338324480	41	4191
2026-01-02 09:41:38.04	15.37	34.77	-40.0	-40.5	21.4	0.00e+00	0	56	0	2343567360	41	4130
2026-01-02 09:41:39.03	15.00	34.70	-40.2	-40.8	21.1	0.00e+00	0	56	0	2349858816	42	4026
2026-01-02 09:41:40.03	14.63	34.62	-40.1	-40.7	21.2	0.00e+00	0	56	0	2355101696	42	3982
2026-01-02 09:41:41.01	14.27	34.54	-40.3	-40.8	21.1	0.00e+00	0	56	0	2360344576	42	4047
2026-01-02 09:41:42.00	13.91	34.46	-40.4	-41.0	20.9	0.00e+00	0	56	0	2365587456	42	4140
2026-01-02 09:41:43.00	13.55	34.38	-40.2	-40.7	21.2	0.00e+00	0	56	0	2371878912	42	4002
2026-01-02 09:41:43.98	13.19	34.29	-39.8	-40.4	21.5	0.00e+00	0	56	0	2377121792	42	3827
2026-01-02 09:41:44.96	12.84	34.21	-39.6	-40.1	21.8	0.00e+00	0	56	0	2382364672	42	3732
2026-01-02 09:41:45.95	12.48	34.13	-39.7	-40.2	21.6	0.00e+00	0	56	0	2388656128	42	3777
2026-01-02 09:41:46.94	12.13	34.04	-39.7	-40.3	21.6	0.00e+00	0	56	0	2393899008	42	3790
2026-01-02 09:41:47.92	11.79	33.96	-39.8	-40.4	21.5	0.00e+00	0	56	0	2399141888	42	3839
2026-01-02 09:41:48.91	11.44	33.87	-39.5	-40.1	21.8	0.00e+00	0	56	0	2404384768	42	3704
2026-01-02 09:41:49.90	11.09	33.78	-39.2	-39.7	22.1	0.00e+00	0	56	0	2410676224	41	3762
2026-01-02 09:41:50.89	10.74	33.69	-39.0	-39.5	22.3	0.00e+00	0	56	0	2415919104	41	3674
2026-01-02 09:41:51.88	10.40	33.60	-39.1	-39.6	22.2	0.00e+00	0	56	0	2421161984	41	3736
2026-01-02 09:41:52.88	10.06	33.51	-39.1	-39.6	22.2	0.00e+00	0	56	0	2427453440	41	3736
2026-01-02 09:41:53.87	9.72	33.42	-39.2	-39.7	22.1	0.00e+00	0	56	0	2432696320	41	3772
2026-01-02 09:41:54.85	9.38	33.33	-39.1	-39.7	22.2	0.00e+00	0	56	0	2437939200	41	3744
2026-01-02 09:41:55.83	9.05	33.23	-39.5	-40.0	21.8	0.00e+00	0	56	0	2444230656	41	3892
2026-01-02 09:41:56.82	8.72	33.14	-39.3	-39.9	22.0	0.00e+00	0	56	0	2449473536	41	3836
2026-01-02 09:41:57.81	8.39	33.04	-39.5	-40.0	21.9	0.00e+00	0	56	0	2454716416	41	3889
2026-01-02 09:41:58.80	8.06	32.95	-39.9	-40.4	21.4	0.00e+00	0	56	0	2459959296	41	4097
2026-01-02 09:41:59.78	7.73	32.85	-39.7	-40.2	21.7	0.00e+00	0	56	0	2466250752	41	3982
2026-01-02 09:42:00.77	7.41	32.75	-39.4	-40.0	21.9	0.00e+00	0	56	0	2471493632	41	3877
2026-01-02 09:42:01.76	7.08	32.66	-39.4	-39.9	21.9	0.00e+00	0	56	0	2476736512	41	3845
2026-01-02 09:42:02.75	6.76	32.56	-39.5	-40.0	21.9	0.00e+00	0	56	0	2483027968	41	3888
2026-01-02 09:42:03.74	6.44	32.46	-39.6	-40.1	21.7	0.00e+00	0	56	0	2488270848	41	3933
2026-01-02 09:42:04.72	6.13	32.36	-39.5	-40.0	21.8	0.00e+00	0	56	0	2493513728	41	3906
2026-01-02 09:42:05.71	5.81	32.26	-39.7	-40.2	21.7	0.00e+00	0	56	0	2498756608	41	3992
2026-01-02 09:42:06.70	5.50	32.15	-39.7	-40.2	21.6	0.00e+00	0	56	0	2505048064	41	3995
2026-01-02 09:42:07.69	5.19	32.05	-39.8	-40.4	21.5	0.00e+00	0	56	0	2510290944	41	4056
2026-01-02 09:42:08.68	4.88	31.95	-39.8	-40.3	21.6	0.00e+00	0	56	0	2516582400	41	4024
2026-01-02 09:42:09.68	4.57	31.85	-39.9	-40.4	21.5	0.00e+00	0	56	0	2521825280	41	4087
2026-01-02 09:42:10.67	4.26	31.74	-39.9	-40.4	21.4	0.00e+00	0	56	0	2527068160	41	4095
2026-01-02 09:42:11.65	3.96	31.64	-40.1	-40.7	21.3	0.00e+00	0	56	0	2532311040	41	4199
2026-01-02 09:42:12.64	3.66	31.53	-40.1	-40.6	21.3	0.00e+00	0	56	0	2538602496	42	3956
2026-01-02 09:42:13.63	3.36	31.43	-39.7	-40.2	21.7	0.00e+00	0	56	0	2543845376	42	3764
2026-01-02 09:42:14.62	3.06	31.32	-39.4	-39.9	21.9	0.00e+00	0	56	0	2550136832	42	3648
2026-01-02 09:42:15.61	2.77	31.21	-39.4	-39.9	22.0	0.00e+00	0	56	0	2555379712	41	3836
2026-01-02 09:42:16.59	2.47	31.11	-39.5	-40.0	21.8	0.00e+00	0	56	0	2560622592	41	3889
2026-01-02 09:42:17.58	2.18	31.00	-39.7	-40.2	21.6	0.00e+00	0	56	0	2565865472	41	3994
2026-01-02 09:42:18.57	1.89	30.89	-39.6	-40.2	21.6	0.00e+00	0	56	0	2571108352	41	3972
2026-01-02 09:42:19.56	1.60	30.78	-39.4	-39.9	22.0	0.00e+00	0	56	0	2577399808	41	3839
2026-01-02 09:42:20.55	1.32	30.68	-39.2	-39.7	22.1	0.00e+00	0	56	0	2582642688	41	3755
2026-01-02 09:42:21.55	1.03	30.57	-39.2	-39.8	22.1	0.00e+00	0	56	0	2588934144	41	3782
2026-01-02 09:42:22.54	0.75	30.46	-39.4	-40.0	21.8	0.00e+00	0	56	0	2594177024	41	3873
2026-01-02 09:42:23.53	0.47	30.35	-39.6	-40.2	21.7	0.00e+00	0	56	0	2599419904	41	3960
2026-01-02 09:42:24.52	0.19	30.24	-39.6	-40.2	21.7	0.00e+00	0	56	0	2605711360	41	3967
2026-01-02 09:42:25.52	359.91	30.12	-39.6	-40.1	21.7	0.00e+00	0	56	0	2610954240	41	3939
2026-01-02 09:42:26.51	359.64	30.01	-39.5	-40.1	21.7	0.00e+00	0	56	0	2616197120	41	3921
2026-01-02 09:42:27.50	359.36	29.90	-39.7	-40.2	21.7	0.00e+00	0	56	0	2621440000	41	3982
2026-01-02 09:42:28.49	359.09	29.79	-39.6	-40.1	21.7	0.00e+00	0	56	0	2627731456	41	3955
2026-01-02 09:42:29.47	358.83	29.68	-39.3	-39.8	22.0	0.00e+00	0	56	0	2632974336	41	3814
2026-01-02 09:42:30.45	358.56	29.57	-39.1	-39.6	22.1	0.00e+00	0	56	0	2638217216	41	3722
2026-01-02 09:42:31.44	358.30	29.46	-39.1	-39.6	22.2	0.00e+00	0	56	0	2644508672	41	3732
2026-01-02 09:42:32.44	358.03	29.34	-39.2	-39.8	22.1	0.00e+00	0	56	0	2649751552	41	3783
2026-01-02 09:42:33.43	357.77	29.23	-39.3	-39.9	22.0	0.00e+00	0	56	0	2654994432	41	3827
2026-01-02 09:42:34.42	357.51	29.12	-39.4	-40.0	21.8	0.00e+00	0	56	0	2660237312	41	3883
2026-01-02 09:42:35.41	357.25	29.00	-39.5	-40.1	21.8	0.00e+00	0	56	0	2666528768	41	3918
2026-01-02 09:42:36.40	357.00	28.89	-39.6	-40.2	21.7	0.00e+00	0	56	0	2671771648	41	3960
2026-01-02 09:42:37.39	356.74	28.78	-39.6	-40.2	21.7	0.00e+00	0	56	0	2678063104	41	3965
2026-01-02 09:42:38.38	356.49	28.66	-39.5	-40.1	21.7	0.00e+00	0	57	0	2683305984	41	3924
2026-01-02 09:42:39.36	356.24	28.55	-39.6	-40.1	21.7	0.00e+00	0	56	0	2688548864	41	3955
2026-01-02 09:42:40.36	355.99	28.43	-39.7	-40.2	21.6	0.00e+00	0	56	0	2693791744	41	3995
2026-01-02 09:42:41.35	355.75	28.32	-39.7	-40.3	21.5	0.00e+00	0	56	0	2700083200	41	4024
2026-01-02 09:42:42.33	355.50	28.21	-39.7	-40.2	21.6	0.00e+00	0	56	0	2705326080	41	3998
2026-01-02 09:42:43.32	355.26	28.09	-39.8	-40.3	21.5	0.00e+00	0	57	0	2710568960	41	4027
2026-01-02 09:42:44.30	355.02	27.98	-39.8	-40.4	21.4	0.00e+00	0	56	0	2716860416	41	4075
2026-01-02 09:42:45.29	354.78	27.86	-39.8	-40.3	21.5	0.00e+00	0	56	0	2722103296	41	4042
2026-01-02 09:42:46.28	354.54	27.75	-39.8	-40.4	21.5	0.00e+00	0	57	0	2727346176	41	4070
2026-01-02 09:42:47.27	354.31	27.64	-39.9	-40.5	21.4	0.00e+00	0	57	0	2733637632	41	4109
2026-01-02 09:42:48.26	354.07	27.52	-39.9	-40.5	21.4	0.00e+00	0	56	0	2738880512	41	4123
2026-01-02 09:42:49.25	353.84	27.41	-39.9	-40.5	21.3	0.00e+00	0	56	0	2744123392	41	4125
2026-01-02 09:42:50.24	353.61	27.29	-40.1	-40.7	21.2	0.00e+00	0	56	0	2749366272	42	3984
2026-01-02 09:42:51.23	353.38	27.18	-40.3	-40.8	21.0	0.00e+00	0	57	0	2755657728	42	4047
2026-01-02 09:42:52.22	353.15	27.06	-40.2	-40.7	21.1	0.00e+00	0	56	0	2760900608	42	3997
2026-01-02 09:42:53.20	352.93	26.95	-40.3	-40.9	21.0	0.00e+00	0	57	0	2766143488	42	4066
2026-01-02 09:42:54.19	352.70	26.83	-40.1	-40.7	21.1	0.00e+00	0	56	0	2772434944	42	3991
2026-01-02 09:42:55.18	352.48	26.72	-40.2	-40.8	21.0	0.00e+00	0	56	0	2777677824	42	4041
2026-01-02 09:42:56.17	352.26	26.60	-40.4	-41.0	20.8	0.00e+00	0	56	0	2782920704	42	4120
2026-01-02 09:42:57.16	352.04	26.49	-40.2	-40.8	21.1	0.00e+00	0	56	0	2788163584	42	4018
2026-01-02 09:42:58.15	351.82	26.37	-40.2	-40.8	21.1	0.00e+00	0	57	0	2794455040	42	4007
2026-01-02 09:42:59.13	351.61	26.26	-40.4	-41.0	20.8	0.00e+00	0	56	0	2799697920	42	4143
2026-01-02 09:43:00.12	351.39	26.14	-40.3	-40.9	21.0	0.00e+00	0	56	0	2805989376	42	4066
2026-01-02 09:43:01.11	351.18	26.03	-40.5	-41.1	20.8	0.00e+00	0	57	0	2811232256	42	4153
2026-01-02 09:43:02.10	350.96	25.91	-40.6	-41.2	20.6	0.00e+00	0	56	0	2816475136	43	4004
2026-01-02 09:43:03.10	350.75	25.80	-40.4	-41.0	20.9	0.00e+00	0	56	0	2821718016	43	3870
2026-01-02 09:43:04.08	350.55	25.68	-40.2	-40.8	21.0	0.00e+00	0	56	0	2828009472	43	3806
2026-01-02 09:43:05.06	350.34	25.57	-40.3	-40.9	21.0	0.00e+00	0	56	0	2833252352	43	3832
2026-01-02 09:43:06.05	350.13	25.46	-40.3	-40.8	21.0	0.00e+00	0	56	0	2838495232	43	3821
2026-01-02 09:43:07.04	349.93	25.34	-40.2	-40.7	21.1	0.00e+00	0	56	0	2844786688	43	3767
2026-01-02 09:43:08.03	349.73	25.23	-40.1	-40.7	21.1	0.00e+00	0	57	0	2850029568	43	3758
2026-01-02 09:43:09.02	349.53	25.11	-40.3	-40.8	21.0	0.00e+00	0	57	0	2855272448	43	3821
2026-01-02 09:43:10.01	349.33	25.00	-40.6	-41.1	20.7	0.00e+00	0	57	0	2860515328	43	3954
2026-01-02 09:43:10.99	349.13	24.89	-40.5	-41.0	20.8	0.00e+00	0	56	0	2866806784	43	3909
2026-01-02 09:43:11.99	348.93	24.77	-40.4	-41.0	20.9	0.00e+00	0	56	0	2872049664	43	3873
2026-01-02 09:43:12.98	348.74	24.66	-40.6	-41.2	20.6	0.00e+00	0	56	0	2878341120	43	3997
2026-01-02 09:43:13.97	348.54	24.54	-40.5	-41.1	20.7	0.00e+00	0	56	0	2883584000	43	3955
2026-01-02 09:43:14.97	348.35	24.43	-40.5	-41.1	20.7	0.00e+00	0	57	0	2888826880	43	3946
2026-01-02 09:43:15.96	348.16	24.32	-40.6	-41.2	20.6	0.00e+00	0	56	0	2894069760	43	3984
2026-01-02 09:43:16.95	347.97	24.20	-40.6	-41.2	20.6	0.00e+00	0	56	0	2900361216	43	3980
2026-01-02 09:43:17.95	347.78	24.09	-40.6	-41.2	20.6	0.00e+00	0	56	0	2905604096	43	3969
2026-01-02 09:43:18.93	347.59	23.98	-40.6	-41.2	20.6	0.00e+00	0	56	0	2910846976	43	3974
2026-01-02 09:43:19.91	347.41	23.87	-40.5	-41.1	20.7	0.00e+00	0	57	0	2917138432	43	3942
2026-01-02 09:43:20.90	347.22	23.75	-40.6	-41.2	20.6	0.00e+00	0	57	0	2922381312	43	3967
2026-01-02 09:43:21.90	347.04	23.64	-40.5	-41.1	20.7	0.00e+00	0	56	0	2927624192	43	3930
2026-01-02 09:43:22.89	346.86	23.53	-40.4	-41.0	20.8	0.00e+00	0	56	0	2933915648	43	3899
2026-01-02 09:43:23.87	346.68	23.42	-40.5	-41.1	20.7	0.00e+00	0	57	0	2939158528	43	3916
2026-01-02 09:43:24.86	346.50	23.30	-40.5	-41.1	20.7	0.00e+00	0	56	0	2944401408	43	3931
2026-01-02 09:43:25.85	346.32	23.19	-40.6	-41.2	20.6	0.00e+00	0	57	0	2949644288	43	3973
2026-01-02 09:43:26.84	346.15	23.08	-40.5	-41.0	20.8	0.00e+00	0	57	0	2955935744	43	3910
2026-01-02 09:43:27.83	345.97	22.97	-40.4	-40.9	20.8	0.00e+00	0	57	0	2961178624	43	3867
2026-01-02 09:43:28.81	345.80	22.86	-40.4	-41.0	20.8	0.00e+00	0	56	0	2966421504	43	3882
2026-01-02 09:43:29.80	345.63	22.75	-40.6	-41.2	20.6	0.00e+00	0	57	0	2972712960	43	3980
2026-01-02 09:43:30.80	345.45	22.64	-40.5	-41.1	20.7	0.00e+00	0	57	0	2977955840	43	3939
2026-01-02 09:43:31.78	345.28	22.53	-40.7	-41.3	20.5	0.00e+00	0	57	0	2983198720	43	4019
2026-01-02 09:43:32.77	345.12	22.42	-40.5	-41.1	20.7	0.00e+00	0	57	0	2989490176	43	3928
2026-01-02 09:43:33.76	344.95	22.31	-40.3	-40.9	20.9	0.00e+00	0	57	0	2994733056	43	3828
2026-01-02 09:43:34.76	344.78	22.20	-40.4	-41.0	20.7	0.00e+00	0	56	0	2999975936	43	3893
2026-01-02 09:43:35.75	344.61	22.09	-40.7	-41.3	20.4	0.00e+00	0	57	0	3006267392	43	4040
2026-01-02 09:43:36.74	344.45	21.98	-40.7	-41.3	20.4	0.00e+00	0	56	0	3011510272	43	4051
2026-01-02 09:43:37.72	344.29	21.87	-40.8	-41.5	20.3	0.00e+00	0	56	0	3016753152	43	4099
2026-01-02 09:43:38.71	344.13	21.76	-41.2	-41.9	20.0	0.00e+00	0	56	0	3021996032	44	4058
2026-01-02 09:43:39.70	343.97	21.65	-41.1	-41.7	20.2	0.00e+00	0	57	0	3028287488	44	3983
2026-01-02 09:43:40.69	343.81	21.54	-41.0	-41.6	20.3	0.00e+00	0	56	0	3033530368	44	3942
2026-01-02 09:43:41.68	343.65	21.43	-41.0	-41.7	20.2	0.00e+00	0	57	0	3038773248	44	3962
2026-01-02 09:43:42.67	343.49	21.32	-41.1	-41.8	20.1	0.00e+00	0	57	0	3045064704	44	4025
2026-01-02 09:43:43.67	343.33	21.22	-41.2	-41.8	20.0	0.00e+00	0	57	0	3050307584	44	4050
2026-01-02 09:43:44.66	343.18	21.11	-41.3	-41.9	19.9	0.00e+00	0	57	0	3055550464	44	4082
2026-01-02 09:43:45.66	343.02	21.00	-41.1	-41.7	20.1	0.00e+00	0	57	0	3061841920	44	3987
2026-01-02 09:43:46.64	342.87	20.89	-40.9	-41.5	20.3	0.00e+00	0	57	0	3067084800	44	3876
2026-01-02 09:43:47.63	342.72	20.79	-41.0	-41.6	20.2	0.00e+00	0	57	0	3072327680	44	3934
2026-01-02 09:43:48.62	342.57	20.68	-41.1	-41.7	20.1	0.00e+00	0	57	0	3078619136	44	3981
2026-01-02 09:43:49.61	342.42	20.57	-40.9	-41.5	20.2	0.00e+00	0	57	0	3083862016	44	3910
2026-01-02 09:43:50.59	342.27	20.47	-40.7	-41.3	20.4	0.00e+00	0	57	0	3089104896	44	3796
2026-01-02 09:43:51.58	342.13	20.36	-40.9	-41.6	20.1	0.00e+00	0	56	0	3095396352	44	3926
2026-01-02 09:43:52.57	341.98	20.26	-41.1	-41.8	19.8	0.00e+00	0	57	0	3100639232	44	4016
2026-01-02 09:43:53.56	341.83	20.15	-41.4	-42.1	19.5	0.00e+00	0	57	0	3105882112	44	4168
2026-01-02 09:43:54.54	341.69	20.05	-41.8	-42.5	19.0	0.00e+00	0	57	0	3111124992	45	4133
2026-01-02 09:43:55.53	341.55	19.94	-42.3	-43.1	18.4	0.00e+00	0	57	0	3117416448	46	4150
2026-01-02 09:43:56.52	341.41	19.84	-42.7	-43.6	17.8	0.00e+00	0	57	0	3122659328	47	4155
2026-01-02 09:43:57.51	341.26	19.73	-42.9	-43.8	17.5	0.00e+00	0	57	0	3127902208	47	4285
2026-01-02 09:43:58.50	341.12	19.63	-43.4	-44.4	17.0	0.00e+00	0	57	0	3134193664	48	4308
2026-01-02 09:43:59.48	340.99	19.52	-43.8	-44.8	16.5	0.00e+00	0	57	0	3139436544	49	4288
2026-01-02 09:44:00.47	340.85	19.42	-44.3	-45.4	15.9	0.00e+00	0	57	0	3144679424	50	4293
2026-01-02 09:44:01.46	340.71	19.32	-44.5	-45.7	15.6	0.00e+00	0	57	0	3149922304	50	4444
2026-01-02 09:44:02.45	340.57	19.21	-44.4	-45.6	15.7	0.00e+00	0	57	0	3156213760	50	4406
2026-01-02 09:44:03.45	340.44	19.11	-44.6	-45.7	15.6	0.00e+00	0	57	0	3161456640	51	4233
2026-01-02 09:44:04.44	340.30	19.01	-44.6	-45.8	15.6	0.00e+00	0	57	0	3167748096	51	4249
2026-01-02 09:44:05.43	340.17	18.90	-44.4	-45.5	15.9	0.00e+00	0	57	0	3172990976	51	4144
2026-01-02 09:44:06.42	340.03	18.80	-44.0	-45.0	16.5	0.00e+00	0	57	0	3178233856	51	3904
2026-01-02 09:44:07.41	339.90	18.70	-43.3	-44.2	17.3	0.00e+00	0	56	0	3183476736	49	3972
2026-01-02 09:44:08.38	339.77	18.60	-42.9	-43.7	17.7	0.00e+00	0	57	0	3189768192	49	3767
2026-01-02 09:44:09.38	339.64	18.50	-42.9	-43.8	17.7	0.00e+00	0	57	0	3195011072	48	4013
2026-01-02 09:44:10.37	339.51	18.40	-42.9	-43.7	17.8	0.00e+00	0	57	0	3200253952	48	3995
2026-01-02 09:44:11.36	339.38	18.30	-42.1	-42.9	18.5	0.00e+00	0	57	0	3206545408	47	3844
2026-01-02 09:44:12.34	339.26	18.20	-41.7	-42.5	18.9	0.00e+00	0	57	0	3211788288	46	3870
2026-01-02 09:44:13.33	339.13	18.10	-41.6	-42.3	19.1	0.00e+00	0	57	0	3217031168	46	3809
2026-01-02 09:44:14.32	339.01	18.00	-41.7	-42.4	19.0	0.00e+00	0	57	0	3222274048	46	3865
2026-01-02 09:44:15.30	338.88	17.90	-42.1	-42.8	18.7	0.00e+00	0	57	0	3228565504	46	4051
2026-01-02 09:44:16.29	338.76	17.80	-42.5	-43.3	18.3	0.00e+00	0	57	0	3233808384	46	4286
2026-01-02 09:44:17.27	338.64	17.70	-42.9	-43.7	18.0	0.00e+00	0	57	0	3239051264	47	4221
2026-01-02 09:44:18.26	338.51	17.60	-43.2	-44.0	17.9	0.00e+00	0	57	0	3245342720	48	4125
2026-01-02 09:44:19.26	338.39	17.50	-42.5	-43.3	18.6	0.00e+00	0	57	0	3250585600	48	3785
2026-01-02 09:44:20.25	338.27	17.40	-42.0	-42.8	19.0	0.00e+00	0	57	0	3255828480	47	3786
2026-01-02 09:44:21.23	338.15	17.30	-41.8	-42.5	19.2	0.00e+00	0	57	0	3262119936	46	3888
2026-01-02 09:44:22.22	338.03	17.21	-41.7	-42.4	19.4	0.00e+00	0	57	0	3267362816	46	3842
2026-01-02 09:44:23.21	337.91	17.11	-41.8	-42.5	19.3	0.00e+00	0	57	0	3272605696	46	3883
2026-01-02 09:44:24.20	337.80	17.01	-41.8	-42.5	19.2	0.00e+00	0	57	0	3277848576	46	3913
2026-01-02 09:44:25.18	337.68	16.91	-41.9	-42.6	19.2	0.00e+00	0	57	0	3284140032	46	3949
2026-01-02 09:44:26.17	337.56	16.82	-42.0	-42.7	19.1	0.00e+00	0	57	0	3289382912	46	3997
2026-01-02 09:44:27.17	337.45	16.72	-41.9	-42.6	19.2	0.00e+00	0	57	0	3294625792	46	3957
2026-01-02 09:44:28.16	337.33	16.62	-42.2	-43.0	18.8	0.00e+00	0	57	0	3300917248	46	4105
2026-01-02 09:44:29.14	337.22	16.53	-42.4	-43.2	18.6	0.00e+00	0	57	0	3306160128	46	4231
2026-01-02 09:44:30.13	337.11	16.43	-42.1	-42.8	19.0	0.00e+00	0	57	0	3311403008	46	4026
2026-01-02 09:44:31.12	337.00	16.34	-42.2	-42.9	18.9	0.00e+00	0	57	0	3316645888	46	4097
2026-01-02 09:44:32.11	336.88	16.24	-42.5	-43.2	18.6	0.00e+00	0	57	0	3322937344	46	4222
2026-01-02 09:44:33.08	336.78	16.15	-42.2	-43.0	18.8	0.00e+00	0	57	0	3328180224	46	4111
2026-01-02 09:44:34.07	336.66	16.05	-42.5	-43.3	18.6	0.00e+00	0	57	0	3334471680	46	4252
2026-01-02 09:44:35.06	336.56	15.96	-42.5	-43.2	18.6	0.00e+00	0	57	0	3339714560	46	4223
2026-01-02 09:44:36.05	336.45	15.86	-42.6	-43.4	18.4	0.00e+00	0	57	0	3344957440	47	4066
2026-01-02 09:44:37.05	336.34	15.77	-42.9	-43.7	18.1	0.00e+00	0	57	0	3350200320	47	4229
2026-01-02 09:44:38.04	336.23	15.67	-43.3	-44.1	18.0	0.00e+00	0	57	0	3356491776	48	4153
2026-01-02 09:44:39.03	336.12	15.58	-43.1	-43.9	18.1	0.00e+00	0	57	0	3361734656	48	4077
2026-01-02 09:44:40.02	336.02	15.49	-43.4	-44.2	17.8	0.00e+00	0	57	0	3366977536	48	4230
2026-01-02 09:44:41.00	335.91	15.39	-43.2	-44.0	18.0	0.00e+00	0	57	0	3373268992	48	4131
2026-01-02 09:44:41.99	335.81	15.30	-43.5	-44.4	17.6	0.00e+00	0	57	0	3378511872	48	4328
2026-01-02 09:44:42.99	335.70	15.21	-43.2	-44.0	18.0	0.00e+00	0	57	0	3383754752	48	4131
2026-01-02 09:44:43.98	335.60	15.12	-43.7	-44.5	17.5	0.00e+00	0	57	0	3390046208	49	4130
2026-01-02 09:44:44.97	335.50	15.02	-43.3	-44.2	17.9	0.00e+00	0	57	0	3395289088	49	3959
2026-01-02 09:44:45.96	335.40	14.93	-43.0	-43.8	18.2	0.00e+00	0	57	0	3400531968	49	3812
2026-01-02 09:44:46.94	335.30	14.84	-42.8	-43.6	18.4	0.00e+00	0	57	0	3405774848	48	3935
2026-01-02 09:44:47.93	335.20	14.75	-42.8	-43.6	18.4	0.00e+00	0	57	0	3412066304	48	3927
2026-01-02 09:44:48.93	335.09	14.66	-42.9	-43.7	18.4	0.00e+00	0	57	0	3417309184	48	3968
2026-01-02 09:44:49.91	335.00	14.57	-42.8	-43.5	18.5	0.00e+00	0	57	0	3422552064	48	3896
2026-01-02 09:44:50.90	334.90	14.48	-42.6	-43.4	18.6	0.00e+00	0	57	0	3428843520	48	3848
2026-01-02 09:44:51.89	334.80	14.39	-42.6	-43.3	18.7	0.00e+00	0	57	0	3434086400	48	3814
2026-01-02 09:44:52.88	334.70	14.30	-42.7	-43.5	18.6	0.00e+00	0	57	0	3439329280	48	3873
2026-01-02 09:44:53.86	334.61	14.21	-42.6	-43.4	18.6	0.00e+00	0	57	0	3445620736	48	3835
2026-01-02 09:44:54.85	334.51	14.12	-42.6	-43.4	18.6	0.00e+00	0	57	0	3450863616	48	3843
2026-01-02 09:44:55.84	334.41	14.03	-42.8	-43.5	18.5	0.00e+00	0	57	0	3456106496	48	3912
2026-01-02 09:44:56.83	334.32	13.94	-43.1	-43.9	18.1	0.00e+00	0	57	0	3462397952	48	4072
2026-01-02 09:44:57.82	334.22	13.85	-43.0	-43.7	18.3	0.00e+00	0	57	0	3467640832	48	3999
2026-01-02 09:44:58.80	334.13	13.76	-42.7	-43.5	18.5	0.00e+00	0	57	0	3472883712	48	3889
2026-01-02 09:44:59.80	334.04	13.67	-42.6	-43.3	18.7	0.00e+00	0	57	0	3478126592	48	3814
2026-01-02 09:45:00.79	333.94	13.58	-42.6	-43.4	18.5	0.00e+00	0	57	0	3484418048	48	3855
2026-01-02 09:45:01.78	333.85	13.50	-42.8	-43.5	18.5	0.00e+00	0	57	0	3489660928	48	3905
2026-01-02 09:45:02.77	333.76	13.41	-42.8	-43.6	18.4	0.00e+00	0	57	0	3495952384	48	3926
2026-01-02 09:45:03.77	333.67	13.32	-43.0	-43.9	18.1	0.00e+00	0	57	0	3501195264	48	4054
2026-01-02 09:45:04.74	333.58	13.24	-43.0	-43.8	18.2	0.00e+00	0	57	0	3506438144	48	4031
2026-01-02 09:45:05.73	333.49	13.15	-43.1	-43.9	18.1	0.00e+00	0	57	0	3511681024	48	4086
2026-01-02 09:45:06.72	333.40	13.06	-43.1	-43.9	18.1	0.00e+00	0	57	0	3517972480	48	4076
2026-01-02 09:45:07.71	333.31	12.97	-43.0	-43.8	18.2	0.00e+00	0	57	0	3523215360	48	4006
2026-01-02 09:45:08.70	333.22	12.89	-43.0	-43.9	18.1	0.00e+00	0	57	0	3528458240	48	4061
2026-01-02 09:45:09.68	333.14	12.80	-43.2	-44.1	17.9	0.00e+00	0	57	0	3534749696	48	4156
2026-01-02 09:45:10.67	333.05	12.72	-43.2	-44.1	17.9	0.00e+00	0	57	0	3539992576	48	4151
2026-01-02 09:45:11.67	332.96	12.63	-43.2	-44.1	17.9	0.00e+00	0	57	0	3545235456	48	4155
2026-01-02 09:45:12.66	332.87	12.55	-43.3	-44.2	17.8	0.00e+00	0	57	0	3550478336	48	4225
2026-01-02 09:45:13.65	332.79	12.46	-43.3	-44.2	17.8	0.00e+00	0	57	0	3556769792	48	4217
2026-01-02 09:45:14.62	332.71	12.38	-43.3	-44.2	17.8	0.00e+00	0	57	0	3562012672	48	4202
2026-01-02 09:45:15.61	332.62	12.29	-43.6	-44.5	17.5	0.00e+00	0	57	0	3567255552	48	4346
2026-01-02 09:45:16.60	332.54	12.21	-43.6	-44.5	17.5	0.00e+00	0	57	0	3573547008	49	4099
2026-01-02 09:45:17.59	332.45	12.12	-43.6	-44.5	17.5	0.00e+00	0	57	0	3578789888	49	4117
2026-01-02 09:45:18.58	332.37	12.04	-43.8	-44.7	17.3	0.00e+00	0	57	0	3584032768	49	4222
2026-01-02 09:45:19.57	332.29	11.96	-43.7	-44.6	17.4	0.00e+00	0	57	0	3590324224	49	4159
2026-01-02 09:45:20.57	332.20	11.87	-43.6	-44.4	17.5	0.00e+00	0	57	0	3595567104	49	4089
2026-01-02 09:45:21.56	332.12	11.79	-43.3	-44.2	17.8	0.00e+00	0	57	0	3600809984	49	3959
2026-01-02 09:45:22.55	332.04	11.71	-43.2	-44.1	17.9	0.00e+00	0	57	0	3606052864	49	3915
2026-01-02 09:45:23.54	331.96	11.62	-43.2	-44.0	17.9	0.00e+00	0	57	0	3612344320	49	3910
2026-01-02 09:45:24.52	331.88	11.54	-43.4	-44.2	17.7	0.00e+00	0	57	0	3617587200	49	4002
2026-01-02 09:45:25.50	331.80	11.46	-43.5	-44.3	17.6	0.00e+00	0	57	0	3622830080	49	4039
2026-01-02 09:45:26.49	331.72	11.38	-43.5	-44.3	17.6	0.00e+00	0	57	0	3629121536	49	4036
2026-01-02 09:45:27.48	331.64	11.30	-43.4	-44.2	17.6	0.00e+00	0	57	0	3634364416	49	3999
2026-01-02 09:45:28.46	331.57	11.21	-43.2	-44.0	17.9	0.00e+00	0	57	0	3639607296	49	3910
2026-01-02 09:45:29.44	331.49	11.13	-43.3	-44.1	17.8	0.00e+00	0	57	0	3644850176	49	3930
2026-01-02 09:45:30.43	331.41	11.05	-43.3	-44.2	17.7	0.00e+00	0	57	0	3651141632	49	3965
2026-01-02 09:45:31.42	331.33	10.97	-43.3	-44.2	17.7	0.00e+00	0	57	0	3656384512	49	3969
2026-01-02 09:45:32.41	331.26	10.89	-43.3	-44.2	17.7	0.00e+00	0	57	0	3661627392	49	3984
2026-01-02 09:45:33.40	331.18	10.81	-43.4	-44.3	17.6	0.00e+00	0	57	0	3667918848	49	4006
