passes_logs/2026/01/02/R3.0SM8_Murmansk_STILSPACE/R3.0SM8_Murmansk_STILSPACE__20260102_083219_SUOMI_NPP_rec.log

#Pass ID: 20260102_083219_SUOMI NPP
#Satellite: SUOMI NPP
#Configuration: NPP
#almurnet v.1.7.20240730
#Start time: 2026-01-02 08:32:19

#Version: 2.2.20231116
#Station: R3.0SM8_Murmansk_STILSPACE
#Location: 33.092731 lon 68.902999 lat
#TLE: 1 37849U 11061A   26001.07732418  .00000182  00000+0  10735-3 0  9990
#TLE: 2 37849  98.7795 303.2470 0002580  87.2016 272.9455 14.19520779734739

#Time	Az	El	Level	Level2	SNR	BER	BlckErr	Temp	State	Recorded	gain1	gain2
2026-01-02 08:32:19.97	126.52	3.00	-52.3	-66.3	3.8	1.49e+00	0	46	0	0	67	17968
2026-01-02 08:32:20.96	126.50	3.07	-52.4	-66.2	3.8	1.49e+00	0	46	104	0	67	17792
2026-01-02 08:32:21.95	126.47	3.13	-52.3	-66.2	3.8	1.49e+00	0	46	104	0	67	17748
2026-01-02 08:32:22.94	126.45	3.20	-52.2	-66.1	3.8	1.49e+00	0	47	104	0	67	17654
2026-01-02 08:32:23.93	126.42	3.26	-52.2	-66.1	3.8	1.49e+00	0	47	104	0	67	17572
2026-01-02 08:32:24.91	126.40	3.33	-52.2	-66.0	3.8	1.49e+00	0	47	104	0	67	17412
2026-01-02 08:32:25.90	126.37	3.39	-52.0	-66.0	3.8	1.49e+00	0	47	104	0	67	17321
2026-01-02 08:32:26.90	126.34	3.46	-52.0	-65.8	3.8	1.49e+00	0	47	104	0	67	17000
2026-01-02 08:32:27.88	126.32	3.53	-51.8	-65.6	3.8	1.49e+00	0	47	104	0	66	17532
2026-01-02 08:32:28.88	126.29	3.59	-51.6	-64.8	3.8	1.49e+00	0	47	104	0	66	16046
2026-01-02 08:32:29.86	126.27	3.66	-51.6	-64.8	3.8	1.49e+00	0	47	104	0	66	15960
2026-01-02 08:32:30.85	126.24	3.73	-51.6	-64.7	3.8	1.49e+00	0	47	104	0	66	15773
2026-01-02 08:32:31.84	126.21	3.79	-51.6	-64.5	3.8	1.49e+00	0	47	104	0	66	15515
2026-01-02 08:32:32.83	126.19	3.86	-51.6	-64.2	3.8	1.49e+00	0	47	104	0	66	14951
2026-01-02 08:32:33.83	126.16	3.93	-51.5	-63.8	3.8	1.49e+00	0	47	104	0	66	14362
2026-01-02 08:32:34.82	126.13	3.99	-51.5	-63.6	3.8	1.49e+00	0	47	104	0	66	13914
2026-01-02 08:32:35.81	126.11	4.06	-51.5	-63.1	3.8	1.49e+00	0	47	104	0	66	13219
2026-01-02 08:32:36.80	126.08	4.13	-51.5	-62.7	3.9	1.47e+00	0	47	104	0	66	12638
2026-01-02 08:32:37.79	126.05	4.20	-51.3	-62.3	4.1	1.45e+00	0	47	0	0	65	12699
2026-01-02 08:32:38.78	126.02	4.26	-51.4	-61.8	4.2	1.39e+00	0	48	0	0	65	12055
2026-01-02 08:32:39.77	126.00	4.33	-51.4	-61.4	4.4	1.30e+00	0	48	0	1048576	65	11467
2026-01-02 08:32:40.75	125.97	4.40	-51.2	-61.0	4.5	1.11e+00	0	48	0	2097152	65	10939
2026-01-02 08:32:41.75	125.94	4.47	-51.2	-60.5	4.7	9.75e-01	0	48	0	4194304	65	10395
2026-01-02 08:32:42.73	125.91	4.53	-51.1	-60.3	4.8	8.17e-01	0	48	0	6291456	65	10097
2026-01-02 08:32:43.72	125.89	4.60	-51.1	-59.7	5.1	7.30e-01	0	48	0	8388608	65	9448
2026-01-02 08:32:44.71	125.86	4.67	-50.9	-59.3	5.4	6.06e-01	0	48	0	9437184	65	9016
2026-01-02 08:32:45.70	125.83	4.74	-50.9	-59.0	5.6	4.90e-01	0	48	0	11534336	64	9195
2026-01-02 08:32:46.69	125.80	4.81	-50.9	-58.5	5.9	3.83e-01	0	48	0	13631488	64	8689
2026-01-02 08:32:47.68	125.77	4.88	-50.8	-57.9	6.4	2.80e-01	0	48	0	15728640	64	8155
2026-01-02 08:32:48.67	125.74	4.95	-50.6	-57.3	6.9	2.11e-01	0	48	0	17825792	64	7619
2026-01-02 08:32:49.66	125.71	5.02	-50.6	-56.8	7.3	1.41e-01	0	48	0	18874368	64	7149
2026-01-02 08:32:50.65	125.68	5.09	-50.5	-56.4	7.7	8.91e-02	0	48	0	20971520	64	6855
2026-01-02 08:32:51.64	125.65	5.16	-50.6	-56.8	7.4	8.98e-02	0	49	0	23068672	64	7141
2026-01-02 08:32:52.63	125.63	5.23	-50.6	-56.7	7.5	1.24e-01	0	49	0	25165824	64	7096
2026-01-02 08:32:53.61	125.60	5.30	-50.4	-56.2	8.0	9.34e-02	0	48	0	26214400	64	6674
2026-01-02 08:32:54.60	125.57	5.37	-50.3	-55.6	8.7	3.74e-02	0	49	0	28311552	63	6613
2026-01-02 08:32:55.59	125.54	5.44	-50.3	-55.3	9.0	2.99e-02	0	49	0	30408704	63	6367
2026-01-02 08:32:56.58	125.51	5.51	-50.2	-55.1	9.2	2.15e-02	0	49	0	32505856	63	6238
2026-01-02 08:32:57.57	125.48	5.58	-50.0	-54.7	9.6	1.27e-02	0	49	0	33554432	63	5987
2026-01-02 08:32:58.57	125.45	5.65	-50.0	-54.6	9.7	1.16e-02	0	49	0	35651584	63	5895
2026-01-02 08:32:59.56	125.41	5.72	-50.1	-54.8	9.5	1.37e-02	0	49	0	37748736	63	6053
2026-01-02 08:33:00.55	125.38	5.79	-49.9	-54.5	9.8	1.64e-02	0	49	0	39845888	63	5840
2026-01-02 08:33:01.53	125.35	5.86	-49.7	-53.8	10.5	4.99e-03	0	49	0	40894464	62	5685
2026-01-02 08:33:02.53	125.32	5.94	-49.5	-53.3	11.1	2.28e-03	0	49	0	42991616	62	5386
2026-01-02 08:33:03.52	125.29	6.01	-49.2	-52.8	11.6	1.01e-03	0	49	0	45088768	61	5345
2026-01-02 08:33:04.51	125.26	6.08	-48.8	-52.1	12.4	3.55e-04	0	49	0	47185920	60	5220
2026-01-02 08:33:05.49	125.23	6.15	-48.6	-51.6	12.8	9.30e-05	0	49	0	49283072	60	4980
2026-01-02 08:33:06.47	125.20	6.23	-48.4	-51.2	13.3	2.13e-05	0	49	0	50331648	59	5012
2026-01-02 08:33:07.46	125.16	6.30	-48.1	-50.7	13.8	1.14e-05	0	49	0	52428800	59	4745
2026-01-02 08:33:08.45	125.13	6.37	-48.0	-50.5	14.0	2.20e-06	0	49	0	54525952	59	4623
2026-01-02 08:33:09.44	125.10	6.44	-47.8	-50.1	14.4	7.00e-07	0	49	0	56623104	58	4676
2026-01-02 08:33:10.43	125.07	6.52	-47.6	-49.8	14.6	7.00e-07	0	49	0	57671680	58	4544
2026-01-02 08:33:11.43	125.03	6.59	-47.6	-49.9	14.6	7.00e-07	0	50	0	59768832	58	4570
2026-01-02 08:33:12.41	125.00	6.66	-47.7	-50.0	14.5	7.00e-07	0	50	0	61865984	58	4601
2026-01-02 08:33:13.39	124.97	6.74	-47.7	-50.1	14.5	2.20e-06	0	50	0	63963136	58	4659
2026-01-02 08:33:14.38	124.94	6.81	-47.6	-49.8	14.7	1.50e-06	0	50	0	65011712	58	4521
2026-01-02 08:33:15.37	124.90	6.89	-47.8	-50.1	14.4	0.00e+00	0	50	0	67108864	58	4692
2026-01-02 08:33:16.36	124.87	6.96	-48.0	-50.4	14.2	3.00e-06	0	50	0	69206016	58	4842
2026-01-02 08:33:17.34	124.84	7.04	-47.8	-50.1	14.5	0.00e+00	0	50	0	71303168	58	4666
2026-01-02 08:33:18.33	124.80	7.11	-47.8	-50.0	14.5	0.00e+00	0	50	0	73400320	58	4649
2026-01-02 08:33:19.31	124.77	7.19	-47.9	-50.3	14.2	7.00e-07	0	50	0	74448896	58	4812
2026-01-02 08:33:20.30	124.73	7.26	-47.9	-50.3	14.3	1.50e-06	0	50	0	76546048	58	4795
2026-01-02 08:33:21.29	124.70	7.34	-48.0	-50.3	14.2	0.00e+00	0	50	0	78643200	58	4814
2026-01-02 08:33:22.28	124.66	7.41	-48.2	-50.7	13.9	3.80e-06	0	50	0	80740352	58	5009
2026-01-02 08:33:23.27	124.63	7.49	-48.2	-50.7	13.9	3.00e-06	0	50	0	81788928	58	4996
2026-01-02 08:33:24.26	124.59	7.56	-48.1	-50.6	14.0	4.50e-06	0	50	0	83886080	58	4967
2026-01-02 08:33:25.25	124.56	7.64	-47.8	-50.2	14.4	1.50e-06	0	50	0	85983232	58	4733
2026-01-02 08:33:26.23	124.52	7.72	-47.8	-50.1	14.5	0.00e+00	0	50	0	88080384	58	4664
2026-01-02 08:33:27.23	124.49	7.79	-47.6	-49.8	14.8	1.50e-06	0	50	0	89128960	58	4545
2026-01-02 08:33:28.22	124.45	7.87	-47.6	-49.8	14.8	0.00e+00	0	51	0	91226112	58	4514
2026-01-02 08:33:29.20	124.42	7.95	-47.7	-49.9	14.7	0.00e+00	0	51	0	93323264	58	4596
2026-01-02 08:33:30.18	124.38	8.03	-47.6	-49.8	14.9	0.00e+00	0	51	0	95420416	58	4512
2026-01-02 08:33:31.17	124.34	8.10	-47.7	-49.9	14.8	7.00e-07	0	50	0	97517568	58	4548
2026-01-02 08:33:32.16	124.31	8.18	-47.8	-50.1	14.6	0.00e+00	0	50	0	98566144	58	4673
2026-01-02 08:33:33.16	124.27	8.26	-47.5	-49.6	15.0	0.00e+00	0	51	0	100663296	58	4428
2026-01-02 08:33:34.14	124.23	8.34	-47.5	-49.5	15.1	0.00e+00	0	51	0	102760448	58	4384
2026-01-02 08:33:35.13	124.19	8.42	-47.4	-49.5	15.1	0.00e+00	0	51	0	104857600	58	4387
2026-01-02 08:33:36.12	124.16	8.50	-47.6	-49.7	15.0	0.00e+00	0	51	0	105906176	58	4484
2026-01-02 08:33:37.11	124.12	8.58	-47.6	-49.7	15.0	0.00e+00	0	51	0	108003328	58	4459
2026-01-02 08:33:38.10	124.08	8.65	-47.6	-49.8	14.9	0.00e+00	0	51	0	110100480	58	4497
2026-01-02 08:33:39.09	124.04	8.73	-47.6	-49.7	15.0	0.00e+00	0	51	0	112197632	58	4488
2026-01-02 08:33:40.07	124.00	8.81	-47.7	-49.8	14.9	0.00e+00	0	51	0	113246208	58	4531
2026-01-02 08:33:41.07	123.97	8.89	-47.4	-49.5	15.2	0.00e+00	0	51	0	115343360	58	4348
2026-01-02 08:33:42.06	123.93	8.98	-47.5	-49.6	15.1	0.00e+00	0	51	0	117440512	58	4423
2026-01-02 08:33:43.05	123.89	9.06	-47.5	-49.6	15.1	0.00e+00	0	51	0	119537664	58	4427
2026-01-02 08:33:44.05	123.85	9.14	-47.4	-49.5	15.3	0.00e+00	0	51	0	120586240	57	4604
2026-01-02 08:33:45.03	123.81	9.22	-47.6	-49.7	15.1	0.00e+00	0	51	0	122683392	57	4714
2026-01-02 08:33:46.02	123.77	9.30	-47.9	-50.2	14.5	0.00e+00	0	51	0	124780544	57	5032
2026-01-02 08:33:47.01	123.73	9.38	-47.6	-49.8	15.0	0.00e+00	0	51	0	126877696	57	4771
2026-01-02 08:33:48.00	123.69	9.46	-47.4	-49.4	15.3	0.00e+00	0	51	0	128974848	57	4597
2026-01-02 08:33:49.00	123.65	9.55	-47.2	-49.2	15.5	7.00e-07	0	52	0	130023424	57	4462
2026-01-02 08:33:49.98	123.61	9.63	-47.2	-49.2	15.5	0.00e+00	0	51	0	132120576	57	4457
2026-01-02 08:33:50.97	123.56	9.71	-47.2	-49.1	15.6	0.00e+00	0	51	0	134217728	57	4415
2026-01-02 08:33:51.96	123.52	9.79	-47.3	-49.2	15.5	0.00e+00	0	52	0	136314880	57	4492
2026-01-02 08:33:52.94	123.48	9.88	-47.3	-49.3	15.5	0.00e+00	0	52	0	137363456	57	4496
2026-01-02 08:33:53.93	123.44	9.96	-47.2	-49.2	15.5	0.00e+00	0	52	0	139460608	57	4485
2026-01-02 08:33:54.92	123.40	10.04	-47.3	-49.3	15.5	0.00e+00	0	52	0	141557760	57	4522
2026-01-02 08:33:55.92	123.35	10.13	-47.5	-49.6	15.1	0.00e+00	0	52	0	143654912	57	4703
2026-01-02 08:33:56.91	123.31	10.21	-47.3	-49.3	15.5	0.00e+00	0	52	0	144703488	57	4502
2026-01-02 08:33:57.91	123.27	10.30	-47.2	-49.0	15.8	0.00e+00	0	51	0	146800640	57	4371
2026-01-02 08:33:58.90	123.23	10.38	-47.1	-48.9	15.9	0.00e+00	0	52	0	148897792	57	4311
2026-01-02 08:33:59.88	123.18	10.47	-47.0	-48.8	16.0	0.00e+00	0	52	0	150994944	57	4257
2026-01-02 08:34:00.87	123.14	10.55	-47.0	-48.8	16.0	0.00e+00	0	52	0	153092096	57	4251
2026-01-02 08:34:01.87	123.09	10.64	-47.2	-49.1	15.7	0.00e+00	0	52	0	154140672	57	4420
2026-01-02 08:34:02.86	123.05	10.73	-47.2	-49.0	15.8	0.00e+00	0	52	0	156237824	57	4368
2026-01-02 08:34:03.84	123.01	10.81	-47.2	-49.0	15.8	0.00e+00	0	52	0	158334976	57	4366
2026-01-02 08:34:04.83	122.96	10.90	-47.4	-49.3	15.5	0.00e+00	0	52	0	160432128	57	4517
2026-01-02 08:34:05.82	122.92	10.98	-47.4	-49.4	15.5	0.00e+00	0	52	0	161480704	57	4551
2026-01-02 08:34:06.80	122.87	11.07	-47.2	-49.1	15.7	0.00e+00	0	52	0	163577856	57	4398
2026-01-02 08:34:07.80	122.82	11.16	-47.1	-49.0	15.8	0.00e+00	0	52	0	165675008	57	4367
2026-01-02 08:34:08.79	122.78	11.25	-47.2	-49.1	15.7	0.00e+00	0	52	0	167772160	57	4425
2026-01-02 08:34:09.77	122.73	11.33	-47.3	-49.2	15.6	0.00e+00	0	52	0	169869312	57	4485
2026-01-02 08:34:10.77	122.68	11.42	-47.2	-49.2	15.7	0.00e+00	0	52	0	170917888	57	4448
2026-01-02 08:34:11.76	122.64	11.51	-47.3	-49.3	15.6	0.00e+00	0	52	0	173015040	57	4513
2026-01-02 08:34:12.74	122.59	11.60	-47.2	-49.1	15.7	0.00e+00	0	52	0	175112192	57	4415
2026-01-02 08:34:13.73	122.54	11.69	-47.1	-48.9	15.9	0.00e+00	0	52	0	177209344	57	4306
2026-01-02 08:34:14.72	122.50	11.78	-46.9	-48.8	16.0	0.00e+00	0	52	0	178257920	57	4273
2026-01-02 08:34:15.71	122.45	11.87	-46.9	-48.8	16.0	0.00e+00	0	52	0	180355072	56	4496
2026-01-02 08:34:16.70	122.40	11.96	-46.8	-48.7	16.1	0.00e+00	0	52	0	182452224	56	4454
2026-01-02 08:34:17.68	122.35	12.05	-47.0	-49.0	15.9	0.00e+00	0	52	0	184549376	56	4599
2026-01-02 08:34:18.68	122.30	12.14	-47.1	-49.1	15.7	0.00e+00	0	53	0	185597952	56	4670
2026-01-02 08:34:19.67	122.25	12.23	-47.1	-49.0	15.8	0.00e+00	0	52	0	187695104	56	4612
2026-01-02 08:34:20.66	122.20	12.32	-47.2	-49.1	15.7	0.00e+00	0	52	0	189792256	56	4679
2026-01-02 08:34:21.65	122.15	12.41	-47.2	-49.2	15.6	0.00e+00	0	52	0	191889408	56	4726
2026-01-02 08:34:22.64	122.10	12.51	-47.3	-49.3	15.5	0.00e+00	0	52	0	193986560	56	4812
2026-01-02 08:34:23.63	122.05	12.60	-47.3	-49.3	15.5	0.00e+00	0	53	0	195035136	56	4797
2026-01-02 08:34:24.61	122.00	12.69	-47.2	-49.2	15.6	0.00e+00	0	53	0	197132288	56	4750
2026-01-02 08:34:25.61	121.95	12.78	-47.4	-49.5	15.3	0.00e+00	0	53	0	199229440	56	4924
2026-01-02 08:34:26.60	121.89	12.88	-47.5	-49.6	15.2	0.00e+00	0	52	0	201326592	56	4974
2026-01-02 08:34:27.59	121.84	12.97	-47.4	-49.4	15.4	0.00e+00	0	53	0	202375168	56	4855
2026-01-02 08:34:28.58	121.79	13.07	-47.6	-49.7	15.2	0.00e+00	0	52	0	204472320	56	4996
2026-01-02 08:34:29.56	121.74	13.16	-47.6	-49.8	15.1	7.00e-07	0	53	0	206569472	57	4771
2026-01-02 08:34:30.55	121.68	13.25	-47.3	-49.3	15.6	0.00e+00	0	53	0	208666624	57	4500
2026-01-02 08:34:31.53	121.63	13.35	-47.1	-49.0	15.8	0.00e+00	0	53	0	209715200	57	4379
2026-01-02 08:34:32.52	121.58	13.44	-47.1	-49.0	15.8	0.00e+00	0	53	0	211812352	57	4382
2026-01-02 08:34:33.51	121.52	13.54	-47.3	-49.3	15.6	0.00e+00	0	53	0	213909504	57	4535
2026-01-02 08:34:34.50	121.47	13.63	-47.5	-49.6	15.3	0.00e+00	0	53	0	216006656	57	4680
2026-01-02 08:34:35.49	121.41	13.73	-47.3	-49.2	15.7	0.00e+00	0	53	0	217055232	57	4485
2026-01-02 08:34:36.48	121.36	13.83	-47.3	-49.3	15.5	0.00e+00	0	53	0	219152384	57	4527
2026-01-02 08:34:37.46	121.30	13.92	-47.4	-49.4	15.4	0.00e+00	0	53	0	221249536	57	4590
2026-01-02 08:34:38.45	121.25	14.02	-47.5	-49.6	15.3	0.00e+00	0	53	0	223346688	57	4677
2026-01-02 08:34:39.45	121.19	14.12	-47.6	-49.7	15.2	0.00e+00	0	53	0	225443840	57	4746
2026-01-02 08:34:40.43	121.13	14.22	-47.6	-49.7	15.2	0.00e+00	0	53	0	226492416	57	4733
2026-01-02 08:34:41.42	121.07	14.32	-47.7	-49.9	15.1	0.00e+00	0	53	0	228589568	57	4815
2026-01-02 08:34:42.41	121.02	14.42	-48.0	-50.2	14.7	0.00e+00	0	53	0	230686720	57	5038
2026-01-02 08:34:43.40	120.96	14.51	-47.9	-50.3	14.7	7.00e-07	0	53	0	232783872	57	5048
2026-01-02 08:34:44.39	120.90	14.61	-47.7	-49.8	15.1	0.00e+00	0	53	0	233832448	57	4792
2026-01-02 08:34:45.38	120.84	14.71	-47.6	-49.6	15.3	0.00e+00	0	53	0	235929600	57	4701
2026-01-02 08:34:46.37	120.78	14.82	-47.6	-49.7	15.2	0.00e+00	0	53	0	238026752	57	4726
2026-01-02 08:34:47.37	120.72	14.92	-47.5	-49.6	15.3	0.00e+00	0	53	0	240123904	57	4675
2026-01-02 08:34:48.35	120.66	15.02	-47.4	-49.5	15.5	0.00e+00	0	53	0	241172480	57	4616
2026-01-02 08:34:49.34	120.60	15.12	-47.8	-50.1	14.9	0.00e+00	0	53	0	243269632	57	4932
2026-01-02 08:34:50.33	120.54	15.22	-48.1	-50.5	14.5	1.50e-06	0	53	0	245366784	58	4880
2026-01-02 08:34:51.32	120.48	15.32	-47.5	-49.6	15.4	0.00e+00	0	53	0	247463936	58	4412
2026-01-02 08:34:52.31	120.42	15.43	-47.3	-49.2	15.7	0.00e+00	0	53	0	249561088	57	4481
2026-01-02 08:34:53.31	120.35	15.53	-47.3	-49.2	15.7	0.00e+00	0	53	0	250609664	57	4474
2026-01-02 08:34:54.29	120.29	15.63	-47.0	-48.8	16.1	0.00e+00	0	53	0	252706816	57	4276
2026-01-02 08:34:55.28	120.23	15.74	-46.6	-48.3	16.6	0.00e+00	0	53	0	254803968	56	4290
2026-01-02 08:34:56.27	120.16	15.84	-46.7	-48.4	16.5	0.00e+00	0	53	0	256901120	56	4329
2026-01-02 08:34:57.26	120.10	15.95	-46.8	-48.6	16.3	0.00e+00	0	53	0	257949696	56	4412
2026-01-02 08:34:58.25	120.03	16.05	-47.0	-48.8	16.2	0.00e+00	0	53	0	260046848	56	4528
2026-01-02 08:34:59.24	119.97	16.16	-47.2	-49.2	15.8	0.00e+00	0	53	0	262144000	56	4709
2026-01-02 08:35:00.23	119.90	16.26	-47.2	-49.1	15.9	0.00e+00	0	54	0	264241152	56	4684
2026-01-02 08:35:01.22	119.84	16.37	-47.5	-49.6	15.4	0.00e+00	0	53	0	266338304	56	4942
2026-01-02 08:35:02.21	119.77	16.48	-47.2	-49.1	15.9	0.00e+00	0	54	0	267386880	56	4665
2026-01-02 08:35:03.21	119.70	16.59	-47.1	-49.0	15.9	0.00e+00	0	54	0	269484032	56	4637
2026-01-02 08:35:04.20	119.63	16.69	-47.3	-49.3	15.7	0.00e+00	0	54	0	271581184	56	4779
2026-01-02 08:35:05.18	119.56	16.80	-47.1	-49.0	15.9	0.00e+00	0	54	0	273678336	56	4644
2026-01-02 08:35:06.17	119.50	16.91	-47.1	-49.0	15.9	0.00e+00	0	54	0	274726912	56	4643
2026-01-02 08:35:07.16	119.43	17.02	-47.2	-49.2	15.8	0.00e+00	0	54	0	276824064	56	4708
2026-01-02 08:35:08.15	119.36	17.13	-47.1	-49.0	15.9	0.00e+00	0	54	0	278921216	56	4632
2026-01-02 08:35:09.15	119.29	17.24	-47.2	-49.2	15.8	0.00e+00	0	54	0	281018368	56	4733
2026-01-02 08:35:10.14	119.21	17.35	-47.1	-49.0	15.9	0.00e+00	0	54	0	282066944	56	4630
2026-01-02 08:35:11.13	119.14	17.46	-47.3	-49.2	15.7	0.00e+00	0	53	0	284164096	56	4759
2026-01-02 08:35:12.13	119.07	17.57	-47.0	-48.8	16.2	0.00e+00	0	54	0	286261248	56	4519
2026-01-02 08:35:13.11	119.00	17.68	-46.8	-48.6	16.3	0.00e+00	0	54	0	288358400	56	4418
2026-01-02 08:35:14.10	118.92	17.80	-46.7	-48.4	16.5	0.00e+00	0	54	0	290455552	56	4317
2026-01-02 08:35:15.10	118.85	17.91	-46.6	-48.4	16.6	0.00e+00	0	54	0	291504128	56	4304
2026-01-02 08:35:16.08	118.78	18.02	-46.7	-48.5	16.5	0.00e+00	0	54	0	293601280	56	4347
2026-01-02 08:35:17.07	118.70	18.14	-46.9	-48.7	16.3	0.00e+00	0	54	0	295698432	56	4443
2026-01-02 08:35:18.06	118.63	18.25	-46.5	-48.2	16.7	0.00e+00	0	54	0	297795584	56	4223
2026-01-02 08:35:19.04	118.55	18.36	-46.6	-48.3	16.7	0.00e+00	0	54	0	298844160	56	4259
2026-01-02 08:35:20.03	118.47	18.48	-46.6	-48.3	16.6	0.00e+00	0	54	0	300941312	56	4289
2026-01-02 08:35:21.03	118.40	18.60	-46.8	-48.5	16.5	0.00e+00	0	54	0	303038464	56	4358
2026-01-02 08:35:22.02	118.32	18.71	-47.1	-49.0	16.0	0.00e+00	0	54	0	305135616	56	4613
2026-01-02 08:35:23.01	118.24	18.83	-46.8	-48.6	16.4	0.00e+00	0	54	0	306184192	56	4393
2026-01-02 08:35:24.00	118.16	18.95	-46.7	-48.5	16.5	0.00e+00	0	54	0	308281344	56	4356
2026-01-02 08:35:25.00	118.08	19.06	-46.8	-48.6	16.4	0.00e+00	0	54	0	310378496	56	4435
2026-01-02 08:35:25.98	118.00	19.18	-46.9	-48.7	16.3	0.00e+00	0	54	0	312475648	56	4462
2026-01-02 08:35:26.98	117.92	19.30	-47.2	-49.1	15.9	0.00e+00	0	54	0	314572800	56	4690
2026-01-02 08:35:27.96	117.84	19.42	-47.2	-49.2	15.8	0.00e+00	0	54	0	315621376	56	4718
2026-01-02 08:35:28.95	117.75	19.54	-47.2	-49.1	15.9	0.00e+00	0	54	0	317718528	56	4694
2026-01-02 08:35:29.93	117.67	19.66	-47.1	-48.9	16.1	0.00e+00	0	54	0	319815680	56	4573
2026-01-02 08:35:30.92	117.59	19.78	-47.2	-49.2	15.9	0.00e+00	0	54	0	321912832	56	4706
2026-01-02 08:35:31.91	117.50	19.90	-47.3	-49.2	15.8	0.00e+00	0	54	0	322961408	56	4727
2026-01-02 08:35:32.89	117.42	20.02	-47.0	-48.9	16.1	0.00e+00	0	54	0	325058560	56	4559
2026-01-02 08:35:33.87	117.33	20.14	-47.0	-48.8	16.2	0.00e+00	0	54	0	327155712	56	4530
2026-01-02 08:35:34.86	117.25	20.26	-47.3	-49.3	15.7	0.00e+00	0	54	0	329252864	56	4806
2026-01-02 08:35:35.85	117.16	20.39	-47.3	-49.2	15.8	0.00e+00	0	54	0	330301440	56	4751
2026-01-02 08:35:36.84	117.07	20.51	-47.4	-49.4	15.6	0.00e+00	0	54	0	332398592	56	4860
2026-01-02 08:35:37.84	116.98	20.64	-47.5	-49.7	15.4	0.00e+00	0	54	0	334495744	56	4988
2026-01-02 08:35:38.83	116.89	20.76	-47.3	-49.4	15.6	0.00e+00	0	54	0	336592896	56	4836
2026-01-02 08:35:39.82	116.80	20.89	-47.2	-49.2	15.8	0.00e+00	0	54	0	338690048	56	4725
2026-01-02 08:35:40.81	116.71	21.01	-47.2	-49.2	15.8	0.00e+00	0	54	0	339738624	56	4716
2026-01-02 08:35:41.80	116.62	21.14	-47.4	-49.5	15.6	0.00e+00	0	54	0	341835776	56	4876
2026-01-02 08:35:42.79	116.53	21.27	-47.3	-49.2	15.8	0.00e+00	0	54	0	343932928	56	4732
2026-01-02 08:35:43.78	116.43	21.39	-47.0	-48.9	16.1	0.00e+00	0	54	0	346030080	56	4576
2026-01-02 08:35:44.77	116.34	21.52	-47.2	-49.1	15.9	0.00e+00	0	54	0	347078656	56	4677
2026-01-02 08:35:45.76	116.24	21.65	-47.2	-49.1	15.9	0.00e+00	0	54	0	349175808	56	4701
2026-01-02 08:35:46.74	116.15	21.78	-47.3	-49.3	15.7	0.00e+00	0	54	0	351272960	56	4794
2026-01-02 08:35:47.73	116.05	21.91	-47.4	-49.5	15.5	0.00e+00	0	54	0	353370112	56	4901
2026-01-02 08:35:48.72	115.95	22.04	-47.6	-49.7	15.3	0.00e+00	0	54	0	354418688	56	5007
2026-01-02 08:35:49.72	115.86	22.17	-47.5	-49.7	15.4	0.00e+00	0	54	0	356515840	56	4988
2026-01-02 08:35:50.71	115.76	22.30	-47.5	-49.6	15.5	0.00e+00	0	54	0	358612992	56	4956
2026-01-02 08:35:51.71	115.66	22.44	-47.6	-49.7	15.4	0.00e+00	0	54	0	360710144	56	4996
2026-01-02 08:35:52.70	115.55	22.57	-47.5	-49.5	15.5	0.00e+00	0	54	0	362807296	57	4627
2026-01-02 08:35:53.69	115.45	22.70	-47.5	-49.6	15.5	0.00e+00	0	54	0	363855872	57	4666
2026-01-02 08:35:54.69	115.35	22.84	-47.5	-49.6	15.5	0.00e+00	0	55	0	365953024	57	4679
2026-01-02 08:35:55.68	115.24	22.97	-47.6	-49.8	15.3	0.00e+00	0	55	0	368050176	57	4763
2026-01-02 08:35:56.67	115.14	23.11	-47.8	-50.1	15.1	0.00e+00	0	54	0	370147328	57	4928
2026-01-02 08:35:57.66	115.03	23.24	-47.9	-50.1	15.0	0.00e+00	0	54	0	371195904	57	4940
2026-01-02 08:35:58.65	114.93	23.38	-47.9	-50.0	15.1	7.00e-07	0	54	0	373293056	57	4925
2026-01-02 08:35:59.64	114.82	23.52	-48.0	-50.2	14.9	0.00e+00	0	54	0	375390208	57	5030
2026-01-02 08:36:00.64	114.71	23.66	-48.1	-50.4	14.8	7.00e-07	0	55	0	377487360	58	4827
2026-01-02 08:36:01.63	114.60	23.79	-48.3	-50.7	14.4	0.00e+00	0	55	0	379584512	58	5025
2026-01-02 08:36:02.62	114.49	23.93	-48.3	-50.8	14.4	1.50e-06	0	55	0	380633088	58	5043
2026-01-02 08:36:03.61	114.38	24.07	-48.1	-50.4	14.7	7.00e-07	0	55	0	382730240	58	4835
2026-01-02 08:36:04.61	114.27	24.21	-47.8	-49.9	15.2	0.00e+00	0	55	0	384827392	58	4587
2026-01-02 08:36:05.60	114.15	24.36	-48.0	-50.3	14.9	0.00e+00	0	55	0	386924544	58	4760
2026-01-02 08:36:06.59	114.04	24.50	-48.2	-50.6	14.6	0.00e+00	0	55	0	387973120	58	4958
2026-01-02 08:36:07.58	113.92	24.64	-48.2	-50.5	14.5	0.00e+00	0	55	0	390070272	58	4910
2026-01-02 08:36:08.58	113.80	24.78	-48.1	-50.4	14.8	7.00e-07	0	55	0	392167424	58	4830
2026-01-02 08:36:09.57	113.69	24.93	-48.4	-50.9	14.3	1.50e-06	0	55	0	394264576	58	5102
2026-01-02 08:36:10.55	113.57	25.07	-48.3	-50.6	14.5	1.50e-06	0	55	0	395313152	59	4687
2026-01-02 08:36:11.54	113.45	25.21	-48.1	-50.4	14.8	0.00e+00	0	55	0	397410304	59	4553
2026-01-02 08:36:12.53	113.33	25.36	-48.0	-50.2	14.9	0.00e+00	0	55	0	399507456	59	4480
2026-01-02 08:36:13.51	113.21	25.50	-48.0	-50.2	14.9	0.00e+00	0	55	0	401604608	58	4757
2026-01-02 08:36:14.50	113.08	25.65	-48.4	-51.0	14.2	7.00e-07	0	55	0	403701760	58	5182
2026-01-02 08:36:15.49	112.96	25.80	-48.7	-51.4	13.8	3.00e-06	0	55	0	404750336	59	5136
2026-01-02 08:36:16.47	112.83	25.94	-48.6	-51.3	13.8	2.20e-06	0	55	0	406847488	59	5093
2026-01-02 08:36:17.46	112.71	26.09	-48.8	-51.6	13.6	9.10e-06	0	55	0	408944640	59	5248
2026-01-02 08:36:18.45	112.58	26.24	-48.7	-51.5	13.6	9.90e-06	0	55	0	411041792	59	5176
2026-01-02 08:36:19.45	112.45	26.39	-48.6	-51.4	13.7	3.00e-06	0	55	0	412090368	59	5127
2026-01-02 08:36:20.43	112.32	26.54	-48.8	-51.7	13.5	7.60e-06	0	55	0	414187520	59	5299
2026-01-02 08:36:21.42	112.19	26.69	-48.8	-51.7	13.5	2.28e-05	0	55	0	416284672	60	4993
2026-01-02 08:36:22.42	112.05	26.85	-48.6	-51.3	13.8	1.22e-05	0	55	0	418381824	60	4804
2026-01-02 08:36:23.41	111.92	27.00	-48.7	-51.5	13.7	1.06e-05	0	55	0	419430400	60	4888
2026-01-02 08:36:24.38	111.78	27.15	-48.6	-51.4	13.8	6.80e-06	0	55	0	421527552	60	4822
2026-01-02 08:36:25.37	111.65	27.30	-48.6	-51.1	14.0	6.10e-06	0	55	0	423624704	60	4688
2026-01-02 08:36:26.36	111.51	27.46	-48.6	-51.2	13.9	2.20e-06	0	55	0	425721856	60	4752
2026-01-02 08:36:27.35	111.37	27.61	-48.6	-51.2	13.9	4.50e-06	0	55	0	426770432	60	4749
2026-01-02 08:36:28.33	111.23	27.77	-48.5	-51.0	14.1	1.50e-06	0	55	0	428867584	59	4907
2026-01-02 08:36:29.32	111.09	27.92	-48.3	-50.7	14.5	1.50e-06	0	55	0	430964736	59	4721
2026-01-02 08:36:30.31	110.94	28.08	-48.6	-51.1	14.1	3.00e-06	0	55	0	433061888	59	4928
2026-01-02 08:36:31.30	110.80	28.24	-48.7	-51.2	14.0	3.00e-06	0	55	0	435159040	59	5017
2026-01-02 08:36:32.29	110.65	28.40	-48.9	-51.7	13.5	3.80e-06	0	55	0	436207616	59	5283
2026-01-02 08:36:33.27	110.50	28.56	-48.9	-51.6	13.6	5.30e-06	0	55	0	438304768	59	5241
2026-01-02 08:36:34.27	110.35	28.72	-48.4	-50.9	14.2	2.20e-06	0	55	0	440401920	59	4844
2026-01-02 08:36:35.26	110.20	28.88	-48.5	-51.1	14.0	3.80e-06	0	55	0	442499072	59	4942
2026-01-02 08:36:36.25	110.05	29.04	-48.1	-50.5	14.7	1.50e-06	0	55	0	443547648	59	4606
2026-01-02 08:36:37.23	109.89	29.20	-48.0	-50.3	14.9	0.00e+00	0	55	0	445644800	59	4509
2026-01-02 08:36:38.22	109.74	29.36	-48.0	-50.3	14.8	0.00e+00	0	55	0	447741952	59	4534
2026-01-02 08:36:39.21	109.58	29.53	-48.1	-50.5	14.6	0.00e+00	0	55	0	449839104	59	4647
2026-01-02 08:36:40.21	109.42	29.69	-48.2	-50.6	14.7	0.00e+00	0	55	0	450887680	58	4930
2026-01-02 08:36:41.20	109.26	29.86	-48.5	-51.0	14.2	7.00e-07	0	55	0	452984832	58	5173
2026-01-02 08:36:42.19	109.09	30.02	-48.5	-51.0	14.2	4.50e-06	0	55	0	455081984	59	4891
2026-01-02 08:36:43.18	108.93	30.19	-49.0	-51.9	13.3	4.50e-06	0	55	0	457179136	59	5405
2026-01-02 08:36:44.17	108.76	30.36	-48.5	-51.2	14.0	4.50e-06	0	55	0	459276288	59	4987
2026-01-02 08:36:45.17	108.59	30.53	-48.5	-51.1	14.1	1.50e-06	0	55	0	460324864	59	4928
2026-01-02 08:36:46.16	108.42	30.69	-48.3	-50.7	14.4	3.00e-06	0	55	0	462422016	59	4742
2026-01-02 08:36:47.15	108.25	30.86	-48.3	-50.8	14.4	0.00e+00	0	55	0	464519168	59	4768
2026-01-02 08:36:48.14	108.08	31.03	-48.3	-50.7	14.5	0.00e+00	0	55	0	466616320	59	4725
2026-01-02 08:36:49.12	107.90	31.20	-48.5	-51.0	14.2	1.50e-06	0	55	0	467664896	59	4901
2026-01-02 08:36:50.11	107.72	31.37	-48.8	-51.5	13.7	4.50e-06	0	55	0	469762048	59	5182
2026-01-02 08:36:51.09	107.55	31.54	-49.0	-51.8	13.4	1.06e-05	0	55	0	471859200	59	5366
2026-01-02 08:36:52.08	107.37	31.72	-49.0	-51.8	13.3	2.21e-05	0	55	0	473956352	60	5089
2026-01-02 08:36:53.07	107.18	31.89	-48.9	-51.7	13.5	9.90e-06	0	55	0	476053504	60	5025
2026-01-02 08:36:54.06	107.00	32.06	-49.3	-52.4	12.8	1.98e-05	0	55	0	477102080	60	5434
2026-01-02 08:36:55.05	106.81	32.24	-49.0	-51.8	13.4	2.21e-05	0	55	0	479199232	60	5076
2026-01-02 08:36:56.04	106.62	32.41	-49.0	-51.9	13.2	8.30e-06	0	55	0	481296384	60	5157
2026-01-02 08:36:57.03	106.43	32.59	-49.2	-52.3	12.9	3.12e-05	0	55	0	483393536	60	5356
2026-01-02 08:36:58.02	106.23	32.77	-49.1	-52.0	13.1	5.34e-05	0	55	0	484442112	60	5200
2026-01-02 08:36:59.01	106.04	32.94	-49.1	-52.2	12.9	6.02e-05	0	55	0	486539264	60	5333
2026-01-02 08:36:59.99	105.84	33.12	-49.2	-52.4	12.7	4.50e-05	0	55	0	488636416	60	5437
2026-01-02 08:37:00.99	105.64	33.30	-49.2	-52.4	12.7	8.16e-05	0	55	0	490733568	60	5434
2026-01-02 08:37:01.97	105.44	33.48	-49.2	-52.4	12.7	9.07e-05	0	55	0	491782144	60	5451
2026-01-02 08:37:02.96	105.24	33.66	-49.3	-52.4	12.8	9.99e-05	0	55	0	493879296	60	5420
2026-01-02 08:37:03.94	105.03	33.83	-49.1	-52.2	12.9	5.49e-05	0	55	0	495976448	60	5312
2026-01-02 08:37:04.93	104.82	34.02	-48.9	-51.7	13.5	1.37e-05	0	55	0	498073600	60	5004
2026-01-02 08:37:05.92	104.61	34.20	-49.0	-51.9	13.2	2.21e-05	0	56	0	500170752	60	5123
2026-01-02 08:37:06.91	104.40	34.38	-48.7	-51.5	13.7	2.44e-05	0	55	0	501219328	60	4904
2026-01-02 08:37:07.90	104.18	34.56	-48.6	-51.3	13.8	1.50e-06	0	55	0	503316480	59	5072
2026-01-02 08:37:08.88	103.96	34.74	-48.7	-51.4	13.8	8.30e-06	0	56	0	505413632	59	5123
2026-01-02 08:37:09.87	103.74	34.93	-48.7	-51.5	13.7	1.22e-05	0	55	0	507510784	59	5180
2026-01-02 08:37:10.86	103.52	35.11	-48.8	-51.6	13.6	7.60e-06	0	56	0	508559360	59	5267
2026-01-02 08:37:11.86	103.29	35.30	-49.3	-52.7	12.4	4.95e-05	0	55	0	510656512	60	5626
2026-01-02 08:37:12.84	103.06	35.48	-49.0	-52.2	13.0	3.43e-05	0	56	0	512753664	60	5283
2026-01-02 08:37:13.84	102.83	35.67	-49.1	-52.4	12.8	5.03e-05	0	55	0	514850816	60	5404
2026-01-02 08:37:14.82	102.60	35.86	-49.2	-52.5	12.7	1.60e-04	0	56	0	515899392	61	5208
2026-01-02 08:37:15.82	102.36	36.05	-49.5	-52.9	12.3	1.40e-04	0	56	0	517996544	61	5447
2026-01-02 08:37:16.80	102.12	36.23	-49.4	-52.7	12.4	2.51e-04	0	56	0	520093696	61	5305
2026-01-02 08:37:17.79	101.88	36.42	-49.5	-53.0	12.2	2.91e-04	0	55	0	522190848	61	5472
2026-01-02 08:37:18.79	101.63	36.61	-49.3	-52.4	12.7	1.64e-04	0	55	0	523239424	61	5156
2026-01-02 08:37:19.78	101.38	36.80	-49.5	-52.9	12.2	1.50e-04	0	56	0	525336576	61	5414
2026-01-02 08:37:20.77	101.13	36.99	-49.3	-52.6	12.5	1.95e-04	0	56	0	527433728	61	5276
2026-01-02 08:37:21.76	100.87	37.18	-49.6	-53.2	12.0	2.34e-04	0	56	0	529530880	61	5601
2026-01-02 08:37:22.74	100.62	37.37	-49.5	-53.0	12.2	6.36e-04	0	56	0	531628032	61	5482
2026-01-02 08:37:23.74	100.36	37.56	-49.6	-53.2	11.9	3.17e-04	0	55	0	532676608	61	5620
2026-01-02 08:37:24.73	100.09	37.75	-49.5	-53.1	12.1	2.69e-04	0	56	0	534773760	61	5581
2026-01-02 08:37:25.72	99.83	37.95	-49.4	-52.8	12.3	1.89e-04	0	56	0	536870912	61	5402
2026-01-02 08:37:26.71	99.56	38.14	-49.5	-53.0	12.1	2.23e-04	0	56	0	538968064	61	5499
2026-01-02 08:37:27.70	99.28	38.33	-49.4	-52.7	12.3	1.58e-04	0	56	0	540016640	61	5337
2026-01-02 08:37:28.69	99.01	38.52	-49.4	-52.7	12.3	2.16e-04	0	56	0	542113792	61	5340
2026-01-02 08:37:29.67	98.73	38.72	-49.4	-52.8	12.3	2.49e-04	0	56	0	544210944	61	5358
2026-01-02 08:37:30.66	98.45	38.91	-49.4	-52.8	12.4	1.06e-04	0	56	0	546308096	61	5374
2026-01-02 08:37:31.65	98.16	39.10	-49.5	-53.0	12.2	4.14e-04	0	56	0	547356672	61	5474
2026-01-02 08:37:32.64	97.87	39.30	-49.5	-52.9	12.3	2.39e-04	0	56	0	549453824	61	5446
2026-01-02 08:37:33.63	97.57	39.49	-49.5	-53.0	12.2	1.61e-04	0	56	0	551550976	61	5468
2026-01-02 08:37:34.61	97.28	39.68	-49.3	-52.5	12.7	6.02e-05	0	55	0	553648128	61	5167
2026-01-02 08:37:35.61	96.98	39.88	-49.7	-53.3	11.8	1.35e-04	0	56	0	555745280	61	5668
2026-01-02 08:37:36.60	96.67	40.08	-49.7	-53.5	11.6	9.83e-04	0	56	0	556793856	61	5849
2026-01-02 08:37:37.60	96.36	40.27	-49.8	-53.8	11.4	5.45e-04	0	56	0	558891008	61	6022
2026-01-02 08:37:38.59	96.05	40.47	-49.7	-53.5	11.7	1.17e-03	0	56	0	560988160	61	5791
2026-01-02 08:37:39.58	95.73	40.66	-49.6	-53.3	11.8	3.68e-04	0	56	0	563085312	61	5713
2026-01-02 08:37:40.57	95.41	40.86	-49.6	-53.3	11.8	5.19e-04	0	56	0	564133888	61	5719
2026-01-02 08:37:41.56	95.09	41.06	-49.8	-53.8	11.4	5.55e-04	0	56	0	566231040	61	6005
2026-01-02 08:37:42.55	94.76	41.25	-50.2	-54.5	10.7	2.93e-03	0	56	0	568328192	62	6141
2026-01-02 08:37:43.54	94.43	41.45	-50.5	-55.2	9.9	6.90e-03	0	56	0	570425344	63	6286
2026-01-02 08:37:44.53	94.10	41.64	-50.7	-55.6	9.5	1.19e-02	0	56	0	572522496	63	6580
2026-01-02 08:37:45.53	93.75	41.84	-50.3	-54.7	10.3	7.14e-03	0	56	0	573571072	63	5982
2026-01-02 08:37:46.52	93.41	42.03	-49.9	-53.8	11.1	1.34e-03	0	56	0	575668224	62	5720
2026-01-02 08:37:47.51	93.06	42.23	-49.5	-52.8	12.3	2.42e-04	0	56	0	577765376	61	5381
2026-01-02 08:37:48.49	92.71	42.42	-49.2	-52.4	12.8	9.38e-05	0	56	0	579862528	61	5124
2026-01-02 08:37:49.49	92.35	42.62	-48.9	-51.9	13.2	6.79e-05	0	56	0	580911104	61	4820
2026-01-02 08:37:50.48	91.99	42.81	-49.0	-52.1	13.0	2.05e-05	0	56	0	583008256	60	5241
2026-01-02 08:37:51.46	91.63	43.00	-49.4	-52.8	12.3	8.62e-05	0	56	0	585105408	60	5695
2026-01-02 08:37:52.45	91.26	43.20	-49.9	-53.8	11.3	3.69e-04	0	56	0	587202560	61	6051
2026-01-02 08:37:53.43	90.89	43.39	-50.4	-55.2	10.0	3.45e-03	0	56	0	588251136	62	6667
2026-01-02 08:37:54.42	90.51	43.58	-50.2	-54.7	10.3	8.65e-03	0	56	0	590348288	62	6313
2026-01-02 08:37:55.41	90.13	43.77	-49.9	-54.0	11.0	4.67e-03	0	56	0	592445440	62	5848
2026-01-02 08:37:56.40	89.74	43.97	-49.7	-53.6	11.5	8.35e-04	0	56	0	594542592	62	5547
2026-01-02 08:37:57.38	89.35	44.16	-49.9	-53.8	11.4	7.79e-04	0	56	0	596639744	62	5689
2026-01-02 08:37:58.37	88.95	44.35	-50.0	-54.2	10.9	1.30e-03	0	56	0	597688320	62	5968
2026-01-02 08:37:59.36	88.55	44.54	-50.2	-54.5	10.6	2.92e-03	0	56	0	599785472	62	6138
2026-01-02 08:38:00.35	88.14	44.73	-50.0	-54.4	10.7	2.68e-03	0	56	0	601882624	62	6078
2026-01-02 08:38:01.34	87.73	44.91	-50.1	-54.1	11.0	2.81e-03	0	56	0	603979776	62	5906
2026-01-02 08:38:02.32	87.32	45.10	-50.4	-54.7	10.4	3.78e-03	0	56	0	605028352	62	6323
2026-01-02 08:38:03.32	86.89	45.29	-50.5	-55.3	9.8	9.21e-03	0	56	0	607125504	63	6374
2026-01-02 08:38:04.31	86.46	45.47	-50.4	-55.2	9.9	9.16e-03	0	56	0	609222656	63	6294
2026-01-02 08:38:05.29	86.03	45.66	-50.3	-54.8	10.2	5.83e-03	0	56	0	611319808	63	6031
2026-01-02 08:38:06.28	85.60	45.84	-49.8	-53.6	11.5	2.56e-03	0	56	0	612368384	62	5577
2026-01-02 08:38:07.27	85.15	46.03	-49.3	-52.4	12.7	4.29e-04	0	56	0	614465536	61	5144
2026-01-02 08:38:08.26	84.71	46.21	-48.9	-51.7	13.5	1.83e-05	0	56	0	616562688	61	4731
2026-01-02 08:38:09.25	84.25	46.39	-49.1	-52.0	13.2	1.37e-05	0	56	0	618659840	61	4889
2026-01-02 08:38:10.24	83.80	46.57	-49.4	-52.6	12.6	3.81e-05	0	56	0	619708416	61	5263
2026-01-02 08:38:11.23	83.33	46.75	-49.6	-53.0	12.3	6.79e-05	0	56	0	621805568	61	5482
2026-01-02 08:38:12.22	82.86	46.92	-50.3	-54.5	10.7	1.48e-03	0	56	0	623902720	62	6145
2026-01-02 08:38:13.21	82.39	47.10	-50.2	-54.2	10.9	2.17e-03	0	56	0	625999872	62	5931
2026-01-02 08:38:14.20	81.91	47.27	-50.3	-54.4	10.8	2.73e-03	0	56	0	628097024	62	6101
2026-01-02 08:38:15.19	81.43	47.45	-49.7	-53.2	12.1	4.32e-04	0	56	0	629145600	62	5317
2026-01-02 08:38:16.18	80.94	47.62	-49.2	-52.2	13.0	6.63e-05	0	56	0	631242752	61	5003
2026-01-02 08:38:17.17	80.44	47.79	-48.7	-51.4	13.8	6.80e-06	0	56	0	633339904	60	4845
2026-01-02 08:38:18.17	79.93	47.96	-48.9	-51.8	13.4	1.50e-06	0	56	0	635437056	60	5062
2026-01-02 08:38:19.16	79.43	48.12	-49.7	-53.3	12.0	1.23e-04	0	56	0	636485632	61	5662
2026-01-02 08:38:20.15	78.92	48.29	-50.1	-54.0	11.1	1.02e-03	0	56	0	638582784	62	5806
2026-01-02 08:38:21.13	78.40	48.45	-49.0	-51.9	13.2	2.32e-04	0	56	0	640679936	61	4867
2026-01-02 08:38:22.12	77.88	48.61	-48.7	-51.3	13.8	1.37e-05	0	56	0	642777088	60	4796
2026-01-02 08:38:23.12	77.35	48.77	-48.2	-50.6	14.6	0.00e+00	0	56	0	644874240	59	4673
2026-01-02 08:38:24.11	76.81	48.92	-48.3	-50.8	14.5	0.00e+00	0	56	0	645922816	59	4760
2026-01-02 08:38:25.09	76.28	49.08	-48.3	-50.9	14.3	0.00e+00	0	56	0	648019968	59	4838
2026-01-02 08:38:26.09	75.73	49.23	-48.5	-51.1	14.2	2.20e-06	0	56	0	650117120	59	4968
2026-01-02 08:38:27.07	75.18	49.38	-48.3	-50.9	14.2	2.20e-06	0	56	0	652214272	59	4852
2026-01-02 08:38:28.06	74.63	49.52	-47.8	-50.2	14.9	7.00e-07	0	56	0	653262848	59	4448
2026-01-02 08:38:29.03	74.08	49.67	-47.7	-49.9	15.2	0.00e+00	0	56	0	655360000	58	4568
2026-01-02 08:38:30.02	73.51	49.81	-47.2	-49.1	16.1	0.00e+00	0	56	0	657457152	57	4397
2026-01-02 08:38:31.00	72.95	49.95	-47.5	-49.6	15.5	0.00e+00	0	56	0	659554304	57	4673
2026-01-02 08:38:31.99	72.37	50.08	-47.9	-50.3	14.9	0.00e+00	0	56	0	660602880	57	5060
2026-01-02 08:38:32.98	71.79	50.22	-48.4	-51.1	14.0	1.50e-06	0	56	0	662700032	58	5235
2026-01-02 08:38:33.97	71.20	50.35	-48.6	-51.6	13.5	2.20e-06	0	56	0	664797184	59	5256
2026-01-02 08:38:34.97	70.61	50.48	-49.2	-52.9	12.2	6.17e-05	0	56	0	666894336	60	5764
2026-01-02 08:38:35.95	70.02	50.60	-49.8	-54.6	10.4	1.93e-03	0	56	0	667942912	61	6603
2026-01-02 08:38:36.95	69.41	50.73	-49.6	-53.8	11.2	3.97e-03	0	56	0	670040064	61	6014
2026-01-02 08:38:37.94	68.80	50.85	-48.4	-51.1	13.9	4.11e-05	0	56	0	672137216	59	4968
2026-01-02 08:38:38.93	68.19	50.96	-48.4	-51.1	14.1	1.50e-06	0	56	0	674234368	59	4937
2026-01-02 08:38:39.92	67.57	51.08	-48.8	-51.8	13.4	7.60e-06	0	56	0	676331520	59	5359
2026-01-02 08:38:40.91	66.95	51.19	-48.0	-50.4	14.7	3.80e-06	0	56	0	677380096	59	4596
2026-01-02 08:38:41.90	66.33	51.29	-48.0	-50.4	14.7	7.00e-07	0	56	0	679477248	59	4585
2026-01-02 08:38:42.89	65.70	51.40	-48.0	-50.4	14.7	7.00e-07	0	56	0	681574400	58	4869
2026-01-02 08:38:43.88	65.06	51.50	-48.4	-51.2	13.8	0.00e+00	0	56	0	683671552	58	5330
2026-01-02 08:38:44.86	64.43	51.59	-48.8	-52.1	13.3	9.90e-06	0	56	0	684720128	59	5539
2026-01-02 08:38:45.85	63.79	51.68	-48.8	-52.0	13.2	4.42e-05	0	56	0	686817280	59	5471
2026-01-02 08:38:46.83	63.15	51.77	-48.6	-51.6	13.5	1.44e-05	0	56	0	688914432	59	5263
2026-01-02 08:38:47.82	62.50	51.86	-48.0	-50.5	14.5	1.50e-06	0	56	0	691011584	59	4645
2026-01-02 08:38:48.81	61.85	51.94	-46.7	-48.7	16.3	0.00e+00	0	56	0	692060160	56	4449
2026-01-02 08:38:49.81	61.18	52.02	-46.0	-47.7	17.1	0.00e+00	0	56	0	694157312	55	4223
2026-01-02 08:38:50.80	60.52	52.09	-46.3	-48.1	16.9	0.00e+00	0	56	0	696254464	55	4405
2026-01-02 08:38:51.79	59.86	52.16	-46.0	-47.6	17.3	0.00e+00	0	56	0	698351616	54	4417
2026-01-02 08:38:52.78	59.19	52.23	-45.2	-46.6	18.2	0.00e+00	0	56	0	700448768	53	4190
2026-01-02 08:38:53.77	58.52	52.29	-45.0	-46.3	18.5	0.00e+00	0	56	0	701497344	52	4271
2026-01-02 08:38:54.76	57.85	52.35	-45.3	-46.8	18.1	0.00e+00	0	56	0	703594496	52	4525
2026-01-02 08:38:55.76	57.17	52.41	-45.9	-47.5	17.4	0.00e+00	0	56	0	705691648	53	4635
2026-01-02 08:38:56.75	56.49	52.46	-45.2	-46.6	18.1	0.00e+00	0	56	0	707788800	53	4178
2026-01-02 08:38:57.73	55.82	52.50	-45.0	-46.4	18.4	0.00e+00	0	56	0	708837376	53	4068
2026-01-02 08:38:58.72	55.14	52.54	-45.2	-46.6	18.1	0.00e+00	0	56	0	710934528	52	4439
2026-01-02 08:38:59.71	54.45	52.58	-45.3	-46.8	18.1	0.00e+00	0	56	0	713031680	53	4245
2026-01-02 08:39:00.69	53.77	52.62	-45.5	-47.0	17.9	0.00e+00	0	56	0	715128832	53	4379
2026-01-02 08:39:01.68	53.09	52.64	-45.0	-46.3	18.5	0.00e+00	0	56	0	716177408	53	4031
2026-01-02 08:39:02.67	52.40	52.67	-44.9	-46.2	18.5	0.00e+00	0	56	0	718274560	52	4227
2026-01-02 08:39:03.66	51.71	52.69	-45.1	-46.4	18.4	0.00e+00	0	56	0	720371712	52	4316
2026-01-02 08:39:04.65	51.02	52.71	-45.5	-47.0	17.8	0.00e+00	0	56	0	722468864	52	4619
2026-01-02 08:39:05.64	50.33	52.72	-46.0	-47.7	17.2	0.00e+00	0	56	0	724566016	53	4712
2026-01-02 08:39:06.63	49.64	52.73	-46.5	-48.4	16.6	0.00e+00	0	56	0	725614592	54	4826
2026-01-02 08:39:07.62	48.95	52.73	-46.8	-48.9	16.2	0.00e+00	0	56	0	727711744	55	4815
2026-01-02 08:39:08.61	48.26	52.73	-46.5	-48.4	16.5	0.00e+00	0	56	0	729808896	55	4552
2026-01-02 08:39:09.61	47.56	52.73	-46.3	-47.9	17.0	0.00e+00	0	56	0	731906048	55	4328
2026-01-02 08:39:10.60	46.87	52.72	-46.7	-48.5	16.6	0.00e+00	0	56	0	732954624	55	4602
2026-01-02 08:39:11.59	46.18	52.71	-47.1	-49.0	16.1	0.00e+00	0	56	0	735051776	56	4633
2026-01-02 08:39:12.58	45.49	52.69	-46.9	-48.7	16.4	0.00e+00	0	56	0	737148928	56	4493
2026-01-02 08:39:13.57	44.80	52.67	-47.3	-49.3	15.8	0.00e+00	0	56	0	739246080	56	4799
2026-01-02 08:39:14.57	44.10	52.64	-48.1	-50.6	14.5	0.00e+00	0	56	0	741343232	57	5261
2026-01-02 08:39:15.55	43.42	52.61	-47.8	-50.2	14.9	7.00e-07	0	56	0	742391808	58	4737
2026-01-02 08:39:16.54	42.74	52.57	-47.6	-49.8	15.4	0.00e+00	0	56	0	744488960	58	4510
2026-01-02 08:39:17.53	42.06	52.54	-47.4	-49.5	15.6	0.00e+00	0	56	0	746586112	57	4620
2026-01-02 08:39:18.52	41.38	52.49	-47.5	-49.8	15.3	0.00e+00	0	56	0	748683264	57	4770
2026-01-02 08:39:19.51	40.70	52.45	-47.5	-49.7	15.0	0.00e+00	0	56	0	749731840	57	4759
2026-01-02 08:39:20.50	40.02	52.40	-47.4	-49.6	15.5	0.00e+00	0	56	0	751828992	57	4655
2026-01-02 08:39:21.49	39.35	52.34	-47.4	-49.4	15.7	0.00e+00	0	56	0	753926144	57	4578
2026-01-02 08:39:22.48	38.67	52.28	-47.2	-49.1	16.1	0.00e+00	0	56	0	756023296	57	4422
2026-01-02 08:39:23.47	38.01	52.22	-47.3	-49.2	16.0	0.00e+00	0	56	0	757071872	57	4454
2026-01-02 08:39:24.46	37.34	52.15	-47.5	-49.5	15.7	0.00e+00	0	56	0	759169024	57	4612
2026-01-02 08:39:25.46	36.67	52.08	-47.6	-49.7	15.5	0.00e+00	0	56	0	761266176	57	4746
2026-01-02 08:39:26.45	36.01	52.00	-48.0	-50.2	15.0	7.00e-07	0	56	0	763363328	58	4711
2026-01-02 08:39:27.43	35.36	51.93	-47.5	-49.6	15.6	0.00e+00	0	56	0	765460480	57	4658
2026-01-02 08:39:28.43	34.70	51.84	-47.8	-49.9	15.2	0.00e+00	0	56	0	766509056	57	4837
2026-01-02 08:39:29.40	34.07	51.76	-48.0	-50.2	14.9	0.00e+00	0	56	0	768606208	58	4739
2026-01-02 08:39:30.39	33.42	51.67	-47.9	-50.2	15.0	0.00e+00	0	56	0	770703360	58	4711
2026-01-02 08:39:31.38	32.78	51.57	-47.9	-50.2	15.0	0.00e+00	0	56	0	772800512	58	4708
2026-01-02 08:39:32.37	32.14	51.48	-48.1	-50.3	14.8	0.00e+00	0	56	0	773849088	58	4802
2026-01-02 08:39:33.36	31.51	51.38	-47.5	-49.6	15.6	0.00e+00	0	56	0	775946240	58	4415
2026-01-02 08:39:34.35	30.88	51.27	-47.0	-48.8	16.3	0.00e+00	0	56	0	778043392	57	4285
2026-01-02 08:39:35.35	30.25	51.16	-46.6	-48.2	16.9	0.00e+00	0	56	0	780140544	56	4220
2026-01-02 08:39:36.34	29.63	51.05	-46.4	-48.0	17.1	0.00e+00	0	56	0	781189120	56	4131
2026-01-02 08:39:37.33	29.02	50.94	-46.3	-48.0	17.0	0.00e+00	0	56	0	783286272	55	4344
2026-01-02 08:39:38.32	28.41	50.82	-47.6	-49.5	16.0	0.00e+00	0	56	0	785383424	56	4915
2026-01-02 08:39:39.30	27.81	50.70	-48.0	-50.5	14.7	0.00e+00	0	56	0	787480576	57	5203
2026-01-02 08:39:40.29	27.21	50.58	-48.6	-51.3	13.9	0.00e+00	0	57	0	789577728	58	5384
2026-01-02 08:39:41.28	26.61	50.46	-48.3	-51.0	14.2	7.00e-07	0	57	0	790626304	59	4885
2026-01-02 08:39:42.26	26.03	50.33	-48.0	-50.3	14.9	0.00e+00	0	56	0	792723456	59	4524
2026-01-02 08:39:43.25	25.45	50.20	-47.6	-49.6	15.5	0.00e+00	0	57	0	794820608	58	4427
2026-01-02 08:39:44.24	24.87	50.06	-47.5	-49.5	15.6	0.00e+00	0	56	0	796917760	58	4372
2026-01-02 08:39:45.22	24.30	49.93	-47.7	-49.8	15.3	0.00e+00	0	57	0	797966336	58	4531
2026-01-02 08:39:46.21	23.73	49.79	-47.9	-50.2	15.0	0.00e+00	0	56	0	800063488	58	4708
2026-01-02 08:39:47.20	23.16	49.64	-47.7	-49.8	15.2	0.00e+00	0	57	0	802160640	58	4527
2026-01-02 08:39:48.20	22.60	49.50	-47.5	-49.7	15.5	0.00e+00	0	56	0	804257792	57	4708
2026-01-02 08:39:49.18	22.05	49.35	-47.6	-49.7	15.4	0.00e+00	0	57	0	805306368	57	4757
2026-01-02 08:39:50.17	21.50	49.20	-47.7	-50.0	15.1	0.00e+00	0	57	0	807403520	57	4883
2026-01-02 08:39:51.16	20.96	49.05	-48.0	-50.4	14.7	0.00e+00	0	57	0	809500672	57	5145
2026-01-02 08:39:52.16	20.42	48.89	-47.7	-49.9	15.2	0.00e+00	0	57	0	811597824	57	4839
2026-01-02 08:39:53.14	19.89	48.74	-47.4	-49.5	15.6	0.00e+00	0	57	0	812646400	57	4605
2026-01-02 08:39:54.14	19.36	48.58	-47.8	-50.0	15.4	0.00e+00	0	56	0	814743552	57	4886
2026-01-02 08:39:55.13	18.84	48.42	-48.1	-50.5	14.6	0.00e+00	0	57	0	816840704	58	4916
2026-01-02 08:39:56.11	18.33	48.26	-48.0	-50.4	14.8	0.00e+00	0	57	0	818937856	58	4847
2026-01-02 08:39:57.11	17.81	48.09	-47.8	-50.0	15.1	0.00e+00	0	57	0	821035008	58	4605
2026-01-02 08:39:58.09	17.31	47.93	-48.2	-50.5	14.7	7.00e-07	0	57	0	822083584	58	4873
2026-01-02 08:39:59.08	16.81	47.76	-48.0	-50.1	15.0	7.00e-07	0	57	0	824180736	58	4700
2026-01-02 08:40:00.05	16.33	47.59	-48.3	-50.8	14.4	2.20e-06	0	57	0	826277888	58	5069
2026-01-02 08:40:01.04	15.84	47.42	-48.2	-50.6	14.6	1.50e-06	0	57	0	828375040	58	4945
2026-01-02 08:40:02.04	15.35	47.25	-48.8	-51.6	13.6	1.50e-06	0	57	0	829423616	59	5220
2026-01-02 08:40:03.03	14.87	47.08	-49.5	-52.9	12.3	1.44e-05	0	57	0	831520768	60	5761
2026-01-02 08:40:04.02	14.40	46.90	-49.2	-52.4	12.7	1.56e-04	0	57	0	833617920	61	5146
2026-01-02 08:40:05.01	13.93	46.72	-48.9	-51.8	13.3	7.60e-06	0	57	0	835715072	60	5095
2026-01-02 08:40:06.00	13.47	46.54	-47.8	-49.9	15.2	2.20e-06	0	56	0	836763648	58	4582
2026-01-02 08:40:06.99	13.02	46.37	-47.4	-49.3	15.9	0.00e+00	0	57	0	838860800	58	4276
2026-01-02 08:40:07.99	12.56	46.18	-47.1	-49.0	16.2	0.00e+00	0	57	0	840957952	57	4354
2026-01-02 08:40:08.98	12.11	46.00	-47.4	-49.3	15.9	0.00e+00	0	57	0	843055104	57	4530
2026-01-02 08:40:09.98	11.67	45.82	-48.0	-50.3	14.9	0.00e+00	0	57	0	845152256	57	5075
2026-01-02 08:40:10.96	11.24	45.63	-48.4	-50.9	14.3	0.00e+00	0	57	0	846200832	58	5129
2026-01-02 08:40:11.96	10.80	45.45	-49.0	-51.9	13.4	1.06e-05	0	56	0	848297984	59	5432
2026-01-02 08:40:12.95	10.38	45.26	-49.4	-52.9	12.0	7.93e-05	0	56	0	850395136	60	5740
2026-01-02 08:40:13.94	9.96	45.07	-49.4	-52.8	12.3	9.68e-05	0	56	0	852492288	61	5357
2026-01-02 08:40:14.92	9.55	44.89	-49.5	-53.0	12.1	3.39e-04	0	57	0	853540864	61	5518
2026-01-02 08:40:15.92	9.13	44.70	-49.3	-52.5	12.6	1.28e-04	0	57	0	855638016	61	5205
2026-01-02 08:40:16.91	8.73	44.51	-49.0	-52.0	13.1	4.11e-05	0	57	0	857735168	60	5185
2026-01-02 08:40:17.90	8.32	44.32	-49.1	-52.1	13.0	3.50e-05	0	56	0	859832320	60	5251
2026-01-02 08:40:18.89	7.93	44.13	-49.2	-52.4	12.7	8.54e-05	0	57	0	861929472	60	5410
2026-01-02 08:40:19.88	7.54	43.94	-49.3	-52.5	12.7	1.36e-04	0	56	0	862978048	60	5472
2026-01-02 08:40:20.87	7.15	43.75	-49.3	-52.6	12.4	1.11e-04	0	57	0	865075200	60	5541
2026-01-02 08:40:21.85	6.77	43.56	-48.6	-51.3	13.8	3.05e-05	0	57	0	867172352	60	4768
2026-01-02 08:40:22.84	6.40	43.36	-48.3	-50.8	14.3	0.00e+00	0	57	0	869269504	59	4811
2026-01-02 08:40:23.82	6.03	43.17	-47.6	-49.7	15.5	0.00e+00	0	57	0	870318080	58	4454
2026-01-02 08:40:24.81	5.66	42.98	-47.9	-50.1	15.1	0.00e+00	0	57	0	872415232	58	4659
2026-01-02 08:40:25.80	5.29	42.79	-47.7	-49.8	15.2	0.00e+00	0	57	0	874512384	58	4542
2026-01-02 08:40:26.79	4.93	42.59	-47.8	-50.0	15.1	0.00e+00	0	57	0	876609536	58	4636
2026-01-02 08:40:27.78	4.58	42.40	-48.0	-50.3	14.9	0.00e+00	0	56	0	877658112	58	4768
2026-01-02 08:40:28.78	4.22	42.20	-48.0	-50.3	14.8	7.00e-07	0	57	0	879755264	58	4781
2026-01-02 08:40:29.75	3.89	42.01	-47.7	-49.9	15.2	0.00e+00	0	57	0	881852416	58	4550
2026-01-02 08:40:30.74	3.54	41.82	-48.1	-50.5	14.7	0.00e+00	0	57	0	883949568	58	4918
2026-01-02 08:40:31.74	3.20	41.62	-48.8	-51.6	13.5	1.50e-06	0	57	0	886046720	59	5254
2026-01-02 08:40:32.72	2.87	41.43	-49.3	-52.7	12.4	1.52e-05	0	57	0	887095296	60	5624
2026-01-02 08:40:33.71	2.54	41.23	-48.8	-51.7	13.4	1.75e-05	0	56	0	889192448	60	5006
2026-01-02 08:40:34.70	2.21	41.04	-48.3	-50.8	14.3	4.50e-06	0	57	0	891289600	59	4806
2026-01-02 08:40:35.69	1.89	40.84	-48.8	-51.5	13.7	7.00e-07	0	57	0	893386752	59	5213
2026-01-02 08:40:36.68	1.57	40.65	-49.1	-52.4	12.6	3.81e-05	0	57	0	894435328	60	5449
2026-01-02 08:40:37.67	1.26	40.45	-49.8	-53.7	11.3	6.53e-04	0	57	0	896532480	61	5981
2026-01-02 08:40:38.66	0.95	40.26	-49.9	-54.2	10.9	1.82e-03	0	57	0	898629632	61	6311
2026-01-02 08:40:39.64	0.64	40.07	-49.9	-54.0	11.0	1.12e-03	0	57	0	900726784	61	6153
2026-01-02 08:40:40.63	0.34	39.87	-49.6	-53.7	11.3	1.88e-03	0	57	0	901775360	61	5953
2026-01-02 08:40:41.62	0.04	39.68	-49.9	-54.3	10.7	2.76e-03	0	57	0	903872512	61	6370
2026-01-02 08:40:42.61	359.75	39.48	-49.3	-52.9	12.1	1.97e-03	0	57	0	905969664	61	5436
2026-01-02 08:40:43.60	359.45	39.29	-49.2	-52.6	12.4	2.29e-04	0	57	0	908066816	61	5269
2026-01-02 08:40:44.58	359.17	39.10	-48.7	-51.7	13.4	3.43e-05	0	57	0	909115392	60	5018
2026-01-02 08:40:45.57	358.88	38.90	-48.9	-52.1	12.9	2.05e-05	0	57	0	911212544	60	5275
2026-01-02 08:40:46.56	358.60	38.71	-49.0	-52.1	12.9	3.50e-05	0	56	0	913309696	60	5228
2026-01-02 08:40:47.54	358.32	38.52	-49.1	-52.3	12.8	3.05e-05	0	57	0	915406848	60	5349
2026-01-02 08:40:48.53	358.05	38.33	-48.9	-52.0	13.2	2.28e-05	0	57	0	917504000	60	5170
2026-01-02 08:40:49.53	357.77	38.13	-49.0	-52.3	12.8	5.41e-05	0	57	0	918552576	60	5362
2026-01-02 08:40:50.52	357.50	37.94	-49.0	-52.1	12.9	9.61e-05	0	57	0	920649728	60	5268
2026-01-02 08:40:51.51	357.24	37.75	-48.8	-51.8	13.4	1.90e-05	0	57	0	922746880	60	5061
2026-01-02 08:40:52.50	356.98	37.56	-48.3	-50.8	14.4	2.20e-06	0	57	0	924844032	59	4777
2026-01-02 08:40:53.49	356.72	37.37	-47.9	-50.2	14.9	0.00e+00	0	57	0	925892608	58	4742
2026-01-02 08:40:54.48	356.46	37.18	-48.1	-50.5	14.6	0.00e+00	0	57	0	927989760	58	4911
2026-01-02 08:40:55.47	356.21	36.99	-48.3	-50.9	14.3	0.00e+00	0	57	0	930086912	58	5143
2026-01-02 08:40:56.46	355.96	36.80	-48.8	-51.8	13.3	1.90e-05	0	57	0	932184064	59	5374
2026-01-02 08:40:57.46	355.71	36.61	-48.9	-51.8	13.3	9.90e-06	0	57	0	933232640	59	5384
2026-01-02 08:40:58.45	355.46	36.42	-48.9	-52.0	12.8	2.28e-05	0	57	0	935329792	60	5173
2026-01-02 08:40:59.44	355.22	36.23	-49.0	-52.2	12.8	2.51e-05	0	57	0	937426944	60	5309
2026-01-02 08:41:00.43	354.98	36.05	-49.1	-52.3	12.8	4.27e-05	0	57	0	939524096	60	5361
2026-01-02 08:41:01.41	354.75	35.86	-48.6	-51.6	13.5	1.67e-05	0	57	0	941621248	60	4931
2026-01-02 08:41:02.39	354.52	35.68	-48.9	-51.9	13.1	1.29e-05	0	56	0	942669824	60	5148
2026-01-02 08:41:03.39	354.28	35.49	-48.6	-51.3	13.7	5.30e-06	0	57	0	944766976	60	4788
2026-01-02 08:41:04.37	354.06	35.31	-48.8	-51.7	13.4	6.10e-06	0	57	0	946864128	60	4996
2026-01-02 08:41:05.36	353.83	35.12	-48.7	-51.5	13.6	3.80e-06	0	57	0	948961280	60	4882
2026-01-02 08:41:06.35	353.61	34.94	-48.8	-51.7	13.5	6.10e-06	0	57	0	950009856	60	5010
2026-01-02 08:41:07.34	353.39	34.75	-48.5	-51.0	14.1	1.50e-06	0	57	0	952107008	59	4925
2026-01-02 08:41:08.34	353.17	34.57	-48.9	-51.7	13.4	7.60e-06	0	57	0	954204160	59	5292
2026-01-02 08:41:09.32	352.95	34.39	-49.0	-51.9	13.2	1.90e-05	0	57	0	956301312	60	5116
2026-01-02 08:41:10.31	352.74	34.21	-49.4	-52.7	12.4	4.34e-05	0	57	0	957349888	60	5628
2026-01-02 08:41:11.30	352.53	34.03	-49.4	-52.7	12.4	7.62e-05	0	57	0	959447040	60	5623
2026-01-02 08:41:12.29	352.32	33.84	-49.2	-52.4	12.8	4.57e-05	0	57	0	961544192	60	5430
2026-01-02 08:41:13.28	352.12	33.66	-48.9	-51.8	13.3	2.44e-05	0	57	0	963641344	60	5054
2026-01-02 08:41:14.27	351.91	33.49	-48.9	-51.8	13.3	1.37e-05	0	57	0	965738496	60	5080
2026-01-02 08:41:15.26	351.71	33.31	-48.7	-51.5	13.6	1.22e-05	0	57	0	966787072	60	4890
2026-01-02 08:41:16.24	351.51	33.13	-48.9	-51.8	13.4	6.10e-06	0	57	0	968884224	60	5045
2026-01-02 08:41:17.23	351.32	32.95	-49.4	-52.8	12.3	4.95e-05	0	57	0	970981376	60	5661
2026-01-02 08:41:18.23	351.12	32.78	-49.2	-52.4	12.7	6.10e-05	0	57	0	973078528	60	5445
2026-01-02 08:41:19.21	350.93	32.60	-49.5	-52.7	12.4	1.79e-04	0	57	0	974127104	60	5634
2026-01-02 08:41:20.20	350.74	32.43	-48.9	-51.7	13.4	3.28e-05	0	57	0	976224256	60	5024
2026-01-02 08:41:21.19	350.55	32.25	-48.8	-51.6	13.5	1.90e-05	0	57	0	978321408	60	4940
2026-01-02 08:41:22.17	350.36	32.08	-48.7	-51.4	13.5	9.90e-06	0	57	0	980418560	60	4849
2026-01-02 08:41:23.16	350.18	31.91	-48.7	-51.6	13.6	7.60e-06	0	57	0	981467136	60	4955
2026-01-02 08:41:24.15	350.00	31.73	-48.6	-51.3	13.8	3.00e-06	0	57	0	983564288	60	4796
2026-01-02 08:41:25.14	349.82	31.56	-48.8	-51.6	13.4	5.30e-06	0	57	0	985661440	60	4982
2026-01-02 08:41:26.13	349.64	31.39	-48.8	-51.6	13.5	1.14e-05	0	57	0	987758592	60	4946
2026-01-02 08:41:27.12	349.46	31.22	-48.8	-51.7	13.5	1.44e-05	0	57	0	989855744	60	4987
2026-01-02 08:41:28.11	349.29	31.05	-49.3	-52.5	12.5	7.70e-05	0	57	0	990904320	60	5524
2026-01-02 08:41:29.09	349.12	30.88	-49.4	-52.7	12.3	6.48e-05	0	57	0	993001472	60	5656
2026-01-02 08:41:30.07	348.95	30.71	-49.6	-53.3	11.7	2.65e-04	0	57	0	995098624	61	5659
2026-01-02 08:41:31.06	348.78	30.55	-49.3	-52.7	12.4	8.46e-05	0	57	0	997195776	61	5282
2026-01-02 08:41:32.06	348.61	30.38	-49.2	-52.4	12.6	1.24e-04	0	57	0	998244352	61	5151
2026-01-02 08:41:33.05	348.44	30.21	-48.4	-50.9	14.2	4.11e-05	0	56	0	1000341504	59	4846
2026-01-02 08:41:34.04	348.28	30.05	-47.7	-49.9	15.2	0.00e+00	0	57	0	1002438656	58	4549
2026-01-02 08:41:35.03	348.12	29.88	-47.2	-49.0	16.0	0.00e+00	0	57	0	1004535808	57	4384
2026-01-02 08:41:36.03	347.95	29.71	-47.0	-48.8	16.3	0.00e+00	0	57	0	1005584384	57	4249
2026-01-02 08:41:37.02	347.79	29.55	-46.9	-48.6	16.4	0.00e+00	0	57	0	1007681536	56	4423
2026-01-02 08:41:38.01	347.64	29.39	-47.0	-48.8	16.2	0.00e+00	0	57	0	1009778688	56	4541
2026-01-02 08:41:39.00	347.48	29.23	-47.2	-49.2	15.9	0.00e+00	0	57	0	1011875840	56	4720
2026-01-02 08:41:39.99	347.33	29.06	-47.6	-49.6	15.5	0.00e+00	0	56	0	1013972992	56	4976
2026-01-02 08:41:40.98	347.17	28.90	-47.8	-49.9	15.1	0.00e+00	0	57	0	1015021568	57	4848
2026-01-02 08:41:41.97	347.02	28.74	-48.2	-50.5	14.6	0.00e+00	0	57	0	1017118720	58	4895
2026-01-02 08:41:42.96	346.87	28.58	-48.4	-50.9	14.2	7.00e-07	0	57	0	1019215872	58	5119
2026-01-02 08:41:43.96	346.72	28.42	-48.5	-51.0	14.1	3.00e-06	0	57	0	1021313024	58	5182
2026-01-02 08:41:44.95	346.58	28.26	-48.8	-51.6	13.5	1.22e-05	0	57	0	1022361600	59	5225
2026-01-02 08:41:45.94	346.43	28.11	-48.6	-51.3	13.8	9.90e-06	0	57	0	1024458752	59	5071
2026-01-02 08:41:46.93	346.29	27.95	-48.3	-50.7	14.2	7.00e-07	0	57	0	1026555904	59	4738
2026-01-02 08:41:47.93	346.15	27.79	-47.9	-50.0	15.0	0.00e+00	0	57	0	1028653056	58	4622
2026-01-02 08:41:48.91	346.01	27.64	-47.7	-49.7	15.3	0.00e+00	0	57	0	1029701632	58	4471
2026-01-02 08:41:49.90	345.87	27.48	-47.4	-49.3	15.7	0.00e+00	0	57	0	1031798784	57	4513
2026-01-02 08:41:50.89	345.73	27.33	-47.6	-49.6	15.5	0.00e+00	0	57	0	1033895936	57	4657
2026-01-02 08:41:51.87	345.59	27.18	-47.4	-49.3	15.7	0.00e+00	0	57	0	1035993088	57	4542
2026-01-02 08:41:52.86	345.46	27.03	-47.5	-49.5	15.5	0.00e+00	0	57	0	1038090240	57	4606
2026-01-02 08:41:53.85	345.33	26.87	-47.8	-49.9	15.1	0.00e+00	0	57	0	1039138816	57	4853
2026-01-02 08:41:54.84	345.19	26.72	-47.8	-49.9	15.1	0.00e+00	0	57	0	1041235968	57	4824
2026-01-02 08:41:55.83	345.06	26.57	-48.0	-50.2	14.8	0.00e+00	0	57	0	1043333120	57	4995
2026-01-02 08:41:56.83	344.93	26.42	-47.9	-50.1	15.0	0.00e+00	0	57	0	1045430272	57	4973
2026-01-02 08:41:57.82	344.80	26.27	-47.9	-50.2	14.8	0.00e+00	0	57	0	1046478848	57	4990
2026-01-02 08:41:58.80	344.68	26.12	-48.1	-50.4	14.6	0.00e+00	0	57	0	1048576000	57	5135
2026-01-02 08:41:59.79	344.55	25.97	-48.4	-50.9	14.2	2.20e-06	0	57	0	1050673152	58	5148
2026-01-02 08:42:00.77	344.42	25.83	-48.5	-51.2	13.9	7.60e-06	0	57	0	1052770304	59	4984
2026-01-02 08:42:01.77	344.30	25.68	-48.8	-51.6	13.4	7.60e-06	0	57	0	1054867456	59	5250
2026-01-02 08:42:02.76	344.18	25.53	-48.8	-51.7	13.3	1.75e-05	0	57	0	1055916032	59	5337
2026-01-02 08:42:03.75	344.06	25.39	-48.8	-51.6	13.4	7.60e-06	0	57	0	1058013184	59	5232
2026-01-02 08:42:04.74	343.93	25.24	-48.8	-51.5	13.6	9.10e-06	0	57	0	1060110336	59	5185
2026-01-02 08:42:05.74	343.81	25.10	-48.6	-51.1	13.9	3.00e-06	0	57	0	1062207488	59	4943
2026-01-02 08:42:06.73	343.70	24.96	-48.6	-51.2	13.8	3.80e-06	0	57	0	1063256064	59	5038
2026-01-02 08:42:07.73	343.58	24.81	-48.3	-50.6	14.4	1.50e-06	0	57	0	1065353216	59	4681
2026-01-02 08:42:08.72	343.46	24.67	-48.2	-50.4	14.6	0.00e+00	0	57	0	1067450368	59	4597
2026-01-02 08:42:09.71	343.35	24.53	-48.2	-50.5	14.5	0.00e+00	0	57	0	1069547520	59	4621
2026-01-02 08:42:10.70	343.23	24.39	-48.3	-50.7	14.4	7.00e-07	0	57	0	1070596096	59	4711
2026-01-02 08:42:11.69	343.12	24.25	-48.5	-50.9	14.1	7.00e-07	0	57	0	1072693248	59	4856
2026-01-02 08:42:12.68	343.01	24.11	-48.6	-51.1	13.9	3.00e-06	0	57	0	1074790400	59	4968
2026-01-02 08:42:13.68	342.90	23.97	-48.6	-51.2	13.8	6.80e-06	0	57	0	1076887552	59	5019
2026-01-02 08:42:14.67	342.79	23.83	-48.6	-51.1	13.9	3.80e-06	0	57	0	1078984704	59	4965
2026-01-02 08:42:15.66	342.68	23.69	-48.5	-51.0	14.0	1.50e-06	0	57	0	1080033280	59	4890
2026-01-02 08:42:16.65	342.57	23.55	-48.4	-50.9	14.1	2.20e-06	0	57	0	1082130432	59	4841
2026-01-02 08:42:17.65	342.46	23.41	-48.9	-51.7	13.3	9.10e-06	0	57	0	1084227584	59	5298
2026-01-02 08:42:18.63	342.36	23.28	-48.8	-51.6	13.4	2.89e-05	0	57	0	1086324736	60	4943
2026-01-02 08:42:19.63	342.25	23.14	-49.0	-52.3	12.7	3.20e-05	0	57	0	1087373312	60	5368
2026-01-02 08:42:20.62	342.15	23.01	-49.3	-52.6	12.4	1.47e-04	0	57	0	1089470464	60	5548
2026-01-02 08:42:21.61	342.04	22.87	-49.4	-52.6	12.3	1.86e-04	0	57	0	1091567616	60	5592
2026-01-02 08:42:22.60	341.94	22.74	-49.4	-53.0	11.9	3.33e-04	0	57	0	1093664768	60	5808
2026-01-02 08:42:23.58	341.84	22.61	-49.8	-53.5	11.5	6.10e-04	0	57	0	1095761920	61	5800
2026-01-02 08:42:24.57	341.74	22.48	-49.8	-53.5	11.5	1.23e-03	0	57	0	1096810496	61	5816
2026-01-02 08:42:25.56	341.64	22.34	-49.6	-53.0	11.9	5.90e-04	0	57	0	1098907648	61	5517
2026-01-02 08:42:26.55	341.54	22.21	-49.6	-53.1	11.9	4.10e-04	0	57	0	1101004800	61	5547
2026-01-02 08:42:27.55	341.44	22.08	-49.3	-52.6	12.3	2.99e-04	0	57	0	1103101952	61	5219
2026-01-02 08:42:28.54	341.35	21.95	-49.0	-51.9	13.0	1.04e-04	0	57	0	1104150528	61	4870
2026-01-02 08:42:29.52	341.25	21.82	-48.7	-51.4	13.6	8.30e-06	0	57	0	1106247680	60	4835
2026-01-02 08:42:30.51	341.16	21.69	-48.5	-51.0	13.9	2.20e-06	0	57	0	1108344832	59	4922
2026-01-02 08:42:31.49	341.06	21.57	-48.3	-50.8	14.0	7.00e-07	0	57	0	1110441984	59	4762
2026-01-02 08:42:32.47	340.97	21.44	-48.3	-50.8	14.1	2.20e-06	0	57	0	1111490560	59	4789
2026-01-02 08:42:33.47	340.88	21.31	-48.4	-50.9	13.9	3.80e-06	0	57	0	1113587712	59	4865
2026-01-02 08:42:34.46	340.79	21.19	-48.2	-50.7	14.2	2.20e-06	0	57	0	1115684864	59	4735
2026-01-02 08:42:35.45	340.69	21.06	-48.3	-50.8	14.1	7.00e-07	0	57	0	1117782016	59	4774
2026-01-02 08:42:36.45	340.60	20.93	-48.4	-50.9	13.9	1.50e-06	0	57	0	1118830592	59	4867
2026-01-02 08:42:37.44	340.51	20.81	-48.2	-50.7	14.2	7.00e-07	0	57	0	1120927744	59	4711
2026-01-02 08:42:38.43	340.42	20.68	-48.1	-50.4	14.3	0.00e+00	0	57	0	1123024896	59	4598
2026-01-02 08:42:39.42	340.34	20.56	-48.0	-50.3	14.4	7.00e-07	0	57	0	1125122048	59	4529
2026-01-02 08:42:40.41	340.25	20.44	-47.8	-50.2	14.4	0.00e+00	0	57	0	1127219200	58	4712
2026-01-02 08:42:41.40	340.16	20.31	-47.9	-50.3	14.2	3.80e-06	0	57	0	1128267776	58	4810
2026-01-02 08:42:42.39	340.08	20.19	-48.3	-50.9	13.5	2.20e-06	0	57	0	1130364928	58	5146
2026-01-02 08:42:43.38	339.99	20.07	-48.3	-51.0	13.4	1.06e-05	0	57	0	1132462080	58	5200
2026-01-02 08:42:44.38	339.90	19.95	-48.2	-50.9	13.4	1.37e-05	0	57	0	1134559232	58	5111
2026-01-02 08:42:45.37	339.82	19.83	-48.2	-51.0	13.2	1.52e-05	0	57	0	1135607808	58	5212
2026-01-02 08:42:46.36	339.74	19.71	-48.2	-51.0	13.3	2.05e-05	0	57	0	1137704960	58	5191
2026-01-02 08:42:47.34	339.66	19.59	-48.4	-51.3	13.0	2.28e-05	0	57	0	1139802112	58	5360
2026-01-02 08:42:48.33	339.57	19.47	-48.4	-51.4	12.8	6.02e-05	0	57	0	1141899264	58	5444
2026-01-02 08:42:49.33	339.49	19.35	-48.6	-51.8	12.4	1.19e-04	0	57	0	1143996416	59	5350
2026-01-02 08:42:50.32	339.41	19.23	-48.8	-52.1	12.2	1.63e-04	0	57	0	1145044992	59	5530
2026-01-02 08:42:51.31	339.33	19.11	-48.9	-52.2	12.0	3.34e-04	0	57	0	1147142144	59	5655
2026-01-02 08:42:52.30	339.25	18.99	-48.8	-52.1	12.1	3.41e-04	0	57	0	1149239296	59	5590
2026-01-02 08:42:53.29	339.17	18.88	-48.5	-51.4	12.8	1.28e-04	0	57	0	1151336448	59	5147
2026-01-02 08:42:54.27	339.10	18.76	-48.4	-51.3	13.0	3.73e-05	0	57	0	1152385024	59	5061
2026-01-02 08:42:55.27	339.02	18.65	-48.6	-51.7	12.6	6.79e-05	0	57	0	1154482176	59	5292
2026-01-02 08:42:56.26	338.94	18.53	-48.3	-51.2	13.1	3.66e-05	0	57	0	1156579328	59	5029
2026-01-02 08:42:57.25	338.86	18.42	-48.4	-51.3	12.9	3.66e-05	0	57	0	1158676480	59	5084
2026-01-02 08:42:58.24	338.79	18.30	-48.2	-51.0	13.3	2.82e-05	0	57	0	1159725056	59	4900
2026-01-02 08:42:59.23	338.71	18.19	-48.4	-51.3	13.1	2.82e-05	0	57	0	1161822208	59	5098
2026-01-02 08:43:00.22	338.64	18.07	-48.9	-52.1	12.3	1.09e-04	0	57	0	1163919360	59	5544
2026-01-02 08:43:01.21	338.57	17.96	-48.9	-52.2	12.2	1.81e-04	0	57	0	1166016512	59	5610
2026-01-02 08:43:02.20	338.49	17.85	-49.3	-53.1	11.3	6.85e-04	0	57	0	1168113664	60	5872
2026-01-02 08:43:03.19	338.42	17.74	-49.2	-52.9	11.5	1.15e-03	0	57	0	1169162240	60	5748
2026-01-02 08:43:04.18	338.35	17.63	-49.0	-52.3	12.2	5.77e-04	0	57	0	1171259392	60	5389
2026-01-02 08:43:05.17	338.28	17.51	-48.9	-52.1	12.5	1.85e-04	0	57	0	1173356544	60	5256
2026-01-02 08:43:06.17	338.20	17.40	-49.1	-52.4	12.3	1.04e-04	0	57	0	1175453696	60	5420
2026-01-02 08:43:07.16	338.13	17.29	-49.1	-52.4	12.2	2.14e-04	0	57	0	1176502272	60	5452
2026-01-02 08:43:08.15	338.06	17.18	-49.0	-52.2	12.5	1.16e-04	0	57	0	1178599424	60	5302
2026-01-02 08:43:09.14	337.99	17.07	-49.1	-52.5	12.2	9.15e-05	0	57	0	1180696576	60	5465
2026-01-02 08:43:10.13	337.93	16.96	-49.1	-52.5	12.2	1.79e-04	0	57	0	1182793728	60	5479
2026-01-02 08:43:11.12	337.86	16.86	-48.7	-51.6	13.1	4.65e-05	0	57	0	1184890880	60	4955
2026-01-02 08:43:12.11	337.79	16.75	-48.5	-51.3	13.5	1.37e-05	0	57	0	1185939456	60	4799
2026-01-02 08:43:13.10	337.72	16.64	-48.4	-51.1	13.7	9.90e-06	0	57	0	1188036608	59	4969
2026-01-02 08:43:14.09	337.66	16.53	-48.3	-50.8	14.0	2.20e-06	0	57	0	1190133760	59	4798
2026-01-02 08:43:15.08	337.59	16.43	-48.1	-50.5	14.3	1.50e-06	0	57	0	1192230912	59	4625
2026-01-02 08:43:16.07	337.52	16.32	-48.1	-50.5	14.2	1.50e-06	0	57	0	1193279488	59	4642
2026-01-02 08:43:17.05	337.46	16.22	-48.0	-50.5	14.4	7.00e-07	0	57	0	1195376640	59	4608
2026-01-02 08:43:18.03	337.39	16.11	-48.4	-51.0	13.8	6.10e-06	0	57	0	1197473792	59	4916
2026-01-02 08:43:19.02	337.33	16.01	-48.2	-50.7	14.0	4.50e-06	0	57	0	1199570944	59	4744
2026-01-02 08:43:20.02	337.27	15.90	-48.2	-50.8	13.9	1.50e-06	0	57	0	1200619520	59	4798
2026-01-02 08:43:21.01	337.20	15.80	-48.3	-50.9	13.8	3.80e-06	0	57	0	1202716672	59	4861
2026-01-02 08:43:22.00	337.14	15.69	-48.3	-50.8	14.0	1.50e-06	0	57	0	1204813824	59	4812
2026-01-02 08:43:22.98	337.08	15.59	-48.2	-50.7	14.1	7.00e-07	0	57	0	1206910976	59	4735
2026-01-02 08:43:23.97	337.02	15.49	-48.3	-50.8	13.9	2.20e-06	0	57	0	1209008128	59	4809
2026-01-02 08:43:24.97	336.95	15.38	-47.9	-50.2	14.5	3.00e-06	0	57	0	1210056704	59	4493
2026-01-02 08:43:25.96	336.89	15.28	-48.0	-50.4	14.3	1.50e-06	0	57	0	1212153856	58	4861
2026-01-02 08:43:26.95	336.83	15.18	-48.2	-50.6	14.1	1.50e-06	0	57	0	1214251008	58	4981
2026-01-02 08:43:27.94	336.77	15.08	-48.0	-50.3	14.4	3.00e-06	0	57	0	1216348160	58	4796
2026-01-02 08:43:28.93	336.71	14.98	-47.9	-50.3	14.5	1.50e-06	0	57	0	1217396736	58	4787
2026-01-02 08:43:29.91	336.65	14.88	-47.9	-50.3	14.5	0.00e+00	0	57	0	1219493888	58	4771
2026-01-02 08:43:30.91	336.59	14.78	-48.0	-50.4	14.4	0.00e+00	0	57	0	1221591040	58	4821
2026-01-02 08:43:31.89	336.53	14.68	-48.0	-50.4	14.3	7.00e-07	0	57	0	1223688192	58	4844
2026-01-02 08:43:32.88	336.48	14.58	-48.1	-50.5	14.2	1.50e-06	0	57	0	1224736768	58	4916
2026-01-02 08:43:33.88	336.42	14.48	-48.0	-50.4	14.3	7.00e-07	0	57	0	1226833920	58	4845
2026-01-02 08:43:34.87	336.36	14.38	-48.1	-50.7	14.0	7.00e-07	0	57	0	1228931072	58	4992
2026-01-02 08:43:35.86	336.30	14.28	-48.1	-50.6	14.1	7.00e-07	0	57	0	1231028224	58	4966
2026-01-02 08:43:36.85	336.25	14.18	-48.0	-50.4	14.3	3.00e-06	0	57	0	1232076800	58	4847
2026-01-02 08:43:37.84	336.19	14.09	-47.7	-50.0	14.6	1.50e-06	0	57	0	1234173952	58	4647
2026-01-02 08:43:38.83	336.14	13.99	-48.1	-50.5	14.2	2.20e-06	0	57	0	1236271104	58	4910
2026-01-02 08:43:39.81	336.08	13.89	-48.0	-50.3	14.4	7.00e-07	0	57	0	1238368256	58	4812
