passes_logs/2026/01/02/R3.0SM8_Murmansk_STILSPACE/R3.0SM8_Murmansk_STILSPACE__20260102_144120_FENGYUN_3E_rec.log

#Pass ID: 20260102_144120_FENGYUN 3E
#Satellite: FENGYUN 3E
#Configuration: FENGYUN 3E
#almurnet v.1.7.20240730
#Start time: 2026-01-02 14:48:34

#Version: 2.2.20231116
#Station: R3.0SM8_Murmansk_STILSPACE
#Location: 33.092731 lon 68.902999 lat
#TLE: 1 49008U 21062A   26001.26445318  .00000475  00000+0  24453-3 0  9990
#TLE: 2 49008  98.7480   6.5551 0001357 167.8415 192.2795 14.19884467232890

#Time	Az	El	Level	Level2	SNR	BER	BlckErr	Temp	State	Recorded	gain1	gain2
2026-01-02 14:48:34.23	270.78	54.92	-52.9	-63.9	3.8	8.46e-01	0	56	0	0	68	12927
2026-01-02 14:48:35.20	271.48	54.82	-53.1	-63.3	3.8	8.47e-01	0	57	104	0	68	11952
2026-01-02 14:48:36.18	272.19	54.72	-53.1	-63.3	3.8	8.47e-01	0	57	104	0	68	11943
2026-01-02 14:48:37.16	272.89	54.62	-53.1	-63.4	3.8	8.46e-01	0	57	104	0	68	11964
2026-01-02 14:48:38.15	273.59	54.51	-53.2	-63.3	3.8	8.45e-01	0	57	104	0	68	11955
2026-01-02 14:48:39.12	274.27	54.40	-52.9	-63.4	3.8	8.45e-01	0	57	104	0	68	11956
2026-01-02 14:48:40.10	274.96	54.28	-53.0	-63.3	3.8	8.46e-01	0	57	104	0	68	11852
2026-01-02 14:48:41.08	275.64	54.16	-53.0	-63.3	3.8	8.46e-01	0	57	104	0	68	11859
2026-01-02 14:48:42.07	276.32	54.04	-52.9	-63.3	3.8	8.45e-01	0	57	104	0	68	11853
2026-01-02 14:48:43.07	277.00	53.91	-53.0	-63.3	3.8	8.46e-01	0	57	104	0	68	11928
2026-01-02 14:48:44.06	277.67	53.78	-53.1	-63.2	3.8	8.46e-01	0	57	104	0	68	11818
2026-01-02 14:48:45.05	278.33	53.65	-53.1	-63.3	3.8	8.46e-01	0	57	104	0	68	11848
2026-01-02 14:48:46.03	278.98	53.51	-53.1	-63.3	3.8	8.48e-01	0	57	104	0	68	11851
2026-01-02 14:48:47.02	279.63	53.37	-53.0	-63.3	3.8	8.45e-01	0	57	104	0	68	11862
2026-01-02 14:48:48.00	280.27	53.22	-53.1	-63.3	3.8	8.46e-01	0	57	104	0	68	11870
2026-01-02 14:48:48.97	280.90	53.08	-53.0	-63.3	3.8	8.46e-01	0	57	104	0	68	11831
2026-01-02 14:48:49.96	281.53	52.93	-53.1	-63.2	3.8	8.45e-01	0	57	104	0	68	11809
2026-01-02 14:48:50.94	282.14	52.77	-53.0	-63.2	3.8	8.46e-01	0	57	104	0	68	11785
2026-01-02 14:48:51.92	282.76	52.62	-53.1	-63.2	3.8	8.47e-01	0	57	104	0	68	11716
2026-01-02 14:48:52.91	283.37	52.46	-53.0	-63.2	3.8	8.46e-01	0	57	104	0	68	11801
2026-01-02 14:48:53.89	283.97	52.30	-53.0	-63.2	3.8	8.46e-01	0	57	104	0	68	11770
2026-01-02 14:48:54.87	284.56	52.14	-53.0	-63.2	3.8	8.46e-01	0	57	104	0	68	11765
2026-01-02 14:48:55.85	285.15	51.97	-52.9	-63.2	3.8	8.47e-01	0	57	104	0	68	11784
2026-01-02 14:48:56.83	285.73	51.80	-53.1	-63.3	3.8	8.45e-01	0	57	104	0	68	11906
2026-01-02 14:48:57.81	286.30	51.63	-53.0	-63.3	3.8	8.47e-01	0	57	104	0	68	11819
2026-01-02 14:48:58.80	286.87	51.46	-53.0	-63.3	3.8	8.47e-01	0	57	104	0	68	11869
2026-01-02 14:48:59.78	287.43	51.28	-53.1	-63.2	3.8	8.46e-01	0	57	104	0	68	11805
2026-01-02 14:49:00.78	288.00	51.10	-53.1	-63.2	3.8	8.47e-01	0	58	104	0	68	11776
2026-01-02 14:49:01.76	288.54	50.92	-53.0	-63.1	3.8	8.47e-01	0	57	104	0	68	11672
2026-01-02 14:49:02.74	289.08	50.74	-53.1	-63.1	3.8	8.46e-01	0	57	104	0	68	11622
2026-01-02 14:49:03.73	289.62	50.56	-53.0	-63.0	3.8	8.46e-01	0	57	104	0	68	11518
2026-01-02 14:49:04.72	290.16	50.37	-52.8	-63.0	3.8	8.45e-01	0	57	104	0	68	11513
2026-01-02 14:49:05.71	290.68	50.18	-52.9	-63.0	3.8	8.45e-01	0	57	104	0	68	11420
2026-01-02 14:49:06.70	291.20	49.99	-53.0	-63.1	3.8	8.46e-01	0	57	104	0	68	11666
2026-01-02 14:49:07.70	291.72	49.80	-53.0	-63.2	3.8	8.47e-01	0	57	104	0	68	11772
2026-01-02 14:49:08.68	292.22	49.61	-52.8	-63.1	3.8	8.46e-01	0	57	104	0	68	11641
2026-01-02 14:49:09.67	292.72	49.41	-53.0	-63.1	3.8	8.46e-01	0	57	104	0	68	11633
2026-01-02 14:49:10.66	293.22	49.21	-52.8	-63.0	3.8	8.46e-01	0	57	104	0	68	11527
2026-01-02 14:49:11.64	293.70	49.02	-53.0	-62.8	3.8	8.45e-01	0	57	104	0	68	11271
2026-01-02 14:49:12.63	294.18	48.82	-52.9	-63.1	3.8	8.46e-01	0	58	104	0	68	11552
2026-01-02 14:49:13.61	294.65	48.62	-53.0	-63.2	3.8	8.47e-01	0	57	104	0	68	11708
2026-01-02 14:49:14.59	295.12	48.42	-52.9	-62.8	3.8	8.46e-01	0	58	104	0	68	11258
2026-01-02 14:49:15.58	295.58	48.22	-52.8	-62.8	3.8	8.46e-01	0	57	104	0	68	11205
2026-01-02 14:49:16.57	296.04	48.02	-53.0	-63.2	3.8	8.46e-01	0	57	104	0	68	11776
2026-01-02 14:49:17.55	296.49	47.82	-53.0	-63.2	3.8	8.47e-01	0	57	104	0	68	11725
2026-01-02 14:49:18.55	296.94	47.61	-52.9	-62.7	3.8	8.46e-01	0	57	104	0	68	11109
2026-01-02 14:49:19.54	297.38	47.40	-52.8	-62.0	3.8	8.46e-01	0	57	104	0	68	10188
2026-01-02 14:49:20.52	297.81	47.20	-52.9	-62.2	3.8	8.46e-01	0	58	104	0	68	10484
2026-01-02 14:49:21.52	298.24	46.99	-52.9	-63.1	3.8	8.47e-01	0	57	104	0	68	11663
2026-01-02 14:49:22.51	298.66	46.78	-52.8	-62.2	3.8	8.47e-01	0	58	104	0	68	10528
2026-01-02 14:49:23.50	299.08	46.57	-52.7	-61.4	3.8	8.45e-01	0	57	104	0	68	9548
2026-01-02 14:49:24.47	299.48	46.37	-52.6	-61.5	3.8	8.46e-01	0	57	104	0	68	9651
2026-01-02 14:49:25.46	299.89	46.16	-50.0	-52.9	8.9	1.07e-01	0	58	0	3145728	63	4801
2026-01-02 14:49:26.44	300.29	45.95	-46.1	-47.2	14.8	2.28e-05	0	58	0	10485760	55	3943
2026-01-02 14:49:27.42	300.68	45.74	-43.1	-43.8	18.3	0.00e+00	0	57	0	16777216	49	3755
2026-01-02 14:49:28.40	301.07	45.53	-41.6	-42.1	19.8	0.00e+00	0	57	0	24117248	45	3891
2026-01-02 14:49:29.38	301.45	45.32	-41.8	-42.4	19.5	0.00e+00	0	57	0	30408704	45	4010
2026-01-02 14:49:30.36	301.83	45.12	-42.1	-42.6	19.3	0.00e+00	0	57	0	37748736	46	3910
2026-01-02 14:49:31.34	302.20	44.91	-41.5	-42.1	19.9	0.00e+00	0	57	0	45088768	46	3656
2026-01-02 14:49:32.32	302.57	44.70	-40.9	-41.4	20.4	0.00e+00	0	57	0	52428800	44	3816
2026-01-02 14:49:33.32	302.94	44.48	-40.7	-41.2	20.6	0.00e+00	0	57	0	59768832	44	3706
2026-01-02 14:49:34.30	303.30	44.27	-40.4	-40.9	20.8	0.00e+00	0	58	0	67108864	43	3783
2026-01-02 14:49:35.29	303.65	44.06	-40.4	-40.8	20.9	0.00e+00	0	57	0	73400320	43	3767
2026-01-02 14:49:36.29	304.01	43.85	-40.3	-40.7	21.0	0.00e+00	0	57	0	80740352	43	3723
2026-01-02 14:49:37.28	304.36	43.63	-40.1	-40.5	21.2	0.00e+00	0	58	0	88080384	43	3647
2026-01-02 14:49:38.26	304.70	43.43	-40.1	-40.5	21.2	0.00e+00	0	57	0	95420416	43	3632
2026-01-02 14:49:39.25	305.04	43.21	-40.0	-40.5	21.3	0.00e+00	0	58	0	102760448	42	3827
2026-01-02 14:49:40.25	305.37	43.00	-40.2	-40.6	21.1	0.00e+00	0	58	0	110100480	42	3893
2026-01-02 14:49:41.24	305.70	42.79	-40.4	-40.9	20.8	0.00e+00	0	58	0	116391936	42	4029
2026-01-02 14:49:42.23	306.03	42.58	-40.4	-40.9	20.8	0.00e+00	0	58	0	123731968	42	4035
2026-01-02 14:49:43.22	306.35	42.37	-40.6	-41.0	20.7	0.00e+00	0	58	0	131072000	42	4096
2026-01-02 14:49:44.21	306.67	42.15	-40.8	-41.3	20.5	0.00e+00	0	58	0	138412032	43	3966
2026-01-02 14:49:45.20	306.98	41.94	-41.0	-41.6	20.2	0.00e+00	0	58	0	145752064	43	4106
2026-01-02 14:49:46.18	307.29	41.74	-40.9	-41.4	20.2	0.00e+00	0	57	0	152043520	43	4025
2026-01-02 14:49:47.18	307.60	41.52	-41.4	-41.9	19.9	0.00e+00	0	58	0	159383552	44	4040
2026-01-02 14:49:48.17	307.90	41.31	-41.0	-41.5	20.3	0.00e+00	0	58	0	166723584	44	3861
2026-01-02 14:49:49.15	308.19	41.11	-40.7	-41.2	20.6	0.00e+00	0	58	0	174063616	44	3707
2026-01-02 14:49:50.14	308.49	40.90	-40.5	-41.0	20.8	0.00e+00	0	58	0	181403648	44	3645
2026-01-02 14:49:51.13	308.78	40.69	-40.4	-40.9	20.9	0.00e+00	0	58	0	188743680	43	3791
2026-01-02 14:49:52.12	309.06	40.48	-40.5	-40.9	20.8	0.00e+00	0	58	0	195035136	43	3818
2026-01-02 14:49:53.10	309.34	40.27	-40.2	-40.7	21.0	0.00e+00	0	58	0	202375168	43	3715
2026-01-02 14:49:54.09	309.62	40.07	-40.1	-40.6	21.1	0.00e+00	0	58	0	209715200	43	3657
2026-01-02 14:49:55.08	309.90	39.86	-40.3	-40.8	21.0	0.00e+00	0	58	0	217055232	43	3741
2026-01-02 14:49:56.07	310.17	39.65	-40.3	-40.8	21.0	0.00e+00	0	58	0	223346688	43	3744
2026-01-02 14:49:57.05	310.44	39.45	-40.5	-41.0	20.6	0.00e+00	0	58	0	230686720	43	3865
2026-01-02 14:49:58.03	310.70	39.25	-40.4	-40.8	20.9	0.00e+00	0	58	0	238026752	43	3780
2026-01-02 14:49:59.03	310.97	39.04	-40.6	-41.1	20.7	0.00e+00	0	58	0	245366784	43	3882
2026-01-02 14:50:00.02	311.23	38.84	-40.9	-41.5	20.2	0.00e+00	0	58	0	251658240	43	4052
2026-01-02 14:50:01.01	311.48	38.63	-40.6	-41.1	20.6	0.00e+00	0	58	0	258998272	43	3890
2026-01-02 14:50:02.00	311.74	38.43	-40.4	-40.9	20.8	0.00e+00	0	58	0	266338304	43	3790
2026-01-02 14:50:02.99	311.99	38.23	-40.3	-40.8	20.9	0.00e+00	0	58	0	273678336	43	3756
2026-01-02 14:50:03.98	312.23	38.03	-40.4	-40.8	20.8	0.00e+00	0	58	0	281018368	43	3779
2026-01-02 14:50:04.97	312.48	37.83	-40.3	-40.7	20.9	0.00e+00	0	58	0	284164096	43	3728
2026-01-02 14:50:05.96	312.72	37.63	-40.3	-40.8	20.9	0.00e+00	0	58	0	294649856	43	3739
2026-01-02 14:50:06.96	312.96	37.42	-40.3	-40.7	20.9	0.00e+00	0	58	0	301989888	43	3724
2026-01-02 14:50:07.95	313.19	37.22	-40.2	-40.7	20.9	0.00e+00	0	58	0	309329920	43	3702
2026-01-02 14:50:08.94	313.43	37.03	-40.4	-40.8	20.9	0.00e+00	0	58	0	316669952	43	3767
2026-01-02 14:50:09.93	313.66	36.83	-40.6	-41.1	20.5	0.00e+00	0	58	0	324009984	43	3894
2026-01-02 14:50:10.92	313.88	36.63	-40.5	-41.0	20.8	0.00e+00	0	58	0	331350016	43	3834
2026-01-02 14:50:11.91	314.11	36.44	-40.5	-41.0	20.7	0.00e+00	0	58	0	337641472	43	3855
2026-01-02 14:50:12.90	314.33	36.24	-40.7	-41.2	20.5	0.00e+00	0	58	0	344981504	43	3939
2026-01-02 14:50:13.89	314.55	36.05	-40.5	-41.0	20.7	0.00e+00	0	58	0	352321536	43	3860
2026-01-02 14:50:14.88	314.77	35.85	-40.4	-40.9	20.8	0.00e+00	0	58	0	359661568	43	3808
2026-01-02 14:50:15.87	314.98	35.66	-40.5	-41.0	20.7	0.00e+00	0	58	0	367001600	43	3826
2026-01-02 14:50:16.86	315.19	35.47	-40.7	-41.2	20.5	0.00e+00	0	58	0	373293056	43	3936
2026-01-02 14:50:17.85	315.40	35.27	-41.0	-41.5	20.1	0.00e+00	0	58	0	380633088	43	4086
2026-01-02 14:50:18.84	315.61	35.08	-40.7	-41.2	20.5	0.00e+00	0	58	0	387973120	43	3944
2026-01-02 14:50:19.83	315.81	34.89	-40.5	-41.0	20.7	0.00e+00	0	58	0	395313152	43	3829
2026-01-02 14:50:20.81	316.01	34.70	-40.3	-40.7	21.0	0.00e+00	0	58	0	402653184	43	3730
2026-01-02 14:50:21.81	316.22	34.51	-40.2	-40.6	21.0	0.00e+00	0	58	0	409993216	43	3692
2026-01-02 14:50:22.79	316.41	34.33	-40.1	-40.6	21.0	0.00e+00	0	58	0	416284672	43	3672
2026-01-02 14:50:23.78	316.61	34.14	-39.9	-40.4	21.3	0.00e+00	0	58	0	423624704	42	3794
2026-01-02 14:50:24.78	316.80	33.95	-40.0	-40.5	21.2	0.00e+00	0	58	0	430964736	42	3836
2026-01-02 14:50:25.77	316.99	33.77	-39.7	-40.2	21.4	0.00e+00	0	58	0	438304768	42	3704
2026-01-02 14:50:26.76	317.18	33.58	-39.4	-39.8	21.7	0.00e+00	0	58	0	445644800	41	3777
2026-01-02 14:50:27.74	317.37	33.40	-39.5	-39.9	21.3	0.00e+00	0	57	0	452984832	41	3821
2026-01-02 14:50:28.72	317.55	33.22	-39.6	-40.0	21.6	0.00e+00	0	58	0	459276288	41	3843
2026-01-02 14:50:29.71	317.73	33.04	-39.8	-40.3	21.4	0.00e+00	0	58	0	466616320	41	3971
2026-01-02 14:50:30.69	317.91	32.86	-40.1	-40.6	21.1	0.00e+00	0	58	0	473956352	41	4100
2026-01-02 14:50:31.69	318.09	32.67	-40.3	-40.7	20.9	0.00e+00	0	58	0	481296384	42	3955
2026-01-02 14:50:32.67	318.27	32.49	-40.4	-40.9	20.8	0.00e+00	0	58	0	487587840	42	4036
2026-01-02 14:50:33.66	318.44	32.31	-40.5	-41.0	20.7	0.00e+00	0	58	0	494927872	42	4081
2026-01-02 14:50:34.65	318.62	32.14	-40.6	-41.1	20.6	0.00e+00	0	58	0	502267904	42	4124
2026-01-02 14:50:35.63	318.79	31.96	-40.7	-41.2	20.5	0.00e+00	0	58	0	509607936	42	4165
2026-01-02 14:50:36.63	318.96	31.78	-40.6	-41.1	20.6	0.00e+00	0	58	0	516947968	43	3908
2026-01-02 14:50:37.62	319.13	31.61	-40.6	-41.1	20.6	0.00e+00	0	58	0	523239424	43	3879
2026-01-02 14:50:38.60	319.29	31.43	-40.5	-41.0	20.7	0.00e+00	0	58	0	530579456	43	3844
2026-01-02 14:50:39.58	319.45	31.26	-40.5	-41.0	20.6	0.00e+00	0	58	0	537919488	43	3836
2026-01-02 14:50:40.57	319.62	31.09	-40.6	-41.2	20.5	0.00e+00	0	58	0	545259520	43	3915
2026-01-02 14:50:41.55	319.78	30.91	-40.5	-41.0	20.7	0.00e+00	0	58	0	552599552	43	3856
2026-01-02 14:50:42.53	319.93	30.74	-40.4	-40.9	20.8	0.00e+00	0	58	0	558891008	43	3783
2026-01-02 14:50:43.52	320.09	30.57	-40.4	-40.9	20.8	0.00e+00	0	58	0	566231040	43	3796
2026-01-02 14:50:44.51	320.25	30.40	-40.3	-40.8	20.8	0.00e+00	0	58	0	573571072	43	3767
2026-01-02 14:50:45.51	320.40	30.23	-40.1	-40.6	21.0	0.00e+00	0	58	0	580911104	43	3664
2026-01-02 14:50:46.49	320.55	30.06	-40.1	-40.5	21.1	0.00e+00	0	58	0	588251136	43	3651
2026-01-02 14:50:47.47	320.70	29.90	-40.2	-40.6	21.0	0.00e+00	0	58	0	594542592	43	3681
2026-01-02 14:50:48.46	320.85	29.73	-40.1	-40.6	20.9	0.00e+00	0	58	0	601882624	43	3680
2026-01-02 14:50:49.45	321.00	29.56	-40.1	-40.5	21.1	0.00e+00	0	58	0	609222656	43	3652
2026-01-02 14:50:50.43	321.15	29.40	-40.1	-40.5	21.1	0.00e+00	0	58	0	616562688	42	3861
2026-01-02 14:50:51.42	321.29	29.23	-40.3	-40.7	20.9	0.00e+00	0	58	0	622854144	42	3955
2026-01-02 14:50:52.41	321.44	29.07	-40.4	-40.9	20.7	0.00e+00	0	58	0	630194176	42	4027
2026-01-02 14:50:53.40	321.58	28.90	-40.3	-40.7	20.9	0.00e+00	0	58	0	637534208	42	3946
2026-01-02 14:50:54.39	321.72	28.74	-40.3	-40.7	20.9	0.00e+00	0	58	0	644874240	42	3954
2026-01-02 14:50:55.38	321.86	28.58	-40.4	-40.9	20.7	0.00e+00	0	58	0	652214272	42	4036
2026-01-02 14:50:56.38	322.00	28.42	-40.5	-41.0	20.6	0.00e+00	0	58	0	659554304	42	4092
2026-01-02 14:50:57.37	322.14	28.26	-40.6	-41.1	20.6	0.00e+00	0	58	0	665845760	42	4122
2026-01-02 14:50:58.36	322.28	28.10	-40.7	-41.2	20.4	0.00e+00	0	58	0	673185792	43	3956
2026-01-02 14:50:59.35	322.41	27.94	-40.8	-41.3	20.4	0.00e+00	0	58	0	680525824	43	3969
2026-01-02 14:51:00.34	322.54	27.78	-41.0	-41.5	20.2	0.00e+00	0	58	0	687865856	43	4076
2026-01-02 14:51:01.33	322.68	27.62	-41.0	-41.6	20.1	0.00e+00	0	58	0	695205888	43	4108
2026-01-02 14:51:02.32	322.81	27.46	-41.0	-41.5	20.2	0.00e+00	0	58	0	701497344	43	4068
2026-01-02 14:51:03.30	322.93	27.31	-41.2	-41.7	20.0	0.00e+00	0	58	0	708837376	43	4156
2026-01-02 14:51:04.29	323.06	27.15	-41.4	-41.9	19.9	0.00e+00	0	58	0	716177408	44	4033
2026-01-02 14:51:05.28	323.19	27.00	-41.2	-41.7	20.1	0.00e+00	0	58	0	723517440	44	3932
2026-01-02 14:51:06.27	323.32	26.85	-41.1	-41.6	20.2	0.00e+00	0	58	0	729808896	44	3879
2026-01-02 14:51:07.26	323.44	26.69	-41.1	-41.6	20.2	0.00e+00	0	58	0	737148928	44	3883
2026-01-02 14:51:08.25	323.56	26.54	-41.1	-41.7	20.1	0.00e+00	0	58	0	744488960	44	3915
2026-01-02 14:51:09.24	323.69	26.39	-41.3	-41.8	19.9	0.00e+00	0	58	0	751828992	44	3994
2026-01-02 14:51:10.23	323.81	26.24	-41.0	-41.5	20.2	0.00e+00	0	58	0	759169024	44	3860
2026-01-02 14:51:11.22	323.93	26.09	-40.8	-41.3	20.3	0.00e+00	0	58	0	766509056	44	3750
2026-01-02 14:51:12.21	324.05	25.94	-40.7	-41.1	20.6	0.00e+00	0	58	0	773849088	44	3691
2026-01-02 14:51:13.21	324.17	25.79	-40.6	-41.1	20.6	0.00e+00	0	58	0	776994816	44	3692
2026-01-02 14:51:14.20	324.28	25.64	-40.7	-41.2	20.5	0.00e+00	0	58	0	787480576	44	3705
2026-01-02 14:51:15.18	324.40	25.49	-40.6	-41.1	20.6	0.00e+00	0	58	0	794820608	44	3676
2026-01-02 14:51:16.18	324.52	25.35	-40.7	-41.2	20.5	0.00e+00	0	58	0	802160640	44	3718
2026-01-02 14:51:17.16	324.63	25.20	-40.6	-41.1	20.7	0.00e+00	0	58	0	809500672	44	3669
2026-01-02 14:51:18.15	324.74	25.06	-40.6	-41.1	20.6	0.00e+00	0	58	0	815792128	44	3665
2026-01-02 14:51:19.13	324.85	24.91	-40.6	-41.1	20.7	0.00e+00	0	58	0	823132160	44	3664
2026-01-02 14:51:20.12	324.96	24.77	-40.7	-41.2	20.5	0.00e+00	0	58	0	830472192	44	3725
2026-01-02 14:51:21.11	325.07	24.63	-40.6	-41.1	20.6	0.00e+00	0	58	0	837812224	44	3670
2026-01-02 14:51:22.10	325.18	24.48	-40.7	-41.2	20.5	0.00e+00	0	58	0	845152256	44	3716
2026-01-02 14:51:23.09	325.29	24.34	-40.8	-41.3	20.4	0.00e+00	0	58	0	852492288	44	3779
2026-01-02 14:51:24.08	325.40	24.20	-40.8	-41.2	20.5	0.00e+00	0	58	0	858783744	44	3736
2026-01-02 14:51:25.07	325.50	24.06	-41.0	-41.5	20.3	0.00e+00	0	58	0	866123776	44	3841
2026-01-02 14:51:26.06	325.61	23.92	-40.8	-41.3	20.4	0.00e+00	0	58	0	873463808	44	3760
2026-01-02 14:51:27.05	325.71	23.78	-40.8	-41.3	20.4	0.00e+00	0	58	0	880803840	44	3773
2026-01-02 14:51:28.03	325.82	23.64	-40.9	-41.4	20.3	0.00e+00	0	58	0	888143872	44	3812
2026-01-02 14:51:29.03	325.92	23.50	-41.0	-41.5	20.2	0.00e+00	0	58	0	895483904	44	3865
2026-01-02 14:51:30.01	326.02	23.37	-40.9	-41.4	20.3	0.00e+00	0	58	0	901775360	44	3820
2026-01-02 14:51:31.00	326.12	23.23	-40.9	-41.5	20.2	0.00e+00	0	58	0	909115392	44	3828
2026-01-02 14:51:32.00	326.22	23.09	-41.0	-41.5	20.1	0.00e+00	0	58	0	916455424	44	3865
2026-01-02 14:51:32.98	326.32	22.96	-41.3	-41.9	19.9	0.00e+00	0	58	0	923795456	44	4005
2026-01-02 14:51:33.97	326.42	22.83	-41.1	-41.6	20.1	0.00e+00	0	58	0	930086912	44	3894
2026-01-02 14:51:34.95	326.52	22.69	-41.3	-41.8	20.0	0.00e+00	0	58	0	937426944	44	3976
2026-01-02 14:51:35.94	326.62	22.56	-41.5	-42.1	19.7	0.00e+00	0	58	0	944766976	44	4123
2026-01-02 14:51:36.92	326.71	22.43	-41.4	-42.0	19.8	0.00e+00	0	58	0	952107008	44	4067
2026-01-02 14:51:37.92	326.81	22.29	-41.7	-42.2	19.5	0.00e+00	0	58	0	958398464	44	4185
2026-01-02 14:51:38.91	326.90	22.16	-41.5	-42.1	19.6	0.00e+00	0	58	0	965738496	45	3892
2026-01-02 14:51:39.89	326.99	22.03	-41.5	-42.0	19.7	0.00e+00	0	58	0	973078528	45	3864
2026-01-02 14:51:40.89	327.09	21.90	-41.6	-42.1	19.6	0.00e+00	0	58	0	980418560	45	3903
2026-01-02 14:51:41.87	327.18	21.77	-41.6	-42.1	19.6	0.00e+00	0	58	0	987758592	45	3899
2026-01-02 14:51:42.86	327.27	21.64	-41.5	-42.0	19.6	0.00e+00	0	58	0	995098624	45	3868
2026-01-02 14:51:43.85	327.36	21.51	-41.6	-42.2	19.5	0.00e+00	0	58	0	1001390080	45	3926
2026-01-02 14:51:44.85	327.45	21.39	-41.5	-42.1	19.6	0.00e+00	0	58	0	1008730112	45	3882
2026-01-02 14:51:45.83	327.54	21.26	-41.5	-42.0	19.7	0.00e+00	0	58	0	1016070144	45	3846
2026-01-02 14:51:46.82	327.63	21.13	-41.5	-42.0	19.7	0.00e+00	0	58	0	1023410176	45	3855
2026-01-02 14:51:47.81	327.72	21.01	-41.6	-42.2	19.5	0.00e+00	0	58	0	1030750208	45	3935
2026-01-02 14:51:48.80	327.81	20.88	-41.5	-42.1	19.6	0.00e+00	0	58	0	1037041664	45	3874
2026-01-02 14:51:49.80	327.90	20.75	-41.3	-41.8	19.8	0.00e+00	0	58	0	1044381696	45	3765
2026-01-02 14:51:50.78	327.98	20.63	-41.2	-41.7	20.0	0.00e+00	0	58	0	1051721728	45	3705
2026-01-02 14:51:51.77	328.07	20.51	-41.2	-41.7	20.0	0.00e+00	0	58	0	1059061760	45	3714
2026-01-02 14:51:52.76	328.15	20.38	-41.3	-41.9	19.8	0.00e+00	0	58	0	1066401792	45	3786
2026-01-02 14:51:53.75	328.24	20.26	-41.4	-41.9	19.8	0.00e+00	0	58	0	1073741824	45	3816
2026-01-02 14:51:54.73	328.32	20.14	-41.4	-41.9	19.8	0.00e+00	0	58	0	1080033280	45	3800
2026-01-02 14:51:55.72	328.40	20.02	-41.6	-42.1	19.6	0.00e+00	0	58	0	1087373312	45	3883
2026-01-02 14:51:56.71	328.48	19.90	-41.8	-42.4	19.4	0.00e+00	0	58	0	1094713344	45	4006
2026-01-02 14:51:57.70	328.56	19.77	-41.7	-42.3	19.4	0.00e+00	0	58	0	1102053376	45	3961
2026-01-02 14:51:58.68	328.65	19.66	-41.6	-42.1	19.6	0.00e+00	0	58	0	1109393408	45	3893
2026-01-02 14:51:59.68	328.73	19.53	-41.7	-42.3	19.4	0.00e+00	0	58	0	1116733440	45	3983
2026-01-02 14:52:00.67	328.81	19.41	-41.7	-42.2	19.4	0.00e+00	0	58	0	1123024896	45	3949
2026-01-02 14:52:01.66	328.89	19.30	-41.5	-42.0	19.6	0.00e+00	0	58	0	1130364928	45	3866
2026-01-02 14:52:02.65	328.96	19.18	-41.4	-42.0	19.7	0.00e+00	0	58	0	1137704960	45	3843
2026-01-02 14:52:03.64	329.04	19.06	-41.5	-42.0	19.6	0.00e+00	0	58	0	1145044992	45	3854
2026-01-02 14:52:04.64	329.12	18.94	-41.6	-42.1	19.6	0.00e+00	0	58	0	1152385024	45	3912
2026-01-02 14:52:05.63	329.20	18.83	-41.7	-42.2	19.4	0.00e+00	0	58	0	1158676480	45	3952
2026-01-02 14:52:06.62	329.27	18.71	-41.7	-42.3	19.4	0.00e+00	0	58	0	1166016512	45	3973
2026-01-02 14:52:07.61	329.35	18.59	-41.7	-42.3	19.4	0.00e+00	0	58	0	1173356544	45	3978
2026-01-02 14:52:08.60	329.43	18.48	-41.7	-42.3	19.4	0.00e+00	0	58	0	1180696576	45	3971
2026-01-02 14:52:09.59	329.50	18.36	-41.7	-42.3	19.4	0.00e+00	0	58	0	1188036608	45	3983
2026-01-02 14:52:10.57	329.57	18.25	-41.8	-42.4	19.2	0.00e+00	0	58	0	1194328064	45	4042
2026-01-02 14:52:11.56	329.65	18.14	-41.9	-42.5	19.2	0.00e+00	0	58	0	1201668096	45	4070
2026-01-02 14:52:12.54	329.72	18.02	-42.0	-42.6	19.1	0.00e+00	0	58	0	1209008128	45	4118
2026-01-02 14:52:13.54	329.79	17.91	-42.0	-42.6	19.1	0.00e+00	0	58	0	1216348160	45	4129
2026-01-02 14:52:14.53	329.87	17.80	-41.9	-42.5	19.2	0.00e+00	0	58	0	1223688192	45	4060
2026-01-02 14:52:15.52	329.94	17.69	-41.9	-42.4	19.2	0.00e+00	0	58	0	1229979648	45	4041
2026-01-02 14:52:16.50	330.01	17.58	-42.1	-42.7	18.9	0.00e+00	0	58	0	1237319680	45	4179
2026-01-02 14:52:17.49	330.08	17.47	-42.1	-42.7	18.9	0.00e+00	0	58	0	1244659712	46	3957
2026-01-02 14:52:18.48	330.15	17.36	-42.1	-42.7	18.9	0.00e+00	0	58	0	1251999744	46	3916
2026-01-02 14:52:19.48	330.22	17.24	-42.0	-42.6	19.0	0.00e+00	0	58	0	1259339776	46	3905
2026-01-02 14:52:20.47	330.29	17.13	-42.0	-42.6	19.0	0.00e+00	0	58	0	1265631232	46	3913
2026-01-02 14:52:21.46	330.36	17.03	-42.1	-42.7	18.9	0.00e+00	0	58	0	1272971264	46	3945
2026-01-02 14:52:22.45	330.43	16.92	-42.1	-42.7	19.0	0.00e+00	0	58	0	1280311296	46	3934
2026-01-02 14:52:23.45	330.50	16.81	-42.3	-42.9	18.7	0.00e+00	0	58	0	1287651328	46	4030
2026-01-02 14:52:24.43	330.56	16.70	-42.5	-43.2	18.5	0.00e+00	0	58	0	1294991360	46	4171
2026-01-02 14:52:25.42	330.63	16.59	-42.5	-43.2	18.5	0.00e+00	0	58	0	1301282816	46	4154
2026-01-02 14:52:26.41	330.70	16.49	-42.5	-43.1	18.5	0.00e+00	0	58	0	1308622848	46	4136
2026-01-02 14:52:27.39	330.76	16.38	-42.4	-43.0	18.7	0.00e+00	0	58	0	1315962880	46	4078
2026-01-02 14:52:28.38	330.83	16.28	-42.6	-43.2	18.4	0.00e+00	0	58	0	1323302912	46	4174
2026-01-02 14:52:29.37	330.89	16.17	-42.7	-43.4	18.3	0.00e+00	0	58	0	1330642944	47	4006
2026-01-02 14:52:30.36	330.96	16.07	-42.6	-43.3	18.4	0.00e+00	0	58	0	1337982976	47	3964
2026-01-02 14:52:31.35	331.02	15.96	-42.5	-43.1	18.5	0.00e+00	0	58	0	1344274432	47	3908
2026-01-02 14:52:32.34	331.09	15.86	-42.7	-43.4	18.3	0.00e+00	0	58	0	1351614464	47	4014
2026-01-02 14:52:33.33	331.15	15.75	-42.9	-43.6	18.0	0.00e+00	0	58	0	1358954496	47	4111
2026-01-02 14:52:34.31	331.21	15.65	-42.7	-43.3	18.3	0.00e+00	0	58	0	1366294528	47	3999
2026-01-02 14:52:35.31	331.28	15.55	-42.5	-43.2	18.4	0.00e+00	0	58	0	1373634560	47	3931
2026-01-02 14:52:36.30	331.34	15.44	-42.5	-43.1	18.5	0.00e+00	0	58	0	1379926016	47	3894
2026-01-02 14:52:37.29	331.40	15.34	-42.4	-43.0	18.6	0.00e+00	0	58	0	1387266048	47	3852
2026-01-02 14:52:38.29	331.47	15.24	-42.5	-43.1	18.5	0.00e+00	0	58	0	1394606080	47	3906
2026-01-02 14:52:39.28	331.53	15.14	-42.7	-43.3	18.3	0.00e+00	0	58	0	1401946112	47	3997
2026-01-02 14:52:40.26	331.59	15.04	-42.7	-43.4	18.2	0.00e+00	0	58	0	1409286144	47	4013
2026-01-02 14:52:41.25	331.65	14.94	-42.7	-43.4	18.2	0.00e+00	0	58	0	1416626176	47	4031
2026-01-02 14:52:42.24	331.71	14.84	-42.6	-43.3	18.3	0.00e+00	0	58	0	1422917632	47	3985
2026-01-02 14:52:43.23	331.77	14.74	-42.6	-43.2	18.4	0.00e+00	0	58	0	1430257664	47	3950
2026-01-02 14:52:44.22	331.83	14.64	-42.7	-43.4	18.2	0.00e+00	0	58	0	1437597696	47	4013
2026-01-02 14:52:45.21	331.89	14.54	-42.9	-43.5	18.0	0.00e+00	0	58	0	1444937728	47	4093
2026-01-02 14:52:46.20	331.94	14.44	-42.7	-43.4	18.2	0.00e+00	0	58	0	1452277760	47	4046
2026-01-02 14:52:47.19	332.00	14.34	-42.9	-43.6	18.0	0.00e+00	0	58	0	1458569216	47	4103
2026-01-02 14:52:48.18	332.06	14.24	-43.1	-43.8	17.8	0.00e+00	0	58	0	1465909248	47	4241
2026-01-02 14:52:49.17	332.12	14.15	-43.0	-43.7	17.9	0.00e+00	0	58	0	1473249280	47	4153
2026-01-02 14:52:50.16	332.18	14.05	-42.9	-43.6	18.0	0.00e+00	0	58	0	1480589312	47	4104
2026-01-02 14:52:51.15	332.23	13.95	-43.1	-43.8	17.8	0.00e+00	0	58	0	1487929344	47	4197
2026-01-02 14:52:52.14	332.29	13.85	-42.9	-43.6	18.0	0.00e+00	0	58	0	1495269376	47	4114
2026-01-02 14:52:53.13	332.35	13.76	-42.8	-43.4	18.1	0.00e+00	0	58	0	1501560832	47	4051
2026-01-02 14:52:54.13	332.40	13.66	-42.9	-43.7	17.9	0.00e+00	0	58	0	1508900864	47	4146
2026-01-02 14:52:55.12	332.46	13.57	-43.4	-44.1	17.7	0.00e+00	0	58	0	1516240896	48	4124
2026-01-02 14:52:56.11	332.51	13.47	-43.1	-43.8	17.9	0.00e+00	0	58	0	1523580928	48	4002
2026-01-02 14:52:57.09	332.57	13.38	-43.4	-44.1	17.6	0.00e+00	0	58	0	1530920960	48	4127
2026-01-02 14:52:58.09	332.62	13.28	-43.5	-44.3	17.4	0.00e+00	0	58	0	1538260992	48	4216
2026-01-02 14:52:59.07	332.68	13.19	-43.5	-44.2	17.5	0.00e+00	0	58	0	1544552448	48	4184
2026-01-02 14:53:00.06	332.73	13.10	-43.6	-44.3	17.4	0.00e+00	0	58	0	1551892480	48	4239
2026-01-02 14:53:01.05	332.78	13.00	-43.8	-44.6	17.2	0.00e+00	0	58	0	1559232512	49	4101
2026-01-02 14:53:02.03	332.84	12.91	-43.7	-44.4	17.3	0.00e+00	0	58	0	1566572544	49	4050
2026-01-02 14:53:03.02	332.89	12.82	-43.4	-44.2	17.5	0.00e+00	0	58	0	1572864000	49	3925
2026-01-02 14:53:04.01	332.94	12.72	-43.8	-44.6	17.2	0.00e+00	0	58	0	1580204032	49	4106
2026-01-02 14:53:04.99	333.00	12.63	-43.5	-44.3	17.4	0.00e+00	0	58	0	1587544064	49	3975
2026-01-02 14:53:05.98	333.05	12.54	-43.4	-44.1	17.6	0.00e+00	0	58	0	1594884096	49	3905
2026-01-02 14:53:06.97	333.10	12.45	-43.6	-44.3	17.4	0.00e+00	0	58	0	1601175552	49	3988
2026-01-02 14:53:07.96	333.15	12.36	-43.9	-44.7	17.0	0.00e+00	0	58	0	1608515584	49	4168
2026-01-02 14:53:08.95	333.20	12.27	-43.7	-44.5	17.2	0.00e+00	0	58	0	1615855616	49	4066
2026-01-02 14:53:09.94	333.25	12.18	-43.7	-44.5	17.2	0.00e+00	0	58	0	1623195648	49	4059
2026-01-02 14:53:10.93	333.30	12.09	-44.0	-44.8	16.9	0.00e+00	0	58	0	1630535680	49	4216
2026-01-02 14:53:11.92	333.35	12.00	-43.9	-44.6	17.0	0.00e+00	0	58	0	1637875712	49	4144
2026-01-02 14:53:12.91	333.40	11.91	-43.7	-44.5	17.2	0.00e+00	0	58	0	1644167168	49	4082
2026-01-02 14:53:13.90	333.45	11.82	-43.8	-44.6	17.0	0.00e+00	0	58	0	1651507200	49	4137
2026-01-02 14:53:14.89	333.50	11.73	-44.1	-44.9	16.7	0.00e+00	0	58	0	1658847232	49	4262
2026-01-02 14:53:15.88	333.55	11.64	-44.3	-45.2	16.4	0.00e+00	0	58	0	1666187264	50	4164
2026-01-02 14:53:16.87	333.60	11.55	-44.2	-45.0	16.6	0.00e+00	0	58	0	1673527296	50	4093
2026-01-02 14:53:17.86	333.65	11.47	-44.0	-44.8	16.8	0.00e+00	0	58	0	1679818752	50	3988
2026-01-02 14:53:18.86	333.70	11.38	-44.0	-44.8	16.8	0.00e+00	0	58	0	1687158784	50	3978
2026-01-02 14:53:19.85	333.75	11.29	-44.0	-44.8	16.8	0.00e+00	0	58	0	1694498816	50	3969
2026-01-02 14:53:20.84	333.80	11.20	-44.1	-44.9	16.7	0.00e+00	0	58	0	1701838848	50	4037
2026-01-02 14:53:21.83	333.84	11.12	-44.1	-44.9	16.6	0.00e+00	0	58	0	1709178880	50	4046
2026-01-02 14:53:22.83	333.89	11.03	-43.9	-44.7	16.9	0.00e+00	0	58	0	1716518912	50	3954
2026-01-02 14:53:23.81	333.94	10.94	-43.9	-44.7	17.0	0.00e+00	0	58	0	1722810368	50	3921
2026-01-02 14:53:24.81	333.99	10.86	-43.9	-44.6	17.0	0.00e+00	0	58	0	1730150400	50	3911
2026-01-02 14:53:25.80	334.03	10.77	-43.8	-44.6	17.0	0.00e+00	0	58	0	1737490432	50	3885
2026-01-02 14:53:26.78	334.08	10.69	-43.9	-44.7	16.8	0.00e+00	0	58	0	1744830464	50	3946
2026-01-02 14:53:27.77	334.13	10.60	-43.9	-44.7	16.8	0.00e+00	0	58	0	1752170496	50	3945
2026-01-02 14:53:28.76	334.17	10.52	-44.1	-44.9	16.6	0.00e+00	0	58	0	1759510528	50	4029
2026-01-02 14:53:29.74	334.22	10.43	-44.1	-44.9	16.6	0.00e+00	0	58	0	1765801984	50	4042
2026-01-02 14:53:30.72	334.26	10.35	-44.2	-45.0	16.6	0.00e+00	0	58	0	1773142016	50	4073
2026-01-02 14:53:31.69	334.31	10.27	-44.2	-45.0	16.5	0.00e+00	0	58	0	1780482048	50	4090
2026-01-02 14:53:32.69	334.35	10.18	-44.2	-45.1	16.5	0.00e+00	0	58	0	1787822080	50	4114
2026-01-02 14:53:33.67	334.40	10.10	-44.5	-45.4	16.2	0.00e+00	0	58	0	1794113536	50	4259
2026-01-02 14:53:34.67	334.44	10.02	-44.7	-45.7	15.8	0.00e+00	0	58	0	1801453568	51	4170
2026-01-02 14:53:35.66	334.49	9.93	-44.8	-45.7	15.8	0.00e+00	0	58	0	1808793600	51	4189
2026-01-02 14:53:36.64	334.53	9.85	-44.8	-45.8	15.7	0.00e+00	0	58	0	1816133632	51	4225
2026-01-02 14:53:37.63	334.57	9.77	-44.9	-45.8	15.7	0.00e+00	0	58	0	1823473664	51	4233
2026-01-02 14:53:38.62	334.62	9.69	-44.9	-45.9	15.6	0.00e+00	0	58	0	1829765120	51	4271
2026-01-02 14:53:39.61	334.66	9.61	-44.9	-45.8	15.7	0.00e+00	0	58	0	1837105152	51	4228
2026-01-02 14:53:40.61	334.71	9.52	-44.8	-45.7	15.8	0.00e+00	0	58	0	1844445184	51	4178
2026-01-02 14:53:41.60	334.75	9.44	-44.6	-45.6	15.9	0.00e+00	0	58	0	1851785216	51	4104
2026-01-02 14:53:42.59	334.79	9.36	-44.4	-45.3	16.2	0.00e+00	0	58	0	1859125248	51	3991
2026-01-02 14:53:43.58	334.83	9.28	-44.3	-45.2	16.3	0.00e+00	0	58	0	1866465280	51	3943
2026-01-02 14:53:44.58	334.88	9.20	-44.3	-45.2	16.3	0.00e+00	0	58	0	1873805312	51	3947
2026-01-02 14:53:45.57	334.92	9.12	-44.5	-45.4	16.1	0.00e+00	0	58	0	1880096768	51	4022
2026-01-02 14:53:46.56	334.96	9.04	-44.5	-45.4	16.0	0.00e+00	0	58	0	1887436800	51	4033
2026-01-02 14:53:47.55	335.00	8.96	-44.5	-45.4	16.0	0.00e+00	0	58	0	1894776832	51	4034
2026-01-02 14:53:48.55	335.05	8.88	-44.8	-45.8	15.7	0.00e+00	0	58	0	1902116864	51	4195
2026-01-02 14:53:49.54	335.09	8.80	-44.8	-45.8	15.7	0.00e+00	0	58	0	1909456896	51	4196
2026-01-02 14:53:50.53	335.13	8.72	-44.6	-45.5	15.9	0.00e+00	0	58	0	1916796928	51	4098
2026-01-02 14:53:51.52	335.17	8.64	-44.6	-45.5	15.9	0.00e+00	0	58	0	1923088384	51	4075
2026-01-02 14:53:52.50	335.21	8.56	-44.6	-45.5	15.9	0.00e+00	0	58	0	1930428416	51	4075
2026-01-02 14:53:53.49	335.25	8.49	-44.5	-45.5	16.0	0.00e+00	0	58	0	1937768448	51	4066
2026-01-02 14:53:54.47	335.29	8.41	-44.5	-45.4	15.9	0.00e+00	0	58	0	1944059904	51	4045
2026-01-02 14:53:55.46	335.33	8.33	-44.6	-45.6	15.8	0.00e+00	0	58	0	1951399936	51	4118
2026-01-02 14:53:56.45	335.37	8.25	-44.6	-45.6	15.8	0.00e+00	0	58	0	1958739968	51	4126
2026-01-02 14:53:57.44	335.41	8.18	-44.5	-45.5	15.9	0.00e+00	0	58	0	1966080000	51	4077
2026-01-02 14:53:58.43	335.45	8.10	-44.6	-45.5	15.8	0.00e+00	0	58	0	1973420032	51	4087
2026-01-02 14:53:59.42	335.49	8.02	-44.6	-45.6	15.7	0.00e+00	0	58	0	1980760064	51	4133
2026-01-02 14:54:00.41	335.53	7.94	-44.7	-45.7	15.6	0.00e+00	0	58	0	1987051520	51	4173
2026-01-02 14:54:01.40	335.57	7.87	-44.8	-45.7	15.6	0.00e+00	0	58	0	1994391552	51	4184
2026-01-02 14:54:02.38	335.61	7.79	-44.9	-45.9	15.4	0.00e+00	0	58	0	2001731584	51	4280
2026-01-02 14:54:03.37	335.65	7.72	-45.0	-46.1	15.1	0.00e+00	0	58	0	2009071616	52	4118
2026-01-02 14:54:04.36	335.68	7.64	-44.8	-45.8	15.4	0.00e+00	0	58	0	2016411648	52	3992
2026-01-02 14:54:05.35	335.72	7.56	-44.6	-45.6	15.6	0.00e+00	0	58	0	2022703104	52	3906
2026-01-02 14:54:06.33	335.76	7.49	-44.6	-45.6	15.6	0.00e+00	0	58	0	2030043136	52	3892
2026-01-02 14:54:07.32	335.80	7.41	-44.6	-45.6	15.6	0.00e+00	0	58	0	2037383168	52	3890
2026-01-02 14:54:08.31	335.84	7.34	-44.6	-45.6	15.6	0.00e+00	0	58	0	2044723200	52	3903
2026-01-02 14:54:09.30	335.87	7.26	-44.7	-45.7	15.5	0.00e+00	0	58	0	2052063232	52	3946
2026-01-02 14:54:10.29	335.91	7.19	-44.5	-45.5	15.7	0.00e+00	0	58	0	2059403264	52	3848
2026-01-02 14:54:11.27	335.95	7.12	-44.6	-45.6	15.6	0.00e+00	0	58	0	2065694720	51	4126
2026-01-02 14:54:12.26	335.99	7.04	-44.8	-45.8	15.5	0.00e+00	0	58	0	2073034752	51	4213
2026-01-02 14:54:13.25	336.02	6.97	-44.7	-45.7	15.5	0.00e+00	0	58	0	2080374784	51	4169
2026-01-02 14:54:14.24	336.06	6.89	-44.7	-45.8	15.5	0.00e+00	0	58	0	2087714816	51	4200
2026-01-02 14:54:15.23	336.10	6.82	-44.9	-45.9	15.3	0.00e+00	0	58	0	2095054848	51	4289
2026-01-02 14:54:16.23	336.13	6.75	-45.0	-46.1	15.1	0.00e+00	0	58	0	2102394880	51	4364
2026-01-02 14:54:17.22	336.17	6.67	-45.0	-46.1	15.1	0.00e+00	0	58	0	2108686336	51	4361
2026-01-02 14:54:18.21	336.21	6.60	-45.1	-46.2	15.0	0.00e+00	0	58	0	2116026368	51	4418
2026-01-02 14:54:19.20	336.24	6.53	-45.1	-46.2	14.9	0.00e+00	0	58	0	2123366400	52	4179
2026-01-02 14:54:20.19	336.28	6.46	-44.9	-46.0	15.1	0.00e+00	0	58	0	2130706432	52	4076
2026-01-02 14:54:21.18	336.31	6.38	-45.1	-46.3	14.8	0.00e+00	0	58	0	2138046464	52	4200
2026-01-02 14:54:22.17	336.35	6.31	-45.3	-46.5	14.5	1.10e-06	0	58	0	2144337920	52	4319
2026-01-02 14:54:23.16	336.39	6.24	-45.1	-46.3	14.7	0.00e+00	0	58	0	2151677952	52	4208
2026-01-02 14:54:24.16	336.42	6.17	-45.3	-46.5	14.5	0.00e+00	0	58	0	2159017984	52	4315
2026-01-02 14:54:25.15	336.46	6.09	-45.3	-46.4	14.6	1.10e-06	0	58	0	2166358016	52	4281
2026-01-02 14:54:26.14	336.49	6.02	-45.3	-46.5	14.5	1.10e-06	0	58	0	2173698048	52	4319
2026-01-02 14:54:27.12	336.53	5.95	-45.7	-46.9	14.0	4.50e-06	0	58	0	2179989504	52	4537
2026-01-02 14:54:28.12	336.56	5.88	-45.5	-46.8	14.2	5.70e-06	0	58	0	2187329536	53	4196
2026-01-02 14:54:29.10	336.60	5.81	-45.7	-47.0	13.9	1.10e-06	0	58	0	2194669568	53	4313
2026-01-02 14:54:30.09	336.63	5.74	-45.6	-46.8	14.1	4.50e-06	0	58	0	2202009600	53	4241
2026-01-02 14:54:31.08	336.66	5.67	-45.9	-47.3	13.7	4.50e-06	0	58	0	2209349632	53	4442
2026-01-02 14:54:32.07	336.70	5.60	-46.2	-47.7	13.2	2.74e-05	0	58	0	2215641088	54	4408
2026-01-02 14:54:33.06	336.73	5.53	-46.0	-47.4	13.5	1.71e-05	0	58	0	2222981120	54	4259
2026-01-02 14:54:34.05	336.77	5.46	-46.1	-47.5	13.4	2.63e-05	0	58	0	2230321152	54	4299
2026-01-02 14:54:35.04	336.80	5.39	-46.6	-48.1	12.7	4.92e-05	0	58	0	2237661184	54	4634
2026-01-02 14:54:36.03	336.83	5.32	-46.3	-47.8	13.1	4.11e-05	0	58	0	2245001216	54	4456
2026-01-02 14:54:37.01	336.87	5.25	-46.4	-47.9	12.9	4.80e-05	0	58	0	2251292672	54	4522
2026-01-02 14:54:38.00	336.90	5.18	-46.2	-47.7	13.1	4.69e-05	0	58	0	2258632704	54	4418
2026-01-02 14:54:38.99	336.93	5.11	-46.0	-47.4	13.4	2.40e-05	0	58	0	2265972736	54	4265
2026-01-02 14:54:39.99	336.97	5.04	-46.0	-47.3	13.6	1.10e-06	0	58	0	2273312768	53	4471
2026-01-02 14:54:40.98	337.00	4.97	-51.9	-61.7	3.8	8.47e-01	0	58	104	2275409920	65	11779
2026-01-02 14:54:41.97	337.03	4.91	-51.3	-61.4	3.8	8.46e-01	0	58	104	2275409920	65	11311
2026-01-02 14:54:42.96	337.07	4.84	-48.6	-58.7	3.8	8.45e-01	0	58	104	2275409920	60	11108
2026-01-02 14:54:43.95	337.10	4.77	-49.8	-59.9	3.8	8.47e-01	0	58	104	2275409920	61	12072
2026-01-02 14:54:44.94	337.13	4.70	-51.6	-61.7	3.8	8.47e-01	0	58	104	2275409920	65	11757
2026-01-02 14:54:45.93	337.16	4.63	-52.5	-62.7	3.8	8.47e-01	0	58	104	2275409920	66	12484
2026-01-02 14:54:46.91	337.19	4.57	-52.6	-62.9	3.8	8.45e-01	0	58	104	2275409920	67	11973
2026-01-02 14:54:47.90	337.23	4.50	-52.7	-62.9	3.8	8.47e-01	0	58	104	2275409920	67	12094
2026-01-02 14:54:48.89	337.26	4.43	-52.8	-63.0	3.8	8.45e-01	0	58	104	2275409920	67	12210
2026-01-02 14:54:49.88	337.29	4.36	-52.9	-63.0	3.8	8.46e-01	0	58	104	2275409920	67	12206
2026-01-02 14:54:50.86	337.32	4.30	-52.8	-63.1	3.8	8.45e-01	0	58	104	2275409920	67	12239
2026-01-02 14:54:51.84	337.35	4.23	-52.8	-63.1	3.8	8.47e-01	0	58	104	2275409920	67	12313
2026-01-02 14:54:52.82	337.38	4.17	-52.7	-63.1	3.8	8.46e-01	0	58	104	2275409920	67	12311
2026-01-02 14:54:53.80	337.42	4.10	-52.9	-63.1	3.8	8.47e-01	0	58	104	2275409920	67	12356
2026-01-02 14:54:54.78	337.45	4.03	-52.9	-63.2	3.8	8.46e-01	0	58	104	2275409920	67	12392
2026-01-02 14:54:55.76	337.48	3.97	-52.9	-63.2	3.8	8.47e-01	0	58	104	2275409920	67	12452
2026-01-02 14:54:56.74	337.51	3.90	-53.0	-63.2	3.8	8.45e-01	0	58	104	2275409920	67	12490
2026-01-02 14:54:57.72	337.54	3.84	-52.9	-63.2	3.8	8.46e-01	0	58	104	2275409920	67	12477
2026-01-02 14:54:58.70	337.57	3.77	-52.9	-63.2	3.8	8.47e-01	0	58	104	2275409920	67	12426
2026-01-02 14:54:59.69	337.60	3.71	-53.0	-63.2	3.8	8.47e-01	0	58	104	2275409920	67	12511
2026-01-02 14:55:00.68	337.63	3.64	-53.0	-63.3	3.8	8.46e-01	0	58	104	2275409920	67	12554
2026-01-02 14:55:01.67	337.66	3.58	-52.9	-63.3	3.8	8.45e-01	0	58	104	2275409920	67	12527
2026-01-02 14:55:02.65	337.69	3.51	-53.0	-63.2	3.8	8.46e-01	0	58	104	2275409920	67	12516
2026-01-02 14:55:03.63	337.72	3.45	-53.0	-63.3	3.8	8.46e-01	0	58	104	2275409920	67	12551
2026-01-02 14:55:04.61	337.75	3.38	-53.1	-63.3	3.8	8.45e-01	0	58	104	2275409920	67	12556
2026-01-02 14:55:05.60	337.78	3.32	-53.1	-63.3	3.8	8.46e-01	0	58	104	2275409920	67	12621
2026-01-02 14:55:06.58	337.81	3.25	-53.1	-63.3	3.8	8.46e-01	0	58	104	2275409920	67	12556
2026-01-02 14:55:07.56	337.84	3.19	-53.1	-63.3	3.8	8.45e-01	0	58	104	2275409920	67	12585
2026-01-02 14:55:08.55	337.87	3.13	-53.1	-63.3	3.8	8.47e-01	0	58	104	2275409920	67	12544
2026-01-02 14:55:09.53	337.90	3.06	-53.0	-63.3	3.8	8.47e-01	0	58	104	2275409920	67	12523
2026-01-02 14:55:10.52	337.93	3.00	-53.0	-63.2	3.8	8.46e-01	0	58	104	2275409920	67	12496
2026-01-02 14:55:11.51	337.96	2.93	-52.8	-63.3	3.8	8.45e-01	0	58	104	2275409920	67	12552

#Closed at: 2026-01-02 14:55:12
#Recorded file [2275 MB]: D:/Data/31026_260102_175440.dat