passes_logs/2026/01/02/R3.0SM8_Murmansk_STILSPACE/R3.0SM8_Murmansk_STILSPACE__20260102_233552_AQUA_rec.log

#Pass ID: 20260102_233552_AQUA
#Satellite: AQUA
#Configuration: AQUA
#almurnet v.1.7.20240730
#Start time: 2026-01-02 23:40:19

#Version: 2.2.20231116
#Station: R3.0SM8_Murmansk_STILSPACE
#Location: 33.092731 lon 68.902999 lat
#TLE: 1 27424U 02022A   25365.92641127  .00002078  00000+0  42628-3 0  9999
#TLE: 2 27424  98.4058 327.1196 0001962  94.7781 340.6230 14.61783896258835

#Time	Az	El	Level	Level2	SNR	BER	BlckErr	Temp	State	Recorded	gain1	gain2
2026-01-02 23:40:19.04	69.65	14.98	-53.3	-64.9	3.8	1.49e+00	0	56	0	0	68	14429
2026-01-02 23:40:20.02	69.89	14.99	-55.0	-74.9	3.8	7.47e-01	0	57	104	0	72	37211
2026-01-02 23:40:21.01	70.13	15.01	-55.0	-74.9	3.8	7.44e-01	0	57	104	0	72	37247
2026-01-02 23:40:22.00	70.37	15.02	-55.0	-75.0	3.8	7.42e-01	0	57	104	0	72	37376
2026-01-02 23:40:22.99	70.62	15.03	-55.0	-74.9	3.8	7.47e-01	0	57	104	0	72	37359
2026-01-02 23:40:23.98	70.86	15.04	-55.0	-74.9	3.8	7.42e-01	0	57	104	0	72	37207
2026-01-02 23:40:24.97	71.10	15.06	-55.0	-74.9	3.8	7.48e-01	0	57	104	0	72	37291
2026-01-02 23:40:25.96	71.34	15.07	-54.9	-74.9	3.8	7.44e-01	0	57	104	0	72	37094
2026-01-02 23:40:26.95	71.59	15.08	-55.0	-74.9	3.8	7.47e-01	0	57	104	0	72	37218
2026-01-02 23:40:27.93	71.83	15.09	-55.0	-74.9	3.8	7.45e-01	0	57	104	0	72	37143
2026-01-02 23:40:28.92	72.07	15.10	-55.0	-74.9	3.8	7.48e-01	0	57	104	0	72	37103
2026-01-02 23:40:29.90	72.31	15.11	-54.9	-74.9	3.8	7.45e-01	0	57	104	0	72	37017
2026-01-02 23:40:30.87	72.55	15.12	-54.9	-74.9	3.8	7.45e-01	0	57	104	0	72	37089
2026-01-02 23:40:31.86	72.79	15.12	-54.9	-74.9	3.8	7.43e-01	0	57	104	0	72	37061
2026-01-02 23:40:32.85	73.04	15.13	-54.9	-74.8	3.8	7.43e-01	0	57	104	0	72	36877
2026-01-02 23:40:33.84	73.28	15.14	-54.9	-74.8	3.8	7.47e-01	0	57	104	0	72	36799
2026-01-02 23:40:34.83	73.53	15.15	-54.9	-74.8	3.8	7.45e-01	0	57	104	0	72	36930
2026-01-02 23:40:35.83	73.77	15.15	-54.9	-74.8	3.8	7.44e-01	0	57	104	0	72	36768
2026-01-02 23:40:36.81	74.01	15.16	-54.9	-74.8	3.8	7.45e-01	0	57	104	0	72	36700
2026-01-02 23:40:37.80	74.26	15.17	-54.8	-74.8	3.8	7.47e-01	0	57	104	0	72	36528
2026-01-02 23:40:38.79	74.50	15.17	-54.8	-74.7	3.8	7.45e-01	0	57	104	0	72	36438
2026-01-02 23:40:39.79	74.75	15.18	-54.8	-74.7	3.8	7.44e-01	0	57	104	0	72	36334
2026-01-02 23:40:40.77	74.99	15.18	-54.7	-74.6	3.8	7.45e-01	0	57	104	0	72	36076
2026-01-02 23:40:41.75	75.24	15.18	-54.7	-74.5	3.8	7.49e-01	0	57	104	0	72	35622
2026-01-02 23:40:42.74	75.48	15.19	-54.6	-74.4	3.8	7.41e-01	0	57	104	0	72	34889
2026-01-02 23:40:43.74	75.73	15.19	-54.6	-74.5	3.8	7.47e-01	0	57	104	0	72	35519
2026-01-02 23:40:44.73	75.97	15.19	-54.6	-74.5	3.8	7.44e-01	0	57	104	0	72	35351
2026-01-02 23:40:45.72	76.22	15.19	-54.6	-74.4	3.8	7.45e-01	0	57	104	0	72	35124
2026-01-02 23:40:46.71	76.46	15.20	-54.6	-74.4	3.8	7.41e-01	0	57	104	0	72	34925
2026-01-02 23:40:47.70	76.71	15.20	-54.6	-74.4	3.8	7.44e-01	0	57	104	0	72	35021
2026-01-02 23:40:48.69	76.95	15.20	-54.6	-74.4	3.8	7.45e-01	0	57	104	0	72	35177
2026-01-02 23:40:49.67	77.20	15.20	-54.6	-74.4	3.8	7.44e-01	0	57	104	0	72	34964
2026-01-02 23:40:50.66	77.44	15.20	-54.6	-74.3	3.8	7.43e-01	0	57	104	0	72	34718
2026-01-02 23:40:51.66	77.69	15.20	-54.6	-74.2	3.8	7.43e-01	0	57	104	0	72	34468
2026-01-02 23:40:52.65	77.93	15.19	-54.6	-74.2	3.8	7.43e-01	0	57	104	0	72	34257
2026-01-02 23:40:53.63	78.18	15.19	-54.6	-74.1	3.8	7.43e-01	0	57	104	0	72	33742
2026-01-02 23:40:54.62	78.42	15.19	-54.6	-73.9	3.8	7.46e-01	0	57	104	0	72	33059
2026-01-02 23:40:55.61	78.67	15.19	-54.6	-73.8	3.8	7.45e-01	0	57	104	0	72	32787
2026-01-02 23:40:56.59	78.91	15.18	-54.6	-73.9	3.8	7.44e-01	0	57	104	0	72	33032
2026-01-02 23:40:57.58	79.16	15.18	-54.6	-74.0	3.8	7.50e-01	0	57	104	0	72	33446
2026-01-02 23:40:58.57	79.40	15.18	-54.6	-74.0	3.8	7.47e-01	0	57	104	0	72	33529
2026-01-02 23:40:59.55	79.64	15.17	-54.6	-73.8	3.8	7.45e-01	0	57	104	0	72	32779
2026-01-02 23:41:00.54	79.89	15.17	-54.6	-73.1	3.8	7.41e-01	0	57	104	0	72	30343
2026-01-02 23:41:01.53	80.13	15.16	-54.5	-72.3	3.8	7.43e-01	0	57	104	0	72	27582
2026-01-02 23:41:02.52	80.38	15.16	-54.5	-71.8	3.9	7.42e-01	0	57	104	0	72	25895
2026-01-02 23:41:03.50	80.62	15.15	-54.5	-71.6	3.9	7.36e-01	0	57	104	0	72	25312
2026-01-02 23:41:04.49	80.86	15.14	-54.5	-72.0	3.9	7.42e-01	0	57	104	0	72	26469
2026-01-02 23:41:05.48	81.11	15.14	-54.5	-72.5	3.9	7.45e-01	0	57	104	0	72	28097
2026-01-02 23:41:06.46	81.35	15.13	-54.6	-73.5	3.8	7.43e-01	0	57	104	0	72	31700
2026-01-02 23:41:07.45	81.59	15.12	-54.6	-74.5	3.8	7.41e-01	0	57	104	0	72	35304
2026-01-02 23:41:08.45	81.84	15.11	-54.5	-69.7	4.5	7.17e-01	0	57	104	0	72	20435
2026-01-02 23:41:09.43	82.08	15.10	-54.2	-64.0	9.0	6.29e-01	0	57	0	1048576	71	11224
2026-01-02 23:41:10.42	82.32	15.09	-53.3	-59.5	13.8	6.02e-01	0	57	0	2621440	70	7115
2026-01-02 23:41:11.41	82.57	15.08	-52.2	-56.3	17.1	6.02e-01	0	57	0	4718592	68	5519
2026-01-02 23:41:12.40	82.81	15.07	-51.0	-54.0	19.3	6.02e-01	0	57	0	6815744	65	5028
2026-01-02 23:41:13.39	83.05	15.06	-50.4	-53.0	20.4	6.01e-01	0	57	0	8388608	64	4739
2026-01-02 23:41:14.37	83.30	15.05	-50.4	-53.1	20.3	6.01e-01	0	57	0	10485760	64	4774
2026-01-02 23:41:15.37	83.54	15.04	-50.5	-53.3	20.1	6.01e-01	0	57	0	12058624	64	4874
2026-01-02 23:41:16.36	83.78	15.02	-50.5	-53.1	20.3	6.02e-01	0	57	0	14155776	64	4801
2026-01-02 23:41:17.35	84.03	15.01	-50.3	-52.9	20.5	6.01e-01	0	57	0	15728640	64	4669
2026-01-02 23:41:18.34	84.27	15.00	-50.2	-52.7	20.6	6.02e-01	0	57	0	17825792	64	4581
2026-01-02 23:41:19.33	84.51	14.98	-50.2	-52.6	20.7	6.03e-01	0	57	0	19398656	63	4812
2026-01-02 23:41:20.32	84.75	14.97	-50.2	-52.6	20.8	6.04e-01	0	57	0	21495808	63	4805
2026-01-02 23:41:21.31	84.99	14.96	-50.0	-52.3	21.2	6.00e-01	0	57	0	23068672	63	4607
2026-01-02 23:41:22.29	85.23	14.94	-49.7	-51.9	21.5	6.00e-01	0	57	0	25165824	63	4420
2026-01-02 23:41:23.29	85.47	14.93	-49.5	-51.6	21.8	6.01e-01	0	57	0	26738688	62	4525
2026-01-02 23:41:24.27	85.71	14.91	-49.3	-51.4	22.1	6.01e-01	0	57	0	28835840	62	4407
2026-01-02 23:41:25.26	85.95	14.89	-49.2	-51.2	22.2	6.02e-01	0	57	0	30932992	62	4331
2026-01-02 23:41:26.25	86.19	14.88	-49.3	-51.3	22.1	6.00e-01	0	57	0	32505856	62	4376
2026-01-02 23:41:27.24	86.43	14.86	-49.3	-51.4	22.1	6.02e-01	0	57	0	34603008	62	4397
2026-01-02 23:41:28.23	86.67	14.84	-49.2	-51.2	22.2	6.00e-01	0	57	0	36175872	62	4305
2026-01-02 23:41:29.22	86.91	14.82	-49.1	-51.1	22.3	5.99e-01	0	57	0	38273024	61	4538
2026-01-02 23:41:30.21	87.15	14.80	-49.1	-51.1	22.3	6.01e-01	0	57	0	39845888	61	4525
2026-01-02 23:41:31.20	87.39	14.79	-49.1	-51.0	22.3	6.02e-01	0	57	0	41943040	61	4488
2026-01-02 23:41:32.18	87.63	14.77	-49.2	-51.1	22.2	6.02e-01	0	57	0	43515904	61	4541
2026-01-02 23:41:33.18	87.87	14.75	-49.2	-51.2	22.1	6.02e-01	0	57	0	45613056	61	4593
2026-01-02 23:41:34.16	88.10	14.73	-49.2	-51.3	22.2	6.01e-01	0	57	0	47185920	61	4600
2026-01-02 23:41:35.15	88.34	14.71	-49.4	-51.4	22.0	5.98e-01	0	57	0	49283072	61	4694
2026-01-02 23:41:36.13	88.57	14.68	-49.4	-51.5	21.8	6.03e-01	0	57	0	50855936	61	4753
2026-01-02 23:41:37.12	88.81	14.66	-49.3	-51.3	22.1	5.98e-01	0	57	0	52953088	61	4631
2026-01-02 23:41:38.11	89.05	14.64	-49.2	-51.2	22.2	5.99e-01	0	57	0	54525952	61	4560
2026-01-02 23:41:39.09	89.28	14.62	-49.3	-51.3	22.1	5.99e-01	0	57	0	56623104	61	4633
2026-01-02 23:41:40.08	89.51	14.60	-49.4	-51.6	21.8	6.03e-01	0	57	0	58195968	61	4763
2026-01-02 23:41:41.07	89.75	14.57	-49.5	-51.7	21.7	6.03e-01	0	57	0	60293120	61	4842
2026-01-02 23:41:42.06	89.98	14.55	-49.5	-51.6	21.8	6.03e-01	0	57	0	62390272	61	4786
2026-01-02 23:41:43.04	90.22	14.53	-49.4	-51.5	21.9	6.02e-01	0	57	0	63963136	61	4752
2026-01-02 23:41:44.03	90.45	14.50	-49.4	-51.5	21.9	6.02e-01	0	57	0	66060288	61	4748
2026-01-02 23:41:45.02	90.68	14.48	-49.5	-51.7	21.7	6.00e-01	0	57	0	67633152	61	4822
2026-01-02 23:41:46.00	90.92	14.45	-49.7	-51.9	21.5	6.01e-01	0	57	0	69730304	61	4958
2026-01-02 23:41:46.99	91.15	14.43	-49.5	-51.7	21.7	6.01e-01	0	57	0	71303168	61	4825
2026-01-02 23:41:47.98	91.38	14.40	-49.6	-51.8	21.6	6.00e-01	0	57	0	73400320	61	4902
2026-01-02 23:41:48.97	91.61	14.38	-49.8	-52.0	21.4	6.00e-01	0	57	0	74973184	61	5016
2026-01-02 23:41:49.96	91.84	14.35	-49.6	-51.8	21.6	6.02e-01	0	57	0	77070336	61	4918
2026-01-02 23:41:50.95	92.08	14.32	-49.5	-51.7	21.7	6.00e-01	0	57	0	78643200	61	4823
2026-01-02 23:41:51.94	92.31	14.29	-49.4	-51.5	21.9	6.00e-01	0	57	0	80740352	61	4732
2026-01-02 23:41:52.93	92.54	14.27	-49.4	-51.5	21.8	6.00e-01	0	57	0	82313216	61	4758
2026-01-02 23:41:53.91	92.76	14.24	-49.6	-51.8	21.5	5.97e-01	0	57	0	84410368	61	4915
2026-01-02 23:41:54.90	92.99	14.21	-49.5	-51.6	21.7	5.98e-01	0	57	0	86507520	61	4783
2026-01-02 23:41:55.88	93.22	14.18	-49.7	-52.0	21.4	6.00e-01	0	57	0	88080384	61	4998
2026-01-02 23:41:56.87	93.45	14.15	-49.7	-51.9	21.5	6.03e-01	0	57	0	90177536	61	4944
2026-01-02 23:41:57.87	93.68	14.12	-49.4	-51.5	21.8	6.03e-01	0	57	0	91750400	61	4753
2026-01-02 23:41:58.85	93.90	14.09	-49.2	-51.3	22.1	6.00e-01	0	57	0	93847552	61	4608
2026-01-02 23:41:59.84	94.13	14.06	-49.2	-51.3	22.1	6.00e-01	0	57	0	95420416	61	4610
2026-01-02 23:42:00.83	94.36	14.03	-49.2	-51.3	22.1	6.00e-01	0	57	0	97517568	61	4599
2026-01-02 23:42:01.82	94.58	14.00	-49.3	-51.4	21.9	6.00e-01	0	57	0	99090432	61	4655
2026-01-02 23:42:02.81	94.81	13.97	-49.3	-51.3	22.0	6.01e-01	0	57	0	101187584	61	4639
2026-01-02 23:42:03.81	95.04	13.94	-49.1	-51.1	22.1	5.99e-01	0	57	0	102760448	61	4522
2026-01-02 23:42:04.80	95.26	13.91	-49.2	-51.3	22.1	6.00e-01	0	57	0	104857600	61	4611
2026-01-02 23:42:05.78	95.48	13.87	-49.4	-51.5	21.9	6.00e-01	0	57	0	106430464	61	4741
2026-01-02 23:42:06.77	95.71	13.84	-49.4	-51.5	21.9	6.01e-01	0	57	0	108527616	61	4708
2026-01-02 23:42:07.76	95.93	13.81	-49.5	-51.6	21.8	6.01e-01	0	57	0	110624768	61	4779
2026-01-02 23:42:08.74	96.15	13.77	-49.4	-51.5	21.9	5.99e-01	0	57	0	112197632	61	4724
2026-01-02 23:42:09.72	96.37	13.74	-49.4	-51.5	21.9	6.03e-01	0	57	0	113770496	61	4709
2026-01-02 23:42:10.72	96.59	13.71	-49.4	-51.5	21.9	6.01e-01	0	57	0	115867648	61	4746
2026-01-02 23:42:11.70	96.81	13.67	-49.3	-51.4	22.0	6.02e-01	0	57	0	117964800	61	4654
2026-01-02 23:42:12.69	97.03	13.64	-49.2	-51.2	22.1	6.01e-01	0	57	0	119537664	61	4581
2026-01-02 23:42:13.68	97.25	13.60	-49.2	-51.2	22.1	6.01e-01	0	57	0	121634816	61	4584
2026-01-02 23:42:14.66	97.47	13.57	-49.3	-51.4	22.0	6.00e-01	0	57	0	123207680	61	4682
2026-01-02 23:42:15.66	97.69	13.53	-49.4	-51.5	21.8	5.97e-01	0	57	0	125304832	61	4748
2026-01-02 23:42:16.65	97.91	13.50	-49.4	-51.5	21.9	6.01e-01	0	57	0	126877696	61	4747
2026-01-02 23:42:17.64	98.13	13.46	-49.4	-51.6	21.8	6.02e-01	0	57	0	128974848	61	4764
2026-01-02 23:42:18.63	98.34	13.42	-49.5	-51.7	21.7	6.02e-01	0	57	0	130547712	61	4819
2026-01-02 23:42:19.62	98.56	13.39	-49.5	-51.6	21.7	6.03e-01	0	57	0	132644864	61	4772
2026-01-02 23:42:20.61	98.78	13.35	-49.3	-51.4	22.0	6.00e-01	0	57	0	134217728	61	4656
2026-01-02 23:42:21.59	98.99	13.31	-49.3	-51.3	22.1	6.03e-01	0	57	0	136314880	61	4624
2026-01-02 23:42:22.57	99.20	13.28	-49.3	-51.3	22.1	6.00e-01	0	57	0	137887744	61	4618
2026-01-02 23:42:23.56	99.42	13.24	-49.3	-51.4	21.9	5.99e-01	0	57	0	139984896	61	4686
2026-01-02 23:42:24.55	99.63	13.20	-49.4	-51.5	21.9	6.01e-01	0	57	0	142082048	61	4722
2026-01-02 23:42:25.54	99.84	13.16	-49.4	-51.4	21.9	5.99e-01	0	57	0	143654912	61	4704
2026-01-02 23:42:26.51	100.05	13.12	-49.4	-51.6	21.8	6.01e-01	0	57	0	145752064	61	4764
2026-01-02 23:42:27.50	100.26	13.08	-49.6	-51.8	21.5	6.02e-01	0	57	0	147324928	61	4906
2026-01-02 23:42:28.48	100.47	13.05	-49.6	-51.8	21.5	6.02e-01	0	57	0	149422080	61	4921
2026-01-02 23:42:29.47	100.68	13.01	-49.5	-51.6	21.7	5.99e-01	0	57	0	150994944	61	4803
2026-01-02 23:42:30.45	100.89	12.97	-49.4	-51.5	21.9	6.00e-01	0	57	0	153092096	61	4706
2026-01-02 23:42:31.45	101.10	12.93	-49.4	-51.4	21.9	6.00e-01	0	57	0	154664960	61	4693
2026-01-02 23:42:32.44	101.31	12.89	-49.4	-51.4	21.9	6.00e-01	0	57	0	156762112	61	4694
2026-01-02 23:42:33.43	101.52	12.84	-49.4	-51.4	21.8	6.00e-01	0	57	0	158334976	61	4698
2026-01-02 23:42:34.42	101.73	12.80	-49.6	-51.8	21.6	6.00e-01	0	57	0	160432128	61	4875
2026-01-02 23:42:35.39	101.93	12.76	-49.7	-51.9	21.4	6.03e-01	0	57	0	162004992	61	4979
2026-01-02 23:42:36.39	102.14	12.72	-49.4	-51.6	21.7	6.01e-01	0	57	0	164102144	61	4779
2026-01-02 23:42:37.38	102.35	12.68	-49.3	-51.3	22.0	6.00e-01	0	57	0	165675008	61	4638
2026-01-02 23:42:38.37	102.55	12.64	-49.2	-51.2	22.1	5.98e-01	0	57	0	167772160	61	4548
2026-01-02 23:42:39.36	102.76	12.60	-49.2	-51.2	22.2	6.00e-01	0	57	0	169869312	61	4555
2026-01-02 23:42:40.35	102.96	12.55	-49.2	-51.2	22.0	6.01e-01	0	57	0	171442176	61	4598
2026-01-02 23:42:41.33	103.16	12.51	-49.3	-51.4	21.9	6.01e-01	0	57	0	173015040	61	4667
2026-01-02 23:42:42.31	103.37	12.47	-49.3	-51.3	21.9	6.02e-01	0	57	0	175112192	61	4623
2026-01-02 23:42:43.31	103.57	12.43	-49.4	-51.5	21.8	6.03e-01	0	57	0	177209344	61	4740
2026-01-02 23:42:44.29	103.77	12.38	-49.5	-51.6	21.6	5.98e-01	0	57	0	178782208	61	4804
2026-01-02 23:42:45.28	103.97	12.34	-49.2	-51.2	22.0	6.02e-01	0	57	0	180879360	61	4593
2026-01-02 23:42:46.28	104.17	12.30	-49.1	-51.1	22.2	6.01e-01	0	57	0	182452224	61	4527
2026-01-02 23:42:47.27	104.37	12.25	-49.2	-51.2	22.2	5.99e-01	0	57	0	184549376	61	4572
2026-01-02 23:42:48.25	104.57	12.21	-49.3	-51.4	22.0	6.03e-01	0	57	0	186122240	61	4662
2026-01-02 23:42:49.24	104.77	12.16	-49.4	-51.5	21.8	6.02e-01	0	57	0	188219392	61	4754
2026-01-02 23:42:50.23	104.97	12.12	-49.4	-51.5	21.8	6.05e-01	0	57	0	189792256	61	4721
2026-01-02 23:42:51.22	105.17	12.07	-49.4	-51.5	21.8	6.01e-01	0	57	0	191889408	61	4734
2026-01-02 23:42:52.21	105.36	12.03	-49.5	-51.6	21.7	6.02e-01	0	57	0	193462272	61	4811
2026-01-02 23:42:53.20	105.56	11.98	-49.3	-51.4	21.9	6.01e-01	0	57	0	195559424	61	4697
2026-01-02 23:42:54.19	105.76	11.94	-49.2	-51.2	22.1	6.00e-01	0	57	0	197656576	61	4595
2026-01-02 23:42:55.18	105.95	11.89	-49.2	-51.2	22.1	6.03e-01	0	57	0	199229440	61	4578
2026-01-02 23:42:56.17	106.14	11.85	-49.2	-51.2	22.0	6.03e-01	0	57	0	201326592	61	4574
2026-01-02 23:42:57.15	106.34	11.80	-49.2	-51.2	22.0	5.99e-01	0	57	0	202899456	61	4586
2026-01-02 23:42:58.14	106.53	11.76	-49.3	-51.4	21.9	6.02e-01	0	57	0	204996608	61	4680
2026-01-02 23:42:59.13	106.72	11.71	-49.2	-51.3	21.9	6.00e-01	0	57	0	206569472	61	4619
2026-01-02 23:43:00.12	106.91	11.66	-49.4	-51.6	21.7	6.01e-01	0	57	0	208666624	61	4762
2026-01-02 23:43:01.11	107.11	11.62	-49.6	-51.8	21.5	6.03e-01	0	57	0	210239488	61	4880
2026-01-02 23:43:02.09	107.29	11.57	-49.4	-51.5	21.9	6.01e-01	0	57	0	212336640	61	4724
2026-01-02 23:43:03.08	107.48	11.52	-49.2	-51.3	21.9	6.02e-01	0	57	0	213909504	61	4619
2026-01-02 23:43:04.07	107.67	11.48	-49.2	-51.3	21.9	6.03e-01	0	57	0	216006656	61	4629
2026-01-02 23:43:05.05	107.86	11.43	-49.3	-51.4	21.9	5.99e-01	0	57	0	217579520	61	4679
2026-01-02 23:43:06.05	108.05	11.38	-49.4	-51.5	21.8	6.04e-01	0	57	0	219676672	61	4717
2026-01-02 23:43:07.03	108.24	11.34	-49.3	-51.4	21.9	6.00e-01	0	57	0	221249536	61	4691
2026-01-02 23:43:08.02	108.42	11.29	-49.4	-51.5	21.8	6.00e-01	0	57	0	223346688	61	4709
2026-01-02 23:43:09.01	108.61	11.24	-49.5	-51.6	21.7	6.01e-01	0	57	0	225443840	61	4801
2026-01-02 23:43:09.99	108.79	11.19	-49.6	-51.8	21.5	6.00e-01	0	57	0	227016704	61	4892
2026-01-02 23:43:10.98	108.98	11.14	-49.4	-51.6	21.7	6.02e-01	0	57	0	229113856	61	4779
2026-01-02 23:43:11.97	109.16	11.10	-49.5	-51.7	21.6	6.03e-01	0	57	0	230686720	61	4830
2026-01-02 23:43:12.95	109.34	11.05	-49.5	-51.6	21.6	6.05e-01	0	57	0	232783872	61	4795
2026-01-02 23:43:13.95	109.53	11.00	-49.6	-51.8	21.5	6.01e-01	0	57	0	234356736	61	4912
2026-01-02 23:43:14.93	109.71	10.95	-49.8	-52.1	21.2	6.00e-01	0	57	0	236453888	61	5063
2026-01-02 23:43:15.91	109.89	10.90	-49.7	-51.9	21.3	6.01e-01	0	57	0	238026752	61	4962
2026-01-02 23:43:16.90	110.07	10.85	-49.9	-52.2	21.1	6.02e-01	0	57	0	240123904	61	5141
2026-01-02 23:43:17.89	110.25	10.80	-50.0	-52.4	21.0	6.02e-01	0	57	0	241696768	62	4945
2026-01-02 23:43:18.88	110.43	10.76	-49.8	-52.1	21.1	6.02e-01	0	57	0	243793920	62	4810
2026-01-02 23:43:19.86	110.61	10.71	-49.7	-52.0	21.3	5.99e-01	0	57	0	245366784	62	4725
2026-01-02 23:43:20.85	110.79	10.66	-49.6	-51.8	21.5	5.99e-01	0	57	0	247463936	62	4644
2026-01-02 23:43:21.84	110.96	10.61	-49.6	-51.9	21.4	6.05e-01	0	57	0	249036800	62	4653
2026-01-02 23:43:22.83	111.14	10.56	-49.6	-51.8	21.5	6.02e-01	0	57	0	251133952	62	4635
2026-01-02 23:43:23.81	111.32	10.51	-49.8	-52.1	21.2	6.01e-01	0	57	0	252706816	62	4789
2026-01-02 23:43:24.80	111.49	10.46	-49.7	-52.0	21.3	5.99e-01	0	57	0	254803968	62	4729
2026-01-02 23:43:25.80	111.67	10.41	-49.9	-52.3	21.1	6.02e-01	0	57	0	256901120	62	4878
2026-01-02 23:43:26.78	111.84	10.36	-49.8	-52.1	21.2	5.99e-01	0	57	0	258473984	62	4772
2026-01-02 23:43:27.77	112.02	10.31	-49.6	-51.8	21.4	6.00e-01	0	57	0	260571136	62	4645
2026-01-02 23:43:28.75	112.19	10.26	-49.5	-51.6	21.5	6.01e-01	0	57	0	262144000	62	4536
2026-01-02 23:43:29.73	112.36	10.21	-49.5	-51.7	21.5	6.00e-01	0	57	0	264241152	62	4595
2026-01-02 23:43:30.71	112.53	10.16	-49.6	-51.8	21.4	6.03e-01	0	57	0	265814016	62	4630
2026-01-02 23:43:31.69	112.70	10.11	-49.6	-51.8	21.5	6.00e-01	0	57	0	267911168	62	4627
2026-01-02 23:43:32.68	112.87	10.06	-49.5	-51.7	21.5	6.02e-01	0	57	0	269484032	62	4577
2026-01-02 23:43:33.67	113.04	10.01	-49.5	-51.7	21.5	6.00e-01	0	57	0	271581184	62	4589
2026-01-02 23:43:34.66	113.21	9.96	-49.5	-51.7	21.5	6.00e-01	0	57	0	273154048	62	4593
2026-01-02 23:43:35.65	113.38	9.90	-49.6	-51.9	21.4	6.01e-01	0	57	0	275251200	62	4682
2026-01-02 23:43:36.64	113.55	9.85	-49.6	-51.9	21.3	6.03e-01	0	57	0	276824064	62	4683
2026-01-02 23:43:37.63	113.72	9.80	-49.7	-52.0	21.3	6.00e-01	0	57	0	278921216	62	4709
2026-01-02 23:43:38.62	113.89	9.75	-49.8	-52.1	21.1	6.00e-01	0	57	0	280494080	62	4806
2026-01-02 23:43:39.61	114.05	9.70	-49.7	-52.1	21.2	6.00e-01	0	57	0	282591232	62	4762
2026-01-02 23:43:40.60	114.22	9.65	-49.6	-51.9	21.3	5.97e-01	0	57	0	284688384	62	4671
2026-01-02 23:43:41.58	114.38	9.60	-49.7	-52.0	21.3	5.99e-01	0	57	0	286261248	62	4711
2026-01-02 23:43:42.57	114.55	9.55	-49.8	-52.1	21.0	6.00e-01	0	57	0	288358400	62	4810
2026-01-02 23:43:43.56	114.71	9.49	-49.9	-52.2	21.0	6.01e-01	0	57	0	289931264	62	4858
2026-01-02 23:43:44.55	114.88	9.44	-49.8	-52.2	20.9	5.99e-01	0	57	0	292028416	62	4855
2026-01-02 23:43:45.54	115.04	9.39	-50.1	-52.5	20.7	6.00e-01	0	57	0	293601280	62	5033
2026-01-02 23:43:46.53	115.20	9.34	-50.0	-52.5	20.8	6.01e-01	0	57	0	295698432	62	5031
2026-01-02 23:43:47.52	115.36	9.29	-49.9	-52.4	20.9	5.99e-01	0	57	0	297271296	62	4929
2026-01-02 23:43:48.50	115.52	9.23	-49.9	-52.3	20.9	6.03e-01	0	57	0	299368448	62	4881
2026-01-02 23:43:49.49	115.69	9.18	-49.8	-52.2	21.0	6.02e-01	0	58	0	300941312	62	4845
2026-01-02 23:43:50.48	115.85	9.13	-49.9	-52.3	20.9	6.00e-01	0	57	0	303038464	62	4916
2026-01-02 23:43:51.47	116.00	9.08	-50.0	-52.4	20.9	6.00e-01	0	57	0	304611328	62	4953
2026-01-02 23:43:52.45	116.16	9.03	-49.8	-52.1	21.0	6.02e-01	0	57	0	306708480	62	4806
2026-01-02 23:43:53.45	116.32	8.97	-49.7	-52.1	21.1	6.00e-01	0	57	0	308805632	62	4777
2026-01-02 23:43:54.43	116.48	8.92	-49.8	-52.2	21.0	6.02e-01	0	57	0	310378496	62	4821
2026-01-02 23:43:55.42	116.64	8.87	-49.8	-52.2	21.0	6.01e-01	0	57	0	311951360	62	4835
2026-01-02 23:43:56.41	116.79	8.82	-49.9	-52.3	20.8	6.00e-01	0	57	0	314048512	62	4916
2026-01-02 23:43:57.39	116.95	8.76	-49.9	-52.4	20.7	6.03e-01	0	57	0	316145664	62	4931
2026-01-02 23:43:58.38	117.10	8.71	-49.8	-52.2	20.9	6.03e-01	0	57	0	317718528	62	4833
2026-01-02 23:43:59.37	117.26	8.66	-49.8	-52.2	20.9	6.01e-01	0	57	0	319815680	62	4835
2026-01-02 23:44:00.36	117.41	8.61	-50.0	-52.4	20.8	6.00e-01	0	57	0	321388544	62	4962
2026-01-02 23:44:01.35	117.57	8.55	-50.0	-52.5	20.7	5.98e-01	0	58	0	323485696	62	5010
2026-01-02 23:44:02.34	117.72	8.50	-50.0	-52.5	20.7	6.00e-01	0	57	0	325058560	62	4990
2026-01-02 23:44:03.33	117.87	8.45	-50.0	-52.6	20.6	6.01e-01	0	57	0	327155712	62	5048
2026-01-02 23:44:04.32	118.02	8.39	-50.0	-52.5	20.6	6.00e-01	0	57	0	328728576	62	5017
2026-01-02 23:44:05.30	118.17	8.34	-50.2	-52.8	20.4	6.02e-01	0	58	0	330825728	62	5174
2026-01-02 23:44:06.29	118.32	8.29	-50.3	-52.9	20.2	6.02e-01	0	57	0	332398592	62	5279
2026-01-02 23:44:07.28	118.47	8.24	-50.1	-52.7	20.5	6.01e-01	0	57	0	334495744	62	5140
2026-01-02 23:44:08.26	118.62	8.18	-50.0	-52.5	20.7	6.02e-01	0	57	0	336068608	62	5011
2026-01-02 23:44:09.25	118.77	8.13	-49.9	-52.4	20.8	6.02e-01	0	57	0	338165760	62	4954
2026-01-02 23:44:10.24	118.92	8.08	-49.9	-52.4	20.7	6.04e-01	0	57	0	340262912	62	4940
2026-01-02 23:44:11.23	119.07	8.02	-50.0	-52.5	20.7	6.00e-01	0	57	0	341835776	62	5026
2026-01-02 23:44:12.22	119.21	7.97	-49.9	-52.4	20.7	6.01e-01	0	58	0	343932928	62	4966
2026-01-02 23:44:13.21	119.36	7.92	-50.1	-52.6	20.5	6.01e-01	0	58	0	345505792	62	5085
2026-01-02 23:44:14.19	119.51	7.87	-50.0	-52.5	20.6	6.00e-01	0	57	0	347602944	62	5018
2026-01-02 23:44:15.18	119.65	7.81	-50.1	-52.7	20.4	6.00e-01	0	57	0	349175808	62	5148
2026-01-02 23:44:16.17	119.80	7.76	-50.3	-53.0	20.1	6.03e-01	0	57	0	351272960	62	5280
2026-01-02 23:44:17.16	119.94	7.71	-50.2	-52.9	20.2	6.02e-01	0	57	0	352845824	62	5242
2026-01-02 23:44:18.15	120.09	7.65	-50.4	-53.1	20.0	6.02e-01	0	57	0	354942976	63	5083
2026-01-02 23:44:19.14	120.23	7.60	-50.3	-53.0	20.1	5.97e-01	0	57	0	356515840	63	5018
2026-01-02 23:44:20.12	120.37	7.55	-50.4	-53.2	19.9	5.99e-01	0	57	0	358612992	63	5120
2026-01-02 23:44:21.11	120.51	7.49	-50.4	-53.2	19.8	6.00e-01	0	57	0	360185856	63	5148
2026-01-02 23:44:22.10	120.66	7.44	-50.5	-53.4	19.7	6.00e-01	0	57	0	362283008	63	5236
2026-01-02 23:44:23.08	120.79	7.39	-50.4	-53.3	19.8	6.02e-01	0	57	0	363855872	63	5183
2026-01-02 23:44:24.07	120.94	7.33	-50.6	-53.6	19.5	6.03e-01	0	57	0	365953024	63	5353
2026-01-02 23:44:25.06	121.08	7.28	-50.8	-54.0	19.1	6.03e-01	0	57	0	368050176	64	5333
2026-01-02 23:44:26.05	121.22	7.23	-50.5	-53.4	19.6	5.99e-01	0	58	0	369623040	64	4978
2026-01-02 23:44:27.04	121.35	7.17	-50.2	-53.0	19.9	6.02e-01	0	57	0	371195904	64	4707
2026-01-02 23:44:28.02	121.49	7.12	-50.2	-52.8	20.2	5.98e-01	0	57	0	373293056	63	4915
2026-01-02 23:44:29.00	121.63	7.07	-50.4	-53.2	20.0	6.02e-01	0	57	0	375390208	63	5135
2026-01-02 23:44:29.98	121.76	7.01	-50.4	-53.2	20.0	6.03e-01	0	57	0	376963072	63	5107
2026-01-02 23:44:30.96	121.90	6.96	-50.4	-53.2	19.8	6.02e-01	0	57	0	379060224	63	5144
2026-01-02 23:44:31.95	122.04	6.91	-50.3	-53.1	19.9	6.02e-01	0	57	0	380633088	63	5068
2026-01-02 23:44:32.94	122.17	6.85	-50.3	-53.1	19.9	6.01e-01	0	57	0	382730240	63	5083
2026-01-02 23:44:33.93	122.31	6.80	-50.4	-53.2	19.8	6.00e-01	0	57	0	384303104	63	5120
2026-01-02 23:44:34.91	122.44	6.75	-50.3	-53.1	19.8	6.00e-01	0	57	0	386400256	63	5093
2026-01-02 23:44:35.90	122.58	6.69	-50.5	-53.5	19.6	6.01e-01	0	57	0	387973120	63	5284
2026-01-02 23:44:36.89	122.71	6.64	-50.4	-53.3	19.7	6.01e-01	0	58	0	390070272	63	5179
2026-01-02 23:44:37.88	122.84	6.59	-50.3	-53.1	19.9	6.02e-01	0	58	0	391643136	63	5072
2026-01-02 23:44:38.86	122.98	6.53	-50.1	-52.8	20.1	6.01e-01	0	57	0	393740288	63	4922
2026-01-02 23:44:39.85	123.11	6.48	-50.0	-52.7	20.2	6.03e-01	0	58	0	395313152	63	4827
2026-01-02 23:44:40.84	123.24	6.43	-50.0	-52.7	20.1	6.01e-01	0	57	0	397410304	63	4849
2026-01-02 23:44:41.83	123.37	6.37	-50.0	-52.7	20.2	6.02e-01	0	57	0	398983168	63	4823
2026-01-02 23:44:42.82	123.50	6.32	-50.0	-52.7	20.2	6.00e-01	0	57	0	401080320	63	4829
2026-01-02 23:44:43.81	123.63	6.27	-50.1	-52.8	20.2	6.00e-01	0	57	0	403177472	63	4911
2026-01-02 23:44:44.80	123.76	6.21	-50.2	-53.0	19.9	6.01e-01	0	57	0	404750336	63	5033
2026-01-02 23:44:45.79	123.89	6.16	-50.2	-53.0	20.0	6.01e-01	0	57	0	406847488	63	4999
2026-01-02 23:44:46.78	124.02	6.11	-50.0	-52.7	20.1	6.00e-01	0	57	0	408420352	63	4861
2026-01-02 23:44:47.77	124.15	6.05	-50.1	-52.9	20.0	6.00e-01	0	57	0	410517504	63	4927
2026-01-02 23:44:48.76	124.28	6.00	-50.2	-53.0	20.0	6.01e-01	0	57	0	412090368	63	5003
2026-01-02 23:44:49.74	124.40	5.95	-50.2	-53.0	19.8	6.01e-01	0	57	0	414187520	63	4996
2026-01-02 23:44:50.73	124.53	5.89	-50.1	-52.9	19.9	6.03e-01	0	57	0	415760384	63	4960
2026-01-02 23:44:51.72	124.66	5.84	-50.2	-53.0	19.8	6.01e-01	0	57	0	417857536	63	5013
2026-01-02 23:44:52.70	124.78	5.79	-50.3	-53.2	19.6	6.01e-01	0	57	0	419430400	63	5157
2026-01-02 23:44:53.69	124.91	5.73	-50.3	-53.2	19.7	6.03e-01	0	58	0	421527552	63	5136
2026-01-02 23:44:54.67	125.03	5.68	-50.2	-53.1	19.7	6.03e-01	0	58	0	423100416	63	5056
2026-01-02 23:44:55.66	125.16	5.63	-50.3	-53.2	19.7	6.02e-01	0	57	0	425197568	63	5115
2026-01-02 23:44:56.65	125.28	5.57	-50.5	-53.5	19.4	6.01e-01	0	57	0	427294720	63	5309
2026-01-02 23:44:57.64	125.40	5.52	-50.4	-53.4	19.5	6.03e-01	0	58	0	428867584	63	5235
2026-01-02 23:44:58.62	125.52	5.47	-50.4	-53.4	19.4	6.00e-01	0	57	0	430964736	63	5258
2026-01-02 23:44:59.62	125.65	5.41	-50.6	-53.8	19.0	5.99e-01	0	57	0	432537600	63	5484
2026-01-02 23:45:00.60	125.77	5.36	-50.5	-53.6	19.2	6.00e-01	0	57	0	434634752	63	5393
2026-01-02 23:45:01.59	125.89	5.31	-50.5	-53.5	19.3	6.00e-01	0	57	0	436207616	63	5309
2026-01-02 23:45:02.58	126.01	5.26	-50.3	-53.2	19.5	5.99e-01	0	57	0	438304768	63	5150
2026-01-02 23:45:03.57	126.13	5.20	-50.3	-53.3	19.5	6.01e-01	0	57	0	439877632	63	5179
2026-01-02 23:45:04.56	126.25	5.15	-50.3	-53.3	19.5	6.03e-01	0	58	0	441974784	63	5189
2026-01-02 23:45:05.55	126.37	5.10	-50.4	-53.4	19.3	6.01e-01	0	57	0	443547648	63	5271
2026-01-02 23:45:06.54	126.49	5.04	-50.5	-53.6	19.2	6.01e-01	0	57	0	445644800	63	5385
2026-01-02 23:45:07.53	126.61	4.99	-54.0	-73.0	3.7	7.49e-01	0	57	104	446693376	70	33425
2026-01-02 23:45:08.52	126.73	4.94	-54.3	-74.1	3.8	7.45e-01	0	58	104	446693376	70	38222
2026-01-02 23:45:09.50	126.85	4.88	-54.5	-74.4	3.8	7.46e-01	0	57	104	446693376	71	37069
2026-01-02 23:45:10.49	126.96	4.83	-54.6	-74.5	3.8	7.45e-01	0	57	104	446693376	71	37613
2026-01-02 23:45:11.48	127.08	4.78	-54.7	-74.6	3.8	7.47e-01	0	57	104	446693376	71	38063
2026-01-02 23:45:12.47	127.20	4.73	-54.8	-74.7	3.8	7.48e-01	0	58	104	446693376	71	38353
2026-01-02 23:45:13.45	127.31	4.67	-54.8	-74.7	3.8	7.43e-01	0	57	104	446693376	71	38565
2026-01-02 23:45:14.44	127.43	4.62	-54.9	-74.8	3.8	7.45e-01	0	58	104	446693376	71	38832
2026-01-02 23:45:15.43	127.54	4.57	-54.9	-74.8	3.8	7.48e-01	0	58	104	446693376	71	38885
2026-01-02 23:45:16.42	127.66	4.51	-54.9	-74.8	3.8	7.45e-01	0	58	104	446693376	71	38887
2026-01-02 23:45:17.41	127.77	4.46	-54.8	-74.7	3.8	7.46e-01	0	58	104	446693376	71	38311
2026-01-02 23:45:18.40	127.89	4.41	-54.9	-74.8	3.8	7.42e-01	0	58	104	446693376	72	36867
2026-01-02 23:45:19.39	128.00	4.36	-54.9	-74.8	3.8	7.46e-01	0	58	104	446693376	72	36790
2026-01-02 23:45:20.38	128.11	4.30	-54.9	-74.9	3.8	7.45e-01	0	58	104	446693376	72	36951
2026-01-02 23:45:21.37	128.23	4.25	-54.9	-74.9	3.8	7.49e-01	0	58	104	446693376	72	37006
2026-01-02 23:45:22.36	128.34	4.20	-54.9	-74.9	3.8	7.41e-01	0	58	104	446693376	72	37072
2026-01-02 23:45:23.35	128.45	4.14	-55.0	-74.9	3.8	7.42e-01	0	58	104	446693376	72	37152
2026-01-02 23:45:24.35	128.56	4.09	-55.0	-74.9	3.8	7.43e-01	0	58	104	446693376	72	37221
2026-01-02 23:45:25.33	128.67	4.04	-55.0	-74.9	3.8	7.44e-01	0	58	104	446693376	72	37229
2026-01-02 23:45:26.33	128.79	3.99	-55.0	-74.9	3.8	7.43e-01	0	58	104	446693376	72	37325
2026-01-02 23:45:27.32	128.90	3.93	-55.0	-74.9	3.8	7.45e-01	0	58	104	446693376	72	37362
2026-01-02 23:45:28.30	129.01	3.88	-55.0	-74.9	3.8	7.48e-01	0	58	104	446693376	72	37329
2026-01-02 23:45:29.29	129.11	3.83	-55.0	-75.0	3.8	7.46e-01	0	58	104	446693376	72	37523
2026-01-02 23:45:30.28	129.22	3.78	-55.0	-75.0	3.8	7.44e-01	0	58	104	446693376	72	37564
2026-01-02 23:45:31.26	129.33	3.73	-55.1	-75.0	3.8	7.42e-01	0	58	104	446693376	72	37518
2026-01-02 23:45:32.25	129.44	3.67	-55.0	-75.0	3.8	7.47e-01	0	58	104	446693376	72	37511
2026-01-02 23:45:33.24	129.55	3.62	-55.0	-75.0	3.8	7.44e-01	0	58	104	446693376	72	37442
2026-01-02 23:45:34.24	129.66	3.57	-55.0	-75.0	3.8	7.45e-01	0	58	104	446693376	72	37494
2026-01-02 23:45:35.23	129.76	3.52	-55.0	-75.0	3.8	7.46e-01	0	58	104	446693376	72	37382
2026-01-02 23:45:36.22	129.87	3.46	-55.0	-75.0	3.8	7.43e-01	0	58	104	446693376	72	37414
2026-01-02 23:45:37.21	129.98	3.41	-55.0	-74.9	3.8	7.46e-01	0	58	104	446693376	72	37321
2026-01-02 23:45:38.20	130.08	3.36	-55.0	-74.9	3.8	7.46e-01	0	58	104	446693376	72	37302
2026-01-02 23:45:39.20	130.19	3.31	-55.0	-74.9	3.8	7.44e-01	0	58	104	446693376	72	37346
2026-01-02 23:45:40.19	130.29	3.25	-55.0	-74.9	3.8	7.46e-01	0	57	104	446693376	72	37271
2026-01-02 23:45:41.17	130.40	3.20	-55.0	-74.9	3.8	7.47e-01	0	58	104	446693376	72	37320
2026-01-02 23:45:42.16	130.50	3.15	-55.0	-74.9	3.8	7.45e-01	0	58	104	446693376	72	37314
2026-01-02 23:45:43.15	130.60	3.10	-55.0	-74.9	3.8	7.45e-01	0	58	104	446693376	72	37340
2026-01-02 23:45:44.13	130.71	3.05	-55.0	-75.0	3.8	7.46e-01	0	58	104	446693376	72	37384
2026-01-02 23:45:45.13	130.81	2.99	-55.0	-74.9	3.8	7.44e-01	0	58	104	446693376	72	37337

#Closed at: 2026-01-02 23:45:45
#Recorded file [446 MB]: D:/Data/31026_260103_024507.dat