passes_logs/2026/01/02/R3.0SM8_Murmansk_STILSPACE/R3.0SM8_Murmansk_STILSPACE__20260102_235607_SUOMI_NPP_rec.log

#Pass ID: 20260102_235607_SUOMI NPP
#Satellite: SUOMI NPP
#Configuration: NPP
#almurnet v.1.7.20240730
#Start time: 2026-01-02 23:56:07

#Version: 2.2.20231116
#Station: R3.0SM8_Murmansk_STILSPACE
#Location: 33.092731 lon 68.902999 lat
#TLE: 1 37849U 11061A   26001.07732418  .00000182  00000+0  10735-3 0  9990
#TLE: 2 37849  98.7795 303.2470 0002580  87.2016 272.9455 14.19520779734739

#Time	Az	El	Level	Level2	SNR	BER	BlckErr	Temp	State	Recorded	gain1	gain2
2026-01-02 23:56:07.06	22.28	3.00	-52.9	-66.9	3.8	1.49e+00	0	46	0	0	68	18209
2026-01-02 23:56:08.04	22.31	3.06	-53.0	-66.9	3.8	1.49e+00	0	46	104	0	68	18204
2026-01-02 23:56:09.03	22.34	3.12	-52.8	-66.8	3.8	1.49e+00	0	46	104	0	68	18091
2026-01-02 23:56:10.02	22.36	3.19	-52.8	-66.8	3.8	1.49e+00	0	47	104	0	68	17964
2026-01-02 23:56:11.01	22.39	3.25	-52.8	-66.7	3.8	1.49e+00	0	47	104	0	68	17858
2026-01-02 23:56:12.00	22.42	3.32	-52.8	-66.6	3.8	1.49e+00	0	47	104	0	68	17640
2026-01-02 23:56:12.98	22.45	3.38	-52.5	-66.5	3.8	1.49e+00	0	46	104	0	68	17448
2026-01-02 23:56:13.97	22.48	3.45	-52.4	-66.3	3.8	1.49e+00	0	47	104	0	67	17911
2026-01-02 23:56:14.97	22.51	3.51	-51.8	-64.9	3.8	1.49e+00	0	47	104	0	66	16150
2026-01-02 23:56:15.95	22.53	3.58	-51.0	-60.8	4.5	1.29e+00	0	47	0	0	65	10734
2026-01-02 23:56:16.94	22.56	3.64	-51.0	-60.5	4.6	1.03e+00	0	47	0	2097152	64	10959
2026-01-02 23:56:17.93	22.59	3.71	-51.0	-60.5	4.6	9.56e-01	0	47	0	3145728	64	10991
2026-01-02 23:56:18.91	22.62	3.77	-50.9	-60.4	4.6	9.51e-01	0	47	0	5242880	64	10872
2026-01-02 23:56:19.90	22.65	3.84	-51.0	-60.3	4.7	9.10e-01	0	47	0	7340032	64	10741
2026-01-02 23:56:20.89	22.68	3.91	-51.0	-60.2	4.7	8.93e-01	0	47	0	9437184	64	10582
2026-01-02 23:56:21.88	22.71	3.97	-51.0	-59.9	4.8	8.88e-01	0	48	0	10485760	64	10256
2026-01-02 23:56:22.87	22.74	4.04	-50.9	-60.0	4.8	7.97e-01	0	47	0	12582912	64	10361
2026-01-02 23:56:23.86	22.77	4.11	-50.9	-60.0	4.9	7.90e-01	0	47	0	14680064	64	10299
2026-01-02 23:56:24.85	22.80	4.17	-50.8	-59.9	4.9	7.81e-01	0	47	0	16777216	64	10223
2026-01-02 23:56:25.83	22.83	4.24	-50.9	-59.3	5.2	6.86e-01	0	48	0	18874368	64	9541
2026-01-02 23:56:26.82	22.86	4.31	-50.7	-58.4	5.8	4.48e-01	0	48	0	19922944	64	8603
2026-01-02 23:56:27.81	22.89	4.37	-50.5	-57.4	6.7	2.60e-01	0	48	0	22020096	63	8093
2026-01-02 23:56:28.80	22.92	4.44	-50.4	-56.6	7.4	1.53e-01	0	48	0	24117248	63	7430
2026-01-02 23:56:29.78	22.95	4.51	-50.2	-56.0	7.9	8.50e-02	0	48	0	26214400	63	6923
2026-01-02 23:56:30.77	22.98	4.58	-50.0	-55.6	8.4	4.68e-02	0	48	0	27262976	63	6606
2026-01-02 23:56:31.75	23.01	4.64	-50.1	-55.6	8.4	4.22e-02	0	48	0	29360128	63	6633
2026-01-02 23:56:32.75	23.04	4.71	-50.1	-55.6	8.4	5.81e-02	0	48	0	31457280	63	6625
2026-01-02 23:56:33.73	23.07	4.78	-50.0	-55.5	8.5	4.31e-02	0	48	0	33554432	63	6552
2026-01-02 23:56:34.72	23.10	4.85	-50.1	-55.4	8.5	4.40e-02	0	49	0	34603008	63	6483
2026-01-02 23:56:35.71	23.13	4.92	-50.1	-55.4	8.5	4.47e-02	0	48	0	36700160	63	6493
2026-01-02 23:56:36.70	23.16	4.98	-50.0	-55.4	8.6	3.89e-02	0	48	0	38797312	63	6424
2026-01-02 23:56:37.69	23.19	5.05	-50.0	-55.2	8.8	3.94e-02	0	48	0	40894464	63	6327
2026-01-02 23:56:38.68	23.22	5.12	-49.9	-54.7	9.4	2.18e-02	0	48	0	42991616	62	6277
2026-01-02 23:56:39.67	23.26	5.19	-49.7	-54.1	10.1	1.02e-02	0	48	0	44040192	62	5914
2026-01-02 23:56:40.67	23.29	5.26	-49.5	-53.7	10.5	7.10e-03	0	49	0	46137344	62	5628
2026-01-02 23:56:41.66	23.32	5.33	-49.5	-53.6	10.6	2.91e-03	0	49	0	48234496	61	5873
2026-01-02 23:56:42.65	23.35	5.40	-49.5	-53.8	10.4	3.31e-03	0	49	0	50331648	61	5999
2026-01-02 23:56:43.63	23.38	5.47	-49.4	-53.4	10.8	4.88e-03	0	49	0	51380224	61	5732
2026-01-02 23:56:44.62	23.41	5.54	-49.5	-53.5	10.8	2.29e-03	0	49	0	53477376	61	5798
2026-01-02 23:56:45.61	23.45	5.61	-49.4	-53.5	10.8	2.76e-03	0	49	0	55574528	61	5805
2026-01-02 23:56:46.60	23.48	5.68	-49.4	-53.2	11.1	1.81e-03	0	49	0	57671680	61	5629
2026-01-02 23:56:47.58	23.51	5.75	-49.4	-53.1	11.3	1.20e-03	0	49	0	58720256	61	5565
2026-01-02 23:56:48.57	23.54	5.82	-49.3	-53.0	11.5	1.07e-03	0	49	0	60817408	61	5474
2026-01-02 23:56:49.57	23.58	5.89	-49.3	-53.1	11.4	9.12e-04	0	49	0	62914560	61	5554
2026-01-02 23:56:50.55	23.61	5.97	-49.4	-53.0	11.5	7.27e-04	0	49	0	65011712	61	5506
2026-01-02 23:56:51.54	23.64	6.04	-49.3	-52.9	11.7	9.83e-04	0	49	0	66060288	61	5437
2026-01-02 23:56:52.53	23.68	6.11	-49.2	-52.6	12.0	3.55e-04	0	49	0	68157440	61	5254
2026-01-02 23:56:53.52	23.71	6.18	-49.2	-52.4	12.3	2.19e-04	0	49	0	70254592	61	5124
2026-01-02 23:56:54.50	23.74	6.25	-49.2	-52.4	12.4	1.56e-04	0	49	0	72351744	61	5108
2026-01-02 23:56:55.48	23.78	6.32	-49.3	-52.5	12.2	1.71e-04	0	49	0	74448896	61	5198
2026-01-02 23:56:56.47	23.81	6.40	-49.3	-52.6	12.2	2.75e-04	0	49	0	75497472	61	5266
2026-01-02 23:56:57.47	23.84	6.47	-49.3	-52.5	12.3	1.86e-04	0	50	0	77594624	61	5169
2026-01-02 23:56:58.45	23.88	6.54	-49.2	-52.4	12.4	1.73e-04	0	50	0	79691776	61	5143
2026-01-02 23:56:59.44	23.91	6.61	-49.1	-52.2	12.6	1.19e-04	0	50	0	81788928	61	5014
2026-01-02 23:57:00.43	23.95	6.69	-49.2	-52.3	12.6	8.85e-05	0	50	0	82837504	61	5044
2026-01-02 23:57:01.42	23.98	6.76	-49.2	-52.4	12.5	1.05e-04	0	50	0	84934656	61	5103
2026-01-02 23:57:02.40	24.02	6.83	-49.2	-52.3	12.6	8.23e-05	0	50	0	87031808	61	5049
2026-01-02 23:57:03.39	24.05	6.91	-49.1	-52.1	12.8	6.86e-05	0	50	0	89128960	61	4977
2026-01-02 23:57:04.38	24.09	6.98	-49.1	-52.2	12.8	5.49e-05	0	50	0	90177536	61	5005
2026-01-02 23:57:05.37	24.12	7.06	-49.0	-52.0	13.1	4.27e-05	0	50	0	92274688	61	4877
2026-01-02 23:57:06.36	24.16	7.13	-49.0	-51.9	13.1	3.81e-05	0	50	0	94371840	61	4861
2026-01-02 23:57:07.35	24.19	7.20	-49.2	-52.2	12.9	2.89e-05	0	50	0	96468992	61	4992
2026-01-02 23:57:08.34	24.23	7.28	-49.1	-52.1	12.9	7.09e-05	0	50	0	98566144	61	4953
2026-01-02 23:57:09.32	24.26	7.35	-49.0	-51.8	13.2	3.96e-05	0	50	0	99614720	61	4789
2026-01-02 23:57:10.31	24.30	7.43	-49.0	-51.9	13.2	1.98e-05	0	50	0	101711872	60	5113
2026-01-02 23:57:11.31	24.33	7.51	-49.0	-51.8	13.3	2.74e-05	0	50	0	103809024	60	5067
2026-01-02 23:57:12.30	24.37	7.58	-49.0	-51.7	13.3	1.52e-05	0	50	0	105906176	60	5040
2026-01-02 23:57:13.29	24.41	7.66	-49.1	-51.9	13.2	2.44e-05	0	50	0	106954752	60	5136
2026-01-02 23:57:14.28	24.44	7.73	-49.0	-51.8	13.3	1.67e-05	0	50	0	109051904	60	5046
2026-01-02 23:57:15.27	24.48	7.81	-49.0	-51.8	13.3	1.98e-05	0	50	0	111149056	60	5078
2026-01-02 23:57:16.26	24.52	7.89	-49.1	-52.0	13.1	2.74e-05	0	50	0	113246208	60	5166
2026-01-02 23:57:17.24	24.55	7.96	-49.0	-51.8	13.3	2.44e-05	0	50	0	114294784	60	5055
2026-01-02 23:57:18.23	24.59	8.04	-49.0	-51.7	13.4	1.22e-05	0	50	0	116391936	60	5029
2026-01-02 23:57:19.22	24.63	8.12	-49.0	-51.8	13.3	1.67e-05	0	50	0	118489088	60	5091
2026-01-02 23:57:20.20	24.67	8.19	-49.0	-51.7	13.4	1.37e-05	0	51	0	120586240	60	5020
2026-01-02 23:57:21.20	24.70	8.27	-49.0	-51.8	13.3	2.21e-05	0	51	0	122683392	60	5076
2026-01-02 23:57:22.18	24.74	8.35	-48.9	-51.7	13.4	1.44e-05	0	51	0	123731968	60	5007
2026-01-02 23:57:23.18	24.78	8.43	-48.9	-51.7	13.5	1.29e-05	0	51	0	125829120	60	4997
2026-01-02 23:57:24.16	24.82	8.51	-49.1	-51.8	13.3	2.89e-05	0	51	0	127926272	60	5095
2026-01-02 23:57:25.15	24.86	8.59	-49.0	-51.8	13.4	1.83e-05	0	51	0	130023424	60	5049
2026-01-02 23:57:26.13	24.89	8.66	-49.1	-51.9	13.3	1.75e-05	0	51	0	131072000	60	5133
2026-01-02 23:57:27.12	24.93	8.74	-49.0	-51.8	13.3	9.90e-06	0	51	0	133169152	60	5091
2026-01-02 23:57:28.10	24.97	8.82	-48.8	-51.4	13.8	7.60e-06	0	51	0	135266304	60	4827
2026-01-02 23:57:29.09	25.01	8.90	-48.8	-51.5	13.7	6.10e-06	0	51	0	137363456	60	4898
2026-01-02 23:57:30.08	25.05	8.98	-48.9	-51.5	13.7	6.10e-06	0	51	0	138412032	60	4920
2026-01-02 23:57:31.07	25.09	9.06	-48.9	-51.5	13.6	7.60e-06	0	51	0	140509184	60	4899
2026-01-02 23:57:32.06	25.13	9.14	-48.9	-51.6	13.6	1.06e-05	0	51	0	142606336	60	4953
2026-01-02 23:57:33.04	25.17	9.22	-48.9	-51.5	13.7	9.90e-06	0	51	0	144703488	60	4919
2026-01-02 23:57:34.03	25.21	9.30	-49.0	-51.7	13.6	9.10e-06	0	51	0	145752064	60	5016
2026-01-02 23:57:35.02	25.25	9.38	-49.1	-51.9	13.4	1.22e-05	0	51	0	147849216	60	5113
2026-01-02 23:57:36.01	25.29	9.46	-48.9	-51.6	13.6	9.90e-06	0	51	0	149946368	60	4981
2026-01-02 23:57:37.00	25.33	9.55	-48.9	-51.6	13.6	4.50e-06	0	51	0	152043520	60	4951
2026-01-02 23:57:37.99	25.37	9.63	-48.7	-51.3	14.0	3.00e-06	0	51	0	154140672	60	4782
2026-01-02 23:57:38.98	25.41	9.71	-48.8	-51.4	13.8	6.80e-06	0	51	0	155189248	60	4860
2026-01-02 23:57:39.98	25.46	9.79	-48.7	-51.1	14.1	3.80e-06	0	51	0	157286400	60	4682
2026-01-02 23:57:40.97	25.50	9.88	-48.6	-51.2	14.1	2.20e-06	0	51	0	159383552	60	4717
2026-01-02 23:57:41.95	25.54	9.96	-48.6	-51.0	14.2	3.00e-06	0	51	0	161480704	60	4649
2026-01-02 23:57:42.94	25.58	10.04	-48.7	-51.1	14.1	1.50e-06	0	51	0	162529280	60	4691
2026-01-02 23:57:43.93	25.62	10.13	-48.7	-51.1	14.2	4.50e-06	0	51	0	164626432	60	4676
2026-01-02 23:57:44.92	25.67	10.21	-48.6	-51.1	14.2	7.00e-07	0	51	0	166723584	60	4662
2026-01-02 23:57:45.91	25.71	10.29	-48.6	-51.1	14.2	7.00e-07	0	52	0	168820736	60	4657
2026-01-02 23:57:46.90	25.75	10.38	-48.8	-51.3	14.0	0.00e+00	0	51	0	169869312	60	4772
2026-01-02 23:57:47.89	25.80	10.46	-48.5	-50.9	14.4	1.50e-06	0	52	0	171966464	60	4571
2026-01-02 23:57:48.88	25.84	10.55	-48.6	-50.9	14.4	7.00e-07	0	52	0	174063616	59	4840
2026-01-02 23:57:49.86	25.88	10.63	-48.6	-51.1	14.3	0.00e+00	0	52	0	176160768	59	4933
2026-01-02 23:57:50.86	25.93	10.72	-48.6	-51.0	14.3	7.00e-07	0	52	0	178257920	59	4890
2026-01-02 23:57:51.85	25.97	10.80	-48.6	-50.9	14.4	7.00e-07	0	52	0	179306496	59	4839
2026-01-02 23:57:52.83	26.01	10.89	-48.6	-50.9	14.4	0.00e+00	0	52	0	181403648	59	4840
2026-01-02 23:57:53.82	26.06	10.97	-48.7	-51.1	14.3	0.00e+00	0	52	0	183500800	59	4958
2026-01-02 23:57:54.80	26.10	11.06	-48.6	-51.0	14.3	7.00e-07	0	52	0	185597952	59	4892
2026-01-02 23:57:55.80	26.15	11.15	-48.4	-50.7	14.7	0.00e+00	0	52	0	186646528	59	4715
2026-01-02 23:57:56.79	26.19	11.24	-48.5	-50.8	14.6	0.00e+00	0	52	0	188743680	59	4796
2026-01-02 23:57:57.78	26.24	11.32	-48.5	-50.7	14.6	1.50e-06	0	52	0	190840832	59	4743
2026-01-02 23:57:58.75	26.28	11.41	-48.5	-50.7	14.7	0.00e+00	0	52	0	192937984	59	4718
2026-01-02 23:57:59.75	26.33	11.50	-48.4	-50.6	14.8	0.00e+00	0	52	0	193986560	59	4688
2026-01-02 23:58:00.73	26.38	11.59	-48.5	-50.8	14.6	0.00e+00	0	52	0	196083712	59	4768
2026-01-02 23:58:01.71	26.42	11.67	-48.6	-50.9	14.4	0.00e+00	0	52	0	198180864	59	4858
2026-01-02 23:58:02.69	26.47	11.76	-48.6	-50.9	14.5	7.00e-07	0	52	0	200278016	59	4816
2026-01-02 23:58:03.67	26.51	11.85	-48.6	-50.9	14.5	1.50e-06	0	52	0	202375168	59	4817
2026-01-02 23:58:04.66	26.56	11.94	-48.7	-51.0	14.4	7.00e-07	0	52	0	203423744	59	4890
2026-01-02 23:58:05.65	26.61	12.03	-48.8	-51.2	14.2	7.00e-07	0	52	0	205520896	59	4987
2026-01-02 23:58:06.64	26.66	12.12	-48.7	-51.0	14.3	1.50e-06	0	52	0	207618048	59	4906
2026-01-02 23:58:07.62	26.70	12.21	-48.6	-50.8	14.5	1.50e-06	0	52	0	209715200	59	4810
2026-01-02 23:58:08.61	26.75	12.30	-48.4	-50.7	14.7	0.00e+00	0	52	0	210763776	59	4714
2026-01-02 23:58:09.60	26.80	12.39	-48.5	-50.8	14.6	0.00e+00	0	52	0	212860928	59	4773
2026-01-02 23:58:10.58	26.85	12.48	-48.4	-50.6	14.8	0.00e+00	0	52	0	214958080	59	4686
2026-01-02 23:58:11.57	26.90	12.57	-48.4	-50.6	14.7	0.00e+00	0	52	0	217055232	59	4694
2026-01-02 23:58:12.56	26.95	12.67	-48.5	-50.7	14.7	0.00e+00	0	52	0	218103808	59	4744
2026-01-02 23:58:13.55	27.00	12.76	-48.4	-50.6	14.9	0.00e+00	0	52	0	220200960	59	4653
2026-01-02 23:58:14.53	27.05	12.85	-48.2	-50.4	15.0	0.00e+00	0	52	0	222298112	59	4559
2026-01-02 23:58:15.51	27.10	12.94	-48.0	-50.0	15.4	0.00e+00	0	52	0	224395264	59	4346
2026-01-02 23:58:16.50	27.15	13.04	-47.9	-49.8	15.6	0.00e+00	0	53	0	225443840	58	4525
2026-01-02 23:58:17.49	27.20	13.13	-47.9	-49.9	15.5	0.00e+00	0	52	0	227540992	58	4559
2026-01-02 23:58:18.48	27.25	13.23	-48.0	-49.9	15.5	0.00e+00	0	52	0	229638144	58	4568
2026-01-02 23:58:19.47	27.30	13.32	-48.0	-50.0	15.4	0.00e+00	0	52	0	231735296	58	4623
2026-01-02 23:58:20.46	27.35	13.41	-48.1	-50.1	15.3	0.00e+00	0	52	0	232783872	58	4673
2026-01-02 23:58:21.45	27.40	13.51	-47.9	-49.8	15.6	0.00e+00	0	53	0	234881024	58	4519
2026-01-02 23:58:22.43	27.46	13.60	-48.0	-49.9	15.5	0.00e+00	0	53	0	236978176	58	4584
2026-01-02 23:58:23.42	27.51	13.70	-48.0	-50.0	15.5	0.00e+00	0	53	0	239075328	58	4599
2026-01-02 23:58:24.41	27.56	13.80	-47.9	-49.9	15.6	0.00e+00	0	53	0	241172480	58	4557
2026-01-02 23:58:25.41	27.62	13.90	-48.0	-50.0	15.4	0.00e+00	0	53	0	242221056	58	4637
2026-01-02 23:58:26.39	27.67	13.99	-47.8	-49.8	15.7	0.00e+00	0	53	0	244318208	58	4508
2026-01-02 23:58:27.38	27.72	14.09	-47.9	-49.9	15.6	0.00e+00	0	53	0	246415360	58	4551
2026-01-02 23:58:28.37	27.78	14.19	-47.9	-49.8	15.7	0.00e+00	0	53	0	248512512	58	4507
2026-01-02 23:58:29.35	27.83	14.28	-47.9	-49.8	15.7	0.00e+00	0	53	0	249561088	58	4539
2026-01-02 23:58:30.33	27.89	14.38	-47.8	-49.7	15.8	0.00e+00	0	53	0	251658240	58	4442
2026-01-02 23:58:31.32	27.94	14.48	-47.9	-49.8	15.7	0.00e+00	0	53	0	253755392	58	4513
2026-01-02 23:58:32.30	28.00	14.58	-47.8	-49.7	15.8	0.00e+00	0	53	0	255852544	58	4457
2026-01-02 23:58:33.28	28.05	14.68	-47.8	-49.7	15.8	0.00e+00	0	53	0	256901120	58	4448
2026-01-02 23:58:34.28	28.11	14.78	-47.9	-49.8	15.6	0.00e+00	0	53	0	258998272	58	4545
2026-01-02 23:58:35.26	28.16	14.88	-47.9	-49.8	15.7	0.00e+00	0	53	0	261095424	58	4494
2026-01-02 23:58:36.25	28.22	14.98	-47.7	-49.6	15.9	0.00e+00	0	53	0	263192576	58	4393
2026-01-02 23:58:37.23	28.28	15.08	-47.8	-49.7	15.8	0.00e+00	0	53	0	265289728	58	4463
2026-01-02 23:58:38.22	28.34	15.18	-47.6	-49.4	16.1	0.00e+00	0	53	0	266338304	58	4310
2026-01-02 23:58:39.21	28.39	15.28	-47.8	-49.6	15.9	0.00e+00	0	53	0	268435456	58	4434
2026-01-02 23:58:40.21	28.45	15.39	-47.9	-49.8	15.7	0.00e+00	0	53	0	270532608	58	4517
2026-01-02 23:58:41.20	28.51	15.49	-47.8	-49.6	15.9	0.00e+00	0	53	0	272629760	58	4427
2026-01-02 23:58:42.19	28.57	15.59	-47.8	-49.6	16.0	0.00e+00	0	53	0	273678336	58	4398
2026-01-02 23:58:43.18	28.63	15.70	-47.5	-49.3	16.2	0.00e+00	0	53	0	275775488	58	4257
2026-01-02 23:58:44.17	28.69	15.80	-47.6	-49.4	16.1	0.00e+00	0	53	0	277872640	58	4317
2026-01-02 23:58:45.16	28.75	15.91	-47.8	-49.6	15.9	0.00e+00	0	53	0	279969792	58	4404
2026-01-02 23:58:46.15	28.81	16.01	-47.9	-49.7	15.8	0.00e+00	0	53	0	281018368	58	4474
2026-01-02 23:58:47.15	28.87	16.12	-47.8	-49.7	15.9	0.00e+00	0	53	0	283115520	58	4447
2026-01-02 23:58:48.14	28.93	16.22	-47.9	-49.8	15.7	0.00e+00	0	53	0	285212672	58	4522
2026-01-02 23:58:49.13	29.00	16.33	-47.9	-49.7	15.8	0.00e+00	0	53	0	287309824	58	4485
2026-01-02 23:58:50.12	29.06	16.44	-47.8	-49.7	15.9	0.00e+00	0	53	0	289406976	58	4445
2026-01-02 23:58:51.12	29.12	16.54	-48.0	-49.9	15.6	0.00e+00	0	53	0	290455552	58	4568
2026-01-02 23:58:52.12	29.19	16.65	-47.9	-49.7	15.8	0.00e+00	0	53	0	292552704	58	4491
2026-01-02 23:58:53.10	29.25	16.76	-47.9	-49.8	15.8	0.00e+00	0	53	0	294649856	58	4498
2026-01-02 23:58:54.09	29.31	16.87	-47.9	-49.7	15.8	0.00e+00	0	53	0	296747008	58	4490
2026-01-02 23:58:55.08	29.38	16.98	-48.0	-50.0	15.6	0.00e+00	0	54	0	297795584	58	4599
2026-01-02 23:58:56.07	29.44	17.09	-47.9	-49.7	15.8	0.00e+00	0	54	0	299892736	58	4489
2026-01-02 23:58:57.06	29.51	17.20	-47.9	-49.8	15.8	0.00e+00	0	53	0	301989888	58	4511
2026-01-02 23:58:58.05	29.57	17.31	-47.8	-49.6	15.9	0.00e+00	0	53	0	304087040	58	4440
2026-01-02 23:58:59.04	29.64	17.42	-47.8	-49.7	15.9	0.00e+00	0	53	0	305135616	58	4446
2026-01-02 23:59:00.03	29.71	17.53	-48.0	-49.9	15.7	0.00e+00	0	53	0	307232768	58	4597
2026-01-02 23:59:01.02	29.77	17.64	-47.7	-49.6	16.0	0.00e+00	0	53	0	309329920	58	4394
2026-01-02 23:59:02.01	29.84	17.75	-47.6	-49.3	16.2	0.00e+00	0	53	0	311427072	58	4287
2026-01-02 23:59:03.00	29.91	17.87	-47.5	-49.2	16.4	0.00e+00	0	54	0	313524224	58	4227
2026-01-02 23:59:03.99	29.98	17.98	-47.4	-49.1	16.5	0.00e+00	0	53	0	314572800	57	4413
2026-01-02 23:59:04.97	30.04	18.09	-47.4	-49.0	16.5	0.00e+00	0	54	0	316669952	57	4374
2026-01-02 23:59:05.97	30.12	18.21	-47.4	-49.1	16.5	0.00e+00	0	54	0	318767104	57	4404
2026-01-02 23:59:06.96	30.19	18.32	-47.3	-48.9	16.6	0.00e+00	0	54	0	320864256	57	4332
2026-01-02 23:59:07.95	30.26	18.44	-47.5	-49.2	16.4	0.00e+00	0	54	0	321912832	57	4465
2026-01-02 23:59:08.95	30.33	18.56	-47.7	-49.5	16.1	0.00e+00	0	54	0	324009984	57	4618
2026-01-02 23:59:09.94	30.40	18.67	-47.6	-49.3	16.3	0.00e+00	0	54	0	326107136	57	4510
2026-01-02 23:59:10.93	30.47	18.79	-47.5	-49.2	16.4	0.00e+00	0	54	0	328204288	57	4449
2026-01-02 23:59:11.92	30.54	18.91	-47.4	-49.0	16.6	0.00e+00	0	54	0	330301440	57	4363
2026-01-02 23:59:12.91	30.62	19.02	-47.2	-48.8	16.7	0.00e+00	0	54	0	331350016	57	4281
2026-01-02 23:59:13.89	30.69	19.14	-47.2	-48.8	16.8	0.00e+00	0	54	0	333447168	57	4245
2026-01-02 23:59:14.87	30.76	19.26	-47.3	-48.9	16.7	0.00e+00	0	54	0	335544320	57	4316
2026-01-02 23:59:15.86	30.84	19.38	-47.2	-48.8	16.7	0.00e+00	0	54	0	337641472	57	4289
2026-01-02 23:59:16.86	30.91	19.50	-47.0	-48.6	17.0	0.00e+00	0	54	0	338690048	57	4147
2026-01-02 23:59:17.85	30.99	19.62	-47.0	-48.4	17.1	0.00e+00	0	54	0	340787200	57	4095
2026-01-02 23:59:18.83	31.06	19.74	-46.8	-48.3	17.2	0.00e+00	0	54	0	342884352	56	4265
2026-01-02 23:59:19.83	31.14	19.86	-46.9	-48.5	17.1	0.00e+00	0	54	0	344981504	56	4355
2026-01-02 23:59:20.82	31.22	19.98	-46.9	-48.4	17.1	0.00e+00	0	54	0	346030080	56	4336
2026-01-02 23:59:21.82	31.30	20.11	-47.1	-48.7	16.9	0.00e+00	0	54	0	348127232	56	4454
2026-01-02 23:59:22.80	31.38	20.23	-47.5	-49.1	16.5	0.00e+00	0	54	0	350224384	56	4703
2026-01-02 23:59:23.79	31.46	20.35	-47.3	-49.0	16.6	0.00e+00	0	54	0	352321536	56	4618
2026-01-02 23:59:24.78	31.54	20.48	-47.4	-49.0	16.6	0.00e+00	0	54	0	354418688	56	4636
2026-01-02 23:59:25.77	31.62	20.60	-47.5	-49.2	16.4	0.00e+00	0	54	0	355467264	56	4734
2026-01-02 23:59:26.76	31.70	20.73	-47.4	-49.1	16.5	0.00e+00	0	54	0	357564416	56	4691
2026-01-02 23:59:27.75	31.78	20.86	-47.3	-49.0	16.7	0.00e+00	0	54	0	359661568	56	4612
2026-01-02 23:59:28.73	31.86	20.98	-47.4	-49.0	16.6	0.00e+00	0	54	0	361758720	56	4620
2026-01-02 23:59:29.71	31.94	21.11	-47.3	-49.0	16.6	0.00e+00	0	54	0	362807296	56	4612
2026-01-02 23:59:30.69	32.03	21.23	-47.5	-49.2	16.4	0.00e+00	0	54	0	364904448	56	4747
2026-01-02 23:59:31.68	32.11	21.36	-47.4	-49.0	16.6	0.00e+00	0	54	0	367001600	57	4370
2026-01-02 23:59:32.67	32.19	21.49	-47.1	-48.7	16.9	0.00e+00	0	54	0	369098752	57	4223
2026-01-02 23:59:33.66	32.28	21.62	-47.0	-48.5	17.1	0.00e+00	0	54	0	370147328	57	4127
2026-01-02 23:59:34.64	32.37	21.75	-47.0	-48.5	17.2	0.00e+00	0	54	0	372244480	56	4349
2026-01-02 23:59:35.63	32.45	21.88	-46.9	-48.4	17.2	0.00e+00	0	54	0	374341632	56	4296
2026-01-02 23:59:36.62	32.54	22.01	-46.9	-48.5	17.1	0.00e+00	0	54	0	376438784	56	4342
2026-01-02 23:59:37.60	32.63	22.14	-46.9	-48.4	17.2	0.00e+00	0	54	0	377487360	56	4298
2026-01-02 23:59:38.59	32.72	22.27	-46.9	-48.4	17.2	0.00e+00	0	54	0	379584512	56	4324
2026-01-02 23:59:39.59	32.81	22.41	-46.9	-48.5	17.1	0.00e+00	0	54	0	381681664	56	4352
2026-01-02 23:59:40.57	32.90	22.54	-47.1	-48.7	16.9	0.00e+00	0	54	0	383778816	56	4461
2026-01-02 23:59:41.56	32.99	22.68	-46.8	-48.3	17.3	0.00e+00	0	54	0	385875968	56	4291
2026-01-02 23:59:42.55	33.08	22.81	-46.7	-48.2	17.4	0.00e+00	0	54	0	386924544	56	4200
2026-01-02 23:59:43.54	33.17	22.95	-46.8	-48.3	17.3	0.00e+00	0	54	0	389021696	56	4256
2026-01-02 23:59:44.53	33.27	23.08	-46.6	-48.0	17.6	0.00e+00	0	54	0	391118848	56	4137
2026-01-02 23:59:45.52	33.36	23.22	-46.7	-48.1	17.5	0.00e+00	0	54	0	393216000	56	4189
2026-01-02 23:59:46.51	33.46	23.36	-46.7	-48.2	17.4	0.00e+00	0	54	0	394264576	56	4200
2026-01-02 23:59:47.50	33.55	23.50	-46.5	-47.9	17.7	0.00e+00	0	54	0	396361728	56	4078
2026-01-02 23:59:48.49	33.65	23.64	-46.3	-47.6	17.9	0.00e+00	0	54	0	398458880	55	4185
2026-01-02 23:59:49.47	33.75	23.78	-46.4	-47.8	17.7	0.00e+00	0	54	0	400556032	55	4276
2026-01-02 23:59:50.46	33.84	23.92	-46.2	-47.5	18.0	0.00e+00	0	54	0	401604608	55	4141
2026-01-02 23:59:51.45	33.94	24.06	-46.2	-47.5	18.0	0.00e+00	0	54	0	403701760	55	4123
2026-01-02 23:59:52.43	34.04	24.20	-46.3	-47.6	17.8	0.00e+00	0	54	0	405798912	55	4187
2026-01-02 23:59:53.41	34.14	24.34	-46.0	-47.3	18.2	0.00e+00	0	54	0	407896064	55	4023
2026-01-02 23:59:54.40	34.25	24.48	-46.2	-47.5	18.0	0.00e+00	0	55	0	408944640	55	4141
2026-01-02 23:59:55.39	34.35	24.63	-46.3	-47.6	17.9	0.00e+00	0	54	0	411041792	55	4190
2026-01-02 23:59:56.38	34.45	24.77	-46.0	-47.3	18.2	0.00e+00	0	54	0	413138944	55	4017
2026-01-02 23:59:57.36	34.56	24.91	-46.0	-47.3	18.2	0.00e+00	0	54	0	415236096	55	4007
2026-01-02 23:59:58.35	34.66	25.06	-46.0	-47.2	18.3	0.00e+00	0	54	0	417333248	55	3985
2026-01-02 23:59:59.35	34.77	25.21	-46.3	-47.6	17.9	0.00e+00	0	54	0	418381824	55	4164
2026-01-03 00:00:00.33	34.87	25.36	-46.0	-47.3	18.2	0.00e+00	0	54	0	420478976	55	4013
2026-01-03 00:00:01.32	34.98	25.50	-46.1	-47.4	18.1	0.00e+00	0	54	0	422576128	55	4075
2026-01-03 00:00:02.31	35.09	25.65	-46.4	-47.8	17.7	0.00e+00	0	55	0	424673280	55	4260
2026-01-03 00:00:03.31	35.20	25.80	-46.2	-47.5	18.0	0.00e+00	0	55	0	425721856	55	4121
2026-01-03 00:00:04.30	35.32	25.95	-46.4	-47.7	17.8	0.00e+00	0	54	0	427819008	55	4227
2026-01-03 00:00:05.28	35.43	26.10	-46.4	-47.7	17.8	0.00e+00	0	55	0	429916160	55	4212
2026-01-03 00:00:06.27	35.54	26.26	-46.5	-47.9	17.6	0.00e+00	0	55	0	432013312	55	4333
2026-01-03 00:00:07.26	35.65	26.41	-46.4	-47.8	17.8	0.00e+00	0	55	0	433061888	55	4257
2026-01-03 00:00:08.24	35.77	26.56	-46.5	-47.9	17.6	0.00e+00	0	55	0	435159040	55	4306
2026-01-03 00:00:09.23	35.89	26.72	-46.5	-47.9	17.6	0.00e+00	0	55	0	437256192	55	4320
2026-01-03 00:00:10.22	36.00	26.87	-46.7	-48.1	17.4	0.00e+00	0	55	0	439353344	55	4419
2026-01-03 00:00:11.21	36.12	27.03	-46.9	-48.3	17.2	0.00e+00	0	55	0	441450496	55	4545
2026-01-03 00:00:12.20	36.24	27.18	-46.8	-48.3	17.3	0.00e+00	0	55	0	442499072	55	4500
2026-01-03 00:00:13.20	36.36	27.34	-47.0	-48.6	17.0	0.00e+00	0	54	0	444596224	55	4688
2026-01-03 00:00:14.18	36.49	27.50	-47.2	-48.8	16.9	0.00e+00	0	54	0	446693376	56	4506
2026-01-03 00:00:15.17	36.61	27.66	-47.3	-48.9	16.8	0.00e+00	0	55	0	448790528	56	4590
2026-01-03 00:00:16.16	36.73	27.82	-47.8	-49.6	16.1	0.00e+00	0	55	0	449839104	57	4675
2026-01-03 00:00:17.15	36.86	27.98	-47.9	-49.7	16.0	0.00e+00	0	55	0	451936256	57	4750
2026-01-03 00:00:18.14	36.99	28.14	-47.9	-49.7	16.0	0.00e+00	0	55	0	454033408	57	4725
2026-01-03 00:00:19.13	37.11	28.30	-47.8	-49.5	16.1	0.00e+00	0	55	0	456130560	57	4638
2026-01-03 00:00:20.11	37.24	28.46	-48.3	-50.2	15.5	0.00e+00	0	55	0	458227712	58	4746
2026-01-03 00:00:21.10	37.37	28.63	-48.2	-50.2	15.6	0.00e+00	0	55	0	459276288	58	4721
2026-01-03 00:00:22.09	37.51	28.79	-48.1	-50.0	15.7	0.00e+00	0	55	0	461373440	58	4650
2026-01-03 00:00:23.07	37.64	28.95	-48.8	-51.0	14.8	0.00e+00	0	55	0	463470592	59	4900
2026-01-03 00:00:24.07	37.77	29.12	-48.5	-50.7	15.1	0.00e+00	0	55	0	465567744	59	4715
2026-01-03 00:00:25.06	37.91	29.29	-48.7	-50.8	14.9	0.00e+00	0	55	0	466616320	59	4780
2026-01-03 00:00:26.04	38.05	29.45	-48.6	-50.9	14.9	0.00e+00	0	55	0	468713472	59	4820
2026-01-03 00:00:27.03	38.19	29.62	-48.6	-50.8	15.0	0.00e+00	0	55	0	470810624	59	4766
2026-01-03 00:00:28.02	38.33	29.79	-48.7	-51.1	14.8	0.00e+00	0	55	0	472907776	59	4929
2026-01-03 00:00:29.01	38.47	29.96	-49.0	-51.3	14.5	7.00e-07	0	55	0	473956352	59	5065
2026-01-03 00:00:30.00	38.61	30.13	-49.1	-51.5	14.3	0.00e+00	0	55	0	476053504	60	4904
2026-01-03 00:00:30.99	38.76	30.31	-49.4	-52.0	13.8	2.20e-06	0	55	0	478150656	60	5216
2026-01-03 00:00:31.98	38.90	30.48	-49.4	-52.1	13.7	1.50e-06	0	55	0	480247808	60	5247
2026-01-03 00:00:32.97	39.05	30.65	-49.2	-51.7	14.0	6.80e-06	0	55	0	481296384	60	5033
2026-01-03 00:00:33.97	39.20	30.83	-49.2	-51.8	13.9	1.50e-06	0	55	0	483393536	60	5060
2026-01-03 00:00:34.95	39.35	31.00	-49.6	-52.3	13.4	8.30e-06	0	55	0	485490688	61	5099
2026-01-03 00:00:35.93	39.50	31.18	-49.3	-52.0	13.8	1.06e-05	0	55	0	487587840	61	4880
2026-01-03 00:00:36.92	39.65	31.35	-49.4	-52.2	13.6	9.10e-06	0	55	0	489684992	61	5005
2026-01-03 00:00:37.91	39.81	31.53	-49.7	-52.6	13.2	6.10e-06	0	55	0	490733568	61	5230
2026-01-03 00:00:38.89	39.97	31.71	-49.7	-52.5	13.2	3.50e-05	0	55	0	492830720	61	5214
2026-01-03 00:00:39.88	40.12	31.89	-49.7	-52.6	13.1	2.67e-05	0	55	0	494927872	61	5262
2026-01-03 00:00:40.87	40.29	32.07	-49.5	-52.3	13.5	1.60e-05	0	55	0	497025024	61	5071
2026-01-03 00:00:41.86	40.45	32.25	-49.4	-52.2	13.7	6.10e-06	0	55	0	498073600	61	5005
2026-01-03 00:00:42.86	40.61	32.43	-48.9	-51.2	14.5	3.00e-06	0	55	0	500170752	61	4488
2026-01-03 00:00:43.84	40.78	32.62	-49.0	-51.3	14.5	7.00e-07	0	55	0	502267904	60	4778
2026-01-03 00:00:44.83	40.95	32.80	-49.0	-51.3	14.5	0.00e+00	0	55	0	504365056	60	4764
2026-01-03 00:00:45.82	41.12	32.98	-48.9	-51.2	14.6	0.00e+00	0	55	0	505413632	60	4752
2026-01-03 00:00:46.81	41.29	33.17	-49.3	-51.8	13.9	4.50e-06	0	55	0	507510784	60	5056
2026-01-03 00:00:47.80	41.46	33.36	-49.2	-51.6	14.1	0.00e+00	0	55	0	509607936	60	4978
2026-01-03 00:00:48.79	41.64	33.54	-49.1	-51.5	14.2	7.00e-07	0	55	0	511705088	60	4917
2026-01-03 00:00:49.78	41.81	33.73	-49.0	-51.4	14.4	0.00e+00	0	55	0	513802240	60	4833
2026-01-03 00:00:50.77	41.99	33.92	-49.2	-51.7	14.2	1.50e-06	0	55	0	514850816	60	4985
2026-01-03 00:00:51.76	42.18	34.11	-48.7	-51.0	14.9	1.50e-06	0	55	0	516947968	60	4615
2026-01-03 00:00:52.75	42.36	34.30	-48.8	-51.0	14.9	0.00e+00	0	55	0	519045120	60	4619
2026-01-03 00:00:53.74	42.55	34.49	-49.0	-51.3	14.5	0.00e+00	0	55	0	521142272	60	4794
2026-01-03 00:00:54.72	42.73	34.68	-48.6	-50.7	15.1	0.00e+00	0	55	0	522190848	60	4485
2026-01-03 00:00:55.71	42.92	34.88	-48.6	-50.7	15.1	0.00e+00	0	55	0	524288000	60	4483
2026-01-03 00:00:56.70	43.11	35.07	-48.8	-51.0	14.8	7.00e-07	0	55	0	526385152	60	4644
2026-01-03 00:00:57.69	43.31	35.27	-49.0	-51.3	14.5	0.00e+00	0	55	0	528482304	60	4769
2026-01-03 00:00:58.69	43.51	35.47	-49.2	-51.6	14.2	1.50e-06	0	55	0	529530880	60	4939
2026-01-03 00:00:59.68	43.71	35.66	-49.1	-51.4	14.4	7.00e-07	0	55	0	531628032	60	4862
2026-01-03 00:01:00.67	43.91	35.86	-48.9	-51.3	14.5	2.20e-06	0	55	0	533725184	60	4772
2026-01-03 00:01:01.66	44.11	36.06	-48.8	-50.9	14.9	0.00e+00	0	55	0	535822336	60	4596
2026-01-03 00:01:02.65	44.32	36.26	-48.8	-51.0	14.8	7.00e-07	0	55	0	537919488	60	4636
2026-01-03 00:01:03.64	44.53	36.46	-48.9	-51.2	14.7	0.00e+00	0	55	0	538968064	60	4729
2026-01-03 00:01:04.63	44.74	36.66	-49.1	-51.5	14.5	7.00e-07	0	55	0	541065216	60	4894
2026-01-03 00:01:05.62	44.95	36.86	-49.0	-51.4	14.5	0.00e+00	0	55	0	543162368	60	4815
2026-01-03 00:01:06.61	45.17	37.07	-48.9	-51.2	14.5	7.00e-07	0	55	0	545259520	60	4756
2026-01-03 00:01:07.60	45.39	37.27	-48.8	-51.1	14.7	0.00e+00	0	55	0	546308096	60	4674
2026-01-03 00:01:08.59	45.61	37.47	-48.7	-50.9	14.9	7.00e-07	0	55	0	548405248	60	4585
2026-01-03 00:01:09.58	45.84	37.68	-48.8	-51.0	14.8	0.00e+00	0	55	0	550502400	60	4628
2026-01-03 00:01:10.56	46.06	37.88	-48.9	-51.2	14.7	1.50e-06	0	55	0	552599552	60	4735
2026-01-03 00:01:11.55	46.29	38.09	-48.9	-51.2	14.7	7.00e-07	0	55	0	553648128	60	4735
2026-01-03 00:01:12.53	46.52	38.29	-49.0	-51.3	14.6	0.00e+00	0	55	0	555745280	60	4771
2026-01-03 00:01:13.52	46.76	38.50	-49.0	-51.4	14.5	2.20e-06	0	55	0	557842432	60	4822
2026-01-03 00:01:14.51	47.00	38.71	-49.1	-51.5	14.4	0.00e+00	0	55	0	559939584	60	4891
2026-01-03 00:01:15.51	47.24	38.92	-49.0	-51.4	14.4	3.00e-06	0	55	0	560988160	60	4843
2026-01-03 00:01:16.49	47.49	39.13	-48.9	-51.3	14.5	0.00e+00	0	55	0	563085312	60	4780
2026-01-03 00:01:17.48	47.74	39.34	-49.2	-51.6	14.3	1.50e-06	0	55	0	565182464	60	4961
2026-01-03 00:01:18.47	47.99	39.56	-49.2	-51.7	14.2	7.00e-07	0	55	0	567279616	60	4995
2026-01-03 00:01:19.46	48.24	39.77	-48.9	-51.3	14.5	2.20e-06	0	55	0	569376768	60	4762
2026-01-03 00:01:20.45	48.50	39.98	-49.3	-51.8	14.0	3.80e-06	0	55	0	570425344	60	5067
2026-01-03 00:01:21.44	48.76	40.19	-49.2	-51.8	14.1	1.50e-06	0	55	0	572522496	60	5045
2026-01-03 00:01:22.44	49.03	40.41	-48.7	-51.0	14.9	7.00e-07	0	55	0	574619648	60	4614
2026-01-03 00:01:23.42	49.30	40.62	-48.5	-50.7	15.2	0.00e+00	0	55	0	576716800	60	4447
2026-01-03 00:01:24.40	49.57	40.84	-48.3	-50.2	15.7	0.00e+00	0	55	0	577765376	59	4473
2026-01-03 00:01:25.39	49.84	41.05	-48.2	-50.1	15.8	0.00e+00	0	55	0	579862528	59	4421
2026-01-03 00:01:26.38	50.12	41.27	-48.2	-50.1	15.7	0.00e+00	0	55	0	581959680	59	4398
2026-01-03 00:01:27.37	50.40	41.49	-47.9	-49.7	16.1	0.00e+00	0	55	0	584056832	58	4452
2026-01-03 00:01:28.36	50.69	41.71	-48.2	-50.1	15.7	0.00e+00	0	55	0	586153984	58	4666
2026-01-03 00:01:29.35	50.98	41.93	-48.3	-50.3	15.6	0.00e+00	0	56	0	587202560	58	4809
2026-01-03 00:01:30.33	51.27	42.14	-48.5	-50.5	15.4	0.00e+00	0	55	0	589299712	58	4891
2026-01-03 00:01:31.31	51.57	42.36	-48.6	-50.6	15.2	0.00e+00	0	55	0	591396864	59	4702
2026-01-03 00:01:32.30	51.87	42.58	-48.4	-50.3	15.6	0.00e+00	0	55	0	593494016	59	4509
2026-01-03 00:01:33.29	52.18	42.80	-48.6	-50.7	15.1	0.00e+00	0	55	0	594542592	59	4737
2026-01-03 00:01:34.27	52.48	43.02	-48.6	-50.7	15.2	0.00e+00	0	55	0	596639744	59	4715
2026-01-03 00:01:35.25	52.80	43.24	-48.5	-50.5	15.4	0.00e+00	0	55	0	598736896	59	4630
2026-01-03 00:01:36.23	53.11	43.46	-48.0	-49.8	16.0	0.00e+00	0	55	0	600834048	59	4288
2026-01-03 00:01:37.22	53.44	43.68	-48.2	-50.0	15.7	0.00e+00	0	55	0	601882624	59	4385
2026-01-03 00:01:38.21	53.76	43.90	-48.5	-50.5	15.4	0.00e+00	0	55	0	603979776	59	4625
2026-01-03 00:01:39.20	54.10	44.12	-49.0	-51.2	14.7	7.00e-07	0	56	0	606076928	59	4991
2026-01-03 00:01:40.19	54.43	44.35	-48.7	-50.7	15.1	0.00e+00	0	55	0	608174080	59	4728
2026-01-03 00:01:41.19	54.78	44.57	-48.6	-50.6	15.2	7.00e-07	0	55	0	609222656	59	4705
2026-01-03 00:01:42.17	55.12	44.79	-48.6	-50.6	15.2	0.00e+00	0	55	0	611319808	59	4698
2026-01-03 00:01:43.16	55.47	45.02	-48.3	-50.2	15.6	0.00e+00	0	56	0	613416960	59	4483
2026-01-03 00:01:44.15	55.83	45.24	-48.5	-50.4	15.4	0.00e+00	0	56	0	615514112	59	4568
2026-01-03 00:01:45.14	56.19	45.46	-48.6	-50.6	15.2	0.00e+00	0	56	0	616562688	59	4703
2026-01-03 00:01:46.12	56.55	45.68	-49.0	-51.2	14.6	0.00e+00	0	55	0	618659840	59	5040
2026-01-03 00:01:47.11	56.93	45.91	-49.1	-51.6	14.3	7.00e-07	0	55	0	620756992	60	4948
2026-01-03 00:01:48.11	57.31	46.13	-49.4	-52.1	13.8	2.20e-06	0	55	0	622854144	60	5228
2026-01-03 00:01:49.11	57.69	46.36	-49.5	-52.1	13.8	8.30e-06	0	56	0	624951296	61	4983
2026-01-03 00:01:50.10	58.08	46.58	-49.9	-52.8	13.0	3.58e-05	0	55	0	625999872	61	5395
2026-01-03 00:01:51.09	58.47	46.80	-50.1	-53.2	12.6	4.57e-05	0	56	0	628097024	62	5324
2026-01-03 00:01:52.08	58.87	47.03	-50.5	-54.0	11.8	1.99e-04	0	56	0	630194176	62	5812
2026-01-03 00:01:53.07	59.28	47.25	-50.4	-53.9	11.9	5.32e-04	0	55	0	632291328	63	5428
2026-01-03 00:01:54.06	59.69	47.47	-50.7	-54.5	11.3	6.96e-04	0	56	0	633339904	63	5805
2026-01-03 00:01:55.05	60.10	47.69	-50.6	-54.3	11.6	1.06e-03	0	56	0	635437056	63	5665
2026-01-03 00:01:56.04	60.52	47.91	-50.8	-54.8	11.0	2.02e-03	0	56	0	637534208	63	6037
2026-01-03 00:01:57.03	60.95	48.13	-51.0	-55.1	10.8	1.57e-03	0	56	0	639631360	63	6226
2026-01-03 00:01:58.01	61.38	48.35	-50.3	-53.7	12.1	6.95e-04	0	55	0	641728512	63	5289
2026-01-03 00:01:59.01	61.83	48.57	-50.2	-53.3	12.4	2.30e-04	0	56	0	642777088	63	5094
2026-01-03 00:01:59.99	62.27	48.79	-49.6	-52.4	13.4	6.63e-05	0	55	0	644874240	62	4833
2026-01-03 00:02:00.98	62.72	49.00	-50.0	-53.1	12.8	3.89e-05	0	55	0	646971392	62	5222
2026-01-03 00:02:01.97	63.18	49.22	-49.7	-52.5	13.4	2.82e-05	0	55	0	649068544	62	4925
2026-01-03 00:02:02.95	63.64	49.43	-49.5	-52.4	13.5	1.67e-05	0	55	0	650117120	62	4846
2026-01-03 00:02:03.95	64.12	49.65	-49.6	-52.3	13.5	1.14e-05	0	56	0	652214272	62	4801
2026-01-03 00:02:04.93	64.59	49.86	-49.6	-52.3	13.4	1.50e-06	0	56	0	654311424	61	5062
2026-01-03 00:02:05.92	65.07	50.08	-49.6	-52.4	13.5	6.80e-06	0	56	0	656408576	61	5109
2026-01-03 00:02:06.91	65.57	50.29	-49.7	-52.5	13.4	1.14e-05	0	56	0	657457152	61	5197
2026-01-03 00:02:07.90	66.07	50.50	-50.0	-53.1	12.8	2.51e-05	0	56	0	659554304	61	5534
2026-01-03 00:02:08.89	66.57	50.71	-49.9	-52.7	13.1	3.20e-05	0	55	0	661651456	61	5338
2026-01-03 00:02:09.88	67.08	50.92	-49.5	-52.2	13.7	3.80e-06	0	56	0	663748608	61	5007
2026-01-03 00:02:10.87	67.60	51.12	-49.9	-52.8	13.0	9.10e-06	0	56	0	665845760	61	5388
2026-01-03 00:02:11.85	68.12	51.32	-49.8	-52.6	13.2	2.51e-05	0	56	0	666894336	61	5261
2026-01-03 00:02:12.84	68.66	51.53	-49.8	-52.6	13.3	1.14e-05	0	56	0	668991488	61	5219
2026-01-03 00:02:13.83	69.20	51.73	-49.6	-52.2	13.6	1.06e-05	0	56	0	671088640	61	5002
2026-01-03 00:02:14.82	69.75	51.93	-49.4	-52.0	14.0	3.00e-06	0	56	0	673185792	61	4874
2026-01-03 00:02:15.81	70.30	52.13	-49.3	-51.8	14.1	7.60e-06	0	56	0	674234368	61	4781
2026-01-03 00:02:16.80	70.87	52.32	-49.1	-51.5	14.5	0.00e+00	0	56	0	676331520	61	4604
2026-01-03 00:02:17.79	71.44	52.52	-48.7	-50.8	14.9	7.00e-07	0	56	0	678428672	60	4537
2026-01-03 00:02:18.79	72.02	52.71	-49.0	-51.3	14.6	0.00e+00	0	56	0	680525824	60	4767
2026-01-03 00:02:19.78	72.61	52.90	-49.2	-51.5	14.4	0.00e+00	0	56	0	681574400	60	4921
2026-01-03 00:02:20.77	73.20	53.09	-48.7	-50.9	15.0	2.20e-06	0	56	0	683671552	60	4546
2026-01-03 00:02:21.77	73.81	53.27	-48.1	-49.9	15.9	0.00e+00	0	56	0	685768704	59	4315
2026-01-03 00:02:22.75	74.41	53.45	-47.5	-49.1	16.7	0.00e+00	0	56	0	687865856	58	4175
2026-01-03 00:02:23.74	75.03	53.63	-47.7	-49.3	16.5	0.00e+00	0	56	0	689963008	57	4524
2026-01-03 00:02:24.73	75.65	53.81	-47.7	-49.4	16.5	0.00e+00	0	56	0	691011584	57	4580
2026-01-03 00:02:25.71	76.27	53.98	-48.0	-49.8	16.1	0.00e+00	0	56	0	693108736	57	4787
2026-01-03 00:02:26.70	76.91	54.15	-47.5	-49.1	16.7	0.00e+00	0	56	0	695205888	57	4427
2026-01-03 00:02:27.68	77.55	54.32	-47.7	-49.4	16.5	0.00e+00	0	56	0	697303040	57	4547
2026-01-03 00:02:28.66	78.20	54.48	-48.0	-49.7	16.1	0.00e+00	0	56	0	698351616	57	4756
2026-01-03 00:02:29.65	78.86	54.64	-47.9	-49.7	16.2	0.00e+00	0	56	0	700448768	58	4470
2026-01-03 00:02:30.64	79.53	54.80	-47.0	-48.5	17.3	0.00e+00	0	56	0	702545920	57	4106
2026-01-03 00:02:31.63	80.20	54.96	-46.4	-47.8	17.9	0.00e+00	0	56	0	704643072	55	4253
2026-01-03 00:02:32.61	80.88	55.11	-46.2	-47.4	18.2	0.00e+00	0	56	0	705691648	55	4090
2026-01-03 00:02:33.60	81.57	55.26	-46.6	-48.0	17.7	0.00e+00	0	56	0	707788800	55	4367
2026-01-03 00:02:34.59	82.26	55.40	-46.7	-48.1	17.6	0.00e+00	0	56	0	709885952	55	4423
2026-01-03 00:02:35.58	82.97	55.54	-46.7	-48.1	17.6	0.00e+00	0	56	0	711983104	55	4404
2026-01-03 00:02:36.56	83.67	55.68	-46.6	-48.0	17.7	0.00e+00	0	56	0	713031680	55	4349
2026-01-03 00:02:37.55	84.39	55.81	-46.2	-47.4	18.2	0.00e+00	0	56	0	715128832	55	4075
2026-01-03 00:02:38.55	85.12	55.94	-46.4	-47.7	18.0	0.00e+00	0	56	0	717225984	55	4228
2026-01-03 00:02:39.54	85.85	56.07	-47.1	-48.5	17.2	0.00e+00	0	56	0	719323136	56	4377
2026-01-03 00:02:40.54	86.60	56.19	-47.8	-49.6	16.3	0.00e+00	0	56	0	721420288	57	4653
2026-01-03 00:02:41.53	87.34	56.30	-47.6	-49.3	16.5	0.00e+00	0	56	0	722468864	57	4535
2026-01-03 00:02:42.52	88.09	56.42	-47.3	-48.9	16.9	0.00e+00	0	56	0	724566016	57	4338
2026-01-03 00:02:43.51	88.85	56.52	-48.0	-49.7	16.1	0.00e+00	0	56	0	726663168	58	4490
2026-01-03 00:02:44.49	89.60	56.62	-47.9	-49.7	16.2	0.00e+00	0	56	0	728760320	58	4463
2026-01-03 00:02:45.48	90.37	56.72	-47.7	-49.4	16.5	0.00e+00	0	56	0	729808896	58	4296
2026-01-03 00:02:46.47	91.14	56.82	-47.8	-49.5	16.4	0.00e+00	0	56	0	731906048	58	4381
2026-01-03 00:02:47.45	91.91	56.90	-48.7	-50.9	15.1	0.00e+00	0	56	0	734003200	59	4825
2026-01-03 00:02:48.45	92.71	56.99	-48.8	-51.0	14.9	0.00e+00	0	56	0	736100352	60	4603
2026-01-03 00:02:49.44	93.49	57.07	-48.7	-50.8	15.0	7.00e-07	0	56	0	737148928	60	4515
2026-01-03 00:02:50.43	94.28	57.14	-49.1	-51.4	14.5	7.00e-07	0	56	0	739246080	60	4837
2026-01-03 00:02:51.42	95.08	57.21	-49.5	-52.1	13.8	4.50e-06	0	56	0	741343232	60	5268
2026-01-03 00:02:52.41	95.88	57.27	-50.0	-53.0	12.8	4.19e-05	0	56	0	743440384	61	5506
2026-01-03 00:02:53.41	96.69	57.33	-49.7	-52.4	13.5	9.10e-06	0	56	0	745537536	62	4846
2026-01-03 00:02:54.39	97.49	57.38	-49.1	-51.5	14.4	1.50e-06	0	56	0	746586112	61	4632
2026-01-03 00:02:55.39	98.31	57.43	-49.6	-52.4	13.5	0.00e+00	0	56	0	748683264	61	5130
2026-01-03 00:02:56.38	99.12	57.47	-50.0	-53.2	12.7	4.80e-05	0	56	0	750780416	61	5608
2026-01-03 00:02:57.37	99.93	57.51	-49.8	-52.6	13.3	2.21e-05	0	56	0	752877568	62	4964
2026-01-03 00:02:58.37	100.76	57.54	-49.3	-51.8	14.1	6.10e-06	0	56	0	753926144	61	4800
2026-01-03 00:02:59.35	101.57	57.57	-49.1	-51.6	14.3	0.00e+00	0	56	0	756023296	60	4940
2026-01-03 00:03:00.34	102.39	57.59	-49.1	-51.5	14.3	1.50e-06	0	56	0	758120448	60	4910
2026-01-03 00:03:01.34	103.22	57.61	-49.2	-51.6	14.3	0.00e+00	0	56	0	760217600	60	4961
2026-01-03 00:03:02.33	104.04	57.62	-49.5	-52.3	13.6	3.80e-06	0	56	0	762314752	60	5364
2026-01-03 00:03:03.32	104.86	57.62	-49.3	-51.8	14.0	4.50e-06	0	56	0	763363328	61	4797
2026-01-03 00:03:04.30	105.68	57.62	-48.9	-51.1	14.8	0.00e+00	0	56	0	765460480	60	4700
2026-01-03 00:03:05.29	106.50	57.61	-48.9	-51.1	14.9	1.50e-06	0	56	0	767557632	60	4653
2026-01-03 00:03:06.27	107.31	57.60	-48.8	-51.0	14.9	0.00e+00	0	56	0	769654784	60	4599
2026-01-03 00:03:07.27	108.14	57.58	-47.4	-48.9	16.9	0.00e+00	0	56	0	770703360	58	4086
2026-01-03 00:03:08.26	108.96	57.56	-46.3	-47.6	18.0	0.00e+00	0	56	0	772800512	55	4181
2026-01-03 00:03:09.25	109.78	57.53	-46.8	-48.2	17.5	0.00e+00	0	56	0	774897664	55	4487
2026-01-03 00:03:10.24	110.60	57.50	-47.8	-49.6	16.3	0.00e+00	0	56	0	776994816	57	4663
2026-01-03 00:03:11.23	111.41	57.46	-48.0	-49.9	16.0	0.00e+00	0	56	0	778043392	58	4562
2026-01-03 00:03:12.22	112.22	57.41	-47.9	-49.7	16.2	0.00e+00	0	56	0	780140544	58	4471
2026-01-03 00:03:13.21	113.03	57.36	-47.8	-49.6	16.3	0.00e+00	0	56	0	782237696	58	4392
2026-01-03 00:03:14.19	113.83	57.31	-47.9	-49.6	16.2	0.00e+00	0	56	0	784334848	58	4402
2026-01-03 00:03:15.18	114.63	57.25	-47.7	-49.4	16.4	0.00e+00	0	56	0	786432000	58	4337
2026-01-03 00:03:16.17	115.43	57.18	-48.5	-50.5	15.6	0.00e+00	0	56	0	787480576	58	4876
2026-01-03 00:03:17.16	116.22	57.11	-48.7	-50.9	14.9	0.00e+00	0	56	0	789577728	59	4846
2026-01-03 00:03:18.16	117.02	57.03	-47.7	-49.4	16.4	0.00e+00	0	56	0	791674880	58	4295
2026-01-03 00:03:19.14	117.80	56.95	-47.3	-48.8	16.9	0.00e+00	0	56	0	793772032	57	4286
2026-01-03 00:03:20.13	118.58	56.87	-47.7	-49.4	16.4	0.00e+00	0	56	0	794820608	57	4570
2026-01-03 00:03:21.12	119.36	56.77	-47.5	-49.2	16.7	0.00e+00	0	56	0	796917760	57	4448
2026-01-03 00:03:22.11	120.13	56.68	-47.8	-49.6	16.4	0.00e+00	0	56	0	799014912	57	4657
2026-01-03 00:03:23.11	120.90	56.58	-48.2	-50.0	15.9	0.00e+00	0	56	0	801112064	58	4643
2026-01-03 00:03:24.09	121.65	56.47	-48.7	-50.9	15.0	7.00e-07	0	56	0	802160640	59	4834
2026-01-03 00:03:25.08	122.41	56.36	-48.3	-50.2	15.7	0.00e+00	0	56	0	804257792	59	4490
2026-01-03 00:03:26.07	123.15	56.25	-47.3	-48.8	17.1	0.00e+00	0	56	0	806354944	57	4245
2026-01-03 00:03:27.06	123.90	56.13	-46.9	-48.3	17.5	0.00e+00	0	56	0	808452096	56	4246
2026-01-03 00:03:28.04	124.62	56.01	-47.2	-48.7	17.0	0.00e+00	0	56	0	809500672	56	4491
2026-01-03 00:03:29.03	125.35	55.88	-47.3	-48.9	17.0	0.00e+00	0	56	0	811597824	56	4549
2026-01-03 00:03:30.01	126.07	55.75	-47.4	-48.9	17.0	0.00e+00	0	56	0	813694976	56	4585
2026-01-03 00:03:30.99	126.78	55.62	-46.8	-48.3	17.5	0.00e+00	0	56	0	815792128	56	4257
2026-01-03 00:03:31.97	127.48	55.48	-46.8	-48.2	17.6	0.00e+00	0	56	0	817889280	56	4232
2026-01-03 00:03:32.96	128.18	55.34	-46.8	-48.2	17.6	0.00e+00	0	56	0	818937856	56	4228
2026-01-03 00:03:33.96	128.88	55.19	-47.0	-48.4	17.4	0.00e+00	0	56	0	821035008	56	4330
2026-01-03 00:03:34.95	129.57	55.04	-46.5	-47.8	18.0	0.00e+00	0	56	0	823132160	56	4008
2026-01-03 00:03:35.94	130.25	54.89	-46.2	-47.5	18.1	0.00e+00	0	56	0	825229312	55	4136
2026-01-03 00:03:36.92	130.92	54.73	-45.9	-47.2	18.5	0.00e+00	0	56	0	826277888	55	3959
2026-01-03 00:03:37.91	131.58	54.57	-46.4	-47.6	18.0	0.00e+00	0	56	0	828375040	55	4189
2026-01-03 00:03:38.90	132.24	54.41	-46.3	-47.6	18.2	0.00e+00	0	56	0	830472192	55	4159
2026-01-03 00:03:39.88	132.89	54.25	-46.4	-47.7	18.0	0.00e+00	0	56	0	832569344	55	4194
2026-01-03 00:03:40.87	133.53	54.08	-46.9	-48.3	17.5	0.00e+00	0	56	0	833617920	55	4500
2026-01-03 00:03:41.87	134.17	53.90	-47.2	-48.7	17.1	0.00e+00	0	56	0	835715072	56	4466
2026-01-03 00:03:42.86	134.80	53.73	-47.1	-48.6	17.3	0.00e+00	0	56	0	837812224	56	4405
2026-01-03 00:03:43.85	135.42	53.55	-46.3	-47.6	18.1	0.00e+00	0	56	0	839909376	55	4163
2026-01-03 00:03:44.85	136.04	53.36	-47.1	-48.6	17.2	0.00e+00	0	56	0	842006528	55	4659
2026-01-03 00:03:45.83	136.64	53.18	-48.4	-50.3	15.6	0.00e+00	0	56	0	843055104	58	4765
2026-01-03 00:03:46.83	137.24	52.99	-49.8	-52.8	13.1	7.60e-06	0	56	0	845152256	61	5373
2026-01-03 00:03:47.82	137.83	52.81	-49.4	-52.1	13.8	2.82e-05	0	56	0	847249408	61	4960
2026-01-03 00:03:48.81	138.42	52.61	-49.0	-51.4	14.5	2.20e-06	0	56	0	849346560	60	4828
2026-01-03 00:03:49.80	138.99	52.42	-49.4	-52.1	13.9	1.50e-06	0	56	0	850395136	60	5221
2026-01-03 00:03:50.78	139.56	52.23	-49.9	-52.9	13.0	2.97e-05	0	56	0	852492288	61	5403
2026-01-03 00:03:51.77	140.12	52.03	-50.0	-53.0	12.9	1.26e-04	0	56	0	854589440	62	5214
2026-01-03 00:03:52.77	140.67	51.83	-49.2	-51.7	14.1	3.73e-05	0	56	0	856686592	61	4716
2026-01-03 00:03:53.75	141.22	51.63	-48.4	-50.3	15.7	0.00e+00	0	56	0	857735168	59	4496
2026-01-03 00:03:54.74	141.75	51.43	-48.0	-49.8	16.1	0.00e+00	0	56	0	859832320	59	4250
2026-01-03 00:03:55.74	142.29	51.22	-48.9	-51.2	14.9	0.00e+00	0	56	0	861929472	59	4994
2026-01-03 00:03:56.72	142.81	51.02	-50.0	-53.2	12.8	2.13e-05	0	56	0	864026624	61	5600
2026-01-03 00:03:57.71	143.33	50.81	-51.1	-55.6	10.2	2.61e-03	0	56	0	866123776	64	6233
2026-01-03 00:03:58.70	143.84	50.60	-51.2	-56.2	9.4	1.82e-02	0	56	0	867172352	64	6649
2026-01-03 00:03:59.68	144.34	50.39	-50.4	-54.0	11.8	5.77e-03	0	56	0	869269504	63	5491
2026-01-03 00:04:00.67	144.83	50.18	-49.5	-52.1	13.7	1.83e-05	0	56	0	871366656	62	4702
2026-01-03 00:04:01.66	145.32	49.97	-49.8	-52.7	13.3	8.30e-06	0	56	0	873463808	61	5303
2026-01-03 00:04:02.65	145.80	49.76	-50.4	-53.9	11.9	2.76e-04	0	56	0	874512384	63	5410
2026-01-03 00:04:03.64	146.28	49.54	-50.3	-53.6	12.3	2.23e-04	0	56	0	876609536	63	5237
2026-01-03 00:04:04.63	146.75	49.32	-49.6	-52.3	13.5	4.95e-05	0	56	0	878706688	62	4813
2026-01-03 00:04:05.62	147.21	49.11	-48.8	-51.0	15.0	7.00e-07	0	56	0	880803840	60	4608
2026-01-03 00:04:06.61	147.67	48.89	-49.4	-51.9	14.1	7.00e-07	0	56	0	881852416	60	5102
2026-01-03 00:04:07.60	148.12	48.67	-50.3	-53.6	12.3	1.98e-05	0	56	0	883949568	62	5533
2026-01-03 00:04:08.59	148.56	48.45	-51.3	-56.1	9.7	5.24e-03	0	56	0	886046720	64	6619
2026-01-03 00:04:09.58	149.00	48.23	-50.9	-55.2	10.7	3.98e-03	0	56	0	888143872	64	5929
2026-01-03 00:04:10.57	149.43	48.01	-50.0	-53.1	12.8	5.59e-04	0	56	0	890241024	63	4965
2026-01-03 00:04:11.57	149.86	47.79	-49.0	-51.3	14.5	7.00e-07	0	56	0	891289600	61	4541
2026-01-03 00:04:12.55	150.28	47.57	-48.6	-50.7	15.2	0.00e+00	0	56	0	893386752	60	4473
2026-01-03 00:04:13.55	150.70	47.34	-48.4	-50.4	15.5	0.00e+00	0	56	0	895483904	59	4547
2026-01-03 00:04:14.54	151.10	47.12	-48.7	-50.9	15.1	0.00e+00	0	56	0	897581056	59	4833
2026-01-03 00:04:15.53	151.51	46.90	-48.5	-50.5	15.3	0.00e+00	0	56	0	898629632	59	4628
2026-01-03 00:04:16.52	151.90	46.67	-48.4	-50.4	15.4	0.00e+00	0	56	0	900726784	59	4588
2026-01-03 00:04:17.51	152.29	46.45	-49.0	-51.2	14.6	0.00e+00	0	56	0	902823936	59	4995
2026-01-03 00:04:18.50	152.68	46.23	-49.0	-51.3	14.5	0.00e+00	0	56	0	904921088	60	4785
2026-01-03 00:04:19.49	153.06	46.00	-48.7	-50.9	15.0	7.00e-07	0	56	0	905969664	60	4572
2026-01-03 00:04:20.48	153.43	45.78	-48.1	-49.9	16.1	0.00e+00	0	56	0	908066816	59	4308
2026-01-03 00:04:21.47	153.80	45.56	-48.5	-50.5	15.5	0.00e+00	0	56	0	910163968	59	4599
2026-01-03 00:04:22.46	154.17	45.33	-48.3	-50.2	15.7	0.00e+00	0	56	0	912261120	59	4491
2026-01-03 00:04:23.45	154.53	45.11	-48.1	-49.9	16.1	0.00e+00	0	56	0	914358272	59	4329
2026-01-03 00:04:24.44	154.88	44.88	-48.3	-50.2	15.6	0.00e+00	0	56	0	915406848	59	4463
2026-01-03 00:04:25.44	155.24	44.66	-48.4	-50.3	15.6	0.00e+00	0	56	0	917504000	59	4526
2026-01-03 00:04:26.43	155.58	44.43	-48.3	-50.2	15.6	0.00e+00	0	56	0	919601152	59	4448
2026-01-03 00:04:27.41	155.92	44.21	-48.5	-50.5	15.5	0.00e+00	0	56	0	921698304	59	4605
2026-01-03 00:04:28.40	156.25	43.99	-49.0	-51.2	14.6	0.00e+00	0	56	0	922746880	59	5020
2026-01-03 00:04:29.39	156.58	43.77	-49.0	-51.2	14.7	7.00e-07	0	56	0	924844032	60	4738
2026-01-03 00:04:30.38	156.91	43.54	-49.5	-52.2	13.7	8.30e-06	0	56	0	926941184	60	5290
2026-01-03 00:04:31.36	157.23	43.32	-50.4	-53.7	12.2	8.39e-05	0	57	0	929038336	62	5626
2026-01-03 00:04:32.35	157.55	43.10	-50.5	-53.9	11.8	1.11e-03	0	56	0	930086912	63	5458
2026-01-03 00:04:33.34	157.86	42.88	-48.9	-51.2	14.5	4.95e-05	0	56	0	932184064	61	4469
2026-01-03 00:04:34.33	158.17	42.66	-48.4	-50.3	15.5	0.00e+00	0	56	0	934281216	59	4522
2026-01-03 00:04:35.32	158.47	42.44	-49.0	-51.3	14.6	0.00e+00	0	56	0	936378368	59	5052
2026-01-03 00:04:36.31	158.77	42.22	-49.9	-52.9	12.9	4.50e-06	0	56	0	938475520	61	5435
2026-01-03 00:04:37.30	159.07	42.00	-50.9	-54.8	11.1	2.10e-04	0	56	0	939524096	63	6041
2026-01-03 00:04:38.29	159.36	41.78	-50.5	-54.0	11.9	1.18e-03	0	57	0	941621248	63	5474
2026-01-03 00:04:39.27	159.65	41.56	-49.3	-51.7	14.0	2.82e-05	0	56	0	943718400	61	4750
2026-01-03 00:04:40.27	159.94	41.34	-48.8	-50.9	14.9	0.00e+00	0	56	0	945815552	60	4587
2026-01-03 00:04:41.25	160.22	41.12	-48.9	-51.3	14.6	7.00e-07	0	56	0	946864128	60	4775
2026-01-03 00:04:42.24	160.49	40.90	-49.8	-52.7	13.3	6.80e-06	0	56	0	948961280	61	5282
2026-01-03 00:04:43.23	160.77	40.69	-50.1	-53.2	12.7	2.36e-05	0	56	0	951058432	62	5285
2026-01-03 00:04:44.22	161.04	40.47	-50.2	-53.3	12.5	4.80e-05	0	56	0	953155584	62	5366
2026-01-03 00:04:45.21	161.31	40.26	-50.3	-53.5	12.3	1.75e-04	0	56	0	954204160	62	5516
2026-01-03 00:04:46.20	161.57	40.04	-50.3	-53.6	12.2	1.71e-04	0	56	0	956301312	62	5574
2026-01-03 00:04:47.19	161.83	39.83	-49.6	-52.3	13.5	4.34e-05	0	56	0	958398464	62	4786
2026-01-03 00:04:48.18	162.09	39.61	-48.9	-51.1	14.7	1.50e-06	0	56	0	960495616	60	4696
2026-01-03 00:04:49.18	162.34	39.40	-48.3	-50.2	15.7	0.00e+00	0	56	0	962592768	59	4465
2026-01-03 00:04:50.17	162.59	39.19	-48.2	-50.1	15.7	0.00e+00	0	56	0	963641344	59	4396
2026-01-03 00:04:51.16	162.84	38.97	-48.2	-50.1	15.7	0.00e+00	0	56	0	965738496	59	4438
2026-01-03 00:04:52.16	163.09	38.76	-49.1	-51.5	14.3	0.00e+00	0	56	0	967835648	60	4886
2026-01-03 00:04:53.15	163.33	38.55	-50.3	-53.7	12.1	1.32e-04	0	56	0	969932800	62	5615
2026-01-03 00:04:54.14	163.57	38.34	-50.8	-54.8	11.0	1.06e-03	0	56	0	970981376	63	6004
2026-01-03 00:04:55.13	163.80	38.13	-50.5	-54.1	11.5	1.67e-03	0	56	0	973078528	63	5546
2026-01-03 00:04:56.12	164.03	37.92	-49.1	-51.6	14.2	1.55e-04	0	56	0	975175680	61	4681
2026-01-03 00:04:57.12	164.26	37.72	-48.5	-50.4	15.4	0.00e+00	0	56	0	977272832	59	4590
2026-01-03 00:04:58.11	164.49	37.51	-48.2	-50.0	15.7	0.00e+00	0	56	0	979369984	59	4385
2026-01-03 00:04:59.10	164.71	37.30	-48.1	-49.9	15.9	0.00e+00	0	56	0	980418560	58	4597
2026-01-03 00:05:00.08	164.93	37.10	-48.6	-50.5	15.3	0.00e+00	0	56	0	982515712	58	4920
2026-01-03 00:05:01.08	165.15	36.90	-48.8	-50.9	15.0	0.00e+00	0	56	0	984612864	59	4841
2026-01-03 00:05:02.07	165.37	36.69	-49.0	-51.2	14.6	0.00e+00	0	57	0	986710016	60	4749
2026-01-03 00:05:03.06	165.58	36.49	-48.7	-50.9	15.1	7.00e-07	0	56	0	987758592	60	4555
2026-01-03 00:05:04.05	165.79	36.29	-48.2	-50.1	15.6	0.00e+00	0	56	0	989855744	59	4435
2026-01-03 00:05:05.03	166.00	36.09	-48.5	-50.6	15.4	0.00e+00	0	56	0	991952896	59	4654
2026-01-03 00:05:06.02	166.20	35.89	-48.5	-50.5	15.3	0.00e+00	0	56	0	994050048	59	4648
2026-01-03 00:05:07.01	166.40	35.69	-48.7	-50.9	15.0	0.00e+00	0	56	0	995098624	59	4829
2026-01-03 00:05:08.00	166.60	35.49	-48.4	-50.3	15.6	0.00e+00	0	56	0	997195776	59	4519
2026-01-03 00:05:08.99	166.80	35.30	-48.3	-50.3	15.6	0.00e+00	0	56	0	999292928	59	4495
2026-01-03 00:05:09.98	167.00	35.10	-48.5	-50.5	15.3	0.00e+00	0	57	0	1001390080	59	4607
2026-01-03 00:05:10.98	167.19	34.90	-49.0	-51.3	14.5	0.00e+00	0	56	0	1003487232	59	5057
2026-01-03 00:05:11.97	167.38	34.71	-49.6	-52.2	13.6	6.80e-06	0	56	0	1004535808	61	5030
2026-01-03 00:05:12.96	167.57	34.51	-50.1	-53.2	12.7	3.43e-05	0	56	0	1006632960	61	5598
2026-01-03 00:05:13.95	167.76	34.32	-50.9	-54.9	11.0	6.52e-04	0	56	0	1008730112	63	6077
2026-01-03 00:05:14.93	167.94	34.13	-51.0	-55.2	10.6	3.23e-03	0	56	0	1010827264	63	6286
2026-01-03 00:05:15.93	168.13	33.94	-50.8	-54.8	11.0	1.95e-03	0	56	0	1011875840	63	6058
2026-01-03 00:05:16.92	168.31	33.75	-50.1	-53.2	12.6	9.26e-04	0	56	0	1013972992	63	5018
2026-01-03 00:05:17.91	168.49	33.56	-49.4	-52.0	13.7	2.59e-05	0	56	0	1016070144	61	4910
2026-01-03 00:05:18.90	168.66	33.37	-49.3	-51.9	14.0	5.30e-06	0	56	0	1018167296	61	4819
2026-01-03 00:05:19.89	168.84	33.18	-48.6	-50.8	15.0	0.00e+00	0	56	0	1019215872	60	4523
2026-01-03 00:05:20.88	169.01	33.00	-48.8	-51.1	14.7	0.00e+00	0	56	0	1021313024	60	4700
2026-01-03 00:05:21.86	169.18	32.81	-48.8	-51.0	14.8	0.00e+00	0	56	0	1023410176	60	4621
2026-01-03 00:05:22.86	169.35	32.62	-48.8	-51.1	14.8	0.00e+00	0	56	0	1025507328	60	4652
2026-01-03 00:05:23.84	169.51	32.44	-49.2	-51.6	14.2	1.50e-06	0	56	0	1027604480	60	4966
2026-01-03 00:05:24.83	169.68	32.26	-49.3	-51.9	13.9	1.50e-06	0	57	0	1028653056	60	5113
2026-01-03 00:05:25.82	169.84	32.08	-49.4	-52.0	13.8	1.50e-06	0	56	0	1030750208	60	5160
2026-01-03 00:05:26.80	170.00	31.90	-49.1	-51.4	14.4	2.20e-06	0	57	0	1032847360	60	4845
2026-01-03 00:05:27.80	170.16	31.71	-48.9	-51.2	14.6	0.00e+00	0	56	0	1034944512	60	4744
2026-01-03 00:05:28.79	170.32	31.53	-48.9	-51.3	14.5	7.00e-07	0	56	0	1035993088	60	4783
2026-01-03 00:05:29.78	170.48	31.36	-48.7	-50.8	15.0	7.00e-07	0	56	0	1038090240	60	4516
2026-01-03 00:05:30.76	170.63	31.18	-49.1	-51.5	14.3	0.00e+00	0	56	0	1040187392	60	4922
2026-01-03 00:05:31.76	170.79	31.00	-48.9	-51.3	14.5	1.50e-06	0	56	0	1042284544	60	4775
2026-01-03 00:05:32.75	170.94	30.82	-49.4	-52.0	13.7	0.00e+00	0	56	0	1043333120	60	5217
2026-01-03 00:05:33.73	171.09	30.65	-49.9	-52.9	12.9	3.96e-05	0	56	0	1045430272	61	5418
2026-01-03 00:05:34.72	171.23	30.48	-49.8	-52.8	13.0	1.83e-05	0	56	0	1047527424	61	5351
2026-01-03 00:05:35.72	171.38	30.30	-49.9	-52.8	12.9	3.28e-05	0	56	0	1049624576	61	5399
2026-01-03 00:05:36.71	171.53	30.13	-49.5	-52.3	13.5	9.00e-05	0	57	0	1051721728	61	5076
2026-01-03 00:05:37.70	171.67	29.96	-49.4	-52.0	13.7	5.30e-06	0	56	0	1052770304	61	4926
2026-01-03 00:05:38.68	171.81	29.79	-49.5	-52.1	13.7	2.20e-06	0	56	0	1054867456	61	4947
2026-01-03 00:05:39.67	171.95	29.62	-49.1	-51.4	14.4	3.00e-06	0	56	0	1056964608	61	4583
2026-01-03 00:05:40.67	172.09	29.44	-48.6	-50.7	15.1	0.00e+00	0	56	0	1059061760	60	4471
2026-01-03 00:05:41.66	172.23	29.28	-48.1	-49.9	15.8	0.00e+00	0	57	0	1060110336	59	4337
2026-01-03 00:05:42.65	172.37	29.11	-48.1	-49.9	15.9	0.00e+00	0	56	0	1062207488	58	4573
2026-01-03 00:05:43.64	172.50	28.94	-47.8	-49.6	16.2	0.00e+00	0	56	0	1064304640	58	4411
2026-01-03 00:05:44.63	172.64	28.77	-48.0	-49.7	16.1	0.00e+00	0	56	0	1066401792	58	4475
2026-01-03 00:05:45.60	172.77	28.61	-48.4	-50.4	15.4	0.00e+00	0	56	0	1067450368	58	4845
2026-01-03 00:05:46.59	172.90	28.45	-48.7	-50.8	14.9	7.00e-07	0	56	0	1069547520	59	4813
2026-01-03 00:05:47.58	173.03	28.28	-49.1	-51.5	14.3	0.00e+00	0	56	0	1071644672	60	4893
2026-01-03 00:05:48.57	173.16	28.12	-49.6	-52.4	13.4	1.14e-05	0	56	0	1073741824	61	5128
2026-01-03 00:05:49.56	173.28	27.96	-49.5	-52.2	13.6	7.60e-06	0	57	0	1075838976	61	4999
2026-01-03 00:05:50.55	173.41	27.80	-49.9	-52.9	12.8	4.73e-05	0	56	0	1076887552	61	5463
2026-01-03 00:05:51.53	173.53	27.64	-49.9	-52.8	12.8	7.78e-05	0	56	0	1078984704	61	5392
2026-01-03 00:05:52.53	173.66	27.48	-49.5	-52.3	13.5	1.60e-05	0	57	0	1081081856	61	5054
2026-01-03 00:05:53.51	173.78	27.32	-49.7	-52.5	13.3	1.90e-05	0	56	0	1083179008	61	5166
2026-01-03 00:05:54.50	173.90	27.16	-49.6	-52.4	13.3	1.22e-05	0	57	0	1084227584	61	5157
2026-01-03 00:05:55.50	174.02	27.00	-49.6	-52.4	13.3	4.50e-06	0	57	0	1086324736	61	5158
2026-01-03 00:05:56.49	174.14	26.85	-49.6	-52.3	13.5	1.22e-05	0	57	0	1088421888	61	5065
2026-01-03 00:05:57.48	174.26	26.69	-49.2	-51.8	13.8	4.50e-06	0	57	0	1090519040	61	4797
2026-01-03 00:05:58.47	174.38	26.53	-49.5	-52.1	13.7	3.80e-06	0	57	0	1092616192	61	4950
2026-01-03 00:05:59.46	174.49	26.38	-49.5	-52.2	13.5	1.22e-05	0	56	0	1093664768	61	5039
2026-01-03 00:06:00.45	174.61	26.23	-49.3	-52.0	13.7	6.80e-06	0	56	0	1095761920	61	4911
2026-01-03 00:06:01.43	174.72	26.08	-49.3	-52.0	13.7	4.50e-06	0	56	0	1097859072	61	4908
2026-01-03 00:06:02.43	174.83	25.92	-49.6	-52.4	13.3	9.10e-06	0	56	0	1099956224	61	5148
2026-01-03 00:06:03.42	174.95	25.77	-49.6	-52.4	13.3	1.37e-05	0	57	0	1101004800	61	5109
2026-01-03 00:06:04.41	175.06	25.62	-49.3	-51.7	13.9	5.30e-06	0	56	0	1103101952	61	4758
2026-01-03 00:06:05.40	175.17	25.47	-49.1	-51.4	14.3	3.00e-06	0	56	0	1105199104	61	4590
2026-01-03 00:06:06.40	175.28	25.32	-48.5	-50.6	15.1	0.00e+00	0	56	0	1107296256	60	4441
2026-01-03 00:06:07.39	175.38	25.17	-48.5	-50.4	15.3	0.00e+00	0	56	0	1108344832	59	4596
2026-01-03 00:06:08.38	175.49	25.02	-48.4	-50.3	15.5	0.00e+00	0	57	0	1110441984	59	4513
2026-01-03 00:06:09.37	175.60	24.88	-48.1	-50.0	15.8	0.00e+00	0	56	0	1112539136	59	4364
2026-01-03 00:06:10.36	175.70	24.73	-48.2	-50.0	15.7	0.00e+00	0	57	0	1114636288	59	4378
2026-01-03 00:06:11.34	175.80	24.59	-48.1	-50.0	15.7	0.00e+00	0	56	0	1115684864	59	4370
2026-01-03 00:06:12.34	175.91	24.44	-47.8	-49.5	16.2	0.00e+00	0	56	0	1117782016	58	4384
2026-01-03 00:06:13.33	176.01	24.30	-47.8	-49.5	16.3	0.00e+00	0	56	0	1119879168	58	4351
2026-01-03 00:06:14.32	176.11	24.15	-47.5	-49.1	16.6	0.00e+00	0	56	0	1121976320	58	4190
2026-01-03 00:06:15.31	176.21	24.01	-47.6	-49.2	16.5	0.00e+00	0	56	0	1124073472	58	4229
2026-01-03 00:06:16.30	176.31	23.87	-47.7	-49.3	16.4	0.00e+00	0	56	0	1125122048	58	4278
2026-01-03 00:06:17.28	176.41	23.73	-47.5	-49.1	16.6	0.00e+00	0	56	0	1127219200	58	4173
2026-01-03 00:06:18.27	176.50	23.59	-47.6	-49.3	16.4	0.00e+00	0	56	0	1129316352	58	4261
2026-01-03 00:06:19.26	176.60	23.45	-47.8	-49.5	16.2	0.00e+00	0	56	0	1131413504	58	4371
2026-01-03 00:06:20.26	176.70	23.31	-47.6	-49.4	16.3	0.00e+00	0	56	0	1132462080	58	4292
2026-01-03 00:06:21.26	176.79	23.17	-47.9	-49.7	16.0	0.00e+00	0	56	0	1134559232	58	4470
2026-01-03 00:06:22.24	176.89	23.03	-48.0	-49.9	15.9	0.00e+00	0	56	0	1136656384	58	4554
2026-01-03 00:06:23.24	176.98	22.89	-48.1	-50.0	15.8	0.00e+00	0	57	0	1138753536	58	4618
2026-01-03 00:06:24.22	177.07	22.76	-48.2	-50.1	15.6	0.00e+00	0	56	0	1140850688	58	4698
2026-01-03 00:06:25.21	177.17	22.62	-48.2	-50.1	15.6	0.00e+00	0	56	0	1141899264	58	4696
2026-01-03 00:06:26.20	177.26	22.49	-48.2	-50.1	15.3	0.00e+00	0	56	0	1143996416	58	4705
2026-01-03 00:06:27.19	177.35	22.35	-48.2	-50.1	15.6	0.00e+00	0	57	0	1146093568	58	4691
2026-01-03 00:06:28.18	177.44	22.22	-48.3	-50.3	15.4	0.00e+00	0	57	0	1148190720	58	4782
2026-01-03 00:06:29.17	177.53	22.08	-48.0	-49.9	15.8	0.00e+00	0	56	0	1149239296	58	4589
2026-01-03 00:06:30.16	177.62	21.95	-48.0	-49.8	15.9	0.00e+00	0	56	0	1151336448	58	4543
2026-01-03 00:06:31.14	177.70	21.82	-48.1	-50.0	15.7	0.00e+00	0	56	0	1153433600	58	4614
2026-01-03 00:06:32.13	177.79	21.69	-47.8	-49.6	16.1	0.00e+00	0	56	0	1155530752	58	4395
2026-01-03 00:06:33.11	177.87	21.56	-47.7	-49.4	16.2	0.00e+00	0	56	0	1156579328	58	4336
2026-01-03 00:06:34.10	177.96	21.43	-47.5	-49.1	16.5	0.00e+00	0	56	0	1158676480	58	4187
2026-01-03 00:06:35.09	178.04	21.30	-47.3	-48.9	16.7	0.00e+00	0	56	0	1160773632	57	4319
2026-01-03 00:06:36.08	178.13	21.17	-47.4	-49.0	16.6	0.00e+00	0	56	0	1162870784	57	4379
2026-01-03 00:06:37.07	178.21	21.04	-47.4	-49.0	16.6	0.00e+00	0	56	0	1164967936	57	4374
2026-01-03 00:06:38.05	178.29	20.92	-47.0	-48.5	17.1	0.00e+00	0	56	0	1166016512	57	4128
2026-01-03 00:06:39.04	178.38	20.79	-46.8	-48.3	17.4	0.00e+00	0	56	0	1168113664	56	4256
2026-01-03 00:06:40.03	178.46	20.66	-46.5	-47.9	17.7	0.00e+00	0	56	0	1170210816	56	4078
2026-01-03 00:06:41.02	178.54	20.54	-46.6	-47.9	17.7	0.00e+00	0	56	0	1172307968	56	4081
2026-01-03 00:06:42.01	178.62	20.41	-46.2	-47.5	18.0	0.00e+00	0	56	0	1173356544	55	4132
2026-01-03 00:06:43.02	178.70	20.28	-46.1	-47.4	18.1	0.00e+00	0	56	0	1175453696	55	4061
2026-01-03 00:06:44.00	178.78	20.16	-46.1	-47.4	18.1	0.00e+00	0	57	0	1177550848	55	4081
2026-01-03 00:06:44.99	178.86	20.04	-46.0	-47.3	18.2	0.00e+00	0	56	0	1179648000	55	4034
2026-01-03 00:06:45.97	178.94	19.91	-45.9	-47.2	18.3	0.00e+00	0	57	0	1180696576	54	4207
2026-01-03 00:06:46.96	179.01	19.79	-46.1	-47.4	18.1	0.00e+00	0	56	0	1182793728	54	4321
2026-01-03 00:06:47.95	179.09	19.67	-46.0	-47.3	18.2	0.00e+00	0	56	0	1184890880	54	4247
2026-01-03 00:06:48.94	179.17	19.55	-46.4	-47.7	17.8	0.00e+00	0	56	0	1186988032	54	4471
2026-01-03 00:06:49.93	179.24	19.43	-46.5	-47.9	17.6	0.00e+00	0	56	0	1189085184	54	4593
2026-01-03 00:06:50.91	179.32	19.31	-46.6	-48.0	17.5	0.00e+00	0	56	0	1190133760	54	4644
2026-01-03 00:06:51.91	179.39	19.19	-46.9	-48.4	17.1	0.00e+00	0	56	0	1192230912	55	4589
2026-01-03 00:06:52.89	179.46	19.07	-47.2	-48.8	16.8	0.00e+00	0	57	0	1194328064	56	4523
2026-01-03 00:06:53.88	179.54	18.95	-47.4	-49.1	16.5	0.00e+00	0	56	0	1196425216	56	4692
2026-01-03 00:06:54.86	179.61	18.83	-47.5	-49.2	16.4	0.00e+00	0	56	0	1197473792	56	4751
2026-01-03 00:06:55.86	179.68	18.71	-47.6	-49.4	16.3	0.00e+00	0	56	0	1199570944	57	4554
2026-01-03 00:06:56.84	179.75	18.60	-48.0	-49.8	15.9	0.00e+00	0	57	0	1201668096	57	4811
2026-01-03 00:06:57.84	179.83	18.48	-48.0	-49.9	15.7	0.00e+00	0	56	0	1203765248	57	4837
2026-01-03 00:06:58.82	179.90	18.36	-48.1	-50.0	15.6	0.00e+00	0	56	0	1204813824	58	4639
2026-01-03 00:06:59.81	179.97	18.25	-48.3	-50.3	15.4	0.00e+00	0	56	0	1206910976	58	4769
2026-01-03 00:07:00.79	180.03	18.13	-48.2	-50.2	15.4	0.00e+00	0	57	0	1209008128	58	4753
2026-01-03 00:07:01.78	180.10	18.02	-48.3	-50.3	15.3	0.00e+00	0	57	0	1211105280	58	4779
2026-01-03 00:07:02.76	180.17	17.91	-48.4	-50.5	15.1	0.00e+00	0	56	0	1212153856	58	4913
2026-01-03 00:07:03.76	180.24	17.79	-48.3	-50.4	15.2	0.00e+00	0	56	0	1214251008	58	4834
2026-01-03 00:07:04.74	180.31	17.68	-48.5	-50.6	15.0	0.00e+00	0	56	0	1216348160	58	4971
2026-01-03 00:07:05.73	180.38	17.57	-48.5	-50.5	15.1	0.00e+00	0	57	0	1218445312	58	4924
2026-01-03 00:07:06.72	180.44	17.45	-48.4	-50.4	15.2	0.00e+00	0	57	0	1220542464	58	4831
2026-01-03 00:07:07.71	180.51	17.34	-48.4	-50.5	15.1	0.00e+00	0	56	0	1221591040	58	4885
2026-01-03 00:07:08.70	180.57	17.23	-48.4	-50.5	15.2	0.00e+00	0	56	0	1223688192	58	4910
2026-01-03 00:07:09.69	180.64	17.12	-48.6	-50.7	14.9	0.00e+00	0	57	0	1225785344	59	4745
2026-01-03 00:07:10.68	180.70	17.01	-48.9	-51.2	14.4	0.00e+00	0	57	0	1227882496	59	5005
2026-01-03 00:07:11.66	180.77	16.90	-48.7	-51.0	14.6	2.20e-06	0	57	0	1228931072	59	4908
2026-01-03 00:07:12.65	180.83	16.79	-48.8	-51.0	14.6	0.00e+00	0	56	0	1231028224	59	4925
2026-01-03 00:07:13.64	180.90	16.68	-48.7	-50.9	14.7	1.50e-06	0	56	0	1233125376	59	4869
2026-01-03 00:07:14.62	180.96	16.57	-48.5	-50.7	14.9	0.00e+00	0	57	0	1235222528	59	4756
2026-01-03 00:07:15.61	181.02	16.47	-48.6	-50.8	14.8	0.00e+00	0	56	0	1236271104	59	4790
2026-01-03 00:07:16.60	181.08	16.36	-48.5	-50.6	15.1	0.00e+00	0	56	0	1238368256	59	4672
2026-01-03 00:07:17.59	181.15	16.25	-48.5	-50.6	15.1	0.00e+00	0	57	0	1240465408	59	4671
2026-01-03 00:07:18.57	181.21	16.14	-48.2	-50.2	15.4	0.00e+00	0	57	0	1242562560	59	4479
2026-01-03 00:07:19.56	181.27	16.04	-48.0	-49.9	15.8	0.00e+00	0	56	0	1243611136	58	4550
2026-01-03 00:07:20.54	181.33	15.93	-47.9	-49.7	15.9	0.00e+00	0	57	0	1245708288	58	4476
2026-01-03 00:07:21.53	181.39	15.83	-47.6	-49.4	16.2	0.00e+00	0	57	0	1247805440	58	4328
2026-01-03 00:07:22.52	181.45	15.72	-47.6	-49.3	16.2	0.00e+00	0	56	0	1249902592	58	4289
2026-01-03 00:07:23.51	181.51	15.62	-47.5	-49.2	16.3	0.00e+00	0	57	0	1251999744	58	4235
2026-01-03 00:07:24.50	181.57	15.51	-47.3	-49.0	16.5	0.00e+00	0	57	0	1253048320	57	4356
2026-01-03 00:07:25.48	181.63	15.41	-47.3	-49.0	16.6	0.00e+00	0	56	0	1255145472	57	4347
2026-01-03 00:07:26.48	181.69	15.31	-47.2	-48.8	16.7	0.00e+00	0	57	0	1257242624	57	4268
2026-01-03 00:07:27.47	181.74	15.20	-47.0	-48.6	16.9	0.00e+00	0	57	0	1259339776	57	4176
2026-01-03 00:07:28.45	181.80	15.10	-47.2	-48.8	16.7	0.00e+00	0	56	0	1260388352	57	4271
