passes_logs/2026/01/02/R3.0SM8_Murmansk_STILSPACE/R3.0SM8_Murmansk_STILSPACE__20260102_012547_NOAA_21_JPSS-2_rec.log

#Pass ID: 20260102_012547_NOAA 21 (JPSS-2)
#Satellite: NOAA 21 (JPSS-2)
#Configuration: NOAA-21
#almurnet v.1.7.20240730
#Start time: 2026-01-02 01:32:47

#Version: 2.2.20231116
#Station: R3.0SM8_Murmansk_STILSPACE
#Location: 33.092731 lon 68.902999 lat
#TLE: 1 54234U 22150A   26001.26806856  .00000185  00000+0  10843-3 0  9990
#TLE: 2 54234  98.7484 302.3349 0001277 353.3887   6.7272 14.19530660162860

#Time	Az	El	Level	Level2	SNR	BER	BlckErr	Temp	State	Recorded	gain1	gain2
2026-01-02 01:32:47.24	301.63	61.30	-52.6	-62.9	3.8	8.45e-01	0	58	0	0	67	12029
2026-01-02 01:32:48.22	300.70	61.26	-52.8	-64.4	3.8	1.49e+00	0	58	104	0	68	13654
2026-01-02 01:32:49.21	299.77	61.22	-52.9	-64.4	3.8	1.49e+00	0	58	104	0	68	13631
2026-01-02 01:32:50.21	298.82	61.16	-52.7	-64.4	3.8	1.49e+00	0	58	104	0	68	13584
2026-01-02 01:32:51.20	297.90	61.10	-52.9	-64.4	3.8	1.49e+00	0	58	104	0	68	13683
2026-01-02 01:32:52.20	296.97	61.03	-52.9	-64.4	3.8	1.49e+00	0	58	104	0	68	13645
2026-01-02 01:32:53.19	296.05	60.96	-52.7	-64.4	3.8	1.49e+00	0	58	104	0	68	13678
2026-01-02 01:32:54.17	295.14	60.88	-52.8	-64.4	3.8	1.49e+00	0	58	104	0	68	13582
2026-01-02 01:32:55.17	294.23	60.79	-52.8	-64.3	3.8	1.49e+00	0	58	104	0	68	13554
2026-01-02 01:32:56.16	293.33	60.70	-52.9	-64.4	3.8	1.49e+00	0	58	104	0	68	13584
2026-01-02 01:32:57.15	292.44	60.60	-52.8	-64.4	3.8	1.49e+00	0	58	104	0	68	13616
2026-01-02 01:32:58.14	291.55	60.50	-52.8	-64.3	3.8	1.49e+00	0	58	104	0	68	13565
2026-01-02 01:32:59.13	290.67	60.39	-52.8	-64.4	3.8	1.49e+00	0	58	104	0	68	13631
2026-01-02 01:33:00.12	289.80	60.27	-52.8	-64.3	3.8	1.49e+00	0	58	104	0	68	13540
2026-01-02 01:33:01.10	288.95	60.15	-52.8	-64.3	3.8	1.49e+00	0	58	104	0	68	13535
2026-01-02 01:33:02.08	288.11	60.02	-52.9	-64.4	3.8	1.49e+00	0	58	104	0	68	13620
2026-01-02 01:33:03.07	287.26	59.89	-52.9	-64.4	3.8	1.49e+00	0	58	104	0	68	13603
2026-01-02 01:33:04.07	286.42	59.75	-52.9	-64.4	3.8	1.49e+00	0	58	104	0	68	13599
2026-01-02 01:33:05.05	285.60	59.61	-52.9	-64.4	3.8	1.49e+00	0	58	104	0	68	13582
2026-01-02 01:33:06.03	284.79	59.46	-52.9	-64.4	3.8	1.49e+00	0	58	104	0	68	13616
2026-01-02 01:33:07.03	283.97	59.31	-52.9	-64.4	3.8	1.49e+00	0	58	104	0	68	13657
2026-01-02 01:33:08.02	283.17	59.15	-52.8	-64.3	3.8	1.49e+00	0	58	104	0	68	13550
2026-01-02 01:33:09.01	282.38	58.99	-52.9	-64.4	3.8	1.49e+00	0	58	104	0	68	13609
2026-01-02 01:33:10.00	281.60	58.82	-52.6	-64.4	3.8	1.49e+00	0	58	104	0	68	13578
2026-01-02 01:33:11.00	280.82	58.64	-52.9	-64.4	3.8	1.49e+00	0	58	104	0	68	13572
2026-01-02 01:33:11.99	280.06	58.47	-52.8	-64.4	3.8	1.49e+00	0	58	104	0	68	13593
2026-01-02 01:33:12.98	279.32	58.29	-52.8	-64.4	3.8	1.49e+00	0	58	104	0	68	13573
2026-01-02 01:33:13.97	278.58	58.10	-52.8	-64.3	3.8	1.49e+00	0	58	104	0	68	13488
2026-01-02 01:33:14.95	277.85	57.92	-52.8	-64.4	3.8	1.49e+00	0	58	104	0	68	13586
2026-01-02 01:33:15.95	277.13	57.73	-52.8	-64.3	3.8	1.49e+00	0	58	104	0	68	13552
2026-01-02 01:33:16.94	276.42	57.53	-52.7	-64.3	3.8	1.49e+00	0	58	104	0	68	13536
2026-01-02 01:33:17.92	275.73	57.33	-52.7	-64.3	3.8	1.49e+00	0	58	104	0	68	13561
2026-01-02 01:33:18.91	275.04	57.13	-52.9	-64.3	3.8	1.49e+00	0	58	104	0	68	13550
2026-01-02 01:33:19.89	274.37	56.93	-52.9	-64.3	3.8	1.49e+00	0	58	104	0	68	13506
2026-01-02 01:33:20.88	273.70	56.72	-52.8	-64.3	3.8	1.49e+00	0	58	104	0	68	13451
2026-01-02 01:33:21.87	273.04	56.51	-52.8	-64.3	3.8	1.49e+00	0	58	104	0	68	13463
2026-01-02 01:33:22.85	272.40	56.30	-52.8	-64.3	3.8	1.49e+00	0	58	104	0	68	13465
2026-01-02 01:33:23.84	271.77	56.08	-52.7	-64.3	3.8	1.49e+00	0	58	104	0	68	13422
2026-01-02 01:33:24.84	271.13	55.86	-52.8	-64.3	3.8	1.49e+00	0	58	104	0	68	13546
2026-01-02 01:33:25.83	270.51	55.64	-52.9	-64.1	3.8	1.49e+00	0	59	104	0	68	13210
2026-01-02 01:33:26.81	269.91	55.42	-52.9	-64.2	3.8	1.49e+00	0	58	104	0	68	13305
2026-01-02 01:33:27.80	269.31	55.19	-52.9	-64.2	3.8	1.49e+00	0	58	104	0	68	13394
2026-01-02 01:33:28.79	268.72	54.96	-52.8	-64.3	3.8	1.49e+00	0	58	104	0	68	13440
2026-01-02 01:33:29.78	268.14	54.73	-52.7	-64.3	3.8	1.49e+00	0	58	104	0	68	13564
2026-01-02 01:33:30.76	267.58	54.50	-52.8	-64.3	3.8	1.49e+00	0	58	104	0	68	13429
2026-01-02 01:33:31.75	267.02	54.27	-52.9	-64.3	3.8	1.49e+00	0	58	104	0	68	13538
2026-01-02 01:33:32.74	266.47	54.03	-52.8	-64.1	3.8	1.49e+00	0	58	104	0	68	13208
2026-01-02 01:33:33.73	265.92	53.80	-52.7	-63.1	3.8	1.49e+00	0	58	104	0	68	11704
2026-01-02 01:33:34.73	265.39	53.56	-52.7	-62.9	3.8	1.49e+00	0	58	104	0	68	11507
2026-01-02 01:33:35.71	264.87	53.32	-52.6	-62.5	3.8	1.49e+00	0	58	104	0	68	10931
2026-01-02 01:33:36.70	264.35	53.08	-51.1	-55.9	7.0	2.80e-01	0	58	0	1048576	65	6087
2026-01-02 01:33:37.68	263.85	52.84	-48.5	-50.6	12.5	2.43e-03	0	58	0	3145728	60	4413
2026-01-02 01:33:38.68	263.34	52.59	-45.8	-46.9	16.1	0.00e+00	0	58	0	6291456	54	4081
2026-01-02 01:33:39.66	262.86	52.35	-44.6	-45.5	17.4	0.00e+00	0	58	0	9437184	52	3898
2026-01-02 01:33:40.65	262.37	52.11	-45.5	-46.5	16.5	0.00e+00	0	58	0	12582912	52	4376
2026-01-02 01:33:41.64	261.90	51.86	-46.6	-47.8	15.2	0.00e+00	0	58	0	15728640	55	4290
2026-01-02 01:33:42.63	261.43	51.61	-46.4	-47.6	15.4	0.00e+00	0	58	0	18874368	55	4178
2026-01-02 01:33:43.63	260.96	51.36	-46.9	-48.3	14.8	0.00e+00	0	58	0	22020096	55	4515
2026-01-02 01:33:44.62	260.51	51.11	-47.3	-48.8	14.3	7.00e-07	0	58	0	25165824	56	4541
2026-01-02 01:33:45.61	260.07	50.86	-47.2	-48.6	14.5	0.00e+00	0	58	0	28311552	56	4431
2026-01-02 01:33:46.60	259.63	50.62	-47.0	-48.4	14.7	0.00e+00	0	58	0	31457280	56	4303
2026-01-02 01:33:47.58	259.20	50.37	-47.1	-48.5	14.6	0.00e+00	0	58	0	34603008	56	4382
2026-01-02 01:33:48.56	258.79	50.12	-47.4	-48.9	14.2	7.00e-07	0	58	0	37748736	56	4594
2026-01-02 01:33:49.55	258.37	49.87	-47.9	-49.7	13.5	8.30e-06	0	58	0	40894464	57	4755
2026-01-02 01:33:50.55	257.96	49.62	-48.7	-51.0	12.2	1.52e-04	0	58	0	44040192	59	4878
2026-01-02 01:33:51.54	257.55	49.37	-49.2	-51.8	11.4	6.68e-04	0	58	0	47185920	60	5054
2026-01-02 01:33:52.53	257.16	49.12	-49.5	-52.2	10.9	2.20e-03	0	58	0	50331648	60	5316
2026-01-02 01:33:53.51	256.77	48.87	-49.5	-52.3	10.8	2.38e-03	0	58	0	53477376	60	5380
2026-01-02 01:33:54.50	256.39	48.62	-49.2	-51.8	11.2	2.42e-03	0	58	0	56623104	61	4787
2026-01-02 01:33:55.49	256.01	48.37	-48.4	-50.4	12.6	2.80e-04	0	58	0	59768832	59	4594
2026-01-02 01:33:56.48	255.64	48.12	-47.3	-48.8	14.2	3.00e-06	0	58	0	62914560	57	4285
2026-01-02 01:33:57.47	255.28	47.86	-46.3	-47.5	15.5	0.00e+00	0	58	0	65011712	55	4122
2026-01-02 01:33:58.46	254.92	47.61	-45.9	-47.0	16.0	0.00e+00	0	58	0	68157440	54	4128
2026-01-02 01:33:59.46	254.56	47.36	-46.6	-47.9	15.0	0.00e+00	0	58	0	71303168	54	4563
2026-01-02 01:34:00.44	254.22	47.11	-47.9	-49.7	13.3	5.30e-06	0	58	0	74448896	57	4732
2026-01-02 01:34:01.44	253.87	46.86	-48.8	-51.0	12.0	2.16e-04	0	58	0	77594624	59	4884
2026-01-02 01:34:02.43	253.54	46.61	-48.8	-51.2	11.9	5.42e-04	0	58	0	80740352	60	4737
2026-01-02 01:34:03.43	253.20	46.36	-48.2	-50.2	13.0	9.91e-05	0	58	0	83886080	59	4447
2026-01-02 01:34:04.41	252.88	46.12	-47.4	-49.1	14.0	9.90e-06	0	58	0	87031808	58	4166
2026-01-02 01:34:05.41	252.55	45.87	-47.1	-48.7	14.4	7.00e-07	0	58	0	90177536	57	4197
2026-01-02 01:34:06.40	252.24	45.62	-47.0	-48.5	14.6	1.50e-06	0	58	0	93323264	57	4123
2026-01-02 01:34:07.39	251.93	45.37	-47.0	-48.4	14.7	0.00e+00	0	58	0	96468992	57	4080
2026-01-02 01:34:08.38	251.62	45.13	-46.9	-48.2	14.9	7.00e-07	0	58	0	99614720	56	4240
2026-01-02 01:34:09.36	251.32	44.88	-47.1	-48.6	14.5	0.00e+00	0	58	0	102760448	56	4399
2026-01-02 01:34:10.35	251.03	44.64	-47.3	-48.9	14.2	7.00e-07	0	58	0	105906176	56	4598
2026-01-02 01:34:11.34	250.74	44.39	-48.2	-50.1	13.0	2.36e-05	0	58	0	109051904	58	4665
2026-01-02 01:34:12.33	250.45	44.15	-48.8	-51.1	12.0	1.26e-04	0	58	0	112197632	59	4973
2026-01-02 01:34:13.32	250.16	43.91	-49.0	-51.4	11.4	1.17e-03	0	58	0	115343360	60	4869
2026-01-02 01:34:14.31	249.89	43.67	-48.2	-50.0	12.6	2.51e-04	0	58	0	118489088	59	4385
2026-01-02 01:34:15.30	249.61	43.42	-47.1	-48.6	14.1	3.80e-06	0	58	0	121634816	57	4150
2026-01-02 01:34:16.29	249.34	43.18	-46.8	-48.1	14.7	0.00e+00	0	58	0	124780544	56	4189
2026-01-02 01:34:17.29	249.07	42.94	-46.8	-48.2	14.8	7.00e-07	0	58	0	127926272	56	4222
2026-01-02 01:34:18.27	248.81	42.71	-47.0	-48.5	14.5	0.00e+00	0	58	0	130023424	56	4366
2026-01-02 01:34:19.25	248.56	42.47	-47.6	-49.2	13.9	5.30e-06	0	58	0	133169152	56	4716
2026-01-02 01:34:20.25	248.30	42.23	-48.1	-50.0	13.1	3.35e-05	0	58	0	136314880	58	4640
2026-01-02 01:34:21.24	248.05	41.99	-47.7	-49.5	13.6	7.60e-06	0	58	0	139460608	58	4369
2026-01-02 01:34:22.24	247.80	41.76	-47.3	-48.9	14.3	2.20e-06	0	58	0	142606336	57	4292
2026-01-02 01:34:23.23	247.55	41.52	-47.1	-48.6	14.6	7.00e-07	0	58	0	145752064	57	4156
2026-01-02 01:34:24.21	247.32	41.29	-46.9	-48.4	14.7	0.00e+00	0	58	0	148897792	57	4068
2026-01-02 01:34:25.20	247.08	41.06	-46.8	-48.3	14.8	0.00e+00	0	58	0	152043520	56	4248
2026-01-02 01:34:26.19	246.85	40.83	-46.7	-48.0	15.1	0.00e+00	0	58	0	155189248	56	4134
2026-01-02 01:34:27.18	246.62	40.59	-46.5	-47.9	15.3	0.00e+00	0	58	0	158334976	56	4059
2026-01-02 01:34:28.17	246.39	40.36	-45.7	-46.8	16.2	0.00e+00	0	58	0	161480704	54	4031
2026-01-02 01:34:29.15	246.17	40.14	-45.2	-46.1	16.8	0.00e+00	0	58	0	164626432	53	3947
2026-01-02 01:34:30.13	245.95	39.91	-44.9	-45.9	17.0	0.00e+00	0	58	0	167772160	53	3829
2026-01-02 01:34:31.12	245.73	39.69	-45.3	-46.3	16.6	0.00e+00	0	58	0	170917888	53	4035
2026-01-02 01:34:32.12	245.52	39.46	-45.6	-46.7	16.3	0.00e+00	0	58	0	174063616	53	4211
2026-01-02 01:34:33.10	245.31	39.23	-46.7	-48.0	15.0	7.00e-07	0	58	0	177209344	55	4362
2026-01-02 01:34:34.09	245.10	39.01	-47.0	-48.5	14.6	1.50e-06	0	58	0	180355072	55	4616
2026-01-02 01:34:35.09	244.89	38.79	-47.9	-49.6	13.6	8.30e-06	0	58	0	183500800	57	4695
2026-01-02 01:34:36.07	244.69	38.57	-47.7	-49.4	13.8	2.20e-06	0	58	0	186646528	57	4557
2026-01-02 01:34:37.07	244.49	38.34	-47.7	-49.3	13.8	5.30e-06	0	58	0	189792256	57	4540
2026-01-02 01:34:38.07	244.29	38.12	-47.5	-49.2	14.0	1.50e-06	0	58	0	191889408	57	4443
2026-01-02 01:34:39.05	244.10	37.90	-47.5	-49.2	14.0	3.80e-06	0	58	0	195035136	57	4446
2026-01-02 01:34:40.04	243.91	37.69	-46.8	-48.2	14.9	7.00e-07	0	58	0	198180864	56	4241
2026-01-02 01:34:41.03	243.72	37.47	-46.3	-47.5	15.5	0.00e+00	0	58	0	201326592	55	4145
2026-01-02 01:34:42.02	243.53	37.25	-46.1	-47.3	15.7	0.00e+00	0	58	0	204472320	55	4024
2026-01-02 01:34:43.01	243.35	37.04	-45.9	-47.1	16.0	0.00e+00	0	58	0	207618048	54	4148
2026-01-02 01:34:44.00	243.17	36.83	-45.9	-47.1	16.0	0.00e+00	0	58	0	210763776	54	4163
2026-01-02 01:34:44.99	242.99	36.61	-45.8	-47.0	16.0	0.00e+00	0	58	0	213909504	54	4117
2026-01-02 01:34:45.98	242.81	36.40	-45.8	-47.1	15.9	0.00e+00	0	58	0	217055232	54	4154
2026-01-02 01:34:46.97	242.64	36.19	-46.0	-47.2	15.7	0.00e+00	0	58	0	220200960	54	4209
2026-01-02 01:34:47.97	242.46	35.98	-46.4	-47.8	15.1	0.00e+00	0	58	0	223346688	54	4509
2026-01-02 01:34:48.95	242.29	35.77	-46.2	-47.5	15.4	0.00e+00	0	58	0	226492416	54	4385
2026-01-02 01:34:49.95	242.12	35.56	-45.9	-47.1	15.9	0.00e+00	0	58	0	229638144	54	4179
2026-01-02 01:34:50.94	241.96	35.36	-45.9	-47.1	15.9	0.00e+00	0	58	0	232783872	54	4155
2026-01-02 01:34:51.93	241.79	35.15	-46.1	-47.3	15.7	0.00e+00	0	58	0	235929600	54	4289
2026-01-02 01:34:52.92	241.63	34.95	-45.9	-47.1	15.9	0.00e+00	0	58	0	239075328	54	4173
2026-01-02 01:34:53.90	241.47	34.75	-45.9	-47.1	16.0	0.00e+00	0	58	0	242221056	54	4162
2026-01-02 01:34:54.88	241.32	34.55	-45.9	-47.2	15.8	0.00e+00	0	58	0	245366784	54	4199
2026-01-02 01:34:55.88	241.16	34.34	-45.5	-46.7	16.3	0.00e+00	0	58	0	248512512	54	3964
2026-01-02 01:34:56.87	241.01	34.14	-45.0	-46.1	16.9	0.00e+00	0	58	0	251658240	53	3915
2026-01-02 01:34:57.86	240.86	33.95	-44.8	-45.8	17.2	0.00e+00	0	58	0	254803968	52	4009
2026-01-02 01:34:58.84	240.71	33.75	-44.8	-45.8	17.1	0.00e+00	0	58	0	256901120	52	4021
2026-01-02 01:34:59.84	240.56	33.55	-45.1	-46.1	16.8	0.00e+00	0	58	0	260046848	52	4173
2026-01-02 01:35:00.82	240.41	33.36	-45.5	-46.6	16.3	0.00e+00	0	58	0	263192576	52	4405
2026-01-02 01:35:01.82	240.27	33.16	-45.5	-46.7	16.2	0.00e+00	0	58	0	266338304	53	4205
2026-01-02 01:35:02.80	240.13	32.97	-45.8	-47.0	16.0	0.00e+00	0	58	0	269484032	53	4388
2026-01-02 01:35:03.79	239.99	32.78	-45.6	-46.8	16.2	0.00e+00	0	58	0	272629760	53	4262
2026-01-02 01:35:04.79	239.84	32.58	-45.1	-46.2	16.8	0.00e+00	0	58	0	275775488	53	3966
2026-01-02 01:35:05.77	239.71	32.39	-44.8	-45.8	17.2	0.00e+00	0	58	0	278921216	52	4026
2026-01-02 01:35:06.76	239.57	32.20	-44.5	-45.4	17.5	0.00e+00	0	58	0	282066944	52	3844
2026-01-02 01:35:07.75	239.44	32.02	-44.4	-45.3	17.6	0.00e+00	0	58	0	285212672	52	3800
2026-01-02 01:35:08.74	239.31	31.83	-44.4	-45.3	17.7	0.00e+00	0	58	0	288358400	51	4045
2026-01-02 01:35:09.73	239.17	31.64	-44.3	-45.2	17.7	0.00e+00	0	58	0	291504128	51	3988
2026-01-02 01:35:10.72	239.04	31.46	-44.5	-45.4	17.6	0.00e+00	0	58	0	294649856	51	4092
2026-01-02 01:35:11.71	238.92	31.27	-44.4	-45.2	17.8	0.00e+00	0	58	0	297795584	51	3980
2026-01-02 01:35:12.70	238.79	31.09	-44.2	-45.1	17.9	0.00e+00	0	58	0	300941312	51	3922
2026-01-02 01:35:13.69	238.66	30.91	-44.2	-45.0	17.9	0.00e+00	0	58	0	304087040	51	3909
2026-01-02 01:35:14.68	238.54	30.72	-44.4	-45.3	17.8	0.00e+00	0	58	0	307232768	51	4016
2026-01-02 01:35:15.67	238.42	30.54	-44.4	-45.2	17.7	0.00e+00	0	58	0	310378496	51	4002
2026-01-02 01:35:16.66	238.30	30.36	-44.4	-45.3	17.7	0.00e+00	0	58	0	313524224	51	4040
2026-01-02 01:35:17.64	238.18	30.19	-44.4	-45.3	17.7	0.00e+00	0	58	0	315621376	51	4034
2026-01-02 01:35:18.63	238.06	30.01	-44.6	-45.5	17.5	0.00e+00	0	58	0	318767104	51	4125
2026-01-02 01:35:19.62	237.94	29.83	-44.6	-45.4	17.5	0.00e+00	0	58	0	321912832	51	4097
2026-01-02 01:35:20.61	237.83	29.66	-44.6	-45.6	17.4	0.00e+00	0	58	0	325058560	51	4156
2026-01-02 01:35:21.60	237.71	29.48	-44.7	-45.6	17.4	0.00e+00	0	58	0	328204288	51	4190
2026-01-02 01:35:22.58	237.60	29.31	-44.8	-45.8	17.2	0.00e+00	0	58	0	331350016	51	4257
2026-01-02 01:35:23.57	237.49	29.14	-45.0	-46.0	17.1	0.00e+00	0	58	0	334495744	51	4362
2026-01-02 01:35:24.55	237.38	28.97	-45.0	-46.0	17.0	0.00e+00	0	58	0	337641472	52	4124
2026-01-02 01:35:25.55	237.27	28.79	-44.9	-45.9	17.1	0.00e+00	0	58	0	340787200	52	4083
2026-01-02 01:35:26.54	237.16	28.62	-45.0	-46.0	17.0	0.00e+00	0	58	0	343932928	52	4108
2026-01-02 01:35:27.53	237.05	28.45	-45.0	-46.0	16.9	0.00e+00	0	58	0	347078656	52	4139
2026-01-02 01:35:28.51	236.95	28.29	-45.2	-46.3	16.7	0.00e+00	0	58	0	350224384	52	4269
2026-01-02 01:35:29.50	236.84	28.12	-45.2	-46.2	16.7	0.00e+00	0	58	0	353370112	52	4232
2026-01-02 01:35:30.49	236.74	27.95	-44.8	-45.8	17.1	0.00e+00	0	58	0	356515840	52	4034
2026-01-02 01:35:31.47	236.64	27.79	-44.7	-45.7	17.2	0.00e+00	0	58	0	359661568	52	3987
2026-01-02 01:35:32.46	236.54	27.62	-44.7	-45.6	17.3	0.00e+00	0	58	0	362807296	52	3950
2026-01-02 01:35:33.45	236.44	27.46	-44.6	-45.5	17.4	0.00e+00	0	58	0	365953024	52	3892
2026-01-02 01:35:34.43	236.34	27.30	-44.5	-45.4	17.6	0.00e+00	0	58	0	368050176	51	4079
2026-01-02 01:35:35.41	236.24	27.14	-44.5	-45.5	17.5	0.00e+00	0	58	0	371195904	51	4112
2026-01-02 01:35:36.39	236.14	26.98	-44.5	-45.5	17.5	0.00e+00	0	58	0	374341632	51	4110
2026-01-02 01:35:37.38	236.05	26.82	-44.6	-45.6	17.4	0.00e+00	0	58	0	377487360	51	4169
2026-01-02 01:35:38.37	235.95	26.66	-44.6	-45.5	17.5	0.00e+00	0	58	0	380633088	51	4137
2026-01-02 01:35:39.36	235.86	26.50	-44.1	-45.0	18.0	0.00e+00	0	58	0	383778816	51	3898
2026-01-02 01:35:40.36	235.76	26.34	-43.7	-44.5	18.4	0.00e+00	0	58	0	386924544	50	3896
2026-01-02 01:35:41.36	235.67	26.18	-43.4	-44.2	18.7	0.00e+00	0	58	0	390070272	49	3972
2026-01-02 01:35:42.34	235.58	26.02	-43.4	-44.1	18.7	0.00e+00	0	58	0	393216000	49	3952
2026-01-02 01:35:43.34	235.49	25.87	-43.3	-44.0	18.9	0.00e+00	0	58	0	396361728	49	3884
2026-01-02 01:35:44.33	235.40	25.71	-43.3	-44.0	18.8	0.00e+00	0	58	0	399507456	49	3912
2026-01-02 01:35:45.31	235.31	25.56	-43.3	-44.1	18.7	0.00e+00	0	58	0	402653184	49	3933
2026-01-02 01:35:46.31	235.22	25.41	-43.5	-44.3	18.6	0.00e+00	0	58	0	405798912	49	4023
2026-01-02 01:35:47.30	235.13	25.25	-43.4	-44.1	18.7	0.00e+00	0	58	0	408944640	49	3949
2026-01-02 01:35:48.30	235.05	25.10	-43.6	-44.4	18.5	0.00e+00	0	58	0	412090368	49	4086
2026-01-02 01:35:49.29	234.96	24.95	-43.9	-44.7	18.2	0.00e+00	0	58	0	415236096	49	4208
2026-01-02 01:35:50.28	234.88	24.80	-43.8	-44.6	18.3	0.00e+00	0	58	0	418381824	49	4164
2026-01-02 01:35:51.26	234.79	24.65	-44.0	-44.8	18.1	0.00e+00	0	58	0	421527552	49	4270
2026-01-02 01:35:52.25	234.71	24.50	-44.2	-45.1	17.9	0.00e+00	0	58	0	424673280	50	4161
2026-01-02 01:35:53.24	234.63	24.36	-44.2	-45.1	17.8	0.00e+00	0	58	0	427819008	50	4184
2026-01-02 01:35:54.24	234.55	24.21	-44.5	-45.4	17.6	0.00e+00	0	58	0	429916160	50	4303
2026-01-02 01:35:55.22	234.47	24.06	-44.4	-45.3	17.6	0.00e+00	0	58	0	433061888	50	4286
2026-01-02 01:35:56.20	234.39	23.92	-44.4	-45.3	17.6	0.00e+00	0	58	0	436207616	50	4255
2026-01-02 01:35:57.20	234.31	23.77	-44.5	-45.4	17.5	0.00e+00	0	58	0	439353344	50	4329
2026-01-02 01:35:58.19	234.23	23.63	-44.7	-45.6	17.4	0.00e+00	0	58	0	442499072	51	4155
2026-01-02 01:35:59.18	234.15	23.49	-45.1	-46.0	16.9	0.00e+00	0	58	0	445644800	51	4385
2026-01-02 01:36:00.16	234.08	23.35	-44.7	-45.6	17.3	0.00e+00	0	58	0	448790528	51	4178
2026-01-02 01:36:01.15	234.00	23.20	-44.4	-45.3	17.6	0.00e+00	0	58	0	451936256	51	4018
2026-01-02 01:36:02.14	233.93	23.06	-44.4	-45.2	17.7	0.00e+00	0	58	0	455081984	51	4003
2026-01-02 01:36:03.14	233.85	22.92	-44.5	-45.4	17.5	0.00e+00	0	58	0	458227712	51	4073
2026-01-02 01:36:04.13	233.78	22.78	-44.5	-45.4	17.6	0.00e+00	0	58	0	461373440	51	4069
2026-01-02 01:36:05.11	233.70	22.64	-44.5	-45.4	17.5	0.00e+00	0	58	0	464519168	51	4098
2026-01-02 01:36:06.10	233.63	22.51	-44.7	-45.6	17.3	0.00e+00	0	58	0	467664896	51	4178
2026-01-02 01:36:07.10	233.56	22.37	-44.4	-45.3	17.6	0.00e+00	0	58	0	470810624	51	4040
2026-01-02 01:36:08.09	233.49	22.23	-44.3	-45.3	17.7	0.00e+00	0	58	0	473956352	51	4012
2026-01-02 01:36:09.07	233.42	22.10	-44.4	-45.3	17.6	0.00e+00	0	58	0	477102080	51	4041
2026-01-02 01:36:10.06	233.35	21.96	-44.4	-45.3	17.6	0.00e+00	0	58	0	480247808	51	4025
2026-01-02 01:36:11.06	233.28	21.82	-44.7	-45.7	17.2	0.00e+00	0	58	0	483393536	51	4199
2026-01-02 01:36:12.04	233.21	21.69	-44.5	-45.4	17.5	0.00e+00	0	58	0	485490688	51	4076
2026-01-02 01:36:13.03	233.14	21.56	-44.7	-45.7	17.2	0.00e+00	0	58	0	488636416	51	4210
2026-01-02 01:36:14.02	233.07	21.42	-45.0	-46.0	16.8	0.00e+00	0	58	0	491782144	52	4134
2026-01-02 01:36:15.01	233.01	21.29	-44.7	-45.7	17.1	0.00e+00	0	58	0	494927872	52	3992
2026-01-02 01:36:16.01	232.94	21.16	-44.5	-45.4	17.4	0.00e+00	0	58	0	498073600	52	3862
2026-01-02 01:36:16.99	232.88	21.03	-44.4	-45.4	17.5	0.00e+00	0	58	0	501219328	51	4065
2026-01-02 01:36:17.98	232.81	20.90	-44.6	-45.5	17.3	0.00e+00	0	58	0	504365056	51	4138
2026-01-02 01:36:18.96	232.75	20.77	-44.5	-45.4	17.4	0.00e+00	0	58	0	507510784	51	4094
2026-01-02 01:36:19.95	232.68	20.64	-44.5	-45.5	17.4	0.00e+00	0	58	0	510656512	51	4107
2026-01-02 01:36:20.94	232.62	20.51	-44.5	-45.4	17.5	0.00e+00	0	58	0	513802240	51	4073
2026-01-02 01:36:21.93	232.56	20.39	-44.4	-45.4	17.5	0.00e+00	0	58	0	516947968	51	4062
2026-01-02 01:36:22.91	232.50	20.26	-44.5	-45.5	17.4	0.00e+00	0	58	0	520093696	51	4114
2026-01-02 01:36:23.90	232.43	20.13	-44.5	-45.4	17.5	0.00e+00	0	58	0	523239424	51	4058
2026-01-02 01:36:24.89	232.37	20.01	-44.6	-45.5	17.3	0.00e+00	0	58	0	526385152	51	4142
2026-01-02 01:36:25.88	232.31	19.88	-44.8	-45.8	17.0	0.00e+00	0	58	0	529530880	51	4269
2026-01-02 01:36:26.87	232.25	19.76	-44.6	-45.6	17.2	0.00e+00	0	58	0	532676608	51	4185
2026-01-02 01:36:27.86	232.19	19.63	-44.4	-45.3	17.5	0.00e+00	0	58	0	535822336	51	4011
2026-01-02 01:36:28.85	232.13	19.51	-44.2	-45.1	17.7	0.00e+00	0	58	0	538968064	51	3952
2026-01-02 01:36:29.84	232.07	19.39	-44.2	-45.1	17.7	0.00e+00	0	58	0	542113792	51	3936
2026-01-02 01:36:30.81	232.02	19.27	-44.2	-45.1	17.6	0.00e+00	0	58	0	545259520	51	3953
2026-01-02 01:36:31.81	231.96	19.14	-44.4	-45.3	17.5	0.00e+00	0	58	0	547356672	51	4017
2026-01-02 01:36:32.79	231.90	19.02	-44.3	-45.2	17.6	0.00e+00	0	58	0	550502400	51	3979
2026-01-02 01:36:33.78	231.84	18.90	-44.4	-45.3	17.5	0.00e+00	0	58	0	553648128	51	4025
2026-01-02 01:36:34.77	231.79	18.78	-44.6	-45.6	17.2	0.00e+00	0	58	0	556793856	51	4158
2026-01-02 01:36:35.76	231.73	18.66	-44.6	-45.5	17.3	0.00e+00	0	58	0	559939584	51	4126
2026-01-02 01:36:36.75	231.68	18.54	-44.7	-45.7	17.1	0.00e+00	0	58	0	563085312	51	4197
2026-01-02 01:36:37.75	231.62	18.42	-44.6	-45.6	17.2	0.00e+00	0	58	0	566231040	51	4158
2026-01-02 01:36:38.73	231.57	18.31	-44.7	-45.7	17.1	0.00e+00	0	58	0	569376768	51	4194
2026-01-02 01:36:39.72	231.51	18.19	-44.7	-45.7	17.1	0.00e+00	0	58	0	572522496	51	4217
2026-01-02 01:36:40.70	231.46	18.07	-44.8	-45.8	17.0	0.00e+00	0	58	0	575668224	51	4266
2026-01-02 01:36:41.70	231.41	17.96	-45.1	-46.1	16.7	0.00e+00	0	58	0	578813952	51	4415
2026-01-02 01:36:42.68	231.36	17.84	-45.0	-46.1	16.6	0.00e+00	0	58	0	581959680	52	4178
2026-01-02 01:36:43.66	231.30	17.73	-45.1	-46.2	16.5	0.00e+00	0	58	0	585105408	52	4206
2026-01-02 01:36:44.66	231.25	17.61	-45.4	-46.6	16.1	0.00e+00	0	58	0	588251136	52	4414
2026-01-02 01:36:45.64	231.20	17.50	-45.5	-46.7	16.0	0.00e+00	0	58	0	591396864	53	4195
2026-01-02 01:36:46.63	231.15	17.38	-45.3	-46.5	16.2	0.00e+00	0	58	0	594542592	53	4105
2026-01-02 01:36:47.62	231.10	17.27	-45.2	-46.4	16.3	0.00e+00	0	58	0	597688320	53	4061
2026-01-02 01:36:48.61	231.05	17.16	-45.3	-46.4	16.2	0.00e+00	0	58	0	600834048	53	4089
2026-01-02 01:36:49.60	231.00	17.05	-45.5	-46.7	16.0	0.00e+00	0	58	0	603979776	53	4195
2026-01-02 01:36:50.59	230.95	16.93	-45.5	-46.7	15.9	0.00e+00	0	58	0	606076928	53	4215
2026-01-02 01:36:51.58	230.90	16.82	-45.4	-46.6	16.1	0.00e+00	0	58	0	609222656	53	4150
2026-01-02 01:36:52.56	230.85	16.71	-45.4	-46.5	16.1	0.00e+00	0	58	0	612368384	53	4128
2026-01-02 01:36:53.56	230.80	16.60	-45.6	-46.8	15.8	0.00e+00	0	58	0	615514112	53	4250
2026-01-02 01:36:54.54	230.76	16.49	-45.6	-46.9	15.7	0.00e+00	0	58	0	618659840	53	4294
2026-01-02 01:36:55.53	230.71	16.38	-45.6	-46.8	15.8	0.00e+00	0	58	0	621805568	53	4253
2026-01-02 01:36:56.52	230.66	16.27	-45.7	-46.9	15.6	0.00e+00	0	58	0	624951296	53	4333
2026-01-02 01:36:57.51	230.61	16.17	-45.7	-47.0	15.6	0.00e+00	0	58	0	628097024	53	4345
2026-01-02 01:36:58.50	230.57	16.06	-45.9	-47.3	15.3	0.00e+00	0	58	0	631242752	53	4496
2026-01-02 01:36:59.49	230.52	15.95	-46.1	-47.5	15.1	0.00e+00	0	58	0	634388480	54	4351
2026-01-02 01:37:00.48	230.48	15.84	-45.9	-47.1	15.4	0.00e+00	0	58	0	637534208	54	4193
2026-01-02 01:37:01.47	230.43	15.74	-45.7	-47.0	15.6	0.00e+00	0	58	0	640679936	54	4101
2026-01-02 01:37:02.46	230.38	15.63	-45.6	-46.9	15.7	0.00e+00	0	58	0	643825664	54	4052
2026-01-02 01:37:03.45	230.34	15.52	-45.6	-46.8	15.7	0.00e+00	0	58	0	646971392	54	4039
2026-01-02 01:37:04.44	230.30	15.42	-45.6	-46.8	15.6	0.00e+00	0	58	0	650117120	54	4046
2026-01-02 01:37:05.43	230.25	15.31	-45.7	-46.9	15.5	0.00e+00	0	58	0	653262848	54	4098
2026-01-02 01:37:06.43	230.21	15.21	-45.8	-47.1	15.4	0.00e+00	0	58	0	656408576	54	4169
2026-01-02 01:37:07.41	230.16	15.10	-45.5	-46.7	15.8	0.00e+00	0	58	0	659554304	54	3987
2026-01-02 01:37:08.40	230.12	15.00	-45.3	-46.5	15.9	0.00e+00	0	58	0	662700032	53	4127
2026-01-02 01:37:09.39	230.08	14.90	-45.3	-46.5	16.0	0.00e+00	0	58	0	664797184	53	4106
2026-01-02 01:37:10.37	230.04	14.80	-45.4	-46.6	15.9	0.00e+00	0	58	0	667942912	53	4155
2026-01-02 01:37:11.36	229.99	14.69	-45.6	-46.9	15.5	0.00e+00	0	58	0	671088640	53	4324
2026-01-02 01:37:12.35	229.95	14.59	-45.7	-47.0	15.4	0.00e+00	0	58	0	674234368	53	4345
2026-01-02 01:37:13.35	229.91	14.49	-45.7	-46.9	15.5	0.00e+00	0	58	0	677380096	53	4332
2026-01-02 01:37:14.34	229.87	14.39	-45.8	-47.1	15.3	0.00e+00	0	58	0	680525824	53	4433
2026-01-02 01:37:15.33	229.83	14.29	-45.9	-47.2	15.2	0.00e+00	0	58	0	683671552	53	4471
2026-01-02 01:37:16.32	229.79	14.19	-45.8	-47.2	15.2	0.00e+00	0	58	0	686817280	53	4442
2026-01-02 01:37:17.31	229.75	14.09	-45.8	-47.1	15.2	0.00e+00	0	58	0	689963008	53	4428
2026-01-02 01:37:18.29	229.71	13.99	-45.9	-47.2	15.1	0.00e+00	0	58	0	693108736	53	4479
2026-01-02 01:37:19.29	229.67	13.89	-46.1	-47.6	14.8	7.00e-07	0	58	0	696254464	54	4403
2026-01-02 01:37:20.28	229.63	13.79	-46.0	-47.4	15.0	0.00e+00	0	58	0	699400192	54	4295
2026-01-02 01:37:21.26	229.59	13.69	-46.2	-47.6	14.8	0.00e+00	0	58	0	702545920	54	4413
2026-01-02 01:37:22.25	229.55	13.59	-45.9	-47.3	15.1	0.00e+00	0	58	0	705691648	54	4245
2026-01-02 01:37:23.24	229.51	13.49	-45.8	-47.1	15.2	0.00e+00	0	58	0	708837376	54	4178
2026-01-02 01:37:24.23	229.47	13.40	-45.7	-47.0	15.3	0.00e+00	0	57	0	711983104	54	4140
2026-01-02 01:37:25.22	229.44	13.30	-45.8	-47.2	15.1	0.00e+00	0	58	0	715128832	54	4206
2026-01-02 01:37:26.21	229.40	13.20	-46.1	-47.5	14.8	0.00e+00	0	58	0	718274560	54	4351
2026-01-02 01:37:27.21	229.36	13.11	-45.9	-47.3	15.0	0.00e+00	0	58	0	721420288	54	4253
2026-01-02 01:37:28.19	229.32	13.01	-46.0	-47.4	14.9	0.00e+00	0	58	0	723517440	54	4326
2026-01-02 01:37:29.18	229.29	12.92	-46.0	-47.4	14.9	0.00e+00	0	58	0	726663168	54	4296
2026-01-02 01:37:30.16	229.25	12.82	-46.1	-47.5	14.8	0.00e+00	0	58	0	729808896	54	4372
2026-01-02 01:37:31.15	229.21	12.73	-46.4	-47.9	14.4	7.00e-07	0	58	0	732954624	54	4583
2026-01-02 01:37:32.13	229.18	12.63	-46.2	-47.7	14.5	7.00e-07	0	58	0	736100352	54	4462
2026-01-02 01:37:33.13	229.14	12.54	-46.4	-47.9	14.3	0.00e+00	0	58	0	739246080	54	4580
2026-01-02 01:37:34.12	229.11	12.44	-46.7	-48.4	13.8	1.50e-06	0	58	0	742391808	55	4569
2026-01-02 01:37:35.12	229.07	12.35	-46.5	-48.1	14.1	1.50e-06	0	58	0	745537536	55	4431
2026-01-02 01:37:36.11	229.03	12.26	-46.8	-48.5	13.7	3.00e-06	0	58	0	748683264	55	4623
2026-01-02 01:37:37.10	229.00	12.16	-46.6	-48.3	13.9	4.50e-06	0	58	0	751828992	55	4503
2026-01-02 01:37:38.09	228.96	12.07	-46.5	-48.0	14.1	3.00e-06	0	58	0	754974720	55	4389
2026-01-02 01:37:39.09	228.93	11.98	-46.4	-48.0	14.2	7.00e-07	0	58	0	758120448	55	4347
2026-01-02 01:37:40.07	228.90	11.89	-46.5	-48.1	14.1	5.30e-06	0	58	0	761266176	55	4417
2026-01-02 01:37:41.06	228.86	11.80	-46.8	-48.5	13.7	6.80e-06	0	58	0	764411904	55	4610
2026-01-02 01:37:42.05	228.83	11.71	-46.6	-48.2	14.0	6.10e-06	0	58	0	767557632	55	4448
2026-01-02 01:37:43.04	228.79	11.62	-46.5	-48.1	14.0	7.00e-07	0	58	0	770703360	55	4407
2026-01-02 01:37:44.03	228.76	11.52	-46.5	-48.1	14.0	3.80e-06	0	58	0	773849088	55	4407
2026-01-02 01:37:45.02	228.73	11.43	-46.5	-48.1	14.0	1.50e-06	0	58	0	776994816	55	4414
2026-01-02 01:37:46.00	228.70	11.35	-46.7	-48.3	13.8	4.50e-06	0	58	0	780140544	55	4532
2026-01-02 01:37:46.99	228.66	11.26	-46.6	-48.3	13.8	6.10e-06	0	58	0	782237696	55	4506
2026-01-02 01:37:47.97	228.63	11.17	-46.6	-48.3	13.8	3.80e-06	0	58	0	785383424	55	4505
2026-01-02 01:37:48.97	228.60	11.08	-46.8	-48.5	13.5	9.10e-06	0	58	0	788529152	55	4643
2026-01-02 01:37:49.97	228.57	10.99	-46.7	-48.4	13.6	6.80e-06	0	58	0	791674880	55	4589
2026-01-02 01:37:50.95	228.53	10.90	-46.8	-48.7	13.4	5.30e-06	0	58	0	794820608	55	4714
2026-01-02 01:37:51.94	228.50	10.81	-47.2	-49.2	12.9	3.66e-05	0	58	0	797966336	56	4738
2026-01-02 01:37:52.93	228.47	10.73	-47.3	-49.2	12.9	6.79e-05	0	58	0	801112064	56	4747
2026-01-02 01:37:53.91	228.44	10.64	-47.5	-49.5	12.6	7.24e-05	0	58	0	804257792	56	4877
2026-01-02 01:37:54.91	228.41	10.55	-47.4	-49.4	12.6	1.04e-04	0	58	0	807403520	56	4864
2026-01-02 01:37:55.90	228.38	10.47	-47.5	-49.6	12.5	1.06e-04	0	58	0	810549248	56	4940
2026-01-02 01:37:56.88	228.35	10.38	-47.6	-49.8	12.3	1.78e-04	0	58	0	813694976	57	4767
2026-01-02 01:37:57.87	228.32	10.29	-47.5	-49.6	12.4	1.45e-04	0	58	0	816840704	57	4695
2026-01-02 01:37:58.85	228.29	10.21	-47.5	-49.5	12.5	1.27e-04	0	58	0	819986432	57	4634
2026-01-02 01:37:59.84	228.26	10.12	-47.6	-49.7	12.2	1.88e-04	0	58	0	823132160	57	4748
2026-01-02 01:38:00.82	228.23	10.04	-47.5	-49.5	12.4	1.79e-04	0	58	0	826277888	57	4650
2026-01-02 01:38:01.82	228.20	9.95	-47.4	-49.4	12.6	1.07e-04	0	58	0	829423616	57	4559
2026-01-02 01:38:02.80	228.17	9.87	-47.5	-49.6	12.4	1.38e-04	0	58	0	832569344	57	4666
2026-01-02 01:38:03.80	228.14	9.78	-47.4	-49.5	12.5	1.75e-04	0	58	0	835715072	57	4625
2026-01-02 01:38:04.78	228.11	9.70	-47.4	-49.5	12.5	1.07e-04	0	58	0	837812224	57	4613
2026-01-02 01:38:05.77	228.08	9.62	-47.7	-49.9	12.0	2.84e-04	0	58	0	840957952	57	4852
2026-01-02 01:38:06.76	228.05	9.53	-47.8	-50.2	11.7	5.90e-04	0	57	0	844103680	57	5013
2026-01-02 01:38:07.75	228.02	9.45	-48.0	-50.4	11.5	7.51e-04	0	58	0	847249408	57	5118
2026-01-02 01:38:08.75	228.00	9.37	-48.1	-50.5	11.3	1.12e-03	0	58	0	850395136	57	5202
2026-01-02 01:38:09.74	227.97	9.28	-48.0	-50.5	11.3	1.17e-03	0	58	0	853540864	57	5212
2026-01-02 01:38:10.73	227.94	9.20	-48.2	-50.8	11.0	1.66e-03	0	58	0	856686592	58	5077
2026-01-02 01:38:11.72	227.91	9.12	-48.2	-50.8	11.1	1.79e-03	0	58	0	859832320	58	5049
2026-01-02 01:38:12.71	227.88	9.04	-48.3	-51.0	10.8	1.92e-03	0	58	0	862978048	58	5178
2026-01-02 01:38:13.70	227.86	8.95	-48.4	-51.1	10.7	3.40e-03	0	58	0	866123776	58	5260
2026-01-02 01:38:14.70	227.83	8.87	-48.2	-50.8	11.0	2.14e-03	0	58	0	869269504	58	5070
2026-01-02 01:38:15.68	227.80	8.79	-48.0	-50.6	11.2	1.43e-03	0	58	0	872415232	58	4958
2026-01-02 01:38:16.68	227.77	8.71	-48.0	-50.4	11.3	1.13e-03	0	58	0	875560960	58	4859
2026-01-02 01:38:17.67	227.75	8.63	-47.9	-50.4	11.5	1.03e-03	0	57	0	878706688	58	4816
2026-01-02 01:38:18.65	227.72	8.55	-48.0	-50.5	11.3	1.14e-03	0	58	0	881852416	58	4925
2026-01-02 01:38:19.64	227.69	8.47	-48.0	-50.5	11.2	1.23e-03	0	58	0	884998144	58	4901
2026-01-02 01:38:20.63	227.67	8.39	-48.1	-50.8	11.0	1.48e-03	0	58	0	888143872	58	5068
2026-01-02 01:38:21.61	227.64	8.31	-48.2	-50.9	10.8	2.84e-03	0	58	0	891289600	58	5137
2026-01-02 01:38:22.60	227.62	8.23	-48.2	-50.8	10.9	2.22e-03	0	58	0	894435328	58	5092
2026-01-02 01:38:23.59	227.59	8.15	-48.1	-50.8	10.9	2.35e-03	0	58	0	897581056	58	5086
2026-01-02 01:38:24.58	227.56	8.07	-48.3	-51.0	10.7	2.86e-03	0	58	0	900726784	58	5174
2026-01-02 01:38:25.56	227.54	8.00	-48.4	-51.1	10.5	4.17e-03	0	58	0	902823936	58	5272
2026-01-02 01:38:26.55	227.51	7.92	-48.4	-51.2	10.4	3.88e-03	0	58	0	905969664	58	5319
2026-01-02 01:38:27.54	227.49	7.84	-48.5	-51.5	10.1	6.20e-03	0	58	0	909115392	58	5495
2026-01-02 01:38:28.52	227.46	7.76	-48.5	-51.5	10.1	7.04e-03	0	58	0	912261120	59	5216
2026-01-02 01:38:29.51	227.44	7.68	-48.5	-51.6	10.0	7.82e-03	0	58	0	915406848	59	5226
2026-01-02 01:38:30.50	227.41	7.61	-48.6	-51.7	9.9	8.81e-03	0	58	0	918552576	59	5302
2026-01-02 01:38:31.48	227.39	7.53	-48.6	-51.7	9.8	9.12e-03	0	58	0	921698304	59	5321
2026-01-02 01:38:32.46	227.37	7.45	-48.7	-51.8	9.7	1.05e-02	0	58	0	924844032	59	5381
2026-01-02 01:38:33.45	227.34	7.38	-48.8	-52.0	9.5	1.33e-02	0	58	0	927989760	59	5488
2026-01-02 01:38:34.44	227.32	7.30	-48.8	-52.1	9.4	1.67e-02	0	58	0	931135488	59	5578
2026-01-02 01:38:35.43	227.29	7.22	-48.8	-52.1	9.4	1.53e-02	0	58	0	934281216	59	5567
2026-01-02 01:38:36.42	227.27	7.15	-48.8	-52.3	9.2	2.06e-02	0	58	0	937426944	59	5670
2026-01-02 01:38:37.41	227.25	7.07	-48.7	-52.0	9.5	1.51e-02	0	58	0	940572672	59	5498
2026-01-02 01:38:38.40	227.22	7.00	-48.8	-52.0	9.4	1.39e-02	0	58	0	943718400	59	5512
2026-01-02 01:38:39.39	227.20	6.92	-48.9	-52.3	9.2	1.99e-02	0	58	0	946864128	59	5681
2026-01-02 01:38:40.38	227.18	6.84	-48.9	-52.3	9.1	2.12e-02	0	58	0	950009856	59	5693
2026-01-02 01:38:41.37	227.15	6.77	-48.9	-52.4	9.0	2.40e-02	0	58	0	953155584	59	5776
2026-01-02 01:38:42.36	227.13	6.69	-48.9	-52.5	9.0	2.52e-02	0	58	0	956301312	59	5797
2026-01-02 01:38:43.35	227.11	6.62	-48.9	-52.5	8.9	2.80e-02	0	58	0	959447040	59	5813
2026-01-02 01:38:44.34	227.08	6.55	-49.0	-52.7	8.6	3.43e-02	0	58	0	961544192	59	5989
2026-01-02 01:38:45.33	227.06	6.47	-49.0	-53.0	8.3	4.71e-02	0	58	0	964689920	60	5840
2026-01-02 01:38:46.32	227.04	6.40	-49.0	-53.0	8.3	4.83e-02	0	58	0	967835648	60	5833
2026-01-02 01:38:47.31	227.02	6.32	-49.1	-53.1	8.2	5.49e-02	0	58	0	970981376	60	5917
2026-01-02 01:38:48.31	226.99	6.25	-49.1	-53.3	8.0	7.21e-02	0	58	0	974127104	60	6056
2026-01-02 01:38:49.30	226.97	6.18	-49.1	-53.3	8.0	6.55e-02	0	58	0	977272832	60	6009
2026-01-02 01:38:50.28	226.95	6.10	-49.3	-53.7	7.6	9.10e-02	0	58	0	980418560	60	6299
2026-01-02 01:38:51.27	226.93	6.03	-49.2	-53.4	7.8	8.20e-02	0	58	0	983564288	60	6104
2026-01-02 01:38:52.26	226.91	5.96	-49.3	-53.8	7.5	9.24e-02	0	58	0	986710016	60	6373
2026-01-02 01:38:53.25	226.88	5.88	-49.4	-54.0	7.3	1.28e-01	0	58	0	989855744	60	6533
2026-01-02 01:38:54.24	226.86	5.81	-49.3	-53.8	7.5	1.06e-01	0	58	0	993001472	60	6384
2026-01-02 01:38:55.22	226.84	5.74	-49.5	-54.2	7.0	1.26e-01	0	58	0	996147200	60	6713
2026-01-02 01:38:56.21	226.82	5.67	-49.6	-54.6	6.7	1.86e-01	0	58	0	999292928	61	6610
2026-01-02 01:38:57.20	226.80	5.60	-49.5	-54.3	6.9	1.82e-01	0	58	0	1002438656	61	6398
2026-01-02 01:38:58.19	226.78	5.52	-49.6	-54.7	6.6	1.99e-01	0	58	0	1005584384	61	6669
2026-01-02 01:38:59.19	226.76	5.45	-49.8	-55.3	6.1	2.97e-01	0	58	0	1008730112	61	7129
2026-01-02 01:39:00.18	226.74	5.38	-49.7	-55.1	6.2	2.86e-01	0	58	0	1011875840	61	6989
2026-01-02 01:39:01.17	226.71	5.31	-49.8	-55.5	5.9	3.17e-01	0	58	0	1015021568	61	7318
2026-01-02 01:39:02.17	226.69	5.24	-49.7	-55.0	6.3	2.83e-01	0	58	0	1018167296	61	6929
2026-01-02 01:39:03.15	226.67	5.17	-49.6	-55.0	6.3	2.57e-01	0	58	0	1021313024	61	6881
2026-01-02 01:39:04.14	226.65	5.10	-49.6	-54.8	6.4	2.49e-01	0	58	0	1024458752	61	6801
2026-01-02 01:39:05.14	226.63	5.03	-50.5	-60.4	3.8	6.83e-01	0	58	104	1026555904	63	11449
2026-01-02 01:39:06.13	226.61	4.96	-51.1	-62.7	3.8	1.49e+00	0	58	104	1026555904	64	14130
2026-01-02 01:39:07.12	226.59	4.89	-51.9	-63.6	3.8	1.49e+00	0	58	104	1026555904	65	14779
2026-01-02 01:39:08.11	226.57	4.82	-52.1	-63.8	3.8	1.49e+00	0	58	104	1026555904	66	14248
2026-01-02 01:39:09.10	226.55	4.75	-52.2	-63.8	3.8	1.49e+00	0	58	104	1026555904	66	14339
2026-01-02 01:39:10.09	226.53	4.68	-52.3	-63.9	3.8	1.49e+00	0	58	104	1026555904	66	14479
2026-01-02 01:39:11.08	226.51	4.61	-51.4	-63.0	3.8	1.49e+00	0	58	104	1026555904	65	13790
2026-01-02 01:39:12.07	226.49	4.54	-52.5	-64.0	3.8	1.49e+00	0	58	104	1026555904	66	14609
2026-01-02 01:39:13.05	226.48	4.47	-52.4	-64.0	3.8	1.49e+00	0	58	104	1026555904	66	14690
2026-01-02 01:39:14.04	226.46	4.40	-52.5	-64.1	3.8	1.49e+00	0	58	104	1026555904	66	14790
2026-01-02 01:39:15.04	226.44	4.33	-52.6	-64.1	3.8	1.49e+00	0	58	104	1026555904	67	13963
2026-01-02 01:39:16.03	226.42	4.26	-52.5	-64.1	3.8	1.49e+00	0	58	104	1026555904	67	13936
2026-01-02 01:39:17.01	226.40	4.20	-52.7	-64.1	3.8	1.49e+00	0	58	104	1026555904	67	14029
2026-01-02 01:39:18.00	226.38	4.13	-52.6	-64.1	3.8	1.49e+00	0	58	104	1026555904	67	14018
2026-01-02 01:39:18.99	226.36	4.06	-52.7	-64.1	3.8	1.49e+00	0	58	104	1026555904	67	14034
2026-01-02 01:39:19.98	226.34	3.99	-52.7	-64.2	3.8	1.49e+00	0	58	104	1026555904	67	14093
2026-01-02 01:39:20.97	226.32	3.93	-52.6	-64.2	3.8	1.49e+00	0	58	104	1026555904	67	14151
2026-01-02 01:39:21.95	226.31	3.86	-52.8	-64.2	3.8	1.49e+00	0	58	104	1026555904	67	14165
2026-01-02 01:39:22.94	226.29	3.79	-52.6	-64.2	3.8	1.49e+00	0	58	104	1026555904	67	14169
2026-01-02 01:39:23.93	226.27	3.72	-52.7	-64.2	3.8	1.49e+00	0	58	104	1026555904	67	14189
2026-01-02 01:39:24.92	226.25	3.66	-52.7	-64.2	3.8	1.49e+00	0	58	104	1026555904	67	14201
2026-01-02 01:39:25.90	226.23	3.59	-52.8	-64.3	3.8	1.49e+00	0	58	104	1026555904	67	14218
2026-01-02 01:39:26.88	226.22	3.53	-52.8	-64.2	3.8	1.49e+00	0	58	104	1026555904	67	14200
2026-01-02 01:39:27.87	226.20	3.46	-52.6	-64.3	3.8	1.49e+00	0	58	104	1026555904	67	14239
2026-01-02 01:39:28.86	226.18	3.39	-52.7	-64.3	3.8	1.49e+00	0	58	104	1026555904	67	14263
2026-01-02 01:39:29.84	226.16	3.33	-52.7	-64.3	3.8	1.49e+00	0	58	104	1026555904	67	14263
2026-01-02 01:39:30.83	226.15	3.26	-52.8	-64.3	3.8	1.49e+00	0	58	104	1026555904	67	14285
2026-01-02 01:39:31.83	226.13	3.19	-52.8	-64.3	3.8	1.49e+00	0	58	104	1026555904	67	14262
2026-01-02 01:39:32.81	226.11	3.13	-52.8	-64.3	3.8	1.49e+00	0	58	104	1026555904	67	14253
2026-01-02 01:39:33.81	226.09	3.06	-52.8	-64.2	3.8	1.49e+00	0	58	104	1026555904	67	14203
2026-01-02 01:39:34.80	226.08	3.00	-52.7	-64.3	3.8	1.49e+00	0	58	104	1026555904	67	14236
2026-01-02 01:39:35.80	226.06	2.93	-52.7	-64.3	3.8	1.49e+00	0	58	104	1026555904	67	14251
2026-01-02 01:39:36.78	226.04	2.87	-52.8	-64.3	3.8	1.49e+00	0	58	104	1026555904	67	14257

#Closed at: 2026-01-02 01:39:36
#Recorded file [1026 MB]: D:/Data/31026_260102_043904.dat