passes_logs/2026/01/02/R3.0SM8_Murmansk_STILSPACE/R3.0SM8_Murmansk_STILSPACE__20260102_125428_FENGYUN_3D_rec.log

#Pass ID: 20260102_125428_FENGYUN 3D
#Satellite: FENGYUN 3D
#Configuration: FENGYUN 3D
#almurnet v.1.7.20240730
#Start time: 2026-01-02 12:54:28

#Version: 2.2.20231116
#Station: R3.0SM8_Murmansk_STILSPACE
#Location: 33.092731 lon 68.902999 lat
#TLE: 1 43010U 17072A   26001.33100487  .00000602  00000+0  30664-3 0  9999
#TLE: 2 43010  98.9910 332.9374 0001848 133.1047 227.0283 14.19692078421319

#Time	Az	El	Level	Level2	SNR	BER	BlckErr	Temp	State	Recorded	gain1	gain2
2026-01-02 12:54:28.19	185.93	3.00	-52.8	-63.5	3.8	8.47e-01	0	46	0	0	67	13077
2026-01-02 12:54:29.17	185.97	3.06	-52.7	-63.6	3.8	8.47e-01	0	46	104	0	68	12406
2026-01-02 12:54:30.15	186.01	3.12	-52.6	-63.6	3.8	8.48e-01	0	46	104	0	68	12376
2026-01-02 12:54:31.14	186.06	3.19	-52.7	-63.5	3.8	8.46e-01	0	46	104	0	68	12299
2026-01-02 12:54:32.12	186.10	3.25	-52.6	-63.4	3.8	8.47e-01	0	46	104	0	68	12229
2026-01-02 12:54:33.11	186.15	3.31	-52.5	-63.2	3.8	8.46e-01	0	46	104	0	67	12661
2026-01-02 12:54:34.10	186.19	3.38	-52.4	-63.2	3.8	8.46e-01	0	46	104	0	67	12534
2026-01-02 12:54:35.09	186.24	3.44	-52.1	-63.0	3.8	8.45e-01	0	46	104	0	67	12272
2026-01-02 12:54:36.07	186.28	3.50	-51.9	-62.7	3.8	8.45e-01	0	46	104	0	66	12601
2026-01-02 12:54:37.06	186.33	3.57	-51.9	-62.5	3.8	8.47e-01	0	47	104	0	66	12291
2026-01-02 12:54:38.05	186.37	3.63	-51.9	-62.5	3.8	8.46e-01	0	47	104	0	66	12330
2026-01-02 12:54:39.04	186.42	3.69	-51.8	-62.5	3.8	8.46e-01	0	47	104	0	66	12299
2026-01-02 12:54:40.02	186.46	3.76	-51.7	-62.5	3.8	8.46e-01	0	47	104	0	66	12289
2026-01-02 12:54:41.01	186.51	3.82	-51.7	-62.5	3.8	8.46e-01	0	47	104	0	66	12304
2026-01-02 12:54:42.00	186.56	3.89	-51.7	-62.5	3.8	8.46e-01	0	47	104	0	66	12373
2026-01-02 12:54:42.99	186.60	3.95	-51.9	-62.6	3.8	8.46e-01	0	47	104	0	66	12471
2026-01-02 12:54:43.98	186.65	4.02	-51.9	-62.6	3.8	8.47e-01	0	47	104	0	66	12514
2026-01-02 12:54:44.97	186.70	4.08	-51.8	-62.7	3.8	8.46e-01	0	47	104	0	66	12528
2026-01-02 12:54:45.96	186.75	4.15	-51.7	-62.4	3.8	8.46e-01	0	47	104	0	66	12232
2026-01-02 12:54:46.95	186.79	4.21	-51.7	-62.0	3.8	8.45e-01	0	47	104	0	66	11595
2026-01-02 12:54:47.94	186.84	4.28	-51.6	-61.2	3.8	8.45e-01	0	47	104	0	66	10567
2026-01-02 12:54:48.93	186.89	4.34	-51.5	-60.0	4.0	8.46e-01	0	47	104	0	66	9194
2026-01-02 12:54:49.92	186.94	4.41	-51.1	-58.6	4.3	8.37e-01	0	48	0	0	65	8274
2026-01-02 12:54:50.90	186.98	4.47	-50.8	-56.9	5.1	7.88e-01	0	48	0	0	64	7287
2026-01-02 12:54:51.89	187.03	4.54	-50.5	-55.5	6.0	6.28e-01	0	48	0	1048576	64	6202
2026-01-02 12:54:52.88	187.08	4.60	-50.1	-54.5	7.0	2.06e-01	0	48	0	6291456	63	5832
2026-01-02 12:54:53.87	187.13	4.67	-49.7	-53.3	8.1	9.82e-02	0	48	0	12582912	62	5389
2026-01-02 12:54:54.86	187.18	4.74	-49.1	-52.3	9.1	4.20e-02	0	48	0	17825792	61	5080
2026-01-02 12:54:55.85	187.23	4.80	-48.6	-51.3	10.1	1.18e-02	0	48	0	23068672	60	4797
2026-01-02 12:54:56.84	187.28	4.87	-48.1	-50.5	11.1	3.91e-03	0	48	0	29360128	59	4605
2026-01-02 12:54:57.83	187.33	4.94	-47.7	-49.9	11.7	1.06e-03	0	48	0	34603008	58	4569
2026-01-02 12:54:58.82	187.38	5.00	-47.4	-49.4	12.2	4.42e-04	0	48	0	39845888	58	4320
2026-01-02 12:54:59.80	187.43	5.07	-47.2	-49.1	12.6	2.10e-04	0	48	0	46137344	57	4395
2026-01-02 12:55:00.79	187.48	5.14	-47.4	-49.5	12.1	2.48e-04	0	48	0	51380224	57	4639
2026-01-02 12:55:01.79	187.53	5.20	-47.3	-49.3	12.3	3.47e-04	0	48	0	56623104	57	4536
2026-01-02 12:55:02.77	187.58	5.27	-46.9	-48.7	12.9	1.06e-04	0	48	0	61865984	57	4228
2026-01-02 12:55:03.76	187.63	5.34	-46.6	-48.2	13.4	3.89e-05	0	48	0	68157440	56	4214
2026-01-02 12:55:04.75	187.68	5.41	-46.0	-47.5	14.0	8.00e-06	0	48	0	73400320	55	4144
2026-01-02 12:55:05.74	187.73	5.47	-45.8	-47.2	14.4	2.20e-06	0	48	0	78643200	54	4226
2026-01-02 12:55:06.73	187.78	5.54	-45.5	-46.9	14.7	2.20e-06	0	48	0	84934656	54	4061
2026-01-02 12:55:07.71	187.83	5.61	-45.2	-46.5	15.0	0.00e+00	0	49	0	90177536	53	4141
2026-01-02 12:55:08.70	187.89	5.68	-45.1	-46.4	15.2	0.00e+00	0	49	0	95420416	53	4057
2026-01-02 12:55:09.70	187.94	5.75	-44.9	-46.2	15.3	0.00e+00	0	49	0	101711872	53	3975
2026-01-02 12:55:10.68	187.99	5.82	-44.8	-46.1	15.5	0.00e+00	0	49	0	106954752	52	4152
2026-01-02 12:55:11.68	188.04	5.88	-44.9	-46.1	15.4	0.00e+00	0	49	0	112197632	52	4171
2026-01-02 12:55:12.67	188.10	5.95	-45.0	-46.2	15.4	0.00e+00	0	49	0	117440512	52	4220
2026-01-02 12:55:13.65	188.15	6.02	-44.9	-46.1	15.5	0.00e+00	0	49	0	123731968	52	4159
2026-01-02 12:55:14.64	188.20	6.09	-44.8	-46.0	15.6	0.00e+00	0	49	0	128974848	52	4128
2026-01-02 12:55:15.63	188.26	6.16	-44.7	-45.9	15.7	0.00e+00	0	49	0	134217728	52	4092
2026-01-02 12:55:16.62	188.31	6.23	-44.7	-45.9	15.7	0.00e+00	0	49	0	140509184	52	4097
2026-01-02 12:55:17.61	188.37	6.30	-45.0	-46.3	15.3	0.00e+00	0	49	0	145752064	52	4259
2026-01-02 12:55:18.61	188.42	6.37	-45.0	-46.3	15.3	0.00e+00	0	49	0	150994944	52	4245
2026-01-02 12:55:19.59	188.47	6.44	-44.9	-46.2	15.4	0.00e+00	0	49	0	157286400	52	4211
2026-01-02 12:55:20.58	188.53	6.51	-45.0	-46.3	15.4	1.10e-06	0	49	0	162529280	52	4258
2026-01-02 12:55:21.57	188.58	6.58	-44.9	-46.2	15.5	0.00e+00	0	50	0	167772160	52	4202
2026-01-02 12:55:22.57	188.64	6.65	-44.9	-46.1	15.5	0.00e+00	0	49	0	174063616	52	4188
2026-01-02 12:55:23.56	188.70	6.72	-45.0	-46.2	15.4	0.00e+00	0	50	0	179306496	52	4228
2026-01-02 12:55:24.55	188.75	6.80	-45.0	-46.2	15.4	0.00e+00	0	50	0	184549376	52	4226
2026-01-02 12:55:25.54	188.81	6.87	-44.8	-46.0	15.7	0.00e+00	0	50	0	190840832	52	4113
2026-01-02 12:55:26.54	188.87	6.94	-44.8	-45.9	15.8	0.00e+00	0	50	0	196083712	52	4080
2026-01-02 12:55:27.53	188.92	7.01	-44.7	-45.8	15.9	0.00e+00	0	50	0	201326592	52	4039
2026-01-02 12:55:28.52	188.98	7.08	-44.6	-45.8	16.0	0.00e+00	0	50	0	206569472	52	4012
2026-01-02 12:55:29.50	189.04	7.15	-44.7	-45.8	15.9	0.00e+00	0	50	0	212860928	52	4019
2026-01-02 12:55:30.49	189.09	7.23	-44.7	-45.8	15.9	0.00e+00	0	50	0	218103808	52	4032
2026-01-02 12:55:31.48	189.15	7.30	-44.8	-45.9	15.8	0.00e+00	0	50	0	223346688	52	4081
2026-01-02 12:55:32.47	189.21	7.37	-44.9	-46.1	15.6	0.00e+00	0	50	0	229638144	52	4182
2026-01-02 12:55:33.46	189.27	7.44	-45.0	-46.2	15.6	0.00e+00	0	50	0	234881024	52	4200
2026-01-02 12:55:34.45	189.33	7.52	-44.7	-45.9	15.9	0.00e+00	0	50	0	240123904	52	4065
2026-01-02 12:55:35.43	189.38	7.59	-44.6	-45.7	16.0	0.00e+00	0	50	0	245366784	52	3996
2026-01-02 12:55:36.42	189.44	7.66	-44.6	-45.7	16.0	0.00e+00	0	50	0	251658240	52	3976
2026-01-02 12:55:37.41	189.50	7.74	-44.7	-45.8	16.0	0.00e+00	0	50	0	256901120	52	4014
2026-01-02 12:55:38.40	189.56	7.81	-44.8	-45.9	15.9	0.00e+00	0	50	0	263192576	52	4084
2026-01-02 12:55:39.39	189.62	7.88	-44.8	-46.0	15.8	0.00e+00	0	50	0	268435456	52	4105
2026-01-02 12:55:40.37	189.68	7.96	-44.7	-45.8	16.0	0.00e+00	0	50	0	273678336	52	4028
2026-01-02 12:55:41.36	189.74	8.03	-44.6	-45.7	16.2	0.00e+00	0	50	0	278921216	52	3961
2026-01-02 12:55:42.35	189.80	8.11	-44.6	-45.7	16.2	0.00e+00	0	50	0	285212672	52	3961
2026-01-02 12:55:43.34	189.86	8.18	-44.5	-45.5	16.3	0.00e+00	0	50	0	290455552	52	3906
2026-01-02 12:55:44.33	189.93	8.25	-44.5	-45.6	16.3	0.00e+00	0	50	0	295698432	52	3927
2026-01-02 12:55:45.32	189.99	8.33	-44.6	-45.7	16.1	0.00e+00	0	50	0	301989888	52	3992
2026-01-02 12:55:46.32	190.05	8.41	-44.4	-45.4	16.4	0.00e+00	0	51	0	307232768	52	3864
2026-01-02 12:55:47.31	190.11	8.48	-44.3	-45.3	16.6	0.00e+00	0	51	0	312475648	51	4049
2026-01-02 12:55:48.30	190.17	8.56	-44.2	-45.2	16.7	0.00e+00	0	50	0	318767104	51	3982
2026-01-02 12:55:49.29	190.24	8.63	-44.1	-45.1	16.8	0.00e+00	0	51	0	324009984	51	3958
2026-01-02 12:55:50.28	190.30	8.71	-44.1	-45.1	16.8	0.00e+00	0	51	0	329252864	51	3941
2026-01-02 12:55:51.27	190.36	8.78	-44.1	-45.1	16.8	0.00e+00	0	51	0	335544320	51	3931
2026-01-02 12:55:52.26	190.43	8.86	-44.0	-45.0	16.9	0.00e+00	0	51	0	340787200	51	3898
2026-01-02 12:55:53.25	190.49	8.94	-44.1	-45.1	16.9	0.00e+00	0	51	0	346030080	51	3927
2026-01-02 12:55:54.23	190.56	9.01	-44.1	-45.1	16.8	0.00e+00	0	51	0	351272960	51	3950
2026-01-02 12:55:55.22	190.62	9.09	-44.0	-44.9	17.0	0.00e+00	0	51	0	357564416	51	3864
2026-01-02 12:55:56.21	190.69	9.17	-43.9	-44.8	17.2	0.00e+00	0	51	0	362807296	50	4049
2026-01-02 12:55:57.20	190.75	9.25	-43.9	-44.9	17.1	0.00e+00	0	51	0	368050176	50	4069
2026-01-02 12:55:58.19	190.82	9.32	-44.0	-45.0	17.0	0.00e+00	0	51	0	374341632	50	4126
2026-01-02 12:55:59.18	190.88	9.40	-44.1	-45.1	16.9	0.00e+00	0	51	0	379584512	50	4177
2026-01-02 12:56:00.18	190.95	9.48	-43.9	-44.9	17.1	0.00e+00	0	51	0	384827392	50	4077
2026-01-02 12:56:01.17	191.02	9.56	-44.1	-45.1	17.0	0.00e+00	0	51	0	391118848	50	4155
2026-01-02 12:56:02.15	191.08	9.64	-44.3	-45.3	16.8	0.00e+00	0	51	0	396361728	50	4255
2026-01-02 12:56:03.14	191.15	9.71	-44.0	-45.0	17.0	0.00e+00	0	51	0	401604608	50	4128
2026-01-02 12:56:04.14	191.22	9.79	-43.8	-44.7	17.3	0.00e+00	0	51	0	406847488	50	4002
2026-01-02 12:56:05.12	191.29	9.87	-43.8	-44.7	17.3	0.00e+00	0	51	0	413138944	50	3978
2026-01-02 12:56:06.11	191.35	9.95	-43.8	-44.8	17.2	0.00e+00	0	51	0	418381824	50	4018
2026-01-02 12:56:07.10	191.42	10.03	-43.9	-44.8	17.2	0.00e+00	0	52	0	424673280	50	4043
2026-01-02 12:56:08.09	191.49	10.11	-44.2	-45.1	16.9	0.00e+00	0	52	0	429916160	50	4188
2026-01-02 12:56:09.09	191.56	10.19	-43.9	-44.8	17.2	0.00e+00	0	52	0	435159040	50	4035
2026-01-02 12:56:10.07	191.63	10.27	-43.7	-44.6	17.4	0.00e+00	0	52	0	440401920	50	3947
2026-01-02 12:56:11.06	191.70	10.35	-43.7	-44.6	17.4	0.00e+00	0	52	0	446693376	50	3950
2026-01-02 12:56:12.05	191.77	10.43	-43.8	-44.7	17.3	0.00e+00	0	52	0	451936256	50	3997
2026-01-02 12:56:13.04	191.84	10.51	-44.0	-44.9	17.1	0.00e+00	0	52	0	457179136	50	4097
2026-01-02 12:56:14.03	191.92	10.60	-43.8	-44.7	17.3	0.00e+00	0	52	0	463470592	50	3992
2026-01-02 12:56:15.02	191.99	10.68	-43.8	-44.7	17.4	0.00e+00	0	52	0	468713472	50	3975
2026-01-02 12:56:16.02	192.06	10.76	-43.9	-44.9	17.2	0.00e+00	0	52	0	473956352	50	4054
2026-01-02 12:56:17.01	192.13	10.84	-44.1	-45.1	17.0	0.00e+00	0	52	0	480247808	50	4147
2026-01-02 12:56:18.00	192.21	10.92	-43.9	-44.9	17.2	0.00e+00	0	52	0	485490688	50	4070
2026-01-02 12:56:18.99	192.28	11.01	-43.9	-44.8	17.2	0.00e+00	0	52	0	490733568	50	4047
2026-01-02 12:56:19.97	192.35	11.09	-43.9	-44.9	17.2	0.00e+00	0	52	0	495976448	50	4076
2026-01-02 12:56:20.96	192.43	11.17	-43.9	-44.8	17.3	0.00e+00	0	52	0	502267904	50	4046
2026-01-02 12:56:21.96	192.50	11.25	-43.9	-44.9	17.2	0.00e+00	0	52	0	507510784	50	4054
2026-01-02 12:56:22.94	192.57	11.34	-44.0	-45.0	17.1	0.00e+00	0	52	0	513802240	50	4116
2026-01-02 12:56:23.93	192.65	11.42	-44.2	-45.2	16.9	0.00e+00	0	52	0	519045120	50	4209
2026-01-02 12:56:24.92	192.73	11.50	-44.4	-45.4	16.7	0.00e+00	0	52	0	524288000	50	4313
2026-01-02 12:56:25.91	192.80	11.59	-44.3	-45.3	16.8	0.00e+00	0	52	0	529530880	50	4258
2026-01-02 12:56:26.89	192.88	11.67	-44.0	-45.0	17.1	0.00e+00	0	52	0	535822336	50	4139
2026-01-02 12:56:27.88	192.95	11.76	-44.0	-45.0	17.1	0.00e+00	0	52	0	541065216	50	4134
2026-01-02 12:56:28.87	193.03	11.84	-44.1	-45.1	17.1	0.00e+00	0	52	0	546308096	50	4148
2026-01-02 12:56:29.86	193.11	11.93	-44.1	-45.1	17.0	0.00e+00	0	52	0	552599552	50	4189
2026-01-02 12:56:30.83	193.19	12.01	-44.3	-45.3	16.9	0.00e+00	0	52	0	557842432	50	4256
2026-01-02 12:56:31.83	193.27	12.10	-44.0	-45.0	17.1	0.00e+00	0	52	0	563085312	50	4140
2026-01-02 12:56:32.81	193.34	12.18	-43.9	-44.9	17.2	0.00e+00	0	52	0	568328192	50	4067
2026-01-02 12:56:33.80	193.42	12.27	-43.8	-44.8	17.3	0.00e+00	0	53	0	574619648	50	4023
2026-01-02 12:56:34.79	193.50	12.35	-43.8	-44.8	17.3	0.00e+00	0	52	0	579862528	50	4018
2026-01-02 12:56:35.78	193.58	12.44	-43.7	-44.7	17.5	0.00e+00	0	52	0	585105408	50	3967
2026-01-02 12:56:36.77	193.66	12.53	-43.7	-44.6	17.5	0.00e+00	0	53	0	591396864	50	3953
2026-01-02 12:56:37.76	193.75	12.61	-43.9	-44.8	17.3	0.00e+00	0	52	0	596639744	50	4035
2026-01-02 12:56:38.74	193.83	12.70	-43.8	-44.7	17.5	0.00e+00	0	53	0	601882624	50	3974
2026-01-02 12:56:39.74	193.91	12.79	-43.5	-44.4	17.7	0.00e+00	0	53	0	607125504	50	3849
2026-01-02 12:56:40.72	193.99	12.88	-43.3	-44.2	17.9	0.00e+00	0	53	0	613416960	49	3989
2026-01-02 12:56:41.70	194.07	12.96	-43.2	-44.1	18.1	0.00e+00	0	53	0	618659840	49	3918
2026-01-02 12:56:42.69	194.16	13.05	-43.2	-44.1	18.0	0.00e+00	0	53	0	624951296	49	3929
2026-01-02 12:56:43.68	194.24	13.14	-43.2	-44.1	18.0	0.00e+00	0	53	0	630194176	49	3930
2026-01-02 12:56:44.67	194.33	13.23	-43.2	-44.1	18.0	0.00e+00	0	53	0	635437056	49	3932
2026-01-02 12:56:45.65	194.41	13.32	-43.4	-44.3	17.8	0.00e+00	0	53	0	640679936	49	4026
2026-01-02 12:56:46.64	194.50	13.41	-43.3	-44.2	17.9	0.00e+00	0	53	0	646971392	49	4000
2026-01-02 12:56:47.64	194.58	13.50	-43.1	-44.0	18.2	0.00e+00	0	53	0	652214272	49	3872
2026-01-02 12:56:48.62	194.67	13.59	-43.0	-43.8	18.3	0.00e+00	0	53	0	657457152	49	3815
2026-01-02 12:56:49.61	194.75	13.68	-43.0	-43.8	18.3	0.00e+00	0	53	0	663748608	49	3795
2026-01-02 12:56:50.59	194.84	13.77	-43.0	-43.8	18.3	0.00e+00	0	53	0	668991488	49	3797
2026-01-02 12:56:51.58	194.93	13.86	-43.0	-43.8	18.3	0.00e+00	0	53	0	674234368	49	3820
2026-01-02 12:56:52.57	195.02	13.95	-43.0	-43.9	18.3	0.00e+00	0	53	0	679477248	49	3838
2026-01-02 12:56:53.54	195.11	14.04	-43.0	-43.8	18.3	0.00e+00	0	53	0	685768704	49	3821
2026-01-02 12:56:54.53	195.19	14.13	-43.0	-43.9	18.2	0.00e+00	0	53	0	691011584	49	3852
2026-01-02 12:56:55.52	195.28	14.22	-43.2	-44.1	18.1	0.00e+00	0	53	0	696254464	49	3917
2026-01-02 12:56:56.51	195.38	14.31	-43.2	-44.0	18.1	0.00e+00	0	53	0	702545920	49	3911
2026-01-02 12:56:57.50	195.47	14.41	-43.2	-44.0	18.1	0.00e+00	0	53	0	707788800	49	3891
2026-01-02 12:56:58.49	195.56	14.50	-43.2	-44.1	18.1	0.00e+00	0	53	0	713031680	49	3915
2026-01-02 12:56:59.48	195.65	14.59	-43.3	-44.1	18.1	0.00e+00	0	53	0	718274560	49	3940
2026-01-02 12:57:00.47	195.74	14.69	-43.4	-44.3	17.9	0.00e+00	0	53	0	724566016	49	4017
2026-01-02 12:57:01.46	195.84	14.78	-43.5	-44.4	17.8	0.00e+00	0	53	0	729808896	49	4054
2026-01-02 12:57:02.45	195.93	14.87	-43.2	-44.1	18.1	0.00e+00	0	53	0	735051776	49	3932
2026-01-02 12:57:03.44	196.03	14.97	-43.1	-44.0	18.2	0.00e+00	0	53	0	741343232	49	3883
2026-01-02 12:57:04.42	196.12	15.06	-43.1	-43.9	18.2	0.00e+00	0	53	0	746586112	49	3859
2026-01-02 12:57:05.41	196.22	15.16	-43.3	-44.1	18.1	0.00e+00	0	53	0	751828992	49	3944
2026-01-02 12:57:06.40	196.31	15.25	-43.3	-44.2	18.0	0.00e+00	0	53	0	758120448	49	3961
2026-01-02 12:57:07.39	196.41	15.35	-43.0	-43.9	18.3	0.00e+00	0	53	0	763363328	49	3827
2026-01-02 12:57:08.38	196.51	15.44	-42.8	-43.6	18.6	0.00e+00	0	53	0	768606208	48	3940
2026-01-02 12:57:09.37	196.60	15.54	-42.6	-43.4	18.7	0.00e+00	0	53	0	773849088	48	3856
2026-01-02 12:57:10.36	196.70	15.64	-42.5	-43.3	18.8	0.00e+00	0	53	0	780140544	48	3813
2026-01-02 12:57:11.35	196.80	15.73	-42.5	-43.3	18.8	0.00e+00	0	53	0	785383424	48	3813
2026-01-02 12:57:12.35	196.90	15.83	-42.6	-43.3	18.8	0.00e+00	0	54	0	791674880	48	3823
2026-01-02 12:57:13.34	197.00	15.93	-42.2	-43.0	19.1	0.00e+00	0	53	0	796917760	47	3869
2026-01-02 12:57:14.32	197.10	16.03	-42.1	-42.8	19.2	0.00e+00	0	54	0	802160640	47	3810
2026-01-02 12:57:15.31	197.20	16.12	-42.1	-42.9	19.1	0.00e+00	0	54	0	807403520	47	3825
2026-01-02 12:57:16.30	197.31	16.22	-42.1	-42.9	19.1	0.00e+00	0	54	0	813694976	47	3856
2026-01-02 12:57:17.30	197.41	16.32	-42.1	-42.9	19.1	0.00e+00	0	53	0	818937856	47	3829
2026-01-02 12:57:18.28	197.51	16.42	-42.2	-43.0	19.1	0.00e+00	0	54	0	824180736	47	3870
2026-01-02 12:57:19.27	197.62	16.52	-42.1	-42.9	19.2	0.00e+00	0	54	0	830472192	47	3828
2026-01-02 12:57:20.26	197.72	16.62	-42.4	-43.1	18.9	0.00e+00	0	54	0	835715072	47	3956
2026-01-02 12:57:21.25	197.83	16.72	-42.5	-43.3	18.8	0.00e+00	0	54	0	840957952	47	4023
2026-01-02 12:57:22.24	197.94	16.82	-42.4	-43.2	18.9	0.00e+00	0	54	0	847249408	47	3960
2026-01-02 12:57:23.23	198.04	16.92	-42.6	-43.4	18.7	0.00e+00	0	54	0	852492288	47	4065
2026-01-02 12:57:24.22	198.15	17.02	-42.9	-43.7	18.3	0.00e+00	0	54	0	857735168	47	4224
2026-01-02 12:57:25.22	198.26	17.12	-42.8	-43.7	18.4	0.00e+00	0	54	0	864026624	47	4213
2026-01-02 12:57:26.21	198.37	17.22	-42.7	-43.6	18.5	0.00e+00	0	54	0	869269504	47	4148
2026-01-02 12:57:27.20	198.48	17.32	-42.6	-43.4	18.6	0.00e+00	0	54	0	874512384	47	4092
2026-01-02 12:57:28.19	198.59	17.43	-42.6	-43.4	18.6	0.00e+00	0	54	0	880803840	47	4084
2026-01-02 12:57:29.17	198.70	17.53	-42.7	-43.6	18.5	0.00e+00	0	54	0	886046720	47	4151
2026-01-02 12:57:30.16	198.81	17.63	-42.9	-43.7	18.4	0.00e+00	0	54	0	891289600	47	4222
2026-01-02 12:57:31.14	198.92	17.73	-42.7	-43.5	18.6	0.00e+00	0	54	0	896532480	47	4115
2026-01-02 12:57:32.13	199.04	17.84	-42.5	-43.3	18.7	0.00e+00	0	54	0	902823936	47	4043
2026-01-02 12:57:33.12	199.15	17.94	-42.6	-43.4	18.6	0.00e+00	0	54	0	908066816	47	4098
2026-01-02 12:57:34.11	199.27	18.04	-42.9	-43.7	18.4	0.00e+00	0	54	0	913309696	47	4210
2026-01-02 12:57:35.11	199.38	18.15	-42.5	-43.3	18.7	0.00e+00	0	54	0	919601152	47	4038
2026-01-02 12:57:36.10	199.50	18.26	-42.3	-43.0	19.1	0.00e+00	0	54	0	924844032	47	3910
2026-01-02 12:57:37.09	199.62	18.36	-42.2	-42.9	19.2	0.00e+00	0	54	0	930086912	47	3852
2026-01-02 12:57:38.07	199.73	18.46	-42.2	-42.9	19.3	0.00e+00	0	54	0	935329792	47	3836
2026-01-02 12:57:39.07	199.85	18.57	-42.2	-42.9	19.3	0.00e+00	0	54	0	941621248	47	3833
2026-01-02 12:57:40.06	199.97	18.68	-42.5	-43.2	18.9	0.00e+00	0	54	0	946864128	47	4001
2026-01-02 12:57:41.05	200.09	18.78	-42.0	-42.7	19.5	0.00e+00	0	54	0	953155584	47	3772
2026-01-02 12:57:42.04	200.21	18.89	-41.8	-42.4	19.8	0.00e+00	0	54	0	958398464	46	3854
2026-01-02 12:57:43.03	200.34	19.00	-41.6	-42.2	19.9	0.00e+00	0	54	0	963641344	46	3766
2026-01-02 12:57:44.02	200.46	19.11	-41.5	-42.1	20.0	0.00e+00	0	54	0	968884224	46	3725
2026-01-02 12:57:45.00	200.58	19.21	-41.5	-42.1	20.0	0.00e+00	0	54	0	975175680	46	3735
2026-01-02 12:57:45.99	200.71	19.32	-41.4	-42.1	20.1	0.00e+00	0	54	0	980418560	46	3715
2026-01-02 12:57:46.98	200.83	19.43	-41.6	-42.3	19.9	0.00e+00	0	54	0	985661440	46	3796
2026-01-02 12:57:47.97	200.96	19.54	-41.5	-42.2	20.0	0.00e+00	0	54	0	991952896	46	3748
2026-01-02 12:57:48.95	201.08	19.65	-41.7	-42.4	19.8	0.00e+00	0	54	0	997195776	46	3834
2026-01-02 12:57:49.94	201.21	19.76	-42.0	-42.7	19.5	0.00e+00	0	54	0	1002438656	46	3989
2026-01-02 12:57:50.93	201.34	19.87	-41.9	-42.6	19.6	0.00e+00	0	54	0	1007681536	46	3918
2026-01-02 12:57:51.92	201.47	19.98	-41.7	-42.4	19.8	0.00e+00	0	54	0	1013972992	46	3833
2026-01-02 12:57:52.91	201.60	20.09	-41.6	-42.2	20.0	0.00e+00	0	54	0	1019215872	46	3779
2026-01-02 12:57:53.90	201.73	20.20	-41.6	-42.3	19.9	0.00e+00	0	54	0	1024458752	46	3784
2026-01-02 12:57:54.90	201.87	20.31	-41.5	-42.2	20.0	0.00e+00	0	54	0	1030750208	46	3745
2026-01-02 12:57:55.89	202.00	20.42	-41.5	-42.2	20.0	0.00e+00	0	55	0	1035993088	46	3758
2026-01-02 12:57:56.88	202.14	20.53	-41.6	-42.3	19.9	0.00e+00	0	54	0	1041235968	46	3796
2026-01-02 12:57:57.87	202.27	20.65	-41.9	-42.6	19.6	0.00e+00	0	54	0	1047527424	46	3937
2026-01-02 12:57:58.86	202.41	20.76	-41.7	-42.3	19.9	0.00e+00	0	54	0	1052770304	46	3813
2026-01-02 12:57:59.84	202.54	20.87	-41.4	-42.1	20.1	0.00e+00	0	54	0	1058013184	46	3711
2026-01-02 12:58:00.83	202.68	20.98	-41.3	-41.9	20.2	0.00e+00	0	55	0	1063256064	45	3868
2026-01-02 12:58:01.81	202.82	21.10	-41.3	-42.0	20.2	0.00e+00	0	55	0	1069547520	45	3878
2026-01-02 12:58:02.80	202.96	21.21	-41.3	-41.9	20.3	0.00e+00	0	55	0	1074790400	45	3849
2026-01-02 12:58:03.79	203.10	21.32	-41.3	-41.9	20.2	0.00e+00	0	55	0	1081081856	45	3865
2026-01-02 12:58:04.79	203.25	21.44	-41.4	-42.1	20.1	0.00e+00	0	54	0	1086324736	45	3916
2026-01-02 12:58:05.78	203.39	21.56	-41.6	-42.2	20.0	0.00e+00	0	55	0	1091567616	45	3996
2026-01-02 12:58:06.77	203.53	21.67	-41.5	-42.1	20.1	0.00e+00	0	55	0	1096810496	45	3938
2026-01-02 12:58:07.76	203.68	21.79	-41.3	-41.9	20.3	0.00e+00	0	55	0	1103101952	45	3852
2026-01-02 12:58:08.76	203.83	21.90	-41.2	-41.8	20.4	0.00e+00	0	55	0	1108344832	45	3814
2026-01-02 12:58:09.76	203.98	22.02	-41.2	-41.9	20.3	0.00e+00	0	55	0	1114636288	45	3825
2026-01-02 12:58:10.75	204.12	22.14	-41.2	-41.8	20.3	0.00e+00	0	55	0	1119879168	45	3821
2026-01-02 12:58:11.74	204.27	22.26	-41.3	-41.9	20.3	0.00e+00	0	55	0	1125122048	45	3847
2026-01-02 12:58:12.72	204.42	22.37	-41.3	-41.9	20.3	0.00e+00	0	55	0	1130364928	45	3832
2026-01-02 12:58:13.71	204.58	22.49	-41.2	-41.9	20.3	0.00e+00	0	55	0	1136656384	45	3829
2026-01-02 12:58:14.70	204.73	22.61	-41.3	-41.9	20.3	0.00e+00	0	55	0	1141899264	45	3861
2026-01-02 12:58:15.68	204.88	22.73	-41.6	-42.2	20.0	0.00e+00	0	55	0	1147142144	45	3979
2026-01-02 12:58:16.68	205.04	22.85	-41.4	-42.1	20.1	0.00e+00	0	55	0	1153433600	45	3918
2026-01-02 12:58:17.67	205.19	22.97	-41.2	-41.8	20.4	0.00e+00	0	55	0	1158676480	45	3824
2026-01-02 12:58:18.66	205.35	23.08	-41.2	-41.8	20.4	0.00e+00	0	55	0	1163919360	45	3806
2026-01-02 12:58:19.65	205.51	23.20	-41.3	-41.9	20.3	0.00e+00	0	55	0	1170210816	45	3862
2026-01-02 12:58:20.63	205.67	23.32	-41.2	-41.9	20.4	0.00e+00	0	55	0	1175453696	45	3825
2026-01-02 12:58:21.63	205.83	23.45	-41.0	-41.7	20.6	0.00e+00	0	55	0	1180696576	45	3742
2026-01-02 12:58:22.61	205.99	23.57	-41.0	-41.6	20.6	0.00e+00	0	55	0	1185939456	45	3718
2026-01-02 12:58:23.60	206.16	23.69	-41.0	-41.6	20.6	0.00e+00	0	55	0	1192230912	45	3712
2026-01-02 12:58:24.59	206.32	23.81	-40.8	-41.4	20.8	0.00e+00	0	55	0	1197473792	44	3861
2026-01-02 12:58:25.59	206.49	23.93	-40.7	-41.2	20.9	0.00e+00	0	55	0	1203765248	44	3769
2026-01-02 12:58:26.57	206.66	24.05	-40.6	-41.1	21.0	0.00e+00	0	55	0	1209008128	44	3736
2026-01-02 12:58:27.55	206.82	24.17	-40.6	-41.2	21.0	0.00e+00	0	55	0	1214251008	44	3750
2026-01-02 12:58:28.53	206.99	24.30	-40.6	-41.2	21.0	0.00e+00	0	55	0	1219493888	44	3762
2026-01-02 12:58:29.51	207.16	24.42	-40.8	-41.4	20.8	0.00e+00	0	55	0	1224736768	44	3845
2026-01-02 12:58:30.50	207.33	24.54	-40.9	-41.6	20.7	0.00e+00	0	55	0	1231028224	44	3916
2026-01-02 12:58:31.48	207.50	24.66	-41.0	-41.6	20.7	0.00e+00	0	55	0	1236271104	44	3920
2026-01-02 12:58:32.47	207.68	24.79	-41.0	-41.6	20.6	0.00e+00	0	55	0	1241513984	44	3943
2026-01-02 12:58:33.45	207.85	24.91	-41.0	-41.6	20.6	0.00e+00	0	55	0	1247805440	44	3943
2026-01-02 12:58:34.44	208.03	25.04	-40.9	-41.5	20.7	0.00e+00	0	55	0	1253048320	44	3884
2026-01-02 12:58:35.43	208.21	25.16	-40.9	-41.6	20.7	0.00e+00	0	55	0	1258291200	44	3914
2026-01-02 12:58:36.41	208.39	25.28	-41.1	-41.8	20.5	0.00e+00	0	55	0	1263534080	44	4008
2026-01-02 12:58:37.41	208.57	25.41	-41.3	-41.9	20.3	0.00e+00	0	55	0	1269825536	44	4082
2026-01-02 12:58:38.40	208.76	25.54	-40.9	-41.5	20.7	0.00e+00	0	55	0	1275068416	44	3910
2026-01-02 12:58:39.38	208.94	25.66	-40.7	-41.3	21.0	0.00e+00	0	55	0	1280311296	44	3781
2026-01-02 12:58:40.37	209.13	25.79	-40.4	-41.0	21.2	0.00e+00	0	55	0	1286602752	44	3683
2026-01-02 12:58:41.36	209.31	25.92	-40.4	-41.0	21.2	0.00e+00	0	55	0	1291845632	44	3673
2026-01-02 12:58:42.35	209.50	26.04	-40.4	-41.0	21.2	0.00e+00	0	55	0	1297088512	44	3672
2026-01-02 12:58:43.34	209.69	26.17	-40.2	-40.8	21.3	0.00e+00	0	55	0	1303379968	43	3793
2026-01-02 12:58:44.32	209.88	26.30	-40.3	-40.8	21.2	0.00e+00	0	55	0	1308622848	43	3817
2026-01-02 12:58:45.32	210.08	26.43	-40.1	-40.6	21.5	0.00e+00	0	55	0	1313865728	43	3732
2026-01-02 12:58:46.31	210.28	26.55	-40.1	-40.6	21.5	0.00e+00	0	55	0	1320157184	43	3725
2026-01-02 12:58:47.29	210.47	26.68	-40.1	-40.7	21.4	0.00e+00	0	55	0	1325400064	43	3748
2026-01-02 12:58:48.28	210.67	26.81	-40.1	-40.7	21.4	0.00e+00	0	55	0	1330642944	43	3747
2026-01-02 12:58:49.27	210.87	26.94	-40.2	-40.8	21.3	0.00e+00	0	55	0	1335885824	43	3787
2026-01-02 12:58:50.26	211.07	27.07	-40.4	-41.0	21.1	0.00e+00	0	55	0	1342177280	43	3885
2026-01-02 12:58:51.25	211.27	27.20	-40.5	-41.1	21.0	0.00e+00	0	55	0	1347420160	43	3928
2026-01-02 12:58:52.25	211.48	27.33	-40.3	-40.9	21.2	0.00e+00	0	55	0	1352663040	43	3825
2026-01-02 12:58:53.24	211.69	27.46	-40.3	-40.9	21.2	0.00e+00	0	55	0	1358954496	43	3842
2026-01-02 12:58:54.22	211.89	27.59	-40.4	-40.9	21.2	0.00e+00	0	55	0	1364197376	43	3861
2026-01-02 12:58:55.21	212.10	27.72	-40.5	-41.1	21.0	0.00e+00	0	55	0	1369440256	43	3939
2026-01-02 12:58:56.20	212.31	27.85	-40.7	-41.2	20.9	0.00e+00	0	55	0	1375731712	43	4000
2026-01-02 12:58:57.19	212.53	27.98	-40.5	-41.1	21.0	0.00e+00	0	55	0	1380974592	43	3927
2026-01-02 12:58:58.19	212.74	28.11	-40.5	-41.1	21.0	0.00e+00	0	55	0	1386217472	43	3935
2026-01-02 12:58:59.17	212.96	28.24	-40.6	-41.2	21.0	0.00e+00	0	55	0	1392508928	43	3960
2026-01-02 12:59:00.16	213.18	28.37	-40.6	-41.2	20.9	0.00e+00	0	55	0	1397751808	43	3995
2026-01-02 12:59:01.15	213.40	28.51	-40.7	-41.3	20.8	0.00e+00	0	55	0	1402994688	43	4028
2026-01-02 12:59:02.15	213.62	28.64	-40.7	-41.3	20.8	0.00e+00	0	55	0	1409286144	43	4041
2026-01-02 12:59:03.13	213.84	28.77	-40.4	-41.0	21.1	0.00e+00	0	55	0	1414529024	43	3901
2026-01-02 12:59:04.12	214.07	28.90	-40.3	-40.9	21.3	0.00e+00	0	55	0	1419771904	43	3827
2026-01-02 12:59:05.11	214.29	29.03	-40.3	-40.8	21.3	0.00e+00	0	55	0	1425014784	43	3810
2026-01-02 12:59:06.10	214.52	29.17	-40.4	-40.9	21.2	0.00e+00	0	55	0	1431306240	43	3865
2026-01-02 12:59:07.09	214.75	29.30	-40.5	-41.0	21.1	0.00e+00	0	55	0	1436549120	43	3910
2026-01-02 12:59:08.08	214.98	29.43	-40.7	-41.2	20.9	0.00e+00	0	55	0	1441792000	43	4000
2026-01-02 12:59:09.07	215.22	29.56	-40.6	-41.2	21.0	0.00e+00	0	55	0	1448083456	43	3971
2026-01-02 12:59:10.06	215.46	29.70	-40.7	-41.3	20.9	0.00e+00	0	55	0	1453326336	43	4018
2026-01-02 12:59:11.05	215.69	29.83	-40.8	-41.4	20.8	0.00e+00	0	55	0	1458569216	43	4053
2026-01-02 12:59:12.04	215.93	29.96	-40.6	-41.2	20.9	0.00e+00	0	55	0	1464860672	43	3987
2026-01-02 12:59:13.03	216.18	30.10	-40.6	-41.1	21.0	0.00e+00	0	56	0	1470103552	43	3949
2026-01-02 12:59:14.02	216.42	30.23	-40.6	-41.1	21.0	0.00e+00	0	55	0	1475346432	43	3949
2026-01-02 12:59:15.02	216.67	30.36	-40.5	-41.1	21.0	0.00e+00	0	55	0	1481637888	43	3935
2026-01-02 12:59:16.01	216.92	30.50	-41.0	-41.6	20.6	0.00e+00	0	56	0	1486880768	43	4161
2026-01-02 12:59:17.00	217.17	30.63	-40.7	-41.3	20.9	0.00e+00	0	56	0	1492123648	43	4005
2026-01-02 12:59:17.99	217.42	30.76	-40.4	-41.0	21.1	0.00e+00	0	56	0	1498415104	43	3902
2026-01-02 12:59:18.98	217.67	30.90	-40.2	-40.8	21.4	0.00e+00	0	56	0	1503657984	43	3787
2026-01-02 12:59:19.98	217.93	31.03	-40.0	-40.5	21.6	0.00e+00	0	55	0	1508900864	43	3687
2026-01-02 12:59:20.96	218.19	31.16	-39.9	-40.5	21.6	0.00e+00	0	55	0	1514143744	43	3665
2026-01-02 12:59:21.96	218.45	31.30	-39.9	-40.4	21.7	0.00e+00	0	55	0	1520435200	42	3860
2026-01-02 12:59:22.95	218.71	31.43	-40.0	-40.5	21.6	0.00e+00	0	56	0	1525678080	42	3902
2026-01-02 12:59:23.93	218.98	31.56	-40.2	-40.7	21.4	0.00e+00	0	56	0	1530920960	42	4001
2026-01-02 12:59:24.92	219.24	31.70	-40.0	-40.6	21.5	0.00e+00	0	56	0	1537212416	42	3924
2026-01-02 12:59:25.91	219.51	31.83	-39.9	-40.4	21.7	0.00e+00	0	56	0	1542455296	42	3838
2026-01-02 12:59:26.90	219.78	31.96	-39.8	-40.3	21.8	0.00e+00	0	56	0	1547698176	42	3812
2026-01-02 12:59:27.89	220.06	32.10	-39.9	-40.4	21.7	0.00e+00	0	55	0	1553989632	42	3854
2026-01-02 12:59:28.87	220.33	32.23	-39.8	-40.3	21.8	0.00e+00	0	56	0	1559232512	42	3799
2026-01-02 12:59:29.86	220.61	32.36	-39.9	-40.5	21.7	0.00e+00	0	56	0	1564475392	42	3884
2026-01-02 12:59:30.84	220.88	32.49	-39.9	-40.4	21.7	0.00e+00	0	56	0	1570766848	42	3868
2026-01-02 12:59:31.83	221.17	32.62	-39.9	-40.5	21.7	0.00e+00	0	55	0	1576009728	42	3890
2026-01-02 12:59:32.83	221.45	32.76	-40.2	-40.8	21.4	0.00e+00	0	56	0	1581252608	42	4014
2026-01-02 12:59:33.82	221.74	32.89	-40.1	-40.6	21.5	0.00e+00	0	56	0	1586495488	42	3945
2026-01-02 12:59:34.81	222.03	33.02	-39.9	-40.4	21.7	0.00e+00	0	55	0	1592786944	42	3867
2026-01-02 12:59:35.79	222.32	33.15	-40.0	-40.5	21.7	0.00e+00	0	56	0	1598029824	42	3888
2026-01-02 12:59:36.78	222.61	33.28	-40.0	-40.6	21.6	0.00e+00	0	56	0	1603272704	42	3921
2026-01-02 12:59:37.77	222.91	33.41	-40.0	-40.6	21.6	0.00e+00	0	56	0	1609564160	42	3921
2026-01-02 12:59:38.76	223.21	33.55	-40.0	-40.5	21.6	0.00e+00	0	56	0	1614807040	42	3901
2026-01-02 12:59:39.75	223.51	33.68	-40.0	-40.5	21.6	0.00e+00	0	56	0	1620049920	42	3912
2026-01-02 12:59:40.73	223.81	33.80	-40.2	-40.7	21.5	0.00e+00	0	56	0	1625292800	42	3980
2026-01-02 12:59:41.71	224.11	33.93	-40.0	-40.5	21.7	0.00e+00	0	56	0	1631584256	42	3889
2026-01-02 12:59:42.70	224.42	34.06	-39.8	-40.3	21.8	0.00e+00	0	56	0	1636827136	42	3807
2026-01-02 12:59:43.68	224.72	34.19	-39.8	-40.3	21.8	0.00e+00	0	56	0	1642070016	42	3814
2026-01-02 12:59:44.66	225.03	34.32	-40.0	-40.5	21.6	0.00e+00	0	56	0	1648361472	42	3892
2026-01-02 12:59:45.65	225.35	34.45	-40.0	-40.5	21.6	0.00e+00	0	56	0	1653604352	42	3913
2026-01-02 12:59:46.65	225.67	34.58	-39.9	-40.5	21.7	0.00e+00	0	56	0	1658847232	42	3870
2026-01-02 12:59:47.64	225.99	34.70	-39.9	-40.4	21.7	0.00e+00	0	56	0	1665138688	42	3854
2026-01-02 12:59:48.63	226.31	34.83	-40.0	-40.6	21.6	0.00e+00	0	56	0	1670381568	42	3932
2026-01-02 12:59:49.62	226.64	34.96	-40.0	-40.6	21.6	0.00e+00	0	56	0	1675624448	42	3926
2026-01-02 12:59:50.62	226.97	35.08	-39.8	-40.4	21.8	0.00e+00	0	56	0	1681915904	42	3837
2026-01-02 12:59:51.61	227.30	35.21	-39.7	-40.2	22.0	0.00e+00	0	56	0	1687158784	42	3758
2026-01-02 12:59:52.60	227.63	35.34	-39.7	-40.3	21.9	0.00e+00	0	56	0	1692401664	42	3781
2026-01-02 12:59:53.59	227.96	35.46	-39.9	-40.4	21.7	0.00e+00	0	56	0	1698693120	42	3860
2026-01-02 12:59:54.58	228.30	35.58	-39.9	-40.4	21.8	0.00e+00	0	56	0	1703936000	42	3849
2026-01-02 12:59:55.57	228.64	35.71	-39.7	-40.2	22.0	0.00e+00	0	56	0	1709178880	42	3770
2026-01-02 12:59:56.56	228.98	35.83	-39.7	-40.2	21.9	0.00e+00	0	56	0	1714421760	42	3760
2026-01-02 12:59:57.55	229.33	35.95	-39.8	-40.3	21.9	0.00e+00	0	56	0	1720713216	42	3804
2026-01-02 12:59:58.55	229.68	36.07	-39.7	-40.3	21.8	0.00e+00	0	56	0	1725956096	42	3796
2026-01-02 12:59:59.54	230.03	36.19	-39.7	-40.2	21.9	0.00e+00	0	56	0	1732247552	42	3756
2026-01-02 13:00:00.52	230.38	36.31	-39.5	-40.0	22.1	0.00e+00	0	56	0	1737490432	42	3694
2026-01-02 13:00:01.51	230.73	36.43	-39.4	-39.9	22.2	0.00e+00	0	56	0	1742733312	41	3830
2026-01-02 13:00:02.50	231.09	36.55	-39.5	-40.0	22.1	0.00e+00	0	56	0	1747976192	41	3896
2026-01-02 13:00:03.49	231.45	36.67	-39.5	-40.0	22.1	0.00e+00	0	56	0	1754267648	41	3905
2026-01-02 13:00:04.47	231.81	36.78	-39.5	-40.0	22.1	0.00e+00	0	56	0	1759510528	41	3912
2026-01-02 13:00:05.46	232.18	36.90	-39.8	-40.3	21.8	0.00e+00	0	56	0	1764753408	41	4038
2026-01-02 13:00:06.46	232.55	37.01	-39.9	-40.5	21.7	0.00e+00	0	56	0	1771044864	41	4103
2026-01-02 13:00:07.45	232.92	37.13	-39.8	-40.4	21.8	0.00e+00	0	56	0	1776287744	41	4061
2026-01-02 13:00:08.44	233.29	37.24	-39.8	-40.3	21.8	0.00e+00	0	56	0	1781530624	41	4024
2026-01-02 13:00:09.43	233.67	37.35	-40.0	-40.5	21.6	0.00e+00	0	56	0	1786773504	41	4118
2026-01-02 13:00:10.42	234.05	37.46	-40.2	-40.7	21.4	0.00e+00	0	56	0	1793064960	42	3991
2026-01-02 13:00:11.41	234.43	37.57	-39.9	-40.5	21.7	0.00e+00	0	56	0	1798307840	42	3882
2026-01-02 13:00:12.40	234.81	37.68	-39.7	-40.3	21.9	0.00e+00	0	56	0	1803550720	42	3787
2026-01-02 13:00:13.39	235.19	37.79	-39.6	-40.1	22.1	0.00e+00	0	56	0	1809842176	42	3706
2026-01-02 13:00:14.38	235.58	37.90	-39.6	-40.1	22.1	0.00e+00	0	56	0	1815085056	42	3711
2026-01-02 13:00:15.37	235.97	38.00	-39.6	-40.2	22.0	0.00e+00	0	56	0	1820327936	42	3741
2026-01-02 13:00:16.36	236.37	38.11	-39.7	-40.2	22.0	0.00e+00	0	56	0	1826619392	42	3751
2026-01-02 13:00:17.35	236.76	38.21	-39.8	-40.3	21.8	0.00e+00	0	56	0	1831862272	42	3814
2026-01-02 13:00:18.34	237.16	38.31	-39.8	-40.3	21.8	0.00e+00	0	56	0	1837105152	42	3823
2026-01-02 13:00:19.33	237.56	38.42	-39.9	-40.4	21.7	0.00e+00	0	56	0	1842348032	42	3844
2026-01-02 13:00:20.32	237.96	38.51	-39.5	-40.0	22.1	0.00e+00	0	56	0	1848639488	42	3685
2026-01-02 13:00:21.30	238.37	38.61	-39.5	-40.0	22.2	0.00e+00	0	56	0	1853882368	42	3664
2026-01-02 13:00:22.29	238.77	38.71	-39.6	-40.1	22.0	0.00e+00	0	56	0	1860173824	42	3718
2026-01-02 13:00:23.28	239.18	38.81	-39.6	-40.1	22.0	0.00e+00	0	56	0	1865416704	42	3733
2026-01-02 13:00:24.27	239.60	38.90	-39.5	-40.0	22.1	0.00e+00	0	56	0	1870659584	42	3692
2026-01-02 13:00:25.26	240.01	38.99	-39.7	-40.2	22.0	0.00e+00	0	56	0	1875902464	42	3755
2026-01-02 13:00:26.24	240.42	39.08	-39.9	-40.4	21.8	0.00e+00	0	56	0	1882193920	42	3854
2026-01-02 13:00:27.23	240.84	39.17	-39.6	-40.2	22.0	0.00e+00	0	56	0	1887436800	42	3747
2026-01-02 13:00:28.22	241.26	39.26	-39.5	-40.0	22.2	0.00e+00	0	56	0	1892679680	42	3663
2026-01-02 13:00:29.22	241.69	39.35	-39.4	-40.0	22.2	0.00e+00	0	56	0	1898971136	42	3658
2026-01-02 13:00:30.20	242.11	39.44	-39.5	-40.1	22.1	0.00e+00	0	56	0	1904214016	42	3696
2026-01-02 13:00:31.19	242.54	39.52	-39.7	-40.2	21.9	0.00e+00	0	56	0	1909456896	42	3773
2026-01-02 13:00:32.18	242.97	39.60	-39.8	-40.3	21.9	0.00e+00	0	56	0	1914699776	42	3810
2026-01-02 13:00:33.17	243.41	39.68	-39.9	-40.4	21.8	1.10e-06	0	56	0	1920991232	42	3848
2026-01-02 13:00:34.16	243.84	39.76	-39.8	-40.4	21.8	0.00e+00	0	56	0	1926234112	42	3833
2026-01-02 13:00:35.15	244.28	39.84	-39.7	-40.3	21.9	0.00e+00	0	56	0	1931476992	42	3793
2026-01-02 13:00:36.13	244.71	39.92	-39.5	-40.0	22.1	0.00e+00	0	56	0	1937768448	42	3689
2026-01-02 13:00:37.12	245.15	39.99	-39.5	-40.0	22.1	0.00e+00	0	56	0	1943011328	42	3685
2026-01-02 13:00:38.10	245.59	40.06	-39.8	-40.3	21.8	0.00e+00	0	56	0	1948254208	42	3809
2026-01-02 13:00:39.09	246.04	40.13	-39.6	-40.2	22.0	0.00e+00	0	56	0	1954545664	42	3753
2026-01-02 13:00:40.08	246.48	40.20	-39.8	-40.4	21.8	0.00e+00	0	56	0	1959788544	42	3829
2026-01-02 13:00:41.07	246.93	40.27	-40.2	-40.7	21.4	0.00e+00	0	56	0	1965031424	42	4001
2026-01-02 13:00:42.06	247.38	40.34	-39.9	-40.4	21.7	0.00e+00	0	56	0	1971322880	42	3867
2026-01-02 13:00:43.04	247.83	40.40	-40.2	-40.8	21.4	0.00e+00	0	56	0	1976565760	42	4031
2026-01-02 13:00:44.03	248.28	40.46	-40.2	-40.7	21.5	0.00e+00	0	56	0	1981808640	42	3983
2026-01-02 13:00:45.01	248.73	40.52	-40.0	-40.6	21.6	0.00e+00	0	56	0	1987051520	42	3925
2026-01-02 13:00:46.00	249.19	40.58	-40.1	-40.6	21.5	0.00e+00	0	56	0	1993342976	42	3943
2026-01-02 13:00:46.99	249.65	40.63	-40.2	-40.7	21.5	0.00e+00	0	56	0	1998585856	42	3988
2026-01-02 13:00:47.98	250.11	40.69	-40.1	-40.6	21.6	0.00e+00	0	56	0	2003828736	42	3938
2026-01-02 13:00:48.98	250.58	40.74	-40.1	-40.6	21.5	0.00e+00	0	56	0	2010120192	42	3947
2026-01-02 13:00:49.98	251.05	40.79	-40.3	-40.8	21.3	0.00e+00	0	56	0	2015363072	42	4046
2026-01-02 13:00:50.97	251.51	40.84	-40.0	-40.6	21.6	0.00e+00	0	56	0	2020605952	42	3933
2026-01-02 13:00:51.95	251.97	40.89	-39.7	-40.2	21.9	0.00e+00	0	56	0	2026897408	42	3779
2026-01-02 13:00:52.94	252.44	40.93	-39.8	-40.3	21.9	0.00e+00	0	56	0	2032140288	42	3793
2026-01-02 13:00:53.93	252.91	40.97	-39.9	-40.5	21.7	0.00e+00	0	56	0	2037383168	42	3875
2026-01-02 13:00:54.91	253.37	41.01	-39.9	-40.5	21.7	0.00e+00	0	56	0	2042626048	42	3876
2026-01-02 13:00:55.90	253.84	41.05	-39.6	-40.2	22.0	0.00e+00	0	56	0	2048917504	42	3740
2026-01-02 13:00:56.89	254.31	41.09	-39.8	-40.3	21.9	0.00e+00	0	56	0	2054160384	42	3799
2026-01-02 13:00:57.88	254.79	41.12	-39.8	-40.4	21.8	0.00e+00	0	56	0	2059403264	42	3838
2026-01-02 13:00:58.86	255.26	41.15	-40.1	-40.7	21.5	0.00e+00	0	56	0	2065694720	42	3973
2026-01-02 13:00:59.85	255.73	41.18	-40.0	-40.5	21.6	0.00e+00	0	56	0	2070937600	42	3902
2026-01-02 13:01:00.84	256.21	41.21	-39.9	-40.4	21.8	0.00e+00	0	56	0	2076180480	42	3854
2026-01-02 13:01:01.83	256.68	41.24	-40.0	-40.5	21.7	0.00e+00	0	56	0	2081423360	42	3902
2026-01-02 13:01:02.82	257.16	41.26	-40.0	-40.6	21.6	0.00e+00	0	56	0	2087714816	42	3922
2026-01-02 13:01:03.81	257.64	41.28	-40.2	-40.7	21.5	0.00e+00	0	56	0	2092957696	42	3994
2026-01-02 13:01:04.80	258.11	41.30	-40.1	-40.7	21.5	0.00e+00	0	56	0	2099249152	42	3964
2026-01-02 13:01:05.79	258.59	41.32	-40.0	-40.5	21.6	0.00e+00	0	56	0	2104492032	42	3911
2026-01-02 13:01:06.77	259.07	41.33	-40.1	-40.6	21.6	0.00e+00	0	56	0	2109734912	42	3931
2026-01-02 13:01:07.76	259.55	41.34	-40.2	-40.8	21.4	0.00e+00	0	56	0	2114977792	42	4021
2026-01-02 13:01:08.75	260.03	41.35	-40.2	-40.7	21.5	0.00e+00	0	56	0	2121269248	42	3994
2026-01-02 13:01:09.74	260.51	41.36	-40.2	-40.7	21.5	0.00e+00	0	56	0	2126512128	42	3989
2026-01-02 13:01:10.73	260.99	41.37	-40.3	-40.8	21.3	0.00e+00	0	56	0	2131755008	42	4047
2026-01-02 13:01:11.72	261.47	41.37	-40.4	-40.9	21.3	0.00e+00	0	56	0	2138046464	42	4078
2026-01-02 13:01:12.71	261.95	41.37	-40.4	-41.0	21.2	0.00e+00	0	56	0	2143289344	42	4119
2026-01-02 13:01:13.71	262.43	41.37	-40.3	-40.9	21.3	0.00e+00	0	56	0	2148532224	42	4072
2026-01-02 13:01:14.69	262.91	41.37	-40.0	-40.5	21.6	0.00e+00	0	56	0	2154823680	42	3902
2026-01-02 13:01:15.68	263.39	41.36	-39.7	-40.2	21.9	0.00e+00	0	56	0	2160066560	42	3749
2026-01-02 13:01:16.67	263.87	41.36	-39.7	-40.2	21.9	0.00e+00	0	56	0	2165309440	42	3757
2026-01-02 13:01:17.66	264.35	41.35	-39.8	-40.4	21.8	0.00e+00	0	56	0	2170552320	42	3834
2026-01-02 13:01:18.65	264.83	41.33	-40.1	-40.7	21.6	0.00e+00	0	56	0	2176843776	42	3959
2026-01-02 13:01:19.64	265.31	41.32	-40.1	-40.6	21.6	0.00e+00	0	56	0	2182086656	42	3950
2026-01-02 13:01:20.62	265.78	41.30	-39.8	-40.4	21.8	0.00e+00	0	56	0	2187329536	42	3829
2026-01-02 13:01:21.62	266.26	41.29	-39.7	-40.2	21.9	0.00e+00	0	56	0	2193620992	42	3766
2026-01-02 13:01:22.61	266.74	41.26	-40.0	-40.6	21.6	0.00e+00	0	56	0	2198863872	42	3921
2026-01-02 13:01:23.60	267.22	41.24	-40.4	-41.0	21.2	0.00e+00	0	56	0	2204106752	42	4126
2026-01-02 13:01:24.58	267.69	41.22	-40.4	-41.0	21.2	0.00e+00	0	56	0	2210398208	42	4120
2026-01-02 13:01:25.58	268.17	41.19	-40.3	-40.8	21.4	0.00e+00	0	56	0	2215641088	42	4030
2026-01-02 13:01:26.57	268.64	41.16	-40.4	-40.9	21.3	0.00e+00	0	57	0	2220883968	42	4079
2026-01-02 13:01:27.56	269.12	41.13	-40.4	-41.0	21.2	0.00e+00	0	56	0	2227175424	42	4133
2026-01-02 13:01:28.54	269.59	41.10	-40.4	-41.0	21.3	0.00e+00	0	56	0	2232418304	42	4104
2026-01-02 13:01:29.53	270.06	41.06	-40.4	-41.0	21.2	0.00e+00	0	56	0	2237661184	42	4110
2026-01-02 13:01:30.52	270.53	41.02	-40.7	-41.3	20.9	0.00e+00	0	56	0	2242904064	43	4021
2026-01-02 13:01:31.52	271.00	40.98	-40.8	-41.4	20.8	0.00e+00	0	56	0	2249195520	43	4074
2026-01-02 13:01:32.50	271.47	40.94	-40.5	-41.1	21.1	0.00e+00	0	56	0	2254438400	43	3930
2026-01-02 13:01:33.50	271.94	40.90	-40.3	-40.9	21.3	0.00e+00	0	56	0	2260729856	43	3825
2026-01-02 13:01:34.49	272.40	40.85	-40.2	-40.7	21.5	0.00e+00	0	56	0	2265972736	43	3772
2026-01-02 13:01:35.47	272.86	40.80	-40.1	-40.7	21.5	0.00e+00	0	56	0	2271215616	43	3759
2026-01-02 13:01:36.46	273.33	40.75	-40.2	-40.7	21.5	0.00e+00	0	56	0	2276458496	43	3766
2026-01-02 13:01:37.44	273.78	40.70	-40.4	-41.0	21.2	0.00e+00	0	56	0	2282749952	43	3885
2026-01-02 13:01:38.43	274.24	40.65	-40.5	-41.1	21.1	0.00e+00	0	56	0	2287992832	43	3947
2026-01-02 13:01:39.42	274.70	40.59	-40.3	-40.8	21.4	0.00e+00	0	56	0	2293235712	43	3819
2026-01-02 13:01:40.41	275.16	40.54	-39.9	-40.5	21.7	0.00e+00	0	56	0	2299527168	43	3661
2026-01-02 13:01:41.40	275.62	40.48	-39.6	-40.2	22.0	0.00e+00	0	56	0	2304770048	42	3741
2026-01-02 13:01:42.39	276.07	40.42	-39.6	-40.1	22.0	0.00e+00	0	56	0	2310012928	42	3711
2026-01-02 13:01:43.38	276.52	40.35	-39.7	-40.2	22.0	0.00e+00	0	56	0	2315255808	42	3766
2026-01-02 13:01:44.38	276.98	40.29	-39.7	-40.2	21.9	0.00e+00	0	56	0	2321547264	42	3759
2026-01-02 13:01:45.36	277.42	40.22	-39.6	-40.1	22.1	0.00e+00	0	56	0	2326790144	42	3705
2026-01-02 13:01:46.35	277.87	40.15	-39.5	-40.0	22.1	0.00e+00	0	56	0	2332033024	42	3686
2026-01-02 13:01:47.34	278.31	40.08	-39.5	-40.0	22.1	0.00e+00	0	56	0	2338324480	42	3665
2026-01-02 13:01:48.32	278.75	40.01	-39.7	-40.2	21.9	0.00e+00	0	56	0	2343567360	42	3761
2026-01-02 13:01:49.31	279.19	39.94	-40.0	-40.5	21.6	0.00e+00	0	56	0	2348810240	42	3913
2026-01-02 13:01:50.30	279.63	39.86	-39.9	-40.5	21.7	0.00e+00	0	56	0	2355101696	42	3882
2026-01-02 13:01:51.29	280.07	39.78	-39.9	-40.4	21.8	0.00e+00	0	57	0	2360344576	42	3835
2026-01-02 13:01:52.28	280.50	39.70	-39.9	-40.4	21.7	0.00e+00	0	56	0	2365587456	42	3866
2026-01-02 13:01:53.27	280.93	39.62	-40.1	-40.6	21.5	0.00e+00	0	56	0	2370830336	42	3952
2026-01-02 13:01:54.26	281.36	39.54	-40.2	-40.7	21.5	0.00e+00	0	57	0	2377121792	42	3983
2026-01-02 13:01:55.25	281.79	39.46	-40.4	-41.0	21.2	0.00e+00	0	56	0	2382364672	42	4116
2026-01-02 13:01:56.24	282.22	39.37	-40.0	-40.6	21.6	0.00e+00	0	56	0	2388656128	42	3925
2026-01-02 13:01:57.23	282.64	39.29	-40.0	-40.5	21.7	0.00e+00	0	56	0	2393899008	42	3905
2026-01-02 13:01:58.22	283.06	39.20	-40.0	-40.6	21.6	0.00e+00	0	56	0	2399141888	42	3928
2026-01-02 13:01:59.21	283.48	39.11	-39.9	-40.4	21.8	0.00e+00	0	56	0	2404384768	42	3841
2026-01-02 13:02:00.20	283.90	39.02	-39.9	-40.5	21.7	0.00e+00	0	56	0	2410676224	42	3876
2026-01-02 13:02:01.19	284.32	38.92	-40.1	-40.6	21.6	0.00e+00	0	57	0	2415919104	42	3944
2026-01-02 13:02:02.18	284.73	38.83	-40.1	-40.7	21.5	0.00e+00	0	56	0	2421161984	42	3987
2026-01-02 13:02:03.17	285.14	38.74	-40.2	-40.7	21.5	0.00e+00	0	57	0	2427453440	42	4004
2026-01-02 13:02:04.16	285.55	38.64	-40.3	-40.9	21.3	0.00e+00	0	57	0	2432696320	42	4066
2026-01-02 13:02:05.16	285.95	38.54	-40.0	-40.5	21.6	0.00e+00	0	56	0	2437939200	42	3886
2026-01-02 13:02:06.15	286.36	38.44	-39.7	-40.2	21.9	0.00e+00	0	56	0	2444230656	42	3772
2026-01-02 13:02:07.14	286.76	38.34	-39.6	-40.1	22.0	0.00e+00	0	56	0	2449473536	42	3726
2026-01-02 13:02:08.13	287.16	38.24	-39.6	-40.1	22.0	0.00e+00	0	57	0	2454716416	42	3703
2026-01-02 13:02:09.12	287.55	38.14	-39.5	-40.1	22.1	0.00e+00	0	56	0	2459959296	42	3701
2026-01-02 13:02:10.10	287.94	38.03	-39.7	-40.3	21.9	0.00e+00	0	56	0	2466250752	42	3789
2026-01-02 13:02:11.09	288.33	37.93	-39.7	-40.3	21.9	0.00e+00	0	57	0	2471493632	42	3789
2026-01-02 13:02:12.08	288.72	37.82	-39.9	-40.5	21.7	0.00e+00	0	56	0	2476736512	42	3874
2026-01-02 13:02:13.08	289.11	37.71	-39.7	-40.3	21.9	0.00e+00	0	56	0	2483027968	42	3786
2026-01-02 13:02:14.06	289.49	37.61	-39.7	-40.2	22.0	0.00e+00	0	57	0	2488270848	42	3766
2026-01-02 13:02:15.05	289.87	37.50	-39.7	-40.2	21.9	0.00e+00	0	56	0	2493513728	42	3758
2026-01-02 13:02:16.05	290.25	37.38	-39.9	-40.4	21.7	0.00e+00	0	57	0	2499805184	42	3865
2026-01-02 13:02:17.03	290.62	37.27	-39.8	-40.3	21.8	0.00e+00	0	56	0	2505048064	42	3807
2026-01-02 13:02:18.01	290.99	37.16	-39.8	-40.3	21.8	0.00e+00	0	56	0	2510290944	42	3797
2026-01-02 13:02:19.01	291.36	37.05	-39.8	-40.3	21.9	0.00e+00	0	56	0	2516582400	42	3791
2026-01-02 13:02:19.99	291.73	36.94	-39.9	-40.4	21.7	0.00e+00	0	57	0	2521825280	42	3852
2026-01-02 13:02:20.98	292.09	36.82	-39.7	-40.2	21.9	0.00e+00	0	57	0	2527068160	42	3776
2026-01-02 13:02:21.97	292.45	36.70	-39.7	-40.3	21.9	0.00e+00	0	56	0	2532311040	42	3790
2026-01-02 13:02:22.95	292.81	36.59	-40.0	-40.5	21.6	0.00e+00	0	56	0	2538602496	42	3897
2026-01-02 13:02:23.94	293.17	36.47	-39.8	-40.3	21.8	0.00e+00	0	57	0	2543845376	42	3823
2026-01-02 13:02:24.93	293.52	36.35	-39.9	-40.5	21.7	0.00e+00	0	56	0	2549088256	42	3882
2026-01-02 13:02:25.91	293.87	36.23	-40.0	-40.6	21.6	0.00e+00	0	57	0	2555379712	42	3929
2026-01-02 13:02:26.90	294.22	36.11	-40.3	-40.8	21.3	0.00e+00	0	56	0	2560622592	42	4046
2026-01-02 13:02:27.90	294.57	35.99	-39.9	-40.4	21.7	0.00e+00	0	57	0	2565865472	42	3855
2026-01-02 13:02:28.88	294.92	35.87	-39.9	-40.5	21.7	0.00e+00	0	57	0	2571108352	42	3882
2026-01-02 13:02:29.86	295.25	35.75	-40.2	-40.7	21.4	0.00e+00	0	57	0	2577399808	42	4000
2026-01-02 13:02:30.85	295.59	35.63	-40.3	-40.9	21.3	0.00e+00	0	57	0	2582642688	42	4077
2026-01-02 13:02:31.83	295.93	35.51	-40.4	-40.9	21.2	0.00e+00	0	56	0	2587885568	42	4093
2026-01-02 13:02:32.81	296.26	35.39	-40.5	-41.1	21.1	0.00e+00	0	57	0	2594177024	42	4153
2026-01-02 13:02:33.81	296.60	35.26	-40.3	-40.9	21.3	0.00e+00	0	56	0	2599419904	42	4068
2026-01-02 13:02:34.80	296.93	35.13	-40.0	-40.5	21.6	0.00e+00	0	57	0	2604662784	42	3909
2026-01-02 13:02:35.79	297.25	35.01	-39.7	-40.3	21.9	0.00e+00	0	57	0	2610954240	42	3786
2026-01-02 13:02:36.77	297.57	34.88	-39.6	-40.1	22.0	0.00e+00	0	57	0	2616197120	42	3733
2026-01-02 13:02:37.76	297.90	34.76	-39.7	-40.2	22.0	0.00e+00	0	57	0	2621440000	42	3744
2026-01-02 13:02:38.74	298.21	34.63	-39.6	-40.1	22.0	0.00e+00	0	57	0	2627731456	42	3707
2026-01-02 13:02:39.73	298.53	34.51	-39.6	-40.1	22.0	0.00e+00	0	57	0	2632974336	42	3701
2026-01-02 13:02:40.72	298.85	34.38	-39.8	-40.3	21.8	0.00e+00	0	57	0	2638217216	42	3788
2026-01-02 13:02:41.71	299.16	34.25	-40.1	-40.6	21.5	0.00e+00	0	57	0	2643460096	42	3948
2026-01-02 13:02:42.70	299.47	34.12	-40.1	-40.7	21.4	0.00e+00	0	57	0	2649751552	42	3992
2026-01-02 13:02:43.69	299.78	33.99	-40.3	-40.8	21.3	0.00e+00	0	56	0	2654994432	42	4044
2026-01-02 13:02:44.68	300.08	33.86	-40.4	-41.0	21.1	0.00e+00	0	56	0	2660237312	42	4134
2026-01-02 13:02:45.67	300.39	33.73	-40.4	-40.9	21.2	0.00e+00	0	56	0	2666528768	42	4088
2026-01-02 13:02:46.66	300.69	33.60	-40.2	-40.8	21.4	0.00e+00	0	57	0	2671771648	42	4013
2026-01-02 13:02:47.63	300.98	33.48	-40.2	-40.8	21.4	0.00e+00	0	57	0	2677014528	42	4006
2026-01-02 13:02:48.62	301.27	33.35	-40.3	-40.8	21.3	0.00e+00	0	57	0	2682257408	42	4050
2026-01-02 13:02:49.60	301.57	33.22	-40.2	-40.8	21.4	0.00e+00	0	56	0	2688548864	42	4014
2026-01-02 13:02:50.58	301.85	33.09	-40.0	-40.6	21.6	0.00e+00	0	56	0	2693791744	42	3928
2026-01-02 13:02:51.57	302.14	32.95	-40.0	-40.6	21.6	0.00e+00	0	57	0	2699034624	42	3927
2026-01-02 13:02:52.57	302.43	32.82	-40.0	-40.6	21.6	0.00e+00	0	56	0	2705326080	42	3932
2026-01-02 13:02:53.56	302.72	32.69	-40.0	-40.6	21.6	0.00e+00	0	56	0	2710568960	42	3915
2026-01-02 13:02:54.54	303.00	32.56	-40.1	-40.6	21.5	0.00e+00	0	56	0	2715811840	42	3948
2026-01-02 13:02:55.52	303.27	32.43	-40.1	-40.6	21.5	0.00e+00	0	57	0	2721054720	42	3944
2026-01-02 13:02:56.51	303.55	32.30	-40.0	-40.5	21.6	0.00e+00	0	57	0	2727346176	42	3910
2026-01-02 13:02:57.49	303.82	32.17	-40.2	-40.7	21.4	0.00e+00	0	57	0	2732589056	42	3980
2026-01-02 13:02:58.49	304.10	32.03	-40.1	-40.7	21.4	0.00e+00	0	57	0	2737831936	42	3970
2026-01-02 13:02:59.49	304.38	31.90	-40.0	-40.5	21.6	0.00e+00	0	57	0	2744123392	42	3900
2026-01-02 13:03:00.46	304.64	31.77	-40.0	-40.6	21.6	0.00e+00	0	57	0	2749366272	42	3924
2026-01-02 13:03:01.44	304.90	31.64	-40.1	-40.7	21.4	0.00e+00	0	57	0	2754609152	42	3976
2026-01-02 13:03:02.43	305.17	31.51	-40.1	-40.7	21.4	0.00e+00	0	57	0	2759852032	42	3985
2026-01-02 13:03:03.42	305.43	31.37	-40.3	-40.9	21.2	0.00e+00	0	57	0	2766143488	42	4086
2026-01-02 13:03:04.41	305.69	31.24	-40.4	-41.0	21.1	0.00e+00	0	57	0	2771386368	42	4135
2026-01-02 13:03:05.40	305.95	31.11	-40.5	-41.0	21.1	0.00e+00	0	57	0	2777677824	42	4139
2026-01-02 13:03:06.39	306.21	30.97	-40.7	-41.3	20.9	0.00e+00	0	57	0	2782920704	43	4024
2026-01-02 13:03:07.38	306.46	30.84	-40.8	-41.4	20.7	0.00e+00	0	57	0	2788163584	43	4084
2026-01-02 13:03:08.37	306.71	30.71	-40.5	-41.1	21.0	0.00e+00	0	57	0	2793406464	43	3942
2026-01-02 13:03:09.35	306.96	30.58	-40.6	-41.1	21.0	0.00e+00	0	57	0	2799697920	43	3946
2026-01-02 13:03:10.34	307.21	30.44	-40.6	-41.2	21.0	0.00e+00	0	57	0	2804940800	43	3959
2026-01-02 13:03:11.33	307.46	30.31	-40.6	-41.2	21.0	0.00e+00	0	57	0	2810183680	43	3986
2026-01-02 13:03:12.32	307.70	30.18	-40.7	-41.3	20.8	0.00e+00	0	57	0	2816475136	43	4038
2026-01-02 13:03:13.31	307.94	30.05	-40.8	-41.3	20.8	0.00e+00	0	57	0	2821718016	43	4051
2026-01-02 13:03:14.29	308.18	29.92	-40.6	-41.2	21.0	0.00e+00	0	57	0	2826960896	43	3959
2026-01-02 13:03:15.28	308.42	29.78	-40.5	-41.0	21.1	0.00e+00	0	56	0	2832203776	43	3908
2026-01-02 13:03:16.27	308.66	29.65	-40.5	-41.0	21.1	0.00e+00	0	57	0	2838495232	43	3904
2026-01-02 13:03:17.26	308.89	29.52	-40.6	-41.2	20.9	0.00e+00	0	57	0	2843738112	43	3991
2026-01-02 13:03:18.25	309.12	29.39	-40.8	-41.4	20.8	0.00e+00	0	56	0	2848980992	43	4062
2026-01-02 13:03:19.24	309.36	29.25	-40.6	-41.1	21.0	0.00e+00	0	57	0	2855272448	43	3956
2026-01-02 13:03:20.24	309.59	29.12	-40.5	-41.1	21.1	0.00e+00	0	57	0	2860515328	43	3919
2026-01-02 13:03:21.23	309.81	28.99	-40.5	-41.0	21.1	0.00e+00	0	57	0	2865758208	43	3911
2026-01-02 13:03:22.22	310.04	28.86	-40.3	-40.9	21.3	0.00e+00	0	57	0	2872049664	43	3836
2026-01-02 13:03:23.20	310.26	28.73	-40.2	-40.8	21.3	0.00e+00	0	57	0	2877292544	43	3801
2026-01-02 13:03:24.19	310.48	28.60	-40.3	-40.8	21.3	0.00e+00	0	57	0	2882535424	43	3812
2026-01-02 13:03:25.18	310.70	28.47	-40.3	-40.8	21.3	0.00e+00	0	57	0	2887778304	43	3820
2026-01-02 13:03:26.17	310.92	28.33	-40.4	-41.0	21.1	0.00e+00	0	57	0	2894069760	43	3879
2026-01-02 13:03:27.17	311.14	28.20	-40.4	-40.9	21.2	0.00e+00	0	57	0	2899312640	43	3863
2026-01-02 13:03:28.15	311.35	28.07	-40.5	-41.1	21.1	0.00e+00	0	57	0	2905604096	43	3922
2026-01-02 13:03:29.14	311.57	27.94	-40.5	-41.1	21.0	0.00e+00	0	57	0	2910846976	43	3951
2026-01-02 13:03:30.12	311.78	27.81	-40.7	-41.3	20.8	0.00e+00	0	56	0	2916089856	43	4041
2026-01-02 13:03:31.10	311.98	27.69	-40.5	-41.0	21.1	0.00e+00	0	57	0	2921332736	43	3910
2026-01-02 13:03:32.10	312.19	27.56	-40.4	-40.9	21.2	0.00e+00	0	57	0	2927624192	43	3866
2026-01-02 13:03:33.09	312.40	27.43	-40.3	-40.9	21.2	0.00e+00	0	56	0	2932867072	43	3852
2026-01-02 13:03:34.08	312.61	27.30	-40.5	-41.0	21.1	0.00e+00	0	57	0	2938109952	43	3904
2026-01-02 13:03:35.07	312.81	27.17	-40.6	-41.2	20.9	0.00e+00	0	57	0	2944401408	43	3984
2026-01-02 13:03:36.06	313.01	27.04	-40.9	-41.5	20.6	0.00e+00	0	57	0	2949644288	43	4138
2026-01-02 13:03:37.04	313.21	26.91	-40.7	-41.3	20.8	0.00e+00	0	57	0	2954887168	43	4022
2026-01-02 13:03:38.03	313.41	26.78	-40.6	-41.2	21.0	0.00e+00	0	57	0	2960130048	43	3961
2026-01-02 13:03:39.02	313.60	26.66	-40.9	-41.5	20.7	0.00e+00	0	57	0	2966421504	43	4119
2026-01-02 13:03:40.01	313.80	26.53	-40.7	-41.4	20.8	0.00e+00	0	57	0	2971664384	43	4056
2026-01-02 13:03:41.00	313.99	26.40	-40.7	-41.3	20.9	0.00e+00	0	57	0	2976907264	43	4033
2026-01-02 13:03:41.99	314.19	26.27	-40.7	-41.3	20.8	0.00e+00	0	57	0	2983198720	43	4042
2026-01-02 13:03:42.98	314.38	26.15	-40.7	-41.3	20.8	0.00e+00	0	57	0	2988441600	43	4050
2026-01-02 13:03:43.97	314.57	26.02	-40.7	-41.3	20.9	0.00e+00	0	57	0	2993684480	43	4015
2026-01-02 13:03:44.96	314.76	25.89	-40.7	-41.3	20.8	0.00e+00	0	57	0	2999975936	43	4025
2026-01-02 13:03:45.95	314.94	25.77	-40.6	-41.1	21.0	0.00e+00	0	57	0	3005218816	43	3950
2026-01-02 13:03:46.94	315.13	25.64	-40.5	-41.1	21.0	0.00e+00	0	57	0	3010461696	43	3932
2026-01-02 13:03:47.93	315.31	25.52	-40.7	-41.2	20.9	0.00e+00	0	57	0	3015704576	43	3994
2026-01-02 13:03:48.92	315.49	25.39	-40.9	-41.5	20.6	0.00e+00	0	57	0	3021996032	43	4136
2026-01-02 13:03:49.92	315.68	25.26	-40.8	-41.4	20.7	0.00e+00	0	57	0	3027238912	43	4090
2026-01-02 13:03:50.91	315.86	25.14	-41.1	-41.7	20.4	0.00e+00	0	57	0	3033530368	43	4226
2026-01-02 13:03:51.90	316.03	25.02	-41.1	-41.8	20.5	0.00e+00	0	57	0	3038773248	44	4019
2026-01-02 13:03:52.89	316.21	24.89	-41.4	-42.1	20.2	0.00e+00	0	57	0	3044016128	44	4147
2026-01-02 13:03:53.87	316.38	24.77	-41.2	-41.9	20.4	0.00e+00	0	57	0	3049259008	44	4069
2026-01-02 13:03:54.86	316.56	24.65	-41.1	-41.8	20.5	0.00e+00	0	57	0	3055550464	44	4016
2026-01-02 13:03:55.85	316.73	24.52	-41.1	-41.7	20.5	0.00e+00	0	57	0	3060793344	44	3984
2026-01-02 13:03:56.84	316.90	24.40	-41.0	-41.7	20.6	0.00e+00	0	57	0	3066036224	44	3967
2026-01-02 13:03:57.84	317.08	24.28	-41.1	-41.8	20.5	0.00e+00	0	57	0	3072327680	44	4005
2026-01-02 13:03:58.83	317.24	24.15	-41.3	-41.9	20.3	0.00e+00	0	57	0	3077570560	44	4091
2026-01-02 13:03:59.82	317.41	24.03	-41.2	-41.8	20.5	0.00e+00	0	57	0	3082813440	44	4012
2026-01-02 13:04:00.81	317.58	23.91	-41.0	-41.6	20.6	0.00e+00	0	57	0	3089104896	44	3939
2026-01-02 13:04:01.80	317.74	23.79	-41.0	-41.6	20.6	0.00e+00	0	57	0	3094347776	44	3930
2026-01-02 13:04:02.79	317.91	23.67	-41.0	-41.6	20.6	0.00e+00	0	57	0	3099590656	44	3949
2026-01-02 13:04:03.77	318.07	23.55	-41.1	-41.8	20.5	0.00e+00	0	57	0	3105882112	44	4008
2026-01-02 13:04:04.76	318.23	23.43	-41.1	-41.7	20.5	0.00e+00	0	57	0	3111124992	44	3992
2026-01-02 13:04:05.75	318.39	23.31	-41.2	-41.8	20.4	0.00e+00	0	57	0	3116367872	44	4022
2026-01-02 13:04:06.74	318.55	23.19	-41.1	-41.8	20.5	0.00e+00	0	57	0	3122659328	44	4007
2026-01-02 13:04:07.73	318.71	23.07	-41.1	-41.7	20.5	0.00e+00	0	57	0	3127902208	44	3996
2026-01-02 13:04:08.73	318.87	22.95	-41.2	-41.8	20.4	0.00e+00	0	57	0	3133145088	44	4030
2026-01-02 13:04:09.72	319.02	22.83	-41.4	-42.1	20.2	0.00e+00	0	57	0	3138387968	44	4147
2026-01-02 13:04:10.71	319.18	22.71	-41.4	-42.0	20.2	0.00e+00	0	57	0	3144679424	44	4123
2026-01-02 13:04:11.71	319.33	22.60	-41.3	-41.9	20.3	0.00e+00	0	57	0	3149922304	44	4056
2026-01-02 13:04:12.69	319.48	22.48	-41.2	-41.9	20.4	0.00e+00	0	57	0	3156213760	44	4053
2026-01-02 13:04:13.68	319.63	22.36	-41.5	-42.1	20.1	0.00e+00	0	57	0	3161456640	44	4160
2026-01-02 13:04:14.67	319.78	22.25	-41.4	-42.0	20.2	0.00e+00	0	57	0	3166699520	44	4136
2026-01-02 13:04:15.66	319.93	22.13	-41.6	-42.2	20.0	0.00e+00	0	57	0	3171942400	44	4216
2026-01-02 13:04:16.65	320.08	22.01	-41.5	-42.2	20.1	0.00e+00	0	57	0	3178233856	45	3971
2026-01-02 13:04:17.64	320.23	21.90	-41.4	-42.1	20.2	0.00e+00	0	57	0	3183476736	45	3914
2026-01-02 13:04:18.63	320.37	21.78	-41.5	-42.1	20.1	0.00e+00	0	57	0	3188719616	45	3955
2026-01-02 13:04:19.62	320.52	21.67	-41.6	-42.2	20.0	0.00e+00	0	57	0	3195011072	45	4002
2026-01-02 13:04:20.61	320.66	21.55	-41.7	-42.3	19.9	0.00e+00	0	57	0	3200253952	45	4029
2026-01-02 13:04:21.60	320.80	21.44	-41.7	-42.4	19.8	0.00e+00	0	57	0	3205496832	45	4071
2026-01-02 13:04:22.59	320.94	21.32	-41.7	-42.4	19.9	0.00e+00	0	57	0	3211788288	45	4068
2026-01-02 13:04:23.58	321.09	21.21	-41.7	-42.3	19.9	0.00e+00	0	57	0	3217031168	45	4049
2026-01-02 13:04:24.58	321.23	21.10	-41.7	-42.3	19.9	0.00e+00	0	57	0	3222274048	45	4051
2026-01-02 13:04:25.57	321.37	20.98	-41.8	-42.5	19.8	0.00e+00	0	57	0	3227516928	45	4108
2026-01-02 13:04:26.56	321.50	20.87	-42.1	-42.8	19.4	0.00e+00	0	57	0	3233808384	46	4046
2026-01-02 13:04:27.56	321.64	20.76	-42.2	-42.9	19.4	0.00e+00	0	57	0	3239051264	46	4063
2026-01-02 13:04:28.54	321.78	20.65	-41.9	-42.6	19.6	0.00e+00	0	57	0	3245342720	46	3934
2026-01-02 13:04:29.53	321.91	20.53	-41.7	-42.4	19.8	0.00e+00	0	57	0	3250585600	46	3849
2026-01-02 13:04:30.51	322.04	20.42	-41.8	-42.4	19.8	0.00e+00	0	57	0	3255828480	46	3859
2026-01-02 13:04:31.51	322.18	20.31	-42.0	-42.6	19.6	0.00e+00	0	57	0	3261071360	46	3954
2026-01-02 13:04:32.50	322.31	20.20	-42.0	-42.7	19.5	0.00e+00	0	57	0	3267362816	46	3992
2026-01-02 13:04:33.48	322.44	20.09	-42.1	-42.8	19.5	0.00e+00	0	57	0	3272605696	46	4011
2026-01-02 13:04:34.47	322.57	19.98	-42.2	-42.9	19.4	0.00e+00	0	57	0	3277848576	46	4074
2026-01-02 13:04:35.46	322.70	19.87	-42.2	-42.9	19.3	0.00e+00	0	57	0	3284140032	46	4086
2026-01-02 13:04:36.46	322.83	19.76	-42.1	-42.8	19.4	0.00e+00	0	57	0	3289382912	46	4010
2026-01-02 13:04:37.44	322.95	19.66	-42.0	-42.7	19.5	0.00e+00	0	57	0	3294625792	46	3988
2026-01-02 13:04:38.43	323.08	19.55	-42.1	-42.7	19.5	0.00e+00	0	57	0	3299868672	46	3993
2026-01-02 13:04:39.42	323.21	19.44	-42.2	-42.9	19.4	0.00e+00	0	57	0	3306160128	46	4057
2026-01-02 13:04:40.40	323.33	19.33	-42.3	-43.0	19.2	0.00e+00	0	57	0	3311403008	46	4115
2026-01-02 13:04:41.38	323.45	19.23	-42.3	-43.0	19.3	0.00e+00	0	57	0	3316645888	46	4101
2026-01-02 13:04:42.37	323.58	19.12	-42.4	-43.1	19.1	0.00e+00	0	57	0	3322937344	46	4185
2026-01-02 13:04:43.36	323.70	19.01	-42.4	-43.1	19.1	0.00e+00	0	57	0	3328180224	46	4166
2026-01-02 13:04:44.35	323.82	18.91	-42.5	-43.3	19.0	0.00e+00	0	57	0	3333423104	47	4019
2026-01-02 13:04:45.34	323.94	18.80	-42.4	-43.2	19.1	0.00e+00	0	57	0	3339714560	47	3966
2026-01-02 13:04:46.33	324.06	18.69	-42.6	-43.4	18.8	0.00e+00	0	57	0	3344957440	47	4065
2026-01-02 13:04:47.32	324.18	18.59	-42.8	-43.5	18.7	0.00e+00	0	57	0	3350200320	47	4131
2026-01-02 13:04:48.30	324.30	18.48	-42.6	-43.4	18.8	0.00e+00	0	57	0	3355443200	47	4071
2026-01-02 13:04:49.29	324.42	18.38	-42.6	-43.3	18.9	0.00e+00	0	57	0	3361734656	47	4034
2026-01-02 13:04:50.29	324.53	18.27	-42.6	-43.3	18.9	0.00e+00	0	57	0	3366977536	47	4043
2026-01-02 13:04:51.28	324.65	18.17	-42.6	-43.3	18.9	0.00e+00	0	57	0	3372220416	47	4032
2026-01-02 13:04:52.26	324.76	18.07	-42.4	-43.1	19.1	0.00e+00	0	57	0	3378511872	47	3950
2026-01-02 13:04:53.25	324.88	17.96	-42.3	-43.1	19.2	0.00e+00	0	57	0	3383754752	47	3919
2026-01-02 13:04:54.25	324.99	17.86	-42.3	-43.0	19.2	0.00e+00	0	57	0	3388997632	47	3904
2026-01-02 13:04:55.23	325.11	17.76	-42.4	-43.1	19.1	0.00e+00	0	57	0	3395289088	47	3935
2026-01-02 13:04:56.22	325.22	17.65	-42.4	-43.1	19.1	0.00e+00	0	57	0	3400531968	47	3940
2026-01-02 13:04:57.21	325.33	17.55	-42.5	-43.3	18.9	0.00e+00	0	57	0	3405774848	47	4020
2026-01-02 13:04:58.20	325.44	17.45	-42.5	-43.3	18.9	0.00e+00	0	57	0	3412066304	47	4016
2026-01-02 13:04:59.20	325.55	17.35	-42.5	-43.3	18.9	0.00e+00	0	57	0	3417309184	47	4012
2026-01-02 13:05:00.19	325.66	17.25	-42.6	-43.4	18.8	0.00e+00	0	57	0	3422552064	47	4061
2026-01-02 13:05:01.17	325.77	17.15	-42.5	-43.3	18.9	0.00e+00	0	57	0	3427794944	47	4005
2026-01-02 13:05:02.16	325.88	17.05	-42.5	-43.3	18.9	0.00e+00	0	57	0	3434086400	47	4021
2026-01-02 13:05:03.15	325.99	16.95	-42.6	-43.3	18.8	0.00e+00	0	57	0	3439329280	47	4039
2026-01-02 13:05:04.14	326.09	16.85	-42.7	-43.5	18.7	0.00e+00	0	57	0	3445620736	47	4099
2026-01-02 13:05:05.13	326.20	16.75	-42.5	-43.2	18.9	0.00e+00	0	57	0	3450863616	47	3998
2026-01-02 13:05:06.12	326.30	16.65	-42.5	-43.2	19.0	0.00e+00	0	57	0	3456106496	47	3982
2026-01-02 13:05:07.11	326.41	16.55	-42.6	-43.3	18.8	0.00e+00	0	57	0	3461349376	47	4045
2026-01-02 13:05:08.10	326.51	16.45	-42.8	-43.6	18.6	0.00e+00	0	57	0	3467640832	47	4149
2026-01-02 13:05:09.09	326.62	16.35	-42.7	-43.4	18.8	0.00e+00	0	57	0	3472883712	47	4074
2026-01-02 13:05:10.08	326.72	16.25	-42.9	-43.7	18.5	0.00e+00	0	57	0	3478126592	47	4196
2026-01-02 13:05:11.07	326.82	16.16	-43.3	-44.1	18.3	0.00e+00	0	57	0	3484418048	48	4161
2026-01-02 13:05:12.07	326.92	16.06	-43.1	-43.9	18.4	0.00e+00	0	57	0	3489660928	48	4087
2026-01-02 13:05:13.06	327.03	15.96	-43.1	-43.9	18.5	0.00e+00	0	57	0	3494903808	48	4053
2026-01-02 13:05:14.05	327.13	15.86	-43.2	-44.0	18.4	0.00e+00	0	57	0	3501195264	48	4122
2026-01-02 13:05:15.04	327.23	15.77	-43.6	-44.4	18.0	0.00e+00	0	57	0	3506438144	48	4311
2026-01-02 13:05:16.03	327.32	15.67	-43.4	-44.2	18.2	0.00e+00	0	57	0	3511681024	48	4204
2026-01-02 13:05:17.02	327.42	15.58	-43.6	-44.5	17.8	0.00e+00	0	57	0	3516923904	49	4123
2026-01-02 13:05:18.01	327.52	15.48	-43.5	-44.3	18.0	0.00e+00	0	57	0	3523215360	49	4036
2026-01-02 13:05:19.00	327.62	15.39	-43.4	-44.2	18.1	0.00e+00	0	57	0	3528458240	49	3980
2026-01-02 13:05:19.99	327.72	15.29	-43.6	-44.4	17.9	0.00e+00	0	57	0	3534749696	49	4094
2026-01-02 13:05:20.97	327.81	15.20	-43.8	-44.8	17.6	0.00e+00	0	57	0	3539992576	49	4244
2026-01-02 13:05:21.96	327.91	15.10	-43.6	-44.5	17.9	0.00e+00	0	57	0	3545235456	49	4116
2026-01-02 13:05:22.95	328.00	15.01	-43.6	-44.4	17.9	0.00e+00	0	57	0	3550478336	49	4091
2026-01-02 13:05:23.94	328.10	14.91	-43.6	-44.5	17.9	0.00e+00	0	57	0	3556769792	49	4113
2026-01-02 13:05:24.93	328.19	14.82	-43.6	-44.5	17.9	0.00e+00	0	57	0	3562012672	49	4104
2026-01-02 13:05:25.92	328.28	14.73	-43.6	-44.5	17.8	0.00e+00	0	57	0	3567255552	49	4137
2026-01-02 13:05:26.91	328.38	14.64	-43.6	-44.5	17.9	0.00e+00	0	57	0	3573547008	49	4114
2026-01-02 13:05:27.91	328.47	14.54	-43.7	-44.6	17.7	0.00e+00	0	57	0	3578789888	49	4174
2026-01-02 13:05:28.90	328.56	14.45	-43.9	-44.8	17.5	0.00e+00	0	57	0	3584032768	49	4291
2026-01-02 13:05:29.88	328.65	14.36	-44.2	-45.1	17.3	0.00e+00	0	57	0	3589275648	50	4155
2026-01-02 13:05:30.87	328.74	14.27	-44.0	-44.9	17.4	0.00e+00	0	57	0	3595567104	50	4092
2026-01-02 13:05:31.86	328.83	14.18	-43.8	-44.7	17.6	0.00e+00	0	57	0	3600809984	50	3983
2026-01-02 13:05:32.85	328.92	14.08	-43.7	-44.6	17.7	0.00e+00	0	57	0	3606052864	50	3942
2026-01-02 13:05:33.85	329.01	13.99	-43.7	-44.6	17.7	0.00e+00	0	57	0	3612344320	50	3918
2026-01-02 13:05:34.83	329.10	13.90	-43.7	-44.5	17.8	0.00e+00	0	57	0	3617587200	50	3893
2026-01-02 13:05:35.82	329.19	13.81	-44.0	-44.9	17.4	0.00e+00	0	57	0	3622830080	50	4056
2026-01-02 13:05:36.81	329.27	13.72	-43.8	-44.7	17.6	0.00e+00	0	57	0	3629121536	50	3961
2026-01-02 13:05:37.80	329.36	13.63	-43.6	-44.4	17.8	0.00e+00	0	57	0	3634364416	50	3859
2026-01-02 13:05:38.78	329.45	13.54	-43.5	-44.3	18.0	0.00e+00	0	57	0	3639607296	50	3799
2026-01-02 13:05:39.77	329.53	13.45	-43.5	-44.3	18.0	0.00e+00	0	57	0	3644850176	50	3801
2026-01-02 13:05:40.76	329.62	13.37	-43.4	-44.3	18.0	0.00e+00	0	57	0	3651141632	50	3789
