passes_logs/2026/01/02/R3.0SM8_Murmansk_STILSPACE/R3.0SM8_Murmansk_STILSPACE__20260102_053500_NOAA_20_JPSS-1_rec.log

#Pass ID: 20260102_053500_NOAA 20 (JPSS-1)
#Satellite: NOAA 20 (JPSS-1)
#Configuration: NOAA 20
#almurnet v.1.7.20240730
#Start time: 2026-01-02 05:38:15

#Version: 2.2.20231116
#Station: R3.0SM8_Murmansk_STILSPACE
#Location: 33.092731 lon 68.902999 lat
#TLE: 1 43013U 17073A   26001.30344297  .00000183  00000+0  10758-3 0  9995
#TLE: 2 43013  98.7621 302.3885 0001938  59.1624 300.9742 14.19532032420790

#Time	Az	El	Level	Level2	SNR	BER	BlckErr	Temp	State	Recorded	gain1	gain2
2026-01-02 05:38:15.73	46.40	15.90	-54.5	-74.4	3.8	7.46e-01	0	56	0	0	71	37178
2026-01-02 05:38:16.71	46.24	15.97	-52.7	-66.5	3.8	1.49e+00	0	57	104	0	67	18391
2026-01-02 05:38:17.70	46.07	16.04	-52.7	-66.5	3.8	1.49e+00	0	57	104	0	67	18379
2026-01-02 05:38:18.69	45.90	16.11	-52.7	-66.5	3.8	1.49e+00	0	57	104	0	67	18363
2026-01-02 05:38:19.69	45.73	16.18	-52.6	-66.5	3.8	1.49e+00	0	57	104	0	67	18452
2026-01-02 05:38:20.68	45.56	16.25	-52.7	-66.5	3.8	1.49e+00	0	57	104	0	67	18417
2026-01-02 05:38:21.67	45.39	16.32	-52.6	-66.5	3.8	1.49e+00	0	57	104	0	67	18394
2026-01-02 05:38:22.67	45.22	16.39	-52.7	-66.5	3.8	1.49e+00	0	57	104	0	67	18412
2026-01-02 05:38:23.66	45.05	16.46	-52.7	-66.5	3.8	1.49e+00	0	57	104	0	67	18325
2026-01-02 05:38:24.65	44.88	16.53	-52.6	-66.5	3.8	1.49e+00	0	57	104	0	67	18344
2026-01-02 05:38:25.63	44.71	16.60	-52.6	-66.4	3.8	1.49e+00	0	57	104	0	67	18297
2026-01-02 05:38:26.62	44.53	16.67	-52.5	-66.5	3.8	1.49e+00	0	57	104	0	67	18316
2026-01-02 05:38:27.60	44.36	16.74	-52.5	-66.5	3.8	1.49e+00	0	57	104	0	67	18322
2026-01-02 05:38:28.59	44.18	16.81	-52.5	-66.4	3.8	1.49e+00	0	57	104	0	67	18238
2026-01-02 05:38:29.57	44.01	16.88	-52.6	-66.4	3.8	1.49e+00	0	57	104	0	67	18245
2026-01-02 05:38:30.56	43.83	16.95	-52.6	-66.4	3.8	1.49e+00	0	57	104	0	67	18197
2026-01-02 05:38:31.55	43.65	17.02	-52.5	-66.4	3.8	1.49e+00	0	57	104	0	67	18186
2026-01-02 05:38:32.55	43.47	17.09	-52.5	-66.4	3.8	1.49e+00	0	57	104	0	67	18157
2026-01-02 05:38:33.53	43.29	17.15	-52.5	-66.4	3.8	1.49e+00	0	57	104	0	67	18123
2026-01-02 05:38:34.52	43.11	17.22	-52.5	-66.3	3.8	1.49e+00	0	57	104	0	67	18090
2026-01-02 05:38:35.51	42.93	17.29	-52.5	-66.3	3.8	1.49e+00	0	57	104	0	67	18008
2026-01-02 05:38:36.50	42.75	17.36	-52.5	-66.3	3.8	1.49e+00	0	57	104	0	67	18005
2026-01-02 05:38:37.49	42.57	17.43	-52.5	-66.3	3.8	1.49e+00	0	57	104	0	67	17952
2026-01-02 05:38:38.47	42.38	17.50	-52.4	-66.3	3.8	1.49e+00	0	57	104	0	67	17903
2026-01-02 05:38:39.45	42.20	17.56	-52.4	-66.2	3.8	1.49e+00	0	57	104	0	67	17851
2026-01-02 05:38:40.44	42.02	17.63	-52.3	-66.1	3.8	1.49e+00	0	57	104	0	67	17627
2026-01-02 05:38:41.43	41.83	17.70	-52.2	-66.1	3.8	1.49e+00	0	57	104	0	67	17587
2026-01-02 05:38:42.43	41.64	17.77	-52.2	-66.1	3.8	1.49e+00	0	57	104	0	67	17619
2026-01-02 05:38:43.42	41.45	17.84	-52.3	-66.2	3.8	1.49e+00	0	57	104	0	67	17690
2026-01-02 05:38:44.41	41.26	17.91	-52.4	-66.2	3.8	1.49e+00	0	57	104	0	67	17691
2026-01-02 05:38:45.39	41.07	17.97	-52.4	-66.2	3.8	1.49e+00	0	57	104	0	67	17686
2026-01-02 05:38:46.38	40.88	18.04	-52.3	-66.1	3.8	1.49e+00	0	57	104	0	67	17608
2026-01-02 05:38:47.37	40.69	18.11	-52.2	-66.0	3.8	1.49e+00	0	57	104	0	67	17473
2026-01-02 05:38:48.36	40.50	18.17	-52.2	-65.9	3.8	1.49e+00	0	57	104	0	67	17276
2026-01-02 05:38:49.35	40.31	18.24	-52.2	-65.9	3.8	1.49e+00	0	57	104	0	67	17187
2026-01-02 05:38:50.34	40.11	18.31	-52.3	-65.9	3.8	1.49e+00	0	57	104	0	67	17205
2026-01-02 05:38:51.33	39.92	18.37	-52.2	-65.9	3.8	1.49e+00	0	57	104	0	67	17116
2026-01-02 05:38:52.31	39.72	18.44	-52.3	-65.9	3.8	1.49e+00	0	57	104	0	67	17154
2026-01-02 05:38:53.31	39.52	18.51	-52.2	-65.9	3.8	1.49e+00	0	57	104	0	67	17176
2026-01-02 05:38:54.30	39.33	18.57	-52.3	-66.0	3.8	1.49e+00	0	57	104	0	67	17296
2026-01-02 05:38:55.30	39.12	18.64	-52.3	-66.0	3.8	1.49e+00	0	57	104	0	67	17333
2026-01-02 05:38:56.28	38.93	18.70	-52.2	-66.0	3.8	1.49e+00	0	57	104	0	67	17285
2026-01-02 05:38:57.28	38.72	18.77	-52.3	-65.9	3.8	1.49e+00	0	57	104	0	67	17130
2026-01-02 05:38:58.27	38.52	18.84	-52.2	-65.7	3.8	1.49e+00	0	57	104	0	67	16872
2026-01-02 05:38:59.26	38.32	18.90	-52.2	-65.4	3.8	1.49e+00	0	57	104	0	67	16148
2026-01-02 05:39:00.26	38.12	18.97	-52.2	-65.1	3.8	1.49e+00	0	57	104	0	67	15653
2026-01-02 05:39:01.25	37.91	19.03	-52.2	-65.3	3.8	1.49e+00	0	57	104	0	67	15960
2026-01-02 05:39:02.24	37.71	19.10	-52.3	-65.7	3.8	1.49e+00	0	57	104	0	67	16708
2026-01-02 05:39:03.23	37.50	19.16	-52.4	-65.7	3.8	1.49e+00	0	57	104	0	67	16701
2026-01-02 05:39:04.22	37.30	19.22	-52.3	-64.6	3.8	1.49e+00	0	57	104	0	67	14870
2026-01-02 05:39:05.20	37.09	19.29	-52.0	-62.5	4.2	1.46e+00	0	57	104	0	67	11670
2026-01-02 05:39:06.20	36.88	19.35	-51.8	-59.8	5.5	8.18e-01	0	57	0	1048576	66	9017
2026-01-02 05:39:07.19	36.67	19.42	-51.1	-57.1	7.8	2.48e-01	0	57	0	3145728	65	6973
2026-01-02 05:39:08.18	36.46	19.48	-50.5	-54.8	10.2	1.24e-02	0	57	0	5242880	63	6025
2026-01-02 05:39:09.17	36.25	19.54	-49.8	-53.3	11.8	1.12e-03	0	57	0	6291456	62	5355
2026-01-02 05:39:10.16	36.04	19.60	-49.4	-52.5	12.7	1.37e-04	0	57	0	8388608	61	5177
2026-01-02 05:39:11.15	35.82	19.67	-49.4	-52.5	12.5	8.16e-05	0	57	0	10485760	61	5218
2026-01-02 05:39:12.14	35.61	19.73	-49.5	-52.7	12.4	1.52e-04	0	57	0	12582912	61	5297
2026-01-02 05:39:13.13	35.40	19.79	-49.4	-52.5	12.7	8.39e-05	0	57	0	13631488	61	5176
2026-01-02 05:39:14.12	35.18	19.85	-49.3	-52.4	12.8	6.10e-05	0	57	0	15728640	61	5103
2026-01-02 05:39:15.11	34.97	19.91	-49.2	-52.2	13.0	4.73e-05	0	57	0	17825792	61	5019
2026-01-02 05:39:16.10	34.75	19.97	-49.3	-52.3	12.9	4.65e-05	0	57	0	19922944	61	5046
2026-01-02 05:39:17.08	34.53	20.03	-49.1	-52.2	13.0	3.66e-05	0	57	0	22020096	61	5004
2026-01-02 05:39:18.07	34.31	20.10	-49.8	-53.2	11.9	1.35e-04	0	57	0	23068672	61	5619
2026-01-02 05:39:19.06	34.09	20.16	-49.3	-52.2	13.0	1.65e-04	0	57	0	25165824	61	5020
2026-01-02 05:39:20.05	33.87	20.22	-48.8	-51.3	13.8	9.10e-06	0	57	0	27262976	60	4813
2026-01-02 05:39:21.03	33.65	20.27	-48.4	-50.7	14.6	1.50e-06	0	57	0	29360128	59	4708
2026-01-02 05:39:22.02	33.43	20.33	-47.9	-50.0	15.2	0.00e+00	0	57	0	30408704	59	4366
2026-01-02 05:39:23.01	33.21	20.39	-47.5	-49.5	15.7	0.00e+00	0	57	0	32505856	58	4348
2026-01-02 05:39:24.00	32.99	20.45	-47.3	-49.1	16.1	0.00e+00	0	57	0	34603008	57	4400
2026-01-02 05:39:24.99	32.76	20.51	-47.0	-48.8	16.4	0.00e+00	0	57	0	36700160	57	4262
2026-01-02 05:39:25.98	32.53	20.57	-46.9	-48.5	16.7	0.00e+00	0	57	0	37748736	56	4386
2026-01-02 05:39:26.97	32.31	20.63	-46.8	-48.3	16.9	0.00e+00	0	57	0	39845888	56	4283
2026-01-02 05:39:27.96	32.08	20.68	-46.8	-48.4	16.7	0.00e+00	0	57	0	41943040	56	4320
2026-01-02 05:39:28.94	31.85	20.74	-46.8	-48.4	16.8	0.00e+00	0	57	0	44040192	56	4305
2026-01-02 05:39:29.94	31.62	20.80	-46.8	-48.4	16.8	0.00e+00	0	57	0	45088768	56	4319
2026-01-02 05:39:30.92	31.40	20.85	-46.8	-48.4	16.8	0.00e+00	0	57	0	47185920	56	4293
2026-01-02 05:39:31.92	31.16	20.91	-46.8	-48.5	16.7	0.00e+00	0	57	0	49283072	56	4362
2026-01-02 05:39:32.91	30.93	20.96	-46.8	-48.4	16.7	0.00e+00	0	57	0	51380224	56	4322
2026-01-02 05:39:33.90	30.70	21.02	-46.8	-48.4	16.8	0.00e+00	0	57	0	53477376	56	4317
2026-01-02 05:39:34.89	30.46	21.07	-47.0	-48.6	16.6	0.00e+00	0	57	0	54525952	56	4438
2026-01-02 05:39:35.87	30.23	21.13	-47.2	-48.9	16.3	0.00e+00	0	57	0	56623104	56	4594
2026-01-02 05:39:36.86	30.00	21.18	-47.0	-48.7	16.4	0.00e+00	0	57	0	58720256	56	4488
2026-01-02 05:39:37.85	29.76	21.23	-46.8	-48.4	16.7	0.00e+00	0	57	0	60817408	56	4319
2026-01-02 05:39:38.84	29.53	21.29	-46.6	-48.1	17.1	0.00e+00	0	57	0	61865984	56	4187
2026-01-02 05:39:39.84	29.29	21.34	-46.2	-47.7	17.4	0.00e+00	0	57	0	63963136	55	4208
2026-01-02 05:39:40.82	29.05	21.39	-46.1	-47.5	17.5	0.00e+00	0	57	0	66060288	55	4132
2026-01-02 05:39:41.81	28.81	21.44	-46.1	-47.6	17.5	0.00e+00	0	57	0	68157440	55	4154
2026-01-02 05:39:42.80	28.57	21.50	-46.1	-47.5	17.6	0.00e+00	0	57	0	69206016	55	4134
2026-01-02 05:39:43.78	28.33	21.55	-46.1	-47.5	17.6	0.00e+00	0	57	0	71303168	55	4127
2026-01-02 05:39:44.78	28.09	21.60	-46.2	-47.6	17.5	0.00e+00	0	57	0	73400320	55	4175
2026-01-02 05:39:45.77	27.85	21.65	-46.4	-47.9	17.2	0.00e+00	0	57	0	75497472	55	4324
2026-01-02 05:39:46.76	27.60	21.70	-46.3	-47.8	17.3	0.00e+00	0	57	0	77594624	55	4256
2026-01-02 05:39:47.74	27.36	21.75	-46.1	-47.6	17.5	0.00e+00	0	57	0	78643200	55	4146
2026-01-02 05:39:48.74	27.12	21.79	-46.2	-47.6	17.5	0.00e+00	0	57	0	80740352	55	4156
2026-01-02 05:39:49.73	26.87	21.84	-46.2	-47.6	17.4	0.00e+00	0	57	0	82837504	55	4188
2026-01-02 05:39:50.72	26.62	21.89	-46.3	-47.8	17.4	0.00e+00	0	57	0	84934656	55	4257
2026-01-02 05:39:51.71	26.38	21.94	-46.2	-47.6	17.5	0.00e+00	0	57	0	85983232	55	4164
2026-01-02 05:39:52.69	26.13	21.98	-46.0	-47.4	17.8	0.00e+00	0	57	0	88080384	55	4053
2026-01-02 05:39:53.68	25.88	22.03	-45.9	-47.3	17.9	0.00e+00	0	57	0	90177536	54	4247
2026-01-02 05:39:54.67	25.63	22.08	-46.0	-47.4	17.8	0.00e+00	0	57	0	92274688	54	4293
2026-01-02 05:39:55.66	25.38	22.12	-46.0	-47.4	17.7	0.00e+00	0	57	0	93323264	54	4305
2026-01-02 05:39:56.65	25.13	22.17	-46.0	-47.4	17.7	0.00e+00	0	57	0	95420416	54	4300
2026-01-02 05:39:57.64	24.88	22.21	-46.0	-47.4	17.7	0.00e+00	0	57	0	97517568	54	4309
2026-01-02 05:39:58.63	24.63	22.25	-46.1	-47.6	17.6	0.00e+00	0	57	0	99614720	54	4397
2026-01-02 05:39:59.62	24.38	22.30	-46.3	-47.7	17.4	0.00e+00	0	57	0	101711872	54	4467
2026-01-02 05:40:00.61	24.12	22.34	-46.1	-47.6	17.5	0.00e+00	0	57	0	102760448	54	4414
2026-01-02 05:40:01.60	23.87	22.38	-46.1	-47.5	17.6	0.00e+00	0	57	0	104857600	54	4359
2026-01-02 05:40:02.59	23.61	22.42	-46.1	-47.5	17.6	0.00e+00	0	57	0	106954752	54	4362
2026-01-02 05:40:03.59	23.36	22.47	-46.2	-47.8	17.3	0.00e+00	0	57	0	109051904	54	4504
2026-01-02 05:40:04.58	23.10	22.51	-46.2	-47.7	17.4	0.00e+00	0	57	0	110100480	54	4443
2026-01-02 05:40:05.57	22.84	22.55	-46.2	-47.6	17.5	0.00e+00	0	57	0	112197632	54	4430
2026-01-02 05:40:06.56	22.59	22.59	-46.2	-47.6	17.5	0.00e+00	0	57	0	114294784	54	4410
2026-01-02 05:40:07.55	22.33	22.63	-46.3	-47.7	17.3	0.00e+00	0	57	0	116391936	54	4493
2026-01-02 05:40:08.53	22.07	22.66	-46.3	-47.8	17.4	0.00e+00	0	57	0	118489088	54	4499
2026-01-02 05:40:09.52	21.81	22.70	-46.2	-47.7	17.4	0.00e+00	0	57	0	119537664	54	4463
2026-01-02 05:40:10.50	21.55	22.74	-46.3	-47.7	17.4	0.00e+00	0	57	0	121634816	54	4486
2026-01-02 05:40:11.50	21.29	22.77	-46.4	-47.9	17.1	0.00e+00	0	57	0	123731968	54	4572
2026-01-02 05:40:12.50	21.03	22.81	-46.4	-47.8	17.3	0.00e+00	0	57	0	125829120	54	4531
2026-01-02 05:40:13.49	20.76	22.85	-46.4	-47.9	17.3	0.00e+00	0	57	0	126877696	54	4552
2026-01-02 05:40:14.48	20.50	22.88	-46.5	-48.1	17.1	0.00e+00	0	57	0	128974848	54	4655
2026-01-02 05:40:15.46	20.24	22.92	-46.6	-48.2	16.9	0.00e+00	0	57	0	131072000	55	4488
2026-01-02 05:40:16.46	19.97	22.95	-46.8	-48.5	16.6	0.00e+00	0	57	0	133169152	55	4603
2026-01-02 05:40:17.45	19.71	22.98	-46.9	-48.6	16.6	0.00e+00	0	57	0	134217728	55	4654
2026-01-02 05:40:18.44	19.45	23.01	-47.0	-48.7	16.4	0.00e+00	0	57	0	136314880	55	4742
2026-01-02 05:40:19.43	19.18	23.05	-47.2	-48.9	16.3	0.00e+00	0	57	0	138412032	56	4557
2026-01-02 05:40:20.41	18.92	23.08	-47.3	-49.1	16.1	0.00e+00	0	57	0	140509184	56	4675
2026-01-02 05:40:21.40	18.65	23.11	-47.4	-49.3	15.9	0.00e+00	0	57	0	141557760	56	4786
2026-01-02 05:40:22.40	18.38	23.14	-47.3	-49.1	16.1	0.00e+00	0	57	0	143654912	56	4698
2026-01-02 05:40:23.38	18.12	23.17	-47.5	-49.4	15.8	0.00e+00	0	57	0	145752064	56	4842
2026-01-02 05:40:24.36	17.85	23.19	-47.6	-49.5	15.7	0.00e+00	0	57	0	147849216	57	4640
2026-01-02 05:40:25.34	17.58	23.22	-47.5	-49.4	15.8	0.00e+00	0	57	0	149946368	57	4558
2026-01-02 05:40:26.33	17.32	23.25	-47.6	-49.5	15.7	0.00e+00	0	57	0	150994944	57	4622
2026-01-02 05:40:27.33	17.04	23.28	-47.5	-49.4	15.8	0.00e+00	0	57	0	153092096	57	4581
2026-01-02 05:40:28.31	16.78	23.30	-47.7	-49.7	15.5	0.00e+00	0	57	0	155189248	57	4722
2026-01-02 05:40:29.30	16.51	23.33	-47.9	-49.9	15.3	0.00e+00	0	57	0	157286400	57	4826
2026-01-02 05:40:30.29	16.24	23.35	-47.7	-49.7	15.5	0.00e+00	0	57	0	158334976	57	4727
2026-01-02 05:40:31.27	15.97	23.38	-47.7	-49.7	15.5	0.00e+00	0	57	0	160432128	57	4719
2026-01-02 05:40:32.26	15.70	23.40	-47.8	-49.9	15.4	0.00e+00	0	57	0	162529280	57	4815
2026-01-02 05:40:33.26	15.42	23.42	-48.0	-50.1	15.0	0.00e+00	0	57	0	164626432	57	4981
2026-01-02 05:40:34.24	15.15	23.44	-48.0	-50.1	15.1	0.00e+00	0	57	0	165675008	57	4954
2026-01-02 05:40:35.23	14.88	23.47	-48.2	-50.3	14.9	7.00e-07	0	57	0	167772160	58	4808
2026-01-02 05:40:36.21	14.61	23.49	-48.1	-50.3	14.9	0.00e+00	0	57	0	169869312	58	4779
2026-01-02 05:40:37.20	14.33	23.51	-48.2	-50.4	14.8	0.00e+00	0	57	0	171966464	58	4864
2026-01-02 05:40:38.19	14.06	23.52	-48.1	-50.2	15.0	0.00e+00	0	57	0	174063616	58	4751
2026-01-02 05:40:39.18	13.79	23.54	-48.0	-50.2	15.0	0.00e+00	0	57	0	175112192	58	4709
2026-01-02 05:40:40.16	13.51	23.56	-48.1	-50.2	14.9	0.00e+00	0	57	0	177209344	58	4726
2026-01-02 05:40:41.15	13.24	23.58	-48.2	-50.5	14.6	0.00e+00	0	57	0	179306496	58	4890
2026-01-02 05:40:42.15	12.96	23.59	-48.2	-50.5	14.7	0.00e+00	0	57	0	181403648	58	4881
2026-01-02 05:40:43.13	12.69	23.61	-48.3	-50.7	14.5	0.00e+00	0	57	0	182452224	58	5005
2026-01-02 05:40:44.12	12.41	23.63	-48.3	-50.6	14.4	1.50e-06	0	57	0	184549376	58	4978
2026-01-02 05:40:45.11	12.14	23.64	-48.0	-50.1	14.9	0.00e+00	0	57	0	186646528	58	4695
2026-01-02 05:40:46.10	11.86	23.65	-47.7	-49.8	15.3	7.00e-07	0	57	0	188743680	58	4497
2026-01-02 05:40:47.09	11.59	23.67	-47.6	-49.6	15.5	0.00e+00	0	57	0	189792256	58	4397
2026-01-02 05:40:48.08	11.31	23.68	-47.7	-49.7	15.4	0.00e+00	0	57	0	191889408	58	4453
2026-01-02 05:40:49.08	11.03	23.69	-47.7	-49.8	15.1	0.00e+00	0	57	0	193986560	58	4540
2026-01-02 05:40:50.06	10.75	23.70	-47.9	-50.1	14.7	7.00e-07	0	57	0	196083712	58	4700
2026-01-02 05:40:51.04	10.48	23.71	-47.8	-50.0	14.7	0.00e+00	0	57	0	198180864	58	4615
2026-01-02 05:40:52.03	10.20	23.72	-47.7	-50.1	14.4	1.50e-06	0	57	0	199229440	58	4662
2026-01-02 05:40:53.02	9.93	23.73	-47.9	-50.4	13.9	7.00e-07	0	57	0	201326592	58	4838
2026-01-02 05:40:54.01	9.65	23.74	-48.1	-50.9	13.3	1.37e-05	0	57	0	203423744	58	5116
2026-01-02 05:40:54.99	9.37	23.74	-48.4	-51.5	12.4	5.34e-05	0	57	0	205520896	58	5523
2026-01-02 05:40:55.98	9.09	23.75	-48.8	-52.3	11.6	3.13e-04	0	57	0	206569472	59	5697
2026-01-02 05:40:56.97	8.82	23.76	-49.0	-52.9	10.9	9.86e-04	0	57	0	208666624	59	6100
2026-01-02 05:40:57.95	8.54	23.76	-49.1	-53.1	10.7	2.61e-03	0	57	0	210763776	60	5911
2026-01-02 05:40:58.95	8.26	23.76	-49.1	-53.3	10.4	4.09e-03	0	57	0	212860928	60	6021
2026-01-02 05:40:59.94	7.98	23.77	-49.1	-53.3	10.5	3.49e-03	0	57	0	213909504	60	6009
2026-01-02 05:41:00.93	7.70	23.77	-49.3	-53.6	10.3	4.50e-03	0	57	0	216006656	60	6219
2026-01-02 05:41:01.92	7.43	23.77	-49.1	-53.3	10.4	4.22e-03	0	57	0	218103808	60	6037
2026-01-02 05:41:02.90	7.15	23.77	-49.2	-53.5	10.2	5.66e-03	0	57	0	220200960	60	6156
2026-01-02 05:41:03.89	6.87	23.77	-49.0	-52.9	10.9	4.14e-03	0	57	0	221249536	60	5787
2026-01-02 05:41:04.88	6.59	23.77	-48.8	-52.4	11.6	1.08e-03	0	57	0	223346688	59	5723
2026-01-02 05:41:05.87	6.31	23.77	-48.4	-51.5	12.6	2.28e-04	0	57	0	225443840	59	5183
2026-01-02 05:41:06.86	6.04	23.77	-48.2	-50.9	13.4	3.81e-05	0	57	0	227540992	58	5126
2026-01-02 05:41:07.85	5.76	23.77	-48.0	-50.5	13.8	1.22e-05	0	57	0	229638144	58	4895
2026-01-02 05:41:08.85	5.48	23.77	-48.1	-50.8	13.6	3.80e-06	0	57	0	230686720	58	5054
2026-01-02 05:41:09.84	5.20	23.76	-48.2	-51.1	13.1	1.90e-05	0	57	0	232783872	58	5224
2026-01-02 05:41:10.82	4.92	23.76	-49.0	-52.7	11.4	1.55e-04	0	57	0	234881024	59	5940
2026-01-02 05:41:11.81	4.65	23.75	-49.4	-54.1	9.6	3.28e-03	0	57	0	236978176	60	6583
2026-01-02 05:41:12.79	4.37	23.75	-49.9	-55.7	7.9	4.64e-02	0	57	0	238026752	61	7512
2026-01-02 05:41:13.78	4.09	23.74	-49.9	-55.8	7.8	9.24e-02	0	57	0	240123904	61	7596
2026-01-02 05:41:14.77	3.81	23.73	-49.7	-54.6	9.2	5.11e-02	0	57	0	242221056	61	6604
2026-01-02 05:41:15.75	3.54	23.72	-49.0	-52.8	11.2	2.93e-03	0	57	0	244318208	61	5396
2026-01-02 05:41:16.74	3.26	23.71	-48.6	-51.6	12.8	1.59e-04	0	57	0	245366784	60	4980
2026-01-02 05:41:17.73	2.99	23.70	-48.4	-51.0	13.8	1.44e-05	0	57	0	247463936	59	4899
2026-01-02 05:41:18.71	2.71	23.69	-48.1	-50.5	14.5	1.50e-06	0	57	0	249561088	59	4606
2026-01-02 05:41:19.70	2.43	23.68	-48.3	-50.6	14.6	7.00e-07	0	57	0	251658240	59	4662
2026-01-02 05:41:20.69	2.16	23.67	-48.0	-50.2	14.9	7.00e-07	0	57	0	253755392	59	4467
2026-01-02 05:41:21.67	1.88	23.66	-47.5	-49.4	15.7	0.00e+00	0	57	0	254803968	58	4314
2026-01-02 05:41:22.66	1.61	23.65	-47.0	-48.7	16.4	0.00e+00	0	57	0	256901120	57	4227
2026-01-02 05:41:23.64	1.33	23.63	-46.7	-48.3	16.8	0.00e+00	0	57	0	258998272	56	4289
2026-01-02 05:41:24.63	1.06	23.62	-46.6	-48.2	17.0	0.00e+00	0	57	0	261095424	56	4196
2026-01-02 05:41:25.62	0.78	23.60	-46.6	-48.1	17.0	0.00e+00	0	57	0	262144000	56	4190
2026-01-02 05:41:26.61	0.51	23.59	-46.5	-48.0	17.1	0.00e+00	0	57	0	264241152	56	4137
2026-01-02 05:41:27.60	0.23	23.57	-46.2	-47.7	17.4	0.00e+00	0	57	0	266338304	55	4209
2026-01-02 05:41:28.58	359.96	23.55	-45.9	-47.3	17.7	0.00e+00	0	57	0	268435456	55	4015
2026-01-02 05:41:29.57	359.69	23.53	-45.7	-47.0	18.0	0.00e+00	0	57	0	269484032	54	4136
2026-01-02 05:41:30.55	359.42	23.52	-45.7	-47.0	18.0	0.00e+00	0	57	0	271581184	54	4138
2026-01-02 05:41:31.54	359.14	23.50	-45.7	-47.0	18.0	0.00e+00	0	57	0	273678336	54	4117
2026-01-02 05:41:32.53	358.87	23.48	-45.7	-47.0	18.1	0.00e+00	0	57	0	275775488	54	4115
2026-01-02 05:41:33.52	358.60	23.45	-45.6	-46.9	18.2	0.00e+00	0	57	0	276824064	54	4062
2026-01-02 05:41:34.51	358.32	23.43	-45.4	-46.7	18.3	0.00e+00	0	57	0	278921216	54	3975
2026-01-02 05:41:35.50	358.05	23.41	-45.4	-46.6	18.4	0.00e+00	0	57	0	281018368	53	4175
2026-01-02 05:41:36.49	357.78	23.39	-45.4	-46.6	18.4	0.00e+00	0	57	0	283115520	53	4150
2026-01-02 05:41:37.49	357.51	23.36	-45.3	-46.6	18.4	0.00e+00	0	57	0	285212672	53	4151
2026-01-02 05:41:38.48	357.23	23.34	-45.5	-46.7	18.3	0.00e+00	0	57	0	286261248	53	4238
2026-01-02 05:41:39.46	356.97	23.31	-45.6	-46.9	18.1	0.00e+00	0	57	0	288358400	53	4298
2026-01-02 05:41:40.46	356.69	23.29	-45.6	-46.9	18.2	0.00e+00	0	57	0	290455552	53	4296
2026-01-02 05:41:41.44	356.43	23.26	-45.7	-47.0	18.0	0.00e+00	0	57	0	292552704	53	4362
2026-01-02 05:41:42.43	356.16	23.24	-45.8	-47.1	17.9	0.00e+00	0	57	0	293601280	53	4439
2026-01-02 05:41:43.42	355.89	23.21	-45.9	-47.3	17.7	0.00e+00	0	57	0	295698432	53	4518
2026-01-02 05:41:44.41	355.62	23.18	-45.8	-47.3	17.8	0.00e+00	0	57	0	297795584	53	4497
2026-01-02 05:41:45.40	355.35	23.15	-45.9	-47.3	17.7	0.00e+00	0	57	0	299892736	53	4527
2026-01-02 05:41:46.39	355.09	23.12	-46.0	-47.5	17.6	0.00e+00	0	57	0	300941312	53	4606
2026-01-02 05:41:47.38	354.82	23.09	-46.1	-47.6	17.5	0.00e+00	0	57	0	303038464	54	4398
2026-01-02 05:41:48.37	354.55	23.06	-46.1	-47.6	17.4	0.00e+00	0	57	0	305135616	54	4417
2026-01-02 05:41:49.37	354.29	23.03	-46.3	-47.8	17.2	0.00e+00	0	57	0	307232768	54	4545
2026-01-02 05:41:50.36	354.02	23.00	-46.4	-48.0	17.1	0.00e+00	0	57	0	309329920	54	4604
2026-01-02 05:41:51.34	353.76	22.96	-46.4	-48.0	17.1	0.00e+00	0	57	0	310378496	54	4603
2026-01-02 05:41:52.33	353.49	22.93	-46.5	-48.0	17.0	0.00e+00	0	57	0	312475648	54	4631
2026-01-02 05:41:53.31	353.23	22.90	-46.6	-48.3	16.8	0.00e+00	0	57	0	314572800	55	4507
2026-01-02 05:41:54.30	352.97	22.86	-46.7	-48.2	16.8	0.00e+00	0	57	0	316669952	55	4492
2026-01-02 05:41:55.29	352.71	22.83	-46.8	-48.4	16.6	0.00e+00	0	57	0	317718528	55	4585
2026-01-02 05:41:56.27	352.45	22.79	-46.8	-48.4	16.6	0.00e+00	0	57	0	319815680	55	4577
2026-01-02 05:41:57.26	352.19	22.76	-47.0	-48.6	16.4	0.00e+00	0	57	0	321912832	55	4703
2026-01-02 05:41:58.26	351.93	22.72	-46.9	-48.6	16.5	0.00e+00	0	57	0	324009984	55	4662
2026-01-02 05:41:59.24	351.67	22.68	-47.0	-48.8	16.2	0.00e+00	0	57	0	325058560	55	4775
2026-01-02 05:42:00.23	351.41	22.64	-47.2	-49.0	16.1	0.00e+00	0	57	0	327155712	56	4637
2026-01-02 05:42:01.23	351.15	22.60	-47.2	-48.9	16.2	0.00e+00	0	57	0	329252864	56	4596
2026-01-02 05:42:02.22	350.89	22.56	-47.3	-49.1	16.0	0.00e+00	0	57	0	331350016	56	4698
2026-01-02 05:42:03.22	350.63	22.52	-47.5	-49.4	15.7	0.00e+00	0	57	0	333447168	56	4842
2026-01-02 05:42:04.21	350.38	22.48	-47.5	-49.3	15.8	0.00e+00	0	57	0	334495744	56	4805
2026-01-02 05:42:05.20	350.12	22.44	-47.7	-49.7	15.4	0.00e+00	0	57	0	336592896	57	4731
2026-01-02 05:42:06.19	349.86	22.40	-47.7	-49.6	15.5	0.00e+00	0	57	0	338690048	57	4701
2026-01-02 05:42:07.18	349.61	22.36	-47.8	-49.9	15.2	0.00e+00	0	57	0	340787200	57	4840
2026-01-02 05:42:08.17	349.36	22.32	-47.7	-49.8	15.3	0.00e+00	0	57	0	341835776	57	4769
2026-01-02 05:42:09.16	349.10	22.27	-47.7	-49.7	15.4	0.00e+00	0	57	0	343932928	57	4736
2026-01-02 05:42:10.15	348.85	22.23	-47.8	-49.8	15.3	0.00e+00	0	57	0	346030080	57	4774
2026-01-02 05:42:11.15	348.60	22.19	-47.9	-49.9	15.2	0.00e+00	0	57	0	348127232	57	4863
2026-01-02 05:42:12.14	348.35	22.14	-47.6	-49.6	15.5	0.00e+00	0	57	0	350224384	57	4692
2026-01-02 05:42:13.13	348.10	22.10	-47.6	-49.5	15.6	0.00e+00	0	57	0	351272960	57	4620
2026-01-02 05:42:14.12	347.85	22.05	-47.5	-49.5	15.7	0.00e+00	0	57	0	353370112	57	4604
2026-01-02 05:42:15.11	347.60	22.01	-47.6	-49.6	15.5	0.00e+00	0	57	0	355467264	57	4676
2026-01-02 05:42:16.11	347.35	21.96	-47.7	-49.7	15.4	0.00e+00	0	57	0	357564416	57	4731
2026-01-02 05:42:17.10	347.10	21.91	-47.8	-49.8	15.2	0.00e+00	0	57	0	358612992	57	4811
2026-01-02 05:42:18.09	346.85	21.86	-48.0	-50.1	15.0	0.00e+00	0	57	0	360710144	57	4969
2026-01-02 05:42:19.08	346.61	21.82	-47.9	-50.0	15.1	0.00e+00	0	57	0	362807296	57	4883
2026-01-02 05:42:20.08	346.36	21.77	-48.0	-50.2	14.9	0.00e+00	0	57	0	364904448	57	4994
2026-01-02 05:42:21.07	346.12	21.72	-48.3	-50.5	14.6	0.00e+00	0	57	0	365953024	58	4898
2026-01-02 05:42:22.06	345.87	21.67	-48.1	-50.2	14.9	7.00e-07	0	57	0	368050176	58	4752
2026-01-02 05:42:23.05	345.63	21.62	-47.9	-50.0	15.1	0.00e+00	0	57	0	370147328	58	4615
2026-01-02 05:42:24.04	345.39	21.57	-47.8	-49.8	15.3	0.00e+00	0	57	0	372244480	58	4535
2026-01-02 05:42:25.03	345.15	21.52	-47.7	-49.7	15.4	0.00e+00	0	57	0	374341632	58	4443
2026-01-02 05:42:26.02	344.91	21.47	-47.6	-49.6	15.5	0.00e+00	0	57	0	375390208	58	4392
2026-01-02 05:42:27.01	344.67	21.41	-47.7	-49.7	15.3	0.00e+00	0	57	0	377487360	58	4490
2026-01-02 05:42:27.99	344.43	21.36	-47.6	-49.5	15.6	0.00e+00	0	57	0	379584512	58	4360
2026-01-02 05:42:28.98	344.20	21.31	-47.9	-50.0	15.1	0.00e+00	0	57	0	381681664	58	4607
2026-01-02 05:42:29.96	343.96	21.26	-47.8	-49.9	15.2	0.00e+00	0	57	0	382730240	58	4549
2026-01-02 05:42:30.95	343.73	21.20	-48.1	-50.4	14.7	0.00e+00	0	57	0	384827392	58	4821
2026-01-02 05:42:31.94	343.49	21.15	-48.0	-50.2	14.9	7.00e-07	0	57	0	386924544	58	4722
2026-01-02 05:42:32.93	343.26	21.10	-48.1	-50.3	14.8	0.00e+00	0	57	0	389021696	58	4762
2026-01-02 05:42:33.91	343.02	21.04	-48.1	-50.4	14.6	0.00e+00	0	57	0	390070272	58	4834
2026-01-02 05:42:34.90	342.79	20.99	-48.2	-50.6	14.5	0.00e+00	0	57	0	392167424	58	4959
2026-01-02 05:42:35.89	342.56	20.93	-48.1	-50.4	14.6	0.00e+00	0	57	0	394264576	58	4843
2026-01-02 05:42:36.88	342.33	20.88	-48.0	-50.1	14.9	0.00e+00	0	57	0	396361728	58	4705
2026-01-02 05:42:37.87	342.10	20.82	-47.9	-50.1	14.9	0.00e+00	0	57	0	397410304	58	4666
2026-01-02 05:42:38.86	341.87	20.77	-47.9	-50.1	14.9	0.00e+00	0	57	0	399507456	58	4661
2026-01-02 05:42:39.85	341.64	20.71	-48.0	-50.2	14.9	0.00e+00	0	57	0	401604608	58	4718
2026-01-02 05:42:40.83	341.42	20.65	-48.0	-50.1	14.9	0.00e+00	0	57	0	403701760	58	4703
2026-01-02 05:42:41.82	341.19	20.59	-47.9	-50.1	14.8	0.00e+00	0	57	0	405798912	58	4678
2026-01-02 05:42:42.81	340.96	20.54	-48.1	-50.5	14.5	0.00e+00	0	57	0	406847488	58	4878
2026-01-02 05:42:43.79	340.74	20.48	-48.1	-50.4	14.4	0.00e+00	0	57	0	408944640	58	4861
2026-01-02 05:42:44.78	340.52	20.42	-48.3	-50.7	14.1	1.50e-06	0	57	0	411041792	58	5009
2026-01-02 05:42:45.77	340.29	20.36	-48.3	-50.8	13.9	3.80e-06	0	57	0	413138944	58	5079
2026-01-02 05:42:46.77	340.07	20.30	-48.7	-51.5	13.2	1.22e-05	0	57	0	414187520	59	5167
2026-01-02 05:42:47.76	339.85	20.24	-48.9	-51.9	12.6	6.40e-05	0	57	0	416284672	59	5458
2026-01-02 05:42:48.75	339.63	20.18	-49.1	-52.6	11.9	1.55e-04	0	57	0	418381824	60	5547
2026-01-02 05:42:49.74	339.41	20.12	-49.1	-52.5	11.9	4.48e-04	0	57	0	420478976	60	5510
2026-01-02 05:42:50.73	339.19	20.06	-49.0	-52.6	11.7	4.39e-04	0	57	0	421527552	60	5569
2026-01-02 05:42:51.72	338.97	20.00	-49.0	-52.5	11.8	5.84e-04	0	57	0	423624704	60	5470
2026-01-02 05:42:52.71	338.75	19.94	-48.9	-52.3	11.9	3.90e-04	0	57	0	425721856	60	5350
2026-01-02 05:42:53.71	338.53	19.88	-48.7	-51.8	12.5	1.96e-04	0	57	0	427819008	60	5098
2026-01-02 05:42:54.70	338.32	19.82	-48.6	-51.6	12.7	9.76e-05	0	57	0	429916160	60	4973
2026-01-02 05:42:55.69	338.10	19.76	-48.5	-51.4	13.0	4.50e-05	0	57	0	430964736	60	4853
2026-01-02 05:42:56.67	337.89	19.70	-48.6	-51.5	13.0	2.67e-05	0	57	0	433061888	59	5217
2026-01-02 05:42:57.67	337.68	19.63	-48.5	-51.3	13.3	2.59e-05	0	57	0	435159040	59	5042
2026-01-02 05:42:58.66	337.46	19.57	-48.1	-50.7	13.8	9.90e-06	0	57	0	437256192	59	4748
2026-01-02 05:42:59.65	337.25	19.51	-48.0	-50.4	14.2	1.50e-06	0	57	0	438304768	58	4828
2026-01-02 05:43:00.64	337.04	19.44	-47.8	-50.0	14.6	7.00e-07	0	57	0	440401920	58	4639
2026-01-02 05:43:01.63	336.83	19.38	-47.7	-49.8	14.9	0.00e+00	0	57	0	442499072	58	4524
2026-01-02 05:43:02.62	336.62	19.32	-47.7	-49.8	15.0	7.00e-07	0	57	0	444596224	58	4533
2026-01-02 05:43:03.60	336.42	19.25	-47.5	-49.5	15.4	7.00e-07	0	57	0	446693376	58	4350
2026-01-02 05:43:04.60	336.21	19.19	-47.1	-48.9	16.0	0.00e+00	0	57	0	447741952	57	4324
2026-01-02 05:43:05.59	336.00	19.13	-46.9	-48.7	16.2	0.00e+00	0	57	0	449839104	57	4216
2026-01-02 05:43:06.58	335.80	19.06	-47.0	-48.8	16.2	0.00e+00	0	57	0	451936256	57	4246
2026-01-02 05:43:07.57	335.60	19.00	-47.1	-49.0	16.0	0.00e+00	0	57	0	454033408	57	4381
2026-01-02 05:43:08.55	335.39	18.93	-47.3	-49.2	15.8	0.00e+00	0	57	0	455081984	57	4477
2026-01-02 05:43:09.54	335.19	18.87	-47.4	-49.4	15.6	0.00e+00	0	57	0	457179136	57	4566
2026-01-02 05:43:10.53	334.99	18.80	-47.5	-49.4	15.6	0.00e+00	0	57	0	459276288	57	4598
2026-01-02 05:43:11.52	334.79	18.74	-47.5	-49.4	15.7	0.00e+00	0	57	0	461373440	57	4574
2026-01-02 05:43:12.52	334.59	18.67	-47.2	-49.1	16.0	0.00e+00	0	57	0	462422016	57	4404
2026-01-02 05:43:13.51	334.39	18.60	-47.2	-49.1	16.0	0.00e+00	0	57	0	464519168	57	4417
2026-01-02 05:43:14.50	334.19	18.54	-47.4	-49.2	15.9	0.00e+00	0	57	0	466616320	57	4478
2026-01-02 05:43:15.49	333.99	18.47	-47.4	-49.3	15.7	0.00e+00	0	57	0	468713472	57	4543
2026-01-02 05:43:16.47	333.80	18.41	-47.4	-49.3	15.8	0.00e+00	0	57	0	470810624	57	4501
2026-01-02 05:43:17.46	333.60	18.34	-47.4	-49.3	15.8	0.00e+00	0	57	0	471859200	57	4530
2026-01-02 05:43:18.45	333.41	18.27	-47.4	-49.2	15.8	0.00e+00	0	57	0	473956352	57	4491
2026-01-02 05:43:19.44	333.22	18.21	-47.4	-49.3	15.8	0.00e+00	0	57	0	476053504	57	4540
2026-01-02 05:43:20.43	333.02	18.14	-47.5	-49.3	15.8	0.00e+00	0	57	0	478150656	57	4540
2026-01-02 05:43:21.41	332.83	18.07	-47.3	-49.1	16.0	0.00e+00	0	57	0	479199232	57	4440
2026-01-02 05:43:22.40	332.64	18.01	-47.3	-49.1	16.0	0.00e+00	0	57	0	481296384	57	4432
2026-01-02 05:43:23.39	332.45	17.94	-47.3	-49.1	16.0	0.00e+00	0	57	0	483393536	57	4408
2026-01-02 05:43:24.38	332.26	17.87	-47.3	-49.1	16.0	0.00e+00	0	57	0	485490688	57	4412
2026-01-02 05:43:25.37	332.07	17.80	-47.3	-49.1	16.0	0.00e+00	0	57	0	486539264	57	4425
2026-01-02 05:43:26.36	331.89	17.74	-47.3	-49.1	16.0	0.00e+00	0	57	0	488636416	57	4410
2026-01-02 05:43:27.35	331.70	17.67	-47.3	-49.2	16.0	0.00e+00	0	57	0	490733568	57	4442
2026-01-02 05:43:28.34	331.51	17.60	-47.3	-49.1	16.0	0.00e+00	0	57	0	492830720	57	4441
2026-01-02 05:43:29.32	331.33	17.53	-47.3	-49.1	16.0	0.00e+00	0	57	0	493879296	57	4406
2026-01-02 05:43:30.30	331.15	17.46	-47.2	-49.0	16.1	0.00e+00	0	57	0	495976448	57	4377
2026-01-02 05:43:31.28	330.97	17.40	-47.2	-49.0	16.1	0.00e+00	0	57	0	498073600	57	4380
2026-01-02 05:43:32.27	330.78	17.33	-47.3	-49.1	16.0	0.00e+00	0	57	0	500170752	57	4419
2026-01-02 05:43:33.25	330.60	17.26	-47.4	-49.2	15.9	0.00e+00	0	57	0	502267904	57	4491
2026-01-02 05:43:34.24	330.42	17.19	-47.2	-48.9	16.2	0.00e+00	0	57	0	503316480	57	4318
2026-01-02 05:43:35.23	330.24	17.12	-47.1	-48.8	16.3	0.00e+00	0	57	0	505413632	57	4272
2026-01-02 05:43:36.21	330.07	17.05	-46.9	-48.6	16.4	0.00e+00	0	57	0	507510784	57	4191
2026-01-02 05:43:37.20	329.89	16.98	-46.9	-48.6	16.5	0.00e+00	0	57	0	509607936	56	4421
2026-01-02 05:43:38.19	329.71	16.92	-47.0	-48.7	16.4	0.00e+00	0	57	0	510656512	56	4448
2026-01-02 05:43:39.17	329.53	16.85	-47.0	-48.7	16.4	0.00e+00	0	57	0	512753664	56	4484
2026-01-02 05:43:40.16	329.36	16.78	-46.8	-48.4	16.7	0.00e+00	0	57	0	514850816	56	4316
2026-01-02 05:43:41.15	329.18	16.71	-46.7	-48.3	16.8	0.00e+00	0	57	0	516947968	56	4276
2026-01-02 05:43:42.14	329.01	16.64	-46.8	-48.5	16.6	0.00e+00	0	57	0	517996544	56	4369
2026-01-02 05:43:43.14	328.83	16.57	-47.0	-48.7	16.4	0.00e+00	0	57	0	520093696	56	4472
2026-01-02 05:43:44.12	328.66	16.50	-47.0	-48.8	16.3	0.00e+00	0	57	0	522190848	56	4501
2026-01-02 05:43:45.11	328.49	16.43	-47.1	-48.8	16.3	0.00e+00	0	57	0	524288000	56	4529
2026-01-02 05:43:46.10	328.32	16.36	-47.2	-48.9	16.1	0.00e+00	0	57	0	526385152	56	4596
2026-01-02 05:43:47.09	328.15	16.29	-47.1	-48.8	16.3	0.00e+00	0	57	0	527433728	56	4523
2026-01-02 05:43:48.08	327.98	16.22	-47.1	-48.9	16.2	0.00e+00	0	57	0	529530880	56	4567
2026-01-02 05:43:49.07	327.81	16.15	-47.2	-49.0	16.2	0.00e+00	0	57	0	531628032	56	4603
2026-01-02 05:43:50.06	327.64	16.08	-47.0	-48.7	16.4	0.00e+00	0	57	0	533725184	56	4477
2026-01-02 05:43:51.05	327.48	16.01	-47.1	-48.9	16.2	0.00e+00	0	57	0	534773760	56	4569
2026-01-02 05:43:52.05	327.31	15.94	-46.8	-48.5	16.6	0.00e+00	0	57	0	536870912	56	4354
2026-01-02 05:43:53.04	327.14	15.87	-46.7	-48.2	16.8	0.00e+00	0	57	0	538968064	56	4239
2026-01-02 05:43:54.02	326.98	15.80	-46.6	-48.1	17.0	0.00e+00	0	57	0	541065216	56	4175
2026-01-02 05:43:55.00	326.82	15.73	-46.6	-48.1	16.9	0.00e+00	0	57	0	542113792	56	4177
2026-01-02 05:43:55.99	326.66	15.66	-46.6	-48.1	16.9	0.00e+00	0	57	0	544210944	56	4182
2026-01-02 05:43:56.98	326.49	15.59	-46.7	-48.3	16.8	0.00e+00	0	57	0	546308096	56	4271
2026-01-02 05:43:57.97	326.33	15.52	-46.9	-48.6	16.5	0.00e+00	0	57	0	548405248	56	4431
2026-01-02 05:43:58.96	326.17	15.45	-46.8	-48.5	16.6	0.00e+00	0	57	0	550502400	56	4361
2026-01-02 05:43:59.95	326.01	15.38	-47.0	-48.8	16.3	0.00e+00	0	57	0	551550976	56	4501
2026-01-02 05:44:00.94	325.85	15.31	-46.8	-48.5	16.6	0.00e+00	0	57	0	553648128	56	4369
2026-01-02 05:44:01.92	325.69	15.24	-46.7	-48.4	16.7	0.00e+00	0	57	0	555745280	56	4292
2026-01-02 05:44:02.92	325.53	15.17	-46.6	-48.1	16.9	0.00e+00	0	57	0	557842432	56	4191
2026-01-02 05:44:03.90	325.38	15.10	-46.6	-48.2	16.9	0.00e+00	0	57	0	558891008	56	4217
2026-01-02 05:44:04.90	325.22	15.03	-46.7	-48.3	16.8	0.00e+00	0	57	0	560988160	56	4252
2026-01-02 05:44:05.89	325.07	14.96	-46.8	-48.4	16.6	0.00e+00	0	57	0	563085312	56	4332
2026-01-02 05:44:06.88	324.91	14.89	-46.7	-48.3	16.8	0.00e+00	0	57	0	565182464	56	4257
2026-01-02 05:44:07.87	324.76	14.82	-46.5	-48.1	16.9	0.00e+00	0	57	0	566231040	56	4174
2026-01-02 05:44:08.85	324.61	14.75	-46.6	-48.2	16.8	0.00e+00	0	57	0	568328192	56	4222
2026-01-02 05:44:09.85	324.45	14.67	-46.6	-48.2	16.9	0.00e+00	0	57	0	570425344	56	4210
2026-01-02 05:44:10.84	324.30	14.60	-46.7	-48.4	16.7	0.00e+00	0	57	0	572522496	56	4313
2026-01-02 05:44:11.83	324.15	14.53	-47.0	-48.7	16.4	0.00e+00	0	57	0	574619648	56	4453
2026-01-02 05:44:12.82	324.00	14.46	-46.9	-48.6	16.5	0.00e+00	0	57	0	575668224	56	4395
2026-01-02 05:44:13.80	323.85	14.39	-46.7	-48.3	16.7	0.00e+00	0	57	0	577765376	56	4285
2026-01-02 05:44:14.79	323.70	14.32	-46.6	-48.2	16.7	0.00e+00	0	57	0	579862528	55	4469
2026-01-02 05:44:15.79	323.55	14.25	-46.7	-48.3	16.6	0.00e+00	0	57	0	581959680	55	4522
2026-01-02 05:44:16.77	323.41	14.18	-46.7	-48.4	16.6	0.00e+00	0	57	0	583008256	55	4554
2026-01-02 05:44:17.76	323.26	14.11	-46.8	-48.5	16.4	0.00e+00	0	57	0	585105408	55	4640
2026-01-02 05:44:18.75	323.11	14.04	-46.8	-48.6	16.4	0.00e+00	0	57	0	587202560	55	4658
2026-01-02 05:44:19.74	322.97	13.97	-47.0	-48.7	16.2	0.00e+00	0	57	0	589299712	55	4742
2026-01-02 05:44:20.73	322.82	13.90	-47.0	-48.8	16.1	0.00e+00	0	57	0	590348288	55	4783
2026-01-02 05:44:21.72	322.68	13.83	-47.3	-49.1	15.9	0.00e+00	0	57	0	592445440	56	4677
2026-01-02 05:44:22.71	322.54	13.76	-47.3	-49.1	16.0	0.00e+00	0	57	0	594542592	56	4664
2026-01-02 05:44:23.70	322.39	13.69	-47.4	-49.3	15.7	0.00e+00	0	57	0	596639744	56	4809
2026-01-02 05:44:24.69	322.25	13.62	-47.5	-49.4	15.6	0.00e+00	0	57	0	598736896	56	4849
2026-01-02 05:44:25.68	322.11	13.55	-47.5	-49.5	15.6	0.00e+00	0	57	0	599785472	56	4875
2026-01-02 05:44:26.66	321.97	13.48	-47.5	-49.4	15.6	0.00e+00	0	57	0	601882624	57	4592
2026-01-02 05:44:27.65	321.83	13.41	-47.3	-49.2	15.8	0.00e+00	0	57	0	603979776	57	4451
2026-01-02 05:44:28.64	321.69	13.34	-47.3	-49.1	15.9	0.00e+00	0	57	0	606076928	57	4428
2026-01-02 05:44:29.63	321.55	13.27	-47.3	-49.1	15.9	0.00e+00	0	57	0	607125504	57	4420
2026-01-02 05:44:30.62	321.42	13.20	-47.2	-49.0	16.0	0.00e+00	0	57	0	609222656	57	4359
2026-01-02 05:44:31.61	321.28	13.13	-47.0	-48.9	16.1	0.00e+00	0	57	0	611319808	57	4302
2026-01-02 05:44:32.59	321.14	13.06	-47.0	-48.8	16.2	0.00e+00	0	57	0	613416960	56	4522
2026-01-02 05:44:33.58	321.01	12.99	-47.0	-48.8	16.2	0.00e+00	0	57	0	614465536	56	4518
2026-01-02 05:44:34.57	320.87	12.92	-47.0	-48.8	16.1	0.00e+00	0	57	0	616562688	56	4519
2026-01-02 05:44:35.56	320.74	12.85	-47.1	-48.9	16.0	0.00e+00	0	57	0	618659840	56	4597
2026-01-02 05:44:36.55	320.61	12.78	-47.2	-49.1	15.8	0.00e+00	0	57	0	620756992	56	4694
2026-01-02 05:44:37.53	320.47	12.71	-47.3	-49.2	15.7	0.00e+00	0	57	0	622854144	56	4726
2026-01-02 05:44:38.52	320.34	12.64	-47.3	-49.3	15.7	0.00e+00	0	57	0	623902720	56	4769
2026-01-02 05:44:39.51	320.21	12.57	-47.4	-49.3	15.6	0.00e+00	0	57	0	625999872	56	4813
2026-01-02 05:44:40.49	320.08	12.50	-47.5	-49.5	15.5	0.00e+00	0	57	0	628097024	56	4892
2026-01-02 05:44:41.48	319.95	12.43	-47.5	-49.5	15.5	0.00e+00	0	57	0	630194176	56	4905
2026-01-02 05:44:42.47	319.82	12.36	-47.5	-49.5	15.4	0.00e+00	0	57	0	631242752	56	4919
2026-01-02 05:44:43.46	319.69	12.29	-47.6	-49.7	15.2	0.00e+00	0	57	0	633339904	57	4736
2026-01-02 05:44:44.46	319.56	12.22	-47.7	-49.9	15.1	0.00e+00	0	57	0	635437056	57	4823
2026-01-02 05:44:45.45	319.43	12.15	-47.8	-50.0	14.9	0.00e+00	0	57	0	637534208	57	4896
2026-01-02 05:44:46.43	319.30	12.08	-47.8	-50.0	15.0	7.00e-07	0	57	0	638582784	57	4891
2026-01-02 05:44:47.43	319.18	12.01	-47.9	-50.0	14.9	0.00e+00	0	57	0	640679936	57	4915
2026-01-02 05:44:48.42	319.05	11.94	-47.9	-50.1	14.9	0.00e+00	0	57	0	642777088	57	4937
2026-01-02 05:44:49.41	318.92	11.88	-47.7	-49.9	15.0	0.00e+00	0	57	0	644874240	57	4860
2026-01-02 05:44:50.40	318.80	11.81	-47.7	-49.9	15.0	0.00e+00	0	57	0	646971392	57	4850
2026-01-02 05:44:51.39	318.67	11.74	-47.9	-50.0	14.9	0.00e+00	0	57	0	648019968	57	4918
2026-01-02 05:44:52.38	318.55	11.67	-48.0	-50.2	14.8	7.00e-07	0	57	0	650117120	57	5022
2026-01-02 05:44:53.37	318.43	11.60	-47.8	-50.0	14.9	0.00e+00	0	57	0	652214272	57	4895
2026-01-02 05:44:54.36	318.31	11.53	-47.8	-49.9	15.0	0.00e+00	0	57	0	654311424	57	4843
2026-01-02 05:44:55.36	318.18	11.46	-47.7	-49.8	15.1	0.00e+00	0	57	0	655360000	57	4782
2026-01-02 05:44:56.35	318.06	11.39	-47.8	-49.9	15.0	0.00e+00	0	57	0	657457152	57	4832
2026-01-02 05:44:57.34	317.94	11.32	-47.7	-49.8	15.1	0.00e+00	0	57	0	659554304	57	4785
2026-01-02 05:44:58.33	317.82	11.25	-47.7	-49.8	15.1	0.00e+00	0	57	0	661651456	57	4783
2026-01-02 05:44:59.31	317.70	11.19	-47.8	-49.9	15.0	0.00e+00	0	57	0	662700032	57	4849
2026-01-02 05:45:00.30	317.58	11.12	-47.9	-50.0	14.9	0.00e+00	0	57	0	664797184	57	4902
2026-01-02 05:45:01.29	317.46	11.05	-47.8	-50.0	14.9	0.00e+00	0	57	0	666894336	57	4886
2026-01-02 05:45:02.28	317.34	10.98	-47.9	-50.2	14.7	0.00e+00	0	57	0	668991488	57	4997
2026-01-02 05:45:03.27	317.23	10.91	-48.0	-50.4	14.5	0.00e+00	0	57	0	670040064	57	5107
2026-01-02 05:45:04.25	317.11	10.85	-48.1	-50.4	14.5	1.50e-06	0	57	0	672137216	58	4849
2026-01-02 05:45:05.24	316.99	10.78	-48.1	-50.4	14.5	0.00e+00	0	57	0	674234368	58	4842
2026-01-02 05:45:06.23	316.88	10.71	-48.2	-50.5	14.4	7.00e-07	0	57	0	676331520	58	4895
2026-01-02 05:45:07.23	316.76	10.64	-48.2	-50.5	14.3	1.50e-06	0	57	0	678428672	58	4919
2026-01-02 05:45:08.21	316.65	10.57	-48.2	-50.5	14.3	0.00e+00	0	57	0	679477248	58	4920
2026-01-02 05:45:09.20	316.53	10.51	-48.2	-50.7	14.2	0.00e+00	0	57	0	681574400	58	5024
2026-01-02 05:45:10.18	316.42	10.44	-48.3	-50.8	14.0	3.80e-06	0	57	0	683671552	58	5094
2026-01-02 05:45:11.18	316.31	10.37	-48.4	-50.8	14.0	1.50e-06	0	57	0	685768704	58	5094
2026-01-02 05:45:12.16	316.20	10.30	-48.4	-50.9	14.0	2.20e-06	0	57	0	686817280	58	5128
2026-01-02 05:45:13.16	316.08	10.23	-48.5	-51.0	13.8	2.20e-06	0	57	0	688914432	58	5212
2026-01-02 05:45:14.15	315.97	10.17	-48.3	-50.8	14.0	4.50e-06	0	57	0	691011584	58	5085
2026-01-02 05:45:15.14	315.86	10.10	-48.3	-50.8	14.1	1.50e-06	0	57	0	693108736	58	5055
2026-01-02 05:45:16.14	315.75	10.03	-48.2	-50.7	14.2	1.50e-06	0	57	0	695205888	58	5012
2026-01-02 05:45:17.13	315.64	9.96	-48.2	-50.7	14.1	7.00e-07	0	57	0	696254464	58	5016
2026-01-02 05:45:18.11	315.53	9.90	-48.5	-51.1	13.7	3.80e-06	0	57	0	698351616	58	5242
2026-01-02 05:45:19.10	315.42	9.83	-48.3	-50.8	14.1	3.80e-06	0	57	0	700448768	58	5050
2026-01-02 05:45:20.09	315.31	9.76	-48.2	-50.6	14.2	2.20e-06	0	57	0	702545920	58	4964
2026-01-02 05:45:21.07	315.21	9.70	-48.1	-50.5	14.3	2.20e-06	0	57	0	703594496	58	4916
2026-01-02 05:45:22.06	315.10	9.63	-48.2	-50.6	14.2	7.00e-07	0	57	0	705691648	58	4983
2026-01-02 05:45:23.05	314.99	9.56	-48.3	-50.7	14.1	3.80e-06	0	57	0	707788800	58	5024
2026-01-02 05:45:24.03	314.89	9.50	-48.3	-50.8	14.1	3.80e-06	0	57	0	709885952	58	5056
2026-01-02 05:45:25.01	314.78	9.43	-48.4	-50.9	13.9	3.00e-06	0	57	0	710934528	58	5155
2026-01-02 05:45:26.01	314.68	9.36	-48.4	-50.9	13.9	6.10e-06	0	57	0	713031680	58	5137
2026-01-02 05:45:26.99	314.57	9.30	-48.4	-51.0	13.8	4.50e-06	0	57	0	715128832	58	5207
2026-01-02 05:45:27.98	314.47	9.23	-48.4	-51.0	13.7	6.80e-06	0	57	0	717225984	58	5206
2026-01-02 05:45:28.97	314.36	9.17	-48.5	-51.1	13.7	6.80e-06	0	57	0	718274560	58	5226
2026-01-02 05:45:29.95	314.26	9.10	-48.5	-51.1	13.7	4.50e-06	0	57	0	720371712	58	5225
2026-01-02 05:45:30.94	314.16	9.03	-48.5	-51.2	13.6	4.50e-06	0	57	0	722468864	58	5309
2026-01-02 05:45:31.93	314.06	8.97	-48.5	-51.2	13.6	1.06e-05	0	57	0	724566016	58	5291
2026-01-02 05:45:32.93	313.95	8.90	-48.5	-51.2	13.5	8.30e-06	0	57	0	725614592	58	5312
2026-01-02 05:45:33.92	313.85	8.84	-48.6	-51.3	13.4	1.75e-05	0	57	0	727711744	59	5069
2026-01-02 05:45:34.91	313.75	8.77	-48.6	-51.4	13.4	1.14e-05	0	57	0	729808896	59	5113
2026-01-02 05:45:35.89	313.65	8.71	-48.6	-51.3	13.5	1.98e-05	0	57	0	731906048	59	5062
2026-01-02 05:45:36.89	313.55	8.64	-48.6	-51.4	13.3	1.52e-05	0	57	0	734003200	59	5150
2026-01-02 05:45:37.88	313.45	8.57	-48.7	-51.5	13.3	1.98e-05	0	57	0	735051776	59	5160
2026-01-02 05:45:38.86	313.35	8.51	-48.7	-51.5	13.2	2.36e-05	0	57	0	737148928	59	5200
2026-01-02 05:45:39.85	313.25	8.44	-48.9	-51.8	12.9	4.80e-05	0	57	0	739246080	59	5390
2026-01-02 05:45:40.84	313.16	8.38	-48.8	-51.8	12.9	4.27e-05	0	57	0	741343232	59	5380
2026-01-02 05:45:41.83	313.06	8.31	-48.9	-51.8	12.9	5.56e-05	0	57	0	742391808	59	5399
2026-01-02 05:45:42.82	312.96	8.25	-48.9	-51.8	12.8	5.11e-05	0	57	0	744488960	59	5390
2026-01-02 05:45:43.81	312.86	8.18	-48.8	-51.8	12.9	5.41e-05	0	57	0	746586112	59	5354
2026-01-02 05:45:44.80	312.77	8.12	-48.8	-51.7	12.9	4.04e-05	0	57	0	748683264	59	5340
2026-01-02 05:45:45.79	312.67	8.05	-48.8	-51.7	12.9	5.26e-05	0	57	0	750780416	59	5340
2026-01-02 05:45:46.78	312.58	7.99	-48.9	-51.9	12.8	4.95e-05	0	57	0	751828992	59	5448
2026-01-02 05:45:47.77	312.48	7.92	-48.9	-51.9	12.8	7.78e-05	0	57	0	753926144	59	5432
2026-01-02 05:45:48.76	312.39	7.86	-48.8	-51.7	13.0	5.41e-05	0	57	0	756023296	59	5285
2026-01-02 05:45:49.75	312.29	7.79	-48.7	-51.6	13.1	3.20e-05	0	57	0	758120448	59	5273
2026-01-02 05:45:50.74	312.20	7.73	-48.8	-51.6	13.0	3.50e-05	0	57	0	759169024	59	5264
2026-01-02 05:45:51.73	312.10	7.67	-48.8	-51.8	12.9	3.66e-05	0	57	0	761266176	59	5375
2026-01-02 05:45:52.71	312.01	7.60	-48.8	-51.7	13.0	4.73e-05	0	57	0	763363328	59	5289
2026-01-02 05:45:53.70	311.92	7.54	-48.8	-51.8	12.9	4.50e-05	0	57	0	765460480	59	5357
2026-01-02 05:45:54.69	311.83	7.47	-48.9	-52.0	12.6	5.56e-05	0	57	0	766509056	59	5490
2026-01-02 05:45:55.68	311.74	7.41	-49.0	-52.1	12.5	1.51e-04	0	57	0	768606208	59	5574
2026-01-02 05:45:56.66	311.65	7.35	-49.0	-52.1	12.6	9.00e-05	0	57	0	770703360	59	5537
2026-01-02 05:45:57.65	311.55	7.28	-49.0	-52.3	12.3	1.49e-04	0	57	0	772800512	59	5692
2026-01-02 05:45:58.64	311.46	7.22	-49.0	-52.3	12.2	1.94e-04	0	57	0	774897664	59	5688
2026-01-02 05:45:59.63	311.37	7.16	-49.1	-52.4	12.2	2.00e-04	0	57	0	775946240	60	5420
2026-01-02 05:46:00.63	311.28	7.09	-49.0	-52.4	12.2	2.49e-04	0	57	0	778043392	60	5422
2026-01-02 05:46:01.61	311.20	7.03	-49.2	-52.6	12.0	2.83e-04	0	57	0	780140544	60	5539
2026-01-02 05:46:02.60	311.11	6.97	-49.1	-52.5	12.1	3.05e-04	0	57	0	782237696	60	5480
2026-01-02 05:46:03.59	311.02	6.90	-49.2	-52.7	11.9	3.25e-04	0	57	0	783286272	60	5615
2026-01-02 05:46:04.57	310.93	6.84	-49.3	-52.9	11.6	6.57e-04	0	57	0	785383424	60	5774
2026-01-02 05:46:05.56	310.84	6.78	-49.3	-52.8	11.7	4.87e-04	0	57	0	787480576	60	5705
2026-01-02 05:46:06.55	310.76	6.71	-49.3	-53.0	11.5	7.82e-04	0	57	0	789577728	60	5794
2026-01-02 05:46:07.53	310.67	6.65	-49.2	-52.7	11.7	6.13e-04	0	57	0	790626304	60	5652
2026-01-02 05:46:08.53	310.58	6.59	-49.3	-52.9	11.6	6.64e-04	0	57	0	792723456	60	5753
2026-01-02 05:46:09.51	310.50	6.53	-49.3	-52.9	11.6	7.74e-04	0	57	0	794820608	60	5755
2026-01-02 05:46:10.50	310.41	6.46	-49.3	-53.0	11.5	6.58e-04	0	57	0	796917760	60	5813
2026-01-02 05:46:11.49	310.33	6.40	-49.3	-53.0	11.4	1.33e-03	0	57	0	799014912	60	5823
2026-01-02 05:46:12.48	310.24	6.34	-49.2	-52.8	11.6	6.68e-04	0	57	0	800063488	60	5691
2026-01-02 05:46:13.47	310.16	6.28	-49.2	-52.7	11.7	4.75e-04	0	57	0	802160640	60	5614
2026-01-02 05:46:14.46	310.07	6.21	-49.1	-52.5	11.9	5.10e-04	0	57	0	804257792	60	5498
2026-01-02 05:46:15.46	309.99	6.15	-49.1	-52.7	11.6	5.54e-04	0	57	0	806354944	60	5624
2026-01-02 05:46:16.45	309.90	6.09	-49.2	-52.9	11.4	8.36e-04	0	57	0	807403520	60	5782
2026-01-02 05:46:17.44	309.82	6.03	-49.2	-52.9	11.4	1.24e-03	0	57	0	809500672	60	5745
2026-01-02 05:46:18.43	309.74	5.97	-49.3	-53.1	11.1	1.26e-03	0	57	0	811597824	60	5908
2026-01-02 05:46:19.42	309.66	5.90	-49.2	-53.1	11.1	1.58e-03	0	57	0	813694976	60	5908
2026-01-02 05:46:20.41	309.57	5.84	-49.3	-53.1	11.1	1.48e-03	0	57	0	814743552	60	5914
2026-01-02 05:46:21.40	309.49	5.78	-49.2	-53.1	11.1	1.41e-03	0	57	0	816840704	60	5884
2026-01-02 05:46:22.39	309.41	5.72	-49.3	-53.3	10.9	1.85e-03	0	57	0	818937856	60	6001
2026-01-02 05:46:23.38	309.33	5.66	-49.3	-53.3	11.0	2.06e-03	0	57	0	821035008	60	6000
2026-01-02 05:46:24.37	309.25	5.60	-49.3	-53.4	10.8	2.63e-03	0	57	0	822083584	60	6079
2026-01-02 05:46:25.36	309.17	5.54	-49.5	-53.6	10.5	2.80e-03	0	57	0	824180736	60	6271
2026-01-02 05:46:26.36	309.09	5.47	-49.4	-53.6	10.5	4.42e-03	0	57	0	826277888	60	6261
2026-01-02 05:46:27.34	309.01	5.41	-49.4	-53.7	10.3	5.06e-03	0	57	0	828375040	60	6308
2026-01-02 05:46:28.32	308.93	5.35	-49.5	-53.9	10.2	3.99e-03	0	57	0	830472192	60	6454
2026-01-02 05:46:29.32	308.85	5.29	-49.4	-53.8	10.3	6.51e-03	0	57	0	831520768	60	6356
2026-01-02 05:46:30.30	308.77	5.23	-49.5	-53.8	10.2	6.53e-03	0	57	0	833617920	60	6414
2026-01-02 05:46:31.29	308.70	5.17	-49.6	-54.1	9.9	6.71e-03	0	57	0	835715072	60	6591
2026-01-02 05:46:32.28	308.62	5.11	-49.6	-54.3	9.7	1.01e-02	0	57	0	837812224	61	6367
2026-01-02 05:46:33.28	308.54	5.05	-49.5	-54.0	10.0	1.04e-02	0	57	0	838860800	61	6162
2026-01-02 05:46:34.27	308.46	4.99	-51.4	-65.1	3.8	7.58e-01	0	57	104	840957952	64	18656
2026-01-02 05:46:35.26	308.39	4.93	-51.7	-65.6	3.8	1.49e+00	0	57	104	840957952	65	18642
2026-01-02 05:46:36.25	308.31	4.87	-52.0	-65.8	3.8	1.49e+00	0	57	104	840957952	65	19090
2026-01-02 05:46:37.24	308.23	4.81	-50.2	-64.3	3.8	1.49e+00	0	57	104	840957952	64	16898
2026-01-02 05:46:38.23	308.16	4.75	-49.3	-63.1	3.8	1.49e+00	0	57	104	840957952	60	18729
2026-01-02 05:46:39.22	308.08	4.69	-52.0	-65.8	3.8	1.49e+00	0	57	104	840957952	65	19121
2026-01-02 05:46:40.21	308.01	4.63	-52.2	-66.1	3.8	1.49e+00	0	57	104	840957952	66	18565
2026-01-02 05:46:41.20	307.93	4.57	-52.3	-66.2	3.8	1.49e+00	0	57	104	840957952	66	18812
2026-01-02 05:46:42.19	307.86	4.51	-52.4	-66.2	3.8	1.49e+00	0	57	104	840957952	66	18944
2026-01-02 05:46:43.18	307.78	4.45	-52.5	-66.3	3.8	1.49e+00	0	57	104	840957952	66	18976
2026-01-02 05:46:44.17	307.71	4.39	-52.4	-66.3	3.8	1.49e+00	0	57	104	840957952	66	19063
2026-01-02 05:46:45.14	307.64	4.33	-52.5	-66.3	3.8	1.49e+00	0	57	104	840957952	66	19160
2026-01-02 05:46:46.13	307.56	4.27	-52.5	-66.4	3.8	1.49e+00	0	57	104	840957952	66	19225
2026-01-02 05:46:47.12	307.49	4.21	-52.5	-66.4	3.8	1.49e+00	0	57	104	840957952	66	19298
2026-01-02 05:46:48.10	307.42	4.15	-52.5	-66.4	3.8	1.49e+00	0	57	104	840957952	66	19315
2026-01-02 05:46:49.08	307.35	4.09	-52.6	-66.4	3.8	1.49e+00	0	57	104	840957952	67	18285
2026-01-02 05:46:50.07	307.28	4.03	-52.5	-66.4	3.8	1.49e+00	0	57	104	840957952	67	18283
2026-01-02 05:46:51.06	307.20	3.98	-52.6	-66.5	3.8	1.49e+00	0	57	104	840957952	67	18318
2026-01-02 05:46:52.04	307.13	3.92	-52.6	-66.5	3.8	1.49e+00	0	57	104	840957952	67	18358
2026-01-02 05:46:53.03	307.06	3.86	-52.6	-66.5	3.8	1.49e+00	0	57	104	840957952	67	18323
2026-01-02 05:46:54.02	306.99	3.80	-52.6	-66.5	3.8	1.49e+00	0	57	104	840957952	67	18357
2026-01-02 05:46:55.02	306.92	3.74	-52.7	-66.5	3.8	1.49e+00	0	57	104	840957952	67	18427
2026-01-02 05:46:56.01	306.85	3.68	-52.6	-66.5	3.8	1.49e+00	0	57	104	840957952	67	18373
2026-01-02 05:46:57.00	306.78	3.62	-52.7	-66.5	3.8	1.49e+00	0	57	104	840957952	67	18438
2026-01-02 05:46:57.99	306.71	3.56	-52.7	-66.5	3.8	1.49e+00	0	57	104	840957952	67	18442
2026-01-02 05:46:58.98	306.64	3.51	-52.6	-66.5	3.8	1.49e+00	0	57	104	840957952	67	18468
2026-01-02 05:46:59.97	306.57	3.45	-52.7	-66.5	3.8	1.49e+00	0	57	104	840957952	67	18464
2026-01-02 05:47:00.95	306.50	3.39	-52.7	-66.5	3.8	1.49e+00	0	57	104	840957952	67	18455
2026-01-02 05:47:01.94	306.43	3.33	-52.7	-66.5	3.8	1.49e+00	0	57	104	840957952	67	18423
2026-01-02 05:47:02.94	306.37	3.27	-52.7	-66.5	3.8	1.49e+00	0	57	104	840957952	67	18391
2026-01-02 05:47:03.92	306.30	3.22	-52.6	-66.5	3.8	1.49e+00	0	57	104	840957952	67	18349
2026-01-02 05:47:04.91	306.23	3.16	-52.7	-66.5	3.8	1.49e+00	0	57	104	840957952	67	18380
2026-01-02 05:47:05.90	306.16	3.10	-52.6	-66.5	3.8	1.49e+00	0	57	104	840957952	67	18394
2026-01-02 05:47:06.89	306.10	3.04	-52.6	-66.5	3.8	1.49e+00	0	57	104	840957952	67	18400
2026-01-02 05:47:07.88	306.03	2.99	-52.6	-66.5	3.8	1.49e+00	0	57	104	840957952	67	18398

#Closed at: 2026-01-02 05:47:08
#Recorded file [840 MB]: D:/Data/31026_260102_084634.dat