passes_logs/2026/01/02/R3.0SM8_Murmansk_STILSPACE/R3.0SM8_Murmansk_STILSPACE__20260102_044354_FENGYUN_3E_rec.log

#Pass ID: 20260102_044354_FENGYUN 3E
#Satellite: FENGYUN 3E
#Configuration: FENGYUN 3E
#almurnet v.1.7.20240730
#Start time: 2026-01-02 04:50:11

#Version: 2.2.20231116
#Station: R3.0SM8_Murmansk_STILSPACE
#Location: 33.092731 lon 68.902999 lat
#TLE: 1 49008U 21062A   26001.26445318  .00000475  00000+0  24453-3 0  9990
#TLE: 2 49008  98.7480   6.5551 0001357 167.8415 192.2795 14.19884467232890

#Time	Az	El	Level	Level2	SNR	BER	BlckErr	Temp	State	Recorded	gain1	gain2
2026-01-02 04:50:11.93	45.81	67.46	-52.7	-63.6	3.8	8.46e-01	0	57	0	0	67	13112
2026-01-02 04:50:12.91	46.30	67.87	-52.8	-63.1	3.8	8.46e-01	0	57	104	0	68	11550
2026-01-02 04:50:13.90	46.81	68.28	-52.9	-63.1	3.8	8.46e-01	0	57	104	0	68	11613
2026-01-02 04:50:14.89	47.35	68.69	-52.7	-63.0	3.8	8.47e-01	0	58	104	0	68	11518
2026-01-02 04:50:15.88	47.91	69.10	-52.9	-63.1	3.8	8.46e-01	0	57	104	0	68	11559
2026-01-02 04:50:16.87	48.49	69.52	-52.9	-63.1	3.8	8.47e-01	0	57	104	0	68	11570
2026-01-02 04:50:17.85	49.09	69.92	-52.9	-63.1	3.8	8.46e-01	0	58	104	0	68	11614
2026-01-02 04:50:18.85	49.73	70.34	-52.9	-63.1	3.8	8.45e-01	0	57	104	0	68	11550
2026-01-02 04:50:19.83	50.38	70.75	-52.9	-63.0	3.8	8.47e-01	0	57	104	0	68	11516
2026-01-02 04:50:20.82	51.07	71.16	-52.9	-63.1	3.8	8.46e-01	0	58	104	0	68	11618
2026-01-02 04:50:21.81	51.80	71.57	-52.9	-63.0	3.8	8.46e-01	0	57	104	0	68	11526
2026-01-02 04:50:22.80	52.56	71.98	-52.9	-63.1	3.8	8.47e-01	0	57	104	0	68	11568
2026-01-02 04:50:23.79	53.36	72.38	-52.9	-63.1	3.8	8.47e-01	0	57	104	0	68	11564
2026-01-02 04:50:24.78	54.19	72.79	-52.9	-63.1	3.8	8.46e-01	0	58	104	0	68	11614
2026-01-02 04:50:25.77	55.07	73.19	-52.9	-63.0	3.8	8.46e-01	0	57	104	0	68	11524
2026-01-02 04:50:26.76	55.99	73.59	-52.9	-63.0	3.8	8.46e-01	0	58	104	0	68	11542
2026-01-02 04:50:27.76	56.97	73.99	-52.8	-63.0	3.8	8.46e-01	0	58	104	0	68	11511
2026-01-02 04:50:28.74	57.99	74.38	-52.8	-63.0	3.8	8.47e-01	0	58	104	0	68	11503
2026-01-02 04:50:29.73	59.07	74.77	-52.9	-63.1	3.8	8.46e-01	0	57	104	0	68	11614
2026-01-02 04:50:30.70	60.18	75.15	-52.9	-63.1	3.8	8.46e-01	0	58	104	0	68	11587
2026-01-02 04:50:31.69	61.37	75.53	-52.8	-63.1	3.8	8.45e-01	0	58	104	0	68	11568
2026-01-02 04:50:32.68	62.64	75.91	-52.9	-63.1	3.8	8.46e-01	0	58	104	0	68	11567
2026-01-02 04:50:33.67	63.97	76.28	-52.9	-63.1	3.8	8.47e-01	0	58	104	0	68	11566
2026-01-02 04:50:34.66	65.38	76.64	-52.9	-63.1	3.8	8.46e-01	0	58	104	0	68	11601
2026-01-02 04:50:35.64	66.86	77.00	-52.9	-63.1	3.8	8.46e-01	0	58	104	0	68	11553
2026-01-02 04:50:36.63	68.43	77.34	-52.9	-63.0	3.8	8.46e-01	0	58	104	0	68	11539
2026-01-02 04:50:37.62	70.10	77.68	-52.8	-63.1	3.8	8.46e-01	0	58	104	0	68	11612
2026-01-02 04:50:38.61	71.86	78.01	-52.9	-63.0	3.8	8.45e-01	0	58	104	0	68	11532
2026-01-02 04:50:39.59	73.70	78.33	-52.8	-63.1	3.8	8.46e-01	0	58	104	0	68	11572
2026-01-02 04:50:40.58	75.66	78.63	-52.9	-63.1	3.8	8.45e-01	0	58	104	0	68	11554
2026-01-02 04:50:41.57	77.74	78.93	-52.6	-63.1	3.8	8.46e-01	0	58	104	0	68	11560
2026-01-02 04:50:42.55	79.90	79.20	-52.9	-63.0	3.8	8.45e-01	0	58	104	0	68	11488
2026-01-02 04:50:43.54	82.20	79.47	-52.7	-63.0	3.8	8.46e-01	0	58	104	0	68	11497
2026-01-02 04:50:44.53	84.61	79.71	-52.8	-63.0	3.8	8.46e-01	0	58	104	0	68	11491
2026-01-02 04:50:45.52	87.14	79.94	-52.8	-63.1	3.8	8.45e-01	0	58	104	0	68	11571
2026-01-02 04:50:46.52	89.81	80.15	-52.9	-63.1	3.8	8.45e-01	0	58	104	0	68	11563
2026-01-02 04:50:47.50	92.54	80.33	-52.8	-63.0	3.8	8.45e-01	0	58	104	0	68	11494
2026-01-02 04:50:48.49	95.39	80.50	-52.7	-62.8	3.8	8.46e-01	0	58	104	0	68	11208
2026-01-02 04:50:49.48	98.34	80.64	-52.8	-62.6	3.8	8.46e-01	0	58	104	0	68	10923
2026-01-02 04:50:50.47	101.37	80.75	-52.8	-62.3	3.8	8.46e-01	0	58	104	0	68	10543
2026-01-02 04:50:51.46	104.48	80.84	-52.8	-62.5	3.8	8.46e-01	0	58	104	0	68	10869
2026-01-02 04:50:52.45	107.63	80.90	-52.8	-62.8	3.8	8.47e-01	0	58	104	0	68	11271
2026-01-02 04:50:53.44	110.82	80.94	-52.8	-62.4	3.8	8.45e-01	0	58	104	0	68	10775
2026-01-02 04:50:54.43	114.02	80.95	-52.8	-62.5	3.8	8.47e-01	0	58	104	0	68	10808
2026-01-02 04:50:55.42	117.22	80.93	-52.8	-62.3	3.8	8.46e-01	0	58	104	0	68	10574
2026-01-02 04:50:56.42	120.43	80.88	-52.7	-61.9	3.8	8.46e-01	0	58	104	0	68	10126
2026-01-02 04:50:57.41	123.56	80.80	-52.3	-59.9	3.9	8.44e-01	0	58	104	0	67	8541
2026-01-02 04:50:58.40	126.62	80.70	-52.3	-59.4	4.2	8.35e-01	0	58	0	0	67	8082
2026-01-02 04:50:59.39	129.62	80.57	-52.3	-59.9	4.1	8.39e-01	0	58	0	0	67	8480
2026-01-02 04:51:00.37	132.49	80.42	-52.5	-61.4	3.9	8.46e-01	0	58	104	0	67	10133
2026-01-02 04:51:01.36	135.30	80.24	-52.4	-61.4	3.8	8.45e-01	0	58	104	0	67	10123
2026-01-02 04:51:02.36	138.03	80.05	-52.3	-59.7	3.9	8.43e-01	0	58	104	0	67	8366
2026-01-02 04:51:03.35	140.61	79.83	-52.2	-60.0	3.8	8.46e-01	0	58	104	0	67	8627
2026-01-02 04:51:04.34	143.09	79.59	-50.6	-54.2	7.3	5.97e-01	0	58	0	1048576	64	5279
2026-01-02 04:51:05.33	145.44	79.34	-44.4	-45.8	16.0	0.00e+00	0	58	0	8388608	52	4003
2026-01-02 04:51:06.32	147.68	79.06	-41.0	-41.5	20.2	0.00e+00	0	58	0	14680064	44	3838
2026-01-02 04:51:07.31	149.81	78.78	-41.1	-41.7	20.0	0.00e+00	0	58	0	22020096	44	3917
2026-01-02 04:51:08.29	151.81	78.48	-42.1	-42.7	19.0	0.00e+00	0	58	0	29360128	46	3947
2026-01-02 04:51:09.29	153.74	78.16	-41.3	-41.9	19.9	0.00e+00	0	58	0	36700160	45	3787
2026-01-02 04:51:10.28	155.55	77.84	-40.7	-41.2	20.3	0.00e+00	0	58	0	44040192	44	3722
2026-01-02 04:51:11.28	157.27	77.50	-40.1	-40.5	21.0	0.00e+00	0	58	0	51380224	43	3648
2026-01-02 04:51:12.27	158.89	77.16	-39.5	-39.9	21.6	0.00e+00	0	58	0	57671680	41	3808
2026-01-02 04:51:13.26	160.42	76.80	-39.3	-39.7	21.8	0.00e+00	0	58	0	65011712	41	3711
2026-01-02 04:51:14.24	161.85	76.45	-39.1	-39.5	21.9	0.00e+00	0	58	0	72351744	40	3845
2026-01-02 04:51:15.24	163.24	76.08	-39.5	-39.9	21.6	0.00e+00	0	58	0	79691776	40	4032
2026-01-02 04:51:16.23	164.53	75.70	-39.7	-40.1	21.3	0.00e+00	0	58	0	87031808	41	3908
2026-01-02 04:51:17.22	165.76	75.32	-39.8	-40.3	21.1	0.00e+00	0	58	0	93323264	41	3967
2026-01-02 04:51:18.20	166.91	74.94	-40.0	-40.4	21.1	0.00e+00	0	58	0	100663296	42	3811
2026-01-02 04:51:19.19	168.01	74.55	-40.0	-40.5	21.0	0.00e+00	0	58	0	108003328	42	3830
2026-01-02 04:51:20.18	169.06	74.16	-40.3	-40.8	20.8	0.00e+00	0	58	0	115343360	42	3990
2026-01-02 04:51:21.17	170.06	73.76	-40.9	-41.4	20.0	0.00e+00	0	58	0	122683392	43	4040
2026-01-02 04:51:22.16	171.00	73.36	-41.4	-42.0	19.8	0.00e+00	0	58	0	130023424	44	4052
2026-01-02 04:51:23.15	171.90	72.96	-41.0	-41.5	20.2	0.00e+00	0	58	0	136314880	44	3835
2026-01-02 04:51:24.14	172.75	72.56	-40.3	-40.7	20.6	0.00e+00	0	58	0	143654912	43	3733
2026-01-02 04:51:25.14	173.58	72.14	-40.3	-40.8	20.7	0.00e+00	0	58	0	150994944	43	3764
2026-01-02 04:51:26.13	174.35	71.74	-40.2	-40.6	20.8	0.00e+00	0	58	0	158334976	43	3688
2026-01-02 04:51:27.12	175.09	71.33	-40.1	-40.5	21.0	0.00e+00	0	58	0	165675008	43	3643
2026-01-02 04:51:28.11	175.80	70.92	-40.0	-40.4	21.0	0.00e+00	0	58	0	173015040	42	3809
2026-01-02 04:51:29.09	176.47	70.51	-40.4	-40.8	20.7	0.00e+00	0	58	0	179306496	42	4001
2026-01-02 04:51:30.07	177.11	70.10	-40.2	-40.7	20.9	0.00e+00	0	58	0	186646528	42	3930
2026-01-02 04:51:31.06	177.72	69.69	-40.1	-40.6	20.9	0.00e+00	0	58	0	193986560	42	3900
2026-01-02 04:51:32.05	178.32	69.27	-40.4	-40.8	20.7	0.00e+00	0	58	0	201326592	42	4000
2026-01-02 04:51:33.04	178.88	68.86	-40.2	-40.7	20.9	0.00e+00	0	58	0	208666624	42	3933
2026-01-02 04:51:34.04	179.43	68.44	-40.3	-40.8	20.8	0.00e+00	0	58	0	214958080	42	3966
2026-01-02 04:51:35.02	179.95	68.03	-40.3	-40.8	20.5	0.00e+00	0	58	0	222298112	42	3974
2026-01-02 04:51:36.02	180.46	67.62	-40.3	-40.8	20.7	0.00e+00	0	58	0	229638144	42	3987
2026-01-02 04:51:37.01	180.94	67.20	-40.3	-40.8	20.7	0.00e+00	0	58	0	236978176	42	3984
2026-01-02 04:51:38.00	181.40	66.79	-40.8	-41.3	20.0	0.00e+00	0	58	0	244318208	43	4004
2026-01-02 04:51:38.99	181.85	66.38	-40.9	-41.4	20.2	0.00e+00	0	58	0	251658240	43	4042
2026-01-02 04:51:39.98	182.28	65.97	-41.2	-41.7	19.8	0.00e+00	0	58	0	257949696	43	4182
2026-01-02 04:51:40.97	182.69	65.56	-40.7	-41.2	20.4	0.00e+00	0	58	0	265289728	43	3919
2026-01-02 04:51:41.95	183.08	65.16	-40.4	-40.9	20.6	0.00e+00	0	58	0	272629760	43	3805
2026-01-02 04:51:42.94	183.47	64.75	-40.5	-41.0	20.6	0.00e+00	0	58	0	279969792	43	3854
2026-01-02 04:51:43.92	183.84	64.35	-40.9	-41.4	20.1	0.00e+00	0	58	0	286261248	43	4022
2026-01-02 04:51:44.91	184.20	63.94	-40.7	-41.2	20.4	0.00e+00	0	58	0	293601280	43	3934
2026-01-02 04:51:45.88	184.53	63.55	-40.4	-40.9	20.7	0.00e+00	0	58	0	300941312	43	3783
2026-01-02 04:51:46.87	184.87	63.15	-40.2	-40.7	20.7	0.00e+00	0	58	0	308281344	43	3717
2026-01-02 04:51:47.86	185.19	62.75	-40.3	-40.8	20.7	0.00e+00	0	58	0	315621376	43	3758
2026-01-02 04:51:48.85	185.51	62.35	-40.4	-40.8	20.6	0.00e+00	0	58	0	321912832	43	3763
2026-01-02 04:51:49.84	185.81	61.95	-40.8	-41.3	20.3	0.00e+00	0	58	0	329252864	43	3964
2026-01-02 04:51:50.84	186.11	61.55	-40.9	-41.5	20.1	0.00e+00	0	58	0	336592896	43	4055
2026-01-02 04:51:51.82	186.39	61.16	-41.0	-41.6	20.0	0.00e+00	0	58	0	343932928	43	4103
2026-01-02 04:51:52.81	186.67	60.77	-41.2	-41.7	20.0	0.00e+00	0	58	0	351272960	44	3951
2026-01-02 04:51:53.80	186.94	60.38	-41.1	-41.6	20.0	0.00e+00	0	58	0	357564416	44	3885
2026-01-02 04:51:54.79	187.20	59.99	-41.2	-41.7	19.7	0.00e+00	0	58	0	364904448	44	3957
2026-01-02 04:51:55.78	187.45	59.60	-41.1	-41.6	20.1	0.00e+00	0	58	0	372244480	44	3877
2026-01-02 04:51:56.76	187.69	59.22	-41.2	-41.7	19.9	0.00e+00	0	58	0	379584512	44	3932
2026-01-02 04:51:57.76	187.93	58.84	-41.5	-42.0	19.7	0.00e+00	0	58	0	386924544	44	4090
2026-01-02 04:51:58.74	188.16	58.46	-41.5	-42.0	19.7	0.00e+00	0	58	0	394264576	44	4093
2026-01-02 04:51:59.74	188.39	58.08	-41.5	-42.1	19.6	0.00e+00	0	58	0	400556032	44	4120
2026-01-02 04:52:00.73	188.61	57.70	-41.8	-42.4	19.2	0.00e+00	0	58	0	407896064	45	4036
2026-01-02 04:52:01.72	188.82	57.33	-41.8	-42.3	19.3	0.00e+00	0	57	0	415236096	45	4003
2026-01-02 04:52:02.71	189.03	56.95	-41.6	-42.1	19.5	0.00e+00	0	58	0	422576128	45	3903
2026-01-02 04:52:03.70	189.23	56.58	-41.8	-42.4	19.3	0.00e+00	0	58	0	429916160	45	4019
2026-01-02 04:52:04.69	189.43	56.22	-41.8	-42.4	19.3	0.00e+00	0	57	0	437256192	45	4018
2026-01-02 04:52:05.67	189.62	55.85	-41.7	-42.2	19.5	0.00e+00	0	58	0	443547648	45	3947
2026-01-02 04:52:06.65	189.80	55.49	-41.2	-41.8	19.6	0.00e+00	0	58	0	450887680	45	3745
2026-01-02 04:52:07.64	189.99	55.13	-41.1	-41.6	20.1	0.00e+00	0	58	0	458227712	45	3666
2026-01-02 04:52:08.64	190.17	54.77	-41.1	-41.6	20.0	0.00e+00	0	58	0	465567744	44	3913
2026-01-02 04:52:09.62	190.34	54.41	-41.2	-41.8	19.9	0.00e+00	0	58	0	471859200	44	3971
2026-01-02 04:52:10.61	190.51	54.06	-41.4	-41.9	19.7	0.00e+00	0	58	0	479199232	44	4045
2026-01-02 04:52:11.60	190.67	53.71	-41.5	-42.1	19.6	0.00e+00	0	58	0	486539264	44	4108
2026-01-02 04:52:12.59	190.83	53.35	-41.5	-42.1	19.6	0.00e+00	0	58	0	493879296	45	3874
2026-01-02 04:52:13.58	190.99	53.01	-41.3	-41.9	19.8	0.00e+00	0	58	0	501219328	45	3787
2026-01-02 04:52:14.56	191.14	52.66	-41.3	-41.8	19.8	0.00e+00	0	58	0	507510784	45	3780
2026-01-02 04:52:15.55	191.30	52.32	-41.3	-41.8	19.9	0.00e+00	0	58	0	514850816	45	3752
2026-01-02 04:52:16.54	191.44	51.98	-41.3	-41.8	19.9	0.00e+00	0	58	0	522190848	45	3755
2026-01-02 04:52:17.52	191.59	51.64	-41.5	-42.0	19.7	0.00e+00	0	58	0	529530880	45	3847
2026-01-02 04:52:18.51	191.73	51.30	-41.5	-42.0	19.6	0.00e+00	0	58	0	536870912	45	3862
2026-01-02 04:52:19.50	191.86	50.97	-41.6	-42.2	19.4	0.00e+00	0	58	0	543162368	45	3929
2026-01-02 04:52:20.49	192.00	50.63	-41.6	-42.1	19.5	0.00e+00	0	58	0	550502400	45	3898
2026-01-02 04:52:21.47	192.13	50.31	-41.3	-41.8	19.9	0.00e+00	0	58	0	557842432	45	3748
2026-01-02 04:52:22.46	192.26	49.98	-41.1	-41.6	20.1	0.00e+00	0	58	0	565182464	45	3664
2026-01-02 04:52:23.45	192.39	49.65	-41.1	-41.7	20.0	0.00e+00	0	58	0	572522496	45	3700
2026-01-02 04:52:24.44	192.51	49.33	-41.2	-41.7	20.0	0.00e+00	0	58	0	578813952	45	3704
2026-01-02 04:52:25.43	192.63	49.01	-41.3	-41.8	19.6	0.00e+00	0	58	0	586153984	45	3762
2026-01-02 04:52:26.43	192.75	48.68	-41.2	-41.8	19.9	0.00e+00	0	58	0	593494016	45	3755
2026-01-02 04:52:27.41	192.87	48.37	-41.3	-41.8	19.9	0.00e+00	0	58	0	600834048	45	3769
2026-01-02 04:52:28.39	192.98	48.06	-41.1	-41.7	19.9	0.00e+00	0	58	0	608174080	45	3697
2026-01-02 04:52:29.39	193.10	47.74	-40.7	-41.2	20.4	0.00e+00	0	58	0	615514112	44	3728
2026-01-02 04:52:30.36	193.20	47.43	-40.4	-40.9	20.7	0.00e+00	0	58	0	621805568	43	3795
2026-01-02 04:52:31.35	193.31	47.12	-40.3	-40.8	20.7	0.00e+00	0	58	0	629145600	43	3759
2026-01-02 04:52:32.35	193.42	46.81	-40.3	-40.7	20.7	0.00e+00	0	58	0	636485632	43	3733
2026-01-02 04:52:33.34	193.52	46.51	-40.2	-40.7	20.8	0.00e+00	0	58	0	643825664	43	3695
2026-01-02 04:52:34.34	193.63	46.20	-40.2	-40.7	20.8	0.00e+00	0	58	0	651165696	43	3722
2026-01-02 04:52:35.33	193.73	45.90	-40.3	-40.8	20.7	0.00e+00	0	58	0	657457152	43	3748
2026-01-02 04:52:36.32	193.83	45.61	-40.2	-40.7	20.6	0.00e+00	0	58	0	664797184	43	3721
2026-01-02 04:52:37.31	193.92	45.31	-40.3	-40.8	20.7	0.00e+00	0	57	0	672137216	43	3763
2026-01-02 04:52:38.30	194.02	45.01	-40.3	-40.7	20.8	0.00e+00	0	58	0	679477248	43	3736
2026-01-02 04:52:39.29	194.11	44.72	-40.1	-40.5	20.8	0.00e+00	0	57	0	686817280	43	3652
2026-01-02 04:52:40.27	194.20	44.44	-39.9	-40.3	21.2	0.00e+00	0	58	0	693108736	42	3768
2026-01-02 04:52:41.26	194.29	44.15	-39.7	-40.1	21.1	0.00e+00	0	58	0	700448768	42	3689
2026-01-02 04:52:42.25	194.38	43.86	-39.8	-40.2	21.2	0.00e+00	0	57	0	707788800	42	3729
2026-01-02 04:52:43.23	194.47	43.58	-39.6	-40.0	21.4	0.00e+00	0	57	0	715128832	42	3648
2026-01-02 04:52:44.22	194.55	43.30	-39.6	-40.0	21.4	0.00e+00	0	57	0	721420288	42	3646
2026-01-02 04:52:45.21	194.64	43.02	-39.8	-40.2	21.2	0.00e+00	0	58	0	728760320	42	3726
2026-01-02 04:52:46.19	194.72	42.74	-40.1	-40.5	20.7	0.00e+00	0	57	0	736100352	42	3866
2026-01-02 04:52:47.18	194.80	42.47	-40.2	-40.6	20.5	0.00e+00	0	58	0	743440384	42	3903
2026-01-02 04:52:48.17	194.88	42.19	-40.2	-40.7	20.8	0.00e+00	0	58	0	750780416	42	3943
2026-01-02 04:52:49.16	194.96	41.92	-40.2	-40.7	20.6	0.00e+00	0	57	0	758120448	42	3941
2026-01-02 04:52:50.15	195.04	41.65	-40.3	-40.8	20.7	0.00e+00	0	57	0	764411904	42	3980
2026-01-02 04:52:51.14	195.11	41.38	-40.4	-40.9	20.6	0.00e+00	0	58	0	771751936	42	4018
2026-01-02 04:52:52.12	195.19	41.12	-40.2	-40.7	20.7	0.00e+00	0	58	0	779091968	42	3949
2026-01-02 04:52:53.11	195.26	40.85	-40.6	-41.1	20.4	0.00e+00	0	57	0	786432000	42	4126
2026-01-02 04:52:54.10	195.34	40.59	-40.3	-40.7	20.7	0.00e+00	0	58	0	793772032	42	3948
2026-01-02 04:52:55.08	195.41	40.33	-40.2	-40.6	20.9	0.00e+00	0	58	0	800063488	42	3895
2026-01-02 04:52:56.07	195.48	40.07	-40.2	-40.6	20.8	0.00e+00	0	58	0	807403520	42	3897
2026-01-02 04:52:57.07	195.55	39.82	-40.3	-40.8	20.5	0.00e+00	0	58	0	814743552	42	3973
2026-01-02 04:52:58.05	195.62	39.56	-40.3	-40.8	20.6	0.00e+00	0	58	0	822083584	42	3977
2026-01-02 04:52:59.03	195.68	39.31	-40.5	-41.0	20.3	0.00e+00	0	57	0	829423616	42	4095
2026-01-02 04:53:00.01	195.75	39.06	-40.4	-40.9	20.6	0.00e+00	0	57	0	835715072	42	4021
2026-01-02 04:53:01.01	195.82	38.81	-40.4	-40.9	20.6	0.00e+00	0	58	0	843055104	42	4027
2026-01-02 04:53:02.00	195.88	38.56	-40.5	-40.9	20.6	0.00e+00	0	58	0	850395136	42	4049
2026-01-02 04:53:02.99	195.95	38.32	-40.6	-41.1	20.4	0.00e+00	0	58	0	857735168	42	4136
2026-01-02 04:53:03.98	196.01	38.07	-40.2	-40.7	20.8	0.00e+00	0	58	0	865075200	42	3931
2026-01-02 04:53:04.97	196.07	37.83	-40.1	-40.5	20.9	0.00e+00	0	58	0	871366656	42	3864
2026-01-02 04:53:05.96	196.13	37.59	-40.1	-40.6	20.9	0.00e+00	0	57	0	878706688	42	3873
2026-01-02 04:53:06.95	196.19	37.35	-39.9	-40.3	21.0	0.00e+00	0	57	0	886046720	42	3772
2026-01-02 04:53:07.94	196.25	37.11	-39.8	-40.2	21.2	0.00e+00	0	58	0	893386752	42	3724
2026-01-02 04:53:08.93	196.31	36.87	-39.9	-40.3	21.1	0.00e+00	0	58	0	900726784	42	3768
2026-01-02 04:53:09.92	196.37	36.64	-40.0	-40.4	21.0	0.00e+00	0	57	0	907018240	42	3819
2026-01-02 04:53:10.90	196.43	36.41	-39.9	-40.4	21.0	0.00e+00	0	57	0	914358272	42	3797
2026-01-02 04:53:11.89	196.48	36.18	-40.2	-40.7	20.8	0.00e+00	0	58	0	921698304	42	3937
2026-01-02 04:53:12.88	196.54	35.95	-40.1	-40.5	21.0	0.00e+00	0	58	0	929038336	42	3849
2026-01-02 04:53:13.87	196.59	35.72	-39.8	-40.3	21.2	0.00e+00	0	58	0	936378368	42	3746
2026-01-02 04:53:14.86	196.65	35.50	-39.7	-40.1	21.3	0.00e+00	0	57	0	942669824	42	3687
2026-01-02 04:53:15.86	196.70	35.27	-39.6	-40.1	21.4	0.00e+00	0	58	0	950009856	42	3668
2026-01-02 04:53:16.84	196.76	35.05	-39.6	-40.0	21.3	0.00e+00	0	58	0	957349888	42	3647
2026-01-02 04:53:17.83	196.81	34.83	-39.5	-40.0	21.4	0.00e+00	0	57	0	964689920	42	3624
2026-01-02 04:53:18.82	196.86	34.61	-39.6	-40.0	21.2	0.00e+00	0	58	0	972029952	42	3633
2026-01-02 04:53:19.80	196.91	34.39	-39.7	-40.2	21.3	0.00e+00	0	58	0	979369984	42	3710
2026-01-02 04:53:20.79	196.96	34.17	-39.6	-40.0	21.4	0.00e+00	0	58	0	985661440	42	3633
2026-01-02 04:53:21.78	197.01	33.96	-39.3	-39.8	21.6	0.00e+00	0	58	0	993001472	41	3748
2026-01-02 04:53:22.77	197.06	33.74	-39.2	-39.7	21.7	0.00e+00	0	58	0	1000341504	41	3699
2026-01-02 04:53:23.77	197.11	33.53	-39.4	-39.8	21.5	0.00e+00	0	57	0	1007681536	41	3776
2026-01-02 04:53:24.76	197.16	33.32	-39.4	-39.8	21.6	0.00e+00	0	58	0	1015021568	41	3756
2026-01-02 04:53:25.75	197.20	33.11	-39.4	-39.8	21.6	0.00e+00	0	58	0	1021313024	41	3759
2026-01-02 04:53:26.74	197.25	32.90	-39.4	-39.8	21.6	0.00e+00	0	57	0	1028653056	41	3770
2026-01-02 04:53:27.73	197.30	32.69	-39.4	-39.8	21.5	0.00e+00	0	58	0	1035993088	41	3760
2026-01-02 04:53:28.72	197.34	32.49	-39.6	-40.0	21.3	0.00e+00	0	58	0	1043333120	41	3859
2026-01-02 04:53:29.71	197.39	32.28	-39.6	-40.0	21.4	0.00e+00	0	58	0	1050673152	41	3843
2026-01-02 04:53:30.70	197.43	32.08	-39.4	-39.9	21.5	0.00e+00	0	58	0	1058013184	41	3790
2026-01-02 04:53:31.69	197.48	31.88	-39.5	-39.9	21.4	0.00e+00	0	58	0	1064304640	41	3803
2026-01-02 04:53:32.68	197.52	31.68	-39.6	-40.0	21.4	0.00e+00	0	57	0	1071644672	41	3843
2026-01-02 04:53:33.68	197.57	31.48	-39.9	-40.3	21.0	0.00e+00	0	58	0	1078984704	41	3986
2026-01-02 04:53:34.67	197.61	31.28	-39.8	-40.3	21.1	0.00e+00	0	58	0	1086324736	41	3979
2026-01-02 04:53:35.65	197.65	31.08	-39.7	-40.2	21.3	0.00e+00	0	58	0	1093664768	41	3918
2026-01-02 04:53:36.65	197.69	30.89	-39.7	-40.2	21.2	0.00e+00	0	58	0	1099956224	41	3920
2026-01-02 04:53:37.64	197.73	30.69	-39.8	-40.3	21.2	0.00e+00	0	58	0	1107296256	41	3967
2026-01-02 04:53:38.62	197.78	30.50	-40.1	-40.5	20.8	0.00e+00	0	58	0	1114636288	41	4097
2026-01-02 04:53:39.62	197.82	30.31	-40.1	-40.5	20.9	0.00e+00	0	58	0	1121976320	41	4089
2026-01-02 04:53:40.60	197.86	30.12	-40.1	-40.6	20.9	0.00e+00	0	58	0	1129316352	41	4100
2026-01-02 04:53:41.59	197.90	29.93	-40.4	-40.9	20.5	0.00e+00	0	57	0	1136656384	42	4021
2026-01-02 04:53:42.58	197.94	29.75	-40.4	-40.9	20.5	0.00e+00	0	58	0	1142947840	42	4028
2026-01-02 04:53:43.57	197.97	29.56	-40.3	-40.8	20.6	0.00e+00	0	57	0	1150287872	42	3994
2026-01-02 04:53:44.56	198.01	29.38	-40.3	-40.8	20.7	0.00e+00	0	57	0	1157627904	42	3971
2026-01-02 04:53:45.54	198.05	29.19	-40.2	-40.6	20.8	0.00e+00	0	58	0	1164967936	42	3902
2026-01-02 04:53:46.53	198.09	29.01	-40.2	-40.6	20.7	0.00e+00	0	57	0	1172307968	42	3912
2026-01-02 04:53:47.52	198.13	28.83	-40.2	-40.6	20.8	0.00e+00	0	58	0	1178599424	42	3897
2026-01-02 04:53:48.51	198.16	28.65	-40.2	-40.6	20.5	0.00e+00	0	58	0	1185939456	42	3913
2026-01-02 04:53:49.51	198.20	28.47	-40.3	-40.8	20.6	0.00e+00	0	58	0	1193279488	42	3991
2026-01-02 04:53:50.49	198.24	28.29	-40.5	-41.0	20.4	0.00e+00	0	57	0	1200619520	42	4062
2026-01-02 04:53:51.48	198.27	28.12	-40.2	-40.6	20.8	0.00e+00	0	57	0	1207959552	42	3913
2026-01-02 04:53:52.47	198.31	27.94	-39.9	-40.4	21.0	0.00e+00	0	57	0	1214251008	42	3794
2026-01-02 04:53:53.45	198.34	27.77	-39.9	-40.4	21.0	0.00e+00	0	57	0	1221591040	42	3794
2026-01-02 04:53:54.44	198.38	27.59	-40.1	-40.6	20.9	0.00e+00	0	57	0	1228931072	42	3874
2026-01-02 04:53:55.43	198.41	27.42	-40.2	-40.7	20.6	0.00e+00	0	57	0	1236271104	42	3949
2026-01-02 04:53:56.42	198.44	27.25	-40.3	-40.8	20.6	0.00e+00	0	57	0	1242562560	42	3989
2026-01-02 04:53:57.41	198.48	27.08	-40.3	-40.8	20.6	0.00e+00	0	57	0	1249902592	42	3987
2026-01-02 04:53:58.40	198.51	26.91	-40.3	-40.8	20.6	0.00e+00	0	57	0	1257242624	42	3991
2026-01-02 04:53:59.39	198.55	26.74	-40.4	-40.9	20.5	0.00e+00	0	57	0	1264582656	42	4029
2026-01-02 04:54:00.37	198.58	26.58	-40.4	-40.9	20.5	0.00e+00	0	57	0	1271922688	42	4007
2026-01-02 04:54:01.36	198.61	26.41	-40.4	-40.9	20.5	0.00e+00	0	57	0	1279262720	42	4045
2026-01-02 04:54:02.35	198.64	26.25	-40.5	-40.9	20.5	0.00e+00	0	58	0	1285554176	42	4039
2026-01-02 04:54:03.34	198.68	26.08	-40.6	-41.1	20.3	0.00e+00	0	58	0	1292894208	42	4134
2026-01-02 04:54:04.33	198.71	25.92	-40.4	-40.8	20.6	0.00e+00	0	57	0	1300234240	42	4000
2026-01-02 04:54:05.33	198.74	25.75	-40.1	-40.6	20.6	0.00e+00	0	58	0	1307574272	42	3894
2026-01-02 04:54:06.32	198.77	25.59	-40.1	-40.5	20.8	0.00e+00	0	58	0	1314914304	42	3859
2026-01-02 04:54:07.31	198.80	25.43	-40.1	-40.5	20.8	0.00e+00	0	57	0	1321205760	42	3861
2026-01-02 04:54:08.29	198.83	25.28	-40.1	-40.6	20.8	0.00e+00	0	58	0	1328545792	42	3883
2026-01-02 04:54:09.28	198.86	25.12	-40.2	-40.7	20.6	0.00e+00	0	57	0	1335885824	42	3918
2026-01-02 04:54:10.28	198.89	24.96	-40.3	-40.7	20.6	0.00e+00	0	57	0	1343225856	42	3952
2026-01-02 04:54:11.26	198.92	24.80	-40.2	-40.6	20.6	0.00e+00	0	57	0	1350565888	42	3911
2026-01-02 04:54:12.25	198.95	24.65	-40.4	-40.9	20.5	0.00e+00	0	57	0	1357905920	42	4007
2026-01-02 04:54:13.24	198.98	24.49	-40.5	-41.0	20.4	0.00e+00	0	57	0	1364197376	42	4094
2026-01-02 04:54:14.23	199.01	24.34	-40.4	-40.9	20.5	0.00e+00	0	57	0	1371537408	42	4012
2026-01-02 04:54:15.21	199.04	24.19	-40.6	-41.1	20.3	0.00e+00	0	58	0	1378877440	42	4114
2026-01-02 04:54:16.20	199.07	24.04	-40.8	-41.3	20.1	0.00e+00	0	58	0	1386217472	43	3974
2026-01-02 04:54:17.19	199.09	23.88	-40.6	-41.1	20.4	0.00e+00	0	57	0	1393557504	43	3869
2026-01-02 04:54:18.18	199.12	23.73	-40.4	-40.9	20.4	0.00e+00	0	58	0	1400897536	43	3812
2026-01-02 04:54:19.16	199.15	23.59	-40.6	-41.1	20.3	0.00e+00	0	58	0	1407188992	43	3883
2026-01-02 04:54:20.16	199.18	23.44	-40.8	-41.3	20.0	0.00e+00	0	58	0	1414529024	43	4003
2026-01-02 04:54:21.15	199.21	23.29	-41.1	-41.6	19.8	0.00e+00	0	57	0	1421869056	43	4125
2026-01-02 04:54:22.14	199.23	23.14	-40.9	-41.4	20.0	0.00e+00	0	57	0	1429209088	43	4017
2026-01-02 04:54:23.13	199.26	23.00	-40.7	-41.2	20.2	0.00e+00	0	57	0	1436549120	43	3950
2026-01-02 04:54:24.11	199.29	22.85	-40.7	-41.2	20.1	0.00e+00	0	58	0	1442840576	43	3947
2026-01-02 04:54:25.10	199.31	22.71	-40.7	-41.2	20.1	0.00e+00	0	58	0	1450180608	43	3956
2026-01-02 04:54:26.09	199.34	22.56	-40.9	-41.4	20.0	0.00e+00	0	57	0	1457520640	43	4023
2026-01-02 04:54:27.08	199.37	22.42	-41.1	-41.6	19.8	0.00e+00	0	57	0	1464860672	43	4128
2026-01-02 04:54:28.07	199.39	22.28	-40.9	-41.4	20.0	0.00e+00	0	57	0	1471152128	43	4010
2026-01-02 04:54:29.06	199.42	22.14	-40.6	-41.1	20.3	0.00e+00	0	58	0	1478492160	43	3875
2026-01-02 04:54:30.04	199.44	22.00	-40.5	-41.0	20.4	0.00e+00	0	58	0	1485832192	43	3841
2026-01-02 04:54:31.03	199.47	21.86	-40.6	-41.1	20.3	0.00e+00	0	57	0	1493172224	43	3876
2026-01-02 04:54:32.01	199.49	21.72	-40.8	-41.3	20.1	0.00e+00	0	58	0	1500512256	43	3970
2026-01-02 04:54:33.00	199.52	21.58	-40.7	-41.2	20.2	0.00e+00	0	57	0	1506803712	43	3920
2026-01-02 04:54:33.99	199.54	21.45	-40.4	-40.9	20.4	0.00e+00	0	58	0	1514143744	43	3798
2026-01-02 04:54:34.97	199.57	21.31	-40.3	-40.8	20.5	0.00e+00	0	58	0	1521483776	43	3759
2026-01-02 04:54:35.97	199.59	21.17	-40.3	-40.8	20.5	0.00e+00	0	57	0	1528823808	43	3765
2026-01-02 04:54:36.96	199.62	21.04	-40.3	-40.8	20.5	0.00e+00	0	58	0	1536163840	43	3759
2026-01-02 04:54:37.95	199.64	20.90	-40.4	-40.9	20.5	0.00e+00	0	58	0	1542455296	43	3789
2026-01-02 04:54:38.94	199.66	20.77	-40.4	-40.8	20.4	0.00e+00	0	58	0	1549795328	43	3777
2026-01-02 04:54:39.94	199.69	20.63	-40.5	-41.0	20.4	0.00e+00	0	57	0	1557135360	43	3831
2026-01-02 04:54:40.93	199.71	20.50	-40.7	-41.3	20.1	0.00e+00	0	58	0	1564475392	43	3963
2026-01-02 04:54:41.92	199.73	20.37	-40.6	-41.1	20.2	0.00e+00	0	58	0	1571815424	43	3893
2026-01-02 04:54:42.91	199.76	20.24	-40.4	-40.9	20.2	0.00e+00	0	57	0	1579155456	43	3809
2026-01-02 04:54:43.89	199.78	20.11	-40.3	-40.8	20.5	0.00e+00	0	57	0	1585446912	43	3774
2026-01-02 04:54:44.88	199.80	19.98	-40.4	-40.9	20.4	0.00e+00	0	57	0	1592786944	43	3796
2026-01-02 04:54:45.87	199.83	19.85	-40.5	-41.0	20.3	0.00e+00	0	58	0	1600126976	43	3836
2026-01-02 04:54:46.86	199.85	19.72	-40.6	-41.1	20.2	0.00e+00	0	57	0	1607467008	43	3908
2026-01-02 04:54:47.85	199.87	19.60	-40.9	-41.4	20.0	0.00e+00	0	57	0	1614807040	43	4024
2026-01-02 04:54:48.84	199.89	19.47	-40.8	-41.3	20.1	0.00e+00	0	57	0	1622147072	43	3981
2026-01-02 04:54:49.83	199.91	19.34	-40.6	-41.1	20.2	0.00e+00	0	57	0	1628438528	43	3902
2026-01-02 04:54:50.82	199.94	19.22	-40.6	-41.1	20.2	0.00e+00	0	57	0	1635778560	43	3902
2026-01-02 04:54:51.81	199.96	19.09	-40.7	-41.1	20.2	0.00e+00	0	57	0	1643118592	43	3913
2026-01-02 04:54:52.80	199.98	18.97	-40.7	-41.2	20.2	0.00e+00	0	58	0	1650458624	43	3933
2026-01-02 04:54:53.80	200.00	18.84	-40.8	-41.3	20.1	0.00e+00	0	57	0	1657798656	43	3966
2026-01-02 04:54:54.79	200.02	18.72	-40.9	-41.4	19.9	0.00e+00	0	57	0	1664090112	43	4045
2026-01-02 04:54:55.79	200.04	18.59	-40.9	-41.4	19.9	0.00e+00	0	58	0	1671430144	43	4041
2026-01-02 04:54:56.77	200.07	18.47	-41.0	-41.5	19.8	0.00e+00	0	58	0	1678770176	43	4094
2026-01-02 04:54:57.76	200.09	18.35	-41.0	-41.5	19.8	0.00e+00	0	57	0	1686110208	43	4086
2026-01-02 04:54:58.75	200.11	18.23	-40.9	-41.5	19.9	0.00e+00	0	57	0	1693450240	43	4052
2026-01-02 04:54:59.74	200.13	18.11	-41.0	-41.6	19.7	0.00e+00	0	57	0	1700790272	43	4099
2026-01-02 04:55:00.73	200.15	17.99	-41.2	-41.7	19.6	0.00e+00	0	57	0	1707081728	43	4169
2026-01-02 04:55:01.72	200.17	17.87	-41.2	-41.8	19.5	0.00e+00	0	57	0	1714421760	44	3963
2026-01-02 04:55:02.71	200.19	17.75	-41.2	-41.7	19.7	0.00e+00	0	58	0	1721761792	44	3953
2026-01-02 04:55:03.70	200.21	17.64	-41.3	-41.8	19.6	0.00e+00	0	57	0	1729101824	44	3980
2026-01-02 04:55:04.68	200.23	17.52	-41.4	-42.0	19.4	0.00e+00	0	57	0	1736441856	44	4068
2026-01-02 04:55:05.67	200.25	17.40	-41.5	-42.0	19.4	0.00e+00	0	57	0	1742733312	44	4080
2026-01-02 04:55:06.66	200.27	17.29	-41.5	-42.1	19.3	0.00e+00	0	57	0	1750073344	44	4119
2026-01-02 04:55:07.66	200.29	17.17	-41.6	-42.1	19.3	0.00e+00	0	57	0	1757413376	44	4145
2026-01-02 04:55:08.65	200.31	17.05	-41.5	-42.0	19.4	0.00e+00	0	57	0	1764753408	44	4082
2026-01-02 04:55:09.64	200.33	16.94	-41.5	-42.0	19.4	0.00e+00	0	58	0	1772093440	44	4092
2026-01-02 04:55:10.63	200.35	16.83	-41.7	-42.3	19.1	0.00e+00	0	57	0	1779433472	44	4195
2026-01-02 04:55:11.62	200.37	16.71	-41.7	-42.3	19.2	0.00e+00	0	57	0	1785724928	45	3969
2026-01-02 04:55:12.61	200.38	16.60	-41.6	-42.2	19.2	0.00e+00	0	57	0	1793064960	45	3935
2026-01-02 04:55:13.61	200.40	16.48	-41.7	-42.3	19.1	0.00e+00	0	57	0	1800404992	45	3967
2026-01-02 04:55:14.59	200.42	16.37	-41.8	-42.4	19.0	0.00e+00	0	57	0	1807745024	45	4045
2026-01-02 04:55:15.58	200.44	16.26	-41.9	-42.4	18.9	0.00e+00	0	58	0	1815085056	45	4049
2026-01-02 04:55:16.57	200.46	16.15	-41.8	-42.4	19.0	0.00e+00	0	57	0	1821376512	45	4016
2026-01-02 04:55:17.56	200.48	16.04	-41.9	-42.5	18.3	0.00e+00	0	58	0	1828716544	45	4061
2026-01-02 04:55:18.55	200.50	15.93	-41.9	-42.5	18.9	0.00e+00	0	57	0	1836056576	45	4073
2026-01-02 04:55:19.54	200.51	15.82	-42.0	-42.6	18.8	0.00e+00	0	57	0	1843396608	45	4112
2026-01-02 04:55:20.53	200.53	15.71	-42.0	-42.6	18.8	0.00e+00	0	57	0	1850736640	45	4127
2026-01-02 04:55:21.52	200.55	15.60	-41.9	-42.5	18.9	0.00e+00	0	58	0	1857028096	45	4061
2026-01-02 04:55:22.51	200.57	15.50	-41.9	-42.5	18.8	0.00e+00	0	57	0	1864368128	45	4086
2026-01-02 04:55:23.50	200.59	15.39	-42.0	-42.6	18.8	0.00e+00	0	57	0	1871708160	45	4128
2026-01-02 04:55:24.49	200.60	15.28	-42.1	-42.7	18.7	0.00e+00	0	58	0	1879048192	45	4169
2026-01-02 04:55:25.49	200.62	15.17	-42.1	-42.8	18.6	0.00e+00	0	58	0	1886388224	46	3966
2026-01-02 04:55:26.49	200.64	15.07	-42.1	-42.7	18.6	0.00e+00	0	57	0	1893728256	46	3956
2026-01-02 04:55:27.48	200.66	14.96	-42.1	-42.8	18.6	0.00e+00	0	57	0	1901068288	46	3967
2026-01-02 04:55:28.47	200.67	14.85	-42.3	-42.9	18.5	0.00e+00	0	57	0	1907359744	46	4034
2026-01-02 04:55:29.46	200.69	14.75	-42.4	-43.0	18.4	0.00e+00	0	57	0	1914699776	46	4086
2026-01-02 04:55:30.44	200.71	14.65	-42.4	-43.0	18.4	0.00e+00	0	57	0	1922039808	46	4083
2026-01-02 04:55:31.43	200.73	14.54	-42.5	-43.2	18.1	0.00e+00	0	57	0	1929379840	46	4178
2026-01-02 04:55:32.42	200.74	14.44	-42.6	-43.3	18.1	0.00e+00	0	57	0	1935671296	46	4196
2026-01-02 04:55:33.41	200.76	14.34	-42.6	-43.2	18.2	0.00e+00	0	57	0	1943011328	46	4176
2026-01-02 04:55:34.40	200.78	14.23	-42.8	-43.4	17.9	0.00e+00	0	57	0	1950351360	47	4044
2026-01-02 04:55:35.39	200.79	14.13	-42.9	-43.6	17.8	0.00e+00	0	58	0	1957691392	47	4125
2026-01-02 04:55:36.38	200.81	14.03	-42.8	-43.5	17.9	0.00e+00	0	57	0	1965031424	47	4083
2026-01-02 04:55:37.37	200.83	13.93	-42.8	-43.5	17.9	0.00e+00	0	57	0	1971322880	47	4077
2026-01-02 04:55:38.36	200.84	13.83	-42.9	-43.6	17.7	0.00e+00	0	57	0	1978662912	47	4133
2026-01-02 04:55:39.35	200.86	13.73	-43.0	-43.7	17.6	0.00e+00	0	57	0	1986002944	47	4174
2026-01-02 04:55:40.33	200.87	13.63	-42.9	-43.6	17.8	0.00e+00	0	57	0	1993342976	47	4112
2026-01-02 04:55:41.32	200.89	13.53	-42.9	-43.6	17.8	0.00e+00	0	58	0	2000683008	47	4128
2026-01-02 04:55:42.31	200.91	13.43	-42.9	-43.6	17.7	0.00e+00	0	57	0	2006974464	47	4100
2026-01-02 04:55:43.30	200.92	13.33	-42.6	-43.3	18.0	0.00e+00	0	57	0	2014314496	47	3994
2026-01-02 04:55:44.29	200.94	13.23	-42.5	-43.2	18.2	0.00e+00	0	57	0	2021654528	47	3920
2026-01-02 04:55:45.28	200.95	13.13	-42.4	-43.1	18.3	0.00e+00	0	58	0	2028994560	47	3888
2026-01-02 04:55:46.27	200.97	13.04	-42.5	-43.1	18.2	0.00e+00	0	57	0	2036334592	47	3897
2026-01-02 04:55:47.27	200.99	12.94	-42.5	-43.2	18.2	0.00e+00	0	57	0	2043674624	47	3919
2026-01-02 04:55:48.27	201.00	12.84	-42.5	-43.2	18.1	0.00e+00	0	57	0	2049966080	47	3928
2026-01-02 04:55:49.26	201.02	12.74	-42.6	-43.3	18.1	0.00e+00	0	57	0	2057306112	47	3963
2026-01-02 04:55:50.25	201.03	12.65	-42.7	-43.4	18.0	0.00e+00	0	57	0	2064646144	47	4011
2026-01-02 04:55:51.24	201.05	12.55	-42.8	-43.5	17.8	0.00e+00	0	57	0	2071986176	47	4084
2026-01-02 04:55:52.23	201.06	12.46	-42.7	-43.4	17.9	0.00e+00	0	58	0	2079326208	47	4021
2026-01-02 04:55:53.22	201.08	12.36	-42.6	-43.3	18.0	0.00e+00	0	57	0	2086666240	47	3998
2026-01-02 04:55:54.21	201.09	12.27	-42.6	-43.3	18.0	0.00e+00	0	57	0	2092957696	47	3987
2026-01-02 04:55:55.20	201.11	12.17	-42.6	-43.3	18.0	0.00e+00	0	57	0	2100297728	47	3996
2026-01-02 04:55:56.19	201.12	12.08	-42.8	-43.5	17.8	0.00e+00	0	57	0	2107637760	47	4060
2026-01-02 04:55:57.18	201.14	11.98	-42.7	-43.4	17.9	0.00e+00	0	57	0	2114977792	47	4033
2026-01-02 04:55:58.18	201.15	11.89	-42.8	-43.6	17.7	0.00e+00	0	57	0	2122317824	47	4103
2026-01-02 04:55:59.17	201.17	11.80	-43.0	-43.8	17.5	0.00e+00	0	57	0	2128609280	47	4197
2026-01-02 04:56:00.16	201.18	11.70	-42.8	-43.5	17.7	0.00e+00	0	57	0	2135949312	47	4091
2026-01-02 04:56:01.15	201.20	11.61	-43.0	-43.7	17.6	0.00e+00	0	57	0	2143289344	47	4169
2026-01-02 04:56:02.14	201.21	11.52	-42.9	-43.6	17.7	0.00e+00	0	57	0	2150629376	47	4129
2026-01-02 04:56:03.14	201.23	11.43	-42.9	-43.7	17.6	0.00e+00	0	58	0	2157969408	47	4148
2026-01-02 04:56:04.13	201.24	11.34	-43.0	-43.8	17.5	0.00e+00	0	57	0	2165309440	47	4196
2026-01-02 04:56:05.11	201.25	11.25	-43.0	-43.7	17.5	0.00e+00	0	57	0	2171600896	47	4186
2026-01-02 04:56:06.10	201.27	11.16	-43.0	-43.8	17.5	0.00e+00	0	57	0	2178940928	47	4195
2026-01-02 04:56:07.09	201.28	11.07	-43.1	-43.9	17.4	0.00e+00	0	57	0	2186280960	47	4250
2026-01-02 04:56:08.09	201.30	10.98	-43.5	-44.3	17.2	0.00e+00	0	57	0	2193620992	48	4194
2026-01-02 04:56:09.08	201.31	10.89	-43.3	-44.0	17.4	0.00e+00	0	57	0	2200961024	48	4088
2026-01-02 04:56:10.06	201.32	10.80	-43.2	-43.9	17.5	0.00e+00	0	57	0	2208301056	48	4048
2026-01-02 04:56:11.05	201.34	10.71	-43.2	-43.9	17.5	0.00e+00	0	57	0	2214592512	48	4039
2026-01-02 04:56:12.04	201.35	10.62	-43.2	-44.0	17.5	0.00e+00	0	57	0	2221932544	48	4063
2026-01-02 04:56:13.02	201.37	10.53	-43.4	-44.1	17.3	0.00e+00	0	57	0	2229272576	48	4131
2026-01-02 04:56:14.01	201.38	10.45	-43.6	-44.3	17.1	0.00e+00	0	58	0	2236612608	48	4237
2026-01-02 04:56:15.01	201.39	10.36	-43.5	-44.2	17.2	0.00e+00	0	57	0	2243952640	48	4173
2026-01-02 04:56:15.99	201.41	10.27	-43.4	-44.1	17.3	0.00e+00	0	57	0	2250244096	48	4123
2026-01-02 04:56:16.98	201.42	10.18	-43.4	-44.2	17.2	0.00e+00	0	57	0	2257584128	48	4151
2026-01-02 04:56:17.97	201.43	10.10	-43.4	-44.2	17.2	0.00e+00	0	57	0	2264924160	48	4154
2026-01-02 04:56:18.96	201.45	10.01	-43.5	-44.3	17.1	0.00e+00	0	58	0	2272264192	48	4216
2026-01-02 04:56:19.95	201.46	9.93	-43.4	-44.2	17.2	0.00e+00	0	57	0	2279604224	48	4175
2026-01-02 04:56:20.93	201.47	9.84	-43.7	-44.5	16.9	0.00e+00	0	58	0	2286944256	48	4295
2026-01-02 04:56:21.92	201.49	9.75	-43.5	-44.3	17.1	0.00e+00	0	57	0	2293235712	49	3990
2026-01-02 04:56:22.91	201.50	9.67	-43.4	-44.2	17.2	0.00e+00	0	57	0	2300575744	49	3936
2026-01-02 04:56:23.89	201.51	9.59	-43.5	-44.3	17.1	0.00e+00	0	57	0	2307915776	49	3976
2026-01-02 04:56:24.88	201.53	9.50	-43.7	-44.5	16.8	0.00e+00	0	57	0	2315255808	49	4095
2026-01-02 04:56:25.87	201.54	9.42	-43.7	-44.5	16.9	0.00e+00	0	57	0	2321547264	49	4066
2026-01-02 04:56:26.87	201.55	9.33	-43.6	-44.4	16.7	0.00e+00	0	58	0	2328887296	49	4010
2026-01-02 04:56:27.85	201.57	9.25	-43.7	-44.5	16.8	0.00e+00	0	57	0	2336227328	49	4071
2026-01-02 04:56:28.83	201.58	9.17	-43.9	-44.7	16.7	0.00e+00	0	57	0	2343567360	49	4166
2026-01-02 04:56:29.82	201.59	9.08	-43.9	-44.7	16.7	0.00e+00	0	58	0	2349858816	49	4157
2026-01-02 04:56:30.80	201.60	9.00	-43.7	-44.6	16.8	0.00e+00	0	57	0	2357198848	49	4099
2026-01-02 04:56:31.79	201.62	8.92	-43.7	-44.5	16.8	0.00e+00	0	57	0	2364538880	49	4082
2026-01-02 04:56:32.78	201.63	8.84	-43.8	-44.6	16.8	0.00e+00	0	58	0	2371878912	49	4115
2026-01-02 04:56:33.78	201.64	8.75	-43.9	-44.8	16.5	0.00e+00	0	57	0	2379218944	49	4198
2026-01-02 04:56:34.78	201.65	8.67	-43.9	-44.7	16.6	0.00e+00	0	57	0	2386558976	49	4177
2026-01-02 04:56:35.76	201.67	8.59	-44.0	-44.8	16.5	0.00e+00	0	58	0	2392850432	49	4233
2026-01-02 04:56:36.75	201.68	8.51	-44.2	-45.1	16.2	0.00e+00	0	57	0	2400190464	50	4131
2026-01-02 04:56:37.74	201.69	8.43	-44.2	-45.1	16.2	0.00e+00	0	57	0	2407530496	50	4104
2026-01-02 04:56:38.73	201.70	8.35	-44.0	-44.9	16.4	0.00e+00	0	58	0	2414870528	50	4011
2026-01-02 04:56:39.72	201.72	8.27	-44.1	-44.9	16.4	0.00e+00	0	57	0	2422210560	50	4040
2026-01-02 04:56:40.71	201.73	8.19	-44.2	-45.1	16.2	0.00e+00	0	57	0	2429550592	50	4119
2026-01-02 04:56:41.69	201.74	8.11	-44.2	-45.1	16.1	0.00e+00	0	57	0	2435842048	50	4140
2026-01-02 04:56:42.69	201.75	8.03	-44.2	-45.1	16.2	0.00e+00	0	58	0	2443182080	50	4112
2026-01-02 04:56:43.67	201.77	7.95	-44.3	-45.2	16.1	0.00e+00	0	57	0	2450522112	50	4146
2026-01-02 04:56:44.66	201.78	7.87	-44.3	-45.2	16.0	0.00e+00	0	57	0	2457862144	50	4187
2026-01-02 04:56:45.65	201.79	7.79	-44.2	-45.1	16.1	0.00e+00	0	57	0	2465202176	50	4145
2026-01-02 04:56:46.64	201.80	7.71	-44.5	-45.4	15.9	0.00e+00	0	57	0	2471493632	50	4263
2026-01-02 04:56:47.63	201.81	7.63	-44.5	-45.4	15.8	0.00e+00	0	57	0	2478833664	50	4275
2026-01-02 04:56:48.62	201.83	7.55	-44.2	-45.1	16.1	0.00e+00	0	57	0	2486173696	50	4144
2026-01-02 04:56:49.62	201.84	7.48	-44.0	-44.9	16.3	0.00e+00	0	57	0	2493513728	50	4036
2026-01-02 04:56:50.61	201.85	7.40	-44.1	-45.0	16.2	0.00e+00	0	57	0	2500853760	50	4083
2026-01-02 04:56:51.59	201.86	7.32	-44.3	-45.2	16.0	0.00e+00	0	58	0	2508193792	50	4165
2026-01-02 04:56:52.58	201.87	7.24	-44.4	-45.4	15.8	0.00e+00	0	57	0	2514485248	50	4249
2026-01-02 04:56:53.57	201.88	7.17	-44.4	-45.4	15.8	0.00e+00	0	58	0	2521825280	50	4258
2026-01-02 04:56:54.56	201.90	7.09	-44.4	-45.4	15.8	0.00e+00	0	57	0	2529165312	50	4257
2026-01-02 04:56:55.56	201.91	7.01	-44.5	-45.4	15.7	0.00e+00	0	58	0	2536505344	50	4288
2026-01-02 04:56:56.54	201.92	6.94	-44.6	-45.6	15.6	0.00e+00	0	57	0	2543845376	50	4343
2026-01-02 04:56:57.53	201.93	6.86	-44.5	-45.5	15.6	0.00e+00	0	57	0	2551185408	50	4323
2026-01-02 04:56:58.52	201.94	6.78	-44.6	-45.6	15.5	0.00e+00	0	57	0	2557476864	50	4358
2026-01-02 04:56:59.51	201.95	6.71	-44.8	-45.8	15.3	1.10e-06	0	57	0	2564816896	51	4229
2026-01-02 04:57:00.50	201.96	6.63	-44.8	-45.8	15.3	0.00e+00	0	57	0	2572156928	51	4233
2026-01-02 04:57:01.49	201.98	6.56	-44.6	-45.6	15.4	0.00e+00	0	57	0	2579496960	51	4140
2026-01-02 04:57:02.48	201.99	6.48	-44.5	-45.5	15.6	0.00e+00	0	57	0	2586836992	51	4058
2026-01-02 04:57:03.47	202.00	6.41	-44.4	-45.4	15.8	0.00e+00	0	57	0	2593128448	51	4013
2026-01-02 04:57:04.45	202.01	6.33	-44.5	-45.4	15.7	0.00e+00	0	57	0	2600468480	51	4042
2026-01-02 04:57:05.44	202.02	6.26	-44.5	-45.5	15.6	0.00e+00	0	57	0	2607808512	51	4071
2026-01-02 04:57:06.43	202.03	6.19	-44.4	-45.4	15.7	0.00e+00	0	57	0	2615148544	51	4029
2026-01-02 04:57:07.43	202.04	6.11	-44.3	-45.3	15.8	0.00e+00	0	57	0	2622488576	51	3980
2026-01-02 04:57:08.42	202.05	6.04	-44.3	-45.3	15.8	0.00e+00	0	57	0	2628780032	51	3980
2026-01-02 04:57:09.41	202.06	5.96	-44.4	-45.4	15.7	0.00e+00	0	57	0	2636120064	51	4034
2026-01-02 04:57:10.39	202.08	5.89	-44.4	-45.4	15.7	0.00e+00	0	57	0	2643460096	51	4006
2026-01-02 04:57:11.39	202.09	5.82	-44.5	-45.4	15.6	0.00e+00	0	58	0	2650800128	51	4048
2026-01-02 04:57:12.38	202.10	5.74	-44.6	-45.7	15.3	0.00e+00	0	57	0	2658140160	51	4146
2026-01-02 04:57:13.37	202.11	5.67	-44.7	-45.7	15.3	1.10e-06	0	57	0	2664431616	51	4184
2026-01-02 04:57:14.36	202.12	5.60	-44.7	-45.7	15.3	0.00e+00	0	57	0	2671771648	51	4159
2026-01-02 04:57:15.35	202.13	5.53	-44.8	-45.9	15.1	0.00e+00	0	58	0	2679111680	51	4246
2026-01-02 04:57:16.35	202.14	5.45	-44.9	-46.0	15.0	0.00e+00	0	57	0	2686451712	51	4293
2026-01-02 04:57:17.33	202.15	5.38	-44.8	-45.8	15.1	0.00e+00	0	57	0	2693791744	51	4232
2026-01-02 04:57:18.32	202.16	5.31	-44.7	-45.8	15.2	0.00e+00	0	57	0	2700083200	51	4216
2026-01-02 04:57:19.32	202.17	5.24	-44.8	-45.8	15.1	0.00e+00	0	57	0	2707423232	51	4214
2026-01-02 04:57:20.31	202.18	5.17	-44.9	-46.0	14.9	0.00e+00	0	57	0	2714763264	51	4317
2026-01-02 04:57:21.30	202.19	5.10	-44.9	-46.0	14.9	0.00e+00	0	57	0	2722103296	51	4300
2026-01-02 04:57:22.28	202.20	5.03	-48.8	-51.6	9.4	1.10e-06	0	57	0	2729443328	59	5175
2026-01-02 04:57:23.26	202.21	4.96	-51.8	-62.0	3.8	8.45e-01	0	57	104	2730491904	65	12139
2026-01-02 04:57:24.25	202.23	4.89	-52.1	-62.3	3.8	8.46e-01	0	57	104	2730491904	65	12582
2026-01-02 04:57:25.24	202.24	4.81	-52.3	-62.5	3.8	8.47e-01	0	57	104	2730491904	66	12102
2026-01-02 04:57:26.23	202.25	4.74	-52.3	-62.5	3.8	8.46e-01	0	58	104	2730491904	66	12205
2026-01-02 04:57:27.21	202.26	4.68	-52.5	-62.6	3.8	8.47e-01	0	57	104	2730491904	66	12362
2026-01-02 04:57:28.20	202.27	4.61	-52.5	-62.7	3.8	8.46e-01	0	57	104	2730491904	66	12401
2026-01-02 04:57:29.20	202.28	4.53	-52.5	-62.7	3.8	8.47e-01	0	57	104	2730491904	66	12509
2026-01-02 04:57:30.18	202.29	4.47	-52.6	-62.8	3.8	8.47e-01	0	57	104	2730491904	66	12564
2026-01-02 04:57:31.17	202.30	4.40	-52.6	-62.8	3.8	8.46e-01	0	57	104	2730491904	66	12598
2026-01-02 04:57:32.16	202.31	4.33	-52.6	-62.8	3.8	8.46e-01	0	57	104	2730491904	66	12628
2026-01-02 04:57:33.15	202.32	4.26	-52.7	-62.9	3.8	8.45e-01	0	57	104	2730491904	67	11986
2026-01-02 04:57:34.13	202.33	4.19	-52.6	-62.9	3.8	8.47e-01	0	57	104	2730491904	67	11984
2026-01-02 04:57:35.12	202.34	4.12	-52.7	-62.9	3.8	8.46e-01	0	57	104	2730491904	67	12033
2026-01-02 04:57:36.10	202.35	4.05	-52.7	-62.9	3.8	8.45e-01	0	57	104	2730491904	67	11982
2026-01-02 04:57:37.10	202.36	3.99	-52.8	-62.9	3.8	8.46e-01	0	57	104	2730491904	67	12002
2026-01-02 04:57:38.08	202.37	3.92	-52.8	-62.9	3.8	8.47e-01	0	57	104	2730491904	67	12081
2026-01-02 04:57:39.07	202.38	3.85	-52.8	-62.9	3.7	8.46e-01	0	57	104	2730491904	67	11971
2026-01-02 04:57:40.07	202.39	3.78	-52.8	-62.9	3.8	8.46e-01	0	58	104	2730491904	67	12086
2026-01-02 04:57:41.06	202.40	3.71	-52.8	-63.0	3.8	8.46e-01	0	58	104	2730491904	67	12128
2026-01-02 04:57:42.05	202.41	3.65	-52.8	-62.9	3.8	8.46e-01	0	57	104	2730491904	67	12069
2026-01-02 04:57:43.04	202.42	3.58	-52.8	-63.0	3.8	8.46e-01	0	57	104	2730491904	67	12141
2026-01-02 04:57:44.03	202.43	3.51	-52.8	-63.0	3.8	8.46e-01	0	57	104	2730491904	67	12125
2026-01-02 04:57:45.02	202.44	3.45	-52.8	-63.0	3.8	8.45e-01	0	57	104	2730491904	67	12145
2026-01-02 04:57:46.02	202.45	3.38	-52.8	-63.0	3.8	8.46e-01	0	58	104	2730491904	67	12116
2026-01-02 04:57:47.01	202.46	3.31	-52.7	-62.9	3.8	8.46e-01	0	57	104	2730491904	67	12092
2026-01-02 04:57:48.00	202.47	3.24	-52.8	-62.9	3.8	8.47e-01	0	58	104	2730491904	67	12081
2026-01-02 04:57:48.98	202.48	3.18	-52.8	-63.0	3.8	8.46e-01	0	58	104	2730491904	67	12135
2026-01-02 04:57:49.98	202.49	3.11	-52.7	-63.0	3.8	8.47e-01	0	58	104	2730491904	67	12095
2026-01-02 04:57:50.97	202.50	3.05	-52.8	-62.9	3.8	8.47e-01	0	57	104	2730491904	67	12085
2026-01-02 04:57:51.96	202.50	2.98	-52.8	-62.9	3.8	8.45e-01	0	57	104	2730491904	67	12075
2026-01-02 04:57:52.95	202.51	2.91	-52.7	-62.9	3.8	8.47e-01	0	58	104	2730491904	67	12062

#Closed at: 2026-01-02 04:57:53
#Recorded file [2730 MB]: D:/Data/31026_260102_075722.dat