passes_logs/2026/01/02/R3.0SM8_Murmansk_STILSPACE/R3.0SM8_Murmansk_STILSPACE__20260102_062411_NOAA_21_JPSS-2_rec.log

#Pass ID: 20260102_062411_NOAA 21 (JPSS-2)
#Satellite: NOAA 21 (JPSS-2)
#Configuration: NOAA-21
#almurnet v.1.7.20240730
#Start time: 2026-01-02 06:28:58

#Version: 2.2.20231116
#Station: R3.0SM8_Murmansk_STILSPACE
#Location: 33.092731 lon 68.902999 lat
#TLE: 1 54234U 22150A   26001.26806856  .00000185  00000+0  10843-3 0  9990
#TLE: 2 54234  98.7484 302.3349 0001277 353.3887   6.7272 14.19530660162860

#Time	Az	El	Level	Level2	SNR	BER	BlckErr	Temp	State	Recorded	gain1	gain2
2026-01-02 06:28:58.94	43.39	23.53	-52.6	-63.4	3.8	8.46e-01	0	57	0	0	67	12949
2026-01-02 06:28:59.92	43.14	23.59	-52.7	-64.3	3.8	1.49e+00	0	57	104	0	68	13514
2026-01-02 06:29:00.91	42.88	23.65	-52.7	-64.3	3.8	1.49e+00	0	57	104	0	68	13552
2026-01-02 06:29:01.90	42.63	23.71	-52.9	-64.4	3.8	1.49e+00	0	57	104	0	68	13635
2026-01-02 06:29:02.88	42.38	23.77	-52.8	-64.3	3.8	1.49e+00	0	57	104	0	68	13568
2026-01-02 06:29:03.88	42.12	23.83	-52.9	-64.4	3.8	1.49e+00	0	57	104	0	68	13584
2026-01-02 06:29:04.86	41.87	23.89	-52.9	-64.4	3.8	1.49e+00	0	57	104	0	68	13570
2026-01-02 06:29:05.85	41.61	23.95	-52.8	-64.4	3.8	1.49e+00	0	57	104	0	68	13570
2026-01-02 06:29:06.84	41.35	24.01	-52.8	-64.3	3.8	1.49e+00	0	57	104	0	68	13558
2026-01-02 06:29:07.83	41.09	24.07	-52.7	-64.3	3.8	1.49e+00	0	57	104	0	68	13460
2026-01-02 06:29:08.83	40.83	24.12	-52.8	-64.3	3.8	1.49e+00	0	57	104	0	68	13493
2026-01-02 06:29:09.81	40.57	24.18	-52.8	-64.3	3.8	1.49e+00	0	57	104	0	68	13467
2026-01-02 06:29:10.80	40.31	24.24	-52.7	-64.3	3.8	1.49e+00	0	57	104	0	68	13470
2026-01-02 06:29:11.79	40.05	24.29	-52.8	-64.3	3.8	1.49e+00	0	57	104	0	68	13509
2026-01-02 06:29:12.78	39.78	24.35	-52.6	-64.2	3.8	1.49e+00	0	57	104	0	68	13406
2026-01-02 06:29:13.78	39.51	24.40	-52.7	-64.2	3.8	1.49e+00	0	57	104	0	68	13327
2026-01-02 06:29:14.77	39.25	24.46	-52.7	-64.2	3.8	1.49e+00	0	57	104	0	68	13339
2026-01-02 06:29:15.76	38.98	24.51	-52.6	-64.2	3.8	1.49e+00	0	57	104	0	68	13318
2026-01-02 06:29:16.74	38.72	24.56	-52.7	-64.2	3.8	1.49e+00	0	57	104	0	68	13291
2026-01-02 06:29:17.73	38.45	24.62	-52.5	-64.0	3.8	1.49e+00	0	57	104	0	67	13731
2026-01-02 06:29:18.72	38.18	24.67	-52.3	-63.9	3.8	1.49e+00	0	57	104	0	67	13721
2026-01-02 06:29:19.71	37.91	24.72	-52.5	-64.0	3.8	1.49e+00	0	57	104	0	67	13768
2026-01-02 06:29:20.70	37.64	24.77	-52.5	-63.9	3.8	1.49e+00	0	57	104	0	67	13636
2026-01-02 06:29:21.69	37.36	24.82	-52.4	-63.9	3.8	1.49e+00	0	57	104	0	67	13581
2026-01-02 06:29:22.67	37.09	24.87	-52.5	-63.8	3.8	1.49e+00	0	57	104	0	67	13543
2026-01-02 06:29:23.65	36.82	24.92	-52.5	-63.9	3.8	1.49e+00	0	57	104	0	67	13606
2026-01-02 06:29:24.65	36.55	24.96	-52.5	-63.8	3.8	1.49e+00	0	57	104	0	67	13559
2026-01-02 06:29:25.63	36.27	25.01	-52.5	-63.9	3.8	1.49e+00	0	57	104	0	67	13604
2026-01-02 06:29:26.62	36.00	25.06	-52.5	-63.9	3.8	1.49e+00	0	57	104	0	67	13603
2026-01-02 06:29:27.61	35.72	25.11	-52.5	-63.9	3.8	1.49e+00	0	57	104	0	67	13588
2026-01-02 06:29:28.60	35.44	25.15	-52.5	-63.8	3.8	1.49e+00	0	57	104	0	67	13538
2026-01-02 06:29:29.58	35.17	25.20	-52.4	-63.8	3.8	1.49e+00	0	57	104	0	67	13555
2026-01-02 06:29:30.56	34.89	25.24	-52.5	-63.9	3.8	1.49e+00	0	57	104	0	67	13591
2026-01-02 06:29:31.54	34.61	25.28	-52.5	-63.8	3.8	1.49e+00	0	57	104	0	67	13455
2026-01-02 06:29:32.53	34.33	25.33	-52.5	-63.6	3.8	1.49e+00	0	57	104	0	67	13230
2026-01-02 06:29:33.51	34.05	25.37	-52.4	-63.6	3.8	1.49e+00	0	57	104	0	67	13136
2026-01-02 06:29:34.51	33.77	25.41	-52.5	-63.7	3.8	1.49e+00	0	57	104	0	67	13296
2026-01-02 06:29:35.50	33.48	25.45	-52.5	-63.8	3.8	1.49e+00	0	57	104	0	67	13513
2026-01-02 06:29:36.48	33.20	25.49	-52.5	-63.8	3.8	1.49e+00	0	57	104	0	67	13492
2026-01-02 06:29:37.46	32.92	25.53	-52.4	-63.5	3.8	1.49e+00	0	57	104	0	67	13019
2026-01-02 06:29:38.46	32.63	25.57	-52.4	-63.2	3.8	1.49e+00	0	57	104	0	67	12598
2026-01-02 06:29:39.45	32.35	25.61	-52.3	-62.8	3.8	1.49e+00	0	57	104	0	67	12047
2026-01-02 06:29:40.44	32.06	25.64	-52.3	-62.7	3.8	1.49e+00	0	57	104	0	67	11820
2026-01-02 06:29:41.43	31.77	25.68	-52.4	-62.6	3.8	1.49e+00	0	57	104	0	67	11799
2026-01-02 06:29:42.41	31.49	25.71	-52.4	-62.7	3.8	1.49e+00	0	57	104	0	67	11948
2026-01-02 06:29:43.40	31.20	25.75	-52.4	-62.7	3.8	1.49e+00	0	57	104	0	67	11858
2026-01-02 06:29:44.40	30.90	25.78	-52.1	-62.6	3.8	1.49e+00	0	57	104	0	67	11685
2026-01-02 06:29:45.38	30.62	25.82	-52.3	-62.7	3.8	1.49e+00	0	57	104	0	67	11920
2026-01-02 06:29:46.37	30.33	25.85	-52.4	-63.2	3.8	1.49e+00	0	57	104	0	67	12552
2026-01-02 06:29:47.36	30.03	25.88	-52.3	-62.0	3.8	1.49e+00	0	57	104	0	67	10998
2026-01-02 06:29:48.35	29.74	25.91	-51.7	-58.1	5.1	1.19e+00	0	57	0	0	66	7445
2026-01-02 06:29:49.34	29.45	25.94	-50.4	-54.4	8.2	1.42e-01	0	57	0	3145728	64	5409
2026-01-02 06:29:50.33	29.16	25.97	-48.9	-51.4	11.4	2.84e-03	0	57	0	6291456	61	4567
2026-01-02 06:29:51.32	28.86	26.00	-47.6	-49.3	13.6	1.90e-05	0	57	0	9437184	58	4288
2026-01-02 06:29:52.31	28.57	26.03	-47.1	-48.6	14.3	2.20e-06	0	57	0	12582912	57	4180
2026-01-02 06:29:53.30	28.28	26.06	-47.1	-48.7	14.3	1.50e-06	0	57	0	15728640	57	4196
2026-01-02 06:29:54.29	27.98	26.08	-47.2	-48.7	14.2	7.00e-07	0	57	0	17825792	57	4223
2026-01-02 06:29:55.28	27.68	26.11	-47.2	-48.7	14.2	0.00e+00	0	57	0	20971520	57	4225
2026-01-02 06:29:56.27	27.39	26.13	-47.2	-48.8	14.2	1.50e-06	0	57	0	24117248	57	4250
2026-01-02 06:29:57.26	27.09	26.16	-47.3	-48.9	14.0	3.00e-06	0	57	0	27262976	57	4328
2026-01-02 06:29:58.24	26.80	26.18	-47.2	-48.8	14.2	7.00e-07	0	57	0	30408704	57	4252
2026-01-02 06:29:59.24	26.50	26.20	-46.6	-48.0	15.0	0.00e+00	0	58	0	33554432	56	4113
2026-01-02 06:30:00.23	26.20	26.22	-46.0	-47.2	15.6	0.00e+00	0	57	0	36700160	55	3990
2026-01-02 06:30:01.22	25.90	26.25	-45.6	-46.8	16.0	0.00e+00	0	57	0	39845888	54	4029
2026-01-02 06:30:02.21	25.60	26.27	-45.2	-46.3	16.5	0.00e+00	0	57	0	42991616	53	4041
2026-01-02 06:30:03.19	25.31	26.28	-45.0	-46.1	16.7	0.00e+00	0	57	0	46137344	53	3931
2026-01-02 06:30:04.18	25.01	26.30	-44.9	-46.0	16.8	0.00e+00	0	57	0	49283072	53	3885
2026-01-02 06:30:05.17	24.71	26.32	-44.9	-46.0	16.8	0.00e+00	0	57	0	52428800	53	3876
2026-01-02 06:30:06.15	24.41	26.34	-45.1	-46.1	16.6	0.00e+00	0	57	0	55574528	53	3948
2026-01-02 06:30:07.13	24.11	26.35	-44.8	-45.8	17.0	0.00e+00	0	57	0	58720256	52	4033
2026-01-02 06:30:08.12	23.81	26.37	-44.6	-45.6	17.2	0.00e+00	0	57	0	61865984	52	3930
2026-01-02 06:30:09.11	23.51	26.38	-44.6	-45.5	17.3	0.00e+00	0	57	0	65011712	52	3904
2026-01-02 06:30:10.10	23.21	26.39	-44.5	-45.5	17.3	0.00e+00	0	57	0	68157440	52	3875
2026-01-02 06:30:11.09	22.91	26.40	-44.4	-45.3	17.6	0.00e+00	0	57	0	70254592	51	4045
2026-01-02 06:30:12.08	22.61	26.42	-44.3	-45.2	17.7	0.00e+00	0	57	0	73400320	51	3999
2026-01-02 06:30:13.07	22.31	26.43	-44.6	-45.5	17.3	0.00e+00	0	57	0	76546048	51	4138
2026-01-02 06:30:14.07	22.00	26.44	-44.4	-45.3	17.5	0.00e+00	0	57	0	79691776	51	4042
2026-01-02 06:30:15.06	21.70	26.44	-44.2	-45.1	17.7	0.00e+00	0	57	0	82837504	51	3955
2026-01-02 06:30:16.04	21.40	26.45	-44.5	-45.4	17.4	0.00e+00	0	57	0	85983232	51	4095
2026-01-02 06:30:17.03	21.10	26.46	-44.4	-45.3	17.6	0.00e+00	0	57	0	89128960	51	4033
2026-01-02 06:30:18.01	20.80	26.46	-44.6	-45.5	17.3	0.00e+00	0	58	0	92274688	51	4136
2026-01-02 06:30:19.00	20.50	26.47	-44.8	-45.7	17.1	0.00e+00	0	57	0	95420416	51	4242
2026-01-02 06:30:19.98	20.20	26.47	-44.5	-45.4	17.4	0.00e+00	0	57	0	98566144	51	4093
2026-01-02 06:30:20.97	19.90	26.48	-44.4	-45.4	17.5	0.00e+00	0	57	0	101711872	51	4053
2026-01-02 06:30:21.96	19.59	26.48	-44.5	-45.4	17.5	0.00e+00	0	57	0	104857600	51	4080
2026-01-02 06:30:22.95	19.29	26.48	-44.5	-45.5	17.4	0.00e+00	0	57	0	108003328	51	4114
2026-01-02 06:30:23.94	18.99	26.48	-44.7	-45.7	17.2	0.00e+00	0	57	0	111149056	51	4219
2026-01-02 06:30:24.93	18.68	26.48	-44.7	-45.7	17.1	0.00e+00	0	57	0	114294784	51	4213
2026-01-02 06:30:25.91	18.38	26.48	-44.9	-46.0	16.9	0.00e+00	0	57	0	117440512	51	4358
2026-01-02 06:30:26.90	18.08	26.48	-44.7	-45.6	17.2	0.00e+00	0	57	0	120586240	51	4183
2026-01-02 06:30:27.89	17.78	26.48	-44.5	-45.4	17.4	0.00e+00	0	57	0	122683392	51	4086
2026-01-02 06:30:28.88	17.48	26.47	-44.4	-45.3	17.6	0.00e+00	0	57	0	125829120	51	4019
2026-01-02 06:30:29.86	17.18	26.47	-44.2	-45.2	17.7	0.00e+00	0	57	0	128974848	51	3960
2026-01-02 06:30:30.85	16.87	26.46	-44.1	-45.0	17.8	0.00e+00	0	57	0	132120576	51	3878
2026-01-02 06:30:31.84	16.57	26.46	-43.8	-44.7	18.1	0.00e+00	0	57	0	135266304	50	3972
2026-01-02 06:30:32.83	16.27	26.45	-43.7	-44.5	18.3	0.00e+00	0	57	0	138412032	50	3884
2026-01-02 06:30:33.81	15.97	26.44	-43.5	-44.3	18.3	0.00e+00	0	57	0	141557760	50	3812
2026-01-02 06:30:34.81	15.67	26.43	-43.4	-44.2	18.3	0.00e+00	0	57	0	144703488	50	3771
2026-01-02 06:30:35.79	15.37	26.42	-43.4	-44.2	18.4	0.00e+00	0	57	0	147849216	49	3964
2026-01-02 06:30:36.78	15.07	26.41	-43.3	-44.2	18.3	0.00e+00	0	57	0	150994944	49	3968
2026-01-02 06:30:37.76	14.77	26.40	-43.4	-44.3	18.1	0.00e+00	0	57	0	154140672	49	4021
2026-01-02 06:30:38.75	14.47	26.39	-43.6	-44.5	17.7	0.00e+00	0	57	0	157286400	49	4124
2026-01-02 06:30:39.74	14.17	26.37	-43.9	-44.9	17.4	0.00e+00	0	57	0	160432128	49	4309
2026-01-02 06:30:40.72	13.87	26.36	-44.4	-45.4	16.7	0.00e+00	0	57	0	163577856	50	4336
2026-01-02 06:30:41.70	13.57	26.34	-44.9	-46.0	16.1	0.00e+00	0	57	0	166723584	51	4367
2026-01-02 06:30:42.70	13.27	26.33	-45.3	-46.6	15.3	0.00e+00	0	57	0	169869312	52	4398
2026-01-02 06:30:43.68	12.97	26.31	-45.7	-47.1	14.6	0.00e+00	0	57	0	173015040	53	4435
2026-01-02 06:30:44.67	12.67	26.29	-46.0	-47.6	14.1	1.50e-06	0	57	0	176160768	53	4653
2026-01-02 06:30:45.67	12.37	26.28	-46.4	-48.1	13.5	9.90e-06	0	57	0	179306496	54	4673
2026-01-02 06:30:46.65	12.07	26.26	-46.6	-48.5	13.1	2.59e-05	0	57	0	182452224	55	4603
2026-01-02 06:30:47.65	11.77	26.24	-46.9	-48.9	12.7	7.01e-05	0	57	0	184549376	55	4825
2026-01-02 06:30:48.64	11.47	26.21	-47.3	-49.5	12.1	2.01e-04	0	57	0	187695104	56	4889
2026-01-02 06:30:49.64	11.17	26.19	-47.7	-50.2	11.3	7.57e-04	0	57	0	190840832	57	4993
2026-01-02 06:30:50.62	10.88	26.17	-47.9	-50.7	10.6	2.88e-03	0	57	0	193986560	57	5307
2026-01-02 06:30:51.61	10.58	26.15	-48.3	-51.3	9.9	7.21e-03	0	57	0	197132288	58	5400
2026-01-02 06:30:52.60	10.29	26.12	-48.4	-51.7	9.5	1.46e-02	0	57	0	200278016	58	5636
2026-01-02 06:30:53.59	9.99	26.10	-48.5	-51.7	9.5	1.43e-02	0	57	0	203423744	58	5616
2026-01-02 06:30:54.57	9.70	26.07	-48.3	-51.2	10.3	7.32e-03	0	57	0	206569472	58	5301
2026-01-02 06:30:55.56	9.41	26.05	-47.9	-50.4	11.3	1.52e-03	0	57	0	209715200	58	4841
2026-01-02 06:30:56.55	9.11	26.02	-47.6	-49.7	12.2	2.72e-04	0	57	0	212860928	58	4480
2026-01-02 06:30:57.55	8.81	25.99	-47.3	-49.2	13.0	6.40e-05	0	57	0	216006656	57	4462
2026-01-02 06:30:58.54	8.52	25.96	-47.1	-48.8	13.6	1.60e-05	0	57	0	219152384	57	4281
2026-01-02 06:30:59.52	8.23	25.93	-47.0	-48.6	14.1	1.50e-06	0	57	0	222298112	57	4146
2026-01-02 06:31:00.50	7.94	25.90	-47.0	-48.5	14.2	3.80e-06	0	57	0	225443840	56	4387
2026-01-02 06:31:01.49	7.65	25.87	-46.8	-48.3	14.4	1.50e-06	0	57	0	228589568	56	4290
2026-01-02 06:31:02.47	7.36	25.84	-46.1	-47.4	15.2	0.00e+00	0	57	0	231735296	55	4082
2026-01-02 06:31:03.47	7.07	25.80	-46.0	-47.3	15.3	0.00e+00	0	57	0	234881024	55	4049
2026-01-02 06:31:04.45	6.78	25.77	-46.0	-47.3	15.3	0.00e+00	0	57	0	238026752	55	4037
2026-01-02 06:31:05.44	6.49	25.73	-45.7	-47.0	15.7	0.00e+00	0	57	0	240123904	54	4101
2026-01-02 06:31:06.43	6.21	25.70	-45.5	-46.7	15.9	0.00e+00	0	57	0	243269632	54	3995
2026-01-02 06:31:07.42	5.92	25.66	-45.5	-46.7	15.9	0.00e+00	0	57	0	246415360	54	3991
2026-01-02 06:31:08.41	5.63	25.63	-45.7	-46.9	15.7	0.00e+00	0	57	0	249561088	54	4075
2026-01-02 06:31:09.40	5.34	25.59	-46.3	-47.7	14.8	7.00e-07	0	57	0	252706816	54	4487
2026-01-02 06:31:10.39	5.06	25.55	-47.4	-49.3	13.2	8.30e-06	0	57	0	255852544	56	4793
2026-01-02 06:31:11.38	4.77	25.51	-48.3	-50.7	11.5	2.44e-04	0	57	0	258998272	58	5038
2026-01-02 06:31:12.37	4.49	25.47	-49.2	-53.0	8.8	2.10e-02	0	57	0	262144000	60	5833
2026-01-02 06:31:13.36	4.21	25.43	-49.8	-54.6	7.0	1.19e-01	0	57	0	265289728	61	6572
2026-01-02 06:31:14.34	3.93	25.39	-50.0	-55.8	5.9	3.52e-01	0	57	0	268435456	62	7162
2026-01-02 06:31:15.34	3.64	25.35	-49.6	-54.2	7.3	2.10e-01	0	57	0	271581184	62	5962
2026-01-02 06:31:16.33	3.36	25.31	-48.5	-51.1	10.7	9.17e-03	0	58	0	274726912	59	4975
2026-01-02 06:31:17.32	3.08	25.26	-47.3	-49.1	13.4	3.81e-05	0	57	0	277872640	57	4405
2026-01-02 06:31:18.31	2.80	25.22	-46.7	-48.2	14.5	0.00e+00	0	57	0	281018368	56	4239
2026-01-02 06:31:19.30	2.52	25.17	-46.7	-48.1	14.8	7.00e-07	0	57	0	284164096	56	4182
2026-01-02 06:31:20.29	2.24	25.13	-46.6	-48.1	14.8	7.00e-07	0	57	0	287309824	56	4179
2026-01-02 06:31:21.28	1.97	25.08	-46.2	-47.5	15.3	0.00e+00	0	57	0	290455552	55	4101
2026-01-02 06:31:22.27	1.69	25.04	-45.8	-47.0	15.8	0.00e+00	0	57	0	293601280	54	4117
2026-01-02 06:31:23.26	1.41	24.99	-45.7	-46.8	15.9	0.00e+00	0	57	0	296747008	54	4043
2026-01-02 06:31:24.25	1.14	24.94	-45.6	-46.8	16.0	0.00e+00	0	57	0	299892736	54	4018
2026-01-02 06:31:25.24	0.86	24.89	-45.4	-46.5	16.3	0.00e+00	0	57	0	303038464	53	4104
2026-01-02 06:31:26.23	0.59	24.84	-45.0	-46.0	16.7	0.00e+00	0	57	0	305135616	53	3901
2026-01-02 06:31:27.23	0.32	24.79	-44.6	-45.5	17.2	0.00e+00	0	57	0	308281344	52	3909
2026-01-02 06:31:28.21	0.05	24.74	-44.4	-45.3	17.4	0.00e+00	0	57	0	311427072	52	3818
2026-01-02 06:31:29.20	359.78	24.69	-44.3	-45.2	17.6	0.00e+00	0	57	0	314572800	51	3989
2026-01-02 06:31:30.18	359.51	24.64	-44.3	-45.2	17.6	0.00e+00	0	58	0	317718528	51	3977
2026-01-02 06:31:31.17	359.24	24.59	-44.5	-45.4	17.4	0.00e+00	0	58	0	320864256	51	4083
2026-01-02 06:31:32.16	358.97	24.54	-44.4	-45.3	17.5	0.00e+00	0	57	0	324009984	51	4025
2026-01-02 06:31:33.15	358.71	24.48	-44.3	-45.2	17.6	0.00e+00	0	58	0	327155712	51	3978
2026-01-02 06:31:34.15	358.44	24.43	-44.4	-45.4	17.4	0.00e+00	0	57	0	330301440	51	4069
2026-01-02 06:31:35.14	358.17	24.38	-44.4	-45.3	17.5	0.00e+00	0	57	0	333447168	51	4051
2026-01-02 06:31:36.12	357.91	24.32	-44.5	-45.4	17.4	0.00e+00	0	57	0	336592896	51	4082
2026-01-02 06:31:37.11	357.65	24.27	-44.5	-45.5	17.3	0.00e+00	0	57	0	339738624	51	4122
2026-01-02 06:31:38.10	357.39	24.21	-44.7	-45.7	17.1	0.00e+00	0	57	0	342884352	51	4231
2026-01-02 06:31:39.08	357.13	24.15	-44.4	-45.4	17.4	0.00e+00	0	57	0	346030080	51	4061
2026-01-02 06:31:40.07	356.87	24.10	-44.2	-45.0	17.7	0.00e+00	0	57	0	349175808	51	3913
2026-01-02 06:31:41.06	356.61	24.04	-44.0	-44.9	17.9	0.00e+00	0	57	0	352321536	51	3825
2026-01-02 06:31:42.05	356.35	23.98	-44.0	-44.8	18.0	0.00e+00	0	57	0	355467264	51	3805
2026-01-02 06:31:43.04	356.09	23.92	-44.0	-44.9	17.9	0.00e+00	0	57	0	358612992	51	3838
2026-01-02 06:31:44.04	355.83	23.86	-43.9	-44.7	18.0	0.00e+00	0	58	0	360710144	50	3993
2026-01-02 06:31:45.03	355.58	23.80	-44.1	-45.0	17.8	0.00e+00	0	57	0	363855872	50	4108
2026-01-02 06:31:46.02	355.32	23.74	-44.1	-45.0	17.7	0.00e+00	0	57	0	367001600	50	4132
2026-01-02 06:31:47.00	355.07	23.68	-44.4	-45.4	17.4	0.00e+00	0	57	0	370147328	50	4304
2026-01-02 06:31:47.99	354.82	23.62	-44.4	-45.3	17.5	0.00e+00	0	58	0	373293056	50	4264
2026-01-02 06:31:48.97	354.57	23.56	-44.4	-45.4	17.4	0.00e+00	0	57	0	376438784	50	4294
2026-01-02 06:31:49.97	354.32	23.50	-44.4	-45.4	17.4	0.00e+00	0	57	0	379584512	50	4311
2026-01-02 06:31:50.95	354.07	23.44	-44.1	-44.9	17.8	0.00e+00	0	57	0	382730240	50	4094
2026-01-02 06:31:51.94	353.82	23.37	-43.8	-44.6	18.0	0.00e+00	0	57	0	385875968	50	3957
2026-01-02 06:31:52.93	353.57	23.31	-43.7	-44.5	18.2	0.00e+00	0	57	0	389021696	50	3908
2026-01-02 06:31:53.92	353.33	23.25	-43.8	-44.6	18.1	0.00e+00	0	57	0	392167424	50	3931
2026-01-02 06:31:54.91	353.08	23.18	-44.0	-44.8	17.9	0.00e+00	0	57	0	395313152	50	4034
2026-01-02 06:31:55.90	352.84	23.12	-44.0	-44.8	17.9	0.00e+00	0	57	0	398458880	50	4051
2026-01-02 06:31:56.89	352.59	23.05	-44.3	-45.2	17.5	0.00e+00	0	57	0	401604608	50	4239
2026-01-02 06:31:57.88	352.35	22.99	-44.7	-45.7	17.0	0.00e+00	0	57	0	404750336	51	4225
2026-01-02 06:31:58.86	352.11	22.92	-44.7	-45.7	17.0	0.00e+00	0	58	0	407896064	51	4229
2026-01-02 06:31:59.85	351.87	22.86	-44.9	-46.0	16.8	0.00e+00	0	57	0	411041792	51	4362
2026-01-02 06:32:00.83	351.63	22.79	-44.8	-45.8	16.9	0.00e+00	0	57	0	413138944	51	4289
2026-01-02 06:32:01.82	351.40	22.73	-44.6	-45.6	17.2	0.00e+00	0	57	0	416284672	51	4158
2026-01-02 06:32:02.81	351.16	22.66	-44.4	-45.3	17.4	0.00e+00	0	57	0	419430400	51	4024
2026-01-02 06:32:03.80	350.92	22.59	-44.2	-45.1	17.7	0.00e+00	0	57	0	422576128	51	3929
2026-01-02 06:32:04.79	350.69	22.52	-44.1	-45.0	17.7	0.00e+00	0	57	0	425721856	51	3903
2026-01-02 06:32:05.77	350.46	22.46	-44.0	-44.9	17.8	0.00e+00	0	57	0	428867584	51	3846
2026-01-02 06:32:06.76	350.22	22.39	-44.2	-45.1	17.6	0.00e+00	0	57	0	432013312	51	3942
2026-01-02 06:32:07.76	349.99	22.32	-44.1	-45.0	17.7	0.00e+00	0	57	0	435159040	51	3878
2026-01-02 06:32:08.75	349.76	22.25	-43.9	-44.7	18.0	0.00e+00	0	57	0	438304768	50	3982
2026-01-02 06:32:09.74	349.53	22.18	-43.9	-44.7	18.0	0.00e+00	0	57	0	441450496	50	3980
2026-01-02 06:32:10.73	349.30	22.11	-43.9	-44.8	17.9	0.00e+00	0	57	0	444596224	50	4024
2026-01-02 06:32:11.73	349.07	22.04	-44.1	-45.0	17.7	0.00e+00	0	57	0	447741952	50	4137
2026-01-02 06:32:12.71	348.84	21.97	-44.3	-45.2	17.5	0.00e+00	0	57	0	450887680	50	4220
2026-01-02 06:32:13.69	348.62	21.90	-44.1	-45.0	17.7	0.00e+00	0	58	0	454033408	50	4134
2026-01-02 06:32:14.69	348.39	21.83	-44.0	-44.9	17.9	0.00e+00	0	58	0	457179136	50	4054
2026-01-02 06:32:15.68	348.17	21.76	-44.0	-44.9	17.8	0.00e+00	0	57	0	460324864	50	4069
2026-01-02 06:32:16.67	347.94	21.69	-44.1	-45.0	17.7	0.00e+00	0	58	0	463470592	50	4131
2026-01-02 06:32:17.66	347.72	21.61	-44.2	-45.1	17.6	0.00e+00	0	58	0	466616320	50	4153
2026-01-02 06:32:18.65	347.50	21.54	-44.2	-45.1	17.6	0.00e+00	0	58	0	469762048	50	4154
2026-01-02 06:32:19.64	347.28	21.47	-44.2	-45.2	17.5	0.00e+00	0	57	0	472907776	50	4198
2026-01-02 06:32:20.63	347.06	21.40	-44.1	-45.1	17.6	0.00e+00	0	57	0	475004928	50	4150
2026-01-02 06:32:21.60	346.85	21.33	-43.9	-44.8	17.8	0.00e+00	0	58	0	478150656	50	4027
2026-01-02 06:32:22.59	346.63	21.25	-43.7	-44.6	18.0	0.00e+00	0	57	0	481296384	50	3930
2026-01-02 06:32:23.58	346.42	21.18	-43.6	-44.4	18.2	0.00e+00	0	58	0	484442112	50	3841
2026-01-02 06:32:24.57	346.20	21.11	-43.6	-44.4	18.2	0.00e+00	0	57	0	487587840	50	3838
2026-01-02 06:32:25.56	345.99	21.03	-43.6	-44.4	18.2	0.00e+00	0	57	0	490733568	50	3850
2026-01-02 06:32:26.55	345.78	20.96	-44.0	-44.9	17.8	0.00e+00	0	58	0	493879296	50	4060
2026-01-02 06:32:27.53	345.57	20.89	-44.1	-45.0	17.6	0.00e+00	0	57	0	497025024	50	4116
2026-01-02 06:32:28.52	345.36	20.81	-44.4	-45.3	17.3	0.00e+00	0	57	0	500170752	50	4267
2026-01-02 06:32:29.51	345.15	20.74	-44.7	-45.7	17.0	0.00e+00	0	58	0	503316480	51	4199
2026-01-02 06:32:30.49	344.94	20.66	-44.8	-45.8	16.9	0.00e+00	0	57	0	506462208	51	4257
2026-01-02 06:32:31.47	344.74	20.59	-44.9	-46.0	16.7	0.00e+00	0	58	0	509607936	51	4355
2026-01-02 06:32:32.45	344.53	20.52	-44.7	-45.8	16.9	0.00e+00	0	58	0	512753664	51	4247
2026-01-02 06:32:33.45	344.33	20.44	-44.6	-45.6	17.0	0.00e+00	0	58	0	515899392	51	4163
2026-01-02 06:32:34.44	344.12	20.37	-44.7	-45.7	16.9	0.00e+00	0	57	0	519045120	51	4241
2026-01-02 06:32:35.43	343.92	20.29	-44.8	-45.8	16.8	0.00e+00	0	57	0	522190848	51	4265
2026-01-02 06:32:36.42	343.72	20.21	-44.7	-45.7	16.9	0.00e+00	0	57	0	525336576	51	4237
2026-01-02 06:32:37.41	343.51	20.14	-44.7	-45.7	16.9	0.00e+00	0	57	0	528482304	51	4237
2026-01-02 06:32:38.40	343.31	20.06	-44.8	-45.8	16.8	0.00e+00	0	57	0	531628032	51	4274
2026-01-02 06:32:39.39	343.11	19.99	-44.9	-45.9	16.7	0.00e+00	0	58	0	533725184	51	4325
2026-01-02 06:32:40.37	342.92	19.91	-45.0	-46.1	16.4	0.00e+00	0	57	0	536870912	51	4434
2026-01-02 06:32:41.36	342.72	19.84	-45.1	-46.3	16.1	0.00e+00	0	57	0	540016640	52	4272
2026-01-02 06:32:42.35	342.53	19.76	-45.1	-46.2	16.1	0.00e+00	0	58	0	543162368	52	4226
2026-01-02 06:32:43.34	342.33	19.68	-45.1	-46.3	16.0	0.00e+00	0	58	0	546308096	52	4260
2026-01-02 06:32:44.33	342.14	19.61	-45.4	-46.7	15.5	0.00e+00	0	58	0	549453824	52	4447
2026-01-02 06:32:45.32	341.94	19.53	-45.7	-47.1	15.0	0.00e+00	0	58	0	552599552	53	4410
2026-01-02 06:32:46.31	341.75	19.45	-46.4	-48.0	14.0	7.00e-07	0	57	0	555745280	54	4639
2026-01-02 06:32:47.29	341.56	19.38	-47.0	-49.0	13.0	3.12e-05	0	57	0	558891008	55	4875
2026-01-02 06:32:48.28	341.37	19.30	-47.4	-49.6	12.3	1.43e-04	0	57	0	562036736	56	4933
2026-01-02 06:32:49.28	341.18	19.22	-47.7	-50.0	11.9	4.34e-04	0	57	0	565182464	57	4893
2026-01-02 06:32:50.26	340.99	19.15	-47.6	-49.9	11.9	4.44e-04	0	58	0	568328192	57	4855
2026-01-02 06:32:51.25	340.80	19.07	-47.8	-50.1	11.7	4.71e-04	0	57	0	571473920	57	4961
2026-01-02 06:32:52.24	340.62	18.99	-47.6	-49.9	12.1	3.22e-04	0	58	0	574619648	57	4818
2026-01-02 06:32:53.23	340.43	18.91	-47.5	-49.5	12.5	1.25e-04	0	58	0	577765376	57	4629
2026-01-02 06:32:54.22	340.25	18.84	-47.1	-48.9	13.2	3.96e-05	0	58	0	580911104	57	4308
2026-01-02 06:32:55.21	340.06	18.76	-46.7	-48.4	13.8	8.30e-06	0	58	0	584056832	56	4296
2026-01-02 06:32:56.19	339.88	18.68	-46.4	-48.0	14.2	7.00e-07	0	58	0	587202560	56	4141
2026-01-02 06:32:57.18	339.70	18.60	-46.3	-47.8	14.3	7.00e-07	0	57	0	589299712	55	4265
2026-01-02 06:32:58.17	339.52	18.53	-45.7	-47.0	15.1	0.00e+00	0	58	0	592445440	54	4144
2026-01-02 06:32:59.15	339.34	18.45	-45.8	-47.1	15.0	0.00e+00	0	58	0	595591168	54	4183
2026-01-02 06:33:00.14	339.16	18.37	-45.8	-47.1	15.0	7.00e-07	0	58	0	598736896	54	4190
2026-01-02 06:33:01.13	338.99	18.29	-45.3	-46.5	15.6	0.00e+00	0	57	0	601882624	53	4123
2026-01-02 06:33:02.12	338.81	18.22	-44.9	-46.0	16.3	0.00e+00	0	57	0	605028352	52	4121
2026-01-02 06:33:03.11	338.63	18.14	-44.7	-45.8	16.6	0.00e+00	0	58	0	608174080	52	4005
2026-01-02 06:33:04.10	338.46	18.06	-44.7	-45.7	16.7	0.00e+00	0	57	0	611319808	52	4004
2026-01-02 06:33:05.08	338.28	17.98	-44.9	-46.0	16.4	0.00e+00	0	58	0	614465536	52	4142
2026-01-02 06:33:06.06	338.11	17.91	-45.3	-46.5	16.0	7.00e-07	0	58	0	617611264	52	4356
2026-01-02 06:33:07.05	337.94	17.83	-45.0	-46.1	16.3	0.00e+00	0	57	0	620756992	52	4186
2026-01-02 06:33:08.03	337.77	17.75	-44.8	-45.8	16.7	0.00e+00	0	58	0	623902720	52	4031
2026-01-02 06:33:09.02	337.60	17.67	-44.5	-45.5	17.0	0.00e+00	0	58	0	627048448	52	3882
2026-01-02 06:33:10.01	337.43	17.59	-44.4	-45.4	17.2	0.00e+00	0	58	0	630194176	51	4063
2026-01-02 06:33:11.01	337.26	17.52	-44.4	-45.3	17.2	0.00e+00	0	58	0	633339904	51	4051
2026-01-02 06:33:11.99	337.09	17.44	-44.6	-45.6	17.0	0.00e+00	0	58	0	636485632	51	4152
2026-01-02 06:33:12.98	336.92	17.36	-44.5	-45.5	17.1	0.00e+00	0	58	0	639631360	51	4116
2026-01-02 06:33:13.97	336.76	17.28	-44.5	-45.5	17.2	0.00e+00	0	58	0	641728512	51	4102
2026-01-02 06:33:14.97	336.59	17.20	-44.6	-45.6	17.1	0.00e+00	0	57	0	644874240	51	4154
2026-01-02 06:33:15.95	336.43	17.13	-44.8	-45.8	16.9	0.00e+00	0	58	0	648019968	51	4247
2026-01-02 06:33:16.94	336.26	17.05	-44.5	-45.5	17.2	0.00e+00	0	58	0	651165696	51	4099
2026-01-02 06:33:17.93	336.10	16.97	-44.3	-45.2	17.5	0.00e+00	0	58	0	654311424	51	3965
2026-01-02 06:33:18.91	335.94	16.89	-44.1	-44.9	17.7	0.00e+00	0	58	0	657457152	51	3867
2026-01-02 06:33:19.90	335.78	16.81	-44.1	-45.0	17.7	0.00e+00	0	58	0	660602880	51	3878
2026-01-02 06:33:20.88	335.62	16.74	-44.2	-45.1	17.6	0.00e+00	0	58	0	663748608	51	3930
2026-01-02 06:33:21.87	335.46	16.66	-44.2	-45.1	17.5	0.00e+00	0	57	0	666894336	51	3958
2026-01-02 06:33:22.86	335.30	16.58	-44.3	-45.3	17.4	0.00e+00	0	58	0	670040064	51	4008
2026-01-02 06:33:23.84	335.15	16.50	-44.4	-45.3	17.4	0.00e+00	0	58	0	673185792	51	4046
2026-01-02 06:33:24.83	334.99	16.43	-44.5	-45.4	17.2	0.00e+00	0	58	0	676331520	51	4097
2026-01-02 06:33:25.82	334.83	16.35	-44.5	-45.5	17.2	0.00e+00	0	58	0	679477248	51	4117
2026-01-02 06:33:26.81	334.68	16.27	-44.5	-45.5	17.2	0.00e+00	0	57	0	682622976	51	4117
2026-01-02 06:33:27.80	334.52	16.19	-44.6	-45.6	17.1	0.00e+00	0	58	0	685768704	51	4173
2026-01-02 06:33:28.78	334.37	16.11	-44.7	-45.7	17.0	0.00e+00	0	58	0	688914432	51	4225
2026-01-02 06:33:29.76	334.22	16.04	-44.6	-45.5	17.1	0.00e+00	0	58	0	692060160	51	4144
2026-01-02 06:33:30.74	334.07	15.96	-44.4	-45.3	17.4	0.00e+00	0	57	0	695205888	51	4038
2026-01-02 06:33:31.73	333.92	15.88	-44.3	-45.3	17.4	0.00e+00	0	58	0	697303040	51	4016
2026-01-02 06:33:32.71	333.77	15.81	-44.3	-45.2	17.5	0.00e+00	0	58	0	700448768	51	3990
2026-01-02 06:33:33.69	333.62	15.73	-44.4	-45.4	17.3	0.00e+00	0	58	0	703594496	51	4053
2026-01-02 06:33:34.68	333.47	15.65	-44.4	-45.4	17.3	0.00e+00	0	58	0	706740224	51	4077
2026-01-02 06:33:35.67	333.32	15.57	-44.6	-45.6	17.1	0.00e+00	0	58	0	709885952	51	4179
2026-01-02 06:33:36.66	333.18	15.50	-44.7	-45.7	17.0	0.00e+00	0	58	0	713031680	51	4206
2026-01-02 06:33:37.65	333.03	15.42	-44.9	-45.9	16.8	0.00e+00	0	58	0	716177408	51	4334
2026-01-02 06:33:38.64	332.88	15.34	-44.9	-46.0	16.8	0.00e+00	0	58	0	719323136	51	4342
2026-01-02 06:33:39.64	332.74	15.26	-45.0	-46.1	16.6	0.00e+00	0	58	0	722468864	51	4407
2026-01-02 06:33:40.63	332.59	15.19	-45.0	-46.1	16.5	0.00e+00	0	58	0	725614592	52	4167
2026-01-02 06:33:41.62	332.45	15.11	-45.1	-46.3	16.3	0.00e+00	0	58	0	728760320	52	4253
2026-01-02 06:33:42.61	332.31	15.03	-45.0	-46.1	16.4	0.00e+00	0	58	0	731906048	52	4192
2026-01-02 06:33:43.60	332.16	14.95	-44.9	-45.9	16.6	0.00e+00	0	58	0	735051776	52	4079
2026-01-02 06:33:44.59	332.02	14.88	-44.8	-45.9	16.7	0.00e+00	0	58	0	738197504	52	4058
2026-01-02 06:33:45.58	331.88	14.80	-44.9	-45.9	16.6	0.00e+00	0	58	0	741343232	52	4081
2026-01-02 06:33:46.58	331.74	14.72	-44.8	-45.8	16.7	0.00e+00	0	58	0	744488960	52	4043
2026-01-02 06:33:47.57	331.60	14.65	-44.8	-45.8	16.7	0.00e+00	0	58	0	747634688	52	4045
2026-01-02 06:33:48.56	331.46	14.57	-44.8	-45.9	16.7	0.00e+00	0	58	0	750780416	52	4055
2026-01-02 06:33:49.54	331.33	14.49	-44.7	-45.7	16.9	0.00e+00	0	58	0	753926144	52	3965
2026-01-02 06:33:50.53	331.19	14.42	-44.7	-45.7	16.8	0.00e+00	0	57	0	756023296	52	3997
2026-01-02 06:33:51.52	331.06	14.34	-45.0	-46.1	16.5	0.00e+00	0	58	0	759169024	52	4175
2026-01-02 06:33:52.50	330.92	14.26	-45.2	-46.3	16.3	0.00e+00	0	58	0	762314752	52	4247
2026-01-02 06:33:53.49	330.79	14.19	-45.1	-46.2	16.4	0.00e+00	0	58	0	765460480	52	4234
2026-01-02 06:33:54.48	330.65	14.11	-45.3	-46.4	16.2	0.00e+00	0	58	0	768606208	52	4331
2026-01-02 06:33:55.46	330.52	14.04	-45.4	-46.5	16.1	0.00e+00	0	58	0	771751936	52	4371
2026-01-02 06:33:56.45	330.39	13.96	-45.4	-46.6	16.0	0.00e+00	0	58	0	774897664	52	4421
2026-01-02 06:33:57.44	330.26	13.88	-45.5	-46.8	15.8	0.00e+00	0	57	0	778043392	52	4496
2026-01-02 06:33:58.42	330.13	13.81	-45.6	-46.8	15.8	0.00e+00	0	58	0	781189120	53	4262
2026-01-02 06:33:59.41	330.00	13.73	-45.6	-46.8	15.8	0.00e+00	0	58	0	784334848	53	4256
2026-01-02 06:34:00.41	329.86	13.66	-45.7	-47.0	15.6	0.00e+00	0	58	0	787480576	53	4354
2026-01-02 06:34:01.41	329.73	13.58	-45.7	-47.0	15.6	0.00e+00	0	58	0	790626304	53	4352
2026-01-02 06:34:02.39	329.61	13.50	-45.4	-46.5	16.1	0.00e+00	0	58	0	793772032	53	4124
2026-01-02 06:34:03.38	329.48	13.43	-45.1	-46.1	16.4	0.00e+00	0	58	0	796917760	53	3957
2026-01-02 06:34:04.37	329.35	13.35	-44.9	-45.9	16.6	0.00e+00	0	58	0	800063488	52	4082
2026-01-02 06:34:05.35	329.23	13.28	-44.8	-45.8	16.7	0.00e+00	0	58	0	803209216	52	4041
2026-01-02 06:34:06.34	329.10	13.20	-44.9	-46.0	16.6	0.00e+00	0	58	0	806354944	52	4104
2026-01-02 06:34:07.33	328.98	13.13	-44.9	-46.0	16.5	0.00e+00	0	58	0	808452096	52	4135
2026-01-02 06:34:08.32	328.85	13.05	-45.2	-46.3	16.2	0.00e+00	0	58	0	811597824	52	4267
2026-01-02 06:34:09.30	328.73	12.98	-45.4	-46.5	16.0	0.00e+00	0	58	0	814743552	52	4386
2026-01-02 06:34:10.29	328.61	12.90	-45.3	-46.5	16.1	0.00e+00	0	58	0	817889280	52	4350
2026-01-02 06:34:11.28	328.48	12.83	-45.3	-46.5	16.1	0.00e+00	0	58	0	821035008	52	4361
2026-01-02 06:34:12.27	328.36	12.75	-45.4	-46.6	15.9	0.00e+00	0	58	0	824180736	52	4425
2026-01-02 06:34:13.27	328.24	12.68	-45.5	-46.8	15.8	0.00e+00	0	57	0	827326464	52	4504
2026-01-02 06:34:14.25	328.12	12.61	-45.4	-46.5	16.0	0.00e+00	0	58	0	830472192	52	4382
2026-01-02 06:34:15.24	328.00	12.53	-45.3	-46.4	16.1	0.00e+00	0	58	0	833617920	52	4337
2026-01-02 06:34:16.22	327.88	12.46	-45.3	-46.4	16.1	0.00e+00	0	58	0	836763648	52	4337
2026-01-02 06:34:17.21	327.76	12.38	-45.3	-46.4	16.0	0.00e+00	0	58	0	839909376	52	4329
2026-01-02 06:34:18.19	327.64	12.31	-45.3	-46.4	16.0	0.00e+00	0	57	0	843055104	52	4338
2026-01-02 06:34:19.19	327.53	12.23	-45.2	-46.4	16.1	0.00e+00	0	58	0	846200832	52	4292
2026-01-02 06:34:20.17	327.41	12.16	-45.2	-46.3	16.1	0.00e+00	0	58	0	849346560	52	4289
2026-01-02 06:34:21.16	327.29	12.09	-45.3	-46.4	16.1	0.00e+00	0	58	0	852492288	52	4310
2026-01-02 06:34:22.16	327.18	12.01	-45.0	-46.1	16.5	0.00e+00	0	58	0	855638016	52	4149
2026-01-02 06:34:23.15	327.06	11.94	-44.8	-45.8	16.7	0.00e+00	0	57	0	858783744	52	4044
2026-01-02 06:34:24.14	326.95	11.87	-44.7	-45.8	16.7	0.00e+00	0	58	0	861929472	52	4008
2026-01-02 06:34:25.13	326.83	11.79	-44.8	-45.9	16.6	0.00e+00	0	58	0	865075200	52	4055
2026-01-02 06:34:26.12	326.72	11.72	-44.9	-45.9	16.6	0.00e+00	0	58	0	868220928	52	4079
2026-01-02 06:34:27.11	326.61	11.65	-44.8	-45.8	16.7	0.00e+00	0	57	0	870318080	52	4035
2026-01-02 06:34:28.10	326.49	11.57	-44.9	-45.9	16.6	0.00e+00	0	57	0	873463808	52	4080
2026-01-02 06:34:29.09	326.38	11.50	-45.2	-46.4	16.1	0.00e+00	0	58	0	876609536	52	4293
2026-01-02 06:34:30.07	326.27	11.43	-45.2	-46.4	16.1	0.00e+00	0	58	0	879755264	52	4298
2026-01-02 06:34:31.05	326.16	11.36	-45.6	-46.8	15.7	0.00e+00	0	58	0	882900992	53	4289
2026-01-02 06:34:32.04	326.05	11.28	-45.6	-46.8	15.6	0.00e+00	0	58	0	886046720	53	4289
2026-01-02 06:34:33.03	325.94	11.21	-45.8	-47.1	15.4	0.00e+00	0	58	0	889192448	53	4403
2026-01-02 06:34:34.02	325.83	11.14	-45.9	-47.2	15.2	0.00e+00	0	58	0	892338176	53	4481
2026-01-02 06:34:35.01	325.72	11.07	-45.8	-47.1	15.3	0.00e+00	0	57	0	895483904	53	4440
2026-01-02 06:34:35.99	325.62	11.00	-45.9	-47.2	15.3	0.00e+00	0	58	0	898629632	53	4450
2026-01-02 06:34:36.98	325.51	10.92	-45.9	-47.2	15.3	0.00e+00	0	57	0	901775360	53	4448
2026-01-02 06:34:37.96	325.41	10.85	-46.0	-47.3	15.2	0.00e+00	0	58	0	904921088	53	4508
2026-01-02 06:34:38.94	325.30	10.78	-45.6	-46.9	15.5	0.00e+00	0	58	0	908066816	53	4311
2026-01-02 06:34:39.93	325.19	10.71	-45.7	-46.9	15.5	0.00e+00	0	58	0	911212544	53	4339
2026-01-02 06:34:40.92	325.09	10.64	-45.8	-47.2	15.3	0.00e+00	0	58	0	914358272	53	4448
2026-01-02 06:34:41.91	324.98	10.57	-45.5	-46.7	15.7	0.00e+00	0	58	0	917504000	53	4229
2026-01-02 06:34:42.89	324.88	10.49	-45.2	-46.4	16.0	0.00e+00	0	58	0	920649728	53	4086
2026-01-02 06:34:43.88	324.78	10.42	-45.2	-46.3	16.2	0.00e+00	0	57	0	922746880	53	4008
2026-01-02 06:34:44.86	324.68	10.35	-45.0	-46.1	16.3	0.00e+00	0	58	0	925892608	53	3945
2026-01-02 06:34:45.86	324.57	10.28	-45.0	-46.2	16.3	0.00e+00	0	57	0	929038336	53	3959
2026-01-02 06:34:46.84	324.47	10.21	-45.1	-46.2	16.2	0.00e+00	0	58	0	932184064	53	3994
2026-01-02 06:34:47.83	324.37	10.14	-45.4	-46.6	15.8	0.00e+00	0	58	0	935329792	53	4167
2026-01-02 06:34:48.82	324.27	10.07	-45.4	-46.6	15.9	0.00e+00	0	58	0	938475520	53	4154
2026-01-02 06:34:49.81	324.17	10.00	-45.4	-46.6	15.8	0.00e+00	0	57	0	941621248	53	4155
2026-01-02 06:34:50.80	324.07	9.93	-45.5	-46.7	15.8	0.00e+00	0	57	0	944766976	53	4206
2026-01-02 06:34:51.79	323.97	9.86	-45.5	-46.8	15.7	0.00e+00	0	58	0	947912704	53	4256
2026-01-02 06:34:52.78	323.87	9.79	-45.7	-47.0	15.4	0.00e+00	0	58	0	951058432	53	4383
2026-01-02 06:34:53.76	323.77	9.72	-45.9	-47.2	15.2	0.00e+00	0	58	0	954204160	53	4477
2026-01-02 06:34:54.75	323.67	9.65	-45.9	-47.2	15.2	0.00e+00	0	58	0	957349888	53	4492
2026-01-02 06:34:55.74	323.58	9.58	-46.0	-47.3	15.1	0.00e+00	0	57	0	960495616	53	4539
2026-01-02 06:34:56.73	323.48	9.51	-46.2	-47.6	14.8	0.00e+00	0	58	0	963641344	54	4417
2026-01-02 06:34:57.72	323.38	9.44	-46.1	-47.5	14.9	0.00e+00	0	57	0	966787072	54	4381
2026-01-02 06:34:58.71	323.29	9.37	-46.0	-47.4	15.0	0.00e+00	0	58	0	969932800	54	4306
2026-01-02 06:34:59.70	323.19	9.30	-46.0	-47.4	15.0	0.00e+00	0	57	0	973078528	54	4318
2026-01-02 06:35:00.69	323.10	9.23	-46.1	-47.5	14.9	0.00e+00	0	58	0	976224256	54	4361
2026-01-02 06:35:01.68	323.00	9.16	-46.3	-47.8	14.6	0.00e+00	0	58	0	978321408	54	4522
2026-01-02 06:35:02.67	322.91	9.09	-46.2	-47.7	14.8	0.00e+00	0	58	0	981467136	54	4442
2026-01-02 06:35:03.67	322.81	9.02	-46.0	-47.3	15.0	0.00e+00	0	57	0	984612864	54	4288
2026-01-02 06:35:04.65	322.72	8.95	-45.9	-47.2	15.2	0.00e+00	0	58	0	987758592	54	4201
2026-01-02 06:35:05.64	322.63	8.89	-45.9	-47.2	15.2	0.00e+00	0	58	0	990904320	54	4200
2026-01-02 06:35:06.63	322.53	8.82	-46.0	-47.4	15.0	0.00e+00	0	57	0	994050048	54	4315
2026-01-02 06:35:07.61	322.44	8.75	-45.9	-47.2	15.1	0.00e+00	0	58	0	997195776	54	4239
2026-01-02 06:35:08.60	322.35	8.68	-45.8	-47.1	15.2	0.00e+00	0	57	0	1000341504	54	4179
2026-01-02 06:35:09.60	322.26	8.61	-45.8	-47.1	15.3	0.00e+00	0	57	0	1003487232	54	4187
2026-01-02 06:35:10.58	322.17	8.54	-45.9	-47.2	15.2	0.00e+00	0	58	0	1006632960	54	4202
2026-01-02 06:35:11.57	322.08	8.48	-45.9	-47.3	15.1	0.00e+00	0	57	0	1009778688	54	4244
2026-01-02 06:35:12.57	321.99	8.41	-46.0	-47.3	15.0	0.00e+00	0	58	0	1012924416	54	4277
2026-01-02 06:35:13.56	321.90	8.34	-46.1	-47.4	14.9	0.00e+00	0	58	0	1016070144	54	4331
2026-01-02 06:35:14.54	321.81	8.27	-46.1	-47.5	14.8	7.00e-07	0	58	0	1019215872	54	4373
2026-01-02 06:35:15.54	321.72	8.20	-46.2	-47.7	14.7	0.00e+00	0	58	0	1022361600	54	4453
2026-01-02 06:35:16.53	321.63	8.14	-46.2	-47.7	14.7	0.00e+00	0	58	0	1025507328	54	4449
2026-01-02 06:35:17.52	321.55	8.07	-46.3	-47.7	14.6	0.00e+00	0	58	0	1028653056	54	4478
2026-01-02 06:35:18.51	321.46	8.00	-46.4	-47.9	14.4	7.00e-07	0	58	0	1031798784	54	4588
2026-01-02 06:35:19.50	321.37	7.93	-46.5	-48.1	14.3	0.00e+00	0	58	0	1034944512	54	4665
2026-01-02 06:35:20.49	321.29	7.87	-46.6	-48.2	14.1	2.20e-06	0	58	0	1037041664	55	4458
2026-01-02 06:35:21.48	321.20	7.80	-46.6	-48.2	14.1	0.00e+00	0	58	0	1040187392	55	4492
2026-01-02 06:35:22.46	321.12	7.73	-46.7	-48.4	13.9	2.20e-06	0	58	0	1043333120	55	4555
2026-01-02 06:35:23.46	321.03	7.67	-46.8	-48.4	13.8	3.80e-06	0	58	0	1046478848	55	4596
2026-01-02 06:35:24.44	320.95	7.60	-46.7	-48.4	13.9	4.50e-06	0	58	0	1049624576	55	4587
2026-01-02 06:35:25.43	320.86	7.53	-46.8	-48.5	13.7	3.80e-06	0	58	0	1052770304	55	4641
2026-01-02 06:35:26.42	320.78	7.47	-47.0	-48.7	13.6	5.30e-06	0	57	0	1055916032	55	4721
2026-01-02 06:35:27.41	320.69	7.40	-47.0	-48.8	13.5	7.60e-06	0	58	0	1059061760	55	4774
2026-01-02 06:35:28.39	320.61	7.34	-46.8	-48.5	13.8	8.30e-06	0	57	0	1062207488	55	4616
2026-01-02 06:35:29.38	320.53	7.27	-46.7	-48.3	13.9	3.00e-06	0	57	0	1065353216	55	4544
2026-01-02 06:35:30.37	320.45	7.20	-46.7	-48.4	13.9	1.50e-06	0	58	0	1068498944	55	4551
2026-01-02 06:35:31.35	320.36	7.14	-46.6	-48.3	14.0	2.20e-06	0	58	0	1071644672	55	4496
2026-01-02 06:35:32.34	320.28	7.07	-46.7	-48.3	13.9	3.80e-06	0	58	0	1074790400	55	4528
2026-01-02 06:35:33.33	320.20	7.01	-46.6	-48.3	14.0	7.00e-07	0	58	0	1077936128	55	4506
2026-01-02 06:35:34.32	320.12	6.94	-46.5	-48.0	14.2	2.20e-06	0	57	0	1081081856	55	4389
2026-01-02 06:35:35.31	320.04	6.88	-46.4	-47.9	14.3	2.20e-06	0	58	0	1084227584	55	4330
2026-01-02 06:35:36.29	319.96	6.81	-46.3	-47.8	14.4	7.00e-07	0	58	0	1087373312	54	4518
2026-01-02 06:35:37.28	319.88	6.75	-46.2	-47.8	14.4	0.00e+00	0	57	0	1090519040	54	4501
2026-01-02 06:35:38.26	319.80	6.68	-46.2	-47.8	14.5	7.00e-07	0	57	0	1093664768	54	4500
2026-01-02 06:35:39.26	319.72	6.62	-46.2	-47.8	14.5	1.50e-06	0	58	0	1096810496	54	4498
2026-01-02 06:35:40.24	319.65	6.55	-46.5	-48.1	14.1	1.50e-06	0	57	0	1098907648	54	4670
2026-01-02 06:35:41.22	319.57	6.49	-46.4	-47.9	14.3	2.20e-06	0	57	0	1102053376	54	4576
2026-01-02 06:35:42.21	319.49	6.42	-46.4	-48.0	14.2	7.00e-07	0	57	0	1105199104	54	4615
2026-01-02 06:35:43.20	319.41	6.36	-46.7	-48.3	13.8	3.80e-06	0	58	0	1108344832	55	4525
2026-01-02 06:35:44.19	319.33	6.29	-46.8	-48.6	13.6	8.30e-06	0	58	0	1111490560	55	4653
2026-01-02 06:35:45.17	319.26	6.23	-47.0	-48.7	13.3	9.90e-06	0	57	0	1114636288	55	4753
2026-01-02 06:35:46.16	319.18	6.17	-47.0	-48.8	13.3	1.52e-05	0	58	0	1117782016	55	4806
2026-01-02 06:35:47.16	319.11	6.10	-47.0	-48.9	13.2	1.60e-05	0	57	0	1120927744	55	4848
2026-01-02 06:35:48.15	319.03	6.04	-47.2	-49.1	13.1	1.60e-05	0	58	0	1124073472	56	4662
2026-01-02 06:35:49.13	318.96	5.97	-47.2	-49.0	13.1	2.44e-05	0	57	0	1127219200	56	4640
2026-01-02 06:35:50.13	318.88	5.91	-47.3	-49.3	12.9	3.20e-05	0	57	0	1130364928	56	4795
2026-01-02 06:35:51.11	318.81	5.85	-47.3	-49.2	13.0	4.34e-05	0	58	0	1133510656	56	4749
2026-01-02 06:35:52.10	318.73	5.78	-47.3	-49.2	13.0	3.58e-05	0	57	0	1136656384	56	4720
2026-01-02 06:35:53.08	318.66	5.72	-47.2	-49.1	13.1	2.82e-05	0	58	0	1139802112	56	4682
2026-01-02 06:35:54.07	318.58	5.66	-47.2	-49.1	13.1	4.04e-05	0	58	0	1142947840	56	4668
2026-01-02 06:35:55.05	318.51	5.59	-47.2	-49.0	13.1	3.50e-05	0	58	0	1146093568	56	4651
2026-01-02 06:35:56.05	318.44	5.53	-47.1	-49.0	13.2	2.59e-05	0	58	0	1149239296	56	4605
2026-01-02 06:35:57.03	318.37	5.47	-47.1	-49.0	13.1	2.89e-05	0	58	0	1151336448	56	4650
2026-01-02 06:35:58.02	318.29	5.41	-47.1	-49.0	13.1	2.51e-05	0	58	0	1154482176	56	4650
2026-01-02 06:35:59.01	318.22	5.34	-47.3	-49.3	12.8	8.85e-05	0	58	0	1157627904	56	4813
2026-01-02 06:36:00.00	318.15	5.28	-47.2	-49.0	13.1	4.11e-05	0	58	0	1160773632	56	4627
2026-01-02 06:36:00.99	318.08	5.22	-47.3	-49.2	13.0	3.96e-05	0	58	0	1163919360	56	4711
2026-01-02 06:36:01.97	318.01	5.16	-47.2	-49.0	13.1	2.74e-05	0	57	0	1167065088	56	4649
2026-01-02 06:36:02.96	317.94	5.09	-47.4	-49.4	12.7	5.11e-05	0	57	0	1170210816	56	4831
2026-01-02 06:36:03.95	317.87	5.03	-49.9	-54.3	8.1	2.98e-04	0	57	0	1173356544	61	6383
2026-01-02 06:36:04.94	317.80	4.97	-51.8	-63.3	3.8	1.49e+00	0	58	104	1173356544	65	14275
2026-01-02 06:36:05.92	317.73	4.91	-51.5	-63.0	3.8	1.49e+00	0	58	104	1173356544	65	13764
2026-01-02 06:36:06.91	317.66	4.85	-48.5	-60.0	3.8	1.49e+00	0	58	104	1173356544	59	13731
2026-01-02 06:36:07.90	317.59	4.78	-48.6	-60.0	3.8	1.49e+00	0	58	104	1173356544	59	13819
2026-01-02 06:36:08.89	317.52	4.72	-51.6	-63.2	3.8	1.49e+00	0	58	104	1173356544	65	14055
2026-01-02 06:36:09.87	317.45	4.66	-51.9	-63.6	3.8	1.49e+00	0	58	104	1173356544	66	13901
2026-01-02 06:36:10.87	317.38	4.60	-52.3	-63.9	3.8	1.49e+00	0	58	104	1173356544	66	14514
2026-01-02 06:36:11.85	317.31	4.54	-52.4	-64.0	3.8	1.49e+00	0	58	104	1173356544	66	14635
2026-01-02 06:36:12.84	317.25	4.48	-52.5	-64.1	3.8	1.49e+00	0	58	104	1173356544	66	14759
2026-01-02 06:36:13.83	317.18	4.42	-52.5	-64.1	3.8	1.49e+00	0	57	104	1173356544	67	13970
2026-01-02 06:36:14.82	317.11	4.35	-52.5	-64.1	3.8	1.49e+00	0	58	104	1173356544	67	14005
2026-01-02 06:36:15.81	317.05	4.29	-52.5	-64.2	3.8	1.49e+00	0	58	104	1173356544	67	14066
2026-01-02 06:36:16.79	316.98	4.23	-52.5	-64.2	3.8	1.49e+00	0	58	104	1173356544	67	14079
2026-01-02 06:36:17.78	316.91	4.17	-52.5	-64.2	3.8	1.49e+00	0	58	104	1173356544	67	14068
2026-01-02 06:36:18.77	316.85	4.11	-52.6	-64.2	3.8	1.49e+00	0	58	104	1173356544	67	14163
2026-01-02 06:36:19.76	316.78	4.05	-52.6	-64.2	3.8	1.49e+00	0	58	104	1173356544	67	14176
2026-01-02 06:36:20.76	316.72	3.99	-52.7	-64.2	3.8	1.49e+00	0	58	104	1173356544	67	14203
2026-01-02 06:36:21.75	316.65	3.93	-52.6	-64.3	3.8	1.49e+00	0	58	104	1173356544	67	14252
2026-01-02 06:36:22.73	316.59	3.87	-52.7	-64.3	3.8	1.49e+00	0	58	104	1173356544	67	14228
2026-01-02 06:36:23.72	316.52	3.81	-52.6	-64.3	3.8	1.49e+00	0	58	104	1173356544	67	14259
2026-01-02 06:36:24.71	316.46	3.75	-52.6	-64.3	3.8	1.49e+00	0	58	104	1173356544	67	14231
2026-01-02 06:36:25.71	316.39	3.69	-52.7	-64.3	3.8	1.49e+00	0	58	104	1173356544	67	14282
2026-01-02 06:36:26.70	316.33	3.63	-52.7	-64.3	3.8	1.49e+00	0	58	104	1173356544	67	14280
2026-01-02 06:36:27.70	316.27	3.57	-52.7	-64.3	3.8	1.49e+00	0	58	104	1173356544	67	14292
2026-01-02 06:36:28.68	316.20	3.51	-52.7	-64.3	3.8	1.49e+00	0	58	104	1173356544	67	14311
2026-01-02 06:36:29.66	316.14	3.45	-52.7	-64.3	3.8	1.49e+00	0	58	104	1173356544	67	14279
2026-01-02 06:36:30.64	316.08	3.39	-52.8	-64.3	3.8	1.49e+00	0	58	104	1173356544	67	14310
2026-01-02 06:36:31.63	316.02	3.33	-52.8	-64.3	3.8	1.49e+00	0	58	104	1173356544	67	14320
2026-01-02 06:36:32.63	315.95	3.27	-52.8	-64.3	3.8	1.49e+00	0	58	104	1173356544	67	14267
2026-01-02 06:36:33.61	315.89	3.21	-52.7	-64.3	3.8	1.49e+00	0	58	104	1173356544	67	14253
2026-01-02 06:36:34.60	315.83	3.15	-52.5	-64.3	3.8	1.49e+00	0	58	104	1173356544	67	14303
2026-01-02 06:36:35.60	315.77	3.09	-52.7	-64.3	3.8	1.49e+00	0	58	104	1173356544	67	14258
2026-01-02 06:36:36.59	315.71	3.03	-52.6	-64.3	3.8	1.49e+00	0	58	104	1173356544	67	14234
2026-01-02 06:36:37.58	315.65	2.97	-52.7	-64.3	3.8	1.49e+00	0	58	104	1173356544	67	14307
2026-01-02 06:36:38.57	315.59	2.92	-52.7	-64.3	3.8	1.49e+00	0	58	104	1173356544	67	14301
2026-01-02 06:36:39.56	315.53	2.86	-52.7	-64.3	3.8	1.49e+00	0	58	104	1173356544	67	14284

#Closed at: 2026-01-02 06:36:39
#Recorded file [1173 MB]: D:/Data/31026_260102_093604.dat