passes_logs/2026/01/02/R3.0SM8_Murmansk_STILSPACE/R3.0SM8_Murmansk_STILSPACE__20260102_015518_SUOMI_NPP_rec.log

#Pass ID: 20260102_015518_SUOMI NPP
#Satellite: SUOMI NPP
#Configuration: NPP
#almurnet v.1.7.20240730
#Start time: 2026-01-02 01:55:20

#Version: 2.2.20231116
#Station: R3.0SM8_Murmansk_STILSPACE
#Location: 33.092731 lon 68.902999 lat
#TLE: 1 37849U 11061A   26001.07732418  .00000182  00000+0  10735-3 0  9990
#TLE: 2 37849  98.7795 303.2470 0002580  87.2016 272.9455 14.19520779734739

#Time	Az	El	Level	Level2	SNR	BER	BlckErr	Temp	State	Recorded	gain1	gain2
2026-01-02 01:55:20.45	29.49	3.11	-52.3	-66.1	3.8	1.49e+00	0	46	0	0	66	18530
2026-01-02 01:55:21.43	29.46	3.17	-52.1	-65.9	3.8	1.49e+00	0	46	104	0	66	18217
2026-01-02 01:55:22.42	29.44	3.24	-52.0	-65.8	3.8	1.49e+00	0	46	104	0	66	18062
2026-01-02 01:55:23.41	29.41	3.30	-51.9	-65.7	3.8	1.49e+00	0	46	104	0	66	17828
2026-01-02 01:55:24.39	29.38	3.37	-51.7	-65.5	3.8	1.49e+00	0	46	104	0	66	17348
2026-01-02 01:55:25.38	29.35	3.43	-51.4	-64.8	3.8	1.49e+00	0	46	104	0	65	16944
2026-01-02 01:55:26.37	29.33	3.50	-51.4	-64.7	3.8	1.49e+00	0	46	104	0	65	16881
2026-01-02 01:55:27.36	29.30	3.56	-51.4	-64.5	3.8	1.49e+00	0	47	104	0	65	16434
2026-01-02 01:55:28.35	29.27	3.63	-51.4	-64.4	3.8	1.49e+00	0	46	104	0	65	16301
2026-01-02 01:55:29.34	29.24	3.69	-51.3	-64.2	3.8	1.49e+00	0	47	104	0	65	15897
2026-01-02 01:55:30.33	29.22	3.76	-51.3	-64.0	3.8	1.49e+00	0	46	104	0	65	15442
2026-01-02 01:55:31.32	29.19	3.83	-51.3	-63.7	3.8	1.49e+00	0	46	104	0	65	15013
2026-01-02 01:55:32.30	29.16	3.89	-51.3	-63.4	3.8	1.49e+00	0	47	104	0	65	14387
2026-01-02 01:55:33.28	29.13	3.96	-51.3	-62.9	3.8	1.49e+00	0	47	104	0	65	13661
2026-01-02 01:55:34.27	29.10	4.02	-51.2	-62.5	4.0	1.49e+00	0	47	104	0	65	12964
2026-01-02 01:55:35.26	29.08	4.09	-51.2	-62.0	4.1	1.44e+00	0	47	104	0	65	12239
2026-01-02 01:55:36.26	29.05	4.16	-51.2	-61.6	4.2	1.39e+00	0	47	0	0	65	11772
2026-01-02 01:55:37.25	29.02	4.23	-51.1	-61.1	4.4	1.30e+00	0	47	0	0	65	11142
2026-01-02 01:55:38.24	28.99	4.29	-51.0	-60.2	4.7	1.06e+00	0	47	0	2097152	65	9999
2026-01-02 01:55:39.22	28.96	4.36	-51.0	-60.0	4.8	7.99e-01	0	47	0	4194304	64	10378
2026-01-02 01:55:40.21	28.93	4.43	-50.8	-59.3	5.2	6.38e-01	0	47	0	6291456	64	9546
2026-01-02 01:55:41.19	28.90	4.49	-50.8	-58.6	5.7	4.89e-01	0	47	0	7340032	64	8772
2026-01-02 01:55:42.18	28.87	4.56	-50.6	-57.7	6.3	3.29e-01	0	47	0	9437184	64	7918
2026-01-02 01:55:43.17	28.84	4.63	-50.5	-57.0	6.9	2.30e-01	0	48	0	11534336	64	7367
2026-01-02 01:55:44.16	28.81	4.70	-50.4	-56.6	7.4	1.26e-01	0	48	0	13631488	63	7378
2026-01-02 01:55:45.15	28.78	4.77	-50.2	-55.9	8.0	7.96e-02	0	48	0	14680064	63	6871
2026-01-02 01:55:46.12	28.75	4.83	-50.0	-55.2	8.8	4.14e-02	0	48	0	16777216	63	6290
2026-01-02 01:55:47.12	28.72	4.90	-49.7	-54.3	9.7	1.56e-02	0	48	0	18874368	62	5999
2026-01-02 01:55:48.11	28.69	4.97	-49.5	-53.9	10.2	7.74e-03	0	48	0	20971520	62	5725
2026-01-02 01:55:49.09	28.66	5.04	-49.3	-53.4	10.6	4.15e-03	0	48	0	23068672	61	5786
2026-01-02 01:55:50.08	28.63	5.11	-49.4	-53.6	10.5	4.11e-03	0	48	0	24117248	61	5902
2026-01-02 01:55:51.07	28.60	5.18	-49.6	-54.3	9.8	8.84e-03	0	48	0	26214400	61	6364
2026-01-02 01:55:52.07	28.56	5.25	-49.5	-53.9	10.2	8.26e-03	0	48	0	28311552	61	6113
2026-01-02 01:55:53.06	28.53	5.32	-49.1	-53.1	11.0	3.07e-03	0	48	0	30408704	61	5535
2026-01-02 01:55:54.05	28.50	5.39	-48.9	-52.5	11.6	1.13e-03	0	48	0	31457280	60	5524
2026-01-02 01:55:55.04	28.47	5.46	-48.9	-52.4	11.7	6.42e-04	0	48	0	33554432	60	5451
2026-01-02 01:55:56.03	28.44	5.53	-49.1	-52.9	11.2	9.92e-04	0	48	0	35651584	60	5772
2026-01-02 01:55:57.02	28.41	5.60	-48.8	-52.3	11.8	5.88e-04	0	48	0	37748736	60	5396
2026-01-02 01:55:58.01	28.37	5.67	-48.5	-51.8	12.4	3.91e-04	0	48	0	39845888	60	5059
2026-01-02 01:55:59.00	28.34	5.74	-48.3	-51.3	12.9	6.56e-05	0	48	0	40894464	59	5059
2026-01-02 01:55:59.99	28.31	5.81	-48.1	-51.0	13.2	2.44e-05	0	48	0	42991616	59	4875
2026-01-02 01:56:00.97	28.27	5.88	-47.8	-50.4	13.8	6.80e-06	0	49	0	45088768	58	4836
2026-01-02 01:56:01.96	28.24	5.95	-47.7	-50.3	14.0	1.50e-06	0	49	0	47185920	58	4785
2026-01-02 01:56:02.95	28.21	6.02	-47.6	-50.0	14.2	4.50e-06	0	49	0	48234496	58	4649
2026-01-02 01:56:03.93	28.18	6.09	-47.6	-50.1	14.2	1.50e-06	0	49	0	50331648	58	4660
2026-01-02 01:56:04.92	28.14	6.17	-47.8	-50.3	14.0	7.00e-07	0	49	0	52428800	58	4774
2026-01-02 01:56:05.91	28.11	6.24	-47.5	-49.8	14.4	0.00e+00	0	49	0	54525952	58	4536
2026-01-02 01:56:06.91	28.07	6.31	-47.4	-49.6	14.6	1.50e-06	0	49	0	55574528	57	4687
2026-01-02 01:56:07.90	28.04	6.38	-47.3	-49.5	14.7	7.00e-07	0	49	0	57671680	57	4623
2026-01-02 01:56:08.89	28.00	6.46	-47.4	-49.7	14.5	0.00e+00	0	49	0	59768832	57	4756
2026-01-02 01:56:09.88	27.97	6.53	-47.4	-49.7	14.6	0.00e+00	0	49	0	61865984	57	4708
2026-01-02 01:56:10.87	27.94	6.60	-47.4	-49.8	14.5	0.00e+00	0	49	0	62914560	57	4770
2026-01-02 01:56:11.86	27.90	6.68	-47.4	-49.8	14.6	0.00e+00	0	49	0	65011712	57	4761
2026-01-02 01:56:12.85	27.87	6.75	-47.6	-49.9	14.4	1.50e-06	0	49	0	67108864	57	4858
2026-01-02 01:56:13.84	27.83	6.82	-47.5	-49.8	14.5	0.00e+00	0	49	0	69206016	57	4773
2026-01-02 01:56:14.84	27.79	6.90	-47.3	-49.4	14.9	0.00e+00	0	49	0	71303168	57	4595
2026-01-02 01:56:15.83	27.76	6.97	-47.2	-49.5	14.9	7.00e-07	0	49	0	72351744	57	4613
2026-01-02 01:56:16.82	27.72	7.04	-47.3	-49.4	14.9	0.00e+00	0	49	0	74448896	57	4596
2026-01-02 01:56:17.81	27.69	7.12	-47.4	-49.6	14.8	7.00e-07	0	49	0	76546048	57	4685
2026-01-02 01:56:18.81	27.65	7.19	-47.6	-49.9	14.5	0.00e+00	0	49	0	78643200	57	4831
2026-01-02 01:56:19.80	27.61	7.27	-47.4	-49.6	14.7	7.00e-07	0	50	0	79691776	57	4701
2026-01-02 01:56:20.79	27.58	7.34	-47.2	-49.5	14.9	0.00e+00	0	49	0	81788928	57	4607
2026-01-02 01:56:21.78	27.54	7.42	-47.2	-49.4	15.0	0.00e+00	0	49	0	83886080	57	4558
2026-01-02 01:56:22.77	27.50	7.49	-47.3	-49.4	15.0	0.00e+00	0	50	0	85983232	57	4579
2026-01-02 01:56:23.75	27.46	7.57	-47.4	-49.6	14.7	0.00e+00	0	50	0	88080384	57	4705
2026-01-02 01:56:24.75	27.43	7.65	-47.4	-49.6	14.8	0.00e+00	0	50	0	89128960	57	4683
2026-01-02 01:56:25.74	27.39	7.72	-47.4	-49.6	14.8	0.00e+00	0	50	0	91226112	57	4672
2026-01-02 01:56:26.72	27.35	7.80	-47.3	-49.6	14.8	0.00e+00	0	50	0	93323264	57	4677
2026-01-02 01:56:27.72	27.31	7.87	-47.4	-49.6	14.8	0.00e+00	0	50	0	95420416	57	4685
2026-01-02 01:56:28.71	27.27	7.95	-47.3	-49.5	14.9	0.00e+00	0	50	0	96468992	57	4641
2026-01-02 01:56:29.69	27.23	8.03	-47.4	-49.7	14.7	7.00e-07	0	50	0	98566144	57	4736
2026-01-02 01:56:30.67	27.20	8.10	-47.3	-49.5	14.9	0.00e+00	0	50	0	100663296	57	4631
2026-01-02 01:56:31.66	27.16	8.18	-47.2	-49.4	15.1	0.00e+00	0	50	0	102760448	57	4561
2026-01-02 01:56:32.64	27.12	8.26	-47.3	-49.5	15.0	0.00e+00	0	50	0	103809024	57	4608
2026-01-02 01:56:33.64	27.08	8.34	-47.3	-49.5	15.0	0.00e+00	0	50	0	105906176	57	4603
2026-01-02 01:56:34.63	27.04	8.41	-47.2	-49.4	15.1	0.00e+00	0	50	0	108003328	57	4571
2026-01-02 01:56:35.61	27.00	8.49	-47.3	-49.5	14.9	0.00e+00	0	50	0	110100480	57	4636
2026-01-02 01:56:36.59	26.96	8.57	-47.4	-49.6	14.9	0.00e+00	0	50	0	111149056	57	4683
2026-01-02 01:56:37.58	26.92	8.65	-47.2	-49.3	15.1	0.00e+00	0	50	0	113246208	57	4540
2026-01-02 01:56:38.58	26.88	8.73	-47.3	-49.5	15.0	0.00e+00	0	50	0	115343360	57	4599
2026-01-02 01:56:39.56	26.83	8.81	-47.4	-49.5	14.9	7.00e-07	0	50	0	117440512	57	4643
2026-01-02 01:56:40.55	26.79	8.89	-47.4	-49.6	14.9	0.00e+00	0	50	0	119537664	57	4680
2026-01-02 01:56:41.54	26.75	8.97	-47.3	-49.5	15.0	0.00e+00	0	50	0	120586240	57	4621
2026-01-02 01:56:42.52	26.71	9.04	-47.4	-49.7	14.8	0.00e+00	0	51	0	122683392	57	4719
2026-01-02 01:56:43.52	26.67	9.13	-47.7	-50.1	14.4	0.00e+00	0	50	0	124780544	57	4944
2026-01-02 01:56:44.51	26.63	9.21	-47.7	-50.0	14.5	7.00e-07	0	51	0	126877696	57	4922
2026-01-02 01:56:45.50	26.58	9.29	-47.6	-49.9	14.7	7.00e-07	0	51	0	127926272	57	4822
2026-01-02 01:56:46.49	26.54	9.37	-47.6	-50.0	14.6	0.00e+00	0	51	0	130023424	57	4875
2026-01-02 01:56:47.49	26.50	9.45	-47.6	-49.9	14.6	0.00e+00	0	51	0	132120576	57	4827
2026-01-02 01:56:48.48	26.45	9.53	-47.5	-49.8	14.7	0.00e+00	0	51	0	134217728	57	4809
2026-01-02 01:56:49.46	26.41	9.61	-47.6	-49.9	14.7	7.00e-07	0	51	0	136314880	57	4842
2026-01-02 01:56:50.45	26.37	9.69	-47.6	-49.9	14.7	0.00e+00	0	51	0	137363456	57	4832
2026-01-02 01:56:51.44	26.32	9.78	-47.8	-50.2	14.3	7.00e-07	0	51	0	139460608	57	5023
2026-01-02 01:56:52.42	26.28	9.86	-47.9	-50.4	14.2	0.00e+00	0	51	0	141557760	57	5106
2026-01-02 01:56:53.41	26.23	9.94	-47.7	-49.9	14.6	2.20e-06	0	51	0	143654912	57	4867
2026-01-02 01:56:54.40	26.19	10.02	-47.3	-49.5	15.1	0.00e+00	0	51	0	144703488	57	4617
2026-01-02 01:56:55.39	26.14	10.11	-47.2	-49.3	15.2	0.00e+00	0	51	0	146800640	57	4533
2026-01-02 01:56:56.38	26.10	10.19	-47.1	-49.2	15.4	0.00e+00	0	51	0	148897792	57	4455
2026-01-02 01:56:57.36	26.05	10.27	-47.0	-49.0	15.5	0.00e+00	0	51	0	150994944	57	4358
2026-01-02 01:56:58.35	26.00	10.36	-46.9	-48.8	15.7	0.00e+00	0	51	0	152043520	56	4526
2026-01-02 01:56:59.34	25.96	10.44	-47.1	-49.1	15.4	0.00e+00	0	51	0	154140672	56	4681
2026-01-02 01:57:00.33	25.91	10.52	-47.1	-49.1	15.4	0.00e+00	0	51	0	156237824	56	4699
2026-01-02 01:57:01.32	25.86	10.61	-46.8	-48.7	15.9	0.00e+00	0	51	0	158334976	56	4444
2026-01-02 01:57:02.31	25.82	10.69	-46.8	-48.7	15.9	0.00e+00	0	51	0	159383552	56	4477
2026-01-02 01:57:03.30	25.77	10.78	-46.8	-48.8	15.8	0.00e+00	0	51	0	161480704	56	4510
2026-01-02 01:57:04.29	25.72	10.86	-46.8	-48.6	16.0	0.00e+00	0	51	0	163577856	56	4438
2026-01-02 01:57:05.28	25.67	10.95	-46.7	-48.6	16.0	0.00e+00	0	51	0	165675008	56	4408
2026-01-02 01:57:06.27	25.62	11.04	-46.6	-48.5	16.0	0.00e+00	0	52	0	167772160	56	4366
2026-01-02 01:57:07.26	25.58	11.12	-46.6	-48.4	16.2	0.00e+00	0	52	0	168820736	56	4308
2026-01-02 01:57:08.25	25.53	11.21	-46.5	-48.3	16.3	0.00e+00	0	51	0	170917888	56	4252
2026-01-02 01:57:09.24	25.48	11.30	-46.6	-48.3	16.2	0.00e+00	0	52	0	173015040	56	4291
2026-01-02 01:57:10.23	25.43	11.38	-46.5	-48.3	16.3	0.00e+00	0	51	0	175112192	56	4272
2026-01-02 01:57:11.22	25.38	11.47	-46.6	-48.4	16.2	0.00e+00	0	52	0	176160768	56	4299
2026-01-02 01:57:12.21	25.33	11.56	-46.7	-48.5	16.1	0.00e+00	0	52	0	178257920	56	4348
2026-01-02 01:57:13.20	25.28	11.65	-46.6	-48.4	16.2	0.00e+00	0	52	0	180355072	56	4298
2026-01-02 01:57:14.19	25.22	11.74	-46.5	-48.2	16.4	0.00e+00	0	52	0	182452224	56	4222
2026-01-02 01:57:15.18	25.17	11.82	-46.7	-48.5	16.1	0.00e+00	0	52	0	183500800	56	4348
2026-01-02 01:57:16.17	25.12	11.91	-46.8	-48.6	16.0	0.00e+00	0	52	0	185597952	56	4438
2026-01-02 01:57:17.14	25.07	12.00	-46.6	-48.4	16.3	0.00e+00	0	52	0	187695104	56	4296
2026-01-02 01:57:18.13	25.02	12.09	-46.3	-48.0	16.5	0.00e+00	0	52	0	189792256	55	4380
2026-01-02 01:57:19.12	24.96	12.18	-46.4	-48.1	16.4	0.00e+00	0	52	0	191889408	55	4412
2026-01-02 01:57:20.11	24.91	12.27	-46.4	-48.1	16.4	0.00e+00	0	52	0	192937984	55	4414
2026-01-02 01:57:21.10	24.86	12.36	-46.2	-47.9	16.6	0.00e+00	0	52	0	195035136	55	4315
2026-01-02 01:57:22.09	24.80	12.45	-46.3	-47.9	16.6	0.00e+00	0	52	0	197132288	55	4330
2026-01-02 01:57:23.08	24.75	12.54	-46.3	-48.0	16.5	0.00e+00	0	52	0	199229440	55	4380
2026-01-02 01:57:24.06	24.70	12.63	-46.1	-47.8	16.7	0.00e+00	0	52	0	200278016	55	4265
2026-01-02 01:57:25.05	24.64	12.73	-46.3	-48.0	16.6	0.00e+00	0	52	0	202375168	55	4350
2026-01-02 01:57:26.03	24.59	12.82	-46.6	-48.4	16.2	0.00e+00	0	52	0	204472320	55	4546
2026-01-02 01:57:27.02	24.53	12.91	-46.3	-48.1	16.4	0.00e+00	0	52	0	206569472	55	4439
2026-01-02 01:57:28.01	24.47	13.00	-46.5	-48.2	16.3	0.00e+00	0	52	0	207618048	55	4474
2026-01-02 01:57:29.00	24.42	13.09	-46.6	-48.4	16.2	0.00e+00	0	52	0	209715200	55	4566
2026-01-02 01:57:29.98	24.36	13.19	-46.5	-48.3	16.3	0.00e+00	0	52	0	211812352	55	4505
2026-01-02 01:57:30.97	24.30	13.28	-46.6	-48.4	16.2	0.00e+00	0	52	0	213909504	55	4553
2026-01-02 01:57:31.95	24.25	13.37	-46.5	-48.2	16.3	0.00e+00	0	52	0	216006656	55	4489
2026-01-02 01:57:32.94	24.19	13.47	-46.6	-48.4	16.2	0.00e+00	0	52	0	217055232	55	4556
2026-01-02 01:57:33.93	24.13	13.56	-46.8	-48.7	15.9	0.00e+00	0	52	0	219152384	55	4721
2026-01-02 01:57:34.92	24.07	13.66	-46.7	-48.5	16.1	0.00e+00	0	52	0	221249536	55	4637
2026-01-02 01:57:35.91	24.01	13.75	-46.8	-48.7	16.0	0.00e+00	0	52	0	223346688	55	4715
2026-01-02 01:57:36.91	23.95	13.85	-46.9	-48.9	15.7	0.00e+00	0	52	0	224395264	55	4843
2026-01-02 01:57:37.89	23.89	13.94	-46.9	-48.7	15.9	0.00e+00	0	52	0	226492416	55	4757
2026-01-02 01:57:38.88	23.83	14.04	-47.0	-48.9	15.8	0.00e+00	0	52	0	228589568	55	4817
2026-01-02 01:57:39.87	23.77	14.14	-46.8	-48.7	15.9	0.00e+00	0	53	0	230686720	55	4708
2026-01-02 01:57:40.86	23.71	14.23	-47.0	-49.0	15.7	0.00e+00	0	53	0	231735296	55	4872
2026-01-02 01:57:41.86	23.65	14.33	-47.0	-48.9	15.8	0.00e+00	0	52	0	233832448	56	4595
2026-01-02 01:57:42.84	23.59	14.43	-47.1	-49.1	15.7	0.00e+00	0	53	0	235929600	56	4656
2026-01-02 01:57:43.84	23.52	14.53	-47.2	-49.1	15.6	0.00e+00	0	52	0	238026752	56	4692
2026-01-02 01:57:44.83	23.46	14.63	-47.2	-49.1	15.6	0.00e+00	0	53	0	239075328	56	4699
2026-01-02 01:57:45.82	23.40	14.73	-47.4	-49.5	15.3	0.00e+00	0	53	0	241172480	56	4901
2026-01-02 01:57:46.81	23.33	14.83	-47.7	-49.9	14.9	0.00e+00	0	53	0	243269632	57	4824
2026-01-02 01:57:47.80	23.27	14.93	-47.5	-49.6	15.1	0.00e+00	0	53	0	245366784	57	4692
2026-01-02 01:57:48.79	23.20	15.03	-47.3	-49.3	15.4	0.00e+00	0	53	0	247463936	57	4529
2026-01-02 01:57:49.78	23.14	15.13	-47.3	-49.3	15.5	0.00e+00	0	53	0	248512512	57	4494
2026-01-02 01:57:50.77	23.07	15.23	-47.4	-49.4	15.3	0.00e+00	0	53	0	250609664	57	4596
2026-01-02 01:57:51.76	23.01	15.33	-47.4	-49.5	15.3	0.00e+00	0	53	0	252706816	57	4619
2026-01-02 01:57:52.75	22.94	15.43	-46.9	-48.8	16.0	0.00e+00	0	53	0	254803968	57	4249
2026-01-02 01:57:53.74	22.87	15.53	-46.7	-48.5	16.3	0.00e+00	0	53	0	255852544	56	4348
2026-01-02 01:57:54.73	22.81	15.63	-46.5	-48.2	16.6	0.00e+00	0	53	0	257949696	56	4200
2026-01-02 01:57:55.72	22.74	15.74	-46.1	-47.6	16.9	0.00e+00	0	53	0	260046848	55	4188
2026-01-02 01:57:56.71	22.67	15.84	-46.0	-47.5	17.1	0.00e+00	0	53	0	262144000	55	4133
2026-01-02 01:57:57.70	22.60	15.94	-46.0	-47.6	17.0	0.00e+00	0	53	0	264241152	55	4180
2026-01-02 01:57:58.68	22.53	16.05	-46.0	-47.5	17.1	0.00e+00	0	53	0	265289728	55	4125
2026-01-02 01:57:59.68	22.46	16.15	-46.1	-47.7	17.0	0.00e+00	0	53	0	267386880	55	4205
2026-01-02 01:58:00.67	22.39	16.26	-46.1	-47.7	16.9	0.00e+00	0	53	0	269484032	55	4228
2026-01-02 01:58:01.65	22.32	16.36	-46.3	-47.9	16.7	0.00e+00	0	53	0	271581184	55	4307
2026-01-02 01:58:02.64	22.25	16.46	-46.4	-48.0	16.6	0.00e+00	0	53	0	272629760	55	4381
2026-01-02 01:58:03.63	22.17	16.57	-46.4	-48.1	16.5	0.00e+00	0	53	0	274726912	55	4432
2026-01-02 01:58:04.62	22.10	16.68	-46.4	-48.0	16.6	0.00e+00	0	53	0	276824064	55	4385
2026-01-02 01:58:05.60	22.03	16.78	-46.4	-48.0	16.6	0.00e+00	0	53	0	278921216	55	4373
2026-01-02 01:58:06.59	21.96	16.89	-46.4	-48.1	16.5	0.00e+00	0	53	0	279969792	55	4431
2026-01-02 01:58:07.58	21.88	17.00	-46.5	-48.2	16.5	0.00e+00	0	53	0	282066944	55	4467
2026-01-02 01:58:08.56	21.81	17.10	-46.5	-48.2	16.5	0.00e+00	0	53	0	284164096	55	4480
2026-01-02 01:58:09.55	21.73	17.21	-46.6	-48.3	16.4	0.00e+00	0	53	0	286261248	55	4521
2026-01-02 01:58:10.55	21.65	17.32	-46.9	-48.8	15.9	0.00e+00	0	53	0	288358400	55	4761
2026-01-02 01:58:11.54	21.58	17.43	-46.7	-48.5	16.2	0.00e+00	0	53	0	289406976	55	4629
2026-01-02 01:58:12.52	21.50	17.54	-46.5	-48.2	16.5	0.00e+00	0	53	0	291504128	55	4477
2026-01-02 01:58:13.50	21.42	17.65	-46.6	-48.3	16.3	0.00e+00	0	53	0	293601280	55	4542
2026-01-02 01:58:14.49	21.35	17.76	-46.6	-48.4	16.3	0.00e+00	0	53	0	295698432	55	4549
2026-01-02 01:58:15.48	21.27	17.87	-46.6	-48.3	16.4	0.00e+00	0	53	0	296747008	55	4510
2026-01-02 01:58:16.47	21.19	17.98	-46.5	-48.2	16.4	0.00e+00	0	53	0	298844160	55	4491
2026-01-02 01:58:17.46	21.11	18.09	-46.6	-48.4	16.3	0.00e+00	0	53	0	300941312	55	4546
2026-01-02 01:58:18.45	21.03	18.21	-46.8	-48.6	16.1	0.00e+00	0	53	0	303038464	55	4665
2026-01-02 01:58:19.44	20.94	18.32	-46.3	-47.9	16.8	0.00e+00	0	53	0	304087040	55	4327
2026-01-02 01:58:20.44	20.86	18.43	-46.1	-47.7	16.9	0.00e+00	0	53	0	306184192	55	4224
2026-01-02 01:58:21.42	20.78	18.54	-46.2	-47.7	16.9	0.00e+00	0	53	0	308281344	55	4242
2026-01-02 01:58:22.41	20.70	18.66	-46.1	-47.7	17.0	0.00e+00	0	54	0	310378496	55	4222
2026-01-02 01:58:23.40	20.61	18.77	-46.0	-47.6	17.1	0.00e+00	0	53	0	312475648	55	4148
2026-01-02 01:58:24.38	20.53	18.89	-46.0	-47.6	17.1	0.00e+00	0	53	0	313524224	55	4179
2026-01-02 01:58:25.38	20.44	19.00	-46.2	-47.8	16.9	0.00e+00	0	54	0	315621376	55	4257
2026-01-02 01:58:26.37	20.36	19.12	-46.5	-48.1	16.6	0.00e+00	0	53	0	317718528	55	4431
2026-01-02 01:58:27.35	20.27	19.24	-46.2	-47.7	17.0	0.00e+00	0	54	0	319815680	55	4237
2026-01-02 01:58:28.34	20.18	19.35	-46.3	-47.9	16.8	0.00e+00	0	54	0	320864256	55	4331
2026-01-02 01:58:29.32	20.09	19.47	-46.6	-48.3	16.4	0.00e+00	0	54	0	322961408	55	4534
2026-01-02 01:58:30.30	20.01	19.59	-46.4	-48.1	16.6	0.00e+00	0	54	0	325058560	55	4411
2026-01-02 01:58:31.29	19.92	19.70	-46.6	-48.3	16.5	0.00e+00	0	54	0	327155712	55	4517
2026-01-02 01:58:32.27	19.83	19.82	-46.7	-48.5	16.3	0.00e+00	0	54	0	328204288	55	4613
2026-01-02 01:58:33.26	19.74	19.94	-46.9	-48.7	16.1	0.00e+00	0	54	0	330301440	55	4743
2026-01-02 01:58:34.25	19.64	20.06	-47.2	-49.2	15.7	0.00e+00	0	54	0	332398592	56	4723
2026-01-02 01:58:35.24	19.55	20.18	-47.2	-49.1	15.7	0.00e+00	0	54	0	334495744	56	4704
2026-01-02 01:58:36.22	19.46	20.30	-47.5	-49.6	15.3	0.00e+00	0	54	0	335544320	56	4929
2026-01-02 01:58:37.22	19.36	20.42	-47.6	-49.8	15.1	0.00e+00	0	54	0	337641472	57	4780
2026-01-02 01:58:38.20	19.27	20.54	-47.6	-49.7	15.2	0.00e+00	0	54	0	339738624	57	4743
2026-01-02 01:58:39.19	19.17	20.67	-47.6	-49.8	15.0	0.00e+00	0	54	0	341835776	57	4808
2026-01-02 01:58:40.18	19.08	20.79	-47.6	-49.7	15.2	0.00e+00	0	54	0	342884352	57	4726
2026-01-02 01:58:41.18	18.98	20.91	-47.5	-49.6	15.3	0.00e+00	0	54	0	344981504	57	4689
2026-01-02 01:58:42.16	18.88	21.04	-47.6	-49.9	15.0	0.00e+00	0	54	0	347078656	57	4821
2026-01-02 01:58:43.15	18.78	21.16	-47.8	-49.9	14.9	0.00e+00	0	54	0	349175808	57	4870
2026-01-02 01:58:44.13	18.69	21.28	-47.6	-49.7	15.2	0.00e+00	0	54	0	351272960	57	4743
2026-01-02 01:58:45.12	18.58	21.41	-47.5	-49.7	15.2	0.00e+00	0	54	0	352321536	57	4706
2026-01-02 01:58:46.12	18.48	21.54	-47.3	-49.3	15.6	0.00e+00	0	54	0	354418688	57	4495
2026-01-02 01:58:47.11	18.38	21.66	-47.1	-48.9	15.9	0.00e+00	0	54	0	356515840	57	4338
2026-01-02 01:58:48.10	18.28	21.79	-47.1	-49.0	15.8	0.00e+00	0	54	0	358612992	57	4382
2026-01-02 01:58:49.09	18.17	21.92	-47.0	-48.8	16.1	0.00e+00	0	54	0	359661568	57	4284
2026-01-02 01:58:50.08	18.07	22.05	-47.1	-48.9	16.0	0.00e+00	0	54	0	361758720	57	4331
2026-01-02 01:58:51.07	17.96	22.17	-47.1	-49.1	15.8	0.00e+00	0	54	0	363855872	57	4417
2026-01-02 01:58:52.06	17.86	22.30	-47.4	-49.4	15.5	0.00e+00	0	54	0	365953024	57	4553
2026-01-02 01:58:53.05	17.75	22.43	-47.2	-49.1	15.8	0.00e+00	0	54	0	368050176	57	4437
2026-01-02 01:58:54.05	17.64	22.56	-47.2	-49.1	15.8	0.00e+00	0	54	0	369098752	57	4393
2026-01-02 01:58:55.04	17.53	22.70	-47.2	-49.1	15.8	0.00e+00	0	54	0	371195904	57	4410
2026-01-02 01:58:56.04	17.42	22.83	-47.3	-49.3	15.6	0.00e+00	0	54	0	373293056	57	4497
2026-01-02 01:58:57.03	17.31	22.96	-47.3	-49.3	15.6	0.00e+00	0	54	0	375390208	57	4519
2026-01-02 01:58:58.03	17.19	23.09	-47.2	-49.1	15.8	0.00e+00	0	54	0	376438784	57	4434
2026-01-02 01:58:59.02	17.08	23.23	-47.4	-49.4	15.5	7.00e-07	0	54	0	378535936	57	4582
2026-01-02 01:59:00.01	16.96	23.36	-47.7	-49.8	15.2	0.00e+00	0	54	0	380633088	57	4772
2026-01-02 01:59:01.00	16.85	23.49	-47.6	-49.7	15.3	0.00e+00	0	54	0	382730240	57	4720
2026-01-02 01:59:01.98	16.73	23.63	-47.5	-49.5	15.4	0.00e+00	0	54	0	383778816	57	4623
2026-01-02 01:59:02.97	16.62	23.76	-48.0	-50.3	14.7	7.00e-07	0	54	0	385875968	57	5047
2026-01-02 01:59:03.96	16.50	23.90	-47.8	-49.9	15.1	0.00e+00	0	54	0	387973120	57	4817
2026-01-02 01:59:04.94	16.38	24.03	-47.7	-49.8	15.2	0.00e+00	0	54	0	390070272	57	4784
2026-01-02 01:59:05.94	16.26	24.17	-48.0	-50.3	14.7	0.00e+00	0	54	0	392167424	57	5052
2026-01-02 01:59:06.93	16.13	24.31	-48.0	-50.2	14.8	0.00e+00	0	54	0	393216000	58	4713
2026-01-02 01:59:07.92	16.01	24.45	-48.0	-50.3	14.7	0.00e+00	0	54	0	395313152	58	4776
2026-01-02 01:59:08.91	15.89	24.59	-48.3	-50.7	14.2	7.00e-07	0	54	0	397410304	58	5023
2026-01-02 01:59:09.91	15.76	24.73	-48.1	-50.5	14.5	0.00e+00	0	54	0	399507456	58	4872
2026-01-02 01:59:10.90	15.64	24.87	-48.0	-50.3	14.7	1.50e-06	0	54	0	400556032	58	4773
2026-01-02 01:59:11.88	15.51	25.01	-47.9	-50.1	14.8	0.00e+00	0	54	0	402653184	58	4669
2026-01-02 01:59:12.87	15.38	25.15	-47.9	-50.2	14.7	0.00e+00	0	55	0	404750336	58	4741
2026-01-02 01:59:13.86	15.25	25.29	-48.0	-50.4	14.5	7.00e-07	0	55	0	406847488	58	4840
2026-01-02 01:59:14.84	15.12	25.43	-48.4	-51.0	13.9	7.00e-07	0	55	0	407896064	58	5178
2026-01-02 01:59:15.84	14.99	25.58	-48.3	-50.9	13.8	6.80e-06	0	55	0	409993216	58	5137
2026-01-02 01:59:16.83	14.85	25.72	-48.1	-50.7	14.1	3.00e-06	0	54	0	412090368	58	4984
2026-01-02 01:59:17.82	14.72	25.86	-48.3	-50.9	13.8	1.50e-06	0	55	0	414187520	58	5127
2026-01-02 01:59:18.80	14.58	26.01	-48.3	-51.1	13.5	9.10e-06	0	55	0	416284672	58	5232
2026-01-02 01:59:19.79	14.45	26.15	-48.0	-50.7	13.8	8.30e-06	0	54	0	417333248	58	4994
2026-01-02 01:59:20.78	14.31	26.30	-47.9	-50.5	13.8	3.00e-06	0	54	0	419430400	58	4904
2026-01-02 01:59:21.77	14.17	26.44	-48.4	-51.5	12.6	2.82e-05	0	54	0	421527552	58	5504
2026-01-02 01:59:22.77	14.03	26.59	-48.3	-51.5	12.6	1.34e-04	0	55	0	423624704	58	5491
2026-01-02 01:59:23.76	13.88	26.74	-48.8	-52.6	11.3	2.57e-04	0	55	0	424673280	59	5881
2026-01-02 01:59:24.75	13.74	26.89	-49.0	-53.3	10.5	2.77e-03	0	54	0	426770432	60	5999
2026-01-02 01:59:25.73	13.60	27.04	-49.3	-54.0	9.5	6.27e-03	0	55	0	428867584	60	6562
2026-01-02 01:59:26.72	13.45	27.19	-49.4	-54.6	8.8	2.19e-02	0	55	0	430964736	60	6974
2026-01-02 01:59:27.71	13.30	27.34	-49.5	-54.8	8.7	3.54e-02	0	55	0	432013312	61	6743
2026-01-02 01:59:28.70	13.15	27.49	-49.6	-55.1	8.5	4.75e-02	0	55	0	434110464	61	6981
2026-01-02 01:59:29.68	13.00	27.64	-49.7	-55.0	8.6	4.67e-02	0	55	0	436207616	61	6905
2026-01-02 01:59:30.66	12.85	27.79	-49.5	-54.3	9.4	2.90e-02	0	55	0	438304768	61	6365
2026-01-02 01:59:31.66	12.70	27.94	-49.4	-53.8	10.0	1.43e-02	0	55	0	440401920	61	6055
2026-01-02 01:59:32.65	12.54	28.10	-49.2	-53.1	10.9	3.40e-03	0	55	0	441450496	61	5571
2026-01-02 01:59:33.65	12.38	28.25	-49.1	-52.7	11.5	9.95e-04	0	55	0	443547648	61	5317
2026-01-02 01:59:34.64	12.22	28.41	-48.7	-51.9	12.4	4.41e-04	0	55	0	445644800	60	5134
2026-01-02 01:59:35.63	12.06	28.56	-48.4	-51.3	13.2	3.81e-05	0	55	0	447741952	60	4795
2026-01-02 01:59:36.61	11.90	28.71	-48.6	-51.4	13.3	1.60e-05	0	55	0	448790528	59	5138
2026-01-02 01:59:37.60	11.74	28.87	-48.1	-50.5	14.2	5.30e-06	0	55	0	450887680	59	4642
2026-01-02 01:59:38.59	11.57	29.03	-48.0	-50.4	14.5	0.00e+00	0	55	0	452984832	59	4557
2026-01-02 01:59:39.58	11.41	29.18	-48.2	-50.6	14.3	2.20e-06	0	55	0	455081984	59	4665
2026-01-02 01:59:40.57	11.24	29.34	-48.5	-51.2	13.7	3.80e-06	0	55	0	456130560	59	5000
2026-01-02 01:59:41.56	11.07	29.50	-48.6	-51.3	13.6	7.60e-06	0	55	0	458227712	59	5087
2026-01-02 01:59:42.54	10.90	29.66	-48.7	-51.5	13.4	1.06e-05	0	55	0	460324864	59	5205
2026-01-02 01:59:43.54	10.72	29.82	-48.8	-51.7	13.0	5.18e-05	0	55	0	462422016	60	5009
2026-01-02 01:59:44.54	10.55	29.98	-48.8	-51.8	13.1	3.43e-05	0	55	0	464519168	60	5067
2026-01-02 01:59:45.52	10.37	30.14	-48.6	-51.4	13.5	1.37e-05	0	55	0	465567744	60	4858
2026-01-02 01:59:46.52	10.19	30.31	-48.5	-51.2	13.9	6.80e-06	0	55	0	467664896	59	5010
2026-01-02 01:59:47.50	10.01	30.47	-48.4	-50.9	14.1	5.30e-06	0	55	0	469762048	59	4837
2026-01-02 01:59:48.50	9.83	30.63	-48.1	-50.5	14.5	7.00e-07	0	55	0	471859200	59	4624
2026-01-02 01:59:49.48	9.65	30.79	-48.1	-50.4	14.6	0.00e+00	0	55	0	472907776	58	4869
2026-01-02 01:59:50.46	9.46	30.96	-48.1	-50.3	14.7	0.00e+00	0	55	0	475004928	58	4812
2026-01-02 01:59:51.45	9.27	31.12	-48.3	-50.6	14.5	0.00e+00	0	55	0	477102080	58	4973
2026-01-02 01:59:52.45	9.08	31.29	-48.4	-50.9	14.1	1.50e-06	0	55	0	479199232	58	5125
2026-01-02 01:59:53.43	8.89	31.45	-48.5	-51.0	14.1	3.00e-06	0	55	0	480247808	59	4893
2026-01-02 01:59:54.42	8.70	31.62	-48.7	-51.4	13.7	6.10e-06	0	55	0	482344960	59	5137
2026-01-02 01:59:55.42	8.50	31.79	-48.9	-51.7	13.3	1.90e-05	0	55	0	484442112	59	5313
2026-01-02 01:59:56.41	8.30	31.95	-48.7	-51.5	13.6	1.29e-05	0	55	0	486539264	59	5179
2026-01-02 01:59:57.40	8.10	32.12	-48.9	-51.7	13.4	9.90e-06	0	55	0	488636416	59	5306
2026-01-02 01:59:58.39	7.90	32.29	-48.8	-51.5	13.6	8.30e-06	0	55	0	489684992	59	5182
2026-01-02 01:59:59.39	7.69	32.46	-48.7	-51.4	13.7	4.50e-06	0	55	0	491782144	59	5135
2026-01-02 02:00:00.37	7.48	32.63	-48.9	-51.7	13.4	6.10e-06	0	55	0	493879296	59	5297
2026-01-02 02:00:01.36	7.28	32.80	-48.9	-51.7	13.3	1.22e-05	0	55	0	495976448	59	5332
2026-01-02 02:00:02.35	7.06	32.97	-49.0	-52.0	13.0	3.58e-05	0	55	0	497025024	60	5212
2026-01-02 02:00:03.34	6.85	33.14	-49.0	-52.0	13.0	2.44e-05	0	55	0	499122176	60	5195
2026-01-02 02:00:04.33	6.63	33.31	-49.1	-52.2	12.8	3.81e-05	0	55	0	501219328	60	5306
2026-01-02 02:00:05.32	6.42	33.48	-49.0	-51.9	13.1	5.49e-05	0	55	0	503316480	60	5122
2026-01-02 02:00:06.32	6.19	33.66	-49.1	-52.1	12.9	5.03e-05	0	55	0	505413632	60	5269
2026-01-02 02:00:07.30	5.97	33.83	-49.0	-52.1	13.0	3.28e-05	0	55	0	506462208	60	5226
2026-01-02 02:00:08.30	5.74	34.01	-48.8	-51.7	13.3	1.83e-05	0	55	0	508559360	60	5024
2026-01-02 02:00:09.29	5.52	34.18	-48.6	-51.4	13.7	3.00e-06	0	55	0	510656512	60	4824
2026-01-02 02:00:10.28	5.29	34.35	-48.3	-50.8	14.1	1.50e-06	0	55	0	512753664	59	4784
2026-01-02 02:00:11.28	5.05	34.53	-48.2	-50.6	14.4	1.50e-06	0	55	0	513802240	59	4697
2026-01-02 02:00:12.27	4.82	34.71	-48.6	-51.2	13.8	1.50e-06	0	55	0	515899392	59	5024
2026-01-02 02:00:13.25	4.58	34.88	-48.7	-51.4	13.6	3.00e-06	0	55	0	517996544	59	5127
2026-01-02 02:00:14.24	4.34	35.06	-48.6	-51.3	13.7	3.80e-06	0	55	0	520093696	59	5070
2026-01-02 02:00:15.23	4.10	35.23	-48.7	-51.4	13.6	4.50e-06	0	55	0	521142272	59	5126
2026-01-02 02:00:16.22	3.85	35.41	-48.7	-51.6	13.4	1.67e-05	0	55	0	523239424	60	4969
2026-01-02 02:00:17.21	3.60	35.59	-48.9	-52.1	13.0	2.28e-05	0	55	0	525336576	60	5226
2026-01-02 02:00:18.20	3.35	35.77	-48.9	-51.9	13.0	2.05e-05	0	55	0	527433728	60	5128
2026-01-02 02:00:19.19	3.10	35.94	-49.0	-52.0	12.9	1.55e-04	0	55	0	528482304	60	5218
2026-01-02 02:00:20.17	2.84	36.12	-48.7	-51.4	13.6	1.90e-05	0	55	0	530579456	60	4868
2026-01-02 02:00:21.16	2.58	36.30	-49.1	-52.3	12.8	7.60e-06	0	55	0	532676608	60	5342
2026-01-02 02:00:22.14	2.32	36.48	-48.8	-51.7	13.4	3.80e-06	0	55	0	534773760	60	4993
2026-01-02 02:00:23.13	2.06	36.66	-48.9	-51.9	13.2	1.22e-05	0	55	0	536870912	60	5116
2026-01-02 02:00:24.12	1.79	36.84	-48.9	-51.9	13.1	5.49e-05	0	55	0	537919488	60	5149
2026-01-02 02:00:25.11	1.51	37.02	-48.9	-51.9	13.0	4.50e-05	0	55	0	540016640	60	5133
2026-01-02 02:00:26.09	1.24	37.19	-49.0	-52.2	12.8	3.50e-05	0	55	0	542113792	60	5310
2026-01-02 02:00:27.09	0.96	37.38	-48.9	-52.0	13.1	6.33e-05	0	55	0	544210944	60	5165
2026-01-02 02:00:28.07	0.68	37.56	-49.2	-52.5	12.5	3.50e-05	0	55	0	545259520	60	5469
2026-01-02 02:00:29.06	0.40	37.74	-49.1	-52.5	12.5	5.64e-05	0	55	0	547356672	60	5498
2026-01-02 02:00:30.04	0.11	37.92	-48.9	-52.1	12.9	2.44e-05	0	55	0	549453824	60	5234
2026-01-02 02:00:31.03	359.82	38.10	-48.6	-51.5	13.5	2.89e-05	0	55	0	551550976	60	4925
2026-01-02 02:00:32.01	359.53	38.28	-48.5	-51.3	13.8	5.30e-06	0	55	0	552599552	59	5077
2026-01-02 02:00:33.00	359.24	38.46	-47.9	-50.3	14.7	1.50e-06	0	55	0	554696704	59	4520
2026-01-02 02:00:33.99	358.94	38.64	-47.8	-50.0	15.0	0.00e+00	0	55	0	556793856	58	4618
2026-01-02 02:00:34.98	358.63	38.82	-48.0	-50.2	14.8	0.00e+00	0	55	0	558891008	58	4739
2026-01-02 02:00:35.97	358.32	39.00	-47.7	-49.8	15.3	0.00e+00	0	55	0	560988160	58	4525
2026-01-02 02:00:36.96	358.01	39.18	-48.1	-50.5	14.6	0.00e+00	0	55	0	562036736	58	4871
2026-01-02 02:00:37.95	357.70	39.36	-48.4	-50.9	14.1	1.50e-06	0	56	0	564133888	58	5137
2026-01-02 02:00:38.94	357.38	39.54	-48.4	-50.9	14.2	7.00e-07	0	55	0	566231040	58	5138
2026-01-02 02:00:39.93	357.06	39.73	-48.4	-51.0	14.1	7.00e-07	0	55	0	568328192	58	5185
2026-01-02 02:00:40.93	356.73	39.91	-48.5	-51.2	13.9	1.50e-06	0	55	0	569376768	58	5288
2026-01-02 02:00:41.92	356.40	40.09	-48.6	-51.3	13.8	4.50e-06	0	56	0	571473920	59	5070
2026-01-02 02:00:42.90	356.07	40.27	-48.8	-51.7	13.4	1.14e-05	0	55	0	573571072	59	5317
2026-01-02 02:00:43.89	355.74	40.45	-49.2	-52.5	12.6	4.95e-05	0	55	0	575668224	60	5475
2026-01-02 02:00:44.88	355.40	40.63	-49.2	-52.5	12.6	1.01e-04	0	55	0	576716800	60	5474
2026-01-02 02:00:45.87	355.05	40.81	-48.9	-51.9	13.0	2.67e-05	0	56	0	578813952	60	5133
2026-01-02 02:00:46.86	354.70	40.99	-48.5	-51.1	13.9	8.30e-06	0	56	0	580911104	59	4969
2026-01-02 02:00:47.85	354.35	41.17	-48.0	-50.3	14.7	0.00e+00	0	55	0	583008256	59	4531
2026-01-02 02:00:48.85	353.99	41.35	-47.5	-49.7	15.3	0.00e+00	0	56	0	585105408	58	4470
2026-01-02 02:00:49.83	353.64	41.53	-47.5	-49.6	15.4	0.00e+00	0	55	0	586153984	57	4664
2026-01-02 02:00:50.82	353.27	41.71	-47.5	-49.5	15.6	0.00e+00	0	55	0	588251136	57	4641
2026-01-02 02:00:51.81	352.90	41.88	-47.8	-50.1	15.0	0.00e+00	0	55	0	590348288	57	4927
2026-01-02 02:00:52.80	352.53	42.06	-48.4	-50.8	14.3	0.00e+00	0	55	0	592445440	58	5078
2026-01-02 02:00:53.79	352.16	42.24	-49.1	-52.1	13.1	8.30e-06	0	55	0	593494016	59	5543
2026-01-02 02:00:54.79	351.77	42.42	-49.8	-53.6	11.5	3.69e-04	0	55	0	595591168	61	5908
2026-01-02 02:00:55.77	351.39	42.59	-49.8	-53.9	11.1	1.42e-03	0	55	0	597688320	61	6090
2026-01-02 02:00:56.76	351.00	42.77	-49.6	-53.3	11.7	1.04e-03	0	55	0	599785472	61	5710
2026-01-02 02:00:57.74	350.61	42.94	-49.5	-53.1	12.0	7.54e-04	0	55	0	600834048	61	5547
2026-01-02 02:00:58.73	350.22	43.11	-49.5	-52.9	12.2	2.87e-04	0	56	0	602931200	61	5455
2026-01-02 02:00:59.73	349.81	43.29	-49.3	-52.7	12.3	3.41e-04	0	56	0	605028352	61	5287
2026-01-02 02:01:00.71	349.41	43.46	-49.4	-52.8	12.3	1.46e-04	0	56	0	607125504	61	5366
2026-01-02 02:01:01.71	348.99	43.63	-49.3	-52.7	12.3	2.30e-04	0	55	0	609222656	61	5337
2026-01-02 02:01:02.70	348.58	43.80	-49.2	-52.6	12.4	1.81e-04	0	56	0	610271232	61	5232
2026-01-02 02:01:03.69	348.16	43.97	-49.7	-53.5	11.5	3.79e-04	0	56	0	612368384	61	5821
2026-01-02 02:01:04.68	347.73	44.14	-49.7	-53.7	11.4	1.17e-03	0	56	0	614465536	61	5924
2026-01-02 02:01:05.67	347.31	44.31	-49.6	-53.2	11.8	5.34e-04	0	56	0	616562688	61	5648
2026-01-02 02:01:06.65	346.88	44.47	-49.3	-52.8	12.2	2.94e-04	0	56	0	617611264	61	5399
2026-01-02 02:01:07.63	346.44	44.63	-48.9	-52.1	12.9	1.30e-04	0	56	0	619708416	61	4970
2026-01-02 02:01:08.63	346.00	44.80	-49.0	-52.1	13.0	4.11e-05	0	56	0	621805568	60	5239
2026-01-02 02:01:09.62	345.55	44.96	-48.7	-51.6	13.4	2.21e-05	0	56	0	623902720	60	4975
2026-01-02 02:01:10.60	345.10	45.12	-48.4	-51.1	14.0	4.50e-06	0	56	0	624951296	60	4657
2026-01-02 02:01:11.59	344.65	45.28	-48.5	-51.1	13.9	7.00e-07	0	56	0	627048448	59	4957
2026-01-02 02:01:12.59	344.18	45.44	-48.6	-51.1	14.0	1.50e-06	0	56	0	629145600	59	4971
2026-01-02 02:01:13.58	343.72	45.60	-48.7	-51.4	13.7	1.22e-05	0	55	0	631242752	59	5137
2026-01-02 02:01:14.57	343.25	45.75	-48.7	-51.3	13.9	9.10e-06	0	56	0	633339904	59	5075
2026-01-02 02:01:15.55	342.78	45.91	-48.4	-50.9	14.2	3.00e-06	0	56	0	634388480	59	4828
2026-01-02 02:01:16.54	342.30	46.06	-47.5	-49.5	15.7	0.00e+00	0	56	0	636485632	58	4372
2026-01-02 02:01:17.54	341.81	46.21	-47.1	-48.9	16.3	0.00e+00	0	56	0	638582784	57	4295
2026-01-02 02:01:18.54	341.31	46.36	-47.2	-49.0	16.1	0.00e+00	0	56	0	640679936	56	4626
2026-01-02 02:01:19.52	340.83	46.51	-47.2	-49.1	15.9	0.00e+00	0	55	0	641728512	56	4689
2026-01-02 02:01:20.51	340.33	46.65	-47.7	-49.9	15.2	0.00e+00	0	56	0	643825664	57	4816
2026-01-02 02:01:21.50	339.83	46.80	-48.2	-50.6	14.5	7.00e-07	0	56	0	645922816	58	4966
2026-01-02 02:01:22.49	339.32	46.94	-48.7	-51.5	13.6	1.50e-06	0	56	0	648019968	59	5203
2026-01-02 02:01:23.47	338.81	47.07	-48.8	-51.6	13.5	1.90e-05	0	56	0	649068544	60	4982
2026-01-02 02:01:24.47	338.29	47.21	-48.4	-51.0	14.2	3.00e-06	0	56	0	651165696	59	4884
2026-01-02 02:01:25.46	337.77	47.35	-48.5	-51.2	13.9	3.80e-06	0	56	0	653262848	59	5019
2026-01-02 02:01:26.46	337.24	47.48	-49.1	-52.4	12.7	2.44e-05	0	56	0	655360000	60	5464
2026-01-02 02:01:27.45	336.71	47.61	-49.1	-52.5	12.5	9.46e-05	0	56	0	657457152	60	5510
2026-01-02 02:01:28.44	336.17	47.74	-49.1	-52.7	12.4	1.46e-04	0	56	0	658505728	60	5608
2026-01-02 02:01:29.43	335.63	47.87	-48.6	-51.6	13.4	2.36e-05	0	56	0	660602880	60	4940
2026-01-02 02:01:30.43	335.09	47.99	-48.5	-51.2	13.9	1.14e-05	0	56	0	662700032	59	4995
2026-01-02 02:01:31.41	334.54	48.11	-48.3	-50.8	14.2	1.50e-06	0	56	0	664797184	59	4813
2026-01-02 02:01:32.40	333.99	48.23	-48.0	-50.3	14.8	0.00e+00	0	56	0	665845760	59	4528
2026-01-02 02:01:33.39	333.44	48.35	-48.0	-50.3	14.8	0.00e+00	0	56	0	667942912	59	4519
2026-01-02 02:01:34.38	332.87	48.46	-47.8	-49.9	15.2	0.00e+00	0	56	0	670040064	58	4584
2026-01-02 02:01:35.37	332.31	48.57	-48.1	-50.6	14.6	0.00e+00	0	56	0	672137216	58	4933
2026-01-02 02:01:36.36	331.74	48.68	-49.0	-52.1	13.1	3.00e-06	0	56	0	674234368	59	5570
2026-01-02 02:01:37.35	331.17	48.78	-49.8	-53.9	11.2	1.57e-04	0	56	0	675282944	61	6070
2026-01-02 02:01:38.34	330.59	48.89	-50.2	-55.0	10.0	2.69e-03	0	56	0	677380096	62	6543
2026-01-02 02:01:39.32	330.02	48.98	-50.5	-55.9	9.0	2.69e-02	0	56	0	679477248	63	6835
2026-01-02 02:01:40.32	329.43	49.08	-50.0	-54.3	10.6	1.34e-02	0	56	0	681574400	63	5719
2026-01-02 02:01:41.31	328.84	49.17	-49.4	-53.1	12.0	2.39e-03	0	56	0	682622976	61	5550
2026-01-02 02:01:42.30	328.25	49.26	-49.2	-52.8	12.2	2.00e-04	0	56	0	684720128	61	5389
2026-01-02 02:01:43.29	327.66	49.35	-48.8	-52.1	12.9	4.65e-05	0	56	0	686817280	60	5229
2026-01-02 02:01:44.27	327.06	49.43	-48.4	-51.3	13.7	2.05e-05	0	56	0	688914432	60	4787
2026-01-02 02:01:45.26	326.46	49.52	-48.8	-51.8	13.2	9.90e-06	0	56	0	689963008	60	5071
2026-01-02 02:01:46.25	325.86	49.59	-49.5	-53.3	11.8	2.29e-04	0	56	0	692060160	60	6056
2026-01-02 02:01:47.23	325.26	49.67	-49.2	-52.8	12.2	2.10e-04	0	56	0	694157312	60	5710
2026-01-02 02:01:48.22	324.65	49.74	-49.4	-53.4	11.6	5.31e-04	0	56	0	696254464	61	5751
2026-01-02 02:01:49.21	324.03	49.80	-48.8	-52.0	13.0	1.96e-04	0	56	0	698351616	60	5175
2026-01-02 02:01:50.20	323.42	49.87	-48.9	-52.3	12.7	6.25e-05	0	56	0	699400192	60	5369
2026-01-02 02:01:51.19	322.80	49.93	-49.1	-52.7	12.1	8.85e-05	0	56	0	701497344	60	5625
2026-01-02 02:01:52.18	322.18	49.99	-48.8	-52.1	12.9	2.25e-04	0	56	0	703594496	60	5221
2026-01-02 02:01:53.17	321.56	50.04	-48.3	-50.9	14.1	1.98e-05	0	56	0	705691648	59	4846
2026-01-02 02:01:54.16	320.93	50.09	-47.6	-49.8	15.3	0.00e+00	0	56	0	706740224	58	4509
2026-01-02 02:01:55.15	320.30	50.14	-46.7	-48.5	16.4	0.00e+00	0	56	0	708837376	56	4374
2026-01-02 02:01:56.14	319.67	50.18	-46.0	-47.6	17.3	0.00e+00	0	56	0	710934528	55	4146
2026-01-02 02:01:57.14	319.04	50.22	-45.7	-47.2	17.6	0.00e+00	0	56	0	713031680	54	4232
2026-01-02 02:01:58.12	318.41	50.25	-46.2	-47.9	16.9	0.00e+00	0	56	0	714080256	54	4580
2026-01-02 02:01:59.11	317.78	50.29	-46.3	-48.1	16.6	0.00e+00	0	56	0	716177408	54	4698
2026-01-02 02:02:00.10	317.14	50.31	-46.0	-47.6	17.2	0.00e+00	0	56	0	718274560	54	4415
2026-01-02 02:02:01.08	316.51	50.34	-45.3	-46.7	18.0	0.00e+00	0	56	0	720371712	53	4230
2026-01-02 02:02:02.07	315.88	50.36	-45.6	-47.0	17.9	0.00e+00	0	56	0	721420288	53	4370
2026-01-02 02:02:03.06	315.24	50.38	-45.8	-47.4	17.4	0.00e+00	0	56	0	723517440	53	4591
2026-01-02 02:02:04.05	314.60	50.39	-47.0	-49.1	15.9	0.00e+00	0	56	0	725614592	55	4945
2026-01-02 02:02:05.04	313.96	50.40	-46.9	-48.9	16.2	0.00e+00	0	56	0	727711744	56	4561
2026-01-02 02:02:06.02	313.33	50.40	-46.7	-48.6	16.4	0.00e+00	0	56	0	729808896	56	4396
2026-01-02 02:02:07.02	312.68	50.40	-47.2	-49.3	15.7	0.00e+00	0	56	0	730857472	56	4813
2026-01-02 02:02:08.01	312.04	50.40	-47.4	-49.6	15.4	0.00e+00	0	56	0	732954624	56	4961
2026-01-02 02:02:09.00	311.40	50.40	-47.6	-50.0	15.0	0.00e+00	0	56	0	735051776	57	4926
2026-01-02 02:02:09.99	310.76	50.39	-47.1	-49.2	15.9	0.00e+00	0	56	0	737148928	57	4442
2026-01-02 02:02:10.98	310.13	50.37	-47.1	-49.2	15.8	0.00e+00	0	56	0	738197504	57	4473
2026-01-02 02:02:11.97	309.49	50.36	-47.6	-50.0	15.0	0.00e+00	0	56	0	740294656	57	4873
2026-01-02 02:02:12.96	308.85	50.34	-48.0	-50.6	14.4	7.00e-07	0	56	0	742391808	58	4965
2026-01-02 02:02:13.95	308.22	50.31	-47.5	-49.7	15.3	0.00e+00	0	56	0	744488960	58	4482
2026-01-02 02:02:14.94	307.58	50.28	-46.3	-48.0	16.9	0.00e+00	0	56	0	745537536	55	4366
2026-01-02 02:02:15.92	306.95	50.25	-45.5	-46.9	17.9	0.00e+00	0	56	0	747634688	54	4073
2026-01-02 02:02:16.91	306.32	50.21	-45.8	-47.3	17.6	0.00e+00	0	56	0	749731840	54	4267
2026-01-02 02:02:17.90	305.69	50.18	-46.5	-48.3	16.7	0.00e+00	0	56	0	751828992	54	4778
2026-01-02 02:02:18.90	305.05	50.13	-46.9	-48.8	16.2	0.00e+00	0	56	0	753926144	55	4790
2026-01-02 02:02:19.89	304.43	50.08	-46.7	-48.6	16.3	0.00e+00	0	56	0	754974720	55	4658
2026-01-02 02:02:20.88	303.80	50.03	-46.3	-47.9	16.9	0.00e+00	0	56	0	757071872	55	4333
2026-01-02 02:02:21.86	303.19	49.98	-46.5	-48.2	16.7	0.00e+00	0	56	0	759169024	55	4453
2026-01-02 02:02:22.85	302.56	49.92	-46.7	-48.5	16.4	0.00e+00	0	56	0	761266176	55	4627
2026-01-02 02:02:23.84	301.95	49.86	-47.7	-50.0	15.1	0.00e+00	0	56	0	762314752	57	4897
2026-01-02 02:02:24.83	301.33	49.80	-47.7	-50.0	15.1	0.00e+00	0	56	0	764411904	57	4907
2026-01-02 02:02:25.82	300.72	49.73	-47.9	-50.3	14.8	7.00e-07	0	56	0	766509056	57	5077
2026-01-02 02:02:26.80	300.11	49.66	-47.5	-49.6	15.3	0.00e+00	0	56	0	768606208	57	4694
2026-01-02 02:02:27.78	299.51	49.59	-47.5	-49.7	15.3	0.00e+00	0	56	0	769654784	57	4732
2026-01-02 02:02:28.78	298.90	49.51	-47.3	-49.4	15.7	0.00e+00	0	56	0	771751936	57	4562
2026-01-02 02:02:29.77	298.30	49.43	-47.9	-50.2	15.0	0.00e+00	0	56	0	773849088	57	4992
2026-01-02 02:02:30.75	297.71	49.34	-48.0	-50.4	14.7	0.00e+00	0	56	0	775946240	57	5153
2026-01-02 02:02:31.74	297.11	49.26	-48.1	-50.6	14.5	7.00e-07	0	56	0	778043392	58	4928
2026-01-02 02:02:32.73	296.52	49.17	-48.1	-50.7	14.4	0.00e+00	0	56	0	779091968	58	5007
2026-01-02 02:02:33.71	295.94	49.07	-48.3	-50.9	14.2	0.00e+00	0	56	0	781189120	58	5139
2026-01-02 02:02:34.70	295.36	48.98	-48.1	-50.7	14.3	6.80e-06	0	56	0	783286272	58	5023
2026-01-02 02:02:35.70	294.77	48.88	-47.6	-49.9	15.2	0.00e+00	0	56	0	785383424	58	4562
2026-01-02 02:02:36.69	294.19	48.77	-47.1	-49.1	16.0	0.00e+00	0	56	0	786432000	57	4400
2026-01-02 02:02:37.67	293.63	48.67	-47.6	-49.9	15.2	0.00e+00	0	56	0	788529152	57	4859
2026-01-02 02:02:38.67	293.05	48.56	-48.3	-50.9	14.2	0.00e+00	0	56	0	790626304	58	5155
2026-01-02 02:02:39.66	292.49	48.45	-48.9	-52.1	13.0	1.01e-04	0	56	0	792723456	60	5238
2026-01-02 02:02:40.65	291.93	48.33	-49.0	-52.1	12.9	8.31e-05	0	56	0	794820608	60	5270
2026-01-02 02:02:41.65	291.37	48.22	-48.4	-51.0	14.0	3.20e-05	0	56	0	795869184	59	4914
2026-01-02 02:02:42.64	290.81	48.10	-48.1	-50.6	14.4	1.50e-06	0	56	0	797966336	59	4677
2026-01-02 02:02:43.63	290.27	47.98	-47.7	-49.9	15.2	7.00e-07	0	56	0	800063488	58	4573
2026-01-02 02:02:44.61	289.73	47.85	-48.4	-51.0	14.1	7.00e-07	0	56	0	802160640	58	5194
2026-01-02 02:02:45.60	289.19	47.73	-48.9	-52.0	13.0	5.30e-06	0	56	0	803209216	59	5507
2026-01-02 02:02:46.58	288.66	47.60	-48.5	-51.3	13.7	1.14e-05	0	56	0	805306368	59	5043
2026-01-02 02:02:47.57	288.13	47.47	-48.0	-50.4	14.6	1.50e-06	0	56	0	807403520	59	4552
2026-01-02 02:02:48.56	287.60	47.33	-48.5	-51.3	13.9	7.00e-07	0	56	0	809500672	59	5042
2026-01-02 02:02:49.55	287.08	47.20	-48.8	-51.8	13.3	1.22e-05	0	56	0	810549248	59	5355
2026-01-02 02:02:50.55	286.56	47.06	-48.8	-51.8	13.4	1.60e-05	0	56	0	812646400	59	5369
2026-01-02 02:02:51.54	286.05	46.92	-48.9	-51.9	13.2	2.28e-05	0	56	0	814743552	59	5424
2026-01-02 02:02:52.53	285.54	46.78	-48.5	-51.3	13.8	9.10e-06	0	56	0	816840704	59	5099
2026-01-02 02:02:53.52	285.04	46.64	-48.6	-51.4	13.7	6.10e-06	0	56	0	817889280	59	5115
2026-01-02 02:02:54.51	284.54	46.49	-48.8	-51.8	13.3	2.21e-05	0	56	0	819986432	59	5383
2026-01-02 02:02:55.49	284.05	46.34	-48.9	-52.1	13.0	3.43e-05	0	56	0	822083584	59	5543
2026-01-02 02:02:56.49	283.56	46.19	-48.5	-51.3	13.7	1.67e-05	0	56	0	824180736	60	4809
2026-01-02 02:02:57.48	283.07	46.04	-48.5	-51.1	14.1	2.20e-06	0	56	0	826277888	59	4976
2026-01-02 02:02:58.46	282.60	45.89	-48.4	-50.9	14.2	2.20e-06	0	56	0	827326464	59	4866
2026-01-02 02:02:59.45	282.12	45.74	-48.3	-50.9	14.2	1.50e-06	0	56	0	829423616	59	4852
2026-01-02 02:03:00.44	281.65	45.58	-48.3	-50.7	14.4	1.50e-06	0	56	0	831520768	59	4738
2026-01-02 02:03:01.44	281.18	45.42	-48.2	-50.6	14.6	2.20e-06	0	56	0	833617920	59	4668
2026-01-02 02:03:02.42	280.73	45.26	-48.0	-50.2	14.9	0.00e+00	0	56	0	834666496	59	4482
2026-01-02 02:03:03.42	280.26	45.10	-48.4	-50.9	14.2	0.00e+00	0	56	0	836763648	59	4855
2026-01-02 02:03:04.41	279.81	44.94	-49.0	-51.9	13.2	3.00e-06	0	56	0	838860800	59	5430
2026-01-02 02:03:05.40	279.37	44.78	-49.1	-52.1	12.9	3.73e-05	0	56	0	840957952	60	5251
2026-01-02 02:03:06.38	278.93	44.61	-48.6	-51.3	13.8	1.52e-05	0	56	0	842006528	60	4771
2026-01-02 02:03:07.38	278.49	44.45	-48.5	-50.9	14.1	3.00e-06	0	56	0	844103680	59	4843
2026-01-02 02:03:08.36	278.06	44.28	-49.1	-52.0	13.2	4.50e-06	0	56	0	846200832	59	5484
2026-01-02 02:03:09.35	277.63	44.12	-49.7	-53.4	11.7	2.33e-04	0	56	0	848297984	61	5776
2026-01-02 02:03:10.35	277.20	43.94	-49.9	-53.9	11.2	1.72e-03	0	56	0	850395136	61	6095
2026-01-02 02:03:11.33	276.78	43.78	-49.0	-52.0	13.1	3.29e-04	0	56	0	851443712	61	4911
2026-01-02 02:03:12.32	276.37	43.61	-48.1	-50.3	14.9	0.00e+00	0	56	0	853540864	59	4511
2026-01-02 02:03:13.31	275.96	43.43	-48.1	-50.3	14.9	0.00e+00	0	56	0	855638016	59	4514
2026-01-02 02:03:14.30	275.55	43.26	-48.2	-50.5	14.7	7.00e-07	0	56	0	857735168	59	4620
2026-01-02 02:03:15.28	275.15	43.09	-48.2	-50.5	14.7	1.50e-06	0	56	0	858783744	59	4618
2026-01-02 02:03:16.27	274.76	42.92	-47.9	-50.1	15.1	0.00e+00	0	56	0	860880896	58	4658
2026-01-02 02:03:17.26	274.36	42.74	-47.9	-50.0	15.2	0.00e+00	0	56	0	862978048	58	4643
2026-01-02 02:03:18.25	273.97	42.57	-48.2	-50.5	14.7	0.00e+00	0	56	0	865075200	58	4880
2026-01-02 02:03:19.24	273.59	42.39	-47.8	-49.9	15.2	0.00e+00	0	56	0	866123776	58	4594
2026-01-02 02:03:20.23	273.21	42.21	-47.3	-49.2	15.9	0.00e+00	0	56	0	868220928	57	4466
2026-01-02 02:03:21.22	272.83	42.04	-47.1	-48.9	16.1	0.00e+00	0	56	0	870318080	57	4327
2026-01-02 02:03:22.21	272.46	41.86	-47.2	-49.1	16.4	0.00e+00	0	56	0	872415232	56	4676
2026-01-02 02:03:23.20	272.09	41.68	-47.0	-48.9	16.2	0.00e+00	0	56	0	874512384	56	4584
2026-01-02 02:03:24.20	271.72	41.50	-47.3	-49.3	15.8	0.00e+00	0	56	0	875560960	56	4778
2026-01-02 02:03:25.19	271.36	41.32	-47.8	-49.9	15.2	0.00e+00	0	56	0	877658112	57	4861
2026-01-02 02:03:26.17	271.01	41.14	-48.6	-51.2	14.0	0.00e+00	0	56	0	879755264	58	5313
2026-01-02 02:03:27.15	270.66	40.96	-49.1	-52.3	12.8	9.61e-05	0	56	0	881852416	60	5361
2026-01-02 02:03:28.14	270.31	40.78	-49.3	-52.8	12.3	1.34e-04	0	57	0	882900992	60	5681
2026-01-02 02:03:29.14	269.96	40.60	-49.7	-53.6	11.4	8.13e-04	0	56	0	884998144	61	5913
2026-01-02 02:03:30.12	269.63	40.42	-49.3	-52.8	12.4	4.98e-04	0	56	0	887095296	61	5349
2026-01-02 02:03:31.10	269.29	40.24	-48.9	-52.0	13.1	6.25e-05	0	56	0	889192448	61	4871
2026-01-02 02:03:32.09	268.96	40.06	-48.5	-51.0	14.1	0.00e+00	0	56	0	890241024	59	4915
2026-01-02 02:03:33.08	268.63	39.88	-48.2	-50.6	14.5	7.00e-07	0	56	0	892338176	59	4695
2026-01-02 02:03:34.07	268.31	39.70	-48.3	-50.7	14.4	0.00e+00	0	56	0	894435328	59	4739
2026-01-02 02:03:35.06	267.98	39.52	-48.6	-51.1	14.1	1.50e-06	0	56	0	896532480	59	4948
2026-01-02 02:03:36.05	267.67	39.33	-48.4	-51.0	14.2	1.50e-06	0	56	0	898629632	59	4880
2026-01-02 02:03:37.03	267.35	39.15	-48.8	-51.6	13.6	7.00e-07	0	56	0	899678208	59	5243
2026-01-02 02:03:38.03	267.04	38.97	-49.0	-52.0	13.1	2.67e-05	0	56	0	901775360	60	5205
2026-01-02 02:03:39.02	266.73	38.79	-49.3	-52.6	12.5	7.47e-05	0	56	0	903872512	60	5566
2026-01-02 02:03:40.01	266.43	38.61	-49.1	-52.2	12.9	5.41e-05	0	56	0	905969664	60	5318
2026-01-02 02:03:41.00	266.13	38.42	-48.8	-51.7	13.3	2.21e-05	0	57	0	907018240	60	5005
2026-01-02 02:03:41.99	265.83	38.24	-48.7	-51.5	13.6	2.28e-05	0	56	0	909115392	60	4906
2026-01-02 02:03:42.97	265.54	38.06	-48.6	-51.3	13.7	3.80e-06	0	56	0	911212544	60	4791
2026-01-02 02:03:43.96	265.25	37.88	-48.6	-51.2	13.9	9.90e-06	0	56	0	913309696	60	4754
2026-01-02 02:03:44.95	264.96	37.70	-48.9	-51.8	13.3	8.30e-06	0	56	0	914358272	60	5053
2026-01-02 02:03:45.93	264.68	37.52	-49.6	-53.3	11.8	9.30e-05	0	56	0	916455424	61	5658
2026-01-02 02:03:46.92	264.40	37.34	-49.6	-53.3	11.8	4.32e-04	0	57	0	918552576	61	5685
2026-01-02 02:03:47.91	264.12	37.16	-49.5	-53.0	12.1	7.25e-04	0	56	0	920649728	61	5504
2026-01-02 02:03:48.90	263.84	36.98	-49.5	-53.0	11.9	1.85e-04	0	56	0	922746880	61	5480
2026-01-02 02:03:49.89	263.57	36.80	-49.9	-53.7	11.4	4.24e-04	0	57	0	923795456	61	5973
2026-01-02 02:03:50.88	263.30	36.62	-50.1	-54.6	10.5	4.12e-03	0	57	0	925892608	62	6204
2026-01-02 02:03:51.87	263.04	36.44	-51.0	-56.9	8.1	2.83e-02	0	56	0	927989760	63	7645
2026-01-02 02:03:52.86	262.77	36.26	-50.9	-56.7	8.2	5.16e-02	0	56	0	930086912	63	7488
2026-01-02 02:03:53.85	262.51	36.08	-50.5	-55.3	9.6	2.02e-02	0	57	0	931135488	63	6360
2026-01-02 02:03:54.84	262.25	35.90	-49.9	-53.8	11.2	1.75e-03	0	56	0	933232640	62	5690
2026-01-02 02:03:55.83	262.00	35.72	-49.3	-52.5	12.6	1.81e-04	0	56	0	935329792	61	5161
2026-01-02 02:03:56.83	261.75	35.54	-49.0	-52.0	13.0	5.11e-05	0	56	0	937426944	61	4901
2026-01-02 02:03:57.82	261.50	35.36	-49.2	-52.3	12.7	4.57e-05	0	56	0	938475520	60	5391
2026-01-02 02:03:58.81	261.25	35.19	-48.8	-51.5	13.6	1.60e-05	0	56	0	940572672	60	4909
2026-01-02 02:03:59.80	261.01	35.01	-48.5	-51.0	14.2	6.80e-06	0	56	0	942669824	60	4624
2026-01-02 02:04:00.78	260.77	34.83	-48.3	-50.6	14.6	3.00e-06	0	56	0	944766976	59	4680
2026-01-02 02:04:01.77	260.53	34.66	-48.3	-50.6	14.6	0.00e+00	0	56	0	946864128	59	4666
2026-01-02 02:04:02.75	260.30	34.48	-48.5	-50.8	14.3	2.20e-06	0	56	0	947912704	59	4807
2026-01-02 02:04:03.73	260.07	34.31	-48.4	-50.8	14.3	1.50e-06	0	56	0	950009856	59	4784
2026-01-02 02:04:04.72	259.84	34.14	-48.5	-50.9	14.2	3.00e-06	0	56	0	952107008	59	4844
2026-01-02 02:04:05.72	259.60	33.96	-48.3	-50.7	14.5	0.00e+00	0	56	0	954204160	59	4713
2026-01-02 02:04:06.70	259.38	33.79	-48.7	-51.4	13.7	1.50e-06	0	56	0	955252736	59	5131
2026-01-02 02:04:07.69	259.16	33.61	-49.1	-52.1	12.9	1.06e-05	0	56	0	957349888	60	5259
2026-01-02 02:04:08.68	258.94	33.44	-49.3	-52.5	12.5	1.16e-04	0	56	0	959447040	60	5518
2026-01-02 02:04:09.67	258.72	33.27	-49.3	-52.6	12.5	8.62e-05	0	56	0	961544192	60	5551
2026-01-02 02:04:10.66	258.50	33.10	-49.3	-52.5	12.5	1.05e-04	0	56	0	962592768	60	5494
2026-01-02 02:04:11.65	258.29	32.92	-49.2	-52.2	12.9	3.05e-05	0	56	0	964689920	60	5283
2026-01-02 02:04:12.64	258.08	32.75	-49.0	-52.0	13.1	2.67e-05	0	56	0	966787072	60	5177
2026-01-02 02:04:13.63	257.87	32.58	-48.6	-51.1	14.0	5.30e-06	0	56	0	968884224	60	4703
2026-01-02 02:04:14.62	257.66	32.41	-48.4	-50.8	14.2	4.50e-06	0	56	0	970981376	60	4542
2026-01-02 02:04:15.61	257.46	32.24	-48.2	-50.5	14.6	7.00e-07	0	56	0	972029952	59	4628
2026-01-02 02:04:16.60	257.25	32.07	-48.1	-50.3	14.8	0.00e+00	0	56	0	974127104	59	4495
2026-01-02 02:04:17.58	257.05	31.91	-48.2	-50.4	14.7	0.00e+00	0	57	0	976224256	59	4565
2026-01-02 02:04:18.56	256.86	31.74	-48.4	-50.8	14.5	0.00e+00	0	56	0	978321408	59	4770
2026-01-02 02:04:19.54	256.66	31.58	-48.6	-51.1	14.0	1.50e-06	0	56	0	979369984	59	4969
2026-01-02 02:04:20.53	256.47	31.41	-49.3	-52.4	12.7	2.36e-05	0	56	0	981467136	60	5449
2026-01-02 02:04:21.52	256.27	31.24	-50.0	-54.1	11.1	1.29e-03	0	57	0	983564288	61	6217
2026-01-02 02:04:22.51	256.08	31.08	-50.2	-54.5	10.5	2.52e-03	0	56	0	985661440	62	6159
2026-01-02 02:04:23.50	255.90	30.91	-50.1	-54.4	10.6	5.90e-03	0	56	0	986710016	62	6069
2026-01-02 02:04:24.49	255.71	30.75	-49.7	-53.2	11.8	4.13e-04	0	56	0	988807168	62	5338
2026-01-02 02:04:25.48	255.52	30.58	-48.9	-51.8	13.2	1.08e-04	0	57	0	990904320	60	5086
2026-01-02 02:04:26.48	255.34	30.42	-48.3	-50.8	14.3	1.22e-05	0	56	0	993001472	59	4770
2026-01-02 02:04:27.47	255.16	30.26	-48.0	-50.1	14.9	1.50e-06	0	56	0	994050048	59	4441
2026-01-02 02:04:28.46	254.98	30.09	-47.8	-49.8	15.3	0.00e+00	0	56	0	996147200	58	4538
2026-01-02 02:04:29.44	254.80	29.93	-48.0	-50.2	14.9	0.00e+00	0	56	0	998244352	58	4726
2026-01-02 02:04:30.43	254.63	29.77	-47.8	-49.9	15.3	0.00e+00	0	56	0	1000341504	58	4557
2026-01-02 02:04:31.42	254.45	29.61	-47.9	-50.1	15.1	0.00e+00	0	56	0	1002438656	58	4654
2026-01-02 02:04:32.42	254.28	29.45	-48.4	-50.7	14.4	0.00e+00	0	56	0	1003487232	58	5039
2026-01-02 02:04:33.40	254.11	29.29	-48.9	-51.7	13.4	5.30e-06	0	56	0	1005584384	59	5332
2026-01-02 02:04:34.39	253.94	29.14	-49.2	-52.4	12.7	4.11e-05	0	56	0	1007681536	60	5405
2026-01-02 02:04:35.39	253.77	28.98	-49.7	-53.3	11.8	2.94e-04	0	56	0	1009778688	61	5698
2026-01-02 02:04:36.37	253.61	28.82	-49.4	-52.8	12.2	2.38e-04	0	56	0	1010827264	61	5349
2026-01-02 02:04:37.36	253.45	28.66	-48.9	-51.7	13.4	7.93e-05	0	56	0	1012924416	60	4998
2026-01-02 02:04:38.35	253.28	28.51	-48.8	-51.5	13.7	2.97e-05	0	57	0	1015021568	60	4891
2026-01-02 02:04:39.35	253.12	28.35	-48.7	-51.5	13.7	9.90e-06	0	56	0	1017118720	60	4872
2026-01-02 02:04:40.34	252.96	28.20	-48.9	-51.8	13.3	1.90e-05	0	56	0	1018167296	60	5054
2026-01-02 02:04:41.33	252.81	28.04	-48.4	-50.9	14.2	2.20e-06	0	56	0	1020264448	60	4585
2026-01-02 02:04:42.31	252.65	27.89	-48.4	-50.8	14.3	0.00e+00	0	56	0	1022361600	59	4796
2026-01-02 02:04:43.30	252.50	27.74	-48.0	-50.2	14.8	2.20e-06	0	56	0	1024458752	59	4491
2026-01-02 02:04:44.28	252.35	27.59	-47.9	-50.1	15.0	0.00e+00	0	57	0	1026555904	58	4668
2026-01-02 02:04:45.28	252.19	27.43	-48.0	-50.2	14.9	0.00e+00	0	56	0	1027604480	58	4709
2026-01-02 02:04:46.27	252.04	27.28	-48.3	-50.6	14.5	0.00e+00	0	56	0	1029701632	58	4953
2026-01-02 02:04:47.26	251.89	27.13	-48.1	-50.3	14.8	7.00e-07	0	56	0	1031798784	58	4792
2026-01-02 02:04:48.24	251.75	26.98	-47.5	-49.5	15.6	0.00e+00	0	56	0	1033895936	58	4362
2026-01-02 02:04:49.22	251.61	26.83	-47.7	-49.7	15.4	0.00e+00	0	56	0	1034944512	58	4477
2026-01-02 02:04:50.21	251.46	26.69	-47.5	-49.4	15.4	0.00e+00	0	56	0	1037041664	58	4335
2026-01-02 02:04:51.20	251.32	26.54	-47.2	-49.0	16.1	0.00e+00	0	56	0	1039138816	57	4366
2026-01-02 02:04:52.19	251.18	26.39	-47.1	-48.8	16.1	0.00e+00	0	56	0	1041235968	57	4289
2026-01-02 02:04:53.18	251.04	26.24	-47.3	-49.2	15.8	0.00e+00	0	56	0	1042284544	57	4478
2026-01-02 02:04:54.17	250.90	26.10	-47.6	-49.6	15.5	0.00e+00	0	56	0	1044381696	57	4676
2026-01-02 02:04:55.16	250.76	25.95	-48.1	-50.4	14.7	0.00e+00	0	56	0	1046478848	58	4845
2026-01-02 02:04:56.14	250.62	25.81	-48.5	-51.2	13.9	0.00e+00	0	56	0	1048576000	58	5288
2026-01-02 02:04:57.14	250.49	25.66	-48.6	-51.5	13.5	4.50e-06	0	56	0	1049624576	59	5210
2026-01-02 02:04:58.12	250.36	25.52	-48.7	-51.5	13.5	6.80e-06	0	56	0	1051721728	59	5199
2026-01-02 02:04:59.11	250.22	25.38	-48.5	-51.1	14.0	1.50e-06	0	56	0	1053818880	59	4978
2026-01-02 02:05:00.10	250.09	25.23	-48.7	-51.4	13.6	9.10e-06	0	56	0	1055916032	59	5156
2026-01-02 02:05:01.09	249.96	25.09	-48.6	-51.3	13.8	6.80e-06	0	56	0	1058013184	59	5070
2026-01-02 02:05:02.09	249.83	24.95	-49.0	-51.9	13.2	9.90e-06	0	56	0	1059061760	59	5413
2026-01-02 02:05:03.08	249.70	24.81	-48.7	-51.2	13.9	3.80e-06	0	56	0	1061158912	59	5002
2026-01-02 02:05:04.07	249.58	24.67	-48.7	-51.2	13.8	1.50e-06	0	56	0	1063256064	59	5022
2026-01-02 02:05:05.07	249.45	24.53	-48.9	-51.6	13.5	1.22e-05	0	56	0	1065353216	59	5241
2026-01-02 02:05:06.06	249.32	24.39	-48.5	-51.0	14.1	6.80e-06	0	56	0	1067450368	59	4872
2026-01-02 02:05:07.05	249.20	24.25	-48.4	-50.7	14.3	0.00e+00	0	56	0	1068498944	59	4757
2026-01-02 02:05:08.04	249.08	24.11	-48.1	-50.3	14.8	7.00e-07	0	56	0	1070596096	59	4515
2026-01-02 02:05:09.02	248.96	23.98	-48.0	-50.2	14.8	0.00e+00	0	56	0	1072693248	58	4734
2026-01-02 02:05:10.02	248.84	23.84	-48.0	-50.1	15.0	0.00e+00	0	56	0	1074790400	58	4669
2026-01-02 02:05:11.01	248.72	23.70	-48.0	-50.1	15.0	0.00e+00	0	56	0	1075838976	58	4685
2026-01-02 02:05:11.99	248.60	23.57	-48.4	-50.8	14.4	0.00e+00	0	56	0	1077936128	58	5047
2026-01-02 02:05:12.98	248.49	23.43	-48.2	-50.5	14.6	7.00e-07	0	56	0	1080033280	58	4907
2026-01-02 02:05:13.97	248.37	23.30	-48.2	-50.5	14.6	0.00e+00	0	57	0	1082130432	58	4881
2026-01-02 02:05:14.96	248.26	23.16	-48.0	-50.3	14.8	0.00e+00	0	56	0	1083179008	58	4796
2026-01-02 02:05:15.96	248.14	23.03	-48.1	-50.4	14.7	1.50e-06	0	56	0	1085276160	58	4832
2026-01-02 02:05:16.94	248.03	22.90	-48.2	-50.4	14.6	7.00e-07	0	57	0	1087373312	58	4845
2026-01-02 02:05:17.93	247.92	22.76	-48.1	-50.2	14.9	0.00e+00	0	56	0	1089470464	58	4758
2026-01-02 02:05:18.92	247.81	22.63	-47.9	-50.0	15.1	0.00e+00	0	57	0	1090519040	58	4616
2026-01-02 02:05:19.91	247.70	22.50	-48.0	-50.2	14.9	0.00e+00	0	56	0	1092616192	58	4723
2026-01-02 02:05:20.90	247.59	22.37	-47.9	-50.0	15.1	0.00e+00	0	57	0	1094713344	58	4626
2026-01-02 02:05:21.90	247.48	22.24	-47.9	-50.0	15.1	0.00e+00	0	56	0	1096810496	58	4621
2026-01-02 02:05:22.88	247.37	22.11	-48.2	-50.5	14.6	0.00e+00	0	56	0	1098907648	58	4893
2026-01-02 02:05:23.87	247.27	21.98	-48.4	-50.7	14.4	0.00e+00	0	56	0	1099956224	58	5040
2026-01-02 02:05:24.86	247.16	21.85	-48.6	-51.1	14.1	0.00e+00	0	56	0	1102053376	59	4944
2026-01-02 02:05:25.85	247.06	21.73	-48.6	-51.1	13.9	2.20e-06	0	56	0	1104150528	59	4979
2026-01-02 02:05:26.83	246.95	21.60	-48.6	-51.1	13.9	3.80e-06	0	56	0	1106247680	59	4978
2026-01-02 02:05:27.83	246.85	21.47	-48.6	-51.2	13.9	4.50e-06	0	56	0	1107296256	59	5006
2026-01-02 02:05:28.81	246.75	21.35	-48.5	-50.9	14.2	2.20e-06	0	56	0	1109393408	59	4859
2026-01-02 02:05:29.79	246.65	21.22	-48.4	-50.8	14.3	2.20e-06	0	56	0	1111490560	59	4795
2026-01-02 02:05:30.78	246.55	21.10	-48.3	-50.7	14.4	0.00e+00	0	57	0	1113587712	59	4710
2026-01-02 02:05:31.77	246.45	20.97	-48.2	-50.6	14.5	0.00e+00	0	56	0	1114636288	59	4674
2026-01-02 02:05:32.75	246.35	20.85	-48.2	-50.5	14.6	0.00e+00	0	57	0	1116733440	59	4607
2026-01-02 02:05:33.75	246.25	20.73	-48.3	-50.8	14.3	0.00e+00	0	56	0	1118830592	59	4776
2026-01-02 02:05:34.74	246.16	20.60	-48.3	-50.6	14.4	0.00e+00	0	57	0	1120927744	59	4683
2026-01-02 02:05:35.73	246.06	20.48	-48.2	-50.4	14.6	7.00e-07	0	56	0	1123024896	59	4566
2026-01-02 02:05:36.73	245.96	20.36	-48.2	-50.6	14.6	0.00e+00	0	56	0	1124073472	59	4660
2026-01-02 02:05:37.72	245.87	20.24	-48.2	-50.5	14.5	0.00e+00	0	56	0	1126170624	59	4650
2026-01-02 02:05:38.71	245.78	20.11	-48.3	-50.6	14.4	1.50e-06	0	57	0	1128267776	59	4702
2026-01-02 02:05:39.70	245.68	19.99	-48.3	-50.6	14.4	0.00e+00	0	57	0	1130364928	59	4669
2026-01-02 02:05:40.69	245.59	19.87	-48.3	-50.6	14.5	0.00e+00	0	57	0	1131413504	59	4679
2026-01-02 02:05:41.68	245.50	19.75	-48.2	-50.4	14.6	0.00e+00	0	57	0	1133510656	59	4593
2026-01-02 02:05:42.67	245.41	19.63	-48.3	-50.6	14.4	0.00e+00	0	56	0	1135607808	59	4690
2026-01-02 02:05:43.65	245.32	19.52	-48.3	-50.6	14.5	7.00e-07	0	56	0	1137704960	59	4682
2026-01-02 02:05:44.65	245.23	19.40	-48.3	-50.7	14.3	1.50e-06	0	56	0	1138753536	59	4716
2026-01-02 02:05:45.64	245.14	19.28	-48.3	-50.6	14.4	0.00e+00	0	57	0	1140850688	59	4681
2026-01-02 02:05:46.62	245.05	19.16	-48.2	-50.5	14.5	0.00e+00	0	56	0	1142947840	59	4637
2026-01-02 02:05:47.61	244.97	19.05	-48.2	-50.5	14.5	0.00e+00	0	56	0	1145044992	59	4613
2026-01-02 02:05:48.60	244.88	18.93	-48.4	-50.7	14.3	7.00e-07	0	56	0	1147142144	59	4735
2026-01-02 02:05:49.58	244.79	18.82	-48.3	-50.7	14.4	7.00e-07	0	57	0	1148190720	59	4715
2026-01-02 02:05:50.57	244.71	18.70	-48.3	-50.7	14.4	1.50e-06	0	56	0	1150287872	59	4727
2026-01-02 02:05:51.57	244.62	18.59	-48.7	-51.3	13.8	2.20e-06	0	57	0	1152385024	59	5071
2026-01-02 02:05:52.56	244.54	18.47	-48.6	-51.2	13.8	5.30e-06	0	56	0	1154482176	59	4994
2026-01-02 02:05:53.55	244.46	18.36	-48.3	-50.6	14.5	7.00e-07	0	57	0	1155530752	59	4675
2026-01-02 02:05:54.53	244.37	18.25	-48.3	-50.6	14.5	7.00e-07	0	56	0	1157627904	59	4663
2026-01-02 02:05:55.53	244.29	18.13	-48.3	-50.7	14.4	0.00e+00	0	56	0	1159725056	59	4726
2026-01-02 02:05:56.52	244.21	18.02	-48.4	-50.8	14.2	3.00e-06	0	57	0	1161822208	59	4798
2026-01-02 02:05:57.51	244.13	17.91	-48.3	-50.7	14.3	2.20e-06	0	56	0	1162870784	59	4735
2026-01-02 02:05:58.50	244.05	17.80	-48.4	-50.8	14.2	1.50e-06	0	57	0	1164967936	59	4760
2026-01-02 02:05:59.49	243.97	17.68	-48.5	-50.9	14.1	3.00e-06	0	56	0	1167065088	59	4851
2026-01-02 02:06:00.48	243.89	17.57	-48.5	-50.9	14.1	7.00e-07	0	56	0	1169162240	59	4864
2026-01-02 02:06:01.47	243.81	17.46	-48.6	-51.1	13.9	2.20e-06	0	56	0	1171259392	59	4942
2026-01-02 02:06:02.46	243.74	17.35	-48.3	-50.6	14.4	1.50e-06	0	57	0	1172307968	59	4660
2026-01-02 02:06:03.44	243.66	17.25	-48.2	-50.4	14.6	7.00e-07	0	57	0	1174405120	59	4591
2026-01-02 02:06:04.43	243.58	17.14	-47.9	-50.1	14.9	0.00e+00	0	56	0	1176502272	59	4402
2026-01-02 02:06:05.42	243.51	17.03	-47.9	-50.0	15.0	0.00e+00	0	56	0	1178599424	58	4620
2026-01-02 02:06:06.41	243.43	16.92	-47.9	-49.9	15.0	0.00e+00	0	57	0	1179648000	58	4596
2026-01-02 02:06:07.39	243.36	16.81	-47.7	-49.8	15.2	0.00e+00	0	56	0	1181745152	58	4502
2026-01-02 02:06:08.39	243.28	16.70	-47.4	-49.2	15.6	0.00e+00	0	57	0	1183842304	57	4490
2026-01-02 02:06:09.37	243.21	16.60	-47.3	-49.2	15.8	0.00e+00	0	57	0	1185939456	57	4442
2026-01-02 02:06:10.36	243.14	16.49	-47.2	-49.0	16.0	0.00e+00	0	57	0	1186988032	57	4349
2026-01-02 02:06:11.35	243.06	16.39	-47.1	-48.8	16.1	0.00e+00	0	56	0	1189085184	57	4279
2026-01-02 02:06:12.35	242.99	16.28	-47.2	-49.0	15.9	0.00e+00	0	57	0	1191182336	57	4390
2026-01-02 02:06:13.34	242.92	16.17	-47.5	-49.4	15.5	0.00e+00	0	57	0	1193279488	57	4574
2026-01-02 02:06:14.33	242.85	16.07	-47.2	-49.0	16.0	0.00e+00	0	57	0	1195376640	57	4350
2026-01-02 02:06:15.32	242.78	15.97	-47.2	-49.0	15.9	0.00e+00	0	57	0	1196425216	57	4380
2026-01-02 02:06:16.31	242.71	15.86	-47.3	-49.2	15.8	0.00e+00	0	57	0	1198522368	57	4477
2026-01-02 02:06:17.30	242.64	15.76	-47.5	-49.4	15.5	0.00e+00	0	57	0	1200619520	57	4576
2026-01-02 02:06:18.28	242.57	15.66	-47.7	-49.7	15.2	0.00e+00	0	57	0	1202716672	57	4733
2026-01-02 02:06:19.28	242.50	15.55	-47.9	-50.0	14.9	0.00e+00	0	56	0	1203765248	57	4904
2026-01-02 02:06:20.26	242.43	15.45	-48.0	-50.2	14.8	0.00e+00	0	57	0	1205862400	57	4991
2026-01-02 02:06:21.24	242.37	15.35	-48.4	-50.8	14.2	7.00e-07	0	56	0	1207959552	58	5042
2026-01-02 02:06:22.23	242.30	15.25	-48.5	-51.0	13.9	1.50e-06	0	57	0	1210056704	58	5182
2026-01-02 02:06:23.22	242.23	15.15	-48.4	-50.9	14.1	2.20e-06	0	57	0	1211105280	58	5116
2026-01-02 02:06:24.21	242.17	15.05	-48.6	-51.2	13.7	7.00e-07	0	57	0	1213202432	59	4998
2026-01-02 02:06:25.20	242.10	14.95	-48.6	-51.2	13.7	3.80e-06	0	56	0	1215299584	59	5032
2026-01-02 02:06:26.18	242.04	14.85	-48.5	-51.1	13.7	3.00e-06	0	56	0	1217396736	59	4969
2026-01-02 02:06:27.17	241.97	14.75	-48.6	-51.3	13.6	5.30e-06	0	56	0	1219493888	59	5058
2026-01-02 02:06:28.15	241.91	14.65	-48.8	-51.5	13.4	1.37e-05	0	56	0	1220542464	59	5186
2026-01-02 02:06:29.13	241.84	14.55	-48.5	-51.1	13.8	4.50e-06	0	57	0	1222639616	59	4935
2026-01-02 02:06:30.11	241.78	14.45	-48.8	-51.5	13.4	5.30e-06	0	57	0	1224736768	59	5189
2026-01-02 02:06:31.10	241.72	14.35	-48.7	-51.4	13.5	1.44e-05	0	57	0	1226833920	59	5114
2026-01-02 02:06:32.09	241.66	14.26	-48.7	-51.3	13.5	6.10e-06	0	56	0	1227882496	59	5071
2026-01-02 02:06:33.08	241.59	14.16	-48.8	-51.5	13.4	1.06e-05	0	57	0	1229979648	59	5209
2026-01-02 02:06:34.07	241.53	14.06	-48.7	-51.4	13.5	1.90e-05	0	57	0	1232076800	59	5148
2026-01-02 02:06:35.06	241.47	13.96	-48.7	-51.4	13.5	1.60e-05	0	56	0	1234173952	59	5107
2026-01-02 02:06:36.04	241.41	13.87	-48.9	-51.7	13.2	2.28e-05	0	56	0	1235222528	59	5330
2026-01-02 02:06:37.03	241.35	13.77	-49.1	-52.2	12.6	3.66e-05	0	56	0	1237319680	60	5294
2026-01-02 02:06:38.03	241.29	13.68	-48.9	-51.8	13.0	5.64e-05	0	57	0	1239416832	60	5092
2026-01-02 02:06:39.01	241.23	13.58	-48.6	-51.4	13.5	1.29e-05	0	57	0	1241513984	60	4822
2026-01-02 02:06:40.00	241.17	13.49	-48.7	-51.4	13.4	1.22e-05	0	57	0	1242562560	60	4856
2026-01-02 02:06:41.00	241.11	13.39	-48.5	-51.1	13.7	4.50e-06	0	56	0	1244659712	60	4694
2026-01-02 02:06:41.99	241.05	13.30	-48.6	-51.3	13.6	1.50e-06	0	57	0	1246756864	60	4770
