passes_logs/2026/01/02/R3.0SM8_Murmansk_STILSPACE/R3.0SM8_Murmansk_STILSPACE__20260102_035022_AQUA_rec.log

#Pass ID: 20260102_035022_AQUA
#Satellite: AQUA
#Configuration: AQUA
#almurnet v.1.7.20240730
#Start time: 2026-01-02 03:50:24

#Version: 2.2.20231116
#Station: R3.0SM8_Murmansk_STILSPACE
#Location: 33.092731 lon 68.902999 lat
#TLE: 1 27424U 02022A   25365.92641127  .00002078  00000+0  42628-3 0  9999
#TLE: 2 27424  98.4058 327.1196 0001962  94.7781 340.6230 14.61783896258835

#Time	Az	El	Level	Level2	SNR	BER	BlckErr	Temp	State	Recorded	gain1	gain2
2026-01-02 03:50:24.01	28.71	3.13	-54.2	-74.1	3.8	7.42e-01	0	51	0	0	70	38044
2026-01-02 03:50:24.99	28.67	3.20	-54.0	-73.8	3.8	7.46e-01	0	51	104	0	70	36923
2026-01-02 03:50:25.98	28.62	3.26	-53.6	-73.7	3.8	7.48e-01	0	51	104	0	70	36450
2026-01-02 03:50:26.96	28.58	3.33	-53.7	-73.5	3.8	7.45e-01	0	51	104	0	70	35625
2026-01-02 03:50:27.95	28.53	3.39	-53.4	-73.2	3.8	7.46e-01	0	51	104	0	70	34213
2026-01-02 03:50:28.93	28.49	3.46	-53.3	-73.1	3.7	7.44e-01	0	51	104	0	69	35701
2026-01-02 03:50:29.91	28.44	3.53	-53.2	-73.0	3.8	7.43e-01	0	51	104	0	69	35688
2026-01-02 03:50:30.90	28.40	3.59	-53.3	-73.1	3.8	7.46e-01	0	51	104	0	69	35744
2026-01-02 03:50:31.89	28.35	3.66	-53.3	-73.1	3.8	7.44e-01	0	51	104	0	69	35758
2026-01-02 03:50:32.87	28.30	3.73	-53.3	-73.1	3.8	7.47e-01	0	51	104	0	69	35734
2026-01-02 03:50:33.86	28.26	3.79	-53.3	-73.1	3.8	7.45e-01	0	52	104	0	69	35739
2026-01-02 03:50:34.85	28.21	3.86	-53.2	-73.0	3.8	7.43e-01	0	51	104	0	69	35679
2026-01-02 03:50:35.84	28.16	3.93	-53.3	-73.0	3.8	7.44e-01	0	51	104	0	69	35402
2026-01-02 03:50:36.83	28.11	4.00	-53.2	-72.9	3.8	7.44e-01	0	52	104	0	69	35132
2026-01-02 03:50:37.81	28.07	4.06	-53.2	-72.8	3.8	7.45e-01	0	51	104	0	69	34562
2026-01-02 03:50:38.80	28.02	4.13	-53.2	-72.7	3.8	7.45e-01	0	52	104	0	69	34135
2026-01-02 03:50:39.80	27.97	4.20	-53.2	-72.4	3.8	7.45e-01	0	52	104	0	69	33242
2026-01-02 03:50:40.79	27.92	4.27	-53.1	-72.1	3.8	7.46e-01	0	52	104	0	69	31993
2026-01-02 03:50:41.78	27.87	4.34	-53.1	-71.6	3.8	7.44e-01	0	52	104	0	69	30350
2026-01-02 03:50:42.78	27.82	4.41	-53.0	-71.2	3.8	7.48e-01	0	52	104	0	69	28782
2026-01-02 03:50:43.77	27.77	4.48	-52.9	-70.5	3.8	7.43e-01	0	52	104	0	69	26473
2026-01-02 03:50:44.75	27.72	4.54	-52.7	-69.6	3.8	7.46e-01	0	52	104	0	69	23915
2026-01-02 03:50:45.75	27.67	4.61	-52.5	-69.0	3.8	7.45e-01	0	52	104	0	68	23719
2026-01-02 03:50:46.73	27.62	4.68	-52.3	-68.1	3.8	7.44e-01	0	52	104	0	68	21468
2026-01-02 03:50:47.72	27.57	4.75	-52.1	-67.3	3.8	7.41e-01	0	52	104	0	67	20713
2026-01-02 03:50:48.71	27.52	4.82	-51.9	-66.8	3.8	7.47e-01	0	52	104	0	67	19424
2026-01-02 03:50:49.69	27.47	4.89	-51.7	-66.2	3.8	7.44e-01	0	52	104	0	67	18302
2026-01-02 03:50:50.68	27.42	4.96	-51.4	-65.5	3.8	7.46e-01	0	52	104	0	66	17784
2026-01-02 03:50:51.66	27.37	5.03	-51.0	-64.6	3.8	7.43e-01	0	52	104	0	65	17057
2026-01-02 03:50:52.65	27.32	5.10	-50.9	-64.4	3.8	7.44e-01	0	52	104	0	65	16610
2026-01-02 03:50:53.64	27.26	5.17	-51.2	-65.0	3.8	7.45e-01	0	52	104	0	65	17722
2026-01-02 03:50:54.62	27.21	5.24	-51.4	-65.5	3.8	7.44e-01	0	52	104	0	65	18886
2026-01-02 03:50:55.61	27.16	5.31	-51.6	-65.9	3.8	7.45e-01	0	52	104	0	65	19626
2026-01-02 03:50:56.60	27.11	5.38	-51.8	-66.4	3.8	7.41e-01	0	52	104	0	65	20871
2026-01-02 03:50:57.59	27.05	5.46	-52.2	-67.4	3.8	7.45e-01	0	52	104	0	66	22226
2026-01-02 03:50:58.57	27.00	5.53	-52.3	-67.9	3.8	7.45e-01	0	52	104	0	66	23450
2026-01-02 03:50:59.56	26.94	5.60	-52.5	-68.6	3.8	7.44e-01	0	53	104	0	67	24081
2026-01-02 03:51:00.55	26.89	5.67	-52.7	-69.0	3.8	7.44e-01	0	52	104	0	67	25143
2026-01-02 03:51:01.54	26.84	5.74	-52.8	-69.6	3.8	7.46e-01	0	52	104	0	67	27047
2026-01-02 03:51:02.54	26.78	5.82	-53.0	-70.0	3.9	7.47e-01	0	53	104	0	68	26677
2026-01-02 03:51:03.53	26.72	5.89	-53.1	-70.5	3.8	7.43e-01	0	53	104	0	68	28121
2026-01-02 03:51:04.52	26.67	5.96	-53.1	-70.8	3.8	7.46e-01	0	53	104	0	68	29187
2026-01-02 03:51:05.50	26.61	6.03	-53.2	-70.9	3.8	7.43e-01	0	53	104	0	68	29538
2026-01-02 03:51:06.48	26.56	6.11	-53.1	-70.5	3.8	7.46e-01	0	53	104	0	68	28252
2026-01-02 03:51:07.47	26.50	6.18	-53.0	-70.2	3.8	7.47e-01	0	53	104	0	68	27366
2026-01-02 03:51:08.46	26.44	6.25	-53.0	-69.9	3.8	7.47e-01	0	53	104	0	68	26353
2026-01-02 03:51:09.46	26.39	6.33	-52.9	-69.6	3.8	7.45e-01	0	53	104	0	68	25322
2026-01-02 03:51:10.45	26.33	6.40	-52.8	-69.3	3.8	7.45e-01	0	53	104	0	68	24583
2026-01-02 03:51:11.44	26.27	6.48	-52.6	-68.4	3.8	7.43e-01	0	53	104	0	68	22076
2026-01-02 03:51:12.43	26.21	6.55	-52.3	-67.5	3.8	7.46e-01	0	53	104	0	67	21232
2026-01-02 03:51:13.41	26.15	6.62	-52.0	-66.5	3.8	7.44e-01	0	53	104	0	67	18934
2026-01-02 03:51:14.40	26.09	6.70	-51.6	-65.7	3.8	7.41e-01	0	53	104	0	66	18233
2026-01-02 03:51:15.39	26.03	6.77	-51.3	-64.9	3.8	7.44e-01	0	53	104	0	65	17493
2026-01-02 03:51:16.38	25.97	6.85	-51.0	-64.2	3.8	7.46e-01	0	53	104	0	65	16296
2026-01-02 03:51:17.37	25.91	6.92	-50.7	-63.8	3.8	7.45e-01	0	53	104	0	65	15452
2026-01-02 03:51:18.36	25.85	7.00	-50.5	-63.5	3.8	7.43e-01	0	53	104	0	64	15792
2026-01-02 03:51:19.35	25.79	7.08	-50.4	-63.1	3.8	7.47e-01	0	53	104	0	64	15170
2026-01-02 03:51:20.35	25.73	7.15	-50.3	-63.0	3.8	7.45e-01	0	53	104	0	64	14999
2026-01-02 03:51:21.34	25.67	7.23	-50.3	-63.0	3.8	7.45e-01	0	53	104	0	64	14970
2026-01-02 03:51:22.33	25.61	7.31	-50.3	-62.9	3.8	7.46e-01	0	53	104	0	64	14852
2026-01-02 03:51:23.33	25.54	7.38	-50.3	-63.0	3.8	7.43e-01	0	53	104	0	64	14891
2026-01-02 03:51:24.32	25.48	7.46	-50.2	-62.7	3.8	7.44e-01	0	53	104	0	63	15338
2026-01-02 03:51:25.31	25.42	7.54	-49.9	-62.2	3.8	7.45e-01	0	53	104	0	63	14517
2026-01-02 03:51:26.30	25.35	7.62	-49.6	-61.8	3.8	7.48e-01	0	53	104	0	62	14594
2026-01-02 03:51:27.29	25.29	7.69	-49.3	-61.3	3.8	7.46e-01	0	53	104	0	62	13881
2026-01-02 03:51:28.28	25.23	7.77	-49.2	-61.1	3.8	7.42e-01	0	53	104	0	61	14316
2026-01-02 03:51:29.27	25.16	7.85	-49.0	-60.9	3.8	7.44e-01	0	53	104	0	61	13964
2026-01-02 03:51:30.25	25.10	7.93	-48.9	-60.8	3.8	7.46e-01	0	53	104	0	61	13785
2026-01-02 03:51:31.24	25.03	8.01	-48.9	-60.7	3.8	7.47e-01	0	53	104	0	61	13645
2026-01-02 03:51:32.23	24.96	8.09	-48.9	-60.7	3.8	7.48e-01	0	53	104	0	61	13680
2026-01-02 03:51:33.21	24.90	8.16	-49.0	-60.9	3.8	7.44e-01	0	53	104	0	61	13892
2026-01-02 03:51:34.20	24.83	8.24	-49.1	-61.1	3.8	7.44e-01	0	54	104	0	61	14223
2026-01-02 03:51:35.19	24.76	8.32	-49.3	-61.3	3.8	7.45e-01	0	53	104	0	61	14609
2026-01-02 03:51:36.19	24.70	8.40	-49.4	-61.4	3.9	7.46e-01	0	54	104	0	61	14835
2026-01-02 03:51:37.17	24.63	8.48	-49.6	-61.8	3.8	7.44e-01	0	54	104	0	61	15424
2026-01-02 03:51:38.16	24.56	8.56	-49.8	-62.1	3.8	7.45e-01	0	53	104	0	61	15953
2026-01-02 03:51:39.15	24.49	8.64	-50.1	-62.5	3.8	7.45e-01	0	54	104	0	62	15896
2026-01-02 03:51:40.14	24.42	8.72	-50.4	-63.0	3.8	7.43e-01	0	54	104	0	62	16738
2026-01-02 03:51:41.13	24.35	8.81	-50.8	-63.6	3.8	7.44e-01	0	54	104	0	63	17060
2026-01-02 03:51:42.12	24.28	8.89	-51.0	-64.1	3.8	7.44e-01	0	54	104	0	64	16995
2026-01-02 03:51:43.11	24.21	8.97	-51.3	-64.7	3.8	7.44e-01	0	54	104	0	64	18184
2026-01-02 03:51:44.10	24.14	9.05	-51.6	-65.3	3.8	7.44e-01	0	54	104	0	65	18343
2026-01-02 03:51:45.09	24.07	9.13	-51.9	-66.0	3.8	7.44e-01	0	54	104	0	65	20021
2026-01-02 03:51:46.08	24.00	9.22	-52.2	-66.9	3.8	7.44e-01	0	54	104	0	66	21017
2026-01-02 03:51:47.07	23.92	9.30	-52.6	-67.8	3.8	7.43e-01	0	54	104	0	67	22002
2026-01-02 03:51:48.06	23.85	9.38	-52.2	-66.9	3.8	7.43e-01	0	54	104	0	67	19809
2026-01-02 03:51:49.05	23.78	9.46	-52.5	-67.5	3.8	7.45e-01	0	54	104	0	67	21134
2026-01-02 03:51:50.04	23.70	9.55	-52.6	-68.0	3.8	7.49e-01	0	54	104	0	67	22482
2026-01-02 03:51:51.02	23.63	9.63	-52.8	-68.7	3.8	7.45e-01	0	54	104	0	67	24177
2026-01-02 03:51:52.01	23.55	9.71	-53.0	-69.3	3.8	7.44e-01	0	54	104	0	68	24438
2026-01-02 03:51:53.00	23.48	9.80	-53.1	-69.8	3.8	7.45e-01	0	54	104	0	68	25898
2026-01-02 03:51:53.99	23.40	9.88	-53.2	-70.3	3.8	7.48e-01	0	54	104	0	68	27507
2026-01-02 03:51:54.98	23.33	9.97	-53.2	-70.0	3.8	7.43e-01	0	54	104	0	68	26478
2026-01-02 03:51:55.97	23.25	10.05	-53.1	-69.6	3.8	7.48e-01	0	54	104	0	68	25538
2026-01-02 03:51:56.97	23.17	10.14	-53.1	-69.4	3.8	7.42e-01	0	54	104	0	68	24745
2026-01-02 03:51:57.96	23.09	10.22	-53.0	-69.1	3.8	7.45e-01	0	54	104	0	68	23963
2026-01-02 03:51:58.95	23.01	10.31	-52.9	-68.8	3.8	7.44e-01	0	54	104	0	68	23280
2026-01-02 03:51:59.94	22.93	10.40	-52.9	-68.7	3.8	7.46e-01	0	54	104	0	68	22803
2026-01-02 03:52:00.92	22.86	10.48	-52.6	-67.6	3.8	7.48e-01	0	54	104	0	68	20288
2026-01-02 03:52:01.91	22.78	10.57	-52.2	-66.6	3.8	7.45e-01	0	54	104	0	68	18028
2026-01-02 03:52:02.90	22.69	10.66	-51.7	-65.5	3.8	7.45e-01	0	54	104	0	67	16845
2026-01-02 03:52:03.90	22.61	10.74	-51.2	-64.4	3.8	7.42e-01	0	54	104	0	66	15744
2026-01-02 03:52:04.88	22.53	10.83	-50.8	-63.6	3.8	7.44e-01	0	54	104	0	65	15161
2026-01-02 03:52:05.87	22.45	10.92	-50.3	-62.8	3.8	7.46e-01	0	54	104	0	64	14593
2026-01-02 03:52:06.86	22.37	11.01	-50.2	-62.5	3.8	7.44e-01	0	54	104	0	63	14957
2026-01-02 03:52:07.85	22.28	11.10	-50.1	-62.3	3.8	7.43e-01	0	54	104	0	63	14674
2026-01-02 03:52:08.83	22.20	11.18	-50.0	-62.2	3.8	7.46e-01	0	54	104	0	63	14459
2026-01-02 03:52:09.82	22.12	11.27	-50.0	-62.3	3.8	7.44e-01	0	54	104	0	63	14577
2026-01-02 03:52:10.81	22.03	11.36	-50.1	-62.4	3.8	7.46e-01	0	54	104	0	63	14826
2026-01-02 03:52:11.80	21.94	11.45	-50.1	-62.3	3.8	7.44e-01	0	54	104	0	63	14641
2026-01-02 03:52:12.79	21.86	11.54	-50.0	-62.1	3.8	7.43e-01	0	54	104	0	63	14326
2026-01-02 03:52:13.77	21.77	11.63	-49.6	-61.6	3.8	7.45e-01	0	54	104	0	62	14296
2026-01-02 03:52:14.76	21.68	11.72	-49.2	-61.1	3.8	7.45e-01	0	55	104	0	62	13442
2026-01-02 03:52:15.74	21.60	11.81	-48.9	-60.5	3.8	7.43e-01	0	55	104	0	61	13411
2026-01-02 03:52:16.74	21.51	11.90	-48.6	-60.2	3.8	7.45e-01	0	54	104	0	60	13571
2026-01-02 03:52:17.73	21.42	12.00	-48.3	-59.8	3.9	7.45e-01	0	54	104	0	60	13009
2026-01-02 03:52:18.71	21.33	12.09	-48.5	-60.0	3.8	7.45e-01	0	55	104	0	59	14169
2026-01-02 03:52:19.70	21.24	12.18	-48.5	-59.9	3.8	7.42e-01	0	55	104	0	59	13979
2026-01-02 03:52:20.69	21.15	12.27	-48.6	-60.1	3.9	7.44e-01	0	55	104	0	59	14281
2026-01-02 03:52:21.69	21.05	12.37	-48.7	-60.2	3.8	7.46e-01	0	55	104	0	59	14444
2026-01-02 03:52:22.67	20.96	12.46	-48.6	-60.2	3.8	7.43e-01	0	55	104	0	60	13671
2026-01-02 03:52:23.66	20.87	12.55	-48.9	-60.7	3.8	7.43e-01	0	55	104	0	60	14374
2026-01-02 03:52:24.66	20.77	12.65	-49.3	-61.1	3.8	7.43e-01	0	55	104	0	60	15184
2026-01-02 03:52:25.64	20.68	12.74	-49.6	-61.6	3.9	7.44e-01	0	55	104	0	61	15186
2026-01-02 03:52:26.64	20.59	12.83	-49.7	-61.8	3.8	7.45e-01	0	55	104	0	61	15415
2026-01-02 03:52:27.62	20.49	12.93	-49.9	-62.0	3.8	7.44e-01	0	54	104	0	61	15911
2026-01-02 03:52:28.61	20.39	13.02	-50.1	-62.3	3.8	7.43e-01	0	55	104	0	62	15563
2026-01-02 03:52:29.60	20.30	13.12	-50.4	-62.9	3.9	7.43e-01	0	55	104	0	63	15614
2026-01-02 03:52:30.58	20.20	13.21	-50.8	-63.4	3.8	7.42e-01	0	55	104	0	63	16694
2026-01-02 03:52:31.57	20.10	13.31	-51.1	-64.0	3.8	7.46e-01	0	55	104	0	64	16880
2026-01-02 03:52:32.56	20.00	13.41	-51.4	-64.8	3.8	7.46e-01	0	55	104	0	65	17334
2026-01-02 03:52:33.54	19.90	13.50	-51.8	-65.6	3.8	7.47e-01	0	55	104	0	65	19162
2026-01-02 03:52:34.53	19.80	13.60	-52.2	-66.6	3.8	7.45e-01	0	55	104	0	66	20114
2026-01-02 03:52:35.52	19.70	13.70	-52.3	-66.7	3.8	7.48e-01	0	55	104	0	67	19214
2026-01-02 03:52:36.51	19.60	13.80	-51.9	-65.7	3.8	7.46e-01	0	55	104	0	67	17184
2026-01-02 03:52:37.50	19.49	13.89	-51.4	-64.8	3.8	7.41e-01	0	55	104	0	66	16370
2026-01-02 03:52:38.49	19.39	13.99	-51.4	-64.7	3.8	7.43e-01	0	55	104	0	66	16285
2026-01-02 03:52:39.48	19.29	14.09	-51.8	-65.5	3.8	7.48e-01	0	55	104	0	66	17742
2026-01-02 03:52:40.46	19.18	14.19	-52.1	-66.3	3.8	7.44e-01	0	55	104	0	66	19400
2026-01-02 03:52:41.45	19.08	14.29	-52.4	-67.0	3.8	7.42e-01	0	55	104	0	67	20036
2026-01-02 03:52:42.44	18.97	14.39	-52.7	-67.7	3.8	7.42e-01	0	55	104	0	67	21734
2026-01-02 03:52:43.43	18.86	14.49	-53.0	-68.6	3.8	7.45e-01	0	55	104	0	68	22567
2026-01-02 03:52:44.42	18.75	14.59	-53.1	-68.9	3.8	7.45e-01	0	55	104	0	68	23444
2026-01-02 03:52:45.41	18.64	14.69	-53.0	-68.6	3.8	7.44e-01	0	55	104	0	68	22578
2026-01-02 03:52:46.40	18.53	14.79	-52.9	-68.3	3.8	7.45e-01	0	55	104	0	68	21949
2026-01-02 03:52:47.39	18.42	14.89	-52.8	-68.1	3.8	7.45e-01	0	55	104	0	68	21305
2026-01-02 03:52:48.39	18.31	15.00	-52.8	-68.0	3.8	7.44e-01	0	55	104	0	68	21056
2026-01-02 03:52:49.38	18.20	15.10	-52.7	-67.8	3.8	7.45e-01	0	55	104	0	68	20627
2026-01-02 03:52:50.37	18.08	15.20	-52.6	-67.3	3.8	7.45e-01	0	55	104	0	68	19496
2026-01-02 03:52:51.36	17.97	15.31	-52.1	-66.1	3.8	7.43e-01	0	56	104	0	67	17968
2026-01-02 03:52:52.35	17.85	15.41	-51.5	-64.9	3.8	7.43e-01	0	55	104	0	66	16554
2026-01-02 03:52:53.34	17.74	15.51	-50.9	-63.7	3.8	7.41e-01	0	55	104	0	65	15305
2026-01-02 03:52:54.32	17.62	15.62	-50.4	-62.8	3.8	7.44e-01	0	55	104	0	64	14646
2026-01-02 03:52:55.32	17.50	15.72	-50.0	-62.1	3.8	7.43e-01	0	55	104	0	63	14239
2026-01-02 03:52:56.30	17.38	15.83	-49.7	-61.7	3.8	7.41e-01	0	55	104	0	62	14390
2026-01-02 03:52:57.29	17.26	15.93	-49.7	-61.6	3.8	7.46e-01	0	55	104	0	62	14373
2026-01-02 03:52:58.28	17.14	16.04	-49.8	-61.9	3.8	7.47e-01	0	55	104	0	62	14792
2026-01-02 03:52:59.27	17.02	16.14	-49.9	-62.0	3.8	7.45e-01	0	55	104	0	62	15045
2026-01-02 03:53:00.26	16.90	16.25	-49.7	-61.7	3.8	7.45e-01	0	55	104	0	62	14524
2026-01-02 03:53:01.25	16.77	16.36	-49.7	-61.7	3.8	7.46e-01	0	56	104	0	62	14404
2026-01-02 03:53:02.24	16.65	16.46	-49.7	-61.7	3.8	7.42e-01	0	55	104	0	62	14418
2026-01-02 03:53:03.23	16.52	16.57	-49.6	-61.6	3.8	7.46e-01	0	55	104	0	62	14278
2026-01-02 03:53:04.22	16.40	16.68	-49.2	-61.0	3.8	7.44e-01	0	55	104	0	62	13328
2026-01-02 03:53:05.21	16.27	16.79	-48.9	-60.5	3.8	7.47e-01	0	55	104	0	61	13328
2026-01-02 03:53:06.20	16.14	16.90	-48.5	-60.0	3.8	7.41e-01	0	55	104	0	60	13393
2026-01-02 03:53:07.18	16.01	17.01	-48.3	-59.7	3.8	7.44e-01	0	55	104	0	60	12890
2026-01-02 03:53:08.18	15.88	17.12	-48.4	-59.8	3.8	7.46e-01	0	56	104	0	59	13842
2026-01-02 03:53:09.16	15.75	17.23	-48.3	-59.7	3.8	7.44e-01	0	55	104	0	59	13669
2026-01-02 03:53:10.16	15.62	17.34	-48.5	-60.0	3.8	7.43e-01	0	56	104	0	59	14084
2026-01-02 03:53:11.14	15.48	17.45	-48.8	-60.4	3.8	7.49e-01	0	55	104	0	59	14762
2026-01-02 03:53:12.14	15.35	17.56	-48.9	-60.5	3.8	7.41e-01	0	55	104	0	60	14136
2026-01-02 03:53:13.13	15.21	17.67	-49.3	-61.2	3.8	7.45e-01	0	56	104	0	60	15233
2026-01-02 03:53:14.12	15.08	17.78	-49.8	-61.9	3.8	7.44e-01	0	56	104	0	61	15619
2026-01-02 03:53:15.11	14.94	17.90	-50.4	-62.8	3.9	7.42e-01	0	55	104	0	63	15526
2026-01-02 03:53:16.10	14.80	18.01	-50.4	-62.8	3.8	7.42e-01	0	55	104	0	63	15483
2026-01-02 03:53:17.09	14.66	18.12	-50.5	-63.0	3.8	7.44e-01	0	56	104	0	63	15820
2026-01-02 03:53:18.07	14.52	18.24	-50.7	-63.2	3.8	7.47e-01	0	56	104	0	63	16273
2026-01-02 03:53:19.06	14.37	18.35	-50.8	-63.5	3.9	7.41e-01	0	56	104	0	64	15845
2026-01-02 03:53:20.04	14.23	18.46	-51.1	-64.1	3.8	7.43e-01	0	56	104	0	64	16984
2026-01-02 03:53:21.03	14.09	18.58	-51.5	-64.8	3.8	7.47e-01	0	56	104	0	65	17391
2026-01-02 03:53:22.02	13.94	18.69	-51.9	-65.8	3.8	7.47e-01	0	56	104	0	66	18489
2026-01-02 03:53:23.01	13.79	18.81	-52.3	-66.6	3.8	7.47e-01	0	55	104	0	66	20227
2026-01-02 03:53:24.00	13.64	18.92	-51.9	-65.7	3.8	7.44e-01	0	56	104	0	66	18237
2026-01-02 03:53:24.99	13.50	19.04	-51.5	-64.8	3.8	7.47e-01	0	56	104	0	66	16405
2026-01-02 03:53:25.98	13.34	19.16	-51.1	-64.1	3.8	7.43e-01	0	55	104	0	65	16076
2026-01-02 03:53:26.97	13.19	19.28	-50.7	-63.3	3.8	7.42e-01	0	56	104	0	65	14617
2026-01-02 03:53:27.96	13.04	19.39	-50.3	-62.6	3.8	7.48e-01	0	56	104	0	64	14286
2026-01-02 03:53:28.95	12.88	19.51	-50.7	-63.2	3.8	7.45e-01	0	56	104	0	64	15362
2026-01-02 03:53:29.94	12.73	19.63	-51.1	-64.0	3.8	7.44e-01	0	56	104	0	64	16866
2026-01-02 03:53:30.93	12.57	19.75	-51.5	-64.8	3.8	7.45e-01	0	56	104	0	65	17324
2026-01-02 03:53:31.92	12.41	19.87	-52.1	-65.9	3.8	7.48e-01	0	56	104	0	66	18653
2026-01-02 03:53:32.91	12.25	19.99	-52.4	-66.7	3.8	7.47e-01	0	56	104	0	66	20531
2026-01-02 03:53:33.90	12.09	20.11	-52.8	-67.8	3.8	7.44e-01	0	56	104	0	67	21904
2026-01-02 03:53:34.89	11.93	20.23	-52.8	-67.9	3.8	7.43e-01	0	56	104	0	67	22091
2026-01-02 03:53:35.88	11.76	20.35	-52.7	-67.6	3.8	7.45e-01	0	56	104	0	67	21484
2026-01-02 03:53:36.86	11.60	20.47	-52.7	-67.6	3.8	7.44e-01	0	56	104	0	67	21350
2026-01-02 03:53:37.85	11.43	20.59	-52.7	-67.7	3.8	7.43e-01	0	56	104	0	67	21545
2026-01-02 03:53:38.84	11.26	20.71	-52.7	-67.5	3.8	7.45e-01	0	56	104	0	67	21212
2026-01-02 03:53:39.83	11.09	20.84	-52.7	-67.7	3.8	7.42e-01	0	56	104	0	67	21702
2026-01-02 03:53:40.82	10.92	20.96	-52.3	-66.4	3.8	7.46e-01	0	56	104	0	67	18666
2026-01-02 03:53:41.81	10.75	21.08	-51.8	-65.3	3.8	7.46e-01	0	56	104	0	67	16352
2026-01-02 03:53:42.79	10.57	21.20	-51.1	-64.0	3.8	7.45e-01	0	56	104	0	65	15831
2026-01-02 03:53:43.78	10.40	21.33	-50.6	-63.2	3.8	7.43e-01	0	56	104	0	64	15256
2026-01-02 03:53:44.76	10.22	21.45	-50.1	-62.4	3.8	7.43e-01	0	56	104	0	63	14715
2026-01-02 03:53:45.75	10.04	21.58	-49.7	-61.6	3.8	7.45e-01	0	56	104	0	63	13557
2026-01-02 03:53:46.74	9.86	21.70	-49.7	-61.7	3.8	7.46e-01	0	56	104	0	62	14453
2026-01-02 03:53:47.73	9.68	21.83	-49.7	-61.6	3.8	7.43e-01	0	56	104	0	62	14328
2026-01-02 03:53:48.73	9.50	21.95	-49.5	-61.4	3.8	7.48e-01	0	56	104	0	62	13927
2026-01-02 03:53:49.72	9.31	22.08	-49.4	-61.3	3.8	7.45e-01	0	56	104	0	62	13801
2026-01-02 03:53:50.71	9.12	22.21	-49.3	-61.3	3.8	7.45e-01	0	56	104	0	62	13825
2026-01-02 03:53:51.71	8.93	22.34	-49.4	-61.6	3.8	7.44e-01	0	56	104	0	62	14227
2026-01-02 03:53:52.70	8.74	22.46	-49.6	-61.9	3.8	7.42e-01	0	56	104	0	62	14845
2026-01-02 03:53:53.68	8.55	22.59	-49.6	-62.0	3.8	7.43e-01	0	56	104	0	62	14967
2026-01-02 03:53:54.67	8.36	22.72	-49.6	-62.1	3.8	7.46e-01	0	56	104	0	61	16021
2026-01-02 03:53:55.66	8.17	22.85	-49.6	-62.1	3.8	7.46e-01	0	56	104	0	61	16036
2026-01-02 03:53:56.66	7.97	22.98	-49.6	-62.2	3.8	7.43e-01	0	56	104	0	61	16209
2026-01-02 03:53:57.65	7.77	23.11	-50.1	-63.3	3.8	7.47e-01	0	56	104	0	62	17290
2026-01-02 03:53:58.64	7.57	23.24	-50.6	-64.3	3.8	7.45e-01	0	56	104	0	63	18478
2026-01-02 03:53:59.63	7.36	23.37	-50.8	-65.0	3.9	7.42e-01	0	56	104	0	64	18767
2026-01-02 03:54:00.62	7.16	23.50	-51.1	-65.5	3.8	7.47e-01	0	56	104	0	64	19916
2026-01-02 03:54:01.61	6.96	23.63	-51.2	-65.2	3.8	7.46e-01	0	56	104	0	64	19169
2026-01-02 03:54:02.60	6.75	23.76	-51.2	-65.0	3.8	7.44e-01	0	56	104	0	64	18845
2026-01-02 03:54:03.59	6.54	23.89	-51.4	-65.1	3.8	7.44e-01	0	56	104	0	65	17973
2026-01-02 03:54:04.58	6.33	24.02	-51.5	-65.0	3.8	7.45e-01	0	56	104	0	65	17857
2026-01-02 03:54:05.57	6.11	24.15	-51.3	-64.4	3.8	7.43e-01	0	56	104	0	64	17683
2026-01-02 03:54:06.57	5.90	24.29	-51.0	-63.9	3.8	7.43e-01	0	56	104	0	64	16648
2026-01-02 03:54:07.56	5.68	24.42	-51.0	-64.1	3.8	7.46e-01	0	56	104	0	64	16981
2026-01-02 03:54:08.55	5.46	24.55	-51.1	-64.6	3.8	7.45e-01	0	56	104	0	64	18028
2026-01-02 03:54:09.54	5.24	24.68	-51.4	-65.6	3.8	7.43e-01	0	56	104	0	64	20182
2026-01-02 03:54:10.53	5.02	24.82	-52.0	-67.9	3.8	7.46e-01	0	56	104	0	66	23401
2026-01-02 03:54:11.52	4.79	24.95	-52.4	-70.3	3.8	7.43e-01	0	56	104	0	67	29016
2026-01-02 03:54:12.51	4.56	25.08	-52.3	-70.1	3.8	7.45e-01	0	56	104	0	67	28669
2026-01-02 03:54:13.49	4.34	25.22	-52.2	-69.4	3.8	7.44e-01	0	56	104	0	67	26414
2026-01-02 03:54:14.49	4.10	25.35	-52.2	-69.5	3.8	7.46e-01	0	56	104	0	67	26681
2026-01-02 03:54:15.48	3.87	25.49	-52.3	-69.8	3.8	7.44e-01	0	56	104	0	67	27440
2026-01-02 03:54:16.47	3.63	25.62	-52.3	-68.9	3.8	7.45e-01	0	56	104	0	67	24707
2026-01-02 03:54:17.45	3.40	25.76	-52.1	-67.6	3.8	7.46e-01	0	56	104	0	67	21272
2026-01-02 03:54:18.45	3.16	25.89	-51.7	-65.8	3.8	7.47e-01	0	56	104	0	67	17388
2026-01-02 03:54:19.43	2.92	26.03	-51.3	-64.6	3.8	7.45e-01	0	56	104	0	66	16001
2026-01-02 03:54:20.41	2.68	26.16	-51.1	-64.0	3.8	7.44e-01	0	56	104	0	65	15886
2026-01-02 03:54:21.40	2.43	26.30	-51.3	-64.3	3.8	7.43e-01	0	56	104	0	65	16317
2026-01-02 03:54:22.39	2.18	26.43	-51.7	-64.9	3.8	7.43e-01	0	56	104	0	65	17609
2026-01-02 03:54:23.38	1.93	26.57	-52.2	-66.0	3.8	7.45e-01	0	56	104	0	66	18873
2026-01-02 03:54:24.38	1.68	26.71	-52.4	-66.6	3.8	7.44e-01	0	56	104	0	67	19057
2026-01-02 03:54:25.36	1.42	26.84	-52.4	-66.5	3.8	7.44e-01	0	56	104	0	67	18850
2026-01-02 03:54:26.35	1.17	26.98	-52.5	-66.7	3.8	7.42e-01	0	56	104	0	67	19385
2026-01-02 03:54:27.34	0.91	27.11	-52.5	-66.8	3.8	7.46e-01	0	56	104	0	67	19571
2026-01-02 03:54:28.33	0.64	27.25	-52.6	-67.1	3.8	7.43e-01	0	56	104	0	67	20241
2026-01-02 03:54:29.32	0.38	27.39	-52.6	-67.1	3.8	7.43e-01	0	56	104	0	67	20191
2026-01-02 03:54:30.31	0.11	27.52	-52.4	-66.5	3.8	7.41e-01	0	56	104	0	67	18810
2026-01-02 03:54:31.29	359.85	27.66	-51.7	-65.1	3.8	7.45e-01	0	56	104	0	67	15984
2026-01-02 03:54:32.28	359.57	27.80	-51.1	-63.8	3.8	7.46e-01	0	56	104	0	65	15513
2026-01-02 03:54:33.27	359.30	27.93	-50.5	-62.8	3.8	7.42e-01	0	56	104	0	64	14663
2026-01-02 03:54:34.26	359.02	28.07	-50.0	-62.0	3.8	7.41e-01	0	56	104	0	63	14203
2026-01-02 03:54:35.25	358.74	28.21	-49.6	-61.4	3.8	7.46e-01	0	56	104	0	62	13984
2026-01-02 03:54:36.23	358.47	28.34	-49.2	-60.9	3.8	7.44e-01	0	56	104	0	62	13158
2026-01-02 03:54:37.22	358.18	28.48	-49.0	-60.6	3.8	7.45e-01	0	56	104	0	61	13560
2026-01-02 03:54:38.20	357.90	28.62	-48.9	-60.5	3.8	7.43e-01	0	56	104	0	61	13277
2026-01-02 03:54:39.19	357.61	28.75	-48.9	-60.5	3.8	7.45e-01	0	56	104	0	61	13310
2026-01-02 03:54:40.18	357.32	28.89	-49.0	-60.6	3.8	7.45e-01	0	56	104	0	61	13520
2026-01-02 03:54:41.17	357.02	29.03	-49.3	-60.9	3.8	7.44e-01	0	56	104	0	61	14037
2026-01-02 03:54:42.16	356.72	29.16	-49.6	-61.4	3.8	7.45e-01	0	56	104	0	61	14831
2026-01-02 03:54:43.15	356.43	29.30	-49.9	-61.9	3.8	7.45e-01	0	56	104	0	62	14801
2026-01-02 03:54:44.12	356.13	29.43	-49.5	-61.4	3.8	7.43e-01	0	56	104	0	62	13899
2026-01-02 03:54:45.11	355.82	29.57	-49.2	-60.8	3.8	7.43e-01	0	56	104	0	62	13076
2026-01-02 03:54:46.09	355.52	29.70	-48.9	-60.4	3.8	7.41e-01	0	56	104	0	61	13172
2026-01-02 03:54:47.09	355.21	29.84	-48.7	-60.1	3.8	7.43e-01	0	56	104	0	60	13492
2026-01-02 03:54:48.08	354.89	29.97	-48.6	-60.0	3.8	7.48e-01	0	56	104	0	60	13354
2026-01-02 03:54:49.07	354.58	30.11	-48.6	-60.0	3.8	7.42e-01	0	56	104	0	60	13378
2026-01-02 03:54:50.06	354.26	30.24	-49.2	-60.9	3.8	7.45e-01	0	56	104	0	60	14778
2026-01-02 03:54:51.05	353.94	30.38	-49.8	-61.7	3.8	7.43e-01	0	56	104	0	61	15361
2026-01-02 03:54:52.04	353.61	30.51	-50.5	-62.8	3.8	7.39e-01	0	56	104	0	63	15403
2026-01-02 03:54:53.03	353.29	30.65	-51.2	-63.9	3.8	7.44e-01	0	56	104	0	64	16609
2026-01-02 03:54:54.01	352.96	30.78	-50.5	-62.8	3.8	7.43e-01	0	56	104	0	64	14663
2026-01-02 03:54:55.01	352.62	30.91	-49.8	-61.7	3.8	7.43e-01	0	57	104	0	63	13677
2026-01-02 03:54:56.00	352.29	31.05	-49.7	-61.5	3.8	7.47e-01	0	56	104	0	63	13353
2026-01-02 03:54:56.99	351.95	31.18	-49.7	-61.6	3.8	7.44e-01	0	56	104	0	63	13465
2026-01-02 03:54:57.97	351.61	31.31	-49.9	-61.8	3.8	7.46e-01	0	56	104	0	63	13739
2026-01-02 03:54:58.97	351.26	31.44	-50.1	-62.1	3.8	7.43e-01	0	56	104	0	63	14325
2026-01-02 03:54:59.96	350.92	31.57	-50.3	-62.5	3.8	7.45e-01	0	56	104	0	63	14927
2026-01-02 03:55:00.95	350.57	31.70	-50.5	-62.8	3.8	7.44e-01	0	56	104	0	63	15569
2026-01-02 03:55:01.94	350.21	31.83	-50.1	-62.2	3.8	7.44e-01	0	56	104	0	63	14402
2026-01-02 03:55:02.93	349.86	31.96	-49.7	-61.5	3.8	7.41e-01	0	56	104	0	63	13413
2026-01-02 03:55:03.92	349.50	32.09	-49.3	-61.0	3.8	7.45e-01	0	56	104	0	62	13402
2026-01-02 03:55:04.91	349.14	32.22	-49.0	-60.5	3.8	7.41e-01	0	56	104	0	61	13363
2026-01-02 03:55:05.90	348.77	32.34	-48.7	-60.1	3.8	7.43e-01	0	57	104	0	61	12774
2026-01-02 03:55:06.88	348.41	32.47	-48.6	-60.1	3.8	7.45e-01	0	56	104	0	60	13507
2026-01-02 03:55:07.87	348.04	32.59	-48.8	-60.2	3.8	7.46e-01	0	56	104	0	60	13703
2026-01-02 03:55:08.86	347.66	32.72	-49.2	-60.9	3.8	7.41e-01	0	56	104	0	60	14832
2026-01-02 03:55:09.85	347.29	32.84	-49.7	-61.6	3.8	7.50e-01	0	56	104	0	61	15104
2026-01-02 03:55:10.85	346.90	32.97	-50.3	-62.4	3.8	7.48e-01	0	56	104	0	62	15758
2026-01-02 03:55:11.83	346.52	33.09	-50.7	-63.0	3.8	7.44e-01	0	57	104	0	63	15861
2026-01-02 03:55:12.82	346.14	33.21	-51.2	-64.0	3.8	7.43e-01	0	56	104	0	64	16740
2026-01-02 03:55:13.81	345.75	33.33	-51.8	-65.2	3.8	7.45e-01	0	56	104	0	65	18293
2026-01-02 03:55:14.80	345.36	33.45	-52.1	-65.8	3.8	7.43e-01	0	56	104	0	66	18456
2026-01-02 03:55:15.79	344.96	33.57	-52.3	-66.2	3.8	7.43e-01	0	56	104	0	66	19335
2026-01-02 03:55:16.78	344.57	33.68	-52.5	-66.8	3.8	7.45e-01	0	56	104	0	67	19533
2026-01-02 03:55:17.77	344.17	33.80	-52.4	-66.4	3.8	7.45e-01	0	57	104	0	67	18717
2026-01-02 03:55:18.76	343.76	33.92	-52.2	-66.0	3.8	7.47e-01	0	56	104	0	67	17811
2026-01-02 03:55:19.74	343.36	34.03	-52.0	-65.7	3.8	7.44e-01	0	57	104	0	67	17099
2026-01-02 03:55:20.73	342.95	34.14	-51.7	-64.7	3.8	7.48e-01	0	56	104	0	66	16299
2026-01-02 03:55:21.72	342.54	34.25	-51.0	-63.6	3.8	7.46e-01	0	56	104	0	65	15203
2026-01-02 03:55:22.71	342.12	34.36	-50.5	-62.8	3.8	7.48e-01	0	56	104	0	64	14559
2026-01-02 03:55:23.70	341.70	34.47	-50.1	-62.0	3.8	7.46e-01	0	56	104	0	63	14182
2026-01-02 03:55:24.69	341.28	34.58	-49.7	-61.6	3.8	7.45e-01	0	56	104	0	63	13523
2026-01-02 03:55:25.68	340.86	34.69	-49.4	-61.2	3.8	7.45e-01	0	56	104	0	62	13616
2026-01-02 03:55:26.67	340.43	34.79	-49.2	-60.8	3.8	7.47e-01	0	56	104	0	62	13019
2026-01-02 03:55:27.66	340.00	34.90	-49.1	-60.7	3.8	7.43e-01	0	56	104	0	61	13585
2026-01-02 03:55:28.65	339.57	35.00	-49.2	-60.9	3.8	7.43e-01	0	57	104	0	61	13900
2026-01-02 03:55:29.64	339.14	35.10	-49.5	-61.4	3.8	7.46e-01	0	56	104	0	61	14746
2026-01-02 03:55:30.62	338.70	35.20	-49.8	-61.7	3.8	7.46e-01	0	56	104	0	61	15271
2026-01-02 03:55:31.61	338.26	35.29	-50.1	-62.0	3.8	7.44e-01	0	56	104	0	62	15033
2026-01-02 03:55:32.60	337.82	35.39	-50.5	-62.7	3.8	7.46e-01	0	57	104	0	63	15360
2026-01-02 03:55:33.58	337.38	35.48	-50.6	-63.0	3.8	7.42e-01	0	56	104	0	63	15932
2026-01-02 03:55:34.56	336.93	35.58	-50.4	-62.6	3.8	7.44e-01	0	56	104	0	63	15167
2026-01-02 03:55:35.55	336.48	35.67	-50.2	-62.2	3.8	7.45e-01	0	56	104	0	63	14525
2026-01-02 03:55:36.54	336.03	35.76	-50.1	-62.1	3.8	7.47e-01	0	56	104	0	63	14263
2026-01-02 03:55:37.52	335.58	35.84	-50.1	-62.2	3.8	7.43e-01	0	56	104	0	63	14382
2026-01-02 03:55:38.52	335.11	35.93	-50.1	-62.0	3.8	7.41e-01	0	56	104	0	63	14180
2026-01-02 03:55:39.50	334.66	36.01	-50.2	-62.3	3.8	7.46e-01	0	56	104	0	63	14613
2026-01-02 03:55:40.50	334.19	36.10	-50.9	-63.3	3.8	7.42e-01	0	56	104	0	63	16495
2026-01-02 03:55:41.49	333.72	36.18	-50.8	-63.4	3.8	7.46e-01	0	57	104	0	64	15661
2026-01-02 03:55:42.48	333.25	36.25	-50.2	-62.3	3.8	7.43e-01	0	57	104	0	64	13789
2026-01-02 03:55:43.47	332.78	36.33	-49.8	-61.6	3.8	7.44e-01	0	57	104	0	63	13437
2026-01-02 03:55:44.47	332.31	36.41	-49.5	-61.3	3.8	7.46e-01	0	56	104	0	62	13799
2026-01-02 03:55:45.47	331.83	36.48	-49.2	-60.8	3.8	7.48e-01	0	57	104	0	62	13015
2026-01-02 03:55:46.46	331.35	36.55	-49.1	-60.7	3.8	7.44e-01	0	56	104	0	61	13602
2026-01-02 03:55:47.45	330.87	36.62	-49.2	-60.7	3.8	7.43e-01	0	56	104	0	61	13698
2026-01-02 03:55:48.44	330.39	36.68	-49.3	-61.1	3.8	7.46e-01	0	57	104	0	61	14241
2026-01-02 03:55:49.43	329.90	36.75	-49.6	-61.3	3.8	7.44e-01	0	57	104	0	61	14690
2026-01-02 03:55:50.42	329.42	36.81	-49.9	-61.8	3.8	7.46e-01	0	57	104	0	61	15493
2026-01-02 03:55:51.41	328.93	36.87	-49.8	-61.6	3.8	7.44e-01	0	56	104	0	62	14320
2026-01-02 03:55:52.40	328.44	36.93	-49.6	-61.3	3.8	7.43e-01	0	57	104	0	62	13841
2026-01-02 03:55:53.38	327.96	36.98	-49.6	-61.4	3.8	7.43e-01	0	57	104	0	62	13917
2026-01-02 03:55:54.37	327.46	37.03	-49.7	-61.7	3.8	7.43e-01	0	56	104	0	62	14406
2026-01-02 03:55:55.36	326.97	37.09	-49.7	-61.4	3.8	7.46e-01	0	56	104	0	62	14011
2026-01-02 03:55:56.35	326.47	37.13	-49.9	-61.7	3.8	7.47e-01	0	56	104	0	62	14499
2026-01-02 03:55:57.34	325.98	37.18	-50.2	-62.3	3.8	7.41e-01	0	56	104	0	62	15522
2026-01-02 03:55:58.33	325.48	37.22	-50.6	-62.9	3.8	7.43e-01	0	57	104	0	63	15666
2026-01-02 03:55:59.32	324.98	37.26	-50.8	-63.2	3.8	7.43e-01	0	57	104	0	63	16147
2026-01-02 03:56:00.32	324.47	37.30	-51.0	-63.7	3.8	7.43e-01	0	57	104	0	64	16183
2026-01-02 03:56:01.31	323.97	37.34	-51.1	-55.2	5.2	7.07e-01	0	57	104	0	64	6063
2026-01-02 03:56:02.31	323.46	37.37	-51.4	-55.1	17.9	6.05e-01	0	56	0	1048576	65	5704
2026-01-02 03:56:03.30	322.96	37.41	-51.7	-55.6	17.5	6.03e-01	0	56	0	2621440	65	6053
2026-01-02 03:56:04.28	322.45	37.44	-51.6	-55.4	17.8	6.03e-01	0	56	0	4718592	65	5879
2026-01-02 03:56:05.27	321.95	37.46	-51.7	-55.7	17.4	6.05e-01	0	57	0	6291456	65	6079
2026-01-02 03:56:06.26	321.44	37.49	-51.2	-54.6	18.5	6.05e-01	0	57	0	8388608	65	5395
2026-01-02 03:56:07.25	320.93	37.51	-51.0	-54.2	18.9	6.04e-01	0	57	0	9961472	65	5141
2026-01-02 03:56:08.25	320.42	37.53	-50.7	-53.8	19.4	6.04e-01	0	57	0	12058624	65	4879
2026-01-02 03:56:09.24	319.91	37.54	-50.7	-53.7	19.4	6.03e-01	0	56	0	13631488	65	4869
2026-01-02 03:56:10.23	319.40	37.56	-50.5	-53.4	19.7	6.04e-01	0	57	0	15728640	64	4951
2026-01-02 03:56:11.21	318.89	37.57	-50.7	-53.6	19.5	6.03e-01	0	57	0	17825792	64	5100
2026-01-02 03:56:12.20	318.38	37.58	-50.5	-53.4	19.7	6.02e-01	0	56	0	19398656	64	4951
2026-01-02 03:56:13.19	317.87	37.58	-50.1	-52.7	20.5	6.02e-01	0	56	0	21495808	63	4853
2026-01-02 03:56:14.18	317.36	37.59	-49.9	-52.4	20.9	6.01e-01	0	57	0	23068672	63	4653
2026-01-02 03:56:15.16	316.86	37.59	-49.5	-51.8	21.4	6.02e-01	0	57	0	25165824	62	4608
2026-01-02 03:56:16.14	316.35	37.59	-49.2	-51.3	21.8	6.03e-01	0	57	0	26738688	62	4358
2026-01-02 03:56:17.13	315.84	37.59	-49.0	-51.1	22.1	6.04e-01	0	56	0	28835840	61	4505
2026-01-02 03:56:18.12	315.33	37.58	-48.8	-50.7	22.4	6.03e-01	0	57	0	30408704	61	4333
2026-01-02 03:56:19.11	314.82	37.57	-48.8	-50.7	22.4	6.04e-01	0	57	0	32505856	61	4328
2026-01-02 03:56:20.09	314.31	37.56	-49.0	-51.1	22.1	6.03e-01	0	57	0	34078720	61	4502
2026-01-02 03:56:21.09	313.80	37.55	-48.8	-50.7	22.4	6.02e-01	0	57	0	36175872	60	4583
2026-01-02 03:56:22.08	313.29	37.53	-48.9	-50.8	22.2	6.01e-01	0	56	0	37748736	60	4643
2026-01-02 03:56:23.07	312.78	37.51	-48.9	-50.9	22.2	6.04e-01	0	57	0	39845888	60	4703
2026-01-02 03:56:24.06	312.27	37.49	-49.1	-51.1	21.9	6.03e-01	0	57	0	41943040	60	4796
2026-01-02 03:56:25.06	311.76	37.46	-48.9	-50.9	22.2	6.04e-01	0	57	0	43515904	60	4652
2026-01-02 03:56:26.04	311.26	37.44	-48.8	-50.8	22.3	6.05e-01	0	57	0	45613056	60	4624
2026-01-02 03:56:27.03	310.75	37.41	-48.9	-50.9	22.2	6.04e-01	0	57	0	47185920	60	4680
2026-01-02 03:56:28.02	310.24	37.38	-49.5	-51.7	21.4	6.04e-01	0	57	0	49283072	61	4846
2026-01-02 03:56:29.00	309.75	37.34	-49.7	-52.1	21.1	6.01e-01	0	57	0	50855936	61	5079
2026-01-02 03:56:30.00	309.24	37.31	-49.7	-52.0	21.1	6.02e-01	0	57	0	52953088	61	5024
2026-01-02 03:56:30.98	308.74	37.27	-49.5	-51.7	21.4	6.03e-01	0	57	0	54525952	61	4851
2026-01-02 03:56:31.96	308.25	37.23	-49.6	-51.9	21.2	6.04e-01	0	57	0	56623104	61	4955
2026-01-02 03:56:32.95	307.75	37.19	-49.7	-52.0	21.1	6.03e-01	0	57	0	58195968	61	5024
2026-01-02 03:56:33.93	307.25	37.14	-50.0	-52.6	20.6	6.05e-01	0	57	0	60293120	62	5082
2026-01-02 03:56:34.92	306.76	37.09	-49.6	-52.0	21.2	6.04e-01	0	57	0	61865984	61	5000
2026-01-02 03:56:35.92	306.26	37.04	-49.2	-51.3	21.9	6.03e-01	0	57	0	63963136	60	4908
2026-01-02 03:56:36.90	305.77	36.99	-49.0	-51.1	22.1	6.03e-01	0	57	0	65536000	60	4761
2026-01-02 03:56:37.89	305.28	36.93	-49.1	-51.3	21.8	6.03e-01	0	57	0	67633152	60	4875
2026-01-02 03:56:38.88	304.79	36.88	-49.2	-51.3	21.8	6.03e-01	0	57	0	69206016	60	4890
2026-01-02 03:56:39.86	304.31	36.82	-49.4	-51.6	21.5	6.05e-01	0	57	0	71303168	61	4787
2026-01-02 03:56:40.85	303.82	36.76	-49.1	-51.2	21.9	6.04e-01	0	57	0	72876032	60	4851
2026-01-02 03:56:41.82	303.34	36.69	-49.2	-51.4	21.6	6.03e-01	0	57	0	74973184	60	4961
2026-01-02 03:56:42.82	302.86	36.63	-49.5	-51.9	21.0	6.05e-01	0	56	0	77070336	61	4930
2026-01-02 03:56:43.81	302.38	36.56	-50.1	-52.8	20.4	6.02e-01	0	57	0	78643200	62	5172
2026-01-02 03:56:44.80	301.90	36.49	-49.8	-52.3	20.9	6.04e-01	0	57	0	80740352	61	5218
2026-01-02 03:56:45.79	301.42	36.42	-49.6	-52.1	21.1	6.03e-01	0	57	0	82313216	61	5050
2026-01-02 03:56:46.77	300.95	36.34	-49.5	-51.7	21.5	6.01e-01	0	57	0	84410368	61	4857
2026-01-02 03:56:47.76	300.48	36.27	-50.1	-52.8	20.4	6.04e-01	0	57	0	85983232	62	5162
2026-01-02 03:56:48.75	300.01	36.19	-50.3	-53.1	20.1	6.02e-01	0	57	0	88080384	62	5378
2026-01-02 03:56:49.74	299.55	36.11	-49.9	-52.4	20.7	6.02e-01	0	57	0	89653248	61	5274
2026-01-02 03:56:50.72	299.09	36.03	-49.3	-51.5	21.6	6.03e-01	0	57	0	91750400	61	4730
2026-01-02 03:56:51.71	298.62	35.94	-48.9	-50.9	22.2	6.02e-01	0	57	0	93323264	61	4419
2026-01-02 03:56:52.69	298.17	35.86	-49.1	-51.2	21.9	6.05e-01	0	57	0	95420416	61	4589
2026-01-02 03:56:53.68	297.71	35.77	-48.9	-50.9	22.2	6.03e-01	0	57	0	96993280	60	4686
2026-01-02 03:56:54.68	297.25	35.68	-48.3	-50.0	23.1	6.03e-01	0	57	0	99090432	60	4239
2026-01-02 03:56:55.67	296.80	35.59	-48.4	-50.2	22.7	6.02e-01	0	57	0	101187584	60	4326
2026-01-02 03:56:56.65	296.35	35.50	-49.3	-51.5	21.5	6.05e-01	0	57	0	102760448	60	5031
2026-01-02 03:56:57.65	295.90	35.40	-49.1	-51.2	22.0	6.05e-01	0	57	0	104857600	60	4841
2026-01-02 03:56:58.64	295.46	35.31	-48.7	-50.6	22.5	6.04e-01	0	57	0	106430464	61	4247
2026-01-02 03:56:59.63	295.02	35.21	-49.2	-51.3	21.7	6.02e-01	0	57	0	108527616	61	4637
2026-01-02 03:57:00.62	294.58	35.11	-49.3	-51.5	21.7	6.04e-01	0	57	0	110100480	61	4739
2026-01-02 03:57:01.60	294.15	35.01	-48.5	-50.2	22.8	6.04e-01	0	57	0	112197632	60	4335
2026-01-02 03:57:02.59	293.71	34.91	-48.6	-50.5	22.3	6.04e-01	0	57	0	113770496	60	4462
2026-01-02 03:57:03.58	293.28	34.81	-49.3	-51.6	21.5	6.03e-01	0	57	0	115867648	61	4769
2026-01-02 03:57:04.56	292.86	34.70	-48.9	-51.0	22.2	6.04e-01	0	57	0	117440512	60	4710
2026-01-02 03:57:05.55	292.43	34.60	-48.3	-50.1	23.0	6.02e-01	0	57	0	119537664	60	4252
2026-01-02 03:57:06.53	292.01	34.49	-49.0	-51.0	22.1	6.03e-01	0	57	0	121110528	60	4742
2026-01-02 03:57:07.53	291.59	34.38	-48.8	-50.8	22.3	6.03e-01	0	57	0	123207680	60	4601
2026-01-02 03:57:08.52	291.17	34.27	-48.7	-50.7	22.4	6.03e-01	0	57	0	125304832	60	4550
2026-01-02 03:57:09.52	290.76	34.16	-49.1	-51.2	21.9	6.04e-01	0	57	0	126877696	60	4866
2026-01-02 03:57:10.50	290.35	34.04	-49.1	-51.1	21.9	6.03e-01	0	56	0	128974848	60	4809
2026-01-02 03:57:11.50	289.94	33.93	-48.9	-50.9	22.2	6.03e-01	0	57	0	130547712	60	4684
2026-01-02 03:57:12.48	289.54	33.82	-48.4	-50.2	22.8	6.03e-01	0	57	0	132644864	60	4313
2026-01-02 03:57:13.47	289.14	33.70	-48.8	-50.8	22.2	6.04e-01	0	57	0	134217728	60	4615
2026-01-02 03:57:14.46	288.74	33.58	-48.8	-50.7	22.7	6.02e-01	0	57	0	136314880	59	4833
2026-01-02 03:57:15.46	288.34	33.46	-48.3	-50.1	22.6	6.04e-01	0	57	0	137887744	60	4249
2026-01-02 03:57:16.44	287.95	33.34	-49.1	-51.3	21.9	6.03e-01	0	57	0	139984896	60	4882
2026-01-02 03:57:17.44	287.56	33.22	-48.2	-49.8	23.6	6.04e-01	0	57	0	141557760	59	4347
2026-01-02 03:57:18.42	287.17	33.10	-48.9	-50.9	21.9	6.03e-01	0	57	0	143654912	60	4694
2026-01-02 03:57:19.41	286.79	32.98	-48.4	-50.2	22.8	6.05e-01	0	57	0	145227776	60	4329
2026-01-02 03:57:20.39	286.41	32.86	-48.6	-50.4	22.3	6.06e-01	0	57	0	147324928	60	4428
2026-01-02 03:57:21.38	286.03	32.73	-48.5	-50.5	22.5	6.03e-01	0	57	0	148897792	60	4473
2026-01-02 03:57:22.37	285.66	32.61	-48.2	-49.9	23.4	6.03e-01	0	57	0	150994944	59	4398
2026-01-02 03:57:23.37	285.28	32.48	-48.8	-50.9	22.2	6.04e-01	0	57	0	153092096	60	4655
2026-01-02 03:57:24.35	284.92	32.36	-48.4	-50.1	23.3	6.04e-01	0	57	0	154664960	59	4510
2026-01-02 03:57:25.35	284.55	32.23	-48.9	-50.9	21.9	6.03e-01	0	57	0	156762112	60	4705
2026-01-02 03:57:26.34	284.19	32.10	-48.3	-50.0	23.3	6.04e-01	0	57	0	158334976	59	4466
2026-01-02 03:57:27.33	283.83	31.97	-48.3	-50.1	22.6	6.01e-01	0	57	0	160432128	60	4252
2026-01-02 03:57:28.31	283.47	31.84	-48.6	-50.4	22.9	6.03e-01	0	57	0	162004992	59	4702
2026-01-02 03:57:29.30	283.12	31.71	-48.3	-50.1	22.7	6.04e-01	0	57	0	164102144	60	4243
2026-01-02 03:57:30.28	282.77	31.59	-48.8	-50.7	22.5	6.03e-01	0	57	0	165675008	59	4857
2026-01-02 03:57:31.26	282.42	31.46	-48.5	-50.3	22.4	6.02e-01	0	57	0	167772160	60	4354
2026-01-02 03:57:32.25	282.08	31.32	-48.7	-50.5	22.6	6.02e-01	0	57	0	169345024	59	4747
2026-01-02 03:57:33.24	281.74	31.19	-48.3	-50.1	22.2	6.02e-01	0	57	0	171442176	60	4284
2026-01-02 03:57:34.23	281.40	31.06	-48.4	-50.1	23.0	6.03e-01	0	57	0	173015040	59	4541
2026-01-02 03:57:35.22	281.06	30.93	-48.6	-50.6	21.9	6.04e-01	0	57	0	175112192	60	4516
2026-01-02 03:57:36.21	280.73	30.79	-48.1	-49.6	23.6	6.04e-01	0	57	0	177209344	59	4287
2026-01-02 03:57:37.21	280.39	30.66	-49.2	-51.5	21.6	6.03e-01	0	57	0	178782208	60	5011
2026-01-02 03:57:38.19	280.07	30.53	-48.2	-49.8	23.5	6.04e-01	0	57	0	180879360	59	4380
2026-01-02 03:57:39.19	279.74	30.39	-49.0	-51.2	21.9	6.04e-01	0	57	0	182452224	60	4817
2026-01-02 03:57:40.18	279.41	30.25	-48.1	-49.7	23.5	6.03e-01	0	57	0	184549376	59	4293
2026-01-02 03:57:41.18	279.09	30.12	-48.6	-50.5	22.1	6.01e-01	0	57	0	186122240	60	4462
2026-01-02 03:57:42.16	278.78	29.98	-48.7	-50.6	22.0	6.01e-01	0	57	0	188219392	60	4545
2026-01-02 03:57:43.16	278.46	29.85	-48.6	-50.3	23.0	6.02e-01	0	57	0	189792256	59	4648
2026-01-02 03:57:44.15	278.15	29.71	-49.4	-51.8	21.4	6.04e-01	0	57	0	191889408	61	4883
2026-01-02 03:57:45.14	277.84	29.57	-48.2	-49.9	22.8	6.04e-01	0	57	0	193462272	60	4188
2026-01-02 03:57:46.14	277.53	29.44	-48.5	-50.3	23.0	6.04e-01	0	56	0	195559424	59	4623
2026-01-02 03:57:47.13	277.23	29.30	-48.6	-50.5	22.4	6.03e-01	0	57	0	197656576	60	4479
2026-01-02 03:57:48.12	276.93	29.16	-48.4	-50.1	23.3	6.00e-01	0	57	0	199229440	59	4521
2026-01-02 03:57:49.11	276.63	29.03	-48.9	-50.9	22.1	6.03e-01	0	57	0	201326592	60	4662
2026-01-02 03:57:50.10	276.33	28.89	-48.6	-50.6	22.3	6.01e-01	0	57	0	202899456	60	4506
2026-01-02 03:57:51.10	276.04	28.75	-48.4	-50.1	23.2	6.04e-01	0	57	0	204996608	59	4540
2026-01-02 03:57:52.09	275.75	28.61	-48.7	-50.6	22.4	6.04e-01	0	57	0	206569472	60	4537
2026-01-02 03:57:53.07	275.46	28.48	-48.9	-51.0	22.0	6.03e-01	0	57	0	208666624	60	4735
2026-01-02 03:57:54.06	275.18	28.34	-48.6	-50.5	22.5	6.03e-01	0	57	0	210239488	60	4457
2026-01-02 03:57:55.05	274.89	28.20	-48.8	-50.7	22.4	6.02e-01	0	57	0	212336640	60	4563
2026-01-02 03:57:56.04	274.61	28.07	-48.7	-50.7	22.4	6.01e-01	0	57	0	213909504	60	4561
2026-01-02 03:57:57.04	274.33	27.93	-48.8	-50.7	22.2	6.01e-01	0	57	0	216006656	60	4597
2026-01-02 03:57:58.03	274.06	27.79	-49.3	-51.5	21.6	6.03e-01	0	57	0	218103808	60	4990
2026-01-02 03:57:59.02	273.78	27.65	-49.4	-51.7	21.5	6.03e-01	0	57	0	219676672	60	5104
2026-01-02 03:58:00.01	273.51	27.52	-49.5	-51.8	21.3	6.01e-01	0	57	0	221773824	61	4916
2026-01-02 03:58:01.00	273.25	27.38	-48.9	-51.0	22.1	6.03e-01	0	57	0	223346688	61	4445
2026-01-02 03:58:02.00	272.98	27.24	-48.5	-50.3	22.7	6.03e-01	0	57	0	225443840	60	4366
2026-01-02 03:58:02.98	272.72	27.10	-48.6	-50.5	22.6	6.04e-01	0	57	0	227016704	60	4467
2026-01-02 03:58:03.97	272.46	26.97	-48.8	-50.7	22.4	6.04e-01	0	57	0	229113856	60	4581
2026-01-02 03:58:04.96	272.20	26.83	-49.0	-51.0	22.1	6.03e-01	0	57	0	230686720	60	4728
2026-01-02 03:58:05.95	271.94	26.69	-48.9	-50.9	22.1	6.04e-01	0	57	0	232783872	60	4678
2026-01-02 03:58:06.95	271.69	26.56	-48.9	-51.0	22.1	6.05e-01	0	57	0	234356736	60	4741
2026-01-02 03:58:07.93	271.44	26.42	-48.6	-50.5	22.4	6.05e-01	0	57	0	236453888	60	4471
2026-01-02 03:58:08.93	271.19	26.28	-48.3	-50.0	23.0	6.02e-01	0	57	0	238551040	60	4227
2026-01-02 03:58:09.92	270.94	26.15	-48.5	-50.3	22.7	6.03e-01	0	57	0	240123904	60	4381
2026-01-02 03:58:10.91	270.69	26.01	-48.6	-50.6	22.5	6.02e-01	0	57	0	242221056	60	4496
2026-01-02 03:58:11.89	270.45	25.88	-48.5	-50.3	22.7	6.02e-01	0	57	0	243793920	60	4381
2026-01-02 03:58:12.88	270.21	25.74	-48.3	-50.1	22.9	6.03e-01	0	57	0	245891072	60	4285
2026-01-02 03:58:13.87	269.98	25.61	-48.3	-50.1	22.9	6.05e-01	0	57	0	247463936	60	4245
2026-01-02 03:58:14.86	269.74	25.47	-48.6	-50.4	22.6	6.02e-01	0	57	0	249561088	60	4434
2026-01-02 03:58:15.85	269.51	25.34	-48.5	-50.3	22.7	6.03e-01	0	57	0	251133952	60	4384
2026-01-02 03:58:16.84	269.27	25.20	-48.4	-50.2	22.8	6.02e-01	0	57	0	253231104	60	4325
2026-01-02 03:58:17.83	269.04	25.07	-48.4	-50.2	22.8	6.02e-01	0	57	0	254803968	60	4301
2026-01-02 03:58:18.81	268.82	24.93	-48.4	-50.3	22.7	6.04e-01	0	57	0	256901120	60	4353
2026-01-02 03:58:19.79	268.59	24.80	-48.5	-50.3	22.6	6.03e-01	0	57	0	258473984	60	4384
2026-01-02 03:58:20.79	268.37	24.67	-48.8	-50.7	22.3	6.04e-01	0	57	0	260571136	60	4593
2026-01-02 03:58:21.78	268.15	24.53	-48.6	-50.6	22.4	6.04e-01	0	57	0	262144000	60	4497
2026-01-02 03:58:22.76	267.93	24.40	-48.5	-50.4	22.6	6.04e-01	0	57	0	264241152	60	4407
2026-01-02 03:58:23.75	267.71	24.27	-48.5	-50.4	22.6	6.03e-01	0	56	0	265814016	60	4401
2026-01-02 03:58:24.74	267.49	24.14	-48.6	-50.5	22.4	6.02e-01	0	57	0	267911168	60	4484
2026-01-02 03:58:25.72	267.28	24.00	-48.5	-50.3	22.7	6.03e-01	0	57	0	270008320	60	4380
2026-01-02 03:58:26.71	267.07	23.87	-48.2	-50.0	22.9	6.02e-01	0	57	0	271581184	60	4214
2026-01-02 03:58:27.70	266.86	23.74	-48.6	-50.4	23.0	6.03e-01	0	57	0	273678336	59	4655
2026-01-02 03:58:28.68	266.65	23.61	-48.7	-50.5	22.8	6.04e-01	0	57	0	275251200	59	4753
2026-01-02 03:58:29.67	266.45	23.48	-48.7	-50.6	22.7	6.03e-01	0	56	0	277348352	59	4791
2026-01-02 03:58:30.65	266.24	23.35	-48.5	-50.5	22.5	6.04e-01	0	57	0	278921216	60	4449
2026-01-02 03:58:31.64	266.04	23.22	-48.7	-50.6	22.4	6.04e-01	0	57	0	281018368	60	4523
2026-01-02 03:58:32.63	265.84	23.09	-48.8	-50.8	22.2	6.03e-01	0	57	0	282591232	60	4612
2026-01-02 03:58:33.62	265.64	22.96	-48.6	-50.5	22.4	6.04e-01	0	57	0	284688384	60	4481
2026-01-02 03:58:34.62	265.44	22.83	-48.3	-50.1	22.8	6.04e-01	0	57	0	286261248	60	4266
2026-01-02 03:58:35.61	265.24	22.70	-48.5	-50.3	23.0	6.05e-01	0	57	0	288358400	59	4637
2026-01-02 03:58:36.60	265.05	22.57	-48.6	-50.4	23.0	6.03e-01	0	57	0	289931264	59	4668
2026-01-02 03:58:37.59	264.86	22.44	-48.7	-50.6	22.8	6.03e-01	0	57	0	292028416	59	4769
2026-01-02 03:58:38.58	264.67	22.32	-48.8	-50.6	22.7	6.02e-01	0	56	0	294125568	59	4808
2026-01-02 03:58:39.57	264.48	22.19	-48.8	-50.8	22.6	6.02e-01	0	57	0	295698432	59	4871
2026-01-02 03:58:40.56	264.29	22.06	-48.5	-50.5	22.5	6.04e-01	0	57	0	297795584	60	4442
2026-01-02 03:58:41.54	264.11	21.94	-48.7	-50.7	22.3	6.02e-01	0	56	0	299368448	60	4569
2026-01-02 03:58:42.53	263.92	21.81	-48.6	-50.6	22.4	6.03e-01	0	57	0	301465600	60	4506
2026-01-02 03:58:43.53	263.74	21.68	-48.4	-50.2	22.7	6.05e-01	0	57	0	303038464	60	4315
2026-01-02 03:58:44.52	263.56	21.56	-48.3	-50.1	22.9	6.03e-01	0	57	0	305135616	60	4245
2026-01-02 03:58:45.51	263.38	21.43	-48.2	-50.0	22.9	6.02e-01	0	56	0	306708480	60	4238
2026-01-02 03:58:46.50	263.20	21.31	-48.4	-50.3	22.6	6.03e-01	0	57	0	308805632	60	4373
2026-01-02 03:58:47.49	263.02	21.18	-48.4	-50.3	22.6	6.04e-01	0	57	0	310378496	60	4375
2026-01-02 03:58:48.48	262.85	21.06	-48.4	-50.3	22.7	6.05e-01	0	57	0	312475648	60	4347
2026-01-02 03:58:49.48	262.67	20.93	-48.4	-50.2	22.7	6.04e-01	0	57	0	314572800	60	4319
2026-01-02 03:58:50.47	262.50	20.81	-48.3	-50.1	22.8	6.02e-01	0	57	0	316145664	60	4244
2026-01-02 03:58:51.45	262.33	20.69	-48.5	-50.3	22.6	6.05e-01	0	57	0	318242816	60	4390
2026-01-02 03:58:52.44	262.16	20.57	-48.5	-50.4	22.5	6.04e-01	0	57	0	319815680	60	4400
2026-01-02 03:58:53.43	261.99	20.44	-48.5	-50.4	22.5	6.04e-01	0	57	0	321912832	60	4413
2026-01-02 03:58:54.42	261.83	20.32	-48.5	-50.4	22.5	6.04e-01	0	56	0	323485696	60	4421
2026-01-02 03:58:55.41	261.66	20.20	-48.5	-50.4	22.4	6.01e-01	0	57	0	325582848	60	4440
2026-01-02 03:58:56.40	261.50	20.08	-48.6	-50.6	22.4	6.04e-01	0	56	0	327155712	60	4521
2026-01-02 03:58:57.39	261.33	19.96	-48.7	-50.6	22.3	6.04e-01	0	57	0	329252864	60	4531
2026-01-02 03:58:58.38	261.17	19.84	-48.4	-50.3	22.6	6.03e-01	0	57	0	330825728	60	4356
2026-01-02 03:58:59.36	261.02	19.72	-48.4	-50.2	22.7	6.01e-01	0	57	0	332922880	60	4310
2026-01-02 03:59:00.36	260.86	19.60	-48.4	-50.2	22.7	6.03e-01	0	57	0	334495744	60	4317
2026-01-02 03:59:01.35	260.70	19.48	-48.5	-50.5	22.5	6.02e-01	0	57	0	336592896	60	4443
2026-01-02 03:59:02.33	260.55	19.36	-48.6	-50.6	22.3	6.03e-01	0	57	0	338690048	60	4499
2026-01-02 03:59:03.32	260.39	19.25	-48.3	-50.1	22.7	6.07e-01	0	57	0	340262912	60	4266
2026-01-02 03:59:04.31	260.24	19.13	-48.5	-50.3	22.9	6.06e-01	0	57	0	342360064	59	4631
2026-01-02 03:59:05.29	260.09	19.01	-48.5	-50.3	23.0	6.02e-01	0	57	0	343932928	59	4608
2026-01-02 03:59:06.28	259.94	18.89	-48.5	-50.3	22.8	6.03e-01	0	57	0	346030080	59	4632
2026-01-02 03:59:07.27	259.79	18.78	-48.6	-50.5	22.8	6.02e-01	0	57	0	347602944	59	4725
2026-01-02 03:59:08.25	259.64	18.66	-48.7	-50.6	22.6	6.02e-01	0	57	0	349700096	59	4792
2026-01-02 03:59:09.24	259.49	18.55	-48.6	-50.5	22.7	6.03e-01	0	57	0	351272960	59	4717
2026-01-02 03:59:10.23	259.35	18.43	-48.7	-50.6	22.7	6.04e-01	0	56	0	353370112	59	4783
2026-01-02 03:59:11.22	259.20	18.32	-48.7	-50.6	22.6	6.03e-01	0	57	0	354942976	59	4806
2026-01-02 03:59:12.20	259.06	18.20	-48.5	-50.4	22.9	6.04e-01	0	57	0	357040128	59	4661
2026-01-02 03:59:13.20	258.92	18.09	-48.5	-50.3	23.0	6.01e-01	0	57	0	358612992	59	4614
2026-01-02 03:59:14.18	258.78	17.98	-48.6	-50.4	22.8	6.05e-01	0	57	0	360710144	59	4696
2026-01-02 03:59:15.17	258.64	17.86	-48.7	-50.6	22.6	6.03e-01	0	57	0	362283008	59	4775
2026-01-02 03:59:16.16	258.50	17.75	-48.8	-50.7	22.5	6.02e-01	0	57	0	364380160	59	4864
2026-01-02 03:59:17.15	258.36	17.64	-48.7	-50.6	22.6	6.03e-01	0	56	0	365953024	59	4797
2026-01-02 03:59:18.14	258.23	17.53	-48.7	-50.6	22.7	6.02e-01	0	57	0	368050176	59	4764
2026-01-02 03:59:19.13	258.09	17.41	-48.6	-50.4	22.8	6.04e-01	0	57	0	370147328	59	4690
2026-01-02 03:59:20.12	257.96	17.30	-48.5	-50.4	22.8	6.03e-01	0	57	0	371720192	59	4670
2026-01-02 03:59:21.11	257.82	17.19	-48.5	-50.3	22.9	6.03e-01	0	57	0	373817344	59	4637
2026-01-02 03:59:22.10	257.69	17.08	-48.6	-50.5	22.7	6.03e-01	0	57	0	375390208	59	4726
2026-01-02 03:59:23.09	257.56	16.97	-48.5	-50.4	22.8	6.04e-01	0	57	0	377487360	59	4679
2026-01-02 03:59:24.08	257.43	16.86	-48.7	-50.6	22.6	6.02e-01	0	57	0	379060224	59	4792
2026-01-02 03:59:25.08	257.30	16.75	-48.5	-50.4	22.8	6.03e-01	0	56	0	381157376	59	4660
2026-01-02 03:59:26.07	257.17	16.64	-48.5	-50.3	22.9	6.03e-01	0	56	0	382730240	59	4636
2026-01-02 03:59:27.06	257.04	16.53	-48.5	-50.4	22.8	6.02e-01	0	57	0	384827392	59	4667
2026-01-02 03:59:28.06	256.92	16.42	-48.5	-50.3	22.9	6.03e-01	0	57	0	386924544	59	4644
2026-01-02 03:59:29.04	256.79	16.32	-48.6	-50.5	22.7	6.04e-01	0	57	0	388497408	59	4706
2026-01-02 03:59:30.03	256.67	16.21	-48.6	-50.5	22.7	6.02e-01	0	56	0	390070272	59	4737
2026-01-02 03:59:31.02	256.54	16.10	-48.7	-50.7	22.5	6.04e-01	0	57	0	392167424	59	4830
2026-01-02 03:59:32.00	256.42	16.00	-48.6	-50.6	22.3	6.03e-01	0	57	0	394264576	60	4498
2026-01-02 03:59:32.99	256.30	15.89	-48.8	-50.9	21.9	6.05e-01	0	57	0	395837440	60	4680
2026-01-02 03:59:33.97	256.18	15.79	-48.5	-50.5	22.3	6.02e-01	0	57	0	397934592	60	4463
2026-01-02 03:59:34.95	256.06	15.68	-48.4	-50.4	22.4	6.03e-01	0	57	0	399507456	60	4400
2026-01-02 03:59:35.94	255.95	15.58	-48.4	-50.3	22.5	6.04e-01	0	57	0	401604608	60	4387
2026-01-02 03:59:36.93	255.83	15.47	-48.6	-50.6	22.3	6.03e-01	0	57	0	403177472	60	4496
2026-01-02 03:59:37.92	255.71	15.37	-48.5	-50.5	22.4	6.04e-01	0	57	0	405274624	60	4442
2026-01-02 03:59:38.91	255.59	15.26	-48.7	-50.7	22.2	6.01e-01	0	57	0	406847488	60	4551
2026-01-02 03:59:39.90	255.48	15.16	-48.6	-50.6	22.3	6.03e-01	0	57	0	408944640	60	4504
2026-01-02 03:59:40.89	255.37	15.06	-48.8	-50.8	22.0	6.03e-01	0	57	0	410517504	60	4649
2026-01-02 03:59:41.88	255.25	14.96	-49.1	-51.3	21.6	6.06e-01	0	57	0	412614656	60	4889
2026-01-02 03:59:42.87	255.14	14.85	-48.9	-51.0	21.8	6.02e-01	0	57	0	414711808	60	4750
2026-01-02 03:59:43.85	255.03	14.75	-48.7	-50.8	22.1	6.01e-01	0	57	0	416284672	60	4609
2026-01-02 03:59:44.84	254.92	14.65	-48.6	-50.6	22.2	6.01e-01	0	57	0	417857536	60	4524
2026-01-02 03:59:45.83	254.81	14.55	-48.5	-50.5	22.3	6.04e-01	0	57	0	419954688	60	4454
2026-01-02 03:59:46.82	254.70	14.45	-48.5	-50.4	22.4	6.04e-01	0	57	0	422051840	60	4420
2026-01-02 03:59:47.81	254.59	14.35	-48.7	-50.8	22.1	6.02e-01	0	57	0	423624704	60	4609
2026-01-02 03:59:48.80	254.48	14.25	-48.6	-50.6	22.2	6.07e-01	0	57	0	425721856	60	4540
2026-01-02 03:59:49.79	254.38	14.15	-48.5	-50.4	21.9	6.03e-01	0	57	0	427294720	60	4437
2026-01-02 03:59:50.78	254.27	14.05	-48.5	-50.4	22.4	6.04e-01	0	57	0	429391872	60	4414
2026-01-02 03:59:51.77	254.16	13.95	-48.6	-50.6	22.2	5.99e-01	0	57	0	430964736	60	4500
2026-01-02 03:59:52.76	254.06	13.85	-48.6	-50.6	22.2	6.04e-01	0	57	0	433061888	60	4500
2026-01-02 03:59:53.75	253.96	13.75	-48.5	-50.5	22.2	6.03e-01	0	57	0	434634752	60	4469
2026-01-02 03:59:54.73	253.85	13.65	-48.7	-50.7	22.0	6.04e-01	0	57	0	436731904	60	4572
2026-01-02 03:59:55.73	253.75	13.55	-48.5	-50.5	22.2	6.03e-01	0	57	0	438304768	60	4485
2026-01-02 03:59:56.72	253.65	13.46	-48.4	-50.3	22.5	6.04e-01	0	57	0	440401920	60	4346
2026-01-02 03:59:57.71	253.55	13.36	-48.3	-50.2	22.5	6.03e-01	0	57	0	441974784	60	4306
2026-01-02 03:59:58.69	253.45	13.26	-48.3	-50.2	22.5	6.01e-01	0	57	0	444071936	60	4339
2026-01-02 03:59:59.69	253.35	13.17	-48.3	-50.2	22.5	6.05e-01	0	57	0	446169088	60	4320
2026-01-02 04:00:00.68	253.25	13.07	-48.3	-50.2	22.5	6.02e-01	0	57	0	447741952	60	4318
2026-01-02 04:00:01.66	253.15	12.98	-48.3	-50.2	22.4	6.02e-01	0	57	0	449839104	60	4327
2026-01-02 04:00:02.65	253.06	12.88	-48.4	-50.3	22.4	6.03e-01	0	57	0	451411968	60	4361
2026-01-02 04:00:03.63	252.96	12.79	-48.4	-50.4	22.3	6.04e-01	0	57	0	453509120	60	4412
2026-01-02 04:00:04.62	252.87	12.69	-48.4	-50.3	22.4	6.03e-01	0	57	0	455081984	60	4383
2026-01-02 04:00:05.61	252.77	12.60	-48.4	-50.3	22.4	6.03e-01	0	57	0	457179136	60	4362
2026-01-02 04:00:06.60	252.68	12.50	-48.7	-50.7	22.3	6.01e-01	0	57	0	458752000	59	4855
2026-01-02 04:00:07.59	252.58	12.41	-48.8	-50.8	22.2	6.03e-01	0	56	0	460849152	59	4918
2026-01-02 04:00:08.57	252.49	12.32	-48.8	-50.9	22.2	6.02e-01	0	57	0	462422016	59	4931
2026-01-02 04:00:09.57	252.40	12.22	-48.9	-50.9	22.2	6.05e-01	0	56	0	464519168	59	4951
2026-01-02 04:00:10.55	252.31	12.13	-48.5	-50.5	22.2	6.03e-01	0	56	0	466092032	60	4493
2026-01-02 04:00:11.54	252.21	12.04	-48.6	-50.6	22.0	6.04e-01	0	57	0	468189184	60	4539
2026-01-02 04:00:12.53	252.12	11.95	-48.6	-50.6	22.0	6.04e-01	0	56	0	470286336	60	4545
2026-01-02 04:00:13.53	252.03	11.85	-48.6	-50.7	22.0	6.04e-01	0	57	0	471859200	60	4561
2026-01-02 04:00:14.52	251.94	11.76	-48.6	-50.7	22.0	6.03e-01	0	56	0	473956352	60	4559
2026-01-02 04:00:15.50	251.86	11.67	-48.5	-50.5	22.1	6.03e-01	0	56	0	475529216	60	4490
2026-01-02 04:00:16.49	251.77	11.58	-48.5	-50.5	22.1	6.06e-01	0	56	0	477626368	60	4480
2026-01-02 04:00:17.48	251.68	11.49	-48.6	-50.6	22.1	6.03e-01	0	57	0	479199232	60	4504
2026-01-02 04:00:18.47	251.59	11.40	-48.6	-50.6	22.0	6.06e-01	0	57	0	481296384	60	4534
2026-01-02 04:00:19.46	251.51	11.31	-48.5	-50.5	22.1	6.05e-01	0	57	0	482869248	60	4483
2026-01-02 04:00:20.44	251.42	11.22	-48.5	-50.6	22.1	6.01e-01	0	57	0	484966400	60	4500
2026-01-02 04:00:21.44	251.34	11.13	-48.6	-50.7	22.0	6.03e-01	0	57	0	486539264	60	4548
2026-01-02 04:00:22.44	251.25	11.04	-48.6	-50.7	21.9	6.05e-01	0	57	0	488636416	60	4582
2026-01-02 04:00:23.42	251.17	10.95	-48.7	-50.8	21.9	6.04e-01	0	57	0	490733568	60	4610
2026-01-02 04:00:24.41	251.08	10.87	-48.8	-51.0	21.7	6.05e-01	0	56	0	492306432	60	4729
2026-01-02 04:00:25.41	251.00	10.78	-49.0	-51.3	21.4	6.02e-01	0	57	0	494403584	60	4872
2026-01-02 04:00:26.39	250.92	10.69	-49.1	-51.3	21.3	6.05e-01	0	57	0	495976448	60	4925
2026-01-02 04:00:27.38	250.84	10.60	-49.0	-51.3	21.4	6.03e-01	0	56	0	498073600	60	4885
2026-01-02 04:00:28.37	250.76	10.51	-49.1	-51.4	21.2	6.03e-01	0	57	0	499646464	60	4962
2026-01-02 04:00:29.35	250.68	10.43	-49.1	-51.4	21.2	6.04e-01	0	57	0	501743616	60	4981
2026-01-02 04:00:30.34	250.60	10.34	-49.1	-51.3	21.3	6.02e-01	0	57	0	503316480	60	4914
2026-01-02 04:00:31.32	250.52	10.26	-49.2	-51.5	21.1	6.02e-01	0	57	0	505413632	60	5034
2026-01-02 04:00:32.31	250.44	10.17	-49.4	-51.8	20.8	6.00e-01	0	57	0	506986496	61	4899
2026-01-02 04:00:33.30	250.36	10.08	-49.2	-51.5	21.1	6.01e-01	0	56	0	509083648	61	4736
2026-01-02 04:00:34.29	250.28	10.00	-49.2	-51.5	21.1	6.03e-01	0	57	0	510656512	61	4738
2026-01-02 04:00:35.28	250.20	9.91	-49.3	-51.7	20.9	6.04e-01	0	57	0	512753664	61	4864
2026-01-02 04:00:36.27	250.13	9.83	-49.4	-51.9	20.7	6.05e-01	0	57	0	514326528	61	4970
2026-01-02 04:00:37.25	250.05	9.74	-49.3	-51.8	20.8	6.03e-01	0	56	0	516423680	61	4889
2026-01-02 04:00:38.24	249.97	9.66	-49.4	-51.8	20.8	6.04e-01	0	57	0	517996544	61	4895
2026-01-02 04:00:39.24	249.90	9.57	-49.4	-51.9	20.6	6.03e-01	0	57	0	520093696	61	4956
2026-01-02 04:00:40.22	249.82	9.49	-49.2	-51.6	20.9	6.04e-01	0	56	0	522190848	61	4790
2026-01-02 04:00:41.21	249.75	9.41	-49.1	-51.4	21.1	6.00e-01	0	57	0	523763712	61	4705
2026-01-02 04:00:42.20	249.68	9.32	-49.1	-51.4	21.1	6.05e-01	0	57	0	525860864	61	4699
2026-01-02 04:00:43.18	249.60	9.24	-49.2	-51.6	21.0	6.03e-01	0	56	0	527433728	61	4783
2026-01-02 04:00:44.16	249.53	9.16	-49.3	-51.7	20.8	6.05e-01	0	57	0	529530880	61	4832
2026-01-02 04:00:45.16	249.46	9.08	-49.2	-51.6	21.0	6.03e-01	0	57	0	531103744	61	4772
2026-01-02 04:00:46.16	249.38	8.99	-49.3	-51.8	20.7	6.02e-01	0	57	0	533200896	61	4909
2026-01-02 04:00:47.14	249.31	8.91	-49.1	-51.5	21.0	6.02e-01	0	57	0	534773760	61	4715
2026-01-02 04:00:48.13	249.24	8.83	-49.0	-51.3	21.2	6.01e-01	0	57	0	536870912	61	4600
2026-01-02 04:00:49.12	249.17	8.75	-49.0	-51.3	21.2	6.03e-01	0	57	0	538443776	61	4625
2026-01-02 04:00:50.12	249.10	8.67	-49.0	-51.3	21.2	6.03e-01	0	57	0	540540928	61	4608
2026-01-02 04:00:51.11	249.03	8.59	-49.0	-51.3	21.1	6.02e-01	0	57	0	542638080	61	4634
2026-01-02 04:00:52.10	248.96	8.50	-48.9	-51.1	21.3	6.02e-01	0	57	0	544210944	61	4542
2026-01-02 04:00:53.08	248.89	8.42	-48.9	-51.2	21.3	6.03e-01	0	57	0	546308096	61	4560
2026-01-02 04:00:54.08	248.82	8.34	-48.9	-51.2	21.2	6.04e-01	0	56	0	547880960	61	4584
2026-01-02 04:00:55.06	248.75	8.26	-48.9	-51.2	21.2	6.03e-01	0	57	0	549978112	61	4587
2026-01-02 04:00:56.05	248.69	8.18	-48.9	-51.2	21.3	6.04e-01	0	57	0	551550976	61	4558
2026-01-02 04:00:57.04	248.62	8.11	-49.1	-51.4	21.0	6.02e-01	0	57	0	553648128	61	4698
2026-01-02 04:00:58.03	248.55	8.03	-49.0	-51.3	21.1	6.05e-01	0	57	0	555220992	61	4622
2026-01-02 04:00:59.03	248.48	7.95	-48.9	-51.1	21.3	6.06e-01	0	56	0	557318144	61	4537
2026-01-02 04:01:00.02	248.42	7.87	-48.9	-51.2	21.2	6.02e-01	0	57	0	558891008	61	4574
2026-01-02 04:01:01.01	248.35	7.79	-49.0	-51.3	21.1	6.02e-01	0	56	0	560988160	61	4611
2026-01-02 04:01:01.99	248.29	7.71	-49.1	-51.4	21.0	6.03e-01	0	56	0	562561024	61	4699
2026-01-02 04:01:02.99	248.22	7.63	-49.0	-51.4	21.0	6.01e-01	0	57	0	564658176	61	4667
2026-01-02 04:01:03.98	248.16	7.55	-49.1	-51.5	20.8	6.03e-01	0	56	0	566755328	61	4750
2026-01-02 04:01:04.97	248.09	7.48	-49.2	-51.6	20.8	6.02e-01	0	57	0	568328192	61	4781
2026-01-02 04:01:05.97	248.03	7.40	-49.2	-51.7	20.6	6.05e-01	0	56	0	570425344	61	4865
2026-01-02 04:01:06.95	247.97	7.32	-49.2	-51.7	20.7	6.01e-01	0	56	0	571998208	61	4832
2026-01-02 04:01:07.94	247.90	7.24	-49.2	-51.7	20.6	6.01e-01	0	57	0	574095360	61	4868
2026-01-02 04:01:08.93	247.84	7.17	-49.3	-51.8	20.6	6.03e-01	0	57	0	575668224	61	4888
2026-01-02 04:01:09.92	247.78	7.09	-49.4	-51.9	20.4	6.03e-01	0	57	0	577765376	61	4979
2026-01-02 04:01:10.91	247.72	7.01	-49.4	-52.0	20.4	6.02e-01	0	56	0	579338240	61	5012
2026-01-02 04:01:11.90	247.65	6.94	-49.5	-52.1	20.3	6.04e-01	0	57	0	581435392	61	5082
2026-01-02 04:01:12.89	247.59	6.86	-49.6	-52.4	20.0	6.01e-01	0	57	0	583008256	61	5250
2026-01-02 04:01:13.89	247.53	6.79	-49.5	-52.3	20.1	6.01e-01	0	57	0	585105408	61	5168
2026-01-02 04:01:14.88	247.47	6.71	-49.4	-52.1	20.2	6.02e-01	0	57	0	587202560	61	5074
2026-01-02 04:01:15.86	247.41	6.64	-49.5	-52.2	20.2	6.02e-01	0	57	0	588775424	61	5129
2026-01-02 04:01:16.85	247.35	6.56	-49.5	-52.2	20.1	6.03e-01	0	56	0	590872576	61	5133
2026-01-02 04:01:17.84	247.29	6.49	-49.6	-52.3	20.0	6.04e-01	0	57	0	592445440	61	5218
2026-01-02 04:01:18.82	247.23	6.41	-49.8	-52.7	19.6	6.04e-01	0	56	0	594542592	61	5452
2026-01-02 04:01:19.81	247.18	6.34	-49.8	-52.6	19.7	6.04e-01	0	57	0	596115456	62	5089
2026-01-02 04:01:20.80	247.12	6.26	-49.6	-52.4	19.8	6.04e-01	0	57	0	598212608	62	4979
2026-01-02 04:01:21.79	247.06	6.19	-49.5	-52.2	20.1	6.05e-01	0	57	0	599785472	62	4821
2026-01-02 04:01:22.78	247.00	6.12	-49.3	-52.0	20.2	6.02e-01	0	56	0	601882624	62	4707
2026-01-02 04:01:23.75	246.95	6.04	-49.4	-52.2	20.1	6.02e-01	0	57	0	603455488	62	4820
2026-01-02 04:01:24.74	246.89	5.97	-49.4	-52.1	20.1	6.04e-01	0	56	0	605552640	62	4792
2026-01-02 04:01:25.71	246.83	5.90	-49.5	-52.2	20.0	6.02e-01	0	57	0	607125504	62	4838
2026-01-02 04:01:26.70	246.78	5.83	-49.4	-52.1	20.0	6.03e-01	0	56	0	609222656	62	4805
2026-01-02 04:01:27.70	246.72	5.75	-49.5	-52.2	19.9	6.04e-01	0	56	0	610795520	62	4868
2026-01-02 04:01:28.68	246.67	5.68	-49.7	-52.6	19.6	6.01e-01	0	56	0	612892672	62	5053
2026-01-02 04:01:29.67	246.61	5.61	-49.6	-52.5	19.6	6.03e-01	0	57	0	614465536	62	5025
2026-01-02 04:01:30.65	246.56	5.54	-49.5	-52.3	19.8	6.02e-01	0	56	0	616562688	62	4879
2026-01-02 04:01:31.63	246.50	5.47	-49.5	-52.3	19.8	6.04e-01	0	57	0	618135552	62	4899
2026-01-02 04:01:32.62	246.45	5.39	-49.6	-52.4	19.7	6.02e-01	0	57	0	620232704	62	4966
2026-01-02 04:01:33.62	246.39	5.32	-49.6	-52.5	19.6	6.04e-01	0	57	0	622329856	62	5007
2026-01-02 04:01:34.60	246.34	5.25	-49.6	-52.5	19.6	6.03e-01	0	56	0	623902720	62	5002
2026-01-02 04:01:35.59	246.28	5.18	-49.7	-52.6	19.5	6.04e-01	0	57	0	625999872	62	5085
2026-01-02 04:01:36.58	246.23	5.11	-49.9	-53.0	19.1	6.03e-01	0	57	0	627572736	62	5313
2026-01-02 04:01:37.57	246.18	5.04	-50.1	-53.4	18.7	6.03e-01	0	57	0	629669888	62	5550
2026-01-02 04:01:38.56	246.13	4.97	-53.4	-73.0	3.7	7.45e-01	0	57	104	630718464	69	35431
2026-01-02 04:01:39.55	246.07	4.90	-53.6	-73.3	3.8	7.47e-01	0	57	104	630718464	69	36687
2026-01-02 04:01:40.53	246.02	4.83	-53.7	-73.6	3.8	7.45e-01	0	57	104	630718464	69	37839
2026-01-02 04:01:41.52	245.97	4.76	-54.0	-73.8	3.8	7.44e-01	0	57	104	630718464	70	36910
2026-01-02 04:01:42.51	245.92	4.69	-52.6	-72.3	3.8	7.50e-01	0	57	104	630718464	67	36912
2026-01-02 04:01:43.51	245.87	4.62	-54.1	-74.0	3.8	7.44e-01	0	57	104	630718464	70	37735
2026-01-02 04:01:44.50	245.82	4.55	-54.2	-74.1	3.8	7.47e-01	0	57	104	630718464	70	37991
2026-01-02 04:01:45.49	245.77	4.48	-54.2	-74.1	3.8	7.47e-01	0	57	104	630718464	70	38214
2026-01-02 04:01:46.48	245.71	4.41	-54.3	-74.2	3.8	7.46e-01	0	57	104	630718464	70	38265
2026-01-02 04:01:47.46	245.67	4.34	-54.3	-74.2	3.8	7.43e-01	0	57	104	630718464	70	38283
2026-01-02 04:01:48.45	245.62	4.27	-54.3	-74.2	3.8	7.45e-01	0	57	104	630718464	70	38504
2026-01-02 04:01:49.44	245.57	4.20	-54.3	-74.2	3.8	7.46e-01	0	57	104	630718464	70	38563
2026-01-02 04:01:50.43	245.52	4.13	-54.4	-74.3	3.8	7.45e-01	0	57	104	630718464	70	38760
2026-01-02 04:01:51.42	245.47	4.07	-54.4	-74.3	3.8	7.51e-01	0	57	104	630718464	70	38879
2026-01-02 04:01:52.40	245.42	4.00	-54.4	-74.3	3.8	7.43e-01	0	57	104	630718464	71	36760
2026-01-02 04:01:53.39	245.37	3.93	-54.4	-74.3	3.8	7.44e-01	0	57	104	630718464	71	36928
2026-01-02 04:01:54.38	245.32	3.86	-54.5	-74.4	3.8	7.47e-01	0	57	104	630718464	71	36987
2026-01-02 04:01:55.36	245.27	3.80	-54.4	-74.4	3.8	7.46e-01	0	57	104	630718464	71	37027
2026-01-02 04:01:56.35	245.23	3.73	-54.5	-74.4	3.8	7.45e-01	0	57	104	630718464	71	37103
2026-01-02 04:01:57.34	245.18	3.66	-54.5	-74.4	3.8	7.44e-01	0	57	104	630718464	71	37165
2026-01-02 04:01:58.33	245.13	3.59	-54.5	-74.4	3.8	7.43e-01	0	57	104	630718464	71	37152
2026-01-02 04:01:59.32	245.09	3.53	-54.5	-74.4	3.8	7.49e-01	0	57	104	630718464	71	37240
2026-01-02 04:02:00.30	245.04	3.46	-54.5	-74.4	3.8	7.44e-01	0	57	104	630718464	71	37226
2026-01-02 04:02:01.29	244.99	3.39	-54.5	-74.4	3.8	7.45e-01	0	57	104	630718464	71	37258
2026-01-02 04:02:02.28	244.95	3.33	-54.5	-74.4	3.8	7.45e-01	0	57	104	630718464	71	37320
2026-01-02 04:02:03.27	244.90	3.26	-54.5	-74.4	3.8	7.45e-01	0	57	104	630718464	71	37319
2026-01-02 04:02:04.25	244.86	3.20	-54.5	-74.4	3.8	7.44e-01	0	57	104	630718464	71	37307
2026-01-02 04:02:05.24	244.81	3.13	-54.5	-74.4	3.8	7.48e-01	0	57	104	630718464	71	37272
2026-01-02 04:02:06.23	244.76	3.06	-54.5	-74.4	3.8	7.48e-01	0	57	104	630718464	71	37313
2026-01-02 04:02:07.22	244.72	3.00	-54.5	-74.4	3.8	7.45e-01	0	57	104	630718464	71	37260

#Closed at: 2026-01-02 04:02:08
#Recorded file [630 MB]: D:/Data/31026_260102_070138.dat