passes_logs/2026/01/02/R3.0SM8_Murmansk_STILSPACE/R3.0SM8_Murmansk_STILSPACE__20260102_051434_SUOMI_NPP_rec.log

#Pass ID: 20260102_051434_SUOMI NPP
#Satellite: SUOMI NPP
#Configuration: NPP
#almurnet v.1.7.20240730
#Start time: 2026-01-02 05:14:33

#Version: 2.2.20231116
#Station: R3.0SM8_Murmansk_STILSPACE
#Location: 33.092731 lon 68.902999 lat
#TLE: 1 37849U 11061A   26001.07732418  .00000182  00000+0  10735-3 0  9990
#TLE: 2 37849  98.7795 303.2470 0002580  87.2016 272.9455 14.19520779734739

#Time	Az	El	Level	Level2	SNR	BER	BlckErr	Temp	State	Recorded	gain1	gain2
2026-01-02 05:14:33.99	61.16	2.99	-52.3	-66.3	3.8	1.49e+00	0	46	0	0	67	17950
2026-01-02 05:14:34.97	61.09	3.05	-52.2	-66.2	3.8	1.49e+00	0	46	104	0	67	17761
2026-01-02 05:14:35.96	61.02	3.11	-52.3	-66.1	3.8	1.49e+00	0	46	104	0	67	17630
2026-01-02 05:14:36.95	60.95	3.16	-52.2	-66.1	3.8	1.49e+00	0	46	104	0	67	17488
2026-01-02 05:14:37.94	60.88	3.22	-52.2	-66.0	3.8	1.49e+00	0	46	104	0	67	17366
2026-01-02 05:14:38.92	60.82	3.28	-52.1	-65.9	3.8	1.49e+00	0	46	104	0	67	17206
2026-01-02 05:14:39.90	60.75	3.33	-52.0	-65.8	3.8	1.49e+00	0	46	104	0	66	17952
2026-01-02 05:14:40.89	60.68	3.39	-51.7	-65.5	3.8	1.49e+00	0	46	104	0	66	17390
2026-01-02 05:14:41.88	60.61	3.45	-51.5	-65.3	3.8	1.49e+00	0	46	104	0	66	17020
2026-01-02 05:14:42.87	60.54	3.51	-51.5	-65.3	3.8	1.49e+00	0	46	104	0	65	17983
2026-01-02 05:14:43.85	60.47	3.57	-51.5	-65.3	3.8	1.49e+00	0	46	104	0	65	17969
2026-01-02 05:14:44.83	60.40	3.62	-51.4	-65.3	3.8	1.49e+00	0	46	104	0	65	17889
2026-01-02 05:14:45.81	60.33	3.68	-51.5	-65.2	3.8	1.49e+00	0	46	104	0	65	17870
2026-01-02 05:14:46.80	60.26	3.74	-51.5	-65.3	3.8	1.49e+00	0	47	104	0	65	17899
2026-01-02 05:14:47.79	60.19	3.80	-51.5	-65.3	3.8	1.49e+00	0	47	104	0	65	17993
2026-01-02 05:14:48.76	60.12	3.86	-51.5	-65.3	3.8	1.49e+00	0	47	104	0	65	17996
2026-01-02 05:14:49.76	60.04	3.92	-51.4	-65.3	3.8	1.49e+00	0	47	104	0	65	18006
2026-01-02 05:14:50.75	59.97	3.97	-51.5	-65.3	3.8	1.49e+00	0	47	104	0	65	18069
2026-01-02 05:14:51.74	59.90	4.03	-51.5	-65.3	3.8	1.49e+00	0	47	104	0	65	18000
2026-01-02 05:14:52.73	59.82	4.09	-51.5	-65.3	3.8	1.49e+00	0	47	104	0	65	17965
2026-01-02 05:14:53.72	59.75	4.15	-51.4	-65.2	3.8	1.49e+00	0	47	104	0	65	17821
2026-01-02 05:14:54.70	59.68	4.21	-51.5	-65.1	3.8	1.49e+00	0	47	104	0	65	17651
2026-01-02 05:14:55.70	59.60	4.27	-51.5	-65.0	3.8	1.49e+00	0	47	104	0	65	17316
2026-01-02 05:14:56.69	59.53	4.33	-51.5	-64.6	3.8	1.49e+00	0	47	104	0	65	16611
2026-01-02 05:14:57.67	59.45	4.39	-51.4	-64.0	3.8	1.49e+00	0	47	104	0	65	15547
2026-01-02 05:14:58.66	59.38	4.45	-51.4	-63.4	3.8	1.49e+00	0	47	104	0	65	14454
2026-01-02 05:14:59.65	59.30	4.51	-51.3	-62.7	3.9	1.49e+00	0	48	104	0	65	13297
2026-01-02 05:15:00.64	59.23	4.57	-51.3	-61.7	4.2	1.40e+00	0	47	0	0	65	11874
2026-01-02 05:15:01.64	59.15	4.63	-51.2	-61.0	4.4	1.27e+00	0	47	0	1048576	65	10998
2026-01-02 05:15:02.63	59.08	4.69	-51.0	-60.1	4.8	9.45e-01	0	48	0	2097152	65	9900
2026-01-02 05:15:03.62	59.00	4.75	-50.9	-59.3	5.3	6.99e-01	0	48	0	4194304	64	9515
2026-01-02 05:15:04.60	58.92	4.80	-50.9	-58.8	5.6	4.87e-01	0	48	0	6291456	64	9007
2026-01-02 05:15:05.59	58.85	4.86	-50.8	-58.4	5.9	3.55e-01	0	48	0	8388608	64	8577
2026-01-02 05:15:06.58	58.77	4.92	-50.7	-57.9	6.2	3.23e-01	0	48	0	9437184	64	8133
2026-01-02 05:15:07.57	58.69	4.98	-50.4	-57.3	6.7	2.46e-01	0	48	0	11534336	64	7612
2026-01-02 05:15:08.56	58.61	5.05	-50.6	-57.3	6.9	1.71e-01	0	48	0	13631488	63	8047
2026-01-02 05:15:09.55	58.53	5.11	-50.7	-57.6	6.6	1.86e-01	0	48	0	15728640	63	8279
2026-01-02 05:15:10.53	58.46	5.17	-50.6	-57.3	6.9	1.94e-01	0	48	0	16777216	63	7992
2026-01-02 05:15:11.53	58.38	5.23	-50.6	-57.1	7.0	1.57e-01	0	48	0	18874368	63	7840
2026-01-02 05:15:12.52	58.30	5.29	-50.7	-57.4	6.8	1.66e-01	0	48	0	20971520	63	8086
2026-01-02 05:15:13.50	58.22	5.35	-50.6	-57.1	7.1	1.44e-01	0	48	0	23068672	63	7891
2026-01-02 05:15:14.49	58.14	5.41	-50.5	-56.7	7.5	1.44e-01	0	48	0	25165824	63	7476
2026-01-02 05:15:15.48	58.06	5.47	-50.3	-55.8	8.3	8.99e-02	0	48	0	26214400	63	6791
2026-01-02 05:15:16.47	57.98	5.53	-50.1	-55.3	8.9	3.20e-02	0	48	0	28311552	63	6357
2026-01-02 05:15:17.46	57.89	5.59	-49.9	-54.5	9.6	1.36e-02	0	49	0	30408704	62	6186
2026-01-02 05:15:18.45	57.81	5.65	-49.6	-53.9	10.3	9.35e-03	0	49	0	32505856	62	5758
2026-01-02 05:15:19.44	57.73	5.71	-49.4	-53.7	10.5	4.41e-03	0	49	0	33554432	62	5603
2026-01-02 05:15:20.43	57.65	5.77	-49.2	-53.2	11.1	2.63e-03	0	49	0	35651584	61	5615
2026-01-02 05:15:21.41	57.57	5.84	-49.0	-52.6	11.7	9.64e-04	0	49	0	37748736	61	5250
2026-01-02 05:15:22.41	57.48	5.90	-48.8	-52.3	11.9	5.47e-04	0	49	0	39845888	60	5389
2026-01-02 05:15:23.40	57.40	5.96	-48.7	-52.2	12.0	3.37e-04	0	49	0	41943040	60	5299
2026-01-02 05:15:24.39	57.32	6.02	-48.7	-52.0	12.2	2.30e-04	0	49	0	42991616	60	5216
2026-01-02 05:15:25.39	57.23	6.08	-48.8	-52.3	12.0	2.33e-04	0	49	0	45088768	60	5366
2026-01-02 05:15:26.38	57.15	6.14	-48.9	-52.4	11.8	4.46e-04	0	49	0	47185920	60	5457
2026-01-02 05:15:27.37	57.06	6.21	-48.8	-52.4	11.9	5.34e-04	0	49	0	49283072	60	5416
2026-01-02 05:15:28.36	56.98	6.27	-48.8	-52.2	12.0	3.55e-04	0	49	0	50331648	60	5332
2026-01-02 05:15:29.34	56.89	6.33	-48.9	-52.4	11.9	2.82e-04	0	49	0	52428800	60	5411
2026-01-02 05:15:30.33	56.80	6.39	-48.8	-52.2	12.1	3.65e-04	0	49	0	54525952	60	5283
2026-01-02 05:15:31.32	56.72	6.45	-49.1	-52.8	11.5	5.48e-04	0	49	0	56623104	60	5671
2026-01-02 05:15:32.30	56.63	6.52	-49.0	-52.7	11.6	5.35e-04	0	50	0	57671680	60	5610
2026-01-02 05:15:33.29	56.54	6.58	-49.1	-52.8	11.5	8.61e-04	0	49	0	59768832	60	5721
2026-01-02 05:15:34.28	56.46	6.64	-49.0	-52.8	11.5	8.46e-04	0	50	0	61865984	60	5658
2026-01-02 05:15:35.27	56.37	6.70	-48.9	-52.6	11.7	6.97e-04	0	50	0	63963136	60	5576
2026-01-02 05:15:36.25	56.28	6.77	-49.1	-52.9	11.4	8.41e-04	0	50	0	66060288	60	5730
2026-01-02 05:15:37.25	56.19	6.83	-49.1	-52.9	11.4	1.03e-03	0	50	0	67108864	60	5786
2026-01-02 05:15:38.23	56.10	6.89	-49.1	-53.0	11.4	1.21e-03	0	50	0	69206016	60	5790
2026-01-02 05:15:39.22	56.01	6.95	-49.1	-52.9	11.4	9.40e-04	0	50	0	71303168	60	5734
2026-01-02 05:15:40.21	55.92	7.02	-49.1	-52.8	11.5	7.21e-04	0	50	0	73400320	60	5697
2026-01-02 05:15:41.20	55.83	7.08	-49.1	-52.9	11.4	8.21e-04	0	50	0	74448896	60	5770
2026-01-02 05:15:42.19	55.74	7.14	-49.0	-52.7	11.7	6.85e-04	0	50	0	76546048	60	5607
2026-01-02 05:15:43.18	55.65	7.21	-48.9	-52.5	11.8	4.59e-04	0	50	0	78643200	60	5498
2026-01-02 05:15:44.18	55.56	7.27	-48.9	-52.5	11.9	4.38e-04	0	50	0	80740352	60	5483
2026-01-02 05:15:45.16	55.47	7.33	-48.8	-52.2	12.2	3.96e-04	0	50	0	81788928	60	5309
2026-01-02 05:15:46.14	55.38	7.40	-48.9	-52.3	12.0	2.20e-04	0	50	0	83886080	60	5389
2026-01-02 05:15:47.13	55.28	7.46	-49.0	-52.7	11.7	3.68e-04	0	50	0	85983232	60	5598
2026-01-02 05:15:48.12	55.19	7.52	-48.8	-52.2	12.1	3.27e-04	0	50	0	88080384	60	5337
2026-01-02 05:15:49.11	55.10	7.59	-48.8	-52.1	12.3	2.29e-04	0	50	0	89128960	60	5251
2026-01-02 05:15:50.10	55.00	7.65	-48.8	-52.1	12.3	1.93e-04	0	50	0	91226112	60	5271
2026-01-02 05:15:51.08	54.91	7.71	-48.6	-51.9	12.5	1.46e-04	0	50	0	93323264	60	5117
2026-01-02 05:15:52.08	54.81	7.78	-48.6	-51.8	12.6	1.02e-04	0	50	0	95420416	60	5094
2026-01-02 05:15:53.07	54.72	7.84	-48.6	-51.8	12.7	7.78e-05	0	50	0	97517568	60	5056
2026-01-02 05:15:54.06	54.62	7.91	-48.7	-52.0	12.5	1.13e-04	0	50	0	98566144	60	5187
2026-01-02 05:15:55.04	54.53	7.97	-48.7	-51.9	12.6	1.40e-04	0	51	0	100663296	60	5142
2026-01-02 05:15:56.03	54.43	8.04	-48.5	-51.5	13.0	7.47e-05	0	51	0	102760448	60	4914
2026-01-02 05:15:57.02	54.33	8.10	-48.6	-51.7	12.8	5.49e-05	0	51	0	104857600	60	4984
2026-01-02 05:15:58.01	54.23	8.16	-48.6	-51.6	12.9	3.66e-05	0	51	0	105906176	60	4967
2026-01-02 05:15:59.01	54.14	8.23	-48.5	-51.7	12.9	2.74e-05	0	51	0	108003328	60	4984
2026-01-02 05:15:59.99	54.04	8.29	-48.7	-51.9	12.6	7.24e-05	0	51	0	110100480	60	5120
2026-01-02 05:16:00.99	53.94	8.36	-48.6	-51.6	12.9	6.71e-05	0	51	0	112197632	60	4955
2026-01-02 05:16:01.98	53.84	8.42	-48.4	-51.4	13.2	3.58e-05	0	51	0	113246208	60	4822
2026-01-02 05:16:02.96	53.74	8.49	-48.4	-51.2	13.3	2.44e-05	0	51	0	115343360	59	5035
2026-01-02 05:16:03.95	53.64	8.55	-48.4	-51.2	13.4	1.83e-05	0	51	0	117440512	59	4992
2026-01-02 05:16:04.94	53.54	8.62	-48.5	-51.3	13.3	9.10e-06	0	51	0	119537664	59	5070
2026-01-02 05:16:05.92	53.44	8.68	-48.5	-51.4	13.2	1.98e-05	0	51	0	121634816	59	5155
2026-01-02 05:16:06.90	53.34	8.75	-48.4	-51.2	13.4	1.52e-05	0	51	0	122683392	59	5031
2026-01-02 05:16:07.89	53.24	8.81	-48.5	-51.3	13.3	1.06e-05	0	51	0	124780544	59	5057
2026-01-02 05:16:08.88	53.13	8.88	-48.5	-51.3	13.3	2.36e-05	0	51	0	126877696	59	5091
2026-01-02 05:16:09.87	53.03	8.94	-48.6	-51.6	13.1	1.90e-05	0	51	0	128974848	59	5225
2026-01-02 05:16:10.86	52.93	9.01	-48.5	-51.4	13.2	3.35e-05	0	51	0	130023424	59	5116
2026-01-02 05:16:11.84	52.82	9.08	-48.5	-51.4	13.2	2.05e-05	0	51	0	132120576	59	5130
2026-01-02 05:16:12.84	52.72	9.14	-48.6	-51.6	13.1	2.74e-05	0	51	0	134217728	59	5226
2026-01-02 05:16:13.82	52.61	9.21	-48.5	-51.5	13.1	3.05e-05	0	51	0	136314880	59	5202
2026-01-02 05:16:14.81	52.51	9.27	-48.5	-51.4	13.2	1.67e-05	0	51	0	137363456	59	5152
2026-01-02 05:16:15.80	52.40	9.34	-48.7	-51.7	12.9	4.04e-05	0	51	0	139460608	59	5315
2026-01-02 05:16:16.79	52.29	9.40	-48.6	-51.5	13.1	2.89e-05	0	51	0	141557760	59	5172
2026-01-02 05:16:17.77	52.19	9.47	-48.6	-51.5	13.1	1.75e-05	0	51	0	143654912	59	5212
2026-01-02 05:16:18.77	52.08	9.54	-48.9	-52.0	12.7	6.33e-05	0	51	0	145752064	59	5493
2026-01-02 05:16:19.76	51.97	9.60	-48.8	-51.9	12.8	8.69e-05	0	51	0	146800640	59	5424
2026-01-02 05:16:20.75	51.86	9.67	-48.9	-51.9	12.8	5.34e-05	0	51	0	148897792	59	5453
2026-01-02 05:16:21.73	51.76	9.74	-48.9	-51.9	12.8	9.61e-05	0	52	0	150994944	59	5446
2026-01-02 05:16:22.72	51.65	9.80	-48.9	-51.9	12.7	9.38e-05	0	52	0	153092096	59	5463
2026-01-02 05:16:23.70	51.54	9.87	-49.1	-52.4	12.3	1.22e-04	0	51	0	154140672	59	5742
2026-01-02 05:16:24.70	51.42	9.94	-49.0	-52.1	12.5	1.30e-04	0	52	0	156237824	59	5571
2026-01-02 05:16:25.68	51.31	10.00	-48.9	-52.0	12.6	8.08e-05	0	52	0	158334976	59	5515
2026-01-02 05:16:26.67	51.20	10.07	-48.9	-52.2	12.5	1.18e-04	0	52	0	160432128	60	5310
2026-01-02 05:16:27.66	51.09	10.14	-48.9	-52.0	12.6	1.25e-04	0	52	0	161480704	60	5197
2026-01-02 05:16:28.64	50.98	10.20	-48.8	-51.8	12.9	5.49e-05	0	52	0	163577856	60	5066
2026-01-02 05:16:29.62	50.87	10.27	-48.7	-51.8	12.8	7.55e-05	0	52	0	165675008	60	5092
2026-01-02 05:16:30.59	50.76	10.33	-49.0	-52.3	12.4	9.76e-05	0	52	0	167772160	60	5347
2026-01-02 05:16:31.58	50.64	10.40	-49.2	-52.6	12.2	1.78e-04	0	52	0	168820736	60	5586
2026-01-02 05:16:32.57	50.53	10.47	-49.1	-52.4	12.3	2.33e-04	0	52	0	170917888	60	5443
2026-01-02 05:16:33.56	50.41	10.54	-49.0	-52.3	12.4	1.34e-04	0	52	0	173015040	60	5370
2026-01-02 05:16:34.55	50.30	10.60	-48.9	-52.1	12.6	1.42e-04	0	52	0	175112192	60	5221
2026-01-02 05:16:35.54	50.18	10.67	-48.9	-52.0	12.7	9.38e-05	0	52	0	176160768	60	5216
2026-01-02 05:16:36.52	50.06	10.74	-48.9	-52.1	12.7	9.07e-05	0	52	0	178257920	60	5221
2026-01-02 05:16:37.51	49.95	10.81	-48.9	-52.0	12.7	1.08e-04	0	52	0	180355072	60	5206
2026-01-02 05:16:38.49	49.83	10.87	-48.8	-51.9	12.8	6.25e-05	0	52	0	182452224	60	5120
2026-01-02 05:16:39.47	49.71	10.94	-49.1	-52.4	12.4	7.78e-05	0	52	0	184549376	60	5416
2026-01-02 05:16:40.46	49.59	11.01	-49.2	-52.6	12.2	3.24e-04	0	52	0	185597952	60	5556
2026-01-02 05:16:41.44	49.47	11.07	-48.9	-52.2	12.6	1.46e-04	0	52	0	187695104	60	5292
2026-01-02 05:16:42.43	49.35	11.14	-48.8	-51.9	12.8	5.41e-05	0	52	0	189792256	60	5121
2026-01-02 05:16:43.42	49.23	11.21	-48.5	-51.3	13.4	2.97e-05	0	52	0	191889408	60	4803
2026-01-02 05:16:44.40	49.11	11.28	-48.3	-50.9	13.8	4.50e-06	0	52	0	192937984	59	4849
2026-01-02 05:16:45.39	48.99	11.35	-48.1	-50.7	14.1	4.50e-06	0	52	0	195035136	59	4710
2026-01-02 05:16:46.37	48.87	11.41	-48.1	-50.6	14.1	1.50e-06	0	52	0	197132288	59	4699
2026-01-02 05:16:47.37	48.74	11.48	-48.1	-50.6	14.1	0.00e+00	0	52	0	199229440	59	4698
2026-01-02 05:16:48.35	48.62	11.55	-48.1	-50.6	14.1	2.20e-06	0	52	0	200278016	59	4692
2026-01-02 05:16:49.35	48.49	11.62	-48.2	-50.7	14.0	1.50e-06	0	52	0	202375168	59	4738
2026-01-02 05:16:50.34	48.37	11.69	-48.2	-50.8	14.0	7.00e-07	0	53	0	204472320	59	4789
2026-01-02 05:16:51.33	48.24	11.76	-48.1	-50.6	14.3	2.20e-06	0	52	0	206569472	59	4656
2026-01-02 05:16:52.31	48.12	11.82	-48.1	-50.5	14.3	0.00e+00	0	53	0	208666624	59	4621
2026-01-02 05:16:53.30	47.99	11.89	-48.1	-50.5	14.3	0.00e+00	0	52	0	209715200	59	4651
2026-01-02 05:16:54.29	47.86	11.96	-48.2	-50.8	14.1	4.50e-06	0	53	0	211812352	59	4773
2026-01-02 05:16:55.29	47.73	12.03	-48.1	-50.7	14.1	1.50e-06	0	53	0	213909504	59	4737
2026-01-02 05:16:56.27	47.61	12.10	-48.2	-50.6	14.2	2.20e-06	0	52	0	216006656	59	4677
2026-01-02 05:16:57.26	47.48	12.17	-48.0	-50.4	14.4	2.20e-06	0	53	0	217055232	59	4587
2026-01-02 05:16:58.25	47.35	12.24	-48.3	-50.9	14.0	3.80e-06	0	53	0	219152384	59	4816
2026-01-02 05:16:59.24	47.22	12.31	-48.0	-50.5	14.4	0.00e+00	0	53	0	221249536	59	4623
2026-01-02 05:17:00.23	47.09	12.37	-48.1	-50.6	14.2	1.50e-06	0	53	0	223346688	59	4662
2026-01-02 05:17:01.22	46.95	12.44	-48.2	-50.6	14.2	0.00e+00	0	53	0	224395264	59	4695
2026-01-02 05:17:02.21	46.82	12.51	-48.1	-50.4	14.4	1.50e-06	0	53	0	226492416	59	4598
2026-01-02 05:17:03.19	46.69	12.58	-48.0	-50.4	14.4	2.20e-06	0	53	0	228589568	59	4570
2026-01-02 05:17:04.18	46.56	12.65	-47.9	-50.2	14.6	0.00e+00	0	53	0	230686720	58	4756
2026-01-02 05:17:05.18	46.42	12.72	-48.1	-50.5	14.4	1.50e-06	0	52	0	231735296	58	4890
2026-01-02 05:17:06.17	46.29	12.79	-48.0	-50.4	14.4	7.00e-07	0	53	0	233832448	58	4825
2026-01-02 05:17:07.17	46.15	12.86	-48.2	-50.7	14.1	2.20e-06	0	53	0	235929600	58	4994
2026-01-02 05:17:08.15	46.01	12.93	-48.3	-50.8	14.0	7.00e-07	0	53	0	238026752	58	5100
2026-01-02 05:17:09.13	45.88	13.00	-48.2	-50.8	14.0	3.00e-06	0	53	0	240123904	58	5044
2026-01-02 05:17:10.11	45.74	13.06	-48.4	-51.0	13.8	1.50e-06	0	53	0	241172480	58	5210
2026-01-02 05:17:11.09	45.60	13.13	-48.4	-51.0	13.8	2.20e-06	0	53	0	243269632	58	5205
2026-01-02 05:17:12.08	45.47	13.20	-48.5	-51.1	13.7	4.50e-06	0	53	0	245366784	58	5273
2026-01-02 05:17:13.07	45.33	13.27	-48.4	-51.0	13.8	3.00e-06	0	53	0	247463936	58	5217
2026-01-02 05:17:14.06	45.19	13.34	-48.6	-51.4	13.5	6.80e-06	0	53	0	248512512	58	5413
2026-01-02 05:17:15.05	45.04	13.41	-48.3	-50.9	13.9	4.50e-06	0	53	0	250609664	59	4863
2026-01-02 05:17:16.04	44.90	13.48	-48.2	-50.8	14.1	1.50e-06	0	53	0	252706816	59	4776
2026-01-02 05:17:17.02	44.76	13.55	-48.2	-50.8	14.1	0.00e+00	0	53	0	254803968	59	4769
2026-01-02 05:17:18.01	44.62	13.62	-48.0	-50.5	14.4	1.50e-06	0	53	0	255852544	59	4623
2026-01-02 05:17:19.00	44.48	13.69	-48.1	-50.7	14.2	0.00e+00	0	53	0	257949696	59	4715
2026-01-02 05:17:19.99	44.33	13.76	-48.2	-50.7	14.2	2.20e-06	0	53	0	260046848	59	4731
2026-01-02 05:17:20.98	44.19	13.83	-48.4	-51.2	13.7	1.50e-06	0	53	0	262144000	59	4996
2026-01-02 05:17:21.98	44.04	13.90	-48.3	-51.0	13.9	3.80e-06	0	53	0	264241152	59	4888
2026-01-02 05:17:22.97	43.89	13.97	-48.2	-50.7	14.1	2.20e-06	0	53	0	265289728	59	4749
2026-01-02 05:17:23.95	43.75	14.04	-48.2	-50.8	14.1	0.00e+00	0	53	0	267386880	59	4779
2026-01-02 05:17:24.94	43.60	14.11	-48.2	-50.8	14.1	7.00e-07	0	53	0	269484032	59	4760
2026-01-02 05:17:25.92	43.45	14.17	-48.3	-50.9	14.0	1.50e-06	0	53	0	271581184	59	4835
2026-01-02 05:17:26.91	43.30	14.24	-48.1	-50.5	14.4	0.00e+00	0	53	0	272629760	59	4631
2026-01-02 05:17:27.90	43.15	14.31	-48.0	-50.5	14.4	0.00e+00	0	53	0	274726912	59	4600
2026-01-02 05:17:28.88	43.00	14.38	-48.0	-50.4	14.5	0.00e+00	0	53	0	276824064	59	4573
2026-01-02 05:17:29.87	42.85	14.45	-47.9	-50.4	14.5	0.00e+00	0	53	0	278921216	59	4549
2026-01-02 05:17:30.85	42.70	14.52	-48.0	-50.5	14.4	2.20e-06	0	53	0	279969792	59	4637
2026-01-02 05:17:31.84	42.55	14.59	-48.0	-50.5	14.4	0.00e+00	0	53	0	282066944	59	4620
2026-01-02 05:17:32.82	42.40	14.66	-47.9	-50.3	14.6	7.00e-07	0	53	0	284164096	58	4780
2026-01-02 05:17:33.82	42.24	14.73	-47.9	-50.2	14.7	0.00e+00	0	53	0	286261248	58	4759
2026-01-02 05:17:34.80	42.09	14.80	-47.9	-50.2	14.6	0.00e+00	0	53	0	288358400	58	4758
2026-01-02 05:17:35.80	41.93	14.87	-48.0	-50.4	14.5	0.00e+00	0	53	0	289406976	58	4870
2026-01-02 05:17:36.79	41.77	14.94	-48.2	-50.7	14.2	0.00e+00	0	53	0	291504128	58	4990
2026-01-02 05:17:37.78	41.62	15.01	-48.4	-51.1	13.8	7.00e-07	0	54	0	293601280	58	5223
2026-01-02 05:17:38.78	41.46	15.08	-48.5	-51.2	13.7	6.10e-06	0	54	0	295698432	59	5015
2026-01-02 05:17:39.76	41.30	15.15	-48.5	-51.2	13.6	5.30e-06	0	54	0	296747008	59	5026
2026-01-02 05:17:40.75	41.14	15.22	-48.6	-51.4	13.5	9.90e-06	0	54	0	298844160	59	5101
2026-01-02 05:17:41.74	40.98	15.29	-48.6	-51.3	13.6	9.90e-06	0	54	0	300941312	59	5065
2026-01-02 05:17:42.72	40.82	15.35	-48.5	-51.2	13.7	9.10e-06	0	53	0	303038464	59	4998
2026-01-02 05:17:43.71	40.66	15.42	-48.4	-51.0	13.8	9.90e-06	0	54	0	304087040	59	4925
2026-01-02 05:17:44.70	40.49	15.49	-48.3	-51.0	13.9	1.50e-06	0	54	0	306184192	59	4877
2026-01-02 05:17:45.68	40.33	15.56	-48.5	-51.2	13.7	4.50e-06	0	54	0	308281344	59	5017
2026-01-02 05:17:46.67	40.17	15.63	-48.6	-51.3	13.6	1.06e-05	0	54	0	310378496	59	5051
2026-01-02 05:17:47.66	40.00	15.70	-48.5	-51.2	13.6	4.50e-06	0	54	0	311427072	59	5038
2026-01-02 05:17:48.64	39.84	15.77	-48.5	-51.1	13.8	8.30e-06	0	54	0	313524224	59	4953
2026-01-02 05:17:49.62	39.68	15.84	-48.4	-51.1	13.9	3.00e-06	0	54	0	315621376	59	4928
2026-01-02 05:17:50.61	39.51	15.91	-48.6	-51.4	13.5	9.90e-06	0	54	0	317718528	59	5105
2026-01-02 05:17:51.60	39.34	15.97	-48.5	-51.2	13.7	6.80e-06	0	54	0	319815680	59	5001
2026-01-02 05:17:52.59	39.17	16.04	-48.5	-51.3	13.7	9.10e-06	0	54	0	320864256	59	5057
2026-01-02 05:17:53.57	39.00	16.11	-48.6	-51.4	13.5	9.90e-06	0	54	0	322961408	59	5156
2026-01-02 05:17:54.56	38.83	16.18	-48.7	-51.5	13.4	9.90e-06	0	54	0	325058560	59	5178
2026-01-02 05:17:55.55	38.66	16.25	-48.6	-51.3	13.7	8.30e-06	0	54	0	327155712	59	5053
2026-01-02 05:17:56.54	38.49	16.32	-48.4	-51.0	13.9	3.80e-06	0	54	0	328204288	59	4872
2026-01-02 05:17:57.53	38.32	16.39	-48.4	-51.0	13.9	1.50e-06	0	54	0	330301440	59	4884
2026-01-02 05:17:58.52	38.14	16.46	-48.4	-51.1	13.8	4.50e-06	0	54	0	332398592	59	4954
2026-01-02 05:17:59.51	37.97	16.52	-48.4	-51.1	13.9	5.30e-06	0	54	0	334495744	59	4945
2026-01-02 05:18:00.49	37.80	16.59	-48.4	-51.0	13.9	6.10e-06	0	54	0	335544320	59	4898
2026-01-02 05:18:01.48	37.62	16.66	-48.5	-51.1	13.7	6.10e-06	0	54	0	337641472	59	4969
2026-01-02 05:18:02.46	37.44	16.73	-48.4	-51.0	14.0	1.50e-06	0	54	0	339738624	59	4891
2026-01-02 05:18:03.45	37.27	16.80	-48.3	-50.8	14.1	7.00e-07	0	54	0	341835776	59	4788
2026-01-02 05:18:04.43	37.09	16.86	-48.4	-51.0	13.9	3.80e-06	0	54	0	342884352	59	4890
2026-01-02 05:18:05.42	36.91	16.93	-48.4	-51.0	13.9	2.20e-06	0	54	0	344981504	59	4917
2026-01-02 05:18:06.41	36.73	17.00	-48.5	-51.3	13.7	2.20e-06	0	54	0	347078656	59	5049
2026-01-02 05:18:07.41	36.55	17.07	-48.6	-51.4	13.6	4.50e-06	0	54	0	349175808	59	5130
2026-01-02 05:18:08.39	36.37	17.13	-48.5	-51.2	13.8	8.30e-06	0	54	0	351272960	59	4997
2026-01-02 05:18:09.37	36.19	17.20	-48.3	-50.9	14.0	3.80e-06	0	54	0	352321536	59	4867
2026-01-02 05:18:10.36	36.00	17.27	-48.1	-50.6	14.4	7.00e-07	0	54	0	354418688	59	4659
2026-01-02 05:18:11.35	35.82	17.33	-48.0	-50.4	14.6	2.20e-06	0	54	0	356515840	59	4562
2026-01-02 05:18:12.34	35.64	17.40	-47.9	-50.2	14.7	7.00e-07	0	54	0	358612992	59	4474
2026-01-02 05:18:13.33	35.45	17.47	-48.0	-50.3	14.6	7.00e-07	0	54	0	359661568	59	4541
2026-01-02 05:18:14.32	35.26	17.54	-47.8	-50.0	14.9	0.00e+00	0	54	0	361758720	58	4646
2026-01-02 05:18:15.30	35.08	17.60	-47.9	-50.2	14.8	0.00e+00	0	54	0	363855872	58	4728
2026-01-02 05:18:16.29	34.89	17.67	-48.1	-50.5	14.5	0.00e+00	0	54	0	365953024	58	4876
2026-01-02 05:18:17.28	34.70	17.73	-47.8	-50.0	15.0	0.00e+00	0	54	0	367001600	58	4615
2026-01-02 05:18:18.27	34.51	17.80	-47.7	-50.0	15.0	0.00e+00	0	54	0	369098752	58	4617
2026-01-02 05:18:19.26	34.32	17.87	-47.7	-49.9	15.1	0.00e+00	0	54	0	371195904	58	4588
2026-01-02 05:18:20.24	34.13	17.93	-47.6	-49.8	15.2	0.00e+00	0	54	0	373293056	58	4509
2026-01-02 05:18:21.24	33.93	18.00	-47.5	-49.6	15.3	0.00e+00	0	54	0	374341632	58	4436
2026-01-02 05:18:22.22	33.74	18.06	-47.6	-49.8	15.1	0.00e+00	0	54	0	376438784	58	4524
2026-01-02 05:18:23.22	33.55	18.13	-47.5	-49.7	15.2	0.00e+00	0	54	0	378535936	58	4459
2026-01-02 05:18:24.21	33.35	18.20	-47.3	-49.4	15.5	0.00e+00	0	54	0	380633088	57	4569
2026-01-02 05:18:25.20	33.16	18.26	-47.2	-49.3	15.6	0.00e+00	0	54	0	382730240	57	4499
2026-01-02 05:18:26.18	32.96	18.32	-46.9	-48.7	16.0	0.00e+00	0	54	0	383778816	57	4239
2026-01-02 05:18:27.17	32.76	18.39	-46.9	-48.7	16.2	0.00e+00	0	54	0	385875968	56	4472
2026-01-02 05:18:28.16	32.56	18.45	-46.9	-48.7	16.2	0.00e+00	0	54	0	387973120	56	4476
2026-01-02 05:18:29.15	32.36	18.52	-46.8	-48.6	16.3	0.00e+00	0	54	0	390070272	56	4426
2026-01-02 05:18:30.13	32.17	18.58	-46.8	-48.7	16.2	0.00e+00	0	54	0	391118848	56	4468
2026-01-02 05:18:31.12	31.97	18.65	-46.9	-48.8	16.1	0.00e+00	0	54	0	393216000	56	4498
2026-01-02 05:18:32.10	31.77	18.71	-46.8	-48.7	16.2	0.00e+00	0	54	0	395313152	56	4479
2026-01-02 05:18:33.08	31.56	18.77	-46.9	-48.8	16.1	0.00e+00	0	54	0	397410304	56	4537
2026-01-02 05:18:34.07	31.36	18.84	-46.8	-48.7	16.3	0.00e+00	0	54	0	398458880	56	4458
2026-01-02 05:18:35.05	31.16	18.90	-46.8	-48.7	16.2	0.00e+00	0	54	0	400556032	56	4460
2026-01-02 05:18:36.04	30.95	18.96	-46.8	-48.6	16.3	0.00e+00	0	54	0	402653184	56	4423
2026-01-02 05:18:37.03	30.75	19.02	-46.9	-48.7	16.3	0.00e+00	0	54	0	404750336	56	4458
2026-01-02 05:18:38.02	30.54	19.09	-46.7	-48.4	16.5	0.00e+00	0	54	0	406847488	56	4303
2026-01-02 05:18:39.01	30.33	19.15	-46.6	-48.3	16.6	0.00e+00	0	54	0	407896064	56	4268
2026-01-02 05:18:40.00	30.12	19.21	-46.6	-48.4	16.5	0.00e+00	0	55	0	409993216	56	4292
2026-01-02 05:18:40.99	29.91	19.27	-46.6	-48.3	16.7	0.00e+00	0	55	0	412090368	56	4245
2026-01-02 05:18:41.98	29.70	19.33	-46.7	-48.4	16.5	0.00e+00	0	55	0	414187520	56	4318
2026-01-02 05:18:42.97	29.49	19.40	-46.7	-48.6	16.4	0.00e+00	0	55	0	415236096	56	4403
2026-01-02 05:18:43.96	29.28	19.46	-46.7	-48.5	16.4	0.00e+00	0	55	0	417333248	56	4359
2026-01-02 05:18:44.94	29.07	19.52	-46.6	-48.4	16.5	0.00e+00	0	55	0	419430400	56	4298
2026-01-02 05:18:45.94	28.85	19.58	-46.8	-48.7	16.3	0.00e+00	0	54	0	421527552	56	4456
2026-01-02 05:18:46.92	28.64	19.64	-47.1	-49.1	15.9	0.00e+00	0	55	0	422576128	56	4671
2026-01-02 05:18:47.91	28.42	19.70	-47.1	-49.1	15.8	0.00e+00	0	55	0	424673280	56	4690
2026-01-02 05:18:48.90	28.21	19.76	-47.3	-49.4	15.6	0.00e+00	0	55	0	426770432	56	4816
2026-01-02 05:18:49.89	27.99	19.82	-47.0	-49.0	16.0	0.00e+00	0	55	0	428867584	56	4626
2026-01-02 05:18:50.87	27.77	19.87	-46.7	-48.5	16.5	0.00e+00	0	55	0	429916160	56	4347
2026-01-02 05:18:51.86	27.56	19.93	-46.6	-48.2	16.7	0.00e+00	0	55	0	432013312	56	4241
2026-01-02 05:18:52.85	27.34	19.99	-46.5	-48.2	16.7	0.00e+00	0	55	0	434110464	56	4227
2026-01-02 05:18:53.84	27.11	20.05	-46.5	-48.2	16.7	0.00e+00	0	55	0	436207616	56	4206
2026-01-02 05:18:54.83	26.89	20.11	-46.5	-48.1	16.8	0.00e+00	0	55	0	438304768	56	4178
2026-01-02 05:18:55.83	26.67	20.17	-46.6	-48.3	16.6	0.00e+00	0	55	0	439353344	56	4288
2026-01-02 05:18:56.81	26.45	20.22	-46.6	-48.3	16.6	0.00e+00	0	55	0	441450496	56	4286
2026-01-02 05:18:57.79	26.23	20.28	-46.9	-48.7	16.3	0.00e+00	0	55	0	443547648	56	4472
2026-01-02 05:18:58.78	26.00	20.33	-46.9	-48.7	16.3	0.00e+00	0	55	0	445644800	56	4472
2026-01-02 05:18:59.77	25.77	20.39	-47.0	-48.8	16.1	0.00e+00	0	55	0	446693376	56	4536
2026-01-02 05:19:00.76	25.55	20.45	-47.4	-49.3	15.6	0.00e+00	0	55	0	448790528	56	4804
2026-01-02 05:19:01.75	25.32	20.50	-47.3	-49.2	15.8	0.00e+00	0	55	0	450887680	56	4719
2026-01-02 05:19:02.73	25.09	20.56	-47.2	-49.1	15.9	0.00e+00	0	55	0	452984832	56	4667
2026-01-02 05:19:03.73	24.86	20.61	-47.2	-49.1	15.9	0.00e+00	0	55	0	454033408	56	4686
2026-01-02 05:19:04.71	24.64	20.67	-47.1	-49.0	16.0	0.00e+00	0	55	0	456130560	56	4613
2026-01-02 05:19:05.70	24.40	20.72	-47.0	-48.9	16.1	0.00e+00	0	55	0	458227712	56	4558
2026-01-02 05:19:06.70	24.17	20.77	-46.9	-48.8	16.2	0.00e+00	0	55	0	460324864	56	4513
2026-01-02 05:19:07.69	23.94	20.83	-47.1	-49.0	16.1	0.00e+00	0	55	0	462422016	56	4600
2026-01-02 05:19:08.68	23.71	20.88	-47.3	-49.2	15.9	0.00e+00	0	55	0	463470592	56	4715
2026-01-02 05:19:09.68	23.47	20.93	-47.1	-48.9	16.2	0.00e+00	0	55	0	465567744	56	4557
2026-01-02 05:19:10.66	23.24	20.98	-46.5	-48.1	16.8	0.00e+00	0	55	0	467664896	56	4170
2026-01-02 05:19:11.65	23.00	21.04	-46.0	-47.5	17.3	0.00e+00	0	55	0	469762048	55	4123
2026-01-02 05:19:12.63	22.77	21.09	-46.0	-47.4	17.4	0.00e+00	0	55	0	470810624	55	4098
2026-01-02 05:19:13.62	22.53	21.14	-46.1	-47.6	17.2	0.00e+00	0	55	0	472907776	55	4189
2026-01-02 05:19:14.61	22.29	21.19	-46.1	-47.7	17.2	0.00e+00	0	55	0	475004928	55	4207
2026-01-02 05:19:15.59	22.06	21.24	-46.2	-47.8	17.1	0.00e+00	0	55	0	477102080	55	4245
2026-01-02 05:19:16.58	21.82	21.29	-46.2	-47.7	17.1	0.00e+00	0	55	0	478150656	55	4233
2026-01-02 05:19:17.57	21.58	21.34	-46.3	-47.9	17.1	0.00e+00	0	55	0	480247808	55	4295
2026-01-02 05:19:18.55	21.34	21.38	-46.4	-48.0	16.9	0.00e+00	0	55	0	482344960	55	4359
2026-01-02 05:19:19.54	21.10	21.43	-46.2	-47.7	17.2	0.00e+00	0	55	0	484442112	55	4195
2026-01-02 05:19:20.53	20.85	21.48	-46.1	-47.6	17.2	0.00e+00	0	55	0	486539264	55	4177
2026-01-02 05:19:21.53	20.61	21.53	-46.1	-47.6	17.3	0.00e+00	0	55	0	487587840	55	4167
2026-01-02 05:19:22.52	20.36	21.57	-46.2	-47.7	17.1	0.00e+00	0	55	0	489684992	55	4211
2026-01-02 05:19:23.51	20.12	21.62	-46.4	-48.0	16.9	0.00e+00	0	55	0	491782144	55	4350
2026-01-02 05:19:24.50	19.87	21.67	-46.4	-48.0	17.0	0.00e+00	0	55	0	493879296	55	4341
2026-01-02 05:19:25.49	19.63	21.71	-46.5	-48.2	16.8	0.00e+00	0	55	0	494927872	55	4447
2026-01-02 05:19:26.48	19.38	21.76	-46.6	-48.3	16.6	0.00e+00	0	55	0	497025024	55	4531
2026-01-02 05:19:27.46	19.13	21.80	-46.7	-48.5	16.4	0.00e+00	0	55	0	499122176	55	4607
2026-01-02 05:19:28.44	18.89	21.84	-46.7	-48.4	16.5	0.00e+00	0	55	0	501219328	55	4570
2026-01-02 05:19:29.44	18.64	21.89	-46.6	-48.2	16.6	0.00e+00	0	55	0	502267904	55	4491
2026-01-02 05:19:30.43	18.39	21.93	-46.5	-48.2	16.7	0.00e+00	0	55	0	504365056	55	4447
2026-01-02 05:19:31.42	18.14	21.97	-46.6	-48.3	16.6	0.00e+00	0	55	0	506462208	55	4500
2026-01-02 05:19:32.41	17.89	22.02	-46.6	-48.3	16.6	0.00e+00	0	55	0	508559360	55	4528
2026-01-02 05:19:33.39	17.64	22.06	-46.7	-48.3	16.6	0.00e+00	0	55	0	510656512	55	4539
2026-01-02 05:19:34.39	17.38	22.10	-46.5	-48.2	16.7	0.00e+00	0	55	0	511705088	55	4461
2026-01-02 05:19:35.37	17.13	22.14	-46.3	-47.8	17.1	0.00e+00	0	55	0	513802240	55	4261
2026-01-02 05:19:36.37	16.87	22.18	-46.1	-47.6	17.3	0.00e+00	0	55	0	515899392	55	4170
2026-01-02 05:19:37.35	16.62	22.22	-45.8	-47.2	17.6	0.00e+00	0	55	0	517996544	54	4236
2026-01-02 05:19:38.34	16.37	22.26	-46.0	-47.5	17.4	0.00e+00	0	55	0	519045120	54	4358
2026-01-02 05:19:39.34	16.11	22.29	-45.9	-47.3	17.6	0.00e+00	0	55	0	521142272	54	4267
2026-01-02 05:19:40.33	15.85	22.33	-46.1	-47.6	17.3	0.00e+00	0	55	0	523239424	54	4403
2026-01-02 05:19:41.32	15.59	22.37	-46.4	-47.9	16.9	0.00e+00	0	55	0	525336576	55	4340
2026-01-02 05:19:42.31	15.34	22.41	-46.1	-47.6	17.3	0.00e+00	0	55	0	526385152	55	4163
2026-01-02 05:19:43.30	15.08	22.44	-46.2	-47.7	17.1	0.00e+00	0	55	0	528482304	55	4225
2026-01-02 05:19:44.29	14.82	22.48	-46.3	-47.9	17.0	0.00e+00	0	55	0	530579456	55	4306
2026-01-02 05:19:45.28	14.56	22.51	-46.7	-48.3	16.6	0.00e+00	0	55	0	532676608	55	4544
2026-01-02 05:19:46.27	14.30	22.55	-47.2	-49.0	16.0	0.00e+00	0	55	0	534773760	56	4648
2026-01-02 05:19:47.26	14.04	22.58	-47.4	-49.4	15.6	0.00e+00	0	55	0	535822336	56	4849
2026-01-02 05:19:48.24	13.78	22.61	-47.6	-49.8	15.2	0.00e+00	0	55	0	537919488	57	4774
2026-01-02 05:19:49.23	13.52	22.64	-47.7	-49.8	15.2	0.00e+00	0	55	0	540016640	57	4792
2026-01-02 05:19:50.22	13.26	22.68	-47.6	-49.7	15.3	0.00e+00	0	55	0	542113792	57	4728
2026-01-02 05:19:51.20	13.00	22.71	-47.8	-50.0	15.0	0.00e+00	0	55	0	543162368	57	4896
2026-01-02 05:19:52.20	12.73	22.74	-47.8	-49.9	15.1	0.00e+00	0	55	0	545259520	57	4861
2026-01-02 05:19:53.19	12.47	22.77	-47.8	-50.0	15.0	0.00e+00	0	56	0	547356672	57	4871
2026-01-02 05:19:54.18	12.20	22.80	-47.6	-49.9	15.1	0.00e+00	0	55	0	549453824	57	4833
2026-01-02 05:19:55.17	11.94	22.82	-47.6	-49.7	15.3	0.00e+00	0	55	0	550502400	57	4733
2026-01-02 05:19:56.16	11.67	22.85	-47.4	-49.3	15.6	0.00e+00	0	55	0	552599552	57	4539
2026-01-02 05:19:57.14	11.41	22.88	-46.9	-48.7	16.1	0.00e+00	0	55	0	554696704	57	4239
2026-01-02 05:19:58.13	11.14	22.91	-47.0	-48.9	16.0	0.00e+00	0	55	0	556793856	56	4577
2026-01-02 05:19:59.12	10.88	22.93	-47.3	-49.3	15.6	0.00e+00	0	55	0	558891008	56	4798
2026-01-02 05:20:00.11	10.61	22.96	-47.3	-49.3	15.5	0.00e+00	0	55	0	559939584	56	4806
2026-01-02 05:20:01.10	10.34	22.98	-47.2	-49.3	15.4	0.00e+00	0	56	0	562036736	56	4769
2026-01-02 05:20:02.08	10.08	23.01	-47.0	-49.0	15.5	0.00e+00	0	55	0	564133888	56	4645
2026-01-02 05:20:03.07	9.81	23.03	-47.0	-49.0	15.3	0.00e+00	0	55	0	566231040	56	4627
2026-01-02 05:20:04.06	9.54	23.05	-47.1	-49.3	14.9	0.00e+00	0	55	0	567279616	56	4803
2026-01-02 05:20:05.05	9.27	23.08	-47.1	-49.4	14.7	0.00e+00	0	55	0	569376768	56	4847
2026-01-02 05:20:06.04	9.00	23.10	-47.6	-50.2	13.7	1.50e-06	0	56	0	571473920	56	5321
2026-01-02 05:20:07.03	8.73	23.12	-47.8	-50.6	13.3	1.67e-05	0	55	0	573571072	57	5244
2026-01-02 05:20:08.01	8.46	23.14	-47.9	-50.8	13.1	2.89e-05	0	55	0	574619648	57	5362
2026-01-02 05:20:09.00	8.19	23.16	-48.2	-51.3	12.6	6.63e-05	0	55	0	576716800	58	5350
2026-01-02 05:20:09.99	7.92	23.18	-48.7	-52.3	11.5	3.57e-04	0	55	0	578813952	59	5695
2026-01-02 05:20:10.98	7.65	23.19	-49.1	-53.4	10.3	2.14e-03	0	56	0	580911104	60	6095
2026-01-02 05:20:11.97	7.38	23.21	-49.7	-55.2	8.5	1.94e-02	0	55	0	583008256	61	7074
2026-01-02 05:20:12.96	7.11	23.23	-50.2	-56.7	7.0	7.77e-02	0	55	0	584056832	62	7950
2026-01-02 05:20:13.96	6.83	23.24	-50.1	-56.7	6.9	1.75e-01	0	56	0	586153984	62	7971
2026-01-02 05:20:14.94	6.56	23.26	-50.2	-57.1	6.6	2.10e-01	0	55	0	588251136	62	8353
2026-01-02 05:20:15.92	6.29	23.27	-50.2	-56.7	7.0	1.85e-01	0	56	0	590348288	62	7957
2026-01-02 05:20:16.92	6.02	23.29	-49.9	-55.7	7.9	1.05e-01	0	56	0	591396864	61	7536
2026-01-02 05:20:17.91	5.74	23.30	-49.7	-55.1	8.6	4.47e-02	0	56	0	593494016	61	6978
2026-01-02 05:20:18.90	5.47	23.31	-49.6	-54.7	9.0	2.91e-02	0	56	0	595591168	61	6721
2026-01-02 05:20:19.89	5.19	23.33	-49.5	-54.4	9.3	1.84e-02	0	55	0	597688320	61	6476
2026-01-02 05:20:20.88	4.92	23.34	-49.6	-54.6	9.0	1.55e-02	0	56	0	598736896	61	6620
2026-01-02 05:20:21.87	4.65	23.35	-49.8	-55.2	8.6	3.12e-02	0	56	0	600834048	61	7078
2026-01-02 05:20:22.85	4.38	23.36	-49.9	-55.8	7.9	5.80e-02	0	56	0	602931200	61	7598
2026-01-02 05:20:23.83	4.10	23.37	-49.9	-56.0	7.6	9.70e-02	0	56	0	605028352	61	7785
2026-01-02 05:20:24.82	3.83	23.38	-50.1	-56.4	7.3	1.26e-01	0	56	0	606076928	61	8104
2026-01-02 05:20:25.80	3.56	23.38	-50.0	-56.1	7.5	1.07e-01	0	56	0	608174080	61	7869
2026-01-02 05:20:26.79	3.28	23.39	-50.0	-55.6	8.2	6.42e-02	0	56	0	610271232	61	7418
2026-01-02 05:20:27.78	3.01	23.40	-49.8	-55.0	9.0	4.19e-02	0	56	0	612368384	61	6908
2026-01-02 05:20:28.78	2.73	23.40	-49.5	-54.1	10.0	1.14e-02	0	56	0	614465536	61	6206
2026-01-02 05:20:29.76	2.46	23.41	-49.0	-52.6	11.6	2.01e-03	0	56	0	615514112	61	5275
2026-01-02 05:20:30.75	2.18	23.41	-48.6	-51.7	12.8	1.94e-04	0	56	0	617611264	60	5017
2026-01-02 05:20:31.74	1.91	23.41	-48.8	-51.9	12.8	5.11e-05	0	56	0	619708416	60	5120
2026-01-02 05:20:32.73	1.63	23.42	-48.5	-51.1	13.7	1.14e-05	0	56	0	621805568	59	4975
2026-01-02 05:20:33.71	1.36	23.42	-48.6	-51.3	13.7	6.10e-06	0	56	0	622854144	59	5068
2026-01-02 05:20:34.71	1.08	23.42	-48.9	-51.8	13.2	1.22e-05	0	56	0	624951296	59	5384
2026-01-02 05:20:35.69	0.81	23.42	-49.1	-52.2	12.8	6.10e-05	0	56	0	627048448	60	5300
2026-01-02 05:20:36.68	0.53	23.42	-49.1	-52.3	12.6	6.25e-05	0	56	0	629145600	60	5370
2026-01-02 05:20:37.67	0.26	23.42	-49.1	-52.3	12.7	9.53e-05	0	56	0	630194176	60	5354
2026-01-02 05:20:38.66	359.98	23.42	-49.0	-52.0	13.0	6.10e-05	0	56	0	632291328	60	5161
2026-01-02 05:20:39.64	359.71	23.42	-48.6	-51.3	13.7	3.35e-05	0	56	0	634388480	60	4774
2026-01-02 05:20:40.63	359.43	23.41	-48.1	-50.4	14.6	7.00e-07	0	56	0	636485632	59	4583
2026-01-02 05:20:41.62	359.16	23.41	-47.8	-50.0	15.0	0.00e+00	0	56	0	638582784	58	4628
2026-01-02 05:20:42.61	358.88	23.41	-47.4	-49.4	15.6	0.00e+00	0	56	0	639631360	57	4548
2026-01-02 05:20:43.61	358.60	23.40	-47.4	-49.4	15.6	0.00e+00	0	56	0	641728512	57	4546
2026-01-02 05:20:44.59	358.33	23.39	-47.5	-49.6	15.5	0.00e+00	0	56	0	643825664	57	4656
2026-01-02 05:20:45.58	358.06	23.39	-47.5	-49.6	15.4	7.00e-07	0	56	0	645922816	57	4658
2026-01-02 05:20:46.58	357.78	23.38	-47.2	-49.1	15.9	0.00e+00	0	56	0	646971392	57	4431
2026-01-02 05:20:47.56	357.51	23.37	-47.1	-49.1	15.8	0.00e+00	0	56	0	649068544	57	4394
2026-01-02 05:20:48.55	357.23	23.36	-47.0	-48.9	16.1	0.00e+00	0	56	0	651165696	57	4320
2026-01-02 05:20:49.54	356.96	23.36	-46.7	-48.5	16.5	0.00e+00	0	56	0	653262848	56	4341
2026-01-02 05:20:50.53	356.68	23.34	-46.6	-48.4	16.6	0.00e+00	0	56	0	654311424	56	4302
2026-01-02 05:20:51.52	356.41	23.33	-46.6	-48.3	16.7	0.00e+00	0	56	0	656408576	56	4261
2026-01-02 05:20:52.51	356.14	23.32	-46.7	-48.4	16.6	0.00e+00	0	56	0	658505728	56	4331
2026-01-02 05:20:53.50	355.86	23.31	-47.0	-48.8	16.2	0.00e+00	0	56	0	660602880	56	4509
2026-01-02 05:20:54.49	355.59	23.30	-47.4	-49.4	15.6	0.00e+00	0	56	0	662700032	56	4855
2026-01-02 05:20:55.48	355.32	23.28	-47.2	-49.1	15.8	0.00e+00	0	56	0	663748608	56	4669
2026-01-02 05:20:56.46	355.05	23.27	-47.3	-49.3	15.8	0.00e+00	0	56	0	665845760	56	4773
2026-01-02 05:20:57.45	354.77	23.25	-47.3	-49.3	15.8	0.00e+00	0	56	0	667942912	56	4772
2026-01-02 05:20:58.45	354.50	23.24	-47.6	-49.7	15.4	0.00e+00	0	56	0	670040064	57	4714
2026-01-02 05:20:59.45	354.22	23.22	-47.7	-49.8	15.2	0.00e+00	0	56	0	671088640	57	4792
2026-01-02 05:21:00.43	353.95	23.21	-47.8	-49.9	15.2	0.00e+00	0	56	0	673185792	57	4839
2026-01-02 05:21:01.42	353.68	23.19	-47.8	-50.0	15.1	0.00e+00	0	56	0	675282944	57	4897
2026-01-02 05:21:02.41	353.41	23.17	-47.9	-50.2	14.8	0.00e+00	0	56	0	677380096	57	5003
2026-01-02 05:21:03.40	353.14	23.15	-48.0	-50.2	14.9	0.00e+00	0	56	0	679477248	57	4991
2026-01-02 05:21:04.39	352.87	23.13	-48.0	-50.2	14.8	0.00e+00	0	56	0	680525824	57	4991
2026-01-02 05:21:05.37	352.60	23.11	-47.9	-50.1	14.9	0.00e+00	0	56	0	682622976	57	4962
2026-01-02 05:21:06.36	352.33	23.09	-47.7	-49.7	15.3	0.00e+00	0	56	0	684720128	57	4752
2026-01-02 05:21:07.35	352.06	23.07	-47.9	-50.1	14.9	0.00e+00	0	56	0	686817280	58	4690
2026-01-02 05:21:08.34	351.79	23.05	-47.5	-49.5	15.5	0.00e+00	0	56	0	687865856	58	4364
2026-01-02 05:21:09.33	351.52	23.02	-47.0	-48.7	16.3	0.00e+00	0	56	0	689963008	57	4238
2026-01-02 05:21:10.32	351.26	23.00	-46.7	-48.3	16.7	0.00e+00	0	56	0	692060160	56	4286
2026-01-02 05:21:11.30	350.99	22.97	-46.4	-48.0	16.9	0.00e+00	0	56	0	694157312	56	4120
2026-01-02 05:21:12.29	350.72	22.95	-46.6	-48.2	16.8	0.00e+00	0	56	0	695205888	56	4207
2026-01-02 05:21:13.28	350.46	22.92	-46.6	-48.2	16.8	0.00e+00	0	56	0	697303040	56	4220
2026-01-02 05:21:14.27	350.19	22.90	-47.0	-48.7	16.3	0.00e+00	0	56	0	699400192	56	4470
2026-01-02 05:21:15.26	349.92	22.87	-47.3	-49.1	15.8	0.00e+00	0	56	0	701497344	56	4694
2026-01-02 05:21:16.25	349.66	22.84	-47.0	-48.7	16.3	0.00e+00	0	56	0	702545920	56	4491
2026-01-02 05:21:17.23	349.40	22.81	-46.8	-48.5	16.5	0.00e+00	0	56	0	704643072	56	4356
2026-01-02 05:21:18.22	349.13	22.79	-46.8	-48.4	16.5	0.00e+00	0	56	0	706740224	56	4340
2026-01-02 05:21:19.20	348.87	22.76	-46.6	-48.3	16.6	0.00e+00	0	56	0	708837376	56	4272
2026-01-02 05:21:20.19	348.61	22.73	-46.3	-47.9	17.0	0.00e+00	0	56	0	709885952	55	4328
2026-01-02 05:21:21.18	348.34	22.70	-46.4	-47.9	16.9	0.00e+00	0	56	0	711983104	55	4339
2026-01-02 05:21:22.16	348.08	22.66	-46.4	-48.1	16.9	0.00e+00	0	56	0	714080256	55	4410
2026-01-02 05:21:23.15	347.82	22.63	-46.8	-48.6	16.3	0.00e+00	0	56	0	716177408	55	4652
2026-01-02 05:21:24.13	347.56	22.60	-46.9	-48.7	16.2	0.00e+00	0	56	0	718274560	55	4735
2026-01-02 05:21:25.12	347.30	22.57	-47.7	-49.7	15.3	0.00e+00	0	56	0	719323136	57	4739
2026-01-02 05:21:26.12	347.04	22.53	-47.5	-49.5	15.5	0.00e+00	0	56	0	721420288	57	4604
2026-01-02 05:21:27.10	346.78	22.50	-47.7	-49.8	15.2	7.00e-07	0	56	0	723517440	57	4802
2026-01-02 05:21:28.08	346.52	22.47	-47.3	-49.2	15.8	0.00e+00	0	56	0	725614592	57	4449
2026-01-02 05:21:29.07	346.27	22.43	-47.4	-49.4	15.6	0.00e+00	0	56	0	726663168	57	4587
2026-01-02 05:21:30.06	346.01	22.39	-47.7	-49.7	15.3	0.00e+00	0	56	0	728760320	57	4743
2026-01-02 05:21:31.04	345.75	22.36	-47.2	-49.1	16.0	0.00e+00	0	56	0	730857472	57	4392
2026-01-02 05:21:32.03	345.50	22.32	-47.0	-48.8	16.2	0.00e+00	0	56	0	732954624	57	4270
2026-01-02 05:21:33.02	345.24	22.28	-47.0	-48.9	16.2	0.00e+00	0	56	0	734003200	56	4567
2026-01-02 05:21:34.01	344.98	22.24	-46.9	-48.7	16.3	0.00e+00	0	56	0	736100352	56	4445
2026-01-02 05:21:35.00	344.73	22.21	-47.2	-49.1	15.9	0.00e+00	0	56	0	738197504	56	4657
2026-01-02 05:21:36.00	344.47	22.17	-47.6	-49.6	15.4	0.00e+00	0	56	0	740294656	57	4673
2026-01-02 05:21:36.99	344.22	22.13	-47.4	-49.4	15.6	0.00e+00	0	56	0	742391808	57	4580
2026-01-02 05:21:37.98	343.97	22.09	-47.2	-49.1	15.8	0.00e+00	0	56	0	743440384	57	4432
2026-01-02 05:21:38.97	343.71	22.04	-47.4	-49.4	15.6	0.00e+00	0	56	0	745537536	57	4581
2026-01-02 05:21:39.95	343.46	22.00	-47.8	-50.0	15.0	0.00e+00	0	56	0	747634688	57	4914
2026-01-02 05:21:40.93	343.22	21.96	-47.7	-49.9	15.0	0.00e+00	0	56	0	749731840	57	4832
2026-01-02 05:21:41.92	342.96	21.92	-48.0	-50.2	14.7	0.00e+00	0	56	0	750780416	57	5038
2026-01-02 05:21:42.90	342.72	21.88	-47.9	-50.3	14.7	0.00e+00	0	56	0	752877568	57	5042
2026-01-02 05:21:43.89	342.47	21.83	-47.9	-50.2	14.8	7.00e-07	0	56	0	754974720	57	5020
2026-01-02 05:21:44.88	342.22	21.79	-48.1	-50.5	14.4	0.00e+00	0	56	0	757071872	58	4922
2026-01-02 05:21:45.87	341.97	21.74	-47.9	-50.1	14.8	0.00e+00	0	56	0	758120448	58	4701
2026-01-02 05:21:46.85	341.73	21.70	-47.6	-49.7	15.2	7.00e-07	0	56	0	760217600	58	4481
2026-01-02 05:21:47.84	341.48	21.65	-47.2	-49.2	15.8	0.00e+00	0	56	0	762314752	57	4451
2026-01-02 05:21:48.83	341.24	21.61	-47.1	-49.2	15.7	0.00e+00	0	56	0	764411904	57	4481
2026-01-02 05:21:49.83	340.99	21.56	-47.4	-49.4	15.5	0.00e+00	0	56	0	765460480	57	4571
2026-01-02 05:21:50.82	340.75	21.51	-47.4	-49.5	15.4	0.00e+00	0	56	0	767557632	57	4636
2026-01-02 05:21:51.80	340.51	21.47	-47.3	-49.4	15.4	0.00e+00	0	56	0	769654784	57	4595
2026-01-02 05:21:52.79	340.26	21.42	-47.3	-49.4	15.5	0.00e+00	0	56	0	771751936	57	4556
2026-01-02 05:21:53.78	340.02	21.37	-47.4	-49.5	15.3	0.00e+00	0	56	0	773849088	57	4616
2026-01-02 05:21:54.76	339.78	21.32	-47.4	-49.6	15.2	0.00e+00	0	56	0	774897664	57	4655
2026-01-02 05:21:55.75	339.54	21.27	-47.3	-49.4	15.4	0.00e+00	0	56	0	776994816	57	4569
2026-01-02 05:21:56.75	339.30	21.22	-47.6	-49.8	15.0	0.00e+00	0	56	0	779091968	57	4784
2026-01-02 05:21:57.74	339.06	21.17	-47.8	-50.1	14.7	0.00e+00	0	56	0	781189120	57	4929
2026-01-02 05:21:58.73	338.83	21.12	-47.8	-50.2	14.5	0.00e+00	0	56	0	782237696	57	5001
2026-01-02 05:21:59.72	338.59	21.07	-48.0	-50.5	14.1	7.00e-07	0	56	0	784334848	57	5214
2026-01-02 05:22:00.71	338.35	21.02	-48.0	-50.6	14.0	2.20e-06	0	56	0	786432000	57	5232
2026-01-02 05:22:01.70	338.12	20.97	-48.4	-51.2	13.4	5.30e-06	0	56	0	788529152	58	5308
2026-01-02 05:22:02.68	337.89	20.92	-48.9	-52.1	12.4	4.11e-05	0	56	0	789577728	59	5577
2026-01-02 05:22:03.67	337.65	20.86	-49.0	-52.6	11.8	3.39e-04	0	56	0	791674880	60	5531
2026-01-02 05:22:04.66	337.42	20.81	-49.3	-53.1	11.3	7.23e-04	0	56	0	793772032	60	5869
2026-01-02 05:22:05.65	337.19	20.76	-49.4	-53.4	10.8	1.59e-03	0	56	0	795869184	60	6115
2026-01-02 05:22:06.63	336.96	20.71	-49.4	-53.6	10.7	2.55e-03	0	56	0	797966336	60	6253
2026-01-02 05:22:07.62	336.73	20.65	-49.5	-53.7	10.5	6.60e-03	0	56	0	799014912	61	5961
2026-01-02 05:22:08.61	336.50	20.60	-49.7	-54.1	10.0	4.98e-03	0	56	0	801112064	61	6274
2026-01-02 05:22:09.60	336.27	20.54	-49.5	-53.7	10.5	7.28e-03	0	56	0	803209216	61	5946
2026-01-02 05:22:10.60	336.04	20.49	-49.1	-52.9	11.4	1.57e-03	0	56	0	805306368	61	5449
2026-01-02 05:22:11.58	335.81	20.43	-48.9	-52.4	12.0	4.11e-04	0	56	0	806354944	61	5113
2026-01-02 05:22:12.56	335.59	20.38	-49.0	-52.4	12.0	1.69e-04	0	56	0	808452096	60	5451
2026-01-02 05:22:13.56	335.36	20.32	-49.1	-52.7	11.8	6.12e-04	0	56	0	810549248	60	5618
2026-01-02 05:22:14.54	335.14	20.26	-49.1	-52.9	11.6	5.45e-04	0	56	0	812646400	60	5736
2026-01-02 05:22:15.54	334.91	20.21	-49.3	-53.1	11.3	7.90e-04	0	56	0	813694976	60	5914
2026-01-02 05:22:16.52	334.69	20.15	-49.4	-53.4	11.0	1.42e-03	0	56	0	815792128	60	6102
2026-01-02 05:22:17.50	334.47	20.09	-49.4	-53.6	10.9	1.55e-03	0	56	0	817889280	60	6210
2026-01-02 05:22:18.49	334.25	20.03	-49.1	-52.8	11.8	5.71e-04	0	56	0	819986432	60	5718
2026-01-02 05:22:19.47	334.03	19.98	-48.8	-52.2	12.3	2.70e-04	0	56	0	821035008	60	5335
2026-01-02 05:22:20.46	333.81	19.92	-48.7	-51.9	12.7	1.15e-04	0	56	0	823132160	60	5149
2026-01-02 05:22:21.45	333.59	19.86	-49.1	-52.5	12.2	2.02e-04	0	56	0	825229312	60	5492
2026-01-02 05:22:22.43	333.38	19.80	-49.2	-52.8	11.9	5.24e-04	0	57	0	827326464	60	5685
2026-01-02 05:22:23.42	333.16	19.74	-49.3	-52.8	12.0	2.43e-04	0	56	0	829423616	60	5695
2026-01-02 05:22:24.41	332.95	19.68	-49.3	-52.6	12.3	3.68e-04	0	56	0	830472192	60	5558
2026-01-02 05:22:25.40	332.73	19.62	-49.1	-52.4	12.6	1.22e-04	0	56	0	832569344	60	5416
2026-01-02 05:22:26.38	332.52	19.56	-48.9	-51.9	13.1	6.10e-05	0	56	0	834666496	60	5122
2026-01-02 05:22:27.37	332.30	19.50	-49.1	-52.2	12.8	6.33e-05	0	56	0	836763648	60	5282
2026-01-02 05:22:28.35	332.09	19.44	-48.9	-51.8	13.2	4.04e-05	0	56	0	837812224	60	5064
2026-01-02 05:22:29.33	331.88	19.38	-48.7	-51.4	13.6	1.60e-05	0	56	0	839909376	60	4843
2026-01-02 05:22:30.32	331.67	19.32	-48.6	-51.3	13.7	6.80e-06	0	56	0	842006528	60	4777
2026-01-02 05:22:31.31	331.46	19.26	-48.5	-51.1	13.9	4.50e-06	0	56	0	844103680	60	4667
2026-01-02 05:22:32.29	331.25	19.20	-48.5	-50.9	14.1	3.00e-06	0	56	0	845152256	59	4845
2026-01-02 05:22:33.27	331.05	19.13	-48.4	-50.9	14.1	3.80e-06	0	56	0	847249408	59	4846
2026-01-02 05:22:34.26	330.84	19.07	-48.3	-50.6	14.5	3.00e-06	0	56	0	849346560	59	4699
2026-01-02 05:22:35.26	330.63	19.01	-47.7	-49.8	15.2	0.00e+00	0	56	0	851443712	58	4514
2026-01-02 05:22:36.24	330.43	18.95	-47.3	-49.3	15.8	0.00e+00	0	56	0	852492288	57	4494
2026-01-02 05:22:37.23	330.22	18.88	-47.1	-48.9	16.1	0.00e+00	0	56	0	854589440	57	4334
2026-01-02 05:22:38.22	330.02	18.82	-46.9	-48.7	16.3	0.00e+00	0	56	0	856686592	56	4462
2026-01-02 05:22:39.21	329.81	18.76	-47.0	-48.9	16.1	0.00e+00	0	56	0	858783744	56	4560
2026-01-02 05:22:40.19	329.61	18.69	-47.4	-49.4	15.6	0.00e+00	0	56	0	860880896	56	4866
2026-01-02 05:22:41.18	329.41	18.63	-47.7	-49.9	15.1	0.00e+00	0	56	0	861929472	57	4838
2026-01-02 05:22:42.17	329.21	18.57	-47.9	-50.2	14.8	0.00e+00	0	56	0	864026624	57	5006
2026-01-02 05:22:43.16	329.01	18.50	-48.3	-50.8	14.2	0.00e+00	0	56	0	866123776	58	5068
2026-01-02 05:22:44.15	328.81	18.44	-48.3	-50.9	14.1	3.80e-06	0	57	0	868220928	58	5112
2026-01-02 05:22:45.14	328.61	18.37	-48.5	-51.2	13.8	5.30e-06	0	56	0	869269504	59	5004
2026-01-02 05:22:46.13	328.42	18.31	-48.4	-51.1	13.9	3.00e-06	0	56	0	871366656	59	4947
2026-01-02 05:22:47.11	328.22	18.24	-48.6	-51.3	13.7	4.50e-06	0	56	0	873463808	59	5073
2026-01-02 05:22:48.11	328.02	18.18	-48.6	-51.3	13.7	6.10e-06	0	56	0	875560960	59	5096
2026-01-02 05:22:49.09	327.83	18.11	-48.6	-51.3	13.7	3.00e-06	0	57	0	877658112	59	5060
2026-01-02 05:22:50.09	327.64	18.05	-48.7	-51.5	13.6	6.80e-06	0	57	0	878706688	59	5199
2026-01-02 05:22:51.07	327.44	17.98	-48.3	-50.8	14.2	8.30e-06	0	57	0	880803840	59	4766
2026-01-02 05:22:52.07	327.25	17.92	-48.0	-50.3	14.7	7.00e-07	0	56	0	882900992	59	4530
2026-01-02 05:22:53.05	327.06	17.85	-47.7	-50.0	15.0	0.00e+00	0	56	0	884998144	58	4627
2026-01-02 05:22:54.04	326.87	17.78	-47.4	-49.5	15.5	0.00e+00	0	57	0	886046720	58	4353
2026-01-02 05:22:55.03	326.68	17.72	-47.2	-49.2	15.7	0.00e+00	0	56	0	888143872	57	4473
2026-01-02 05:22:56.02	326.49	17.65	-47.2	-49.1	15.9	0.00e+00	0	57	0	890241024	57	4415
2026-01-02 05:22:57.01	326.30	17.59	-47.0	-48.9	16.0	0.00e+00	0	57	0	892338176	57	4333
2026-01-02 05:22:58.00	326.12	17.52	-47.0	-48.8	16.1	0.00e+00	0	56	0	893386752	57	4276
2026-01-02 05:22:58.98	325.93	17.45	-47.4	-49.3	15.6	0.00e+00	0	57	0	895483904	57	4542
2026-01-02 05:22:59.97	325.75	17.39	-47.4	-49.4	15.6	0.00e+00	0	56	0	897581056	57	4574
2026-01-02 05:23:00.96	325.56	17.32	-48.0	-50.3	14.7	0.00e+00	0	56	0	899678208	57	5050
2026-01-02 05:23:01.94	325.38	17.25	-47.9	-50.2	14.8	0.00e+00	0	57	0	900726784	57	4998
2026-01-02 05:23:02.93	325.20	17.18	-47.7	-49.9	15.0	0.00e+00	0	56	0	902823936	57	4839
2026-01-02 05:23:03.92	325.01	17.12	-47.3	-49.3	15.6	0.00e+00	0	57	0	904921088	57	4535
2026-01-02 05:23:04.91	324.83	17.05	-47.3	-49.2	15.7	0.00e+00	0	57	0	907018240	57	4492
2026-01-02 05:23:05.89	324.65	16.98	-47.2	-49.2	15.8	0.00e+00	0	57	0	909115392	57	4454
2026-01-02 05:23:06.88	324.47	16.91	-47.2	-49.1	15.8	0.00e+00	0	57	0	910163968	57	4412
2026-01-02 05:23:07.86	324.30	16.85	-47.3	-49.3	15.6	0.00e+00	0	57	0	912261120	57	4522
2026-01-02 05:23:08.85	324.12	16.78	-47.2	-49.1	15.7	0.00e+00	0	57	0	914358272	57	4431
2026-01-02 05:23:09.85	323.94	16.71	-47.5	-49.6	15.4	0.00e+00	0	57	0	916455424	57	4683
2026-01-02 05:23:10.83	323.76	16.64	-47.5	-49.7	15.3	0.00e+00	0	57	0	917504000	57	4731
2026-01-02 05:23:11.81	323.59	16.58	-47.5	-49.7	15.3	0.00e+00	0	57	0	919601152	57	4725
2026-01-02 05:23:12.80	323.41	16.51	-47.6	-49.7	15.2	0.00e+00	0	56	0	921698304	57	4753
2026-01-02 05:23:13.78	323.24	16.44	-47.4	-49.5	15.5	0.00e+00	0	57	0	923795456	57	4610
2026-01-02 05:23:14.77	323.07	16.37	-47.3	-49.3	15.6	0.00e+00	0	57	0	924844032	57	4514
2026-01-02 05:23:15.76	322.90	16.30	-47.3	-49.3	15.7	0.00e+00	0	57	0	926941184	57	4509
2026-01-02 05:23:16.75	322.72	16.23	-47.4	-49.5	15.5	0.00e+00	0	57	0	929038336	57	4601
2026-01-02 05:23:17.73	322.56	16.17	-47.6	-49.7	15.3	0.00e+00	0	57	0	931135488	57	4711
2026-01-02 05:23:18.72	322.39	16.10	-47.3	-49.3	15.7	0.00e+00	0	57	0	932184064	57	4511
2026-01-02 05:23:19.70	322.22	16.03	-47.0	-48.8	16.2	0.00e+00	0	57	0	934281216	57	4258
2026-01-02 05:23:20.69	322.05	15.96	-46.7	-48.5	16.5	0.00e+00	0	57	0	936378368	56	4341
2026-01-02 05:23:21.68	321.88	15.89	-46.5	-48.3	16.6	0.00e+00	0	57	0	938475520	56	4260
2026-01-02 05:23:22.67	321.71	15.82	-46.6	-48.3	16.6	0.00e+00	0	57	0	940572672	56	4250
2026-01-02 05:23:23.66	321.55	15.75	-46.6	-48.3	16.5	0.00e+00	0	57	0	941621248	56	4277
2026-01-02 05:23:24.65	321.38	15.68	-46.7	-48.5	16.5	0.00e+00	0	57	0	943718400	56	4352
2026-01-02 05:23:25.65	321.22	15.61	-46.7	-48.4	16.5	0.00e+00	0	57	0	945815552	56	4313
2026-01-02 05:23:26.64	321.05	15.54	-46.7	-48.4	16.5	0.00e+00	0	57	0	947912704	56	4325
2026-01-02 05:23:27.63	320.89	15.47	-46.6	-48.3	16.6	0.00e+00	0	57	0	948961280	56	4262
2026-01-02 05:23:28.62	320.73	15.41	-46.5	-48.1	16.8	0.00e+00	0	57	0	951058432	56	4176
2026-01-02 05:23:29.61	320.57	15.34	-46.3	-47.8	17.0	0.00e+00	0	56	0	953155584	55	4277
2026-01-02 05:23:30.60	320.40	15.27	-46.5	-48.1	16.7	0.00e+00	0	57	0	955252736	55	4402
2026-01-02 05:23:31.59	320.24	15.20	-46.3	-47.8	17.0	0.00e+00	0	57	0	957349888	55	4275
2026-01-02 05:23:32.58	320.08	15.13	-46.1	-47.6	17.2	0.00e+00	0	57	0	958398464	55	4190
2026-01-02 05:23:33.57	319.93	15.06	-46.2	-47.8	17.0	0.00e+00	0	57	0	960495616	54	4503
2026-01-02 05:23:34.56	319.77	14.99	-46.4	-48.0	16.8	0.00e+00	0	57	0	962592768	54	4614
2026-01-02 05:23:35.55	319.61	14.92	-46.5	-48.2	16.8	0.00e+00	0	57	0	964689920	54	4711
2026-01-02 05:23:36.54	319.46	14.85	-46.6	-48.3	16.6	0.00e+00	0	57	0	965738496	54	4774
2026-01-02 05:23:37.53	319.30	14.78	-46.8	-48.5	16.3	0.00e+00	0	57	0	967835648	55	4620
2026-01-02 05:23:38.51	319.15	14.71	-46.8	-48.6	16.2	0.00e+00	0	57	0	969932800	55	4658
2026-01-02 05:23:39.50	318.99	14.64	-47.0	-48.9	16.0	0.00e+00	0	57	0	972029952	55	4818
2026-01-02 05:23:40.50	318.84	14.57	-46.8	-48.6	16.2	0.00e+00	0	57	0	973078528	55	4662
2026-01-02 05:23:41.49	318.68	14.50	-46.7	-48.5	16.3	0.00e+00	0	57	0	975175680	55	4607
2026-01-02 05:23:42.48	318.53	14.43	-46.6	-48.4	16.4	0.00e+00	0	57	0	977272832	55	4550
2026-01-02 05:23:43.47	318.38	14.36	-46.5	-48.2	16.5	0.00e+00	0	57	0	979369984	55	4484
2026-01-02 05:23:44.46	318.23	14.29	-46.6	-48.3	16.5	0.00e+00	0	57	0	980418560	55	4507
2026-01-02 05:23:45.45	318.08	14.22	-46.6	-48.2	16.6	0.00e+00	0	56	0	982515712	55	4476
2026-01-02 05:23:46.44	317.93	14.15	-46.6	-48.3	16.6	0.00e+00	0	57	0	984612864	55	4505
2026-01-02 05:23:47.43	317.78	14.08	-46.4	-48.0	16.7	0.00e+00	0	57	0	986710016	55	4385
2026-01-02 05:23:48.42	317.64	14.01	-46.5	-48.1	16.6	0.00e+00	0	57	0	988807168	55	4428
2026-01-02 05:23:49.41	317.49	13.94	-46.5	-48.2	16.5	0.00e+00	0	57	0	989855744	55	4460
2026-01-02 05:23:50.39	317.34	13.88	-46.6	-48.4	16.4	0.00e+00	0	57	0	991952896	55	4561
2026-01-02 05:23:51.39	317.20	13.81	-46.8	-48.6	16.1	0.00e+00	0	57	0	994050048	55	4683
2026-01-02 05:23:52.37	317.05	13.74	-47.0	-48.8	15.8	0.00e+00	0	57	0	996147200	55	4813
2026-01-02 05:23:53.36	316.91	13.67	-47.2	-49.2	15.5	0.00e+00	0	57	0	997195776	56	4746
2026-01-02 05:23:54.35	316.77	13.60	-47.4	-49.4	15.3	0.00e+00	0	57	0	999292928	57	4598
2026-01-02 05:23:55.34	316.62	13.53	-47.3	-49.4	15.4	0.00e+00	0	57	0	1001390080	57	4557
2026-01-02 05:23:56.32	316.48	13.46	-47.3	-49.3	15.5	0.00e+00	0	57	0	1003487232	57	4503
2026-01-02 05:23:57.31	316.34	13.39	-47.2	-49.2	15.6	0.00e+00	0	57	0	1004535808	57	4478
2026-01-02 05:23:58.30	316.20	13.32	-47.3	-49.3	15.6	0.00e+00	0	57	0	1006632960	57	4496
2026-01-02 05:23:59.29	316.06	13.25	-47.4	-49.5	15.4	0.00e+00	0	56	0	1008730112	57	4610
2026-01-02 05:24:00.28	315.92	13.18	-47.6	-49.8	15.1	0.00e+00	0	57	0	1010827264	57	4765
2026-01-02 05:24:01.26	315.78	13.11	-47.2	-49.2	15.7	0.00e+00	0	57	0	1012924416	57	4445
2026-01-02 05:24:02.24	315.65	13.04	-47.1	-48.9	15.9	0.00e+00	0	57	0	1013972992	57	4340
2026-01-02 05:24:03.23	315.51	12.98	-46.9	-48.7	16.2	0.00e+00	0	57	0	1016070144	56	4472
2026-01-02 05:24:04.21	315.37	12.91	-46.7	-48.5	16.4	0.00e+00	0	57	0	1018167296	56	4357
2026-01-02 05:24:05.20	315.24	12.84	-46.9	-48.7	16.2	0.00e+00	0	57	0	1020264448	56	4453
2026-01-02 05:24:06.20	315.10	12.77	-46.8	-48.6	16.2	0.00e+00	0	57	0	1021313024	56	4418
2026-01-02 05:24:07.18	314.97	12.70	-46.4	-48.1	16.8	0.00e+00	0	57	0	1023410176	56	4149
2026-01-02 05:24:08.17	314.83	12.63	-46.0	-47.5	17.2	0.00e+00	0	57	0	1025507328	55	4140
2026-01-02 05:24:09.16	314.70	12.56	-46.3	-47.9	16.9	0.00e+00	0	57	0	1027604480	55	4298
2026-01-02 05:24:10.15	314.57	12.49	-46.4	-48.0	16.7	0.00e+00	0	57	0	1028653056	55	4357
2026-01-02 05:24:11.14	314.44	12.42	-46.5	-48.2	16.6	0.00e+00	0	57	0	1030750208	55	4460
2026-01-02 05:24:12.13	314.30	12.35	-46.8	-48.7	16.1	0.00e+00	0	57	0	1032847360	55	4712
2026-01-02 05:24:13.12	314.17	12.29	-46.9	-48.8	15.9	0.00e+00	0	57	0	1034944512	55	4809
2026-01-02 05:24:14.11	314.04	12.22	-47.4	-49.6	15.3	0.00e+00	0	57	0	1037041664	56	4942
2026-01-02 05:24:15.09	313.91	12.15	-47.6	-49.8	15.1	0.00e+00	0	57	0	1038090240	57	4765
2026-01-02 05:24:16.08	313.78	12.08	-48.0	-50.3	14.6	0.00e+00	0	57	0	1040187392	57	5063
2026-01-02 05:24:17.07	313.66	12.01	-47.6	-49.8	15.1	0.00e+00	0	57	0	1042284544	57	4793
2026-01-02 05:24:18.06	313.53	11.94	-47.6	-49.7	15.1	0.00e+00	0	57	0	1044381696	57	4755
2026-01-02 05:24:19.05	313.40	11.87	-47.7	-49.8	15.0	0.00e+00	0	57	0	1045430272	57	4811
2026-01-02 05:24:20.04	313.27	11.80	-47.4	-49.4	15.5	0.00e+00	0	57	0	1047527424	57	4560
2026-01-02 05:24:21.03	313.15	11.74	-47.2	-49.2	15.7	0.00e+00	0	57	0	1049624576	57	4462
2026-01-02 05:24:22.02	313.02	11.67	-47.1	-48.9	15.9	0.00e+00	0	57	0	1051721728	56	4580
2026-01-02 05:24:23.01	312.90	11.60	-47.0	-48.9	15.9	0.00e+00	0	57	0	1052770304	56	4559
2026-01-02 05:24:24.01	312.77	11.53	-46.8	-48.6	16.2	0.00e+00	0	57	0	1054867456	56	4417
2026-01-02 05:24:24.99	312.65	11.46	-47.0	-48.9	15.9	0.00e+00	0	57	0	1056964608	56	4568
2026-01-02 05:24:25.99	312.53	11.39	-47.0	-48.8	15.9	0.00e+00	0	57	0	1059061760	56	4543
2026-01-02 05:24:26.98	312.40	11.33	-47.1	-49.0	15.8	0.00e+00	0	57	0	1060110336	56	4619
2026-01-02 05:24:27.97	312.28	11.26	-47.2	-49.1	15.7	0.00e+00	0	57	0	1062207488	56	4699
2026-01-02 05:24:28.96	312.16	11.19	-47.1	-49.1	15.7	0.00e+00	0	57	0	1064304640	56	4670
2026-01-02 05:24:29.94	312.04	11.12	-47.1	-49.1	15.7	0.00e+00	0	57	0	1066401792	56	4672
2026-01-02 05:24:30.92	311.92	11.06	-47.1	-49.1	15.7	0.00e+00	0	57	0	1068498944	56	4652
2026-01-02 05:24:31.91	311.80	10.99	-47.2	-49.2	15.7	0.00e+00	0	57	0	1069547520	56	4707
2026-01-02 05:24:32.89	311.68	10.92	-47.4	-49.4	15.4	0.00e+00	0	57	0	1071644672	56	4830
2026-01-02 05:24:33.88	311.57	10.85	-47.3	-49.3	15.5	0.00e+00	0	57	0	1073741824	56	4793
2026-01-02 05:24:34.87	311.45	10.78	-47.5	-49.5	15.3	0.00e+00	0	57	0	1075838976	56	4896
2026-01-02 05:24:35.85	311.33	10.72	-47.4	-49.5	15.3	0.00e+00	0	57	0	1076887552	56	4878
2026-01-02 05:24:36.84	311.21	10.65	-47.8	-50.1	14.8	7.00e-07	0	57	0	1078984704	57	4944
2026-01-02 05:24:37.83	311.10	10.58	-47.9	-50.2	14.6	7.00e-07	0	57	0	1081081856	57	5016
2026-01-02 05:24:38.82	310.98	10.52	-47.9	-50.3	14.5	1.50e-06	0	57	0	1083179008	57	5042
2026-01-02 05:24:39.81	310.87	10.45	-48.0	-50.4	14.4	2.20e-06	0	57	0	1084227584	57	5142
2026-01-02 05:24:40.80	310.75	10.38	-48.0	-50.4	14.4	7.00e-07	0	57	0	1086324736	57	5137
2026-01-02 05:24:41.79	310.64	10.31	-48.0	-50.5	14.3	7.00e-07	0	57	0	1088421888	58	4883
2026-01-02 05:24:42.77	310.53	10.25	-48.0	-50.3	14.5	7.00e-07	0	57	0	1090519040	58	4806
2026-01-02 05:24:43.75	310.41	10.18	-48.2	-50.7	14.1	1.50e-06	0	57	0	1092616192	58	5025
2026-01-02 05:24:44.74	310.30	10.11	-48.2	-50.7	14.1	3.80e-06	0	57	0	1093664768	58	5014
2026-01-02 05:24:45.74	310.19	10.05	-48.0	-50.5	14.3	0.00e+00	0	57	0	1095761920	58	4909
2026-01-02 05:24:46.72	310.08	9.98	-48.1	-50.6	14.2	0.00e+00	0	57	0	1097859072	58	4966
2026-01-02 05:24:47.71	309.97	9.91	-48.1	-50.6	14.2	1.50e-06	0	57	0	1099956224	58	4930
2026-01-02 05:24:48.71	309.86	9.85	-48.2	-50.7	14.0	1.50e-06	0	57	0	1101004800	58	5023
2026-01-02 05:24:49.70	309.75	9.78	-48.2	-50.9	13.9	2.20e-06	0	57	0	1103101952	58	5135
2026-01-02 05:24:50.69	309.64	9.71	-48.5	-51.2	13.5	3.80e-06	0	57	0	1105199104	58	5338
2026-01-02 05:24:51.68	309.53	9.65	-48.5	-51.2	13.5	1.29e-05	0	57	0	1107296256	58	5325
2026-01-02 05:24:52.67	309.42	9.58	-48.7	-51.5	13.2	2.36e-05	0	57	0	1108344832	59	5216
2026-01-02 05:24:53.66	309.31	9.51	-48.3	-51.7	13.0	4.34e-05	0	57	0	1110441984	58	5627
2026-01-02 05:24:54.64	309.20	9.45	-48.5	-51.3	13.5	1.98e-05	0	57	0	1112539136	59	5044
2026-01-02 05:24:55.63	309.10	9.38	-48.5	-51.2	13.5	5.30e-06	0	57	0	1114636288	59	5035
2026-01-02 05:24:56.63	308.99	9.32	-48.4	-51.0	13.7	9.10e-06	0	57	0	1116733440	58	5184
2026-01-02 05:24:57.62	308.88	9.25	-48.3	-50.9	13.8	6.10e-06	0	57	0	1117782016	58	5135
2026-01-02 05:24:58.60	308.78	9.18	-48.3	-50.9	13.8	4.50e-06	0	57	0	1119879168	58	5147
2026-01-02 05:24:59.60	308.67	9.12	-48.4	-51.0	13.7	3.80e-06	0	57	0	1121976320	58	5215
2026-01-02 05:25:00.59	308.57	9.05	-48.3	-50.8	13.9	6.10e-06	0	57	0	1124073472	58	5097
2026-01-02 05:25:01.58	308.47	8.99	-47.9	-50.2	14.6	7.00e-07	0	57	0	1125122048	58	4715
2026-01-02 05:25:02.56	308.36	8.92	-47.7	-50.1	14.7	0.00e+00	0	57	0	1127219200	58	4652
2026-01-02 05:25:03.55	308.26	8.86	-47.0	-49.7	14.9	7.00e-07	0	57	0	1129316352	57	4727
2026-01-02 05:25:04.53	308.16	8.79	-46.0	-49.5	15.0	0.00e+00	0	57	0	1131413504	55	5202
2026-01-02 05:25:05.53	308.06	8.73	-45.3	-49.7	14.7	0.00e+00	0	57	0	1132462080	53	5931
2026-01-02 05:25:06.52	307.95	8.66	-45.4	-49.8	14.5	0.00e+00	0	57	0	1134559232	53	6023
2026-01-02 05:25:07.51	307.85	8.59	-45.9	-49.9	14.4	0.00e+00	0	57	0	1136656384	53	6112
2026-01-02 05:25:08.50	307.75	8.53	-46.8	-50.0	14.5	7.00e-07	0	57	0	1138753536	55	5480
2026-01-02 05:25:09.49	307.65	8.46	-47.6	-50.3	14.3	7.00e-07	0	57	0	1139802112	57	5072
2026-01-02 05:25:10.48	307.55	8.40	-47.9	-50.5	14.1	1.50e-06	0	57	0	1141899264	57	5169
2026-01-02 05:25:11.47	307.45	8.33	-47.9	-50.4	14.2	1.50e-06	0	57	0	1143996416	57	5125
2026-01-02 05:25:12.45	307.36	8.27	-48.0	-50.7	13.9	3.00e-06	0	57	0	1146093568	58	4992
2026-01-02 05:25:13.44	307.26	8.21	-48.2	-50.8	13.8	3.80e-06	0	57	0	1148190720	58	5054
2026-01-02 05:25:14.44	307.16	8.14	-48.2	-50.8	13.7	2.20e-06	0	57	0	1149239296	58	5081
2026-01-02 05:25:15.43	307.06	8.08	-48.1	-50.7	13.9	2.20e-06	0	57	0	1151336448	58	5012
2026-01-02 05:25:16.41	306.96	8.01	-48.2	-50.9	13.7	2.20e-06	0	57	0	1153433600	58	5101
2026-01-02 05:25:17.41	306.87	7.95	-48.3	-51.0	13.5	3.00e-06	0	57	0	1155530752	58	5204
2026-01-02 05:25:18.39	306.77	7.88	-48.1	-50.7	13.7	4.50e-06	0	57	0	1156579328	58	5041
2026-01-02 05:25:19.38	306.68	7.82	-48.0	-50.6	13.9	1.50e-06	0	57	0	1158676480	58	4937
2026-01-02 05:25:20.36	306.58	7.76	-47.9	-50.4	14.0	5.30e-06	0	57	0	1160773632	57	5144
2026-01-02 05:25:21.34	306.49	7.69	-48.0	-50.6	13.8	5.30e-06	0	57	0	1162870784	57	5232
2026-01-02 05:25:22.34	306.39	7.63	-48.0	-50.6	13.8	5.30e-06	0	57	0	1163919360	58	4942
2026-01-02 05:25:23.33	306.30	7.56	-47.9	-50.5	13.9	2.20e-06	0	57	0	1166016512	57	5171
2026-01-02 05:25:24.32	306.21	7.50	-48.0	-50.6	13.8	4.50e-06	0	57	0	1168113664	57	5239
2026-01-02 05:25:25.30	306.11	7.44	-48.1	-50.8	13.6	5.30e-06	0	57	0	1170210816	58	5048
2026-01-02 05:25:26.30	306.02	7.37	-48.0	-50.8	13.5	7.60e-06	0	57	0	1172307968	58	5060
2026-01-02 05:25:27.29	305.93	7.31	-48.2	-51.0	13.3	1.52e-05	0	57	0	1173356544	58	5170
2026-01-02 05:25:28.27	305.84	7.25	-48.4	-51.4	12.8	2.44e-05	0	57	0	1175453696	58	5463
2026-01-02 05:25:29.26	305.74	7.18	-48.4	-51.4	12.8	4.19e-05	0	57	0	1177550848	58	5423
2026-01-02 05:25:30.25	305.65	7.12	-48.4	-51.4	12.8	7.01e-05	0	57	0	1179648000	58	5452
2026-01-02 05:25:31.25	305.56	7.06	-48.6	-51.8	12.3	1.33e-04	0	57	0	1180696576	58	5689
2026-01-02 05:25:32.23	305.47	6.99	-48.7	-52.0	12.1	2.39e-04	0	57	0	1182793728	59	5489
2026-01-02 05:25:33.22	305.38	6.93	-48.8	-52.1	12.0	2.55e-04	0	57	0	1184890880	59	5572
2026-01-02 05:25:34.21	305.29	6.87	-48.9	-52.5	11.6	4.87e-04	0	57	0	1186988032	59	5797
2026-01-02 05:25:35.19	305.21	6.81	-49.0	-52.7	11.4	8.24e-04	0	57	0	1189085184	59	5954
2026-01-02 05:25:36.19	305.12	6.74	-49.0	-52.8	11.2	1.09e-03	0	57	0	1190133760	60	5706
2026-01-02 05:25:37.17	305.03	6.68	-49.1	-53.0	11.0	1.23e-03	0	57	0	1192230912	60	5851
2026-01-02 05:25:38.16	304.94	6.62	-49.1	-53.1	10.8	2.91e-03	0	57	0	1194328064	60	5920
2026-01-02 05:25:39.15	304.85	6.56	-49.2	-53.3	10.7	3.75e-03	0	57	0	1196425216	60	6056
2026-01-02 05:25:40.15	304.77	6.49	-49.2	-53.5	10.4	3.58e-03	0	57	0	1197473792	60	6156
2026-01-02 05:25:41.13	304.68	6.43	-49.3	-53.6	10.3	5.04e-03	0	57	0	1199570944	60	6247
2026-01-02 05:25:42.12	304.59	6.37	-49.3	-53.8	10.1	5.55e-03	0	57	0	1201668096	60	6378
2026-01-02 05:25:43.11	304.51	6.31	-49.4	-54.1	9.7	9.24e-03	0	57	0	1203765248	60	6608
2026-01-02 05:25:44.10	304.42	6.25	-49.4	-54.0	9.8	9.90e-03	0	57	0	1204813824	60	6519
2026-01-02 05:25:45.09	304.34	6.18	-49.4	-54.2	9.6	1.14e-02	0	57	0	1206910976	60	6650
2026-01-02 05:25:46.07	304.25	6.12	-49.4	-54.1	9.6	1.24e-02	0	57	0	1209008128	60	6601
2026-01-02 05:25:47.06	304.17	6.06	-49.5	-54.3	9.4	1.30e-02	0	57	0	1211105280	60	6768
2026-01-02 05:25:48.04	304.09	6.00	-49.5	-54.4	9.2	1.67e-02	0	57	0	1212153856	60	6830
2026-01-02 05:25:49.02	304.00	5.94	-49.4	-54.2	9.4	1.58e-02	0	57	0	1214251008	60	6712
2026-01-02 05:25:50.01	303.92	5.88	-49.4	-54.2	9.4	1.65e-02	0	57	0	1216348160	60	6655
2026-01-02 05:25:51.00	303.84	5.82	-49.4	-54.3	9.3	1.49e-02	0	57	0	1218445312	60	6734
2026-01-02 05:25:51.99	303.75	5.75	-49.3	-54.3	9.3	1.98e-02	0	57	0	1219493888	60	6728
2026-01-02 05:25:52.97	303.67	5.69	-49.4	-54.5	9.1	2.41e-02	0	57	0	1221591040	60	6895
2026-01-02 05:25:53.96	303.59	5.63	-49.5	-54.7	8.8	2.66e-02	0	57	0	1223688192	60	7081
2026-01-02 05:25:54.95	303.51	5.57	-49.5	-54.8	8.7	2.54e-02	0	57	0	1225785344	60	7141
2026-01-02 05:25:55.93	303.43	5.51	-49.4	-54.5	9.0	2.94e-02	0	57	0	1227882496	60	6897
2026-01-02 05:25:56.91	303.35	5.45	-49.4	-54.5	9.0	3.06e-02	0	57	0	1228931072	60	6953
