passes_logs/2026/01/02/R3.0SM8_Murmansk_STILSPACE/R3.0SM8_Murmansk_STILSPACE__20260102_111338_FENGYUN_3D_rec.log

#Pass ID: 20260102_111338_FENGYUN 3D
#Satellite: FENGYUN 3D
#Configuration: FENGYUN 3D
#almurnet v.1.7.20240730
#Start time: 2026-01-02 11:13:40

#Version: 2.2.20231116
#Station: R3.0SM8_Murmansk_STILSPACE
#Location: 33.092731 lon 68.902999 lat
#TLE: 1 43010U 17072A   26001.33100487  .00000602  00000+0  30664-3 0  9999
#TLE: 2 43010  98.9910 332.9374 0001848 133.1047 227.0283 14.19692078421319

#Time	Az	El	Level	Level2	SNR	BER	BlckErr	Temp	State	Recorded	gain1	gain2
2026-01-02 11:13:40.36	144.02	3.12	-52.5	-63.3	3.8	8.46e-01	0	47	0	0	67	12667
2026-01-02 11:13:41.36	144.01	3.19	-52.3	-63.1	3.8	8.45e-01	0	47	104	0	67	12426
2026-01-02 11:13:42.34	144.00	3.26	-52.3	-63.0	3.8	8.46e-01	0	47	104	0	67	12334
2026-01-02 11:13:43.34	144.00	3.32	-52.2	-62.9	3.8	8.46e-01	0	47	104	0	67	12106
2026-01-02 11:13:44.33	143.99	3.39	-51.9	-62.8	3.8	8.46e-01	0	47	104	0	66	12700
2026-01-02 11:13:45.32	143.99	3.46	-51.7	-61.9	3.8	8.47e-01	0	47	104	0	66	11453
2026-01-02 11:13:46.32	143.98	3.52	-51.7	-62.2	3.8	8.46e-01	0	47	104	0	66	11870
2026-01-02 11:13:47.30	143.98	3.59	-51.6	-62.2	3.8	8.46e-01	0	47	104	0	66	11886
2026-01-02 11:13:48.30	143.97	3.66	-51.7	-62.2	3.8	8.46e-01	0	47	104	0	66	11857
2026-01-02 11:13:49.30	143.97	3.73	-51.5	-62.0	3.8	8.46e-01	0	47	104	0	66	11661
2026-01-02 11:13:50.29	143.96	3.79	-51.6	-61.8	3.8	8.45e-01	0	48	104	0	66	11333
2026-01-02 11:13:51.28	143.96	3.86	-51.6	-61.5	3.8	8.46e-01	0	48	104	0	66	11005
2026-01-02 11:13:52.27	143.95	3.93	-51.6	-61.1	3.8	8.46e-01	0	47	104	0	66	10434
2026-01-02 11:13:53.26	143.94	4.00	-51.5	-60.8	3.8	8.47e-01	0	48	104	0	66	10107
2026-01-02 11:13:54.25	143.94	4.07	-51.4	-60.2	3.9	8.45e-01	0	48	104	0	65	9990
2026-01-02 11:13:55.25	143.93	4.14	-51.4	-59.7	4.0	8.45e-01	0	48	104	0	65	9422
2026-01-02 11:13:56.24	143.93	4.20	-51.3	-59.3	4.1	8.40e-01	0	48	0	0	65	8976
2026-01-02 11:13:57.23	143.92	4.27	-51.2	-58.8	4.2	8.37e-01	0	48	0	0	65	8470
2026-01-02 11:13:58.22	143.91	4.34	-51.1	-58.5	4.3	8.33e-01	0	48	0	0	65	8256
2026-01-02 11:13:59.22	143.91	4.41	-51.1	-58.0	4.5	8.23e-01	0	48	0	0	65	7761
2026-01-02 11:14:00.21	143.90	4.48	-51.0	-57.6	4.7	8.11e-01	0	48	0	0	64	7812
2026-01-02 11:14:01.20	143.90	4.55	-50.7	-57.3	4.8	7.98e-01	0	48	0	0	64	7622
2026-01-02 11:14:02.18	143.89	4.62	-50.7	-56.8	5.0	7.70e-01	0	48	0	0	64	7184
2026-01-02 11:14:03.17	143.88	4.69	-50.7	-56.5	5.2	7.56e-01	0	48	0	0	64	6890
2026-01-02 11:14:04.17	143.88	4.76	-50.5	-55.8	5.7	5.77e-01	0	48	0	1048576	64	6392
2026-01-02 11:14:05.15	143.87	4.83	-50.3	-55.1	6.3	3.21e-01	0	48	0	6291456	63	6233
2026-01-02 11:14:06.14	143.87	4.90	-49.9	-54.3	7.0	2.06e-01	0	49	0	11534336	63	5671
2026-01-02 11:14:07.13	143.86	4.97	-49.8	-53.8	7.5	1.37e-01	0	49	0	17825792	62	5658
2026-01-02 11:14:08.11	143.85	5.04	-49.4	-52.9	8.3	8.14e-02	0	48	0	23068672	62	5147
2026-01-02 11:14:09.10	143.85	5.11	-49.4	-52.9	8.3	5.83e-02	0	49	0	28311552	61	5458
2026-01-02 11:14:10.09	143.84	5.18	-49.8	-53.9	7.4	1.12e-01	0	49	0	34603008	61	6118
2026-01-02 11:14:11.08	143.83	5.26	-49.5	-53.0	8.3	7.76e-02	0	49	0	39845888	61	5503
2026-01-02 11:14:12.06	143.83	5.33	-49.1	-52.3	9.0	3.80e-02	0	49	0	45088768	61	5058
2026-01-02 11:14:13.05	143.82	5.40	-48.6	-51.4	9.9	1.64e-02	0	49	0	50331648	60	4863
2026-01-02 11:14:14.04	143.81	5.47	-48.3	-50.8	10.5	7.31e-03	0	49	0	56623104	59	4811
2026-01-02 11:14:15.04	143.81	5.54	-48.0	-50.3	11.1	2.83e-03	0	49	0	61865984	59	4537
2026-01-02 11:14:16.02	143.80	5.62	-47.8	-50.1	11.4	1.50e-03	0	49	0	67108864	58	4657
2026-01-02 11:14:17.01	143.79	5.69	-47.6	-49.7	11.8	8.15e-04	0	49	0	73400320	58	4446
2026-01-02 11:14:18.00	143.79	5.76	-47.5	-49.6	11.8	7.61e-04	0	49	0	78643200	58	4401
2026-01-02 11:14:18.98	143.78	5.83	-47.6	-49.7	11.7	7.27e-04	0	49	0	83886080	58	4493
2026-01-02 11:14:19.97	143.77	5.91	-47.6	-49.8	11.6	8.47e-04	0	49	0	90177536	58	4541
2026-01-02 11:14:20.95	143.77	5.98	-47.1	-49.1	12.4	4.60e-04	0	49	0	95420416	57	4420
2026-01-02 11:14:21.94	143.76	6.05	-46.7	-48.5	13.0	5.60e-05	0	50	0	100663296	56	4359
2026-01-02 11:14:22.92	143.75	6.13	-46.4	-48.0	13.5	2.40e-05	0	50	0	105906176	56	4130
2026-01-02 11:14:23.92	143.74	6.20	-45.8	-47.4	14.0	4.50e-06	0	50	0	112197632	54	4301
2026-01-02 11:14:24.90	143.74	6.27	-45.5	-46.9	14.6	3.40e-06	0	50	0	117440512	54	4066
2026-01-02 11:14:25.89	143.73	6.35	-45.2	-46.5	14.9	0.00e+00	0	50	0	122683392	53	4115
2026-01-02 11:14:26.88	143.72	6.42	-44.9	-46.2	15.2	0.00e+00	0	50	0	128974848	53	3988
2026-01-02 11:14:27.87	143.71	6.50	-44.7	-45.9	15.5	0.00e+00	0	50	0	134217728	52	4085
2026-01-02 11:14:28.85	143.71	6.57	-44.7	-45.9	15.6	0.00e+00	0	50	0	139460608	52	4073
2026-01-02 11:14:29.84	143.70	6.65	-44.7	-45.9	15.5	0.00e+00	0	50	0	145752064	52	4083
2026-01-02 11:14:30.83	143.69	6.72	-44.9	-46.1	15.4	0.00e+00	0	50	0	150994944	52	4165
2026-01-02 11:14:31.81	143.68	6.80	-44.8	-46.0	15.5	0.00e+00	0	50	0	156237824	52	4127
2026-01-02 11:14:32.79	143.68	6.87	-44.9	-46.2	15.4	0.00e+00	0	50	0	161480704	52	4194
2026-01-02 11:14:33.78	143.67	6.95	-44.8	-46.0	15.5	1.10e-06	0	50	0	167772160	52	4125
2026-01-02 11:14:34.77	143.66	7.03	-44.5	-45.7	15.8	0.00e+00	0	50	0	173015040	52	3968
2026-01-02 11:14:35.75	143.65	7.10	-44.4	-45.5	16.0	0.00e+00	0	50	0	178257920	52	3902
2026-01-02 11:14:36.74	143.65	7.18	-44.4	-45.5	16.1	0.00e+00	0	50	0	184549376	51	4133
2026-01-02 11:14:37.73	143.64	7.26	-44.4	-45.6	16.0	0.00e+00	0	50	0	189792256	51	4158
2026-01-02 11:14:38.73	143.63	7.33	-44.4	-45.6	16.1	0.00e+00	0	50	0	195035136	51	4154
2026-01-02 11:14:39.72	143.62	7.41	-44.5	-45.7	15.9	0.00e+00	0	51	0	201326592	51	4210
2026-01-02 11:14:40.71	143.61	7.49	-44.6	-45.7	15.9	0.00e+00	0	50	0	206569472	51	4220
2026-01-02 11:14:41.70	143.61	7.57	-44.6	-45.7	15.9	0.00e+00	0	51	0	211812352	51	4237
2026-01-02 11:14:42.69	143.60	7.65	-44.7	-45.9	15.7	0.00e+00	0	50	0	217055232	51	4335
2026-01-02 11:14:43.69	143.59	7.73	-44.8	-46.0	15.7	0.00e+00	0	51	0	223346688	51	4341
2026-01-02 11:14:44.67	143.58	7.80	-44.7	-45.9	15.8	0.00e+00	0	51	0	228589568	51	4319
2026-01-02 11:14:45.66	143.57	7.88	-44.8	-46.0	15.7	0.00e+00	0	51	0	234881024	51	4370
2026-01-02 11:14:46.65	143.56	7.96	-45.0	-46.2	15.5	0.00e+00	0	51	0	240123904	51	4472
2026-01-02 11:14:47.64	143.56	8.04	-44.9	-46.1	15.6	0.00e+00	0	51	0	245366784	51	4410
2026-01-02 11:14:48.62	143.55	8.12	-44.7	-45.9	15.8	0.00e+00	0	51	0	250609664	51	4308
2026-01-02 11:14:49.60	143.54	8.20	-44.5	-45.7	16.0	0.00e+00	0	51	0	255852544	51	4202
2026-01-02 11:14:50.59	143.53	8.28	-44.5	-45.7	16.0	0.00e+00	0	51	0	262144000	51	4204
2026-01-02 11:14:51.58	143.52	8.36	-44.6	-45.8	15.9	0.00e+00	0	51	0	267386880	51	4253
2026-01-02 11:14:52.58	143.51	8.44	-44.9	-46.1	15.7	0.00e+00	0	51	0	273678336	51	4400
2026-01-02 11:14:53.57	143.50	8.52	-44.9	-46.2	15.6	0.00e+00	0	51	0	278921216	51	4444
2026-01-02 11:14:54.57	143.49	8.61	-44.6	-45.8	16.0	0.00e+00	0	51	0	284164096	51	4253
2026-01-02 11:14:55.56	143.48	8.69	-44.3	-45.4	16.3	0.00e+00	0	51	0	290455552	51	4095
2026-01-02 11:14:56.55	143.47	8.77	-44.2	-45.3	16.5	0.00e+00	0	51	0	295698432	51	4012
2026-01-02 11:14:57.54	143.47	8.85	-44.1	-45.1	16.6	0.00e+00	0	51	0	300941312	51	3938
2026-01-02 11:14:58.54	143.46	8.93	-44.0	-45.0	16.7	0.00e+00	0	51	0	306184192	51	3896
2026-01-02 11:14:59.53	143.45	9.02	-44.0	-45.0	16.8	0.00e+00	0	51	0	312475648	51	3891
2026-01-02 11:15:00.53	143.44	9.10	-44.0	-45.1	16.7	0.00e+00	0	52	0	317718528	51	3925
2026-01-02 11:15:01.52	143.43	9.18	-44.0	-45.0	16.8	0.00e+00	0	52	0	324009984	51	3895
2026-01-02 11:15:02.52	143.42	9.27	-43.9	-44.9	16.9	0.00e+00	0	51	0	329252864	50	4054
2026-01-02 11:15:03.50	143.41	9.35	-43.7	-44.7	17.1	0.00e+00	0	51	0	334495744	50	3964
2026-01-02 11:15:04.50	143.40	9.44	-43.7	-44.7	17.1	0.00e+00	0	52	0	339738624	50	3978
2026-01-02 11:15:05.48	143.39	9.52	-43.8	-44.7	17.0	0.00e+00	0	52	0	346030080	50	4003
2026-01-02 11:15:06.47	143.38	9.60	-43.8	-44.8	16.9	0.00e+00	0	52	0	351272960	50	4048
2026-01-02 11:15:07.46	143.37	9.69	-43.8	-44.9	16.9	0.00e+00	0	52	0	356515840	50	4056
2026-01-02 11:15:08.45	143.36	9.77	-43.8	-44.7	17.1	0.00e+00	0	52	0	362807296	50	3992
2026-01-02 11:15:09.44	143.35	9.86	-43.8	-44.8	17.0	0.00e+00	0	52	0	368050176	50	4008
2026-01-02 11:15:10.44	143.34	9.95	-43.8	-44.7	17.1	0.00e+00	0	52	0	373293056	50	3993
2026-01-02 11:15:11.43	143.33	10.03	-43.8	-44.8	17.0	0.00e+00	0	52	0	379584512	50	4024
2026-01-02 11:15:12.42	143.32	10.12	-43.9	-44.9	17.0	0.00e+00	0	52	0	384827392	50	4054
2026-01-02 11:15:13.41	143.31	10.21	-43.9	-44.9	16.9	0.00e+00	0	52	0	390070272	50	4063
2026-01-02 11:15:14.41	143.30	10.29	-44.0	-45.0	16.8	0.00e+00	0	52	0	396361728	50	4127
2026-01-02 11:15:15.40	143.29	10.38	-44.1	-45.1	16.8	0.00e+00	0	52	0	401604608	50	4154
2026-01-02 11:15:16.39	143.27	10.47	-44.0	-45.0	16.9	0.00e+00	0	52	0	406847488	50	4115
2026-01-02 11:15:17.39	143.26	10.56	-44.1	-45.2	16.7	0.00e+00	0	52	0	413138944	50	4202
2026-01-02 11:15:18.39	143.25	10.65	-44.2	-45.3	16.6	0.00e+00	0	52	0	418381824	50	4247
2026-01-02 11:15:19.38	143.24	10.74	-44.1	-45.1	16.7	0.00e+00	0	52	0	423624704	50	4176
2026-01-02 11:15:20.37	143.23	10.82	-44.3	-45.3	16.6	0.00e+00	0	52	0	429916160	50	4273
2026-01-02 11:15:21.36	143.22	10.91	-44.4	-45.5	16.4	0.00e+00	0	53	0	435159040	50	4376
2026-01-02 11:15:22.34	143.21	11.00	-44.3	-45.3	16.6	0.00e+00	0	52	0	440401920	50	4271
2026-01-02 11:15:23.34	143.20	11.09	-44.5	-45.6	16.3	0.00e+00	0	52	0	446693376	50	4419
2026-01-02 11:15:24.33	143.19	11.18	-44.8	-45.9	16.0	0.00e+00	0	52	0	451936256	51	4322
2026-01-02 11:15:25.32	143.17	11.27	-44.6	-45.7	16.2	0.00e+00	0	52	0	457179136	51	4208
2026-01-02 11:15:26.30	143.16	11.36	-44.8	-45.9	16.0	0.00e+00	0	52	0	462422016	51	4332
2026-01-02 11:15:27.29	143.15	11.46	-44.9	-46.0	15.9	0.00e+00	0	52	0	468713472	51	4381
2026-01-02 11:15:28.28	143.14	11.55	-44.6	-45.7	16.2	0.00e+00	0	52	0	473956352	51	4240
2026-01-02 11:15:29.27	143.13	11.64	-44.4	-45.5	16.4	0.00e+00	0	52	0	479199232	51	4134
2026-01-02 11:15:30.26	143.12	11.73	-44.4	-45.5	16.4	0.00e+00	0	53	0	485490688	51	4121
2026-01-02 11:15:31.24	143.10	11.82	-44.4	-45.5	16.4	0.00e+00	0	53	0	490733568	51	4111
2026-01-02 11:15:32.23	143.09	11.92	-44.1	-45.1	16.8	0.00e+00	0	52	0	495976448	51	3943
2026-01-02 11:15:33.22	143.08	12.01	-43.8	-44.8	17.1	0.00e+00	0	52	0	502267904	50	4044
2026-01-02 11:15:34.21	143.07	12.10	-43.7	-44.6	17.3	0.00e+00	0	53	0	507510784	50	3943
2026-01-02 11:15:35.20	143.05	12.20	-43.6	-44.5	17.4	0.00e+00	0	53	0	512753664	50	3896
2026-01-02 11:15:36.20	143.04	12.29	-43.6	-44.5	17.4	0.00e+00	0	53	0	517996544	50	3892
2026-01-02 11:15:37.19	143.03	12.39	-43.6	-44.6	17.4	0.00e+00	0	53	0	524288000	50	3914
2026-01-02 11:15:38.18	143.02	12.48	-43.8	-44.7	17.2	0.00e+00	0	53	0	529530880	50	3997
2026-01-02 11:15:39.16	143.00	12.58	-43.5	-44.5	17.5	0.00e+00	0	53	0	535822336	50	3876
2026-01-02 11:15:40.15	142.99	12.67	-43.3	-44.2	17.6	0.00e+00	0	53	0	541065216	49	4003
2026-01-02 11:15:41.14	142.98	12.77	-43.3	-44.1	17.8	0.00e+00	0	53	0	546308096	49	3958
2026-01-02 11:15:42.13	142.96	12.86	-43.3	-44.2	17.7	0.00e+00	0	53	0	551550976	49	4004
2026-01-02 11:15:43.12	142.95	12.96	-43.5	-44.4	17.5	0.00e+00	0	53	0	557842432	49	4077
2026-01-02 11:15:44.12	142.94	13.06	-43.3	-44.2	17.7	0.00e+00	0	53	0	563085312	49	3973
2026-01-02 11:15:45.11	142.92	13.16	-43.4	-44.3	17.6	0.00e+00	0	53	0	568328192	49	4028
2026-01-02 11:15:46.10	142.91	13.26	-43.5	-44.5	17.5	0.00e+00	0	53	0	574619648	49	4105
2026-01-02 11:15:47.10	142.90	13.36	-43.4	-44.3	17.6	0.00e+00	0	53	0	579862528	49	4022
2026-01-02 11:15:48.08	142.88	13.45	-43.5	-44.5	17.5	0.00e+00	0	53	0	585105408	49	4099
2026-01-02 11:15:49.08	142.87	13.55	-43.8	-44.8	17.2	0.00e+00	0	53	0	591396864	49	4246
2026-01-02 11:15:50.07	142.85	13.65	-43.6	-44.5	17.5	0.00e+00	0	53	0	596639744	49	4122
2026-01-02 11:15:51.05	142.84	13.75	-43.4	-44.3	17.6	0.00e+00	0	53	0	601882624	49	4032
2026-01-02 11:15:52.05	142.82	13.85	-43.4	-44.3	17.6	0.00e+00	0	53	0	607125504	49	4040
2026-01-02 11:15:53.03	142.81	13.95	-43.5	-44.4	17.5	0.00e+00	0	53	0	613416960	49	4080
2026-01-02 11:15:54.02	142.80	14.06	-43.4	-44.3	17.6	0.00e+00	0	53	0	618659840	49	4021
2026-01-02 11:15:55.01	142.78	14.16	-43.4	-44.3	17.6	0.00e+00	0	53	0	624951296	49	4020
2026-01-02 11:15:56.00	142.77	14.26	-43.4	-44.4	17.6	0.00e+00	0	53	0	630194176	49	4060
2026-01-02 11:15:56.98	142.75	14.36	-43.6	-44.6	17.4	0.00e+00	0	53	0	635437056	49	4155
2026-01-02 11:15:57.97	142.74	14.46	-44.0	-45.0	16.9	0.00e+00	0	53	0	640679936	49	4385
2026-01-02 11:15:58.95	142.72	14.57	-43.8	-44.7	17.3	0.00e+00	0	53	0	645922816	49	4227
2026-01-02 11:15:59.95	142.71	14.67	-43.3	-44.2	17.7	0.00e+00	0	53	0	652214272	49	3995
2026-01-02 11:16:00.93	142.69	14.78	-43.1	-44.0	18.0	0.00e+00	0	54	0	657457152	49	3884
2026-01-02 11:16:01.92	142.67	14.88	-42.9	-43.8	18.1	0.00e+00	0	54	0	663748608	49	3806
2026-01-02 11:16:02.91	142.66	14.99	-42.8	-43.7	18.3	0.00e+00	0	53	0	668991488	48	3975
2026-01-02 11:16:03.90	142.64	15.09	-42.8	-43.6	18.3	0.00e+00	0	53	0	674234368	48	3937
2026-01-02 11:16:04.87	142.63	15.20	-42.9	-43.8	18.2	0.00e+00	0	54	0	679477248	48	4030
2026-01-02 11:16:05.87	142.61	15.30	-42.7	-43.6	18.4	0.00e+00	0	54	0	685768704	48	3929
2026-01-02 11:16:06.85	142.59	15.41	-42.5	-43.4	18.6	0.00e+00	0	54	0	691011584	48	3825
2026-01-02 11:16:07.84	142.58	15.52	-42.4	-43.2	18.7	0.00e+00	0	54	0	696254464	48	3777
2026-01-02 11:16:08.83	142.56	15.62	-42.5	-43.3	18.6	0.00e+00	0	54	0	702545920	48	3800
2026-01-02 11:16:09.81	142.55	15.73	-42.4	-43.2	18.7	0.00e+00	0	54	0	707788800	48	3756
2026-01-02 11:16:10.81	142.53	15.84	-42.2	-43.0	18.8	0.00e+00	0	54	0	713031680	47	3871
2026-01-02 11:16:11.80	142.51	15.95	-42.2	-43.0	18.8	0.00e+00	0	54	0	718274560	47	3910
2026-01-02 11:16:12.78	142.49	16.06	-42.4	-43.2	18.6	0.00e+00	0	54	0	724566016	47	3985
2026-01-02 11:16:13.78	142.48	16.17	-42.3	-43.1	18.7	0.00e+00	0	54	0	729808896	47	3922
2026-01-02 11:16:14.76	142.46	16.28	-42.1	-42.9	18.9	0.00e+00	0	54	0	736100352	47	3838
2026-01-02 11:16:15.75	142.44	16.39	-42.1	-42.9	18.9	0.00e+00	0	54	0	741343232	47	3845
2026-01-02 11:16:16.75	142.42	16.51	-42.3	-43.0	18.7	0.00e+00	0	54	0	746586112	47	3912
2026-01-02 11:16:17.73	142.41	16.62	-42.3	-43.1	18.7	0.00e+00	0	54	0	751828992	47	3958
2026-01-02 11:16:18.73	142.39	16.73	-42.3	-43.1	18.7	0.00e+00	0	54	0	758120448	47	3955
2026-01-02 11:16:19.71	142.37	16.85	-42.4	-43.2	18.6	0.00e+00	0	54	0	763363328	47	3986
2026-01-02 11:16:20.70	142.35	16.96	-42.3	-43.1	18.7	0.00e+00	0	54	0	768606208	47	3933
2026-01-02 11:16:21.69	142.33	17.07	-42.2	-42.9	18.9	0.00e+00	0	54	0	774897664	47	3864
2026-01-02 11:16:22.68	142.31	17.19	-42.2	-43.0	18.8	0.00e+00	0	54	0	780140544	47	3903
2026-01-02 11:16:23.66	142.29	17.30	-42.2	-43.0	18.8	0.00e+00	0	54	0	785383424	47	3887
2026-01-02 11:16:24.65	142.28	17.42	-42.4	-43.2	18.7	0.00e+00	0	54	0	790626304	47	3965
2026-01-02 11:16:25.64	142.26	17.54	-42.3	-43.1	18.7	0.00e+00	0	54	0	796917760	47	3925
2026-01-02 11:16:26.63	142.24	17.65	-42.0	-42.8	19.0	0.00e+00	0	54	0	802160640	47	3787
2026-01-02 11:16:27.62	142.22	17.77	-41.8	-42.5	19.3	0.00e+00	0	54	0	807403520	46	3904
2026-01-02 11:16:28.61	142.20	17.89	-41.6	-42.3	19.5	0.00e+00	0	54	0	813694976	46	3800
2026-01-02 11:16:29.59	142.18	18.01	-41.5	-42.3	19.5	0.00e+00	0	54	0	818937856	46	3783
2026-01-02 11:16:30.58	142.16	18.13	-41.5	-42.2	19.6	0.00e+00	0	54	0	824180736	46	3767
2026-01-02 11:16:31.57	142.14	18.25	-41.5	-42.2	19.6	0.00e+00	0	54	0	830472192	46	3751
2026-01-02 11:16:32.56	142.12	18.37	-41.6	-42.3	19.5	0.00e+00	0	54	0	835715072	46	3807
2026-01-02 11:16:33.55	142.10	18.49	-41.7	-42.5	19.3	0.00e+00	0	54	0	840957952	46	3886
2026-01-02 11:16:34.54	142.07	18.61	-41.7	-42.4	19.4	0.00e+00	0	54	0	846200832	46	3864
2026-01-02 11:16:35.53	142.05	18.74	-41.5	-42.2	19.6	0.00e+00	0	54	0	852492288	46	3778
2026-01-02 11:16:36.53	142.03	18.86	-41.5	-42.2	19.6	0.00e+00	0	54	0	857735168	46	3756
2026-01-02 11:16:37.52	142.01	18.98	-41.4	-42.2	19.7	0.00e+00	0	54	0	864026624	46	3741
2026-01-02 11:16:38.51	141.99	19.11	-41.5	-42.2	19.6	0.00e+00	0	54	0	869269504	46	3764
2026-01-02 11:16:39.50	141.97	19.23	-41.6	-42.3	19.5	0.00e+00	0	54	0	874512384	46	3800
2026-01-02 11:16:40.48	141.94	19.36	-41.6	-42.3	19.5	0.00e+00	0	54	0	879755264	46	3813
2026-01-02 11:16:41.46	141.92	19.48	-41.5	-42.2	19.6	0.00e+00	0	54	0	886046720	46	3756
2026-01-02 11:16:42.45	141.90	19.61	-41.4	-42.1	19.7	0.00e+00	0	55	0	891289600	46	3723
2026-01-02 11:16:43.43	141.88	19.74	-41.4	-42.1	19.7	0.00e+00	0	54	0	896532480	45	3928
2026-01-02 11:16:44.42	141.85	19.86	-41.4	-42.1	19.7	0.00e+00	0	54	0	902823936	45	3946
2026-01-02 11:16:45.42	141.83	19.99	-41.4	-42.1	19.6	0.00e+00	0	54	0	908066816	45	3954
2026-01-02 11:16:46.41	141.81	20.12	-41.3	-42.0	19.8	0.00e+00	0	55	0	913309696	45	3885
2026-01-02 11:16:47.39	141.78	20.25	-41.3	-42.0	19.8	0.00e+00	0	54	0	918552576	45	3896
2026-01-02 11:16:48.39	141.76	20.38	-41.3	-42.0	19.7	0.00e+00	0	54	0	924844032	45	3908
2026-01-02 11:16:49.38	141.74	20.52	-41.2	-41.9	19.9	0.00e+00	0	54	0	930086912	45	3831
2026-01-02 11:16:50.37	141.71	20.65	-41.2	-41.9	19.9	0.00e+00	0	54	0	935329792	45	3861
2026-01-02 11:16:51.36	141.69	20.78	-41.3	-42.0	19.8	0.00e+00	0	55	0	941621248	45	3900
2026-01-02 11:16:52.35	141.66	20.92	-41.3	-42.0	19.8	0.00e+00	0	55	0	946864128	45	3900
2026-01-02 11:16:53.34	141.64	21.05	-41.5	-42.2	19.6	0.00e+00	0	55	0	952107008	45	3990
2026-01-02 11:16:54.34	141.61	21.19	-41.6	-42.3	19.5	0.00e+00	0	55	0	958398464	45	4039
2026-01-02 11:16:55.33	141.59	21.32	-41.3	-42.0	19.8	0.00e+00	0	55	0	963641344	45	3888
2026-01-02 11:16:56.32	141.56	21.46	-41.1	-41.7	20.0	0.00e+00	0	55	0	968884224	45	3780
2026-01-02 11:16:57.31	141.53	21.60	-41.0	-41.7	20.1	0.00e+00	0	55	0	975175680	45	3741
2026-01-02 11:16:58.30	141.51	21.73	-40.9	-41.6	20.2	0.00e+00	0	55	0	980418560	45	3709
2026-01-02 11:16:59.30	141.48	21.87	-41.0	-41.7	20.1	0.00e+00	0	55	0	985661440	45	3747
2026-01-02 11:17:00.28	141.45	22.01	-40.9	-41.5	20.2	0.00e+00	0	55	0	991952896	44	3911
2026-01-02 11:17:01.27	141.43	22.15	-41.0	-41.6	20.2	0.00e+00	0	55	0	997195776	44	3948
2026-01-02 11:17:02.26	141.40	22.29	-40.7	-41.4	20.4	0.00e+00	0	55	0	1002438656	44	3829
2026-01-02 11:17:03.24	141.37	22.43	-40.5	-41.2	20.6	0.00e+00	0	55	0	1007681536	44	3744
2026-01-02 11:17:04.23	141.34	22.58	-40.5	-41.1	20.7	0.00e+00	0	55	0	1013972992	44	3712
2026-01-02 11:17:05.21	141.31	22.72	-40.5	-41.1	20.6	0.00e+00	0	55	0	1019215872	44	3735
2026-01-02 11:17:06.19	141.29	22.86	-40.4	-41.1	20.7	0.00e+00	0	55	0	1024458752	44	3711
2026-01-02 11:17:07.18	141.26	23.01	-40.5	-41.1	20.6	0.00e+00	0	55	0	1030750208	44	3736
2026-01-02 11:17:08.16	141.23	23.15	-40.5	-41.1	20.6	0.00e+00	0	55	0	1035993088	44	3737
2026-01-02 11:17:09.14	141.20	23.30	-40.6	-41.2	20.5	0.00e+00	0	55	0	1041235968	44	3780
2026-01-02 11:17:10.14	141.17	23.44	-40.5	-41.2	20.6	0.00e+00	0	55	0	1046478848	44	3757
2026-01-02 11:17:11.13	141.14	23.59	-40.7	-41.3	20.5	0.00e+00	0	55	0	1052770304	44	3817
2026-01-02 11:17:12.12	141.11	23.74	-40.9	-41.6	20.3	0.00e+00	0	55	0	1058013184	44	3926
2026-01-02 11:17:13.11	141.08	23.89	-40.8	-41.4	20.4	0.00e+00	0	55	0	1064304640	44	3862
2026-01-02 11:17:14.10	141.05	24.04	-41.0	-41.6	20.2	0.00e+00	0	55	0	1069547520	44	3950
2026-01-02 11:17:15.09	141.02	24.19	-41.2	-41.9	20.0	0.00e+00	0	55	0	1074790400	44	4074
2026-01-02 11:17:16.08	140.98	24.35	-41.0	-41.7	20.1	0.00e+00	0	55	0	1080033280	44	3980
2026-01-02 11:17:17.07	140.95	24.50	-40.9	-41.6	20.3	0.00e+00	0	55	0	1086324736	44	3918
2026-01-02 11:17:18.07	140.92	24.66	-40.9	-41.6	20.2	0.00e+00	0	55	0	1091567616	44	3944
2026-01-02 11:17:19.07	140.88	24.81	-41.0	-41.7	20.2	0.00e+00	0	55	0	1096810496	44	3963
2026-01-02 11:17:20.06	140.85	24.97	-41.1	-41.8	20.1	0.00e+00	0	55	0	1103101952	44	4015
2026-01-02 11:17:21.05	140.82	25.13	-41.4	-42.1	19.8	0.00e+00	0	55	0	1108344832	44	4170
2026-01-02 11:17:22.04	140.78	25.28	-41.1	-41.7	20.1	0.00e+00	0	55	0	1113587712	44	3997
2026-01-02 11:17:23.03	140.75	25.44	-40.8	-41.4	20.4	0.00e+00	0	55	0	1119879168	44	3865
2026-01-02 11:17:24.02	140.72	25.60	-40.6	-41.2	20.6	0.00e+00	0	55	0	1125122048	44	3775
2026-01-02 11:17:25.01	140.68	25.76	-40.5	-41.2	20.7	0.00e+00	0	55	0	1130364928	44	3750
2026-01-02 11:17:26.00	140.64	25.93	-40.5	-41.1	20.7	0.00e+00	0	55	0	1135607808	44	3732
2026-01-02 11:17:26.99	140.61	26.09	-40.6	-41.2	20.6	0.00e+00	0	55	0	1141899264	44	3774
2026-01-02 11:17:27.98	140.57	26.25	-40.4	-41.1	20.8	0.00e+00	0	55	0	1147142144	44	3702
2026-01-02 11:17:28.98	140.54	26.42	-40.3	-40.9	20.8	0.00e+00	0	55	0	1153433600	43	3846
2026-01-02 11:17:29.97	140.50	26.58	-40.3	-41.0	20.8	0.00e+00	0	55	0	1158676480	43	3885
2026-01-02 11:17:30.95	140.46	26.75	-40.3	-40.9	20.8	0.00e+00	0	55	0	1163919360	43	3849
2026-01-02 11:17:31.94	140.42	26.92	-40.3	-40.9	20.8	0.00e+00	0	55	0	1169162240	43	3855
2026-01-02 11:17:32.93	140.38	27.09	-40.4	-41.1	20.6	0.00e+00	0	55	0	1175453696	43	3930
2026-01-02 11:17:33.92	140.35	27.26	-40.4	-41.1	20.7	0.00e+00	0	56	0	1180696576	43	3917
2026-01-02 11:17:34.91	140.31	27.43	-40.4	-41.0	20.7	0.00e+00	0	55	0	1185939456	43	3901
2026-01-02 11:17:35.89	140.27	27.60	-40.4	-41.1	20.7	0.00e+00	0	55	0	1192230912	43	3923
2026-01-02 11:17:36.88	140.23	27.77	-40.6	-41.3	20.5	0.00e+00	0	55	0	1197473792	43	4008
2026-01-02 11:17:37.88	140.19	27.95	-40.5	-41.1	20.6	0.00e+00	0	56	0	1202716672	43	3948
2026-01-02 11:17:38.86	140.14	28.12	-40.3	-41.0	20.7	0.00e+00	0	55	0	1209008128	43	3886
2026-01-02 11:17:39.85	140.10	28.30	-40.4	-41.0	20.7	0.00e+00	0	56	0	1214251008	43	3896
2026-01-02 11:17:40.84	140.06	28.47	-40.5	-41.2	20.5	0.00e+00	0	55	0	1219493888	43	3980
2026-01-02 11:17:41.83	140.02	28.65	-40.4	-41.0	20.7	0.00e+00	0	55	0	1224736768	43	3900
2026-01-02 11:17:42.82	139.97	28.83	-40.2	-40.8	20.9	0.00e+00	0	55	0	1231028224	43	3805
2026-01-02 11:17:43.81	139.93	29.01	-40.1	-40.7	21.0	0.00e+00	0	56	0	1236271104	43	3763
2026-01-02 11:17:44.79	139.89	29.19	-40.1	-40.7	21.0	0.00e+00	0	55	0	1241513984	43	3766
2026-01-02 11:17:45.78	139.84	29.37	-40.2	-40.8	20.9	0.00e+00	0	56	0	1247805440	43	3801
2026-01-02 11:17:46.78	139.80	29.56	-40.4	-41.0	20.7	0.00e+00	0	55	0	1253048320	43	3893
2026-01-02 11:17:47.77	139.75	29.75	-40.3	-40.9	20.8	0.00e+00	0	56	0	1258291200	43	3857
2026-01-02 11:17:48.76	139.70	29.93	-40.4	-41.0	20.7	0.00e+00	0	56	0	1264582656	43	3902
2026-01-02 11:17:49.75	139.66	30.12	-40.6	-41.3	20.4	0.00e+00	0	56	0	1269825536	43	4030
2026-01-02 11:17:50.74	139.61	30.31	-40.6	-41.2	20.5	0.00e+00	0	55	0	1275068416	43	3999
2026-01-02 11:17:51.73	139.56	30.50	-40.3	-40.9	20.8	0.00e+00	0	56	0	1281359872	43	3857
2026-01-02 11:17:52.73	139.51	30.69	-40.0	-40.7	21.0	0.00e+00	0	56	0	1286602752	43	3756
2026-01-02 11:17:53.72	139.46	30.89	-39.9	-40.6	21.1	0.00e+00	0	56	0	1291845632	43	3701
2026-01-02 11:17:54.72	139.41	31.08	-39.9	-40.6	21.1	0.00e+00	0	56	0	1298137088	43	3706
2026-01-02 11:17:55.71	139.36	31.28	-39.8	-40.5	21.2	0.00e+00	0	56	0	1303379968	42	3870
2026-01-02 11:17:56.70	139.31	31.47	-39.9	-40.5	21.2	0.00e+00	0	56	0	1308622848	42	3885
2026-01-02 11:17:57.69	139.26	31.67	-40.2	-40.8	20.9	0.00e+00	0	56	0	1314914304	42	4021
2026-01-02 11:17:58.68	139.20	31.87	-40.0	-40.7	21.0	0.00e+00	0	56	0	1320157184	42	3961
2026-01-02 11:17:59.68	139.15	32.07	-39.7	-40.3	21.3	0.00e+00	0	56	0	1325400064	42	3813
2026-01-02 11:18:00.67	139.09	32.27	-39.5	-40.1	21.5	0.00e+00	0	56	0	1331691520	42	3721
2026-01-02 11:18:01.66	139.04	32.48	-39.4	-40.0	21.6	0.00e+00	0	56	0	1336934400	42	3677
2026-01-02 11:18:02.64	138.98	32.68	-39.4	-40.0	21.6	0.00e+00	0	56	0	1342177280	42	3682
2026-01-02 11:18:03.63	138.93	32.89	-39.5	-40.1	21.6	0.00e+00	0	56	0	1347420160	42	3699
2026-01-02 11:18:04.62	138.87	33.09	-39.6	-40.2	21.5	0.00e+00	0	56	0	1353711616	42	3757
2026-01-02 11:18:05.61	138.81	33.30	-39.7	-40.3	21.4	0.00e+00	0	56	0	1358954496	42	3805
2026-01-02 11:18:06.60	138.75	33.51	-39.7	-40.4	21.3	0.00e+00	0	56	0	1364197376	42	3830
2026-01-02 11:18:07.60	138.69	33.72	-39.7	-40.3	21.4	0.00e+00	0	56	0	1370488832	42	3808
2026-01-02 11:18:08.58	138.63	33.94	-39.5	-40.1	21.6	0.00e+00	0	56	0	1375731712	42	3724
2026-01-02 11:18:09.57	138.57	34.15	-39.5	-40.1	21.6	0.00e+00	0	56	0	1380974592	42	3703
2026-01-02 11:18:10.56	138.51	34.37	-39.3	-39.9	21.8	0.00e+00	0	56	0	1387266048	41	3841
2026-01-02 11:18:11.55	138.45	34.58	-39.3	-39.8	21.9	0.00e+00	0	56	0	1392508928	41	3809
2026-01-02 11:18:12.54	138.38	34.80	-39.2	-39.8	21.9	0.00e+00	0	56	0	1397751808	41	3789
2026-01-02 11:18:13.53	138.32	35.02	-39.1	-39.6	22.0	0.00e+00	0	56	0	1404043264	41	3727
2026-01-02 11:18:14.52	138.25	35.24	-39.1	-39.7	22.0	0.00e+00	0	56	0	1409286144	41	3761
2026-01-02 11:18:15.51	138.19	35.47	-39.2	-39.8	21.9	0.00e+00	0	56	0	1414529024	41	3784
2026-01-02 11:18:16.50	138.12	35.69	-39.3	-39.8	21.8	0.00e+00	0	56	0	1419771904	41	3813
2026-01-02 11:18:17.48	138.05	35.91	-39.4	-40.0	21.9	0.00e+00	0	56	0	1426063360	41	3885
2026-01-02 11:18:18.47	137.98	36.14	-39.5	-40.0	21.9	0.00e+00	0	56	0	1431306240	41	3901
2026-01-02 11:18:19.46	137.91	36.37	-39.4	-39.9	22.0	0.00e+00	0	56	0	1436549120	41	3863
2026-01-02 11:18:20.45	137.84	36.60	-39.4	-39.9	22.0	0.00e+00	0	56	0	1442840576	41	3857
2026-01-02 11:18:21.44	137.77	36.84	-39.6	-40.1	21.8	0.00e+00	0	56	0	1448083456	41	3955
2026-01-02 11:18:22.42	137.69	37.07	-39.8	-40.3	21.6	0.00e+00	0	56	0	1453326336	41	4040
2026-01-02 11:18:23.42	137.62	37.30	-39.7	-40.3	21.7	0.00e+00	0	56	0	1459617792	41	4009
2026-01-02 11:18:24.41	137.54	37.54	-39.9	-40.5	21.5	0.00e+00	0	56	0	1464860672	41	4103
2026-01-02 11:18:25.40	137.46	37.78	-40.0	-40.6	21.4	0.00e+00	0	56	0	1470103552	42	3916
2026-01-02 11:18:26.40	137.38	38.02	-39.8	-40.4	21.6	0.00e+00	0	56	0	1475346432	42	3827
2026-01-02 11:18:27.39	137.30	38.27	-39.8	-40.4	21.6	0.00e+00	0	56	0	1481637888	42	3829
2026-01-02 11:18:28.37	137.22	38.51	-40.0	-40.5	21.5	0.00e+00	0	56	0	1486880768	42	3899
2026-01-02 11:18:29.36	137.14	38.75	-40.1	-40.6	21.4	0.00e+00	0	56	0	1492123648	42	3952
2026-01-02 11:18:30.34	137.06	39.00	-40.2	-40.8	21.2	0.00e+00	0	56	0	1498415104	42	4014
2026-01-02 11:18:31.32	136.97	39.25	-40.3	-40.9	21.1	0.00e+00	0	56	0	1503657984	42	4078
2026-01-02 11:18:32.31	136.89	39.50	-40.0	-40.6	21.4	0.00e+00	0	56	0	1508900864	42	3922
2026-01-02 11:18:33.30	136.80	39.75	-39.9	-40.4	21.6	0.00e+00	0	56	0	1515192320	42	3850
2026-01-02 11:18:34.29	136.71	40.00	-39.8	-40.4	21.6	0.00e+00	0	56	0	1520435200	42	3833
2026-01-02 11:18:35.28	136.62	40.26	-39.9	-40.4	21.5	0.00e+00	0	56	0	1525678080	42	3868
2026-01-02 11:18:36.27	136.53	40.52	-39.9	-40.5	21.5	0.00e+00	0	56	0	1531969536	42	3872
2026-01-02 11:18:37.26	136.44	40.78	-40.1	-40.7	21.3	0.00e+00	0	56	0	1537212416	42	3961
2026-01-02 11:18:38.25	136.34	41.04	-40.2	-40.8	21.2	0.00e+00	0	56	0	1542455296	42	4031
2026-01-02 11:18:39.24	136.24	41.30	-40.1	-40.7	21.3	0.00e+00	0	56	0	1547698176	42	3972
2026-01-02 11:18:40.22	136.15	41.56	-40.4	-40.9	21.0	0.00e+00	0	56	0	1553989632	42	4094
2026-01-02 11:18:41.21	136.05	41.83	-40.6	-41.2	20.8	0.00e+00	0	56	0	1559232512	43	3978
2026-01-02 11:18:42.21	135.94	42.10	-40.4	-41.0	21.0	0.00e+00	0	56	0	1565523968	43	3877
2026-01-02 11:18:43.19	135.84	42.37	-40.4	-41.0	21.0	0.00e+00	0	56	0	1570766848	43	3905
2026-01-02 11:18:44.18	135.73	42.64	-40.4	-41.0	21.0	0.00e+00	0	56	0	1576009728	43	3894
2026-01-02 11:18:45.17	135.63	42.92	-40.6	-41.2	20.9	0.00e+00	0	56	0	1581252608	43	3959
2026-01-02 11:18:46.15	135.52	43.19	-40.8	-41.4	20.6	0.00e+00	0	56	0	1586495488	43	4088
2026-01-02 11:18:47.15	135.41	43.47	-40.5	-41.1	20.9	0.00e+00	0	56	0	1592786944	43	3920
2026-01-02 11:18:48.14	135.29	43.75	-40.3	-40.8	21.1	0.00e+00	0	56	0	1598029824	43	3823
2026-01-02 11:18:49.13	135.18	44.03	-40.1	-40.7	21.3	0.00e+00	0	56	0	1604321280	43	3751
2026-01-02 11:18:50.12	135.06	44.32	-39.9	-40.5	21.5	0.00e+00	0	56	0	1609564160	43	3657
2026-01-02 11:18:51.12	134.94	44.60	-39.9	-40.5	21.5	0.00e+00	0	56	0	1614807040	43	3664
2026-01-02 11:18:52.11	134.82	44.89	-39.9	-40.5	21.5	0.00e+00	0	56	0	1621098496	43	3663
2026-01-02 11:18:53.10	134.69	45.18	-40.4	-41.0	21.1	0.00e+00	0	56	0	1626341376	43	3872
2026-01-02 11:18:54.09	134.57	45.47	-40.3	-40.9	21.1	0.00e+00	0	56	0	1631584256	43	3849
2026-01-02 11:18:55.08	134.44	45.77	-40.9	-41.6	20.5	0.00e+00	0	56	0	1636827136	43	4149
2026-01-02 11:18:56.07	134.31	46.06	-40.7	-41.3	20.7	0.00e+00	0	56	0	1643118592	43	4026
2026-01-02 11:18:57.06	134.17	46.36	-40.3	-40.9	21.1	0.00e+00	0	56	0	1648361472	43	3867
2026-01-02 11:18:58.06	134.04	46.66	-40.0	-40.6	21.4	0.00e+00	0	56	0	1654652928	43	3711
2026-01-02 11:18:59.05	133.90	46.96	-39.9	-40.4	21.5	0.00e+00	0	56	0	1659895808	43	3652
2026-01-02 11:19:00.04	133.75	47.27	-40.1	-40.6	21.4	0.00e+00	0	56	0	1665138688	43	3731
2026-01-02 11:19:01.04	133.61	47.57	-40.0	-40.6	21.4	0.00e+00	0	56	0	1670381568	43	3700
2026-01-02 11:19:02.03	133.46	47.88	-40.3	-40.9	21.2	0.00e+00	0	56	0	1676673024	43	3837
2026-01-02 11:19:03.02	133.31	48.19	-40.3	-40.9	21.1	0.00e+00	0	56	0	1681915904	43	3837
2026-01-02 11:19:04.01	133.16	48.50	-40.4	-41.0	21.1	0.00e+00	0	57	0	1687158784	43	3881
2026-01-02 11:19:05.00	133.00	48.82	-40.7	-41.3	20.7	0.00e+00	0	56	0	1693450240	43	4024
2026-01-02 11:19:05.99	132.84	49.13	-40.6	-41.2	20.8	0.00e+00	0	56	0	1698693120	43	3990
2026-01-02 11:19:06.97	132.67	49.45	-41.0	-41.6	20.4	0.00e+00	0	56	0	1703936000	43	4185
2026-01-02 11:19:07.96	132.51	49.76	-41.4	-42.1	20.1	0.00e+00	0	56	0	1710227456	44	4161
2026-01-02 11:19:08.95	132.34	50.09	-41.1	-41.7	20.5	0.00e+00	0	57	0	1715470336	44	3979
2026-01-02 11:19:09.94	132.16	50.41	-41.0	-41.6	20.6	0.00e+00	0	56	0	1720713216	44	3921
2026-01-02 11:19:10.94	131.98	50.74	-41.0	-41.6	20.5	0.00e+00	0	56	0	1725956096	44	3950
2026-01-02 11:19:11.92	131.80	51.06	-41.2	-41.8	20.4	0.00e+00	0	56	0	1732247552	44	4031
2026-01-02 11:19:12.91	131.61	51.39	-41.2	-41.8	20.3	0.00e+00	0	56	0	1737490432	44	4051
2026-01-02 11:19:13.90	131.42	51.72	-41.2	-41.8	20.3	0.00e+00	0	56	0	1742733312	44	4042
2026-01-02 11:19:14.88	131.23	52.05	-41.2	-41.8	20.4	0.00e+00	0	56	0	1749024768	44	4039
2026-01-02 11:19:15.87	131.03	52.39	-41.3	-41.9	20.3	0.00e+00	0	56	0	1754267648	44	4079
2026-01-02 11:19:16.85	130.83	52.72	-41.2	-41.8	20.4	0.00e+00	0	56	0	1759510528	44	4049
2026-01-02 11:19:17.85	130.61	53.06	-41.3	-41.9	20.3	0.00e+00	0	56	0	1764753408	44	4080
2026-01-02 11:19:18.84	130.40	53.40	-41.1	-41.7	20.5	0.00e+00	0	56	0	1771044864	44	3993
2026-01-02 11:19:19.84	130.18	53.75	-40.9	-41.5	20.7	0.00e+00	0	57	0	1776287744	44	3887
2026-01-02 11:19:20.82	129.96	54.09	-41.2	-41.8	20.4	0.00e+00	0	56	0	1782579200	44	4021
2026-01-02 11:19:21.81	129.72	54.44	-41.1	-41.7	20.5	0.00e+00	0	56	0	1787822080	44	3985
2026-01-02 11:19:22.81	129.49	54.79	-41.2	-41.8	20.4	0.00e+00	0	56	0	1793064960	44	4022
2026-01-02 11:19:23.80	129.24	55.14	-41.3	-41.9	20.3	0.00e+00	0	56	0	1798307840	44	4079
2026-01-02 11:19:24.79	129.00	55.49	-41.1	-41.8	20.5	0.00e+00	0	56	0	1804599296	44	4016
2026-01-02 11:19:25.78	128.74	55.84	-41.0	-41.7	20.5	0.00e+00	0	56	0	1809842176	44	3960
2026-01-02 11:19:26.78	128.48	56.20	-40.9	-41.5	20.7	0.00e+00	0	57	0	1816133632	44	3878
2026-01-02 11:19:27.77	128.21	56.56	-40.7	-41.3	20.9	0.00e+00	0	56	0	1821376512	44	3790
2026-01-02 11:19:28.76	127.93	56.92	-40.6	-41.2	21.0	0.00e+00	0	56	0	1826619392	44	3755
2026-01-02 11:19:29.74	127.65	57.28	-40.6	-41.1	21.1	0.00e+00	0	56	0	1831862272	44	3728
2026-01-02 11:19:30.72	127.36	57.63	-40.9	-41.5	20.7	0.00e+00	0	56	0	1838153728	44	3894
2026-01-02 11:19:31.71	127.07	58.00	-41.0	-41.6	20.6	0.00e+00	0	56	0	1843396608	44	3955
2026-01-02 11:19:32.70	126.76	58.36	-41.3	-41.9	20.3	0.00e+00	0	57	0	1848639488	44	4075
2026-01-02 11:19:33.69	126.44	58.73	-40.9	-41.5	20.7	0.00e+00	0	56	0	1854930944	44	3882
2026-01-02 11:19:34.68	126.12	59.10	-40.8	-41.3	20.8	0.00e+00	0	57	0	1860173824	44	3824
2026-01-02 11:19:35.67	125.79	59.46	-41.0	-41.6	20.6	0.00e+00	0	57	0	1865416704	44	3930
2026-01-02 11:19:36.66	125.44	59.83	-40.6	-41.2	21.0	0.00e+00	0	56	0	1871708160	44	3756
2026-01-02 11:19:37.66	125.09	60.21	-40.3	-40.9	21.2	0.00e+00	0	56	0	1876951040	43	3832
2026-01-02 11:19:38.65	124.72	60.58	-40.7	-41.3	20.8	0.00e+00	0	56	0	1882193920	43	4010
2026-01-02 11:19:39.64	124.35	60.96	-41.0	-41.6	20.5	0.00e+00	0	56	0	1887436800	43	4168
2026-01-02 11:19:40.62	123.96	61.33	-41.1	-41.7	20.4	0.00e+00	0	56	0	1893728256	43	4215
2026-01-02 11:19:41.61	123.57	61.70	-40.9	-41.5	20.7	0.00e+00	0	57	0	1898971136	44	3904
2026-01-02 11:19:42.59	123.16	62.08	-40.7	-41.3	20.9	0.00e+00	0	57	0	1904214016	44	3797
2026-01-02 11:19:43.59	122.73	62.46	-39.9	-40.7	21.2	0.00e+00	0	56	0	1910505472	43	3777
2026-01-02 11:19:44.58	122.29	62.84	-39.8	-40.3	21.7	0.00e+00	0	56	0	1915748352	42	3794
2026-01-02 11:19:45.57	121.84	63.21	-39.7	-40.2	21.8	0.00e+00	0	57	0	1920991232	42	3780
2026-01-02 11:19:46.56	121.38	63.59	-39.8	-40.4	21.6	0.00e+00	0	57	0	1927282688	42	3833
2026-01-02 11:19:47.55	120.89	63.97	-39.4	-40.0	22.0	0.00e+00	0	56	0	1932525568	42	3658
2026-01-02 11:19:48.54	120.40	64.35	-38.9	-39.4	22.5	0.00e+00	0	57	0	1937768448	41	3640
2026-01-02 11:19:49.53	119.88	64.73	-39.3	-39.8	22.1	0.00e+00	0	57	0	1944059904	41	3802
2026-01-02 11:19:50.52	119.35	65.11	-39.7	-40.3	21.7	0.00e+00	0	57	0	1949302784	41	4006
2026-01-02 11:19:51.51	118.80	65.49	-39.7	-40.2	21.8	0.00e+00	0	57	0	1954545664	41	3983
2026-01-02 11:19:52.50	118.23	65.87	-39.7	-40.2	21.8	0.00e+00	0	57	0	1959788544	41	4004
2026-01-02 11:19:53.49	117.64	66.25	-40.0	-40.5	21.5	0.00e+00	0	57	0	1966080000	41	4125
2026-01-02 11:19:54.48	117.03	66.63	-40.5	-41.1	21.0	0.00e+00	0	57	0	1971322880	42	4189
2026-01-02 11:19:55.46	116.40	67.00	-40.6	-41.2	20.9	0.00e+00	0	57	0	1976565760	43	3996
2026-01-02 11:19:56.45	115.74	67.38	-39.9	-40.5	21.6	0.00e+00	0	56	0	1982857216	43	3661
2026-01-02 11:19:57.44	115.06	67.75	-39.7	-40.2	21.8	0.00e+00	0	56	0	1988100096	42	3746
2026-01-02 11:19:58.43	114.36	68.13	-39.9	-40.4	21.7	0.00e+00	0	57	0	1993342976	42	3844
2026-01-02 11:19:59.43	113.62	68.50	-39.8	-40.3	21.7	0.00e+00	0	57	0	1999634432	42	3814
2026-01-02 11:20:00.41	112.86	68.87	-39.7	-40.2	21.9	0.00e+00	0	56	0	2004877312	42	3750
2026-01-02 11:20:01.40	112.07	69.24	-39.9	-40.5	21.6	0.00e+00	0	57	0	2010120192	42	3888
2026-01-02 11:20:02.38	111.26	69.60	-39.5	-40.0	22.0	0.00e+00	0	56	0	2015363072	42	3684
2026-01-02 11:20:03.37	110.41	69.96	-39.2	-39.7	22.3	0.00e+00	0	56	0	2021654528	41	3752
2026-01-02 11:20:04.37	109.51	70.33	-39.2	-39.7	22.3	0.00e+00	0	57	0	2026897408	41	3759
2026-01-02 11:20:05.36	108.59	70.68	-39.3	-39.8	22.2	0.00e+00	0	57	0	2033188864	41	3808
2026-01-02 11:20:06.35	107.63	71.04	-39.3	-39.9	22.1	0.00e+00	0	57	0	2038431744	41	3828
2026-01-02 11:20:07.35	106.62	71.39	-39.7	-40.3	21.7	0.00e+00	0	57	0	2043674624	41	4008
2026-01-02 11:20:08.33	105.59	71.73	-39.7	-40.2	21.8	0.00e+00	0	57	0	2048917504	41	3984
2026-01-02 11:20:09.31	104.52	72.07	-39.6	-40.2	21.8	0.00e+00	0	57	0	2055208960	41	3973
2026-01-02 11:20:10.31	103.38	72.41	-40.0	-40.6	21.5	0.00e+00	0	56	0	2060451840	41	4164
2026-01-02 11:20:11.29	102.22	72.73	-40.1	-40.7	21.4	0.00e+00	0	57	0	2065694720	41	4195
2026-01-02 11:20:12.28	101.01	73.05	-40.3	-40.8	21.3	0.00e+00	0	57	0	2071986176	42	4039
2026-01-02 11:20:13.26	99.75	73.37	-40.0	-40.6	21.5	0.00e+00	0	57	0	2077229056	42	3919
2026-01-02 11:20:14.25	98.44	73.68	-40.0	-40.5	21.6	0.00e+00	0	57	0	2082471936	42	3897
2026-01-02 11:20:15.24	97.07	73.98	-39.8	-40.4	21.7	0.00e+00	0	57	0	2087714816	42	3845
2026-01-02 11:20:16.23	95.64	74.27	-39.7	-40.2	21.8	0.00e+00	0	57	0	2094006272	42	3767
2026-01-02 11:20:17.22	94.16	74.55	-39.8	-40.3	21.7	0.00e+00	0	56	0	2099249152	42	3802
2026-01-02 11:20:18.21	92.63	74.83	-39.9	-40.4	21.6	0.00e+00	0	57	0	2105540608	42	3851
2026-01-02 11:20:19.20	91.03	75.09	-39.5	-40.0	22.0	0.00e+00	0	57	0	2110783488	42	3662
2026-01-02 11:20:20.19	89.38	75.34	-39.7	-40.2	21.8	0.00e+00	0	57	0	2116026368	42	3780
2026-01-02 11:20:21.19	87.65	75.58	-40.2	-40.8	21.3	0.00e+00	0	57	0	2121269248	42	4005
2026-01-02 11:20:22.17	85.90	75.81	-39.5	-40.0	22.0	0.00e+00	0	57	0	2127560704	42	3684
2026-01-02 11:20:23.16	84.07	76.02	-38.9	-39.4	22.6	0.00e+00	0	57	0	2132803584	41	3637
2026-01-02 11:20:24.15	82.19	76.23	-38.6	-39.0	22.9	0.00e+00	0	57	0	2138046464	40	3693
2026-01-02 11:20:25.13	80.26	76.41	-38.3	-38.8	23.2	0.00e+00	0	57	0	2144337920	39	3783
2026-01-02 11:20:26.12	78.27	76.58	-38.0	-38.5	23.5	0.00e+00	0	57	0	2149580800	39	3660
2026-01-02 11:20:27.11	76.23	76.74	-38.0	-38.5	23.5	0.00e+00	0	57	0	2154823680	39	3659
2026-01-02 11:20:28.09	74.16	76.87	-38.0	-38.5	23.5	0.00e+00	0	57	0	2160066560	39	3665
2026-01-02 11:20:29.07	72.05	76.99	-38.2	-38.7	23.3	0.00e+00	0	57	0	2166358016	39	3738
2026-01-02 11:20:30.06	69.87	77.10	-38.7	-39.2	22.8	0.00e+00	0	57	0	2171600896	39	3980
2026-01-02 11:20:31.05	67.67	77.18	-38.6	-39.2	22.8	0.00e+00	0	57	0	2176843776	39	3960
2026-01-02 11:20:32.04	65.44	77.25	-38.4	-38.9	23.0	0.00e+00	0	57	0	2183135232	39	3858
2026-01-02 11:20:33.02	63.21	77.29	-37.8	-38.2	23.7	0.00e+00	0	57	0	2188378112	38	3763
2026-01-02 11:20:34.01	60.94	77.32	-37.7	-38.1	23.8	0.00e+00	0	57	0	2193620992	38	3730
2026-01-02 11:20:35.01	58.65	77.33	-37.9	-38.4	23.6	0.00e+00	0	57	0	2199912448	38	3829
2026-01-02 11:20:36.00	56.38	77.32	-37.7	-38.1	23.8	0.00e+00	0	57	0	2205155328	38	3732
2026-01-02 11:20:36.99	54.11	77.29	-38.0	-38.5	23.5	0.00e+00	0	57	0	2210398208	38	3870
2026-01-02 11:20:37.99	51.84	77.24	-38.0	-38.5	23.5	0.00e+00	0	57	0	2215641088	38	3871
2026-01-02 11:20:38.97	49.63	77.17	-38.1	-38.5	23.4	0.00e+00	0	57	0	2221932544	38	3898
2026-01-02 11:20:39.96	47.43	77.09	-38.4	-38.9	23.1	0.00e+00	0	57	0	2227175424	38	4085
2026-01-02 11:20:40.95	45.27	76.98	-38.5	-39.0	23.0	0.00e+00	0	57	0	2232418304	38	4118
2026-01-02 11:20:41.94	43.14	76.86	-38.4	-38.9	23.1	0.00e+00	0	57	0	2238709760	38	4077
2026-01-02 11:20:42.93	41.05	76.72	-38.3	-38.8	23.2	0.00e+00	0	57	0	2243952640	38	4020
2026-01-02 11:20:43.92	39.01	76.56	-38.3	-38.8	23.2	0.00e+00	0	57	0	2249195520	38	4031
2026-01-02 11:20:44.91	37.03	76.39	-38.3	-38.8	23.2	0.00e+00	0	57	0	2255486976	38	4023
2026-01-02 11:20:45.90	35.10	76.20	-38.7	-39.2	22.8	0.00e+00	0	57	0	2260729856	39	3999
2026-01-02 11:20:46.90	33.20	76.00	-38.7	-39.2	22.9	0.00e+00	0	57	0	2265972736	39	3978
2026-01-02 11:20:47.89	31.38	75.78	-38.4	-38.8	23.2	0.00e+00	0	57	0	2272264192	39	3814
2026-01-02 11:20:48.89	29.60	75.55	-38.1	-38.5	23.4	0.00e+00	0	57	0	2277507072	39	3688
2026-01-02 11:20:49.88	27.90	75.30	-38.1	-38.5	23.5	0.00e+00	0	57	0	2282749952	39	3675
2026-01-02 11:20:50.87	26.26	75.05	-38.2	-38.7	23.3	0.00e+00	0	57	0	2289041408	39	3755
2026-01-02 11:20:51.86	24.68	74.79	-38.3	-38.8	23.2	0.00e+00	0	57	0	2294284288	39	3811
2026-01-02 11:20:52.85	23.15	74.51	-38.3	-38.7	23.3	0.00e+00	0	57	0	2299527168	39	3761
2026-01-02 11:20:53.85	21.66	74.22	-38.6	-39.1	23.0	0.00e+00	0	57	0	2304770048	39	3927
2026-01-02 11:20:54.84	20.25	73.93	-39.0	-39.5	22.5	0.00e+00	0	57	0	2311061504	39	4131
2026-01-02 11:20:55.82	18.90	73.63	-39.0	-39.5	22.6	0.00e+00	0	57	0	2316304384	39	4136
2026-01-02 11:20:56.81	17.59	73.32	-39.1	-39.6	22.5	0.00e+00	0	57	0	2322595840	39	4168
2026-01-02 11:20:57.81	16.32	73.00	-39.5	-40.0	22.0	0.00e+00	0	57	0	2327838720	40	4132
2026-01-02 11:20:58.79	15.13	72.68	-39.5	-40.1	22.0	0.00e+00	0	57	0	2333081600	41	3918
2026-01-02 11:20:59.77	13.98	72.36	-39.8	-40.3	21.7	0.00e+00	0	57	0	2338324480	41	4043
2026-01-02 11:21:00.76	12.86	72.02	-39.6	-40.1	21.9	0.00e+00	0	57	0	2344615936	41	3949
2026-01-02 11:21:01.75	11.78	71.68	-39.4	-39.9	22.1	0.00e+00	0	57	0	2349858816	41	3848
2026-01-02 11:21:02.74	10.75	71.33	-39.0	-39.5	22.5	0.00e+00	0	57	0	2355101696	41	3691
2026-01-02 11:21:03.74	9.75	70.98	-38.7	-39.2	22.7	0.00e+00	0	57	0	2361393152	40	3772
2026-01-02 11:21:04.73	8.80	70.63	-38.6	-39.0	22.9	0.00e+00	0	57	0	2366636032	40	3690
2026-01-02 11:21:05.71	7.89	70.27	-38.8	-39.3	22.7	0.00e+00	0	57	0	2371878912	40	3813
2026-01-02 11:21:06.70	7.01	69.91	-39.0	-39.5	22.5	0.00e+00	0	57	0	2377121792	40	3880
2026-01-02 11:21:07.69	6.16	69.55	-38.7	-39.2	22.8	0.00e+00	0	57	0	2383413248	40	3742
2026-01-02 11:21:08.67	5.36	69.19	-38.7	-39.1	22.8	0.00e+00	0	57	0	2388656128	40	3734
2026-01-02 11:21:09.66	4.57	68.82	-38.9	-39.4	22.5	0.00e+00	0	57	0	2394947584	40	3852
2026-01-02 11:21:10.65	3.81	68.45	-39.2	-39.7	22.2	0.00e+00	0	57	0	2400190464	40	4002
2026-01-02 11:21:11.64	3.08	68.08	-38.8	-39.3	22.6	0.00e+00	0	57	0	2405433344	40	3799
2026-01-02 11:21:12.63	2.38	67.71	-38.9	-39.4	22.6	0.00e+00	0	57	0	2410676224	40	3831
2026-01-02 11:21:13.62	1.71	67.33	-39.3	-39.8	22.2	0.00e+00	0	57	0	2416967680	40	4047
2026-01-02 11:21:14.61	1.05	66.95	-39.2	-39.7	22.3	0.00e+00	0	57	0	2422210560	40	3996
2026-01-02 11:21:15.59	0.43	66.58	-38.7	-39.2	22.7	0.00e+00	0	57	0	2427453440	40	3766
2026-01-02 11:21:16.58	359.82	66.20	-38.8	-39.3	22.7	0.00e+00	0	57	0	2433744896	40	3784
2026-01-02 11:21:17.57	359.24	65.82	-39.2	-39.8	22.2	0.00e+00	0	57	0	2438987776	40	4008
2026-01-02 11:21:18.56	358.67	65.45	-39.5	-40.0	22.0	0.00e+00	0	57	0	2444230656	40	4124
2026-01-02 11:21:19.55	358.12	65.07	-39.3	-39.8	22.1	0.00e+00	0	57	0	2449473536	40	4030
2026-01-02 11:21:20.53	357.60	64.69	-39.0	-39.5	22.4	0.00e+00	0	57	0	2455764992	40	3905
2026-01-02 11:21:21.52	357.09	64.31	-39.0	-39.5	22.5	0.00e+00	0	57	0	2461007872	40	3879
2026-01-02 11:21:22.51	356.59	63.93	-39.2	-39.7	22.3	0.00e+00	0	57	0	2466250752	40	4001
2026-01-02 11:21:23.51	356.11	63.55	-39.8	-40.3	21.7	0.00e+00	0	57	0	2472542208	41	4041
2026-01-02 11:21:24.50	355.64	63.17	-39.9	-40.5	21.6	0.00e+00	0	57	0	2477785088	41	4107
2026-01-02 11:21:25.48	355.20	62.80	-39.5	-40.0	22.0	0.00e+00	0	57	0	2483027968	41	3890
2026-01-02 11:21:26.47	354.76	62.42	-39.4	-39.9	22.1	0.00e+00	0	57	0	2489319424	41	3827
2026-01-02 11:21:27.46	354.34	62.04	-39.4	-39.9	22.1	0.00e+00	0	57	0	2494562304	41	3867
2026-01-02 11:21:28.45	353.93	61.67	-39.5	-40.0	22.0	0.00e+00	0	57	0	2499805184	41	3909
2026-01-02 11:21:29.44	353.54	61.29	-39.8	-40.3	21.7	0.00e+00	0	57	0	2505048064	41	4040
2026-01-02 11:21:30.43	353.15	60.92	-40.1	-40.7	21.4	0.00e+00	0	57	0	2511339520	42	3977
2026-01-02 11:21:31.42	352.78	60.55	-40.4	-40.9	21.2	0.00e+00	0	57	0	2516582400	42	4088
2026-01-02 11:21:32.41	352.42	60.17	-40.5	-41.0	21.0	0.00e+00	0	57	0	2522873856	42	4142
2026-01-02 11:21:33.40	352.07	59.80	-40.3	-40.9	21.2	0.00e+00	0	57	0	2528116736	42	4076
2026-01-02 11:21:34.39	351.72	59.43	-40.6	-41.2	20.9	0.00e+00	0	57	0	2533359616	42	4196
2026-01-02 11:21:35.39	351.39	59.06	-40.6	-41.3	20.8	0.00e+00	0	57	0	2538602496	43	4009
2026-01-02 11:21:36.37	351.07	58.70	-40.4	-41.0	21.1	0.00e+00	0	57	0	2544893952	43	3892
2026-01-02 11:21:37.36	350.76	58.33	-40.5	-41.0	21.0	0.00e+00	0	57	0	2550136832	43	3907
2026-01-02 11:21:38.35	350.45	57.97	-40.7	-41.3	20.8	0.00e+00	0	57	0	2555379712	43	4042
2026-01-02 11:21:39.34	350.15	57.61	-40.5	-41.1	20.9	0.00e+00	0	57	0	2561671168	43	3952
2026-01-02 11:21:40.33	349.86	57.25	-40.3	-40.8	21.2	0.00e+00	0	57	0	2566914048	43	3816
2026-01-02 11:21:41.32	349.58	56.89	-40.7	-41.3	20.7	0.00e+00	0	57	0	2572156928	43	4031
2026-01-02 11:21:42.31	349.31	56.53	-41.6	-42.2	20.0	0.00e+00	0	57	0	2577399808	44	4238
2026-01-02 11:21:43.30	349.04	56.17	-41.8	-42.5	19.7	0.00e+00	0	57	0	2583691264	45	4134
2026-01-02 11:21:44.29	348.78	55.82	-41.9	-42.5	19.7	0.00e+00	0	57	0	2588934144	45	4136
2026-01-02 11:21:45.29	348.52	55.46	-41.9	-42.6	19.7	0.00e+00	0	57	0	2594177024	45	4149
2026-01-02 11:21:46.28	348.28	55.11	-42.2	-42.9	19.4	0.00e+00	0	57	0	2600468480	46	4070
2026-01-02 11:21:47.27	348.04	54.76	-42.0	-42.7	19.6	0.00e+00	0	57	0	2605711360	46	3976
2026-01-02 11:21:48.25	347.80	54.42	-41.9	-42.6	19.6	0.00e+00	0	57	0	2610954240	46	3942
2026-01-02 11:21:49.23	347.58	54.08	-41.9	-42.6	19.7	0.00e+00	0	57	0	2617245696	46	3927
2026-01-02 11:21:50.22	347.35	53.73	-41.9	-42.6	19.6	0.00e+00	0	57	0	2622488576	46	3934
2026-01-02 11:21:51.20	347.14	53.40	-41.8	-42.5	19.7	0.00e+00	0	57	0	2627731456	46	3881
2026-01-02 11:21:52.20	346.92	53.05	-41.9	-42.6	19.6	0.00e+00	0	57	0	2632974336	46	3953
2026-01-02 11:21:53.18	346.71	52.72	-41.9	-42.6	19.6	0.00e+00	0	57	0	2639265792	46	3930
2026-01-02 11:21:54.18	346.51	52.38	-41.6	-42.2	20.0	0.00e+00	0	57	0	2644508672	46	3756
2026-01-02 11:21:55.17	346.31	52.04	-41.5	-42.1	20.1	0.00e+00	0	57	0	2650800128	46	3729
2026-01-02 11:21:56.16	346.11	51.71	-41.6	-42.3	19.9	0.00e+00	0	57	0	2656043008	46	3793
2026-01-02 11:21:57.16	345.92	51.38	-41.6	-42.2	20.0	0.00e+00	0	57	0	2661285888	46	3778
2026-01-02 11:21:58.15	345.74	51.05	-42.0	-42.6	19.6	0.00e+00	0	57	0	2666528768	46	3951
2026-01-02 11:21:59.14	345.55	50.72	-41.5	-42.2	20.1	0.00e+00	0	57	0	2672820224	46	3743
2026-01-02 11:22:00.13	345.38	50.40	-41.2	-41.8	20.4	0.00e+00	0	57	0	2678063104	45	3787
2026-01-02 11:22:01.13	345.20	50.07	-40.7	-41.3	20.8	0.00e+00	0	57	0	2684354560	44	3824
2026-01-02 11:22:02.12	345.03	49.75	-40.2	-40.7	21.3	0.00e+00	0	57	0	2689597440	43	3767
2026-01-02 11:22:03.11	344.86	49.44	-39.8	-40.4	21.6	0.00e+00	0	57	0	2694840320	42	3829
2026-01-02 11:22:04.09	344.70	49.12	-39.6	-40.2	21.8	0.00e+00	0	57	0	2700083200	42	3748
2026-01-02 11:22:05.08	344.54	48.81	-39.8	-40.3	21.7	0.00e+00	0	57	0	2706374656	42	3812
2026-01-02 11:22:06.06	344.39	48.50	-40.0	-40.5	21.5	0.00e+00	0	57	0	2711617536	42	3906
2026-01-02 11:22:07.05	344.23	48.19	-40.1	-40.7	21.3	0.00e+00	0	57	0	2716860416	42	3997
2026-01-02 11:22:08.04	344.08	47.88	-39.9	-40.5	21.6	0.00e+00	0	57	0	2723151872	42	3873
2026-01-02 11:22:09.03	343.94	47.57	-39.8	-40.4	21.6	0.00e+00	0	57	0	2728394752	42	3834
2026-01-02 11:22:10.02	343.79	47.27	-39.8	-40.3	21.7	0.00e+00	0	57	0	2733637632	42	3797
2026-01-02 11:22:11.01	343.65	46.97	-40.0	-40.5	21.5	0.00e+00	0	57	0	2739929088	42	3897
2026-01-02 11:22:12.00	343.51	46.67	-40.0	-40.5	21.5	0.00e+00	0	57	0	2745171968	42	3900
2026-01-02 11:22:12.98	343.38	46.37	-40.1	-40.7	21.3	0.00e+00	0	57	0	2750414848	42	3978
2026-01-02 11:22:13.97	343.24	46.07	-40.0	-40.6	21.4	0.00e+00	0	57	0	2755657728	42	3924
2026-01-02 11:22:14.96	343.11	45.78	-39.9	-40.4	21.6	0.00e+00	0	57	0	2761949184	42	3852
2026-01-02 11:22:15.95	342.98	45.49	-39.8	-40.4	21.6	0.00e+00	0	57	0	2767192064	42	3825
2026-01-02 11:22:16.93	342.86	45.20	-39.6	-40.2	21.8	0.00e+00	0	57	0	2772434944	42	3740
2026-01-02 11:22:17.92	342.74	44.91	-39.6	-40.1	21.9	0.00e+00	0	57	0	2778726400	42	3716
2026-01-02 11:22:18.91	342.61	44.62	-39.7	-40.2	21.8	0.00e+00	0	57	0	2783969280	42	3766
2026-01-02 11:22:19.90	342.49	44.34	-39.6	-40.2	21.8	0.00e+00	0	57	0	2789212160	42	3751
2026-01-02 11:22:20.88	342.38	44.06	-39.7	-40.2	21.7	0.00e+00	0	57	0	2794455040	42	3776
2026-01-02 11:22:21.87	342.26	43.78	-39.8	-40.4	21.6	0.00e+00	0	57	0	2800746496	42	3829
2026-01-02 11:22:22.86	342.15	43.50	-39.7	-40.2	21.7	0.00e+00	0	57	0	2805989376	42	3775
2026-01-02 11:22:23.85	342.04	43.22	-39.7	-40.2	21.7	0.00e+00	0	57	0	2811232256	42	3756
2026-01-02 11:22:24.83	341.93	42.95	-39.7	-40.2	21.8	0.00e+00	0	57	0	2817523712	42	3757
2026-01-02 11:22:25.83	341.82	42.67	-39.8	-40.3	21.6	0.00e+00	0	57	0	2822766592	42	3811
2026-01-02 11:22:26.82	341.72	42.40	-39.9	-40.4	21.6	0.00e+00	0	57	0	2828009472	42	3845
2026-01-02 11:22:27.81	341.62	42.13	-39.8	-40.3	21.7	0.00e+00	0	57	0	2834300928	42	3814
2026-01-02 11:22:28.80	341.52	41.86	-39.7	-40.2	21.7	0.00e+00	0	57	0	2839543808	42	3779
2026-01-02 11:22:29.78	341.42	41.60	-39.5	-40.1	21.9	0.00e+00	0	57	0	2844786688	42	3708
2026-01-02 11:22:30.75	341.32	41.34	-39.5	-40.0	21.9	0.00e+00	0	57	0	2850029568	42	3679
2026-01-02 11:22:31.74	341.22	41.08	-39.5	-40.0	21.9	0.00e+00	0	57	0	2856321024	42	3689
2026-01-02 11:22:32.73	341.13	40.82	-39.6	-40.1	21.8	0.00e+00	0	57	0	2861563904	42	3724
2026-01-02 11:22:33.73	341.03	40.56	-39.8	-40.3	21.6	0.00e+00	0	57	0	2866806784	42	3822
2026-01-02 11:22:34.72	340.94	40.30	-39.7	-40.2	21.8	0.00e+00	0	57	0	2873098240	42	3748
2026-01-02 11:22:35.71	340.85	40.04	-39.3	-39.8	22.1	0.00e+00	0	57	0	2878341120	41	3803
2026-01-02 11:22:36.70	340.76	39.79	-39.2	-39.7	22.2	0.00e+00	0	57	0	2883584000	41	3770
2026-01-02 11:22:37.69	340.68	39.54	-39.3	-39.8	22.1	0.00e+00	0	57	0	2889875456	41	3803
2026-01-02 11:22:38.68	340.59	39.29	-39.5	-40.1	21.9	0.00e+00	0	57	0	2895118336	41	3920
2026-01-02 11:22:39.67	340.51	39.04	-39.5	-40.1	21.8	0.00e+00	0	57	0	2900361216	41	3919
2026-01-02 11:22:40.66	340.42	38.79	-39.7	-40.2	21.7	0.00e+00	0	57	0	2906652672	41	3995
2026-01-02 11:22:41.64	340.34	38.55	-39.7	-40.2	21.7	0.00e+00	0	57	0	2911895552	41	3988
2026-01-02 11:22:42.63	340.26	38.31	-39.8	-40.3	21.6	0.00e+00	0	57	0	2917138432	41	4049
2026-01-02 11:22:43.63	340.18	38.06	-39.8	-40.4	21.5	0.00e+00	0	57	0	2922381312	41	4062
2026-01-02 11:22:44.62	340.10	37.82	-39.6	-40.1	21.8	0.00e+00	0	57	0	2928672768	41	3944
2026-01-02 11:22:45.62	340.03	37.58	-39.4	-39.9	22.0	0.00e+00	0	57	0	2933915648	41	3853
2026-01-02 11:22:46.60	339.95	37.35	-39.3	-39.8	22.0	0.00e+00	0	57	0	2939158528	41	3821
2026-01-02 11:22:47.58	339.88	37.12	-39.4	-39.9	22.0	0.00e+00	0	57	0	2945449984	41	3848
2026-01-02 11:22:48.57	339.80	36.88	-39.4	-39.9	22.0	0.00e+00	0	57	0	2950692864	41	3859
2026-01-02 11:22:49.56	339.73	36.65	-39.2	-39.7	22.1	0.00e+00	0	57	0	2955935744	41	3776
2026-01-02 11:22:50.55	339.66	36.42	-39.1	-39.6	22.2	0.00e+00	0	57	0	2962227200	41	3729
2026-01-02 11:22:51.53	339.59	36.19	-39.2	-39.7	22.2	0.00e+00	0	57	0	2967470080	41	3762
2026-01-02 11:22:52.52	339.52	35.97	-39.4	-39.9	22.0	0.00e+00	0	57	0	2972712960	41	3851
2026-01-02 11:22:53.52	339.45	35.74	-39.5	-40.0	21.9	0.00e+00	0	57	0	2979004416	41	3900
2026-01-02 11:22:54.50	339.38	35.52	-39.5	-40.1	21.8	0.00e+00	0	57	0	2984247296	41	3924
2026-01-02 11:22:55.50	339.32	35.29	-39.8	-40.4	21.5	0.00e+00	0	57	0	2989490176	41	4065
2026-01-02 11:22:56.49	339.25	35.07	-39.9	-40.5	21.4	0.00e+00	0	57	0	2994733056	41	4115
2026-01-02 11:22:57.49	339.19	34.85	-39.9	-40.4	21.5	0.00e+00	0	57	0	3001024512	41	4092
2026-01-02 11:22:58.47	339.12	34.63	-39.9	-40.5	21.4	0.00e+00	0	57	0	3006267392	41	4104
2026-01-02 11:22:59.46	339.06	34.42	-40.1	-40.7	21.2	0.00e+00	0	57	0	3012558848	41	4204
2026-01-02 11:23:00.46	339.00	34.20	-40.1	-40.7	21.2	0.00e+00	0	57	0	3017801728	42	3983
2026-01-02 11:23:01.45	338.94	33.99	-39.9	-40.5	21.4	0.00e+00	0	57	0	3023044608	42	3875
2026-01-02 11:23:02.44	338.88	33.77	-39.8	-40.3	21.6	0.00e+00	0	57	0	3028287488	42	3814
2026-01-02 11:23:03.43	338.82	33.56	-39.7	-40.3	21.6	0.00e+00	0	57	0	3034578944	42	3799
2026-01-02 11:23:04.42	338.76	33.35	-39.7	-40.3	21.6	0.00e+00	0	57	0	3039821824	42	3784
2026-01-02 11:23:05.41	338.70	33.15	-39.7	-40.3	21.6	0.00e+00	0	57	0	3045064704	42	3793
2026-01-02 11:23:06.40	338.65	32.94	-39.9	-40.5	21.4	0.00e+00	0	57	0	3051356160	42	3876
2026-01-02 11:23:07.39	338.59	32.73	-40.2	-40.8	21.1	0.00e+00	0	58	0	3056599040	42	4018
2026-01-02 11:23:08.39	338.53	32.53	-40.3	-40.9	21.0	0.00e+00	0	57	0	3061841920	42	4068
2026-01-02 11:23:09.38	338.48	32.33	-40.2	-40.8	21.1	0.00e+00	0	57	0	3068133376	42	4017
2026-01-02 11:23:10.36	338.42	32.13	-40.2	-40.8	21.1	0.00e+00	0	57	0	3073376256	42	4024
2026-01-02 11:23:11.36	338.37	31.92	-40.4	-41.0	21.0	0.00e+00	0	57	0	3078619136	42	4111
2026-01-02 11:23:12.34	338.32	31.73	-40.5	-41.1	20.8	0.00e+00	0	57	0	3083862016	42	4171
2026-01-02 11:23:13.34	338.27	31.53	-40.4	-41.0	21.0	0.00e+00	0	57	0	3090153472	42	4103
2026-01-02 11:23:14.32	338.22	31.34	-40.6	-41.2	20.7	0.00e+00	0	57	0	3095396352	42	4218
2026-01-02 11:23:15.31	338.17	31.14	-40.8	-41.4	20.6	0.00e+00	0	57	0	3101687808	43	4062
2026-01-02 11:23:16.30	338.12	30.95	-40.5	-41.1	20.9	0.00e+00	0	57	0	3106930688	43	3915
2026-01-02 11:23:17.29	338.07	30.75	-40.2	-40.7	21.2	0.00e+00	0	57	0	3112173568	43	3777
2026-01-02 11:23:18.28	338.02	30.56	-40.0	-40.5	21.4	0.00e+00	0	57	0	3117416448	43	3684
2026-01-02 11:23:19.26	337.97	30.38	-39.9	-40.5	21.4	0.00e+00	0	57	0	3123707904	43	3661
2026-01-02 11:23:20.26	337.92	30.19	-39.9	-40.5	21.4	0.00e+00	0	57	0	3128950784	43	3665
2026-01-02 11:23:21.24	337.88	30.00	-40.1	-40.6	21.3	0.00e+00	0	57	0	3134193664	43	3728
2026-01-02 11:23:22.24	337.83	29.81	-39.9	-40.4	21.5	0.00e+00	0	57	0	3140485120	42	3859
2026-01-02 11:23:23.23	337.78	29.63	-40.2	-40.7	21.2	0.00e+00	0	57	0	3145728000	42	3993
2026-01-02 11:23:24.23	337.74	29.44	-40.4	-41.0	20.9	0.00e+00	0	57	0	3150970880	42	4104
2026-01-02 11:23:25.22	337.69	29.26	-40.0	-40.6	21.3	0.00e+00	0	57	0	3157262336	42	3933
2026-01-02 11:23:26.21	337.65	29.08	-39.9	-40.4	21.4	0.00e+00	0	57	0	3162505216	42	3860
2026-01-02 11:23:27.20	337.61	28.90	-39.8	-40.3	21.5	0.00e+00	0	57	0	3167748096	42	3813
2026-01-02 11:23:28.18	337.56	28.72	-39.8	-40.3	21.5	0.00e+00	0	57	0	3172990976	42	3820
2026-01-02 11:23:29.17	337.52	28.54	-39.9	-40.5	21.4	0.00e+00	0	57	0	3179282432	42	3882
2026-01-02 11:23:30.15	337.48	28.37	-39.9	-40.5	21.4	0.00e+00	0	57	0	3184525312	42	3887
2026-01-02 11:23:31.14	337.44	28.19	-40.1	-40.6	21.3	0.00e+00	0	57	0	3189768192	42	3952
2026-01-02 11:23:32.13	337.40	28.02	-40.3	-40.9	21.0	0.00e+00	0	57	0	3196059648	42	4053
2026-01-02 11:23:33.12	337.36	27.84	-40.1	-40.7	21.2	0.00e+00	0	57	0	3201302528	42	3980
2026-01-02 11:23:34.11	337.32	27.67	-40.3	-40.9	21.0	0.00e+00	0	57	0	3206545408	42	4066
2026-01-02 11:23:35.10	337.28	27.50	-40.6	-41.2	20.7	0.00e+00	0	57	0	3211788288	42	4207
2026-01-02 11:23:36.08	337.24	27.33	-40.5	-41.1	20.8	0.00e+00	0	57	0	3218079744	42	4180
2026-01-02 11:23:37.07	337.20	27.16	-40.6	-41.2	20.7	0.00e+00	0	57	0	3223322624	43	3971
2026-01-02 11:23:38.07	337.16	26.99	-40.6	-41.2	20.7	0.00e+00	0	57	0	3229614080	43	3961
2026-01-02 11:23:39.05	337.13	26.83	-40.6	-41.2	20.7	0.00e+00	0	57	0	3234856960	43	3967
2026-01-02 11:23:40.04	337.09	26.66	-40.7	-41.3	20.5	0.00e+00	0	57	0	3240099840	43	4042
2026-01-02 11:23:41.03	337.05	26.49	-40.6	-41.2	20.6	0.00e+00	0	57	0	3245342720	43	3997
2026-01-02 11:23:42.02	337.02	26.33	-40.8	-41.4	20.5	0.00e+00	0	57	0	3251634176	43	4079
2026-01-02 11:23:43.01	336.98	26.17	-41.3	-42.0	20.0	0.00e+00	0	57	0	3256877056	44	4104
2026-01-02 11:23:44.00	336.94	26.00	-41.0	-41.6	20.4	0.00e+00	0	57	0	3262119936	44	3950
2026-01-02 11:23:44.99	336.91	25.84	-40.7	-41.3	20.7	0.00e+00	0	57	0	3268411392	44	3785
2026-01-02 11:23:45.98	336.87	25.68	-40.5	-41.0	20.9	0.00e+00	0	57	0	3273654272	44	3690
2026-01-02 11:23:46.97	336.84	25.52	-40.2	-40.8	21.0	0.00e+00	0	57	0	3278897152	43	3801
2026-01-02 11:23:47.96	336.81	25.36	-40.3	-40.8	21.0	0.00e+00	0	57	0	3285188608	43	3816
2026-01-02 11:23:48.96	336.77	25.20	-40.3	-40.8	21.0	0.00e+00	0	57	0	3290431488	43	3815
2026-01-02 11:23:49.94	336.74	25.05	-40.5	-41.1	20.8	0.00e+00	0	57	0	3295674368	43	3934
2026-01-02 11:23:50.94	336.71	24.89	-40.4	-41.0	20.9	0.00e+00	0	57	0	3301965824	43	3870
2026-01-02 11:23:51.93	336.67	24.74	-40.6	-41.1	20.7	0.00e+00	0	57	0	3307208704	43	3951
2026-01-02 11:23:52.91	336.64	24.58	-41.0	-41.6	20.3	0.00e+00	0	57	0	3312451584	43	4155
2026-01-02 11:23:53.89	336.61	24.43	-40.8	-41.4	20.5	0.00e+00	0	57	0	3317694464	43	4064
2026-01-02 11:23:54.88	336.58	24.28	-41.0	-41.7	20.2	0.00e+00	0	57	0	3323985920	43	4194
2026-01-02 11:23:55.87	336.55	24.13	-41.1	-41.7	20.2	0.00e+00	0	57	0	3329228800	43	4213
2026-01-02 11:23:56.87	336.52	23.98	-41.2	-41.9	20.1	0.00e+00	0	57	0	3334471680	44	4060
2026-01-02 11:23:57.86	336.49	23.83	-41.2	-41.8	20.2	0.00e+00	0	57	0	3340763136	44	4039
2026-01-02 11:23:58.85	336.46	23.68	-41.3	-42.0	20.0	0.00e+00	0	57	0	3346006016	44	4101
2026-01-02 11:23:59.85	336.43	23.53	-41.3	-41.9	20.1	0.00e+00	0	57	0	3351248896	44	4087
2026-01-02 11:24:00.84	336.40	23.38	-41.2	-41.9	20.1	0.00e+00	0	57	0	3357540352	44	4053
2026-01-02 11:24:01.83	336.37	23.24	-41.5	-42.2	19.8	0.00e+00	0	57	0	3362783232	44	4208
2026-01-02 11:24:02.82	336.34	23.09	-41.2	-41.9	20.1	0.00e+00	0	57	0	3368026112	44	4058
2026-01-02 11:24:03.80	336.31	22.95	-40.9	-41.5	20.4	0.00e+00	0	57	0	3373268992	44	3894
2026-01-02 11:24:04.80	336.28	22.80	-40.7	-41.3	20.6	0.00e+00	0	57	0	3379560448	44	3800
2026-01-02 11:24:05.79	336.25	22.66	-40.6	-41.2	20.6	0.00e+00	0	57	0	3384803328	44	3764
2026-01-02 11:24:06.78	336.23	22.52	-40.9	-41.6	20.3	0.00e+00	0	57	0	3391094784	44	3923
2026-01-02 11:24:07.77	336.20	22.37	-41.1	-41.7	20.0	0.00e+00	0	57	0	3396337664	44	3977
2026-01-02 11:24:08.76	336.17	22.23	-41.2	-41.8	19.9	0.00e+00	0	57	0	3401580544	44	4034
2026-01-02 11:24:09.74	336.14	22.10	-41.4	-42.1	19.6	0.00e+00	0	57	0	3406823424	44	4160
2026-01-02 11:24:10.73	336.12	21.96	-41.7	-42.4	19.2	0.00e+00	0	57	0	3413114880	45	4057
2026-01-02 11:24:11.72	336.09	21.82	-42.1	-42.8	18.7	0.00e+00	0	57	0	3418357760	45	4281
2026-01-02 11:24:12.70	336.07	21.68	-42.4	-43.2	18.3	0.00e+00	0	57	0	3423600640	46	4223
2026-01-02 11:24:13.70	336.04	21.54	-42.7	-43.5	18.0	0.00e+00	0	57	0	3429892096	47	4110
2026-01-02 11:24:14.69	336.01	21.41	-42.9	-43.8	17.7	0.00e+00	0	57	0	3435134976	47	4274
2026-01-02 11:24:15.67	335.99	21.27	-43.0	-43.9	17.6	0.00e+00	0	57	0	3440377856	47	4302
2026-01-02 11:24:16.66	335.96	21.14	-43.3	-44.2	17.4	0.00e+00	0	57	0	3446669312	48	4212
2026-01-02 11:24:17.65	335.94	21.00	-43.3	-44.2	17.4	0.00e+00	0	57	0	3451912192	48	4211
2026-01-02 11:24:18.63	335.92	20.87	-43.4	-44.3	17.3	0.00e+00	0	57	0	3457155072	48	4280
2026-01-02 11:24:19.62	335.89	20.74	-43.4	-44.3	17.3	0.00e+00	0	57	0	3462397952	48	4257
2026-01-02 11:24:20.60	335.87	20.61	-43.3	-44.2	17.5	0.00e+00	0	57	0	3468689408	48	4199
2026-01-02 11:24:21.59	335.84	20.48	-43.3	-44.2	17.4	0.00e+00	0	57	0	3473932288	48	4240
2026-01-02 11:24:22.59	335.82	20.35	-43.4	-44.3	17.3	0.00e+00	0	57	0	3479175168	48	4290
2026-01-02 11:24:23.58	335.80	20.22	-43.2	-44.1	17.6	0.00e+00	0	57	0	3485466624	48	4146
2026-01-02 11:24:24.57	335.77	20.09	-42.6	-43.4	18.3	0.00e+00	0	57	0	3490709504	48	3839
2026-01-02 11:24:25.56	335.75	19.96	-42.0	-42.8	18.7	0.00e+00	0	57	0	3495952384	47	3800
2026-01-02 11:24:26.55	335.73	19.83	-41.7	-42.4	19.1	0.00e+00	0	57	0	3501195264	46	3861
2026-01-02 11:24:27.54	335.71	19.70	-41.4	-42.1	19.5	0.00e+00	0	57	0	3507486720	46	3714
2026-01-02 11:24:28.53	335.68	19.58	-41.2	-41.8	19.8	0.00e+00	0	57	0	3512729600	45	3817
2026-01-02 11:24:29.51	335.66	19.45	-41.1	-41.8	19.8	0.00e+00	0	57	0	3519021056	45	3785
2026-01-02 11:24:30.49	335.64	19.33	-41.0	-41.7	20.0	0.00e+00	0	57	0	3524263936	45	3750
2026-01-02 11:24:31.48	335.62	19.20	-40.4	-41.5	20.2	0.00e+00	0	57	0	3529506816	44	3881
2026-01-02 11:24:32.47	335.60	19.08	-41.1	-41.7	20.0	0.00e+00	0	57	0	3534749696	44	4000
2026-01-02 11:24:33.46	335.58	18.95	-41.3	-42.0	19.8	0.00e+00	0	57	0	3541041152	44	4130
2026-01-02 11:24:34.44	335.56	18.83	-41.4	-42.1	19.7	0.00e+00	0	57	0	3546284032	44	4177
2026-01-02 11:24:35.43	335.54	18.71	-41.6	-42.3	19.5	0.00e+00	0	57	0	3551526912	45	4023
2026-01-02 11:24:36.42	335.51	18.59	-41.6	-42.3	19.5	0.00e+00	0	57	0	3557818368	45	4025
2026-01-02 11:24:37.41	335.49	18.47	-41.7	-42.3	19.5	0.00e+00	0	57	0	3563061248	45	4045
2026-01-02 11:24:38.40	335.47	18.35	-41.6	-42.3	19.5	0.00e+00	0	57	0	3568304128	45	4029
2026-01-02 11:24:39.39	335.45	18.23	-41.6	-42.3	19.6	0.00e+00	0	57	0	3573547008	45	4014
2026-01-02 11:24:40.37	335.43	18.11	-41.7	-42.4	19.5	0.00e+00	0	57	0	3579838464	45	4078
2026-01-02 11:24:41.37	335.41	17.99	-41.9	-42.6	19.2	0.00e+00	0	57	0	3585081344	45	4192
2026-01-02 11:24:42.35	335.40	17.87	-41.9	-42.6	19.3	0.00e+00	0	57	0	3590324224	45	4159
2026-01-02 11:24:43.34	335.38	17.75	-42.0	-42.7	19.2	0.00e+00	0	57	0	3596615680	45	4238
2026-01-02 11:24:44.32	335.36	17.64	-42.2	-43.0	19.0	0.00e+00	0	57	0	3601858560	46	4105
2026-01-02 11:24:45.31	335.34	17.52	-42.2	-42.9	19.0	0.00e+00	0	57	0	3607101440	46	4090
2026-01-02 11:24:46.30	335.32	17.40	-42.3	-43.1	18.8	0.00e+00	0	57	0	3612344320	46	4170
2026-01-02 11:24:47.29	335.30	17.29	-42.6	-43.4	18.5	0.00e+00	0	57	0	3618635776	47	4086
2026-01-02 11:24:48.28	335.28	17.17	-42.6	-43.3	18.6	0.00e+00	0	57	0	3623878656	47	4033
2026-01-02 11:24:49.27	335.27	17.06	-42.7	-43.4	18.5	0.00e+00	0	57	0	3630170112	47	4089
2026-01-02 11:24:50.26	335.25	16.95	-43.0	-43.8	18.1	0.00e+00	0	57	0	3635412992	47	4272
2026-01-02 11:24:51.26	335.23	16.83	-42.8	-43.6	18.3	0.00e+00	0	57	0	3640655872	47	4186
2026-01-02 11:24:52.25	335.21	16.72	-43.3	-44.1	18.0	0.00e+00	0	57	0	3645898752	48	4158
2026-01-02 11:24:53.25	335.19	16.60	-43.6	-44.5	17.6	0.00e+00	0	57	0	3652190208	49	4102
2026-01-02 11:24:54.24	335.18	16.49	-43.4	-44.2	17.9	0.00e+00	0	57	0	3657433088	49	3976
2026-01-02 11:24:55.23	335.16	16.38	-43.6	-44.5	17.6	0.00e+00	0	57	0	3662675968	49	4126
