passes_logs/2026/01/02/R3.0SM8_Murmansk_STILSPACE/R3.0SM8_Murmansk_STILSPACE__20260102_001456_SUOMI_NPP_rec.log

#Pass ID: 20260102_001456_SUOMI NPP
#Satellite: SUOMI NPP
#Configuration: NPP
#almurnet v.1.7.20240730
#Start time: 2026-01-02 00:14:55

#Version: 2.2.20231116
#Station: R3.0SM8_Murmansk_STILSPACE
#Location: 33.092731 lon 68.902999 lat
#TLE: 1 37849U 11061A   26001.07732418  .00000182  00000+0  10735-3 0  9990
#TLE: 2 37849  98.7795 303.2470 0002580  87.2016 272.9455 14.19520779734739

#Time	Az	El	Level	Level2	SNR	BER	BlckErr	Temp	State	Recorded	gain1	gain2
2026-01-02 00:14:55.82	23.06	2.98	-52.2	-66.0	3.8	1.49e+00	0	45	0	0	66	18360
2026-01-02 00:14:56.82	23.08	3.04	-52.1	-66.0	3.8	1.49e+00	0	46	104	0	66	18321
2026-01-02 00:14:57.80	23.10	3.11	-52.0	-65.9	3.8	1.49e+00	0	46	104	0	66	18227
2026-01-02 00:14:58.79	23.12	3.17	-52.1	-65.9	3.8	1.49e+00	0	46	104	0	66	18126
2026-01-02 00:14:59.78	23.14	3.24	-51.8	-65.8	3.8	1.49e+00	0	46	104	0	66	17892
2026-01-02 00:15:00.77	23.16	3.30	-51.9	-65.7	3.8	1.49e+00	0	46	104	0	66	17765
2026-01-02 00:15:01.77	23.18	3.37	-51.8	-65.6	3.8	1.49e+00	0	46	104	0	66	17484
2026-01-02 00:15:02.75	23.19	3.43	-51.5	-65.4	3.8	1.49e+00	0	46	104	0	66	17158
2026-01-02 00:15:03.74	23.21	3.50	-51.0	-62.9	3.8	1.49e+00	0	46	104	0	65	13701
2026-01-02 00:15:04.73	23.23	3.57	-49.2	-54.2	9.1	6.67e-02	0	46	0	1048576	61	6338
2026-01-02 00:15:05.72	23.25	3.63	-49.2	-54.1	9.3	2.39e-02	0	46	0	2097152	61	6204
2026-01-02 00:15:06.71	23.27	3.70	-49.2	-54.3	9.1	2.70e-02	0	46	0	4194304	61	6392
2026-01-02 00:15:07.70	23.29	3.77	-49.4	-55.0	8.4	3.79e-02	0	47	0	6291456	61	6932
2026-01-02 00:15:08.68	23.31	3.83	-49.5	-55.2	8.2	4.49e-02	0	46	0	8388608	61	7048
2026-01-02 00:15:09.67	23.33	3.90	-49.6	-55.3	8.0	5.55e-02	0	47	0	9437184	61	7174
2026-01-02 00:15:10.67	23.35	3.97	-49.6	-55.5	7.9	7.12e-02	0	47	0	11534336	61	7293
2026-01-02 00:15:11.65	23.37	4.03	-49.5	-55.2	8.1	6.40e-02	0	47	0	13631488	61	7111
2026-01-02 00:15:12.64	23.39	4.10	-49.4	-55.0	8.4	5.18e-02	0	47	0	15728640	61	6882
2026-01-02 00:15:13.63	23.41	4.17	-49.6	-55.0	8.4	4.97e-02	0	47	0	17825792	61	6925
2026-01-02 00:15:14.62	23.43	4.24	-49.5	-54.8	8.6	4.79e-02	0	47	0	18874368	61	6764
2026-01-02 00:15:15.61	23.45	4.30	-49.4	-54.6	8.8	2.66e-02	0	47	0	20971520	61	6607
2026-01-02 00:15:16.60	23.47	4.37	-49.4	-54.5	8.9	3.00e-02	0	47	0	23068672	61	6498
2026-01-02 00:15:17.58	23.49	4.44	-49.4	-54.5	8.9	2.68e-02	0	47	0	25165824	61	6536
2026-01-02 00:15:18.58	23.51	4.51	-49.4	-54.8	8.5	4.18e-02	0	47	0	26214400	61	6795
2026-01-02 00:15:19.56	23.53	4.58	-49.4	-54.6	8.8	3.83e-02	0	47	0	28311552	61	6617
2026-01-02 00:15:20.55	23.55	4.64	-49.5	-55.0	8.4	3.46e-02	0	47	0	30408704	61	6901
2026-01-02 00:15:21.55	23.57	4.71	-49.6	-55.5	7.8	6.05e-02	0	48	0	32505856	61	7367
2026-01-02 00:15:22.53	23.59	4.78	-49.7	-55.6	7.8	9.29e-02	0	48	0	33554432	61	7389
2026-01-02 00:15:23.52	23.61	4.85	-49.8	-55.9	7.5	1.05e-01	0	48	0	35651584	61	7702
2026-01-02 00:15:24.51	23.63	4.92	-49.9	-56.4	7.0	1.48e-01	0	48	0	37748736	61	8166
2026-01-02 00:15:25.49	23.65	4.99	-50.0	-56.5	6.9	1.62e-01	0	48	0	39845888	61	8260
2026-01-02 00:15:26.49	23.67	5.06	-50.0	-56.8	6.6	2.20e-01	0	48	0	41943040	61	8529
2026-01-02 00:15:27.47	23.69	5.13	-49.9	-56.1	7.3	1.60e-01	0	48	0	42991616	61	7858
2026-01-02 00:15:28.46	23.71	5.20	-49.7	-55.5	8.0	6.87e-02	0	48	0	45088768	61	7309
2026-01-02 00:15:29.44	23.73	5.27	-49.8	-55.8	7.6	7.85e-02	0	48	0	47185920	61	7618
2026-01-02 00:15:30.43	23.75	5.34	-49.8	-56.0	7.5	1.17e-01	0	48	0	49283072	61	7721
2026-01-02 00:15:31.42	23.77	5.41	-49.6	-55.1	8.3	5.96e-02	0	48	0	50331648	61	7007
2026-01-02 00:15:32.41	23.79	5.48	-49.5	-54.4	9.1	3.33e-02	0	48	0	52428800	61	6494
2026-01-02 00:15:33.40	23.81	5.55	-49.2	-53.8	9.8	1.86e-02	0	48	0	54525952	61	6054
2026-01-02 00:15:34.39	23.83	5.63	-49.2	-53.7	10.0	7.46e-03	0	48	0	56623104	61	5933
2026-01-02 00:15:35.37	23.86	5.70	-49.0	-53.1	10.6	4.19e-03	0	48	0	57671680	61	5569
2026-01-02 00:15:36.36	23.88	5.77	-48.8	-52.6	11.2	2.01e-03	0	48	0	59768832	60	5537
2026-01-02 00:15:37.36	23.90	5.84	-48.7	-52.4	11.5	1.03e-03	0	48	0	61865984	60	5440
2026-01-02 00:15:38.35	23.92	5.91	-48.8	-52.3	11.6	6.74e-04	0	49	0	63963136	60	5379
2026-01-02 00:15:39.34	23.94	5.98	-48.8	-52.4	11.5	7.02e-04	0	49	0	66060288	60	5443
2026-01-02 00:15:40.33	23.96	6.06	-48.9	-52.8	11.2	1.34e-03	0	49	0	67108864	60	5662
2026-01-02 00:15:41.31	23.98	6.13	-48.7	-52.1	11.8	6.12e-04	0	49	0	69206016	60	5220
2026-01-02 00:15:42.30	24.01	6.20	-48.5	-51.8	12.1	3.09e-04	0	49	0	71303168	60	5096
2026-01-02 00:15:43.29	24.03	6.28	-48.3	-51.4	12.6	1.50e-04	0	49	0	73400320	59	5116
2026-01-02 00:15:44.27	24.05	6.35	-48.2	-51.1	12.9	5.87e-05	0	49	0	74448896	59	4953
2026-01-02 00:15:45.26	24.07	6.42	-48.1	-50.9	13.1	3.81e-05	0	49	0	76546048	59	4837
2026-01-02 00:15:46.25	24.09	6.50	-48.1	-51.0	13.1	2.28e-05	0	49	0	78643200	59	4875
2026-01-02 00:15:47.24	24.12	6.57	-48.1	-50.8	13.2	9.90e-06	0	49	0	80740352	59	4810
2026-01-02 00:15:48.23	24.14	6.64	-48.0	-50.9	13.2	3.05e-05	0	49	0	81788928	59	4825
2026-01-02 00:15:49.22	24.16	6.72	-47.9	-50.6	13.5	1.44e-05	0	49	0	83886080	59	4700
2026-01-02 00:15:50.21	24.18	6.79	-47.9	-50.6	13.5	5.30e-06	0	49	0	85983232	58	4974
2026-01-02 00:15:51.19	24.21	6.87	-47.8	-50.5	13.7	5.30e-06	0	49	0	88080384	58	4889
2026-01-02 00:15:52.18	24.23	6.94	-47.8	-50.4	13.8	2.20e-06	0	49	0	89128960	58	4836
2026-01-02 00:15:53.17	24.25	7.02	-47.8	-50.4	13.8	5.30e-06	0	49	0	91226112	57	5119
2026-01-02 00:15:54.16	24.27	7.09	-47.8	-50.4	13.8	5.30e-06	0	49	0	93323264	57	5125
2026-01-02 00:15:55.16	24.30	7.17	-47.7	-50.2	14.0	1.50e-06	0	49	0	95420416	57	5022
2026-01-02 00:15:56.14	24.32	7.24	-47.8	-50.4	13.8	3.00e-06	0	49	0	97517568	57	5131
2026-01-02 00:15:57.13	24.34	7.32	-47.8	-50.4	13.9	4.50e-06	0	49	0	98566144	57	5102
2026-01-02 00:15:58.12	24.37	7.40	-47.8	-50.3	13.9	2.20e-06	0	50	0	100663296	57	5066
2026-01-02 00:15:59.11	24.39	7.47	-47.8	-50.3	14.0	3.80e-06	0	50	0	102760448	57	5074
2026-01-02 00:16:00.11	24.41	7.55	-47.8	-50.3	13.9	1.50e-06	0	50	0	104857600	57	5090
2026-01-02 00:16:01.10	24.44	7.63	-47.7	-50.2	14.0	3.00e-06	0	50	0	105906176	57	5028
2026-01-02 00:16:02.09	24.46	7.70	-47.9	-50.4	13.9	2.20e-06	0	50	0	108003328	57	5118
2026-01-02 00:16:03.08	24.49	7.78	-47.8	-50.3	14.0	3.80e-06	0	50	0	110100480	57	5055
2026-01-02 00:16:04.07	24.51	7.86	-47.8	-50.3	14.0	2.20e-06	0	50	0	112197632	57	5058
2026-01-02 00:16:05.06	24.53	7.94	-47.8	-50.2	14.1	0.00e+00	0	50	0	113246208	57	4996
2026-01-02 00:16:06.05	24.56	8.02	-47.8	-50.3	14.1	2.20e-06	0	50	0	115343360	57	5045
2026-01-02 00:16:07.04	24.58	8.09	-47.8	-50.2	14.1	5.30e-06	0	50	0	117440512	57	5022
2026-01-02 00:16:08.04	24.61	8.17	-47.7	-50.2	14.2	0.00e+00	0	50	0	119537664	57	4992
2026-01-02 00:16:09.03	24.63	8.25	-47.7	-50.1	14.2	1.50e-06	0	50	0	121634816	57	4958
2026-01-02 00:16:10.02	24.66	8.33	-47.7	-50.1	14.2	3.00e-06	0	50	0	122683392	57	4983
2026-01-02 00:16:11.01	24.68	8.41	-47.6	-50.0	14.4	0.00e+00	0	50	0	124780544	57	4896
2026-01-02 00:16:11.99	24.71	8.49	-47.6	-50.0	14.3	0.00e+00	0	50	0	126877696	57	4919
2026-01-02 00:16:12.98	24.73	8.57	-47.7	-50.0	14.3	7.00e-07	0	50	0	128974848	57	4917
2026-01-02 00:16:13.97	24.76	8.65	-47.8	-50.3	14.1	1.50e-06	0	50	0	130023424	57	5053
2026-01-02 00:16:14.97	24.78	8.73	-47.9	-50.3	14.0	3.00e-06	0	50	0	132120576	57	5081
2026-01-02 00:16:15.95	24.81	8.81	-47.9	-50.4	14.0	2.20e-06	0	50	0	134217728	57	5108
2026-01-02 00:16:16.95	24.83	8.89	-47.7	-50.2	14.2	2.20e-06	0	50	0	136314880	57	4998
2026-01-02 00:16:17.94	24.86	8.97	-47.8	-50.3	14.0	3.00e-06	0	51	0	138412032	57	5094
2026-01-02 00:16:18.93	24.88	9.06	-47.8	-50.3	14.1	7.00e-07	0	50	0	139460608	57	5047
2026-01-02 00:16:19.92	24.91	9.14	-47.9	-50.4	14.0	0.00e+00	0	50	0	141557760	57	5121
2026-01-02 00:16:20.91	24.93	9.22	-47.7	-50.2	14.2	2.20e-06	0	51	0	143654912	57	4989
2026-01-02 00:16:21.91	24.96	9.30	-47.9	-50.5	13.9	1.50e-06	0	51	0	145752064	57	5197
2026-01-02 00:16:22.90	24.99	9.38	-47.7	-50.1	14.3	2.20e-06	0	51	0	146800640	57	4955
2026-01-02 00:16:23.88	25.01	9.47	-47.7	-50.0	14.4	1.50e-06	0	51	0	148897792	57	4872
2026-01-02 00:16:24.87	25.04	9.55	-47.6	-50.0	14.4	0.00e+00	0	51	0	150994944	57	4894
2026-01-02 00:16:25.86	25.06	9.63	-47.9	-50.3	14.2	0.00e+00	0	51	0	153092096	57	5068
2026-01-02 00:16:26.86	25.09	9.72	-47.7	-50.1	14.3	1.50e-06	0	51	0	154140672	57	4929
2026-01-02 00:16:27.86	25.12	9.80	-47.4	-49.6	14.8	7.00e-07	0	51	0	156237824	57	4695
2026-01-02 00:16:28.85	25.15	9.89	-47.3	-49.4	15.0	0.00e+00	0	51	0	158334976	57	4586
2026-01-02 00:16:29.84	25.17	9.97	-47.5	-49.7	14.8	7.00e-07	0	51	0	160432128	57	4720
2026-01-02 00:16:30.82	25.20	10.05	-47.4	-49.6	14.8	0.00e+00	0	51	0	162529280	57	4697
2026-01-02 00:16:31.81	25.23	10.14	-47.4	-49.6	14.9	0.00e+00	0	51	0	163577856	57	4676
2026-01-02 00:16:32.81	25.25	10.23	-47.4	-49.6	14.9	7.00e-07	0	51	0	165675008	57	4658
2026-01-02 00:16:33.80	25.28	10.31	-47.4	-49.4	15.0	0.00e+00	0	51	0	167772160	57	4594
2026-01-02 00:16:34.79	25.31	10.40	-47.2	-49.2	15.3	0.00e+00	0	51	0	169869312	57	4450
2026-01-02 00:16:35.79	25.34	10.48	-47.0	-49.0	15.4	0.00e+00	0	51	0	170917888	57	4388
2026-01-02 00:16:36.78	25.36	10.57	-47.0	-49.0	15.5	0.00e+00	0	51	0	173015040	56	4639
2026-01-02 00:16:37.77	25.39	10.66	-47.2	-49.1	15.4	0.00e+00	0	51	0	175112192	56	4699
2026-01-02 00:16:38.76	25.42	10.75	-47.0	-48.9	15.5	0.00e+00	0	51	0	177209344	56	4591
2026-01-02 00:16:39.75	25.45	10.83	-47.2	-49.2	15.3	0.00e+00	0	51	0	179306496	56	4724
2026-01-02 00:16:40.74	25.48	10.92	-47.0	-48.9	15.5	0.00e+00	0	51	0	180355072	56	4593
2026-01-02 00:16:41.73	25.51	11.01	-47.0	-48.9	15.6	0.00e+00	0	51	0	182452224	56	4552
2026-01-02 00:16:42.71	25.53	11.10	-47.0	-48.9	15.7	0.00e+00	0	51	0	184549376	56	4570
2026-01-02 00:16:43.71	25.56	11.19	-47.0	-48.9	15.7	0.00e+00	0	51	0	186646528	56	4547
2026-01-02 00:16:44.69	25.59	11.27	-46.9	-48.8	15.7	0.00e+00	0	51	0	187695104	56	4508
2026-01-02 00:16:45.68	25.62	11.36	-46.9	-48.8	15.7	0.00e+00	0	52	0	189792256	56	4531
2026-01-02 00:16:46.66	25.65	11.45	-46.9	-48.7	15.8	0.00e+00	0	51	0	191889408	56	4492
2026-01-02 00:16:47.64	25.68	11.54	-46.9	-48.8	15.8	0.00e+00	0	51	0	193986560	56	4494
2026-01-02 00:16:48.63	25.71	11.63	-46.7	-48.6	16.0	0.00e+00	0	51	0	195035136	56	4408
2026-01-02 00:16:49.62	25.74	11.72	-46.8	-48.7	15.9	0.00e+00	0	51	0	197132288	56	4456
2026-01-02 00:16:50.60	25.77	11.81	-46.9	-48.8	15.8	0.00e+00	0	52	0	199229440	56	4496
2026-01-02 00:16:51.59	25.80	11.90	-46.9	-48.8	15.8	0.00e+00	0	52	0	201326592	56	4498
2026-01-02 00:16:52.58	25.83	11.99	-46.8	-48.6	16.0	0.00e+00	0	52	0	202375168	56	4417
2026-01-02 00:16:53.57	25.86	12.09	-47.0	-48.8	15.7	0.00e+00	0	52	0	204472320	56	4545
2026-01-02 00:16:54.56	25.89	12.18	-47.1	-49.0	15.5	0.00e+00	0	52	0	206569472	56	4651
2026-01-02 00:16:55.54	25.92	12.27	-47.0	-48.9	15.6	0.00e+00	0	52	0	208666624	56	4586
2026-01-02 00:16:56.53	25.95	12.36	-47.0	-48.8	15.8	0.00e+00	0	52	0	210763776	56	4528
2026-01-02 00:16:57.52	25.98	12.46	-46.9	-48.8	15.8	0.00e+00	0	52	0	211812352	56	4514
2026-01-02 00:16:58.51	26.01	12.55	-46.9	-48.8	15.8	0.00e+00	0	52	0	213909504	56	4513
2026-01-02 00:16:59.50	26.05	12.64	-46.9	-48.7	15.9	0.00e+00	0	52	0	216006656	56	4484
2026-01-02 00:17:00.49	26.08	12.74	-46.9	-48.8	15.8	0.00e+00	0	52	0	218103808	56	4494
2026-01-02 00:17:01.48	26.11	12.83	-47.0	-48.9	15.7	0.00e+00	0	52	0	219152384	56	4573
2026-01-02 00:17:02.47	26.14	12.93	-46.8	-48.7	16.0	0.00e+00	0	52	0	221249536	56	4449
2026-01-02 00:17:03.45	26.17	13.02	-46.9	-48.7	15.9	0.00e+00	0	52	0	223346688	56	4466
2026-01-02 00:17:04.44	26.21	13.12	-46.8	-48.6	16.0	0.00e+00	0	52	0	225443840	56	4432
2026-01-02 00:17:05.43	26.24	13.22	-46.9	-48.7	15.9	0.00e+00	0	52	0	226492416	56	4491
2026-01-02 00:17:06.42	26.27	13.31	-46.9	-48.8	15.9	0.00e+00	0	52	0	228589568	56	4497
2026-01-02 00:17:07.41	26.30	13.41	-46.7	-48.5	16.1	0.00e+00	0	52	0	230686720	56	4344
2026-01-02 00:17:08.40	26.34	13.51	-46.6	-48.4	16.3	0.00e+00	0	52	0	232783872	56	4292
2026-01-02 00:17:09.38	26.37	13.60	-46.7	-48.4	16.2	0.00e+00	0	52	0	234881024	56	4327
2026-01-02 00:17:10.37	26.40	13.70	-46.8	-48.7	16.0	0.00e+00	0	52	0	235929600	56	4447
2026-01-02 00:17:11.36	26.44	13.80	-46.7	-48.4	16.3	0.00e+00	0	53	0	238026752	56	4296
2026-01-02 00:17:12.35	26.47	13.90	-46.6	-48.3	16.4	0.00e+00	0	52	0	240123904	56	4245
2026-01-02 00:17:13.34	26.50	14.00	-46.5	-48.2	16.5	0.00e+00	0	52	0	242221056	56	4203
2026-01-02 00:17:14.33	26.54	14.10	-46.5	-48.3	16.4	0.00e+00	0	52	0	243269632	56	4244
2026-01-02 00:17:15.32	26.57	14.20	-46.5	-48.2	16.3	0.00e+00	0	52	0	245366784	55	4478
2026-01-02 00:17:16.31	26.61	14.30	-46.5	-48.3	16.2	0.00e+00	0	53	0	247463936	55	4521
2026-01-02 00:17:17.30	26.64	14.40	-46.4	-48.1	16.4	0.00e+00	0	52	0	249561088	55	4422
2026-01-02 00:17:18.28	26.68	14.50	-46.8	-48.5	16.0	0.00e+00	0	52	0	250609664	55	4644
2026-01-02 00:17:19.28	26.71	14.60	-46.9	-48.7	15.9	0.00e+00	0	53	0	252706816	55	4746
2026-01-02 00:17:20.27	26.75	14.70	-46.6	-48.4	16.2	0.00e+00	0	53	0	254803968	55	4555
2026-01-02 00:17:21.26	26.78	14.81	-46.5	-48.2	16.3	0.00e+00	0	53	0	256901120	55	4477
2026-01-02 00:17:22.24	26.82	14.91	-46.5	-48.3	16.3	0.00e+00	0	53	0	258998272	55	4505
2026-01-02 00:17:23.22	26.86	15.01	-46.6	-48.3	16.2	0.00e+00	0	53	0	260046848	55	4529
2026-01-02 00:17:24.22	26.89	15.12	-46.7	-48.5	16.1	0.00e+00	0	52	0	262144000	55	4612
2026-01-02 00:17:25.21	26.93	15.22	-46.5	-48.2	16.3	0.00e+00	0	52	0	264241152	55	4482
2026-01-02 00:17:26.19	26.96	15.32	-46.6	-48.4	16.2	0.00e+00	0	53	0	266338304	55	4557
2026-01-02 00:17:27.18	27.00	15.43	-46.7	-48.4	16.2	0.00e+00	0	53	0	267386880	55	4588
2026-01-02 00:17:28.17	27.04	15.54	-46.5	-48.2	16.4	0.00e+00	0	53	0	269484032	55	4464
2026-01-02 00:17:29.16	27.08	15.64	-46.5	-48.2	16.4	0.00e+00	0	53	0	271581184	55	4468
2026-01-02 00:17:30.14	27.11	15.75	-46.6	-48.3	16.3	0.00e+00	0	52	0	273678336	55	4521
2026-01-02 00:17:31.12	27.15	15.85	-46.6	-48.3	16.3	0.00e+00	0	53	0	274726912	55	4528
2026-01-02 00:17:32.11	27.19	15.96	-46.6	-48.4	16.2	0.00e+00	0	53	0	276824064	55	4567
2026-01-02 00:17:33.10	27.23	16.07	-46.5	-48.2	16.4	0.00e+00	0	53	0	278921216	55	4466
2026-01-02 00:17:34.09	27.27	16.18	-46.6	-48.3	16.3	0.00e+00	0	53	0	281018368	55	4509
2026-01-02 00:17:35.08	27.31	16.29	-46.6	-48.3	16.3	0.00e+00	0	53	0	282066944	55	4530
2026-01-02 00:17:36.06	27.34	16.39	-46.5	-48.2	16.4	0.00e+00	0	53	0	284164096	55	4465
2026-01-02 00:17:37.05	27.38	16.50	-46.4	-48.1	16.5	0.00e+00	0	53	0	286261248	55	4408
2026-01-02 00:17:38.05	27.42	16.62	-46.6	-48.3	16.3	0.00e+00	0	53	0	288358400	55	4539
2026-01-02 00:17:39.04	27.46	16.73	-46.4	-48.1	16.5	0.00e+00	0	53	0	290455552	55	4403
2026-01-02 00:17:40.03	27.50	16.84	-46.6	-48.3	16.3	0.00e+00	0	53	0	291504128	55	4540
2026-01-02 00:17:41.02	27.54	16.95	-46.6	-48.3	16.3	0.00e+00	0	53	0	293601280	55	4524
2026-01-02 00:17:42.01	27.59	17.06	-46.9	-48.7	16.0	0.00e+00	0	53	0	295698432	55	4714
2026-01-02 00:17:43.00	27.63	17.18	-46.7	-48.4	16.2	0.00e+00	0	53	0	297795584	55	4586
2026-01-02 00:17:43.99	27.67	17.29	-47.0	-48.8	15.9	0.00e+00	0	53	0	298844160	55	4773
2026-01-02 00:17:44.98	27.71	17.40	-46.9	-48.8	15.9	0.00e+00	0	53	0	300941312	55	4767
2026-01-02 00:17:45.97	27.75	17.52	-47.1	-48.9	15.7	0.00e+00	0	53	0	303038464	55	4869
2026-01-02 00:17:46.96	27.79	17.63	-47.3	-49.3	15.5	0.00e+00	0	53	0	305135616	56	4779
2026-01-02 00:17:47.94	27.84	17.75	-47.3	-49.2	15.6	0.00e+00	0	53	0	306184192	56	4720
2026-01-02 00:17:48.93	27.88	17.86	-47.3	-49.3	15.5	0.00e+00	0	53	0	308281344	56	4761
2026-01-02 00:17:49.92	27.92	17.98	-47.3	-49.3	15.5	0.00e+00	0	53	0	310378496	56	4770
2026-01-02 00:17:50.91	27.96	18.10	-47.4	-49.5	15.3	0.00e+00	0	53	0	312475648	56	4886
2026-01-02 00:17:51.91	28.01	18.21	-47.5	-49.5	15.3	0.00e+00	0	53	0	314572800	56	4922
2026-01-02 00:17:52.89	28.05	18.33	-47.5	-49.7	15.1	0.00e+00	0	53	0	315621376	56	5015
2026-01-02 00:17:53.88	28.10	18.45	-47.4	-49.5	15.3	0.00e+00	0	53	0	317718528	57	4641
2026-01-02 00:17:54.87	28.14	18.57	-47.3	-49.4	15.4	0.00e+00	0	53	0	319815680	57	4551
2026-01-02 00:17:55.86	28.19	18.69	-47.5	-49.6	15.2	0.00e+00	0	53	0	321912832	57	4669
2026-01-02 00:17:56.85	28.23	18.81	-47.2	-49.2	15.6	0.00e+00	0	53	0	322961408	57	4478
2026-01-02 00:17:57.84	28.28	18.93	-47.2	-49.3	15.6	0.00e+00	0	53	0	325058560	57	4498
2026-01-02 00:17:58.83	28.32	19.05	-47.3	-49.3	15.5	0.00e+00	0	53	0	327155712	57	4533
2026-01-02 00:17:59.83	28.37	19.18	-47.5	-49.6	15.3	0.00e+00	0	54	0	329252864	57	4656
2026-01-02 00:18:00.81	28.41	19.30	-47.5	-49.5	15.3	0.00e+00	0	53	0	330301440	57	4650
2026-01-02 00:18:01.79	28.46	19.42	-47.5	-49.7	15.2	0.00e+00	0	53	0	332398592	57	4716
2026-01-02 00:18:02.79	28.51	19.55	-47.5	-49.6	15.2	0.00e+00	0	53	0	334495744	57	4696
2026-01-02 00:18:03.77	28.56	19.67	-47.6	-49.7	15.1	0.00e+00	0	53	0	336592896	57	4726
2026-01-02 00:18:04.76	28.60	19.79	-47.7	-49.9	15.0	0.00e+00	0	53	0	338690048	57	4827
2026-01-02 00:18:05.75	28.65	19.92	-47.8	-50.1	14.7	0.00e+00	0	54	0	339738624	57	4970
2026-01-02 00:18:06.74	28.70	20.05	-47.8	-50.0	14.9	0.00e+00	0	54	0	341835776	57	4890
2026-01-02 00:18:07.73	28.75	20.17	-48.0	-50.2	14.6	0.00e+00	0	54	0	343932928	57	5032
2026-01-02 00:18:08.71	28.80	20.30	-47.8	-50.0	14.9	0.00e+00	0	53	0	346030080	57	4914
2026-01-02 00:18:09.70	28.85	20.43	-47.7	-49.8	15.0	0.00e+00	0	54	0	347078656	57	4810
2026-01-02 00:18:10.70	28.90	20.56	-47.7	-49.8	15.0	0.00e+00	0	54	0	349175808	57	4791
2026-01-02 00:18:11.69	28.95	20.69	-47.4	-49.5	15.4	0.00e+00	0	54	0	351272960	57	4607
2026-01-02 00:18:12.68	29.00	20.82	-47.6	-49.7	15.2	0.00e+00	0	53	0	353370112	57	4709
2026-01-02 00:18:13.67	29.05	20.95	-47.7	-49.8	15.1	0.00e+00	0	53	0	354418688	57	4805
2026-01-02 00:18:14.66	29.10	21.08	-47.7	-49.7	15.2	7.00e-07	0	53	0	356515840	57	4756
2026-01-02 00:18:15.66	29.16	21.21	-47.6	-49.6	15.2	0.00e+00	0	54	0	358612992	57	4683
2026-01-02 00:18:16.65	29.21	21.35	-47.3	-49.3	15.6	0.00e+00	0	54	0	360710144	57	4497
2026-01-02 00:18:17.63	29.26	21.48	-47.2	-49.0	15.9	0.00e+00	0	54	0	362807296	57	4377
2026-01-02 00:18:18.62	29.31	21.61	-47.4	-49.3	15.6	0.00e+00	0	54	0	363855872	57	4511
2026-01-02 00:18:19.61	29.37	21.75	-47.2	-49.0	15.8	0.00e+00	0	54	0	365953024	57	4389
2026-01-02 00:18:20.59	29.42	21.88	-47.3	-49.2	15.7	0.00e+00	0	54	0	368050176	57	4456
2026-01-02 00:18:21.59	29.48	22.02	-47.1	-48.8	16.0	0.00e+00	0	54	0	370147328	57	4277
2026-01-02 00:18:22.58	29.53	22.16	-47.3	-49.2	15.7	0.00e+00	0	54	0	371195904	57	4466
2026-01-02 00:18:23.56	29.59	22.29	-47.5	-49.4	15.5	0.00e+00	0	54	0	373293056	57	4558
2026-01-02 00:18:24.56	29.64	22.43	-47.2	-49.0	15.9	0.00e+00	0	54	0	375390208	57	4379
2026-01-02 00:18:25.55	29.70	22.57	-47.3	-49.2	15.7	0.00e+00	0	54	0	377487360	57	4468
2026-01-02 00:18:26.53	29.76	22.71	-47.3	-49.3	15.6	0.00e+00	0	54	0	378535936	57	4500
2026-01-02 00:18:27.53	29.81	22.86	-47.4	-49.4	15.4	0.00e+00	0	54	0	380633088	57	4565
2026-01-02 00:18:28.51	29.87	23.00	-47.3	-49.2	15.7	0.00e+00	0	54	0	382730240	57	4489
2026-01-02 00:18:29.49	29.93	23.14	-47.4	-49.2	15.7	0.00e+00	0	54	0	384827392	57	4489
2026-01-02 00:18:30.48	29.99	23.28	-47.3	-49.2	15.7	0.00e+00	0	54	0	386924544	57	4465
2026-01-02 00:18:31.47	30.05	23.42	-47.3	-49.3	15.5	0.00e+00	0	54	0	387973120	57	4523
2026-01-02 00:18:32.46	30.11	23.57	-47.4	-49.3	15.6	0.00e+00	0	54	0	390070272	57	4514
2026-01-02 00:18:33.44	30.17	23.71	-47.6	-49.8	15.1	0.00e+00	0	54	0	392167424	57	4769
2026-01-02 00:18:34.43	30.23	23.86	-47.7	-49.9	15.0	0.00e+00	0	54	0	394264576	57	4851
2026-01-02 00:18:35.42	30.29	24.00	-47.6	-49.7	15.2	0.00e+00	0	54	0	395313152	57	4755
2026-01-02 00:18:36.41	30.35	24.15	-47.7	-49.9	14.9	0.00e+00	0	54	0	397410304	57	4857
2026-01-02 00:18:37.40	30.41	24.30	-47.7	-49.9	15.0	0.00e+00	0	54	0	399507456	57	4869
2026-01-02 00:18:38.39	30.48	24.45	-47.6	-49.7	15.3	0.00e+00	0	54	0	401604608	57	4714
2026-01-02 00:18:39.38	30.54	24.60	-47.6	-49.8	15.1	0.00e+00	0	54	0	402653184	57	4772
2026-01-02 00:18:40.37	30.60	24.75	-47.7	-49.8	15.0	0.00e+00	0	54	0	404750336	57	4810
2026-01-02 00:18:41.36	30.67	24.90	-47.7	-49.8	15.2	0.00e+00	0	54	0	406847488	57	4762
2026-01-02 00:18:42.35	30.73	25.06	-47.8	-49.9	15.1	0.00e+00	0	54	0	408944640	57	4817
2026-01-02 00:18:43.34	30.80	25.21	-47.9	-50.0	14.9	0.00e+00	0	54	0	411041792	57	4922
2026-01-02 00:18:44.33	30.87	25.37	-47.7	-49.7	15.2	0.00e+00	0	54	0	412090368	57	4745
2026-01-02 00:18:45.32	30.93	25.52	-47.6	-49.6	15.3	0.00e+00	0	54	0	414187520	57	4698
2026-01-02 00:18:46.31	31.00	25.68	-47.5	-49.5	15.5	0.00e+00	0	54	0	416284672	57	4639
2026-01-02 00:18:47.30	31.07	25.83	-47.5	-49.5	15.5	0.00e+00	0	54	0	418381824	57	4619
2026-01-02 00:18:48.28	31.14	25.99	-47.4	-49.3	15.6	0.00e+00	0	54	0	419430400	57	4532
2026-01-02 00:18:49.28	31.21	26.15	-47.1	-48.9	16.0	0.00e+00	0	54	0	421527552	57	4328
2026-01-02 00:18:50.27	31.28	26.31	-47.0	-48.8	16.2	0.00e+00	0	54	0	423624704	57	4266
2026-01-02 00:18:51.26	31.35	26.47	-47.0	-48.7	16.2	0.00e+00	0	54	0	425721856	56	4468
2026-01-02 00:18:52.25	31.42	26.63	-46.7	-48.4	16.6	0.00e+00	0	54	0	426770432	56	4296
2026-01-02 00:18:53.24	31.49	26.80	-46.6	-48.2	16.7	0.00e+00	0	54	0	428867584	56	4240
2026-01-02 00:18:54.22	31.57	26.96	-46.4	-48.0	16.8	0.00e+00	0	54	0	430964736	55	4362
2026-01-02 00:18:55.22	31.64	27.12	-46.3	-47.8	17.0	0.00e+00	0	54	0	433061888	55	4269
2026-01-02 00:18:56.21	31.71	27.29	-46.0	-47.5	17.4	0.00e+00	0	54	0	435159040	55	4101
2026-01-02 00:18:57.19	31.79	27.45	-46.0	-47.4	17.4	0.00e+00	0	54	0	436207616	55	4057
2026-01-02 00:18:58.19	31.87	27.62	-46.2	-47.6	17.3	0.00e+00	0	55	0	438304768	55	4190
2026-01-02 00:18:59.18	31.94	27.79	-46.3	-47.8	17.1	0.00e+00	0	55	0	440401920	55	4243
2026-01-02 00:19:00.16	32.02	27.96	-46.3	-47.8	17.0	0.00e+00	0	54	0	442499072	55	4259
2026-01-02 00:19:01.15	32.10	28.13	-46.3	-47.9	16.9	0.00e+00	0	55	0	443547648	55	4293
2026-01-02 00:19:02.14	32.18	28.30	-46.6	-48.2	16.6	0.00e+00	0	55	0	445644800	55	4465
2026-01-02 00:19:03.13	32.26	28.47	-46.5	-48.1	16.7	0.00e+00	0	54	0	447741952	55	4405
2026-01-02 00:19:04.12	32.34	28.65	-46.5	-48.1	16.7	0.00e+00	0	55	0	449839104	55	4414
2026-01-02 00:19:05.11	32.42	28.82	-46.6	-48.2	16.6	0.00e+00	0	54	0	450887680	55	4472
2026-01-02 00:19:06.10	32.50	29.00	-46.7	-48.3	16.5	0.00e+00	0	54	0	452984832	55	4541
2026-01-02 00:19:07.09	32.58	29.17	-46.9	-48.7	16.1	0.00e+00	0	54	0	455081984	55	4757
2026-01-02 00:19:08.08	32.67	29.35	-47.3	-49.2	15.8	0.00e+00	0	55	0	457179136	56	4736
2026-01-02 00:19:09.07	32.75	29.53	-47.4	-49.3	15.7	0.00e+00	0	55	0	458227712	56	4766
2026-01-02 00:19:10.06	32.84	29.71	-47.7	-49.8	15.2	0.00e+00	0	55	0	460324864	57	4801
2026-01-02 00:19:11.05	32.93	29.89	-47.5	-49.4	15.5	0.00e+00	0	55	0	462422016	57	4582
2026-01-02 00:19:12.03	33.01	30.07	-48.0	-50.2	14.9	0.00e+00	0	55	0	464519168	57	4993
2026-01-02 00:19:13.02	33.10	30.25	-47.8	-50.0	15.0	0.00e+00	0	55	0	466616320	57	4880
2026-01-02 00:19:14.00	33.19	30.44	-47.9	-50.1	15.0	0.00e+00	0	55	0	467664896	58	4658
2026-01-02 00:19:14.99	33.28	30.62	-48.2	-50.5	14.6	0.00e+00	0	55	0	469762048	58	4899
2026-01-02 00:19:15.97	33.37	30.81	-48.3	-50.6	14.4	0.00e+00	0	55	0	471859200	58	4977
2026-01-02 00:19:16.96	33.46	30.99	-48.3	-50.7	14.4	1.50e-06	0	55	0	473956352	58	5009
2026-01-02 00:19:17.94	33.56	31.18	-48.3	-50.8	14.3	1.50e-06	0	55	0	475004928	58	5043
2026-01-02 00:19:18.93	33.65	31.37	-48.5	-50.9	14.1	1.50e-06	0	55	0	477102080	58	5137
2026-01-02 00:19:19.92	33.75	31.56	-48.6	-51.1	13.9	3.80e-06	0	55	0	479199232	59	4971
2026-01-02 00:19:20.92	33.85	31.75	-48.6	-51.2	13.8	7.00e-07	0	55	0	481296384	59	4991
2026-01-02 00:19:21.90	33.94	31.95	-48.9	-51.7	13.3	1.98e-05	0	55	0	482344960	60	4987
2026-01-02 00:19:22.89	34.04	32.14	-48.7	-51.5	13.6	1.52e-05	0	55	0	484442112	60	4876
2026-01-02 00:19:23.88	34.14	32.34	-48.9	-51.9	13.0	2.28e-05	0	55	0	486539264	60	5133
2026-01-02 00:19:24.87	34.24	32.53	-48.7	-51.6	13.2	4.95e-05	0	55	0	488636416	60	4938
2026-01-02 00:19:25.85	34.34	32.73	-48.8	-51.8	13.2	1.37e-05	0	55	0	490733568	60	5080
2026-01-02 00:19:26.85	34.45	32.93	-48.7	-51.5	13.4	1.60e-05	0	55	0	491782144	60	4887
2026-01-02 00:19:27.84	34.55	33.13	-48.7	-51.4	13.5	2.28e-05	0	55	0	493879296	60	4857
2026-01-02 00:19:28.83	34.66	33.33	-48.7	-51.3	13.7	3.80e-06	0	55	0	495976448	59	5065
2026-01-02 00:19:29.82	34.77	33.54	-48.6	-51.3	13.8	1.06e-05	0	55	0	498073600	59	5061
2026-01-02 00:19:30.80	34.88	33.74	-48.7	-51.5	13.6	1.14e-05	0	55	0	499122176	59	5199
2026-01-02 00:19:31.79	34.99	33.94	-48.7	-51.2	13.8	4.50e-06	0	55	0	501219328	59	5030
2026-01-02 00:19:32.78	35.10	34.15	-48.5	-51.0	13.9	7.00e-07	0	55	0	503316480	59	4889
2026-01-02 00:19:33.77	35.21	34.36	-48.6	-51.2	13.8	1.50e-06	0	55	0	505413632	59	5009
2026-01-02 00:19:34.76	35.33	34.57	-48.3	-50.7	14.3	7.00e-07	0	55	0	506462208	59	4722
2026-01-02 00:19:35.75	35.44	34.78	-48.4	-50.9	14.1	7.00e-07	0	55	0	508559360	59	4860
2026-01-02 00:19:36.74	35.56	34.99	-48.6	-51.1	13.9	5.30e-06	0	55	0	510656512	59	4938
2026-01-02 00:19:37.73	35.68	35.20	-48.5	-51.1	13.9	3.00e-06	0	55	0	512753664	59	4960
2026-01-02 00:19:38.72	35.80	35.42	-49.0	-51.8	13.2	1.44e-05	0	55	0	514850816	59	5381
2026-01-02 00:19:39.71	35.92	35.63	-48.9	-51.6	13.4	1.67e-05	0	55	0	515899392	60	4952
2026-01-02 00:19:40.69	36.04	35.85	-49.0	-51.9	13.1	1.67e-05	0	55	0	517996544	60	5157
2026-01-02 00:19:41.68	36.17	36.07	-49.3	-52.5	12.5	1.23e-04	0	55	0	520093696	60	5515
2026-01-02 00:19:42.66	36.29	36.28	-49.3	-52.3	12.6	9.53e-05	0	55	0	522190848	60	5392
2026-01-02 00:19:43.65	36.42	36.51	-48.8	-51.5	13.6	8.31e-05	0	55	0	523239424	60	4877
2026-01-02 00:19:44.65	36.55	36.73	-49.0	-51.9	13.1	1.98e-05	0	55	0	525336576	60	5106
2026-01-02 00:19:45.63	36.68	36.95	-49.0	-51.8	13.3	2.21e-05	0	55	0	527433728	60	5061
2026-01-02 00:19:46.62	36.81	37.18	-49.0	-51.9	13.1	1.67e-05	0	55	0	529530880	60	5149
2026-01-02 00:19:47.60	36.95	37.40	-49.2	-52.4	12.7	2.44e-05	0	55	0	530579456	60	5407
2026-01-02 00:19:48.59	37.08	37.63	-49.2	-52.4	12.8	5.34e-05	0	55	0	532676608	60	5408
2026-01-02 00:19:49.58	37.22	37.86	-48.9	-51.6	13.3	2.82e-05	0	55	0	534773760	60	4968
2026-01-02 00:19:50.57	37.36	38.09	-49.0	-52.0	13.0	6.02e-05	0	55	0	536870912	60	5180
2026-01-02 00:19:51.56	37.51	38.32	-48.9	-51.7	13.3	3.35e-05	0	55	0	537919488	60	5026
2026-01-02 00:19:52.55	37.65	38.56	-48.6	-51.1	14.0	7.60e-06	0	55	0	540016640	60	4678
2026-01-02 00:19:53.54	37.80	38.79	-48.8	-51.6	13.3	6.10e-06	0	55	0	542113792	60	4976
2026-01-02 00:19:54.54	37.95	39.03	-48.9	-51.7	13.4	2.21e-05	0	55	0	544210944	60	5028
2026-01-02 00:19:55.53	38.10	39.27	-49.2	-52.2	12.9	5.56e-05	0	55	0	546308096	60	5284
2026-01-02 00:19:56.52	38.25	39.51	-49.5	-52.8	12.3	1.08e-04	0	55	0	547356672	60	5695
2026-01-02 00:19:57.50	38.41	39.75	-49.8	-53.4	11.5	4.24e-04	0	55	0	549453824	61	5749
2026-01-02 00:19:58.48	38.56	39.99	-49.9	-53.6	11.5	6.07e-04	0	55	0	551550976	61	5875
2026-01-02 00:19:59.48	38.72	40.23	-49.8	-53.6	11.4	1.02e-03	0	55	0	553648128	61	5860
2026-01-02 00:20:00.46	38.88	40.48	-49.9	-53.6	11.5	5.65e-04	0	55	0	554696704	61	5883
2026-01-02 00:20:01.44	39.05	40.72	-50.0	-53.8	11.2	1.07e-03	0	55	0	556793856	62	5703
2026-01-02 00:20:02.43	39.21	40.97	-50.0	-53.9	11.1	1.66e-03	0	55	0	558891008	62	5733
2026-01-02 00:20:03.42	39.38	41.22	-49.7	-53.2	11.9	6.82e-04	0	55	0	560988160	62	5285
2026-01-02 00:20:04.40	39.55	41.47	-50.0	-53.9	11.1	1.41e-03	0	55	0	562036736	62	5724
2026-01-02 00:20:05.39	39.73	41.72	-50.2	-54.2	10.6	5.50e-03	0	55	0	564133888	62	5973
2026-01-02 00:20:06.38	39.91	41.97	-50.2	-54.3	10.7	2.62e-03	0	55	0	566231040	62	6046
2026-01-02 00:20:07.37	40.09	42.23	-49.9	-53.7	11.3	9.63e-04	0	55	0	568328192	62	5632
2026-01-02 00:20:08.36	40.27	42.49	-49.7	-53.4	11.6	4.90e-04	0	55	0	570425344	62	5405
2026-01-02 00:20:09.35	40.45	42.74	-49.1	-52.1	13.0	1.27e-04	0	56	0	571473920	61	4937
2026-01-02 00:20:10.34	40.64	43.00	-49.0	-52.0	13.0	6.94e-05	0	55	0	573571072	61	4883
2026-01-02 00:20:11.33	40.84	43.27	-48.9	-51.7	13.4	3.43e-05	0	55	0	575668224	61	4755
2026-01-02 00:20:12.31	41.03	43.53	-48.9	-51.5	13.6	9.10e-06	0	55	0	577765376	60	4921
2026-01-02 00:20:13.30	41.23	43.79	-48.9	-51.8	13.2	1.67e-05	0	55	0	578813952	60	5051
2026-01-02 00:20:14.29	41.43	44.06	-48.3	-50.5	14.5	2.20e-06	0	55	0	580911104	59	4632
2026-01-02 00:20:15.28	41.63	44.32	-48.4	-50.8	14.3	7.00e-07	0	55	0	583008256	59	4787
2026-01-02 00:20:16.26	41.84	44.59	-48.5	-50.9	14.2	3.00e-06	0	55	0	585105408	59	4818
2026-01-02 00:20:17.25	42.05	44.86	-48.5	-50.9	14.2	3.00e-06	0	55	0	586153984	59	4828
2026-01-02 00:20:18.24	42.26	45.13	-48.8	-51.4	13.7	1.50e-06	0	55	0	588251136	59	5141
2026-01-02 00:20:19.21	42.48	45.40	-48.9	-51.6	13.5	1.14e-05	0	55	0	590348288	59	5252
2026-01-02 00:20:20.20	42.70	45.67	-49.0	-51.8	13.3	1.98e-05	0	56	0	592445440	60	5085
2026-01-02 00:20:21.19	42.93	45.95	-48.6	-51.1	14.0	9.10e-06	0	55	0	594542592	60	4656
2026-01-02 00:20:22.18	43.16	46.23	-48.5	-50.9	14.3	1.50e-06	0	55	0	595591168	59	4819
2026-01-02 00:20:23.17	43.39	46.50	-48.2	-50.4	14.7	0.00e+00	0	55	0	597688320	59	4579
2026-01-02 00:20:24.16	43.63	46.78	-48.4	-50.8	14.3	0.00e+00	0	55	0	599785472	58	5052
2026-01-02 00:20:25.15	43.87	47.07	-48.4	-50.7	14.4	0.00e+00	0	55	0	601882624	58	5031
2026-01-02 00:20:26.14	44.12	47.35	-48.3	-50.6	14.6	0.00e+00	0	55	0	602931200	58	4983
2026-01-02 00:20:27.12	44.37	47.63	-48.4	-50.7	14.5	0.00e+00	0	55	0	605028352	58	4988
2026-01-02 00:20:28.11	44.62	47.91	-47.9	-50.0	15.1	0.00e+00	0	56	0	607125504	58	4618
2026-01-02 00:20:29.09	44.88	48.20	-48.0	-50.1	15.0	0.00e+00	0	55	0	609222656	58	4658
2026-01-02 00:20:30.08	45.15	48.49	-47.4	-49.2	16.0	0.00e+00	0	55	0	610271232	57	4446
2026-01-02 00:20:31.07	45.42	48.78	-47.1	-48.8	16.3	0.00e+00	0	56	0	612368384	57	4278
2026-01-02 00:20:32.06	45.69	49.07	-46.7	-48.3	16.7	0.00e+00	0	56	0	614465536	56	4281
2026-01-02 00:20:33.05	45.97	49.36	-47.1	-48.8	16.3	0.00e+00	0	56	0	616562688	56	4538
2026-01-02 00:20:34.04	46.26	49.65	-47.1	-48.7	16.4	0.00e+00	0	56	0	617611264	56	4484
2026-01-02 00:20:35.03	46.55	49.94	-47.4	-49.2	15.9	0.00e+00	0	56	0	619708416	56	4731
2026-01-02 00:20:36.02	46.85	50.24	-46.9	-48.5	16.5	0.00e+00	0	56	0	621805568	56	4375
2026-01-02 00:20:37.01	47.15	50.54	-46.9	-48.5	16.5	0.00e+00	0	55	0	623902720	56	4390
2026-01-02 00:20:37.99	47.46	50.83	-47.4	-49.3	15.9	0.00e+00	0	56	0	625999872	56	4769
2026-01-02 00:20:38.98	47.77	51.13	-46.7	-48.3	16.8	0.00e+00	0	56	0	627048448	56	4269
2026-01-02 00:20:39.98	48.09	51.43	-46.1	-47.6	17.3	0.00e+00	0	55	0	629145600	55	4153
2026-01-02 00:20:40.97	48.42	51.73	-45.5	-46.8	18.1	0.00e+00	0	55	0	631242752	54	4041
2026-01-02 00:20:41.96	48.76	52.03	-45.6	-46.9	18.0	0.00e+00	0	55	0	633339904	54	4072
2026-01-02 00:20:42.94	49.09	52.33	-45.8	-47.2	17.7	0.00e+00	0	55	0	634388480	54	4229
2026-01-02 00:20:43.93	49.44	52.63	-45.8	-47.2	17.7	0.00e+00	0	56	0	636485632	54	4231
2026-01-02 00:20:44.92	49.79	52.94	-45.8	-47.1	17.7	0.00e+00	0	56	0	638582784	54	4177
2026-01-02 00:20:45.91	50.16	53.24	-45.6	-46.8	18.1	0.00e+00	0	56	0	640679936	54	4049
2026-01-02 00:20:46.89	50.52	53.54	-45.3	-46.5	18.4	0.00e+00	0	56	0	641728512	53	4106
2026-01-02 00:20:47.88	50.90	53.85	-45.4	-46.7	18.2	0.00e+00	0	56	0	643825664	53	4202
2026-01-02 00:20:48.87	51.29	54.16	-44.9	-46.1	18.8	0.00e+00	0	56	0	645922816	53	3918
2026-01-02 00:20:49.86	51.68	54.46	-44.7	-45.7	18.9	0.00e+00	0	55	0	648019968	52	4002
2026-01-02 00:20:50.86	52.09	54.77	-44.4	-45.5	19.4	0.00e+00	0	56	0	650117120	51	4105
2026-01-02 00:20:51.84	52.49	55.08	-44.9	-46.0	19.0	0.00e+00	0	56	0	651165696	51	4361
2026-01-02 00:20:52.83	52.91	55.39	-45.0	-46.2	18.8	0.00e+00	0	56	0	653262848	51	4444
2026-01-02 00:20:53.82	53.34	55.70	-45.1	-46.3	18.6	0.00e+00	0	56	0	655360000	52	4249
2026-01-02 00:20:54.80	53.77	56.00	-44.9	-46.0	18.9	0.00e+00	0	56	0	657457152	52	4104
2026-01-02 00:20:55.78	54.22	56.31	-44.6	-45.7	19.1	0.00e+00	0	56	0	658505728	52	3961
2026-01-02 00:20:56.76	54.67	56.61	-45.1	-46.3	18.6	0.00e+00	0	56	0	660602880	52	4263
2026-01-02 00:20:57.75	55.14	56.92	-46.0	-47.4	17.6	0.00e+00	0	56	0	662700032	53	4562
2026-01-02 00:20:58.74	55.62	57.23	-46.1	-47.6	17.3	0.00e+00	0	56	0	664797184	54	4402
2026-01-02 00:20:59.72	56.10	57.54	-46.2	-47.7	17.2	0.00e+00	0	56	0	665845760	54	4481
2026-01-02 00:21:00.71	56.60	57.84	-45.8	-47.2	17.8	0.00e+00	0	56	0	667942912	54	4195
2026-01-02 00:21:01.69	57.11	58.15	-45.7	-47.0	17.9	0.00e+00	0	56	0	670040064	54	4101
2026-01-02 00:21:02.69	57.64	58.46	-46.0	-47.4	17.5	0.00e+00	0	56	0	672137216	54	4335
2026-01-02 00:21:03.67	58.17	58.76	-46.1	-47.5	17.4	0.00e+00	0	56	0	673185792	54	4349
2026-01-02 00:21:04.67	58.72	59.07	-45.7	-46.9	17.9	0.00e+00	0	56	0	675282944	54	4091
2026-01-02 00:21:05.65	59.28	59.37	-44.9	-46.0	18.8	0.00e+00	0	56	0	677380096	53	3903
2026-01-02 00:21:06.64	59.85	59.68	-45.1	-46.2	18.6	0.00e+00	0	56	0	679477248	52	4226
2026-01-02 00:21:07.63	60.44	59.98	-46.3	-47.7	17.2	0.00e+00	0	56	0	681574400	54	4485
2026-01-02 00:21:08.62	61.04	60.28	-46.8	-48.5	16.4	0.00e+00	0	56	0	682622976	55	4643
2026-01-02 00:21:09.61	61.66	60.58	-47.2	-49.1	16.0	0.00e+00	0	56	0	684720128	56	4652
2026-01-02 00:21:10.59	62.28	60.88	-47.0	-48.6	16.4	0.00e+00	0	56	0	686817280	56	4438
2026-01-02 00:21:11.58	62.93	61.17	-46.8	-48.4	16.6	0.00e+00	0	56	0	688914432	56	4330
2026-01-02 00:21:12.57	63.59	61.47	-47.1	-48.9	16.3	0.00e+00	0	56	0	689963008	56	4557
2026-01-02 00:21:13.55	64.26	61.76	-47.0	-48.8	16.4	0.00e+00	0	56	0	692060160	56	4503
2026-01-02 00:21:14.54	64.95	62.05	-47.0	-48.8	16.4	0.00e+00	0	56	0	694157312	56	4502
2026-01-02 00:21:15.53	65.66	62.34	-47.1	-48.9	16.2	0.00e+00	0	56	0	696254464	56	4553
2026-01-02 00:21:16.52	66.38	62.63	-46.8	-48.4	16.7	0.00e+00	0	56	0	697303040	56	4335
2026-01-02 00:21:17.51	67.12	62.91	-46.2	-47.7	17.3	0.00e+00	0	56	0	699400192	55	4203
2026-01-02 00:21:18.50	67.89	63.19	-45.5	-46.7	18.2	0.00e+00	0	56	0	701497344	54	3979
2026-01-02 00:21:19.49	68.66	63.47	-45.0	-46.1	18.8	0.00e+00	0	56	0	703594496	53	3944
2026-01-02 00:21:20.48	69.46	63.74	-45.1	-46.3	18.6	0.00e+00	0	56	0	705691648	52	4254
2026-01-02 00:21:21.47	70.28	64.01	-45.5	-46.7	18.2	0.00e+00	0	56	0	706740224	53	4213
2026-01-02 00:21:22.46	71.11	64.28	-45.7	-47.0	17.9	0.00e+00	0	56	0	708837376	53	4365
2026-01-02 00:21:23.45	71.96	64.54	-46.0	-47.4	17.6	0.00e+00	0	56	0	710934528	54	4308
2026-01-02 00:21:24.44	72.84	64.80	-46.0	-47.5	17.5	0.00e+00	0	56	0	713031680	54	4341
2026-01-02 00:21:25.43	73.73	65.05	-45.9	-47.3	17.7	0.00e+00	0	56	0	714080256	54	4254
2026-01-02 00:21:26.42	74.65	65.30	-46.0	-47.4	17.6	0.00e+00	0	56	0	716177408	54	4326
2026-01-02 00:21:27.41	75.58	65.54	-46.1	-47.6	17.3	0.00e+00	0	56	0	718274560	54	4421
2026-01-02 00:21:28.40	76.53	65.78	-45.3	-46.6	18.3	0.00e+00	0	56	0	720371712	53	4154
2026-01-02 00:21:29.40	77.52	66.02	-45.6	-46.9	18.0	0.00e+00	0	56	0	721420288	53	4319
2026-01-02 00:21:30.38	78.51	66.25	-46.2	-47.7	17.4	0.00e+00	0	56	0	723517440	54	4455
2026-01-02 00:21:31.37	79.52	66.47	-46.6	-48.1	16.9	0.00e+00	0	56	0	725614592	55	4417
2026-01-02 00:21:32.35	80.55	66.68	-46.6	-48.1	16.9	0.00e+00	0	56	0	727711744	55	4419
2026-01-02 00:21:33.34	81.61	66.89	-46.1	-47.5	17.4	0.00e+00	0	56	0	729808896	55	4101
2026-01-02 00:21:34.33	82.69	67.09	-47.2	-49.0	16.2	0.00e+00	0	56	0	730857472	56	4612
2026-01-02 00:21:35.32	83.79	67.29	-47.9	-50.0	15.1	0.00e+00	0	56	0	732954624	57	4921
2026-01-02 00:21:36.31	84.91	67.48	-47.8	-49.8	15.3	0.00e+00	0	56	0	735051776	58	4535
2026-01-02 00:21:37.30	86.05	67.66	-46.8	-48.4	16.7	0.00e+00	0	56	0	737148928	56	4312
2026-01-02 00:21:38.29	87.21	67.83	-46.5	-47.9	17.1	0.00e+00	0	56	0	738197504	55	4336
2026-01-02 00:21:39.28	88.39	67.99	-46.6	-48.2	16.7	0.00e+00	0	56	0	740294656	55	4458
2026-01-02 00:21:40.27	89.59	68.15	-47.5	-49.3	15.9	0.00e+00	0	56	0	742391808	57	4518
2026-01-02 00:21:41.26	90.81	68.30	-48.0	-50.0	15.1	0.00e+00	0	56	0	744488960	58	4639
2026-01-02 00:21:42.24	92.03	68.44	-47.9	-50.0	15.2	0.00e+00	0	56	0	745537536	58	4610
2026-01-02 00:21:43.23	93.28	68.57	-48.2	-50.4	14.8	0.00e+00	0	56	0	747634688	58	4819
2026-01-02 00:21:44.23	94.56	68.69	-48.0	-50.2	14.9	0.00e+00	0	56	0	749731840	58	4707
2026-01-02 00:21:45.21	95.83	68.80	-48.9	-51.7	13.5	0.00e+00	0	56	0	751828992	59	5293
2026-01-02 00:21:46.20	97.12	68.90	-49.5	-52.9	12.0	7.09e-05	0	56	0	752877568	61	5422
2026-01-02 00:21:47.19	98.43	68.99	-48.9	-51.7	13.4	4.34e-05	0	56	0	754974720	60	5030
2026-01-02 00:21:48.18	99.75	69.07	-47.9	-50.1	15.0	7.00e-07	0	56	0	757071872	59	4407
2026-01-02 00:21:49.17	101.08	69.14	-47.5	-49.4	15.8	0.00e+00	0	56	0	759169024	57	4546
2026-01-02 00:21:50.16	102.42	69.20	-48.2	-50.5	14.7	0.00e+00	0	56	0	761266176	58	4879
2026-01-02 00:21:51.15	103.77	69.25	-48.3	-50.5	14.7	0.00e+00	0	56	0	762314752	58	4892
2026-01-02 00:21:52.14	105.12	69.29	-47.7	-49.6	15.5	0.00e+00	0	56	0	764411904	58	4441
2026-01-02 00:21:53.13	106.48	69.32	-46.9	-48.6	16.5	0.00e+00	0	56	0	766509056	56	4426
2026-01-02 00:21:54.12	107.84	69.34	-47.4	-49.2	15.8	0.00e+00	0	56	0	768606208	57	4491
2026-01-02 00:21:55.10	109.19	69.35	-48.5	-50.9	14.1	1.50e-06	0	56	0	769654784	59	4854
2026-01-02 00:21:56.08	110.54	69.34	-47.4	-49.3	15.8	0.00e+00	0	56	0	771751936	58	4248
2026-01-02 00:21:57.07	111.90	69.33	-46.2	-47.6	17.4	0.00e+00	0	56	0	773849088	55	4166
2026-01-02 00:21:58.05	113.25	69.30	-46.6	-48.2	16.8	0.00e+00	0	56	0	775946240	55	4469
2026-01-02 00:21:59.04	114.60	69.27	-48.4	-50.8	14.5	0.00e+00	0	56	0	776994816	58	5050
2026-01-02 00:22:00.03	115.95	69.22	-48.1	-50.3	14.8	0.00e+00	0	56	0	779091968	58	4789
2026-01-02 00:22:01.02	117.30	69.17	-47.2	-49.0	16.0	0.00e+00	0	56	0	781189120	57	4346
2026-01-02 00:22:02.01	118.63	69.10	-47.3	-49.1	16.0	0.00e+00	0	56	0	783286272	57	4437
2026-01-02 00:22:03.00	119.95	69.02	-47.6	-49.6	15.6	0.00e+00	0	56	0	785383424	57	4658
2026-01-02 00:22:03.98	121.25	68.93	-48.2	-50.3	14.8	0.00e+00	0	56	0	786432000	58	4813
2026-01-02 00:22:04.97	122.55	68.84	-48.4	-50.6	14.6	1.50e-06	0	56	0	788529152	58	4974
2026-01-02 00:22:05.96	123.84	68.73	-48.8	-51.4	13.8	5.30e-06	0	56	0	790626304	59	5131
2026-01-02 00:22:06.94	125.10	68.61	-49.2	-52.2	12.9	4.95e-05	0	56	0	792723456	60	5331
2026-01-02 00:22:07.94	126.37	68.49	-49.3	-52.4	12.7	1.08e-04	0	56	0	793772032	61	5156
2026-01-02 00:22:08.93	127.61	68.35	-49.1	-51.9	13.2	5.03e-05	0	56	0	795869184	61	4825
2026-01-02 00:22:09.92	128.84	68.21	-48.4	-50.8	14.3	2.20e-06	0	56	0	797966336	60	4525
2026-01-02 00:22:10.90	130.03	68.05	-47.5	-49.4	15.7	0.00e+00	0	56	0	800063488	58	4336
2026-01-02 00:22:11.90	131.23	67.89	-47.8	-49.7	15.4	0.00e+00	0	56	0	801112064	57	4752
2026-01-02 00:22:12.89	132.40	67.72	-48.3	-50.6	14.6	0.00e+00	0	56	0	803209216	58	4957
2026-01-02 00:22:13.88	133.55	67.54	-46.9	-48.5	16.6	0.00e+00	0	56	0	805306368	56	4378
2026-01-02 00:22:14.87	134.68	67.36	-45.5	-46.8	18.1	0.00e+00	0	56	0	807403520	54	4020
2026-01-02 00:22:15.85	135.77	67.17	-45.9	-47.3	17.7	0.00e+00	0	56	0	809500672	54	4247
2026-01-02 00:22:16.83	136.85	66.97	-46.7	-48.3	16.7	0.00e+00	0	56	0	810549248	55	4535
2026-01-02 00:22:17.83	137.93	66.76	-46.5	-48.0	16.9	0.00e+00	0	56	0	812646400	55	4391
2026-01-02 00:22:18.82	138.98	66.54	-45.9	-47.3	17.7	0.00e+00	0	56	0	814743552	54	4259
2026-01-02 00:22:19.81	140.00	66.32	-45.1	-46.3	18.6	0.00e+00	0	56	0	816840704	53	4020
2026-01-02 00:22:20.79	141.00	66.10	-44.8	-45.9	19.0	0.00e+00	0	56	0	817889280	52	4065
2026-01-02 00:22:21.78	141.98	65.87	-45.3	-46.5	18.4	0.00e+00	0	56	0	819986432	52	4367
2026-01-02 00:22:22.77	142.94	65.63	-45.1	-46.3	18.7	0.00e+00	0	56	0	822083584	52	4257
2026-01-02 00:22:23.76	143.89	65.39	-44.9	-46.0	18.9	0.00e+00	0	56	0	824180736	52	4116
2026-01-02 00:22:24.75	144.81	65.14	-45.5	-46.8	18.1	0.00e+00	0	56	0	825229312	52	4514
2026-01-02 00:22:25.74	145.71	64.89	-45.7	-47.0	18.0	0.00e+00	0	56	0	827326464	53	4375
2026-01-02 00:22:26.73	146.59	64.63	-45.4	-46.6	18.3	0.00e+00	0	56	0	829423616	53	4186
2026-01-02 00:22:27.72	147.45	64.37	-45.7	-47.0	18.0	0.00e+00	0	56	0	831520768	53	4352
2026-01-02 00:22:28.72	148.30	64.10	-46.3	-47.7	17.3	0.00e+00	0	56	0	832569344	54	4483
2026-01-02 00:22:29.69	149.11	63.84	-47.0	-48.8	16.4	0.00e+00	0	56	0	834666496	55	4767
2026-01-02 00:22:30.68	149.92	63.56	-47.6	-49.6	15.5	0.00e+00	0	56	0	836763648	57	4692
2026-01-02 00:22:31.67	150.70	63.29	-47.3	-49.1	15.9	0.00e+00	0	56	0	838860800	57	4440
2026-01-02 00:22:32.65	151.46	63.01	-46.3	-47.8	17.2	0.00e+00	0	56	0	840957952	55	4249
2026-01-02 00:22:33.64	152.21	62.73	-46.4	-47.9	17.2	0.00e+00	0	56	0	842006528	55	4302
2026-01-02 00:22:34.63	152.95	62.44	-47.0	-48.7	16.3	0.00e+00	0	56	0	844103680	55	4746
2026-01-02 00:22:35.62	153.66	62.16	-46.9	-48.6	16.5	0.00e+00	0	56	0	846200832	56	4404
2026-01-02 00:22:36.60	154.35	61.87	-47.1	-48.9	16.2	0.00e+00	0	56	0	848297984	56	4549
2026-01-02 00:22:37.58	155.03	61.58	-47.5	-49.4	15.8	0.00e+00	0	56	0	849346560	57	4578
2026-01-02 00:22:38.57	155.70	61.28	-46.9	-48.6	16.5	0.00e+00	0	56	0	851443712	57	4155
2026-01-02 00:22:39.56	156.35	60.99	-46.6	-48.1	17.0	0.00e+00	0	56	0	853540864	56	4163
2026-01-02 00:22:40.55	156.99	60.69	-46.2	-47.7	17.3	0.00e+00	0	56	0	855638016	55	4211
2026-01-02 00:22:41.54	157.61	60.39	-45.4	-46.6	18.3	0.00e+00	0	56	0	856686592	53	4148
2026-01-02 00:22:42.53	158.22	60.09	-44.7	-45.8	19.0	0.00e+00	0	56	0	858783744	52	4017
2026-01-02 00:22:43.52	158.81	59.78	-44.8	-45.9	18.9	0.00e+00	0	56	0	860880896	52	4098
2026-01-02 00:22:44.51	159.39	59.48	-45.4	-46.6	18.4	0.00e+00	0	56	0	862978048	52	4416
2026-01-02 00:22:45.49	159.95	59.18	-46.2	-47.7	17.2	0.00e+00	0	56	0	865075200	54	4486
2026-01-02 00:22:46.49	160.51	58.87	-45.5	-46.8	18.1	0.00e+00	0	56	0	866123776	54	4050
2026-01-02 00:22:47.48	161.05	58.56	-44.2	-45.1	19.8	0.00e+00	0	56	0	868220928	51	3941
2026-01-02 00:22:48.46	161.57	58.26	-44.2	-45.2	19.7	0.00e+00	0	56	0	870318080	50	4194
2026-01-02 00:22:49.45	162.09	57.95	-45.8	-47.1	17.8	0.00e+00	0	56	0	872415232	53	4440
2026-01-02 00:22:50.44	162.60	57.64	-46.4	-48.0	17.0	0.00e+00	0	56	0	873463808	54	4604
2026-01-02 00:22:51.43	163.09	57.33	-46.0	-47.4	17.6	0.00e+00	0	56	0	875560960	54	4331
2026-01-02 00:22:52.42	163.57	57.02	-45.9	-47.3	17.7	0.00e+00	0	56	0	877658112	54	4247
2026-01-02 00:22:53.41	164.05	56.71	-45.8	-47.1	17.8	0.00e+00	0	56	0	879755264	54	4160
2026-01-02 00:22:54.40	164.51	56.40	-44.8	-45.9	18.9	0.00e+00	0	56	0	880803840	52	4078
2026-01-02 00:22:55.39	164.96	56.09	-44.6	-45.7	19.3	0.00e+00	0	56	0	882900992	51	4201
2026-01-02 00:22:56.38	165.40	55.78	-45.5	-46.7	18.2	0.00e+00	0	56	0	884998144	52	4487
2026-01-02 00:22:57.38	165.84	55.47	-45.9	-47.3	17.6	0.00e+00	0	56	0	887095296	54	4291
2026-01-02 00:22:58.36	166.26	55.16	-44.7	-45.8	19.0	0.00e+00	0	56	0	889192448	52	4040
2026-01-02 00:22:59.34	166.67	54.86	-44.1	-45.0	19.8	0.00e+00	0	56	0	890241024	51	3891
2026-01-02 00:23:00.33	167.07	54.55	-44.5	-45.5	19.5	0.00e+00	0	56	0	892338176	51	4127
2026-01-02 00:23:01.31	167.47	54.24	-45.5	-46.8	18.1	0.00e+00	0	56	0	894435328	52	4515
2026-01-02 00:23:02.31	167.86	53.93	-45.6	-46.9	18.0	0.00e+00	0	56	0	896532480	53	4326
2026-01-02 00:23:03.29	168.23	53.63	-46.4	-48.0	17.1	0.00e+00	0	56	0	897581056	54	4609
2026-01-02 00:23:04.28	168.61	53.32	-46.4	-48.0	17.0	0.00e+00	0	56	0	899678208	54	4628
2026-01-02 00:23:05.27	168.97	53.02	-46.5	-48.0	17.0	0.00e+00	0	57	0	901775360	55	4365
2026-01-02 00:23:06.26	169.33	52.71	-45.7	-47.0	18.0	0.00e+00	0	56	0	903872512	54	4110
2026-01-02 00:23:07.24	169.68	52.41	-45.2	-46.4	18.5	0.00e+00	0	56	0	904921088	53	4058
2026-01-02 00:23:08.23	170.02	52.11	-45.9	-47.3	17.6	0.00e+00	0	56	0	907018240	53	4495
2026-01-02 00:23:09.22	170.36	51.81	-46.7	-48.3	16.7	0.00e+00	0	57	0	909115392	55	4536
2026-01-02 00:23:10.22	170.69	51.50	-46.1	-47.5	17.4	0.00e+00	0	57	0	911212544	55	4127
2026-01-02 00:23:11.21	171.01	51.20	-45.0	-46.2	18.7	0.00e+00	0	57	0	912261120	53	3965
2026-01-02 00:23:12.20	171.33	50.90	-44.6	-45.6	19.2	0.00e+00	0	56	0	914358272	52	3958
2026-01-02 00:23:13.19	171.64	50.60	-44.5	-45.6	19.3	0.00e+00	0	57	0	916455424	51	4148
2026-01-02 00:23:14.18	171.95	50.31	-45.0	-46.1	18.7	0.00e+00	0	56	0	918552576	52	4181
2026-01-02 00:23:15.17	172.24	50.01	-45.3	-46.4	18.4	0.00e+00	0	56	0	920649728	52	4336
2026-01-02 00:23:16.16	172.54	49.71	-46.3	-47.7	17.2	0.00e+00	0	56	0	921698304	54	4478
2026-01-02 00:23:17.15	172.83	49.42	-48.3	-50.5	14.6	0.00e+00	0	57	0	923795456	58	4912
2026-01-02 00:23:18.14	173.11	49.13	-49.1	-52.1	13.0	6.80e-06	0	56	0	925892608	60	5243
2026-01-02 00:23:19.13	173.39	48.84	-49.1	-52.1	13.0	7.01e-05	0	57	0	927989760	60	5223
2026-01-02 00:23:20.13	173.66	48.54	-47.8	-49.8	15.2	1.50e-06	0	56	0	929038336	58	4537
2026-01-02 00:23:21.12	173.93	48.25	-46.8	-48.3	16.9	0.00e+00	0	57	0	931135488	56	4268
2026-01-02 00:23:22.10	174.19	47.97	-46.8	-48.4	16.6	0.00e+00	0	56	0	933232640	56	4317
2026-01-02 00:23:23.09	174.44	47.68	-47.9	-50.1	15.1	0.00e+00	0	56	0	935329792	57	4928
2026-01-02 00:23:24.08	174.70	47.40	-48.8	-51.5	13.7	4.50e-06	0	56	0	937426944	59	5198
2026-01-02 00:23:25.07	174.95	47.11	-49.2	-52.4	12.8	3.28e-05	0	56	0	938475520	60	5410
2026-01-02 00:23:26.06	175.19	46.83	-48.8	-51.5	13.6	1.14e-05	0	56	0	940572672	60	4892
2026-01-02 00:23:27.05	175.43	46.55	-48.5	-50.9	14.2	2.20e-06	0	56	0	942669824	59	4855
2026-01-02 00:23:28.04	175.66	46.27	-47.9	-50.0	15.1	0.00e+00	0	56	0	944766976	59	4381
2026-01-02 00:23:29.02	175.89	45.99	-47.4	-49.3	15.8	0.00e+00	0	56	0	945815552	58	4243
2026-01-02 00:23:30.01	176.12	45.72	-47.4	-49.2	15.9	0.00e+00	0	57	0	947912704	57	4475
2026-01-02 00:23:31.00	176.34	45.44	-48.4	-50.6	14.5	0.00e+00	0	57	0	950009856	58	4975
2026-01-02 00:23:31.99	176.56	45.17	-48.8	-51.4	13.8	0.00e+00	0	56	0	952107008	59	5107
2026-01-02 00:23:32.98	176.78	44.89	-49.9	-53.6	11.7	3.28e-05	0	57	0	953155584	61	5889
2026-01-02 00:23:33.97	176.99	44.62	-50.3	-54.5	10.5	1.76e-03	0	56	0	955252736	62	6162
2026-01-02 00:23:34.96	177.20	44.35	-50.0	-53.9	11.2	5.96e-03	0	56	0	957349888	63	5445
2026-01-02 00:23:35.95	177.41	44.08	-49.0	-51.9	13.1	3.49e-04	0	57	0	959447040	61	4843
2026-01-02 00:23:36.93	177.61	43.82	-48.0	-50.1	15.1	0.00e+00	0	56	0	961544192	59	4398
2026-01-02 00:23:37.92	177.81	43.55	-47.5	-49.4	15.8	0.00e+00	0	57	0	962592768	58	4304
2026-01-02 00:23:38.91	178.00	43.29	-47.3	-49.1	16.0	0.00e+00	0	57	0	964689920	57	4434
2026-01-02 00:23:39.91	178.20	43.02	-47.8	-49.9	15.2	0.00e+00	0	56	0	966787072	57	4865
2026-01-02 00:23:40.89	178.39	42.77	-48.3	-50.7	14.5	7.00e-07	0	56	0	968884224	59	4721
2026-01-02 00:23:41.89	178.57	42.50	-49.1	-52.1	12.9	1.60e-05	0	57	0	969932800	60	5256
2026-01-02 00:23:42.86	178.75	42.25	-49.2	-52.3	12.8	4.57e-05	0	57	0	972029952	60	5385
2026-01-02 00:23:43.85	178.94	41.99	-49.0	-51.8	13.3	3.20e-05	0	57	0	974127104	60	5089
2026-01-02 00:23:44.84	179.11	41.74	-48.1	-50.3	14.7	6.80e-06	0	57	0	976224256	59	4512
2026-01-02 00:23:45.84	179.29	41.48	-47.0	-48.7	16.3	0.00e+00	0	57	0	977272832	57	4237
2026-01-02 00:23:46.82	179.46	41.23	-46.6	-48.1	17.0	0.00e+00	0	56	0	979369984	56	4181
2026-01-02 00:23:47.82	179.63	40.98	-46.1	-47.5	17.4	0.00e+00	0	57	0	981467136	55	4140
2026-01-02 00:23:48.81	179.80	40.73	-46.3	-47.7	17.2	0.00e+00	0	57	0	983564288	55	4229
2026-01-02 00:23:49.79	179.97	40.48	-46.8	-48.3	16.6	0.00e+00	0	57	0	985661440	55	4542
2026-01-02 00:23:50.78	180.13	40.24	-48.1	-50.3	14.8	0.00e+00	0	57	0	986710016	58	4773
2026-01-02 00:23:51.78	180.29	39.99	-48.4	-50.8	14.4	7.00e-07	0	56	0	988807168	59	4775
2026-01-02 00:23:52.77	180.45	39.75	-49.1	-52.1	13.1	7.00e-07	0	57	0	990904320	60	5233
2026-01-02 00:23:53.76	180.60	39.50	-49.3	-52.4	12.7	1.69e-04	0	57	0	993001472	60	5405
2026-01-02 00:23:54.74	180.76	39.27	-48.3	-50.7	14.4	8.30e-06	0	57	0	994050048	59	4729
2026-01-02 00:23:55.73	180.91	39.03	-47.8	-49.8	15.3	0.00e+00	0	57	0	996147200	58	4525
2026-01-02 00:23:56.72	181.06	38.79	-47.3	-49.1	16.0	0.00e+00	0	57	0	998244352	57	4409
2026-01-02 00:23:57.71	181.20	38.55	-46.9	-48.5	16.5	0.00e+00	0	57	0	1000341504	56	4367
2026-01-02 00:23:58.70	181.35	38.32	-46.9	-48.6	16.6	0.00e+00	0	57	0	1001390080	56	4406
2026-01-02 00:23:59.69	181.49	38.08	-46.9	-48.6	16.5	0.00e+00	0	56	0	1003487232	56	4410
2026-01-02 00:24:00.69	181.63	37.85	-46.3	-47.7	17.3	0.00e+00	0	57	0	1005584384	55	4235
2026-01-02 00:24:01.68	181.77	37.62	-45.6	-47.0	17.9	0.00e+00	0	56	0	1007681536	54	4107
2026-01-02 00:24:02.67	181.91	37.39	-45.9	-47.3	17.6	0.00e+00	0	56	0	1008730112	54	4267
2026-01-02 00:24:03.67	182.05	37.16	-46.0	-47.4	17.5	0.00e+00	0	56	0	1010827264	54	4311
2026-01-02 00:24:04.66	182.18	36.93	-45.9	-47.3	17.7	0.00e+00	0	56	0	1012924416	54	4265
2026-01-02 00:24:05.65	182.31	36.71	-46.7	-48.4	16.5	0.00e+00	0	57	0	1015021568	55	4576
2026-01-02 00:24:06.64	182.44	36.49	-47.2	-49.0	16.1	0.00e+00	0	56	0	1017118720	56	4605
2026-01-02 00:24:07.63	182.57	36.26	-47.6	-49.6	15.7	0.00e+00	0	56	0	1018167296	56	4931
2026-01-02 00:24:08.62	182.70	36.04	-47.6	-49.6	15.4	0.00e+00	0	57	0	1020264448	57	4693
2026-01-02 00:24:09.61	182.82	35.82	-47.6	-49.5	15.6	0.00e+00	0	57	0	1022361600	57	4619
2026-01-02 00:24:10.60	182.95	35.60	-47.5	-49.5	15.6	0.00e+00	0	57	0	1024458752	57	4600
2026-01-02 00:24:11.59	183.07	35.39	-47.5	-49.4	15.7	0.00e+00	0	57	0	1025507328	57	4549
2026-01-02 00:24:12.58	183.19	35.17	-47.5	-49.4	15.6	0.00e+00	0	56	0	1027604480	57	4562
2026-01-02 00:24:13.57	183.31	34.96	-47.2	-48.9	16.2	0.00e+00	0	56	0	1029701632	57	4304
2026-01-02 00:24:14.56	183.42	34.75	-47.4	-49.1	15.9	0.00e+00	0	57	0	1031798784	57	4432
2026-01-02 00:24:15.56	183.54	34.53	-47.5	-49.3	15.7	0.00e+00	0	57	0	1033895936	57	4521
2026-01-02 00:24:16.55	183.66	34.32	-47.6	-49.5	15.6	0.00e+00	0	57	0	1034944512	57	4622
2026-01-02 00:24:17.54	183.77	34.11	-48.2	-50.4	14.7	0.00e+00	0	56	0	1037041664	58	4861
2026-01-02 00:24:18.52	183.88	33.91	-48.7	-51.3	13.9	0.00e+00	0	57	0	1039138816	59	5044
2026-01-02 00:24:19.51	183.99	33.70	-48.8	-51.5	13.6	4.50e-06	0	57	0	1041235968	59	5185
2026-01-02 00:24:20.50	184.10	33.50	-48.7	-51.3	13.8	9.10e-06	0	57	0	1042284544	59	5077
2026-01-02 00:24:21.49	184.21	33.29	-48.9	-51.6	13.4	1.29e-05	0	56	0	1044381696	60	4977
2026-01-02 00:24:22.48	184.31	33.09	-48.7	-51.4	13.7	3.80e-06	0	57	0	1046478848	60	4823
2026-01-02 00:24:23.47	184.42	32.89	-48.4	-50.9	14.1	7.00e-07	0	57	0	1048576000	60	4581
2026-01-02 00:24:24.46	184.52	32.69	-48.6	-51.2	13.9	4.50e-06	0	57	0	1049624576	60	4739
2026-01-02 00:24:25.46	184.63	32.49	-48.5	-50.9	14.1	7.00e-07	0	57	0	1051721728	59	4852
2026-01-02 00:24:26.45	184.73	32.29	-48.6	-51.2	13.9	1.50e-06	0	57	0	1053818880	59	5037
2026-01-02 00:24:27.44	184.83	32.09	-48.2	-50.5	14.7	0.00e+00	0	57	0	1055916032	59	4599
2026-01-02 00:24:28.43	184.93	31.90	-47.6	-49.6	15.5	0.00e+00	0	57	0	1058013184	58	4414
2026-01-02 00:24:29.43	185.03	31.70	-47.7	-49.6	15.5	0.00e+00	0	57	0	1059061760	58	4421
2026-01-02 00:24:30.41	185.12	31.51	-47.5	-49.3	15.7	0.00e+00	0	57	0	1061158912	58	4291
2026-01-02 00:24:31.40	185.22	31.32	-47.5	-49.3	15.7	0.00e+00	0	57	0	1063256064	57	4541
2026-01-02 00:24:32.39	185.31	31.13	-47.7	-49.7	15.3	0.00e+00	0	56	0	1065353216	57	4736
2026-01-02 00:24:33.38	185.40	30.94	-47.6	-49.5	15.6	0.00e+00	0	57	0	1066401792	57	4616
2026-01-02 00:24:34.37	185.50	30.75	-47.7	-49.7	15.4	0.00e+00	0	57	0	1068498944	57	4709
2026-01-02 00:24:35.35	185.59	30.57	-47.6	-49.5	15.5	0.00e+00	0	57	0	1070596096	57	4638
2026-01-02 00:24:36.34	185.68	30.38	-47.5	-49.4	15.6	0.00e+00	0	57	0	1072693248	57	4579
2026-01-02 00:24:37.34	185.77	30.19	-47.4	-49.3	15.8	0.00e+00	0	57	0	1074790400	57	4503
2026-01-02 00:24:38.33	185.86	30.01	-47.7	-49.6	15.4	0.00e+00	0	57	0	1075838976	57	4698
2026-01-02 00:24:39.32	185.95	29.83	-47.6	-49.5	15.6	0.00e+00	0	57	0	1077936128	57	4620
2026-01-02 00:24:40.31	186.03	29.65	-47.5	-49.4	15.6	0.00e+00	0	57	0	1080033280	57	4565
2026-01-02 00:24:41.30	186.12	29.47	-47.9	-50.1	15.0	0.00e+00	0	56	0	1082130432	57	4930
2026-01-02 00:24:42.29	186.20	29.29	-48.1	-50.3	14.7	0.00e+00	0	57	0	1083179008	58	4801
2026-01-02 00:24:43.27	186.29	29.11	-48.4	-50.8	14.4	7.00e-07	0	57	0	1085276160	58	5062
2026-01-02 00:24:44.26	186.37	28.93	-48.9	-51.6	13.5	3.80e-06	0	57	0	1087373312	59	5226
2026-01-02 00:24:45.25	186.45	28.76	-48.9	-51.7	13.3	1.67e-05	0	57	0	1089470464	60	5025
2026-01-02 00:24:46.25	186.53	28.58	-49.1	-52.0	13.0	3.81e-05	0	57	0	1090519040	60	5207
2026-01-02 00:24:47.23	186.61	28.41	-48.9	-51.9	13.1	2.97e-05	0	57	0	1092616192	60	5119
2026-01-02 00:24:48.23	186.69	28.23	-48.7	-51.4	13.6	1.29e-05	0	57	0	1094713344	60	4849
2026-01-02 00:24:49.21	186.77	28.06	-48.6	-51.1	13.9	6.10e-06	0	57	0	1096810496	60	4705
2026-01-02 00:24:50.19	186.85	27.89	-48.3	-50.6	14.5	1.50e-06	0	57	0	1098907648	59	4688
2026-01-02 00:24:51.18	186.93	27.72	-47.9	-50.0	15.1	7.00e-07	0	57	0	1099956224	59	4353
2026-01-02 00:24:52.17	187.00	27.55	-47.7	-49.6	15.4	0.00e+00	0	57	0	1102053376	58	4421
2026-01-02 00:24:53.16	187.08	27.39	-47.6	-49.5	15.5	0.00e+00	0	57	0	1104150528	58	4365
2026-01-02 00:24:54.15	187.15	27.22	-47.3	-49.0	16.0	0.00e+00	0	57	0	1106247680	57	4384
2026-01-02 00:24:55.13	187.23	27.05	-47.5	-49.4	15.6	0.00e+00	0	57	0	1107296256	57	4555
2026-01-02 00:24:56.12	187.30	26.89	-47.3	-49.2	15.8	0.00e+00	0	57	0	1109393408	57	4462
2026-01-02 00:24:57.11	187.37	26.72	-47.1	-48.9	16.1	0.00e+00	0	57	0	1111490560	57	4307
2026-01-02 00:24:58.09	187.45	26.56	-47.1	-48.9	16.1	0.00e+00	0	57	0	1113587712	57	4305
2026-01-02 00:24:59.09	187.52	26.40	-47.3	-49.1	15.9	0.00e+00	0	57	0	1114636288	57	4400
2026-01-02 00:25:00.08	187.59	26.24	-47.7	-49.8	15.2	0.00e+00	0	57	0	1116733440	57	4776
2026-01-02 00:25:01.07	187.66	26.08	-48.1	-50.3	14.7	0.00e+00	0	57	0	1118830592	57	5050
2026-01-02 00:25:02.06	187.73	25.92	-48.0	-50.3	14.7	7.00e-07	0	57	0	1120927744	58	4778
2026-01-02 00:25:03.05	187.80	25.76	-48.8	-51.4	13.7	0.00e+00	0	57	0	1121976320	59	5133
2026-01-02 00:25:04.04	187.87	25.60	-48.9	-51.7	13.4	1.06e-05	0	57	0	1124073472	59	5294
2026-01-02 00:25:05.04	187.93	25.44	-49.1	-52.1	13.0	4.19e-05	0	57	0	1126170624	60	5239
2026-01-02 00:25:06.03	188.00	25.29	-48.9	-51.7	13.3	2.67e-05	0	57	0	1128267776	60	5005
2026-01-02 00:25:07.01	188.07	25.13	-48.6	-51.2	13.8	6.80e-06	0	57	0	1130364928	60	4712
2026-01-02 00:25:08.01	188.13	24.98	-48.1	-50.4	14.6	0.00e+00	0	57	0	1131413504	59	4591
2026-01-02 00:25:09.00	188.20	24.82	-47.4	-49.4	15.6	0.00e+00	0	57	0	1133510656	58	4297
2026-01-02 00:25:09.98	188.26	24.67	-47.0	-48.8	16.1	0.00e+00	0	57	0	1135607808	57	4285
2026-01-02 00:25:10.97	188.33	24.52	-46.7	-48.3	16.6	0.00e+00	0	57	0	1137704960	56	4281
2026-01-02 00:25:11.97	188.39	24.37	-45.9	-47.4	17.4	0.00e+00	0	57	0	1138753536	55	4061
2026-01-02 00:25:12.96	188.45	24.22	-46.0	-47.5	17.4	0.00e+00	0	57	0	1140850688	54	4357
2026-01-02 00:25:13.94	188.51	24.07	-45.8	-47.2	17.6	0.00e+00	0	57	0	1142947840	54	4196
2026-01-02 00:25:14.92	188.58	23.92	-45.6	-47.0	17.8	0.00e+00	0	57	0	1145044992	54	4106
2026-01-02 00:25:15.91	188.64	23.78	-45.5	-46.8	18.0	0.00e+00	0	57	0	1146093568	54	4016
2026-01-02 00:25:16.90	188.70	23.63	-45.3	-46.5	18.1	0.00e+00	0	57	0	1148190720	53	4141
2026-01-02 00:25:17.89	188.76	23.48	-45.2	-46.4	18.4	0.00e+00	0	57	0	1150287872	53	4078
2026-01-02 00:25:18.87	188.82	23.34	-45.2	-46.4	18.3	0.00e+00	0	57	0	1152385024	53	4094
2026-01-02 00:25:19.86	188.87	23.20	-45.0	-46.1	18.6	0.00e+00	0	57	0	1154482176	53	3956
2026-01-02 00:25:20.86	188.93	23.05	-45.2	-46.4	18.3	0.00e+00	0	57	0	1155530752	53	4084
2026-01-02 00:25:21.84	188.99	22.91	-45.2	-46.4	18.3	0.00e+00	0	57	0	1157627904	53	4076
2026-01-02 00:25:22.84	189.05	22.77	-45.2	-46.5	18.3	0.00e+00	0	57	0	1159725056	53	4104
2026-01-02 00:25:23.83	189.11	22.62	-45.3	-46.5	18.2	0.00e+00	0	57	0	1161822208	53	4125
2026-01-02 00:25:24.82	189.16	22.48	-45.7	-47.0	17.8	0.00e+00	0	57	0	1162870784	53	4357
2026-01-02 00:25:25.82	189.22	22.34	-45.6	-47.0	17.7	0.00e+00	0	57	0	1164967936	53	4377
2026-01-02 00:25:26.80	189.28	22.20	-45.8	-47.2	17.6	0.00e+00	0	57	0	1167065088	53	4471
2026-01-02 00:25:27.79	189.33	22.07	-46.1	-47.5	17.3	0.00e+00	0	57	0	1169162240	54	4381
2026-01-02 00:25:28.78	189.39	21.93	-46.4	-47.9	16.9	0.00e+00	0	57	0	1171259392	54	4589
2026-01-02 00:25:29.77	189.44	21.79	-46.4	-48.0	16.8	0.00e+00	0	57	0	1172307968	54	4641
2026-01-02 00:25:30.75	189.49	21.66	-46.6	-48.2	16.6	0.00e+00	0	57	0	1174405120	55	4447
2026-01-02 00:25:31.73	189.55	21.52	-46.9	-48.6	16.2	0.00e+00	0	57	0	1176502272	55	4696
2026-01-02 00:25:32.71	189.60	21.39	-46.9	-48.7	16.1	0.00e+00	0	57	0	1178599424	55	4713
2026-01-02 00:25:33.70	189.65	21.26	-46.9	-48.6	16.2	0.00e+00	0	57	0	1179648000	55	4699
2026-01-02 00:25:34.69	189.70	21.12	-46.9	-48.7	16.1	0.00e+00	0	57	0	1181745152	55	4732
2026-01-02 00:25:35.68	189.75	20.99	-46.6	-48.3	16.5	0.00e+00	0	56	0	1183842304	55	4510
2026-01-02 00:25:36.66	189.81	20.86	-46.2	-47.7	17.1	0.00e+00	0	57	0	1185939456	55	4235
2026-01-02 00:25:37.66	189.86	20.73	-45.9	-47.3	17.4	0.00e+00	0	57	0	1186988032	55	4042
2026-01-02 00:25:38.65	189.91	20.60	-45.8	-47.2	17.6	0.00e+00	0	57	0	1189085184	54	4217
2026-01-02 00:25:39.64	189.96	20.46	-45.6	-47.0	17.8	0.00e+00	0	57	0	1191182336	54	4103
2026-01-02 00:25:40.63	190.01	20.34	-45.3	-46.6	18.1	0.00e+00	0	57	0	1193279488	53	4167
2026-01-02 00:25:41.62	190.06	20.21	-45.3	-46.6	18.1	0.00e+00	0	57	0	1195376640	53	4165
2026-01-02 00:25:42.61	190.11	20.08	-45.2	-46.4	18.3	0.00e+00	0	57	0	1196425216	53	4082
2026-01-02 00:25:43.60	190.15	19.95	-44.9	-46.1	18.6	0.00e+00	0	57	0	1198522368	52	4175
2026-01-02 00:25:44.59	190.20	19.82	-44.9	-46.0	18.6	0.00e+00	0	57	0	1200619520	52	4142
2026-01-02 00:25:45.59	190.25	19.70	-44.8	-46.0	18.6	0.00e+00	0	57	0	1202716672	52	4125
2026-01-02 00:25:46.58	190.30	19.57	-44.8	-46.0	18.7	0.00e+00	0	57	0	1203765248	52	4106
2026-01-02 00:25:47.56	190.34	19.45	-44.9	-46.0	18.6	0.00e+00	0	57	0	1205862400	52	4137
2026-01-02 00:25:48.56	190.39	19.32	-45.0	-46.2	18.5	0.00e+00	0	56	0	1207959552	52	4203
2026-01-02 00:25:49.55	190.44	19.20	-44.9	-46.2	18.5	0.00e+00	0	57	0	1210056704	52	4201
2026-01-02 00:25:50.54	190.48	19.07	-45.1	-46.4	18.3	0.00e+00	0	57	0	1211105280	52	4302
2026-01-02 00:25:51.53	190.53	18.95	-45.0	-46.3	18.4	0.00e+00	0	57	0	1213202432	52	4250
2026-01-02 00:25:52.52	190.58	18.83	-45.3	-46.6	18.1	0.00e+00	0	57	0	1215299584	52	4394
2026-01-02 00:25:53.49	190.62	18.71	-45.6	-47.0	17.7	0.00e+00	0	57	0	1217396736	53	4361
2026-01-02 00:25:54.48	190.66	18.59	-45.7	-47.1	17.6	0.00e+00	0	57	0	1218445312	53	4410
2026-01-02 00:25:55.46	190.71	18.47	-45.8	-47.1	17.5	0.00e+00	0	57	0	1220542464	53	4441
2026-01-02 00:25:56.45	190.75	18.35	-46.0	-47.5	17.3	0.00e+00	0	57	0	1222639616	53	4613
2026-01-02 00:25:57.44	190.80	18.23	-46.1	-47.6	17.2	0.00e+00	0	57	0	1224736768	54	4404
2026-01-02 00:25:58.43	190.84	18.11	-46.1	-47.6	17.1	0.00e+00	0	57	0	1226833920	54	4423
2026-01-02 00:25:59.42	190.88	18.00	-46.4	-47.9	16.8	0.00e+00	0	57	0	1227882496	54	4589
2026-01-02 00:26:00.41	190.93	17.88	-46.4	-47.9	16.8	0.00e+00	0	57	0	1229979648	54	4577
2026-01-02 00:26:01.40	190.97	17.76	-46.6	-48.3	16.4	0.00e+00	0	57	0	1232076800	55	4501
2026-01-02 00:26:02.40	191.01	17.64	-46.4	-48.0	16.7	0.00e+00	0	57	0	1234173952	55	4356
2026-01-02 00:26:03.39	191.05	17.53	-46.4	-48.1	16.7	0.00e+00	0	57	0	1235222528	55	4409
2026-01-02 00:26:04.37	191.10	17.41	-46.6	-48.3	16.4	0.00e+00	0	57	0	1237319680	55	4513
2026-01-02 00:26:05.37	191.14	17.30	-46.5	-48.1	16.6	0.00e+00	0	57	0	1239416832	55	4424
2026-01-02 00:26:06.35	191.18	17.18	-46.6	-48.3	16.4	0.00e+00	0	57	0	1241513984	55	4520
2026-01-02 00:26:07.35	191.22	17.07	-46.9	-48.6	16.1	0.00e+00	0	57	0	1242562560	55	4702
2026-01-02 00:26:08.33	191.26	16.96	-46.8	-48.5	16.2	0.00e+00	0	57	0	1244659712	55	4639
2026-01-02 00:26:09.32	191.30	16.85	-47.0	-48.8	15.9	0.00e+00	0	57	0	1246756864	55	4793
2026-01-02 00:26:10.31	191.34	16.73	-46.9	-48.6	16.1	0.00e+00	0	57	0	1248854016	55	4687
2026-01-02 00:26:11.30	191.38	16.62	-46.8	-48.6	16.2	0.00e+00	0	56	0	1250951168	55	4656
2026-01-02 00:26:12.29	191.42	16.51	-47.2	-49.1	15.7	0.00e+00	0	57	0	1251999744	56	4687
2026-01-02 00:26:13.28	191.46	16.40	-47.4	-49.4	15.5	0.00e+00	0	57	0	1254096896	56	4824
2026-01-02 00:26:14.27	191.50	16.29	-47.2	-49.1	15.8	0.00e+00	0	57	0	1256194048	56	4661
2026-01-02 00:26:15.27	191.54	16.18	-47.3	-49.2	15.6	0.00e+00	0	57	0	1258291200	56	4746
2026-01-02 00:26:16.26	191.57	16.07	-47.3	-49.3	15.5	0.00e+00	0	57	0	1259339776	56	4789
2026-01-02 00:26:17.25	191.61	15.96	-47.2	-49.1	15.8	0.00e+00	0	57	0	1261436928	56	4670
