passes_logs/2026/01/17/R2.0S_Moscow/R2.0S_Moscow__20260117_084813_SUOMI_NPP_rec.log

#Pass ID: 20260117_084813_SUOMI NPP
#Satellite: SUOMI NPP
#Configuration: NPP
#almurnet v.1.7.20251203
#Start time: 2026-01-17 08:48:15

#Version: 2.2.20231116
#Station: R2.0S_Moscow
#Location: 37.707566 lon 55.798166 lat
#TLE: 1 37849U 11061A   26016.23176763  .00000061  00000+0  49926-4 0  9990
#TLE: 2 37849  98.7812 318.2698 0002434  61.5135 298.6286 14.19525545736883

#Time	Az	El	Level	Level2	SNR	BER	BlckErr	Temp	State	Recorded	gain1	gain2
2026-01-17 08:48:15.35	125.74	2.10	-23.0	-42.1	3.6	1.50e+00	0	51	0	0	19	29111
2026-01-17 08:48:16.35	125.70	2.16	-23.1	-44.5	3.8	1.50e+00	0	51	104	0	21	34314
2026-01-17 08:48:17.36	125.65	2.22	-26.6	-47.0	4.1	1.50e+00	0	51	104	0	24	38260
2026-01-17 08:48:18.37	125.60	2.28	-26.8	-45.8	3.9	1.50e+00	0	52	104	0	23	35507
2026-01-17 08:48:19.39	125.55	2.34	-23.5	-42.7	3.6	1.50e+00	0	52	104	0	19	31104
2026-01-17 08:48:20.40	125.50	2.40	-26.4	-46.1	3.8	1.50e+00	0	51	104	0	22	38969
2026-01-17 08:48:21.41	125.45	2.46	-24.5	-43.5	3.9	1.50e+00	0	52	104	0	22	28900
2026-01-17 08:48:22.42	125.39	2.53	-23.3	-43.8	3.6	1.50e+00	0	52	104	0	18	37773
2026-01-17 08:48:23.43	125.34	2.59	-24.2	-44.3	3.6	1.50e+00	0	52	104	0	20	35608
2026-01-17 08:48:24.44	125.29	2.65	-23.2	-46.0	3.8	1.50e+00	0	52	104	0	22	38413
2026-01-17 08:48:25.45	125.24	2.71	-21.9	-38.1	3.7	1.50e+00	0	52	104	0	15	23229
2026-01-17 08:48:26.46	125.19	2.77	-23.2	-40.9	3.9	1.51e+00	0	52	104	0	19	25505
2026-01-17 08:48:27.47	125.14	2.84	-27.0	-44.2	4.0	1.50e+00	0	52	104	0	22	31161
2026-01-17 08:48:28.48	125.09	2.90	-23.4	-40.7	3.9	1.50e+00	0	52	104	0	20	23385
2026-01-17 08:48:29.50	125.03	2.96	-24.9	-44.9	3.6	1.50e+00	0	52	104	0	21	35712
2026-01-17 08:48:30.51	124.98	3.02	-26.5	-45.8	3.8	1.51e+00	0	52	104	0	22	37682
2026-01-17 08:48:31.52	124.93	3.09	-23.5	-41.1	4.0	1.50e+00	0	53	104	0	21	23179
2026-01-17 08:48:32.53	124.87	3.15	-24.4	-44.3	3.6	1.50e+00	0	53	104	0	21	33492
2026-01-17 08:48:33.54	124.82	3.21	-24.7	-45.9	4.0	1.50e+00	0	53	104	0	23	36002
2026-01-17 08:48:34.55	124.77	3.28	-26.5	-45.0	3.9	1.50e+00	0	53	104	0	23	32445
2026-01-17 08:48:35.56	124.71	3.34	-28.3	-47.0	3.9	1.50e+00	0	53	104	0	22	42963
2026-01-17 08:48:36.57	124.66	3.40	-26.7	-45.7	3.8	1.50e+00	0	53	104	0	22	37295
2026-01-17 08:48:37.58	124.61	3.47	-26.7	-46.8	3.9	1.50e+00	0	53	104	0	23	39723
2026-01-17 08:48:38.59	124.55	3.53	-25.5	-41.5	3.7	1.50e+00	0	53	104	0	18	28761
2026-01-17 08:48:39.61	124.50	3.59	-24.3	-46.8	4.2	1.50e+00	0	53	104	0	24	37448
2026-01-17 08:48:40.62	124.44	3.66	-24.0	-40.8	3.2	1.50e+00	0	53	104	0	16	29934
2026-01-17 08:48:41.63	124.39	3.72	-27.1	-44.5	3.6	1.49e+00	0	53	104	0	21	34134
2026-01-17 08:48:42.64	124.33	3.79	-24.7	-45.7	3.7	1.50e+00	0	53	104	0	21	39397
2026-01-17 08:48:43.65	124.27	3.85	-26.5	-43.2	3.9	1.50e+00	0	53	104	0	22	28013
2026-01-17 08:48:44.66	124.22	3.91	-25.1	-42.0	3.6	1.50e+00	0	53	104	0	20	27323
2026-01-17 08:48:45.67	124.16	3.98	-26.0	-47.0	3.9	1.49e+00	0	53	104	0	23	40768
2026-01-17 08:48:46.68	124.11	4.04	-26.2	-45.3	3.9	1.50e+00	0	53	104	0	22	35297
2026-01-17 08:48:47.69	124.05	4.11	-14.6	-32.1	4.1	1.50e+00	0	53	104	0	0	27412
2026-01-17 08:48:48.70	123.99	4.17	-19.8	-39.2	3.6	1.50e+00	0	54	104	0	12	31276
2026-01-17 08:48:49.71	123.94	4.24	-11.3	-33.6	4.0	1.50e+00	0	53	104	0	0	32687
2026-01-17 08:48:50.72	123.88	4.30	-20.2	-37.7	3.8	1.50e+00	0	53	104	0	14	23350
2026-01-17 08:48:51.74	123.82	4.37	-19.2	-39.4	3.5	1.50e+00	0	54	104	0	16	25530
2026-01-17 08:48:52.75	123.76	4.44	-23.4	-41.7	3.6	1.50e+00	0	54	104	0	18	29589
2026-01-17 08:48:53.76	123.70	4.50	-27.3	-44.3	3.6	1.50e+00	0	54	0	0	22	31604
2026-01-17 08:48:54.77	123.64	4.57	-26.1	-44.4	3.7	1.50e+00	0	54	104	0	20	36058
2026-01-17 08:48:55.78	123.59	4.63	-26.2	-45.0	3.4	1.50e+00	0	54	104	0	20	38479
2026-01-17 08:48:56.79	123.53	4.70	-13.2	-33.8	-1.6	1.50e+00	0	54	104	0	13	15789
2026-01-17 08:48:57.80	123.47	4.76	-25.2	-46.1	3.9	1.50e+00	0	54	104	0	23	36626
2026-01-17 08:48:58.81	123.41	4.83	-15.1	-36.2	3.6	1.50e+00	0	54	104	0	21	13171
2026-01-17 08:48:59.82	123.35	4.90	-22.3	-43.0	4.1	1.50e+00	0	54	104	0	23	25682
2026-01-17 08:49:00.83	123.29	4.96	-22.7	-41.5	3.3	1.50e+00	0	54	104	0	10	45590
2026-01-17 08:49:01.84	123.23	5.03	-26.4	-45.6	4.0	1.50e+00	0	54	104	0	21	39074
2026-01-17 08:49:02.85	123.17	5.10	-24.0	-39.6	3.6	1.50e+00	0	54	104	0	8	41403
2026-01-17 08:49:03.87	123.10	5.16	-19.4	-35.3	3.5	1.50e+00	0	54	104	0	12	19861
2026-01-17 08:49:04.88	123.04	5.23	-16.3	-35.8	4.1	1.50e+00	0	54	104	0	5	31615
2026-01-17 08:49:05.89	122.98	5.30	-20.7	-38.9	4.3	1.50e+00	0	54	104	0	14	26993
2026-01-17 08:49:06.90	122.92	5.37	-20.3	-36.1	3.7	1.50e+00	0	55	104	0	5	32913
2026-01-17 08:49:07.91	122.86	5.43	-25.5	-44.8	3.9	1.50e+00	0	55	104	0	21	35584
2026-01-17 08:49:08.92	122.79	5.50	-23.6	-45.3	3.6	1.50e+00	0	55	104	0	21	37625
2026-01-17 08:49:09.93	122.73	5.57	-20.4	-38.0	3.8	1.50e+00	0	54	104	0	16	21616
2026-01-17 08:49:10.94	122.67	5.64	-26.5	-44.4	3.3	1.50e+00	0	55	104	0	19	38095
2026-01-17 08:49:11.95	122.60	5.70	-23.0	-39.9	3.9	1.50e+00	0	55	104	0	18	23981
2026-01-17 08:49:12.96	122.54	5.77	-21.2	-39.3	3.4	1.50e+00	0	55	104	0	15	26555
2026-01-17 08:49:13.97	122.48	5.84	-25.4	-46.1	3.9	1.50e+00	0	55	104	0	22	38784
2026-01-17 08:49:14.98	122.41	5.91	-26.6	-45.9	4.0	1.50e+00	0	55	104	0	20	42634
2026-01-17 08:49:15.99	122.35	5.98	-27.3	-46.0	3.9	1.50e+00	0	55	104	0	23	36225
2026-01-17 08:49:17.00	122.28	6.05	-25.7	-46.6	4.0	1.50e+00	0	55	104	0	23	38785
2026-01-17 08:49:18.01	122.22	6.12	-25.0	-45.8	3.9	1.50e+00	0	55	104	0	21	39972
2026-01-17 08:49:19.03	122.15	6.18	-23.9	-41.0	4.0	1.50e+00	0	55	0	0	20	24410
2026-01-17 08:49:20.04	122.08	6.25	-24.8	-45.8	3.8	1.50e+00	0	55	104	0	23	35543
2026-01-17 08:49:21.04	122.02	6.32	-27.8	-46.6	4.0	1.50e+00	0	55	104	0	24	36781
2026-01-17 08:49:22.06	121.95	6.39	-24.1	-41.2	3.8	1.50e+00	0	55	104	0	18	27865
2026-01-17 08:49:23.07	121.88	6.46	-24.2	-41.4	3.5	1.50e+00	0	55	104	0	19	26773
2026-01-17 08:49:24.08	121.82	6.53	-26.4	-46.3	3.9	1.50e+00	0	55	104	0	21	42295
2026-01-17 08:49:25.09	121.75	6.60	-26.2	-47.0	4.0	1.50e+00	0	55	104	0	23	40838
2026-01-17 08:49:26.10	121.68	6.67	-27.8	-47.9	4.1	1.50e+00	0	55	104	0	25	40097
2026-01-17 08:49:27.11	121.61	6.74	-25.6	-45.7	3.7	1.50e+00	0	55	104	0	23	35028
2026-01-17 08:49:28.12	121.54	6.81	-25.4	-47.4	3.9	1.50e+00	0	55	104	0	24	40294
2026-01-17 08:49:29.13	121.47	6.88	-16.0	-34.3	3.6	1.50e+00	0	55	104	0	14	15904
2026-01-17 08:49:30.14	121.40	6.95	-23.0	-44.5	3.4	1.49e+00	0	56	104	0	20	36382
2026-01-17 08:49:31.15	121.33	7.02	-26.6	-46.0	4.0	1.50e+00	0	56	104	0	22	38368
2026-01-17 08:49:32.16	121.26	7.10	-26.5	-46.2	3.9	1.50e+00	0	56	104	0	23	36988
2026-01-17 08:49:33.17	121.19	7.17	-26.7	-46.7	3.9	1.50e+00	0	56	104	0	22	41550
2026-01-17 08:49:34.18	121.12	7.24	-26.2	-44.9	3.8	1.50e+00	0	56	104	0	19	40215
2026-01-17 08:49:35.19	121.05	7.31	-14.6	-33.2	3.7	1.50e+00	0	56	104	0	16	12501
2026-01-17 08:49:36.21	120.98	7.38	-27.5	-46.9	4.2	1.50e+00	0	56	104	0	25	35788
2026-01-17 08:49:37.22	120.91	7.45	-25.6	-45.6	4.2	1.50e+00	0	56	104	0	22	36707
2026-01-17 08:49:38.23	120.84	7.53	-25.2	-43.8	4.5	1.50e+00	0	56	0	0	24	26670
2026-01-17 08:49:39.24	120.76	7.60	-27.9	-47.1	3.9	1.50e+00	0	56	104	0	23	41279
2026-01-17 08:49:40.25	120.69	7.67	-17.0	-36.1	3.7	1.50e+00	0	56	104	0	15	18505
2026-01-17 08:49:41.26	120.62	7.74	-24.8	-39.5	3.8	1.50e+00	0	56	104	0	10	36323
2026-01-17 08:49:42.27	120.54	7.82	-22.2	-40.0	3.9	1.50e+00	0	56	104	0	18	24393
2026-01-17 08:49:43.28	120.47	7.89	-21.1	-39.6	4.0	1.50e+00	0	56	104	0	18	23289
2026-01-17 08:49:44.29	120.39	7.96	-27.3	-46.7	4.4	1.49e+00	0	56	104	0	24	37167
2026-01-17 08:49:45.30	120.32	8.03	-27.9	-48.1	4.2	1.49e+00	0	56	104	0	26	39134
2026-01-17 08:49:46.31	120.24	8.11	-40.2	-56.4	3.9	1.50e+00	0	56	104	0	51	23950
2026-01-17 08:49:47.32	120.17	8.18	-27.3	-45.1	4.0	1.50e+00	0	56	104	0	21	36822
2026-01-17 08:49:48.33	120.09	8.25	-24.2	-42.3	4.0	1.50e+00	0	56	104	0	23	23789
2026-01-17 08:49:49.34	120.01	8.33	-25.0	-46.2	4.7	1.50e+00	0	56	104	0	22	39377
2026-01-17 08:49:50.35	119.94	8.40	-21.3	-41.2	3.9	1.50e+00	0	56	104	0	17	29519
2026-01-17 08:49:51.36	119.86	8.48	-27.5	-45.7	4.3	1.49e+00	0	56	104	0	23	34922
2026-01-17 08:49:52.37	119.78	8.55	-20.3	-37.8	3.7	1.49e+00	0	56	104	0	14	23653
2026-01-17 08:49:53.38	119.70	8.62	-27.6	-45.3	4.6	1.48e+00	0	56	0	0	23	33472
2026-01-17 08:49:54.39	119.63	8.70	-27.5	-45.5	4.4	1.48e+00	0	56	104	0	25	30683
2026-01-17 08:49:55.40	119.55	8.77	-29.0	-47.5	4.5	1.49e+00	0	56	104	0	26	36230
2026-01-17 08:49:56.41	119.47	8.85	-19.9	-40.2	3.9	1.50e+00	0	56	0	0	18	24783
2026-01-17 08:49:57.42	119.39	8.92	-25.5	-42.7	4.6	1.50e+00	0	56	104	0	25	22155
2026-01-17 08:49:58.43	119.31	9.00	-25.9	-45.9	4.2	1.50e+00	0	57	104	0	24	33819
2026-01-17 08:49:59.44	119.23	9.08	-23.0	-40.1	3.5	1.50e+00	0	57	104	0	15	29194
2026-01-17 08:50:00.45	119.15	9.15	-25.7	-42.1	4.2	1.50e+00	0	57	104	0	23	23308
2026-01-17 08:50:01.46	119.06	9.23	-24.6	-42.6	4.0	1.50e+00	0	57	104	0	24	23245
2026-01-17 08:50:02.47	118.98	9.30	-25.6	-39.3	4.0	1.49e+00	0	57	104	0	17	23672
2026-01-17 08:50:03.48	118.90	9.38	-26.1	-44.7	4.6	1.49e+00	0	57	104	0	25	27906
2026-01-17 08:50:04.49	118.82	9.45	-24.7	-40.7	3.4	1.49e+00	0	57	104	0	17	27808
2026-01-17 08:50:05.50	118.73	9.53	-29.0	-46.4	4.6	1.50e+00	0	57	104	0	25	33935
2026-01-17 08:50:06.52	118.65	9.61	-28.3	-45.3	4.2	1.50e+00	0	57	104	0	26	28139
2026-01-17 08:50:07.53	118.56	9.69	-23.9	-39.5	4.2	1.50e+00	0	57	104	0	23	17244
2026-01-17 08:50:08.53	118.48	9.76	-27.5	-44.3	3.7	1.50e+00	0	57	104	0	24	28145
2026-01-17 08:50:09.54	118.40	9.84	-24.3	-45.9	4.3	1.50e+00	0	57	104	0	18	47733
2026-01-17 08:50:10.55	118.31	9.92	-27.5	-44.5	4.1	1.50e+00	0	57	104	0	23	30407
2026-01-17 08:50:11.56	118.22	9.99	-27.4	-43.3	3.9	1.50e+00	0	57	104	0	19	33643
2026-01-17 08:50:12.57	118.14	10.07	-25.7	-41.8	4.3	1.50e+00	0	57	104	0	22	23763
2026-01-17 08:50:13.58	118.05	10.15	-32.8	-49.4	4.2	1.50e+00	0	57	104	0	33	30144
2026-01-17 08:50:14.59	117.96	10.23	-26.8	-40.7	4.2	1.50e+00	0	57	104	0	20	23365
2026-01-17 08:50:15.60	117.88	10.31	-23.4	-41.5	4.0	1.50e+00	0	57	104	0	18	28776
2026-01-17 08:50:16.61	117.79	10.38	-17.1	-34.9	4.0	1.50e+00	0	57	104	0	19	12773
2026-01-17 08:50:17.62	117.70	10.46	-25.1	-41.2	3.8	1.50e+00	0	57	104	0	20	24784
2026-01-17 08:50:18.63	117.61	10.54	-25.5	-40.0	3.9	1.50e+00	0	57	104	0	20	21554
2026-01-17 08:50:19.64	117.52	10.62	-24.0	-40.1	3.7	1.50e+00	0	57	104	0	20	21789
2026-01-17 08:50:20.65	117.43	10.70	-28.6	-44.9	4.3	1.50e+00	0	57	104	0	30	21408
2026-01-17 08:50:21.66	117.34	10.78	-32.5	-47.2	4.5	1.50e+00	0	57	104	0	36	19703
2026-01-17 08:50:22.67	117.25	10.86	-25.5	-42.2	4.1	1.49e+00	0	57	104	0	24	22107
2026-01-17 08:50:23.68	117.15	10.94	-21.5	-36.8	3.9	1.50e+00	0	57	104	0	19	15783
2026-01-17 08:50:24.69	117.06	11.02	-24.5	-40.1	3.6	1.50e+00	0	57	104	0	13	32891
2026-01-17 08:50:25.70	116.97	11.10	-26.4	-43.1	3.7	1.50e+00	0	57	104	0	21	29127
2026-01-17 08:50:26.71	116.87	11.18	-22.4	-36.6	3.7	1.50e+00	0	57	104	0	19	15418
2026-01-17 08:50:27.72	116.78	11.26	-28.2	-42.6	4.0	1.50e+00	0	57	104	0	22	25969
2026-01-17 08:50:28.72	116.69	11.34	-28.4	-45.9	4.7	1.48e+00	0	57	104	0	38	15215
2026-01-17 08:50:29.73	116.59	11.42	-34.4	-50.9	3.9	1.49e+00	0	57	104	0	41	22658
2026-01-17 08:50:30.74	116.50	11.50	-24.5	-41.0	4.5	1.42e+00	0	57	104	0	35	10283
2026-01-17 08:50:31.75	116.40	11.58	-30.8	-46.5	4.1	1.50e+00	0	57	104	0	31	24315
2026-01-17 08:50:32.77	116.30	11.67	-32.5	-45.1	4.2	1.49e+00	0	57	104	0	28	24669
2026-01-17 08:50:33.77	116.21	11.75	-29.7	-44.6	3.7	1.49e+00	0	58	104	0	25	27581
2026-01-17 08:50:34.78	116.11	11.83	-30.5	-44.5	3.9	1.50e+00	0	57	104	0	26	25594
2026-01-17 08:50:35.80	116.01	11.91	-27.5	-44.1	4.2	1.50e+00	0	57	104	0	30	19589
2026-01-17 08:50:36.81	115.91	11.99	-36.9	-50.4	4.2	1.48e+00	0	57	104	0	39	24049
2026-01-17 08:50:37.82	115.81	12.08	-31.3	-48.9	4.4	1.47e+00	0	57	104	0	40	19114
2026-01-17 08:50:38.83	115.71	12.16	-27.1	-45.7	4.5	1.48e+00	0	58	104	0	44	10421
2026-01-17 08:50:39.84	115.61	12.24	-33.9	-49.9	4.3	1.48e+00	0	57	104	0	44	17066
2026-01-17 08:50:40.85	115.51	12.32	-35.6	-51.5	4.4	1.48e+00	0	58	104	0	43	21608
2026-01-17 08:50:41.86	115.41	12.41	-36.9	-51.4	4.3	1.48e+00	0	58	104	0	42	22661
2026-01-17 08:50:42.87	115.30	12.49	-33.4	-49.4	4.3	1.39e+00	0	58	0	0	41	19075
2026-01-17 08:50:43.88	115.20	12.57	-37.1	-52.7	4.2	1.49e+00	0	58	104	0	45	22009
2026-01-17 08:50:44.89	115.10	12.66	-37.0	-51.8	4.5	1.49e+00	0	58	104	0	44	21135
2026-01-17 08:50:45.90	114.99	12.74	-33.7	-49.8	4.4	1.46e+00	0	58	104	0	44	16854
2026-01-17 08:50:46.91	114.89	12.83	-36.3	-50.9	4.2	1.45e+00	0	58	104	0	42	21299
2026-01-17 08:50:47.92	114.78	12.91	-39.1	-51.3	5.4	9.85e-01	0	58	0	1048576	47	16792
2026-01-17 08:50:48.93	114.68	13.00	-36.7	-51.8	4.5	1.13e+00	0	58	104	2097152	47	17692
2026-01-17 08:50:49.94	114.57	13.08	-39.5	-51.5	5.5	7.76e-01	0	58	0	2097152	47	17238
2026-01-17 08:50:50.95	114.46	13.17	-39.8	-52.3	5.3	6.71e-01	0	58	0	4194304	51	14904
2026-01-17 08:50:51.96	114.35	13.25	-40.3	-51.7	5.3	7.01e-01	0	58	0	6291456	50	14740
2026-01-17 08:50:52.97	114.25	13.34	-40.2	-51.2	5.6	6.27e-01	0	58	0	7340032	49	14761
2026-01-17 08:50:53.98	114.14	13.42	-41.6	-51.3	5.8	4.61e-01	0	58	0	9437184	53	11836
2026-01-17 08:50:54.99	114.03	13.51	-41.5	-51.0	6.3	3.23e-01	0	58	0	11534336	54	10865
2026-01-17 08:50:56.00	113.92	13.59	-41.9	-51.1	6.2	2.90e-01	0	58	0	13631488	54	10915
2026-01-17 08:50:57.01	113.81	13.68	-42.5	-51.3	6.1	3.51e-01	0	58	0	15728640	55	10616
2026-01-17 08:50:58.02	113.69	13.77	-42.9	-51.4	6.2	2.43e-01	0	58	0	16777216	56	10142
2026-01-17 08:50:59.03	113.58	13.85	-42.2	-51.4	6.2	3.87e-01	0	58	0	18874368	57	9582
2026-01-17 08:51:00.03	113.47	13.94	-43.1	-50.4	7.1	2.50e-01	0	58	0	20971520	56	8995
2026-01-17 08:51:01.05	113.35	14.03	-42.8	-48.6	9.0	9.35e-02	0	58	0	23068672	56	7291
2026-01-17 08:51:02.06	113.24	14.11	-42.5	-47.9	9.5	1.98e-02	0	58	0	25165824	55	7172
2026-01-17 08:51:03.07	113.12	14.20	-42.5	-47.8	9.6	1.39e-02	0	58	0	26214400	55	7058
2026-01-17 08:51:04.08	113.01	14.29	-42.5	-47.8	9.7	1.13e-02	0	58	0	28311552	55	7081
2026-01-17 08:51:05.09	112.89	14.38	-42.7	-48.4	9.1	3.07e-02	0	58	0	30408704	55	7591
2026-01-17 08:51:06.10	112.77	14.46	-42.9	-48.7	9.0	2.82e-02	0	58	0	32505856	56	7375
2026-01-17 08:51:07.11	112.66	14.55	-42.8	-48.7	9.0	2.65e-02	0	58	0	34603008	56	7404
2026-01-17 08:51:08.12	112.54	14.64	-42.6	-48.2	9.3	2.10e-02	0	58	0	35651584	55	7401
2026-01-17 08:51:09.12	112.42	14.73	-41.8	-47.1	10.4	1.89e-02	0	58	0	37748736	55	6535
2026-01-17 08:51:10.13	112.30	14.82	-42.1	-46.8	10.7	6.24e-03	0	58	0	39845888	55	6320
2026-01-17 08:51:11.14	112.18	14.91	-42.0	-46.4	11.2	3.43e-03	0	58	0	41943040	54	6409
2026-01-17 08:51:12.15	112.06	14.99	-41.8	-46.2	11.3	7.71e-04	0	58	0	44040192	54	6234
2026-01-17 08:51:13.16	111.93	15.08	-42.1	-46.6	11.0	2.76e-03	0	58	0	45088768	54	6525
2026-01-17 08:51:14.17	111.81	15.17	-42.2	-46.9	10.8	1.98e-03	0	58	0	47185920	54	6732
2026-01-17 08:51:15.18	111.69	15.26	-42.3	-47.1	10.6	5.33e-03	0	58	0	49283072	55	6522
2026-01-17 08:51:16.19	111.56	15.35	-42.3	-47.1	10.5	4.13e-03	0	58	0	51380224	55	6543
2026-01-17 08:51:17.20	111.44	15.44	-42.2	-46.8	10.9	3.74e-03	0	58	0	53477376	54	6687
2026-01-17 08:51:18.21	111.31	15.53	-42.1	-46.7	10.9	1.88e-03	0	58	0	54525952	55	6254
2026-01-17 08:51:19.22	111.18	15.62	-42.1	-46.7	11.1	1.85e-03	0	59	0	56623104	55	6207
2026-01-17 08:51:20.23	111.06	15.71	-42.1	-46.6	11.1	1.00e-03	0	58	0	58720256	54	6531
2026-01-17 08:51:21.24	110.93	15.81	-42.2	-46.8	10.9	2.11e-03	0	58	0	60817408	54	6657
2026-01-17 08:51:22.24	110.80	15.90	-42.1	-46.7	10.9	2.13e-03	0	59	0	62914560	55	6227
2026-01-17 08:51:23.25	110.67	15.99	-42.3	-47.0	10.7	2.53e-03	0	58	0	63963136	55	6473
2026-01-17 08:51:24.26	110.54	16.08	-42.6	-47.8	9.9	8.25e-03	0	58	0	66060288	55	7044
2026-01-17 08:51:25.28	110.40	16.17	-42.6	-47.8	10.0	7.14e-03	0	58	0	68157440	55	7081
2026-01-17 08:51:26.28	110.27	16.26	-42.9	-48.3	9.5	1.25e-02	0	59	0	70254592	56	7110
2026-01-17 08:51:27.29	110.14	16.35	-42.8	-48.3	9.5	1.37e-02	0	59	0	72351744	56	7069
2026-01-17 08:51:28.30	110.01	16.45	-42.7	-47.8	10.1	6.76e-03	0	58	0	74448896	56	6672
2026-01-17 08:51:29.31	109.87	16.54	-42.7	-47.7	10.2	6.81e-03	0	59	0	75497472	56	6642
2026-01-17 08:51:30.32	109.73	16.63	-42.4	-47.2	10.7	6.05e-03	0	59	0	77594624	56	6213
2026-01-17 08:51:31.33	109.60	16.72	-42.7	-47.6	10.3	5.27e-03	0	58	0	79691776	56	6528
2026-01-17 08:51:32.34	109.46	16.82	-42.6	-47.9	10.0	6.47e-03	0	59	0	81788928	56	6767
2026-01-17 08:51:33.35	109.32	16.91	-42.5	-47.6	10.2	7.62e-03	0	59	0	83886080	55	6905
2026-01-17 08:51:34.36	109.18	17.00	-42.6	-47.9	9.9	8.38e-03	0	59	0	84934656	55	7133
2026-01-17 08:51:35.37	109.04	17.10	-42.6	-47.9	9.9	1.02e-02	0	59	0	87031808	55	7144
2026-01-17 08:51:36.38	108.90	17.19	-42.6	-47.6	10.2	5.43e-03	0	59	0	89128960	55	6940
2026-01-17 08:51:37.39	108.76	17.28	-42.4	-47.2	10.7	3.14e-03	0	59	0	91226112	55	6574
2026-01-17 08:51:38.40	108.62	17.38	-42.2	-46.5	11.3	2.69e-03	0	59	0	93323264	55	6125
2026-01-17 08:51:39.41	108.47	17.47	-42.2	-46.7	11.1	2.17e-03	0	59	0	94371840	55	6251
2026-01-17 08:51:40.42	108.33	17.57	-42.3	-46.9	10.9	1.73e-03	0	59	0	96468992	55	6365
2026-01-17 08:51:41.43	108.18	17.66	-42.4	-47.1	10.7	1.40e-03	0	59	0	98566144	55	6551
2026-01-17 08:51:42.44	108.04	17.76	-42.5	-47.3	10.6	2.92e-03	0	59	0	100663296	55	6662
2026-01-17 08:51:43.45	107.89	17.85	-42.4	-47.1	10.8	3.06e-03	0	59	0	102760448	55	6502
2026-01-17 08:51:44.46	107.74	17.95	-42.3	-46.9	10.9	2.01e-03	0	59	0	103809024	55	6397
2026-01-17 08:51:45.47	107.59	18.04	-42.1	-46.3	11.5	1.16e-03	0	59	0	105906176	55	5967
2026-01-17 08:51:46.48	107.44	18.14	-41.9	-45.8	12.1	6.18e-04	0	59	0	108003328	55	5632
2026-01-17 08:51:47.49	107.29	18.23	-41.9	-46.0	11.8	4.29e-04	0	59	0	110100480	55	5781
2026-01-17 08:51:48.50	107.14	18.33	-42.0	-46.1	11.7	5.81e-04	0	59	0	112197632	55	5846
2026-01-17 08:51:49.51	106.98	18.42	-42.0	-46.2	11.6	4.52e-04	0	59	0	113246208	55	5919
2026-01-17 08:51:50.52	106.83	18.52	-42.0	-46.1	11.8	4.09e-04	0	59	0	115343360	55	5795
2026-01-17 08:51:51.53	106.67	18.62	-41.9	-45.9	12.0	2.95e-04	0	59	0	117440512	55	5703
2026-01-17 08:51:52.54	106.52	18.71	-41.9	-45.8	12.1	2.59e-04	0	59	0	119537664	55	5643
2026-01-17 08:51:53.55	106.36	18.81	-41.9	-46.0	11.9	3.69e-04	0	59	0	121634816	55	5745
2026-01-17 08:51:54.56	106.20	18.91	-42.0	-46.1	11.9	4.18e-04	0	59	0	122683392	55	5803
2026-01-17 08:51:55.56	106.04	19.00	-42.0	-46.0	11.9	3.62e-04	0	59	0	124780544	55	5750
2026-01-17 08:51:56.57	105.88	19.10	-42.0	-46.0	11.9	3.68e-04	0	59	0	126877696	55	5763
2026-01-17 08:51:57.58	105.72	19.20	-42.0	-46.1	11.7	5.35e-04	0	59	0	128974848	55	5855
2026-01-17 08:51:58.59	105.56	19.29	-42.1	-46.4	11.5	6.93e-04	0	59	0	131072000	55	6024
2026-01-17 08:51:59.60	105.40	19.39	-42.2	-46.5	11.4	1.03e-03	0	59	0	132120576	55	6109
2026-01-17 08:52:00.61	105.23	19.49	-42.3	-46.7	11.2	1.72e-03	0	59	0	134217728	55	6267
2026-01-17 08:52:01.62	105.07	19.58	-42.3	-46.7	11.2	1.19e-03	0	59	0	136314880	55	6258
2026-01-17 08:52:02.63	104.90	19.68	-42.3	-46.7	11.2	1.27e-03	0	59	0	138412032	55	6261
2026-01-17 08:52:03.64	104.73	19.78	-42.2	-46.7	11.2	1.05e-03	0	59	0	140509184	55	6221
2026-01-17 08:52:04.65	104.56	19.88	-42.2	-46.6	11.4	1.06e-03	0	59	0	142606336	55	6139
2026-01-17 08:52:05.66	104.39	19.98	-42.2	-46.6	11.3	1.14e-03	0	59	0	143654912	55	6153
2026-01-17 08:52:06.67	104.22	20.07	-42.2	-46.5	11.4	9.50e-04	0	59	0	145752064	55	6083
2026-01-17 08:52:07.68	104.05	20.17	-42.2	-46.5	11.4	9.57e-04	0	59	0	147849216	55	6093
2026-01-17 08:52:08.69	103.88	20.27	-42.2	-46.5	11.3	1.38e-03	0	59	0	149946368	55	6128
2026-01-17 08:52:09.70	103.70	20.37	-42.1	-46.4	11.6	9.87e-04	0	59	0	152043520	55	6025
2026-01-17 08:52:10.71	103.53	20.47	-42.0	-46.1	11.8	5.31e-04	0	59	0	153092096	55	5818
2026-01-17 08:52:11.72	103.35	20.57	-41.9	-45.8	12.1	2.15e-04	0	59	0	155189248	55	5624
2026-01-17 08:52:12.73	103.17	20.67	-41.7	-45.3	12.6	1.47e-04	0	59	0	157286400	55	5340
2026-01-17 08:52:13.74	102.99	20.77	-41.6	-45.2	12.8	7.78e-05	0	59	0	159383552	55	5269
2026-01-17 08:52:14.75	102.81	20.86	-41.8	-45.5	12.4	1.18e-04	0	59	0	161480704	55	5456
2026-01-17 08:52:15.75	102.63	20.96	-42.0	-46.1	11.8	2.33e-04	0	59	0	162529280	55	5853
2026-01-17 08:52:16.76	102.45	21.06	-42.1	-46.2	11.8	4.82e-04	0	59	0	164626432	55	5868
2026-01-17 08:52:17.77	102.27	21.16	-42.0	-46.1	11.9	5.52e-04	0	59	0	166723584	55	5833
2026-01-17 08:52:18.78	102.08	21.26	-42.0	-45.9	12.0	3.78e-04	0	59	0	168820736	55	5708
2026-01-17 08:52:19.79	101.90	21.36	-42.0	-46.0	12.0	2.74e-04	0	59	0	170917888	55	5746
2026-01-17 08:52:20.80	101.71	21.46	-42.1	-46.3	11.7	3.95e-04	0	59	0	171966464	55	5948
2026-01-17 08:52:21.81	101.52	21.56	-42.3	-46.7	11.3	6.91e-04	0	59	0	174063616	55	6213
2026-01-17 08:52:22.82	101.33	21.66	-42.4	-47.1	10.9	1.93e-03	0	59	0	176160768	55	6513
2026-01-17 08:52:23.83	101.14	21.76	-42.4	-46.9	11.0	1.79e-03	0	59	0	178257920	55	6379
2026-01-17 08:52:24.84	100.95	21.86	-42.1	-46.2	11.8	9.09e-04	0	59	0	180355072	55	5912
2026-01-17 08:52:25.85	100.75	21.96	-42.0	-46.1	11.9	3.04e-04	0	59	0	181403648	55	5791
2026-01-17 08:52:26.86	100.56	22.06	-42.0	-46.0	11.9	4.02e-04	0	59	0	183500800	55	5784
2026-01-17 08:52:27.87	100.36	22.16	-42.1	-46.3	11.8	4.52e-04	0	59	0	185597952	55	5931
2026-01-17 08:52:28.88	100.17	22.26	-42.0	-46.1	11.7	6.07e-04	0	59	0	187695104	55	5846
2026-01-17 08:52:29.89	99.97	22.36	-42.3	-46.7	11.3	9.18e-04	0	59	0	189792256	55	6250
2026-01-17 08:52:30.90	99.77	22.46	-42.1	-46.3	11.7	8.57e-04	0	59	0	190840832	55	5972
2026-01-17 08:52:31.91	99.57	22.56	-42.0	-46.0	12.1	4.42e-04	0	59	0	192937984	55	5730
2026-01-17 08:52:32.92	99.36	22.66	-41.9	-45.7	12.3	2.57e-04	0	59	0	195035136	55	5590
2026-01-17 08:52:33.93	99.16	22.76	-42.0	-46.0	12.1	2.04e-04	0	59	0	197132288	55	5734
2026-01-17 08:52:34.94	98.96	22.86	-42.2	-46.6	11.5	5.49e-04	0	59	0	199229440	55	6141
2026-01-17 08:52:35.95	98.75	22.96	-42.3	-46.7	11.2	1.21e-03	0	59	0	200278016	55	6257
2026-01-17 08:52:36.96	98.54	23.06	-42.4	-46.9	11.0	1.22e-03	0	59	0	202375168	55	6414
2026-01-17 08:52:37.97	98.33	23.16	-42.3	-46.6	11.3	1.39e-03	0	59	0	204472320	55	6179
2026-01-17 08:52:38.98	98.12	23.26	-42.3	-46.7	11.3	9.50e-04	0	60	0	206569472	55	6221
2026-01-17 08:52:39.99	97.91	23.36	-42.2	-46.4	11.6	1.22e-03	0	60	0	208666624	55	6044
2026-01-17 08:52:41.00	97.70	23.46	-42.3	-46.6	11.4	9.49e-04	0	59	0	210763776	55	6185
2026-01-17 08:52:42.01	97.48	23.56	-42.3	-46.6	11.3	9.67e-04	0	60	0	211812352	55	6195
2026-01-17 08:52:43.02	97.27	23.66	-42.2	-46.4	11.6	7.09e-04	0	60	0	213909504	55	6000
2026-01-17 08:52:44.03	97.05	23.76	-42.2	-46.5	11.6	8.12e-04	0	60	0	216006656	55	6069
2026-01-17 08:52:45.04	96.83	23.86	-42.4	-47.0	11.0	1.38e-03	0	59	0	218103808	55	6451
2026-01-17 08:52:46.05	96.61	23.96	-42.6	-47.4	10.6	2.18e-03	0	59	0	220200960	55	6752
2026-01-17 08:52:47.06	96.39	24.06	-42.6	-47.4	10.5	4.25e-03	0	60	0	221249536	55	6787
2026-01-17 08:52:48.07	96.17	24.15	-42.5	-47.2	10.8	3.63e-03	0	59	0	223346688	55	6594
2026-01-17 08:52:49.08	95.94	24.25	-42.5	-47.1	10.9	2.26e-03	0	60	0	225443840	55	6510
2026-01-17 08:52:50.09	95.72	24.35	-42.4	-46.8	11.2	1.78e-03	0	60	0	227540992	55	6333
2026-01-17 08:52:51.10	95.49	24.45	-42.2	-46.4	11.7	6.79e-04	0	59	0	229638144	55	6003
2026-01-17 08:52:52.11	95.26	24.55	-42.1	-46.2	11.9	5.00e-04	0	59	0	230686720	55	5883
2026-01-17 08:52:53.12	95.03	24.65	-42.0	-46.0	12.0	4.07e-04	0	60	0	232783872	55	5775
2026-01-17 08:52:54.13	94.80	24.75	-42.1	-46.2	11.9	4.16e-04	0	59	0	234881024	55	5859
2026-01-17 08:52:55.14	94.57	24.85	-42.0	-46.0	12.0	4.10e-04	0	60	0	236978176	55	5758
2026-01-17 08:52:56.15	94.33	24.95	-42.0	-46.0	12.1	2.69e-04	0	60	0	239075328	55	5772
2026-01-17 08:52:57.16	94.10	25.04	-41.9	-45.7	12.3	2.22e-04	0	59	0	240123904	55	5574
2026-01-17 08:52:58.17	93.86	25.14	-41.7	-45.3	12.8	9.68e-05	0	59	0	242221056	55	5332
2026-01-17 08:52:59.18	93.62	25.24	-41.4	-44.9	13.2	5.41e-05	0	60	0	244318208	54	5350
2026-01-17 08:53:00.19	93.38	25.34	-41.3	-44.7	13.4	2.21e-05	0	60	0	246415360	54	5228
2026-01-17 08:53:01.20	93.14	25.44	-41.6	-45.1	13.1	2.21e-05	0	60	0	248512512	54	5467
2026-01-17 08:53:02.21	92.89	25.53	-41.4	-44.7	13.4	2.13e-05	0	59	0	249561088	54	5262
2026-01-17 08:53:03.22	92.65	25.63	-41.4	-44.8	13.3	2.21e-05	0	59	0	251658240	54	5335
2026-01-17 08:53:04.23	92.40	25.73	-41.5	-44.9	13.2	2.13e-05	0	60	0	253755392	54	5388
2026-01-17 08:53:05.24	92.15	25.82	-41.6	-45.1	13.0	3.05e-05	0	60	0	255852544	54	5478
2026-01-17 08:53:06.25	91.90	25.92	-41.7	-45.4	12.7	5.11e-05	0	60	0	257949696	54	5705
2026-01-17 08:53:07.26	91.65	26.02	-41.8	-45.6	12.5	1.23e-04	0	59	0	258998272	54	5824
2026-01-17 08:53:08.27	91.40	26.11	-41.9	-45.7	12.4	1.47e-04	0	59	0	261095424	54	5895
2026-01-17 08:53:09.28	91.15	26.21	-42.0	-45.9	12.2	1.91e-04	0	60	0	263192576	54	6031
2026-01-17 08:53:10.29	90.89	26.30	-42.2	-46.3	11.8	2.50e-04	0	59	0	265289728	54	6343
2026-01-17 08:53:11.30	90.63	26.40	-42.3	-46.7	11.4	8.62e-04	0	60	0	267386880	55	6223
2026-01-17 08:53:12.31	90.38	26.49	-42.5	-46.9	11.1	9.94e-04	0	60	0	268435456	55	6413
2026-01-17 08:53:13.32	90.12	26.59	-42.4	-46.8	11.3	1.59e-03	0	60	0	270532608	55	6276
2026-01-17 08:53:14.33	89.85	26.68	-42.2	-46.2	11.9	7.15e-04	0	59	0	272629760	55	5892
2026-01-17 08:53:15.34	89.59	26.77	-42.2	-46.3	11.8	4.03e-04	0	60	0	274726912	55	5970
2026-01-17 08:53:16.35	89.33	26.87	-42.1	-46.1	12.0	3.15e-04	0	59	0	276824064	55	5842
2026-01-17 08:53:17.35	89.06	26.96	-42.2	-46.4	11.8	3.23e-04	0	60	0	278921216	55	6006
2026-01-17 08:53:18.36	88.79	27.05	-42.2	-46.2	11.9	3.23e-04	0	59	0	279969792	55	5915
2026-01-17 08:53:19.37	88.52	27.14	-42.1	-46.0	12.1	3.13e-04	0	59	0	282066944	55	5787
2026-01-17 08:53:20.38	88.25	27.24	-42.2	-46.4	11.7	4.82e-04	0	60	0	284164096	55	6014
2026-01-17 08:53:21.39	87.98	27.33	-42.2	-46.3	11.8	4.09e-04	0	60	0	286261248	55	5981
2026-01-17 08:53:22.40	87.71	27.42	-42.2	-46.4	11.7	3.75e-04	0	59	0	288358400	55	6025
2026-01-17 08:53:23.41	87.43	27.51	-42.1	-46.1	12.1	3.19e-04	0	60	0	289406976	55	5800
2026-01-17 08:53:24.42	87.15	27.60	-41.9	-46.0	12.1	2.94e-04	0	60	0	291504128	55	5773
2026-01-17 08:53:25.43	86.87	27.69	-42.0	-46.1	12.0	2.48e-04	0	60	0	293601280	55	5815
2026-01-17 08:53:26.44	86.59	27.78	-42.0	-46.3	11.8	4.99e-04	0	60	0	295698432	55	5928
2026-01-17 08:53:27.44	86.31	27.87	-42.0	-46.0	12.0	3.29e-04	0	60	0	296747008	55	5779
2026-01-17 08:53:28.45	86.03	27.95	-42.2	-46.6	11.5	2.55e-04	0	60	0	298844160	55	6194
2026-01-17 08:53:29.46	85.75	28.04	-42.3	-46.9	11.2	8.48e-04	0	60	0	300941312	55	6388
2026-01-17 08:53:30.47	85.46	28.13	-42.4	-47.2	10.9	1.63e-03	0	60	0	303038464	55	6607
2026-01-17 08:53:31.48	85.17	28.22	-42.9	-48.2	10.1	5.95e-03	0	60	0	305135616	56	6970
2026-01-17 08:53:32.49	84.88	28.30	-43.0	-48.3	9.9	8.21e-03	0	60	0	307232768	56	7076
2026-01-17 08:53:33.50	84.59	28.39	-43.2	-49.0	9.2	1.40e-02	0	60	0	308281344	57	7220
2026-01-17 08:53:34.51	84.30	28.47	-43.3	-49.2	9.0	2.28e-02	0	60	0	310378496	57	7434
2026-01-17 08:53:35.52	84.00	28.56	-43.3	-49.2	9.0	2.04e-02	0	60	0	312475648	57	7455
2026-01-17 08:53:36.53	83.71	28.64	-43.1	-48.6	9.6	2.29e-02	0	60	0	314572800	57	6945
2026-01-17 08:53:37.54	83.41	28.72	-43.2	-48.7	9.6	1.41e-02	0	60	0	316669952	57	7024
2026-01-17 08:53:38.55	83.11	28.81	-43.1	-48.4	9.8	1.40e-02	0	60	0	317718528	57	6782
2026-01-17 08:53:39.56	82.81	28.89	-42.9	-48.1	10.2	7.74e-03	0	60	0	319815680	57	6509
2026-01-17 08:53:40.57	82.51	28.97	-42.7	-47.5	10.8	3.05e-03	0	60	0	321912832	57	6091
2026-01-17 08:53:41.58	82.20	29.05	-42.5	-46.9	11.4	1.06e-03	0	60	0	324009984	57	5699
2026-01-17 08:53:42.59	81.90	29.13	-42.5	-46.9	11.4	1.35e-03	0	60	0	326107136	57	5718
2026-01-17 08:53:43.60	81.59	29.21	-42.3	-46.6	11.6	1.04e-03	0	60	0	327155712	56	5838
2026-01-17 08:53:44.61	81.28	29.29	-42.4	-46.8	11.6	9.22e-04	0	60	0	329252864	56	5930
2026-01-17 08:53:45.62	80.97	29.37	-42.5	-46.9	11.4	7.99e-04	0	60	0	331350016	56	6043
2026-01-17 08:53:46.63	80.66	29.44	-42.6	-47.2	11.1	1.14e-03	0	60	0	333447168	56	6265
2026-01-17 08:53:47.64	80.35	29.52	-42.5	-47.2	11.1	1.79e-03	0	60	0	335544320	56	6208
2026-01-17 08:53:48.65	80.03	29.60	-42.6	-47.3	11.0	1.89e-03	0	60	0	336592896	56	6333
2026-01-17 08:53:49.66	79.72	29.67	-42.6	-47.2	11.0	2.91e-03	0	60	0	338690048	56	6262
2026-01-17 08:53:50.67	79.40	29.74	-42.7	-47.5	10.7	2.70e-03	0	60	0	340787200	56	6465
2026-01-17 08:53:51.68	79.08	29.82	-42.6	-47.4	10.9	2.62e-03	0	60	0	342884352	56	6409
2026-01-17 08:53:52.68	78.76	29.89	-42.6	-47.4	10.8	1.92e-03	0	60	0	344981504	56	6405
2026-01-17 08:53:53.69	78.44	29.96	-42.6	-47.4	10.8	2.61e-03	0	60	0	346030080	56	6400
2026-01-17 08:53:54.70	78.12	30.03	-42.6	-47.3	10.9	2.38e-03	0	59	0	348127232	56	6330
2026-01-17 08:53:55.71	77.79	30.10	-42.6	-47.2	11.1	2.98e-03	0	60	0	350224384	56	6227
2026-01-17 08:53:56.72	77.47	30.17	-42.5	-47.2	11.1	2.04e-03	0	60	0	352321536	56	6211
2026-01-17 08:53:57.73	77.14	30.24	-42.6	-47.2	11.1	1.68e-03	0	60	0	354418688	56	6217
2026-01-17 08:53:58.74	76.81	30.31	-42.6	-47.3	11.0	1.65e-03	0	60	0	355467264	56	6322
2026-01-17 08:53:59.75	76.48	30.37	-42.5	-47.0	11.3	1.80e-03	0	60	0	357564416	56	6109
2026-01-17 08:54:00.76	76.15	30.44	-42.3	-46.6	11.8	8.09e-04	0	60	0	359661568	56	5795
2026-01-17 08:54:01.77	75.82	30.50	-42.3	-46.6	11.8	6.46e-04	0	60	0	361758720	56	5820
2026-01-17 08:54:02.78	75.48	30.57	-42.5	-47.0	11.4	6.60e-04	0	60	0	363855872	56	6077
2026-01-17 08:54:03.79	75.15	30.63	-42.8	-47.8	10.5	2.98e-03	0	60	0	364904448	56	6683
2026-01-17 08:54:04.80	74.81	30.69	-42.7	-47.5	10.7	3.27e-03	0	60	0	367001600	56	6481
2026-01-17 08:54:05.81	74.47	30.75	-42.7	-47.5	10.8	2.43e-03	0	60	0	369098752	56	6471
2026-01-17 08:54:06.82	74.14	30.81	-42.6	-47.2	11.1	1.88e-03	0	60	0	371195904	56	6214
2026-01-17 08:54:07.83	73.79	30.87	-42.3	-46.6	11.7	8.17e-04	0	60	0	373293056	56	5814
2026-01-17 08:54:08.84	73.45	30.93	-42.0	-45.9	12.5	3.91e-04	0	60	0	375390208	56	5396
2026-01-17 08:54:09.84	73.11	30.98	-41.9	-45.7	12.4	1.27e-04	0	60	0	376438784	55	5578
2026-01-17 08:54:10.85	72.77	31.04	-42.0	-45.9	12.3	1.40e-04	0	60	0	378535936	55	5711
2026-01-17 08:54:11.86	72.42	31.09	-42.1	-46.3	11.9	2.56e-04	0	60	0	380633088	55	5963
2026-01-17 08:54:12.87	72.08	31.15	-42.2	-46.5	11.9	4.74e-04	0	60	0	382730240	55	6082
2026-01-17 08:54:13.88	71.73	31.20	-41.9	-45.8	12.4	2.62e-04	0	60	0	384827392	55	5649
2026-01-17 08:54:14.89	71.38	31.25	-41.9	-45.8	12.5	1.58e-04	0	60	0	385875968	55	5599
2026-01-17 08:54:15.90	71.03	31.30	-42.3	-46.7	11.5	3.07e-04	0	60	0	387973120	55	6211
2026-01-17 08:54:16.91	70.68	31.35	-42.5	-47.1	11.1	1.40e-03	0	60	0	390070272	55	6537
2026-01-17 08:54:17.92	70.33	31.40	-42.6	-47.4	10.8	2.33e-03	0	60	0	392167424	55	6724
2026-01-17 08:54:18.93	69.98	31.44	-42.6	-47.4	10.7	2.03e-03	0	60	0	394264576	55	6783
2026-01-17 08:54:19.93	69.63	31.49	-42.7	-47.8	10.4	4.14e-03	0	60	0	395313152	55	7044
2026-01-17 08:54:20.94	69.27	31.53	-42.9	-48.0	10.3	7.47e-03	0	60	0	397410304	56	6874
2026-01-17 08:54:21.95	68.92	31.58	-42.9	-47.9	10.4	7.29e-03	0	60	0	399507456	56	6791
2026-01-17 08:54:22.96	68.56	31.62	-42.6	-47.2	11.1	2.09e-03	0	60	0	401604608	56	6261
2026-01-17 08:54:23.97	68.20	31.66	-42.4	-46.7	11.7	8.79e-04	0	60	0	403701760	56	5908
2026-01-17 08:54:24.98	67.84	31.70	-42.4	-46.8	11.6	4.97e-04	0	60	0	404750336	56	5932
2026-01-17 08:54:25.99	67.48	31.74	-42.7	-47.5	10.9	8.61e-04	0	60	0	406847488	56	6471
2026-01-17 08:54:27.00	67.12	31.77	-43.0	-48.2	10.1	6.82e-03	0	60	0	408944640	56	7011
2026-01-17 08:54:28.01	66.76	31.81	-42.9	-48.0	10.3	7.83e-03	0	60	0	411041792	56	6857
2026-01-17 08:54:29.02	66.40	31.85	-42.6	-47.1	11.3	3.95e-03	0	60	0	413138944	56	6139
2026-01-17 08:54:30.03	66.04	31.88	-42.4	-46.6	11.8	8.08e-04	0	60	0	414187520	56	5820
2026-01-17 08:54:31.04	65.68	31.91	-42.3	-46.4	12.0	4.21e-04	0	60	0	416284672	56	5712
2026-01-17 08:54:32.05	65.31	31.94	-42.3	-46.4	12.1	3.17e-04	0	60	0	418381824	56	5678
2026-01-17 08:54:33.06	64.95	31.97	-42.5	-46.9	11.6	5.65e-04	0	60	0	420478976	56	6031
2026-01-17 08:54:34.06	64.59	32.00	-42.7	-47.5	10.9	1.26e-03	0	60	0	422576128	56	6434
2026-01-17 08:54:35.08	64.22	32.03	-42.8	-47.6	10.7	3.02e-03	0	60	0	423624704	56	6568
2026-01-17 08:54:36.08	63.85	32.05	-42.8	-47.5	10.9	3.54e-03	0	60	0	425721856	56	6461
2026-01-17 08:54:37.09	63.49	32.08	-42.7	-47.3	11.0	2.53e-03	0	60	0	427819008	56	6337
2026-01-17 08:54:38.10	63.12	32.10	-42.5	-46.9	11.5	1.22e-03	0	60	0	429916160	56	6022
2026-01-17 08:54:39.11	62.75	32.12	-42.5	-46.8	11.6	6.46e-04	0	60	0	432013312	56	5932
2026-01-17 08:54:40.12	62.38	32.14	-42.5	-46.9	11.6	9.83e-04	0	60	0	433061888	56	6003
2026-01-17 08:54:41.14	62.01	32.16	-42.8	-47.5	10.9	1.32e-03	0	60	0	435159040	56	6430
2026-01-17 08:54:42.14	61.64	32.18	-42.9	-47.9	10.4	2.12e-03	0	60	0	437256192	56	6799
2026-01-17 08:54:43.15	61.27	32.20	-43.1	-48.3	10.1	5.81e-03	0	60	0	439353344	56	7093
2026-01-17 08:54:44.16	60.90	32.21	-43.1	-48.5	9.9	7.77e-03	0	60	0	441450496	56	7240
2026-01-17 08:54:45.17	60.53	32.23	-43.1	-48.5	9.9	1.02e-02	0	60	0	443547648	56	7209
2026-01-17 08:54:46.18	60.16	32.24	-43.3	-49.1	9.2	1.58e-02	0	60	0	444596224	57	7299
2026-01-17 08:54:47.19	59.79	32.25	-43.4	-49.2	9.1	2.52e-02	0	60	0	446693376	57	7423
2026-01-17 08:54:48.20	59.42	32.26	-43.5	-49.6	8.7	2.48e-02	0	60	0	448790528	57	7727
2026-01-17 08:54:49.21	59.05	32.27	-43.3	-49.0	9.3	2.44e-02	0	60	0	450887680	57	7235
2026-01-17 08:54:50.22	58.68	32.27	-43.3	-49.0	9.1	1.46e-02	0	60	0	452984832	57	7237
2026-01-17 08:54:51.24	58.30	32.28	-43.2	-48.5	9.7	1.03e-02	0	60	0	454033408	57	6878
2026-01-17 08:54:52.24	57.93	32.28	-43.0	-48.2	10.1	7.03e-03	0	60	0	456130560	57	6591
2026-01-17 08:54:53.25	57.56	32.29	-42.8	-47.7	10.7	4.20e-03	0	60	0	458227712	57	6242
2026-01-17 08:54:54.26	57.19	32.29	-42.7	-47.4	11.0	2.39e-03	0	60	0	460324864	57	6021
2026-01-17 08:54:55.27	56.82	32.29	-42.5	-46.8	11.6	8.54e-04	0	60	0	462422016	57	5627
2026-01-17 08:54:56.28	56.45	32.29	-42.2	-46.2	12.2	5.74e-04	0	60	0	463470592	56	5551
2026-01-17 08:54:57.29	56.07	32.29	-42.2	-46.2	12.2	2.46e-04	0	60	0	465567744	56	5575
2026-01-17 08:54:58.30	55.70	32.28	-42.4	-46.6	11.8	2.32e-04	0	60	0	467664896	56	5838
2026-01-17 08:54:59.31	55.33	32.28	-42.6	-47.0	11.4	5.59e-04	0	60	0	469762048	56	6131
2026-01-17 08:55:00.32	54.96	32.27	-42.8	-47.6	10.8	1.79e-03	0	60	0	471859200	56	6516
2026-01-17 08:55:01.33	54.59	32.26	-43.0	-48.1	10.2	3.99e-03	0	60	0	472907776	56	6923
2026-01-17 08:55:02.34	54.22	32.25	-43.1	-48.3	10.1	7.88e-03	0	60	0	475004928	56	7041
2026-01-17 08:55:03.35	53.85	32.24	-43.1	-48.2	10.2	9.21e-03	0	60	0	477102080	56	7018
2026-01-17 08:55:04.36	53.48	32.23	-43.1	-48.4	10.0	9.92e-03	0	60	0	479199232	57	6761
2026-01-17 08:55:05.37	53.10	32.22	-43.1	-48.3	10.0	7.51e-03	0	60	0	481296384	57	6720
2026-01-17 08:55:06.38	52.73	32.20	-43.1	-48.4	9.9	6.45e-03	0	60	0	482344960	57	6743
2026-01-17 08:55:07.39	52.37	32.19	-43.1	-48.4	10.0	6.36e-03	0	60	0	484442112	57	6729
2026-01-17 08:55:08.40	52.00	32.17	-43.1	-48.3	10.1	7.75e-03	0	60	0	486539264	57	6690
2026-01-17 08:55:09.41	51.63	32.15	-43.0	-48.2	10.2	5.19e-03	0	60	0	488636416	57	6594
2026-01-17 08:55:10.42	51.26	32.13	-43.1	-48.2	10.1	9.10e-03	0	60	0	490733568	57	6602
2026-01-17 08:55:11.42	50.89	32.11	-42.9	-47.8	10.6	5.77e-03	0	60	0	491782144	57	6305
2026-01-17 08:55:12.43	50.53	32.09	-42.8	-47.7	10.7	3.42e-03	0	60	0	493879296	57	6228
2026-01-17 08:55:13.44	50.16	32.06	-42.7	-47.3	11.1	2.01e-03	0	60	0	495976448	57	5974
2026-01-17 08:55:14.45	49.79	32.04	-42.8	-47.5	10.8	2.09e-03	0	60	0	498073600	57	6099
2026-01-17 08:55:15.46	49.43	32.01	-42.8	-47.5	10.9	2.84e-03	0	60	0	500170752	57	6088
2026-01-17 08:55:16.47	49.06	31.98	-42.9	-47.9	10.5	4.66e-03	0	60	0	501219328	57	6353
2026-01-17 08:55:17.48	48.70	31.95	-42.9	-48.0	10.4	3.21e-03	0	60	0	503316480	57	6449
2026-01-17 08:55:18.49	48.33	31.92	-42.9	-47.9	10.5	4.63e-03	0	60	0	505413632	57	6371
2026-01-17 08:55:19.50	47.97	31.89	-42.8	-47.6	10.8	3.07e-03	0	60	0	507510784	57	6158
2026-01-17 08:55:20.51	47.61	31.86	-42.6	-47.0	11.3	2.16e-03	0	60	0	509607936	57	5785
2026-01-17 08:55:21.52	47.25	31.83	-42.5	-46.9	11.4	1.37e-03	0	60	0	511705088	57	5717
2026-01-17 08:55:22.53	46.89	31.79	-42.6	-47.3	11.1	1.98e-03	0	60	0	512753664	57	5942
2026-01-17 08:55:23.54	46.53	31.75	-42.7	-47.3	11.1	2.05e-03	0	60	0	514850816	57	5974
2026-01-17 08:55:24.55	46.17	31.72	-42.8	-47.6	10.8	2.24e-03	0	60	0	516947968	57	6165
2026-01-17 08:55:25.56	45.81	31.68	-42.9	-47.9	10.5	2.78e-03	0	60	0	519045120	57	6364
2026-01-17 08:55:26.57	45.45	31.64	-42.7	-47.5	10.9	3.22e-03	0	60	0	521142272	57	6099
2026-01-17 08:55:27.58	45.10	31.59	-42.7	-47.3	11.1	3.88e-03	0	60	0	522190848	57	5968
2026-01-17 08:55:28.58	44.74	31.55	-42.7	-47.3	11.1	2.24e-03	0	60	0	524288000	57	5965
2026-01-17 08:55:29.59	44.39	31.51	-42.8	-47.7	10.7	2.93e-03	0	60	0	526385152	57	6254
2026-01-17 08:55:30.60	44.04	31.46	-42.8	-47.7	10.7	3.04e-03	0	60	0	528482304	57	6265
2026-01-17 08:55:31.62	43.68	31.42	-42.8	-47.7	10.7	3.11e-03	0	60	0	530579456	57	6268
2026-01-17 08:55:32.63	43.33	31.37	-42.7	-47.4	11.0	2.30e-03	0	61	0	531628032	57	6009
2026-01-17 08:55:33.64	42.98	31.32	-42.5	-47.0	11.4	1.88e-03	0	60	0	533725184	57	5742
2026-01-17 08:55:34.65	42.63	31.27	-42.4	-46.7	11.7	1.16e-03	0	60	0	535822336	56	5885
2026-01-17 08:55:35.66	42.28	31.22	-42.3	-46.4	11.9	7.10e-04	0	60	0	537919488	56	5721
2026-01-17 08:55:36.67	41.93	31.17	-42.4	-46.6	11.9	4.66e-04	0	60	0	540016640	56	5793
2026-01-17 08:55:37.68	41.59	31.12	-42.4	-46.8	11.6	6.17e-04	0	60	0	541065216	56	5963
2026-01-17 08:55:38.69	41.24	31.06	-42.6	-47.1	11.4	1.01e-03	0	60	0	543162368	56	6155
2026-01-17 08:55:39.70	40.90	31.01	-42.7	-47.3	11.1	1.66e-03	0	60	0	545259520	56	6343
2026-01-17 08:55:40.71	40.56	30.95	-42.7	-47.3	11.1	1.59e-03	0	60	0	547356672	56	6342
2026-01-17 08:55:41.72	40.21	30.89	-42.6	-47.2	11.2	2.16e-03	0	60	0	549453824	56	6213
2026-01-17 08:55:42.73	39.87	30.84	-42.6	-47.0	11.3	9.48e-04	0	60	0	550502400	56	6128
2026-01-17 08:55:43.74	39.54	30.78	-42.9	-47.8	10.6	1.79e-03	0	60	0	552599552	56	6686
2026-01-17 08:55:44.74	39.20	30.72	-43.1	-48.4	9.9	5.86e-03	0	60	0	554696704	56	7203
2026-01-17 08:55:45.75	38.86	30.66	-43.4	-49.2	9.2	1.63e-02	0	60	0	556793856	57	7396
2026-01-17 08:55:46.76	38.53	30.59	-43.2	-48.8	9.5	1.78e-02	0	60	0	558891008	57	7045
2026-01-17 08:55:47.77	38.20	30.53	-43.1	-48.5	9.8	1.02e-02	0	60	0	559939584	57	6819
2026-01-17 08:55:48.78	37.86	30.47	-43.2	-48.5	9.9	7.67e-03	0	60	0	562036736	57	6852
2026-01-17 08:55:49.79	37.53	30.40	-43.2	-48.5	9.8	1.29e-02	0	60	0	564133888	57	6862
2026-01-17 08:55:50.80	37.20	30.34	-43.3	-49.0	9.4	1.43e-02	0	60	0	566231040	57	7205
2026-01-17 08:55:51.81	36.87	30.27	-43.5	-49.5	8.8	2.19e-02	0	60	0	568328192	57	7690
2026-01-17 08:55:52.82	36.55	30.20	-43.4	-49.2	9.1	2.58e-02	0	60	0	569376768	57	7411
2026-01-17 08:55:53.82	36.23	30.13	-43.2	-48.8	9.5	1.57e-02	0	60	0	571473920	57	7104
2026-01-17 08:55:54.83	35.90	30.06	-43.1	-48.3	10.0	7.70e-03	0	60	0	573571072	57	6676
2026-01-17 08:55:55.84	35.58	29.99	-42.8	-47.6	10.8	4.78e-03	0	60	0	575668224	57	6150
2026-01-17 08:55:56.85	35.26	29.92	-42.8	-47.5	10.8	2.81e-03	0	60	0	577765376	57	6088
2026-01-17 08:55:57.86	34.94	29.85	-42.9	-47.8	10.5	3.38e-03	0	60	0	579862528	57	6315
2026-01-17 08:55:58.87	34.62	29.78	-42.9	-48.0	10.3	4.16e-03	0	60	0	580911104	57	6471
2026-01-17 08:55:59.88	34.30	29.70	-43.0	-48.3	10.0	4.89e-03	0	60	0	583008256	57	6653
2026-01-17 08:56:00.89	33.99	29.63	-42.8	-47.6	10.8	3.17e-03	0	60	0	585105408	57	6149
2026-01-17 08:56:01.90	33.67	29.55	-42.8	-47.6	10.8	2.52e-03	0	60	0	587202560	57	6154
2026-01-17 08:56:02.91	33.36	29.48	-42.7	-47.4	11.0	3.29e-03	0	60	0	589299712	57	5996
2026-01-17 08:56:03.91	33.05	29.40	-42.5	-46.8	11.5	1.01e-03	0	61	0	590348288	56	5990
2026-01-17 08:56:04.92	32.74	29.33	-42.0	-45.9	12.4	3.30e-04	0	60	0	592445440	56	5377
2026-01-17 08:56:05.93	32.43	29.25	-41.7	-45.3	12.9	4.95e-05	0	61	0	594542592	55	5315
2026-01-17 08:56:06.94	32.13	29.17	-41.5	-45.0	13.2	1.83e-05	0	61	0	596639744	54	5454
2026-01-17 08:56:07.95	31.82	29.09	-41.7	-45.4	12.9	4.11e-05	0	60	0	598736896	54	5707
2026-01-17 08:56:08.96	31.52	29.01	-41.9	-45.8	12.4	9.46e-05	0	61	0	599785472	54	5986
2026-01-17 08:56:09.97	31.22	28.93	-42.1	-46.3	11.9	2.20e-04	0	60	0	601882624	54	6304
2026-01-17 08:56:10.98	30.92	28.85	-42.3	-46.7	11.5	6.64e-04	0	60	0	603979776	55	6229
2026-01-17 08:56:11.99	30.62	28.77	-42.5	-47.2	11.0	1.23e-03	0	60	0	606076928	55	6596
2026-01-17 08:56:13.00	30.32	28.68	-43.0	-48.1	10.2	3.80e-03	0	60	0	608174080	56	6904
2026-01-17 08:56:14.01	30.03	28.60	-43.1	-48.5	9.7	9.99e-03	0	60	0	609222656	56	7223
2026-01-17 08:56:15.02	29.73	28.52	-42.9	-47.8	10.5	9.10e-03	0	60	0	611319808	57	6312
2026-01-17 08:56:16.03	29.44	28.43	-42.5	-46.9	11.5	2.21e-03	0	60	0	613416960	56	5999
2026-01-17 08:56:17.04	29.15	28.35	-42.2	-46.3	12.1	2.57e-04	0	60	0	615514112	56	5615
2026-01-17 08:56:18.05	28.86	28.26	-42.4	-46.6	11.7	3.50e-04	0	60	0	617611264	56	5818
2026-01-17 08:56:19.06	28.57	28.17	-42.8	-47.7	10.6	1.65e-03	0	60	0	618659840	56	6615
2026-01-17 08:56:20.07	28.28	28.09	-43.2	-48.9	9.4	9.68e-03	0	61	0	620756992	57	7135
2026-01-17 08:56:21.08	28.00	28.00	-43.4	-49.3	8.9	2.89e-02	0	60	0	622854144	57	7489
2026-01-17 08:56:22.08	27.72	27.91	-43.4	-49.4	8.9	3.19e-02	0	60	0	624951296	57	7556
2026-01-17 08:56:23.09	27.44	27.83	-43.5	-49.5	8.7	3.57e-02	0	61	0	627048448	57	7685
2026-01-17 08:56:24.10	27.16	27.74	-43.4	-49.3	8.9	2.59e-02	0	60	0	628097024	57	7525
2026-01-17 08:56:25.11	26.88	27.65	-43.3	-49.0	9.3	2.21e-02	0	60	0	630194176	57	7227
2026-01-17 08:56:26.12	26.60	27.56	-43.2	-48.8	9.5	1.49e-02	0	60	0	632291328	57	7054
2026-01-17 08:56:27.13	26.33	27.47	-43.1	-48.4	9.9	1.06e-02	0	61	0	634388480	57	6731
2026-01-17 08:56:28.14	26.05	27.38	-43.0	-48.1	10.3	7.58e-03	0	61	0	636485632	57	6504
2026-01-17 08:56:29.15	25.78	27.29	-43.0	-48.2	10.2	5.14e-03	0	61	0	637534208	57	6575
2026-01-17 08:56:30.16	25.51	27.20	-43.0	-48.2	10.1	7.13e-03	0	60	0	639631360	57	6579
2026-01-17 08:56:31.17	25.24	27.10	-42.9	-47.8	10.4	5.36e-03	0	61	0	641728512	57	6338
2026-01-17 08:56:32.18	24.97	27.01	-42.6	-47.0	11.4	2.31e-03	0	60	0	643825664	57	5745
2026-01-17 08:56:33.19	24.71	26.92	-42.4	-46.5	11.9	5.76e-04	0	61	0	645922816	56	5753
2026-01-17 08:56:34.20	24.44	26.83	-42.3	-46.3	12.1	3.17e-04	0	61	0	646971392	56	5632
2026-01-17 08:56:35.21	24.18	26.73	-42.0	-45.7	12.7	1.61e-04	0	60	0	649068544	56	5252
2026-01-17 08:56:36.22	23.92	26.64	-41.8	-45.6	12.6	8.39e-05	0	60	0	651165696	55	5472
2026-01-17 08:56:37.23	23.66	26.55	-42.0	-45.9	12.4	1.34e-04	0	60	0	653262848	55	5659
2026-01-17 08:56:38.23	23.40	26.45	-42.0	-45.9	12.3	1.59e-04	0	60	0	655360000	55	5666
2026-01-17 08:56:39.24	23.15	26.36	-42.0	-45.8	12.3	1.66e-04	0	60	0	656408576	55	5646
2026-01-17 08:56:40.25	22.89	26.26	-42.1	-46.1	12.1	2.27e-04	0	60	0	658505728	55	5806
2026-01-17 08:56:41.26	22.64	26.17	-42.2	-46.3	11.8	3.26e-04	0	61	0	660602880	55	5944
2026-01-17 08:56:42.27	22.39	26.07	-42.2	-46.4	11.8	6.17e-04	0	60	0	662700032	55	6033
2026-01-17 08:56:43.28	22.14	25.98	-42.2	-46.4	11.7	5.96e-04	0	61	0	664797184	55	6060
2026-01-17 08:56:44.29	21.89	25.88	-42.2	-46.4	11.8	5.48e-04	0	60	0	665845760	55	6032
2026-01-17 08:56:45.30	21.64	25.79	-42.3	-46.5	11.6	4.68e-04	0	60	0	667942912	55	6110
2026-01-17 08:56:46.31	21.39	25.69	-42.2	-46.3	11.8	5.15e-04	0	60	0	670040064	55	5943
2026-01-17 08:56:47.32	21.15	25.59	-42.2	-46.3	11.8	4.07e-04	0	60	0	672137216	55	5966
2026-01-17 08:56:48.33	20.91	25.50	-42.2	-46.5	11.7	5.48e-04	0	60	0	674234368	55	6069
2026-01-17 08:56:49.34	20.66	25.40	-42.3	-46.6	11.5	9.00e-04	0	60	0	675282944	55	6181
2026-01-17 08:56:50.35	20.42	25.30	-42.4	-46.9	11.2	1.21e-03	0	60	0	677380096	55	6382
2026-01-17 08:56:51.36	20.19	25.20	-42.3	-46.7	11.4	9.95e-04	0	60	0	679477248	55	6227
2026-01-17 08:56:52.37	19.95	25.11	-42.1	-46.2	11.9	4.97e-04	0	61	0	681574400	55	5907
2026-01-17 08:56:53.38	19.71	25.01	-41.9	-45.7	12.4	2.77e-04	0	61	0	683671552	55	5562
2026-01-17 08:56:54.39	19.48	24.91	-41.7	-45.4	12.8	9.61e-05	0	60	0	685768704	55	5350
2026-01-17 08:56:55.40	19.25	24.81	-41.4	-44.8	13.3	1.90e-05	0	60	0	686817280	54	5305
2026-01-17 08:56:56.41	19.02	24.72	-41.2	-44.4	13.7	2.20e-06	0	60	0	688914432	54	5076
2026-01-17 08:56:57.42	18.79	24.62	-41.0	-44.1	14.0	3.80e-06	0	60	0	691011584	54	4920
2026-01-17 08:56:58.43	18.56	24.52	-40.9	-43.9	14.2	2.20e-06	0	60	0	693108736	53	5074
2026-01-17 08:56:59.44	18.33	24.42	-41.1	-44.2	13.9	2.20e-06	0	60	0	695205888	52	5571
2026-01-17 08:57:00.45	18.11	24.32	-41.2	-44.5	13.6	3.00e-06	0	61	0	696254464	53	5449
2026-01-17 08:57:01.46	17.88	24.22	-41.5	-45.1	13.1	1.22e-05	0	60	0	698351616	53	5834
2026-01-17 08:57:02.47	17.66	24.12	-41.7	-45.4	12.7	6.25e-05	0	60	0	700448768	53	6024
2026-01-17 08:57:03.48	17.44	24.02	-41.8	-45.5	12.6	6.25e-05	0	60	0	702545920	54	5755
2026-01-17 08:57:04.49	17.22	23.93	-41.7	-45.5	12.6	9.61e-05	0	60	0	704643072	54	5728
2026-01-17 08:57:05.50	17.00	23.83	-41.6	-45.1	13.0	5.03e-05	0	60	0	705691648	54	5498
2026-01-17 08:57:06.51	16.79	23.73	-41.3	-44.6	13.5	2.05e-05	0	60	0	707788800	54	5193
2026-01-17 08:57:07.52	16.57	23.63	-41.2	-44.5	13.6	8.30e-06	0	60	0	709885952	54	5130
2026-01-17 08:57:08.53	16.36	23.53	-41.2	-44.4	13.6	5.30e-06	0	61	0	711983104	54	5091
2026-01-17 08:57:09.54	16.14	23.43	-41.4	-44.8	13.4	6.80e-06	0	60	0	714080256	54	5308
2026-01-17 08:57:10.55	15.93	23.33	-41.4	-44.9	13.2	2.05e-05	0	61	0	715128832	54	5358
2026-01-17 08:57:11.56	15.72	23.23	-41.5	-45.0	13.0	2.28e-05	0	61	0	717225984	54	5452
2026-01-17 08:57:12.56	15.52	23.13	-41.4	-44.9	13.2	3.05e-05	0	60	0	719323136	54	5346
2026-01-17 08:57:13.57	15.31	23.03	-41.4	-44.9	13.3	2.74e-05	0	60	0	721420288	54	5368
2026-01-17 08:57:14.58	15.10	22.93	-41.5	-45.1	13.0	1.83e-05	0	60	0	723517440	54	5485
2026-01-17 08:57:15.59	14.90	22.83	-41.6	-45.2	12.9	2.97e-05	0	60	0	724566016	54	5545
2026-01-17 08:57:16.60	14.70	22.73	-41.5	-45.1	12.9	6.56e-05	0	60	0	726663168	54	5520
2026-01-17 08:57:17.62	14.49	22.63	-41.5	-45.1	13.0	3.28e-05	0	60	0	728760320	54	5488
2026-01-17 08:57:18.63	14.29	22.53	-41.6	-45.2	12.8	5.49e-05	0	61	0	730857472	54	5568
2026-01-17 08:57:19.63	14.09	22.44	-41.4	-44.9	13.2	3.28e-05	0	61	0	732954624	54	5363
2026-01-17 08:57:20.64	13.90	22.34	-41.3	-44.7	13.3	2.05e-05	0	61	0	734003200	54	5274
2026-01-17 08:57:21.65	13.70	22.24	-41.3	-44.6	13.5	6.80e-06	0	61	0	736100352	54	5175
2026-01-17 08:57:22.66	13.50	22.14	-41.5	-45.0	13.1	2.44e-05	0	61	0	738197504	54	5432
2026-01-17 08:57:23.67	13.31	22.04	-41.5	-45.0	13.1	2.44e-05	0	61	0	740294656	54	5415
2026-01-17 08:57:24.68	13.12	21.94	-41.5	-45.1	12.9	4.73e-05	0	60	0	742391808	54	5490
2026-01-17 08:57:25.69	12.93	21.84	-41.7	-45.4	12.7	7.70e-05	0	61	0	743440384	54	5674
2026-01-17 08:57:26.70	12.73	21.74	-41.7	-45.4	12.7	8.01e-05	0	61	0	745537536	54	5670
2026-01-17 08:57:27.71	12.55	21.64	-41.6	-45.2	12.8	8.77e-05	0	61	0	747634688	54	5583
2026-01-17 08:57:28.72	12.36	21.54	-41.6	-45.2	12.8	3.89e-05	0	60	0	749731840	54	5556
2026-01-17 08:57:29.73	12.17	21.44	-41.7	-45.4	12.6	7.32e-05	0	61	0	751828992	54	5709
2026-01-17 08:57:30.75	11.98	21.34	-41.6	-45.3	12.7	1.03e-04	0	60	0	753926144	54	5596
2026-01-17 08:57:31.76	11.80	21.24	-41.7	-45.4	12.5	9.30e-05	0	60	0	754974720	54	5716
2026-01-17 08:57:32.77	11.62	21.14	-41.7	-45.6	12.5	1.17e-04	0	60	0	757071872	54	5792
2026-01-17 08:57:33.78	11.43	21.05	-41.7	-45.6	12.4	1.31e-04	0	60	0	759169024	54	5795
2026-01-17 08:57:34.79	11.25	20.95	-41.8	-45.6	12.4	1.40e-04	0	61	0	761266176	54	5820
2026-01-17 08:57:35.80	11.07	20.85	-41.9	-45.9	12.1	1.88e-04	0	60	0	763363328	54	6007
2026-01-17 08:57:36.81	10.90	20.75	-41.8	-45.7	12.2	2.59e-04	0	60	0	764411904	54	5908
2026-01-17 08:57:37.82	10.72	20.65	-41.9	-45.8	12.0	2.38e-04	0	61	0	766509056	54	5977
2026-01-17 08:57:38.83	10.54	20.55	-42.0	-46.1	11.7	5.23e-04	0	61	0	768606208	54	6198
2026-01-17 08:57:39.84	10.37	20.45	-42.1	-46.5	11.5	7.43e-04	0	61	0	770703360	54	6432
2026-01-17 08:57:40.85	10.19	20.36	-42.2	-46.7	11.0	1.72e-03	0	60	0	772800512	55	6241
2026-01-17 08:57:41.86	10.02	20.26	-42.4	-47.2	10.7	1.87e-03	0	60	0	773849088	55	6603
2026-01-17 08:57:42.87	9.85	20.16	-42.4	-47.3	10.6	3.79e-03	0	60	0	775946240	55	6649
2026-01-17 08:57:43.87	9.68	20.06	-42.3	-46.9	10.9	3.18e-03	0	60	0	778043392	55	6374
2026-01-17 08:57:44.89	9.51	19.96	-42.4	-47.1	10.7	2.59e-03	0	61	0	780140544	55	6498
2026-01-17 08:57:45.90	9.34	19.87	-42.2	-46.6	11.2	1.76e-03	0	60	0	782237696	55	6196
2026-01-17 08:57:46.90	9.18	19.77	-42.1	-46.4	11.5	1.15e-03	0	61	0	783286272	55	6041
2026-01-17 08:57:47.92	9.01	19.67	-41.9	-46.1	11.8	4.68e-04	0	61	0	785383424	55	5814
2026-01-17 08:57:48.93	8.84	19.57	-41.8	-45.8	12.0	2.68e-04	0	61	0	787480576	55	5631
2026-01-17 08:57:49.94	8.68	19.48	-41.8	-45.8	12.1	4.66e-04	0	60	0	789577728	55	5598
2026-01-17 08:57:50.95	8.52	19.38	-41.7	-45.7	12.1	3.48e-04	0	60	0	791674880	55	5567
2026-01-17 08:57:51.95	8.36	19.29	-41.9	-46.1	11.7	3.32e-04	0	60	0	793772032	55	5792
2026-01-17 08:57:52.96	8.20	19.19	-42.0	-46.3	11.5	5.42e-04	0	61	0	794820608	55	5945
2026-01-17 08:57:53.97	8.04	19.09	-42.0	-46.3	11.5	9.79e-04	0	60	0	796917760	55	5934
2026-01-17 08:57:54.98	7.88	19.00	-41.9	-46.0	11.8	6.03e-04	0	60	0	799014912	55	5758
2026-01-17 08:57:55.99	7.72	18.90	-42.0	-46.3	11.5	7.89e-04	0	60	0	801112064	55	5945
2026-01-17 08:57:57.00	7.56	18.80	-41.8	-45.9	11.8	7.69e-04	0	60	0	803209216	55	5691
2026-01-17 08:57:58.01	7.41	18.71	-41.7	-45.6	12.1	3.59e-04	0	60	0	804257792	55	5520
2026-01-17 08:57:59.02	7.25	18.61	-41.6	-45.6	12.2	2.00e-04	0	61	0	806354944	55	5487
2026-01-17 08:58:00.03	7.10	18.52	-41.6	-45.5	12.3	1.80e-04	0	60	0	808452096	55	5426
2026-01-17 08:58:01.04	6.95	18.42	-41.5	-45.3	12.5	1.60e-04	0	60	0	810549248	54	5619
2026-01-17 08:58:02.05	6.80	18.32	-41.5	-45.3	12.4	1.44e-04	0	60	0	812646400	54	5654
2026-01-17 08:58:03.06	6.64	18.23	-41.5	-45.3	12.4	2.24e-04	0	61	0	813694976	54	5640
2026-01-17 08:58:04.07	6.50	18.13	-41.5	-45.3	12.4	1.35e-04	0	60	0	815792128	54	5619
2026-01-17 08:58:05.08	6.35	18.04	-41.5	-45.5	12.2	2.01e-04	0	60	0	817889280	54	5738
2026-01-17 08:58:06.09	6.20	17.95	-41.5	-45.5	12.2	2.10e-04	0	61	0	819986432	54	5734
2026-01-17 08:58:07.10	6.05	17.85	-41.6	-45.6	12.1	2.32e-04	0	60	0	822083584	54	5809
2026-01-17 08:58:08.11	5.91	17.76	-41.5	-45.3	12.3	2.22e-04	0	60	0	823132160	54	5628
2026-01-17 08:58:09.12	5.76	17.66	-41.5	-45.4	12.1	2.68e-04	0	61	0	825229312	54	5711
2026-01-17 08:58:10.13	5.62	17.57	-41.5	-45.4	12.2	2.48e-04	0	60	0	827326464	54	5718
2026-01-17 08:58:11.14	5.47	17.47	-41.5	-45.5	12.1	2.15e-04	0	61	0	829423616	54	5735
2026-01-17 08:58:12.15	5.33	17.38	-41.4	-45.3	12.2	2.49e-04	0	60	0	831520768	54	5644
2026-01-17 08:58:13.16	5.19	17.29	-41.3	-45.1	12.4	2.42e-04	0	60	0	832569344	54	5519
2026-01-17 08:58:14.17	5.05	17.19	-41.3	-45.2	12.3	1.69e-04	0	60	0	834666496	54	5570
2026-01-17 08:58:15.18	4.91	17.10	-41.3	-45.1	12.3	1.51e-04	0	61	0	836763648	54	5495
2026-01-17 08:58:16.19	4.77	17.01	-41.4	-45.5	11.9	1.92e-04	0	60	0	838860800	54	5740
2026-01-17 08:58:17.19	4.63	16.92	-41.4	-45.4	12.0	2.92e-04	0	60	0	840957952	54	5707
2026-01-17 08:58:18.20	4.50	16.82	-41.7	-46.0	11.4	6.03e-04	0	61	0	842006528	54	6099
2026-01-17 08:58:19.21	4.36	16.73	-41.8	-46.3	11.1	1.19e-03	0	61	0	844103680	54	6281
2026-01-17 08:58:20.22	4.23	16.64	-42.0	-46.9	10.3	4.59e-03	0	61	0	846200832	54	6801
2026-01-17 08:58:21.23	4.09	16.55	-42.1	-47.4	9.8	8.46e-03	0	60	0	848297984	54	7199
2026-01-17 08:58:22.24	3.96	16.45	-42.4	-48.1	9.0	1.60e-02	0	60	0	850395136	55	7325
2026-01-17 08:58:23.25	3.83	16.36	-42.5	-48.5	8.5	3.95e-02	0	60	0	851443712	55	7675
2026-01-17 08:58:24.26	3.69	16.27	-42.4	-48.3	8.7	3.06e-02	0	60	0	853540864	55	7527
2026-01-17 08:58:25.27	3.56	16.18	-42.3	-48.0	9.0	3.23e-02	0	60	0	855638016	55	7251
2026-01-17 08:58:26.28	3.43	16.09	-42.0	-47.3	9.7	1.87e-02	0	61	0	857735168	55	6666
2026-01-17 08:58:27.29	3.30	16.00	-41.8	-46.9	10.1	6.95e-03	0	60	0	859832320	55	6375
2026-01-17 08:58:28.30	3.17	15.91	-41.6	-46.2	10.8	4.33e-03	0	61	0	861929472	55	5906
2026-01-17 08:58:29.31	3.05	15.82	-41.3	-45.6	11.4	1.82e-03	0	60	0	862978048	54	5824
2026-01-17 08:58:30.32	2.92	15.73	-41.3	-45.6	11.5	8.11e-04	0	61	0	865075200	54	5790
2026-01-17 08:58:31.33	2.79	15.64	-41.3	-45.6	11.4	9.69e-04	0	61	0	867172352	54	5825
2026-01-17 08:58:32.34	2.67	15.55	-41.2	-45.5	11.5	9.73e-04	0	61	0	869269504	54	5765
2026-01-17 08:58:33.35	2.54	15.46	-41.3	-45.6	11.4	9.05e-04	0	60	0	871366656	54	5837
2026-01-17 08:58:34.35	2.42	15.37	-41.6	-46.4	10.4	2.49e-03	0	61	0	872415232	54	6412
2026-01-17 08:58:35.36	2.30	15.28	-41.6	-46.6	10.3	5.13e-03	0	61	0	874512384	54	6502
2026-01-17 08:58:36.37	2.17	15.19	-41.6	-46.6	10.1	5.67e-03	0	61	0	876609536	54	6555
2026-01-17 08:58:37.38	2.05	15.10	-41.8	-47.3	9.3	1.20e-02	0	61	0	878706688	54	7099
2026-01-17 08:58:38.39	1.93	15.01	-41.9	-47.8	8.8	2.20e-02	0	60	0	879755264	54	7463
2026-01-17 08:58:39.40	1.81	14.92	-41.8	-47.8	8.6	3.90e-02	0	61	0	881852416	54	7500
2026-01-17 08:58:40.41	1.69	14.83	-41.6	-47.3	9.0	3.12e-02	0	61	0	883949568	54	7073
2026-01-17 08:58:41.42	1.57	14.75	-41.5	-47.3	8.9	2.47e-02	0	61	0	886046720	54	7065
2026-01-17 08:58:42.43	1.45	14.66	-41.4	-47.1	9.0	2.43e-02	0	61	0	888143872	54	6941
2026-01-17 08:58:43.44	1.34	14.57	-41.4	-47.4	8.7	2.87e-02	0	61	0	890241024	54	7125
2026-01-17 08:58:44.45	1.22	14.48	-41.4	-47.4	8.6	3.59e-02	0	61	0	891289600	54	7204
2026-01-17 08:58:45.46	1.10	14.40	-41.3	-47.6	8.4	4.08e-02	0	61	0	893386752	54	7310
2026-01-17 08:58:46.47	0.99	14.31	-41.2	-47.2	8.7	3.36e-02	0	61	0	895483904	54	7010
2026-01-17 08:58:47.48	0.88	14.22	-41.1	-47.0	8.8	3.38e-02	0	61	0	897581056	54	6812
2026-01-17 08:58:48.49	0.76	14.13	-41.0	-47.0	8.8	3.73e-02	0	61	0	899678208	54	6844
2026-01-17 08:58:49.50	0.65	14.05	-40.8	-46.6	9.1	2.26e-02	0	60	0	900726784	53	6946
2026-01-17 08:58:50.51	0.54	13.96	-40.7	-46.4	9.2	2.06e-02	0	60	0	902823936	53	6794
2026-01-17 08:58:51.52	0.42	13.87	-40.7	-46.6	9.0	2.19e-02	0	61	0	904921088	53	6893
2026-01-17 08:58:52.52	0.31	13.79	-40.7	-46.8	8.7	3.04e-02	0	60	0	907018240	53	7079
2026-01-17 08:58:53.53	0.20	13.70	-40.8	-47.2	8.2	4.75e-02	0	60	0	909115392	53	7423
2026-01-17 08:58:54.54	0.09	13.62	-40.9	-47.8	7.6	7.61e-02	0	61	0	910163968	53	7966
2026-01-17 08:58:55.55	359.98	13.53	-41.1	-48.9	6.5	2.04e-01	0	61	0	912261120	53	9001
2026-01-17 08:58:56.56	359.88	13.45	-41.1	-49.7	5.8	3.13e-01	0	61	0	914358272	53	9861
2026-01-17 08:58:57.57	359.77	13.36	-41.2	-50.6	5.2	4.77e-01	0	61	0	916455424	53	10939
2026-01-17 08:58:58.58	359.66	13.28	-41.2	-51.9	4.5	8.27e-01	0	60	0	918552576	53	12694
2026-01-17 08:58:59.59	359.55	13.19	-41.2	-52.6	4.2	1.36e+00	0	61	0	919601152	53	13787
2026-01-17 08:59:00.61	359.45	13.11	-41.2	-53.1	4.1	1.41e+00	0	61	0	919601152	53	14637
2026-01-17 08:59:01.62	359.34	13.02	-41.1	-54.0	3.8	1.46e+00	0	61	104	919601152	53	16198
2026-01-17 08:59:02.63	359.24	12.94	-41.1	-54.4	3.8	1.49e+00	0	61	104	919601152	53	17017
2026-01-17 08:59:03.64	359.13	12.85	-41.0	-54.3	3.8	1.49e+00	0	61	104	919601152	53	16794
2026-01-17 08:59:04.64	359.03	12.77	-40.9	-54.7	3.8	1.49e+00	0	61	104	919601152	53	17522
2026-01-17 08:59:05.65	358.93	12.69	-40.9	-54.7	3.8	1.49e+00	0	61	104	919601152	53	17550
2026-01-17 08:59:06.66	358.83	12.61	-40.9	-54.9	3.8	1.49e+00	0	61	104	919601152	53	17964
2026-01-17 08:59:07.67	358.72	12.52	-40.9	-55.1	3.8	1.49e+00	0	60	104	919601152	53	18361
2026-01-17 08:59:08.68	358.62	12.44	-40.8	-55.3	3.8	1.49e+00	0	60	104	919601152	53	18795
2026-01-17 08:59:09.69	358.52	12.36	-40.8	-55.2	3.8	1.49e+00	0	61	104	919601152	53	18525
2026-01-17 08:59:10.70	358.42	12.27	-40.7	-55.1	3.8	1.49e+00	0	61	104	919601152	53	18437
2026-01-17 08:59:11.71	358.32	12.19	-40.7	-55.5	3.8	1.49e+00	0	60	104	919601152	53	19315
2026-01-17 08:59:12.73	358.22	12.11	-40.1	-55.1	3.8	1.49e+00	0	61	104	919601152	52	19444
2026-01-17 08:59:13.73	358.13	12.03	-40.5	-55.3	3.8	1.49e+00	0	61	104	919601152	52	19863
2026-01-17 08:59:14.74	358.03	11.95	-40.0	-54.9	3.8	1.49e+00	0	61	104	919601152	52	19009
2026-01-17 08:59:15.75	357.93	11.86	-39.8	-54.8	3.8	1.49e+00	0	61	104	919601152	51	19958
2026-01-17 08:59:16.76	357.84	11.78	-39.8	-54.8	3.8	1.49e+00	0	60	104	919601152	51	19887
2026-01-17 08:59:17.76	357.74	11.70	-39.7	-54.7	3.8	1.49e+00	0	61	104	919601152	51	19761
2026-01-17 08:59:18.77	357.65	11.62	-39.7	-54.7	3.8	1.49e+00	0	60	104	919601152	51	19749
2026-01-17 08:59:19.78	357.55	11.54	-39.8	-54.8	3.8	1.49e+00	0	61	104	919601152	51	19940
2026-01-17 08:59:20.79	357.46	11.46	-40.5	-55.4	3.8	1.49e+00	0	61	104	919601152	51	21428
2026-01-17 08:59:21.80	357.36	11.38	-39.9	-54.8	3.8	1.49e+00	0	61	104	919601152	51	20011
2026-01-17 08:59:22.81	357.27	11.30	-39.9	-54.9	3.8	1.49e+00	0	60	104	919601152	51	20300
2026-01-17 08:59:23.82	357.18	11.22	-39.9	-54.9	3.8	1.49e+00	0	61	104	919601152	51	20092
2026-01-17 08:59:24.83	357.08	11.14	-39.9	-54.8	3.8	1.49e+00	0	61	104	919601152	51	19935
2026-01-17 08:59:25.84	356.99	11.06	-39.8	-54.7	3.8	1.49e+00	0	61	104	919601152	51	19780
2026-01-17 08:59:26.85	356.90	10.98	-39.5	-54.6	3.8	1.49e+00	0	61	104	919601152	51	19516
2026-01-17 08:59:27.86	356.81	10.90	-40.2	-55.0	3.8	1.49e+00	0	61	104	919601152	51	20451
2026-01-17 08:59:28.87	356.72	10.82	-39.8	-54.8	3.8	1.49e+00	0	61	104	919601152	51	19968
2026-01-17 08:59:29.88	356.63	10.74	-40.3	-55.2	3.8	1.49e+00	0	61	104	919601152	51	20903
2026-01-17 08:59:30.89	356.54	10.66	-39.7	-54.7	3.8	1.49e+00	0	61	104	919601152	51	19746
2026-01-17 08:59:31.90	356.45	10.58	-40.3	-55.2	3.8	1.49e+00	0	61	104	919601152	51	20900
2026-01-17 08:59:32.91	356.37	10.51	-39.6	-54.7	3.8	1.49e+00	0	61	104	919601152	51	19774
2026-01-17 08:59:33.92	356.28	10.43	-39.9	-54.8	3.8	1.49e+00	0	61	104	919601152	51	19935
2026-01-17 08:59:34.93	356.19	10.35	-40.1	-54.9	3.8	1.49e+00	0	61	104	919601152	51	20241
2026-01-17 08:59:35.94	356.10	10.27	-39.9	-54.8	3.8	1.49e+00	0	61	104	919601152	51	19859
2026-01-17 08:59:36.95	356.02	10.19	-40.0	-54.9	3.8	1.49e+00	0	61	104	919601152	51	20097
2026-01-17 08:59:37.96	355.93	10.12	-40.2	-55.1	3.8	1.49e+00	0	61	104	919601152	51	20560
2026-01-17 08:59:38.96	355.85	10.04	-39.7	-54.7	3.8	1.49e+00	0	61	104	919601152	51	19642
2026-01-17 08:59:39.98	355.76	9.96	-40.3	-55.1	3.8	1.49e+00	0	61	104	919601152	51	20547
2026-01-17 08:59:40.99	355.68	9.88	-39.7	-54.7	3.8	1.49e+00	0	61	104	919601152	51	19629
2026-01-17 08:59:42.00	355.59	9.81	-40.0	-54.8	3.8	1.49e+00	0	61	104	919601152	51	19857
2026-01-17 08:59:43.00	355.51	9.73	-39.8	-54.8	3.8	1.49e+00	0	60	104	919601152	51	20005
2026-01-17 08:59:44.01	355.43	9.65	-39.9	-54.7	3.8	1.49e+00	0	61	104	919601152	51	19815
2026-01-17 08:59:45.03	355.35	9.58	-39.7	-54.8	3.8	1.49e+00	0	61	104	919601152	51	19933
2026-01-17 08:59:46.03	355.26	9.50	-40.2	-55.0	3.8	1.49e+00	0	61	104	919601152	51	20376
2026-01-17 08:59:47.04	355.18	9.43	-39.8	-54.7	3.8	1.49e+00	0	61	104	919601152	51	19798
2026-01-17 08:59:48.05	355.10	9.35	-40.2	-55.0	3.8	1.49e+00	0	61	104	919601152	51	20422
2026-01-17 08:59:49.06	355.02	9.28	-39.8	-54.7	3.8	1.49e+00	0	61	104	919601152	51	19827
2026-01-17 08:59:50.07	354.94	9.20	-40.0	-54.8	3.8	1.49e+00	0	61	104	919601152	51	19921
2026-01-17 08:59:51.08	354.86	9.12	-40.0	-54.8	3.8	1.49e+00	0	61	104	919601152	51	19877
2026-01-17 08:59:52.09	354.78	9.05	-40.0	-54.8	3.8	1.49e+00	0	61	104	919601152	51	19990
2026-01-17 08:59:53.10	354.70	8.97	-40.0	-54.7	3.8	1.49e+00	0	61	104	919601152	51	19833
2026-01-17 08:59:54.11	354.62	8.90	-40.2	-54.9	3.8	1.49e+00	0	61	104	919601152	51	20221
2026-01-17 08:59:55.12	354.55	8.82	-39.9	-54.8	3.8	1.49e+00	0	61	104	919601152	51	19941
2026-01-17 08:59:56.13	354.47	8.75	-40.2	-54.9	3.8	1.49e+00	0	61	104	919601152	51	20181
2026-01-17 08:59:57.14	354.39	8.68	-40.0	-54.8	3.8	1.49e+00	0	61	104	919601152	51	19942
2026-01-17 08:59:58.15	354.31	8.60	-40.1	-54.8	3.8	1.49e+00	0	61	104	919601152	51	20017
2026-01-17 08:59:59.16	354.24	8.53	-40.0	-54.8	3.8	1.49e+00	0	61	104	919601152	51	19896
2026-01-17 09:00:00.17	354.16	8.45	-40.1	-54.8	3.8	1.49e+00	0	61	104	919601152	51	19970
2026-01-17 09:00:01.18	354.09	8.38	-39.9	-54.7	3.8	1.49e+00	0	60	104	919601152	51	19828
2026-01-17 09:00:02.19	354.01	8.31	-40.2	-54.8	3.8	1.49e+00	0	61	104	919601152	51	20071
2026-01-17 09:00:03.20	353.94	8.23	-40.0	-54.8	3.8	1.49e+00	0	61	104	919601152	51	19875
