passes_logs/2026/01/17/R2.0S_Moscow/R2.0S_Moscow__20260117_130719_FENGYUN_3D_rec.log

#Pass ID: 20260117_130719_FENGYUN 3D
#Satellite: FENGYUN 3D
#Configuration: FENGYUN 3D
#almurnet v.1.7.20251203
#Start time: 2026-01-17 13:07:18

#Version: 2.2.20231116
#Station: R2.0S_Moscow
#Location: 37.707566 lon 55.798166 lat
#TLE: 1 43010U 17072A   26016.62453405 -.00000112  00000+0 -31355-4 0  9995
#TLE: 2 43010  98.9932 348.4654 0002369 105.3910 254.7528 14.19694900423480

#Time	Az	El	Level	Level2	SNR	BER	BlckErr	Temp	State	Recorded	gain1	gain2
2026-01-17 13:07:18.69	194.79	1.97	-43.8	-55.3	3.8	8.46e-01	0	51	0	0	59	13329
2026-01-17 13:07:19.70	194.85	2.03	-43.8	-55.3	3.8	8.46e-01	0	51	104	0	59	13306
2026-01-17 13:07:20.71	194.90	2.09	-43.8	-55.2	3.8	8.46e-01	0	52	104	0	59	13249
2026-01-17 13:07:21.72	194.96	2.15	-43.8	-55.2	3.8	8.46e-01	0	52	104	0	59	13235
2026-01-17 13:07:22.73	195.02	2.21	-43.8	-55.2	3.8	8.46e-01	0	52	104	0	59	13196
2026-01-17 13:07:23.75	195.07	2.27	-43.8	-55.2	3.8	8.47e-01	0	52	104	0	59	13190
2026-01-17 13:07:24.76	195.13	2.33	-43.8	-55.3	3.8	8.46e-01	0	52	104	0	59	13273
2026-01-17 13:07:25.77	195.19	2.39	-43.8	-55.3	3.8	8.45e-01	0	52	104	0	59	13280
2026-01-17 13:07:26.78	195.24	2.45	-43.8	-55.3	3.8	8.46e-01	0	52	104	0	59	13288
2026-01-17 13:07:27.79	195.30	2.51	-43.8	-55.3	3.8	8.46e-01	0	52	104	0	59	13291
2026-01-17 13:07:28.80	195.36	2.57	-43.8	-55.3	3.8	8.45e-01	0	52	104	0	59	13276
2026-01-17 13:07:29.81	195.41	2.63	-43.8	-55.2	3.8	8.45e-01	0	52	104	0	59	13257
2026-01-17 13:07:30.82	195.47	2.69	-43.8	-55.3	3.8	8.46e-01	0	52	104	0	59	13268
2026-01-17 13:07:31.83	195.53	2.75	-43.8	-55.3	3.8	8.47e-01	0	53	104	0	59	13291
2026-01-17 13:07:32.84	195.59	2.81	-43.8	-55.3	3.8	8.46e-01	0	52	104	0	59	13264
2026-01-17 13:07:33.85	195.65	2.87	-43.8	-55.2	3.8	8.46e-01	0	53	104	0	59	13239
2026-01-17 13:07:34.86	195.70	2.93	-43.8	-55.2	3.8	8.46e-01	0	53	104	0	59	13229
2026-01-17 13:07:35.87	195.76	3.00	-43.8	-55.3	3.8	8.46e-01	0	53	104	0	59	13274
2026-01-17 13:07:36.88	195.82	3.06	-43.8	-55.3	3.8	8.46e-01	0	53	104	0	59	13267
2026-01-17 13:07:37.89	195.88	3.12	-43.8	-55.2	3.8	8.47e-01	0	53	104	0	59	13250
2026-01-17 13:07:38.90	195.94	3.18	-43.8	-55.3	3.8	8.44e-01	0	53	104	0	59	13284
2026-01-17 13:07:39.91	196.00	3.24	-43.8	-55.2	3.8	8.45e-01	0	53	104	0	59	13212
2026-01-17 13:07:40.92	196.06	3.31	-43.8	-55.2	3.8	8.46e-01	0	53	104	0	59	13259
2026-01-17 13:07:41.94	196.12	3.37	-43.8	-55.2	3.8	8.44e-01	0	53	104	0	59	13247
2026-01-17 13:07:42.95	196.18	3.43	-43.8	-55.2	3.8	8.46e-01	0	53	104	0	59	13257
2026-01-17 13:07:43.96	196.24	3.49	-43.8	-55.2	3.8	8.46e-01	0	53	104	0	59	13247
2026-01-17 13:07:44.97	196.30	3.55	-43.8	-55.2	3.8	8.46e-01	0	53	104	0	59	13228
2026-01-17 13:07:45.98	196.37	3.62	-43.8	-55.2	3.8	8.46e-01	0	53	104	0	59	13228
2026-01-17 13:07:46.99	196.43	3.68	-43.8	-55.3	3.8	8.46e-01	0	53	104	0	59	13269
2026-01-17 13:07:48.00	196.49	3.74	-43.8	-55.3	3.8	8.46e-01	0	53	104	0	59	13321
2026-01-17 13:07:49.01	196.55	3.81	-43.8	-55.3	3.8	8.47e-01	0	54	104	0	59	13290
2026-01-17 13:07:50.03	196.61	3.87	-43.8	-55.2	3.8	8.47e-01	0	54	104	0	59	13252
2026-01-17 13:07:51.04	196.68	3.93	-43.8	-55.2	3.8	8.44e-01	0	54	104	0	59	13215
2026-01-17 13:07:52.05	196.74	4.00	-43.8	-55.2	3.8	8.45e-01	0	54	104	0	59	13258
2026-01-17 13:07:53.06	196.80	4.06	-43.8	-55.3	3.8	8.46e-01	0	54	104	0	59	13274
2026-01-17 13:07:54.07	196.86	4.12	-43.8	-55.3	3.8	8.45e-01	0	54	104	0	59	13297
2026-01-17 13:07:55.08	196.93	4.19	-43.8	-55.3	3.8	8.46e-01	0	54	104	0	59	13261
2026-01-17 13:07:56.09	196.99	4.25	-43.8	-55.2	3.8	8.46e-01	0	54	104	0	59	13256
2026-01-17 13:07:57.10	197.06	4.31	-43.8	-55.2	3.8	8.45e-01	0	54	104	0	59	13193
2026-01-17 13:07:58.11	197.12	4.38	-43.8	-55.2	3.8	8.47e-01	0	54	104	0	59	13231
2026-01-17 13:07:59.12	197.19	4.44	-43.8	-55.2	3.8	8.46e-01	0	54	104	0	59	13203
2026-01-17 13:08:00.13	197.25	4.51	-43.8	-55.1	3.8	8.46e-01	0	54	104	0	59	13103
2026-01-17 13:08:01.15	197.32	4.57	-43.8	-55.2	3.8	8.46e-01	0	54	104	0	59	13224
2026-01-17 13:08:02.16	197.38	4.64	-43.8	-55.1	3.8	8.46e-01	0	54	104	0	59	13043
2026-01-17 13:08:03.17	197.45	4.70	-43.8	-55.2	3.8	8.46e-01	0	54	104	0	59	13112
2026-01-17 13:08:04.18	197.51	4.77	-43.8	-55.1	3.8	8.46e-01	0	54	104	0	59	13085
2026-01-17 13:08:05.19	197.58	4.83	-43.8	-55.1	3.8	8.47e-01	0	55	104	0	59	13057
2026-01-17 13:08:06.20	197.65	4.90	-43.8	-55.1	3.8	8.45e-01	0	55	104	0	59	13095
2026-01-17 13:08:07.21	197.71	4.96	-43.7	-55.0	3.8	8.47e-01	0	54	104	0	59	12836
2026-01-17 13:08:08.22	197.78	5.03	-43.7	-54.9	3.8	8.46e-01	0	55	104	0	59	12805
2026-01-17 13:08:09.23	197.85	5.09	-43.7	-55.0	3.8	8.47e-01	0	55	104	0	59	12851
2026-01-17 13:08:10.25	197.92	5.16	-43.7	-54.9	3.8	8.46e-01	0	55	104	0	59	12728
2026-01-17 13:08:11.26	197.98	5.22	-43.7	-55.0	3.8	8.45e-01	0	55	104	0	59	12900
2026-01-17 13:08:12.27	198.05	5.29	-43.7	-54.8	3.8	8.46e-01	0	55	104	0	59	12531
2026-01-17 13:08:13.28	198.12	5.36	-43.7	-54.6	3.8	8.45e-01	0	55	104	0	59	12237
2026-01-17 13:08:14.29	198.19	5.42	-43.7	-54.3	3.8	8.46e-01	0	55	104	0	59	11939
2026-01-17 13:08:15.30	198.26	5.49	-43.7	-54.3	3.8	8.47e-01	0	55	104	0	59	11940
2026-01-17 13:08:16.31	198.33	5.55	-43.6	-54.1	3.8	8.46e-01	0	55	104	0	59	11552
2026-01-17 13:08:17.33	198.40	5.62	-43.6	-53.6	3.8	8.46e-01	0	55	104	0	59	10928
2026-01-17 13:08:18.34	198.47	5.69	-43.6	-53.5	3.8	8.45e-01	0	55	104	0	59	10811
2026-01-17 13:08:19.35	198.54	5.75	-43.5	-53.1	3.9	8.44e-01	0	55	104	0	59	10315
2026-01-17 13:08:20.36	198.61	5.82	-43.4	-52.4	3.9	8.43e-01	0	55	104	0	58	10085
2026-01-17 13:08:21.37	198.68	5.89	-43.3	-51.9	4.1	8.41e-01	0	55	0	0	58	9582
2026-01-17 13:08:22.38	198.75	5.96	-43.3	-51.5	4.2	8.37e-01	0	56	0	0	58	9080
2026-01-17 13:08:23.39	198.82	6.02	-43.2	-50.9	4.4	8.28e-01	0	55	0	0	58	8549
2026-01-17 13:08:24.40	198.90	6.09	-43.0	-50.4	4.7	8.15e-01	0	56	0	0	58	7993
2026-01-17 13:08:25.41	198.97	6.16	-42.9	-50.0	4.8	8.05e-01	0	55	0	0	57	8160
2026-01-17 13:08:26.42	199.04	6.23	-42.8	-49.4	5.1	7.61e-01	0	56	0	0	57	7594
2026-01-17 13:08:27.43	199.11	6.29	-42.7	-49.1	5.3	7.35e-01	0	56	0	0	57	7371
2026-01-17 13:08:28.44	199.19	6.36	-42.5	-48.5	5.7	5.76e-01	0	56	0	1048576	57	6833
2026-01-17 13:08:29.45	199.26	6.43	-42.5	-48.5	5.8	4.95e-01	0	56	0	6291456	57	6827
2026-01-17 13:08:30.46	199.33	6.50	-42.5	-48.4	5.8	4.18e-01	0	56	0	12582912	56	7198
2026-01-17 13:08:31.47	199.41	6.57	-42.6	-48.7	5.6	5.64e-01	0	56	0	16777216	56	7406
2026-01-17 13:08:32.48	199.48	6.63	-42.6	-48.7	5.6	5.44e-01	0	56	0	20971520	56	7395
2026-01-17 13:08:33.49	199.56	6.70	-42.5	-48.5	5.8	5.04e-01	0	56	0	25165824	56	7236
2026-01-17 13:08:34.50	199.63	6.77	-42.6	-48.7	5.6	5.56e-01	0	56	0	30408704	56	7412
2026-01-17 13:08:35.51	199.71	6.84	-42.7	-48.9	5.5	6.56e-01	0	56	0	33554432	56	7591
2026-01-17 13:08:36.52	199.78	6.91	-42.7	-49.1	5.4	7.24e-01	0	56	0	34603008	56	7736
2026-01-17 13:08:37.53	199.86	6.98	-42.7	-49.1	5.3	7.32e-01	0	56	0	36700160	56	7767
2026-01-17 13:08:38.54	199.94	7.05	-42.7	-49.2	5.2	7.34e-01	0	56	0	37748736	56	7897
2026-01-17 13:08:39.55	200.01	7.12	-42.6	-48.7	5.6	7.03e-01	0	56	0	38797312	56	7454
2026-01-17 13:08:40.56	200.09	7.19	-42.3	-47.7	6.3	3.57e-01	0	56	0	44040192	56	6621
2026-01-17 13:08:41.58	200.17	7.26	-41.7	-46.4	7.3	1.66e-01	0	56	0	49283072	55	6054
2026-01-17 13:08:42.59	200.25	7.33	-41.4	-45.7	8.1	9.11e-02	0	56	0	55574528	54	5878
2026-01-17 13:08:43.60	200.33	7.40	-41.0	-45.0	8.7	5.05e-02	0	56	0	60817408	54	5444
2026-01-17 13:08:44.61	200.40	7.47	-40.6	-44.2	9.5	2.34e-02	0	56	0	67108864	53	5251
2026-01-17 13:08:45.62	200.48	7.54	-40.2	-43.4	10.4	6.79e-03	0	56	0	72351744	52	5061
2026-01-17 13:08:46.63	200.56	7.61	-39.9	-42.9	11.0	2.93e-03	0	56	0	77594624	51	5058
2026-01-17 13:08:47.64	200.64	7.68	-39.8	-42.7	11.2	1.98e-03	0	56	0	83886080	51	4954
2026-01-17 13:08:48.65	200.72	7.75	-39.5	-42.3	11.6	1.28e-03	0	56	0	89128960	51	4741
2026-01-17 13:08:49.66	200.80	7.82	-39.3	-41.9	12.0	4.83e-04	0	57	0	95420416	50	4807
2026-01-17 13:08:50.67	200.89	7.89	-39.3	-42.0	11.9	4.45e-04	0	56	0	100663296	50	4854
2026-01-17 13:08:51.68	200.97	7.97	-39.4	-42.1	11.8	6.28e-04	0	57	0	106954752	50	4891
2026-01-17 13:08:52.69	201.05	8.04	-39.6	-42.3	11.6	8.22e-04	0	57	0	112197632	50	5022
2026-01-17 13:08:53.70	201.13	8.11	-44.1	-53.9	3.8	5.33e-01	0	57	104	117440512	58	12082
2026-01-17 13:08:54.71	201.21	8.18	-41.2	-44.8	7.3	8.42e-01	0	57	104	117440512	54	5323
2026-01-17 13:08:55.73	201.30	8.25	-41.1	-45.1	8.8	4.54e-04	0	57	0	120586240	52	6134
2026-01-17 13:08:56.73	201.38	8.33	-43.1	-51.3	4.2	6.88e-01	0	57	0	123731968	56	9992
2026-01-17 13:08:57.75	201.46	8.40	-40.1	-43.1	11.2	8.16e-01	0	57	104	123731968	50	5487
2026-01-17 13:08:58.76	201.55	8.47	-40.0	-43.0	11.2	1.18e-02	0	57	0	128974848	52	4839
2026-01-17 13:08:59.77	201.63	8.54	-39.8	-42.6	11.6	1.04e-03	0	57	0	134217728	51	4906
2026-01-17 13:09:00.77	201.72	8.62	-39.0	-41.6	12.2	3.59e-04	0	57	0	140509184	50	4647
2026-01-17 13:09:01.78	201.80	8.69	-39.4	-42.0	12.3	3.62e-04	0	57	0	145752064	50	4839
2026-01-17 13:09:02.79	201.89	8.76	-39.3	-41.8	12.5	1.85e-04	0	57	0	152043520	50	4743
2026-01-17 13:09:03.80	201.97	8.83	-39.2	-41.7	12.5	1.70e-04	0	57	0	157286400	50	4684
2026-01-17 13:09:04.81	202.06	8.91	-39.2	-41.8	12.5	1.48e-04	0	57	0	162529280	50	4708
2026-01-17 13:09:05.82	202.15	8.98	-39.2	-41.6	12.7	1.15e-04	0	57	0	168820736	50	4638
2026-01-17 13:09:06.83	202.23	9.06	-39.2	-41.6	12.7	1.21e-04	0	57	0	174063616	50	4648
2026-01-17 13:09:07.84	202.32	9.13	-39.2	-41.7	12.7	1.15e-04	0	57	0	180355072	50	4668
2026-01-17 13:09:08.85	202.41	9.20	-39.1	-41.5	12.9	9.95e-05	0	57	0	185597952	50	4571
2026-01-17 13:09:09.86	202.50	9.28	-39.0	-41.4	12.9	8.12e-05	0	57	0	190840832	50	4542
2026-01-17 13:09:10.86	202.59	9.35	-39.0	-41.4	13.0	7.55e-05	0	57	0	197132288	50	4528
2026-01-17 13:09:11.87	202.68	9.43	-39.1	-41.5	12.9	6.86e-05	0	57	0	202375168	50	4549
2026-01-17 13:09:12.88	202.77	9.50	-39.0	-41.4	13.0	5.95e-05	0	57	0	207618048	50	4534
2026-01-17 13:09:13.90	202.86	9.58	-38.9	-41.3	13.2	4.80e-05	0	57	0	213909504	49	4709
2026-01-17 13:09:14.90	202.95	9.65	-38.9	-41.2	13.2	4.57e-05	0	57	0	219152384	49	4697
2026-01-17 13:09:15.91	203.04	9.73	-38.9	-41.3	13.2	3.54e-05	0	57	0	225443840	49	4716
2026-01-17 13:09:16.92	203.13	9.80	-38.9	-41.3	13.2	2.05e-05	0	57	0	230686720	49	4714
2026-01-17 13:09:17.93	203.22	9.88	-38.7	-41.0	13.5	2.28e-05	0	58	0	236978176	49	4552
2026-01-17 13:09:18.94	203.32	9.95	-38.8	-41.0	13.5	2.17e-05	0	57	0	242221056	49	4585
2026-01-17 13:09:19.95	203.41	10.03	-38.8	-41.0	13.5	1.83e-05	0	57	0	248512512	49	4571
2026-01-17 13:09:20.96	203.50	10.10	-38.8	-41.1	13.4	2.74e-05	0	57	0	253755392	49	4627
2026-01-17 13:09:21.97	203.60	10.18	-38.8	-41.0	13.5	1.02e-05	0	58	0	258998272	49	4569
2026-01-17 13:09:22.98	203.69	10.26	-38.9	-41.1	13.4	1.71e-05	0	58	0	265289728	49	4635
2026-01-17 13:09:23.99	203.79	10.33	-38.8	-41.0	13.5	1.71e-05	0	58	0	270532608	49	4577
2026-01-17 13:09:25.00	203.88	10.41	-38.9	-41.1	13.4	2.05e-05	0	58	0	276824064	49	4638
2026-01-17 13:09:26.01	203.98	10.49	-38.8	-41.0	13.5	1.83e-05	0	57	0	282066944	49	4595
2026-01-17 13:09:27.02	204.08	10.56	-38.9	-41.2	13.4	2.17e-05	0	58	0	287309824	49	4680
2026-01-17 13:09:28.02	204.17	10.64	-38.8	-41.0	13.5	8.00e-06	0	58	0	293601280	49	4587
2026-01-17 13:09:29.04	204.27	10.72	-38.7	-41.0	13.6	8.00e-06	0	58	0	298844160	49	4551
2026-01-17 13:09:30.05	204.37	10.80	-38.7	-40.9	13.7	1.14e-05	0	58	0	305135616	49	4502
2026-01-17 13:09:31.06	204.47	10.87	-38.6	-40.8	13.8	9.10e-06	0	58	0	310378496	49	4475
2026-01-17 13:09:32.07	204.57	10.95	-38.6	-40.7	13.9	8.00e-06	0	58	0	315621376	49	4420
2026-01-17 13:09:33.08	204.67	11.03	-38.5	-40.6	14.0	4.50e-06	0	58	0	321912832	49	4389
2026-01-17 13:09:34.09	204.77	11.11	-38.5	-40.7	14.0	4.50e-06	0	58	0	327155712	49	4397
2026-01-17 13:09:35.10	204.87	11.19	-38.5	-40.5	14.1	1.10e-06	0	58	0	333447168	48	4587
2026-01-17 13:09:36.11	204.97	11.27	-38.4	-40.5	14.1	5.70e-06	0	58	0	338690048	48	4584
2026-01-17 13:09:37.12	205.07	11.35	-38.4	-40.5	14.2	1.10e-06	0	58	0	344981504	48	4579
2026-01-17 13:09:38.13	205.17	11.42	-38.3	-40.4	14.3	1.10e-06	0	58	0	350224384	48	4494
2026-01-17 13:09:39.14	205.27	11.50	-38.3	-40.4	14.3	1.10e-06	0	58	0	356515840	48	4497
2026-01-17 13:09:40.15	205.38	11.58	-38.4	-40.4	14.3	2.20e-06	0	58	0	361758720	48	4519
2026-01-17 13:09:41.16	205.48	11.66	-38.4	-40.4	14.3	1.10e-06	0	58	0	367001600	48	4521
2026-01-17 13:09:42.17	205.59	11.74	-38.4	-40.4	14.3	1.10e-06	0	58	0	373293056	48	4515
2026-01-17 13:09:43.18	205.69	11.82	-38.5	-40.5	14.2	5.70e-06	0	58	0	378535936	48	4588
2026-01-17 13:09:44.19	205.80	11.90	-38.5	-40.6	14.2	2.20e-06	0	58	0	384827392	48	4607
2026-01-17 13:09:45.20	205.90	11.98	-38.4	-40.5	14.2	1.10e-06	0	58	0	390070272	48	4577
2026-01-17 13:09:46.21	206.01	12.06	-38.4	-40.5	14.3	4.50e-06	0	58	0	395313152	48	4561
2026-01-17 13:09:47.22	206.12	12.14	-38.4	-40.4	14.3	4.50e-06	0	58	0	401604608	48	4520
2026-01-17 13:09:48.23	206.22	12.22	-38.4	-40.4	14.3	0.00e+00	0	58	0	406847488	48	4525
2026-01-17 13:09:49.24	206.33	12.30	-38.4	-40.4	14.4	1.10e-06	0	58	0	413138944	48	4515
2026-01-17 13:09:50.25	206.44	12.39	-38.3	-40.4	14.4	2.20e-06	0	58	0	418381824	48	4511
2026-01-17 13:09:51.25	206.55	12.47	-38.4	-40.4	14.3	0.00e+00	0	58	0	423624704	48	4527
2026-01-17 13:09:52.26	206.66	12.55	-38.4	-40.4	14.4	1.10e-06	0	58	0	429916160	48	4515
2026-01-17 13:09:53.28	206.77	12.63	-38.3	-40.4	14.4	3.40e-06	0	58	0	435159040	48	4501
2026-01-17 13:09:54.29	206.88	12.71	-38.4	-40.4	14.3	1.10e-06	0	58	0	441450496	48	4536
2026-01-17 13:09:55.30	206.99	12.79	-38.4	-40.4	14.4	1.10e-06	0	58	0	446693376	48	4526
2026-01-17 13:09:56.30	207.10	12.88	-38.4	-40.4	14.4	1.10e-06	0	58	0	452984832	48	4509
2026-01-17 13:09:57.31	207.22	12.96	-38.4	-40.5	14.3	0.00e+00	0	58	0	458227712	48	4552
2026-01-17 13:09:58.32	207.33	13.04	-38.4	-40.4	14.4	2.20e-06	0	58	0	463470592	48	4533
2026-01-17 13:09:59.33	207.45	13.12	-38.4	-40.4	14.3	3.40e-06	0	59	0	469762048	48	4544
2026-01-17 13:10:00.34	207.56	13.21	-38.3	-40.4	14.4	1.10e-06	0	59	0	475004928	48	4501
2026-01-17 13:10:01.35	207.68	13.29	-38.4	-40.4	14.4	3.40e-06	0	58	0	481296384	48	4509
2026-01-17 13:10:02.36	207.79	13.37	-38.3	-40.3	14.5	2.20e-06	0	58	0	486539264	48	4465
2026-01-17 13:10:03.37	207.91	13.46	-38.3	-40.3	14.5	0.00e+00	0	59	0	491782144	48	4460
2026-01-17 13:10:04.38	208.03	13.54	-38.2	-40.2	14.6	1.10e-06	0	59	0	498073600	48	4433
2026-01-17 13:10:05.39	208.14	13.62	-38.2	-40.2	14.7	2.20e-06	0	58	0	503316480	48	4399
2026-01-17 13:10:06.40	208.26	13.71	-38.1	-40.1	14.8	1.10e-06	0	59	0	509607936	48	4348
2026-01-17 13:10:07.41	208.38	13.79	-38.1	-40.0	14.8	0.00e+00	0	59	0	514850816	48	4324
2026-01-17 13:10:08.42	208.50	13.88	-38.1	-40.0	14.8	0.00e+00	0	58	0	520093696	48	4332
2026-01-17 13:10:09.42	208.62	13.96	-38.1	-40.0	14.8	0.00e+00	0	59	0	526385152	48	4316
2026-01-17 13:10:10.43	208.74	14.04	-38.0	-39.9	14.9	0.00e+00	0	58	0	531628032	48	4273
2026-01-17 13:10:11.44	208.86	14.13	-38.0	-40.0	14.9	0.00e+00	0	59	0	537919488	48	4295
2026-01-17 13:10:12.45	208.99	14.21	-37.9	-39.9	14.9	0.00e+00	0	59	0	543162368	47	4498
2026-01-17 13:10:13.46	209.11	14.30	-38.0	-39.9	14.8	0.00e+00	0	59	0	549453824	47	4532
2026-01-17 13:10:14.47	209.23	14.39	-37.9	-39.9	14.9	0.00e+00	0	59	0	554696704	47	4494
2026-01-17 13:10:15.48	209.36	14.47	-37.8	-39.8	15.0	0.00e+00	0	58	0	559939584	47	4444
2026-01-17 13:10:16.49	209.48	14.56	-37.9	-39.8	14.9	0.00e+00	0	59	0	566231040	47	4478
2026-01-17 13:10:17.50	209.61	14.64	-37.9	-39.9	14.9	0.00e+00	0	59	0	571473920	47	4495
2026-01-17 13:10:18.51	209.74	14.73	-38.0	-39.9	14.8	0.00e+00	0	59	0	577765376	47	4543
2026-01-17 13:10:19.52	209.87	14.82	-37.9	-39.8	15.0	0.00e+00	0	59	0	583008256	47	4457
2026-01-17 13:10:20.53	209.99	14.90	-37.9	-39.8	14.9	1.10e-06	0	59	0	588251136	47	4492
2026-01-17 13:10:21.54	210.12	14.99	-37.9	-39.8	14.9	1.10e-06	0	59	0	594542592	47	4493
2026-01-17 13:10:22.55	210.25	15.08	-37.9	-39.9	14.9	0.00e+00	0	59	0	599785472	47	4500
2026-01-17 13:10:23.56	210.38	15.16	-37.9	-39.8	15.0	0.00e+00	0	59	0	606076928	47	4470
2026-01-17 13:10:24.57	210.51	15.25	-37.9	-39.8	15.0	0.00e+00	0	59	0	611319808	47	4485
2026-01-17 13:10:25.58	210.65	15.34	-37.9	-39.8	15.0	0.00e+00	0	59	0	616562688	47	4477
2026-01-17 13:10:26.59	210.78	15.42	-37.8	-39.7	15.1	0.00e+00	0	59	0	622854144	47	4429
2026-01-17 13:10:27.60	210.91	15.51	-37.6	-39.5	15.2	0.00e+00	0	59	0	628097024	47	4332
2026-01-17 13:10:28.61	211.05	15.60	-37.6	-39.5	15.3	0.00e+00	0	59	0	634388480	47	4294
2026-01-17 13:10:29.62	211.18	15.69	-37.6	-39.5	15.3	0.00e+00	0	59	0	639631360	47	4322
2026-01-17 13:10:30.63	211.32	15.78	-37.6	-39.5	15.3	0.00e+00	0	59	0	645922816	47	4301
2026-01-17 13:10:31.64	211.45	15.86	-37.6	-39.5	15.3	0.00e+00	0	59	0	651165696	47	4325
2026-01-17 13:10:32.65	211.59	15.95	-37.6	-39.5	15.3	0.00e+00	0	59	0	657457152	47	4303
2026-01-17 13:10:33.65	211.73	16.04	-37.6	-39.5	15.3	0.00e+00	0	59	0	662700032	47	4293
2026-01-17 13:10:34.67	211.87	16.13	-37.6	-39.4	15.4	0.00e+00	0	59	0	667942912	47	4275
2026-01-17 13:10:35.68	212.01	16.22	-37.6	-39.4	15.4	0.00e+00	0	59	0	674234368	47	4290
2026-01-17 13:10:36.69	212.15	16.31	-37.6	-39.4	15.4	0.00e+00	0	59	0	679477248	47	4259
2026-01-17 13:10:37.70	212.29	16.40	-37.6	-39.4	15.4	0.00e+00	0	59	0	685768704	47	4287
2026-01-17 13:10:38.71	212.43	16.49	-37.5	-39.4	15.4	0.00e+00	0	59	0	691011584	47	4244
2026-01-17 13:10:39.72	212.57	16.58	-37.6	-39.4	15.4	0.00e+00	0	59	0	696254464	47	4269
2026-01-17 13:10:40.73	212.72	16.67	-37.6	-39.4	15.4	0.00e+00	0	59	0	702545920	47	4291
2026-01-17 13:10:41.74	212.86	16.76	-37.6	-39.4	15.4	0.00e+00	0	59	0	707788800	47	4259
2026-01-17 13:10:42.75	213.01	16.85	-37.6	-39.5	15.3	0.00e+00	0	59	0	714080256	47	4296
2026-01-17 13:10:43.76	213.15	16.94	-37.6	-39.4	15.4	0.00e+00	0	59	0	719323136	47	4290
2026-01-17 13:10:44.77	213.30	17.03	-37.6	-39.5	15.3	0.00e+00	0	59	0	724566016	47	4318
2026-01-17 13:10:45.78	213.45	17.12	-37.6	-39.5	15.3	0.00e+00	0	59	0	730857472	47	4314
2026-01-17 13:10:46.79	213.60	17.21	-37.7	-39.5	15.3	0.00e+00	0	59	0	736100352	47	4322
2026-01-17 13:10:47.80	213.75	17.30	-37.6	-39.5	15.4	0.00e+00	0	59	0	742391808	47	4316
2026-01-17 13:10:48.80	213.90	17.39	-37.6	-39.4	15.4	0.00e+00	0	59	0	747634688	47	4288
2026-01-17 13:10:49.80	214.05	17.48	-37.5	-39.4	15.5	0.00e+00	0	59	0	753926144	47	4259
2026-01-17 13:10:50.82	214.20	17.58	-37.6	-39.4	15.4	0.00e+00	0	59	0	759169024	47	4279
2026-01-17 13:10:51.83	214.35	17.67	-37.6	-39.4	15.4	0.00e+00	0	59	0	765460480	47	4267
2026-01-17 13:10:52.84	214.51	17.76	-37.5	-39.3	15.5	0.00e+00	0	59	0	770703360	47	4237
2026-01-17 13:10:53.85	214.66	17.85	-37.4	-39.2	15.6	0.00e+00	0	59	0	775946240	46	4409
2026-01-17 13:10:54.86	214.82	17.94	-37.3	-39.1	15.8	0.00e+00	0	59	0	782237696	46	4345
2026-01-17 13:10:55.87	214.98	18.03	-37.2	-38.9	15.9	0.00e+00	0	59	0	787480576	46	4285
2026-01-17 13:10:56.88	215.13	18.13	-37.1	-38.8	16.0	0.00e+00	0	59	0	793772032	46	4233
2026-01-17 13:10:57.89	215.29	18.22	-37.1	-38.8	16.1	0.00e+00	0	59	0	799014912	46	4204
2026-01-17 13:10:58.90	215.45	18.31	-37.0	-38.7	16.2	0.00e+00	0	59	0	804257792	46	4170
2026-01-17 13:10:59.91	215.61	18.40	-37.0	-38.7	16.1	0.00e+00	0	59	0	810549248	46	4193
2026-01-17 13:11:00.92	215.78	18.50	-37.1	-38.8	16.1	0.00e+00	0	59	0	815792128	46	4204
2026-01-17 13:11:01.93	215.94	18.59	-37.2	-38.9	16.0	0.00e+00	0	59	0	822083584	46	4262
2026-01-17 13:11:02.94	216.10	18.68	-37.1	-38.9	16.0	0.00e+00	0	60	0	827326464	46	4257
2026-01-17 13:11:03.95	216.27	18.78	-37.2	-38.9	16.0	0.00e+00	0	59	0	832569344	46	4271
2026-01-17 13:11:04.96	216.43	18.87	-37.2	-39.0	15.9	0.00e+00	0	60	0	838860800	46	4299
2026-01-17 13:11:05.97	216.60	18.96	-37.1	-38.8	16.0	0.00e+00	0	59	0	844103680	46	4237
2026-01-17 13:11:06.98	216.77	19.06	-37.0	-38.8	16.1	0.00e+00	0	59	0	850395136	46	4199
2026-01-17 13:11:07.99	216.94	19.15	-37.0	-38.7	16.2	0.00e+00	0	59	0	855638016	46	4159
2026-01-17 13:11:09.00	217.10	19.24	-37.0	-38.7	16.2	0.00e+00	0	60	0	861929472	46	4189
2026-01-17 13:11:10.01	217.28	19.34	-37.1	-38.8	16.1	0.00e+00	0	59	0	867172352	46	4199
2026-01-17 13:11:11.02	217.45	19.43	-37.1	-38.8	16.0	0.00e+00	0	60	0	872415232	46	4230
2026-01-17 13:11:12.03	217.62	19.53	-37.1	-38.8	16.1	0.00e+00	0	59	0	878706688	46	4223
2026-01-17 13:11:13.04	217.79	19.62	-37.1	-38.9	16.0	0.00e+00	0	60	0	883949568	46	4255
2026-01-17 13:11:14.05	217.97	19.72	-37.1	-38.8	16.1	0.00e+00	0	59	0	890241024	46	4229
2026-01-17 13:11:15.06	218.14	19.81	-37.1	-38.8	16.1	0.00e+00	0	59	0	895483904	46	4212
2026-01-17 13:11:16.07	218.32	19.90	-37.1	-38.8	16.1	0.00e+00	0	59	0	900726784	46	4219
2026-01-17 13:11:17.08	218.50	20.00	-37.0	-38.8	16.1	0.00e+00	0	60	0	907018240	46	4203
2026-01-17 13:11:18.09	218.68	20.09	-37.1	-38.8	16.1	0.00e+00	0	59	0	912261120	46	4209
2026-01-17 13:11:19.10	218.86	20.19	-37.1	-38.8	16.1	0.00e+00	0	59	0	918552576	46	4210
2026-01-17 13:11:20.11	219.04	20.28	-37.0	-38.8	16.1	0.00e+00	0	59	0	923795456	46	4194
2026-01-17 13:11:21.12	219.22	20.38	-36.9	-38.7	16.2	0.00e+00	0	59	0	929038336	45	4394
2026-01-17 13:11:22.14	219.41	20.47	-36.9	-38.6	16.3	0.00e+00	0	60	0	935329792	45	4363
2026-01-17 13:11:23.15	219.59	20.57	-36.9	-38.6	16.3	0.00e+00	0	59	0	940572672	45	4379
2026-01-17 13:11:24.15	219.78	20.66	-36.9	-38.6	16.2	0.00e+00	0	60	0	946864128	45	4381
2026-01-17 13:11:25.17	219.96	20.76	-37.0	-38.7	16.2	0.00e+00	0	59	0	952107008	45	4419
2026-01-17 13:11:26.18	220.15	20.86	-37.0	-38.7	16.2	0.00e+00	0	59	0	958398464	45	4400
2026-01-17 13:11:27.18	220.34	20.95	-36.9	-38.6	16.2	0.00e+00	0	59	0	963641344	45	4383
2026-01-17 13:11:28.19	220.53	21.05	-36.9	-38.6	16.3	0.00e+00	0	60	0	969932800	45	4374
2026-01-17 13:11:29.20	220.72	21.14	-36.9	-38.6	16.3	0.00e+00	0	60	0	975175680	45	4341
2026-01-17 13:11:30.21	220.91	21.24	-36.7	-38.4	16.5	0.00e+00	0	59	0	980418560	45	4277
2026-01-17 13:11:31.22	221.11	21.33	-36.7	-38.4	16.5	0.00e+00	0	60	0	986710016	45	4273
2026-01-17 13:11:32.23	221.30	21.43	-36.7	-38.4	16.5	0.00e+00	0	59	0	991952896	45	4249
2026-01-17 13:11:33.24	221.50	21.52	-36.7	-38.3	16.6	0.00e+00	0	60	0	998244352	45	4221
2026-01-17 13:11:34.25	221.69	21.62	-36.6	-38.3	16.6	0.00e+00	0	60	0	1003487232	45	4201
2026-01-17 13:11:35.26	221.89	21.71	-36.5	-38.2	16.7	0.00e+00	0	60	0	1008730112	45	4153
2026-01-17 13:11:36.27	222.09	21.81	-36.5	-38.1	16.7	0.00e+00	0	60	0	1015021568	45	4134
2026-01-17 13:11:37.27	222.29	21.90	-36.5	-38.1	16.8	0.00e+00	0	60	0	1020264448	44	4366
2026-01-17 13:11:38.28	222.49	22.00	-36.5	-38.2	16.7	0.00e+00	0	60	0	1026555904	44	4396
2026-01-17 13:11:39.29	222.70	22.10	-36.5	-38.2	16.7	0.00e+00	0	60	0	1031798784	44	4402
2026-01-17 13:11:40.30	222.90	22.19	-36.5	-38.2	16.7	0.00e+00	0	60	0	1037041664	44	4403
2026-01-17 13:11:41.32	223.11	22.29	-36.6	-38.2	16.7	0.00e+00	0	60	0	1043333120	44	4431
2026-01-17 13:11:42.33	223.32	22.38	-36.6	-38.3	16.6	0.00e+00	0	60	0	1048576000	44	4463
2026-01-17 13:11:43.34	223.52	22.48	-36.6	-38.3	16.6	0.00e+00	0	60	0	1054867456	44	4446
2026-01-17 13:11:44.34	223.73	22.57	-36.6	-38.2	16.7	0.00e+00	0	60	0	1060110336	44	4433
2026-01-17 13:11:45.35	223.94	22.67	-36.6	-38.2	16.7	0.00e+00	0	60	0	1066401792	44	4419
2026-01-17 13:11:46.36	224.15	22.76	-36.5	-38.2	16.7	0.00e+00	0	60	0	1071644672	44	4408
2026-01-17 13:11:47.37	224.37	22.86	-36.5	-38.1	16.8	0.00e+00	0	60	0	1076887552	44	4374
2026-01-17 13:11:48.38	224.58	22.96	-36.5	-38.1	16.8	0.00e+00	0	60	0	1083179008	44	4390
2026-01-17 13:11:49.39	224.80	23.05	-36.5	-38.1	16.8	0.00e+00	0	60	0	1088421888	44	4377
2026-01-17 13:11:50.40	225.01	23.15	-36.4	-38.0	16.9	0.00e+00	0	59	0	1094713344	44	4311
2026-01-17 13:11:51.41	225.23	23.24	-36.3	-37.9	17.0	0.00e+00	0	60	0	1099956224	44	4267
2026-01-17 13:11:52.42	225.45	23.34	-36.3	-37.9	17.0	0.00e+00	0	60	0	1105199104	44	4265
2026-01-17 13:11:53.43	225.67	23.43	-36.3	-37.9	17.0	0.00e+00	0	60	0	1111490560	44	4257
2026-01-17 13:11:54.44	225.89	23.53	-36.4	-38.0	16.9	0.00e+00	0	60	0	1116733440	44	4305
2026-01-17 13:11:55.45	226.12	23.62	-36.3	-37.9	17.0	0.00e+00	0	60	0	1123024896	44	4286
2026-01-17 13:11:56.46	226.34	23.72	-36.3	-37.9	17.0	0.00e+00	0	60	0	1128267776	44	4251
2026-01-17 13:11:57.47	226.57	23.81	-36.2	-37.8	17.1	0.00e+00	0	60	0	1133510656	44	4213
2026-01-17 13:11:58.48	226.80	23.91	-36.2	-37.8	17.1	0.00e+00	0	60	0	1139802112	44	4207
2026-01-17 13:11:59.49	227.03	24.00	-36.3	-37.8	17.0	0.00e+00	0	60	0	1145044992	44	4240
2026-01-17 13:12:00.50	227.26	24.09	-36.3	-37.9	17.0	0.00e+00	0	60	0	1151336448	44	4251
2026-01-17 13:12:01.51	227.49	24.19	-36.2	-37.8	17.1	0.00e+00	0	60	0	1156579328	44	4223
2026-01-17 13:12:02.52	227.72	24.28	-36.2	-37.8	17.1	0.00e+00	0	60	0	1162870784	44	4194
2026-01-17 13:12:03.53	227.95	24.38	-36.2	-37.8	17.1	0.00e+00	0	60	0	1168113664	44	4196
2026-01-17 13:12:04.54	228.19	24.47	-36.1	-37.7	17.2	0.00e+00	0	60	0	1174405120	44	4163
2026-01-17 13:12:05.55	228.43	24.56	-36.2	-37.7	17.2	0.00e+00	0	60	0	1179648000	44	4182
2026-01-17 13:12:06.57	228.67	24.66	-36.2	-37.8	17.1	0.00e+00	0	60	0	1184890880	44	4204
2026-01-17 13:12:07.58	228.91	24.75	-36.3	-37.9	17.0	0.00e+00	0	60	0	1191182336	44	4274
2026-01-17 13:12:08.58	229.15	24.84	-36.3	-37.9	17.0	0.00e+00	0	60	0	1196425216	44	4286
2026-01-17 13:12:09.59	229.39	24.94	-36.2	-37.8	17.1	0.00e+00	0	60	0	1202716672	44	4220
2026-01-17 13:12:10.60	229.63	25.03	-36.1	-37.7	17.2	0.00e+00	0	59	0	1207959552	44	4149
2026-01-17 13:12:11.61	229.88	25.12	-36.0	-37.5	17.4	0.00e+00	0	60	0	1213202432	44	4086
2026-01-17 13:12:12.62	230.13	25.21	-35.9	-37.4	17.4	0.00e+00	0	60	0	1219493888	43	4257
2026-01-17 13:12:13.63	230.37	25.31	-35.9	-37.4	17.3	0.00e+00	0	60	0	1224736768	43	4279
2026-01-17 13:12:14.64	230.62	25.40	-35.9	-37.5	17.2	0.00e+00	0	60	0	1231028224	43	4314
2026-01-17 13:12:15.65	230.87	25.49	-36.1	-37.7	17.1	0.00e+00	0	60	0	1236271104	43	4405
2026-01-17 13:12:16.66	231.13	25.58	-36.1	-37.7	17.0	0.00e+00	0	60	0	1241513984	43	4434
2026-01-17 13:12:17.67	231.38	25.67	-36.1	-37.7	17.0	0.00e+00	0	60	0	1247805440	43	4420
2026-01-17 13:12:18.68	231.64	25.76	-36.0	-37.6	17.1	0.00e+00	0	60	0	1253048320	43	4366
2026-01-17 13:12:19.69	231.89	25.85	-35.9	-37.4	17.3	0.00e+00	0	60	0	1259339776	43	4291
2026-01-17 13:12:20.70	232.15	25.94	-35.8	-37.3	17.4	0.00e+00	0	60	0	1264582656	43	4241
2026-01-17 13:12:21.71	232.41	26.03	-35.7	-37.2	17.6	0.00e+00	0	60	0	1270874112	43	4156
2026-01-17 13:12:22.72	232.67	26.12	-35.6	-37.0	17.7	0.00e+00	0	60	0	1276116992	43	4093
2026-01-17 13:12:23.73	232.94	26.21	-35.6	-37.0	17.7	0.00e+00	0	60	0	1282408448	43	4085
2026-01-17 13:12:24.74	233.20	26.30	-35.5	-37.0	17.7	0.00e+00	0	60	0	1287651328	43	4083
2026-01-17 13:12:25.75	233.46	26.39	-35.6	-37.1	17.7	0.00e+00	0	60	0	1292894208	43	4112
2026-01-17 13:12:26.76	233.73	26.48	-35.6	-37.1	17.6	0.00e+00	0	60	0	1299185664	43	4129
2026-01-17 13:12:27.77	234.00	26.56	-35.7	-37.2	17.6	0.00e+00	0	60	0	1304428544	43	4146
2026-01-17 13:12:28.78	234.27	26.65	-35.6	-37.1	17.6	0.00e+00	0	60	0	1310720000	43	4129
2026-01-17 13:12:29.79	234.54	26.74	-35.6	-37.0	17.7	0.00e+00	0	60	0	1315962880	43	4096
2026-01-17 13:12:30.80	234.81	26.82	-35.5	-37.0	17.8	0.00e+00	0	60	0	1321205760	43	4054
2026-01-17 13:12:31.81	235.09	26.91	-35.5	-36.9	17.8	0.00e+00	0	60	0	1327497216	42	4289
2026-01-17 13:12:32.82	235.36	27.00	-35.5	-37.0	17.7	0.00e+00	0	60	0	1332740096	42	4329
2026-01-17 13:12:33.83	235.64	27.08	-35.7	-37.2	17.6	0.00e+00	0	60	0	1339031552	42	4400
2026-01-17 13:12:34.84	235.92	27.17	-35.7	-37.2	17.5	0.00e+00	0	60	0	1344274432	42	4416
2026-01-17 13:12:35.85	236.20	27.25	-35.6	-37.1	17.6	0.00e+00	0	60	0	1349517312	42	4350
2026-01-17 13:12:36.86	236.48	27.33	-35.5	-37.0	17.8	0.00e+00	0	60	0	1355808768	42	4298
2026-01-17 13:12:37.87	236.76	27.42	-35.3	-36.7	18.0	0.00e+00	0	60	0	1361051648	42	4178
2026-01-17 13:12:38.88	237.05	27.50	-35.2	-36.6	18.0	0.00e+00	0	60	0	1367343104	42	4141
2026-01-17 13:12:39.89	237.33	27.58	-35.3	-36.7	18.0	0.00e+00	0	60	0	1372585984	42	4168
2026-01-17 13:12:40.90	237.62	27.66	-35.4	-36.8	17.9	0.00e+00	0	60	0	1378877440	42	4241
2026-01-17 13:12:41.92	237.91	27.75	-35.5	-36.9	17.8	0.00e+00	0	60	0	1384120320	42	4289
2026-01-17 13:12:42.93	238.20	27.83	-35.4	-36.9	17.8	0.00e+00	0	60	0	1389363200	42	4258
2026-01-17 13:12:43.94	238.49	27.91	-35.4	-36.9	17.8	0.00e+00	0	60	0	1395654656	42	4264
2026-01-17 13:12:44.95	238.79	27.99	-35.5	-36.9	17.8	0.00e+00	0	60	0	1400897536	42	4290
2026-01-17 13:12:45.96	239.08	28.07	-35.4	-36.9	17.8	0.00e+00	0	60	0	1407188992	42	4263
2026-01-17 13:12:46.97	239.38	28.14	-35.4	-36.9	17.9	0.00e+00	0	60	0	1412431872	42	4244
2026-01-17 13:12:47.98	239.67	28.22	-35.3	-36.7	18.0	0.00e+00	0	60	0	1418723328	42	4193
2026-01-17 13:12:48.99	239.97	28.30	-35.3	-36.8	17.9	0.00e+00	0	60	0	1423966208	42	4201
2026-01-17 13:12:50.00	240.27	28.38	-35.2	-36.7	18.1	0.00e+00	0	60	0	1429209088	42	4154
2026-01-17 13:12:51.01	240.57	28.45	-35.3	-36.7	18.0	0.00e+00	0	60	0	1435500544	42	4178
2026-01-17 13:12:52.01	240.87	28.53	-35.3	-36.8	17.9	0.00e+00	0	60	0	1440743424	42	4220
2026-01-17 13:12:53.03	241.18	28.60	-35.5	-36.9	17.8	0.00e+00	0	60	0	1445986304	42	4283
2026-01-17 13:12:54.04	241.49	28.68	-35.6	-37.1	17.6	0.00e+00	0	60	0	1452277760	42	4352
2026-01-17 13:12:55.04	241.79	28.75	-35.6	-37.1	17.6	0.00e+00	0	60	0	1457520640	42	4383
2026-01-17 13:12:56.05	242.10	28.82	-35.7	-37.2	17.6	0.00e+00	0	60	0	1463812096	42	4403
2026-01-17 13:12:57.07	242.41	28.90	-35.6	-37.1	17.6	0.00e+00	0	60	0	1469054976	42	4373
2026-01-17 13:12:58.08	242.72	28.97	-35.6	-37.1	17.7	0.00e+00	0	60	0	1475346432	42	4341
2026-01-17 13:12:59.09	243.03	29.04	-35.6	-37.1	17.7	0.00e+00	0	60	0	1480589312	42	4346
2026-01-17 13:13:00.10	243.35	29.11	-35.6	-37.1	17.6	0.00e+00	0	60	0	1486880768	42	4359
2026-01-17 13:13:01.11	243.66	29.18	-35.6	-37.1	17.6	0.00e+00	0	60	0	1492123648	42	4371
2026-01-17 13:13:02.12	243.98	29.25	-35.5	-37.0	17.7	0.00e+00	0	60	0	1497366528	42	4297
2026-01-17 13:13:03.13	244.30	29.31	-35.4	-36.8	17.9	0.00e+00	0	60	0	1503657984	42	4225
2026-01-17 13:13:04.14	244.62	29.38	-35.3	-36.8	17.9	0.00e+00	0	60	0	1508900864	42	4202
2026-01-17 13:13:05.15	244.94	29.45	-35.4	-36.9	17.8	0.00e+00	0	60	0	1515192320	42	4249
2026-01-17 13:13:06.16	245.26	29.51	-35.4	-36.9	17.8	0.00e+00	0	60	0	1520435200	42	4273
2026-01-17 13:13:07.17	245.58	29.58	-35.5	-37.0	17.8	0.00e+00	0	60	0	1525678080	42	4293
2026-01-17 13:13:08.18	245.90	29.64	-35.5	-37.0	17.7	0.00e+00	0	60	0	1531969536	42	4299
2026-01-17 13:13:09.19	246.23	29.70	-35.4	-36.9	17.8	0.00e+00	0	60	0	1537212416	42	4273
2026-01-17 13:13:10.19	246.55	29.76	-35.3	-36.8	17.9	0.00e+00	0	60	0	1543503872	42	4209
2026-01-17 13:13:11.20	246.88	29.82	-35.3	-36.8	17.9	0.00e+00	0	60	0	1548746752	42	4213
2026-01-17 13:13:12.21	247.21	29.88	-35.4	-36.9	17.8	0.00e+00	0	60	0	1553989632	42	4274
2026-01-17 13:13:13.22	247.54	29.94	-35.5	-37.0	17.7	0.00e+00	0	60	0	1560281088	42	4322
2026-01-17 13:13:14.23	247.87	30.00	-35.4	-36.9	17.8	0.00e+00	0	60	0	1565523968	42	4279
2026-01-17 13:13:15.24	248.20	30.06	-35.3	-36.8	17.9	0.00e+00	0	60	0	1571815424	42	4223
2026-01-17 13:13:16.25	248.54	30.12	-35.3	-36.7	17.9	0.00e+00	0	60	0	1577058304	42	4193
2026-01-17 13:13:17.26	248.87	30.17	-35.2	-36.7	18.0	0.00e+00	0	60	0	1583349760	42	4167
2026-01-17 13:13:18.27	249.21	30.23	-35.3	-36.7	17.9	0.00e+00	0	60	0	1588592640	42	4184
2026-01-17 13:13:19.28	249.54	30.28	-35.3	-36.8	17.9	0.00e+00	0	60	0	1594884096	42	4200
2026-01-17 13:13:20.29	249.88	30.33	-35.4	-36.9	17.7	0.00e+00	0	60	0	1600126976	42	4288
2026-01-17 13:13:21.30	250.22	30.38	-35.5	-37.0	17.6	0.00e+00	0	60	0	1605369856	42	4337
2026-01-17 13:13:22.31	250.56	30.43	-35.5	-37.1	17.6	0.00e+00	0	60	0	1611661312	42	4343
2026-01-17 13:13:23.32	250.90	30.48	-35.5	-37.0	17.7	0.00e+00	0	60	0	1616904192	42	4319
2026-01-17 13:13:24.33	251.25	30.53	-35.5	-37.0	17.6	0.00e+00	0	60	0	1623195648	42	4326
2026-01-17 13:13:25.34	251.59	30.58	-35.5	-37.0	17.6	0.00e+00	0	60	0	1628438528	42	4331
2026-01-17 13:13:26.35	251.93	30.63	-35.5	-37.0	17.7	0.00e+00	0	60	0	1633681408	42	4311
2026-01-17 13:13:27.36	252.28	30.67	-35.4	-36.9	17.8	0.00e+00	0	60	0	1639972864	42	4249
2026-01-17 13:13:28.37	252.62	30.72	-35.4	-36.8	17.9	0.00e+00	0	60	0	1645215744	42	4230
2026-01-17 13:13:29.38	252.97	30.76	-35.4	-36.9	17.8	0.00e+00	0	60	0	1651507200	42	4272
2026-01-17 13:13:30.39	253.32	30.80	-35.6	-37.0	18.0	0.00e+00	0	60	0	1656750080	42	4304
2026-01-17 13:13:31.40	253.67	30.84	-35.5	-36.8	18.2	0.00e+00	0	60	0	1661992960	42	4229
2026-01-17 13:13:32.41	254.02	30.88	-35.3	-36.6	18.4	0.00e+00	0	60	0	1668284416	42	4137
2026-01-17 13:13:33.42	254.37	30.92	-35.3	-36.5	18.5	0.00e+00	0	60	0	1673527296	42	4092
2026-01-17 13:13:34.43	254.72	30.96	-35.3	-36.6	18.4	0.00e+00	0	60	0	1679818752	42	4145
2026-01-17 13:13:35.44	255.07	31.00	-35.4	-36.8	18.2	0.00e+00	0	60	0	1685061632	42	4205
2026-01-17 13:13:36.45	255.43	31.03	-35.5	-36.9	18.1	0.00e+00	0	60	0	1691353088	42	4251
2026-01-17 13:13:37.46	255.78	31.07	-35.6	-36.9	18.1	0.00e+00	0	60	0	1696595968	42	4276
2026-01-17 13:13:38.47	256.13	31.10	-35.6	-36.9	18.1	0.00e+00	0	60	0	1701838848	42	4270
2026-01-17 13:13:39.48	256.49	31.13	-35.6	-36.9	18.1	0.00e+00	0	60	0	1708130304	42	4283
2026-01-17 13:13:40.49	256.84	31.16	-35.6	-36.9	18.1	0.00e+00	0	60	0	1713373184	42	4278
2026-01-17 13:13:41.50	257.20	31.19	-35.5	-36.9	18.1	0.00e+00	0	60	0	1719664640	42	4251
2026-01-17 13:13:42.51	257.56	31.22	-35.5	-36.9	18.1	0.00e+00	0	60	0	1724907520	42	4253
2026-01-17 13:13:43.52	257.92	31.25	-35.6	-37.0	18.1	0.00e+00	0	60	0	1730150400	42	4293
2026-01-17 13:13:44.53	258.27	31.28	-35.7	-37.0	18.0	0.00e+00	0	60	0	1736441856	42	4335
2026-01-17 13:13:45.54	258.63	31.30	-35.7	-37.1	17.9	0.00e+00	0	60	0	1741684736	42	4373
2026-01-17 13:13:46.55	258.99	31.33	-35.7	-37.0	18.0	0.00e+00	0	60	0	1747976192	42	4325
2026-01-17 13:13:47.56	259.35	31.35	-35.6	-37.0	18.0	0.00e+00	0	60	0	1753219072	42	4303
2026-01-17 13:13:48.57	259.71	31.37	-35.6	-37.0	18.0	0.00e+00	0	60	0	1758461952	42	4301
2026-01-17 13:13:49.58	260.07	31.39	-35.7	-37.1	17.9	0.00e+00	0	60	0	1764753408	42	4358
2026-01-17 13:13:50.59	260.43	31.41	-35.7	-37.1	18.0	0.00e+00	0	60	0	1769996288	42	4344
2026-01-17 13:13:51.60	260.80	31.43	-35.6	-36.9	18.1	0.00e+00	0	60	0	1776287744	42	4281
2026-01-17 13:13:52.61	261.16	31.44	-35.5	-36.9	18.1	0.00e+00	0	60	0	1781530624	42	4247
2026-01-17 13:13:53.62	261.52	31.46	-35.4	-36.8	18.2	0.00e+00	0	60	0	1787822080	42	4209
2026-01-17 13:13:54.63	261.88	31.47	-35.4	-36.7	18.3	0.00e+00	0	60	0	1793064960	42	4172
2026-01-17 13:13:55.64	262.24	31.49	-35.4	-36.7	18.3	0.00e+00	0	60	0	1799356416	42	4162
2026-01-17 13:13:56.65	262.61	31.50	-35.4	-36.8	18.3	0.00e+00	0	60	0	1804599296	42	4195
2026-01-17 13:13:57.66	262.97	31.51	-35.4	-36.8	18.3	0.00e+00	0	60	0	1809842176	42	4197
2026-01-17 13:13:58.67	263.33	31.52	-35.4	-36.7	18.3	0.00e+00	0	60	0	1816133632	42	4177
2026-01-17 13:13:59.68	263.70	31.53	-35.4	-36.7	18.3	0.00e+00	0	60	0	1821376512	42	4184
2026-01-17 13:14:00.69	264.06	31.53	-35.5	-36.8	18.2	0.00e+00	0	60	0	1827667968	42	4233
2026-01-17 13:14:01.70	264.43	31.54	-35.6	-36.9	18.1	0.00e+00	0	60	0	1832910848	42	4289
2026-01-17 13:14:02.71	264.79	31.54	-35.6	-37.0	18.0	0.00e+00	0	60	0	1838153728	42	4304
2026-01-17 13:14:03.72	265.16	31.55	-35.6	-37.0	18.0	0.00e+00	0	60	0	1844445184	42	4307
2026-01-17 13:14:04.73	265.52	31.55	-35.6	-36.9	18.1	0.00e+00	0	60	0	1849688064	42	4271
2026-01-17 13:14:05.74	265.88	31.55	-35.5	-36.9	18.1	0.00e+00	0	60	0	1855979520	42	4249
2026-01-17 13:14:06.75	266.25	31.55	-35.6	-36.9	18.1	0.00e+00	0	60	0	1861222400	42	4274
2026-01-17 13:14:07.76	266.61	31.55	-35.6	-36.9	18.1	0.00e+00	0	60	0	1866465280	42	4286
2026-01-17 13:14:08.77	266.98	31.54	-35.6	-36.9	18.1	0.00e+00	0	60	0	1872756736	42	4265
2026-01-17 13:14:09.78	267.34	31.54	-35.5	-36.8	18.2	0.00e+00	0	61	0	1877999616	42	4213
2026-01-17 13:14:10.79	267.70	31.53	-35.5	-36.8	18.2	0.00e+00	0	60	0	1884291072	42	4219
2026-01-17 13:14:11.80	268.07	31.52	-35.5	-36.9	18.1	0.00e+00	0	60	0	1889533952	42	4248
2026-01-17 13:14:12.81	268.43	31.52	-35.5	-36.9	18.1	0.00e+00	0	60	0	1895825408	42	4256
2026-01-17 13:14:13.82	268.79	31.51	-35.5	-36.8	18.2	0.00e+00	0	60	0	1901068288	42	4218
2026-01-17 13:14:14.83	269.16	31.50	-35.5	-36.8	18.2	0.00e+00	0	60	0	1906311168	42	4231
2026-01-17 13:14:15.83	269.52	31.48	-35.6	-36.9	18.1	0.00e+00	0	60	0	1912602624	42	4265
2026-01-17 13:14:16.85	269.88	31.47	-35.5	-36.8	18.2	0.00e+00	0	60	0	1917845504	42	4220
2026-01-17 13:14:17.86	270.25	31.46	-35.5	-36.8	18.2	0.00e+00	0	60	0	1924136960	42	4209
2026-01-17 13:14:18.87	270.61	31.44	-35.6	-36.9	18.1	0.00e+00	0	60	0	1929379840	42	4271
2026-01-17 13:14:19.87	270.97	31.42	-35.6	-36.9	18.1	0.00e+00	0	61	0	1934622720	42	4286
2026-01-17 13:14:20.88	271.33	31.41	-35.6	-37.0	18.1	0.00e+00	0	60	0	1940914176	42	4301
2026-01-17 13:14:21.89	271.69	31.39	-35.6	-37.0	18.0	0.00e+00	0	60	0	1946157056	42	4306
2026-01-17 13:14:22.90	272.05	31.37	-35.7	-37.0	18.0	0.00e+00	0	60	0	1952448512	42	4328
2026-01-17 13:14:23.91	272.41	31.34	-35.8	-37.2	17.9	0.00e+00	0	60	0	1957691392	42	4398
2026-01-17 13:14:24.92	272.77	31.32	-35.8	-37.2	17.8	0.00e+00	0	60	0	1962934272	42	4428
2026-01-17 13:14:25.94	273.13	31.30	-35.7	-37.1	17.9	0.00e+00	0	61	0	1969225728	42	4387
2026-01-17 13:14:26.95	273.49	31.27	-35.6	-37.0	18.0	0.00e+00	0	60	0	1974468608	42	4319
2026-01-17 13:14:27.96	273.85	31.24	-35.5	-36.8	18.2	0.00e+00	0	61	0	1980760064	42	4210
2026-01-17 13:14:28.97	274.20	31.22	-35.4	-36.7	18.3	0.00e+00	0	61	0	1986002944	42	4157
2026-01-17 13:14:29.98	274.56	31.19	-35.4	-36.7	18.3	0.00e+00	0	60	0	1992294400	42	4162
2026-01-17 13:14:30.98	274.91	31.16	-35.4	-36.8	18.3	0.00e+00	0	61	0	1997537280	42	4194
2026-01-17 13:14:31.99	275.27	31.13	-35.4	-36.7	18.3	0.00e+00	0	60	0	2003828736	42	4175
2026-01-17 13:14:33.00	275.62	31.09	-35.4	-36.7	18.3	0.00e+00	0	60	0	2009071616	42	4168
2026-01-17 13:14:34.01	275.97	31.06	-35.4	-36.7	18.3	0.00e+00	0	60	0	2014314496	42	4181
2026-01-17 13:14:35.02	276.33	31.03	-35.4	-36.7	18.3	0.00e+00	0	60	0	2020605952	42	4191
2026-01-17 13:14:36.03	276.68	30.99	-35.5	-36.8	18.2	0.00e+00	0	60	0	2025848832	42	4225
2026-01-17 13:14:37.04	277.03	30.95	-35.6	-37.0	18.0	0.00e+00	0	60	0	2032140288	42	4302
2026-01-17 13:14:38.05	277.38	30.92	-35.7	-37.0	18.0	0.00e+00	0	60	0	2037383168	42	4325
2026-01-17 13:14:39.06	277.73	30.88	-35.7	-37.1	17.9	0.00e+00	0	60	0	2042626048	42	4348
2026-01-17 13:14:40.07	278.08	30.84	-35.6	-37.0	18.0	0.00e+00	0	60	0	2048917504	42	4309
2026-01-17 13:14:41.08	278.43	30.79	-35.5	-36.8	18.2	0.00e+00	0	60	0	2054160384	42	4230
2026-01-17 13:14:42.09	278.78	30.75	-35.5	-36.8	18.2	0.00e+00	0	60	0	2060451840	42	4225
2026-01-17 13:14:43.10	279.12	30.71	-35.6	-37.0	18.0	0.00e+00	0	60	0	2065694720	42	4303
2026-01-17 13:14:44.11	279.47	30.66	-35.6	-37.0	18.0	0.00e+00	0	60	0	2070937600	42	4326
2026-01-17 13:14:45.12	279.81	30.62	-35.7	-37.0	18.0	0.00e+00	0	60	0	2077229056	42	4327
2026-01-17 13:14:46.13	280.16	30.57	-35.6	-36.9	18.1	0.00e+00	0	60	0	2082471936	42	4280
2026-01-17 13:14:47.14	280.50	30.52	-35.5	-36.8	18.2	0.00e+00	0	61	0	2088763392	42	4230
2026-01-17 13:14:48.15	280.84	30.48	-35.4	-36.7	18.3	0.00e+00	0	60	0	2094006272	42	4164
2026-01-17 13:14:49.16	281.18	30.43	-35.3	-36.6	18.4	0.00e+00	0	61	0	2100297728	42	4121
2026-01-17 13:14:50.17	281.52	30.38	-35.3	-36.6	18.4	0.00e+00	0	61	0	2105540608	42	4107
2026-01-17 13:14:51.18	281.86	30.32	-35.3	-36.7	18.3	0.00e+00	0	60	0	2111832064	42	4150
2026-01-17 13:14:52.19	282.19	30.27	-35.5	-36.8	18.2	0.00e+00	0	61	0	2117074944	42	4228
2026-01-17 13:14:53.20	282.53	30.22	-35.6	-36.9	18.1	0.00e+00	0	60	0	2122317824	42	4274
2026-01-17 13:14:54.21	282.87	30.16	-35.6	-37.0	18.0	0.00e+00	0	61	0	2128609280	42	4302
2026-01-17 13:14:55.22	283.20	30.11	-35.6	-37.0	18.0	0.00e+00	0	60	0	2133852160	42	4309
2026-01-17 13:14:56.23	283.53	30.05	-35.6	-36.9	18.1	0.00e+00	0	60	0	2140143616	42	4281
2026-01-17 13:14:57.24	283.86	29.99	-35.6	-37.0	18.0	0.00e+00	0	61	0	2145386496	42	4309
2026-01-17 13:14:58.25	284.19	29.94	-35.8	-37.1	17.9	0.00e+00	0	60	0	2150629376	42	4386
2026-01-17 13:14:59.26	284.52	29.88	-35.8	-37.2	17.7	0.00e+00	0	61	0	2156920832	42	4439
2026-01-17 13:15:00.27	284.85	29.82	-35.8	-37.2	17.8	0.00e+00	0	60	0	2162163712	42	4419
2026-01-17 13:15:01.28	285.18	29.76	-35.8	-37.1	17.9	0.00e+00	0	61	0	2168455168	42	4371
2026-01-17 13:15:02.29	285.50	29.69	-35.7	-37.1	17.9	0.00e+00	0	60	0	2173698048	42	4351
2026-01-17 13:15:03.30	285.83	29.63	-35.9	-37.2	17.8	0.00e+00	0	60	0	2178940928	42	4439
2026-01-17 13:15:04.31	286.15	29.57	-36.0	-37.4	17.6	0.00e+00	0	60	0	2185232384	42	4540
2026-01-17 13:15:05.32	286.47	29.50	-35.9	-37.4	17.6	0.00e+00	0	61	0	2190475264	42	4500
2026-01-17 13:15:06.33	286.79	29.44	-35.7	-37.1	17.9	0.00e+00	0	60	0	2196766720	42	4365
2026-01-17 13:15:07.33	287.11	29.37	-35.5	-36.8	18.1	0.00e+00	0	60	0	2202009600	42	4233
2026-01-17 13:15:08.33	287.42	29.31	-35.5	-36.8	18.2	0.00e+00	0	61	0	2208301056	42	4208
2026-01-17 13:15:09.34	287.74	29.24	-35.6	-36.9	18.1	0.00e+00	0	61	0	2213543936	42	4283
2026-01-17 13:15:10.35	288.05	29.17	-35.7	-37.1	17.9	0.00e+00	0	60	0	2218786816	42	4346
2026-01-17 13:15:11.36	288.37	29.10	-35.8	-37.2	17.8	0.00e+00	0	60	0	2225078272	42	4407
2026-01-17 13:15:12.37	288.68	29.03	-35.8	-37.2	17.8	0.00e+00	0	61	0	2230321152	42	4410
2026-01-17 13:15:13.38	288.99	28.96	-35.8	-37.1	17.8	0.00e+00	0	61	0	2236612608	42	4390
2026-01-17 13:15:14.39	289.30	28.89	-35.7	-37.1	17.9	0.00e+00	0	60	0	2241855488	42	4343
2026-01-17 13:15:15.40	289.61	28.82	-35.7	-37.0	17.9	0.00e+00	0	60	0	2247098368	42	4330
2026-01-17 13:15:16.41	289.92	28.75	-35.6	-36.9	18.0	0.00e+00	0	61	0	2253389824	42	4287
2026-01-17 13:15:17.42	290.22	28.67	-35.6	-37.0	18.0	0.00e+00	0	60	0	2258632704	42	4296
2026-01-17 13:15:18.43	290.53	28.60	-35.6	-36.9	18.1	0.00e+00	0	61	0	2263875584	42	4283
2026-01-17 13:15:19.44	290.83	28.53	-35.7	-37.1	17.9	0.00e+00	0	60	0	2270167040	42	4368
2026-01-17 13:15:20.45	291.13	28.45	-35.8	-37.2	17.8	0.00e+00	0	61	0	2275409920	42	4420
2026-01-17 13:15:21.46	291.43	28.37	-35.8	-37.2	17.7	0.00e+00	0	61	0	2281701376	42	4436
2026-01-17 13:15:22.47	291.73	28.30	-35.9	-37.3	17.7	0.00e+00	0	60	0	2286944256	42	4450
2026-01-17 13:15:23.48	292.03	28.22	-35.8	-37.2	17.8	0.00e+00	0	61	0	2293235712	42	4413
2026-01-17 13:15:24.49	292.32	28.14	-35.7	-37.1	17.8	0.00e+00	0	61	0	2298478592	42	4384
2026-01-17 13:15:25.50	292.62	28.06	-35.8	-37.2	17.8	0.00e+00	0	60	0	2304770048	42	4392
2026-01-17 13:15:26.51	292.91	27.99	-35.7	-37.1	17.9	0.00e+00	0	60	0	2310012928	42	4355
2026-01-17 13:15:27.52	293.20	27.91	-35.7	-37.1	17.9	0.00e+00	0	61	0	2315255808	42	4358
2026-01-17 13:15:28.53	293.49	27.83	-35.7	-37.0	17.9	0.00e+00	0	61	0	2321547264	42	4328
2026-01-17 13:15:29.54	293.78	27.75	-35.7	-37.0	18.0	0.00e+00	0	61	0	2326790144	42	4328
2026-01-17 13:15:30.55	294.07	27.67	-35.7	-37.1	17.9	0.00e+00	0	61	0	2333081600	42	4371
2026-01-17 13:15:31.56	294.36	27.58	-35.9	-37.3	17.7	0.00e+00	0	61	0	2338324480	42	4442
2026-01-17 13:15:32.57	294.64	27.50	-36.0	-37.4	17.6	0.00e+00	0	60	0	2343567360	42	4511
2026-01-17 13:15:33.58	294.92	27.42	-36.1	-37.5	17.4	0.00e+00	0	61	0	2349858816	42	4590
2026-01-17 13:15:34.59	295.21	27.34	-36.0	-37.5	17.5	0.00e+00	0	61	0	2355101696	42	4554
2026-01-17 13:15:35.60	295.49	27.25	-35.9	-37.3	17.6	0.00e+00	0	60	0	2361393152	42	4478
2026-01-17 13:15:36.61	295.76	27.17	-35.8	-37.2	17.7	0.00e+00	0	61	0	2366636032	42	4409
2026-01-17 13:15:37.62	296.04	27.09	-35.8	-37.2	17.7	0.00e+00	0	60	0	2371878912	42	4415
2026-01-17 13:15:38.62	296.31	27.00	-35.8	-37.1	17.8	0.00e+00	0	60	0	2378170368	42	4390
2026-01-17 13:15:39.64	296.59	26.92	-35.9	-37.3	17.6	0.00e+00	0	60	0	2383413248	42	4470
2026-01-17 13:15:40.64	296.86	26.83	-36.0	-37.4	17.5	0.00e+00	0	61	0	2389704704	42	4530
2026-01-17 13:15:41.65	297.13	26.74	-36.1	-37.5	17.4	0.00e+00	0	60	0	2394947584	42	4586
2026-01-17 13:15:42.66	297.40	26.66	-36.1	-37.5	17.4	0.00e+00	0	61	0	2401239040	42	4588
2026-01-17 13:15:43.68	297.68	26.57	-36.0	-37.4	17.5	0.00e+00	0	61	0	2406481920	42	4511
2026-01-17 13:15:44.68	297.94	26.48	-36.0	-37.4	17.6	0.00e+00	0	60	0	2412773376	42	4497
2026-01-17 13:15:45.70	298.21	26.40	-35.9	-37.3	17.6	0.00e+00	0	61	0	2418016256	42	4472
2026-01-17 13:15:46.70	298.47	26.31	-36.0	-37.4	17.5	0.00e+00	0	61	0	2423259136	42	4511
2026-01-17 13:15:47.71	298.73	26.22	-36.1	-37.5	17.4	0.00e+00	0	60	0	2429550592	42	4598
2026-01-17 13:15:48.72	298.99	26.13	-36.1	-37.6	17.3	0.00e+00	0	60	0	2434793472	42	4612
2026-01-17 13:15:49.73	299.25	26.04	-36.1	-37.5	17.4	0.00e+00	0	61	0	2441084928	42	4572
2026-01-17 13:15:50.74	299.51	25.95	-35.9	-37.4	17.5	0.00e+00	0	61	0	2446327808	42	4496
2026-01-17 13:15:51.75	299.77	25.86	-36.0	-37.4	17.5	0.00e+00	0	61	0	2451570688	42	4542
2026-01-17 13:15:52.76	300.03	25.77	-36.1	-37.5	17.4	0.00e+00	0	61	0	2457862144	42	4576
2026-01-17 13:15:53.77	300.28	25.68	-36.2	-37.6	17.3	0.00e+00	0	60	0	2463105024	42	4646
2026-01-17 13:15:54.78	300.53	25.59	-36.2	-37.7	17.2	0.00e+00	0	61	0	2469396480	43	4404
2026-01-17 13:15:55.79	300.78	25.50	-36.2	-37.7	17.2	0.00e+00	0	61	0	2474639360	43	4402
2026-01-17 13:15:56.79	301.03	25.41	-36.1	-37.5	17.3	0.00e+00	0	61	0	2479882240	43	4334
2026-01-17 13:15:57.81	301.28	25.32	-36.1	-37.5	17.3	0.00e+00	0	61	0	2486173696	43	4330
2026-01-17 13:15:58.81	301.53	25.23	-36.1	-37.6	17.3	0.00e+00	0	61	0	2491416576	43	4362
2026-01-17 13:15:59.82	301.77	25.14	-36.2	-37.6	17.3	0.00e+00	0	61	0	2497708032	43	4376
2026-01-17 13:16:00.83	302.02	25.05	-36.1	-37.6	17.3	0.00e+00	0	61	0	2502950912	43	4363
2026-01-17 13:16:01.84	302.26	24.96	-36.1	-37.6	17.3	0.00e+00	0	60	0	2509242368	43	4357
2026-01-17 13:16:02.85	302.50	24.86	-36.1	-37.5	17.4	0.00e+00	0	61	0	2514485248	43	4328
2026-01-17 13:16:03.86	302.74	24.77	-36.1	-37.6	17.3	0.00e+00	0	61	0	2519728128	43	4348
2026-01-17 13:16:04.87	302.98	24.68	-36.1	-37.5	17.4	0.00e+00	0	61	0	2526019584	43	4330
2026-01-17 13:16:05.88	303.22	24.59	-36.1	-37.5	17.3	0.00e+00	0	61	0	2531262464	43	4338
2026-01-17 13:16:06.89	303.45	24.49	-36.1	-37.5	17.3	0.00e+00	0	61	0	2537553920	43	4328
2026-01-17 13:16:07.90	303.69	24.40	-36.0	-37.5	17.4	0.00e+00	0	61	0	2542796800	43	4299
2026-01-17 13:16:08.91	303.92	24.31	-36.0	-37.4	17.5	0.00e+00	0	60	0	2548039680	43	4252
2026-01-17 13:16:09.92	304.15	24.21	-36.0	-37.4	17.4	0.00e+00	0	61	0	2554331136	43	4280
2026-01-17 13:16:10.93	304.39	24.12	-36.1	-37.5	17.4	0.00e+00	0	60	0	2559574016	43	4306
2026-01-17 13:16:11.94	304.61	24.03	-36.2	-37.6	17.3	0.00e+00	0	61	0	2565865472	43	4363
2026-01-17 13:16:12.95	304.84	23.93	-36.3	-37.8	17.1	0.00e+00	0	61	0	2571108352	43	4458
2026-01-17 13:16:13.96	305.07	23.84	-36.4	-37.9	17.0	0.00e+00	0	61	0	2576351232	43	4497
2026-01-17 13:16:14.97	305.29	23.74	-36.4	-37.9	16.9	0.00e+00	0	61	0	2582642688	43	4520
2026-01-17 13:16:15.98	305.52	23.65	-36.5	-38.0	16.9	0.00e+00	0	61	0	2587885568	43	4565
2026-01-17 13:16:16.99	305.74	23.56	-36.5	-38.0	16.9	0.00e+00	0	60	0	2594177024	43	4564
2026-01-17 13:16:18.00	305.96	23.46	-36.5	-38.0	16.9	0.00e+00	0	60	0	2599419904	43	4564
2026-01-17 13:16:19.01	306.18	23.37	-36.5	-38.0	16.8	0.00e+00	0	60	0	2605711360	43	4574
2026-01-17 13:16:20.02	306.40	23.27	-36.4	-38.0	16.9	0.00e+00	0	60	0	2610954240	43	4552
2026-01-17 13:16:21.03	306.62	23.18	-36.5	-38.0	16.8	0.00e+00	0	60	0	2617245696	43	4575
2026-01-17 13:16:22.04	306.84	23.08	-36.5	-38.0	16.8	0.00e+00	0	61	0	2622488576	43	4577
2026-01-17 13:16:23.05	307.05	22.99	-36.4	-37.9	16.9	0.00e+00	0	61	0	2627731456	43	4545
2026-01-17 13:16:24.06	307.26	22.89	-36.5	-38.0	16.8	0.00e+00	0	61	0	2634022912	43	4551
2026-01-17 13:16:25.07	307.48	22.80	-36.5	-38.0	16.8	0.00e+00	0	61	0	2639265792	43	4555
2026-01-17 13:16:26.08	307.69	22.71	-36.4	-37.9	16.9	0.00e+00	0	61	0	2645557248	43	4541
2026-01-17 13:16:27.09	307.90	22.61	-36.5	-38.0	16.8	0.00e+00	0	61	0	2650800128	43	4560
2026-01-17 13:16:28.10	308.11	22.52	-36.5	-38.0	16.9	0.00e+00	0	61	0	2656043008	43	4565
2026-01-17 13:16:29.11	308.31	22.42	-36.5	-38.0	16.8	0.00e+00	0	61	0	2662334464	43	4593
2026-01-17 13:16:30.13	308.52	22.32	-36.5	-38.1	16.8	0.00e+00	0	61	0	2667577344	43	4608
2026-01-17 13:16:31.14	308.73	22.23	-36.6	-38.1	16.7	0.00e+00	0	61	0	2673868800	43	4630
2026-01-17 13:16:32.15	308.93	22.14	-36.6	-38.2	16.6	0.00e+00	0	60	0	2679111680	43	4659
2026-01-17 13:16:33.15	309.13	22.04	-36.6	-38.2	16.6	0.00e+00	0	60	0	2684354560	43	4672
2026-01-17 13:16:34.16	309.33	21.95	-36.6	-38.1	16.7	0.00e+00	0	61	0	2690646016	43	4617
2026-01-17 13:16:35.17	309.53	21.85	-36.6	-38.1	16.7	0.00e+00	0	60	0	2695888896	43	4631
2026-01-17 13:16:36.18	309.73	21.76	-36.6	-38.1	16.7	0.00e+00	0	61	0	2702180352	43	4646
2026-01-17 13:16:37.19	309.93	21.66	-36.6	-38.1	16.7	0.00e+00	0	61	0	2707423232	43	4648
2026-01-17 13:16:38.20	310.12	21.57	-36.7	-38.2	16.6	0.00e+00	0	61	0	2713714688	43	4672
2026-01-17 13:16:39.21	310.32	21.47	-36.9	-38.4	16.5	0.00e+00	0	61	0	2718957568	44	4545
2026-01-17 13:16:40.22	310.51	21.38	-37.0	-38.5	16.4	0.00e+00	0	60	0	2724200448	44	4587
2026-01-17 13:16:41.23	310.71	21.28	-37.0	-38.6	16.3	0.00e+00	0	61	0	2730491904	44	4639
2026-01-17 13:16:42.24	310.90	21.19	-37.2	-38.8	16.2	0.00e+00	0	61	0	2735734784	44	4735
2026-01-17 13:16:43.25	311.09	21.09	-37.2	-38.8	16.2	0.00e+00	0	61	0	2742026240	44	4733
2026-01-17 13:16:44.26	311.28	21.00	-37.2	-38.8	16.1	0.00e+00	0	61	0	2747269120	44	4744
2026-01-17 13:16:45.27	311.47	20.90	-37.2	-38.9	16.1	0.00e+00	0	61	0	2752512000	45	4494
2026-01-17 13:16:46.28	311.65	20.81	-37.2	-38.8	16.1	0.00e+00	0	61	0	2758803456	45	4484
2026-01-17 13:16:47.29	311.84	20.71	-37.3	-38.9	16.0	0.00e+00	0	60	0	2764046336	45	4536
2026-01-17 13:16:48.30	312.03	20.62	-37.3	-38.9	16.0	0.00e+00	0	61	0	2770337792	45	4522
2026-01-17 13:16:49.31	312.21	20.53	-37.3	-38.9	16.0	0.00e+00	0	61	0	2775580672	45	4530
2026-01-17 13:16:50.32	312.39	20.43	-37.3	-38.9	16.1	0.00e+00	0	61	0	2780823552	45	4507
2026-01-17 13:16:51.33	312.57	20.34	-37.2	-38.8	16.1	0.00e+00	0	61	0	2787115008	45	4486
2026-01-17 13:16:52.34	312.75	20.24	-37.2	-38.9	16.1	0.00e+00	0	60	0	2792357888	45	4496
2026-01-17 13:16:53.35	312.93	20.15	-37.2	-38.8	16.1	0.00e+00	0	61	0	2798649344	45	4459
2026-01-17 13:16:54.36	313.11	20.06	-37.2	-38.8	16.1	0.00e+00	0	61	0	2803892224	45	4492
2026-01-17 13:16:55.37	313.29	19.96	-37.4	-39.0	15.9	0.00e+00	0	61	0	2810183680	45	4569
2026-01-17 13:16:56.38	313.47	19.87	-37.4	-39.1	15.8	0.00e+00	0	61	0	2815426560	45	4633
2026-01-17 13:16:57.39	313.64	19.77	-37.6	-39.3	15.6	0.00e+00	0	60	0	2821718016	45	4741
2026-01-17 13:16:58.40	313.82	19.68	-37.7	-39.4	15.5	0.00e+00	0	60	0	2826960896	45	4795
2026-01-17 13:16:59.41	313.99	19.59	-37.7	-39.5	15.5	0.00e+00	0	61	0	2832203776	46	4548
2026-01-17 13:17:00.39	314.16	19.50	-37.7	-39.5	15.5	0.00e+00	0	61	0	2838495232	46	4550
2026-01-17 13:17:01.40	314.33	19.40	-37.7	-39.4	15.5	0.00e+00	0	61	0	2843738112	46	4521
2026-01-17 13:17:02.41	314.50	19.31	-37.6	-39.3	15.6	0.00e+00	0	61	0	2848980992	46	4459
2026-01-17 13:17:03.42	314.67	19.22	-37.6	-39.3	15.6	0.00e+00	0	61	0	2855272448	46	4452
2026-01-17 13:17:04.43	314.84	19.12	-37.5	-39.1	15.7	0.00e+00	0	61	0	2860515328	46	4389
2026-01-17 13:17:05.44	315.00	19.03	-37.4	-39.1	15.8	0.00e+00	0	61	0	2866806784	46	4355
2026-01-17 13:17:06.45	315.17	18.94	-37.4	-39.1	15.8	0.00e+00	0	61	0	2872049664	46	4346
2026-01-17 13:17:07.46	315.33	18.85	-37.5	-39.2	15.7	0.00e+00	0	61	0	2877292544	46	4414
2026-01-17 13:17:08.47	315.50	18.75	-37.5	-39.2	15.7	0.00e+00	0	61	0	2883584000	46	4400
2026-01-17 13:17:09.48	315.66	18.66	-37.6	-39.3	15.6	0.00e+00	0	61	0	2888826880	46	4457
2026-01-17 13:17:10.49	315.82	18.57	-37.5	-39.2	15.7	0.00e+00	0	61	0	2895118336	46	4420
2026-01-17 13:17:11.50	315.99	18.48	-37.5	-39.2	15.7	0.00e+00	0	61	0	2900361216	46	4409
2026-01-17 13:17:12.51	316.15	18.38	-37.5	-39.2	15.7	0.00e+00	0	60	0	2906652672	46	4425
2026-01-17 13:17:13.52	316.31	18.29	-37.5	-39.2	15.7	0.00e+00	0	61	0	2911895552	46	4419
2026-01-17 13:17:14.53	316.46	18.20	-37.5	-39.1	15.7	0.00e+00	0	61	0	2918187008	46	4389
2026-01-17 13:17:15.54	316.62	18.11	-37.4	-39.1	15.8	0.00e+00	0	61	0	2923429888	46	4357
2026-01-17 13:17:16.55	316.78	18.02	-37.4	-39.1	15.7	0.00e+00	0	61	0	2928672768	46	4374
2026-01-17 13:17:17.56	316.93	17.93	-37.5	-39.2	15.7	0.00e+00	0	61	0	2934964224	46	4399
2026-01-17 13:17:18.57	317.09	17.84	-37.5	-39.2	15.7	0.00e+00	0	61	0	2940207104	46	4421
2026-01-17 13:17:19.58	317.24	17.74	-37.6	-39.4	15.5	0.00e+00	0	61	0	2946498560	46	4505
2026-01-17 13:17:20.59	317.40	17.65	-37.7	-39.5	15.4	0.00e+00	0	61	0	2951741440	46	4567
2026-01-17 13:17:21.60	317.55	17.56	-37.7	-39.5	15.3	0.00e+00	0	61	0	2956984320	46	4584
2026-01-17 13:17:22.61	317.70	17.47	-37.8	-39.6	15.2	0.00e+00	0	61	0	2963275776	46	4629
2026-01-17 13:17:23.61	317.85	17.38	-37.8	-39.6	15.2	0.00e+00	0	61	0	2968518656	46	4631
2026-01-17 13:17:24.63	318.00	17.29	-37.8	-39.6	15.2	0.00e+00	0	61	0	2973761536	46	4633
2026-01-17 13:17:25.64	318.15	17.20	-37.8	-39.6	15.3	0.00e+00	0	61	0	2980052992	46	4601
2026-01-17 13:17:26.65	318.30	17.11	-37.8	-39.6	15.2	0.00e+00	0	61	0	2985295872	46	4627
2026-01-17 13:17:27.66	318.44	17.02	-37.8	-39.6	15.2	0.00e+00	0	61	0	2991587328	46	4636
2026-01-17 13:17:28.67	318.59	16.93	-37.9	-39.7	15.1	1.10e-06	0	61	0	2996830208	46	4654
2026-01-17 13:17:29.68	318.74	16.84	-37.9	-39.7	15.1	0.00e+00	0	61	0	3003121664	46	4687
2026-01-17 13:17:30.69	318.88	16.75	-37.9	-39.8	15.0	0.00e+00	0	61	0	3008364544	46	4713
2026-01-17 13:17:31.70	319.02	16.66	-37.9	-39.7	15.0	0.00e+00	0	60	0	3014656000	46	4704
2026-01-17 13:17:32.71	319.17	16.57	-38.0	-39.9	14.9	0.00e+00	0	61	0	3019898880	46	4762
2026-01-17 13:17:33.72	319.31	16.49	-38.1	-40.0	14.8	0.00e+00	0	61	0	3025141760	46	4841
2026-01-17 13:17:34.73	319.45	16.40	-38.1	-40.0	14.8	0.00e+00	0	61	0	3031433216	46	4846
2026-01-17 13:17:35.74	319.59	16.31	-38.1	-40.0	14.8	0.00e+00	0	61	0	3036676096	46	4850
2026-01-17 13:17:36.75	319.73	16.22	-38.1	-40.0	14.8	1.10e-06	0	61	0	3042967552	46	4837
2026-01-17 13:17:37.76	319.87	16.13	-38.2	-40.0	14.7	0.00e+00	0	61	0	3048210432	46	4870
2026-01-17 13:17:38.77	320.01	16.04	-38.2	-40.1	14.7	0.00e+00	0	61	0	3053453312	46	4911
2026-01-17 13:17:39.78	320.14	15.96	-38.2	-40.2	14.6	1.10e-06	0	61	0	3059744768	47	4662
2026-01-17 13:17:40.79	320.28	15.87	-38.2	-40.2	14.6	1.10e-06	0	60	0	3064987648	47	4662
2026-01-17 13:17:41.80	320.42	15.78	-38.2	-40.1	14.6	0.00e+00	0	61	0	3071279104	47	4649
2026-01-17 13:17:42.81	320.55	15.69	-38.2	-40.1	14.7	0.00e+00	0	61	0	3076521984	47	4612
2026-01-17 13:17:43.82	320.68	15.61	-38.2	-40.1	14.6	2.20e-06	0	61	0	3081764864	47	4642
2026-01-17 13:17:44.83	320.82	15.52	-38.2	-40.0	14.7	1.10e-06	0	61	0	3088056320	47	4598
2026-01-17 13:17:45.84	320.95	15.43	-38.1	-40.0	14.7	0.00e+00	0	61	0	3093299200	47	4586
2026-01-17 13:17:46.85	321.08	15.35	-38.0	-39.9	14.8	0.00e+00	0	61	0	3099590656	47	4526
2026-01-17 13:17:47.86	321.21	15.26	-38.0	-39.8	14.9	0.00e+00	0	61	0	3104833536	47	4480
2026-01-17 13:17:48.87	321.34	15.17	-38.1	-39.9	14.8	1.10e-06	0	61	0	3111124992	47	4533
2026-01-17 13:17:49.88	321.47	15.09	-38.1	-39.9	14.8	1.10e-06	0	61	0	3116367872	47	4534
2026-01-17 13:17:50.89	321.60	15.00	-38.1	-40.0	14.7	0.00e+00	0	61	0	3122659328	47	4583
2026-01-17 13:17:51.90	321.73	14.92	-38.1	-40.0	14.7	0.00e+00	0	61	0	3127902208	47	4595
2026-01-17 13:17:52.91	321.86	14.83	-38.2	-40.1	14.6	1.10e-06	0	61	0	3133145088	47	4612
2026-01-17 13:17:53.92	321.99	14.74	-38.2	-40.1	14.6	0.00e+00	0	61	0	3139436544	47	4607
2026-01-17 13:17:54.92	322.11	14.66	-38.2	-40.2	14.5	1.10e-06	0	61	0	3144679424	47	4673
2026-01-17 13:17:55.93	322.24	14.57	-38.3	-40.2	14.5	0.00e+00	0	61	0	3150970880	47	4693
2026-01-17 13:17:56.95	322.36	14.49	-38.2	-40.2	14.5	1.10e-06	0	61	0	3156213760	47	4657
2026-01-17 13:17:57.95	322.48	14.40	-38.2	-40.1	14.6	2.20e-06	0	61	0	3161456640	47	4602
2026-01-17 13:17:58.96	322.61	14.32	-38.2	-40.1	14.6	0.00e+00	0	61	0	3167748096	47	4604
2026-01-17 13:17:59.97	322.73	14.24	-38.1	-40.1	14.6	0.00e+00	0	61	0	3172990976	47	4603
2026-01-17 13:18:00.98	322.85	14.15	-38.1	-40.0	14.6	1.10e-06	0	61	0	3179282432	47	4595
2026-01-17 13:18:01.99	322.97	14.07	-38.1	-40.0	14.7	1.10e-06	0	61	0	3184525312	47	4571
2026-01-17 13:18:03.00	323.10	13.98	-38.1	-40.0	14.6	0.00e+00	0	61	0	3189768192	47	4587
2026-01-17 13:18:04.01	323.22	13.90	-38.1	-40.0	14.7	1.10e-06	0	61	0	3196059648	47	4583
2026-01-17 13:18:05.02	323.33	13.82	-38.2	-40.1	14.5	1.10e-06	0	61	0	3201302528	47	4641
2026-01-17 13:18:06.03	323.45	13.73	-38.2	-40.2	14.5	1.10e-06	0	61	0	3207593984	47	4663
2026-01-17 13:18:07.04	323.57	13.65	-38.3	-40.3	14.4	0.00e+00	0	61	0	3212836864	47	4727
2026-01-17 13:18:08.05	323.69	13.57	-38.3	-40.2	14.4	4.50e-06	0	61	0	3218079744	47	4701
2026-01-17 13:18:09.06	323.81	13.48	-38.3	-40.3	14.3	1.10e-06	0	61	0	3224371200	47	4753
2026-01-17 13:18:10.07	323.92	13.40	-38.4	-40.4	14.2	2.20e-06	0	61	0	3229614080	47	4781
2026-01-17 13:18:11.08	324.04	13.32	-38.5	-40.5	14.1	0.00e+00	0	61	0	3235905536	47	4837
2026-01-17 13:18:12.09	324.15	13.24	-38.5	-40.5	14.1	8.00e-06	0	61	0	3241148416	47	4833
2026-01-17 13:18:13.10	324.27	13.15	-38.4	-40.4	14.2	2.20e-06	0	61	0	3247439872	47	4805
2026-01-17 13:18:14.11	324.38	13.07	-38.4	-40.5	14.1	4.50e-06	0	61	0	3252682752	47	4835
2026-01-17 13:18:15.12	324.49	12.99	-38.5	-40.5	14.1	2.20e-06	0	61	0	3257925632	47	4860
2026-01-17 13:18:16.13	324.61	12.91	-38.6	-40.7	13.9	1.10e-06	0	61	0	3264217088	47	4934
2026-01-17 13:18:17.14	324.72	12.83	-38.5	-40.5	14.0	4.50e-06	0	61	0	3269459968	47	4862
2026-01-17 13:18:18.15	324.83	12.75	-38.5	-40.6	14.0	5.70e-06	0	61	0	3275751424	47	4884
2026-01-17 13:18:19.16	324.94	12.67	-38.5	-40.6	14.0	1.10e-06	0	61	0	3280994304	47	4902
2026-01-17 13:18:20.17	325.05	12.59	-38.5	-40.5	14.1	3.40e-06	0	61	0	3286237184	47	4848
2026-01-17 13:18:21.18	325.16	12.50	-38.5	-40.6	14.0	9.10e-06	0	61	0	3292528640	47	4891
2026-01-17 13:18:22.19	325.27	12.42	-38.6	-40.7	13.9	5.70e-06	0	61	0	3297771520	47	4946
2026-01-17 13:18:23.20	325.38	12.34	-38.6	-40.6	13.9	1.25e-05	0	61	0	3304062976	47	4924
2026-01-17 13:18:24.22	325.49	12.26	-38.5	-40.6	13.9	4.50e-06	0	61	0	3309305856	47	4892
2026-01-17 13:18:25.23	325.60	12.18	-38.6	-40.6	13.9	8.00e-06	0	61	0	3315597312	47	4918
2026-01-17 13:18:26.23	325.70	12.10	-38.7	-40.8	13.8	9.10e-06	0	61	0	3320840192	47	4989
2026-01-17 13:18:27.25	325.81	12.02	-38.8	-40.9	13.6	1.25e-05	0	61	0	3326083072	48	4813
2026-01-17 13:18:28.26	325.91	11.94	-38.7	-40.8	13.8	4.50e-06	0	61	0	3332374528	48	4739
2026-01-17 13:18:29.27	326.02	11.86	-38.9	-41.0	13.6	9.10e-06	0	61	0	3337617408	48	4855
2026-01-17 13:18:30.28	326.12	11.79	-38.8	-40.9	13.7	1.48e-05	0	61	0	3343908864	48	4774
2026-01-17 13:18:31.29	326.23	11.71	-38.9	-41.1	13.5	6.80e-06	0	61	0	3349151744	48	4876
2026-01-17 13:18:32.30	326.33	11.63	-39.0	-41.2	13.4	2.97e-05	0	61	0	3355443200	48	4951
2026-01-17 13:18:33.31	326.44	11.55	-39.0	-41.2	13.4	2.97e-05	0	61	0	3360686080	48	4963
2026-01-17 13:18:34.32	326.54	11.47	-39.1	-41.3	13.3	3.43e-05	0	61	0	3365928960	48	5008
2026-01-17 13:18:35.33	326.64	11.39	-39.1	-41.3	13.3	2.74e-05	0	61	0	3372220416	48	5016
2026-01-17 13:18:36.34	326.74	11.31	-38.9	-41.1	13.4	2.28e-05	0	61	0	3377463296	48	4920
2026-01-17 13:18:37.35	326.84	11.24	-39.1	-41.3	13.2	3.31e-05	0	61	0	3383754752	48	5013
2026-01-17 13:18:38.36	326.94	11.16	-39.1	-41.3	13.2	2.97e-05	0	61	0	3388997632	48	5019
2026-01-17 13:18:39.37	327.04	11.08	-39.1	-41.4	13.1	4.23e-05	0	61	0	3394240512	48	5069
2026-01-17 13:18:40.38	327.14	11.00	-39.1	-41.4	13.1	4.80e-05	0	61	0	3400531968	48	5075
2026-01-17 13:18:41.38	327.24	10.93	-39.2	-41.5	13.0	6.40e-05	0	61	0	3405774848	49	4865
2026-01-17 13:18:42.39	327.34	10.85	-39.1	-41.5	13.0	5.26e-05	0	61	0	3412066304	49	4816
2026-01-17 13:18:43.40	327.44	10.77	-39.1	-41.4	13.0	6.06e-05	0	61	0	3417309184	49	4806
2026-01-17 13:18:44.41	327.53	10.70	-39.0	-41.3	13.2	5.14e-05	0	61	0	3422552064	49	4737
2026-01-17 13:18:45.42	327.63	10.62	-39.2	-41.6	12.9	8.12e-05	0	61	0	3428843520	49	4883
2026-01-17 13:18:46.43	327.73	10.54	-39.2	-41.6	12.9	8.81e-05	0	61	0	3434086400	49	4890
2026-01-17 13:18:47.44	327.82	10.47	-39.2	-41.5	13.0	6.29e-05	0	61	0	3440377856	49	4833
2026-01-17 13:18:48.45	327.92	10.39	-39.2	-41.6	12.9	9.38e-05	0	61	0	3445620736	49	4885
2026-01-17 13:18:49.46	328.01	10.32	-39.2	-41.6	12.9	8.69e-05	0	61	0	3451912192	49	4872
2026-01-17 13:18:50.47	328.11	10.24	-39.3	-41.7	12.8	1.10e-04	0	61	0	3457155072	49	4928
