passes_logs/2026/01/17/R2.0S_Moscow/R2.0S_Moscow__20260117_145114_FENGYUN_3E_rec.log

#Pass ID: 20260117_145114_FENGYUN 3E
#Satellite: FENGYUN 3E
#Configuration: FENGYUN 3E
#almurnet v.1.7.20251203
#Start time: 2026-01-17 14:51:15

#Version: 2.2.20231116
#Station: R2.0S_Moscow
#Location: 37.707566 lon 55.798166 lat
#TLE: 1 49008U 21062A   26016.55599566  .00000255  00000+0  14071-3 0  9994
#TLE: 2 49008  98.7485  21.6664 0002094 134.5344 225.6004 14.19886148235063

#Time	Az	El	Level	Level2	SNR	BER	BlckErr	Temp	State	Recorded	gain1	gain2
2026-01-17 14:51:15.50	179.83	2.07	-44.4	-55.5	3.8	8.45e-01	0	52	0	0	59	12889
2026-01-17 14:51:16.52	179.87	2.13	-44.4	-55.5	3.8	8.46e-01	0	52	104	0	59	12914
2026-01-17 14:51:17.53	179.90	2.20	-44.4	-55.5	3.8	8.47e-01	0	52	104	0	59	12817
2026-01-17 14:51:18.54	179.93	2.26	-44.4	-55.5	3.8	8.46e-01	0	52	104	0	59	12924
2026-01-17 14:51:19.55	179.96	2.32	-44.4	-55.5	3.8	8.46e-01	0	52	104	0	59	12892
2026-01-17 14:51:20.56	180.00	2.39	-44.4	-55.4	3.8	8.46e-01	0	52	104	0	59	12806
2026-01-17 14:51:21.57	180.03	2.45	-44.4	-55.5	3.8	8.45e-01	0	52	104	0	59	12832
2026-01-17 14:51:22.58	180.06	2.52	-44.4	-55.5	3.8	8.46e-01	0	52	104	0	59	12829
2026-01-17 14:51:23.59	180.10	2.58	-44.4	-55.5	3.8	8.46e-01	0	52	104	0	59	12819
2026-01-17 14:51:24.60	180.13	2.64	-44.4	-55.5	3.8	8.46e-01	0	52	104	0	59	12820
2026-01-17 14:51:25.61	180.16	2.71	-44.4	-55.5	3.8	8.47e-01	0	53	104	0	59	12857
2026-01-17 14:51:26.62	180.20	2.77	-44.4	-55.5	3.8	8.46e-01	0	53	104	0	59	12821
2026-01-17 14:51:27.64	180.23	2.84	-44.4	-55.5	3.8	8.47e-01	0	53	104	0	59	12846
2026-01-17 14:51:28.65	180.26	2.91	-44.4	-55.5	3.8	8.47e-01	0	53	104	0	59	12854
2026-01-17 14:51:29.66	180.30	2.97	-44.4	-55.4	3.8	8.46e-01	0	53	104	0	59	12809
2026-01-17 14:51:30.67	180.33	3.04	-44.4	-55.5	3.8	8.47e-01	0	53	104	0	59	12823
2026-01-17 14:51:31.68	180.37	3.10	-44.4	-55.5	3.8	8.46e-01	0	53	104	0	59	12853
2026-01-17 14:51:32.69	180.40	3.17	-44.4	-55.5	3.8	8.46e-01	0	53	104	0	59	12820
2026-01-17 14:51:33.70	180.44	3.23	-44.4	-55.5	3.8	8.47e-01	0	53	104	0	59	12819
2026-01-17 14:51:34.71	180.47	3.30	-44.4	-55.5	3.8	8.46e-01	0	53	104	0	59	12856
2026-01-17 14:51:35.72	180.51	3.37	-44.4	-55.4	3.8	8.46e-01	0	53	104	0	59	12788
2026-01-17 14:51:36.74	180.54	3.43	-44.4	-55.5	3.8	8.46e-01	0	53	104	0	59	12837
2026-01-17 14:51:37.75	180.58	3.50	-44.4	-55.4	3.8	8.46e-01	0	53	104	0	59	12782
2026-01-17 14:51:38.76	180.61	3.57	-44.4	-55.4	3.8	8.46e-01	0	53	104	0	59	12769
2026-01-17 14:51:39.77	180.65	3.63	-44.4	-55.4	3.8	8.46e-01	0	54	104	0	59	12796
2026-01-17 14:51:40.78	180.68	3.70	-44.4	-55.5	3.8	8.47e-01	0	54	104	0	59	12831
2026-01-17 14:51:41.79	180.72	3.77	-44.4	-55.4	3.8	8.46e-01	0	53	104	0	59	12794
2026-01-17 14:51:42.80	180.76	3.83	-44.4	-55.4	3.8	8.47e-01	0	54	104	0	59	12796
2026-01-17 14:51:43.81	180.79	3.90	-44.4	-55.5	3.8	8.46e-01	0	54	104	0	59	12834
2026-01-17 14:51:44.82	180.83	3.97	-44.4	-55.4	3.8	8.46e-01	0	54	104	0	59	12775
2026-01-17 14:51:45.83	180.86	4.04	-44.4	-55.4	3.8	8.46e-01	0	54	104	0	59	12755
2026-01-17 14:51:46.84	180.90	4.10	-44.4	-55.4	3.8	8.46e-01	0	54	104	0	59	12779
2026-01-17 14:51:47.86	180.94	4.17	-44.4	-55.4	3.8	8.45e-01	0	54	104	0	59	12802
2026-01-17 14:51:48.86	180.97	4.24	-44.4	-55.4	3.8	8.46e-01	0	54	104	0	59	12710
2026-01-17 14:51:49.88	181.01	4.31	-44.4	-55.4	3.8	8.46e-01	0	54	104	0	59	12669
2026-01-17 14:51:50.89	181.05	4.38	-44.4	-55.3	3.8	8.46e-01	0	54	104	0	59	12558
2026-01-17 14:51:51.90	181.09	4.45	-44.4	-55.3	3.8	8.47e-01	0	54	104	0	59	12574
2026-01-17 14:51:52.91	181.12	4.52	-44.3	-55.1	3.8	8.47e-01	0	54	104	0	59	12299
2026-01-17 14:51:53.92	181.16	4.59	-44.3	-54.8	3.8	8.47e-01	0	54	104	0	59	11838
2026-01-17 14:51:54.93	181.20	4.65	-44.3	-54.5	3.8	8.47e-01	0	54	104	0	59	11467
2026-01-17 14:51:55.94	181.24	4.72	-44.2	-54.2	3.8	8.45e-01	0	55	104	0	59	11078
2026-01-17 14:51:56.95	181.28	4.79	-44.2	-54.1	3.8	8.45e-01	0	55	104	0	59	10969
2026-01-17 14:51:57.96	181.31	4.86	-44.2	-53.9	3.8	8.45e-01	0	55	104	0	59	10683
2026-01-17 14:51:58.97	181.35	4.93	-44.1	-53.5	3.8	8.45e-01	0	55	104	0	59	10274
2026-01-17 14:51:59.98	181.39	5.00	-44.1	-53.1	3.9	8.46e-01	0	55	104	0	59	9784
2026-01-17 14:52:00.99	181.43	5.07	-44.0	-53.0	3.9	8.44e-01	0	55	104	0	59	9640
2026-01-17 14:52:02.00	181.47	5.14	-44.0	-52.5	4.1	8.45e-01	0	55	104	0	59	9173
2026-01-17 14:52:03.01	181.51	5.21	-43.8	-51.8	4.2	8.40e-01	0	55	0	0	58	8923
2026-01-17 14:52:04.03	181.55	5.29	-43.8	-51.6	4.3	8.34e-01	0	55	0	0	58	8748
2026-01-17 14:52:05.04	181.59	5.36	-43.7	-51.3	4.3	8.29e-01	0	55	0	0	58	8458
2026-01-17 14:52:06.05	181.63	5.43	-43.6	-50.7	4.6	8.18e-01	0	55	0	0	58	7820
2026-01-17 14:52:07.06	181.67	5.50	-43.4	-50.1	4.9	7.81e-01	0	55	0	0	57	7747
2026-01-17 14:52:08.07	181.71	5.57	-43.3	-49.6	5.2	7.69e-01	0	55	0	0	57	7321
2026-01-17 14:52:09.08	181.75	5.64	-43.2	-49.2	5.4	7.12e-01	0	55	0	0	57	7027
2026-01-17 14:52:10.09	181.79	5.71	-43.0	-48.8	5.7	5.71e-01	0	55	0	3145728	57	6668
2026-01-17 14:52:11.11	181.83	5.79	-43.0	-48.6	5.9	3.77e-01	0	56	0	10485760	56	6914
2026-01-17 14:52:12.12	181.87	5.86	-42.8	-48.3	6.1	3.82e-01	0	55	0	16777216	56	6650
2026-01-17 14:52:13.13	181.91	5.93	-42.7	-48.0	6.3	2.48e-01	0	55	0	24117248	56	6458
2026-01-17 14:52:14.14	181.95	6.01	-42.6	-47.8	6.5	2.44e-01	0	56	0	31457280	56	6287
2026-01-17 14:52:15.15	182.00	6.08	-42.4	-47.3	6.7	1.94e-01	0	56	0	38797312	55	6335
2026-01-17 14:52:16.16	182.04	6.15	-42.3	-47.2	6.9	1.70e-01	0	55	0	46137344	55	6239
2026-01-17 14:52:17.17	182.08	6.22	-42.5	-47.6	6.5	2.47e-01	0	56	0	53477376	55	6515
2026-01-17 14:52:18.18	182.12	6.30	-42.5	-47.7	6.4	2.44e-01	0	56	0	60817408	55	6581
2026-01-17 14:52:19.19	182.16	6.37	-42.4	-47.5	6.6	2.35e-01	0	56	0	68157440	55	6461
2026-01-17 14:52:20.20	182.21	6.45	-42.6	-48.0	6.2	3.04e-01	0	56	0	75497472	55	6869
2026-01-17 14:52:21.21	182.25	6.52	-42.5	-47.6	6.5	2.31e-01	0	56	0	82837504	55	6562
2026-01-17 14:52:22.22	182.29	6.59	-42.6	-47.9	6.3	2.82e-01	0	56	0	90177536	55	6733
2026-01-17 14:52:23.23	182.33	6.67	-42.5	-47.7	6.3	2.83e-01	0	56	0	97517568	55	6622
2026-01-17 14:52:24.25	182.38	6.74	-42.4	-47.3	6.7	2.14e-01	0	56	0	104857600	55	6316
2026-01-17 14:52:25.26	182.42	6.82	-42.2	-46.8	7.2	1.45e-01	0	56	0	112197632	55	5971
2026-01-17 14:52:26.27	182.46	6.89	-41.9	-46.3	7.7	9.04e-02	0	56	0	119537664	54	5928
2026-01-17 14:52:27.28	182.51	6.97	-41.5	-45.4	8.6	4.60e-02	0	56	0	126877696	54	5362
2026-01-17 14:52:28.29	182.55	7.04	-41.4	-45.1	8.8	3.68e-02	0	56	0	133169152	53	5521
2026-01-17 14:52:29.30	182.60	7.12	-40.7	-44.0	10.0	9.59e-03	0	56	0	140509184	52	5104
2026-01-17 14:52:30.31	182.64	7.20	-40.4	-43.4	10.7	4.61e-03	0	56	0	148897792	51	5077
2026-01-17 14:52:31.32	182.69	7.27	-40.0	-42.8	11.4	1.41e-03	0	56	0	155189248	50	4986
2026-01-17 14:52:32.33	182.73	7.35	-39.8	-42.5	11.7	5.98e-04	0	56	0	162529280	50	4837
2026-01-17 14:52:33.34	182.78	7.43	-39.3	-41.8	12.3	4.34e-04	0	56	0	169869312	49	4737
2026-01-17 14:52:34.35	182.82	7.50	-39.0	-41.4	12.7	1.14e-04	0	57	0	177209344	49	4532
2026-01-17 14:52:35.36	182.87	7.58	-38.9	-41.3	12.8	5.60e-05	0	57	0	184549376	48	4749
2026-01-17 14:52:36.38	182.91	7.66	-38.7	-41.0	13.2	3.54e-05	0	56	0	191889408	48	4569
2026-01-17 14:52:37.39	182.96	7.73	-38.5	-40.9	13.1	2.86e-05	0	57	0	199229440	47	4792
2026-01-17 14:52:38.40	183.01	7.81	-38.4	-40.7	13.3	1.60e-05	0	56	0	206569472	47	4687
2026-01-17 14:52:39.41	183.05	7.89	-38.5	-40.8	13.1	2.74e-05	0	57	0	213909504	47	4746
2026-01-17 14:52:40.42	183.10	7.97	-38.7	-41.1	12.9	4.11e-05	0	57	0	221249536	47	4879
2026-01-17 14:52:41.43	183.15	8.05	-38.6	-40.9	13.0	6.40e-05	0	57	0	228589568	47	4813
2026-01-17 14:52:42.44	183.19	8.13	-38.6	-40.9	13.2	3.08e-05	0	57	0	235929600	47	4788
2026-01-17 14:52:43.45	183.24	8.20	-38.7	-40.9	13.3	2.67e-04	0	57	0	243269632	48	4545
2026-01-17 14:52:44.46	183.29	8.28	-42.9	-48.4	5.9	6.81e-01	0	57	0	247463936	56	6778
2026-01-17 14:52:45.47	183.34	8.36	-39.2	-41.6	12.5	1.76e-01	0	57	0	251658240	49	4642
2026-01-17 14:52:46.48	183.39	8.44	-39.9	-42.6	11.7	9.84e-03	0	57	0	258998272	50	4900
2026-01-17 14:52:47.49	183.43	8.52	-38.5	-40.8	13.5	1.94e-05	0	57	0	266338304	48	4454
2026-01-17 14:52:48.50	183.48	8.60	-38.5	-40.7	13.3	1.60e-05	0	57	0	273678336	47	4702
2026-01-17 14:52:49.51	183.53	8.68	-38.5	-40.9	13.2	2.86e-05	0	57	0	281018368	47	4783
2026-01-17 14:52:50.52	183.58	8.76	-38.5	-40.8	13.3	2.17e-05	0	57	0	288358400	47	4717
2026-01-17 14:52:51.53	183.63	8.84	-38.2	-40.5	13.6	1.37e-05	0	57	0	295698432	47	4549
2026-01-17 14:52:52.54	183.68	8.92	-38.3	-40.6	13.6	1.37e-05	0	57	0	303038464	47	4604
2026-01-17 14:52:53.55	183.73	9.01	-38.2	-40.4	13.7	5.70e-06	0	57	0	310378496	47	4499
2026-01-17 14:52:54.56	183.78	9.09	-38.3	-40.6	13.5	8.00e-06	0	57	0	317718528	47	4623
2026-01-17 14:52:55.57	183.83	9.17	-38.2	-40.5	13.6	4.50e-06	0	57	0	325058560	47	4552
2026-01-17 14:52:56.58	183.88	9.25	-38.2	-40.4	13.7	3.40e-06	0	57	0	331350016	47	4524
2026-01-17 14:52:57.59	183.93	9.33	-38.2	-40.5	13.7	6.80e-06	0	57	0	338690048	47	4556
2026-01-17 14:52:58.60	183.99	9.41	-38.1	-40.3	13.8	3.40e-06	0	57	0	346030080	47	4477
2026-01-17 14:52:59.61	184.04	9.50	-38.2	-40.4	13.8	1.10e-06	0	57	0	353370112	47	4511
2026-01-17 14:53:00.62	184.09	9.58	-38.2	-40.4	13.8	0.00e+00	0	57	0	360710144	47	4500
2026-01-17 14:53:01.63	184.14	9.66	-38.0	-40.2	14.0	6.80e-06	0	57	0	368050176	47	4402
2026-01-17 14:53:02.63	184.19	9.75	-38.1	-40.3	13.8	2.20e-06	0	57	0	375390208	46	4756
2026-01-17 14:53:03.64	184.25	9.83	-38.1	-40.3	13.9	2.20e-06	0	57	0	382730240	46	4718
2026-01-17 14:53:04.65	184.30	9.91	-38.2	-40.4	13.9	4.50e-06	0	57	0	390070272	46	4774
2026-01-17 14:53:05.66	184.35	10.00	-38.0	-40.2	14.0	2.20e-06	0	57	0	397410304	46	4671
2026-01-17 14:53:06.67	184.41	10.08	-38.0	-40.2	14.0	1.10e-06	0	57	0	404750336	46	4667
2026-01-17 14:53:07.68	184.46	10.17	-38.0	-40.1	14.1	1.10e-06	0	58	0	412090368	46	4639
2026-01-17 14:53:08.69	184.51	10.25	-37.8	-39.9	14.3	0.00e+00	0	57	0	419430400	46	4513
2026-01-17 14:53:09.70	184.57	10.34	-37.9	-40.1	14.2	4.50e-06	0	58	0	426770432	46	4613
2026-01-17 14:53:10.71	184.62	10.42	-38.0	-40.1	14.1	1.10e-06	0	57	0	434110464	46	4636
2026-01-17 14:53:11.72	184.68	10.51	-37.7	-39.8	14.4	0.00e+00	0	58	0	441450496	46	4490
2026-01-17 14:53:12.73	184.73	10.60	-38.0	-40.2	14.1	0.00e+00	0	58	0	448790528	46	4663
2026-01-17 14:53:13.74	184.79	10.68	-37.7	-39.8	14.4	1.10e-06	0	58	0	456130560	46	4484
2026-01-17 14:53:14.75	184.85	10.77	-37.8	-40.0	14.2	0.00e+00	0	58	0	462422016	46	4554
2026-01-17 14:53:15.76	184.90	10.86	-37.9	-40.0	14.3	1.10e-06	0	58	0	470810624	46	4575
2026-01-17 14:53:16.77	184.96	10.94	-37.8	-39.9	14.4	1.10e-06	0	58	0	478150656	46	4534
2026-01-17 14:53:17.78	185.02	11.03	-37.9	-40.0	14.3	1.10e-06	0	58	0	484442112	46	4570
2026-01-17 14:53:18.79	185.07	11.12	-38.1	-40.3	14.0	2.20e-06	0	58	0	491782144	46	4757
2026-01-17 14:53:19.80	185.13	11.21	-37.8	-39.9	14.4	1.10e-06	0	58	0	499122176	46	4509
2026-01-17 14:53:20.81	185.19	11.30	-37.7	-39.8	14.5	2.20e-06	0	58	0	506462208	46	4477
2026-01-17 14:53:21.82	185.25	11.39	-37.7	-39.8	14.5	0.00e+00	0	58	0	513802240	46	4470
2026-01-17 14:53:22.83	185.31	11.47	-37.7	-39.8	14.5	0.00e+00	0	58	0	521142272	46	4465
2026-01-17 14:53:23.84	185.37	11.56	-37.9	-40.0	14.3	1.10e-06	0	58	0	528482304	46	4592
2026-01-17 14:53:24.85	185.42	11.65	-37.7	-39.8	14.5	0.00e+00	0	58	0	535822336	46	4476
2026-01-17 14:53:25.86	185.48	11.74	-37.7	-39.8	14.5	0.00e+00	0	58	0	543162368	46	4490
2026-01-17 14:53:26.87	185.54	11.83	-37.6	-39.7	14.6	0.00e+00	0	58	0	550502400	46	4409
2026-01-17 14:53:27.88	185.60	11.92	-37.6	-39.7	14.6	0.00e+00	0	58	0	557842432	46	4410
2026-01-17 14:53:28.89	185.67	12.02	-37.6	-39.7	14.6	0.00e+00	0	58	0	565182464	46	4413
2026-01-17 14:53:29.90	185.73	12.11	-37.6	-39.6	14.7	0.00e+00	0	58	0	572522496	45	4636
2026-01-17 14:53:30.91	185.79	12.20	-37.5	-39.6	14.8	0.00e+00	0	58	0	579862528	45	4606
2026-01-17 14:53:31.92	185.85	12.29	-37.6	-39.6	14.7	0.00e+00	0	58	0	587202560	45	4632
2026-01-17 14:53:32.93	185.91	12.38	-37.4	-39.4	15.0	0.00e+00	0	58	0	594542592	45	4514
2026-01-17 14:53:33.94	185.97	12.47	-37.5	-39.5	14.8	0.00e+00	0	59	0	601882624	45	4594
2026-01-17 14:53:34.95	186.04	12.57	-37.3	-39.3	15.0	0.00e+00	0	58	0	609222656	45	4479
2026-01-17 14:53:35.96	186.10	12.66	-37.3	-39.3	15.0	0.00e+00	0	58	0	616562688	45	4475
2026-01-17 14:53:36.97	186.16	12.75	-37.3	-39.4	15.0	1.10e-06	0	58	0	623902720	45	4495
2026-01-17 14:53:37.98	186.23	12.85	-37.5	-39.6	14.8	0.00e+00	0	58	0	631242752	45	4603
2026-01-17 14:53:38.99	186.29	12.94	-37.5	-39.5	14.9	0.00e+00	0	58	0	637534208	45	4579
2026-01-17 14:53:40.00	186.36	13.04	-37.3	-39.3	15.0	0.00e+00	0	59	0	644874240	45	4471
2026-01-17 14:53:41.01	186.42	13.13	-37.2	-39.2	15.2	0.00e+00	0	58	0	653262848	45	4422
2026-01-17 14:53:42.01	186.49	13.23	-37.1	-39.1	15.3	0.00e+00	0	58	0	659554304	45	4347
2026-01-17 14:53:43.02	186.55	13.32	-37.1	-39.1	15.3	0.00e+00	0	59	0	666894336	45	4341
2026-01-17 14:53:44.03	186.62	13.42	-37.1	-39.0	15.4	0.00e+00	0	58	0	674234368	45	4315
2026-01-17 14:53:45.04	186.69	13.51	-37.2	-39.2	15.2	0.00e+00	0	58	0	681574400	45	4436
2026-01-17 14:53:46.05	186.76	13.61	-37.0	-39.0	15.4	0.00e+00	0	58	0	688914432	45	4297
2026-01-17 14:53:47.06	186.82	13.71	-37.1	-39.0	15.4	0.00e+00	0	59	0	696254464	45	4332
2026-01-17 14:53:48.07	186.89	13.80	-37.1	-39.1	15.3	0.00e+00	0	59	0	703594496	45	4346
2026-01-17 14:53:49.08	186.96	13.90	-36.9	-38.8	15.6	0.00e+00	0	59	0	710934528	44	4485
2026-01-17 14:53:50.09	187.03	14.00	-36.8	-38.7	15.8	0.00e+00	0	59	0	718274560	44	4405
2026-01-17 14:53:51.10	187.10	14.10	-36.9	-38.9	15.6	0.00e+00	0	59	0	725614592	44	4502
2026-01-17 14:53:52.11	187.17	14.20	-37.0	-39.0	15.5	0.00e+00	0	59	0	732954624	44	4561
2026-01-17 14:53:53.12	187.24	14.30	-37.0	-39.0	15.4	0.00e+00	0	58	0	740294656	44	4568
2026-01-17 14:53:54.13	187.31	14.40	-37.0	-39.0	15.5	0.00e+00	0	59	0	747634688	44	4546
2026-01-17 14:53:55.14	187.38	14.50	-37.0	-39.0	15.4	0.00e+00	0	59	0	754974720	44	4573
2026-01-17 14:53:56.15	187.45	14.60	-37.0	-38.9	15.5	0.00e+00	0	59	0	761266176	44	4540
2026-01-17 14:53:57.16	187.52	14.70	-37.2	-39.1	15.3	0.00e+00	0	59	0	769654784	44	4649
2026-01-17 14:53:58.17	187.60	14.80	-37.2	-39.2	15.3	0.00e+00	0	59	0	776994816	44	4668
2026-01-17 14:53:59.18	187.67	14.90	-37.0	-39.0	15.4	0.00e+00	0	59	0	783286272	44	4584
2026-01-17 14:54:00.19	187.74	15.00	-36.9	-38.8	15.6	0.00e+00	0	59	0	790626304	44	4467
2026-01-17 14:54:01.20	187.82	15.10	-37.1	-39.2	15.3	0.00e+00	0	59	0	797966336	44	4656
2026-01-17 14:54:02.21	187.89	15.20	-36.9	-38.8	15.6	0.00e+00	0	59	0	805306368	44	4483
2026-01-17 14:54:03.22	187.97	15.31	-36.9	-38.9	15.6	0.00e+00	0	59	0	812646400	44	4507
2026-01-17 14:54:04.23	188.04	15.41	-36.9	-38.8	15.7	0.00e+00	0	59	0	819986432	44	4477
2026-01-17 14:54:05.24	188.12	15.51	-36.9	-38.9	15.6	0.00e+00	0	59	0	827326464	44	4504
2026-01-17 14:54:06.25	188.20	15.62	-37.0	-39.0	15.5	0.00e+00	0	59	0	834666496	44	4549
2026-01-17 14:54:07.25	188.27	15.72	-36.8	-38.8	15.7	0.00e+00	0	59	0	842006528	44	4460
2026-01-17 14:54:08.26	188.35	15.83	-36.9	-38.8	15.7	1.10e-06	0	59	0	849346560	44	4477
2026-01-17 14:54:09.27	188.43	15.93	-36.8	-38.8	15.7	0.00e+00	0	59	0	856686592	44	4449
2026-01-17 14:54:10.29	188.51	16.04	-36.8	-38.7	15.7	0.00e+00	0	59	0	864026624	44	4440
2026-01-17 14:54:11.30	188.59	16.14	-37.1	-39.1	15.4	0.00e+00	0	59	0	871366656	44	4633
2026-01-17 14:54:12.31	188.67	16.25	-36.8	-38.8	15.7	0.00e+00	0	59	0	878706688	44	4457
2026-01-17 14:54:13.32	188.75	16.36	-36.8	-38.7	15.9	0.00e+00	0	59	0	886046720	44	4406
2026-01-17 14:54:14.33	188.83	16.47	-36.8	-38.7	15.8	0.00e+00	0	59	0	893386752	44	4408
2026-01-17 14:54:15.34	188.91	16.57	-36.7	-38.6	15.9	0.00e+00	0	59	0	900726784	44	4384
2026-01-17 14:54:16.35	188.99	16.68	-36.5	-38.3	16.1	0.00e+00	0	59	0	908066816	44	4238
2026-01-17 14:54:17.36	189.07	16.79	-36.5	-38.4	16.0	0.00e+00	0	59	0	915406848	43	4517
2026-01-17 14:54:18.37	189.15	16.90	-36.4	-38.3	16.2	0.00e+00	0	59	0	922746880	43	4442
2026-01-17 14:54:19.38	189.24	17.01	-36.4	-38.2	16.2	0.00e+00	0	59	0	930086912	43	4423
2026-01-17 14:54:20.39	189.32	17.12	-36.3	-38.0	16.3	0.00e+00	0	59	0	936378368	43	4340
2026-01-17 14:54:21.40	189.41	17.23	-36.3	-38.1	16.3	0.00e+00	0	59	0	943718400	43	4347
2026-01-17 14:54:22.41	189.49	17.34	-36.2	-38.0	16.5	0.00e+00	0	59	0	952107008	43	4296
2026-01-17 14:54:23.41	189.58	17.45	-36.1	-37.9	16.5	0.00e+00	0	59	0	958398464	43	4260
2026-01-17 14:54:24.42	189.66	17.56	-36.0	-37.7	16.7	0.00e+00	0	59	0	965738496	43	4189
2026-01-17 14:54:25.43	189.75	17.67	-35.9	-37.6	16.8	0.00e+00	0	59	0	973078528	42	4376
2026-01-17 14:54:26.44	189.84	17.79	-35.9	-37.7	16.8	0.00e+00	0	59	0	980418560	42	4399
2026-01-17 14:54:27.45	189.93	17.90	-35.9	-37.7	16.7	0.00e+00	0	59	0	987758592	42	4404
2026-01-17 14:54:28.46	190.02	18.01	-35.8	-37.5	16.9	0.00e+00	0	59	0	995098624	42	4321
2026-01-17 14:54:29.47	190.11	18.13	-35.9	-37.6	16.8	0.00e+00	0	59	0	1002438656	42	4351
2026-01-17 14:54:30.48	190.20	18.24	-35.8	-37.4	17.0	0.00e+00	0	59	0	1009778688	42	4289
2026-01-17 14:54:31.49	190.29	18.36	-35.8	-37.5	16.9	0.00e+00	0	59	0	1017118720	42	4306
2026-01-17 14:54:32.50	190.38	18.47	-35.7	-37.4	17.0	0.00e+00	0	59	0	1024458752	42	4250
2026-01-17 14:54:33.51	190.47	18.59	-35.7	-37.4	17.0	0.00e+00	0	59	0	1031798784	42	4261
2026-01-17 14:54:34.52	190.57	18.70	-35.7	-37.4	17.0	0.00e+00	0	59	0	1039138816	42	4261
2026-01-17 14:54:35.53	190.66	18.82	-35.7	-37.4	17.0	0.00e+00	0	59	0	1046478848	42	4265
2026-01-17 14:54:36.54	190.75	18.94	-35.8	-37.5	17.0	0.00e+00	0	59	0	1053818880	42	4301
2026-01-17 14:54:37.55	190.85	19.06	-36.1	-37.9	16.5	0.00e+00	0	59	0	1060110336	42	4523
2026-01-17 14:54:38.56	190.95	19.17	-35.7	-37.4	17.0	0.00e+00	0	59	0	1068498944	42	4267
2026-01-17 14:54:39.57	191.04	19.29	-35.9	-37.5	16.9	0.00e+00	0	59	0	1075838976	42	4336
2026-01-17 14:54:40.58	191.14	19.41	-35.9	-37.6	16.9	0.00e+00	0	59	0	1082130432	42	4354
2026-01-17 14:54:41.59	191.24	19.53	-35.9	-37.6	16.8	0.00e+00	0	59	0	1089470464	42	4388
2026-01-17 14:54:42.60	191.34	19.65	-35.8	-37.5	17.0	0.00e+00	0	59	0	1096810496	42	4300
2026-01-17 14:54:43.61	191.44	19.77	-35.9	-37.6	16.9	0.00e+00	0	60	0	1104150528	42	4357
2026-01-17 14:54:44.62	191.54	19.89	-35.9	-37.6	16.8	0.00e+00	0	59	0	1111490560	42	4370
2026-01-17 14:54:45.63	191.64	20.02	-35.9	-37.6	16.9	0.00e+00	0	59	0	1118830592	42	4360
2026-01-17 14:54:46.64	191.74	20.14	-35.9	-37.6	16.8	0.00e+00	0	59	0	1126170624	42	4383
2026-01-17 14:54:47.65	191.84	20.26	-35.9	-37.6	16.8	0.00e+00	0	59	0	1133510656	42	4380
2026-01-17 14:54:48.66	191.94	20.38	-35.9	-37.6	16.9	0.00e+00	0	59	0	1140850688	42	4357
2026-01-17 14:54:49.67	192.05	20.51	-35.9	-37.6	16.8	0.00e+00	0	60	0	1148190720	42	4371
2026-01-17 14:54:50.68	192.15	20.63	-35.9	-37.6	16.9	0.00e+00	0	60	0	1155530752	42	4351
2026-01-17 14:54:51.69	192.26	20.76	-35.8	-37.5	17.0	0.00e+00	0	59	0	1162870784	42	4308
2026-01-17 14:54:52.71	192.37	20.88	-35.8	-37.5	16.9	0.00e+00	0	60	0	1170210816	42	4314
2026-01-17 14:54:53.72	192.48	21.01	-35.8	-37.5	16.9	0.00e+00	0	59	0	1177550848	42	4313
2026-01-17 14:54:54.73	192.58	21.14	-35.7	-37.4	17.1	0.00e+00	0	60	0	1184890880	42	4265
2026-01-17 14:54:55.73	192.69	21.26	-35.6	-37.4	17.1	0.00e+00	0	59	0	1192230912	42	4253
2026-01-17 14:54:56.75	192.80	21.39	-35.6	-37.3	17.2	0.00e+00	0	59	0	1199570944	42	4204
2026-01-17 14:54:57.75	192.91	21.52	-35.5	-37.3	17.1	0.00e+00	0	59	0	1206910976	41	4446
2026-01-17 14:54:58.77	193.03	21.65	-35.4	-37.1	17.3	0.00e+00	0	59	0	1214251008	41	4356
2026-01-17 14:54:59.77	193.14	21.78	-35.4	-37.1	17.3	0.00e+00	0	60	0	1221591040	41	4371
2026-01-17 14:55:00.79	193.25	21.91	-35.4	-37.1	17.3	0.00e+00	0	59	0	1228931072	41	4356
2026-01-17 14:55:01.80	193.37	22.04	-35.3	-37.0	17.4	0.00e+00	0	59	0	1235222528	41	4308
2026-01-17 14:55:02.81	193.48	22.17	-35.2	-36.9	17.5	0.00e+00	0	60	0	1243611136	41	4246
2026-01-17 14:55:03.82	193.60	22.30	-35.3	-37.0	17.3	0.00e+00	0	60	0	1250951168	41	4330
2026-01-17 14:55:04.83	193.72	22.43	-35.2	-36.9	17.5	0.00e+00	0	60	0	1257242624	41	4272
2026-01-17 14:55:05.84	193.84	22.56	-35.2	-36.9	17.5	0.00e+00	0	60	0	1264582656	41	4276
2026-01-17 14:55:06.85	193.96	22.70	-35.2	-36.9	17.5	0.00e+00	0	59	0	1271922688	41	4268
2026-01-17 14:55:07.86	194.08	22.83	-35.2	-36.9	17.5	0.00e+00	0	60	0	1279262720	41	4280
2026-01-17 14:55:08.87	194.20	22.96	-35.5	-37.3	17.1	0.00e+00	0	60	0	1286602752	41	4485
2026-01-17 14:55:09.88	194.32	23.10	-35.3	-37.1	17.3	0.00e+00	0	60	0	1293942784	41	4363
2026-01-17 14:55:10.89	194.44	23.24	-35.4	-37.1	17.3	0.00e+00	0	59	0	1301282816	41	4368
2026-01-17 14:55:11.90	194.57	23.37	-35.4	-37.2	17.2	0.00e+00	0	60	0	1308622848	41	4392
2026-01-17 14:55:12.91	194.69	23.51	-35.5	-37.2	17.2	0.00e+00	0	60	0	1315962880	41	4433
2026-01-17 14:55:13.92	194.82	23.64	-35.6	-37.4	17.0	0.00e+00	0	60	0	1323302912	41	4532
2026-01-17 14:55:14.92	194.95	23.78	-35.4	-37.2	17.2	0.00e+00	0	60	0	1330642944	41	4411
2026-01-17 14:55:15.94	195.08	23.92	-35.5	-37.3	17.1	0.00e+00	0	60	0	1337982976	41	4457
2026-01-17 14:55:16.95	195.21	24.06	-35.5	-37.3	17.2	0.00e+00	0	60	0	1345323008	41	4449
2026-01-17 14:55:17.96	195.34	24.20	-35.5	-37.3	17.2	0.00e+00	0	60	0	1352663040	41	4456
2026-01-17 14:55:18.97	195.47	24.34	-35.4	-37.1	17.3	0.00e+00	0	60	0	1360003072	41	4383
2026-01-17 14:55:19.97	195.60	24.48	-35.4	-37.1	17.3	0.00e+00	0	60	0	1367343104	41	4367
2026-01-17 14:55:20.99	195.74	24.62	-35.3	-37.0	17.5	0.00e+00	0	60	0	1374683136	41	4302
2026-01-17 14:55:21.99	195.87	24.76	-35.2	-36.9	17.6	0.00e+00	0	60	0	1380974592	41	4254
2026-01-17 14:55:23.00	196.01	24.90	-35.1	-36.8	17.7	0.00e+00	0	60	0	1388314624	41	4213
2026-01-17 14:55:24.01	196.15	25.05	-35.1	-36.7	17.7	0.00e+00	0	60	0	1396703232	41	4175
2026-01-17 14:55:25.02	196.29	25.19	-35.2	-36.9	17.6	0.00e+00	0	60	0	1402994688	40	4512
2026-01-17 14:55:26.03	196.43	25.34	-35.2	-36.9	17.6	0.00e+00	0	60	0	1410334720	40	4512
2026-01-17 14:55:27.04	196.57	25.48	-35.2	-36.9	17.6	0.00e+00	0	60	0	1417674752	40	4523
2026-01-17 14:55:28.05	196.71	25.63	-35.2	-36.9	17.6	0.00e+00	0	60	0	1425014784	40	4505
2026-01-17 14:55:29.06	196.86	25.77	-35.1	-36.8	17.7	0.00e+00	0	60	0	1432354816	40	4463
2026-01-17 14:55:30.07	197.00	25.92	-34.9	-36.5	18.0	0.00e+00	0	60	0	1439694848	40	4338
2026-01-17 14:55:31.08	197.15	26.07	-35.1	-36.8	17.7	0.00e+00	0	60	0	1447034880	40	4452
2026-01-17 14:55:32.09	197.30	26.21	-35.1	-36.7	17.8	0.00e+00	0	60	0	1454374912	40	4439
2026-01-17 14:55:33.10	197.45	26.36	-35.0	-36.7	17.8	0.00e+00	0	60	0	1461714944	40	4409
2026-01-17 14:55:34.11	197.60	26.51	-35.1	-36.7	17.8	0.00e+00	0	60	0	1469054976	40	4421
2026-01-17 14:55:35.12	197.75	26.66	-35.0	-36.7	17.8	0.00e+00	0	60	0	1476395008	40	4418
2026-01-17 14:55:36.13	197.91	26.81	-35.1	-36.8	17.6	0.00e+00	0	60	0	1483735040	40	4473
2026-01-17 14:55:37.15	198.06	26.97	-35.1	-36.7	17.7	0.00e+00	0	60	0	1491075072	40	4434
2026-01-17 14:55:38.15	198.22	27.12	-35.0	-36.7	17.7	0.00e+00	0	60	0	1498415104	40	4423
2026-01-17 14:55:39.16	198.38	27.27	-34.9	-36.6	17.8	0.00e+00	0	60	0	1505755136	40	4372
2026-01-17 14:55:40.17	198.54	27.42	-35.0	-36.7	17.7	0.00e+00	0	60	0	1513095168	40	4403
2026-01-17 14:55:41.18	198.70	27.58	-34.7	-36.4	18.0	0.00e+00	0	60	0	1520435200	40	4244
2026-01-17 14:55:42.20	198.86	27.73	-34.9	-36.6	17.8	0.00e+00	0	60	0	1527775232	40	4353
2026-01-17 14:55:43.20	199.02	27.88	-34.8	-36.4	17.9	0.00e+00	0	60	0	1534066688	40	4282
2026-01-17 14:55:44.21	199.19	28.04	-34.8	-36.5	17.8	0.00e+00	0	60	0	1542455296	40	4304
2026-01-17 14:55:45.22	199.36	28.20	-34.8	-36.4	17.9	0.00e+00	0	60	0	1549795328	40	4277
2026-01-17 14:55:46.23	199.53	28.35	-34.8	-36.4	17.9	0.00e+00	0	60	0	1556086784	40	4283
2026-01-17 14:55:47.24	199.70	28.51	-34.8	-36.4	17.9	0.00e+00	0	60	0	1563426816	40	4287
2026-01-17 14:55:48.25	199.87	28.67	-34.8	-36.4	17.9	0.00e+00	0	60	0	1570766848	40	4278
2026-01-17 14:55:49.26	200.04	28.83	-34.7	-36.4	18.0	0.00e+00	0	60	0	1578106880	40	4265
2026-01-17 14:55:50.27	200.22	28.99	-34.8	-36.4	18.0	0.00e+00	0	60	0	1585446912	40	4277
2026-01-17 14:55:51.28	200.40	29.15	-34.9	-36.5	18.0	0.00e+00	0	60	0	1592786944	39	4570
2026-01-17 14:55:52.29	200.58	29.31	-34.9	-36.5	18.0	0.00e+00	0	60	0	1600126976	39	4583
2026-01-17 14:55:53.30	200.76	29.47	-34.9	-36.5	18.0	0.00e+00	0	60	0	1607467008	39	4571
2026-01-17 14:55:54.31	200.94	29.63	-34.8	-36.4	18.1	0.00e+00	0	60	0	1614807040	39	4496
2026-01-17 14:55:55.32	201.12	29.79	-34.8	-36.4	18.1	0.00e+00	0	60	0	1622147072	39	4532
2026-01-17 14:55:56.33	201.31	29.96	-34.8	-36.4	18.1	0.00e+00	0	60	0	1629487104	39	4526
2026-01-17 14:55:57.34	201.50	30.12	-34.8	-36.4	18.1	0.00e+00	0	60	0	1636827136	40	4246
2026-01-17 14:55:58.35	201.69	30.28	-34.8	-36.4	18.0	0.00e+00	0	60	0	1644167168	40	4273
2026-01-17 14:55:59.36	201.88	30.45	-35.0	-36.6	17.9	0.00e+00	0	60	0	1651507200	40	4355
2026-01-17 14:56:00.37	202.07	30.61	-35.1	-36.7	17.8	0.00e+00	0	60	0	1658847232	40	4423
2026-01-17 14:56:01.38	202.27	30.78	-35.1	-36.8	17.8	0.00e+00	0	60	0	1666187264	40	4459
2026-01-17 14:56:02.39	202.47	30.95	-35.0	-36.7	17.8	0.00e+00	0	60	0	1673527296	40	4396
2026-01-17 14:56:03.39	202.66	31.11	-35.1	-36.8	17.8	0.00e+00	0	60	0	1679818752	40	4447
2026-01-17 14:56:04.40	202.87	31.28	-35.0	-36.7	17.9	0.00e+00	0	60	0	1688207360	40	4403
2026-01-17 14:56:05.42	203.07	31.45	-35.1	-36.7	17.9	0.00e+00	0	60	0	1695547392	40	4419
2026-01-17 14:56:06.42	203.28	31.62	-35.1	-36.7	17.9	0.00e+00	0	60	0	1701838848	40	4431
2026-01-17 14:56:07.43	203.48	31.79	-35.0	-36.6	17.9	0.00e+00	0	60	0	1709178880	40	4375
2026-01-17 14:56:08.44	203.69	31.96	-34.9	-36.6	18.0	0.00e+00	0	60	0	1716518912	40	4354
2026-01-17 14:56:09.45	203.91	32.13	-35.0	-36.7	17.9	0.00e+00	0	60	0	1723858944	40	4404
2026-01-17 14:56:10.46	204.12	32.30	-34.9	-36.6	17.9	0.00e+00	0	60	0	1731198976	40	4356
2026-01-17 14:56:11.47	204.34	32.47	-35.0	-36.6	17.9	0.00e+00	0	60	0	1738539008	40	4388
2026-01-17 14:56:12.48	204.56	32.64	-34.7	-36.4	18.2	0.00e+00	0	60	0	1745879040	40	4254
2026-01-17 14:56:13.49	204.78	32.81	-34.8	-36.5	18.1	0.00e+00	0	60	0	1753219072	40	4305
2026-01-17 14:56:14.50	205.00	32.99	-34.8	-36.4	18.1	0.00e+00	0	60	0	1760559104	40	4288
2026-01-17 14:56:15.51	205.23	33.16	-34.7	-36.3	18.2	0.00e+00	0	60	0	1767899136	40	4208
2026-01-17 14:56:16.52	205.46	33.34	-34.7	-36.3	18.2	0.00e+00	0	60	0	1775239168	40	4221
2026-01-17 14:56:17.53	205.69	33.51	-34.8	-36.5	18.1	0.00e+00	0	61	0	1782579200	40	4294
2026-01-17 14:56:18.54	205.92	33.69	-34.7	-36.3	18.3	0.00e+00	0	61	0	1789919232	40	4228
2026-01-17 14:56:19.55	206.16	33.86	-34.7	-36.3	18.3	0.00e+00	0	60	0	1797259264	40	4218
2026-01-17 14:56:20.57	206.40	34.04	-34.8	-36.3	18.2	0.00e+00	0	60	0	1804599296	40	4240
2026-01-17 14:56:21.58	206.64	34.22	-34.8	-36.4	18.2	0.00e+00	0	60	0	1811939328	40	4243
2026-01-17 14:56:22.59	206.88	34.39	-34.8	-36.3	18.2	0.00e+00	0	61	0	1819279360	40	4242
2026-01-17 14:56:23.60	207.13	34.57	-34.9	-36.6	18.0	0.00e+00	0	60	0	1826619392	40	4357
2026-01-17 14:56:24.61	207.38	34.75	-35.0	-36.6	17.9	0.00e+00	0	60	0	1833959424	40	4385
2026-01-17 14:56:25.62	207.63	34.93	-35.0	-36.7	17.9	0.00e+00	0	61	0	1841299456	40	4403
2026-01-17 14:56:26.63	207.88	35.11	-35.1	-36.8	17.7	0.00e+00	0	61	0	1848639488	40	4460
2026-01-17 14:56:27.64	208.14	35.29	-35.3	-37.1	17.4	0.00e+00	0	60	0	1854930944	40	4620
2026-01-17 14:56:28.65	208.40	35.47	-35.2	-36.9	17.6	0.00e+00	0	60	0	1862270976	40	4519
2026-01-17 14:56:29.66	208.66	35.65	-35.1	-36.8	17.7	0.00e+00	0	60	0	1870659584	40	4482
2026-01-17 14:56:30.67	208.93	35.83	-35.1	-36.8	17.7	0.00e+00	0	60	0	1876951040	40	4478
2026-01-17 14:56:31.68	209.19	36.01	-35.2	-36.9	17.6	0.00e+00	0	60	0	1884291072	40	4511
2026-01-17 14:56:32.69	209.46	36.19	-35.1	-36.8	17.7	0.00e+00	0	61	0	1891631104	40	4467
2026-01-17 14:56:33.70	209.74	36.37	-35.2	-37.0	17.6	0.00e+00	0	61	0	1898971136	40	4546
2026-01-17 14:56:34.71	210.02	36.55	-35.1	-36.7	17.8	0.00e+00	0	61	0	1906311168	40	4421
2026-01-17 14:56:35.72	210.30	36.73	-35.1	-36.7	17.8	0.00e+00	0	60	0	1913651200	40	4430
2026-01-17 14:56:36.73	210.58	36.92	-35.1	-36.7	17.9	0.00e+00	0	61	0	1920991232	40	4415
2026-01-17 14:56:37.74	210.87	37.10	-35.1	-36.7	17.9	0.00e+00	0	60	0	1928331264	40	4422
2026-01-17 14:56:38.75	211.16	37.28	-35.2	-36.8	17.8	0.00e+00	0	61	0	1935671296	40	4479
2026-01-17 14:56:39.76	211.45	37.46	-35.2	-36.8	17.9	0.00e+00	0	60	0	1943011328	40	4445
2026-01-17 14:56:40.77	211.74	37.65	-35.0	-36.6	18.0	0.00e+00	0	60	0	1950351360	40	4375
2026-01-17 14:56:41.78	212.04	37.83	-34.9	-36.4	18.2	0.00e+00	0	60	0	1957691392	40	4286
2026-01-17 14:56:42.79	212.35	38.01	-34.9	-36.5	18.2	0.00e+00	0	60	0	1965031424	40	4302
2026-01-17 14:56:43.80	212.65	38.20	-34.9	-36.4	18.2	0.00e+00	0	60	0	1972371456	40	4285
2026-01-17 14:56:44.81	212.96	38.38	-34.9	-36.4	18.2	0.00e+00	0	61	0	1979711488	40	4289
2026-01-17 14:56:45.82	213.27	38.56	-34.9	-36.5	18.1	0.00e+00	0	60	0	1987051520	40	4307
2026-01-17 14:56:46.83	213.59	38.75	-35.0	-36.6	18.0	0.00e+00	0	60	0	1994391552	40	4379
2026-01-17 14:56:47.84	213.91	38.93	-35.1	-36.8	17.9	0.00e+00	0	61	0	2001731584	40	4460
2026-01-17 14:56:48.85	214.23	39.12	-35.2	-36.9	17.7	0.00e+00	0	60	0	2008023040	40	4518
2026-01-17 14:56:49.86	214.56	39.30	-35.3	-37.0	17.6	0.00e+00	0	61	0	2016411648	40	4573
2026-01-17 14:56:50.87	214.89	39.48	-35.2	-36.9	17.7	0.00e+00	0	60	0	2023751680	40	4510
2026-01-17 14:56:51.88	215.23	39.67	-35.2	-36.9	17.7	0.00e+00	0	61	0	2030043136	40	4543
2026-01-17 14:56:52.89	215.56	39.85	-35.1	-36.8	17.8	0.00e+00	0	61	0	2037383168	40	4471
2026-01-17 14:56:53.90	215.91	40.03	-35.3	-37.0	17.6	0.00e+00	0	61	0	2044723200	40	4585
2026-01-17 14:56:54.91	216.25	40.22	-35.2	-36.8	17.8	0.00e+00	0	61	0	2052063232	40	4479
2026-01-17 14:56:55.92	216.60	40.40	-35.1	-36.8	17.8	0.00e+00	0	60	0	2059403264	40	4444
2026-01-17 14:56:56.93	216.96	40.58	-35.1	-36.7	17.9	0.00e+00	0	61	0	2066743296	40	4407
2026-01-17 14:56:57.94	217.31	40.76	-35.0	-36.6	18.0	0.00e+00	0	61	0	2074083328	40	4362
2026-01-17 14:56:58.95	217.68	40.94	-35.0	-36.6	18.0	0.00e+00	0	60	0	2081423360	40	4377
2026-01-17 14:56:59.96	218.04	41.13	-35.1	-36.8	17.8	0.00e+00	0	61	0	2088763392	40	4449
2026-01-17 14:57:00.97	218.41	41.31	-35.2	-36.9	17.7	0.00e+00	0	60	0	2096103424	40	4524
2026-01-17 14:57:01.98	218.78	41.49	-35.4	-37.1	17.5	0.00e+00	0	60	0	2103443456	40	4607
2026-01-17 14:57:02.99	219.16	41.67	-35.5	-37.2	17.4	0.00e+00	0	61	0	2110783488	40	4698
2026-01-17 14:57:04.00	219.54	41.85	-35.5	-37.3	17.3	0.00e+00	0	61	0	2118123520	40	4719
2026-01-17 14:57:05.01	219.93	42.03	-35.5	-37.2	17.4	0.00e+00	0	61	0	2125463552	40	4705
2026-01-17 14:57:06.02	220.32	42.21	-35.4	-37.1	17.5	0.00e+00	0	60	0	2132803584	40	4648
2026-01-17 14:57:07.03	220.72	42.38	-35.6	-37.3	17.5	0.00e+00	0	61	0	2140143616	40	4714
2026-01-17 14:57:08.04	221.11	42.56	-35.4	-37.1	17.7	0.00e+00	0	61	0	2147483648	40	4621
2026-01-17 14:57:09.05	221.52	42.74	-35.5	-37.1	17.7	0.00e+00	0	61	0	2153775104	40	4635
2026-01-17 14:57:10.06	221.93	42.92	-35.4	-37.0	17.8	0.00e+00	0	60	0	2162163712	40	4557
2026-01-17 14:57:11.06	222.33	43.09	-35.4	-37.0	17.8	0.00e+00	0	60	0	2169503744	40	4582
2026-01-17 14:57:12.07	222.75	43.26	-35.4	-37.0	17.8	0.00e+00	0	61	0	2175795200	40	4551
2026-01-17 14:57:13.08	223.17	43.44	-35.3	-36.9	17.8	0.00e+00	0	60	0	2183135232	40	4544
2026-01-17 14:57:14.09	223.60	43.61	-35.4	-37.0	17.7	0.00e+00	0	61	0	2190475264	40	4593
2026-01-17 14:57:15.10	224.03	43.78	-35.4	-37.0	17.7	0.00e+00	0	60	0	2197815296	40	4567
2026-01-17 14:57:16.11	224.46	43.95	-35.2	-36.8	17.8	0.00e+00	0	60	0	2205155328	40	4487
2026-01-17 14:57:17.12	224.90	44.12	-35.1	-36.7	18.0	0.00e+00	0	61	0	2212495360	40	4414
2026-01-17 14:57:18.13	225.35	44.29	-35.2	-36.9	17.8	0.00e+00	0	61	0	2219835392	40	4504
2026-01-17 14:57:19.14	225.80	44.46	-35.4	-37.0	17.7	0.00e+00	0	61	0	2227175424	40	4594
2026-01-17 14:57:20.16	226.25	44.62	-36.2	-37.4	17.6	0.00e+00	0	61	0	2234515456	41	4539
2026-01-17 14:57:21.16	226.71	44.79	-36.0	-37.2	17.9	0.00e+00	0	60	0	2241855488	41	4402
2026-01-17 14:57:22.18	227.17	44.95	-36.0	-37.2	17.9	0.00e+00	0	60	0	2249195520	41	4412
2026-01-17 14:57:23.19	227.64	45.11	-36.0	-37.2	17.9	0.00e+00	0	61	0	2256535552	41	4437
2026-01-17 14:57:24.20	228.11	45.28	-36.0	-37.2	17.9	0.00e+00	0	61	0	2263875584	41	4432
2026-01-17 14:57:25.21	228.59	45.43	-36.2	-37.4	17.7	0.00e+00	0	60	0	2271215616	41	4515
2026-01-17 14:57:26.22	229.07	45.59	-36.0	-37.2	17.9	0.00e+00	0	61	0	2278555648	41	4407
2026-01-17 14:57:27.23	229.56	45.75	-35.8	-37.0	18.1	0.00e+00	0	61	0	2285895680	41	4309
2026-01-17 14:57:28.24	230.05	45.90	-35.6	-36.8	18.3	1.10e-06	0	61	0	2293235712	41	4200
2026-01-17 14:57:29.25	230.55	46.06	-35.6	-36.7	18.4	0.00e+00	0	60	0	2300575744	41	4176
2026-01-17 14:57:30.26	231.05	46.21	-35.8	-36.9	18.2	0.00e+00	0	61	0	2307915776	41	4291
2026-01-17 14:57:31.27	231.55	46.36	-36.2	-37.4	17.7	0.00e+00	0	61	0	2315255808	42	4274
2026-01-17 14:57:32.28	232.06	46.50	-36.1	-37.4	17.7	0.00e+00	0	61	0	2322595840	42	4258
2026-01-17 14:57:33.29	232.58	46.65	-36.0	-37.1	18.0	0.00e+00	0	61	0	2328887296	42	4137
2026-01-17 14:57:34.30	233.10	46.79	-35.8	-37.0	18.1	0.00e+00	0	61	0	2336227328	42	4058
2026-01-17 14:57:35.31	233.62	46.93	-35.9	-37.1	18.0	0.00e+00	0	61	0	2344615936	42	4135
2026-01-17 14:57:36.32	234.15	47.07	-36.0	-37.2	17.9	0.00e+00	0	61	0	2350907392	42	4173
2026-01-17 14:57:37.33	234.68	47.21	-36.2	-37.4	17.7	0.00e+00	0	60	0	2358247424	42	4268
2026-01-17 14:57:38.34	235.22	47.34	-36.3	-37.5	17.6	0.00e+00	0	61	0	2365587456	42	4338
2026-01-17 14:57:39.35	235.77	47.47	-36.4	-37.7	17.5	0.00e+00	0	60	0	2372927488	42	4405
2026-01-17 14:57:40.36	236.31	47.60	-36.2	-37.5	17.7	0.00e+00	0	61	0	2380267520	42	4304
2026-01-17 14:57:41.37	236.86	47.73	-36.0	-37.2	17.9	0.00e+00	0	60	0	2387607552	42	4172
2026-01-17 14:57:42.38	237.42	47.86	-36.2	-37.4	17.7	0.00e+00	0	61	0	2394947584	42	4285
2026-01-17 14:57:43.39	237.98	47.98	-36.2	-37.5	17.7	0.00e+00	0	61	0	2402287616	42	4304
2026-01-17 14:57:44.40	238.55	48.10	-36.4	-37.7	17.5	0.00e+00	0	61	0	2409627648	42	4405
2026-01-17 14:57:45.41	239.12	48.22	-36.6	-37.8	17.3	0.00e+00	0	61	0	2416967680	42	4491
2026-01-17 14:57:46.42	239.69	48.33	-36.8	-38.2	17.0	0.00e+00	0	60	0	2424307712	43	4395
2026-01-17 14:57:47.43	240.27	48.44	-36.6	-38.0	17.2	0.00e+00	0	61	0	2431647744	43	4292
2026-01-17 14:57:48.44	240.85	48.55	-36.5	-37.8	17.3	0.00e+00	0	61	0	2438987776	43	4233
2026-01-17 14:57:49.45	241.43	48.66	-36.5	-37.8	17.3	0.00e+00	0	61	0	2446327808	43	4225
2026-01-17 14:57:50.46	242.02	48.76	-36.4	-37.7	17.4	0.00e+00	0	61	0	2453667840	43	4165
2026-01-17 14:57:51.47	242.62	48.86	-36.3	-37.6	17.6	0.00e+00	0	61	0	2461007872	43	4125
2026-01-17 14:57:52.48	243.22	48.96	-36.3	-37.6	17.5	0.00e+00	0	61	0	2468347904	43	4132
2026-01-17 14:57:53.49	243.82	49.05	-36.4	-37.6	17.5	0.00e+00	0	61	0	2474639360	43	4134
2026-01-17 14:57:54.50	244.42	49.14	-36.4	-37.7	17.4	0.00e+00	0	60	0	2481979392	43	4166
2026-01-17 14:57:55.51	245.03	49.23	-36.4	-37.7	17.4	0.00e+00	0	61	0	2490368000	43	4174
2026-01-17 14:57:56.52	245.64	49.32	-36.6	-37.9	17.3	0.00e+00	0	61	0	2496659456	43	4261
2026-01-17 14:57:57.53	246.26	49.40	-36.5	-37.8	17.3	0.00e+00	0	61	0	2503999488	43	4232
2026-01-17 14:57:58.54	246.87	49.48	-36.5	-37.8	17.3	0.00e+00	0	61	0	2511339520	43	4228
2026-01-17 14:57:59.55	247.49	49.55	-36.4	-37.7	17.4	0.00e+00	0	61	0	2518679552	43	4170
2026-01-17 14:58:00.56	248.12	49.62	-36.4	-37.6	17.5	0.00e+00	0	61	0	2526019584	43	4136
2026-01-17 14:58:01.57	248.75	49.69	-36.3	-37.5	17.6	0.00e+00	0	61	0	2533359616	43	4098
2026-01-17 14:58:02.58	249.37	49.75	-36.4	-37.7	17.4	0.00e+00	0	61	0	2540699648	43	4168
2026-01-17 14:58:03.59	250.01	49.81	-36.7	-38.0	17.1	0.00e+00	0	61	0	2548039680	43	4320
2026-01-17 14:58:04.60	250.64	49.87	-36.7	-38.0	17.2	0.00e+00	0	61	0	2555379712	43	4315
2026-01-17 14:58:05.61	251.28	49.92	-36.6	-37.9	17.3	0.00e+00	0	61	0	2562719744	43	4245
2026-01-17 14:58:06.62	251.92	49.97	-36.5	-37.7	17.4	0.00e+00	0	61	0	2570059776	43	4189
2026-01-17 14:58:07.63	252.56	50.02	-36.4	-37.7	17.4	0.00e+00	0	61	0	2577399808	43	4170
2026-01-17 14:58:08.64	253.20	50.06	-36.6	-37.8	17.3	0.00e+00	0	60	0	2584739840	43	4241
2026-01-17 14:58:09.65	253.84	50.10	-36.6	-37.9	17.2	0.00e+00	0	61	0	2592079872	43	4290
2026-01-17 14:58:10.66	254.49	50.13	-36.5	-37.8	17.3	0.00e+00	0	61	0	2599419904	43	4222
2026-01-17 14:58:11.67	255.14	50.17	-36.5	-37.8	17.4	0.00e+00	0	61	0	2606759936	43	4195
2026-01-17 14:58:12.68	255.79	50.19	-36.1	-37.4	17.8	0.00e+00	0	61	0	2614099968	43	4006
2026-01-17 14:58:13.69	256.44	50.22	-36.0	-37.2	17.9	0.00e+00	0	61	0	2621440000	42	4180
2026-01-17 14:58:14.70	257.09	50.24	-36.0	-37.2	18.0	0.00e+00	0	61	0	2627731456	42	4151
2026-01-17 14:58:15.71	257.74	50.25	-36.0	-37.2	18.0	0.00e+00	0	61	0	2636120064	42	4155
2026-01-17 14:58:16.72	258.39	50.26	-36.3	-37.5	17.6	0.00e+00	0	61	0	2643460096	42	4332
2026-01-17 14:58:17.73	259.04	50.27	-36.5	-37.8	17.3	0.00e+00	0	61	0	2649751552	42	4463
2026-01-17 14:58:18.74	259.69	50.28	-36.7	-38.0	17.2	0.00e+00	0	61	0	2657091584	42	4547
2026-01-17 14:58:19.75	260.35	50.28	-36.7	-38.0	17.1	0.00e+00	0	61	0	2664431616	43	4308
2026-01-17 14:58:20.76	261.00	50.27	-36.5	-37.8	17.4	0.00e+00	0	61	0	2671771648	43	4204
2026-01-17 14:58:21.77	261.65	50.27	-36.3	-37.6	17.5	0.00e+00	0	61	0	2679111680	43	4103
2026-01-17 14:58:22.78	262.30	50.25	-36.2	-37.4	17.7	0.00e+00	0	61	0	2686451712	43	4046
2026-01-17 14:58:23.79	262.95	50.24	-36.1	-37.3	17.9	0.00e+00	0	61	0	2693791744	43	3972
2026-01-17 14:58:24.80	263.60	50.22	-36.1	-37.3	17.7	0.00e+00	0	61	0	2701131776	43	4002
2026-01-17 14:58:25.81	264.25	50.20	-36.3	-37.6	17.6	0.00e+00	0	61	0	2708471808	43	4113
2026-01-17 14:58:26.82	264.90	50.17	-36.5	-37.7	17.4	0.00e+00	0	61	0	2715811840	43	4185
2026-01-17 14:58:27.83	265.55	50.14	-36.5	-37.8	17.4	0.00e+00	0	61	0	2723151872	43	4202
2026-01-17 14:58:28.84	266.19	50.11	-36.5	-37.8	17.3	0.00e+00	0	61	0	2730491904	43	4209
2026-01-17 14:58:29.85	266.84	50.07	-36.5	-37.8	17.4	0.00e+00	0	61	0	2737831936	43	4201
2026-01-17 14:58:30.86	267.48	50.03	-36.5	-37.8	17.4	0.00e+00	0	61	0	2745171968	43	4205
2026-01-17 14:58:31.87	268.12	49.98	-36.6	-37.8	17.3	0.00e+00	0	61	0	2752512000	43	4238
2026-01-17 14:58:32.88	268.76	49.93	-36.4	-37.7	17.4	0.00e+00	0	61	0	2759852032	43	4164
2026-01-17 14:58:33.89	269.40	49.88	-36.2	-37.5	17.7	0.00e+00	0	61	0	2767192064	43	4065
2026-01-17 14:58:34.90	270.03	49.83	-36.1	-37.3	17.8	0.00e+00	0	61	0	2773483520	43	3975
2026-01-17 14:58:35.91	270.66	49.77	-36.1	-37.3	17.9	0.00e+00	0	61	0	2781872128	42	4203
2026-01-17 14:58:36.92	271.29	49.70	-36.0	-37.2	18.0	0.00e+00	0	61	0	2789212160	42	4148
2026-01-17 14:58:37.93	271.92	49.64	-36.1	-37.4	17.8	0.00e+00	0	61	0	2795503616	42	4244
2026-01-17 14:58:38.94	272.54	49.57	-36.3	-37.6	17.5	0.00e+00	0	61	0	2802843648	42	4344
2026-01-17 14:58:39.95	273.16	49.49	-36.3	-37.6	17.6	0.00e+00	0	61	0	2810183680	42	4363
2026-01-17 14:58:40.96	273.78	49.41	-36.4	-37.6	17.5	0.00e+00	0	61	0	2817523712	42	4366
2026-01-17 14:58:41.97	274.40	49.33	-36.1	-37.3	17.8	0.00e+00	0	61	0	2824863744	42	4237
2026-01-17 14:58:42.97	275.00	49.25	-36.1	-37.3	17.9	0.00e+00	0	61	0	2832203776	42	4214
2026-01-17 14:58:43.99	275.62	49.16	-36.0	-37.2	17.9	0.00e+00	0	61	0	2839543808	42	4162
2026-01-17 14:58:44.99	276.22	49.07	-36.3	-37.5	17.6	0.00e+00	0	61	0	2846883840	42	4320
2026-01-17 14:58:46.00	276.82	48.98	-36.4	-37.6	17.5	0.00e+00	0	61	0	2854223872	42	4382
2026-01-17 14:58:47.01	277.41	48.88	-36.4	-37.7	17.5	0.00e+00	0	61	0	2861563904	42	4407
2026-01-17 14:58:48.02	278.01	48.79	-36.2	-37.4	17.7	0.00e+00	0	61	0	2868903936	42	4271
2026-01-17 14:58:49.03	278.60	48.68	-36.0	-37.2	17.9	0.00e+00	0	61	0	2876243968	42	4167
2026-01-17 14:58:50.04	279.18	48.58	-36.0	-37.2	18.0	0.00e+00	0	61	0	2883584000	42	4150
2026-01-17 14:58:51.05	279.77	48.47	-36.0	-37.2	17.9	0.00e+00	0	61	0	2890924032	42	4188
2026-01-17 14:58:52.06	280.34	48.36	-36.2	-37.5	17.7	0.00e+00	0	61	0	2898264064	42	4304
2026-01-17 14:58:53.07	280.92	48.25	-36.4	-37.7	17.4	0.00e+00	0	61	0	2905604096	42	4419
2026-01-17 14:58:54.08	281.49	48.13	-36.5	-37.8	17.4	0.00e+00	0	61	0	2912944128	42	4449
2026-01-17 14:58:55.09	282.05	48.01	-36.3	-37.6	17.4	0.00e+00	0	61	0	2920284160	42	4351
2026-01-17 14:58:56.10	282.61	47.89	-36.2	-37.4	17.7	0.00e+00	0	61	0	2926575616	42	4256
2026-01-17 14:58:57.11	283.17	47.76	-36.2	-37.5	17.7	0.00e+00	0	61	0	2934964224	42	4311
2026-01-17 14:58:58.12	283.72	47.64	-36.3	-37.6	17.6	0.00e+00	0	61	0	2942304256	42	4347
2026-01-17 14:58:59.13	284.27	47.51	-36.4	-37.6	17.5	0.00e+00	0	61	0	2948595712	42	4388
2026-01-17 14:59:00.14	284.81	47.38	-36.5	-37.8	17.4	0.00e+00	0	61	0	2955935744	42	4452
2026-01-17 14:59:01.15	285.35	47.24	-36.3	-37.6	17.5	0.00e+00	0	61	0	2963275776	42	4372
2026-01-17 14:59:02.16	285.88	47.11	-36.1	-37.3	17.8	0.00e+00	0	61	0	2970615808	42	4220
2026-01-17 14:59:03.17	286.41	46.97	-36.2	-37.4	17.7	0.00e+00	0	61	0	2977955840	42	4272
2026-01-17 14:59:04.18	286.93	46.83	-36.3	-37.6	17.6	0.00e+00	0	61	0	2985295872	42	4346
2026-01-17 14:59:05.19	287.45	46.69	-36.5	-37.8	17.4	0.00e+00	0	61	0	2992635904	42	4458
2026-01-17 14:59:06.20	287.97	46.54	-36.5	-37.8	17.4	0.00e+00	0	61	0	2999975936	42	4454
2026-01-17 14:59:07.21	288.48	46.40	-36.3	-37.5	17.6	0.00e+00	0	61	0	3007315968	42	4327
2026-01-17 14:59:08.22	288.98	46.25	-36.1	-37.3	17.8	0.00e+00	0	61	0	3014656000	42	4242
2026-01-17 14:59:09.23	289.49	46.10	-36.0	-37.1	18.0	0.00e+00	0	61	0	3021996032	42	4143
2026-01-17 14:59:10.24	289.98	45.95	-35.7	-36.8	18.3	0.00e+00	0	61	0	3029336064	42	3986
2026-01-17 14:59:11.25	290.47	45.79	-35.6	-36.7	18.4	0.00e+00	0	61	0	3036676096	42	3955
2026-01-17 14:59:12.26	290.96	45.64	-35.6	-36.8	18.3	0.00e+00	0	61	0	3044016128	42	3974
2026-01-17 14:59:13.27	291.44	45.48	-35.6	-36.8	18.3	0.00e+00	0	61	0	3051356160	42	3963
2026-01-17 14:59:14.28	291.92	45.32	-35.7	-36.9	18.2	0.00e+00	0	61	0	3058696192	42	4027
2026-01-17 14:59:15.29	292.39	45.16	-35.8	-37.0	18.1	0.00e+00	0	61	0	3066036224	42	4080
2026-01-17 14:59:16.30	292.86	45.00	-35.9	-37.1	18.0	0.00e+00	0	61	0	3072327680	42	4122
2026-01-17 14:59:17.31	293.32	44.84	-36.0	-37.2	17.9	0.00e+00	0	61	0	3080716288	42	4185
2026-01-17 14:59:18.32	293.78	44.68	-36.0	-37.2	17.9	0.00e+00	0	61	0	3088056320	42	4176
2026-01-17 14:59:19.33	294.23	44.51	-35.9	-37.1	18.0	0.00e+00	0	61	0	3094347776	42	4137
2026-01-17 14:59:20.34	294.68	44.34	-35.7	-36.9	18.2	0.00e+00	0	61	0	3101687808	42	4022
2026-01-17 14:59:21.35	295.13	44.18	-35.7	-36.8	18.3	0.00e+00	0	61	0	3109027840	42	3996
2026-01-17 14:59:22.36	295.57	44.01	-35.7	-36.9	18.2	0.00e+00	0	61	0	3116367872	42	4009
2026-01-17 14:59:23.37	296.00	43.84	-35.7	-36.9	18.2	0.00e+00	0	61	0	3123707904	42	4033
2026-01-17 14:59:24.38	296.43	43.67	-35.9	-37.0	18.1	0.00e+00	0	61	0	3131047936	42	4092
2026-01-17 14:59:25.39	296.86	43.50	-35.9	-37.1	18.0	0.00e+00	0	61	0	3138387968	42	4128
2026-01-17 14:59:26.40	297.28	43.32	-36.0	-37.2	17.9	0.00e+00	0	61	0	3145728000	42	4172
2026-01-17 14:59:27.41	297.69	43.15	-36.2	-37.4	17.7	0.00e+00	0	61	0	3153068032	42	4266
2026-01-17 14:59:28.42	298.11	42.98	-36.2	-37.4	17.7	0.00e+00	0	61	0	3160408064	42	4273
2026-01-17 14:59:29.43	298.52	42.80	-36.1	-37.3	17.8	0.00e+00	0	61	0	3167748096	42	4234
2026-01-17 14:59:30.44	298.92	42.63	-36.0	-37.2	17.9	0.00e+00	0	61	0	3175088128	42	4181
2026-01-17 14:59:31.45	299.32	42.45	-35.7	-36.9	18.2	0.00e+00	0	61	0	3182428160	42	4010
2026-01-17 14:59:32.45	299.71	42.27	-35.7	-36.9	18.2	0.00e+00	0	61	0	3189768192	42	4020
2026-01-17 14:59:33.46	300.10	42.10	-35.7	-36.8	18.3	0.00e+00	0	61	0	3197108224	42	4001
2026-01-17 14:59:34.48	300.49	41.92	-35.7	-36.8	18.3	0.00e+00	0	61	0	3204448256	42	4001
2026-01-17 14:59:35.49	300.87	41.74	-35.5	-36.6	18.4	0.00e+00	0	61	0	3211788288	42	3912
2026-01-17 14:59:36.50	301.25	41.56	-35.4	-36.5	18.5	0.00e+00	0	61	0	3219128320	41	4092
2026-01-17 14:59:37.51	301.62	41.38	-35.4	-36.5	18.6	0.00e+00	0	61	0	3226468352	41	4068
2026-01-17 14:59:38.52	301.99	41.20	-35.4	-36.6	18.5	0.00e+00	0	61	0	3233808384	41	4110
2026-01-17 14:59:39.53	302.36	41.02	-35.4	-36.5	18.5	0.00e+00	0	61	0	3241148416	41	4091
2026-01-17 14:59:40.54	302.72	40.84	-35.4	-36.5	18.5	0.00e+00	0	61	0	3247439872	41	4074
2026-01-17 14:59:41.55	303.08	40.65	-35.5	-36.6	18.4	0.00e+00	0	61	0	3254779904	41	4139
2026-01-17 14:59:42.56	303.43	40.47	-35.7	-36.8	18.2	0.00e+00	0	61	0	3263168512	41	4236
2026-01-17 14:59:43.57	303.78	40.29	-35.8	-37.0	18.1	0.00e+00	0	61	0	3269459968	41	4308
2026-01-17 14:59:44.58	304.13	40.11	-35.8	-37.0	18.1	0.00e+00	0	61	0	3276800000	41	4324
2026-01-17 14:59:45.59	304.47	39.93	-35.8	-37.0	18.1	0.00e+00	0	61	0	3284140032	41	4304
2026-01-17 14:59:46.60	304.81	39.74	-35.7	-36.9	18.2	0.00e+00	0	61	0	3291480064	41	4251
2026-01-17 14:59:47.61	305.14	39.56	-35.5	-36.7	18.4	0.00e+00	0	61	0	3298820096	41	4152
2026-01-17 14:59:48.62	305.47	39.38	-35.3	-36.5	18.6	0.00e+00	0	61	0	3306160128	41	4057
2026-01-17 14:59:49.63	305.80	39.20	-35.4	-36.5	18.5	0.00e+00	0	61	0	3313500160	41	4096
2026-01-17 14:59:50.64	306.13	39.01	-35.4	-36.6	18.4	0.00e+00	0	61	0	3320840192	41	4108
2026-01-17 14:59:51.65	306.45	38.83	-35.5	-36.6	18.4	0.00e+00	0	61	0	3328180224	41	4131
2026-01-17 14:59:52.66	306.76	38.65	-35.5	-36.6	18.3	0.00e+00	0	61	0	3335520256	41	4123
2026-01-17 14:59:53.67	307.08	38.47	-35.6	-36.8	18.2	0.00e+00	0	61	0	3342860288	41	4228
2026-01-17 14:59:54.68	307.38	38.28	-35.7	-36.9	18.1	0.00e+00	0	61	0	3350200320	41	4256
2026-01-17 14:59:55.69	307.69	38.10	-35.7	-36.9	18.1	0.00e+00	0	61	0	3357540352	41	4269
2026-01-17 14:59:56.70	307.99	37.92	-35.5	-36.7	18.4	0.00e+00	0	61	0	3364880384	41	4158
2026-01-17 14:59:57.71	308.29	37.74	-35.4	-36.5	18.6	0.00e+00	0	61	0	3372220416	41	4067
2026-01-17 14:59:58.72	308.59	37.55	-35.3	-36.5	18.6	0.00e+00	0	61	0	3379560448	41	4055
2026-01-17 14:59:59.73	308.88	37.37	-35.2	-36.4	18.7	0.00e+00	0	61	0	3386900480	41	4014
2026-01-17 15:00:00.74	309.17	37.19	-35.3	-36.5	18.6	0.00e+00	0	61	0	3393191936	41	4055
2026-01-17 15:00:01.75	309.46	37.01	-35.1	-36.2	18.8	0.00e+00	0	61	0	3400531968	41	3944
2026-01-17 15:00:02.76	309.74	36.83	-35.1	-36.2	18.8	0.00e+00	0	61	0	3408920576	41	3920
2026-01-17 15:00:03.77	310.02	36.65	-35.3	-36.4	18.5	0.00e+00	0	61	0	3415212032	40	4270
2026-01-17 15:00:04.78	310.30	36.47	-35.2	-36.4	18.7	0.00e+00	0	61	0	3422552064	40	4247
2026-01-17 15:00:05.79	310.57	36.29	-35.2	-36.3	18.6	0.00e+00	0	61	0	3429892096	40	4235
2026-01-17 15:00:06.80	310.85	36.11	-35.4	-36.5	18.5	0.00e+00	0	61	0	3437232128	40	4325
2026-01-17 15:00:07.81	311.11	35.93	-35.4	-36.6	18.4	0.00e+00	0	61	0	3444572160	40	4347
2026-01-17 15:00:08.82	311.38	35.75	-35.5	-36.6	18.4	0.00e+00	0	61	0	3451912192	40	4379
2026-01-17 15:00:09.83	311.64	35.57	-35.7	-36.9	18.2	0.00e+00	0	61	0	3459252224	40	4515
2026-01-17 15:00:10.84	311.90	35.39	-35.8	-37.0	18.1	0.00e+00	0	61	0	3466592256	41	4317
2026-01-17 15:00:11.84	312.16	35.21	-35.9	-37.1	17.9	0.00e+00	0	61	0	3473932288	41	4373
2026-01-17 15:00:12.85	312.41	35.03	-35.8	-37.0	18.0	0.00e+00	0	61	0	3481272320	41	4328
2026-01-17 15:00:13.86	312.66	34.86	-35.6	-36.7	18.2	0.00e+00	0	61	0	3488612352	41	4190
2026-01-17 15:00:14.88	312.91	34.68	-35.5	-36.7	18.3	0.00e+00	0	61	0	3495952384	41	4166
2026-01-17 15:00:15.89	313.16	34.50	-35.6	-36.7	18.3	0.00e+00	0	61	0	3503292416	41	4181
2026-01-17 15:00:16.90	313.40	34.32	-35.4	-36.5	18.5	0.00e+00	0	61	0	3510632448	41	4070
2026-01-17 15:00:17.91	313.65	34.15	-35.1	-36.2	18.8	0.00e+00	0	61	0	3517972480	41	3937
2026-01-17 15:00:18.92	313.88	33.97	-35.0	-36.1	18.9	0.00e+00	0	61	0	3525312512	40	4111
2026-01-17 15:00:19.93	314.12	33.80	-34.9	-36.0	19.0	0.00e+00	0	61	0	3532652544	40	4087
2026-01-17 15:00:20.94	314.35	33.62	-34.8	-35.8	19.1	0.00e+00	0	61	0	3539992576	40	3996
2026-01-17 15:00:21.95	314.59	33.45	-34.8	-35.9	19.1	0.00e+00	0	61	0	3546284032	40	4014
2026-01-17 15:00:22.96	314.81	33.27	-34.9	-36.0	19.0	0.00e+00	0	61	0	3554672640	40	4066
2026-01-17 15:00:23.97	315.04	33.10	-35.1	-36.2	18.8	0.00e+00	0	61	0	3562012672	40	4160
2026-01-17 15:00:24.98	315.26	32.93	-35.3	-36.4	18.5	0.00e+00	0	61	0	3568304128	40	4264
2026-01-17 15:00:25.99	315.49	32.76	-35.3	-36.4	18.6	0.00e+00	0	61	0	3575644160	40	4280
2026-01-17 15:00:27.00	315.71	32.59	-35.4	-36.5	18.5	0.00e+00	0	61	0	3582984192	40	4327
2026-01-17 15:00:28.01	315.92	32.41	-35.5	-36.6	18.4	0.00e+00	0	61	0	3590324224	40	4390
2026-01-17 15:00:29.02	316.14	32.24	-35.6	-36.8	18.2	0.00e+00	0	61	0	3597664256	40	4458
2026-01-17 15:00:30.03	316.35	32.07	-35.6	-36.8	18.2	0.00e+00	0	61	0	3605004288	40	4462
2026-01-17 15:00:31.04	316.56	31.91	-35.6	-36.8	18.2	0.00e+00	0	61	0	3612344320	40	4463
2026-01-17 15:00:32.05	316.77	31.74	-35.7	-36.9	18.1	0.00e+00	0	61	0	3619684352	40	4510
2026-01-17 15:00:33.06	316.98	31.57	-35.7	-36.9	18.0	0.00e+00	0	61	0	3627024384	41	4282
2026-01-17 15:00:34.07	317.18	31.40	-35.7	-36.9	18.1	0.00e+00	0	61	0	3634364416	41	4249
2026-01-17 15:00:35.08	317.38	31.23	-35.7	-36.9	18.1	0.00e+00	0	61	0	3641704448	41	4275
2026-01-17 15:00:36.09	317.58	31.07	-35.7	-36.9	18.1	0.00e+00	0	61	0	3649044480	41	4278
2026-01-17 15:00:37.10	317.78	30.90	-35.6	-36.8	18.2	0.00e+00	0	61	0	3656384512	41	4213
2026-01-17 15:00:38.11	317.98	30.74	-35.5	-36.7	18.3	0.00e+00	0	61	0	3663724544	41	4163
2026-01-17 15:00:39.12	318.17	30.57	-35.5	-36.7	18.3	0.00e+00	0	61	0	3671064576	41	4156
2026-01-17 15:00:40.13	318.36	30.41	-35.3	-36.4	18.5	0.00e+00	0	61	0	3678404608	41	4038
2026-01-17 15:00:41.14	318.55	30.24	-35.1	-36.2	18.7	0.00e+00	0	61	0	3685744640	41	3947
2026-01-17 15:00:42.15	318.74	30.08	-35.1	-36.2	18.7	0.00e+00	0	61	0	3692036096	41	3956
2026-01-17 15:00:43.16	318.93	29.92	-35.2	-36.3	18.7	0.00e+00	0	61	0	3700424704	41	3978
2026-01-17 15:00:44.17	319.11	29.76	-35.2	-36.3	18.6	0.00e+00	0	61	0	3707764736	41	3998
2026-01-17 15:00:45.18	319.30	29.60	-35.3	-36.5	18.5	0.00e+00	0	61	0	3714056192	41	4067
2026-01-17 15:00:46.19	319.48	29.44	-35.5	-36.6	18.3	0.00e+00	0	61	0	3721396224	41	4129
2026-01-17 15:00:47.20	319.66	29.28	-35.5	-36.6	18.4	0.00e+00	0	61	0	3728736256	41	4125
2026-01-17 15:00:48.21	319.83	29.12	-35.4	-36.6	18.3	0.00e+00	0	61	0	3736076288	41	4117
2026-01-17 15:00:49.22	320.01	28.96	-35.5	-36.6	18.3	0.00e+00	0	61	0	3743416320	41	4138
2026-01-17 15:00:50.23	320.19	28.80	-35.5	-36.7	18.2	0.00e+00	0	61	0	3750756352	41	4182
2026-01-17 15:00:51.24	320.36	28.64	-35.6	-36.8	18.2	0.00e+00	0	61	0	3758096384	41	4201
2026-01-17 15:00:52.25	320.53	28.49	-35.5	-36.7	18.3	0.00e+00	0	61	0	3765436416	41	4150
2026-01-17 15:00:53.26	320.70	28.33	-35.5	-36.7	18.3	0.00e+00	0	61	0	3772776448	41	4156
2026-01-17 15:00:54.27	320.87	28.18	-35.6	-36.8	18.2	0.00e+00	0	61	0	3780116480	41	4194
2026-01-17 15:00:55.28	321.03	28.02	-35.6	-36.8	18.2	0.00e+00	0	61	0	3787456512	41	4219
2026-01-17 15:00:56.29	321.20	27.87	-35.7	-36.9	18.1	0.00e+00	0	61	0	3794796544	41	4246
2026-01-17 15:00:57.30	321.36	27.71	-35.7	-36.8	18.1	0.00e+00	0	61	0	3802136576	41	4238
2026-01-17 15:00:58.31	321.52	27.56	-35.7	-36.9	18.0	0.00e+00	0	61	0	3809476608	41	4278
2026-01-17 15:00:59.33	321.68	27.41	-35.8	-37.0	18.0	0.00e+00	0	61	0	3816816640	41	4300
2026-01-17 15:01:00.34	321.84	27.25	-35.6	-36.8	18.1	0.00e+00	0	61	0	3824156672	41	4229
2026-01-17 15:01:01.34	322.00	27.10	-35.5	-36.7	18.2	0.00e+00	0	61	0	3831496704	41	4188
2026-01-17 15:01:02.36	322.16	26.95	-35.6	-36.7	18.2	0.00e+00	0	61	0	3838836736	41	4178
2026-01-17 15:01:03.37	322.31	26.80	-35.5	-36.7	18.2	0.00e+00	0	61	0	3846176768	41	4151
2026-01-17 15:01:04.37	322.46	26.65	-35.5	-36.7	18.2	0.00e+00	0	61	0	3853516800	41	4176
2026-01-17 15:01:05.39	322.62	26.50	-35.6	-36.7	18.2	0.00e+00	0	61	0	3860856832	41	4183
2026-01-17 15:01:06.40	322.77	26.36	-35.5	-36.7	18.2	0.00e+00	0	61	0	3867148288	41	4162
2026-01-17 15:01:07.41	322.91	26.21	-35.6	-36.7	18.2	0.00e+00	0	61	0	3875536896	41	4186
2026-01-17 15:01:08.42	323.06	26.06	-35.5	-36.7	18.2	0.00e+00	0	61	0	3882876928	41	4186
2026-01-17 15:01:09.43	323.21	25.92	-35.6	-36.8	18.1	0.00e+00	0	61	0	3889168384	41	4211
2026-01-17 15:01:10.44	323.35	25.77	-35.7	-36.9	18.0	0.00e+00	0	61	0	3896508416	41	4261
2026-01-17 15:01:11.45	323.50	25.63	-35.6	-36.8	18.0	0.00e+00	0	61	0	3903848448	41	4235
2026-01-17 15:01:12.46	323.64	25.48	-35.7	-36.9	18.0	0.00e+00	0	61	0	3911188480	41	4257
2026-01-17 15:01:13.46	323.78	25.34	-35.7	-36.9	18.0	0.00e+00	0	61	0	3918528512	41	4261
2026-01-17 15:01:14.47	323.92	25.20	-35.7	-36.9	18.0	0.00e+00	0	61	0	3925868544	41	4276
2026-01-17 15:01:15.48	324.06	25.05	-35.8	-37.0	17.8	0.00e+00	0	61	0	3933208576	41	4323
2026-01-17 15:01:16.50	324.20	24.91	-35.8	-37.0	17.9	0.00e+00	0	61	0	3940548608	41	4314
2026-01-17 15:01:17.50	324.33	24.77	-35.7	-36.9	17.9	0.00e+00	0	61	0	3947888640	41	4276
2026-01-17 15:01:18.51	324.47	24.63	-35.7	-36.9	18.0	0.00e+00	0	61	0	3955228672	41	4257
2026-01-17 15:01:19.52	324.60	24.49	-35.6	-36.8	18.0	0.00e+00	0	61	0	3962568704	41	4225
2026-01-17 15:01:20.53	324.73	24.35	-35.7	-36.9	18.0	0.00e+00	0	61	0	3969908736	41	4264
2026-01-17 15:01:21.54	324.86	24.21	-35.7	-36.9	17.9	0.00e+00	0	61	0	3977248768	41	4279
2026-01-17 15:01:22.55	325.00	24.07	-35.7	-36.9	18.0	0.00e+00	0	61	0	3984588800	41	4252
2026-01-17 15:01:23.56	325.12	23.93	-35.7	-36.9	18.0	0.00e+00	0	61	0	3991928832	41	4279
2026-01-17 15:01:24.57	325.25	23.80	-35.8	-37.0	17.8	0.00e+00	0	61	0	3999268864	41	4303
2026-01-17 15:01:25.58	325.38	23.66	-35.7	-36.9	17.9	0.00e+00	0	61	0	4006608896	41	4274
2026-01-17 15:01:26.59	325.51	23.52	-35.7	-36.9	17.9	0.00e+00	0	61	0	4012900352	41	4287
2026-01-17 15:01:27.60	325.63	23.39	-35.7	-36.9	17.9	0.00e+00	0	61	0	4020240384	41	4277
2026-01-17 15:01:28.61	325.76	23.25	-35.8	-37.0	17.9	0.00e+00	0	61	0	4028628992	41	4300
2026-01-17 15:01:29.62	325.88	23.12	-35.6	-36.8	17.9	0.00e+00	0	61	0	4034920448	41	4230
2026-01-17 15:01:30.63	326.00	22.99	-35.8	-37.0	17.9	0.00e+00	0	61	0	4042260480	41	4294
2026-01-17 15:01:31.64	326.12	22.85	-35.8	-37.0	17.8	0.00e+00	0	61	0	4049600512	41	4310
2026-01-17 15:01:32.65	326.24	22.72	-35.8	-37.0	17.8	0.00e+00	0	61	0	4056940544	41	4339
2026-01-17 15:01:33.66	326.36	22.59	-35.8	-37.0	17.9	0.00e+00	0	61	0	4064280576	41	4298
2026-01-17 15:01:34.67	326.48	22.46	-35.7	-36.9	17.9	0.00e+00	0	61	0	4071620608	41	4271
2026-01-17 15:01:35.68	326.60	22.33	-35.8	-37.0	17.8	0.00e+00	0	61	0	4078960640	41	4301
2026-01-17 15:01:36.69	326.71	22.20	-35.8	-37.1	17.6	0.00e+00	0	61	0	4086300672	41	4351
2026-01-17 15:01:37.70	326.83	22.07	-35.9	-37.1	17.7	0.00e+00	0	61	0	4093640704	41	4372
2026-01-17 15:01:38.71	326.94	21.94	-35.9	-37.1	17.6	0.00e+00	0	61	0	4100980736	41	4375
2026-01-17 15:01:39.72	327.06	21.81	-35.9	-37.2	17.6	0.00e+00	0	61	0	4108320768	41	4400
2026-01-17 15:01:40.73	327.17	21.68	-36.0	-37.3	17.5	0.00e+00	0	61	0	4115660800	41	4454
2026-01-17 15:01:41.74	327.28	21.55	-36.1	-37.4	17.4	0.00e+00	0	61	0	4123000832	41	4494
2026-01-17 15:01:42.75	327.39	21.43	-36.1	-37.4	17.4	0.00e+00	0	61	0	4130340864	41	4529
2026-01-17 15:01:43.76	327.50	21.30	-36.1	-37.4	17.4	0.00e+00	0	61	0	4137680896	41	4516
2026-01-17 15:01:44.77	327.61	21.17	-36.2	-37.4	17.3	0.00e+00	0	61	0	4145020928	41	4541
2026-01-17 15:01:45.78	327.72	21.05	-36.1	-37.4	17.3	0.00e+00	0	61	0	4152360960	41	4535
2026-01-17 15:01:46.78	327.82	20.92	-36.2	-37.5	17.3	0.00e+00	0	61	0	4159700992	41	4551
2026-01-17 15:01:47.79	327.93	20.80	-36.2	-37.5	17.3	0.00e+00	0	61	0	4165992448	42	4303
2026-01-17 15:01:48.81	328.04	20.67	-36.2	-37.5	17.3	0.00e+00	0	61	0	4174381056	42	4321
2026-01-17 15:01:49.82	328.14	20.55	-36.3	-37.6	17.2	0.00e+00	0	61	0	4181721088	42	4355
2026-01-17 15:01:50.83	328.25	20.43	-36.3	-37.5	17.2	0.00e+00	0	61	0	4188012544	42	4340
2026-01-17 15:01:51.84	328.35	20.31	-36.3	-37.5	17.2	0.00e+00	0	61	0	4195352576	42	4337
2026-01-17 15:01:52.85	328.45	20.18	-36.3	-37.6	17.1	0.00e+00	0	61	0	4202692608	42	4373
2026-01-17 15:01:53.85	328.55	20.06	-36.4	-37.7	17.1	0.00e+00	0	61	0	4210032640	42	4401
2026-01-17 15:01:54.87	328.66	19.94	-36.5	-37.8	16.9	0.00e+00	0	61	0	4217372672	42	4463
2026-01-17 15:01:55.88	328.76	19.82	-36.5	-37.8	16.9	0.00e+00	0	61	0	4224712704	42	4462
2026-01-17 15:01:56.89	328.86	19.70	-36.5	-37.9	16.9	0.00e+00	0	61	0	4232052736	42	4494
2026-01-17 15:01:57.90	328.95	19.58	-36.6	-37.9	16.8	0.00e+00	0	61	0	4239392768	42	4528
2026-01-17 15:01:58.91	329.05	19.46	-36.6	-37.9	16.8	0.00e+00	0	61	0	4246732800	42	4517
2026-01-17 15:01:59.92	329.15	19.35	-36.6	-38.0	16.8	0.00e+00	0	61	0	4254072832	42	4551
2026-01-17 15:02:00.93	329.25	19.23	-36.6	-38.0	16.7	0.00e+00	0	61	0	4261412864	42	4569
2026-01-17 15:02:01.94	329.34	19.11	-36.4	-37.8	16.9	0.00e+00	0	61	0	4268752896	42	4446
2026-01-17 15:02:02.95	329.44	18.99	-36.3	-37.6	17.1	0.00e+00	0	61	0	4276092928	42	4384
2026-01-17 15:02:03.96	329.53	18.88	-36.3	-37.7	17.0	0.00e+00	0	61	0	4283432960	42	4396
2026-01-17 15:02:04.97	329.63	18.76	-36.4	-37.8	16.9	0.00e+00	0	61	0	4290772992	42	4457
2026-01-17 15:02:05.98	329.72	18.65	-36.5	-37.8	16.8	0.00e+00	0	61	0	4298113024	42	4493
2026-01-17 15:02:06.99	329.81	18.53	-36.4	-37.8	16.9	0.00e+00	0	61	0	4305453056	42	4442
2026-01-17 15:02:08.00	329.90	18.42	-36.4	-37.7	16.9	0.00e+00	0	61	0	4311744512	42	4416
2026-01-17 15:02:09.01	329.99	18.30	-36.5	-37.8	16.8	0.00e+00	0	61	0	4320133120	42	4469
2026-01-17 15:02:10.02	330.08	18.19	-36.4	-37.7	16.9	0.00e+00	0	61	0	4327473152	42	4409
2026-01-17 15:02:11.03	330.17	18.08	-36.4	-37.7	16.9	0.00e+00	0	61	0	4333764608	42	4435
2026-01-17 15:02:12.04	330.26	17.96	-36.5	-37.9	16.8	0.00e+00	0	61	0	4341104640	42	4495
2026-01-17 15:02:13.05	330.35	17.85	-36.5	-37.8	16.9	0.00e+00	0	61	0	4348444672	42	4468
2026-01-17 15:02:14.06	330.44	17.74	-36.5	-37.8	16.8	0.00e+00	0	61	0	4355784704	42	4484
2026-01-17 15:02:15.07	330.53	17.63	-36.5	-37.9	16.7	0.00e+00	0	61	0	4363124736	42	4502
2026-01-17 15:02:16.08	330.61	17.52	-36.5	-37.9	16.7	0.00e+00	0	61	0	4370464768	42	4524
2026-01-17 15:02:17.08	330.70	17.41	-36.6	-38.0	16.6	0.00e+00	0	61	0	4377804800	42	4567
2026-01-17 15:02:18.09	330.78	17.30	-36.6	-38.0	16.6	0.00e+00	0	61	0	4385144832	42	4569
2026-01-17 15:02:19.11	330.87	17.19	-36.7	-38.1	16.5	0.00e+00	0	61	0	4392484864	42	4600
2026-01-17 15:02:20.12	330.95	17.08	-36.7	-38.1	16.4	0.00e+00	0	61	0	4399824896	43	4391
2026-01-17 15:02:21.13	331.04	16.97	-36.8	-38.3	16.3	0.00e+00	0	61	0	4407164928	43	4443
2026-01-17 15:02:22.13	331.12	16.86	-36.8	-38.2	16.4	0.00e+00	0	61	0	4414504960	43	4416
2026-01-17 15:02:23.14	331.20	16.75	-36.8	-38.2	16.4	0.00e+00	0	61	0	4421844992	43	4394
2026-01-17 15:02:24.15	331.29	16.65	-36.7	-38.1	16.5	0.00e+00	0	61	0	4429185024	43	4372
2026-01-17 15:02:25.16	331.37	16.54	-36.8	-38.2	16.3	0.00e+00	0	61	0	4436525056	43	4417
2026-01-17 15:02:26.17	331.45	16.43	-36.8	-38.2	16.3	0.00e+00	0	61	0	4443865088	43	4400
2026-01-17 15:02:27.18	331.53	16.33	-36.8	-38.2	16.3	0.00e+00	0	61	0	4451205120	43	4439
2026-01-17 15:02:28.19	331.61	16.22	-36.8	-38.2	16.2	0.00e+00	0	61	0	4458545152	43	4430
2026-01-17 15:02:29.20	331.69	16.12	-36.8	-38.3	16.2	0.00e+00	0	61	0	4464836608	43	4448
2026-01-17 15:02:30.21	331.77	16.01	-36.8	-38.2	16.2	0.00e+00	0	61	0	4473225216	43	4435
2026-01-17 15:02:31.22	331.85	15.91	-36.8	-38.2	16.2	0.00e+00	0	61	0	4480565248	43	4440
2026-01-17 15:02:32.23	331.92	15.80	-36.9	-38.3	16.1	0.00e+00	0	61	0	4486856704	43	4479
2026-01-17 15:02:33.24	332.00	15.70	-36.9	-38.4	16.1	0.00e+00	0	61	0	4494196736	43	4498
2026-01-17 15:02:34.25	332.08	15.60	-36.9	-38.4	16.1	0.00e+00	0	61	0	4501536768	43	4509
2026-01-17 15:02:35.26	332.15	15.49	-37.0	-38.5	16.0	0.00e+00	0	61	0	4508876800	43	4566
2026-01-17 15:02:36.27	332.23	15.39	-37.0	-38.5	15.9	0.00e+00	0	61	0	4516216832	43	4564
2026-01-17 15:02:37.28	332.31	15.29	-37.0	-38.4	16.0	0.00e+00	0	61	0	4523556864	43	4541
2026-01-17 15:02:38.29	332.38	15.19	-37.1	-38.6	15.8	0.00e+00	0	61	0	4530896896	43	4612
2026-01-17 15:02:39.30	332.45	15.09	-37.0	-38.5	15.9	0.00e+00	0	61	0	4538236928	43	4579
2026-01-17 15:02:40.31	332.53	14.99	-37.1	-38.6	15.8	0.00e+00	0	61	0	4545576960	43	4622
2026-01-17 15:02:41.32	332.60	14.88	-37.2	-38.7	15.7	0.00e+00	0	61	0	4552916992	43	4671
2026-01-17 15:02:42.33	332.67	14.78	-37.2	-38.7	15.7	0.00e+00	0	61	0	4560257024	43	4653
2026-01-17 15:02:43.34	332.75	14.68	-37.4	-38.9	15.6	0.00e+00	0	61	0	4567597056	44	4539
2026-01-17 15:02:44.35	332.82	14.59	-37.4	-38.9	15.6	0.00e+00	0	61	0	4574937088	44	4537
2026-01-17 15:02:45.36	332.89	14.49	-37.4	-38.9	15.6	0.00e+00	0	61	0	4582277120	44	4542
