passes_logs/2026/01/17/R2.0S_Moscow/R2.0S_Moscow__20260117_013549_FENGYUN_3D_rec.log

#Pass ID: 20260117_013549_FENGYUN 3D
#Satellite: FENGYUN 3D
#Configuration: FENGYUN 3D
#almurnet v.1.7.20251203
#Start time: 2026-01-17 01:35:48

#Version: 2.2.20231116
#Station: R2.0S_Moscow
#Location: 37.707566 lon 55.798166 lat
#TLE: 1 43010U 17072A   26016.27214855  .00000192  00000+0  11235-3 0  9990
#TLE: 2 43010  98.9932 348.1078 0002365 105.5031 254.6406 14.19695933423435

#Time	Az	El	Level	Level2	SNR	BER	BlckErr	Temp	State	Recorded	gain1	gain2
2026-01-17 01:35:48.56	17.31	1.97	-41.6	-53.8	3.8	8.46e-01	0	51	0	0	55	14183
2026-01-17 01:35:49.58	17.32	2.04	-41.6	-53.8	3.8	8.45e-01	0	51	104	0	53	15891
2026-01-17 01:35:50.59	17.33	2.10	-41.5	-53.8	3.8	8.46e-01	0	51	104	0	53	15889
2026-01-17 01:35:51.60	17.34	2.17	-41.6	-53.8	3.8	8.47e-01	0	51	104	0	53	15888
2026-01-17 01:35:52.61	17.36	2.23	-41.5	-53.8	3.8	8.46e-01	0	51	104	0	53	15852
2026-01-17 01:35:53.62	17.37	2.30	-41.5	-53.8	3.8	8.47e-01	0	52	104	0	53	15855
2026-01-17 01:35:54.63	17.38	2.36	-41.5	-53.8	3.8	8.45e-01	0	52	104	0	53	15845
2026-01-17 01:35:55.65	17.39	2.43	-41.5	-53.8	3.8	8.45e-01	0	52	104	0	53	15902
2026-01-17 01:35:56.66	17.40	2.49	-41.5	-53.8	3.8	8.46e-01	0	52	104	0	53	15789
2026-01-17 01:35:57.67	17.41	2.56	-41.5	-53.8	3.8	8.46e-01	0	52	104	0	53	15875
2026-01-17 01:35:58.68	17.42	2.62	-41.5	-53.8	3.8	8.47e-01	0	52	104	0	53	15897
2026-01-17 01:35:59.69	17.44	2.69	-41.6	-53.8	3.8	8.46e-01	0	52	104	0	53	15861
2026-01-17 01:36:00.70	17.45	2.75	-41.5	-53.8	3.8	8.47e-01	0	52	104	0	53	15844
2026-01-17 01:36:01.71	17.46	2.82	-41.5	-53.8	3.8	8.46e-01	0	52	104	0	53	15857
2026-01-17 01:36:02.72	17.47	2.89	-41.5	-53.8	3.8	8.46e-01	0	52	104	0	53	15860
2026-01-17 01:36:03.73	17.48	2.95	-41.5	-53.8	3.8	8.46e-01	0	53	104	0	53	15820
2026-01-17 01:36:04.74	17.49	3.02	-41.5	-53.8	3.8	8.46e-01	0	52	104	0	53	15846
2026-01-17 01:36:05.75	17.50	3.09	-41.5	-53.8	3.8	8.46e-01	0	52	104	0	53	15902
2026-01-17 01:36:06.77	17.52	3.15	-41.5	-53.8	3.8	8.46e-01	0	53	104	0	53	15876
2026-01-17 01:36:07.78	17.53	3.22	-41.5	-53.8	3.8	8.47e-01	0	53	104	0	53	15865
2026-01-17 01:36:08.79	17.54	3.29	-41.5	-53.8	3.8	8.46e-01	0	53	104	0	53	15838
2026-01-17 01:36:09.80	17.55	3.36	-41.5	-53.8	3.8	8.46e-01	0	53	104	0	53	15839
2026-01-17 01:36:10.81	17.56	3.42	-41.5	-53.8	3.8	8.45e-01	0	53	104	0	53	15864
2026-01-17 01:36:11.82	17.58	3.49	-41.5	-53.8	3.8	8.45e-01	0	53	104	0	53	15845
2026-01-17 01:36:12.83	17.59	3.56	-41.5	-53.8	3.8	8.45e-01	0	53	104	0	53	15854
2026-01-17 01:36:13.84	17.60	3.63	-41.5	-53.8	3.8	8.46e-01	0	53	104	0	53	15851
2026-01-17 01:36:14.85	17.61	3.69	-41.5	-53.8	3.8	8.46e-01	0	53	104	0	53	15782
2026-01-17 01:36:15.87	17.62	3.76	-41.5	-53.8	3.8	8.46e-01	0	53	104	0	53	15855
2026-01-17 01:36:16.88	17.64	3.83	-41.5	-53.8	3.8	8.46e-01	0	53	104	0	53	15851
2026-01-17 01:36:17.89	17.65	3.90	-41.5	-53.8	3.8	8.45e-01	0	54	104	0	53	15822
2026-01-17 01:36:18.90	17.66	3.97	-41.5	-53.8	3.8	8.47e-01	0	53	104	0	53	15824
2026-01-17 01:36:19.91	17.67	4.04	-41.5	-53.8	3.8	8.46e-01	0	54	104	0	53	15782
2026-01-17 01:36:20.92	17.68	4.11	-41.5	-53.8	3.8	8.45e-01	0	54	104	0	53	15851
2026-01-17 01:36:21.93	17.70	4.18	-41.5	-53.8	3.8	8.46e-01	0	54	104	0	53	15852
2026-01-17 01:36:22.94	17.71	4.25	-41.5	-53.8	3.8	8.46e-01	0	54	104	0	53	15856
2026-01-17 01:36:23.95	17.72	4.32	-41.5	-53.8	3.8	8.46e-01	0	54	104	0	53	15881
2026-01-17 01:36:24.96	17.73	4.39	-41.5	-53.8	3.8	8.46e-01	0	54	104	0	53	15868
2026-01-17 01:36:25.97	17.74	4.46	-41.5	-53.8	3.8	8.47e-01	0	54	104	0	53	15859
2026-01-17 01:36:26.98	17.76	4.53	-41.5	-53.8	3.8	8.47e-01	0	54	104	0	53	15810
2026-01-17 01:36:27.99	17.77	4.60	-41.5	-53.8	3.8	8.46e-01	0	54	104	0	53	15878
2026-01-17 01:36:29.00	17.78	4.67	-41.5	-53.8	3.8	8.47e-01	0	54	104	0	53	15813
2026-01-17 01:36:30.02	17.79	4.74	-41.5	-53.8	3.8	8.46e-01	0	54	104	0	53	15806
2026-01-17 01:36:31.03	17.81	4.81	-41.5	-53.8	3.8	8.47e-01	0	54	104	0	53	15853
2026-01-17 01:36:32.04	17.82	4.88	-41.5	-53.8	3.8	8.47e-01	0	54	104	0	53	15798
2026-01-17 01:36:33.05	17.83	4.95	-41.5	-53.7	3.8	8.46e-01	0	54	104	0	53	15756
2026-01-17 01:36:34.06	17.84	5.02	-41.5	-53.8	3.8	8.47e-01	0	55	104	0	53	15832
2026-01-17 01:36:35.07	17.86	5.10	-41.5	-53.8	3.8	8.46e-01	0	54	104	0	53	15782
2026-01-17 01:36:36.08	17.87	5.17	-41.5	-53.8	3.8	8.46e-01	0	54	104	0	53	15825
2026-01-17 01:36:37.09	17.88	5.24	-41.5	-53.8	3.8	8.46e-01	0	55	104	0	53	15835
2026-01-17 01:36:38.10	17.90	5.31	-41.5	-53.8	3.8	8.45e-01	0	55	104	0	53	15856
2026-01-17 01:36:39.12	17.91	5.39	-41.5	-53.8	3.8	8.47e-01	0	55	104	0	53	15850
2026-01-17 01:36:40.13	17.92	5.46	-41.5	-53.8	3.8	8.45e-01	0	55	104	0	53	15797
2026-01-17 01:36:41.14	17.93	5.53	-41.5	-53.8	3.8	8.46e-01	0	55	104	0	53	15783
2026-01-17 01:36:42.15	17.95	5.60	-41.5	-53.8	3.8	8.45e-01	0	55	104	0	53	15803
2026-01-17 01:36:43.16	17.96	5.68	-41.5	-53.8	3.8	8.48e-01	0	55	104	0	53	15830
2026-01-17 01:36:44.17	17.97	5.75	-41.5	-53.8	3.8	8.45e-01	0	55	104	0	53	15799
2026-01-17 01:36:45.18	17.99	5.83	-41.5	-53.8	3.8	8.46e-01	0	55	104	0	53	15768
2026-01-17 01:36:46.19	18.00	5.90	-41.5	-53.8	3.8	8.46e-01	0	55	104	0	53	15780
2026-01-17 01:36:47.20	18.01	5.97	-41.5	-53.8	3.8	8.46e-01	0	55	104	0	53	15797
2026-01-17 01:36:48.21	18.03	6.05	-41.5	-53.7	3.8	8.47e-01	0	55	104	0	53	15750
2026-01-17 01:36:49.22	18.04	6.12	-41.5	-53.7	3.8	8.46e-01	0	55	104	0	53	15707
2026-01-17 01:36:50.23	18.05	6.20	-41.5	-53.7	3.8	8.47e-01	0	55	104	0	53	15730
2026-01-17 01:36:51.25	18.07	6.27	-41.5	-53.7	3.8	8.46e-01	0	55	104	0	53	15704
2026-01-17 01:36:52.26	18.08	6.35	-41.5	-53.8	3.8	8.46e-01	0	56	104	0	53	15774
2026-01-17 01:36:53.27	18.09	6.42	-41.5	-53.7	3.8	8.46e-01	0	55	104	0	53	15760
2026-01-17 01:36:54.28	18.11	6.50	-41.5	-53.7	3.8	8.47e-01	0	55	104	0	53	15744
2026-01-17 01:36:55.29	18.12	6.58	-41.5	-53.7	3.8	8.47e-01	0	55	104	0	53	15683
2026-01-17 01:36:56.30	18.13	6.65	-41.5	-53.7	3.8	8.46e-01	0	56	104	0	53	15631
2026-01-17 01:36:57.31	18.15	6.73	-41.5	-53.7	3.8	8.45e-01	0	56	104	0	53	15619
2026-01-17 01:36:58.32	18.16	6.80	-41.5	-53.6	3.8	8.46e-01	0	56	104	0	53	15540
2026-01-17 01:36:59.33	18.17	6.88	-41.5	-53.6	3.8	8.45e-01	0	56	104	0	53	15461
2026-01-17 01:37:00.34	18.19	6.96	-41.5	-53.5	3.8	8.46e-01	0	56	104	0	53	15380
2026-01-17 01:37:01.35	18.20	7.04	-41.5	-53.6	3.8	8.47e-01	0	56	104	0	53	15432
2026-01-17 01:37:02.37	18.22	7.11	-41.5	-53.5	3.8	8.46e-01	0	56	104	0	53	15392
2026-01-17 01:37:03.38	18.23	7.19	-41.5	-53.5	3.8	8.47e-01	0	56	104	0	53	15397
2026-01-17 01:37:04.38	18.24	7.27	-41.5	-53.5	3.8	8.45e-01	0	56	104	0	53	15320
2026-01-17 01:37:05.39	18.26	7.35	-41.5	-53.3	3.8	8.47e-01	0	56	104	0	53	14987
2026-01-17 01:37:06.41	18.27	7.43	-41.4	-53.0	3.8	8.45e-01	0	56	104	0	53	14488
2026-01-17 01:37:07.42	18.29	7.51	-41.4	-52.5	3.8	8.46e-01	0	56	104	0	53	13643
2026-01-17 01:37:08.43	18.30	7.58	-41.3	-51.7	3.9	8.45e-01	0	56	104	0	53	12416
2026-01-17 01:37:09.44	18.32	7.66	-41.2	-50.4	4.1	8.43e-01	0	56	0	0	53	10763
2026-01-17 01:37:10.45	18.33	7.74	-41.0	-49.2	4.5	8.30e-01	0	56	0	0	53	9363
2026-01-17 01:37:11.46	18.34	7.82	-40.7	-48.0	5.1	7.74e-01	0	56	0	0	53	8131
2026-01-17 01:37:12.47	18.36	7.90	-40.4	-46.8	6.0	5.18e-01	0	56	0	2097152	52	7458
2026-01-17 01:37:13.48	18.37	7.98	-40.0	-45.5	7.0	2.11e-01	0	56	0	8388608	52	6448
2026-01-17 01:37:14.49	18.39	8.06	-40.0	-44.7	8.2	9.40e-02	0	57	0	13631488	51	6208
2026-01-17 01:37:15.50	18.40	8.14	-41.5	-49.3	4.7	8.05e-01	0	56	0	15728640	54	8918
2026-01-17 01:37:16.51	18.42	8.23	-39.1	-42.8	9.7	8.19e-01	0	56	0	15728640	50	5338
2026-01-17 01:37:17.52	18.43	8.31	-39.4	-42.5	11.2	3.13e-03	0	57	0	20971520	49	5408
2026-01-17 01:37:18.53	18.45	8.39	-38.4	-41.1	12.3	2.62e-02	0	56	0	27262976	48	4920
2026-01-17 01:37:19.54	18.46	8.47	-39.9	-44.5	8.0	4.27e-01	0	56	0	30408704	51	6096
2026-01-17 01:37:20.55	18.48	8.55	-39.0	-41.8	11.6	6.79e-04	0	57	0	36700160	49	5040
2026-01-17 01:37:21.56	18.49	8.63	-39.1	-42.0	11.5	8.91e-04	0	57	0	41943040	49	5122
2026-01-17 01:37:22.57	18.51	8.72	-39.2	-42.1	11.5	1.51e-03	0	57	0	48234496	49	5173
2026-01-17 01:37:23.58	18.52	8.80	-39.2	-42.1	11.6	1.08e-03	0	57	0	53477376	49	5174
2026-01-17 01:37:24.59	18.54	8.88	-39.1	-41.8	11.9	6.44e-04	0	57	0	58720256	49	5040
2026-01-17 01:37:25.60	18.55	8.97	-39.1	-41.9	11.8	7.67e-04	0	57	0	65011712	49	5082
2026-01-17 01:37:26.61	18.57	9.05	-39.0	-41.6	12.2	3.86e-04	0	57	0	70254592	49	4915
2026-01-17 01:37:27.62	18.58	9.13	-39.0	-41.7	12.1	3.52e-04	0	57	0	76546048	49	4954
2026-01-17 01:37:28.63	18.60	9.22	-39.2	-41.9	12.0	5.76e-04	0	57	0	81788928	49	5082
2026-01-17 01:37:29.64	18.61	9.30	-39.0	-41.7	12.2	3.97e-04	0	57	0	88080384	49	4956
2026-01-17 01:37:30.65	18.63	9.39	-39.3	-42.0	12.0	3.46e-04	0	57	0	93323264	49	5130
2026-01-17 01:37:31.66	18.64	9.47	-39.3	-42.1	11.9	6.45e-04	0	57	0	98566144	49	5187
2026-01-17 01:37:32.67	18.66	9.56	-39.1	-41.8	12.2	2.83e-04	0	57	0	104857600	49	5011
2026-01-17 01:37:33.68	18.67	9.64	-39.1	-41.6	12.5	2.08e-04	0	57	0	110100480	49	4912
2026-01-17 01:37:34.69	18.69	9.73	-39.4	-42.1	12.0	3.84e-04	0	57	0	116391936	49	5187
2026-01-17 01:37:35.70	18.71	9.82	-38.9	-41.4	12.8	1.20e-04	0	57	0	121634816	49	4760
2026-01-17 01:37:36.71	18.72	9.90	-39.0	-41.5	12.7	7.20e-05	0	57	0	126877696	49	4831
2026-01-17 01:37:37.72	18.74	9.99	-38.9	-41.2	13.1	9.04e-05	0	57	0	133169152	49	4682
2026-01-17 01:37:38.73	18.75	10.08	-39.1	-41.6	12.8	9.26e-05	0	57	0	138412032	49	4876
2026-01-17 01:37:39.74	18.77	10.17	-39.0	-41.4	12.9	1.05e-04	0	57	0	144703488	49	4803
2026-01-17 01:37:40.75	18.79	10.25	-39.2	-41.7	12.7	1.13e-04	0	57	0	149946368	49	4947
2026-01-17 01:37:41.76	18.80	10.34	-39.0	-41.4	13.0	6.40e-05	0	57	0	155189248	49	4787
2026-01-17 01:37:42.77	18.82	10.43	-39.0	-41.3	13.1	6.29e-05	0	57	0	161480704	49	4748
2026-01-17 01:37:43.78	18.84	10.52	-39.0	-41.4	13.1	4.23e-05	0	57	0	166723584	49	4767
2026-01-17 01:37:44.79	18.85	10.61	-38.9	-41.3	13.2	4.23e-05	0	57	0	173015040	49	4706
2026-01-17 01:37:45.80	18.87	10.70	-38.9	-41.1	13.3	4.11e-05	0	57	0	178257920	49	4648
2026-01-17 01:37:46.81	18.89	10.79	-39.0	-41.4	13.1	4.69e-05	0	57	0	184549376	49	4766
2026-01-17 01:37:47.82	18.90	10.88	-38.8	-41.1	13.4	3.08e-05	0	57	0	189792256	49	4601
2026-01-17 01:37:48.83	18.92	10.97	-38.8	-41.1	13.4	1.94e-05	0	57	0	196083712	49	4600
2026-01-17 01:37:49.84	18.94	11.06	-38.8	-41.1	13.5	1.60e-05	0	58	0	201326592	49	4599
2026-01-17 01:37:50.85	18.95	11.15	-38.8	-41.1	13.5	2.17e-05	0	58	0	206569472	49	4611
2026-01-17 01:37:51.86	18.97	11.24	-38.9	-41.1	13.4	2.97e-05	0	57	0	212860928	49	4641
2026-01-17 01:37:52.87	18.99	11.33	-38.8	-41.0	13.6	1.94e-05	0	58	0	218103808	49	4570
2026-01-17 01:37:53.88	19.00	11.42	-38.9	-41.1	13.5	1.83e-05	0	58	0	224395264	49	4621
2026-01-17 01:37:54.89	19.02	11.52	-38.8	-41.0	13.6	1.14e-05	0	58	0	229638144	49	4571
2026-01-17 01:37:55.90	19.04	11.61	-38.8	-41.0	13.6	2.05e-05	0	58	0	234881024	49	4588
2026-01-17 01:37:56.91	19.06	11.70	-38.9	-41.1	13.5	1.48e-05	0	58	0	241172480	49	4632
2026-01-17 01:37:57.92	19.07	11.80	-38.9	-41.0	13.6	1.37e-05	0	58	0	246415360	49	4594
2026-01-17 01:37:58.93	19.09	11.89	-38.9	-41.0	13.7	5.70e-06	0	58	0	252706816	49	4582
2026-01-17 01:37:59.94	19.11	11.99	-38.9	-41.1	13.6	2.17e-05	0	58	0	257949696	49	4605
2026-01-17 01:38:00.95	19.13	12.08	-39.0	-41.2	13.6	1.83e-05	0	58	0	263192576	49	4662
2026-01-17 01:38:01.96	19.14	12.17	-38.9	-41.1	13.6	8.00e-06	0	58	0	269484032	49	4638
2026-01-17 01:38:02.96	19.16	12.27	-38.9	-41.1	13.6	8.00e-06	0	58	0	274726912	49	4639
2026-01-17 01:38:03.97	19.18	12.37	-38.9	-41.1	13.6	1.14e-05	0	58	0	281018368	49	4639
2026-01-17 01:38:04.99	19.20	12.46	-38.9	-41.0	13.7	3.40e-06	0	58	0	286261248	49	4585
2026-01-17 01:38:06.00	19.22	12.56	-38.9	-41.1	13.7	1.14e-05	0	58	0	292552704	49	4600
2026-01-17 01:38:07.01	19.23	12.66	-38.9	-41.0	13.7	9.10e-06	0	58	0	297795584	49	4586
2026-01-17 01:38:08.02	19.25	12.75	-38.9	-41.1	13.7	1.60e-05	0	58	0	304087040	49	4612
2026-01-17 01:38:09.03	19.27	12.85	-38.9	-41.1	13.7	1.25e-05	0	58	0	309329920	49	4641
2026-01-17 01:38:10.04	19.29	12.95	-38.9	-41.1	13.6	6.80e-06	0	58	0	314572800	49	4617
2026-01-17 01:38:11.05	19.31	13.05	-38.9	-41.1	13.7	6.80e-06	0	58	0	320864256	49	4617
2026-01-17 01:38:12.06	19.33	13.15	-38.9	-41.1	13.7	1.60e-05	0	58	0	326107136	49	4607
2026-01-17 01:38:13.07	19.35	13.25	-38.8	-41.0	13.8	5.70e-06	0	58	0	332398592	49	4557
2026-01-17 01:38:14.08	19.37	13.35	-38.8	-41.0	13.8	1.25e-05	0	58	0	337641472	49	4548
2026-01-17 01:38:15.09	19.38	13.45	-38.8	-40.9	13.9	5.70e-06	0	58	0	342884352	49	4499
2026-01-17 01:38:16.10	19.40	13.55	-38.8	-41.0	13.8	8.00e-06	0	58	0	349175808	49	4549
2026-01-17 01:38:17.11	19.42	13.65	-38.8	-41.0	13.8	3.40e-06	0	58	0	354418688	49	4562
2026-01-17 01:38:18.12	19.44	13.75	-38.8	-40.9	13.9	3.40e-06	0	58	0	360710144	49	4513
2026-01-17 01:38:19.13	19.46	13.85	-38.7	-40.8	14.1	6.80e-06	0	58	0	365953024	49	4458
2026-01-17 01:38:20.14	19.48	13.95	-38.6	-40.7	14.2	2.20e-06	0	58	0	371195904	49	4438
2026-01-17 01:38:21.15	19.50	14.05	-38.7	-40.7	14.1	3.40e-06	0	58	0	377487360	49	4433
2026-01-17 01:38:22.16	19.52	14.16	-38.6	-40.6	14.3	1.10e-06	0	58	0	382730240	49	4369
2026-01-17 01:38:23.17	19.54	14.26	-38.5	-40.6	14.3	1.10e-06	0	58	0	389021696	49	4344
2026-01-17 01:38:24.18	19.56	14.37	-38.5	-40.5	14.4	0.00e+00	0	58	0	394264576	49	4339
2026-01-17 01:38:25.19	19.58	14.47	-38.5	-40.5	14.4	2.20e-06	0	58	0	400556032	48	4553
2026-01-17 01:38:26.20	19.60	14.57	-38.4	-40.4	14.5	2.20e-06	0	58	0	405798912	48	4532
2026-01-17 01:38:27.21	19.62	14.68	-38.4	-40.3	14.6	1.10e-06	0	58	0	411041792	48	4492
2026-01-17 01:38:28.22	19.64	14.79	-38.3	-40.3	14.7	1.10e-06	0	58	0	417333248	48	4450
2026-01-17 01:38:29.23	19.66	14.89	-38.3	-40.2	14.8	0.00e+00	0	58	0	422576128	48	4398
2026-01-17 01:38:30.24	19.68	15.00	-38.3	-40.2	14.9	0.00e+00	0	58	0	428867584	48	4394
2026-01-17 01:38:31.25	19.70	15.11	-38.2	-40.1	14.9	0.00e+00	0	58	0	434110464	48	4370
2026-01-17 01:38:32.26	19.72	15.21	-38.2	-40.1	14.9	0.00e+00	0	58	0	439353344	48	4363
2026-01-17 01:38:33.28	19.75	15.32	-38.2	-40.1	15.0	0.00e+00	0	58	0	445644800	48	4351
2026-01-17 01:38:34.29	19.77	15.43	-38.1	-40.0	15.1	0.00e+00	0	58	0	450887680	48	4302
2026-01-17 01:38:35.30	19.79	15.54	-38.0	-39.9	15.1	0.00e+00	0	59	0	457179136	48	4260
2026-01-17 01:38:36.31	19.81	15.65	-37.9	-39.7	15.2	0.00e+00	0	58	0	462422016	47	4419
2026-01-17 01:38:37.31	19.83	15.76	-37.8	-39.6	15.3	0.00e+00	0	59	0	468713472	47	4373
2026-01-17 01:38:38.32	19.85	15.87	-37.8	-39.6	15.4	0.00e+00	0	58	0	473956352	47	4348
2026-01-17 01:38:39.33	19.87	15.98	-37.7	-39.5	15.4	0.00e+00	0	59	0	479199232	47	4329
2026-01-17 01:38:40.34	19.90	16.09	-37.6	-39.4	15.6	0.00e+00	0	58	0	485490688	47	4271
2026-01-17 01:38:41.35	19.92	16.20	-37.6	-39.4	15.6	0.00e+00	0	59	0	490733568	47	4270
2026-01-17 01:38:42.36	19.94	16.32	-37.6	-39.3	15.6	0.00e+00	0	59	0	497025024	47	4236
2026-01-17 01:38:43.37	19.96	16.43	-37.6	-39.3	15.6	0.00e+00	0	59	0	502267904	47	4232
2026-01-17 01:38:44.38	19.99	16.54	-37.5	-39.3	15.8	0.00e+00	0	59	0	508559360	47	4203
2026-01-17 01:38:45.39	20.01	16.66	-37.5	-39.2	15.7	0.00e+00	0	59	0	513802240	47	4186
2026-01-17 01:38:46.40	20.03	16.77	-37.5	-39.2	15.8	0.00e+00	0	59	0	519045120	46	4424
2026-01-17 01:38:47.41	20.05	16.89	-37.5	-39.2	15.8	0.00e+00	0	58	0	525336576	46	4403
2026-01-17 01:38:48.42	20.08	17.00	-37.5	-39.2	15.9	0.00e+00	0	59	0	530579456	46	4399
2026-01-17 01:38:49.43	20.10	17.12	-37.4	-39.1	15.9	0.00e+00	0	59	0	536870912	46	4387
2026-01-17 01:38:50.44	20.12	17.24	-37.5	-39.2	15.8	0.00e+00	0	59	0	542113792	46	4412
2026-01-17 01:38:51.45	20.15	17.35	-37.5	-39.2	15.8	0.00e+00	0	59	0	547356672	46	4418
2026-01-17 01:38:52.46	20.17	17.47	-37.4	-39.2	15.9	0.00e+00	0	59	0	553648128	46	4392
2026-01-17 01:38:53.47	20.19	17.59	-37.5	-39.2	15.8	0.00e+00	0	59	0	558891008	46	4415
2026-01-17 01:38:54.48	20.22	17.71	-37.5	-39.2	15.9	0.00e+00	0	59	0	565182464	46	4406
2026-01-17 01:38:55.49	20.24	17.83	-37.4	-39.1	16.0	0.00e+00	0	59	0	570425344	46	4371
2026-01-17 01:38:56.50	20.27	17.95	-37.4	-39.1	15.9	0.00e+00	0	59	0	575668224	46	4380
2026-01-17 01:38:57.51	20.29	18.07	-37.4	-39.1	16.0	0.00e+00	0	59	0	581959680	46	4359
2026-01-17 01:38:58.52	20.32	18.19	-37.4	-39.1	16.1	0.00e+00	0	59	0	587202560	46	4344
2026-01-17 01:38:59.53	20.34	18.31	-37.4	-39.0	16.1	0.00e+00	0	59	0	593494016	46	4331
2026-01-17 01:39:00.54	20.37	18.44	-37.4	-39.0	16.1	0.00e+00	0	59	0	598736896	46	4338
2026-01-17 01:39:01.55	20.39	18.56	-37.4	-39.0	16.1	0.00e+00	0	59	0	605028352	46	4332
2026-01-17 01:39:02.56	20.42	18.68	-37.3	-39.0	16.2	0.00e+00	0	59	0	610271232	46	4314
2026-01-17 01:39:03.57	20.44	18.81	-37.3	-39.0	16.2	0.00e+00	0	59	0	616562688	46	4314
2026-01-17 01:39:04.58	20.47	18.93	-37.3	-39.0	16.2	0.00e+00	0	59	0	621805568	46	4313
2026-01-17 01:39:05.58	20.49	19.06	-37.3	-39.0	16.2	0.00e+00	0	59	0	627048448	46	4309
2026-01-17 01:39:06.59	20.52	19.19	-37.4	-39.0	16.1	0.00e+00	0	59	0	633339904	46	4334
2026-01-17 01:39:07.60	20.54	19.31	-37.3	-39.0	16.2	0.00e+00	0	59	0	638582784	46	4297
2026-01-17 01:39:08.62	20.57	19.44	-37.3	-38.9	16.3	0.00e+00	0	59	0	644874240	46	4275
2026-01-17 01:39:09.63	20.60	19.57	-37.2	-38.8	16.4	0.00e+00	0	59	0	650117120	46	4232
2026-01-17 01:39:10.64	20.62	19.70	-37.2	-38.8	16.4	0.00e+00	0	59	0	655360000	46	4195
2026-01-17 01:39:11.65	20.65	19.83	-37.1	-38.7	16.5	0.00e+00	0	59	0	661651456	46	4175
2026-01-17 01:39:12.66	20.68	19.96	-37.0	-38.6	16.6	0.00e+00	0	59	0	666894336	46	4138
2026-01-17 01:39:13.66	20.71	20.09	-37.0	-38.6	16.6	0.00e+00	0	59	0	672137216	46	4117
2026-01-17 01:39:14.67	20.73	20.22	-37.0	-38.6	16.7	0.00e+00	0	59	0	678428672	45	4344
2026-01-17 01:39:15.68	20.76	20.35	-36.9	-38.5	16.7	0.00e+00	0	59	0	683671552	45	4292
2026-01-17 01:39:16.69	20.79	20.49	-36.9	-38.4	16.8	0.00e+00	0	59	0	689963008	45	4290
2026-01-17 01:39:17.70	20.82	20.62	-36.9	-38.4	16.8	0.00e+00	0	59	0	695205888	45	4280
2026-01-17 01:39:18.71	20.85	20.76	-36.9	-38.4	16.8	0.00e+00	0	59	0	701497344	45	4278
2026-01-17 01:39:19.72	20.87	20.89	-36.9	-38.4	16.8	0.00e+00	0	59	0	706740224	45	4267
2026-01-17 01:39:20.73	20.90	21.03	-36.9	-38.4	16.8	0.00e+00	0	59	0	713031680	45	4278
2026-01-17 01:39:21.74	20.93	21.16	-36.9	-38.4	16.8	0.00e+00	0	59	0	718274560	45	4274
2026-01-17 01:39:22.75	20.96	21.30	-36.9	-38.5	16.8	0.00e+00	0	59	0	723517440	45	4297
2026-01-17 01:39:23.76	20.99	21.44	-36.9	-38.5	16.8	0.00e+00	0	59	0	729808896	45	4297
2026-01-17 01:39:24.76	21.02	21.58	-36.9	-38.5	16.8	0.00e+00	0	59	0	735051776	45	4303
2026-01-17 01:39:25.78	21.05	21.72	-36.9	-38.4	16.9	0.00e+00	0	59	0	741343232	45	4265
2026-01-17 01:39:26.78	21.08	21.86	-36.8	-38.3	17.0	0.00e+00	0	59	0	746586112	45	4216
2026-01-17 01:39:27.80	21.11	22.00	-36.8	-38.3	17.0	0.00e+00	0	59	0	751828992	45	4220
2026-01-17 01:39:28.81	21.14	22.14	-36.8	-38.3	17.0	0.00e+00	0	59	0	758120448	45	4209
2026-01-17 01:39:29.81	21.17	22.29	-36.8	-38.3	17.0	0.00e+00	0	59	0	763363328	45	4213
2026-01-17 01:39:30.82	21.20	22.43	-36.7	-38.2	17.0	0.00e+00	0	60	0	769654784	45	4191
2026-01-17 01:39:31.83	21.23	22.57	-36.7	-38.2	17.1	0.00e+00	0	59	0	774897664	45	4163
2026-01-17 01:39:32.84	21.27	22.72	-36.7	-38.2	17.1	0.00e+00	0	59	0	780140544	45	4167
2026-01-17 01:39:33.85	21.30	22.87	-36.7	-38.2	17.1	0.00e+00	0	59	0	786432000	45	4174
2026-01-17 01:39:34.86	21.33	23.01	-36.7	-38.2	17.1	0.00e+00	0	59	0	791674880	45	4191
2026-01-17 01:39:35.87	21.36	23.16	-36.7	-38.2	17.1	0.00e+00	0	59	0	797966336	45	4182
2026-01-17 01:39:36.88	21.39	23.31	-36.7	-38.2	17.1	0.00e+00	0	59	0	803209216	45	4181
2026-01-17 01:39:37.89	21.43	23.46	-36.7	-38.2	17.1	0.00e+00	0	59	0	809500672	45	4171
2026-01-17 01:39:38.90	21.46	23.61	-36.7	-38.1	17.2	0.00e+00	0	59	0	814743552	45	4143
2026-01-17 01:39:39.91	21.49	23.76	-36.6	-38.1	17.2	0.00e+00	0	59	0	819986432	45	4109
2026-01-17 01:39:40.92	21.53	23.92	-36.6	-38.1	17.3	0.00e+00	0	59	0	826277888	45	4104
2026-01-17 01:39:41.93	21.56	24.07	-36.5	-38.0	17.4	0.00e+00	0	59	0	831520768	45	4062
2026-01-17 01:39:42.94	21.60	24.22	-36.5	-37.9	17.4	0.00e+00	0	59	0	837812224	45	4051
2026-01-17 01:39:43.95	21.63	24.38	-36.4	-37.9	17.4	0.00e+00	0	59	0	843055104	44	4257
2026-01-17 01:39:44.96	21.67	24.53	-36.4	-37.9	17.4	0.00e+00	0	60	0	848297984	44	4269
2026-01-17 01:39:45.97	21.70	24.69	-36.4	-37.9	17.5	0.00e+00	0	59	0	854589440	44	4254
2026-01-17 01:39:46.98	21.74	24.85	-36.4	-37.8	17.5	0.00e+00	0	59	0	859832320	44	4240
2026-01-17 01:39:47.99	21.77	25.01	-36.4	-37.8	17.5	0.00e+00	0	60	0	866123776	44	4231
2026-01-17 01:39:49.00	21.81	25.17	-36.4	-37.8	17.5	0.00e+00	0	59	0	871366656	44	4223
2026-01-17 01:39:50.01	21.85	25.33	-36.3	-37.8	17.6	0.00e+00	0	59	0	876609536	44	4204
2026-01-17 01:39:51.02	21.88	25.49	-36.3	-37.7	17.6	0.00e+00	0	59	0	882900992	44	4185
2026-01-17 01:39:52.03	21.92	25.65	-36.3	-37.7	17.7	0.00e+00	0	59	0	888143872	44	4172
2026-01-17 01:39:53.04	21.96	25.82	-36.4	-37.8	17.6	0.00e+00	0	59	0	894435328	44	4204
2026-01-17 01:39:54.05	21.99	25.98	-36.4	-37.8	17.6	0.00e+00	0	60	0	899678208	44	4214
2026-01-17 01:39:55.06	22.03	26.15	-36.4	-37.9	17.5	0.00e+00	0	60	0	905969664	44	4246
2026-01-17 01:39:56.08	22.07	26.31	-36.5	-37.9	17.4	0.00e+00	0	59	0	911212544	44	4284
2026-01-17 01:39:57.08	22.11	26.48	-36.5	-38.0	17.4	0.00e+00	0	59	0	917504000	44	4305
2026-01-17 01:39:58.09	22.15	26.65	-36.6	-38.0	17.3	0.00e+00	0	59	0	922746880	44	4335
2026-01-17 01:39:59.10	22.19	26.82	-36.6	-38.0	17.4	0.00e+00	0	59	0	927989760	44	4327
2026-01-17 01:40:00.12	22.23	26.99	-36.5	-38.0	17.4	0.00e+00	0	59	0	934281216	44	4331
2026-01-17 01:40:01.13	22.27	27.16	-36.5	-38.0	17.4	0.00e+00	0	60	0	939524096	44	4325
2026-01-17 01:40:02.14	22.31	27.34	-36.4	-37.9	17.5	0.00e+00	0	59	0	945815552	44	4273
2026-01-17 01:40:03.15	22.35	27.51	-36.4	-37.9	17.5	0.00e+00	0	59	0	951058432	44	4247
2026-01-17 01:40:04.16	22.40	27.69	-36.4	-37.8	17.6	0.00e+00	0	59	0	956301312	44	4223
2026-01-17 01:40:05.17	22.44	27.86	-36.4	-37.8	17.6	0.00e+00	0	60	0	962592768	44	4218
2026-01-17 01:40:06.18	22.48	28.04	-36.3	-37.8	17.6	0.00e+00	0	60	0	967835648	44	4204
2026-01-17 01:40:07.19	22.52	28.22	-36.4	-37.8	17.6	0.00e+00	0	60	0	974127104	44	4218
2026-01-17 01:40:08.20	22.57	28.40	-36.3	-37.8	17.7	0.00e+00	0	59	0	979369984	44	4197
2026-01-17 01:40:09.21	22.61	28.58	-36.3	-37.7	17.7	0.00e+00	0	60	0	984612864	44	4177
2026-01-17 01:40:10.22	22.65	28.76	-36.3	-37.7	17.8	0.00e+00	0	60	0	990904320	44	4153
2026-01-17 01:40:11.23	22.70	28.95	-36.2	-37.6	17.8	0.00e+00	0	60	0	996147200	44	4124
2026-01-17 01:40:12.24	22.74	29.13	-36.2	-37.6	17.8	0.00e+00	0	60	0	1002438656	44	4130
2026-01-17 01:40:13.25	22.79	29.32	-36.3	-37.7	17.7	0.00e+00	0	59	0	1007681536	44	4170
2026-01-17 01:40:14.26	22.84	29.50	-36.3	-37.8	17.7	0.00e+00	0	60	0	1013972992	44	4199
2026-01-17 01:40:15.26	22.88	29.69	-36.4	-37.9	17.5	0.00e+00	0	60	0	1019215872	44	4269
2026-01-17 01:40:16.27	22.93	29.88	-36.5	-38.0	17.5	0.00e+00	0	60	0	1025507328	44	4297
2026-01-17 01:40:17.29	22.98	30.07	-36.5	-38.0	17.4	0.00e+00	0	60	0	1030750208	44	4323
2026-01-17 01:40:18.30	23.03	30.26	-36.6	-38.1	17.4	0.00e+00	0	60	0	1035993088	44	4346
2026-01-17 01:40:19.31	23.08	30.46	-36.6	-38.1	17.4	0.00e+00	0	60	0	1042284544	44	4344
2026-01-17 01:40:20.32	23.12	30.65	-36.5	-38.0	17.5	0.00e+00	0	60	0	1047527424	44	4312
2026-01-17 01:40:21.32	23.17	30.84	-36.5	-37.9	17.5	0.00e+00	0	60	0	1053818880	44	4289
2026-01-17 01:40:22.33	23.22	31.04	-36.4	-37.9	17.6	0.00e+00	0	60	0	1059061760	44	4250
2026-01-17 01:40:23.34	23.28	31.24	-36.3	-37.7	17.7	0.00e+00	0	60	0	1064304640	44	4184
2026-01-17 01:40:24.36	23.33	31.44	-36.2	-37.6	17.8	0.00e+00	0	60	0	1070596096	44	4132
2026-01-17 01:40:25.37	23.38	31.64	-36.2	-37.6	17.9	0.00e+00	0	60	0	1075838976	44	4116
2026-01-17 01:40:26.38	23.43	31.85	-36.2	-37.6	17.9	0.00e+00	0	60	0	1082130432	44	4102
2026-01-17 01:40:27.39	23.49	32.05	-36.1	-37.5	18.0	0.00e+00	0	60	0	1087373312	44	4087
2026-01-17 01:40:28.40	23.54	32.26	-36.2	-37.6	17.9	0.00e+00	0	60	0	1092616192	44	4108
2026-01-17 01:40:29.41	23.60	32.46	-36.2	-37.6	17.9	0.00e+00	0	60	0	1098907648	44	4128
2026-01-17 01:40:30.42	23.65	32.67	-36.2	-37.7	17.8	0.00e+00	0	60	0	1104150528	44	4148
2026-01-17 01:40:31.42	23.71	32.88	-36.3	-37.7	17.8	0.00e+00	0	60	0	1110441984	44	4165
2026-01-17 01:40:32.43	23.76	33.09	-36.4	-37.9	17.6	0.00e+00	0	60	0	1115684864	44	4251
2026-01-17 01:40:33.44	23.82	33.30	-36.4	-37.9	17.6	0.00e+00	0	60	0	1121976320	44	4265
2026-01-17 01:40:34.45	23.88	33.51	-36.4	-37.9	17.6	0.00e+00	0	60	0	1127219200	44	4264
2026-01-17 01:40:35.46	23.94	33.73	-36.3	-37.8	17.7	0.00e+00	0	60	0	1132462080	44	4203
2026-01-17 01:40:36.47	24.00	33.95	-36.2	-37.6	17.9	0.00e+00	0	60	0	1138753536	44	4137
2026-01-17 01:40:37.48	24.06	34.17	-36.1	-37.6	17.9	0.00e+00	0	60	0	1143996416	44	4101
2026-01-17 01:40:38.49	24.12	34.39	-36.0	-37.4	18.1	0.00e+00	0	60	0	1150287872	44	4019
2026-01-17 01:40:39.50	24.18	34.61	-35.6	-37.0	18.4	0.00e+00	0	60	0	1155530752	43	4059
2026-01-17 01:40:40.51	24.24	34.83	-35.6	-36.9	18.4	0.00e+00	0	60	0	1160773632	43	4019
2026-01-17 01:40:41.52	24.31	35.05	-35.5	-36.8	18.5	0.00e+00	0	60	0	1167065088	42	4209
2026-01-17 01:40:42.54	24.37	35.28	-35.4	-36.7	18.6	0.00e+00	0	60	0	1172307968	42	4185
2026-01-17 01:40:43.54	24.44	35.51	-35.5	-36.8	18.6	0.00e+00	0	60	0	1178599424	42	4215
2026-01-17 01:40:44.56	24.50	35.74	-35.6	-36.9	18.5	0.00e+00	0	60	0	1183842304	42	4259
2026-01-17 01:40:45.57	24.57	35.97	-35.6	-37.0	18.4	0.00e+00	0	60	0	1190133760	42	4315
2026-01-17 01:40:46.58	24.64	36.20	-35.7	-37.1	18.3	0.00e+00	0	60	0	1195376640	42	4360
2026-01-17 01:40:47.58	24.70	36.44	-35.8	-37.2	18.2	0.00e+00	0	60	0	1200619520	42	4401
2026-01-17 01:40:48.59	24.77	36.67	-35.7	-37.1	18.2	0.00e+00	0	60	0	1206910976	42	4380
2026-01-17 01:40:49.59	24.84	36.91	-35.7	-37.1	18.3	0.00e+00	0	60	0	1212153856	42	4353
2026-01-17 01:40:50.60	24.92	37.15	-35.6	-36.9	18.4	0.00e+00	0	60	0	1218445312	42	4285
2026-01-17 01:40:51.61	24.99	37.39	-35.5	-36.9	18.5	0.00e+00	0	60	0	1223688192	42	4253
2026-01-17 01:40:52.62	25.06	37.63	-35.5	-36.8	18.5	0.00e+00	0	60	0	1229979648	42	4229
2026-01-17 01:40:53.63	25.14	37.88	-35.6	-36.9	18.5	0.00e+00	0	60	0	1235222528	42	4256
2026-01-17 01:40:54.64	25.21	38.12	-35.7	-37.0	18.4	0.00e+00	0	60	0	1240465408	42	4318
2026-01-17 01:40:55.65	25.29	38.37	-35.7	-37.1	18.3	0.00e+00	0	60	0	1246756864	42	4350
2026-01-17 01:40:56.66	25.37	38.62	-35.7	-37.0	18.3	0.00e+00	0	60	0	1251999744	42	4334
2026-01-17 01:40:57.66	25.45	38.87	-35.6	-37.0	18.4	0.00e+00	0	60	0	1258291200	42	4302
2026-01-17 01:40:58.67	25.53	39.12	-35.7	-37.0	18.4	0.00e+00	0	60	0	1263534080	42	4319
2026-01-17 01:40:59.68	25.61	39.38	-35.7	-37.1	18.3	0.00e+00	0	60	0	1268776960	42	4347
2026-01-17 01:41:00.69	25.69	39.64	-35.8	-37.1	18.2	0.00e+00	0	60	0	1275068416	42	4383
2026-01-17 01:41:01.70	25.77	39.89	-35.8	-37.1	18.2	0.00e+00	0	60	0	1280311296	42	4391
2026-01-17 01:41:02.71	25.86	40.16	-35.7	-37.0	18.3	0.00e+00	0	60	0	1286602752	42	4331
2026-01-17 01:41:03.72	25.95	40.42	-35.7	-37.0	18.4	0.00e+00	0	60	0	1291845632	42	4322
2026-01-17 01:41:04.73	26.03	40.68	-35.8	-37.1	18.3	0.00e+00	0	60	0	1297088512	42	4367
2026-01-17 01:41:05.74	26.12	40.95	-35.9	-37.2	18.2	0.00e+00	0	60	0	1303379968	42	4431
2026-01-17 01:41:06.75	26.21	41.22	-36.0	-37.3	18.1	0.00e+00	0	60	0	1308622848	42	4482
2026-01-17 01:41:07.76	26.31	41.49	-36.0	-37.4	18.0	0.00e+00	0	60	0	1314914304	42	4514
2026-01-17 01:41:08.77	26.40	41.76	-36.1	-37.5	18.0	0.00e+00	0	60	0	1320157184	42	4562
2026-01-17 01:41:09.78	26.50	42.04	-36.0	-37.4	18.0	0.00e+00	0	60	0	1326448640	42	4542
2026-01-17 01:41:10.79	26.59	42.31	-36.1	-37.5	17.9	0.00e+00	0	60	0	1331691520	42	4568
2026-01-17 01:41:11.80	26.69	42.59	-36.1	-37.5	17.9	0.00e+00	0	60	0	1336934400	42	4569
2026-01-17 01:41:12.80	26.79	42.87	-35.9	-37.4	17.7	0.00e+00	0	60	0	1343225856	42	4538
2026-01-17 01:41:13.82	26.89	43.15	-35.9	-37.4	17.7	0.00e+00	0	60	0	1348468736	42	4520
2026-01-17 01:41:14.83	27.00	43.44	-35.9	-37.4	17.7	0.00e+00	0	60	0	1354760192	42	4531
2026-01-17 01:41:15.84	27.10	43.72	-36.1	-37.6	17.5	0.00e+00	0	60	0	1360003072	42	4627
2026-01-17 01:41:16.84	27.21	44.01	-36.3	-37.8	17.3	0.00e+00	0	60	0	1365245952	43	4490
2026-01-17 01:41:17.85	27.32	44.30	-36.4	-38.0	17.1	0.00e+00	0	60	0	1371537408	43	4589
2026-01-17 01:41:18.86	27.43	44.59	-36.5	-38.1	17.1	0.00e+00	0	60	0	1376780288	43	4610
2026-01-17 01:41:19.87	27.54	44.89	-36.3	-37.9	17.2	0.00e+00	0	60	0	1383071744	43	4527
2026-01-17 01:41:20.88	27.66	45.19	-36.1	-37.7	17.5	0.00e+00	0	60	0	1388314624	43	4402
2026-01-17 01:41:21.89	27.77	45.48	-36.1	-37.6	17.5	0.00e+00	0	60	0	1393557504	43	4390
2026-01-17 01:41:22.91	27.89	45.79	-36.1	-37.6	17.6	0.00e+00	0	60	0	1399848960	43	4354
2026-01-17 01:41:23.92	28.02	46.09	-36.0	-37.4	17.7	0.00e+00	0	60	0	1405091840	43	4289
2026-01-17 01:41:24.93	28.14	46.40	-35.9	-37.3	17.9	0.00e+00	0	60	0	1411383296	43	4226
2026-01-17 01:41:25.94	28.27	46.70	-35.8	-37.2	18.0	0.00e+00	0	60	0	1416626176	43	4182
2026-01-17 01:41:26.95	28.39	47.01	-35.8	-37.3	17.9	0.00e+00	0	60	0	1422917632	43	4223
2026-01-17 01:41:27.96	28.53	47.33	-36.0	-37.5	17.7	0.00e+00	0	60	0	1428160512	43	4325
2026-01-17 01:41:28.97	28.66	47.64	-36.2	-37.8	17.4	0.00e+00	0	60	0	1434451968	43	4455
2026-01-17 01:41:29.98	28.80	47.96	-36.3	-37.8	17.4	0.00e+00	0	60	0	1439694848	43	4472
2026-01-17 01:41:30.99	28.93	48.27	-36.2	-37.7	17.5	0.00e+00	0	60	0	1444937728	43	4424
2026-01-17 01:41:32.00	29.08	48.60	-36.1	-37.6	17.6	0.00e+00	0	60	0	1451229184	43	4353
2026-01-17 01:41:33.01	29.22	48.92	-35.9	-37.3	17.9	0.00e+00	0	60	0	1456472064	43	4241
2026-01-17 01:41:34.02	29.37	49.24	-35.9	-37.3	17.9	0.00e+00	0	60	0	1462763520	43	4222
2026-01-17 01:41:35.03	29.52	49.57	-36.2	-37.6	17.6	0.00e+00	0	60	0	1468006400	43	4390
2026-01-17 01:41:36.04	29.68	49.90	-36.4	-38.0	17.3	0.00e+00	0	60	0	1473249280	43	4557
2026-01-17 01:41:37.05	29.83	50.23	-36.6	-38.2	17.1	0.00e+00	0	60	0	1479540736	43	4652
2026-01-17 01:41:38.06	29.99	50.56	-36.9	-38.5	16.9	0.00e+00	0	60	0	1484783616	44	4572
2026-01-17 01:41:39.07	30.16	50.90	-37.0	-38.6	16.9	0.00e+00	0	60	0	1491075072	44	4611
2026-01-17 01:41:40.08	30.33	51.24	-36.9	-38.5	16.9	0.00e+00	0	60	0	1496317952	44	4557
2026-01-17 01:41:41.09	30.50	51.58	-36.9	-38.5	16.9	0.00e+00	0	60	0	1501560832	44	4584
2026-01-17 01:41:42.10	30.67	51.92	-36.9	-38.5	16.9	0.00e+00	0	61	0	1507852288	44	4574
2026-01-17 01:41:43.11	30.85	52.27	-36.8	-38.4	17.0	0.00e+00	0	60	0	1513095168	44	4527
2026-01-17 01:41:44.12	31.04	52.61	-36.7	-38.3	17.1	0.00e+00	0	60	0	1519386624	44	4464
2026-01-17 01:41:45.13	31.23	52.96	-36.8	-38.3	17.1	0.00e+00	0	60	0	1524629504	44	4480
2026-01-17 01:41:46.14	31.42	53.31	-37.2	-38.9	16.5	0.00e+00	0	60	0	1530920960	44	4773
2026-01-17 01:41:47.15	31.62	53.67	-37.6	-39.4	16.0	0.00e+00	0	60	0	1536163840	45	4808
2026-01-17 01:41:48.15	31.82	54.02	-37.6	-39.4	16.0	0.00e+00	0	60	0	1541406720	45	4783
2026-01-17 01:41:49.16	32.02	54.38	-37.4	-39.0	16.4	0.00e+00	0	60	0	1547698176	45	4587
2026-01-17 01:41:50.17	32.24	54.74	-37.4	-39.1	16.3	0.00e+00	0	60	0	1552941056	45	4649
2026-01-17 01:41:51.18	32.45	55.10	-37.8	-39.5	15.9	0.00e+00	0	60	0	1559232512	46	4587
2026-01-17 01:41:52.20	32.68	55.47	-37.7	-39.5	16.0	0.00e+00	0	60	0	1564475392	46	4553
2026-01-17 01:41:53.20	32.91	55.83	-37.4	-39.1	16.4	0.00e+00	0	60	0	1569718272	46	4343
2026-01-17 01:41:54.21	33.14	56.20	-37.2	-38.9	16.5	0.00e+00	0	60	0	1576009728	46	4260
2026-01-17 01:41:55.22	33.38	56.57	-37.5	-39.3	16.1	0.00e+00	0	60	0	1581252608	46	4455
2026-01-17 01:41:56.23	33.63	56.94	-37.7	-39.5	15.9	0.00e+00	0	60	0	1587544064	46	4575
2026-01-17 01:41:57.24	33.88	57.31	-37.2	-38.9	16.5	0.00e+00	0	60	0	1592786944	46	4260
2026-01-17 01:41:58.25	34.15	57.69	-36.7	-38.3	17.1	0.00e+00	0	60	0	1598029824	45	4197
2026-01-17 01:41:59.26	34.42	58.07	-36.5	-38.0	17.3	0.00e+00	0	60	0	1604321280	45	4097
2026-01-17 01:42:00.27	34.69	58.45	-36.5	-38.0	17.3	0.00e+00	0	60	0	1609564160	45	4086
2026-01-17 01:42:01.28	34.98	58.83	-36.3	-37.7	17.6	0.00e+00	0	60	0	1615855616	44	4190
2026-01-17 01:42:02.29	35.27	59.21	-36.2	-37.7	17.8	0.00e+00	0	60	0	1621098496	44	4147
2026-01-17 01:42:03.30	35.57	59.60	-36.4	-38.0	17.5	0.00e+00	0	60	0	1627389952	44	4302
2026-01-17 01:42:04.31	35.88	59.99	-36.3	-37.8	17.6	0.00e+00	0	60	0	1632632832	44	4218
2026-01-17 01:42:05.33	36.20	60.38	-36.1	-37.6	17.9	0.00e+00	0	60	0	1638924288	44	4100
2026-01-17 01:42:06.34	36.53	60.77	-36.0	-37.4	18.0	0.00e+00	0	60	0	1644167168	44	4050
2026-01-17 01:42:07.34	36.87	61.16	-36.1	-37.6	17.8	0.00e+00	0	60	0	1649410048	44	4117
2026-01-17 01:42:08.35	37.22	61.55	-36.1	-37.6	17.8	0.00e+00	0	61	0	1655701504	44	4136
2026-01-17 01:42:09.37	37.58	61.95	-35.7	-37.1	18.1	0.00e+00	0	60	0	1660944384	43	4140
2026-01-17 01:42:10.38	37.96	62.34	-35.5	-36.9	18.3	0.00e+00	0	60	0	1667235840	42	4262
2026-01-17 01:42:11.39	38.34	62.74	-35.4	-36.8	18.4	0.00e+00	0	60	0	1672478720	42	4218
2026-01-17 01:42:12.40	38.74	63.14	-35.5	-37.0	18.2	0.00e+00	0	61	0	1677721600	42	4293
2026-01-17 01:42:13.41	39.15	63.54	-35.7	-37.1	18.0	0.00e+00	0	60	0	1684013056	42	4376
2026-01-17 01:42:14.42	39.58	63.94	-35.5	-37.0	18.1	0.00e+00	0	60	0	1689255936	42	4317
2026-01-17 01:42:15.43	40.02	64.34	-35.6	-37.0	18.1	0.00e+00	0	60	0	1695547392	42	4323
2026-01-17 01:42:16.44	40.48	64.74	-35.6	-37.1	18.1	0.00e+00	0	60	0	1700790272	42	4342
2026-01-17 01:42:17.45	40.95	65.15	-35.5	-36.9	18.2	0.00e+00	0	60	0	1706033152	42	4262
2026-01-17 01:42:18.46	41.44	65.55	-35.6	-37.1	18.0	0.00e+00	0	60	0	1712324608	42	4344
2026-01-17 01:42:19.47	41.95	65.96	-35.6	-37.0	18.1	0.00e+00	0	60	0	1717567488	42	4322
2026-01-17 01:42:20.48	42.48	66.36	-35.4	-36.8	18.3	0.00e+00	0	60	0	1723858944	42	4194
2026-01-17 01:42:21.49	43.02	66.76	-35.4	-36.9	18.2	0.00e+00	0	60	0	1729101824	42	4252
2026-01-17 01:42:22.50	43.59	67.17	-35.3	-36.8	18.3	0.00e+00	0	60	0	1735393280	42	4211
2026-01-17 01:42:23.51	44.18	67.57	-35.4	-36.9	18.2	0.00e+00	0	60	0	1740636160	42	4264
2026-01-17 01:42:24.52	44.80	67.98	-35.7	-37.2	17.9	0.00e+00	0	60	0	1746927616	42	4407
2026-01-17 01:42:25.52	45.43	68.38	-35.6	-37.1	18.0	0.00e+00	0	60	0	1752170496	42	4359
2026-01-17 01:42:26.53	46.10	68.78	-35.5	-36.9	18.2	0.00e+00	0	60	0	1757413376	42	4271
2026-01-17 01:42:27.55	46.80	69.19	-35.4	-36.8	18.3	0.00e+00	0	60	0	1763704832	42	4217
2026-01-17 01:42:28.56	47.52	69.59	-35.2	-36.6	18.5	0.00e+00	0	60	0	1768947712	42	4120
2026-01-17 01:42:29.57	48.27	69.99	-35.1	-36.5	18.5	0.00e+00	0	60	0	1775239168	42	4073
2026-01-17 01:42:30.58	49.06	70.38	-35.1	-36.4	18.6	0.00e+00	0	60	0	1780482048	42	4051
2026-01-17 01:42:31.59	49.88	70.78	-34.9	-36.3	18.7	0.00e+00	0	60	0	1785724928	41	4229
2026-01-17 01:42:32.60	50.74	71.17	-34.9	-36.2	18.7	0.00e+00	0	60	0	1792016384	41	4186
2026-01-17 01:42:33.61	51.63	71.56	-34.9	-36.3	18.6	0.00e+00	0	61	0	1797259264	41	4211
2026-01-17 01:42:34.62	52.57	71.95	-34.6	-36.0	19.0	0.00e+00	0	60	0	1803550720	41	4070
2026-01-17 01:42:35.63	53.55	72.34	-34.5	-35.8	19.1	0.00e+00	0	60	0	1808793600	41	3995
2026-01-17 01:42:36.64	54.57	72.72	-34.6	-35.9	19.0	0.00e+00	0	61	0	1814036480	41	4044
2026-01-17 01:42:37.65	55.65	73.09	-34.4	-35.7	19.2	0.00e+00	0	60	0	1820327936	40	4189
2026-01-17 01:42:38.66	56.77	73.47	-34.6	-36.0	19.0	0.00e+00	0	61	0	1825570816	40	4316
2026-01-17 01:42:39.67	57.95	73.83	-34.5	-35.9	19.0	0.00e+00	0	60	0	1831862272	40	4251
2026-01-17 01:42:40.68	59.19	74.19	-34.5	-35.8	19.1	0.00e+00	0	60	0	1837105152	40	4232
2026-01-17 01:42:41.69	60.48	74.55	-34.3	-35.6	19.3	0.00e+00	0	60	0	1843396608	40	4118
2026-01-17 01:42:42.70	61.84	74.90	-34.0	-35.3	19.6	0.00e+00	0	60	0	1848639488	40	3967
2026-01-17 01:42:43.71	63.26	75.24	-34.2	-35.5	19.3	0.00e+00	0	60	0	1854930944	40	4084
2026-01-17 01:42:44.72	64.75	75.57	-34.4	-35.7	19.1	0.00e+00	0	60	0	1860173824	40	4177
2026-01-17 01:42:45.73	66.32	75.89	-34.0	-35.3	19.5	0.00e+00	0	60	0	1865416704	40	3967
2026-01-17 01:42:46.74	67.95	76.20	-34.0	-35.3	19.5	0.00e+00	0	60	0	1871708160	39	4230
2026-01-17 01:42:47.75	69.67	76.51	-34.0	-35.4	19.5	0.00e+00	0	60	0	1876951040	39	4246
2026-01-17 01:42:48.76	71.46	76.80	-33.9	-35.2	19.6	0.00e+00	0	60	0	1883242496	39	4182
2026-01-17 01:42:49.77	73.34	77.08	-34.0	-35.3	19.5	0.00e+00	0	60	0	1888485376	39	4240
2026-01-17 01:42:50.78	75.30	77.34	-34.1	-35.4	19.5	0.00e+00	0	60	0	1893728256	39	4247
2026-01-17 01:42:51.79	77.34	77.59	-34.0	-35.3	19.5	0.00e+00	0	60	0	1900019712	39	4225
2026-01-17 01:42:52.80	79.47	77.83	-34.0	-35.4	19.5	0.00e+00	0	60	0	1905262592	39	4249
2026-01-17 01:42:53.81	81.67	78.04	-33.9	-35.2	19.6	0.00e+00	0	61	0	1911554048	39	4165
2026-01-17 01:42:54.83	83.99	78.25	-33.7	-35.0	19.9	0.00e+00	0	61	0	1916796928	39	4055
2026-01-17 01:42:55.84	86.35	78.43	-33.8	-35.1	19.7	0.00e+00	0	60	0	1922039808	39	4106
2026-01-17 01:42:56.84	88.77	78.59	-34.1	-35.4	19.4	0.00e+00	0	60	0	1928331264	39	4282
2026-01-17 01:42:57.85	91.28	78.73	-34.1	-35.4	19.4	0.00e+00	0	61	0	1933574144	39	4281
2026-01-17 01:42:58.86	93.84	78.85	-34.3	-35.7	19.2	0.00e+00	0	61	0	1939865600	39	4411
2026-01-17 01:42:59.87	96.46	78.95	-34.5	-35.8	19.0	0.00e+00	0	60	0	1945108480	39	4486
2026-01-17 01:43:00.89	99.15	79.02	-34.2	-35.5	19.3	0.00e+00	0	60	0	1951399936	39	4335
2026-01-17 01:43:01.90	101.84	79.08	-34.2	-35.5	19.4	0.00e+00	0	60	0	1956642816	39	4317
2026-01-17 01:43:02.90	104.53	79.10	-34.4	-35.7	19.1	0.00e+00	0	60	0	1962934272	39	4428
2026-01-17 01:43:03.91	107.25	79.11	-34.0	-35.2	19.5	0.00e+00	0	61	0	1968177152	39	4192
2026-01-17 01:43:04.92	109.96	79.09	-33.8	-35.0	19.8	0.00e+00	0	60	0	1973420032	39	4084
2026-01-17 01:43:05.93	112.66	79.04	-33.8	-35.1	19.7	0.00e+00	0	60	0	1979711488	39	4122
2026-01-17 01:43:06.94	115.34	78.97	-34.0	-35.3	19.5	0.00e+00	0	60	0	1984954368	39	4231
2026-01-17 01:43:07.95	117.97	78.88	-34.1	-35.4	19.4	0.00e+00	0	60	0	1990197248	39	4291
2026-01-17 01:43:08.96	120.55	78.77	-33.8	-35.1	19.7	0.00e+00	0	60	0	1996488704	39	4130
2026-01-17 01:43:09.97	123.08	78.64	-33.5	-34.8	20.1	0.00e+00	0	60	0	2001731584	39	3961
2026-01-17 01:43:10.99	125.57	78.48	-33.6	-34.8	20.0	0.00e+00	0	60	0	2008023040	39	3983
2026-01-17 01:43:11.99	127.94	78.31	-33.8	-35.1	19.7	0.00e+00	0	61	0	2013265920	39	4142
2026-01-17 01:43:13.01	130.27	78.11	-33.7	-35.0	19.9	0.00e+00	0	61	0	2019557376	39	4058
2026-01-17 01:43:14.02	132.51	77.90	-33.8	-35.0	19.8	0.00e+00	0	60	0	2024800256	39	4090
2026-01-17 01:43:15.03	134.66	77.67	-34.0	-35.3	19.5	0.00e+00	0	61	0	2030043136	39	4229
2026-01-17 01:43:16.04	136.73	77.42	-33.8	-35.1	19.7	0.00e+00	0	61	0	2036334592	39	4123
2026-01-17 01:43:17.05	138.72	77.16	-33.8	-35.0	19.8	0.00e+00	0	61	0	2041577472	39	4087
2026-01-17 01:43:18.06	140.62	76.88	-33.9	-35.2	19.6	0.00e+00	0	61	0	2047868928	39	4176
2026-01-17 01:43:19.07	142.44	76.60	-34.0	-35.2	19.6	0.00e+00	0	61	0	2053111808	39	4190
2026-01-17 01:43:20.08	144.18	76.30	-34.1	-35.4	19.5	0.00e+00	0	60	0	2059403264	39	4251
2026-01-17 01:43:21.09	145.85	75.99	-34.3	-35.6	19.2	0.00e+00	0	61	0	2064646144	39	4371
2026-01-17 01:43:22.10	147.43	75.67	-34.4	-35.7	19.2	0.00e+00	0	60	0	2069889024	39	4415
2026-01-17 01:43:23.11	148.95	75.34	-34.1	-35.5	19.4	0.00e+00	0	60	0	2076180480	39	4297
2026-01-17 01:43:24.12	150.39	75.00	-34.1	-35.4	19.5	0.00e+00	0	61	0	2081423360	39	4254
2026-01-17 01:43:25.13	151.77	74.65	-34.2	-35.5	19.4	0.00e+00	0	60	0	2087714816	39	4305
2026-01-17 01:43:26.14	153.09	74.30	-34.3	-35.6	19.3	0.00e+00	0	60	0	2092957696	39	4390
2026-01-17 01:43:27.15	154.34	73.94	-34.4	-35.7	19.2	0.00e+00	0	60	0	2098200576	39	4431
2026-01-17 01:43:28.16	155.54	73.57	-34.4	-35.8	19.1	0.00e+00	0	61	0	2104492032	39	4444
2026-01-17 01:43:29.17	156.68	73.20	-34.5	-35.8	19.2	0.00e+00	0	60	0	2109734912	39	4445
2026-01-17 01:43:30.18	157.77	72.83	-34.7	-36.0	19.0	0.00e+00	0	61	0	2116026368	39	4572
2026-01-17 01:43:31.19	158.81	72.45	-34.8	-36.1	18.8	0.00e+00	0	60	0	2121269248	40	4379
2026-01-17 01:43:32.20	159.81	72.06	-34.6	-36.0	18.9	0.00e+00	0	60	0	2126512128	40	4301
2026-01-17 01:43:33.21	160.76	71.68	-34.8	-36.2	18.7	0.00e+00	0	61	0	2132803584	40	4407
2026-01-17 01:43:34.22	161.66	71.28	-35.0	-36.5	18.4	0.00e+00	0	60	0	2138046464	40	4560
2026-01-17 01:43:35.23	162.53	70.89	-34.7	-36.1	18.8	0.00e+00	0	61	0	2144337920	40	4367
2026-01-17 01:43:36.24	163.37	70.50	-34.5	-35.8	19.0	0.00e+00	0	61	0	2149580800	40	4236
2026-01-17 01:43:37.25	164.16	70.10	-34.7	-36.1	18.8	0.00e+00	0	60	0	2155872256	40	4363
2026-01-17 01:43:38.26	164.93	69.70	-35.0	-36.4	18.5	0.00e+00	0	61	0	2161115136	40	4514
2026-01-17 01:43:39.27	165.66	69.30	-35.0	-36.4	18.6	0.00e+00	0	61	0	2167406592	40	4495
2026-01-17 01:43:40.28	166.36	68.89	-34.8	-36.2	18.7	0.00e+00	0	61	0	2172649472	40	4393
2026-01-17 01:43:41.29	167.04	68.49	-35.0	-36.4	18.5	0.00e+00	0	61	0	2177892352	40	4511
2026-01-17 01:43:42.30	167.68	68.09	-35.2	-36.6	18.4	0.00e+00	0	61	0	2184183808	40	4624
2026-01-17 01:43:43.30	168.30	67.69	-35.0	-36.4	18.6	0.00e+00	0	61	0	2189426688	40	4528
2026-01-17 01:43:44.32	168.91	67.28	-34.7	-36.0	19.0	0.00e+00	0	61	0	2195718144	40	4334
2026-01-17 01:43:45.33	169.48	66.87	-34.9	-36.2	18.8	0.00e+00	0	60	0	2200961024	40	4430
2026-01-17 01:43:46.34	170.04	66.46	-35.1	-36.4	18.6	0.00e+00	0	61	0	2206203904	40	4537
2026-01-17 01:43:47.34	170.56	66.06	-35.1	-36.4	18.6	0.00e+00	0	61	0	2212495360	40	4539
2026-01-17 01:43:48.35	171.08	65.66	-35.4	-36.8	18.2	0.00e+00	0	61	0	2217738240	41	4465
2026-01-17 01:43:49.37	171.58	65.25	-35.5	-36.9	18.1	0.00e+00	0	60	0	2224029696	41	4542
2026-01-17 01:43:50.38	172.06	64.84	-35.2	-36.6	18.4	0.00e+00	0	61	0	2229272576	41	4372
2026-01-17 01:43:51.39	172.52	64.44	-35.1	-36.5	18.4	0.00e+00	0	61	0	2234515456	41	4334
2026-01-17 01:43:52.40	172.97	64.04	-35.2	-36.6	18.3	0.00e+00	0	61	0	2240806912	41	4371
2026-01-17 01:43:53.41	173.40	63.64	-35.1	-36.5	18.5	0.00e+00	0	61	0	2246049792	41	4308
2026-01-17 01:43:54.42	173.81	63.24	-35.0	-36.3	18.6	0.00e+00	0	60	0	2252341248	41	4230
2026-01-17 01:43:55.43	174.22	62.84	-35.2	-36.6	18.5	0.00e+00	0	60	0	2257584128	41	4341
2026-01-17 01:43:56.44	174.61	62.44	-35.3	-36.7	18.3	0.00e+00	0	60	0	2263875584	41	4437
2026-01-17 01:43:57.45	174.98	62.04	-35.3	-36.7	18.3	0.00e+00	0	60	0	2269118464	41	4424
2026-01-17 01:43:58.46	175.35	61.64	-35.2	-36.6	18.5	0.00e+00	0	61	0	2275409920	41	4341
2026-01-17 01:43:59.47	175.70	61.25	-35.4	-36.8	18.3	0.00e+00	0	61	0	2280652800	41	4444
2026-01-17 01:44:00.48	176.04	60.85	-35.7	-37.2	17.9	0.00e+00	0	60	0	2285895680	41	4665
2026-01-17 01:44:01.49	176.38	60.46	-35.8	-37.2	17.8	0.00e+00	0	60	0	2292187136	42	4435
2026-01-17 01:44:02.50	176.70	60.07	-35.6	-37.0	18.0	0.00e+00	0	61	0	2297430016	42	4338
2026-01-17 01:44:03.51	177.01	59.68	-35.8	-37.2	17.9	0.00e+00	0	61	0	2303721472	42	4415
2026-01-17 01:44:04.52	177.32	59.30	-36.1	-37.6	17.5	0.00e+00	0	61	0	2308964352	42	4631
2026-01-17 01:44:05.53	177.61	58.91	-36.2	-37.7	17.4	0.00e+00	0	61	0	2314207232	43	4419
2026-01-17 01:44:06.54	177.90	58.53	-35.8	-37.3	17.8	0.00e+00	0	61	0	2320498688	43	4211
2026-01-17 01:44:07.55	178.18	58.15	-35.9	-37.3	17.8	0.00e+00	0	61	0	2325741568	43	4216
2026-01-17 01:44:08.56	178.45	57.77	-36.3	-37.8	17.3	0.00e+00	0	61	0	2332033024	43	4464
2026-01-17 01:44:09.57	178.71	57.39	-36.6	-38.3	16.8	0.00e+00	0	61	0	2337275904	43	4738
2026-01-17 01:44:10.58	178.97	57.01	-36.7	-38.4	16.7	0.00e+00	0	61	0	2342518784	43	4768
2026-01-17 01:44:11.59	179.22	56.64	-36.4	-38.0	17.1	0.00e+00	0	60	0	2348810240	43	4553
2026-01-17 01:44:12.60	179.46	56.27	-36.4	-37.9	17.2	0.00e+00	0	61	0	2354053120	43	4535
2026-01-17 01:44:13.61	179.70	55.90	-36.7	-38.3	16.8	0.00e+00	0	61	0	2360344576	43	4719
2026-01-17 01:44:14.62	179.93	55.53	-37.1	-38.8	16.5	0.00e+00	0	61	0	2365587456	44	4726
2026-01-17 01:44:15.63	180.15	55.16	-37.1	-38.8	16.5	0.00e+00	0	61	0	2371878912	44	4728
2026-01-17 01:44:16.64	180.37	54.80	-36.8	-38.4	16.8	0.00e+00	0	61	0	2377121792	44	4537
2026-01-17 01:44:17.65	180.59	54.44	-36.6	-38.1	17.2	0.00e+00	0	61	0	2382364672	44	4359
2026-01-17 01:44:18.66	180.80	54.08	-36.5	-38.0	17.2	0.00e+00	0	60	0	2388656128	44	4317
2026-01-17 01:44:19.67	181.00	53.72	-36.7	-38.3	17.0	0.00e+00	0	61	0	2393899008	44	4463
2026-01-17 01:44:20.68	181.20	53.36	-37.0	-38.7	16.6	0.00e+00	0	61	0	2400190464	44	4659
2026-01-17 01:44:21.69	181.39	53.01	-37.1	-38.8	16.4	0.00e+00	0	60	0	2405433344	44	4721
2026-01-17 01:44:22.70	181.58	52.66	-37.1	-38.8	16.4	0.00e+00	0	61	0	2410676224	44	4751
2026-01-17 01:44:23.71	181.77	52.31	-37.0	-38.7	16.5	0.00e+00	0	60	0	2416967680	44	4688
2026-01-17 01:44:24.72	181.95	51.96	-36.9	-38.5	16.7	0.00e+00	0	61	0	2422210560	44	4579
2026-01-17 01:44:25.73	182.13	51.62	-36.8	-38.4	16.8	0.00e+00	0	61	0	2428502016	44	4522
2026-01-17 01:44:26.74	182.30	51.28	-36.7	-38.3	16.9	0.00e+00	0	60	0	2433744896	44	4478
2026-01-17 01:44:27.75	182.47	50.94	-36.5	-38.1	17.1	0.00e+00	0	61	0	2438987776	44	4365
2026-01-17 01:44:28.76	182.63	50.60	-36.4	-38.0	17.2	0.00e+00	0	61	0	2445279232	44	4308
2026-01-17 01:44:29.77	182.79	50.26	-36.2	-37.7	17.5	0.00e+00	0	61	0	2450522112	44	4192
2026-01-17 01:44:30.78	182.95	49.93	-36.1	-37.5	17.7	0.00e+00	0	61	0	2456813568	44	4084
2026-01-17 01:44:31.79	183.11	49.60	-35.8	-37.2	17.8	0.00e+00	0	61	0	2462056448	43	4189
2026-01-17 01:44:32.80	183.26	49.27	-35.8	-37.2	17.8	0.00e+00	0	61	0	2468347904	43	4184
2026-01-17 01:44:33.81	183.41	48.94	-35.6	-37.1	17.9	0.00e+00	0	61	0	2473590784	43	4113
2026-01-17 01:44:34.82	183.55	48.62	-35.6	-37.1	18.0	0.00e+00	0	60	0	2479882240	43	4100
2026-01-17 01:44:35.83	183.70	48.29	-35.6	-37.0	18.0	0.00e+00	0	61	0	2485125120	43	4098
2026-01-17 01:44:36.84	183.84	47.97	-35.6	-37.0	18.0	0.00e+00	0	61	0	2490368000	43	4087
2026-01-17 01:44:37.84	183.97	47.66	-35.8	-37.2	17.8	0.00e+00	0	61	0	2496659456	43	4188
2026-01-17 01:44:38.85	184.11	47.34	-35.8	-37.3	17.7	0.00e+00	0	61	0	2501902336	43	4211
2026-01-17 01:44:39.86	184.24	47.03	-35.9	-37.4	17.7	0.00e+00	0	60	0	2508193792	43	4249
2026-01-17 01:44:40.88	184.37	46.72	-35.9	-37.3	17.7	0.00e+00	0	61	0	2513436672	43	4239
2026-01-17 01:44:41.89	184.50	46.41	-35.9	-37.4	17.7	0.00e+00	0	61	0	2518679552	43	4247
2026-01-17 01:44:42.89	184.62	46.10	-35.8	-37.3	17.7	0.00e+00	0	61	0	2524971008	43	4203
2026-01-17 01:44:43.90	184.74	45.80	-35.8	-37.3	17.7	0.00e+00	0	60	0	2530213888	43	4204
2026-01-17 01:44:44.92	184.86	45.49	-35.8	-37.3	17.7	0.00e+00	0	61	0	2536505344	43	4194
2026-01-17 01:44:45.93	184.98	45.19	-35.7	-37.2	17.7	0.00e+00	0	60	0	2541748224	43	4184
2026-01-17 01:44:46.94	185.10	44.89	-35.7	-37.2	17.8	0.00e+00	0	60	0	2546991104	43	4152
2026-01-17 01:44:47.95	185.21	44.60	-35.6	-37.1	17.9	0.00e+00	0	61	0	2553282560	43	4113
2026-01-17 01:44:48.96	185.32	44.30	-35.6	-37.0	18.0	0.00e+00	0	61	0	2558525440	43	4080
2026-01-17 01:44:49.97	185.43	44.01	-35.5	-37.0	18.0	0.00e+00	0	61	0	2564816896	43	4075
2026-01-17 01:44:50.98	185.54	43.72	-35.5	-37.0	18.0	0.00e+00	0	61	0	2570059776	43	4065
2026-01-17 01:44:51.99	185.64	43.43	-35.5	-37.0	18.0	0.00e+00	0	60	0	2575302656	43	4065
2026-01-17 01:44:53.00	185.75	43.14	-35.5	-37.0	17.9	0.00e+00	0	61	0	2581594112	43	4083
2026-01-17 01:44:54.01	185.85	42.86	-35.6	-37.0	17.9	0.00e+00	0	61	0	2586836992	43	4093
2026-01-17 01:44:55.02	185.95	42.58	-35.6	-37.1	17.9	0.00e+00	0	61	0	2593128448	43	4099
2026-01-17 01:44:56.03	186.05	42.30	-35.6	-37.1	17.8	0.00e+00	0	61	0	2598371328	43	4126
2026-01-17 01:44:57.04	186.14	42.02	-35.6	-37.1	17.8	0.00e+00	0	61	0	2604662784	43	4123
2026-01-17 01:44:58.05	186.24	41.74	-35.6	-37.1	17.8	0.00e+00	0	61	0	2609905664	43	4128
2026-01-17 01:44:59.06	186.33	41.47	-35.6	-37.1	17.8	0.00e+00	0	61	0	2616197120	43	4126
2026-01-17 01:45:00.07	186.43	41.20	-35.6	-37.1	17.8	0.00e+00	0	61	0	2621440000	43	4100
2026-01-17 01:45:01.08	186.52	40.93	-35.5	-37.0	17.9	0.00e+00	0	61	0	2626682880	43	4064
2026-01-17 01:45:02.09	186.61	40.66	-35.4	-36.9	18.0	0.00e+00	0	61	0	2632974336	42	4272
2026-01-17 01:45:03.10	186.69	40.39	-35.4	-36.8	18.1	0.00e+00	0	61	0	2638217216	42	4231
2026-01-17 01:45:04.11	186.78	40.13	-35.3	-36.8	18.1	0.00e+00	0	61	0	2644508672	42	4209
2026-01-17 01:45:05.12	186.87	39.87	-35.3	-36.8	18.1	0.00e+00	0	61	0	2649751552	42	4207
2026-01-17 01:45:06.13	186.95	39.61	-35.3	-36.8	18.1	0.00e+00	0	61	0	2654994432	42	4200
2026-01-17 01:45:07.14	187.03	39.35	-35.3	-36.8	18.1	0.00e+00	0	61	0	2661285888	42	4199
2026-01-17 01:45:08.15	187.11	39.09	-35.3	-36.8	18.1	0.00e+00	0	61	0	2666528768	42	4202
2026-01-17 01:45:09.16	187.19	38.83	-35.3	-36.8	18.1	0.00e+00	0	61	0	2672820224	42	4199
2026-01-17 01:45:10.17	187.27	38.58	-35.3	-36.8	18.1	0.00e+00	0	61	0	2678063104	42	4207
2026-01-17 01:45:11.18	187.35	38.33	-35.3	-36.8	18.1	0.00e+00	0	60	0	2683305984	42	4202
2026-01-17 01:45:12.19	187.43	38.08	-35.3	-36.7	18.1	0.00e+00	0	61	0	2689597440	42	4191
2026-01-17 01:45:13.20	187.50	37.83	-35.2	-36.7	18.1	0.00e+00	0	61	0	2694840320	42	4157
2026-01-17 01:45:14.21	187.58	37.59	-35.1	-36.6	18.3	0.00e+00	0	61	0	2701131776	42	4116
2026-01-17 01:45:15.22	187.65	37.34	-35.1	-36.5	18.3	0.00e+00	0	61	0	2706374656	42	4078
2026-01-17 01:45:16.23	187.72	37.10	-34.9	-36.3	18.5	0.00e+00	0	61	0	2712666112	41	4232
2026-01-17 01:45:17.23	187.80	36.86	-34.9	-36.3	18.5	0.00e+00	0	61	0	2717908992	41	4235
2026-01-17 01:45:18.24	187.87	36.62	-35.0	-36.4	18.4	0.00e+00	0	61	0	2723151872	41	4263
2026-01-17 01:45:19.26	187.94	36.38	-35.1	-36.5	18.3	0.00e+00	0	61	0	2729443328	41	4307
2026-01-17 01:45:20.27	188.00	36.15	-35.2	-36.6	18.2	0.00e+00	0	61	0	2734686208	41	4381
2026-01-17 01:45:21.28	188.07	35.91	-35.3	-36.8	18.1	0.00e+00	0	61	0	2740977664	41	4453
2026-01-17 01:45:22.29	188.14	35.68	-35.4	-36.9	17.9	0.00e+00	0	61	0	2746220544	41	4527
2026-01-17 01:45:23.30	188.21	35.45	-35.5	-37.0	17.8	0.00e+00	0	61	0	2751463424	41	4570
2026-01-17 01:45:24.31	188.27	35.22	-35.5	-37.0	17.8	0.00e+00	0	61	0	2757754880	41	4586
2026-01-17 01:45:25.32	188.33	34.99	-35.4	-37.0	17.8	0.00e+00	0	61	0	2762997760	41	4561
2026-01-17 01:45:26.33	188.40	34.77	-35.4	-36.9	17.9	0.00e+00	0	61	0	2769289216	41	4517
2026-01-17 01:45:27.34	188.46	34.54	-35.3	-36.8	18.0	0.00e+00	0	61	0	2774532096	41	4450
2026-01-17 01:45:28.35	188.52	34.32	-35.2	-36.7	18.1	0.00e+00	0	61	0	2779774976	41	4399
2026-01-17 01:45:29.37	188.58	34.10	-35.2	-36.6	18.2	0.00e+00	0	60	0	2786066432	41	4357
2026-01-17 01:45:30.38	188.64	33.88	-35.1	-36.6	18.2	0.00e+00	0	61	0	2791309312	41	4348
2026-01-17 01:45:31.39	188.70	33.66	-35.2	-36.6	18.2	0.00e+00	0	61	0	2797600768	41	4361
2026-01-17 01:45:32.40	188.76	33.44	-35.2	-36.6	18.2	0.00e+00	0	61	0	2802843648	41	4383
2026-01-17 01:45:33.41	188.82	33.23	-35.3	-36.8	18.1	0.00e+00	0	61	0	2809135104	41	4445
2026-01-17 01:45:34.42	188.88	33.01	-35.4	-36.8	18.0	0.00e+00	0	61	0	2814377984	41	4473
2026-01-17 01:45:35.43	188.93	32.80	-35.5	-36.9	17.9	0.00e+00	0	61	0	2820669440	41	4544
2026-01-17 01:45:36.44	188.99	32.59	-35.5	-37.0	17.8	0.00e+00	0	61	0	2825912320	41	4580
2026-01-17 01:45:37.45	189.04	32.38	-35.6	-37.2	17.7	0.00e+00	0	61	0	2831155200	41	4656
2026-01-17 01:45:38.46	189.10	32.17	-35.7	-37.2	17.6	0.00e+00	0	61	0	2837446656	41	4698
2026-01-17 01:45:39.47	189.15	31.97	-35.7	-37.3	17.5	0.00e+00	0	61	0	2842689536	42	4465
2026-01-17 01:45:40.48	189.20	31.76	-35.8	-37.4	17.5	0.00e+00	0	61	0	2848980992	42	4508
2026-01-17 01:45:41.49	189.26	31.56	-35.8	-37.4	17.4	0.00e+00	0	61	0	2854223872	42	4529
2026-01-17 01:45:42.50	189.31	31.36	-35.9	-37.5	17.4	0.00e+00	0	61	0	2859466752	42	4556
2026-01-17 01:45:43.51	189.36	31.16	-35.9	-37.5	17.3	0.00e+00	0	61	0	2865758208	42	4565
2026-01-17 01:45:44.52	189.41	30.96	-35.9	-37.5	17.3	0.00e+00	0	61	0	2871001088	42	4592
2026-01-17 01:45:45.53	189.46	30.76	-35.9	-37.5	17.3	0.00e+00	0	61	0	2877292544	42	4586
2026-01-17 01:45:46.55	189.51	30.56	-36.0	-37.6	17.2	0.00e+00	0	61	0	2882535424	42	4621
2026-01-17 01:45:47.56	189.56	30.36	-36.0	-37.6	17.2	0.00e+00	0	61	0	2888826880	42	4624
2026-01-17 01:45:48.57	189.61	30.17	-36.0	-37.6	17.2	0.00e+00	0	61	0	2894069760	42	4634
2026-01-17 01:45:49.58	189.66	29.98	-36.0	-37.6	17.2	0.00e+00	0	61	0	2899312640	42	4638
2026-01-17 01:45:50.59	189.70	29.78	-36.0	-37.6	17.2	0.00e+00	0	61	0	2905604096	42	4649
2026-01-17 01:45:51.60	189.75	29.59	-36.0	-37.6	17.2	0.00e+00	0	61	0	2910846976	42	4639
2026-01-17 01:45:52.61	189.80	29.40	-36.0	-37.6	17.2	0.00e+00	0	61	0	2917138432	42	4637
2026-01-17 01:45:53.62	189.84	29.22	-36.0	-37.6	17.2	0.00e+00	0	61	0	2922381312	42	4631
2026-01-17 01:45:54.63	189.89	29.03	-36.0	-37.6	17.2	0.00e+00	0	61	0	2928672768	42	4624
2026-01-17 01:45:55.64	189.93	28.84	-36.0	-37.6	17.2	0.00e+00	0	61	0	2933915648	42	4607
2026-01-17 01:45:56.65	189.98	28.66	-35.9	-37.5	17.2	0.00e+00	0	61	0	2939158528	42	4578
2026-01-17 01:45:57.66	190.02	28.48	-35.8	-37.4	17.4	0.00e+00	0	61	0	2945449984	42	4521
2026-01-17 01:45:58.67	190.07	28.30	-35.9	-37.4	17.4	0.00e+00	0	61	0	2950692864	42	4532
2026-01-17 01:45:59.68	190.11	28.11	-35.7	-37.3	17.5	0.00e+00	0	61	0	2956984320	42	4462
2026-01-17 01:46:00.69	190.15	27.94	-35.7	-37.2	17.6	0.00e+00	0	61	0	2962227200	42	4415
2026-01-17 01:46:01.70	190.19	27.76	-35.6	-37.1	17.6	0.00e+00	0	61	0	2967470080	42	4389
2026-01-17 01:46:02.71	190.23	27.58	-35.6	-37.1	17.7	0.00e+00	0	61	0	2973761536	42	4353
2026-01-17 01:46:03.72	190.28	27.40	-35.6	-37.0	17.7	0.00e+00	0	61	0	2979004416	42	4337
2026-01-17 01:46:04.73	190.32	27.23	-35.5	-36.9	17.8	0.00e+00	0	61	0	2985295872	42	4283
2026-01-17 01:46:05.74	190.36	27.05	-35.4	-36.9	17.9	0.00e+00	0	61	0	2990538752	42	4252
2026-01-17 01:46:06.75	190.40	26.88	-35.4	-36.9	17.9	0.00e+00	0	61	0	2995781632	42	4251
2026-01-17 01:46:07.76	190.44	26.71	-35.4	-36.9	17.9	0.00e+00	0	61	0	3002073088	42	4243
2026-01-17 01:46:08.77	190.48	26.54	-35.4	-36.8	17.9	0.00e+00	0	61	0	3007315968	42	4238
2026-01-17 01:46:09.78	190.52	26.37	-35.4	-36.9	17.9	0.00e+00	0	61	0	3013607424	42	4273
2026-01-17 01:46:10.79	190.55	26.20	-35.5	-37.0	17.8	0.00e+00	0	61	0	3018850304	42	4302
2026-01-17 01:46:11.81	190.59	26.03	-35.5	-37.0	17.8	0.00e+00	0	61	0	3025141760	42	4322
2026-01-17 01:46:12.82	190.63	25.87	-35.6	-37.1	17.7	0.00e+00	0	61	0	3030384640	42	4378
2026-01-17 01:46:13.82	190.67	25.70	-35.7	-37.2	17.6	0.00e+00	0	61	0	3036676096	42	4413
2026-01-17 01:46:14.83	190.70	25.54	-35.7	-37.3	17.5	0.00e+00	0	61	0	3041918976	42	4452
2026-01-17 01:46:15.84	190.74	25.37	-35.8	-37.4	17.4	0.00e+00	0	61	0	3047161856	42	4494
2026-01-17 01:46:16.85	190.78	25.21	-35.9	-37.5	17.3	0.00e+00	0	61	0	3053453312	42	4548
2026-01-17 01:46:17.86	190.81	25.05	-35.9	-37.5	17.3	0.00e+00	0	61	0	3058696192	42	4574
2026-01-17 01:46:18.87	190.85	24.89	-36.0	-37.5	17.3	0.00e+00	0	61	0	3064987648	42	4593
2026-01-17 01:46:19.88	190.88	24.73	-35.9	-37.5	17.2	0.00e+00	0	61	0	3070230528	42	4594
2026-01-17 01:46:20.90	190.92	24.57	-36.0	-37.5	17.2	0.00e+00	0	61	0	3075473408	42	4598
2026-01-17 01:46:21.91	190.95	24.41	-36.0	-37.6	17.2	0.00e+00	0	61	0	3081764864	42	4630
2026-01-17 01:46:22.91	190.99	24.26	-36.0	-37.6	17.2	0.00e+00	0	61	0	3087007744	42	4619
2026-01-17 01:46:23.92	191.02	24.10	-36.0	-37.6	17.2	0.00e+00	0	61	0	3093299200	42	4635
2026-01-17 01:46:24.93	191.06	23.95	-36.0	-37.6	17.2	0.00e+00	0	61	0	3098542080	42	4601
2026-01-17 01:46:25.94	191.09	23.79	-35.9	-37.5	17.2	0.00e+00	0	61	0	3103784960	42	4594
2026-01-17 01:46:26.95	191.12	23.64	-35.9	-37.5	17.3	0.00e+00	0	61	0	3110076416	42	4549
2026-01-17 01:46:27.97	191.16	23.48	-35.9	-37.5	17.2	0.00e+00	0	61	0	3115319296	42	4573
2026-01-17 01:46:28.98	191.19	23.33	-35.9	-37.4	17.3	0.00e+00	0	61	0	3121610752	42	4544
2026-01-17 01:46:29.99	191.22	23.18	-35.9	-37.5	17.3	0.00e+00	0	61	0	3126853632	42	4549
2026-01-17 01:46:31.00	191.25	23.03	-35.9	-37.4	17.3	0.00e+00	0	61	0	3133145088	42	4532
2026-01-17 01:46:32.01	191.29	22.88	-35.9	-37.4	17.3	0.00e+00	0	61	0	3138387968	42	4531
2026-01-17 01:46:33.02	191.32	22.74	-35.9	-37.4	17.3	0.00e+00	0	61	0	3144679424	42	4541
2026-01-17 01:46:34.03	191.35	22.59	-35.9	-37.5	17.3	0.00e+00	0	61	0	3149922304	42	4547
2026-01-17 01:46:35.04	191.38	22.44	-36.0	-37.5	17.2	0.00e+00	0	61	0	3155165184	42	4586
2026-01-17 01:46:36.05	191.41	22.30	-36.0	-37.5	17.2	0.00e+00	0	61	0	3161456640	42	4583
2026-01-17 01:46:37.06	191.44	22.15	-36.0	-37.6	17.2	0.00e+00	0	61	0	3166699520	42	4616
2026-01-17 01:46:38.07	191.47	22.01	-36.1	-37.6	17.1	0.00e+00	0	61	0	3172990976	42	4650
2026-01-17 01:46:39.08	191.50	21.87	-36.1	-37.7	17.1	0.00e+00	0	61	0	3178233856	42	4659
2026-01-17 01:46:40.09	191.53	21.73	-36.1	-37.7	17.0	0.00e+00	0	61	0	3183476736	42	4702
2026-01-17 01:46:41.10	191.56	21.58	-36.2	-37.8	17.0	0.00e+00	0	61	0	3189768192	42	4716
2026-01-17 01:46:42.11	191.59	21.44	-36.2	-37.8	16.9	0.00e+00	0	61	0	3195011072	43	4479
2026-01-17 01:46:43.12	191.62	21.30	-36.2	-37.8	16.9	0.00e+00	0	61	0	3201302528	43	4489
2026-01-17 01:46:44.13	191.65	21.16	-36.3	-37.9	16.8	0.00e+00	0	61	0	3206545408	43	4534
2026-01-17 01:46:45.14	191.68	21.03	-36.3	-38.0	16.8	0.00e+00	0	61	0	3211788288	43	4550
2026-01-17 01:46:46.15	191.70	20.89	-36.4	-38.0	16.7	0.00e+00	0	61	0	3218079744	43	4572
2026-01-17 01:46:47.16	191.73	20.75	-36.4	-38.0	16.8	0.00e+00	0	61	0	3223322624	43	4575
2026-01-17 01:46:48.17	191.76	20.62	-36.4	-38.0	16.7	0.00e+00	0	61	0	3229614080	43	4583
2026-01-17 01:46:49.18	191.79	20.48	-36.5	-38.1	16.7	0.00e+00	0	61	0	3234856960	43	4630
2026-01-17 01:46:50.19	191.81	20.35	-36.5	-38.1	16.6	0.00e+00	0	61	0	3241148416	43	4643
2026-01-17 01:46:51.20	191.84	20.21	-36.5	-38.2	16.6	0.00e+00	0	61	0	3246391296	43	4657
2026-01-17 01:46:52.21	191.87	20.08	-36.6	-38.2	16.5	0.00e+00	0	61	0	3252682752	43	4692
2026-01-17 01:46:53.22	191.90	19.95	-36.6	-38.2	16.5	0.00e+00	0	61	0	3257925632	43	4703
2026-01-17 01:46:54.23	191.92	19.81	-36.6	-38.3	16.5	0.00e+00	0	61	0	3263168512	43	4719
2026-01-17 01:46:55.24	191.95	19.68	-36.6	-38.3	16.5	0.00e+00	0	61	0	3269459968	43	4722
2026-01-17 01:46:56.25	191.98	19.55	-36.6	-38.3	16.5	0.00e+00	0	61	0	3274702848	43	4728
2026-01-17 01:46:57.26	192.00	19.42	-36.6	-38.3	16.5	0.00e+00	0	61	0	3280994304	43	4735
2026-01-17 01:46:58.27	192.03	19.29	-36.7	-38.3	16.4	0.00e+00	0	61	0	3286237184	43	4759
2026-01-17 01:46:59.28	192.05	19.17	-36.7	-38.4	16.4	0.00e+00	0	61	0	3291480064	43	4765
2026-01-17 01:47:00.29	192.08	19.04	-36.9	-38.6	16.3	0.00e+00	0	61	0	3297771520	44	4619
2026-01-17 01:47:01.30	192.10	18.91	-36.9	-38.6	16.3	0.00e+00	0	61	0	3303014400	44	4612
2026-01-17 01:47:02.31	192.13	18.79	-36.9	-38.7	16.2	0.00e+00	0	61	0	3309305856	44	4655
2026-01-17 01:47:03.32	192.15	18.66	-37.0	-38.7	16.2	0.00e+00	0	61	0	3314548736	44	4671
2026-01-17 01:47:04.33	192.18	18.53	-37.0	-38.7	16.2	0.00e+00	0	61	0	3319791616	44	4679
2026-01-17 01:47:05.34	192.20	18.41	-37.0	-38.7	16.1	0.00e+00	0	61	0	3326083072	44	4700
2026-01-17 01:47:06.35	192.23	18.29	-37.0	-38.7	16.1	0.00e+00	0	61	0	3331325952	44	4701
2026-01-17 01:47:07.36	192.25	18.16	-37.1	-38.8	16.1	0.00e+00	0	61	0	3337617408	44	4738
2026-01-17 01:47:08.37	192.28	18.04	-37.1	-38.8	16.1	0.00e+00	0	61	0	3342860288	44	4736
2026-01-17 01:47:09.38	192.30	17.92	-37.1	-38.9	16.0	0.00e+00	0	61	0	3349151744	44	4780
2026-01-17 01:47:10.39	192.32	17.80	-37.1	-38.9	16.0	0.00e+00	0	61	0	3354394624	44	4789
2026-01-17 01:47:11.40	192.35	17.68	-37.2	-39.0	15.9	0.00e+00	0	61	0	3359637504	44	4829
2026-01-17 01:47:12.41	192.37	17.56	-37.2	-39.0	15.9	0.00e+00	0	61	0	3365928960	45	4567
2026-01-17 01:47:13.42	192.39	17.44	-37.2	-39.0	15.8	0.00e+00	0	61	0	3371171840	45	4582
2026-01-17 01:47:14.43	192.42	17.32	-37.3	-39.1	15.8	0.00e+00	0	61	0	3377463296	45	4626
2026-01-17 01:47:15.44	192.44	17.20	-37.3	-39.1	15.7	0.00e+00	0	61	0	3382706176	45	4649
2026-01-17 01:47:16.45	192.46	17.08	-37.4	-39.2	15.6	0.00e+00	0	61	0	3387949056	45	4691
2026-01-17 01:47:17.46	192.48	16.96	-37.4	-39.2	15.6	0.00e+00	0	61	0	3394240512	45	4693
2026-01-17 01:47:18.47	192.51	16.85	-37.5	-39.3	15.5	0.00e+00	0	61	0	3399483392	45	4739
2026-01-17 01:47:19.48	192.53	16.73	-37.4	-39.3	15.6	0.00e+00	0	61	0	3405774848	45	4718
2026-01-17 01:47:20.49	192.55	16.61	-37.5	-39.4	15.5	0.00e+00	0	61	0	3411017728	45	4777
2026-01-17 01:47:21.50	192.57	16.50	-37.6	-39.4	15.4	1.10e-06	0	61	0	3416260608	45	4814
2026-01-17 01:47:22.51	192.59	16.38	-37.6	-39.5	15.3	0.00e+00	0	61	0	3422552064	45	4847
2026-01-17 01:47:23.52	192.62	16.27	-37.6	-39.5	15.3	0.00e+00	0	61	0	3427794944	45	4865
2026-01-17 01:47:24.53	192.64	16.16	-37.6	-39.6	15.3	0.00e+00	0	61	0	3434086400	45	4873
2026-01-17 01:47:25.54	192.66	16.04	-37.7	-39.6	15.2	0.00e+00	0	61	0	3439329280	46	4646
