passes_logs/2026/01/17/R2.0S_Moscow/R2.0S_Moscow__20260117_081911_NOAA_21_JPSS-2_rec.log

#Pass ID: 20260117_081911_NOAA 21 (JPSS-2)
#Satellite: NOAA 21 (JPSS-2)
#Configuration: NOAA-21
#almurnet v.1.7.20251203
#Start time: 2026-01-17 08:19:14

#Version: 2.2.20231116
#Station: R2.0S_Moscow
#Location: 37.707566 lon 55.798166 lat
#TLE: 1 54234U 22150A   26016.21096038  .00000027  00000+0  33607-4 0  9993
#TLE: 2 54234  98.7500 317.0960 0000625 282.3388  77.7718 14.19534911164985

#Time	Az	El	Level	Level2	SNR	BER	BlckErr	Temp	State	Recorded	gain1	gain2
2026-01-17 08:19:14.11	113.57	2.13	-41.5	-53.7	3.8	1.49e+00	0	51	0	0	53	15705
2026-01-17 08:19:15.12	113.50	2.19	-40.7	-53.4	3.8	1.50e+00	0	52	104	0	52	15950
2026-01-17 08:19:16.13	113.43	2.25	-41.3	-54.1	3.9	1.49e+00	0	52	104	0	53	16403
2026-01-17 08:19:17.14	113.37	2.31	-41.0	-54.1	3.8	1.49e+00	0	52	104	0	53	16408
2026-01-17 08:19:18.15	113.30	2.36	-40.8	-54.1	3.7	1.49e+00	0	52	104	0	50	19480
2026-01-17 08:19:19.16	113.24	2.42	-40.7	-54.1	3.8	1.49e+00	0	52	104	0	52	17284
2026-01-17 08:19:20.17	113.17	2.48	-40.7	-53.2	4.0	1.50e+00	0	52	104	0	49	18703
2026-01-17 08:19:21.18	113.10	2.54	-40.6	-54.3	3.7	1.49e+00	0	52	104	0	51	18849
2026-01-17 08:19:22.19	113.03	2.60	-39.2	-52.9	3.8	1.50e+00	0	52	104	0	50	16908
2026-01-17 08:19:23.20	112.97	2.65	-40.8	-54.0	3.9	1.50e+00	0	53	104	0	52	17093
2026-01-17 08:19:24.22	112.90	2.71	-41.2	-54.1	3.8	1.49e+00	0	53	104	0	53	16412
2026-01-17 08:19:25.23	112.83	2.77	-38.4	-52.2	3.9	1.49e+00	0	52	104	0	49	16609
2026-01-17 08:19:26.24	112.76	2.83	-41.4	-54.0	3.9	1.49e+00	0	52	104	0	52	17238
2026-01-17 08:19:27.25	112.69	2.89	-41.0	-54.0	3.9	1.49e+00	0	53	104	0	51	18117
2026-01-17 08:19:28.26	112.62	2.95	-41.7	-54.3	3.9	1.49e+00	0	52	104	0	53	16810
2026-01-17 08:19:29.27	112.55	3.01	-39.3	-54.1	3.6	1.50e+00	0	53	104	0	50	19443
2026-01-17 08:19:30.28	112.48	3.06	-38.7	-52.8	3.8	1.50e+00	0	53	104	0	51	15783
2026-01-17 08:19:31.29	112.41	3.12	-40.1	-53.2	4.0	1.50e+00	0	53	104	0	52	15741
2026-01-17 08:19:32.30	112.34	3.18	-38.6	-52.1	3.9	1.50e+00	0	53	104	0	49	16354
2026-01-17 08:19:33.31	112.27	3.24	-40.0	-53.3	4.0	1.50e+00	0	53	104	0	49	18904
2026-01-17 08:19:34.32	112.20	3.30	-41.3	-54.3	3.8	1.49e+00	0	53	104	0	52	17711
2026-01-17 08:19:35.33	112.13	3.36	-38.7	-52.2	4.2	1.49e+00	0	53	104	0	48	17559
2026-01-17 08:19:36.34	112.06	3.42	-40.1	-52.8	4.0	1.50e+00	0	53	104	0	51	15883
2026-01-17 08:19:37.35	111.99	3.48	-40.3	-54.0	3.9	1.49e+00	0	53	104	0	52	17192
2026-01-17 08:19:38.36	111.92	3.54	-40.3	-53.9	3.8	1.49e+00	0	53	104	0	52	16963
2026-01-17 08:19:39.38	111.84	3.60	-39.8	-53.1	3.8	1.49e+00	0	53	104	0	52	15479
2026-01-17 08:19:40.39	111.77	3.66	-38.9	-53.1	3.8	1.50e+00	0	53	104	0	52	15435
2026-01-17 08:19:41.40	111.70	3.72	-39.1	-53.6	3.9	1.49e+00	0	54	104	0	53	15465
2026-01-17 08:19:42.41	111.62	3.78	-40.3	-53.9	3.8	1.49e+00	0	54	104	0	53	15961
2026-01-17 08:19:43.42	111.55	3.84	-40.7	-53.8	4.0	1.50e+00	0	54	104	0	52	16707
2026-01-17 08:19:44.43	111.48	3.90	-40.4	-53.5	3.5	1.50e+00	0	54	104	0	52	16298
2026-01-17 08:19:45.44	111.40	3.96	-41.1	-54.0	3.7	1.49e+00	0	54	104	0	51	18261
2026-01-17 08:19:46.45	111.33	4.02	-40.6	-53.6	3.9	1.49e+00	0	54	104	0	49	19433
2026-01-17 08:19:47.46	111.25	4.08	-41.0	-53.9	3.9	1.49e+00	0	54	104	0	53	16097
2026-01-17 08:19:48.47	111.18	4.14	-33.8	-49.8	3.9	1.49e+00	0	54	104	0	47	14071
2026-01-17 08:19:49.49	111.10	4.20	-40.7	-53.6	3.8	1.50e+00	0	54	104	0	52	16397
2026-01-17 08:19:50.50	111.02	4.26	-39.2	-53.8	3.7	1.49e+00	0	54	104	0	50	18775
2026-01-17 08:19:51.51	110.95	4.32	-41.1	-54.0	3.8	1.49e+00	0	54	104	0	51	18195
2026-01-17 08:19:52.52	110.87	4.38	-40.9	-54.2	3.9	1.49e+00	0	54	104	0	53	16588
2026-01-17 08:19:53.53	110.80	4.44	-41.2	-54.3	3.8	1.49e+00	0	54	104	0	52	17882
2026-01-17 08:19:54.54	110.72	4.50	-39.8	-53.3	3.8	1.50e+00	0	55	104	0	51	16722
2026-01-17 08:19:55.55	110.64	4.57	-40.9	-54.1	3.8	1.49e+00	0	54	104	0	53	16422
2026-01-17 08:19:56.56	110.56	4.63	-40.1	-53.8	3.8	1.49e+00	0	54	104	0	53	15919
2026-01-17 08:19:57.57	110.49	4.69	-39.8	-53.8	3.8	1.49e+00	0	54	104	0	53	15849
2026-01-17 08:19:58.58	110.41	4.75	-40.3	-53.7	3.9	1.50e+00	0	54	104	0	51	17485
2026-01-17 08:19:59.59	110.33	4.81	-36.9	-52.2	3.9	1.49e+00	0	55	104	0	53	13222
2026-01-17 08:20:00.61	110.25	4.87	-39.0	-53.2	3.9	1.49e+00	0	55	104	0	50	17654
2026-01-17 08:20:01.62	110.17	4.93	-38.7	-51.2	4.1	1.49e+00	0	55	104	0	50	13996
2026-01-17 08:20:02.63	110.09	5.00	-40.1	-54.0	3.8	1.49e+00	0	55	104	0	52	17200
2026-01-17 08:20:03.64	110.01	5.06	-40.7	-53.9	4.0	1.49e+00	0	55	104	0	52	17057
2026-01-17 08:20:04.65	109.93	5.12	-40.6	-53.3	4.0	1.49e+00	0	55	104	0	50	17826
2026-01-17 08:20:05.66	109.85	5.18	-39.3	-53.7	4.0	1.49e+00	0	55	104	0	52	16522
2026-01-17 08:20:06.67	109.77	5.24	-40.6	-53.9	3.9	1.49e+00	0	55	104	0	52	17058
2026-01-17 08:20:07.68	109.68	5.31	-40.6	-54.3	3.8	1.49e+00	0	55	104	0	52	17792
2026-01-17 08:20:08.69	109.60	5.37	-37.4	-53.2	4.1	1.49e+00	0	55	104	0	49	18656
2026-01-17 08:20:09.70	109.52	5.43	-37.9	-51.9	4.0	1.50e+00	0	55	104	0	48	16889
2026-01-17 08:20:10.71	109.44	5.49	-38.2	-52.3	3.9	1.49e+00	0	55	104	0	48	17879
2026-01-17 08:20:11.72	109.35	5.56	-40.3	-54.0	4.1	1.50e+00	0	55	104	0	52	17222
2026-01-17 08:20:12.73	109.27	5.62	-40.1	-53.7	3.8	1.50e+00	0	55	104	0	53	15630
2026-01-17 08:20:13.75	109.19	5.68	-40.1	-53.8	4.0	1.50e+00	0	55	104	0	53	15795
2026-01-17 08:20:14.76	109.10	5.74	-41.1	-54.4	3.9	1.49e+00	0	55	104	0	51	18974
2026-01-17 08:20:15.77	109.02	5.81	-39.2	-53.3	4.1	1.49e+00	0	55	104	0	50	17733
2026-01-17 08:20:16.78	108.93	5.87	-41.0	-53.6	3.8	1.49e+00	0	56	104	0	52	16402
2026-01-17 08:20:17.79	108.85	5.93	-40.2	-53.5	3.7	1.49e+00	0	56	104	0	51	17169
2026-01-17 08:20:18.80	108.76	6.00	-40.9	-53.8	3.8	1.50e+00	0	55	104	0	53	15852
2026-01-17 08:20:19.81	108.68	6.06	-40.9	-53.9	3.8	1.49e+00	0	56	104	0	51	17980
2026-01-17 08:20:20.82	108.59	6.12	-40.1	-52.7	3.9	1.49e+00	0	56	104	0	52	14765
2026-01-17 08:20:21.84	108.50	6.19	-39.3	-51.6	3.8	1.50e+00	0	56	104	0	49	15530
2026-01-17 08:20:22.85	108.41	6.25	-40.0	-53.1	3.9	1.49e+00	0	56	104	0	52	15524
2026-01-17 08:20:23.86	108.33	6.31	-40.6	-54.0	3.7	1.49e+00	0	56	104	0	53	16279
2026-01-17 08:20:24.87	108.24	6.38	-39.9	-53.9	3.7	1.49e+00	0	56	104	0	52	17031
2026-01-17 08:20:25.88	108.15	6.44	-40.1	-53.8	3.8	1.49e+00	0	56	104	0	52	16793
2026-01-17 08:20:26.89	108.06	6.51	-38.9	-52.9	3.8	1.49e+00	0	56	104	0	50	16905
2026-01-17 08:20:27.90	107.97	6.57	-38.7	-53.2	3.9	1.49e+00	0	56	104	0	51	16581
2026-01-17 08:20:28.91	107.88	6.63	-36.3	-51.8	4.0	1.49e+00	0	56	104	0	50	14884
2026-01-17 08:20:29.92	107.79	6.70	-41.2	-54.0	3.9	1.50e+00	0	56	104	0	52	17192
2026-01-17 08:20:30.93	107.70	6.76	-41.0	-53.5	4.0	1.49e+00	0	56	104	0	49	19185
2026-01-17 08:20:31.95	107.61	6.83	-38.3	-53.0	4.2	1.50e+00	0	56	104	0	49	18301
2026-01-17 08:20:32.96	107.52	6.89	-40.6	-53.5	3.7	1.49e+00	0	56	104	0	51	17247
2026-01-17 08:20:33.97	107.43	6.96	-40.1	-53.3	3.8	1.50e+00	0	56	104	0	52	15898
2026-01-17 08:20:34.98	107.34	7.02	-36.5	-51.6	4.0	1.50e+00	0	56	104	0	49	15534
2026-01-17 08:20:35.99	107.24	7.09	-40.6	-53.6	4.0	1.50e+00	0	56	104	0	52	16348
2026-01-17 08:20:37.00	107.15	7.15	-38.4	-52.0	3.9	1.50e+00	0	56	104	0	49	16189
2026-01-17 08:20:38.01	107.06	7.22	-37.1	-52.0	3.7	1.50e+00	0	56	104	0	48	17182
2026-01-17 08:20:39.02	106.96	7.28	-40.3	-52.8	3.7	1.50e+00	0	56	104	0	43	25256
2026-01-17 08:20:40.03	106.87	7.35	-39.8	-52.8	4.0	1.49e+00	0	56	104	0	52	14954
2026-01-17 08:20:41.04	106.77	7.41	-40.8	-53.4	3.7	1.49e+00	0	56	104	0	52	15970
2026-01-17 08:20:42.05	106.68	7.48	-40.4	-53.8	3.9	1.49e+00	0	56	104	0	52	16749
2026-01-17 08:20:43.07	106.58	7.54	-35.9	-50.5	3.9	1.49e+00	0	56	104	0	47	15380
2026-01-17 08:20:44.08	106.49	7.61	-40.2	-53.1	4.0	1.50e+00	0	57	104	0	52	15459
2026-01-17 08:20:45.09	106.39	7.67	-35.5	-48.7	3.9	1.49e+00	0	57	104	0	45	13929
2026-01-17 08:20:46.10	106.29	7.74	-37.4	-48.3	4.1	1.48e+00	0	57	104	0	48	11240
2026-01-17 08:20:47.11	106.20	7.80	-38.9	-47.2	5.4	1.45e+00	11	57	104	0	50	8767
2026-01-17 08:20:48.12	106.10	7.87	-36.8	-46.1	5.4	6.83e-01	16	57	0	0	44	11016
2026-01-17 08:20:49.13	106.00	7.94	-37.4	-44.8	6.1	3.89e-01	21	57	0	2097152	46	8377
2026-01-17 08:20:50.14	105.90	8.00	-39.3	-45.2	6.8	4.13e-01	3	57	0	4194304	46	8764
2026-01-17 08:20:51.15	105.80	8.07	-35.2	-44.0	6.4	5.44e-01	4	57	0	7340032	44	8601
2026-01-17 08:20:52.16	105.70	8.14	-37.5	-51.9	4.0	1.49e+00	0	57	104	7340032	49	16011
2026-01-17 08:20:53.18	105.60	8.20	-40.3	-48.7	5.1	1.47e+00	4	57	104	7340032	47	12424
2026-01-17 08:20:54.19	105.50	8.27	-38.1	-49.3	4.0	1.38e+00	0	57	104	7340032	47	13343
2026-01-17 08:20:55.20	105.40	8.34	-36.3	-49.8	3.8	1.49e+00	0	57	104	7340032	44	16728
2026-01-17 08:20:56.21	105.30	8.40	-38.4	-48.8	4.0	1.48e+00	0	57	104	7340032	46	13360
2026-01-17 08:20:57.22	105.20	8.47	-38.5	-43.8	7.9	1.53e-01	0	57	0	8388608	48	6666
2026-01-17 08:20:58.23	105.10	8.54	-38.2	-43.7	7.8	3.79e-01	0	57	0	10485760	46	7406
2026-01-17 08:20:59.23	104.99	8.60	-38.9	-44.3	7.8	8.16e-01	4	57	0	12582912	48	7076
2026-01-17 08:21:00.24	104.89	8.67	-39.5	-44.1	7.9	2.61e-01	0	57	0	15728640	49	6537
2026-01-17 08:21:01.26	104.79	8.74	-38.7	-43.9	7.6	1.77e-01	0	57	0	17825792	48	6800
2026-01-17 08:21:02.27	104.68	8.80	-38.2	-43.9	8.1	9.64e-02	0	57	0	22020096	49	6352
2026-01-17 08:21:03.28	104.58	8.87	-39.0	-43.7	8.3	1.30e-01	0	57	0	24117248	48	6615
2026-01-17 08:21:04.29	104.47	8.94	-38.5	-44.4	4.4	4.10e-01	0	57	104	27262976	44	9038
2026-01-17 08:21:05.30	104.37	9.01	-33.6	-43.5	4.3	7.46e-01	0	57	104	27262976	37	12216
2026-01-17 08:21:06.30	104.26	9.07	-32.0	-41.9	5.9	2.73e-01	6	57	0	28311552	45	6353
2026-01-17 08:21:07.31	104.15	9.14	-38.5	-43.5	8.3	1.59e-01	0	57	0	28311552	48	6483
2026-01-17 08:21:08.32	104.05	9.21	-38.2	-43.3	8.0	1.29e-01	1	57	0	31457280	47	6704
2026-01-17 08:21:09.33	103.94	9.27	-37.7	-43.3	8.0	3.00e-01	1	58	0	33554432	46	7093
2026-01-17 08:21:10.34	103.83	9.34	-38.3	-43.6	7.8	1.74e-01	0	58	0	36700160	49	6202
2026-01-17 08:21:11.35	103.72	9.41	-38.0	-43.9	7.0	2.78e-01	12	57	0	39845888	46	7599
2026-01-17 08:21:12.37	103.61	9.48	-35.2	-43.0	7.0	2.72e-01	6	57	0	41943040	46	6869
2026-01-17 08:21:13.38	103.50	9.55	-36.5	-43.1	7.4	3.90e-01	3	57	0	44040192	47	6537
2026-01-17 08:21:14.39	103.39	9.62	-37.1	-43.3	7.8	4.10e-01	1	58	0	44040192	46	7071
2026-01-17 08:21:15.39	103.28	9.68	-37.0	-44.2	4.4	9.10e-01	0	57	104	46137344	44	8786
2026-01-17 08:21:16.40	103.17	9.75	-36.6	-44.2	4.3	7.00e-01	0	58	104	46137344	45	8325
2026-01-17 08:21:17.41	103.06	9.82	-36.4	-43.7	4.6	1.33e+00	0	58	104	46137344	44	8294
2026-01-17 08:21:18.42	102.95	9.89	-36.3	-43.2	7.4	4.01e-01	17	58	0	46137344	44	7830
2026-01-17 08:21:19.43	102.83	9.96	-38.1	-43.5	4.5	4.38e-01	0	58	104	48234496	45	7691
2026-01-17 08:21:20.44	102.72	10.03	-36.8	-43.4	5.5	1.43e+00	10	58	104	48234496	41	9505
2026-01-17 08:21:21.45	102.60	10.09	-35.4	-42.8	6.4	5.89e-01	0	58	0	48234496	38	10552
2026-01-17 08:21:22.46	102.49	10.16	-35.0	-42.3	6.6	7.36e-01	15	58	0	48234496	41	8420
2026-01-17 08:21:23.47	102.37	10.23	-36.5	-43.4	6.9	7.46e-01	14	58	0	48234496	44	8067
2026-01-17 08:21:24.48	102.26	10.30	-34.7	-42.6	6.5	9.33e-01	0	58	104	48234496	41	8736
2026-01-17 08:21:25.49	102.14	10.37	-34.9	-42.4	6.8	1.33e+00	13	58	104	48234496	42	8070
2026-01-17 08:21:26.50	102.03	10.44	-33.8	-42.1	5.4	1.30e+00	0	58	104	48234496	41	8215
2026-01-17 08:21:27.51	101.91	10.51	-33.9	-43.2	4.5	1.26e+00	0	58	104	48234496	39	10489
2026-01-17 08:21:28.51	101.79	10.58	-34.5	-42.8	5.7	8.86e-01	0	58	0	48234496	40	9404
2026-01-17 08:21:29.52	101.67	10.65	-33.5	-42.6	6.8	1.13e+00	2	58	104	48234496	38	10330
2026-01-17 08:21:30.53	101.55	10.72	-33.4	-41.9	6.5	8.39e-01	2	58	0	48234496	39	9060
2026-01-17 08:21:31.54	101.43	10.79	-34.5	-43.0	6.3	1.34e+00	0	58	104	48234496	40	9618
2026-01-17 08:21:32.55	101.31	10.86	-32.6	-42.8	6.2	1.30e+00	0	58	0	48234496	40	9466
2026-01-17 08:21:33.56	101.19	10.93	-33.0	-42.7	4.6	1.19e+00	0	58	104	48234496	39	9899
2026-01-17 08:21:34.57	101.07	10.99	-27.3	-41.0	4.0	1.49e+00	0	58	104	48234496	25	18097
2026-01-17 08:21:35.58	100.95	11.06	-31.1	-42.1	3.9	1.48e+00	0	58	104	48234496	23	23123
2026-01-17 08:21:36.59	100.83	11.13	-25.9	-40.4	4.0	1.49e+00	0	58	104	48234496	24	17977
2026-01-17 08:21:37.60	100.70	11.20	-26.5	-41.5	4.0	1.50e+00	0	58	104	48234496	28	16170
2026-01-17 08:21:38.61	100.58	11.27	-26.6	-39.2	3.9	1.50e+00	0	58	104	48234496	16	24879
2026-01-17 08:21:39.62	100.46	11.34	-33.0	-44.3	4.2	1.50e+00	0	58	104	48234496	27	23713
2026-01-17 08:21:40.63	100.33	11.41	-28.3	-41.2	4.0	1.49e+00	0	58	104	48234496	27	16526
2026-01-17 08:21:41.64	100.20	11.49	-28.3	-41.7	4.1	1.49e+00	0	58	104	48234496	28	16515
2026-01-17 08:21:42.65	100.08	11.56	-27.7	-39.7	4.2	1.46e+00	0	58	104	48234496	27	13901
2026-01-17 08:21:43.66	99.95	11.63	-26.1	-39.7	4.1	1.48e+00	0	58	104	48234496	26	14735
2026-01-17 08:21:44.67	99.82	11.70	-27.2	-39.5	4.3	1.48e+00	0	58	104	48234496	26	14467
2026-01-17 08:21:45.68	99.70	11.77	-27.5	-42.1	4.1	1.48e+00	0	58	104	48234496	26	19592
2026-01-17 08:21:46.69	99.57	11.84	-28.3	-41.3	4.6	1.50e+00	0	58	104	48234496	23	21206
2026-01-17 08:21:47.70	99.44	11.91	-31.5	-42.8	4.2	1.48e+00	0	59	104	48234496	34	13406
2026-01-17 08:21:48.71	99.31	11.98	-27.6	-41.2	4.1	1.25e+00	0	58	104	48234496	27	16545
2026-01-17 08:21:49.72	99.18	12.05	-21.0	-37.0	3.7	1.50e+00	0	58	104	48234496	25	11468
2026-01-17 08:21:50.73	99.05	12.12	-29.5	-43.6	4.0	1.50e+00	0	58	104	48234496	31	17352
2026-01-17 08:21:51.74	98.91	12.19	-29.3	-43.6	4.0	1.50e+00	0	58	104	48234496	28	20566
2026-01-17 08:21:52.75	98.78	12.26	-28.7	-42.0	3.9	1.50e+00	0	58	104	48234496	27	18178
2026-01-17 08:21:53.76	98.65	12.33	-25.8	-40.8	4.1	1.50e+00	0	58	104	48234496	28	15045
2026-01-17 08:21:54.78	98.51	12.40	-30.3	-44.0	5.2	1.46e+00	5	58	104	48234496	38	12198
2026-01-17 08:21:55.78	98.38	12.48	-37.8	-48.0	4.9	1.40e+00	0	59	104	48234496	50	9634
2026-01-17 08:21:56.79	98.24	12.55	-32.8	-44.2	5.6	4.89e-01	2	59	0	48234496	39	11713
2026-01-17 08:21:57.80	98.11	12.62	-29.8	-43.2	5.6	1.07e+00	19	58	104	48234496	40	9857
2026-01-17 08:21:58.81	97.97	12.69	-39.4	-45.2	7.9	5.25e-01	4	58	0	48234496	51	6630
2026-01-17 08:21:59.82	97.83	12.76	-39.7	-45.2	7.9	2.33e-01	0	58	0	50331648	51	6606
2026-01-17 08:22:00.83	97.70	12.83	-38.0	-45.0	6.9	4.93e-01	8	59	0	53477376	49	7229
2026-01-17 08:22:01.84	97.56	12.90	-38.9	-45.6	6.6	2.46e-01	5	59	0	54525952	51	6942
2026-01-17 08:22:02.85	97.42	12.97	-40.0	-45.8	7.9	1.51e-01	0	58	0	57671680	52	6696
2026-01-17 08:22:03.86	97.28	13.05	-33.6	-45.2	6.4	1.74e-01	3	59	0	59768832	49	7447
2026-01-17 08:22:04.86	97.14	13.12	-40.5	-46.2	6.8	1.55e-01	6	59	0	61865984	49	8288
2026-01-17 08:22:05.87	97.00	13.19	-41.2	-45.9	8.1	1.40e-01	0	58	0	65011712	53	6359
2026-01-17 08:22:06.89	96.85	13.26	-40.9	-45.8	7.9	1.39e-01	0	59	0	68157440	50	7480
2026-01-17 08:22:07.90	96.71	13.33	-38.2	-45.5	8.5	5.56e-02	0	59	0	71303168	52	6469
2026-01-17 08:22:08.91	96.57	13.40	-41.0	-45.0	9.5	3.42e-02	0	59	0	74448896	52	6098
2026-01-17 08:22:09.92	96.42	13.47	-40.4	-44.8	9.4	2.12e-02	0	59	0	77594624	52	5976
2026-01-17 08:22:10.93	96.28	13.55	-40.3	-43.5	11.3	5.03e-03	0	59	0	80740352	51	5407
2026-01-17 08:22:11.94	96.13	13.62	-40.1	-43.0	11.9	4.45e-04	0	59	0	83886080	51	5148
2026-01-17 08:22:12.95	95.99	13.69	-40.0	-42.9	12.1	7.80e-04	0	59	0	87031808	50	5366
2026-01-17 08:22:13.96	95.84	13.76	-39.7	-42.8	11.7	3.29e-04	0	59	0	91226112	50	5326
2026-01-17 08:22:14.97	95.69	13.83	-40.0	-42.7	12.4	1.23e-04	0	59	0	93323264	50	5265
2026-01-17 08:22:15.98	95.55	13.91	-40.0	-42.8	12.3	2.07e-04	0	59	0	96468992	50	5329
2026-01-17 08:22:16.99	95.40	13.98	-39.9	-42.6	12.4	1.45e-04	0	59	0	99614720	50	5214
2026-01-17 08:22:18.00	95.25	14.05	-40.0	-42.7	12.4	1.25e-04	0	59	0	102760448	50	5255
2026-01-17 08:22:19.01	95.10	14.12	-39.8	-42.6	12.5	1.13e-04	0	59	0	105906176	50	5163
2026-01-17 08:22:20.01	94.95	14.19	-39.9	-42.7	12.4	2.01e-04	0	59	0	110100480	50	5242
2026-01-17 08:22:21.02	94.79	14.26	-39.9	-42.6	12.5	1.36e-04	0	59	0	113246208	50	5170
2026-01-17 08:22:22.03	94.64	14.34	-40.2	-43.2	11.9	2.43e-04	0	59	0	115343360	51	5242
2026-01-17 08:22:23.04	94.49	14.41	-40.2	-43.1	11.9	4.25e-04	0	59	0	118489088	51	5215
2026-01-17 08:22:24.05	94.33	14.48	-39.9	-42.7	12.4	1.64e-04	0	59	0	121634816	51	4941
2026-01-17 08:22:25.06	94.18	14.55	-40.1	-43.0	12.0	3.02e-04	0	59	0	125829120	51	5143
2026-01-17 08:22:26.07	94.02	14.62	-40.0	-42.8	12.3	2.78e-04	0	59	0	128974848	51	5023
2026-01-17 08:22:27.08	93.87	14.70	-40.1	-42.9	12.2	2.04e-04	0	59	0	132120576	51	5070
2026-01-17 08:22:28.09	93.71	14.77	-40.2	-43.1	12.0	2.67e-04	0	59	0	135266304	51	5166
2026-01-17 08:22:29.10	93.55	14.84	-40.1	-43.0	12.1	2.07e-04	0	59	0	138412032	51	5103
2026-01-17 08:22:30.11	93.39	14.91	-40.1	-42.9	12.2	2.22e-04	0	59	0	141557760	51	5066
2026-01-17 08:22:31.12	93.23	14.98	-40.1	-43.0	12.1	2.33e-04	0	59	0	144703488	51	5124
2026-01-17 08:22:32.13	93.07	15.05	-40.2	-43.1	11.9	4.14e-04	0	59	0	147849216	51	5211
2026-01-17 08:22:33.14	92.91	15.13	-40.3	-43.2	11.9	3.84e-04	0	59	0	150994944	51	5260
2026-01-17 08:22:34.15	92.75	15.20	-40.3	-43.3	11.8	4.39e-04	0	59	0	154140672	51	5292
2026-01-17 08:22:35.16	92.58	15.27	-40.3	-43.2	11.9	5.59e-04	0	59	0	157286400	51	5254
2026-01-17 08:22:36.17	92.42	15.34	-40.3	-43.2	11.8	4.87e-04	0	59	0	160432128	51	5251
2026-01-17 08:22:37.18	92.26	15.41	-40.2	-43.1	11.9	3.49e-04	0	59	0	163577856	51	5203
2026-01-17 08:22:38.19	92.09	15.49	-40.0	-42.8	12.2	2.59e-04	0	59	0	166723584	51	5030
2026-01-17 08:22:39.20	91.93	15.56	-40.1	-43.0	12.1	2.59e-04	0	59	0	169869312	51	5119
2026-01-17 08:22:40.21	91.76	15.63	-40.1	-43.0	11.9	2.90e-04	0	59	0	173015040	51	5152
2026-01-17 08:22:41.22	91.59	15.70	-40.1	-43.0	12.0	3.71e-04	0	59	0	176160768	51	5106
2026-01-17 08:22:42.23	91.42	15.77	-40.1	-43.0	12.0	2.87e-04	0	59	0	179306496	51	5127
2026-01-17 08:22:43.24	91.25	15.84	-40.1	-43.0	11.9	3.16e-04	0	59	0	182452224	51	5134
2026-01-17 08:22:44.25	91.08	15.92	-40.1	-43.1	11.9	3.62e-04	0	59	0	185597952	51	5162
2026-01-17 08:22:45.26	90.91	15.99	-40.1	-43.1	11.8	4.16e-04	0	59	0	188743680	51	5190
2026-01-17 08:22:46.27	90.74	16.06	-40.1	-43.1	11.8	4.49e-04	0	59	0	191889408	51	5162
2026-01-17 08:22:47.28	90.57	16.13	-40.1	-43.1	11.7	6.31e-04	0	59	0	195035136	51	5196
2026-01-17 08:22:48.29	90.39	16.20	-40.0	-43.0	11.7	5.02e-04	0	59	0	198180864	51	5127
2026-01-17 08:22:49.30	90.22	16.27	-39.9	-42.9	11.8	5.10e-04	0	59	0	201326592	51	5061
2026-01-17 08:22:50.31	90.05	16.34	-39.9	-42.9	11.7	6.06e-04	0	59	0	204472320	51	5081
2026-01-17 08:22:51.32	89.87	16.41	-40.0	-43.0	11.5	7.86e-04	0	59	0	207618048	51	5145
2026-01-17 08:22:52.33	89.69	16.49	-39.9	-42.9	11.7	6.10e-04	0	59	0	210763776	51	5057
2026-01-17 08:22:53.34	89.52	16.56	-39.8	-42.8	11.7	6.16e-04	0	59	0	213909504	51	5014
2026-01-17 08:22:54.35	89.34	16.63	-39.8	-42.8	11.7	4.98e-04	0	59	0	217055232	51	5009
2026-01-17 08:22:55.36	89.16	16.70	-39.9	-43.0	11.5	7.51e-04	0	59	0	220200960	51	5101
2026-01-17 08:22:56.38	88.98	16.77	-39.9	-43.0	11.5	7.53e-04	0	59	0	223346688	51	5105
2026-01-17 08:22:57.39	88.79	16.84	-40.0	-43.2	11.3	1.06e-03	0	59	0	226492416	51	5241
2026-01-17 08:22:58.40	88.61	16.91	-40.1	-43.3	11.1	1.59e-03	0	59	0	229638144	51	5315
2026-01-17 08:22:59.41	88.43	16.98	-40.1	-43.5	10.8	2.25e-03	0	59	0	232783872	51	5417
2026-01-17 08:23:00.41	88.25	17.05	-40.2	-43.8	10.4	4.19e-03	0	59	0	235929600	51	5593
2026-01-17 08:23:01.42	88.06	17.12	-40.3	-44.1	10.1	6.57e-03	0	59	0	239075328	51	5796
2026-01-17 08:23:02.43	87.88	17.19	-40.4	-44.3	9.7	9.75e-03	0	59	0	242221056	51	5939
2026-01-17 08:23:03.44	87.69	17.26	-40.4	-44.4	9.6	1.43e-02	0	59	0	245366784	51	6042
2026-01-17 08:23:04.45	87.51	17.33	-40.4	-44.3	9.7	1.28e-02	0	59	0	248512512	51	5965
2026-01-17 08:23:05.46	87.32	17.40	-40.5	-44.5	9.5	1.36e-02	0	59	0	251658240	51	6125
2026-01-17 08:23:06.47	87.13	17.47	-40.5	-44.6	9.4	1.62e-02	0	60	0	254803968	51	6177
2026-01-17 08:23:07.48	86.94	17.54	-40.4	-44.4	9.7	1.37e-02	0	59	0	257949696	51	6003
2026-01-17 08:23:08.49	86.75	17.61	-40.5	-44.3	9.9	8.59e-03	0	59	0	261095424	51	5951
2026-01-17 08:23:09.50	86.56	17.68	-40.3	-44.1	10.2	7.00e-03	0	59	0	264241152	51	5789
2026-01-17 08:23:10.51	86.36	17.75	-40.4	-44.1	10.1	6.22e-03	0	59	0	267386880	51	5836
2026-01-17 08:23:11.52	86.17	17.82	-40.5	-44.2	10.0	7.66e-03	0	59	0	270532608	51	5880
2026-01-17 08:23:12.53	85.98	17.89	-40.5	-44.3	9.9	8.74e-03	0	59	0	273678336	51	5968
2026-01-17 08:23:13.54	85.78	17.96	-40.5	-44.4	9.8	1.03e-02	0	60	0	276824064	51	6004
2026-01-17 08:23:14.55	85.59	18.02	-40.4	-44.2	9.9	9.54e-03	0	59	0	279969792	51	5900
2026-01-17 08:23:15.56	85.39	18.09	-40.4	-44.2	9.8	8.81e-03	0	59	0	283115520	51	5916
2026-01-17 08:23:16.57	85.19	18.16	-40.2	-43.9	10.1	7.44e-03	0	59	0	286261248	51	5707
2026-01-17 08:23:17.58	84.99	18.23	-40.2	-43.9	10.2	6.12e-03	0	59	0	289406976	51	5657
2026-01-17 08:23:18.59	84.79	18.30	-40.2	-43.8	10.3	5.84e-03	0	59	0	292552704	51	5643
2026-01-17 08:23:19.60	84.59	18.36	-40.1	-43.7	10.4	4.50e-03	0	59	0	295698432	51	5553
2026-01-17 08:23:20.61	84.39	18.43	-40.2	-43.8	10.3	5.06e-03	0	60	0	298844160	51	5649
2026-01-17 08:23:21.62	84.19	18.50	-40.2	-43.8	10.4	4.48e-03	0	60	0	301989888	51	5594
2026-01-17 08:23:22.63	83.99	18.57	-40.2	-43.6	10.6	3.64e-03	0	59	0	305135616	51	5521
2026-01-17 08:23:23.64	83.78	18.63	-40.1	-43.5	10.7	2.85e-03	0	60	0	308281344	51	5455
2026-01-17 08:23:24.65	83.58	18.70	-40.1	-43.5	10.8	2.59e-03	0	60	0	311427072	51	5435
2026-01-17 08:23:25.66	83.37	18.77	-40.2	-43.5	10.8	2.53e-03	0	60	0	314572800	51	5437
2026-01-17 08:23:26.66	83.17	18.83	-40.2	-43.5	10.8	2.64e-03	0	59	0	317718528	51	5430
2026-01-17 08:23:27.67	82.96	18.90	-40.0	-43.2	11.2	1.54e-03	0	60	0	320864256	51	5249
2026-01-17 08:23:28.68	82.75	18.96	-40.0	-43.2	11.2	1.42e-03	0	60	0	324009984	51	5263
2026-01-17 08:23:29.69	82.54	19.03	-40.0	-43.2	11.2	1.39e-03	0	60	0	327155712	51	5258
2026-01-17 08:23:30.70	82.33	19.10	-40.0	-43.3	11.1	1.42e-03	0	60	0	330301440	51	5302
2026-01-17 08:23:31.71	82.12	19.16	-40.1	-43.3	11.1	1.63e-03	0	60	0	333447168	51	5298
2026-01-17 08:23:32.72	81.91	19.23	-40.0	-43.2	11.2	1.46e-03	0	59	0	336592896	51	5278
2026-01-17 08:23:33.73	81.70	19.29	-40.1	-43.3	11.2	1.46e-03	0	60	0	339738624	51	5310
2026-01-17 08:23:34.74	81.48	19.36	-40.0	-43.1	11.4	1.11e-03	0	60	0	342884352	51	5203
2026-01-17 08:23:35.76	81.27	19.42	-40.0	-43.1	11.4	1.04e-03	0	60	0	346030080	51	5185
2026-01-17 08:23:36.76	81.05	19.48	-40.0	-43.1	11.4	8.76e-04	0	60	0	349175808	51	5218
2026-01-17 08:23:37.77	80.84	19.55	-40.1	-43.3	11.3	1.09e-03	0	60	0	352321536	51	5285
2026-01-17 08:23:38.78	80.62	19.61	-40.1	-43.3	11.2	1.31e-03	0	60	0	355467264	51	5332
2026-01-17 08:23:39.79	80.40	19.68	-40.1	-43.3	11.2	1.26e-03	0	60	0	358612992	51	5335
2026-01-17 08:23:40.80	80.18	19.74	-40.2	-43.5	11.1	1.42e-03	0	60	0	361758720	51	5417
2026-01-17 08:23:41.81	79.96	19.80	-40.2	-43.5	11.0	1.52e-03	0	60	0	364904448	51	5459
2026-01-17 08:23:42.82	79.74	19.86	-40.2	-43.5	11.1	1.70e-03	0	60	0	368050176	51	5417
2026-01-17 08:23:43.83	79.52	19.93	-40.2	-43.5	11.1	1.62e-03	0	60	0	371195904	51	5442
2026-01-17 08:23:44.84	79.29	19.99	-40.4	-43.8	10.9	1.61e-03	0	59	0	374341632	51	5608
2026-01-17 08:23:45.85	79.07	20.05	-40.3	-43.6	11.1	1.67e-03	0	60	0	377487360	51	5468
2026-01-17 08:23:46.86	78.84	20.11	-40.2	-43.4	11.3	1.30e-03	0	60	0	380633088	51	5359
2026-01-17 08:23:47.87	78.62	20.17	-40.1	-43.2	11.4	1.05e-03	0	60	0	383778816	51	5279
2026-01-17 08:23:48.88	78.39	20.23	-40.1	-43.2	11.4	9.58e-04	0	60	0	386924544	51	5262
2026-01-17 08:23:49.89	78.17	20.29	-40.0	-43.1	11.6	8.80e-04	0	60	0	390070272	51	5192
2026-01-17 08:23:50.90	77.94	20.35	-40.0	-43.0	11.7	6.32e-04	0	60	0	393216000	51	5157
2026-01-17 08:23:51.91	77.71	20.41	-40.0	-43.0	11.7	6.38e-04	0	60	0	396361728	51	5156
2026-01-17 08:23:52.92	77.48	20.47	-39.9	-42.7	12.0	4.43e-04	0	60	0	399507456	51	4981
2026-01-17 08:23:53.93	77.25	20.53	-39.8	-42.7	12.0	3.13e-04	0	60	0	402653184	51	4977
2026-01-17 08:23:54.95	77.01	20.59	-39.9	-42.8	11.9	3.65e-04	0	60	0	405798912	51	5013
2026-01-17 08:23:55.95	76.78	20.65	-39.9	-42.9	11.9	3.61e-04	0	59	0	408944640	51	5051
2026-01-17 08:23:56.97	76.55	20.70	-40.0	-42.9	11.8	4.34e-04	0	60	0	412090368	51	5097
2026-01-17 08:23:57.98	76.31	20.76	-40.0	-43.0	11.8	5.08e-04	0	60	0	415236096	51	5126
2026-01-17 08:23:58.99	76.08	20.82	-40.1	-43.1	11.7	5.38e-04	0	60	0	418381824	51	5166
2026-01-17 08:24:00.00	75.84	20.88	-40.1	-43.1	11.7	5.49e-04	0	60	0	421527552	51	5176
2026-01-17 08:24:01.00	75.60	20.93	-40.1	-43.0	11.9	5.13e-04	0	60	0	424673280	51	5137
2026-01-17 08:24:02.01	75.37	20.99	-40.0	-42.9	12.0	3.57e-04	0	60	0	428867584	51	5073
2026-01-17 08:24:03.02	75.13	21.04	-40.0	-42.9	12.0	3.52e-04	0	60	0	432013312	51	5063
2026-01-17 08:24:04.03	74.89	21.10	-40.0	-42.9	11.9	3.39e-04	0	60	0	434110464	51	5094
2026-01-17 08:24:05.04	74.65	21.15	-40.1	-43.0	11.9	4.29e-04	0	60	0	437256192	51	5116
2026-01-17 08:24:06.05	74.41	21.21	-39.9	-42.7	12.2	2.71e-04	0	60	0	440401920	51	4963
2026-01-17 08:24:07.06	74.16	21.26	-39.9	-42.6	12.5	1.40e-04	0	60	0	444596224	51	4891
2026-01-17 08:24:08.07	73.92	21.31	-39.8	-42.5	12.6	9.91e-05	0	60	0	447741952	51	4840
2026-01-17 08:24:09.08	73.68	21.37	-39.9	-42.6	12.6	8.39e-05	0	60	0	450887680	51	4889
2026-01-17 08:24:10.09	73.43	21.42	-39.8	-42.4	12.7	7.47e-05	0	60	0	454033408	51	4813
2026-01-17 08:24:11.10	73.19	21.47	-39.8	-42.3	13.0	3.96e-05	0	60	0	456130560	51	4736
2026-01-17 08:24:12.11	72.94	21.52	-39.7	-42.2	13.2	3.50e-05	0	60	0	460324864	51	4657
2026-01-17 08:24:13.12	72.69	21.57	-39.6	-42.0	13.3	2.67e-05	0	60	0	463470592	51	4591
2026-01-17 08:24:14.13	72.44	21.62	-39.6	-42.0	13.3	1.83e-05	0	60	0	466616320	51	4592
2026-01-17 08:24:15.14	72.19	21.67	-39.6	-42.1	13.2	2.21e-05	0	60	0	469762048	51	4636
2026-01-17 08:24:16.15	71.94	21.72	-39.6	-42.1	13.2	2.13e-05	0	60	0	472907776	51	4632
2026-01-17 08:24:17.16	71.69	21.77	-39.6	-42.1	13.2	3.05e-05	0	60	0	476053504	51	4635
2026-01-17 08:24:18.17	71.44	21.82	-39.6	-42.0	13.4	1.52e-05	0	60	0	479199232	51	4568
2026-01-17 08:24:19.18	71.19	21.87	-39.5	-41.9	13.5	1.52e-05	0	60	0	482344960	51	4539
2026-01-17 08:24:20.19	70.94	21.92	-39.6	-42.0	13.4	1.60e-05	0	60	0	485490688	51	4593
2026-01-17 08:24:21.20	70.68	21.97	-39.6	-42.1	13.4	1.22e-05	0	60	0	488636416	51	4603
2026-01-17 08:24:22.21	70.43	22.01	-39.6	-42.0	13.5	7.60e-06	0	60	0	491782144	51	4587
2026-01-17 08:24:23.22	70.17	22.06	-39.6	-42.0	13.6	9.90e-06	0	60	0	494927872	51	4549
2026-01-17 08:24:24.23	69.92	22.10	-39.6	-41.9	13.7	8.30e-06	0	60	0	498073600	51	4536
2026-01-17 08:24:25.24	69.66	22.15	-39.6	-41.9	13.7	4.50e-06	0	60	0	501219328	51	4509
2026-01-17 08:24:26.25	69.40	22.19	-39.6	-41.9	13.7	2.20e-06	0	60	0	504365056	51	4516
2026-01-17 08:24:27.26	69.15	22.24	-39.6	-42.0	13.6	3.80e-06	0	60	0	507510784	51	4568
2026-01-17 08:24:28.27	68.89	22.28	-39.6	-41.9	13.7	8.30e-06	0	60	0	510656512	51	4528
2026-01-17 08:24:29.28	68.63	22.32	-39.7	-42.0	13.6	4.50e-06	0	60	0	513802240	51	4579
2026-01-17 08:24:30.29	68.37	22.37	-39.7	-42.0	13.7	4.50e-06	0	60	0	516947968	51	4567
2026-01-17 08:24:31.30	68.11	22.41	-39.6	-41.9	13.7	5.30e-06	0	60	0	520093696	51	4543
2026-01-17 08:24:32.31	67.84	22.45	-39.6	-41.9	13.9	7.60e-06	0	60	0	523239424	51	4508
2026-01-17 08:24:33.32	67.58	22.49	-39.6	-41.8	13.9	3.00e-06	0	60	0	526385152	51	4482
2026-01-17 08:24:34.33	67.32	22.53	-39.6	-41.9	13.9	3.00e-06	0	60	0	529530880	51	4494
2026-01-17 08:24:35.34	67.05	22.57	-39.6	-41.9	13.9	1.50e-06	0	60	0	532676608	51	4503
2026-01-17 08:24:36.35	66.79	22.61	-39.5	-41.8	14.0	3.00e-06	0	60	0	535822336	51	4449
2026-01-17 08:24:37.36	66.53	22.65	-39.5	-41.7	14.1	4.50e-06	0	60	0	538968064	51	4422
2026-01-17 08:24:38.37	66.26	22.69	-39.5	-41.7	14.1	2.20e-06	0	60	0	542113792	51	4419
2026-01-17 08:24:39.38	65.99	22.72	-39.5	-41.8	14.0	3.00e-06	0	60	0	545259520	51	4448
2026-01-17 08:24:40.39	65.73	22.76	-39.5	-41.7	14.1	0.00e+00	0	60	0	548405248	50	4673
2026-01-17 08:24:41.40	65.46	22.80	-39.4	-41.6	14.2	1.50e-06	0	60	0	551550976	50	4637
2026-01-17 08:24:42.41	65.19	22.83	-39.4	-41.6	14.2	3.00e-06	0	60	0	554696704	50	4637
2026-01-17 08:24:43.42	64.92	22.86	-39.4	-41.6	14.2	3.00e-06	0	60	0	557842432	50	4634
2026-01-17 08:24:44.43	64.65	22.90	-39.5	-41.7	14.1	2.20e-06	0	60	0	560988160	50	4685
2026-01-17 08:24:45.43	64.38	22.93	-39.5	-41.7	14.1	7.00e-07	0	60	0	564133888	50	4693
2026-01-17 08:24:46.44	64.11	22.96	-39.5	-41.8	14.1	0.00e+00	0	60	0	567279616	50	4714
2026-01-17 08:24:47.45	63.84	23.00	-39.6	-41.8	14.1	1.50e-06	0	60	0	570425344	50	4733
2026-01-17 08:24:48.46	63.57	23.03	-39.6	-41.8	14.0	4.50e-06	0	60	0	573571072	50	4754
2026-01-17 08:24:49.47	63.30	23.06	-39.6	-41.8	14.1	1.50e-06	0	60	0	576716800	50	4731
2026-01-17 08:24:50.48	63.03	23.09	-39.6	-41.8	14.0	1.50e-06	0	60	0	579862528	50	4744
2026-01-17 08:24:51.49	62.75	23.12	-39.5	-41.7	14.1	2.20e-06	0	60	0	583008256	50	4698
2026-01-17 08:24:52.50	62.48	23.15	-39.4	-41.6	14.2	7.00e-07	0	60	0	586153984	50	4629
2026-01-17 08:24:53.51	62.20	23.18	-39.4	-41.5	14.3	7.00e-07	0	60	0	589299712	50	4596
2026-01-17 08:24:54.52	61.93	23.20	-39.3	-41.5	14.4	7.00e-07	0	60	0	592445440	50	4551
2026-01-17 08:24:55.53	61.65	23.23	-39.3	-41.5	14.4	0.00e+00	0	60	0	595591168	50	4560
2026-01-17 08:24:56.54	61.38	23.26	-39.4	-41.6	14.3	1.50e-06	0	60	0	598736896	50	4607
2026-01-17 08:24:57.55	61.10	23.28	-39.5	-41.7	14.2	2.20e-06	0	60	0	601882624	50	4681
2026-01-17 08:24:58.56	60.83	23.31	-39.5	-41.8	14.1	2.20e-06	0	60	0	605028352	50	4706
2026-01-17 08:24:59.57	60.55	23.33	-39.6	-41.8	14.0	7.00e-07	0	60	0	608174080	50	4752
2026-01-17 08:25:00.58	60.27	23.35	-39.7	-41.9	14.0	2.20e-06	0	60	0	611319808	50	4785
2026-01-17 08:25:01.59	59.99	23.38	-39.7	-41.9	14.0	2.20e-06	0	60	0	614465536	50	4810
2026-01-17 08:25:02.60	59.72	23.40	-39.7	-42.0	13.9	3.80e-06	0	60	0	617611264	50	4849
2026-01-17 08:25:03.61	59.44	23.42	-39.7	-42.0	13.9	4.50e-06	0	60	0	620756992	50	4815
2026-01-17 08:25:04.62	59.16	23.44	-39.7	-42.0	14.0	3.80e-06	0	60	0	623902720	50	4822
2026-01-17 08:25:05.63	58.88	23.46	-39.6	-41.8	14.1	7.00e-07	0	60	0	627048448	50	4748
2026-01-17 08:25:06.64	58.60	23.48	-39.6	-41.8	14.1	7.00e-07	0	60	0	630194176	50	4726
2026-01-17 08:25:07.65	58.32	23.50	-39.6	-41.8	14.1	2.20e-06	0	60	0	633339904	50	4726
2026-01-17 08:25:08.66	58.04	23.51	-39.5	-41.7	14.2	7.00e-07	0	60	0	636485632	50	4689
2026-01-17 08:25:09.67	57.76	23.53	-39.5	-41.7	14.2	1.50e-06	0	60	0	639631360	50	4704
2026-01-17 08:25:10.68	57.48	23.55	-39.6	-41.8	14.2	7.00e-07	0	60	0	642777088	50	4717
2026-01-17 08:25:11.69	57.20	23.56	-39.5	-41.7	14.2	0.00e+00	0	60	0	645922816	50	4688
2026-01-17 08:25:12.70	56.91	23.58	-39.6	-41.8	14.1	6.80e-06	0	60	0	649068544	50	4728
2026-01-17 08:25:13.71	56.63	23.59	-39.6	-41.8	14.2	1.50e-06	0	60	0	652214272	50	4723
2026-01-17 08:25:14.72	56.35	23.60	-39.6	-41.8	14.1	7.00e-07	0	60	0	655360000	50	4732
2026-01-17 08:25:15.73	56.07	23.62	-39.5	-41.7	14.3	7.00e-07	0	60	0	658505728	50	4661
2026-01-17 08:25:16.75	55.78	23.63	-39.5	-41.7	14.2	7.00e-07	0	60	0	661651456	50	4688
2026-01-17 08:25:17.75	55.50	23.64	-39.6	-41.8	14.1	1.50e-06	0	60	0	664797184	50	4749
2026-01-17 08:25:18.76	55.22	23.65	-39.7	-41.9	14.0	3.80e-06	0	60	0	667942912	50	4774
2026-01-17 08:25:19.78	54.93	23.66	-39.7	-41.9	14.0	3.00e-06	0	60	0	671088640	50	4778
2026-01-17 08:25:20.79	54.65	23.67	-39.7	-41.9	14.0	2.20e-06	0	60	0	674234368	50	4789
2026-01-17 08:25:21.79	54.37	23.67	-39.7	-41.9	14.0	0.00e+00	0	60	0	677380096	50	4785
2026-01-17 08:25:22.80	54.09	23.68	-39.7	-41.9	14.0	3.00e-06	0	60	0	680525824	50	4800
2026-01-17 08:25:23.81	53.80	23.69	-39.7	-41.9	14.1	3.00e-06	0	60	0	683671552	50	4785
2026-01-17 08:25:24.83	53.52	23.69	-39.7	-42.0	14.0	0.00e+00	0	60	0	686817280	50	4854
2026-01-17 08:25:25.83	53.24	23.70	-39.7	-42.0	14.0	2.20e-06	0	60	0	689963008	50	4836
2026-01-17 08:25:26.84	52.95	23.70	-39.7	-42.0	14.0	5.30e-06	0	60	0	693108736	50	4837
2026-01-17 08:25:27.85	52.67	23.71	-39.7	-41.9	14.1	2.20e-06	0	60	0	696254464	50	4810
2026-01-17 08:25:28.86	52.38	23.71	-39.6	-41.8	14.2	1.50e-06	0	60	0	699400192	50	4738
2026-01-17 08:25:29.87	52.10	23.71	-39.6	-41.8	14.2	7.00e-07	0	60	0	702545920	50	4706
2026-01-17 08:25:30.88	51.82	23.71	-39.6	-41.7	14.2	2.20e-06	0	60	0	705691648	50	4705
2026-01-17 08:25:31.89	51.53	23.71	-39.6	-41.8	14.2	1.50e-06	0	60	0	708837376	50	4725
2026-01-17 08:25:32.90	51.25	23.71	-39.5	-41.7	14.3	0.00e+00	0	60	0	711983104	50	4673
2026-01-17 08:25:33.91	50.96	23.71	-39.5	-41.6	14.3	1.50e-06	0	60	0	715128832	50	4637
2026-01-17 08:25:34.92	50.68	23.71	-39.6	-41.7	14.2	7.00e-07	0	60	0	718274560	50	4688
2026-01-17 08:25:35.93	50.40	23.71	-39.6	-41.7	14.2	2.20e-06	0	60	0	721420288	50	4702
2026-01-17 08:25:36.94	50.11	23.70	-39.6	-41.7	14.2	0.00e+00	0	60	0	724566016	50	4701
2026-01-17 08:25:37.95	49.83	23.70	-39.6	-41.8	14.2	5.30e-06	0	60	0	727711744	50	4741
2026-01-17 08:25:38.96	49.55	23.69	-39.6	-41.8	14.2	0.00e+00	0	60	0	730857472	50	4730
2026-01-17 08:25:39.97	49.26	23.69	-39.6	-41.8	14.2	7.00e-07	0	60	0	734003200	50	4733
2026-01-17 08:25:40.98	48.98	23.68	-39.6	-41.7	14.2	1.50e-06	0	60	0	737148928	50	4705
2026-01-17 08:25:41.99	48.70	23.67	-39.5	-41.7	14.3	1.50e-06	0	60	0	740294656	50	4654
2026-01-17 08:25:43.01	48.41	23.67	-39.5	-41.6	14.4	1.50e-06	0	60	0	743440384	50	4632
2026-01-17 08:25:44.02	48.13	23.66	-39.4	-41.6	14.4	7.00e-07	0	60	0	747634688	50	4610
2026-01-17 08:25:45.03	47.84	23.65	-39.4	-41.6	14.4	0.00e+00	0	60	0	749731840	50	4609
2026-01-17 08:25:46.04	47.56	23.64	-39.4	-41.5	14.5	7.00e-07	0	60	0	752877568	50	4560
2026-01-17 08:25:47.05	47.28	23.63	-39.4	-41.5	14.4	1.50e-06	0	60	0	756023296	50	4569
2026-01-17 08:25:48.06	47.00	23.61	-39.4	-41.5	14.5	0.00e+00	0	60	0	760217600	50	4563
2026-01-17 08:25:49.07	46.72	23.60	-39.4	-41.4	14.5	0.00e+00	0	60	0	763363328	50	4541
2026-01-17 08:25:50.08	46.43	23.59	-39.3	-41.4	14.6	7.00e-07	0	60	0	766509056	50	4513
2026-01-17 08:25:51.09	46.15	23.57	-39.3	-41.3	14.6	7.00e-07	0	60	0	769654784	50	4473
2026-01-17 08:25:52.10	45.87	23.56	-39.3	-41.3	14.6	0.00e+00	0	61	0	771751936	50	4490
2026-01-17 08:25:53.11	45.59	23.54	-39.4	-41.5	14.5	0.00e+00	0	60	0	775946240	50	4548
2026-01-17 08:25:54.12	45.31	23.53	-39.3	-41.4	14.6	0.00e+00	0	60	0	779091968	50	4519
2026-01-17 08:25:55.13	45.03	23.51	-39.4	-41.5	14.5	1.50e-06	0	60	0	782237696	50	4551
2026-01-17 08:25:56.14	44.75	23.49	-39.4	-41.5	14.5	0.00e+00	0	60	0	785383424	50	4563
2026-01-17 08:25:57.15	44.47	23.48	-39.4	-41.5	14.4	0.00e+00	0	60	0	788529152	50	4577
2026-01-17 08:25:58.16	44.19	23.46	-39.4	-41.6	14.4	7.00e-07	0	60	0	791674880	50	4599
2026-01-17 08:25:59.17	43.91	23.44	-39.5	-41.6	14.3	0.00e+00	0	61	0	794820608	50	4625
2026-01-17 08:26:00.18	43.63	23.42	-39.5	-41.7	14.3	0.00e+00	0	60	0	797966336	50	4666
2026-01-17 08:26:01.19	43.35	23.39	-39.5	-41.7	14.3	7.00e-07	0	60	0	801112064	50	4667
2026-01-17 08:26:02.20	43.08	23.37	-39.6	-41.7	14.2	1.50e-06	0	60	0	804257792	50	4703
2026-01-17 08:26:03.21	42.80	23.35	-39.6	-41.7	14.2	0.00e+00	0	60	0	807403520	50	4692
2026-01-17 08:26:04.22	42.52	23.33	-39.6	-41.8	14.2	7.00e-07	0	60	0	810549248	50	4706
2026-01-17 08:26:05.23	42.24	23.30	-39.6	-41.8	14.1	0.00e+00	0	60	0	813694976	50	4741
2026-01-17 08:26:06.24	41.97	23.28	-39.6	-41.9	14.1	1.50e-06	0	60	0	816840704	50	4765
2026-01-17 08:26:07.25	41.69	23.25	-39.7	-41.9	14.0	2.20e-06	0	60	0	819986432	50	4798
2026-01-17 08:26:08.26	41.42	23.23	-39.7	-41.9	14.1	2.20e-06	0	60	0	823132160	50	4790
2026-01-17 08:26:09.27	41.14	23.20	-39.7	-41.9	14.0	1.50e-06	0	60	0	826277888	50	4804
2026-01-17 08:26:10.28	40.87	23.17	-39.7	-41.9	14.1	1.50e-06	0	60	0	829423616	50	4782
2026-01-17 08:26:11.29	40.60	23.14	-39.6	-41.8	14.2	0.00e+00	0	61	0	832569344	50	4753
2026-01-17 08:26:12.30	40.32	23.12	-39.5	-41.7	14.3	7.00e-07	0	60	0	835715072	50	4661
2026-01-17 08:26:13.31	40.05	23.09	-39.5	-41.6	14.4	1.50e-06	0	60	0	838860800	50	4628
2026-01-17 08:26:14.32	39.78	23.06	-39.4	-41.5	14.4	0.00e+00	0	60	0	842006528	50	4598
2026-01-17 08:26:15.33	39.51	23.02	-39.5	-41.7	14.3	0.00e+00	0	61	0	845152256	50	4655
2026-01-17 08:26:16.34	39.23	22.99	-39.7	-41.9	14.1	3.00e-06	0	60	0	848297984	50	4768
2026-01-17 08:26:17.35	38.96	22.96	-39.8	-42.1	13.9	4.50e-06	0	60	0	851443712	50	4896
2026-01-17 08:26:18.36	38.69	22.93	-39.8	-42.1	13.9	3.80e-06	0	61	0	854589440	50	4923
2026-01-17 08:26:19.37	38.42	22.90	-39.8	-42.1	13.9	1.50e-06	0	60	0	857735168	50	4911
2026-01-17 08:26:20.38	38.16	22.86	-39.8	-42.0	14.0	3.00e-06	0	60	0	860880896	50	4859
2026-01-17 08:26:21.39	37.89	22.83	-39.7	-41.9	14.1	2.20e-06	0	60	0	864026624	50	4795
2026-01-17 08:26:22.40	37.62	22.79	-39.7	-41.9	14.1	3.80e-06	0	60	0	867172352	50	4803
2026-01-17 08:26:23.41	37.35	22.76	-39.7	-42.0	14.0	3.00e-06	0	60	0	870318080	50	4831
2026-01-17 08:26:24.42	37.09	22.72	-39.8	-42.0	14.0	3.80e-06	0	60	0	873463808	50	4839
2026-01-17 08:26:25.43	36.82	22.68	-39.7	-41.9	14.1	3.00e-06	0	60	0	876609536	50	4782
2026-01-17 08:26:26.44	36.56	22.64	-39.7	-41.9	14.1	2.20e-06	0	60	0	879755264	50	4795
2026-01-17 08:26:27.45	36.29	22.61	-39.7	-42.0	14.0	2.20e-06	0	61	0	882900992	50	4827
2026-01-17 08:26:28.47	36.02	22.57	-39.7	-42.0	14.0	2.20e-06	0	60	0	886046720	50	4824
2026-01-17 08:26:29.47	35.76	22.53	-39.8	-42.0	14.0	1.50e-06	0	60	0	889192448	50	4863
2026-01-17 08:26:30.49	35.50	22.49	-39.8	-42.1	13.9	1.50e-06	0	60	0	892338176	50	4884
2026-01-17 08:26:31.50	35.24	22.45	-39.9	-42.1	13.9	3.80e-06	0	60	0	895483904	50	4926
2026-01-17 08:26:32.51	34.98	22.40	-40.0	-42.3	13.7	3.80e-06	0	60	0	898629632	50	5028
2026-01-17 08:26:33.52	34.72	22.36	-40.0	-42.4	13.6	6.80e-06	0	61	0	901775360	50	5064
2026-01-17 08:26:34.53	34.46	22.32	-40.1	-42.5	13.5	8.30e-06	0	60	0	904921088	50	5120
2026-01-17 08:26:35.54	34.20	22.28	-40.0	-42.4	13.6	7.60e-06	0	61	0	908066816	50	5083
2026-01-17 08:26:36.55	33.94	22.23	-40.0	-42.4	13.6	9.90e-06	0	61	0	911212544	50	5057
2026-01-17 08:26:37.56	33.68	22.19	-39.9	-42.2	13.7	3.80e-06	0	61	0	914358272	50	4958
2026-01-17 08:26:38.57	33.43	22.15	-39.8	-42.0	14.0	3.80e-06	0	60	0	917504000	50	4863
2026-01-17 08:26:39.58	33.17	22.10	-39.7	-42.0	14.0	0.00e+00	0	60	0	920649728	50	4817
2026-01-17 08:26:40.58	32.92	22.06	-39.8	-42.1	13.9	7.00e-07	0	60	0	923795456	50	4885
2026-01-17 08:26:41.59	32.66	22.01	-39.9	-42.2	13.8	6.80e-06	0	60	0	926941184	50	4954
2026-01-17 08:26:42.60	32.41	21.96	-40.0	-42.4	13.6	8.30e-06	0	60	0	930086912	50	5069
2026-01-17 08:26:43.61	32.16	21.92	-40.1	-42.5	13.5	5.30e-06	0	60	0	933232640	50	5108
2026-01-17 08:26:44.62	31.90	21.87	-40.0	-42.4	13.6	9.10e-06	0	60	0	936378368	50	5073
2026-01-17 08:26:45.63	31.65	21.82	-40.0	-42.4	13.6	8.30e-06	0	60	0	939524096	50	5064
2026-01-17 08:26:46.64	31.40	21.77	-39.9	-42.3	13.7	6.10e-06	0	60	0	942669824	50	4995
2026-01-17 08:26:47.65	31.15	21.72	-39.9	-42.2	13.8	2.20e-06	0	60	0	945815552	50	4949
2026-01-17 08:26:48.66	30.90	21.67	-39.9	-42.1	13.9	3.80e-06	0	60	0	948961280	50	4915
2026-01-17 08:26:49.67	30.66	21.62	-39.8	-42.1	14.0	0.00e+00	0	60	0	952107008	50	4876
2026-01-17 08:26:50.68	30.41	21.57	-39.8	-42.1	13.9	1.50e-06	0	60	0	955252736	50	4878
2026-01-17 08:26:51.69	30.16	21.52	-39.9	-42.2	13.8	2.20e-06	0	61	0	958398464	50	4959
2026-01-17 08:26:52.70	29.92	21.47	-40.0	-42.3	13.7	4.50e-06	0	61	0	961544192	50	5001
2026-01-17 08:26:53.71	29.67	21.42	-40.0	-42.4	13.7	5.30e-06	0	61	0	964689920	50	5042
2026-01-17 08:26:54.72	29.43	21.36	-40.0	-42.3	13.7	7.60e-06	0	60	0	967835648	50	5028
2026-01-17 08:26:55.73	29.19	21.31	-39.9	-42.2	13.7	6.10e-06	0	60	0	970981376	50	4982
2026-01-17 08:26:56.74	28.94	21.26	-39.9	-42.2	13.7	4.50e-06	0	60	0	974127104	50	4959
2026-01-17 08:26:57.75	28.70	21.20	-39.9	-42.2	13.8	8.30e-06	0	60	0	977272832	50	4929
2026-01-17 08:26:58.76	28.46	21.15	-39.8	-42.1	13.8	2.20e-06	0	60	0	980418560	50	4908
2026-01-17 08:26:59.77	28.22	21.10	-39.8	-42.0	13.9	4.50e-06	0	61	0	983564288	50	4865
2026-01-17 08:27:00.78	27.98	21.04	-39.8	-42.1	13.9	5.30e-06	0	61	0	986710016	50	4886
2026-01-17 08:27:01.79	27.75	20.99	-39.8	-42.1	13.9	4.50e-06	0	60	0	989855744	50	4887
2026-01-17 08:27:02.80	27.51	20.93	-39.8	-42.1	13.9	3.80e-06	0	60	0	993001472	50	4903
2026-01-17 08:27:03.81	27.27	20.87	-39.8	-42.0	13.9	7.00e-07	0	60	0	996147200	50	4862
2026-01-17 08:27:04.82	27.04	20.82	-39.7	-41.9	14.0	7.00e-07	0	60	0	999292928	50	4800
2026-01-17 08:27:05.83	26.80	20.76	-39.6	-41.8	14.1	3.00e-06	0	60	0	1002438656	50	4745
2026-01-17 08:27:06.84	26.57	20.70	-39.7	-41.9	14.1	2.20e-06	0	60	0	1005584384	50	4765
2026-01-17 08:27:07.85	26.34	20.65	-39.7	-41.9	14.1	2.20e-06	0	60	0	1008730112	50	4782
2026-01-17 08:27:08.86	26.10	20.59	-39.8	-42.0	13.9	2.20e-06	0	61	0	1011875840	50	4860
2026-01-17 08:27:09.87	25.87	20.53	-39.8	-42.1	13.9	3.80e-06	0	60	0	1015021568	50	4900
2026-01-17 08:27:10.88	25.64	20.47	-39.9	-42.2	13.8	4.50e-06	0	61	0	1018167296	50	4940
2026-01-17 08:27:11.89	25.41	20.41	-40.0	-42.3	13.6	2.20e-06	0	61	0	1021313024	50	5039
2026-01-17 08:27:12.90	25.19	20.35	-40.0	-42.4	13.6	1.22e-05	0	61	0	1024458752	50	5055
2026-01-17 08:27:13.91	24.96	20.29	-39.9	-42.3	13.7	3.80e-06	0	61	0	1027604480	50	4995
2026-01-17 08:27:14.92	24.73	20.23	-39.8	-42.1	13.8	3.80e-06	0	61	0	1030750208	50	4888
2026-01-17 08:27:15.94	24.50	20.17	-39.5	-41.7	14.2	7.00e-07	0	60	0	1033895936	50	4673
2026-01-17 08:27:16.95	24.28	20.11	-39.4	-41.5	14.4	7.00e-07	0	60	0	1037041664	50	4594
2026-01-17 08:27:17.96	24.06	20.05	-39.4	-41.5	14.4	7.00e-07	0	61	0	1040187392	50	4590
2026-01-17 08:27:18.97	23.83	19.99	-39.5	-41.6	14.3	0.00e+00	0	60	0	1043333120	50	4647
2026-01-17 08:27:19.98	23.61	19.93	-39.6	-41.8	14.2	2.20e-06	0	61	0	1046478848	50	4714
2026-01-17 08:27:20.99	23.39	19.86	-39.6	-41.8	14.1	3.00e-06	0	61	0	1049624576	50	4753
2026-01-17 08:27:22.00	23.17	19.80	-39.7	-42.0	14.0	2.20e-06	0	61	0	1052770304	50	4821
2026-01-17 08:27:23.01	22.95	19.74	-39.8	-42.1	13.9	2.20e-06	0	60	0	1056964608	50	4887
2026-01-17 08:27:24.02	22.73	19.68	-39.9	-42.2	13.7	4.50e-06	0	60	0	1060110336	50	4936
2026-01-17 08:27:25.03	22.52	19.61	-40.0	-42.3	13.6	6.80e-06	0	61	0	1063256064	50	5035
2026-01-17 08:27:26.04	22.30	19.55	-40.0	-42.3	13.5	6.80e-06	0	61	0	1065353216	50	5035
2026-01-17 08:27:27.05	22.08	19.49	-40.0	-42.4	13.6	7.60e-06	0	60	0	1068498944	50	5053
2026-01-17 08:27:28.05	21.87	19.42	-40.0	-42.3	13.6	1.52e-05	0	61	0	1071644672	50	5035
2026-01-17 08:27:29.06	21.66	19.36	-39.9	-42.3	13.6	1.83e-05	0	60	0	1075838976	50	4986
2026-01-17 08:27:30.07	21.45	19.29	-39.9	-42.3	13.6	9.90e-06	0	61	0	1078984704	50	5010
2026-01-17 08:27:31.08	21.23	19.23	-39.9	-42.3	13.6	1.37e-05	0	60	0	1082130432	50	5020
2026-01-17 08:27:32.09	21.02	19.17	-39.9	-42.2	13.7	5.30e-06	0	60	0	1085276160	50	4948
2026-01-17 08:27:33.10	20.81	19.10	-39.8	-42.1	13.7	4.50e-06	0	60	0	1087373312	50	4904
2026-01-17 08:27:34.11	20.60	19.03	-39.8	-42.0	13.8	8.30e-06	0	61	0	1091567616	50	4856
2026-01-17 08:27:35.12	20.39	18.97	-39.7	-41.9	13.9	3.80e-06	0	61	0	1094713344	50	4791
2026-01-17 08:27:36.14	20.19	18.90	-39.6	-41.8	14.1	6.10e-06	0	60	0	1097859072	50	4733
2026-01-17 08:27:37.15	19.98	18.84	-39.6	-41.8	14.1	2.20e-06	0	61	0	1101004800	50	4708
2026-01-17 08:27:38.16	19.77	18.77	-39.6	-41.9	14.0	1.50e-06	0	60	0	1104150528	50	4766
2026-01-17 08:27:39.17	19.57	18.70	-39.7	-41.9	13.9	3.00e-06	0	61	0	1107296256	50	4798
2026-01-17 08:27:40.18	19.37	18.64	-39.8	-42.1	13.7	5.30e-06	0	61	0	1110441984	50	4905
2026-01-17 08:27:41.19	19.16	18.57	-39.9	-42.3	13.6	7.60e-06	0	61	0	1113587712	50	4988
2026-01-17 08:27:42.20	18.96	18.50	-40.0	-42.4	13.4	6.80e-06	0	61	0	1116733440	50	5098
2026-01-17 08:27:43.20	18.76	18.44	-40.1	-42.6	13.2	1.83e-05	0	60	0	1119879168	50	5177
2026-01-17 08:27:44.21	18.56	18.37	-40.2	-42.7	13.0	2.44e-05	0	61	0	1123024896	50	5253
2026-01-17 08:27:45.22	18.36	18.30	-40.2	-42.7	13.0	4.42e-05	0	61	0	1126170624	51	4949
2026-01-17 08:27:46.23	18.16	18.23	-40.1	-42.6	13.1	2.97e-05	0	60	0	1129316352	51	4885
2026-01-17 08:27:47.24	17.97	18.17	-40.0	-42.5	13.2	1.98e-05	0	61	0	1132462080	51	4831
2026-01-17 08:27:48.25	17.77	18.10	-40.0	-42.5	13.2	1.98e-05	0	60	0	1135607808	51	4824
2026-01-17 08:27:49.26	17.57	18.03	-39.9	-42.3	13.4	1.44e-05	0	60	0	1138753536	51	4747
2026-01-17 08:27:50.27	17.38	17.96	-39.9	-42.3	13.4	1.44e-05	0	61	0	1141899264	51	4743
2026-01-17 08:27:51.28	17.19	17.89	-39.9	-42.3	13.4	1.98e-05	0	60	0	1145044992	51	4731
2026-01-17 08:27:52.29	16.99	17.83	-39.9	-42.3	13.4	1.37e-05	0	60	0	1148190720	51	4744
2026-01-17 08:27:53.30	16.80	17.76	-39.9	-42.3	13.4	2.05e-05	0	61	0	1151336448	51	4741
2026-01-17 08:27:54.31	16.61	17.69	-39.8	-42.2	13.5	1.22e-05	0	60	0	1154482176	51	4672
2026-01-17 08:27:55.32	16.42	17.62	-39.8	-42.2	13.5	9.90e-06	0	60	0	1157627904	51	4654
2026-01-17 08:27:56.33	16.23	17.55	-39.8	-42.1	13.6	6.80e-06	0	60	0	1160773632	51	4605
2026-01-17 08:27:57.34	16.04	17.48	-39.7	-42.0	13.6	9.90e-06	0	60	0	1163919360	51	4589
2026-01-17 08:27:58.35	15.85	17.41	-39.7	-42.0	13.8	5.30e-06	0	61	0	1167065088	51	4546
2026-01-17 08:27:59.36	15.67	17.34	-39.6	-41.9	13.8	2.20e-06	0	61	0	1170210816	51	4503
2026-01-17 08:28:00.37	15.48	17.27	-39.6	-41.8	13.8	3.00e-06	0	61	0	1173356544	50	4746
2026-01-17 08:28:01.39	15.29	17.20	-39.5	-41.8	13.9	1.50e-06	0	60	0	1176502272	50	4726
2026-01-17 08:28:02.40	15.11	17.13	-39.6	-41.8	13.8	5.30e-06	0	61	0	1179648000	50	4751
2026-01-17 08:28:03.41	14.93	17.06	-39.7	-42.0	13.7	7.00e-07	0	61	0	1182793728	50	4830
2026-01-17 08:28:04.42	14.75	16.99	-39.8	-42.1	13.5	9.10e-06	0	60	0	1185939456	50	4903
2026-01-17 08:28:05.43	14.56	16.92	-39.8	-42.2	13.4	8.30e-06	0	60	0	1189085184	50	4970
2026-01-17 08:28:06.44	14.38	16.85	-39.9	-42.3	13.3	1.44e-05	0	60	0	1192230912	50	5038
2026-01-17 08:28:07.45	14.20	16.78	-39.9	-42.3	13.3	1.75e-05	0	61	0	1195376640	50	5033
2026-01-17 08:28:08.46	14.02	16.71	-39.9	-42.3	13.3	2.05e-05	0	60	0	1198522368	50	5006
2026-01-17 08:28:09.47	13.85	16.64	-39.8	-42.2	13.4	1.52e-05	0	60	0	1201668096	50	4954
2026-01-17 08:28:10.48	13.67	16.57	-39.8	-42.2	13.4	1.60e-05	0	61	0	1204813824	50	4933
2026-01-17 08:28:11.49	13.49	16.50	-39.8	-42.1	13.4	8.30e-06	0	60	0	1207959552	50	4920
2026-01-17 08:28:12.50	13.32	16.43	-39.8	-42.2	13.4	1.90e-05	0	60	0	1211105280	50	4954
2026-01-17 08:28:13.51	13.14	16.36	-39.9	-42.4	13.2	2.59e-05	0	60	0	1214251008	50	5068
2026-01-17 08:28:14.52	12.97	16.29	-39.9	-42.4	13.1	3.73e-05	0	61	0	1217396736	50	5070
2026-01-17 08:28:15.53	12.80	16.21	-39.9	-42.4	13.1	2.51e-05	0	61	0	1220542464	50	5093
2026-01-17 08:28:16.54	12.62	16.14	-40.0	-42.5	13.0	4.57e-05	0	61	0	1223688192	50	5143
2026-01-17 08:28:17.55	12.45	16.07	-40.0	-42.6	12.9	5.56e-05	0	61	0	1226833920	50	5179
2026-01-17 08:28:18.56	12.28	16.00	-40.2	-42.8	12.7	6.10e-05	0	61	0	1229979648	50	5286
2026-01-17 08:28:19.57	12.11	15.93	-40.1	-42.7	12.7	7.24e-05	0	60	0	1233125376	50	5261
2026-01-17 08:28:20.58	11.94	15.86	-40.1	-42.7	12.8	6.17e-05	0	61	0	1236271104	50	5236
2026-01-17 08:28:21.59	11.77	15.79	-40.1	-42.7	12.8	6.94e-05	0	60	0	1239416832	50	5227
2026-01-17 08:28:22.60	11.61	15.72	-40.1	-42.7	12.8	6.10e-05	0	61	0	1242562560	50	5229
2026-01-17 08:28:23.61	11.44	15.65	-40.1	-42.7	12.7	7.17e-05	0	61	0	1245708288	50	5226
2026-01-17 08:28:24.62	11.28	15.57	-40.0	-42.7	12.7	8.54e-05	0	61	0	1248854016	50	5227
2026-01-17 08:28:25.63	11.11	15.50	-40.0	-42.6	12.7	8.16e-05	0	60	0	1251999744	50	5204
2026-01-17 08:28:26.63	10.95	15.43	-40.0	-42.6	12.7	7.55e-05	0	61	0	1255145472	50	5215
2026-01-17 08:28:27.64	10.78	15.36	-40.1	-42.8	12.5	1.19e-04	0	61	0	1258291200	50	5301
2026-01-17 08:28:28.65	10.62	15.29	-40.1	-42.7	12.6	9.07e-05	0	60	0	1261436928	50	5246
2026-01-17 08:28:29.67	10.46	15.22	-40.0	-42.7	12.6	8.01e-05	0	60	0	1264582656	50	5233
2026-01-17 08:28:30.67	10.30	15.15	-40.1	-42.9	12.4	1.44e-04	0	60	0	1267728384	50	5345
2026-01-17 08:28:31.69	10.14	15.07	-40.0	-42.7	12.4	1.40e-04	0	61	0	1270874112	50	5276
2026-01-17 08:28:32.70	9.98	15.00	-40.0	-42.7	12.5	1.05e-04	0	60	0	1274019840	50	5248
2026-01-17 08:28:33.71	9.82	14.93	-39.9	-42.8	12.3	1.36e-04	0	61	0	1277165568	50	5300
2026-01-17 08:28:34.72	9.66	14.86	-39.9	-42.7	12.4	1.39e-04	0	60	0	1280311296	50	5219
2026-01-17 08:28:35.73	9.51	14.79	-40.0	-42.7	12.3	1.65e-04	0	61	0	1283457024	50	5249
2026-01-17 08:28:36.74	9.35	14.72	-40.0	-42.8	12.3	1.91e-04	0	60	0	1286602752	50	5284
2026-01-17 08:28:37.75	9.19	14.64	-40.1	-42.9	12.0	2.74e-04	0	60	0	1289748480	50	5393
2026-01-17 08:28:38.76	9.04	14.57	-40.2	-43.1	11.8	4.03e-04	0	61	0	1292894208	50	5514
2026-01-17 08:28:39.77	8.89	14.50	-40.2	-43.2	11.7	6.13e-04	0	61	0	1296039936	51	5257
2026-01-17 08:28:40.78	8.73	14.43	-40.2	-43.1	11.7	5.59e-04	0	61	0	1299185664	51	5209
2026-01-17 08:28:41.79	8.58	14.36	-40.2	-43.2	11.7	5.87e-04	0	61	0	1302331392	51	5238
2026-01-17 08:28:42.80	8.43	14.29	-40.2	-43.3	11.6	7.26e-04	0	61	0	1305477120	51	5287
2026-01-17 08:28:43.81	8.28	14.21	-40.3	-43.3	11.5	8.32e-04	0	61	0	1308622848	51	5311
2026-01-17 08:28:44.82	8.13	14.14	-40.3	-43.4	11.4	8.51e-04	0	61	0	1311768576	51	5366
2026-01-17 08:28:45.83	7.98	14.07	-40.2	-43.2	11.6	8.28e-04	0	60	0	1314914304	51	5248
2026-01-17 08:28:46.84	7.83	14.00	-40.2	-43.3	11.5	7.82e-04	0	60	0	1318060032	51	5300
2026-01-17 08:28:47.85	7.68	13.93	-40.1	-43.2	11.6	7.06e-04	0	61	0	1321205760	51	5219
2026-01-17 08:28:48.86	7.53	13.86	-39.8	-42.7	12.0	4.16e-04	0	60	0	1324351488	51	4938
2026-01-17 08:28:49.87	7.39	13.79	-39.8	-42.7	11.9	4.02e-04	0	61	0	1327497216	51	4954
2026-01-17 08:28:50.89	7.24	13.71	-40.0	-43.1	11.4	6.71e-04	0	61	0	1330642944	51	5163
2026-01-17 08:28:51.90	7.10	13.64	-40.0	-43.1	11.4	1.10e-03	0	61	0	1333788672	51	5160
2026-01-17 08:28:52.91	6.95	13.57	-39.9	-43.0	11.5	8.64e-04	0	61	0	1336934400	51	5106
2026-01-17 08:28:53.92	6.81	13.50	-39.7	-42.6	11.8	5.67e-04	0	60	0	1340080128	51	4912
2026-01-17 08:28:54.93	6.66	13.43	-39.9	-43.0	11.2	9.63e-04	0	61	0	1343225856	51	5148
2026-01-17 08:28:55.94	6.52	13.36	-40.0	-43.4	10.7	2.51e-03	0	61	0	1346371584	51	5359
2026-01-17 08:28:56.95	6.38	13.28	-40.3	-44.0	10.0	5.26e-03	0	61	0	1349517312	51	5731
2026-01-17 08:28:57.96	6.24	13.21	-40.3	-44.2	9.7	1.10e-02	0	61	0	1353711616	51	5870
2026-01-17 08:28:58.97	6.10	13.14	-40.0	-43.8	9.9	1.04e-02	0	61	0	1355808768	51	5631
2026-01-17 08:28:59.98	5.96	13.07	-39.9	-43.8	9.8	1.14e-02	0	61	0	1358954496	51	5601
2026-01-17 08:29:00.99	5.82	13.00	-39.8	-43.5	10.1	8.03e-03	0	61	0	1362100224	51	5434
2026-01-17 08:29:02.00	5.68	12.93	-39.6	-43.2	10.4	5.00e-03	0	60	0	1365245952	51	5226
2026-01-17 08:29:03.01	5.55	12.86	-39.5	-43.0	10.6	3.84e-03	0	61	0	1369440256	51	5105
2026-01-17 08:29:04.02	5.41	12.79	-39.1	-42.4	11.0	1.99e-03	0	61	0	1372585984	50	5055
2026-01-17 08:29:05.03	5.27	12.72	-38.8	-42.0	11.4	1.09e-03	0	61	0	1375731712	49	5102
2026-01-17 08:29:06.04	5.14	12.65	-38.9	-42.1	11.1	1.12e-03	0	61	0	1378877440	49	5218
2026-01-17 08:29:07.05	5.00	12.57	-39.2	-42.8	10.3	3.69e-03	0	60	0	1380974592	49	5606
2026-01-17 08:29:08.06	4.87	12.50	-39.6	-43.9	9.1	1.56e-02	0	61	0	1385168896	49	6374
2026-01-17 08:29:09.07	4.74	12.43	-40.2	-45.5	7.4	8.05e-02	0	61	0	1388314624	50	7207
2026-01-17 08:29:10.08	4.60	12.36	-40.7	-47.7	5.5	4.07e-01	0	61	0	1391460352	51	8777
2026-01-17 08:29:11.09	4.47	12.29	-40.9	-49.7	4.3	1.29e+00	0	61	104	1392508928	52	10523
2026-01-17 08:29:12.10	4.34	12.22	-41.0	-51.8	3.8	1.48e+00	0	61	104	1392508928	52	13265
2026-01-17 08:29:13.11	4.21	12.15	-40.9	-52.8	3.8	1.49e+00	0	61	104	1392508928	52	14922
2026-01-17 08:29:14.12	4.08	12.08	-40.9	-53.3	3.8	1.49e+00	0	61	104	1392508928	52	15766
2026-01-17 08:29:15.13	3.95	12.01	-40.5	-53.1	3.8	1.49e+00	0	61	104	1392508928	52	15467
2026-01-17 08:29:16.14	3.82	11.94	-41.3	-53.6	3.8	1.49e+00	0	61	104	1392508928	53	15436
2026-01-17 08:29:17.15	3.69	11.87	-41.0	-53.6	3.8	1.49e+00	0	61	104	1392508928	53	15498
2026-01-17 08:29:18.15	3.57	11.80	-40.4	-52.9	3.8	1.49e+00	0	61	104	1392508928	52	15089
2026-01-17 08:29:19.16	3.44	11.73	-40.3	-52.8	3.8	1.49e+00	0	61	104	1392508928	52	14910
2026-01-17 08:29:20.17	3.31	11.66	-40.3	-52.7	3.8	1.49e+00	0	61	104	1392508928	52	14838
2026-01-17 08:29:21.19	3.19	11.59	-40.2	-52.7	3.8	1.49e+00	0	61	104	1392508928	52	14730
2026-01-17 08:29:22.19	3.06	11.52	-40.2	-52.6	3.8	1.49e+00	0	61	104	1392508928	52	14700
2026-01-17 08:29:23.21	2.94	11.45	-40.2	-52.7	3.8	1.49e+00	0	61	104	1392508928	52	14828
2026-01-17 08:29:24.21	2.81	11.38	-40.6	-53.2	3.8	1.49e+00	0	61	104	1392508928	52	15746
2026-01-17 08:29:25.22	2.69	11.31	-40.6	-53.3	3.8	1.49e+00	0	61	104	1392508928	52	15815
2026-01-17 08:29:26.23	2.57	11.24	-40.1	-52.5	3.8	1.49e+00	0	61	104	1392508928	52	14539
2026-01-17 08:29:27.24	2.45	11.17	-40.0	-52.5	3.8	1.49e+00	0	61	104	1392508928	52	14492
2026-01-17 08:29:28.25	2.32	11.10	-40.0	-52.5	3.8	1.49e+00	0	61	104	1392508928	51	15395
2026-01-17 08:29:29.26	2.20	11.03	-40.0	-52.5	3.8	1.49e+00	0	61	104	1392508928	51	15324
2026-01-17 08:29:30.27	2.08	10.96	-39.9	-52.5	3.8	1.49e+00	0	61	104	1392508928	51	15240
2026-01-17 08:29:31.28	1.96	10.89	-40.0	-52.6	3.8	1.49e+00	0	61	104	1392508928	51	15445
2026-01-17 08:29:32.29	1.84	10.82	-40.4	-52.9	3.8	1.49e+00	0	61	104	1392508928	51	16049
2026-01-17 08:29:33.29	1.73	10.75	-39.9	-52.4	3.8	1.49e+00	0	61	104	1392508928	51	15203
2026-01-17 08:29:34.30	1.61	10.68	-40.1	-52.6	3.8	1.49e+00	0	61	104	1392508928	51	15414
2026-01-17 08:29:35.31	1.49	10.62	-39.9	-52.4	3.8	1.49e+00	0	61	104	1392508928	51	15192
2026-01-17 08:29:36.32	1.37	10.55	-39.8	-52.4	3.8	1.49e+00	0	60	104	1392508928	51	15152
2026-01-17 08:29:37.33	1.26	10.48	-39.8	-52.4	3.8	1.49e+00	0	61	104	1392508928	51	15112
2026-01-17 08:29:38.34	1.14	10.41	-39.9	-52.4	3.8	1.49e+00	0	61	104	1392508928	51	15147
2026-01-17 08:29:39.35	1.03	10.34	-39.9	-52.5	3.8	1.49e+00	0	61	104	1392508928	51	15284
2026-01-17 08:29:40.36	0.91	10.27	-40.0	-52.6	3.8	1.49e+00	0	61	104	1392508928	51	15502
2026-01-17 08:29:41.37	0.80	10.20	-40.0	-52.6	3.8	1.49e+00	0	61	104	1392508928	51	15489
2026-01-17 08:29:42.38	0.68	10.13	-39.9	-52.4	3.8	1.49e+00	0	61	104	1392508928	51	15196
2026-01-17 08:29:43.39	0.57	10.06	-40.0	-52.6	3.8	1.49e+00	0	61	104	1392508928	51	15490
2026-01-17 08:29:44.40	0.46	10.00	-39.8	-52.4	3.8	1.49e+00	0	61	104	1392508928	51	15170
2026-01-17 08:29:45.41	0.35	9.93	-39.7	-52.4	3.8	1.49e+00	0	61	104	1392508928	50	16104
2026-01-17 08:29:46.42	0.24	9.86	-39.8	-52.5	3.8	1.49e+00	0	61	104	1392508928	50	16152
2026-01-17 08:29:47.43	0.13	9.79	-39.5	-52.4	3.8	1.49e+00	0	61	104	1392508928	50	15970
2026-01-17 08:29:48.44	0.01	9.72	-39.9	-52.5	3.8	1.49e+00	0	61	104	1392508928	50	16245
2026-01-17 08:29:49.46	359.90	9.66	-39.6	-52.5	3.8	1.49e+00	0	61	104	1392508928	50	16168
2026-01-17 08:29:50.47	359.79	9.59	-39.5	-52.5	3.8	1.49e+00	0	61	104	1392508928	50	16146
2026-01-17 08:29:51.48	359.69	9.52	-39.5	-52.5	3.8	1.49e+00	0	61	104	1392508928	50	16133
2026-01-17 08:29:52.49	359.58	9.45	-39.4	-52.4	3.8	1.49e+00	0	61	104	1392508928	50	16061
2026-01-17 08:29:53.49	359.47	9.38	-39.3	-52.4	3.8	1.49e+00	0	61	104	1392508928	50	15986
2026-01-17 08:29:54.50	359.36	9.32	-39.3	-52.4	3.8	1.49e+00	0	61	104	1392508928	50	16003
2026-01-17 08:29:55.52	359.26	9.25	-39.3	-52.4	3.8	1.49e+00	0	61	104	1392508928	50	15975
2026-01-17 08:29:56.52	359.15	9.18	-39.4	-52.4	3.8	1.49e+00	0	61	104	1392508928	50	16105
2026-01-17 08:29:57.53	359.05	9.11	-39.5	-52.4	3.8	1.49e+00	0	61	104	1392508928	50	16046
2026-01-17 08:29:58.54	358.94	9.05	-39.5	-52.4	3.8	1.49e+00	0	61	104	1392508928	50	16015
2026-01-17 08:29:59.55	358.84	8.98	-39.5	-52.4	3.8	1.49e+00	0	61	104	1392508928	50	15980
2026-01-17 08:30:00.56	358.73	8.91	-39.6	-52.3	3.8	1.49e+00	0	61	104	1392508928	50	15824
2026-01-17 08:30:01.57	358.63	8.85	-39.6	-52.3	3.8	1.49e+00	0	61	104	1392508928	50	15943
2026-01-17 08:30:02.58	358.53	8.78	-39.6	-52.3	3.8	1.49e+00	0	61	104	1392508928	50	15815
2026-01-17 08:30:03.59	358.42	8.71	-39.6	-52.3	3.8	1.49e+00	0	61	104	1392508928	50	15817
2026-01-17 08:30:04.60	358.32	8.65	-39.6	-52.4	3.8	1.49e+00	0	61	104	1392508928	50	16004
2026-01-17 08:30:05.61	358.22	8.58	-39.5	-52.3	3.8	1.49e+00	0	61	104	1392508928	50	15904
2026-01-17 08:30:06.62	358.12	8.51	-39.5	-52.4	3.8	1.49e+00	0	61	104	1392508928	50	15984
2026-01-17 08:30:07.63	358.02	8.45	-39.5	-52.3	3.8	1.49e+00	0	61	104	1392508928	50	15887
2026-01-17 08:30:08.64	357.92	8.38	-39.3	-52.3	3.8	1.49e+00	0	61	104	1392508928	50	15840
2026-01-17 08:30:09.65	357.82	8.31	-39.5	-52.3	3.8	1.49e+00	0	61	104	1392508928	50	15842
2026-01-17 08:30:10.66	357.72	8.25	-39.3	-52.3	3.8	1.49e+00	0	61	104	1392508928	50	15820
2026-01-17 08:30:11.67	357.62	8.18	-39.4	-52.3	3.8	1.49e+00	0	61	104	1392508928	50	15850
2026-01-17 08:30:12.68	357.52	8.12	-39.4	-52.4	3.8	1.49e+00	0	61	104	1392508928	50	15994
2026-01-17 08:30:13.69	357.42	8.05	-39.2	-52.3	3.8	1.49e+00	0	61	104	1392508928	50	15898
2026-01-17 08:30:14.70	357.33	7.98	-39.5	-52.3	3.8	1.49e+00	0	61	104	1392508928	50	15841
2026-01-17 08:30:15.71	357.23	7.92	-40.8	-53.4	3.8	1.49e+00	0	61	104	1392508928	52	16057
2026-01-17 08:30:16.72	357.13	7.85	-44.4	-56.6	3.8	1.49e+00	0	61	104	1392508928	59	15540
2026-01-17 08:30:17.73	357.04	7.79	-44.8	-57.3	3.8	1.49e+00	0	61	104	1392508928	60	15887
2026-01-17 08:30:18.74	356.94	7.72	-45.0	-57.5	3.8	1.49e+00	0	61	104	1392508928	60	16233
2026-01-17 08:30:19.75	356.84	7.66	-45.2	-57.7	3.8	1.49e+00	0	61	104	1392508928	60	16538
2026-01-17 08:30:20.77	356.75	7.59	-45.4	-57.9	3.8	1.49e+00	0	61	104	1392508928	61	15982
2026-01-17 08:30:21.78	356.65	7.53	-45.4	-57.8	3.8	1.49e+00	0	61	104	1392508928	61	15872
2026-01-17 08:30:22.79	356.56	7.46	-45.4	-57.8	3.8	1.49e+00	0	61	104	1392508928	61	15900
2026-01-17 08:30:23.80	356.47	7.40	-45.4	-57.8	3.8	1.49e+00	0	61	104	1392508928	61	15879
2026-01-17 08:30:24.81	356.37	7.33	-45.4	-57.8	3.8	1.49e+00	0	61	104	1392508928	61	15825
2026-01-17 08:30:25.82	356.28	7.27	-45.4	-57.7	3.8	1.49e+00	0	61	104	1392508928	61	15694
2026-01-17 08:30:26.83	356.19	7.20	-45.3	-57.7	3.8	1.49e+00	0	61	104	1392508928	61	15685
2026-01-17 08:30:27.84	356.10	7.14	-45.3	-57.6	3.8	1.49e+00	0	61	104	1392508928	61	15580
2026-01-17 08:30:28.85	356.01	7.07	-45.3	-57.6	3.8	1.49e+00	0	61	104	1392508928	61	15498
2026-01-17 08:30:29.86	355.92	7.01	-45.1	-57.6	3.8	1.49e+00	0	61	104	1392508928	61	15511
2026-01-17 08:30:30.88	355.82	6.94	-45.2	-57.5	3.8	1.49e+00	0	61	104	1392508928	61	15343
2026-01-17 08:30:31.89	355.73	6.88	-45.2	-57.5	3.8	1.49e+00	0	61	104	1392508928	61	15368
2026-01-17 08:30:32.89	355.65	6.81	-45.2	-57.5	3.8	1.49e+00	0	61	104	1392508928	61	15301
2026-01-17 08:30:33.91	355.56	6.75	-45.2	-57.5	3.8	1.49e+00	0	61	104	1392508928	60	16281
2026-01-17 08:30:34.92	355.47	6.69	-45.2	-57.5	3.8	1.49e+00	0	61	104	1392508928	61	15398
2026-01-17 08:30:35.93	355.38	6.62	-45.2	-57.5	3.8	1.49e+00	0	61	104	1392508928	61	15325
2026-01-17 08:30:36.94	355.29	6.56	-45.2	-57.5	3.8	1.49e+00	0	61	104	1392508928	61	15372
2026-01-17 08:30:37.95	355.20	6.49	-45.2	-57.5	3.8	1.49e+00	0	61	104	1392508928	61	15329
2026-01-17 08:30:38.96	355.12	6.43	-45.2	-57.5	3.8	1.49e+00	0	61	104	1392508928	61	15303
2026-01-17 08:30:39.97	355.03	6.37	-45.2	-57.5	3.8	1.49e+00	0	61	104	1392508928	61	15246
2026-01-17 08:30:40.98	354.94	6.30	-45.2	-57.5	3.8	1.49e+00	0	61	104	1392508928	61	15305
2026-01-17 08:30:41.99	354.86	6.24	-45.2	-57.5	3.8	1.49e+00	0	61	104	1392508928	61	15315
2026-01-17 08:30:43.00	354.77	6.18	-45.2	-57.5	3.8	1.49e+00	0	61	104	1392508928	61	15326
2026-01-17 08:30:44.02	354.68	6.11	-45.2	-57.5	3.8	1.49e+00	0	61	104	1392508928	61	15349
2026-01-17 08:30:45.03	354.60	6.05	-45.2	-57.5	3.8	1.49e+00	0	61	104	1392508928	61	15294
2026-01-17 08:30:46.04	354.52	5.99	-45.2	-57.5	3.8	1.49e+00	0	61	104	1392508928	61	15255
2026-01-17 08:30:47.05	354.43	5.92	-45.2	-57.5	3.8	1.49e+00	0	61	104	1392508928	61	15317
2026-01-17 08:30:48.06	354.35	5.86	-45.2	-57.5	3.8	1.49e+00	0	61	104	1392508928	60	16157
2026-01-17 08:30:49.07	354.26	5.80	-45.2	-57.5	3.8	1.49e+00	0	61	104	1392508928	60	16251
2026-01-17 08:30:50.08	354.18	5.74	-45.2	-57.5	3.8	1.49e+00	0	61	104	1392508928	60	16196
2026-01-17 08:30:51.09	354.10	5.67	-45.2	-57.5	3.8	1.49e+00	0	61	104	1392508928	60	16241
2026-01-17 08:30:52.10	354.02	5.61	-45.2	-57.5	3.8	1.49e+00	0	61	104	1392508928	60	16174
2026-01-17 08:30:53.11	353.93	5.55	-45.2	-57.4	3.8	1.49e+00	0	61	104	1392508928	60	16124
2026-01-17 08:30:54.13	353.85	5.49	-45.2	-57.5	3.8	1.49e+00	0	61	104	1392508928	60	16173
2026-01-17 08:30:55.14	353.77	5.42	-45.2	-57.5	3.8	1.49e+00	0	61	104	1392508928	60	16138
