passes_logs/2026/01/17/R2.0S_Moscow/R2.0S_Moscow__20260117_002432_AQUA_rec.log

#Pass ID: 20260117_002432_AQUA
#Satellite: AQUA
#Configuration: AQUA
#almurnet v.1.7.20251203
#Start time: 2026-01-17 00:24:32

#Version: 2.2.20231116
#Station: R2.0S_Moscow
#Location: 37.707566 lon 55.798166 lat
#TLE: 1 27424U 02022A   26016.26443506  .00000711  00000+0  15228-3 0  9999
#TLE: 2 27424  98.4083 342.7130 0002022  76.7284  27.4473 14.61823291261073

#Time	Az	El	Level	Level2	SNR	BER	BlckErr	Temp	State	Recorded	gain1	gain2
2026-01-17 00:24:32.88	22.53	2.03	-43.1	-62.9	3.8	7.43e-01	0	55	0	0	58	33790
2026-01-17 00:24:33.88	22.59	2.09	-43.1	-62.9	3.8	7.46e-01	0	55	104	0	56	37958
2026-01-17 00:24:34.89	22.64	2.16	-43.2	-62.9	3.8	7.46e-01	0	54	104	0	56	37941
2026-01-17 00:24:35.90	22.70	2.22	-43.1	-62.9	3.8	7.43e-01	0	55	104	0	56	37949
2026-01-17 00:24:36.91	22.76	2.28	-43.2	-62.9	3.8	7.46e-01	0	55	104	0	56	37965
2026-01-17 00:24:37.92	22.81	2.34	-43.1	-62.9	3.8	7.44e-01	0	55	104	0	56	37985
2026-01-17 00:24:38.93	22.87	2.41	-43.1	-62.9	3.8	7.47e-01	0	55	104	0	56	37912
2026-01-17 00:24:39.94	22.93	2.47	-43.2	-62.9	3.8	7.51e-01	0	55	104	0	56	37946
2026-01-17 00:24:40.96	22.99	2.53	-43.1	-62.9	3.8	7.43e-01	0	55	104	0	56	37895
2026-01-17 00:24:41.97	23.04	2.60	-43.2	-62.9	3.8	7.47e-01	0	55	104	0	56	37874
2026-01-17 00:24:42.98	23.10	2.66	-43.1	-62.9	3.8	7.45e-01	0	55	104	0	56	37933
2026-01-17 00:24:43.99	23.16	2.72	-43.1	-62.9	3.8	7.46e-01	0	55	104	0	56	37853
2026-01-17 00:24:45.00	23.22	2.79	-43.1	-62.9	3.8	7.44e-01	0	55	104	0	56	37924
2026-01-17 00:24:46.01	23.28	2.85	-43.1	-62.9	3.8	7.45e-01	0	55	104	0	56	37811
2026-01-17 00:24:47.02	23.34	2.92	-43.1	-62.9	3.8	7.50e-01	0	55	104	0	56	37905
2026-01-17 00:24:48.03	23.40	2.98	-43.1	-62.9	3.8	7.44e-01	0	55	104	0	56	37961
2026-01-17 00:24:49.04	23.46	3.04	-43.1	-62.9	3.8	7.47e-01	0	55	104	0	56	37952
2026-01-17 00:24:50.05	23.52	3.11	-43.1	-62.9	3.8	7.46e-01	0	55	104	0	56	37835
2026-01-17 00:24:51.07	23.58	3.17	-43.1	-62.9	3.8	7.47e-01	0	55	104	0	56	37843
2026-01-17 00:24:52.08	23.64	3.24	-43.1	-62.9	3.8	7.47e-01	0	55	104	0	56	37910
2026-01-17 00:24:53.09	23.70	3.30	-43.1	-62.9	3.8	7.44e-01	0	56	104	0	56	37845
2026-01-17 00:24:54.10	23.76	3.37	-43.1	-62.9	3.8	7.47e-01	0	56	104	0	56	37838
2026-01-17 00:24:55.11	23.82	3.43	-43.1	-62.9	3.8	7.45e-01	0	55	104	0	56	37892
2026-01-17 00:24:56.12	23.88	3.50	-43.1	-62.8	3.8	7.45e-01	0	56	104	0	56	37772
2026-01-17 00:24:57.13	23.95	3.57	-43.1	-62.8	3.8	7.48e-01	0	56	104	0	56	37799
2026-01-17 00:24:58.14	24.01	3.63	-43.1	-62.8	3.8	7.47e-01	0	56	104	0	56	37697
2026-01-17 00:24:59.15	24.07	3.70	-43.1	-62.8	3.8	7.46e-01	0	56	104	0	56	37705
2026-01-17 00:25:00.16	24.13	3.76	-43.1	-62.8	3.8	7.46e-01	0	56	104	0	56	37711
2026-01-17 00:25:01.17	24.20	3.83	-43.1	-62.8	3.8	7.46e-01	0	56	104	0	56	37643
2026-01-17 00:25:02.18	24.26	3.90	-43.1	-62.8	3.8	7.46e-01	0	56	104	0	56	37606
2026-01-17 00:25:03.20	24.33	3.96	-43.1	-62.8	3.8	7.43e-01	0	56	104	0	56	37740
2026-01-17 00:25:04.21	24.39	4.03	-43.1	-62.8	3.8	7.47e-01	0	56	104	0	56	37745
2026-01-17 00:25:05.22	24.45	4.10	-43.1	-62.8	3.8	7.48e-01	0	56	104	0	56	37595
2026-01-17 00:25:06.23	24.52	4.16	-43.1	-62.8	3.8	7.44e-01	0	56	104	0	56	37519
2026-01-17 00:25:07.24	24.58	4.23	-43.1	-62.7	3.8	7.45e-01	0	56	104	0	56	37282
2026-01-17 00:25:08.25	24.65	4.30	-43.1	-62.7	3.8	7.45e-01	0	56	104	0	56	37140
2026-01-17 00:25:09.26	24.71	4.36	-43.1	-62.7	3.8	7.47e-01	0	56	104	0	56	36958
2026-01-17 00:25:10.27	24.78	4.43	-43.1	-62.6	3.8	7.43e-01	0	56	104	0	56	36831
2026-01-17 00:25:11.28	24.85	4.50	-43.0	-62.6	3.8	7.48e-01	0	56	104	0	56	36548
2026-01-17 00:25:12.29	24.91	4.57	-43.0	-62.5	3.8	7.44e-01	0	56	104	0	56	36275
2026-01-17 00:25:13.31	24.98	4.64	-43.0	-62.3	3.8	7.46e-01	0	56	104	0	56	35522
2026-01-17 00:25:14.32	25.05	4.70	-42.9	-62.3	3.8	7.45e-01	0	56	104	0	56	35427
2026-01-17 00:25:15.33	25.11	4.77	-43.0	-62.3	3.8	7.46e-01	0	56	104	0	56	35613
2026-01-17 00:25:16.34	25.18	4.84	-42.9	-62.3	3.8	7.48e-01	0	56	104	0	56	35492
2026-01-17 00:25:17.35	25.25	4.91	-42.9	-62.2	3.8	7.45e-01	0	57	104	0	56	35044
2026-01-17 00:25:18.36	25.32	4.98	-42.8	-61.9	3.8	7.45e-01	0	57	104	0	56	33824
2026-01-17 00:25:19.37	25.39	5.05	-42.8	-61.7	3.8	7.46e-01	0	57	104	0	56	33201
2026-01-17 00:25:20.38	25.46	5.12	-42.6	-61.4	3.8	7.43e-01	0	57	104	0	56	31841
2026-01-17 00:25:21.39	25.53	5.19	-42.6	-61.1	3.8	7.46e-01	0	57	104	0	56	30862
2026-01-17 00:25:22.40	25.60	5.26	-42.7	-61.3	3.8	7.47e-01	0	57	104	0	56	31727
2026-01-17 00:25:23.41	25.67	5.33	-42.7	-61.4	3.8	7.44e-01	0	57	104	0	56	31933
2026-01-17 00:25:24.43	25.74	5.40	-42.7	-61.6	3.8	7.45e-01	0	57	104	0	56	32600
2026-01-17 00:25:25.44	25.81	5.47	-42.8	-61.8	3.8	7.49e-01	0	57	104	0	56	33391
2026-01-17 00:25:26.45	25.88	5.54	-42.9	-62.1	3.8	7.46e-01	0	57	104	0	56	34586
2026-01-17 00:25:27.46	25.95	5.61	-42.8	-62.1	3.8	7.45e-01	0	57	104	0	56	34817
2026-01-17 00:25:28.47	26.02	5.68	-42.9	-62.1	3.8	7.46e-01	0	57	104	0	56	34784
2026-01-17 00:25:29.48	26.09	5.75	-42.8	-61.9	3.8	7.45e-01	0	57	104	0	56	33918
2026-01-17 00:25:30.49	26.17	5.82	-42.7	-61.7	3.8	7.44e-01	0	57	104	0	56	33159
2026-01-17 00:25:31.50	26.24	5.89	-42.7	-61.7	3.8	7.47e-01	0	57	104	0	56	33075
2026-01-17 00:25:32.51	26.31	5.96	-42.8	-61.7	3.8	7.48e-01	0	57	104	0	56	33161
2026-01-17 00:25:33.52	26.39	6.03	-42.8	-61.5	3.8	7.47e-01	0	57	104	0	56	32277
2026-01-17 00:25:34.53	26.46	6.11	-42.9	-61.7	3.8	7.43e-01	0	57	104	0	56	33228
2026-01-17 00:25:35.54	26.54	6.18	-43.0	-62.1	3.8	7.45e-01	0	57	104	0	56	34706
2026-01-17 00:25:36.55	26.61	6.25	-43.0	-62.0	3.8	7.46e-01	0	57	104	0	56	34425
2026-01-17 00:25:37.57	26.69	6.32	-43.0	-62.1	3.8	7.46e-01	0	57	104	0	56	34827
2026-01-17 00:25:38.57	26.76	6.40	-43.0	-62.3	3.8	7.49e-01	0	57	104	0	56	35359
2026-01-17 00:25:39.59	26.84	6.47	-43.1	-62.2	3.8	7.45e-01	0	57	104	0	56	34881
2026-01-17 00:25:40.60	26.91	6.54	-43.0	-62.0	3.8	7.50e-01	0	57	104	0	56	34227
2026-01-17 00:25:41.60	26.99	6.61	-43.0	-61.9	3.8	7.49e-01	0	57	104	0	56	34060
2026-01-17 00:25:42.61	27.07	6.69	-43.0	-61.7	3.8	7.43e-01	0	57	104	0	56	33088
2026-01-17 00:25:43.62	27.14	6.76	-43.0	-61.6	3.8	7.43e-01	0	57	104	0	56	32727
2026-01-17 00:25:44.63	27.22	6.83	-43.0	-60.6	3.8	7.43e-01	0	57	104	0	56	29343
2026-01-17 00:25:45.65	27.30	6.91	-43.0	-60.1	3.8	7.46e-01	0	58	104	0	56	27658
2026-01-17 00:25:46.66	27.38	6.98	-43.0	-58.9	4.2	7.28e-01	0	58	104	0	56	23962
2026-01-17 00:25:47.67	27.46	7.06	-42.9	-56.9	5.1	7.02e-01	0	58	0	0	56	19007
2026-01-17 00:25:48.68	27.54	7.13	-42.9	-56.8	5.2	7.03e-01	0	58	0	0	56	18914
2026-01-17 00:25:49.69	27.62	7.21	-42.8	-56.2	5.5	6.99e-01	26	58	0	0	56	17554
2026-01-17 00:25:50.70	27.70	7.28	-42.6	-54.0	7.3	6.58e-01	92	58	0	1572864	56	13602
2026-01-17 00:25:51.71	27.78	7.36	-42.5	-53.3	7.8	6.49e-01	92	58	0	3145728	56	12564
2026-01-17 00:25:52.72	27.86	7.43	-42.4	-52.7	8.3	6.42e-01	25	58	0	5242880	56	11709
2026-01-17 00:25:53.73	27.94	7.51	-42.4	-51.7	9.3	6.31e-01	0	58	0	7340032	56	10518
2026-01-17 00:25:54.74	28.03	7.58	-42.2	-51.1	10.1	6.21e-01	0	58	0	8912896	56	9742
2026-01-17 00:25:55.76	28.11	7.66	-41.8	-49.3	11.8	6.09e-01	0	58	0	11010048	55	8375
2026-01-17 00:25:56.77	28.19	7.74	-41.6	-48.8	12.3	6.09e-01	0	58	0	12582912	55	7936
2026-01-17 00:25:57.78	28.28	7.81	-41.5	-48.5	12.4	6.08e-01	0	58	0	14680064	55	7706
2026-01-17 00:25:58.79	28.36	7.89	-41.2	-47.8	12.9	6.05e-01	0	58	0	16777216	54	7508
2026-01-17 00:25:59.80	28.44	7.97	-40.9	-47.7	12.3	6.09e-01	0	58	0	18350080	53	7897
2026-01-17 00:26:00.81	28.53	8.04	-40.9	-47.9	12.0	6.10e-01	0	58	0	20447232	53	7994
2026-01-17 00:26:01.82	28.61	8.12	-40.8	-48.3	11.3	6.11e-01	0	58	0	22020096	53	8397
2026-01-17 00:26:02.83	28.70	8.20	-41.9	-50.9	9.9	6.22e-01	0	58	0	24117248	54	10760
2026-01-17 00:26:03.84	28.79	8.27	-41.4	-51.4	8.4	6.44e-01	56	58	0	26214400	53	12024
2026-01-17 00:26:04.85	28.87	8.35	-40.7	-60.1	3.7	7.47e-01	0	58	104	27262976	53	32608
2026-01-17 00:26:05.86	28.96	8.43	-41.8	-48.3	13.7	6.03e-01	0	58	0	27262976	54	7955
2026-01-17 00:26:06.87	29.05	8.51	-40.9	-47.1	13.4	6.03e-01	0	58	0	29360128	53	7349
2026-01-17 00:26:07.88	29.14	8.59	-40.1	-46.6	12.6	6.05e-01	0	58	0	31457280	52	7340
2026-01-17 00:26:08.89	29.22	8.67	-39.7	-46.9	11.4	6.10e-01	0	58	0	33030144	51	8014
2026-01-17 00:26:09.90	29.31	8.74	-39.4	-46.6	11.3	6.11e-01	0	58	0	35127296	50	8243
2026-01-17 00:26:10.91	29.40	8.82	-39.8	-46.7	11.9	6.10e-01	0	58	0	36700160	50	8325
2026-01-17 00:26:11.92	29.49	8.90	-40.4	-46.7	13.2	6.04e-01	0	58	0	38797312	51	7824
2026-01-17 00:26:12.93	29.58	8.98	-41.2	-47.1	14.2	6.02e-01	0	58	0	40894464	52	7774
2026-01-17 00:26:13.94	29.68	9.06	-41.6	-47.0	14.9	6.04e-01	0	58	0	42467328	53	7259
2026-01-17 00:26:14.95	29.77	9.14	-42.1	-47.4	15.1	6.01e-01	0	58	0	44564480	54	7182
2026-01-17 00:26:15.96	29.86	9.22	-41.8	-46.8	15.7	6.01e-01	0	58	0	46137344	54	6661
2026-01-17 00:26:16.97	29.95	9.30	-41.8	-46.7	15.7	6.02e-01	0	58	0	48234496	54	6603
2026-01-17 00:26:17.98	30.05	9.38	-41.7	-46.7	15.4	6.03e-01	0	58	0	50331648	54	6614
2026-01-17 00:26:18.98	30.14	9.46	-41.7	-46.7	15.2	6.02e-01	0	58	0	51904512	54	6630
2026-01-17 00:26:19.99	30.23	9.55	-41.7	-46.6	15.5	6.00e-01	0	58	0	54001664	54	6547
2026-01-17 00:26:21.00	30.33	9.63	-41.7	-46.5	15.8	6.03e-01	0	58	0	56098816	54	6476
2026-01-17 00:26:22.01	30.42	9.71	-41.8	-46.6	15.8	6.03e-01	0	58	0	57671680	54	6509
2026-01-17 00:26:23.02	30.52	9.79	-41.9	-46.6	15.9	6.02e-01	0	58	0	59768832	54	6529
2026-01-17 00:26:24.03	30.61	9.87	-41.9	-46.4	16.1	6.02e-01	0	58	0	61341696	54	6405
2026-01-17 00:26:25.04	30.71	9.96	-41.8	-46.3	16.3	6.01e-01	0	58	0	63438848	54	6296
2026-01-17 00:26:26.05	30.81	10.04	-41.8	-46.2	16.5	6.03e-01	0	58	0	65536000	54	6232
2026-01-17 00:26:27.06	30.91	10.12	-41.8	-46.1	16.6	6.02e-01	0	58	0	67108864	54	6188
2026-01-17 00:26:28.07	31.01	10.20	-41.8	-46.0	16.7	6.00e-01	0	58	0	69206016	54	6107
2026-01-17 00:26:29.08	31.11	10.29	-41.9	-46.2	16.5	6.00e-01	0	59	0	71303168	54	6225
2026-01-17 00:26:30.09	31.21	10.37	-41.8	-46.1	16.5	6.02e-01	0	59	0	72876032	54	6202
2026-01-17 00:26:31.10	31.31	10.46	-41.8	-46.0	16.6	5.99e-01	0	59	0	74973184	54	6119
2026-01-17 00:26:32.11	31.41	10.54	-41.9	-46.0	16.8	6.02e-01	0	59	0	76546048	54	6110
2026-01-17 00:26:33.12	31.51	10.62	-41.9	-45.9	17.0	6.02e-01	0	59	0	78643200	54	6007
2026-01-17 00:26:34.13	31.61	10.71	-41.9	-45.8	17.0	6.01e-01	0	59	0	80740352	54	5985
2026-01-17 00:26:35.14	31.72	10.79	-42.0	-46.0	16.9	6.00e-01	0	59	0	82313216	54	6072
2026-01-17 00:26:36.15	31.82	10.88	-41.9	-45.8	17.1	6.01e-01	0	59	0	84410368	54	5953
2026-01-17 00:26:37.16	31.92	10.96	-41.9	-45.7	17.2	6.02e-01	0	59	0	85983232	54	5913
2026-01-17 00:26:38.17	32.03	11.05	-41.9	-45.7	17.2	6.00e-01	0	59	0	88080384	54	5919
2026-01-17 00:26:39.18	32.13	11.14	-41.9	-45.7	17.3	6.00e-01	0	59	0	89653248	54	5859
2026-01-17 00:26:40.19	32.24	11.22	-41.9	-45.7	17.3	6.01e-01	0	59	0	91750400	54	5864
2026-01-17 00:26:41.19	32.35	11.31	-41.9	-45.7	17.3	6.01e-01	0	59	0	93847552	54	5868
2026-01-17 00:26:42.21	32.45	11.39	-41.9	-45.7	17.3	6.02e-01	0	59	0	95420416	54	5857
2026-01-17 00:26:43.22	32.56	11.48	-41.9	-45.7	17.4	6.03e-01	0	59	0	97517568	54	5862
2026-01-17 00:26:44.22	32.67	11.57	-41.9	-45.6	17.5	6.02e-01	0	59	0	99614720	54	5802
2026-01-17 00:26:45.23	32.78	11.66	-41.8	-45.5	17.5	6.00e-01	0	59	0	101187584	54	5758
2026-01-17 00:26:46.24	32.89	11.74	-41.8	-45.5	17.6	5.99e-01	0	59	0	103284736	54	5763
2026-01-17 00:26:47.25	33.00	11.83	-41.8	-45.5	17.6	5.99e-01	0	59	0	104857600	54	5765
2026-01-17 00:26:48.26	33.11	11.92	-41.9	-45.6	17.5	6.03e-01	0	59	0	106954752	54	5794
2026-01-17 00:26:49.27	33.22	12.01	-41.9	-45.6	17.5	6.01e-01	0	59	0	109051904	54	5794
2026-01-17 00:26:50.28	33.34	12.10	-41.9	-45.6	17.5	6.01e-01	0	59	0	110624768	54	5812
2026-01-17 00:26:51.29	33.45	12.19	-41.8	-45.4	17.6	6.01e-01	0	59	0	112721920	54	5712
2026-01-17 00:26:52.30	33.56	12.28	-41.9	-45.5	17.6	6.01e-01	0	59	0	114294784	54	5762
2026-01-17 00:26:53.30	33.68	12.36	-41.9	-45.5	17.7	6.01e-01	0	59	0	116391936	54	5754
2026-01-17 00:26:54.31	33.79	12.45	-41.9	-45.5	17.7	6.01e-01	0	59	0	118489088	54	5742
2026-01-17 00:26:55.32	33.91	12.54	-41.8	-45.3	17.8	6.03e-01	0	59	0	120061952	54	5644
2026-01-17 00:26:56.33	34.03	12.63	-41.7	-45.2	17.9	5.97e-01	0	59	0	122159104	54	5586
2026-01-17 00:26:57.34	34.15	12.73	-41.8	-45.4	17.8	5.99e-01	0	59	0	124256256	54	5668
2026-01-17 00:26:58.35	34.26	12.82	-41.9	-45.4	17.8	6.03e-01	0	59	0	125829120	54	5679
2026-01-17 00:26:59.36	34.38	12.91	-41.8	-45.4	17.8	6.02e-01	0	59	0	127926272	54	5657
2026-01-17 00:27:00.37	34.50	13.00	-41.9	-45.4	17.8	6.00e-01	0	59	0	129499136	54	5680
2026-01-17 00:27:01.38	34.62	13.09	-41.7	-45.1	18.1	6.02e-01	0	59	0	131596288	54	5496
2026-01-17 00:27:02.39	34.75	13.18	-41.7	-45.2	18.1	6.02e-01	0	59	0	133693440	54	5532
2026-01-17 00:27:03.40	34.87	13.28	-41.8	-45.3	18.0	6.01e-01	0	59	0	135266304	54	5619
2026-01-17 00:27:04.41	34.99	13.37	-41.8	-45.2	18.1	6.02e-01	0	59	0	137363456	54	5573
2026-01-17 00:27:05.42	35.12	13.46	-41.8	-45.3	18.0	6.02e-01	0	59	0	138936320	54	5599
2026-01-17 00:27:06.43	35.24	13.55	-41.9	-45.4	17.8	6.01e-01	0	59	0	141033472	54	5708
2026-01-17 00:27:07.44	35.37	13.65	-41.8	-45.4	17.9	6.00e-01	0	59	0	143130624	54	5679
2026-01-17 00:27:08.45	35.49	13.74	-41.9	-45.4	17.8	6.02e-01	0	59	0	144703488	54	5697
2026-01-17 00:27:09.46	35.62	13.84	-41.9	-45.5	17.8	6.02e-01	0	59	0	146800640	54	5742
2026-01-17 00:27:10.47	35.75	13.93	-41.8	-45.2	18.1	6.04e-01	0	59	0	148373504	54	5550
2026-01-17 00:27:11.47	35.88	14.02	-41.7	-45.1	18.2	6.04e-01	0	59	0	150470656	54	5509
2026-01-17 00:27:12.48	36.01	14.12	-41.7	-45.0	18.3	6.03e-01	0	59	0	152567808	54	5451
2026-01-17 00:27:13.49	36.14	14.21	-41.8	-45.2	18.1	6.02e-01	0	59	0	154140672	54	5545
2026-01-17 00:27:14.50	36.27	14.31	-41.8	-45.2	18.2	6.00e-01	0	59	0	156237824	54	5545
2026-01-17 00:27:15.51	36.40	14.40	-41.8	-45.2	18.1	5.99e-01	0	59	0	157810688	54	5573
2026-01-17 00:27:16.52	36.54	14.50	-41.8	-45.2	18.1	6.01e-01	0	59	0	159907840	54	5573
2026-01-17 00:27:17.53	36.67	14.60	-41.8	-45.2	18.2	6.01e-01	0	59	0	162004992	54	5546
2026-01-17 00:27:18.54	36.81	14.69	-41.8	-45.2	18.2	6.00e-01	0	59	0	163577856	54	5548
2026-01-17 00:27:19.55	36.94	14.79	-41.8	-45.2	18.1	6.03e-01	0	59	0	165675008	54	5572
2026-01-17 00:27:20.56	37.08	14.89	-41.8	-45.2	18.2	6.01e-01	0	59	0	167772160	54	5529
2026-01-17 00:27:21.57	37.22	14.99	-41.8	-45.2	18.2	6.03e-01	0	59	0	169345024	54	5562
2026-01-17 00:27:22.58	37.36	15.08	-41.8	-45.1	18.3	6.00e-01	0	59	0	171442176	54	5506
2026-01-17 00:27:23.59	37.50	15.18	-41.7	-45.0	18.4	6.00e-01	0	59	0	173015040	54	5410
2026-01-17 00:27:24.60	37.64	15.28	-41.7	-45.0	18.4	6.02e-01	0	59	0	175112192	54	5423
2026-01-17 00:27:25.61	37.78	15.38	-41.7	-45.0	18.4	6.02e-01	0	59	0	177209344	54	5426
2026-01-17 00:27:26.62	37.92	15.48	-41.7	-45.0	18.5	6.01e-01	0	59	0	178782208	54	5407
2026-01-17 00:27:27.63	38.07	15.58	-41.7	-45.0	18.5	6.01e-01	0	59	0	180879360	54	5411
2026-01-17 00:27:28.64	38.21	15.68	-41.8	-45.1	18.3	6.02e-01	0	59	0	182452224	54	5519
2026-01-17 00:27:29.65	38.36	15.78	-41.8	-45.1	18.4	6.01e-01	0	59	0	184549376	54	5478
2026-01-17 00:27:30.65	38.50	15.88	-41.8	-45.1	18.4	6.01e-01	0	59	0	186646528	54	5492
2026-01-17 00:27:31.67	38.65	15.98	-41.8	-45.1	18.4	6.03e-01	0	59	0	188219392	54	5466
2026-01-17 00:27:32.68	38.80	16.08	-41.7	-45.0	18.4	6.02e-01	0	59	0	190316544	54	5436
2026-01-17 00:27:33.68	38.95	16.18	-41.7	-45.0	18.5	5.99e-01	0	59	0	192413696	54	5416
2026-01-17 00:27:34.69	39.10	16.28	-41.8	-45.0	18.4	5.99e-01	0	60	0	193986560	54	5460
2026-01-17 00:27:35.70	39.25	16.38	-41.7	-44.9	18.6	6.01e-01	0	60	0	196083712	54	5394
2026-01-17 00:27:36.71	39.41	16.48	-41.7	-44.9	18.6	6.04e-01	0	59	0	197656576	54	5347
2026-01-17 00:27:37.72	39.56	16.58	-41.7	-44.9	18.6	6.02e-01	0	59	0	199753728	54	5353
2026-01-17 00:27:38.73	39.71	16.69	-41.7	-44.9	18.6	6.03e-01	0	59	0	201850880	54	5373
2026-01-17 00:27:39.74	39.87	16.79	-41.7	-44.9	18.6	6.02e-01	0	59	0	203423744	54	5369
2026-01-17 00:27:40.75	40.03	16.89	-41.7	-44.9	18.6	6.02e-01	0	59	0	205520896	54	5384
2026-01-17 00:27:41.76	40.19	17.00	-41.7	-44.9	18.6	6.03e-01	0	59	0	207093760	54	5380
2026-01-17 00:27:42.77	40.35	17.10	-41.7	-44.9	18.6	6.00e-01	0	60	0	209190912	54	5355
2026-01-17 00:27:43.78	40.51	17.20	-41.7	-44.9	18.6	6.01e-01	0	59	0	210763776	54	5384
2026-01-17 00:27:44.79	40.67	17.31	-41.8	-45.0	18.5	6.01e-01	0	60	0	212860928	54	5432
2026-01-17 00:27:45.80	40.83	17.41	-41.8	-45.0	18.6	6.04e-01	0	60	0	214958080	54	5418
2026-01-17 00:27:46.81	41.00	17.52	-41.8	-45.0	18.6	6.01e-01	0	59	0	216530944	54	5416
2026-01-17 00:27:47.82	41.16	17.62	-41.8	-44.9	18.6	6.00e-01	0	60	0	218628096	54	5383
2026-01-17 00:27:48.83	41.33	17.73	-41.8	-45.0	18.6	5.99e-01	0	59	0	220725248	54	5417
2026-01-17 00:27:49.84	41.50	17.83	-41.8	-44.9	18.5	6.03e-01	0	59	0	222298112	54	5384
2026-01-17 00:27:50.85	41.67	17.94	-41.8	-45.0	18.6	6.00e-01	0	60	0	224395264	54	5408
2026-01-17 00:27:51.86	41.84	18.04	-41.8	-44.9	18.7	6.00e-01	0	59	0	225968128	54	5370
2026-01-17 00:27:52.87	42.01	18.15	-41.7	-44.9	18.7	6.03e-01	0	59	0	228065280	54	5363
2026-01-17 00:27:53.88	42.18	18.26	-41.7	-44.8	18.8	6.02e-01	0	59	0	230162432	54	5319
2026-01-17 00:27:54.89	42.36	18.36	-41.7	-44.8	18.8	6.03e-01	0	59	0	231735296	54	5315
2026-01-17 00:27:55.90	42.53	18.47	-41.7	-44.9	18.7	6.00e-01	0	59	0	233832448	54	5361
2026-01-17 00:27:56.91	42.71	18.58	-41.7	-44.8	18.7	6.04e-01	0	59	0	235929600	54	5323
2026-01-17 00:27:57.92	42.89	18.69	-41.7	-44.8	18.8	6.02e-01	0	60	0	237502464	54	5315
2026-01-17 00:27:58.92	43.06	18.79	-41.6	-44.7	18.9	6.02e-01	0	60	0	239599616	54	5265
2026-01-17 00:27:59.93	43.24	18.90	-41.6	-44.7	18.9	6.04e-01	0	60	0	241172480	54	5230
2026-01-17 00:28:00.94	43.43	19.01	-41.6	-44.6	19.0	6.02e-01	0	59	0	243269632	54	5182
2026-01-17 00:28:01.95	43.61	19.12	-41.7	-44.8	18.8	6.03e-01	0	60	0	245366784	54	5333
2026-01-17 00:28:02.96	43.79	19.23	-41.7	-44.9	18.8	6.01e-01	0	60	0	246939648	54	5347
2026-01-17 00:28:03.97	43.98	19.34	-41.8	-44.9	18.7	6.01e-01	0	59	0	249036800	54	5374
2026-01-17 00:28:04.98	44.17	19.45	-41.7	-44.8	18.8	6.02e-01	0	60	0	250609664	54	5301
2026-01-17 00:28:05.99	44.36	19.56	-41.7	-44.8	18.8	5.99e-01	0	60	0	252706816	54	5289
2026-01-17 00:28:07.00	44.55	19.67	-41.7	-44.8	18.8	6.04e-01	0	60	0	254803968	54	5305
2026-01-17 00:28:08.01	44.74	19.78	-41.7	-44.9	18.8	6.03e-01	0	60	0	256376832	54	5341
2026-01-17 00:28:09.02	44.93	19.89	-41.7	-44.8	18.8	6.04e-01	0	60	0	258473984	54	5332
2026-01-17 00:28:10.03	45.12	20.00	-41.7	-44.8	18.8	6.02e-01	0	60	0	260046848	54	5305
2026-01-17 00:28:11.04	45.32	20.11	-41.7	-44.7	18.9	6.03e-01	0	60	0	262144000	54	5274
2026-01-17 00:28:12.05	45.52	20.22	-41.7	-44.8	18.9	6.03e-01	0	60	0	264241152	54	5280
2026-01-17 00:28:13.05	45.71	20.33	-41.7	-44.8	18.8	6.01e-01	0	60	0	265814016	54	5319
2026-01-17 00:28:14.06	45.91	20.44	-41.8	-44.9	18.7	5.98e-01	0	60	0	267911168	54	5367
2026-01-17 00:28:15.07	46.12	20.56	-41.8	-45.0	18.7	6.03e-01	0	60	0	269484032	54	5404
2026-01-17 00:28:16.08	46.32	20.67	-41.8	-45.0	18.7	6.01e-01	0	60	0	271581184	54	5414
2026-01-17 00:28:17.09	46.53	20.78	-41.8	-44.9	18.7	6.04e-01	0	60	0	273678336	54	5397
2026-01-17 00:28:18.10	46.73	20.89	-41.8	-44.9	18.7	6.03e-01	0	60	0	275251200	54	5391
2026-01-17 00:28:19.11	46.94	21.00	-41.8	-44.9	18.7	6.02e-01	0	60	0	277348352	54	5384
2026-01-17 00:28:20.12	47.15	21.12	-41.8	-45.0	18.7	6.00e-01	0	60	0	278921216	54	5406
2026-01-17 00:28:21.13	47.36	21.23	-41.8	-44.9	18.8	6.03e-01	0	60	0	281018368	54	5343
2026-01-17 00:28:22.14	47.57	21.34	-41.8	-44.9	18.7	6.02e-01	0	60	0	283115520	54	5384
2026-01-17 00:28:23.15	47.79	21.46	-41.8	-45.0	18.7	6.02e-01	0	60	0	284688384	54	5412
2026-01-17 00:28:24.16	48.00	21.57	-41.9	-45.1	18.6	6.01e-01	0	60	0	286785536	54	5497
2026-01-17 00:28:25.17	48.22	21.68	-41.9	-45.1	18.5	5.99e-01	0	60	0	288882688	54	5500
2026-01-17 00:28:26.18	48.44	21.80	-41.9	-45.1	18.6	6.03e-01	0	60	0	290455552	54	5473
2026-01-17 00:28:27.19	48.66	21.91	-41.9	-45.1	18.6	6.02e-01	0	60	0	292552704	54	5466
2026-01-17 00:28:28.19	48.88	22.03	-41.9	-45.1	18.6	5.99e-01	0	60	0	294125568	54	5477
2026-01-17 00:28:29.20	49.11	22.14	-41.9	-45.1	18.6	6.02e-01	0	60	0	296222720	54	5472
2026-01-17 00:28:30.21	49.33	22.25	-41.8	-44.9	18.8	6.02e-01	0	60	0	298319872	54	5380
2026-01-17 00:28:31.22	49.56	22.37	-41.8	-44.9	18.8	6.00e-01	0	60	0	299892736	54	5381
2026-01-17 00:28:32.23	49.79	22.48	-41.9	-45.1	18.6	6.00e-01	0	60	0	301989888	54	5483
2026-01-17 00:28:33.24	50.02	22.60	-41.9	-45.1	18.6	6.01e-01	0	60	0	304087040	54	5488
2026-01-17 00:28:34.25	50.25	22.71	-41.9	-45.1	18.6	6.00e-01	0	60	0	305659904	54	5497
2026-01-17 00:28:35.26	50.49	22.83	-42.0	-45.1	18.6	6.04e-01	0	60	0	307757056	54	5519
2026-01-17 00:28:36.27	50.72	22.94	-41.9	-45.1	18.6	6.00e-01	0	60	0	309329920	54	5517
2026-01-17 00:28:37.28	50.96	23.06	-41.9	-45.1	18.5	6.02e-01	0	60	0	311427072	54	5511
2026-01-17 00:28:38.29	51.20	23.17	-41.9	-45.0	18.7	6.02e-01	0	60	0	313524224	54	5435
2026-01-17 00:28:39.30	51.45	23.29	-41.8	-45.0	18.7	6.02e-01	0	60	0	315097088	54	5443
2026-01-17 00:28:40.31	51.69	23.41	-42.0	-45.2	18.5	5.99e-01	0	60	0	317194240	54	5556
2026-01-17 00:28:41.32	51.93	23.52	-41.9	-45.2	18.5	6.03e-01	0	60	0	318767104	54	5544
2026-01-17 00:28:42.33	52.18	23.64	-41.9	-45.1	18.6	6.03e-01	0	60	0	320864256	54	5496
2026-01-17 00:28:43.34	52.43	23.75	-42.0	-45.2	18.5	6.03e-01	0	60	0	322961408	54	5583
2026-01-17 00:28:44.35	52.68	23.87	-42.1	-45.3	18.4	6.01e-01	0	60	0	324534272	54	5654
2026-01-17 00:28:45.36	52.94	23.98	-42.1	-45.4	18.3	6.05e-01	0	60	0	326631424	54	5682
2026-01-17 00:28:46.37	53.19	24.10	-41.9	-45.1	18.6	6.00e-01	0	60	0	328204288	54	5506
2026-01-17 00:28:47.37	53.45	24.21	-41.9	-45.0	18.7	5.99e-01	0	60	0	330301440	54	5460
2026-01-17 00:28:48.38	53.71	24.33	-42.0	-45.2	18.5	6.01e-01	0	60	0	332398592	54	5581
2026-01-17 00:28:49.39	53.97	24.44	-42.1	-45.3	18.4	5.99e-01	0	60	0	333971456	54	5656
2026-01-17 00:28:50.40	54.23	24.56	-42.0	-45.2	18.5	6.02e-01	0	60	0	336068608	54	5549
2026-01-17 00:28:51.41	54.49	24.68	-42.0	-45.2	18.6	6.01e-01	0	60	0	337641472	54	5551
2026-01-17 00:28:52.42	54.76	24.79	-42.1	-45.4	18.3	6.01e-01	0	60	0	339738624	54	5685
2026-01-17 00:28:53.43	55.03	24.91	-42.1	-45.4	18.4	6.02e-01	0	60	0	341835776	54	5666
2026-01-17 00:28:54.44	55.30	25.02	-42.0	-45.1	18.6	6.01e-01	0	60	0	343408640	54	5514
2026-01-17 00:28:55.45	55.57	25.14	-42.0	-45.2	18.6	6.01e-01	0	60	0	345505792	54	5539
2026-01-17 00:28:56.45	55.85	25.25	-42.0	-45.3	18.5	6.02e-01	0	60	0	347078656	54	5602
2026-01-17 00:28:57.46	56.12	25.37	-42.0	-45.3	18.5	6.00e-01	0	60	0	349175808	54	5618
2026-01-17 00:28:58.48	56.41	25.48	-42.0	-45.2	18.5	6.01e-01	0	60	0	351272960	54	5591
2026-01-17 00:28:59.49	56.69	25.60	-42.0	-45.2	18.5	6.02e-01	0	60	0	352845824	54	5582
2026-01-17 00:29:00.50	56.97	25.71	-42.0	-45.2	18.5	6.02e-01	0	60	0	354942976	54	5584
2026-01-17 00:29:01.50	57.25	25.82	-42.0	-45.2	18.5	6.02e-01	0	60	0	357040128	54	5557
2026-01-17 00:29:02.51	57.54	25.94	-42.1	-45.4	18.4	6.02e-01	0	60	0	358612992	54	5673
2026-01-17 00:29:03.52	57.83	26.05	-42.1	-45.4	18.4	6.04e-01	0	60	0	360710144	54	5698
2026-01-17 00:29:04.53	58.12	26.17	-42.1	-45.3	18.5	6.02e-01	0	60	0	362283008	54	5618
2026-01-17 00:29:05.54	58.42	26.28	-42.2	-45.4	18.4	5.99e-01	0	60	0	364380160	54	5714
2026-01-17 00:29:06.55	58.71	26.39	-42.2	-45.5	18.2	6.02e-01	0	60	0	366477312	55	5451
2026-01-17 00:29:07.56	59.01	26.51	-42.1	-45.3	18.5	6.02e-01	0	60	0	368050176	55	5320
2026-01-17 00:29:08.57	59.31	26.62	-42.2	-45.5	18.3	5.99e-01	0	60	0	370147328	55	5407
2026-01-17 00:29:09.58	59.62	26.73	-42.2	-45.5	18.3	6.04e-01	0	60	0	371720192	55	5424
2026-01-17 00:29:10.59	59.92	26.84	-42.1	-45.3	18.5	5.99e-01	0	60	0	373817344	55	5318
2026-01-17 00:29:11.60	60.23	26.95	-42.1	-45.2	18.5	6.02e-01	0	60	0	375914496	55	5279
2026-01-17 00:29:12.61	60.54	27.07	-42.2	-45.5	18.3	6.01e-01	0	60	0	377487360	55	5411
2026-01-17 00:29:13.62	60.85	27.18	-42.2	-45.5	18.3	6.02e-01	0	60	0	379584512	55	5414
2026-01-17 00:29:14.62	61.16	27.29	-42.0	-45.2	18.6	6.00e-01	0	60	0	381157376	55	5256
2026-01-17 00:29:15.63	61.48	27.40	-42.1	-45.3	18.5	6.00e-01	0	60	0	383254528	55	5312
2026-01-17 00:29:16.64	61.79	27.51	-42.2	-45.4	18.4	6.01e-01	0	60	0	385351680	55	5360
2026-01-17 00:29:17.65	62.12	27.61	-42.1	-45.3	18.5	6.00e-01	0	60	0	386924544	55	5324
2026-01-17 00:29:18.66	62.44	27.72	-42.1	-45.3	18.5	6.01e-01	0	60	0	389021696	55	5321
2026-01-17 00:29:19.67	62.76	27.83	-42.1	-45.3	18.5	6.01e-01	0	60	0	390594560	55	5331
2026-01-17 00:29:20.68	63.09	27.94	-42.1	-45.4	18.4	6.01e-01	0	60	0	392691712	55	5344
2026-01-17 00:29:21.69	63.42	28.05	-42.0	-45.2	18.6	6.01e-01	0	60	0	394788864	55	5250
2026-01-17 00:29:22.70	63.75	28.15	-42.0	-45.1	18.7	6.00e-01	0	60	0	396361728	55	5215
2026-01-17 00:29:23.71	64.09	28.26	-42.1	-45.3	18.6	6.01e-01	0	60	0	398458880	55	5291
2026-01-17 00:29:24.72	64.42	28.37	-42.1	-45.2	18.6	6.04e-01	0	60	0	400556032	55	5270
2026-01-17 00:29:25.73	64.76	28.47	-42.0	-45.2	18.7	6.04e-01	0	60	0	402128896	55	5227
2026-01-17 00:29:26.74	65.10	28.58	-42.1	-45.2	18.6	6.03e-01	0	60	0	404226048	55	5258
2026-01-17 00:29:27.75	65.45	28.68	-42.0	-45.2	18.7	6.00e-01	0	60	0	405798912	55	5219
2026-01-17 00:29:28.76	65.79	28.78	-42.1	-45.2	18.7	6.00e-01	0	60	0	407896064	55	5251
2026-01-17 00:29:29.77	66.14	28.89	-42.2	-45.4	18.5	6.03e-01	0	60	0	409993216	55	5347
2026-01-17 00:29:30.78	66.49	28.99	-42.1	-45.2	18.7	6.01e-01	0	60	0	411566080	55	5257
2026-01-17 00:29:31.79	66.84	29.09	-42.0	-45.1	18.7	6.01e-01	0	60	0	413663232	55	5209
2026-01-17 00:29:32.79	67.19	29.19	-42.0	-45.1	18.7	6.01e-01	0	60	0	415236096	55	5204
2026-01-17 00:29:33.80	67.55	29.29	-42.1	-45.2	18.7	6.01e-01	0	60	0	417333248	55	5241
2026-01-17 00:29:34.81	67.91	29.39	-42.0	-45.2	18.7	6.00e-01	0	60	0	419430400	55	5232
2026-01-17 00:29:35.82	68.27	29.48	-42.0	-45.1	18.7	6.03e-01	0	60	0	421003264	55	5206
2026-01-17 00:29:36.83	68.63	29.58	-42.1	-45.2	18.7	6.00e-01	0	60	0	423100416	55	5245
2026-01-17 00:29:37.84	69.00	29.68	-42.0	-45.1	18.8	6.03e-01	0	60	0	425197568	55	5195
2026-01-17 00:29:38.85	69.37	29.77	-42.0	-45.1	18.8	6.03e-01	0	60	0	426770432	55	5190
2026-01-17 00:29:39.86	69.74	29.87	-42.0	-45.1	18.8	6.01e-01	0	60	0	428867584	55	5182
2026-01-17 00:29:40.86	70.11	29.96	-42.1	-45.2	18.7	6.02e-01	0	60	0	430440448	55	5242
2026-01-17 00:29:41.87	70.48	30.05	-42.1	-45.2	18.7	6.02e-01	0	60	0	432537600	55	5242
2026-01-17 00:29:42.88	70.86	30.14	-42.0	-45.1	18.9	6.04e-01	0	60	0	434634752	55	5161
2026-01-17 00:29:43.89	71.24	30.23	-42.0	-45.1	18.8	6.02e-01	0	60	0	436207616	55	5176
2026-01-17 00:29:44.90	71.62	30.32	-42.0	-45.1	18.8	6.02e-01	0	60	0	438304768	55	5184
2026-01-17 00:29:45.91	72.00	30.41	-42.0	-45.1	18.8	6.03e-01	0	60	0	439877632	55	5174
2026-01-17 00:29:46.92	72.39	30.50	-42.0	-45.1	18.8	6.03e-01	0	60	0	441974784	55	5183
2026-01-17 00:29:47.93	72.78	30.59	-42.0	-45.1	18.8	6.00e-01	0	60	0	444071936	55	5197
2026-01-17 00:29:48.94	73.17	30.67	-41.9	-45.0	18.9	6.02e-01	0	60	0	445644800	55	5116
2026-01-17 00:29:49.95	73.56	30.76	-41.9	-44.9	19.0	6.01e-01	0	60	0	447741952	55	5092
2026-01-17 00:29:50.96	73.95	30.84	-42.0	-45.0	18.9	6.02e-01	0	60	0	449314816	55	5143
2026-01-17 00:29:51.97	74.35	30.92	-42.0	-45.0	18.9	6.03e-01	0	60	0	451411968	55	5129
2026-01-17 00:29:52.98	74.75	31.00	-41.9	-44.9	19.0	6.01e-01	0	60	0	453509120	55	5071
2026-01-17 00:29:53.99	75.15	31.08	-41.9	-44.9	19.1	6.04e-01	0	60	0	455081984	55	5054
2026-01-17 00:29:55.00	75.55	31.16	-41.9	-44.9	19.1	5.99e-01	0	60	0	457179136	55	5045
2026-01-17 00:29:56.01	75.95	31.24	-41.9	-44.9	19.0	6.05e-01	0	60	0	458752000	55	5089
2026-01-17 00:29:57.02	76.36	31.31	-42.1	-45.3	18.7	6.00e-01	0	60	0	460849152	55	5293
2026-01-17 00:29:58.03	76.77	31.39	-41.8	-44.8	19.1	6.02e-01	0	60	0	462946304	55	4985
2026-01-17 00:29:59.03	77.17	31.46	-41.8	-44.7	19.2	6.00e-01	0	60	0	464519168	55	4964
2026-01-17 00:30:00.04	77.58	31.53	-42.0	-45.0	19.0	6.00e-01	0	60	0	466616320	55	5116
2026-01-17 00:30:01.05	78.00	31.60	-42.0	-45.0	18.9	6.00e-01	0	60	0	468713472	55	5122
2026-01-17 00:30:02.06	78.41	31.67	-41.9	-44.9	19.1	6.04e-01	0	60	0	470286336	55	5060
2026-01-17 00:30:03.07	78.83	31.74	-41.9	-44.9	19.0	6.03e-01	0	60	0	472383488	55	5091
2026-01-17 00:30:04.08	79.25	31.80	-41.9	-44.8	19.1	6.02e-01	0	60	0	473956352	55	5036
2026-01-17 00:30:05.09	79.67	31.87	-41.8	-44.8	19.1	6.01e-01	0	60	0	476053504	55	5011
2026-01-17 00:30:06.10	80.09	31.93	-41.9	-44.9	19.1	6.05e-01	0	60	0	478150656	55	5064
2026-01-17 00:30:07.11	80.52	31.99	-41.9	-45.0	19.0	6.01e-01	0	61	0	479723520	55	5115
2026-01-17 00:30:08.12	80.94	32.05	-41.8	-44.8	19.2	6.02e-01	0	60	0	481820672	55	4989
2026-01-17 00:30:09.13	81.37	32.11	-41.8	-44.6	19.3	6.01e-01	0	60	0	483393536	55	4921
2026-01-17 00:30:10.14	81.80	32.16	-41.9	-44.9	19.1	6.03e-01	0	60	0	485490688	55	5073
2026-01-17 00:30:11.15	82.23	32.22	-41.8	-44.8	19.2	6.02e-01	0	60	0	487587840	55	4989
2026-01-17 00:30:12.16	82.66	32.27	-41.8	-44.7	19.2	6.02e-01	0	60	0	489160704	55	4977
2026-01-17 00:30:13.17	83.10	32.32	-41.8	-44.7	19.2	6.00e-01	0	60	0	491257856	55	4967
2026-01-17 00:30:14.18	83.53	32.38	-41.7	-44.6	19.2	6.01e-01	0	60	0	493355008	55	4910
2026-01-17 00:30:15.19	83.97	32.42	-41.8	-44.8	19.2	6.03e-01	0	60	0	494927872	55	4988
2026-01-17 00:30:16.20	84.40	32.47	-41.8	-44.8	19.2	6.03e-01	0	60	0	497025024	55	5003
2026-01-17 00:30:17.21	84.84	32.52	-41.8	-44.7	19.3	6.00e-01	0	60	0	498597888	55	4937
2026-01-17 00:30:18.22	85.28	32.56	-41.8	-44.6	19.3	6.03e-01	0	60	0	500695040	55	4919
2026-01-17 00:30:19.23	85.72	32.60	-41.7	-44.6	19.4	6.00e-01	0	60	0	502792192	55	4880
2026-01-17 00:30:20.24	86.17	32.64	-41.8	-44.7	19.3	6.01e-01	0	60	0	504365056	55	4955
2026-01-17 00:30:21.25	86.61	32.68	-41.8	-44.8	19.2	6.01e-01	0	60	0	506462208	55	5006
2026-01-17 00:30:22.26	87.05	32.71	-41.7	-44.6	19.4	6.00e-01	0	60	0	508035072	55	4877
2026-01-17 00:30:23.27	87.50	32.75	-41.7	-44.5	19.5	5.99e-01	0	60	0	510132224	55	4848
2026-01-17 00:30:24.28	87.94	32.78	-41.8	-44.8	19.2	6.03e-01	0	60	0	511705088	55	5004
2026-01-17 00:30:25.29	88.39	32.81	-41.8	-44.7	19.2	6.04e-01	0	60	0	513802240	55	4977
2026-01-17 00:30:26.30	88.84	32.84	-41.8	-44.7	19.3	6.01e-01	0	60	0	515899392	55	4931
2026-01-17 00:30:27.31	89.29	32.87	-41.6	-44.3	19.6	6.00e-01	0	60	0	517472256	55	4746
2026-01-17 00:30:28.32	89.74	32.89	-41.8	-44.6	19.4	6.01e-01	0	61	0	519569408	55	4921
2026-01-17 00:30:29.33	90.19	32.92	-41.7	-44.5	19.4	6.01e-01	0	60	0	521666560	55	4861
2026-01-17 00:30:30.34	90.64	32.94	-41.7	-44.6	19.4	6.03e-01	0	60	0	523239424	55	4871
2026-01-17 00:30:31.35	91.09	32.96	-41.8	-44.7	19.3	6.01e-01	0	60	0	525336576	55	4983
2026-01-17 00:30:32.36	91.54	32.98	-41.6	-44.4	19.5	6.04e-01	0	60	0	526909440	55	4808
2026-01-17 00:30:33.36	91.99	32.99	-41.7	-44.5	19.5	6.01e-01	0	60	0	529006592	55	4831
2026-01-17 00:30:34.37	92.44	33.01	-41.6	-44.5	19.5	6.01e-01	0	60	0	531103744	55	4816
2026-01-17 00:30:35.38	92.90	33.02	-41.7	-44.5	19.5	6.03e-01	0	60	0	532676608	55	4844
2026-01-17 00:30:36.39	93.35	33.03	-41.8	-44.6	19.3	6.01e-01	0	60	0	534773760	55	4918
2026-01-17 00:30:37.40	93.81	33.04	-41.6	-44.4	19.5	6.03e-01	0	60	0	536870912	55	4800
2026-01-17 00:30:38.41	94.26	33.04	-41.6	-44.5	19.5	6.02e-01	0	60	0	538443776	55	4823
2026-01-17 00:30:39.42	94.71	33.05	-41.7	-44.5	19.4	6.01e-01	0	60	0	540540928	55	4867
2026-01-17 00:30:40.43	95.17	33.05	-41.6	-44.3	19.6	6.02e-01	0	60	0	542113792	55	4751
2026-01-17 00:30:41.44	95.62	33.05	-41.8	-44.7	19.3	6.00e-01	0	60	0	544210944	55	4939
2026-01-17 00:30:42.45	96.08	33.05	-41.7	-44.5	19.5	6.01e-01	0	61	0	546308096	55	4832
2026-01-17 00:30:43.45	96.53	33.04	-41.4	-44.1	19.8	6.01e-01	0	61	0	547880960	54	4907
2026-01-17 00:30:44.46	96.98	33.04	-41.5	-44.3	19.7	6.02e-01	0	60	0	549978112	54	5030
2026-01-17 00:30:45.47	97.44	33.03	-41.7	-44.5	19.5	6.00e-01	0	60	0	551550976	54	5119
2026-01-17 00:30:46.48	97.89	33.02	-41.6	-44.5	19.5	6.02e-01	0	61	0	553648128	54	5109
2026-01-17 00:30:47.49	98.34	33.01	-41.6	-44.4	19.6	6.02e-01	0	60	0	555745280	54	5047
2026-01-17 00:30:48.50	98.80	33.00	-41.5	-44.2	19.8	6.01e-01	0	60	0	557318144	54	4935
2026-01-17 00:30:49.51	99.25	32.98	-41.6	-44.3	19.6	6.02e-01	0	61	0	559415296	54	5041
2026-01-17 00:30:50.52	99.70	32.97	-41.7	-44.6	19.4	6.03e-01	0	61	0	560988160	54	5185
2026-01-17 00:30:51.53	100.16	32.95	-41.7	-44.5	19.5	6.01e-01	0	60	0	563085312	54	5113
2026-01-17 00:30:52.54	100.61	32.93	-41.6	-44.4	19.6	6.01e-01	0	60	0	565182464	54	5056
2026-01-17 00:30:53.55	101.06	32.90	-41.6	-44.3	19.7	5.99e-01	0	60	0	566755328	54	5019
2026-01-17 00:30:54.56	101.51	32.88	-41.6	-44.4	19.6	6.01e-01	0	60	0	568852480	54	5068
2026-01-17 00:30:55.57	101.96	32.85	-41.7	-44.5	19.4	6.01e-01	0	60	0	570425344	54	5154
2026-01-17 00:30:56.58	102.41	32.83	-41.7	-44.5	19.5	6.01e-01	0	61	0	572522496	54	5133
2026-01-17 00:30:57.59	102.86	32.80	-41.6	-44.3	19.7	6.02e-01	0	60	0	574619648	54	5029
2026-01-17 00:30:58.60	103.30	32.76	-41.4	-44.1	19.9	6.02e-01	0	61	0	576192512	54	4901
2026-01-17 00:30:59.61	103.75	32.73	-41.5	-44.3	19.7	6.02e-01	0	60	0	578289664	54	4994
2026-01-17 00:31:00.61	104.19	32.70	-41.6	-44.4	19.6	6.02e-01	0	60	0	579862528	54	5048
2026-01-17 00:31:01.62	104.63	32.66	-41.5	-44.2	19.8	6.01e-01	0	61	0	581959680	54	4953
2026-01-17 00:31:02.63	105.08	32.62	-41.4	-44.1	19.9	6.02e-01	0	60	0	584056832	54	4894
2026-01-17 00:31:03.64	105.52	32.58	-41.5	-44.2	19.8	6.02e-01	0	60	0	585629696	54	4953
2026-01-17 00:31:04.65	105.96	32.54	-41.6	-44.3	19.7	5.99e-01	0	60	0	587726848	54	5019
2026-01-17 00:31:05.67	106.41	32.49	-41.5	-44.2	19.8	6.02e-01	0	61	0	589824000	54	4963
2026-01-17 00:31:06.68	106.84	32.44	-41.4	-44.1	19.9	6.02e-01	0	61	0	591396864	54	4887
2026-01-17 00:31:07.69	107.28	32.40	-41.4	-44.1	19.9	5.97e-01	0	61	0	593494016	54	4910
2026-01-17 00:31:08.69	107.71	32.35	-41.4	-44.1	19.9	6.02e-01	0	60	0	595066880	54	4907
2026-01-17 00:31:09.70	108.15	32.30	-41.6	-44.3	19.6	6.01e-01	0	61	0	597164032	54	5041
2026-01-17 00:31:10.71	108.58	32.24	-41.4	-44.1	19.9	6.01e-01	0	61	0	599261184	54	4883
2026-01-17 00:31:11.72	109.01	32.19	-41.4	-44.1	19.9	6.02e-01	0	60	0	600834048	54	4884
2026-01-17 00:31:12.73	109.44	32.13	-41.3	-43.9	20.0	6.00e-01	0	60	0	602931200	54	4811
2026-01-17 00:31:13.74	109.87	32.08	-41.4	-44.1	19.9	5.99e-01	0	60	0	605028352	54	4908
2026-01-17 00:31:14.75	110.30	32.02	-41.7	-44.5	19.5	6.02e-01	0	60	0	606601216	54	5126
2026-01-17 00:31:15.76	110.73	31.96	-41.5	-44.3	19.7	6.00e-01	0	61	0	608698368	54	4984
2026-01-17 00:31:16.77	111.15	31.89	-41.4	-44.1	19.9	6.04e-01	0	60	0	610271232	54	4875
2026-01-17 00:31:17.78	111.57	31.83	-41.4	-44.1	19.1	6.04e-01	0	60	0	612368384	54	4903
2026-01-17 00:31:18.79	111.99	31.76	-41.4	-44.1	19.9	6.02e-01	0	60	0	614465536	54	4875
2026-01-17 00:31:19.80	112.41	31.70	-41.6	-44.3	19.7	6.04e-01	0	60	0	616038400	54	5007
2026-01-17 00:31:20.81	112.83	31.63	-41.6	-44.4	19.6	5.99e-01	0	60	0	618135552	54	5071
2026-01-17 00:31:21.82	113.25	31.56	-41.4	-44.1	19.9	6.00e-01	0	60	0	619708416	54	4896
2026-01-17 00:31:22.83	113.66	31.49	-41.3	-44.0	20.0	6.03e-01	0	60	0	621805568	54	4821
2026-01-17 00:31:23.84	114.07	31.42	-41.4	-44.1	19.8	6.03e-01	0	60	0	623902720	54	4924
2026-01-17 00:31:24.85	114.48	31.34	-41.5	-44.2	19.8	6.04e-01	0	60	0	625475584	54	4952
2026-01-17 00:31:25.86	114.89	31.27	-41.4	-44.1	19.9	6.00e-01	0	61	0	627572736	54	4889
2026-01-17 00:31:26.88	115.30	31.19	-41.4	-44.1	19.9	6.02e-01	0	60	0	629145600	54	4891
2026-01-17 00:31:27.88	115.70	31.11	-41.5	-44.2	19.8	6.02e-01	0	60	0	631242752	54	4953
2026-01-17 00:31:28.89	116.10	31.03	-41.5	-44.2	19.7	6.02e-01	0	60	0	633339904	54	4970
2026-01-17 00:31:29.90	116.50	30.95	-41.5	-44.2	19.8	6.03e-01	0	60	0	634912768	54	4937
2026-01-17 00:31:30.91	116.90	30.87	-41.4	-44.1	19.9	6.03e-01	0	60	0	637009920	54	4897
2026-01-17 00:31:31.92	117.30	30.79	-41.3	-44.0	20.0	6.00e-01	0	60	0	638582784	54	4818
2026-01-17 00:31:32.93	117.69	30.70	-41.5	-44.3	19.8	6.02e-01	0	60	0	640679936	54	4991
2026-01-17 00:31:33.94	118.08	30.62	-41.6	-44.3	19.7	5.99e-01	0	60	0	642777088	54	5027
2026-01-17 00:31:34.95	118.47	30.53	-41.5	-44.2	19.8	6.03e-01	0	60	0	644349952	54	4939
2026-01-17 00:31:35.96	118.86	30.45	-41.5	-44.2	19.8	6.01e-01	0	60	0	646447104	54	4961
2026-01-17 00:31:36.97	119.25	30.36	-41.5	-44.3	19.8	6.02e-01	0	60	0	648019968	54	4995
2026-01-17 00:31:37.99	119.63	30.27	-41.4	-44.1	19.8	6.03e-01	0	61	0	650117120	54	4924
2026-01-17 00:31:39.00	120.02	30.18	-41.4	-44.1	19.9	6.01e-01	0	61	0	652214272	54	4897
2026-01-17 00:31:40.00	120.39	30.09	-41.5	-44.2	19.8	6.00e-01	0	60	0	653787136	54	4948
2026-01-17 00:31:41.01	120.77	29.99	-41.6	-44.3	19.7	6.04e-01	0	60	0	655884288	54	5030
2026-01-17 00:31:42.02	121.14	29.90	-41.5	-44.3	19.7	6.02e-01	0	60	0	657981440	54	4996
2026-01-17 00:31:43.03	121.52	29.80	-41.3	-44.0	20.0	6.04e-01	0	60	0	659554304	54	4833
2026-01-17 00:31:44.04	121.89	29.71	-41.4	-44.1	19.8	6.00e-01	0	60	0	661651456	54	4922
2026-01-17 00:31:45.05	122.25	29.61	-41.5	-44.2	19.7	6.00e-01	0	60	0	663224320	54	4979
2026-01-17 00:31:46.06	122.62	29.52	-41.5	-44.3	19.7	6.01e-01	0	60	0	665321472	54	5014
2026-01-17 00:31:47.07	122.98	29.42	-41.5	-44.3	19.7	6.00e-01	0	60	0	667418624	54	4988
2026-01-17 00:31:48.08	123.34	29.32	-41.5	-44.2	19.7	6.01e-01	0	60	0	668991488	54	4982
2026-01-17 00:31:49.09	123.70	29.22	-41.5	-44.3	19.7	6.00e-01	0	60	0	671088640	54	4986
2026-01-17 00:31:50.10	124.06	29.12	-41.5	-44.2	19.7	6.02e-01	0	60	0	673185792	54	4970
2026-01-17 00:31:51.11	124.41	29.02	-41.5	-44.2	19.8	6.02e-01	0	60	0	674758656	54	4950
2026-01-17 00:31:52.12	124.77	28.91	-41.5	-44.3	19.7	6.03e-01	0	60	0	676855808	54	4995
2026-01-17 00:31:53.13	125.12	28.81	-41.7	-44.5	19.5	6.03e-01	0	60	0	678428672	54	5118
2026-01-17 00:31:54.14	125.47	28.71	-41.7	-44.5	19.5	6.01e-01	0	61	0	680525824	54	5136
2026-01-17 00:31:55.15	125.81	28.60	-41.6	-44.3	19.7	6.00e-01	0	60	0	682622976	54	5016
2026-01-17 00:31:56.16	126.15	28.50	-41.6	-44.3	19.7	6.00e-01	0	60	0	684195840	54	5016
2026-01-17 00:31:57.17	126.49	28.39	-41.6	-44.3	19.5	6.02e-01	0	60	0	686292992	54	5028
2026-01-17 00:31:58.18	126.83	28.29	-41.6	-44.5	19.5	6.02e-01	0	61	0	687865856	54	5109
2026-01-17 00:31:59.19	127.17	28.18	-41.8	-44.7	19.3	6.00e-01	0	60	0	689963008	54	5238
2026-01-17 00:32:00.20	127.50	28.07	-41.8	-44.7	19.3	6.01e-01	0	60	0	692060160	54	5242
2026-01-17 00:32:01.21	127.84	27.97	-41.7	-44.6	19.4	6.00e-01	0	60	0	693633024	54	5171
2026-01-17 00:32:02.22	128.17	27.86	-41.9	-44.8	19.2	6.01e-01	0	60	0	695730176	54	5292
2026-01-17 00:32:03.23	128.49	27.75	-41.8	-44.8	19.2	6.03e-01	0	60	0	697303040	54	5288
2026-01-17 00:32:04.24	128.82	27.64	-41.7	-44.5	19.5	6.03e-01	0	60	0	699400192	54	5109
2026-01-17 00:32:05.24	129.14	27.53	-41.7	-44.6	19.4	6.03e-01	0	60	0	701497344	54	5167
2026-01-17 00:32:06.25	129.46	27.42	-41.8	-44.7	19.2	6.01e-01	0	60	0	703070208	54	5257
2026-01-17 00:32:07.26	129.78	27.31	-41.9	-44.8	19.1	6.02e-01	0	61	0	705167360	54	5329
2026-01-17 00:32:08.27	130.09	27.20	-41.8	-44.7	19.0	6.01e-01	0	60	0	706740224	54	5275
2026-01-17 00:32:09.28	130.41	27.09	-41.8	-44.7	19.2	6.00e-01	0	60	0	708837376	54	5236
2026-01-17 00:32:10.29	130.72	26.97	-41.8	-44.7	19.2	6.02e-01	0	61	0	710934528	54	5264
2026-01-17 00:32:11.31	131.03	26.86	-41.8	-44.7	19.3	6.02e-01	0	61	0	712507392	54	5224
2026-01-17 00:32:12.31	131.33	26.75	-41.8	-44.8	19.2	6.01e-01	0	61	0	714604544	54	5290
2026-01-17 00:32:13.32	131.64	26.64	-42.0	-45.0	19.0	6.01e-01	0	60	0	716177408	54	5408
2026-01-17 00:32:14.33	131.94	26.52	-41.9	-44.9	19.0	6.02e-01	0	60	0	718274560	54	5379
2026-01-17 00:32:15.34	132.24	26.41	-41.8	-44.7	19.2	6.00e-01	0	61	0	720371712	54	5278
2026-01-17 00:32:16.35	132.54	26.30	-41.8	-44.7	19.3	6.05e-01	0	60	0	721944576	54	5225
2026-01-17 00:32:17.36	132.84	26.18	-41.8	-44.7	19.2	5.99e-01	0	60	0	724041728	54	5269
2026-01-17 00:32:18.37	133.13	26.07	-42.0	-45.0	19.0	6.01e-01	0	60	0	726138880	54	5422
2026-01-17 00:32:19.38	133.42	25.95	-42.1	-45.2	18.8	6.02e-01	0	60	0	727711744	54	5535
2026-01-17 00:32:20.39	133.71	25.84	-42.1	-45.1	18.8	6.01e-01	0	60	0	729808896	54	5525
2026-01-17 00:32:21.40	134.00	25.72	-42.0	-45.0	18.9	6.01e-01	0	60	0	731381760	54	5422
2026-01-17 00:32:22.41	134.28	25.61	-42.0	-45.0	18.9	6.01e-01	0	61	0	733478912	54	5422
2026-01-17 00:32:23.41	134.56	25.49	-42.0	-45.0	18.9	6.01e-01	0	60	0	735576064	54	5448
2026-01-17 00:32:24.42	134.85	25.38	-42.0	-45.0	18.9	6.05e-01	0	60	0	737148928	54	5416
2026-01-17 00:32:25.43	135.13	25.26	-42.0	-45.0	18.9	6.00e-01	0	61	0	739246080	54	5438
2026-01-17 00:32:26.44	135.40	25.15	-42.1	-45.2	18.7	6.00e-01	0	61	0	741343232	54	5564
2026-01-17 00:32:27.45	135.68	25.03	-42.1	-45.2	18.7	6.02e-01	0	60	0	742916096	54	5554
2026-01-17 00:32:28.46	135.95	24.91	-42.0	-45.0	18.9	6.02e-01	0	60	0	745013248	54	5414
2026-01-17 00:32:29.47	136.22	24.80	-42.0	-45.1	18.9	6.03e-01	0	60	0	746586112	54	5468
2026-01-17 00:32:30.48	136.49	24.68	-42.1	-45.1	18.8	6.03e-01	0	60	0	748683264	54	5509
2026-01-17 00:32:31.49	136.76	24.57	-42.2	-45.4	18.5	6.02e-01	0	60	0	750780416	54	5677
2026-01-17 00:32:32.50	137.02	24.45	-42.2	-45.4	18.5	6.00e-01	0	60	0	752353280	54	5703
2026-01-17 00:32:33.51	137.28	24.33	-42.3	-45.5	18.5	6.03e-01	0	60	0	754450432	55	5411
2026-01-17 00:32:34.52	137.55	24.22	-42.3	-45.6	18.3	6.04e-01	0	61	0	756023296	55	5486
2026-01-17 00:32:35.53	137.80	24.10	-42.3	-45.6	18.3	6.02e-01	0	61	0	758120448	55	5519
2026-01-17 00:32:36.54	138.06	23.98	-42.5	-45.8	18.1	6.01e-01	0	60	0	760217600	55	5649
2026-01-17 00:32:37.55	138.32	23.87	-42.4	-45.8	18.1	6.02e-01	0	60	0	761790464	55	5617
2026-01-17 00:32:38.56	138.57	23.75	-42.3	-45.6	18.3	6.01e-01	0	60	0	763887616	55	5481
2026-01-17 00:32:39.57	138.82	23.63	-42.1	-45.3	18.6	6.03e-01	0	60	0	765460480	55	5302
2026-01-17 00:32:40.57	139.07	23.52	-42.1	-45.2	18.7	6.03e-01	0	60	0	767557632	55	5230
2026-01-17 00:32:41.59	139.32	23.40	-42.0	-45.1	18.7	6.01e-01	0	60	0	769654784	55	5209
2026-01-17 00:32:42.60	139.56	23.29	-42.1	-45.2	18.7	6.00e-01	0	61	0	771227648	55	5243
2026-01-17 00:32:43.61	139.81	23.17	-42.1	-45.2	18.7	6.00e-01	0	60	0	773324800	55	5248
2026-01-17 00:32:44.62	140.05	23.05	-42.1	-45.2	18.6	6.01e-01	0	60	0	774897664	55	5267
2026-01-17 00:32:45.63	140.29	22.94	-42.1	-45.2	18.7	6.02e-01	0	60	0	776994816	55	5232
2026-01-17 00:32:46.64	140.53	22.82	-42.0	-45.0	18.8	6.02e-01	0	61	0	779091968	55	5153
2026-01-17 00:32:47.64	140.76	22.71	-42.0	-45.1	18.7	6.00e-01	0	60	0	780664832	55	5204
2026-01-17 00:32:48.65	140.99	22.59	-42.0	-45.0	18.8	6.00e-01	0	60	0	782761984	55	5132
2026-01-17 00:32:49.66	141.23	22.47	-42.0	-45.0	18.8	6.00e-01	0	60	0	784334848	55	5135
2026-01-17 00:32:50.67	141.46	22.36	-42.0	-45.0	18.8	6.01e-01	0	60	0	786432000	55	5159
2026-01-17 00:32:51.68	141.69	22.24	-42.0	-45.0	18.8	6.01e-01	0	61	0	788529152	55	5159
2026-01-17 00:32:52.69	141.91	22.13	-42.0	-45.2	18.7	6.03e-01	0	60	0	790102016	55	5228
2026-01-17 00:32:53.70	142.14	22.01	-42.1	-45.2	18.6	6.03e-01	0	60	0	792199168	55	5251
2026-01-17 00:32:54.71	142.36	21.90	-42.1	-45.2	18.6	6.02e-01	0	60	0	794296320	55	5264
2026-01-17 00:32:55.72	142.59	21.78	-42.0	-45.2	18.7	6.03e-01	0	61	0	795869184	55	5234
2026-01-17 00:32:56.73	142.81	21.67	-42.1	-45.3	18.5	6.02e-01	0	61	0	797966336	55	5327
2026-01-17 00:32:57.74	143.03	21.55	-42.1	-45.3	18.5	6.01e-01	0	60	0	799539200	55	5315
2026-01-17 00:32:58.75	143.24	21.44	-42.1	-45.3	18.6	6.02e-01	0	61	0	801636352	55	5281
2026-01-17 00:32:59.76	143.46	21.32	-42.1	-45.3	18.6	6.01e-01	0	61	0	803733504	55	5287
2026-01-17 00:33:00.77	143.67	21.21	-42.0	-45.1	18.7	6.03e-01	0	60	0	805306368	55	5168
2026-01-17 00:33:01.78	143.88	21.09	-41.9	-44.9	18.8	6.00e-01	0	60	0	807403520	55	5093
2026-01-17 00:33:02.79	144.10	20.98	-41.9	-44.9	18.9	6.00e-01	0	60	0	808976384	55	5059
2026-01-17 00:33:03.80	144.30	20.87	-41.8	-44.8	19.0	6.03e-01	0	60	0	811073536	55	4995
2026-01-17 00:33:04.80	144.51	20.76	-41.8	-44.8	19.0	6.03e-01	0	60	0	813170688	55	5000
2026-01-17 00:33:05.81	144.72	20.64	-41.9	-44.8	19.0	6.01e-01	0	60	0	814743552	55	5041
2026-01-17 00:33:06.82	144.92	20.53	-41.8	-44.9	18.9	6.04e-01	0	60	0	816840704	55	5052
2026-01-17 00:33:07.83	145.12	20.42	-41.9	-45.0	18.8	6.01e-01	0	60	0	818937856	55	5136
2026-01-17 00:33:08.84	145.33	20.30	-42.0	-45.2	18.6	6.02e-01	0	60	0	820510720	55	5226
2026-01-17 00:33:09.85	145.53	20.19	-42.1	-45.3	18.5	6.01e-01	0	60	0	822607872	55	5290
2026-01-17 00:33:10.86	145.72	20.08	-42.1	-45.3	18.4	6.00e-01	0	61	0	824180736	55	5324
2026-01-17 00:33:11.87	145.92	19.97	-42.1	-45.3	18.4	6.00e-01	0	60	0	826277888	55	5331
2026-01-17 00:33:12.88	146.12	19.86	-42.1	-45.4	18.4	6.01e-01	0	61	0	828375040	55	5345
2026-01-17 00:33:13.89	146.31	19.74	-42.1	-45.4	18.4	6.03e-01	0	60	0	829947904	55	5355
2026-01-17 00:33:14.90	146.50	19.63	-42.2	-45.5	18.3	6.00e-01	0	61	0	832045056	55	5405
2026-01-17 00:33:15.91	146.69	19.52	-42.1	-45.3	18.4	6.00e-01	0	60	0	833617920	55	5314
2026-01-17 00:33:16.92	146.88	19.41	-41.9	-45.0	18.7	6.04e-01	0	61	0	835715072	55	5123
2026-01-17 00:33:17.93	147.07	19.30	-41.8	-44.8	18.9	6.01e-01	0	60	0	837812224	55	5013
2026-01-17 00:33:18.94	147.26	19.19	-41.7	-44.7	19.0	6.00e-01	0	60	0	839385088	55	4960
2026-01-17 00:33:19.95	147.44	19.08	-41.7	-44.7	19.0	6.01e-01	0	60	0	841482240	55	4950
2026-01-17 00:33:20.96	147.63	18.97	-41.8	-44.8	18.9	6.03e-01	0	61	0	843055104	55	5005
2026-01-17 00:33:21.97	147.81	18.86	-41.8	-44.8	18.9	6.02e-01	0	60	0	845152256	55	5033
2026-01-17 00:33:22.97	147.99	18.75	-41.7	-44.8	19.0	6.01e-01	0	61	0	847249408	55	4988
2026-01-17 00:33:23.98	148.17	18.64	-41.7	-44.8	19.0	6.00e-01	0	61	0	848822272	55	4984
2026-01-17 00:33:24.99	148.35	18.54	-41.7	-44.8	19.0	6.00e-01	0	60	0	850919424	55	4984
2026-01-17 00:33:26.00	148.53	18.43	-41.8	-44.8	18.9	5.97e-01	0	61	0	852492288	55	5018
2026-01-17 00:33:27.01	148.70	18.32	-41.9	-45.0	18.8	6.00e-01	0	60	0	854589440	55	5102
2026-01-17 00:33:28.02	148.88	18.21	-41.9	-45.1	18.7	6.02e-01	0	60	0	856686592	55	5193
2026-01-17 00:33:29.03	149.05	18.10	-42.0	-45.2	18.6	6.01e-01	0	60	0	858259456	55	5234
2026-01-17 00:33:30.04	149.22	18.00	-41.9	-45.0	18.7	6.02e-01	0	60	0	860356608	55	5122
2026-01-17 00:33:31.05	149.40	17.89	-41.8	-44.9	18.9	6.04e-01	0	61	0	862453760	55	5043
2026-01-17 00:33:32.06	149.57	17.78	-41.8	-44.8	18.9	6.01e-01	0	61	0	864026624	55	5033
2026-01-17 00:33:33.07	149.73	17.68	-41.7	-44.8	18.9	6.04e-01	0	60	0	866123776	55	5007
2026-01-17 00:33:34.08	149.90	17.57	-41.7	-44.7	19.0	6.03e-01	0	60	0	867696640	55	4982
2026-01-17 00:33:35.09	150.07	17.46	-41.7	-44.7	19.0	6.00e-01	0	60	0	869793792	55	4971
2026-01-17 00:33:36.10	150.23	17.36	-41.7	-44.7	19.0	6.01e-01	0	61	0	871890944	55	4939
2026-01-17 00:33:37.10	150.40	17.25	-41.7	-44.7	18.9	6.03e-01	0	61	0	873463808	55	4977
2026-01-17 00:33:38.11	150.56	17.15	-41.7	-44.8	18.9	5.99e-01	0	60	0	875560960	55	5004
2026-01-17 00:33:39.12	150.72	17.04	-41.8	-44.8	18.9	6.00e-01	0	61	0	877133824	55	5015
2026-01-17 00:33:40.13	150.88	16.94	-41.8	-44.9	18.8	6.01e-01	0	61	0	879230976	55	5063
2026-01-17 00:33:41.14	151.04	16.83	-41.9	-45.1	18.6	5.99e-01	0	61	0	881328128	55	5185
2026-01-17 00:33:42.15	151.20	16.73	-41.7	-44.8	18.9	6.00e-01	0	60	0	882900992	55	5002
2026-01-17 00:33:43.16	151.35	16.63	-41.7	-44.7	18.9	6.02e-01	0	61	0	884998144	55	4966
2026-01-17 00:33:44.17	151.51	16.52	-41.8	-44.8	18.9	6.00e-01	0	61	0	886571008	55	5025
2026-01-17 00:33:45.18	151.66	16.42	-41.8	-45.0	18.7	6.02e-01	0	61	0	888668160	55	5114
2026-01-17 00:33:46.19	151.82	16.32	-41.7	-44.8	18.9	6.00e-01	0	61	0	890765312	55	4985
2026-01-17 00:33:47.20	151.97	16.22	-41.7	-44.7	19.0	6.01e-01	0	60	0	892338176	55	4952
2026-01-17 00:33:48.21	152.12	16.11	-41.8	-44.9	18.7	6.03e-01	0	61	0	894435328	55	5077
2026-01-17 00:33:49.22	152.27	16.01	-41.8	-44.8	18.8	6.01e-01	0	60	0	896008192	55	5038
2026-01-17 00:33:50.22	152.42	15.91	-41.7	-44.7	18.9	6.02e-01	0	61	0	898105344	55	4962
2026-01-17 00:33:51.23	152.57	15.81	-41.7	-44.7	18.9	6.00e-01	0	60	0	900202496	55	4965
2026-01-17 00:33:52.24	152.72	15.71	-41.7	-44.7	18.9	6.00e-01	0	61	0	901775360	55	4959
2026-01-17 00:33:53.25	152.86	15.61	-41.6	-44.7	19.0	6.01e-01	0	61	0	903872512	55	4931
2026-01-17 00:33:54.26	153.01	15.51	-41.7	-44.7	18.9	6.04e-01	0	60	0	905445376	55	4971
2026-01-17 00:33:55.27	153.15	15.41	-41.7	-44.8	18.9	5.99e-01	0	61	0	907542528	55	4988
2026-01-17 00:33:56.28	153.30	15.31	-41.7	-44.8	18.8	6.00e-01	0	61	0	909639680	55	5007
2026-01-17 00:33:57.29	153.44	15.21	-41.6	-44.7	18.9	6.01e-01	0	60	0	911212544	55	4933
2026-01-17 00:33:58.30	153.58	15.11	-41.7	-44.7	18.8	6.02e-01	0	61	0	913309696	55	4979
2026-01-17 00:33:59.31	153.72	15.01	-41.7	-44.8	18.8	5.99e-01	0	61	0	915406848	55	5018
2026-01-17 00:34:00.32	153.86	14.91	-41.7	-44.9	18.7	6.00e-01	0	61	0	916979712	55	5057
2026-01-17 00:34:01.33	154.00	14.81	-41.8	-44.9	18.7	6.00e-01	0	61	0	919076864	55	5069
2026-01-17 00:34:02.34	154.13	14.72	-41.7	-44.9	18.7	6.02e-01	0	60	0	920649728	55	5048
2026-01-17 00:34:03.35	154.27	14.62	-41.8	-45.0	18.7	6.00e-01	0	61	0	922746880	55	5107
2026-01-17 00:34:04.36	154.41	14.52	-41.8	-45.0	18.6	6.00e-01	0	61	0	924844032	55	5128
2026-01-17 00:34:05.37	154.54	14.42	-41.8	-45.0	18.6	6.01e-01	0	60	0	926416896	55	5125
2026-01-17 00:34:06.38	154.67	14.33	-41.7	-44.7	18.8	6.01e-01	0	60	0	928514048	55	4973
2026-01-17 00:34:07.39	154.81	14.23	-41.7	-44.7	18.8	6.01e-01	0	61	0	930611200	55	4981
2026-01-17 00:34:08.40	154.94	14.13	-41.7	-44.8	18.7	6.03e-01	0	60	0	932184064	55	5033
2026-01-17 00:34:09.41	155.07	14.04	-41.8	-44.9	18.6	5.99e-01	0	60	0	934281216	55	5098
2026-01-17 00:34:10.42	155.20	13.94	-41.7	-44.9	18.6	6.00e-01	0	60	0	935854080	55	5075
2026-01-17 00:34:11.43	155.33	13.85	-41.7	-44.9	18.7	6.02e-01	0	60	0	937951232	55	5043
2026-01-17 00:34:12.43	155.46	13.75	-41.7	-44.8	18.6	6.03e-01	0	61	0	940048384	55	5038
2026-01-17 00:34:13.44	155.59	13.66	-41.7	-44.8	18.7	6.02e-01	0	60	0	941621248	55	5040
2026-01-17 00:34:14.45	155.71	13.56	-41.7	-44.8	18.7	6.03e-01	0	60	0	943718400	55	5024
2026-01-17 00:34:15.47	155.84	13.47	-41.7	-44.9	18.6	5.99e-01	0	61	0	945291264	55	5070
2026-01-17 00:34:16.47	155.96	13.37	-41.6	-44.7	18.7	6.03e-01	0	61	0	947388416	55	4975
2026-01-17 00:34:17.48	156.09	13.28	-41.7	-44.9	18.6	6.04e-01	0	61	0	949485568	55	5069
2026-01-17 00:34:18.49	156.21	13.19	-41.7	-45.0	18.5	6.03e-01	0	61	0	951058432	55	5107
2026-01-17 00:34:19.50	156.33	13.09	-41.7	-45.0	18.5	5.99e-01	0	60	0	953155584	55	5101
2026-01-17 00:34:20.51	156.46	13.00	-41.7	-45.0	18.5	6.03e-01	0	61	0	954728448	55	5120
2026-01-17 00:34:21.52	156.58	12.91	-41.7	-45.0	18.5	6.03e-01	0	61	0	956825600	55	5116
2026-01-17 00:34:22.53	156.70	12.82	-41.8	-45.2	18.3	5.98e-01	0	61	0	958922752	55	5219
2026-01-17 00:34:23.54	156.82	12.72	-41.9	-45.2	18.3	5.99e-01	0	60	0	960495616	55	5238
2026-01-17 00:34:24.55	156.94	12.63	-41.8	-45.2	18.3	6.01e-01	0	60	0	962592768	55	5223
2026-01-17 00:34:25.56	157.05	12.54	-41.8	-45.0	18.4	5.99e-01	0	61	0	964165632	55	5155
2026-01-17 00:34:26.57	157.17	12.45	-41.8	-45.2	18.2	6.01e-01	0	60	0	966262784	55	5219
2026-01-17 00:34:27.58	157.29	12.36	-41.8	-45.2	18.2	6.02e-01	0	61	0	968359936	55	5222
2026-01-17 00:34:28.59	157.40	12.27	-41.8	-45.2	18.2	6.01e-01	0	60	0	969932800	55	5246
2026-01-17 00:34:29.60	157.52	12.18	-41.9	-45.3	18.1	6.04e-01	0	60	0	972029952	55	5292
2026-01-17 00:34:30.61	157.63	12.09	-41.9	-45.3	18.1	6.00e-01	0	61	0	973602816	55	5317
2026-01-17 00:34:31.62	157.75	12.00	-41.9	-45.3	18.0	6.03e-01	0	61	0	975699968	55	5338
2026-01-17 00:34:32.63	157.86	11.91	-41.8	-45.2	18.2	6.01e-01	0	61	0	977797120	55	5230
2026-01-17 00:34:33.64	157.97	11.82	-41.9	-45.3	18.0	5.99e-01	0	60	0	979369984	55	5321
2026-01-17 00:34:34.64	158.08	11.73	-41.8	-45.2	18.1	6.01e-01	0	61	0	981467136	55	5235
2026-01-17 00:34:35.65	158.19	11.64	-41.8	-45.2	18.1	6.01e-01	0	61	0	983564288	55	5236
2026-01-17 00:34:36.66	158.30	11.55	-41.9	-45.3	18.0	6.02e-01	0	61	0	985137152	55	5311
2026-01-17 00:34:37.67	158.41	11.47	-41.9	-45.3	18.0	6.01e-01	0	60	0	987234304	55	5330
2026-01-17 00:34:38.68	158.52	11.38	-41.9	-45.3	18.0	6.01e-01	0	60	0	988807168	55	5304
2026-01-17 00:34:39.69	158.63	11.29	-41.9	-45.4	17.9	6.01e-01	0	60	0	990904320	55	5364
2026-01-17 00:34:40.70	158.74	11.20	-41.9	-45.3	17.9	6.01e-01	0	60	0	993001472	55	5332
2026-01-17 00:34:41.71	158.84	11.12	-41.9	-45.4	17.8	6.02e-01	0	61	0	994574336	55	5397
2026-01-17 00:34:42.72	158.95	11.03	-41.9	-45.3	17.9	6.03e-01	0	60	0	996671488	55	5314
2026-01-17 00:34:43.73	159.05	10.94	-41.9	-45.3	17.9	5.99e-01	0	61	0	998244352	55	5324
2026-01-17 00:34:44.74	159.16	10.86	-41.9	-45.4	17.8	6.02e-01	0	60	0	1000341504	55	5396
2026-01-17 00:34:45.75	159.26	10.77	-41.9	-45.4	17.8	6.01e-01	0	61	0	1002438656	55	5378
2026-01-17 00:34:46.76	159.37	10.68	-41.9	-45.4	17.8	6.01e-01	0	61	0	1004011520	55	5375
2026-01-17 00:34:47.77	159.47	10.60	-42.0	-45.5	17.7	6.02e-01	0	61	0	1006108672	55	5452
2026-01-17 00:34:48.78	159.57	10.51	-41.9	-45.5	17.7	6.02e-01	0	61	0	1007681536	55	5420
2026-01-17 00:34:49.79	159.67	10.43	-41.9	-45.4	17.8	6.02e-01	0	61	0	1009778688	55	5396
2026-01-17 00:34:50.80	159.77	10.34	-41.9	-45.5	17.7	6.00e-01	0	61	0	1011875840	55	5444
2026-01-17 00:34:51.80	159.87	10.26	-41.9	-45.4	17.7	6.02e-01	0	60	0	1013448704	55	5389
2026-01-17 00:34:52.81	159.97	10.18	-41.8	-45.3	17.8	6.03e-01	0	61	0	1015545856	55	5338
2026-01-17 00:34:53.82	160.07	10.09	-41.9	-45.4	17.8	6.00e-01	0	61	0	1017118720	55	5359
2026-01-17 00:34:54.84	160.17	10.01	-42.0	-45.6	17.5	6.01e-01	0	61	0	1019215872	55	5523
2026-01-17 00:34:55.84	160.27	9.92	-42.0	-45.6	17.5	6.00e-01	0	61	0	1021313024	55	5507
2026-01-17 00:34:56.85	160.37	9.84	-42.0	-45.7	17.4	5.99e-01	0	61	0	1022885888	55	5550
2026-01-17 00:34:57.86	160.46	9.76	-41.9	-45.5	17.5	6.02e-01	0	61	0	1024983040	55	5446
2026-01-17 00:34:58.87	160.56	9.67	-41.8	-45.4	17.7	6.01e-01	0	61	0	1027080192	55	5341
2026-01-17 00:34:59.88	160.65	9.59	-42.0	-45.7	17.4	6.03e-01	0	61	0	1028653056	55	5545
2026-01-17 00:35:00.89	160.75	9.51	-42.0	-45.7	17.3	6.03e-01	0	61	0	1030750208	55	5573
2026-01-17 00:35:01.90	160.84	9.43	-41.9	-45.5	17.5	6.02e-01	0	61	0	1032323072	55	5442
2026-01-17 00:35:02.91	160.94	9.35	-41.9	-45.5	17.5	6.01e-01	0	61	0	1034420224	55	5462
2026-01-17 00:35:03.92	161.03	9.26	-42.0	-45.7	17.3	6.01e-01	0	60	0	1036517376	55	5584
2026-01-17 00:35:04.93	161.12	9.18	-42.1	-45.9	17.0	6.01e-01	0	61	0	1038090240	55	5716
2026-01-17 00:35:05.94	161.22	9.10	-42.0	-45.7	17.3	6.01e-01	0	61	0	1040187392	55	5551
2026-01-17 00:35:06.95	161.31	9.02	-42.0	-45.8	17.1	6.01e-01	0	61	0	1041760256	55	5647
2026-01-17 00:35:07.96	161.40	8.94	-42.0	-45.7	17.2	6.04e-01	0	61	0	1043857408	55	5583
2026-01-17 00:35:08.97	161.49	8.86	-42.1	-46.0	16.9	6.01e-01	0	61	0	1045954560	55	5771
2026-01-17 00:35:09.98	161.58	8.78	-42.1	-46.0	16.9	6.00e-01	0	60	0	1047527424	55	5751
2026-01-17 00:35:10.99	161.67	8.70	-42.1	-46.1	16.8	6.00e-01	0	61	0	1049624576	55	5812
2026-01-17 00:35:12.00	161.76	8.62	-42.1	-46.2	16.7	6.02e-01	0	61	0	1051721728	55	5861
2026-01-17 00:35:13.01	161.85	8.54	-42.1	-46.0	16.8	6.01e-01	0	60	0	1053294592	55	5775
2026-01-17 00:35:14.02	161.94	8.46	-42.1	-46.1	16.8	6.00e-01	0	61	0	1055391744	55	5822
2026-01-17 00:35:15.03	162.03	8.38	-42.1	-46.2	16.6	6.00e-01	0	61	0	1056964608	55	5894
2026-01-17 00:35:16.03	162.11	8.30	-42.1	-46.1	16.7	6.02e-01	0	61	0	1059061760	55	5833
2026-01-17 00:35:17.04	162.20	8.22	-42.1	-46.1	16.7	6.03e-01	0	60	0	1061158912	55	5830
2026-01-17 00:35:18.05	162.28	8.15	-42.2	-46.3	16.4	6.03e-01	0	61	0	1062731776	55	5973
2026-01-17 00:35:19.06	162.37	8.07	-41.9	-45.8	16.9	6.03e-01	0	60	0	1064828928	55	5625
2026-01-17 00:35:20.07	162.46	7.99	-45.0	-56.0	8.1	6.60e-01	71	61	0	1066401792	60	13583
2026-01-17 00:35:21.08	162.54	7.91	-45.9	-64.1	3.8	7.41e-01	0	61	104	1066926080	62	30962
2026-01-17 00:35:22.09	162.63	7.83	-46.1	-64.7	3.8	7.46e-01	0	61	104	1066926080	62	33188
2026-01-17 00:35:23.10	162.71	7.76	-46.3	-64.9	3.8	7.45e-01	0	61	104	1066926080	63	31907
2026-01-17 00:35:24.11	162.79	7.68	-46.3	-65.0	3.8	7.43e-01	0	60	104	1066926080	63	32227
2026-01-17 00:35:25.12	162.88	7.60	-46.4	-65.0	3.8	7.48e-01	0	61	104	1066926080	63	32438
2026-01-17 00:35:26.13	162.96	7.53	-46.4	-65.1	3.8	7.45e-01	0	61	104	1066926080	63	32757
2026-01-17 00:35:27.14	163.04	7.45	-46.4	-65.1	3.8	7.45e-01	0	61	104	1066926080	63	32870
2026-01-17 00:35:28.15	163.12	7.37	-46.4	-65.1	3.8	7.45e-01	0	61	104	1066926080	63	32747
2026-01-17 00:35:29.16	163.20	7.30	-46.4	-65.1	3.8	7.47e-01	0	61	104	1066926080	63	32694
2026-01-17 00:35:30.17	163.28	7.22	-46.4	-65.1	3.8	7.48e-01	0	61	104	1066926080	63	32634
2026-01-17 00:35:31.18	163.36	7.15	-46.4	-65.0	3.8	7.43e-01	0	61	104	1066926080	63	32541
2026-01-17 00:35:32.19	163.44	7.07	-46.4	-65.0	3.8	7.45e-01	0	61	104	1066926080	63	32376
2026-01-17 00:35:33.20	163.52	7.00	-46.4	-65.0	3.8	7.46e-01	0	61	104	1066926080	63	32419
2026-01-17 00:35:34.21	163.60	6.92	-46.4	-65.0	3.8	7.51e-01	0	61	104	1066926080	63	32478
2026-01-17 00:35:35.22	163.68	6.85	-46.5	-65.1	3.8	7.41e-01	0	61	104	1066926080	63	32675
2026-01-17 00:35:36.23	163.76	6.77	-46.4	-65.0	3.8	7.44e-01	0	61	104	1066926080	63	32308
2026-01-17 00:35:37.24	163.84	6.70	-46.4	-65.0	3.8	7.44e-01	0	61	104	1066926080	63	32303
2026-01-17 00:35:38.25	163.91	6.62	-46.4	-65.0	3.8	7.47e-01	0	61	104	1066926080	63	32269
2026-01-17 00:35:39.26	163.99	6.55	-46.4	-65.0	3.8	7.44e-01	0	61	104	1066926080	63	32199
2026-01-17 00:35:40.27	164.07	6.48	-46.4	-65.0	3.8	7.48e-01	0	61	104	1066926080	63	32226
2026-01-17 00:35:41.28	164.14	6.40	-46.4	-64.9	3.8	7.46e-01	0	61	104	1066926080	63	32142
2026-01-17 00:35:42.29	164.22	6.33	-46.4	-64.9	3.8	7.42e-01	0	61	104	1066926080	63	32099
2026-01-17 00:35:43.31	164.30	6.25	-46.4	-64.9	3.8	7.47e-01	0	61	104	1066926080	63	32162
2026-01-17 00:35:44.32	164.37	6.18	-46.4	-64.9	3.8	7.43e-01	0	61	104	1066926080	63	32105
2026-01-17 00:35:45.33	164.45	6.11	-46.4	-64.9	3.8	7.46e-01	0	61	104	1066926080	63	32092
2026-01-17 00:35:46.34	164.52	6.04	-46.4	-64.9	3.8	7.45e-01	0	61	104	1066926080	63	32085
2026-01-17 00:35:47.35	164.59	5.96	-46.4	-64.9	3.8	7.48e-01	0	61	104	1066926080	63	32010
2026-01-17 00:35:48.36	164.67	5.89	-46.3	-64.9	3.8	7.44e-01	0	61	104	1066926080	63	32084
2026-01-17 00:35:49.37	164.74	5.82	-46.4	-64.9	3.8	7.47e-01	0	61	104	1066926080	63	32133
2026-01-17 00:35:50.38	164.81	5.75	-46.3	-64.9	3.8	7.44e-01	0	61	104	1066926080	63	32013
2026-01-17 00:35:51.40	164.89	5.67	-46.3	-64.9	3.8	7.44e-01	0	61	104	1066926080	63	32079
2026-01-17 00:35:52.41	164.96	5.60	-46.3	-64.9	3.8	7.45e-01	0	61	104	1066926080	63	32004
2026-01-17 00:35:53.42	165.03	5.53	-46.3	-64.9	3.8	7.46e-01	0	61	104	1066926080	63	32035
2026-01-17 00:35:54.43	165.10	5.46	-46.3	-64.9	3.8	7.47e-01	0	61	104	1066926080	63	31937
2026-01-17 00:35:55.44	165.17	5.39	-46.3	-64.9	3.8	7.48e-01	0	61	104	1066926080	63	32012
2026-01-17 00:35:56.45	165.24	5.32	-46.3	-64.9	3.8	7.45e-01	0	61	104	1066926080	63	31918
2026-01-17 00:35:57.46	165.31	5.25	-46.3	-64.9	3.8	7.46e-01	0	61	104	1066926080	63	31978
2026-01-17 00:35:58.47	165.38	5.18	-46.3	-64.9	3.8	7.45e-01	0	61	104	1066926080	63	31928
2026-01-17 00:35:59.48	165.45	5.11	-46.3	-64.9	3.8	7.43e-01	0	61	104	1066926080	63	32006
2026-01-17 00:36:00.49	165.52	5.04	-46.3	-64.9	3.8	7.45e-01	0	61	104	1066926080	63	31928
2026-01-17 00:36:01.50	165.59	4.97	-46.3	-64.9	3.8	7.40e-01	0	61	104	1066926080	63	31934
2026-01-17 00:36:02.51	165.66	4.90	-46.3	-64.9	3.8	7.46e-01	0	61	104	1066926080	63	31928
2026-01-17 00:36:03.52	165.72	4.83	-46.3	-64.9	3.8	7.43e-01	0	61	104	1066926080	63	31856
2026-01-17 00:36:04.53	165.79	4.76	-46.3	-64.9	3.8	7.45e-01	0	61	104	1066926080	63	31857
2026-01-17 00:36:05.54	165.86	4.69	-46.3	-64.9	3.8	7.42e-01	0	61	104	1066926080	63	31824
2026-01-17 00:36:06.55	165.93	4.62	-46.3	-64.9	3.8	7.42e-01	0	61	104	1066926080	63	31836
2026-01-17 00:36:07.56	165.99	4.55	-46.3	-64.9	3.8	7.44e-01	0	61	104	1066926080	63	31864
2026-01-17 00:36:08.57	166.06	4.48	-46.3	-64.9	3.8	7.44e-01	0	61	104	1066926080	63	31830
2026-01-17 00:36:09.59	166.13	4.41	-46.3	-64.8	3.8	7.45e-01	0	61	104	1066926080	63	31792
2026-01-17 00:36:10.60	166.19	4.34	-46.3	-64.8	3.8	7.45e-01	0	61	104	1066926080	63	31798
2026-01-17 00:36:11.61	166.26	4.28	-46.3	-64.9	3.8	7.43e-01	0	61	104	1066926080	63	31861
2026-01-17 00:36:12.62	166.32	4.21	-46.3	-64.9	3.8	7.48e-01	0	61	104	1066926080	63	31853
