passes_logs/2026/01/17/R2.0S_Moscow/R2.0S_Moscow__20260117_113537_AQUA_rec.log

#Pass ID: 20260117_113537_AQUA
#Satellite: AQUA
#Configuration: AQUA
#almurnet v.1.7.20251203
#Start time: 2026-01-17 11:35:37

#Version: 2.2.20231116
#Station: R2.0S_Moscow
#Location: 37.707566 lon 55.798166 lat
#TLE: 1 27424U 02022A   26016.26443506  .00000711  00000+0  15228-3 0  9999
#TLE: 2 27424  98.4083 342.7130 0002022  76.7284  27.4473 14.61823291261073

#Time	Az	El	Level	Level2	SNR	BER	BlckErr	Temp	State	Recorded	gain1	gain2
2026-01-17 11:35:37.35	158.89	1.99	-45.0	-63.6	3.8	7.47e-01	0	51	0	0	61	30846
2026-01-17 11:35:38.36	158.89	2.06	-44.9	-63.6	3.8	7.47e-01	0	51	104	0	60	32656
2026-01-17 11:35:39.37	158.89	2.13	-44.9	-63.6	3.8	7.42e-01	0	51	104	0	60	32625
2026-01-17 11:35:40.38	158.88	2.20	-44.9	-63.6	3.8	7.44e-01	0	51	104	0	60	32634
2026-01-17 11:35:41.39	158.88	2.27	-44.9	-63.6	3.8	7.45e-01	0	51	104	0	60	32610
2026-01-17 11:35:42.40	158.88	2.33	-44.9	-63.6	3.8	7.44e-01	0	52	104	0	60	32588
2026-01-17 11:35:43.42	158.88	2.40	-44.9	-63.6	3.8	7.45e-01	0	51	104	0	60	32592
2026-01-17 11:35:44.43	158.87	2.47	-44.9	-63.6	3.8	7.48e-01	0	52	104	0	60	32554
2026-01-17 11:35:45.44	158.87	2.54	-44.9	-63.6	3.8	7.43e-01	0	52	104	0	60	32648
2026-01-17 11:35:46.45	158.87	2.61	-44.9	-63.6	3.8	7.48e-01	0	52	104	0	60	32654
2026-01-17 11:35:47.46	158.87	2.68	-44.9	-63.6	3.8	7.45e-01	0	52	104	0	60	32635
2026-01-17 11:35:48.47	158.87	2.75	-44.9	-63.6	3.8	7.46e-01	0	52	104	0	60	32648
2026-01-17 11:35:49.48	158.86	2.82	-44.9	-63.6	3.8	7.45e-01	0	52	104	0	60	32631
2026-01-17 11:35:50.49	158.86	2.89	-44.9	-63.6	3.8	7.43e-01	0	52	104	0	60	32574
2026-01-17 11:35:51.50	158.86	2.96	-44.9	-63.5	3.8	7.43e-01	0	52	104	0	60	32515
2026-01-17 11:35:52.51	158.86	3.03	-44.9	-63.6	3.8	7.40e-01	0	52	104	0	60	32583
2026-01-17 11:35:53.52	158.85	3.10	-44.9	-63.6	3.8	7.47e-01	0	53	104	0	60	32602
2026-01-17 11:35:54.53	158.85	3.17	-44.9	-63.6	3.8	7.49e-01	0	52	104	0	60	32554
2026-01-17 11:35:55.55	158.85	3.24	-44.9	-63.6	3.8	7.43e-01	0	52	104	0	60	32624
2026-01-17 11:35:56.56	158.85	3.31	-44.9	-63.5	3.8	7.43e-01	0	52	104	0	60	32530
2026-01-17 11:35:57.57	158.84	3.38	-44.9	-63.5	3.8	7.47e-01	0	53	104	0	60	32517
2026-01-17 11:35:58.58	158.84	3.45	-44.9	-63.5	3.8	7.42e-01	0	53	104	0	60	32529
2026-01-17 11:35:59.59	158.84	3.52	-44.9	-63.5	3.8	7.45e-01	0	53	104	0	60	32481
2026-01-17 11:36:00.60	158.84	3.60	-44.9	-63.5	3.8	7.46e-01	0	53	104	0	60	32384
2026-01-17 11:36:01.61	158.83	3.67	-44.9	-63.5	3.8	7.45e-01	0	53	104	0	60	32494
2026-01-17 11:36:02.63	158.83	3.74	-44.9	-63.6	3.8	7.43e-01	0	53	104	0	60	32601
2026-01-17 11:36:03.64	158.83	3.81	-44.9	-63.5	3.8	7.45e-01	0	53	104	0	60	32533
2026-01-17 11:36:04.65	158.82	3.88	-44.9	-63.5	3.8	7.46e-01	0	53	104	0	60	32551
2026-01-17 11:36:05.66	158.82	3.96	-44.9	-63.6	3.8	7.46e-01	0	53	104	0	60	32596
2026-01-17 11:36:06.67	158.82	4.03	-44.9	-63.5	3.8	7.46e-01	0	53	104	0	60	32476
2026-01-17 11:36:07.68	158.82	4.10	-44.9	-63.5	3.8	7.48e-01	0	54	104	0	60	32213
2026-01-17 11:36:08.69	158.81	4.18	-44.9	-63.4	3.8	7.43e-01	0	53	104	0	60	32157
2026-01-17 11:36:09.70	158.81	4.25	-44.9	-63.5	3.8	7.48e-01	0	54	104	0	60	32293
2026-01-17 11:36:10.71	158.81	4.32	-44.9	-63.6	3.8	7.45e-01	0	53	104	0	60	32561
2026-01-17 11:36:11.72	158.80	4.40	-44.9	-63.5	3.8	7.43e-01	0	54	104	0	60	32525
2026-01-17 11:36:12.74	158.80	4.47	-44.9	-63.5	3.8	7.42e-01	0	54	104	0	60	32385
2026-01-17 11:36:13.75	158.80	4.55	-44.9	-63.5	3.8	7.47e-01	0	54	104	0	60	32353
2026-01-17 11:36:14.76	158.80	4.62	-44.9	-63.3	3.8	7.48e-01	0	54	104	0	60	31690
2026-01-17 11:36:15.77	158.79	4.70	-44.9	-63.2	3.8	7.41e-01	0	54	104	0	60	31160
2026-01-17 11:36:16.78	158.79	4.77	-44.9	-63.2	3.8	7.45e-01	0	54	104	0	60	31424
2026-01-17 11:36:17.79	158.79	4.85	-44.9	-63.3	3.8	7.44e-01	0	54	104	0	60	31621
2026-01-17 11:36:18.80	158.78	4.92	-44.9	-63.2	3.8	7.47e-01	0	54	104	0	60	31151
2026-01-17 11:36:19.81	158.78	5.00	-44.9	-62.9	3.8	7.47e-01	0	54	104	0	60	30282
2026-01-17 11:36:20.82	158.78	5.08	-44.9	-62.9	3.8	7.44e-01	0	54	104	0	60	30180
2026-01-17 11:36:21.83	158.77	5.15	-44.9	-62.8	3.8	7.47e-01	0	54	104	0	60	29921
2026-01-17 11:36:22.84	158.77	5.23	-44.9	-62.8	3.8	7.44e-01	0	54	104	0	60	29749
2026-01-17 11:36:23.86	158.77	5.31	-44.9	-62.9	3.8	7.45e-01	0	54	104	0	60	30186
2026-01-17 11:36:24.87	158.76	5.39	-44.9	-63.3	3.8	7.45e-01	0	54	104	0	60	31638
2026-01-17 11:36:25.88	158.76	5.46	-44.9	-63.5	3.8	7.43e-01	0	54	104	0	60	32542
2026-01-17 11:36:26.89	158.76	5.54	-44.9	-63.0	3.8	7.46e-01	0	54	104	0	60	30690
2026-01-17 11:36:27.90	158.75	5.62	-44.9	-61.7	3.8	7.42e-01	0	54	104	0	60	26191
2026-01-17 11:36:28.91	158.75	5.70	-44.8	-60.6	3.8	7.40e-01	0	55	104	0	60	23278
2026-01-17 11:36:29.92	158.75	5.78	-44.9	-60.7	4.1	7.36e-01	0	54	104	0	60	23523
2026-01-17 11:36:30.93	158.74	5.85	-44.8	-60.6	3.8	7.41e-01	0	55	104	0	60	23075
2026-01-17 11:36:31.94	158.74	5.93	-44.7	-58.7	4.7	7.18e-01	0	55	104	0	60	18542
2026-01-17 11:36:32.95	158.73	6.01	-44.7	-57.2	5.5	6.94e-01	0	55	0	0	60	15724
2026-01-17 11:36:33.97	158.73	6.09	-44.7	-56.9	5.7	6.91e-01	46	55	0	524288	60	15184
2026-01-17 11:36:34.98	158.73	6.17	-44.6	-56.3	6.1	6.81e-01	92	55	0	1572864	60	14123
2026-01-17 11:36:35.99	158.72	6.25	-44.6	-56.1	6.3	6.80e-01	92	55	0	3670016	60	13788
2026-01-17 11:36:37.00	158.72	6.33	-44.5	-55.2	7.0	6.63e-01	90	55	0	5767168	60	12469
2026-01-17 11:36:38.01	158.72	6.41	-44.5	-55.1	7.2	6.59e-01	93	55	0	7340032	60	12302
2026-01-17 11:36:39.02	158.71	6.49	-44.6	-55.6	6.8	6.67e-01	92	55	0	9437184	60	13032
2026-01-17 11:36:40.03	158.71	6.58	-44.5	-55.6	6.7	6.72e-01	92	55	0	11010048	60	13044
2026-01-17 11:36:41.04	158.70	6.66	-44.7	-56.7	5.9	6.89e-01	92	55	0	13107200	60	14803
2026-01-17 11:36:42.05	158.70	6.74	-44.7	-57.3	5.4	7.00e-01	0	55	0	13631488	60	15905
2026-01-17 11:36:43.06	158.70	6.82	-44.8	-59.3	4.0	7.42e-01	0	55	104	14155776	60	19878
2026-01-17 11:36:44.07	158.69	6.90	-44.8	-60.2	3.9	7.42e-01	0	55	104	14155776	60	22042
2026-01-17 11:36:45.08	158.69	6.99	-44.9	-62.2	3.8	7.45e-01	0	55	104	14155776	60	27778
2026-01-17 11:36:46.09	158.68	7.07	-44.9	-62.8	3.8	7.44e-01	0	55	104	14155776	60	29762
2026-01-17 11:36:47.10	158.68	7.15	-44.9	-61.8	3.8	7.42e-01	0	56	104	14155776	60	26615
2026-01-17 11:36:48.11	158.67	7.24	-44.8	-59.2	4.1	7.25e-01	0	56	104	14155776	60	19694
2026-01-17 11:36:49.12	158.67	7.32	-44.6	-56.3	6.1	6.79e-01	59	56	0	14155776	60	14093
2026-01-17 11:36:50.13	158.67	7.41	-44.4	-54.3	7.8	6.50e-01	89	56	0	16252928	60	11276
2026-01-17 11:36:51.14	158.66	7.49	-44.2	-52.8	9.4	6.28e-01	0	55	0	17825792	60	9479
2026-01-17 11:36:52.15	158.66	7.57	-44.1	-51.6	11.2	6.17e-01	0	56	0	19922944	59	8681
2026-01-17 11:36:53.16	158.65	7.66	-43.9	-50.5	12.3	6.11e-01	0	56	0	21495808	59	7686
2026-01-17 11:36:54.17	158.65	7.75	-43.6	-49.6	13.2	6.10e-01	0	56	0	23592960	59	6891
2026-01-17 11:36:55.18	158.64	7.83	-43.3	-48.7	14.1	6.08e-01	0	56	0	25690112	58	6644
2026-01-17 11:36:56.19	158.64	7.92	-43.1	-48.2	14.6	6.08e-01	0	56	0	27262976	58	6223
2026-01-17 11:36:57.20	158.63	8.00	-42.9	-47.6	15.3	6.06e-01	0	56	0	29360128	57	6161
2026-01-17 11:36:58.21	158.63	8.09	-42.8	-47.4	15.5	6.08e-01	0	56	0	30932992	57	6020
2026-01-17 11:36:59.22	158.62	8.18	-43.7	-49.6	13.2	6.10e-01	0	56	0	33030144	58	7359
2026-01-17 11:37:00.23	158.62	8.27	-44.2	-52.5	9.3	6.28e-01	0	56	0	35127296	60	9127
2026-01-17 11:37:01.24	158.62	8.35	-43.3	-48.7	14.3	6.06e-01	0	56	0	36700160	57	6963
2026-01-17 11:37:02.25	158.61	8.44	-44.4	-53.4	8.1	6.32e-01	25	56	0	38797312	60	10070
2026-01-17 11:37:03.27	158.61	8.53	-44.5	-56.5	4.2	7.28e-01	0	56	104	39845888	60	14500
2026-01-17 11:37:04.27	158.60	8.62	-42.8	-47.5	15.3	6.07e-01	0	56	0	40894464	57	6085
2026-01-17 11:37:05.28	158.60	8.71	-42.7	-47.1	15.9	6.04e-01	0	56	0	42467328	57	5821
2026-01-17 11:37:06.29	158.59	8.80	-42.6	-46.9	16.0	6.05e-01	0	56	0	44564480	57	5712
2026-01-17 11:37:07.30	158.58	8.89	-42.6	-46.9	16.2	6.06e-01	0	56	0	46661632	57	5660
2026-01-17 11:37:08.31	158.58	8.98	-42.5	-46.7	16.3	6.07e-01	0	56	0	48234496	57	5572
2026-01-17 11:37:09.32	158.57	9.07	-42.5	-46.7	16.3	6.07e-01	0	56	0	50331648	56	5876
2026-01-17 11:37:10.33	158.57	9.16	-42.5	-46.7	16.4	6.08e-01	0	56	0	51904512	56	5870
2026-01-17 11:37:11.34	158.56	9.25	-42.4	-46.5	16.5	6.06e-01	0	56	0	54001664	56	5786
2026-01-17 11:37:12.35	158.56	9.34	-42.6	-46.8	16.4	6.07e-01	0	56	0	55574528	56	5943
2026-01-17 11:37:13.35	158.55	9.43	-42.6	-46.8	16.4	6.08e-01	0	56	0	57671680	56	5924
2026-01-17 11:37:14.36	158.55	9.53	-42.4	-46.5	16.6	6.07e-01	0	56	0	59768832	56	5779
2026-01-17 11:37:15.37	158.54	9.62	-42.5	-46.5	16.6	6.08e-01	0	56	0	61341696	56	5786
2026-01-17 11:37:16.38	158.54	9.71	-42.4	-46.3	16.8	6.06e-01	0	57	0	63438848	56	5648
2026-01-17 11:37:17.39	158.53	9.81	-42.4	-46.5	16.8	6.06e-01	0	57	0	65011712	56	5726
2026-01-17 11:37:18.40	158.52	9.90	-42.5	-46.5	16.7	6.07e-01	0	57	0	67108864	56	5762
2026-01-17 11:37:19.41	158.52	10.00	-42.5	-46.6	16.7	6.07e-01	0	56	0	69206016	56	5804
2026-01-17 11:37:20.42	158.51	10.09	-42.5	-46.5	16.8	6.08e-01	0	57	0	70778880	56	5774
2026-01-17 11:37:21.43	158.51	10.19	-42.5	-46.4	16.9	6.07e-01	0	57	0	72876032	56	5698
2026-01-17 11:37:22.44	158.50	10.28	-42.5	-46.5	16.8	6.06e-01	0	57	0	74973184	56	5751
2026-01-17 11:37:23.45	158.49	10.38	-42.5	-46.4	17.0	6.07e-01	0	57	0	76546048	56	5662
2026-01-17 11:37:24.46	158.49	10.47	-42.4	-46.3	17.0	6.05e-01	0	57	0	78643200	56	5619
2026-01-17 11:37:25.47	158.48	10.57	-42.5	-46.5	16.9	6.08e-01	0	57	0	80216064	56	5740
2026-01-17 11:37:26.48	158.48	10.67	-42.5	-46.5	16.9	6.06e-01	0	57	0	82313216	56	5723
2026-01-17 11:37:27.49	158.47	10.77	-42.4	-46.3	17.1	6.08e-01	0	57	0	84410368	56	5594
2026-01-17 11:37:28.50	158.46	10.86	-42.5	-46.4	17.0	6.04e-01	0	57	0	85983232	56	5676
2026-01-17 11:37:29.51	158.46	10.96	-42.5	-46.3	17.1	6.09e-01	0	57	0	88080384	56	5629
2026-01-17 11:37:30.52	158.45	11.06	-42.5	-46.2	17.2	6.06e-01	0	57	0	89653248	56	5584
2026-01-17 11:37:31.53	158.44	11.16	-42.5	-46.2	17.2	6.05e-01	0	57	0	91750400	56	5592
2026-01-17 11:37:32.54	158.44	11.26	-42.5	-46.2	17.2	6.06e-01	0	57	0	93847552	56	5580
2026-01-17 11:37:33.55	158.43	11.36	-42.4	-46.1	17.3	6.07e-01	0	57	0	95420416	56	5515
2026-01-17 11:37:34.55	158.42	11.46	-42.4	-46.0	17.5	6.06e-01	0	57	0	97517568	56	5450
2026-01-17 11:37:35.56	158.42	11.56	-42.4	-46.0	17.5	6.07e-01	0	57	0	99614720	56	5437
2026-01-17 11:37:36.57	158.41	11.67	-42.4	-46.0	17.5	6.06e-01	0	57	0	101187584	56	5450
2026-01-17 11:37:37.58	158.40	11.77	-42.4	-46.0	17.5	6.08e-01	0	57	0	103284736	56	5437
2026-01-17 11:37:38.59	158.39	11.87	-42.4	-46.0	17.5	6.05e-01	0	57	0	104857600	56	5444
2026-01-17 11:37:39.60	158.39	11.98	-42.4	-46.1	17.5	6.06e-01	0	57	0	106954752	56	5470
2026-01-17 11:37:40.61	158.38	12.08	-42.4	-46.0	17.6	6.10e-01	0	57	0	109051904	56	5442
2026-01-17 11:37:41.62	158.37	12.18	-42.4	-45.9	17.7	6.09e-01	0	57	0	110624768	56	5390
2026-01-17 11:37:42.63	158.37	12.29	-42.3	-45.8	17.8	6.06e-01	0	57	0	112721920	56	5339
2026-01-17 11:37:43.64	158.36	12.39	-42.4	-45.9	17.7	6.07e-01	0	57	0	114294784	56	5377
2026-01-17 11:37:44.65	158.35	12.50	-42.3	-45.9	17.7	6.08e-01	0	57	0	116391936	56	5365
2026-01-17 11:37:45.66	158.34	12.61	-42.3	-45.9	17.7	6.07e-01	0	57	0	118489088	56	5368
2026-01-17 11:37:46.67	158.33	12.71	-42.3	-45.8	17.9	6.07e-01	0	57	0	120061952	56	5287
2026-01-17 11:37:47.68	158.33	12.82	-42.3	-45.8	17.9	6.06e-01	0	57	0	122159104	56	5298
2026-01-17 11:37:48.69	158.32	12.93	-42.3	-45.7	18.0	6.07e-01	0	57	0	123731968	56	5244
2026-01-17 11:37:49.70	158.31	13.04	-42.3	-45.8	17.9	6.04e-01	0	57	0	125829120	56	5280
2026-01-17 11:37:50.71	158.30	13.15	-42.3	-45.7	17.9	6.07e-01	0	57	0	127926272	56	5268
2026-01-17 11:37:51.72	158.29	13.26	-42.3	-45.7	18.0	6.08e-01	0	57	0	129499136	56	5260
2026-01-17 11:37:52.73	158.29	13.37	-42.2	-45.6	18.1	6.05e-01	0	57	0	131596288	56	5191
2026-01-17 11:37:53.74	158.28	13.48	-42.2	-45.5	18.2	6.06e-01	0	58	0	133169152	56	5151
2026-01-17 11:37:54.75	158.27	13.59	-42.2	-45.5	18.2	6.05e-01	0	57	0	135266304	56	5121
2026-01-17 11:37:55.75	158.26	13.70	-42.2	-45.5	18.2	6.08e-01	0	58	0	137363456	56	5149
2026-01-17 11:37:56.76	158.25	13.81	-42.2	-45.6	18.2	6.07e-01	0	57	0	138936320	56	5171
2026-01-17 11:37:57.77	158.24	13.92	-42.2	-45.6	18.2	6.06e-01	0	57	0	141033472	56	5163
2026-01-17 11:37:58.78	158.23	14.04	-42.3	-45.6	18.1	6.03e-01	0	57	0	143130624	56	5214
2026-01-17 11:37:59.79	158.23	14.15	-42.1	-45.4	18.3	6.07e-01	0	58	0	144703488	56	5076
2026-01-17 11:38:00.80	158.22	14.27	-42.1	-45.4	18.3	6.07e-01	0	58	0	146800640	56	5074
2026-01-17 11:38:01.81	158.21	14.38	-42.2	-45.5	18.3	6.06e-01	0	58	0	148373504	56	5116
2026-01-17 11:38:02.82	158.20	14.50	-42.2	-45.5	18.3	6.09e-01	0	58	0	150470656	56	5111
2026-01-17 11:38:03.83	158.19	14.61	-42.1	-45.3	18.5	6.08e-01	0	58	0	152567808	56	5022
2026-01-17 11:38:04.84	158.18	14.73	-42.1	-45.4	18.4	6.08e-01	0	58	0	154140672	56	5045
2026-01-17 11:38:05.85	158.17	14.85	-42.1	-45.4	18.4	6.08e-01	0	58	0	156237824	56	5080
2026-01-17 11:38:06.86	158.16	14.97	-42.1	-45.4	18.4	6.07e-01	0	58	0	157810688	56	5077
2026-01-17 11:38:07.87	158.15	15.09	-42.2	-45.5	18.3	6.06e-01	0	58	0	159907840	56	5150
2026-01-17 11:38:08.88	158.14	15.21	-42.2	-45.4	18.4	6.04e-01	0	58	0	162004992	56	5099
2026-01-17 11:38:09.89	158.13	15.33	-42.2	-45.5	18.3	6.09e-01	0	58	0	163577856	56	5152
2026-01-17 11:38:10.90	158.12	15.45	-42.3	-45.6	18.2	6.06e-01	0	58	0	165675008	56	5199
2026-01-17 11:38:11.91	158.11	15.57	-42.3	-45.7	18.1	6.08e-01	0	58	0	167772160	56	5256
2026-01-17 11:38:12.92	158.10	15.69	-42.4	-45.8	18.1	6.07e-01	0	58	0	169345024	56	5299
2026-01-17 11:38:13.93	158.09	15.82	-42.4	-45.8	18.1	6.06e-01	0	58	0	171442176	56	5281
2026-01-17 11:38:14.94	158.08	15.94	-42.4	-45.8	18.1	6.06e-01	0	58	0	173015040	56	5289
2026-01-17 11:38:15.95	158.07	16.06	-42.4	-45.8	18.0	6.06e-01	0	58	0	175112192	56	5332
2026-01-17 11:38:16.96	158.06	16.19	-42.4	-45.8	18.1	6.08e-01	0	58	0	177209344	56	5282
2026-01-17 11:38:17.97	158.05	16.31	-42.4	-45.8	18.1	6.07e-01	0	58	0	178782208	56	5298
2026-01-17 11:38:18.97	158.04	16.44	-42.4	-45.8	18.1	6.08e-01	0	58	0	180879360	56	5318
2026-01-17 11:38:19.98	158.02	16.57	-42.4	-45.8	18.1	6.08e-01	0	58	0	182452224	56	5280
2026-01-17 11:38:20.99	158.01	16.70	-42.4	-45.7	18.1	6.06e-01	0	58	0	184549376	56	5264
2026-01-17 11:38:22.00	158.00	16.82	-42.3	-45.7	18.2	6.06e-01	0	58	0	186646528	56	5219
2026-01-17 11:38:23.01	157.99	16.95	-42.3	-45.5	18.4	6.07e-01	0	58	0	188219392	56	5152
2026-01-17 11:38:24.02	157.98	17.08	-42.2	-45.5	18.4	6.07e-01	0	58	0	190316544	56	5116
2026-01-17 11:38:25.03	157.97	17.22	-42.2	-45.4	18.4	6.06e-01	0	58	0	191889408	56	5100
2026-01-17 11:38:26.04	157.96	17.35	-42.2	-45.4	18.5	6.07e-01	0	58	0	193986560	56	5075
2026-01-17 11:38:27.05	157.94	17.48	-42.2	-45.4	18.6	6.07e-01	0	58	0	196083712	56	5049
2026-01-17 11:38:28.06	157.93	17.61	-42.1	-45.3	18.6	6.05e-01	0	58	0	197656576	56	5000
2026-01-17 11:38:29.07	157.92	17.75	-42.1	-45.3	18.7	6.05e-01	0	58	0	199753728	56	4999
2026-01-17 11:38:30.08	157.91	17.88	-42.1	-45.3	18.6	6.07e-01	0	58	0	201326592	56	5032
2026-01-17 11:38:31.09	157.89	18.02	-42.1	-45.3	18.6	6.07e-01	0	58	0	203423744	56	5025
2026-01-17 11:38:32.10	157.88	18.16	-42.1	-45.3	18.7	6.08e-01	0	58	0	205520896	56	4996
2026-01-17 11:38:33.10	157.87	18.29	-42.1	-45.3	18.6	6.08e-01	0	58	0	207093760	56	5026
2026-01-17 11:38:34.12	157.85	18.43	-42.2	-45.4	18.5	6.06e-01	0	58	0	209190912	56	5083
2026-01-17 11:38:35.13	157.84	18.57	-42.3	-45.5	18.4	6.04e-01	0	58	0	211288064	56	5137
2026-01-17 11:38:36.14	157.83	18.71	-42.3	-45.6	18.3	6.06e-01	0	58	0	212860928	56	5190
2026-01-17 11:38:37.15	157.81	18.85	-42.3	-45.6	18.3	6.09e-01	0	58	0	214958080	56	5213
2026-01-17 11:38:38.16	157.80	18.99	-42.4	-45.7	18.2	6.07e-01	0	58	0	216530944	56	5255
2026-01-17 11:38:39.16	157.79	19.14	-42.4	-45.7	18.3	6.07e-01	0	58	0	218628096	56	5251
2026-01-17 11:38:40.17	157.77	19.28	-42.4	-45.7	18.2	6.07e-01	0	58	0	220725248	56	5259
2026-01-17 11:38:41.18	157.76	19.42	-42.4	-45.8	18.2	6.04e-01	0	58	0	222298112	56	5293
2026-01-17 11:38:42.19	157.74	19.57	-42.4	-45.7	18.3	6.07e-01	0	58	0	224395264	56	5260
2026-01-17 11:38:43.20	157.73	19.72	-42.4	-45.8	18.2	6.08e-01	0	58	0	225968128	56	5284
2026-01-17 11:38:44.21	157.72	19.86	-42.4	-45.8	18.2	6.06e-01	0	58	0	228065280	56	5288
2026-01-17 11:38:45.22	157.70	20.01	-42.4	-45.7	18.3	6.09e-01	0	58	0	230162432	56	5269
2026-01-17 11:38:46.23	157.69	20.16	-42.4	-45.7	18.3	6.07e-01	0	58	0	231735296	56	5268
2026-01-17 11:38:47.24	157.67	20.31	-42.4	-45.8	18.3	6.06e-01	0	58	0	233832448	56	5281
2026-01-17 11:38:48.25	157.65	20.46	-42.5	-45.8	18.2	6.09e-01	0	58	0	235929600	56	5334
2026-01-17 11:38:49.26	157.64	20.61	-42.6	-46.0	18.0	6.05e-01	0	58	0	237502464	56	5419
2026-01-17 11:38:50.27	157.62	20.77	-42.6	-46.1	17.9	6.07e-01	0	58	0	239599616	56	5511
2026-01-17 11:38:51.28	157.61	20.92	-42.6	-46.1	17.9	6.06e-01	0	58	0	241172480	56	5526
2026-01-17 11:38:52.29	157.59	21.08	-42.7	-46.2	17.8	6.06e-01	0	58	0	243269632	56	5533
2026-01-17 11:38:53.30	157.57	21.23	-42.7	-46.2	17.8	6.08e-01	0	58	0	245366784	56	5562
2026-01-17 11:38:54.31	157.56	21.39	-42.7	-46.2	17.8	6.05e-01	0	59	0	246939648	56	5552
2026-01-17 11:38:55.32	157.54	21.55	-42.7	-46.2	17.8	6.05e-01	0	58	0	249036800	56	5557
2026-01-17 11:38:56.33	157.52	21.71	-42.6	-46.1	18.0	6.08e-01	0	59	0	250609664	56	5479
2026-01-17 11:38:57.34	157.51	21.87	-42.5	-45.9	18.1	6.04e-01	0	58	0	252706816	56	5384
2026-01-17 11:38:58.35	157.49	22.03	-42.5	-45.9	18.1	6.06e-01	0	59	0	254803968	56	5368
2026-01-17 11:38:59.36	157.47	22.20	-42.5	-45.9	18.2	6.06e-01	0	58	0	256376832	56	5348
2026-01-17 11:39:00.37	157.45	22.36	-42.5	-45.9	18.1	6.06e-01	0	59	0	258473984	56	5377
2026-01-17 11:39:01.38	157.43	22.53	-42.5	-45.9	18.2	6.07e-01	0	59	0	260046848	56	5370
2026-01-17 11:39:02.39	157.42	22.69	-42.5	-45.8	18.2	6.05e-01	0	59	0	262144000	56	5332
2026-01-17 11:39:03.40	157.40	22.86	-42.5	-45.9	18.2	6.06e-01	0	59	0	264241152	56	5350
2026-01-17 11:39:04.41	157.38	23.03	-42.6	-45.9	18.1	6.06e-01	0	59	0	265814016	56	5392
2026-01-17 11:39:05.42	157.36	23.20	-42.6	-46.0	18.1	6.06e-01	0	59	0	267911168	56	5432
2026-01-17 11:39:06.44	157.34	23.37	-42.6	-45.9	18.1	6.05e-01	0	58	0	269484032	56	5397
2026-01-17 11:39:07.45	157.32	23.55	-42.6	-46.0	18.1	6.05e-01	0	59	0	271581184	56	5439
2026-01-17 11:39:08.46	157.30	23.72	-42.6	-46.0	18.0	6.05e-01	0	59	0	273678336	56	5447
2026-01-17 11:39:09.47	157.28	23.89	-42.6	-46.1	18.0	6.06e-01	0	59	0	275251200	56	5482
2026-01-17 11:39:10.47	157.26	24.07	-42.6	-46.1	18.0	6.06e-01	0	59	0	277348352	56	5482
2026-01-17 11:39:11.49	157.24	24.25	-42.6	-46.0	18.1	6.06e-01	0	59	0	279445504	56	5419
2026-01-17 11:39:12.50	157.22	24.43	-42.6	-45.9	18.2	6.07e-01	0	59	0	281018368	56	5384
2026-01-17 11:39:13.51	157.20	24.61	-42.5	-45.9	18.2	6.07e-01	0	59	0	283115520	56	5350
2026-01-17 11:39:14.52	157.17	24.79	-42.6	-45.9	18.2	6.06e-01	0	59	0	284688384	56	5387
2026-01-17 11:39:15.53	157.15	24.97	-42.6	-46.0	18.0	6.05e-01	0	59	0	286785536	56	5423
2026-01-17 11:39:16.54	157.13	25.16	-42.5	-45.9	18.2	6.08e-01	0	59	0	288882688	56	5376
2026-01-17 11:39:17.55	157.11	25.34	-42.6	-45.9	18.1	6.08e-01	0	59	0	290455552	56	5387
2026-01-17 11:39:18.56	157.08	25.53	-42.6	-45.9	18.2	6.04e-01	0	59	0	292552704	56	5381
2026-01-17 11:39:19.57	157.06	25.72	-42.7	-46.1	18.0	6.08e-01	0	59	0	294125568	56	5480
2026-01-17 11:39:20.58	157.04	25.91	-42.6	-46.1	18.0	6.07e-01	0	59	0	296222720	56	5475
2026-01-17 11:39:21.59	157.01	26.10	-42.7	-46.1	18.0	6.06e-01	0	59	0	298319872	56	5490
2026-01-17 11:39:22.60	156.99	26.29	-42.6	-46.1	18.1	6.06e-01	0	59	0	299892736	56	5468
2026-01-17 11:39:23.61	156.96	26.49	-42.6	-46.0	18.1	6.07e-01	0	59	0	301989888	56	5434
2026-01-17 11:39:24.62	156.94	26.68	-42.6	-46.0	18.1	6.07e-01	0	59	0	304087040	56	5415
2026-01-17 11:39:25.63	156.91	26.88	-42.5	-45.9	18.2	6.08e-01	0	59	0	305659904	56	5358
2026-01-17 11:39:26.64	156.89	27.08	-42.4	-45.6	18.5	6.07e-01	0	59	0	307757056	56	5204
2026-01-17 11:39:27.65	156.86	27.28	-42.3	-45.4	18.7	6.07e-01	0	59	0	309329920	56	5094
2026-01-17 11:39:28.66	156.84	27.48	-42.2	-45.4	18.7	6.07e-01	0	59	0	311427072	56	5049
2026-01-17 11:39:29.66	156.81	27.69	-42.2	-45.4	18.7	6.08e-01	0	59	0	313524224	56	5048
2026-01-17 11:39:30.67	156.78	27.89	-42.3	-45.4	18.7	6.06e-01	0	59	0	315097088	56	5089
2026-01-17 11:39:31.68	156.75	28.10	-42.4	-45.6	18.5	6.05e-01	0	59	0	317194240	56	5216
2026-01-17 11:39:32.69	156.73	28.31	-42.5	-45.8	18.3	6.06e-01	0	59	0	318767104	56	5327
2026-01-17 11:39:33.70	156.70	28.52	-42.6	-45.9	18.2	6.07e-01	0	59	0	320864256	56	5393
2026-01-17 11:39:34.71	156.67	28.73	-42.6	-45.9	18.2	6.05e-01	0	59	0	322961408	56	5360
2026-01-17 11:39:35.72	156.64	28.95	-42.5	-45.8	18.3	6.06e-01	0	59	0	324534272	56	5284
2026-01-17 11:39:36.72	156.61	29.16	-42.3	-45.5	18.6	6.07e-01	0	59	0	326631424	56	5156
2026-01-17 11:39:37.73	156.58	29.38	-42.3	-45.5	18.6	6.07e-01	0	59	0	328204288	56	5110
2026-01-17 11:39:38.74	156.55	29.60	-42.2	-45.3	18.8	6.07e-01	0	59	0	330301440	56	5011
2026-01-17 11:39:39.75	156.52	29.82	-42.2	-45.4	18.8	6.07e-01	0	59	0	332398592	56	5042
2026-01-17 11:39:40.76	156.49	30.04	-42.2	-45.3	18.8	6.08e-01	0	59	0	333971456	56	4999
2026-01-17 11:39:41.77	156.45	30.27	-42.2	-45.2	18.9	6.07e-01	0	59	0	336068608	56	4965
2026-01-17 11:39:42.78	156.42	30.49	-42.2	-45.3	18.9	6.06e-01	0	59	0	337641472	56	4997
2026-01-17 11:39:43.79	156.39	30.72	-42.3	-45.4	18.8	6.07e-01	0	59	0	339738624	56	5051
2026-01-17 11:39:44.80	156.35	30.95	-42.3	-45.4	18.8	6.06e-01	0	59	0	341835776	56	5058
2026-01-17 11:39:45.81	156.32	31.18	-42.2	-45.3	18.9	6.04e-01	0	59	0	343408640	56	5000
2026-01-17 11:39:46.82	156.29	31.42	-42.1	-45.2	18.9	6.06e-01	0	59	0	345505792	56	4939
2026-01-17 11:39:47.83	156.25	31.66	-42.0	-45.0	19.1	6.06e-01	0	59	0	347602944	56	4843
2026-01-17 11:39:48.84	156.21	31.89	-42.0	-45.0	19.1	6.07e-01	0	59	0	349175808	56	4846
2026-01-17 11:39:49.85	156.18	32.13	-42.1	-45.1	19.1	6.05e-01	0	59	0	351272960	56	4896
2026-01-17 11:39:50.86	156.14	32.38	-42.2	-45.3	18.8	6.08e-01	0	59	0	352845824	56	5028
2026-01-17 11:39:51.87	156.10	32.62	-42.4	-45.6	18.6	6.05e-01	0	59	0	354942976	56	5160
2026-01-17 11:39:52.88	156.06	32.87	-42.5	-45.8	18.4	6.06e-01	0	59	0	357040128	56	5296
2026-01-17 11:39:53.89	156.03	33.12	-42.6	-45.9	18.3	6.08e-01	0	59	0	358612992	56	5388
2026-01-17 11:39:54.90	155.99	33.37	-42.7	-46.0	18.1	6.04e-01	0	59	0	360710144	56	5464
2026-01-17 11:39:55.91	155.94	33.62	-42.7	-46.0	18.2	6.06e-01	0	59	0	362283008	56	5443
2026-01-17 11:39:56.92	155.90	33.88	-42.6	-46.0	18.2	6.07e-01	0	59	0	364380160	56	5414
2026-01-17 11:39:57.93	155.86	34.14	-42.6	-46.0	18.2	6.06e-01	0	59	0	366477312	56	5416
2026-01-17 11:39:58.94	155.82	34.40	-42.6	-45.9	18.2	6.08e-01	0	59	0	368050176	56	5401
2026-01-17 11:39:59.95	155.78	34.66	-42.7	-46.1	18.1	6.06e-01	0	59	0	370147328	56	5481
2026-01-17 11:40:00.96	155.73	34.93	-42.7	-46.1	18.0	6.05e-01	0	59	0	372244480	56	5522
2026-01-17 11:40:01.97	155.69	35.19	-42.8	-46.3	17.8	6.07e-01	0	59	0	373817344	56	5646
2026-01-17 11:40:02.98	155.64	35.46	-43.1	-46.8	17.4	6.06e-01	0	59	0	375914496	56	5948
2026-01-17 11:40:03.98	155.59	35.73	-43.4	-47.3	16.9	6.08e-01	0	59	0	377487360	57	5943
2026-01-17 11:40:04.99	155.55	36.01	-43.5	-47.6	16.6	6.07e-01	0	59	0	379584512	57	6138
2026-01-17 11:40:06.00	155.50	36.28	-43.4	-47.4	16.8	6.06e-01	0	59	0	381681664	57	6015
2026-01-17 11:40:07.01	155.45	36.56	-43.3	-47.1	17.0	6.06e-01	0	59	0	383254528	57	5851
2026-01-17 11:40:08.02	155.40	36.85	-43.3	-47.1	17.0	6.07e-01	0	59	0	385351680	57	5853
2026-01-17 11:40:09.03	155.35	37.13	-43.4	-47.4	16.8	6.07e-01	0	59	0	386924544	57	6025
2026-01-17 11:40:10.04	155.30	37.42	-43.4	-47.4	16.8	6.05e-01	0	59	0	389021696	57	6022
2026-01-17 11:40:11.05	155.24	37.71	-43.4	-47.3	16.9	6.05e-01	0	59	0	391118848	57	5931
2026-01-17 11:40:12.06	155.19	38.00	-43.5	-47.5	16.7	6.06e-01	0	59	0	392691712	57	6103
2026-01-17 11:40:13.07	155.13	38.30	-43.5	-47.6	16.6	6.07e-01	0	60	0	394788864	57	6186
2026-01-17 11:40:14.08	155.08	38.59	-43.5	-47.6	16.6	6.08e-01	0	59	0	396361728	57	6153
2026-01-17 11:40:15.09	155.02	38.89	-43.5	-47.6	16.6	6.08e-01	0	59	0	398458880	57	6151
2026-01-17 11:40:16.10	154.96	39.20	-43.6	-47.7	16.6	6.08e-01	0	59	0	400556032	57	6207
2026-01-17 11:40:17.11	154.90	39.50	-43.6	-47.7	16.5	6.07e-01	0	59	0	402128896	57	6228
2026-01-17 11:40:18.12	154.84	39.81	-43.5	-47.6	16.6	6.06e-01	0	59	0	404226048	57	6164
2026-01-17 11:40:19.13	154.78	40.13	-43.4	-47.3	16.9	6.07e-01	0	60	0	405798912	57	5989
2026-01-17 11:40:20.14	154.71	40.44	-43.4	-47.3	16.9	6.06e-01	0	60	0	407896064	57	5951
2026-01-17 11:40:21.15	154.65	40.76	-43.4	-47.3	16.9	6.09e-01	0	59	0	409993216	57	5932
2026-01-17 11:40:22.16	154.58	41.08	-43.4	-47.4	16.8	6.07e-01	0	59	0	411566080	57	6017
2026-01-17 11:40:23.16	154.52	41.40	-43.4	-47.3	16.9	6.07e-01	0	59	0	413663232	57	5985
2026-01-17 11:40:24.17	154.45	41.73	-43.2	-47.0	17.2	6.06e-01	0	60	0	415760384	57	5749
2026-01-17 11:40:25.18	154.38	42.06	-43.0	-46.6	17.6	6.06e-01	0	59	0	417333248	57	5526
2026-01-17 11:40:26.19	154.30	42.39	-43.1	-46.8	17.4	6.08e-01	0	60	0	419430400	57	5608
2026-01-17 11:40:27.20	154.23	42.73	-42.9	-46.4	17.8	6.06e-01	0	60	0	421003264	57	5379
2026-01-17 11:40:28.21	154.15	43.06	-42.7	-46.1	18.1	6.07e-01	0	60	0	423100416	57	5192
2026-01-17 11:40:29.22	154.08	43.41	-43.0	-46.5	17.7	6.08e-01	0	60	0	425197568	57	5460
2026-01-17 11:40:30.23	154.00	43.75	-43.0	-46.5	17.7	6.04e-01	0	59	0	426770432	57	5454
2026-01-17 11:40:31.24	153.92	44.10	-42.8	-46.2	18.0	6.09e-01	0	59	0	428867584	57	5267
2026-01-17 11:40:32.25	153.84	44.45	-42.6	-45.9	18.4	6.07e-01	0	60	0	430440448	57	5051
2026-01-17 11:40:33.26	153.75	44.81	-42.6	-45.8	18.5	6.07e-01	0	59	0	432537600	57	5018
2026-01-17 11:40:34.27	153.66	45.17	-42.6	-45.8	18.5	6.08e-01	0	59	0	434634752	57	5041
2026-01-17 11:40:35.28	153.58	45.53	-42.7	-46.1	18.2	6.07e-01	0	59	0	436207616	57	5177
2026-01-17 11:40:36.29	153.48	45.89	-42.8	-46.3	18.0	6.08e-01	0	60	0	438304768	57	5297
2026-01-17 11:40:37.30	153.39	46.26	-42.7	-46.0	18.2	6.06e-01	0	59	0	440401920	57	5133
2026-01-17 11:40:38.31	153.30	46.63	-42.3	-45.4	18.8	6.08e-01	0	60	0	441974784	56	5090
2026-01-17 11:40:39.32	153.20	47.01	-42.5	-45.7	18.6	6.08e-01	0	59	0	444071936	56	5249
2026-01-17 11:40:40.33	153.10	47.39	-42.8	-46.2	18.0	6.07e-01	0	60	0	445644800	56	5576
2026-01-17 11:40:41.34	152.99	47.77	-42.8	-46.3	18.0	6.08e-01	0	60	0	447741952	56	5596
2026-01-17 11:40:42.35	152.89	48.16	-42.7	-46.1	18.1	6.06e-01	0	60	0	449839104	56	5506
2026-01-17 11:40:43.36	152.78	48.54	-42.8	-46.2	18.1	6.07e-01	0	60	0	451411968	56	5561
2026-01-17 11:40:44.37	152.67	48.94	-42.7	-46.0	18.2	6.06e-01	0	60	0	453509120	56	5437
2026-01-17 11:40:45.38	152.55	49.33	-42.4	-45.6	18.7	6.08e-01	0	60	0	455081984	56	5190
2026-01-17 11:40:46.39	152.44	49.73	-42.6	-45.8	18.5	6.07e-01	0	59	0	457179136	56	5316
2026-01-17 11:40:47.40	152.32	50.14	-42.5	-45.6	18.6	6.08e-01	0	60	0	459276288	56	5214
2026-01-17 11:40:48.41	152.19	50.54	-42.3	-45.4	18.8	6.06e-01	0	60	0	460849152	56	5084
2026-01-17 11:40:49.41	152.07	50.95	-42.4	-45.5	18.7	6.07e-01	0	60	0	462946304	56	5138
2026-01-17 11:40:50.42	151.94	51.36	-42.3	-45.4	18.9	6.09e-01	0	60	0	464519168	56	5055
2026-01-17 11:40:51.43	151.80	51.78	-42.1	-45.0	19.2	6.06e-01	0	60	0	466616320	56	4854
2026-01-17 11:40:52.44	151.66	52.20	-42.1	-45.1	19.2	6.07e-01	0	60	0	468713472	56	4905
2026-01-17 11:40:53.45	151.52	52.63	-42.2	-45.2	19.0	6.07e-01	0	60	0	470286336	56	4981
2026-01-17 11:40:54.46	151.37	53.06	-42.1	-45.1	19.2	6.06e-01	0	60	0	472383488	56	4875
2026-01-17 11:40:55.47	151.22	53.49	-42.0	-44.9	19.4	6.07e-01	0	60	0	473956352	56	4769
2026-01-17 11:40:56.48	151.06	53.93	-42.0	-44.9	19.3	6.08e-01	0	60	0	476053504	55	5080
2026-01-17 11:40:57.49	150.90	54.37	-41.9	-44.9	19.3	6.07e-01	0	60	0	478150656	55	5058
2026-01-17 11:40:58.50	150.73	54.81	-41.9	-44.9	19.4	6.06e-01	0	60	0	479723520	55	5044
2026-01-17 11:40:59.51	150.56	55.26	-42.1	-45.1	19.1	6.07e-01	0	60	0	481820672	55	5186
2026-01-17 11:41:00.52	150.38	55.71	-42.3	-45.5	18.7	6.05e-01	0	60	0	483917824	55	5432
2026-01-17 11:41:01.53	150.20	56.16	-42.2	-45.2	18.9	6.09e-01	0	60	0	485490688	55	5279
2026-01-17 11:41:02.54	150.01	56.62	-42.4	-45.6	18.6	6.06e-01	0	60	0	487587840	55	5522
2026-01-17 11:41:03.55	149.81	57.08	-43.0	-46.6	17.7	6.08e-01	0	60	0	489160704	56	5832
2026-01-17 11:41:04.56	149.61	57.55	-42.7	-46.1	18.1	6.05e-01	0	60	0	491257856	56	5501
2026-01-17 11:41:05.57	149.40	58.01	-43.1	-46.8	17.5	6.05e-01	0	60	0	493355008	56	5925
2026-01-17 11:41:06.58	149.18	58.49	-43.2	-46.8	17.4	6.06e-01	0	60	0	494927872	56	5990
2026-01-17 11:41:07.59	148.95	58.96	-43.2	-46.9	17.4	6.07e-01	0	60	0	497025024	56	6012
2026-01-17 11:41:08.60	148.71	59.44	-43.3	-47.1	17.2	6.07e-01	0	59	0	498597888	57	5837
2026-01-17 11:41:09.61	148.47	59.92	-43.3	-47.1	17.2	6.05e-01	0	60	0	500695040	57	5846
2026-01-17 11:41:10.63	148.21	60.41	-43.5	-47.5	16.7	6.06e-01	0	60	0	502792192	57	6107
2026-01-17 11:41:11.64	147.95	60.90	-43.4	-47.3	16.9	6.08e-01	0	60	0	504365056	57	5983
2026-01-17 11:41:12.65	147.67	61.40	-43.4	-47.3	17.0	6.09e-01	0	60	0	506462208	57	5953
2026-01-17 11:41:13.65	147.39	61.89	-43.6	-47.7	16.6	6.08e-01	0	60	0	508559360	57	6237
2026-01-17 11:41:14.66	147.09	62.39	-43.6	-47.7	16.5	6.06e-01	0	60	0	510132224	57	6252
2026-01-17 11:41:15.67	146.78	62.89	-43.6	-47.6	16.6	6.08e-01	0	60	0	512229376	57	6184
2026-01-17 11:41:16.68	146.46	63.39	-43.8	-48.0	16.2	6.07e-01	0	60	0	513802240	58	6110
2026-01-17 11:41:17.69	146.12	63.90	-43.9	-48.4	15.9	6.06e-01	0	60	0	515899392	58	6363
2026-01-17 11:41:18.70	145.76	64.41	-44.0	-48.5	15.8	6.05e-01	0	60	0	517996544	58	6458
2026-01-17 11:41:19.71	145.39	64.92	-44.1	-48.8	15.4	6.08e-01	0	60	0	519569408	58	6708
2026-01-17 11:41:20.72	145.00	65.44	-44.4	-49.5	14.7	6.08e-01	0	60	0	521666560	59	6827
2026-01-17 11:41:21.73	144.60	65.96	-44.4	-49.6	14.6	6.06e-01	0	60	0	523239424	59	6932
2026-01-17 11:41:22.74	144.17	66.48	-44.7	-50.4	13.8	6.07e-01	0	60	0	525336576	59	7556
2026-01-17 11:41:23.75	143.72	67.00	-44.4	-50.0	13.8	6.09e-01	0	60	0	527433728	60	6869
2026-01-17 11:41:24.76	143.25	67.53	-44.5	-50.3	13.5	6.07e-01	0	60	0	529006592	60	7115
2026-01-17 11:41:25.77	142.75	68.05	-44.5	-50.3	13.5	6.08e-01	0	60	0	531103744	60	7057
2026-01-17 11:41:26.78	142.23	68.58	-44.6	-50.7	13.0	6.10e-01	0	60	0	532676608	60	7436
2026-01-17 11:41:27.79	141.68	69.11	-44.3	-49.6	14.0	6.08e-01	0	60	0	534773760	60	6562
2026-01-17 11:41:28.80	141.09	69.64	-44.5	-50.3	13.5	6.09e-01	0	60	0	536870912	60	7077
2026-01-17 11:41:29.81	140.48	70.17	-44.4	-50.0	13.7	6.10e-01	0	60	0	538443776	60	6875
2026-01-17 11:41:30.82	139.82	70.71	-44.3	-49.6	14.1	6.09e-01	0	60	0	540540928	60	6570
2026-01-17 11:41:31.83	139.13	71.24	-44.2	-49.3	14.5	6.07e-01	0	60	0	542113792	60	6344
2026-01-17 11:41:32.84	138.39	71.77	-44.4	-49.9	13.9	6.06e-01	0	60	0	544210944	60	6740
2026-01-17 11:41:33.85	137.61	72.31	-44.0	-48.9	14.9	6.06e-01	0	60	0	546308096	60	5995
2026-01-17 11:41:34.85	136.78	72.83	-44.3	-49.4	14.7	6.09e-01	0	60	0	547880960	59	6800
2026-01-17 11:41:35.86	135.88	73.36	-44.6	-50.2	13.9	6.08e-01	0	60	0	549978112	59	7447
2026-01-17 11:41:36.88	134.92	73.90	-44.3	-49.4	14.7	6.05e-01	0	60	0	552075264	59	6767
2026-01-17 11:41:37.89	133.90	74.42	-44.6	-50.0	14.1	6.08e-01	0	60	0	553648128	59	7285
2026-01-17 11:41:38.90	132.80	74.95	-44.3	-49.7	14.0	6.07e-01	0	60	0	555745280	60	6611
2026-01-17 11:41:39.90	131.63	75.46	-44.2	-49.4	14.3	6.05e-01	0	60	0	557318144	60	6348
2026-01-17 11:41:40.92	130.35	75.98	-44.3	-49.5	14.6	6.04e-01	0	60	0	559415296	59	6802
2026-01-17 11:41:41.93	128.98	76.49	-44.3	-49.2	14.9	6.08e-01	0	60	0	561512448	59	6626
2026-01-17 11:41:42.93	127.51	76.99	-44.0	-48.7	15.3	6.08e-01	0	60	0	563085312	59	6243
2026-01-17 11:41:43.95	125.89	77.50	-44.0	-48.7	15.4	6.06e-01	0	60	0	565182464	59	6217
2026-01-17 11:41:44.95	124.16	77.98	-43.8	-48.2	15.9	6.09e-01	0	60	0	566755328	59	5897
2026-01-17 11:41:45.96	122.27	78.46	-43.7	-48.0	16.0	6.08e-01	0	60	0	568852480	59	5779
2026-01-17 11:41:46.97	120.22	78.92	-43.5	-47.5	16.6	6.06e-01	0	60	0	570949632	58	5750
2026-01-17 11:41:47.98	117.98	79.37	-43.3	-47.2	16.9	6.06e-01	0	60	0	572522496	58	5563
2026-01-17 11:41:48.99	115.55	79.81	-43.3	-47.2	16.9	6.08e-01	0	60	0	574619648	58	5570
2026-01-17 11:41:50.00	112.90	80.23	-43.2	-46.9	17.3	6.08e-01	0	60	0	576716800	58	5363
2026-01-17 11:41:51.01	110.01	80.62	-43.6	-47.8	16.4	6.06e-01	0	60	0	578289664	58	5936
2026-01-17 11:41:52.02	106.88	80.99	-43.0	-46.6	17.6	6.07e-01	0	60	0	580386816	58	5174
2026-01-17 11:41:53.03	103.48	81.33	-43.5	-47.5	16.6	6.07e-01	0	60	0	581959680	58	5773
2026-01-17 11:41:54.04	99.81	81.64	-43.3	-47.1	17.0	6.07e-01	0	60	0	584056832	58	5485
2026-01-17 11:41:55.05	95.88	81.92	-43.3	-47.1	17.0	6.06e-01	0	60	0	586153984	58	5492
2026-01-17 11:41:56.06	91.68	82.15	-43.4	-47.3	16.9	6.06e-01	0	60	0	587726848	58	5636
2026-01-17 11:41:57.07	87.26	82.34	-43.3	-47.1	17.1	6.06e-01	0	60	0	589824000	58	5488
2026-01-17 11:41:58.08	82.63	82.48	-43.2	-46.9	17.2	6.06e-01	0	60	0	591396864	58	5373
2026-01-17 11:41:59.09	77.86	82.58	-43.5	-47.6	16.6	6.05e-01	0	60	0	593494016	58	5812
2026-01-17 11:42:00.10	73.00	82.62	-43.3	-47.1	17.1	6.08e-01	0	60	0	595591168	58	5496
2026-01-17 11:42:01.10	68.17	82.60	-43.6	-47.7	16.5	6.08e-01	0	60	0	597164032	58	5881
2026-01-17 11:42:02.11	63.34	82.54	-43.6	-47.8	16.4	6.08e-01	0	60	0	599261184	58	5961
2026-01-17 11:42:03.12	58.63	82.42	-43.9	-48.4	15.9	6.07e-01	0	60	0	600834048	58	6391
2026-01-17 11:42:04.13	54.10	82.26	-43.5	-47.5	16.6	6.06e-01	0	60	0	602931200	58	5765
2026-01-17 11:42:05.14	49.78	82.04	-43.6	-47.7	16.3	6.09e-01	0	60	0	605028352	58	5900
2026-01-17 11:42:06.15	45.71	81.79	-43.3	-47.1	17.0	6.05e-01	0	60	0	606601216	58	5483
2026-01-17 11:42:07.16	41.90	81.50	-43.4	-47.4	16.8	6.09e-01	0	60	0	608698368	58	5662
2026-01-17 11:42:08.17	38.37	81.17	-43.4	-47.3	16.8	6.07e-01	0	60	0	610271232	58	5625
2026-01-17 11:42:09.18	35.10	80.82	-42.8	-46.2	17.9	6.07e-01	0	60	0	612368384	57	5272
2026-01-17 11:42:10.19	32.09	80.44	-43.2	-47.0	17.3	6.07e-01	0	60	0	614465536	57	5730
2026-01-17 11:42:11.20	29.32	80.03	-43.2	-47.0	17.2	6.07e-01	0	60	0	616038400	57	5755
2026-01-17 11:42:12.21	26.77	79.61	-43.1	-46.8	17.4	6.04e-01	0	60	0	618135552	57	5618
2026-01-17 11:42:13.22	24.44	79.16	-43.5	-47.5	16.8	6.06e-01	0	60	0	620232704	57	6064
2026-01-17 11:42:14.23	22.29	78.70	-44.1	-48.7	15.5	6.05e-01	0	60	0	621805568	58	6623
2026-01-17 11:42:15.24	20.32	78.23	-43.7	-47.8	16.4	6.08e-01	0	60	0	623902720	58	5927
2026-01-17 11:42:16.25	18.51	77.75	-44.3	-49.3	14.9	6.09e-01	0	60	0	625475584	59	6663
2026-01-17 11:42:17.26	16.83	77.26	-44.3	-49.2	14.8	6.05e-01	0	60	0	627572736	59	6605
2026-01-17 11:42:18.27	15.29	76.76	-44.4	-49.3	14.9	6.07e-01	0	60	0	629669888	59	6709
2026-01-17 11:42:19.28	13.86	76.25	-44.4	-50.1	13.7	6.08e-01	0	60	0	631242752	60	6923
2026-01-17 11:42:20.29	12.54	75.74	-44.5	-50.1	13.7	6.09e-01	0	60	0	633339904	60	6933
2026-01-17 11:42:21.30	11.32	75.22	-44.0	-49.0	14.8	6.07e-01	0	60	0	634912768	60	6075
2026-01-17 11:42:22.31	10.18	74.70	-44.6	-50.1	14.1	6.06e-01	0	60	0	637009920	59	7303
2026-01-17 11:42:23.32	9.12	74.18	-44.5	-49.9	14.2	6.08e-01	0	60	0	639107072	59	7136
2026-01-17 11:42:24.33	8.13	73.65	-44.3	-49.3	14.8	6.08e-01	0	60	0	640679936	59	6659
2026-01-17 11:42:25.34	7.21	73.12	-44.3	-49.2	15.0	6.06e-01	0	60	0	642777088	59	6591
2026-01-17 11:42:26.35	6.34	72.59	-44.7	-50.2	14.0	6.08e-01	0	60	0	644874240	59	7404
2026-01-17 11:42:27.36	5.53	72.06	-44.4	-49.8	13.9	6.09e-01	0	60	0	646447104	60	6647
2026-01-17 11:42:28.37	4.77	71.53	-44.6	-49.9	14.0	6.08e-01	0	60	0	648544256	59	7165
2026-01-17 11:42:29.38	4.06	70.99	-44.6	-50.7	13.1	6.10e-01	0	60	0	650117120	60	7390
2026-01-17 11:42:30.39	3.38	70.46	-43.9	-51.1	12.2	6.09e-01	0	60	0	652214272	60	7788
2026-01-17 11:42:31.40	2.75	69.93	-44.5	-50.7	12.5	6.09e-01	0	60	0	654311424	60	7394
2026-01-17 11:42:32.41	2.15	69.40	-44.8	-51.1	12.9	6.10e-01	0	60	0	655884288	60	7721
2026-01-17 11:42:33.42	1.58	68.87	-45.1	-52.3	11.1	6.19e-01	0	60	0	657981440	60	8890
2026-01-17 11:42:34.43	1.04	68.34	-44.7	-50.8	12.9	6.11e-01	0	60	0	659554304	61	7042
2026-01-17 11:42:35.44	0.53	67.82	-44.7	-50.6	13.4	6.08e-01	0	60	0	661651456	59	7754
2026-01-17 11:42:36.45	0.05	67.29	-44.7	-50.7	13.0	6.09e-01	0	60	0	663748608	60	7446
2026-01-17 11:42:37.46	359.59	66.77	-44.7	-50.5	13.2	6.10e-01	0	60	0	665321472	60	7266
2026-01-17 11:42:38.47	359.15	66.25	-44.6	-50.0	14.2	6.05e-01	0	60	0	667418624	59	7268
2026-01-17 11:42:39.48	358.73	65.73	-44.3	-49.2	15.0	6.05e-01	0	60	0	668991488	59	6596
2026-01-17 11:42:40.49	358.34	65.22	-44.5	-49.6	14.4	6.08e-01	2	60	0	671088640	59	6925
2026-01-17 11:42:41.50	357.96	64.70	-44.4	-49.3	14.6	6.08e-01	0	60	0	673185792	59	6719
2026-01-17 11:42:42.51	357.59	64.19	-44.1	-48.7	15.3	6.08e-01	0	60	0	674758656	58	6586
2026-01-17 11:42:43.52	357.25	63.68	-43.7	-48.0	15.3	6.07e-01	2	60	0	676855808	58	6093
2026-01-17 11:42:44.53	356.92	63.18	-44.0	-48.4	15.2	6.06e-01	0	60	0	678428672	58	6378
2026-01-17 11:42:45.54	356.60	62.68	-44.3	-49.4	14.7	6.10e-01	0	60	0	680525824	59	6747
2026-01-17 11:42:46.55	356.29	62.18	-43.7	-47.9	16.2	6.05e-01	0	60	0	682622976	58	6046
2026-01-17 11:42:47.56	356.00	61.68	-43.4	-47.3	16.9	6.07e-01	0	60	0	684195840	57	5924
2026-01-17 11:42:48.57	355.72	61.19	-43.4	-47.3	17.0	6.05e-01	0	60	0	686292992	57	5960
2026-01-17 11:42:49.58	355.45	60.70	-43.5	-47.5	16.8	6.06e-01	0	60	0	688390144	57	6084
2026-01-17 11:42:50.59	355.19	60.21	-43.4	-47.2	17.1	6.07e-01	0	60	0	689963008	57	5887
2026-01-17 11:42:51.60	354.94	59.73	-43.2	-47.2	16.5	6.06e-01	0	60	0	692060160	57	5906
2026-01-17 11:42:52.61	354.71	59.25	-43.3	-47.0	17.3	6.06e-01	0	60	0	693633024	57	5782
2026-01-17 11:42:53.62	354.47	58.78	-43.2	-46.8	17.4	6.05e-01	0	60	0	695730176	57	5639
2026-01-17 11:42:54.63	354.25	58.30	-42.9	-46.4	17.2	6.08e-01	0	60	0	697827328	56	5719
2026-01-17 11:42:55.64	354.04	57.84	-43.0	-46.6	17.5	6.07e-01	0	60	0	699400192	56	5789
2026-01-17 11:42:56.65	353.83	57.37	-42.8	-46.2	18.1	6.06e-01	0	60	0	701497344	56	5554
2026-01-17 11:42:57.66	353.63	56.91	-42.2	-45.2	17.4	6.07e-01	0	60	0	703070208	55	5268
2026-01-17 11:42:58.67	353.44	56.45	-42.1	-45.1	19.0	6.06e-01	0	60	0	705167360	55	5210
2026-01-17 11:42:59.68	353.25	55.99	-42.0	-45.0	19.1	6.06e-01	0	60	0	707264512	55	5116
2026-01-17 11:43:00.69	353.07	55.54	-41.8	-44.7	19.6	6.07e-01	0	60	0	708837376	55	4928
2026-01-17 11:43:01.70	352.89	55.10	-41.7	-44.7	19.0	6.07e-01	0	60	0	710934528	54	5243
2026-01-17 11:43:02.71	352.72	54.65	-41.9	-44.8	19.4	6.07e-01	0	60	0	713031680	54	5294
2026-01-17 11:43:03.72	352.56	54.21	-41.8	-44.6	19.5	6.07e-01	0	60	0	714604544	54	5215
2026-01-17 11:43:04.73	352.40	53.78	-41.7	-44.4	19.8	6.08e-01	0	60	0	716701696	54	5095
2026-01-17 11:43:05.74	352.25	53.34	-41.6	-44.4	19.8	6.07e-01	0	60	0	718274560	53	5346
2026-01-17 11:43:06.75	352.10	52.91	-41.9	-44.7	19.5	6.07e-01	0	60	0	720371712	54	5263
2026-01-17 11:43:07.76	351.95	52.49	-42.0	-45.0	19.2	6.07e-01	0	60	0	722468864	54	5444
2026-01-17 11:43:08.77	351.81	52.07	-42.2	-45.3	18.9	6.06e-01	0	60	0	724041728	54	5629
2026-01-17 11:43:09.79	351.67	51.64	-42.2	-45.3	18.9	6.07e-01	0	60	0	726138880	55	5284
2026-01-17 11:43:10.80	351.54	51.23	-42.0	-45.1	19.1	6.07e-01	0	60	0	728236032	55	5207
2026-01-17 11:43:11.80	351.41	50.82	-42.3	-45.4	18.9	6.05e-01	0	60	0	729808896	55	5379
2026-01-17 11:43:12.82	351.28	50.41	-42.5	-45.8	18.4	6.06e-01	0	60	0	731906048	55	5655
2026-01-17 11:43:13.82	351.16	50.01	-42.6	-45.8	18.4	6.06e-01	0	60	0	733478912	55	5645
2026-01-17 11:43:14.83	351.04	49.61	-42.6	-45.9	18.4	6.06e-01	0	60	0	735576064	55	5695
2026-01-17 11:43:15.84	350.93	49.21	-42.6	-45.9	18.4	6.06e-01	0	60	0	737673216	55	5661
2026-01-17 11:43:16.85	350.82	48.82	-42.5	-45.8	18.4	6.08e-01	0	60	0	739246080	55	5628
2026-01-17 11:43:17.87	350.71	48.43	-42.6	-45.8	18.4	6.06e-01	0	60	0	741343232	55	5625
2026-01-17 11:43:18.87	350.60	48.05	-42.7	-46.0	18.2	6.07e-01	0	60	0	742916096	55	5760
2026-01-17 11:43:19.88	350.50	47.66	-42.7	-46.1	18.1	6.07e-01	0	60	0	745013248	55	5823
2026-01-17 11:43:20.90	350.39	47.28	-42.5	-45.8	17.2	6.07e-01	0	60	0	747110400	55	5645
2026-01-17 11:43:21.91	350.29	46.90	-42.5	-45.7	18.5	6.07e-01	0	60	0	748683264	55	5553
2026-01-17 11:43:22.91	350.20	46.54	-42.4	-45.6	18.7	6.06e-01	0	60	0	750780416	55	5479
2026-01-17 11:43:23.93	350.10	46.16	-42.4	-45.6	18.7	6.06e-01	0	60	0	752353280	55	5476
2026-01-17 11:43:24.94	350.01	45.80	-42.4	-45.6	18.7	6.08e-01	0	60	0	754450432	55	5465
2026-01-17 11:43:25.95	349.92	45.44	-42.3	-45.5	18.6	6.07e-01	0	60	0	756547584	55	5413
2026-01-17 11:43:26.95	349.84	45.08	-42.3	-45.3	18.9	6.06e-01	0	60	0	758120448	55	5337
2026-01-17 11:43:27.97	349.75	44.72	-42.3	-45.4	18.8	6.07e-01	0	60	0	760217600	55	5355
2026-01-17 11:43:28.98	349.67	44.37	-42.5	-45.8	18.4	6.07e-01	0	60	0	761790464	55	5634
2026-01-17 11:43:29.99	349.59	44.02	-42.8	-46.2	18.1	6.06e-01	0	60	0	763887616	56	5586
2026-01-17 11:43:30.99	349.51	43.68	-42.8	-46.3	18.1	6.06e-01	0	60	0	765984768	56	5596
2026-01-17 11:43:32.00	349.43	43.33	-42.8	-46.2	18.1	6.07e-01	0	60	0	767557632	56	5558
2026-01-17 11:43:33.01	349.35	43.00	-42.8	-46.1	18.1	6.06e-01	0	60	0	769654784	56	5520
2026-01-17 11:43:34.02	349.28	42.66	-42.8	-46.2	18.1	6.06e-01	0	60	0	771227648	56	5532
2026-01-17 11:43:35.03	349.21	42.33	-42.9	-46.4	17.9	6.07e-01	0	60	0	773324800	56	5715
2026-01-17 11:43:36.04	349.13	42.00	-43.1	-46.7	17.6	6.08e-01	0	60	0	775421952	56	5919
2026-01-17 11:43:37.05	349.07	41.67	-43.2	-46.9	17.4	6.08e-01	0	60	0	776994816	56	6012
2026-01-17 11:43:38.07	349.00	41.34	-43.3	-47.1	17.2	6.07e-01	0	60	0	779091968	57	5820
2026-01-17 11:43:39.07	348.93	41.02	-43.4	-47.2	17.0	6.07e-01	0	60	0	781189120	57	5921
2026-01-17 11:43:40.08	348.87	40.70	-43.4	-47.4	16.9	6.05e-01	0	60	0	782761984	57	6012
2026-01-17 11:43:41.09	348.80	40.39	-43.5	-47.4	16.8	6.06e-01	0	60	0	784859136	57	6060
2026-01-17 11:43:42.11	348.74	40.07	-43.5	-47.4	16.9	6.06e-01	0	60	0	786432000	57	6027
2026-01-17 11:43:43.11	348.68	39.77	-43.6	-47.6	16.7	6.05e-01	0	60	0	788529152	57	6156
2026-01-17 11:43:44.12	348.62	39.46	-43.7	-48.0	16.3	6.06e-01	0	61	0	790626304	57	6422
2026-01-17 11:43:45.13	348.56	39.16	-43.8	-48.1	16.1	6.05e-01	0	61	0	792199168	58	6172
2026-01-17 11:43:46.14	348.50	38.86	-43.8	-48.1	16.2	6.06e-01	0	60	0	794296320	58	6153
2026-01-17 11:43:47.15	348.44	38.56	-43.6	-47.8	16.3	6.08e-01	0	60	0	796393472	58	5965
2026-01-17 11:43:48.16	348.39	38.26	-43.6	-47.7	16.5	6.07e-01	0	60	0	797966336	57	6248
2026-01-17 11:43:49.17	348.33	37.97	-43.5	-47.6	16.7	6.05e-01	0	60	0	800063488	57	6157
2026-01-17 11:43:50.18	348.28	37.68	-43.6	-47.7	16.5	6.07e-01	0	60	0	801636352	57	6246
2026-01-17 11:43:51.19	348.23	37.39	-43.5	-47.5	16.6	6.07e-01	0	60	0	803733504	57	6129
2026-01-17 11:43:52.20	348.18	37.11	-43.4	-47.3	16.9	6.08e-01	0	60	0	805830656	57	5963
2026-01-17 11:43:53.21	348.13	36.82	-43.2	-46.9	17.3	6.06e-01	0	60	0	807403520	57	5703
2026-01-17 11:43:54.22	348.08	36.54	-43.0	-46.6	17.6	6.08e-01	0	60	0	809500672	57	5480
2026-01-17 11:43:55.23	348.03	36.27	-42.8	-46.3	17.9	6.06e-01	0	60	0	811073536	57	5302
2026-01-17 11:43:56.24	347.98	35.99	-42.8	-46.2	18.0	6.05e-01	0	60	0	813170688	57	5242
2026-01-17 11:43:57.25	347.94	35.72	-42.8	-46.2	18.0	6.07e-01	0	60	0	815267840	57	5251
2026-01-17 11:43:58.26	347.89	35.45	-42.8	-46.2	18.0	6.07e-01	0	60	0	816840704	57	5261
2026-01-17 11:43:59.27	347.84	35.18	-42.8	-46.2	18.0	6.07e-01	0	60	0	818937856	57	5236
2026-01-17 11:44:00.28	347.80	34.92	-42.7	-46.0	18.1	6.07e-01	0	60	0	820510720	57	5152
2026-01-17 11:44:01.29	347.76	34.65	-42.6	-45.9	18.3	6.05e-01	0	60	0	822607872	57	5056
2026-01-17 11:44:02.30	347.71	34.39	-42.5	-45.8	18.4	6.05e-01	0	60	0	824705024	57	5008
2026-01-17 11:44:03.30	347.67	34.14	-42.4	-45.5	18.6	6.06e-01	0	60	0	826277888	56	5154
2026-01-17 11:44:04.31	347.63	33.88	-42.4	-45.6	18.5	6.06e-01	0	60	0	828375040	56	5204
2026-01-17 11:44:05.32	347.59	33.63	-42.4	-45.6	18.5	6.09e-01	0	60	0	829947904	56	5182
2026-01-17 11:44:06.33	347.55	33.37	-42.4	-45.6	18.6	6.08e-01	0	60	0	832045056	56	5164
2026-01-17 11:44:07.34	347.51	33.13	-42.3	-45.5	18.7	6.07e-01	0	60	0	834142208	56	5102
2026-01-17 11:44:08.35	347.47	32.88	-42.1	-45.2	18.9	6.07e-01	0	60	0	835715072	56	4949
2026-01-17 11:44:09.36	347.44	32.63	-42.0	-45.0	19.1	6.08e-01	0	60	0	837812224	56	4818
2026-01-17 11:44:10.37	347.40	32.39	-41.8	-44.7	19.3	6.07e-01	0	60	0	839385088	55	4941
2026-01-17 11:44:11.38	347.36	32.15	-41.7	-44.6	19.4	6.06e-01	0	60	0	841482240	55	4892
2026-01-17 11:44:12.39	347.33	31.91	-41.7	-44.6	19.5	6.06e-01	0	60	0	843579392	55	4877
2026-01-17 11:44:13.39	347.29	31.68	-41.7	-44.6	19.4	6.08e-01	0	60	0	845152256	55	4887
2026-01-17 11:44:14.40	347.26	31.44	-41.7	-44.7	19.3	6.07e-01	0	60	0	847249408	55	4927
2026-01-17 11:44:15.41	347.22	31.21	-41.8	-44.7	19.3	6.06e-01	0	61	0	849346560	55	4973
2026-01-17 11:44:16.42	347.19	30.98	-41.8	-44.8	19.2	6.09e-01	0	60	0	850919424	55	4991
2026-01-17 11:44:17.43	347.16	30.75	-41.9	-44.9	19.0	6.07e-01	0	60	0	853016576	55	5084
2026-01-17 11:44:18.44	347.12	30.52	-42.0	-45.0	18.9	6.07e-01	0	60	0	854589440	55	5152
2026-01-17 11:44:19.45	347.09	30.30	-42.0	-45.1	18.9	6.06e-01	0	61	0	856686592	55	5203
2026-01-17 11:44:20.46	347.06	30.07	-42.1	-45.2	18.7	6.05e-01	0	60	0	858783744	55	5260
2026-01-17 11:44:21.47	347.03	29.85	-42.1	-45.2	18.7	6.07e-01	0	60	0	860356608	55	5275
2026-01-17 11:44:22.48	347.00	29.63	-42.1	-45.4	18.5	6.06e-01	0	60	0	862453760	55	5354
2026-01-17 11:44:23.49	346.97	29.41	-42.2	-45.4	18.4	6.06e-01	0	60	0	864026624	55	5390
2026-01-17 11:44:24.50	346.94	29.20	-42.2	-45.4	18.4	6.05e-01	0	60	0	866123776	55	5380
2026-01-17 11:44:25.51	346.91	28.98	-42.2	-45.4	18.4	6.06e-01	0	60	0	868220928	55	5400
2026-01-17 11:44:26.52	346.88	28.77	-42.2	-45.4	18.4	6.06e-01	0	60	0	869793792	55	5392
2026-01-17 11:44:27.53	346.85	28.56	-42.1	-45.3	18.5	6.06e-01	0	60	0	871890944	55	5325
2026-01-17 11:44:28.54	346.83	28.35	-42.1	-45.3	18.5	6.07e-01	0	60	0	873463808	55	5285
2026-01-17 11:44:29.55	346.80	28.14	-42.0	-45.2	18.5	6.04e-01	0	60	0	875560960	55	5275
2026-01-17 11:44:30.56	346.77	27.94	-42.0	-45.2	18.6	6.06e-01	0	60	0	877658112	55	5240
2026-01-17 11:44:31.57	346.75	27.73	-42.0	-45.2	18.5	6.05e-01	0	60	0	879230976	55	5240
2026-01-17 11:44:32.57	346.72	27.53	-42.0	-45.2	18.6	6.06e-01	0	60	0	881328128	55	5252
2026-01-17 11:44:33.58	346.69	27.33	-42.0	-45.2	18.5	6.06e-01	0	60	0	882900992	55	5240
2026-01-17 11:44:34.59	346.67	27.13	-42.0	-45.2	18.5	6.06e-01	0	61	0	884998144	55	5273
2026-01-17 11:44:35.60	346.64	26.93	-42.0	-45.2	18.5	6.07e-01	0	60	0	887095296	55	5260
2026-01-17 11:44:36.61	346.62	26.74	-42.0	-45.3	18.4	6.04e-01	0	60	0	888668160	55	5302
2026-01-17 11:44:37.62	346.59	26.54	-42.0	-45.3	18.4	6.06e-01	0	60	0	890765312	55	5282
2026-01-17 11:44:38.63	346.57	26.35	-41.9	-45.2	18.4	6.06e-01	0	60	0	892338176	55	5238
2026-01-17 11:44:39.64	346.55	26.16	-42.0	-45.3	18.3	6.05e-01	0	60	0	894435328	55	5292
2026-01-17 11:44:40.65	346.52	25.97	-42.1	-45.5	18.1	6.07e-01	0	60	0	896532480	55	5416
2026-01-17 11:44:41.66	346.50	25.78	-42.2	-45.7	17.8	6.06e-01	0	60	0	898105344	55	5555
2026-01-17 11:44:42.67	346.48	25.59	-42.2	-45.8	17.7	6.05e-01	0	60	0	900202496	55	5613
2026-01-17 11:44:43.68	346.46	25.41	-42.3	-45.9	17.5	6.05e-01	0	61	0	902299648	55	5706
2026-01-17 11:44:44.69	346.43	25.22	-42.4	-46.2	17.2	6.07e-01	0	60	0	903872512	55	5898
2026-01-17 11:44:45.70	346.41	25.04	-42.4	-46.2	17.1	6.06e-01	0	60	0	905969664	55	5907
2026-01-17 11:44:46.71	346.39	24.86	-42.4	-46.3	17.1	6.07e-01	0	61	0	907542528	55	5942
2026-01-17 11:44:47.72	346.37	24.68	-42.4	-46.3	17.1	6.06e-01	0	60	0	909639680	55	5952
2026-01-17 11:44:48.72	346.35	24.50	-42.4	-46.3	17.0	6.07e-01	0	60	0	911736832	55	5934
2026-01-17 11:44:49.73	346.33	24.32	-42.3	-46.2	17.1	6.06e-01	0	61	0	913309696	55	5889
2026-01-17 11:44:50.74	346.31	24.14	-42.2	-46.0	17.2	6.05e-01	0	60	0	915406848	55	5782
2026-01-17 11:44:51.75	346.29	23.97	-42.2	-46.0	17.2	6.07e-01	0	60	0	917504000	55	5764
2026-01-17 11:44:52.76	346.27	23.79	-42.2	-46.0	17.2	6.06e-01	0	61	0	919076864	55	5768
2026-01-17 11:44:53.77	346.25	23.62	-42.2	-46.1	17.0	6.07e-01	0	60	0	921174016	55	5824
2026-01-17 11:44:54.78	346.23	23.45	-42.0	-45.9	17.1	6.06e-01	0	60	0	922746880	55	5699
2026-01-17 11:44:55.79	346.21	23.28	-41.8	-45.7	17.2	6.06e-01	0	60	0	924844032	55	5553
2026-01-17 11:44:56.80	346.19	23.11	-42.0	-46.2	16.5	6.06e-01	0	61	0	926941184	55	5895
2026-01-17 11:44:57.81	346.18	22.94	-42.0	-46.5	16.1	6.05e-01	0	60	0	928514048	55	6075
2026-01-17 11:44:58.82	346.16	22.78	-41.6	-45.8	16.5	6.06e-01	0	60	0	930611200	55	5634
2026-01-17 11:44:59.83	346.14	22.61	-41.4	-45.5	16.7	6.06e-01	0	60	0	932184064	54	5774
2026-01-17 11:45:00.84	346.12	22.45	-41.4	-45.6	16.5	6.07e-01	0	61	0	934281216	54	5824
2026-01-17 11:45:01.85	346.11	22.28	-41.4	-45.8	16.2	6.07e-01	0	61	0	936378368	54	5940
2026-01-17 11:45:02.86	346.09	22.12	-41.4	-45.8	16.1	6.07e-01	0	60	0	937951232	54	5966
2026-01-17 11:45:03.87	346.07	21.96	-41.4	-46.2	15.6	6.07e-01	0	60	0	940048384	54	6217
2026-01-17 11:45:04.88	346.05	21.80	-41.6	-46.9	14.8	6.08e-01	0	60	0	941621248	54	6759
2026-01-17 11:45:05.89	346.04	21.64	-41.9	-48.0	13.4	6.08e-01	0	60	0	943718400	54	7717
2026-01-17 11:45:06.90	346.02	21.48	-42.2	-49.7	11.6	6.13e-01	0	61	0	945815552	54	9337
2026-01-17 11:45:07.91	346.01	21.33	-42.3	-51.4	9.6	6.30e-01	0	60	0	947388416	55	10677
2026-01-17 11:45:08.92	345.99	21.17	-42.4	-53.5	7.4	6.57e-01	90	60	0	949485568	55	13627
2026-01-17 11:45:09.93	345.98	21.02	-42.5	-55.5	5.6	6.94e-01	39	61	0	951058432	55	17089
2026-01-17 11:45:10.94	345.96	20.86	-42.5	-57.8	4.3	7.29e-01	0	60	104	951058432	55	22269
2026-01-17 11:45:11.95	345.94	20.71	-42.5	-59.6	3.8	7.47e-01	0	60	104	951058432	55	27636
2026-01-17 11:45:12.96	345.93	20.56	-42.4	-60.6	3.8	7.44e-01	0	60	104	951058432	55	30742
2026-01-17 11:45:13.97	345.91	20.41	-42.4	-60.9	3.8	7.45e-01	0	61	104	951058432	55	31976
2026-01-17 11:45:14.98	345.90	20.26	-42.1	-60.6	3.8	7.44e-01	0	61	104	951058432	55	30966
2026-01-17 11:45:15.99	345.89	20.11	-42.9	-61.0	3.9	7.43e-01	0	60	104	951058432	56	30494
2026-01-17 11:45:17.00	345.87	19.96	-42.0	-61.1	3.8	7.48e-01	0	61	104	951058432	56	30756
2026-01-17 11:45:18.01	345.86	19.82	-42.0	-60.8	3.8	7.47e-01	0	61	104	951058432	56	29974
2026-01-17 11:45:19.02	345.84	19.67	-42.2	-60.8	3.8	7.45e-01	0	60	104	951058432	56	29976
2026-01-17 11:45:20.03	345.83	19.53	-42.1	-60.8	3.8	7.44e-01	0	61	104	951058432	56	30030
2026-01-17 11:45:21.04	345.82	19.38	-42.0	-60.9	3.8	7.47e-01	0	61	104	951058432	56	30235
2026-01-17 11:45:22.05	345.80	19.24	-42.0	-61.1	3.8	7.47e-01	0	61	104	951058432	56	31036
2026-01-17 11:45:23.06	345.79	19.10	-42.0	-61.0	3.8	7.44e-01	0	61	104	951058432	56	30639
2026-01-17 11:45:24.07	345.78	18.96	-42.3	-61.4	3.8	7.46e-01	0	61	104	951058432	56	31945
2026-01-17 11:45:25.07	345.76	18.82	-42.0	-61.0	3.8	7.45e-01	0	61	104	951058432	56	30641
2026-01-17 11:45:26.09	345.75	18.68	-41.8	-60.9	3.8	7.44e-01	0	61	104	951058432	55	31879
2026-01-17 11:45:27.10	345.74	18.54	-42.0	-60.9	3.8	7.47e-01	0	61	104	951058432	55	31882
2026-01-17 11:45:28.11	345.73	18.40	-41.9	-60.9	3.8	7.43e-01	0	61	104	951058432	55	31946
2026-01-17 11:45:29.12	345.71	18.26	-41.9	-60.9	3.8	7.42e-01	0	60	104	951058432	55	32073
2026-01-17 11:45:30.13	345.70	18.13	-41.9	-61.1	3.8	7.47e-01	0	61	104	951058432	55	32588
2026-01-17 11:45:31.14	345.69	17.99	-42.0	-61.1	3.8	7.44e-01	0	60	104	951058432	55	32809
2026-01-17 11:45:32.15	345.68	17.86	-41.9	-61.1	3.8	7.43e-01	0	61	104	951058432	55	32657
2026-01-17 11:45:33.16	345.67	17.73	-42.0	-61.1	3.8	7.44e-01	0	60	104	951058432	55	32893
2026-01-17 11:45:34.17	345.66	17.59	-42.0	-61.0	3.8	7.47e-01	0	61	104	951058432	55	32284
2026-01-17 11:45:35.18	345.64	17.46	-41.9	-61.1	3.8	7.46e-01	0	61	104	951058432	55	32695
2026-01-17 11:45:36.19	345.63	17.33	-41.9	-61.0	3.8	7.48e-01	0	61	104	951058432	55	32433
2026-01-17 11:45:37.20	345.62	17.20	-41.9	-61.2	3.8	7.45e-01	0	61	104	951058432	55	33026
2026-01-17 11:45:38.20	345.61	17.07	-42.3	-61.4	3.8	7.45e-01	0	61	104	951058432	55	33750
2026-01-17 11:45:39.21	345.60	16.94	-41.8	-61.2	3.8	7.47e-01	0	61	104	951058432	55	32931
2026-01-17 11:45:40.22	345.59	16.81	-42.3	-61.3	3.8	7.46e-01	0	61	104	951058432	55	33663
2026-01-17 11:45:41.24	345.58	16.68	-41.9	-61.0	3.8	7.44e-01	0	60	104	951058432	55	32542
2026-01-17 11:45:42.25	345.57	16.56	-42.0	-61.1	3.8	7.44e-01	0	61	104	951058432	55	32871
2026-01-17 11:45:43.26	345.56	16.43	-41.9	-61.1	3.8	7.42e-01	0	61	104	951058432	55	32643
2026-01-17 11:45:44.27	345.55	16.31	-42.0	-61.1	3.8	7.44e-01	0	61	104	951058432	55	32901
2026-01-17 11:45:45.28	345.54	16.18	-41.6	-61.0	3.8	7.47e-01	0	61	104	951058432	55	32419
2026-01-17 11:45:46.28	345.53	16.06	-42.1	-61.1	3.8	7.47e-01	0	61	104	951058432	55	32904
2026-01-17 11:45:47.29	345.52	15.94	-41.8	-61.0	3.8	7.43e-01	0	60	104	951058432	55	32422
2026-01-17 11:45:48.30	345.51	15.81	-42.1	-61.2	3.8	7.46e-01	0	61	104	951058432	55	33036
2026-01-17 11:45:49.31	345.50	15.69	-41.8	-61.2	3.8	7.46e-01	0	61	104	951058432	55	32968
2026-01-17 11:45:50.32	345.49	15.57	-41.8	-61.0	3.8	7.47e-01	0	61	104	951058432	55	32423
2026-01-17 11:45:51.34	345.48	15.45	-41.7	-61.1	3.8	7.45e-01	0	61	104	951058432	55	32730
2026-01-17 11:45:52.35	345.47	15.33	-41.7	-61.0	3.8	7.49e-01	0	61	104	951058432	55	32291
2026-01-17 11:45:53.35	345.46	15.21	-41.8	-61.3	3.8	7.45e-01	0	61	104	951058432	55	33335
2026-01-17 11:45:54.36	345.45	15.09	-42.0	-61.2	3.8	7.49e-01	0	61	104	951058432	55	33089
2026-01-17 11:45:55.37	345.45	14.98	-41.7	-61.2	3.8	7.42e-01	0	61	104	951058432	55	33147
2026-01-17 11:45:56.38	345.44	14.86	-42.1	-61.2	3.8	7.46e-01	0	61	104	951058432	55	33145
2026-01-17 11:45:57.39	345.43	14.74	-41.6	-61.0	3.8	7.43e-01	0	61	104	951058432	55	32221
2026-01-17 11:45:58.40	345.42	14.63	-41.7	-61.1	3.8	7.44e-01	0	61	104	951058432	55	32888
2026-01-17 11:45:59.41	345.41	14.51	-41.7	-60.9	3.8	7.45e-01	0	61	104	951058432	55	32060
2026-01-17 11:46:00.42	345.40	14.40	-41.7	-61.2	3.8	7.45e-01	0	61	104	951058432	55	33069
2026-01-17 11:46:01.43	345.39	14.28	-41.5	-60.9	3.8	7.46e-01	0	61	104	951058432	55	32170
2026-01-17 11:46:02.44	345.39	14.17	-41.7	-61.0	3.8	7.45e-01	0	61	104	951058432	55	32318
2026-01-17 11:46:03.45	345.38	14.05	-41.6	-60.9	3.8	7.45e-01	0	61	104	951058432	55	32019
2026-01-17 11:46:04.46	345.37	13.94	-41.9	-61.0	3.8	7.44e-01	0	61	104	951058432	55	32454
2026-01-17 11:46:05.47	345.36	13.83	-41.8	-61.0	3.8	7.43e-01	0	61	104	951058432	55	32202
2026-01-17 11:46:06.48	345.36	13.72	-41.7	-60.9	3.8	7.47e-01	0	61	104	951058432	55	32028
2026-01-17 11:46:07.49	345.35	13.61	-41.8	-61.0	3.8	7.47e-01	0	61	104	951058432	55	32273
2026-01-17 11:46:08.50	345.34	13.50	-41.6	-60.9	3.8	7.50e-01	0	61	104	951058432	55	32095
2026-01-17 11:46:09.51	345.33	13.39	-41.8	-61.0	3.8	7.46e-01	0	61	104	951058432	55	32303
2026-01-17 11:46:10.52	345.33	13.28	-41.8	-61.0	3.8	7.47e-01	0	61	104	951058432	55	32362
2026-01-17 11:46:11.53	345.32	13.17	-41.8	-61.0	3.8	7.44e-01	0	61	104	951058432	55	32392
2026-01-17 11:46:12.54	345.31	13.06	-41.6	-60.9	3.8	7.45e-01	0	61	104	951058432	55	31840
2026-01-17 11:46:13.55	345.30	12.96	-41.7	-60.9	3.8	7.46e-01	0	61	104	951058432	54	34057
2026-01-17 11:46:14.56	345.30	12.85	-41.6	-60.9	3.8	7.48e-01	0	61	104	951058432	54	33891
2026-01-17 11:46:15.57	345.29	12.74	-41.6	-60.9	3.8	7.45e-01	0	61	104	951058432	54	33902
2026-01-17 11:46:16.58	345.28	12.64	-41.7	-61.1	3.8	7.45e-01	0	61	104	951058432	54	34600
2026-01-17 11:46:17.59	345.28	12.53	-41.6	-60.9	3.8	7.43e-01	0	61	104	951058432	54	33711
2026-01-17 11:46:18.60	345.27	12.43	-41.4	-60.8	3.8	7.42e-01	0	61	104	951058432	54	33567
2026-01-17 11:46:19.61	345.26	12.32	-41.6	-60.8	3.8	7.45e-01	0	61	104	951058432	54	33539
2026-01-17 11:46:20.62	345.26	12.22	-41.6	-60.8	3.8	7.45e-01	0	61	104	951058432	54	33651
2026-01-17 11:46:21.63	345.25	12.11	-41.5	-60.8	3.8	7.45e-01	0	61	104	951058432	54	33480
2026-01-17 11:46:22.64	345.24	12.01	-41.5	-60.9	3.8	7.46e-01	0	61	104	951058432	54	33799
2026-01-17 11:46:23.65	345.24	11.91	-41.5	-60.8	3.8	7.43e-01	0	61	104	951058432	54	33392
2026-01-17 11:46:24.66	345.23	11.81	-41.4	-60.8	3.8	7.45e-01	0	61	104	951058432	54	33466
2026-01-17 11:46:25.67	345.23	11.71	-41.6	-60.8	3.8	7.46e-01	0	61	104	951058432	54	33626
2026-01-17 11:46:26.68	345.22	11.60	-41.6	-60.9	3.8	7.47e-01	0	61	104	951058432	54	34045
2026-01-17 11:46:27.69	345.21	11.50	-41.6	-60.9	3.8	7.45e-01	0	61	104	951058432	54	33736
2026-01-17 11:46:28.70	345.21	11.40	-41.4	-60.7	3.8	7.48e-01	0	61	104	951058432	54	33267
2026-01-17 11:46:29.71	345.20	11.30	-41.5	-60.8	3.8	7.45e-01	0	61	104	951058432	54	33593
2026-01-17 11:46:30.72	345.20	11.20	-41.5	-60.8	3.8	7.44e-01	0	61	104	951058432	54	33404
2026-01-17 11:46:31.73	345.19	11.11	-41.6	-60.9	3.8	7.48e-01	0	61	104	951058432	54	33760
2026-01-17 11:46:32.74	345.18	11.01	-41.9	-61.0	3.8	7.47e-01	0	61	104	951058432	54	34467
2026-01-17 11:46:33.75	345.18	10.91	-41.5	-60.8	3.8	7.45e-01	0	61	104	951058432	54	33494
2026-01-17 11:46:34.76	345.17	10.81	-41.8	-60.9	3.8	7.43e-01	0	61	104	951058432	54	33881
2026-01-17 11:46:35.77	345.17	10.72	-41.5	-60.8	3.8	7.46e-01	0	61	104	951058432	54	33404
2026-01-17 11:46:36.78	345.16	10.62	-41.6	-60.8	3.8	7.45e-01	0	61	104	951058432	54	33408
2026-01-17 11:46:37.79	345.16	10.52	-41.6	-60.9	3.8	7.43e-01	0	61	104	951058432	54	33939
2026-01-17 11:46:38.80	345.15	10.43	-41.7	-60.8	3.8	7.43e-01	0	61	104	951058432	54	33589
2026-01-17 11:46:39.81	345.15	10.33	-41.6	-60.9	3.8	7.45e-01	0	61	104	951058432	54	33790
2026-01-17 11:46:40.82	345.14	10.24	-41.6	-60.7	3.8	7.46e-01	0	61	104	951058432	54	33024
2026-01-17 11:46:41.83	345.14	10.14	-41.5	-60.8	3.8	7.45e-01	0	61	104	951058432	54	33388
2026-01-17 11:46:42.84	345.13	10.05	-41.6	-60.7	3.8	7.45e-01	0	61	104	951058432	54	33145
2026-01-17 11:46:43.85	345.13	9.95	-41.6	-60.8	3.8	7.44e-01	0	61	104	951058432	54	33412
2026-01-17 11:46:44.86	345.12	9.86	-41.7	-60.8	3.8	7.45e-01	0	61	104	951058432	54	33482
2026-01-17 11:46:45.87	345.12	9.77	-41.5	-60.7	3.8	7.44e-01	0	61	104	951058432	54	33242
2026-01-17 11:46:46.88	345.11	9.68	-41.6	-60.8	3.8	7.44e-01	0	61	104	951058432	54	33348
2026-01-17 11:46:47.89	345.11	9.58	-41.5	-60.7	3.8	7.44e-01	0	61	104	951058432	54	33205
2026-01-17 11:46:48.90	345.10	9.49	-41.8	-60.9	3.8	7.45e-01	0	61	104	951058432	54	33903
2026-01-17 11:46:49.92	345.10	9.40	-41.7	-60.8	3.8	7.45e-01	0	61	104	951058432	54	33549
2026-01-17 11:46:50.93	345.10	9.31	-41.8	-60.9	3.8	7.48e-01	0	61	104	951058432	54	34064
2026-01-17 11:46:51.94	345.09	9.22	-41.7	-60.8	3.8	7.43e-01	0	61	104	951058432	54	33480
2026-01-17 11:46:52.95	345.09	9.13	-41.5	-60.6	3.8	7.45e-01	0	61	104	951058432	54	32914
2026-01-17 11:46:53.96	345.08	9.04	-41.6	-60.7	3.8	7.44e-01	0	61	104	951058432	54	33276
2026-01-17 11:46:54.97	345.08	8.95	-41.6	-60.7	3.8	7.48e-01	0	61	104	951058432	54	33000
2026-01-17 11:46:55.97	345.07	8.86	-41.6	-60.8	3.8	7.48e-01	0	61	104	951058432	54	33461
2026-01-17 11:46:56.98	345.07	8.77	-41.6	-60.8	3.8	7.45e-01	0	61	104	951058432	54	33414
2026-01-17 11:46:57.99	345.07	8.68	-41.6	-60.7	3.8	7.47e-01	0	61	104	951058432	54	33230
2026-01-17 11:46:59.00	345.06	8.59	-41.6	-60.7	3.8	7.47e-01	0	61	104	951058432	54	32976
2026-01-17 11:47:00.01	345.06	8.51	-41.6	-60.7	3.8	7.45e-01	0	61	104	951058432	54	33222
2026-01-17 11:47:01.02	345.05	8.42	-41.7	-60.8	3.8	7.46e-01	0	61	104	951058432	54	33588
2026-01-17 11:47:02.03	345.05	8.33	-41.7	-60.9	3.8	7.46e-01	0	61	104	951058432	54	33800
2026-01-17 11:47:03.04	345.05	8.24	-41.8	-60.8	3.8	7.44e-01	0	61	104	951058432	54	33647
2026-01-17 11:47:04.05	345.04	8.16	-41.7	-60.8	3.8	7.48e-01	0	61	104	951058432	54	33695
2026-01-17 11:47:05.06	345.04	8.07	-41.6	-60.6	3.8	7.46e-01	0	61	104	951058432	54	32900
2026-01-17 11:47:06.07	345.04	7.99	-41.6	-60.7	3.8	7.45e-01	0	61	104	951058432	54	33264
2026-01-17 11:47:07.08	345.03	7.90	-41.7	-60.9	3.8	7.43e-01	0	61	104	951058432	54	33938
2026-01-17 11:47:08.09	345.03	7.81	-44.1	-63.1	3.8	7.45e-01	0	61	104	951058432	58	34590
2026-01-17 11:47:09.10	345.02	7.73	-45.8	-64.5	3.9	7.48e-01	0	61	104	951058432	62	32376
2026-01-17 11:47:10.11	345.02	7.65	-46.1	-64.8	3.8	7.48e-01	0	61	104	951058432	62	33494
2026-01-17 11:47:11.12	345.02	7.56	-46.3	-64.9	3.8	7.45e-01	0	61	104	951058432	63	32059
