passes_logs/2026/01/17/R2.0S_Moscow/R2.0S_Moscow__20260117_050044_FENGYUN_3E_rec.log

#Pass ID: 20260117_050044_FENGYUN 3E
#Satellite: FENGYUN 3E
#Configuration: FENGYUN 3E
#almurnet v.1.7.20251203
#Start time: 2026-01-17 05:00:46

#Version: 2.2.20231116
#Station: R2.0S_Moscow
#Location: 37.707566 lon 55.798166 lat
#TLE: 1 49008U 21062A   26016.27412410  .00000434  00000+0  22502-3 0  9992
#TLE: 2 49008  98.7486  21.3880 0002096 134.9721 225.1626 14.19886506235025

#Time	Az	El	Level	Level2	SNR	BER	BlckErr	Temp	State	Recorded	gain1	gain2
2026-01-17 05:00:46.36	12.00	2.09	-40.3	-51.1	3.8	8.46e-01	0	51	0	0	51	12286
2026-01-17 05:00:47.37	11.96	2.15	-40.2	-51.1	3.8	8.46e-01	0	52	104	0	51	12315
2026-01-17 05:00:48.38	11.91	2.22	-40.2	-51.1	3.8	8.45e-01	0	52	104	0	51	12250
2026-01-17 05:00:49.39	11.87	2.28	-40.2	-51.1	3.8	8.46e-01	0	52	104	0	51	12260
2026-01-17 05:00:50.40	11.83	2.34	-40.2	-51.1	3.8	8.47e-01	0	52	104	0	51	12261
2026-01-17 05:00:51.41	11.79	2.40	-40.2	-51.1	3.8	8.48e-01	0	52	104	0	51	12303
2026-01-17 05:00:52.42	11.74	2.46	-40.2	-51.1	3.8	8.46e-01	0	52	104	0	51	12289
2026-01-17 05:00:53.43	11.70	2.53	-40.2	-51.1	3.8	8.45e-01	0	52	104	0	51	12306
2026-01-17 05:00:54.45	11.66	2.59	-40.2	-51.1	3.8	8.47e-01	0	52	104	0	51	12307
2026-01-17 05:00:55.46	11.61	2.65	-40.2	-51.1	3.8	8.46e-01	0	52	104	0	51	12299
2026-01-17 05:00:56.47	11.57	2.71	-40.2	-51.0	3.8	8.47e-01	0	52	104	0	51	12233
2026-01-17 05:00:57.48	11.53	2.78	-40.2	-51.1	3.8	8.46e-01	0	52	104	0	51	12288
2026-01-17 05:00:58.49	11.48	2.84	-40.2	-51.1	3.8	8.47e-01	0	53	104	0	51	12277
2026-01-17 05:00:59.50	11.44	2.90	-40.2	-51.1	3.8	8.46e-01	0	53	104	0	51	12248
2026-01-17 05:01:00.51	11.39	2.97	-40.2	-51.1	3.8	8.46e-01	0	53	104	0	51	12253
2026-01-17 05:01:01.52	11.35	3.03	-40.2	-51.1	3.8	8.47e-01	0	53	104	0	51	12273
2026-01-17 05:01:02.54	11.30	3.09	-40.2	-51.1	3.8	8.46e-01	0	53	104	0	51	12249
2026-01-17 05:01:03.55	11.26	3.16	-40.2	-51.0	3.8	8.46e-01	0	53	104	0	51	12211
2026-01-17 05:01:04.56	11.21	3.22	-40.2	-51.0	3.8	8.48e-01	0	53	104	0	51	12229
2026-01-17 05:01:05.57	11.17	3.29	-40.2	-51.1	3.8	8.47e-01	0	53	104	0	51	12262
2026-01-17 05:01:06.58	11.12	3.35	-40.2	-51.1	3.8	8.47e-01	0	53	104	0	51	12301
2026-01-17 05:01:07.59	11.08	3.41	-40.2	-51.1	3.8	8.46e-01	0	53	104	0	51	12265
2026-01-17 05:01:08.60	11.03	3.48	-40.2	-51.1	3.8	8.46e-01	0	54	104	0	51	12262
2026-01-17 05:01:09.61	10.98	3.54	-40.2	-51.0	3.8	8.46e-01	0	53	104	0	51	12188
2026-01-17 05:01:10.62	10.94	3.61	-40.2	-51.1	3.8	8.46e-01	0	53	104	0	51	12266
2026-01-17 05:01:11.63	10.89	3.67	-40.2	-51.1	3.8	8.46e-01	0	54	104	0	51	12274
2026-01-17 05:01:12.64	10.84	3.74	-40.2	-51.1	3.8	8.46e-01	0	54	104	0	51	12274
2026-01-17 05:01:13.66	10.80	3.80	-40.2	-51.0	3.8	8.46e-01	0	54	104	0	51	12227
2026-01-17 05:01:14.67	10.75	3.87	-40.2	-51.1	3.8	8.46e-01	0	54	104	0	51	12241
2026-01-17 05:01:15.68	10.70	3.93	-40.2	-51.1	3.8	8.45e-01	0	54	104	0	51	12271
2026-01-17 05:01:16.69	10.65	4.00	-40.2	-51.0	3.8	8.46e-01	0	54	104	0	51	12204
2026-01-17 05:01:17.70	10.60	4.06	-40.2	-51.0	3.8	8.47e-01	0	54	104	0	51	12204
2026-01-17 05:01:18.71	10.56	4.13	-40.2	-51.1	3.8	8.46e-01	0	54	104	0	51	12253
2026-01-17 05:01:19.72	10.51	4.19	-40.2	-51.1	3.8	8.46e-01	0	54	104	0	51	12246
2026-01-17 05:01:20.73	10.46	4.26	-40.2	-51.1	3.8	8.46e-01	0	54	104	0	51	12259
2026-01-17 05:01:21.74	10.41	4.33	-40.2	-51.1	3.8	8.46e-01	0	54	104	0	51	12255
2026-01-17 05:01:22.76	10.36	4.39	-40.2	-51.1	3.8	8.46e-01	0	54	104	0	51	12242
2026-01-17 05:01:23.77	10.31	4.46	-40.2	-51.1	3.8	8.47e-01	0	54	104	0	51	12267
2026-01-17 05:01:24.78	10.26	4.53	-40.2	-51.1	3.8	8.45e-01	0	54	104	0	51	12240
2026-01-17 05:01:25.79	10.21	4.59	-40.2	-51.0	3.8	8.46e-01	0	54	104	0	51	12211
2026-01-17 05:01:26.80	10.16	4.66	-40.2	-51.0	3.8	8.46e-01	0	54	104	0	51	12234
2026-01-17 05:01:27.81	10.11	4.73	-40.2	-51.0	3.8	8.46e-01	0	54	104	0	51	12218
2026-01-17 05:01:28.82	10.06	4.79	-40.2	-51.0	3.8	8.47e-01	0	55	104	0	51	12230
2026-01-17 05:01:29.83	10.01	4.86	-40.2	-51.0	3.8	8.46e-01	0	55	104	0	51	12229
2026-01-17 05:01:30.84	9.95	4.93	-40.2	-51.1	3.8	8.45e-01	0	55	104	0	51	12252
2026-01-17 05:01:31.85	9.90	5.00	-40.2	-51.0	3.8	8.46e-01	0	55	104	0	51	12217
2026-01-17 05:01:32.86	9.85	5.06	-40.2	-51.1	3.8	8.46e-01	0	55	104	0	51	12237
2026-01-17 05:01:33.87	9.80	5.13	-40.2	-51.0	3.8	8.46e-01	0	55	104	0	51	12196
2026-01-17 05:01:34.88	9.75	5.20	-40.2	-51.1	3.8	8.47e-01	0	55	104	0	51	12272
2026-01-17 05:01:35.90	9.69	5.27	-40.2	-51.0	3.8	8.46e-01	0	55	104	0	51	12222
2026-01-17 05:01:36.91	9.64	5.34	-40.2	-51.0	3.8	8.47e-01	0	55	104	0	51	12228
2026-01-17 05:01:37.92	9.59	5.40	-40.2	-51.0	3.8	8.47e-01	0	55	104	0	51	12216
2026-01-17 05:01:38.93	9.53	5.47	-40.2	-51.1	3.8	8.47e-01	0	55	104	0	51	12237
2026-01-17 05:01:39.94	9.48	5.54	-40.2	-51.1	3.8	8.47e-01	0	55	104	0	51	12242
2026-01-17 05:01:40.95	9.42	5.61	-40.2	-51.0	3.8	8.46e-01	0	55	104	0	51	12205
2026-01-17 05:01:41.96	9.37	5.68	-40.2	-51.1	3.8	8.45e-01	0	55	104	0	51	12250
2026-01-17 05:01:42.97	9.32	5.75	-40.2	-51.1	3.8	8.45e-01	0	55	104	0	51	12261
2026-01-17 05:01:43.99	9.26	5.82	-40.2	-51.1	3.8	8.46e-01	0	55	104	0	51	12243
2026-01-17 05:01:45.00	9.20	5.89	-40.2	-51.0	3.8	8.47e-01	0	55	104	0	51	12202
2026-01-17 05:01:46.01	9.15	5.96	-40.2	-51.0	3.8	8.47e-01	0	56	104	0	51	12207
2026-01-17 05:01:47.02	9.09	6.03	-40.2	-51.1	3.8	8.46e-01	0	56	104	0	51	12245
2026-01-17 05:01:48.03	9.04	6.10	-40.2	-51.0	3.8	8.47e-01	0	56	104	0	51	12220
2026-01-17 05:01:49.04	8.98	6.17	-40.2	-51.0	3.8	8.46e-01	0	56	104	0	51	12230
2026-01-17 05:01:50.05	8.92	6.24	-40.2	-51.0	3.8	8.46e-01	0	56	104	0	51	12203
2026-01-17 05:01:51.06	8.87	6.31	-40.2	-51.0	3.8	8.46e-01	0	56	104	0	51	12184
2026-01-17 05:01:52.07	8.81	6.38	-40.2	-51.0	3.8	8.45e-01	0	56	104	0	51	12192
2026-01-17 05:01:53.08	8.75	6.45	-40.2	-51.1	3.8	8.48e-01	0	56	104	0	51	12254
2026-01-17 05:01:54.09	8.69	6.52	-40.2	-51.1	3.8	8.46e-01	0	56	104	0	51	12257
2026-01-17 05:01:55.10	8.64	6.59	-40.2	-51.0	3.8	8.46e-01	0	56	104	0	51	12233
2026-01-17 05:01:56.11	8.58	6.66	-40.2	-51.0	3.8	8.45e-01	0	56	104	0	51	12223
2026-01-17 05:01:57.12	8.52	6.73	-40.2	-51.1	3.8	8.45e-01	0	56	104	0	51	12252
2026-01-17 05:01:58.14	8.46	6.81	-40.2	-51.0	3.8	8.45e-01	0	56	104	0	51	12225
2026-01-17 05:01:59.15	8.40	6.88	-40.2	-51.0	3.8	8.46e-01	0	56	104	0	51	12224
2026-01-17 05:02:00.16	8.34	6.95	-40.2	-51.0	3.8	8.46e-01	0	56	104	0	51	12176
2026-01-17 05:02:01.17	8.28	7.02	-40.2	-51.1	3.8	8.45e-01	0	56	104	0	51	12247
2026-01-17 05:02:02.18	8.22	7.09	-40.2	-51.0	3.8	8.46e-01	0	56	104	0	51	12211
2026-01-17 05:02:03.19	8.16	7.17	-40.2	-51.1	3.8	8.47e-01	0	56	104	0	51	12247
2026-01-17 05:02:04.20	8.10	7.24	-40.2	-51.0	3.8	8.46e-01	0	56	104	0	51	12201
2026-01-17 05:02:05.21	8.04	7.31	-40.2	-51.0	3.8	8.47e-01	0	56	104	0	51	12201
2026-01-17 05:02:06.22	7.98	7.38	-40.2	-51.1	3.8	8.46e-01	0	56	104	0	51	12277
2026-01-17 05:02:07.23	7.91	7.46	-40.2	-51.0	3.8	8.46e-01	0	56	104	0	51	12231
2026-01-17 05:02:08.24	7.85	7.53	-40.2	-51.1	3.8	8.47e-01	0	56	104	0	51	12260
2026-01-17 05:02:09.25	7.79	7.60	-40.2	-51.0	3.8	8.46e-01	0	57	104	0	51	12177
2026-01-17 05:02:10.27	7.73	7.68	-40.2	-51.1	3.8	8.45e-01	0	57	104	0	51	12252
2026-01-17 05:02:11.28	7.66	7.75	-40.2	-51.0	3.8	8.47e-01	0	57	104	0	51	12180
2026-01-17 05:02:12.29	7.60	7.83	-40.2	-51.1	3.8	8.46e-01	0	57	104	0	51	12266
2026-01-17 05:02:13.30	7.53	7.90	-40.2	-51.0	3.8	8.46e-01	0	57	104	0	51	12209
2026-01-17 05:02:14.31	7.47	7.98	-40.2	-51.0	3.8	8.46e-01	0	57	104	0	51	12199
2026-01-17 05:02:15.32	7.41	8.05	-40.2	-51.1	3.8	8.47e-01	0	57	104	0	51	12235
2026-01-17 05:02:16.33	7.34	8.12	-40.3	-51.1	3.8	8.46e-01	0	57	104	0	51	12290
2026-01-17 05:02:17.34	7.27	8.20	-40.3	-51.2	3.8	8.46e-01	0	57	104	0	51	12422
2026-01-17 05:02:18.35	7.21	8.27	-40.3	-51.1	3.8	8.46e-01	0	57	104	0	51	12327
2026-01-17 05:02:19.36	7.14	8.35	-40.3	-51.2	3.8	8.46e-01	0	57	104	0	51	12407
2026-01-17 05:02:20.37	7.08	8.43	-40.3	-51.2	3.8	8.46e-01	0	57	104	0	51	12397
2026-01-17 05:02:21.38	7.01	8.50	-40.4	-51.2	3.8	8.47e-01	0	57	104	0	51	12446
2026-01-17 05:02:22.39	6.94	8.58	-40.3	-51.2	3.8	8.45e-01	0	57	104	0	51	12429
2026-01-17 05:02:23.39	6.88	8.65	-40.4	-51.2	3.8	8.46e-01	0	57	104	0	51	12434
2026-01-17 05:02:24.40	6.81	8.73	-40.3	-51.1	3.8	8.45e-01	0	57	104	0	51	12289
2026-01-17 05:02:25.41	6.74	8.81	-40.3	-51.2	3.8	8.47e-01	0	57	104	0	51	12376
2026-01-17 05:02:26.42	6.67	8.88	-40.3	-51.1	3.8	8.46e-01	0	57	104	0	51	12238
2026-01-17 05:02:27.43	6.60	8.96	-40.4	-51.1	3.8	8.46e-01	0	57	104	0	51	12359
2026-01-17 05:02:28.45	6.53	9.04	-40.3	-51.1	3.8	8.47e-01	0	57	104	0	51	12334
2026-01-17 05:02:29.46	6.46	9.11	-40.3	-51.2	3.8	8.47e-01	0	57	104	0	51	12438
2026-01-17 05:02:30.47	6.39	9.19	-40.3	-51.2	3.8	8.47e-01	0	57	104	0	51	12404
2026-01-17 05:02:31.48	6.32	9.27	-40.4	-51.2	3.8	8.47e-01	0	57	104	0	51	12407
2026-01-17 05:02:32.49	6.25	9.35	-40.3	-51.1	3.8	8.46e-01	0	57	104	0	51	12281
2026-01-17 05:02:33.50	6.18	9.42	-40.4	-51.2	3.8	8.45e-01	0	57	104	0	51	12429
2026-01-17 05:02:34.51	6.11	9.50	-40.3	-51.2	3.8	8.45e-01	0	57	104	0	51	12378
2026-01-17 05:02:35.52	6.03	9.58	-40.4	-51.2	3.8	8.46e-01	0	57	104	0	51	12465
2026-01-17 05:02:36.53	5.96	9.66	-40.4	-51.3	3.8	8.46e-01	0	58	104	0	51	12533
2026-01-17 05:02:37.54	5.89	9.74	-40.4	-51.3	3.8	8.46e-01	0	58	104	0	51	12620
2026-01-17 05:02:38.55	5.81	9.82	-40.5	-51.4	3.8	8.48e-01	0	58	104	0	51	12691
2026-01-17 05:02:39.56	5.74	9.90	-40.4	-51.3	3.8	8.45e-01	0	58	104	0	51	12540
2026-01-17 05:02:40.57	5.67	9.98	-40.2	-51.0	3.8	8.46e-01	0	57	104	0	51	12216
2026-01-17 05:02:41.58	5.59	10.06	-40.2	-51.0	3.8	8.46e-01	0	58	104	0	51	12197
2026-01-17 05:02:42.59	5.52	10.14	-40.2	-51.0	3.8	8.46e-01	0	58	104	0	51	12159
2026-01-17 05:02:43.60	5.44	10.22	-40.2	-51.0	3.8	8.45e-01	0	58	104	0	51	12225
2026-01-17 05:02:44.61	5.36	10.30	-40.2	-51.1	3.8	8.46e-01	0	58	104	0	51	12249
2026-01-17 05:02:45.62	5.29	10.38	-40.7	-51.6	3.8	8.46e-01	0	58	104	0	51	13016
2026-01-17 05:02:46.63	5.21	10.46	-40.7	-51.5	3.8	8.46e-01	0	58	104	0	51	12837
2026-01-17 05:02:47.64	5.13	10.54	-40.3	-51.1	3.8	8.47e-01	0	58	104	0	51	12306
2026-01-17 05:02:48.65	5.05	10.62	-40.3	-51.1	3.8	8.47e-01	0	58	104	0	51	12345
2026-01-17 05:02:49.66	4.98	10.70	-40.3	-51.1	3.8	8.45e-01	0	58	104	0	51	12295
2026-01-17 05:02:50.67	4.90	10.78	-40.4	-51.2	3.8	8.46e-01	0	58	104	0	51	12385
2026-01-17 05:02:51.68	4.82	10.86	-40.7	-51.5	3.8	8.47e-01	0	58	104	0	51	12829
2026-01-17 05:02:52.69	4.74	10.95	-41.0	-51.7	3.8	8.46e-01	0	58	104	0	51	13146
2026-01-17 05:02:53.70	4.66	11.03	-40.8	-51.6	3.8	8.46e-01	0	58	104	0	51	13038
2026-01-17 05:02:54.71	4.58	11.11	-41.2	-52.0	3.8	8.47e-01	0	58	104	0	51	13651
2026-01-17 05:02:55.72	4.50	11.19	-40.6	-51.4	3.8	8.47e-01	0	58	104	0	52	12033
2026-01-17 05:02:56.73	4.42	11.28	-40.5	-51.3	3.8	8.45e-01	0	58	104	0	51	12613
2026-01-17 05:02:57.74	4.33	11.36	-40.5	-51.4	3.8	8.46e-01	0	58	104	0	51	12719
2026-01-17 05:02:58.75	4.25	11.44	-40.5	-51.3	3.8	8.47e-01	0	58	104	0	51	12657
2026-01-17 05:02:59.76	4.17	11.53	-40.5	-51.4	3.8	8.47e-01	0	58	104	0	51	12711
2026-01-17 05:03:00.77	4.08	11.61	-40.7	-51.5	3.8	8.47e-01	0	58	104	0	51	12927
2026-01-17 05:03:01.78	4.00	11.69	-41.1	-51.9	3.8	8.47e-01	0	58	104	0	51	13567
2026-01-17 05:03:02.79	3.91	11.78	-41.5	-51.8	3.8	8.46e-01	0	58	104	0	52	12535
2026-01-17 05:03:03.80	3.83	11.86	-40.8	-51.6	3.8	8.47e-01	0	58	104	0	52	12280
2026-01-17 05:03:04.81	3.74	11.95	-40.6	-51.5	3.8	8.46e-01	0	58	104	0	52	12124
2026-01-17 05:03:05.82	3.66	12.03	-40.6	-51.4	3.8	8.46e-01	0	58	104	0	52	12068
2026-01-17 05:03:06.83	3.57	12.12	-40.6	-51.5	3.8	8.45e-01	0	58	104	0	52	12125
2026-01-17 05:03:07.84	3.48	12.20	-40.7	-51.6	3.8	8.47e-01	0	58	104	0	52	12302
2026-01-17 05:03:08.85	3.40	12.29	-40.6	-51.4	3.8	8.45e-01	0	58	104	0	52	11959
2026-01-17 05:03:09.86	3.31	12.37	-41.6	-52.4	3.8	8.45e-01	0	58	104	0	52	13473
2026-01-17 05:03:10.86	3.22	12.46	-40.9	-51.8	3.8	8.46e-01	0	58	104	0	52	12572
2026-01-17 05:03:11.87	3.13	12.55	-40.7	-51.4	3.8	8.46e-01	0	58	104	0	52	12079
2026-01-17 05:03:12.88	3.04	12.63	-40.6	-51.4	3.8	8.45e-01	0	58	104	0	52	11995
2026-01-17 05:03:13.90	2.95	12.72	-40.7	-51.5	3.8	8.47e-01	0	59	104	0	52	12216
2026-01-17 05:03:14.91	2.86	12.81	-40.7	-51.5	3.8	8.45e-01	0	59	104	0	52	12128
2026-01-17 05:03:15.92	2.77	12.89	-40.9	-51.5	3.8	8.47e-01	0	59	104	0	52	12141
2026-01-17 05:03:16.93	2.67	12.98	-40.8	-51.6	3.8	8.45e-01	0	59	104	0	52	12250
2026-01-17 05:03:17.94	2.58	13.07	-41.7	-48.5	4.8	8.02e-01	0	59	0	0	52	8626
2026-01-17 05:03:18.95	2.49	13.16	-41.5	-47.1	5.7	3.73e-01	0	59	0	2097152	53	6888
2026-01-17 05:03:19.96	2.39	13.25	-41.6	-51.7	3.8	7.60e-01	0	59	104	7340032	52	12518
2026-01-17 05:03:20.97	2.30	13.33	-40.1	-43.9	8.5	7.26e-02	0	59	0	8388608	51	5347
2026-01-17 05:03:21.98	2.21	13.42	-39.5	-42.6	9.8	1.45e-02	0	59	0	15728640	50	4919
2026-01-17 05:03:22.99	2.11	13.51	-39.3	-42.2	10.2	5.50e-03	0	59	0	23068672	49	4982
2026-01-17 05:03:24.00	2.01	13.60	-39.0	-41.8	10.8	2.91e-03	0	59	0	29360128	49	4724
2026-01-17 05:03:25.01	1.92	13.69	-38.6	-41.2	11.4	1.08e-03	0	59	0	37748736	48	4685
2026-01-17 05:03:26.02	1.82	13.78	-38.2	-40.6	11.9	3.26e-04	0	59	0	45088768	47	4647
2026-01-17 05:03:27.02	1.72	13.87	-38.2	-40.5	12.0	3.43e-04	0	59	0	51380224	47	4580
2026-01-17 05:03:28.03	1.62	13.96	-38.1	-40.4	12.2	2.09e-04	0	59	0	58720256	47	4528
2026-01-17 05:03:29.04	1.52	14.05	-37.8	-40.1	12.5	1.14e-04	0	59	0	66060288	46	4609
2026-01-17 05:03:30.05	1.42	14.14	-37.6	-39.8	12.9	4.92e-05	0	59	0	73400320	46	4443
2026-01-17 05:03:31.06	1.32	14.23	-37.9	-40.1	12.5	6.52e-05	0	59	0	80740352	46	4629
2026-01-17 05:03:32.07	1.22	14.32	-37.8	-39.9	12.8	4.80e-05	0	59	0	88080384	46	4541
2026-01-17 05:03:33.08	1.12	14.41	-37.8	-40.0	12.8	5.37e-05	0	59	0	95420416	46	4560
2026-01-17 05:03:34.09	1.02	14.51	-37.8	-39.9	13.0	3.89e-05	0	59	0	102760448	46	4545
2026-01-17 05:03:35.10	0.91	14.60	-37.5	-39.5	13.5	9.10e-06	0	59	0	110100480	46	4318
2026-01-17 05:03:36.11	0.81	14.69	-37.2	-38.9	14.1	9.10e-06	0	59	0	117440512	45	4291
2026-01-17 05:03:37.12	0.71	14.78	-37.0	-38.8	14.5	0.00e+00	0	59	0	124780544	44	4447
2026-01-17 05:03:38.13	0.60	14.88	-37.1	-38.8	14.6	0.00e+00	0	59	0	132120576	44	4465
2026-01-17 05:03:39.14	0.50	14.97	-37.5	-39.2	14.2	0.00e+00	0	59	0	139460608	44	4700
2026-01-17 05:03:40.15	0.39	15.06	-37.7	-39.6	14.0	0.00e+00	0	59	0	146800640	44	4892
2026-01-17 05:03:41.16	0.28	15.16	-37.6	-39.4	14.1	0.00e+00	0	59	0	154140672	45	4537
2026-01-17 05:03:42.17	0.17	15.25	-37.3	-39.0	14.7	0.00e+00	0	59	0	161480704	45	4322
2026-01-17 05:03:43.18	0.06	15.34	-37.3	-39.0	14.7	0.00e+00	0	59	0	168820736	45	4297
2026-01-17 05:03:44.19	359.96	15.44	-37.4	-39.2	14.6	0.00e+00	0	59	0	176160768	45	4399
2026-01-17 05:03:45.20	359.85	15.53	-37.4	-39.2	14.6	0.00e+00	0	59	0	183500800	45	4410
2026-01-17 05:03:46.21	359.73	15.63	-37.1	-38.8	15.0	0.00e+00	0	59	0	190840832	45	4198
2026-01-17 05:03:47.22	359.62	15.72	-37.1	-38.8	15.0	0.00e+00	0	59	0	198180864	44	4458
2026-01-17 05:03:48.23	359.51	15.82	-37.2	-38.8	15.0	0.00e+00	0	59	0	204472320	44	4473
2026-01-17 05:03:49.24	359.40	15.91	-37.1	-38.7	15.1	0.00e+00	0	59	0	211812352	44	4429
2026-01-17 05:03:50.25	359.28	16.01	-37.2	-38.8	15.0	0.00e+00	0	59	0	219152384	44	4462
2026-01-17 05:03:51.26	359.17	16.10	-37.0	-38.6	15.2	0.00e+00	0	59	0	226492416	44	4389
2026-01-17 05:03:52.27	359.05	16.20	-37.1	-38.7	15.1	1.10e-06	0	59	0	233832448	44	4415
2026-01-17 05:03:53.28	358.94	16.30	-37.0	-38.7	15.2	0.00e+00	0	59	0	241172480	44	4392
2026-01-17 05:03:54.29	358.82	16.39	-37.1	-38.7	15.2	0.00e+00	0	59	0	248512512	44	4404
2026-01-17 05:03:55.30	358.70	16.49	-37.0	-38.5	15.3	0.00e+00	0	59	0	255852544	44	4338
2026-01-17 05:03:56.31	358.59	16.59	-36.9	-38.4	15.3	0.00e+00	0	60	0	263192576	44	4291
2026-01-17 05:03:57.32	358.47	16.69	-36.6	-38.2	15.4	0.00e+00	0	59	0	270532608	43	4413
2026-01-17 05:03:58.33	358.35	16.78	-36.5	-38.0	15.5	0.00e+00	0	59	0	277872640	43	4337
2026-01-17 05:03:59.34	358.23	16.88	-36.4	-37.9	15.6	0.00e+00	0	59	0	285212672	43	4264
2026-01-17 05:04:00.35	358.10	16.98	-36.4	-37.9	15.5	0.00e+00	0	59	0	292552704	43	4280
2026-01-17 05:04:01.36	357.98	17.08	-36.5	-38.1	15.3	0.00e+00	0	59	0	299892736	43	4364
2026-01-17 05:04:02.37	357.86	17.18	-36.4	-38.0	15.3	0.00e+00	0	59	0	307232768	43	4309
2026-01-17 05:04:03.38	357.73	17.28	-36.4	-38.0	15.3	0.00e+00	0	59	0	314572800	43	4305
2026-01-17 05:04:04.39	357.61	17.38	-36.4	-38.0	15.3	0.00e+00	0	59	0	321912832	43	4295
2026-01-17 05:04:05.40	357.48	17.48	-36.1	-37.6	15.6	0.00e+00	0	59	0	328204288	43	4130
2026-01-17 05:04:06.41	357.36	17.58	-36.1	-37.7	15.6	0.00e+00	0	60	0	336592896	43	4154
2026-01-17 05:04:07.42	357.23	17.68	-35.8	-37.3	15.8	0.00e+00	0	59	0	343932928	42	4226
2026-01-17 05:04:08.43	357.10	17.78	-36.1	-37.7	15.5	0.00e+00	0	59	0	350224384	42	4397
2026-01-17 05:04:09.44	356.97	17.88	-36.1	-37.6	15.4	0.00e+00	0	59	0	357564416	42	4377
2026-01-17 05:04:10.45	356.84	17.98	-36.0	-37.6	15.4	0.00e+00	0	60	0	364904448	42	4355
2026-01-17 05:04:11.46	356.71	18.08	-36.2	-37.8	15.1	0.00e+00	0	60	0	372244480	42	4455
2026-01-17 05:04:12.47	356.58	18.18	-36.4	-38.0	14.8	1.10e-06	0	60	0	379584512	42	4590
2026-01-17 05:04:13.48	356.45	18.28	-36.9	-38.7	14.0	1.10e-06	0	60	0	386924544	43	4690
2026-01-17 05:04:14.49	356.31	18.39	-37.7	-39.8	12.9	9.10e-06	0	60	0	394264576	44	5021
2026-01-17 05:04:15.50	356.18	18.49	-38.4	-40.9	11.6	3.72e-04	0	60	0	401604608	46	5063
2026-01-17 05:04:16.51	356.04	18.59	-39.2	-42.1	10.1	2.89e-03	0	60	0	408944640	47	5513
2026-01-17 05:04:17.52	355.90	18.69	-39.9	-43.5	8.7	2.07e-02	0	60	0	416284672	49	5750
2026-01-17 05:04:18.53	355.77	18.80	-40.5	-44.7	7.4	8.12e-02	0	60	0	423624704	50	6219
2026-01-17 05:04:19.53	355.63	18.90	-40.9	-46.2	6.0	2.78e-01	0	60	0	430964736	51	6970
2026-01-17 05:04:20.54	355.49	19.00	-41.4	-48.4	4.5	7.94e-01	0	60	0	433061888	52	8483
2026-01-17 05:04:21.55	355.35	19.11	-41.6	-50.0	4.0	8.42e-01	0	60	0	433061888	52	10279
2026-01-17 05:04:22.56	355.21	19.21	-41.5	-49.9	3.9	8.42e-01	0	60	104	433061888	52	10170
2026-01-17 05:04:23.57	355.07	19.32	-41.4	-49.5	4.1	8.40e-01	0	60	0	433061888	52	9617
2026-01-17 05:04:24.58	354.92	19.42	-41.3	-48.9	4.3	8.35e-01	0	60	0	433061888	52	9047
2026-01-17 05:04:25.59	354.78	19.52	-41.4	-49.0	4.2	8.32e-01	0	60	0	433061888	52	9168
2026-01-17 05:04:26.60	354.63	19.63	-41.5	-49.5	4.1	8.37e-01	0	60	0	433061888	52	9669
2026-01-17 05:04:27.61	354.49	19.74	-41.5	-49.2	4.2	8.37e-01	0	60	0	433061888	52	9347
2026-01-17 05:04:28.62	354.34	19.84	-41.5	-49.1	4.3	8.35e-01	0	60	0	433061888	52	9178
2026-01-17 05:04:29.63	354.19	19.95	-41.4	-48.6	4.4	8.26e-01	0	60	0	433061888	52	8724
2026-01-17 05:04:30.64	354.04	20.05	-41.4	-48.3	4.5	8.19e-01	0	60	0	433061888	52	8461
2026-01-17 05:04:31.65	353.89	20.16	-41.3	-47.9	4.7	8.10e-01	0	60	0	433061888	52	8080
2026-01-17 05:04:32.66	353.74	20.27	-41.2	-46.9	5.4	7.30e-01	0	60	0	433061888	52	7186
2026-01-17 05:04:33.66	353.59	20.37	-40.8	-45.7	6.5	2.89e-01	0	60	0	438304768	52	6214
2026-01-17 05:04:34.67	353.43	20.48	-40.6	-44.9	7.4	1.38e-01	0	60	0	445644800	52	5664
2026-01-17 05:04:35.68	353.28	20.59	-40.7	-44.8	7.5	1.06e-01	0	60	0	451936256	52	5648
2026-01-17 05:04:36.69	353.12	20.69	-40.6	-44.7	7.6	1.04e-01	0	60	0	459276288	52	5576
2026-01-17 05:04:37.70	352.96	20.80	-40.5	-44.6	7.8	8.27e-02	0	60	0	466616320	52	5474
2026-01-17 05:04:38.71	352.81	20.91	-40.5	-44.3	8.2	6.02e-02	0	60	0	473956352	51	5618
2026-01-17 05:04:39.72	352.65	21.02	-40.1	-43.6	9.1	2.91e-02	0	60	0	481296384	51	5162
2026-01-17 05:04:40.73	352.49	21.13	-39.5	-42.4	10.3	8.35e-03	0	60	0	488636416	50	4763
2026-01-17 05:04:41.74	352.32	21.23	-38.6	-41.0	11.7	8.46e-04	0	60	0	495976448	48	4596
2026-01-17 05:04:42.75	352.16	21.34	-37.7	-39.8	12.8	9.95e-05	0	60	0	503316480	46	4470
2026-01-17 05:04:43.76	352.00	21.45	-37.1	-39.1	13.6	1.37e-05	0	60	0	510656512	45	4352
2026-01-17 05:04:44.77	351.83	21.56	-36.7	-38.5	14.3	2.20e-06	0	60	0	517996544	44	4304
2026-01-17 05:04:45.79	351.66	21.67	-36.0	-37.7	14.9	0.00e+00	0	60	0	525336576	43	4174
2026-01-17 05:04:46.79	351.50	21.78	-35.9	-37.5	15.2	0.00e+00	0	60	0	532676608	42	4307
2026-01-17 05:04:47.80	351.33	21.89	-35.5	-37.0	15.7	0.00e+00	0	60	0	540016640	42	4077
2026-01-17 05:04:48.81	351.16	22.00	-35.3	-36.8	16.0	0.00e+00	0	60	0	547356672	41	4215
2026-01-17 05:04:49.82	350.99	22.11	-35.4	-36.8	16.0	0.00e+00	0	60	0	554696704	41	4233
2026-01-17 05:04:50.83	350.81	22.22	-35.4	-36.8	16.1	0.00e+00	0	60	0	562036736	41	4225
2026-01-17 05:04:51.84	350.64	22.33	-35.4	-36.9	16.1	0.00e+00	0	60	0	569376768	41	4246
2026-01-17 05:04:52.85	350.46	22.45	-35.6	-37.1	15.9	0.00e+00	0	60	0	576716800	41	4344
2026-01-17 05:04:53.86	350.29	22.56	-35.7	-37.1	15.9	0.00e+00	0	60	0	584056832	41	4388
2026-01-17 05:04:54.87	350.11	22.67	-35.9	-37.4	15.7	0.00e+00	0	60	0	591396864	41	4535
2026-01-17 05:04:55.88	349.93	22.78	-36.2	-37.7	15.6	0.00e+00	0	60	0	598736896	42	4415
2026-01-17 05:04:56.89	349.75	22.89	-36.2	-37.7	15.8	0.00e+00	0	60	0	605028352	42	4435
2026-01-17 05:04:57.90	349.57	23.00	-36.1	-37.5	16.0	0.00e+00	0	60	0	612368384	42	4337
2026-01-17 05:04:58.91	349.39	23.12	-35.9	-37.3	16.4	0.00e+00	0	60	0	620756992	42	4196
2026-01-17 05:04:59.92	349.20	23.23	-35.7	-37.0	16.7	0.00e+00	0	60	0	627048448	42	4085
2026-01-17 05:05:00.93	349.02	23.34	-35.8	-37.2	16.7	0.00e+00	0	60	0	634388480	42	4147
2026-01-17 05:05:01.94	348.83	23.45	-36.0	-37.3	16.6	0.00e+00	0	60	0	641728512	42	4229
2026-01-17 05:05:02.95	348.64	23.57	-36.2	-37.6	16.4	0.00e+00	0	60	0	649068544	42	4359
2026-01-17 05:05:03.96	348.45	23.68	-35.9	-37.2	16.8	0.00e+00	0	60	0	656408576	42	4184
2026-01-17 05:05:04.97	348.26	23.79	-35.8	-37.2	16.9	0.00e+00	0	60	0	663748608	42	4165
2026-01-17 05:05:05.98	348.07	23.90	-35.6	-36.9	17.1	0.00e+00	0	60	0	671088640	42	4050
2026-01-17 05:05:06.99	347.87	24.02	-35.8	-37.1	17.0	0.00e+00	0	60	0	678428672	42	4130
2026-01-17 05:05:08.00	347.68	24.13	-35.6	-36.9	17.2	0.00e+00	0	60	0	685768704	42	4034
2026-01-17 05:05:09.01	347.48	24.25	-35.6	-36.9	17.4	0.00e+00	0	60	0	693108736	42	4013
2026-01-17 05:05:10.02	347.28	24.36	-35.6	-36.9	17.4	0.00e+00	0	60	0	700448768	41	4247
2026-01-17 05:05:11.03	347.08	24.47	-35.3	-36.6	17.7	0.00e+00	0	60	0	707788800	41	4107
2026-01-17 05:05:12.04	346.88	24.59	-35.3	-36.5	17.8	0.00e+00	0	60	0	715128832	41	4084
2026-01-17 05:05:13.04	346.68	24.70	-35.4	-36.6	17.7	0.00e+00	0	60	0	722468864	41	4120
2026-01-17 05:05:14.05	346.47	24.81	-35.3	-36.5	17.8	0.00e+00	0	60	0	729808896	41	4088
2026-01-17 05:05:15.06	346.27	24.93	-35.2	-36.4	17.9	0.00e+00	0	60	0	737148928	41	4030
2026-01-17 05:05:16.07	346.06	25.04	-35.4	-36.6	17.8	0.00e+00	0	60	0	744488960	41	4125
2026-01-17 05:05:17.08	345.85	25.16	-35.4	-36.6	17.8	0.00e+00	0	60	0	750780416	41	4127
2026-01-17 05:05:18.09	345.64	25.27	-35.5	-36.7	17.7	0.00e+00	0	60	0	758120448	41	4174
2026-01-17 05:05:19.10	345.43	25.39	-35.5	-36.8	17.6	0.00e+00	0	60	0	766509056	41	4211
2026-01-17 05:05:20.11	345.21	25.50	-35.5	-36.7	17.7	0.00e+00	0	60	0	772800512	41	4187
2026-01-17 05:05:21.12	345.00	25.62	-35.6	-36.9	17.6	0.00e+00	0	60	0	780140544	41	4253
2026-01-17 05:05:22.13	344.78	25.73	-35.6	-36.8	17.6	0.00e+00	0	60	0	787480576	41	4235
2026-01-17 05:05:23.14	344.56	25.85	-35.6	-36.8	17.7	0.00e+00	0	60	0	794820608	41	4216
2026-01-17 05:05:24.15	344.34	25.96	-35.5	-36.7	17.8	0.00e+00	0	60	0	802160640	41	4183
2026-01-17 05:05:25.16	344.12	26.08	-35.6	-36.9	17.7	0.00e+00	0	60	0	809500672	41	4254
2026-01-17 05:05:26.17	343.90	26.19	-35.5	-36.7	17.9	0.00e+00	0	60	0	816840704	41	4186
2026-01-17 05:05:27.18	343.67	26.30	-35.4	-36.7	17.9	0.00e+00	0	60	0	824180736	41	4149
2026-01-17 05:05:28.19	343.45	26.42	-35.5	-36.7	17.9	0.00e+00	0	60	0	831520768	41	4186
2026-01-17 05:05:29.20	343.22	26.53	-35.5	-36.7	17.9	0.00e+00	0	60	0	838860800	41	4179
2026-01-17 05:05:30.21	342.99	26.65	-35.5	-36.7	17.9	0.00e+00	0	60	0	846200832	41	4187
2026-01-17 05:05:31.21	342.76	26.76	-35.5	-36.7	17.9	0.00e+00	0	60	0	853540864	41	4172
2026-01-17 05:05:32.22	342.53	26.88	-35.5	-36.7	18.0	0.00e+00	0	60	0	860880896	41	4170
2026-01-17 05:05:33.23	342.29	26.99	-35.4	-36.6	18.1	0.00e+00	0	60	0	868220928	41	4133
2026-01-17 05:05:34.24	342.05	27.11	-35.5	-36.6	18.1	0.00e+00	0	60	0	875560960	41	4137
2026-01-17 05:05:35.25	341.82	27.22	-35.4	-36.6	18.1	0.00e+00	0	60	0	881852416	41	4108
2026-01-17 05:05:36.26	341.58	27.34	-35.5	-36.7	18.0	0.00e+00	0	60	0	890241024	41	4165
2026-01-17 05:05:37.27	341.33	27.45	-35.5	-36.7	18.0	0.00e+00	0	60	0	897581056	41	4191
2026-01-17 05:05:38.28	341.09	27.57	-35.7	-36.9	17.9	0.00e+00	0	60	0	903872512	41	4244
2026-01-17 05:05:39.29	340.84	27.68	-35.7	-36.9	17.9	0.00e+00	0	60	0	911212544	41	4253
2026-01-17 05:05:40.30	340.60	27.79	-35.7	-36.9	17.8	0.00e+00	0	60	0	918552576	41	4291
2026-01-17 05:05:41.31	340.35	27.91	-35.6	-36.8	18.0	0.00e+00	0	60	0	925892608	41	4194
2026-01-17 05:05:42.32	340.10	28.02	-35.6	-36.8	18.0	0.00e+00	0	60	0	933232640	41	4200
2026-01-17 05:05:43.33	339.84	28.14	-35.6	-36.8	18.0	0.00e+00	0	60	0	940572672	41	4198
2026-01-17 05:05:44.34	339.59	28.25	-35.6	-36.8	18.0	0.00e+00	0	60	0	947912704	41	4223
2026-01-17 05:05:45.35	339.33	28.36	-35.6	-36.8	18.0	0.00e+00	0	60	0	955252736	41	4215
2026-01-17 05:05:46.36	339.07	28.48	-35.5	-36.7	18.1	0.00e+00	0	60	0	962592768	41	4174
2026-01-17 05:05:47.37	338.81	28.59	-35.5	-36.7	18.2	0.00e+00	0	61	0	969932800	41	4147
2026-01-17 05:05:48.38	338.55	28.70	-35.6	-36.8	18.1	0.00e+00	0	60	0	977272832	41	4200
2026-01-17 05:05:49.38	338.29	28.81	-35.5	-36.7	18.2	0.00e+00	0	60	0	984612864	41	4147
2026-01-17 05:05:50.39	338.03	28.93	-35.5	-36.6	18.2	0.00e+00	0	60	0	991952896	41	4141
2026-01-17 05:05:51.40	337.76	29.04	-35.4	-36.6	18.3	0.00e+00	0	60	0	999292928	41	4100
2026-01-17 05:05:52.41	337.49	29.15	-35.3	-36.5	18.4	0.00e+00	0	60	0	1006632960	41	4071
2026-01-17 05:05:53.42	337.22	29.26	-35.2	-36.4	18.5	0.00e+00	0	61	0	1013972992	41	4026
2026-01-17 05:05:54.43	336.94	29.37	-35.2	-36.4	18.5	0.00e+00	0	61	0	1021313024	41	4008
2026-01-17 05:05:55.44	336.67	29.48	-35.1	-36.2	18.7	0.00e+00	0	60	0	1027604480	41	3951
2026-01-17 05:05:56.45	336.39	29.59	-35.1	-36.3	18.7	0.00e+00	0	61	0	1034944512	41	3963
2026-01-17 05:05:57.46	336.11	29.71	-35.1	-36.2	18.7	0.00e+00	0	60	0	1043333120	40	4156
2026-01-17 05:05:58.47	335.83	29.82	-35.2	-36.3	18.6	0.00e+00	0	61	0	1049624576	40	4226
2026-01-17 05:05:59.48	335.55	29.93	-35.2	-36.3	18.6	0.00e+00	0	60	0	1056964608	40	4238
2026-01-17 05:06:00.49	335.26	30.03	-35.2	-36.4	18.6	0.00e+00	0	60	0	1064304640	40	4243
2026-01-17 05:06:01.50	334.98	30.14	-35.2	-36.4	18.6	0.00e+00	0	60	0	1071644672	40	4256
2026-01-17 05:06:02.51	334.69	30.25	-35.3	-36.4	18.5	0.00e+00	0	61	0	1078984704	40	4264
2026-01-17 05:06:03.52	334.40	30.36	-35.3	-36.4	18.5	0.00e+00	0	60	0	1086324736	40	4267
2026-01-17 05:06:04.53	334.10	30.47	-35.2	-36.3	18.6	0.00e+00	0	60	0	1093664768	40	4225
2026-01-17 05:06:05.54	333.81	30.58	-35.1	-36.2	18.7	0.00e+00	0	61	0	1101004800	40	4188
2026-01-17 05:06:06.55	333.51	30.68	-35.2	-36.3	18.6	0.00e+00	0	60	0	1108344832	40	4223
2026-01-17 05:06:07.56	333.21	30.79	-35.1	-36.2	18.7	0.00e+00	0	61	0	1115684864	40	4193
2026-01-17 05:06:08.57	332.91	30.89	-35.3	-36.4	18.6	0.00e+00	0	61	0	1123024896	40	4265
2026-01-17 05:06:09.58	332.61	31.00	-35.2	-36.4	18.6	0.00e+00	0	61	0	1130364928	40	4252
2026-01-17 05:06:10.59	332.30	31.10	-35.2	-36.3	18.6	0.00e+00	0	61	0	1137704960	40	4221
2026-01-17 05:06:11.60	332.00	31.21	-35.2	-36.3	18.6	0.00e+00	0	60	0	1145044992	40	4217
2026-01-17 05:06:12.61	331.69	31.31	-35.1	-36.2	18.8	0.00e+00	0	61	0	1152385024	40	4166
2026-01-17 05:06:13.61	331.38	31.41	-35.0	-36.0	18.9	0.00e+00	0	60	0	1159725056	40	4097
2026-01-17 05:06:14.62	331.07	31.52	-34.8	-35.9	19.0	0.00e+00	0	60	0	1167065088	40	4034
2026-01-17 05:06:15.63	330.75	31.62	-34.8	-35.9	19.1	0.00e+00	0	61	0	1174405120	40	4033
2026-01-17 05:06:16.64	330.44	31.72	-34.7	-35.8	19.1	0.00e+00	0	60	0	1180696576	40	3986
2026-01-17 05:06:17.65	330.12	31.82	-34.9	-36.0	19.0	0.00e+00	0	60	0	1189085184	40	4057
2026-01-17 05:06:18.66	329.80	31.92	-34.9	-36.0	19.0	0.00e+00	0	60	0	1196425216	40	4061
2026-01-17 05:06:19.67	329.47	32.02	-35.0	-36.1	18.8	0.00e+00	0	61	0	1202716672	40	4140
2026-01-17 05:06:20.68	329.15	32.12	-35.1	-36.2	18.8	0.00e+00	0	61	0	1210056704	40	4161
2026-01-17 05:06:21.69	328.82	32.22	-35.0	-36.1	18.8	0.00e+00	0	61	0	1217396736	40	4134
2026-01-17 05:06:22.70	328.49	32.31	-35.1	-36.2	18.8	0.00e+00	0	60	0	1224736768	40	4172
2026-01-17 05:06:23.71	328.16	32.41	-35.0	-36.2	18.8	0.00e+00	0	61	0	1232076800	40	4154
2026-01-17 05:06:24.73	327.83	32.51	-35.0	-36.1	18.8	0.00e+00	0	60	0	1239416832	40	4132
2026-01-17 05:06:25.74	327.49	32.60	-35.0	-36.1	18.9	0.00e+00	0	60	0	1246756864	40	4127
2026-01-17 05:06:26.75	327.16	32.70	-35.0	-36.1	18.9	0.00e+00	0	60	0	1254096896	40	4129
2026-01-17 05:06:27.76	326.82	32.79	-34.9	-36.0	18.9	0.00e+00	0	61	0	1261436928	40	4081
2026-01-17 05:06:28.77	326.48	32.88	-35.0	-36.1	18.9	0.00e+00	0	60	0	1268776960	40	4108
2026-01-17 05:06:29.78	326.13	32.97	-34.9	-36.0	19.0	0.00e+00	0	60	0	1276116992	40	4057
2026-01-17 05:06:30.79	325.79	33.06	-34.9	-36.0	19.0	0.00e+00	0	61	0	1283457024	40	4078
2026-01-17 05:06:31.79	325.45	33.15	-34.9	-36.0	19.0	0.00e+00	0	61	0	1290797056	40	4064
2026-01-17 05:06:32.80	325.10	33.24	-34.7	-35.8	19.2	0.00e+00	0	61	0	1298137088	40	3961
2026-01-17 05:06:33.81	324.75	33.33	-34.6	-35.6	19.3	0.00e+00	0	60	0	1305477120	40	3910
2026-01-17 05:06:34.83	324.39	33.42	-34.6	-35.7	19.3	0.00e+00	0	61	0	1312817152	40	3926
2026-01-17 05:06:35.84	324.04	33.50	-34.7	-35.8	19.2	0.00e+00	0	61	0	1320157184	40	3984
2026-01-17 05:06:36.85	323.68	33.59	-34.8	-35.9	19.1	0.00e+00	0	61	0	1326448640	40	4032
2026-01-17 05:06:37.85	323.33	33.67	-34.9	-36.0	19.0	0.00e+00	0	61	0	1334837248	40	4085
2026-01-17 05:06:38.86	322.97	33.75	-35.0	-36.1	18.9	0.00e+00	0	61	0	1342177280	40	4131
2026-01-17 05:06:39.87	322.61	33.83	-35.0	-36.2	18.8	0.00e+00	0	60	0	1348468736	40	4156
2026-01-17 05:06:40.88	322.24	33.91	-35.0	-36.1	18.9	0.00e+00	0	61	0	1355808768	40	4138
2026-01-17 05:06:41.89	321.88	33.99	-35.0	-36.1	18.9	0.00e+00	0	61	0	1363148800	40	4117
2026-01-17 05:06:42.90	321.51	34.07	-35.0	-36.1	18.9	0.00e+00	0	61	0	1370488832	40	4118
2026-01-17 05:06:43.91	321.14	34.15	-34.9	-36.0	19.0	0.00e+00	0	60	0	1377828864	40	4072
2026-01-17 05:06:44.92	320.77	34.22	-34.9	-36.0	19.1	0.00e+00	0	60	0	1385168896	40	4054
2026-01-17 05:06:45.93	320.40	34.30	-34.8	-35.9	19.2	0.00e+00	0	61	0	1392508928	40	4007
2026-01-17 05:06:46.94	320.03	34.37	-34.7	-35.8	19.2	0.00e+00	0	61	0	1399848960	40	3999
2026-01-17 05:06:47.95	319.65	34.44	-34.7	-35.8	19.2	0.00e+00	0	61	0	1407188992	40	3985
2026-01-17 05:06:48.96	319.27	34.52	-34.7	-35.7	19.3	0.00e+00	0	61	0	1414529024	40	3955
2026-01-17 05:06:49.97	318.89	34.59	-34.7	-35.7	19.3	0.00e+00	0	61	0	1421869056	40	3950
2026-01-17 05:06:50.98	318.51	34.65	-34.7	-35.8	19.1	0.00e+00	0	61	0	1429209088	40	3995
2026-01-17 05:06:51.99	318.13	34.72	-34.8	-35.9	19.1	0.00e+00	0	61	0	1436549120	40	4041
2026-01-17 05:06:53.00	317.75	34.79	-34.9	-36.0	18.9	0.00e+00	0	61	0	1443889152	40	4095
2026-01-17 05:06:54.01	317.36	34.85	-35.1	-36.3	18.8	0.00e+00	0	61	0	1451229184	40	4194
2026-01-17 05:06:55.02	316.98	34.92	-35.2	-36.3	18.7	0.00e+00	0	60	0	1458569216	40	4209
2026-01-17 05:06:56.03	316.59	34.98	-35.1	-36.2	18.8	0.00e+00	0	61	0	1465909248	40	4152
2026-01-17 05:06:57.04	316.20	35.04	-35.0	-36.1	18.9	0.00e+00	0	61	0	1473249280	40	4106
2026-01-17 05:06:58.05	315.81	35.10	-34.9	-35.9	19.0	0.00e+00	0	61	0	1480589312	40	4049
2026-01-17 05:06:59.06	315.41	35.15	-34.9	-36.0	19.0	0.00e+00	0	61	0	1487929344	40	4063
2026-01-17 05:07:00.07	315.02	35.21	-34.9	-36.0	19.0	0.00e+00	0	61	0	1495269376	40	4089
2026-01-17 05:07:01.09	314.62	35.27	-34.9	-36.0	19.0	0.00e+00	0	61	0	1501560832	40	4076
2026-01-17 05:07:02.10	314.22	35.32	-34.9	-35.9	19.0	0.00e+00	0	61	0	1508900864	40	4050
2026-01-17 05:07:03.11	313.82	35.37	-35.0	-36.1	18.9	0.00e+00	0	61	0	1517289472	40	4121
2026-01-17 05:07:04.12	313.42	35.42	-34.9	-36.1	19.0	0.00e+00	0	61	0	1523580928	40	4102
2026-01-17 05:07:05.13	313.02	35.47	-35.1	-36.2	18.8	0.00e+00	0	61	0	1530920960	40	4188
2026-01-17 05:07:06.14	312.62	35.52	-35.1	-36.2	18.9	0.00e+00	0	61	0	1538260992	40	4154
2026-01-17 05:07:07.15	312.22	35.56	-34.9	-36.0	19.0	0.00e+00	0	60	0	1545601024	40	4069
2026-01-17 05:07:08.16	311.81	35.61	-34.9	-35.9	19.1	0.00e+00	0	61	0	1552941056	40	4051
2026-01-17 05:07:09.17	311.41	35.65	-34.7	-35.8	19.2	0.00e+00	0	61	0	1560281088	40	3985
2026-01-17 05:07:10.18	311.00	35.69	-34.7	-35.7	19.3	0.00e+00	0	61	0	1567621120	40	3948
2026-01-17 05:07:11.19	310.60	35.73	-34.7	-35.8	19.2	0.00e+00	0	61	0	1574961152	40	3978
2026-01-17 05:07:12.20	310.19	35.77	-34.8	-35.8	19.2	0.00e+00	0	61	0	1582301184	40	4001
2026-01-17 05:07:13.21	309.78	35.81	-34.7	-35.8	19.2	0.00e+00	0	61	0	1589641216	40	3972
2026-01-17 05:07:14.22	309.37	35.84	-34.7	-35.8	19.3	0.00e+00	0	61	0	1596981248	40	3964
2026-01-17 05:07:15.23	308.96	35.87	-34.7	-35.7	19.2	0.00e+00	0	61	0	1604321280	40	3954
2026-01-17 05:07:16.23	308.55	35.90	-34.7	-35.8	19.2	0.00e+00	0	61	0	1611661312	40	3980
2026-01-17 05:07:17.24	308.14	35.93	-34.8	-35.9	19.1	0.00e+00	0	61	0	1619001344	40	4030
2026-01-17 05:07:18.25	307.72	35.96	-34.8	-35.9	19.1	0.00e+00	0	61	0	1626341376	40	4027
2026-01-17 05:07:19.26	307.31	35.99	-34.8	-35.9	19.1	0.00e+00	0	61	0	1633681408	40	4047
2026-01-17 05:07:20.27	306.89	36.01	-34.7	-35.8	19.2	0.00e+00	0	61	0	1641021440	40	3963
2026-01-17 05:07:21.28	306.48	36.04	-34.5	-35.6	19.4	0.00e+00	0	61	0	1648361472	40	3884
2026-01-17 05:07:22.29	306.06	36.06	-34.6	-35.6	19.4	0.00e+00	0	61	0	1654652928	39	4130
2026-01-17 05:07:23.30	305.65	36.08	-34.6	-35.6	19.4	0.00e+00	0	61	0	1661992960	39	4140
2026-01-17 05:07:24.31	305.23	36.10	-34.7	-35.8	19.3	0.00e+00	0	61	0	1669332992	39	4208
2026-01-17 05:07:25.32	304.81	36.11	-34.8	-35.8	19.2	0.00e+00	0	61	0	1676673024	39	4236
2026-01-17 05:07:26.33	304.39	36.13	-34.8	-35.9	19.2	0.00e+00	0	60	0	1684013056	39	4255
2026-01-17 05:07:27.34	303.98	36.14	-34.8	-35.9	19.2	0.00e+00	0	61	0	1691353088	39	4273
2026-01-17 05:07:28.35	303.56	36.15	-34.9	-36.0	19.1	0.00e+00	0	61	0	1698693120	39	4303
2026-01-17 05:07:29.36	303.14	36.16	-34.9	-36.1	19.0	0.00e+00	0	61	0	1706033152	39	4346
2026-01-17 05:07:30.37	302.72	36.17	-34.8	-35.9	19.2	0.00e+00	0	61	0	1713373184	39	4244
2026-01-17 05:07:31.38	302.30	36.17	-34.8	-35.9	19.3	0.00e+00	0	61	0	1720713216	39	4246
2026-01-17 05:07:32.39	301.88	36.18	-34.8	-35.9	19.2	0.00e+00	0	61	0	1728053248	39	4282
2026-01-17 05:07:33.40	301.46	36.18	-34.8	-35.9	19.2	0.00e+00	0	61	0	1735393280	39	4282
2026-01-17 05:07:34.41	301.04	36.18	-34.8	-35.9	19.2	0.00e+00	0	61	0	1742733312	39	4248
2026-01-17 05:07:35.41	300.63	36.18	-34.8	-35.9	19.2	0.00e+00	0	61	0	1750073344	39	4252
2026-01-17 05:07:36.42	300.21	36.17	-34.8	-35.8	19.2	0.00e+00	0	61	0	1757413376	39	4242
2026-01-17 05:07:37.43	299.79	36.17	-34.9	-36.0	19.1	0.00e+00	0	61	0	1764753408	39	4304
2026-01-17 05:07:38.44	299.37	36.16	-34.8	-35.9	19.1	0.00e+00	0	61	0	1772093440	39	4286
2026-01-17 05:07:39.45	298.95	36.15	-34.7	-35.8	19.3	0.00e+00	0	61	0	1779433472	39	4215
2026-01-17 05:07:40.46	298.53	36.14	-34.7	-35.8	19.3	0.00e+00	0	61	0	1786773504	39	4221
2026-01-17 05:07:41.47	298.11	36.13	-34.8	-35.8	19.2	0.00e+00	0	61	0	1794113536	39	4240
2026-01-17 05:07:42.48	297.69	36.12	-34.8	-35.8	19.2	0.00e+00	0	61	0	1800404992	39	4241
2026-01-17 05:07:43.49	297.28	36.10	-34.8	-35.9	19.2	0.00e+00	0	61	0	1807745024	39	4274
2026-01-17 05:07:44.51	296.85	36.09	-35.0	-36.1	19.0	0.00e+00	0	61	0	1816133632	39	4379
2026-01-17 05:07:45.52	296.44	36.07	-35.1	-36.2	18.9	0.00e+00	0	61	0	1822425088	39	4406
2026-01-17 05:07:46.53	296.02	36.05	-34.9	-36.0	19.0	0.00e+00	0	61	0	1829765120	39	4338
2026-01-17 05:07:47.54	295.61	36.03	-34.8	-35.9	19.2	0.00e+00	0	61	0	1837105152	39	4271
2026-01-17 05:07:48.55	295.19	36.00	-34.7	-35.8	19.3	0.00e+00	0	61	0	1844445184	39	4201
2026-01-17 05:07:49.56	294.78	35.98	-34.7	-35.8	19.2	0.00e+00	0	61	0	1851785216	39	4232
2026-01-17 05:07:50.57	294.36	35.95	-34.8	-35.9	19.2	0.00e+00	0	61	0	1859125248	39	4244
2026-01-17 05:07:51.58	293.95	35.92	-34.9	-35.9	19.1	0.00e+00	0	61	0	1866465280	39	4290
2026-01-17 05:07:52.59	293.53	35.89	-35.0	-36.1	19.0	0.00e+00	0	61	0	1873805312	39	4379
2026-01-17 05:07:53.60	293.12	35.86	-35.0	-36.1	19.0	0.00e+00	0	61	0	1881145344	39	4390
2026-01-17 05:07:54.61	292.71	35.83	-34.9	-36.0	19.1	0.00e+00	0	61	0	1888485376	39	4327
2026-01-17 05:07:55.62	292.30	35.79	-34.8	-35.9	19.2	0.00e+00	0	61	0	1895825408	39	4255
2026-01-17 05:07:56.63	291.89	35.75	-34.6	-35.7	19.4	0.00e+00	0	61	0	1903165440	39	4160
2026-01-17 05:07:57.64	291.48	35.71	-34.6	-35.6	19.4	0.00e+00	0	61	0	1910505472	39	4145
2026-01-17 05:07:58.65	291.08	35.67	-34.6	-35.7	19.4	0.00e+00	0	61	0	1917845504	39	4152
2026-01-17 05:07:59.66	290.67	35.63	-34.7	-35.8	19.3	0.00e+00	0	61	0	1925185536	39	4220
2026-01-17 05:08:00.67	290.26	35.59	-34.8	-35.9	19.2	0.00e+00	0	61	0	1932525568	39	4252
2026-01-17 05:08:01.68	289.86	35.54	-34.7	-35.8	19.3	0.00e+00	0	61	0	1939865600	39	4212
2026-01-17 05:08:02.69	289.46	35.50	-34.6	-35.7	19.4	0.00e+00	0	61	0	1947205632	39	4168
2026-01-17 05:08:03.70	289.06	35.45	-34.7	-35.8	19.3	0.00e+00	0	61	0	1953497088	39	4200
2026-01-17 05:08:04.71	288.65	35.40	-34.6	-35.6	19.4	0.00e+00	0	61	0	1961885696	39	4145
2026-01-17 05:08:05.72	288.26	35.35	-34.6	-35.6	19.5	0.00e+00	0	61	0	1969225728	39	4119
2026-01-17 05:08:06.73	287.86	35.30	-34.6	-35.7	19.4	0.00e+00	0	61	0	1975517184	39	4150
2026-01-17 05:08:07.74	287.46	35.24	-34.7	-35.8	19.3	0.00e+00	0	61	0	1982857216	39	4225
2026-01-17 05:08:08.75	287.06	35.19	-34.8	-35.9	19.2	0.00e+00	0	61	0	1990197248	39	4261
2026-01-17 05:08:09.76	286.67	35.13	-34.8	-35.9	19.2	0.00e+00	0	61	0	1997537280	39	4269
2026-01-17 05:08:10.77	286.28	35.07	-34.7	-35.8	19.2	0.00e+00	0	61	0	2004877312	39	4226
2026-01-17 05:08:11.78	285.89	35.01	-34.7	-35.8	19.3	0.00e+00	0	61	0	2012217344	39	4195
2026-01-17 05:08:12.79	285.50	34.95	-34.6	-35.7	19.4	0.00e+00	0	61	0	2019557376	39	4160
2026-01-17 05:08:13.80	285.11	34.89	-34.6	-35.7	19.4	0.00e+00	0	61	0	2026897408	39	4151
2026-01-17 05:08:14.81	284.72	34.82	-34.5	-35.6	19.5	0.00e+00	0	61	0	2034237440	39	4116
2026-01-17 05:08:15.82	284.33	34.76	-34.6	-35.7	19.4	0.00e+00	0	61	0	2041577472	39	4171
2026-01-17 05:08:16.83	283.95	34.69	-34.6	-35.7	19.4	0.00e+00	0	61	0	2048917504	39	4162
2026-01-17 05:08:17.84	283.57	34.62	-34.6	-35.7	19.4	0.00e+00	0	61	0	2056257536	39	4165
2026-01-17 05:08:18.85	283.19	34.55	-34.5	-35.5	19.5	0.00e+00	0	61	0	2063597568	39	4089
2026-01-17 05:08:19.86	282.81	34.48	-34.5	-35.6	19.5	0.00e+00	0	61	0	2070937600	39	4115
2026-01-17 05:08:20.87	282.43	34.41	-34.6	-35.6	19.4	0.00e+00	0	61	0	2078277632	39	4142
2026-01-17 05:08:21.88	282.06	34.34	-34.7	-35.7	19.3	0.00e+00	0	61	0	2085617664	39	4181
2026-01-17 05:08:22.89	281.68	34.26	-34.7	-35.8	19.3	0.00e+00	0	61	0	2092957696	39	4202
2026-01-17 05:08:23.90	281.31	34.19	-34.7	-35.8	19.3	0.00e+00	0	61	0	2099249152	39	4213
2026-01-17 05:08:24.91	280.94	34.11	-34.8	-35.9	19.2	0.00e+00	0	61	0	2107637760	39	4246
2026-01-17 05:08:25.92	280.57	34.03	-34.8	-35.9	19.2	0.00e+00	0	61	0	2114977792	39	4273
2026-01-17 05:08:26.93	280.20	33.95	-34.8	-35.9	19.2	0.00e+00	0	61	0	2121269248	39	4245
2026-01-17 05:08:27.94	279.84	33.87	-34.7	-35.8	19.3	0.00e+00	0	61	0	2128609280	39	4203
2026-01-17 05:08:28.95	279.47	33.79	-34.7	-35.7	19.3	0.00e+00	0	61	0	2135949312	39	4189
2026-01-17 05:08:29.96	279.11	33.71	-34.7	-35.7	19.3	0.00e+00	0	61	0	2143289344	39	4188
2026-01-17 05:08:30.97	278.75	33.63	-34.6	-35.7	19.3	0.00e+00	0	61	0	2150629376	39	4170
2026-01-17 05:08:31.98	278.39	33.54	-34.7	-35.8	19.3	0.00e+00	0	61	0	2157969408	39	4206
2026-01-17 05:08:32.99	278.04	33.46	-34.7	-35.8	19.2	0.00e+00	0	61	0	2165309440	39	4222
2026-01-17 05:08:34.00	277.68	33.37	-34.8	-35.9	19.1	0.00e+00	0	61	0	2172649472	39	4251
2026-01-17 05:08:35.01	277.33	33.28	-34.9	-36.0	19.1	0.00e+00	0	61	0	2179989504	39	4292
2026-01-17 05:08:36.02	276.98	33.19	-34.8	-35.9	19.1	0.00e+00	0	61	0	2187329536	39	4281
2026-01-17 05:08:37.02	276.64	33.11	-34.8	-35.9	19.2	0.00e+00	0	61	0	2194669568	39	4263
2026-01-17 05:08:38.03	276.29	33.02	-34.7	-35.8	19.2	0.00e+00	0	61	0	2202009600	39	4224
2026-01-17 05:08:39.04	275.94	32.92	-34.6	-35.7	19.3	0.00e+00	0	61	0	2209349632	39	4172
2026-01-17 05:08:40.05	275.60	32.83	-34.7	-35.7	19.3	0.00e+00	0	61	0	2216689664	39	4176
2026-01-17 05:08:41.06	275.26	32.74	-34.6	-35.6	19.4	0.00e+00	0	61	0	2224029696	39	4126
2026-01-17 05:08:42.07	274.92	32.65	-34.5	-35.5	19.5	0.00e+00	0	61	0	2231369728	39	4098
2026-01-17 05:08:43.08	274.58	32.55	-34.5	-35.5	19.5	0.00e+00	0	61	0	2238709760	39	4076
2026-01-17 05:08:44.09	274.25	32.46	-34.6	-35.6	19.4	0.00e+00	0	61	0	2246049792	39	4134
2026-01-17 05:08:45.10	273.92	32.36	-34.6	-35.6	19.4	0.00e+00	0	61	0	2252341248	39	4142
2026-01-17 05:08:46.11	273.59	32.26	-34.6	-35.7	19.3	0.00e+00	0	61	0	2260729856	39	4162
2026-01-17 05:08:47.12	273.26	32.16	-34.7	-35.8	19.2	0.00e+00	0	61	0	2268069888	39	4218
2026-01-17 05:08:48.13	272.93	32.07	-34.8	-35.9	19.1	0.00e+00	0	61	0	2274361344	39	4270
2026-01-17 05:08:49.14	272.60	31.97	-34.9	-36.0	19.0	0.00e+00	0	61	0	2281701376	39	4303
2026-01-17 05:08:50.15	272.28	31.87	-35.1	-36.2	18.9	0.00e+00	0	61	0	2289041408	39	4405
2026-01-17 05:08:51.16	271.96	31.77	-35.2	-36.3	18.8	0.00e+00	0	61	0	2296381440	39	4467
2026-01-17 05:08:52.17	271.64	31.67	-35.2	-36.3	18.7	0.00e+00	0	61	0	2303721472	39	4472
2026-01-17 05:08:53.18	271.32	31.56	-35.1	-36.3	18.7	0.00e+00	0	61	0	2311061504	40	4197
2026-01-17 05:08:54.19	271.01	31.46	-35.1	-36.2	18.8	0.00e+00	0	61	0	2318401536	40	4158
2026-01-17 05:08:55.20	270.70	31.36	-35.0	-36.1	18.8	0.00e+00	0	61	0	2325741568	40	4129
2026-01-17 05:08:56.21	270.39	31.25	-35.0	-36.1	18.9	0.00e+00	0	61	0	2333081600	40	4108
2026-01-17 05:08:57.22	270.08	31.15	-34.9	-36.0	18.9	0.00e+00	0	61	0	2340421632	40	4080
2026-01-17 05:08:58.23	269.77	31.04	-34.9	-36.0	19.0	0.00e+00	0	61	0	2347761664	40	4075
2026-01-17 05:08:59.24	269.46	30.94	-35.0	-36.1	18.9	0.00e+00	0	61	0	2355101696	40	4115
2026-01-17 05:09:00.25	269.16	30.83	-35.1	-36.3	18.6	0.00e+00	0	61	0	2362441728	40	4200
2026-01-17 05:09:01.26	268.86	30.73	-35.1	-36.2	18.8	0.00e+00	0	61	0	2369781760	40	4181
2026-01-17 05:09:02.27	268.56	30.62	-35.2	-36.3	18.7	0.00e+00	0	61	0	2377121792	40	4220
2026-01-17 05:09:03.28	268.26	30.51	-35.3	-36.4	18.5	0.00e+00	0	61	0	2384461824	40	4281
2026-01-17 05:09:04.29	267.97	30.40	-35.3	-36.4	18.6	0.00e+00	0	61	0	2391801856	40	4271
2026-01-17 05:09:05.30	267.68	30.30	-35.2	-36.3	18.6	0.00e+00	0	61	0	2398093312	40	4228
2026-01-17 05:09:06.31	267.38	30.19	-35.1	-36.3	18.7	0.00e+00	0	61	0	2406481920	40	4195
2026-01-17 05:09:07.32	267.10	30.08	-35.1	-36.2	18.8	0.00e+00	0	61	0	2413821952	40	4161
2026-01-17 05:09:08.33	266.81	29.97	-35.0	-36.1	18.9	0.00e+00	0	61	0	2420113408	40	4115
2026-01-17 05:09:09.34	266.52	29.86	-34.9	-36.1	18.9	0.00e+00	0	61	0	2427453440	40	4099
2026-01-17 05:09:10.35	266.24	29.75	-35.0	-36.1	18.9	0.00e+00	0	61	0	2434793472	40	4120
2026-01-17 05:09:11.36	265.96	29.64	-34.9	-36.0	19.0	0.00e+00	0	61	0	2442133504	40	4065
2026-01-17 05:09:12.37	265.68	29.53	-34.9	-36.0	18.9	0.00e+00	0	61	0	2449473536	40	4079
2026-01-17 05:09:13.38	265.40	29.41	-35.0	-36.1	18.9	0.00e+00	0	61	0	2456813568	40	4102
2026-01-17 05:09:14.39	265.13	29.30	-35.0	-36.1	18.8	0.00e+00	0	61	0	2464153600	40	4132
2026-01-17 05:09:15.40	264.85	29.19	-35.0	-36.2	18.8	0.00e+00	0	61	0	2471493632	40	4158
2026-01-17 05:09:16.41	264.58	29.08	-35.0	-36.2	18.8	0.00e+00	0	61	0	2478833664	40	4149
2026-01-17 05:09:17.42	264.31	28.97	-35.1	-36.3	18.7	0.00e+00	0	61	0	2486173696	40	4213
2026-01-17 05:09:18.43	264.04	28.85	-35.1	-36.3	18.7	0.00e+00	0	61	0	2493513728	40	4209
2026-01-17 05:09:19.44	263.78	28.74	-35.1	-36.2	18.7	0.00e+00	0	61	0	2500853760	40	4185
2026-01-17 05:09:20.45	263.51	28.63	-35.0	-36.1	18.8	0.00e+00	0	61	0	2508193792	40	4120
2026-01-17 05:09:21.46	263.25	28.51	-34.8	-35.9	19.0	0.00e+00	0	61	0	2515533824	40	4043
2026-01-17 05:09:22.47	262.99	28.40	-34.8	-35.9	19.0	0.00e+00	0	61	0	2522873856	40	4012
2026-01-17 05:09:23.48	262.73	28.29	-34.7	-35.8	19.1	0.00e+00	0	61	0	2530213888	40	3969
2026-01-17 05:09:24.49	262.47	28.17	-34.8	-35.9	19.0	0.00e+00	0	61	0	2537553920	40	4007
2026-01-17 05:09:25.50	262.22	28.06	-34.8	-35.9	19.0	0.00e+00	0	61	0	2544893952	40	4031
2026-01-17 05:09:26.51	261.97	27.94	-34.9	-36.0	18.9	0.00e+00	0	61	0	2552233984	40	4087
2026-01-17 05:09:27.53	261.71	27.83	-35.0	-36.1	18.8	0.00e+00	0	61	0	2559574016	40	4122
2026-01-17 05:09:28.53	261.46	27.71	-35.1	-36.2	18.7	0.00e+00	0	61	0	2566914048	40	4169
2026-01-17 05:09:29.54	261.22	27.60	-35.1	-36.2	18.7	0.00e+00	0	61	0	2573205504	40	4175
2026-01-17 05:09:30.55	260.97	27.48	-35.1	-36.2	18.7	0.00e+00	0	61	0	2581594112	40	4170
2026-01-17 05:09:31.56	260.73	27.37	-35.0	-36.1	18.8	0.00e+00	0	61	0	2588934144	40	4135
2026-01-17 05:09:32.57	260.48	27.25	-35.0	-36.1	18.7	0.00e+00	0	61	0	2595225600	40	4134
2026-01-17 05:09:33.58	260.24	27.14	-35.1	-36.2	18.7	0.00e+00	0	61	0	2602565632	40	4164
2026-01-17 05:09:34.59	260.01	27.02	-35.1	-36.3	18.7	0.00e+00	0	61	0	2609905664	40	4197
2026-01-17 05:09:35.60	259.77	26.91	-35.2	-36.3	18.6	0.00e+00	0	61	0	2617245696	40	4226
2026-01-17 05:09:36.61	259.53	26.79	-35.2	-36.3	18.6	0.00e+00	0	61	0	2624585728	40	4232
2026-01-17 05:09:37.62	259.30	26.68	-35.2	-36.4	18.5	0.00e+00	0	61	0	2631925760	40	4249
2026-01-17 05:09:38.63	259.07	26.56	-35.3	-36.4	18.5	0.00e+00	0	61	0	2639265792	40	4263
2026-01-17 05:09:39.64	258.84	26.45	-35.2	-36.4	18.5	0.00e+00	0	61	0	2646605824	40	4259
2026-01-17 05:09:40.65	258.61	26.33	-35.2	-36.3	18.6	0.00e+00	0	61	0	2653945856	40	4237
2026-01-17 05:09:41.65	258.38	26.22	-35.2	-36.3	18.6	0.00e+00	0	61	0	2661285888	40	4225
2026-01-17 05:09:42.66	258.16	26.10	-35.2	-36.3	18.6	0.00e+00	0	61	0	2668625920	40	4206
2026-01-17 05:09:43.67	257.93	25.99	-35.2	-36.3	18.6	0.00e+00	0	61	0	2675965952	40	4207
2026-01-17 05:09:44.68	257.71	25.87	-35.1	-36.3	18.6	0.00e+00	0	61	0	2683305984	40	4196
2026-01-17 05:09:45.69	257.49	25.76	-35.1	-36.3	18.6	0.00e+00	0	61	0	2690646016	40	4198
2026-01-17 05:09:46.70	257.27	25.64	-35.1	-36.2	18.7	0.00e+00	0	61	0	2697986048	40	4173
2026-01-17 05:09:47.71	257.06	25.52	-35.1	-36.2	18.7	0.00e+00	0	61	0	2705326080	40	4168
2026-01-17 05:09:48.72	256.84	25.41	-35.1	-36.2	18.7	0.00e+00	0	61	0	2712666112	40	4156
2026-01-17 05:09:49.73	256.63	25.29	-35.1	-36.2	18.7	0.00e+00	0	61	0	2718957568	40	4169
2026-01-17 05:09:50.74	256.41	25.18	-35.2	-36.3	18.6	0.00e+00	0	61	0	2726297600	40	4215
2026-01-17 05:09:51.75	256.20	25.06	-35.2	-36.4	18.5	0.00e+00	0	61	0	2734686208	40	4254
2026-01-17 05:09:52.76	255.99	24.95	-35.4	-36.6	18.3	0.00e+00	0	61	0	2740977664	40	4347
2026-01-17 05:09:53.77	255.78	24.83	-35.4	-36.6	18.3	0.00e+00	0	61	0	2748317696	40	4360
2026-01-17 05:09:54.78	255.58	24.72	-35.4	-36.5	18.4	0.00e+00	0	61	0	2755657728	40	4335
2026-01-17 05:09:55.79	255.37	24.60	-35.3	-36.4	18.4	0.00e+00	0	61	0	2762997760	40	4279
2026-01-17 05:09:56.80	255.17	24.49	-35.2	-36.3	18.5	0.00e+00	0	61	0	2770337792	40	4224
2026-01-17 05:09:57.81	254.97	24.38	-35.1	-36.2	18.6	0.00e+00	0	61	0	2777677824	40	4173
2026-01-17 05:09:58.82	254.77	24.26	-35.0	-36.1	18.7	0.00e+00	0	61	0	2785017856	40	4120
2026-01-17 05:09:59.82	254.57	24.15	-35.0	-36.1	18.8	0.00e+00	0	61	0	2792357888	40	4105
2026-01-17 05:10:00.83	254.37	24.03	-35.0	-36.1	18.7	0.00e+00	0	61	0	2799697920	40	4138
2026-01-17 05:10:01.84	254.18	23.92	-35.1	-36.2	18.6	0.00e+00	0	61	0	2807037952	40	4193
2026-01-17 05:10:02.85	253.98	23.81	-35.1	-36.3	18.6	0.00e+00	0	61	0	2814377984	40	4197
2026-01-17 05:10:03.87	253.79	23.69	-35.3	-36.5	18.4	0.00e+00	0	61	0	2821718016	40	4298
2026-01-17 05:10:04.88	253.60	23.58	-35.4	-36.6	18.3	0.00e+00	0	61	0	2829058048	40	4345
2026-01-17 05:10:05.89	253.41	23.46	-35.4	-36.6	18.3	0.00e+00	0	61	0	2836398080	40	4343
2026-01-17 05:10:06.89	253.22	23.35	-35.4	-36.6	18.2	0.00e+00	0	61	0	2843738112	40	4361
2026-01-17 05:10:07.90	253.03	23.24	-35.5	-36.7	18.2	0.00e+00	0	61	0	2851078144	40	4402
2026-01-17 05:10:08.92	252.84	23.12	-35.5	-36.7	18.2	0.00e+00	0	61	0	2858418176	40	4405
2026-01-17 05:10:09.93	252.66	23.01	-35.5	-36.7	18.1	0.00e+00	0	61	0	2865758208	40	4428
2026-01-17 05:10:10.94	252.47	22.90	-35.5	-36.7	18.1	0.00e+00	0	61	0	2872049664	40	4421
2026-01-17 05:10:11.95	252.29	22.79	-35.6	-36.8	18.1	0.00e+00	0	61	0	2879389696	40	4456
2026-01-17 05:10:12.96	252.11	22.67	-35.7	-36.9	17.9	0.00e+00	0	61	0	2887778304	40	4528
2026-01-17 05:10:13.97	251.93	22.56	-35.8	-37.0	17.8	0.00e+00	0	61	0	2894069760	41	4323
2026-01-17 05:10:14.98	251.75	22.45	-35.8	-37.1	17.8	0.00e+00	0	61	0	2901409792	41	4350
2026-01-17 05:10:15.98	251.58	22.34	-35.9	-37.2	17.7	0.00e+00	0	61	0	2908749824	41	4398
2026-01-17 05:10:16.99	251.40	22.23	-35.8	-37.0	17.8	0.00e+00	0	61	0	2916089856	41	4320
2026-01-17 05:10:18.00	251.23	22.12	-35.7	-36.9	17.9	0.00e+00	0	61	0	2923429888	41	4265
2026-01-17 05:10:19.01	251.05	22.01	-35.6	-36.8	18.0	0.00e+00	0	61	0	2930769920	41	4236
2026-01-17 05:10:20.02	250.88	21.90	-35.6	-36.8	18.0	0.00e+00	0	61	0	2938109952	41	4219
2026-01-17 05:10:21.03	250.71	21.78	-35.6	-36.8	18.0	0.00e+00	0	61	0	2945449984	41	4221
2026-01-17 05:10:22.04	250.54	21.67	-35.6	-36.8	18.0	0.00e+00	0	61	0	2952790016	41	4216
2026-01-17 05:10:23.05	250.37	21.56	-35.6	-36.8	18.0	0.00e+00	0	61	0	2960130048	41	4235
2026-01-17 05:10:24.06	250.21	21.45	-35.6	-36.8	18.0	0.00e+00	0	61	0	2967470080	41	4242
2026-01-17 05:10:25.07	250.04	21.34	-35.7	-36.8	18.0	0.00e+00	0	61	0	2974810112	41	4242
2026-01-17 05:10:26.08	249.88	21.23	-35.7	-36.9	17.9	0.00e+00	0	61	0	2982150144	41	4265
2026-01-17 05:10:27.09	249.71	21.12	-35.8	-37.0	17.8	0.00e+00	0	61	0	2989490176	41	4309
2026-01-17 05:10:28.10	249.55	21.02	-35.8	-37.0	17.8	0.00e+00	0	61	0	2995781632	41	4332
2026-01-17 05:10:29.10	249.39	20.91	-35.8	-37.0	17.8	0.00e+00	0	61	0	3004170240	41	4307
2026-01-17 05:10:30.11	249.23	20.80	-35.8	-37.0	17.8	0.00e+00	0	61	0	3011510272	41	4331
2026-01-17 05:10:31.13	249.07	20.69	-35.9	-37.1	17.7	0.00e+00	0	61	0	3017801728	41	4379
2026-01-17 05:10:32.13	248.91	20.58	-35.8	-37.0	17.8	0.00e+00	0	61	0	3025141760	41	4322
2026-01-17 05:10:33.14	248.76	20.47	-35.6	-36.8	17.9	0.00e+00	0	61	0	3032481792	41	4238
2026-01-17 05:10:34.15	248.60	20.37	-35.6	-36.8	17.9	0.00e+00	0	61	0	3039821824	41	4239
2026-01-17 05:10:35.16	248.45	20.26	-35.7	-36.9	17.8	0.00e+00	0	61	0	3047161856	41	4288
2026-01-17 05:10:36.17	248.29	20.15	-35.9	-37.1	17.7	0.00e+00	0	61	0	3054501888	41	4360
2026-01-17 05:10:37.18	248.14	20.04	-36.0	-37.2	17.6	0.00e+00	0	61	0	3061841920	41	4410
2026-01-17 05:10:38.19	247.99	19.94	-36.0	-37.3	17.5	0.00e+00	0	61	0	3069181952	41	4463
2026-01-17 05:10:39.20	247.84	19.83	-36.2	-37.5	17.3	0.00e+00	0	61	0	3076521984	42	4332
2026-01-17 05:10:40.21	247.69	19.73	-36.3	-37.7	17.1	0.00e+00	0	61	0	3083862016	42	4401
2026-01-17 05:10:41.22	247.54	19.62	-36.4	-37.7	17.1	0.00e+00	0	61	0	3091202048	42	4406
2026-01-17 05:10:42.22	247.40	19.51	-36.4	-37.8	17.0	0.00e+00	0	61	0	3098542080	42	4444
2026-01-17 05:10:43.23	247.25	19.41	-36.3	-37.6	17.1	0.00e+00	0	61	0	3105882112	42	4386
2026-01-17 05:10:44.24	247.11	19.30	-36.4	-37.7	17.1	0.00e+00	0	61	0	3113222144	42	4401
2026-01-17 05:10:45.25	246.96	19.20	-36.3	-37.6	17.2	0.00e+00	0	61	0	3120562176	42	4368
2026-01-17 05:10:46.26	246.82	19.09	-36.3	-37.6	17.2	0.00e+00	0	61	0	3127902208	42	4357
2026-01-17 05:10:47.27	246.68	18.99	-36.3	-37.6	17.1	0.00e+00	0	61	0	3135242240	42	4390
2026-01-17 05:10:48.28	246.54	18.89	-36.3	-37.6	17.1	0.00e+00	0	61	0	3142582272	42	4376
2026-01-17 05:10:49.28	246.40	18.78	-36.2	-37.5	17.3	0.00e+00	0	61	0	3148873728	42	4327
2026-01-17 05:10:50.29	246.26	18.68	-36.3	-37.6	17.2	0.00e+00	0	61	0	3156213760	42	4345
2026-01-17 05:10:51.29	246.12	18.58	-36.3	-37.6	17.2	0.00e+00	0	61	0	3164602368	42	4348
2026-01-17 05:10:52.31	245.98	18.47	-36.2	-37.5	17.2	0.00e+00	0	61	0	3170893824	42	4324
2026-01-17 05:10:53.32	245.85	18.37	-36.4	-37.7	17.1	0.00e+00	0	61	0	3178233856	42	4405
2026-01-17 05:10:54.33	245.71	18.27	-36.5	-37.8	17.0	0.00e+00	0	61	0	3185573888	42	4469
2026-01-17 05:10:55.33	245.58	18.16	-36.5	-37.9	16.9	0.00e+00	0	61	0	3192913920	42	4497
2026-01-17 05:10:56.35	245.44	18.06	-36.6	-37.9	16.8	0.00e+00	0	61	0	3200253952	42	4536
2026-01-17 05:10:57.36	245.31	17.96	-36.7	-38.1	16.7	0.00e+00	0	61	0	3207593984	42	4608
2026-01-17 05:10:58.37	245.18	17.86	-36.7	-38.0	16.7	0.00e+00	0	61	0	3214934016	42	4589
2026-01-17 05:10:59.38	245.05	17.76	-36.8	-38.2	16.5	0.00e+00	0	61	0	3222274048	43	4428
2026-01-17 05:11:00.38	244.92	17.66	-37.0	-38.4	16.4	0.00e+00	0	61	0	3229614080	43	4510
2026-01-17 05:11:01.39	244.79	17.56	-37.0	-38.4	16.3	0.00e+00	0	61	0	3236954112	43	4530
2026-01-17 05:11:02.40	244.66	17.46	-37.1	-38.5	16.2	0.00e+00	0	61	0	3244294144	43	4579
2026-01-17 05:11:03.41	244.54	17.35	-36.9	-38.4	16.3	0.00e+00	0	61	0	3251634176	43	4513
2026-01-17 05:11:04.42	244.41	17.25	-36.8	-38.2	16.4	0.00e+00	0	61	0	3258974208	43	4439
2026-01-17 05:11:05.43	244.29	17.15	-36.8	-38.2	16.5	0.00e+00	0	61	0	3266314240	43	4415
2026-01-17 05:11:06.44	244.16	17.06	-36.7	-38.1	16.6	0.00e+00	0	61	0	3272605696	43	4388
2026-01-17 05:11:07.45	244.04	16.96	-36.6	-37.9	16.8	0.00e+00	0	61	0	3280994304	43	4270
2026-01-17 05:11:08.46	243.91	16.86	-36.4	-37.8	16.9	0.00e+00	0	61	0	3288334336	43	4196
2026-01-17 05:11:09.47	243.79	16.76	-36.5	-37.8	16.9	0.00e+00	0	61	0	3294625792	43	4197
2026-01-17 05:11:10.48	243.67	16.66	-36.5	-37.8	16.8	0.00e+00	0	61	0	3301965824	43	4237
2026-01-17 05:11:11.49	243.55	16.56	-36.6	-37.9	16.8	0.00e+00	0	61	0	3309305856	43	4288
2026-01-17 05:11:12.50	243.43	16.46	-36.7	-38.1	16.6	0.00e+00	0	61	0	3316645888	43	4349
2026-01-17 05:11:13.51	243.31	16.37	-36.9	-38.4	16.3	0.00e+00	0	61	0	3323985920	43	4496
2026-01-17 05:11:14.52	243.19	16.27	-37.0	-38.4	16.3	0.00e+00	0	61	0	3331325952	43	4515
2026-01-17 05:11:15.53	243.07	16.17	-36.9	-38.4	16.3	0.00e+00	0	61	0	3338665984	43	4496
2026-01-17 05:11:16.54	242.96	16.07	-37.1	-38.5	16.1	0.00e+00	0	61	0	3346006016	43	4587
2026-01-17 05:11:17.55	242.84	15.98	-37.1	-38.6	16.1	0.00e+00	0	61	0	3353346048	43	4609
2026-01-17 05:11:18.56	242.73	15.88	-37.2	-38.6	16.0	0.00e+00	0	61	0	3360686080	43	4642
2026-01-17 05:11:19.57	242.61	15.79	-37.2	-38.7	16.0	0.00e+00	0	61	0	3368026112	43	4658
2026-01-17 05:11:20.58	242.50	15.69	-37.2	-38.6	16.0	0.00e+00	0	61	0	3375366144	43	4636
2026-01-17 05:11:21.59	242.39	15.59	-37.3	-38.8	16.0	0.00e+00	0	61	0	3382706176	44	4449
2026-01-17 05:11:22.60	242.27	15.50	-37.3	-38.7	16.1	0.00e+00	0	61	0	3390046208	44	4417
2026-01-17 05:11:23.61	242.16	15.40	-37.2	-38.7	16.1	0.00e+00	0	61	0	3397386240	44	4399
2026-01-17 05:11:24.61	242.05	15.31	-37.3	-38.8	16.0	0.00e+00	0	61	0	3404726272	44	4453
2026-01-17 05:11:25.62	241.94	15.22	-37.4	-38.8	16.0	0.00e+00	0	61	0	3412066304	44	4484
2026-01-17 05:11:26.63	241.83	15.12	-37.4	-38.9	15.9	0.00e+00	0	61	0	3419406336	44	4537
2026-01-17 05:11:27.64	241.72	15.03	-37.3	-38.8	16.0	0.00e+00	0	61	0	3426746368	44	4454
2026-01-17 05:11:28.65	241.62	14.93	-37.3	-38.8	16.0	0.00e+00	0	61	0	3434086400	44	4482
2026-01-17 05:11:29.67	241.51	14.84	-37.5	-39.0	15.8	0.00e+00	0	61	0	3441426432	44	4575
2026-01-17 05:11:30.68	241.40	14.75	-37.5	-39.0	15.8	0.00e+00	0	61	0	3447717888	44	4555
2026-01-17 05:11:31.69	241.30	14.65	-37.4	-38.9	15.9	0.00e+00	0	61	0	3455057920	44	4514
2026-01-17 05:11:32.70	241.19	14.56	-37.5	-39.0	15.8	0.00e+00	0	61	0	3463446528	44	4574
2026-01-17 05:11:33.71	241.09	14.47	-37.5	-39.0	15.8	0.00e+00	0	61	0	3469737984	44	4554
2026-01-17 05:11:34.72	240.98	14.38	-37.4	-38.9	15.8	0.00e+00	0	61	0	3477078016	44	4519
2026-01-17 05:11:35.73	240.88	14.28	-37.4	-38.9	15.8	0.00e+00	0	61	0	3484418048	44	4528
2026-01-17 05:11:36.73	240.78	14.19	-37.4	-38.9	15.8	0.00e+00	0	61	0	3491758080	44	4519
2026-01-17 05:11:37.74	240.68	14.10	-37.3	-38.8	15.9	0.00e+00	0	61	0	3499098112	44	4456
2026-01-17 05:11:38.75	240.57	14.01	-37.3	-38.7	16.0	0.00e+00	0	61	0	3506438144	44	4431
2026-01-17 05:11:39.76	240.47	13.92	-37.2	-38.6	16.1	0.00e+00	0	61	0	3513778176	44	4381
2026-01-17 05:11:40.77	240.37	13.83	-37.2	-38.6	16.1	0.00e+00	0	61	0	3521118208	44	4388
2026-01-17 05:11:41.78	240.27	13.74	-37.2	-38.7	16.0	0.00e+00	0	61	0	3528458240	44	4412
2026-01-17 05:11:42.79	240.18	13.65	-37.2	-38.7	16.1	0.00e+00	0	61	0	3535798272	44	4404
2026-01-17 05:11:43.80	240.08	13.56	-37.4	-38.9	15.9	0.00e+00	0	61	0	3543138304	44	4497
2026-01-17 05:11:44.81	239.98	13.47	-37.4	-38.9	15.9	0.00e+00	0	61	0	3550478336	44	4499
2026-01-17 05:11:45.82	239.88	13.38	-37.5	-39.0	15.8	0.00e+00	0	61	0	3557818368	44	4554
2026-01-17 05:11:46.83	239.79	13.29	-37.5	-39.0	15.7	0.00e+00	0	61	0	3565158400	44	4590
2026-01-17 05:11:47.84	239.69	13.20	-37.6	-39.2	15.5	0.00e+00	0	61	0	3571449856	44	4672
2026-01-17 05:11:48.85	239.59	13.11	-37.7	-39.2	15.5	0.00e+00	0	61	0	3579838464	44	4678
2026-01-17 05:11:49.86	239.50	13.02	-37.8	-39.4	15.3	0.00e+00	0	61	0	3587178496	45	4506
2026-01-17 05:11:50.86	239.41	12.94	-37.9	-39.5	15.2	0.00e+00	0	61	0	3593469952	45	4568
2026-01-17 05:11:51.88	239.31	12.85	-37.8	-39.4	15.3	0.00e+00	0	61	0	3600809984	45	4496
2026-01-17 05:11:52.89	239.22	12.76	-37.9	-39.5	15.2	0.00e+00	0	61	0	3608150016	45	4548
2026-01-17 05:11:53.90	239.13	12.67	-37.9	-39.6	15.1	0.00e+00	0	61	0	3615490048	45	4600
2026-01-17 05:11:54.91	239.04	12.58	-38.1	-39.8	14.8	1.10e-06	0	61	0	3622830080	45	4744
2026-01-17 05:11:55.92	238.94	12.50	-38.1	-39.7	14.9	0.00e+00	0	61	0	3630170112	45	4700
2026-01-17 05:11:56.93	238.85	12.41	-38.1	-39.7	14.9	0.00e+00	0	61	0	3637510144	45	4703
2026-01-17 05:11:57.94	238.76	12.32	-38.0	-39.7	15.0	0.00e+00	0	61	0	3644850176	45	4666
2026-01-17 05:11:58.95	238.67	12.24	-38.0	-39.6	15.0	2.20e-06	0	61	0	3652190208	45	4627
2026-01-17 05:11:59.96	238.59	12.15	-38.0	-39.7	14.9	0.00e+00	0	61	0	3659530240	45	4674
2026-01-17 05:12:00.97	238.50	12.07	-38.0	-39.6	15.0	0.00e+00	0	61	0	3666870272	45	4626
2026-01-17 05:12:01.98	238.41	11.98	-38.0	-39.7	15.0	0.00e+00	0	61	0	3674210304	45	4662
2026-01-17 05:12:02.99	238.32	11.89	-38.0	-39.7	14.9	0.00e+00	0	61	0	3681550336	45	4683
2026-01-17 05:12:04.00	238.23	11.81	-38.1	-39.8	14.8	0.00e+00	0	61	0	3688890368	45	4742
2026-01-17 05:12:05.01	238.15	11.72	-38.1	-39.8	14.8	0.00e+00	0	61	0	3696230400	45	4749
2026-01-17 05:12:06.02	238.06	11.64	-38.2	-39.9	14.6	0.00e+00	0	61	0	3703570432	46	4537
2026-01-17 05:12:07.03	237.98	11.56	-38.1	-39.8	14.9	1.10e-06	0	61	0	3710910464	46	4452
2026-01-17 05:12:08.04	237.89	11.47	-38.0	-39.6	15.0	1.10e-06	0	61	0	3718250496	46	4382
2026-01-17 05:12:09.05	237.81	11.39	-38.0	-39.6	15.0	0.00e+00	0	61	0	3725590528	46	4376
2026-01-17 05:12:10.06	237.72	11.30	-38.0	-39.6	15.0	0.00e+00	0	61	0	3732930560	46	4380
2026-01-17 05:12:11.07	237.64	11.22	-37.9	-39.5	15.1	0.00e+00	0	61	0	3740270592	46	4333
2026-01-17 05:12:12.08	237.56	11.14	-37.9	-39.5	15.1	0.00e+00	0	61	0	3746562048	46	4337
2026-01-17 05:12:13.09	237.47	11.05	-37.9	-39.5	15.0	0.00e+00	0	61	0	3754950656	46	4337
2026-01-17 05:12:14.10	237.39	10.97	-37.9	-39.5	15.1	0.00e+00	0	61	0	3762290688	46	4314
2026-01-17 05:12:15.11	237.31	10.89	-37.9	-39.5	15.1	0.00e+00	0	61	0	3768582144	46	4315
2026-01-17 05:12:16.12	237.23	10.81	-37.9	-39.6	15.0	0.00e+00	0	61	0	3775922176	46	4362
2026-01-17 05:12:17.14	237.15	10.72	-37.9	-39.5	15.0	1.10e-06	0	61	0	3783262208	46	4323
2026-01-17 05:12:18.15	237.07	10.64	-37.8	-39.5	15.1	1.10e-06	0	61	0	3790602240	46	4293
2026-01-17 05:12:19.16	236.99	10.56	-37.7	-39.3	15.3	0.00e+00	0	61	0	3797942272	46	4199
2026-01-17 05:12:20.16	236.91	10.48	-37.7	-39.2	15.3	0.00e+00	0	61	0	3805282304	46	4193
2026-01-17 05:12:21.17	236.83	10.40	-37.8	-39.4	15.1	0.00e+00	0	61	0	3812622336	46	4280
2026-01-17 05:12:22.18	236.75	10.32	-37.8	-39.4	15.1	0.00e+00	0	62	0	3819962368	46	4266
2026-01-17 05:12:23.19	236.68	10.23	-37.7	-39.3	15.2	0.00e+00	0	61	0	3827302400	46	4201
2026-01-17 05:12:24.20	236.60	10.15	-37.9	-39.5	15.0	0.00e+00	0	61	0	3834642432	46	4328
2026-01-17 05:12:25.21	236.52	10.07	-38.0	-39.7	14.8	0.00e+00	0	61	0	3841982464	46	4394
2026-01-17 05:12:26.22	236.44	9.99	-37.9	-39.6	14.9	0.00e+00	0	61	0	3849322496	46	4367
2026-01-17 05:12:27.23	236.37	9.91	-38.1	-39.8	14.6	0.00e+00	0	61	0	3856662528	46	4486
