passes_logs/2026/01/17/R2.0S_Moscow/R2.0S_Moscow__20260117_020200_AQUA_rec.log

#Pass ID: 20260117_020200_AQUA
#Satellite: AQUA
#Configuration: AQUA
#almurnet v.1.7.20251203
#Start time: 2026-01-17 02:01:59

#Version: 2.2.20231116
#Station: R2.0S_Moscow
#Location: 37.707566 lon 55.798166 lat
#TLE: 1 27424U 02022A   26016.26443506  .00000711  00000+0  15228-3 0  9999
#TLE: 2 27424  98.4083 342.7130 0002022  76.7284  27.4473 14.61823291261073

#Time	Az	El	Level	Level2	SNR	BER	BlckErr	Temp	State	Recorded	gain1	gain2
2026-01-17 02:01:59.91	11.67	1.98	-41.1	-60.2	3.8	7.44e-01	0	52	0	0	54	31168
2026-01-17 02:02:00.92	11.64	2.05	-41.1	-60.2	3.8	7.45e-01	0	52	104	0	52	35003
2026-01-17 02:02:01.94	11.60	2.11	-41.1	-60.2	3.8	7.45e-01	0	52	104	0	52	34998
2026-01-17 02:02:02.95	11.57	2.18	-41.1	-60.2	3.8	7.44e-01	0	52	104	0	52	34939
2026-01-17 02:02:03.96	11.54	2.25	-41.0	-60.2	3.8	7.42e-01	0	52	104	0	52	34986
2026-01-17 02:02:04.97	11.51	2.31	-41.0	-60.2	3.8	7.46e-01	0	53	104	0	52	34947
2026-01-17 02:02:05.98	11.47	2.38	-41.0	-60.2	3.8	7.43e-01	0	53	104	0	52	34930
2026-01-17 02:02:06.99	11.44	2.44	-41.0	-60.1	3.8	7.46e-01	0	53	104	0	52	34874
2026-01-17 02:02:08.00	11.41	2.51	-41.0	-60.1	3.8	7.44e-01	0	53	104	0	52	34868
2026-01-17 02:02:09.01	11.37	2.58	-41.0	-60.2	3.8	7.44e-01	0	53	104	0	52	34918
2026-01-17 02:02:10.02	11.34	2.64	-41.0	-60.2	3.8	7.44e-01	0	53	104	0	52	34925
2026-01-17 02:02:11.03	11.30	2.71	-41.0	-60.2	3.8	7.46e-01	0	53	104	0	52	34902
2026-01-17 02:02:12.05	11.27	2.78	-41.0	-60.1	3.8	7.45e-01	0	53	104	0	52	34777
2026-01-17 02:02:13.06	11.23	2.85	-41.0	-60.1	3.8	7.45e-01	0	53	104	0	52	34818
2026-01-17 02:02:14.07	11.20	2.91	-41.0	-60.1	3.8	7.46e-01	0	53	104	0	52	34852
2026-01-17 02:02:15.08	11.16	2.98	-41.0	-60.1	3.8	7.46e-01	0	53	104	0	52	34826
2026-01-17 02:02:16.09	11.13	3.05	-41.0	-60.1	3.8	7.43e-01	0	53	104	0	52	34784
2026-01-17 02:02:17.10	11.09	3.12	-41.0	-60.1	3.8	7.44e-01	0	53	104	0	52	34791
2026-01-17 02:02:18.11	11.06	3.18	-41.0	-60.1	3.8	7.50e-01	0	53	104	0	52	34803
2026-01-17 02:02:19.12	11.02	3.25	-41.0	-60.1	3.8	7.43e-01	0	54	104	0	52	34789
2026-01-17 02:02:20.13	10.99	3.32	-41.0	-60.1	3.8	7.47e-01	0	54	104	0	52	34753
2026-01-17 02:02:21.14	10.95	3.39	-41.0	-60.1	3.8	7.43e-01	0	54	104	0	52	34746
2026-01-17 02:02:22.16	10.91	3.46	-41.0	-60.1	3.8	7.44e-01	0	53	104	0	52	34762
2026-01-17 02:02:23.17	10.88	3.53	-41.0	-60.1	3.8	7.47e-01	0	54	104	0	52	34778
2026-01-17 02:02:24.18	10.84	3.60	-41.0	-60.1	3.8	7.43e-01	0	54	104	0	52	34814
2026-01-17 02:02:25.19	10.80	3.67	-41.0	-60.1	3.8	7.46e-01	0	54	104	0	52	34816
2026-01-17 02:02:26.20	10.77	3.74	-41.0	-60.1	3.8	7.45e-01	0	54	104	0	52	34852
2026-01-17 02:02:27.21	10.73	3.81	-41.0	-60.1	3.8	7.45e-01	0	54	104	0	52	34841
2026-01-17 02:02:28.22	10.69	3.88	-41.0	-60.2	3.8	7.41e-01	0	54	104	0	52	34891
2026-01-17 02:02:29.23	10.65	3.95	-41.0	-60.1	3.8	7.46e-01	0	54	104	0	52	34830
2026-01-17 02:02:30.24	10.61	4.02	-41.0	-60.1	3.8	7.47e-01	0	54	104	0	52	34757
2026-01-17 02:02:31.25	10.58	4.09	-41.0	-60.1	3.8	7.46e-01	0	54	104	0	52	34837
2026-01-17 02:02:32.27	10.54	4.16	-41.0	-60.1	3.8	7.43e-01	0	54	104	0	52	34876
2026-01-17 02:02:33.27	10.50	4.23	-41.0	-60.1	3.8	7.46e-01	0	55	104	0	52	34762
2026-01-17 02:02:34.29	10.46	4.30	-41.0	-60.1	3.8	7.47e-01	0	54	104	0	52	34740
2026-01-17 02:02:35.30	10.42	4.37	-41.0	-60.1	3.8	7.46e-01	0	55	104	0	52	34801
2026-01-17 02:02:36.31	10.38	4.44	-41.0	-60.1	3.8	7.42e-01	0	55	104	0	52	34773
2026-01-17 02:02:37.32	10.34	4.51	-41.0	-60.1	3.8	7.43e-01	0	55	104	0	52	34728
2026-01-17 02:02:38.33	10.30	4.59	-41.0	-60.1	3.8	7.46e-01	0	55	104	0	52	34782
2026-01-17 02:02:39.34	10.26	4.66	-41.0	-60.1	3.8	7.47e-01	0	55	104	0	52	34594
2026-01-17 02:02:40.36	10.22	4.73	-41.0	-60.1	3.8	7.46e-01	0	55	104	0	52	34765
2026-01-17 02:02:41.37	10.18	4.80	-41.0	-60.1	3.8	7.46e-01	0	55	104	0	52	34716
2026-01-17 02:02:42.38	10.14	4.88	-41.0	-60.1	3.8	7.43e-01	0	55	104	0	52	34554
2026-01-17 02:02:43.39	10.10	4.95	-41.0	-60.0	3.8	7.47e-01	0	55	104	0	52	34469
2026-01-17 02:02:44.40	10.06	5.02	-41.0	-60.1	3.8	7.47e-01	0	55	104	0	52	34561
2026-01-17 02:02:45.41	10.01	5.10	-41.0	-60.1	3.8	7.48e-01	0	55	104	0	52	34521
2026-01-17 02:02:46.42	9.97	5.17	-41.0	-60.0	3.8	7.45e-01	0	55	104	0	52	34286
2026-01-17 02:02:47.43	9.93	5.24	-41.0	-60.1	3.8	7.43e-01	0	55	104	0	52	34510
2026-01-17 02:02:48.44	9.89	5.32	-41.0	-60.0	3.8	7.43e-01	0	55	104	0	52	34410
2026-01-17 02:02:49.45	9.84	5.39	-41.0	-60.0	3.8	7.45e-01	0	55	104	0	52	34470
2026-01-17 02:02:50.46	9.80	5.46	-41.0	-60.1	3.8	7.44e-01	0	55	104	0	52	34536
2026-01-17 02:02:51.48	9.76	5.54	-41.0	-60.1	3.8	7.42e-01	0	55	104	0	52	34721
2026-01-17 02:02:52.49	9.71	5.62	-41.0	-60.1	3.8	7.45e-01	0	55	104	0	52	34664
2026-01-17 02:02:53.50	9.67	5.69	-41.0	-60.1	3.8	7.47e-01	0	55	104	0	52	34699
2026-01-17 02:02:54.51	9.63	5.77	-41.0	-60.1	3.8	7.43e-01	0	55	104	0	52	34747
2026-01-17 02:02:55.52	9.58	5.84	-41.0	-60.1	3.8	7.45e-01	0	55	104	0	52	34740
2026-01-17 02:02:56.53	9.54	5.92	-41.0	-60.1	3.8	7.47e-01	0	56	104	0	52	34664
2026-01-17 02:02:57.54	9.49	5.99	-41.0	-60.1	3.8	7.46e-01	0	56	104	0	52	34788
2026-01-17 02:02:58.55	9.45	6.07	-41.0	-60.1	3.8	7.49e-01	0	56	104	0	52	34744
2026-01-17 02:02:59.56	9.40	6.14	-41.0	-60.1	3.8	7.45e-01	0	56	104	0	52	34746
2026-01-17 02:03:00.57	9.36	6.22	-41.0	-60.1	3.8	7.45e-01	0	56	104	0	52	34703
2026-01-17 02:03:01.58	9.31	6.30	-41.0	-60.1	3.8	7.46e-01	0	56	104	0	52	34781
2026-01-17 02:03:02.60	9.26	6.38	-41.0	-60.1	3.8	7.46e-01	0	56	104	0	52	34688
2026-01-17 02:03:03.61	9.22	6.45	-41.0	-60.1	3.8	7.42e-01	0	56	104	0	52	34633
2026-01-17 02:03:04.62	9.17	6.53	-41.0	-60.1	3.8	7.44e-01	0	56	104	0	52	34713
2026-01-17 02:03:05.63	9.12	6.61	-41.0	-60.1	3.8	7.43e-01	0	56	104	0	52	34592
2026-01-17 02:03:06.64	9.08	6.69	-41.0	-60.1	3.8	7.44e-01	0	56	104	0	52	34654
2026-01-17 02:03:07.65	9.03	6.77	-41.0	-60.1	3.8	7.45e-01	0	56	104	0	52	34587
2026-01-17 02:03:08.66	8.98	6.84	-41.0	-60.1	3.8	7.42e-01	0	56	104	0	52	34706
2026-01-17 02:03:09.67	8.93	6.92	-41.0	-60.1	3.8	7.47e-01	0	56	104	0	52	34756
2026-01-17 02:03:10.69	8.88	7.00	-41.0	-60.1	3.8	7.42e-01	0	56	104	0	52	34540
2026-01-17 02:03:11.70	8.83	7.08	-41.0	-60.1	3.8	7.45e-01	0	56	104	0	52	34639
2026-01-17 02:03:12.71	8.78	7.16	-41.0	-60.1	3.8	7.45e-01	0	56	104	0	52	34525
2026-01-17 02:03:13.72	8.74	7.24	-41.0	-60.1	3.8	7.45e-01	0	56	104	0	52	34551
2026-01-17 02:03:14.73	8.69	7.32	-41.0	-60.1	3.8	7.49e-01	0	56	104	0	52	34669
2026-01-17 02:03:15.74	8.64	7.40	-41.0	-60.0	3.8	7.44e-01	0	56	104	0	52	34473
2026-01-17 02:03:16.75	8.58	7.48	-41.0	-60.1	3.8	7.44e-01	0	56	104	0	52	34553
2026-01-17 02:03:17.77	8.53	7.56	-41.0	-60.1	3.8	7.46e-01	0	57	104	0	52	34597
2026-01-17 02:03:18.77	8.48	7.64	-41.0	-60.0	3.8	7.46e-01	0	57	104	0	52	34401
2026-01-17 02:03:19.78	8.43	7.73	-41.0	-60.1	3.8	7.49e-01	0	57	104	0	52	34663
2026-01-17 02:03:20.80	8.38	7.81	-41.0	-60.1	3.8	7.45e-01	0	57	104	0	52	34505
2026-01-17 02:03:21.81	8.33	7.89	-41.0	-60.1	3.8	7.46e-01	0	57	104	0	52	34556
2026-01-17 02:03:22.82	8.27	7.97	-41.0	-60.1	3.8	7.47e-01	0	57	104	0	52	34757
2026-01-17 02:03:23.83	8.22	8.05	-41.0	-60.0	3.8	7.45e-01	0	57	104	0	52	34395
2026-01-17 02:03:24.84	8.17	8.14	-41.0	-60.1	3.8	7.46e-01	0	57	104	0	52	34629
2026-01-17 02:03:25.85	8.11	8.22	-41.0	-60.1	3.8	7.43e-01	0	57	104	0	52	34843
2026-01-17 02:03:26.86	8.06	8.30	-41.1	-60.2	3.8	7.45e-01	0	57	104	0	52	35142
2026-01-17 02:03:27.86	8.01	8.39	-41.3	-60.4	3.8	7.45e-01	0	57	104	0	53	34042
2026-01-17 02:03:28.87	7.95	8.47	-40.9	-60.0	3.8	7.44e-01	0	57	104	0	53	32442
2026-01-17 02:03:29.88	7.90	8.55	-41.3	-60.3	3.8	7.48e-01	0	57	104	0	53	33631
2026-01-17 02:03:30.89	7.84	8.64	-40.9	-60.0	3.8	7.44e-01	0	57	104	0	53	32443
2026-01-17 02:03:31.90	7.78	8.72	-41.1	-60.2	3.8	7.45e-01	0	57	104	0	53	33204
2026-01-17 02:03:32.91	7.73	8.81	-41.1	-60.2	3.8	7.45e-01	0	57	104	0	53	32988
2026-01-17 02:03:33.92	7.67	8.89	-41.2	-60.3	3.8	7.44e-01	0	57	104	0	53	33335
2026-01-17 02:03:34.93	7.61	8.98	-41.1	-60.1	3.8	7.44e-01	0	57	104	0	53	32685
2026-01-17 02:03:35.94	7.56	9.07	-41.3	-60.5	3.8	7.44e-01	0	57	104	0	53	34216
2026-01-17 02:03:36.95	7.50	9.15	-40.9	-60.0	3.8	7.45e-01	0	57	104	0	53	32392
2026-01-17 02:03:37.96	7.44	9.24	-41.4	-60.5	3.8	7.41e-01	0	57	104	0	53	34217
2026-01-17 02:03:38.97	7.38	9.33	-40.9	-60.0	3.8	7.44e-01	0	57	104	0	53	32321
2026-01-17 02:03:39.98	7.32	9.41	-41.3	-60.5	3.8	7.44e-01	0	57	104	0	53	34089
2026-01-17 02:03:40.99	7.26	9.50	-41.0	-60.1	3.8	7.45e-01	0	58	104	0	53	32691
2026-01-17 02:03:42.00	7.20	9.59	-41.4	-60.6	3.8	7.46e-01	0	57	104	0	53	34608
2026-01-17 02:03:43.01	7.14	9.68	-41.0	-60.1	3.8	7.42e-01	0	57	104	0	53	32601
2026-01-17 02:03:44.02	7.08	9.76	-41.5	-60.7	3.8	7.42e-01	0	57	104	0	53	35016
2026-01-17 02:03:45.03	7.02	9.85	-40.9	-60.0	3.8	7.46e-01	0	58	104	0	53	32378
2026-01-17 02:03:46.04	6.96	9.94	-40.9	-60.0	3.8	7.43e-01	0	57	104	0	53	32310
2026-01-17 02:03:47.04	6.90	10.03	-40.9	-59.9	3.8	7.43e-01	0	58	104	0	53	32163
2026-01-17 02:03:48.05	6.84	10.12	-40.9	-60.0	3.8	7.46e-01	0	57	104	0	53	32322
2026-01-17 02:03:49.06	6.77	10.21	-41.0	-60.1	3.8	7.44e-01	0	57	104	0	53	32746
2026-01-17 02:03:50.07	6.71	10.30	-41.0	-60.1	3.8	7.44e-01	0	58	104	0	53	32787
2026-01-17 02:03:51.08	6.65	10.39	-41.8	-60.9	3.8	7.45e-01	0	58	104	0	54	33774
2026-01-17 02:03:52.09	6.58	10.48	-41.4	-60.6	3.8	7.44e-01	0	57	104	0	54	32572
2026-01-17 02:03:53.10	6.52	10.57	-40.9	-60.0	3.8	7.46e-01	0	58	104	0	53	32484
2026-01-17 02:03:54.11	6.45	10.67	-40.9	-60.0	3.8	7.46e-01	0	58	104	0	53	32429
2026-01-17 02:03:55.12	6.39	10.76	-40.9	-60.0	3.8	7.47e-01	0	58	104	0	53	32239
2026-01-17 02:03:56.13	6.32	10.85	-41.0	-59.8	3.8	7.45e-01	0	58	104	0	53	31679
2026-01-17 02:03:57.14	6.26	10.94	-41.0	-59.7	3.8	7.43e-01	0	58	104	0	53	31213
2026-01-17 02:03:58.15	6.19	11.04	-41.4	-60.0	3.8	7.45e-01	0	58	104	0	53	32547
2026-01-17 02:03:59.16	6.12	11.13	-42.1	-58.9	3.9	7.41e-01	0	58	104	0	54	27006
2026-01-17 02:04:00.17	6.05	11.22	-42.8	-56.8	4.9	7.14e-01	0	58	104	0	56	18872
2026-01-17 02:04:01.18	5.98	11.32	-41.7	-60.4	3.8	7.41e-01	0	58	104	0	55	30257
2026-01-17 02:04:02.19	5.92	11.41	-42.4	-55.4	5.6	6.94e-01	34	58	0	0	55	16988
2026-01-17 02:04:03.20	5.85	11.51	-42.3	-54.9	5.8	6.88e-01	78	58	0	1048576	55	16119
2026-01-17 02:04:04.21	5.78	11.60	-42.3	-54.2	6.4	6.73e-01	75	58	0	2621440	55	14875
2026-01-17 02:04:05.22	5.71	11.70	-42.2	-53.4	7.1	6.56e-01	92	58	0	4718592	55	13546
2026-01-17 02:04:06.23	5.63	11.79	-42.1	-52.7	7.7	6.48e-01	92	58	0	6291456	55	12518
2026-01-17 02:04:07.24	5.56	11.89	-42.1	-52.5	8.1	6.44e-01	71	58	0	8388608	55	12101
2026-01-17 02:04:08.25	5.49	11.99	-42.1	-52.0	8.5	6.39e-01	11	58	0	10485760	55	11539
2026-01-17 02:04:09.26	5.42	12.09	-41.9	-51.0	9.4	6.23e-01	0	58	0	12058624	55	10282
2026-01-17 02:04:10.27	5.34	12.18	-41.7	-49.7	10.8	6.13e-01	0	58	0	14155776	55	8828
2026-01-17 02:04:11.28	5.27	12.28	-41.3	-48.4	12.2	6.05e-01	0	58	0	16252928	54	8014
2026-01-17 02:04:12.29	5.20	12.38	-41.1	-47.6	12.9	6.06e-01	0	58	0	17825792	54	7348
2026-01-17 02:04:13.30	5.12	12.48	-41.0	-47.3	13.3	6.04e-01	0	58	0	19922944	54	7052
2026-01-17 02:04:14.31	5.05	12.58	-40.9	-47.1	13.6	6.02e-01	0	58	0	21495808	53	7290
2026-01-17 02:04:15.32	4.97	12.68	-40.9	-46.9	13.8	6.05e-01	0	58	0	23592960	53	7141
2026-01-17 02:04:16.33	4.89	12.78	-41.1	-47.7	13.0	6.07e-01	0	58	0	25690112	53	7819
2026-01-17 02:04:17.34	4.82	12.88	-41.4	-48.4	12.2	6.06e-01	0	58	0	27262976	53	8557
2026-01-17 02:04:18.35	4.74	12.98	-41.5	-49.0	11.7	6.11e-01	0	58	0	29360128	53	9152
2026-01-17 02:04:19.36	4.66	13.08	-41.7	-49.2	11.5	6.07e-01	0	59	0	30932992	53	9371
2026-01-17 02:04:20.37	4.58	13.18	-41.6	-48.4	12.5	6.05e-01	0	58	0	33030144	53	8541
2026-01-17 02:04:21.38	4.50	13.28	-41.6	-47.8	13.4	6.05e-01	0	58	0	35127296	53	7971
2026-01-17 02:04:22.39	4.42	13.39	-41.5	-47.1	14.3	6.01e-01	0	59	0	36700160	53	7360
2026-01-17 02:04:23.40	4.34	13.49	-41.3	-46.2	15.4	6.01e-01	0	58	0	38797312	53	6635
2026-01-17 02:04:24.41	4.26	13.59	-41.1	-45.8	16.0	6.00e-01	0	58	0	40894464	53	6283
2026-01-17 02:04:25.42	4.18	13.70	-40.9	-45.2	16.6	6.00e-01	0	58	0	42467328	53	5891
2026-01-17 02:04:26.43	4.09	13.80	-40.6	-44.5	17.3	6.03e-01	0	58	0	44564480	53	5449
2026-01-17 02:04:27.43	4.01	13.90	-40.6	-44.6	17.3	6.03e-01	0	59	0	46137344	53	5497
2026-01-17 02:04:28.44	3.93	14.01	-40.7	-44.6	17.4	6.01e-01	0	59	0	48234496	53	5508
2026-01-17 02:04:29.45	3.84	14.11	-40.8	-44.8	17.2	6.01e-01	0	59	0	49807360	53	5624
2026-01-17 02:04:30.46	3.76	14.22	-41.0	-45.0	17.0	6.01e-01	0	59	0	51904512	53	5788
2026-01-17 02:04:31.47	3.67	14.33	-41.3	-45.7	16.4	6.03e-01	0	58	0	54001664	53	6220
2026-01-17 02:04:32.48	3.58	14.43	-41.2	-45.3	16.8	6.01e-01	0	59	0	55574528	53	5955
2026-01-17 02:04:33.49	3.50	14.54	-40.9	-44.7	17.4	6.01e-01	0	59	0	57671680	53	5578
2026-01-17 02:04:34.50	3.41	14.65	-40.9	-44.6	17.5	6.02e-01	0	59	0	59768832	53	5512
2026-01-17 02:04:35.51	3.32	14.76	-41.1	-45.1	17.2	6.01e-01	0	59	0	61341696	53	5793
2026-01-17 02:04:36.52	3.23	14.87	-41.5	-45.6	16.8	5.99e-01	0	59	0	63438848	53	6137
2026-01-17 02:04:37.53	3.14	14.98	-41.2	-44.9	17.4	6.01e-01	0	59	0	65011712	53	5707
2026-01-17 02:04:38.54	3.05	15.08	-40.9	-44.3	18.0	5.99e-01	0	59	0	67108864	53	5325
2026-01-17 02:04:39.55	2.96	15.20	-41.1	-44.7	17.8	6.00e-01	0	59	0	69206016	53	5551
2026-01-17 02:04:40.56	2.86	15.31	-41.3	-45.0	17.6	6.03e-01	0	59	0	70778880	53	5725
2026-01-17 02:04:41.57	2.77	15.42	-41.1	-44.5	18.0	5.99e-01	0	59	0	72876032	53	5464
2026-01-17 02:04:42.58	2.68	15.53	-41.2	-44.7	17.9	6.01e-01	0	59	0	74448896	53	5563
2026-01-17 02:04:43.58	2.58	15.64	-41.3	-45.0	17.6	6.00e-01	0	59	0	76546048	53	5764
2026-01-17 02:04:44.59	2.49	15.75	-41.1	-44.5	18.1	6.03e-01	0	59	0	78643200	53	5422
2026-01-17 02:04:45.61	2.39	15.87	-41.0	-44.3	18.4	6.03e-01	0	59	0	80216064	53	5338
2026-01-17 02:04:46.62	2.29	15.98	-41.1	-44.5	18.2	5.99e-01	0	59	0	82313216	53	5444
2026-01-17 02:04:47.63	2.19	16.09	-41.0	-44.4	18.4	5.99e-01	0	59	0	84410368	53	5345
2026-01-17 02:04:48.64	2.09	16.21	-41.1	-44.4	18.3	6.03e-01	0	59	0	85983232	53	5386
2026-01-17 02:04:49.65	1.99	16.32	-41.2	-44.6	18.2	6.03e-01	0	59	0	88080384	53	5484
2026-01-17 02:04:50.66	1.89	16.44	-41.1	-44.4	18.4	6.03e-01	0	59	0	89653248	53	5371
2026-01-17 02:04:51.67	1.79	16.56	-41.2	-44.5	18.3	6.03e-01	0	59	0	91750400	53	5444
2026-01-17 02:04:52.68	1.69	16.67	-41.1	-44.3	18.5	6.02e-01	0	59	0	93847552	53	5313
2026-01-17 02:04:53.69	1.59	16.79	-41.2	-44.6	18.3	6.02e-01	0	59	0	95420416	53	5488
2026-01-17 02:04:54.70	1.48	16.91	-41.1	-44.3	18.6	5.98e-01	0	59	0	97517568	53	5319
2026-01-17 02:04:55.71	1.38	17.03	-41.1	-44.4	18.5	6.00e-01	0	59	0	99090432	53	5363
2026-01-17 02:04:56.71	1.27	17.14	-41.0	-44.2	18.8	6.00e-01	0	59	0	101187584	53	5251
2026-01-17 02:04:57.72	1.16	17.26	-41.0	-44.2	18.8	6.00e-01	0	59	0	103284736	53	5226
2026-01-17 02:04:58.73	1.06	17.38	-41.0	-44.1	18.9	6.01e-01	0	59	0	104857600	53	5218
2026-01-17 02:04:59.74	0.95	17.50	-41.0	-44.1	18.9	6.01e-01	0	59	0	106954752	53	5209
2026-01-17 02:05:00.75	0.84	17.62	-41.1	-44.2	18.9	6.01e-01	0	59	0	108527616	53	5238
2026-01-17 02:05:01.76	0.73	17.75	-41.0	-44.0	19.1	6.02e-01	0	59	0	110624768	53	5119
2026-01-17 02:05:02.77	0.61	17.87	-41.0	-44.1	19.0	6.02e-01	0	59	0	112721920	53	5178
2026-01-17 02:05:03.78	0.50	17.99	-41.0	-44.0	19.1	6.02e-01	0	59	0	114294784	53	5112
2026-01-17 02:05:04.79	0.39	18.11	-41.0	-44.0	19.1	6.01e-01	0	59	0	116391936	53	5128
2026-01-17 02:05:05.80	0.27	18.24	-41.0	-44.1	19.0	6.03e-01	0	59	0	117964800	53	5171
2026-01-17 02:05:06.81	0.16	18.36	-41.0	-44.1	19.1	6.01e-01	0	59	0	120061952	53	5167
2026-01-17 02:05:07.82	0.04	18.49	-41.1	-44.2	19.0	6.01e-01	0	59	0	122159104	53	5226
2026-01-17 02:05:08.83	359.92	18.61	-41.1	-44.2	19.0	6.00e-01	0	59	0	123731968	53	5240
2026-01-17 02:05:09.84	359.80	18.74	-41.1	-44.2	18.9	6.02e-01	0	59	0	125829120	53	5264
2026-01-17 02:05:10.85	359.68	18.87	-41.2	-44.3	18.8	6.01e-01	0	59	0	127926272	53	5305
2026-01-17 02:05:11.86	359.56	18.99	-41.2	-44.4	18.8	6.02e-01	0	59	0	129499136	53	5345
2026-01-17 02:05:12.87	359.44	19.12	-41.3	-44.4	18.7	5.99e-01	0	59	0	131596288	53	5370
2026-01-17 02:05:13.88	359.32	19.25	-41.2	-44.4	18.7	6.01e-01	0	59	0	133169152	53	5370
2026-01-17 02:05:14.89	359.19	19.38	-41.2	-44.4	18.8	6.04e-01	0	59	0	135266304	53	5366
2026-01-17 02:05:15.90	359.07	19.51	-41.3	-44.5	18.7	6.02e-01	0	59	0	137363456	53	5436
2026-01-17 02:05:16.91	358.94	19.64	-41.4	-44.6	18.6	6.03e-01	0	59	0	138936320	53	5491
2026-01-17 02:05:17.92	358.81	19.77	-41.3	-44.5	18.6	6.01e-01	0	59	0	141033472	53	5455
2026-01-17 02:05:18.93	358.68	19.90	-41.3	-44.6	18.6	6.04e-01	0	59	0	142606336	53	5508
2026-01-17 02:05:19.94	358.55	20.03	-41.3	-44.6	18.5	5.98e-01	0	59	0	144703488	53	5509
2026-01-17 02:05:20.95	358.42	20.17	-41.3	-44.6	18.6	6.02e-01	0	59	0	146800640	53	5478
2026-01-17 02:05:21.96	358.29	20.30	-41.1	-44.3	18.8	6.01e-01	0	59	0	148373504	53	5323
2026-01-17 02:05:22.97	358.15	20.43	-41.1	-44.2	18.9	5.99e-01	0	59	0	150470656	53	5274
2026-01-17 02:05:23.98	358.02	20.57	-41.1	-44.2	18.9	6.02e-01	0	59	0	152567808	53	5266
2026-01-17 02:05:24.99	357.88	20.70	-41.1	-44.3	18.8	6.01e-01	0	59	0	154140672	53	5301
2026-01-17 02:05:26.00	357.74	20.84	-41.2	-44.5	18.6	6.02e-01	0	59	0	156237824	53	5407
2026-01-17 02:05:27.01	357.60	20.97	-41.2	-44.5	18.5	6.02e-01	0	59	0	157810688	53	5427
2026-01-17 02:05:28.02	357.46	21.11	-41.2	-44.5	18.5	6.02e-01	0	59	0	159907840	53	5431
2026-01-17 02:05:29.03	357.32	21.25	-41.3	-44.6	18.4	6.01e-01	0	59	0	162004992	53	5498
2026-01-17 02:05:30.04	357.18	21.39	-41.3	-44.6	18.4	6.01e-01	0	59	0	163577856	53	5524
2026-01-17 02:05:31.05	357.03	21.53	-41.4	-44.7	18.3	6.02e-01	0	59	0	165675008	53	5577
2026-01-17 02:05:32.06	356.89	21.67	-41.4	-44.8	18.3	5.98e-01	0	59	0	167247872	53	5621
2026-01-17 02:05:33.07	356.74	21.81	-41.4	-44.8	18.3	6.01e-01	0	59	0	169345024	53	5627
2026-01-17 02:05:34.08	356.59	21.95	-41.4	-44.7	18.4	6.05e-01	0	59	0	171442176	53	5573
2026-01-17 02:05:35.09	356.44	22.09	-41.3	-44.6	18.5	6.01e-01	0	59	0	173015040	53	5505
2026-01-17 02:05:36.10	356.29	22.23	-41.3	-44.5	18.6	6.00e-01	0	59	0	175112192	53	5453
2026-01-17 02:05:37.11	356.13	22.38	-41.4	-44.7	18.5	6.00e-01	0	59	0	177209344	53	5558
2026-01-17 02:05:38.12	355.98	22.52	-41.5	-44.9	18.3	6.04e-01	0	59	0	178782208	53	5684
2026-01-17 02:05:39.13	355.82	22.66	-41.5	-44.8	18.5	6.01e-01	0	60	0	180879360	53	5599
2026-01-17 02:05:40.14	355.67	22.81	-41.4	-44.5	18.7	6.02e-01	0	59	0	182452224	53	5461
2026-01-17 02:05:41.15	355.51	22.95	-41.4	-44.6	18.7	6.02e-01	0	59	0	184549376	53	5483
2026-01-17 02:05:42.16	355.34	23.10	-41.4	-44.6	18.7	5.99e-01	0	59	0	186646528	53	5504
2026-01-17 02:05:43.17	355.18	23.25	-41.4	-44.6	18.8	6.05e-01	0	60	0	188219392	53	5468
2026-01-17 02:05:44.18	355.02	23.39	-41.4	-44.5	18.8	6.01e-01	0	59	0	190316544	53	5431
2026-01-17 02:05:45.19	354.85	23.54	-41.4	-44.5	18.8	6.00e-01	0	59	0	191889408	53	5452
2026-01-17 02:05:46.20	354.68	23.69	-41.4	-44.5	18.8	6.02e-01	0	59	0	193986560	53	5432
2026-01-17 02:05:47.21	354.51	23.84	-41.4	-44.5	18.8	6.01e-01	0	59	0	196083712	53	5434
2026-01-17 02:05:48.22	354.34	23.99	-41.5	-44.6	18.7	6.02e-01	0	59	0	197656576	53	5522
2026-01-17 02:05:49.23	354.17	24.14	-41.5	-44.7	18.6	6.03e-01	0	60	0	199753728	53	5584
2026-01-17 02:05:50.24	353.99	24.29	-41.5	-44.7	18.7	6.00e-01	0	59	0	201326592	53	5569
2026-01-17 02:05:51.25	353.82	24.45	-41.6	-44.8	18.6	6.04e-01	0	59	0	203423744	53	5603
2026-01-17 02:05:52.25	353.64	24.60	-41.5	-44.6	18.8	5.99e-01	0	60	0	205520896	53	5522
2026-01-17 02:05:53.27	353.46	24.75	-41.5	-44.7	18.8	5.99e-01	0	59	0	207093760	53	5542
2026-01-17 02:05:54.27	353.28	24.91	-41.5	-44.7	18.7	6.01e-01	0	59	0	209190912	53	5545
2026-01-17 02:05:55.28	353.09	25.06	-41.6	-44.8	18.7	6.02e-01	0	59	0	210763776	53	5598
2026-01-17 02:05:56.29	352.91	25.22	-41.6	-44.8	18.6	6.01e-01	0	60	0	212860928	53	5643
2026-01-17 02:05:57.30	352.72	25.37	-41.6	-44.9	18.6	5.99e-01	0	59	0	214958080	53	5658
2026-01-17 02:05:58.31	352.53	25.53	-41.6	-44.9	18.6	6.01e-01	0	60	0	216530944	53	5664
2026-01-17 02:05:59.32	352.34	25.69	-41.6	-44.8	18.7	6.02e-01	0	60	0	218628096	53	5624
2026-01-17 02:06:00.33	352.14	25.85	-41.6	-44.7	18.8	5.99e-01	0	60	0	220725248	53	5589
2026-01-17 02:06:01.34	351.94	26.01	-41.5	-44.6	19.0	6.01e-01	0	60	0	222298112	53	5471
2026-01-17 02:06:02.35	351.75	26.17	-41.4	-44.4	19.1	6.00e-01	0	60	0	224395264	53	5398
2026-01-17 02:06:03.36	351.55	26.33	-41.4	-44.4	19.2	6.01e-01	0	59	0	225968128	53	5400
2026-01-17 02:06:04.37	351.34	26.49	-41.4	-44.4	19.2	6.02e-01	0	59	0	228065280	53	5383
2026-01-17 02:06:05.38	351.14	26.65	-41.4	-44.4	19.2	6.02e-01	0	59	0	230162432	53	5379
2026-01-17 02:06:06.39	350.93	26.81	-41.5	-44.5	19.1	6.02e-01	0	60	0	231735296	53	5454
2026-01-17 02:06:07.39	350.72	26.97	-41.5	-44.5	19.1	6.02e-01	0	60	0	233832448	53	5443
2026-01-17 02:06:08.41	350.51	27.14	-41.5	-44.5	19.1	6.01e-01	0	60	0	235405312	53	5462
2026-01-17 02:06:09.42	350.30	27.30	-41.5	-44.4	19.2	5.99e-01	0	60	0	237502464	53	5394
2026-01-17 02:06:10.43	350.08	27.47	-41.5	-44.4	19.3	6.02e-01	0	60	0	239599616	53	5376
2026-01-17 02:06:11.44	349.86	27.63	-41.5	-44.4	19.3	5.99e-01	0	60	0	241172480	53	5375
2026-01-17 02:06:12.45	349.64	27.80	-41.5	-44.5	19.2	5.99e-01	0	60	0	243269632	53	5424
2026-01-17 02:06:13.46	349.42	27.96	-41.5	-44.5	19.2	6.03e-01	0	59	0	244842496	53	5406
2026-01-17 02:06:14.47	349.19	28.13	-41.4	-44.3	19.4	6.00e-01	0	60	0	246939648	53	5296
2026-01-17 02:06:15.48	348.96	28.30	-41.4	-44.2	19.5	6.02e-01	0	59	0	249036800	53	5255
2026-01-17 02:06:16.49	348.73	28.47	-41.3	-44.2	19.6	5.99e-01	0	60	0	250609664	53	5238
2026-01-17 02:06:17.49	348.50	28.64	-41.4	-44.2	19.6	6.02e-01	0	60	0	252706816	53	5233
2026-01-17 02:06:18.50	348.27	28.81	-41.3	-44.2	19.6	6.02e-01	0	60	0	254279680	53	5227
2026-01-17 02:06:19.51	348.03	28.98	-41.4	-44.2	19.6	6.01e-01	0	60	0	256376832	53	5230
2026-01-17 02:06:20.52	347.78	29.15	-41.3	-44.1	19.7	6.02e-01	0	60	0	258473984	53	5189
2026-01-17 02:06:21.53	347.54	29.32	-41.3	-44.1	19.7	6.00e-01	0	60	0	260046848	53	5192
2026-01-17 02:06:22.54	347.29	29.49	-41.4	-44.2	19.6	6.02e-01	0	60	0	262144000	53	5256
2026-01-17 02:06:23.55	347.04	29.66	-41.5	-44.3	19.5	6.01e-01	0	60	0	263716864	53	5328
2026-01-17 02:06:24.56	346.79	29.84	-41.5	-44.3	19.6	6.02e-01	0	60	0	265814016	53	5305
2026-01-17 02:06:25.57	346.54	30.01	-41.5	-44.3	19.6	6.04e-01	0	60	0	267911168	53	5311
2026-01-17 02:06:26.58	346.28	30.18	-41.4	-44.2	19.7	6.01e-01	0	60	0	269484032	53	5231
2026-01-17 02:06:27.59	346.02	30.36	-41.3	-44.0	19.9	5.98e-01	0	60	0	271581184	53	5139
2026-01-17 02:06:28.60	345.75	30.53	-41.2	-43.9	20.0	6.02e-01	0	60	0	273678336	53	5089
2026-01-17 02:06:29.61	345.49	30.71	-41.2	-43.8	20.0	5.99e-01	0	60	0	275251200	53	5041
2026-01-17 02:06:30.62	345.22	30.88	-41.1	-43.8	20.1	6.00e-01	0	60	0	277348352	53	4996
2026-01-17 02:06:31.63	344.94	31.06	-41.2	-43.8	20.1	6.02e-01	0	60	0	278921216	53	5039
2026-01-17 02:06:32.63	344.67	31.24	-41.3	-44.1	19.9	6.02e-01	0	60	0	281018368	53	5161
2026-01-17 02:06:33.64	344.39	31.41	-41.5	-44.2	19.7	6.02e-01	0	60	0	283115520	53	5278
2026-01-17 02:06:34.65	344.11	31.59	-41.6	-44.4	19.6	6.02e-01	0	60	0	284688384	53	5376
2026-01-17 02:06:35.66	343.82	31.77	-41.5	-44.3	19.7	6.01e-01	0	60	0	286785536	53	5307
2026-01-17 02:06:36.67	343.53	31.95	-41.4	-44.1	19.8	6.04e-01	0	60	0	288882688	53	5209
2026-01-17 02:06:37.68	343.24	32.13	-41.4	-44.1	19.9	6.03e-01	0	60	0	290455552	53	5192
2026-01-17 02:06:38.69	342.94	32.30	-41.3	-44.1	19.9	5.98e-01	0	60	0	292552704	53	5180
2026-01-17 02:06:39.70	342.64	32.48	-41.4	-44.1	19.9	6.04e-01	0	60	0	294125568	53	5203
2026-01-17 02:06:40.71	342.34	32.66	-41.5	-44.2	19.8	6.02e-01	0	60	0	296222720	53	5265
2026-01-17 02:06:41.72	342.03	32.84	-41.5	-44.3	19.7	6.01e-01	0	60	0	298319872	53	5312
2026-01-17 02:06:42.73	341.72	33.02	-41.7	-44.6	19.4	5.98e-01	0	60	0	299892736	53	5510
2026-01-17 02:06:43.74	341.41	33.20	-41.7	-44.6	19.4	6.01e-01	0	60	0	301989888	54	5186
2026-01-17 02:06:44.75	341.09	33.38	-41.6	-44.4	19.6	6.00e-01	0	60	0	303562752	54	5069
2026-01-17 02:06:45.76	340.77	33.56	-41.6	-44.4	19.7	6.03e-01	0	60	0	305659904	54	5064
2026-01-17 02:06:46.77	340.45	33.75	-41.7	-44.5	19.5	6.00e-01	0	60	0	307757056	54	5154
2026-01-17 02:06:47.78	340.12	33.93	-41.8	-44.7	19.4	6.02e-01	0	60	0	309329920	54	5255
2026-01-17 02:06:48.79	339.79	34.11	-41.8	-44.7	19.4	6.00e-01	0	60	0	311427072	54	5247
2026-01-17 02:06:49.80	339.45	34.29	-41.7	-44.6	19.4	6.01e-01	0	60	0	312999936	54	5208
2026-01-17 02:06:50.81	339.11	34.47	-41.9	-44.8	19.3	6.03e-01	0	60	0	315097088	54	5329
2026-01-17 02:06:51.82	338.77	34.65	-42.0	-45.1	19.0	6.03e-01	0	60	0	317194240	54	5476
2026-01-17 02:06:52.83	338.42	34.83	-42.0	-45.1	19.0	6.02e-01	0	60	0	318767104	54	5485
2026-01-17 02:06:53.85	338.07	35.01	-42.1	-45.1	19.0	6.02e-01	0	60	0	320864256	54	5514
2026-01-17 02:06:54.86	337.71	35.19	-42.1	-45.1	19.0	6.04e-01	0	60	0	322437120	54	5489
2026-01-17 02:06:55.86	337.35	35.37	-42.0	-45.0	19.2	6.00e-01	0	60	0	324534272	54	5406
2026-01-17 02:06:56.87	336.99	35.55	-42.1	-45.2	18.9	6.00e-01	0	60	0	326631424	54	5536
2026-01-17 02:06:57.89	336.62	35.73	-42.3	-45.6	18.6	6.03e-01	0	60	0	328204288	55	5469
2026-01-17 02:06:58.89	336.25	35.91	-42.5	-45.8	18.3	6.02e-01	0	60	0	330301440	55	5619
2026-01-17 02:06:59.90	335.87	36.09	-42.5	-45.7	18.4	6.00e-01	0	60	0	332398592	55	5587
2026-01-17 02:07:00.91	335.49	36.27	-42.3	-45.5	18.6	5.99e-01	0	60	0	333971456	55	5440
2026-01-17 02:07:01.92	335.11	36.45	-42.3	-45.5	18.1	6.03e-01	0	60	0	336068608	55	5415
2026-01-17 02:07:02.93	334.72	36.63	-42.4	-45.6	18.6	6.01e-01	0	60	0	337641472	55	5477
2026-01-17 02:07:03.94	334.32	36.81	-42.5	-45.8	18.3	6.00e-01	0	60	0	339738624	55	5638
2026-01-17 02:07:04.95	333.92	36.98	-42.8	-46.3	17.9	6.02e-01	0	60	0	341835776	56	5641
2026-01-17 02:07:05.96	333.52	37.16	-42.9	-46.3	17.9	6.00e-01	0	60	0	343408640	56	5641
2026-01-17 02:07:06.97	333.11	37.34	-42.7	-46.1	18.1	6.01e-01	0	60	0	345505792	56	5526
2026-01-17 02:07:07.98	332.70	37.51	-42.6	-45.8	18.4	5.99e-01	0	60	0	347078656	56	5339
2026-01-17 02:07:08.99	332.28	37.69	-42.6	-45.9	18.4	6.01e-01	0	60	0	349175808	56	5356
2026-01-17 02:07:10.00	331.86	37.86	-42.8	-46.1	18.1	6.01e-01	0	60	0	351272960	56	5519
2026-01-17 02:07:11.01	331.44	38.03	-42.9	-46.3	17.9	6.01e-01	0	60	0	352845824	56	5656
2026-01-17 02:07:12.02	331.00	38.21	-42.9	-46.4	17.8	6.01e-01	0	60	0	354942976	56	5719
2026-01-17 02:07:13.02	330.57	38.38	-42.9	-46.4	17.8	6.01e-01	0	60	0	357040128	56	5674
2026-01-17 02:07:14.03	330.13	38.55	-42.7	-46.1	18.2	6.01e-01	0	60	0	358612992	56	5471
2026-01-17 02:07:15.04	329.69	38.72	-42.6	-46.0	18.3	6.05e-01	0	60	0	360710144	56	5407
2026-01-17 02:07:16.05	329.24	38.89	-42.8	-46.2	18.0	6.01e-01	0	60	0	362283008	56	5563
2026-01-17 02:07:17.06	328.78	39.05	-42.9	-46.3	17.9	5.99e-01	0	60	0	364380160	56	5650
2026-01-17 02:07:18.07	328.32	39.22	-42.9	-46.4	17.9	6.05e-01	0	60	0	366477312	56	5668
2026-01-17 02:07:19.08	327.86	39.38	-43.0	-46.5	17.7	5.99e-01	0	60	0	368050176	56	5786
2026-01-17 02:07:20.09	327.39	39.55	-42.9	-46.3	17.9	6.00e-01	0	60	0	370147328	56	5640
2026-01-17 02:07:21.10	326.92	39.71	-42.6	-46.0	18.3	6.00e-01	0	60	0	371720192	56	5403
2026-01-17 02:07:22.11	326.44	39.87	-42.8	-46.2	18.1	6.01e-01	0	60	0	373817344	56	5542
2026-01-17 02:07:23.12	325.96	40.03	-42.9	-46.5	17.8	6.01e-01	0	60	0	375914496	56	5730
2026-01-17 02:07:24.13	325.47	40.19	-43.0	-46.6	17.6	6.02e-01	0	60	0	377487360	56	5802
2026-01-17 02:07:25.14	324.97	40.35	-42.9	-46.4	17.8	6.05e-01	0	60	0	379584512	56	5721
2026-01-17 02:07:26.15	324.47	40.50	-42.8	-46.2	18.1	6.02e-01	0	60	0	381157376	56	5533
2026-01-17 02:07:27.16	323.97	40.65	-42.8	-46.2	18.1	6.03e-01	0	60	0	383254528	56	5547
2026-01-17 02:07:28.17	323.46	40.80	-43.0	-46.5	17.7	6.03e-01	0	60	0	385351680	56	5745
2026-01-17 02:07:29.18	322.95	40.95	-42.9	-46.4	17.8	5.99e-01	0	60	0	386924544	56	5700
2026-01-17 02:07:30.19	322.43	41.10	-42.9	-46.4	17.9	6.02e-01	0	60	0	389021696	56	5671
2026-01-17 02:07:31.20	321.91	41.25	-42.7	-46.1	18.1	6.04e-01	0	60	0	390594560	56	5495
2026-01-17 02:07:32.21	321.38	41.39	-42.6	-45.9	18.4	6.03e-01	0	60	0	392691712	56	5351
2026-01-17 02:07:33.22	320.85	41.53	-42.6	-45.9	18.4	5.98e-01	0	60	0	394788864	56	5363
2026-01-17 02:07:34.23	320.31	41.67	-42.5	-45.8	18.5	6.01e-01	0	60	0	396361728	56	5288
2026-01-17 02:07:35.24	319.77	41.81	-42.7	-46.1	18.2	6.00e-01	0	60	0	398458880	56	5490
2026-01-17 02:07:36.24	319.23	41.94	-42.7	-46.1	18.2	6.00e-01	0	60	0	400031744	56	5502
2026-01-17 02:07:37.26	318.68	42.07	-42.4	-45.5	18.8	5.99e-01	0	60	0	402128896	56	5111
2026-01-17 02:07:38.27	318.12	42.20	-42.6	-45.8	18.5	6.03e-01	0	60	0	404226048	56	5330
2026-01-17 02:07:39.28	317.56	42.33	-42.7	-46.0	18.3	6.00e-01	0	60	0	405798912	56	5413
2026-01-17 02:07:40.29	316.99	42.45	-42.6	-45.9	18.4	6.02e-01	0	60	0	407896064	56	5361
2026-01-17 02:07:41.30	316.43	42.57	-42.5	-45.7	18.6	6.02e-01	0	60	0	409993216	56	5260
2026-01-17 02:07:42.31	315.85	42.69	-42.6	-45.8	18.5	6.00e-01	0	60	0	411566080	56	5308
2026-01-17 02:07:43.32	315.27	42.81	-42.7	-46.1	18.2	6.01e-01	0	60	0	413663232	56	5487
2026-01-17 02:07:44.33	314.69	42.92	-42.5	-45.7	18.5	6.00e-01	0	60	0	415236096	56	5226
2026-01-17 02:07:45.34	314.11	43.03	-42.6	-45.8	18.5	6.01e-01	0	60	0	417333248	56	5340
2026-01-17 02:07:46.35	313.52	43.14	-42.6	-45.8	18.5	6.02e-01	0	60	0	419430400	56	5303
2026-01-17 02:07:47.36	312.92	43.24	-42.6	-45.9	18.4	6.03e-01	0	60	0	421003264	56	5345
2026-01-17 02:07:48.37	312.32	43.34	-42.4	-45.5	18.7	6.02e-01	0	60	0	423100416	56	5140
2026-01-17 02:07:49.38	311.72	43.44	-42.5	-45.7	18.6	5.99e-01	0	60	0	425197568	56	5248
2026-01-17 02:07:50.39	311.12	43.54	-42.6	-45.9	18.4	6.00e-01	0	60	0	426770432	56	5362
2026-01-17 02:07:51.40	310.51	43.63	-42.5	-45.7	18.5	6.03e-01	0	60	0	428867584	56	5257
2026-01-17 02:07:52.41	309.89	43.71	-42.3	-45.4	18.8	6.03e-01	0	60	0	430440448	56	5069
2026-01-17 02:07:53.42	309.28	43.80	-42.2	-45.3	19.0	6.02e-01	0	60	0	432537600	56	4997
2026-01-17 02:07:54.42	308.67	43.88	-42.6	-45.8	18.4	6.01e-01	0	60	0	434634752	56	5316
2026-01-17 02:07:55.43	308.04	43.96	-42.6	-46.0	18.3	6.03e-01	0	60	0	436207616	56	5403
2026-01-17 02:07:56.44	307.42	44.03	-42.7	-46.1	18.2	6.02e-01	0	60	0	438304768	56	5469
2026-01-17 02:07:57.45	306.79	44.10	-42.6	-45.9	18.4	6.02e-01	0	60	0	439877632	56	5365
2026-01-17 02:07:58.46	306.16	44.17	-42.4	-45.6	18.6	6.02e-01	0	60	0	441974784	56	5189
2026-01-17 02:07:59.47	305.52	44.23	-42.6	-45.8	18.4	6.03e-01	0	60	0	444071936	56	5321
2026-01-17 02:08:00.48	304.89	44.29	-42.8	-46.2	18.0	6.02e-01	0	60	0	445644800	56	5554
2026-01-17 02:08:01.49	304.25	44.34	-42.6	-45.9	18.3	6.01e-01	0	60	0	447741952	56	5377
2026-01-17 02:08:02.50	303.61	44.39	-42.6	-46.0	18.1	6.03e-01	0	60	0	449314816	55	5770
2026-01-17 02:08:03.51	302.97	44.44	-42.6	-46.0	18.2	5.98e-01	0	60	0	451411968	55	5750
2026-01-17 02:08:04.52	302.32	44.48	-42.5	-45.8	18.4	6.03e-01	0	60	0	453509120	55	5632
2026-01-17 02:08:05.53	301.67	44.52	-42.4	-45.7	18.5	6.05e-01	0	60	0	455081984	55	5538
2026-01-17 02:08:06.54	301.03	44.56	-42.1	-45.2	19.0	5.99e-01	0	60	0	457179136	55	5220
2026-01-17 02:08:07.55	300.38	44.59	-42.0	-45.0	19.0	6.00e-01	0	60	0	458752000	55	5114
2026-01-17 02:08:08.56	299.73	44.62	-42.3	-45.5	18.4	6.05e-01	0	60	0	460849152	55	5442
2026-01-17 02:08:09.57	299.07	44.64	-42.6	-45.9	18.1	6.02e-01	0	60	0	462946304	56	5397
2026-01-17 02:08:10.58	298.42	44.66	-42.8	-46.3	17.9	6.04e-01	0	60	0	464519168	56	5614
2026-01-17 02:08:11.58	297.77	44.68	-42.8	-46.4	17.9	6.01e-01	0	60	0	466616320	56	5679
2026-01-17 02:08:12.59	297.12	44.69	-42.4	-45.6	18.6	6.02e-01	0	60	0	468189184	55	5477
2026-01-17 02:08:13.60	296.47	44.69	-42.0	-44.9	19.3	6.06e-01	0	60	0	470286336	55	5074
2026-01-17 02:08:14.61	295.81	44.70	-41.6	-44.4	19.8	6.00e-01	0	60	0	472383488	55	4763
2026-01-17 02:08:15.62	295.16	44.70	-41.4	-44.0	20.0	6.03e-01	0	60	0	473956352	54	4839
2026-01-17 02:08:16.63	294.50	44.69	-42.3	-45.3	18.5	6.00e-01	0	60	0	476053504	56	5024
2026-01-17 02:08:17.64	293.85	44.68	-42.8	-46.3	17.6	6.01e-01	0	60	0	478150656	57	5321
2026-01-17 02:08:18.65	293.19	44.67	-42.6	-46.0	18.1	6.00e-01	0	60	0	479723520	55	5777
2026-01-17 02:08:19.66	292.54	44.65	-42.6	-46.0	18.2	6.02e-01	0	60	0	481820672	55	5761
2026-01-17 02:08:20.67	291.89	44.63	-42.2	-45.2	19.2	6.01e-01	0	60	0	483393536	56	4945
2026-01-17 02:08:21.68	291.24	44.60	-41.9	-44.7	19.4	6.04e-01	0	60	0	485490688	55	4968
2026-01-17 02:08:22.69	290.59	44.57	-42.0	-44.8	19.2	6.00e-01	0	60	0	487587840	56	4732
2026-01-17 02:08:23.70	289.94	44.54	-42.2	-45.4	18.5	6.02e-01	0	60	0	489160704	55	5343
2026-01-17 02:08:24.71	289.29	44.50	-42.7	-46.2	18.0	6.02e-01	0	60	0	491257856	55	5891
2026-01-17 02:08:25.72	288.64	44.46	-42.3	-45.5	18.7	6.00e-01	0	60	0	493355008	55	5428
2026-01-17 02:08:26.73	288.00	44.41	-42.1	-45.1	19.1	6.04e-01	0	60	0	494927872	55	5209
2026-01-17 02:08:27.74	287.36	44.37	-42.1	-45.1	19.0	6.00e-01	0	60	0	497025024	55	5196
2026-01-17 02:08:28.75	286.72	44.31	-42.1	-45.1	19.0	6.00e-01	0	60	0	498597888	55	5172
2026-01-17 02:08:29.76	286.08	44.25	-42.8	-46.3	17.9	6.00e-01	0	60	0	500695040	56	5625
2026-01-17 02:08:30.77	285.44	44.19	-42.5	-45.8	18.6	6.00e-01	0	60	0	502792192	56	5284
2026-01-17 02:08:31.78	284.81	44.13	-42.0	-44.8	19.4	6.00e-01	0	60	0	504365056	56	4732
2026-01-17 02:08:32.79	284.18	44.06	-42.7	-46.0	18.1	6.01e-01	0	60	0	506462208	56	5436
2026-01-17 02:08:33.80	283.55	43.99	-42.9	-46.5	17.9	6.02e-01	0	60	0	508035072	56	5745
2026-01-17 02:08:34.81	282.93	43.91	-41.8	-44.7	19.5	6.05e-01	0	60	0	510132224	55	4940
2026-01-17 02:08:35.82	282.31	43.83	-41.7	-44.5	19.5	6.02e-01	0	60	0	512229376	55	4815
2026-01-17 02:08:36.82	281.70	43.75	-43.1	-46.8	17.3	6.02e-01	0	60	0	513802240	56	5984
2026-01-17 02:08:37.83	281.08	43.66	-42.4	-45.6	18.7	6.00e-01	0	60	0	515899392	56	5169
2026-01-17 02:08:38.84	280.47	43.57	-42.3	-45.4	18.5	6.01e-01	0	60	0	517472256	56	5072
2026-01-17 02:08:39.85	279.86	43.48	-43.4	-47.5	16.8	6.01e-01	0	60	0	519569408	57	6064
2026-01-17 02:08:40.86	279.26	43.38	-42.7	-46.0	18.3	6.00e-01	0	60	0	521666560	57	5115
2026-01-17 02:08:41.87	278.66	43.28	-43.4	-47.3	16.7	6.03e-01	0	60	0	523239424	57	5949
2026-01-17 02:08:42.88	278.06	43.18	-43.7	-47.9	16.4	6.02e-01	0	60	0	525336576	57	6374
2026-01-17 02:08:43.89	277.47	43.08	-42.9	-46.3	17.8	6.00e-01	0	60	0	526909440	57	5316
2026-01-17 02:08:44.90	276.88	42.97	-44.1	-49.0	15.2	6.00e-01	0	60	0	529006592	58	6877
2026-01-17 02:08:45.91	276.29	42.85	-42.7	-46.0	18.3	6.01e-01	0	60	0	531103744	57	5111
2026-01-17 02:08:46.92	275.71	42.74	-43.3	-47.3	16.8	6.02e-01	0	60	0	532676608	57	5935
2026-01-17 02:08:47.93	275.14	42.62	-43.2	-46.8	17.5	6.02e-01	0	60	0	534773760	57	5639
2026-01-17 02:08:48.94	274.56	42.50	-43.3	-47.1	17.0	6.01e-01	0	60	0	536346624	58	5489
2026-01-17 02:08:49.95	274.00	42.38	-43.3	-47.1	17.1	6.02e-01	0	60	0	538443776	57	5846
2026-01-17 02:08:50.95	273.44	42.25	-43.0	-46.6	17.4	6.01e-01	0	60	0	540540928	57	5518
2026-01-17 02:08:51.96	272.88	42.12	-42.8	-46.2	18.0	6.01e-01	0	60	0	542113792	56	5556
2026-01-17 02:08:52.97	272.33	41.99	-42.8	-46.2	17.9	6.00e-01	0	60	0	544210944	56	5589
2026-01-17 02:08:53.98	271.78	41.86	-43.3	-47.1	17.0	6.02e-01	0	60	0	546308096	57	5821
2026-01-17 02:08:54.99	271.23	41.72	-43.1	-46.7	17.4	6.02e-01	0	60	0	547880960	57	5554
2026-01-17 02:08:56.00	270.69	41.59	-42.7	-46.0	18.3	6.02e-01	0	60	0	549978112	57	5112
2026-01-17 02:08:57.01	270.15	41.45	-42.9	-46.5	17.7	5.99e-01	0	60	0	551550976	57	5414
2026-01-17 02:08:58.02	269.62	41.30	-42.9	-46.3	17.8	6.01e-01	0	60	0	553648128	57	5326
2026-01-17 02:08:59.03	269.10	41.16	-43.4	-47.4	16.9	6.01e-01	0	60	0	555745280	57	6031
2026-01-17 02:09:00.04	268.58	41.01	-42.7	-46.0	18.1	5.99e-01	0	60	0	557318144	57	5129
2026-01-17 02:09:01.05	268.06	40.86	-42.8	-46.2	18.0	6.01e-01	0	60	0	559415296	57	5238
2026-01-17 02:09:02.06	267.55	40.71	-42.8	-46.3	17.8	6.01e-01	0	60	0	561512448	57	5288
2026-01-17 02:09:03.07	267.04	40.56	-42.5	-45.7	18.6	6.02e-01	0	60	0	563085312	56	5219
2026-01-17 02:09:04.08	266.54	40.40	-43.0	-46.7	17.6	6.00e-01	0	60	0	565182464	56	5869
2026-01-17 02:09:05.09	266.04	40.25	-42.2	-45.3	18.8	6.01e-01	0	60	0	566755328	56	4993
2026-01-17 02:09:06.10	265.55	40.09	-42.2	-45.3	18.9	6.01e-01	0	60	0	568852480	56	5005
2026-01-17 02:09:07.11	265.07	39.93	-42.9	-46.4	17.8	6.03e-01	0	60	0	570949632	56	5681
2026-01-17 02:09:08.12	264.58	39.77	-42.5	-45.8	18.4	6.02e-01	0	60	0	572522496	56	5280
2026-01-17 02:09:09.13	264.11	39.61	-42.5	-45.8	18.4	6.02e-01	0	60	0	574619648	56	5322
2026-01-17 02:09:10.14	263.63	39.44	-42.9	-46.5	17.6	5.99e-01	0	60	0	576192512	56	5777
2026-01-17 02:09:11.15	263.17	39.28	-42.5	-45.8	18.4	6.01e-01	0	60	0	578289664	56	5318
2026-01-17 02:09:12.16	262.70	39.11	-42.5	-45.7	18.5	6.00e-01	0	61	0	579862528	56	5219
2026-01-17 02:09:13.16	262.25	38.95	-42.9	-46.5	17.7	6.01e-01	0	61	0	581959680	56	5738
2026-01-17 02:09:14.17	261.80	38.78	-42.7	-46.1	18.0	6.01e-01	0	60	0	584056832	56	5485
2026-01-17 02:09:15.18	261.35	38.61	-42.7	-46.1	18.1	6.02e-01	0	60	0	585629696	56	5470
2026-01-17 02:09:16.19	260.90	38.44	-42.7	-46.1	18.1	6.01e-01	0	61	0	587726848	56	5471
2026-01-17 02:09:17.20	260.47	38.27	-42.7	-46.1	18.1	6.03e-01	0	60	0	589824000	56	5516
2026-01-17 02:09:18.21	260.03	38.09	-42.9	-46.4	17.8	6.01e-01	0	60	0	591396864	56	5694
2026-01-17 02:09:19.22	259.60	37.92	-42.8	-46.2	17.9	5.99e-01	0	60	0	593494016	56	5570
2026-01-17 02:09:20.23	259.18	37.74	-42.6	-45.9	18.2	6.00e-01	0	60	0	595066880	56	5389
2026-01-17 02:09:21.24	258.76	37.57	-42.5	-45.8	18.3	6.02e-01	0	60	0	597164032	56	5328
2026-01-17 02:09:22.25	258.34	37.39	-42.8	-46.3	17.8	6.01e-01	0	61	0	599261184	56	5633
2026-01-17 02:09:23.26	257.93	37.22	-42.8	-46.2	17.9	6.02e-01	0	60	0	600834048	56	5587
2026-01-17 02:09:24.27	257.52	37.04	-42.7	-46.0	18.1	5.98e-01	0	60	0	602931200	56	5457
2026-01-17 02:09:25.27	257.13	36.86	-42.9	-46.5	17.7	6.02e-01	0	60	0	604504064	56	5729
2026-01-17 02:09:26.28	256.73	36.68	-42.9	-46.5	17.5	6.04e-01	0	61	0	606601216	56	5782
2026-01-17 02:09:27.29	256.34	36.51	-42.6	-46.0	18.1	6.05e-01	0	60	0	608698368	56	5436
2026-01-17 02:09:28.30	255.95	36.33	-42.6	-46.0	18.2	6.01e-01	0	61	0	610271232	56	5427
2026-01-17 02:09:29.32	255.56	36.14	-42.7	-46.1	18.0	6.00e-01	0	60	0	612368384	56	5528
2026-01-17 02:09:30.32	255.18	35.97	-42.7	-46.1	17.9	6.00e-01	0	61	0	614465536	56	5527
2026-01-17 02:09:31.33	254.81	35.79	-42.8	-46.2	17.9	6.03e-01	0	61	0	616038400	56	5576
2026-01-17 02:09:32.34	254.44	35.61	-42.8	-46.3	17.8	6.01e-01	0	60	0	618135552	56	5603
2026-01-17 02:09:33.35	254.07	35.42	-42.6	-45.9	18.2	6.04e-01	0	61	0	619708416	56	5368
2026-01-17 02:09:34.36	253.71	35.24	-42.4	-45.6	18.5	6.01e-01	0	61	0	621805568	56	5197
2026-01-17 02:09:35.37	253.35	35.06	-42.4	-45.6	18.5	6.01e-01	0	60	0	623902720	56	5202
2026-01-17 02:09:36.38	252.99	34.88	-42.5	-45.8	18.3	6.00e-01	0	60	0	625475584	56	5302
2026-01-17 02:09:37.39	252.64	34.70	-42.7	-46.1	18.1	5.99e-01	0	61	0	627572736	56	5477
2026-01-17 02:09:38.40	252.29	34.52	-42.5	-45.7	18.4	6.00e-01	0	60	0	629145600	56	5253
2026-01-17 02:09:39.41	251.95	34.34	-42.3	-45.5	18.6	6.03e-01	0	60	0	631242752	56	5134
2026-01-17 02:09:40.42	251.61	34.15	-42.4	-45.7	18.4	6.01e-01	0	61	0	633339904	56	5252
2026-01-17 02:09:41.43	251.28	33.97	-42.5	-45.8	18.3	6.00e-01	0	61	0	634912768	56	5317
2026-01-17 02:09:42.44	250.95	33.79	-42.6	-46.0	18.2	5.99e-01	0	60	0	637009920	56	5425
2026-01-17 02:09:43.45	250.62	33.61	-42.5	-45.8	18.3	6.00e-01	0	60	0	638582784	56	5296
2026-01-17 02:09:44.46	250.30	33.43	-42.1	-45.2	18.9	6.01e-01	0	61	0	640679936	56	4944
2026-01-17 02:09:45.47	249.98	33.25	-41.9	-44.8	19.2	6.01e-01	0	60	0	642777088	55	5021
2026-01-17 02:09:46.48	249.66	33.07	-42.1	-45.2	18.8	5.99e-01	0	60	0	644349952	55	5220
2026-01-17 02:09:47.49	249.35	32.88	-42.1	-45.2	18.8	6.03e-01	0	61	0	646447104	55	5265
2026-01-17 02:09:48.50	249.04	32.70	-42.0	-45.1	18.8	5.99e-01	0	61	0	648019968	55	5198
2026-01-17 02:09:49.51	248.73	32.52	-41.9	-44.9	19.2	6.02e-01	0	60	0	650117120	55	5044
2026-01-17 02:09:50.52	248.43	32.34	-42.0	-45.0	19.1	5.99e-01	0	60	0	652214272	55	5111
2026-01-17 02:09:51.53	248.13	32.16	-42.0	-45.1	18.9	5.98e-01	0	61	0	653787136	55	5174
2026-01-17 02:09:52.54	247.84	31.98	-41.9	-44.9	19.1	6.02e-01	0	60	0	655884288	55	5044
2026-01-17 02:09:53.55	247.54	31.80	-41.7	-44.6	19.4	6.01e-01	0	60	0	657981440	55	4902
2026-01-17 02:09:54.56	247.26	31.63	-41.9	-44.9	19.1	6.02e-01	0	61	0	659554304	55	5055
2026-01-17 02:09:55.57	246.97	31.45	-42.1	-45.2	18.8	6.00e-01	0	60	0	661651456	55	5245
2026-01-17 02:09:56.58	246.69	31.27	-41.9	-44.9	19.0	6.06e-01	0	60	0	663224320	55	5063
2026-01-17 02:09:57.59	246.41	31.09	-41.7	-44.5	19.5	6.00e-01	0	60	0	665321472	55	4853
2026-01-17 02:09:58.60	246.13	30.91	-41.7	-44.6	19.3	6.02e-01	0	60	0	667418624	55	4916
2026-01-17 02:09:59.61	245.86	30.74	-42.0	-45.0	19.0	6.01e-01	0	61	0	668991488	55	5136
2026-01-17 02:10:00.62	245.59	30.56	-41.9	-44.9	19.1	6.01e-01	0	60	0	671088640	55	5058
2026-01-17 02:10:01.63	245.33	30.38	-41.6	-44.5	19.5	6.04e-01	0	60	0	672661504	55	4830
2026-01-17 02:10:02.64	245.06	30.21	-41.7	-44.6	19.4	6.01e-01	0	60	0	674758656	55	4894
2026-01-17 02:10:03.65	244.80	30.03	-42.0	-45.0	18.9	6.03e-01	0	61	0	676855808	55	5149
2026-01-17 02:10:04.66	244.54	29.86	-42.0	-45.1	18.8	6.03e-01	0	60	0	678428672	55	5200
2026-01-17 02:10:05.67	244.29	29.68	-41.8	-44.7	19.2	6.03e-01	0	61	0	680525824	55	4955
2026-01-17 02:10:06.68	244.04	29.51	-41.6	-44.4	19.6	6.00e-01	0	60	0	682622976	55	4765
2026-01-17 02:10:07.69	243.79	29.34	-41.6	-44.5	19.4	6.01e-01	0	60	0	684195840	55	4835
2026-01-17 02:10:08.70	243.54	29.17	-41.8	-44.8	19.2	6.01e-01	0	60	0	686292992	55	5022
2026-01-17 02:10:09.71	243.30	28.99	-42.0	-45.1	18.9	6.02e-01	0	60	0	687865856	55	5192
2026-01-17 02:10:10.72	243.06	28.82	-42.0	-45.1	18.8	6.01e-01	0	60	0	689963008	55	5214
2026-01-17 02:10:11.73	242.82	28.65	-41.8	-44.7	19.2	6.02e-01	0	60	0	692060160	55	4970
2026-01-17 02:10:12.74	242.58	28.48	-41.7	-44.7	19.3	6.01e-01	0	60	0	693633024	55	4940
2026-01-17 02:10:13.75	242.35	28.31	-41.8	-44.8	19.1	6.01e-01	0	60	0	695730176	55	5008
2026-01-17 02:10:14.76	242.12	28.14	-41.7	-44.7	19.2	5.98e-01	0	60	0	697827328	55	4941
2026-01-17 02:10:15.77	241.89	27.97	-41.6	-44.5	19.5	6.04e-01	0	60	0	699400192	55	4830
2026-01-17 02:10:16.78	241.67	27.81	-41.7	-44.6	19.3	6.01e-01	0	60	0	701497344	55	4896
2026-01-17 02:10:17.79	241.44	27.64	-42.0	-45.0	18.9	6.04e-01	0	60	0	703070208	55	5135
2026-01-17 02:10:18.79	241.23	27.47	-42.1	-45.3	18.6	6.00e-01	0	61	0	705167360	55	5319
2026-01-17 02:10:19.80	241.01	27.31	-42.2	-45.4	18.5	5.99e-01	0	61	0	706740224	55	5381
2026-01-17 02:10:20.81	240.79	27.14	-42.2	-45.4	18.5	6.00e-01	0	60	0	708837376	55	5394
2026-01-17 02:10:21.82	240.58	26.98	-42.0	-45.1	18.8	6.02e-01	0	60	0	710934528	55	5193
2026-01-17 02:10:22.83	240.37	26.81	-42.0	-45.1	18.9	6.02e-01	0	60	0	712507392	55	5170
2026-01-17 02:10:23.84	240.16	26.65	-42.0	-45.1	18.8	5.99e-01	0	60	0	714604544	55	5198
2026-01-17 02:10:24.85	239.95	26.49	-42.0	-45.2	18.8	6.00e-01	0	61	0	716177408	55	5226
2026-01-17 02:10:25.86	239.75	26.33	-42.1	-45.3	18.6	6.02e-01	0	61	0	718274560	55	5310
2026-01-17 02:10:26.87	239.54	26.17	-42.2	-45.4	18.5	6.01e-01	0	61	0	720371712	55	5355
2026-01-17 02:10:27.88	239.34	26.00	-42.0	-45.1	18.8	5.98e-01	0	61	0	721944576	55	5180
2026-01-17 02:10:28.89	239.15	25.84	-42.0	-45.1	18.7	6.00e-01	0	61	0	724041728	55	5215
2026-01-17 02:10:29.90	238.95	25.69	-42.2	-45.4	18.5	5.99e-01	0	60	0	726138880	55	5383
2026-01-17 02:10:30.91	238.76	25.53	-42.2	-45.4	18.5	6.04e-01	0	61	0	727711744	55	5366
2026-01-17 02:10:31.92	238.56	25.37	-42.0	-45.2	18.7	5.99e-01	0	61	0	729808896	55	5246
2026-01-17 02:10:32.93	238.37	25.21	-42.0	-45.1	18.8	6.00e-01	0	61	0	731381760	55	5180
2026-01-17 02:10:33.94	238.19	25.05	-42.1	-45.2	18.6	6.03e-01	0	61	0	733478912	55	5259
2026-01-17 02:10:34.95	238.00	24.90	-42.1	-45.2	18.7	5.98e-01	0	60	0	735576064	55	5247
2026-01-17 02:10:35.96	237.82	24.74	-42.0	-45.1	18.8	6.01e-01	0	60	0	737148928	55	5170
2026-01-17 02:10:36.97	237.63	24.59	-42.0	-45.1	18.8	6.01e-01	0	61	0	739246080	55	5170
2026-01-17 02:10:37.98	237.45	24.43	-41.9	-44.9	18.9	6.02e-01	0	60	0	740818944	55	5098
2026-01-17 02:10:38.99	237.28	24.28	-41.8	-44.8	19.0	6.01e-01	0	61	0	742916096	55	5030
2026-01-17 02:10:40.00	237.10	24.13	-41.9	-44.9	19.0	6.02e-01	0	60	0	745013248	55	5076
2026-01-17 02:10:41.01	236.92	23.98	-41.9	-45.0	18.9	5.99e-01	0	61	0	746586112	55	5127
2026-01-17 02:10:42.02	236.75	23.83	-42.0	-45.1	18.8	6.03e-01	0	60	0	748683264	55	5170
2026-01-17 02:10:43.03	236.58	23.67	-42.1	-45.3	18.5	5.99e-01	0	60	0	750780416	55	5324
2026-01-17 02:10:44.04	236.41	23.52	-42.2	-45.4	18.4	6.01e-01	0	60	0	752353280	55	5369
2026-01-17 02:10:45.05	236.24	23.38	-42.1	-45.3	18.5	6.03e-01	0	61	0	754450432	55	5330
2026-01-17 02:10:46.06	236.08	23.23	-42.1	-45.2	18.3	6.01e-01	0	60	0	756023296	55	5266
2026-01-17 02:10:47.07	235.91	23.08	-42.0	-45.2	18.7	6.01e-01	0	60	0	758120448	55	5236
2026-01-17 02:10:48.07	235.75	22.93	-42.1	-45.3	18.6	5.99e-01	0	60	0	760217600	55	5283
2026-01-17 02:10:49.08	235.59	22.79	-42.2	-45.5	18.3	6.00e-01	0	61	0	761790464	55	5440
2026-01-17 02:10:50.08	235.43	22.64	-42.2	-45.5	18.3	6.03e-01	0	60	0	763887616	55	5448
2026-01-17 02:10:51.10	235.27	22.50	-42.2	-45.4	18.4	6.01e-01	0	60	0	765460480	55	5385
2026-01-17 02:10:52.10	235.12	22.35	-42.1	-45.4	18.5	5.99e-01	0	61	0	767557632	55	5354
2026-01-17 02:10:53.11	234.96	22.21	-42.1	-45.3	18.5	5.99e-01	0	60	0	769654784	55	5283
2026-01-17 02:10:54.12	234.81	22.07	-42.0	-45.2	18.6	6.02e-01	0	61	0	771227648	55	5260
2026-01-17 02:10:55.13	234.66	21.92	-42.0	-45.1	18.7	6.03e-01	0	61	0	773324800	55	5216
2026-01-17 02:10:56.14	234.51	21.78	-42.0	-45.1	18.7	6.02e-01	0	61	0	774897664	55	5208
2026-01-17 02:10:57.15	234.36	21.64	-42.1	-45.3	18.5	6.01e-01	0	60	0	776994816	55	5291
2026-01-17 02:10:58.16	234.21	21.50	-42.0	-45.2	18.6	6.02e-01	0	60	0	779091968	55	5260
2026-01-17 02:10:59.17	234.06	21.36	-42.1	-45.3	18.5	6.00e-01	0	61	0	780664832	55	5290
2026-01-17 02:11:00.18	233.92	21.22	-42.0	-45.2	18.6	6.02e-01	0	61	0	782761984	55	5270
2026-01-17 02:11:01.19	233.77	21.08	-42.0	-45.2	18.6	6.02e-01	0	61	0	784334848	55	5274
2026-01-17 02:11:02.19	233.63	20.94	-42.0	-45.2	18.6	6.00e-01	0	61	0	786432000	55	5240
2026-01-17 02:11:03.21	233.49	20.81	-42.0	-45.2	18.6	6.04e-01	0	60	0	788529152	55	5241
2026-01-17 02:11:04.22	233.35	20.67	-42.0	-45.2	18.6	6.01e-01	0	61	0	790102016	55	5233
2026-01-17 02:11:05.22	233.22	20.53	-42.0	-45.1	18.6	6.02e-01	0	61	0	792199168	55	5200
2026-01-17 02:11:06.23	233.08	20.40	-42.0	-45.2	18.6	6.02e-01	0	60	0	794296320	55	5233
2026-01-17 02:11:07.24	232.94	20.26	-42.0	-45.2	18.6	6.03e-01	0	60	0	795869184	55	5229
2026-01-17 02:11:08.25	232.81	20.13	-41.9	-45.1	18.7	6.00e-01	0	61	0	797966336	55	5181
2026-01-17 02:11:09.26	232.68	20.00	-41.9	-45.1	18.6	6.01e-01	0	61	0	799539200	55	5198
2026-01-17 02:11:10.27	232.54	19.86	-42.0	-45.2	18.6	6.00e-01	0	61	0	801636352	55	5227
2026-01-17 02:11:11.28	232.41	19.73	-42.0	-45.2	18.5	5.99e-01	0	61	0	803733504	55	5265
2026-01-17 02:11:12.29	232.28	19.60	-42.1	-45.4	18.4	6.01e-01	0	61	0	805306368	55	5384
2026-01-17 02:11:13.30	232.16	19.47	-42.1	-45.5	18.3	6.01e-01	0	61	0	807403520	55	5406
2026-01-17 02:11:14.31	232.03	19.34	-42.1	-45.3	18.4	6.01e-01	0	61	0	808976384	55	5334
2026-01-17 02:11:15.32	231.90	19.21	-42.0	-45.2	18.6	6.03e-01	0	61	0	811073536	55	5245
2026-01-17 02:11:16.33	231.78	19.08	-42.0	-45.1	18.6	6.01e-01	0	61	0	813170688	55	5195
2026-01-17 02:11:17.34	231.65	18.95	-41.9	-45.1	18.6	6.04e-01	0	61	0	814743552	55	5160
2026-01-17 02:11:18.35	231.53	18.82	-41.9	-45.0	18.7	6.01e-01	0	61	0	816840704	55	5131
2026-01-17 02:11:19.36	231.41	18.69	-41.8	-44.9	18.8	6.02e-01	0	61	0	818937856	55	5082
2026-01-17 02:11:20.36	231.29	18.57	-41.9	-45.0	18.7	6.02e-01	0	60	0	820510720	55	5130
2026-01-17 02:11:21.37	231.17	18.44	-41.9	-45.1	18.7	5.98e-01	0	61	0	822607872	55	5175
2026-01-17 02:11:22.38	231.05	18.32	-41.9	-45.0	18.7	6.03e-01	0	60	0	824180736	55	5158
2026-01-17 02:11:23.39	230.94	18.19	-41.8	-45.0	18.8	6.00e-01	0	60	0	826277888	55	5103
2026-01-17 02:11:24.40	230.82	18.07	-41.8	-44.9	18.8	6.01e-01	0	61	0	828375040	55	5075
2026-01-17 02:11:25.41	230.71	17.94	-41.9	-45.0	18.7	6.00e-01	0	61	0	829947904	55	5137
2026-01-17 02:11:26.42	230.59	17.82	-41.9	-45.1	18.6	6.00e-01	0	61	0	832045056	55	5177
2026-01-17 02:11:27.43	230.48	17.70	-42.0	-45.2	18.5	6.01e-01	0	60	0	833617920	55	5258
2026-01-17 02:11:28.44	230.37	17.58	-42.0	-45.3	18.4	6.03e-01	0	60	0	835715072	55	5300
2026-01-17 02:11:29.45	230.26	17.45	-42.1	-45.3	18.3	6.01e-01	0	61	0	837812224	55	5339
2026-01-17 02:11:30.46	230.15	17.33	-42.2	-45.6	18.1	6.03e-01	0	60	0	839385088	55	5516
2026-01-17 02:11:31.47	230.04	17.21	-42.3	-45.7	17.9	6.03e-01	0	61	0	841482240	55	5586
2026-01-17 02:11:32.48	229.93	17.09	-42.3	-45.8	17.9	6.01e-01	0	61	0	843055104	55	5621
2026-01-17 02:11:33.50	229.82	16.97	-42.2	-45.6	18.0	6.02e-01	0	61	0	845152256	55	5515
2026-01-17 02:11:34.51	229.71	16.85	-42.2	-45.5	18.2	6.02e-01	0	61	0	847249408	55	5445
2026-01-17 02:11:35.51	229.61	16.73	-42.0	-45.3	18.3	6.04e-01	0	60	0	848822272	55	5317
2026-01-17 02:11:36.52	229.50	16.62	-42.0	-45.2	18.4	6.00e-01	0	61	0	850919424	55	5269
2026-01-17 02:11:37.53	229.40	16.50	-41.8	-44.9	18.7	5.99e-01	0	61	0	852492288	55	5097
2026-01-17 02:11:38.54	229.30	16.38	-41.8	-44.9	18.8	6.02e-01	0	61	0	854589440	55	5049
2026-01-17 02:11:39.55	229.20	16.27	-41.8	-44.9	18.7	6.01e-01	0	61	0	856686592	55	5070
2026-01-17 02:11:40.56	229.09	16.15	-41.9	-45.1	18.5	6.01e-01	0	60	0	858259456	55	5187
2026-01-17 02:11:41.57	228.99	16.04	-41.9	-45.0	18.6	6.02e-01	0	60	0	860356608	55	5148
2026-01-17 02:11:42.58	228.90	15.92	-41.8	-45.0	18.6	6.02e-01	0	60	0	862453760	55	5130
2026-01-17 02:11:43.59	228.80	15.81	-41.9	-45.1	18.6	6.00e-01	0	61	0	864026624	55	5177
2026-01-17 02:11:44.60	228.70	15.69	-42.0	-45.2	18.4	6.03e-01	0	61	0	866123776	55	5269
2026-01-17 02:11:45.61	228.60	15.58	-41.9	-45.2	18.4	6.03e-01	0	61	0	867696640	55	5227
2026-01-17 02:11:46.62	228.51	15.47	-41.9	-45.2	18.4	6.03e-01	0	60	0	869793792	55	5223
2026-01-17 02:11:47.63	228.41	15.35	-41.9	-45.2	18.4	6.03e-01	0	60	0	871890944	55	5241
2026-01-17 02:11:48.64	228.32	15.24	-41.9	-45.1	18.5	6.02e-01	0	61	0	873463808	55	5185
2026-01-17 02:11:49.65	228.22	15.13	-41.9	-45.1	18.5	6.01e-01	0	60	0	875560960	55	5182
2026-01-17 02:11:50.66	228.13	15.02	-41.9	-45.2	18.4	6.02e-01	0	61	0	877133824	55	5230
2026-01-17 02:11:51.67	228.04	14.91	-42.0	-45.3	18.3	6.03e-01	0	61	0	879230976	55	5294
2026-01-17 02:11:52.67	227.95	14.80	-41.9	-45.1	18.5	6.03e-01	0	61	0	881328128	55	5186
2026-01-17 02:11:53.68	227.85	14.69	-41.9	-45.2	18.4	6.02e-01	0	61	0	882900992	55	5223
2026-01-17 02:11:54.69	227.76	14.58	-41.9	-45.2	18.3	6.01e-01	0	61	0	884998144	55	5255
2026-01-17 02:11:55.70	227.68	14.47	-42.0	-45.3	18.3	6.01e-01	0	60	0	887095296	55	5292
2026-01-17 02:11:56.71	227.59	14.37	-42.0	-45.3	18.2	6.00e-01	0	61	0	888668160	55	5320
2026-01-17 02:11:57.72	227.50	14.26	-42.0	-45.4	18.2	6.02e-01	0	61	0	890765312	55	5373
2026-01-17 02:11:58.73	227.41	14.15	-42.0	-45.4	18.2	6.00e-01	0	61	0	892338176	55	5364
2026-01-17 02:11:59.74	227.32	14.05	-42.1	-45.5	18.0	6.00e-01	0	61	0	894435328	55	5441
2026-01-17 02:12:00.75	227.24	13.94	-42.1	-45.6	17.9	6.00e-01	0	60	0	896532480	55	5486
2026-01-17 02:12:01.76	227.15	13.83	-42.1	-45.5	18.0	6.01e-01	0	61	0	898105344	55	5440
2026-01-17 02:12:02.77	227.07	13.73	-42.1	-45.5	18.0	6.03e-01	0	61	0	900202496	55	5446
2026-01-17 02:12:03.78	226.98	13.62	-42.1	-45.5	18.0	6.04e-01	0	61	0	901775360	55	5428
2026-01-17 02:12:04.79	226.90	13.52	-42.1	-45.6	17.9	5.99e-01	0	60	0	903872512	55	5496
2026-01-17 02:12:05.80	226.82	13.42	-42.1	-45.5	17.9	6.04e-01	0	61	0	905969664	55	5429
2026-01-17 02:12:06.81	226.74	13.31	-42.1	-45.5	18.0	6.02e-01	0	61	0	907542528	55	5435
2026-01-17 02:12:07.82	226.66	13.21	-42.1	-45.6	17.9	6.03e-01	0	61	0	909639680	55	5493
2026-01-17 02:12:08.83	226.57	13.11	-41.9	-45.3	18.2	6.02e-01	0	60	0	911212544	55	5297
2026-01-17 02:12:09.84	226.49	13.00	-41.9	-45.2	18.3	6.04e-01	0	61	0	913309696	55	5245
2026-01-17 02:12:10.85	226.41	12.90	-41.9	-45.3	18.2	6.03e-01	0	60	0	915406848	55	5298
2026-01-17 02:12:11.86	226.34	12.80	-42.0	-45.3	18.1	6.01e-01	0	61	0	916979712	55	5339
2026-01-17 02:12:12.87	226.26	12.70	-42.0	-45.4	18.0	6.01e-01	0	61	0	919076864	55	5382
2026-01-17 02:12:13.87	226.18	12.60	-42.0	-45.5	17.9	6.02e-01	0	60	0	920649728	55	5423
2026-01-17 02:12:14.88	226.10	12.50	-42.0	-45.4	18.0	6.02e-01	0	61	0	922746880	55	5392
2026-01-17 02:12:15.89	226.03	12.40	-42.0	-45.4	18.1	6.01e-01	0	61	0	924844032	55	5348
2026-01-17 02:12:16.91	225.95	12.30	-42.0	-45.5	17.9	6.02e-01	0	61	0	926416896	55	5426
2026-01-17 02:12:17.91	225.88	12.20	-42.0	-45.5	17.9	6.00e-01	0	61	0	928514048	55	5456
2026-01-17 02:12:18.92	225.80	12.10	-42.0	-45.5	17.9	6.01e-01	0	61	0	930086912	55	5458
2026-01-17 02:12:19.93	225.73	12.01	-42.1	-45.6	17.8	6.00e-01	0	61	0	932184064	55	5504
2026-01-17 02:12:20.94	225.65	11.91	-42.1	-45.6	17.8	5.99e-01	0	61	0	934281216	55	5511
2026-01-17 02:12:21.95	225.58	11.81	-42.1	-45.7	17.7	6.01e-01	0	61	0	935854080	55	5567
2026-01-17 02:12:22.96	225.51	11.71	-42.1	-45.6	17.8	6.04e-01	0	61	0	937951232	55	5511
2026-01-17 02:12:23.97	225.43	11.62	-42.1	-45.6	17.8	6.02e-01	0	60	0	940048384	55	5523
2026-01-17 02:12:24.98	225.36	11.52	-42.1	-45.6	17.7	6.01e-01	0	61	0	941621248	55	5514
2026-01-17 02:12:25.99	225.29	11.43	-42.1	-45.7	17.6	6.00e-01	0	61	0	943718400	55	5574
2026-01-17 02:12:27.00	225.22	11.33	-42.0	-45.6	17.8	6.00e-01	0	61	0	945291264	55	5466
2026-01-17 02:12:28.01	225.15	11.24	-42.0	-45.5	17.8	6.00e-01	0	61	0	947388416	55	5454
2026-01-17 02:12:29.02	225.08	11.14	-42.1	-45.6	17.7	6.00e-01	0	61	0	949485568	55	5523
2026-01-17 02:12:30.03	225.01	11.05	-42.2	-45.8	17.5	6.02e-01	0	61	0	951058432	55	5609
2026-01-17 02:12:31.04	224.94	10.95	-42.0	-45.5	17.8	6.00e-01	0	61	0	953155584	55	5456
2026-01-17 02:12:32.05	224.87	10.86	-42.0	-45.5	17.8	5.99e-01	0	61	0	955252736	55	5449
2026-01-17 02:12:33.06	224.81	10.77	-42.0	-45.6	17.7	6.00e-01	0	61	0	956825600	55	5487
2026-01-17 02:12:34.07	224.74	10.67	-42.1	-45.6	17.7	6.03e-01	0	60	0	958922752	55	5521
2026-01-17 02:12:35.08	224.67	10.58	-42.1	-45.8	17.5	6.00e-01	0	61	0	960495616	55	5594
2026-01-17 02:12:36.09	224.61	10.49	-42.1	-45.8	17.5	6.00e-01	0	61	0	962592768	55	5600
2026-01-17 02:12:37.10	224.54	10.40	-42.1	-45.8	17.5	6.02e-01	0	60	0	964689920	55	5620
2026-01-17 02:12:38.11	224.48	10.30	-42.0	-45.6	17.7	6.04e-01	0	61	0	966262784	55	5492
2026-01-17 02:12:39.12	224.41	10.21	-42.1	-45.7	17.5	6.00e-01	0	60	0	968359936	55	5555
2026-01-17 02:12:40.13	224.35	10.12	-42.2	-45.8	17.4	6.02e-01	0	60	0	969932800	55	5648
2026-01-17 02:12:41.14	224.28	10.03	-42.1	-45.7	17.5	6.01e-01	0	60	0	972029952	55	5548
2026-01-17 02:12:42.15	224.22	9.94	-42.0	-45.6	17.6	6.02e-01	0	61	0	974127104	55	5524
2026-01-17 02:12:43.16	224.16	9.85	-42.1	-45.8	17.4	6.01e-01	0	60	0	975699968	55	5625
2026-01-17 02:12:44.17	224.09	9.76	-42.1	-45.7	17.4	6.04e-01	0	61	0	977797120	55	5571
2026-01-17 02:12:45.18	224.03	9.67	-42.1	-45.8	17.4	6.01e-01	0	60	0	979369984	55	5603
2026-01-17 02:12:46.19	223.97	9.58	-42.1	-45.8	17.3	6.01e-01	0	60	0	981467136	55	5655
2026-01-17 02:12:47.20	223.91	9.50	-42.2	-46.0	17.2	6.00e-01	0	61	0	983564288	55	5757
2026-01-17 02:12:48.21	223.85	9.41	-42.1	-46.0	17.1	6.03e-01	0	60	0	985137152	55	5761
2026-01-17 02:12:49.22	223.79	9.32	-42.1	-46.1	17.0	6.01e-01	0	61	0	987234304	55	5829
2026-01-17 02:12:50.23	223.73	9.23	-42.2	-46.2	16.9	6.00e-01	0	61	0	988807168	55	5901
2026-01-17 02:12:51.24	223.67	9.15	-42.1	-46.0	17.1	6.02e-01	0	60	0	990904320	55	5765
2026-01-17 02:12:52.25	223.61	9.06	-42.0	-45.9	17.2	6.01e-01	0	61	0	993001472	55	5706
2026-01-17 02:12:53.26	223.55	8.97	-42.1	-46.2	16.9	6.03e-01	0	61	0	994574336	55	5898
2026-01-17 02:12:54.27	223.49	8.89	-42.1	-46.2	16.9	6.01e-01	0	61	0	996671488	55	5914
2026-01-17 02:12:55.28	223.43	8.80	-42.0	-46.2	16.8	6.02e-01	0	61	0	998244352	55	5913
2026-01-17 02:12:56.29	223.37	8.71	-42.2	-46.7	16.3	6.00e-01	0	61	0	1000341504	55	6227
2026-01-17 02:12:57.30	223.32	8.63	-42.0	-46.3	16.8	6.00e-01	0	60	0	1002438656	55	5939
2026-01-17 02:12:58.31	223.26	8.54	-42.0	-46.4	16.7	6.04e-01	0	61	0	1004011520	55	6002
2026-01-17 02:12:59.32	223.20	8.46	-42.0	-46.3	16.7	6.02e-01	0	61	0	1006108672	55	5961
2026-01-17 02:13:00.33	223.15	8.37	-42.0	-46.3	16.7	6.01e-01	0	61	0	1008205824	55	5931
2026-01-17 02:13:01.34	223.09	8.29	-41.9	-46.3	16.7	6.02e-01	0	60	0	1009778688	55	5942
2026-01-17 02:13:02.35	223.04	8.21	-41.9	-46.1	16.8	6.06e-01	0	60	0	1011875840	55	5846
2026-01-17 02:13:03.36	222.98	8.12	-41.9	-46.2	16.8	6.01e-01	0	61	0	1013448704	55	5883
2026-01-17 02:13:04.37	222.93	8.04	-42.1	-46.5	16.5	6.00e-01	0	61	0	1015545856	55	6123
2026-01-17 02:13:05.38	222.87	7.96	-45.6	-64.1	3.8	7.44e-01	0	61	104	1016594432	61	32612
2026-01-17 02:13:06.39	222.82	7.87	-45.9	-64.4	3.8	7.45e-01	0	61	104	1016594432	62	31854
2026-01-17 02:13:07.40	222.76	7.79	-46.1	-64.7	3.8	7.46e-01	0	61	104	1016594432	62	33108
2026-01-17 02:13:08.41	222.71	7.71	-46.2	-64.8	3.8	7.47e-01	0	61	104	1016594432	62	33503
2026-01-17 02:13:09.42	222.66	7.63	-46.3	-64.9	3.8	7.43e-01	0	61	104	1016594432	63	31949
2026-01-17 02:13:10.43	222.60	7.54	-46.4	-65.0	3.8	7.46e-01	0	61	104	1016594432	63	32236
2026-01-17 02:13:11.44	222.55	7.46	-46.4	-65.0	3.8	7.46e-01	0	61	104	1016594432	63	32453
2026-01-17 02:13:12.45	222.50	7.38	-46.5	-65.1	3.8	7.45e-01	0	61	104	1016594432	63	32715
2026-01-17 02:13:13.46	222.45	7.30	-46.4	-65.1	3.8	7.47e-01	0	61	104	1016594432	63	32689
2026-01-17 02:13:14.47	222.40	7.22	-46.4	-65.0	3.8	7.44e-01	0	61	104	1016594432	63	32485
2026-01-17 02:13:15.48	222.35	7.14	-46.4	-65.0	3.8	7.45e-01	0	61	104	1016594432	63	32375
2026-01-17 02:13:16.49	222.29	7.06	-46.4	-65.0	3.8	7.45e-01	0	61	104	1016594432	63	32295
2026-01-17 02:13:17.50	222.24	6.98	-46.3	-64.9	3.8	7.46e-01	0	61	104	1016594432	63	32074
2026-01-17 02:13:18.51	222.19	6.90	-46.3	-64.9	3.8	7.43e-01	0	61	104	1016594432	63	32071
2026-01-17 02:13:19.52	222.14	6.82	-46.3	-64.9	3.8	7.44e-01	0	61	104	1016594432	63	32141
2026-01-17 02:13:20.53	222.09	6.74	-46.4	-64.9	3.8	7.46e-01	0	61	104	1016594432	63	32169
2026-01-17 02:13:21.54	222.05	6.66	-46.3	-64.9	3.8	7.45e-01	0	61	104	1016594432	63	32010
2026-01-17 02:13:22.56	222.00	6.58	-46.3	-64.9	3.8	7.46e-01	0	61	104	1016594432	63	31960
2026-01-17 02:13:23.57	221.95	6.51	-46.3	-64.9	3.8	7.46e-01	0	60	104	1016594432	63	31973
2026-01-17 02:13:24.58	221.90	6.43	-46.3	-64.9	3.8	7.45e-01	0	61	104	1016594432	63	31958
2026-01-17 02:13:25.59	221.85	6.35	-46.3	-64.9	3.8	7.48e-01	0	61	104	1016594432	63	31985
2026-01-17 02:13:26.60	221.80	6.27	-46.3	-64.9	3.8	7.46e-01	0	61	104	1016594432	63	32042
2026-01-17 02:13:27.61	221.76	6.19	-46.3	-64.9	3.8	7.47e-01	0	61	104	1016594432	63	31957
2026-01-17 02:13:28.62	221.71	6.12	-46.3	-64.9	3.8	7.45e-01	0	61	104	1016594432	63	31952
2026-01-17 02:13:29.63	221.66	6.04	-46.3	-64.9	3.8	7.45e-01	0	61	104	1016594432	63	31954
2026-01-17 02:13:30.64	221.62	5.96	-46.3	-64.9	3.8	7.44e-01	0	61	104	1016594432	63	31914
2026-01-17 02:13:31.66	221.57	5.89	-46.3	-64.9	3.8	7.44e-01	0	61	104	1016594432	63	31936
2026-01-17 02:13:32.67	221.52	5.81	-46.3	-64.9	3.8	7.46e-01	0	61	104	1016594432	63	31936
2026-01-17 02:13:33.68	221.48	5.73	-46.3	-64.9	3.8	7.47e-01	0	61	104	1016594432	63	31878
2026-01-17 02:13:34.69	221.43	5.66	-46.3	-64.9	3.8	7.45e-01	0	61	104	1016594432	63	31866
2026-01-17 02:13:35.70	221.39	5.58	-46.3	-64.9	3.8	7.41e-01	0	61	104	1016594432	63	31891
2026-01-17 02:13:36.71	221.34	5.51	-46.3	-64.9	3.8	7.49e-01	0	61	104	1016594432	63	31933
2026-01-17 02:13:37.72	221.30	5.43	-46.3	-64.9	3.8	7.46e-01	0	61	104	1016594432	63	31829
2026-01-17 02:13:38.73	221.25	5.36	-46.3	-64.9	3.8	7.48e-01	0	61	104	1016594432	63	31851
2026-01-17 02:13:39.74	221.21	5.28	-46.3	-64.9	3.8	7.45e-01	0	61	104	1016594432	63	31849
2026-01-17 02:13:40.75	221.16	5.21	-46.3	-64.9	3.8	7.45e-01	0	61	104	1016594432	63	31830
2026-01-17 02:13:41.76	221.12	5.13	-46.3	-64.8	3.8	7.46e-01	0	61	104	1016594432	63	31809
2026-01-17 02:13:42.77	221.08	5.06	-46.3	-64.9	3.8	7.44e-01	0	61	104	1016594432	63	31835
