passes_logs/2026/01/17/R2.0S_Moscow/R2.0S_Moscow__20260117_225838_NOAA_20_JPSS-1_rec.log

#Pass ID: 20260117_225838_NOAA 20 (JPSS-1)
#Satellite: NOAA 20 (JPSS-1)
#Configuration: NOAA 20
#almurnet v.1.7.20251203
#Start time: 2026-01-17 22:58:40

#Version: 2.2.20231116
#Station: R2.0S_Moscow
#Location: 37.707566 lon 55.798166 lat
#TLE: 1 43013U 17073A   26017.30359522  .00000067  00000+0  52526-4 0  9990
#TLE: 2 43013  98.7639 318.2187 0001419  36.2087 323.9184 14.19536557423067

#Time	Az	El	Level	Level2	SNR	BER	BlckErr	Temp	State	Recorded	gain1	gain2
2026-01-17 22:58:40.18	19.72	2.09	-41.7	-56.6	3.8	1.49e+00	0	52	0	0	55	19513
2026-01-17 22:58:41.19	19.75	2.16	-41.7	-56.6	3.8	1.49e+00	0	52	104	0	54	20652
2026-01-17 22:58:42.20	19.79	2.22	-41.8	-56.6	3.8	1.49e+00	0	53	104	0	54	20734
2026-01-17 22:58:43.21	19.82	2.28	-41.7	-56.6	3.8	1.49e+00	0	53	104	0	54	20717
2026-01-17 22:58:44.22	19.86	2.34	-41.7	-56.6	3.8	1.49e+00	0	53	104	0	54	20660
2026-01-17 22:58:45.23	19.89	2.41	-41.7	-56.6	3.8	1.49e+00	0	53	104	0	54	20720
2026-01-17 22:58:46.25	19.93	2.47	-41.7	-56.6	3.8	1.49e+00	0	53	104	0	54	20656
2026-01-17 22:58:47.26	19.97	2.53	-41.7	-56.6	3.8	1.49e+00	0	53	104	0	54	20670
2026-01-17 22:58:48.27	20.00	2.60	-41.7	-56.6	3.8	1.49e+00	0	53	104	0	54	20643
2026-01-17 22:58:49.28	20.04	2.66	-41.7	-56.6	3.8	1.49e+00	0	53	104	0	54	20656
2026-01-17 22:58:50.29	20.08	2.73	-41.7	-56.6	3.8	1.49e+00	0	53	104	0	54	20679
2026-01-17 22:58:51.30	20.11	2.79	-41.7	-56.6	3.8	1.49e+00	0	53	104	0	54	20631
2026-01-17 22:58:52.31	20.15	2.85	-41.7	-56.6	3.8	1.49e+00	0	53	104	0	54	20640
2026-01-17 22:58:53.32	20.19	2.92	-41.7	-56.6	3.8	1.49e+00	0	53	104	0	54	20640
2026-01-17 22:58:54.33	20.23	2.98	-41.7	-56.6	3.8	1.49e+00	0	53	104	0	54	20673
2026-01-17 22:58:55.34	20.26	3.05	-41.7	-56.6	3.8	1.49e+00	0	53	104	0	54	20645
2026-01-17 22:58:56.35	20.30	3.11	-41.7	-56.6	3.8	1.49e+00	0	53	104	0	54	20709
2026-01-17 22:58:57.36	20.34	3.18	-41.7	-56.6	3.8	1.49e+00	0	53	104	0	54	20667
2026-01-17 22:58:58.37	20.38	3.24	-41.7	-56.6	3.8	1.49e+00	0	54	104	0	54	20658
2026-01-17 22:58:59.39	20.41	3.31	-41.7	-56.6	3.8	1.49e+00	0	54	104	0	54	20649
2026-01-17 22:59:00.39	20.45	3.37	-41.7	-56.6	3.8	1.49e+00	0	54	104	0	54	20636
2026-01-17 22:59:01.41	20.49	3.44	-41.7	-56.6	3.8	1.49e+00	0	54	104	0	54	20623
2026-01-17 22:59:02.42	20.53	3.50	-41.7	-56.6	3.8	1.49e+00	0	54	104	0	54	20675
2026-01-17 22:59:03.43	20.57	3.57	-41.7	-56.6	3.8	1.49e+00	0	54	104	0	54	20679
2026-01-17 22:59:04.44	20.61	3.63	-41.7	-56.6	3.8	1.49e+00	0	54	104	0	54	20612
2026-01-17 22:59:05.45	20.65	3.70	-41.7	-56.6	3.8	1.49e+00	0	54	104	0	54	20657
2026-01-17 22:59:06.46	20.69	3.76	-41.7	-56.6	3.8	1.49e+00	0	54	104	0	54	20608
2026-01-17 22:59:07.47	20.72	3.83	-41.7	-56.6	3.8	1.49e+00	0	54	104	0	54	20658
2026-01-17 22:59:08.48	20.76	3.90	-41.7	-56.6	3.8	1.49e+00	0	54	104	0	54	20611
2026-01-17 22:59:09.49	20.80	3.96	-41.7	-56.6	3.8	1.49e+00	0	54	104	0	54	20606
2026-01-17 22:59:10.51	20.84	4.03	-41.7	-56.6	3.8	1.49e+00	0	54	104	0	54	20600
2026-01-17 22:59:11.52	20.88	4.10	-41.7	-56.6	3.8	1.49e+00	0	54	104	0	54	20572
2026-01-17 22:59:12.53	20.92	4.16	-41.7	-56.6	3.8	1.49e+00	0	54	104	0	54	20595
2026-01-17 22:59:13.54	20.96	4.23	-41.7	-56.6	3.8	1.49e+00	0	55	104	0	54	20625
2026-01-17 22:59:14.55	21.00	4.30	-41.7	-56.6	3.8	1.49e+00	0	55	104	0	54	20603
2026-01-17 22:59:15.56	21.04	4.37	-41.7	-56.6	3.8	1.49e+00	0	55	104	0	54	20606
2026-01-17 22:59:16.57	21.09	4.43	-41.7	-56.6	3.8	1.49e+00	0	55	104	0	54	20635
2026-01-17 22:59:17.58	21.13	4.50	-41.7	-56.6	3.8	1.49e+00	0	55	104	0	54	20571
2026-01-17 22:59:18.59	21.17	4.57	-41.7	-56.6	3.8	1.49e+00	0	55	104	0	54	20628
2026-01-17 22:59:19.60	21.21	4.64	-41.7	-56.6	3.8	1.49e+00	0	55	104	0	54	20631
2026-01-17 22:59:20.61	21.25	4.71	-41.7	-56.6	3.8	1.49e+00	0	55	104	0	54	20608
2026-01-17 22:59:21.63	21.29	4.77	-41.7	-56.6	3.8	1.49e+00	0	55	104	0	54	20628
2026-01-17 22:59:22.64	21.33	4.84	-41.7	-56.6	3.8	1.49e+00	0	55	104	0	54	20614
2026-01-17 22:59:23.65	21.38	4.91	-41.7	-56.6	3.8	1.49e+00	0	55	104	0	54	20650
2026-01-17 22:59:24.66	21.42	4.98	-41.7	-56.6	3.8	1.49e+00	0	55	104	0	54	20696
2026-01-17 22:59:25.67	21.46	5.05	-41.7	-56.6	3.8	1.49e+00	0	55	104	0	54	20606
2026-01-17 22:59:26.68	21.50	5.12	-41.7	-56.6	3.8	1.49e+00	0	55	104	0	54	20554
2026-01-17 22:59:27.69	21.54	5.19	-41.7	-56.6	3.8	1.49e+00	0	55	104	0	54	20580
2026-01-17 22:59:28.70	21.59	5.26	-41.7	-56.6	3.8	1.49e+00	0	55	104	0	54	20563
2026-01-17 22:59:29.71	21.63	5.33	-41.7	-56.5	3.8	1.49e+00	0	55	104	0	54	20482
2026-01-17 22:59:30.72	21.67	5.40	-41.7	-56.6	3.8	1.49e+00	0	55	104	0	54	20545
2026-01-17 22:59:31.73	21.72	5.47	-41.7	-56.6	3.8	1.49e+00	0	55	104	0	54	20590
2026-01-17 22:59:32.74	21.76	5.54	-41.7	-56.6	3.8	1.49e+00	0	56	104	0	54	20549
2026-01-17 22:59:33.75	21.80	5.61	-41.7	-56.5	3.8	1.49e+00	0	55	104	0	54	20520
2026-01-17 22:59:34.76	21.85	5.68	-41.7	-56.5	3.8	1.49e+00	0	56	104	0	54	20525
2026-01-17 22:59:35.78	21.89	5.75	-41.7	-56.6	3.8	1.49e+00	0	56	104	0	54	20540
2026-01-17 22:59:36.79	21.94	5.82	-41.7	-56.5	3.8	1.49e+00	0	56	104	0	54	20522
2026-01-17 22:59:37.80	21.98	5.89	-41.7	-56.5	3.8	1.49e+00	0	56	104	0	54	20489
2026-01-17 22:59:38.81	22.03	5.96	-41.7	-56.5	3.8	1.49e+00	0	56	104	0	54	20518
2026-01-17 22:59:39.82	22.07	6.03	-41.7	-56.5	3.8	1.49e+00	0	56	104	0	54	20512
2026-01-17 22:59:40.83	22.12	6.11	-41.7	-56.5	3.8	1.49e+00	0	56	104	0	54	20538
2026-01-17 22:59:41.84	22.16	6.18	-41.7	-56.5	3.8	1.49e+00	0	56	104	0	54	20504
2026-01-17 22:59:42.85	22.21	6.25	-41.7	-56.5	3.8	1.49e+00	0	56	104	0	54	20473
2026-01-17 22:59:43.86	22.25	6.32	-41.6	-56.6	3.8	1.49e+00	0	56	104	0	54	20563
2026-01-17 22:59:44.87	22.30	6.39	-41.7	-56.5	3.8	1.49e+00	0	56	104	0	54	20499
2026-01-17 22:59:45.88	22.34	6.47	-41.7	-56.5	3.8	1.49e+00	0	56	104	0	54	20491
2026-01-17 22:59:46.89	22.39	6.54	-41.7	-56.5	3.8	1.49e+00	0	56	104	0	54	20440
2026-01-17 22:59:47.90	22.44	6.61	-41.7	-56.5	3.8	1.49e+00	0	56	104	0	54	20407
2026-01-17 22:59:48.91	22.48	6.69	-41.7	-56.5	3.8	1.49e+00	0	56	104	0	54	20514
2026-01-17 22:59:49.93	22.53	6.76	-41.7	-56.5	3.8	1.49e+00	0	56	104	0	54	20508
2026-01-17 22:59:50.94	22.58	6.83	-41.7	-56.5	3.8	1.49e+00	0	56	104	0	54	20473
2026-01-17 22:59:51.95	22.63	6.91	-41.7	-56.5	3.8	1.49e+00	0	56	104	0	54	20481
2026-01-17 22:59:52.96	22.67	6.98	-41.7	-56.6	3.8	1.49e+00	0	56	104	0	54	20552
2026-01-17 22:59:53.97	22.72	7.06	-41.7	-56.5	3.8	1.49e+00	0	56	104	0	54	20455
2026-01-17 22:59:54.98	22.77	7.13	-41.7	-56.5	3.8	1.49e+00	0	56	104	0	54	20396
2026-01-17 22:59:55.99	22.82	7.21	-41.6	-56.4	3.8	1.49e+00	0	56	104	0	54	20272
2026-01-17 22:59:57.00	22.87	7.28	-41.7	-56.3	3.8	1.49e+00	0	57	104	0	54	19931
2026-01-17 22:59:58.01	22.91	7.35	-41.6	-56.0	3.8	1.49e+00	0	57	104	0	54	19359
2026-01-17 22:59:59.02	22.96	7.43	-41.6	-55.8	3.8	1.49e+00	0	57	104	0	54	18938
2026-01-17 23:00:00.04	23.01	7.51	-41.6	-55.8	3.8	1.49e+00	0	57	104	0	54	18737
2026-01-17 23:00:01.05	23.06	7.58	-41.6	-55.5	3.8	1.49e+00	0	57	104	0	54	18203
2026-01-17 23:00:02.06	23.11	7.66	-41.6	-55.2	3.8	1.49e+00	0	57	104	0	54	17570
2026-01-17 23:00:03.07	23.16	7.73	-41.6	-55.0	3.8	1.49e+00	0	57	104	0	54	17100
2026-01-17 23:00:04.08	23.21	7.81	-41.6	-54.5	3.8	1.49e+00	0	57	104	0	54	16146
2026-01-17 23:00:05.09	23.26	7.89	-41.5	-53.6	4.0	1.46e+00	0	57	104	0	54	14604
2026-01-17 23:00:06.10	23.31	7.96	-41.5	-52.8	4.3	1.40e+00	0	57	0	0	54	13393
2026-01-17 23:00:07.11	23.36	8.04	-41.4	-52.1	4.5	1.29e+00	10	57	0	1048576	54	12253
2026-01-17 23:00:08.12	23.41	8.12	-41.8	-51.7	4.9	8.54e-01	0	57	0	2097152	54	11777
2026-01-17 23:00:09.13	23.47	8.19	-41.3	-56.2	3.8	1.49e+00	0	57	104	3145728	54	19646
2026-01-17 23:00:10.14	23.52	8.27	-42.1	-49.8	6.4	6.44e-01	0	57	0	3145728	54	9487
2026-01-17 23:00:11.15	23.57	8.35	-42.4	-50.9	5.5	2.69e-01	0	57	0	5242880	55	10163
2026-01-17 23:00:12.16	23.62	8.43	-41.3	-50.8	5.1	3.95e-01	0	57	0	7340032	54	10557
2026-01-17 23:00:13.17	23.67	8.51	-41.3	-47.6	8.3	1.22e-01	0	57	0	8388608	54	7348
2026-01-17 23:00:14.18	23.73	8.58	-41.6	-48.4	7.6	6.82e-02	0	57	0	10485760	54	8039
2026-01-17 23:00:15.18	23.78	8.66	-41.7	-48.7	7.4	1.17e-01	0	57	0	12582912	54	8277
2026-01-17 23:00:16.19	23.83	8.74	-41.7	-48.5	7.6	1.14e-01	0	57	0	14680064	54	8129
2026-01-17 23:00:17.20	23.88	8.82	-41.6	-47.8	8.3	6.72e-02	0	57	0	16777216	54	7534
2026-01-17 23:00:18.21	23.94	8.90	-41.5	-47.5	8.8	3.72e-02	0	57	0	17825792	54	7213
2026-01-17 23:00:19.22	23.99	8.98	-41.5	-47.3	9.0	2.56e-02	0	57	0	19922944	54	7066
2026-01-17 23:00:20.23	24.05	9.06	-41.6	-47.6	8.8	2.78e-02	0	57	0	22020096	54	7289
2026-01-17 23:00:21.24	24.10	9.14	-41.6	-47.5	8.8	3.48e-02	0	57	0	24117248	54	7274
2026-01-17 23:00:22.25	24.15	9.22	-41.6	-47.4	9.0	2.85e-02	0	57	0	26214400	54	7140
2026-01-17 23:00:23.26	24.21	9.30	-41.5	-47.2	9.1	2.19e-02	0	57	0	27262976	54	7033
2026-01-17 23:00:24.27	24.27	9.38	-41.7	-47.7	8.7	2.67e-02	0	57	0	29360128	54	7421
2026-01-17 23:00:25.27	24.32	9.46	-41.7	-47.5	8.9	2.84e-02	0	58	0	31457280	54	7280
2026-01-17 23:00:26.29	24.38	9.54	-41.7	-47.1	9.5	1.83e-02	0	57	0	33554432	54	6913
2026-01-17 23:00:27.29	24.43	9.62	-41.8	-47.3	9.3	1.45e-02	0	57	0	35651584	54	7114
2026-01-17 23:00:28.31	24.49	9.71	-41.8	-47.4	9.4	1.76e-02	0	58	0	36700160	54	7128
2026-01-17 23:00:29.32	24.55	9.79	-41.7	-47.0	9.7	1.20e-02	0	58	0	38797312	54	6833
2026-01-17 23:00:30.33	24.60	9.87	-41.8	-47.3	9.5	1.11e-02	0	58	0	40894464	54	7056
2026-01-17 23:00:31.34	24.66	9.95	-41.8	-47.1	9.7	1.45e-02	0	58	0	42991616	54	6949
2026-01-17 23:00:32.35	24.72	10.04	-41.8	-47.1	9.7	9.26e-03	0	57	0	45088768	54	6927
2026-01-17 23:00:33.36	24.78	10.12	-41.9	-47.2	9.6	1.43e-02	0	58	0	46137344	54	7034
2026-01-17 23:00:34.37	24.83	10.20	-41.9	-47.2	9.7	1.11e-02	0	58	0	48234496	54	7023
2026-01-17 23:00:35.38	24.89	10.29	-41.9	-47.2	9.7	1.27e-02	0	58	0	50331648	54	7017
2026-01-17 23:00:36.39	24.95	10.37	-41.9	-47.2	9.8	1.01e-02	0	58	0	52428800	54	6969
2026-01-17 23:00:37.40	25.01	10.45	-41.9	-47.0	9.9	9.15e-03	0	58	0	54525952	54	6865
2026-01-17 23:00:38.41	25.07	10.54	-41.9	-47.0	10.0	7.70e-03	0	58	0	55574528	54	6818
2026-01-17 23:00:39.42	25.13	10.62	-41.9	-47.1	10.0	7.55e-03	0	58	0	57671680	54	6902
2026-01-17 23:00:40.43	25.19	10.71	-41.9	-47.0	10.1	7.71e-03	0	58	0	59768832	54	6808
2026-01-17 23:00:41.43	25.25	10.79	-41.9	-47.0	10.1	7.37e-03	0	58	0	61865984	54	6851
2026-01-17 23:00:42.44	25.31	10.88	-41.9	-47.0	10.1	6.65e-03	0	58	0	63963136	54	6830
2026-01-17 23:00:43.45	25.37	10.96	-41.9	-47.0	10.1	6.32e-03	0	58	0	65011712	54	6812
2026-01-17 23:00:44.46	25.43	11.05	-41.9	-47.0	10.2	5.88e-03	0	58	0	67108864	54	6805
2026-01-17 23:00:45.47	25.49	11.14	-41.9	-46.9	10.2	5.74e-03	0	58	0	69206016	54	6756
2026-01-17 23:00:46.48	25.56	11.22	-42.0	-46.9	10.2	5.03e-03	0	58	0	71303168	54	6801
2026-01-17 23:00:47.49	25.62	11.31	-41.9	-46.8	10.3	4.88e-03	0	58	0	73400320	54	6705
2026-01-17 23:00:48.50	25.68	11.40	-42.0	-47.0	10.2	5.75e-03	0	58	0	75497472	54	6826
2026-01-17 23:00:49.51	25.74	11.48	-41.9	-46.9	10.3	4.87e-03	0	58	0	76546048	54	6730
2026-01-17 23:00:50.52	25.81	11.57	-41.9	-46.7	10.5	4.16e-03	0	58	0	78643200	54	6607
2026-01-17 23:00:51.53	25.87	11.66	-41.9	-46.7	10.6	3.45e-03	0	58	0	80740352	54	6596
2026-01-17 23:00:52.54	25.93	11.75	-41.8	-46.5	10.7	3.28e-03	0	58	0	82837504	54	6468
2026-01-17 23:00:53.55	26.00	11.84	-41.8	-46.6	10.7	2.41e-03	0	58	0	84934656	54	6513
2026-01-17 23:00:54.56	26.06	11.92	-41.9	-46.6	10.7	3.01e-03	0	58	0	85983232	54	6546
2026-01-17 23:00:55.57	26.13	12.01	-41.8	-46.4	11.0	2.25e-03	0	58	0	88080384	54	6351
2026-01-17 23:00:56.58	26.19	12.10	-41.8	-46.3	11.1	1.99e-03	0	58	0	90177536	54	6305
2026-01-17 23:00:57.59	26.26	12.19	-41.8	-46.4	10.9	2.10e-03	0	58	0	92274688	54	6394
2026-01-17 23:00:58.60	26.33	12.28	-41.8	-46.3	11.1	1.56e-03	0	58	0	94371840	54	6303
2026-01-17 23:00:59.61	26.39	12.37	-41.8	-46.3	11.1	1.65e-03	0	58	0	95420416	54	6287
2026-01-17 23:01:00.62	26.46	12.46	-41.8	-46.4	11.0	1.85e-03	0	58	0	97517568	54	6371
2026-01-17 23:01:01.63	26.53	12.56	-41.8	-46.3	11.1	1.82e-03	0	58	0	99614720	54	6343
2026-01-17 23:01:02.64	26.60	12.65	-41.9	-46.4	11.1	1.58e-03	0	58	0	101711872	54	6354
2026-01-17 23:01:03.65	26.66	12.74	-41.9	-46.4	11.0	1.69e-03	0	58	0	103809024	54	6406
2026-01-17 23:01:04.66	26.73	12.83	-41.8	-46.3	11.1	1.75e-03	0	58	0	104857600	54	6323
2026-01-17 23:01:05.67	26.80	12.92	-41.8	-46.3	11.1	1.61e-03	0	58	0	106954752	54	6344
2026-01-17 23:01:06.68	26.87	13.01	-41.9	-46.4	11.1	1.33e-03	0	58	0	109051904	54	6362
2026-01-17 23:01:07.69	26.94	13.11	-41.8	-46.2	11.3	1.21e-03	0	58	0	111149056	54	6213
2026-01-17 23:01:08.69	27.01	13.20	-41.8	-46.2	11.3	1.24e-03	0	58	0	113246208	54	6268
2026-01-17 23:01:09.70	27.08	13.29	-41.9	-46.3	11.2	1.18e-03	0	58	0	114294784	54	6296
2026-01-17 23:01:10.71	27.15	13.39	-41.7	-46.0	11.5	9.28e-04	0	58	0	116391936	54	6086
2026-01-17 23:01:11.72	27.22	13.48	-41.9	-46.2	11.3	1.06e-03	0	59	0	118489088	54	6259
2026-01-17 23:01:12.73	27.30	13.58	-41.8	-46.1	11.4	9.00e-04	0	59	0	120586240	54	6183
2026-01-17 23:01:13.74	27.37	13.67	-41.8	-46.1	11.4	8.65e-04	0	58	0	122683392	54	6178
2026-01-17 23:01:14.75	27.44	13.76	-41.8	-46.0	11.6	7.47e-04	0	58	0	123731968	54	6099
2026-01-17 23:01:15.76	27.52	13.86	-41.8	-46.0	11.6	6.55e-04	0	59	0	125829120	54	6090
2026-01-17 23:01:16.77	27.59	13.96	-41.8	-46.0	11.6	6.26e-04	0	59	0	127926272	54	6099
2026-01-17 23:01:17.78	27.66	14.05	-41.8	-46.0	11.6	6.65e-04	0	59	0	130023424	54	6081
2026-01-17 23:01:18.79	27.74	14.15	-41.8	-46.0	11.7	6.08e-04	0	59	0	132120576	54	6063
2026-01-17 23:01:19.80	27.81	14.25	-41.8	-45.9	11.7	5.55e-04	0	58	0	133169152	54	6061
2026-01-17 23:01:20.81	27.89	14.34	-41.8	-45.9	11.7	6.90e-04	0	59	0	135266304	54	6057
2026-01-17 23:01:21.82	27.96	14.44	-41.7	-45.9	11.8	5.81e-04	0	59	0	137363456	54	6000
2026-01-17 23:01:22.83	28.04	14.54	-41.7	-45.9	11.8	5.73e-04	0	59	0	139460608	54	6009
2026-01-17 23:01:23.84	28.12	14.64	-41.7	-45.9	11.8	5.18e-04	0	59	0	141557760	54	6023
2026-01-17 23:01:24.85	28.20	14.73	-41.8	-45.9	11.8	4.35e-04	0	59	0	143654912	54	6025
2026-01-17 23:01:25.86	28.27	14.83	-41.7	-45.9	11.8	4.90e-04	0	59	0	144703488	54	6012
2026-01-17 23:01:26.87	28.35	14.93	-41.7	-45.8	11.9	4.34e-04	0	59	0	146800640	54	5978
2026-01-17 23:01:27.88	28.43	15.03	-41.7	-45.8	11.9	4.15e-04	0	59	0	148897792	54	5980
2026-01-17 23:01:28.89	28.51	15.13	-41.7	-45.8	11.9	4.13e-04	0	59	0	150994944	54	5944
2026-01-17 23:01:29.90	28.59	15.23	-41.7	-45.8	11.9	3.07e-04	0	59	0	153092096	54	5946
2026-01-17 23:01:30.91	28.67	15.33	-41.7	-45.8	11.9	4.22e-04	0	59	0	154140672	54	5941
2026-01-17 23:01:31.92	28.75	15.43	-41.7	-45.7	12.0	3.66e-04	0	59	0	156237824	54	5891
2026-01-17 23:01:32.93	28.83	15.54	-41.7	-45.7	12.1	2.71e-04	0	59	0	158334976	54	5867
2026-01-17 23:01:33.93	28.91	15.64	-41.7	-45.6	12.1	2.99e-04	0	59	0	160432128	54	5830
2026-01-17 23:01:34.95	29.00	15.74	-41.7	-45.7	12.1	2.74e-04	0	59	0	162529280	54	5871
2026-01-17 23:01:35.96	29.08	15.84	-41.7	-45.6	12.1	3.52e-04	0	59	0	163577856	54	5842
2026-01-17 23:01:36.97	29.16	15.95	-41.7	-45.7	12.1	2.19e-04	0	59	0	165675008	54	5878
2026-01-17 23:01:37.97	29.25	16.05	-41.7	-45.7	12.0	2.21e-04	0	59	0	167772160	54	5899
2026-01-17 23:01:38.99	29.33	16.15	-41.7	-45.7	12.0	2.70e-04	0	59	0	169869312	54	5910
2026-01-17 23:01:39.99	29.42	16.26	-41.7	-45.8	12.0	3.21e-04	0	59	0	171966464	54	5934
2026-01-17 23:01:41.00	29.50	16.36	-41.7	-45.7	12.1	2.75e-04	0	59	0	173015040	54	5911
2026-01-17 23:01:42.01	29.59	16.47	-41.8	-45.9	11.9	3.42e-04	0	59	0	175112192	54	5995
2026-01-17 23:01:43.02	29.68	16.57	-41.8	-45.8	12.0	3.22e-04	0	59	0	177209344	54	5948
2026-01-17 23:01:44.03	29.76	16.68	-41.8	-45.8	12.0	3.85e-04	0	59	0	179306496	54	5938
2026-01-17 23:01:45.04	29.85	16.78	-41.8	-45.8	12.0	3.31e-04	0	59	0	181403648	54	5958
2026-01-17 23:01:46.05	29.94	16.89	-41.8	-45.9	11.9	3.45e-04	0	59	0	182452224	54	6014
2026-01-17 23:01:47.06	30.03	17.00	-41.9	-46.1	11.7	4.38e-04	0	59	0	184549376	54	6142
2026-01-17 23:01:48.07	30.12	17.10	-41.9	-46.0	11.8	5.65e-04	0	59	0	186646528	54	6125
2026-01-17 23:01:49.08	30.21	17.21	-41.9	-46.1	11.8	5.16e-04	0	59	0	188743680	54	6132
2026-01-17 23:01:50.09	30.30	17.32	-42.0	-46.2	11.7	5.56e-04	0	59	0	190840832	54	6222
2026-01-17 23:01:51.10	30.39	17.43	-42.0	-46.2	11.7	6.45e-04	0	59	0	191889408	54	6224
2026-01-17 23:01:52.11	30.49	17.54	-42.0	-46.2	11.6	6.54e-04	0	59	0	193986560	54	6260
2026-01-17 23:01:53.12	30.58	17.65	-42.0	-46.1	11.7	6.26e-04	0	59	0	196083712	54	6189
2026-01-17 23:01:54.13	30.67	17.76	-42.0	-46.2	11.7	6.30e-04	0	59	0	198180864	54	6204
2026-01-17 23:01:55.14	30.77	17.87	-42.0	-46.3	11.6	7.86e-04	0	59	0	200278016	54	6286
2026-01-17 23:01:56.15	30.86	17.98	-42.0	-46.2	11.7	5.71e-04	0	59	0	201326592	54	6263
2026-01-17 23:01:57.16	30.96	18.09	-42.1	-46.3	11.6	7.15e-04	0	59	0	203423744	54	6324
2026-01-17 23:01:58.17	31.05	18.20	-42.1	-46.2	11.7	7.35e-04	0	59	0	205520896	54	6261
2026-01-17 23:01:59.18	31.15	18.31	-42.1	-46.3	11.6	7.31e-04	0	59	0	207618048	54	6313
2026-01-17 23:02:00.19	31.25	18.42	-42.1	-46.4	11.6	7.72e-04	0	59	0	209715200	54	6353
2026-01-17 23:02:01.20	31.35	18.54	-42.1	-46.3	11.5	6.83e-04	0	59	0	211812352	54	6345
2026-01-17 23:02:02.21	31.45	18.65	-42.1	-46.4	11.6	7.18e-04	0	59	0	212860928	54	6350
2026-01-17 23:02:03.22	31.55	18.76	-42.1	-46.3	11.6	7.63e-04	0	59	0	214958080	54	6313
2026-01-17 23:02:04.22	31.65	18.88	-42.1	-46.3	11.6	7.84e-04	0	59	0	217055232	54	6332
2026-01-17 23:02:05.23	31.75	18.99	-42.2	-46.5	11.4	9.90e-04	0	59	0	219152384	55	6131
2026-01-17 23:02:06.24	31.85	19.11	-42.2	-46.5	11.4	1.03e-03	0	59	0	221249536	55	6126
2026-01-17 23:02:07.25	31.95	19.22	-42.2	-46.6	11.3	1.02e-03	0	59	0	222298112	55	6178
2026-01-17 23:02:08.26	32.06	19.34	-42.3	-46.7	11.2	1.22e-03	0	59	0	224395264	55	6227
2026-01-17 23:02:09.27	32.16	19.45	-42.3	-46.7	11.2	1.39e-03	0	59	0	226492416	55	6265
2026-01-17 23:02:10.28	32.26	19.57	-42.2	-46.5	11.4	9.89e-04	0	59	0	228589568	55	6112
2026-01-17 23:02:11.29	32.37	19.69	-42.2	-46.4	11.5	9.31e-04	0	59	0	230686720	55	6052
2026-01-17 23:02:12.30	32.48	19.81	-42.2	-46.4	11.5	9.70e-04	0	59	0	231735296	55	6050
2026-01-17 23:02:13.31	32.58	19.92	-42.2	-46.5	11.5	7.33e-04	0	59	0	233832448	55	6062
2026-01-17 23:02:14.32	32.69	20.04	-42.1	-46.3	11.7	7.37e-04	0	59	0	235929600	55	5949
2026-01-17 23:02:15.33	32.80	20.16	-42.1	-46.3	11.7	5.29e-04	0	59	0	238026752	55	5945
2026-01-17 23:02:16.34	32.91	20.28	-42.1	-46.2	11.8	5.78e-04	0	59	0	240123904	55	5903
2026-01-17 23:02:17.35	33.02	20.40	-42.1	-46.2	11.8	4.71e-04	0	59	0	241172480	55	5862
2026-01-17 23:02:18.36	33.13	20.52	-42.1	-46.2	11.8	5.97e-04	0	59	0	243269632	55	5902
2026-01-17 23:02:19.37	33.25	20.64	-42.0	-46.1	11.9	3.87e-04	0	59	0	245366784	55	5816
2026-01-17 23:02:20.38	33.36	20.77	-42.1	-46.2	11.8	3.96e-04	0	59	0	247463936	55	5896
2026-01-17 23:02:21.38	33.47	20.89	-42.0	-46.1	11.9	3.84e-04	0	59	0	249561088	55	5800
2026-01-17 23:02:22.39	33.59	21.01	-42.0	-46.1	11.9	3.49e-04	0	60	0	250609664	55	5790
2026-01-17 23:02:23.40	33.70	21.13	-42.1	-46.2	11.9	4.12e-04	0	59	0	252706816	55	5856
2026-01-17 23:02:24.41	33.82	21.26	-42.1	-46.1	11.9	3.29e-04	0	59	0	254803968	55	5832
2026-01-17 23:02:25.43	33.94	21.38	-42.1	-46.1	11.9	3.58e-04	0	60	0	256901120	55	5843
2026-01-17 23:02:26.44	34.06	21.51	-42.0	-46.1	11.9	3.78e-04	0	59	0	258998272	55	5817
2026-01-17 23:02:27.45	34.18	21.63	-42.1	-46.1	11.9	3.86e-04	0	60	0	260046848	55	5834
2026-01-17 23:02:28.46	34.30	21.76	-42.1	-46.1	11.9	3.94e-04	0	59	0	262144000	55	5811
2026-01-17 23:02:29.46	34.42	21.88	-42.1	-46.1	12.0	3.18e-04	0	60	0	264241152	55	5806
2026-01-17 23:02:30.47	34.54	22.01	-42.1	-46.1	11.9	3.46e-04	0	59	0	266338304	55	5827
2026-01-17 23:02:31.48	34.66	22.14	-42.0	-46.0	12.0	3.38e-04	0	60	0	268435456	55	5773
2026-01-17 23:02:32.49	34.79	22.26	-42.1	-46.1	12.0	2.92e-04	0	60	0	269484032	55	5793
2026-01-17 23:02:33.50	34.91	22.39	-42.0	-46.0	12.0	3.39e-04	0	60	0	271581184	55	5766
2026-01-17 23:02:34.52	35.04	22.52	-42.1	-46.1	11.9	3.65e-04	0	60	0	273678336	55	5828
2026-01-17 23:02:35.53	35.17	22.65	-42.1	-46.2	11.9	4.21e-04	0	60	0	275775488	55	5879
2026-01-17 23:02:36.54	35.29	22.78	-42.2	-46.3	11.8	4.00e-04	0	59	0	277872640	55	5931
2026-01-17 23:02:37.55	35.42	22.91	-42.1	-46.2	11.9	4.10e-04	0	59	0	279969792	55	5871
2026-01-17 23:02:38.55	35.55	23.04	-42.1	-46.2	11.9	3.75e-04	0	59	0	281018368	55	5858
2026-01-17 23:02:39.57	35.68	23.17	-42.1	-46.2	11.9	4.07e-04	0	60	0	283115520	55	5875
2026-01-17 23:02:40.58	35.82	23.30	-42.1	-46.1	12.0	3.33e-04	0	60	0	285212672	55	5816
2026-01-17 23:02:41.59	35.95	23.44	-42.1	-46.0	12.1	2.84e-04	0	59	0	287309824	55	5751
2026-01-17 23:02:42.60	36.08	23.57	-42.0	-46.0	12.1	2.67e-04	0	60	0	289406976	55	5734
2026-01-17 23:02:43.61	36.22	23.70	-42.1	-46.0	12.1	2.51e-04	0	60	0	290455552	55	5762
2026-01-17 23:02:44.62	36.36	23.84	-42.1	-46.0	12.1	2.39e-04	0	60	0	292552704	55	5740
2026-01-17 23:02:45.62	36.49	23.97	-42.0	-45.9	12.2	2.30e-04	0	60	0	294649856	55	5689
2026-01-17 23:02:46.63	36.63	24.11	-42.0	-45.9	12.2	2.13e-04	0	60	0	296747008	55	5700
2026-01-17 23:02:47.64	36.77	24.24	-42.0	-46.0	12.1	2.43e-04	0	60	0	298844160	55	5732
2026-01-17 23:02:48.65	36.91	24.38	-42.1	-46.1	12.1	2.40e-04	0	60	0	299892736	55	5794
2026-01-17 23:02:49.66	37.06	24.51	-42.1	-46.1	12.1	2.67e-04	0	60	0	301989888	55	5801
2026-01-17 23:02:50.67	37.20	24.65	-42.1	-46.0	12.1	2.92e-04	0	60	0	304087040	55	5766
2026-01-17 23:02:51.68	37.35	24.79	-42.1	-46.1	12.1	2.76e-04	0	60	0	306184192	55	5794
2026-01-17 23:02:52.69	37.49	24.93	-42.1	-46.1	12.1	2.43e-04	0	60	0	308281344	55	5803
2026-01-17 23:02:53.70	37.64	25.06	-42.1	-46.1	12.0	3.16e-04	0	60	0	309329920	55	5839
2026-01-17 23:02:54.71	37.79	25.20	-42.1	-46.1	12.1	2.41e-04	0	60	0	311427072	55	5797
2026-01-17 23:02:55.72	37.94	25.34	-42.1	-46.0	12.1	2.62e-04	0	60	0	313524224	55	5784
2026-01-17 23:02:56.73	38.09	25.48	-42.0	-45.9	12.3	2.61e-04	0	60	0	315621376	55	5705
2026-01-17 23:02:57.74	38.24	25.63	-42.0	-45.9	12.3	2.24e-04	0	60	0	317718528	55	5666
2026-01-17 23:02:58.74	38.40	25.77	-42.0	-45.9	12.3	1.85e-04	0	60	0	318767104	55	5682
2026-01-17 23:02:59.76	38.55	25.91	-42.0	-45.9	12.3	1.67e-04	0	60	0	320864256	55	5679
2026-01-17 23:03:00.77	38.71	26.05	-42.1	-45.9	12.2	1.78e-04	0	60	0	322961408	55	5698
2026-01-17 23:03:01.77	38.87	26.19	-42.1	-46.0	12.1	2.42e-04	0	60	0	325058560	55	5784
2026-01-17 23:03:02.78	39.03	26.34	-42.2	-46.1	12.1	2.16e-04	0	60	0	327155712	55	5825
2026-01-17 23:03:03.79	39.19	26.48	-42.2	-46.2	11.9	3.42e-04	0	60	0	328204288	55	5911
2026-01-17 23:03:04.80	39.35	26.63	-42.3	-46.3	11.9	3.76e-04	0	60	0	330301440	55	5951
2026-01-17 23:03:05.81	39.51	26.77	-42.4	-46.6	11.7	5.00e-04	0	60	0	332398592	55	6134
2026-01-17 23:03:06.82	39.68	26.92	-42.4	-46.6	11.6	6.09e-04	0	60	0	334495744	55	6168
2026-01-17 23:03:07.83	39.85	27.06	-42.5	-46.7	11.4	8.91e-04	0	60	0	336592896	55	6269
2026-01-17 23:03:08.84	40.01	27.21	-42.5	-46.8	11.3	1.02e-03	0	60	0	337641472	55	6337
2026-01-17 23:03:09.85	40.18	27.36	-42.5	-46.9	11.3	1.30e-03	0	60	0	339738624	55	6388
2026-01-17 23:03:10.86	40.35	27.50	-42.6	-47.1	11.1	1.58e-03	0	60	0	341835776	55	6498
2026-01-17 23:03:11.87	40.53	27.65	-42.6	-47.1	11.1	1.65e-03	0	60	0	343932928	55	6513
2026-01-17 23:03:12.87	40.70	27.80	-42.6	-47.1	11.0	1.70e-03	0	60	0	346030080	55	6543
2026-01-17 23:03:13.88	40.88	27.95	-42.7	-47.3	10.9	1.91e-03	0	60	0	348127232	55	6658
2026-01-17 23:03:14.89	41.05	28.10	-42.9	-47.5	10.8	2.30e-03	0	60	0	349175808	56	6440
2026-01-17 23:03:15.90	41.23	28.25	-42.8	-47.4	10.9	2.47e-03	0	60	0	351272960	56	6379
2026-01-17 23:03:16.91	41.41	28.40	-42.8	-47.4	11.0	1.98e-03	0	60	0	353370112	56	6368
2026-01-17 23:03:17.92	41.60	28.55	-42.9	-47.5	10.8	2.44e-03	0	60	0	355467264	56	6494
2026-01-17 23:03:18.93	41.78	28.71	-43.0	-47.7	10.7	2.50e-03	0	60	0	357564416	56	6586
2026-01-17 23:03:19.94	41.97	28.86	-43.0	-47.7	10.6	3.60e-03	0	60	0	358612992	56	6642
2026-01-17 23:03:20.95	42.16	29.01	-43.1	-47.9	10.4	4.23e-03	0	60	0	360710144	56	6773
2026-01-17 23:03:21.96	42.34	29.17	-43.1	-48.1	10.2	5.28e-03	0	60	0	362807296	56	6908
2026-01-17 23:03:22.97	42.54	29.32	-43.2	-48.1	10.2	6.49e-03	0	60	0	364904448	56	6935
2026-01-17 23:03:23.98	42.73	29.47	-43.2	-48.3	10.0	7.92e-03	0	60	0	367001600	57	6693
2026-01-17 23:03:24.99	42.92	29.63	-43.2	-48.3	10.0	8.16e-03	0	60	0	368050176	57	6710
2026-01-17 23:03:26.00	43.12	29.79	-43.3	-48.5	9.7	8.66e-03	0	60	0	370147328	57	6869
2026-01-17 23:03:27.01	43.32	29.94	-43.4	-48.7	9.6	1.31e-02	0	60	0	372244480	57	7009
2026-01-17 23:03:28.02	43.52	30.10	-43.4	-48.9	9.5	1.42e-02	0	60	0	374341632	57	7125
2026-01-17 23:03:29.03	43.72	30.26	-43.4	-48.7	9.7	1.48e-02	0	60	0	376438784	57	6963
2026-01-17 23:03:30.04	43.93	30.41	-43.3	-48.4	9.8	9.68e-03	0	60	0	377487360	57	6799
2026-01-17 23:03:31.05	44.13	30.57	-43.2	-48.2	10.1	7.37e-03	0	60	0	379584512	57	6583
2026-01-17 23:03:32.06	44.34	30.73	-43.2	-48.2	10.1	6.29e-03	0	60	0	381681664	57	6588
2026-01-17 23:03:33.07	44.55	30.89	-43.0	-47.7	10.7	3.58e-03	0	60	0	383778816	57	6228
2026-01-17 23:03:34.08	44.76	31.05	-42.9	-47.5	10.8	2.21e-03	0	60	0	385875968	57	6131
2026-01-17 23:03:35.09	44.98	31.21	-42.9	-47.5	10.9	2.58e-03	0	60	0	386924544	57	6130
2026-01-17 23:03:36.10	45.20	31.37	-43.0	-47.6	10.8	2.37e-03	0	60	0	389021696	57	6152
2026-01-17 23:03:37.11	45.41	31.53	-43.0	-47.7	10.6	2.52e-03	0	60	0	391118848	57	6255
2026-01-17 23:03:38.12	45.64	31.69	-43.0	-47.6	10.8	3.02e-03	0	60	0	393216000	57	6186
2026-01-17 23:03:39.13	45.86	31.85	-43.0	-47.6	10.8	2.68e-03	0	60	0	395313152	57	6183
2026-01-17 23:03:40.14	46.08	32.02	-42.9	-47.6	10.8	2.68e-03	0	60	0	396361728	57	6145
2026-01-17 23:03:41.15	46.31	32.18	-42.8	-47.2	11.2	1.96e-03	0	60	0	398458880	57	5906
2026-01-17 23:03:42.16	46.54	32.34	-42.8	-47.2	11.2	1.37e-03	0	60	0	400556032	57	5892
2026-01-17 23:03:43.17	46.77	32.51	-42.8	-47.2	11.2	1.49e-03	0	60	0	402653184	57	5917
2026-01-17 23:03:44.18	47.01	32.67	-42.8	-47.1	11.3	1.42e-03	0	60	0	404750336	57	5850
2026-01-17 23:03:45.19	47.24	32.83	-42.7	-47.0	11.5	8.63e-04	0	60	0	405798912	57	5728
2026-01-17 23:03:46.19	47.48	33.00	-42.7	-47.0	11.5	8.60e-04	0	60	0	407896064	57	5730
2026-01-17 23:03:47.20	47.72	33.16	-42.8	-47.1	11.3	1.01e-03	0	60	0	409993216	57	5820
2026-01-17 23:03:48.21	47.97	33.33	-42.8	-47.1	11.3	1.16e-03	0	60	0	412090368	57	5833
2026-01-17 23:03:49.22	48.21	33.49	-42.8	-47.2	11.2	1.27e-03	0	60	0	414187520	57	5920
2026-01-17 23:03:50.23	48.46	33.66	-42.9	-47.3	11.1	1.50e-03	0	60	0	416284672	57	5960
2026-01-17 23:03:51.24	48.71	33.83	-42.8	-47.1	11.3	1.17e-03	0	60	0	417333248	57	5855
2026-01-17 23:03:52.25	48.97	33.99	-42.8	-47.1	11.3	1.15e-03	0	60	0	419430400	57	5826
2026-01-17 23:03:53.26	49.22	34.16	-42.8	-47.1	11.3	1.24e-03	0	60	0	421527552	57	5842
2026-01-17 23:03:54.27	49.48	34.33	-42.9	-47.3	11.2	1.22e-03	0	60	0	423624704	57	5940
2026-01-17 23:03:55.28	49.74	34.49	-42.9	-47.5	11.0	1.56e-03	0	60	0	424673280	57	6093
2026-01-17 23:03:56.28	50.00	34.66	-42.9	-47.5	10.9	2.30e-03	0	60	0	426770432	57	6096
2026-01-17 23:03:57.29	50.27	34.83	-42.9	-47.4	11.1	1.80e-03	0	60	0	428867584	57	6017
2026-01-17 23:03:58.30	50.54	35.00	-42.8	-47.2	11.2	1.59e-03	0	60	0	430964736	57	5903
2026-01-17 23:03:59.31	50.81	35.17	-42.7	-46.9	11.5	8.21e-04	0	60	0	433061888	57	5709
2026-01-17 23:04:00.32	51.09	35.33	-42.7	-47.0	11.5	7.85e-04	0	60	0	434110464	57	5727
2026-01-17 23:04:01.33	51.37	35.50	-42.8	-47.0	11.5	7.70e-04	0	61	0	436207616	57	5779
2026-01-17 23:04:02.34	51.65	35.67	-42.9	-47.3	11.2	1.23e-03	0	60	0	438304768	57	5928
2026-01-17 23:04:03.35	51.93	35.84	-43.0	-47.6	10.9	1.89e-03	0	60	0	440401920	57	6144
2026-01-17 23:04:04.36	52.22	36.01	-42.9	-47.5	11.0	2.22e-03	0	60	0	442499072	57	6075
2026-01-17 23:04:05.37	52.51	36.18	-42.9	-47.4	11.1	1.71e-03	0	60	0	444596224	57	5996
2026-01-17 23:04:06.38	52.80	36.35	-42.7	-47.0	11.5	1.02e-03	0	60	0	445644800	57	5728
2026-01-17 23:04:07.39	53.10	36.52	-42.5	-46.5	12.0	4.49e-04	0	60	0	447741952	57	5455
2026-01-17 23:04:08.40	53.39	36.69	-42.3	-46.1	12.5	2.94e-04	0	60	0	449839104	56	5473
2026-01-17 23:04:09.41	53.70	36.86	-42.1	-45.7	12.9	5.11e-05	0	60	0	451936256	56	5257
2026-01-17 23:04:10.42	54.00	37.03	-42.2	-45.9	12.7	8.92e-05	0	60	0	454033408	56	5362
2026-01-17 23:04:11.43	54.31	37.20	-42.4	-46.3	12.3	1.34e-04	0	60	0	455081984	56	5601
2026-01-17 23:04:12.44	54.62	37.37	-42.5	-46.5	12.1	2.66e-04	0	60	0	457179136	56	5769
2026-01-17 23:04:13.45	54.93	37.54	-42.7	-46.7	11.8	4.31e-04	0	60	0	459276288	56	5921
2026-01-17 23:04:14.45	55.25	37.70	-42.7	-47.0	11.6	5.55e-04	0	60	0	461373440	56	6064
2026-01-17 23:04:15.47	55.57	37.87	-42.7	-46.8	11.7	5.61e-04	0	60	0	463470592	56	5989
2026-01-17 23:04:16.47	55.89	38.04	-42.7	-46.8	11.7	5.10e-04	0	60	0	464519168	56	5955
2026-01-17 23:04:17.48	56.22	38.21	-42.5	-46.5	12.1	3.95e-04	0	60	0	466616320	56	5747
2026-01-17 23:04:18.49	56.55	38.38	-42.5	-46.3	12.2	1.97e-04	0	60	0	468713472	56	5646
2026-01-17 23:04:19.50	56.89	38.55	-42.4	-46.1	12.4	1.63e-04	0	60	0	470810624	56	5517
2026-01-17 23:04:20.51	57.22	38.72	-42.3	-46.0	12.6	1.01e-04	0	60	0	472907776	56	5433
2026-01-17 23:04:21.52	57.57	38.88	-42.3	-46.1	12.5	1.21e-04	0	60	0	473956352	56	5476
2026-01-17 23:04:22.53	57.91	39.05	-42.5	-46.3	12.2	1.51e-04	0	60	0	476053504	56	5640
2026-01-17 23:04:23.54	58.26	39.22	-42.5	-46.4	12.1	2.10e-04	0	60	0	478150656	56	5704
2026-01-17 23:04:24.55	58.61	39.39	-42.7	-46.8	11.8	3.43e-04	0	60	0	480247808	56	5974
2026-01-17 23:04:25.56	58.97	39.55	-42.8	-47.1	11.4	7.80e-04	0	60	0	482344960	56	6195
2026-01-17 23:04:26.57	59.32	39.72	-42.9	-47.3	11.2	1.04e-03	0	60	0	483393536	56	6301
2026-01-17 23:04:27.58	59.69	39.89	-42.8	-47.2	11.4	1.14e-03	0	61	0	485490688	56	6212
2026-01-17 23:04:28.59	60.05	40.05	-42.8	-47.1	11.4	8.83e-04	0	60	0	487587840	56	6177
2026-01-17 23:04:29.60	60.42	40.22	-42.8	-46.9	11.6	7.37e-04	0	60	0	489684992	56	6043
2026-01-17 23:04:30.61	60.80	40.38	-42.6	-46.5	12.0	4.19e-04	0	60	0	491782144	56	5771
2026-01-17 23:04:31.61	61.17	40.54	-42.5	-46.4	12.2	2.30e-04	0	60	0	492830720	56	5696
2026-01-17 23:04:32.62	61.55	40.70	-42.5	-46.4	12.2	2.23e-04	0	60	0	494927872	56	5679
2026-01-17 23:04:33.63	61.94	40.87	-42.5	-46.4	12.2	2.30e-04	0	60	0	497025024	56	5677
2026-01-17 23:04:34.64	62.33	41.03	-42.5	-46.4	12.2	2.34e-04	0	61	0	499122176	56	5713
2026-01-17 23:04:35.65	62.72	41.19	-42.5	-46.5	12.1	2.38e-04	0	60	0	501219328	56	5728
2026-01-17 23:04:36.66	63.12	41.35	-42.4	-46.3	12.3	2.14e-04	0	60	0	502267904	56	5596
2026-01-17 23:04:37.67	63.52	41.51	-42.3	-46.1	12.6	1.54e-04	0	60	0	504365056	56	5468
2026-01-17 23:04:38.68	63.92	41.67	-42.2	-45.9	12.7	5.87e-05	0	60	0	506462208	56	5344
2026-01-17 23:04:39.69	64.33	41.83	-42.3	-45.9	12.8	6.40e-05	0	60	0	508559360	56	5360
2026-01-17 23:04:40.70	64.74	41.98	-42.3	-45.9	12.7	5.56e-05	0	60	0	510656512	56	5391
2026-01-17 23:04:41.71	65.16	42.14	-42.3	-46.1	12.5	9.68e-05	0	60	0	512753664	56	5490
2026-01-17 23:04:42.72	65.58	42.29	-42.4	-46.1	12.5	1.10e-04	0	60	0	513802240	56	5522
2026-01-17 23:04:43.73	66.00	42.45	-42.5	-46.3	12.3	1.36e-04	0	60	0	515899392	56	5638
2026-01-17 23:04:44.74	66.43	42.60	-42.4	-46.2	12.4	1.46e-04	0	60	0	517996544	56	5556
2026-01-17 23:04:45.75	66.86	42.75	-42.4	-46.3	12.3	1.67e-04	0	60	0	520093696	56	5599
2026-01-17 23:04:46.76	67.30	42.90	-42.6	-46.5	12.1	1.77e-04	0	60	0	522190848	56	5772
2026-01-17 23:04:47.77	67.74	43.05	-42.8	-46.9	11.7	3.65e-04	0	60	0	523239424	56	6041
2026-01-17 23:04:48.78	68.19	43.20	-42.9	-47.2	11.4	8.57e-04	0	60	0	525336576	56	6231
2026-01-17 23:04:49.78	68.63	43.34	-43.0	-47.4	11.2	1.28e-03	0	60	0	527433728	56	6396
2026-01-17 23:04:50.79	69.08	43.49	-43.0	-47.5	11.0	1.49e-03	0	61	0	529530880	56	6481
2026-01-17 23:04:51.80	69.54	43.63	-43.1	-47.7	10.9	2.15e-03	0	60	0	531628032	56	6585
2026-01-17 23:04:52.81	70.00	43.77	-43.1	-47.6	10.9	2.18e-03	0	60	0	532676608	56	6550
2026-01-17 23:04:53.82	70.46	43.91	-43.0	-47.6	11.0	2.11e-03	0	60	0	534773760	56	6511
2026-01-17 23:04:54.83	70.93	44.05	-43.1	-47.6	11.0	1.96e-03	0	60	0	536870912	56	6510
2026-01-17 23:04:55.84	71.41	44.19	-43.2	-47.9	10.7	2.76e-03	0	60	0	538968064	56	6726
2026-01-17 23:04:56.85	71.88	44.33	-43.4	-48.4	10.1	4.46e-03	0	60	0	541065216	57	6785
2026-01-17 23:04:57.85	72.36	44.46	-43.4	-48.5	10.1	7.29e-03	0	61	0	542113792	57	6845
2026-01-17 23:04:58.86	72.84	44.59	-43.3	-48.0	10.5	5.66e-03	0	60	0	544210944	57	6467
2026-01-17 23:04:59.88	73.34	44.72	-43.2	-48.0	10.7	3.90e-03	0	61	0	546308096	57	6427
2026-01-17 23:05:00.89	73.83	44.85	-43.0	-47.5	11.1	1.66e-03	0	60	0	548405248	57	6124
2026-01-17 23:05:01.90	74.33	44.98	-43.1	-47.6	11.0	1.93e-03	0	61	0	550502400	57	6168
2026-01-17 23:05:02.90	74.82	45.10	-43.0	-47.5	11.0	1.46e-03	0	61	0	551550976	57	6105
2026-01-17 23:05:03.91	75.33	45.23	-43.1	-47.6	11.0	1.79e-03	0	61	0	553648128	57	6184
2026-01-17 23:05:04.92	75.84	45.35	-43.3	-48.1	10.5	3.15e-03	0	61	0	555745280	57	6496
2026-01-17 23:05:05.93	76.35	45.46	-43.5	-48.7	9.9	6.53e-03	0	60	0	557842432	57	6971
2026-01-17 23:05:06.94	76.87	45.58	-43.4	-48.5	10.0	1.02e-02	0	61	0	559939584	57	6830
2026-01-17 23:05:07.95	77.39	45.70	-43.4	-48.4	10.2	7.18e-03	0	60	0	560988160	57	6777
2026-01-17 23:05:08.96	77.91	45.81	-43.3	-48.2	10.3	5.34e-03	0	60	0	563085312	57	6640
2026-01-17 23:05:09.97	78.44	45.92	-43.4	-48.5	10.1	5.93e-03	0	60	0	565182464	57	6848
2026-01-17 23:05:10.98	78.97	46.03	-43.5	-48.7	9.8	8.13e-03	0	60	0	567279616	57	7022
2026-01-17 23:05:11.99	79.50	46.13	-43.4	-48.5	10.0	8.47e-03	0	61	0	569376768	57	6841
2026-01-17 23:05:13.00	80.04	46.23	-43.3	-48.1	10.5	5.14e-03	0	61	0	570425344	57	6514
2026-01-17 23:05:14.01	80.58	46.33	-43.3	-48.1	10.6	3.79e-03	0	60	0	572522496	57	6500
2026-01-17 23:05:15.02	81.13	46.43	-43.4	-48.4	10.2	5.44e-03	0	60	0	574619648	57	6768
2026-01-17 23:05:16.02	81.67	46.53	-43.5	-48.8	9.7	8.44e-03	0	61	0	576716800	57	7107
2026-01-17 23:05:17.03	82.22	46.62	-43.4	-48.5	10.0	8.85e-03	0	60	0	578813952	57	6854
2026-01-17 23:05:18.04	82.78	46.71	-43.3	-48.2	10.3	6.19e-03	0	60	0	580911104	57	6634
2026-01-17 23:05:19.05	83.34	46.80	-43.2	-47.8	10.8	2.94e-03	0	60	0	581959680	57	6347
2026-01-17 23:05:20.06	83.90	46.88	-43.2	-47.8	10.8	2.59e-03	0	61	0	584056832	57	6303
2026-01-17 23:05:21.07	84.46	46.96	-43.1	-47.6	11.0	1.88e-03	0	60	0	586153984	57	6136
2026-01-17 23:05:22.08	85.03	47.04	-43.0	-47.4	11.2	1.42e-03	0	61	0	588251136	57	6037
2026-01-17 23:05:23.09	85.60	47.12	-43.0	-47.3	11.3	1.42e-03	0	61	0	590348288	57	5950
2026-01-17 23:05:24.10	86.17	47.19	-43.0	-47.4	11.2	1.39e-03	0	60	0	591396864	57	6022
2026-01-17 23:05:25.11	86.75	47.26	-43.1	-47.6	11.1	1.72e-03	0	60	0	593494016	57	6168
2026-01-17 23:05:26.12	87.32	47.33	-43.4	-48.3	10.3	3.16e-03	0	61	0	595591168	57	6647
2026-01-17 23:05:27.13	87.90	47.39	-43.8	-49.4	9.2	1.40e-02	0	60	0	597688320	58	7157
2026-01-17 23:05:28.14	88.49	47.45	-43.8	-49.6	8.9	2.85e-02	0	61	0	599785472	58	7293
2026-01-17 23:05:29.15	89.07	47.51	-43.5	-48.5	10.1	1.71e-02	0	60	0	600834048	58	6492
2026-01-17 23:05:30.16	89.66	47.56	-43.1	-47.5	11.1	2.14e-03	0	61	0	602931200	58	5768
2026-01-17 23:05:31.17	90.25	47.62	-43.1	-47.5	11.1	1.70e-03	0	60	0	605028352	58	5765
2026-01-17 23:05:32.18	90.84	47.67	-43.1	-47.6	11.0	1.77e-03	0	61	0	607125504	58	5850
2026-01-17 23:05:33.19	91.43	47.71	-43.4	-48.3	10.3	4.65e-03	0	61	0	609222656	58	6335
2026-01-17 23:05:34.20	92.03	47.75	-43.4	-48.4	10.2	5.50e-03	0	61	0	610271232	58	6350
2026-01-17 23:05:35.21	92.62	47.79	-43.4	-48.3	10.3	4.95e-03	0	60	0	612368384	58	6336
2026-01-17 23:05:36.22	93.22	47.83	-43.3	-48.2	10.5	5.26e-03	0	61	0	614465536	58	6223
2026-01-17 23:05:37.23	93.82	47.86	-43.1	-47.7	11.0	2.81e-03	0	60	0	616562688	58	5897
2026-01-17 23:05:38.24	94.42	47.89	-42.9	-47.1	11.5	1.01e-03	0	60	0	618659840	57	5816
2026-01-17 23:05:39.25	95.02	47.91	-42.8	-46.9	11.8	6.12e-04	0	61	0	619708416	57	5683
2026-01-17 23:05:40.26	95.62	47.94	-42.9	-47.2	11.5	7.97e-04	0	61	0	621805568	57	5859
2026-01-17 23:05:41.27	96.22	47.96	-42.9	-47.2	11.4	8.99e-04	0	61	0	623902720	57	5893
2026-01-17 23:05:42.28	96.82	47.97	-43.0	-47.4	11.3	9.67e-04	0	61	0	625999872	57	6018
2026-01-17 23:05:43.29	97.43	47.98	-43.0	-47.3	11.3	1.24e-03	0	60	0	628097024	57	5967
2026-01-17 23:05:44.30	98.03	47.99	-43.0	-47.4	11.3	1.13e-03	0	61	0	629145600	57	6053
2026-01-17 23:05:45.31	98.64	48.00	-43.1	-47.6	11.0	1.73e-03	0	61	0	631242752	57	6158
2026-01-17 23:05:46.32	99.24	48.00	-43.2	-47.8	10.8	2.41e-03	0	60	0	633339904	57	6318
2026-01-17 23:05:47.33	99.85	48.00	-43.2	-47.8	10.8	2.51e-03	0	61	0	635437056	57	6293
2026-01-17 23:05:48.34	100.45	47.99	-43.2	-47.9	10.7	2.75e-03	0	61	0	637534208	57	6391
2026-01-17 23:05:49.35	101.06	47.99	-43.1	-47.6	11.1	1.98e-03	0	61	0	638582784	57	6150
2026-01-17 23:05:50.36	101.66	47.98	-43.2	-47.8	10.9	1.99e-03	0	61	0	640679936	57	6275
2026-01-17 23:05:51.37	102.26	47.96	-43.1	-47.7	10.9	2.07e-03	0	61	0	642777088	57	6241
2026-01-17 23:05:52.38	102.87	47.94	-43.1	-47.6	11.1	1.74e-03	0	61	0	644874240	57	6149
2026-01-17 23:05:53.39	103.47	47.92	-43.0	-47.4	11.3	1.03e-03	0	61	0	646971392	57	6027
2026-01-17 23:05:54.40	104.07	47.90	-43.1	-47.7	11.0	1.37e-03	0	61	0	649068544	57	6205
2026-01-17 23:05:55.41	104.67	47.87	-43.3	-48.2	10.4	2.65e-03	0	61	0	650117120	57	6598
2026-01-17 23:05:56.42	105.27	47.84	-43.4	-48.3	10.3	5.08e-03	0	61	0	652214272	57	6716
2026-01-17 23:05:57.43	105.87	47.80	-43.4	-48.3	10.3	5.92e-03	0	61	0	654311424	57	6708
2026-01-17 23:05:58.44	106.46	47.76	-43.1	-47.5	11.1	3.03e-03	0	61	0	656408576	57	6122
2026-01-17 23:05:59.45	107.06	47.72	-43.0	-47.4	11.3	1.03e-03	0	61	0	658505728	57	6001
2026-01-17 23:06:00.46	107.65	47.68	-43.1	-47.6	11.1	1.37e-03	0	61	0	659554304	57	6185
2026-01-17 23:06:01.46	108.24	47.63	-43.2	-47.9	10.7	2.58e-03	0	61	0	661651456	57	6363
2026-01-17 23:06:02.47	108.83	47.58	-43.2	-47.8	10.9	3.03e-03	0	61	0	663748608	57	6287
2026-01-17 23:06:03.48	109.42	47.53	-43.1	-47.5	11.1	1.60e-03	0	61	0	665845760	57	6129
2026-01-17 23:06:04.49	110.00	47.47	-43.2	-47.8	10.9	1.61e-03	0	61	0	667942912	57	6292
2026-01-17 23:06:05.50	110.58	47.41	-43.5	-48.5	10.1	2.70e-03	0	61	0	668991488	57	6850
2026-01-17 23:06:06.51	111.17	47.34	-43.9	-49.6	9.0	2.03e-02	0	61	0	671088640	58	7366
2026-01-17 23:06:07.52	111.75	47.28	-43.9	-49.9	8.6	3.62e-02	0	61	0	673185792	58	7605
2026-01-17 23:06:08.54	112.33	47.21	-43.7	-49.3	9.2	3.65e-02	0	61	0	675282944	58	7083
2026-01-17 23:06:09.54	112.90	47.14	-43.5	-48.5	10.1	1.04e-02	0	61	0	677380096	58	6481
2026-01-17 23:06:10.55	113.47	47.06	-43.7	-49.3	9.3	1.08e-02	0	61	0	678428672	58	7085
2026-01-17 23:06:11.56	114.04	46.98	-44.2	-50.7	7.9	3.21e-02	0	61	0	680525824	58	8310
2026-01-17 23:06:12.57	114.60	46.90	-44.3	-51.1	7.5	1.07e-01	0	61	0	682622976	59	8233
2026-01-17 23:06:13.58	115.16	46.82	-44.0	-50.3	8.3	7.42e-02	0	61	0	684720128	59	7465
2026-01-17 23:06:14.59	115.72	46.73	-44.0	-50.0	8.5	4.07e-02	0	61	0	686817280	59	7272
2026-01-17 23:06:15.60	116.28	46.64	-44.2	-50.7	7.8	7.06e-02	0	61	0	687865856	59	7899
2026-01-17 23:06:16.61	116.83	46.55	-44.2	-51.1	7.4	1.03e-01	0	61	0	689963008	59	8239
2026-01-17 23:06:17.62	117.38	46.46	-44.3	-51.4	7.2	1.28e-01	0	61	0	692060160	59	8465
2026-01-17 23:06:18.63	117.93	46.36	-44.1	-50.6	7.9	7.82e-02	0	61	0	694157312	59	7763
2026-01-17 23:06:19.64	118.47	46.26	-43.9	-49.7	8.8	4.03e-02	0	61	0	696254464	59	7000
2026-01-17 23:06:20.65	119.02	46.16	-43.9	-49.7	8.9	2.91e-02	0	61	0	697303040	59	7038
2026-01-17 23:06:21.66	119.55	46.05	-44.1	-50.6	7.9	3.75e-02	0	61	0	699400192	59	7779
2026-01-17 23:06:22.67	120.08	45.94	-44.4	-51.7	6.9	1.41e-01	0	61	0	701497344	59	8803
2026-01-17 23:06:23.68	120.61	45.83	-44.2	-51.0	7.4	1.42e-01	0	61	0	703594496	59	8150
2026-01-17 23:06:24.69	121.14	45.72	-43.7	-49.3	9.2	4.79e-02	0	61	0	705691648	59	6675
2026-01-17 23:06:25.70	121.66	45.61	-43.6	-48.8	9.7	1.04e-02	0	61	0	706740224	59	6316
2026-01-17 23:06:26.71	122.18	45.49	-43.5	-48.7	9.9	9.87e-03	0	60	0	708837376	59	6213
2026-01-17 23:06:27.71	122.69	45.37	-43.5	-48.6	10.0	7.37e-03	0	61	0	710934528	58	6535
2026-01-17 23:06:28.72	123.20	45.25	-43.2	-47.9	10.7	3.50e-03	0	61	0	713031680	58	6039
2026-01-17 23:06:29.73	123.71	45.13	-43.0	-47.4	11.3	1.22e-03	0	61	0	715128832	58	5688
2026-01-17 23:06:30.74	124.21	45.01	-42.8	-47.0	11.7	7.68e-04	0	61	0	717225984	57	5761
2026-01-17 23:06:31.75	124.71	44.88	-42.8	-46.9	11.8	5.07e-04	0	61	0	718274560	57	5712
2026-01-17 23:06:32.76	125.21	44.75	-43.1	-47.5	11.2	1.18e-03	0	61	0	720371712	57	6103
2026-01-17 23:06:33.77	125.70	44.62	-43.1	-47.7	10.9	2.65e-03	0	61	0	722468864	57	6270
2026-01-17 23:06:34.78	126.18	44.49	-43.0	-47.3	11.3	1.23e-03	0	61	0	724566016	57	5989
2026-01-17 23:06:35.79	126.67	44.35	-42.9	-47.1	11.6	9.15e-04	0	61	0	726663168	57	5809
2026-01-17 23:06:36.80	127.15	44.22	-42.7	-46.8	11.9	3.58e-04	0	61	0	727711744	57	5640
2026-01-17 23:06:37.81	127.62	44.08	-42.9	-47.1	11.6	5.39e-04	0	61	0	729808896	57	5813
2026-01-17 23:06:38.82	128.09	43.94	-42.3	-46.0	12.7	1.54e-04	0	61	0	731906048	56	5450
2026-01-17 23:06:39.83	128.56	43.80	-41.7	-44.9	13.7	1.44e-05	0	61	0	734003200	55	5078
2026-01-17 23:06:40.83	129.02	43.66	-41.7	-45.0	13.6	6.10e-06	0	61	0	736100352	55	5127
2026-01-17 23:06:41.84	129.48	43.52	-42.1	-45.6	13.0	2.51e-05	0	61	0	737148928	55	5511
2026-01-17 23:06:42.85	129.93	43.37	-42.3	-46.1	12.5	9.23e-05	0	61	0	739246080	55	5806
2026-01-17 23:06:43.86	130.38	43.22	-42.3	-46.0	12.6	1.17e-04	0	61	0	741343232	55	5749
2026-01-17 23:06:44.87	130.83	43.08	-42.2	-45.8	12.8	6.17e-05	0	61	0	743440384	55	5639
2026-01-17 23:06:45.88	131.27	42.93	-42.3	-46.0	12.5	7.47e-05	0	61	0	745537536	55	5787
2026-01-17 23:06:46.89	131.71	42.78	-42.5	-46.4	12.1	1.61e-04	0	61	0	746586112	55	6042
2026-01-17 23:06:47.90	132.14	42.62	-42.6	-46.7	11.9	3.13e-04	0	61	0	748683264	55	6254
2026-01-17 23:06:48.91	132.58	42.47	-42.5	-46.6	12.0	4.03e-04	0	61	0	750780416	55	6137
2026-01-17 23:06:49.92	133.00	42.32	-42.3	-46.0	12.6	2.13e-04	0	61	0	752877568	55	5764
2026-01-17 23:06:50.93	133.42	42.16	-42.2	-45.9	12.7	6.17e-05	0	61	0	754974720	55	5698
2026-01-17 23:06:51.94	133.84	42.01	-42.5	-46.5	12.1	1.63e-04	0	61	0	756023296	55	6073
2026-01-17 23:06:52.95	134.26	41.85	-43.1	-47.6	11.1	6.81e-04	0	61	0	758120448	56	6518
2026-01-17 23:06:53.96	134.67	41.69	-43.3	-48.1	10.5	2.68e-03	0	61	0	760217600	57	6539
2026-01-17 23:06:54.97	135.07	41.53	-43.0	-47.4	11.2	1.91e-03	0	61	0	762314752	57	6043
2026-01-17 23:06:55.98	135.48	41.37	-43.0	-47.3	11.4	9.59e-04	0	61	0	764411904	57	5942
2026-01-17 23:06:56.99	135.88	41.21	-42.7	-46.7	12.0	4.16e-04	0	61	0	765460480	57	5577
2026-01-17 23:06:58.00	136.27	41.05	-43.1	-47.8	10.9	1.37e-03	0	61	0	767557632	57	6281
2026-01-17 23:06:59.00	136.66	40.89	-43.5	-48.8	9.9	6.73e-03	0	61	0	769654784	57	7051
2026-01-17 23:07:00.01	137.04	40.73	-43.4	-48.5	10.1	8.87e-03	0	61	0	771751936	57	6850
2026-01-17 23:07:01.02	137.43	40.56	-43.1	-47.7	10.9	4.30e-03	0	61	0	773849088	57	6243
2026-01-17 23:07:02.03	137.81	40.40	-43.1	-47.6	11.1	1.70e-03	0	61	0	774897664	57	6150
2026-01-17 23:07:03.04	138.18	40.23	-43.3	-48.0	10.6	2.72e-03	0	61	0	776994816	57	6465
2026-01-17 23:07:04.05	138.55	40.07	-43.6	-48.9	9.7	4.87e-03	0	61	0	779091968	57	7137
2026-01-17 23:07:05.06	138.92	39.90	-43.9	-49.7	8.9	2.26e-02	0	61	0	781189120	58	7381
2026-01-17 23:07:06.07	139.29	39.73	-43.6	-48.8	9.7	1.88e-02	0	61	0	783286272	58	6691
2026-01-17 23:07:07.08	139.65	39.57	-43.0	-47.4	11.2	4.14e-03	0	61	0	785383424	58	5711
2026-01-17 23:07:08.09	140.01	39.40	-42.8	-46.9	11.8	6.35e-04	0	61	0	786432000	57	5677
2026-01-17 23:07:09.10	140.36	39.23	-43.0	-47.5	11.2	7.42e-04	0	61	0	788529152	57	6062
2026-01-17 23:07:10.11	140.71	39.06	-43.6	-49.1	9.6	3.93e-03	0	61	0	790626304	57	7296
2026-01-17 23:07:11.12	141.06	38.90	-44.3	-51.3	7.3	8.59e-02	0	61	0	792723456	59	8428
2026-01-17 23:07:12.12	141.39	38.73	-44.2	-51.0	7.5	1.55e-01	0	61	0	793772032	59	8091
2026-01-17 23:07:13.13	141.73	38.56	-43.5	-48.8	9.7	4.10e-02	0	61	0	795869184	59	6305
2026-01-17 23:07:14.14	142.07	38.39	-43.1	-47.7	10.8	3.05e-03	0	61	0	797966336	58	5920
2026-01-17 23:07:15.15	142.40	38.22	-43.2	-47.9	10.8	2.18e-03	0	61	0	800063488	58	5995
2026-01-17 23:07:16.16	142.73	38.05	-43.6	-49.0	9.6	6.66e-03	0	61	0	802160640	58	6813
2026-01-17 23:07:17.17	143.06	37.88	-44.0	-50.2	8.3	2.29e-02	0	61	0	803209216	58	7841
2026-01-17 23:07:18.18	143.38	37.71	-44.1	-50.6	7.9	7.88e-02	0	61	0	805306368	58	8190
2026-01-17 23:07:19.19	143.70	37.54	-43.7	-49.2	9.2	4.33e-02	0	61	0	807403520	58	7029
2026-01-17 23:07:20.20	144.02	37.37	-43.3	-48.1	10.5	1.07e-02	0	61	0	809500672	58	6165
2026-01-17 23:07:21.21	144.33	37.20	-43.1	-47.6	10.9	2.29e-03	0	61	0	811597824	58	5809
2026-01-17 23:07:22.22	144.64	37.03	-43.0	-47.4	11.2	2.02e-03	0	61	0	813694976	58	5681
2026-01-17 23:07:23.23	144.94	36.86	-43.2	-47.9	10.7	1.38e-03	0	61	0	814743552	58	6054
2026-01-17 23:07:24.24	145.25	36.69	-43.7	-49.1	9.4	1.05e-02	0	61	0	816840704	58	6937
2026-01-17 23:07:25.25	145.55	36.52	-43.9	-50.0	8.5	3.49e-02	0	61	0	818937856	58	7673
2026-01-17 23:07:26.27	145.85	36.34	-43.9	-50.0	8.4	4.54e-02	0	61	0	821035008	58	7709
2026-01-17 23:07:27.27	146.14	36.18	-43.7	-49.3	9.2	2.67e-02	0	61	0	823132160	58	7081
2026-01-17 23:07:28.29	146.43	36.00	-43.3	-48.3	10.2	1.05e-02	0	61	0	824180736	58	6318
2026-01-17 23:07:29.29	146.72	35.84	-43.3	-48.1	10.4	4.72e-03	0	61	0	826277888	58	6201
2026-01-17 23:07:30.30	147.00	35.67	-43.3	-48.1	10.4	4.13e-03	0	61	0	828375040	58	6199
2026-01-17 23:07:31.31	147.28	35.50	-43.5	-48.8	9.7	8.90e-03	0	61	0	830472192	58	6664
2026-01-17 23:07:32.32	147.56	35.33	-43.9	-50.1	8.4	2.63e-02	0	61	0	832569344	58	7767
2026-01-17 23:07:33.33	147.84	35.16	-44.1	-51.0	7.5	9.94e-02	0	61	0	833617920	58	8565
2026-01-17 23:07:34.34	148.11	34.99	-44.2	-51.2	7.2	1.33e-01	0	61	0	835715072	59	8284
2026-01-17 23:07:35.35	148.38	34.82	-43.9	-50.0	8.4	7.85e-02	0	61	0	837812224	59	7232
2026-01-17 23:07:36.36	148.65	34.65	-43.7	-49.2	9.2	3.10e-02	0	61	0	839909376	59	6644
2026-01-17 23:07:37.37	148.92	34.48	-43.4	-48.5	9.9	1.45e-02	0	61	0	842006528	58	6492
2026-01-17 23:07:38.38	149.18	34.31	-43.1	-47.6	10.9	3.76e-03	0	61	0	843055104	58	5816
2026-01-17 23:07:39.39	149.44	34.14	-43.2	-48.1	10.5	2.11e-03	0	61	0	845152256	58	6134
2026-01-17 23:07:40.40	149.70	33.97	-43.6	-49.1	9.3	1.22e-02	0	61	0	847249408	58	6919
2026-01-17 23:07:41.41	149.95	33.81	-44.1	-50.8	7.7	5.66e-02	0	61	0	849346560	58	8380
2026-01-17 23:07:42.42	150.21	33.64	-44.3	-51.7	6.8	1.41e-01	0	61	0	851443712	59	8766
2026-01-17 23:07:43.43	150.46	33.47	-44.3	-51.6	6.8	1.89e-01	0	61	0	853540864	59	8708
2026-01-17 23:07:44.44	150.70	33.31	-44.1	-50.9	7.4	1.37e-01	0	61	0	854589440	59	8044
2026-01-17 23:07:45.45	150.95	33.14	-44.0	-50.4	8.0	8.14e-02	0	61	0	856686592	59	7556
2026-01-17 23:07:46.46	151.19	32.97	-43.9	-50.1	8.2	6.51e-02	0	61	0	858783744	59	7327
2026-01-17 23:07:47.46	151.43	32.81	-43.6	-49.2	9.1	2.75e-02	0	61	0	860880896	59	6629
2026-01-17 23:07:48.48	151.67	32.64	-43.7	-49.5	8.9	2.19e-02	0	61	0	861929472	59	6864
2026-01-17 23:07:49.48	151.90	32.48	-44.0	-50.5	7.8	4.35e-02	0	61	0	864026624	59	7659
2026-01-17 23:07:50.49	152.13	32.31	-44.2	-51.4	7.0	1.33e-01	0	61	0	866123776	59	8556
2026-01-17 23:07:51.51	152.37	32.15	-44.2	-51.3	7.1	1.87e-01	0	61	0	868220928	59	8393
2026-01-17 23:07:52.52	152.59	31.98	-43.9	-50.0	8.3	1.02e-01	0	61	0	870318080	59	7236
2026-01-17 23:07:53.53	152.82	31.82	-43.4	-48.5	9.9	1.51e-02	0	61	0	871366656	58	6433
2026-01-17 23:07:54.54	153.04	31.66	-42.9	-47.3	11.1	2.88e-03	0	61	0	873463808	57	5968
2026-01-17 23:07:55.55	153.27	31.50	-42.7	-46.8	11.6	9.07e-04	0	61	0	875560960	57	5652
2026-01-17 23:07:56.56	153.49	31.33	-42.6	-46.8	11.7	6.45e-04	0	61	0	877658112	57	5600
2026-01-17 23:07:57.57	153.70	31.17	-42.9	-47.2	11.2	8.72e-04	0	61	0	879755264	57	5896
2026-01-17 23:07:58.58	153.92	31.01	-43.2	-48.1	10.3	2.77e-03	0	61	0	881852416	57	6527
2026-01-17 23:07:59.59	154.13	30.85	-43.6	-49.2	9.2	1.53e-02	0	61	0	882900992	57	7433
2026-01-17 23:08:00.60	154.34	30.69	-43.9	-50.2	8.1	4.30e-02	0	61	0	884998144	58	7825
2026-01-17 23:08:01.61	154.55	30.53	-44.0	-50.5	7.8	7.67e-02	0	61	0	887095296	58	8121
2026-01-17 23:08:02.62	154.76	30.37	-43.9	-50.3	8.1	8.38e-02	0	61	0	889192448	58	7918
2026-01-17 23:08:03.62	154.96	30.21	-43.7	-49.7	8.6	4.41e-02	0	61	0	891289600	58	7383
2026-01-17 23:08:04.63	155.16	30.06	-43.6	-49.2	9.1	2.70e-02	0	61	0	892338176	58	7005
2026-01-17 23:08:05.64	155.37	29.90	-43.3	-48.3	10.0	1.59e-02	0	61	0	894435328	58	6318
2026-01-17 23:08:06.65	155.57	29.74	-43.2	-48.1	10.3	5.60e-03	0	61	0	896532480	58	6160
2026-01-17 23:08:07.66	155.76	29.58	-43.3	-48.3	10.0	6.77e-03	0	61	0	898629632	58	6346
2026-01-17 23:08:08.67	155.96	29.43	-43.3	-48.4	10.0	9.02e-03	0	61	0	900726784	58	6353
2026-01-17 23:08:09.68	156.15	29.27	-43.4	-48.7	9.6	1.04e-02	0	61	0	901775360	58	6643
2026-01-17 23:08:10.69	156.34	29.12	-43.5	-49.1	9.2	1.79e-02	0	61	0	903872512	58	6930
2026-01-17 23:08:11.70	156.53	28.96	-43.5	-49.0	9.3	2.02e-02	0	61	0	905969664	58	6858
2026-01-17 23:08:12.71	156.72	28.81	-43.5	-49.1	9.2	2.12e-02	0	61	0	908066816	58	6937
2026-01-17 23:08:13.72	156.91	28.65	-43.5	-49.0	9.3	1.89e-02	0	61	0	910163968	58	6829
2026-01-17 23:08:14.73	157.09	28.50	-43.4	-48.8	9.5	1.61e-02	0	61	0	911212544	58	6676
2026-01-17 23:08:15.74	157.28	28.35	-43.3	-48.4	9.9	9.77e-03	0	61	0	913309696	58	6353
2026-01-17 23:08:16.75	157.46	28.19	-43.1	-48.0	10.3	6.63e-03	0	61	0	915406848	58	6122
2026-01-17 23:08:17.76	157.64	28.04	-43.0	-47.6	10.7	4.04e-03	0	61	0	917504000	58	5820
2026-01-17 23:08:18.77	157.82	27.89	-42.7	-47.1	11.3	1.82e-03	0	61	0	919601152	57	5828
2026-01-17 23:08:19.79	157.99	27.74	-42.7	-47.1	11.3	1.27e-03	0	61	0	921698304	57	5795
2026-01-17 23:08:20.79	158.17	27.59	-42.6	-46.9	11.5	1.05e-03	0	61	0	922746880	57	5660
2026-01-17 23:08:21.80	158.34	27.44	-42.7	-47.1	11.3	9.31e-04	0	61	0	924844032	57	5791
2026-01-17 23:08:22.81	158.51	27.29	-42.8	-47.2	11.1	1.51e-03	0	61	0	926941184	57	5868
2026-01-17 23:08:23.82	158.68	27.14	-42.8	-47.3	11.0	1.70e-03	0	61	0	929038336	57	5954
2026-01-17 23:08:24.83	158.85	27.00	-42.9	-47.5	10.8	2.02e-03	0	61	0	931135488	57	6074
2026-01-17 23:08:25.84	159.02	26.85	-42.9	-47.6	10.7	3.03e-03	0	61	0	932184064	57	6154
2026-01-17 23:08:26.85	159.18	26.70	-42.9	-47.5	10.8	2.73e-03	0	61	0	934281216	57	6106
2026-01-17 23:08:27.86	159.35	26.56	-43.0	-47.7	10.5	3.54e-03	0	61	0	936378368	57	6265
2026-01-17 23:08:28.87	159.51	26.41	-42.8	-47.4	10.8	2.72e-03	0	61	0	938475520	57	6035
2026-01-17 23:08:29.88	159.67	26.27	-42.8	-47.4	10.9	1.87e-03	0	61	0	939524096	57	6018
2026-01-17 23:08:30.89	159.83	26.12	-42.8	-47.2	11.0	2.14e-03	0	61	0	941621248	57	5923
2026-01-17 23:08:31.90	159.99	25.98	-42.7	-47.1	11.1	1.56e-03	0	61	0	943718400	57	5841
2026-01-17 23:08:32.91	160.15	25.83	-42.7	-47.1	11.1	1.53e-03	0	61	0	945815552	57	5839
2026-01-17 23:08:33.91	160.30	25.69	-42.7	-47.0	11.2	1.45e-03	0	61	0	947912704	57	5771
2026-01-17 23:08:34.92	160.46	25.55	-42.7	-47.0	11.2	1.34e-03	0	61	0	950009856	57	5750
2026-01-17 23:08:35.93	160.61	25.41	-42.8	-47.3	11.0	1.84e-03	0	61	0	951058432	57	5955
2026-01-17 23:08:36.94	160.76	25.27	-42.8	-47.4	10.8	2.12e-03	0	61	0	953155584	57	6045
2026-01-17 23:08:37.95	160.91	25.13	-42.9	-47.7	10.5	3.01e-03	0	61	0	955252736	57	6239
2026-01-17 23:08:38.96	161.06	24.99	-43.1	-48.1	10.1	6.26e-03	0	61	0	957349888	57	6520
2026-01-17 23:08:39.97	161.21	24.85	-43.1	-48.3	9.8	8.89e-03	0	61	0	959447040	57	6709
2026-01-17 23:08:40.98	161.35	24.71	-43.1	-48.2	9.9	8.50e-03	0	61	0	960495616	57	6635
2026-01-17 23:08:41.99	161.50	24.57	-43.1	-48.2	10.0	8.07e-03	0	61	0	962592768	57	6588
2026-01-17 23:08:43.00	161.64	24.43	-43.0	-47.8	10.3	6.38e-03	0	61	0	964689920	57	6347
2026-01-17 23:08:44.01	161.79	24.29	-42.8	-47.5	10.6	4.89e-03	0	61	0	966787072	57	6130
2026-01-17 23:08:45.02	161.93	24.16	-42.8	-47.5	10.6	3.56e-03	0	61	0	968884224	57	6114
2026-01-17 23:08:46.03	162.07	24.02	-42.8	-47.4	10.8	2.90e-03	0	61	0	969932800	57	6043
2026-01-17 23:08:47.04	162.21	23.88	-42.7	-47.1	11.0	2.19e-03	0	61	0	972029952	57	5851
2026-01-17 23:08:48.04	162.34	23.75	-42.6	-46.9	11.2	1.77e-03	0	61	0	974127104	57	5709
2026-01-17 23:08:49.05	162.48	23.62	-42.4	-46.5	11.6	7.41e-04	0	61	0	976224256	56	5787
2026-01-17 23:08:50.06	162.62	23.48	-42.4	-46.6	11.6	5.03e-04	0	61	0	978321408	56	5812
2026-01-17 23:08:51.07	162.75	23.35	-42.5	-46.6	11.6	6.38e-04	0	61	0	979369984	56	5851
2026-01-17 23:08:52.08	162.88	23.21	-42.5	-46.6	11.6	7.45e-04	0	61	0	981467136	56	5854
2026-01-17 23:08:53.09	163.02	23.08	-42.5	-46.8	11.3	1.18e-03	0	61	0	983564288	56	5977
2026-01-17 23:08:54.10	163.15	22.95	-42.6	-46.9	11.3	1.27e-03	0	61	0	985661440	56	5997
2026-01-17 23:08:55.11	163.28	22.82	-42.6	-47.0	11.2	1.32e-03	0	61	0	987758592	56	6108
2026-01-17 23:08:56.12	163.41	22.69	-42.7	-47.1	11.1	1.57e-03	0	61	0	988807168	56	6154
2026-01-17 23:08:57.12	163.53	22.56	-42.6	-47.0	11.2	1.37e-03	0	61	0	990904320	56	6073
2026-01-17 23:08:58.14	163.66	22.43	-42.7	-47.3	10.9	2.12e-03	0	61	0	993001472	56	6275
2026-01-17 23:08:59.15	163.79	22.30	-42.7	-47.2	10.9	2.33e-03	0	61	0	995098624	56	6208
2026-01-17 23:09:00.15	163.91	22.17	-42.7	-47.3	10.8	2.11e-03	0	61	0	997195776	56	6328
2026-01-17 23:09:01.16	164.04	22.04	-42.7	-47.2	10.9	2.39e-03	0	61	0	998244352	56	6272
2026-01-17 23:09:02.17	164.16	21.91	-42.7	-47.1	10.9	2.10e-03	0	61	0	1000341504	56	6200
2026-01-17 23:09:03.18	164.28	21.78	-42.6	-47.1	11.0	2.08e-03	0	61	0	1002438656	56	6189
2026-01-17 23:09:04.19	164.40	21.66	-42.6	-47.1	10.9	1.93e-03	0	61	0	1004535808	56	6180
2026-01-17 23:09:05.20	164.52	21.53	-42.6	-47.0	11.1	1.45e-03	0	61	0	1006632960	56	6114
2026-01-17 23:09:06.21	164.64	21.41	-42.5	-46.9	11.2	1.48e-03	0	61	0	1007681536	56	6024
2026-01-17 23:09:07.22	164.76	21.28	-42.5	-46.8	11.4	1.22e-03	0	61	0	1009778688	56	5935
2026-01-17 23:09:08.23	164.88	21.16	-42.5	-46.8	11.3	1.02e-03	0	61	0	1011875840	56	5938
2026-01-17 23:09:09.24	164.99	21.03	-42.5	-46.8	11.3	1.11e-03	0	61	0	1013972992	56	5949
2026-01-17 23:09:10.25	165.11	20.91	-42.5	-46.9	11.2	1.37e-03	0	61	0	1016070144	56	6012
2026-01-17 23:09:11.26	165.22	20.78	-42.6	-47.0	11.1	1.79e-03	0	61	0	1018167296	56	6084
2026-01-17 23:09:12.27	165.34	20.66	-42.6	-47.2	10.9	2.04e-03	0	61	0	1019215872	56	6222
2026-01-17 23:09:13.28	165.45	20.54	-42.7	-47.4	10.7	2.90e-03	0	61	0	1021313024	56	6366
2026-01-17 23:09:14.29	165.56	20.42	-42.8	-47.6	10.4	4.39e-03	0	61	0	1023410176	56	6547
2026-01-17 23:09:15.30	165.67	20.29	-42.9	-47.7	10.2	5.33e-03	0	61	0	1025507328	56	6636
2026-01-17 23:09:16.31	165.79	20.17	-43.0	-47.9	10.1	5.93e-03	0	61	0	1027604480	56	6796
2026-01-17 23:09:17.32	165.89	20.05	-43.0	-48.2	9.8	8.17e-03	0	61	0	1028653056	56	7015
2026-01-17 23:09:18.33	166.00	19.93	-43.0	-48.2	9.8	9.69e-03	0	61	0	1030750208	56	7011
2026-01-17 23:09:19.33	166.11	19.81	-43.0	-48.2	9.7	1.15e-02	0	61	0	1032847360	56	7003
2026-01-17 23:09:20.34	166.22	19.70	-43.1	-48.3	9.7	1.15e-02	0	61	0	1034944512	56	7066
2026-01-17 23:09:21.35	166.32	19.58	-43.1	-48.3	9.7	1.12e-02	0	61	0	1037041664	56	7047
2026-01-17 23:09:22.36	166.43	19.46	-42.9	-48.0	10.0	9.28e-03	0	61	0	1038090240	56	6843
2026-01-17 23:09:23.37	166.53	19.34	-42.9	-47.9	10.1	7.30e-03	0	61	0	1040187392	56	6725
2026-01-17 23:09:24.38	166.64	19.22	-42.8	-47.6	10.4	6.11e-03	0	61	0	1042284544	56	6524
2026-01-17 23:09:25.39	166.74	19.11	-42.7	-47.2	10.7	3.32e-03	0	61	0	1044381696	56	6273
2026-01-17 23:09:26.40	166.84	18.99	-42.6	-47.1	10.9	2.43e-03	0	61	0	1046478848	56	6163
2026-01-17 23:09:27.41	166.95	18.88	-42.4	-46.7	11.3	1.40e-03	0	61	0	1047527424	56	5904
2026-01-17 23:09:28.42	167.05	18.76	-42.4	-46.6	11.4	1.07e-03	0	61	0	1049624576	56	5841
2026-01-17 23:09:29.43	167.15	18.65	-42.3	-46.5	11.5	9.31e-04	0	61	0	1051721728	56	5750
2026-01-17 23:09:30.44	167.25	18.53	-42.3	-46.5	11.5	8.71e-04	0	61	0	1053818880	56	5755
2026-01-17 23:09:31.45	167.34	18.42	-42.4	-46.6	11.4	9.67e-04	0	61	0	1055916032	56	5845
2026-01-17 23:09:32.45	167.44	18.30	-42.3	-46.5	11.5	1.12e-03	0	61	0	1056964608	56	5755
2026-01-17 23:09:33.47	167.54	18.19	-42.3	-46.4	11.6	7.13e-04	0	61	0	1059061760	56	5675
2026-01-17 23:09:34.48	167.64	18.08	-42.3	-46.5	11.5	7.41e-04	0	61	0	1061158912	56	5755
2026-01-17 23:09:35.48	167.73	17.97	-42.3	-46.5	11.5	9.94e-04	0	61	0	1063256064	56	5751
2026-01-17 23:09:36.49	167.83	17.85	-42.4	-46.7	11.2	9.99e-04	0	61	0	1065353216	56	5922
2026-01-17 23:09:37.50	167.92	17.74	-42.3	-46.6	11.4	1.11e-03	0	61	0	1066401792	56	5798
2026-01-17 23:09:38.52	168.02	17.63	-42.4	-46.7	11.3	1.11e-03	0	61	0	1068498944	56	5877
2026-01-17 23:09:39.53	168.11	17.52	-42.4	-46.7	11.3	1.21e-03	0	61	0	1070596096	56	5877
2026-01-17 23:09:40.53	168.20	17.41	-42.4	-46.6	11.3	1.25e-03	0	61	0	1072693248	56	5855
2026-01-17 23:09:41.54	168.29	17.30	-42.4	-46.7	11.2	1.30e-03	0	61	0	1074790400	56	5880
2026-01-17 23:09:42.55	168.39	17.19	-42.4	-46.7	11.2	1.26e-03	0	61	0	1075838976	56	5923
2026-01-17 23:09:43.56	168.48	17.08	-42.4	-46.7	11.2	1.38e-03	0	61	0	1077936128	56	5911
2026-01-17 23:09:44.57	168.57	16.98	-42.4	-46.7	11.2	1.61e-03	0	61	0	1080033280	56	5891
2026-01-17 23:09:45.58	168.66	16.87	-42.4	-46.7	11.2	1.18e-03	0	61	0	1082130432	56	5873
2026-01-17 23:09:46.59	168.74	16.76	-42.4	-46.8	11.1	1.38e-03	0	61	0	1084227584	56	5944
2026-01-17 23:09:47.60	168.83	16.65	-42.4	-46.7	11.2	1.32e-03	0	61	0	1086324736	56	5899
2026-01-17 23:09:48.61	168.92	16.55	-42.3	-46.6	11.3	1.43e-03	0	61	0	1087373312	56	5817
2026-01-17 23:09:49.62	169.01	16.44	-42.3	-46.5	11.4	1.02e-03	0	61	0	1089470464	56	5758
2026-01-17 23:09:50.63	169.09	16.33	-42.3	-46.5	11.4	1.12e-03	0	61	0	1091567616	56	5752
2026-01-17 23:09:51.64	169.18	16.23	-42.1	-46.2	11.7	7.44e-04	0	61	0	1093664768	56	5544
2026-01-17 23:09:52.65	169.27	16.12	-42.2	-46.3	11.6	5.67e-04	0	61	0	1095761920	56	5642
2026-01-17 23:09:53.66	169.35	16.02	-42.1	-46.2	11.7	5.97e-04	0	61	0	1096810496	56	5561
2026-01-17 23:09:54.67	169.43	15.91	-42.2	-46.3	11.6	7.31e-04	0	61	0	1098907648	56	5610
2026-01-17 23:09:55.68	169.52	15.81	-42.2	-46.3	11.6	6.62e-04	0	61	0	1101004800	56	5601
2026-01-17 23:09:56.69	169.60	15.71	-42.1	-46.1	11.8	4.80e-04	0	61	0	1103101952	56	5476
2026-01-17 23:09:57.70	169.68	15.60	-42.1	-46.1	11.8	4.61e-04	0	61	0	1105199104	56	5502
2026-01-17 23:09:58.71	169.77	15.50	-42.0	-46.0	11.8	4.87e-04	0	61	0	1106247680	56	5463
2026-01-17 23:09:59.72	169.85	15.40	-42.1	-46.1	11.7	5.09e-04	0	61	0	1108344832	56	5519
2026-01-17 23:10:00.73	169.93	15.30	-42.1	-46.3	11.5	7.55e-04	0	61	0	1110441984	56	5613
2026-01-17 23:10:01.74	170.01	15.19	-42.2	-46.4	11.5	8.78e-04	0	61	0	1112539136	56	5660
2026-01-17 23:10:02.75	170.09	15.09	-42.3	-46.6	11.2	1.07e-03	0	61	0	1114636288	56	5830
2026-01-17 23:10:03.76	170.17	14.99	-42.4	-46.8	11.0	1.65e-03	0	61	0	1115684864	56	5966
2026-01-17 23:10:04.77	170.25	14.89	-42.4	-46.9	10.8	1.84e-03	0	61	0	1117782016	56	6047
2026-01-17 23:10:05.78	170.33	14.79	-42.5	-47.1	10.7	2.36e-03	0	61	0	1119879168	56	6162
2026-01-17 23:10:06.79	170.40	14.69	-42.5	-47.3	10.4	3.54e-03	0	61	0	1121976320	56	6296
2026-01-17 23:10:07.80	170.48	14.59	-42.5	-47.3	10.4	3.84e-03	0	61	0	1124073472	56	6296
2026-01-17 23:10:08.81	170.56	14.49	-42.5	-47.2	10.5	4.33e-03	0	61	0	1125122048	56	6219
2026-01-17 23:10:09.82	170.63	14.39	-42.5	-47.3	10.4	4.31e-03	0	61	0	1127219200	56	6301
2026-01-17 23:10:10.83	170.71	14.30	-42.5	-47.2	10.5	4.33e-03	0	61	0	1129316352	56	6264
2026-01-17 23:10:11.84	170.78	14.20	-42.5	-47.3	10.4	3.63e-03	0	61	0	1131413504	56	6287
2026-01-17 23:10:12.85	170.86	14.10	-42.5	-47.3	10.4	4.70e-03	0	61	0	1133510656	56	6280
2026-01-17 23:10:13.85	170.93	14.00	-42.6	-47.4	10.3	5.30e-03	0	61	0	1134559232	56	6393
2026-01-17 23:10:14.86	171.01	13.91	-42.6	-47.4	10.3	5.84e-03	0	61	0	1136656384	56	6383
2026-01-17 23:10:15.87	171.08	13.81	-42.5	-47.4	10.2	5.49e-03	0	61	0	1138753536	56	6373
2026-01-17 23:10:16.89	171.15	13.71	-42.5	-47.3	10.4	5.17e-03	0	61	0	1140850688	56	6284
2026-01-17 23:10:17.89	171.23	13.62	-42.5	-47.2	10.5	4.31e-03	0	61	0	1142947840	56	6208
2026-01-17 23:10:18.90	171.30	13.52	-42.5	-47.3	10.4	3.94e-03	0	61	0	1143996416	56	6292
2026-01-17 23:10:19.91	171.37	13.43	-42.4	-47.0	10.6	3.54e-03	0	61	0	1146093568	56	6109
2026-01-17 23:10:20.92	171.44	13.33	-42.4	-47.0	10.7	3.58e-03	0	61	0	1148190720	56	6070
2026-01-17 23:10:21.93	171.51	13.24	-42.3	-46.9	10.8	2.96e-03	0	61	0	1150287872	56	6016
2026-01-17 23:10:22.94	171.58	13.14	-42.3	-46.8	10.8	2.66e-03	0	61	0	1152385024	56	5979
