passes_logs/2026/01/17/R2.0S_Moscow/R2.0S_Moscow__20260117_000727_NOAA_21_JPSS-2_rec.log

#Pass ID: 20260117_000727_NOAA 21 (JPSS-2)
#Satellite: NOAA 21 (JPSS-2)
#Configuration: NOAA-21
#almurnet v.1.7.20251203
#Start time: 2026-01-17 00:07:28

#Version: 2.2.20231116
#Station: R2.0S_Moscow
#Location: 37.707566 lon 55.798166 lat
#TLE: 1 54234U 22150A   26016.21096038  .00000027  00000+0  33607-4 0  9993
#TLE: 2 54234  98.7500 317.0960 0000625 282.3388  77.7718 14.19534911164985

#Time	Az	El	Level	Level2	SNR	BER	BlckErr	Temp	State	Recorded	gain1	gain2
2026-01-17 00:07:28.71	14.23	2.09	-42.6	-54.9	3.8	1.49e+00	0	52	0	0	57	14216
2026-01-17 00:07:29.72	14.21	2.16	-42.6	-54.9	3.8	1.49e+00	0	52	104	0	57	14242
2026-01-17 00:07:30.73	14.20	2.22	-42.6	-54.9	3.8	1.49e+00	0	52	104	0	57	14215
2026-01-17 00:07:31.74	14.18	2.29	-42.6	-54.9	3.8	1.49e+00	0	52	104	0	57	14245
2026-01-17 00:07:32.76	14.16	2.35	-42.6	-54.9	3.8	1.49e+00	0	52	104	0	57	14244
2026-01-17 00:07:33.77	14.15	2.42	-42.6	-54.9	3.8	1.49e+00	0	53	104	0	57	14223
2026-01-17 00:07:34.78	14.13	2.48	-42.6	-54.9	3.8	1.49e+00	0	52	104	0	57	14212
2026-01-17 00:07:35.79	14.11	2.55	-42.6	-54.8	3.8	1.49e+00	0	53	104	0	57	14175
2026-01-17 00:07:36.80	14.10	2.61	-42.6	-54.9	3.8	1.49e+00	0	53	104	0	57	14262
2026-01-17 00:07:37.81	14.08	2.68	-42.6	-54.9	3.8	1.49e+00	0	53	104	0	57	14243
2026-01-17 00:07:38.82	14.06	2.74	-42.6	-54.9	3.8	1.49e+00	0	53	104	0	57	14244
2026-01-17 00:07:39.83	14.05	2.81	-42.6	-54.8	3.8	1.49e+00	0	53	104	0	57	14209
2026-01-17 00:07:40.84	14.03	2.87	-42.6	-54.9	3.8	1.49e+00	0	53	104	0	57	14233
2026-01-17 00:07:41.86	14.01	2.94	-42.6	-54.9	3.8	1.49e+00	0	53	104	0	57	14283
2026-01-17 00:07:42.86	13.99	3.01	-42.6	-54.9	3.8	1.49e+00	0	53	104	0	57	14252
2026-01-17 00:07:43.88	13.98	3.07	-42.6	-54.9	3.8	1.49e+00	0	53	104	0	57	14235
2026-01-17 00:07:44.89	13.96	3.14	-42.6	-54.9	3.8	1.49e+00	0	53	104	0	57	14229
2026-01-17 00:07:45.90	13.94	3.21	-42.6	-54.8	3.8	1.49e+00	0	53	104	0	57	14203
2026-01-17 00:07:46.91	13.92	3.27	-42.6	-54.8	3.8	1.49e+00	0	53	104	0	57	14175
2026-01-17 00:07:47.92	13.91	3.34	-42.6	-54.8	3.8	1.49e+00	0	54	104	0	57	14198
2026-01-17 00:07:48.93	13.89	3.41	-42.6	-54.8	3.8	1.49e+00	0	54	104	0	57	14174
2026-01-17 00:07:49.94	13.87	3.47	-42.6	-54.7	3.8	1.49e+00	0	54	104	0	57	13997
2026-01-17 00:07:50.95	13.85	3.54	-42.6	-54.8	3.8	1.49e+00	0	54	104	0	57	14072
2026-01-17 00:07:51.96	13.83	3.61	-42.5	-54.7	3.8	1.49e+00	0	54	104	0	57	13982
2026-01-17 00:07:52.97	13.81	3.68	-42.5	-54.7	3.8	1.49e+00	0	54	104	0	57	13938
2026-01-17 00:07:53.98	13.80	3.75	-42.5	-54.7	3.8	1.49e+00	0	54	104	0	57	13964
2026-01-17 00:07:54.99	13.78	3.81	-42.6	-54.7	3.8	1.49e+00	0	54	104	0	57	13950
2026-01-17 00:07:56.01	13.76	3.88	-42.5	-54.8	3.8	1.49e+00	0	54	104	0	57	14054
2026-01-17 00:07:57.02	13.74	3.95	-42.5	-54.7	3.8	1.49e+00	0	54	104	0	57	14046
2026-01-17 00:07:58.03	13.72	4.02	-42.5	-54.7	3.8	1.49e+00	0	54	104	0	57	13954
2026-01-17 00:07:59.04	13.70	4.09	-42.5	-54.6	3.8	1.49e+00	0	54	104	0	57	13836
2026-01-17 00:08:00.05	13.68	4.16	-42.5	-54.6	3.8	1.49e+00	0	54	104	0	57	13758
2026-01-17 00:08:01.06	13.66	4.23	-42.5	-54.6	3.8	1.49e+00	0	54	104	0	57	13759
2026-01-17 00:08:02.07	13.64	4.29	-42.5	-54.5	3.8	1.49e+00	0	54	104	0	57	13642
2026-01-17 00:08:03.08	13.62	4.36	-42.5	-54.5	3.8	1.49e+00	0	54	104	0	57	13583
2026-01-17 00:08:04.09	13.60	4.43	-42.5	-54.5	3.8	1.49e+00	0	54	104	0	57	13655
2026-01-17 00:08:05.10	13.58	4.50	-42.5	-54.5	3.8	1.49e+00	0	55	104	0	57	13636
2026-01-17 00:08:06.11	13.56	4.57	-42.5	-54.6	3.8	1.49e+00	0	54	104	0	57	13751
2026-01-17 00:08:07.12	13.54	4.64	-42.5	-54.7	3.8	1.49e+00	0	55	104	0	57	13890
2026-01-17 00:08:08.14	13.52	4.71	-42.5	-54.6	3.8	1.49e+00	0	54	104	0	57	13744
2026-01-17 00:08:09.15	13.50	4.79	-42.5	-54.6	3.8	1.49e+00	0	55	104	0	57	13759
2026-01-17 00:08:10.16	13.48	4.86	-42.5	-54.6	3.8	1.49e+00	0	55	104	0	57	13801
2026-01-17 00:08:11.17	13.46	4.93	-42.5	-54.5	3.8	1.49e+00	0	55	104	0	57	13688
2026-01-17 00:08:12.18	13.44	5.00	-42.5	-54.4	3.8	1.49e+00	0	55	104	0	57	13534
2026-01-17 00:08:13.19	13.42	5.07	-42.5	-54.4	3.8	1.49e+00	0	55	104	0	57	13480
2026-01-17 00:08:14.20	13.40	5.14	-42.5	-54.3	3.8	1.49e+00	0	55	104	0	57	13370
2026-01-17 00:08:15.21	13.38	5.21	-42.5	-54.2	3.8	1.49e+00	0	55	104	0	57	13144
2026-01-17 00:08:16.22	13.36	5.28	-42.5	-53.9	3.8	1.49e+00	0	55	104	0	56	13564
2026-01-17 00:08:17.23	13.34	5.36	-42.4	-53.5	3.8	1.49e+00	0	55	104	0	56	12891
2026-01-17 00:08:18.25	13.32	5.43	-42.4	-53.1	3.8	1.49e+00	0	55	104	0	56	12294
2026-01-17 00:08:19.26	13.29	5.50	-42.3	-52.9	3.8	1.49e+00	0	55	104	0	56	12016
2026-01-17 00:08:20.27	13.27	5.57	-42.3	-52.4	4.0	1.48e+00	0	55	104	0	56	11302
2026-01-17 00:08:21.28	13.25	5.65	-42.3	-52.8	3.9	1.49e+00	0	55	104	0	56	11943
2026-01-17 00:08:22.29	13.23	5.72	-42.3	-52.8	3.9	1.49e+00	0	55	104	0	56	11944
2026-01-17 00:08:23.30	13.21	5.79	-42.3	-52.9	3.8	1.49e+00	0	55	104	0	56	12089
2026-01-17 00:08:24.31	13.19	5.87	-42.4	-53.1	3.8	1.49e+00	0	56	104	0	56	12333
2026-01-17 00:08:25.32	13.16	5.94	-42.4	-53.2	3.8	1.49e+00	0	56	104	0	56	12401
2026-01-17 00:08:26.33	13.14	6.01	-42.4	-53.6	3.8	1.49e+00	0	56	104	0	56	13030
2026-01-17 00:08:27.34	13.12	6.09	-42.4	-53.9	3.8	1.49e+00	0	56	104	0	56	13482
2026-01-17 00:08:28.36	13.10	6.16	-42.5	-54.2	3.8	1.49e+00	0	56	104	0	56	13888
2026-01-17 00:08:29.37	13.07	6.24	-42.5	-54.5	3.8	1.49e+00	0	56	104	0	56	14493
2026-01-17 00:08:30.38	13.05	6.31	-42.5	-54.7	3.8	1.49e+00	0	56	104	0	56	14730
2026-01-17 00:08:31.39	13.03	6.38	-42.5	-54.7	3.8	1.49e+00	0	56	104	0	56	14826
2026-01-17 00:08:32.40	13.00	6.46	-42.5	-54.6	3.8	1.49e+00	0	56	104	0	56	14603
2026-01-17 00:08:33.41	12.98	6.54	-42.4	-54.0	3.8	1.49e+00	0	56	104	0	56	13707
2026-01-17 00:08:34.42	12.96	6.61	-42.4	-53.2	3.8	1.49e+00	0	56	104	0	56	12508
2026-01-17 00:08:35.43	12.93	6.69	-42.3	-52.4	3.9	1.48e+00	0	56	104	0	56	11376
2026-01-17 00:08:36.44	12.91	6.76	-42.1	-51.1	4.2	1.46e+00	0	56	104	0	56	9817
2026-01-17 00:08:37.45	12.89	6.84	-42.0	-50.7	4.0	1.28e+00	0	56	104	0	56	9379
2026-01-17 00:08:38.47	12.86	6.92	-41.6	-48.9	5.1	7.28e-01	0	56	0	1048576	55	8015
2026-01-17 00:08:39.48	12.84	6.99	-41.4	-48.0	5.6	4.80e-01	0	56	0	3145728	54	7714
2026-01-17 00:08:40.49	12.81	7.07	-41.3	-47.5	6.1	3.42e-01	0	56	0	6291456	54	7232
2026-01-17 00:08:41.50	12.79	7.15	-41.1	-46.7	6.7	2.18e-01	0	56	0	9437184	54	6601
2026-01-17 00:08:42.51	12.76	7.22	-40.8	-46.1	7.3	1.35e-01	0	56	0	13631488	53	6506
2026-01-17 00:08:43.52	12.74	7.30	-40.7	-45.7	7.6	9.85e-02	0	56	0	16777216	53	6258
2026-01-17 00:08:44.53	12.71	7.38	-40.4	-45.1	8.3	6.13e-02	0	56	0	19922944	52	6140
2026-01-17 00:08:45.54	12.69	7.46	-40.4	-45.0	8.4	4.59e-02	0	56	0	23068672	52	6095
2026-01-17 00:08:46.55	12.66	7.53	-40.3	-44.6	8.7	4.03e-02	0	56	0	26214400	52	5841
2026-01-17 00:08:47.56	12.64	7.61	-40.2	-44.5	8.8	3.36e-02	0	56	0	29360128	52	5771
2026-01-17 00:08:48.57	12.61	7.69	-40.2	-44.4	8.9	3.20e-02	0	56	0	32505856	52	5722
2026-01-17 00:08:49.58	12.59	7.77	-40.2	-44.6	8.8	3.30e-02	0	56	0	35651584	52	5800
2026-01-17 00:08:50.59	12.56	7.85	-40.2	-44.5	8.9	2.56e-02	0	56	0	38797312	52	5734
2026-01-17 00:08:51.60	12.53	7.93	-40.4	-45.0	8.4	4.56e-02	0	57	0	41943040	52	6065
2026-01-17 00:08:52.61	12.51	8.01	-40.6	-45.4	7.9	7.13e-02	0	57	0	45088768	52	6410
2026-01-17 00:08:53.62	12.48	8.09	-40.8	-45.3	8.4	5.50e-02	0	57	0	48234496	52	6345
2026-01-17 00:08:54.63	12.46	8.17	-40.9	-45.8	7.8	1.07e-01	0	57	0	51380224	53	6286
2026-01-17 00:08:55.64	12.43	8.25	-41.5	-47.9	6.1	3.09e-02	0	57	0	54525952	53	8054
2026-01-17 00:08:56.65	12.40	8.33	-41.5	-47.4	6.4	1.04e+00	0	57	104	54525952	55	6777
2026-01-17 00:08:57.66	12.37	8.41	-40.2	-44.4	9.0	8.05e-02	0	57	0	56623104	52	5715
2026-01-17 00:08:58.67	12.35	8.49	-40.4	-45.0	8.2	2.92e-01	0	57	0	59768832	52	6093
2026-01-17 00:08:59.68	12.32	8.57	-40.1	-44.4	9.0	2.36e-02	0	57	0	62914560	52	5671
2026-01-17 00:09:00.69	12.29	8.65	-40.1	-44.2	9.1	2.08e-02	0	57	0	66060288	52	5546
2026-01-17 00:09:01.70	12.26	8.73	-40.1	-44.1	9.2	1.95e-02	0	57	0	69206016	52	5528
2026-01-17 00:09:02.71	12.24	8.82	-40.0	-44.0	9.3	1.78e-02	0	57	0	72351744	52	5453
2026-01-17 00:09:03.72	12.21	8.90	-40.0	-44.0	9.4	1.62e-02	0	57	0	75497472	51	5757
2026-01-17 00:09:04.73	12.18	8.98	-40.0	-43.9	9.5	1.54e-02	0	57	0	78643200	51	5691
2026-01-17 00:09:05.74	12.15	9.06	-39.8	-43.6	9.8	1.13e-02	0	57	0	81788928	51	5522
2026-01-17 00:09:06.75	12.12	9.15	-39.9	-43.7	9.8	1.03e-02	0	57	0	84934656	51	5553
2026-01-17 00:09:07.76	12.09	9.23	-39.8	-43.6	9.9	9.36e-03	0	57	0	88080384	51	5494
2026-01-17 00:09:08.77	12.06	9.31	-39.8	-43.5	9.9	8.57e-03	0	57	0	92274688	51	5436
2026-01-17 00:09:09.77	12.04	9.40	-39.9	-43.7	9.7	1.08e-02	0	57	0	95420416	51	5581
2026-01-17 00:09:10.79	12.01	9.48	-39.9	-43.7	9.7	1.14e-02	0	57	0	97517568	51	5589
2026-01-17 00:09:11.79	11.98	9.57	-39.8	-43.5	9.9	1.01e-02	0	57	0	100663296	51	5452
2026-01-17 00:09:12.81	11.95	9.65	-39.8	-43.4	10.0	8.67e-03	0	57	0	103809024	51	5397
2026-01-17 00:09:13.81	11.92	9.73	-39.8	-43.4	10.0	7.57e-03	0	57	0	108003328	51	5392
2026-01-17 00:09:14.82	11.89	9.82	-39.7	-43.3	10.1	7.05e-03	0	57	0	111149056	51	5333
2026-01-17 00:09:15.84	11.85	9.91	-39.7	-43.4	10.0	7.38e-03	0	57	0	114294784	51	5381
2026-01-17 00:09:16.85	11.82	9.99	-39.7	-43.4	10.1	7.02e-03	0	57	0	117440512	51	5361
2026-01-17 00:09:17.85	11.79	10.08	-39.7	-43.4	10.1	7.54e-03	0	57	0	120586240	51	5349
2026-01-17 00:09:18.86	11.76	10.16	-39.7	-43.4	10.1	6.52e-03	0	57	0	123731968	51	5349
2026-01-17 00:09:19.88	11.73	10.25	-39.7	-43.3	10.3	6.13e-03	0	57	0	126877696	51	5303
2026-01-17 00:09:20.89	11.70	10.34	-39.7	-43.2	10.4	4.66e-03	0	58	0	130023424	51	5220
2026-01-17 00:09:21.90	11.67	10.43	-39.7	-43.2	10.4	4.64e-03	0	58	0	133169152	51	5242
2026-01-17 00:09:22.91	11.64	10.51	-39.6	-43.1	10.5	4.18e-03	0	58	0	136314880	51	5196
2026-01-17 00:09:23.92	11.60	10.60	-39.7	-43.2	10.4	4.63e-03	0	57	0	139460608	51	5277
2026-01-17 00:09:24.93	11.57	10.69	-39.8	-43.3	10.3	4.85e-03	0	58	0	142606336	51	5324
2026-01-17 00:09:25.93	11.54	10.78	-39.9	-43.6	10.1	6.97e-03	0	58	0	145752064	51	5514
2026-01-17 00:09:26.95	11.51	10.87	-40.0	-43.8	9.9	7.56e-03	0	58	0	148897792	51	5628
2026-01-17 00:09:27.96	11.47	10.96	-40.0	-43.8	10.0	7.56e-03	0	58	0	152043520	51	5599
2026-01-17 00:09:28.97	11.44	11.05	-40.1	-43.8	9.9	8.96e-03	0	58	0	155189248	51	5650
2026-01-17 00:09:29.98	11.41	11.14	-40.1	-43.9	9.9	8.89e-03	0	58	0	158334976	51	5678
2026-01-17 00:09:30.99	11.37	11.23	-40.2	-43.9	10.0	9.42e-03	0	58	0	161480704	51	5695
2026-01-17 00:09:32.00	11.34	11.32	-40.0	-43.6	10.2	6.70e-03	0	58	0	164626432	51	5513
2026-01-17 00:09:33.01	11.30	11.41	-39.9	-43.4	10.5	4.58e-03	0	58	0	167772160	51	5362
2026-01-17 00:09:34.02	11.27	11.50	-39.9	-43.3	10.7	3.34e-03	0	58	0	170917888	51	5298
2026-01-17 00:09:35.03	11.24	11.59	-39.9	-43.4	10.6	3.29e-03	0	58	0	174063616	51	5352
2026-01-17 00:09:36.04	11.20	11.68	-39.9	-43.3	10.7	3.55e-03	0	58	0	177209344	51	5335
2026-01-17 00:09:37.05	11.16	11.77	-39.9	-43.3	10.7	3.08e-03	0	58	0	180355072	51	5309
2026-01-17 00:09:38.06	11.13	11.87	-39.9	-43.2	10.9	2.38e-03	0	58	0	183500800	51	5269
2026-01-17 00:09:39.07	11.09	11.96	-39.9	-43.2	11.0	2.18e-03	0	58	0	186646528	51	5243
2026-01-17 00:09:40.08	11.06	12.05	-39.9	-43.1	11.1	1.84e-03	0	58	0	189792256	51	5208
2026-01-17 00:09:41.09	11.02	12.15	-39.9	-43.1	11.1	1.76e-03	0	58	0	192937984	51	5170
2026-01-17 00:09:42.10	10.99	12.24	-40.0	-43.2	11.1	1.69e-03	0	58	0	196083712	51	5229
2026-01-17 00:09:43.11	10.95	12.33	-39.9	-43.0	11.2	1.23e-03	0	58	0	199229440	51	5158
2026-01-17 00:09:44.12	10.91	12.43	-40.0	-43.2	11.1	1.33e-03	0	58	0	202375168	51	5256
2026-01-17 00:09:45.13	10.87	12.52	-40.0	-43.1	11.3	1.18e-03	0	58	0	205520896	51	5164
2026-01-17 00:09:46.14	10.84	12.62	-40.1	-43.4	11.1	1.76e-03	0	58	0	208666624	51	5341
2026-01-17 00:09:47.15	10.80	12.71	-40.2	-43.4	11.1	1.43e-03	0	58	0	211812352	51	5372
2026-01-17 00:09:48.16	10.76	12.81	-40.2	-43.3	11.2	1.44e-03	0	58	0	214958080	51	5312
2026-01-17 00:09:49.17	10.72	12.91	-40.1	-43.2	11.4	1.14e-03	0	58	0	218103808	51	5229
2026-01-17 00:09:50.18	10.68	13.00	-40.0	-43.0	11.7	6.74e-04	0	58	0	221249536	51	5113
2026-01-17 00:09:51.19	10.65	13.10	-40.0	-42.9	11.9	3.95e-04	0	58	0	224395264	51	5046
2026-01-17 00:09:52.20	10.61	13.20	-39.9	-42.7	12.1	2.72e-04	0	58	0	227540992	51	4970
2026-01-17 00:09:53.21	10.57	13.29	-40.0	-42.9	12.0	3.32e-04	0	58	0	230686720	51	5051
2026-01-17 00:09:54.22	10.53	13.39	-40.2	-43.2	11.7	4.71e-04	0	58	0	233832448	51	5232
2026-01-17 00:09:55.23	10.49	13.49	-40.2	-43.1	11.8	4.83e-04	0	58	0	236978176	51	5181
2026-01-17 00:09:56.23	10.45	13.59	-40.1	-42.9	12.1	3.81e-04	0	58	0	240123904	51	5079
2026-01-17 00:09:57.24	10.41	13.69	-40.0	-42.8	12.2	2.30e-04	0	58	0	243269632	51	4998
2026-01-17 00:09:58.25	10.37	13.79	-40.1	-42.8	12.2	2.21e-04	0	58	0	246415360	51	5041
2026-01-17 00:09:59.26	10.32	13.89	-40.1	-42.9	12.1	2.68e-04	0	58	0	249561088	51	5074
2026-01-17 00:10:00.27	10.28	13.99	-40.2	-43.0	12.1	2.94e-04	0	58	0	252706816	51	5122
2026-01-17 00:10:01.28	10.24	14.09	-40.0	-42.7	12.4	1.71e-04	0	58	0	255852544	51	4945
2026-01-17 00:10:02.29	10.20	14.19	-40.0	-42.7	12.4	2.27e-04	0	58	0	258998272	51	4978
2026-01-17 00:10:03.30	10.16	14.29	-40.0	-42.7	12.4	1.34e-04	0	59	0	262144000	51	4972
2026-01-17 00:10:04.31	10.11	14.40	-40.1	-42.8	12.4	1.50e-04	0	58	0	265289728	51	5003
2026-01-17 00:10:05.32	10.07	14.50	-40.1	-42.8	12.4	1.46e-04	0	58	0	268435456	51	4989
2026-01-17 00:10:06.33	10.03	14.60	-40.0	-42.7	12.5	1.56e-04	0	58	0	271581184	51	4958
2026-01-17 00:10:07.34	9.98	14.70	-40.0	-42.6	12.6	1.04e-04	0	59	0	274726912	51	4919
2026-01-17 00:10:08.35	9.94	14.81	-40.1	-42.8	12.5	1.11e-04	0	58	0	277872640	51	4987
2026-01-17 00:10:09.36	9.90	14.91	-40.1	-42.8	12.4	1.46e-04	0	58	0	281018368	51	5028
2026-01-17 00:10:10.37	9.85	15.02	-40.0	-42.7	12.6	9.46e-05	0	59	0	284164096	51	4932
2026-01-17 00:10:11.38	9.81	15.12	-40.0	-42.6	12.7	8.23e-05	0	58	0	287309824	51	4896
2026-01-17 00:10:12.39	9.76	15.23	-40.1	-42.7	12.6	9.61e-05	0	58	0	290455552	51	4957
2026-01-17 00:10:13.40	9.71	15.33	-40.0	-42.6	12.8	7.32e-05	0	58	0	293601280	51	4885
2026-01-17 00:10:14.40	9.67	15.44	-40.1	-42.7	12.7	6.48e-05	0	59	0	296747008	51	4949
2026-01-17 00:10:15.41	9.62	15.55	-40.1	-42.7	12.7	7.85e-05	0	59	0	299892736	51	4958
2026-01-17 00:10:16.42	9.58	15.65	-40.0	-42.6	12.9	5.79e-05	0	59	0	303038464	51	4894
2026-01-17 00:10:17.43	9.53	15.76	-40.1	-42.7	12.8	5.03e-05	0	58	0	306184192	51	4942
2026-01-17 00:10:18.44	9.48	15.87	-40.0	-42.5	13.0	5.18e-05	0	59	0	309329920	51	4863
2026-01-17 00:10:19.45	9.43	15.98	-40.1	-42.6	12.9	4.19e-05	0	59	0	312475648	51	4923
2026-01-17 00:10:20.46	9.38	16.09	-40.1	-42.7	12.8	6.10e-05	0	59	0	315621376	51	4966
2026-01-17 00:10:21.47	9.34	16.20	-40.1	-42.7	12.9	6.25e-05	0	59	0	318767104	51	4946
2026-01-17 00:10:22.48	9.29	16.31	-40.1	-42.7	12.9	4.42e-05	0	59	0	321912832	51	4941
2026-01-17 00:10:23.49	9.24	16.42	-40.1	-42.6	12.9	4.04e-05	0	59	0	325058560	51	4921
2026-01-17 00:10:24.50	9.19	16.53	-40.1	-42.7	12.9	4.19e-05	0	59	0	328204288	51	4955
2026-01-17 00:10:25.51	9.14	16.64	-40.2	-42.8	12.8	5.49e-05	0	59	0	331350016	51	5005
2026-01-17 00:10:26.52	9.09	16.75	-40.2	-42.7	12.9	4.73e-05	0	59	0	334495744	51	4954
2026-01-17 00:10:27.53	9.04	16.86	-40.1	-42.7	12.9	5.03e-05	0	59	0	337641472	51	4953
2026-01-17 00:10:28.54	8.98	16.98	-40.2	-42.7	12.9	5.56e-05	0	59	0	340787200	51	4967
2026-01-17 00:10:29.55	8.93	17.09	-40.3	-42.8	12.8	5.49e-05	0	59	0	343932928	51	5031
2026-01-17 00:10:30.56	8.88	17.20	-40.1	-42.6	13.0	3.73e-05	0	59	0	347078656	51	4926
2026-01-17 00:10:31.57	8.83	17.32	-40.2	-42.8	12.9	5.34e-05	0	59	0	350224384	51	4995
2026-01-17 00:10:32.58	8.77	17.43	-40.2	-42.7	13.0	5.34e-05	0	59	0	353370112	51	4977
2026-01-17 00:10:33.59	8.72	17.55	-40.2	-42.8	12.9	4.34e-05	0	59	0	356515840	51	4994
2026-01-17 00:10:34.60	8.67	17.67	-40.2	-42.7	13.0	4.27e-05	0	59	0	359661568	51	4942
2026-01-17 00:10:35.61	8.61	17.78	-40.3	-42.8	12.9	5.11e-05	0	59	0	362807296	51	5026
2026-01-17 00:10:36.62	8.56	17.90	-40.3	-42.9	12.8	5.87e-05	0	59	0	365953024	51	5054
2026-01-17 00:10:37.63	8.50	18.02	-40.2	-42.8	12.9	4.65e-05	0	59	0	369098752	51	4997
2026-01-17 00:10:38.64	8.44	18.14	-40.3	-42.8	12.9	4.42e-05	0	59	0	372244480	51	5016
2026-01-17 00:10:39.65	8.39	18.25	-40.2	-42.8	13.0	4.19e-05	0	59	0	375390208	51	5000
2026-01-17 00:10:40.65	8.33	18.37	-40.3	-42.9	12.9	4.57e-05	0	59	0	378535936	51	5045
2026-01-17 00:10:41.66	8.27	18.49	-40.3	-42.8	12.9	4.11e-05	0	59	0	381681664	51	5031
2026-01-17 00:10:42.68	8.22	18.61	-40.3	-42.8	13.0	4.42e-05	0	59	0	384827392	51	5018
2026-01-17 00:10:43.68	8.16	18.73	-40.3	-42.9	12.9	3.66e-05	0	59	0	387973120	51	5067
2026-01-17 00:10:44.69	8.10	18.85	-40.3	-42.9	12.9	4.34e-05	0	59	0	391118848	51	5049
2026-01-17 00:10:45.70	8.04	18.98	-40.3	-42.9	12.9	5.11e-05	0	59	0	394264576	51	5070
2026-01-17 00:10:46.72	7.98	19.10	-40.3	-42.8	13.0	4.34e-05	0	59	0	397410304	51	5000
2026-01-17 00:10:47.72	7.92	19.22	-40.3	-42.8	13.0	3.35e-05	0	59	0	400556032	51	4989
2026-01-17 00:10:48.72	7.86	19.35	-40.3	-42.8	13.0	3.05e-05	0	59	0	403701760	51	5012
2026-01-17 00:10:49.73	7.80	19.47	-40.2	-42.7	13.1	2.51e-05	0	59	0	406847488	51	4975
2026-01-17 00:10:50.74	7.74	19.59	-40.2	-42.6	13.2	3.28e-05	0	59	0	409993216	51	4914
2026-01-17 00:10:51.76	7.67	19.72	-40.2	-42.6	13.2	2.51e-05	0	59	0	414187520	51	4926
2026-01-17 00:10:52.77	7.61	19.85	-40.2	-42.6	13.2	2.21e-05	0	59	0	416284672	51	4921
2026-01-17 00:10:53.78	7.55	19.97	-40.1	-42.6	13.3	2.51e-05	0	59	0	419430400	51	4872
2026-01-17 00:10:54.79	7.48	20.10	-40.1	-42.5	13.3	1.67e-05	0	59	0	422576128	51	4831
2026-01-17 00:10:55.80	7.42	20.23	-40.0	-42.3	13.5	1.29e-05	0	59	0	425721856	51	4755
2026-01-17 00:10:56.81	7.35	20.36	-40.0	-42.3	13.6	7.60e-06	0	59	0	429916160	51	4735
2026-01-17 00:10:57.82	7.29	20.49	-39.9	-42.2	13.6	1.60e-05	0	59	0	433061888	51	4694
2026-01-17 00:10:58.83	7.22	20.62	-39.9	-42.2	13.6	3.80e-06	0	59	0	436207616	51	4688
2026-01-17 00:10:59.84	7.15	20.75	-39.9	-42.1	13.7	3.80e-06	0	59	0	438304768	51	4642
2026-01-17 00:11:00.85	7.09	20.88	-39.8	-42.0	13.9	5.30e-06	0	59	0	441450496	51	4559
2026-01-17 00:11:01.86	7.02	21.01	-39.7	-41.9	14.0	1.50e-06	0	59	0	445644800	51	4515
2026-01-17 00:11:02.87	6.95	21.14	-39.6	-41.8	14.0	3.80e-06	0	59	0	448790528	51	4472
2026-01-17 00:11:03.88	6.88	21.28	-39.5	-41.7	14.2	4.50e-06	0	59	0	451936256	51	4413
2026-01-17 00:11:04.89	6.81	21.41	-39.4	-41.5	14.3	0.00e+00	0	59	0	455081984	50	4587
2026-01-17 00:11:05.90	6.74	21.54	-39.4	-41.5	14.4	0.00e+00	0	59	0	458227712	50	4586
2026-01-17 00:11:06.91	6.67	21.68	-39.4	-41.5	14.3	0.00e+00	0	59	0	461373440	50	4593
2026-01-17 00:11:07.92	6.60	21.82	-39.3	-41.4	14.5	0.00e+00	0	59	0	464519168	50	4519
2026-01-17 00:11:08.93	6.52	21.95	-39.3	-41.4	14.5	0.00e+00	0	60	0	467664896	50	4505
2026-01-17 00:11:09.94	6.45	22.09	-39.3	-41.4	14.5	7.00e-07	0	59	0	470810624	50	4509
2026-01-17 00:11:10.95	6.38	22.23	-39.2	-41.3	14.6	0.00e+00	0	59	0	473956352	50	4447
2026-01-17 00:11:11.96	6.30	22.36	-39.3	-41.3	14.6	0.00e+00	0	60	0	477102080	50	4461
2026-01-17 00:11:12.97	6.22	22.50	-39.3	-41.3	14.6	0.00e+00	0	59	0	480247808	50	4466
2026-01-17 00:11:13.98	6.15	22.64	-39.2	-41.2	14.7	0.00e+00	0	59	0	483393536	50	4429
2026-01-17 00:11:15.00	6.07	22.79	-39.2	-41.2	14.7	0.00e+00	0	59	0	486539264	50	4431
2026-01-17 00:11:16.01	5.99	22.93	-39.2	-41.2	14.6	0.00e+00	0	59	0	489684992	50	4440
2026-01-17 00:11:17.02	5.92	23.07	-39.2	-41.2	14.7	0.00e+00	0	59	0	492830720	50	4406
2026-01-17 00:11:18.02	5.84	23.21	-39.2	-41.2	14.8	7.00e-07	0	59	0	495976448	50	4398
2026-01-17 00:11:19.03	5.76	23.35	-39.2	-41.2	14.7	7.00e-07	0	59	0	499122176	50	4415
2026-01-17 00:11:20.04	5.68	23.50	-39.2	-41.2	14.7	0.00e+00	0	59	0	502267904	50	4407
2026-01-17 00:11:21.05	5.59	23.64	-39.2	-41.2	14.7	0.00e+00	0	59	0	505413632	50	4411
2026-01-17 00:11:22.06	5.51	23.79	-39.1	-41.1	14.8	7.00e-07	0	59	0	508559360	50	4385
2026-01-17 00:11:23.07	5.43	23.94	-39.2	-41.2	14.7	0.00e+00	0	59	0	511705088	50	4401
2026-01-17 00:11:24.08	5.35	24.08	-39.2	-41.2	14.7	0.00e+00	0	59	0	514850816	50	4430
2026-01-17 00:11:25.09	5.26	24.23	-39.2	-41.2	14.7	0.00e+00	0	60	0	517996544	50	4413
2026-01-17 00:11:26.10	5.18	24.38	-39.3	-41.3	14.6	0.00e+00	0	59	0	521142272	50	4483
2026-01-17 00:11:27.11	5.09	24.53	-39.3	-41.4	14.5	0.00e+00	0	60	0	524288000	50	4500
2026-01-17 00:11:28.12	5.00	24.68	-39.4	-41.4	14.5	0.00e+00	0	60	0	527433728	50	4519
2026-01-17 00:11:29.13	4.91	24.83	-39.5	-41.5	14.4	7.00e-07	0	59	0	530579456	50	4585
2026-01-17 00:11:30.14	4.82	24.98	-39.5	-41.6	14.4	7.00e-07	0	59	0	533725184	50	4609
2026-01-17 00:11:31.15	4.73	25.14	-39.6	-41.7	14.2	2.20e-06	0	59	0	536870912	50	4689
2026-01-17 00:11:32.16	4.64	25.29	-39.6	-41.7	14.3	1.50e-06	0	60	0	540016640	50	4702
2026-01-17 00:11:33.17	4.55	25.44	-39.7	-41.9	14.1	0.00e+00	0	60	0	543162368	50	4784
2026-01-17 00:11:34.19	4.46	25.60	-39.8	-42.0	14.0	4.50e-06	0	60	0	546308096	50	4847
2026-01-17 00:11:35.20	4.36	25.76	-39.8	-42.0	14.0	1.50e-06	0	60	0	549453824	50	4848
2026-01-17 00:11:36.21	4.27	25.91	-39.9	-42.1	13.9	6.10e-06	0	60	0	552599552	50	4906
2026-01-17 00:11:37.22	4.17	26.07	-40.0	-42.2	13.8	1.50e-06	0	60	0	555745280	50	4978
2026-01-17 00:11:38.23	4.08	26.23	-40.1	-42.4	13.6	3.80e-06	0	59	0	558891008	50	5050
2026-01-17 00:11:39.24	3.98	26.39	-40.2	-42.5	13.5	1.29e-05	0	60	0	562036736	50	5135
2026-01-17 00:11:40.25	3.88	26.55	-40.2	-42.5	13.5	1.22e-05	0	60	0	565182464	50	5159
2026-01-17 00:11:41.25	3.78	26.71	-40.2	-42.6	13.4	1.29e-05	0	60	0	568328192	51	4916
2026-01-17 00:11:42.26	3.68	26.87	-40.3	-42.7	13.3	1.14e-05	0	60	0	571473920	51	4930
2026-01-17 00:11:43.28	3.58	27.03	-40.3	-42.7	13.3	1.52e-05	0	60	0	574619648	51	4952
2026-01-17 00:11:44.29	3.48	27.20	-40.3	-42.7	13.3	1.44e-05	0	59	0	577765376	51	4962
2026-01-17 00:11:45.30	3.37	27.36	-40.4	-42.8	13.2	1.67e-05	0	60	0	580911104	51	5006
2026-01-17 00:11:46.31	3.27	27.53	-40.3	-42.8	13.2	2.44e-05	0	60	0	584056832	51	5003
2026-01-17 00:11:47.32	3.16	27.69	-40.5	-43.0	13.0	2.59e-05	0	59	0	587202560	51	5118
2026-01-17 00:11:48.32	3.06	27.86	-40.5	-43.0	13.0	3.73e-05	0	60	0	590348288	51	5124
2026-01-17 00:11:49.33	2.95	28.03	-40.5	-43.0	13.0	4.34e-05	0	60	0	593494016	51	5144
2026-01-17 00:11:50.35	2.84	28.20	-40.6	-43.1	12.9	4.80e-05	0	60	0	596639744	51	5166
2026-01-17 00:11:51.36	2.73	28.37	-40.6	-43.1	12.9	4.65e-05	0	60	0	599785472	51	5179
2026-01-17 00:11:52.37	2.61	28.54	-40.6	-43.1	12.9	4.34e-05	0	60	0	602931200	51	5182
2026-01-17 00:11:53.38	2.50	28.71	-40.6	-43.1	12.9	5.34e-05	0	60	0	606076928	51	5177
2026-01-17 00:11:54.39	2.38	28.89	-40.5	-43.0	12.9	3.89e-05	0	60	0	609222656	51	5148
2026-01-17 00:11:55.40	2.27	29.06	-40.5	-43.0	13.0	4.50e-05	0	60	0	612368384	51	5133
2026-01-17 00:11:56.40	2.15	29.23	-40.4	-42.9	13.2	3.50e-05	0	60	0	615514112	51	5043
2026-01-17 00:11:57.41	2.03	29.41	-40.4	-42.8	13.2	2.74e-05	0	60	0	618659840	51	5024
2026-01-17 00:11:58.42	1.91	29.58	-40.3	-42.6	13.4	1.52e-05	0	60	0	621805568	51	4903
2026-01-17 00:11:59.43	1.79	29.76	-40.2	-42.5	13.5	9.90e-06	0	60	0	624951296	51	4864
2026-01-17 00:12:00.44	1.67	29.94	-40.2	-42.5	13.6	9.90e-06	0	60	0	628097024	51	4845
2026-01-17 00:12:01.45	1.55	30.12	-40.1	-42.4	13.7	6.80e-06	0	60	0	631242752	51	4790
2026-01-17 00:12:02.46	1.42	30.30	-40.2	-42.5	13.6	5.30e-06	0	60	0	634388480	51	4830
2026-01-17 00:12:03.47	1.29	30.48	-40.1	-42.4	13.7	7.60e-06	0	60	0	637534208	51	4772
2026-01-17 00:12:04.48	1.17	30.66	-40.0	-42.2	13.9	6.10e-06	0	60	0	640679936	51	4699
2026-01-17 00:12:05.49	1.04	30.85	-40.0	-42.2	13.9	1.50e-06	0	60	0	643825664	51	4703
2026-01-17 00:12:06.50	0.90	31.03	-39.9	-42.1	13.9	3.80e-06	0	60	0	646971392	51	4648
2026-01-17 00:12:07.51	0.77	31.22	-39.9	-42.1	14.0	1.50e-06	0	60	0	650117120	51	4622
2026-01-17 00:12:08.52	0.64	31.40	-39.9	-42.1	14.0	3.00e-06	0	60	0	653262848	51	4651
2026-01-17 00:12:09.53	0.50	31.59	-40.0	-42.3	13.8	3.00e-06	0	60	0	656408576	51	4730
2026-01-17 00:12:10.54	0.36	31.78	-40.1	-42.4	13.8	7.60e-06	0	60	0	659554304	51	4771
2026-01-17 00:12:11.55	0.22	31.97	-40.2	-42.5	13.6	5.30e-06	0	60	0	662700032	51	4833
2026-01-17 00:12:12.56	0.08	32.16	-40.2	-42.6	13.6	6.80e-06	0	60	0	665845760	51	4885
2026-01-17 00:12:13.57	359.94	32.35	-40.3	-42.7	13.4	1.29e-05	0	60	0	668991488	51	4971
2026-01-17 00:12:14.58	359.79	32.54	-40.4	-42.8	13.4	1.14e-05	0	60	0	672137216	51	4984
2026-01-17 00:12:15.59	359.65	32.74	-40.4	-42.8	13.4	2.13e-05	0	60	0	675282944	51	4987
2026-01-17 00:12:16.60	359.50	32.93	-40.4	-42.8	13.4	1.37e-05	0	60	0	678428672	51	4994
2026-01-17 00:12:17.61	359.35	33.13	-40.4	-42.7	13.5	1.37e-05	0	60	0	681574400	51	4966
2026-01-17 00:12:18.62	359.20	33.32	-40.4	-42.7	13.4	7.60e-06	0	60	0	684720128	51	4973
2026-01-17 00:12:19.63	359.04	33.52	-40.4	-42.7	13.5	1.29e-05	0	60	0	687865856	51	4957
2026-01-17 00:12:20.64	358.89	33.72	-40.4	-42.7	13.4	1.29e-05	0	60	0	691011584	51	4960
2026-01-17 00:12:21.65	358.73	33.92	-40.5	-42.9	13.3	1.83e-05	0	60	0	694157312	51	5078
2026-01-17 00:12:22.66	358.57	34.12	-40.5	-43.0	13.2	2.44e-05	0	60	0	697303040	51	5129
2026-01-17 00:12:23.67	358.41	34.32	-40.7	-43.2	13.0	4.19e-05	0	60	0	700448768	51	5244
2026-01-17 00:12:24.68	358.25	34.53	-40.7	-43.3	12.8	5.11e-05	0	60	0	703594496	52	5013
2026-01-17 00:12:25.69	358.08	34.73	-40.8	-43.5	12.6	6.71e-05	0	60	0	706740224	52	5122
2026-01-17 00:12:26.70	357.91	34.93	-41.0	-43.6	12.5	1.11e-04	0	60	0	709885952	52	5214
2026-01-17 00:12:27.71	357.74	35.14	-41.0	-43.7	12.4	1.38e-04	0	60	0	713031680	52	5241
2026-01-17 00:12:28.72	357.57	35.35	-41.1	-43.9	12.1	2.27e-04	0	60	0	716177408	52	5400
2026-01-17 00:12:29.73	357.40	35.56	-41.3	-44.1	11.9	3.53e-04	0	60	0	719323136	53	5207
2026-01-17 00:12:30.74	357.22	35.77	-41.3	-44.3	11.8	4.74e-04	0	60	0	722468864	53	5293
2026-01-17 00:12:31.75	357.04	35.98	-41.5	-44.5	11.6	7.37e-04	0	60	0	725614592	53	5411
2026-01-17 00:12:32.76	356.86	36.19	-41.5	-44.6	11.4	8.37e-04	0	60	0	729808896	53	5501
2026-01-17 00:12:33.77	356.67	36.40	-41.6	-44.7	11.3	1.01e-03	0	60	0	731906048	53	5587
2026-01-17 00:12:34.78	356.49	36.61	-41.7	-44.8	11.3	1.29e-03	0	60	0	735051776	53	5624
2026-01-17 00:12:35.79	356.30	36.83	-41.5	-44.6	11.5	8.58e-04	0	60	0	738197504	53	5488
2026-01-17 00:12:36.80	356.11	37.04	-41.6	-44.7	11.4	9.19e-04	0	60	0	741343232	53	5590
2026-01-17 00:12:37.80	355.92	37.26	-41.8	-45.0	11.1	1.20e-03	0	60	0	745537536	54	5413
2026-01-17 00:12:38.81	355.72	37.48	-41.8	-45.0	11.1	1.54e-03	0	60	0	748683264	54	5439
2026-01-17 00:12:39.82	355.52	37.69	-41.8	-45.1	11.0	1.91e-03	0	60	0	751828992	54	5482
2026-01-17 00:12:40.83	355.32	37.91	-41.9	-45.1	11.0	1.72e-03	0	60	0	754974720	54	5521
2026-01-17 00:12:41.84	355.11	38.14	-41.8	-45.0	11.1	1.90e-03	0	60	0	757071872	54	5455
2026-01-17 00:12:42.85	354.90	38.36	-41.8	-45.1	11.1	1.85e-03	0	60	0	761266176	54	5467
2026-01-17 00:12:43.86	354.69	38.58	-41.8	-44.9	11.2	1.39e-03	0	60	0	764411904	54	5384
2026-01-17 00:12:44.87	354.48	38.80	-41.8	-45.0	11.1	1.58e-03	0	60	0	767557632	54	5447
2026-01-17 00:12:45.88	354.26	39.03	-41.9	-45.2	10.8	2.07e-03	0	60	0	770703360	54	5579
2026-01-17 00:12:46.89	354.04	39.26	-42.0	-45.3	10.8	2.65e-03	0	60	0	773849088	54	5624
2026-01-17 00:12:47.90	353.82	39.48	-42.0	-45.3	10.8	2.71e-03	0	60	0	776994816	54	5650
2026-01-17 00:12:48.91	353.59	39.71	-42.0	-45.4	10.6	2.82e-03	0	60	0	780140544	54	5699
2026-01-17 00:12:49.92	353.36	39.94	-41.9	-45.1	11.0	2.14e-03	0	60	0	783286272	54	5512
2026-01-17 00:12:50.93	353.13	40.17	-41.8	-44.9	11.1	1.84e-03	0	60	0	786432000	54	5398
2026-01-17 00:12:51.94	352.90	40.40	-41.6	-44.6	11.6	9.86e-04	0	60	0	789577728	54	5178
2026-01-17 00:12:52.95	352.66	40.63	-41.6	-44.6	11.5	7.84e-04	0	60	0	792723456	54	5216
2026-01-17 00:12:53.96	352.41	40.86	-41.5	-44.5	11.6	6.07e-04	0	60	0	795869184	54	5101
2026-01-17 00:12:54.97	352.17	41.10	-41.4	-44.3	11.7	4.49e-04	0	60	0	799014912	54	5034
2026-01-17 00:12:55.98	351.92	41.33	-41.5	-44.4	11.7	6.00e-04	0	60	0	802160640	54	5053
2026-01-17 00:12:56.99	351.66	41.57	-41.6	-44.7	11.4	7.39e-04	0	60	0	805306368	54	5237
2026-01-17 00:12:58.00	351.40	41.80	-41.7	-44.8	11.3	1.32e-03	0	60	0	808452096	54	5311
2026-01-17 00:12:59.01	351.14	42.04	-41.7	-44.8	11.3	1.09e-03	0	60	0	811597824	54	5307
2026-01-17 00:13:00.02	350.88	42.28	-41.6	-44.6	11.5	8.96e-04	0	60	0	814743552	54	5184
2026-01-17 00:13:01.03	350.61	42.52	-41.6	-44.6	11.5	8.06e-04	0	60	0	817889280	54	5177
2026-01-17 00:13:02.04	350.33	42.76	-41.6	-44.6	11.6	6.75e-04	0	60	0	821035008	54	5184
2026-01-17 00:13:03.05	350.06	43.00	-41.7	-44.8	11.3	9.51e-04	0	60	0	824180736	54	5314
2026-01-17 00:13:04.06	349.77	43.24	-41.9	-45.0	11.1	1.52e-03	0	60	0	827326464	54	5440
2026-01-17 00:13:05.07	349.49	43.48	-42.0	-45.3	10.8	2.22e-03	0	60	0	830472192	54	5625
2026-01-17 00:13:06.08	349.20	43.72	-42.1	-45.5	10.6	3.29e-03	0	60	0	833617920	54	5771
2026-01-17 00:13:07.09	348.90	43.97	-42.3	-45.9	10.2	5.05e-03	0	60	0	836763648	55	5684
2026-01-17 00:13:08.10	348.60	44.21	-42.3	-45.9	10.2	6.35e-03	0	60	0	839909376	55	5668
2026-01-17 00:13:09.11	348.30	44.46	-42.3	-45.8	10.3	5.11e-03	0	60	0	843055104	55	5646
2026-01-17 00:13:10.12	347.99	44.70	-42.1	-45.4	10.7	3.19e-03	0	60	0	846200832	55	5397
2026-01-17 00:13:11.13	347.67	44.95	-41.9	-45.2	10.9	2.42e-03	0	60	0	849346560	55	5239
2026-01-17 00:13:12.14	347.35	45.19	-41.8	-44.9	11.2	1.57e-03	0	60	0	852492288	55	5082
2026-01-17 00:13:13.15	347.03	45.44	-41.7	-44.7	11.4	9.89e-04	0	60	0	855638016	55	4944
2026-01-17 00:13:14.17	346.70	45.69	-41.7	-44.7	11.3	1.02e-03	0	60	0	858783744	55	4975
2026-01-17 00:13:15.18	346.36	45.94	-41.7	-44.7	11.4	1.06e-03	0	60	0	861929472	55	4958
2026-01-17 00:13:16.19	346.02	46.19	-41.6	-44.6	11.4	1.04e-03	0	60	0	865075200	55	4909
2026-01-17 00:13:17.20	345.68	46.43	-41.6	-44.6	11.4	9.53e-04	0	60	0	868220928	55	4903
2026-01-17 00:13:18.21	345.33	46.68	-41.5	-44.4	11.7	5.96e-04	0	60	0	871366656	54	5058
2026-01-17 00:13:19.22	344.97	46.93	-41.5	-44.5	11.6	6.19e-04	0	60	0	874512384	54	5115
2026-01-17 00:13:20.23	344.61	47.18	-41.6	-44.6	11.5	8.12e-04	0	60	0	877658112	54	5170
2026-01-17 00:13:21.24	344.24	47.43	-41.7	-44.7	11.3	1.14e-03	0	60	0	880803840	54	5274
2026-01-17 00:13:22.25	343.86	47.68	-41.6	-44.5	11.5	9.14e-04	0	60	0	883949568	54	5158
2026-01-17 00:13:23.26	343.48	47.93	-41.6	-44.6	11.5	7.98e-04	0	60	0	887095296	54	5186
2026-01-17 00:13:24.27	343.10	48.18	-41.6	-44.6	11.5	9.26e-04	0	60	0	890241024	54	5196
2026-01-17 00:13:25.28	342.70	48.43	-41.6	-44.6	11.5	7.03e-04	0	61	0	893386752	54	5180
2026-01-17 00:13:26.29	342.30	48.68	-41.6	-44.6	11.6	8.20e-04	0	60	0	896532480	54	5162
2026-01-17 00:13:27.30	341.90	48.93	-41.8	-45.0	11.1	1.06e-03	0	60	0	899678208	54	5422
2026-01-17 00:13:28.31	341.48	49.18	-42.1	-45.4	10.6	3.21e-03	0	60	0	902823936	54	5715
2026-01-17 00:13:29.32	341.06	49.43	-42.2	-45.7	10.4	5.06e-03	0	60	0	905969664	55	5585
2026-01-17 00:13:30.33	340.64	49.68	-42.1	-45.5	10.7	3.32e-03	0	60	0	909115392	55	5409
2026-01-17 00:13:31.34	340.20	49.93	-41.9	-45.0	11.1	1.60e-03	0	60	0	912261120	55	5156
2026-01-17 00:13:32.35	339.76	50.18	-41.7	-44.7	11.4	1.02e-03	0	60	0	915406848	55	4948
2026-01-17 00:13:33.37	339.31	50.43	-41.7	-44.7	11.4	8.36e-04	0	61	0	918552576	55	4974
2026-01-17 00:13:34.38	338.85	50.67	-41.9	-45.0	11.1	1.51e-03	0	60	0	921698304	55	5154
2026-01-17 00:13:35.39	338.39	50.92	-41.9	-45.1	11.1	1.67e-03	0	60	0	924844032	55	5167
2026-01-17 00:13:36.40	337.92	51.17	-41.8	-45.0	11.2	1.29e-03	0	60	0	927989760	55	5120
2026-01-17 00:13:37.41	337.44	51.41	-41.5	-44.5	11.7	5.31e-04	0	61	0	931135488	55	4829
2026-01-17 00:13:38.42	336.95	51.65	-41.6	-44.5	11.7	5.39e-04	0	60	0	934281216	55	4831
2026-01-17 00:13:39.43	336.46	51.90	-41.7	-44.7	11.5	7.10e-04	0	60	0	937426944	55	4930
2026-01-17 00:13:40.44	335.95	52.14	-41.7	-44.8	11.4	7.51e-04	0	60	0	940572672	55	4993
2026-01-17 00:13:41.45	335.44	52.38	-41.4	-44.3	11.9	5.97e-04	0	60	0	943718400	54	5031
2026-01-17 00:13:42.46	334.92	52.62	-41.1	-43.8	12.4	1.78e-04	0	60	0	946864128	54	4752
2026-01-17 00:13:43.47	334.39	52.86	-40.9	-43.4	12.8	7.78e-05	0	61	0	950009856	53	4812
2026-01-17 00:13:44.48	333.85	53.10	-40.8	-43.4	12.8	6.94e-05	0	60	0	953155584	53	4769
2026-01-17 00:13:45.49	333.31	53.33	-40.9	-43.5	12.6	8.23e-05	0	60	0	956301312	53	4842
2026-01-17 00:13:46.50	332.75	53.57	-41.0	-43.6	12.5	8.92e-05	0	60	0	959447040	53	4905
2026-01-17 00:13:47.51	332.19	53.80	-41.0	-43.6	12.5	1.11e-04	0	61	0	962592768	53	4902
2026-01-17 00:13:48.52	331.61	54.03	-40.9	-43.4	12.7	7.62e-05	0	60	0	965738496	53	4806
2026-01-17 00:13:49.53	331.03	54.26	-40.7	-43.2	13.0	6.48e-05	0	60	0	968884224	53	4664
2026-01-17 00:13:50.54	330.44	54.48	-40.5	-42.9	13.3	1.83e-05	0	60	0	972029952	53	4517
2026-01-17 00:13:51.55	329.84	54.71	-40.6	-43.0	13.1	2.97e-05	0	60	0	975175680	53	4584
2026-01-17 00:13:52.56	329.23	54.93	-40.7	-43.1	13.0	2.74e-05	0	60	0	978321408	53	4640
2026-01-17 00:13:53.57	328.61	55.15	-40.8	-43.3	12.9	4.34e-05	0	60	0	981467136	53	4710
2026-01-17 00:13:54.58	327.97	55.37	-40.5	-42.9	13.3	2.97e-05	0	60	0	984612864	53	4527
2026-01-17 00:13:55.59	327.33	55.58	-40.4	-42.7	13.4	1.37e-05	0	60	0	987758592	52	4696
2026-01-17 00:13:56.60	326.68	55.79	-40.6	-43.0	13.0	3.28e-05	0	61	0	990904320	52	4864
2026-01-17 00:13:57.61	326.02	56.00	-40.7	-43.1	12.9	6.02e-05	0	60	0	994050048	52	4923
2026-01-17 00:13:58.61	325.36	56.21	-40.6	-43.0	13.1	3.35e-05	0	60	0	997195776	52	4850
2026-01-17 00:13:59.63	324.67	56.41	-40.4	-42.7	13.4	2.13e-05	0	61	0	1000341504	52	4697
2026-01-17 00:14:00.64	323.98	56.61	-40.3	-42.5	13.6	5.30e-06	0	60	0	1003487232	52	4582
2026-01-17 00:14:01.65	323.28	56.81	-40.1	-42.2	13.9	3.80e-06	0	60	0	1006632960	52	4433
2026-01-17 00:14:02.65	322.58	57.00	-40.2	-42.4	13.7	4.50e-06	0	60	0	1009778688	52	4505
2026-01-17 00:14:03.67	321.85	57.19	-40.3	-42.6	13.6	4.50e-06	0	60	0	1012924416	52	4628
2026-01-17 00:14:04.68	321.12	57.37	-40.1	-42.3	13.8	3.80e-06	0	60	0	1016070144	52	4466
2026-01-17 00:14:05.69	320.38	57.56	-40.0	-42.1	14.1	1.50e-06	0	60	0	1019215872	51	4616
2026-01-17 00:14:06.70	319.63	57.73	-40.0	-42.2	14.0	1.50e-06	0	60	0	1022361600	51	4670
2026-01-17 00:14:07.71	318.87	57.91	-39.9	-42.0	14.1	7.00e-07	0	61	0	1025507328	51	4588
2026-01-17 00:14:08.72	318.10	58.08	-40.0	-42.2	14.0	7.00e-07	0	60	0	1028653056	51	4657
2026-01-17 00:14:09.73	317.32	58.24	-40.0	-42.1	14.1	2.20e-06	0	61	0	1031798784	51	4643
2026-01-17 00:14:10.74	316.53	58.40	-39.9	-41.9	14.3	7.00e-07	0	60	0	1034944512	51	4531
2026-01-17 00:14:11.75	315.74	58.56	-39.8	-41.9	14.3	0.00e+00	0	60	0	1039138816	51	4506
2026-01-17 00:14:12.76	314.93	58.71	-39.7	-41.7	14.5	7.00e-07	0	60	0	1042284544	51	4440
2026-01-17 00:14:13.77	314.11	58.85	-39.5	-41.5	14.8	0.00e+00	0	60	0	1045430272	51	4293
2026-01-17 00:14:14.78	313.28	58.99	-39.2	-41.0	15.2	7.00e-07	0	61	0	1047527424	50	4333
2026-01-17 00:14:15.79	312.45	59.13	-39.1	-41.0	15.3	0.00e+00	0	61	0	1050673152	50	4294
2026-01-17 00:14:16.80	311.61	59.26	-39.2	-41.1	15.1	0.00e+00	0	61	0	1054867456	50	4365
2026-01-17 00:14:17.81	310.76	59.38	-39.3	-41.1	15.0	0.00e+00	0	60	0	1058013184	50	4391
2026-01-17 00:14:18.82	309.90	59.50	-39.4	-41.4	14.8	0.00e+00	0	60	0	1061158912	50	4513
2026-01-17 00:14:19.83	309.03	59.61	-39.5	-41.5	14.6	0.00e+00	0	61	0	1064304640	50	4583
2026-01-17 00:14:20.84	308.15	59.72	-39.3	-41.2	14.9	0.00e+00	0	61	0	1067450368	50	4431
2026-01-17 00:14:21.85	307.27	59.82	-39.3	-41.1	15.0	0.00e+00	0	61	0	1070596096	50	4385
2026-01-17 00:14:22.86	306.38	59.91	-39.5	-41.5	14.6	0.00e+00	0	61	0	1073741824	50	4580
2026-01-17 00:14:23.87	305.49	60.00	-39.8	-41.9	14.3	7.00e-07	0	61	0	1076887552	50	4776
2026-01-17 00:14:24.88	304.59	60.09	-39.8	-41.9	14.2	1.50e-06	0	61	0	1080033280	50	4813
2026-01-17 00:14:25.89	303.68	60.16	-39.6	-41.5	14.7	0.00e+00	0	60	0	1083179008	50	4588
2026-01-17 00:14:26.90	302.77	60.23	-39.4	-41.3	14.9	0.00e+00	0	60	0	1086324736	50	4449
2026-01-17 00:14:27.91	301.85	60.30	-39.5	-41.5	14.7	7.00e-07	0	60	0	1089470464	50	4557
2026-01-17 00:14:28.92	300.93	60.35	-39.4	-41.3	14.9	1.50e-06	0	60	0	1092616192	50	4462
2026-01-17 00:14:29.93	300.01	60.40	-39.2	-41.1	15.1	0.00e+00	0	61	0	1095761920	50	4361
2026-01-17 00:14:30.94	299.08	60.45	-39.3	-41.2	15.0	0.00e+00	0	60	0	1098907648	50	4404
2026-01-17 00:14:31.95	298.15	60.48	-39.3	-41.3	14.9	0.00e+00	0	61	0	1102053376	50	4444
2026-01-17 00:14:32.96	297.22	60.51	-39.4	-41.3	14.8	0.00e+00	0	60	0	1105199104	50	4488
2026-01-17 00:14:33.98	296.27	60.54	-39.4	-41.4	14.8	7.00e-07	0	60	0	1108344832	50	4506
2026-01-17 00:14:34.98	295.34	60.55	-39.3	-41.2	14.9	0.00e+00	0	60	0	1111490560	50	4440
2026-01-17 00:14:35.99	294.40	60.56	-39.4	-41.3	14.8	0.00e+00	0	60	0	1114636288	50	4464
2026-01-17 00:14:37.00	293.47	60.57	-39.6	-41.7	14.5	1.50e-06	0	60	0	1117782016	50	4652
2026-01-17 00:14:38.02	292.52	60.56	-39.6	-41.7	14.4	0.00e+00	0	61	0	1120927744	50	4666
2026-01-17 00:14:39.03	291.58	60.55	-39.7	-41.8	14.4	7.00e-07	0	60	0	1124073472	50	4716
2026-01-17 00:14:40.03	290.65	60.53	-39.7	-41.8	14.4	7.00e-07	0	60	0	1127219200	50	4721
2026-01-17 00:14:41.04	289.72	60.51	-39.5	-41.5	14.6	0.00e+00	0	60	0	1130364928	50	4584
2026-01-17 00:14:42.05	288.78	60.48	-39.6	-41.6	14.5	2.20e-06	0	61	0	1133510656	50	4608
2026-01-17 00:14:43.06	287.85	60.44	-39.6	-41.6	14.5	0.00e+00	0	61	0	1136656384	50	4650
2026-01-17 00:14:44.07	286.92	60.40	-39.7	-41.8	14.3	1.50e-06	0	60	0	1139802112	50	4728
2026-01-17 00:14:45.08	286.00	60.34	-39.6	-41.6	14.5	7.00e-07	0	61	0	1142947840	50	4632
2026-01-17 00:14:46.09	285.08	60.29	-39.5	-41.5	14.6	0.00e+00	0	60	0	1146093568	50	4574
2026-01-17 00:14:47.10	284.16	60.22	-39.4	-41.3	14.8	7.00e-07	0	60	0	1149239296	50	4482
2026-01-17 00:14:48.11	283.25	60.15	-39.4	-41.3	14.8	7.00e-07	0	60	0	1152385024	50	4490
2026-01-17 00:14:49.12	282.34	60.07	-39.8	-41.9	14.2	0.00e+00	0	61	0	1155530752	50	4792
2026-01-17 00:14:50.13	281.44	59.99	-40.2	-42.5	13.7	5.30e-06	0	60	0	1158676480	51	4844
2026-01-17 00:14:51.14	280.55	59.90	-40.5	-42.9	13.2	1.75e-05	0	60	0	1161822208	51	5095
2026-01-17 00:14:52.15	279.66	59.80	-40.6	-43.0	13.2	2.28e-05	0	61	0	1164967936	51	5119
2026-01-17 00:14:53.16	278.78	59.70	-40.0	-42.1	14.0	6.80e-06	0	60	0	1168113664	51	4649
2026-01-17 00:14:54.17	277.90	59.59	-39.9	-42.1	14.1	2.20e-06	0	61	0	1171259392	51	4603
2026-01-17 00:14:55.18	277.04	59.48	-40.3	-42.6	13.6	3.80e-06	0	60	0	1174405120	51	4899
2026-01-17 00:14:56.19	276.18	59.36	-40.5	-42.9	13.3	2.28e-05	0	61	0	1177550848	51	5076
2026-01-17 00:14:57.20	275.33	59.24	-40.1	-42.3	13.9	8.30e-06	0	60	0	1180696576	51	4725
2026-01-17 00:14:58.21	274.48	59.11	-39.9	-42.0	14.2	0.00e+00	0	61	0	1183842304	51	4586
2026-01-17 00:14:59.22	273.65	58.97	-40.1	-42.2	14.0	1.50e-06	0	60	0	1186988032	51	4697
2026-01-17 00:15:00.23	272.82	58.83	-40.0	-42.2	14.0	7.00e-07	0	61	0	1190133760	51	4668
2026-01-17 00:15:01.24	272.01	58.68	-40.1	-42.3	13.8	2.20e-06	0	60	0	1193279488	51	4711
2026-01-17 00:15:02.25	271.20	58.53	-40.2	-42.5	13.6	5.30e-06	0	61	0	1196425216	51	4850
2026-01-17 00:15:03.26	270.40	58.38	-40.5	-42.8	13.3	1.29e-05	0	61	0	1199570944	51	5014
2026-01-17 00:15:04.27	269.61	58.21	-40.4	-42.6	13.5	1.67e-05	0	61	0	1202716672	51	4922
2026-01-17 00:15:05.28	268.83	58.05	-40.1	-42.3	13.9	4.50e-06	0	61	0	1205862400	51	4711
2026-01-17 00:15:06.29	268.06	57.88	-40.2	-42.4	13.7	3.00e-06	0	60	0	1209008128	51	4810
2026-01-17 00:15:07.30	267.30	57.70	-40.3	-42.6	13.6	6.80e-06	0	60	0	1212153856	51	4922
2026-01-17 00:15:08.31	266.55	57.53	-40.4	-42.7	13.5	1.44e-05	0	60	0	1215299584	51	4952
2026-01-17 00:15:09.32	265.81	57.34	-40.1	-42.3	13.9	3.80e-06	0	60	0	1218445312	51	4730
2026-01-17 00:15:10.33	265.08	57.16	-40.3	-42.5	13.7	5.30e-06	0	60	0	1221591040	51	4857
2026-01-17 00:15:11.34	264.36	56.97	-40.5	-42.8	13.4	1.44e-05	0	60	0	1224736768	51	5029
2026-01-17 00:15:12.35	263.65	56.77	-40.4	-42.7	13.4	1.37e-05	0	61	0	1227882496	51	4981
2026-01-17 00:15:13.35	262.96	56.58	-40.3	-42.5	13.6	7.60e-06	0	60	0	1231028224	51	4861
2026-01-17 00:15:14.36	262.27	56.38	-40.1	-42.3	13.8	5.30e-06	0	61	0	1234173952	51	4730
2026-01-17 00:15:15.37	261.59	56.17	-40.1	-42.2	13.9	6.10e-06	0	61	0	1237319680	51	4678
2026-01-17 00:15:16.38	260.92	55.97	-40.3	-42.6	13.6	5.30e-06	0	61	0	1240465408	51	4875
2026-01-17 00:15:17.39	260.26	55.76	-40.7	-43.1	12.9	1.83e-05	0	60	0	1243611136	52	4921
2026-01-17 00:15:18.40	259.61	55.54	-41.0	-43.6	12.5	1.04e-04	0	61	0	1246756864	52	5196
2026-01-17 00:15:19.41	258.97	55.33	-41.2	-43.9	12.1	2.32e-04	0	60	0	1249902592	52	5402
2026-01-17 00:15:20.42	258.34	55.11	-41.1	-43.9	12.0	3.57e-04	0	61	0	1253048320	53	5084
2026-01-17 00:15:21.43	257.72	54.89	-40.7	-43.2	12.8	8.23e-05	0	61	0	1256194048	53	4663
2026-01-17 00:15:22.44	257.11	54.67	-40.5	-42.8	13.2	2.74e-05	0	60	0	1259339776	52	4745
2026-01-17 00:15:23.45	256.51	54.44	-40.6	-43.1	13.0	2.21e-05	0	61	0	1262485504	52	4914
2026-01-17 00:15:24.46	255.91	54.21	-41.3	-44.2	11.9	1.81e-04	0	60	0	1265631232	53	5227
2026-01-17 00:15:25.47	255.33	53.98	-41.8	-44.9	11.2	1.10e-03	0	60	0	1268776960	54	5389
2026-01-17 00:15:26.48	254.76	53.75	-42.3	-46.0	10.0	6.06e-03	0	60	0	1271922688	55	5773
2026-01-17 00:15:27.49	254.19	53.52	-42.2	-45.8	10.2	6.45e-03	0	60	0	1275068416	55	5607
2026-01-17 00:15:28.50	253.64	53.28	-41.5	-44.5	11.5	1.25e-03	0	61	0	1278214144	55	4858
2026-01-17 00:15:29.51	253.09	53.05	-40.4	-42.7	13.3	8.92e-05	0	60	0	1281359872	52	4690
2026-01-17 00:15:30.52	252.55	52.81	-39.9	-41.9	14.2	1.50e-06	0	61	0	1284505600	51	4518
2026-01-17 00:15:31.53	252.02	52.57	-39.9	-42.0	14.2	2.20e-06	0	61	0	1287651328	51	4563
2026-01-17 00:15:32.54	251.50	52.33	-40.6	-43.0	13.2	7.60e-06	0	60	0	1290797056	51	5122
2026-01-17 00:15:33.54	251.00	52.09	-41.6	-44.6	11.5	6.00e-04	0	61	0	1293942784	53	5493
2026-01-17 00:15:34.55	250.49	51.85	-42.1	-45.4	10.5	4.10e-03	0	60	0	1297088512	54	5713
2026-01-17 00:15:35.56	250.00	51.60	-41.6	-44.5	11.3	2.38e-03	0	61	0	1300234240	54	5148
2026-01-17 00:15:36.57	249.51	51.36	-41.2	-44.0	11.9	4.54e-04	0	61	0	1303379968	54	4821
2026-01-17 00:15:37.59	249.03	51.11	-41.2	-44.0	11.9	2.97e-04	0	60	0	1306525696	54	4823
2026-01-17 00:15:38.59	248.56	50.86	-41.1	-43.8	12.1	3.45e-04	0	61	0	1309671424	54	4722
2026-01-17 00:15:39.60	248.10	50.62	-40.8	-43.4	12.5	1.10e-04	0	60	0	1312817152	53	4778
2026-01-17 00:15:40.61	247.64	50.37	-41.0	-43.7	12.3	1.66e-04	0	60	0	1315962880	53	4941
2026-01-17 00:15:41.62	247.19	50.12	-41.3	-44.2	11.9	3.68e-04	0	61	0	1319108608	53	5234
2026-01-17 00:15:42.63	246.75	49.87	-42.0	-45.4	10.6	1.87e-03	0	60	0	1322254336	54	5696
2026-01-17 00:15:43.64	246.32	49.62	-42.3	-45.9	10.0	7.64e-03	0	60	0	1325400064	55	5698
2026-01-17 00:15:44.65	245.89	49.37	-41.7	-44.9	10.9	3.68e-03	0	61	0	1328545792	55	5071
2026-01-17 00:15:45.66	245.47	49.12	-41.1	-43.9	12.0	4.58e-04	0	61	0	1331691520	54	4762
2026-01-17 00:15:46.67	245.06	48.87	-40.9	-43.6	12.3	2.26e-04	0	60	0	1334837248	53	4898
2026-01-17 00:15:47.68	244.65	48.62	-41.1	-43.8	12.1	2.09e-04	0	61	0	1337982976	53	5034
2026-01-17 00:15:48.69	244.25	48.37	-41.4	-44.2	11.7	4.32e-04	0	61	0	1341128704	53	5274
2026-01-17 00:15:49.70	243.86	48.12	-41.3	-44.2	11.8	5.41e-04	0	60	0	1344274432	53	5222
2026-01-17 00:15:50.71	243.47	47.87	-41.4	-44.2	11.8	4.84e-04	0	60	0	1347420160	53	5265
2026-01-17 00:15:51.72	243.09	47.62	-41.8	-44.9	11.1	1.15e-03	0	61	0	1350565888	54	5374
2026-01-17 00:15:52.73	242.71	47.36	-42.0	-45.3	10.6	3.14e-03	0	60	0	1353711616	54	5645
2026-01-17 00:15:53.75	242.34	47.11	-41.7	-44.8	11.1	2.26e-03	0	61	0	1356857344	54	5308
2026-01-17 00:15:54.75	241.98	46.86	-41.1	-43.8	12.0	4.10e-04	0	61	0	1361051648	54	4741
2026-01-17 00:15:55.76	241.63	46.61	-40.8	-43.3	12.5	1.47e-04	0	61	0	1364197376	53	4722
2026-01-17 00:15:56.78	241.27	46.36	-40.8	-43.3	12.6	8.16e-05	0	61	0	1366294528	53	4750
2026-01-17 00:15:57.79	240.93	46.11	-41.1	-43.8	12.2	1.69e-04	0	61	0	1369440256	53	4993
2026-01-17 00:15:58.80	240.58	45.86	-41.7	-44.7	11.3	8.10e-04	0	61	0	1372585984	53	5560
2026-01-17 00:15:59.81	240.25	45.61	-42.4	-46.1	9.9	5.70e-03	0	60	0	1376780288	55	5808
2026-01-17 00:16:00.81	239.92	45.37	-42.7	-46.7	9.3	2.03e-02	0	61	0	1379926016	55	6212
2026-01-17 00:16:01.82	239.60	45.12	-42.6	-46.6	9.3	1.95e-02	0	61	0	1383071744	55	6155
2026-01-17 00:16:02.83	239.28	44.87	-42.4	-46.2	9.7	1.37e-02	0	61	0	1386217472	55	5862
2026-01-17 00:16:03.84	238.96	44.63	-42.2	-45.8	10.1	9.55e-03	0	61	0	1388314624	55	5605
2026-01-17 00:16:04.85	238.66	44.38	-41.8	-44.9	10.8	3.25e-03	0	61	0	1392508928	55	5095
2026-01-17 00:16:05.86	238.35	44.13	-41.4	-44.3	11.4	1.21e-03	0	61	0	1395654656	54	5017
2026-01-17 00:16:06.87	238.05	43.89	-41.0	-43.6	12.2	3.02e-04	0	61	0	1398800384	54	4639
2026-01-17 00:16:07.88	237.75	43.65	-40.7	-43.2	12.7	6.79e-05	0	61	0	1401946112	53	4653
2026-01-17 00:16:08.89	237.46	43.40	-41.1	-43.7	12.2	1.66e-04	0	61	0	1405091840	53	4982
2026-01-17 00:16:09.90	237.18	43.16	-41.9	-45.2	10.8	1.88e-03	0	60	0	1408237568	54	5562
2026-01-17 00:16:10.91	236.89	42.92	-42.6	-46.5	9.4	1.01e-02	0	61	0	1411383296	55	6101
2026-01-17 00:16:11.92	236.62	42.68	-43.1	-47.4	8.7	2.88e-02	0	61	0	1414529024	56	6363
2026-01-17 00:16:12.93	236.34	42.43	-42.9	-46.9	9.0	2.88e-02	0	61	0	1417674752	56	6047
2026-01-17 00:16:13.94	236.07	42.20	-42.4	-46.0	9.9	1.28e-02	0	61	0	1420820480	56	5408
2026-01-17 00:16:14.95	235.81	41.96	-42.1	-45.4	10.5	4.47e-03	0	61	0	1423966208	56	5080
2026-01-17 00:16:15.96	235.54	41.72	-41.7	-44.8	11.1	1.99e-03	0	61	0	1427111936	55	4996
2026-01-17 00:16:16.97	235.29	41.48	-41.5	-44.5	11.5	1.27e-03	0	61	0	1430257664	55	4828
2026-01-17 00:16:17.98	235.03	41.24	-41.7	-44.7	11.2	1.26e-03	0	61	0	1433403392	55	4971
2026-01-17 00:16:18.99	234.78	41.01	-41.7	-44.8	11.1	1.36e-03	0	60	0	1436549120	55	5028
2026-01-17 00:16:20.00	234.53	40.77	-41.6	-44.7	11.3	1.31e-03	0	61	0	1439694848	55	4935
2026-01-17 00:16:21.01	234.29	40.54	-41.4	-44.4	11.6	7.67e-04	0	61	0	1442840576	54	5043
2026-01-17 00:16:22.02	234.05	40.31	-41.4	-44.3	11.7	6.12e-04	0	61	0	1445986304	54	5021
2026-01-17 00:16:23.03	233.81	40.08	-41.6	-44.6	11.4	7.54e-04	0	61	0	1449132032	54	5203
2026-01-17 00:16:24.04	233.58	39.85	-41.9	-45.1	10.9	1.72e-03	0	61	0	1452277760	54	5521
2026-01-17 00:16:25.05	233.35	39.62	-42.3	-45.9	10.0	5.07e-03	0	61	0	1455423488	55	5716
2026-01-17 00:16:26.06	233.13	39.39	-42.2	-45.8	10.0	7.53e-03	0	61	0	1458569216	55	5606
2026-01-17 00:16:27.07	232.90	39.16	-41.9	-45.2	10.6	5.05e-03	0	61	0	1461714944	55	5258
2026-01-17 00:16:28.08	232.68	38.93	-41.6	-44.6	11.2	1.60e-03	0	60	0	1464860672	55	4923
2026-01-17 00:16:29.09	232.46	38.71	-41.3	-44.2	11.8	5.78e-04	0	61	0	1468006400	54	4959
2026-01-17 00:16:30.10	232.25	38.48	-41.1	-43.7	12.2	2.77e-04	0	61	0	1471152128	54	4704
2026-01-17 00:16:31.11	232.04	38.26	-40.7	-43.3	12.8	6.56e-05	0	61	0	1474297856	53	4711
2026-01-17 00:16:32.12	231.83	38.04	-40.9	-43.5	12.5	6.25e-05	0	61	0	1477443584	53	4829
2026-01-17 00:16:33.13	231.63	37.81	-41.2	-43.9	12.1	2.27e-04	0	61	0	1480589312	53	5095
2026-01-17 00:16:34.14	231.42	37.59	-41.4	-44.4	11.6	6.12e-04	0	60	0	1483735040	53	5377
2026-01-17 00:16:35.15	231.22	37.37	-41.4	-44.4	11.5	7.24e-04	0	61	0	1486880768	53	5384
2026-01-17 00:16:36.16	231.03	37.16	-41.4	-44.3	11.6	7.13e-04	0	61	0	1490026496	53	5339
2026-01-17 00:16:37.17	230.83	36.94	-41.2	-44.0	11.9	5.30e-04	0	61	0	1493172224	53	5139
2026-01-17 00:16:38.18	230.64	36.72	-41.0	-43.8	12.1	3.12e-04	0	61	0	1496317952	53	4995
2026-01-17 00:16:39.19	230.45	36.51	-41.1	-43.9	12.1	2.72e-04	0	61	0	1499463680	53	5066
2026-01-17 00:16:40.20	230.26	36.29	-41.3	-44.2	11.8	3.70e-04	0	61	0	1502609408	53	5229
2026-01-17 00:16:41.21	230.08	36.08	-41.5	-44.6	11.4	8.61e-04	0	61	0	1505755136	53	5487
2026-01-17 00:16:42.22	229.90	35.87	-41.6	-44.7	11.3	1.01e-03	0	61	0	1508900864	53	5530
2026-01-17 00:16:43.23	229.72	35.66	-41.3	-44.3	11.7	6.10e-04	0	61	0	1512046592	53	5299
2026-01-17 00:16:44.24	229.54	35.45	-41.2	-44.0	12.1	3.39e-04	0	61	0	1515192320	53	5108
2026-01-17 00:16:45.25	229.37	35.24	-40.7	-43.3	12.8	8.85e-05	0	61	0	1518338048	53	4714
2026-01-17 00:16:46.26	229.19	35.03	-40.5	-42.9	13.1	3.89e-05	0	60	0	1521483776	53	4533
2026-01-17 00:16:47.27	229.02	34.82	-40.3	-42.6	13.4	2.13e-05	0	61	0	1524629504	52	4635
2026-01-17 00:16:48.28	228.85	34.62	-40.2	-42.4	13.6	6.10e-06	0	61	0	1527775232	52	4535
2026-01-17 00:16:49.29	228.69	34.41	-40.0	-42.3	13.8	6.10e-06	0	61	0	1530920960	52	4458
2026-01-17 00:16:50.30	228.52	34.21	-40.1	-42.4	13.6	6.80e-06	0	61	0	1534066688	52	4534
2026-01-17 00:16:51.31	228.36	34.00	-40.3	-42.7	13.4	8.30e-06	0	60	0	1537212416	52	4662
2026-01-17 00:16:52.32	228.20	33.80	-40.4	-42.8	13.2	2.21e-05	0	61	0	1540358144	52	4728
2026-01-17 00:16:53.33	228.04	33.60	-40.4	-42.8	13.2	1.98e-05	0	61	0	1543503872	52	4744
2026-01-17 00:16:54.34	227.89	33.40	-40.4	-42.7	13.3	2.13e-05	0	61	0	1546649600	52	4693
2026-01-17 00:16:55.35	227.73	33.20	-40.3	-42.6	13.4	1.29e-05	0	61	0	1549795328	52	4635
2026-01-17 00:16:56.36	227.58	33.01	-40.1	-42.4	13.6	1.44e-05	0	61	0	1552941056	52	4532
2026-01-17 00:16:57.37	227.43	32.81	-40.0	-42.2	13.9	6.10e-06	0	61	0	1556086784	51	4688
2026-01-17 00:16:58.38	227.28	32.62	-40.0	-42.2	13.9	2.20e-06	0	61	0	1559232512	51	4663
2026-01-17 00:16:59.39	227.14	32.42	-40.0	-42.2	13.9	2.20e-06	0	61	0	1562378240	51	4692
2026-01-17 00:17:00.40	226.99	32.23	-40.1	-42.4	13.7	6.10e-06	0	61	0	1565523968	51	4768
2026-01-17 00:17:01.41	226.85	32.04	-40.3	-42.7	13.4	9.90e-06	0	61	0	1568669696	51	4932
2026-01-17 00:17:02.42	226.71	31.84	-40.4	-42.9	13.2	2.05e-05	0	61	0	1571815424	51	5059
2026-01-17 00:17:03.43	226.57	31.65	-40.6	-43.1	13.0	4.11e-05	0	61	0	1574961152	51	5198
2026-01-17 00:17:04.44	226.43	31.47	-40.6	-43.1	13.0	3.96e-05	0	61	0	1578106880	51	5216
2026-01-17 00:17:05.44	226.29	31.28	-40.6	-43.1	13.0	3.96e-05	0	61	0	1581252608	51	5170
2026-01-17 00:17:06.45	226.16	31.09	-40.5	-42.9	13.2	2.28e-05	0	61	0	1584398336	51	5095
2026-01-17 00:17:07.46	226.02	30.91	-40.4	-42.8	13.3	2.51e-05	0	61	0	1587544064	51	5016
2026-01-17 00:17:08.47	225.89	30.72	-40.3	-42.7	13.3	1.22e-05	0	61	0	1590689792	51	4958
2026-01-17 00:17:09.48	225.76	30.54	-40.2	-42.5	13.4	1.14e-05	0	61	0	1593835520	51	4870
2026-01-17 00:17:10.49	225.63	30.35	-40.2	-42.5	13.5	1.22e-05	0	61	0	1596981248	51	4835
2026-01-17 00:17:11.50	225.51	30.17	-40.1	-42.4	13.5	9.10e-06	0	61	0	1600126976	51	4796
2026-01-17 00:17:12.51	225.38	29.99	-40.1	-42.3	13.7	8.30e-06	0	61	0	1603272704	51	4735
2026-01-17 00:17:13.52	225.26	29.81	-39.9	-42.1	13.9	6.10e-06	0	61	0	1606418432	51	4635
2026-01-17 00:17:14.53	225.13	29.63	-40.0	-42.2	13.8	5.30e-06	0	60	0	1609564160	51	4667
2026-01-17 00:17:15.54	225.01	29.45	-40.0	-42.2	13.7	8.30e-06	0	61	0	1612709888	51	4684
2026-01-17 00:17:16.55	224.89	29.28	-40.0	-42.2	13.7	6.80e-06	0	61	0	1615855616	51	4699
2026-01-17 00:17:17.56	224.77	29.10	-40.1	-42.4	13.6	9.90e-06	0	61	0	1619001344	51	4768
2026-01-17 00:17:18.57	224.65	28.93	-40.2	-42.5	13.5	1.83e-05	0	61	0	1622147072	51	4840
2026-01-17 00:17:19.58	224.54	28.75	-40.2	-42.5	13.5	9.90e-06	0	60	0	1625292800	51	4832
2026-01-17 00:17:20.59	224.42	28.58	-40.1	-42.4	13.6	8.30e-06	0	61	0	1628438528	51	4782
2026-01-17 00:17:21.60	224.31	28.41	-40.1	-42.3	13.7	7.60e-06	0	61	0	1631584256	51	4757
2026-01-17 00:17:22.61	224.20	28.23	-40.1	-42.3	13.7	7.60e-06	0	61	0	1634729984	51	4744
2026-01-17 00:17:23.62	224.08	28.06	-40.1	-42.4	13.6	3.80e-06	0	61	0	1637875712	51	4784
2026-01-17 00:17:24.63	223.97	27.89	-40.1	-42.3	13.7	7.60e-06	0	61	0	1641021440	51	4747
2026-01-17 00:17:25.64	223.86	27.72	-40.0	-42.3	13.8	5.30e-06	0	61	0	1644167168	51	4712
2026-01-17 00:17:26.65	223.76	27.56	-39.9	-42.1	13.9	3.00e-06	0	61	0	1647312896	51	4634
2026-01-17 00:17:27.66	223.65	27.39	-39.8	-41.9	14.1	1.50e-06	0	61	0	1650458624	51	4519
2026-01-17 00:17:28.67	223.54	27.22	-39.6	-41.7	14.3	7.00e-07	0	61	0	1653604352	51	4440
2026-01-17 00:17:29.68	223.44	27.06	-39.7	-41.7	14.2	0.00e+00	0	61	0	1656750080	51	4438
2026-01-17 00:17:30.69	223.34	26.89	-39.6	-41.7	14.3	7.00e-07	0	61	0	1659895808	51	4425
2026-01-17 00:17:31.70	223.23	26.73	-39.7	-41.8	14.1	1.50e-06	0	61	0	1663041536	51	4485
2026-01-17 00:17:32.71	223.13	26.57	-39.8	-42.0	14.0	2.20e-06	0	61	0	1666187264	51	4578
2026-01-17 00:17:33.72	223.03	26.41	-39.9	-42.1	13.9	3.80e-06	0	61	0	1669332992	51	4622
2026-01-17 00:17:34.73	222.93	26.25	-39.9	-42.2	13.8	6.10e-06	0	61	0	1672478720	51	4663
2026-01-17 00:17:35.74	222.84	26.09	-40.0	-42.2	13.8	6.10e-06	0	61	0	1675624448	51	4692
2026-01-17 00:17:36.75	222.74	25.93	-40.0	-42.3	13.7	5.30e-06	0	61	0	1678770176	51	4722
2026-01-17 00:17:37.76	222.64	25.77	-39.9	-42.1	13.9	3.80e-06	0	60	0	1681915904	51	4645
2026-01-17 00:17:38.77	222.55	25.61	-39.9	-42.2	13.9	4.50e-06	0	61	0	1685061632	51	4655
2026-01-17 00:17:39.78	222.45	25.46	-39.8	-42.0	14.0	2.20e-06	0	61	0	1688207360	51	4583
2026-01-17 00:17:40.79	222.36	25.30	-39.8	-42.0	14.0	2.20e-06	0	61	0	1691353088	51	4580
2026-01-17 00:17:41.80	222.27	25.15	-39.8	-42.0	14.0	2.20e-06	0	61	0	1695547392	51	4568
2026-01-17 00:17:42.81	222.18	24.99	-39.8	-41.9	14.0	7.00e-07	0	61	0	1698693120	51	4543
2026-01-17 00:17:43.82	222.09	24.84	-39.8	-41.9	14.1	1.50e-06	0	61	0	1701838848	51	4532
2026-01-17 00:17:44.83	222.00	24.69	-39.7	-41.8	14.2	7.00e-07	0	61	0	1703936000	51	4467
2026-01-17 00:17:45.84	221.91	24.53	-39.6	-41.7	14.3	0.00e+00	0	61	0	1707081728	51	4421
2026-01-17 00:17:46.85	221.82	24.38	-39.6	-41.6	14.3	2.20e-06	0	61	0	1711276032	51	4383
2026-01-17 00:17:47.86	221.73	24.23	-39.5	-41.5	14.5	7.00e-07	0	61	0	1714421760	50	4572
2026-01-17 00:17:48.87	221.65	24.08	-39.4	-41.5	14.5	0.00e+00	0	61	0	1717567488	50	4547
2026-01-17 00:17:49.88	221.56	23.94	-39.4	-41.4	14.5	7.00e-07	0	61	0	1720713216	50	4521
2026-01-17 00:17:50.89	221.48	23.79	-39.4	-41.4	14.6	7.00e-07	0	61	0	1723858944	50	4495
2026-01-17 00:17:51.90	221.39	23.64	-39.3	-41.3	14.7	0.00e+00	0	61	0	1727004672	50	4466
2026-01-17 00:17:52.91	221.31	23.49	-39.4	-41.4	14.6	7.00e-07	0	61	0	1730150400	50	4499
2026-01-17 00:17:53.92	221.23	23.35	-39.3	-41.3	14.7	1.50e-06	0	61	0	1733296128	50	4452
2026-01-17 00:17:54.93	221.15	23.20	-39.3	-41.3	14.6	0.00e+00	0	61	0	1736441856	50	4467
2026-01-17 00:17:55.94	221.07	23.06	-39.4	-41.4	14.5	7.00e-07	0	61	0	1739587584	50	4543
2026-01-17 00:17:56.96	220.99	22.92	-39.5	-41.5	14.4	0.00e+00	0	61	0	1742733312	50	4570
2026-01-17 00:17:57.96	220.91	22.77	-39.5	-41.6	14.3	7.00e-07	0	61	0	1745879040	50	4630
2026-01-17 00:17:58.97	220.83	22.63	-39.7	-41.8	14.2	1.50e-06	0	61	0	1749024768	50	4712
2026-01-17 00:17:59.98	220.75	22.49	-39.7	-41.8	14.1	7.00e-07	0	61	0	1752170496	50	4758
2026-01-17 00:18:00.99	220.68	22.35	-39.8	-41.9	14.0	1.50e-06	0	61	0	1755316224	50	4809
2026-01-17 00:18:02.00	220.60	22.21	-39.9	-42.1	13.8	1.50e-06	0	61	0	1758461952	50	4905
2026-01-17 00:18:03.01	220.52	22.07	-39.9	-42.1	13.9	3.00e-06	0	61	0	1761607680	50	4887
2026-01-17 00:18:04.02	220.45	21.94	-39.9	-42.2	13.7	4.50e-06	0	61	0	1764753408	50	4947
2026-01-17 00:18:05.03	220.37	21.80	-39.9	-42.1	13.8	5.30e-06	0	61	0	1767899136	50	4923
2026-01-17 00:18:06.04	220.30	21.66	-39.9	-42.1	13.8	6.10e-06	0	61	0	1771044864	50	4906
2026-01-17 00:18:07.05	220.23	21.52	-39.9	-42.1	13.8	5.30e-06	0	61	0	1774190592	50	4899
2026-01-17 00:18:08.06	220.16	21.39	-39.9	-42.1	13.8	4.50e-06	0	61	0	1777336320	50	4895
2026-01-17 00:18:09.07	220.09	21.25	-39.8	-42.1	13.8	3.80e-06	0	61	0	1780482048	50	4882
2026-01-17 00:18:10.08	220.01	21.12	-39.8	-42.1	13.9	1.50e-06	0	61	0	1783627776	50	4877
2026-01-17 00:18:11.09	219.94	20.99	-39.9	-42.1	13.9	3.80e-06	0	61	0	1786773504	50	4877
2026-01-17 00:18:12.10	219.87	20.85	-39.8	-42.1	13.8	3.00e-06	0	61	0	1789919232	50	4889
2026-01-17 00:18:13.11	219.81	20.72	-39.8	-42.0	13.9	8.30e-06	0	61	0	1793064960	50	4851
2026-01-17 00:18:14.12	219.74	20.59	-39.8	-42.0	13.9	4.50e-06	0	61	0	1796210688	50	4851
2026-01-17 00:18:15.13	219.67	20.46	-39.9	-42.1	13.8	5.30e-06	0	61	0	1799356416	50	4891
2026-01-17 00:18:16.14	219.60	20.33	-39.8	-42.1	13.8	5.30e-06	0	61	0	1802502144	50	4881
2026-01-17 00:18:17.15	219.54	20.20	-39.8	-42.0	13.8	3.00e-06	0	61	0	1805647872	50	4868
2026-01-17 00:18:18.16	219.47	20.07	-39.8	-42.0	13.9	6.80e-06	0	61	0	1808793600	50	4842
2026-01-17 00:18:19.17	219.41	19.94	-39.8	-42.0	13.9	3.80e-06	0	61	0	1811939328	50	4823
2026-01-17 00:18:20.19	219.34	19.81	-39.8	-42.0	13.9	2.20e-06	0	61	0	1815085056	50	4844
2026-01-17 00:18:21.19	219.28	19.69	-39.8	-42.0	13.8	2.20e-06	0	61	0	1818230784	50	4858
2026-01-17 00:18:22.21	219.21	19.56	-39.8	-42.0	13.8	3.80e-06	0	61	0	1821376512	50	4856
2026-01-17 00:18:23.22	219.15	19.43	-39.8	-42.0	13.8	6.10e-06	0	61	0	1824522240	50	4860
2026-01-17 00:18:24.22	219.09	19.31	-39.8	-42.1	13.8	6.10e-06	0	61	0	1827667968	50	4876
2026-01-17 00:18:25.23	219.02	19.19	-39.8	-42.0	13.8	3.00e-06	0	61	0	1830813696	50	4844
2026-01-17 00:18:26.24	218.96	19.06	-39.8	-42.0	13.8	6.10e-06	0	61	0	1833959424	50	4855
2026-01-17 00:18:27.25	218.90	18.94	-39.8	-42.0	13.8	7.60e-06	0	61	0	1837105152	50	4832
2026-01-17 00:18:28.26	218.84	18.81	-39.8	-42.0	13.8	4.50e-06	0	61	0	1840250880	50	4849
2026-01-17 00:18:29.27	218.78	18.69	-39.7	-41.9	13.9	2.20e-06	0	61	0	1843396608	50	4798
2026-01-17 00:18:30.28	218.72	18.57	-39.7	-41.9	13.8	3.00e-06	0	61	0	1846542336	50	4814
2026-01-17 00:18:31.29	218.66	18.45	-39.7	-41.9	13.9	5.30e-06	0	61	0	1849688064	50	4774
2026-01-17 00:18:32.30	218.60	18.33	-39.7	-41.9	13.9	6.10e-06	0	61	0	1852833792	50	4769
2026-01-17 00:18:33.31	218.55	18.21	-39.7	-41.9	13.9	5.30e-06	0	61	0	1855979520	50	4777
2026-01-17 00:18:34.32	218.49	18.09	-39.7	-41.9	13.9	3.80e-06	0	61	0	1859125248	50	4774
2026-01-17 00:18:35.33	218.43	17.97	-39.7	-41.9	13.9	2.20e-06	0	61	0	1862270976	50	4776
2026-01-17 00:18:36.34	218.38	17.85	-39.7	-41.9	13.9	1.50e-06	0	61	0	1865416704	50	4779
2026-01-17 00:18:37.36	218.32	17.73	-39.7	-42.0	13.8	2.20e-06	0	61	0	1868562432	50	4816
2026-01-17 00:18:38.37	218.26	17.61	-39.8	-42.0	13.8	4.50e-06	0	61	0	1871708160	50	4844
2026-01-17 00:18:39.38	218.21	17.50	-39.8	-42.0	13.8	3.00e-06	0	61	0	1874853888	50	4856
2026-01-17 00:18:40.39	218.15	17.38	-39.8	-42.1	13.7	5.30e-06	0	61	0	1877999616	50	4871
2026-01-17 00:18:41.40	218.10	17.27	-39.8	-42.1	13.7	4.50e-06	0	61	0	1881145344	50	4892
2026-01-17 00:18:42.41	218.04	17.15	-39.9	-42.2	13.6	9.10e-06	0	61	0	1884291072	50	4940
2026-01-17 00:18:43.42	217.99	17.04	-39.9	-42.2	13.6	9.10e-06	0	61	0	1887436800	50	4957
2026-01-17 00:18:44.43	217.94	16.92	-39.9	-42.3	13.5	1.22e-05	0	61	0	1890582528	50	4985
2026-01-17 00:18:45.44	217.89	16.81	-40.0	-42.3	13.4	2.05e-05	0	61	0	1893728256	50	5014
2026-01-17 00:18:46.45	217.83	16.69	-40.0	-42.3	13.4	1.14e-05	0	61	0	1896873984	50	5026
2026-01-17 00:18:47.46	217.78	16.58	-40.1	-42.4	13.3	1.75e-05	0	61	0	1900019712	50	5080
2026-01-17 00:18:48.47	217.73	16.47	-40.0	-42.4	13.4	2.44e-05	0	61	0	1903165440	50	5065
2026-01-17 00:18:49.48	217.68	16.36	-40.0	-42.4	13.3	2.13e-05	0	61	0	1906311168	50	5065
2026-01-17 00:18:50.49	217.63	16.25	-40.1	-42.5	13.3	2.59e-05	0	61	0	1909456896	50	5134
2026-01-17 00:18:51.50	217.58	16.14	-40.2	-42.6	13.2	2.13e-05	0	61	0	1912602624	50	5186
2026-01-17 00:18:52.51	217.53	16.02	-40.2	-42.6	13.2	2.05e-05	0	61	0	1915748352	50	5180
2026-01-17 00:18:53.52	217.48	15.92	-40.2	-42.6	13.1	3.20e-05	0	61	0	1918894080	51	4926
2026-01-17 00:18:54.53	217.43	15.81	-40.2	-42.6	13.1	3.58e-05	0	61	0	1922039808	51	4921
2026-01-17 00:18:55.54	217.38	15.70	-40.2	-42.7	13.1	2.97e-05	0	61	0	1925185536	51	4935
2026-01-17 00:18:56.55	217.33	15.59	-40.2	-42.7	13.0	4.11e-05	0	61	0	1928331264	51	4972
2026-01-17 00:18:57.56	217.28	15.48	-40.2	-42.7	13.0	3.58e-05	0	61	0	1931476992	51	4953
2026-01-17 00:18:58.57	217.24	15.37	-40.2	-42.7	13.0	3.89e-05	0	61	0	1934622720	51	4962
2026-01-17 00:18:59.58	217.19	15.27	-40.2	-42.7	13.0	4.19e-05	0	61	0	1937768448	51	4963
2026-01-17 00:19:00.59	217.14	15.16	-40.3	-42.8	12.9	5.18e-05	0	61	0	1940914176	51	5003
2026-01-17 00:19:01.60	217.10	15.05	-40.3	-42.8	12.9	4.57e-05	0	61	0	1944059904	51	4994
2026-01-17 00:19:02.61	217.05	14.95	-40.2	-42.7	13.0	4.57e-05	0	61	0	1947205632	51	4972
2026-01-17 00:19:03.62	217.00	14.84	-40.2	-42.7	13.0	3.81e-05	0	61	0	1950351360	51	4961
2026-01-17 00:19:04.63	216.96	14.74	-40.2	-42.7	13.0	5.18e-05	0	61	0	1953497088	51	4960
2026-01-17 00:19:05.64	216.91	14.63	-40.3	-42.8	12.9	4.34e-05	0	61	0	1956642816	51	4987
2026-01-17 00:19:06.65	216.87	14.53	-40.2	-42.7	12.9	4.34e-05	0	61	0	1959788544	51	4980
