passes_logs/2026/01/17/R2.0S_Moscow/R2.0S_Moscow__20260117_032020_FENGYUN_3E_rec.log

#Pass ID: 20260117_032020_FENGYUN 3E
#Satellite: FENGYUN 3E
#Configuration: FENGYUN 3E
#almurnet v.1.7.20251203
#Start time: 2026-01-17 03:20:20

#Version: 2.2.20231116
#Station: R2.0S_Moscow
#Location: 37.707566 lon 55.798166 lat
#TLE: 1 49008U 21062A   26016.27412410  .00000434  00000+0  22502-3 0  9992
#TLE: 2 49008  98.7486  21.3880 0002096 134.9721 225.1626 14.19886506235025

#Time	Az	El	Level	Level2	SNR	BER	BlckErr	Temp	State	Recorded	gain1	gain2
2026-01-17 03:20:20.45	19.18	2.00	-41.9	-53.2	3.8	8.46e-01	0	51	0	0	54	13138
2026-01-17 03:20:21.46	19.21	2.06	-41.9	-53.2	3.8	8.47e-01	0	51	104	0	54	13117
2026-01-17 03:20:22.47	19.24	2.13	-42.0	-53.1	3.8	8.47e-01	0	52	104	0	54	13091
2026-01-17 03:20:23.48	19.27	2.19	-42.0	-53.2	3.8	8.46e-01	0	52	104	0	54	13114
2026-01-17 03:20:24.49	19.31	2.25	-41.9	-53.2	3.8	8.46e-01	0	52	104	0	54	13131
2026-01-17 03:20:25.50	19.34	2.32	-42.0	-53.1	3.8	8.46e-01	0	52	104	0	54	13106
2026-01-17 03:20:26.51	19.37	2.38	-42.0	-53.1	3.8	8.47e-01	0	52	104	0	54	13104
2026-01-17 03:20:27.52	19.40	2.44	-41.9	-53.1	3.8	8.45e-01	0	52	104	0	54	13104
2026-01-17 03:20:28.53	19.44	2.51	-41.9	-53.2	3.8	8.47e-01	0	52	104	0	54	13145
2026-01-17 03:20:29.54	19.47	2.57	-41.9	-53.2	3.8	8.47e-01	0	52	104	0	54	13140
2026-01-17 03:20:30.56	19.50	2.64	-41.9	-53.2	3.8	8.46e-01	0	52	104	0	54	13135
2026-01-17 03:20:31.57	19.53	2.70	-41.9	-53.1	3.8	8.46e-01	0	53	104	0	54	13081
2026-01-17 03:20:32.58	19.57	2.76	-41.9	-53.2	3.8	8.46e-01	0	52	104	0	54	13112
2026-01-17 03:20:33.59	19.60	2.83	-41.9	-53.1	3.8	8.47e-01	0	53	104	0	54	13080
2026-01-17 03:20:34.60	19.63	2.89	-42.0	-53.2	3.8	8.45e-01	0	53	104	0	54	13111
2026-01-17 03:20:35.61	19.67	2.96	-41.9	-53.1	3.8	8.46e-01	0	53	104	0	54	13091
2026-01-17 03:20:36.62	19.70	3.02	-41.9	-53.1	3.8	8.46e-01	0	53	104	0	54	13087
2026-01-17 03:20:37.63	19.73	3.09	-41.9	-53.1	3.8	8.47e-01	0	53	104	0	54	13108
2026-01-17 03:20:38.64	19.77	3.15	-41.9	-53.2	3.8	8.46e-01	0	53	104	0	54	13111
2026-01-17 03:20:39.65	19.80	3.22	-42.0	-53.1	3.8	8.47e-01	0	53	104	0	54	13105
2026-01-17 03:20:40.66	19.83	3.28	-41.9	-53.2	3.8	8.45e-01	0	53	104	0	54	13122
2026-01-17 03:20:41.67	19.87	3.35	-42.0	-53.1	3.8	8.46e-01	0	53	104	0	54	13102
2026-01-17 03:20:42.68	19.90	3.41	-41.9	-53.1	3.8	8.46e-01	0	53	104	0	54	13082
2026-01-17 03:20:43.70	19.94	3.48	-41.9	-53.1	3.8	8.45e-01	0	53	104	0	54	13069
2026-01-17 03:20:44.71	19.97	3.55	-41.9	-53.1	3.8	8.46e-01	0	53	104	0	54	13105
2026-01-17 03:20:45.72	20.01	3.61	-42.0	-53.2	3.8	8.47e-01	0	53	104	0	54	13120
2026-01-17 03:20:46.73	20.04	3.68	-41.9	-53.2	3.8	8.46e-01	0	54	104	0	54	13126
2026-01-17 03:20:47.74	20.08	3.75	-41.9	-53.1	3.8	8.45e-01	0	54	104	0	54	13072
2026-01-17 03:20:48.75	20.11	3.81	-41.9	-53.1	3.8	8.46e-01	0	54	104	0	54	13085
2026-01-17 03:20:49.76	20.15	3.88	-41.9	-53.1	3.8	8.45e-01	0	54	104	0	54	13069
2026-01-17 03:20:50.77	20.18	3.95	-41.9	-53.1	3.8	8.46e-01	0	54	104	0	54	13102
2026-01-17 03:20:51.78	20.22	4.01	-41.9	-53.1	3.8	8.46e-01	0	54	104	0	54	13085
2026-01-17 03:20:52.79	20.25	4.08	-41.9	-53.2	3.8	8.46e-01	0	54	104	0	54	13125
2026-01-17 03:20:53.80	20.29	4.15	-41.9	-53.1	3.8	8.46e-01	0	54	104	0	54	13048
2026-01-17 03:20:54.81	20.32	4.22	-41.9	-53.1	3.8	8.45e-01	0	54	104	0	54	13070
2026-01-17 03:20:55.82	20.36	4.28	-41.9	-53.1	3.8	8.46e-01	0	54	104	0	54	13093
2026-01-17 03:20:56.83	20.40	4.35	-41.9	-53.1	3.8	8.46e-01	0	54	104	0	54	13068
2026-01-17 03:20:57.84	20.43	4.42	-42.0	-53.2	3.8	8.46e-01	0	55	104	0	54	13143
2026-01-17 03:20:58.85	20.47	4.49	-41.9	-53.1	3.8	8.46e-01	0	54	104	0	54	13079
2026-01-17 03:20:59.86	20.51	4.56	-41.9	-53.1	3.8	8.47e-01	0	54	104	0	54	13093
2026-01-17 03:21:00.88	20.54	4.63	-41.9	-53.1	3.8	8.47e-01	0	54	104	0	54	13057
2026-01-17 03:21:01.89	20.58	4.69	-41.9	-53.2	3.8	8.46e-01	0	55	104	0	54	13122
2026-01-17 03:21:02.90	20.62	4.76	-41.9	-53.1	3.8	8.46e-01	0	55	104	0	54	13070
2026-01-17 03:21:03.91	20.65	4.83	-41.9	-53.1	3.8	8.46e-01	0	54	104	0	54	13044
2026-01-17 03:21:04.92	20.69	4.90	-41.9	-53.1	3.8	8.47e-01	0	55	104	0	54	13057
2026-01-17 03:21:05.93	20.73	4.97	-42.0	-53.1	3.8	8.46e-01	0	55	104	0	54	13108
2026-01-17 03:21:06.94	20.77	5.04	-41.9	-53.1	3.8	8.47e-01	0	55	104	0	54	13096
2026-01-17 03:21:07.95	20.80	5.11	-41.9	-53.1	3.8	8.46e-01	0	55	104	0	54	13089
2026-01-17 03:21:08.96	20.84	5.18	-41.9	-53.1	3.8	8.46e-01	0	55	104	0	54	13073
2026-01-17 03:21:09.97	20.88	5.25	-41.9	-53.1	3.8	8.46e-01	0	55	104	0	54	13079
2026-01-17 03:21:10.98	20.92	5.32	-41.9	-53.1	3.8	8.46e-01	0	55	104	0	54	13077
2026-01-17 03:21:11.99	20.96	5.39	-41.9	-53.2	3.8	8.45e-01	0	55	104	0	54	13135
2026-01-17 03:21:13.01	21.00	5.46	-41.9	-53.1	3.8	8.46e-01	0	55	104	0	54	13045
2026-01-17 03:21:14.02	21.03	5.53	-41.9	-53.1	3.8	8.46e-01	0	55	104	0	54	13062
2026-01-17 03:21:15.03	21.07	5.60	-41.9	-53.1	3.8	8.46e-01	0	55	104	0	54	13090
2026-01-17 03:21:16.04	21.11	5.68	-41.9	-53.2	3.8	8.46e-01	0	55	104	0	54	13112
2026-01-17 03:21:17.05	21.15	5.75	-41.9	-53.1	3.8	8.46e-01	0	55	104	0	54	13108
2026-01-17 03:21:18.06	21.19	5.82	-41.9	-53.1	3.8	8.47e-01	0	55	104	0	54	13067
2026-01-17 03:21:19.07	21.23	5.89	-41.9	-53.2	3.8	8.46e-01	0	56	104	0	54	13115
2026-01-17 03:21:20.08	21.27	5.96	-41.9	-53.1	3.8	8.45e-01	0	56	104	0	54	13083
2026-01-17 03:21:21.09	21.31	6.03	-41.9	-53.1	3.8	8.46e-01	0	56	104	0	54	13062
2026-01-17 03:21:22.11	21.35	6.11	-41.9	-53.1	3.8	8.47e-01	0	55	104	0	54	13092
2026-01-17 03:21:23.12	21.39	6.18	-41.9	-53.1	3.8	8.46e-01	0	56	104	0	54	13043
2026-01-17 03:21:24.13	21.43	6.25	-41.9	-53.1	3.8	8.47e-01	0	56	104	0	54	13013
2026-01-17 03:21:25.14	21.47	6.33	-41.9	-53.1	3.8	8.46e-01	0	55	104	0	54	13057
2026-01-17 03:21:26.15	21.51	6.40	-41.9	-53.1	3.8	8.46e-01	0	56	104	0	54	13070
2026-01-17 03:21:27.16	21.55	6.47	-41.9	-53.1	3.8	8.46e-01	0	56	104	0	54	13051
2026-01-17 03:21:28.17	21.60	6.55	-41.9	-53.2	3.8	8.47e-01	0	56	104	0	54	13119
2026-01-17 03:21:29.18	21.64	6.62	-41.9	-53.1	3.8	8.47e-01	0	56	104	0	54	13075
2026-01-17 03:21:30.19	21.68	6.69	-41.9	-53.1	3.8	8.46e-01	0	56	104	0	54	13060
2026-01-17 03:21:31.20	21.72	6.77	-41.9	-53.1	3.8	8.46e-01	0	56	104	0	54	12990
2026-01-17 03:21:32.21	21.76	6.84	-41.9	-53.0	3.8	8.45e-01	0	56	104	0	54	12950
2026-01-17 03:21:33.22	21.80	6.92	-41.9	-53.0	3.8	8.46e-01	0	56	104	0	54	12829
2026-01-17 03:21:34.24	21.85	6.99	-41.9	-52.8	3.8	8.46e-01	0	56	104	0	54	12641
2026-01-17 03:21:35.25	21.89	7.07	-41.9	-52.8	3.8	8.47e-01	0	56	104	0	54	12625
2026-01-17 03:21:36.26	21.93	7.14	-41.9	-52.9	3.8	8.46e-01	0	56	104	0	54	12759
2026-01-17 03:21:37.27	21.98	7.22	-41.9	-53.1	3.8	8.46e-01	0	56	104	0	54	12965
2026-01-17 03:21:38.28	22.02	7.29	-41.9	-53.1	3.8	8.45e-01	0	56	104	0	54	12966
2026-01-17 03:21:39.29	22.06	7.37	-41.9	-53.0	3.8	8.46e-01	0	56	104	0	54	12846
2026-01-17 03:21:40.30	22.11	7.45	-41.9	-52.8	3.8	8.47e-01	0	56	104	0	54	12612
2026-01-17 03:21:41.31	22.15	7.52	-41.8	-52.5	3.8	8.45e-01	0	57	104	0	54	12151
2026-01-17 03:21:42.32	22.19	7.60	-41.7	-51.5	3.8	8.46e-01	0	56	104	0	54	10797
2026-01-17 03:21:43.33	22.24	7.67	-41.5	-49.7	4.1	8.40e-01	0	56	0	0	54	8822
2026-01-17 03:21:44.34	22.28	7.75	-41.1	-48.1	4.7	8.15e-01	0	57	0	0	53	7743
2026-01-17 03:21:45.35	22.33	7.83	-40.9	-47.3	5.2	7.69e-01	0	57	0	0	52	7458
2026-01-17 03:21:46.36	22.37	7.91	-40.7	-46.4	5.7	6.98e-01	0	57	0	0	52	6774
2026-01-17 03:21:47.37	22.42	7.98	-40.5	-45.8	6.2	3.37e-01	0	57	0	6291456	52	6311
2026-01-17 03:21:48.38	22.46	8.06	-40.5	-45.2	7.0	2.05e-01	0	57	0	13631488	51	6250
2026-01-17 03:21:49.39	22.51	8.14	-41.9	-49.0	4.6	8.14e-01	0	57	0	15728640	54	8141
2026-01-17 03:21:50.40	22.55	8.22	-41.0	-47.9	4.4	8.44e-01	0	57	104	15728640	53	7629
2026-01-17 03:21:51.41	22.60	8.30	-40.1	-43.3	10.0	1.64e-02	0	57	0	20971520	50	5288
2026-01-17 03:21:52.42	22.64	8.37	-38.7	-41.1	12.2	1.07e-02	0	57	0	28311552	48	4609
2026-01-17 03:21:53.43	22.69	8.45	-39.7	-43.4	8.8	1.58e-01	0	57	0	35651584	50	5364
2026-01-17 03:21:54.44	22.74	8.53	-37.8	-40.0	12.9	5.14e-05	0	57	0	42991616	46	4562
2026-01-17 03:21:55.45	22.78	8.61	-38.0	-40.2	12.8	3.89e-05	0	57	0	49283072	46	4659
2026-01-17 03:21:56.46	22.83	8.69	-38.5	-40.8	12.2	8.58e-05	0	57	0	56623104	46	5041
2026-01-17 03:21:57.46	22.88	8.77	-38.9	-41.4	11.6	8.91e-04	0	57	0	65011712	47	5087
2026-01-17 03:21:58.47	22.93	8.85	-38.7	-41.1	12.0	3.76e-04	0	57	0	71303168	47	4915
2026-01-17 03:21:59.49	22.97	8.93	-38.5	-40.8	12.4	1.54e-04	0	57	0	78643200	47	4734
2026-01-17 03:22:00.50	23.02	9.01	-38.2	-40.3	13.0	5.14e-05	0	57	0	85983232	47	4461
2026-01-17 03:22:01.51	23.07	9.09	-38.3	-40.5	12.9	3.43e-05	0	57	0	93323264	47	4551
2026-01-17 03:22:02.51	23.12	9.17	-38.2	-40.4	13.1	2.40e-05	0	57	0	100663296	47	4503
2026-01-17 03:22:03.53	23.17	9.26	-38.3	-40.4	13.0	4.11e-05	0	57	0	108003328	47	4545
2026-01-17 03:22:04.53	23.22	9.34	-38.3	-40.4	13.1	3.31e-05	0	57	0	115343360	47	4541
2026-01-17 03:22:05.54	23.27	9.42	-38.0	-40.0	13.7	4.50e-06	0	57	0	122683392	47	4297
2026-01-17 03:22:06.56	23.32	9.50	-38.2	-40.2	13.4	8.00e-06	0	57	0	130023424	47	4437
2026-01-17 03:22:07.56	23.36	9.58	-38.3	-40.3	13.4	1.94e-05	0	57	0	137363456	47	4449
2026-01-17 03:22:08.57	23.41	9.67	-38.0	-39.9	13.8	3.40e-06	0	57	0	144703488	47	4276
2026-01-17 03:22:09.58	23.46	9.75	-38.3	-40.3	13.5	8.00e-06	0	58	0	152043520	47	4468
2026-01-17 03:22:10.59	23.52	9.83	-38.4	-40.4	13.5	1.14e-05	0	57	0	159383552	47	4512
2026-01-17 03:22:11.61	23.57	9.92	-38.3	-40.3	13.6	9.10e-06	0	58	0	166723584	47	4462
2026-01-17 03:22:12.61	23.62	10.00	-38.6	-40.7	13.2	1.83e-05	0	58	0	174063616	47	4657
2026-01-17 03:22:13.62	23.67	10.08	-38.4	-40.4	13.6	4.50e-06	0	58	0	181403648	47	4524
2026-01-17 03:22:14.63	23.72	10.17	-38.4	-40.3	13.7	6.80e-06	0	58	0	188743680	47	4472
2026-01-17 03:22:15.64	23.77	10.25	-38.5	-40.4	13.6	6.80e-06	0	58	0	196083712	47	4532
2026-01-17 03:22:16.65	23.82	10.34	-38.3	-40.2	13.8	1.10e-06	0	58	0	202375168	47	4414
2026-01-17 03:22:17.66	23.88	10.42	-38.1	-39.9	14.1	1.10e-06	0	58	0	210763776	47	4279
2026-01-17 03:22:18.67	23.93	10.51	-38.2	-40.1	14.0	2.20e-06	0	57	0	218103808	46	4631
2026-01-17 03:22:19.68	23.98	10.59	-38.1	-39.9	14.2	1.10e-06	0	58	0	224395264	46	4524
2026-01-17 03:22:20.69	24.04	10.68	-38.1	-39.9	14.2	0.00e+00	0	58	0	231735296	46	4512
2026-01-17 03:22:21.70	24.09	10.77	-38.1	-39.9	14.3	1.10e-06	0	58	0	239075328	46	4519
2026-01-17 03:22:22.71	24.14	10.85	-38.2	-40.1	14.1	0.00e+00	0	58	0	246415360	46	4601
2026-01-17 03:22:23.72	24.20	10.94	-38.2	-40.0	14.3	0.00e+00	0	58	0	253755392	46	4552
2026-01-17 03:22:24.73	24.25	11.03	-38.2	-40.0	14.2	0.00e+00	0	58	0	261095424	46	4563
2026-01-17 03:22:25.74	24.31	11.11	-38.1	-39.9	14.3	1.10e-06	0	58	0	268435456	46	4500
2026-01-17 03:22:26.74	24.36	11.20	-37.9	-39.7	14.6	1.10e-06	0	58	0	275775488	46	4394
2026-01-17 03:22:27.75	24.42	11.29	-38.0	-39.8	14.5	1.10e-06	0	58	0	283115520	46	4442
2026-01-17 03:22:28.76	24.47	11.38	-38.2	-40.0	14.3	0.00e+00	0	58	0	290455552	46	4555
2026-01-17 03:22:29.77	24.53	11.47	-38.0	-39.8	14.5	0.00e+00	0	58	0	297795584	46	4448
2026-01-17 03:22:30.78	24.58	11.55	-38.0	-39.7	14.5	0.00e+00	0	58	0	305135616	46	4439
2026-01-17 03:22:31.79	24.64	11.64	-38.0	-39.7	14.6	0.00e+00	0	58	0	312475648	46	4405
2026-01-17 03:22:32.80	24.70	11.73	-38.0	-39.7	14.6	0.00e+00	0	58	0	319815680	46	4418
2026-01-17 03:22:33.81	24.75	11.82	-38.2	-40.0	14.3	0.00e+00	0	58	0	327155712	46	4575
2026-01-17 03:22:34.82	24.81	11.91	-37.9	-39.7	14.7	0.00e+00	0	58	0	334495744	46	4398
2026-01-17 03:22:35.83	24.87	12.00	-37.9	-39.5	14.8	0.00e+00	0	58	0	341835776	46	4340
2026-01-17 03:22:36.84	24.93	12.09	-37.9	-39.6	14.8	0.00e+00	0	58	0	348127232	46	4362
2026-01-17 03:22:37.85	24.99	12.18	-37.9	-39.6	14.8	0.00e+00	0	58	0	355467264	46	4355
2026-01-17 03:22:38.86	25.05	12.28	-37.9	-39.5	14.8	0.00e+00	0	58	0	363855872	46	4324
2026-01-17 03:22:39.87	25.10	12.37	-37.7	-39.4	15.0	0.00e+00	0	58	0	370147328	46	4253
2026-01-17 03:22:40.89	25.16	12.46	-37.8	-39.4	15.0	0.00e+00	0	58	0	377487360	46	4260
2026-01-17 03:22:41.89	25.22	12.55	-37.8	-39.4	15.0	0.00e+00	0	59	0	384827392	46	4287
2026-01-17 03:22:42.90	25.28	12.64	-37.7	-39.3	15.1	0.00e+00	0	58	0	392167424	46	4240
2026-01-17 03:22:43.91	25.34	12.74	-37.8	-39.4	15.0	0.00e+00	0	58	0	399507456	46	4270
2026-01-17 03:22:44.92	25.41	12.83	-37.7	-39.3	15.1	0.00e+00	0	59	0	406847488	45	4465
2026-01-17 03:22:45.93	25.47	12.92	-37.8	-39.4	15.1	1.10e-06	0	59	0	414187520	45	4513
2026-01-17 03:22:46.94	25.53	13.02	-37.7	-39.3	15.1	0.00e+00	0	59	0	421527552	45	4490
2026-01-17 03:22:47.95	25.59	13.11	-37.7	-39.3	15.2	0.00e+00	0	58	0	428867584	45	4452
2026-01-17 03:22:48.96	25.65	13.21	-37.6	-39.3	15.2	0.00e+00	0	59	0	436207616	45	4444
2026-01-17 03:22:49.97	25.72	13.30	-37.6	-39.1	15.4	0.00e+00	0	59	0	443547648	45	4382
2026-01-17 03:22:50.98	25.78	13.40	-37.6	-39.2	15.3	0.00e+00	0	59	0	450887680	45	4423
2026-01-17 03:22:51.99	25.84	13.49	-37.6	-39.2	15.3	1.10e-06	0	58	0	458227712	45	4413
2026-01-17 03:22:53.00	25.91	13.59	-37.6	-39.1	15.4	0.00e+00	0	59	0	465567744	45	4387
2026-01-17 03:22:54.01	25.97	13.69	-37.6	-39.2	15.4	0.00e+00	0	59	0	472907776	45	4402
2026-01-17 03:22:55.02	26.04	13.78	-37.3	-38.9	15.7	0.00e+00	0	59	0	480247808	45	4254
2026-01-17 03:22:56.03	26.10	13.88	-37.5	-39.1	15.5	0.00e+00	0	59	0	487587840	45	4370
2026-01-17 03:22:57.04	26.17	13.98	-37.5	-39.0	15.5	0.00e+00	0	59	0	494927872	45	4335
2026-01-17 03:22:58.05	26.23	14.07	-37.4	-39.0	15.6	0.00e+00	0	59	0	501219328	45	4310
2026-01-17 03:22:59.06	26.30	14.17	-37.4	-38.9	15.7	0.00e+00	0	59	0	508559360	45	4270
2026-01-17 03:23:00.06	26.36	14.27	-37.6	-39.2	15.5	0.00e+00	0	59	0	516947968	45	4394
2026-01-17 03:23:01.08	26.43	14.37	-37.5	-39.0	15.6	0.00e+00	0	59	0	523239424	45	4330
2026-01-17 03:23:02.09	26.50	14.47	-37.4	-38.9	15.7	0.00e+00	0	59	0	530579456	45	4282
2026-01-17 03:23:03.09	26.57	14.57	-37.3	-38.8	15.8	0.00e+00	0	59	0	537919488	45	4234
2026-01-17 03:23:04.10	26.64	14.67	-37.3	-38.8	15.8	0.00e+00	0	59	0	545259520	45	4212
2026-01-17 03:23:05.12	26.70	14.77	-37.2	-38.7	15.9	0.00e+00	0	59	0	552599552	45	4181
2026-01-17 03:23:06.13	26.77	14.87	-37.3	-38.8	15.8	0.00e+00	0	59	0	559939584	44	4484
2026-01-17 03:23:07.13	26.84	14.97	-37.2	-38.7	15.9	0.00e+00	0	59	0	567279616	44	4418
2026-01-17 03:23:08.14	26.91	15.07	-37.3	-38.8	15.8	0.00e+00	0	59	0	574619648	44	4475
2026-01-17 03:23:09.15	26.98	15.17	-37.2	-38.6	16.0	0.00e+00	0	59	0	581959680	44	4391
2026-01-17 03:23:10.16	27.05	15.28	-37.0	-38.5	16.2	0.00e+00	0	59	0	589299712	44	4316
2026-01-17 03:23:11.17	27.13	15.38	-37.2	-38.7	15.9	0.00e+00	0	59	0	596639744	44	4425
2026-01-17 03:23:12.18	27.20	15.48	-37.2	-38.7	16.0	0.00e+00	0	59	0	603979776	44	4402
2026-01-17 03:23:13.19	27.27	15.59	-37.2	-38.7	16.0	0.00e+00	0	59	0	611319808	44	4395
2026-01-17 03:23:14.20	27.34	15.69	-37.2	-38.7	16.0	0.00e+00	0	59	0	618659840	44	4410
2026-01-17 03:23:15.21	27.42	15.79	-37.2	-38.7	16.0	0.00e+00	0	59	0	625999872	44	4416
2026-01-17 03:23:16.22	27.49	15.90	-37.1	-38.6	16.1	0.00e+00	0	59	0	633339904	44	4358
2026-01-17 03:23:17.23	27.57	16.00	-37.1	-38.5	16.1	0.00e+00	0	59	0	640679936	44	4338
2026-01-17 03:23:18.24	27.64	16.11	-37.1	-38.5	16.2	0.00e+00	0	59	0	648019968	44	4328
2026-01-17 03:23:19.25	27.72	16.22	-37.1	-38.5	16.2	0.00e+00	0	59	0	654311424	44	4314
2026-01-17 03:23:20.25	27.79	16.32	-37.1	-38.5	16.2	0.00e+00	0	59	0	661651456	44	4327
2026-01-17 03:23:21.26	27.87	16.43	-37.2	-38.6	16.1	0.00e+00	0	59	0	670040064	44	4377
2026-01-17 03:23:22.27	27.94	16.54	-37.0	-38.4	16.3	0.00e+00	0	59	0	676331520	44	4281
2026-01-17 03:23:23.28	28.02	16.64	-37.0	-38.4	16.4	0.00e+00	0	59	0	683671552	44	4257
2026-01-17 03:23:24.29	28.10	16.75	-37.0	-38.4	16.3	0.00e+00	0	59	0	691011584	44	4260
2026-01-17 03:23:25.30	28.18	16.86	-36.9	-38.3	16.4	0.00e+00	0	59	0	698351616	44	4218
2026-01-17 03:23:26.31	28.26	16.97	-37.4	-38.9	15.8	0.00e+00	0	59	0	705691648	44	4533
2026-01-17 03:23:27.33	28.34	17.08	-36.8	-38.2	16.6	0.00e+00	0	59	0	713031680	44	4157
2026-01-17 03:23:28.34	28.42	17.19	-36.8	-38.2	16.6	0.00e+00	0	59	0	720371712	44	4176
2026-01-17 03:23:29.34	28.50	17.30	-36.8	-38.2	16.6	0.00e+00	0	59	0	727711744	44	4155
2026-01-17 03:23:30.36	28.58	17.41	-36.8	-38.2	16.6	0.00e+00	0	59	0	735051776	44	4164
2026-01-17 03:23:31.37	28.66	17.52	-36.8	-38.2	16.6	0.00e+00	0	59	0	742391808	44	4162
2026-01-17 03:23:32.38	28.74	17.63	-36.5	-37.8	16.9	0.00e+00	0	59	0	749731840	43	4230
2026-01-17 03:23:33.39	28.83	17.75	-36.5	-37.8	16.8	0.00e+00	0	59	0	757071872	43	4226
2026-01-17 03:23:34.40	28.91	17.86	-36.5	-37.8	16.8	0.00e+00	0	59	0	764411904	43	4242
2026-01-17 03:23:35.41	28.99	17.97	-36.3	-37.6	17.0	0.00e+00	0	59	0	771751936	43	4144
2026-01-17 03:23:36.42	29.08	18.09	-36.3	-37.6	17.1	0.00e+00	0	59	0	779091968	43	4135
2026-01-17 03:23:37.43	29.16	18.20	-36.2	-37.5	17.2	0.00e+00	0	59	0	786432000	43	4095
2026-01-17 03:23:38.44	29.25	18.31	-36.3	-37.6	17.1	0.00e+00	0	60	0	793772032	43	4125
2026-01-17 03:23:39.45	29.34	18.43	-36.2	-37.5	17.2	0.00e+00	0	59	0	800063488	43	4085
2026-01-17 03:23:40.46	29.42	18.54	-36.3	-37.5	17.2	0.00e+00	0	59	0	808452096	43	4098
2026-01-17 03:23:41.47	29.51	18.66	-36.2	-37.4	17.3	0.00e+00	0	59	0	815792128	43	4048
2026-01-17 03:23:42.48	29.60	18.78	-36.3	-37.6	17.2	0.00e+00	0	60	0	822083584	42	4347
2026-01-17 03:23:43.49	29.69	18.89	-36.2	-37.4	17.3	0.00e+00	0	59	0	829423616	42	4290
2026-01-17 03:23:44.50	29.78	19.01	-36.2	-37.5	17.2	0.00e+00	0	59	0	836763648	42	4328
2026-01-17 03:23:45.51	29.87	19.13	-36.3	-37.6	17.2	0.00e+00	0	59	0	844103680	42	4345
2026-01-17 03:23:46.52	29.96	19.25	-36.3	-37.6	17.1	0.00e+00	0	59	0	851443712	42	4378
2026-01-17 03:23:47.53	30.05	19.37	-36.3	-37.6	17.2	0.00e+00	0	59	0	858783744	43	4101
2026-01-17 03:23:48.54	30.15	19.49	-36.2	-37.5	17.3	0.00e+00	0	59	0	866123776	43	4067
2026-01-17 03:23:49.55	30.24	19.61	-36.3	-37.5	17.2	0.00e+00	0	59	0	873463808	43	4091
2026-01-17 03:23:50.56	30.33	19.73	-36.2	-37.5	17.2	0.00e+00	0	59	0	880803840	43	4090
2026-01-17 03:23:51.57	30.43	19.85	-36.2	-37.5	17.2	0.00e+00	0	59	0	888143872	43	4087
2026-01-17 03:23:52.58	30.52	19.97	-36.3	-37.6	17.3	0.00e+00	0	60	0	895483904	42	4346
2026-01-17 03:23:53.59	30.62	20.09	-36.1	-37.4	17.4	0.00e+00	0	59	0	902823936	42	4251
2026-01-17 03:23:54.60	30.72	20.21	-36.2	-37.5	17.3	0.00e+00	0	59	0	910163968	42	4330
2026-01-17 03:23:55.62	30.81	20.34	-36.3	-37.6	17.2	0.00e+00	0	60	0	917504000	42	4347
2026-01-17 03:23:56.63	30.91	20.46	-36.4	-37.7	17.1	0.00e+00	0	60	0	924844032	42	4406
2026-01-17 03:23:57.63	31.01	20.59	-36.4	-37.7	17.1	0.00e+00	0	59	0	932184064	42	4435
2026-01-17 03:23:58.64	31.11	20.71	-36.3	-37.7	17.1	0.00e+00	0	60	0	939524096	43	4157
2026-01-17 03:23:59.65	31.21	20.84	-36.4	-37.7	17.1	0.00e+00	0	59	0	946864128	43	4187
2026-01-17 03:24:00.66	31.31	20.96	-36.4	-37.7	17.1	0.00e+00	0	60	0	954204160	43	4186
2026-01-17 03:24:01.67	31.41	21.09	-36.4	-37.7	17.1	0.00e+00	0	60	0	961544192	43	4165
2026-01-17 03:24:02.68	31.52	21.21	-36.4	-37.7	17.1	0.00e+00	0	60	0	968884224	43	4189
2026-01-17 03:24:03.69	31.62	21.34	-36.3	-37.6	17.2	0.00e+00	0	60	0	975175680	43	4141
2026-01-17 03:24:04.70	31.73	21.47	-36.2	-37.5	17.4	0.00e+00	0	59	0	982515712	43	4059
2026-01-17 03:24:05.71	31.83	21.60	-36.2	-37.4	17.4	0.00e+00	0	60	0	990904320	43	4049
2026-01-17 03:24:06.72	31.94	21.73	-36.1	-37.3	17.5	0.00e+00	0	60	0	997195776	43	3984
2026-01-17 03:24:07.73	32.04	21.86	-36.1	-37.4	17.5	0.00e+00	0	59	0	1004535808	43	4007
2026-01-17 03:24:08.74	32.15	21.99	-36.1	-37.3	17.5	0.00e+00	0	60	0	1011875840	42	4237
2026-01-17 03:24:09.75	32.26	22.12	-36.0	-37.3	17.6	0.00e+00	0	60	0	1019215872	42	4219
2026-01-17 03:24:10.76	32.37	22.25	-36.0	-37.2	17.6	0.00e+00	0	60	0	1026555904	42	4191
2026-01-17 03:24:11.77	32.48	22.38	-36.0	-37.2	17.7	0.00e+00	0	59	0	1033895936	42	4167
2026-01-17 03:24:12.78	32.59	22.51	-35.9	-37.1	17.7	0.00e+00	0	60	0	1041235968	42	4136
2026-01-17 03:24:13.79	32.71	22.65	-36.0	-37.2	17.7	0.00e+00	0	60	0	1048576000	42	4165
2026-01-17 03:24:14.80	32.82	22.78	-35.9	-37.1	17.7	0.00e+00	0	60	0	1055916032	42	4129
2026-01-17 03:24:15.81	32.93	22.92	-35.9	-37.1	17.8	0.00e+00	0	60	0	1063256064	42	4116
2026-01-17 03:24:16.82	33.05	23.05	-35.9	-37.1	17.8	0.00e+00	0	60	0	1070596096	42	4113
2026-01-17 03:24:17.83	33.17	23.19	-35.8	-37.0	17.8	0.00e+00	0	60	0	1077936128	42	4084
2026-01-17 03:24:18.84	33.28	23.32	-35.4	-36.6	18.3	0.00e+00	0	60	0	1085276160	41	4117
2026-01-17 03:24:19.85	33.40	23.46	-35.8	-37.0	17.9	0.00e+00	0	60	0	1092616192	42	4076
2026-01-17 03:24:20.86	33.52	23.60	-35.8	-37.0	17.9	0.00e+00	0	60	0	1099956224	42	4067
2026-01-17 03:24:21.87	33.64	23.74	-35.8	-37.0	17.9	0.00e+00	0	60	0	1107296256	42	4078
2026-01-17 03:24:22.88	33.76	23.87	-35.7	-37.0	17.9	0.00e+00	0	60	0	1114636288	42	4052
2026-01-17 03:24:23.89	33.88	24.01	-36.0	-37.2	17.7	0.00e+00	0	60	0	1120927744	42	4167
2026-01-17 03:24:24.90	34.01	24.15	-35.8	-37.0	17.9	0.00e+00	0	60	0	1128267776	42	4079
2026-01-17 03:24:25.91	34.13	24.29	-35.8	-37.0	17.9	0.00e+00	0	60	0	1136656384	42	4093
2026-01-17 03:24:26.92	34.26	24.44	-35.8	-37.0	17.9	0.00e+00	0	60	0	1142947840	42	4069
2026-01-17 03:24:27.93	34.38	24.58	-35.7	-36.9	18.0	0.00e+00	0	60	0	1150287872	42	4035
2026-01-17 03:24:28.94	34.51	24.72	-35.7	-36.9	18.0	0.00e+00	0	60	0	1157627904	42	4048
2026-01-17 03:24:29.95	34.64	24.86	-35.7	-36.9	18.0	0.00e+00	0	60	0	1164967936	41	4269
2026-01-17 03:24:30.96	34.77	25.01	-35.6	-36.8	18.1	0.00e+00	0	60	0	1172307968	41	4210
2026-01-17 03:24:31.98	34.90	25.15	-35.6	-36.8	18.1	0.00e+00	0	60	0	1179648000	41	4203
2026-01-17 03:24:32.99	35.04	25.30	-35.5	-36.6	18.3	0.00e+00	0	60	0	1186988032	41	4137
2026-01-17 03:24:34.00	35.17	25.44	-35.5	-36.6	18.3	0.00e+00	0	60	0	1194328064	41	4135
2026-01-17 03:24:35.01	35.30	25.59	-35.2	-36.4	18.5	0.00e+00	0	60	0	1201668096	41	4011
2026-01-17 03:24:36.02	35.44	25.74	-35.3	-36.5	18.4	0.00e+00	0	60	0	1209008128	41	4068
2026-01-17 03:24:37.02	35.58	25.88	-35.3	-36.4	18.5	0.00e+00	0	60	0	1216348160	41	4029
2026-01-17 03:24:38.03	35.71	26.03	-35.2	-36.3	18.6	0.00e+00	0	60	0	1223688192	41	3978
2026-01-17 03:24:39.04	35.85	26.18	-35.2	-36.4	18.5	0.00e+00	0	60	0	1231028224	41	4016
2026-01-17 03:24:40.05	36.00	26.33	-35.1	-36.2	18.7	0.00e+00	0	60	0	1238368256	40	4172
2026-01-17 03:24:41.06	36.14	26.48	-35.1	-36.2	18.7	0.00e+00	0	60	0	1245708288	40	4187
2026-01-17 03:24:42.07	36.28	26.63	-35.1	-36.2	18.7	0.00e+00	0	60	0	1253048320	40	4167
2026-01-17 03:24:43.08	36.43	26.78	-35.1	-36.3	18.7	0.00e+00	0	60	0	1260388352	40	4203
2026-01-17 03:24:44.09	36.57	26.93	-35.2	-36.3	18.6	0.00e+00	0	60	0	1267728384	40	4232
2026-01-17 03:24:45.10	36.72	27.09	-35.2	-36.3	18.7	0.00e+00	0	60	0	1274019840	40	4215
2026-01-17 03:24:46.11	36.87	27.24	-35.3	-36.5	18.5	0.00e+00	0	60	0	1282408448	40	4296
2026-01-17 03:24:47.12	37.02	27.40	-35.3	-36.4	18.5	0.00e+00	0	60	0	1289748480	40	4284
2026-01-17 03:24:48.13	37.17	27.55	-35.1	-36.2	18.7	0.00e+00	0	60	0	1296039936	40	4189
2026-01-17 03:24:49.14	37.33	27.71	-35.1	-36.2	18.7	0.00e+00	0	60	0	1303379968	40	4192
2026-01-17 03:24:50.15	37.48	27.86	-35.1	-36.2	18.8	0.00e+00	0	60	0	1310720000	40	4171
2026-01-17 03:24:51.16	37.64	28.02	-35.1	-36.2	18.7	0.00e+00	0	60	0	1318060032	40	4188
2026-01-17 03:24:52.17	37.79	28.18	-35.1	-36.2	18.8	0.00e+00	0	60	0	1325400064	40	4152
2026-01-17 03:24:53.18	37.95	28.33	-35.0	-36.1	18.8	0.00e+00	0	60	0	1332740096	40	4144
2026-01-17 03:24:54.19	38.11	28.49	-35.0	-36.1	18.9	0.00e+00	0	60	0	1340080128	40	4104
2026-01-17 03:24:55.20	38.28	28.65	-35.0	-36.1	18.9	0.00e+00	0	60	0	1347420160	40	4117
2026-01-17 03:24:56.22	38.44	28.82	-35.2	-36.3	18.7	0.00e+00	0	60	0	1354760192	40	4216
2026-01-17 03:24:57.23	38.61	28.98	-35.2	-36.3	18.7	0.00e+00	0	60	0	1362100224	40	4229
2026-01-17 03:24:58.24	38.78	29.14	-35.2	-36.3	18.7	0.00e+00	0	60	0	1369440256	40	4213
2026-01-17 03:24:59.25	38.94	29.30	-35.1	-36.3	18.7	0.00e+00	0	60	0	1376780288	40	4203
2026-01-17 03:25:00.26	39.11	29.46	-35.2	-36.3	18.7	0.00e+00	0	60	0	1384120320	40	4211
2026-01-17 03:25:01.26	39.29	29.63	-35.1	-36.3	18.8	0.00e+00	0	60	0	1391460352	40	4195
2026-01-17 03:25:02.27	39.46	29.79	-35.2	-36.3	18.7	0.00e+00	0	60	0	1398800384	40	4202
2026-01-17 03:25:03.29	39.64	29.96	-35.1	-36.3	18.7	0.00e+00	0	60	0	1406140416	40	4197
2026-01-17 03:25:04.30	39.81	30.12	-35.2	-36.3	18.7	0.00e+00	0	60	0	1413480448	40	4241
2026-01-17 03:25:05.31	39.99	30.29	-35.3	-36.4	18.6	0.00e+00	0	60	0	1420820480	40	4265
2026-01-17 03:25:06.32	40.17	30.46	-35.4	-36.6	18.5	0.00e+00	0	60	0	1428160512	40	4347
2026-01-17 03:25:07.33	40.36	30.62	-35.4	-36.5	18.5	0.00e+00	0	60	0	1435500544	40	4330
2026-01-17 03:25:08.34	40.54	30.79	-35.3	-36.5	18.6	0.00e+00	0	60	0	1441792000	40	4301
2026-01-17 03:25:09.35	40.73	30.96	-35.3	-36.4	18.6	0.00e+00	0	60	0	1449132032	40	4283
2026-01-17 03:25:10.36	40.92	31.13	-35.3	-36.4	18.6	0.00e+00	0	60	0	1457520640	40	4262
2026-01-17 03:25:11.37	41.11	31.30	-35.2	-36.4	18.6	0.00e+00	0	60	0	1463812096	40	4261
2026-01-17 03:25:12.38	41.30	31.47	-35.1	-36.3	18.7	0.00e+00	0	60	0	1471152128	40	4198
2026-01-17 03:25:13.39	41.50	31.65	-35.1	-36.2	18.8	0.00e+00	0	60	0	1478492160	40	4178
2026-01-17 03:25:14.40	41.69	31.82	-35.0	-36.1	18.9	0.00e+00	0	60	0	1485832192	40	4126
2026-01-17 03:25:15.41	41.89	31.99	-34.9	-36.0	19.0	0.00e+00	0	60	0	1493172224	40	4067
2026-01-17 03:25:16.42	42.09	32.17	-34.8	-35.9	19.1	0.00e+00	0	60	0	1500512256	40	4026
2026-01-17 03:25:17.43	42.29	32.34	-34.9	-36.0	19.1	0.00e+00	0	60	0	1507852288	40	4055
2026-01-17 03:25:18.44	42.50	32.52	-34.9	-36.0	19.0	0.00e+00	0	60	0	1515192320	40	4083
2026-01-17 03:25:19.45	42.71	32.69	-35.0	-36.1	19.0	0.00e+00	0	60	0	1522532352	40	4112
2026-01-17 03:25:20.46	42.92	32.87	-35.0	-36.1	18.9	0.00e+00	0	60	0	1529872384	40	4134
2026-01-17 03:25:21.47	43.13	33.04	-35.0	-36.1	19.0	0.00e+00	0	60	0	1537212416	40	4133
2026-01-17 03:25:22.48	43.34	33.22	-35.0	-36.1	18.9	0.00e+00	0	60	0	1544552448	40	4143
2026-01-17 03:25:23.49	43.56	33.40	-35.0	-36.1	18.9	0.00e+00	0	60	0	1551892480	40	4137
2026-01-17 03:25:24.50	43.78	33.58	-35.0	-36.1	19.0	0.00e+00	0	60	0	1559232512	40	4109
2026-01-17 03:25:25.51	44.00	33.76	-35.1	-36.2	18.9	0.00e+00	0	61	0	1566572544	40	4151
2026-01-17 03:25:26.52	44.22	33.94	-35.1	-36.2	18.9	0.00e+00	0	60	0	1573912576	40	4155
2026-01-17 03:25:27.53	44.45	34.12	-35.3	-36.4	18.7	0.00e+00	0	60	0	1581252608	40	4283
2026-01-17 03:25:28.54	44.68	34.30	-35.3	-36.4	18.7	0.00e+00	0	60	0	1588592640	40	4279
2026-01-17 03:25:29.55	44.91	34.48	-35.3	-36.5	18.6	0.00e+00	0	60	0	1594884096	40	4297
2026-01-17 03:25:30.56	45.14	34.66	-35.3	-36.4	18.7	0.00e+00	0	60	0	1603272704	40	4266
2026-01-17 03:25:31.57	45.38	34.85	-35.4	-36.6	18.6	0.00e+00	0	60	0	1610612736	40	4350
2026-01-17 03:25:32.57	45.61	35.03	-35.2	-36.3	18.8	0.00e+00	0	60	0	1616904192	40	4219
2026-01-17 03:25:33.58	45.85	35.21	-35.3	-36.4	18.7	0.00e+00	0	60	0	1624244224	40	4282
2026-01-17 03:25:34.59	46.10	35.40	-35.4	-36.5	18.6	0.00e+00	0	60	0	1631584256	40	4327
2026-01-17 03:25:35.60	46.34	35.58	-35.5	-36.7	18.4	0.00e+00	0	60	0	1638924288	40	4392
2026-01-17 03:25:36.61	46.59	35.77	-35.4	-36.6	18.5	0.00e+00	0	60	0	1646264320	40	4361
2026-01-17 03:25:37.62	46.85	35.95	-35.3	-36.5	18.6	0.00e+00	0	60	0	1653604352	40	4299
2026-01-17 03:25:38.63	47.10	36.14	-35.4	-36.6	18.5	0.00e+00	0	60	0	1660944384	40	4345
2026-01-17 03:25:39.64	47.36	36.33	-35.3	-36.4	18.7	0.00e+00	0	61	0	1668284416	40	4291
2026-01-17 03:25:40.65	47.62	36.52	-35.4	-36.6	18.5	0.00e+00	0	61	0	1675624448	40	4356
2026-01-17 03:25:41.66	47.88	36.70	-35.3	-36.5	18.7	0.00e+00	0	60	0	1682964480	40	4295
2026-01-17 03:25:42.67	48.15	36.89	-35.1	-36.2	18.9	0.00e+00	0	60	0	1690304512	40	4154
2026-01-17 03:25:43.69	48.42	37.08	-35.2	-36.3	18.8	0.00e+00	0	60	0	1697644544	40	4235
2026-01-17 03:25:44.69	48.69	37.27	-35.3	-36.4	18.8	0.00e+00	0	60	0	1704984576	40	4253
2026-01-17 03:25:45.71	48.97	37.46	-35.2	-36.4	18.8	0.00e+00	0	60	0	1712324608	40	4243
2026-01-17 03:25:46.72	49.25	37.65	-35.3	-36.5	18.7	0.00e+00	0	60	0	1719664640	40	4296
2026-01-17 03:25:47.73	49.54	37.84	-35.2	-36.3	18.8	0.00e+00	0	60	0	1727004672	40	4242
2026-01-17 03:25:48.74	49.82	38.03	-35.3	-36.4	18.8	0.00e+00	0	61	0	1734344704	40	4265
2026-01-17 03:25:49.75	50.11	38.22	-35.2	-36.3	18.9	0.00e+00	0	60	0	1740636160	40	4196
2026-01-17 03:25:50.76	50.40	38.41	-35.2	-36.3	18.9	0.00e+00	0	60	0	1749024768	40	4213
2026-01-17 03:25:51.77	50.70	38.60	-35.2	-36.3	18.9	0.00e+00	0	61	0	1756364800	40	4201
2026-01-17 03:25:52.78	51.00	38.80	-35.1	-36.2	19.0	0.00e+00	0	60	0	1762656256	40	4150
2026-01-17 03:25:53.79	51.30	38.99	-35.1	-36.2	18.9	0.00e+00	0	61	0	1769996288	40	4174
2026-01-17 03:25:54.80	51.61	39.18	-35.4	-36.5	18.7	0.00e+00	0	61	0	1777336320	40	4318
2026-01-17 03:25:55.81	51.92	39.37	-35.4	-36.5	18.6	0.00e+00	0	60	0	1784676352	40	4340
2026-01-17 03:25:56.82	52.23	39.56	-35.5	-36.6	18.6	0.00e+00	0	60	0	1792016384	40	4373
2026-01-17 03:25:57.83	52.55	39.76	-35.3	-36.4	18.7	0.00e+00	0	60	0	1799356416	40	4287
2026-01-17 03:25:58.84	52.87	39.95	-35.4	-36.5	18.7	0.00e+00	0	61	0	1806696448	40	4313
2026-01-17 03:25:59.85	53.20	40.14	-35.3	-36.4	18.7	0.00e+00	0	60	0	1814036480	40	4270
2026-01-17 03:26:00.86	53.53	40.33	-35.3	-36.4	18.7	0.00e+00	0	60	0	1821376512	40	4280
2026-01-17 03:26:01.87	53.86	40.53	-35.4	-36.5	18.7	0.00e+00	0	61	0	1828716544	40	4304
2026-01-17 03:26:02.88	54.19	40.72	-35.4	-36.6	18.6	0.00e+00	0	61	0	1836056576	40	4344
2026-01-17 03:26:03.89	54.54	40.91	-35.2	-36.3	18.8	0.00e+00	0	60	0	1843396608	40	4240
2026-01-17 03:26:04.90	54.88	41.10	-35.7	-36.8	18.4	0.00e+00	0	61	0	1850736640	41	4227
2026-01-17 03:26:05.91	55.23	41.30	-35.7	-36.8	18.4	0.00e+00	0	60	0	1858076672	41	4232
2026-01-17 03:26:06.92	55.58	41.49	-35.7	-36.8	18.4	0.00e+00	0	60	0	1865416704	41	4234
2026-01-17 03:26:07.93	55.94	41.68	-35.9	-37.1	18.1	0.00e+00	0	60	0	1872756736	41	4349
2026-01-17 03:26:08.93	56.30	41.87	-35.8	-37.0	18.3	0.00e+00	0	60	0	1880096768	41	4307
2026-01-17 03:26:09.94	56.66	42.06	-35.8	-37.0	18.2	0.00e+00	0	61	0	1887436800	41	4332
2026-01-17 03:26:10.95	57.03	42.25	-35.7	-36.8	18.4	0.00e+00	0	60	0	1893728256	41	4237
2026-01-17 03:26:11.96	57.41	42.44	-35.6	-36.7	18.5	0.00e+00	0	61	0	1902116864	41	4175
2026-01-17 03:26:12.97	57.79	42.63	-35.5	-36.6	18.6	0.00e+00	0	61	0	1909456896	41	4126
2026-01-17 03:26:13.98	58.17	42.82	-35.5	-36.6	18.6	0.00e+00	0	61	0	1915748352	41	4141
2026-01-17 03:26:14.99	58.56	43.01	-35.4	-36.6	18.6	0.00e+00	0	61	0	1923088384	41	4102
2026-01-17 03:26:16.00	58.95	43.20	-35.5	-36.6	18.6	0.00e+00	0	61	0	1930428416	41	4132
2026-01-17 03:26:17.01	59.34	43.39	-35.5	-36.6	18.6	0.00e+00	0	61	0	1937768448	41	4139
2026-01-17 03:26:18.02	59.75	43.58	-35.5	-36.6	18.6	0.00e+00	0	61	0	1945108480	41	4142
2026-01-17 03:26:19.03	60.15	43.77	-35.7	-36.9	18.4	0.00e+00	0	61	0	1952448512	41	4263
2026-01-17 03:26:20.04	60.56	43.95	-35.7	-36.8	18.4	0.00e+00	0	61	0	1959788544	41	4221
2026-01-17 03:26:21.05	60.98	44.14	-35.6	-36.8	18.4	0.00e+00	0	61	0	1967128576	41	4196
2026-01-17 03:26:22.06	61.40	44.33	-35.6	-36.8	18.5	0.00e+00	0	61	0	1974468608	41	4196
2026-01-17 03:26:23.07	61.83	44.51	-35.8	-36.9	18.3	0.00e+00	0	61	0	1981808640	41	4270
2026-01-17 03:26:24.08	62.26	44.69	-36.0	-37.2	18.1	0.00e+00	0	61	0	1989148672	41	4392
2026-01-17 03:26:25.09	62.69	44.88	-36.0	-37.1	18.0	0.00e+00	0	61	0	1996488704	41	4379
2026-01-17 03:26:26.10	63.13	45.06	-35.9	-37.1	18.2	0.00e+00	0	61	0	2003828736	41	4374
2026-01-17 03:26:27.11	63.58	45.24	-36.0	-37.2	18.1	0.00e+00	0	61	0	2011168768	41	4398
2026-01-17 03:26:28.12	64.03	45.42	-35.9	-37.1	18.2	0.00e+00	0	60	0	2018508800	41	4351
2026-01-17 03:26:29.13	64.48	45.60	-36.0	-37.2	18.1	0.00e+00	0	61	0	2025848832	41	4392
2026-01-17 03:26:30.14	64.94	45.78	-35.9	-37.0	18.2	0.00e+00	0	61	0	2033188864	41	4321
2026-01-17 03:26:31.15	65.41	45.95	-35.9	-37.1	18.2	0.00e+00	0	61	0	2040528896	41	4343
2026-01-17 03:26:32.16	65.88	46.13	-35.7	-36.9	18.4	0.00e+00	0	61	0	2047868928	41	4246
2026-01-17 03:26:33.18	66.36	46.30	-35.6	-36.7	18.6	0.00e+00	0	61	0	2055208960	41	4171
2026-01-17 03:26:34.18	66.84	46.47	-35.7	-36.8	18.5	0.00e+00	0	61	0	2062548992	41	4224
2026-01-17 03:26:35.20	67.33	46.65	-36.0	-37.1	18.1	0.00e+00	0	60	0	2068840448	41	4388
2026-01-17 03:26:36.21	67.82	46.81	-36.3	-37.5	17.8	0.00e+00	0	61	0	2076180480	42	4315
2026-01-17 03:26:37.22	68.32	46.98	-36.2	-37.4	17.9	0.00e+00	0	61	0	2083520512	42	4262
2026-01-17 03:26:38.23	68.82	47.15	-36.0	-37.2	18.1	0.00e+00	0	61	0	2090860544	42	4157
2026-01-17 03:26:39.24	69.33	47.31	-36.0	-37.2	18.1	0.00e+00	0	61	0	2098200576	42	4151
2026-01-17 03:26:40.25	69.84	47.47	-36.1	-37.3	18.0	0.00e+00	0	61	0	2105540608	42	4208
2026-01-17 03:26:41.26	70.36	47.63	-36.2	-37.4	17.9	0.00e+00	0	61	0	2112880640	42	4246
2026-01-17 03:26:42.27	70.88	47.79	-36.1	-37.3	17.9	0.00e+00	0	61	0	2120220672	42	4229
2026-01-17 03:26:43.28	71.41	47.95	-36.4	-37.6	17.6	0.00e+00	0	61	0	2127560704	42	4389
2026-01-17 03:26:44.29	71.95	48.10	-36.4	-37.6	17.6	0.00e+00	0	61	0	2134900736	42	4358
2026-01-17 03:26:45.30	72.49	48.26	-36.3	-37.5	17.8	0.00e+00	0	61	0	2142240768	42	4323
2026-01-17 03:26:46.31	73.03	48.41	-36.3	-37.5	17.8	0.00e+00	0	61	0	2149580800	42	4313
2026-01-17 03:26:47.32	73.58	48.56	-36.3	-37.5	17.9	0.00e+00	0	61	0	2156920832	42	4299
2026-01-17 03:26:48.33	74.14	48.70	-36.2	-37.4	17.9	0.00e+00	0	61	0	2164260864	42	4264
2026-01-17 03:26:49.34	74.70	48.84	-36.3	-37.5	17.7	0.00e+00	0	61	0	2171600896	42	4335
2026-01-17 03:26:50.35	75.26	48.99	-36.4	-37.7	17.6	0.00e+00	0	61	0	2178940928	42	4393
2026-01-17 03:26:51.36	75.83	49.12	-36.7	-37.9	17.4	0.00e+00	0	61	0	2186280960	42	4537
2026-01-17 03:26:52.37	76.41	49.26	-36.6	-37.8	17.5	0.00e+00	0	61	0	2193620992	43	4224
2026-01-17 03:26:53.38	76.99	49.39	-36.5	-37.7	17.6	0.00e+00	0	61	0	2200961024	43	4184
2026-01-17 03:26:54.39	77.58	49.52	-36.4	-37.6	17.7	0.00e+00	0	61	0	2208301056	43	4107
2026-01-17 03:26:55.40	78.17	49.65	-36.4	-37.6	17.7	0.00e+00	0	61	0	2214592512	43	4108
2026-01-17 03:26:56.41	78.76	49.78	-36.5	-37.8	17.5	0.00e+00	0	61	0	2222981120	43	4203
2026-01-17 03:26:57.42	79.36	49.90	-36.6	-37.9	17.4	0.00e+00	0	61	0	2230321152	43	4278
2026-01-17 03:26:58.43	79.97	50.02	-36.7	-38.0	17.3	0.00e+00	0	61	0	2236612608	43	4318
2026-01-17 03:26:59.44	80.58	50.13	-36.6	-37.9	17.4	0.00e+00	0	61	0	2243952640	43	4265
2026-01-17 03:27:00.45	81.19	50.25	-36.6	-37.8	17.5	0.00e+00	0	61	0	2251292672	43	4238
2026-01-17 03:27:01.46	81.81	50.36	-36.4	-37.7	17.7	0.00e+00	0	61	0	2258632704	43	4150
2026-01-17 03:27:02.47	82.44	50.46	-36.4	-37.6	17.7	0.00e+00	0	61	0	2265972736	43	4123
2026-01-17 03:27:03.48	83.07	50.56	-36.5	-37.7	17.6	0.00e+00	0	61	0	2273312768	43	4168
2026-01-17 03:27:04.49	83.70	50.66	-36.5	-37.8	17.5	0.00e+00	0	61	0	2280652800	43	4202
2026-01-17 03:27:05.50	84.33	50.76	-36.5	-37.7	17.5	0.00e+00	0	61	0	2287992832	43	4190
2026-01-17 03:27:06.51	84.98	50.85	-36.6	-37.8	17.5	0.00e+00	0	61	0	2295332864	43	4238
2026-01-17 03:27:07.52	85.62	50.94	-36.6	-37.9	17.4	0.00e+00	0	61	0	2302672896	43	4253
2026-01-17 03:27:08.53	86.27	51.03	-36.7	-37.9	17.4	0.00e+00	0	61	0	2310012928	43	4273
2026-01-17 03:27:09.54	86.92	51.11	-36.6	-37.9	17.5	0.00e+00	0	61	0	2317352960	43	4250
2026-01-17 03:27:10.55	87.57	51.19	-36.8	-38.0	17.2	0.00e+00	0	61	0	2324692992	43	4339
2026-01-17 03:27:11.56	88.23	51.26	-36.7	-37.9	17.4	0.00e+00	0	61	0	2332033024	43	4291
2026-01-17 03:27:12.57	88.90	51.33	-36.6	-37.8	17.5	0.00e+00	0	61	0	2339373056	43	4210
2026-01-17 03:27:13.58	89.56	51.40	-36.8	-38.1	17.3	0.00e+00	0	61	0	2346713088	43	4370
2026-01-17 03:27:14.59	90.23	51.46	-36.9	-38.2	17.2	0.00e+00	0	61	0	2354053120	43	4394
2026-01-17 03:27:15.60	90.90	51.52	-36.9	-38.2	17.1	0.00e+00	0	61	0	2361393152	43	4433
2026-01-17 03:27:16.61	91.57	51.58	-36.6	-37.8	17.4	0.00e+00	0	61	0	2368733184	43	4242
2026-01-17 03:27:17.62	92.25	51.63	-36.3	-37.4	17.6	0.00e+00	0	61	0	2376073216	43	4049
2026-01-17 03:27:18.63	92.92	51.68	-36.2	-37.4	17.9	0.00e+00	0	61	0	2383413248	43	4041
2026-01-17 03:27:19.64	93.60	51.72	-36.3	-37.5	17.8	0.00e+00	0	61	0	2389704704	43	4069
2026-01-17 03:27:20.65	94.29	51.76	-36.3	-37.6	17.8	0.00e+00	0	61	0	2397044736	43	4105
2026-01-17 03:27:21.66	94.97	51.79	-36.5	-37.7	17.6	0.00e+00	0	61	0	2405433344	43	4172
2026-01-17 03:27:22.67	95.65	51.82	-36.8	-38.1	17.3	0.00e+00	0	61	0	2411724800	43	4345
2026-01-17 03:27:23.68	96.34	51.85	-36.8	-38.1	17.2	0.00e+00	0	61	0	2419064832	43	4366
2026-01-17 03:27:24.69	97.03	51.87	-36.8	-38.1	17.2	0.00e+00	0	61	0	2426404864	43	4356
2026-01-17 03:27:25.70	97.72	51.89	-36.9	-38.2	17.1	0.00e+00	0	61	0	2433744896	43	4399
2026-01-17 03:27:26.71	98.40	51.91	-36.7	-38.0	17.3	0.00e+00	0	61	0	2441084928	43	4310
2026-01-17 03:27:27.72	99.09	51.91	-36.6	-37.8	17.5	0.00e+00	0	61	0	2448424960	43	4195
2026-01-17 03:27:28.73	99.78	51.92	-36.6	-37.8	17.5	0.00e+00	0	61	0	2455764992	43	4241
2026-01-17 03:27:29.74	100.47	51.92	-36.4	-37.6	17.7	0.00e+00	0	61	0	2463105024	43	4117
2026-01-17 03:27:30.75	101.16	51.92	-36.3	-37.5	17.8	0.00e+00	0	61	0	2470445056	43	4070
2026-01-17 03:27:31.76	101.85	51.91	-36.3	-37.5	17.8	0.00e+00	0	61	0	2477785088	43	4053
2026-01-17 03:27:32.77	102.54	51.90	-36.2	-37.4	17.9	0.00e+00	0	61	0	2485125120	43	4017
2026-01-17 03:27:33.79	103.24	51.88	-36.1	-37.3	18.0	0.00e+00	0	61	0	2492465152	43	3974
2026-01-17 03:27:34.80	103.93	51.86	-36.4	-37.6	17.7	0.00e+00	0	61	0	2499805184	43	4123
2026-01-17 03:27:35.81	104.62	51.84	-36.6	-37.8	17.5	0.00e+00	0	61	0	2507145216	43	4218
2026-01-17 03:27:36.82	105.30	51.81	-36.8	-38.1	17.2	0.00e+00	0	61	0	2514485248	43	4389
2026-01-17 03:27:37.83	105.99	51.78	-36.9	-38.2	17.1	0.00e+00	0	61	0	2521825280	43	4433
2026-01-17 03:27:38.84	106.67	51.74	-37.0	-38.3	17.0	0.00e+00	0	61	0	2529165312	43	4480
2026-01-17 03:27:39.85	107.35	51.70	-37.1	-38.4	16.9	0.00e+00	0	61	0	2535456768	43	4504
2026-01-17 03:27:40.86	108.03	51.66	-37.4	-38.7	16.7	0.00e+00	0	61	0	2543845376	44	4436
2026-01-17 03:27:41.87	108.71	51.61	-37.2	-38.5	16.9	0.00e+00	0	61	0	2551185408	44	4339
2026-01-17 03:27:42.88	109.38	51.55	-36.9	-38.2	17.3	0.00e+00	0	61	0	2557476864	44	4165
2026-01-17 03:27:43.89	110.05	51.50	-36.6	-37.8	17.6	0.00e+00	0	61	0	2564816896	44	3967
2026-01-17 03:27:44.90	110.72	51.44	-36.5	-37.7	17.8	0.00e+00	0	61	0	2572156928	44	3933
2026-01-17 03:27:45.91	111.39	51.37	-36.3	-37.5	17.8	0.00e+00	0	61	0	2579496960	43	4059
2026-01-17 03:27:46.92	112.06	51.30	-36.2	-37.3	18.0	0.00e+00	0	61	0	2586836992	43	3991
2026-01-17 03:27:47.93	112.72	51.23	-36.2	-37.4	17.9	0.00e+00	0	61	0	2594177024	43	4035
2026-01-17 03:27:48.94	113.37	51.15	-36.3	-37.5	17.7	0.00e+00	0	61	0	2601517056	43	4071
2026-01-17 03:27:49.95	114.03	51.07	-36.5	-37.7	17.6	0.00e+00	0	61	0	2608857088	43	4178
2026-01-17 03:27:50.96	114.68	50.99	-36.4	-37.6	17.7	0.00e+00	0	61	0	2616197120	43	4143
2026-01-17 03:27:51.97	115.33	50.90	-36.4	-37.6	17.6	0.00e+00	0	61	0	2623537152	43	4141
2026-01-17 03:27:52.98	115.97	50.81	-36.6	-37.8	17.5	0.00e+00	0	61	0	2630877184	43	4221
2026-01-17 03:27:53.99	116.61	50.72	-36.7	-38.0	17.3	0.00e+00	0	61	0	2638217216	43	4302
2026-01-17 03:27:55.00	117.25	50.62	-36.7	-38.0	17.3	0.00e+00	0	61	0	2645557248	43	4319
2026-01-17 03:27:56.01	117.88	50.52	-36.8	-38.1	17.2	0.00e+00	0	61	0	2652897280	43	4359
2026-01-17 03:27:57.02	118.50	50.41	-36.7	-38.0	17.3	0.00e+00	0	61	0	2660237312	43	4324
2026-01-17 03:27:58.03	119.13	50.31	-36.9	-38.2	17.1	0.00e+00	0	61	0	2667577344	43	4399
2026-01-17 03:27:59.04	119.75	50.19	-36.6	-37.9	17.4	0.00e+00	0	61	0	2674917376	43	4264
2026-01-17 03:28:00.05	120.36	50.08	-36.3	-37.6	17.7	0.00e+00	0	61	0	2682257408	43	4106
2026-01-17 03:28:01.06	120.97	49.96	-36.2	-37.4	17.9	0.00e+00	0	61	0	2689597440	43	4030
2026-01-17 03:28:02.07	121.57	49.84	-36.4	-37.6	17.6	0.00e+00	0	61	0	2696937472	43	4144
2026-01-17 03:28:03.08	122.17	49.72	-36.6	-37.8	17.5	0.00e+00	0	61	0	2704277504	43	4227
2026-01-17 03:28:04.09	122.77	49.59	-36.6	-37.9	17.4	0.00e+00	0	61	0	2710568960	43	4264
2026-01-17 03:28:05.10	123.36	49.46	-36.6	-37.8	17.3	0.00e+00	0	61	0	2717908992	43	4225
2026-01-17 03:28:06.11	123.94	49.33	-36.8	-38.2	17.1	0.00e+00	0	61	0	2726297600	43	4395
2026-01-17 03:28:07.12	124.52	49.20	-36.6	-37.9	17.4	0.00e+00	0	61	0	2732589056	43	4244
2026-01-17 03:28:08.13	125.10	49.06	-36.6	-37.8	17.5	0.00e+00	0	61	0	2739929088	43	4228
2026-01-17 03:28:09.14	125.67	48.92	-36.5	-37.8	17.5	0.00e+00	0	61	0	2747269120	43	4199
2026-01-17 03:28:10.15	126.23	48.78	-36.5	-37.7	17.5	0.00e+00	0	61	0	2754609152	43	4192
2026-01-17 03:28:11.16	126.79	48.63	-36.5	-37.8	17.5	0.00e+00	0	61	0	2761949184	43	4210
2026-01-17 03:28:12.17	127.35	48.48	-36.6	-37.8	17.4	0.00e+00	0	61	0	2769289216	43	4239
2026-01-17 03:28:13.18	127.90	48.33	-36.5	-37.7	17.4	0.00e+00	0	61	0	2776629248	43	4166
2026-01-17 03:28:14.19	128.44	48.18	-36.4	-37.6	17.6	0.00e+00	0	61	0	2783969280	43	4139
2026-01-17 03:28:15.20	128.98	48.03	-36.3	-37.5	17.8	0.00e+00	0	61	0	2791309312	43	4078
2026-01-17 03:28:16.21	129.51	47.87	-36.1	-37.3	18.0	0.00e+00	0	61	0	2798649344	43	3992
2026-01-17 03:28:17.22	130.04	47.71	-36.0	-37.2	18.1	0.00e+00	0	61	0	2805989376	43	3926
2026-01-17 03:28:18.23	130.56	47.55	-36.0	-37.1	18.1	0.00e+00	0	61	0	2813329408	42	4132
2026-01-17 03:28:19.24	131.08	47.39	-36.0	-37.1	18.1	0.00e+00	0	61	0	2820669440	42	4139
2026-01-17 03:28:20.25	131.59	47.23	-36.1	-37.3	18.0	0.00e+00	0	61	0	2828009472	42	4208
2026-01-17 03:28:21.26	132.10	47.06	-36.2	-37.4	17.9	0.00e+00	0	61	0	2835349504	42	4288
2026-01-17 03:28:22.27	132.60	46.89	-36.3	-37.5	17.8	0.00e+00	0	61	0	2842689536	42	4328
2026-01-17 03:28:23.28	133.10	46.73	-36.3	-37.5	17.8	0.00e+00	0	61	0	2850029568	42	4318
2026-01-17 03:28:24.29	133.59	46.56	-36.1	-37.3	18.0	0.00e+00	0	61	0	2856321024	42	4221
2026-01-17 03:28:25.30	134.07	46.38	-36.0	-37.2	18.1	0.00e+00	0	61	0	2863661056	42	4164
2026-01-17 03:28:26.31	134.55	46.21	-36.0	-37.2	18.1	0.00e+00	0	61	0	2872049664	42	4157
2026-01-17 03:28:27.32	135.03	46.03	-35.9	-37.1	18.2	0.00e+00	0	61	0	2878341120	42	4100
2026-01-17 03:28:28.33	135.50	45.86	-35.9	-37.0	18.2	0.00e+00	0	61	0	2885681152	42	4089
2026-01-17 03:28:29.34	135.96	45.68	-35.8	-37.0	18.3	0.00e+00	0	61	0	2893021184	42	4066
2026-01-17 03:28:30.36	136.42	45.50	-35.9	-37.1	18.1	0.00e+00	0	61	0	2900361216	42	4137
2026-01-17 03:28:31.37	136.88	45.32	-36.0	-37.1	18.1	0.00e+00	0	61	0	2907701248	42	4141
2026-01-17 03:28:32.38	137.33	45.14	-36.0	-37.1	18.1	0.00e+00	0	61	0	2915041280	42	4133
2026-01-17 03:28:33.39	137.77	44.96	-36.0	-37.2	18.1	0.00e+00	0	61	0	2922381312	42	4154
2026-01-17 03:28:34.40	138.21	44.77	-36.0	-37.1	18.1	0.00e+00	0	61	0	2929721344	42	4131
2026-01-17 03:28:35.41	138.65	44.59	-36.0	-37.2	18.1	0.00e+00	0	61	0	2937061376	42	4158
2026-01-17 03:28:36.42	139.07	44.40	-36.0	-37.2	18.0	0.00e+00	0	61	0	2944401408	42	4182
2026-01-17 03:28:37.43	139.50	44.22	-35.9	-37.1	18.2	0.00e+00	0	61	0	2951741440	42	4102
2026-01-17 03:28:38.44	139.92	44.03	-35.7	-36.9	18.2	0.00e+00	0	61	0	2959081472	42	4022
2026-01-17 03:28:39.45	140.33	43.84	-35.6	-36.7	18.5	0.00e+00	0	61	0	2966421504	42	3941
2026-01-17 03:28:40.46	140.74	43.66	-35.5	-36.6	18.6	0.00e+00	0	61	0	2973761536	41	4128
2026-01-17 03:28:41.47	141.15	43.47	-35.3	-36.4	18.8	0.00e+00	0	61	0	2981101568	41	4005
2026-01-17 03:28:42.48	141.55	43.28	-35.2	-36.3	18.9	0.00e+00	0	61	0	2988441600	41	3996
2026-01-17 03:28:43.49	141.94	43.09	-35.3	-36.4	18.8	0.00e+00	0	61	0	2995781632	41	4013
2026-01-17 03:28:44.50	142.34	42.90	-35.4	-36.5	18.7	0.00e+00	0	61	0	3003121664	41	4090
2026-01-17 03:28:45.51	142.72	42.71	-35.6	-36.8	18.4	0.00e+00	0	61	0	3010461696	41	4201
2026-01-17 03:28:46.52	143.10	42.52	-35.7	-36.8	18.4	0.00e+00	0	61	0	3017801728	41	4228
2026-01-17 03:28:47.53	143.48	42.32	-35.8	-37.0	18.2	0.00e+00	0	61	0	3025141760	41	4312
2026-01-17 03:28:48.54	143.85	42.13	-36.0	-37.2	18.1	0.00e+00	0	61	0	3031433216	41	4398
2026-01-17 03:28:49.55	144.22	41.94	-36.1	-37.3	17.9	0.00e+00	0	61	0	3038773248	41	4456
2026-01-17 03:28:50.56	144.59	41.75	-36.0	-37.2	18.1	0.00e+00	0	61	0	3047161856	41	4404
2026-01-17 03:28:51.57	144.95	41.55	-35.7	-36.9	18.3	0.00e+00	0	61	0	3053453312	41	4265
2026-01-17 03:28:52.58	145.30	41.36	-35.5	-36.6	18.6	0.00e+00	0	61	0	3060793344	41	4135
2026-01-17 03:28:53.59	145.66	41.17	-35.4	-36.4	18.7	0.00e+00	0	61	0	3068133376	41	4046
2026-01-17 03:28:54.60	146.00	40.97	-35.3	-36.4	18.8	0.00e+00	0	61	0	3075473408	41	4050
2026-01-17 03:28:55.61	146.35	40.78	-35.5	-36.6	18.6	0.00e+00	0	61	0	3082813440	41	4107
2026-01-17 03:28:56.62	146.69	40.59	-35.6	-36.7	18.5	0.00e+00	0	61	0	3090153472	41	4168
2026-01-17 03:28:57.63	147.02	40.39	-35.6	-36.7	18.3	0.00e+00	0	61	0	3097493504	41	4179
2026-01-17 03:28:58.64	147.35	40.20	-35.8	-37.0	18.2	0.00e+00	0	61	0	3104833536	41	4321
2026-01-17 03:28:59.65	147.68	40.01	-35.9	-37.1	18.1	0.00e+00	0	61	0	3112173568	41	4355
2026-01-17 03:29:00.66	148.01	39.81	-35.9	-37.1	18.1	0.00e+00	0	61	0	3119513600	41	4352
2026-01-17 03:29:01.67	148.33	39.62	-35.8	-37.0	18.2	0.00e+00	0	61	0	3126853632	41	4304
2026-01-17 03:29:02.68	148.64	39.43	-35.7	-36.8	18.3	0.00e+00	0	61	0	3134193664	41	4228
2026-01-17 03:29:03.69	148.96	39.23	-35.4	-36.6	18.6	0.00e+00	0	61	0	3141533696	41	4116
2026-01-17 03:29:04.70	149.26	39.04	-35.3	-36.4	18.7	0.00e+00	0	61	0	3148873728	41	4051
2026-01-17 03:29:05.71	149.57	38.85	-35.4	-36.5	18.7	0.00e+00	0	61	0	3156213760	41	4069
2026-01-17 03:29:06.72	149.87	38.65	-35.3	-36.4	18.7	0.00e+00	0	61	0	3163553792	41	4047
2026-01-17 03:29:07.73	150.17	38.46	-35.5	-36.7	18.3	0.00e+00	0	61	0	3170893824	41	4146
2026-01-17 03:29:08.74	150.47	38.27	-35.5	-36.7	18.5	0.00e+00	0	61	0	3177185280	41	4153
2026-01-17 03:29:09.75	150.76	38.08	-35.5	-36.7	18.5	0.00e+00	0	61	0	3184525312	41	4158
2026-01-17 03:29:10.76	151.05	37.88	-35.6	-36.7	18.5	0.00e+00	0	61	0	3192913920	41	4167
2026-01-17 03:29:11.77	151.33	37.69	-35.5	-36.6	18.5	0.00e+00	0	61	0	3199205376	41	4137
2026-01-17 03:29:12.78	151.61	37.50	-35.4	-36.5	18.6	0.00e+00	0	61	0	3206545408	41	4080
2026-01-17 03:29:13.79	151.89	37.31	-35.4	-36.5	18.6	0.00e+00	0	61	0	3213885440	41	4084
2026-01-17 03:29:14.80	152.17	37.12	-35.5	-36.6	18.5	0.00e+00	0	61	0	3221225472	41	4141
2026-01-17 03:29:15.81	152.44	36.93	-35.6	-36.8	18.4	0.00e+00	0	61	0	3228565504	41	4199
2026-01-17 03:29:16.82	152.71	36.74	-35.6	-36.8	18.4	0.00e+00	0	61	0	3235905536	41	4205
2026-01-17 03:29:17.83	152.97	36.55	-35.6	-36.7	18.4	0.00e+00	0	61	0	3243245568	41	4188
2026-01-17 03:29:18.84	153.24	36.36	-35.5	-36.6	18.5	0.00e+00	0	61	0	3250585600	41	4136
2026-01-17 03:29:19.85	153.50	36.17	-35.4	-36.5	18.6	0.00e+00	0	61	0	3257925632	41	4089
2026-01-17 03:29:20.86	153.75	35.99	-35.3	-36.4	18.7	0.00e+00	0	61	0	3265265664	41	4014
2026-01-17 03:29:21.87	154.01	35.80	-35.2	-36.3	18.8	0.00e+00	0	61	0	3272605696	41	3991
2026-01-17 03:29:22.88	154.26	35.61	-35.2	-36.3	18.8	0.00e+00	0	61	0	3279945728	41	3999
2026-01-17 03:29:23.89	154.51	35.43	-35.2	-36.3	18.8	0.00e+00	0	61	0	3287285760	41	3972
2026-01-17 03:29:24.90	154.75	35.24	-35.1	-36.2	18.9	0.00e+00	0	61	0	3294625792	41	3922
2026-01-17 03:29:25.91	155.00	35.05	-35.0	-36.1	18.9	0.00e+00	0	61	0	3301965824	41	3913
2026-01-17 03:29:26.92	155.24	34.87	-35.1	-36.2	18.8	0.00e+00	0	61	0	3309305856	41	3950
2026-01-17 03:29:27.93	155.48	34.69	-35.1	-36.3	18.8	0.00e+00	0	61	0	3316645888	41	3966
2026-01-17 03:29:28.94	155.71	34.50	-35.2	-36.3	18.6	0.00e+00	0	61	0	3323985920	41	4000
2026-01-17 03:29:29.95	155.94	34.32	-35.3	-36.5	18.6	0.00e+00	0	61	0	3330277376	41	4068
2026-01-17 03:29:30.96	156.17	34.14	-35.4	-36.5	18.6	0.00e+00	0	61	0	3338665984	41	4074
2026-01-17 03:29:31.97	156.40	33.95	-35.4	-36.5	18.6	0.00e+00	0	61	0	3346006016	41	4076
2026-01-17 03:29:32.98	156.63	33.77	-35.3	-36.4	18.6	0.00e+00	0	61	0	3352297472	41	4045
2026-01-17 03:29:33.99	156.85	33.59	-35.3	-36.4	18.7	0.00e+00	0	61	0	3359637504	41	4021
2026-01-17 03:29:35.00	157.07	33.41	-35.1	-36.3	18.8	0.00e+00	0	61	0	3366977536	41	3959
2026-01-17 03:29:36.01	157.29	33.23	-35.0	-36.0	19.0	0.00e+00	0	61	0	3374317568	40	4096
2026-01-17 03:29:37.02	157.50	33.05	-34.8	-35.9	19.2	0.00e+00	0	61	0	3381657600	40	4028
2026-01-17 03:29:38.03	157.71	32.87	-34.7	-35.7	19.3	0.00e+00	0	61	0	3388997632	40	3954
2026-01-17 03:29:39.04	157.93	32.70	-34.7	-35.7	19.3	0.00e+00	0	61	0	3396337664	40	3945
2026-01-17 03:29:40.05	158.13	32.52	-34.7	-35.7	19.3	0.00e+00	0	61	0	3403677696	40	3949
2026-01-17 03:29:41.06	158.34	32.34	-34.7	-35.8	19.3	0.00e+00	0	61	0	3411017728	40	3989
2026-01-17 03:29:42.07	158.54	32.17	-34.8	-35.9	19.1	0.00e+00	0	61	0	3418357760	40	4034
2026-01-17 03:29:43.08	158.75	31.99	-35.0	-36.1	19.0	0.00e+00	0	61	0	3425697792	40	4124
2026-01-17 03:29:44.09	158.95	31.82	-35.2	-36.3	18.7	0.00e+00	0	61	0	3433037824	40	4219
2026-01-17 03:29:45.10	159.14	31.64	-35.3	-36.5	18.6	0.00e+00	0	61	0	3440377856	40	4296
2026-01-17 03:29:46.11	159.34	31.47	-35.5	-36.6	18.4	0.00e+00	0	61	0	3447717888	40	4383
2026-01-17 03:29:47.12	159.53	31.30	-35.6	-36.8	18.3	0.00e+00	0	61	0	3455057920	40	4480
2026-01-17 03:29:48.13	159.73	31.13	-35.7	-36.9	18.1	0.00e+00	0	61	0	3462397952	40	4525
2026-01-17 03:29:49.14	159.92	30.95	-35.7	-36.9	18.1	0.00e+00	0	61	0	3469737984	41	4274
2026-01-17 03:29:50.15	160.10	30.78	-35.8	-37.0	18.1	0.00e+00	0	61	0	3476029440	41	4310
2026-01-17 03:29:51.16	160.29	30.61	-35.7	-36.8	18.1	0.00e+00	0	61	0	3484418048	41	4239
2026-01-17 03:29:52.17	160.47	30.44	-35.6	-36.8	18.2	0.00e+00	0	61	0	3491758080	41	4204
2026-01-17 03:29:53.18	160.66	30.28	-35.5	-36.6	18.4	0.00e+00	0	61	0	3498049536	41	4126
2026-01-17 03:29:54.19	160.84	30.11	-35.4	-36.5	18.5	0.00e+00	0	61	0	3505389568	41	4066
2026-01-17 03:29:55.19	161.01	29.94	-35.3	-36.4	18.6	0.00e+00	0	61	0	3512729600	41	4043
2026-01-17 03:29:56.20	161.19	29.78	-35.2	-36.3	18.7	0.00e+00	0	61	0	3520069632	41	3992
2026-01-17 03:29:57.22	161.37	29.61	-35.1	-36.2	18.8	0.00e+00	0	61	0	3527409664	41	3945
2026-01-17 03:29:58.23	161.54	29.44	-35.1	-36.2	18.7	0.00e+00	0	61	0	3534749696	41	3947
2026-01-17 03:29:59.24	161.71	29.28	-35.2	-36.3	18.8	0.00e+00	0	61	0	3542089728	41	3961
2026-01-17 03:30:00.24	161.88	29.12	-35.1	-36.2	18.8	0.00e+00	0	61	0	3549429760	41	3945
2026-01-17 03:30:01.25	162.05	28.95	-35.2	-36.3	18.7	0.00e+00	0	61	0	3556769792	41	3965
2026-01-17 03:30:02.26	162.21	28.79	-35.2	-36.3	18.7	0.00e+00	0	61	0	3564109824	41	3974
2026-01-17 03:30:03.27	162.38	28.63	-35.2	-36.3	18.7	0.00e+00	0	61	0	3571449856	41	3988
2026-01-17 03:30:04.28	162.54	28.47	-35.2	-36.4	18.7	0.00e+00	0	61	0	3578789888	41	4009
2026-01-17 03:30:05.29	162.70	28.31	-35.3	-36.4	18.6	0.00e+00	0	61	0	3586129920	41	4037
2026-01-17 03:30:06.30	162.86	28.15	-35.4	-36.5	18.5	0.00e+00	0	61	0	3593469952	41	4091
2026-01-17 03:30:07.32	163.02	27.99	-35.4	-36.6	18.4	0.00e+00	0	61	0	3600809984	41	4111
2026-01-17 03:30:08.33	163.18	27.83	-35.5	-36.7	18.3	0.00e+00	0	61	0	3608150016	41	4159
2026-01-17 03:30:09.34	163.34	27.67	-35.6	-36.8	18.2	0.00e+00	0	61	0	3615490048	41	4205
2026-01-17 03:30:10.34	163.49	27.52	-35.6	-36.8	18.2	0.00e+00	0	61	0	3622830080	41	4229
2026-01-17 03:30:11.36	163.64	27.36	-35.6	-36.8	18.2	0.00e+00	0	61	0	3629121536	41	4219
2026-01-17 03:30:12.37	163.79	27.20	-35.7	-36.8	18.2	0.00e+00	0	61	0	3637510144	41	4229
2026-01-17 03:30:13.38	163.94	27.05	-35.6	-36.8	18.1	0.00e+00	0	61	0	3644850176	41	4224
2026-01-17 03:30:14.39	164.09	26.89	-35.6	-36.8	18.2	0.00e+00	0	61	0	3651141632	41	4197
2026-01-17 03:30:15.40	164.24	26.74	-35.6	-36.8	18.2	0.00e+00	0	61	0	3658481664	41	4205
2026-01-17 03:30:16.41	164.38	26.59	-35.6	-36.7	18.2	0.00e+00	0	61	0	3666870272	41	4191
2026-01-17 03:30:17.42	164.53	26.44	-35.6	-36.7	18.2	0.00e+00	0	61	0	3673161728	41	4187
2026-01-17 03:30:18.42	164.67	26.29	-35.6	-36.7	18.2	0.00e+00	0	61	0	3680501760	41	4181
2026-01-17 03:30:19.43	164.81	26.13	-35.5	-36.7	18.3	0.00e+00	0	61	0	3687841792	41	4147
2026-01-17 03:30:20.44	164.95	25.98	-35.5	-36.7	18.2	0.00e+00	0	61	0	3695181824	41	4153
2026-01-17 03:30:21.45	165.09	25.84	-35.5	-36.6	18.3	0.00e+00	0	61	0	3702521856	41	4140
2026-01-17 03:30:22.46	165.23	25.69	-35.5	-36.7	18.3	0.00e+00	0	61	0	3709861888	41	4152
2026-01-17 03:30:23.47	165.36	25.54	-35.5	-36.7	18.3	0.00e+00	0	61	0	3717201920	41	4159
2026-01-17 03:30:24.48	165.50	25.39	-35.5	-36.6	18.3	0.00e+00	0	61	0	3724541952	41	4139
2026-01-17 03:30:25.49	165.63	25.24	-35.5	-36.6	18.3	0.00e+00	0	61	0	3731881984	41	4130
2026-01-17 03:30:26.50	165.77	25.10	-35.4	-36.6	18.3	0.00e+00	0	61	0	3739222016	41	4110
2026-01-17 03:30:27.51	165.90	24.95	-35.4	-36.6	18.3	0.00e+00	0	61	0	3746562048	41	4121
2026-01-17 03:30:28.52	166.03	24.81	-35.5	-36.6	18.3	0.00e+00	0	61	0	3753902080	41	4135
2026-01-17 03:30:29.53	166.16	24.66	-35.4	-36.6	18.3	0.00e+00	0	61	0	3761242112	41	4119
2026-01-17 03:30:30.54	166.29	24.52	-35.5	-36.7	18.2	0.00e+00	0	61	0	3768582144	41	4149
2026-01-17 03:30:31.55	166.41	24.38	-35.5	-36.7	18.2	0.00e+00	0	61	0	3774873600	41	4160
2026-01-17 03:30:32.56	166.54	24.23	-35.5	-36.7	18.2	0.00e+00	0	61	0	3783262208	41	4172
2026-01-17 03:30:33.57	166.66	24.09	-35.6	-36.7	18.2	0.00e+00	0	61	0	3790602240	41	4187
2026-01-17 03:30:34.58	166.79	23.95	-35.6	-36.7	18.2	0.00e+00	0	61	0	3796893696	41	4185
2026-01-17 03:30:35.59	166.91	23.81	-35.6	-36.8	18.1	0.00e+00	0	61	0	3804233728	41	4226
2026-01-17 03:30:36.61	167.03	23.67	-35.7	-36.9	18.0	0.00e+00	0	61	0	3811573760	41	4249
2026-01-17 03:30:37.62	167.15	23.53	-35.6	-36.8	18.1	0.00e+00	0	61	0	3818913792	41	4238
2026-01-17 03:30:38.63	167.27	23.39	-35.7	-36.9	18.0	0.00e+00	0	61	0	3826253824	41	4260
2026-01-17 03:30:39.64	167.39	23.25	-35.7	-36.9	18.0	0.00e+00	0	61	0	3833593856	41	4251
2026-01-17 03:30:40.65	167.51	23.12	-35.7	-36.9	18.0	0.00e+00	0	61	0	3840933888	41	4278
2026-01-17 03:30:41.65	167.62	22.98	-35.8	-37.0	17.9	0.00e+00	0	61	0	3848273920	41	4336
2026-01-17 03:30:42.66	167.74	22.84	-35.8	-37.1	17.8	0.00e+00	0	61	0	3855613952	41	4353
2026-01-17 03:30:43.67	167.85	22.71	-35.9	-37.1	17.8	0.00e+00	0	61	0	3862953984	41	4380
2026-01-17 03:30:44.68	167.97	22.57	-36.0	-37.2	17.7	0.00e+00	0	61	0	3870294016	41	4428
2026-01-17 03:30:45.69	168.08	22.44	-36.0	-37.2	17.7	0.00e+00	0	61	0	3877634048	41	4436
2026-01-17 03:30:46.70	168.19	22.31	-36.0	-37.3	17.6	0.00e+00	0	61	0	3884974080	41	4459
2026-01-17 03:30:47.72	168.30	22.17	-36.0	-37.3	17.6	0.00e+00	0	61	0	3892314112	41	4455
2026-01-17 03:30:48.73	168.41	22.04	-36.0	-37.3	17.6	0.00e+00	0	61	0	3899654144	41	4468
2026-01-17 03:30:49.74	168.52	21.91	-36.0	-37.3	17.6	0.00e+00	0	61	0	3906994176	41	4452
2026-01-17 03:30:50.75	168.63	21.78	-36.0	-37.2	17.7	0.00e+00	0	61	0	3914334208	41	4428
2026-01-17 03:30:51.76	168.74	21.65	-36.0	-37.2	17.6	0.00e+00	0	61	0	3921674240	41	4427
2026-01-17 03:30:52.77	168.84	21.52	-35.9	-37.2	17.7	0.00e+00	0	61	0	3929014272	41	4405
2026-01-17 03:30:53.78	168.95	21.39	-35.9	-37.2	17.7	0.00e+00	0	61	0	3936354304	41	4402
2026-01-17 03:30:54.79	169.05	21.26	-35.9	-37.1	17.7	0.00e+00	0	61	0	3943694336	41	4389
2026-01-17 03:30:55.80	169.16	21.13	-35.9	-37.1	17.7	0.00e+00	0	61	0	3949985792	41	4391
2026-01-17 03:30:56.81	169.26	21.00	-35.9	-37.1	17.7	0.00e+00	0	61	0	3958374400	41	4377
2026-01-17 03:30:57.82	169.36	20.87	-35.9	-37.2	17.7	0.00e+00	0	61	0	3965714432	41	4395
2026-01-17 03:30:58.83	169.46	20.75	-35.9	-37.2	17.7	0.00e+00	0	61	0	3972005888	41	4396
2026-01-17 03:30:59.84	169.57	20.62	-36.0	-37.2	17.6	0.00e+00	0	61	0	3979345920	41	4428
2026-01-17 03:31:00.85	169.67	20.49	-36.0	-37.3	17.6	0.00e+00	0	61	0	3986685952	41	4448
2026-01-17 03:31:01.86	169.76	20.37	-36.0	-37.3	17.5	0.00e+00	0	61	0	3994025984	41	4463
2026-01-17 03:31:02.87	169.86	20.24	-36.1	-37.4	17.5	0.00e+00	0	61	0	4001366016	41	4494
2026-01-17 03:31:03.88	169.96	20.12	-36.1	-37.4	17.4	0.00e+00	0	61	0	4008706048	41	4521
2026-01-17 03:31:04.89	170.06	20.00	-36.2	-37.5	17.4	0.00e+00	0	61	0	4016046080	41	4551
2026-01-17 03:31:05.90	170.15	19.87	-36.3	-37.6	17.3	0.00e+00	0	61	0	4023386112	42	4343
2026-01-17 03:31:06.91	170.25	19.75	-36.3	-37.6	17.3	0.00e+00	0	61	0	4030726144	42	4347
2026-01-17 03:31:07.92	170.34	19.63	-36.3	-37.6	17.2	0.00e+00	0	61	0	4038066176	42	4381
2026-01-17 03:31:08.93	170.44	19.51	-36.3	-37.6	17.2	0.00e+00	0	61	0	4045406208	42	4387
2026-01-17 03:31:09.94	170.53	19.39	-36.4	-37.7	17.1	0.00e+00	0	61	0	4052746240	42	4423
2026-01-17 03:31:10.95	170.62	19.27	-36.4	-37.7	17.1	0.00e+00	0	61	0	4060086272	42	4430
2026-01-17 03:31:11.96	170.71	19.15	-36.5	-37.8	17.0	0.00e+00	0	61	0	4067426304	42	4478
2026-01-17 03:31:12.97	170.80	19.03	-36.5	-37.8	17.0	0.00e+00	0	61	0	4074766336	42	4479
2026-01-17 03:31:13.97	170.89	18.91	-36.5	-37.8	17.0	0.00e+00	0	61	0	4082106368	42	4480
2026-01-17 03:31:14.99	170.98	18.79	-36.5	-37.8	17.0	0.00e+00	0	61	0	4089446400	42	4479
2026-01-17 03:31:16.00	171.07	18.67	-36.5	-37.8	17.0	0.00e+00	0	61	0	4095737856	42	4490
2026-01-17 03:31:17.01	171.16	18.55	-36.5	-37.9	16.9	0.00e+00	0	61	0	4104126464	42	4498
2026-01-17 03:31:18.02	171.25	18.44	-36.6	-37.9	16.9	0.00e+00	0	61	0	4111466496	42	4508
2026-01-17 03:31:19.03	171.34	18.32	-36.6	-37.9	16.9	0.00e+00	0	61	0	4117757952	42	4530
2026-01-17 03:31:20.04	171.42	18.21	-36.5	-37.9	16.9	0.00e+00	0	61	0	4125097984	42	4499
2026-01-17 03:31:21.05	171.51	18.09	-36.6	-38.0	16.8	0.00e+00	0	61	0	4132438016	42	4550
2026-01-17 03:31:22.06	171.59	17.98	-36.6	-37.9	16.9	0.00e+00	0	61	0	4139778048	42	4523
2026-01-17 03:31:23.07	171.68	17.86	-36.6	-37.9	16.9	0.00e+00	0	61	0	4147118080	42	4529
2026-01-17 03:31:24.08	171.76	17.75	-36.5	-37.9	16.9	0.00e+00	0	61	0	4154458112	42	4505
2026-01-17 03:31:25.09	171.84	17.63	-36.6	-37.9	16.9	0.00e+00	0	61	0	4161798144	42	4510
2026-01-17 03:31:26.10	171.93	17.52	-36.6	-37.9	16.9	0.00e+00	0	61	0	4169138176	42	4532
2026-01-17 03:31:27.11	172.01	17.41	-36.6	-37.9	16.8	0.00e+00	0	61	0	4176478208	42	4530
2026-01-17 03:31:28.12	172.09	17.30	-36.6	-38.0	16.8	0.00e+00	0	61	0	4183818240	42	4568
2026-01-17 03:31:29.13	172.17	17.18	-36.6	-38.0	16.8	0.00e+00	0	61	0	4191158272	42	4567
2026-01-17 03:31:30.14	172.25	17.07	-36.6	-38.0	16.8	0.00e+00	0	61	0	4198498304	42	4562
2026-01-17 03:31:31.15	172.33	16.96	-36.7	-38.0	16.7	0.00e+00	0	61	0	4205838336	42	4598
2026-01-17 03:31:32.16	172.41	16.85	-36.6	-38.0	16.7	0.00e+00	0	61	0	4213178368	42	4566
2026-01-17 03:31:33.17	172.49	16.74	-36.7	-38.1	16.7	0.00e+00	0	61	0	4220518400	42	4618
2026-01-17 03:31:34.18	172.57	16.63	-36.8	-38.1	16.6	0.00e+00	0	61	0	4227858432	43	4388
2026-01-17 03:31:35.18	172.64	16.52	-36.8	-38.1	16.6	0.00e+00	0	61	0	4235198464	43	4386
2026-01-17 03:31:36.19	172.72	16.42	-36.8	-38.2	16.5	0.00e+00	0	61	0	4242538496	43	4423
2026-01-17 03:31:37.21	172.80	16.31	-36.8	-38.2	16.5	0.00e+00	0	61	0	4249878528	43	4433
2026-01-17 03:31:38.22	172.88	16.20	-36.9	-38.3	16.4	0.00e+00	0	61	0	4257218560	43	4455
2026-01-17 03:31:39.23	172.95	16.09	-36.9	-38.4	16.4	0.00e+00	0	61	0	4264558592	43	4494
2026-01-17 03:31:40.24	173.03	15.99	-36.9	-38.3	16.3	0.00e+00	0	61	0	4270850048	43	4489
2026-01-17 03:31:41.25	173.10	15.88	-37.0	-38.4	16.3	0.00e+00	0	61	0	4278190080	43	4527
2026-01-17 03:31:42.26	173.17	15.77	-37.0	-38.5	16.3	0.00e+00	0	61	0	4285530112	43	4546
2026-01-17 03:31:43.27	173.25	15.67	-37.1	-38.5	16.2	0.00e+00	0	61	0	4292870144	43	4573
2026-01-17 03:31:44.27	173.32	15.56	-37.1	-38.6	16.1	0.00e+00	0	61	0	4300210176	43	4609
2026-01-17 03:31:45.28	173.39	15.46	-37.1	-38.6	16.1	0.00e+00	0	61	0	4307550208	43	4606
2026-01-17 03:31:46.29	173.46	15.35	-37.1	-38.6	16.1	0.00e+00	0	61	0	4314890240	43	4634
2026-01-17 03:31:47.30	173.54	15.25	-37.1	-38.6	16.1	0.00e+00	0	61	0	4322230272	43	4621
2026-01-17 03:31:48.31	173.61	15.15	-37.2	-38.6	16.0	0.00e+00	0	61	0	4329570304	43	4644
2026-01-17 03:31:49.32	173.68	15.04	-37.4	-38.9	16.0	0.00e+00	0	61	0	4336910336	44	4511
2026-01-17 03:31:50.33	173.75	14.94	-37.4	-38.8	16.0	0.00e+00	0	61	0	4344250368	44	4475
2026-01-17 03:31:51.34	173.82	14.84	-37.4	-38.9	16.0	0.00e+00	0	61	0	4351590400	44	4505
2026-01-17 03:31:52.35	173.89	14.74	-37.5	-39.0	15.9	0.00e+00	0	61	0	4358930432	44	4549
2026-01-17 03:31:53.36	173.96	14.64	-37.4	-38.9	15.9	0.00e+00	0	61	0	4366270464	44	4512
2026-01-17 03:31:54.36	174.02	14.54	-37.4	-38.9	15.9	0.00e+00	0	61	0	4373610496	44	4510
2026-01-17 03:31:55.37	174.09	14.43	-37.4	-38.9	15.9	0.00e+00	0	61	0	4380950528	44	4526
2026-01-17 03:31:56.38	174.16	14.33	-37.5	-39.0	15.8	0.00e+00	0	61	0	4388290560	44	4554
2026-01-17 03:31:57.39	174.23	14.23	-37.4	-38.9	15.9	0.00e+00	0	61	0	4394582016	44	4509
