passes_logs/2026/01/17/R2.0S_Moscow/R2.0S_Moscow__20260117_090823_NOAA_20_JPSS-1_rec.log

#Pass ID: 20260117_090823_NOAA 20 (JPSS-1)
#Satellite: NOAA 20 (JPSS-1)
#Configuration: NOAA 20
#almurnet v.1.7.20251203
#Start time: 2026-01-17 09:08:25

#Version: 2.2.20231116
#Station: R2.0S_Moscow
#Location: 37.707566 lon 55.798166 lat
#TLE: 1 43013U 17073A   26016.24631778  .00000038  00000+0  39093-4 0  9990
#TLE: 2 43013  98.7637 317.1726 0001455  37.6755 322.4523 14.19536243422915

#Time	Az	El	Level	Level2	SNR	BER	BlckErr	Temp	State	Recorded	gain1	gain2
2026-01-17 09:08:25.70	137.79	2.11	-28.2	-42.1	4.2	1.51e+00	0	52	0	0	23	23159
2026-01-17 09:08:26.70	137.75	2.18	-26.6	-42.6	3.9	1.51e+00	0	52	104	0	21	27585
2026-01-17 09:08:27.71	137.72	2.24	-29.5	-47.1	4.3	1.51e+00	0	53	0	0	28	30873
2026-01-17 09:08:28.72	137.69	2.30	-16.5	-37.1	6.3	1.50e+00	0	53	104	0	18	17467
2026-01-17 09:08:29.73	137.66	2.37	-31.6	-46.5	4.4	1.50e+00	0	53	104	0	23	38264
2026-01-17 09:08:30.75	137.62	2.43	-17.7	-35.7	3.9	1.51e+00	0	53	104	0	15	17519
2026-01-17 09:08:31.76	137.59	2.50	-24.7	-43.2	3.4	1.51e+00	0	53	104	0	19	33146
2026-01-17 09:08:32.77	137.56	2.56	-24.1	-37.3	3.2	1.51e+00	0	53	104	0	14	22440
2026-01-17 09:08:33.78	137.52	2.63	-30.0	-47.8	4.1	1.51e+00	0	53	104	0	29	31448
2026-01-17 09:08:34.79	137.49	2.69	-22.4	-41.4	3.9	1.50e+00	0	53	104	0	25	19059
2026-01-17 09:08:35.80	137.46	2.76	-29.0	-42.4	4.1	1.51e+00	0	53	104	0	28	17958
2026-01-17 09:08:36.81	137.42	2.82	-27.9	-42.0	3.2	1.51e+00	0	53	104	0	11	45693
2026-01-17 09:08:37.82	137.39	2.89	-26.2	-46.0	4.1	1.51e+00	0	53	104	0	30	24393
2026-01-17 09:08:38.83	137.35	2.95	-17.3	-44.3	4.0	1.51e+00	0	53	104	0	21	33682
2026-01-17 09:08:39.84	137.32	3.02	-22.5	-38.5	3.5	1.51e+00	0	54	104	0	13	27130
2026-01-17 09:08:40.85	137.29	3.08	-26.5	-41.8	3.8	1.51e+00	0	53	104	0	24	21046
2026-01-17 09:08:41.86	137.25	3.15	-16.5	-28.4	4.4	1.50e+00	0	53	104	0	20	5721
2026-01-17 09:08:42.88	137.22	3.21	-28.4	-46.5	4.2	1.50e+00	0	53	104	0	25	34362
2026-01-17 09:08:43.89	137.18	3.28	-26.6	-43.6	4.2	1.51e+00	0	54	104	0	25	24438
2026-01-17 09:08:44.90	137.15	3.35	-15.6	-27.5	3.5	1.51e+00	0	54	104	0	15	6857
2026-01-17 09:08:45.91	137.11	3.41	-29.5	-47.2	4.1	1.51e+00	0	54	104	0	24	39205
2026-01-17 09:08:46.92	137.08	3.48	-28.7	-44.2	3.2	1.50e+00	0	54	104	0	13	52304
2026-01-17 09:08:47.93	137.04	3.54	-25.1	-43.6	4.0	1.51e+00	0	54	104	0	26	23155
2026-01-17 09:08:48.94	137.00	3.61	-23.6	-41.7	3.3	1.51e+00	0	54	104	0	13	39409
2026-01-17 09:08:49.95	136.97	3.68	-31.0	-43.9	4.2	1.50e+00	0	54	104	0	22	30224
2026-01-17 09:08:50.96	136.93	3.75	-22.0	-35.6	4.1	1.50e+00	0	54	104	0	26	9215
2026-01-17 09:08:51.97	136.89	3.81	-18.6	-38.1	3.4	1.51e+00	0	54	104	0	14	24678
2026-01-17 09:08:52.98	136.86	3.88	-28.4	-44.4	3.9	1.51e+00	0	54	104	0	22	31971
2026-01-17 09:08:53.99	136.82	3.95	-29.4	-38.0	3.6	1.51e+00	0	54	104	0	12	27177
2026-01-17 09:08:55.00	136.78	4.01	-25.5	-43.2	3.8	1.51e+00	0	54	104	0	21	29628
2026-01-17 09:08:56.02	136.75	4.08	-21.7	-35.0	3.5	1.51e+00	0	54	104	0	15	16295
2026-01-17 09:08:57.03	136.71	4.15	-29.4	-44.5	4.4	1.51e+00	0	54	104	0	20	36214
2026-01-17 09:08:58.04	136.67	4.22	-23.0	-37.3	6.2	1.50e+00	0	55	104	0	15	21120
2026-01-17 09:08:59.05	136.63	4.29	-25.7	-42.2	3.8	1.51e+00	0	54	104	0	23	23378
2026-01-17 09:09:00.06	136.60	4.36	-31.5	-42.9	3.4	1.51e+00	0	55	104	0	22	26907
2026-01-17 09:09:01.07	136.56	4.42	-25.9	-46.3	4.2	1.51e+00	0	55	104	0	27	29835
2026-01-17 09:09:02.08	136.52	4.49	-24.2	-37.3	3.5	1.51e+00	0	55	104	0	13	23766
2026-01-17 09:09:03.09	136.48	4.56	-22.2	-41.9	4.1	1.51e+00	0	55	104	0	21	25288
2026-01-17 09:09:04.10	136.44	4.63	-27.1	-35.1	3.8	1.51e+00	0	55	104	0	11	20625
2026-01-17 09:09:05.11	136.40	4.70	-27.6	-43.4	3.7	1.51e+00	0	55	104	0	23	26806
2026-01-17 09:09:06.12	136.37	4.77	-26.0	-41.3	3.9	1.51e+00	0	55	104	0	21	23783
2026-01-17 09:09:07.14	136.33	4.84	-13.1	-36.2	3.8	1.51e+00	0	55	104	0	9	26459
2026-01-17 09:09:08.15	136.29	4.91	-26.3	-42.1	4.0	1.51e+00	0	55	104	0	22	24505
2026-01-17 09:09:09.16	136.25	4.98	-25.5	-39.2	4.0	1.51e+00	0	55	104	0	17	23549
2026-01-17 09:09:10.17	136.21	5.05	-25.3	-41.9	4.0	1.51e+00	0	55	104	0	9	50885
2026-01-17 09:09:11.18	136.17	5.12	-18.0	-34.5	3.9	1.50e+00	0	55	104	0	4	28828
2026-01-17 09:09:12.19	136.13	5.19	-26.5	-41.9	3.6	1.51e+00	0	55	104	0	8	53412
2026-01-17 09:09:13.20	136.09	5.26	-25.4	-39.7	3.7	1.51e+00	0	55	104	0	13	31178
2026-01-17 09:09:14.22	136.05	5.33	-16.7	-30.5	3.6	1.51e+00	0	55	0	0	11	12210
2026-01-17 09:09:15.23	136.00	5.40	-29.8	-44.8	3.9	1.51e+00	0	55	104	0	27	25005
2026-01-17 09:09:16.24	135.96	5.47	-29.2	-43.0	3.7	1.50e+00	0	56	104	0	23	25564
2026-01-17 09:09:17.25	135.92	5.55	-16.0	-31.5	-1.5	1.50e+00	0	56	104	0	10	14473
2026-01-17 09:09:18.26	135.88	5.62	-25.3	-42.1	3.9	1.51e+00	0	56	104	0	21	25959
2026-01-17 09:09:19.27	135.84	5.69	-28.1	-36.8	3.8	1.50e+00	0	56	104	0	8	29818
2026-01-17 09:09:20.28	135.80	5.76	-26.5	-40.2	3.9	1.50e+00	0	56	104	0	18	24835
2026-01-17 09:09:21.29	135.76	5.83	-32.3	-47.0	4.1	1.51e+00	0	56	104	0	28	30396
2026-01-17 09:09:22.30	135.71	5.91	-30.1	-47.4	4.3	1.51e+00	0	56	104	0	29	30316
2026-01-17 09:09:23.31	135.67	5.98	-30.2	-47.1	4.3	1.51e+00	0	56	104	0	28	30993
2026-01-17 09:09:24.32	135.63	6.05	-26.1	-42.6	4.0	1.51e+00	0	56	104	0	22	26031
2026-01-17 09:09:25.33	135.58	6.12	-30.7	-42.4	3.7	1.50e+00	0	56	104	0	23	23882
2026-01-17 09:09:26.35	135.54	6.20	-25.5	-43.0	4.0	1.51e+00	0	56	104	0	22	27301
2026-01-17 09:09:27.36	135.50	6.27	-24.9	-43.1	3.4	1.50e+00	0	56	104	0	19	32675
2026-01-17 09:09:28.37	135.45	6.34	-28.9	-45.2	4.3	1.51e+00	0	56	104	0	29	23370
2026-01-17 09:09:29.38	135.41	6.42	-28.5	-44.5	3.5	1.51e+00	0	56	104	0	26	25847
2026-01-17 09:09:30.39	135.37	6.49	-26.4	-40.6	3.9	1.51e+00	0	56	104	0	20	23199
2026-01-17 09:09:31.40	135.32	6.56	-29.5	-48.1	4.4	1.51e+00	0	56	104	0	31	29342
2026-01-17 09:09:32.41	135.28	6.64	-25.8	-43.9	4.0	1.51e+00	0	56	104	0	22	30239
2026-01-17 09:09:33.42	135.23	6.71	-16.4	-30.7	4.0	1.51e+00	0	56	104	0	21	7004
2026-01-17 09:09:34.43	135.19	6.79	-30.3	-45.7	4.1	1.51e+00	0	56	104	0	24	33239
2026-01-17 09:09:35.44	135.14	6.86	-28.4	-44.6	3.9	1.51e+00	0	56	104	0	22	32683
2026-01-17 09:09:36.45	135.10	6.94	-23.5	-42.1	3.9	1.51e+00	0	56	104	0	21	25982
2026-01-17 09:09:37.46	135.05	7.01	-15.3	-30.5	3.6	1.51e+00	0	56	104	0	13	10860
2026-01-17 09:09:38.47	135.00	7.09	-24.8	-41.7	3.8	1.51e+00	0	56	104	0	19	27962
2026-01-17 09:09:39.48	134.96	7.16	-19.9	-41.6	3.5	1.51e+00	0	57	104	0	16	32765
2026-01-17 09:09:40.49	134.91	7.24	-27.1	-45.7	4.3	1.51e+00	0	57	104	0	27	27755
2026-01-17 09:09:41.50	134.86	7.31	-24.9	-36.3	-6.4	1.50e+00	0	56	104	0	13	21029
2026-01-17 09:09:42.51	134.82	7.39	-30.7	-44.8	4.2	1.50e+00	0	56	104	0	17	44574
2026-01-17 09:09:43.52	134.77	7.47	-22.7	-37.1	4.5	1.49e+00	0	56	104	0	17	18487
2026-01-17 09:09:44.53	134.72	7.54	-28.9	-47.1	4.2	1.51e+00	0	57	104	0	25	36922
2026-01-17 09:09:45.54	134.67	7.62	-23.3	-37.7	4.1	1.51e+00	0	57	104	0	20	16510
2026-01-17 09:09:46.56	134.63	7.70	-27.9	-43.2	4.0	1.51e+00	0	57	104	0	24	24944
2026-01-17 09:09:47.57	134.58	7.78	-18.6	-41.6	3.8	1.51e+00	0	57	104	0	18	29209
2026-01-17 09:09:48.58	134.53	7.85	-19.4	-45.9	4.1	1.51e+00	0	57	104	0	23	36044
2026-01-17 09:09:49.59	134.48	7.93	-20.4	-34.1	5.1	1.50e+00	0	57	0	0	20	11004
2026-01-17 09:09:50.60	134.43	8.01	-29.4	-45.2	4.2	1.50e+00	0	57	104	0	27	26230
2026-01-17 09:09:51.61	134.38	8.09	-26.9	-48.9	4.5	1.51e+00	0	57	104	0	31	31840
2026-01-17 09:09:52.62	134.33	8.16	-32.7	-49.1	4.3	1.50e+00	0	57	104	0	37	23087
2026-01-17 09:09:53.63	134.28	8.24	-24.3	-42.5	4.1	1.51e+00	0	57	104	0	25	21665
2026-01-17 09:09:54.64	134.23	8.32	-24.6	-40.3	3.8	1.50e+00	0	57	104	0	18	25037
2026-01-17 09:09:55.65	134.18	8.40	-21.7	-38.7	3.6	1.50e+00	0	57	0	0	13	27824
2026-01-17 09:09:56.66	134.13	8.48	-16.4	-30.4	3.6	1.50e+00	0	57	104	0	6	15979
2026-01-17 09:09:57.67	134.08	8.56	-15.1	-30.6	3.5	1.49e+00	0	57	104	0	9	13803
2026-01-17 09:09:58.68	134.03	8.64	-21.8	-39.2	3.5	1.50e+00	0	57	104	0	16	24753
2026-01-17 09:09:59.69	133.97	8.72	-22.3	-38.4	3.4	1.48e+00	0	57	104	0	16	22603
2026-01-17 09:10:00.70	133.92	8.80	-13.3	-23.4	3.5	1.50e+00	0	57	104	0	0	10108
2026-01-17 09:10:01.71	133.87	8.88	-16.0	-32.2	3.2	1.51e+00	0	57	104	0	8	17528
2026-01-17 09:10:02.71	133.82	8.96	-20.2	-33.8	3.8	1.51e+00	0	57	104	0	11	17786
2026-01-17 09:10:03.73	133.76	9.04	-20.4	-37.6	3.7	1.50e+00	0	57	104	0	9	30891
2026-01-17 09:10:04.74	133.71	9.12	-19.8	-34.7	3.9	1.50e+00	0	57	104	0	12	18605
2026-01-17 09:10:05.75	133.66	9.20	-18.3	-34.8	3.8	1.50e+00	0	57	104	0	11	19900
2026-01-17 09:10:06.76	133.60	9.29	-20.3	-35.0	3.6	1.50e+00	0	57	104	0	10	21750
2026-01-17 09:10:07.77	133.55	9.37	-21.4	-39.0	3.5	1.49e+00	0	57	104	0	20	19310
2026-01-17 09:10:08.78	133.49	9.45	-23.7	-39.0	3.4	1.50e+00	0	57	104	0	15	25786
2026-01-17 09:10:09.79	133.44	9.53	-24.4	-35.5	3.3	1.49e+00	0	57	104	0	8	25789
2026-01-17 09:10:10.80	133.38	9.61	-21.5	-36.7	3.2	1.49e+00	0	58	104	0	11	24859
2026-01-17 09:10:11.81	133.33	9.70	-25.3	-38.0	3.5	1.50e+00	0	58	104	0	12	27087
2026-01-17 09:10:12.82	133.27	9.78	-20.2	-35.8	3.3	1.49e+00	0	58	104	0	10	23750
2026-01-17 09:10:13.83	133.21	9.86	-19.0	-32.9	3.6	1.49e+00	0	58	104	0	8	18988
2026-01-17 09:10:14.84	133.16	9.95	-14.3	-29.7	3.8	1.50e+00	0	58	104	0	5	15667
2026-01-17 09:10:15.85	133.10	10.03	-17.7	-31.5	3.4	1.49e+00	0	58	104	0	9	15273
2026-01-17 09:10:16.86	133.04	10.11	-17.5	-36.5	3.4	1.50e+00	0	58	104	0	14	20356
2026-01-17 09:10:17.87	132.99	10.20	-19.7	-37.8	4.3	1.49e+00	0	58	104	0	16	21022
2026-01-17 09:10:18.88	132.93	10.28	-19.4	-36.4	3.4	1.50e+00	0	58	104	0	16	17997
2026-01-17 09:10:19.89	132.87	10.37	-19.2	-35.4	3.4	1.51e+00	0	58	104	0	11	21449
2026-01-17 09:10:20.90	132.81	10.45	-17.2	-29.4	3.8	1.49e+00	0	58	104	0	3	16995
2026-01-17 09:10:21.91	132.75	10.54	-18.6	-34.6	3.6	1.50e+00	0	58	104	0	15	15423
2026-01-17 09:10:22.92	132.69	10.62	-23.0	-38.2	3.4	1.51e+00	0	58	104	0	13	26256
2026-01-17 09:10:23.93	132.63	10.71	-18.6	-33.1	3.4	1.49e+00	0	58	104	0	18	10909
2026-01-17 09:10:24.94	132.57	10.80	-14.8	-26.4	3.6	1.50e+00	0	58	104	0	5	10676
2026-01-17 09:10:25.95	132.51	10.88	-27.6	-39.9	3.9	1.50e+00	0	58	104	0	20	21376
2026-01-17 09:10:26.96	132.45	10.97	-20.9	-38.5	3.7	1.50e+00	0	58	104	0	18	20404
2026-01-17 09:10:27.97	132.39	11.06	-22.3	-39.5	3.8	1.47e+00	0	58	104	0	18	22814
2026-01-17 09:10:28.98	132.33	11.14	-22.4	-39.5	3.7	1.51e+00	0	58	104	0	15	27177
2026-01-17 09:10:29.99	132.27	11.23	-21.9	-34.3	3.2	1.50e+00	0	58	104	0	4	28031
2026-01-17 09:10:31.00	132.20	11.32	-13.0	-36.6	3.5	1.50e+00	0	58	104	0	15	19581
2026-01-17 09:10:32.02	132.14	11.41	-24.7	-33.4	3.5	1.49e+00	0	58	104	0	10	17978
2026-01-17 09:10:33.03	132.08	11.50	-14.4	-31.4	3.8	1.50e+00	0	58	104	0	6	18077
2026-01-17 09:10:34.04	132.01	11.59	-28.4	-44.5	4.0	1.48e+00	0	58	104	0	24	28951
2026-01-17 09:10:35.05	131.95	11.67	-34.5	-48.6	3.5	1.50e+00	0	58	0	0	33	27467
2026-01-17 09:10:36.06	131.89	11.76	-21.9	-39.8	3.7	1.50e+00	0	58	104	0	19	22460
2026-01-17 09:10:37.07	131.82	11.85	-23.3	-39.0	4.0	1.50e+00	0	58	104	0	22	17200
2026-01-17 09:10:38.08	131.76	11.94	-21.4	-37.0	3.3	1.49e+00	0	58	104	0	10	27316
2026-01-17 09:10:39.09	131.69	12.03	-12.5	-27.8	3.6	1.50e+00	0	58	104	0	0	16713
2026-01-17 09:10:40.10	131.62	12.12	-20.5	-35.6	3.8	1.50e+00	0	58	104	0	13	19505
2026-01-17 09:10:41.11	131.56	12.21	-24.0	-40.4	4.5	1.48e+00	0	58	104	0	20	22667
2026-01-17 09:10:42.12	131.49	12.30	-33.3	-48.7	4.3	1.44e+00	0	58	104	0	37	22221
2026-01-17 09:10:43.13	131.42	12.40	-31.1	-46.4	4.7	1.51e+00	0	58	104	0	30	25286
2026-01-17 09:10:44.14	131.36	12.49	-24.0	-37.8	3.6	1.47e+00	0	58	104	0	19	17780
2026-01-17 09:10:45.15	131.29	12.58	-20.8	-39.3	3.3	1.50e+00	0	58	104	0	19	21105
2026-01-17 09:10:46.16	131.22	12.67	-19.2	-30.1	3.8	1.50e+00	0	58	104	0	12	10949
2026-01-17 09:10:47.17	131.15	12.76	-19.7	-35.3	3.6	1.50e+00	0	58	104	0	12	19921
2026-01-17 09:10:48.18	131.08	12.86	-19.6	-33.9	3.7	1.50e+00	0	58	104	0	14	15158
2026-01-17 09:10:49.18	131.01	12.95	-24.7	-42.5	4.2	1.50e+00	0	58	104	0	26	20348
2026-01-17 09:10:50.19	130.94	13.04	-34.5	-52.1	4.9	1.48e+00	0	58	0	0	33	41105
2026-01-17 09:10:51.20	130.87	13.14	-22.9	-36.1	3.7	1.50e+00	0	59	104	0	29	8253
2026-01-17 09:10:52.20	130.80	13.23	-21.6	-35.8	4.1	1.48e+00	0	58	104	0	17	15892
2026-01-17 09:10:53.21	130.73	13.32	-22.1	-36.6	3.9	1.44e+00	0	59	104	0	15	19452
2026-01-17 09:10:54.22	130.65	13.42	-31.3	-42.9	5.4	1.42e+00	0	58	104	0	31	16011
2026-01-17 09:10:55.23	130.58	13.51	-28.7	-42.4	4.9	1.39e+00	0	58	104	0	24	22673
2026-01-17 09:10:56.24	130.51	13.61	-27.9	-38.9	4.4	1.38e+00	0	59	104	0	27	12788
2026-01-17 09:10:57.25	130.43	13.71	-28.3	-43.2	5.1	1.42e+00	0	59	104	0	31	16575
2026-01-17 09:10:58.26	130.36	13.80	-28.0	-43.6	4.8	1.42e+00	0	59	104	0	29	19507
2026-01-17 09:10:59.27	130.29	13.90	-31.4	-43.7	5.0	1.37e+00	0	59	104	0	37	12393
2026-01-17 09:11:00.28	130.21	13.99	-31.1	-44.1	3.9	1.43e+00	0	59	104	0	27	23268
2026-01-17 09:11:01.29	130.13	14.09	-35.6	-45.0	5.4	1.45e+00	0	59	104	0	41	11508
2026-01-17 09:11:02.30	130.06	14.19	-35.9	-45.0	7.0	1.24e+00	65	59	104	0	43	10236
2026-01-17 09:11:03.31	129.98	14.29	-32.1	-43.7	7.3	6.87e-01	76	59	0	1048576	41	9940
2026-01-17 09:11:04.32	129.90	14.38	-37.6	-45.7	7.5	1.30e+00	40	59	104	1048576	44	10460
2026-01-17 09:11:05.33	129.83	14.48	-36.3	-45.9	7.0	1.16e+00	55	59	0	1048576	45	10169
2026-01-17 09:11:06.34	129.75	14.58	-35.9	-45.6	6.3	4.80e-01	25	59	0	2097152	40	12962
2026-01-17 09:11:07.35	129.67	14.68	-34.6	-46.1	7.2	3.67e-01	44	59	0	3145728	43	11550
2026-01-17 09:11:08.36	129.59	14.78	-38.1	-46.6	5.2	4.28e-01	0	59	104	4194304	49	8668
2026-01-17 09:11:09.37	129.51	14.88	-37.2	-46.1	6.4	1.35e+00	16	59	104	4194304	46	9725
2026-01-17 09:11:10.38	129.43	14.98	-38.5	-45.6	9.0	5.81e-01	7	59	0	5242880	50	7299
2026-01-17 09:11:11.39	129.35	15.08	-28.5	-40.7	4.3	2.68e-01	2	59	0	6291456	41	6980
2026-01-17 09:11:12.40	129.27	15.18	-40.1	-46.1	9.7	8.97e-02	3	59	0	6291456	52	6949
2026-01-17 09:11:13.41	129.18	15.28	-29.2	-42.0	6.3	1.83e-01	16	59	0	8388608	39	9154
2026-01-17 09:11:14.42	129.10	15.38	-36.0	-44.7	7.4	2.22e-01	1	59	0	9437184	49	7018
2026-01-17 09:11:15.43	129.02	15.49	-41.2	-46.2	9.6	8.33e-02	3	59	0	11534336	52	7005
2026-01-17 09:11:16.44	128.93	15.59	-41.3	-46.3	9.7	1.47e-02	0	59	0	13631488	48	8948
2026-01-17 09:11:17.45	128.85	15.69	-41.6	-46.4	10.3	3.71e-02	5	59	0	14680064	53	6734
2026-01-17 09:11:18.46	128.76	15.79	-40.7	-46.3	10.2	6.61e-02	0	59	0	16777216	53	6665
2026-01-17 09:11:19.47	128.68	15.90	-41.4	-46.4	8.1	7.08e-02	0	59	0	18874368	45	10717
2026-01-17 09:11:20.48	128.59	16.00	-38.1	-46.1	6.8	6.31e-02	13	59	0	20971520	44	11003
2026-01-17 09:11:21.49	128.50	16.11	-41.6	-46.7	9.6	1.07e-01	0	59	0	23068672	52	7433
2026-01-17 09:11:22.50	128.42	16.21	-41.9	-46.3	11.2	1.26e-02	0	59	0	24117248	54	6334
2026-01-17 09:11:23.51	128.33	16.32	-41.9	-46.2	11.6	2.73e-03	0	59	0	26214400	54	6208
2026-01-17 09:11:24.52	128.24	16.42	-41.9	-46.1	11.7	1.00e-03	0	59	0	28311552	54	6143
2026-01-17 09:11:25.53	128.15	16.53	-41.9	-46.0	11.8	4.42e-04	0	59	0	30408704	54	6116
2026-01-17 09:11:26.54	128.06	16.63	-41.9	-46.1	11.8	5.43e-04	0	59	0	32505856	54	6167
2026-01-17 09:11:27.55	127.97	16.74	-42.0	-46.2	11.6	2.41e-03	0	59	0	33554432	54	6255
2026-01-17 09:11:28.56	127.88	16.85	-42.1	-46.3	11.6	1.80e-03	0	59	0	35651584	54	6317
2026-01-17 09:11:29.56	127.79	16.95	-42.1	-46.3	11.6	7.41e-04	0	59	0	37748736	54	6335
2026-01-17 09:11:30.57	127.69	17.06	-42.1	-46.4	11.5	2.17e-03	0	59	0	39845888	54	6374
2026-01-17 09:11:31.58	127.60	17.17	-42.1	-46.4	11.5	9.02e-04	0	59	0	41943040	54	6411
2026-01-17 09:11:32.59	127.51	17.28	-41.8	-46.5	11.4	9.36e-04	0	59	0	44040192	54	6430
2026-01-17 09:11:33.61	127.41	17.39	-42.1	-46.6	11.3	1.52e-03	0	59	0	45088768	54	6528
2026-01-17 09:11:34.62	127.31	17.50	-39.4	-46.3	11.3	2.47e-03	0	59	0	47185920	53	6701
2026-01-17 09:11:35.63	127.22	17.61	-41.8	-46.3	11.6	1.89e-03	0	59	0	49283072	54	6312
2026-01-17 09:11:36.63	127.12	17.71	-42.1	-46.4	11.5	1.42e-03	0	59	0	51380224	54	6379
2026-01-17 09:11:37.65	127.02	17.83	-42.2	-46.6	11.3	2.14e-03	0	59	0	53477376	55	6158
2026-01-17 09:11:38.66	126.92	17.94	-42.3	-46.8	11.2	1.44e-03	0	59	0	54525952	55	6291
2026-01-17 09:11:39.67	126.82	18.05	-42.1	-47.0	10.9	8.60e-03	0	59	0	56623104	55	6436
2026-01-17 09:11:40.67	126.73	18.16	-42.3	-47.0	10.7	2.94e-03	0	59	0	58720256	55	6445
2026-01-17 09:11:41.68	126.62	18.27	-41.3	-46.9	10.7	6.17e-03	0	59	0	60817408	53	7184
2026-01-17 09:11:42.69	126.52	18.38	-42.3	-46.6	11.4	1.57e-03	0	59	0	62914560	55	6184
2026-01-17 09:11:43.70	126.42	18.50	-42.1	-46.3	11.8	6.96e-04	0	59	0	63963136	55	5938
2026-01-17 09:11:44.72	126.32	18.61	-42.0	-46.1	12.0	3.70e-04	0	59	0	66060288	55	5805
2026-01-17 09:11:45.72	126.21	18.72	-42.1	-46.2	11.8	4.44e-04	0	59	0	68157440	54	6271
2026-01-17 09:11:46.73	126.11	18.84	-42.2	-46.5	11.6	5.11e-04	0	59	0	70254592	54	6421
2026-01-17 09:11:47.74	126.00	18.95	-42.2	-46.5	11.5	6.72e-04	0	59	0	72351744	55	6119
2026-01-17 09:11:48.75	125.90	19.07	-42.3	-46.8	11.2	1.38e-03	0	59	0	73400320	55	6288
2026-01-17 09:11:49.76	125.79	19.18	-42.2	-46.5	11.5	1.78e-03	0	59	0	75497472	55	6109
2026-01-17 09:11:50.77	125.68	19.30	-42.0	-46.4	11.1	5.24e-03	0	59	0	77594624	54	6395
2026-01-17 09:11:51.78	125.57	19.42	-42.2	-46.4	11.8	5.93e-04	0	59	0	79691776	55	6004
2026-01-17 09:11:52.79	125.46	19.53	-42.2	-46.3	11.6	4.54e-04	0	59	0	81788928	54	6289
2026-01-17 09:11:53.80	125.35	19.65	-42.1	-46.1	12.0	3.39e-04	0	60	0	82837504	54	6197
2026-01-17 09:11:54.81	125.24	19.77	-42.2	-46.4	11.8	4.35e-04	0	59	0	84934656	54	6398
2026-01-17 09:11:55.82	125.13	19.89	-42.3	-46.6	11.6	6.96e-04	0	59	0	87031808	55	6132
2026-01-17 09:11:56.83	125.02	20.00	-42.3	-46.6	11.5	1.05e-03	0	60	0	89128960	55	6174
2026-01-17 09:11:57.84	124.90	20.12	-42.3	-46.5	11.6	9.45e-04	0	60	0	91226112	55	6122
2026-01-17 09:11:58.85	124.79	20.24	-42.3	-46.5	11.7	6.29e-04	0	59	0	92274688	55	6067
2026-01-17 09:11:59.86	124.67	20.36	-42.3	-46.6	11.6	5.97e-04	0	60	0	94371840	55	6134
2026-01-17 09:12:00.87	124.55	20.48	-42.2	-46.3	11.6	1.10e-03	0	60	0	96468992	55	5967
2026-01-17 09:12:01.87	124.44	20.60	-42.2	-46.4	11.8	4.73e-04	0	60	0	98566144	55	6006
2026-01-17 09:12:02.88	124.32	20.72	-42.3	-46.6	11.6	5.77e-04	0	60	0	100663296	55	6132
2026-01-17 09:12:03.89	124.20	20.85	-42.3	-46.5	11.7	6.45e-04	0	60	0	101711872	55	6105
2026-01-17 09:12:04.90	124.08	20.97	-42.3	-46.5	11.7	5.41e-04	0	59	0	103809024	55	6078
2026-01-17 09:12:05.91	123.96	21.09	-42.2	-46.4	11.8	7.03e-04	0	59	0	105906176	55	6041
2026-01-17 09:12:06.92	123.83	21.21	-42.2	-46.4	11.8	5.52e-04	0	60	0	108003328	55	6006
2026-01-17 09:12:07.93	123.71	21.34	-42.2	-46.2	12.1	3.36e-04	0	60	0	110100480	55	5865
2026-01-17 09:12:08.94	123.59	21.46	-42.2	-46.2	12.0	2.88e-04	0	59	0	112197632	55	5915
2026-01-17 09:12:09.95	123.46	21.59	-42.1	-46.4	11.8	3.73e-04	0	60	0	113246208	55	6051
2026-01-17 09:12:10.96	123.33	21.71	-42.3	-46.5	11.7	5.51e-04	0	60	0	115343360	55	6093
2026-01-17 09:12:11.97	123.21	21.84	-42.4	-46.6	11.6	6.32e-04	0	60	0	117440512	55	6163
2026-01-17 09:12:12.98	123.08	21.96	-42.4	-46.7	11.5	6.89e-04	0	60	0	119537664	55	6274
2026-01-17 09:12:13.99	122.95	22.09	-42.3	-46.5	11.7	6.74e-04	0	60	0	120586240	55	6116
2026-01-17 09:12:15.00	122.82	22.22	-42.2	-46.3	12.0	4.03e-04	0	60	0	122683392	55	5932
2026-01-17 09:12:16.00	122.69	22.34	-42.3	-46.4	11.9	3.39e-04	0	60	0	124780544	55	6040
2026-01-17 09:12:17.01	122.55	22.47	-42.4	-46.6	11.7	5.52e-04	0	59	0	126877696	55	6165
2026-01-17 09:12:18.02	122.42	22.60	-42.4	-46.6	11.7	5.45e-04	0	60	0	128974848	55	6158
2026-01-17 09:12:19.03	122.28	22.73	-42.4	-46.6	11.6	5.62e-04	0	60	0	130023424	55	6159
2026-01-17 09:12:20.04	122.15	22.86	-42.4	-46.6	11.6	6.45e-04	0	60	0	132120576	55	6177
2026-01-17 09:12:21.05	122.01	22.99	-42.3	-46.5	11.8	6.35e-04	0	60	0	134217728	55	6102
2026-01-17 09:12:22.06	121.87	23.12	-42.3	-46.3	12.0	3.97e-04	0	60	0	136314880	55	5961
2026-01-17 09:12:23.07	121.73	23.25	-42.3	-46.4	11.9	3.94e-04	0	60	0	138412032	55	6008
2026-01-17 09:12:24.08	121.59	23.38	-42.3	-46.5	11.8	5.04e-04	0	60	0	140509184	55	6100
2026-01-17 09:12:25.09	121.45	23.51	-42.4	-46.6	11.7	5.72e-04	0	60	0	141557760	55	6138
2026-01-17 09:12:26.10	121.30	23.64	-42.4	-46.6	11.7	5.64e-04	0	60	0	143654912	55	6145
2026-01-17 09:12:27.11	121.16	23.77	-42.4	-46.5	11.8	5.23e-04	0	60	0	145752064	55	6128
2026-01-17 09:12:28.12	121.01	23.91	-42.4	-46.6	11.7	6.20e-04	0	60	0	147849216	55	6157
2026-01-17 09:12:29.13	120.87	24.04	-42.4	-46.5	11.8	5.26e-04	0	60	0	149946368	55	6125
2026-01-17 09:12:30.14	120.72	24.17	-42.4	-46.7	11.7	6.27e-04	0	60	0	150994944	55	6204
2026-01-17 09:12:31.15	120.57	24.31	-42.4	-46.7	11.6	6.64e-04	0	60	0	153092096	55	6230
2026-01-17 09:12:32.15	120.42	24.44	-42.5	-46.8	11.5	6.79e-04	0	60	0	155189248	55	6287
2026-01-17 09:12:33.16	120.26	24.58	-42.5	-46.8	11.5	7.30e-04	0	60	0	157286400	55	6294
2026-01-17 09:12:34.17	120.11	24.71	-42.5	-46.8	11.5	8.54e-04	0	60	0	159383552	55	6330
2026-01-17 09:12:35.18	119.96	24.85	-42.5	-46.7	11.6	8.00e-04	0	60	0	160432128	55	6228
2026-01-17 09:12:36.19	119.80	24.99	-42.4	-46.6	11.7	6.12e-04	0	60	0	162529280	55	6185
2026-01-17 09:12:37.21	119.64	25.12	-42.4	-46.6	11.7	5.74e-04	0	60	0	164626432	55	6190
2026-01-17 09:12:38.22	119.48	25.26	-42.4	-46.6	11.7	5.26e-04	0	60	0	166723584	55	6168
2026-01-17 09:12:39.23	119.32	25.40	-42.4	-46.6	11.7	5.71e-04	0	60	0	168820736	55	6196
2026-01-17 09:12:40.24	119.16	25.54	-42.5	-46.7	11.6	6.38e-04	0	60	0	169869312	55	6228
2026-01-17 09:12:41.24	118.99	25.68	-42.5	-46.8	11.5	7.89e-04	0	60	0	171966464	55	6329
2026-01-17 09:12:42.25	118.83	25.82	-42.6	-46.9	11.4	8.29e-04	0	60	0	174063616	55	6392
2026-01-17 09:12:43.27	118.66	25.96	-42.5	-46.8	11.5	8.19e-04	0	60	0	176160768	55	6333
2026-01-17 09:12:44.28	118.49	26.10	-42.6	-46.9	11.4	9.10e-04	0	60	0	178257920	55	6393
2026-01-17 09:12:45.29	118.32	26.24	-42.6	-47.0	11.3	9.31e-04	0	60	0	179306496	55	6479
2026-01-17 09:12:46.30	118.15	26.38	-42.6	-47.0	11.3	9.89e-04	0	60	0	181403648	55	6471
2026-01-17 09:12:47.31	117.98	26.52	-42.5	-46.8	11.6	7.64e-04	0	60	0	183500800	55	6294
2026-01-17 09:12:48.32	117.81	26.66	-42.5	-46.7	11.6	6.40e-04	0	60	0	185597952	55	6272
2026-01-17 09:12:49.33	117.63	26.81	-42.5	-46.8	11.6	7.47e-04	0	60	0	187695104	55	6312
2026-01-17 09:12:50.33	117.45	26.95	-42.6	-47.0	11.4	9.09e-04	0	60	0	188743680	55	6433
2026-01-17 09:12:51.35	117.27	27.09	-42.6	-47.0	11.3	1.02e-03	0	60	0	190840832	55	6485
2026-01-17 09:12:52.35	117.09	27.24	-42.6	-47.0	11.3	1.13e-03	0	60	0	192937984	55	6452
2026-01-17 09:12:53.37	116.91	27.38	-42.6	-46.8	11.5	9.37e-04	0	60	0	195035136	55	6333
2026-01-17 09:12:54.37	116.73	27.53	-42.5	-46.8	11.6	7.60e-04	0	60	0	197132288	55	6318
2026-01-17 09:12:55.39	116.54	27.67	-42.7	-47.1	11.3	8.84e-04	0	60	0	198180864	55	6524
2026-01-17 09:12:56.39	116.35	27.82	-42.9	-47.4	11.1	1.53e-03	0	60	0	200278016	56	6393
2026-01-17 09:12:57.40	116.17	27.96	-42.9	-47.5	11.0	1.61e-03	0	60	0	202375168	56	6463
2026-01-17 09:12:58.41	115.97	28.11	-43.0	-47.6	11.0	2.18e-03	0	60	0	204472320	56	6525
2026-01-17 09:12:59.42	115.78	28.26	-42.9	-47.5	11.0	1.97e-03	0	60	0	206569472	56	6451
2026-01-17 09:13:00.43	115.59	28.41	-43.1	-47.9	10.7	2.31e-03	0	60	0	208666624	56	6725
2026-01-17 09:13:01.44	115.39	28.55	-43.2	-48.1	10.4	4.01e-03	0	60	0	209715200	56	6948
2026-01-17 09:13:02.45	115.19	28.70	-43.3	-48.3	10.1	5.78e-03	0	60	0	211812352	57	6719
2026-01-17 09:13:03.46	114.99	28.85	-43.3	-48.3	10.1	6.34e-03	0	60	0	213909504	57	6723
2026-01-17 09:13:04.47	114.79	29.00	-43.4	-48.7	9.8	7.29e-03	0	60	0	216006656	57	6976
2026-01-17 09:13:05.48	114.59	29.15	-43.4	-48.6	9.9	8.77e-03	0	60	0	218103808	57	6899
2026-01-17 09:13:06.49	114.38	29.30	-43.5	-48.8	9.6	1.00e-02	0	60	0	219152384	57	7114
2026-01-17 09:13:07.50	114.17	29.45	-43.6	-49.2	9.3	1.40e-02	0	60	0	221249536	57	7393
2026-01-17 09:13:08.51	113.96	29.60	-43.6	-49.4	9.1	1.91e-02	0	60	0	223346688	57	7566
2026-01-17 09:13:09.52	113.75	29.75	-43.7	-49.6	8.9	2.60e-02	0	60	0	225443840	57	7749
2026-01-17 09:13:10.53	113.54	29.90	-43.8	-49.9	8.6	3.83e-02	0	60	0	227540992	58	7595
2026-01-17 09:13:11.54	113.32	30.06	-43.9	-50.1	8.3	3.99e-02	0	60	0	228589568	58	7791
2026-01-17 09:13:12.55	113.10	30.21	-44.0	-50.7	7.8	6.07e-02	0	60	0	230686720	58	8280
2026-01-17 09:13:13.56	112.89	30.36	-44.0	-50.5	7.9	7.24e-02	0	60	0	232783872	58	8176
2026-01-17 09:13:14.56	112.67	30.51	-44.1	-50.8	7.7	7.86e-02	0	60	0	234881024	58	8394
2026-01-17 09:13:15.57	112.44	30.66	-44.0	-50.7	7.8	9.02e-02	0	60	0	236978176	58	8296
2026-01-17 09:13:16.58	112.22	30.82	-44.0	-50.6	7.9	7.96e-02	0	60	0	238026752	58	8207
2026-01-17 09:13:17.59	111.99	30.97	-44.1	-50.7	7.8	8.13e-02	0	60	0	240123904	58	8291
2026-01-17 09:13:18.60	111.76	31.13	-44.1	-50.7	7.8	8.26e-02	0	60	0	242221056	58	8348
2026-01-17 09:13:19.61	111.52	31.28	-44.1	-50.7	7.7	9.08e-02	0	60	0	244318208	58	8358
2026-01-17 09:13:20.62	111.29	31.43	-44.0	-50.5	7.9	7.95e-02	0	60	0	246415360	58	8174
2026-01-17 09:13:21.63	111.05	31.59	-43.9	-50.3	8.2	5.91e-02	0	60	0	247463936	58	7926
2026-01-17 09:13:22.64	110.81	31.74	-43.9	-50.3	8.2	5.67e-02	0	60	0	249561088	58	7903
2026-01-17 09:13:23.65	110.57	31.90	-44.0	-50.3	8.1	6.40e-02	0	60	0	251658240	58	7990
2026-01-17 09:13:24.65	110.33	32.05	-44.0	-50.5	8.0	6.61e-02	0	60	0	253755392	58	8160
2026-01-17 09:13:25.67	110.08	32.21	-44.0	-50.4	8.1	6.41e-02	0	60	0	255852544	58	8021
2026-01-17 09:13:26.68	109.83	32.37	-44.0	-50.4	8.1	5.79e-02	0	60	0	256901120	58	8036
2026-01-17 09:13:27.69	109.58	32.52	-44.0	-50.3	8.2	5.87e-02	0	60	0	258998272	58	7968
2026-01-17 09:13:28.69	109.33	32.68	-43.9	-50.2	8.3	5.71e-02	0	60	0	261095424	58	7849
2026-01-17 09:13:29.70	109.07	32.83	-43.9	-50.1	8.4	4.99e-02	0	60	0	263192576	58	7762
2026-01-17 09:13:30.71	108.81	32.99	-43.9	-50.1	8.4	4.37e-02	0	60	0	265289728	58	7726
2026-01-17 09:13:31.72	108.55	33.15	-43.9	-50.1	8.4	4.64e-02	0	60	0	266338304	58	7757
2026-01-17 09:13:32.73	108.29	33.30	-43.9	-50.2	8.3	5.20e-02	0	60	0	268435456	58	7844
2026-01-17 09:13:33.74	108.02	33.46	-44.0	-50.3	8.2	5.36e-02	0	60	0	270532608	58	7906
2026-01-17 09:13:34.75	107.75	33.62	-43.9	-49.8	8.7	4.12e-02	0	60	0	272629760	58	7530
2026-01-17 09:13:35.76	107.48	33.78	-43.8	-49.6	8.9	2.95e-02	0	60	0	274726912	58	7346
2026-01-17 09:13:36.77	107.20	33.93	-43.8	-49.7	8.8	2.91e-02	0	60	0	276824064	58	7397
2026-01-17 09:13:37.78	106.93	34.09	-43.7	-49.2	9.3	2.65e-02	0	60	0	277872640	58	7031
2026-01-17 09:13:38.79	106.65	34.25	-43.7	-49.2	9.4	1.68e-02	0	60	0	279969792	58	6994
2026-01-17 09:13:39.80	106.37	34.40	-43.5	-48.8	9.6	1.44e-02	0	60	0	282066944	58	6717
2026-01-17 09:13:40.81	106.08	34.56	-43.4	-48.5	10.0	8.73e-03	0	60	0	284164096	58	6475
2026-01-17 09:13:41.81	105.79	34.72	-43.4	-48.4	10.2	7.29e-03	0	60	0	286261248	58	6351
2026-01-17 09:13:42.82	105.50	34.88	-43.3	-48.3	10.3	5.48e-03	0	61	0	287309824	58	6298
2026-01-17 09:13:43.83	105.21	35.03	-43.3	-48.2	10.5	4.76e-03	0	60	0	289406976	58	6208
2026-01-17 09:13:44.84	104.91	35.19	-43.3	-48.1	10.5	3.93e-03	0	60	0	291504128	58	6158
2026-01-17 09:13:45.85	104.61	35.35	-43.2	-48.0	10.6	3.91e-03	0	61	0	293601280	58	6094
2026-01-17 09:13:46.86	104.31	35.50	-43.2	-47.9	10.7	3.31e-03	0	60	0	295698432	58	6059
2026-01-17 09:13:47.87	104.01	35.66	-43.2	-47.8	10.8	2.50e-03	0	60	0	296747008	58	5990
2026-01-17 09:13:48.88	103.70	35.82	-43.1	-47.8	10.8	2.41e-03	0	60	0	298844160	58	5938
2026-01-17 09:13:49.89	103.39	35.97	-43.1	-47.8	10.8	2.39e-03	0	60	0	300941312	58	5986
2026-01-17 09:13:50.90	103.07	36.13	-43.1	-47.7	11.0	2.19e-03	0	60	0	303038464	58	5868
2026-01-17 09:13:51.91	102.76	36.28	-43.2	-47.9	10.7	2.68e-03	0	60	0	305135616	58	6040
2026-01-17 09:13:52.92	102.44	36.44	-43.3	-48.1	10.6	3.21e-03	0	60	0	306184192	58	6147
2026-01-17 09:13:53.93	102.11	36.60	-43.2	-47.9	10.7	3.49e-03	0	61	0	308281344	58	6049
2026-01-17 09:13:54.94	101.79	36.75	-43.3	-48.2	10.4	4.20e-03	0	60	0	310378496	58	6271
2026-01-17 09:13:55.96	101.45	36.91	-43.3	-48.2	10.4	5.02e-03	0	60	0	312475648	58	6236
2026-01-17 09:13:56.97	101.12	37.06	-43.3	-48.2	10.5	4.29e-03	0	60	0	314572800	58	6206
2026-01-17 09:13:57.98	100.79	37.21	-43.3	-48.1	10.6	4.07e-03	0	61	0	315621376	58	6164
2026-01-17 09:13:58.99	100.45	37.37	-43.3	-48.1	10.5	3.84e-03	0	60	0	317718528	58	6187
2026-01-17 09:14:00.00	100.10	37.52	-43.4	-48.3	10.3	4.37e-03	0	60	0	319815680	58	6309
2026-01-17 09:14:01.01	99.76	37.67	-43.4	-48.4	10.2	5.33e-03	0	61	0	321912832	58	6373
2026-01-17 09:14:02.02	99.41	37.83	-43.4	-48.5	10.1	6.51e-03	0	61	0	324009984	58	6440
2026-01-17 09:14:03.03	99.06	37.98	-43.4	-48.5	10.2	6.08e-03	0	60	0	325058560	58	6432
2026-01-17 09:14:04.04	98.70	38.13	-43.4	-48.4	10.3	5.35e-03	0	60	0	327155712	58	6371
2026-01-17 09:14:05.05	98.34	38.28	-43.3	-48.0	10.6	3.87e-03	0	61	0	329252864	58	6104
2026-01-17 09:14:06.06	97.98	38.43	-43.3	-48.1	10.6	3.51e-03	0	60	0	331350016	58	6173
2026-01-17 09:14:07.07	97.62	38.58	-43.4	-48.3	10.4	3.92e-03	0	61	0	333447168	58	6312
2026-01-17 09:14:08.08	97.25	38.73	-43.5	-48.6	10.1	6.60e-03	0	60	0	334495744	58	6513
2026-01-17 09:14:09.09	96.88	38.87	-43.5	-48.8	9.9	8.02e-03	0	61	0	336592896	58	6657
2026-01-17 09:14:10.10	96.50	39.02	-43.6	-48.9	9.8	9.54e-03	0	60	0	338690048	58	6725
2026-01-17 09:14:11.11	96.12	39.17	-43.5	-48.6	10.0	9.10e-03	0	60	0	340787200	58	6557
2026-01-17 09:14:12.12	95.74	39.31	-43.4	-48.4	10.3	5.80e-03	0	61	0	342884352	58	6379
2026-01-17 09:14:13.13	95.35	39.46	-43.4	-48.5	10.2	5.55e-03	0	60	0	344981504	58	6428
2026-01-17 09:14:14.14	94.96	39.60	-43.4	-48.5	10.2	5.64e-03	0	60	0	346030080	58	6435
2026-01-17 09:14:15.15	94.57	39.74	-43.4	-48.4	10.3	6.65e-03	0	61	0	348127232	58	6383
2026-01-17 09:14:16.15	94.18	39.88	-43.3	-48.1	10.6	4.56e-03	0	60	0	350224384	58	6156
2026-01-17 09:14:17.16	93.78	40.02	-43.2	-47.8	10.9	2.44e-03	0	61	0	352321536	58	5935
2026-01-17 09:14:18.17	93.38	40.16	-43.1	-47.6	11.2	1.70e-03	0	61	0	354418688	58	5793
2026-01-17 09:14:19.18	92.97	40.30	-43.0	-47.3	11.4	1.21e-03	0	61	0	355467264	58	5622
2026-01-17 09:14:20.19	92.56	40.44	-42.9	-47.3	11.5	1.05e-03	0	61	0	357564416	57	5932
2026-01-17 09:14:21.20	92.15	40.57	-42.9	-47.2	11.6	8.14e-04	0	60	0	359661568	57	5872
2026-01-17 09:14:22.21	91.73	40.71	-42.9	-47.1	11.7	7.28e-04	0	61	0	361758720	57	5803
2026-01-17 09:14:23.21	91.31	40.84	-42.8	-46.9	11.9	5.29e-04	0	61	0	363855872	57	5687
2026-01-17 09:14:24.22	90.89	40.97	-42.7	-46.8	12.0	3.39e-04	0	60	0	364904448	57	5631
2026-01-17 09:14:25.23	90.46	41.10	-42.7	-46.7	12.1	3.70e-04	0	61	0	367001600	57	5567
2026-01-17 09:14:26.24	90.03	41.23	-42.6	-46.6	12.2	2.95e-04	0	61	0	369098752	57	5481
2026-01-17 09:14:27.25	89.60	41.36	-42.5	-46.3	12.5	1.27e-04	0	61	0	371195904	57	5328
2026-01-17 09:14:28.26	89.16	41.49	-42.5	-46.3	12.5	9.76e-05	0	61	0	373293056	56	5637
2026-01-17 09:14:29.27	88.72	41.62	-42.5	-46.4	12.4	1.23e-04	0	60	0	374341632	56	5684
2026-01-17 09:14:30.28	88.27	41.74	-42.6	-46.4	12.4	1.65e-04	0	61	0	376438784	56	5718
2026-01-17 09:14:31.29	87.83	41.86	-42.5	-46.3	12.5	1.12e-04	0	61	0	378535936	56	5620
2026-01-17 09:14:32.30	87.38	41.98	-42.5	-46.2	12.6	7.93e-05	0	61	0	380633088	56	5569
2026-01-17 09:14:33.31	86.92	42.10	-42.7	-46.8	12.0	2.26e-04	0	61	0	382730240	56	5934
2026-01-17 09:14:34.32	86.46	42.22	-42.8	-47.0	11.8	3.76e-04	0	61	0	383778816	56	6113
2026-01-17 09:14:35.33	86.00	42.33	-42.9	-47.1	11.7	5.14e-04	0	61	0	385875968	56	6156
2026-01-17 09:14:36.34	85.54	42.45	-43.0	-47.3	11.5	5.12e-04	0	60	0	387973120	56	6293
2026-01-17 09:14:37.35	85.07	42.56	-43.0	-47.4	11.4	1.02e-03	0	60	0	390070272	56	6348
2026-01-17 09:14:38.36	84.60	42.67	-43.0	-47.4	11.4	9.76e-04	0	61	0	392167424	56	6369
2026-01-17 09:14:39.37	84.12	42.78	-42.9	-47.2	11.6	8.89e-04	0	60	0	393216000	56	6249
2026-01-17 09:14:40.37	83.65	42.89	-42.8	-47.0	11.8	4.47e-04	0	61	0	395313152	56	6104
2026-01-17 09:14:41.38	83.17	42.99	-42.7	-46.7	12.1	3.58e-04	0	60	0	397410304	56	5920
2026-01-17 09:14:42.39	82.69	43.09	-42.7	-46.7	12.2	2.53e-04	0	60	0	399507456	56	5857
2026-01-17 09:14:43.40	82.20	43.19	-42.5	-46.3	12.6	1.49e-04	0	61	0	401604608	56	5634
2026-01-17 09:14:44.41	81.71	43.29	-42.7	-46.7	12.1	2.70e-04	0	61	0	402653184	56	5887
2026-01-17 09:14:45.42	81.22	43.39	-42.8	-47.0	11.8	3.08e-04	0	60	0	404750336	56	6087
2026-01-17 09:14:46.43	80.72	43.48	-42.8	-46.9	11.9	4.00e-04	0	61	0	406847488	56	6058
2026-01-17 09:14:47.44	80.22	43.58	-42.7	-46.6	12.2	2.62e-04	0	61	0	408944640	56	5833
2026-01-17 09:14:48.45	79.72	43.66	-42.7	-46.7	12.2	2.46e-04	0	61	0	411041792	56	5860
2026-01-17 09:14:49.46	79.22	43.75	-42.7	-46.7	12.2	2.61e-04	0	60	0	413138944	56	5875
2026-01-17 09:14:50.47	78.71	43.84	-42.7	-46.6	12.3	2.12e-04	0	61	0	414187520	56	5827
2026-01-17 09:14:51.48	78.20	43.92	-42.6	-46.5	12.3	2.20e-04	0	61	0	416284672	56	5736
2026-01-17 09:14:52.49	77.69	44.00	-42.6	-46.5	12.3	1.40e-04	0	60	0	418381824	56	5770
2026-01-17 09:14:53.50	77.17	44.08	-42.6	-46.5	12.3	1.91e-04	0	60	0	420478976	56	5764
2026-01-17 09:14:54.51	76.65	44.16	-42.7	-46.6	12.3	2.33e-04	0	60	0	422576128	56	5801
2026-01-17 09:14:55.52	76.13	44.23	-42.7	-46.7	12.1	2.01e-04	0	61	0	423624704	56	5915
2026-01-17 09:14:56.53	75.61	44.30	-42.9	-47.0	11.8	4.42e-04	0	61	0	425721856	56	6111
2026-01-17 09:14:57.54	75.09	44.37	-43.1	-47.5	11.3	9.32e-04	0	61	0	427819008	56	6436
2026-01-17 09:14:58.55	74.56	44.43	-43.1	-47.5	11.3	1.22e-03	0	61	0	429916160	56	6491
2026-01-17 09:14:59.56	74.03	44.50	-43.0	-47.4	11.4	1.02e-03	0	61	0	432013312	56	6387
2026-01-17 09:15:00.57	73.50	44.56	-43.1	-47.6	11.2	1.28e-03	0	61	0	433061888	56	6501
2026-01-17 09:15:01.57	72.97	44.61	-43.1	-47.5	11.4	1.22e-03	0	61	0	435159040	56	6443
2026-01-17 09:15:02.58	72.44	44.67	-43.0	-47.4	11.4	1.09e-03	0	60	0	437256192	56	6377
2026-01-17 09:15:03.60	71.90	44.72	-43.2	-47.7	11.2	1.31e-03	0	61	0	439353344	56	6578
2026-01-17 09:15:04.61	71.36	44.77	-43.2	-47.8	11.1	1.54e-03	0	61	0	441450496	56	6675
2026-01-17 09:15:05.62	70.82	44.82	-43.3	-48.0	10.8	2.37e-03	0	61	0	442499072	57	6421
2026-01-17 09:15:06.62	70.28	44.86	-43.4	-48.2	10.6	3.17e-03	0	61	0	444596224	57	6646
2026-01-17 09:15:07.63	69.74	44.90	-43.4	-48.3	10.5	3.46e-03	0	61	0	446693376	57	6658
2026-01-17 09:15:08.64	69.20	44.94	-43.4	-48.2	10.6	3.46e-03	0	61	0	448790528	57	6589
2026-01-17 09:15:09.65	68.65	44.98	-43.4	-48.2	10.7	2.97e-03	0	61	0	450887680	57	6614
2026-01-17 09:15:10.66	68.10	45.01	-43.4	-48.2	10.6	3.24e-03	0	61	0	451936256	57	6594
2026-01-17 09:15:11.67	67.56	45.04	-43.4	-48.1	10.7	3.34e-03	0	60	0	454033408	57	6505
2026-01-17 09:15:12.68	67.01	45.06	-43.3	-48.0	10.8	2.76e-03	0	61	0	456130560	57	6445
2026-01-17 09:15:13.69	66.46	45.09	-43.4	-48.1	10.7	2.83e-03	0	60	0	458227712	57	6534
2026-01-17 09:15:14.70	65.91	45.11	-43.5	-48.4	10.4	3.58e-03	0	60	0	460324864	57	6793
2026-01-17 09:15:15.71	65.36	45.13	-43.6	-48.6	10.2	6.27e-03	0	61	0	461373440	57	6894
2026-01-17 09:15:16.72	64.80	45.14	-43.4	-48.2	10.5	5.29e-03	0	61	0	463470592	57	6618
2026-01-17 09:15:17.73	64.25	45.16	-43.4	-48.3	10.5	3.73e-03	0	61	0	465567744	57	6672
2026-01-17 09:15:18.74	63.70	45.16	-43.5	-48.4	10.3	5.08e-03	0	61	0	467664896	57	6797
2026-01-17 09:15:19.75	63.15	45.17	-43.5	-48.3	10.5	5.19e-03	0	61	0	469762048	57	6698
2026-01-17 09:15:20.76	62.60	45.17	-43.5	-48.4	10.4	4.46e-03	0	61	0	470810624	57	6752
2026-01-17 09:15:21.77	62.04	45.17	-43.5	-48.5	10.2	4.68e-03	0	61	0	472907776	57	6846
2026-01-17 09:15:22.78	61.49	45.17	-43.7	-48.8	9.9	7.14e-03	0	61	0	475004928	57	7095
2026-01-17 09:15:23.79	60.94	45.17	-43.7	-48.9	9.8	9.25e-03	0	61	0	477102080	57	7178
2026-01-17 09:15:24.80	60.38	45.16	-43.7	-49.0	9.8	8.35e-03	0	60	0	479199232	58	6847
2026-01-17 09:15:25.80	59.84	45.15	-43.9	-49.5	9.3	1.34e-02	0	61	0	481296384	58	7242
2026-01-17 09:15:26.82	59.28	45.13	-43.9	-49.4	9.3	1.67e-02	0	61	0	482344960	58	7177
2026-01-17 09:15:27.82	58.74	45.12	-43.8	-49.2	9.6	1.58e-02	0	61	0	484442112	58	7004
2026-01-17 09:15:28.84	58.18	45.09	-43.8	-49.2	9.5	1.48e-02	0	61	0	486539264	58	7038
2026-01-17 09:15:29.85	57.63	45.07	-43.9	-49.4	9.4	1.67e-02	0	60	0	488636416	58	7152
2026-01-17 09:15:30.86	57.08	45.05	-43.7	-49.1	9.6	1.50e-02	0	61	0	490733568	58	6909
2026-01-17 09:15:31.86	56.54	45.02	-43.8	-49.1	9.6	1.24e-02	0	61	0	491782144	58	6957
2026-01-17 09:15:32.87	55.99	44.99	-44.0	-49.8	8.9	1.81e-02	0	61	0	493879296	58	7499
2026-01-17 09:15:33.88	55.45	44.95	-44.1	-50.1	8.5	3.48e-02	0	61	0	495976448	58	7746
2026-01-17 09:15:34.90	54.90	44.91	-44.1	-50.1	8.7	3.86e-02	0	61	0	498073600	58	7734
2026-01-17 09:15:35.90	54.36	44.87	-44.0	-49.7	8.9	2.78e-02	0	61	0	500170752	58	7432
2026-01-17 09:15:36.91	53.82	44.83	-43.9	-49.5	9.2	2.40e-02	0	61	0	501219328	58	7219
2026-01-17 09:15:37.93	53.27	44.78	-44.0	-49.7	9.0	2.55e-02	0	61	0	503316480	58	7426
2026-01-17 09:15:38.93	52.74	44.73	-44.0	-50.0	8.8	2.80e-02	0	61	0	505413632	58	7640
2026-01-17 09:15:39.94	52.21	44.68	-44.1	-50.2	8.5	3.83e-02	0	61	0	507510784	58	7858
2026-01-17 09:15:40.95	51.67	44.63	-44.1	-50.4	8.3	4.59e-02	0	61	0	509607936	58	8011
2026-01-17 09:15:41.96	51.14	44.57	-43.9	-49.6	9.1	3.25e-02	0	61	0	510656512	58	7335
2026-01-17 09:15:42.97	50.61	44.51	-43.8	-49.2	9.4	1.78e-02	0	61	0	512753664	58	7035
2026-01-17 09:15:43.98	50.08	44.45	-43.8	-49.1	9.6	1.54e-02	0	61	0	514850816	58	6946
2026-01-17 09:15:44.99	49.55	44.39	-43.7	-49.0	9.6	1.44e-02	0	61	0	516947968	58	6860
2026-01-17 09:15:46.00	49.03	44.32	-43.7	-48.9	9.8	1.15e-02	0	61	0	519045120	58	6731
2026-01-17 09:15:47.01	48.51	44.25	-43.6	-48.7	10.1	8.02e-03	0	61	0	520093696	58	6633
2026-01-17 09:15:48.02	47.99	44.18	-43.4	-48.1	10.7	3.86e-03	0	60	0	522190848	58	6200
2026-01-17 09:15:49.03	47.47	44.10	-43.3	-48.0	10.7	3.37e-03	0	61	0	524288000	58	6115
2026-01-17 09:15:50.03	46.96	44.02	-43.3	-47.9	10.9	2.36e-03	0	61	0	526385152	58	6033
2026-01-17 09:15:51.04	46.45	43.95	-43.1	-47.5	11.3	1.40e-03	0	61	0	528482304	58	5736
2026-01-17 09:15:52.05	45.94	43.86	-43.0	-47.2	11.6	8.57e-04	0	61	0	529530880	58	5551
2026-01-17 09:15:53.06	45.43	43.78	-42.9	-47.0	11.7	6.03e-04	0	61	0	531628032	57	5778
2026-01-17 09:15:54.07	44.93	43.69	-42.8	-46.8	12.1	4.20e-04	0	61	0	533725184	57	5600
2026-01-17 09:15:55.08	44.42	43.60	-42.8	-46.7	12.0	3.35e-04	0	61	0	535822336	57	5585
2026-01-17 09:15:56.09	43.93	43.51	-42.7	-46.6	12.1	2.42e-04	0	61	0	537919488	57	5513
2026-01-17 09:15:57.10	43.43	43.42	-42.7	-46.6	12.2	2.55e-04	0	60	0	538968064	57	5494
2026-01-17 09:15:58.11	42.94	43.32	-42.6	-46.3	12.4	1.79e-04	0	61	0	541065216	57	5327
2026-01-17 09:15:59.12	42.45	43.22	-42.5	-46.2	12.6	8.92e-05	0	61	0	543162368	57	5257
2026-01-17 09:16:00.13	41.96	43.12	-42.4	-46.1	12.7	9.15e-05	0	61	0	545259520	56	5506
2026-01-17 09:16:01.14	41.48	43.02	-42.3	-45.9	12.9	6.33e-05	0	61	0	547356672	56	5370
2026-01-17 09:16:02.15	41.00	42.92	-42.2	-45.7	13.1	4.80e-05	0	61	0	549453824	56	5274
2026-01-17 09:16:03.16	40.52	42.81	-42.1	-45.5	13.3	2.89e-05	0	60	0	550502400	56	5113
2026-01-17 09:16:04.17	40.04	42.71	-41.7	-44.9	13.7	9.10e-06	0	61	0	552599552	55	5100
2026-01-17 09:16:05.18	39.57	42.60	-41.7	-44.9	13.8	2.20e-06	0	61	0	554696704	55	5052
2026-01-17 09:16:06.19	39.11	42.48	-41.6	-44.7	13.9	3.00e-06	0	61	0	556793856	55	4983
2026-01-17 09:16:07.19	38.65	42.37	-41.5	-44.6	14.1	2.20e-06	0	61	0	558891008	55	4906
2026-01-17 09:16:08.20	38.18	42.26	-41.4	-44.4	14.3	0.00e+00	0	60	0	559939584	54	5050
2026-01-17 09:16:09.21	37.73	42.14	-41.2	-44.1	14.6	7.00e-07	0	61	0	562036736	54	4888
2026-01-17 09:16:10.22	37.27	42.02	-41.2	-44.0	14.7	7.00e-07	0	61	0	564133888	54	4844
2026-01-17 09:16:11.23	36.82	41.90	-41.3	-44.3	14.4	0.00e+00	0	61	0	566231040	54	5001
2026-01-17 09:16:12.24	36.37	41.78	-41.3	-44.2	14.4	7.00e-07	0	60	0	568328192	54	4964
2026-01-17 09:16:13.25	35.93	41.66	-41.3	-44.2	14.4	7.00e-07	0	61	0	569376768	54	4969
2026-01-17 09:16:14.26	35.49	41.53	-41.3	-44.2	14.5	0.00e+00	0	61	0	571473920	54	4928
2026-01-17 09:16:15.27	35.05	41.41	-41.3	-44.3	14.4	1.50e-06	0	61	0	573571072	54	4999
2026-01-17 09:16:16.28	34.62	41.28	-41.2	-44.1	14.5	7.00e-07	0	61	0	575668224	54	4916
2026-01-17 09:16:17.29	34.19	41.15	-41.2	-44.1	14.6	0.00e+00	0	61	0	577765376	54	4900
2026-01-17 09:16:18.30	33.76	41.02	-41.4	-44.3	14.3	7.00e-07	0	61	0	578813952	54	5024
2026-01-17 09:16:19.31	33.33	40.89	-41.4	-44.4	14.2	1.50e-06	0	60	0	580911104	54	5061
2026-01-17 09:16:20.32	32.91	40.76	-41.4	-44.3	14.3	2.20e-06	0	61	0	583008256	54	5023
2026-01-17 09:16:21.33	32.50	40.62	-41.4	-44.3	14.3	1.50e-06	0	61	0	585105408	54	5034
2026-01-17 09:16:22.34	32.08	40.49	-41.3	-44.2	14.4	1.50e-06	0	61	0	587202560	54	4949
2026-01-17 09:16:23.35	31.68	40.35	-41.3	-44.1	14.5	0.00e+00	0	61	0	588251136	54	4920
2026-01-17 09:16:24.36	31.27	40.21	-41.2	-44.1	14.6	0.00e+00	0	61	0	590348288	54	4889
2026-01-17 09:16:25.37	30.87	40.07	-41.2	-44.0	14.7	0.00e+00	0	60	0	592445440	54	4826
2026-01-17 09:16:26.38	30.47	39.93	-41.3	-44.2	14.4	7.00e-07	0	60	0	594542592	54	4967
2026-01-17 09:16:27.39	30.07	39.79	-41.5	-44.5	14.1	1.50e-06	0	60	0	596639744	54	5154
2026-01-17 09:16:28.40	29.68	39.65	-41.6	-44.8	13.8	3.00e-06	0	61	0	597688320	54	5307
2026-01-17 09:16:29.41	29.29	39.51	-41.7	-44.8	13.8	6.10e-06	0	61	0	599785472	54	5331
2026-01-17 09:16:30.42	28.90	39.36	-41.6	-44.7	13.8	2.20e-06	0	61	0	601882624	54	5267
2026-01-17 09:16:31.42	28.53	39.22	-41.5	-44.6	13.9	2.20e-06	0	61	0	603979776	54	5214
2026-01-17 09:16:32.43	28.15	39.08	-41.6	-44.7	13.9	3.00e-06	0	61	0	606076928	54	5244
2026-01-17 09:16:33.44	27.77	38.93	-41.6	-44.7	13.9	3.00e-06	0	61	0	607125504	54	5231
2026-01-17 09:16:34.45	27.40	38.78	-41.7	-44.9	13.6	3.80e-06	0	61	0	609222656	54	5384
2026-01-17 09:16:35.46	27.03	38.64	-41.8	-45.0	13.5	7.60e-06	0	60	0	611319808	54	5458
2026-01-17 09:16:36.47	26.67	38.49	-41.9	-45.4	13.2	1.67e-05	0	61	0	613416960	54	5662
2026-01-17 09:16:37.48	26.31	38.34	-42.0	-45.5	13.1	2.21e-05	0	61	0	615514112	54	5738
2026-01-17 09:16:38.49	25.95	38.19	-42.1	-45.7	12.9	6.02e-05	0	61	0	617611264	54	5901
2026-01-17 09:16:39.50	25.59	38.04	-42.2	-45.8	12.7	5.03e-05	0	61	0	618659840	54	5973
2026-01-17 09:16:40.51	25.24	37.89	-42.2	-45.8	12.7	9.15e-05	0	61	0	620756992	55	5656
2026-01-17 09:16:41.52	24.89	37.74	-42.1	-45.7	12.8	7.01e-05	0	61	0	622854144	55	5588
2026-01-17 09:16:42.53	24.55	37.59	-42.1	-45.7	12.8	5.64e-05	0	61	0	624951296	55	5581
2026-01-17 09:16:43.54	24.20	37.43	-42.2	-45.8	12.7	5.95e-05	0	61	0	627048448	55	5603
2026-01-17 09:16:44.55	23.87	37.28	-42.1	-45.7	12.9	6.71e-05	0	61	0	628097024	55	5535
2026-01-17 09:16:45.56	23.53	37.13	-42.1	-45.7	12.9	6.48e-05	0	61	0	630194176	55	5545
2026-01-17 09:16:46.57	23.20	36.97	-42.3	-46.0	12.5	9.30e-05	0	61	0	632291328	55	5784
2026-01-17 09:16:47.58	22.87	36.82	-42.4	-46.3	12.2	1.86e-04	0	61	0	634388480	55	5964
2026-01-17 09:16:48.59	22.54	36.67	-42.5	-46.5	12.0	2.66e-04	0	61	0	636485632	55	6124
2026-01-17 09:16:49.60	22.22	36.51	-42.7	-46.9	11.6	5.71e-04	0	61	0	637534208	55	6368
2026-01-17 09:16:50.61	21.90	36.36	-42.9	-47.2	11.5	7.85e-04	0	61	0	639631360	56	6203
2026-01-17 09:16:51.62	21.58	36.20	-42.9	-47.1	11.5	8.24e-04	0	61	0	641728512	56	6149
2026-01-17 09:16:52.63	21.27	36.05	-42.8	-47.0	11.5	7.57e-04	0	61	0	643825664	56	6129
2026-01-17 09:16:53.64	20.96	35.89	-42.9	-47.3	11.3	8.14e-04	0	61	0	645922816	56	6300
2026-01-17 09:16:54.65	20.65	35.74	-43.0	-47.5	11.1	1.28e-03	0	61	0	646971392	56	6444
2026-01-17 09:16:55.66	20.35	35.58	-43.2	-47.9	10.7	2.11e-03	0	61	0	649068544	56	6768
2026-01-17 09:16:56.67	20.04	35.42	-43.3	-48.1	10.5	3.85e-03	0	61	0	651165696	57	6524
2026-01-17 09:16:57.68	19.74	35.27	-43.4	-48.4	10.1	5.52e-03	0	61	0	653262848	57	6736
2026-01-17 09:16:58.69	19.45	35.11	-43.4	-48.6	9.9	7.08e-03	0	61	0	655360000	57	6882
2026-01-17 09:16:59.70	19.15	34.95	-43.5	-48.8	9.7	9.81e-03	0	61	0	656408576	57	7086
2026-01-17 09:17:00.69	18.87	34.80	-43.6	-48.8	9.7	1.23e-02	0	61	0	658505728	57	7107
2026-01-17 09:17:01.70	18.58	34.64	-43.6	-48.9	9.6	1.23e-02	0	61	0	660602880	57	7161
2026-01-17 09:17:02.71	18.30	34.49	-43.6	-48.9	9.6	1.25e-02	0	61	0	662700032	57	7157
2026-01-17 09:17:03.72	18.01	34.33	-43.7	-49.2	9.2	1.74e-02	0	61	0	664797184	57	7438
2026-01-17 09:17:04.73	17.74	34.18	-43.7	-49.4	9.1	2.16e-02	0	61	0	665845760	58	7170
2026-01-17 09:17:05.74	17.46	34.02	-43.9	-49.8	8.7	2.95e-02	0	61	0	667942912	58	7484
2026-01-17 09:17:06.75	17.18	33.86	-43.9	-49.8	8.6	3.78e-02	0	61	0	670040064	58	7475
2026-01-17 09:17:07.76	16.91	33.71	-43.9	-50.0	8.4	4.17e-02	0	61	0	672137216	58	7695
2026-01-17 09:17:08.77	16.64	33.55	-44.0	-50.2	8.2	4.83e-02	0	61	0	674234368	58	7882
2026-01-17 09:17:09.77	16.38	33.39	-44.1	-50.7	7.7	7.73e-02	0	61	0	675282944	58	8338
2026-01-17 09:17:10.78	16.12	33.24	-44.1	-50.5	7.9	7.07e-02	0	61	0	677380096	58	8165
2026-01-17 09:17:11.79	15.86	33.08	-44.0	-50.4	8.0	7.63e-02	0	61	0	679477248	58	8028
2026-01-17 09:17:12.80	15.60	32.93	-43.9	-50.1	8.3	5.19e-02	0	61	0	681574400	58	7804
2026-01-17 09:17:13.81	15.34	32.77	-43.9	-50.1	8.3	5.08e-02	0	61	0	683671552	58	7757
2026-01-17 09:17:14.82	15.09	32.62	-43.8	-49.8	8.6	4.52e-02	0	61	0	684720128	58	7461
2026-01-17 09:17:15.83	14.84	32.46	-43.9	-49.8	8.5	4.22e-02	0	61	0	686817280	58	7520
2026-01-17 09:17:16.84	14.59	32.30	-43.9	-49.9	8.5	3.81e-02	0	61	0	688914432	58	7574
2026-01-17 09:17:17.85	14.34	32.15	-43.9	-50.0	8.5	4.27e-02	0	61	0	691011584	58	7691
2026-01-17 09:17:18.85	14.10	32.00	-43.9	-49.9	8.6	4.51e-02	0	61	0	693108736	58	7558
2026-01-17 09:17:19.86	13.86	31.84	-43.9	-49.9	8.5	4.23e-02	0	61	0	694157312	58	7628
2026-01-17 09:17:20.87	13.62	31.69	-43.8	-49.6	8.8	3.79e-02	0	61	0	696254464	58	7323
2026-01-17 09:17:21.88	13.38	31.53	-43.8	-49.6	8.8	2.98e-02	0	61	0	698351616	58	7301
2026-01-17 09:17:22.89	13.15	31.38	-43.7	-49.3	9.1	2.70e-02	0	61	0	700448768	58	7054
2026-01-17 09:17:23.90	12.92	31.23	-43.7	-49.3	9.0	2.42e-02	0	61	0	702545920	58	7115
2026-01-17 09:17:24.91	12.68	31.07	-43.6	-49.0	9.4	1.78e-02	0	61	0	703594496	58	6810
2026-01-17 09:17:25.92	12.46	30.92	-43.6	-49.0	9.5	1.56e-02	0	61	0	705691648	58	6808
2026-01-17 09:17:26.93	12.23	30.77	-43.5	-48.8	9.6	1.29e-02	0	61	0	707788800	58	6667
2026-01-17 09:17:27.94	12.01	30.61	-43.5	-48.8	9.6	1.26e-02	0	61	0	709885952	58	6664
2026-01-17 09:17:28.95	11.79	30.46	-43.3	-48.4	10.1	8.51e-03	0	61	0	711983104	58	6360
2026-01-17 09:17:29.95	11.57	30.31	-43.4	-48.5	9.9	7.85e-03	0	61	0	714080256	58	6493
2026-01-17 09:17:30.96	11.35	30.16	-43.4	-48.5	9.9	9.55e-03	0	61	0	715128832	58	6474
2026-01-17 09:17:31.97	11.14	30.01	-43.5	-48.9	9.5	9.61e-03	0	61	0	717225984	58	6761
2026-01-17 09:17:32.98	10.92	29.86	-43.6	-49.0	9.4	1.54e-02	0	61	0	719323136	58	6859
2026-01-17 09:17:33.99	10.71	29.71	-43.6	-49.0	9.4	1.58e-02	0	61	0	721420288	58	6865
2026-01-17 09:17:35.00	10.50	29.56	-43.4	-48.7	9.7	1.57e-02	0	61	0	723517440	58	6622
2026-01-17 09:17:36.01	10.29	29.41	-43.4	-48.7	9.8	1.08e-02	0	61	0	724566016	58	6583
2026-01-17 09:17:37.02	10.09	29.26	-43.4	-48.7	9.8	1.19e-02	0	61	0	726663168	58	6582
2026-01-17 09:17:38.03	9.89	29.11	-43.4	-48.6	9.8	1.02e-02	0	61	0	728760320	58	6511
2026-01-17 09:17:39.04	9.68	28.96	-43.4	-48.5	9.9	9.43e-03	0	61	0	730857472	58	6459
2026-01-17 09:17:40.05	9.48	28.81	-43.4	-48.5	9.9	8.75e-03	0	61	0	732954624	58	6485
2026-01-17 09:17:41.06	9.29	28.66	-43.4	-48.5	9.8	9.19e-03	0	61	0	734003200	58	6492
2026-01-17 09:17:42.07	9.09	28.52	-43.3	-48.4	10.0	8.52e-03	0	61	0	736100352	58	6356
2026-01-17 09:17:43.08	8.90	28.37	-43.4	-48.5	9.8	9.28e-03	0	61	0	738197504	58	6475
2026-01-17 09:17:44.09	8.70	28.22	-43.4	-48.6	9.8	9.32e-03	0	61	0	740294656	58	6505
2026-01-17 09:17:45.10	8.51	28.08	-43.3	-48.5	9.9	9.58e-03	0	61	0	742391808	58	6432
2026-01-17 09:17:46.11	8.32	27.93	-43.3	-48.3	10.0	7.81e-03	0	61	0	743440384	58	6326
2026-01-17 09:17:47.12	8.14	27.79	-43.3	-48.3	10.1	6.61e-03	0	61	0	745537536	58	6289
2026-01-17 09:17:48.13	7.95	27.64	-43.2	-48.2	10.1	7.27e-03	0	61	0	747634688	58	6263
2026-01-17 09:17:49.14	7.77	27.50	-43.3	-48.4	10.0	7.26e-03	0	61	0	749731840	58	6395
2026-01-17 09:17:50.15	7.59	27.35	-43.3	-48.5	9.8	9.59e-03	0	61	0	751828992	58	6476
2026-01-17 09:17:51.16	7.41	27.21	-43.4	-48.8	9.5	9.87e-03	0	61	0	752877568	58	6675
2026-01-17 09:17:52.17	7.23	27.07	-43.4	-48.7	9.6	1.31e-02	0	61	0	754974720	58	6644
2026-01-17 09:17:53.18	7.05	26.92	-43.4	-48.7	9.6	1.19e-02	0	61	0	757071872	58	6609
2026-01-17 09:17:54.19	6.88	26.78	-43.3	-48.5	9.8	1.13e-02	0	61	0	759169024	58	6481
2026-01-17 09:17:55.20	6.70	26.64	-43.3	-48.4	9.9	8.27e-03	0	61	0	761266176	58	6376
2026-01-17 09:17:56.21	6.53	26.50	-43.2	-48.1	10.2	7.21e-03	0	61	0	762314752	58	6179
2026-01-17 09:17:57.22	6.36	26.36	-43.2	-48.1	10.2	5.41e-03	0	61	0	764411904	58	6171
2026-01-17 09:17:58.23	6.19	26.22	-43.1	-48.1	10.2	5.94e-03	0	61	0	766509056	58	6138
2026-01-17 09:17:59.24	6.02	26.08	-43.1	-47.9	10.4	4.44e-03	0	61	0	768606208	58	6010
2026-01-17 09:18:00.25	5.86	25.94	-43.1	-47.9	10.4	4.18e-03	0	61	0	770703360	58	6014
2026-01-17 09:18:01.26	5.69	25.80	-43.0	-47.9	10.5	3.98e-03	0	61	0	771751936	58	5993
2026-01-17 09:18:02.26	5.53	25.66	-43.1	-47.9	10.4	4.42e-03	0	61	0	773849088	58	6047
2026-01-17 09:18:03.27	5.37	25.52	-43.1	-47.9	10.4	4.84e-03	0	61	0	775946240	58	6029
2026-01-17 09:18:04.28	5.21	25.39	-43.0	-47.9	10.4	4.95e-03	0	61	0	778043392	58	6025
2026-01-17 09:18:05.30	5.05	25.25	-43.1	-48.0	10.3	4.74e-03	0	61	0	780140544	58	6081
2026-01-17 09:18:06.31	4.89	25.11	-43.1	-48.1	10.2	5.80e-03	0	61	0	782237696	58	6163
2026-01-17 09:18:07.32	4.73	24.97	-43.1	-48.1	10.2	6.12e-03	0	61	0	783286272	58	6137
2026-01-17 09:18:08.33	4.58	24.84	-43.1	-48.1	10.1	6.46e-03	0	61	0	785383424	58	6192
2026-01-17 09:18:09.33	4.43	24.70	-43.1	-48.0	10.2	6.50e-03	0	61	0	787480576	58	6103
2026-01-17 09:18:10.34	4.27	24.57	-43.1	-48.0	10.2	5.85e-03	0	61	0	789577728	58	6121
2026-01-17 09:18:11.35	4.12	24.43	-43.0	-47.9	10.3	4.87e-03	0	61	0	791674880	58	6034
2026-01-17 09:18:12.36	3.97	24.30	-43.0	-48.0	10.3	5.25e-03	0	61	0	792723456	58	6062
2026-01-17 09:18:13.37	3.83	24.17	-43.0	-47.8	10.4	4.87e-03	0	61	0	794820608	58	5985
2026-01-17 09:18:14.38	3.68	24.03	-42.9	-47.6	10.6	3.79e-03	0	61	0	796917760	57	6202
2026-01-17 09:18:15.39	3.53	23.90	-42.9	-47.5	10.7	3.54e-03	0	61	0	799014912	57	6117
2026-01-17 09:18:16.40	3.39	23.77	-42.8	-47.5	10.7	3.11e-03	0	61	0	801112064	57	6099
2026-01-17 09:18:17.41	3.25	23.64	-42.8	-47.4	10.8	2.67e-03	0	61	0	802160640	57	6028
2026-01-17 09:18:18.42	3.10	23.51	-42.8	-47.4	10.8	2.64e-03	0	61	0	804257792	57	6035
2026-01-17 09:18:19.43	2.96	23.38	-42.7	-47.3	10.9	2.68e-03	0	61	0	806354944	57	5978
2026-01-17 09:18:20.44	2.82	23.25	-42.7	-47.2	11.0	2.21e-03	0	61	0	808452096	57	5888
2026-01-17 09:18:21.45	2.69	23.12	-42.7	-47.3	10.9	2.27e-03	0	61	0	810549248	57	5963
2026-01-17 09:18:22.46	2.55	22.99	-42.8	-47.5	10.6	2.65e-03	0	61	0	811597824	57	6086
2026-01-17 09:18:23.47	2.41	22.86	-42.8	-47.5	10.7	3.33e-03	0	61	0	813694976	57	6084
2026-01-17 09:18:24.48	2.28	22.73	-42.7	-47.4	10.7	3.02e-03	0	61	0	815792128	57	6030
2026-01-17 09:18:25.49	2.14	22.60	-42.8	-47.5	10.7	2.87e-03	0	61	0	817889280	57	6074
2026-01-17 09:18:26.50	2.01	22.47	-42.8	-47.5	10.6	3.25e-03	0	61	0	819986432	57	6089
2026-01-17 09:18:27.51	1.88	22.35	-42.7	-47.5	10.7	3.33e-03	0	61	0	821035008	57	6090
2026-01-17 09:18:28.52	1.75	22.22	-42.7	-47.4	10.7	3.09e-03	0	61	0	823132160	57	6023
2026-01-17 09:18:29.53	1.62	22.10	-42.8	-47.5	10.7	3.13e-03	0	61	0	825229312	57	6092
2026-01-17 09:18:30.54	1.49	21.97	-42.7	-47.3	10.8	2.62e-03	0	61	0	827326464	57	5975
2026-01-17 09:18:31.55	1.36	21.84	-42.7	-47.3	10.8	2.85e-03	0	61	0	829423616	57	5955
2026-01-17 09:18:32.56	1.24	21.72	-42.7	-47.3	10.7	2.84e-03	0	61	0	830472192	57	5985
2026-01-17 09:18:33.57	1.11	21.60	-42.6	-47.3	10.8	2.78e-03	0	61	0	832569344	57	5948
2026-01-17 09:18:34.58	0.99	21.47	-42.7	-47.4	10.6	2.90e-03	0	61	0	834666496	57	6035
2026-01-17 09:18:35.59	0.87	21.35	-42.7	-47.6	10.4	3.67e-03	0	61	0	836763648	57	6172
2026-01-17 09:18:36.60	0.74	21.23	-42.7	-47.5	10.5	4.10e-03	0	61	0	838860800	57	6126
2026-01-17 09:18:37.61	0.62	21.10	-42.6	-47.5	10.5	4.28e-03	0	61	0	839909376	57	6073
2026-01-17 09:18:38.62	0.50	20.98	-42.6	-47.5	10.5	4.11e-03	0	61	0	842006528	57	6101
2026-01-17 09:18:39.63	0.38	20.86	-42.7	-47.6	10.4	4.87e-03	0	61	0	844103680	57	6132
2026-01-17 09:18:40.64	0.27	20.74	-42.7	-47.5	10.3	4.71e-03	0	61	0	846200832	57	6130
2026-01-17 09:18:41.65	0.15	20.62	-42.7	-47.7	10.2	5.19e-03	0	61	0	848297984	57	6211
2026-01-17 09:18:42.65	0.03	20.50	-42.6	-47.6	10.3	5.55e-03	0	61	0	850395136	57	6174
2026-01-17 09:18:43.66	359.92	20.38	-42.7	-47.6	10.2	5.14e-03	0	61	0	851443712	57	6162
2026-01-17 09:18:44.67	359.80	20.26	-42.7	-47.7	10.2	6.37e-03	0	61	0	853540864	57	6205
2026-01-17 09:18:45.68	359.69	20.14	-42.7	-47.8	10.0	6.92e-03	0	61	0	855638016	57	6316
2026-01-17 09:18:46.69	359.58	20.03	-42.6	-47.6	10.2	7.54e-03	0	61	0	857735168	57	6174
2026-01-17 09:18:47.70	359.47	19.91	-42.6	-47.5	10.2	6.20e-03	0	61	0	859832320	57	6126
2026-01-17 09:18:48.71	359.36	19.79	-42.5	-47.5	10.2	5.53e-03	0	61	0	860880896	56	6442
2026-01-17 09:18:49.72	359.25	19.67	-42.3	-47.4	10.3	5.35e-03	0	61	0	862978048	56	6395
2026-01-17 09:18:50.73	359.14	19.56	-42.2	-47.5	10.1	5.87e-03	0	61	0	865075200	56	6444
2026-01-17 09:18:51.74	359.03	19.44	-42.1	-47.5	10.0	8.02e-03	0	60	0	867172352	56	6489
2026-01-17 09:18:52.75	358.92	19.33	-42.1	-47.4	10.1	6.97e-03	0	61	0	869269504	56	6366
2026-01-17 09:18:53.76	358.81	19.21	-42.1	-47.4	10.1	6.87e-03	0	61	0	870318080	56	6383
2026-01-17 09:18:54.77	358.71	19.10	-42.2	-47.5	9.8	8.18e-03	0	61	0	872415232	56	6484
2026-01-17 09:18:55.78	358.60	18.98	-42.3	-47.7	9.5	1.15e-02	0	61	0	874512384	56	6623
2026-01-17 09:18:56.79	358.50	18.87	-42.3	-47.7	9.6	1.34e-02	0	61	0	876609536	56	6586
2026-01-17 09:18:57.80	358.40	18.75	-42.3	-47.6	9.5	1.33e-02	0	61	0	878706688	56	6532
2026-01-17 09:18:58.81	358.29	18.64	-42.2	-47.4	9.8	1.23e-02	0	61	0	879755264	56	6361
2026-01-17 09:18:59.82	358.19	18.53	-42.2	-47.3	9.7	9.88e-03	0	61	0	881852416	56	6331
2026-01-17 09:19:00.82	358.09	18.42	-42.3	-47.6	9.4	1.49e-02	0	61	0	883949568	56	6516
2026-01-17 09:19:01.83	357.99	18.31	-42.3	-47.8	9.1	1.92e-02	0	61	0	886046720	56	6676
2026-01-17 09:19:02.84	357.89	18.19	-42.4	-48.0	8.9	2.69e-02	0	61	0	888143872	56	6834
2026-01-17 09:19:03.85	357.79	18.08	-42.2	-47.7	9.1	2.32e-02	0	61	0	889192448	56	6614
2026-01-17 09:19:04.86	357.70	17.97	-42.1	-47.6	9.2	2.23e-02	0	61	0	891289600	56	6570
2026-01-17 09:19:05.87	357.60	17.86	-42.0	-47.4	9.4	1.85e-02	0	61	0	893386752	56	6393
2026-01-17 09:19:06.88	357.50	17.75	-41.8	-47.4	9.1	1.91e-02	0	61	0	895483904	55	6801
2026-01-17 09:19:07.89	357.41	17.64	-41.8	-47.5	9.0	2.39e-02	0	61	0	897581056	55	6815
2026-01-17 09:19:08.90	357.31	17.53	-41.8	-47.5	8.9	2.50e-02	0	61	0	898629632	55	6831
2026-01-17 09:19:09.91	357.22	17.43	-41.8	-47.7	8.6	3.65e-02	0	61	0	900726784	55	7005
2026-01-17 09:19:10.92	357.12	17.32	-41.7	-47.7	8.6	3.77e-02	0	61	0	902823936	55	7016
2026-01-17 09:19:11.93	357.03	17.21	-41.7	-47.7	8.5	4.21e-02	0	61	0	904921088	55	7028
2026-01-17 09:19:12.94	356.94	17.10	-41.6	-47.7	8.4	4.45e-02	0	61	0	907018240	55	7029
2026-01-17 09:19:13.95	356.85	17.00	-41.6	-47.8	8.3	5.13e-02	0	61	0	908066816	55	7103
2026-01-17 09:19:14.96	356.76	16.89	-41.5	-47.6	8.4	5.00e-02	0	61	0	910163968	55	6949
2026-01-17 09:19:15.97	356.67	16.78	-41.5	-47.8	8.1	5.05e-02	0	61	0	912261120	54	7528
2026-01-17 09:19:16.98	356.58	16.68	-41.5	-48.1	7.8	7.35e-02	0	61	0	914358272	54	7770
2026-01-17 09:19:17.99	356.49	16.57	-41.5	-48.2	7.6	8.70e-02	0	61	0	916455424	54	7893
2026-01-17 09:19:19.00	356.40	16.47	-41.5	-48.7	7.0	1.27e-01	0	61	0	917504000	54	8355
2026-01-17 09:19:20.01	356.31	16.36	-41.5	-49.3	6.4	2.09e-01	0	61	0	919601152	54	8924
2026-01-17 09:19:21.02	356.23	16.26	-41.5	-49.5	6.1	2.67e-01	0	61	0	921698304	54	9162
2026-01-17 09:19:22.03	356.14	16.15	-41.5	-50.3	5.5	3.82e-01	0	61	0	923795456	54	9967
2026-01-17 09:19:23.04	356.05	16.05	-41.5	-51.0	5.0	6.28e-01	0	61	0	925892608	54	10879
2026-01-17 09:19:24.05	355.97	15.95	-41.5	-51.6	4.7	8.13e-01	0	61	0	927989760	54	11664
2026-01-17 09:19:25.06	355.88	15.84	-41.5	-52.5	4.3	1.11e+00	0	61	0	929038336	54	12845
2026-01-17 09:19:26.07	355.80	15.74	-41.4	-53.0	4.1	1.40e+00	0	61	0	929038336	54	13726
2026-01-17 09:19:27.07	355.72	15.64	-41.4	-53.6	4.0	1.48e+00	0	61	104	929038336	54	14549
2026-01-17 09:19:28.08	355.63	15.54	-41.3	-54.1	3.8	1.48e+00	0	61	104	929038336	54	15478
2026-01-17 09:19:29.09	355.55	15.44	-41.3	-54.6	3.8	1.49e+00	0	61	104	929038336	54	16366
2026-01-17 09:19:30.10	355.47	15.34	-41.2	-54.8	3.8	1.49e+00	0	61	104	929038336	54	16798
2026-01-17 09:19:31.11	355.39	15.24	-41.1	-55.0	3.8	1.49e+00	0	61	104	929038336	54	17270
2026-01-17 09:19:32.12	355.31	15.14	-41.1	-55.3	3.8	1.49e+00	0	61	104	929038336	54	17704
2026-01-17 09:19:33.13	355.23	15.04	-41.0	-55.4	3.8	1.49e+00	0	61	104	929038336	54	18034
2026-01-17 09:19:34.14	355.15	14.94	-40.9	-55.4	3.8	1.49e+00	0	61	104	929038336	53	19092
2026-01-17 09:19:35.15	355.07	14.84	-40.9	-55.4	3.8	1.49e+00	0	61	104	929038336	53	19113
2026-01-17 09:19:36.16	354.99	14.74	-40.8	-55.5	3.8	1.49e+00	0	61	104	929038336	53	19386
2026-01-17 09:19:37.17	354.92	14.64	-41.2	-55.8	3.8	1.49e+00	0	61	104	929038336	53	19986
2026-01-17 09:19:38.18	354.84	14.54	-40.8	-55.5	3.8	1.49e+00	0	61	104	929038336	53	19339
2026-01-17 09:19:39.18	354.76	14.44	-41.1	-55.6	3.8	1.49e+00	0	61	104	929038336	53	19584
2026-01-17 09:19:40.19	354.69	14.35	-40.7	-55.5	3.8	1.49e+00	0	61	104	929038336	53	19233
2026-01-17 09:19:41.20	354.61	14.25	-41.0	-55.6	3.8	1.49e+00	0	61	104	929038336	53	19531
2026-01-17 09:19:42.21	354.54	14.15	-40.7	-55.4	3.8	1.49e+00	0	61	104	929038336	53	19071
2026-01-17 09:19:43.22	354.46	14.06	-40.8	-55.6	3.8	1.49e+00	0	61	104	929038336	53	19405
2026-01-17 09:19:44.23	354.39	13.96	-40.7	-55.4	3.8	1.49e+00	0	61	104	929038336	53	19040
2026-01-17 09:19:45.24	354.31	13.86	-40.6	-55.4	3.8	1.49e+00	0	61	104	929038336	53	19123
2026-01-17 09:19:46.26	354.24	13.77	-40.5	-55.3	3.8	1.49e+00	0	61	104	929038336	53	18790
2026-01-17 09:19:47.27	354.17	13.67	-40.9	-55.6	3.8	1.49e+00	0	61	104	929038336	53	19469
2026-01-17 09:19:48.28	354.10	13.58	-40.5	-55.2	3.8	1.49e+00	0	61	104	929038336	53	18633
2026-01-17 09:19:49.29	354.02	13.48	-40.8	-55.5	3.8	1.49e+00	0	61	104	929038336	53	19334
2026-01-17 09:19:50.29	353.95	13.39	-40.7	-55.3	3.8	1.49e+00	0	61	104	929038336	53	18915
2026-01-17 09:19:51.30	353.88	13.30	-40.5	-55.3	3.8	1.49e+00	0	61	104	929038336	53	18905
2026-01-17 09:19:52.31	353.81	13.20	-40.6	-55.3	3.8	1.49e+00	0	61	104	929038336	53	18850
2026-01-17 09:19:53.32	353.74	13.11	-40.6	-55.3	3.8	1.49e+00	0	61	104	929038336	53	18806
2026-01-17 09:19:54.33	353.67	13.02	-40.5	-55.2	3.8	1.49e+00	0	61	104	929038336	52	19658
2026-01-17 09:19:55.34	353.61	12.92	-40.5	-55.2	3.8	1.49e+00	0	61	104	929038336	52	19824
2026-01-17 09:19:56.35	353.54	12.83	-40.4	-55.1	3.8	1.49e+00	0	61	104	929038336	52	19576
2026-01-17 09:19:57.36	353.47	12.74	-40.6	-55.3	3.8	1.49e+00	0	61	104	929038336	52	19877
2026-01-17 09:19:58.37	353.40	12.65	-40.6	-55.2	3.8	1.49e+00	0	61	104	929038336	52	19774
2026-01-17 09:19:59.38	353.34	12.56	-40.5	-55.2	3.8	1.49e+00	0	61	104	929038336	52	19675
2026-01-17 09:20:00.38	353.27	12.47	-40.6	-55.2	3.8	1.49e+00	0	61	104	929038336	52	19767
2026-01-17 09:20:01.39	353.20	12.38	-40.2	-55.1	3.8	1.49e+00	0	61	104	929038336	52	19467
2026-01-17 09:20:02.40	353.14	12.29	-40.4	-55.2	3.8	1.49e+00	0	61	104	929038336	52	19722
2026-01-17 09:20:03.41	353.07	12.19	-40.5	-55.1	3.8	1.49e+00	0	61	104	929038336	52	19597
2026-01-17 09:20:04.42	353.01	12.10	-40.5	-55.3	3.8	1.49e+00	0	61	104	929038336	52	19842
2026-01-17 09:20:05.43	352.94	12.02	-40.5	-55.2	3.8	1.49e+00	0	61	104	929038336	52	19633
2026-01-17 09:20:06.44	352.88	11.93	-40.5	-55.3	3.8	1.49e+00	0	61	104	929038336	52	19869
2026-01-17 09:20:07.45	352.82	11.84	-40.4	-55.2	3.8	1.49e+00	0	61	104	929038336	52	19734
2026-01-17 09:20:08.46	352.75	11.75	-40.6	-55.3	3.8	1.49e+00	0	61	104	929038336	52	20007
2026-01-17 09:20:09.47	352.69	11.66	-40.4	-55.2	3.8	1.49e+00	0	61	104	929038336	52	19671
2026-01-17 09:20:10.48	352.63	11.57	-40.6	-55.4	3.8	1.49e+00	0	61	104	929038336	52	20114
2026-01-17 09:20:11.49	352.57	11.48	-40.6	-55.3	3.8	1.49e+00	0	61	104	929038336	52	19993
2026-01-17 09:20:12.50	352.50	11.40	-40.6	-55.3	3.8	1.49e+00	0	61	104	929038336	52	19985
2026-01-17 09:20:13.51	352.44	11.31	-40.7	-55.3	3.8	1.49e+00	0	61	104	929038336	52	20045
