passes_logs/2026/01/17/R2.0S_Moscow/R2.0S_Moscow__20260117_005754_NOAA_20_JPSS-1_rec.log

#Pass ID: 20260117_005754_NOAA 20 (JPSS-1)
#Satellite: NOAA 20 (JPSS-1)
#Configuration: NOAA 20
#almurnet v.1.7.20251203
#Start time: 2026-01-17 00:57:55

#Version: 2.2.20231116
#Station: R2.0S_Moscow
#Location: 37.707566 lon 55.798166 lat
#TLE: 1 43013U 17073A   26016.24631778  .00000038  00000+0  39093-4 0  9990
#TLE: 2 43013  98.7637 317.1726 0001455  37.6755 322.4523 14.19536243422915

#Time	Az	El	Level	Level2	SNR	BER	BlckErr	Temp	State	Recorded	gain1	gain2
2026-01-17 00:57:55.71	11.31	2.08	-39.9	-54.6	3.8	1.49e+00	0	51	0	0	51	19512
2026-01-17 00:57:56.72	11.26	2.14	-39.9	-54.6	3.8	1.49e+00	0	52	104	0	51	19494
2026-01-17 00:57:57.73	11.21	2.20	-39.9	-54.6	3.8	1.49e+00	0	52	104	0	51	19468
2026-01-17 00:57:58.74	11.15	2.26	-39.9	-54.6	3.8	1.49e+00	0	52	104	0	51	19523
2026-01-17 00:57:59.75	11.10	2.32	-39.9	-54.6	3.8	1.49e+00	0	52	104	0	51	19475
2026-01-17 00:58:00.76	11.05	2.38	-39.9	-54.6	3.8	1.49e+00	0	52	104	0	51	19465
2026-01-17 00:58:01.77	11.00	2.44	-39.9	-54.6	3.8	1.49e+00	0	52	104	0	51	19456
2026-01-17 00:58:02.78	10.95	2.50	-39.9	-54.6	3.8	1.49e+00	0	52	104	0	51	19481
2026-01-17 00:58:03.79	10.89	2.56	-39.9	-54.6	3.8	1.49e+00	0	52	104	0	51	19425
2026-01-17 00:58:04.81	10.84	2.63	-39.9	-54.6	3.8	1.49e+00	0	53	104	0	51	19440
2026-01-17 00:58:05.82	10.79	2.69	-39.9	-54.6	3.8	1.49e+00	0	53	104	0	51	19426
2026-01-17 00:58:06.83	10.73	2.75	-39.9	-54.6	3.8	1.49e+00	0	53	104	0	51	19464
2026-01-17 00:58:07.84	10.68	2.81	-39.9	-54.6	3.8	1.49e+00	0	53	104	0	51	19440
2026-01-17 00:58:08.85	10.63	2.87	-39.9	-54.6	3.8	1.49e+00	0	53	104	0	51	19486
2026-01-17 00:58:09.86	10.57	2.93	-39.9	-54.6	3.8	1.49e+00	0	53	104	0	51	19438
2026-01-17 00:58:10.87	10.52	2.99	-39.9	-54.6	3.8	1.49e+00	0	53	104	0	51	19485
2026-01-17 00:58:11.88	10.46	3.05	-39.9	-54.6	3.8	1.49e+00	0	53	104	0	51	19437
2026-01-17 00:58:12.89	10.41	3.12	-39.9	-54.6	3.8	1.49e+00	0	53	104	0	51	19493
2026-01-17 00:58:13.90	10.35	3.18	-39.9	-54.6	3.8	1.49e+00	0	53	104	0	51	19433
2026-01-17 00:58:14.91	10.30	3.24	-39.9	-54.6	3.8	1.49e+00	0	53	104	0	51	19460
2026-01-17 00:58:15.93	10.24	3.30	-39.9	-54.6	3.8	1.49e+00	0	53	104	0	51	19451
2026-01-17 00:58:16.94	10.19	3.37	-39.9	-54.6	3.8	1.49e+00	0	53	104	0	51	19444
2026-01-17 00:58:17.95	10.13	3.43	-39.9	-54.6	3.8	1.49e+00	0	53	104	0	51	19423
2026-01-17 00:58:18.96	10.08	3.49	-39.9	-54.6	3.8	1.49e+00	0	53	104	0	51	19449
2026-01-17 00:58:19.97	10.02	3.55	-39.9	-54.6	3.8	1.49e+00	0	54	104	0	51	19394
2026-01-17 00:58:20.98	9.96	3.62	-39.9	-54.6	3.8	1.49e+00	0	53	104	0	51	19401
2026-01-17 00:58:21.99	9.91	3.68	-39.9	-54.6	3.8	1.49e+00	0	53	104	0	51	19444
2026-01-17 00:58:23.00	9.85	3.74	-39.9	-54.6	3.8	1.49e+00	0	54	104	0	51	19403
2026-01-17 00:58:24.01	9.79	3.80	-39.9	-54.5	3.8	1.49e+00	0	54	104	0	51	19386
2026-01-17 00:58:25.03	9.73	3.87	-39.9	-54.6	3.8	1.49e+00	0	54	104	0	51	19407
2026-01-17 00:58:26.04	9.67	3.93	-39.9	-54.5	3.8	1.49e+00	0	54	104	0	51	19366
2026-01-17 00:58:27.05	9.62	4.00	-39.9	-54.6	3.8	1.49e+00	0	54	104	0	51	19410
2026-01-17 00:58:28.06	9.56	4.06	-39.9	-54.6	3.8	1.49e+00	0	54	104	0	51	19444
2026-01-17 00:58:29.07	9.50	4.12	-39.9	-54.6	3.8	1.49e+00	0	54	104	0	51	19456
2026-01-17 00:58:30.08	9.44	4.19	-39.9	-54.6	3.8	1.49e+00	0	54	104	0	51	19432
2026-01-17 00:58:31.09	9.38	4.25	-39.9	-54.6	3.8	1.49e+00	0	54	104	0	51	19405
2026-01-17 00:58:32.10	9.32	4.31	-39.9	-54.5	3.8	1.49e+00	0	54	104	0	51	19357
2026-01-17 00:58:33.12	9.26	4.38	-39.9	-54.6	3.8	1.49e+00	0	54	104	0	51	19426
2026-01-17 00:58:34.13	9.20	4.44	-39.9	-54.6	3.8	1.49e+00	0	54	104	0	51	19435
2026-01-17 00:58:35.14	9.14	4.51	-39.9	-54.6	3.8	1.49e+00	0	54	104	0	51	19400
2026-01-17 00:58:36.15	9.08	4.57	-39.9	-54.6	3.8	1.49e+00	0	54	104	0	51	19401
2026-01-17 00:58:37.16	9.02	4.64	-39.9	-54.6	3.8	1.49e+00	0	55	104	0	51	19406
2026-01-17 00:58:38.17	8.96	4.70	-39.9	-54.6	3.8	1.49e+00	0	55	104	0	51	19412
2026-01-17 00:58:39.18	8.89	4.77	-39.9	-54.5	3.8	1.49e+00	0	55	104	0	51	19386
2026-01-17 00:58:40.19	8.83	4.83	-39.9	-54.6	3.8	1.49e+00	0	55	104	0	51	19439
2026-01-17 00:58:41.20	8.77	4.90	-39.9	-54.6	3.8	1.49e+00	0	54	104	0	51	19421
2026-01-17 00:58:42.21	8.71	4.96	-39.9	-54.6	3.8	1.49e+00	0	55	104	0	51	19460
2026-01-17 00:58:43.23	8.64	5.03	-39.9	-54.6	3.8	1.49e+00	0	55	104	0	51	19423
2026-01-17 00:58:44.24	8.58	5.09	-39.9	-54.5	3.8	1.49e+00	0	55	104	0	51	19374
2026-01-17 00:58:45.25	8.52	5.16	-39.9	-54.5	3.8	1.49e+00	0	55	104	0	51	19379
2026-01-17 00:58:46.26	8.45	5.23	-39.9	-54.6	3.8	1.49e+00	0	55	104	0	51	19399
2026-01-17 00:58:47.27	8.39	5.29	-39.9	-54.5	3.8	1.49e+00	0	55	104	0	51	19388
2026-01-17 00:58:48.28	8.33	5.36	-39.9	-54.6	3.8	1.49e+00	0	55	104	0	51	19411
2026-01-17 00:58:49.29	8.26	5.42	-39.9	-54.5	3.8	1.49e+00	0	55	104	0	51	19356
2026-01-17 00:58:50.30	8.20	5.49	-39.9	-54.6	3.8	1.49e+00	0	55	104	0	51	19405
2026-01-17 00:58:51.31	8.13	5.56	-39.9	-54.6	3.8	1.49e+00	0	55	104	0	51	19396
2026-01-17 00:58:52.32	8.06	5.62	-39.9	-54.5	3.8	1.49e+00	0	56	104	0	51	19386
2026-01-17 00:58:53.33	8.00	5.69	-39.9	-54.5	3.8	1.49e+00	0	55	104	0	51	19388
2026-01-17 00:58:54.35	7.93	5.76	-39.9	-54.6	3.8	1.49e+00	0	55	104	0	51	19426
2026-01-17 00:58:55.36	7.87	5.82	-39.9	-54.5	3.8	1.49e+00	0	55	104	0	51	19381
2026-01-17 00:58:56.36	7.80	5.89	-39.9	-54.6	3.8	1.49e+00	0	55	104	0	51	19404
2026-01-17 00:58:57.38	7.73	5.96	-39.9	-54.5	3.8	1.49e+00	0	55	104	0	51	19380
2026-01-17 00:58:58.39	7.66	6.03	-39.9	-54.5	3.8	1.49e+00	0	56	104	0	51	19346
2026-01-17 00:58:59.40	7.60	6.09	-39.9	-54.6	3.8	1.49e+00	0	55	104	0	51	19402
2026-01-17 00:59:00.41	7.53	6.16	-39.9	-54.6	3.8	1.49e+00	0	56	104	0	51	19434
2026-01-17 00:59:01.42	7.46	6.23	-39.9	-54.5	3.8	1.49e+00	0	56	104	0	51	19380
2026-01-17 00:59:02.43	7.39	6.30	-39.9	-54.6	3.8	1.49e+00	0	56	104	0	51	19390
2026-01-17 00:59:03.44	7.32	6.36	-39.9	-54.6	3.8	1.49e+00	0	56	104	0	51	19397
2026-01-17 00:59:04.45	7.25	6.43	-39.9	-54.5	3.8	1.49e+00	0	56	104	0	51	19348
2026-01-17 00:59:05.46	7.18	6.50	-39.9	-54.5	3.8	1.49e+00	0	56	104	0	51	19377
2026-01-17 00:59:06.47	7.11	6.57	-39.9	-54.5	3.8	1.49e+00	0	56	104	0	51	19386
2026-01-17 00:59:07.48	7.04	6.64	-39.9	-54.5	3.8	1.49e+00	0	56	104	0	51	19379
2026-01-17 00:59:08.49	6.97	6.71	-39.9	-54.6	3.8	1.49e+00	0	56	104	0	51	19427
2026-01-17 00:59:09.50	6.90	6.78	-39.9	-54.6	3.8	1.49e+00	0	56	104	0	51	19411
2026-01-17 00:59:10.52	6.83	6.85	-39.9	-54.6	3.8	1.49e+00	0	56	104	0	51	19432
2026-01-17 00:59:11.53	6.75	6.91	-39.9	-54.5	3.8	1.49e+00	0	56	104	0	51	19381
2026-01-17 00:59:12.54	6.68	6.98	-39.9	-54.5	3.8	1.49e+00	0	56	104	0	51	19331
2026-01-17 00:59:13.55	6.61	7.05	-39.9	-54.5	3.8	1.49e+00	0	56	104	0	51	19336
2026-01-17 00:59:14.56	6.54	7.12	-39.9	-54.5	3.8	1.49e+00	0	56	104	0	51	19356
2026-01-17 00:59:15.57	6.46	7.19	-39.9	-54.5	3.8	1.49e+00	0	56	104	0	51	19375
2026-01-17 00:59:16.58	6.39	7.26	-39.9	-54.6	3.8	1.49e+00	0	56	104	0	51	19420
2026-01-17 00:59:17.59	6.31	7.33	-39.9	-54.6	3.8	1.49e+00	0	56	104	0	51	19402
2026-01-17 00:59:18.60	6.24	7.40	-39.9	-54.5	3.8	1.49e+00	0	57	104	0	51	19370
2026-01-17 00:59:19.61	6.16	7.47	-39.9	-54.5	3.8	1.49e+00	0	56	104	0	51	19368
2026-01-17 00:59:20.62	6.09	7.54	-39.9	-54.6	3.8	1.49e+00	0	57	104	0	51	19403
2026-01-17 00:59:21.63	6.01	7.61	-39.9	-54.6	3.8	1.49e+00	0	56	104	0	51	19395
2026-01-17 00:59:22.64	5.94	7.68	-39.9	-54.5	3.8	1.49e+00	0	56	104	0	51	19370
2026-01-17 00:59:23.65	5.86	7.76	-39.9	-54.6	3.8	1.49e+00	0	56	104	0	51	19419
2026-01-17 00:59:24.66	5.78	7.83	-39.9	-54.6	3.8	1.49e+00	0	57	104	0	51	19416
2026-01-17 00:59:25.67	5.71	7.90	-39.9	-54.5	3.8	1.49e+00	0	57	104	0	51	19343
2026-01-17 00:59:26.69	5.63	7.97	-39.9	-54.6	3.8	1.49e+00	0	57	104	0	51	19407
2026-01-17 00:59:27.70	5.55	8.04	-39.9	-54.6	3.8	1.49e+00	0	57	104	0	51	19417
2026-01-17 00:59:28.71	5.47	8.11	-39.9	-54.6	3.8	1.49e+00	0	56	104	0	51	19530
2026-01-17 00:59:29.72	5.39	8.18	-40.0	-54.7	3.8	1.49e+00	0	57	104	0	51	19717
2026-01-17 00:59:30.73	5.31	8.26	-40.0	-54.7	3.8	1.49e+00	0	57	104	0	51	19731
2026-01-17 00:59:31.74	5.23	8.33	-40.1	-54.8	3.8	1.49e+00	0	57	104	0	51	19868
2026-01-17 00:59:32.75	5.15	8.40	-40.0	-54.7	3.8	1.49e+00	0	57	104	0	51	19636
2026-01-17 00:59:33.76	5.07	8.47	-40.1	-54.8	3.8	1.49e+00	0	57	104	0	51	19901
2026-01-17 00:59:34.77	4.99	8.55	-40.0	-54.6	3.8	1.49e+00	0	57	104	0	51	19573
2026-01-17 00:59:35.78	4.91	8.62	-40.1	-54.8	3.8	1.49e+00	0	57	104	0	51	19854
2026-01-17 00:59:36.79	4.83	8.69	-40.0	-54.7	3.8	1.49e+00	0	57	104	0	51	19678
2026-01-17 00:59:37.80	4.74	8.76	-40.1	-54.8	3.8	1.49e+00	0	57	104	0	51	19902
2026-01-17 00:59:38.81	4.66	8.84	-40.0	-54.6	3.8	1.49e+00	0	57	104	0	51	19594
2026-01-17 00:59:39.82	4.58	8.91	-40.1	-54.8	3.8	1.49e+00	0	57	104	0	51	20068
2026-01-17 00:59:40.83	4.49	8.98	-40.0	-54.7	3.8	1.49e+00	0	57	104	0	51	19657
2026-01-17 00:59:41.84	4.41	9.06	-40.1	-54.8	3.8	1.49e+00	0	57	104	0	51	20032
2026-01-17 00:59:42.85	4.33	9.13	-39.9	-54.6	3.8	1.49e+00	0	57	104	0	51	19601
2026-01-17 00:59:43.86	4.24	9.21	-40.1	-54.8	3.8	1.49e+00	0	57	104	0	51	20009
2026-01-17 00:59:44.87	4.16	9.28	-40.0	-54.6	3.8	1.49e+00	0	57	104	0	51	19582
2026-01-17 00:59:45.88	4.07	9.35	-40.1	-54.8	3.8	1.49e+00	0	57	104	0	51	20061
2026-01-17 00:59:46.89	3.98	9.43	-40.0	-54.6	3.8	1.49e+00	0	57	104	0	51	19575
2026-01-17 00:59:47.90	3.90	9.50	-40.3	-55.0	3.8	1.49e+00	0	57	104	0	51	20361
2026-01-17 00:59:48.91	3.81	9.58	-39.9	-54.6	3.8	1.49e+00	0	58	104	0	51	19558
2026-01-17 00:59:49.92	3.72	9.65	-40.3	-55.0	3.8	1.49e+00	0	57	104	0	51	20454
2026-01-17 00:59:50.93	3.63	9.73	-39.8	-54.6	3.8	1.49e+00	0	58	104	0	51	19502
2026-01-17 00:59:51.94	3.55	9.80	-40.2	-54.9	3.8	1.49e+00	0	58	104	0	51	20087
2026-01-17 00:59:52.95	3.46	9.88	-40.0	-54.7	3.8	1.49e+00	0	58	104	0	51	19833
2026-01-17 00:59:53.95	3.37	9.95	-40.2	-54.9	3.8	1.49e+00	0	58	104	0	51	20172
2026-01-17 00:59:54.96	3.28	10.03	-40.0	-54.7	3.8	1.49e+00	0	58	104	0	51	19807
2026-01-17 00:59:55.97	3.19	10.10	-40.4	-55.2	3.8	1.49e+00	0	57	104	0	51	20785
2026-01-17 00:59:56.99	3.09	10.18	-39.8	-54.6	3.8	1.49e+00	0	58	104	0	51	19578
2026-01-17 00:59:57.99	3.00	10.26	-40.5	-55.2	3.8	1.49e+00	0	58	104	0	51	20882
2026-01-17 00:59:59.01	2.91	10.33	-39.9	-54.6	3.8	1.49e+00	0	58	104	0	51	19582
2026-01-17 01:00:00.02	2.82	10.41	-39.9	-54.7	3.8	1.49e+00	0	58	104	0	51	19758
2026-01-17 01:00:01.03	2.73	10.49	-39.8	-54.6	3.8	1.49e+00	0	58	104	0	51	19461
2026-01-17 01:00:02.04	2.63	10.56	-39.9	-54.7	3.8	1.49e+00	0	58	104	0	51	19676
2026-01-17 01:00:03.04	2.54	10.64	-39.9	-54.6	3.8	1.49e+00	0	58	104	0	51	19524
2026-01-17 01:00:04.05	2.44	10.72	-39.9	-54.6	3.8	1.49e+00	0	58	104	0	51	19605
2026-01-17 01:00:05.06	2.35	10.79	-39.9	-54.7	3.8	1.49e+00	0	58	104	0	51	19726
2026-01-17 01:00:06.07	2.25	10.87	-40.1	-54.8	3.8	1.49e+00	0	58	104	0	51	19970
2026-01-17 01:00:07.08	2.16	10.95	-40.3	-55.1	3.8	1.49e+00	0	58	104	0	51	20728
2026-01-17 01:00:08.09	2.06	11.03	-40.6	-55.5	3.8	1.49e+00	0	58	104	0	51	21596
2026-01-17 01:00:09.10	1.96	11.11	-39.9	-54.7	3.8	1.49e+00	0	58	104	0	51	19800
2026-01-17 01:00:10.11	1.86	11.18	-39.9	-54.7	3.8	1.49e+00	0	58	104	0	51	19775
2026-01-17 01:00:11.12	1.77	11.26	-39.9	-54.7	3.8	1.49e+00	0	58	104	0	51	19758
2026-01-17 01:00:12.14	1.67	11.34	-39.9	-54.7	3.8	1.49e+00	0	58	104	0	51	19826
2026-01-17 01:00:13.15	1.57	11.42	-40.0	-54.8	3.8	1.49e+00	0	58	104	0	51	19927
2026-01-17 01:00:14.16	1.47	11.50	-39.9	-54.8	3.8	1.49e+00	0	58	104	0	51	19854
2026-01-17 01:00:15.17	1.37	11.58	-40.7	-55.5	3.8	1.49e+00	0	58	104	0	52	20487
2026-01-17 01:00:16.18	1.27	11.66	-40.1	-54.9	3.8	1.49e+00	0	58	104	0	52	19114
2026-01-17 01:00:17.19	1.16	11.74	-39.9	-54.8	3.8	1.49e+00	0	58	104	0	51	19869
2026-01-17 01:00:18.20	1.06	11.82	-40.1	-54.9	3.8	1.49e+00	0	58	104	0	51	20249
2026-01-17 01:00:19.21	0.96	11.89	-40.1	-54.9	3.8	1.49e+00	0	58	104	0	51	20237
2026-01-17 01:00:20.22	0.86	11.97	-40.1	-55.0	3.8	1.49e+00	0	58	104	0	51	20362
2026-01-17 01:00:21.23	0.75	12.05	-40.3	-55.1	3.8	1.49e+00	0	58	104	0	51	20683
2026-01-17 01:00:22.24	0.65	12.13	-40.4	-55.2	3.8	1.49e+00	0	58	104	0	51	20863
2026-01-17 01:00:23.25	0.54	12.22	-40.8	-55.5	3.8	1.49e+00	0	58	104	0	52	20431
2026-01-17 01:00:24.26	0.44	12.30	-41.0	-55.5	3.8	1.49e+00	0	58	104	0	52	20452
2026-01-17 01:00:25.26	0.33	12.38	-40.1	-54.9	3.8	1.49e+00	0	58	104	0	52	19103
2026-01-17 01:00:26.27	0.22	12.46	-40.1	-54.9	3.8	1.49e+00	0	58	104	0	52	19125
2026-01-17 01:00:27.29	0.11	12.54	-40.1	-55.0	3.8	1.49e+00	0	58	104	0	52	19192
2026-01-17 01:00:28.30	0.01	12.62	-40.1	-55.0	3.8	1.49e+00	0	58	104	0	52	19263
2026-01-17 01:00:29.31	359.90	12.70	-40.2	-55.1	3.8	1.49e+00	0	58	104	0	52	19412
2026-01-17 01:00:30.32	359.79	12.78	-40.3	-55.2	3.8	1.49e+00	0	58	104	0	52	19760
2026-01-17 01:00:31.33	359.68	12.86	-41.7	-55.0	3.8	1.49e+00	0	58	104	0	54	17214
2026-01-17 01:00:32.34	359.57	12.95	-41.2	-54.5	3.8	1.49e+00	0	59	104	0	54	16197
2026-01-17 01:00:33.35	359.46	13.03	-40.7	-55.4	3.8	1.49e+00	0	58	104	0	53	19087
2026-01-17 01:00:34.36	359.34	13.11	-41.2	-53.3	4.0	1.49e+00	0	59	104	0	53	15010
2026-01-17 01:00:35.37	359.23	13.19	-41.3	-52.6	4.2	1.40e+00	0	59	0	0	53	13742
2026-01-17 01:00:36.38	359.12	13.27	-41.3	-51.4	4.7	1.09e+00	0	59	0	1048576	53	12018
2026-01-17 01:00:37.39	359.00	13.36	-41.4	-50.7	5.2	6.90e-01	0	59	0	3145728	53	11036
2026-01-17 01:00:38.40	358.89	13.44	-41.4	-50.2	5.5	5.55e-01	0	58	0	4194304	53	10513
2026-01-17 01:00:39.41	358.77	13.52	-41.4	-49.4	6.2	3.42e-01	0	59	0	6291456	53	9594
2026-01-17 01:00:40.42	358.66	13.61	-41.4	-49.2	6.4	2.64e-01	0	59	0	8388608	53	9379
2026-01-17 01:00:41.43	358.54	13.69	-41.3	-48.6	7.0	2.03e-01	0	59	0	10485760	53	8664
2026-01-17 01:00:42.44	358.42	13.77	-41.1	-47.8	7.6	1.13e-01	0	59	0	12582912	53	7988
2026-01-17 01:00:43.45	358.31	13.86	-40.9	-46.9	8.6	5.30e-02	0	59	0	13631488	53	7152
2026-01-17 01:00:44.46	358.19	13.94	-40.8	-46.6	9.0	3.00e-02	0	59	0	15728640	53	6890
2026-01-17 01:00:45.47	358.07	14.02	-40.9	-46.8	8.7	2.92e-02	0	59	0	17825792	53	7104
2026-01-17 01:00:46.48	357.95	14.11	-41.0	-47.3	8.2	4.67e-02	0	59	0	19922944	53	7509
2026-01-17 01:00:47.49	357.83	14.19	-41.1	-47.9	7.7	7.12e-02	0	59	0	22020096	53	7995
2026-01-17 01:00:48.50	357.71	14.28	-41.0	-47.5	8.0	7.27e-02	0	59	0	23068672	53	7641
2026-01-17 01:00:49.51	357.58	14.36	-40.9	-46.9	8.7	4.84e-02	0	59	0	25165824	53	7140
2026-01-17 01:00:50.52	357.46	14.45	-40.8	-46.6	8.9	2.80e-02	0	59	0	27262976	53	6943
2026-01-17 01:00:51.53	357.34	14.53	-41.0	-47.0	8.5	3.59e-02	0	59	0	29360128	53	7283
2026-01-17 01:00:52.54	357.21	14.62	-41.0	-47.1	8.5	4.86e-02	0	59	0	31457280	53	7333
2026-01-17 01:00:53.55	357.09	14.70	-40.9	-46.7	9.0	2.94e-02	0	59	0	32505856	53	6979
2026-01-17 01:00:54.56	356.96	14.79	-41.0	-46.9	8.8	2.94e-02	0	59	0	34603008	53	7140
2026-01-17 01:00:55.57	356.84	14.87	-40.9	-46.7	8.9	2.93e-02	0	59	0	36700160	53	7031
2026-01-17 01:00:56.58	356.71	14.96	-41.0	-47.0	8.5	3.33e-02	0	59	0	38797312	53	7268
2026-01-17 01:00:57.59	356.58	15.04	-41.1	-47.5	8.0	5.08e-02	0	59	0	40894464	53	7675
2026-01-17 01:00:58.60	356.45	15.13	-41.2	-48.1	7.4	9.69e-02	0	59	0	41943040	53	8198
2026-01-17 01:00:59.61	356.32	15.22	-41.3	-49.0	6.4	1.77e-01	0	59	0	44040192	53	9097
2026-01-17 01:01:00.62	356.19	15.30	-41.3	-49.9	5.6	3.13e-01	0	59	0	46137344	53	10141
2026-01-17 01:01:01.63	356.06	15.39	-41.3	-50.9	5.0	6.50e-01	0	59	0	48234496	53	11352
2026-01-17 01:01:02.64	355.93	15.48	-41.3	-52.1	4.4	9.61e-01	91	59	0	50331648	53	13064
2026-01-17 01:01:03.65	355.80	15.56	-41.2	-53.0	4.1	1.38e+00	0	59	0	50331648	53	14448
2026-01-17 01:01:04.65	355.66	15.65	-41.2	-54.1	3.8	1.48e+00	0	59	104	50331648	53	16327
2026-01-17 01:01:05.66	355.53	15.74	-41.1	-54.7	3.8	1.49e+00	0	59	104	50331648	53	17577
2026-01-17 01:01:06.67	355.40	15.82	-41.0	-55.2	3.8	1.49e+00	0	59	104	50331648	53	18594
2026-01-17 01:01:07.69	355.26	15.91	-40.9	-55.5	3.8	1.49e+00	0	59	104	50331648	53	19195
2026-01-17 01:01:08.69	355.12	16.00	-40.9	-55.5	3.8	1.49e+00	0	59	104	50331648	53	19201
2026-01-17 01:01:09.70	354.98	16.09	-40.6	-55.3	3.8	1.49e+00	0	59	104	50331648	53	18829
2026-01-17 01:01:10.71	354.85	16.17	-40.6	-55.3	3.8	1.49e+00	0	59	104	50331648	53	18882
2026-01-17 01:01:11.72	354.71	16.26	-41.1	-55.7	3.8	1.49e+00	0	59	104	50331648	53	19834
2026-01-17 01:01:12.73	354.57	16.35	-40.8	-55.7	3.8	1.49e+00	0	59	104	50331648	53	19653
2026-01-17 01:01:13.74	354.43	16.44	-40.7	-55.4	3.8	1.49e+00	0	59	104	50331648	53	19159
2026-01-17 01:01:14.75	354.28	16.53	-40.6	-55.5	3.8	1.49e+00	0	59	104	50331648	53	19229
2026-01-17 01:01:15.76	354.14	16.61	-40.5	-55.3	3.8	1.49e+00	0	59	104	50331648	52	20005
2026-01-17 01:01:16.77	354.00	16.70	-40.5	-55.2	3.8	1.49e+00	0	59	104	50331648	52	19775
2026-01-17 01:01:17.78	353.85	16.79	-40.7	-55.5	3.8	1.49e+00	0	59	104	50331648	52	20433
2026-01-17 01:01:18.79	353.71	16.88	-40.5	-55.3	3.8	1.49e+00	0	59	104	50331648	52	19979
2026-01-17 01:01:19.80	353.56	16.97	-40.6	-55.4	3.8	1.49e+00	0	59	104	50331648	52	20135
2026-01-17 01:01:20.81	353.42	17.06	-40.7	-55.4	3.8	1.49e+00	0	59	104	50331648	52	20275
2026-01-17 01:01:21.81	353.27	17.15	-40.2	-55.2	3.8	1.49e+00	0	59	104	50331648	52	19832
2026-01-17 01:01:22.82	353.12	17.24	-40.5	-55.4	3.8	1.49e+00	0	59	104	50331648	52	20093
2026-01-17 01:01:23.83	352.97	17.33	-40.4	-55.3	3.8	1.49e+00	0	60	104	50331648	52	19918
2026-01-17 01:01:24.84	352.82	17.42	-40.7	-55.4	3.8	1.49e+00	0	59	104	50331648	52	20293
2026-01-17 01:01:25.85	352.67	17.51	-40.5	-55.3	3.8	1.49e+00	0	59	104	50331648	52	19987
2026-01-17 01:01:26.86	352.52	17.60	-40.7	-55.4	3.8	1.49e+00	0	59	104	50331648	52	20236
2026-01-17 01:01:27.87	352.36	17.69	-40.5	-55.4	3.8	1.49e+00	0	59	104	50331648	52	20105
2026-01-17 01:01:28.88	352.21	17.78	-40.6	-55.5	3.8	1.49e+00	0	60	104	50331648	52	20449
2026-01-17 01:01:29.89	352.05	17.87	-40.6	-55.3	3.8	1.49e+00	0	59	104	50331648	52	20054
2026-01-17 01:01:30.90	351.90	17.96	-40.5	-55.5	3.8	1.49e+00	0	60	104	50331648	52	20482
2026-01-17 01:01:31.91	351.74	18.05	-40.3	-55.4	3.8	1.49e+00	0	59	104	50331648	52	20171
2026-01-17 01:01:32.92	351.58	18.14	-40.8	-55.4	3.8	1.49e+00	0	60	104	50331648	52	20288
2026-01-17 01:01:33.93	351.42	18.23	-40.7	-55.4	3.8	1.49e+00	0	60	104	50331648	52	20278
2026-01-17 01:01:34.94	351.26	18.32	-40.9	-55.6	3.8	1.49e+00	0	59	104	50331648	52	20582
2026-01-17 01:01:35.95	351.10	18.41	-40.6	-55.4	3.8	1.49e+00	0	59	104	50331648	52	20116
2026-01-17 01:01:36.96	350.94	18.50	-41.0	-55.9	3.8	1.49e+00	0	59	104	50331648	52	21285
2026-01-17 01:01:37.97	350.78	18.59	-40.5	-55.6	3.8	1.49e+00	0	59	104	50331648	52	20544
2026-01-17 01:01:38.98	350.61	18.68	-41.2	-55.8	3.8	1.49e+00	0	60	104	50331648	52	21241
2026-01-17 01:01:39.99	350.45	18.78	-40.7	-55.5	3.8	1.49e+00	0	60	104	50331648	52	20375
2026-01-17 01:01:41.00	350.28	18.87	-41.1	-55.8	3.8	1.49e+00	0	60	104	50331648	52	21149
2026-01-17 01:01:42.01	350.12	18.96	-40.8	-55.5	3.8	1.49e+00	0	60	104	50331648	52	20402
2026-01-17 01:01:43.02	349.95	19.05	-41.1	-55.9	3.8	1.49e+00	0	60	104	50331648	52	21501
2026-01-17 01:01:44.03	349.78	19.14	-40.9	-55.6	3.8	1.49e+00	0	60	104	50331648	52	20603
2026-01-17 01:01:45.04	349.61	19.23	-40.9	-55.9	3.8	1.49e+00	0	60	104	50331648	52	21376
2026-01-17 01:01:46.05	349.44	19.33	-40.8	-55.5	3.8	1.49e+00	0	59	104	50331648	52	20353
2026-01-17 01:01:47.06	349.27	19.42	-40.8	-55.9	3.8	1.49e+00	0	60	104	50331648	52	21290
2026-01-17 01:01:48.06	349.09	19.51	-40.8	-55.5	3.8	1.49e+00	0	60	104	50331648	52	20478
2026-01-17 01:01:49.07	348.92	19.60	-41.1	-55.9	3.8	1.49e+00	0	59	104	50331648	53	20177
2026-01-17 01:01:50.09	348.74	19.69	-41.1	-55.8	3.8	1.49e+00	0	60	104	50331648	53	19992
2026-01-17 01:01:51.10	348.57	19.79	-41.2	-55.9	3.8	1.49e+00	0	60	104	50331648	53	20177
2026-01-17 01:01:52.10	348.39	19.88	-41.1	-55.9	3.8	1.49e+00	0	60	104	50331648	53	20168
2026-01-17 01:01:53.11	348.21	19.97	-41.4	-55.9	3.8	1.49e+00	0	60	104	50331648	53	20240
2026-01-17 01:01:54.12	348.03	20.06	-41.1	-55.8	3.8	1.49e+00	0	60	104	50331648	53	20043
2026-01-17 01:01:55.13	347.85	20.15	-41.6	-55.9	3.8	1.49e+00	0	60	104	50331648	53	20145
2026-01-17 01:01:56.14	347.67	20.25	-41.2	-56.0	3.8	1.49e+00	0	60	104	50331648	53	20326
2026-01-17 01:01:57.16	347.48	20.34	-41.3	-56.0	3.8	1.49e+00	0	60	104	50331648	53	20373
2026-01-17 01:01:58.17	347.30	20.43	-41.1	-55.9	3.8	1.49e+00	0	60	104	50331648	53	20160
2026-01-17 01:01:59.18	347.11	20.52	-41.4	-55.9	3.8	1.49e+00	0	60	104	50331648	53	20265
2026-01-17 01:02:00.19	346.93	20.62	-41.2	-55.8	3.8	1.49e+00	0	60	104	50331648	53	19999
2026-01-17 01:02:01.20	346.74	20.71	-42.1	-54.7	3.8	1.49e+00	0	60	104	50331648	54	16579
2026-01-17 01:02:02.21	346.55	20.80	-41.2	-55.8	3.8	1.49e+00	0	60	104	50331648	54	18909
2026-01-17 01:02:03.21	346.36	20.89	-41.7	-54.8	3.8	1.49e+00	0	60	104	50331648	54	16728
2026-01-17 01:02:04.22	346.17	20.99	-41.9	-54.2	3.8	1.48e+00	0	60	104	50331648	54	15606
2026-01-17 01:02:05.23	345.98	21.08	-42.0	-53.1	4.2	1.44e+00	0	60	0	50331648	54	13874
2026-01-17 01:02:06.24	345.79	21.17	-42.1	-52.0	4.7	9.94e-01	0	60	0	51380224	54	12167
2026-01-17 01:02:07.25	345.59	21.26	-42.1	-51.0	5.2	6.77e-01	0	60	0	52428800	54	10877
2026-01-17 01:02:08.26	345.40	21.36	-42.0	-50.4	5.7	4.66e-01	0	60	0	54525952	54	10101
2026-01-17 01:02:09.27	345.20	21.45	-41.9	-49.7	6.3	3.01e-01	0	60	0	56623104	54	9314
2026-01-17 01:02:10.28	345.00	21.54	-41.7	-48.7	7.1	1.83e-01	0	60	0	58720256	54	8301
2026-01-17 01:02:11.29	344.80	21.63	-41.5	-47.9	7.9	9.90e-02	0	60	0	60817408	54	7619
2026-01-17 01:02:12.30	344.60	21.73	-41.5	-47.6	8.2	6.32e-02	0	60	0	62914560	54	7352
2026-01-17 01:02:13.31	344.40	21.82	-41.4	-47.3	8.6	4.72e-02	0	60	0	63963136	54	7091
2026-01-17 01:02:14.32	344.20	21.91	-41.3	-46.9	9.1	2.92e-02	0	60	0	66060288	54	6730
2026-01-17 01:02:15.33	343.99	22.00	-41.2	-46.6	9.3	2.09e-02	0	60	0	68157440	54	6537
2026-01-17 01:02:16.34	343.79	22.09	-41.2	-46.5	9.5	1.50e-02	0	60	0	70254592	54	6427
2026-01-17 01:02:17.35	343.58	22.19	-41.2	-46.3	9.7	1.29e-02	0	60	0	72351744	54	6331
2026-01-17 01:02:18.36	343.37	22.28	-41.1	-46.0	10.2	8.53e-03	0	60	0	73400320	54	6120
2026-01-17 01:02:19.37	343.16	22.37	-41.1	-45.9	10.5	4.32e-03	0	60	0	75497472	54	6014
2026-01-17 01:02:20.38	342.95	22.46	-41.3	-46.0	10.4	4.12e-03	0	60	0	77594624	54	6091
2026-01-17 01:02:21.39	342.74	22.55	-41.5	-46.3	10.3	4.88e-03	0	60	0	79691776	54	6291
2026-01-17 01:02:22.40	342.53	22.65	-41.6	-46.5	10.1	6.19e-03	0	60	0	81788928	54	6484
2026-01-17 01:02:23.41	342.31	22.74	-41.7	-46.7	10.1	6.87e-03	0	60	0	82837504	54	6609
2026-01-17 01:02:24.42	342.10	22.83	-41.8	-46.6	10.3	6.36e-03	0	60	0	84934656	54	6524
2026-01-17 01:02:25.43	341.88	22.92	-41.7	-46.3	10.7	3.84e-03	0	60	0	87031808	54	6338
2026-01-17 01:02:26.44	341.66	23.01	-41.6	-46.0	11.2	1.86e-03	0	60	0	89128960	54	6085
2026-01-17 01:02:27.45	341.44	23.10	-41.7	-46.0	11.2	1.32e-03	0	60	0	91226112	54	6121
2026-01-17 01:02:28.45	341.22	23.19	-41.8	-46.2	11.1	1.43e-03	0	60	0	92274688	54	6251
2026-01-17 01:02:29.46	341.00	23.28	-41.8	-46.2	11.2	1.39e-03	0	60	0	94371840	54	6225
2026-01-17 01:02:30.47	340.78	23.37	-41.7	-45.8	11.6	8.87e-04	0	60	0	96468992	54	5974
2026-01-17 01:02:31.49	340.55	23.46	-41.7	-45.7	11.8	5.65e-04	0	60	0	98566144	54	5904
2026-01-17 01:02:32.50	340.32	23.56	-41.7	-45.8	11.7	5.37e-04	0	60	0	100663296	54	5962
2026-01-17 01:02:33.51	340.10	23.65	-41.6	-45.5	12.0	3.47e-04	0	60	0	101711872	54	5781
2026-01-17 01:02:34.52	339.87	23.74	-41.7	-45.6	12.0	3.04e-04	0	60	0	103809024	54	5824
2026-01-17 01:02:35.53	339.64	23.83	-41.7	-45.7	11.9	4.48e-04	0	60	0	105906176	54	5901
2026-01-17 01:02:36.53	339.41	23.91	-41.7	-45.7	11.9	4.10e-04	0	60	0	108003328	54	5876
2026-01-17 01:02:37.54	339.18	24.00	-41.7	-45.7	11.9	4.03e-04	0	60	0	110100480	54	5911
2026-01-17 01:02:38.55	338.94	24.09	-41.8	-45.8	11.8	4.51e-04	0	60	0	111149056	54	5971
2026-01-17 01:02:39.56	338.71	24.18	-41.8	-45.8	11.9	4.11e-04	0	60	0	113246208	54	5939
2026-01-17 01:02:40.57	338.47	24.27	-41.8	-45.7	12.0	3.45e-04	0	60	0	115343360	54	5894
2026-01-17 01:02:41.58	338.23	24.36	-41.8	-45.8	12.0	3.15e-04	0	60	0	117440512	54	5925
2026-01-17 01:02:42.59	337.99	24.45	-41.8	-45.6	12.2	2.80e-04	0	60	0	119537664	54	5844
2026-01-17 01:02:43.60	337.75	24.54	-41.7	-45.5	12.3	1.68e-04	0	60	0	120586240	54	5764
2026-01-17 01:02:44.61	337.51	24.62	-41.7	-45.5	12.3	1.62e-04	0	60	0	122683392	54	5766
2026-01-17 01:02:45.62	337.27	24.71	-41.7	-45.4	12.5	1.34e-04	0	60	0	124780544	54	5665
2026-01-17 01:02:46.63	337.02	24.80	-41.7	-45.3	12.6	1.07e-04	0	60	0	126877696	54	5616
2026-01-17 01:02:47.64	336.77	24.88	-41.6	-45.2	12.6	1.04e-04	0	60	0	128974848	54	5592
2026-01-17 01:02:48.65	336.53	24.97	-41.7	-45.2	12.7	6.79e-05	0	60	0	131072000	54	5592
2026-01-17 01:02:49.66	336.28	25.06	-41.6	-45.2	12.7	6.94e-05	0	60	0	132120576	54	5563
2026-01-17 01:02:50.67	336.03	25.14	-41.7	-45.3	12.7	8.01e-05	0	60	0	134217728	54	5623
2026-01-17 01:02:51.68	335.78	25.23	-41.7	-45.3	12.6	1.04e-04	0	60	0	136314880	54	5628
2026-01-17 01:02:52.69	335.52	25.31	-41.7	-45.2	12.7	7.55e-05	0	60	0	138412032	54	5587
2026-01-17 01:02:53.70	335.27	25.40	-41.6	-45.2	12.8	7.32e-05	0	60	0	140509184	54	5570
2026-01-17 01:02:54.71	335.01	25.48	-41.6	-45.1	12.9	5.34e-05	0	60	0	141557760	54	5517
2026-01-17 01:02:55.72	334.75	25.57	-41.7	-45.2	12.8	5.87e-05	0	60	0	143654912	54	5585
2026-01-17 01:02:56.73	334.50	25.65	-41.8	-45.4	12.6	9.46e-05	0	60	0	145752064	54	5696
2026-01-17 01:02:57.74	334.24	25.74	-41.9	-45.6	12.4	1.13e-04	0	60	0	147849216	54	5846
2026-01-17 01:02:58.75	333.97	25.82	-41.9	-45.7	12.3	1.97e-04	0	60	0	149946368	54	5903
2026-01-17 01:02:59.76	333.71	25.90	-42.0	-45.8	12.2	2.09e-04	0	60	0	150994944	54	5949
2026-01-17 01:03:00.77	333.45	25.98	-42.0	-45.8	12.2	2.51e-04	0	60	0	153092096	54	5990
2026-01-17 01:03:01.78	333.18	26.07	-42.0	-45.9	12.1	2.95e-04	0	60	0	155189248	54	6038
2026-01-17 01:03:02.78	332.92	26.15	-42.1	-46.0	12.0	3.66e-04	0	60	0	157286400	54	6079
2026-01-17 01:03:03.79	332.65	26.23	-42.0	-45.9	12.1	2.75e-04	0	60	0	159383552	54	6022
2026-01-17 01:03:04.80	332.38	26.31	-42.1	-45.9	12.1	2.75e-04	0	60	0	160432128	54	6049
2026-01-17 01:03:05.81	332.11	26.39	-42.1	-46.0	12.0	3.06e-04	0	60	0	162529280	54	6079
2026-01-17 01:03:06.82	331.83	26.47	-42.2	-46.2	11.8	3.39e-04	0	60	0	164626432	54	6203
2026-01-17 01:03:07.83	331.56	26.55	-42.3	-46.3	11.7	5.05e-04	0	60	0	166723584	55	5954
2026-01-17 01:03:08.84	331.28	26.63	-42.3	-46.4	11.6	6.61e-04	0	60	0	168820736	55	6034
2026-01-17 01:03:09.85	331.01	26.70	-42.3	-46.3	11.7	5.98e-04	0	60	0	169869312	55	5972
2026-01-17 01:03:10.86	330.73	26.78	-42.3	-46.3	11.8	4.75e-04	0	60	0	171966464	55	5933
2026-01-17 01:03:11.87	330.45	26.86	-42.3	-46.3	11.7	5.18e-04	0	60	0	174063616	55	5959
2026-01-17 01:03:12.88	330.17	26.94	-42.3	-46.3	11.7	5.66e-04	0	60	0	176160768	55	5992
2026-01-17 01:03:13.89	329.89	27.01	-42.3	-46.5	11.6	6.58e-04	0	60	0	178257920	55	6063
2026-01-17 01:03:14.90	329.60	27.09	-42.3	-46.4	11.6	7.73e-04	0	60	0	179306496	55	6028
2026-01-17 01:03:15.91	329.32	27.16	-42.4	-46.5	11.6	7.99e-04	0	60	0	181403648	55	6091
2026-01-17 01:03:16.92	329.03	27.24	-42.4	-46.6	11.5	8.32e-04	0	60	0	183500800	55	6136
2026-01-17 01:03:17.93	328.74	27.31	-42.4	-46.6	11.5	8.12e-04	0	60	0	185597952	55	6146
2026-01-17 01:03:18.94	328.45	27.38	-42.4	-46.5	11.5	7.79e-04	0	60	0	187695104	55	6098
2026-01-17 01:03:19.95	328.16	27.46	-42.3	-46.4	11.6	6.62e-04	0	60	0	188743680	55	6016
2026-01-17 01:03:20.96	327.87	27.53	-42.4	-46.5	11.6	7.17e-04	0	60	0	190840832	55	6088
2026-01-17 01:03:21.97	327.58	27.60	-42.4	-46.5	11.5	7.35e-04	0	60	0	192937984	55	6107
2026-01-17 01:03:22.98	327.28	27.67	-42.4	-46.6	11.5	9.07e-04	0	60	0	195035136	55	6132
2026-01-17 01:03:23.98	326.99	27.74	-42.4	-46.7	11.3	9.25e-04	0	60	0	197132288	55	6234
2026-01-17 01:03:25.00	326.69	27.81	-42.5	-46.7	11.3	1.10e-03	0	60	0	199229440	55	6261
2026-01-17 01:03:26.01	326.39	27.88	-42.4	-46.6	11.4	1.12e-03	0	60	0	200278016	55	6188
2026-01-17 01:03:27.02	326.09	27.94	-42.4	-46.5	11.5	9.04e-04	0	60	0	202375168	55	6114
2026-01-17 01:03:28.02	325.80	28.01	-42.4	-46.5	11.6	7.68e-04	0	60	0	204472320	55	6088
2026-01-17 01:03:29.03	325.49	28.08	-42.3	-46.4	11.7	5.31e-04	0	60	0	206569472	55	6014
2026-01-17 01:03:30.04	325.19	28.14	-42.4	-46.5	11.6	6.00e-04	0	60	0	208666624	55	6082
2026-01-17 01:03:31.05	324.89	28.21	-42.4	-46.6	11.4	7.66e-04	0	60	0	209715200	55	6200
2026-01-17 01:03:32.06	324.58	28.27	-42.4	-46.5	11.5	8.45e-04	0	60	0	211812352	55	6124
2026-01-17 01:03:33.07	324.27	28.34	-42.4	-46.5	11.5	8.28e-04	0	60	0	213909504	55	6090
2026-01-17 01:03:34.08	323.96	28.40	-42.4	-46.6	11.5	7.84e-04	0	60	0	216006656	55	6137
2026-01-17 01:03:35.10	323.65	28.46	-42.3	-46.4	11.7	6.25e-04	0	60	0	218103808	55	6035
2026-01-17 01:03:36.10	323.34	28.52	-42.3	-46.4	11.7	6.61e-04	0	60	0	219152384	55	6048
2026-01-17 01:03:37.11	323.03	28.58	-42.4	-46.6	11.5	7.46e-04	0	61	0	221249536	55	6132
2026-01-17 01:03:38.12	322.72	28.64	-42.5	-46.7	11.4	9.63e-04	0	61	0	223346688	55	6237
2026-01-17 01:03:39.13	322.40	28.70	-42.5	-46.7	11.4	1.15e-03	0	61	0	225443840	55	6251
2026-01-17 01:03:40.14	322.09	28.76	-42.5	-46.8	11.2	1.32e-03	0	60	0	227540992	55	6342
2026-01-17 01:03:41.15	321.77	28.81	-42.6	-47.0	11.0	1.42e-03	0	60	0	228589568	55	6459
2026-01-17 01:03:42.16	321.45	28.87	-42.6	-47.0	11.1	1.67e-03	0	60	0	230686720	55	6462
2026-01-17 01:03:43.17	321.14	28.93	-42.7	-47.1	10.9	1.97e-03	0	60	0	232783872	55	6546
2026-01-17 01:03:44.18	320.82	28.98	-42.7	-47.2	10.9	2.03e-03	0	60	0	234881024	55	6586
2026-01-17 01:03:45.19	320.49	29.03	-42.6	-47.1	10.9	2.22e-03	0	60	0	236978176	55	6529
2026-01-17 01:03:46.20	320.17	29.09	-42.6	-47.0	11.1	1.98e-03	0	61	0	238026752	55	6441
2026-01-17 01:03:47.21	319.85	29.14	-42.6	-46.9	11.1	2.09e-03	0	60	0	240123904	55	6406
2026-01-17 01:03:48.22	319.53	29.19	-42.7	-47.1	10.9	1.78e-03	0	60	0	242221056	55	6518
2026-01-17 01:03:49.23	319.20	29.24	-42.6	-47.0	11.0	1.99e-03	0	60	0	244318208	55	6473
2026-01-17 01:03:50.24	318.87	29.29	-42.6	-47.1	11.0	1.70e-03	0	60	0	246415360	55	6502
2026-01-17 01:03:51.25	318.55	29.33	-42.9	-47.4	10.8	2.46e-03	0	60	0	247463936	56	6414
2026-01-17 01:03:52.26	318.22	29.38	-42.9	-47.6	10.6	3.34e-03	0	60	0	249561088	56	6503
2026-01-17 01:03:53.27	317.89	29.43	-43.0	-47.7	10.4	3.99e-03	0	61	0	251658240	56	6638
2026-01-17 01:03:54.28	317.56	29.47	-43.0	-47.8	10.3	4.72e-03	0	60	0	253755392	56	6700
2026-01-17 01:03:55.29	317.23	29.52	-43.0	-47.6	10.5	4.64e-03	0	60	0	255852544	56	6565
2026-01-17 01:03:56.30	316.90	29.56	-42.9	-47.5	10.7	3.54e-03	0	60	0	256901120	56	6466
2026-01-17 01:03:57.31	316.56	29.60	-42.9	-47.4	10.7	3.02e-03	0	60	0	258998272	56	6405
2026-01-17 01:03:58.33	316.23	29.64	-42.9	-47.6	10.6	2.88e-03	0	61	0	261095424	56	6500
2026-01-17 01:03:59.33	315.89	29.68	-42.9	-47.5	10.6	3.06e-03	0	61	0	263192576	56	6473
2026-01-17 01:04:00.34	315.56	29.72	-42.9	-47.5	10.6	2.92e-03	0	60	0	265289728	56	6494
2026-01-17 01:04:01.35	315.22	29.76	-42.9	-47.5	10.7	3.11e-03	0	60	0	267386880	56	6445
2026-01-17 01:04:02.36	314.89	29.79	-42.9	-47.5	10.7	3.01e-03	0	61	0	268435456	56	6426
2026-01-17 01:04:03.37	314.55	29.83	-42.9	-47.4	10.8	2.64e-03	0	60	0	270532608	56	6378
2026-01-17 01:04:04.38	314.21	29.86	-42.8	-47.2	11.0	2.36e-03	0	60	0	272629760	56	6258
2026-01-17 01:04:05.39	313.87	29.90	-42.8	-47.2	10.9	2.18e-03	0	60	0	274726912	56	6274
2026-01-17 01:04:06.40	313.53	29.93	-42.9	-47.4	10.7	2.76e-03	0	60	0	276824064	56	6406
2026-01-17 01:04:07.41	313.19	29.96	-42.9	-47.4	10.8	2.57e-03	0	60	0	277872640	56	6392
2026-01-17 01:04:08.42	312.85	29.99	-42.9	-47.5	10.7	2.70e-03	0	60	0	279969792	56	6449
2026-01-17 01:04:09.43	312.51	30.02	-42.9	-47.6	10.5	3.48e-03	0	60	0	282066944	56	6548
2026-01-17 01:04:10.44	312.16	30.05	-42.9	-47.5	10.7	3.30e-03	0	60	0	284164096	56	6456
2026-01-17 01:04:11.45	311.82	30.07	-42.9	-47.4	10.7	3.40e-03	0	60	0	286261248	56	6419
2026-01-17 01:04:12.46	311.48	30.10	-42.9	-47.5	10.7	2.91e-03	0	60	0	287309824	56	6423
2026-01-17 01:04:13.47	311.13	30.12	-42.9	-47.5	10.6	2.76e-03	0	60	0	289406976	56	6474
2026-01-17 01:04:14.48	310.79	30.15	-42.9	-47.4	10.7	2.79e-03	0	60	0	291504128	56	6407
2026-01-17 01:04:15.49	310.44	30.17	-42.9	-47.5	10.7	2.64e-03	0	60	0	293601280	56	6435
2026-01-17 01:04:16.50	310.10	30.19	-42.9	-47.5	10.7	3.14e-03	0	60	0	295698432	56	6492
2026-01-17 01:04:17.51	309.75	30.21	-42.9	-47.6	10.6	3.42e-03	0	61	0	296747008	56	6547
2026-01-17 01:04:18.52	309.41	30.23	-43.0	-47.7	10.5	3.68e-03	0	60	0	298844160	56	6600
2026-01-17 01:04:19.53	309.06	30.25	-43.1	-47.8	10.3	4.49e-03	0	60	0	300941312	56	6720
2026-01-17 01:04:20.54	308.71	30.26	-43.2	-48.1	10.0	6.64e-03	0	61	0	303038464	56	6933
2026-01-17 01:04:21.55	308.36	30.28	-43.1	-48.0	10.0	6.77e-03	0	61	0	305135616	56	6879
2026-01-17 01:04:22.56	308.01	30.29	-43.1	-48.0	10.1	5.74e-03	0	60	0	306184192	56	6813
2026-01-17 01:04:23.56	307.67	30.31	-43.1	-47.9	10.2	6.11e-03	0	61	0	308281344	56	6790
2026-01-17 01:04:24.57	307.32	30.32	-43.2	-48.1	10.1	6.55e-03	0	61	0	310378496	56	6929
2026-01-17 01:04:25.58	306.97	30.33	-43.2	-48.3	9.8	7.93e-03	0	61	0	312475648	57	6700
2026-01-17 01:04:26.59	306.62	30.34	-43.3	-48.6	9.5	1.19e-02	0	60	0	314572800	57	6941
2026-01-17 01:04:27.60	306.27	30.35	-43.4	-48.7	9.4	1.40e-02	0	61	0	315621376	57	7009
2026-01-17 01:04:28.61	305.92	30.35	-43.3	-48.6	9.6	1.40e-02	0	60	0	317718528	57	6911
2026-01-17 01:04:29.62	305.58	30.36	-43.4	-48.8	9.3	1.49e-02	0	61	0	319815680	57	7080
2026-01-17 01:04:30.63	305.23	30.36	-43.4	-48.9	9.2	1.88e-02	0	61	0	321912832	57	7130
2026-01-17 01:04:31.64	304.88	30.37	-43.4	-48.9	9.2	2.15e-02	0	60	0	324009984	57	7149
2026-01-17 01:04:32.65	304.53	30.37	-43.4	-48.8	9.3	2.05e-02	0	60	0	325058560	57	7080
2026-01-17 01:04:33.66	304.18	30.37	-43.3	-48.5	9.6	1.58e-02	0	60	0	327155712	57	6859
2026-01-17 01:04:34.67	303.83	30.37	-43.2	-48.3	9.8	1.05e-02	0	60	0	329252864	57	6668
2026-01-17 01:04:35.68	303.48	30.37	-43.2	-48.3	9.8	1.06e-02	0	60	0	331350016	57	6712
2026-01-17 01:04:36.69	303.13	30.36	-43.2	-48.4	9.7	9.64e-03	0	61	0	333447168	57	6743
2026-01-17 01:04:37.70	302.78	30.36	-43.3	-48.5	9.6	1.14e-02	0	60	0	335544320	57	6824
2026-01-17 01:04:38.71	302.43	30.36	-43.3	-48.6	9.6	1.25e-02	0	61	0	336592896	57	6892
2026-01-17 01:04:39.72	302.08	30.35	-43.3	-48.6	9.5	1.31e-02	0	61	0	338690048	57	6898
2026-01-17 01:04:40.73	301.73	30.34	-43.3	-48.5	9.6	1.38e-02	0	60	0	340787200	57	6852
2026-01-17 01:04:41.74	301.38	30.33	-43.3	-48.5	9.6	1.25e-02	0	61	0	342884352	57	6853
2026-01-17 01:04:42.75	301.03	30.32	-43.3	-48.5	9.6	1.31e-02	0	61	0	344981504	57	6832
2026-01-17 01:04:43.76	300.68	30.31	-43.2	-48.4	9.8	1.14e-02	0	61	0	346030080	57	6737
2026-01-17 01:04:44.77	300.33	30.30	-43.3	-48.5	9.6	1.07e-02	0	60	0	348127232	57	6814
2026-01-17 01:04:45.78	299.98	30.29	-43.2	-48.2	9.9	1.02e-02	0	61	0	350224384	57	6625
2026-01-17 01:04:46.79	299.64	30.27	-43.1	-48.1	10.1	8.39e-03	0	61	0	352321536	57	6502
2026-01-17 01:04:47.81	299.28	30.26	-42.9	-47.6	10.6	4.94e-03	0	60	0	354418688	57	6146
2026-01-17 01:04:48.82	298.94	30.24	-42.8	-47.3	10.9	2.68e-03	0	61	0	355467264	57	5943
2026-01-17 01:04:49.83	298.59	30.22	-42.8	-47.2	11.0	2.14e-03	0	61	0	357564416	57	5887
2026-01-17 01:04:50.84	298.24	30.20	-42.8	-47.2	11.1	2.06e-03	0	60	0	359661568	57	5858
2026-01-17 01:04:51.85	297.90	30.18	-42.8	-47.2	10.9	2.04e-03	0	60	0	361758720	57	5919
2026-01-17 01:04:52.86	297.55	30.16	-42.8	-47.3	10.9	2.21e-03	0	61	0	363855872	57	5933
2026-01-17 01:04:53.87	297.21	30.14	-42.7	-47.0	11.1	1.95e-03	0	61	0	364904448	57	5782
2026-01-17 01:04:54.88	296.86	30.11	-42.6	-46.9	11.4	1.29e-03	0	61	0	367001600	57	5667
2026-01-17 01:04:55.89	296.52	30.09	-42.7	-47.0	11.2	1.12e-03	0	61	0	369098752	57	5745
2026-01-17 01:04:56.90	296.17	30.06	-42.8	-47.2	11.0	1.99e-03	0	61	0	371195904	57	5888
2026-01-17 01:04:57.91	295.83	30.03	-42.9	-47.5	10.7	2.79e-03	0	60	0	373293056	57	6118
2026-01-17 01:04:58.92	295.49	30.01	-43.0	-47.8	10.4	3.79e-03	0	60	0	375390208	57	6280
2026-01-17 01:04:59.93	295.15	29.98	-43.0	-47.7	10.4	4.31e-03	0	60	0	376438784	57	6260
2026-01-17 01:05:00.94	294.80	29.95	-43.0	-47.7	10.4	4.41e-03	0	61	0	378535936	57	6264
2026-01-17 01:05:01.95	294.46	29.91	-43.0	-47.7	10.5	3.75e-03	0	61	0	380633088	57	6214
2026-01-17 01:05:02.95	294.13	29.88	-42.9	-47.5	10.6	3.81e-03	0	61	0	382730240	57	6130
2026-01-17 01:05:03.96	293.79	29.85	-42.9	-47.4	10.8	3.35e-03	0	61	0	384827392	57	6022
2026-01-17 01:05:04.97	293.45	29.81	-42.8	-47.1	11.0	1.85e-03	0	61	0	385875968	57	5849
2026-01-17 01:05:05.98	293.11	29.78	-42.7	-47.0	11.2	1.45e-03	0	60	0	387973120	57	5733
2026-01-17 01:05:06.99	292.77	29.74	-42.7	-47.0	11.2	1.22e-03	0	61	0	390070272	57	5754
2026-01-17 01:05:08.00	292.44	29.70	-42.8	-47.1	11.0	1.68e-03	0	60	0	392167424	57	5853
2026-01-17 01:05:09.01	292.10	29.66	-42.8	-47.2	11.0	1.90e-03	0	60	0	394264576	57	5887
2026-01-17 01:05:10.02	291.77	29.62	-42.8	-47.3	11.0	1.91e-03	0	61	0	395313152	57	5926
2026-01-17 01:05:11.03	291.43	29.58	-42.8	-47.2	11.1	1.71e-03	0	61	0	397410304	57	5861
2026-01-17 01:05:12.04	291.10	29.54	-42.8	-47.3	10.9	2.10e-03	0	61	0	399507456	57	5933
2026-01-17 01:05:13.05	290.77	29.49	-42.8	-47.3	10.9	2.30e-03	0	61	0	401604608	57	5963
2026-01-17 01:05:14.05	290.44	29.45	-42.8	-47.2	11.0	2.18e-03	0	61	0	403701760	57	5903
2026-01-17 01:05:15.06	290.11	29.40	-42.7	-47.1	11.1	1.71e-03	0	61	0	404750336	57	5824
2026-01-17 01:05:16.07	289.78	29.36	-42.6	-46.8	11.4	1.30e-03	0	61	0	406847488	57	5593
2026-01-17 01:05:17.08	289.45	29.31	-42.5	-46.6	11.6	8.15e-04	0	61	0	408944640	57	5497
2026-01-17 01:05:18.09	289.12	29.26	-42.5	-46.6	11.6	7.03e-04	0	61	0	411041792	57	5499
2026-01-17 01:05:19.10	288.80	29.21	-42.6	-46.8	11.5	7.27e-04	0	61	0	413138944	57	5593
2026-01-17 01:05:20.11	288.47	29.16	-42.6	-46.9	11.3	9.37e-04	0	61	0	414187520	57	5692
2026-01-17 01:05:21.12	288.15	29.11	-42.6	-46.9	11.3	1.13e-03	0	61	0	416284672	57	5681
2026-01-17 01:05:22.13	287.83	29.06	-42.7	-47.0	11.2	1.29e-03	0	61	0	418381824	57	5743
2026-01-17 01:05:23.14	287.50	29.01	-42.7	-47.0	11.1	1.38e-03	0	61	0	420478976	57	5786
2026-01-17 01:05:24.15	287.18	28.95	-42.7	-47.1	11.1	1.55e-03	0	61	0	422576128	57	5828
2026-01-17 01:05:25.16	286.86	28.90	-42.8	-47.2	11.0	1.89e-03	0	61	0	423624704	57	5905
2026-01-17 01:05:26.17	286.54	28.84	-42.8	-47.3	10.8	2.21e-03	0	61	0	425721856	57	5973
2026-01-17 01:05:27.18	286.22	28.79	-42.9	-47.5	10.6	2.61e-03	0	60	0	427819008	57	6089
2026-01-17 01:05:28.19	285.91	28.73	-43.0	-47.7	10.4	4.17e-03	0	61	0	429916160	57	6258
2026-01-17 01:05:29.19	285.60	28.67	-43.0	-47.9	10.3	4.84e-03	0	60	0	432013312	57	6352
2026-01-17 01:05:30.21	285.28	28.61	-43.1	-48.0	10.1	6.20e-03	0	61	0	433061888	57	6427
2026-01-17 01:05:31.21	284.97	28.55	-43.1	-47.9	10.2	6.46e-03	0	61	0	435159040	57	6412
2026-01-17 01:05:32.23	284.65	28.49	-43.0	-47.9	10.3	5.59e-03	0	61	0	437256192	57	6369
2026-01-17 01:05:33.24	284.34	28.43	-42.9	-47.6	10.6	4.16e-03	0	60	0	439353344	57	6152
2026-01-17 01:05:34.25	284.03	28.37	-42.9	-47.6	10.6	3.22e-03	0	61	0	441450496	57	6137
2026-01-17 01:05:35.26	283.72	28.30	-43.0	-47.7	10.4	3.82e-03	0	60	0	442499072	57	6251
2026-01-17 01:05:36.27	283.42	28.24	-43.0	-47.8	10.3	4.63e-03	0	61	0	444596224	57	6311
2026-01-17 01:05:37.28	283.11	28.17	-43.0	-47.8	10.3	4.67e-03	0	60	0	446693376	57	6286
2026-01-17 01:05:38.29	282.80	28.11	-43.0	-47.9	10.3	5.47e-03	0	61	0	448790528	57	6362
2026-01-17 01:05:39.30	282.50	28.04	-43.1	-48.1	10.1	6.60e-03	0	61	0	450887680	57	6518
2026-01-17 01:05:40.31	282.20	27.98	-43.2	-48.2	9.9	8.35e-03	0	61	0	452984832	57	6625
2026-01-17 01:05:41.32	281.90	27.91	-43.2	-48.3	9.8	9.99e-03	0	60	0	454033408	57	6701
2026-01-17 01:05:42.33	281.60	27.84	-43.2	-48.4	9.7	1.08e-02	0	61	0	456130560	57	6740
2026-01-17 01:05:43.34	281.30	27.77	-43.2	-48.2	9.8	1.05e-02	0	60	0	458227712	57	6625
2026-01-17 01:05:44.35	281.00	27.70	-43.1	-48.0	10.1	8.39e-03	0	61	0	460324864	57	6486
2026-01-17 01:05:45.36	280.71	27.63	-43.0	-47.8	10.3	6.51e-03	0	61	0	462422016	57	6324
2026-01-17 01:05:46.37	280.41	27.56	-43.0	-47.8	10.4	5.44e-03	0	61	0	463470592	57	6278
2026-01-17 01:05:47.38	280.12	27.49	-43.0	-47.7	10.4	4.71e-03	0	61	0	465567744	57	6240
2026-01-17 01:05:48.39	279.83	27.41	-43.0	-47.7	10.4	4.64e-03	0	61	0	467664896	57	6269
2026-01-17 01:05:49.40	279.54	27.34	-43.0	-47.8	10.4	4.57e-03	0	61	0	469762048	57	6280
2026-01-17 01:05:50.41	279.25	27.27	-43.0	-47.8	10.3	4.83e-03	0	61	0	471859200	57	6317
2026-01-17 01:05:51.42	278.96	27.19	-43.1	-48.0	10.1	6.12e-03	0	61	0	472907776	57	6444
2026-01-17 01:05:52.43	278.67	27.12	-43.1	-48.0	10.1	7.68e-03	0	61	0	475004928	57	6466
2026-01-17 01:05:53.44	278.39	27.04	-43.1	-48.0	10.1	7.86e-03	0	61	0	477102080	57	6462
2026-01-17 01:05:54.45	278.10	26.97	-43.0	-47.9	10.2	6.73e-03	0	61	0	479199232	57	6410
2026-01-17 01:05:55.46	277.82	26.89	-43.0	-47.8	10.2	5.69e-03	0	61	0	481296384	57	6329
2026-01-17 01:05:56.47	277.54	26.81	-43.0	-47.8	10.3	5.55e-03	0	61	0	482344960	57	6290
2026-01-17 01:05:57.48	277.26	26.74	-42.8	-47.4	10.7	3.23e-03	0	61	0	484442112	57	6032
2026-01-17 01:05:58.49	276.98	26.66	-42.7	-47.2	11.0	2.56e-03	0	61	0	486539264	57	5869
2026-01-17 01:05:59.50	276.70	26.58	-42.7	-47.2	11.0	1.96e-03	0	61	0	488636416	57	5858
2026-01-17 01:06:00.51	276.43	26.50	-42.7	-47.1	11.1	1.88e-03	0	61	0	490733568	57	5815
2026-01-17 01:06:01.52	276.15	26.42	-42.7	-47.1	10.9	2.05e-03	0	61	0	491782144	57	5850
2026-01-17 01:06:02.53	275.88	26.34	-42.7	-47.0	11.1	1.80e-03	0	61	0	493879296	57	5765
2026-01-17 01:06:03.54	275.61	26.26	-42.7	-47.0	11.2	1.48e-03	0	61	0	495976448	57	5744
2026-01-17 01:06:04.55	275.34	26.18	-42.6	-46.9	11.2	1.32e-03	0	61	0	498073600	57	5665
2026-01-17 01:06:05.56	275.07	26.10	-42.6	-46.9	11.2	1.33e-03	0	61	0	500170752	57	5705
2026-01-17 01:06:06.57	274.80	26.02	-42.6	-46.8	11.4	1.22e-03	0	61	0	501219328	57	5623
2026-01-17 01:06:07.58	274.54	25.93	-42.6	-46.8	11.3	1.14e-03	0	61	0	503316480	57	5639
2026-01-17 01:06:08.59	274.27	25.85	-42.6	-46.8	11.3	1.17e-03	0	61	0	505413632	57	5611
2026-01-17 01:06:09.60	274.01	25.77	-42.5	-46.7	11.4	9.71e-04	0	61	0	507510784	57	5558
2026-01-17 01:06:10.61	273.75	25.68	-42.5	-46.6	11.5	7.33e-04	0	60	0	509607936	56	5831
2026-01-17 01:06:11.62	273.49	25.60	-42.5	-46.6	11.6	6.46e-04	0	60	0	511705088	56	5808
2026-01-17 01:06:12.63	273.23	25.51	-42.5	-46.6	11.5	7.57e-04	0	60	0	512753664	56	5823
2026-01-17 01:06:13.64	272.97	25.43	-42.4	-46.5	11.6	7.30e-04	0	61	0	514850816	56	5773
2026-01-17 01:06:14.65	272.71	25.34	-42.4	-46.4	11.7	6.80e-04	0	61	0	516947968	56	5683
2026-01-17 01:06:15.66	272.46	25.26	-42.3	-46.2	12.0	4.96e-04	0	61	0	519045120	56	5540
2026-01-17 01:06:16.67	272.20	25.17	-42.2	-46.1	12.0	3.98e-04	0	61	0	521142272	56	5515
2026-01-17 01:06:17.68	271.95	25.09	-42.2	-46.0	12.1	2.93e-04	0	61	0	522190848	56	5456
2026-01-17 01:06:18.69	271.70	25.00	-42.2	-46.1	12.0	2.74e-04	0	61	0	524288000	56	5494
2026-01-17 01:06:19.70	271.45	24.91	-42.3	-46.2	12.0	3.11e-04	0	60	0	526385152	56	5534
2026-01-17 01:06:20.71	271.20	24.83	-42.3	-46.2	12.0	3.46e-04	0	61	0	528482304	56	5545
2026-01-17 01:06:21.72	270.96	24.74	-42.2	-46.1	12.1	3.48e-04	0	61	0	530579456	56	5470
2026-01-17 01:06:22.73	270.71	24.65	-42.2	-46.0	12.2	2.48e-04	0	61	0	531628032	56	5417
2026-01-17 01:06:23.74	270.47	24.56	-42.1	-45.8	12.3	2.27e-04	0	61	0	533725184	56	5320
2026-01-17 01:06:24.75	270.23	24.48	-42.0	-45.8	12.4	1.70e-04	0	61	0	535822336	56	5287
2026-01-17 01:06:25.76	269.98	24.39	-42.0	-45.7	12.5	1.11e-04	0	61	0	537919488	56	5236
2026-01-17 01:06:26.76	269.75	24.30	-41.8	-45.4	12.6	1.04e-04	0	61	0	540016640	55	5350
2026-01-17 01:06:27.77	269.51	24.21	-41.7	-45.3	12.7	7.85e-05	0	60	0	541065216	55	5308
2026-01-17 01:06:28.78	269.27	24.12	-41.7	-45.2	12.8	6.02e-05	0	61	0	543162368	55	5224
2026-01-17 01:06:29.79	269.04	24.03	-41.6	-45.1	12.9	4.73e-05	0	61	0	545259520	55	5200
2026-01-17 01:06:30.80	268.80	23.94	-41.7	-45.1	12.8	6.17e-05	0	61	0	547356672	55	5217
2026-01-17 01:06:31.81	268.57	23.85	-41.7	-45.2	12.8	6.79e-05	0	61	0	549453824	55	5247
2026-01-17 01:06:32.83	268.33	23.76	-41.6	-45.1	12.8	4.95e-05	0	61	0	550502400	55	5215
2026-01-17 01:06:33.83	268.11	23.67	-41.6	-45.0	12.9	4.34e-05	0	61	0	552599552	55	5157
2026-01-17 01:06:34.84	267.88	23.58	-41.5	-44.8	13.2	3.20e-05	0	61	0	554696704	55	5023
2026-01-17 01:06:35.85	267.65	23.49	-41.4	-44.8	13.2	1.98e-05	0	61	0	556793856	54	5300
2026-01-17 01:06:36.86	267.42	23.40	-41.4	-44.6	13.3	2.44e-05	0	61	0	558891008	54	5216
2026-01-17 01:06:37.87	267.20	23.31	-41.3	-44.6	13.4	2.28e-05	0	61	0	559939584	54	5180
2026-01-17 01:06:38.88	266.97	23.22	-41.4	-44.6	13.4	1.83e-05	0	60	0	562036736	54	5209
2026-01-17 01:06:39.89	266.75	23.13	-41.3	-44.6	13.4	1.37e-05	0	61	0	564133888	54	5180
2026-01-17 01:06:40.90	266.53	23.04	-41.3	-44.5	13.5	1.29e-05	0	61	0	566231040	54	5137
2026-01-17 01:06:41.91	266.31	22.94	-41.2	-44.4	13.6	7.60e-06	0	61	0	568328192	54	5087
2026-01-17 01:06:42.92	266.09	22.85	-41.2	-44.3	13.7	6.10e-06	0	61	0	569376768	54	5036
2026-01-17 01:06:43.93	265.87	22.76	-41.2	-44.4	13.6	7.60e-06	0	61	0	571473920	54	5054
2026-01-17 01:06:44.94	265.66	22.67	-41.2	-44.4	13.6	9.10e-06	0	61	0	573571072	54	5088
2026-01-17 01:06:45.95	265.44	22.58	-41.2	-44.4	13.6	3.80e-06	0	61	0	575668224	54	5097
2026-01-17 01:06:46.96	265.23	22.48	-41.2	-44.3	13.7	6.10e-06	0	61	0	577765376	54	5025
2026-01-17 01:06:47.97	265.02	22.39	-41.1	-44.2	13.8	3.80e-06	0	61	0	579862528	54	4968
2026-01-17 01:06:48.98	264.81	22.30	-41.0	-44.0	14.0	3.80e-06	0	61	0	580911104	54	4844
2026-01-17 01:06:49.99	264.60	22.21	-40.9	-43.9	14.1	6.10e-06	0	61	0	583008256	53	5076
2026-01-17 01:06:51.00	264.39	22.12	-40.8	-43.8	14.2	1.50e-06	0	61	0	585105408	53	4986
2026-01-17 01:06:52.01	264.18	22.02	-40.8	-43.6	14.3	3.80e-06	0	61	0	587202560	53	4919
2026-01-17 01:06:53.02	263.98	21.93	-40.7	-43.6	14.4	0.00e+00	0	61	0	589299712	53	4898
2026-01-17 01:06:54.02	263.77	21.84	-40.7	-43.6	14.4	1.50e-06	0	61	0	590348288	53	4888
2026-01-17 01:06:55.03	263.57	21.75	-40.7	-43.5	14.5	1.50e-06	0	61	0	592445440	53	4856
2026-01-17 01:06:56.04	263.37	21.65	-40.7	-43.5	14.5	0.00e+00	0	61	0	594542592	53	4856
2026-01-17 01:06:57.05	263.17	21.56	-40.6	-43.5	14.5	0.00e+00	0	61	0	596639744	53	4828
2026-01-17 01:06:58.06	262.97	21.47	-40.7	-43.6	14.4	1.50e-06	0	61	0	598736896	53	4889
2026-01-17 01:06:59.07	262.77	21.38	-40.7	-43.6	14.4	0.00e+00	0	60	0	599785472	53	4902
2026-01-17 01:07:00.08	262.57	21.28	-40.7	-43.6	14.3	1.50e-06	0	61	0	601882624	53	4920
2026-01-17 01:07:01.09	262.37	21.19	-40.7	-43.6	14.4	7.00e-07	0	61	0	603979776	53	4889
2026-01-17 01:07:02.10	262.18	21.10	-40.6	-43.5	14.5	7.00e-07	0	61	0	606076928	53	4827
2026-01-17 01:07:03.11	261.99	21.00	-40.6	-43.4	14.6	0.00e+00	0	61	0	608174080	53	4762
2026-01-17 01:07:04.12	261.79	20.91	-40.6	-43.3	14.6	0.00e+00	0	61	0	609222656	53	4754
2026-01-17 01:07:05.13	261.60	20.82	-40.6	-43.4	14.6	7.00e-07	0	61	0	611319808	53	4771
2026-01-17 01:07:06.14	261.41	20.72	-40.6	-43.4	14.5	7.00e-07	0	61	0	613416960	53	4789
2026-01-17 01:07:07.14	261.22	20.63	-40.6	-43.5	14.5	0.00e+00	0	61	0	615514112	53	4839
2026-01-17 01:07:08.16	261.03	20.54	-40.7	-43.5	14.4	7.00e-07	0	61	0	617611264	53	4850
2026-01-17 01:07:09.16	260.85	20.45	-40.8	-43.7	14.3	2.20e-06	0	61	0	618659840	53	4948
2026-01-17 01:07:10.17	260.66	20.35	-40.7	-43.6	14.3	7.00e-07	0	61	0	620756992	53	4916
2026-01-17 01:07:11.18	260.48	20.26	-40.8	-43.7	14.3	7.00e-07	0	61	0	622854144	53	4961
2026-01-17 01:07:12.19	260.29	20.17	-40.8	-43.7	14.2	3.80e-06	0	61	0	624951296	53	4976
2026-01-17 01:07:13.20	260.11	20.08	-40.8	-43.8	14.1	7.00e-07	0	61	0	627048448	53	5009
2026-01-17 01:07:14.21	259.93	19.98	-40.8	-43.8	14.2	1.50e-06	0	61	0	628097024	53	4989
2026-01-17 01:07:15.22	259.75	19.89	-40.8	-43.8	14.2	1.50e-06	0	61	0	630194176	53	4992
2026-01-17 01:07:16.23	259.57	19.80	-40.7	-43.6	14.3	1.50e-06	0	61	0	632291328	53	4914
2026-01-17 01:07:17.24	259.39	19.71	-40.8	-43.7	14.2	7.00e-07	0	61	0	634388480	53	4966
2026-01-17 01:07:18.25	259.22	19.61	-40.8	-43.8	14.1	1.50e-06	0	61	0	636485632	53	5022
2026-01-17 01:07:19.26	259.04	19.52	-40.9	-43.9	14.0	2.20e-06	0	61	0	637534208	53	5061
2026-01-17 01:07:20.27	258.87	19.43	-41.0	-44.1	13.8	1.50e-06	0	61	0	639631360	53	5185
2026-01-17 01:07:21.28	258.69	19.34	-41.1	-44.3	13.7	9.90e-06	0	61	0	641728512	53	5288
2026-01-17 01:07:22.29	258.52	19.24	-41.1	-44.3	13.6	6.10e-06	0	61	0	643825664	53	5295
2026-01-17 01:07:23.30	258.35	19.15	-41.1	-44.2	13.7	6.10e-06	0	61	0	645922816	53	5256
2026-01-17 01:07:24.31	258.18	19.06	-41.0	-44.2	13.7	6.10e-06	0	60	0	648019968	53	5237
2026-01-17 01:07:25.32	258.01	18.97	-41.1	-44.2	13.7	6.80e-06	0	61	0	649068544	53	5261
2026-01-17 01:07:26.33	257.84	18.88	-41.0	-44.2	13.7	6.80e-06	0	61	0	651165696	53	5237
2026-01-17 01:07:27.35	257.67	18.78	-41.1	-44.2	13.7	2.20e-06	0	61	0	653262848	53	5252
2026-01-17 01:07:28.35	257.51	18.69	-41.1	-44.3	13.5	1.06e-05	0	61	0	655360000	53	5337
2026-01-17 01:07:29.36	257.34	18.60	-41.2	-44.4	13.4	9.90e-06	0	60	0	657457152	53	5391
2026-01-17 01:07:30.37	257.18	18.51	-41.3	-44.6	13.3	2.05e-05	0	61	0	658505728	53	5500
2026-01-17 01:07:31.39	257.01	18.42	-41.4	-44.9	13.0	2.89e-05	0	61	0	660602880	53	5664
2026-01-17 01:07:32.40	256.85	18.33	-41.4	-44.9	13.0	4.19e-05	0	61	0	662700032	53	5694
2026-01-17 01:07:33.41	256.69	18.23	-41.5	-45.0	12.8	3.89e-05	0	61	0	664797184	53	5765
2026-01-17 01:07:34.42	256.53	18.14	-41.5	-45.1	12.7	7.62e-05	0	61	0	666894336	53	5846
2026-01-17 01:07:35.42	256.37	18.05	-41.6	-45.2	12.7	6.79e-05	0	61	0	667942912	53	5858
2026-01-17 01:07:36.43	256.21	17.96	-41.6	-45.2	12.7	7.70e-05	0	61	0	670040064	53	5868
2026-01-17 01:07:37.44	256.05	17.87	-41.5	-45.1	12.7	6.86e-05	0	60	0	672137216	53	5816
2026-01-17 01:07:38.45	255.89	17.78	-41.5	-45.1	12.8	7.70e-05	0	61	0	674234368	53	5792
2026-01-17 01:07:39.46	255.74	17.69	-41.5	-45.0	12.8	7.17e-05	0	61	0	676331520	53	5764
2026-01-17 01:07:40.47	255.58	17.60	-41.5	-45.1	12.7	5.56e-05	0	61	0	677380096	53	5815
2026-01-17 01:07:41.48	255.43	17.51	-41.5	-45.0	12.8	6.25e-05	0	61	0	679477248	53	5763
2026-01-17 01:07:42.49	255.28	17.42	-41.5	-45.0	12.9	5.34e-05	0	61	0	681574400	53	5742
2026-01-17 01:07:43.50	255.13	17.33	-41.4	-44.9	12.9	5.56e-05	0	61	0	683671552	53	5684
2026-01-17 01:07:44.51	254.97	17.24	-41.5	-45.1	12.8	5.11e-05	0	61	0	685768704	53	5793
2026-01-17 01:07:45.52	254.82	17.15	-41.5	-45.1	12.7	8.92e-05	0	61	0	686817280	53	5827
2026-01-17 01:07:46.53	254.67	17.06	-41.6	-45.2	12.6	7.47e-05	0	61	0	688914432	53	5856
2026-01-17 01:07:47.54	254.53	16.97	-41.6	-45.2	12.6	9.68e-05	0	61	0	691011584	53	5899
2026-01-17 01:07:48.55	254.38	16.88	-41.6	-45.2	12.6	1.07e-04	0	61	0	693108736	53	5896
2026-01-17 01:07:49.55	254.23	16.79	-41.5	-45.1	12.7	9.15e-05	0	61	0	695205888	53	5837
2026-01-17 01:07:50.56	254.09	16.70	-41.6	-45.2	12.6	9.53e-05	0	61	0	696254464	53	5872
2026-01-17 01:07:51.57	253.94	16.61	-41.6	-45.3	12.5	9.76e-05	0	61	0	698351616	53	5958
2026-01-17 01:07:52.58	253.80	16.52	-41.6	-45.3	12.5	1.13e-04	0	61	0	700448768	53	5938
2026-01-17 01:07:53.59	253.66	16.43	-41.6	-45.3	12.5	1.33e-04	0	61	0	702545920	53	5964
2026-01-17 01:07:54.60	253.51	16.35	-41.7	-45.4	12.4	1.65e-04	0	61	0	704643072	53	6016
2026-01-17 01:07:55.61	253.37	16.26	-41.7	-45.5	12.3	1.49e-04	0	61	0	705691648	53	6086
2026-01-17 01:07:56.62	253.23	16.17	-41.8	-45.6	12.2	2.39e-04	0	61	0	707788800	54	5824
2026-01-17 01:07:57.63	253.09	16.08	-41.8	-45.7	12.1	2.63e-04	0	61	0	709885952	54	5856
2026-01-17 01:07:58.64	252.95	15.99	-41.9	-45.8	12.0	2.76e-04	0	61	0	711983104	54	5937
2026-01-17 01:07:59.65	252.81	15.90	-41.8	-45.7	12.0	3.19e-04	0	61	0	714080256	54	5911
2026-01-17 01:08:00.66	252.68	15.82	-41.8	-45.8	12.0	3.49e-04	0	61	0	716177408	54	5935
2026-01-17 01:08:01.67	252.54	15.73	-41.8	-45.6	12.1	2.91e-04	0	61	0	717225984	54	5824
2026-01-17 01:08:02.68	252.41	15.64	-41.7	-45.5	12.2	2.08e-04	0	61	0	719323136	54	5763
2026-01-17 01:08:03.69	252.27	15.55	-41.7	-45.4	12.3	1.57e-04	0	61	0	721420288	54	5685
2026-01-17 01:08:04.70	252.14	15.47	-41.7	-45.4	12.3	1.67e-04	0	61	0	723517440	54	5708
2026-01-17 01:08:05.71	252.00	15.38	-41.6	-45.4	12.4	1.75e-04	0	61	0	725614592	54	5668
2026-01-17 01:08:06.72	251.87	15.29	-41.7	-45.5	12.3	1.85e-04	0	61	0	726663168	54	5755
2026-01-17 01:08:07.73	251.74	15.21	-41.8	-45.6	12.1	2.04e-04	0	61	0	728760320	54	5836
2026-01-17 01:08:08.74	251.61	15.12	-41.8	-45.6	12.1	2.44e-04	0	61	0	730857472	54	5826
2026-01-17 01:08:09.75	251.48	15.03	-41.9	-45.8	11.9	3.75e-04	0	61	0	732954624	54	5964
2026-01-17 01:08:10.76	251.35	14.95	-41.9	-45.9	11.8	4.78e-04	0	61	0	735051776	54	6047
2026-01-17 01:08:11.77	251.22	14.86	-42.0	-46.1	11.6	5.68e-04	0	61	0	736100352	54	6162
2026-01-17 01:08:12.78	251.09	14.78	-42.0	-46.1	11.6	7.53e-04	0	61	0	738197504	54	6153
2026-01-17 01:08:13.79	250.96	14.69	-42.0	-46.1	11.6	6.42e-04	0	61	0	740294656	54	6155
2026-01-17 01:08:14.80	250.84	14.60	-41.9	-46.0	11.7	5.97e-04	0	61	0	742391808	54	6090
2026-01-17 01:08:15.81	250.71	14.52	-41.9	-46.0	11.7	5.70e-04	0	61	0	744488960	54	6096
2026-01-17 01:08:16.82	250.59	14.43	-41.9	-46.0	11.7	7.05e-04	0	61	0	745537536	54	6065
2026-01-17 01:08:17.83	250.46	14.35	-41.8	-45.8	11.8	5.35e-04	0	61	0	747634688	54	5986
2026-01-17 01:08:18.84	250.34	14.26	-41.8	-45.8	11.8	4.47e-04	0	61	0	749731840	54	5992
2026-01-17 01:08:19.85	250.22	14.18	-41.9	-45.9	11.8	5.19e-04	0	61	0	751828992	54	6010
2026-01-17 01:08:20.86	250.10	14.09	-41.9	-46.0	11.6	6.32e-04	0	61	0	753926144	54	6116
2026-01-17 01:08:21.87	249.97	14.01	-42.0	-46.2	11.5	7.51e-04	0	61	0	754974720	54	6207
2026-01-17 01:08:22.88	249.85	13.92	-42.1	-46.4	11.3	1.08e-03	0	61	0	757071872	54	6371
2026-01-17 01:08:23.88	249.73	13.84	-42.2	-46.6	11.1	1.51e-03	0	61	0	759169024	54	6495
2026-01-17 01:08:24.90	249.61	13.76	-42.2	-46.7	10.9	1.87e-03	0	61	0	761266176	55	6268
2026-01-17 01:08:25.91	249.50	13.67	-42.3	-47.0	10.7	2.76e-03	0	61	0	763363328	55	6428
2026-01-17 01:08:26.92	249.38	13.59	-42.4	-47.2	10.4	3.91e-03	0	61	0	764411904	55	6582
2026-01-17 01:08:27.93	249.26	13.51	-42.4	-47.2	10.3	4.83e-03	0	61	0	766509056	55	6632
2026-01-17 01:08:28.94	249.14	13.42	-42.5	-47.4	10.1	5.41e-03	0	61	0	768606208	55	6788
2026-01-17 01:08:29.95	249.03	13.34	-42.5	-47.4	10.1	6.77e-03	0	61	0	770703360	55	6767
2026-01-17 01:08:30.95	248.91	13.26	-42.4	-47.2	10.3	6.01e-03	0	61	0	772800512	55	6621
2026-01-17 01:08:31.96	248.80	13.17	-42.3	-46.9	10.6	4.07e-03	0	61	0	773849088	55	6401
2026-01-17 01:08:32.97	248.69	13.09	-42.3	-46.8	10.7	2.89e-03	0	61	0	775946240	55	6304
2026-01-17 01:08:33.98	248.57	13.01	-42.2	-46.7	10.8	2.59e-03	0	61	0	778043392	55	6264
2026-01-17 01:08:34.99	248.46	12.93	-42.2	-46.7	10.9	2.11e-03	0	61	0	780140544	55	6207
2026-01-17 01:08:36.00	248.35	12.84	-42.2	-46.7	10.9	2.20e-03	0	61	0	782237696	55	6204
2026-01-17 01:08:37.01	248.24	12.76	-42.2	-46.6	10.9	2.43e-03	0	61	0	784334848	55	6194
2026-01-17 01:08:38.02	248.13	12.68	-42.2	-46.7	10.8	2.18e-03	0	61	0	785383424	55	6257
2026-01-17 01:08:39.03	248.01	12.60	-42.2	-46.8	10.7	2.69e-03	0	61	0	787480576	55	6306
2026-01-17 01:08:40.04	247.91	12.52	-42.3	-46.9	10.6	3.23e-03	0	61	0	789577728	55	6406
2026-01-17 01:08:41.05	247.80	12.44	-42.4	-47.1	10.4	3.73e-03	0	61	0	791674880	55	6524
2026-01-17 01:08:42.06	247.69	12.35	-42.4	-47.2	10.3	5.45e-03	0	61	0	793772032	55	6630
2026-01-17 01:08:43.07	247.58	12.27	-42.4	-47.3	10.2	6.38e-03	0	61	0	794820608	55	6669
2026-01-17 01:08:44.08	247.47	12.19	-42.4	-47.4	10.1	6.13e-03	0	61	0	796917760	55	6724
2026-01-17 01:08:45.09	247.37	12.11	-42.4	-47.2	10.2	6.74e-03	0	61	0	799014912	55	6640
2026-01-17 01:08:46.10	247.26	12.03	-42.4	-47.3	10.2	5.78e-03	0	61	0	801112064	55	6666
2026-01-17 01:08:47.11	247.16	11.95	-42.4	-47.2	10.3	6.49e-03	0	61	0	802160640	55	6583
2026-01-17 01:08:48.12	247.05	11.87	-42.3	-47.1	10.4	4.94e-03	0	61	0	804257792	55	6529
2026-01-17 01:08:49.12	246.95	11.79	-42.3	-47.1	10.5	4.72e-03	0	61	0	806354944	55	6498
2026-01-17 01:08:50.14	246.84	11.71	-42.3	-47.0	10.5	4.29e-03	0	61	0	808452096	55	6440
2026-01-17 01:08:51.14	246.74	11.63	-42.3	-47.0	10.5	3.86e-03	0	61	0	810549248	55	6430
2026-01-17 01:08:52.15	246.64	11.55	-42.3	-46.9	10.6	3.80e-03	0	61	0	812646400	55	6401
2026-01-17 01:08:53.16	246.54	11.47	-42.2	-46.9	10.5	3.78e-03	0	61	0	813694976	55	6384
2026-01-17 01:08:54.17	246.44	11.39	-42.3	-47.0	10.4	3.98e-03	0	61	0	815792128	55	6460
2026-01-17 01:08:55.18	246.34	11.32	-42.3	-47.1	10.4	4.91e-03	0	61	0	817889280	55	6513
2026-01-17 01:08:56.19	246.24	11.24	-42.3	-47.2	10.2	5.63e-03	0	61	0	819986432	55	6586
2026-01-17 01:08:57.20	246.14	11.16	-42.4	-47.3	10.1	6.00e-03	0	61	0	822083584	55	6686
2026-01-17 01:08:58.21	246.04	11.08	-42.5	-47.5	9.9	8.68e-03	0	61	0	823132160	55	6866
2026-01-17 01:08:59.22	245.94	11.00	-42.4	-47.4	10.0	8.35e-03	0	61	0	825229312	55	6785
2026-01-17 01:09:00.23	245.84	10.92	-42.4	-47.4	10.0	8.07e-03	0	61	0	827326464	55	6784
2026-01-17 01:09:01.24	245.74	10.85	-42.5	-47.5	9.8	8.69e-03	0	61	0	829423616	55	6871
2026-01-17 01:09:02.25	245.65	10.77	-42.5	-47.6	9.8	9.37e-03	0	61	0	831520768	55	6906
2026-01-17 01:09:03.26	245.55	10.69	-42.5	-47.6	9.8	1.04e-02	0	61	0	832569344	55	6904
2026-01-17 01:09:04.27	245.45	10.61	-42.5	-47.6	9.8	9.60e-03	0	61	0	834666496	55	6895
2026-01-17 01:09:05.28	245.36	10.53	-42.5	-47.6	9.8	1.01e-02	0	61	0	836763648	55	6938
2026-01-17 01:09:06.29	245.26	10.46	-42.4	-47.5	9.9	9.05e-03	0	61	0	838860800	55	6839
2026-01-17 01:09:07.30	245.17	10.38	-42.4	-47.5	9.9	1.04e-02	0	61	0	840957952	55	6821
2026-01-17 01:09:08.30	245.08	10.30	-42.4	-47.5	9.9	9.31e-03	0	61	0	842006528	55	6815
2026-01-17 01:09:09.31	244.98	10.23	-42.5	-47.6	9.8	9.60e-03	0	61	0	844103680	55	6902
2026-01-17 01:09:10.32	244.89	10.15	-42.5	-47.6	9.7	1.16e-02	0	61	0	846200832	55	6940
2026-01-17 01:09:11.33	244.80	10.08	-42.5	-47.7	9.6	1.18e-02	0	61	0	848297984	55	6995
2026-01-17 01:09:12.34	244.70	10.00	-42.5	-47.7	9.6	1.31e-02	0	61	0	850395136	55	6970
2026-01-17 01:09:13.36	244.61	9.92	-42.5	-47.8	9.5	1.31e-02	0	61	0	851443712	55	7088
2026-01-17 01:09:14.36	244.52	9.85	-42.5	-47.8	9.5	1.33e-02	0	61	0	853540864	55	7082
2026-01-17 01:09:15.37	244.43	9.77	-42.5	-47.8	9.4	1.59e-02	0	61	0	855638016	55	7115
2026-01-17 01:09:16.39	244.34	9.70	-42.5	-47.9	9.4	1.55e-02	0	61	0	857735168	55	7166
2026-01-17 01:09:17.40	244.25	9.62	-42.6	-48.1	9.2	1.88e-02	0	61	0	859832320	55	7327
2026-01-17 01:09:18.40	244.16	9.55	-42.6	-48.3	9.0	2.29e-02	0	61	0	860880896	55	7474
2026-01-17 01:09:19.41	244.08	9.47	-42.6	-48.2	9.0	2.72e-02	0	61	0	862978048	55	7451
2026-01-17 01:09:20.42	243.99	9.40	-42.6	-48.2	9.0	2.50e-02	0	61	0	865075200	55	7453
2026-01-17 01:09:21.43	243.90	9.32	-42.7	-48.4	8.9	2.78e-02	0	61	0	867172352	55	7552
2026-01-17 01:09:22.44	243.81	9.25	-42.9	-48.6	8.8	3.29e-02	0	61	0	869269504	56	7331
2026-01-17 01:09:23.45	243.73	9.17	-42.8	-48.6	8.8	3.00e-02	0	61	0	870318080	56	7311
2026-01-17 01:09:24.46	243.64	9.10	-42.9	-48.7	8.7	3.29e-02	0	61	0	872415232	56	7422
2026-01-17 01:09:25.47	243.55	9.02	-42.9	-48.7	8.7	3.30e-02	0	61	0	874512384	56	7386
2026-01-17 01:09:26.48	243.47	8.95	-42.8	-48.6	8.8	3.24e-02	0	61	0	876609536	56	7298
2026-01-17 01:09:27.48	243.38	8.88	-42.7	-48.3	9.1	2.79e-02	0	61	0	878706688	56	7067
2026-01-17 01:09:28.50	243.30	8.80	-42.7	-48.2	9.1	2.11e-02	0	61	0	880803840	56	7025
2026-01-17 01:09:29.51	243.22	8.73	-42.7	-48.2	9.2	2.22e-02	0	61	0	881852416	56	6992
2026-01-17 01:09:30.52	243.13	8.66	-42.7	-48.1	9.2	2.20e-02	0	61	0	883949568	56	6941
2026-01-17 01:09:31.53	243.05	8.58	-42.7	-48.1	9.2	2.01e-02	0	61	0	886046720	56	6939
2026-01-17 01:09:32.54	242.97	8.51	-42.7	-48.3	9.1	2.09e-02	0	61	0	888143872	56	7047
2026-01-17 01:09:33.55	242.88	8.44	-42.7	-48.3	9.1	2.34e-02	0	61	0	890241024	56	7099
2026-01-17 01:09:34.55	242.80	8.36	-42.7	-48.3	9.1	2.40e-02	0	61	0	891289600	56	7063
2026-01-17 01:09:35.57	242.72	8.29	-42.7	-48.3	9.0	2.60e-02	0	61	0	893386752	56	7066
2026-01-17 01:09:36.58	242.64	8.22	-42.6	-48.2	9.1	2.25e-02	0	61	0	895483904	56	7016
2026-01-17 01:09:37.59	242.56	8.15	-42.7	-48.2	9.1	2.35e-02	0	61	0	897581056	56	7028
2026-01-17 01:09:38.60	242.48	8.07	-42.7	-48.3	9.0	2.45e-02	0	61	0	899678208	56	7081
2026-01-17 01:09:39.61	242.40	8.00	-44.1	-55.2	4.2	2.87e-02	26	61	0	900726784	58	13992
2026-01-17 01:09:40.62	242.32	7.93	-44.7	-59.1	3.8	1.49e+00	0	61	104	901775360	59	20594
2026-01-17 01:09:41.63	242.24	7.86	-44.8	-59.5	3.8	1.49e+00	0	61	104	901775360	60	20306
2026-01-17 01:09:42.64	242.16	7.79	-45.0	-59.6	3.8	1.49e+00	0	61	104	901775360	60	20590
