passes_logs/2026/01/17/R2.0S_Moscow/R2.0S_Moscow__20260117_234837_NOAA_21_JPSS-2_rec.log

#Pass ID: 20260117_234837_NOAA 21 (JPSS-2)
#Satellite: NOAA 21 (JPSS-2)
#Configuration: NOAA-21
#almurnet v.1.7.20251203
#Start time: 2026-01-17 23:48:37

#Version: 2.2.20231116
#Station: R2.0S_Moscow
#Location: 37.707566 lon 55.798166 lat
#TLE: 1 54234U 22150A   26017.26823908  .00000042  00000+0  40962-4 0  9992
#TLE: 2 54234  98.7501 318.1405 0000613 274.2947  85.8159 14.19535194165131

#Time	Az	El	Level	Level2	SNR	BER	BlckErr	Temp	State	Recorded	gain1	gain2
2026-01-17 23:48:37.19	15.52	1.96	-42.8	-55.3	3.8	1.49e+00	0	51	0	0	57	14891
2026-01-17 23:48:38.19	15.52	2.03	-42.8	-55.3	3.8	1.49e+00	0	52	104	0	57	14893
2026-01-17 23:48:39.20	15.52	2.09	-42.8	-55.2	3.8	1.49e+00	0	52	104	0	57	14861
2026-01-17 23:48:40.21	15.52	2.16	-42.8	-55.3	3.8	1.49e+00	0	52	104	0	57	14893
2026-01-17 23:48:41.22	15.52	2.22	-42.8	-55.2	3.8	1.49e+00	0	52	104	0	57	14858
2026-01-17 23:48:42.23	15.51	2.29	-42.8	-55.2	3.8	1.49e+00	0	52	104	0	57	14853
2026-01-17 23:48:43.24	15.51	2.35	-42.8	-55.2	3.8	1.49e+00	0	52	104	0	57	14864
2026-01-17 23:48:44.25	15.51	2.42	-42.8	-55.2	3.8	1.49e+00	0	52	104	0	57	14860
2026-01-17 23:48:45.26	15.51	2.48	-42.8	-55.2	3.8	1.49e+00	0	52	104	0	57	14847
2026-01-17 23:48:46.27	15.50	2.55	-42.8	-55.3	3.8	1.49e+00	0	52	104	0	57	14884
2026-01-17 23:48:47.28	15.50	2.61	-42.8	-55.2	3.8	1.49e+00	0	52	104	0	57	14864
2026-01-17 23:48:48.29	15.50	2.68	-42.8	-55.2	3.8	1.49e+00	0	52	104	0	57	14861
2026-01-17 23:48:49.30	15.49	2.75	-42.8	-55.2	3.8	1.49e+00	0	52	104	0	57	14834
2026-01-17 23:48:50.31	15.49	2.81	-42.8	-55.2	3.8	1.49e+00	0	53	104	0	57	14793
2026-01-17 23:48:51.33	15.49	2.88	-42.8	-55.2	3.8	1.49e+00	0	53	104	0	57	14868
2026-01-17 23:48:52.34	15.49	2.95	-42.8	-55.2	3.8	1.49e+00	0	53	104	0	57	14824
2026-01-17 23:48:53.35	15.48	3.01	-42.8	-55.2	3.8	1.49e+00	0	53	104	0	57	14834
2026-01-17 23:48:54.36	15.48	3.08	-42.8	-55.2	3.8	1.49e+00	0	53	104	0	57	14855
2026-01-17 23:48:55.37	15.48	3.15	-42.8	-55.2	3.8	1.49e+00	0	53	104	0	57	14803
2026-01-17 23:48:56.38	15.47	3.21	-42.8	-55.2	3.8	1.49e+00	0	53	104	0	57	14856
2026-01-17 23:48:57.39	15.47	3.28	-42.8	-55.2	3.8	1.49e+00	0	53	104	0	57	14849
2026-01-17 23:48:58.40	15.47	3.35	-42.8	-55.2	3.8	1.49e+00	0	53	104	0	57	14846
2026-01-17 23:48:59.41	15.47	3.42	-42.8	-55.2	3.8	1.49e+00	0	53	104	0	57	14853
2026-01-17 23:49:00.42	15.46	3.48	-42.8	-55.2	3.8	1.49e+00	0	53	104	0	57	14878
2026-01-17 23:49:01.43	15.46	3.55	-42.8	-55.2	3.8	1.49e+00	0	53	104	0	57	14845
2026-01-17 23:49:02.44	15.46	3.62	-42.8	-55.2	3.8	1.49e+00	0	53	104	0	57	14815
2026-01-17 23:49:03.45	15.45	3.69	-42.8	-55.2	3.8	1.49e+00	0	53	104	0	57	14849
2026-01-17 23:49:04.46	15.45	3.76	-42.8	-55.2	3.8	1.49e+00	0	53	104	0	57	14828
2026-01-17 23:49:05.47	15.45	3.82	-42.8	-55.2	3.8	1.49e+00	0	53	104	0	57	14811
2026-01-17 23:49:06.48	15.44	3.89	-42.8	-55.2	3.8	1.49e+00	0	53	104	0	57	14843
2026-01-17 23:49:07.50	15.44	3.96	-42.8	-55.2	3.8	1.49e+00	0	53	104	0	57	14843
2026-01-17 23:49:08.51	15.44	4.03	-42.8	-55.2	3.8	1.49e+00	0	54	104	0	57	14836
2026-01-17 23:49:09.52	15.43	4.10	-42.8	-55.2	3.8	1.49e+00	0	54	104	0	57	14806
2026-01-17 23:49:10.53	15.43	4.17	-42.8	-55.2	3.8	1.49e+00	0	54	104	0	57	14814
2026-01-17 23:49:11.54	15.43	4.24	-42.8	-55.2	3.8	1.49e+00	0	54	104	0	57	14824
2026-01-17 23:49:12.55	15.42	4.31	-42.8	-55.2	3.8	1.49e+00	0	54	104	0	57	14766
2026-01-17 23:49:13.56	15.42	4.38	-42.8	-55.2	3.8	1.49e+00	0	54	104	0	57	14790
2026-01-17 23:49:14.57	15.42	4.45	-42.8	-55.2	3.8	1.49e+00	0	54	104	0	57	14807
2026-01-17 23:49:15.58	15.41	4.52	-42.8	-55.2	3.8	1.49e+00	0	54	104	0	57	14762
2026-01-17 23:49:16.59	15.41	4.59	-42.8	-55.2	3.8	1.49e+00	0	54	104	0	57	14794
2026-01-17 23:49:17.60	15.41	4.66	-42.8	-55.2	3.8	1.49e+00	0	54	104	0	57	14803
2026-01-17 23:49:18.61	15.40	4.73	-42.8	-55.2	3.8	1.49e+00	0	54	104	0	57	14785
2026-01-17 23:49:19.62	15.40	4.80	-42.8	-55.2	3.8	1.49e+00	0	54	104	0	57	14794
2026-01-17 23:49:20.63	15.39	4.88	-42.8	-55.2	3.8	1.49e+00	0	54	104	0	57	14832
2026-01-17 23:49:21.64	15.39	4.95	-42.8	-55.2	3.8	1.49e+00	0	54	104	0	57	14768
2026-01-17 23:49:22.65	15.39	5.02	-42.8	-55.2	3.8	1.49e+00	0	55	104	0	57	14757
2026-01-17 23:49:23.67	15.38	5.09	-42.8	-55.2	3.8	1.49e+00	0	54	104	0	57	14848
2026-01-17 23:49:24.68	15.38	5.16	-42.8	-55.2	3.8	1.49e+00	0	54	104	0	57	14727
2026-01-17 23:49:25.69	15.37	5.24	-42.8	-55.2	3.8	1.49e+00	0	54	104	0	57	14726
2026-01-17 23:49:26.70	15.37	5.31	-42.8	-55.2	3.8	1.49e+00	0	55	104	0	57	14861
2026-01-17 23:49:27.71	15.37	5.38	-42.8	-55.2	3.8	1.49e+00	0	55	104	0	57	14758
2026-01-17 23:49:28.72	15.36	5.45	-42.8	-55.1	3.8	1.49e+00	0	55	104	0	57	14671
2026-01-17 23:49:29.73	15.36	5.53	-42.8	-55.2	3.8	1.49e+00	0	55	104	0	57	14783
2026-01-17 23:49:30.74	15.35	5.60	-42.8	-55.2	3.8	1.49e+00	0	55	104	0	57	14820
2026-01-17 23:49:31.75	15.35	5.67	-42.8	-55.1	3.8	1.49e+00	0	55	104	0	57	14666
2026-01-17 23:49:32.76	15.34	5.75	-42.8	-55.1	3.8	1.49e+00	0	55	104	0	57	14618
2026-01-17 23:49:33.78	15.34	5.82	-42.8	-55.1	3.8	1.49e+00	0	55	104	0	57	14640
2026-01-17 23:49:34.79	15.34	5.90	-42.8	-55.2	3.8	1.49e+00	0	55	104	0	57	14796
2026-01-17 23:49:35.80	15.33	5.97	-42.8	-55.2	3.8	1.49e+00	0	55	104	0	57	14768
2026-01-17 23:49:36.81	15.33	6.04	-42.8	-55.0	3.8	1.49e+00	0	55	104	0	57	14456
2026-01-17 23:49:37.82	15.32	6.12	-42.7	-54.9	3.8	1.49e+00	0	55	104	0	57	14282
2026-01-17 23:49:38.83	15.32	6.19	-42.8	-54.9	3.8	1.49e+00	0	55	104	0	57	14287
2026-01-17 23:49:39.84	15.31	6.27	-42.8	-55.0	3.8	1.49e+00	0	55	104	0	57	14519
2026-01-17 23:49:40.85	15.31	6.34	-42.8	-55.1	3.8	1.49e+00	0	55	104	0	57	14575
2026-01-17 23:49:41.86	15.30	6.42	-42.8	-55.1	3.8	1.49e+00	0	55	104	0	57	14583
2026-01-17 23:49:42.87	15.30	6.50	-42.8	-54.9	3.8	1.49e+00	0	55	104	0	57	14322
2026-01-17 23:49:43.88	15.29	6.57	-42.7	-54.7	3.8	1.49e+00	0	55	104	0	57	13971
2026-01-17 23:49:44.89	15.29	6.65	-42.7	-54.4	3.8	1.49e+00	0	56	104	0	57	13465
2026-01-17 23:49:45.90	15.28	6.73	-42.7	-54.1	3.8	1.49e+00	0	56	104	0	57	13059
2026-01-17 23:49:46.92	15.28	6.80	-42.6	-53.8	3.8	1.49e+00	0	55	104	0	57	12520
2026-01-17 23:49:47.93	15.27	6.88	-42.6	-53.2	3.9	1.48e+00	0	56	104	0	57	11776
2026-01-17 23:49:48.94	15.27	6.96	-42.5	-52.7	3.9	1.48e+00	0	56	104	0	57	11064
2026-01-17 23:49:49.95	15.26	7.03	-42.3	-51.3	4.0	1.45e+00	0	56	104	0	56	9978
2026-01-17 23:49:50.96	15.26	7.11	-42.0	-49.3	5.2	6.57e-01	0	56	0	1048576	56	7968
2026-01-17 23:49:51.97	15.25	7.19	-41.5	-47.7	6.2	3.96e-01	0	56	0	3145728	55	7004
2026-01-17 23:49:52.98	15.25	7.27	-41.1	-46.5	7.3	1.63e-01	0	56	0	6291456	54	6436
2026-01-17 23:49:53.99	15.24	7.35	-40.6	-45.2	8.5	5.44e-02	0	56	0	10485760	53	5879
2026-01-17 23:49:55.00	15.24	7.43	-40.3	-44.5	9.3	2.61e-02	0	56	0	13631488	52	5747
2026-01-17 23:49:56.01	15.23	7.50	-40.0	-43.9	9.9	8.85e-03	0	56	0	16777216	52	5342
2026-01-17 23:49:57.02	15.23	7.58	-39.9	-43.5	10.4	4.86e-03	0	56	0	19922944	51	5410
2026-01-17 23:49:58.03	15.22	7.66	-40.1	-43.9	10.0	6.81e-03	0	56	0	23068672	51	5689
2026-01-17 23:49:59.04	15.22	7.74	-40.4	-44.6	9.2	1.25e-02	0	56	0	26214400	51	6194
2026-01-17 23:50:00.05	15.21	7.82	-40.7	-45.3	8.5	3.27e-02	0	56	0	29360128	51	6648
2026-01-17 23:50:01.06	15.20	7.90	-40.9	-45.8	7.9	7.34e-02	0	56	0	32505856	52	6678
2026-01-17 23:50:02.07	15.20	7.98	-40.7	-45.4	8.3	6.11e-02	0	56	0	35651584	52	6365
2026-01-17 23:50:03.08	15.19	8.06	-40.8	-45.6	8.1	4.95e-02	0	56	0	38797312	52	6528
2026-01-17 23:50:04.09	15.19	8.14	-41.1	-46.0	7.9	8.13e-02	0	56	0	41943040	52	6838
2026-01-17 23:50:05.10	15.18	8.23	-41.4	-46.3	7.8	7.42e-02	0	56	0	45088768	53	6647
2026-01-17 23:50:06.11	15.18	8.31	-41.9	-54.3	3.8	1.34e+00	0	56	104	46137344	54	15877
2026-01-17 23:50:07.12	15.17	8.39	-42.4	-50.7	4.0	1.12e+00	2	56	104	46137344	55	9891
2026-01-17 23:50:08.13	15.16	8.47	-41.4	-46.5	7.6	5.05e-02	0	56	0	47185920	53	6853
2026-01-17 23:50:09.14	15.16	8.55	-40.6	-44.5	9.6	1.17e-02	0	56	0	51380224	53	5440
2026-01-17 23:50:10.15	15.15	8.63	-40.5	-44.4	9.7	1.42e-02	0	56	0	54525952	53	5379
2026-01-17 23:50:11.16	15.14	8.72	-40.4	-44.2	9.9	8.59e-03	0	56	0	57671680	52	5582
2026-01-17 23:50:12.17	15.14	8.80	-40.8	-44.8	9.4	1.15e-02	0	56	0	59768832	52	5989
2026-01-17 23:50:13.18	15.13	8.88	-40.7	-44.6	9.6	1.42e-02	0	57	0	62914560	52	5846
2026-01-17 23:50:14.19	15.13	8.97	-40.7	-44.8	9.3	1.10e-02	0	57	0	67108864	52	5978
2026-01-17 23:50:15.20	15.12	9.05	-40.8	-44.9	9.3	1.84e-02	0	57	0	70254592	52	6052
2026-01-17 23:50:16.21	15.11	9.14	-40.7	-44.6	9.7	1.30e-02	0	57	0	73400320	52	5820
2026-01-17 23:50:17.22	15.11	9.22	-40.7	-44.6	9.8	1.04e-02	0	57	0	76546048	52	5790
2026-01-17 23:50:18.24	15.10	9.31	-40.6	-44.2	10.2	7.13e-03	0	57	0	79691776	52	5573
2026-01-17 23:50:19.25	15.09	9.39	-40.6	-44.3	10.2	5.34e-03	0	57	0	82837504	52	5610
2026-01-17 23:50:20.26	15.09	9.48	-40.5	-44.0	10.5	4.76e-03	0	57	0	85983232	52	5421
2026-01-17 23:50:21.26	15.08	9.56	-40.6	-44.1	10.3	6.03e-03	0	57	0	89128960	52	5528
2026-01-17 23:50:22.28	15.07	9.65	-40.5	-44.1	10.4	3.86e-03	0	57	0	92274688	52	5482
2026-01-17 23:50:23.29	15.06	9.73	-40.5	-44.1	10.4	4.24e-03	0	57	0	95420416	52	5505
2026-01-17 23:50:24.30	15.06	9.82	-40.6	-44.2	10.3	5.40e-03	0	57	0	98566144	52	5572
2026-01-17 23:50:25.31	15.05	9.91	-40.4	-43.9	10.7	3.12e-03	0	57	0	101711872	52	5350
2026-01-17 23:50:26.32	15.04	9.99	-40.5	-43.9	10.6	3.66e-03	0	57	0	104857600	52	5379
2026-01-17 23:50:27.33	15.04	10.08	-40.4	-43.8	10.8	3.22e-03	0	57	0	108003328	52	5312
2026-01-17 23:50:28.34	15.03	10.17	-40.4	-43.8	10.9	2.38e-03	0	57	0	111149056	52	5280
2026-01-17 23:50:29.35	15.02	10.26	-40.4	-43.7	10.9	2.44e-03	0	57	0	114294784	52	5271
2026-01-17 23:50:30.36	15.01	10.34	-40.3	-43.6	11.0	2.09e-03	0	57	0	117440512	52	5198
2026-01-17 23:50:31.37	15.01	10.43	-40.4	-43.7	10.9	1.99e-03	0	57	0	120586240	52	5269
2026-01-17 23:50:32.38	15.00	10.52	-40.3	-43.6	11.1	1.86e-03	0	57	0	123731968	52	5178
2026-01-17 23:50:33.39	14.99	10.61	-40.4	-43.7	11.0	1.79e-03	0	57	0	126877696	52	5256
2026-01-17 23:50:34.40	14.98	10.70	-40.3	-43.5	11.2	1.49e-03	0	57	0	130023424	52	5120
2026-01-17 23:50:35.40	14.98	10.79	-40.4	-43.6	11.1	1.46e-03	0	57	0	133169152	52	5191
2026-01-17 23:50:36.42	14.97	10.88	-40.3	-43.5	11.3	1.28e-03	0	57	0	136314880	52	5129
2026-01-17 23:50:37.42	14.96	10.97	-40.4	-43.5	11.2	1.37e-03	0	57	0	139460608	52	5155
2026-01-17 23:50:38.44	14.95	11.06	-40.4	-43.6	11.2	1.39e-03	0	57	0	142606336	52	5176
2026-01-17 23:50:39.44	14.94	11.15	-40.4	-43.6	11.2	1.46e-03	0	57	0	145752064	52	5206
2026-01-17 23:50:40.45	14.94	11.25	-40.4	-43.6	11.2	1.60e-03	0	57	0	148897792	52	5173
2026-01-17 23:50:41.46	14.93	11.34	-40.4	-43.6	11.2	9.71e-04	0	57	0	152043520	52	5170
2026-01-17 23:50:42.48	14.92	11.43	-40.3	-43.5	11.3	1.25e-03	0	57	0	155189248	52	5115
2026-01-17 23:50:43.49	14.91	11.52	-40.4	-43.5	11.3	9.20e-04	0	57	0	158334976	52	5155
2026-01-17 23:50:44.50	14.90	11.62	-40.2	-43.3	11.6	7.06e-04	0	57	0	161480704	52	5011
2026-01-17 23:50:45.51	14.89	11.71	-40.3	-43.3	11.5	7.46e-04	0	58	0	164626432	52	5027
2026-01-17 23:50:46.52	14.88	11.80	-40.3	-43.3	11.5	7.37e-04	0	58	0	167772160	52	5034
2026-01-17 23:50:47.53	14.88	11.90	-40.3	-43.4	11.5	9.44e-04	0	58	0	170917888	52	5072
2026-01-17 23:50:48.54	14.87	11.99	-40.2	-43.2	11.6	6.35e-04	0	58	0	174063616	52	4982
2026-01-17 23:50:49.55	14.86	12.09	-40.1	-43.1	11.8	5.79e-04	0	57	0	177209344	52	4905
2026-01-17 23:50:50.56	14.85	12.18	-40.3	-43.3	11.6	5.80e-04	0	57	0	180355072	52	5009
2026-01-17 23:50:51.57	14.84	12.28	-40.2	-43.1	11.8	4.32e-04	0	58	0	183500800	52	4918
2026-01-17 23:50:52.58	14.83	12.37	-40.1	-43.0	11.9	4.56e-04	0	58	0	186646528	52	4870
2026-01-17 23:50:53.59	14.82	12.47	-40.2	-43.2	11.8	4.91e-04	0	58	0	189792256	52	4965
2026-01-17 23:50:54.60	14.81	12.57	-40.0	-42.8	12.1	2.79e-04	0	58	0	192937984	52	4752
2026-01-17 23:50:55.61	14.80	12.66	-40.1	-43.0	12.0	3.47e-04	0	58	0	196083712	52	4868
2026-01-17 23:50:56.62	14.79	12.76	-40.1	-42.9	12.1	2.91e-04	0	58	0	199229440	52	4799
2026-01-17 23:50:57.63	14.78	12.86	-40.1	-43.0	12.0	3.58e-04	0	58	0	202375168	52	4849
2026-01-17 23:50:58.64	14.77	12.96	-40.0	-42.9	12.2	2.72e-04	0	58	0	205520896	52	4764
2026-01-17 23:50:59.64	14.76	13.05	-40.1	-43.0	12.1	2.79e-04	0	58	0	208666624	52	4838
2026-01-17 23:51:00.65	14.75	13.15	-40.1	-42.9	12.2	2.41e-04	0	58	0	211812352	52	4802
2026-01-17 23:51:01.66	14.74	13.25	-40.1	-42.9	12.1	2.01e-04	0	58	0	214958080	52	4810
2026-01-17 23:51:02.67	14.73	13.35	-40.0	-42.8	12.4	1.52e-04	0	58	0	218103808	52	4710
2026-01-17 23:51:03.68	14.72	13.45	-40.0	-42.8	12.4	1.50e-04	0	58	0	221249536	52	4727
2026-01-17 23:51:04.69	14.71	13.55	-40.0	-42.8	12.4	1.32e-04	0	58	0	224395264	52	4718
2026-01-17 23:51:05.70	14.70	13.65	-40.0	-42.7	12.5	1.08e-04	0	58	0	227540992	51	4968
2026-01-17 23:51:06.71	14.69	13.76	-40.1	-42.7	12.6	8.23e-05	0	58	0	230686720	51	4971
2026-01-17 23:51:07.72	14.68	13.86	-40.1	-42.8	12.5	1.09e-04	0	58	0	233832448	51	4991
2026-01-17 23:51:08.73	14.67	13.96	-40.0	-42.7	12.6	1.19e-04	0	58	0	236978176	51	4935
2026-01-17 23:51:09.74	14.66	14.06	-40.1	-42.8	12.5	1.14e-04	0	58	0	240123904	51	4988
2026-01-17 23:51:10.75	14.65	14.17	-40.0	-42.7	12.6	1.09e-04	0	58	0	243269632	51	4958
2026-01-17 23:51:11.76	14.64	14.27	-40.1	-42.7	12.6	1.11e-04	0	58	0	246415360	51	4954
2026-01-17 23:51:12.78	14.63	14.37	-40.1	-42.8	12.6	1.01e-04	0	58	0	249561088	51	4993
2026-01-17 23:51:13.79	14.61	14.48	-40.0	-42.7	12.7	1.05e-04	0	58	0	252706816	51	4928
2026-01-17 23:51:14.80	14.60	14.58	-40.0	-42.6	12.8	8.31e-05	0	58	0	255852544	51	4875
2026-01-17 23:51:15.81	14.59	14.69	-40.0	-42.6	12.8	8.01e-05	0	58	0	258998272	51	4891
2026-01-17 23:51:16.81	14.58	14.79	-40.0	-42.5	12.8	5.26e-05	0	58	0	262144000	51	4867
2026-01-17 23:51:17.83	14.57	14.90	-40.0	-42.7	12.7	5.95e-05	0	58	0	265289728	51	4935
2026-01-17 23:51:18.84	14.56	15.01	-40.0	-42.7	12.7	6.33e-05	0	58	0	268435456	51	4927
2026-01-17 23:51:19.85	14.54	15.12	-40.1	-42.7	12.7	8.08e-05	0	58	0	271581184	51	4936
2026-01-17 23:51:20.86	14.53	15.22	-40.1	-42.8	12.6	8.77e-05	0	58	0	274726912	51	4987
2026-01-17 23:51:21.87	14.52	15.33	-40.1	-42.8	12.7	1.02e-04	0	58	0	277872640	51	4984
2026-01-17 23:51:22.88	14.51	15.44	-40.0	-42.6	12.9	5.34e-05	0	58	0	281018368	51	4887
2026-01-17 23:51:23.89	14.50	15.55	-40.1	-42.8	12.7	7.40e-05	0	58	0	284164096	51	4995
2026-01-17 23:51:24.90	14.48	15.66	-40.1	-42.7	12.8	7.32e-05	0	58	0	287309824	51	4939
2026-01-17 23:51:25.91	14.47	15.77	-40.1	-42.7	12.8	6.71e-05	0	58	0	290455552	51	4936
2026-01-17 23:51:26.92	14.46	15.88	-40.1	-42.7	12.8	6.02e-05	0	58	0	293601280	51	4966
2026-01-17 23:51:27.93	14.45	15.99	-40.1	-42.7	12.8	5.72e-05	0	58	0	296747008	51	4978
2026-01-17 23:51:28.94	14.43	16.10	-40.0	-42.6	12.9	5.49e-05	0	58	0	299892736	51	4894
2026-01-17 23:51:29.95	14.42	16.22	-40.1	-42.7	12.8	6.10e-05	0	59	0	303038464	51	4950
2026-01-17 23:51:30.96	14.41	16.33	-40.1	-42.6	12.9	6.48e-05	0	58	0	306184192	51	4925
2026-01-17 23:51:31.97	14.39	16.44	-40.2	-42.7	12.8	6.71e-05	0	58	0	309329920	51	4981
2026-01-17 23:51:32.98	14.38	16.56	-40.1	-42.6	13.0	4.73e-05	0	59	0	312475648	51	4896
2026-01-17 23:51:33.99	14.37	16.67	-40.1	-42.7	12.9	4.57e-05	0	58	0	315621376	51	4954
2026-01-17 23:51:35.00	14.35	16.79	-40.2	-42.7	12.8	5.34e-05	0	58	0	318767104	51	4973
2026-01-17 23:51:36.01	14.34	16.90	-40.2	-42.7	12.9	3.73e-05	0	58	0	321912832	51	4968
2026-01-17 23:51:37.02	14.32	17.02	-40.1	-42.6	13.0	5.26e-05	0	59	0	325058560	51	4921
2026-01-17 23:51:38.03	14.31	17.13	-40.1	-42.7	12.9	5.72e-05	0	58	0	328204288	51	4933
2026-01-17 23:51:39.04	14.29	17.25	-40.1	-42.6	13.0	3.89e-05	0	59	0	331350016	51	4906
2026-01-17 23:51:40.05	14.28	17.37	-40.1	-42.7	12.9	4.95e-05	0	59	0	334495744	51	4937
2026-01-17 23:51:41.06	14.27	17.49	-40.1	-42.6	13.0	3.20e-05	0	59	0	337641472	51	4915
2026-01-17 23:51:42.07	14.25	17.61	-40.1	-42.6	13.0	4.95e-05	0	59	0	340787200	51	4889
2026-01-17 23:51:43.08	14.24	17.72	-40.1	-42.6	13.1	2.74e-05	0	59	0	343932928	51	4907
2026-01-17 23:51:44.09	14.22	17.84	-40.1	-42.6	13.0	3.66e-05	0	59	0	348127232	51	4926
2026-01-17 23:51:45.10	14.21	17.97	-40.2	-42.7	13.0	3.50e-05	0	59	0	351272960	51	4940
2026-01-17 23:51:46.11	14.19	18.09	-40.2	-42.7	13.0	5.56e-05	0	59	0	353370112	51	4954
2026-01-17 23:51:47.12	14.17	18.21	-40.2	-42.8	12.9	4.42e-05	0	59	0	356515840	51	4989
2026-01-17 23:51:48.13	14.16	18.33	-40.2	-42.8	12.9	4.42e-05	0	59	0	359661568	51	5000
2026-01-17 23:51:49.14	14.14	18.45	-40.2	-42.7	13.0	3.58e-05	0	59	0	363855872	51	4951
2026-01-17 23:51:50.15	14.13	18.58	-40.2	-42.7	13.0	4.04e-05	0	59	0	367001600	51	4941
2026-01-17 23:51:51.16	14.11	18.70	-40.2	-42.7	13.0	3.89e-05	0	59	0	370147328	51	4949
2026-01-17 23:51:52.17	14.09	18.83	-40.2	-42.7	13.0	3.43e-05	0	59	0	373293056	51	4932
2026-01-17 23:51:53.18	14.08	18.95	-40.2	-42.7	13.0	3.43e-05	0	59	0	375390208	51	4948
2026-01-17 23:51:54.19	14.06	19.08	-40.1	-42.6	13.1	3.12e-05	0	59	0	379584512	51	4882
2026-01-17 23:51:55.20	14.04	19.20	-40.2	-42.7	13.0	3.43e-05	0	59	0	382730240	51	4933
2026-01-17 23:51:56.21	14.03	19.33	-40.2	-42.7	13.0	3.28e-05	0	59	0	385875968	51	4946
2026-01-17 23:51:57.22	14.01	19.46	-40.1	-42.6	13.1	3.73e-05	0	59	0	389021696	51	4893
2026-01-17 23:51:58.23	13.99	19.59	-40.0	-42.5	13.3	2.67e-05	0	59	0	392167424	51	4820
2026-01-17 23:51:59.24	13.98	19.72	-40.1	-42.5	13.2	2.36e-05	0	59	0	395313152	51	4845
2026-01-17 23:52:00.25	13.96	19.85	-40.0	-42.4	13.4	2.36e-05	0	59	0	398458880	51	4790
2026-01-17 23:52:01.26	13.94	19.98	-40.0	-42.3	13.4	1.60e-05	0	59	0	401604608	51	4752
2026-01-17 23:52:02.27	13.92	20.11	-39.9	-42.3	13.4	1.14e-05	0	59	0	404750336	51	4741
2026-01-17 23:52:03.28	13.90	20.24	-39.9	-42.3	13.5	1.29e-05	0	59	0	407896064	51	4727
2026-01-17 23:52:04.29	13.88	20.37	-39.9	-42.3	13.5	1.29e-05	0	59	0	411041792	51	4716
2026-01-17 23:52:05.30	13.87	20.51	-39.9	-42.2	13.6	1.37e-05	0	59	0	414187520	51	4682
2026-01-17 23:52:06.31	13.85	20.64	-39.8	-42.1	13.7	6.10e-06	0	59	0	417333248	51	4613
2026-01-17 23:52:07.32	13.83	20.78	-39.8	-42.1	13.7	6.10e-06	0	59	0	420478976	51	4611
2026-01-17 23:52:08.33	13.81	20.91	-39.7	-42.0	13.8	4.50e-06	0	59	0	423624704	51	4565
2026-01-17 23:52:09.33	13.79	21.05	-39.7	-41.9	13.9	3.00e-06	0	59	0	426770432	51	4513
2026-01-17 23:52:10.34	13.77	21.19	-39.6	-41.8	14.0	3.80e-06	0	59	0	429916160	51	4488
2026-01-17 23:52:11.35	13.75	21.32	-39.6	-41.8	14.0	3.00e-06	0	59	0	433061888	51	4469
2026-01-17 23:52:12.37	13.73	21.46	-39.6	-41.7	14.1	3.80e-06	0	59	0	436207616	51	4437
2026-01-17 23:52:13.37	13.71	21.60	-39.6	-41.7	14.1	2.20e-06	0	59	0	439353344	51	4421
2026-01-17 23:52:14.38	13.69	21.74	-39.5	-41.6	14.2	1.50e-06	0	59	0	442499072	50	4616
2026-01-17 23:52:15.39	13.67	21.88	-39.5	-41.6	14.2	7.00e-07	0	59	0	445644800	50	4628
2026-01-17 23:52:16.40	13.65	22.02	-39.4	-41.5	14.4	7.00e-07	0	59	0	448790528	50	4558
2026-01-17 23:52:17.41	13.63	22.17	-39.4	-41.4	14.4	0.00e+00	0	59	0	451936256	50	4539
2026-01-17 23:52:18.42	13.60	22.31	-39.3	-41.3	14.5	0.00e+00	0	59	0	455081984	50	4488
2026-01-17 23:52:19.43	13.58	22.45	-39.3	-41.4	14.5	7.00e-07	0	59	0	458227712	50	4504
2026-01-17 23:52:20.44	13.56	22.60	-39.2	-41.3	14.6	7.00e-07	0	59	0	461373440	50	4448
2026-01-17 23:52:21.45	13.54	22.74	-39.2	-41.2	14.6	7.00e-07	0	59	0	464519168	50	4441
2026-01-17 23:52:22.46	13.52	22.89	-39.2	-41.2	14.7	7.00e-07	0	59	0	467664896	50	4408
2026-01-17 23:52:23.47	13.49	23.04	-39.1	-41.2	14.7	0.00e+00	0	59	0	470810624	50	4398
2026-01-17 23:52:24.48	13.47	23.19	-39.1	-41.1	14.7	7.00e-07	0	59	0	473956352	50	4381
2026-01-17 23:52:25.49	13.45	23.34	-39.1	-41.0	14.8	0.00e+00	0	59	0	477102080	50	4335
2026-01-17 23:52:26.49	13.42	23.48	-39.0	-41.0	14.9	0.00e+00	0	59	0	480247808	50	4305
2026-01-17 23:52:27.50	13.40	23.64	-39.0	-41.0	14.9	0.00e+00	0	59	0	483393536	50	4316
2026-01-17 23:52:28.51	13.38	23.79	-39.1	-41.0	14.8	0.00e+00	0	59	0	486539264	50	4332
2026-01-17 23:52:29.52	13.35	23.94	-39.0	-41.0	14.8	7.00e-07	0	59	0	489684992	50	4323
2026-01-17 23:52:30.53	13.33	24.09	-39.0	-41.0	14.9	0.00e+00	0	59	0	492830720	50	4298
2026-01-17 23:52:31.54	13.30	24.25	-39.1	-41.1	14.8	0.00e+00	0	59	0	495976448	50	4344
2026-01-17 23:52:32.55	13.28	24.40	-39.1	-41.1	14.8	0.00e+00	0	59	0	499122176	50	4372
2026-01-17 23:52:33.56	13.25	24.56	-39.2	-41.2	14.7	0.00e+00	0	59	0	502267904	50	4400
2026-01-17 23:52:34.57	13.23	24.72	-39.2	-41.2	14.6	7.00e-07	0	59	0	505413632	50	4435
2026-01-17 23:52:35.58	13.20	24.87	-39.3	-41.3	14.5	0.00e+00	0	59	0	508559360	50	4489
2026-01-17 23:52:36.59	13.17	25.03	-39.4	-41.4	14.5	0.00e+00	0	59	0	511705088	50	4539
2026-01-17 23:52:37.60	13.15	25.19	-39.4	-41.5	14.4	0.00e+00	0	59	0	514850816	50	4577
2026-01-17 23:52:38.61	13.12	25.35	-39.5	-41.6	14.3	1.50e-06	0	59	0	517996544	50	4629
2026-01-17 23:52:39.62	13.09	25.52	-39.5	-41.7	14.2	7.00e-07	0	59	0	521142272	50	4663
2026-01-17 23:52:40.63	13.06	25.68	-39.6	-41.7	14.2	3.00e-06	0	59	0	524288000	50	4698
2026-01-17 23:52:41.64	13.04	25.84	-39.7	-41.9	14.0	4.50e-06	0	59	0	527433728	50	4788
2026-01-17 23:52:42.65	13.01	26.01	-39.8	-42.0	14.0	3.00e-06	0	60	0	530579456	50	4833
2026-01-17 23:52:43.66	12.98	26.17	-39.9	-42.1	13.8	6.10e-06	0	59	0	533725184	50	4926
2026-01-17 23:52:44.67	12.95	26.34	-39.9	-42.1	13.8	3.80e-06	0	59	0	536870912	50	4917
2026-01-17 23:52:45.67	12.92	26.51	-39.9	-42.2	13.8	5.30e-06	0	59	0	540016640	50	4960
2026-01-17 23:52:46.68	12.89	26.68	-40.0	-42.3	13.7	3.80e-06	0	59	0	543162368	50	5027
2026-01-17 23:52:47.69	12.86	26.85	-40.1	-42.4	13.6	6.80e-06	0	60	0	546308096	50	5066
2026-01-17 23:52:48.70	12.83	27.02	-40.1	-42.4	13.6	8.30e-06	0	59	0	549453824	50	5086
2026-01-17 23:52:49.71	12.80	27.19	-40.1	-42.5	13.5	9.10e-06	0	59	0	552599552	50	5133
2026-01-17 23:52:50.72	12.77	27.36	-40.2	-42.5	13.5	9.10e-06	0	60	0	555745280	50	5142
2026-01-17 23:52:51.73	12.74	27.54	-40.2	-42.6	13.4	1.67e-05	0	59	0	558891008	51	4889
2026-01-17 23:52:52.74	12.71	27.71	-40.2	-42.6	13.4	9.10e-06	0	59	0	562036736	51	4910
2026-01-17 23:52:53.75	12.68	27.89	-40.2	-42.6	13.4	2.21e-05	0	59	0	565182464	51	4897
2026-01-17 23:52:54.76	12.64	28.07	-40.2	-42.5	13.5	1.52e-05	0	59	0	568328192	51	4854
2026-01-17 23:52:55.77	12.61	28.25	-40.2	-42.5	13.5	1.37e-05	0	59	0	571473920	51	4859
2026-01-17 23:52:56.78	12.58	28.43	-40.2	-42.5	13.5	9.10e-06	0	60	0	574619648	51	4842
2026-01-17 23:52:57.79	12.54	28.61	-40.2	-42.6	13.4	1.67e-05	0	60	0	577765376	51	4893
2026-01-17 23:52:58.80	12.51	28.79	-40.2	-42.6	13.5	9.10e-06	0	60	0	580911104	51	4892
2026-01-17 23:52:59.81	12.47	28.97	-40.2	-42.5	13.5	8.30e-06	0	60	0	584056832	51	4841
2026-01-17 23:53:00.82	12.44	29.16	-40.2	-42.5	13.5	9.10e-06	0	60	0	587202560	51	4862
2026-01-17 23:53:01.83	12.40	29.35	-40.1	-42.4	13.6	1.29e-05	0	60	0	590348288	51	4813
2026-01-17 23:53:02.84	12.37	29.53	-40.1	-42.5	13.5	7.60e-06	0	59	0	593494016	51	4835
2026-01-17 23:53:03.84	12.33	29.72	-40.1	-42.4	13.6	7.60e-06	0	60	0	596639744	51	4812
2026-01-17 23:53:04.85	12.29	29.91	-40.1	-42.5	13.5	6.80e-06	0	60	0	599785472	51	4820
2026-01-17 23:53:05.86	12.26	30.10	-40.2	-42.5	13.5	8.30e-06	0	60	0	602931200	51	4854
2026-01-17 23:53:06.87	12.22	30.29	-40.2	-42.5	13.5	1.06e-05	0	60	0	606076928	51	4849
2026-01-17 23:53:07.88	12.18	30.49	-40.1	-42.5	13.6	1.22e-05	0	59	0	609222656	51	4824
2026-01-17 23:53:08.89	12.14	30.68	-40.1	-42.4	13.6	7.60e-06	0	60	0	612368384	51	4799
2026-01-17 23:53:09.90	12.10	30.88	-40.1	-42.4	13.7	4.50e-06	0	60	0	615514112	51	4792
2026-01-17 23:53:10.91	12.06	31.07	-40.0	-42.3	13.7	9.90e-06	0	60	0	618659840	51	4750
2026-01-17 23:53:11.92	12.02	31.27	-40.0	-42.3	13.7	6.80e-06	0	60	0	621805568	51	4731
2026-01-17 23:53:12.93	11.98	31.47	-40.1	-42.4	13.7	6.10e-06	0	60	0	624951296	51	4779
2026-01-17 23:53:13.94	11.94	31.67	-40.1	-42.5	13.6	6.80e-06	0	60	0	628097024	51	4824
2026-01-17 23:53:14.95	11.89	31.88	-40.2	-42.6	13.5	1.22e-05	0	60	0	631242752	51	4904
2026-01-17 23:53:15.96	11.85	32.08	-40.2	-42.6	13.5	1.14e-05	0	60	0	634388480	51	4882
2026-01-17 23:53:16.97	11.81	32.29	-40.3	-42.7	13.4	1.44e-05	0	60	0	637534208	51	4952
2026-01-17 23:53:17.98	11.76	32.49	-40.4	-42.8	13.3	2.51e-05	0	60	0	640679936	51	5005
2026-01-17 23:53:18.99	11.72	32.70	-40.4	-42.9	13.2	2.97e-05	0	60	0	643825664	51	5069
2026-01-17 23:53:20.00	11.67	32.91	-40.5	-43.0	13.1	2.36e-05	0	60	0	646971392	51	5102
2026-01-17 23:53:21.00	11.63	33.12	-40.6	-43.1	13.0	3.58e-05	0	60	0	650117120	51	5178
2026-01-17 23:53:22.01	11.58	33.34	-40.6	-43.2	12.9	5.56e-05	0	60	0	653262848	51	5236
2026-01-17 23:53:23.02	11.53	33.55	-40.7	-43.3	12.8	6.56e-05	0	60	0	656408576	52	4994
2026-01-17 23:53:24.03	11.49	33.77	-40.6	-43.2	12.8	9.15e-05	0	60	0	659554304	52	4977
2026-01-17 23:53:25.04	11.44	33.98	-40.7	-43.4	12.6	6.86e-05	0	60	0	662700032	52	5048
2026-01-17 23:53:26.05	11.39	34.20	-40.8	-43.5	12.5	1.03e-04	0	60	0	665845760	52	5128
2026-01-17 23:53:27.06	11.34	34.42	-40.8	-43.5	12.5	1.21e-04	0	60	0	668991488	52	5143
2026-01-17 23:53:28.07	11.29	34.64	-40.9	-43.6	12.4	1.50e-04	0	60	0	672137216	52	5177
2026-01-17 23:53:29.08	11.24	34.87	-41.0	-43.8	12.2	2.26e-04	0	60	0	675282944	52	5304
2026-01-17 23:53:30.08	11.18	35.09	-41.1	-44.0	12.0	3.20e-04	0	60	0	678428672	52	5434
2026-01-17 23:53:31.09	11.13	35.32	-41.3	-44.4	11.6	4.49e-04	0	60	0	681574400	53	5345
2026-01-17 23:53:32.10	11.08	35.55	-41.3	-44.4	11.6	6.81e-04	0	60	0	684720128	53	5347
2026-01-17 23:53:33.11	11.02	35.78	-41.5	-44.6	11.3	9.14e-04	0	60	0	687865856	53	5514
2026-01-17 23:53:34.12	10.97	36.01	-41.5	-44.7	11.3	1.12e-03	0	60	0	691011584	53	5533
2026-01-17 23:53:35.13	10.91	36.24	-41.5	-44.7	11.3	1.27e-03	0	60	0	694157312	53	5562
2026-01-17 23:53:36.14	10.85	36.47	-41.4	-44.5	11.5	8.60e-04	0	60	0	697303040	53	5433
2026-01-17 23:53:37.15	10.80	36.71	-41.4	-44.5	11.5	8.66e-04	0	60	0	700448768	53	5429
2026-01-17 23:53:38.16	10.74	36.95	-41.5	-44.6	11.4	1.02e-03	0	60	0	703594496	53	5490
2026-01-17 23:53:39.17	10.68	37.19	-41.5	-44.7	11.3	1.00e-03	0	60	0	706740224	53	5547
2026-01-17 23:53:40.18	10.62	37.43	-41.5	-44.6	11.4	1.22e-03	0	60	0	709885952	53	5517
2026-01-17 23:53:41.19	10.55	37.67	-41.6	-44.8	11.2	1.11e-03	0	60	0	714080256	53	5614
2026-01-17 23:53:42.20	10.49	37.92	-41.5	-44.5	11.5	8.60e-04	0	60	0	716177408	53	5452
2026-01-17 23:53:43.21	10.43	38.17	-41.4	-44.4	11.7	6.06e-04	0	60	0	719323136	53	5342
2026-01-17 23:53:44.23	10.36	38.42	-41.3	-44.3	11.7	5.39e-04	0	60	0	722468864	53	5330
2026-01-17 23:53:45.23	10.30	38.67	-41.4	-44.4	11.7	5.98e-04	0	60	0	725614592	53	5347
2026-01-17 23:53:46.24	10.23	38.92	-41.3	-44.2	11.8	6.10e-04	0	60	0	729808896	53	5262
2026-01-17 23:53:47.25	10.16	39.17	-41.4	-44.4	11.6	5.64e-04	0	60	0	732954624	53	5349
2026-01-17 23:53:48.26	10.09	39.43	-41.2	-44.1	11.9	4.56e-04	0	60	0	736100352	53	5168
2026-01-17 23:53:49.27	10.02	39.69	-41.3	-44.3	11.7	5.13e-04	0	60	0	739246080	53	5287
2026-01-17 23:53:50.28	9.95	39.95	-41.3	-44.3	11.6	5.16e-04	0	60	0	741343232	53	5284
2026-01-17 23:53:51.29	9.88	40.21	-41.3	-44.3	11.7	6.35e-04	0	60	0	745537536	53	5295
2026-01-17 23:53:52.30	9.80	40.47	-41.4	-44.5	11.5	8.14e-04	0	60	0	748683264	53	5408
2026-01-17 23:53:53.31	9.73	40.74	-41.5	-44.7	11.4	9.95e-04	0	60	0	751828992	53	5532
2026-01-17 23:53:54.32	9.65	41.00	-41.6	-44.8	11.2	1.22e-03	0	60	0	754974720	53	5607
2026-01-17 23:53:55.33	9.57	41.27	-41.7	-44.8	11.1	1.56e-03	0	60	0	758120448	53	5650
2026-01-17 23:53:56.34	9.49	41.54	-41.6	-44.7	11.2	1.34e-03	0	60	0	761266176	53	5592
2026-01-17 23:53:57.35	9.41	41.82	-41.7	-44.9	11.1	1.77e-03	0	60	0	764411904	54	5396
2026-01-17 23:53:58.36	9.33	42.09	-41.6	-44.8	11.2	1.41e-03	0	60	0	767557632	54	5289
2026-01-17 23:53:59.37	9.25	42.37	-41.6	-44.7	11.3	1.26e-03	0	60	0	770703360	54	5264
2026-01-17 23:54:00.38	9.16	42.65	-41.7	-44.8	11.2	1.42e-03	0	60	0	773849088	54	5321
2026-01-17 23:54:01.39	9.07	42.93	-41.7	-44.9	11.0	1.61e-03	0	60	0	776994816	54	5384
2026-01-17 23:54:02.40	8.99	43.21	-41.6	-44.8	11.1	1.63e-03	0	60	0	780140544	54	5306
2026-01-17 23:54:03.41	8.90	43.50	-41.8	-45.1	10.8	2.68e-03	0	60	0	783286272	54	5472
2026-01-17 23:54:04.42	8.80	43.79	-41.7	-45.0	10.8	2.72e-03	0	60	0	786432000	54	5417
2026-01-17 23:54:05.43	8.71	44.08	-41.9	-45.3	10.5	3.69e-03	0	60	0	789577728	54	5639
2026-01-17 23:54:06.44	8.61	44.37	-42.0	-45.5	10.4	4.23e-03	0	60	0	792723456	54	5729
2026-01-17 23:54:07.45	8.52	44.66	-42.0	-45.5	10.4	4.50e-03	0	60	0	795869184	54	5770
2026-01-17 23:54:08.46	8.42	44.96	-42.1	-45.7	10.2	5.81e-03	0	60	0	799014912	54	5898
2026-01-17 23:54:09.47	8.32	45.25	-42.2	-45.9	10.1	6.40e-03	0	60	0	802160640	55	5662
2026-01-17 23:54:10.48	8.21	45.55	-42.2	-45.7	10.2	6.30e-03	0	60	0	805306368	55	5576
2026-01-17 23:54:11.49	8.11	45.86	-42.4	-46.1	9.9	9.00e-03	0	60	0	808452096	55	5819
2026-01-17 23:54:12.50	8.00	46.16	-42.2	-45.8	10.2	6.40e-03	0	60	0	811597824	55	5609
2026-01-17 23:54:13.51	7.89	46.47	-42.2	-45.7	10.2	6.54e-03	0	60	0	814743552	55	5563
2026-01-17 23:54:14.52	7.78	46.78	-42.1	-45.7	10.3	5.90e-03	0	60	0	817889280	55	5538
2026-01-17 23:54:15.53	7.67	47.09	-42.0	-45.4	10.6	3.48e-03	0	60	0	821035008	55	5344
2026-01-17 23:54:16.54	7.55	47.40	-42.0	-45.4	10.6	3.28e-03	0	60	0	824180736	55	5349
2026-01-17 23:54:17.55	7.43	47.71	-41.8	-45.1	10.9	2.55e-03	0	60	0	827326464	55	5185
2026-01-17 23:54:18.55	7.31	48.03	-41.6	-44.8	11.2	1.40e-03	0	60	0	830472192	55	5019
2026-01-17 23:54:19.56	7.19	48.35	-41.6	-44.6	11.4	1.26e-03	0	60	0	833617920	55	4915
2026-01-17 23:54:20.57	7.06	48.67	-41.6	-44.6	11.5	7.71e-04	0	60	0	836763648	55	4904
2026-01-17 23:54:21.58	6.93	48.99	-41.5	-44.5	11.5	9.23e-04	0	60	0	839909376	55	4854
2026-01-17 23:54:22.59	6.80	49.32	-41.6	-44.6	11.4	8.01e-04	0	60	0	843055104	54	5207
2026-01-17 23:54:23.60	6.67	49.65	-41.5	-44.6	11.5	8.54e-04	0	60	0	846200832	54	5176
2026-01-17 23:54:24.61	6.53	49.98	-41.7	-44.9	11.1	1.35e-03	0	60	0	849346560	54	5383
2026-01-17 23:54:25.62	6.39	50.31	-41.8	-45.0	11.0	1.93e-03	0	60	0	852492288	54	5427
2026-01-17 23:54:26.63	6.24	50.65	-41.9	-45.2	10.9	1.91e-03	0	60	0	855638016	54	5537
2026-01-17 23:54:27.64	6.10	50.99	-41.7	-44.8	11.2	1.78e-03	0	60	0	858783744	54	5330
2026-01-17 23:54:28.65	5.94	51.33	-41.5	-44.6	11.4	9.98e-04	0	60	0	861929472	54	5176
2026-01-17 23:54:29.66	5.79	51.67	-41.4	-44.4	11.6	7.73e-04	0	60	0	865075200	54	5050
2026-01-17 23:54:30.67	5.63	52.01	-41.5	-44.5	11.6	7.03e-04	0	60	0	868220928	54	5103
2026-01-17 23:54:31.68	5.47	52.36	-41.4	-44.4	11.7	6.80e-04	0	60	0	871366656	54	5042
2026-01-17 23:54:32.69	5.30	52.71	-41.3	-44.2	11.8	4.71e-04	0	60	0	874512384	54	4956
2026-01-17 23:54:33.70	5.13	53.06	-41.2	-44.0	12.0	3.05e-04	0	60	0	877658112	54	4817
2026-01-17 23:54:34.72	4.96	53.41	-41.3	-44.1	11.9	3.67e-04	0	60	0	880803840	54	4905
2026-01-17 23:54:35.73	4.78	53.77	-41.1	-43.9	12.2	2.64e-04	0	60	0	883949568	54	4761
2026-01-17 23:54:36.74	4.59	54.13	-41.0	-43.6	12.5	1.71e-04	0	60	0	887095296	53	4912
2026-01-17 23:54:37.75	4.41	54.49	-40.9	-43.5	12.6	9.38e-05	0	60	0	890241024	53	4858
2026-01-17 23:54:38.76	4.21	54.85	-40.9	-43.5	12.5	9.76e-05	0	60	0	893386752	53	4836
2026-01-17 23:54:39.77	4.02	55.21	-40.9	-43.5	12.6	1.40e-04	0	60	0	896532480	53	4846
2026-01-17 23:54:40.78	3.81	55.58	-40.8	-43.5	12.5	8.16e-05	0	60	0	899678208	53	4833
2026-01-17 23:54:41.79	3.60	55.95	-40.7	-43.2	12.8	6.86e-05	0	60	0	902823936	53	4676
2026-01-17 23:54:42.80	3.39	56.32	-40.5	-43.0	13.1	3.50e-05	0	60	0	905969664	53	4561
2026-01-17 23:54:43.80	3.17	56.69	-40.4	-42.9	13.2	2.21e-05	0	60	0	909115392	52	4762
2026-01-17 23:54:44.82	2.94	57.07	-40.0	-42.3	13.8	8.30e-06	0	60	0	912261120	52	4452
2026-01-17 23:54:45.83	2.71	57.44	-39.9	-42.1	14.2	2.20e-06	0	60	0	915406848	51	4604
2026-01-17 23:54:46.84	2.47	57.82	-39.7	-41.8	14.4	1.50e-06	0	60	0	918552576	51	4458
2026-01-17 23:54:47.85	2.22	58.20	-39.7	-41.7	14.4	7.00e-07	0	60	0	921698304	51	4440
2026-01-17 23:54:48.86	1.97	58.58	-39.6	-41.7	14.4	7.00e-07	0	60	0	924844032	51	4418
2026-01-17 23:54:49.87	1.71	58.97	-39.8	-41.8	14.3	7.00e-07	0	60	0	927989760	51	4492
2026-01-17 23:54:50.88	1.44	59.36	-39.8	-41.9	14.3	7.00e-07	0	60	0	931135488	51	4501
2026-01-17 23:54:51.89	1.16	59.74	-39.9	-42.0	14.1	2.20e-06	0	60	0	934281216	51	4579
2026-01-17 23:54:52.90	0.87	60.13	-40.1	-42.3	13.9	2.20e-06	0	60	0	937426944	51	4726
2026-01-17 23:54:53.91	0.58	60.53	-39.9	-42.0	14.1	3.00e-06	0	60	0	940572672	51	4595
2026-01-17 23:54:54.92	0.27	60.92	-39.7	-41.8	14.4	1.50e-06	0	60	0	943718400	51	4452
2026-01-17 23:54:55.93	359.96	61.32	-39.6	-41.7	14.4	7.00e-07	0	60	0	946864128	51	4397
2026-01-17 23:54:56.94	359.63	61.71	-39.4	-41.4	14.7	7.00e-07	0	60	0	950009856	50	4523
2026-01-17 23:54:57.95	359.30	62.11	-39.1	-40.9	15.2	0.00e+00	0	60	0	953155584	50	4278
2026-01-17 23:54:58.96	358.95	62.51	-38.9	-40.8	15.3	0.00e+00	0	60	0	956301312	49	4448
2026-01-17 23:54:59.97	358.59	62.91	-39.0	-40.9	15.2	0.00e+00	0	60	0	959447040	49	4494
2026-01-17 23:55:00.98	358.22	63.32	-39.1	-40.9	15.2	0.00e+00	0	60	0	962592768	49	4540
2026-01-17 23:55:01.99	357.84	63.72	-39.4	-41.4	14.7	1.50e-06	0	60	0	965738496	49	4770
2026-01-17 23:55:03.00	357.44	64.12	-39.4	-41.4	14.6	0.00e+00	0	60	0	968884224	49	4813
2026-01-17 23:55:04.01	357.03	64.53	-39.5	-41.5	14.6	7.00e-07	0	60	0	972029952	49	4857
2026-01-17 23:55:05.02	356.60	64.94	-39.6	-41.6	14.5	7.00e-07	0	60	0	975175680	49	4912
2026-01-17 23:55:06.03	356.16	65.35	-39.4	-41.4	14.7	7.00e-07	0	60	0	978321408	49	4806
2026-01-17 23:55:07.04	355.70	65.75	-39.4	-41.4	14.8	0.00e+00	0	60	0	981467136	49	4761
2026-01-17 23:55:08.05	355.22	66.16	-39.4	-41.4	14.7	0.00e+00	0	60	0	984612864	49	4777
2026-01-17 23:55:09.06	354.73	66.57	-39.3	-41.3	14.9	1.50e-06	0	60	0	987758592	49	4724
2026-01-17 23:55:10.07	354.21	66.98	-39.1	-41.0	15.1	0.00e+00	0	60	0	990904320	49	4577
2026-01-17 23:55:11.07	353.68	67.39	-39.1	-41.0	15.1	0.00e+00	0	60	0	994050048	49	4592
2026-01-17 23:55:12.08	353.12	67.80	-39.0	-40.8	15.3	0.00e+00	0	60	0	997195776	49	4474
2026-01-17 23:55:13.09	352.54	68.21	-39.0	-40.8	15.3	0.00e+00	0	60	0	1000341504	49	4474
2026-01-17 23:55:14.11	351.93	68.63	-39.2	-41.1	15.1	0.00e+00	0	60	0	1003487232	49	4609
2026-01-17 23:55:15.12	351.30	69.04	-39.2	-41.2	14.9	0.00e+00	0	60	0	1006632960	49	4660
2026-01-17 23:55:16.13	350.64	69.45	-39.3	-41.2	14.8	0.00e+00	0	60	0	1009778688	49	4675
2026-01-17 23:55:17.14	349.95	69.86	-39.3	-41.2	14.8	0.00e+00	0	60	0	1012924416	49	4687
2026-01-17 23:55:18.14	349.24	70.26	-39.2	-41.2	14.7	0.00e+00	0	60	0	1016070144	49	4687
2026-01-17 23:55:19.15	348.49	70.66	-39.0	-40.8	15.1	0.00e+00	0	60	0	1019215872	49	4483
2026-01-17 23:55:20.17	347.70	71.07	-38.6	-40.3	15.5	0.00e+00	0	60	0	1022361600	49	4239
2026-01-17 23:55:21.18	346.88	71.48	-38.5	-40.2	15.7	0.00e+00	0	60	0	1025507328	48	4431
2026-01-17 23:55:22.18	346.03	71.87	-38.5	-40.2	15.7	0.00e+00	0	60	0	1028653056	48	4421
2026-01-17 23:55:23.19	345.12	72.27	-38.8	-40.6	15.3	0.00e+00	0	60	0	1032847360	48	4633
2026-01-17 23:55:24.21	344.17	72.67	-38.8	-40.6	15.3	0.00e+00	0	60	0	1034944512	48	4624
2026-01-17 23:55:25.21	343.19	73.06	-38.5	-40.2	15.7	7.00e-07	0	60	0	1038090240	48	4441
2026-01-17 23:55:26.22	342.15	73.44	-38.6	-40.3	15.5	0.00e+00	0	60	0	1041235968	48	4486
2026-01-17 23:55:27.23	341.05	73.83	-38.7	-40.5	15.4	0.00e+00	0	60	0	1044381696	48	4564
2026-01-17 23:55:28.24	339.91	74.20	-38.8	-40.6	15.4	0.00e+00	0	60	0	1048576000	48	4607
2026-01-17 23:55:29.25	338.70	74.58	-38.5	-40.2	15.7	0.00e+00	0	60	0	1051721728	48	4439
2026-01-17 23:55:30.26	337.43	74.95	-38.4	-40.1	15.8	0.00e+00	0	60	0	1054867456	48	4386
2026-01-17 23:55:31.27	336.10	75.31	-38.3	-40.0	16.0	0.00e+00	0	60	0	1056964608	48	4302
2026-01-17 23:55:32.27	334.71	75.66	-38.3	-39.9	16.0	0.00e+00	0	60	0	1060110336	48	4287
2026-01-17 23:55:33.29	333.22	76.01	-38.7	-40.4	15.5	0.00e+00	0	60	0	1063256064	48	4543
2026-01-17 23:55:34.30	331.66	76.34	-39.0	-40.9	15.1	0.00e+00	0	60	0	1067450368	48	4777
2026-01-17 23:55:35.31	330.03	76.67	-39.3	-41.2	14.8	0.00e+00	0	60	0	1070596096	49	4697
2026-01-17 23:55:36.32	328.31	76.99	-39.1	-41.0	15.0	0.00e+00	0	60	0	1073741824	49	4561
2026-01-17 23:55:37.33	326.51	77.30	-39.2	-41.1	14.9	0.00e+00	0	60	0	1076887552	49	4601
2026-01-17 23:55:38.34	324.61	77.59	-39.2	-41.1	14.8	0.00e+00	0	60	0	1080033280	49	4640
2026-01-17 23:55:39.35	322.62	77.87	-39.3	-41.3	14.7	0.00e+00	0	60	0	1083179008	49	4746
2026-01-17 23:55:40.36	320.54	78.14	-39.1	-41.0	15.0	0.00e+00	0	60	0	1086324736	49	4596
2026-01-17 23:55:41.37	318.37	78.39	-39.0	-40.9	15.2	0.00e+00	0	60	0	1089470464	49	4502
2026-01-17 23:55:42.38	316.09	78.62	-39.0	-40.9	15.0	0.00e+00	0	60	0	1092616192	49	4533
2026-01-17 23:55:43.39	313.73	78.84	-39.4	-41.5	14.4	7.00e-07	0	60	0	1095761920	49	4824
2026-01-17 23:55:44.40	311.27	79.03	-39.6	-41.8	14.1	1.50e-06	0	60	0	1098907648	49	5000
2026-01-17 23:55:45.41	308.73	79.21	-39.6	-41.7	14.2	0.00e+00	0	60	0	1102053376	50	4701
2026-01-17 23:55:46.42	306.11	79.36	-39.6	-41.6	14.3	7.00e-07	0	60	0	1105199104	50	4639
2026-01-17 23:55:47.43	303.41	79.50	-39.6	-41.7	14.2	0.00e+00	0	60	0	1108344832	50	4681
2026-01-17 23:55:48.44	300.65	79.60	-39.7	-41.9	14.0	1.50e-06	0	60	0	1111490560	50	4763
2026-01-17 23:55:49.45	297.83	79.69	-39.5	-41.6	14.4	1.50e-06	0	61	0	1114636288	50	4611
2026-01-17 23:55:50.46	294.98	79.75	-39.4	-41.4	14.6	0.00e+00	0	60	0	1117782016	50	4517
2026-01-17 23:55:51.47	292.10	79.78	-39.4	-41.4	14.6	7.00e-07	0	60	0	1120927744	50	4518
2026-01-17 23:55:52.48	289.20	79.79	-39.6	-41.7	14.3	2.20e-06	0	60	0	1124073472	50	4666
2026-01-17 23:55:53.49	286.31	79.78	-39.4	-41.5	14.5	7.00e-07	0	60	0	1127219200	50	4547
2026-01-17 23:55:54.50	283.43	79.73	-39.2	-41.1	14.9	0.00e+00	0	60	0	1130364928	50	4371
2026-01-17 23:55:55.51	280.59	79.67	-39.1	-41.0	15.0	0.00e+00	0	60	0	1133510656	50	4314
2026-01-17 23:55:56.52	277.79	79.57	-39.5	-41.5	14.5	0.00e+00	0	60	0	1136656384	50	4583
2026-01-17 23:55:57.53	275.05	79.46	-39.4	-41.4	14.5	2.20e-06	0	60	0	1139802112	50	4540
2026-01-17 23:55:58.54	272.37	79.32	-39.1	-41.0	15.0	0.00e+00	0	60	0	1142947840	50	4320
2026-01-17 23:55:59.55	269.77	79.16	-39.2	-41.1	14.8	7.00e-07	0	60	0	1146093568	50	4376
2026-01-17 23:56:00.56	267.25	78.97	-38.9	-40.7	15.1	0.00e+00	0	60	0	1149239296	49	4415
2026-01-17 23:56:01.57	264.82	78.77	-38.7	-40.5	15.4	0.00e+00	0	60	0	1152385024	49	4315
2026-01-17 23:56:02.58	262.48	78.55	-39.0	-40.9	15.1	7.00e-07	0	61	0	1155530752	49	4498
2026-01-17 23:56:03.59	260.24	78.31	-39.0	-40.9	15.0	0.00e+00	0	61	0	1158676480	49	4513
2026-01-17 23:56:04.60	258.09	78.06	-39.0	-40.9	15.0	0.00e+00	0	61	0	1161822208	49	4526
2026-01-17 23:56:05.61	256.03	77.79	-39.3	-41.3	14.6	7.00e-07	0	61	0	1164967936	49	4758
2026-01-17 23:56:06.62	254.07	77.50	-39.3	-41.3	14.7	0.00e+00	0	60	0	1168113664	49	4726
2026-01-17 23:56:07.63	252.20	77.20	-39.3	-41.2	14.7	7.00e-07	0	60	0	1171259392	49	4693
2026-01-17 23:56:08.64	250.42	76.89	-39.4	-41.4	14.5	0.00e+00	0	60	0	1174405120	49	4772
2026-01-17 23:56:09.65	248.73	76.57	-39.1	-41.1	14.9	0.00e+00	0	61	0	1177550848	49	4606
2026-01-17 23:56:10.66	247.12	76.24	-39.2	-41.1	14.7	0.00e+00	0	60	0	1180696576	49	4642
2026-01-17 23:56:11.67	245.59	75.90	-39.0	-40.9	14.8	7.00e-07	0	60	0	1183842304	49	4526
2026-01-17 23:56:12.69	244.12	75.55	-39.2	-41.1	14.6	7.00e-07	0	61	0	1186988032	49	4638
2026-01-17 23:56:13.70	242.74	75.19	-38.9	-40.7	15.1	0.00e+00	0	60	0	1190133760	49	4418
2026-01-17 23:56:14.71	241.42	74.83	-38.5	-40.2	15.7	0.00e+00	0	60	0	1193279488	49	4168
2026-01-17 23:56:15.72	240.17	74.46	-38.4	-40.1	15.8	0.00e+00	0	60	0	1196425216	48	4365
2026-01-17 23:56:16.73	238.98	74.08	-38.7	-40.5	15.4	0.00e+00	0	60	0	1199570944	48	4547
2026-01-17 23:56:17.74	237.85	73.70	-39.2	-41.1	14.8	7.00e-07	0	61	0	1202716672	48	4910
2026-01-17 23:56:18.75	236.78	73.31	-39.3	-41.3	14.6	7.00e-07	0	60	0	1205862400	49	4719
2026-01-17 23:56:19.76	235.75	72.92	-39.0	-40.8	15.1	0.00e+00	0	60	0	1209008128	49	4462
2026-01-17 23:56:20.77	234.77	72.53	-38.9	-40.8	15.1	0.00e+00	0	60	0	1212153856	49	4465
2026-01-17 23:56:21.78	233.84	72.14	-39.0	-40.9	15.0	0.00e+00	0	61	0	1215299584	49	4529
2026-01-17 23:56:22.80	232.95	71.73	-39.4	-41.4	14.4	0.00e+00	0	60	0	1218445312	49	4814
2026-01-17 23:56:23.81	232.10	71.33	-39.4	-41.4	14.6	7.00e-07	0	61	0	1221591040	49	4761
2026-01-17 23:56:24.82	231.29	70.93	-39.3	-41.3	14.6	0.00e+00	0	60	0	1224736768	49	4715
2026-01-17 23:56:25.83	230.51	70.52	-39.0	-40.9	14.9	0.00e+00	0	60	0	1227882496	49	4522
2026-01-17 23:56:26.84	229.77	70.11	-38.8	-40.7	15.1	0.00e+00	0	61	0	1231028224	49	4404
2026-01-17 23:56:27.85	229.07	69.70	-38.9	-40.7	15.1	0.00e+00	0	60	0	1234173952	49	4424
2026-01-17 23:56:28.86	228.39	69.29	-39.4	-41.4	14.5	0.00e+00	0	61	0	1237319680	49	4791
2026-01-17 23:56:29.86	227.74	68.89	-40.3	-42.6	13.3	3.80e-06	0	60	0	1240465408	51	4923
2026-01-17 23:56:30.87	227.12	68.48	-40.6	-43.1	12.9	3.28e-05	0	61	0	1243611136	51	5175
2026-01-17 23:56:31.88	226.52	68.07	-40.3	-42.7	13.2	2.89e-05	0	60	0	1246756864	51	4930
2026-01-17 23:56:32.89	225.95	67.65	-39.9	-42.0	13.8	6.80e-06	0	61	0	1249902592	51	4582
2026-01-17 23:56:33.90	225.40	67.24	-39.6	-41.6	14.2	0.00e+00	0	60	0	1253048320	51	4379
2026-01-17 23:56:34.92	224.86	66.83	-39.7	-41.8	14.0	0.00e+00	0	60	0	1256194048	51	4485
2026-01-17 23:56:35.92	224.36	66.42	-40.0	-42.2	13.7	2.20e-06	0	61	0	1259339776	51	4694
2026-01-17 23:56:36.93	223.87	66.01	-40.5	-42.9	13.1	2.21e-05	0	60	0	1262485504	51	5082
2026-01-17 23:56:37.94	223.40	65.60	-41.1	-44.0	11.9	2.78e-04	0	60	0	1265631232	52	5423
2026-01-17 23:56:38.95	222.94	65.19	-41.0	-43.8	12.0	4.61e-04	0	60	0	1268776960	52	5321
2026-01-17 23:56:39.96	222.50	64.78	-40.1	-42.4	13.5	2.59e-05	0	60	0	1271922688	52	4509
2026-01-17 23:56:40.97	222.08	64.37	-39.2	-41.1	14.9	0.00e+00	0	60	0	1275068416	50	4371
2026-01-17 23:56:41.98	221.67	63.96	-39.1	-40.9	15.0	0.00e+00	0	60	0	1278214144	50	4275
2026-01-17 23:56:42.99	221.28	63.56	-39.5	-41.5	14.5	0.00e+00	0	60	0	1281359872	50	4575
2026-01-17 23:56:44.00	220.90	63.15	-40.3	-42.6	13.4	6.10e-06	0	60	0	1284505600	51	4921
2026-01-17 23:56:45.01	220.53	62.75	-40.7	-43.2	12.8	4.50e-05	0	61	0	1287651328	51	5256
2026-01-17 23:56:46.02	220.18	62.35	-41.1	-43.8	12.1	2.18e-04	0	61	0	1290797056	52	5329
2026-01-17 23:56:47.03	219.83	61.95	-41.0	-43.8	12.1	3.06e-04	0	61	0	1293942784	53	5025
2026-01-17 23:56:48.04	219.50	61.55	-40.7	-43.2	12.7	9.76e-05	0	61	0	1297088512	53	4687
2026-01-17 23:56:49.05	219.18	61.15	-40.5	-42.9	12.9	5.56e-05	0	61	0	1300234240	53	4542
2026-01-17 23:56:50.06	218.87	60.75	-40.6	-43.0	12.9	4.34e-05	0	61	0	1303379968	52	4840
2026-01-17 23:56:51.07	218.57	60.36	-41.1	-43.8	12.1	1.44e-04	0	60	0	1306525696	52	5318
2026-01-17 23:56:52.08	218.27	59.97	-41.2	-43.9	12.0	3.87e-04	0	61	0	1309671424	53	5093
2026-01-17 23:56:53.09	217.99	59.58	-41.6	-44.8	11.1	1.57e-03	0	60	0	1312817152	53	5597
2026-01-17 23:56:54.10	217.72	59.19	-42.3	-46.1	9.6	9.48e-03	0	60	0	1315962880	55	5829
2026-01-17 23:56:55.11	217.45	58.80	-42.4	-46.2	9.6	1.23e-02	0	60	0	1319108608	55	5885
2026-01-17 23:56:56.12	217.19	58.41	-42.1	-45.6	10.2	8.55e-03	0	60	0	1322254336	55	5527
2026-01-17 23:56:57.13	216.94	58.03	-41.5	-44.5	11.3	2.67e-03	0	60	0	1325400064	55	4857
2026-01-17 23:56:58.14	216.69	57.65	-40.8	-43.4	12.5	1.63e-04	0	61	0	1328545792	53	4796
2026-01-17 23:56:59.15	216.45	57.27	-40.7	-43.2	12.7	7.40e-05	0	60	0	1331691520	53	4693
2026-01-17 23:57:00.16	216.22	56.89	-40.9	-43.6	12.4	1.11e-04	0	60	0	1334837248	53	4882
2026-01-17 23:57:01.17	216.00	56.52	-41.8	-44.9	11.0	1.26e-03	0	61	0	1337982976	54	5385
2026-01-17 23:57:02.18	215.78	56.14	-42.3	-46.0	9.9	7.81e-03	0	60	0	1341128704	55	5740
2026-01-17 23:57:03.19	215.57	55.77	-42.4	-46.2	9.7	1.13e-02	0	61	0	1345323008	55	5859
2026-01-17 23:57:04.20	215.36	55.40	-41.8	-45.1	10.8	4.60e-03	0	61	0	1348468736	55	5164
2026-01-17 23:57:05.21	215.16	55.04	-41.1	-43.8	12.2	5.61e-04	0	61	0	1350565888	54	4717
2026-01-17 23:57:06.22	214.96	54.67	-40.7	-43.2	12.8	7.78e-05	0	60	0	1353711616	53	4658
2026-01-17 23:57:07.23	214.77	54.31	-40.5	-42.9	13.1	3.73e-05	0	61	0	1356857344	52	4766
2026-01-17 23:57:08.24	214.58	53.95	-40.5	-42.9	13.1	3.35e-05	0	61	0	1361051648	52	4774
2026-01-17 23:57:09.25	214.40	53.59	-40.3	-42.7	13.3	1.67e-05	0	61	0	1364197376	52	4665
2026-01-17 23:57:10.26	214.22	53.24	-40.6	-43.1	12.9	4.27e-05	0	61	0	1367343104	52	4893
2026-01-17 23:57:11.27	214.05	52.88	-41.0	-43.7	12.2	1.12e-04	0	60	0	1370488832	52	5271
2026-01-17 23:57:12.28	213.88	52.53	-41.5	-44.5	11.4	5.64e-04	0	61	0	1372585984	53	5464
2026-01-17 23:57:13.30	213.71	52.18	-41.9	-45.2	10.8	2.55e-03	0	61	0	1376780288	54	5544
2026-01-17 23:57:14.31	213.55	51.83	-41.5	-44.6	11.3	1.68e-03	0	60	0	1379926016	54	5203
2026-01-17 23:57:15.32	213.39	51.49	-41.1	-43.8	12.0	5.04e-04	0	61	0	1383071744	54	4736
2026-01-17 23:57:16.32	213.24	51.15	-40.9	-43.6	12.2	3.94e-04	0	60	0	1386217472	53	4871
2026-01-17 23:57:17.33	213.09	50.81	-40.9	-43.4	12.4	1.39e-04	0	60	0	1389363200	53	4814
2026-01-17 23:57:18.34	212.94	50.47	-41.0	-43.7	12.2	2.01e-04	0	60	0	1392508928	53	4959
2026-01-17 23:57:19.35	212.80	50.13	-41.3	-44.2	11.7	5.44e-04	0	60	0	1395654656	53	5264
2026-01-17 23:57:20.36	212.66	49.80	-41.4	-44.4	11.5	8.99e-04	0	60	0	1398800384	53	5361
2026-01-17 23:57:21.37	212.52	49.47	-41.4	-44.4	11.5	8.44e-04	0	60	0	1401946112	53	5380
2026-01-17 23:57:22.38	212.39	49.14	-41.3	-44.1	11.8	5.61e-04	0	61	0	1405091840	53	5217
2026-01-17 23:57:23.39	212.26	48.81	-41.1	-43.9	12.1	2.97e-04	0	61	0	1408237568	53	5047
2026-01-17 23:57:24.40	212.13	48.49	-41.1	-43.8	12.1	2.76e-04	0	61	0	1411383296	53	5032
2026-01-17 23:57:25.41	212.00	48.17	-41.4	-44.4	11.6	4.70e-04	0	61	0	1414529024	53	5364
2026-01-17 23:57:26.42	211.88	47.85	-41.8	-45.1	10.8	2.00e-03	0	60	0	1417674752	54	5502
2026-01-17 23:57:27.43	211.76	47.53	-42.0	-45.5	10.3	5.07e-03	0	61	0	1420820480	54	5786
2026-01-17 23:57:28.44	211.64	47.21	-41.9	-45.3	10.4	5.34e-03	0	61	0	1423966208	54	5642
2026-01-17 23:57:29.45	211.52	46.90	-41.6	-44.8	11.1	2.12e-03	0	61	0	1427111936	54	5287
2026-01-17 23:57:30.46	211.41	46.59	-41.3	-44.2	11.6	9.22e-04	0	61	0	1430257664	54	4962
2026-01-17 23:57:31.47	211.30	46.28	-41.1	-43.9	12.0	3.98e-04	0	61	0	1433403392	54	4771
2026-01-17 23:57:32.48	211.19	45.97	-40.8	-43.5	12.4	1.56e-04	0	61	0	1436549120	53	4818
2026-01-17 23:57:33.49	211.08	45.67	-41.0	-43.7	12.2	1.59e-04	0	61	0	1439694848	53	4959
2026-01-17 23:57:34.50	210.98	45.37	-41.4	-44.4	11.5	7.11e-04	0	61	0	1442840576	53	5377
2026-01-17 23:57:35.51	210.88	45.06	-42.0	-45.5	10.3	3.80e-03	0	61	0	1445986304	54	5759
2026-01-17 23:57:36.52	210.78	44.77	-42.3	-46.1	9.7	1.13e-02	0	61	0	1449132032	55	5792
2026-01-17 23:57:37.53	210.68	44.47	-42.3	-46.1	9.7	1.17e-02	0	61	0	1452277760	55	5826
2026-01-17 23:57:38.55	210.58	44.17	-42.4	-46.2	9.6	1.24e-02	0	61	0	1455423488	55	5880
2026-01-17 23:57:39.56	210.48	43.88	-42.4	-46.2	9.7	1.20e-02	0	61	0	1458569216	55	5856
2026-01-17 23:57:40.57	210.39	43.59	-42.1	-45.6	10.2	6.72e-03	0	61	0	1461714944	55	5499
2026-01-17 23:57:41.57	210.30	43.31	-42.2	-45.7	10.1	6.10e-03	0	61	0	1464860672	55	5579
2026-01-17 23:57:42.58	210.21	43.02	-42.3	-46.1	9.8	1.01e-02	0	61	0	1468006400	55	5820
2026-01-17 23:57:43.59	210.12	42.74	-42.4	-46.2	9.7	1.23e-02	0	61	0	1471152128	55	5890
2026-01-17 23:57:44.60	210.03	42.46	-42.1	-45.7	10.2	7.74e-03	0	61	0	1474297856	55	5578
2026-01-17 23:57:45.61	209.95	42.18	-41.8	-45.1	10.8	3.19e-03	0	61	0	1477443584	55	5186
2026-01-17 23:57:46.62	209.87	41.90	-41.6	-44.7	11.2	1.45e-03	0	61	0	1480589312	55	4936
2026-01-17 23:57:47.63	209.78	41.62	-41.4	-44.3	11.5	8.49e-04	0	61	0	1483735040	54	5039
2026-01-17 23:57:48.65	209.70	41.35	-41.4	-44.4	11.5	7.57e-04	0	61	0	1486880768	54	5043
2026-01-17 23:57:49.66	209.62	41.08	-41.2	-44.0	11.9	4.65e-04	0	61	0	1490026496	54	4833
2026-01-17 23:57:50.67	209.55	40.81	-41.2	-44.1	11.8	5.11e-04	0	61	0	1493172224	54	4907
2026-01-17 23:57:51.68	209.47	40.54	-41.7	-44.8	11.0	1.30e-03	0	61	0	1496317952	54	5340
2026-01-17 23:57:52.69	209.39	40.27	-41.9	-45.2	10.6	3.15e-03	0	61	0	1499463680	54	5584
2026-01-17 23:57:53.70	209.32	40.01	-41.9	-45.3	10.6	4.10e-03	0	61	0	1502609408	54	5603
2026-01-17 23:57:54.71	209.25	39.75	-41.6	-44.7	11.2	1.71e-03	0	61	0	1505755136	54	5265
2026-01-17 23:57:55.72	209.17	39.49	-41.5	-44.5	11.5	9.44e-04	0	61	0	1508900864	54	5127
2026-01-17 23:57:56.73	209.10	39.23	-41.4	-44.5	11.5	8.77e-04	0	61	0	1512046592	54	5101
2026-01-17 23:57:57.74	209.03	38.97	-41.5	-44.6	11.3	1.07e-03	0	61	0	1515192320	54	5169
2026-01-17 23:57:58.75	208.97	38.72	-41.7	-44.8	11.1	1.40e-03	0	61	0	1518338048	54	5330
2026-01-17 23:57:59.76	208.90	38.47	-41.7	-44.9	11.0	1.88e-03	0	61	0	1521483776	54	5363
2026-01-17 23:58:00.77	208.83	38.21	-41.7	-45.0	10.9	1.89e-03	0	61	0	1524629504	54	5408
2026-01-17 23:58:01.78	208.77	37.97	-41.7	-44.9	11.0	2.01e-03	0	61	0	1527775232	54	5349
2026-01-17 23:58:02.79	208.70	37.72	-41.7	-44.9	11.0	1.91e-03	0	61	0	1530920960	54	5370
2026-01-17 23:58:03.80	208.64	37.47	-41.6	-44.7	11.3	1.19e-03	0	61	0	1534066688	54	5227
2026-01-17 23:58:04.81	208.58	37.23	-41.6	-44.7	11.3	1.45e-03	0	61	0	1537212416	54	5227
2026-01-17 23:58:05.82	208.52	36.99	-41.4	-44.5	11.4	9.67e-04	0	61	0	1540358144	54	5126
2026-01-17 23:58:06.83	208.46	36.75	-41.3	-44.3	11.6	6.64e-04	0	61	0	1543503872	54	5017
2026-01-17 23:58:07.84	208.40	36.51	-41.2	-44.0	11.9	4.94e-04	0	61	0	1546649600	54	4854
2026-01-17 23:58:08.85	208.34	36.27	-41.0	-43.8	12.2	2.75e-04	0	61	0	1549795328	54	4708
2026-01-17 23:58:09.86	208.28	36.04	-40.9	-43.5	12.4	1.67e-04	0	61	0	1552941056	53	4867
2026-01-17 23:58:10.87	208.23	35.80	-40.5	-43.0	13.0	4.34e-05	0	61	0	1556086784	53	4567
2026-01-17 23:58:11.88	208.17	35.57	-40.4	-42.8	13.2	3.12e-05	0	61	0	1559232512	52	4725
2026-01-17 23:58:12.89	208.12	35.34	-40.4	-42.8	13.1	2.21e-05	0	61	0	1562378240	52	4729
2026-01-17 23:58:13.90	208.06	35.11	-40.4	-42.9	13.1	3.12e-05	0	61	0	1565523968	52	4796
2026-01-17 23:58:14.91	208.01	34.89	-40.7	-43.3	12.6	8.54e-05	0	61	0	1568669696	52	5039
2026-01-17 23:58:15.92	207.96	34.66	-41.0	-43.7	12.3	1.47e-04	0	61	0	1571815424	52	5242
2026-01-17 23:58:16.93	207.90	34.44	-41.1	-44.0	12.0	3.11e-04	0	61	0	1574961152	52	5418
2026-01-17 23:58:17.94	207.85	34.21	-41.1	-44.0	11.9	3.44e-04	0	61	0	1578106880	52	5433
2026-01-17 23:58:18.95	207.80	33.99	-41.2	-44.1	11.9	3.55e-04	0	61	0	1581252608	52	5473
2026-01-17 23:58:19.95	207.75	33.78	-41.1	-44.0	11.9	4.34e-04	0	61	0	1584398336	52	5450
2026-01-17 23:58:20.96	207.71	33.56	-41.1	-43.9	11.9	3.31e-04	0	61	0	1587544064	52	5402
2026-01-17 23:58:21.97	207.66	33.34	-41.0	-43.7	12.2	2.57e-04	0	61	0	1590689792	52	5277
2026-01-17 23:58:22.98	207.61	33.13	-40.9	-43.6	12.3	1.94e-04	0	61	0	1593835520	52	5201
2026-01-17 23:58:23.99	207.56	32.92	-40.8	-43.4	12.5	1.46e-04	0	61	0	1596981248	52	5079
2026-01-17 23:58:25.00	207.52	32.70	-40.7	-43.3	12.5	1.27e-04	0	61	0	1600126976	52	5038
2026-01-17 23:58:26.01	207.47	32.49	-40.5	-43.0	12.8	9.30e-05	0	61	0	1603272704	52	4857
2026-01-17 23:58:27.02	207.43	32.29	-40.4	-42.8	13.0	4.57e-05	0	61	0	1606418432	52	4729
2026-01-17 23:58:28.03	207.38	32.08	-40.4	-42.8	13.0	3.81e-05	0	61	0	1609564160	52	4728
2026-01-17 23:58:29.04	207.34	31.87	-40.3	-42.7	13.0	3.66e-05	0	61	0	1612709888	52	4701
2026-01-17 23:58:30.05	207.30	31.67	-40.2	-42.6	13.2	1.14e-05	0	61	0	1615855616	52	4623
2026-01-17 23:58:31.06	207.25	31.46	-40.1	-42.4	13.4	1.22e-05	0	61	0	1619001344	52	4523
2026-01-17 23:58:32.07	207.21	31.26	-40.0	-42.2	13.7	1.14e-05	0	61	0	1622147072	51	4705
2026-01-17 23:58:33.08	207.17	31.06	-39.9	-42.1	13.8	8.30e-06	0	61	0	1625292800	51	4620
2026-01-17 23:58:34.09	207.13	30.86	-39.9	-42.0	13.9	3.00e-06	0	61	0	1628438528	51	4575
2026-01-17 23:58:35.10	207.09	30.67	-39.8	-42.0	14.0	3.00e-06	0	61	0	1631584256	51	4559
2026-01-17 23:58:36.11	207.05	30.47	-39.8	-41.9	14.0	3.00e-06	0	61	0	1634729984	51	4527
2026-01-17 23:58:37.12	207.01	30.27	-39.8	-41.9	14.0	3.00e-06	0	61	0	1637875712	51	4527
2026-01-17 23:58:38.13	206.97	30.08	-39.7	-41.8	14.2	0.00e+00	0	61	0	1641021440	51	4472
2026-01-17 23:58:39.14	206.93	29.89	-39.8	-41.9	14.1	7.00e-07	0	61	0	1644167168	51	4520
2026-01-17 23:58:40.15	206.89	29.70	-39.7	-41.8	14.2	2.20e-06	0	61	0	1647312896	51	4473
2026-01-17 23:58:41.16	206.86	29.51	-39.7	-41.8	14.1	2.20e-06	0	61	0	1650458624	51	4492
2026-01-17 23:58:42.18	206.82	29.32	-39.7	-41.8	14.2	0.00e+00	0	61	0	1653604352	51	4453
2026-01-17 23:58:43.18	206.78	29.13	-39.7	-41.7	14.2	2.20e-06	0	61	0	1656750080	51	4440
2026-01-17 23:58:44.19	206.75	28.94	-39.6	-41.7	14.3	7.00e-07	0	61	0	1660944384	51	4421
2026-01-17 23:58:45.20	206.71	28.76	-39.6	-41.8	14.3	3.80e-06	0	61	0	1664090112	51	4443
2026-01-17 23:58:46.21	206.68	28.58	-39.7	-41.8	14.2	0.00e+00	0	61	0	1666187264	51	4460
2026-01-17 23:58:47.22	206.64	28.39	-39.7	-41.8	14.1	2.20e-06	0	61	0	1669332992	51	4487
2026-01-17 23:58:48.23	206.61	28.21	-39.7	-41.9	14.1	2.20e-06	0	61	0	1672478720	51	4525
2026-01-17 23:58:49.24	206.57	28.03	-39.8	-42.0	14.0	7.00e-07	0	61	0	1676673024	51	4584
2026-01-17 23:58:50.25	206.54	27.85	-39.8	-42.0	14.0	1.50e-06	0	61	0	1679818752	51	4569
2026-01-17 23:58:51.26	206.51	27.67	-39.9	-42.1	13.9	2.20e-06	0	61	0	1682964480	51	4601
2026-01-17 23:58:52.27	206.47	27.50	-39.8	-42.0	13.9	3.80e-06	0	61	0	1686110208	51	4567
2026-01-17 23:58:53.28	206.44	27.32	-40.0	-42.2	13.7	8.30e-06	0	61	0	1688207360	51	4691
2026-01-17 23:58:54.29	206.41	27.15	-40.0	-42.3	13.6	9.90e-06	0	61	0	1692401664	51	4746
2026-01-17 23:58:55.30	206.38	26.97	-40.0	-42.3	13.6	1.37e-05	0	61	0	1695547392	51	4737
2026-01-17 23:58:56.31	206.35	26.80	-40.0	-42.3	13.6	3.00e-06	0	61	0	1698693120	51	4738
2026-01-17 23:58:57.32	206.32	26.63	-40.1	-42.4	13.5	1.06e-05	0	61	0	1701838848	51	4802
2026-01-17 23:58:58.33	206.29	26.46	-40.0	-42.3	13.6	9.10e-06	0	61	0	1704984576	51	4716
2026-01-17 23:58:59.34	206.26	26.29	-39.9	-42.1	13.8	4.50e-06	0	61	0	1708130304	51	4650
2026-01-17 23:59:00.35	206.23	26.12	-39.9	-42.2	13.7	5.30e-06	0	61	0	1711276032	51	4662
2026-01-17 23:59:01.36	206.20	25.95	-39.9	-42.1	13.8	2.20e-06	0	61	0	1714421760	51	4637
2026-01-17 23:59:02.37	206.17	25.79	-39.8	-42.1	13.8	3.00e-06	0	61	0	1717567488	51	4609
2026-01-17 23:59:03.38	206.14	25.62	-39.8	-42.1	13.8	4.50e-06	0	61	0	1720713216	51	4603
2026-01-17 23:59:04.39	206.11	25.46	-39.8	-42.0	13.9	3.80e-06	0	61	0	1723858944	51	4555
2026-01-17 23:59:05.40	206.08	25.30	-39.8	-42.0	13.9	2.20e-06	0	61	0	1727004672	51	4554
2026-01-17 23:59:06.41	206.06	25.13	-39.8	-42.0	13.9	3.00e-06	0	61	0	1730150400	51	4553
2026-01-17 23:59:07.42	206.03	24.97	-39.8	-42.0	13.9	2.20e-06	0	61	0	1733296128	51	4590
2026-01-17 23:59:08.43	206.00	24.81	-39.8	-42.0	13.9	3.80e-06	0	61	0	1736441856	51	4553
2026-01-17 23:59:09.43	205.97	24.66	-39.8	-42.0	13.8	4.50e-06	0	61	0	1739587584	51	4592
2026-01-17 23:59:10.44	205.95	24.50	-39.9	-42.2	13.7	3.80e-06	0	61	0	1742733312	51	4654
2026-01-17 23:59:11.45	205.92	24.34	-39.9	-42.2	13.6	5.30e-06	0	61	0	1745879040	51	4669
2026-01-17 23:59:12.46	205.90	24.18	-40.0	-42.3	13.5	1.06e-05	0	61	0	1749024768	51	4736
2026-01-17 23:59:13.47	205.87	24.03	-40.0	-42.3	13.5	5.30e-06	0	61	0	1752170496	51	4731
2026-01-17 23:59:14.48	205.84	23.87	-40.0	-42.4	13.4	1.90e-05	0	61	0	1755316224	51	4766
2026-01-17 23:59:15.49	205.82	23.72	-40.0	-42.3	13.5	5.30e-06	0	61	0	1758461952	51	4753
2026-01-17 23:59:16.50	205.79	23.57	-40.0	-42.3	13.5	1.75e-05	0	61	0	1761607680	51	4724
2026-01-17 23:59:17.51	205.77	23.41	-39.9	-42.2	13.6	6.10e-06	0	61	0	1764753408	51	4688
2026-01-17 23:59:18.52	205.75	23.26	-39.9	-42.2	13.6	1.14e-05	0	61	0	1767899136	51	4700
2026-01-17 23:59:19.53	205.72	23.11	-40.0	-42.3	13.5	3.00e-06	0	61	0	1771044864	51	4711
2026-01-17 23:59:20.54	205.70	22.96	-39.8	-42.1	13.7	4.50e-06	0	61	0	1774190592	51	4612
2026-01-17 23:59:21.55	205.67	22.82	-39.9	-42.1	13.7	5.30e-06	0	61	0	1777336320	51	4633
2026-01-17 23:59:22.56	205.65	22.67	-39.8	-42.0	13.8	6.10e-06	0	61	0	1780482048	51	4577
2026-01-17 23:59:23.57	205.63	22.52	-39.8	-42.0	13.9	3.80e-06	0	61	0	1783627776	51	4551
2026-01-17 23:59:24.58	205.61	22.38	-39.6	-41.7	14.1	2.20e-06	0	61	0	1786773504	51	4413
2026-01-17 23:59:25.59	205.58	22.23	-39.6	-41.7	14.1	2.20e-06	0	61	0	1789919232	51	4408
2026-01-17 23:59:26.59	205.56	22.09	-39.6	-41.7	14.1	3.80e-06	0	61	0	1793064960	51	4422
2026-01-17 23:59:27.60	205.54	21.94	-39.5	-41.6	14.2	7.00e-07	0	61	0	1796210688	51	4365
2026-01-17 23:59:28.61	205.52	21.80	-39.5	-41.6	14.2	0.00e+00	0	61	0	1799356416	50	4633
2026-01-17 23:59:29.63	205.49	21.66	-39.4	-41.5	14.3	0.00e+00	0	61	0	1802502144	50	4592
2026-01-17 23:59:30.64	205.47	21.52	-39.4	-41.5	14.3	0.00e+00	0	61	0	1805647872	50	4565
2026-01-17 23:59:31.65	205.45	21.38	-39.5	-41.6	14.2	2.20e-06	0	61	0	1808793600	50	4605
2026-01-17 23:59:32.66	205.43	21.24	-39.4	-41.5	14.3	0.00e+00	0	61	0	1811939328	50	4571
2026-01-17 23:59:33.67	205.41	21.10	-39.3	-41.4	14.4	1.50e-06	0	61	0	1815085056	50	4516
2026-01-17 23:59:34.68	205.39	20.96	-39.3	-41.3	14.5	0.00e+00	0	61	0	1818230784	50	4474
2026-01-17 23:59:35.69	205.37	20.82	-39.3	-41.4	14.4	0.00e+00	0	61	0	1821376512	50	4504
2026-01-17 23:59:36.70	205.35	20.69	-39.3	-41.3	14.5	0.00e+00	0	61	0	1824522240	50	4454
2026-01-17 23:59:37.71	205.33	20.55	-39.3	-41.4	14.4	0.00e+00	0	61	0	1827667968	50	4499
2026-01-17 23:59:38.72	205.31	20.42	-39.3	-41.4	14.4	7.00e-07	0	61	0	1830813696	50	4522
2026-01-17 23:59:39.73	205.29	20.28	-39.3	-41.3	14.5	0.00e+00	0	61	0	1833959424	50	4466
2026-01-17 23:59:40.74	205.27	20.15	-39.3	-41.4	14.4	7.00e-07	0	61	0	1837105152	50	4509
2026-01-17 23:59:41.75	205.25	20.02	-39.4	-41.5	14.3	7.00e-07	0	61	0	1840250880	50	4553
2026-01-17 23:59:42.76	205.23	19.88	-39.4	-41.4	14.3	0.00e+00	0	61	0	1843396608	50	4540
2026-01-17 23:59:43.77	205.21	19.75	-39.4	-41.5	14.3	7.00e-07	0	61	0	1846542336	50	4546
2026-01-17 23:59:44.78	205.20	19.62	-39.4	-41.5	14.3	0.00e+00	0	61	0	1849688064	50	4571
2026-01-17 23:59:45.79	205.18	19.49	-39.4	-41.5	14.3	7.00e-07	0	61	0	1852833792	50	4561
2026-01-17 23:59:46.80	205.16	19.36	-39.6	-41.7	14.1	0.00e+00	0	61	0	1855979520	50	4687
2026-01-17 23:59:47.81	205.14	19.23	-39.6	-41.7	14.1	1.50e-06	0	61	0	1859125248	50	4688
2026-01-17 23:59:48.82	205.12	19.10	-39.6	-41.7	14.0	3.00e-06	0	61	0	1862270976	50	4703
2026-01-17 23:59:49.83	205.10	18.98	-39.6	-41.8	14.0	3.00e-06	0	61	0	1865416704	50	4744
2026-01-17 23:59:50.84	205.09	18.85	-39.6	-41.7	14.0	2.20e-06	0	60	0	1868562432	50	4703
2026-01-17 23:59:51.85	205.07	18.72	-39.7	-41.9	13.9	0.00e+00	0	61	0	1871708160	50	4771
2026-01-17 23:59:52.86	205.05	18.60	-39.7	-41.9	13.9	5.30e-06	0	61	0	1874853888	50	4763
2026-01-17 23:59:53.87	205.04	18.47	-39.6	-41.8	13.9	7.00e-07	0	61	0	1877999616	50	4756
2026-01-17 23:59:54.88	205.02	18.35	-39.6	-41.8	13.9	7.00e-07	0	61	0	1881145344	50	4755
2026-01-17 23:59:55.89	205.00	18.23	-39.7	-42.0	13.8	7.00e-07	0	61	0	1884291072	50	4830
2026-01-17 23:59:56.90	204.99	18.10	-39.7	-41.9	13.8	5.30e-06	0	61	0	1887436800	50	4798
2026-01-17 23:59:57.91	204.97	17.98	-39.7	-41.9	13.8	4.50e-06	0	61	0	1890582528	50	4795
2026-01-17 23:59:58.92	204.95	17.86	-39.7	-42.0	13.7	6.10e-06	0	61	0	1893728256	50	4840
2026-01-17 23:59:59.93	204.94	17.74	-39.7	-42.0	13.8	2.20e-06	0	61	0	1896873984	50	4822
2026-01-18 00:00:00.94	204.92	17.62	-39.8	-42.1	13.6	7.60e-06	0	61	0	1900019712	50	4901
2026-01-18 00:00:01.95	204.90	17.50	-39.9	-42.2	13.5	1.06e-05	0	61	0	1903165440	50	4957
2026-01-18 00:00:02.96	204.89	17.38	-39.9	-42.2	13.5	1.60e-05	0	61	0	1906311168	50	4936
2026-01-18 00:00:03.97	204.87	17.26	-39.9	-42.3	13.4	1.14e-05	0	61	0	1909456896	50	5010
2026-01-18 00:00:04.98	204.86	17.14	-40.0	-42.4	13.3	1.83e-05	0	61	0	1912602624	50	5058
2026-01-18 00:00:05.99	204.84	17.02	-40.0	-42.4	13.3	2.36e-05	0	61	0	1915748352	50	5076
2026-01-18 00:00:07.00	204.83	16.91	-40.1	-42.6	13.1	2.44e-05	0	61	0	1918894080	50	5166
2026-01-18 00:00:08.01	204.81	16.79	-40.1	-42.6	13.1	2.67e-05	0	61	0	1922039808	50	5178
2026-01-18 00:00:09.02	204.80	16.67	-40.2	-42.7	13.0	2.97e-05	0	61	0	1925185536	50	5227
2026-01-18 00:00:10.03	204.78	16.56	-40.3	-42.8	12.9	3.96e-05	0	61	0	1928331264	51	4988
2026-01-18 00:00:11.04	204.77	16.44	-40.2	-42.7	12.9	4.73e-05	0	61	0	1931476992	51	4979
2026-01-18 00:00:12.05	204.75	16.33	-40.2	-42.7	13.0	4.04e-05	0	61	0	1934622720	51	4952
2026-01-18 00:00:13.06	204.74	16.21	-40.3	-42.9	12.7	6.79e-05	0	61	0	1937768448	51	5074
2026-01-18 00:00:14.07	204.73	16.10	-40.3	-42.9	12.8	5.49e-05	0	61	0	1940914176	51	5043
2026-01-18 00:00:15.08	204.71	15.99	-40.3	-42.9	12.7	7.47e-05	0	61	0	1944059904	51	5083
2026-01-18 00:00:16.09	204.70	15.87	-40.4	-43.0	12.7	7.32e-05	0	61	0	1947205632	51	5113
