passes_logs/2026/01/17/R2.0S_Moscow/R2.0S_Moscow__20260117_212229_FENGYUN_3G_rec.log

#Pass ID: 20260117_212229_FENGYUN 3G
#Satellite: FENGYUN 3G
#Configuration: FENGYUN 3G
#almurnet v.1.7.20251203
#Start time: 2026-01-17 21:22:28

#Version: 2.2.20231116
#Station: R2.0S_Moscow
#Location: 37.707566 lon 55.798166 lat
#TLE: 1 56232U 23055A   26017.23595159  .00030666  00000+0  47675-3 0  9990
#TLE: 2 56232  49.9939  44.3967 0004170  38.7938 321.3329 15.53606995156549

#Time	Az	El	Level	Level2	SNR	BER	BlckErr	Temp	State	Recorded	gain1	gain2
2026-01-17 21:22:28.88	237.62	2.03	-44.1	-62.1	3.8	8.46e-01	0	51	0	0	60	27667
2026-01-17 21:22:29.89	237.55	2.10	-44.0	-61.6	3.8	8.45e-01	0	51	104	0	60	26109
2026-01-17 21:22:30.90	237.48	2.17	-44.0	-62.0	3.8	8.46e-01	0	51	104	0	60	27323
2026-01-17 21:22:31.91	237.41	2.23	-44.0	-62.1	3.8	8.47e-01	0	51	104	0	60	27638
2026-01-17 21:22:32.92	237.34	2.30	-44.1	-62.1	3.8	8.47e-01	0	51	104	0	60	27705
2026-01-17 21:22:33.93	237.26	2.36	-44.0	-62.1	3.8	8.46e-01	0	51	104	0	60	27577
2026-01-17 21:22:34.94	237.19	2.43	-44.1	-62.2	3.8	8.45e-01	0	52	104	0	60	27857
2026-01-17 21:22:35.95	237.12	2.50	-44.1	-62.2	3.8	8.45e-01	0	52	104	0	60	27923
2026-01-17 21:22:36.97	237.04	2.56	-44.1	-62.2	3.8	8.45e-01	0	52	104	0	60	27981
2026-01-17 21:22:37.97	236.97	2.63	-44.0	-62.2	3.8	8.47e-01	0	52	104	0	60	27866
2026-01-17 21:22:38.99	236.89	2.70	-44.0	-62.2	3.8	8.47e-01	0	52	104	0	60	27885
2026-01-17 21:22:40.00	236.82	2.77	-44.0	-62.2	3.8	8.46e-01	0	52	104	0	60	27916
2026-01-17 21:22:41.01	236.74	2.83	-44.0	-62.2	3.8	8.44e-01	0	52	104	0	60	27889
2026-01-17 21:22:42.02	236.67	2.90	-44.1	-62.2	3.8	8.44e-01	0	52	104	0	60	27874
2026-01-17 21:22:43.03	236.59	2.97	-44.0	-62.1	3.8	8.46e-01	0	52	104	0	60	27575
2026-01-17 21:22:44.04	236.51	3.04	-44.0	-62.0	3.8	8.46e-01	0	52	104	0	60	27375
2026-01-17 21:22:45.05	236.43	3.11	-44.0	-62.0	3.8	8.46e-01	0	52	104	0	60	27087
2026-01-17 21:22:46.06	236.35	3.18	-44.0	-62.0	3.8	8.46e-01	0	52	104	0	60	27248
2026-01-17 21:22:47.07	236.27	3.24	-44.0	-62.0	3.8	8.46e-01	0	52	104	0	60	27279
2026-01-17 21:22:48.08	236.20	3.31	-44.0	-61.9	3.8	8.47e-01	0	52	104	0	60	26984
2026-01-17 21:22:49.09	236.11	3.38	-44.0	-62.1	3.8	8.47e-01	0	53	104	0	60	27545
2026-01-17 21:22:50.11	236.03	3.45	-44.0	-62.0	3.8	8.46e-01	0	53	104	0	60	27372
2026-01-17 21:22:51.12	235.95	3.52	-44.0	-62.1	3.8	8.45e-01	0	53	104	0	60	27518
2026-01-17 21:22:52.13	235.87	3.59	-44.0	-62.2	3.8	8.45e-01	0	53	104	0	60	27789
2026-01-17 21:22:53.14	235.79	3.66	-44.1	-62.2	3.8	8.46e-01	0	53	104	0	60	27950
2026-01-17 21:22:54.15	235.70	3.73	-44.1	-62.2	3.8	8.46e-01	0	53	104	0	60	27913
2026-01-17 21:22:55.16	235.62	3.80	-44.1	-62.2	3.8	8.46e-01	0	53	104	0	60	27959
2026-01-17 21:22:56.17	235.54	3.88	-44.0	-62.2	3.8	8.46e-01	0	53	104	0	60	27840
2026-01-17 21:22:57.18	235.45	3.95	-44.0	-62.2	3.8	8.46e-01	0	53	104	0	60	27860
2026-01-17 21:22:58.19	235.37	4.02	-44.0	-62.2	3.8	8.44e-01	0	53	104	0	60	27723
2026-01-17 21:22:59.20	235.28	4.09	-44.0	-62.2	3.8	8.44e-01	0	53	104	0	60	27894
2026-01-17 21:23:00.21	235.19	4.16	-44.0	-62.2	3.8	8.46e-01	0	53	104	0	60	27876
2026-01-17 21:23:01.22	235.11	4.23	-44.0	-62.2	3.8	8.46e-01	0	53	104	0	60	27932
2026-01-17 21:23:02.23	235.02	4.31	-44.1	-62.2	3.8	8.46e-01	0	53	104	0	60	27907
2026-01-17 21:23:03.25	234.93	4.38	-44.0	-62.1	3.8	8.46e-01	0	53	104	0	60	27515
2026-01-17 21:23:04.26	234.84	4.45	-44.0	-61.9	3.8	8.47e-01	0	54	104	0	60	26774
2026-01-17 21:23:05.27	234.75	4.53	-44.0	-61.6	3.8	8.47e-01	0	54	104	0	60	26040
2026-01-17 21:23:06.28	234.66	4.60	-44.0	-61.5	3.8	8.46e-01	0	53	104	0	60	25566
2026-01-17 21:23:07.29	234.57	4.67	-44.0	-61.1	3.8	8.45e-01	0	54	104	0	60	24469
2026-01-17 21:23:08.30	234.47	4.75	-44.0	-61.2	3.8	8.46e-01	0	54	104	0	60	24863
2026-01-17 21:23:09.31	234.38	4.82	-44.0	-61.0	3.8	8.46e-01	0	54	104	0	60	24222
2026-01-17 21:23:10.32	234.29	4.90	-44.0	-61.0	3.8	8.46e-01	0	54	104	0	60	24283
2026-01-17 21:23:11.33	234.19	4.97	-44.0	-61.2	3.8	8.46e-01	0	54	104	0	60	24933
2026-01-17 21:23:12.34	234.10	5.05	-44.0	-61.6	3.8	8.46e-01	0	54	104	0	60	25980
2026-01-17 21:23:13.36	234.00	5.12	-44.0	-61.8	3.8	8.46e-01	0	54	104	0	60	26656
2026-01-17 21:23:14.37	233.91	5.20	-44.0	-62.0	3.8	8.47e-01	0	54	104	0	60	27103
2026-01-17 21:23:15.38	233.81	5.27	-44.0	-61.9	3.8	8.47e-01	0	54	104	0	60	26878
2026-01-17 21:23:16.39	233.71	5.35	-44.0	-61.5	3.8	8.47e-01	0	54	104	0	60	25829
2026-01-17 21:23:17.40	233.61	5.42	-44.0	-61.0	3.8	8.45e-01	0	54	104	0	60	24322
2026-01-17 21:23:18.41	233.52	5.50	-44.0	-60.4	3.8	8.45e-01	0	54	104	0	60	22541
2026-01-17 21:23:19.42	233.42	5.58	-44.0	-59.7	3.9	8.46e-01	0	54	104	0	60	20786
2026-01-17 21:23:20.43	233.31	5.66	-44.1	-59.1	4.0	8.42e-01	0	54	104	0	59	20764
2026-01-17 21:23:21.45	233.21	5.73	-44.0	-58.9	4.1	8.41e-01	0	54	0	0	59	20250
2026-01-17 21:23:22.46	233.11	5.81	-44.0	-58.2	4.3	8.41e-01	0	55	0	0	59	18720
2026-01-17 21:23:23.47	233.01	5.89	-44.0	-58.2	4.4	8.34e-01	0	54	0	0	59	18549
2026-01-17 21:23:24.48	232.90	5.97	-44.0	-58.3	4.3	8.32e-01	0	55	0	0	59	18790
2026-01-17 21:23:25.49	232.80	6.05	-44.0	-57.8	4.4	8.32e-01	0	55	0	0	59	17740
2026-01-17 21:23:26.50	232.69	6.13	-44.0	-58.0	4.4	8.29e-01	0	55	0	0	59	18116
2026-01-17 21:23:27.51	232.59	6.20	-44.0	-57.7	4.5	8.27e-01	0	55	0	0	59	17521
2026-01-17 21:23:28.52	232.48	6.28	-44.0	-57.3	4.6	8.27e-01	0	55	0	0	59	16846
2026-01-17 21:23:29.53	232.37	6.36	-43.9	-56.7	4.9	8.13e-01	0	55	0	0	59	15605
2026-01-17 21:23:30.54	232.26	6.44	-43.9	-55.7	5.6	7.75e-01	0	55	0	0	59	14044
2026-01-17 21:23:31.56	232.15	6.53	-43.8	-54.7	6.4	7.75e-01	0	55	0	524288	59	12403
2026-01-17 21:23:32.57	232.04	6.61	-43.7	-53.7	7.2	4.89e-01	0	55	0	1572864	59	11126
2026-01-17 21:23:33.58	231.93	6.69	-43.5	-52.4	8.4	1.37e-01	0	55	0	3145728	59	9597
2026-01-17 21:23:34.59	231.82	6.77	-43.4	-51.7	9.3	3.76e-02	0	55	0	4194304	58	9384
2026-01-17 21:23:35.60	231.71	6.85	-43.2	-51.0	9.9	3.76e-02	0	55	0	5242880	58	8655
2026-01-17 21:23:36.61	231.59	6.93	-43.1	-50.7	10.4	1.11e-02	0	55	0	6291456	58	8275
2026-01-17 21:23:37.62	231.48	7.01	-43.2	-50.9	10.1	4.88e-03	0	55	0	7340032	58	8516
2026-01-17 21:23:38.63	231.36	7.10	-43.3	-51.5	9.5	4.88e-03	0	55	0	8912896	58	9159
2026-01-17 21:23:39.64	231.24	7.18	-43.6	-53.1	8.0	9.56e-03	0	55	0	9961472	58	10907
2026-01-17 21:23:40.65	231.13	7.26	-43.9	-55.7	5.7	8.55e-02	0	55	0	11010048	58	14722
2026-01-17 21:23:41.66	231.01	7.35	-44.1	-59.9	3.9	8.55e-02	0	55	104	11010048	58	24113
2026-01-17 21:23:42.68	230.89	7.43	-44.1	-60.4	3.8	7.15e-01	0	56	104	11010048	58	25512
2026-01-17 21:23:43.69	230.77	7.52	-43.8	-55.4	5.7	8.44e-01	0	55	0	11010048	58	14288
2026-01-17 21:23:44.70	230.65	7.60	-43.4	-52.0	8.8	3.33e-01	0	55	0	12058624	58	9681
2026-01-17 21:23:45.71	230.52	7.69	-42.9	-49.7	11.3	3.33e-01	0	55	0	13107200	57	7844
2026-01-17 21:23:46.72	230.40	7.77	-42.3	-47.9	13.2	5.46e-03	0	55	0	14155776	56	6762
2026-01-17 21:23:47.73	230.28	7.86	-41.8	-46.7	14.3	2.74e-05	0	55	0	15204352	55	6226
2026-01-17 21:23:48.74	230.15	7.94	-41.7	-46.6	14.5	2.74e-05	0	56	0	16252928	55	6132
2026-01-17 21:23:49.75	230.02	8.03	-41.6	-46.3	14.7	1.10e-06	0	56	0	17301504	55	5962
2026-01-17 21:23:50.76	229.90	8.12	-43.0	-49.6	12.6	1.10e-06	0	56	0	18874368	56	8226
2026-01-17 21:23:51.77	229.77	8.20	-43.2	-50.5	10.8	1.10e-06	0	56	0	19922944	58	8137
2026-01-17 21:23:52.78	229.64	8.29	-43.7	-51.6	11.1	2.85e-02	0	56	0	20971520	57	9727
2026-01-17 21:23:53.78	229.51	8.38	-41.5	-45.8	15.5	7.03e-02	0	56	0	22020096	54	5960
2026-01-17 21:23:54.79	229.37	8.46	-43.9	-54.7	7.4	7.03e-02	0	56	0	23068672	58	13260
2026-01-17 21:23:55.80	229.24	8.55	-41.2	-45.4	15.4	3.54e-02	0	56	0	24117248	54	5678
2026-01-17 21:23:56.81	229.11	8.64	-40.8	-44.5	16.6	2.18e-01	0	56	0	25165824	53	5436
2026-01-17 21:23:57.82	228.97	8.73	-40.9	-44.7	16.5	0.00e+00	0	56	0	26214400	53	5534
2026-01-17 21:23:58.83	228.84	8.82	-40.9	-44.6	16.5	0.00e+00	0	56	0	27787264	53	5516
2026-01-17 21:23:59.84	228.70	8.91	-40.9	-44.7	16.5	0.00e+00	0	56	0	28835840	53	5534
2026-01-17 21:24:00.85	228.56	9.00	-40.9	-44.6	16.5	0.00e+00	0	56	0	29884416	53	5525
2026-01-17 21:24:01.86	228.42	9.09	-40.9	-44.6	16.6	0.00e+00	0	56	0	30932992	53	5501
2026-01-17 21:24:02.87	228.28	9.18	-40.9	-44.7	16.5	0.00e+00	0	56	0	31981568	53	5543
2026-01-17 21:24:03.88	228.14	9.27	-41.0	-44.7	16.4	0.00e+00	0	56	0	33030144	53	5556
2026-01-17 21:24:04.89	227.99	9.36	-41.0	-44.9	16.4	0.00e+00	0	56	0	34603008	53	5671
2026-01-17 21:24:05.90	227.85	9.46	-41.1	-44.9	16.3	0.00e+00	0	56	0	35651584	53	5697
2026-01-17 21:24:06.91	227.70	9.55	-41.0	-44.8	16.5	0.00e+00	0	56	0	36700160	53	5596
2026-01-17 21:24:07.92	227.55	9.64	-41.1	-44.8	16.4	0.00e+00	0	56	0	37748736	53	5652
2026-01-17 21:24:08.93	227.40	9.73	-41.0	-44.7	16.5	0.00e+00	0	56	0	38797312	53	5591
2026-01-17 21:24:09.94	227.25	9.83	-40.9	-44.6	16.6	0.00e+00	0	56	0	39845888	53	5516
2026-01-17 21:24:10.95	227.10	9.92	-40.8	-44.4	16.9	0.00e+00	0	56	0	40894464	53	5393
2026-01-17 21:24:11.95	226.95	10.02	-40.8	-44.3	17.0	0.00e+00	0	56	0	42467328	53	5296
2026-01-17 21:24:12.96	226.80	10.11	-40.8	-44.3	17.0	0.00e+00	0	56	0	43515904	53	5297
2026-01-17 21:24:13.97	226.64	10.21	-40.7	-44.2	17.1	0.00e+00	0	56	0	44564480	53	5239
2026-01-17 21:24:14.98	226.48	10.30	-40.6	-44.0	17.3	0.00e+00	0	57	0	45613056	53	5118
2026-01-17 21:24:15.99	226.33	10.40	-40.5	-43.9	17.4	0.00e+00	0	56	0	46661632	53	5078
2026-01-17 21:24:17.00	226.17	10.49	-40.7	-44.1	17.2	0.00e+00	0	56	0	47710208	53	5204
2026-01-17 21:24:18.01	226.01	10.59	-40.7	-44.3	17.0	0.00e+00	0	56	0	49283072	53	5301
2026-01-17 21:24:19.02	225.84	10.69	-40.7	-44.3	17.0	0.00e+00	0	56	0	50331648	53	5283
2026-01-17 21:24:20.03	225.68	10.78	-40.7	-44.2	17.2	0.00e+00	0	56	0	51380224	53	5232
2026-01-17 21:24:21.04	225.51	10.88	-40.7	-44.2	17.1	0.00e+00	0	57	0	52428800	53	5276
2026-01-17 21:24:22.05	225.35	10.98	-40.6	-44.1	17.2	0.00e+00	0	57	0	53477376	53	5181
2026-01-17 21:24:23.06	225.18	11.08	-40.6	-44.0	17.4	0.00e+00	0	57	0	54525952	53	5103
2026-01-17 21:24:24.07	225.01	11.18	-40.5	-43.8	17.6	0.00e+00	0	57	0	56098816	53	5007
2026-01-17 21:24:25.08	224.84	11.28	-40.4	-43.6	17.8	0.00e+00	0	57	0	57147392	52	5180
2026-01-17 21:24:26.09	224.66	11.38	-40.4	-43.5	17.8	0.00e+00	0	57	0	58195968	52	5146
2026-01-17 21:24:27.10	224.49	11.48	-40.3	-43.4	18.0	0.00e+00	0	57	0	59244544	52	5080
2026-01-17 21:24:28.11	224.31	11.58	-40.4	-43.6	17.8	0.00e+00	0	57	0	60293120	52	5183
2026-01-17 21:24:29.12	224.13	11.68	-40.3	-43.5	17.9	0.00e+00	0	57	0	61341696	52	5104
2026-01-17 21:24:30.12	223.96	11.78	-40.3	-43.5	17.9	0.00e+00	0	57	0	62914560	52	5103
2026-01-17 21:24:31.13	223.77	11.88	-40.3	-43.4	18.1	0.00e+00	0	57	0	63963136	52	5042
2026-01-17 21:24:32.14	223.59	11.99	-40.2	-43.2	18.2	0.00e+00	0	57	0	65011712	52	4980
2026-01-17 21:24:33.15	223.41	12.09	-40.2	-43.3	18.2	0.00e+00	0	57	0	66060288	52	4985
2026-01-17 21:24:34.16	223.22	12.19	-40.2	-43.3	18.1	0.00e+00	0	57	0	67108864	52	5009
2026-01-17 21:24:35.17	223.03	12.29	-40.1	-43.1	18.3	0.00e+00	0	57	0	68157440	52	4917
2026-01-17 21:24:36.18	222.84	12.40	-40.0	-43.0	18.5	0.00e+00	0	57	0	69730304	52	4830
2026-01-17 21:24:37.19	222.65	12.50	-40.0	-42.9	18.5	0.00e+00	0	57	0	70778880	52	4806
2026-01-17 21:24:38.20	222.46	12.61	-40.0	-42.9	18.6	0.00e+00	0	57	0	71827456	51	5068
2026-01-17 21:24:39.21	222.26	12.71	-39.9	-42.8	18.7	0.00e+00	0	57	0	72876032	51	5022
2026-01-17 21:24:40.22	222.07	12.82	-39.9	-42.7	18.9	0.00e+00	0	57	0	73924608	51	4942
2026-01-17 21:24:41.23	221.87	12.92	-39.8	-42.5	19.0	0.00e+00	0	57	0	75497472	51	4860
2026-01-17 21:24:42.24	221.67	13.03	-39.8	-42.6	19.0	0.00e+00	0	57	0	76546048	51	4897
2026-01-17 21:24:43.24	221.46	13.14	-39.8	-42.6	19.0	0.00e+00	0	57	0	77594624	51	4902
2026-01-17 21:24:44.25	221.26	13.24	-39.9	-42.7	18.9	0.00e+00	0	57	0	78643200	51	4930
2026-01-17 21:24:45.26	221.05	13.35	-39.9	-42.7	18.9	0.00e+00	0	57	0	79691776	51	4973
2026-01-17 21:24:46.27	220.84	13.46	-39.9	-42.8	18.8	0.00e+00	0	57	0	80740352	51	4997
2026-01-17 21:24:47.28	220.63	13.57	-39.9	-42.7	18.9	0.00e+00	0	57	0	81788928	51	4960
2026-01-17 21:24:48.29	220.42	13.68	-39.8	-42.6	19.0	0.00e+00	0	57	0	83361792	51	4887
2026-01-17 21:24:49.30	220.21	13.79	-39.8	-42.5	19.1	0.00e+00	0	57	0	84410368	51	4840
2026-01-17 21:24:50.31	219.99	13.90	-39.6	-42.3	19.3	0.00e+00	0	57	0	85458944	51	4728
2026-01-17 21:24:51.32	219.77	14.01	-39.5	-42.1	19.5	0.00e+00	0	57	0	86507520	51	4623
2026-01-17 21:24:52.33	219.55	14.12	-39.5	-42.1	19.5	0.00e+00	0	57	0	87556096	50	4908
2026-01-17 21:24:53.34	219.33	14.23	-39.4	-42.0	19.6	0.00e+00	0	57	0	88604672	50	4823
2026-01-17 21:24:54.35	219.10	14.34	-39.4	-42.0	19.7	0.00e+00	0	57	0	90177536	50	4847
2026-01-17 21:24:55.36	218.87	14.45	-39.4	-42.0	19.7	0.00e+00	0	57	0	91226112	50	4834
2026-01-17 21:24:56.36	218.65	14.56	-39.5	-42.2	19.5	0.00e+00	0	57	0	92274688	50	4940
2026-01-17 21:24:57.37	218.41	14.67	-39.6	-42.2	19.4	0.00e+00	0	57	0	93323264	50	4968
2026-01-17 21:24:58.38	218.18	14.79	-39.6	-42.3	19.3	0.00e+00	0	57	0	94371840	50	5021
2026-01-17 21:24:59.39	217.94	14.90	-39.6	-42.3	19.3	0.00e+00	0	57	0	95420416	50	5021
2026-01-17 21:25:00.40	217.70	15.01	-39.6	-42.3	19.4	0.00e+00	0	58	0	96993280	50	4986
2026-01-17 21:25:01.41	217.46	15.13	-39.4	-42.0	19.6	0.00e+00	0	57	0	98041856	50	4860
2026-01-17 21:25:02.42	217.22	15.24	-39.4	-41.9	19.8	0.00e+00	0	58	0	99090432	50	4787
2026-01-17 21:25:03.43	216.97	15.36	-39.2	-41.7	20.0	0.00e+00	0	57	0	100139008	50	4669
2026-01-17 21:25:04.44	216.73	15.47	-39.1	-41.5	20.2	0.00e+00	0	58	0	101187584	50	4579
2026-01-17 21:25:05.45	216.48	15.59	-39.0	-41.4	20.3	0.00e+00	0	58	0	102236160	49	4777
2026-01-17 21:25:06.46	216.22	15.70	-39.0	-41.4	20.2	0.00e+00	0	58	0	103809024	49	4803
2026-01-17 21:25:07.47	215.97	15.82	-38.9	-41.3	20.3	0.00e+00	0	58	0	104857600	49	4732
2026-01-17 21:25:08.48	215.71	15.93	-38.9	-41.2	20.4	0.00e+00	0	57	0	105906176	49	4697
2026-01-17 21:25:09.49	215.45	16.05	-39.1	-41.5	20.2	0.00e+00	0	58	0	106954752	49	4833
2026-01-17 21:25:10.50	215.18	16.17	-39.3	-41.8	19.9	0.00e+00	0	58	0	108003328	49	5002
2026-01-17 21:25:11.51	214.92	16.28	-39.4	-42.0	19.7	0.00e+00	0	58	0	109051904	49	5113
2026-01-17 21:25:12.52	214.65	16.40	-39.2	-41.6	20.1	0.00e+00	0	58	0	110624768	49	4896
2026-01-17 21:25:13.53	214.38	16.52	-39.1	-41.5	20.2	0.00e+00	0	58	0	111673344	49	4837
2026-01-17 21:25:14.53	214.11	16.63	-39.0	-41.4	20.3	0.00e+00	0	58	0	112721920	49	4788
2026-01-17 21:25:15.54	213.83	16.75	-39.0	-41.4	20.4	0.00e+00	0	58	0	113770496	49	4771
2026-01-17 21:25:16.55	213.55	16.87	-38.9	-41.3	20.5	0.00e+00	0	58	0	114819072	49	4717
2026-01-17 21:25:17.56	213.27	16.99	-38.8	-41.1	20.7	0.00e+00	0	58	0	115867648	49	4602
2026-01-17 21:25:18.57	212.98	17.11	-38.8	-41.1	20.7	0.00e+00	0	58	0	117440512	49	4603
2026-01-17 21:25:19.58	212.70	17.23	-38.8	-41.1	20.7	0.00e+00	0	58	0	118489088	49	4615
2026-01-17 21:25:20.59	212.41	17.35	-39.0	-41.4	20.3	0.00e+00	0	58	0	119537664	49	4802
2026-01-17 21:25:21.60	212.11	17.47	-39.2	-41.6	20.2	0.00e+00	0	58	0	120586240	49	4883
2026-01-17 21:25:22.61	211.82	17.59	-39.2	-41.6	20.2	0.00e+00	0	58	0	121634816	49	4920
2026-01-17 21:25:23.62	211.52	17.71	-39.2	-41.7	20.1	0.00e+00	0	58	0	122683392	49	4945
2026-01-17 21:25:24.63	211.21	17.83	-39.1	-41.5	20.3	0.00e+00	0	58	0	124256256	49	4844
2026-01-17 21:25:25.64	210.91	17.95	-39.1	-41.4	20.3	0.00e+00	0	58	0	125304832	49	4813
2026-01-17 21:25:26.65	210.60	18.07	-38.9	-41.2	20.6	0.00e+00	0	58	0	126353408	49	4675
2026-01-17 21:25:27.66	210.29	18.19	-38.7	-41.0	20.8	0.00e+00	0	58	0	127401984	49	4549
2026-01-17 21:25:28.67	209.98	18.31	-38.5	-40.6	21.1	0.00e+00	0	58	0	128450560	48	4648
2026-01-17 21:25:29.68	209.66	18.43	-38.3	-40.5	21.3	0.00e+00	0	58	0	129499136	48	4559
2026-01-17 21:25:30.69	209.34	18.55	-38.4	-40.6	21.2	0.00e+00	0	58	0	131072000	48	4620
2026-01-17 21:25:31.70	209.01	18.67	-38.4	-40.5	21.2	0.00e+00	0	58	0	132120576	48	4586
2026-01-17 21:25:32.71	208.69	18.79	-38.5	-40.7	21.0	0.00e+00	0	58	0	133169152	48	4686
2026-01-17 21:25:33.72	208.36	18.91	-38.6	-40.8	21.0	0.00e+00	0	58	0	134217728	48	4751
2026-01-17 21:25:34.73	208.02	19.03	-38.8	-41.0	20.8	0.00e+00	0	58	0	135266304	48	4869
2026-01-17 21:25:35.74	207.69	19.15	-38.9	-41.2	20.7	0.00e+00	0	58	0	136314880	48	4945
2026-01-17 21:25:36.75	207.35	19.27	-38.8	-41.1	20.7	0.00e+00	0	58	0	137887744	48	4895
2026-01-17 21:25:37.76	207.00	19.39	-38.7	-40.9	20.9	0.00e+00	0	58	0	138936320	48	4778
2026-01-17 21:25:38.77	206.66	19.51	-38.7	-41.0	20.8	0.00e+00	0	58	0	139984896	48	4850
2026-01-17 21:25:39.78	206.31	19.63	-38.4	-40.6	21.2	0.00e+00	0	58	0	141033472	48	4644
2026-01-17 21:25:40.79	205.96	19.75	-38.1	-40.2	21.5	0.00e+00	0	58	0	142082048	48	4437
2026-01-17 21:25:41.80	205.60	19.87	-38.0	-40.1	21.7	0.00e+00	0	58	0	143130624	48	4342
2026-01-17 21:25:42.81	205.24	19.99	-38.0	-40.1	21.7	0.00e+00	0	58	0	144703488	48	4343
2026-01-17 21:25:43.81	204.88	20.11	-37.9	-39.9	21.8	0.00e+00	0	58	0	145752064	47	4526
2026-01-17 21:25:44.82	204.51	20.23	-38.1	-40.2	21.5	0.00e+00	0	58	0	146800640	47	4698
2026-01-17 21:25:45.83	204.14	20.35	-38.3	-40.4	21.3	0.00e+00	0	58	0	147849216	47	4811
2026-01-17 21:25:46.84	203.77	20.46	-38.2	-40.3	21.4	0.00e+00	0	58	0	148897792	47	4752
2026-01-17 21:25:47.85	203.39	20.58	-38.3	-40.5	21.2	0.00e+00	0	58	0	149946368	47	4847
2026-01-17 21:25:48.86	203.01	20.70	-38.3	-40.5	21.3	0.00e+00	0	58	0	151519232	47	4817
2026-01-17 21:25:49.87	202.63	20.82	-38.3	-40.5	21.3	0.00e+00	0	58	0	152567808	47	4839
2026-01-17 21:25:50.88	202.24	20.94	-38.2	-40.4	21.3	0.00e+00	0	58	0	153616384	47	4783
2026-01-17 21:25:51.89	201.85	21.05	-38.1	-40.2	21.5	0.00e+00	0	58	0	154664960	47	4694
2026-01-17 21:25:52.89	201.46	21.17	-37.9	-40.0	21.7	0.00e+00	0	58	0	155713536	47	4559
2026-01-17 21:25:53.90	201.06	21.28	-38.0	-40.0	21.7	0.00e+00	0	58	0	156762112	47	4597
2026-01-17 21:25:54.91	200.66	21.40	-37.9	-40.0	21.8	0.00e+00	0	58	0	158334976	47	4560
2026-01-17 21:25:55.92	200.26	21.51	-37.9	-39.9	21.8	0.00e+00	0	58	0	159383552	47	4534
2026-01-17 21:25:56.92	199.85	21.62	-37.8	-39.8	22.0	0.00e+00	0	58	0	160432128	47	4462
2026-01-17 21:25:57.94	199.43	21.74	-37.8	-39.8	22.0	0.00e+00	0	58	0	161480704	47	4463
2026-01-17 21:25:58.94	199.02	21.85	-37.7	-39.7	22.0	0.00e+00	0	58	0	162529280	47	4429
2026-01-17 21:25:59.95	198.60	21.96	-37.7	-39.7	22.0	0.00e+00	0	59	0	163577856	47	4402
2026-01-17 21:26:00.96	198.18	22.07	-37.7	-39.7	22.0	0.00e+00	0	58	0	165150720	47	4427
2026-01-17 21:26:01.97	197.75	22.18	-37.8	-39.8	22.0	0.00e+00	0	58	0	166199296	47	4464
2026-01-17 21:26:02.99	197.32	22.29	-37.7	-39.8	22.0	0.00e+00	0	59	0	167247872	47	4459
2026-01-17 21:26:04.00	196.88	22.40	-37.8	-39.8	21.9	0.00e+00	0	58	0	168296448	47	4491
2026-01-17 21:26:05.01	196.45	22.51	-38.0	-40.1	21.7	0.00e+00	0	59	0	169345024	47	4605
2026-01-17 21:26:06.02	196.01	22.62	-37.9	-39.9	21.8	0.00e+00	0	58	0	170393600	47	4544
2026-01-17 21:26:07.03	195.56	22.72	-38.0	-40.0	21.7	0.00e+00	0	58	0	171966464	47	4589
2026-01-17 21:26:08.04	195.11	22.83	-37.9	-40.0	21.8	0.00e+00	0	58	0	173015040	47	4546
2026-01-17 21:26:09.05	194.66	22.93	-37.7	-39.7	22.0	0.00e+00	0	58	0	174063616	47	4436
2026-01-17 21:26:10.06	194.21	23.03	-37.6	-39.6	22.2	0.00e+00	0	58	0	175112192	47	4341
2026-01-17 21:26:11.07	193.75	23.13	-37.5	-39.5	22.3	0.00e+00	0	58	0	176160768	47	4304
2026-01-17 21:26:12.07	193.29	23.23	-37.7	-39.7	22.1	0.00e+00	0	58	0	177209344	47	4432
2026-01-17 21:26:13.09	192.82	23.33	-37.7	-39.7	22.0	0.00e+00	0	58	0	178782208	47	4433
2026-01-17 21:26:14.09	192.36	23.43	-37.7	-39.7	22.1	0.00e+00	0	58	0	179830784	47	4400
2026-01-17 21:26:15.10	191.88	23.52	-37.7	-39.8	22.0	0.00e+00	0	58	0	180879360	47	4444
2026-01-17 21:26:16.11	191.41	23.62	-37.5	-39.5	22.2	0.00e+00	0	58	0	181927936	47	4316
2026-01-17 21:26:17.12	190.93	23.71	-37.5	-39.5	22.3	0.00e+00	0	58	0	182976512	46	4587
2026-01-17 21:26:18.13	190.45	23.81	-37.4	-39.4	22.4	0.00e+00	0	58	0	184025088	46	4512
2026-01-17 21:26:19.14	189.96	23.90	-37.5	-39.4	22.4	0.00e+00	0	58	0	185597952	46	4537
2026-01-17 21:26:20.15	189.47	23.98	-37.6	-39.6	22.2	0.00e+00	0	58	0	186646528	46	4604
2026-01-17 21:26:21.16	188.98	24.07	-37.5	-39.5	22.3	0.00e+00	0	59	0	187695104	46	4576
2026-01-17 21:26:22.17	188.48	24.16	-37.6	-39.6	22.2	0.00e+00	0	59	0	188743680	46	4602
2026-01-17 21:26:23.18	187.99	24.24	-37.5	-39.5	22.3	0.00e+00	0	59	0	189792256	46	4562
2026-01-17 21:26:24.19	187.48	24.32	-37.5	-39.4	22.3	0.00e+00	0	59	0	190840832	46	4536
2026-01-17 21:26:25.20	186.98	24.40	-37.3	-39.3	22.5	0.00e+00	0	59	0	192413696	46	4442
2026-01-17 21:26:26.21	186.47	24.48	-37.4	-39.3	22.4	0.00e+00	0	59	0	193462272	46	4466
2026-01-17 21:26:27.22	185.96	24.56	-37.4	-39.4	22.4	0.00e+00	0	59	0	194510848	46	4499
2026-01-17 21:26:28.23	185.45	24.64	-37.4	-39.4	22.4	0.00e+00	0	58	0	195559424	46	4503
2026-01-17 21:26:29.24	184.93	24.71	-37.5	-39.5	22.3	0.00e+00	0	59	0	196608000	46	4568
2026-01-17 21:26:30.25	184.41	24.78	-37.5	-39.4	22.4	0.00e+00	0	59	0	197656576	46	4536
2026-01-17 21:26:31.26	183.89	24.85	-37.6	-39.5	22.3	0.00e+00	0	59	0	199229440	46	4577
2026-01-17 21:26:32.27	183.37	24.92	-37.7	-39.7	22.1	0.00e+00	0	59	0	200278016	46	4660
2026-01-17 21:26:33.28	182.84	24.98	-37.9	-39.9	21.8	0.00e+00	0	59	0	201326592	46	4805
2026-01-17 21:26:34.29	182.31	25.04	-38.0	-40.0	21.7	0.00e+00	0	59	0	202375168	46	4867
2026-01-17 21:26:35.30	181.78	25.10	-38.0	-40.0	21.8	0.00e+00	0	59	0	203423744	46	4864
2026-01-17 21:26:36.31	181.25	25.16	-37.9	-39.9	21.9	0.00e+00	0	59	0	204472320	46	4784
2026-01-17 21:26:37.32	180.71	25.22	-37.6	-39.6	22.2	0.00e+00	0	59	0	206045184	46	4629
2026-01-17 21:26:38.33	180.17	25.27	-37.6	-39.5	22.3	0.00e+00	0	59	0	207093760	46	4577
2026-01-17 21:26:39.34	179.63	25.33	-37.6	-39.6	22.3	0.00e+00	0	59	0	208142336	46	4602
2026-01-17 21:26:40.34	179.09	25.37	-37.6	-39.6	22.2	0.00e+00	0	58	0	209190912	46	4641
2026-01-17 21:26:41.35	178.55	25.42	-37.7	-39.7	22.2	0.00e+00	0	59	0	210239488	46	4653
2026-01-17 21:26:42.36	178.00	25.47	-37.6	-39.5	22.3	0.00e+00	0	59	0	211288064	46	4590
2026-01-17 21:26:43.37	177.46	25.51	-37.5	-39.4	22.4	0.00e+00	0	59	0	212860928	46	4540
2026-01-17 21:26:44.38	176.91	25.55	-37.3	-39.2	22.7	0.00e+00	0	59	0	213909504	46	4410
2026-01-17 21:26:45.39	176.36	25.59	-37.2	-39.0	22.8	0.00e+00	0	59	0	214958080	46	4337
2026-01-17 21:26:46.40	175.80	25.62	-37.2	-39.1	22.8	0.00e+00	0	59	0	216006656	46	4366
2026-01-17 21:26:47.42	175.24	25.65	-37.3	-39.2	22.7	0.00e+00	0	59	0	217055232	46	4405
2026-01-17 21:26:48.42	174.69	25.68	-37.2	-39.1	22.9	0.00e+00	0	59	0	218103808	46	4351
2026-01-17 21:26:49.44	174.13	25.71	-37.0	-38.8	23.1	0.00e+00	0	59	0	219676672	46	4212
2026-01-17 21:26:50.45	173.58	25.74	-36.8	-38.6	23.2	0.00e+00	0	59	0	220725248	45	4379
2026-01-17 21:26:51.45	173.02	25.76	-36.8	-38.6	23.3	0.00e+00	0	59	0	221773824	45	4342
2026-01-17 21:26:52.47	172.46	25.78	-36.8	-38.6	23.3	0.00e+00	0	59	0	222822400	45	4366
2026-01-17 21:26:53.48	171.90	25.79	-37.0	-38.8	23.1	0.00e+00	0	59	0	223870976	45	4449
2026-01-17 21:26:54.49	171.34	25.81	-37.1	-38.9	22.9	0.00e+00	0	59	0	224919552	45	4541
2026-01-17 21:26:55.50	170.78	25.82	-37.1	-38.9	22.9	0.00e+00	0	59	0	226492416	45	4538
2026-01-17 21:26:56.51	170.22	25.83	-37.2	-39.1	22.8	0.00e+00	0	59	0	227540992	45	4621
2026-01-17 21:26:57.52	169.65	25.84	-37.2	-39.0	22.8	0.00e+00	0	59	0	228589568	45	4598
2026-01-17 21:26:58.53	169.09	25.84	-37.4	-39.3	22.6	0.00e+00	0	59	0	229638144	45	4711
2026-01-17 21:26:59.54	168.53	25.84	-37.4	-39.3	22.5	0.00e+00	0	59	0	230686720	45	4744
2026-01-17 21:27:00.54	167.97	25.84	-37.5	-39.4	22.6	0.00e+00	0	59	0	231735296	45	4764
2026-01-17 21:27:01.55	167.41	25.83	-37.2	-39.1	22.9	0.00e+00	0	59	0	233308160	45	4621
2026-01-17 21:27:02.56	166.85	25.83	-37.1	-38.9	23.1	0.00e+00	0	59	0	234356736	45	4523
2026-01-17 21:27:03.57	166.29	25.82	-36.8	-38.5	23.5	0.00e+00	0	59	0	235405312	45	4319
2026-01-17 21:27:04.58	165.73	25.81	-36.9	-38.7	23.2	0.00e+00	0	59	0	236453888	45	4436
2026-01-17 21:27:05.59	165.17	25.79	-37.2	-39.1	22.9	0.00e+00	0	59	0	237502464	45	4605
2026-01-17 21:27:06.60	164.61	25.77	-37.4	-39.4	22.7	0.00e+00	0	59	0	238551040	45	4766
2026-01-17 21:27:07.61	164.05	25.75	-37.4	-39.4	22.6	0.00e+00	0	59	0	240123904	45	4764
2026-01-17 21:27:08.62	163.49	25.73	-37.6	-39.5	22.5	0.00e+00	0	59	0	241172480	45	4850
2026-01-17 21:27:09.63	162.94	25.70	-37.5	-39.5	22.5	0.00e+00	0	59	0	242221056	45	4832
2026-01-17 21:27:10.64	162.38	25.68	-37.5	-39.4	22.6	0.00e+00	0	59	0	243269632	45	4787
2026-01-17 21:27:11.65	161.83	25.65	-37.4	-39.3	22.6	0.00e+00	0	59	0	244318208	45	4749
2026-01-17 21:27:12.66	161.27	25.61	-37.6	-39.6	22.5	0.00e+00	0	59	0	245366784	45	4892
2026-01-17 21:27:13.67	160.72	25.58	-37.8	-39.8	22.3	0.00e+00	0	59	0	246939648	46	4722
2026-01-17 21:27:14.68	160.17	25.54	-37.9	-40.0	22.0	0.00e+00	0	59	0	247988224	46	4831
2026-01-17 21:27:15.69	159.62	25.50	-37.8	-39.8	22.3	0.00e+00	0	59	0	249036800	46	4712
2026-01-17 21:27:16.70	159.08	25.46	-37.4	-39.3	22.7	0.00e+00	0	59	0	250085376	46	4451
2026-01-17 21:27:17.70	158.54	25.41	-37.4	-39.3	22.8	0.00e+00	0	59	0	251133952	46	4459
2026-01-17 21:27:18.71	157.99	25.36	-37.6	-39.6	22.4	0.00e+00	0	59	0	252182528	46	4619
2026-01-17 21:27:19.72	157.45	25.31	-38.2	-40.3	21.8	0.00e+00	0	59	0	253755392	46	4991
2026-01-17 21:27:20.73	156.91	25.26	-38.3	-40.5	21.6	0.00e+00	0	59	0	254803968	47	4830
2026-01-17 21:27:21.74	156.37	25.21	-38.0	-40.1	22.0	0.00e+00	0	59	0	255852544	47	4612
2026-01-17 21:27:22.75	155.84	25.15	-37.6	-39.6	22.5	0.00e+00	0	59	0	256901120	47	4348
2026-01-17 21:27:23.76	155.31	25.09	-37.5	-39.5	22.6	0.00e+00	0	59	0	257949696	47	4302
2026-01-17 21:27:24.77	154.78	25.03	-37.7	-39.7	22.4	0.00e+00	0	59	0	258998272	47	4434
2026-01-17 21:27:25.78	154.25	24.97	-38.0	-40.0	22.0	0.00e+00	0	59	0	260571136	47	4588
2026-01-17 21:27:26.79	153.72	24.90	-37.9	-40.0	22.1	0.00e+00	0	59	0	261619712	47	4567
2026-01-17 21:27:27.80	153.20	24.84	-38.0	-40.0	22.1	0.00e+00	0	59	0	262668288	47	4581
2026-01-17 21:27:28.81	152.68	24.77	-38.0	-40.1	22.0	0.00e+00	0	59	0	263716864	47	4611
2026-01-17 21:27:29.82	152.16	24.69	-37.9	-40.0	22.2	0.00e+00	0	59	0	264765440	47	4551
2026-01-17 21:27:30.83	151.65	24.62	-37.7	-39.7	22.4	0.00e+00	0	59	0	265814016	47	4430
2026-01-17 21:27:31.84	151.13	24.55	-37.6	-39.6	22.5	0.00e+00	0	59	0	267386880	47	4350
2026-01-17 21:27:32.85	150.62	24.47	-37.5	-39.5	22.6	0.00e+00	0	59	0	268435456	47	4316
2026-01-17 21:27:33.86	150.12	24.39	-37.7	-39.7	22.4	0.00e+00	0	59	0	269484032	47	4430
2026-01-17 21:27:34.87	149.61	24.31	-38.0	-40.0	22.1	0.00e+00	0	59	0	270532608	47	4594
2026-01-17 21:27:35.88	149.11	24.23	-38.2	-40.3	21.8	0.00e+00	0	59	0	271581184	47	4755
2026-01-17 21:27:36.89	148.62	24.14	-38.2	-40.3	21.9	0.00e+00	0	59	0	272629760	47	4718
2026-01-17 21:27:37.90	148.12	24.06	-37.9	-39.9	22.2	0.00e+00	0	59	0	274202624	47	4532
2026-01-17 21:27:38.90	147.64	23.97	-37.8	-39.9	22.3	0.00e+00	0	59	0	275251200	47	4502
2026-01-17 21:27:39.91	147.15	23.88	-37.7	-39.7	22.4	0.00e+00	0	59	0	276299776	47	4432
2026-01-17 21:27:40.92	146.67	23.79	-37.7	-39.7	22.5	0.00e+00	0	59	0	277348352	47	4415
2026-01-17 21:27:41.94	146.18	23.70	-37.8	-39.9	22.3	0.00e+00	0	59	0	278396928	47	4504
2026-01-17 21:27:42.95	145.70	23.60	-37.9	-39.9	22.2	0.00e+00	0	59	0	279445504	47	4533
2026-01-17 21:27:43.95	145.23	23.51	-37.9	-39.9	22.2	0.00e+00	0	59	0	281018368	47	4516
2026-01-17 21:27:44.96	144.76	23.41	-37.9	-40.0	22.2	0.00e+00	0	59	0	282066944	47	4551
2026-01-17 21:27:45.97	144.29	23.31	-37.6	-39.6	22.5	0.00e+00	0	59	0	283115520	47	4371
2026-01-17 21:27:46.98	143.83	23.22	-37.4	-39.3	22.8	0.00e+00	0	59	0	284164096	46	4459
2026-01-17 21:27:47.99	143.37	23.12	-37.2	-39.0	23.1	0.00e+00	0	59	0	285212672	46	4332
2026-01-17 21:27:49.00	142.91	23.01	-37.2	-39.1	23.0	0.00e+00	0	59	0	286261248	46	4379
2026-01-17 21:27:50.01	142.46	22.91	-37.4	-39.4	22.7	0.00e+00	0	59	0	287834112	46	4508
2026-01-17 21:27:51.02	142.01	22.81	-37.7	-39.7	22.4	0.00e+00	0	59	0	288882688	46	4697
2026-01-17 21:27:52.03	141.56	22.70	-38.0	-40.1	22.0	0.00e+00	0	59	0	289931264	46	4879
2026-01-17 21:27:53.04	141.12	22.60	-37.9	-40.0	22.2	0.00e+00	0	59	0	290979840	46	4834
2026-01-17 21:27:54.05	140.68	22.49	-37.8	-39.8	22.3	0.00e+00	0	59	0	292028416	46	4754
2026-01-17 21:27:55.06	140.24	22.38	-37.7	-39.7	22.4	0.00e+00	0	59	0	293076992	46	4674
2026-01-17 21:27:56.07	139.81	22.28	-37.4	-39.4	22.7	0.00e+00	0	59	0	294649856	46	4510
2026-01-17 21:27:57.08	139.38	22.17	-37.4	-39.3	22.8	0.00e+00	0	59	0	295698432	46	4457
2026-01-17 21:27:58.08	138.96	22.06	-37.6	-39.5	22.6	0.00e+00	0	59	0	296747008	46	4596
2026-01-17 21:27:59.09	138.54	21.95	-37.6	-39.6	22.5	0.00e+00	0	59	0	297795584	46	4634
2026-01-17 21:28:00.10	138.12	21.84	-38.1	-40.2	21.9	0.00e+00	0	59	0	298844160	46	4944
2026-01-17 21:28:01.11	137.71	21.72	-38.3	-40.4	21.7	0.00e+00	0	59	0	299892736	47	4781
2026-01-17 21:28:02.12	137.30	21.61	-38.3	-40.5	21.7	0.00e+00	0	59	0	300941312	47	4817
2026-01-17 21:28:03.13	136.89	21.50	-38.3	-40.4	21.7	0.00e+00	0	59	0	302514176	47	4793
2026-01-17 21:28:04.14	136.49	21.38	-38.3	-40.4	21.7	0.00e+00	0	59	0	303562752	47	4791
2026-01-17 21:28:05.15	136.09	21.27	-38.0	-40.1	22.0	0.00e+00	0	59	0	304611328	47	4630
2026-01-17 21:28:06.16	135.69	21.15	-37.9	-39.9	22.2	0.00e+00	0	59	0	305659904	47	4512
2026-01-17 21:28:07.17	135.30	21.04	-37.9	-39.9	22.2	0.00e+00	0	59	0	306708480	47	4544
2026-01-17 21:28:08.18	134.91	20.92	-38.0	-40.1	22.0	0.00e+00	0	59	0	308281344	47	4631
2026-01-17 21:28:09.19	134.52	20.80	-38.1	-40.3	21.8	0.00e+00	0	59	0	309329920	47	4708
2026-01-17 21:28:10.20	134.14	20.69	-38.2	-40.4	21.7	0.00e+00	0	59	0	310378496	47	4784
2026-01-17 21:28:11.21	133.76	20.57	-38.2	-40.4	21.7	0.00e+00	0	59	0	311427072	47	4789
2026-01-17 21:28:12.22	133.39	20.45	-38.2	-40.3	21.8	0.00e+00	0	59	0	312475648	47	4742
2026-01-17 21:28:13.23	133.01	20.33	-38.2	-40.4	21.6	0.00e+00	0	59	0	313524224	47	4791
2026-01-17 21:28:14.24	132.65	20.21	-38.1	-40.3	21.5	0.00e+00	0	59	0	315097088	47	4755
2026-01-17 21:28:15.25	132.28	20.09	-38.4	-40.6	21.3	0.00e+00	0	59	0	316145664	47	4918
2026-01-17 21:28:16.26	131.92	19.98	-38.3	-40.5	21.4	0.00e+00	0	59	0	317194240	47	4844
2026-01-17 21:28:17.26	131.57	19.86	-38.3	-40.5	21.5	0.00e+00	0	59	0	318242816	47	4858
2026-01-17 21:28:18.27	131.21	19.74	-37.7	-40.5	21.3	0.00e+00	0	59	0	319291392	47	4846
2026-01-17 21:28:19.28	130.86	19.62	-37.8	-40.5	21.0	0.00e+00	0	59	0	320339968	46	5123
2026-01-17 21:28:20.29	130.51	19.50	-38.5	-40.8	21.1	1.10e-06	0	59	0	321912832	47	4985
2026-01-17 21:28:21.30	130.17	19.38	-38.5	-40.7	21.1	1.10e-06	0	59	0	322961408	47	4970
2026-01-17 21:28:22.31	129.82	19.26	-38.6	-40.9	21.0	0.00e+00	0	59	0	324009984	47	5060
2026-01-17 21:28:23.32	129.49	19.14	-38.5	-40.8	21.1	0.00e+00	0	59	0	325058560	47	5018
2026-01-17 21:28:24.33	129.15	19.02	-37.2	-41.0	19.4	4.34e-05	0	59	0	326107136	46	5431
2026-01-17 21:28:25.34	128.82	18.90	-38.3	-40.8	20.6	4.34e-05	0	59	0	327155712	47	5029
2026-01-17 21:28:26.35	128.49	18.78	-38.2	-40.8	20.6	1.14e-05	0	59	0	328728576	47	5037
2026-01-17 21:28:27.36	128.17	18.66	-37.4	-40.8	16.5	1.10e-06	0	59	0	329777152	44	5990
2026-01-17 21:28:28.37	127.84	18.54	-38.4	-40.7	20.8	1.10e-06	0	59	0	330825728	47	4979
2026-01-17 21:28:29.38	127.52	18.42	-38.2	-40.6	20.5	1.37e-04	0	59	0	331874304	47	4879
2026-01-17 21:28:30.39	127.21	18.30	-38.0	-40.6	21.2	0.00e+00	0	59	0	332922880	47	4875
2026-01-17 21:28:31.40	126.90	18.18	-38.4	-40.7	20.3	0.00e+00	0	59	0	333971456	47	4942
2026-01-17 21:28:32.41	126.59	18.06	-38.6	-41.0	20.5	1.10e-06	0	59	0	335544320	47	5154
2026-01-17 21:28:33.42	126.28	17.94	-38.7	-41.1	20.5	0.00e+00	0	59	0	336592896	47	5197
2026-01-17 21:28:34.43	125.98	17.82	-38.8	-41.2	20.6	0.00e+00	0	59	0	337641472	48	4946
2026-01-17 21:28:35.44	125.67	17.70	-38.9	-41.3	20.4	0.00e+00	0	59	0	338690048	48	5021
2026-01-17 21:28:36.45	125.38	17.58	-38.6	-41.2	20.4	0.00e+00	0	59	0	339738624	48	4978
2026-01-17 21:28:37.46	125.08	17.46	-38.8	-41.2	20.5	0.00e+00	0	59	0	340787200	48	4982
2026-01-17 21:28:38.47	124.79	17.34	-38.9	-41.3	20.5	0.00e+00	0	59	0	341835776	48	5017
2026-01-17 21:28:39.48	124.50	17.22	-38.9	-41.5	20.3	0.00e+00	0	59	0	343408640	48	5103
2026-01-17 21:28:40.49	124.21	17.10	-38.9	-41.3	20.4	0.00e+00	0	59	0	344457216	48	5034
2026-01-17 21:28:41.50	123.93	16.99	-38.9	-41.3	20.5	0.00e+00	0	60	0	345505792	48	5033
2026-01-17 21:28:42.51	123.65	16.87	-39.0	-41.5	20.3	0.00e+00	0	59	0	346554368	48	5122
2026-01-17 21:28:43.52	123.37	16.75	-38.7	-41.2	20.4	0.00e+00	0	59	0	347602944	48	4955
2026-01-17 21:28:44.53	123.10	16.63	-38.8	-41.2	20.6	0.00e+00	0	59	0	349175808	48	4955
2026-01-17 21:28:45.54	122.82	16.51	-38.8	-41.3	20.4	0.00e+00	0	60	0	350224384	48	4990
2026-01-17 21:28:46.55	122.55	16.40	-39.0	-41.5	20.3	0.00e+00	0	59	0	351272960	48	5111
2026-01-17 21:28:47.56	122.29	16.28	-39.2	-41.7	18.5	0.00e+00	0	59	0	352321536	48	5253
2026-01-17 21:28:48.57	122.02	16.16	-39.2	-41.7	18.6	1.21e-04	0	59	0	353370112	48	5224
2026-01-17 21:28:49.58	121.76	16.05	-39.2	-41.7	19.9	1.46e-04	0	60	0	354418688	48	5274
2026-01-17 21:28:50.59	121.50	15.93	-39.1	-41.6	20.0	0.00e+00	0	59	0	355991552	48	5196
2026-01-17 21:28:51.60	121.24	15.82	-39.0	-41.6	20.0	0.00e+00	0	59	0	357040128	48	5160
2026-01-17 21:28:52.61	120.99	15.70	-39.2	-41.7	19.6	6.80e-06	0	59	0	358088704	48	5253
2026-01-17 21:28:53.62	120.74	15.58	-39.2	-41.9	17.2	2.52e-04	0	59	0	359137280	43	7164
2026-01-17 21:28:54.63	120.49	15.47	-39.5	-42.2	17.1	2.52e-04	0	59	0	360185856	48	5587
2026-01-17 21:28:55.64	120.24	15.36	-39.2	-42.1	19.3	1.28e-03	0	59	0	361234432	49	5165
2026-01-17 21:28:56.64	120.00	15.24	-39.4	-42.2	19.2	6.40e-05	0	59	0	362807296	49	5272
2026-01-17 21:28:57.65	119.75	15.13	-38.7	-42.6	17.4	6.40e-05	0	59	0	363855872	49	5495
2026-01-17 21:28:58.67	119.51	15.01	-38.9	-42.3	18.9	2.06e-03	0	59	0	364904448	49	5313
2026-01-17 21:28:59.67	119.28	14.90	-39.3	-42.9	17.3	5.65e-04	0	59	0	365953024	48	6001
2026-01-17 21:29:00.68	119.04	14.79	-36.5	-42.8	13.9	5.65e-04	0	59	0	367001600	46	6692
2026-01-17 21:29:01.69	118.81	14.68	-38.3	-42.4	17.2	4.21e-03	0	60	0	368050176	47	6011
2026-01-17 21:29:02.70	118.58	14.57	-38.9	-42.2	17.9	1.98e-03	0	59	0	369623040	48	5592
2026-01-17 21:29:03.71	118.35	14.45	-33.4	-42.1	14.0	1.79e-03	0	60	0	370671616	39	9198
2026-01-17 21:29:04.72	118.12	14.34	-39.2	-42.2	18.3	1.79e-03	0	60	0	371720192	49	5257
2026-01-17 21:29:05.73	117.90	14.23	-38.7	-42.1	18.7	1.73e-03	0	59	0	372768768	48	5507
2026-01-17 21:29:06.74	117.68	14.12	-39.4	-42.6	18.4	1.60e-05	0	59	0	373817344	49	5475
2026-01-17 21:29:07.75	117.46	14.01	-39.6	-42.6	18.3	1.60e-05	0	59	0	374865920	49	5528
2026-01-17 21:29:08.76	117.24	13.90	-39.5	-42.8	18.1	2.71e-04	0	59	0	375914496	49	5634
2026-01-17 21:29:09.77	117.02	13.79	-35.3	-42.8	14.4	1.14e-04	0	60	0	377487360	43	7961
2026-01-17 21:29:10.78	116.81	13.68	-38.8	-43.2	16.6	1.14e-04	0	59	0	378535936	49	5894
2026-01-17 21:29:11.79	116.60	13.58	-39.2	-43.2	15.9	8.09e-04	0	59	0	379584512	46	7033
2026-01-17 21:29:12.80	116.39	13.47	-39.9	-42.9	18.5	1.32e-04	0	59	0	380633088	50	5342
2026-01-17 21:29:13.80	116.18	13.36	-39.5	-42.9	17.2	1.32e-04	0	59	0	381681664	50	5341
2026-01-17 21:29:14.81	115.98	13.25	-39.8	-42.7	18.7	1.29e-04	0	59	0	382730240	50	5272
2026-01-17 21:29:15.82	115.77	13.15	-39.8	-42.9	18.0	3.40e-06	0	60	0	384303104	50	5352
2026-01-17 21:29:16.83	115.57	13.04	-39.9	-42.8	18.4	1.37e-05	0	60	0	385351680	50	5320
2026-01-17 21:29:17.84	115.37	12.93	-40.0	-43.1	18.4	1.37e-05	0	60	0	386400256	50	5474
2026-01-17 21:29:18.85	115.17	12.83	-40.1	-43.2	18.3	0.00e+00	0	60	0	387448832	50	5556
2026-01-17 21:29:19.86	114.98	12.72	-40.1	-43.2	18.3	0.00e+00	0	59	0	388497408	50	5556
2026-01-17 21:29:20.87	114.78	12.62	-40.2	-43.3	18.2	0.00e+00	0	60	0	389545984	50	5630
2026-01-17 21:29:21.88	114.59	12.51	-40.1	-43.2	18.2	0.00e+00	0	60	0	391118848	50	5571
2026-01-17 21:29:22.89	114.40	12.41	-38.9	-43.1	17.9	0.00e+00	0	60	0	392167424	50	5527
2026-01-17 21:29:23.91	114.21	12.30	-39.4	-43.2	18.0	0.00e+00	0	59	0	393216000	50	5533
2026-01-17 21:29:24.92	114.02	12.20	-38.6	-43.2	17.3	1.10e-06	0	59	0	394264576	49	5891
2026-01-17 21:29:25.93	113.83	12.10	-38.6	-43.1	17.1	8.58e-05	0	60	0	395313152	48	6170
2026-01-17 21:29:26.94	113.65	12.00	-38.8	-43.3	15.9	9.76e-04	0	59	0	396886016	48	6285
2026-01-17 21:29:27.95	113.47	11.89	-37.8	-42.9	15.7	9.76e-04	0	60	0	397934592	45	7187
2026-01-17 21:29:28.96	113.29	11.79	-36.6	-42.9	15.8	1.00e-03	0	60	0	398983168	45	7202
2026-01-17 21:29:29.97	113.11	11.69	-38.5	-43.3	15.6	1.27e-03	0	60	0	400031744	47	6673
2026-01-17 21:29:30.98	112.93	11.59	-38.1	-43.2	16.2	1.27e-03	0	60	0	401080320	47	6614
2026-01-17 21:29:31.99	112.76	11.49	-34.0	-43.0	10.8	3.50e-03	0	60	0	402128896	37	11456
2026-01-17 21:29:33.00	112.58	11.39	-37.0	-43.4	13.9	3.43e-02	0	59	0	403701760	43	8519
2026-01-17 21:29:34.01	112.41	11.29	-37.8	-44.0	13.2	3.43e-02	0	60	0	404750336	45	8099
2026-01-17 21:29:35.02	112.24	11.19	-37.6	-43.7	14.3	2.08e-02	0	60	0	405798912	46	7440
2026-01-17 21:29:36.03	112.07	11.09	-35.6	-43.1	11.3	4.05e-02	0	59	0	406847488	39	10376
2026-01-17 21:29:37.04	111.90	10.99	-37.1	-43.2	14.3	4.05e-02	0	60	0	407896064	44	7863
2026-01-17 21:29:38.05	111.74	10.90	-36.4	-44.3	12.5	5.03e-02	0	60	0	408944640	45	8417
2026-01-17 21:29:39.06	111.57	10.80	-37.0	-43.5	13.3	3.43e-02	0	60	0	409993216	43	8612
2026-01-17 21:29:40.07	111.41	10.70	-33.3	-43.2	9.4	7.35e-02	0	60	0	411041792	39	10533
2026-01-17 21:29:41.08	111.25	10.61	-36.7	-43.5	13.7	7.35e-02	0	59	0	412614656	43	8659
2026-01-17 21:29:42.09	111.09	10.51	-36.8	-44.1	12.4	7.82e-02	0	60	0	413663232	44	8662
2026-01-17 21:29:43.10	110.93	10.41	-36.6	-43.9	12.9	5.43e-02	0	60	0	414711808	40	10749
2026-01-17 21:29:44.11	110.77	10.32	-30.4	-43.6	10.5	5.43e-02	0	60	0	415760384	38	11669
2026-01-17 21:29:45.12	110.61	10.22	-36.2	-44.3	12.2	2.00e-01	0	60	0	416808960	43	9496
2026-01-17 21:29:46.13	110.46	10.13	-36.2	-44.6	10.9	1.65e-01	0	60	0	417857536	42	10384
2026-01-17 21:29:47.13	110.31	10.03	-35.2	-44.7	7.8	1.65e-01	0	60	0	418906112	35	15759
2026-01-17 21:29:48.14	110.16	9.94	-32.0	-42.7	9.1	8.94e-02	0	59	0	419954688	31	15706
2026-01-17 21:29:49.15	110.00	9.85	-37.2	-44.2	13.1	1.47e-01	0	60	0	421003264	44	8817
2026-01-17 21:29:50.16	109.86	9.75	-27.4	-42.8	10.7	1.47e-01	0	60	0	422051840	31	15874
2026-01-17 21:29:51.17	109.71	9.66	-37.4	-44.5	13.3	7.18e-02	0	59	0	423100416	43	9697
2026-01-17 21:29:52.18	109.56	9.57	-34.2	-44.2	8.8	3.25e-02	0	60	0	424148992	36	13967
2026-01-17 21:29:53.19	109.42	9.48	-36.9	-44.0	11.5	2.19e-01	0	60	0	425197568	43	9119
2026-01-17 21:29:54.20	109.27	9.38	-37.1	-44.3	13.4	2.19e-01	0	60	0	426246144	44	8879
2026-01-17 21:29:55.21	109.13	9.29	-36.4	-44.2	12.0	5.68e-02	0	60	0	427294720	42	9882
2026-01-17 21:29:56.22	108.99	9.20	-35.4	-44.6	10.5	1.39e-01	0	60	0	428343296	41	11015
2026-01-17 21:29:57.23	108.85	9.11	-37.4	-44.5	12.5	1.39e-01	0	60	0	429391872	44	9126
2026-01-17 21:29:58.24	108.71	9.02	-32.1	-43.7	12.1	5.61e-02	0	60	0	430440448	39	11044
2026-01-17 21:29:59.25	108.57	8.93	-35.9	-44.9	10.9	1.22e-01	0	60	0	431489024	43	10147
2026-01-17 21:30:00.26	108.43	8.84	-35.9	-44.6	10.6	1.22e-01	0	60	0	433061888	42	10321
2026-01-17 21:30:01.27	108.29	8.75	-36.1	-44.9	12.3	6.76e-02	0	60	0	434110464	45	9022
2026-01-17 21:30:02.28	108.16	8.66	-37.1	-45.6	11.9	3.97e-02	0	60	0	435159040	46	9246
2026-01-17 21:30:03.29	108.03	8.57	-37.7	-45.7	12.3	3.97e-02	0	60	0	436207616	46	9332
2026-01-17 21:30:04.30	107.89	8.49	-37.3	-45.9	9.4	2.37e-02	0	60	0	437256192	44	10710
2026-01-17 21:30:05.31	107.76	8.40	-38.5	-45.4	12.5	7.42e-02	0	60	0	438304768	46	9060
2026-01-17 21:30:06.32	107.63	8.31	-38.0	-45.6	12.1	2.96e-02	0	60	0	439353344	47	8710
2026-01-17 21:30:07.33	107.50	8.22	-39.1	-45.3	13.2	2.96e-02	0	60	0	440926208	46	8959
2026-01-17 21:30:08.34	107.38	8.14	-37.9	-45.0	12.5	8.63e-03	0	60	0	441974784	45	9089
2026-01-17 21:30:09.34	107.25	8.05	-39.4	-45.6	12.9	6.00e-03	0	60	0	443023360	47	8758
2026-01-17 21:30:10.35	107.12	7.97	-42.8	-60.2	4.0	6.00e-03	0	60	104	443547648	55	29384
2026-01-17 21:30:11.36	107.00	7.88	-44.7	-62.8	3.8	5.24e-01	0	60	104	443547648	60	29970
2026-01-17 21:30:12.37	106.87	7.80	-45.0	-63.1	3.8	8.46e-01	0	60	104	443547648	60	31023
2026-01-17 21:30:13.39	106.75	7.71	-45.2	-63.4	3.9	8.46e-01	0	60	104	443547648	61	30153
2026-01-17 21:30:14.40	106.63	7.63	-45.4	-63.6	3.8	8.48e-01	0	60	104	443547648	61	30787
2026-01-17 21:30:15.40	106.51	7.54	-45.5	-63.7	3.8	8.46e-01	0	60	104	443547648	61	31275
2026-01-17 21:30:16.41	106.39	7.46	-45.7	-63.9	3.8	8.46e-01	0	60	104	443547648	61	31942
2026-01-17 21:30:17.42	106.27	7.37	-45.8	-64.0	3.8	8.44e-01	0	60	104	443547648	62	30508
2026-01-17 21:30:18.43	106.15	7.29	-45.9	-64.1	3.8	8.46e-01	0	60	104	443547648	62	30763
2026-01-17 21:30:19.44	106.03	7.21	-45.9	-64.1	3.8	8.47e-01	0	60	104	443547648	62	30768
2026-01-17 21:30:20.45	105.92	7.12	-45.8	-63.9	3.8	8.47e-01	0	60	104	443547648	62	30338
2026-01-17 21:30:21.47	105.80	7.04	-45.7	-63.9	3.8	8.46e-01	0	60	104	443547648	62	30114
2026-01-17 21:30:22.48	105.69	6.96	-45.6	-63.8	3.8	8.47e-01	0	60	104	443547648	62	29841
2026-01-17 21:30:23.49	105.57	6.88	-45.6	-63.7	3.8	8.47e-01	0	60	104	443547648	62	29560
2026-01-17 21:30:24.50	105.46	6.80	-45.5	-63.7	3.8	8.46e-01	0	60	104	443547648	62	29403
2026-01-17 21:30:25.51	105.35	6.72	-45.5	-63.6	3.8	8.46e-01	0	60	104	443547648	62	29174
2026-01-17 21:30:26.52	105.24	6.63	-45.4	-63.5	3.8	8.46e-01	0	60	104	443547648	62	28824
2026-01-17 21:30:27.53	105.13	6.55	-45.4	-63.5	3.8	8.47e-01	0	60	104	443547648	62	28813
2026-01-17 21:30:28.54	105.02	6.47	-45.4	-63.5	3.8	8.47e-01	0	60	104	443547648	62	28858
2026-01-17 21:30:29.56	104.91	6.39	-45.4	-63.5	3.8	8.47e-01	0	60	104	443547648	62	28735
2026-01-17 21:30:30.57	104.80	6.31	-45.4	-63.5	3.8	8.46e-01	0	60	104	443547648	62	28767
2026-01-17 21:30:31.58	104.70	6.23	-45.4	-63.5	3.8	8.46e-01	0	60	104	443547648	62	28783
2026-01-17 21:30:32.59	104.59	6.16	-45.4	-63.5	3.8	8.48e-01	0	60	104	443547648	62	28813
2026-01-17 21:30:33.60	104.49	6.08	-45.4	-63.5	3.8	8.48e-01	0	60	104	443547648	62	28741
2026-01-17 21:30:34.61	104.38	6.00	-45.4	-63.5	3.8	8.46e-01	0	60	104	443547648	62	28773
2026-01-17 21:30:35.62	104.28	5.92	-45.4	-63.5	3.8	8.46e-01	0	60	104	443547648	62	28728
2026-01-17 21:30:36.63	104.18	5.84	-45.4	-63.5	3.8	8.46e-01	0	60	104	443547648	62	28756
2026-01-17 21:30:37.64	104.08	5.76	-45.4	-63.5	3.8	8.45e-01	0	60	104	443547648	62	28735
2026-01-17 21:30:38.65	103.97	5.69	-45.4	-63.5	3.8	8.46e-01	0	60	104	443547648	62	28783
2026-01-17 21:30:39.66	103.87	5.61	-45.4	-63.4	3.8	8.46e-01	0	60	104	443547648	62	28652
2026-01-17 21:30:40.68	103.77	5.53	-45.2	-63.4	3.8	8.46e-01	0	60	104	443547648	61	30288
2026-01-17 21:30:41.69	103.68	5.46	-45.3	-63.4	3.8	8.45e-01	0	60	104	443547648	61	30320
2026-01-17 21:30:42.70	103.58	5.38	-45.3	-63.4	3.8	8.47e-01	0	60	104	443547648	61	30349
2026-01-17 21:30:43.71	103.48	5.30	-45.3	-63.4	3.8	8.47e-01	0	60	104	443547648	61	30231
2026-01-17 21:30:44.72	103.38	5.23	-45.3	-63.4	3.8	8.46e-01	0	60	104	443547648	61	30326
2026-01-17 21:30:45.73	103.29	5.15	-45.3	-63.4	3.8	8.46e-01	0	60	104	443547648	61	30239
2026-01-17 21:30:46.74	103.19	5.08	-45.3	-63.4	3.8	8.46e-01	0	60	104	443547648	61	30275
2026-01-17 21:30:47.75	103.10	5.00	-45.3	-63.4	3.8	8.45e-01	0	60	104	443547648	61	30174
2026-01-17 21:30:48.76	103.01	4.93	-45.3	-63.4	3.8	8.47e-01	0	60	104	443547648	61	30214
2026-01-17 21:30:49.77	102.91	4.86	-45.3	-63.4	3.8	8.47e-01	0	60	104	443547648	61	30283
2026-01-17 21:30:50.78	102.82	4.78	-45.3	-63.4	3.8	8.46e-01	0	60	104	443547648	61	30221
2026-01-17 21:30:51.79	102.73	4.71	-45.3	-63.4	3.8	8.47e-01	0	60	104	443547648	61	30216
2026-01-17 21:30:52.80	102.64	4.63	-45.3	-63.4	3.8	8.47e-01	0	60	104	443547648	61	30186
2026-01-17 21:30:53.82	102.55	4.56	-45.3	-63.4	3.8	8.46e-01	0	60	104	443547648	61	30211
2026-01-17 21:30:54.83	102.46	4.49	-45.3	-63.4	3.8	8.46e-01	0	60	104	443547648	61	30165
2026-01-17 21:30:55.84	102.37	4.41	-45.3	-63.4	3.8	8.45e-01	0	60	104	443547648	61	30220
2026-01-17 21:30:56.85	102.28	4.34	-45.3	-63.4	3.8	8.45e-01	0	60	104	443547648	61	30140
2026-01-17 21:30:57.86	102.19	4.27	-45.3	-63.4	3.8	8.47e-01	0	60	104	443547648	61	30157
2026-01-17 21:30:58.87	102.11	4.20	-45.3	-63.4	3.8	8.45e-01	0	60	104	443547648	61	30054
2026-01-17 21:30:59.88	102.02	4.13	-45.3	-63.3	3.8	8.45e-01	0	60	104	443547648	61	30021
2026-01-17 21:31:00.89	101.93	4.05	-45.3	-63.4	3.8	8.45e-01	0	60	104	443547648	61	30087
2026-01-17 21:31:01.90	101.85	3.98	-45.3	-63.4	3.8	8.46e-01	0	60	104	443547648	61	30073
2026-01-17 21:31:02.91	101.76	3.91	-45.3	-63.3	3.8	8.46e-01	0	60	104	443547648	61	30002
2026-01-17 21:31:03.92	101.68	3.84	-45.3	-63.4	3.8	8.48e-01	0	60	104	443547648	61	30106
2026-01-17 21:31:04.93	101.60	3.77	-45.3	-63.4	3.8	8.46e-01	0	60	104	443547648	61	30071
2026-01-17 21:31:05.94	101.51	3.70	-45.3	-63.4	3.8	8.46e-01	0	60	104	443547648	61	30042
2026-01-17 21:31:06.96	101.43	3.63	-45.3	-63.4	3.8	8.46e-01	0	60	104	443547648	61	30063
2026-01-17 21:31:07.97	101.35	3.56	-45.3	-63.3	3.8	8.45e-01	0	60	104	443547648	61	30029
2026-01-17 21:31:08.98	101.27	3.49	-45.3	-63.3	3.8	8.47e-01	0	60	104	443547648	61	30028
2026-01-17 21:31:09.99	101.19	3.42	-45.3	-63.3	3.8	8.47e-01	0	60	104	443547648	61	29960
2026-01-17 21:31:11.00	101.11	3.35	-45.3	-63.3	3.8	8.46e-01	0	60	104	443547648	61	29997
2026-01-17 21:31:12.01	101.03	3.28	-45.1	-63.3	3.8	8.46e-01	0	60	104	443547648	61	30005
2026-01-17 21:31:13.02	100.95	3.21	-45.3	-63.3	3.8	8.46e-01	0	60	104	443547648	61	29992
2026-01-17 21:31:14.03	100.87	3.14	-45.2	-63.3	3.8	8.46e-01	0	60	104	443547648	61	29954
2026-01-17 21:31:15.04	100.80	3.08	-45.3	-63.4	3.8	8.46e-01	0	60	104	443547648	61	30039
2026-01-17 21:31:16.05	100.72	3.01	-45.3	-63.3	3.8	8.46e-01	0	60	104	443547648	61	29993
2026-01-17 21:31:17.07	100.64	2.94	-45.3	-63.3	3.8	8.46e-01	0	60	104	443547648	61	29971
2026-01-17 21:31:18.08	100.56	2.87	-45.3	-63.3	3.8	8.47e-01	0	60	104	443547648	61	30010
2026-01-17 21:31:19.09	100.49	2.80	-45.3	-63.3	3.8	8.47e-01	0	60	104	443547648	61	30011
2026-01-17 21:31:20.10	100.41	2.74	-45.3	-63.4	3.8	8.47e-01	0	60	104	443547648	61	30044
2026-01-17 21:31:21.11	100.34	2.67	-45.2	-63.3	3.8	8.47e-01	0	60	104	443547648	61	30020
2026-01-17 21:31:22.12	100.27	2.60	-45.2	-63.3	3.8	8.45e-01	0	60	104	443547648	61	29951
2026-01-17 21:31:23.13	100.19	2.54	-45.3	-63.4	3.8	8.45e-01	0	60	104	443547648	61	30050
2026-01-17 21:31:24.14	100.12	2.47	-45.2	-63.3	3.8	8.46e-01	0	60	104	443547648	61	30015
2026-01-17 21:31:25.16	100.05	2.40	-45.3	-63.3	3.8	8.45e-01	0	60	104	443547648	61	29906
2026-01-17 21:31:26.16	99.97	2.34	-45.2	-63.3	3.8	8.45e-01	0	60	104	443547648	61	29996
2026-01-17 21:31:27.18	99.90	2.27	-45.2	-63.3	3.8	8.46e-01	0	60	104	443547648	61	30013
2026-01-17 21:31:28.19	99.83	2.21	-45.3	-63.4	3.8	8.47e-01	0	60	104	443547648	61	30033
2026-01-17 21:31:29.20	99.76	2.14	-45.3	-63.3	3.8	8.47e-01	0	60	104	443547648	61	30009
2026-01-17 21:31:30.21	99.69	2.08	-45.2	-63.4	3.8	8.46e-01	0	60	104	443547648	61	30037
2026-01-17 21:31:31.22	99.62	2.01	-45.2	-63.3	3.8	8.46e-01	0	60	104	443547648	61	29932
2026-01-17 21:31:32.23	99.55	1.95	-45.3	-63.3	3.8	8.46e-01	0	60	104	443547648	61	29963
2026-01-17 21:31:33.24	99.48	1.88	-45.3	-63.3	3.8	8.46e-01	0	60	104	443547648	61	29873

#Closed at: 2026-01-17 21:31:33
#Recorded file [443 MB]: D:/lorett/data/31039_260118_002228.dat