passes_logs/2026/01/17/R2.0S_Moscow/R2.0S_Moscow__20260117_104842_NOAA_20_JPSS-1_rec.log

#Pass ID: 20260117_104842_NOAA 20 (JPSS-1)
#Satellite: NOAA 20 (JPSS-1)
#Configuration: NOAA 20
#almurnet v.1.7.20251203
#Start time: 2026-01-17 10:48:43

#Version: 2.2.20231116
#Station: R2.0S_Moscow
#Location: 37.707566 lon 55.798166 lat
#TLE: 1 43013U 17073A   26016.24631778  .00000038  00000+0  39093-4 0  9990
#TLE: 2 43013  98.7637 317.1726 0001455  37.6755 322.4523 14.19536243422915

#Time	Az	El	Level	Level2	SNR	BER	BlckErr	Temp	State	Recorded	gain1	gain2
2026-01-17 10:48:43.70	187.00	2.07	-44.2	-58.6	3.8	1.49e+00	0	52	0	0	59	19432
2026-01-17 10:48:44.70	187.04	2.13	-44.1	-58.7	3.8	1.49e+00	0	53	104	0	60	18640
2026-01-17 10:48:45.71	187.09	2.20	-44.1	-58.6	3.8	1.49e+00	0	53	104	0	60	18499
2026-01-17 10:48:46.73	187.13	2.26	-44.1	-58.7	3.8	1.49e+00	0	53	104	0	60	18620
2026-01-17 10:48:47.74	187.17	2.32	-44.1	-58.7	3.8	1.49e+00	0	53	104	0	60	18595
2026-01-17 10:48:48.75	187.22	2.38	-44.1	-58.6	3.8	1.49e+00	0	53	104	0	60	18488
2026-01-17 10:48:49.76	187.26	2.45	-44.1	-58.7	3.8	1.49e+00	0	53	104	0	60	18537
2026-01-17 10:48:50.77	187.31	2.51	-44.1	-58.6	3.8	1.49e+00	0	53	104	0	60	18477
2026-01-17 10:48:51.78	187.35	2.57	-44.0	-58.7	3.8	1.49e+00	0	53	104	0	60	18584
2026-01-17 10:48:52.79	187.40	2.63	-44.1	-58.6	3.8	1.49e+00	0	53	104	0	60	18511
2026-01-17 10:48:53.80	187.44	2.70	-44.1	-58.7	3.8	1.49e+00	0	53	104	0	60	18537
2026-01-17 10:48:54.81	187.49	2.76	-44.1	-58.6	3.8	1.49e+00	0	53	104	0	60	18490
2026-01-17 10:48:55.82	187.53	2.82	-44.1	-58.7	3.8	1.49e+00	0	53	104	0	60	18560
2026-01-17 10:48:56.84	187.58	2.89	-44.1	-58.6	3.8	1.49e+00	0	53	104	0	60	18505
2026-01-17 10:48:57.85	187.62	2.95	-44.1	-58.7	3.8	1.49e+00	0	54	104	0	60	18545
2026-01-17 10:48:58.86	187.67	3.02	-44.1	-58.7	3.8	1.49e+00	0	54	104	0	60	18521
2026-01-17 10:48:59.87	187.71	3.08	-44.0	-58.7	3.8	1.49e+00	0	54	104	0	60	18545
2026-01-17 10:49:00.88	187.76	3.14	-44.1	-58.6	3.8	1.49e+00	0	54	104	0	60	18507
2026-01-17 10:49:01.89	187.81	3.21	-44.1	-58.5	3.8	1.49e+00	0	54	104	0	59	19344
2026-01-17 10:49:02.90	187.85	3.27	-44.1	-58.6	3.8	1.49e+00	0	54	104	0	59	19422
2026-01-17 10:49:03.91	187.90	3.34	-44.1	-58.5	3.8	1.49e+00	0	54	104	0	59	19317
2026-01-17 10:49:04.92	187.95	3.40	-44.1	-58.5	3.8	1.49e+00	0	54	104	0	59	19340
2026-01-17 10:49:05.93	187.99	3.47	-44.1	-58.5	3.8	1.49e+00	0	54	104	0	59	19385
2026-01-17 10:49:06.94	188.04	3.53	-44.1	-58.5	3.8	1.49e+00	0	54	104	0	59	19324
2026-01-17 10:49:07.95	188.09	3.60	-44.1	-58.5	3.8	1.49e+00	0	54	104	0	59	19385
2026-01-17 10:49:08.96	188.14	3.66	-44.1	-58.5	3.8	1.49e+00	0	54	104	0	59	19339
2026-01-17 10:49:09.97	188.18	3.73	-44.1	-58.5	3.8	1.49e+00	0	55	104	0	59	19368
2026-01-17 10:49:10.98	188.23	3.79	-44.1	-58.5	3.8	1.49e+00	0	55	104	0	59	19378
2026-01-17 10:49:11.99	188.28	3.86	-44.1	-58.5	3.8	1.49e+00	0	54	104	0	59	19301
2026-01-17 10:49:13.00	188.33	3.93	-44.1	-58.5	3.8	1.49e+00	0	55	104	0	59	19341
2026-01-17 10:49:14.01	188.38	3.99	-44.1	-58.5	3.8	1.49e+00	0	55	104	0	59	19321
2026-01-17 10:49:15.02	188.43	4.06	-44.1	-58.5	3.8	1.49e+00	0	54	104	0	59	19254
2026-01-17 10:49:16.03	188.48	4.12	-44.1	-58.5	3.8	1.49e+00	0	55	104	0	59	19317
2026-01-17 10:49:17.04	188.53	4.19	-44.1	-58.5	3.8	1.49e+00	0	55	104	0	59	19243
2026-01-17 10:49:18.05	188.58	4.26	-44.1	-58.5	3.8	1.49e+00	0	55	104	0	59	19278
2026-01-17 10:49:19.06	188.63	4.32	-44.1	-58.5	3.8	1.49e+00	0	55	104	0	59	19221
2026-01-17 10:49:20.07	188.68	4.39	-44.1	-58.5	3.8	1.49e+00	0	55	104	0	59	19193
2026-01-17 10:49:21.08	188.73	4.46	-44.1	-58.4	3.8	1.49e+00	0	55	104	0	59	19076
2026-01-17 10:49:22.10	188.78	4.52	-44.1	-58.4	3.8	1.49e+00	0	55	104	0	59	19086
2026-01-17 10:49:23.11	188.83	4.59	-44.1	-58.4	3.8	1.49e+00	0	55	104	0	59	19049
2026-01-17 10:49:24.12	188.88	4.66	-44.1	-58.3	3.8	1.49e+00	0	55	104	0	59	18924
2026-01-17 10:49:25.13	188.93	4.73	-44.1	-58.3	3.8	1.49e+00	0	55	104	0	59	18847
2026-01-17 10:49:26.14	188.98	4.79	-44.1	-58.4	3.8	1.49e+00	0	55	104	0	59	18969
2026-01-17 10:49:27.15	189.03	4.86	-44.1	-58.3	3.8	1.49e+00	0	55	104	0	59	18880
2026-01-17 10:49:28.16	189.08	4.93	-44.1	-58.3	3.8	1.49e+00	0	55	104	0	59	18900
2026-01-17 10:49:29.17	189.14	5.00	-44.1	-58.3	3.8	1.49e+00	0	55	104	0	59	18763
2026-01-17 10:49:30.18	189.19	5.07	-44.1	-58.2	3.8	1.49e+00	0	56	104	0	59	18653
2026-01-17 10:49:31.19	189.24	5.14	-44.1	-58.1	3.8	1.49e+00	0	55	104	0	59	18422
2026-01-17 10:49:32.20	189.29	5.20	-44.1	-57.9	3.8	1.49e+00	0	56	104	0	59	18065
2026-01-17 10:49:33.21	189.35	5.27	-44.1	-57.9	3.8	1.49e+00	0	56	104	0	59	17931
2026-01-17 10:49:34.23	189.40	5.34	-44.1	-57.8	3.8	1.49e+00	0	56	104	0	59	17717
2026-01-17 10:49:35.24	189.45	5.41	-44.1	-57.6	3.8	1.49e+00	0	56	104	0	59	17339
2026-01-17 10:49:36.25	189.51	5.48	-44.1	-57.3	3.8	1.49e+00	0	56	104	0	59	16831
2026-01-17 10:49:37.26	189.56	5.55	-44.0	-57.0	3.8	1.49e+00	0	56	104	0	59	16281
2026-01-17 10:49:38.27	189.62	5.62	-44.0	-56.8	3.8	1.49e+00	0	56	104	0	59	15932
2026-01-17 10:49:39.28	189.67	5.69	-44.0	-56.5	3.8	1.49e+00	0	56	104	0	59	15380
2026-01-17 10:49:40.29	189.72	5.76	-44.0	-56.1	4.0	1.49e+00	0	56	104	0	59	14704
2026-01-17 10:49:41.30	189.78	5.83	-43.9	-55.7	3.9	1.47e+00	0	56	104	0	59	14007
2026-01-17 10:49:42.31	189.83	5.90	-43.9	-55.3	4.1	1.47e+00	0	56	0	0	59	13293
2026-01-17 10:49:43.32	189.89	5.97	-43.9	-54.9	4.2	1.40e+00	0	56	0	0	59	12688
2026-01-17 10:49:44.33	189.95	6.04	-43.8	-54.6	4.3	1.37e+00	51	56	0	0	59	12298
2026-01-17 10:49:45.34	190.00	6.11	-43.8	-54.3	4.4	1.29e+00	63	56	0	1048576	59	11860
2026-01-17 10:49:46.35	190.06	6.18	-43.8	-54.3	4.4	1.20e+00	49	56	0	2097152	59	11881
2026-01-17 10:49:47.36	190.11	6.25	-43.8	-54.3	4.4	1.24e+00	83	56	0	4194304	59	11921
2026-01-17 10:49:48.37	190.17	6.33	-43.8	-54.0	4.5	1.12e+00	8	56	0	6291456	59	11521
2026-01-17 10:49:49.39	190.23	6.40	-43.8	-54.2	4.4	1.02e+00	50	56	0	8388608	59	11730
2026-01-17 10:49:50.40	190.29	6.47	-43.8	-54.3	4.4	1.17e+00	77	56	0	9437184	59	11820
2026-01-17 10:49:51.41	190.34	6.54	-43.8	-54.2	4.4	1.13e+00	57	56	0	11534336	59	11749
2026-01-17 10:49:52.42	190.40	6.61	-43.8	-54.5	4.3	1.30e+00	0	57	0	12582912	59	12222
2026-01-17 10:49:53.43	190.46	6.69	-43.8	-54.6	4.3	1.33e+00	29	56	0	13631488	59	12368
2026-01-17 10:49:54.44	190.52	6.76	-43.8	-54.7	4.3	1.36e+00	0	57	0	13631488	59	12404
2026-01-17 10:49:55.45	190.58	6.83	-43.8	-54.5	4.3	1.33e+00	23	57	0	13631488	59	12212
2026-01-17 10:49:56.46	190.63	6.90	-43.8	-54.4	4.4	1.32e+00	90	57	0	14680064	59	12009
2026-01-17 10:49:57.47	190.69	6.98	-43.8	-54.0	4.5	1.29e+00	8	57	0	16777216	59	11544
2026-01-17 10:49:58.48	190.75	7.05	-43.7	-53.5	4.7	9.71e-01	0	57	0	17825792	59	10863
2026-01-17 10:49:59.49	190.81	7.12	-43.7	-53.1	4.9	7.85e-01	0	57	0	19922944	59	10356
2026-01-17 10:50:00.50	190.87	7.20	-43.6	-52.3	5.4	5.86e-01	0	57	0	22020096	59	9452
2026-01-17 10:50:01.51	190.93	7.27	-43.4	-51.6	5.8	4.68e-01	0	57	0	24117248	58	9275
2026-01-17 10:50:02.52	190.99	7.34	-43.3	-51.0	6.3	2.69e-01	0	57	0	26214400	58	8589
2026-01-17 10:50:03.53	191.05	7.42	-43.2	-50.3	6.9	1.96e-01	0	57	0	27262976	58	7951
2026-01-17 10:50:04.54	191.12	7.49	-43.1	-49.9	7.3	1.55e-01	0	57	0	29360128	58	7618
2026-01-17 10:50:05.55	191.18	7.57	-42.9	-49.4	7.8	1.04e-01	0	57	0	31457280	57	7572
2026-01-17 10:50:06.56	191.24	7.64	-42.9	-49.2	8.0	6.37e-02	0	57	0	33554432	57	7418
2026-01-17 10:50:07.57	191.30	7.72	-42.7	-48.7	8.5	5.81e-02	0	57	0	35651584	57	7028
2026-01-17 10:50:08.58	191.36	7.79	-42.8	-48.7	8.4	4.71e-02	0	57	0	36700160	57	7034
2026-01-17 10:50:09.59	191.43	7.87	-42.7	-48.6	8.6	3.95e-02	0	57	0	38797312	57	6932
2026-01-17 10:50:10.60	191.49	7.94	-42.7	-48.7	8.4	4.19e-02	0	57	0	40894464	57	7018
2026-01-17 10:50:11.61	191.55	8.02	-42.8	-48.9	8.3	4.50e-02	0	57	0	42991616	57	7143
2026-01-17 10:50:12.62	191.62	8.09	-42.9	-49.0	8.5	4.87e-02	0	57	0	45088768	57	7243
2026-01-17 10:50:13.63	191.68	8.17	-43.6	-52.5	5.5	9.19e-02	0	57	0	46137344	57	10791
2026-01-17 10:50:14.64	191.74	8.25	-42.8	-48.8	8.5	1.49e+00	0	57	104	47185920	57	7054
2026-01-17 10:50:15.65	191.81	8.32	-43.2	-50.1	7.2	2.95e-01	0	57	0	48234496	58	7782
2026-01-17 10:50:16.66	191.87	8.40	-43.2	-50.5	7.0	1.04e-01	0	57	0	50331648	57	8630
2026-01-17 10:50:17.66	191.94	8.48	-43.1	-49.8	7.4	1.33e+00	0	57	0	51380224	58	7497
2026-01-17 10:50:18.67	192.00	8.55	-42.7	-48.4	8.9	2.90e-02	0	57	0	53477376	57	6793
2026-01-17 10:50:19.68	192.07	8.63	-42.7	-48.4	8.9	2.54e-02	0	58	0	55574528	57	6751
2026-01-17 10:50:20.69	192.14	8.71	-42.7	-48.4	8.8	2.64e-02	0	57	0	56623104	57	6768
2026-01-17 10:50:21.70	192.20	8.79	-42.6	-48.3	8.9	2.77e-02	0	58	0	58720256	57	6718
2026-01-17 10:50:22.71	192.27	8.86	-42.5	-48.2	8.9	2.47e-02	0	58	0	60817408	57	6595
2026-01-17 10:50:23.72	192.34	8.94	-42.5	-48.2	8.9	2.89e-02	0	58	0	62914560	57	6574
2026-01-17 10:50:24.73	192.40	9.02	-42.4	-48.1	8.9	2.90e-02	0	58	0	65011712	56	6925
2026-01-17 10:50:25.74	192.47	9.10	-42.4	-48.1	8.9	2.70e-02	0	58	0	66060288	56	6912
2026-01-17 10:50:26.75	192.54	9.18	-42.4	-48.1	8.8	3.15e-02	0	58	0	68157440	56	6944
2026-01-17 10:50:27.76	192.61	9.26	-42.3	-47.9	9.0	2.47e-02	0	58	0	70254592	56	6800
2026-01-17 10:50:28.77	192.68	9.34	-42.3	-47.9	9.1	2.06e-02	0	57	0	72351744	56	6756
2026-01-17 10:50:29.78	192.75	9.41	-42.3	-47.7	9.3	1.95e-02	0	58	0	74448896	56	6644
2026-01-17 10:50:30.79	192.82	9.49	-42.3	-47.8	9.3	2.04e-02	0	58	0	75497472	56	6670
2026-01-17 10:50:31.80	192.89	9.57	-42.3	-47.7	9.4	1.78e-02	0	57	0	77594624	56	6630
2026-01-17 10:50:32.81	192.96	9.65	-42.3	-47.7	9.4	1.61e-02	0	58	0	79691776	56	6618
2026-01-17 10:50:33.81	193.03	9.73	-42.4	-47.7	9.5	1.56e-02	0	58	0	81788928	56	6617
2026-01-17 10:50:34.82	193.10	9.81	-42.4	-47.7	9.6	1.41e-02	0	58	0	83886080	56	6592
2026-01-17 10:50:35.83	193.17	9.89	-42.4	-47.7	9.6	1.25e-02	0	58	0	85983232	56	6602
2026-01-17 10:50:36.84	193.24	9.98	-42.5	-47.7	9.7	1.20e-02	0	58	0	87031808	56	6591
2026-01-17 10:50:37.85	193.31	10.06	-42.5	-47.7	9.8	1.08e-02	0	58	0	89128960	56	6599
2026-01-17 10:50:38.86	193.39	10.14	-42.5	-47.6	9.9	9.31e-03	0	58	0	91226112	56	6564
2026-01-17 10:50:39.87	193.46	10.22	-42.5	-47.6	10.0	9.00e-03	0	58	0	93323264	56	6495
2026-01-17 10:50:40.88	193.53	10.30	-42.6	-47.7	9.9	8.17e-03	0	58	0	95420416	56	6588
2026-01-17 10:50:41.89	193.61	10.38	-42.6	-47.6	10.0	7.78e-03	0	58	0	96468992	56	6521
2026-01-17 10:50:42.90	193.68	10.47	-42.6	-47.6	10.0	7.88e-03	0	58	0	98566144	56	6502
2026-01-17 10:50:43.91	193.76	10.55	-42.6	-47.5	10.0	7.88e-03	0	58	0	100663296	56	6475
2026-01-17 10:50:44.92	193.83	10.63	-42.5	-47.5	9.9	8.23e-03	0	58	0	102760448	56	6475
2026-01-17 10:50:45.93	193.91	10.71	-42.5	-47.4	10.0	8.09e-03	0	58	0	104857600	56	6405
2026-01-17 10:50:46.94	193.98	10.80	-42.4	-47.4	9.9	8.94e-03	0	58	0	105906176	56	6383
2026-01-17 10:50:47.95	194.06	10.88	-42.3	-47.3	9.8	8.71e-03	0	58	0	108003328	56	6346
2026-01-17 10:50:48.95	194.14	10.96	-42.0	-47.3	9.5	1.14e-02	0	58	0	110100480	56	6329
2026-01-17 10:50:49.96	194.21	11.05	-41.7	-47.0	9.5	1.33e-02	0	58	0	112197632	55	6437
2026-01-17 10:50:50.97	194.29	11.13	-41.4	-46.9	9.2	1.70e-02	0	58	0	114294784	54	6785
2026-01-17 10:50:51.98	194.37	11.22	-41.1	-47.0	8.8	2.82e-02	0	59	0	115343360	54	6808
2026-01-17 10:50:52.99	194.45	11.30	-40.8	-47.0	8.4	3.95e-02	0	58	0	117440512	53	7233
2026-01-17 10:50:54.00	194.53	11.39	-40.5	-46.8	8.4	4.80e-02	0	58	0	119537664	53	7059
2026-01-17 10:50:55.01	194.60	11.47	-40.3	-46.8	8.0	6.16e-02	0	59	0	121634816	52	7521
2026-01-17 10:50:56.02	194.68	11.56	-40.1	-46.8	7.9	6.94e-02	0	58	0	123731968	52	7505
2026-01-17 10:50:57.03	194.76	11.64	-40.0	-46.9	7.6	8.49e-02	0	58	0	124780544	51	8005
2026-01-17 10:50:58.04	194.84	11.73	-39.8	-46.8	7.5	1.14e-01	0	58	0	126877696	51	7902
2026-01-17 10:50:59.05	194.93	11.82	-39.6	-46.7	7.3	1.25e-01	0	59	0	128974848	51	7884
2026-01-17 10:51:00.06	195.01	11.90	-39.5	-46.7	7.1	1.31e-01	0	58	0	131072000	50	8304
2026-01-17 10:51:01.07	195.09	11.99	-39.3	-46.6	6.9	1.59e-01	0	58	0	133169152	50	8216
2026-01-17 10:51:02.08	195.17	12.08	-39.2	-46.5	6.9	1.75e-01	0	59	0	134217728	50	8155
2026-01-17 10:51:03.08	195.25	12.16	-39.3	-46.5	6.9	1.80e-01	0	58	0	136314880	50	8154
2026-01-17 10:51:04.10	195.34	12.25	-39.4	-46.6	6.9	1.76e-01	0	59	0	138412032	50	8247
2026-01-17 10:51:05.11	195.42	12.34	-39.6	-46.6	7.1	1.57e-01	0	58	0	140509184	50	8236
2026-01-17 10:51:06.11	195.51	12.43	-39.8	-46.6	7.3	1.30e-01	0	58	0	142606336	50	8229
2026-01-17 10:51:07.12	195.59	12.51	-39.9	-46.6	7.6	1.06e-01	0	58	0	143654912	50	8183
2026-01-17 10:51:08.13	195.68	12.60	-40.3	-46.7	8.0	7.81e-02	0	59	0	145752064	51	7817
2026-01-17 10:51:09.14	195.76	12.69	-40.6	-46.7	8.5	4.71e-02	0	59	0	147849216	51	7868
2026-01-17 10:51:10.15	195.85	12.78	-40.9	-46.6	9.1	3.09e-02	0	59	0	149946368	52	7330
2026-01-17 10:51:11.16	195.94	12.87	-41.2	-46.6	9.6	1.49e-02	0	59	0	152043520	52	7320
2026-01-17 10:51:12.17	196.02	12.96	-41.3	-46.5	10.0	8.80e-03	0	59	0	154140672	53	6862
2026-01-17 10:51:13.18	196.11	13.05	-41.5	-46.5	10.3	7.21e-03	0	59	0	155189248	53	6852
2026-01-17 10:51:14.19	196.20	13.14	-41.7	-46.6	10.5	4.40e-03	0	59	0	157286400	53	6914
2026-01-17 10:51:15.20	196.29	13.23	-41.7	-46.6	10.7	3.72e-03	0	59	0	159383552	54	6504
2026-01-17 10:51:16.21	196.38	13.32	-41.8	-46.6	10.7	3.11e-03	0	59	0	161480704	54	6501
2026-01-17 10:51:17.22	196.47	13.41	-41.7	-46.4	10.8	2.66e-03	0	59	0	163577856	54	6362
2026-01-17 10:51:18.23	196.56	13.50	-41.7	-46.4	10.7	2.93e-03	0	59	0	164626432	54	6358
2026-01-17 10:51:19.24	196.65	13.60	-41.7	-46.4	10.4	3.37e-03	0	59	0	166723584	54	6400
2026-01-17 10:51:20.24	196.74	13.69	-41.5	-46.2	10.4	4.44e-03	0	59	0	168820736	54	6242
2026-01-17 10:51:21.25	196.83	13.78	-41.4	-46.2	10.1	6.11e-03	0	59	0	170917888	54	6231
2026-01-17 10:51:22.26	196.92	13.87	-41.3	-46.2	9.9	7.81e-03	0	59	0	173015040	54	6241
2026-01-17 10:51:23.27	197.02	13.96	-41.2	-46.2	9.7	9.76e-03	0	59	0	174063616	54	6207
2026-01-17 10:51:24.28	197.11	14.06	-41.0	-46.0	9.7	1.16e-02	0	59	0	176160768	54	6124
2026-01-17 10:51:25.29	197.21	14.15	-41.0	-46.1	9.5	1.41e-02	0	59	0	178257920	54	6149
2026-01-17 10:51:26.30	197.30	14.24	-41.0	-46.2	9.3	1.58e-02	0	59	0	180355072	53	6577
2026-01-17 10:51:27.31	197.40	14.34	-41.0	-46.1	9.5	1.52e-02	0	59	0	182452224	53	6500
2026-01-17 10:51:28.32	197.49	14.43	-41.1	-46.0	9.7	1.20e-02	0	59	0	183500800	53	6491
2026-01-17 10:51:29.33	197.59	14.53	-41.2	-46.1	9.9	1.05e-02	0	59	0	185597952	53	6503
2026-01-17 10:51:30.34	197.69	14.62	-41.3	-46.0	10.2	6.79e-03	0	59	0	187695104	53	6481
2026-01-17 10:51:31.35	197.78	14.72	-41.5	-46.1	10.3	5.51e-03	0	59	0	189792256	53	6557
2026-01-17 10:51:32.36	197.88	14.81	-41.5	-46.1	10.5	4.34e-03	0	59	0	191889408	53	6569
2026-01-17 10:51:33.36	197.98	14.91	-41.7	-46.2	10.8	2.81e-03	0	59	0	192937984	53	6634
2026-01-17 10:51:34.37	198.08	15.00	-41.9	-46.3	10.9	2.27e-03	0	59	0	195035136	54	6303
2026-01-17 10:51:35.38	198.18	15.10	-42.0	-46.4	11.0	1.79e-03	0	59	0	197132288	54	6364
2026-01-17 10:51:36.39	198.28	15.20	-42.1	-46.4	11.1	1.47e-03	0	59	0	199229440	54	6408
2026-01-17 10:51:37.40	198.38	15.29	-42.1	-46.4	11.2	1.47e-03	0	59	0	201326592	54	6415
2026-01-17 10:51:38.41	198.48	15.39	-42.1	-46.4	11.2	1.38e-03	0	59	0	202375168	54	6395
2026-01-17 10:51:39.42	198.59	15.49	-42.1	-46.4	11.2	1.30e-03	0	59	0	204472320	54	6412
2026-01-17 10:51:40.43	198.69	15.58	-42.2	-46.5	11.1	1.54e-03	0	59	0	206569472	54	6437
2026-01-17 10:51:41.44	198.80	15.68	-42.2	-46.5	11.1	1.65e-03	0	59	0	208666624	54	6473
2026-01-17 10:51:42.45	198.90	15.78	-42.1	-46.4	11.2	1.58e-03	0	59	0	210763776	54	6396
2026-01-17 10:51:43.46	199.01	15.88	-42.2	-46.6	11.0	1.72e-03	0	59	0	211812352	54	6495
2026-01-17 10:51:44.47	199.11	15.98	-42.2	-46.6	10.9	2.02e-03	0	59	0	213909504	55	6192
2026-01-17 10:51:45.48	199.22	16.08	-42.3	-46.6	11.0	1.82e-03	0	59	0	216006656	55	6199
2026-01-17 10:51:46.49	199.33	16.18	-42.2	-46.6	11.1	2.03e-03	0	59	0	218103808	55	6162
2026-01-17 10:51:47.50	199.43	16.28	-42.3	-46.6	11.1	1.79e-03	0	59	0	220200960	55	6180
2026-01-17 10:51:48.50	199.54	16.38	-42.3	-46.7	11.1	1.73e-03	0	59	0	222298112	55	6231
2026-01-17 10:51:49.51	199.65	16.48	-42.3	-46.6	11.3	1.40e-03	0	59	0	223346688	55	6153
2026-01-17 10:51:50.52	199.76	16.58	-42.3	-46.5	11.3	1.18e-03	0	59	0	225443840	55	6120
2026-01-17 10:51:51.53	199.87	16.68	-42.3	-46.6	11.3	1.10e-03	0	59	0	227540992	55	6153
2026-01-17 10:51:52.54	199.99	16.78	-42.2	-46.5	11.5	9.13e-04	0	59	0	229638144	55	6066
2026-01-17 10:51:53.55	200.10	16.88	-42.3	-46.5	11.4	1.00e-03	0	59	0	231735296	55	6094
2026-01-17 10:51:54.56	200.21	16.99	-42.2	-46.4	11.5	9.26e-04	0	59	0	232783872	55	6055
2026-01-17 10:51:55.57	200.32	17.09	-42.2	-46.3	11.6	7.07e-04	0	59	0	234881024	55	5990
2026-01-17 10:51:56.58	200.44	17.19	-42.2	-46.3	11.7	6.40e-04	0	59	0	236978176	55	5950
2026-01-17 10:51:57.59	200.56	17.29	-42.1	-46.2	11.8	4.99e-04	0	59	0	239075328	55	5878
2026-01-17 10:51:58.60	200.67	17.40	-42.2	-46.2	11.7	5.45e-04	0	59	0	240123904	55	5920
2026-01-17 10:51:59.61	200.79	17.50	-42.1	-46.2	11.8	4.80e-04	0	59	0	242221056	55	5858
2026-01-17 10:52:00.62	200.91	17.61	-42.1	-46.1	11.8	3.91e-04	0	59	0	244318208	55	5837
2026-01-17 10:52:01.63	201.02	17.71	-42.1	-46.1	11.8	4.11e-04	0	59	0	246415360	55	5841
2026-01-17 10:52:02.64	201.14	17.82	-42.1	-46.1	11.9	4.65e-04	0	59	0	248512512	55	5798
2026-01-17 10:52:03.65	201.26	17.92	-42.1	-46.0	11.9	4.26e-04	0	59	0	250609664	55	5773
2026-01-17 10:52:04.66	201.39	18.03	-42.1	-46.1	11.9	4.10e-04	0	59	0	251658240	55	5821
2026-01-17 10:52:05.67	201.51	18.13	-42.1	-46.1	11.9	3.81e-04	0	59	0	253755392	55	5809
2026-01-17 10:52:06.68	201.63	18.24	-42.1	-46.1	11.9	3.58e-04	0	59	0	255852544	55	5844
2026-01-17 10:52:07.69	201.75	18.34	-42.2	-46.2	11.8	4.55e-04	0	59	0	257949696	55	5899
2026-01-17 10:52:08.70	201.88	18.45	-42.2	-46.2	11.8	4.87e-04	0	59	0	260046848	55	5889
2026-01-17 10:52:09.71	202.00	18.56	-42.2	-46.3	11.7	5.68e-04	0	60	0	261095424	55	5941
2026-01-17 10:52:10.72	202.13	18.67	-42.2	-46.3	11.7	6.03e-04	0	60	0	263192576	55	5933
2026-01-17 10:52:11.73	202.26	18.77	-42.3	-46.5	11.5	7.00e-04	0	60	0	265289728	55	6072
2026-01-17 10:52:12.74	202.38	18.88	-42.3	-46.4	11.6	7.20e-04	0	59	0	267386880	55	6018
2026-01-17 10:52:13.75	202.51	18.99	-42.3	-46.5	11.5	8.70e-04	0	59	0	269484032	55	6108
2026-01-17 10:52:14.76	202.64	19.10	-42.4	-46.6	11.4	9.19e-04	0	59	0	270532608	55	6174
2026-01-17 10:52:15.77	202.77	19.21	-42.4	-46.6	11.4	9.67e-04	0	59	0	272629760	55	6169
2026-01-17 10:52:16.78	202.90	19.32	-42.4	-46.7	11.4	9.63e-04	0	59	0	274726912	55	6206
2026-01-17 10:52:17.79	203.04	19.43	-42.4	-46.6	11.4	1.15e-03	0	60	0	276824064	55	6172
2026-01-17 10:52:18.80	203.17	19.54	-42.5	-46.8	11.2	1.13e-03	0	60	0	278921216	55	6317
2026-01-17 10:52:19.81	203.30	19.65	-42.5	-46.8	11.2	1.23e-03	0	60	0	279969792	55	6331
2026-01-17 10:52:20.82	203.44	19.76	-42.5	-46.8	11.2	1.24e-03	0	60	0	282066944	55	6312
2026-01-17 10:52:21.83	203.58	19.87	-42.5	-46.8	11.2	1.47e-03	0	60	0	284164096	55	6345
2026-01-17 10:52:22.84	203.71	19.98	-42.5	-46.9	11.2	1.28e-03	0	60	0	286261248	55	6350
2026-01-17 10:52:23.85	203.85	20.10	-42.5	-46.8	11.2	1.38e-03	0	60	0	288358400	55	6337
2026-01-17 10:52:24.86	203.99	20.21	-42.5	-46.9	11.2	1.45e-03	0	60	0	290455552	55	6359
2026-01-17 10:52:25.87	204.13	20.32	-42.5	-46.9	11.2	1.46e-03	0	59	0	291504128	55	6352
2026-01-17 10:52:26.88	204.27	20.43	-42.5	-46.8	11.2	1.37e-03	0	59	0	293601280	55	6313
2026-01-17 10:52:27.88	204.41	20.55	-42.5	-46.9	11.2	1.28e-03	0	60	0	295698432	55	6360
2026-01-17 10:52:28.90	204.56	20.66	-42.5	-46.8	11.2	1.40e-03	0	60	0	297795584	55	6344
2026-01-17 10:52:29.91	204.70	20.77	-42.5	-46.9	11.1	1.37e-03	0	60	0	299892736	55	6395
2026-01-17 10:52:30.92	204.84	20.89	-42.6	-47.0	11.1	1.75e-03	0	60	0	300941312	55	6430
2026-01-17 10:52:31.93	204.99	21.00	-42.5	-46.8	11.3	1.34e-03	0	60	0	303038464	55	6301
2026-01-17 10:52:32.94	205.14	21.12	-42.5	-46.8	11.2	1.53e-03	0	60	0	305135616	55	6313
2026-01-17 10:52:33.95	205.29	21.23	-42.6	-46.9	11.1	1.44e-03	0	60	0	307232768	55	6419
2026-01-17 10:52:34.96	205.44	21.35	-42.5	-46.9	11.2	1.37e-03	0	60	0	309329920	55	6364
2026-01-17 10:52:35.96	205.58	21.46	-42.5	-46.9	11.2	1.33e-03	0	60	0	310378496	55	6362
2026-01-17 10:52:36.97	205.74	21.58	-42.5	-46.8	11.3	1.24e-03	0	60	0	312475648	55	6316
2026-01-17 10:52:37.98	205.89	21.70	-42.5	-46.8	11.3	1.17e-03	0	60	0	314572800	55	6291
2026-01-17 10:52:38.99	206.04	21.81	-42.5	-46.9	11.2	1.16e-03	0	60	0	316669952	55	6355
2026-01-17 10:52:40.00	206.20	21.93	-42.5	-46.8	11.3	1.13e-03	0	60	0	318767104	55	6332
2026-01-17 10:52:41.01	206.35	22.05	-42.5	-46.8	11.3	1.27e-03	0	60	0	319815680	55	6332
2026-01-17 10:52:42.02	206.51	22.17	-42.5	-46.9	11.2	1.27e-03	0	60	0	321912832	55	6356
2026-01-17 10:52:43.03	206.67	22.28	-42.6	-47.0	11.1	1.47e-03	0	60	0	324009984	55	6427
2026-01-17 10:52:44.04	206.83	22.40	-42.6	-47.0	11.1	1.51e-03	0	60	0	326107136	55	6465
2026-01-17 10:52:45.05	206.99	22.52	-42.6	-47.0	11.0	1.62e-03	0	60	0	328204288	55	6488
2026-01-17 10:52:46.06	207.15	22.64	-42.6	-47.0	11.0	1.69e-03	0	60	0	329252864	55	6480
2026-01-17 10:52:47.07	207.31	22.76	-42.6	-46.9	11.1	1.66e-03	0	60	0	331350016	55	6419
2026-01-17 10:52:48.08	207.48	22.88	-42.6	-46.9	11.1	1.51e-03	0	60	0	333447168	55	6411
2026-01-17 10:52:49.09	207.64	23.00	-42.6	-46.9	11.2	1.40e-03	0	60	0	335544320	55	6381
2026-01-17 10:52:50.10	207.81	23.12	-42.6	-46.9	11.2	1.24e-03	0	60	0	337641472	55	6385
2026-01-17 10:52:51.11	207.98	23.24	-42.5	-46.9	11.3	1.28e-03	0	60	0	338690048	55	6352
2026-01-17 10:52:52.12	208.15	23.36	-42.6	-46.9	11.2	1.40e-03	0	60	0	340787200	55	6407
2026-01-17 10:52:53.13	208.32	23.49	-42.6	-47.0	11.1	1.71e-03	0	60	0	342884352	55	6463
2026-01-17 10:52:54.14	208.49	23.61	-42.6	-47.0	11.2	1.51e-03	0	60	0	344981504	55	6435
2026-01-17 10:52:55.14	208.66	23.73	-42.6	-46.9	11.2	1.49e-03	0	60	0	347078656	55	6418
2026-01-17 10:52:56.16	208.84	23.85	-42.6	-47.0	11.2	1.32e-03	0	60	0	348127232	55	6432
2026-01-17 10:52:57.16	209.01	23.97	-42.6	-46.9	11.3	1.39e-03	0	60	0	350224384	55	6364
2026-01-17 10:52:58.17	209.19	24.10	-42.6	-46.8	11.3	1.12e-03	0	60	0	352321536	55	6316
2026-01-17 10:52:59.18	209.37	24.22	-42.6	-46.9	11.2	1.24e-03	0	60	0	354418688	55	6409
2026-01-17 10:53:00.20	209.55	24.35	-42.6	-46.9	11.3	1.22e-03	0	60	0	356515840	55	6376
2026-01-17 10:53:01.20	209.73	24.47	-42.6	-47.0	11.2	1.36e-03	0	60	0	358612992	55	6429
2026-01-17 10:53:02.21	209.91	24.59	-42.7	-47.0	11.1	1.48e-03	0	60	0	359661568	55	6485
2026-01-17 10:53:03.22	210.10	24.72	-42.7	-47.1	11.1	1.57e-03	0	60	0	361758720	55	6524
2026-01-17 10:53:04.23	210.28	24.84	-42.9	-47.3	11.0	1.98e-03	0	60	0	363855872	56	6344
2026-01-17 10:53:05.24	210.47	24.97	-42.9	-47.5	10.8	2.27e-03	0	60	0	365953024	56	6461
2026-01-17 10:53:06.25	210.66	25.09	-42.9	-47.5	10.8	2.37e-03	0	60	0	367001600	56	6436
2026-01-17 10:53:07.26	210.85	25.22	-42.9	-47.5	10.8	2.47e-03	0	60	0	369098752	56	6439
2026-01-17 10:53:08.27	211.04	25.34	-42.9	-47.5	10.9	2.15e-03	0	60	0	371195904	56	6435
2026-01-17 10:53:09.28	211.23	25.47	-42.9	-47.4	11.0	2.04e-03	0	60	0	373293056	56	6363
2026-01-17 10:53:10.29	211.43	25.60	-42.9	-47.4	10.9	2.03e-03	0	60	0	375390208	56	6372
2026-01-17 10:53:11.30	211.62	25.72	-43.0	-47.6	10.7	2.57e-03	0	60	0	377487360	56	6539
2026-01-17 10:53:12.31	211.82	25.85	-43.0	-47.5	10.8	2.70e-03	0	60	0	378535936	56	6461
2026-01-17 10:53:13.32	212.02	25.98	-43.0	-47.5	10.8	2.88e-03	0	60	0	380633088	56	6491
2026-01-17 10:53:14.33	212.22	26.11	-43.0	-47.7	10.6	3.16e-03	0	60	0	382730240	56	6624
2026-01-17 10:53:15.34	212.42	26.23	-43.0	-47.7	10.7	2.95e-03	0	60	0	384827392	56	6580
2026-01-17 10:53:16.35	212.63	26.36	-43.0	-47.5	10.8	2.91e-03	0	60	0	386924544	56	6485
2026-01-17 10:53:17.36	212.83	26.49	-42.9	-47.5	10.9	2.29e-03	0	60	0	387973120	56	6446
2026-01-17 10:53:18.37	213.04	26.62	-43.1	-47.7	10.6	2.96e-03	0	60	0	390070272	56	6646
2026-01-17 10:53:19.38	213.25	26.75	-43.0	-47.7	10.6	3.49e-03	0	60	0	392167424	56	6630
2026-01-17 10:53:20.39	213.46	26.88	-43.0	-47.6	10.7	3.38e-03	0	60	0	394264576	56	6567
2026-01-17 10:53:21.40	213.67	27.01	-43.0	-47.5	10.8	2.81e-03	0	60	0	396361728	56	6475
2026-01-17 10:53:22.41	213.88	27.13	-43.0	-47.5	10.8	2.59e-03	0	60	0	397410304	56	6483
2026-01-17 10:53:23.42	214.10	27.26	-43.0	-47.6	10.7	2.81e-03	0	60	0	399507456	56	6560
2026-01-17 10:53:24.43	214.32	27.39	-43.1	-47.8	10.5	3.56e-03	0	60	0	401604608	56	6700
2026-01-17 10:53:25.44	214.54	27.52	-43.1	-47.8	10.5	3.83e-03	0	60	0	403701760	56	6685
2026-01-17 10:53:26.45	214.76	27.65	-43.2	-48.0	10.3	4.01e-03	0	60	0	405798912	56	6852
2026-01-17 10:53:27.46	214.98	27.78	-43.1	-47.9	10.4	4.68e-03	0	60	0	406847488	56	6766
2026-01-17 10:53:28.47	215.20	27.91	-43.1	-47.9	10.4	4.54e-03	0	60	0	408944640	56	6771
2026-01-17 10:53:29.48	215.43	28.04	-43.1	-47.8	10.5	4.48e-03	0	60	0	411041792	56	6706
2026-01-17 10:53:30.49	215.66	28.18	-43.0	-47.8	10.4	3.87e-03	0	60	0	413138944	56	6663
2026-01-17 10:53:31.50	215.89	28.31	-43.1	-47.9	10.4	5.04e-03	0	60	0	415236096	56	6768
2026-01-17 10:53:32.51	216.12	28.44	-43.1	-47.8	10.5	4.22e-03	0	60	0	416284672	56	6700
2026-01-17 10:53:33.52	216.35	28.57	-43.1	-47.9	10.4	4.30e-03	0	60	0	418381824	56	6737
2026-01-17 10:53:34.53	216.59	28.70	-43.1	-47.8	10.6	3.69e-03	0	60	0	420478976	56	6689
2026-01-17 10:53:35.54	216.82	28.83	-43.1	-47.8	10.5	3.69e-03	0	60	0	422576128	56	6670
2026-01-17 10:53:36.55	217.06	28.96	-43.1	-47.7	10.6	3.81e-03	0	60	0	424673280	56	6627
2026-01-17 10:53:37.55	217.30	29.09	-43.1	-47.8	10.5	3.91e-03	0	60	0	426770432	56	6696
2026-01-17 10:53:38.56	217.54	29.22	-43.1	-47.9	10.5	3.99e-03	0	60	0	427819008	56	6725
2026-01-17 10:53:39.57	217.79	29.35	-43.1	-47.9	10.4	4.52e-03	0	60	0	429916160	56	6788
2026-01-17 10:53:40.59	218.04	29.49	-43.1	-47.9	10.5	4.33e-03	0	60	0	432013312	56	6730
2026-01-17 10:53:41.60	218.29	29.62	-43.1	-47.9	10.5	4.23e-03	0	60	0	434110464	56	6732
2026-01-17 10:53:42.60	218.54	29.75	-43.1	-47.9	10.4	4.03e-03	0	60	0	436207616	56	6752
2026-01-17 10:53:43.61	218.79	29.88	-43.2	-47.9	10.4	4.37e-03	0	60	0	437256192	56	6795
2026-01-17 10:53:44.62	219.04	30.01	-43.2	-47.9	10.4	4.54e-03	0	60	0	439353344	56	6798
2026-01-17 10:53:45.63	219.30	30.14	-43.2	-48.1	10.2	5.31e-03	0	60	0	441450496	57	6504
2026-01-17 10:53:46.64	219.56	30.28	-43.3	-48.2	10.2	6.02e-03	0	60	0	443547648	57	6620
2026-01-17 10:53:47.65	219.82	30.41	-43.2	-48.0	10.3	5.09e-03	0	60	0	444596224	57	6455
2026-01-17 10:53:48.65	220.08	30.54	-43.2	-48.0	10.4	4.99e-03	0	60	0	446693376	57	6437
2026-01-17 10:53:49.66	220.35	30.67	-43.1	-47.9	10.4	4.40e-03	0	60	0	448790528	57	6399
2026-01-17 10:53:50.67	220.61	30.80	-43.1	-47.9	10.4	4.20e-03	0	60	0	450887680	57	6368
2026-01-17 10:53:51.68	220.88	30.93	-43.2	-47.9	10.5	4.47e-03	0	60	0	452984832	57	6386
2026-01-17 10:53:52.69	221.15	31.06	-43.1	-47.9	10.5	4.37e-03	0	60	0	455081984	57	6379
2026-01-17 10:53:53.71	221.43	31.20	-43.2	-48.0	10.3	5.32e-03	0	60	0	456130560	57	6469
2026-01-17 10:53:54.71	221.70	31.33	-43.2	-48.1	10.2	5.55e-03	0	60	0	458227712	57	6503
2026-01-17 10:53:55.72	221.98	31.46	-43.3	-48.2	10.1	5.33e-03	0	60	0	460324864	57	6632
2026-01-17 10:53:56.73	222.26	31.59	-43.3	-48.2	10.1	7.04e-03	0	60	0	462422016	57	6613
2026-01-17 10:53:57.74	222.54	31.72	-43.3	-48.2	10.1	6.06e-03	0	60	0	464519168	57	6623
2026-01-17 10:53:58.76	222.83	31.85	-43.3	-48.2	10.1	6.66e-03	0	60	0	465567744	57	6617
2026-01-17 10:53:59.76	223.12	31.98	-43.4	-48.5	9.9	8.36e-03	0	60	0	467664896	57	6802
2026-01-17 10:54:00.77	223.41	32.11	-43.4	-48.6	9.7	1.06e-02	0	60	0	469762048	57	6888
2026-01-17 10:54:01.78	223.70	32.24	-43.5	-48.9	9.5	1.24e-02	0	61	0	471859200	57	7140
2026-01-17 10:54:02.79	223.99	32.37	-43.6	-49.1	9.2	1.80e-02	0	60	0	473956352	57	7326
2026-01-17 10:54:03.80	224.29	32.50	-43.7	-49.3	9.0	2.47e-02	0	60	0	475004928	57	7518
2026-01-17 10:54:04.81	224.59	32.62	-43.6	-49.2	9.1	2.29e-02	0	60	0	477102080	57	7389
2026-01-17 10:54:05.82	224.89	32.75	-43.7	-49.3	8.9	2.32e-02	0	60	0	479199232	57	7514
2026-01-17 10:54:06.83	225.19	32.88	-43.7	-49.3	8.9	2.59e-02	0	60	0	481296384	57	7536
2026-01-17 10:54:07.84	225.50	33.01	-43.7	-49.4	8.9	2.72e-02	0	60	0	483393536	57	7567
2026-01-17 10:54:08.85	225.80	33.14	-43.7	-49.3	8.9	2.86e-02	0	60	0	484442112	57	7541
2026-01-17 10:54:09.86	226.11	33.26	-43.8	-49.7	8.6	3.16e-02	0	60	0	486539264	58	7397
2026-01-17 10:54:10.87	226.43	33.39	-43.8	-49.7	8.5	3.53e-02	0	60	0	488636416	58	7449
2026-01-17 10:54:11.88	226.74	33.52	-43.9	-49.9	8.3	4.70e-02	0	60	0	490733568	58	7620
2026-01-17 10:54:12.89	227.06	33.64	-43.9	-50.1	8.2	5.54e-02	0	60	0	492830720	58	7787
2026-01-17 10:54:13.89	227.38	33.77	-44.0	-50.2	8.1	6.58e-02	0	60	0	493879296	58	7850
2026-01-17 10:54:14.90	227.70	33.89	-44.0	-50.4	7.9	7.04e-02	0	60	0	495976448	58	8053
2026-01-17 10:54:15.91	228.02	34.02	-44.1	-50.6	7.6	8.77e-02	0	60	0	498073600	58	8258
2026-01-17 10:54:16.92	228.35	34.14	-44.1	-50.8	7.5	1.03e-01	0	60	0	500170752	58	8422
2026-01-17 10:54:17.93	228.68	34.27	-44.1	-50.9	7.4	1.08e-01	0	60	0	502267904	58	8473
2026-01-17 10:54:18.94	229.01	34.39	-44.2	-51.0	7.3	1.14e-01	0	60	0	503316480	58	8614
2026-01-17 10:54:19.95	229.35	34.51	-44.1	-50.6	7.7	1.02e-01	0	60	0	505413632	58	8223
2026-01-17 10:54:20.96	229.68	34.63	-44.1	-50.6	7.7	9.30e-02	0	61	0	507510784	58	8192
2026-01-17 10:54:21.97	230.02	34.75	-44.0	-50.3	8.0	7.82e-02	0	60	0	509607936	58	7922
2026-01-17 10:54:22.98	230.36	34.87	-44.0	-50.5	7.8	7.44e-02	0	60	0	511705088	58	8101
2026-01-17 10:54:23.99	230.71	34.99	-44.0	-50.4	7.8	7.71e-02	0	60	0	512753664	58	8056
2026-01-17 10:54:25.00	231.06	35.11	-44.0	-50.5	7.8	7.37e-02	0	60	0	514850816	58	8089
2026-01-17 10:54:26.01	231.40	35.23	-44.0	-50.4	7.9	7.79e-02	0	61	0	516947968	58	8064
2026-01-17 10:54:27.02	231.76	35.35	-44.0	-50.5	7.8	7.92e-02	0	61	0	519045120	58	8106
2026-01-17 10:54:28.03	232.11	35.47	-44.0	-50.4	7.9	8.23e-02	0	60	0	521142272	58	8032
2026-01-17 10:54:29.04	232.47	35.58	-44.1	-50.6	7.8	8.75e-02	0	61	0	523239424	58	8184
2026-01-17 10:54:30.05	232.83	35.70	-44.0	-50.3	8.0	7.30e-02	0	60	0	524288000	58	7925
2026-01-17 10:54:31.05	233.19	35.81	-44.0	-50.2	8.1	6.35e-02	0	60	0	526385152	58	7829
2026-01-17 10:54:32.06	233.55	35.93	-43.9	-50.0	8.3	5.15e-02	0	60	0	528482304	58	7642
2026-01-17 10:54:33.07	233.92	36.04	-43.9	-49.8	8.4	4.68e-02	0	60	0	530579456	58	7505
2026-01-17 10:54:34.08	234.29	36.15	-43.8	-49.6	8.7	3.89e-02	0	60	0	532676608	58	7353
2026-01-17 10:54:35.09	234.66	36.26	-43.8	-49.7	8.6	3.55e-02	0	61	0	533725184	58	7456
2026-01-17 10:54:36.10	235.03	36.37	-43.9	-49.8	8.5	4.00e-02	0	60	0	535822336	58	7530
2026-01-17 10:54:37.11	235.41	36.48	-43.9	-50.1	8.2	5.36e-02	0	61	0	537919488	58	7797
2026-01-17 10:54:38.12	235.79	36.59	-44.0	-50.3	8.0	6.24e-02	0	60	0	540016640	58	7956
2026-01-17 10:54:39.13	236.17	36.69	-44.0	-50.3	8.0	6.58e-02	0	60	0	542113792	58	7901
2026-01-17 10:54:40.14	236.56	36.80	-43.9	-49.9	8.4	5.31e-02	0	61	0	543162368	58	7547
2026-01-17 10:54:41.15	236.94	36.91	-43.7	-49.4	8.9	3.60e-02	0	60	0	545259520	58	7152
2026-01-17 10:54:42.16	237.33	37.01	-43.6	-49.1	9.3	1.94e-02	0	60	0	547356672	58	6895
2026-01-17 10:54:43.17	237.72	37.11	-43.5	-48.6	9.7	1.35e-02	0	61	0	549453824	58	6540
2026-01-17 10:54:44.18	238.12	37.21	-43.4	-48.4	10.0	8.77e-03	0	61	0	551550976	58	6381
2026-01-17 10:54:45.19	238.51	37.31	-43.4	-48.4	10.0	8.29e-03	0	61	0	552599552	58	6405
2026-01-17 10:54:46.20	238.91	37.41	-43.4	-48.5	9.8	9.65e-03	0	60	0	554696704	58	6467
2026-01-17 10:54:47.21	239.31	37.51	-43.4	-48.6	9.8	1.02e-02	0	61	0	556793856	58	6510
2026-01-17 10:54:48.22	239.72	37.61	-43.4	-48.5	9.8	9.77e-03	0	61	0	558891008	58	6446
2026-01-17 10:54:49.23	240.12	37.70	-43.3	-48.1	10.2	7.63e-03	0	60	0	560988160	58	6189
2026-01-17 10:54:50.24	240.53	37.79	-43.1	-47.7	10.6	4.89e-03	0	61	0	562036736	58	5899
2026-01-17 10:54:51.25	240.94	37.89	-43.1	-47.6	10.8	2.66e-03	0	61	0	564133888	58	5828
2026-01-17 10:54:52.25	241.35	37.98	-43.1	-47.7	10.7	2.67e-03	0	61	0	566231040	58	5876
2026-01-17 10:54:53.26	241.76	38.07	-43.2	-48.0	10.3	3.87e-03	0	61	0	568328192	58	6116
2026-01-17 10:54:54.27	242.18	38.16	-43.4	-48.4	9.9	6.36e-03	0	60	0	570425344	58	6362
2026-01-17 10:54:55.28	242.60	38.24	-43.4	-48.5	9.8	9.67e-03	0	61	0	571473920	58	6480
2026-01-17 10:54:56.29	243.02	38.33	-43.4	-48.5	9.8	9.83e-03	0	61	0	573571072	58	6473
2026-01-17 10:54:57.30	243.45	38.41	-43.4	-48.4	9.9	9.02e-03	0	60	0	575668224	58	6419
2026-01-17 10:54:58.31	243.87	38.49	-43.4	-48.5	9.9	9.30e-03	0	60	0	577765376	58	6448
2026-01-17 10:54:59.32	244.30	38.57	-43.5	-48.7	9.6	1.17e-02	0	61	0	579862528	58	6629
2026-01-17 10:55:00.33	244.73	38.65	-43.5	-48.6	9.7	1.20e-02	0	60	0	580911104	58	6534
2026-01-17 10:55:01.34	245.16	38.73	-43.4	-48.3	10.0	9.36e-03	0	61	0	583008256	58	6296
2026-01-17 10:55:02.35	245.60	38.81	-43.3	-48.2	10.2	5.49e-03	0	60	0	585105408	58	6241
2026-01-17 10:55:03.36	246.03	38.88	-43.3	-48.2	10.2	5.93e-03	0	60	0	587202560	58	6241
2026-01-17 10:55:04.37	246.47	38.95	-43.4	-48.5	9.8	7.66e-03	0	61	0	589299712	58	6473
2026-01-17 10:55:05.38	246.91	39.02	-43.5	-48.8	9.5	1.30e-02	0	61	0	591396864	58	6692
2026-01-17 10:55:06.39	247.35	39.09	-43.5	-48.6	9.7	1.19e-02	0	61	0	592445440	58	6553
2026-01-17 10:55:07.40	247.80	39.16	-43.5	-48.8	9.5	1.21e-02	0	60	0	594542592	58	6671
2026-01-17 10:55:08.41	248.24	39.23	-43.5	-48.7	9.6	1.09e-02	0	61	0	596639744	58	6575
2026-01-17 10:55:09.42	248.69	39.29	-43.5	-48.6	9.7	1.07e-02	0	60	0	598736896	58	6551
2026-01-17 10:55:10.42	249.13	39.35	-43.3	-48.3	10.1	8.92e-03	0	61	0	600834048	58	6279
2026-01-17 10:55:11.43	249.58	39.41	-43.3	-48.2	10.2	7.03e-03	0	60	0	601882624	58	6234
2026-01-17 10:55:12.44	250.03	39.47	-43.2	-47.9	10.4	5.80e-03	0	61	0	603979776	58	6053
2026-01-17 10:55:13.45	250.49	39.53	-43.1	-47.7	10.6	4.10e-03	0	60	0	606076928	58	5917
2026-01-17 10:55:14.46	250.94	39.58	-43.2	-47.8	10.5	3.52e-03	0	60	0	608174080	58	5973
2026-01-17 10:55:15.47	251.40	39.63	-43.4	-48.5	10.0	6.36e-03	0	60	0	610271232	58	6424
2026-01-17 10:55:16.48	251.86	39.68	-43.5	-48.7	9.5	9.19e-03	0	61	0	611319808	58	6640
2026-01-17 10:55:17.49	252.32	39.73	-43.6	-49.0	9.2	1.75e-02	0	60	0	613416960	58	6868
2026-01-17 10:55:18.50	252.78	39.78	-43.5	-48.8	9.5	1.76e-02	0	61	0	615514112	58	6698
2026-01-17 10:55:19.51	253.24	39.82	-43.4	-48.5	9.8	1.37e-02	0	60	0	617611264	58	6468
2026-01-17 10:55:20.52	253.70	39.87	-43.3	-48.2	10.2	8.26e-03	0	61	0	619708416	58	6229
2026-01-17 10:55:21.53	254.17	39.91	-43.3	-48.1	10.3	5.63e-03	0	61	0	620756992	58	6165
2026-01-17 10:55:22.54	254.63	39.95	-43.3	-48.0	10.3	5.84e-03	0	60	0	622854144	58	6128
2026-01-17 10:55:23.55	255.10	39.98	-43.4	-48.5	9.8	6.41e-03	0	60	0	624951296	58	6477
2026-01-17 10:55:24.56	255.57	40.02	-43.6	-48.9	9.4	1.35e-02	0	61	0	627048448	58	6775
2026-01-17 10:55:25.56	256.03	40.05	-43.7	-49.2	9.0	2.19e-02	0	61	0	629145600	58	7017
2026-01-17 10:55:26.57	256.50	40.08	-43.8	-49.6	8.6	3.11e-02	0	61	0	630194176	58	7335
2026-01-17 10:55:27.58	256.97	40.11	-43.7	-49.2	9.1	2.69e-02	0	61	0	632291328	58	6986
2026-01-17 10:55:28.59	257.44	40.13	-43.6	-49.0	9.3	1.76e-02	0	61	0	634388480	58	6835
2026-01-17 10:55:29.60	257.91	40.16	-43.6	-48.9	9.4	1.78e-02	0	61	0	636485632	58	6753
2026-01-17 10:55:30.61	258.39	40.18	-43.6	-48.9	9.4	1.48e-02	0	60	0	638582784	58	6739
2026-01-17 10:55:31.62	258.86	40.20	-43.9	-49.7	8.6	2.82e-02	0	61	0	639631360	58	7429
2026-01-17 10:55:32.63	259.33	40.22	-44.1	-50.7	7.6	6.27e-02	0	61	0	641728512	58	8312
2026-01-17 10:55:33.64	259.81	40.23	-44.3	-51.3	7.1	1.13e-01	0	61	0	643825664	59	8408
2026-01-17 10:55:34.65	260.28	40.25	-44.4	-51.8	6.6	1.94e-01	0	60	0	645922816	59	8955
2026-01-17 10:55:35.66	260.75	40.26	-44.4	-51.8	6.6	2.17e-01	0	61	0	648019968	59	8863
2026-01-17 10:55:36.67	261.23	40.27	-44.4	-51.8	6.6	2.00e-01	0	61	0	649068544	59	8920
2026-01-17 10:55:37.68	261.70	40.27	-44.3	-51.4	7.0	1.90e-01	0	61	0	651165696	59	8470
2026-01-17 10:55:38.69	262.18	40.28	-44.2	-50.9	7.4	1.34e-01	0	61	0	653262848	59	8023
2026-01-17 10:55:39.70	262.66	40.28	-44.1	-50.5	7.8	8.94e-02	0	61	0	655360000	59	7705
2026-01-17 10:55:40.71	263.13	40.28	-44.0	-50.5	7.8	9.52e-02	0	61	0	657457152	59	7673
2026-01-17 10:55:41.72	263.61	40.28	-44.0	-50.4	7.9	6.49e-02	0	61	0	659554304	59	7584
2026-01-17 10:55:42.73	264.08	40.28	-44.0	-50.3	8.0	7.83e-02	0	60	0	660602880	59	7542
2026-01-17 10:55:43.74	264.56	40.27	-43.9	-50.0	8.3	5.84e-02	0	60	0	662700032	59	7207
2026-01-17 10:55:44.75	265.03	40.26	-43.8	-49.6	8.6	4.20e-02	0	60	0	664797184	59	6929
2026-01-17 10:55:45.76	265.51	40.25	-43.7	-49.3	9.0	2.99e-02	0	61	0	666894336	59	6655
2026-01-17 10:55:46.77	265.98	40.24	-43.5	-48.8	9.4	1.70e-02	0	61	0	668991488	59	6339
2026-01-17 10:55:47.78	266.45	40.22	-43.5	-48.8	9.6	1.43e-02	0	61	0	670040064	59	6302
2026-01-17 10:55:48.79	266.93	40.21	-43.5	-48.7	9.6	1.42e-02	0	61	0	672137216	59	6271
2026-01-17 10:55:49.80	267.40	40.19	-43.5	-48.8	9.5	1.38e-02	0	61	0	674234368	59	6285
2026-01-17 10:55:50.81	267.87	40.17	-43.5	-48.8	9.5	1.39e-02	0	61	0	676331520	59	6317
2026-01-17 10:55:51.82	268.34	40.14	-43.5	-48.7	9.5	1.48e-02	0	61	0	678428672	59	6254
2026-01-17 10:55:52.83	268.81	40.12	-43.5	-48.6	9.7	1.26e-02	0	61	0	679477248	58	6529
2026-01-17 10:55:53.84	269.29	40.09	-43.4	-48.4	9.9	8.96e-03	0	61	0	681574400	58	6380
2026-01-17 10:55:54.85	269.75	40.06	-43.3	-48.2	10.0	7.24e-03	0	60	0	683671552	58	6273
2026-01-17 10:55:55.86	270.22	40.03	-43.4	-48.4	9.9	7.77e-03	0	61	0	685768704	58	6393
2026-01-17 10:55:56.87	270.69	40.00	-43.6	-48.9	9.4	1.18e-02	0	61	0	687865856	58	6782
2026-01-17 10:55:57.88	271.16	39.96	-43.7	-49.3	9.0	2.41e-02	0	61	0	688914432	58	7069
2026-01-17 10:55:58.89	271.62	39.92	-43.7	-49.2	9.1	2.60e-02	0	61	0	691011584	58	6998
2026-01-17 10:55:59.90	272.09	39.88	-43.6	-48.9	9.4	1.97e-02	0	60	0	693108736	58	6732
2026-01-17 10:56:00.91	272.55	39.84	-43.5	-48.6	9.6	1.30e-02	0	61	0	695205888	58	6564
2026-01-17 10:56:01.92	273.01	39.80	-43.6	-49.0	9.3	1.60e-02	0	61	0	697303040	58	6871
2026-01-17 10:56:02.93	273.47	39.75	-43.8	-49.6	8.7	2.54e-02	0	61	0	698351616	58	7292
2026-01-17 10:56:03.94	273.93	39.70	-43.8	-49.7	8.5	3.67e-02	0	61	0	700448768	58	7452
2026-01-17 10:56:04.95	274.39	39.65	-43.8	-49.6	8.7	3.58e-02	0	61	0	702545920	58	7318
2026-01-17 10:56:05.96	274.84	39.60	-43.8	-49.7	8.6	3.68e-02	0	61	0	704643072	58	7380
2026-01-17 10:56:06.97	275.30	39.55	-43.9	-49.9	8.3	4.73e-02	0	61	0	706740224	58	7595
2026-01-17 10:56:07.98	275.75	39.49	-44.0	-50.2	8.1	5.46e-02	0	61	0	707788800	58	7826
2026-01-17 10:56:08.99	276.21	39.43	-44.0	-50.5	7.8	7.65e-02	0	61	0	709885952	58	8110
2026-01-17 10:56:10.00	276.66	39.37	-44.0	-50.4	7.8	8.49e-02	0	61	0	711983104	58	8073
2026-01-17 10:56:11.01	277.10	39.31	-43.8	-49.8	8.5	6.12e-02	0	61	0	714080256	58	7490
2026-01-17 10:56:12.02	277.55	39.25	-43.7	-49.2	9.1	3.04e-02	0	61	0	716177408	58	6987
2026-01-17 10:56:13.03	278.00	39.19	-43.6	-49.0	9.2	2.07e-02	0	60	0	717225984	58	6874
2026-01-17 10:56:14.04	278.44	39.12	-43.8	-49.7	8.6	2.76e-02	0	61	0	719323136	58	7457
2026-01-17 10:56:15.05	278.88	39.05	-44.0	-50.1	8.1	5.26e-02	0	61	0	721420288	58	7802
2026-01-17 10:56:16.06	279.32	38.98	-43.7	-49.2	9.0	3.37e-02	0	61	0	723517440	58	7013
2026-01-17 10:56:17.06	279.75	38.91	-43.3	-48.1	10.2	1.06e-02	0	61	0	725614592	58	6153
2026-01-17 10:56:18.08	280.19	38.84	-43.2	-48.0	10.4	4.85e-03	0	60	0	727711744	58	6086
2026-01-17 10:56:19.09	280.63	38.76	-43.4	-48.3	10.0	4.82e-03	0	61	0	728760320	58	6326
2026-01-17 10:56:20.10	281.06	38.68	-43.6	-49.0	9.3	1.42e-02	0	61	0	730857472	58	6828
2026-01-17 10:56:21.11	281.49	38.61	-43.6	-48.9	9.4	1.88e-02	0	61	0	732954624	58	6795
2026-01-17 10:56:22.12	281.92	38.53	-43.2	-48.0	10.3	1.34e-02	0	61	0	735051776	58	6079
2026-01-17 10:56:23.13	282.34	38.44	-42.8	-47.2	11.1	2.04e-03	0	61	0	737148928	57	5858
2026-01-17 10:56:24.14	282.77	38.36	-42.8	-47.0	11.4	1.02e-03	0	61	0	738197504	57	5734
2026-01-17 10:56:25.15	283.19	38.28	-43.0	-47.4	11.0	1.11e-03	0	61	0	740294656	57	6022
2026-01-17 10:56:26.16	283.61	38.19	-43.1	-47.9	10.5	3.69e-03	0	61	0	742391808	57	6358
2026-01-17 10:56:27.17	284.02	38.10	-43.2	-48.1	10.2	5.77e-03	0	61	0	744488960	57	6507
2026-01-17 10:56:28.18	284.44	38.01	-43.0	-47.6	10.7	4.85e-03	0	61	0	746586112	57	6183
2026-01-17 10:56:29.19	284.85	37.92	-42.8	-47.2	11.2	1.67e-03	0	61	0	747634688	57	5856
2026-01-17 10:56:30.20	285.26	37.83	-42.6	-46.6	11.7	6.81e-04	0	61	0	749731840	57	5519
2026-01-17 10:56:31.21	285.67	37.74	-42.7	-46.8	11.6	6.01e-04	0	61	0	751828992	57	5648
2026-01-17 10:56:32.21	286.07	37.65	-42.8	-47.1	11.2	1.24e-03	0	60	0	753926144	57	5795
2026-01-17 10:56:33.22	286.47	37.55	-42.6	-46.6	11.7	9.22e-04	0	61	0	756023296	57	5527
2026-01-17 10:56:34.23	286.87	37.45	-42.1	-45.7	12.7	2.40e-04	0	61	0	757071872	56	5246
2026-01-17 10:56:35.24	287.27	37.36	-41.6	-44.9	13.3	3.50e-05	0	61	0	759169024	55	5086
2026-01-17 10:56:36.25	287.67	37.26	-41.6	-44.9	13.4	1.52e-05	0	61	0	761266176	55	5055
2026-01-17 10:56:37.26	288.06	37.16	-41.9	-45.4	12.8	3.12e-05	0	61	0	763363328	55	5402
2026-01-17 10:56:38.27	288.45	37.05	-42.3	-46.2	12.0	1.18e-04	0	61	0	765460480	55	5903
2026-01-17 10:56:39.28	288.84	36.95	-42.6	-46.9	11.3	9.09e-04	0	61	0	766509056	55	6368
2026-01-17 10:56:40.29	289.23	36.85	-42.5	-46.5	11.7	1.00e-03	0	61	0	768606208	55	6099
2026-01-17 10:56:41.30	289.61	36.74	-42.1	-45.7	12.5	2.59e-04	0	61	0	770703360	55	5562
2026-01-17 10:56:42.31	289.99	36.64	-41.9	-45.5	12.8	7.24e-05	0	61	0	772800512	55	5432
2026-01-17 10:56:43.32	290.37	36.53	-41.9	-45.5	12.8	5.56e-05	0	61	0	774897664	55	5417
2026-01-17 10:56:44.33	290.75	36.42	-42.1	-45.8	12.5	8.46e-05	0	61	0	775946240	55	5620
2026-01-17 10:56:45.34	291.12	36.31	-42.0	-45.5	12.7	8.62e-05	0	61	0	778043392	55	5450
2026-01-17 10:56:46.34	291.49	36.20	-41.7	-45.0	13.3	3.96e-05	0	61	0	780140544	55	5141
2026-01-17 10:56:47.35	291.86	36.09	-41.5	-44.7	13.6	1.14e-05	0	61	0	782237696	55	4965
2026-01-17 10:56:48.36	292.23	35.98	-41.7	-45.0	13.3	1.75e-05	0	61	0	784334848	55	5109
2026-01-17 10:56:49.37	292.59	35.87	-41.9	-45.5	12.8	3.28e-05	0	61	0	785383424	55	5411
2026-01-17 10:56:50.38	292.95	35.75	-42.2	-46.0	12.1	1.46e-04	0	61	0	787480576	55	5782
2026-01-17 10:56:51.39	293.31	35.64	-42.3	-46.1	12.1	3.01e-04	0	61	0	789577728	55	5822
2026-01-17 10:56:52.40	293.67	35.53	-42.0	-45.7	12.5	1.51e-04	0	61	0	791674880	55	5559
2026-01-17 10:56:53.41	294.02	35.41	-41.9	-45.4	12.9	7.62e-05	0	61	0	793772032	55	5360
2026-01-17 10:56:54.42	294.38	35.29	-41.9	-45.4	12.9	3.89e-05	0	61	0	795869184	55	5348
2026-01-17 10:56:55.43	294.72	35.17	-42.1	-45.8	12.4	1.17e-04	0	61	0	796917760	55	5647
2026-01-17 10:56:56.44	295.07	35.06	-42.5	-46.7	11.5	4.25e-04	0	61	0	799014912	55	6241
2026-01-17 10:56:57.45	295.42	34.94	-43.0	-47.6	10.7	1.62e-03	0	61	0	801112064	56	6533
2026-01-17 10:56:58.46	295.76	34.82	-42.9	-47.4	10.9	2.75e-03	0	61	0	803209216	56	6365
2026-01-17 10:56:59.47	296.10	34.70	-42.7	-46.8	11.5	1.36e-03	0	61	0	805306368	56	5976
2026-01-17 10:57:00.48	296.43	34.58	-42.5	-46.5	11.9	5.58e-04	0	61	0	806354944	56	5756
2026-01-17 10:57:01.49	296.77	34.46	-42.7	-46.8	11.5	4.38e-04	0	61	0	808452096	56	5977
2026-01-17 10:57:02.50	297.10	34.33	-43.0	-47.5	10.9	1.62e-03	0	61	0	810549248	56	6440
2026-01-17 10:57:03.51	297.43	34.21	-43.1	-47.9	10.4	3.54e-03	0	61	0	812646400	56	6759
2026-01-17 10:57:04.52	297.76	34.09	-43.0	-47.6	10.7	4.24e-03	0	61	0	814743552	56	6523
2026-01-17 10:57:05.53	298.08	33.96	-42.9	-47.3	11.0	2.34e-03	0	61	0	815792128	56	6297
2026-01-17 10:57:06.54	298.40	33.84	-42.8	-47.1	11.2	1.14e-03	0	61	0	817889280	56	6132
2026-01-17 10:57:07.55	298.72	33.72	-42.9	-47.4	11.0	1.37e-03	0	61	0	819986432	56	6350
2026-01-17 10:57:08.56	299.04	33.59	-43.3	-48.2	10.0	5.84e-03	0	61	0	822083584	57	6645
2026-01-17 10:57:09.57	299.35	33.47	-43.5	-48.9	9.3	1.36e-02	0	61	0	824180736	57	7185
2026-01-17 10:57:10.58	299.67	33.34	-43.6	-49.1	9.1	2.10e-02	0	61	0	825229312	57	7300
2026-01-17 10:57:11.59	299.98	33.21	-43.2	-48.1	10.1	1.06e-02	0	61	0	827326464	57	6540
2026-01-17 10:57:12.60	300.28	33.09	-42.9	-47.4	10.9	3.07e-03	0	61	0	829423616	57	6006
2026-01-17 10:57:13.61	300.59	32.96	-42.8	-47.1	11.2	1.71e-03	0	61	0	831520768	57	5854
2026-01-17 10:57:14.61	300.89	32.83	-43.0	-47.7	10.6	2.54e-03	0	61	0	833617920	57	6214
2026-01-17 10:57:15.62	301.19	32.71	-43.4	-48.5	9.7	7.72e-03	0	61	0	834666496	57	6840
2026-01-17 10:57:16.63	301.49	32.58	-43.7	-49.5	8.8	1.99e-02	0	61	0	836763648	57	7642
2026-01-17 10:57:17.64	301.78	32.45	-43.7	-49.4	8.8	3.99e-02	0	61	0	838860800	58	7185
2026-01-17 10:57:18.65	302.08	32.32	-43.4	-48.6	9.6	1.77e-02	0	61	0	840957952	58	6550
2026-01-17 10:57:19.66	302.37	32.19	-43.2	-48.1	10.1	7.89e-03	0	60	0	843055104	58	6173
2026-01-17 10:57:20.67	302.66	32.06	-43.2	-48.0	10.3	6.07e-03	0	61	0	844103680	58	6105
2026-01-17 10:57:21.68	302.95	31.93	-43.4	-48.5	9.8	7.90e-03	0	61	0	846200832	58	6442
2026-01-17 10:57:22.69	303.23	31.80	-43.7	-49.5	8.7	2.05e-02	0	61	0	848297984	58	7287
2026-01-17 10:57:23.70	303.51	31.68	-44.0	-50.4	7.7	5.33e-02	0	61	0	850395136	58	8074
2026-01-17 10:57:24.71	303.79	31.55	-43.8	-49.9	8.3	7.77e-02	0	61	0	852492288	58	7568
2026-01-17 10:57:25.72	304.07	31.42	-43.4	-48.5	9.7	2.29e-02	0	60	0	853540864	58	6458
2026-01-17 10:57:26.73	304.35	31.29	-43.0	-47.5	10.7	5.94e-03	0	61	0	855638016	58	5737
2026-01-17 10:57:27.74	304.62	31.16	-42.8	-47.1	11.2	1.55e-03	0	61	0	857735168	57	5839
2026-01-17 10:57:28.75	304.89	31.03	-43.1	-47.8	10.5	2.41e-03	0	61	0	859832320	57	6286
2026-01-17 10:57:29.76	305.16	30.89	-43.5	-48.9	9.3	7.97e-03	0	61	0	861929472	57	7126
2026-01-17 10:57:30.77	305.43	30.76	-43.9	-50.2	8.0	5.32e-02	0	61	0	864026624	58	7851
2026-01-17 10:57:31.78	305.69	30.63	-44.0	-50.6	7.5	9.84e-02	0	61	0	865075200	58	8265
2026-01-17 10:57:32.79	305.96	30.50	-43.9	-50.3	7.9	8.94e-02	0	61	0	867172352	58	7913
2026-01-17 10:57:33.80	306.22	30.37	-43.6	-49.3	8.8	5.40e-02	0	61	0	869269504	58	7106
2026-01-17 10:57:34.81	306.48	30.24	-43.4	-48.5	9.6	1.72e-02	0	61	0	871366656	58	6491
2026-01-17 10:57:35.82	306.73	30.11	-43.3	-48.3	10.0	8.27e-03	0	61	0	873463808	58	6298
2026-01-17 10:57:36.83	306.99	29.98	-43.3	-48.4	9.8	8.75e-03	0	61	0	874512384	58	6370
2026-01-17 10:57:37.84	307.24	29.85	-43.6	-49.3	8.9	2.08e-02	0	61	0	876609536	58	7108
2026-01-17 10:57:38.85	307.49	29.72	-43.9	-50.3	7.8	5.71e-02	0	61	0	878706688	58	7917
2026-01-17 10:57:39.85	307.74	29.59	-43.8	-50.0	8.2	8.40e-02	0	61	0	880803840	58	7653
2026-01-17 10:57:40.86	307.98	29.46	-43.3	-48.5	9.7	2.02e-02	0	61	0	882900992	58	6446
2026-01-17 10:57:41.87	308.23	29.33	-42.7	-47.0	11.2	3.11e-03	0	61	0	883949568	57	5753
2026-01-17 10:57:42.88	308.47	29.20	-42.4	-46.3	12.0	6.69e-04	0	61	0	886046720	56	5639
2026-01-17 10:57:43.89	308.71	29.07	-42.4	-46.3	12.0	3.42e-04	0	61	0	888143872	56	5608
2026-01-17 10:57:44.90	308.95	28.94	-42.7	-46.9	11.3	6.81e-04	0	61	0	890241024	56	6059
2026-01-17 10:57:45.91	309.19	28.81	-43.1	-47.8	10.4	2.32e-03	0	61	0	892338176	56	6706
2026-01-17 10:57:46.92	309.42	28.68	-43.2	-48.3	9.9	8.36e-03	0	61	0	893386752	57	6663
2026-01-17 10:57:47.93	309.66	28.55	-43.1	-47.9	10.3	7.59e-03	0	61	0	895483904	57	6350
2026-01-17 10:57:48.94	309.89	28.42	-42.6	-46.8	11.4	2.58e-03	0	61	0	897581056	57	5632
2026-01-17 10:57:49.95	310.12	28.29	-42.3	-46.1	12.2	5.03e-04	0	61	0	899678208	56	5504
2026-01-17 10:57:50.96	310.35	28.16	-42.2	-45.8	12.4	1.30e-04	0	61	0	901775360	56	5329
2026-01-17 10:57:51.97	310.57	28.03	-42.1	-45.7	12.5	8.85e-05	0	61	0	902823936	56	5264
2026-01-17 10:57:52.98	310.80	27.90	-42.3	-46.2	12.1	1.55e-04	0	61	0	904921088	56	5531
2026-01-17 10:57:53.99	311.02	27.77	-42.6	-46.7	11.5	5.84e-04	0	61	0	907018240	56	5891
2026-01-17 10:57:55.00	311.24	27.64	-42.8	-47.2	11.0	1.32e-03	0	61	0	909115392	56	6266
2026-01-17 10:57:56.01	311.46	27.51	-42.8	-47.3	10.9	2.27e-03	0	61	0	911212544	56	6314
2026-01-17 10:57:57.02	311.68	27.38	-42.7	-47.1	11.1	1.62e-03	0	61	0	912261120	56	6149
2026-01-17 10:57:58.02	311.89	27.25	-42.5	-46.6	11.6	9.20e-04	0	61	0	914358272	56	5835
2026-01-17 10:57:59.03	312.10	27.13	-42.3	-46.2	12.0	5.47e-04	0	61	0	916455424	56	5588
2026-01-17 10:58:00.04	312.32	27.00	-42.1	-45.7	12.6	2.00e-04	0	61	0	918552576	56	5236
2026-01-17 10:58:01.05	312.53	26.87	-41.8	-45.3	12.9	6.40e-05	0	61	0	920649728	55	5284
2026-01-17 10:58:02.06	312.74	26.74	-41.8	-45.3	12.8	4.34e-05	0	61	0	921698304	55	5327
2026-01-17 10:58:03.07	312.94	26.61	-41.9	-45.6	12.5	9.38e-05	0	61	0	923795456	55	5499
2026-01-17 10:58:04.08	313.15	26.49	-42.1	-45.9	12.2	2.26e-04	0	61	0	925892608	55	5692
2026-01-17 10:58:05.09	313.35	26.36	-42.0	-45.7	12.3	2.39e-04	0	61	0	927989760	55	5581
2026-01-17 10:58:06.10	313.55	26.23	-41.7	-45.1	13.0	9.07e-05	0	61	0	930086912	55	5166
2026-01-17 10:58:07.11	313.76	26.11	-41.4	-44.6	13.6	1.06e-05	0	61	0	932184064	54	5183
2026-01-17 10:58:08.12	313.96	25.98	-41.2	-44.3	13.9	3.00e-06	0	61	0	933232640	54	4991
2026-01-17 10:58:09.13	314.15	25.85	-41.0	-44.0	14.2	7.00e-07	0	61	0	935329792	54	4818
2026-01-17 10:58:10.14	314.35	25.73	-40.9	-43.8	14.4	7.00e-07	0	61	0	937426944	53	4991
2026-01-17 10:58:11.15	314.54	25.60	-41.0	-43.9	14.2	7.00e-07	0	61	0	939524096	53	5062
2026-01-17 10:58:12.16	314.74	25.48	-41.2	-44.3	13.8	2.20e-06	0	61	0	941621248	53	5309
2026-01-17 10:58:13.17	314.93	25.35	-41.5	-44.9	13.2	1.37e-05	0	61	0	942669824	53	5667
2026-01-17 10:58:14.18	315.12	25.23	-41.8	-45.4	12.7	5.26e-05	0	61	0	944766976	54	5676
2026-01-17 10:58:15.19	315.31	25.10	-41.9	-45.5	12.6	1.33e-04	0	61	0	946864128	54	5744
2026-01-17 10:58:16.20	315.50	24.98	-41.7	-45.3	12.8	6.94e-05	0	61	0	948961280	54	5605
2026-01-17 10:58:17.21	315.68	24.85	-41.6	-44.9	13.1	3.66e-05	0	61	0	951058432	54	5370
2026-01-17 10:58:18.22	315.87	24.73	-41.4	-44.6	13.5	1.52e-05	0	61	0	952107008	54	5178
2026-01-17 10:58:19.23	316.05	24.61	-41.3	-44.4	13.7	5.30e-06	0	61	0	954204160	54	5047
2026-01-17 10:58:20.24	316.23	24.48	-41.0	-44.0	14.1	3.80e-06	0	61	0	956301312	54	4828
2026-01-17 10:58:21.25	316.41	24.36	-41.0	-43.9	14.2	7.00e-07	0	61	0	958398464	53	5084
2026-01-17 10:58:22.26	316.59	24.24	-41.1	-44.2	13.9	0.00e+00	0	61	0	960495616	53	5232
2026-01-17 10:58:23.27	316.77	24.12	-41.4	-44.6	13.5	1.22e-05	0	61	0	961544192	53	5482
2026-01-17 10:58:24.28	316.94	23.99	-41.6	-45.1	13.0	2.28e-05	0	61	0	963641344	53	5801
2026-01-17 10:58:25.29	317.12	23.87	-41.8	-45.3	12.7	5.79e-05	0	61	0	965738496	54	5655
2026-01-17 10:58:26.30	317.29	23.75	-41.8	-45.3	12.7	7.01e-05	0	61	0	967835648	54	5648
2026-01-17 10:58:27.30	317.46	23.63	-41.6	-45.0	13.0	5.56e-05	0	61	0	969932800	54	5439
2026-01-17 10:58:28.31	317.63	23.51	-41.4	-44.7	13.4	1.90e-05	0	61	0	970981376	54	5236
2026-01-17 10:58:29.32	317.80	23.39	-41.2	-44.2	13.8	7.60e-06	0	61	0	973078528	54	4978
2026-01-17 10:58:30.33	317.97	23.27	-41.0	-44.0	14.1	2.20e-06	0	61	0	975175680	54	4821
2026-01-17 10:58:31.34	318.14	23.15	-40.9	-43.8	14.3	1.50e-06	0	61	0	977272832	53	4987
2026-01-17 10:58:32.35	318.30	23.03	-40.9	-43.8	14.3	1.50e-06	0	61	0	979369984	53	5010
2026-01-17 10:58:33.36	318.47	22.91	-41.0	-44.0	14.0	2.20e-06	0	61	0	980418560	53	5149
2026-01-17 10:58:34.37	318.63	22.79	-41.3	-44.5	13.5	9.90e-06	0	61	0	982515712	53	5442
2026-01-17 10:58:35.39	318.80	22.67	-41.4	-44.8	13.2	1.83e-05	0	61	0	984612864	53	5615
2026-01-17 10:58:36.40	318.96	22.55	-41.6	-45.1	12.9	4.95e-05	0	61	0	986710016	53	5831
2026-01-17 10:58:37.41	319.12	22.44	-41.7	-45.3	12.7	6.25e-05	0	61	0	988807168	53	5940
2026-01-17 10:58:38.42	319.28	22.32	-41.7	-45.2	12.8	6.56e-05	0	61	0	989855744	53	5872
2026-01-17 10:58:39.42	319.43	22.20	-41.6	-45.1	12.9	6.79e-05	0	61	0	991952896	53	5847
2026-01-17 10:58:40.43	319.59	22.09	-41.6	-45.1	12.9	4.57e-05	0	61	0	994050048	53	5803
2026-01-17 10:58:41.44	319.74	21.97	-41.5	-44.9	13.1	3.05e-05	0	61	0	996147200	53	5701
2026-01-17 10:58:42.45	319.90	21.85	-41.6	-45.0	12.9	3.05e-05	0	61	0	998244352	53	5782
2026-01-17 10:58:43.46	320.05	21.74	-41.6	-45.1	12.9	5.11e-05	0	61	0	1000341504	53	5816
2026-01-17 10:58:44.47	320.20	21.62	-41.7	-45.2	12.8	5.87e-05	0	61	0	1001390080	53	5890
2026-01-17 10:58:45.48	320.35	21.51	-41.8	-45.4	12.6	8.31e-05	0	61	0	1003487232	54	5666
2026-01-17 10:58:46.49	320.50	21.39	-41.8	-45.5	12.4	1.25e-04	0	61	0	1005584384	54	5784
2026-01-17 10:58:47.50	320.65	21.28	-41.8	-45.5	12.5	1.60e-04	0	61	0	1007681536	54	5748
2026-01-17 10:58:48.51	320.80	21.16	-41.8	-45.5	12.5	1.10e-04	0	61	0	1009778688	54	5762
2026-01-17 10:58:49.52	320.95	21.05	-41.7	-45.3	12.6	9.46e-05	0	61	0	1010827264	54	5632
2026-01-17 10:58:50.53	321.09	20.93	-41.6	-45.0	13.0	6.25e-05	0	61	0	1012924416	54	5435
2026-01-17 10:58:51.54	321.24	20.82	-41.5	-44.9	13.0	4.11e-05	0	61	0	1015021568	54	5394
2026-01-17 10:58:52.55	321.38	20.71	-41.4	-44.7	13.2	2.59e-05	0	61	0	1017118720	54	5270
2026-01-17 10:58:53.56	321.52	20.60	-41.4	-44.7	13.3	1.60e-05	0	61	0	1019215872	54	5238
2026-01-17 10:58:54.57	321.66	20.48	-41.5	-44.8	13.1	2.74e-05	0	61	0	1020264448	54	5332
2026-01-17 10:58:55.58	321.80	20.37	-41.5	-44.9	13.0	2.74e-05	0	61	0	1022361600	54	5392
2026-01-17 10:58:56.58	321.94	20.26	-41.7	-45.3	12.7	5.11e-05	0	61	0	1024458752	54	5614
2026-01-17 10:58:57.59	322.08	20.15	-41.9	-45.6	12.4	1.19e-04	0	61	0	1026555904	54	5808
2026-01-17 10:58:58.60	322.22	20.04	-41.9	-45.7	12.2	2.25e-04	0	61	0	1028653056	54	5881
2026-01-17 10:58:59.61	322.35	19.93	-42.1	-46.0	11.9	3.52e-04	0	61	0	1029701632	54	6109
2026-01-17 10:59:00.62	322.49	19.82	-42.1	-46.1	11.8	4.66e-04	0	61	0	1031798784	54	6184
2026-01-17 10:59:01.63	322.62	19.71	-42.1	-46.2	11.7	4.72e-04	0	61	0	1033895936	54	6235
2026-01-17 10:59:02.64	322.76	19.60	-42.1	-46.1	11.7	6.10e-04	0	61	0	1035993088	54	6195
2026-01-17 10:59:03.65	322.89	19.49	-42.0	-45.9	12.0	4.36e-04	0	61	0	1038090240	54	6028
2026-01-17 10:59:04.66	323.02	19.38	-42.0	-45.9	12.0	3.20e-04	0	61	0	1039138816	54	6044
2026-01-17 10:59:05.67	323.15	19.27	-42.0	-45.9	12.0	3.39e-04	0	61	0	1041235968	54	6023
2026-01-17 10:59:06.68	323.28	19.16	-42.0	-46.0	11.8	3.78e-04	0	61	0	1043333120	54	6109
2026-01-17 10:59:07.69	323.41	19.06	-42.2	-46.3	11.5	5.74e-04	0	61	0	1045430272	54	6337
2026-01-17 10:59:08.70	323.54	18.95	-42.3	-46.5	11.3	9.76e-04	0	61	0	1047527424	55	6118
2026-01-17 10:59:09.71	323.67	18.84	-42.4	-46.8	11.0	1.53e-03	0	61	0	1048576000	55	6324
2026-01-17 10:59:10.71	323.79	18.74	-42.5	-47.1	10.7	2.56e-03	0	61	0	1050673152	55	6541
2026-01-17 10:59:11.72	323.92	18.63	-42.6	-47.3	10.5	3.93e-03	0	61	0	1052770304	55	6650
2026-01-17 10:59:12.73	324.04	18.52	-42.6	-47.4	10.4	4.49e-03	0	61	0	1054867456	55	6749
2026-01-17 10:59:13.74	324.17	18.42	-42.6	-47.3	10.5	4.63e-03	0	61	0	1056964608	55	6672
2026-01-17 10:59:14.75	324.29	18.31	-42.5	-47.1	10.6	4.01e-03	0	61	0	1058013184	55	6514
2026-01-17 10:59:15.76	324.41	18.21	-42.4	-46.9	10.9	2.83e-03	0	61	0	1060110336	55	6355
2026-01-17 10:59:16.77	324.54	18.10	-42.3	-46.5	11.2	1.52e-03	0	61	0	1062207488	55	6122
2026-01-17 10:59:17.78	324.66	18.00	-42.1	-46.2	11.6	1.01e-03	0	61	0	1064304640	55	5887
2026-01-17 10:59:18.79	324.78	17.89	-42.0	-46.1	11.7	6.69e-04	0	61	0	1066401792	55	5820
2026-01-17 10:59:19.80	324.90	17.79	-42.0	-46.0	11.8	5.75e-04	0	61	0	1067450368	55	5770
2026-01-17 10:59:20.81	325.01	17.68	-42.0	-46.0	11.8	4.63e-04	0	61	0	1069547520	55	5731
2026-01-17 10:59:21.82	325.13	17.58	-41.9	-45.9	11.9	4.07e-04	0	61	0	1071644672	55	5679
2026-01-17 10:59:22.83	325.25	17.48	-42.0	-46.0	11.7	4.36e-04	0	61	0	1073741824	55	5750
2026-01-17 10:59:23.84	325.37	17.38	-42.0	-46.1	11.7	4.48e-04	0	61	0	1075838976	55	5813
2026-01-17 10:59:24.84	325.48	17.27	-42.1	-46.2	11.6	6.93e-04	0	61	0	1076887552	55	5897
2026-01-17 10:59:25.85	325.59	17.17	-42.1	-46.4	11.4	9.50e-04	0	61	0	1078984704	55	5994
2026-01-17 10:59:26.86	325.71	17.07	-42.2	-46.4	11.3	1.30e-03	0	61	0	1081081856	55	6052
2026-01-17 10:59:27.87	325.82	16.97	-42.3	-46.6	11.1	1.56e-03	0	61	0	1083179008	55	6189
2026-01-17 10:59:28.88	325.93	16.87	-42.3	-46.8	10.9	1.78e-03	0	61	0	1085276160	55	6297
2026-01-17 10:59:29.89	326.04	16.77	-42.3	-46.8	10.9	1.82e-03	0	61	0	1086324736	55	6300
2026-01-17 10:59:30.90	326.16	16.67	-42.3	-46.8	10.9	2.21e-03	0	61	0	1088421888	55	6277
2026-01-17 10:59:31.91	326.27	16.57	-42.3	-46.7	11.0	2.12e-03	0	61	0	1090519040	55	6236
2026-01-17 10:59:32.92	326.38	16.47	-42.3	-46.7	11.0	1.91e-03	0	61	0	1092616192	55	6207
2026-01-17 10:59:33.93	326.48	16.37	-42.1	-46.4	11.3	1.72e-03	0	61	0	1094713344	55	6012
2026-01-17 10:59:34.94	326.59	16.27	-42.1	-46.3	11.3	1.15e-03	0	61	0	1096810496	55	5992
2026-01-17 10:59:35.95	326.70	16.17	-42.1	-46.3	11.4	1.10e-03	0	61	0	1097859072	55	5948
2026-01-17 10:59:36.96	326.81	16.07	-42.0	-46.2	11.5	8.77e-04	0	61	0	1099956224	55	5897
2026-01-17 10:59:37.97	326.91	15.97	-42.1	-46.2	11.5	8.11e-04	0	61	0	1102053376	55	5896
2026-01-17 10:59:38.98	327.02	15.88	-42.0	-46.2	11.5	8.10e-04	0	61	0	1104150528	55	5863
2026-01-17 10:59:39.99	327.12	15.78	-42.0	-46.1	11.6	7.35e-04	0	61	0	1106247680	55	5833
2026-01-17 10:59:41.00	327.23	15.68	-42.1	-46.3	11.4	9.63e-04	0	61	0	1107296256	55	5927
2026-01-17 10:59:42.01	327.33	15.58	-42.0	-46.2	11.5	9.41e-04	0	60	0	1109393408	55	5869
2026-01-17 10:59:43.02	327.43	15.49	-42.1	-46.3	11.3	9.96e-04	0	61	0	1111490560	55	5987
2026-01-17 10:59:44.03	327.54	15.39	-42.1	-46.4	11.2	1.35e-03	0	61	0	1113587712	55	6050
2026-01-17 10:59:45.04	327.64	15.29	-42.2	-46.6	11.0	1.41e-03	0	61	0	1115684864	55	6152
2026-01-17 10:59:46.05	327.74	15.20	-42.2	-46.7	10.9	2.01e-03	0	61	0	1116733440	55	6273
2026-01-17 10:59:47.06	327.84	15.10	-42.2	-46.8	10.8	2.72e-03	0	61	0	1118830592	55	6311
2026-01-17 10:59:48.07	327.94	15.01	-42.2	-46.8	10.8	2.57e-03	0	61	0	1120927744	55	6316
2026-01-17 10:59:49.07	328.04	14.91	-42.2	-46.9	10.7	2.95e-03	0	61	0	1123024896	55	6363
2026-01-17 10:59:50.08	328.14	14.82	-42.2	-46.8	10.8	2.86e-03	0	61	0	1125122048	55	6275
2026-01-17 10:59:51.09	328.23	14.73	-42.2	-46.8	10.7	2.87e-03	0	61	0	1126170624	55	6336
2026-01-17 10:59:52.10	328.33	14.63	-42.2	-46.8	10.7	2.80e-03	0	61	0	1128267776	55	6319
2026-01-17 10:59:53.11	328.43	14.54	-42.2	-46.6	10.9	2.25e-03	0	61	0	1130364928	55	6192
2026-01-17 10:59:54.12	328.52	14.44	-42.2	-46.6	10.9	2.10e-03	0	61	0	1132462080	55	6181
2026-01-17 10:59:55.13	328.62	14.35	-42.1	-46.5	11.1	2.13e-03	0	61	0	1134559232	55	6089
2026-01-17 10:59:56.14	328.72	14.26	-42.1	-46.4	11.1	1.55e-03	0	61	0	1135607808	55	6053
2026-01-17 10:59:57.15	328.81	14.17	-42.0	-46.4	11.2	1.43e-03	0	61	0	1137704960	55	6007
2026-01-17 10:59:58.16	328.90	14.07	-42.0	-46.2	11.3	1.17e-03	0	61	0	1139802112	55	5923
2026-01-17 10:59:59.17	329.00	13.98	-42.0	-46.3	11.2	1.13e-03	0	61	0	1141899264	55	5972
2026-01-17 11:00:00.18	329.09	13.89	-42.0	-46.3	11.2	1.26e-03	0	61	0	1143996416	55	5987
2026-01-17 11:00:01.19	329.18	13.80	-42.0	-46.5	11.0	1.71e-03	0	61	0	1145044992	55	6074
2026-01-17 11:00:02.20	329.27	13.71	-42.1	-46.5	11.0	1.86e-03	0	61	0	1147142144	55	6085
2026-01-17 11:00:03.21	329.37	13.62	-42.0	-46.5	11.0	1.83e-03	0	61	0	1149239296	55	6062
2026-01-17 11:00:04.22	329.46	13.53	-42.1	-46.6	10.8	2.18e-03	0	61	0	1151336448	55	6199
2026-01-17 11:00:05.23	329.55	13.44	-42.1	-46.8	10.7	2.80e-03	0	61	0	1153433600	55	6308
2026-01-17 11:00:06.24	329.64	13.35	-42.1	-46.8	10.7	3.21e-03	0	61	0	1154482176	55	6288
2026-01-17 11:00:07.25	329.72	13.26	-42.1	-46.9	10.5	3.41e-03	0	61	0	1156579328	55	6373
2026-01-17 11:00:08.25	329.81	13.17	-42.2	-47.0	10.4	4.34e-03	0	61	0	1158676480	55	6459
2026-01-17 11:00:09.26	329.90	13.08	-42.2	-47.1	10.2	5.10e-03	0	61	0	1160773632	55	6566
2026-01-17 11:00:10.27	329.99	12.99	-42.3	-47.2	10.1	6.99e-03	0	61	0	1162870784	55	6587
2026-01-17 11:00:11.29	330.08	12.90	-42.2	-47.1	10.0	7.77e-03	0	61	0	1164967936	55	6558
2026-01-17 11:00:12.30	330.16	12.81	-42.3	-47.2	9.9	8.42e-03	0	61	0	1166016512	55	6614
2026-01-17 11:00:13.31	330.25	12.72	-42.3	-47.3	9.8	1.02e-02	0	61	0	1168113664	55	6672
2026-01-17 11:00:14.32	330.33	12.64	-42.3	-47.1	10.1	7.63e-03	0	61	0	1170210816	55	6566
2026-01-17 11:00:15.32	330.42	12.55	-42.2	-47.1	10.3	5.74e-03	0	61	0	1172307968	55	6517
2026-01-17 11:00:16.33	330.50	12.46	-42.3	-47.1	10.2	6.14e-03	0	61	0	1174405120	55	6545
2026-01-17 11:00:17.34	330.59	12.37	-42.3	-47.1	10.2	6.36e-03	0	61	0	1175453696	55	6513
2026-01-17 11:00:18.35	330.67	12.29	-42.2	-47.0	10.3	5.89e-03	0	61	0	1177550848	55	6447
2026-01-17 11:00:19.36	330.76	12.20	-42.2	-46.9	10.4	4.70e-03	0	61	0	1179648000	55	6372
2026-01-17 11:00:20.37	330.84	12.11	-42.2	-46.9	10.4	4.06e-03	0	61	0	1181745152	55	6383
