passes_logs/2026/01/17/R2.0S_Moscow/R2.0S_Moscow__20260117_223805_SUOMI_NPP_rec.log

#Pass ID: 20260117_223805_SUOMI NPP
#Satellite: SUOMI NPP
#Configuration: NPP
#almurnet v.1.7.20251203
#Start time: 2026-01-17 22:38:05

#Version: 2.2.20231116
#Station: R2.0S_Moscow
#Location: 37.707566 lon 55.798166 lat
#TLE: 1 37849U 11061A   26017.28905266  .00000074  00000+0  55894-4 0  9999
#TLE: 2 37849  98.7814 319.3179 0002408  59.7048 300.4366 14.19525847737038

#Time	Az	El	Level	Level2	SNR	BER	BlckErr	Temp	State	Recorded	gain1	gain2
2026-01-17 22:38:05.91	22.36	2.03	-42.5	-57.4	3.8	1.49e+00	0	51	0	0	56	20094
2026-01-17 22:38:06.93	22.42	2.09	-42.3	-57.2	3.8	1.49e+00	0	52	104	0	55	20817
2026-01-17 22:38:07.94	22.47	2.15	-42.3	-57.2	3.8	1.49e+00	0	51	104	0	55	20858
2026-01-17 22:38:08.95	22.53	2.21	-42.3	-57.1	3.8	1.49e+00	0	52	104	0	55	20739
2026-01-17 22:38:09.96	22.58	2.27	-42.3	-57.1	3.8	1.49e+00	0	52	104	0	55	20774
2026-01-17 22:38:10.97	22.64	2.33	-42.3	-57.2	3.8	1.49e+00	0	52	104	0	55	20830
2026-01-17 22:38:11.98	22.69	2.39	-42.3	-57.1	3.8	1.49e+00	0	52	104	0	55	20719
2026-01-17 22:38:13.00	22.75	2.45	-42.3	-57.2	3.8	1.49e+00	0	52	104	0	55	20831
2026-01-17 22:38:14.01	22.80	2.51	-42.3	-57.1	3.8	1.49e+00	0	52	104	0	55	20740
2026-01-17 22:38:15.02	22.86	2.57	-42.3	-57.2	3.8	1.49e+00	0	52	104	0	55	20781
2026-01-17 22:38:16.03	22.92	2.63	-42.3	-57.1	3.8	1.49e+00	0	52	104	0	55	20724
2026-01-17 22:38:17.04	22.97	2.69	-42.3	-57.2	3.8	1.49e+00	0	52	104	0	55	20783
2026-01-17 22:38:18.05	23.03	2.75	-42.3	-57.2	3.8	1.49e+00	0	52	104	0	55	20777
2026-01-17 22:38:19.06	23.09	2.81	-42.3	-57.1	3.8	1.49e+00	0	52	104	0	55	20747
2026-01-17 22:38:20.07	23.14	2.88	-42.3	-57.2	3.8	1.49e+00	0	53	104	0	55	20826
2026-01-17 22:38:21.08	23.20	2.94	-42.3	-57.1	3.8	1.49e+00	0	52	104	0	55	20761
2026-01-17 22:38:22.09	23.26	3.00	-42.3	-57.2	3.8	1.49e+00	0	53	104	0	55	20818
2026-01-17 22:38:23.10	23.32	3.06	-42.3	-57.2	3.8	1.49e+00	0	53	104	0	55	20815
2026-01-17 22:38:24.11	23.38	3.12	-42.3	-57.1	3.8	1.49e+00	0	53	104	0	55	20761
2026-01-17 22:38:25.13	23.44	3.18	-42.3	-57.2	3.8	1.49e+00	0	53	104	0	55	20827
2026-01-17 22:38:26.14	23.49	3.24	-42.3	-57.2	3.8	1.49e+00	0	53	104	0	55	20804
2026-01-17 22:38:27.15	23.55	3.30	-42.3	-57.2	3.8	1.49e+00	0	53	104	0	55	20799
2026-01-17 22:38:28.16	23.61	3.37	-42.3	-57.2	3.8	1.49e+00	0	53	104	0	55	20795
2026-01-17 22:38:29.17	23.67	3.43	-42.3	-57.2	3.8	1.49e+00	0	53	104	0	55	20794
2026-01-17 22:38:30.18	23.73	3.49	-42.3	-57.2	3.8	1.49e+00	0	53	104	0	55	20779
2026-01-17 22:38:31.19	23.79	3.55	-42.3	-57.1	3.8	1.49e+00	0	53	104	0	55	20727
2026-01-17 22:38:32.20	23.85	3.61	-42.3	-57.2	3.8	1.49e+00	0	53	104	0	55	20840
2026-01-17 22:38:33.21	23.91	3.68	-42.3	-57.1	3.8	1.49e+00	0	53	104	0	55	20753
2026-01-17 22:38:34.23	23.97	3.74	-42.3	-57.2	3.8	1.49e+00	0	53	104	0	55	20779
2026-01-17 22:38:35.23	24.03	3.80	-42.3	-57.2	3.8	1.49e+00	0	53	104	0	55	20789
2026-01-17 22:38:36.24	24.09	3.86	-42.3	-57.1	3.8	1.49e+00	0	54	104	0	55	20773
2026-01-17 22:38:37.26	24.15	3.93	-42.3	-57.1	3.8	1.49e+00	0	54	104	0	55	20724
2026-01-17 22:38:38.27	24.22	3.99	-42.3	-57.1	3.8	1.49e+00	0	54	104	0	55	20770
2026-01-17 22:38:39.28	24.28	4.05	-42.3	-57.1	3.8	1.49e+00	0	53	104	0	55	20773
2026-01-17 22:38:40.29	24.34	4.11	-42.3	-57.2	3.8	1.49e+00	0	54	104	0	55	20779
2026-01-17 22:38:41.30	24.40	4.18	-42.3	-57.1	3.8	1.49e+00	0	54	104	0	55	20715
2026-01-17 22:38:42.31	24.46	4.24	-42.3	-57.1	3.8	1.49e+00	0	54	104	0	55	20776
2026-01-17 22:38:43.32	24.53	4.30	-42.3	-57.2	3.8	1.49e+00	0	54	104	0	55	20785
2026-01-17 22:38:44.33	24.59	4.37	-42.3	-57.1	3.8	1.49e+00	0	54	104	0	55	20757
2026-01-17 22:38:45.34	24.65	4.43	-42.3	-57.1	3.8	1.49e+00	0	54	104	0	55	20765
2026-01-17 22:38:46.35	24.72	4.50	-42.3	-57.2	3.8	1.49e+00	0	54	104	0	55	20789
2026-01-17 22:38:47.37	24.78	4.56	-42.3	-57.1	3.8	1.49e+00	0	54	104	0	55	20762
2026-01-17 22:38:48.38	24.84	4.62	-42.3	-57.1	3.8	1.49e+00	0	54	104	0	55	20737
2026-01-17 22:38:49.39	24.91	4.69	-42.3	-57.1	3.8	1.49e+00	0	54	104	0	55	20732
2026-01-17 22:38:50.40	24.97	4.75	-42.3	-57.1	3.8	1.49e+00	0	54	104	0	55	20665
2026-01-17 22:38:51.41	25.04	4.82	-42.3	-57.1	3.8	1.49e+00	0	54	104	0	55	20739
2026-01-17 22:38:52.42	25.10	4.88	-42.3	-57.1	3.8	1.49e+00	0	54	104	0	55	20770
2026-01-17 22:38:53.43	25.17	4.95	-42.3	-57.1	3.8	1.49e+00	0	55	104	0	55	20718
2026-01-17 22:38:54.44	25.23	5.01	-42.3	-57.1	3.8	1.49e+00	0	55	104	0	55	20746
2026-01-17 22:38:55.45	25.30	5.08	-42.3	-57.1	3.8	1.49e+00	0	54	104	0	55	20770
2026-01-17 22:38:56.46	25.36	5.14	-42.3	-57.1	3.8	1.49e+00	0	55	104	0	55	20746
2026-01-17 22:38:57.48	25.43	5.21	-42.3	-57.1	3.8	1.49e+00	0	55	104	0	55	20730
2026-01-17 22:38:58.49	25.50	5.27	-42.3	-57.2	3.8	1.49e+00	0	55	104	0	55	20801
2026-01-17 22:38:59.50	25.56	5.34	-42.3	-57.1	3.8	1.49e+00	0	55	104	0	55	20739
2026-01-17 22:39:00.51	25.63	5.40	-42.3	-57.1	3.8	1.49e+00	0	55	104	0	55	20703
2026-01-17 22:39:01.52	25.70	5.47	-42.3	-57.1	3.8	1.49e+00	0	55	104	0	55	20688
2026-01-17 22:39:02.53	25.77	5.53	-42.3	-57.1	3.8	1.49e+00	0	55	104	0	55	20697
2026-01-17 22:39:03.54	25.83	5.60	-42.3	-57.1	3.8	1.49e+00	0	55	104	0	55	20695
2026-01-17 22:39:04.56	25.90	5.67	-42.3	-57.1	3.8	1.49e+00	0	55	104	0	55	20660
2026-01-17 22:39:05.57	25.97	5.73	-42.3	-57.1	3.8	1.49e+00	0	55	104	0	55	20742
2026-01-17 22:39:06.58	26.04	5.80	-42.3	-57.1	3.8	1.49e+00	0	55	104	0	55	20700
2026-01-17 22:39:07.59	26.11	5.87	-42.3	-57.1	3.8	1.49e+00	0	55	104	0	55	20665
2026-01-17 22:39:08.60	26.18	5.93	-42.3	-57.1	3.8	1.49e+00	0	55	104	0	55	20650
2026-01-17 22:39:09.61	26.25	6.00	-42.3	-57.1	3.8	1.49e+00	0	55	104	0	55	20598
2026-01-17 22:39:10.62	26.32	6.07	-42.3	-57.0	3.8	1.49e+00	0	55	104	0	55	20525
2026-01-17 22:39:11.63	26.39	6.13	-42.3	-57.0	3.8	1.49e+00	0	55	104	0	55	20403
2026-01-17 22:39:12.64	26.46	6.20	-42.2	-57.1	3.8	1.49e+00	0	55	104	0	55	20559
2026-01-17 22:39:13.65	26.53	6.27	-42.3	-57.0	3.8	1.49e+00	0	56	104	0	55	20411
2026-01-17 22:39:14.66	26.60	6.34	-42.3	-57.0	3.8	1.49e+00	0	55	104	0	55	20498
2026-01-17 22:39:15.67	26.67	6.40	-42.3	-57.0	3.8	1.49e+00	0	55	104	0	55	20475
2026-01-17 22:39:16.68	26.75	6.47	-42.3	-57.1	3.8	1.49e+00	0	56	104	0	55	20590
2026-01-17 22:39:17.70	26.82	6.54	-42.3	-57.0	3.8	1.49e+00	0	56	104	0	55	20474
2026-01-17 22:39:18.71	26.89	6.61	-42.3	-57.1	3.8	1.49e+00	0	56	104	0	55	20569
2026-01-17 22:39:19.72	26.96	6.68	-42.3	-57.0	3.8	1.49e+00	0	56	104	0	55	20308
2026-01-17 22:39:20.73	27.04	6.74	-42.3	-56.9	3.8	1.49e+00	0	56	104	0	55	20292
2026-01-17 22:39:21.74	27.11	6.81	-42.3	-57.0	3.8	1.49e+00	0	56	104	0	55	20376
2026-01-17 22:39:22.75	27.18	6.88	-42.3	-56.7	3.8	1.49e+00	0	56	104	0	55	19816
2026-01-17 22:39:23.76	27.26	6.95	-42.2	-56.6	3.8	1.49e+00	0	56	104	0	55	19502
2026-01-17 22:39:24.77	27.33	7.02	-42.2	-56.8	3.8	1.49e+00	0	56	104	0	55	19912
2026-01-17 22:39:25.78	27.41	7.09	-42.2	-56.5	3.8	1.49e+00	0	56	104	0	55	19372
2026-01-17 22:39:26.79	27.48	7.16	-42.2	-56.1	3.8	1.49e+00	0	56	104	0	55	18455
2026-01-17 22:39:27.81	27.56	7.23	-42.2	-55.5	3.8	1.49e+00	0	56	104	0	55	17137
2026-01-17 22:39:28.82	27.63	7.30	-42.0	-53.1	4.3	1.43e+00	0	56	0	0	55	13013
2026-01-17 22:39:29.83	27.71	7.37	-41.9	-51.8	4.9	9.41e-01	0	56	0	1048576	55	11231
2026-01-17 22:39:30.84	27.79	7.44	-41.8	-51.4	5.1	6.82e-01	0	56	0	3145728	55	10700
2026-01-17 22:39:31.85	27.86	7.51	-41.8	-51.0	5.4	6.01e-01	0	56	0	5242880	55	10191
2026-01-17 22:39:32.86	27.94	7.58	-41.7	-50.3	5.8	4.58e-01	0	56	0	7340032	55	9403
2026-01-17 22:39:33.87	28.02	7.65	-41.5	-49.0	6.8	2.06e-01	0	56	0	9437184	54	8631
2026-01-17 22:39:34.88	28.10	7.72	-41.3	-48.5	7.3	1.56e-01	0	56	0	10485760	54	8170
2026-01-17 22:39:35.89	28.17	7.79	-41.4	-48.6	7.2	1.27e-01	0	56	0	12582912	54	8257
2026-01-17 22:39:36.90	28.25	7.86	-41.3	-48.2	7.6	1.28e-01	0	56	0	14680064	54	7838
2026-01-17 22:39:37.91	28.33	7.93	-41.1	-47.7	8.1	5.91e-02	0	56	0	16777216	54	7385
2026-01-17 22:39:38.92	28.41	8.00	-41.2	-47.9	8.0	6.26e-02	0	56	0	18874368	54	7544
2026-01-17 22:39:39.93	28.49	8.07	-41.4	-48.7	7.2	8.35e-02	0	57	0	19922944	54	8276
2026-01-17 22:39:40.94	28.57	8.14	-41.1	-56.0	3.8	1.35e+00	0	57	104	20971520	54	19290
2026-01-17 22:39:41.95	28.65	8.22	-41.9	-48.6	8.1	4.56e-01	0	56	0	20971520	54	8260
2026-01-17 22:39:42.96	28.73	8.29	-42.5	-51.3	5.7	1.50e-01	0	57	0	23068672	55	10614
2026-01-17 22:39:43.97	28.81	8.36	-41.8	-50.4	5.9	9.13e-02	0	56	0	25165824	54	10079
2026-01-17 22:39:44.98	28.90	8.43	-41.4	-47.6	8.5	1.18e-01	0	57	0	26214400	54	7369
2026-01-17 22:39:45.99	28.98	8.50	-41.4	-47.1	9.2	2.06e-02	0	57	0	28311552	54	6946
2026-01-17 22:39:47.00	29.06	8.58	-41.4	-47.1	9.3	2.25e-02	0	57	0	30408704	54	6893
2026-01-17 22:39:48.01	29.14	8.65	-41.4	-46.8	9.7	1.29e-02	0	57	0	32505856	54	6675
2026-01-17 22:39:49.02	29.23	8.72	-41.5	-47.1	9.4	1.82e-02	0	57	0	34603008	54	6904
2026-01-17 22:39:50.03	29.31	8.79	-41.2	-46.5	9.9	1.69e-02	0	57	0	36700160	54	6494
2026-01-17 22:39:51.04	29.39	8.87	-41.4	-47.0	9.5	9.94e-03	0	57	0	37748736	54	6826
2026-01-17 22:39:52.04	29.48	8.94	-41.4	-47.0	9.6	1.50e-02	0	57	0	39845888	54	6802
2026-01-17 22:39:53.05	29.56	9.01	-41.3	-46.8	9.8	8.71e-03	0	57	0	41943040	54	6702
2026-01-17 22:39:54.06	29.65	9.09	-41.4	-46.9	9.7	1.33e-02	0	57	0	44040192	54	6800
2026-01-17 22:39:55.07	29.73	9.16	-41.4	-46.9	9.7	9.00e-03	0	57	0	46137344	54	6786
2026-01-17 22:39:56.08	29.82	9.23	-41.4	-46.9	9.8	1.00e-02	0	57	0	47185920	54	6746
2026-01-17 22:39:57.09	29.90	9.31	-41.4	-46.8	9.9	7.50e-03	0	57	0	49283072	54	6684
2026-01-17 22:39:58.10	29.99	9.38	-41.4	-46.8	10.0	1.01e-02	0	57	0	51380224	54	6681
2026-01-17 22:39:59.11	30.08	9.46	-41.5	-46.9	9.9	7.94e-03	0	57	0	53477376	54	6744
2026-01-17 22:40:00.12	30.16	9.53	-41.5	-47.0	9.8	9.32e-03	0	57	0	55574528	54	6817
2026-01-17 22:40:01.13	30.25	9.61	-41.6	-47.0	9.8	1.17e-02	0	57	0	56623104	54	6816
2026-01-17 22:40:02.14	30.34	9.68	-41.5	-46.5	10.4	6.21e-03	0	57	0	58720256	54	6434
2026-01-17 22:40:03.15	30.43	9.76	-41.7	-46.9	10.0	6.49e-03	0	57	0	60817408	54	6798
2026-01-17 22:40:04.16	30.52	9.83	-41.6	-46.7	10.2	6.58e-03	0	57	0	62914560	54	6573
2026-01-17 22:40:05.17	30.61	9.91	-41.6	-46.4	10.6	3.97e-03	0	57	0	65011712	54	6396
2026-01-17 22:40:06.18	30.70	9.98	-41.6	-46.5	10.4	4.18e-03	0	57	0	66060288	54	6488
2026-01-17 22:40:07.19	30.79	10.06	-41.6	-46.4	10.6	4.43e-03	0	57	0	68157440	54	6379
2026-01-17 22:40:08.20	30.88	10.13	-41.6	-46.3	10.6	3.10e-03	0	57	0	70254592	54	6331
2026-01-17 22:40:09.21	30.97	10.21	-41.5	-46.1	10.9	2.72e-03	0	57	0	72351744	54	6173
2026-01-17 22:40:10.22	31.06	10.29	-41.6	-46.3	10.7	2.58e-03	0	57	0	74448896	54	6309
2026-01-17 22:40:11.23	31.16	10.36	-41.4	-45.9	11.2	1.95e-03	0	57	0	75497472	54	6045
2026-01-17 22:40:12.24	31.25	10.44	-41.5	-46.0	11.1	1.77e-03	0	57	0	77594624	54	6104
2026-01-17 22:40:13.25	31.34	10.52	-41.5	-45.9	11.1	1.49e-03	0	58	0	79691776	54	6054
2026-01-17 22:40:14.26	31.44	10.59	-41.4	-45.8	11.3	9.73e-04	0	57	0	81788928	54	5968
2026-01-17 22:40:15.27	31.53	10.67	-41.4	-45.8	11.4	1.16e-03	0	57	0	83886080	54	5953
2026-01-17 22:40:16.28	31.63	10.75	-41.4	-45.7	11.5	9.87e-04	0	57	0	84934656	54	5888
2026-01-17 22:40:17.29	31.72	10.82	-41.5	-45.9	11.3	1.18e-03	0	57	0	87031808	54	6035
2026-01-17 22:40:18.30	31.82	10.90	-41.5	-45.9	11.3	9.91e-04	0	57	0	89128960	54	6009
2026-01-17 22:40:19.30	31.91	10.98	-41.5	-45.8	11.5	9.90e-04	0	58	0	91226112	54	5942
2026-01-17 22:40:20.31	32.01	11.06	-41.5	-45.9	11.4	9.78e-04	0	57	0	93323264	54	5997
2026-01-17 22:40:21.32	32.11	11.14	-41.5	-45.8	11.5	9.10e-04	0	58	0	94371840	54	5937
2026-01-17 22:40:22.33	32.20	11.21	-41.5	-45.9	11.4	8.25e-04	0	58	0	96468992	54	6020
2026-01-17 22:40:23.34	32.30	11.29	-41.6	-46.0	11.2	1.27e-03	0	58	0	98566144	54	6124
2026-01-17 22:40:24.35	32.40	11.37	-41.6	-46.1	11.2	1.29e-03	0	58	0	100663296	54	6173
2026-01-17 22:40:25.36	32.50	11.45	-41.7	-46.2	11.1	1.32e-03	0	58	0	102760448	54	6206
2026-01-17 22:40:26.37	32.60	11.53	-41.7	-46.1	11.2	1.41e-03	0	58	0	104857600	54	6167
2026-01-17 22:40:27.38	32.70	11.61	-41.7	-46.1	11.2	1.50e-03	0	58	0	105906176	54	6189
2026-01-17 22:40:28.39	32.80	11.69	-41.6	-46.1	11.3	1.54e-03	0	58	0	108003328	54	6141
2026-01-17 22:40:29.40	32.90	11.77	-41.8	-46.4	10.9	1.76e-03	0	58	0	110100480	54	6364
2026-01-17 22:40:30.41	33.00	11.85	-41.8	-46.3	11.1	2.11e-03	0	58	0	112197632	54	6320
2026-01-17 22:40:31.42	33.10	11.93	-41.8	-46.3	11.1	1.79e-03	0	58	0	114294784	54	6282
2026-01-17 22:40:32.43	33.21	12.01	-41.8	-46.3	11.0	1.88e-03	0	58	0	115343360	54	6338
2026-01-17 22:40:33.44	33.31	12.09	-41.8	-46.3	11.1	1.68e-03	0	58	0	117440512	54	6342
2026-01-17 22:40:34.45	33.41	12.17	-41.8	-46.3	11.0	1.89e-03	0	58	0	119537664	54	6324
2026-01-17 22:40:35.46	33.52	12.25	-41.8	-46.4	11.0	2.06e-03	0	58	0	121634816	54	6368
2026-01-17 22:40:36.46	33.62	12.33	-41.8	-46.4	11.0	1.99e-03	0	58	0	122683392	54	6397
2026-01-17 22:40:37.47	33.73	12.41	-41.8	-46.3	11.1	2.16e-03	0	58	0	124780544	54	6292
2026-01-17 22:40:38.48	33.83	12.49	-41.7	-46.0	11.4	1.07e-03	0	58	0	126877696	54	6075
2026-01-17 22:40:39.50	33.94	12.57	-41.6	-45.9	11.6	7.34e-04	0	58	0	128974848	54	6007
2026-01-17 22:40:40.51	34.05	12.66	-41.6	-45.9	11.6	6.51e-04	0	58	0	131072000	54	6008
2026-01-17 22:40:41.52	34.16	12.74	-41.7	-45.9	11.5	6.15e-04	0	58	0	133169152	54	6054
2026-01-17 22:40:42.53	34.27	12.82	-41.7	-45.9	11.6	7.82e-04	0	58	0	134217728	54	6025
2026-01-17 22:40:43.53	34.37	12.90	-41.7	-45.8	11.7	5.99e-04	0	58	0	136314880	54	5984
2026-01-17 22:40:44.55	34.48	12.98	-41.6	-45.7	11.8	5.84e-04	0	58	0	138412032	54	5923
2026-01-17 22:40:45.56	34.59	13.07	-41.6	-45.8	11.7	5.49e-04	0	58	0	140509184	54	5950
2026-01-17 22:40:46.57	34.71	13.15	-41.7	-45.9	11.5	6.46e-04	0	58	0	142606336	54	6050
2026-01-17 22:40:47.58	34.82	13.23	-41.8	-46.0	11.4	9.56e-04	0	58	0	143654912	54	6129
2026-01-17 22:40:48.59	34.93	13.32	-41.9	-46.3	11.2	1.01e-03	0	58	0	145752064	54	6289
2026-01-17 22:40:49.59	35.04	13.40	-41.7	-46.0	11.5	8.22e-04	0	58	0	147849216	54	6085
2026-01-17 22:40:50.60	35.15	13.48	-41.8	-46.2	11.4	9.35e-04	0	58	0	149946368	54	6226
2026-01-17 22:40:51.60	35.27	13.56	-41.8	-46.2	11.3	1.37e-03	0	58	0	152043520	54	6251
2026-01-17 22:40:52.61	35.38	13.65	-41.8	-46.2	11.3	1.13e-03	0	58	0	153092096	54	6233
2026-01-17 22:40:53.62	35.49	13.73	-41.9	-46.4	11.1	1.33e-03	0	58	0	155189248	54	6405
2026-01-17 22:40:54.63	35.61	13.82	-41.9	-46.3	11.3	1.55e-03	0	58	0	157286400	54	6315
2026-01-17 22:40:55.64	35.73	13.90	-41.9	-46.2	11.3	1.26e-03	0	58	0	159383552	54	6274
2026-01-17 22:40:56.65	35.84	13.99	-41.9	-46.4	11.2	1.23e-03	0	58	0	161480704	54	6374
2026-01-17 22:40:57.66	35.96	14.07	-41.9	-46.4	11.2	1.38e-03	0	58	0	162529280	54	6364
2026-01-17 22:40:58.67	36.08	14.16	-41.9	-46.4	11.2	1.18e-03	0	58	0	164626432	54	6351
2026-01-17 22:40:59.68	36.20	14.24	-42.0	-46.5	11.1	1.04e-03	0	58	0	166723584	54	6433
2026-01-17 22:41:00.69	36.32	14.33	-42.0	-46.5	11.1	1.04e-03	0	58	0	168820736	54	6446
2026-01-17 22:41:01.70	36.44	14.41	-41.9	-46.3	11.3	1.23e-03	0	59	0	170917888	54	6290
2026-01-17 22:41:02.71	36.56	14.50	-42.0	-46.5	11.2	1.24e-03	0	58	0	173015040	54	6422
2026-01-17 22:41:03.72	36.68	14.58	-42.0	-46.4	11.2	1.22e-03	0	59	0	174063616	54	6382
2026-01-17 22:41:04.73	36.80	14.67	-42.0	-46.4	11.3	1.15e-03	0	59	0	176160768	54	6367
2026-01-17 22:41:05.74	36.92	14.76	-42.0	-46.4	11.2	1.19e-03	0	58	0	178257920	54	6410
2026-01-17 22:41:06.75	37.05	14.84	-42.0	-46.4	11.2	1.46e-03	0	58	0	180355072	54	6385
2026-01-17 22:41:07.76	37.17	14.93	-42.0	-46.5	11.1	1.67e-03	0	59	0	182452224	54	6464
2026-01-17 22:41:08.76	37.30	15.02	-42.1	-46.7	11.0	1.53e-03	0	59	0	183500800	54	6603
2026-01-17 22:41:09.77	37.42	15.10	-42.2	-46.8	10.8	2.13e-03	0	59	0	185597952	54	6711
2026-01-17 22:41:10.78	37.55	15.19	-42.1	-46.6	11.0	1.94e-03	0	59	0	187695104	54	6536
2026-01-17 22:41:11.79	37.68	15.28	-42.2	-46.8	10.9	1.84e-03	0	59	0	189792256	54	6655
2026-01-17 22:41:12.80	37.80	15.37	-42.1	-46.7	10.9	2.36e-03	0	59	0	190840832	55	6232
2026-01-17 22:41:13.81	37.93	15.45	-42.2	-46.7	11.0	2.04e-03	0	59	0	192937984	55	6269
2026-01-17 22:41:14.82	38.06	15.54	-42.2	-46.8	10.9	2.23e-03	0	59	0	195035136	55	6297
2026-01-17 22:41:15.83	38.19	15.63	-42.1	-46.7	10.9	2.23e-03	0	59	0	197132288	55	6240
2026-01-17 22:41:16.84	38.32	15.72	-42.1	-46.6	11.1	1.88e-03	0	59	0	199229440	55	6195
2026-01-17 22:41:17.85	38.45	15.81	-42.0	-46.4	11.3	1.45e-03	0	59	0	201326592	55	6043
2026-01-17 22:41:18.85	38.58	15.90	-42.1	-46.6	11.1	1.57e-03	0	59	0	202375168	55	6161
2026-01-17 22:41:19.86	38.72	15.99	-42.0	-46.4	11.3	1.20e-03	0	59	0	204472320	55	6053
2026-01-17 22:41:20.87	38.85	16.07	-42.0	-46.4	11.3	1.15e-03	0	59	0	206569472	55	6052
2026-01-17 22:41:21.88	38.99	16.16	-42.0	-46.3	11.5	9.36e-04	0	59	0	208666624	55	5947
2026-01-17 22:41:22.89	39.12	16.25	-41.9	-46.0	11.7	7.53e-04	0	59	0	210763776	55	5760
2026-01-17 22:41:23.90	39.26	16.34	-41.9	-46.1	11.6	6.37e-04	0	59	0	211812352	55	5836
2026-01-17 22:41:24.91	39.39	16.43	-41.8	-45.9	11.8	4.07e-04	0	59	0	213909504	55	5705
2026-01-17 22:41:25.92	39.53	16.52	-41.8	-45.9	11.8	3.57e-04	0	59	0	216006656	55	5711
2026-01-17 22:41:26.93	39.67	16.61	-41.8	-45.9	11.9	3.42e-04	0	59	0	218103808	55	5663
2026-01-17 22:41:27.94	39.81	16.70	-41.8	-45.7	12.1	3.26e-04	0	59	0	220200960	55	5566
2026-01-17 22:41:28.95	39.95	16.80	-41.8	-45.8	12.1	2.68e-04	0	59	0	221249536	55	5603
2026-01-17 22:41:29.96	40.09	16.89	-41.7	-45.7	12.1	2.59e-04	0	59	0	223346688	55	5543
2026-01-17 22:41:30.97	40.23	16.98	-41.8	-45.8	12.1	2.66e-04	0	59	0	225443840	55	5606
2026-01-17 22:41:31.98	40.37	17.07	-41.8	-45.7	12.0	2.78e-04	0	59	0	227540992	55	5585
2026-01-17 22:41:32.99	40.52	17.16	-41.7	-45.5	12.3	2.49e-04	0	59	0	229638144	55	5430
2026-01-17 22:41:34.00	40.66	17.25	-41.7	-45.6	12.2	1.81e-04	0	59	0	230686720	55	5514
2026-01-17 22:41:35.01	40.81	17.34	-41.7	-45.6	12.2	2.82e-04	0	59	0	232783872	55	5507
2026-01-17 22:41:36.02	40.95	17.44	-41.8	-45.7	12.2	2.14e-04	0	59	0	234881024	55	5560
2026-01-17 22:41:37.02	41.10	17.53	-41.8	-45.7	12.2	2.11e-04	0	59	0	236978176	55	5541
2026-01-17 22:41:38.03	41.25	17.62	-41.8	-45.7	12.1	2.99e-04	0	59	0	239075328	55	5590
2026-01-17 22:41:39.04	41.40	17.71	-41.8	-45.7	12.2	2.34e-04	0	59	0	240123904	55	5544
2026-01-17 22:41:40.05	41.54	17.80	-41.8	-45.7	12.2	2.99e-04	0	59	0	242221056	55	5541
2026-01-17 22:41:41.06	41.70	17.90	-41.8	-45.8	12.1	2.23e-04	0	59	0	244318208	55	5611
2026-01-17 22:41:42.07	41.85	17.99	-41.7	-45.6	12.3	1.88e-04	0	59	0	246415360	55	5503
2026-01-17 22:41:43.08	42.00	18.08	-41.8	-45.7	12.2	2.46e-04	0	59	0	248512512	55	5542
2026-01-17 22:41:44.09	42.15	18.18	-41.7	-45.6	12.3	1.88e-04	0	59	0	249561088	55	5497
2026-01-17 22:41:45.10	42.31	18.27	-41.7	-45.5	12.4	2.44e-04	0	59	0	251658240	55	5457
2026-01-17 22:41:46.11	42.46	18.36	-41.8	-45.8	12.1	2.20e-04	0	59	0	253755392	55	5620
2026-01-17 22:41:47.12	42.62	18.46	-41.8	-45.7	12.2	1.98e-04	0	59	0	255852544	55	5543
2026-01-17 22:41:48.13	42.77	18.55	-41.8	-45.7	12.2	2.09e-04	0	59	0	257949696	55	5580
2026-01-17 22:41:49.14	42.93	18.64	-41.8	-45.8	12.1	1.93e-04	0	59	0	258998272	55	5602
2026-01-17 22:41:50.15	43.09	18.74	-41.8	-45.7	12.2	2.18e-04	0	59	0	261095424	55	5536
2026-01-17 22:41:51.16	43.25	18.83	-41.7	-45.5	12.4	1.69e-04	0	59	0	263192576	55	5413
2026-01-17 22:41:52.16	43.41	18.93	-41.8	-45.7	12.2	1.52e-04	0	59	0	265289728	55	5565
2026-01-17 22:41:53.17	43.57	19.02	-41.8	-45.6	12.4	1.30e-04	0	59	0	267386880	55	5479
2026-01-17 22:41:54.18	43.73	19.12	-41.7	-45.5	12.4	1.38e-04	0	59	0	269484032	55	5449
2026-01-17 22:41:55.19	43.90	19.21	-41.6	-45.3	12.7	1.06e-04	0	59	0	270532608	55	5303
2026-01-17 22:41:56.20	44.06	19.31	-41.7	-45.4	12.5	7.55e-05	0	59	0	272629760	55	5360
2026-01-17 22:41:57.21	44.23	19.40	-41.6	-45.3	12.6	9.61e-05	0	59	0	274726912	55	5319
2026-01-17 22:41:58.22	44.39	19.50	-41.6	-45.2	12.7	4.42e-05	0	59	0	276824064	54	5585
2026-01-17 22:41:59.23	44.56	19.59	-41.6	-45.3	12.7	6.48e-05	0	59	0	278921216	54	5602
2026-01-17 22:42:00.24	44.73	19.69	-41.5	-45.1	12.8	6.79e-05	0	59	0	279969792	54	5495
2026-01-17 22:42:01.25	44.90	19.78	-41.5	-45.1	12.8	5.87e-05	0	59	0	282066944	54	5504
2026-01-17 22:42:02.26	45.07	19.88	-41.4	-44.8	13.1	4.11e-05	0	59	0	284164096	54	5330
2026-01-17 22:42:03.27	45.24	19.98	-41.5	-45.1	12.9	6.33e-05	0	59	0	286261248	54	5474
2026-01-17 22:42:04.28	45.41	20.07	-41.6	-45.2	12.8	4.50e-05	0	59	0	288358400	54	5549
2026-01-17 22:42:05.29	45.59	20.17	-41.5	-45.1	12.8	6.33e-05	0	59	0	289406976	54	5520
2026-01-17 22:42:06.30	45.76	20.26	-41.6	-45.3	12.7	1.06e-04	0	59	0	291504128	54	5626
2026-01-17 22:42:07.31	45.94	20.36	-41.5	-45.0	13.0	3.50e-05	0	59	0	293601280	54	5434
2026-01-17 22:42:08.32	46.11	20.46	-41.5	-45.1	12.9	3.12e-05	0	59	0	295698432	54	5478
2026-01-17 22:42:09.33	46.29	20.55	-41.4	-44.8	13.2	4.88e-05	0	59	0	297795584	54	5323
2026-01-17 22:42:10.34	46.47	20.65	-41.4	-44.9	13.0	2.13e-05	0	59	0	298844160	54	5399
2026-01-17 22:42:11.34	46.65	20.75	-41.4	-44.9	13.1	3.12e-05	0	59	0	300941312	54	5358
2026-01-17 22:42:12.35	46.83	20.84	-41.4	-44.8	13.2	3.35e-05	0	59	0	303038464	54	5333
2026-01-17 22:42:13.36	47.01	20.94	-41.4	-44.8	13.2	2.21e-05	0	59	0	305135616	54	5317
2026-01-17 22:42:14.37	47.20	21.04	-41.3	-44.6	13.4	1.37e-05	0	59	0	307232768	54	5212
2026-01-17 22:42:15.38	47.38	21.14	-41.3	-44.7	13.2	1.98e-05	0	60	0	308281344	54	5279
2026-01-17 22:42:16.39	47.57	21.23	-41.3	-44.6	13.4	1.60e-05	0	59	0	310378496	54	5217
2026-01-17 22:42:17.40	47.76	21.33	-41.3	-44.6	13.4	1.60e-05	0	60	0	312475648	54	5194
2026-01-17 22:42:18.41	47.94	21.43	-41.2	-44.5	13.5	4.50e-06	0	59	0	314572800	54	5154
2026-01-17 22:42:19.42	48.13	21.53	-41.3	-44.7	13.3	1.67e-05	0	60	0	316669952	54	5245
2026-01-17 22:42:20.43	48.32	21.62	-41.3	-44.7	13.4	1.06e-05	0	59	0	317718528	54	5240
2026-01-17 22:42:21.44	48.52	21.72	-41.4	-44.8	13.3	1.90e-05	0	59	0	319815680	54	5299
2026-01-17 22:42:22.45	48.71	21.82	-41.5	-45.0	13.0	2.44e-05	0	59	0	321912832	54	5449
2026-01-17 22:42:23.46	48.90	21.92	-41.6	-45.2	12.8	5.03e-05	0	59	0	324009984	54	5586
2026-01-17 22:42:24.47	49.10	22.01	-41.5	-45.0	13.0	5.95e-05	0	59	0	326107136	54	5438
2026-01-17 22:42:25.48	49.29	22.11	-41.8	-45.5	12.5	6.25e-05	0	59	0	327155712	54	5784
2026-01-17 22:42:26.49	49.49	22.21	-41.8	-45.5	12.5	1.40e-04	0	60	0	329252864	54	5766
2026-01-17 22:42:27.50	49.69	22.31	-41.9	-45.7	12.3	1.55e-04	0	59	0	331350016	54	5920
2026-01-17 22:42:28.50	49.89	22.41	-42.0	-45.9	12.2	1.77e-04	0	59	0	333447168	54	6009
2026-01-17 22:42:29.51	50.09	22.50	-41.9	-45.8	12.2	1.83e-04	0	59	0	335544320	54	5958
2026-01-17 22:42:30.52	50.29	22.60	-41.9	-45.8	12.2	2.08e-04	0	59	0	337641472	54	5946
2026-01-17 22:42:31.53	50.50	22.70	-42.0	-45.8	12.2	2.55e-04	0	59	0	338690048	54	5991
2026-01-17 22:42:32.54	50.70	22.80	-41.9	-45.8	12.2	2.50e-04	0	60	0	340787200	54	5971
2026-01-17 22:42:33.55	50.91	22.90	-41.9	-45.8	12.2	1.65e-04	0	60	0	342884352	54	5973
2026-01-17 22:42:34.56	51.12	22.99	-41.9	-45.7	12.3	1.82e-04	0	60	0	344981504	54	5903
2026-01-17 22:42:35.57	51.33	23.09	-41.8	-45.5	12.6	1.21e-04	0	60	0	347078656	54	5736
2026-01-17 22:42:36.58	51.54	23.19	-41.8	-45.5	12.6	9.46e-05	0	59	0	348127232	54	5747
2026-01-17 22:42:37.59	51.75	23.29	-41.8	-45.6	12.4	8.01e-05	0	59	0	350224384	54	5820
2026-01-17 22:42:38.60	51.96	23.39	-41.8	-45.5	12.6	9.53e-05	0	59	0	352321536	54	5743
2026-01-17 22:42:39.61	52.18	23.48	-41.7	-45.3	12.8	4.27e-05	0	59	0	354418688	54	5605
2026-01-17 22:42:40.62	52.39	23.58	-41.6	-45.1	12.9	5.34e-05	0	59	0	356515840	54	5525
2026-01-17 22:42:41.63	52.61	23.68	-41.6	-45.2	12.8	5.56e-05	0	60	0	357564416	54	5581
2026-01-17 22:42:42.64	52.83	23.78	-41.7	-45.3	12.8	7.55e-05	0	59	0	359661568	54	5620
2026-01-17 22:42:43.65	53.05	23.88	-41.7	-45.3	12.8	3.66e-05	0	59	0	361758720	54	5601
2026-01-17 22:42:44.66	53.27	23.97	-41.6	-45.1	13.0	3.81e-05	0	59	0	363855872	54	5506
2026-01-17 22:42:45.67	53.49	24.07	-41.6	-45.3	12.8	3.66e-05	0	60	0	365953024	54	5602
2026-01-17 22:42:46.67	53.71	24.17	-41.5	-45.0	13.0	3.73e-05	0	60	0	367001600	54	5464
2026-01-17 22:42:47.68	53.93	24.27	-41.4	-44.8	13.3	2.97e-05	0	60	0	369098752	54	5290
2026-01-17 22:42:48.69	54.16	24.36	-41.4	-44.8	13.3	2.44e-05	0	59	0	371195904	54	5322
2026-01-17 22:42:49.70	54.39	24.46	-41.3	-44.7	13.4	2.13e-05	0	59	0	373293056	54	5223
2026-01-17 22:42:50.71	54.62	24.56	-41.4	-44.8	13.2	1.37e-05	0	60	0	375390208	54	5328
2026-01-17 22:42:51.72	54.85	24.65	-41.4	-44.7	13.4	1.22e-05	0	59	0	376438784	54	5233
2026-01-17 22:42:52.73	55.08	24.75	-41.3	-44.6	13.4	1.60e-05	0	60	0	378535936	54	5206
2026-01-17 22:42:53.74	55.31	24.85	-41.4	-44.8	13.3	1.37e-05	0	60	0	380633088	54	5303
2026-01-17 22:42:54.75	55.55	24.95	-41.5	-45.0	13.1	1.22e-05	0	60	0	382730240	54	5408
2026-01-17 22:42:55.76	55.78	25.04	-41.6	-45.1	13.0	2.89e-05	0	60	0	384827392	54	5513
2026-01-17 22:42:56.77	56.02	25.14	-41.8	-45.4	12.7	4.88e-05	0	60	0	385875968	54	5700
2026-01-17 22:42:57.78	56.26	25.24	-41.8	-45.6	12.5	8.39e-05	0	60	0	387973120	54	5831
2026-01-17 22:42:58.79	56.50	25.33	-41.9	-45.8	12.3	1.61e-04	0	60	0	390070272	54	5954
2026-01-17 22:42:59.80	56.74	25.43	-41.9	-45.8	12.3	2.65e-04	0	60	0	392167424	54	5927
2026-01-17 22:43:00.81	56.99	25.52	-41.9	-45.8	12.2	2.10e-04	0	60	0	394264576	54	5970
2026-01-17 22:43:01.82	57.23	25.62	-41.7	-45.4	12.7	1.41e-04	0	60	0	395313152	54	5676
2026-01-17 22:43:02.83	57.48	25.71	-41.8	-45.4	12.6	1.06e-04	0	60	0	397410304	54	5722
2026-01-17 22:43:03.84	57.73	25.81	-41.6	-45.2	12.9	8.54e-05	0	60	0	399507456	54	5536
2026-01-17 22:43:04.85	57.97	25.90	-41.6	-45.1	12.9	3.43e-05	0	60	0	401604608	54	5524
2026-01-17 22:43:05.86	58.22	26.00	-41.6	-45.2	12.9	5.41e-05	0	60	0	403701760	54	5579
2026-01-17 22:43:06.86	58.47	26.09	-41.6	-45.1	13.0	5.56e-05	0	60	0	405798912	54	5503
2026-01-17 22:43:07.87	58.73	26.19	-41.6	-45.1	13.0	4.65e-05	0	60	0	406847488	54	5504
2026-01-17 22:43:08.88	58.98	26.28	-41.6	-45.1	13.1	2.89e-05	0	60	0	408944640	54	5472
2026-01-17 22:43:09.89	59.24	26.38	-41.6	-45.1	13.0	3.28e-05	0	60	0	411041792	54	5516
2026-01-17 22:43:10.90	59.50	26.47	-41.7	-45.2	12.9	4.34e-05	0	60	0	413138944	54	5583
2026-01-17 22:43:11.91	59.76	26.56	-41.7	-45.4	12.7	5.26e-05	0	60	0	415236096	54	5677
2026-01-17 22:43:12.92	60.02	26.66	-41.8	-45.5	12.6	5.95e-05	0	60	0	416284672	54	5751
2026-01-17 22:43:13.93	60.28	26.75	-41.8	-45.3	12.8	8.39e-05	0	60	0	418381824	54	5656
2026-01-17 22:43:14.94	60.54	26.84	-41.7	-45.2	12.9	7.70e-05	0	60	0	420478976	54	5582
2026-01-17 22:43:15.95	60.81	26.93	-41.7	-45.2	13.0	4.04e-05	0	60	0	422576128	54	5533
2026-01-17 22:43:16.96	61.08	27.02	-41.5	-44.9	13.2	4.11e-05	0	60	0	424673280	54	5370
2026-01-17 22:43:17.97	61.35	27.12	-41.6	-45.1	13.1	2.05e-05	0	60	0	425721856	54	5470
2026-01-17 22:43:18.98	61.62	27.21	-41.8	-45.4	12.7	5.41e-05	0	60	0	427819008	54	5719
2026-01-17 22:43:19.99	61.89	27.30	-41.9	-45.6	12.5	8.08e-05	0	59	0	429916160	54	5832
2026-01-17 22:43:21.00	62.16	27.39	-42.0	-45.7	12.4	1.42e-04	0	60	0	432013312	54	5912
2026-01-17 22:43:22.01	62.44	27.48	-42.0	-45.9	12.3	1.85e-04	0	60	0	434110464	54	5998
2026-01-17 22:43:23.02	62.71	27.57	-42.0	-45.8	12.3	1.59e-04	0	60	0	435159040	54	5981
2026-01-17 22:43:24.03	62.99	27.66	-42.0	-45.9	12.3	1.64e-04	0	60	0	437256192	54	5999
2026-01-17 22:43:25.04	63.27	27.74	-42.1	-46.0	12.2	2.17e-04	0	60	0	439353344	54	6066
2026-01-17 22:43:26.05	63.55	27.83	-41.9	-45.7	12.5	1.85e-04	0	60	0	441450496	54	5892
2026-01-17 22:43:27.06	63.83	27.92	-42.1	-46.0	12.2	1.57e-04	0	60	0	443547648	54	6094
2026-01-17 22:43:28.07	64.12	28.01	-41.9	-45.6	12.5	1.50e-04	0	60	0	444596224	54	5850
2026-01-17 22:43:29.08	64.40	28.09	-41.8	-45.4	12.9	4.80e-05	0	60	0	446693376	54	5660
2026-01-17 22:43:30.09	64.69	28.18	-41.8	-45.4	12.8	4.65e-05	0	60	0	448790528	54	5676
2026-01-17 22:43:31.10	64.98	28.27	-41.8	-45.5	12.7	4.42e-05	0	60	0	450887680	54	5725
2026-01-17 22:43:32.11	65.27	28.35	-41.8	-45.4	12.8	7.62e-05	0	60	0	452984832	54	5718
2026-01-17 22:43:33.12	65.56	28.44	-41.9	-45.6	12.6	6.33e-05	0	60	0	454033408	54	5789
2026-01-17 22:43:34.12	65.85	28.52	-41.9	-45.7	12.5	7.47e-05	0	60	0	456130560	54	5862
2026-01-17 22:43:35.13	66.14	28.60	-42.0	-45.7	12.5	1.05e-04	0	60	0	458227712	54	5885
2026-01-17 22:43:36.14	66.44	28.69	-42.1	-46.0	12.2	1.81e-04	0	60	0	460324864	54	6085
2026-01-17 22:43:37.15	66.73	28.77	-42.2	-46.2	12.0	1.75e-04	0	60	0	462422016	54	6242
2026-01-17 22:43:38.16	67.03	28.85	-42.5	-46.8	11.4	6.86e-04	0	60	0	463470592	55	6306
2026-01-17 22:43:39.17	67.33	28.93	-42.5	-46.8	11.3	9.25e-04	0	60	0	465567744	55	6334
2026-01-17 22:43:40.18	67.64	29.01	-42.4	-46.6	11.6	1.02e-03	0	60	0	467664896	55	6199
2026-01-17 22:43:41.19	67.94	29.09	-42.3	-46.4	11.7	7.17e-04	0	60	0	469762048	55	6043
2026-01-17 22:43:42.20	68.24	29.17	-42.2	-46.2	12.0	4.81e-04	0	60	0	471859200	55	5892
2026-01-17 22:43:43.21	68.55	29.25	-42.3	-46.4	11.8	3.25e-04	0	60	0	473956352	55	6009
2026-01-17 22:43:44.22	68.86	29.33	-42.4	-46.6	11.6	6.24e-04	0	60	0	475004928	55	6163
2026-01-17 22:43:45.23	69.17	29.41	-42.6	-47.1	11.1	1.40e-03	0	60	0	477102080	55	6556
2026-01-17 22:43:46.24	69.48	29.48	-42.9	-47.6	10.6	2.70e-03	0	60	0	479199232	56	6556
2026-01-17 22:43:47.25	69.79	29.56	-42.8	-47.4	10.9	2.57e-03	0	60	0	481296384	56	6408
2026-01-17 22:43:48.25	70.10	29.64	-42.7	-46.9	11.3	1.44e-03	0	60	0	482344960	56	6057
2026-01-17 22:43:49.26	70.42	29.71	-42.7	-47.0	11.4	1.08e-03	0	60	0	484442112	56	6064
2026-01-17 22:43:50.27	70.73	29.78	-42.7	-47.0	11.4	9.18e-04	0	60	0	486539264	56	6077
2026-01-17 22:43:51.28	71.05	29.86	-42.8	-47.2	11.2	1.28e-03	0	60	0	488636416	56	6238
2026-01-17 22:43:52.29	71.37	29.93	-43.0	-47.7	10.7	2.18e-03	0	60	0	490733568	56	6576
2026-01-17 22:43:53.30	71.69	30.00	-43.0	-47.8	10.5	3.14e-03	0	60	0	491782144	56	6714
2026-01-17 22:43:54.31	72.02	30.07	-43.2	-48.2	10.1	5.98e-03	0	60	0	493879296	57	6606
2026-01-17 22:43:55.32	72.34	30.14	-43.3	-48.4	9.8	7.12e-03	0	60	0	495976448	57	6795
2026-01-17 22:43:56.33	72.66	30.21	-43.6	-49.4	9.0	1.34e-02	0	60	0	498073600	57	7550
2026-01-17 22:43:57.34	72.99	30.28	-43.7	-49.7	8.5	3.23e-02	0	60	0	500170752	57	7834
2026-01-17 22:43:58.35	73.32	30.35	-43.8	-49.9	8.4	4.41e-02	0	60	0	502267904	58	7583
2026-01-17 22:43:59.36	73.65	30.42	-43.6	-49.4	8.9	3.59e-02	0	60	0	503316480	58	7138
2026-01-17 22:44:00.37	73.98	30.48	-43.5	-48.9	9.4	2.14e-02	0	60	0	505413632	58	6799
2026-01-17 22:44:01.38	74.31	30.55	-43.3	-48.4	10.0	1.02e-02	0	60	0	507510784	58	6351
2026-01-17 22:44:02.39	74.64	30.61	-43.5	-48.9	9.4	1.21e-02	0	60	0	509607936	58	6788
2026-01-17 22:44:03.40	74.98	30.67	-43.6	-49.5	8.9	1.81e-02	0	60	0	511705088	58	7220
2026-01-17 22:44:04.41	75.31	30.74	-43.6	-49.5	8.9	3.02e-02	0	60	0	512753664	58	7221
2026-01-17 22:44:05.42	75.65	30.80	-43.6	-49.4	8.9	2.57e-02	0	60	0	514850816	58	7134
2026-01-17 22:44:06.43	75.99	30.86	-43.6	-49.2	9.1	1.95e-02	0	60	0	516947968	58	6989
2026-01-17 22:44:07.44	76.33	30.92	-43.6	-49.1	9.1	1.99e-02	0	60	0	519045120	58	6959
2026-01-17 22:44:08.45	76.67	30.98	-43.4	-48.7	9.6	1.65e-02	0	60	0	521142272	58	6639
2026-01-17 22:44:09.46	77.01	31.03	-43.3	-48.4	10.0	1.13e-02	0	60	0	522190848	58	6361
2026-01-17 22:44:10.47	77.36	31.09	-43.1	-48.0	10.5	5.22e-03	0	60	0	524288000	58	6065
2026-01-17 22:44:11.48	77.70	31.15	-43.0	-47.6	10.8	3.33e-03	0	60	0	526385152	58	5847
2026-01-17 22:44:12.49	78.05	31.20	-42.9	-47.5	10.9	1.98e-03	0	60	0	528482304	57	6075
2026-01-17 22:44:13.50	78.39	31.25	-43.2	-48.1	10.3	2.61e-03	0	60	0	530579456	57	6549
2026-01-17 22:44:14.51	78.74	31.31	-43.3	-48.5	9.7	8.36e-03	0	60	0	531628032	57	6879
2026-01-17 22:44:15.52	79.09	31.36	-43.5	-49.0	9.4	1.84e-02	0	60	0	533725184	57	7213
2026-01-17 22:44:16.53	79.44	31.41	-43.4	-48.7	9.6	1.58e-02	0	60	0	535822336	57	6986
2026-01-17 22:44:17.54	79.79	31.46	-43.1	-48.0	10.4	7.66e-03	0	60	0	537919488	57	6461
2026-01-17 22:44:18.55	80.14	31.51	-43.0	-47.7	10.7	3.96e-03	0	60	0	540016640	57	6269
2026-01-17 22:44:19.56	80.50	31.55	-43.1	-47.9	10.5	3.01e-03	0	60	0	542113792	57	6357
2026-01-17 22:44:20.57	80.85	31.60	-43.0	-47.6	10.8	2.37e-03	0	60	0	543162368	57	6156
2026-01-17 22:44:21.57	81.20	31.64	-42.8	-47.1	11.3	1.32e-03	0	60	0	545259520	57	5823
2026-01-17 22:44:22.58	81.56	31.69	-42.6	-46.7	11.7	7.97e-04	0	60	0	547356672	57	5562
2026-01-17 22:44:23.59	81.92	31.73	-42.5	-46.4	12.0	3.00e-04	0	60	0	549453824	56	5713
2026-01-17 22:44:24.60	82.27	31.77	-42.5	-46.6	11.9	4.64e-04	0	60	0	550502400	56	5802
2026-01-17 22:44:25.61	82.63	31.81	-42.9	-47.3	11.1	7.41e-04	0	60	0	552599552	56	6313
2026-01-17 22:44:26.62	82.99	31.85	-43.1	-47.8	10.6	2.77e-03	0	60	0	554696704	56	6672
2026-01-17 22:44:27.63	83.35	31.89	-43.2	-48.2	10.2	4.88e-03	0	60	0	556793856	57	6589
2026-01-17 22:44:28.64	83.72	31.93	-43.2	-48.2	10.2	6.34e-03	0	60	0	558891008	57	6612
2026-01-17 22:44:29.65	84.08	31.96	-43.1	-47.9	10.4	5.62e-03	0	60	0	559939584	57	6395
2026-01-17 22:44:30.66	84.44	32.00	-42.9	-47.5	11.0	2.81e-03	0	60	0	562036736	57	6093
2026-01-17 22:44:31.67	84.81	32.03	-42.8	-47.2	11.3	1.53e-03	0	60	0	564133888	57	5891
2026-01-17 22:44:32.68	85.17	32.06	-42.6	-46.8	11.7	1.04e-03	0	60	0	566231040	57	5609
2026-01-17 22:44:33.69	85.54	32.09	-42.6	-46.6	11.8	4.59e-04	0	60	0	568328192	57	5526
2026-01-17 22:44:34.70	85.90	32.12	-42.6	-46.6	11.9	3.38e-04	0	60	0	570425344	56	5826
2026-01-17 22:44:35.71	86.27	32.15	-42.6	-46.7	11.8	5.04e-04	0	60	0	571473920	56	5879
2026-01-17 22:44:36.72	86.64	32.18	-42.7	-46.9	11.6	6.79e-04	0	60	0	573571072	56	6039
2026-01-17 22:44:37.72	87.00	32.20	-42.8	-47.2	11.3	1.26e-03	0	60	0	575668224	56	6242
2026-01-17 22:44:38.73	87.37	32.23	-43.0	-47.6	10.8	1.61e-03	0	60	0	577765376	56	6548
2026-01-17 22:44:39.74	87.74	32.25	-42.9	-47.4	11.1	1.97e-03	0	60	0	579862528	56	6373
2026-01-17 22:44:40.75	88.11	32.27	-42.9	-47.4	11.1	1.82e-03	0	60	0	580911104	56	6382
2026-01-17 22:44:41.76	88.48	32.29	-42.8	-47.1	11.3	1.33e-03	0	60	0	583008256	56	6158
2026-01-17 22:44:42.77	88.85	32.31	-42.7	-46.8	11.7	5.53e-04	0	60	0	585105408	56	5972
2026-01-17 22:44:43.78	89.22	32.33	-42.6	-46.7	11.7	5.40e-04	0	60	0	587202560	56	5923
2026-01-17 22:44:44.79	89.59	32.35	-42.7	-46.9	11.6	6.89e-04	0	60	0	589299712	56	6038
2026-01-17 22:44:45.80	89.96	32.36	-42.6	-46.8	11.6	5.86e-04	0	60	0	590348288	56	5963
2026-01-17 22:44:46.81	90.33	32.38	-42.7	-46.9	11.5	7.35e-04	0	60	0	592445440	56	6040
2026-01-17 22:44:47.82	90.71	32.39	-42.6	-46.8	11.7	5.87e-04	0	60	0	594542592	56	5946
2026-01-17 22:44:48.83	91.08	32.40	-42.6	-46.7	11.7	5.77e-04	0	60	0	596639744	56	5910
2026-01-17 22:44:49.84	91.45	32.41	-42.6	-46.7	11.7	5.95e-04	0	60	0	598736896	56	5922
2026-01-17 22:44:50.85	91.82	32.42	-42.7	-46.9	11.6	5.15e-04	0	60	0	599785472	56	6017
2026-01-17 22:44:51.86	92.20	32.43	-42.8	-47.1	11.4	6.03e-04	0	60	0	601882624	56	6143
2026-01-17 22:44:52.87	92.57	32.43	-42.8	-47.0	11.4	1.11e-03	0	60	0	603979776	56	6116
2026-01-17 22:44:53.88	92.95	32.44	-42.9	-47.3	11.1	1.33e-03	0	60	0	606076928	56	6331
2026-01-17 22:44:54.89	93.32	32.44	-42.9	-47.4	11.1	1.48e-03	0	60	0	608174080	56	6357
2026-01-17 22:44:55.90	93.69	32.44	-42.8	-47.2	11.3	1.01e-03	0	60	0	609222656	56	6230
2026-01-17 22:44:56.91	94.07	32.45	-42.8	-47.2	11.2	1.36e-03	0	60	0	611319808	56	6260
2026-01-17 22:44:57.92	94.44	32.45	-42.9	-47.5	11.0	1.44e-03	0	60	0	613416960	56	6464
2026-01-17 22:44:58.93	94.81	32.44	-43.0	-47.7	10.8	2.16e-03	0	60	0	615514112	56	6594
2026-01-17 22:44:59.94	95.19	32.44	-42.9	-47.5	11.0	2.06e-03	0	60	0	617611264	56	6425
2026-01-17 22:45:00.96	95.57	32.44	-42.5	-46.6	11.9	7.48e-04	0	60	0	619708416	56	5806
2026-01-17 22:45:01.96	95.94	32.43	-42.3	-46.1	12.5	2.48e-04	0	60	0	620756992	56	5470
2026-01-17 22:45:02.97	96.31	32.42	-42.2	-45.8	12.8	6.94e-05	0	60	0	622854144	56	5302
2026-01-17 22:45:03.98	96.68	32.42	-42.3	-46.0	12.6	4.73e-05	0	60	0	624951296	56	5416
2026-01-17 22:45:04.99	97.06	32.41	-42.5	-46.6	12.0	1.37e-04	0	60	0	627048448	56	5789
2026-01-17 22:45:06.00	97.43	32.39	-42.8	-47.2	11.3	9.60e-04	0	60	0	628097024	56	6226
2026-01-17 22:45:07.01	97.80	32.38	-42.9	-47.3	11.1	1.35e-03	0	60	0	630194176	56	6296
2026-01-17 22:45:08.02	98.17	32.37	-42.8	-47.2	11.3	1.41e-03	0	60	0	632291328	56	6215
2026-01-17 22:45:09.03	98.55	32.35	-42.9	-47.3	11.3	1.05e-03	0	60	0	634388480	56	6286
2026-01-17 22:45:10.04	98.92	32.34	-42.9	-47.4	11.0	1.71e-03	0	60	0	636485632	56	6407
2026-01-17 22:45:11.05	99.29	32.32	-42.9	-47.5	11.0	2.26e-03	0	60	0	637534208	56	6430
2026-01-17 22:45:12.06	99.66	32.30	-42.9	-47.4	11.1	2.05e-03	0	60	0	639631360	56	6360
2026-01-17 22:45:13.07	100.03	32.28	-42.8	-47.1	11.4	1.41e-03	0	60	0	641728512	56	6146
2026-01-17 22:45:14.08	100.40	32.26	-42.7	-46.8	11.7	6.77e-04	0	60	0	643825664	56	5974
2026-01-17 22:45:15.09	100.77	32.24	-42.7	-46.9	11.6	5.23e-04	0	60	0	645922816	56	6040
2026-01-17 22:45:16.10	101.14	32.21	-42.9	-47.3	11.2	1.05e-03	0	60	0	648019968	56	6322
2026-01-17 22:45:17.11	101.51	32.19	-43.1	-47.7	10.8	2.45e-03	0	60	0	649068544	56	6605
2026-01-17 22:45:18.12	101.88	32.16	-43.2	-48.1	10.3	4.64e-03	0	60	0	651165696	57	6544
2026-01-17 22:45:19.13	102.24	32.13	-43.1	-47.8	10.6	4.45e-03	0	60	0	653262848	57	6320
2026-01-17 22:45:20.14	102.61	32.11	-43.1	-47.8	10.7	3.16e-03	0	60	0	655360000	57	6293
2026-01-17 22:45:21.15	102.98	32.07	-43.0	-47.7	10.8	2.74e-03	0	60	0	657457152	57	6235
2026-01-17 22:45:22.16	103.34	32.04	-43.1	-48.0	10.6	2.94e-03	0	60	0	658505728	57	6444
2026-01-17 22:45:23.17	103.71	32.01	-43.2	-48.1	10.3	4.16e-03	0	60	0	660602880	57	6541
2026-01-17 22:45:24.18	104.07	31.98	-42.8	-47.2	11.2	2.64e-03	0	60	0	662700032	57	5908
2026-01-17 22:45:25.19	104.43	31.94	-42.6	-46.8	11.7	7.86e-04	0	60	0	664797184	57	5624
2026-01-17 22:45:26.20	104.80	31.91	-42.5	-46.6	11.9	5.48e-04	0	60	0	666894336	57	5500
2026-01-17 22:45:27.21	105.16	31.87	-42.9	-47.3	11.2	7.29e-04	0	60	0	667942912	57	5965
2026-01-17 22:45:28.22	105.52	31.83	-43.3	-48.3	10.2	4.52e-03	0	60	0	670040064	57	6688
2026-01-17 22:45:29.23	105.88	31.79	-43.4	-48.8	9.6	9.23e-03	0	60	0	672137216	57	7072
2026-01-17 22:45:30.24	106.24	31.75	-43.3	-48.3	10.1	1.13e-02	0	61	0	674234368	57	6700
2026-01-17 22:45:31.25	106.60	31.71	-42.9	-47.5	11.1	4.76e-03	0	60	0	676331520	57	6062
2026-01-17 22:45:32.26	106.95	31.66	-42.8	-47.2	11.3	1.23e-03	0	60	0	677380096	57	5909
2026-01-17 22:45:33.27	107.31	31.62	-42.8	-47.1	11.4	1.17e-03	0	60	0	679477248	57	5818
2026-01-17 22:45:34.28	107.66	31.57	-42.9	-47.3	11.2	1.25e-03	0	60	0	681574400	57	5963
2026-01-17 22:45:35.29	108.02	31.53	-42.9	-47.2	11.3	1.33e-03	0	60	0	683671552	57	5921
2026-01-17 22:45:36.30	108.37	31.48	-42.7	-46.9	11.5	7.55e-04	0	60	0	685768704	57	5713
2026-01-17 22:45:37.31	108.73	31.43	-42.5	-46.5	12.0	4.95e-04	0	61	0	687865856	57	5406
2026-01-17 22:45:38.32	109.08	31.38	-42.4	-46.3	12.2	2.75e-04	0	60	0	688914432	56	5642
2026-01-17 22:45:39.33	109.43	31.33	-42.5	-46.5	11.9	3.74e-04	0	60	0	691011584	56	5772
2026-01-17 22:45:40.34	109.78	31.28	-42.5	-46.6	12.0	3.94e-04	0	60	0	693108736	56	5799
2026-01-17 22:45:41.35	110.12	31.22	-42.6	-46.7	11.8	5.19e-04	0	60	0	695205888	56	5917
2026-01-17 22:45:42.36	110.47	31.17	-42.7	-46.8	11.7	4.42e-04	0	60	0	697303040	56	5985
2026-01-17 22:45:43.37	110.82	31.11	-42.6	-46.7	11.8	5.09e-04	0	60	0	698351616	56	5891
2026-01-17 22:45:44.38	111.16	31.06	-42.5	-46.4	12.1	3.26e-04	0	60	0	700448768	56	5679
2026-01-17 22:45:45.39	111.50	31.00	-42.5	-46.4	12.1	3.16e-04	0	60	0	702545920	56	5714
2026-01-17 22:45:46.40	111.85	30.94	-42.6	-46.8	11.8	4.84e-04	0	60	0	704643072	56	5955
2026-01-17 22:45:47.41	112.19	30.88	-42.7	-47.0	11.5	6.38e-04	0	60	0	706740224	56	6119
2026-01-17 22:45:48.42	112.53	30.82	-42.7	-46.9	11.6	8.38e-04	0	60	0	707788800	56	6061
2026-01-17 22:45:49.43	112.87	30.76	-42.6	-46.6	11.9	4.03e-04	0	60	0	709885952	56	5838
2026-01-17 22:45:50.43	113.20	30.70	-42.4	-46.3	12.3	2.40e-04	0	60	0	711983104	56	5606
2026-01-17 22:45:51.44	113.54	30.63	-42.2	-45.9	12.6	7.78e-05	0	60	0	714080256	56	5367
2026-01-17 22:45:52.45	113.87	30.57	-42.5	-46.5	12.1	1.75e-04	0	60	0	716177408	56	5725
2026-01-17 22:45:53.46	114.20	30.51	-42.7	-46.9	11.6	3.93e-04	0	61	0	717225984	56	6021
2026-01-17 22:45:54.47	114.54	30.44	-42.9	-47.3	11.2	1.23e-03	0	60	0	719323136	56	6344
2026-01-17 22:45:55.48	114.87	30.37	-42.9	-47.5	11.1	1.38e-03	0	60	0	721420288	56	6424
2026-01-17 22:45:56.49	115.20	30.31	-42.6	-46.7	11.8	7.78e-04	0	60	0	723517440	56	5911
2026-01-17 22:45:57.50	115.52	30.24	-42.4	-46.3	12.2	2.82e-04	0	60	0	725614592	56	5648
2026-01-17 22:45:58.51	115.85	30.17	-42.3	-46.1	12.5	1.79e-04	0	60	0	726663168	56	5497
2026-01-17 22:45:59.52	116.18	30.10	-42.5	-46.4	12.0	2.14e-04	0	60	0	728760320	56	5698
2026-01-17 22:46:00.53	116.50	30.03	-42.8	-47.3	11.3	6.12e-04	0	61	0	730857472	56	6288
2026-01-17 22:46:01.54	116.82	29.95	-43.0	-47.7	10.9	1.81e-03	0	60	0	732954624	56	6598
2026-01-17 22:46:02.55	117.14	29.88	-43.0	-47.7	10.7	1.96e-03	0	60	0	735051776	56	6633
2026-01-17 22:46:03.56	117.46	29.81	-42.8	-47.2	11.3	1.51e-03	0	60	0	736100352	56	6217
2026-01-17 22:46:04.57	117.78	29.73	-42.6	-46.6	11.9	5.11e-04	0	60	0	738197504	56	5843
2026-01-17 22:46:05.58	118.10	29.66	-42.6	-46.7	11.8	5.30e-04	0	61	0	740294656	56	5858
2026-01-17 22:46:06.59	118.41	29.58	-42.6	-46.6	11.9	4.72e-04	0	61	0	742391808	56	5835
2026-01-17 22:46:07.60	118.73	29.51	-42.8	-47.1	11.4	7.30e-04	0	60	0	744488960	56	6177
2026-01-17 22:46:08.61	119.04	29.43	-42.9	-47.5	11.0	1.44e-03	0	60	0	745537536	56	6458
2026-01-17 22:46:09.62	119.35	29.35	-43.1	-47.9	10.5	2.88e-03	0	60	0	747634688	56	6796
2026-01-17 22:46:10.63	119.66	29.27	-43.0	-47.6	10.9	2.45e-03	0	60	0	749731840	56	6545
2026-01-17 22:46:11.64	119.97	29.20	-42.8	-47.2	11.4	1.56e-03	0	60	0	751828992	56	6203
2026-01-17 22:46:12.65	120.27	29.12	-42.7	-46.9	11.6	8.93e-04	0	60	0	753926144	56	6015
2026-01-17 22:46:13.66	120.58	29.04	-42.9	-47.4	11.2	1.24e-03	0	60	0	756023296	56	6362
2026-01-17 22:46:14.67	120.88	28.95	-43.2	-48.0	10.4	3.18e-03	0	60	0	757071872	56	6869
2026-01-17 22:46:15.68	121.19	28.87	-43.3	-48.5	10.0	6.09e-03	0	60	0	759169024	57	6822
2026-01-17 22:46:16.68	121.48	28.79	-43.5	-48.9	9.6	9.01e-03	0	61	0	761266176	57	7136
2026-01-17 22:46:17.69	121.78	28.71	-43.2	-48.2	10.3	6.78e-03	0	61	0	763363328	57	6579
2026-01-17 22:46:18.70	122.08	28.63	-43.1	-47.8	10.6	4.69e-03	0	60	0	764411904	57	6345
2026-01-17 22:46:19.71	122.38	28.54	-42.9	-47.6	10.9	3.60e-03	0	61	0	766509056	57	6134
2026-01-17 22:46:20.72	122.67	28.46	-43.0	-47.7	10.8	2.41e-03	0	61	0	768606208	57	6207
2026-01-17 22:46:21.73	122.96	28.37	-43.1	-47.9	10.6	3.31e-03	0	61	0	770703360	57	6376
2026-01-17 22:46:22.74	123.25	28.29	-43.1	-47.9	10.5	3.87e-03	0	61	0	772800512	57	6388
2026-01-17 22:46:23.75	123.54	28.20	-43.0	-47.6	10.8	2.17e-03	0	61	0	773849088	57	6180
2026-01-17 22:46:24.76	123.83	28.11	-42.9	-47.3	11.1	2.40e-03	0	61	0	775946240	57	5983
2026-01-17 22:46:25.77	124.12	28.03	-43.0	-47.6	10.8	2.46e-03	0	60	0	778043392	57	6158
2026-01-17 22:46:26.78	124.41	27.94	-43.1	-47.9	10.6	3.70e-03	0	60	0	780140544	57	6410
2026-01-17 22:46:27.79	124.69	27.85	-43.5	-49.0	9.4	8.95e-03	0	60	0	782237696	57	7222
2026-01-17 22:46:28.80	124.97	27.76	-43.7	-49.7	8.7	2.98e-02	0	61	0	784334848	58	7390
2026-01-17 22:46:29.81	125.25	27.67	-43.8	-50.0	8.4	4.38e-02	0	60	0	785383424	58	7661
2026-01-17 22:46:30.82	125.53	27.58	-43.8	-49.9	8.4	4.92e-02	0	60	0	787480576	58	7593
2026-01-17 22:46:31.83	125.81	27.49	-43.5	-49.1	9.2	3.83e-02	0	61	0	789577728	58	6932
2026-01-17 22:46:32.84	126.09	27.40	-43.3	-48.5	9.8	1.48e-02	0	61	0	791674880	58	6494
2026-01-17 22:46:33.84	126.36	27.31	-43.3	-48.3	10.0	9.35e-03	0	60	0	793772032	58	6346
2026-01-17 22:46:34.85	126.63	27.22	-43.4	-48.8	9.7	8.07e-03	0	61	0	794820608	58	6669
2026-01-17 22:46:35.86	126.90	27.13	-43.6	-49.4	8.9	2.02e-02	0	61	0	796917760	58	7174
2026-01-17 22:46:36.87	127.17	27.04	-43.9	-50.2	8.1	5.51e-02	0	61	0	799014912	58	7878
2026-01-17 22:46:37.88	127.44	26.95	-44.0	-50.7	7.6	1.07e-01	0	61	0	801112064	58	8316
2026-01-17 22:46:38.89	127.71	26.86	-43.6	-49.3	9.1	6.59e-02	0	61	0	803209216	58	7046
2026-01-17 22:46:39.90	127.97	26.76	-43.3	-48.5	9.9	1.15e-02	0	60	0	804257792	58	6425
2026-01-17 22:46:40.91	128.24	26.67	-43.2	-48.1	10.2	8.87e-03	0	61	0	806354944	58	6188
2026-01-17 22:46:41.92	128.50	26.58	-43.0	-47.9	10.5	3.77e-03	0	61	0	808452096	58	6001
2026-01-17 22:46:42.93	128.76	26.48	-43.3	-48.4	9.9	7.94e-03	0	61	0	810549248	58	6415
2026-01-17 22:46:43.94	129.02	26.39	-43.5	-49.0	9.3	1.50e-02	0	60	0	812646400	58	6871
2026-01-17 22:46:44.96	129.28	26.29	-43.6	-49.2	9.1	2.51e-02	0	60	0	813694976	58	6991
2026-01-17 22:46:45.97	129.54	26.20	-43.5	-49.0	9.4	1.58e-02	0	61	0	815792128	58	6827
2026-01-17 22:46:46.98	129.79	26.10	-43.4	-48.7	9.7	1.34e-02	0	60	0	817889280	58	6582
2026-01-17 22:46:47.99	130.05	26.01	-43.4	-48.6	9.7	1.05e-02	0	60	0	819986432	58	6539
2026-01-17 22:46:49.00	130.30	25.91	-43.5	-49.1	9.3	8.70e-03	0	60	0	822083584	58	6944
2026-01-17 22:46:50.00	130.55	25.82	-43.8	-50.1	8.2	4.76e-02	0	61	0	823132160	58	7805
2026-01-17 22:46:51.02	130.80	25.72	-44.0	-50.7	7.7	6.82e-02	0	61	0	825229312	58	8349
2026-01-17 22:46:52.03	131.04	25.63	-44.2	-51.8	6.6	1.47e-01	0	61	0	827326464	58	9431
2026-01-17 22:46:53.03	131.29	25.53	-44.2	-51.6	6.7	2.20e-01	0	61	0	829423616	59	8695
2026-01-17 22:46:54.05	131.54	25.43	-44.0	-50.6	7.7	1.16e-01	0	60	0	831520768	59	7764
2026-01-17 22:46:55.05	131.78	25.34	-43.9	-50.2	8.0	7.36e-02	0	60	0	832569344	59	7449
2026-01-17 22:46:56.06	132.02	25.24	-43.5	-49.0	9.2	2.14e-02	0	61	0	834666496	59	6490
2026-01-17 22:46:57.07	132.26	25.14	-43.5	-48.9	9.4	9.99e-03	0	60	0	836763648	58	6798
2026-01-17 22:46:58.08	132.50	25.05	-43.6	-49.3	9.1	1.66e-02	0	61	0	838860800	58	7096
2026-01-17 22:46:59.09	132.73	24.95	-43.8	-50.2	8.1	3.62e-02	0	61	0	840957952	58	7857
2026-01-17 22:47:00.10	132.97	24.85	-43.7	-49.9	8.4	5.54e-02	0	61	0	842006528	58	7587
2026-01-17 22:47:01.11	133.21	24.75	-43.3	-48.5	9.8	2.37e-02	0	61	0	844103680	58	6457
2026-01-17 22:47:02.12	133.44	24.66	-42.8	-47.4	10.9	5.74e-03	0	61	0	846200832	57	6039
2026-01-17 22:47:03.13	133.67	24.56	-42.6	-46.8	11.5	7.24e-04	0	61	0	848297984	57	5625
2026-01-17 22:47:04.14	133.90	24.46	-42.6	-46.9	11.5	4.24e-04	0	61	0	850395136	56	6000
2026-01-17 22:47:05.15	134.13	24.36	-42.8	-47.4	11.0	1.05e-03	0	61	0	852492288	56	6379
2026-01-17 22:47:06.16	134.36	24.26	-43.2	-48.3	10.1	4.51e-03	0	61	0	853540864	56	7057
2026-01-17 22:47:07.16	134.58	24.17	-43.2	-48.5	9.8	1.03e-02	0	61	0	855638016	57	6857
2026-01-17 22:47:08.17	134.81	24.07	-43.1	-48.2	10.1	1.16e-02	0	60	0	857735168	57	6615
2026-01-17 22:47:09.18	135.03	23.97	-42.9	-47.5	10.8	3.90e-03	0	61	0	859832320	57	6097
2026-01-17 22:47:10.19	135.25	23.87	-42.6	-47.0	11.4	1.51e-03	0	61	0	861929472	57	5749
2026-01-17 22:47:11.20	135.47	23.77	-42.5	-46.8	11.6	7.06e-04	0	61	0	862978048	57	5602
2026-01-17 22:47:12.21	135.69	23.67	-42.7	-47.1	11.3	1.11e-03	0	61	0	865075200	57	5795
2026-01-17 22:47:13.22	135.91	23.58	-42.9	-47.7	10.6	2.59e-03	0	60	0	867172352	57	6217
2026-01-17 22:47:14.23	136.13	23.48	-43.3	-48.6	9.6	6.13e-03	0	60	0	869269504	57	6932
2026-01-17 22:47:15.24	136.34	23.38	-43.5	-49.4	8.9	1.62e-02	0	61	0	871366656	57	7550
2026-01-17 22:47:16.25	136.56	23.28	-43.5	-49.4	8.8	3.35e-02	0	60	0	872415232	57	7629
2026-01-17 22:47:17.26	136.77	23.18	-43.4	-48.9	9.4	3.02e-02	0	61	0	874512384	57	7138
2026-01-17 22:47:18.27	136.98	23.08	-43.2	-48.4	9.9	1.44e-02	0	61	0	876609536	57	6748
2026-01-17 22:47:19.28	137.19	22.98	-43.0	-47.9	10.4	5.61e-03	0	61	0	878706688	57	6401
2026-01-17 22:47:20.29	137.40	22.88	-43.0	-47.8	10.4	4.44e-03	0	61	0	880803840	57	6329
2026-01-17 22:47:21.30	137.61	22.79	-42.7	-47.2	11.1	2.89e-03	0	60	0	881852416	57	5902
2026-01-17 22:47:22.31	137.81	22.69	-42.7	-47.1	11.2	1.23e-03	0	61	0	883949568	57	5811
2026-01-17 22:47:23.32	138.02	22.59	-42.6	-47.0	11.4	1.04e-03	0	60	0	886046720	57	5725
2026-01-17 22:47:24.33	138.22	22.49	-42.3	-46.2	12.0	5.07e-04	0	61	0	888143872	56	5591
2026-01-17 22:47:25.34	138.42	22.39	-41.7	-45.2	13.0	8.69e-05	0	60	0	890241024	55	5255
2026-01-17 22:47:26.35	138.62	22.29	-41.4	-44.7	13.5	2.36e-05	0	60	0	891289600	54	5259
2026-01-17 22:47:27.36	138.82	22.19	-41.2	-44.3	13.9	8.30e-06	0	61	0	893386752	54	5027
2026-01-17 22:47:28.37	139.02	22.09	-41.2	-44.3	14.0	3.80e-06	0	60	0	895483904	54	4991
2026-01-17 22:47:29.38	139.22	22.00	-41.3	-44.6	13.7	5.30e-06	0	61	0	897581056	54	5160
2026-01-17 22:47:30.39	139.42	21.90	-41.6	-45.1	13.2	1.90e-05	0	60	0	899678208	54	5520
2026-01-17 22:47:31.39	139.61	21.80	-42.0	-45.9	12.3	5.34e-05	0	61	0	900726784	54	6009
2026-01-17 22:47:32.40	139.80	21.70	-42.3	-46.6	11.5	5.10e-04	0	61	0	902823936	55	6140
2026-01-17 22:47:33.41	140.00	21.60	-42.6	-47.2	10.9	1.44e-03	0	61	0	904921088	55	6579
2026-01-17 22:47:34.42	140.19	21.50	-42.6	-47.3	10.8	2.26e-03	0	61	0	907018240	55	6657
2026-01-17 22:47:35.43	140.38	21.41	-42.5	-47.1	11.1	2.27e-03	0	61	0	909115392	55	6498
2026-01-17 22:47:36.44	140.57	21.31	-42.4	-46.7	11.4	1.33e-03	0	60	0	910163968	55	6271
2026-01-17 22:47:37.45	140.76	21.21	-42.3	-46.5	11.6	7.55e-04	0	61	0	912261120	55	6089
2026-01-17 22:47:38.46	140.94	21.11	-42.2	-46.4	11.7	4.68e-04	0	61	0	914358272	55	6012
2026-01-17 22:47:39.47	141.13	21.01	-42.1	-46.1	12.0	3.39e-04	0	61	0	916455424	55	5854
2026-01-17 22:47:40.48	141.31	20.91	-42.1	-46.1	12.1	3.27e-04	0	61	0	918552576	55	5797
2026-01-17 22:47:41.49	141.50	20.82	-42.1	-46.1	11.9	2.78e-04	0	61	0	920649728	55	5845
2026-01-17 22:47:42.50	141.68	20.72	-42.0	-45.9	12.3	2.31e-04	0	61	0	921698304	55	5657
2026-01-17 22:47:43.51	141.86	20.62	-42.0	-46.0	12.2	2.07e-04	0	61	0	923795456	55	5745
2026-01-17 22:47:44.52	142.04	20.52	-42.0	-46.0	12.1	2.12e-04	0	61	0	925892608	55	5731
2026-01-17 22:47:45.53	142.22	20.43	-42.0	-45.9	12.1	2.54e-04	0	61	0	927989760	55	5698
2026-01-17 22:47:46.54	142.40	20.33	-41.9	-45.8	12.3	2.09e-04	0	61	0	930086912	55	5653
2026-01-17 22:47:47.55	142.57	20.23	-41.9	-45.7	12.3	1.91e-04	0	61	0	931135488	55	5590
2026-01-17 22:47:48.56	142.75	20.13	-41.8	-45.6	12.5	1.22e-04	0	61	0	933232640	55	5510
2026-01-17 22:47:49.56	142.92	20.04	-41.7	-45.4	12.6	8.16e-05	0	61	0	935329792	55	5388
2026-01-17 22:47:50.57	143.09	19.94	-41.8	-45.5	12.5	8.46e-05	0	61	0	937426944	55	5431
2026-01-17 22:47:51.58	143.27	19.84	-41.7	-45.5	12.6	9.68e-05	0	61	0	939524096	55	5409
2026-01-17 22:47:52.59	143.44	19.75	-41.8	-45.4	12.7	1.13e-04	0	60	0	940572672	55	5399
2026-01-17 22:47:53.60	143.61	19.65	-41.8	-45.5	12.6	9.53e-05	0	61	0	942669824	55	5431
2026-01-17 22:47:54.61	143.78	19.56	-41.7	-45.4	12.6	1.04e-04	0	61	0	944766976	55	5372
2026-01-17 22:47:55.62	143.95	19.46	-41.9	-45.8	12.3	1.44e-04	0	61	0	946864128	55	5607
2026-01-17 22:47:56.63	144.11	19.36	-41.9	-45.7	12.3	2.01e-04	0	61	0	948961280	55	5581
2026-01-17 22:47:57.64	144.28	19.27	-41.9	-45.8	12.2	2.40e-04	0	61	0	950009856	55	5614
2026-01-17 22:47:58.65	144.44	19.17	-41.9	-45.8	12.2	2.18e-04	0	61	0	952107008	55	5625
2026-01-17 22:47:59.65	144.61	19.08	-41.9	-45.8	12.2	2.48e-04	0	61	0	954204160	55	5633
2026-01-17 22:48:00.67	144.77	18.98	-41.7	-45.5	12.5	1.61e-04	0	60	0	956301312	55	5417
2026-01-17 22:48:01.68	144.93	18.88	-41.6	-45.2	12.8	6.33e-05	0	61	0	958398464	55	5264
2026-01-17 22:48:02.69	145.09	18.79	-41.3	-44.8	13.2	4.42e-05	0	61	0	959447040	54	5284
2026-01-17 22:48:03.69	145.25	18.69	-41.3	-44.7	13.3	1.83e-05	0	61	0	961544192	54	5255
2026-01-17 22:48:04.70	145.41	18.60	-41.3	-44.6	13.4	1.44e-05	0	61	0	963641344	54	5217
2026-01-17 22:48:05.71	145.57	18.50	-41.2	-44.5	13.5	9.10e-06	0	61	0	965738496	54	5118
2026-01-17 22:48:06.72	145.73	18.41	-41.3	-44.6	13.4	1.06e-05	0	61	0	967835648	54	5211
2026-01-17 22:48:07.73	145.88	18.32	-41.4	-44.8	13.2	2.28e-05	0	61	0	968884224	54	5307
2026-01-17 22:48:08.74	146.04	18.22	-41.4	-44.8	13.2	1.67e-05	0	61	0	970981376	54	5330
2026-01-17 22:48:09.75	146.19	18.13	-41.6	-45.3	12.7	1.11e-04	0	61	0	973078528	54	5594
2026-01-17 22:48:10.76	146.35	18.03	-41.5	-45.1	12.9	3.96e-05	0	61	0	975175680	54	5492
2026-01-17 22:48:11.77	146.50	17.94	-41.5	-45.1	12.9	5.18e-05	0	60	0	977272832	54	5492
2026-01-17 22:48:12.78	146.65	17.85	-41.6	-45.2	12.8	5.49e-05	0	61	0	978321408	54	5584
2026-01-17 22:48:13.79	146.80	17.75	-41.5	-45.0	13.0	6.02e-05	0	61	0	980418560	54	5429
2026-01-17 22:48:14.80	146.95	17.66	-41.6	-45.2	12.8	4.80e-05	0	61	0	982515712	54	5573
2026-01-17 22:48:15.81	147.10	17.56	-41.6	-45.4	12.6	1.09e-04	0	61	0	984612864	54	5663
2026-01-17 22:48:16.82	147.25	17.47	-41.7	-45.4	12.6	8.92e-05	0	61	0	986710016	54	5678
2026-01-17 22:48:17.83	147.40	17.38	-41.8	-45.8	12.2	1.85e-04	0	61	0	988807168	54	5935
2026-01-17 22:48:18.84	147.54	17.29	-41.9	-45.8	12.2	3.18e-04	0	61	0	989855744	54	5943
2026-01-17 22:48:19.85	147.69	17.19	-42.2	-46.5	11.4	4.05e-04	0	61	0	991952896	54	6444
2026-01-17 22:48:20.86	147.83	17.10	-42.3	-46.8	11.0	1.43e-03	0	61	0	994050048	55	6345
2026-01-17 22:48:21.87	147.98	17.01	-42.4	-47.0	10.9	1.50e-03	0	61	0	996147200	55	6452
2026-01-17 22:48:22.88	148.12	16.92	-42.5	-47.3	10.6	2.43e-03	0	61	0	998244352	55	6699
2026-01-17 22:48:23.89	148.26	16.83	-42.6	-47.5	10.4	3.79e-03	0	61	0	999292928	55	6841
2026-01-17 22:48:24.90	148.40	16.73	-42.6	-47.6	10.3	3.93e-03	0	61	0	1001390080	55	6888
2026-01-17 22:48:25.91	148.54	16.64	-42.6	-47.7	10.1	6.32e-03	0	61	0	1003487232	55	6987
2026-01-17 22:48:26.92	148.68	16.55	-42.5	-47.3	10.5	5.13e-03	0	61	0	1005584384	55	6692
2026-01-17 22:48:27.93	148.82	16.46	-42.6	-47.7	10.1	5.49e-03	0	61	0	1007681536	55	6967
2026-01-17 22:48:28.94	148.96	16.37	-42.5	-47.3	10.5	5.29e-03	0	61	0	1008730112	55	6680
2026-01-17 22:48:29.94	149.10	16.28	-42.3	-46.8	11.0	2.61e-03	0	61	0	1010827264	55	6313
2026-01-17 22:48:30.96	149.23	16.19	-42.2	-46.7	11.2	1.72e-03	0	61	0	1012924416	55	6213
2026-01-17 22:48:31.97	149.37	16.10	-42.2	-46.5	11.3	1.38e-03	0	61	0	1015021568	55	6110
2026-01-17 22:48:32.97	149.50	16.01	-42.2	-46.5	11.4	7.03e-04	0	61	0	1017118720	55	6089
2026-01-17 22:48:33.98	149.64	15.92	-42.2	-46.6	11.3	1.13e-03	0	61	0	1018167296	55	6148
2026-01-17 22:48:34.99	149.77	15.83	-42.0	-46.2	11.6	1.08e-03	0	61	0	1020264448	55	5868
2026-01-17 22:48:36.00	149.90	15.74	-42.1	-46.5	11.3	1.05e-03	0	61	0	1022361600	55	6093
2026-01-17 22:48:37.02	150.04	15.65	-42.2	-46.7	11.2	1.35e-03	0	61	0	1024458752	55	6212
2026-01-17 22:48:38.03	150.17	15.56	-42.2	-46.7	11.1	1.43e-03	0	61	0	1026555904	55	6273
2026-01-17 22:48:39.04	150.30	15.47	-42.4	-47.1	10.7	2.92e-03	0	61	0	1027604480	55	6534
2026-01-17 22:48:40.04	150.42	15.38	-42.4	-47.2	10.6	3.31e-03	0	61	0	1029701632	55	6603
2026-01-17 22:48:41.05	150.55	15.29	-42.5	-47.3	10.4	3.22e-03	0	61	0	1031798784	55	6702
2026-01-17 22:48:42.06	150.68	15.20	-42.4	-47.3	10.5	3.63e-03	0	61	0	1033895936	55	6650
2026-01-17 22:48:43.08	150.81	15.12	-42.3	-46.9	10.8	2.47e-03	0	61	0	1035993088	55	6418
2026-01-17 22:48:44.09	150.94	15.03	-42.3	-46.9	10.8	2.55e-03	0	61	0	1037041664	55	6377
2026-01-17 22:48:45.09	151.06	14.94	-42.2	-46.7	11.0	2.30e-03	0	61	0	1039138816	55	6266
2026-01-17 22:48:46.10	151.19	14.85	-42.1	-46.4	11.3	1.19e-03	0	61	0	1041235968	55	6055
2026-01-17 22:48:47.11	151.31	14.77	-42.0	-46.2	11.6	9.62e-04	0	61	0	1043333120	55	5856
2026-01-17 22:48:48.12	151.43	14.68	-41.9	-46.0	11.8	5.33e-04	0	61	0	1045430272	55	5761
2026-01-17 22:48:49.13	151.56	14.59	-41.8	-45.9	11.8	4.07e-04	0	61	0	1046478848	55	5688
2026-01-17 22:48:50.14	151.68	14.50	-41.9	-46.0	11.8	4.64e-04	0	61	0	1048576000	55	5763
2026-01-17 22:48:51.16	151.80	14.42	-41.9	-46.0	11.8	4.02e-04	0	61	0	1050673152	55	5733
2026-01-17 22:48:52.17	151.92	14.33	-42.0	-46.3	11.5	5.52e-04	0	61	0	1052770304	55	5949
2026-01-17 22:48:53.17	152.04	14.24	-42.1	-46.5	11.2	1.09e-03	0	60	0	1054867456	55	6114
2026-01-17 22:48:54.19	152.16	14.16	-42.1	-46.6	11.1	1.30e-03	0	61	0	1056964608	55	6152
2026-01-17 22:48:55.20	152.28	14.07	-42.2	-46.8	10.9	1.84e-03	0	61	0	1058013184	55	6291
2026-01-17 22:48:56.21	152.40	13.99	-42.1	-46.6	11.1	2.41e-03	0	61	0	1060110336	55	6192
2026-01-17 22:48:57.21	152.52	13.90	-42.2	-46.8	10.9	2.17e-03	0	61	0	1062207488	55	6276
2026-01-17 22:48:58.22	152.63	13.81	-42.1	-46.5	11.2	2.11e-03	0	61	0	1064304640	55	6112
2026-01-17 22:48:59.23	152.75	13.73	-42.1	-46.7	11.0	1.78e-03	0	61	0	1066401792	55	6241
2026-01-17 22:49:00.24	152.86	13.64	-42.1	-46.7	11.0	1.81e-03	0	61	0	1067450368	55	6235
2026-01-17 22:49:01.25	152.98	13.56	-42.0	-46.4	11.2	1.59e-03	0	61	0	1069547520	55	6022
2026-01-17 22:49:02.26	153.09	13.48	-41.9	-46.2	11.5	7.27e-04	0	61	0	1071644672	55	5862
2026-01-17 22:49:03.27	153.21	13.39	-41.8	-45.9	11.8	6.20e-04	0	61	0	1073741824	55	5700
2026-01-17 22:49:04.28	153.32	13.31	-41.8	-45.8	11.9	5.79e-04	0	61	0	1075838976	55	5630
2026-01-17 22:49:05.29	153.43	13.22	-41.8	-45.9	11.8	4.33e-04	0	60	0	1076887552	55	5688
2026-01-17 22:49:06.29	153.54	13.14	-41.8	-46.0	11.7	5.49e-04	0	61	0	1078984704	55	5735
2026-01-17 22:49:07.30	153.65	13.06	-41.8	-46.0	11.7	5.69e-04	0	61	0	1081081856	55	5744
2026-01-17 22:49:08.31	153.76	12.97	-41.9	-46.1	11.6	6.86e-04	0	61	0	1083179008	55	5808
2026-01-17 22:49:09.32	153.87	12.89	-42.0	-46.4	11.2	1.04e-03	0	61	0	1085276160	55	6039
2026-01-17 22:49:10.33	153.98	12.81	-42.0	-46.3	11.3	8.64e-04	0	61	0	1086324736	55	5964
2026-01-17 22:49:11.34	154.09	12.72	-42.1	-46.6	10.9	1.52e-03	0	61	0	1088421888	55	6196
2026-01-17 22:49:12.35	154.20	12.64	-42.1	-46.6	11.0	2.13e-03	0	61	0	1090519040	55	6166
2026-01-17 22:49:13.36	154.31	12.56	-42.2	-46.9	10.7	2.68e-03	0	61	0	1092616192	55	6383
2026-01-17 22:49:14.37	154.42	12.48	-42.2	-47.0	10.5	3.71e-03	0	61	0	1094713344	55	6466
2026-01-17 22:49:15.38	154.52	12.39	-42.0	-46.9	10.6	3.27e-03	0	61	0	1095761920	55	6376
2026-01-17 22:49:16.39	154.63	12.31	-42.1	-46.8	10.8	3.07e-03	0	61	0	1097859072	55	6288
2026-01-17 22:49:17.40	154.73	12.23	-42.1	-46.8	10.7	2.84e-03	0	61	0	1099956224	55	6282
2026-01-17 22:49:18.41	154.84	12.15	-42.1	-46.8	10.7	2.24e-03	0	61	0	1102053376	55	6322
2026-01-17 22:49:19.42	154.94	12.07	-42.1	-46.8	10.7	3.27e-03	0	61	0	1104150528	55	6343
2026-01-17 22:49:20.43	155.05	11.98	-42.0	-46.6	11.0	2.50e-03	0	61	0	1105199104	55	6134
2026-01-17 22:49:21.43	155.15	11.90	-42.0	-46.6	10.9	2.48e-03	0	61	0	1107296256	55	6174
2026-01-17 22:49:22.44	155.25	11.82	-42.1	-46.7	10.8	2.04e-03	0	61	0	1109393408	55	6225
2026-01-17 22:49:23.45	155.35	11.74	-42.0	-46.5	11.0	1.69e-03	0	61	0	1111490560	55	6078
2026-01-17 22:49:24.46	155.45	11.66	-42.0	-46.6	10.8	2.04e-03	0	61	0	1113587712	55	6197
2026-01-17 22:49:25.47	155.56	11.58	-42.0	-46.7	10.8	3.05e-03	0	61	0	1114636288	55	6214
2026-01-17 22:49:26.49	155.66	11.50	-42.2	-47.0	10.5	3.28e-03	0	61	0	1116733440	55	6429
2026-01-17 22:49:27.50	155.76	11.42	-42.1	-46.9	10.6	4.88e-03	0	61	0	1118830592	55	6364
2026-01-17 22:49:28.50	155.86	11.34	-42.0	-46.7	10.7	3.34e-03	0	61	0	1120927744	55	6258
2026-01-17 22:49:29.51	155.95	11.26	-42.1	-46.8	10.6	3.27e-03	0	61	0	1123024896	55	6320
2026-01-17 22:49:30.52	156.05	11.18	-42.1	-47.0	10.4	3.23e-03	0	61	0	1125122048	55	6461
2026-01-17 22:49:31.53	156.15	11.10	-42.0	-46.8	10.6	3.29e-03	0	61	0	1126170624	55	6294
2026-01-17 22:49:32.54	156.25	11.03	-42.1	-46.9	10.6	3.83e-03	0	61	0	1128267776	55	6350
2026-01-17 22:49:33.55	156.34	10.95	-42.1	-47.0	10.4	5.18e-03	0	61	0	1130364928	55	6436
2026-01-17 22:49:34.56	156.44	10.87	-42.2	-47.3	10.1	5.37e-03	0	61	0	1132462080	55	6694
2026-01-17 22:49:35.57	156.54	10.79	-42.1	-46.9	10.4	5.21e-03	0	61	0	1134559232	55	6416
2026-01-17 22:49:36.58	156.63	10.71	-42.0	-46.8	10.6	3.76e-03	0	61	0	1135607808	55	6280
2026-01-17 22:49:37.59	156.73	10.63	-42.0	-46.8	10.5	4.40e-03	0	61	0	1137704960	55	6345
2026-01-17 22:49:38.60	156.82	10.56	-42.0	-46.8	10.5	3.60e-03	0	61	0	1139802112	55	6328
2026-01-17 22:49:39.61	156.91	10.48	-42.0	-46.7	10.6	2.86e-03	0	61	0	1141899264	55	6253
2026-01-17 22:49:40.62	157.01	10.40	-41.9	-46.5	10.8	2.98e-03	0	61	0	1143996416	55	6125
2026-01-17 22:49:41.62	157.10	10.32	-41.9	-46.6	10.7	3.27e-03	0	61	0	1145044992	55	6183
2026-01-17 22:49:42.63	157.19	10.25	-41.9	-46.6	10.7	3.07e-03	0	61	0	1147142144	55	6175
2026-01-17 22:49:43.64	157.28	10.17	-41.9	-46.7	10.6	3.06e-03	0	61	0	1149239296	55	6225
2026-01-17 22:49:44.65	157.38	10.09	-41.9	-46.6	10.7	2.93e-03	0	61	0	1151336448	55	6165
2026-01-17 22:49:45.66	157.47	10.02	-41.8	-46.3	10.9	2.27e-03	0	60	0	1153433600	55	5979
2026-01-17 22:49:46.67	157.56	9.94	-41.7	-46.2	11.1	1.71e-03	0	61	0	1154482176	55	5876
2026-01-17 22:49:47.68	157.65	9.86	-41.6	-45.9	11.3	1.69e-03	0	61	0	1156579328	55	5707
2026-01-17 22:49:48.69	157.74	9.79	-41.8	-46.4	10.8	1.73e-03	0	61	0	1158676480	55	6031
