passes_logs/2026/01/17/R2.0S_Moscow/R2.0S_Moscow__20260117_095759_NOAA_21_JPSS-2_rec.log

#Pass ID: 20260117_095759_NOAA 21 (JPSS-2)
#Satellite: NOAA 21 (JPSS-2)
#Configuration: NOAA-21
#almurnet v.1.7.20251203
#Start time: 2026-01-17 09:57:59

#Version: 2.2.20231116
#Station: R2.0S_Moscow
#Location: 37.707566 lon 55.798166 lat
#TLE: 1 54234U 22150A   26016.21096038  .00000027  00000+0  33607-4 0  9993
#TLE: 2 54234  98.7500 317.0960 0000625 282.3388  77.7718 14.19534911164985

#Time	Az	El	Level	Level2	SNR	BER	BlckErr	Temp	State	Recorded	gain1	gain2
2026-01-17 09:57:59.76	161.97	2.03	-44.1	-56.4	3.8	1.49e+00	0	51	0	0	59	15158
2026-01-17 09:58:00.77	161.97	2.10	-44.0	-56.5	3.8	1.49e+00	0	51	104	0	60	14497
2026-01-17 09:58:01.78	161.98	2.17	-44.1	-56.4	3.8	1.49e+00	0	52	104	0	59	15179
2026-01-17 09:58:02.79	161.98	2.23	-44.1	-56.4	3.8	1.49e+00	0	52	104	0	59	15124
2026-01-17 09:58:03.81	161.99	2.30	-44.1	-56.4	3.8	1.49e+00	0	52	104	0	59	15174
2026-01-17 09:58:04.82	161.99	2.36	-44.1	-56.4	3.8	1.49e+00	0	52	104	0	59	15149
2026-01-17 09:58:05.83	162.00	2.43	-44.1	-56.4	3.8	1.49e+00	0	52	104	0	59	15172
2026-01-17 09:58:06.84	162.00	2.49	-44.1	-56.4	3.8	1.49e+00	0	52	104	0	59	15186
2026-01-17 09:58:07.85	162.00	2.56	-44.1	-56.4	3.8	1.49e+00	0	52	104	0	59	15128
2026-01-17 09:58:08.86	162.01	2.63	-44.1	-56.4	3.8	1.49e+00	0	52	104	0	59	15152
2026-01-17 09:58:09.87	162.01	2.69	-44.1	-56.4	3.8	1.49e+00	0	52	104	0	59	15153
2026-01-17 09:58:10.88	162.02	2.76	-44.1	-56.4	3.8	1.49e+00	0	52	104	0	59	15188
2026-01-17 09:58:11.89	162.02	2.83	-44.1	-56.4	3.8	1.49e+00	0	52	104	0	59	15115
2026-01-17 09:58:12.90	162.03	2.89	-44.1	-56.4	3.8	1.49e+00	0	52	104	0	59	15168
2026-01-17 09:58:13.91	162.03	2.96	-44.1	-56.4	3.8	1.49e+00	0	52	104	0	59	15151
2026-01-17 09:58:14.93	162.04	3.03	-44.1	-56.4	3.8	1.49e+00	0	52	104	0	59	15139
2026-01-17 09:58:15.94	162.04	3.10	-44.1	-56.4	3.8	1.49e+00	0	53	104	0	59	15175
2026-01-17 09:58:16.95	162.05	3.16	-44.1	-56.4	3.8	1.49e+00	0	52	104	0	59	15087
2026-01-17 09:58:17.96	162.05	3.23	-44.1	-56.3	3.8	1.49e+00	0	53	104	0	59	15047
2026-01-17 09:58:18.97	162.06	3.30	-44.1	-56.3	3.8	1.49e+00	0	52	104	0	59	14977
2026-01-17 09:58:19.98	162.06	3.37	-44.1	-56.3	3.8	1.49e+00	0	53	104	0	59	15012
2026-01-17 09:58:20.99	162.07	3.44	-44.1	-56.3	3.8	1.49e+00	0	53	104	0	59	14996
2026-01-17 09:58:22.00	162.07	3.51	-44.1	-56.3	3.8	1.49e+00	0	53	104	0	59	14960
2026-01-17 09:58:23.01	162.08	3.57	-44.1	-56.2	3.8	1.49e+00	0	53	104	0	59	14758
2026-01-17 09:58:24.02	162.08	3.64	-44.1	-56.1	3.8	1.49e+00	0	53	104	0	59	14676
2026-01-17 09:58:25.04	162.08	3.71	-44.1	-56.1	3.8	1.49e+00	0	53	104	0	59	14560
2026-01-17 09:58:26.05	162.09	3.78	-44.0	-56.0	3.8	1.49e+00	0	53	104	0	59	14401
2026-01-17 09:58:27.06	162.09	3.85	-44.0	-55.9	3.8	1.49e+00	0	53	104	0	59	14288
2026-01-17 09:58:28.07	162.10	3.92	-44.0	-55.9	3.8	1.49e+00	0	53	104	0	59	14221
2026-01-17 09:58:29.08	162.10	3.99	-44.0	-55.9	3.8	1.49e+00	0	53	104	0	59	14356
2026-01-17 09:58:30.09	162.11	4.06	-44.0	-56.1	3.8	1.49e+00	0	53	104	0	59	14576
2026-01-17 09:58:31.10	162.11	4.13	-44.1	-56.2	3.8	1.49e+00	0	53	104	0	59	14758
2026-01-17 09:58:32.11	162.12	4.20	-44.1	-56.1	3.8	1.49e+00	0	54	104	0	59	14684
2026-01-17 09:58:33.12	162.12	4.27	-44.1	-56.1	3.8	1.49e+00	0	53	104	0	59	14589
2026-01-17 09:58:34.13	162.13	4.34	-44.1	-56.1	3.8	1.49e+00	0	54	104	0	59	14704
2026-01-17 09:58:35.15	162.13	4.41	-44.1	-56.3	3.8	1.49e+00	0	54	104	0	59	14911
2026-01-17 09:58:36.16	162.14	4.48	-44.1	-56.3	3.8	1.49e+00	0	54	104	0	59	14994
2026-01-17 09:58:37.17	162.14	4.56	-44.1	-56.3	3.8	1.49e+00	0	54	104	0	59	15010
2026-01-17 09:58:38.18	162.15	4.63	-44.1	-56.3	3.8	1.49e+00	0	54	104	0	59	14976
2026-01-17 09:58:39.19	162.15	4.70	-44.1	-56.3	3.8	1.49e+00	0	54	104	0	59	15045
2026-01-17 09:58:40.20	162.16	4.77	-44.1	-56.4	3.8	1.49e+00	0	54	104	0	59	15100
2026-01-17 09:58:41.21	162.16	4.84	-44.1	-56.4	3.8	1.49e+00	0	54	104	0	59	15118
2026-01-17 09:58:42.22	162.17	4.91	-44.1	-56.4	3.8	1.49e+00	0	54	104	0	59	15084
2026-01-17 09:58:43.23	162.17	4.99	-44.1	-56.3	3.8	1.49e+00	0	54	104	0	59	14975
2026-01-17 09:58:44.25	162.18	5.06	-44.1	-56.1	3.8	1.49e+00	0	54	104	0	59	14598
2026-01-17 09:58:45.26	162.18	5.13	-44.1	-56.1	3.8	1.49e+00	0	54	104	0	59	14633
2026-01-17 09:58:46.27	162.19	5.21	-44.0	-55.8	3.8	1.49e+00	0	54	104	0	59	14177
2026-01-17 09:58:47.28	162.19	5.28	-44.0	-55.6	3.8	1.49e+00	0	54	104	0	59	13779
2026-01-17 09:58:48.29	162.20	5.35	-44.0	-55.5	3.8	1.49e+00	0	54	104	0	59	13610
2026-01-17 09:58:49.30	162.20	5.43	-44.0	-55.4	3.8	1.49e+00	0	55	104	0	59	13562
2026-01-17 09:58:50.31	162.21	5.50	-43.9	-54.7	3.8	1.49e+00	0	54	104	0	59	12443
2026-01-17 09:58:51.32	162.21	5.57	-43.9	-54.4	3.8	1.49e+00	0	55	104	0	59	12091
2026-01-17 09:58:52.33	162.22	5.65	-43.8	-54.0	3.9	1.49e+00	0	55	104	0	59	11426
2026-01-17 09:58:53.35	162.22	5.72	-43.8	-54.0	3.9	1.48e+00	0	55	104	0	59	11504
2026-01-17 09:58:54.36	162.23	5.80	-43.8	-53.7	4.0	1.47e+00	0	55	104	0	59	11040
2026-01-17 09:58:55.37	162.23	5.87	-43.7	-53.1	3.9	1.47e+00	0	55	104	0	59	10387
2026-01-17 09:58:56.38	162.24	5.95	-43.7	-52.6	4.3	1.47e+00	0	55	104	0	59	9798
2026-01-17 09:58:57.39	162.24	6.02	-43.7	-52.5	4.3	1.45e+00	0	55	104	0	59	9692
2026-01-17 09:58:58.40	162.25	6.10	-43.6	-52.7	3.9	1.28e+00	0	55	104	0	59	9851
2026-01-17 09:58:59.41	162.25	6.17	-43.7	-52.8	4.2	1.46e+00	0	55	104	0	59	9980
2026-01-17 09:59:00.42	162.26	6.25	-43.7	-53.2	3.9	1.45e+00	0	55	104	0	59	10496
2026-01-17 09:59:01.43	162.26	6.33	-43.5	-51.7	4.6	1.44e+00	0	55	104	0	59	8786
2026-01-17 09:59:02.44	162.27	6.40	-43.7	-52.9	3.9	1.31e+00	0	55	104	0	59	10105
2026-01-17 09:59:03.45	162.28	6.48	-43.8	-53.2	4.1	1.47e+00	0	55	104	0	59	10432
2026-01-17 09:59:04.46	162.28	6.56	-43.8	-53.8	4.0	1.48e+00	0	55	104	0	59	11219
2026-01-17 09:59:05.48	162.29	6.63	-43.9	-54.5	3.8	1.48e+00	0	55	104	0	59	12171
2026-01-17 09:59:06.49	162.29	6.71	-44.0	-55.0	3.8	1.49e+00	0	55	104	0	59	12849
2026-01-17 09:59:07.50	162.30	6.79	-44.0	-55.7	3.8	1.49e+00	0	55	104	0	59	13986
2026-01-17 09:59:08.51	162.30	6.87	-44.1	-56.2	3.8	1.49e+00	0	55	104	0	59	14762
2026-01-17 09:59:09.52	162.31	6.94	-44.1	-56.2	3.8	1.49e+00	0	55	104	0	59	14816
2026-01-17 09:59:10.53	162.31	7.02	-44.0	-55.9	3.8	1.49e+00	0	56	104	0	59	14234
2026-01-17 09:59:11.54	162.32	7.10	-43.9	-54.9	3.8	1.49e+00	0	56	104	0	59	12763
2026-01-17 09:59:12.55	162.32	7.18	-43.8	-54.1	3.9	1.49e+00	0	56	104	0	59	11577
2026-01-17 09:59:13.56	162.33	7.26	-43.6	-51.9	4.5	1.45e+00	0	56	104	0	59	9062
2026-01-17 09:59:14.57	162.33	7.34	-43.4	-51.7	4.1	1.07e+00	0	56	104	0	58	9282
2026-01-17 09:59:15.59	162.34	7.42	-43.1	-49.7	5.7	4.73e-01	0	56	0	1048576	58	7448
2026-01-17 09:59:16.60	162.34	7.50	-42.8	-48.7	6.5	2.68e-01	0	56	0	4194304	57	7024
2026-01-17 09:59:17.61	162.35	7.58	-42.6	-47.8	7.3	1.47e-01	0	56	0	7340032	57	6333
2026-01-17 09:59:18.62	162.36	7.66	-42.2	-46.9	8.2	6.74e-02	0	56	0	10485760	56	6003
2026-01-17 09:59:19.63	162.36	7.74	-42.0	-46.4	8.7	3.74e-02	0	56	0	13631488	56	5682
2026-01-17 09:59:20.64	162.37	7.82	-41.7	-45.9	9.1	2.41e-02	0	56	0	16777216	55	5661
2026-01-17 09:59:21.65	162.37	7.90	-41.5	-45.6	9.4	1.97e-02	0	56	0	19922944	55	5501
2026-01-17 09:59:22.66	162.38	7.98	-41.4	-45.2	9.8	1.22e-02	0	56	0	23068672	54	5561
2026-01-17 09:59:23.67	162.38	8.06	-43.7	-51.9	4.7	2.11e-02	0	56	0	26214400	57	10080
2026-01-17 09:59:24.68	162.39	8.14	-44.3	-55.9	3.8	1.49e+00	0	56	104	26214400	59	14293
2026-01-17 09:59:25.69	162.39	8.23	-42.2	-47.1	8.2	8.60e-02	0	56	0	26214400	54	6915
2026-01-17 09:59:26.70	162.40	8.31	-43.5	-51.7	4.7	1.48e+00	2	56	104	27262976	58	9290
2026-01-17 09:59:27.71	162.41	8.39	-41.2	-44.8	10.3	5.16e-02	0	56	0	28311552	54	5299
2026-01-17 09:59:28.72	162.41	8.47	-41.4	-45.2	9.8	1.01e-02	0	56	0	31457280	54	5550
2026-01-17 09:59:29.73	162.42	8.56	-41.3	-45.0	9.9	8.44e-03	0	56	0	34603008	54	5452
2026-01-17 09:59:30.74	162.42	8.64	-41.3	-45.0	10.0	7.55e-03	0	56	0	37748736	54	5412
2026-01-17 09:59:31.75	162.43	8.72	-41.3	-45.1	9.8	7.98e-03	0	56	0	40894464	54	5500
2026-01-17 09:59:32.76	162.43	8.81	-41.2	-44.8	10.2	5.89e-03	0	56	0	44040192	54	5336
2026-01-17 09:59:33.77	162.44	8.89	-41.3	-45.0	10.0	6.69e-03	0	56	0	47185920	54	5434
2026-01-17 09:59:34.78	162.45	8.98	-41.1	-44.5	10.6	3.95e-03	0	56	0	50331648	54	5150
2026-01-17 09:59:35.79	162.45	9.06	-41.1	-44.6	10.5	3.47e-03	0	57	0	53477376	54	5213
2026-01-17 09:59:36.80	162.46	9.15	-41.0	-44.3	10.8	3.28e-03	0	56	0	56623104	53	5336
2026-01-17 09:59:37.81	162.46	9.23	-41.1	-44.5	10.6	3.19e-03	0	57	0	59768832	53	5438
2026-01-17 09:59:38.82	162.47	9.32	-41.0	-44.3	10.9	2.36e-03	0	57	0	62914560	53	5295
2026-01-17 09:59:39.83	162.47	9.40	-41.0	-44.4	10.8	2.24e-03	0	57	0	66060288	53	5342
2026-01-17 09:59:40.84	162.48	9.49	-41.0	-44.3	10.9	2.39e-03	0	57	0	69206016	53	5328
2026-01-17 09:59:41.85	162.49	9.58	-40.8	-44.0	11.2	1.25e-03	0	57	0	72351744	53	5149
2026-01-17 09:59:42.86	162.49	9.66	-40.8	-43.9	11.3	1.37e-03	0	57	0	75497472	53	5096
2026-01-17 09:59:43.87	162.50	9.75	-40.7	-43.8	11.5	1.11e-03	0	57	0	78643200	53	5025
2026-01-17 09:59:44.88	162.50	9.84	-40.7	-43.9	11.4	9.75e-04	0	57	0	81788928	53	5049
2026-01-17 09:59:45.89	162.51	9.93	-40.7	-43.8	11.5	8.28e-04	0	57	0	84934656	53	5029
2026-01-17 09:59:46.90	162.52	10.01	-40.7	-43.8	11.5	8.08e-04	0	57	0	88080384	53	5005
2026-01-17 09:59:47.91	162.52	10.10	-40.7	-43.8	11.6	7.33e-04	0	57	0	91226112	53	4987
2026-01-17 09:59:48.92	162.53	10.19	-40.7	-43.7	11.6	5.32e-04	0	57	0	94371840	53	4967
2026-01-17 09:59:49.93	162.53	10.28	-40.6	-43.6	11.7	5.32e-04	0	57	0	97517568	53	4912
2026-01-17 09:59:50.94	162.54	10.37	-40.6	-43.5	11.9	5.16e-04	0	57	0	100663296	53	4823
2026-01-17 09:59:51.95	162.55	10.46	-40.6	-43.5	11.9	3.94e-04	0	57	0	103809024	53	4846
2026-01-17 09:59:52.96	162.55	10.55	-40.6	-43.5	11.8	5.13e-04	0	57	0	106954752	53	4870
2026-01-17 09:59:53.97	162.56	10.64	-40.6	-43.6	11.8	3.87e-04	0	57	0	110100480	53	4885
2026-01-17 09:59:54.98	162.56	10.73	-40.6	-43.6	11.8	4.42e-04	0	57	0	113246208	53	4883
2026-01-17 09:59:55.99	162.57	10.82	-40.5	-43.4	12.0	3.23e-04	0	57	0	116391936	53	4803
2026-01-17 09:59:57.00	162.58	10.91	-40.6	-43.5	11.9	3.87e-04	0	57	0	119537664	53	4850
2026-01-17 09:59:58.00	162.58	11.00	-40.5	-43.4	12.1	3.42e-04	0	57	0	122683392	53	4798
2026-01-17 09:59:59.01	162.59	11.10	-40.5	-43.4	12.1	2.23e-04	0	57	0	125829120	53	4788
2026-01-17 10:00:00.02	162.59	11.19	-40.5	-43.4	12.1	2.26e-04	0	57	0	128974848	52	5049
2026-01-17 10:00:01.03	162.60	11.28	-40.6	-43.4	12.0	3.19e-04	0	57	0	132120576	52	5091
2026-01-17 10:00:02.04	162.61	11.37	-40.5	-43.4	12.1	3.12e-04	0	57	0	135266304	52	5059
2026-01-17 10:00:03.05	162.61	11.47	-40.5	-43.3	12.2	2.53e-04	0	57	0	138412032	52	5033
2026-01-17 10:00:04.06	162.62	11.56	-40.4	-43.2	12.3	2.61e-04	0	57	0	141557760	52	4960
2026-01-17 10:00:05.07	162.63	11.66	-40.4	-43.1	12.4	1.72e-04	0	57	0	144703488	52	4913
2026-01-17 10:00:06.08	162.63	11.75	-40.3	-43.0	12.5	1.38e-04	0	57	0	147849216	52	4858
2026-01-17 10:00:07.09	162.64	11.85	-40.4	-43.2	12.4	1.62e-04	0	57	0	150994944	52	4929
2026-01-17 10:00:08.10	162.65	11.94	-40.3	-43.0	12.5	1.40e-04	0	57	0	154140672	52	4870
2026-01-17 10:00:09.11	162.65	12.04	-40.4	-43.1	12.5	1.29e-04	0	57	0	157286400	52	4890
2026-01-17 10:00:10.12	162.66	12.13	-40.3	-43.0	12.6	1.04e-04	0	57	0	160432128	52	4842
2026-01-17 10:00:11.13	162.66	12.23	-40.3	-42.9	12.7	7.62e-05	0	58	0	163577856	52	4782
2026-01-17 10:00:12.14	162.67	12.33	-40.3	-42.9	12.6	8.69e-05	0	58	0	166723584	52	4805
2026-01-17 10:00:13.15	162.68	12.42	-40.3	-42.9	12.7	9.30e-05	0	58	0	169869312	52	4773
2026-01-17 10:00:14.16	162.68	12.52	-40.3	-42.9	12.7	7.32e-05	0	58	0	173015040	52	4786
2026-01-17 10:00:15.17	162.69	12.62	-40.3	-42.9	12.7	7.24e-05	0	58	0	176160768	52	4790
2026-01-17 10:00:16.18	162.70	12.72	-40.2	-42.8	12.8	4.50e-05	0	58	0	179306496	52	4752
2026-01-17 10:00:17.19	162.70	12.82	-40.2	-42.7	12.9	6.79e-05	0	58	0	182452224	52	4699
2026-01-17 10:00:18.20	162.71	12.92	-40.2	-42.8	12.8	5.34e-05	0	58	0	185597952	52	4711
2026-01-17 10:00:19.21	162.72	13.01	-40.2	-42.8	12.8	4.42e-05	0	58	0	188743680	52	4719
2026-01-17 10:00:20.22	162.72	13.11	-40.2	-42.7	12.9	5.95e-05	0	58	0	191889408	52	4687
2026-01-17 10:00:21.23	162.73	13.22	-40.2	-42.8	12.9	5.72e-05	0	58	0	195035136	52	4713
2026-01-17 10:00:22.24	162.74	13.32	-40.1	-42.7	13.0	4.19e-05	0	58	0	198180864	52	4663
2026-01-17 10:00:23.24	162.74	13.42	-40.2	-42.7	12.9	4.73e-05	0	58	0	201326592	52	4690
2026-01-17 10:00:24.26	162.75	13.52	-40.1	-42.7	13.0	4.88e-05	0	58	0	204472320	52	4670
2026-01-17 10:00:25.27	162.76	13.62	-40.1	-42.7	13.0	3.50e-05	0	58	0	207618048	52	4654
2026-01-17 10:00:26.28	162.77	13.72	-40.1	-42.6	13.1	3.28e-05	0	58	0	210763776	52	4601
2026-01-17 10:00:27.28	162.77	13.83	-40.1	-42.5	13.1	3.05e-05	0	58	0	213909504	52	4596
2026-01-17 10:00:28.29	162.78	13.93	-40.1	-42.6	13.0	3.12e-05	0	58	0	217055232	52	4635
2026-01-17 10:00:29.31	162.79	14.03	-40.1	-42.6	13.2	3.28e-05	0	58	0	220200960	51	4873
2026-01-17 10:00:30.32	162.79	14.14	-40.1	-42.6	13.2	2.67e-05	0	58	0	223346688	51	4875
2026-01-17 10:00:31.33	162.80	14.24	-40.1	-42.6	13.2	2.21e-05	0	58	0	226492416	51	4891
2026-01-17 10:00:32.34	162.81	14.35	-40.1	-42.6	13.2	2.13e-05	0	58	0	229638144	51	4875
2026-01-17 10:00:33.35	162.81	14.45	-40.1	-42.5	13.2	3.28e-05	0	58	0	232783872	51	4863
2026-01-17 10:00:34.36	162.82	14.56	-40.1	-42.5	13.2	2.28e-05	0	58	0	235929600	51	4844
2026-01-17 10:00:35.37	162.83	14.67	-40.1	-42.5	13.2	1.44e-05	0	58	0	239075328	51	4851
2026-01-17 10:00:36.38	162.84	14.77	-40.1	-42.5	13.2	2.36e-05	0	58	0	242221056	51	4862
2026-01-17 10:00:37.39	162.84	14.88	-40.1	-42.5	13.3	1.52e-05	0	58	0	245366784	51	4826
2026-01-17 10:00:38.40	162.85	14.99	-40.1	-42.5	13.3	2.74e-05	0	58	0	248512512	51	4847
2026-01-17 10:00:39.40	162.86	15.10	-40.1	-42.6	13.2	2.59e-05	0	58	0	251658240	51	4878
2026-01-17 10:00:40.41	162.86	15.21	-40.1	-42.6	13.2	1.98e-05	0	58	0	254803968	51	4889
2026-01-17 10:00:41.42	162.87	15.32	-40.1	-42.6	13.2	1.60e-05	0	58	0	257949696	51	4894
2026-01-17 10:00:42.43	162.88	15.43	-40.2	-42.6	13.2	2.13e-05	0	58	0	261095424	51	4910
2026-01-17 10:00:43.44	162.89	15.54	-40.1	-42.5	13.3	2.44e-05	0	58	0	264241152	51	4833
2026-01-17 10:00:44.45	162.89	15.65	-40.1	-42.5	13.2	2.21e-05	0	58	0	267386880	51	4865
2026-01-17 10:00:45.46	162.90	15.76	-40.1	-42.5	13.3	1.44e-05	0	58	0	270532608	51	4845
2026-01-17 10:00:46.47	162.91	15.87	-40.1	-42.6	13.2	2.51e-05	0	58	0	273678336	51	4896
2026-01-17 10:00:47.48	162.92	15.98	-40.1	-42.6	13.2	2.51e-05	0	58	0	276824064	51	4874
2026-01-17 10:00:48.49	162.92	16.10	-40.1	-42.6	13.2	1.75e-05	0	58	0	279969792	51	4888
2026-01-17 10:00:49.50	162.93	16.21	-40.1	-42.6	13.2	2.13e-05	0	59	0	283115520	51	4888
2026-01-17 10:00:50.51	162.94	16.32	-40.1	-42.6	13.3	2.28e-05	0	58	0	286261248	51	4874
2026-01-17 10:00:51.52	162.95	16.44	-40.1	-42.6	13.2	2.36e-05	0	58	0	289406976	51	4872
2026-01-17 10:00:52.53	162.95	16.55	-40.1	-42.6	13.2	2.82e-05	0	58	0	292552704	51	4877
2026-01-17 10:00:53.54	162.96	16.67	-40.1	-42.6	13.2	2.21e-05	0	58	0	295698432	51	4889
2026-01-17 10:00:54.55	162.97	16.79	-40.1	-42.6	13.2	2.36e-05	0	58	0	298844160	51	4886
2026-01-17 10:00:55.56	162.98	16.90	-40.2	-42.6	13.2	2.51e-05	0	58	0	301989888	51	4910
2026-01-17 10:00:56.57	162.99	17.02	-40.2	-42.6	13.2	2.67e-05	0	58	0	305135616	51	4910
2026-01-17 10:00:57.58	162.99	17.14	-40.2	-42.6	13.2	2.36e-05	0	58	0	308281344	51	4924
2026-01-17 10:00:58.59	163.00	17.26	-40.2	-42.7	13.1	2.97e-05	0	59	0	311427072	51	4928
2026-01-17 10:00:59.60	163.01	17.37	-40.2	-42.6	13.2	2.13e-05	0	58	0	314572800	51	4892
2026-01-17 10:01:00.61	163.02	17.49	-40.2	-42.6	13.2	2.51e-05	0	58	0	317718528	51	4891
2026-01-17 10:01:01.62	163.03	17.61	-40.2	-42.6	13.2	2.36e-05	0	58	0	321912832	51	4917
2026-01-17 10:01:02.63	163.03	17.74	-40.1	-42.6	13.1	2.89e-05	0	58	0	324009984	51	4898
2026-01-17 10:01:03.64	163.04	17.86	-40.2	-42.6	13.1	6.02e-05	0	58	0	327155712	51	4906
2026-01-17 10:01:04.65	163.05	17.98	-40.1	-42.6	13.1	6.56e-05	0	58	0	330301440	51	4892
2026-01-17 10:01:05.66	163.06	18.10	-40.2	-42.6	13.1	7.01e-05	0	59	0	334495744	51	4919
2026-01-17 10:01:06.67	163.07	18.23	-40.1	-42.6	13.1	8.69e-05	0	58	0	337641472	51	4889
2026-01-17 10:01:07.68	163.07	18.35	-40.1	-42.6	12.9	5.65e-04	0	58	0	340787200	51	4926
2026-01-17 10:01:08.69	163.08	18.47	-40.1	-42.6	12.9	4.54e-03	0	59	0	343932928	51	4872
2026-01-17 10:01:09.70	163.09	18.60	-40.0	-42.5	12.8	1.28e-02	0	59	0	347078656	51	4851
2026-01-17 10:01:10.71	163.10	18.72	-39.9	-42.5	12.8	1.89e-02	0	58	0	349175808	51	4865
2026-01-17 10:01:11.72	163.11	18.85	-39.9	-42.5	12.8	2.01e-02	0	59	0	353370112	51	4845
2026-01-17 10:01:12.73	163.12	18.98	-39.8	-42.5	12.8	2.01e-02	0	59	0	356515840	51	4837
2026-01-17 10:01:13.74	163.13	19.11	-39.9	-42.6	12.7	1.93e-02	0	59	0	359661568	51	4883
2026-01-17 10:01:14.75	163.13	19.23	-39.9	-42.5	12.8	1.25e-02	0	59	0	362807296	51	4864
2026-01-17 10:01:15.76	163.14	19.36	-40.2	-42.6	13.2	2.05e-05	0	59	0	365953024	51	4900
2026-01-17 10:01:16.76	163.15	19.49	-40.1	-42.5	13.3	2.36e-05	0	59	0	369098752	51	4861
2026-01-17 10:01:17.78	163.16	19.62	-40.1	-42.5	13.4	1.37e-05	0	59	0	372244480	51	4843
2026-01-17 10:01:18.78	163.17	19.75	-40.1	-42.5	13.4	1.60e-05	0	59	0	375390208	51	4848
2026-01-17 10:01:19.79	163.18	19.89	-40.1	-42.4	13.4	1.83e-05	0	59	0	378535936	51	4806
2026-01-17 10:01:20.80	163.19	20.02	-40.1	-42.5	13.4	1.83e-05	0	59	0	381681664	51	4825
2026-01-17 10:01:21.81	163.20	20.15	-40.0	-42.4	13.4	9.10e-06	0	59	0	384827392	51	4797
2026-01-17 10:01:22.82	163.20	20.29	-40.0	-42.4	13.5	6.80e-06	0	59	0	387973120	51	4762
2026-01-17 10:01:23.83	163.21	20.42	-40.1	-42.4	13.5	1.22e-05	0	59	0	391118848	51	4788
2026-01-17 10:01:24.84	163.22	20.56	-40.0	-42.3	13.6	6.10e-06	0	58	0	394264576	51	4739
2026-01-17 10:01:25.85	163.23	20.69	-39.9	-42.2	13.6	9.10e-06	0	59	0	397410304	51	4697
2026-01-17 10:01:26.86	163.24	20.83	-39.9	-42.3	13.6	6.80e-06	0	59	0	400556032	51	4713
2026-01-17 10:01:27.87	163.25	20.97	-39.9	-42.2	13.6	5.30e-06	0	59	0	403701760	51	4689
2026-01-17 10:01:28.88	163.26	21.10	-39.9	-42.2	13.6	4.50e-06	0	59	0	406847488	51	4700
2026-01-17 10:01:29.89	163.27	21.24	-39.9	-42.2	13.7	9.10e-06	0	59	0	409993216	51	4667
2026-01-17 10:01:30.90	163.28	21.38	-39.8	-42.1	13.8	3.80e-06	0	59	0	413138944	51	4622
2026-01-17 10:01:31.91	163.29	21.52	-39.8	-42.0	13.9	3.80e-06	0	59	0	416284672	51	4572
2026-01-17 10:01:32.92	163.30	21.67	-39.7	-41.9	14.0	1.50e-06	0	59	0	419430400	51	4496
2026-01-17 10:01:33.93	163.31	21.81	-39.7	-41.8	14.0	3.80e-06	0	59	0	422576128	51	4481
2026-01-17 10:01:34.94	163.32	21.95	-39.7	-41.9	14.0	7.00e-07	0	59	0	425721856	51	4496
2026-01-17 10:01:35.95	163.33	22.09	-39.6	-41.8	14.1	1.50e-06	0	59	0	428867584	51	4453
2026-01-17 10:01:36.96	163.34	22.24	-39.6	-41.7	14.2	7.00e-07	0	59	0	432013312	51	4415
2026-01-17 10:01:37.97	163.35	22.39	-39.6	-41.7	14.1	5.30e-06	0	59	0	435159040	51	4441
2026-01-17 10:01:38.98	163.36	22.53	-39.5	-41.7	14.2	7.00e-07	0	59	0	438304768	51	4418
2026-01-17 10:01:39.99	163.37	22.68	-39.5	-41.7	14.2	1.50e-06	0	59	0	441450496	51	4404
2026-01-17 10:01:41.01	163.38	22.83	-39.4	-41.5	14.3	7.00e-07	0	59	0	444596224	50	4591
2026-01-17 10:01:42.01	163.39	22.98	-39.4	-41.5	14.4	0.00e+00	0	59	0	447741952	50	4568
2026-01-17 10:01:43.02	163.40	23.13	-39.3	-41.4	14.5	0.00e+00	0	59	0	450887680	50	4509
2026-01-17 10:01:44.03	163.41	23.28	-39.3	-41.4	14.4	0.00e+00	0	59	0	454033408	50	4520
2026-01-17 10:01:45.04	163.42	23.43	-39.3	-41.4	14.4	0.00e+00	0	59	0	457179136	50	4523
2026-01-17 10:01:46.05	163.43	23.58	-39.3	-41.4	14.5	7.00e-07	0	59	0	460324864	50	4526
2026-01-17 10:01:47.06	163.44	23.73	-39.3	-41.3	14.5	0.00e+00	0	59	0	463470592	50	4477
2026-01-17 10:01:48.07	163.45	23.89	-39.2	-41.3	14.6	0.00e+00	0	59	0	466616320	50	4461
2026-01-17 10:01:49.08	163.46	24.04	-39.2	-41.2	14.7	7.00e-07	0	59	0	469762048	50	4413
2026-01-17 10:01:50.09	163.47	24.20	-39.2	-41.2	14.7	0.00e+00	0	59	0	472907776	50	4398
2026-01-17 10:01:51.10	163.48	24.36	-39.2	-41.1	14.7	7.00e-07	0	59	0	476053504	50	4387
2026-01-17 10:01:52.11	163.49	24.51	-39.1	-41.1	14.7	0.00e+00	0	59	0	479199232	50	4391
2026-01-17 10:01:53.12	163.50	24.67	-39.2	-41.2	14.7	0.00e+00	0	59	0	482344960	50	4424
2026-01-17 10:01:54.13	163.52	24.83	-39.2	-41.2	14.7	7.00e-07	0	59	0	485490688	50	4434
2026-01-17 10:01:55.14	163.53	24.99	-39.3	-41.3	14.6	0.00e+00	0	59	0	488636416	50	4470
2026-01-17 10:01:56.15	163.54	25.16	-39.3	-41.3	14.6	0.00e+00	0	59	0	491782144	50	4479
2026-01-17 10:01:57.16	163.55	25.32	-39.3	-41.3	14.6	7.00e-07	0	59	0	494927872	50	4468
2026-01-17 10:01:58.17	163.56	25.48	-39.3	-41.4	14.5	7.00e-07	0	59	0	498073600	50	4522
2026-01-17 10:01:59.18	163.57	25.65	-39.4	-41.4	14.5	1.50e-06	0	59	0	501219328	50	4535
2026-01-17 10:02:00.19	163.58	25.81	-39.4	-41.5	14.4	0.00e+00	0	59	0	504365056	50	4594
2026-01-17 10:02:01.20	163.59	25.98	-39.6	-41.7	14.3	0.00e+00	0	59	0	507510784	50	4669
2026-01-17 10:02:02.20	163.61	26.15	-39.6	-41.8	14.1	1.50e-06	0	59	0	510656512	50	4728
2026-01-17 10:02:03.21	163.62	26.32	-39.7	-41.9	14.0	3.00e-06	0	59	0	513802240	50	4799
2026-01-17 10:02:04.22	163.63	26.49	-39.8	-42.0	14.0	2.20e-06	0	59	0	516947968	50	4832
2026-01-17 10:02:05.23	163.64	26.66	-39.9	-42.1	13.9	5.30e-06	0	59	0	520093696	50	4900
2026-01-17 10:02:06.24	163.65	26.83	-39.9	-42.1	13.8	5.30e-06	0	59	0	523239424	50	4916
2026-01-17 10:02:07.25	163.67	27.00	-40.0	-42.3	13.7	4.50e-06	0	59	0	526385152	50	4988
2026-01-17 10:02:08.26	163.68	27.18	-40.1	-42.4	13.6	6.10e-06	0	59	0	529530880	50	5083
2026-01-17 10:02:09.27	163.69	27.35	-40.2	-42.6	13.4	1.37e-05	0	59	0	532676608	50	5168
2026-01-17 10:02:10.28	163.70	27.53	-40.2	-42.6	13.3	1.67e-05	0	59	0	535822336	51	4914
2026-01-17 10:02:11.29	163.72	27.71	-40.4	-42.8	13.1	2.13e-05	0	59	0	538968064	51	5040
2026-01-17 10:02:12.30	163.73	27.89	-40.4	-42.8	13.2	2.51e-05	0	60	0	542113792	51	5014
2026-01-17 10:02:13.31	163.74	28.07	-40.4	-42.8	13.1	3.05e-05	0	59	0	545259520	51	5040
2026-01-17 10:02:14.32	163.76	28.25	-40.4	-42.9	13.1	2.89e-05	0	59	0	548405248	51	5052
2026-01-17 10:02:15.33	163.77	28.43	-40.4	-42.8	13.1	3.66e-05	0	59	0	551550976	51	5037
2026-01-17 10:02:16.34	163.78	28.61	-40.4	-42.9	13.1	2.97e-05	0	59	0	554696704	51	5049
2026-01-17 10:02:17.35	163.79	28.80	-40.4	-42.9	13.1	3.81e-05	0	59	0	557842432	51	5068
2026-01-17 10:02:18.36	163.81	28.99	-40.4	-42.8	13.1	2.89e-05	0	59	0	560988160	51	5038
2026-01-17 10:02:19.37	163.82	29.17	-40.4	-42.9	13.1	3.43e-05	0	59	0	564133888	51	5056
2026-01-17 10:02:20.38	163.84	29.36	-40.3	-42.6	13.3	2.21e-05	0	59	0	567279616	51	4922
2026-01-17 10:02:21.39	163.85	29.55	-40.2	-42.5	13.5	9.90e-06	0	60	0	570425344	51	4850
2026-01-17 10:02:22.40	163.86	29.74	-40.1	-42.4	13.6	8.30e-06	0	59	0	573571072	51	4781
2026-01-17 10:02:23.41	163.88	29.94	-39.9	-42.2	13.8	6.10e-06	0	59	0	576716800	51	4660
2026-01-17 10:02:24.42	163.89	30.13	-39.9	-42.1	13.9	5.30e-06	0	59	0	579862528	51	4605
2026-01-17 10:02:25.43	163.91	30.32	-39.9	-42.1	13.9	4.50e-06	0	60	0	583008256	51	4610
2026-01-17 10:02:26.44	163.92	30.52	-39.7	-41.8	14.2	3.00e-06	0	59	0	586153984	51	4487
2026-01-17 10:02:27.45	163.93	30.72	-39.8	-41.9	14.1	1.50e-06	0	59	0	589299712	51	4533
2026-01-17 10:02:28.46	163.95	30.92	-39.6	-41.7	14.3	0.00e+00	0	60	0	592445440	51	4408
2026-01-17 10:02:29.47	163.96	31.12	-39.6	-41.7	14.3	0.00e+00	0	59	0	595591168	51	4398
2026-01-17 10:02:30.48	163.98	31.32	-39.5	-41.5	14.4	7.00e-07	0	59	0	598736896	51	4339
2026-01-17 10:02:31.50	163.99	31.53	-39.5	-41.6	14.5	7.00e-07	0	59	0	601882624	50	4603
2026-01-17 10:02:32.51	164.01	31.73	-39.5	-41.6	14.4	0.00e+00	0	60	0	605028352	50	4612
2026-01-17 10:02:33.52	164.03	31.94	-39.6	-41.7	14.3	7.00e-07	0	59	0	608174080	50	4689
2026-01-17 10:02:34.53	164.04	32.15	-39.6	-41.7	14.3	2.20e-06	0	60	0	611319808	50	4703
2026-01-17 10:02:35.53	164.06	32.35	-39.9	-42.1	13.9	7.00e-07	0	60	0	614465536	50	4885
2026-01-17 10:02:36.54	164.07	32.56	-39.9	-42.0	14.0	7.00e-07	0	60	0	617611264	50	4864
2026-01-17 10:02:37.55	164.09	32.78	-40.0	-42.3	13.8	4.50e-06	0	59	0	620756992	50	4993
2026-01-17 10:02:38.56	164.10	32.99	-40.1	-42.4	13.7	3.80e-06	0	59	0	623902720	50	5051
2026-01-17 10:02:39.57	164.12	33.20	-40.2	-42.4	13.6	9.10e-06	0	60	0	627048448	50	5100
2026-01-17 10:02:40.59	164.14	33.42	-40.3	-42.7	13.3	8.30e-06	0	59	0	630194176	51	4939
2026-01-17 10:02:41.60	164.15	33.64	-40.4	-42.8	13.2	1.90e-05	0	59	0	633339904	51	5029
2026-01-17 10:02:42.61	164.17	33.86	-40.4	-42.9	13.1	3.20e-05	0	60	0	636485632	51	5063
2026-01-17 10:02:43.62	164.19	34.08	-40.7	-43.2	12.8	5.26e-05	0	59	0	640679936	51	5257
2026-01-17 10:02:44.63	164.21	34.30	-40.6	-43.2	12.8	5.72e-05	0	59	0	642777088	51	5243
2026-01-17 10:02:45.64	164.22	34.53	-40.7	-43.4	12.5	1.11e-04	0	60	0	645922816	52	5070
2026-01-17 10:02:46.65	164.24	34.76	-40.8	-43.5	12.4	1.29e-04	0	60	0	649068544	52	5137
2026-01-17 10:02:47.65	164.26	34.98	-40.9	-43.7	12.2	1.70e-04	0	60	0	652214272	52	5233
2026-01-17 10:02:48.66	164.28	35.21	-41.0	-43.8	12.1	2.60e-04	0	60	0	656408576	52	5325
2026-01-17 10:02:49.67	164.30	35.44	-41.2	-44.2	11.8	4.29e-04	0	59	0	659554304	52	5531
2026-01-17 10:02:50.68	164.31	35.67	-41.2	-44.2	11.7	4.65e-04	0	60	0	662700032	53	5239
2026-01-17 10:02:51.69	164.33	35.91	-41.4	-44.5	11.4	9.19e-04	0	60	0	664797184	53	5451
2026-01-17 10:02:52.70	164.35	36.15	-41.4	-44.4	11.5	8.48e-04	0	60	0	667942912	53	5396
2026-01-17 10:02:53.71	164.37	36.38	-41.5	-44.6	11.3	1.15e-03	0	60	0	672137216	53	5524
2026-01-17 10:02:54.72	164.39	36.62	-41.6	-44.8	11.2	1.24e-03	0	59	0	675282944	53	5603
2026-01-17 10:02:55.73	164.41	36.86	-41.6	-44.7	11.2	1.34e-03	0	59	0	678428672	53	5581
2026-01-17 10:02:56.74	164.43	37.11	-41.5	-44.6	11.3	1.20e-03	0	60	0	681574400	53	5503
2026-01-17 10:02:57.75	164.45	37.35	-41.5	-44.5	11.4	1.01e-03	0	60	0	684720128	53	5447
2026-01-17 10:02:58.76	164.47	37.60	-41.4	-44.4	11.6	7.22e-04	0	59	0	687865856	53	5359
2026-01-17 10:02:59.77	164.49	37.85	-41.4	-44.4	11.6	7.09e-04	0	60	0	691011584	53	5344
2026-01-17 10:03:00.78	164.51	38.10	-41.2	-44.1	11.8	4.58e-04	0	60	0	694157312	53	5202
2026-01-17 10:03:01.79	164.54	38.35	-41.2	-44.1	11.9	4.03e-04	0	60	0	697303040	53	5161
2026-01-17 10:03:02.80	164.56	38.61	-41.2	-44.0	12.0	3.42e-04	0	60	0	700448768	53	5125
2026-01-17 10:03:03.81	164.58	38.86	-41.0	-43.8	12.2	2.55e-04	0	59	0	703594496	53	4985
2026-01-17 10:03:04.82	164.60	39.12	-41.0	-43.7	12.2	2.03e-04	0	59	0	706740224	53	4969
2026-01-17 10:03:05.82	164.62	39.38	-41.0	-43.8	12.2	2.15e-04	0	60	0	709885952	53	4987
2026-01-17 10:03:06.83	164.65	39.64	-41.0	-43.7	12.3	1.89e-04	0	60	0	713031680	53	4951
2026-01-17 10:03:07.84	164.67	39.90	-41.0	-43.7	12.2	2.66e-04	0	60	0	716177408	53	4983
2026-01-17 10:03:08.85	164.69	40.17	-41.0	-43.7	12.2	2.01e-04	0	60	0	719323136	53	4944
2026-01-17 10:03:09.86	164.72	40.44	-41.0	-43.7	12.2	2.27e-04	0	60	0	722468864	53	4973
2026-01-17 10:03:10.87	164.74	40.71	-41.0	-43.8	12.1	2.10e-04	0	60	0	725614592	53	5009
2026-01-17 10:03:11.88	164.77	40.98	-41.1	-43.8	12.1	2.90e-04	0	59	0	728760320	53	5022
2026-01-17 10:03:12.89	164.79	41.25	-41.2	-44.0	11.9	3.21e-04	0	59	0	731906048	53	5134
2026-01-17 10:03:13.90	164.82	41.53	-41.2	-44.1	11.8	3.81e-04	0	60	0	735051776	53	5218
2026-01-17 10:03:14.91	164.84	41.81	-41.3	-44.3	11.7	5.58e-04	0	60	0	738197504	53	5309
2026-01-17 10:03:15.92	164.87	42.09	-41.5	-44.6	11.4	8.72e-04	0	60	0	741343232	53	5497
2026-01-17 10:03:16.93	164.89	42.37	-41.5	-44.6	11.4	1.04e-03	0	60	0	744488960	53	5510
2026-01-17 10:03:17.94	164.92	42.66	-41.7	-44.8	11.1	1.43e-03	0	60	0	747634688	53	5636
2026-01-17 10:03:18.95	164.95	42.94	-41.9	-45.2	10.8	2.32e-03	0	60	0	750780416	54	5557
2026-01-17 10:03:19.96	164.98	43.23	-42.0	-45.5	10.5	3.86e-03	0	59	0	753926144	54	5738
2026-01-17 10:03:20.97	165.00	43.52	-42.1	-45.6	10.4	5.00e-03	0	60	0	757071872	54	5796
2026-01-17 10:03:21.98	165.03	43.82	-42.2	-45.8	10.1	6.41e-03	0	60	0	760217600	55	5644
2026-01-17 10:03:22.98	165.06	44.11	-42.2	-45.8	10.2	6.17e-03	0	60	0	763363328	55	5593
2026-01-17 10:03:23.99	165.09	44.41	-42.1	-45.7	10.3	6.37e-03	0	60	0	766509056	55	5541
2026-01-17 10:03:25.00	165.12	44.71	-42.0	-45.4	10.5	4.30e-03	0	60	0	769654784	55	5357
2026-01-17 10:03:26.01	165.15	45.01	-41.9	-45.2	10.6	3.44e-03	0	60	0	772800512	55	5274
2026-01-17 10:03:27.02	165.18	45.32	-41.8	-45.0	10.9	2.31e-03	0	60	0	775946240	55	5109
2026-01-17 10:03:28.03	165.21	45.62	-41.8	-45.0	10.9	2.26e-03	0	60	0	779091968	55	5125
2026-01-17 10:03:29.04	165.25	45.93	-41.8	-45.0	10.8	2.41e-03	0	60	0	782237696	55	5122
2026-01-17 10:03:30.05	165.28	46.25	-42.0	-45.4	10.5	4.02e-03	0	60	0	785383424	55	5365
2026-01-17 10:03:31.06	165.31	46.56	-42.1	-45.6	10.2	5.35e-03	0	60	0	788529152	55	5499
2026-01-17 10:03:32.07	165.35	46.88	-42.1	-45.6	10.3	5.89e-03	0	60	0	791674880	55	5496
2026-01-17 10:03:33.08	165.38	47.20	-42.0	-45.5	10.3	5.13e-03	0	60	0	794820608	55	5424
2026-01-17 10:03:34.09	165.42	47.52	-42.0	-45.4	10.5	4.09e-03	0	60	0	797966336	55	5373
2026-01-17 10:03:35.10	165.45	47.84	-41.7	-44.8	11.0	2.32e-03	0	60	0	801112064	55	5026
2026-01-17 10:03:36.11	165.49	48.17	-41.5	-44.5	11.4	1.13e-03	0	60	0	804257792	55	4867
2026-01-17 10:03:37.12	165.53	48.50	-41.3	-44.2	11.8	5.88e-04	0	60	0	807403520	54	4972
2026-01-17 10:03:38.13	165.56	48.83	-41.2	-44.1	11.9	4.55e-04	0	60	0	810549248	54	4880
2026-01-17 10:03:39.14	165.60	49.16	-41.3	-44.1	11.8	4.26e-04	0	60	0	813694976	54	4923
2026-01-17 10:03:40.14	165.64	49.49	-41.1	-43.9	12.1	3.12e-04	0	60	0	816840704	54	4794
2026-01-17 10:03:41.15	165.68	49.83	-41.2	-43.9	12.0	4.00e-04	0	60	0	819986432	54	4814
2026-01-17 10:03:42.16	165.72	50.17	-41.1	-43.9	12.1	2.95e-04	0	60	0	823132160	54	4792
2026-01-17 10:03:43.17	165.77	50.52	-41.0	-43.8	12.2	2.43e-04	0	60	0	826277888	54	4706
2026-01-17 10:03:44.18	165.81	50.86	-41.2	-43.9	12.1	2.53e-04	0	60	0	829423616	54	4803
2026-01-17 10:03:45.19	165.85	51.21	-41.2	-43.9	12.1	2.69e-04	0	60	0	832569344	54	4810
2026-01-17 10:03:46.20	165.90	51.57	-41.0	-43.7	12.3	1.69e-04	0	60	0	835715072	54	4672
2026-01-17 10:03:47.21	165.94	51.92	-40.8	-43.4	12.6	1.33e-04	0	60	0	838860800	53	4797
2026-01-17 10:03:48.22	165.99	52.28	-40.8	-43.3	12.7	6.17e-05	0	60	0	842006528	53	4750
2026-01-17 10:03:49.23	166.04	52.64	-40.8	-43.3	12.7	9.15e-05	0	60	0	845152256	53	4752
2026-01-17 10:03:50.24	166.09	53.00	-40.8	-43.4	12.6	8.01e-05	0	60	0	848297984	53	4763
2026-01-17 10:03:51.25	166.14	53.36	-40.8	-43.4	12.6	9.30e-05	0	60	0	851443712	53	4768
2026-01-17 10:03:52.26	166.19	53.73	-40.8	-43.4	12.6	1.02e-04	0	60	0	854589440	53	4800
2026-01-17 10:03:53.27	166.24	54.10	-40.8	-43.5	12.5	9.61e-05	0	60	0	857735168	53	4817
2026-01-17 10:03:54.28	166.29	54.47	-40.9	-43.5	12.4	1.23e-04	0	60	0	860880896	53	4870
2026-01-17 10:03:55.29	166.35	54.85	-40.7	-43.2	12.7	8.92e-05	0	60	0	864026624	53	4662
2026-01-17 10:03:56.30	166.41	55.23	-40.5	-42.9	13.0	2.74e-05	0	60	0	867172352	52	4801
2026-01-17 10:03:57.31	166.46	55.61	-40.3	-42.7	13.3	2.51e-05	0	60	0	870318080	52	4678
2026-01-17 10:03:58.32	166.52	55.99	-40.1	-42.4	13.6	8.30e-06	0	60	0	873463808	52	4536
2026-01-17 10:03:59.34	166.59	56.38	-40.2	-42.5	13.5	6.80e-06	0	60	0	876609536	52	4566
2026-01-17 10:04:00.34	166.65	56.76	-40.2	-42.5	13.5	1.22e-05	0	60	0	879755264	52	4562
2026-01-17 10:04:01.36	166.71	57.16	-40.2	-42.5	13.6	1.22e-05	0	60	0	882900992	52	4556
2026-01-17 10:04:02.37	166.78	57.55	-40.2	-42.5	13.5	1.29e-05	0	60	0	886046720	52	4555
2026-01-17 10:04:03.38	166.85	57.95	-40.2	-42.5	13.5	1.06e-05	0	60	0	889192448	52	4582
2026-01-17 10:04:04.39	166.92	58.35	-40.2	-42.6	13.4	2.13e-05	0	60	0	892338176	52	4622
2026-01-17 10:04:05.40	166.99	58.75	-40.1	-42.4	13.7	1.44e-05	0	60	0	895483904	52	4509
2026-01-17 10:04:06.41	167.06	59.15	-40.0	-42.2	13.9	3.00e-06	0	60	0	898629632	51	4682
2026-01-17 10:04:07.42	167.14	59.56	-39.9	-42.1	14.0	2.20e-06	0	60	0	901775360	51	4614
2026-01-17 10:04:08.43	167.22	59.97	-40.0	-42.2	13.9	4.50e-06	0	60	0	904921088	51	4686
2026-01-17 10:04:09.44	167.30	60.38	-39.8	-42.0	14.1	2.20e-06	0	60	0	908066816	51	4550
2026-01-17 10:04:10.45	167.38	60.80	-39.6	-41.6	14.4	0.00e+00	0	60	0	911212544	51	4379
2026-01-17 10:04:11.45	167.47	61.21	-39.6	-41.6	14.4	0.00e+00	0	60	0	914358272	51	4383
2026-01-17 10:04:12.46	167.56	61.63	-39.5	-41.5	14.5	7.00e-07	0	60	0	917504000	50	4581
2026-01-17 10:04:13.48	167.65	62.06	-39.5	-41.5	14.6	3.00e-06	0	60	0	920649728	50	4564
2026-01-17 10:04:14.49	167.75	62.49	-39.5	-41.5	14.6	0.00e+00	0	60	0	923795456	50	4546
2026-01-17 10:04:15.50	167.85	62.91	-39.3	-41.3	14.8	0.00e+00	0	60	0	926941184	50	4447
2026-01-17 10:04:16.50	167.95	63.34	-39.2	-41.2	14.8	0.00e+00	0	60	0	930086912	50	4403
2026-01-17 10:04:17.51	168.05	63.77	-39.4	-41.4	14.6	0.00e+00	0	60	0	933232640	50	4513
2026-01-17 10:04:18.52	168.16	64.21	-39.5	-41.6	14.5	1.50e-06	0	60	0	936378368	50	4599
2026-01-17 10:04:19.53	168.28	64.65	-39.6	-41.7	14.4	0.00e+00	0	60	0	939524096	50	4663
2026-01-17 10:04:20.54	168.40	65.09	-39.4	-41.4	14.5	0.00e+00	0	60	0	942669824	50	4532
2026-01-17 10:04:21.55	168.52	65.53	-39.1	-41.1	14.9	0.00e+00	0	60	0	945815552	50	4349
2026-01-17 10:04:22.56	168.65	65.98	-38.9	-40.7	15.2	0.00e+00	0	60	0	948961280	49	4437
2026-01-17 10:04:23.57	168.78	66.42	-39.1	-40.9	15.1	0.00e+00	0	60	0	952107008	49	4543
2026-01-17 10:04:24.58	168.92	66.87	-39.3	-41.2	14.8	0.00e+00	0	60	0	955252736	49	4683
2026-01-17 10:04:25.59	169.06	67.33	-39.2	-41.2	14.8	7.00e-07	0	60	0	958398464	49	4668
2026-01-17 10:04:26.60	169.21	67.78	-39.0	-40.9	15.0	0.00e+00	0	60	0	961544192	49	4523
2026-01-17 10:04:27.61	169.37	68.24	-38.9	-40.8	15.2	7.00e-07	0	60	0	964689920	49	4451
2026-01-17 10:04:28.62	169.53	68.70	-39.1	-41.0	14.9	0.00e+00	0	60	0	967835648	49	4593
2026-01-17 10:04:29.62	169.70	69.15	-39.2	-41.1	14.8	7.00e-07	0	60	0	970981376	49	4639
2026-01-17 10:04:30.63	169.89	69.62	-39.1	-41.0	14.9	7.00e-07	0	60	0	974127104	49	4571
2026-01-17 10:04:31.65	170.08	70.09	-39.2	-41.2	14.8	0.00e+00	0	60	0	977272832	49	4653
2026-01-17 10:04:32.66	170.28	70.56	-39.1	-41.0	15.0	0.00e+00	0	60	0	980418560	49	4591
2026-01-17 10:04:33.67	170.48	71.03	-39.0	-40.8	15.2	0.00e+00	0	60	0	983564288	49	4474
2026-01-17 10:04:34.67	170.70	71.49	-38.7	-40.4	15.5	0.00e+00	0	60	0	986710016	49	4291
2026-01-17 10:04:35.69	170.94	71.97	-38.7	-40.5	15.5	0.00e+00	0	60	0	989855744	49	4320
2026-01-17 10:04:36.69	171.18	72.44	-38.7	-40.5	15.5	0.00e+00	0	60	0	993001472	49	4295
2026-01-17 10:04:37.70	171.44	72.92	-38.8	-40.6	15.3	0.00e+00	0	60	0	996147200	49	4380
2026-01-17 10:04:38.72	171.72	73.40	-38.7	-40.5	15.5	0.00e+00	0	60	0	1000341504	49	4292
2026-01-17 10:04:39.73	172.01	73.88	-38.6	-40.3	15.5	0.00e+00	0	60	0	1003487232	49	4240
2026-01-17 10:04:40.73	172.32	74.36	-38.6	-40.4	15.4	0.00e+00	0	60	0	1005584384	49	4252
2026-01-17 10:04:41.75	172.65	74.85	-38.7	-40.4	15.4	0.00e+00	0	60	0	1008730112	49	4275
2026-01-17 10:04:42.76	173.01	75.33	-38.6	-40.4	15.4	0.00e+00	0	60	0	1011875840	49	4243
2026-01-17 10:04:43.77	173.38	75.82	-38.5	-40.2	15.6	0.00e+00	0	60	0	1016070144	49	4184
2026-01-17 10:04:44.78	173.79	76.30	-38.7	-40.4	15.5	0.00e+00	0	60	0	1019215872	49	4281
2026-01-17 10:04:45.78	174.22	76.78	-38.7	-40.5	15.4	0.00e+00	0	60	0	1022361600	49	4320
2026-01-17 10:04:46.79	174.69	77.27	-38.9	-40.8	15.1	0.00e+00	0	60	0	1025507328	49	4472
2026-01-17 10:04:47.80	175.20	77.76	-39.1	-41.0	14.9	0.00e+00	0	60	0	1028653056	49	4570
2026-01-17 10:04:48.81	175.75	78.25	-39.2	-41.2	14.8	0.00e+00	0	60	0	1031798784	49	4668
2026-01-17 10:04:49.82	176.35	78.74	-39.3	-41.3	14.6	7.00e-07	0	60	0	1034944512	49	4726
2026-01-17 10:04:50.83	177.01	79.23	-39.5	-41.5	14.4	2.20e-06	0	60	0	1038090240	49	4866
2026-01-17 10:04:51.84	177.73	79.72	-39.3	-41.3	14.6	0.00e+00	0	60	0	1041235968	49	4727
2026-01-17 10:04:52.85	178.52	80.21	-39.2	-41.1	14.8	0.00e+00	0	60	0	1044381696	49	4647
2026-01-17 10:04:53.86	179.40	80.70	-39.3	-41.3	14.7	0.00e+00	0	60	0	1047527424	49	4715
2026-01-17 10:04:54.87	180.38	81.18	-39.5	-41.5	14.4	7.00e-07	0	60	0	1050673152	49	4854
2026-01-17 10:04:55.88	181.47	81.67	-39.6	-41.8	14.3	2.20e-06	0	60	0	1053818880	49	4987
2026-01-17 10:04:56.89	182.69	82.15	-39.5	-41.6	14.4	1.50e-06	0	60	0	1056964608	49	4896
2026-01-17 10:04:57.90	184.08	82.63	-39.6	-41.6	14.3	0.00e+00	0	61	0	1060110336	49	4918
2026-01-17 10:04:58.91	185.66	83.11	-39.5	-41.6	14.3	7.00e-07	0	60	0	1063256064	49	4872
2026-01-17 10:04:59.92	187.48	83.58	-39.5	-41.6	14.4	7.00e-07	0	60	0	1066401792	49	4872
2026-01-17 10:05:00.93	189.58	84.04	-39.6	-41.7	14.3	7.00e-07	0	61	0	1069547520	49	4975
2026-01-17 10:05:01.94	192.04	84.50	-39.6	-41.7	14.3	7.00e-07	0	60	0	1072693248	49	4929
2026-01-17 10:05:02.95	194.93	84.94	-39.4	-41.4	14.5	7.00e-07	0	60	0	1075838976	49	4771
2026-01-17 10:05:03.96	198.37	85.37	-39.2	-41.2	14.6	0.00e+00	0	60	0	1078984704	49	4692
2026-01-17 10:05:04.97	202.50	85.78	-39.4	-41.4	14.4	0.00e+00	0	60	0	1082130432	49	4814
2026-01-17 10:05:05.98	207.49	86.16	-39.4	-41.5	14.5	1.50e-06	0	60	0	1085276160	49	4815
2026-01-17 10:05:06.99	213.52	86.51	-39.4	-41.4	14.5	7.00e-07	0	60	0	1088421888	49	4779
2026-01-17 10:05:08.00	220.80	86.81	-39.5	-41.7	14.2	7.00e-07	0	60	0	1091567616	49	4948
2026-01-17 10:05:09.01	229.43	87.05	-39.9	-42.1	13.9	4.50e-06	0	60	0	1094713344	50	4875
2026-01-17 10:05:10.02	239.33	87.22	-39.7	-41.8	14.1	3.80e-06	0	60	0	1097859072	50	4756
2026-01-17 10:05:11.03	250.10	87.29	-39.6	-41.6	14.3	7.00e-07	0	60	0	1101004800	50	4641
2026-01-17 10:05:12.04	261.05	87.26	-39.6	-41.7	14.3	7.00e-07	0	60	0	1104150528	50	4657
2026-01-17 10:05:13.05	271.42	87.14	-39.6	-41.7	14.3	7.00e-07	0	60	0	1107296256	50	4667
2026-01-17 10:05:14.06	280.67	86.93	-39.3	-41.3	14.7	7.00e-07	0	60	0	1110441984	50	4450
2026-01-17 10:05:15.07	288.57	86.66	-39.2	-41.1	14.9	0.00e+00	0	60	0	1113587712	50	4357
2026-01-17 10:05:16.08	295.17	86.33	-39.3	-41.3	14.7	0.00e+00	0	60	0	1116733440	50	4469
2026-01-17 10:05:17.09	300.62	85.96	-39.2	-41.1	14.9	7.00e-07	0	60	0	1119879168	50	4377
2026-01-17 10:05:18.10	305.12	85.56	-39.3	-41.3	14.8	0.00e+00	0	60	0	1123024896	50	4443
2026-01-17 10:05:19.11	308.86	85.14	-39.3	-41.2	14.8	0.00e+00	0	60	0	1126170624	50	4429
2026-01-17 10:05:20.12	312.00	84.71	-39.2	-41.0	14.9	0.00e+00	0	60	0	1129316352	50	4332
2026-01-17 10:05:21.13	314.64	84.26	-38.9	-40.7	15.1	0.00e+00	0	60	0	1132462080	49	4411
2026-01-17 10:05:22.14	316.90	83.80	-39.0	-40.9	15.0	0.00e+00	0	60	0	1135607808	49	4510
2026-01-17 10:05:23.15	318.84	83.33	-39.1	-41.1	15.0	7.00e-07	0	60	0	1138753536	49	4599
2026-01-17 10:05:24.16	320.53	82.86	-39.5	-41.5	14.5	0.00e+00	0	60	0	1141899264	49	4850
2026-01-17 10:05:25.17	322.00	82.38	-39.8	-41.9	14.1	2.20e-06	0	60	0	1145044992	50	4807
2026-01-17 10:05:26.18	323.30	81.90	-39.6	-41.6	14.4	3.00e-06	0	60	0	1148190720	50	4643
2026-01-17 10:05:27.19	324.45	81.41	-39.4	-41.3	14.8	0.00e+00	0	60	0	1151336448	50	4485
2026-01-17 10:05:28.20	325.47	80.93	-39.2	-41.1	14.8	0.00e+00	0	60	0	1154482176	50	4391
2026-01-17 10:05:29.21	326.40	80.44	-39.3	-41.2	14.9	0.00e+00	0	60	0	1157627904	50	4415
2026-01-17 10:05:30.22	327.23	79.95	-39.2	-41.0	15.0	0.00e+00	0	60	0	1160773632	50	4334
2026-01-17 10:05:31.23	327.98	79.47	-39.2	-41.1	15.0	0.00e+00	0	60	0	1163919360	50	4353
2026-01-17 10:05:32.24	328.66	78.98	-39.2	-41.2	14.8	0.00e+00	0	60	0	1167065088	49	4657
2026-01-17 10:05:33.25	329.29	78.49	-38.9	-40.8	15.2	0.00e+00	0	60	0	1170210816	49	4455
2026-01-17 10:05:34.25	329.86	78.00	-38.7	-40.5	15.5	0.00e+00	0	60	0	1173356544	48	4578
2026-01-17 10:05:35.26	330.39	77.51	-38.8	-40.5	15.5	0.00e+00	0	60	0	1176502272	48	4580
2026-01-17 10:05:36.27	330.88	77.03	-38.7	-40.5	15.6	0.00e+00	0	60	0	1179648000	48	4574
2026-01-17 10:05:37.29	331.33	76.53	-38.8	-40.6	15.4	0.00e+00	0	60	0	1182793728	48	4646
2026-01-17 10:05:38.30	331.75	76.05	-38.9	-40.8	15.3	0.00e+00	0	60	0	1185939456	48	4708
2026-01-17 10:05:39.30	332.14	75.57	-39.2	-41.1	14.9	3.00e-06	0	60	0	1189085184	48	4923
2026-01-17 10:05:40.32	332.51	75.08	-39.0	-40.9	15.1	7.00e-07	0	60	0	1192230912	48	4785
2026-01-17 10:05:41.33	332.85	74.60	-39.1	-40.9	15.1	0.00e+00	0	60	0	1195376640	48	4802
2026-01-17 10:05:42.34	333.17	74.12	-39.0	-40.9	15.1	0.00e+00	0	60	0	1198522368	48	4795
2026-01-17 10:05:43.35	333.47	73.64	-39.5	-41.5	14.6	0.00e+00	0	60	0	1201668096	49	4841
2026-01-17 10:05:44.36	333.75	73.16	-39.2	-41.1	14.9	2.20e-06	0	60	0	1204813824	49	4650
2026-01-17 10:05:45.36	334.02	72.69	-39.2	-41.1	14.9	0.00e+00	0	60	0	1207959552	49	4628
2026-01-17 10:05:46.38	334.27	72.21	-39.2	-41.1	14.9	1.50e-06	0	60	0	1211105280	49	4633
2026-01-17 10:05:47.39	334.51	71.73	-38.8	-40.6	15.4	7.00e-07	0	60	0	1214251008	48	4645
2026-01-17 10:05:48.40	334.73	71.26	-38.5	-40.2	15.8	1.50e-06	0	60	0	1217396736	48	4438
2026-01-17 10:05:49.40	334.95	70.80	-38.7	-40.4	15.5	1.50e-06	0	60	0	1220542464	47	4814
2026-01-17 10:05:50.41	335.15	70.33	-39.1	-41.1	15.0	5.34e-05	0	61	0	1223688192	48	4874
2026-01-17 10:05:51.42	335.34	69.86	-39.7	-41.8	14.3	7.00e-07	0	60	0	1226833920	49	5017
2026-01-17 10:05:52.43	335.53	69.40	-40.0	-42.3	13.8	4.57e-05	0	60	0	1229979648	50	5013
2026-01-17 10:05:53.44	335.70	68.94	-39.8	-42.0	14.1	1.50e-06	0	60	0	1233125376	50	4849
2026-01-17 10:05:54.45	335.87	68.48	-39.4	-41.4	14.7	6.80e-06	0	60	0	1236271104	49	4790
2026-01-17 10:05:55.46	336.03	68.02	-39.0	-40.9	15.2	0.00e+00	0	60	0	1239416832	49	4526
2026-01-17 10:05:56.47	336.19	67.57	-38.7	-40.5	15.7	0.00e+00	0	61	0	1242562560	49	4304
2026-01-17 10:05:57.48	336.33	67.12	-39.1	-40.9	15.2	0.00e+00	0	60	0	1245708288	49	4535
2026-01-17 10:05:58.49	336.48	66.66	-39.9	-42.0	14.2	0.00e+00	0	61	0	1248854016	50	4870
2026-01-17 10:05:59.50	336.61	66.22	-39.9	-42.0	14.2	1.50e-06	0	61	0	1251999744	50	4844
2026-01-17 10:06:00.51	336.74	65.77	-39.4	-41.4	14.8	1.50e-06	0	60	0	1255145472	50	4512
2026-01-17 10:06:01.52	336.87	65.33	-39.3	-41.2	14.9	0.00e+00	0	60	0	1258291200	50	4426
2026-01-17 10:06:02.53	336.99	64.89	-39.0	-40.8	15.3	0.00e+00	0	60	0	1261436928	49	4493
2026-01-17 10:06:03.54	337.10	64.45	-38.8	-40.6	15.6	0.00e+00	0	60	0	1264582656	49	4366
2026-01-17 10:06:04.55	337.22	64.01	-38.7	-40.5	15.7	0.00e+00	0	60	0	1267728384	48	4554
2026-01-17 10:06:05.56	337.32	63.58	-39.0	-40.8	15.4	0.00e+00	0	61	0	1270874112	48	4732
2026-01-17 10:06:06.57	337.43	63.15	-39.8	-41.9	14.3	0.00e+00	0	61	0	1274019840	50	4782
2026-01-17 10:06:07.57	337.53	62.73	-40.3	-42.7	13.5	6.80e-06	0	60	0	1277165568	51	4930
2026-01-17 10:06:08.58	337.62	62.30	-40.3	-42.6	13.6	1.60e-05	0	61	0	1280311296	51	4884
2026-01-17 10:06:09.59	337.72	61.88	-39.8	-41.9	14.1	7.00e-07	0	61	0	1283457024	51	4545
2026-01-17 10:06:10.60	337.81	61.46	-39.1	-40.9	15.2	0.00e+00	0	60	0	1286602752	50	4279
2026-01-17 10:06:11.61	337.90	61.04	-38.9	-40.7	15.4	7.00e-07	0	60	0	1289748480	49	4426
2026-01-17 10:06:12.62	337.98	60.63	-39.1	-40.9	15.2	0.00e+00	0	61	0	1292894208	49	4526
2026-01-17 10:06:13.63	338.06	60.21	-39.7	-41.7	14.4	0.00e+00	0	60	0	1296039936	49	4971
2026-01-17 10:06:14.64	338.14	59.80	-40.0	-42.1	14.0	1.50e-06	0	60	0	1299185664	50	4926
2026-01-17 10:06:15.65	338.22	59.40	-39.9	-42.0	14.2	2.20e-06	0	60	0	1302331392	50	4850
2026-01-17 10:06:16.66	338.30	58.99	-39.8	-41.8	14.4	0.00e+00	0	60	0	1305477120	50	4745
2026-01-17 10:06:17.67	338.37	58.59	-40.0	-42.2	14.0	2.20e-06	0	60	0	1308622848	50	4976
2026-01-17 10:06:18.68	338.44	58.19	-40.2	-42.5	13.7	3.80e-06	0	60	0	1311768576	51	4833
2026-01-17 10:06:19.69	338.51	57.79	-39.8	-41.9	14.3	3.80e-06	0	61	0	1314914304	51	4531
2026-01-17 10:06:20.70	338.58	57.40	-39.5	-41.5	14.7	0.00e+00	0	61	0	1318060032	51	4315
2026-01-17 10:06:21.71	338.64	57.01	-39.9	-42.0	14.2	0.00e+00	0	60	0	1321205760	51	4577
2026-01-17 10:06:22.72	338.71	56.62	-40.3	-42.6	13.6	6.80e-06	0	60	0	1324351488	51	4909
2026-01-17 10:06:23.73	338.77	56.24	-40.7	-43.1	13.0	3.43e-05	0	61	0	1327497216	52	4925
2026-01-17 10:06:24.74	338.83	55.85	-40.8	-43.4	12.8	7.24e-05	0	61	0	1330642944	52	5059
2026-01-17 10:06:25.75	338.89	55.47	-40.8	-43.3	12.9	5.72e-05	0	60	0	1333788672	52	4985
2026-01-17 10:06:26.76	338.95	55.09	-40.6	-43.0	13.1	4.11e-05	0	60	0	1337982976	52	4869
2026-01-17 10:06:27.78	339.00	54.71	-40.3	-42.6	13.5	9.90e-06	0	61	0	1341128704	52	4646
2026-01-17 10:06:28.79	339.06	54.34	-40.3	-42.6	13.6	1.14e-05	0	60	0	1344274432	52	4609
2026-01-17 10:06:29.80	339.11	53.97	-40.4	-42.7	13.4	7.60e-06	0	60	0	1346371584	52	4677
2026-01-17 10:06:30.81	339.16	53.61	-40.4	-42.8	13.3	1.98e-05	0	60	0	1350565888	52	4720
2026-01-17 10:06:31.82	339.22	53.24	-40.3	-42.5	13.6	7.60e-06	0	60	0	1353711616	52	4589
2026-01-17 10:06:32.83	339.26	52.88	-40.3	-42.5	13.6	9.90e-06	0	60	0	1356857344	52	4568
2026-01-17 10:06:33.84	339.31	52.52	-40.5	-42.8	13.3	9.10e-06	0	61	0	1360003072	52	4749
2026-01-17 10:06:34.85	339.36	52.16	-40.8	-43.3	12.9	2.59e-05	0	61	0	1363148800	52	4992
2026-01-17 10:06:35.86	339.41	51.81	-41.1	-43.8	12.4	1.56e-04	0	61	0	1366294528	52	5287
2026-01-17 10:06:36.87	339.45	51.46	-41.5	-44.4	11.7	5.32e-04	0	60	0	1369440256	53	5350
2026-01-17 10:06:37.88	339.50	51.11	-41.5	-44.4	11.6	7.52e-04	0	61	0	1372585984	53	5377
2026-01-17 10:06:38.89	339.54	50.76	-41.5	-44.4	11.5	7.20e-04	0	60	0	1375731712	53	5378
2026-01-17 10:06:39.90	339.58	50.42	-41.6	-44.6	11.3	9.96e-04	0	60	0	1378877440	53	5521
2026-01-17 10:06:40.91	339.63	50.08	-41.8	-44.9	11.1	1.39e-03	0	61	0	1382023168	54	5367
2026-01-17 10:06:41.92	339.67	49.74	-41.7	-44.8	11.3	1.16e-03	0	61	0	1385168896	54	5298
2026-01-17 10:06:42.93	339.71	49.40	-41.6	-44.5	11.6	8.03e-04	0	61	0	1388314624	54	5135
2026-01-17 10:06:43.94	339.75	49.07	-41.5	-44.4	11.8	5.38e-04	0	61	0	1391460352	54	5049
2026-01-17 10:06:44.95	339.79	48.74	-41.2	-44.0	12.1	3.35e-04	0	61	0	1394606080	54	4840
2026-01-17 10:06:45.96	339.82	48.41	-41.2	-43.9	12.1	2.01e-04	0	61	0	1397751808	54	4781
2026-01-17 10:06:46.97	339.86	48.08	-41.3	-44.1	12.0	2.79e-04	0	61	0	1400897536	54	4888
2026-01-17 10:06:47.98	339.90	47.76	-41.6	-44.6	11.4	7.00e-04	0	60	0	1404043264	54	5204
2026-01-17 10:06:48.99	339.93	47.44	-42.0	-45.2	10.8	2.14e-03	0	60	0	1407188992	54	5573
2026-01-17 10:06:50.00	339.97	47.12	-42.3	-45.8	10.2	5.25e-03	0	61	0	1410334720	55	5633
2026-01-17 10:06:51.01	340.00	46.80	-42.4	-46.1	9.9	7.68e-03	0	61	0	1413480448	55	5792
2026-01-17 10:06:52.02	340.04	46.49	-42.3	-45.8	10.2	5.92e-03	0	61	0	1416626176	55	5656
2026-01-17 10:06:53.03	340.07	46.17	-42.1	-45.5	10.5	4.96e-03	0	61	0	1419771904	55	5442
2026-01-17 10:06:54.03	340.10	45.87	-41.8	-45.0	11.0	2.22e-03	0	61	0	1422917632	55	5120
2026-01-17 10:06:55.04	340.13	45.56	-41.7	-44.8	11.2	1.53e-03	0	60	0	1426063360	55	5008
2026-01-17 10:06:56.05	340.17	45.26	-41.9	-45.1	10.8	1.91e-03	0	60	0	1429209088	55	5172
2026-01-17 10:06:57.06	340.20	44.95	-42.2	-45.7	10.2	5.34e-03	0	60	0	1432354816	55	5565
2026-01-17 10:06:58.07	340.23	44.65	-42.6	-46.5	9.5	1.23e-02	0	61	0	1435500544	55	6092
2026-01-17 10:06:59.08	340.26	44.35	-42.9	-47.0	9.1	2.15e-02	0	60	0	1438646272	56	6116
2026-01-17 10:07:00.09	340.29	44.06	-43.0	-47.2	8.9	3.18e-02	0	61	0	1441792000	56	6243
2026-01-17 10:07:01.10	340.32	43.77	-42.8	-46.7	9.4	1.86e-02	0	60	0	1444937728	56	5907
2026-01-17 10:07:02.11	340.35	43.47	-42.6	-46.4	9.8	1.13e-02	0	61	0	1448083456	56	5664
2026-01-17 10:07:03.12	340.37	43.19	-42.4	-45.9	10.2	7.09e-03	0	61	0	1451229184	56	5396
2026-01-17 10:07:04.13	340.40	42.90	-42.2	-45.5	10.7	3.69e-03	0	60	0	1454374912	56	5121
2026-01-17 10:07:05.14	340.43	42.61	-41.7	-44.8	11.3	1.17e-03	0	61	0	1457520640	55	5000
2026-01-17 10:07:06.15	340.46	42.33	-41.6	-44.6	11.4	1.14e-03	0	60	0	1460666368	55	4923
2026-01-17 10:07:07.17	340.48	42.05	-41.8	-44.9	11.1	1.37e-03	0	60	0	1463812096	55	5099
2026-01-17 10:07:08.18	340.51	41.77	-41.9	-45.2	10.9	2.01e-03	0	60	0	1466957824	55	5221
2026-01-17 10:07:09.19	340.53	41.49	-42.0	-45.3	10.7	2.99e-03	0	61	0	1470103552	55	5305
2026-01-17 10:07:10.19	340.56	41.22	-41.9	-45.1	10.9	2.51e-03	0	61	0	1473249280	55	5215
2026-01-17 10:07:11.20	340.58	40.95	-41.9	-45.2	10.8	2.36e-03	0	61	0	1476395008	55	5263
2026-01-17 10:07:12.21	340.61	40.68	-42.0	-45.3	10.7	2.66e-03	0	60	0	1479540736	55	5295
2026-01-17 10:07:13.22	340.63	40.41	-42.0	-45.3	10.7	2.92e-03	0	60	0	1482686464	55	5284
2026-01-17 10:07:14.23	340.66	40.15	-41.8	-44.9	11.1	1.99e-03	0	61	0	1485832192	55	5077
2026-01-17 10:07:15.24	340.68	39.88	-41.5	-44.5	11.5	9.07e-04	0	60	0	1488977920	55	4835
2026-01-17 10:07:16.25	340.71	39.62	-41.5	-44.4	11.6	7.74e-04	0	61	0	1492123648	55	4789
2026-01-17 10:07:17.26	340.73	39.36	-41.6	-44.6	11.3	9.68e-04	0	60	0	1495269376	54	5214
2026-01-17 10:07:18.27	340.75	39.10	-41.7	-44.8	11.2	1.39e-03	0	61	0	1498415104	54	5328
2026-01-17 10:07:19.28	340.77	38.85	-41.7	-44.9	11.2	1.48e-03	0	61	0	1501560832	54	5361
2026-01-17 10:07:20.29	340.80	38.59	-41.5	-44.5	11.6	9.82e-04	0	61	0	1504706560	54	5103
2026-01-17 10:07:21.31	340.82	38.34	-41.2	-44.0	12.0	4.10e-04	0	60	0	1507852288	54	4857
2026-01-17 10:07:22.32	340.84	38.09	-41.1	-43.7	12.3	2.27e-04	0	61	0	1510998016	54	4703
2026-01-17 10:07:23.33	340.86	37.84	-41.0	-43.7	12.3	2.18e-04	0	61	0	1514143744	54	4660
2026-01-17 10:07:24.34	340.88	37.59	-40.9	-43.5	12.4	1.39e-04	0	60	0	1517289472	53	4856
2026-01-17 10:07:25.35	340.90	37.35	-40.8	-43.3	12.6	1.20e-04	0	61	0	1520435200	53	4737
2026-01-17 10:07:26.36	340.92	37.10	-40.6	-43.1	12.8	6.10e-05	0	61	0	1523580928	53	4600
2026-01-17 10:07:27.37	340.94	36.86	-40.4	-42.9	13.1	3.81e-05	0	61	0	1526726656	52	4764
2026-01-17 10:07:28.38	340.96	36.62	-40.5	-42.9	13.1	3.66e-05	0	61	0	1529872384	52	4769
2026-01-17 10:07:29.39	340.98	36.38	-40.6	-43.1	12.9	3.73e-05	0	60	0	1533018112	52	4873
2026-01-17 10:07:30.40	341.00	36.15	-40.7	-43.2	12.8	6.25e-05	0	61	0	1536163840	52	4965
2026-01-17 10:07:31.41	341.02	35.91	-40.7	-43.3	12.7	7.09e-05	0	61	0	1539309568	52	5008
2026-01-17 10:07:32.42	341.04	35.68	-40.8	-43.4	12.5	1.01e-04	0	61	0	1542455296	52	5076
2026-01-17 10:07:33.42	341.06	35.45	-40.8	-43.5	12.5	1.12e-04	0	61	0	1545601024	52	5107
2026-01-17 10:07:34.43	341.08	35.22	-40.9	-43.5	12.5	9.07e-05	0	61	0	1548746752	52	5125
2026-01-17 10:07:35.44	341.10	34.99	-40.9	-43.5	12.5	1.17e-04	0	61	0	1551892480	52	5123
2026-01-17 10:07:36.45	341.12	34.77	-40.9	-43.6	12.4	1.36e-04	0	61	0	1555038208	52	5173
2026-01-17 10:07:37.46	341.13	34.54	-41.0	-43.7	12.3	1.75e-04	0	61	0	1558183936	52	5227
2026-01-17 10:07:38.47	341.15	34.32	-41.0	-43.7	12.2	2.14e-04	0	61	0	1561329664	52	5249
2026-01-17 10:07:39.48	341.17	34.10	-41.0	-43.7	12.2	2.22e-04	0	61	0	1564475392	52	5271
2026-01-17 10:07:40.49	341.19	33.88	-41.0	-43.7	12.2	2.12e-04	0	61	0	1567621120	52	5246
2026-01-17 10:07:41.50	341.20	33.66	-41.0	-43.7	12.3	2.10e-04	0	61	0	1570766848	52	5229
2026-01-17 10:07:42.51	341.22	33.45	-40.8	-43.5	12.5	1.45e-04	0	61	0	1573912576	52	5123
2026-01-17 10:07:43.52	341.24	33.23	-40.7	-43.3	12.6	1.09e-04	0	61	0	1577058304	52	5017
2026-01-17 10:07:44.53	341.26	33.02	-40.6	-43.1	12.9	6.17e-05	0	60	0	1580204032	52	4905
2026-01-17 10:07:45.54	341.27	32.80	-40.4	-42.9	13.1	3.12e-05	0	61	0	1583349760	52	4777
2026-01-17 10:07:46.56	341.29	32.59	-40.3	-42.7	13.2	1.67e-05	0	61	0	1586495488	52	4693
2026-01-17 10:07:47.57	341.31	32.38	-40.4	-42.8	13.2	2.51e-05	0	61	0	1589641216	52	4744
2026-01-17 10:07:48.58	341.32	32.18	-40.3	-42.7	13.2	1.75e-05	0	61	0	1592786944	52	4703
2026-01-17 10:07:49.58	341.34	31.97	-40.3	-42.7	13.3	2.05e-05	0	61	0	1595932672	52	4682
2026-01-17 10:07:50.59	341.35	31.77	-40.2	-42.6	13.4	1.75e-05	0	60	0	1599078400	52	4601
2026-01-17 10:07:51.60	341.37	31.56	-40.1	-42.4	13.5	6.80e-06	0	61	0	1602224128	52	4524
2026-01-17 10:07:52.62	341.38	31.36	-40.1	-42.3	13.6	7.60e-06	0	61	0	1605369856	52	4483
2026-01-17 10:07:53.62	341.40	31.16	-40.0	-42.3	13.6	8.30e-06	0	61	0	1608515584	52	4469
2026-01-17 10:07:54.64	341.42	30.96	-40.1	-42.4	13.6	9.10e-06	0	60	0	1611661312	52	4502
2026-01-17 10:07:55.64	341.43	30.76	-40.1	-42.4	13.5	9.90e-06	0	61	0	1614807040	52	4517
2026-01-17 10:07:56.65	341.45	30.57	-40.2	-42.6	13.3	1.44e-05	0	61	0	1617952768	52	4625
2026-01-17 10:07:57.66	341.46	30.37	-40.3	-42.7	13.2	2.21e-05	0	61	0	1621098496	52	4679
2026-01-17 10:07:58.67	341.48	30.18	-40.4	-42.8	13.1	2.89e-05	0	61	0	1624244224	52	4750
2026-01-17 10:07:59.68	341.49	29.99	-40.3	-42.8	13.1	3.50e-05	0	61	0	1627389952	52	4724
2026-01-17 10:08:00.69	341.50	29.79	-40.4	-42.9	13.0	1.98e-05	0	61	0	1630535680	52	4766
2026-01-17 10:08:01.70	341.52	29.60	-40.4	-42.9	12.9	3.89e-05	0	61	0	1633681408	52	4788
2026-01-17 10:08:02.71	341.53	29.42	-40.4	-43.0	12.9	4.88e-05	0	61	0	1636827136	52	4815
2026-01-17 10:08:03.72	341.55	29.23	-40.4	-42.9	12.9	5.49e-05	0	61	0	1639972864	52	4780
2026-01-17 10:08:04.73	341.56	29.04	-40.4	-43.0	12.9	4.19e-05	0	61	0	1643118592	52	4815
2026-01-17 10:08:05.74	341.58	28.86	-40.4	-42.9	12.9	4.73e-05	0	61	0	1646264320	52	4783
2026-01-17 10:08:06.75	341.59	28.67	-40.4	-42.8	12.9	4.34e-05	0	60	0	1649410048	52	4755
2026-01-17 10:08:07.76	341.60	28.49	-40.4	-42.9	12.8	6.48e-05	0	61	0	1653604352	52	4814
2026-01-17 10:08:08.77	341.62	28.31	-40.4	-43.0	12.7	5.87e-05	0	61	0	1656750080	52	4822
2026-01-17 10:08:09.78	341.63	28.13	-40.4	-42.9	12.8	7.17e-05	0	61	0	1659895808	52	4788
2026-01-17 10:08:10.79	341.64	27.95	-40.4	-43.0	12.7	7.62e-05	0	61	0	1661992960	52	4827
2026-01-17 10:08:11.80	341.66	27.77	-40.4	-43.0	12.7	9.30e-05	0	61	0	1665138688	52	4841
2026-01-17 10:08:12.81	341.67	27.60	-40.3	-42.8	12.8	4.88e-05	0	61	0	1669332992	52	4742
2026-01-17 10:08:13.82	341.68	27.42	-40.2	-42.7	12.9	5.26e-05	0	61	0	1672478720	52	4686
2026-01-17 10:08:14.83	341.70	27.25	-40.2	-42.6	13.0	4.19e-05	0	61	0	1675624448	52	4640
2026-01-17 10:08:15.84	341.71	27.07	-40.1	-42.5	13.1	1.90e-05	0	61	0	1678770176	52	4577
2026-01-17 10:08:16.85	341.72	26.90	-40.0	-42.4	13.3	2.67e-05	0	61	0	1681915904	51	4763
2026-01-17 10:08:17.86	341.73	26.73	-39.9	-42.2	13.5	9.90e-06	0	61	0	1685061632	51	4661
2026-01-17 10:08:18.87	341.75	26.56	-39.8	-42.1	13.6	1.52e-05	0	61	0	1688207360	51	4620
2026-01-17 10:08:19.89	341.76	26.39	-39.8	-42.0	13.6	1.29e-05	0	61	0	1691353088	51	4585
2026-01-17 10:08:20.89	341.77	26.22	-39.7	-42.0	13.6	6.10e-06	0	61	0	1694498816	51	4571
2026-01-17 10:08:21.91	341.78	26.05	-39.6	-41.9	13.8	6.80e-06	0	61	0	1697644544	51	4498
2026-01-17 10:08:22.92	341.80	25.89	-39.6	-41.9	13.7	7.60e-06	0	61	0	1700790272	51	4494
2026-01-17 10:08:23.93	341.81	25.72	-39.6	-41.9	13.7	9.10e-06	0	61	0	1703936000	51	4499
2026-01-17 10:08:24.94	341.82	25.56	-39.5	-41.7	13.9	2.20e-06	0	61	0	1707081728	51	4401
2026-01-17 10:08:25.95	341.83	25.40	-39.5	-41.7	13.8	3.00e-06	0	61	0	1710227456	50	4701
2026-01-17 10:08:26.96	341.84	25.24	-39.5	-41.7	13.8	5.30e-06	0	61	0	1713373184	50	4687
2026-01-17 10:08:27.97	341.86	25.07	-39.4	-41.7	13.8	6.10e-06	0	61	0	1716518912	50	4653
2026-01-17 10:08:28.97	341.87	24.92	-39.5	-41.7	13.8	2.20e-06	0	61	0	1719664640	50	4695
2026-01-17 10:08:29.98	341.88	24.76	-39.5	-41.8	13.7	6.10e-06	0	61	0	1722810368	50	4728
2026-01-17 10:08:30.99	341.89	24.60	-39.5	-41.8	13.7	6.80e-06	0	60	0	1725956096	50	4724
2026-01-17 10:08:32.00	341.90	24.44	-39.6	-41.9	13.6	6.80e-06	0	61	0	1729101824	50	4786
2026-01-17 10:08:33.01	341.91	24.29	-39.7	-42.0	13.5	1.14e-05	0	60	0	1732247552	50	4844
2026-01-17 10:08:34.02	341.92	24.13	-39.6	-41.9	13.5	1.37e-05	0	61	0	1735393280	50	4812
2026-01-17 10:08:35.03	341.94	23.98	-39.7	-42.0	13.4	1.22e-05	0	61	0	1738539008	50	4840
2026-01-17 10:08:36.04	341.95	23.82	-39.7	-42.0	13.4	9.90e-06	0	60	0	1741684736	50	4844
2026-01-17 10:08:37.05	341.96	23.67	-39.6	-41.9	13.5	9.10e-06	0	60	0	1744830464	50	4797
2026-01-17 10:08:38.05	341.97	23.52	-39.5	-41.8	13.5	1.14e-05	0	61	0	1747976192	50	4736
2026-01-17 10:08:39.06	341.98	23.37	-39.5	-41.9	13.3	1.83e-05	0	61	0	1751121920	50	4788
2026-01-17 10:08:40.07	341.99	23.22	-39.3	-41.7	13.5	9.90e-06	0	61	0	1754267648	50	4669
2026-01-17 10:08:41.08	342.00	23.07	-39.2	-41.5	13.6	6.10e-06	0	60	0	1757413376	50	4562
2026-01-17 10:08:42.09	342.01	22.92	-39.3	-41.6	13.4	9.10e-06	0	61	0	1760559104	50	4630
2026-01-17 10:08:43.10	342.02	22.78	-39.4	-41.9	13.0	2.97e-05	0	61	0	1763704832	50	4764
2026-01-17 10:08:44.11	342.03	22.63	-39.2	-41.7	13.0	4.42e-05	0	61	0	1766850560	50	4675
2026-01-17 10:08:45.12	342.04	22.49	-39.0	-41.4	13.1	2.97e-05	0	61	0	1769996288	49	4779
2026-01-17 10:08:46.13	342.05	22.34	-38.7	-41.1	13.3	1.83e-05	0	61	0	1773142016	49	4612
2026-01-17 10:08:47.15	342.07	22.20	-38.8	-41.2	13.1	1.75e-05	0	61	0	1776287744	49	4674
2026-01-17 10:08:48.16	342.08	22.05	-38.8	-41.4	12.9	4.80e-05	0	60	0	1779433472	49	4770
2026-01-17 10:08:49.17	342.09	21.91	-38.9	-41.5	12.7	8.01e-05	0	61	0	1782579200	49	4831
2026-01-17 10:08:50.18	342.10	21.77	-38.9	-41.5	12.6	8.16e-05	0	61	0	1785724928	49	4844
2026-01-17 10:08:51.19	342.11	21.63	-39.0	-41.8	12.2	1.62e-04	0	61	0	1788870656	49	5009
2026-01-17 10:08:52.20	342.12	21.49	-39.3	-42.3	11.6	5.28e-04	0	61	0	1792016384	49	5314
2026-01-17 10:08:53.21	342.13	21.35	-39.7	-43.1	10.6	2.31e-03	0	60	0	1795162112	49	5822
2026-01-17 10:08:54.21	342.14	21.21	-40.2	-44.2	9.3	1.17e-02	0	61	0	1798307840	50	6272
2026-01-17 10:08:55.22	342.15	21.07	-40.6	-45.4	8.0	5.52e-02	0	61	0	1801453568	51	6750
2026-01-17 10:08:56.23	342.16	20.94	-40.8	-46.6	6.6	1.39e-01	0	61	0	1804599296	52	7352
2026-01-17 10:08:57.24	342.17	20.80	-41.0	-47.7	5.7	3.35e-01	0	61	0	1807745024	52	8337
2026-01-17 10:08:58.25	342.18	20.67	-41.2	-49.1	4.8	6.86e-01	0	61	0	1810890752	52	9806
2026-01-17 10:08:59.26	342.19	20.53	-41.3	-50.9	3.9	1.44e+00	0	60	104	1810890752	53	11384
2026-01-17 10:09:00.27	342.20	20.40	-41.4	-51.3	4.0	1.48e+00	0	61	104	1810890752	53	11947
2026-01-17 10:09:01.28	342.21	20.26	-41.4	-52.6	3.8	1.49e+00	0	61	104	1810890752	53	13739
2026-01-17 10:09:02.29	342.22	20.13	-41.4	-52.8	3.8	1.49e+00	0	61	104	1810890752	53	14208
2026-01-17 10:09:03.30	342.23	20.00	-41.5	-51.7	4.0	1.47e+00	0	61	104	1810890752	54	11746
2026-01-17 10:09:04.31	342.24	19.87	-40.7	-53.4	3.8	1.49e+00	0	61	104	1810890752	53	15059
2026-01-17 10:09:05.32	342.24	19.74	-41.8	-52.7	3.8	1.49e+00	0	61	104	1810890752	54	13241
2026-01-17 10:09:06.33	342.25	19.61	-41.6	-53.6	3.8	1.49e+00	0	61	104	1810890752	54	14708
2026-01-17 10:09:07.33	342.26	19.48	-41.6	-53.4	3.8	1.49e+00	0	61	104	1810890752	54	14371
2026-01-17 10:09:08.34	342.27	19.35	-41.5	-53.7	3.8	1.49e+00	0	61	104	1810890752	54	14725
2026-01-17 10:09:09.35	342.28	19.23	-41.4	-53.7	3.8	1.49e+00	0	61	104	1810890752	54	14876
2026-01-17 10:09:10.36	342.29	19.10	-41.4	-53.7	3.8	1.49e+00	0	61	104	1810890752	54	14850
2026-01-17 10:09:11.37	342.30	18.97	-41.0	-53.7	3.8	1.49e+00	0	61	104	1810890752	54	14809
2026-01-17 10:09:12.38	342.31	18.85	-40.8	-53.3	3.8	1.49e+00	0	61	104	1810890752	53	15032
2026-01-17 10:09:13.39	342.32	18.72	-40.6	-53.5	3.8	1.49e+00	0	61	104	1810890752	53	15337
2026-01-17 10:09:14.40	342.33	18.60	-41.0	-53.4	3.8	1.49e+00	0	61	104	1810890752	53	15169
2026-01-17 10:09:15.41	342.34	18.47	-40.8	-53.4	3.8	1.49e+00	0	61	104	1810890752	53	15125
2026-01-17 10:09:16.42	342.35	18.35	-40.7	-53.3	3.8	1.49e+00	0	61	104	1810890752	53	14905
2026-01-17 10:09:17.43	342.36	18.23	-40.8	-53.3	3.8	1.49e+00	0	61	104	1810890752	53	14979
2026-01-17 10:09:18.44	342.36	18.11	-40.9	-53.4	3.8	1.49e+00	0	61	104	1810890752	53	15112
2026-01-17 10:09:19.45	342.37	17.98	-40.6	-53.3	3.8	1.49e+00	0	61	104	1810890752	53	14900
2026-01-17 10:09:20.46	342.38	17.86	-40.7	-53.3	3.8	1.49e+00	0	61	104	1810890752	53	15046
2026-01-17 10:09:21.47	342.39	17.74	-40.7	-53.3	3.8	1.49e+00	0	61	104	1810890752	53	14923
2026-01-17 10:09:22.48	342.40	17.62	-40.6	-53.3	3.8	1.49e+00	0	61	104	1810890752	53	14979
2026-01-17 10:09:23.49	342.41	17.50	-40.6	-53.3	3.8	1.49e+00	0	61	104	1810890752	53	14906
2026-01-17 10:09:24.49	342.42	17.39	-40.5	-53.3	3.8	1.49e+00	0	61	104	1810890752	52	15766
2026-01-17 10:09:25.50	342.43	17.27	-40.5	-53.2	3.8	1.49e+00	0	61	104	1810890752	52	15726
2026-01-17 10:09:26.51	342.43	17.15	-40.5	-53.2	3.8	1.49e+00	0	61	104	1810890752	52	15736
2026-01-17 10:09:27.52	342.44	17.03	-40.5	-53.2	3.8	1.49e+00	0	61	104	1810890752	52	15637
2026-01-17 10:09:28.53	342.45	16.92	-40.5	-53.2	3.8	1.49e+00	0	61	104	1810890752	52	15603
2026-01-17 10:09:29.54	342.46	16.80	-40.6	-53.2	3.8	1.49e+00	0	61	104	1810890752	52	15634
2026-01-17 10:09:30.56	342.47	16.69	-40.6	-53.2	3.8	1.49e+00	0	61	104	1810890752	52	15581
2026-01-17 10:09:31.57	342.48	16.57	-40.7	-53.2	3.8	1.49e+00	0	61	104	1810890752	52	15620
2026-01-17 10:09:32.58	342.49	16.46	-40.9	-53.2	3.8	1.49e+00	0	61	104	1810890752	52	15726
