passes_logs/2026/01/17/R2.0S_Moscow/R2.0S_Moscow__20260117_220834_NOAA_21_JPSS-2_rec.log

#Pass ID: 20260117_220834_NOAA 21 (JPSS-2)
#Satellite: NOAA 21 (JPSS-2)
#Configuration: NOAA-21
#almurnet v.1.7.20251203
#Start time: 2026-01-17 22:08:34

#Version: 2.2.20231116
#Station: R2.0S_Moscow
#Location: 37.707566 lon 55.798166 lat
#TLE: 1 54234U 22150A   26017.26823908  .00000042  00000+0  40962-4 0  9992
#TLE: 2 54234  98.7501 318.1405 0000613 274.2947  85.8159 14.19535194165131

#Time	Az	El	Level	Level2	SNR	BER	BlckErr	Temp	State	Recorded	gain1	gain2
2026-01-17 22:08:34.18	25.41	2.01	-41.8	-54.6	3.8	1.49e+00	0	51	0	0	55	15519
2026-01-17 22:08:35.20	25.48	2.06	-41.8	-54.7	3.8	1.49e+00	0	51	104	0	54	16523
2026-01-17 22:08:36.21	25.56	2.11	-41.8	-54.6	3.8	1.49e+00	0	51	104	0	54	16455
2026-01-17 22:08:37.22	25.63	2.17	-41.8	-54.6	3.8	1.49e+00	0	51	104	0	54	16444
2026-01-17 22:08:38.23	25.70	2.22	-41.7	-54.6	3.8	1.49e+00	0	51	104	0	54	16437
2026-01-17 22:08:39.24	25.78	2.28	-41.8	-54.6	3.8	1.49e+00	0	52	104	0	54	16490
2026-01-17 22:08:40.25	25.85	2.33	-41.8	-54.6	3.8	1.49e+00	0	52	104	0	54	16429
2026-01-17 22:08:41.26	25.93	2.39	-41.8	-54.6	3.8	1.49e+00	0	52	104	0	54	16443
2026-01-17 22:08:42.27	26.00	2.44	-41.8	-54.6	3.8	1.49e+00	0	52	104	0	54	16500
2026-01-17 22:08:43.28	26.08	2.50	-41.8	-54.6	3.8	1.49e+00	0	52	104	0	54	16433
2026-01-17 22:08:44.29	26.15	2.56	-41.8	-54.6	3.8	1.49e+00	0	52	104	0	54	16434
2026-01-17 22:08:45.30	26.23	2.61	-41.7	-54.6	3.8	1.49e+00	0	52	104	0	54	16452
2026-01-17 22:08:46.31	26.30	2.67	-41.8	-54.6	3.8	1.49e+00	0	52	104	0	54	16449
2026-01-17 22:08:47.32	26.38	2.72	-41.8	-54.6	3.8	1.49e+00	0	52	104	0	54	16430
2026-01-17 22:08:48.33	26.45	2.78	-41.8	-54.6	3.8	1.49e+00	0	52	104	0	54	16433
2026-01-17 22:08:49.35	26.53	2.83	-41.8	-54.6	3.8	1.49e+00	0	52	104	0	54	16417
2026-01-17 22:08:50.36	26.61	2.89	-41.8	-54.6	3.8	1.49e+00	0	52	104	0	54	16424
2026-01-17 22:08:51.37	26.69	2.94	-41.8	-54.6	3.8	1.49e+00	0	52	104	0	54	16417
2026-01-17 22:08:52.38	26.76	3.00	-41.8	-54.6	3.8	1.49e+00	0	52	104	0	54	16402
2026-01-17 22:08:53.39	26.84	3.06	-41.7	-54.6	3.8	1.49e+00	0	52	104	0	54	16456
2026-01-17 22:08:54.40	26.92	3.11	-41.8	-54.6	3.8	1.49e+00	0	53	104	0	54	16376
2026-01-17 22:08:55.41	27.00	3.17	-41.8	-54.6	3.8	1.49e+00	0	53	104	0	54	16446
2026-01-17 22:08:56.42	27.08	3.22	-41.7	-54.6	3.8	1.49e+00	0	53	104	0	54	16411
2026-01-17 22:08:57.43	27.15	3.28	-41.7	-54.6	3.8	1.49e+00	0	53	104	0	54	16458
2026-01-17 22:08:58.44	27.23	3.34	-41.7	-54.6	3.8	1.49e+00	0	53	104	0	54	16406
2026-01-17 22:08:59.46	27.31	3.39	-41.7	-54.6	3.8	1.49e+00	0	53	104	0	54	16425
2026-01-17 22:09:00.47	27.39	3.45	-41.8	-54.6	3.8	1.49e+00	0	53	104	0	54	16403
2026-01-17 22:09:01.48	27.47	3.51	-41.7	-54.6	3.8	1.49e+00	0	53	104	0	54	16415
2026-01-17 22:09:02.49	27.55	3.56	-41.7	-54.6	3.8	1.49e+00	0	53	104	0	54	16457
2026-01-17 22:09:03.50	27.63	3.62	-41.7	-54.6	3.8	1.49e+00	0	53	104	0	54	16393
2026-01-17 22:09:04.51	27.71	3.68	-41.7	-54.6	3.8	1.49e+00	0	53	104	0	54	16408
2026-01-17 22:09:05.52	27.80	3.73	-41.8	-54.6	3.8	1.49e+00	0	53	104	0	54	16416
2026-01-17 22:09:06.53	27.88	3.79	-41.7	-54.6	3.8	1.49e+00	0	53	104	0	54	16434
2026-01-17 22:09:07.54	27.96	3.85	-41.8	-54.6	3.8	1.49e+00	0	53	104	0	54	16429
2026-01-17 22:09:08.55	28.04	3.90	-41.8	-54.6	3.8	1.49e+00	0	54	104	0	54	16440
2026-01-17 22:09:09.57	28.12	3.96	-41.7	-54.6	3.8	1.49e+00	0	53	104	0	54	16404
2026-01-17 22:09:10.58	28.21	4.02	-41.7	-54.6	3.8	1.49e+00	0	54	104	0	54	16371
2026-01-17 22:09:11.59	28.29	4.08	-41.7	-54.6	3.8	1.49e+00	0	54	104	0	54	16439
2026-01-17 22:09:12.60	28.37	4.13	-41.7	-54.6	3.8	1.49e+00	0	54	104	0	54	16384
2026-01-17 22:09:13.61	28.46	4.19	-41.7	-54.6	3.8	1.49e+00	0	54	104	0	54	16397
2026-01-17 22:09:14.62	28.54	4.25	-41.8	-54.6	3.8	1.49e+00	0	54	104	0	54	16381
2026-01-17 22:09:15.63	28.62	4.31	-41.7	-54.6	3.8	1.49e+00	0	54	104	0	54	16392
2026-01-17 22:09:16.64	28.71	4.36	-41.7	-54.6	3.8	1.49e+00	0	54	104	0	54	16415
2026-01-17 22:09:17.65	28.79	4.42	-41.7	-54.6	3.8	1.49e+00	0	54	104	0	54	16440
2026-01-17 22:09:18.66	28.88	4.48	-41.7	-54.6	3.8	1.49e+00	0	54	104	0	54	16427
2026-01-17 22:09:19.67	28.96	4.54	-41.7	-54.6	3.8	1.49e+00	0	54	104	0	54	16458
2026-01-17 22:09:20.69	29.05	4.60	-41.7	-54.6	3.8	1.49e+00	0	54	104	0	54	16416
2026-01-17 22:09:21.70	29.14	4.65	-41.7	-54.6	3.8	1.49e+00	0	54	104	0	54	16350
2026-01-17 22:09:22.71	29.22	4.71	-41.7	-54.6	3.8	1.49e+00	0	54	104	0	54	16422
2026-01-17 22:09:23.72	29.31	4.77	-41.7	-54.6	3.8	1.49e+00	0	54	104	0	54	16373
2026-01-17 22:09:24.73	29.40	4.83	-41.7	-54.6	3.8	1.49e+00	0	54	104	0	54	16375
2026-01-17 22:09:25.74	29.48	4.89	-41.7	-54.6	3.8	1.49e+00	0	54	104	0	54	16396
2026-01-17 22:09:26.75	29.57	4.94	-41.7	-54.6	3.8	1.49e+00	0	55	104	0	54	16416
2026-01-17 22:09:27.76	29.66	5.00	-41.7	-54.6	3.8	1.49e+00	0	55	104	0	54	16386
2026-01-17 22:09:28.77	29.75	5.06	-41.8	-54.6	3.8	1.49e+00	0	54	104	0	54	16379
2026-01-17 22:09:29.78	29.84	5.12	-41.8	-54.6	3.8	1.49e+00	0	55	104	0	54	16411
2026-01-17 22:09:30.80	29.92	5.18	-41.8	-54.6	3.8	1.49e+00	0	55	104	0	54	16418
2026-01-17 22:09:31.81	30.01	5.24	-41.7	-54.6	3.8	1.49e+00	0	55	104	0	54	16401
2026-01-17 22:09:32.82	30.10	5.30	-41.8	-54.6	3.8	1.49e+00	0	55	104	0	54	16393
2026-01-17 22:09:33.83	30.19	5.36	-41.7	-54.6	3.8	1.49e+00	0	55	104	0	54	16407
2026-01-17 22:09:34.84	30.28	5.41	-41.7	-54.6	3.8	1.49e+00	0	55	104	0	54	16394
2026-01-17 22:09:35.85	30.37	5.47	-41.7	-54.6	3.8	1.49e+00	0	55	104	0	54	16422
2026-01-17 22:09:36.86	30.47	5.53	-41.7	-54.6	3.8	1.49e+00	0	55	104	0	54	16432
2026-01-17 22:09:37.87	30.56	5.59	-41.8	-54.6	3.8	1.49e+00	0	55	104	0	54	16366
2026-01-17 22:09:38.88	30.65	5.65	-41.7	-54.6	3.8	1.49e+00	0	55	104	0	54	16355
2026-01-17 22:09:39.89	30.74	5.71	-41.7	-54.6	3.8	1.49e+00	0	55	104	0	54	16351
2026-01-17 22:09:40.90	30.83	5.77	-41.7	-54.6	3.8	1.49e+00	0	55	104	0	54	16379
2026-01-17 22:09:41.91	30.93	5.83	-41.8	-54.6	3.8	1.49e+00	0	55	104	0	54	16400
2026-01-17 22:09:42.92	31.02	5.89	-41.7	-54.6	3.8	1.49e+00	0	55	104	0	54	16421
2026-01-17 22:09:43.93	31.11	5.95	-41.8	-54.6	3.8	1.49e+00	0	55	104	0	54	16413
2026-01-17 22:09:44.95	31.21	6.01	-41.7	-54.6	3.8	1.49e+00	0	55	104	0	54	16379
2026-01-17 22:09:45.96	31.30	6.07	-41.7	-54.6	3.8	1.49e+00	0	55	104	0	54	16404
2026-01-17 22:09:46.97	31.40	6.13	-41.7	-54.6	3.8	1.49e+00	0	56	104	0	54	16346
2026-01-17 22:09:47.98	31.49	6.19	-41.7	-54.6	3.8	1.49e+00	0	56	104	0	54	16386
2026-01-17 22:09:48.99	31.59	6.25	-41.7	-54.5	3.8	1.49e+00	0	56	104	0	54	16306
2026-01-17 22:09:50.00	31.68	6.31	-41.8	-54.6	3.8	1.49e+00	0	56	104	0	54	16380
2026-01-17 22:09:51.01	31.78	6.37	-41.7	-54.6	3.8	1.49e+00	0	56	104	0	54	16340
2026-01-17 22:09:52.02	31.88	6.43	-41.8	-54.6	3.8	1.49e+00	0	56	104	0	54	16383
2026-01-17 22:09:53.03	31.97	6.49	-41.7	-54.6	3.8	1.49e+00	0	56	104	0	54	16375
2026-01-17 22:09:54.04	32.07	6.55	-41.7	-54.5	3.8	1.49e+00	0	56	104	0	54	16197
2026-01-17 22:09:55.05	32.17	6.61	-41.7	-54.5	3.8	1.49e+00	0	56	104	0	54	16232
2026-01-17 22:09:56.06	32.27	6.67	-41.7	-54.5	3.8	1.49e+00	0	56	104	0	54	16137
2026-01-17 22:09:57.07	32.36	6.73	-41.7	-54.4	3.8	1.49e+00	0	56	104	0	54	16049
2026-01-17 22:09:58.08	32.46	6.79	-41.7	-54.5	3.8	1.49e+00	0	56	104	0	54	16250
2026-01-17 22:09:59.09	32.56	6.85	-41.7	-54.4	3.8	1.49e+00	0	56	104	0	54	15964
2026-01-17 22:10:00.10	32.66	6.91	-41.7	-54.5	3.8	1.49e+00	0	56	104	0	54	16285
2026-01-17 22:10:01.12	32.76	6.98	-41.7	-54.4	3.8	1.49e+00	0	56	104	0	54	16123
2026-01-17 22:10:02.13	32.86	7.04	-41.7	-54.4	3.8	1.49e+00	0	56	104	0	54	15951
2026-01-17 22:10:03.14	32.96	7.10	-41.7	-54.3	3.8	1.49e+00	0	56	104	0	54	15800
2026-01-17 22:10:04.15	33.06	7.16	-41.7	-53.8	3.8	1.49e+00	0	56	104	0	54	14984
2026-01-17 22:10:05.16	33.17	7.22	-41.7	-53.6	3.8	1.49e+00	0	56	104	0	54	14637
2026-01-17 22:10:06.17	33.27	7.28	-41.7	-53.9	3.8	1.49e+00	0	56	104	0	54	15214
2026-01-17 22:10:07.18	33.37	7.34	-41.7	-54.1	3.8	1.49e+00	0	56	104	0	54	15472
2026-01-17 22:10:08.19	33.47	7.40	-41.7	-54.4	3.8	1.49e+00	0	56	104	0	54	16004
2026-01-17 22:10:09.20	33.58	7.47	-41.7	-53.6	3.8	1.49e+00	0	56	104	0	54	14609
2026-01-17 22:10:10.21	33.68	7.53	-41.4	-50.7	4.3	1.48e+00	0	56	104	0	54	10530
2026-01-17 22:10:11.22	33.78	7.59	-41.1	-48.9	5.1	1.16e+00	0	56	0	0	54	8491
2026-01-17 22:10:12.23	33.89	7.65	-40.8	-47.7	5.8	4.02e-01	0	57	0	3145728	53	7846
2026-01-17 22:10:13.24	33.99	7.71	-40.7	-47.3	6.2	3.58e-01	0	56	0	6291456	53	7489
2026-01-17 22:10:14.25	34.10	7.78	-40.6	-46.8	6.6	2.15e-01	0	57	0	9437184	53	7066
2026-01-17 22:10:15.26	34.21	7.84	-40.7	-47.2	6.3	2.29e-01	0	57	0	12582912	53	7372
2026-01-17 22:10:16.27	34.31	7.90	-40.6	-46.7	6.6	2.31e-01	0	57	0	15728640	53	7017
2026-01-17 22:10:17.28	34.42	7.96	-40.1	-45.3	7.9	1.20e-01	0	57	0	18874368	52	6333
2026-01-17 22:10:18.29	34.53	8.02	-39.6	-43.7	9.8	2.37e-02	0	57	0	22020096	51	5564
2026-01-17 22:10:19.30	34.63	8.09	-40.0	-44.1	9.9	3.73e-02	0	57	0	25165824	51	5789
2026-01-17 22:10:20.31	34.74	8.15	-40.7	-51.4	3.9	1.49e+00	0	57	104	26214400	52	12721
2026-01-17 22:10:21.32	34.85	8.21	-41.5	-47.2	7.0	2.01e-01	0	57	0	27262976	54	6983
2026-01-17 22:10:22.33	34.96	8.27	-41.1	-45.8	8.1	2.01e-01	0	57	0	30408704	54	5988
2026-01-17 22:10:23.34	35.07	8.34	-41.3	-47.4	6.4	2.99e-01	0	57	0	33554432	53	7593
2026-01-17 22:10:24.35	35.18	8.40	-40.5	-45.0	9.0	4.63e-02	0	57	0	36700160	53	5766
2026-01-17 22:10:25.36	35.29	8.46	-40.6	-44.9	9.1	2.25e-02	0	57	0	39845888	52	6058
2026-01-17 22:10:26.37	35.40	8.52	-40.6	-45.1	9.0	2.47e-02	0	57	0	42991616	52	6135
2026-01-17 22:10:27.38	35.51	8.59	-40.8	-45.3	8.8	2.72e-02	0	57	0	46137344	52	6296
2026-01-17 22:10:28.39	35.62	8.65	-40.7	-45.0	9.1	2.57e-02	0	57	0	49283072	52	6092
2026-01-17 22:10:29.40	35.73	8.71	-40.6	-44.7	9.4	1.66e-02	0	57	0	52428800	52	5879
2026-01-17 22:10:30.41	35.85	8.77	-40.6	-44.6	9.5	1.33e-02	0	57	0	55574528	52	5843
2026-01-17 22:10:31.42	35.96	8.84	-40.6	-44.8	9.4	1.77e-02	0	57	0	58720256	52	5935
2026-01-17 22:10:32.43	36.07	8.90	-40.4	-44.2	10.0	1.06e-02	0	57	0	61865984	52	5585
2026-01-17 22:10:33.44	36.19	8.96	-40.4	-44.2	10.1	6.65e-03	0	57	0	65011712	52	5540
2026-01-17 22:10:34.45	36.30	9.03	-40.4	-44.1	10.2	7.43e-03	0	57	0	68157440	52	5503
2026-01-17 22:10:35.46	36.41	9.09	-40.6	-44.5	9.8	8.43e-03	0	57	0	71303168	52	5726
2026-01-17 22:10:36.47	36.53	9.15	-40.7	-44.6	9.7	1.08e-02	0	57	0	74448896	52	5831
2026-01-17 22:10:37.48	36.65	9.22	-40.7	-44.7	9.7	1.20e-02	0	57	0	77594624	52	5899
2026-01-17 22:10:38.49	36.76	9.28	-40.5	-44.2	10.2	6.53e-03	0	57	0	81788928	52	5549
2026-01-17 22:10:39.50	36.88	9.34	-40.5	-44.2	10.2	6.10e-03	0	57	0	84934656	52	5583
2026-01-17 22:10:40.51	37.00	9.41	-40.6	-44.4	10.0	7.17e-03	0	57	0	87031808	52	5690
2026-01-17 22:10:41.52	37.11	9.47	-40.5	-44.2	10.2	6.69e-03	0	57	0	90177536	52	5582
2026-01-17 22:10:42.53	37.23	9.54	-40.5	-44.1	10.4	5.01e-03	0	57	0	93323264	52	5489
2026-01-17 22:10:43.54	37.35	9.60	-40.6	-44.3	10.2	4.99e-03	0	57	0	97517568	52	5632
2026-01-17 22:10:44.55	37.47	9.66	-40.5	-44.0	10.6	3.47e-03	0	57	0	100663296	52	5435
2026-01-17 22:10:45.56	37.59	9.73	-40.7	-44.3	10.3	5.20e-03	0	57	0	103809024	52	5626
2026-01-17 22:10:46.57	37.71	9.79	-40.4	-43.8	10.9	2.47e-03	0	57	0	106954752	52	5309
2026-01-17 22:10:47.58	37.83	9.86	-40.7	-44.2	10.4	4.56e-03	0	58	0	109051904	52	5585
2026-01-17 22:10:48.59	37.95	9.92	-40.7	-44.2	10.5	3.71e-03	0	57	0	113246208	52	5545
2026-01-17 22:10:49.59	38.07	9.98	-40.6	-44.1	10.6	3.69e-03	0	58	0	116391936	52	5507
2026-01-17 22:10:50.60	38.20	10.05	-40.7	-44.2	10.5	4.13e-03	0	58	0	119537664	52	5570
2026-01-17 22:10:51.61	38.32	10.11	-40.5	-43.8	11.0	2.11e-03	0	58	0	122683392	52	5324
2026-01-17 22:10:52.62	38.44	10.18	-40.6	-43.9	10.9	2.52e-03	0	58	0	125829120	52	5396
2026-01-17 22:10:53.63	38.57	10.24	-40.6	-44.0	10.9	2.30e-03	0	57	0	128974848	52	5423
2026-01-17 22:10:54.64	38.69	10.31	-40.5	-43.7	11.1	1.88e-03	0	57	0	132120576	52	5276
2026-01-17 22:10:55.64	38.81	10.37	-40.4	-43.6	11.3	1.46e-03	0	58	0	135266304	52	5196
2026-01-17 22:10:56.65	38.94	10.43	-40.4	-43.5	11.3	1.26e-03	0	58	0	138412032	52	5151
2026-01-17 22:10:57.66	39.07	10.50	-40.4	-43.6	11.3	1.19e-03	0	58	0	141557760	52	5199
2026-01-17 22:10:58.67	39.19	10.56	-40.4	-43.5	11.5	9.77e-04	0	58	0	144703488	52	5126
2026-01-17 22:10:59.68	39.32	10.63	-40.3	-43.2	11.7	5.77e-04	0	58	0	147849216	52	4976
2026-01-17 22:11:00.69	39.45	10.69	-40.2	-43.2	11.8	4.76e-04	0	58	0	150994944	52	4938
2026-01-17 22:11:01.70	39.57	10.76	-40.3	-43.2	11.8	4.95e-04	0	58	0	154140672	52	4970
2026-01-17 22:11:02.71	39.70	10.82	-40.3	-43.3	11.7	5.08e-04	0	58	0	157286400	52	5010
2026-01-17 22:11:03.72	39.83	10.89	-40.3	-43.3	11.7	5.91e-04	0	58	0	160432128	52	5034
2026-01-17 22:11:04.73	39.96	10.95	-40.3	-43.3	11.7	5.82e-04	0	58	0	163577856	52	5031
2026-01-17 22:11:05.74	40.09	11.02	-40.4	-43.4	11.7	6.51e-04	0	58	0	166723584	52	5054
2026-01-17 22:11:06.75	40.22	11.08	-40.3	-43.3	11.8	5.02e-04	0	58	0	169869312	52	4997
2026-01-17 22:11:07.76	40.36	11.15	-40.3	-43.3	11.8	5.42e-04	0	58	0	173015040	52	4996
2026-01-17 22:11:08.77	40.49	11.21	-40.3	-43.3	11.8	5.01e-04	0	58	0	176160768	52	5009
2026-01-17 22:11:09.78	40.62	11.28	-40.3	-43.2	11.9	4.25e-04	0	58	0	179306496	52	4945
2026-01-17 22:11:10.79	40.75	11.34	-40.3	-43.2	11.9	3.78e-04	0	58	0	182452224	52	4953
2026-01-17 22:11:11.80	40.89	11.41	-40.3	-43.2	11.9	3.98e-04	0	58	0	185597952	52	4946
2026-01-17 22:11:12.81	41.02	11.47	-40.3	-43.3	11.9	4.34e-04	0	58	0	188743680	52	4992
2026-01-17 22:11:13.82	41.16	11.54	-40.3	-43.2	11.9	3.00e-04	0	58	0	191889408	52	4961
2026-01-17 22:11:14.84	41.29	11.60	-40.2	-43.1	12.0	3.42e-04	0	58	0	195035136	52	4908
2026-01-17 22:11:15.85	41.43	11.67	-40.3	-43.3	11.9	3.74e-04	0	58	0	198180864	52	5006
2026-01-17 22:11:16.86	41.57	11.74	-40.4	-43.3	11.8	4.45e-04	0	58	0	201326592	52	5036
2026-01-17 22:11:17.87	41.70	11.80	-40.4	-43.4	11.8	5.60e-04	0	58	0	204472320	52	5081
2026-01-17 22:11:18.88	41.84	11.87	-40.4	-43.4	11.8	4.65e-04	0	58	0	207618048	52	5074
2026-01-17 22:11:19.89	41.98	11.93	-40.4	-43.4	11.8	5.71e-04	0	58	0	210763776	52	5085
2026-01-17 22:11:20.90	42.12	12.00	-40.4	-43.4	11.8	5.48e-04	0	58	0	213909504	52	5085
2026-01-17 22:11:21.91	42.26	12.06	-40.4	-43.4	11.8	4.70e-04	0	58	0	217055232	52	5075
2026-01-17 22:11:22.92	42.40	12.13	-40.5	-43.5	11.7	5.77e-04	0	58	0	220200960	52	5155
2026-01-17 22:11:23.93	42.54	12.19	-40.5	-43.5	11.8	4.24e-04	0	58	0	223346688	52	5109
2026-01-17 22:11:24.94	42.68	12.26	-40.5	-43.4	11.8	5.28e-04	0	58	0	226492416	52	5096
2026-01-17 22:11:25.95	42.82	12.33	-40.4	-43.3	12.0	3.79e-04	0	58	0	229638144	52	5014
2026-01-17 22:11:26.96	42.97	12.39	-40.4	-43.2	12.0	3.66e-04	0	58	0	232783872	52	4979
2026-01-17 22:11:27.97	43.11	12.46	-40.4	-43.2	12.1	3.34e-04	0	58	0	235929600	52	4966
2026-01-17 22:11:28.98	43.25	12.52	-40.3	-43.2	12.1	2.97e-04	0	58	0	239075328	52	4927
2026-01-17 22:11:30.00	43.40	12.59	-40.3	-43.2	12.1	2.43e-04	0	58	0	242221056	52	4937
2026-01-17 22:11:31.01	43.54	12.65	-40.3	-43.1	12.2	2.04e-04	0	58	0	245366784	52	4895
2026-01-17 22:11:32.01	43.69	12.72	-40.2	-43.0	12.3	1.67e-04	0	58	0	248512512	52	4834
2026-01-17 22:11:33.02	43.84	12.79	-40.2	-43.0	12.4	1.59e-04	0	58	0	251658240	52	4822
2026-01-17 22:11:34.03	43.98	12.85	-40.3	-43.1	12.2	1.90e-04	0	58	0	254803968	52	4921
2026-01-17 22:11:35.04	44.13	12.92	-40.3	-43.0	12.3	1.88e-04	0	58	0	257949696	52	4864
2026-01-17 22:11:36.05	44.28	12.98	-40.2	-43.0	12.4	1.54e-04	0	58	0	261095424	52	4815
2026-01-17 22:11:37.06	44.43	13.05	-40.2	-43.0	12.4	1.78e-04	0	58	0	264241152	52	4832
2026-01-17 22:11:38.07	44.58	13.11	-40.2	-43.0	12.3	1.75e-04	0	58	0	267386880	52	4854
2026-01-17 22:11:39.08	44.73	13.18	-40.3	-43.1	12.3	1.95e-04	0	58	0	270532608	52	4878
2026-01-17 22:11:40.09	44.88	13.25	-40.3	-43.1	12.3	1.81e-04	0	58	0	273678336	52	4884
2026-01-17 22:11:41.10	45.03	13.31	-40.3	-43.1	12.3	1.87e-04	0	59	0	276824064	52	4892
2026-01-17 22:11:42.11	45.18	13.38	-40.3	-43.0	12.3	1.35e-04	0	58	0	279969792	52	4842
2026-01-17 22:11:43.12	45.34	13.44	-40.2	-42.9	12.4	1.47e-04	0	59	0	283115520	52	4812
2026-01-17 22:11:44.13	45.49	13.51	-40.2	-42.9	12.5	1.33e-04	0	58	0	286261248	52	4803
2026-01-17 22:11:45.14	45.64	13.58	-40.2	-42.9	12.5	1.27e-04	0	58	0	289406976	52	4784
2026-01-17 22:11:46.15	45.80	13.64	-40.2	-42.9	12.5	1.37e-04	0	59	0	292552704	52	4800
2026-01-17 22:11:47.16	45.95	13.71	-40.2	-43.0	12.4	1.23e-04	0	59	0	295698432	52	4829
2026-01-17 22:11:48.17	46.11	13.77	-40.2	-42.9	12.5	1.07e-04	0	59	0	298844160	52	4800
2026-01-17 22:11:49.18	46.27	13.84	-40.2	-43.0	12.4	1.58e-04	0	58	0	301989888	52	4829
2026-01-17 22:11:50.19	46.42	13.90	-40.3	-43.0	12.4	1.38e-04	0	58	0	305135616	52	4856
2026-01-17 22:11:51.20	46.58	13.97	-40.2	-42.9	12.5	1.33e-04	0	59	0	308281344	52	4797
2026-01-17 22:11:52.21	46.74	14.04	-40.2	-42.9	12.6	1.14e-04	0	59	0	311427072	52	4779
2026-01-17 22:11:53.22	46.90	14.10	-40.2	-42.9	12.5	9.00e-05	0	58	0	314572800	52	4802
2026-01-17 22:11:54.23	47.06	14.17	-40.2	-42.8	12.6	1.33e-04	0	59	0	317718528	52	4757
2026-01-17 22:11:55.24	47.22	14.23	-40.2	-42.8	12.6	9.30e-05	0	59	0	320864256	52	4756
2026-01-17 22:11:56.24	47.38	14.30	-40.2	-42.8	12.6	8.01e-05	0	58	0	324009984	52	4748
2026-01-17 22:11:57.26	47.55	14.36	-40.1	-42.7	12.7	8.46e-05	0	58	0	327155712	52	4691
2026-01-17 22:11:58.26	47.71	14.43	-40.1	-42.8	12.6	7.24e-05	0	59	0	330301440	52	4740
2026-01-17 22:11:59.27	47.87	14.49	-40.2	-42.8	12.6	8.92e-05	0	59	0	333447168	52	4734
2026-01-17 22:12:00.28	48.04	14.56	-40.2	-42.8	12.6	1.07e-04	0	59	0	336592896	52	4758
2026-01-17 22:12:01.29	48.20	14.62	-40.3	-43.0	12.5	1.09e-04	0	59	0	339738624	52	4845
2026-01-17 22:12:02.30	48.37	14.69	-40.2	-42.9	12.5	8.92e-05	0	59	0	342884352	52	4773
2026-01-17 22:12:03.31	48.54	14.76	-40.2	-43.0	12.5	1.07e-04	0	59	0	346030080	52	4815
2026-01-17 22:12:04.32	48.70	14.82	-40.2	-42.9	12.6	1.23e-04	0	59	0	349175808	52	4792
2026-01-17 22:12:05.33	48.87	14.89	-40.2	-42.8	12.6	7.62e-05	0	59	0	352321536	52	4736
2026-01-17 22:12:06.34	49.04	14.95	-40.3	-43.0	12.5	1.14e-04	0	59	0	355467264	52	4816
2026-01-17 22:12:07.35	49.21	15.02	-40.2	-42.9	12.5	1.10e-04	0	59	0	358612992	52	4794
2026-01-17 22:12:08.36	49.38	15.08	-40.2	-42.9	12.6	1.14e-04	0	59	0	361758720	52	4774
2026-01-17 22:12:09.38	49.55	15.15	-40.2	-42.8	12.6	8.46e-05	0	59	0	364904448	52	4746
2026-01-17 22:12:10.39	49.72	15.21	-40.2	-42.9	12.6	7.93e-05	0	59	0	368050176	52	4766
2026-01-17 22:12:11.40	49.90	15.28	-40.3	-43.0	12.5	1.14e-04	0	59	0	371195904	52	4818
2026-01-17 22:12:12.41	50.07	15.34	-40.3	-43.0	12.5	1.28e-04	0	59	0	374341632	52	4849
2026-01-17 22:12:13.41	50.24	15.41	-40.3	-43.1	12.5	1.42e-04	0	59	0	377487360	52	4871
2026-01-17 22:12:14.42	50.42	15.47	-40.3	-43.0	12.5	1.38e-04	0	59	0	380633088	52	4838
2026-01-17 22:12:15.43	50.59	15.53	-40.2	-42.9	12.6	1.21e-04	0	59	0	383778816	52	4791
2026-01-17 22:12:16.44	50.77	15.60	-40.3	-43.0	12.5	8.92e-05	0	59	0	386924544	52	4824
2026-01-17 22:12:17.45	50.94	15.66	-40.2	-42.9	12.6	8.54e-05	0	59	0	390070272	52	4780
2026-01-17 22:12:18.46	51.12	15.73	-40.2	-42.9	12.6	8.39e-05	0	59	0	393216000	52	4781
2026-01-17 22:12:19.47	51.30	15.79	-40.2	-42.8	12.7	6.79e-05	0	59	0	396361728	52	4740
2026-01-17 22:12:20.48	51.48	15.86	-40.2	-42.9	12.7	7.85e-05	0	59	0	400556032	52	4767
2026-01-17 22:12:21.49	51.66	15.92	-40.2	-42.9	12.7	9.91e-05	0	59	0	402653184	52	4768
2026-01-17 22:12:22.50	51.84	15.98	-40.3	-42.9	12.6	8.85e-05	0	59	0	405798912	52	4803
2026-01-17 22:12:23.51	52.02	16.05	-40.3	-42.9	12.6	1.01e-04	0	59	0	408944640	52	4806
2026-01-17 22:12:24.52	52.20	16.11	-40.3	-43.1	12.5	1.19e-04	0	59	0	412090368	52	4882
2026-01-17 22:12:25.53	52.39	16.18	-40.4	-43.1	12.4	1.43e-04	0	59	0	416284672	52	4897
2026-01-17 22:12:26.54	52.57	16.24	-40.4	-43.1	12.4	1.35e-04	0	59	0	419430400	52	4901
2026-01-17 22:12:27.55	52.75	16.30	-40.4	-43.1	12.4	1.36e-04	0	59	0	422576128	52	4923
2026-01-17 22:12:28.56	52.94	16.37	-40.3	-43.1	12.5	1.41e-04	0	59	0	425721856	52	4881
2026-01-17 22:12:29.57	53.13	16.43	-40.3	-43.0	12.6	8.62e-05	0	59	0	427819008	52	4821
2026-01-17 22:12:30.58	53.31	16.49	-40.3	-43.0	12.6	1.05e-04	0	59	0	432013312	52	4820
2026-01-17 22:12:31.59	53.50	16.56	-40.2	-42.9	12.7	9.61e-05	0	59	0	435159040	52	4788
2026-01-17 22:12:32.60	53.69	16.62	-40.2	-42.8	12.8	4.88e-05	0	59	0	438304768	52	4719
2026-01-17 22:12:33.61	53.88	16.68	-40.2	-42.8	12.8	6.56e-05	0	59	0	441450496	52	4730
2026-01-17 22:12:34.62	54.07	16.74	-40.1	-42.7	12.8	4.04e-05	0	59	0	444596224	52	4695
2026-01-17 22:12:35.63	54.26	16.81	-40.1	-42.7	12.9	5.79e-05	0	59	0	447741952	52	4669
2026-01-17 22:12:36.64	54.45	16.87	-40.1	-42.6	12.9	3.28e-05	0	59	0	450887680	52	4637
2026-01-17 22:12:37.64	54.64	16.93	-40.1	-42.6	12.9	3.20e-05	0	59	0	454033408	52	4648
2026-01-17 22:12:38.65	54.83	16.99	-40.1	-42.6	12.9	3.81e-05	0	59	0	457179136	52	4645
2026-01-17 22:12:39.66	55.03	17.05	-40.1	-42.7	12.9	5.64e-05	0	59	0	460324864	52	4695
2026-01-17 22:12:40.67	55.22	17.12	-40.2	-42.8	12.8	5.79e-05	0	59	0	463470592	52	4711
2026-01-17 22:12:41.68	55.42	17.18	-40.3	-42.9	12.6	8.92e-05	0	59	0	466616320	52	4801
2026-01-17 22:12:42.69	55.61	17.24	-40.3	-43.0	12.6	1.08e-04	0	59	0	469762048	52	4821
2026-01-17 22:12:43.70	55.81	17.30	-40.3	-43.0	12.6	1.07e-04	0	59	0	472907776	52	4822
2026-01-17 22:12:44.71	56.01	17.36	-40.3	-43.0	12.6	1.10e-04	0	59	0	476053504	52	4829
2026-01-17 22:12:45.72	56.20	17.42	-40.3	-42.9	12.6	8.62e-05	0	59	0	479199232	52	4808
2026-01-17 22:12:46.73	56.40	17.48	-40.2	-42.8	12.8	7.70e-05	0	59	0	482344960	52	4731
2026-01-17 22:12:47.74	56.60	17.54	-40.2	-42.8	12.8	6.33e-05	0	59	0	485490688	52	4707
2026-01-17 22:12:48.76	56.81	17.60	-40.1	-42.7	12.9	6.33e-05	0	59	0	488636416	52	4680
2026-01-17 22:12:49.77	57.01	17.66	-40.1	-42.6	13.0	3.89e-05	0	59	0	491782144	52	4630
2026-01-17 22:12:50.78	57.21	17.72	-40.1	-42.7	12.9	4.42e-05	0	59	0	494927872	52	4654
2026-01-17 22:12:51.79	57.41	17.78	-40.1	-42.6	13.0	3.89e-05	0	59	0	498073600	52	4627
2026-01-17 22:12:52.80	57.62	17.84	-40.1	-42.6	13.0	4.34e-05	0	59	0	501219328	52	4626
2026-01-17 22:12:53.81	57.82	17.90	-40.1	-42.6	13.0	3.66e-05	0	59	0	504365056	52	4631
2026-01-17 22:12:54.82	58.03	17.96	-40.1	-42.7	12.9	5.34e-05	0	59	0	507510784	52	4679
2026-01-17 22:12:55.83	58.23	18.02	-40.1	-42.7	12.9	3.96e-05	0	59	0	510656512	52	4678
2026-01-17 22:12:56.84	58.44	18.08	-40.1	-42.7	12.9	5.03e-05	0	59	0	513802240	52	4678
2026-01-17 22:12:57.85	58.65	18.14	-40.2	-42.7	12.9	5.95e-05	0	59	0	516947968	52	4676
2026-01-17 22:12:58.86	58.86	18.20	-40.1	-42.6	13.0	5.41e-05	0	59	0	520093696	52	4648
2026-01-17 22:12:59.87	59.07	18.26	-40.1	-42.6	13.0	3.66e-05	0	59	0	523239424	52	4631
2026-01-17 22:13:00.88	59.28	18.31	-40.1	-42.6	13.0	5.34e-05	0	59	0	526385152	52	4638
2026-01-17 22:13:01.89	59.49	18.37	-40.1	-42.6	13.0	2.36e-05	0	59	0	529530880	52	4615
2026-01-17 22:13:02.90	59.70	18.43	-40.1	-42.6	13.1	3.66e-05	0	59	0	532676608	52	4609
2026-01-17 22:13:03.91	59.91	18.49	-40.0	-42.5	13.1	3.05e-05	0	59	0	535822336	52	4586
2026-01-17 22:13:04.92	60.12	18.54	-40.0	-42.5	13.1	2.44e-05	0	59	0	538968064	52	4590
2026-01-17 22:13:05.93	60.34	18.60	-40.0	-42.5	13.2	2.21e-05	0	59	0	542113792	51	4839
2026-01-17 22:13:06.94	60.55	18.66	-40.0	-42.5	13.3	1.90e-05	0	59	0	545259520	51	4817
2026-01-17 22:13:07.95	60.77	18.71	-40.0	-42.5	13.2	2.36e-05	0	59	0	548405248	51	4837
2026-01-17 22:13:08.96	60.98	18.77	-40.1	-42.6	13.1	3.43e-05	0	59	0	551550976	51	4893
2026-01-17 22:13:09.97	61.20	18.82	-40.1	-42.7	13.0	2.82e-05	0	59	0	554696704	51	4931
2026-01-17 22:13:10.98	61.42	18.88	-40.1	-42.7	13.0	3.73e-05	0	59	0	557842432	51	4933
2026-01-17 22:13:11.99	61.64	18.93	-40.1	-42.6	13.1	2.44e-05	0	59	0	560988160	51	4886
2026-01-17 22:13:13.00	61.86	18.99	-40.0	-42.5	13.2	3.28e-05	0	59	0	564133888	51	4841
2026-01-17 22:13:14.01	62.08	19.04	-40.0	-42.4	13.3	2.67e-05	0	59	0	567279616	51	4770
2026-01-17 22:13:15.02	62.30	19.10	-40.0	-42.4	13.3	1.52e-05	0	60	0	570425344	51	4767
2026-01-17 22:13:16.03	62.52	19.15	-39.9	-42.3	13.4	1.06e-05	0	59	0	573571072	51	4742
2026-01-17 22:13:17.04	62.74	19.20	-39.9	-42.3	13.4	1.52e-05	0	59	0	576716800	51	4728
2026-01-17 22:13:18.04	62.97	19.26	-40.0	-42.4	13.3	9.90e-06	0	59	0	579862528	51	4768
2026-01-17 22:13:19.05	63.19	19.31	-39.9	-42.3	13.4	1.67e-05	0	59	0	583008256	51	4737
2026-01-17 22:13:20.07	63.42	19.36	-40.0	-42.4	13.3	8.30e-06	0	60	0	586153984	51	4778
2026-01-17 22:13:21.08	63.64	19.42	-40.0	-42.4	13.2	2.21e-05	0	59	0	589299712	51	4802
2026-01-17 22:13:22.09	63.87	19.47	-40.0	-42.4	13.2	1.60e-05	0	59	0	592445440	51	4811
2026-01-17 22:13:23.10	64.10	19.52	-40.0	-42.4	13.3	2.28e-05	0	59	0	595591168	51	4791
2026-01-17 22:13:24.11	64.32	19.57	-39.9	-42.3	13.3	1.75e-05	0	59	0	598736896	51	4753
2026-01-17 22:13:25.12	64.55	19.62	-39.9	-42.3	13.4	1.75e-05	0	59	0	601882624	51	4737
2026-01-17 22:13:26.13	64.78	19.67	-39.9	-42.2	13.5	1.29e-05	0	59	0	605028352	51	4698
2026-01-17 22:13:27.14	65.01	19.72	-39.9	-42.3	13.4	9.10e-06	0	60	0	608174080	51	4729
2026-01-17 22:13:28.15	65.24	19.77	-39.9	-42.3	13.4	1.44e-05	0	60	0	611319808	51	4721
2026-01-17 22:13:29.15	65.47	19.82	-39.9	-42.3	13.3	9.10e-06	0	60	0	614465536	51	4741
2026-01-17 22:13:30.16	65.70	19.87	-39.9	-42.3	13.3	2.05e-05	0	59	0	617611264	51	4753
2026-01-17 22:13:31.17	65.94	19.92	-39.9	-42.2	13.4	1.29e-05	0	59	0	620756992	51	4701
2026-01-17 22:13:32.18	66.17	19.97	-39.9	-42.2	13.4	9.90e-06	0	59	0	623902720	51	4699
2026-01-17 22:13:33.20	66.41	20.02	-39.7	-42.1	13.6	4.50e-06	0	60	0	627048448	51	4615
2026-01-17 22:13:34.20	66.64	20.06	-39.8	-42.1	13.6	1.14e-05	0	60	0	630194176	51	4617
2026-01-17 22:13:35.21	66.88	20.11	-39.7	-42.0	13.6	9.90e-06	0	59	0	633339904	51	4569
2026-01-17 22:13:36.22	67.11	20.16	-39.7	-42.0	13.6	1.14e-05	0	59	0	636485632	51	4556
2026-01-17 22:13:37.23	67.35	20.20	-39.7	-42.1	13.6	6.80e-06	0	59	0	639631360	51	4602
2026-01-17 22:13:38.24	67.59	20.25	-39.7	-42.1	13.5	9.90e-06	0	59	0	642777088	51	4615
2026-01-17 22:13:39.25	67.83	20.30	-39.8	-42.2	13.3	1.75e-05	0	60	0	645922816	51	4685
2026-01-17 22:13:40.26	68.07	20.34	-39.9	-42.3	13.2	3.28e-05	0	59	0	649068544	51	4757
2026-01-17 22:13:41.27	68.31	20.39	-39.9	-42.4	13.1	4.04e-05	0	60	0	652214272	51	4779
2026-01-17 22:13:42.28	68.55	20.43	-39.9	-42.4	13.1	3.43e-05	0	60	0	655360000	51	4766
2026-01-17 22:13:43.29	68.79	20.47	-39.8	-42.3	13.2	2.44e-05	0	60	0	658505728	51	4715
2026-01-17 22:13:44.30	69.03	20.52	-39.7	-42.1	13.3	1.75e-05	0	60	0	661651456	51	4648
2026-01-17 22:13:45.31	69.28	20.56	-39.7	-42.1	13.3	9.10e-06	0	60	0	664797184	51	4614
2026-01-17 22:13:46.32	69.52	20.60	-39.6	-42.0	13.4	1.06e-05	0	60	0	667942912	51	4566
2026-01-17 22:13:47.33	69.76	20.65	-39.6	-42.0	13.4	1.22e-05	0	59	0	671088640	51	4570
2026-01-17 22:13:48.34	70.01	20.69	-39.7	-42.2	13.2	2.36e-05	0	59	0	674234368	51	4658
2026-01-17 22:13:49.35	70.26	20.73	-39.8	-42.4	12.9	3.96e-05	0	60	0	677380096	51	4763
2026-01-17 22:13:50.36	70.50	20.77	-40.0	-42.6	12.7	6.33e-05	0	60	0	680525824	51	4891
2026-01-17 22:13:51.37	70.75	20.81	-40.1	-42.8	12.5	9.91e-05	0	60	0	683671552	51	4995
2026-01-17 22:13:52.38	71.00	20.85	-40.1	-42.9	12.3	1.43e-04	0	60	0	686817280	51	5055
2026-01-17 22:13:53.39	71.24	20.89	-40.1	-42.8	12.3	1.88e-04	0	59	0	689963008	51	5026
2026-01-17 22:13:54.40	71.49	20.93	-40.0	-42.8	12.3	1.88e-04	0	60	0	693108736	51	4999
2026-01-17 22:13:55.41	71.74	20.97	-40.0	-42.7	12.3	1.94e-04	0	59	0	696254464	51	4975
2026-01-17 22:13:56.42	71.99	21.01	-40.0	-42.7	12.3	1.85e-04	0	60	0	699400192	51	4975
2026-01-17 22:13:57.43	72.24	21.04	-40.0	-42.7	12.4	1.43e-04	0	60	0	702545920	51	4962
2026-01-17 22:13:58.44	72.50	21.08	-40.0	-42.8	12.4	1.48e-04	0	60	0	705691648	51	4992
2026-01-17 22:13:59.45	72.75	21.12	-40.1	-42.8	12.4	1.50e-04	0	60	0	708837376	51	4994
2026-01-17 22:14:00.46	73.00	21.15	-40.1	-42.7	12.5	1.27e-04	0	60	0	711983104	51	4982
2026-01-17 22:14:01.47	73.25	21.19	-40.0	-42.7	12.6	9.00e-05	0	60	0	715128832	51	4928
2026-01-17 22:14:02.47	73.50	21.23	-40.0	-42.7	12.5	1.30e-04	0	60	0	718274560	51	4960
2026-01-17 22:14:03.48	73.76	21.26	-40.0	-42.7	12.5	1.16e-04	0	60	0	721420288	51	4943
2026-01-17 22:14:04.49	74.01	21.29	-39.9	-42.6	12.6	1.14e-04	0	60	0	724566016	51	4901
2026-01-17 22:14:05.50	74.27	21.33	-40.0	-42.7	12.5	1.18e-04	0	60	0	727711744	51	4928
2026-01-17 22:14:06.51	74.52	21.36	-40.0	-42.7	12.4	1.44e-04	0	60	0	730857472	51	4955
2026-01-17 22:14:07.52	74.78	21.39	-40.0	-42.8	12.4	1.46e-04	0	60	0	734003200	51	4991
2026-01-17 22:14:08.53	75.04	21.43	-40.0	-42.7	12.4	1.58e-04	0	60	0	738197504	51	4961
2026-01-17 22:14:09.54	75.29	21.46	-40.0	-42.6	12.5	1.15e-04	0	60	0	741343232	51	4914
2026-01-17 22:14:10.55	75.55	21.49	-39.9	-42.6	12.6	7.85e-05	0	60	0	743440384	51	4885
2026-01-17 22:14:11.56	75.81	21.52	-39.9	-42.5	12.7	7.01e-05	0	60	0	746586112	51	4834
2026-01-17 22:14:12.58	76.07	21.55	-39.8	-42.3	12.9	5.34e-05	0	60	0	750780416	51	4748
2026-01-17 22:14:13.59	76.33	21.58	-39.8	-42.4	12.9	5.41e-05	0	60	0	753926144	51	4774
2026-01-17 22:14:14.60	76.59	21.61	-39.9	-42.6	12.7	6.33e-05	0	60	0	757071872	51	4875
2026-01-17 22:14:15.61	76.85	21.63	-39.9	-42.5	12.7	8.01e-05	0	60	0	760217600	51	4853
2026-01-17 22:14:16.62	77.11	21.66	-39.9	-42.5	12.7	8.69e-05	0	60	0	763363328	51	4841
2026-01-17 22:14:17.63	77.38	21.69	-40.0	-42.6	12.6	9.76e-05	0	60	0	766509056	51	4921
2026-01-17 22:14:18.64	77.64	21.72	-40.0	-42.6	12.7	9.23e-05	0	60	0	769654784	51	4908
2026-01-17 22:14:19.65	77.90	21.74	-39.9	-42.4	12.9	4.88e-05	0	60	0	772800512	51	4795
2026-01-17 22:14:20.66	78.16	21.77	-39.7	-42.2	13.2	2.44e-05	0	60	0	775946240	51	4668
2026-01-17 22:14:21.67	78.42	21.79	-39.6	-42.1	13.3	2.21e-05	0	60	0	779091968	51	4615
2026-01-17 22:14:22.68	78.69	21.82	-39.7	-42.1	13.3	1.90e-05	0	60	0	782237696	51	4614
2026-01-17 22:14:23.69	78.95	21.84	-39.7	-42.1	13.2	2.36e-05	0	60	0	785383424	51	4629
2026-01-17 22:14:24.70	79.22	21.86	-39.6	-42.1	13.3	1.67e-05	0	60	0	788529152	51	4613
2026-01-17 22:14:25.71	79.48	21.88	-39.7	-42.1	13.3	1.60e-05	0	60	0	791674880	51	4626
2026-01-17 22:14:26.72	79.75	21.91	-39.7	-42.1	13.2	2.13e-05	0	60	0	794820608	51	4638
2026-01-17 22:14:27.73	80.01	21.93	-39.7	-42.1	13.3	1.75e-05	0	60	0	797966336	51	4605
2026-01-17 22:14:28.74	80.28	21.95	-39.7	-42.1	13.2	2.13e-05	0	60	0	801112064	51	4650
2026-01-17 22:14:29.75	80.54	21.97	-39.8	-42.3	13.1	2.89e-05	0	60	0	804257792	51	4744
2026-01-17 22:14:30.76	80.81	21.99	-39.8	-42.3	13.1	2.89e-05	0	60	0	807403520	51	4717
2026-01-17 22:14:31.77	81.08	22.01	-39.8	-42.2	13.2	2.05e-05	0	60	0	810549248	51	4694
2026-01-17 22:14:32.78	81.34	22.02	-39.7	-42.1	13.4	1.75e-05	0	60	0	813694976	51	4600
2026-01-17 22:14:33.79	81.61	22.04	-39.6	-42.0	13.5	1.29e-05	0	60	0	816840704	51	4560
2026-01-17 22:14:34.80	81.88	22.06	-39.5	-41.8	13.6	6.10e-06	0	60	0	819986432	51	4489
2026-01-17 22:14:35.81	82.15	22.07	-39.5	-41.8	13.7	8.30e-06	0	60	0	823132160	51	4452
2026-01-17 22:14:36.82	82.42	22.09	-39.6	-41.9	13.6	7.60e-06	0	60	0	826277888	50	4776
2026-01-17 22:14:37.82	82.68	22.11	-39.6	-41.9	13.5	8.30e-06	0	60	0	829423616	50	4806
2026-01-17 22:14:38.83	82.95	22.12	-39.6	-42.0	13.5	8.30e-06	0	60	0	832569344	50	4834
2026-01-17 22:14:39.84	83.22	22.13	-39.6	-42.0	13.4	1.14e-05	0	60	0	835715072	50	4855
2026-01-17 22:14:40.85	83.49	22.15	-39.5	-41.9	13.5	1.29e-05	0	60	0	838860800	50	4787
2026-01-17 22:14:41.86	83.76	22.16	-39.6	-41.9	13.5	8.30e-06	0	60	0	842006528	50	4807
2026-01-17 22:14:42.87	84.03	22.17	-39.7	-42.2	13.2	1.44e-05	0	60	0	845152256	50	4945
2026-01-17 22:14:43.88	84.30	22.18	-39.8	-42.3	13.1	2.97e-05	0	60	0	848297984	50	5034
2026-01-17 22:14:44.89	84.57	22.19	-39.8	-42.4	13.1	3.58e-05	0	60	0	851443712	50	5053
2026-01-17 22:14:45.90	84.84	22.20	-39.8	-42.3	13.1	3.20e-05	0	60	0	854589440	50	5021
2026-01-17 22:14:46.91	85.11	22.21	-39.7	-42.2	13.3	2.05e-05	0	60	0	857735168	50	4948
2026-01-17 22:14:47.92	85.38	22.22	-39.7	-42.1	13.4	9.10e-06	0	60	0	860880896	50	4875
2026-01-17 22:14:48.93	85.65	22.23	-39.7	-42.1	13.4	7.60e-06	0	60	0	864026624	50	4888
2026-01-17 22:14:49.94	85.92	22.24	-39.7	-42.1	13.4	1.14e-05	0	60	0	867172352	50	4907
2026-01-17 22:14:50.95	86.19	22.24	-39.8	-42.2	13.3	1.83e-05	0	60	0	870318080	50	4960
2026-01-17 22:14:51.96	86.46	22.25	-39.8	-42.4	13.1	2.51e-05	0	60	0	873463808	50	5047
2026-01-17 22:14:52.97	86.74	22.25	-39.9	-42.5	12.9	4.65e-05	0	60	0	876609536	50	5126
2026-01-17 22:14:53.98	87.01	22.26	-39.9	-42.4	13.0	3.89e-05	0	60	0	879755264	50	5063
2026-01-17 22:14:54.99	87.28	22.26	-39.9	-42.4	13.1	3.12e-05	0	60	0	882900992	50	5042
2026-01-17 22:14:56.00	87.55	22.27	-39.8	-42.3	13.1	3.05e-05	0	60	0	886046720	50	5026
2026-01-17 22:14:57.01	87.82	22.27	-39.9	-42.5	12.9	3.66e-05	0	60	0	889192448	50	5120
2026-01-17 22:14:58.02	88.09	22.27	-40.0	-42.5	13.0	4.04e-05	0	60	0	892338176	50	5138
2026-01-17 22:14:59.03	88.37	22.27	-40.0	-42.5	13.0	3.50e-05	0	60	0	895483904	50	5146
2026-01-17 22:15:00.04	88.64	22.27	-39.9	-42.5	13.0	3.58e-05	0	60	0	898629632	50	5117
2026-01-17 22:15:01.05	88.91	22.27	-39.9	-42.3	13.2	3.35e-05	0	60	0	901775360	50	5027
2026-01-17 22:15:02.06	89.18	22.27	-39.8	-42.3	13.2	1.90e-05	0	60	0	904921088	50	5001
2026-01-17 22:15:03.06	89.45	22.27	-39.8	-42.3	13.3	1.98e-05	0	60	0	908066816	50	4993
2026-01-17 22:15:04.08	89.72	22.27	-39.7	-42.1	13.4	1.22e-05	0	60	0	911212544	50	4917
2026-01-17 22:15:05.09	90.00	22.27	-39.7	-42.0	13.5	8.30e-06	0	60	0	914358272	50	4869
2026-01-17 22:15:06.10	90.27	22.27	-39.8	-42.2	13.4	9.10e-06	0	60	0	917504000	50	4929
2026-01-17 22:15:07.10	90.54	22.26	-39.8	-42.2	13.4	1.14e-05	0	60	0	920649728	50	4954
2026-01-17 22:15:08.11	90.81	22.26	-39.7	-42.1	13.5	9.90e-06	0	60	0	923795456	50	4888
2026-01-17 22:15:09.12	91.08	22.25	-39.6	-41.9	13.8	6.10e-06	0	60	0	926941184	50	4778
2026-01-17 22:15:10.14	91.35	22.25	-39.5	-41.7	13.9	3.00e-06	0	60	0	930086912	50	4702
2026-01-17 22:15:11.15	91.63	22.24	-39.4	-41.6	14.1	1.50e-06	0	60	0	933232640	50	4617
2026-01-17 22:15:12.16	91.90	22.23	-39.4	-41.6	14.1	3.00e-06	0	60	0	936378368	50	4608
2026-01-17 22:15:13.17	92.17	22.23	-39.4	-41.6	14.0	1.50e-06	0	60	0	939524096	50	4650
2026-01-17 22:15:14.18	92.44	22.22	-39.5	-41.7	14.1	7.00e-07	0	60	0	942669824	50	4670
2026-01-17 22:15:15.19	92.71	22.21	-39.5	-41.7	14.0	3.00e-06	0	60	0	945815552	50	4705
2026-01-17 22:15:16.20	92.98	22.20	-39.6	-41.8	14.0	1.50e-06	0	60	0	948961280	50	4737
2026-01-17 22:15:17.21	93.25	22.19	-39.6	-41.8	14.0	3.80e-06	0	60	0	952107008	50	4725
2026-01-17 22:15:18.22	93.52	22.18	-39.5	-41.8	14.0	7.00e-07	0	60	0	955252736	50	4707
2026-01-17 22:15:19.22	93.79	22.17	-39.6	-41.8	14.0	1.50e-06	0	60	0	958398464	50	4727
2026-01-17 22:15:20.24	94.06	22.16	-39.5	-41.8	14.1	7.00e-07	0	60	0	961544192	50	4706
2026-01-17 22:15:21.25	94.33	22.14	-39.4	-41.6	14.2	2.20e-06	0	60	0	964689920	50	4621
2026-01-17 22:15:22.26	94.60	22.13	-39.5	-41.6	14.2	7.00e-07	0	60	0	967835648	50	4651
2026-01-17 22:15:23.27	94.87	22.12	-39.5	-41.7	14.2	7.00e-07	0	60	0	970981376	50	4659
2026-01-17 22:15:24.28	95.14	22.10	-39.5	-41.6	14.2	1.50e-06	0	60	0	974127104	50	4632
2026-01-17 22:15:25.29	95.41	22.09	-39.5	-41.7	14.1	3.80e-06	0	60	0	977272832	50	4697
2026-01-17 22:15:26.29	95.67	22.07	-39.6	-41.8	14.1	1.50e-06	0	60	0	980418560	50	4718
2026-01-17 22:15:27.30	95.94	22.05	-39.6	-41.8	14.1	3.80e-06	0	60	0	983564288	50	4711
2026-01-17 22:15:28.32	96.21	22.04	-39.6	-41.8	14.0	0.00e+00	0	60	0	986710016	50	4759
2026-01-17 22:15:29.32	96.48	22.02	-39.6	-41.8	14.1	7.00e-07	0	60	0	989855744	50	4725
2026-01-17 22:15:30.34	96.75	22.00	-39.6	-41.8	14.1	7.00e-07	0	60	0	993001472	50	4750
2026-01-17 22:15:31.35	97.02	21.98	-39.7	-42.0	13.9	5.30e-06	0	60	0	996147200	50	4829
2026-01-17 22:15:32.36	97.28	21.96	-39.7	-42.0	13.9	6.10e-06	0	60	0	999292928	50	4817
2026-01-17 22:15:33.37	97.55	21.94	-39.7	-42.0	13.8	6.80e-06	0	60	0	1002438656	50	4853
2026-01-17 22:15:34.38	97.82	21.92	-39.7	-42.0	13.9	5.30e-06	0	60	0	1005584384	50	4838
2026-01-17 22:15:35.39	98.08	21.90	-39.7	-41.9	14.0	2.20e-06	0	60	0	1008730112	50	4781
2026-01-17 22:15:36.40	98.35	21.88	-39.6	-41.8	14.1	1.50e-06	0	60	0	1011875840	50	4739
2026-01-17 22:15:37.41	98.61	21.86	-39.6	-41.8	14.1	0.00e+00	0	60	0	1015021568	50	4721
2026-01-17 22:15:38.42	98.88	21.83	-39.6	-41.8	14.1	7.00e-07	0	60	0	1018167296	50	4756
2026-01-17 22:15:39.43	99.14	21.81	-39.7	-41.9	14.1	0.00e+00	0	60	0	1021313024	50	4766
2026-01-17 22:15:40.44	99.41	21.78	-39.7	-41.9	14.0	7.00e-07	0	60	0	1024458752	50	4809
2026-01-17 22:15:41.45	99.67	21.76	-39.8	-42.0	13.9	3.80e-06	0	60	0	1027604480	50	4869
2026-01-17 22:15:42.45	99.93	21.73	-39.7	-42.0	13.9	3.80e-06	0	60	0	1030750208	50	4830
2026-01-17 22:15:43.46	100.19	21.71	-39.7	-42.0	14.0	3.80e-06	0	60	0	1033895936	50	4829
2026-01-17 22:15:44.47	100.45	21.68	-39.7	-41.9	14.1	1.50e-06	0	60	0	1037041664	50	4772
2026-01-17 22:15:45.48	100.72	21.65	-39.7	-41.9	14.0	2.20e-06	0	60	0	1040187392	50	4800
2026-01-17 22:15:46.49	100.98	21.63	-39.7	-42.0	14.0	3.00e-06	0	60	0	1043333120	50	4822
2026-01-17 22:15:47.50	101.24	21.60	-39.7	-42.0	13.9	4.50e-06	0	60	0	1046478848	50	4842
2026-01-17 22:15:48.51	101.50	21.57	-39.7	-41.9	14.0	2.20e-06	0	60	0	1049624576	50	4798
2026-01-17 22:15:49.52	101.76	21.54	-39.7	-41.9	14.0	1.50e-06	0	60	0	1052770304	50	4805
2026-01-17 22:15:50.53	102.02	21.51	-39.7	-41.9	14.0	4.50e-06	0	60	0	1056964608	50	4774
2026-01-17 22:15:51.54	102.28	21.48	-39.6	-41.8	14.1	1.50e-06	0	60	0	1059061760	50	4745
2026-01-17 22:15:52.55	102.54	21.45	-39.6	-41.7	14.1	0.00e+00	0	60	0	1062207488	50	4699
2026-01-17 22:15:53.56	102.79	21.42	-39.5	-41.7	14.2	2.20e-06	0	60	0	1065353216	50	4674
2026-01-17 22:15:54.57	103.05	21.38	-39.5	-41.7	14.2	7.00e-07	0	60	0	1068498944	50	4677
2026-01-17 22:15:55.58	103.31	21.35	-39.6	-41.8	14.1	4.50e-06	0	60	0	1072693248	50	4757
2026-01-17 22:15:56.59	103.57	21.32	-39.7	-41.9	14.0	0.00e+00	0	60	0	1075838976	50	4786
2026-01-17 22:15:57.60	103.82	21.28	-39.8	-42.0	13.9	5.30e-06	0	60	0	1078984704	50	4854
2026-01-17 22:15:58.61	104.08	21.25	-39.7	-41.9	14.0	1.50e-06	0	60	0	1082130432	50	4809
2026-01-17 22:15:59.62	104.33	21.21	-39.7	-41.9	14.0	1.50e-06	0	60	0	1084227584	50	4803
2026-01-17 22:16:00.62	104.58	21.18	-39.7	-42.0	13.9	3.80e-06	0	60	0	1087373312	50	4819
2026-01-17 22:16:01.63	104.84	21.14	-39.7	-42.0	14.0	3.00e-06	0	60	0	1091567616	50	4827
2026-01-17 22:16:02.64	105.09	21.11	-39.7	-41.9	14.0	3.80e-06	0	60	0	1094713344	50	4807
2026-01-17 22:16:03.65	105.34	21.07	-39.7	-41.9	14.0	2.20e-06	0	60	0	1097859072	50	4791
2026-01-17 22:16:04.66	105.60	21.03	-39.7	-41.9	14.1	0.00e+00	0	60	0	1101004800	50	4766
2026-01-17 22:16:05.67	105.85	20.99	-39.6	-41.8	14.1	1.50e-06	0	60	0	1104150528	50	4727
2026-01-17 22:16:06.68	106.10	20.96	-39.6	-41.8	14.1	7.00e-07	0	60	0	1107296256	50	4724
2026-01-17 22:16:07.69	106.35	20.92	-39.7	-41.9	14.0	7.00e-07	0	60	0	1110441984	50	4767
2026-01-17 22:16:08.70	106.60	20.88	-39.7	-41.9	14.0	3.00e-06	0	60	0	1113587712	50	4805
2026-01-17 22:16:09.71	106.85	20.84	-39.7	-42.0	14.0	3.80e-06	0	60	0	1116733440	50	4822
2026-01-17 22:16:10.72	107.09	20.80	-39.8	-42.1	13.9	5.30e-06	0	60	0	1119879168	50	4884
2026-01-17 22:16:11.73	107.34	20.76	-39.8	-42.1	13.8	3.00e-06	0	60	0	1123024896	50	4896
2026-01-17 22:16:12.74	107.59	20.71	-39.9	-42.2	13.8	3.80e-06	0	60	0	1126170624	50	4941
2026-01-17 22:16:13.75	107.84	20.67	-39.8	-42.1	13.8	4.50e-06	0	60	0	1129316352	50	4896
2026-01-17 22:16:14.76	108.08	20.63	-39.7	-42.0	13.9	5.30e-06	0	60	0	1132462080	50	4840
2026-01-17 22:16:15.77	108.33	20.59	-39.9	-42.1	13.7	3.80e-06	0	60	0	1135607808	50	4920
2026-01-17 22:16:16.78	108.57	20.54	-39.8	-42.1	13.8	6.10e-06	0	60	0	1138753536	50	4918
2026-01-17 22:16:17.79	108.81	20.50	-39.8	-42.1	13.8	4.50e-06	0	60	0	1141899264	50	4891
2026-01-17 22:16:18.80	109.06	20.46	-39.8	-42.1	13.9	6.10e-06	0	60	0	1145044992	50	4886
2026-01-17 22:16:19.81	109.30	20.41	-39.7	-42.0	14.0	5.30e-06	0	60	0	1148190720	50	4824
2026-01-17 22:16:20.82	109.54	20.37	-39.7	-42.0	13.9	6.10e-06	0	60	0	1151336448	50	4843
2026-01-17 22:16:21.83	109.78	20.32	-39.8	-42.1	13.8	3.00e-06	0	60	0	1154482176	50	4888
2026-01-17 22:16:22.84	110.02	20.28	-39.8	-42.1	13.8	4.50e-06	0	60	0	1157627904	50	4885
2026-01-17 22:16:23.85	110.26	20.23	-39.8	-42.0	13.9	5.30e-06	0	60	0	1160773632	50	4847
2026-01-17 22:16:24.86	110.50	20.18	-39.8	-42.0	13.9	3.80e-06	0	60	0	1163919360	50	4866
2026-01-17 22:16:25.87	110.74	20.14	-39.8	-42.1	13.8	3.80e-06	0	60	0	1167065088	50	4898
2026-01-17 22:16:26.88	110.98	20.09	-39.9	-42.2	13.7	5.30e-06	0	60	0	1170210816	50	4958
2026-01-17 22:16:27.89	111.21	20.04	-39.9	-42.2	13.7	4.50e-06	0	60	0	1173356544	50	4963
2026-01-17 22:16:28.89	111.45	19.99	-39.9	-42.2	13.8	5.30e-06	0	60	0	1176502272	50	4938
2026-01-17 22:16:29.90	111.68	19.95	-39.8	-42.1	13.8	1.06e-05	0	60	0	1179648000	50	4905
2026-01-17 22:16:30.91	111.92	19.90	-39.9	-42.3	13.6	5.30e-06	0	60	0	1182793728	50	4994
2026-01-17 22:16:31.92	112.15	19.85	-40.0	-42.4	13.5	9.90e-06	0	60	0	1185939456	50	5069
2026-01-17 22:16:32.93	112.38	19.80	-40.0	-42.4	13.6	5.30e-06	0	60	0	1189085184	50	5042
2026-01-17 22:16:33.94	112.62	19.75	-40.0	-42.4	13.6	9.90e-06	0	60	0	1192230912	50	5051
2026-01-17 22:16:34.95	112.85	19.70	-39.9	-42.3	13.7	6.10e-06	0	60	0	1195376640	50	4989
2026-01-17 22:16:35.97	113.08	19.65	-39.9	-42.2	13.7	3.00e-06	0	60	0	1198522368	50	4979
2026-01-17 22:16:36.98	113.31	19.60	-39.8	-42.1	13.8	4.50e-06	0	60	0	1201668096	50	4916
2026-01-17 22:16:37.98	113.54	19.54	-39.8	-42.0	13.8	3.80e-06	0	60	0	1204813824	50	4870
2026-01-17 22:16:38.99	113.77	19.49	-39.7	-42.0	13.9	4.50e-06	0	60	0	1207959552	50	4852
2026-01-17 22:16:40.00	114.00	19.44	-39.8	-42.0	13.8	5.30e-06	0	60	0	1211105280	50	4868
2026-01-17 22:16:41.01	114.22	19.39	-39.7	-42.0	13.9	1.50e-06	0	60	0	1214251008	50	4859
2026-01-17 22:16:42.03	114.45	19.33	-39.8	-42.1	13.8	7.00e-07	0	60	0	1217396736	50	4919
2026-01-17 22:16:43.04	114.68	19.28	-39.8	-42.1	13.8	1.50e-06	0	60	0	1220542464	50	4875
2026-01-17 22:16:44.05	114.90	19.23	-39.8	-42.1	13.8	1.50e-06	0	60	0	1223688192	50	4901
2026-01-17 22:16:45.06	115.13	19.17	-39.8	-42.1	13.8	5.30e-06	0	60	0	1226833920	50	4905
2026-01-17 22:16:46.07	115.35	19.12	-39.9	-42.2	13.7	6.80e-06	0	60	0	1229979648	50	4961
2026-01-17 22:16:47.08	115.57	19.07	-40.0	-42.4	13.5	4.50e-06	0	60	0	1233125376	50	5074
2026-01-17 22:16:48.09	115.79	19.01	-40.0	-42.4	13.4	1.14e-05	0	60	0	1236271104	50	5084
2026-01-17 22:16:49.10	116.02	18.96	-40.0	-42.4	13.5	1.29e-05	0	60	0	1239416832	50	5087
2026-01-17 22:16:50.11	116.24	18.90	-40.0	-42.4	13.4	1.75e-05	0	60	0	1242562560	50	5097
2026-01-17 22:16:51.12	116.45	18.85	-40.0	-42.4	13.4	1.67e-05	0	60	0	1245708288	50	5098
2026-01-17 22:16:52.13	116.67	18.79	-40.0	-42.4	13.5	1.37e-05	0	60	0	1248854016	50	5057
2026-01-17 22:16:53.14	116.89	18.73	-39.9	-42.3	13.6	6.80e-06	0	60	0	1251999744	50	5004
2026-01-17 22:16:54.15	117.11	18.68	-40.0	-42.4	13.5	1.06e-05	0	60	0	1255145472	50	5043
2026-01-17 22:16:55.16	117.33	18.62	-40.0	-42.4	13.5	1.44e-05	0	60	0	1258291200	50	5065
2026-01-17 22:16:56.17	117.54	18.56	-40.0	-42.5	13.4	1.37e-05	0	60	0	1261436928	50	5108
2026-01-17 22:16:57.18	117.76	18.51	-40.0	-42.4	13.4	1.52e-05	0	60	0	1264582656	50	5080
2026-01-17 22:16:58.19	117.97	18.45	-40.0	-42.5	13.4	1.37e-05	0	60	0	1267728384	50	5102
2026-01-17 22:16:59.20	118.18	18.39	-40.1	-42.5	13.4	1.67e-05	0	60	0	1270874112	50	5112
2026-01-17 22:17:00.20	118.39	18.33	-40.1	-42.6	13.3	1.44e-05	0	60	0	1274019840	50	5165
2026-01-17 22:17:01.20	118.60	18.28	-40.2	-42.7	13.1	2.36e-05	0	60	0	1277165568	50	5242
2026-01-17 22:17:02.21	118.81	18.22	-40.2	-42.7	13.2	5.87e-05	0	60	0	1280311296	51	4928
2026-01-17 22:17:03.22	119.02	18.16	-40.2	-42.7	13.1	2.36e-05	0	60	0	1283457024	51	4959
2026-01-17 22:17:04.23	119.23	18.10	-40.2	-42.7	13.1	7.70e-05	0	60	0	1286602752	50	5236
2026-01-17 22:17:05.24	119.44	18.04	-40.2	-42.7	13.1	3.61e-04	0	61	0	1289748480	50	5242
2026-01-17 22:17:06.25	119.65	17.98	-40.1	-42.5	13.3	2.05e-05	0	60	0	1292894208	50	5134
2026-01-17 22:17:07.26	119.86	17.92	-40.0	-42.4	13.4	1.37e-05	0	60	0	1296039936	50	5062
2026-01-17 22:17:08.27	120.06	17.86	-40.0	-42.4	13.4	3.73e-05	0	60	0	1299185664	50	5071
2026-01-17 22:17:09.28	120.27	17.80	-39.9	-42.3	13.5	8.23e-05	0	60	0	1302331392	50	5006
2026-01-17 22:17:10.29	120.47	17.74	-39.5	-42.5	11.4	3.05e-05	0	60	0	1305477120	48	5767
2026-01-17 22:17:11.30	120.68	17.68	-39.9	-42.2	13.5	2.67e-05	0	60	0	1308622848	50	4981
2026-01-17 22:17:12.31	120.88	17.62	-40.0	-42.4	13.3	5.55e-04	0	60	0	1311768576	50	5083
2026-01-17 22:17:13.32	121.08	17.56	-40.0	-42.5	13.2	6.33e-05	0	60	0	1314914304	50	5125
2026-01-17 22:17:14.33	121.28	17.50	-40.0	-42.4	13.3	5.34e-05	0	60	0	1318060032	50	5093
2026-01-17 22:17:15.34	121.48	17.44	-40.0	-42.4	13.3	6.71e-05	0	61	0	1321205760	50	5096
2026-01-17 22:17:16.35	121.68	17.38	-40.1	-42.6	13.2	5.87e-05	0	60	0	1324351488	50	5179
2026-01-17 22:17:17.36	121.88	17.32	-40.1	-42.6	13.2	6.48e-05	0	60	0	1327497216	50	5190
2026-01-17 22:17:18.37	122.08	17.25	-40.1	-42.6	13.1	9.00e-05	0	60	0	1330642944	50	5201
2026-01-17 22:17:19.38	122.28	17.19	-40.0	-42.5	13.2	8.23e-05	0	61	0	1333788672	50	5137
2026-01-17 22:17:20.39	122.47	17.13	-40.1	-42.5	13.2	5.56e-05	0	60	0	1336934400	50	5151
2026-01-17 22:17:21.40	122.67	17.07	-40.0	-42.5	13.3	3.43e-05	0	60	0	1340080128	50	5118
2026-01-17 22:17:22.41	122.87	17.01	-40.0	-42.5	13.3	1.89e-04	0	60	0	1343225856	50	5103
2026-01-17 22:17:23.42	123.06	16.94	-40.0	-42.4	13.3	2.10e-04	0	60	0	1346371584	50	5076
2026-01-17 22:17:24.42	123.25	16.88	-39.9	-42.5	13.2	7.86e-04	0	60	0	1349517312	50	5130
2026-01-17 22:17:25.43	123.44	16.82	-40.1	-42.6	12.0	4.21e-03	0	60	0	1352663040	50	5198
2026-01-17 22:17:26.44	123.64	16.76	-40.1	-42.7	13.0	5.72e-05	0	60	0	1355808768	50	5225
2026-01-17 22:17:27.45	123.83	16.69	-40.2	-42.7	13.0	2.29e-04	0	60	0	1358954496	50	5262
2026-01-17 22:17:28.46	124.02	16.63	-40.1	-42.7	13.0	5.18e-05	0	60	0	1362100224	50	5252
2026-01-17 22:17:29.47	124.21	16.57	-40.1	-42.6	13.1	4.50e-05	0	60	0	1365245952	50	5209
2026-01-17 22:17:30.48	124.40	16.50	-40.1	-42.7	13.0	6.10e-05	0	60	0	1368391680	50	5254
2026-01-17 22:17:31.49	124.58	16.44	-40.1	-42.6	13.1	6.10e-05	0	60	0	1371537408	50	5170
2026-01-17 22:17:32.50	124.77	16.37	-39.9	-42.5	13.1	6.10e-05	0	60	0	1374683136	50	5156
2026-01-17 22:17:33.51	124.96	16.31	-40.0	-42.4	13.3	2.67e-05	0	60	0	1377828864	50	5086
2026-01-17 22:17:34.52	125.14	16.25	-40.0	-42.5	13.1	4.73e-05	0	60	0	1380974592	50	5151
2026-01-17 22:17:35.53	125.33	16.18	-39.9	-42.6	12.4	1.92e-04	0	60	0	1384120320	50	5185
2026-01-17 22:17:36.54	125.51	16.12	-40.1	-42.6	13.0	9.46e-05	0	60	0	1387266048	50	5207
2026-01-17 22:17:37.55	125.70	16.05	-40.1	-42.6	13.1	1.08e-04	0	60	0	1390411776	50	5188
2026-01-17 22:17:38.56	125.88	15.99	-39.9	-42.7	12.6	3.03e-04	0	60	0	1393557504	50	5268
2026-01-17 22:17:39.57	126.06	15.92	-40.1	-42.7	12.9	2.22e-02	0	60	0	1396703232	50	5254
2026-01-17 22:17:40.58	126.24	15.86	-40.1	-42.7	13.0	2.88e-04	0	60	0	1399848960	50	5227
2026-01-17 22:17:41.59	126.42	15.80	-40.0	-42.7	12.8	9.30e-05	0	60	0	1402994688	50	5255
2026-01-17 22:17:42.60	126.60	15.73	-39.9	-42.7	12.9	2.95e-04	0	61	0	1406140416	50	5239
2026-01-17 22:17:43.61	126.78	15.67	-40.1	-42.7	12.8	7.74e-04	0	60	0	1409286144	50	5276
2026-01-17 22:17:44.62	126.96	15.60	-40.1	-42.7	12.9	4.73e-04	0	60	0	1412431872	50	5238
2026-01-17 22:17:45.63	127.14	15.54	-40.1	-42.8	12.8	2.19e-04	0	60	0	1416626176	50	5280
2026-01-17 22:17:46.64	127.31	15.47	-39.6	-42.6	10.8	4.40e-02	0	61	0	1419771904	48	5815
2026-01-17 22:17:47.65	127.49	15.41	-40.0	-42.6	12.5	9.43e-02	2	60	0	1421869056	50	5166
2026-01-17 22:17:48.66	127.67	15.34	-39.9	-42.5	12.3	3.64e-03	0	60	0	1425014784	49	5415
2026-01-17 22:17:49.67	127.84	15.27	-39.9	-42.5	12.9	5.52e-03	0	61	0	1428160512	50	5107
2026-01-17 22:17:50.68	128.01	15.21	-39.7	-42.4	12.6	8.44e-03	0	60	0	1432354816	50	5073
2026-01-17 22:17:51.69	128.19	15.14	-39.6	-42.4	11.9	2.28e-02	0	60	0	1435500544	49	5394
2026-01-17 22:17:52.70	128.36	15.08	-40.1	-42.6	11.6	1.60e-01	0	60	0	1437597696	50	5160
2026-01-17 22:17:53.71	128.53	15.01	-39.2	-43.2	5.0	9.85e-01	0	60	104	1438646272	49	5913
2026-01-17 22:17:54.72	128.70	14.95	-39.1	-42.6	10.7	6.51e-02	2	60	0	1439694848	48	5814
2026-01-17 22:17:55.73	128.87	14.88	-39.3	-42.7	11.0	2.25e-01	7	60	0	1442840576	49	5580
2026-01-17 22:17:56.74	129.04	14.81	-32.1	-42.6	4.7	1.48e-01	0	61	104	1444937728	36	11633
2026-01-17 22:17:57.75	129.21	14.75	-33.6	-42.4	8.4	1.27e-01	20	60	0	1445986304	46	6357
2026-01-17 22:17:58.76	129.38	14.68	-39.3	-42.8	10.6	1.53e-01	7	60	0	1445986304	49	5633
2026-01-17 22:17:59.77	129.54	14.62	-38.6	-42.5	9.5	2.68e-01	11	61	0	1448083456	47	6113
2026-01-17 22:18:00.78	129.71	14.55	-38.5	-42.6	9.3	1.90e-01	6	61	0	1449132032	46	6531
2026-01-17 22:18:01.79	129.88	14.48	-37.9	-42.6	9.2	2.68e-01	4	60	0	1451229184	46	6562
2026-01-17 22:18:02.80	130.04	14.42	-39.0	-43.0	10.0	2.98e-01	3	60	0	1453326336	47	6450
2026-01-17 22:18:03.81	130.21	14.35	-38.5	-42.7	9.6	1.06e+00	14	61	104	1453326336	43	7855
2026-01-17 22:18:04.82	130.37	14.29	-37.0	-42.9	9.3	9.80e-01	13	60	104	1453326336	47	6417
2026-01-17 22:18:05.82	130.53	14.22	-38.6	-43.7	4.5	4.68e-01	5	61	104	1454374912	46	7431
2026-01-17 22:18:06.83	130.69	14.15	-36.8	-42.7	8.4	2.98e-01	24	60	0	1454374912	43	7810
2026-01-17 22:18:07.84	130.85	14.09	-38.1	-42.8	9.1	3.18e-01	9	61	0	1456472064	44	7467
2026-01-17 22:18:08.85	131.01	14.02	-36.8	-42.7	8.4	3.20e-01	22	61	0	1458569216	44	7413
2026-01-17 22:18:09.86	131.17	13.96	-37.9	-43.1	9.0	3.55e-01	16	60	0	1460666368	46	6944
2026-01-17 22:18:10.87	131.33	13.89	-36.8	-43.6	4.8	8.16e-01	0	61	104	1462763520	43	8690
2026-01-17 22:18:11.88	131.49	13.82	-32.3	-42.7	8.0	3.23e-01	28	60	0	1463812096	41	8854
2026-01-17 22:18:12.89	131.65	13.76	-35.0	-42.9	8.1	6.35e-01	25	60	0	1464860672	42	8540
2026-01-17 22:18:13.90	131.81	13.69	-37.4	-42.9	8.8	3.96e-01	15	61	0	1464860672	43	8046
2026-01-17 22:18:14.91	131.96	13.62	-33.2	-43.7	4.8	1.41e+00	0	60	104	1464860672	45	7885
2026-01-17 22:18:15.92	132.12	13.56	-29.4	-39.9	5.6	1.10e+00	0	60	104	1464860672	37	7994
2026-01-17 22:18:16.93	132.28	13.49	-36.6	-42.3	8.3	4.69e-01	12	61	0	1464860672	43	7480
2026-01-17 22:18:17.94	132.43	13.42	-28.8	-36.0	4.8	1.25e+00	0	61	104	1464860672	38	4824
2026-01-17 22:18:18.95	132.58	13.36	-37.0	-42.5	7.1	9.98e-01	11	61	104	1464860672	42	8147
2026-01-17 22:18:19.96	132.74	13.29	-32.1	-41.1	6.1	8.64e-01	20	61	0	1464860672	38	8720
2026-01-17 22:18:20.97	132.89	13.22	-33.7	-41.6	7.2	9.62e-01	34	61	104	1464860672	40	8190
2026-01-17 22:18:21.98	133.04	13.16	-35.9	-43.0	4.7	8.75e-01	0	61	104	1465909248	42	8628
2026-01-17 22:18:22.99	133.19	13.09	-26.5	-37.3	6.8	7.37e-01	10	61	0	1465909248	41	4745
2026-01-17 22:18:24.00	133.34	13.02	-20.2	-32.1	3.8	1.45e+00	0	61	104	1465909248	23	7297
2026-01-17 22:18:25.01	133.49	12.96	-20.1	-31.0	3.6	1.46e+00	0	61	104	1465909248	28	4844
2026-01-17 22:18:26.02	133.64	12.89	-32.7	-42.3	4.5	1.44e+00	0	61	104	1465909248	35	11906
2026-01-17 22:18:27.03	133.79	12.82	-31.5	-43.3	4.7	8.13e-01	3	61	0	1465909248	37	11937
2026-01-17 22:18:28.04	133.94	12.76	-38.1	-47.8	4.1	1.47e+00	0	60	104	1465909248	42	14881
2026-01-17 22:18:29.05	134.09	12.69	-40.0	-50.0	4.2	7.44e-01	0	61	104	1465909248	47	14475
2026-01-17 22:18:30.06	134.23	12.63	-19.7	-31.4	3.6	1.50e+00	0	61	104	1465909248	27	5388
2026-01-17 22:18:31.06	134.38	12.56	-41.9	-52.8	4.0	1.29e+00	0	60	104	1465909248	54	13359
2026-01-17 22:18:32.07	134.52	12.49	-34.8	-47.0	4.3	1.48e+00	0	61	104	1465909248	38	17209
2026-01-17 22:18:33.09	134.67	12.43	-34.1	-46.8	4.2	1.51e+00	0	61	104	1465909248	39	15922
2026-01-17 22:18:34.09	134.81	12.36	-37.1	-49.5	4.2	1.50e+00	0	60	104	1465909248	46	14412
2026-01-17 22:18:35.11	134.96	12.29	-40.2	-49.0	5.5	9.45e-01	5	60	0	1465909248	52	9609
2026-01-17 22:18:36.11	135.10	12.23	-31.2	-43.5	4.2	1.46e+00	0	61	104	1465909248	34	14444
2026-01-17 22:18:37.12	135.24	12.16	-41.6	-54.3	3.9	1.41e+00	0	60	104	1465909248	55	15012
2026-01-17 22:18:38.13	135.38	12.09	-39.3	-50.6	4.3	1.17e+00	0	61	104	1465909248	46	16460
2026-01-17 22:18:39.14	135.52	12.03	-39.0	-45.8	6.1	6.62e-01	20	61	0	1465909248	46	9443
2026-01-17 22:18:40.15	135.66	11.96	-28.7	-38.9	4.7	3.90e-01	5	61	0	1468006400	43	5073
2026-01-17 22:18:41.16	135.80	11.90	-36.7	-43.9	7.6	3.19e-01	6	61	0	1468006400	46	7628
2026-01-17 22:18:42.17	135.94	11.83	-38.5	-44.4	7.8	3.45e-01	7	60	0	1470103552	47	7610
2026-01-17 22:18:43.18	136.08	11.76	-40.7	-44.4	5.7	8.75e-01	0	61	104	1471152128	50	6391
2026-01-17 22:18:44.19	136.22	11.70	-40.2	-44.7	8.2	1.24e-01	8	60	0	1472200704	48	7394
2026-01-17 22:18:45.20	136.36	11.63	-36.2	-45.2	3.6	8.39e-02	0	60	104	1475346432	39	13146
2026-01-17 22:18:46.21	136.49	11.57	-41.2	-45.2	6.8	1.61e-01	4	61	0	1476395008	51	6604
2026-01-17 22:18:47.22	136.63	11.50	-38.5	-45.0	8.0	8.03e-01	11	61	104	1477443584	49	7233
2026-01-17 22:18:48.23	136.77	11.43	-40.4	-44.9	8.7	3.35e-01	6	61	0	1478492160	51	6385
2026-01-17 22:18:49.23	136.90	11.37	-40.6	-44.8	9.3	8.36e-02	7	61	0	1481637888	50	6692
2026-01-17 22:18:50.24	137.03	11.30	-40.5	-45.6	4.8	3.77e-01	0	61	104	1483735040	50	7299
2026-01-17 22:18:51.25	137.17	11.24	-40.4	-44.6	8.5	7.86e-02	5	61	0	1484783616	49	6891
2026-01-17 22:18:52.26	137.30	11.17	-40.4	-44.4	9.6	1.31e-01	4	61	0	1486880768	51	5996
2026-01-17 22:18:53.27	137.43	11.10	-29.5	-40.9	5.3	2.86e-01	0	61	0	1490026496	36	9573
2026-01-17 22:18:54.28	137.57	11.04	-39.9	-45.0	8.8	8.54e-02	6	61	0	1491075072	50	6849
2026-01-17 22:18:55.29	137.70	10.97	-39.6	-45.6	4.8	1.37e+00	0	61	104	1493172224	46	9272
2026-01-17 22:18:56.30	137.83	10.91	-39.6	-43.7	10.2	6.25e-02	0	60	0	1493172224	49	6265
2026-01-17 22:18:57.31	137.96	10.84	-38.8	-44.0	10.0	9.24e-02	2	60	0	1496317952	50	6068
2026-01-17 22:18:58.32	138.09	10.78	-40.6	-45.0	9.1	6.37e-02	0	60	0	1499463680	51	6430
2026-01-17 22:18:59.33	138.22	10.71	-40.9	-46.1	7.7	1.55e-01	6	61	0	1502609408	52	6938
2026-01-17 22:19:00.34	138.35	10.64	-39.7	-46.8	7.2	1.24e-01	2	61	0	1505755136	53	7054
2026-01-17 22:19:01.33	138.47	10.58	-41.3	-47.8	6.2	2.99e-01	4	61	0	1508900864	53	7974
2026-01-17 22:19:02.34	138.60	10.51	-41.1	-47.1	6.6	2.92e-01	3	60	0	1512046592	53	7307
2026-01-17 22:19:03.35	138.73	10.45	-41.0	-46.9	7.0	3.58e-01	3	60	0	1514143744	53	7164
2026-01-17 22:19:04.36	138.85	10.38	-41.7	-48.4	5.9	3.57e-01	3	61	0	1517289472	54	8015
2026-01-17 22:19:05.37	138.98	10.32	-41.4	-47.3	6.4	1.44e+00	2	60	104	1519386624	52	7956
2026-01-17 22:19:06.38	139.11	10.25	-41.6	-47.7	6.3	6.55e-01	4	61	0	1519386624	50	9350
2026-01-17 22:19:07.39	139.23	10.19	-34.3	-46.4	6.1	1.43e+00	38	61	104	1519386624	45	10724
2026-01-17 22:19:08.40	139.36	10.12	-39.5	-45.2	6.7	7.78e-01	13	61	0	1520435200	43	10427
2026-01-17 22:19:09.41	139.48	10.06	-40.1	-43.7	8.9	4.17e-01	5	61	0	1520435200	47	6998
2026-01-17 22:19:10.42	139.60	9.99	-39.7	-42.4	10.2	9.86e-02	12	61	0	1523580928	46	6400
2026-01-17 22:19:11.43	139.73	9.93	-40.1	-43.4	8.9	2.52e-01	13	61	0	1526726656	45	7616
2026-01-17 22:19:12.44	139.85	9.86	-38.7	-44.7	8.3	2.30e-01	0	61	0	1528823808	49	7038
2026-01-17 22:19:13.45	139.97	9.80	-40.3	-43.6	10.9	1.47e-02	0	61	0	1531969536	51	5472
2026-01-17 22:19:14.46	140.09	9.73	-37.4	-43.8	8.8	2.02e-01	11	60	0	1535115264	46	7466
2026-01-17 22:19:15.47	140.21	9.67	-40.0	-44.1	9.7	4.06e-02	0	60	0	1538260992	51	5845
2026-01-17 22:19:16.48	140.33	9.60	-40.7	-44.3	10.2	4.25e-02	0	61	0	1541406720	51	5927
2026-01-17 22:19:17.49	140.45	9.54	-39.8	-44.1	9.6	3.77e-02	0	61	0	1544552448	51	5789
2026-01-17 22:19:18.50	140.57	9.47	-40.4	-44.1	10.3	3.41e-02	0	61	0	1547698176	51	5830
2026-01-17 22:19:19.51	140.69	9.41	-40.3	-43.9	10.5	1.69e-02	0	61	0	1550843904	51	5693
2026-01-17 22:19:20.52	140.81	9.35	-40.5	-44.2	10.3	1.46e-02	0	61	0	1553989632	51	5905
2026-01-17 22:19:21.53	140.93	9.28	-40.7	-44.2	10.4	4.84e-03	0	61	0	1557135360	51	5905
2026-01-17 22:19:22.54	141.04	9.22	-40.5	-43.9	10.7	2.56e-03	0	61	0	1560281088	51	5691
2026-01-17 22:19:23.55	141.16	9.15	-40.5	-43.8	10.9	2.47e-03	0	60	0	1563426816	51	5608
2026-01-17 22:19:24.56	141.28	9.09	-40.5	-43.8	11.0	2.59e-03	0	60	0	1566572544	51	5605
2026-01-17 22:19:25.57	141.39	9.02	-40.3	-43.6	11.2	2.00e-03	0	60	0	1569718272	51	5466
2026-01-17 22:19:26.58	141.51	8.96	-40.5	-43.8	11.0	1.84e-03	0	60	0	1573912576	51	5623
2026-01-17 22:19:27.59	141.62	8.90	-40.5	-43.8	11.0	1.98e-03	0	61	0	1577058304	51	5611
2026-01-17 22:19:28.60	141.74	8.83	-40.6	-44.0	10.8	2.03e-03	0	61	0	1579155456	51	5775
2026-01-17 22:19:29.61	141.85	8.77	-40.5	-43.8	11.0	1.96e-03	0	60	0	1582301184	51	5638
2026-01-17 22:19:30.62	141.96	8.71	-40.6	-44.0	10.8	2.80e-03	0	61	0	1585446912	51	5741
2026-01-17 22:19:31.63	142.07	8.64	-40.5	-43.8	10.9	2.24e-03	0	61	0	1589641216	51	5622
2026-01-17 22:19:32.63	142.19	8.58	-40.5	-43.9	10.8	2.61e-03	0	61	0	1592786944	51	5664
2026-01-17 22:19:33.64	142.30	8.51	-40.5	-43.9	10.8	2.67e-03	0	61	0	1595932672	51	5682
2026-01-17 22:19:34.65	142.41	8.45	-40.4	-44.2	10.5	3.33e-03	0	61	0	1599078400	51	5857
2026-01-17 22:19:35.67	142.52	8.39	-40.6	-44.1	10.6	3.38e-03	0	61	0	1601175552	51	5800
2026-01-17 22:19:36.68	142.63	8.32	-40.6	-44.2	10.4	4.74e-03	0	61	0	1605369856	52	5561
2026-01-17 22:19:37.68	142.74	8.26	-40.5	-44.0	10.6	4.49e-03	0	61	0	1608515584	52	5428
2026-01-17 22:19:38.70	142.85	8.20	-40.7	-44.3	10.2	5.47e-03	0	61	0	1611661312	52	5653
2026-01-17 22:19:39.71	142.96	8.13	-40.7	-44.3	10.4	5.19e-03	0	61	0	1614807040	52	5597
2026-01-17 22:19:40.72	143.07	8.07	-40.7	-44.3	10.3	5.82e-03	0	61	0	1617952768	52	5622
2026-01-17 22:19:41.73	143.18	8.01	-43.4	-52.3	4.0	7.21e-01	0	61	104	1620049920	57	10638
2026-01-17 22:19:42.74	143.28	7.94	-36.0	-50.9	4.4	1.51e+00	0	61	104	1620049920	46	17083
2026-01-17 22:19:43.75	143.39	7.88	-45.2	-56.3	4.4	1.52e+00	0	61	104	1620049920	53	21181
2026-01-17 22:19:44.76	143.50	7.82	-45.1	-57.6	3.8	1.49e+00	0	61	104	1620049920	60	16465
2026-01-17 22:19:45.77	143.61	7.76	-45.3	-57.8	3.8	1.49e+00	0	61	104	1620049920	61	15933
2026-01-17 22:19:46.78	143.71	7.69	-45.4	-58.0	3.8	1.49e+00	0	61	104	1620049920	61	16226
2026-01-17 22:19:47.79	143.82	7.63	-45.5	-58.1	3.8	1.49e+00	0	61	104	1620049920	61	16365
2026-01-17 22:19:48.80	143.92	7.57	-45.6	-58.1	3.8	1.49e+00	0	61	104	1620049920	61	16490
2026-01-17 22:19:49.81	144.03	7.51	-45.6	-58.2	3.8	1.49e+00	0	61	104	1620049920	61	16577
2026-01-17 22:19:50.82	144.13	7.44	-45.6	-58.1	3.8	1.49e+00	0	61	104	1620049920	61	16488
2026-01-17 22:19:51.84	144.24	7.38	-45.6	-58.1	3.8	1.49e+00	0	61	104	1620049920	61	16393
2026-01-17 22:19:52.85	144.34	7.32	-45.5	-57.9	3.8	1.49e+00	0	61	104	1620049920	61	16066
2026-01-17 22:19:53.86	144.44	7.26	-45.5	-57.9	3.8	1.49e+00	0	61	104	1620049920	61	15952
2026-01-17 22:19:54.87	144.54	7.19	-45.4	-57.8	3.8	1.49e+00	0	61	104	1620049920	61	15841
2026-01-17 22:19:55.88	144.65	7.13	-45.4	-57.7	3.8	1.49e+00	0	61	104	1620049920	61	15740
2026-01-17 22:19:56.89	144.75	7.07	-45.3	-57.6	3.8	1.49e+00	0	61	104	1620049920	61	15495
2026-01-17 22:19:57.90	144.85	7.01	-45.3	-57.6	3.8	1.49e+00	0	61	104	1620049920	61	15478
2026-01-17 22:19:58.91	144.95	6.95	-45.3	-57.6	3.8	1.49e+00	0	61	104	1620049920	61	15489
2026-01-17 22:19:59.92	145.05	6.88	-45.3	-57.6	3.8	1.49e+00	0	61	104	1620049920	61	15497
2026-01-17 22:20:00.93	145.15	6.82	-45.3	-57.6	3.8	1.49e+00	0	61	104	1620049920	61	15473
2026-01-17 22:20:01.94	145.25	6.76	-45.3	-57.6	3.8	1.49e+00	0	61	104	1620049920	61	15419
2026-01-17 22:20:02.95	145.35	6.70	-45.3	-57.6	3.8	1.49e+00	0	61	104	1620049920	61	15471
2026-01-17 22:20:03.96	145.45	6.64	-45.3	-57.6	3.8	1.49e+00	0	61	104	1620049920	61	15408
2026-01-17 22:20:04.97	145.55	6.58	-45.3	-57.6	3.8	1.49e+00	0	61	104	1620049920	61	15490
2026-01-17 22:20:05.99	145.64	6.52	-45.3	-57.6	3.8	1.49e+00	0	61	104	1620049920	61	15410
2026-01-17 22:20:06.99	145.74	6.45	-45.3	-57.6	3.8	1.49e+00	0	61	104	1620049920	61	15441
2026-01-17 22:20:08.00	145.84	6.39	-45.3	-57.6	3.8	1.49e+00	0	61	104	1620049920	61	15456
2026-01-17 22:20:09.01	145.94	6.33	-45.3	-57.6	3.8	1.49e+00	0	61	104	1620049920	61	15470
2026-01-17 22:20:10.03	146.03	6.27	-45.3	-57.6	3.8	1.49e+00	0	61	104	1620049920	61	15412
2026-01-17 22:20:11.03	146.13	6.21	-45.3	-57.6	3.8	1.49e+00	0	61	104	1620049920	61	15436
2026-01-17 22:20:12.05	146.22	6.15	-45.3	-57.6	3.8	1.49e+00	0	61	104	1620049920	61	15455
2026-01-17 22:20:13.06	146.32	6.09	-45.2	-57.6	3.8	1.49e+00	0	61	104	1620049920	61	15422
2026-01-17 22:20:14.07	146.41	6.03	-45.2	-57.5	3.8	1.49e+00	0	61	104	1620049920	61	15352
