passes_logs/2026/01/17/R2.0S_Moscow/R2.0S_Moscow__20260117_102745_SUOMI_NPP_rec.log

#Pass ID: 20260117_102745_SUOMI NPP
#Satellite: SUOMI NPP
#Configuration: NPP
#almurnet v.1.7.20251203
#Start time: 2026-01-17 10:27:46

#Version: 2.2.20231116
#Station: R2.0S_Moscow
#Location: 37.707566 lon 55.798166 lat
#TLE: 1 37849U 11061A   26016.23176763  .00000061  00000+0  49926-4 0  9990
#TLE: 2 37849  98.7812 318.2698 0002434  61.5135 298.6286 14.19525545736883

#Time	Az	El	Level	Level2	SNR	BER	BlckErr	Temp	State	Recorded	gain1	gain2
2026-01-17 10:27:46.42	174.32	2.05	-43.2	-57.7	3.8	1.49e+00	0	51	104	0	58	18543
2026-01-17 10:27:47.52	174.35	2.12	-43.2	-57.7	3.8	1.49e+00	0	51	104	0	58	18573
2026-01-17 10:27:48.39	174.37	2.18	-43.2	-57.7	3.8	1.49e+00	0	52	104	0	58	18528
2026-01-17 10:27:49.54	174.39	2.25	-43.2	-57.7	3.8	1.49e+00	0	52	104	0	58	18563
2026-01-17 10:27:50.41	174.41	2.31	-43.2	-57.7	3.8	1.49e+00	0	52	104	0	58	18576
2026-01-17 10:27:51.56	174.44	2.38	-43.2	-57.7	3.8	1.49e+00	0	52	104	0	58	18605
2026-01-17 10:27:52.43	174.46	2.44	-43.2	-57.7	3.8	1.49e+00	0	52	104	0	58	18592
2026-01-17 10:27:53.58	174.49	2.51	-43.2	-57.7	3.8	1.49e+00	0	52	104	0	58	18579
2026-01-17 10:27:54.45	174.51	2.57	-43.2	-57.6	3.8	1.49e+00	0	52	104	0	58	18507
2026-01-17 10:27:55.61	174.54	2.64	-43.2	-57.7	3.8	1.49e+00	0	52	104	0	58	18525
2026-01-17 10:27:56.47	174.56	2.70	-43.2	-57.7	3.8	1.49e+00	0	52	104	0	58	18609
2026-01-17 10:27:57.63	174.59	2.77	-43.2	-57.7	3.8	1.49e+00	0	52	104	0	58	18550
2026-01-17 10:27:58.50	174.61	2.83	-43.2	-57.7	3.8	1.49e+00	0	52	104	0	58	18594
2026-01-17 10:27:59.65	174.64	2.91	-43.2	-57.7	3.8	1.49e+00	0	52	104	0	58	18588
2026-01-17 10:28:00.52	174.66	2.96	-43.2	-57.6	3.8	1.49e+00	0	53	104	0	58	18509
2026-01-17 10:28:01.67	174.69	3.04	-43.2	-57.7	3.8	1.49e+00	0	53	104	0	58	18593
2026-01-17 10:28:02.54	174.71	3.10	-43.2	-57.7	3.8	1.49e+00	0	53	104	0	58	18544
2026-01-17 10:28:03.70	174.74	3.17	-43.2	-57.6	3.8	1.49e+00	0	53	104	0	58	18462
2026-01-17 10:28:04.56	174.76	3.23	-43.2	-57.7	3.8	1.49e+00	0	53	104	0	58	18535
2026-01-17 10:28:05.72	174.79	3.31	-43.2	-57.6	3.8	1.49e+00	0	53	104	0	58	18491
2026-01-17 10:28:06.58	174.81	3.36	-43.2	-57.7	3.8	1.49e+00	0	53	104	0	58	18594
2026-01-17 10:28:07.74	174.84	3.44	-43.2	-57.7	3.8	1.49e+00	0	53	104	0	58	18533
2026-01-17 10:28:08.61	174.87	3.50	-43.2	-57.6	3.8	1.49e+00	0	53	104	0	58	18474
2026-01-17 10:28:09.76	174.90	3.58	-43.2	-57.7	3.8	1.49e+00	0	53	104	0	58	18547
2026-01-17 10:28:10.63	174.92	3.63	-43.2	-57.6	3.8	1.49e+00	0	53	104	0	58	18495
2026-01-17 10:28:11.79	174.95	3.71	-43.2	-57.7	3.8	1.49e+00	0	53	104	0	58	18548
2026-01-17 10:28:12.65	174.97	3.77	-43.2	-57.7	3.8	1.49e+00	0	53	104	0	58	18579
2026-01-17 10:28:13.81	175.00	3.85	-43.2	-57.6	3.8	1.49e+00	0	53	104	0	58	18482
2026-01-17 10:28:14.67	175.02	3.91	-43.2	-57.6	3.8	1.49e+00	0	54	104	0	58	18447
2026-01-17 10:28:15.83	175.06	3.99	-43.2	-57.7	3.8	1.49e+00	0	54	104	0	58	18529
2026-01-17 10:28:16.69	175.08	4.04	-43.2	-57.6	3.8	1.49e+00	0	54	104	0	58	18503
2026-01-17 10:28:17.85	175.11	4.12	-43.2	-57.6	3.8	1.49e+00	0	54	104	0	58	18480
2026-01-17 10:28:18.72	175.13	4.18	-43.2	-57.6	3.8	1.49e+00	0	54	104	0	58	18480
2026-01-17 10:28:19.87	175.16	4.26	-43.2	-57.6	3.8	1.49e+00	0	54	104	0	58	18473
2026-01-17 10:28:20.74	175.19	4.32	-43.2	-57.6	3.8	1.49e+00	0	54	104	0	58	18505
2026-01-17 10:28:21.89	175.22	4.40	-43.2	-57.6	3.8	1.49e+00	0	54	104	0	58	18470
2026-01-17 10:28:22.76	175.24	4.46	-43.2	-57.6	3.8	1.49e+00	0	54	104	0	58	18464
2026-01-17 10:28:23.91	175.27	4.54	-43.2	-57.6	3.8	1.49e+00	0	54	104	0	58	18360
2026-01-17 10:28:24.78	175.30	4.60	-43.2	-57.5	3.8	1.49e+00	0	54	104	0	58	18288
2026-01-17 10:28:25.94	175.33	4.68	-43.2	-57.6	3.8	1.49e+00	0	54	104	0	58	18344
2026-01-17 10:28:26.80	175.35	4.74	-43.2	-57.6	3.8	1.49e+00	0	54	104	0	58	18340
2026-01-17 10:28:27.96	175.39	4.82	-43.2	-57.5	3.8	1.49e+00	0	54	104	0	58	18236
2026-01-17 10:28:28.83	175.41	4.89	-43.2	-57.5	3.8	1.49e+00	0	54	104	0	58	18170
2026-01-17 10:28:29.98	175.44	4.97	-43.2	-57.5	3.8	1.49e+00	0	54	104	0	58	18135
2026-01-17 10:28:30.85	175.47	5.03	-43.2	-57.4	3.8	1.49e+00	0	54	104	0	58	17994
2026-01-17 10:28:32.00	175.50	5.11	-43.2	-57.3	3.8	1.49e+00	0	54	104	0	58	17762
2026-01-17 10:28:32.87	175.53	5.17	-43.2	-57.2	3.8	1.49e+00	0	54	104	0	58	17599
2026-01-17 10:28:34.02	175.56	5.25	-43.2	-57.1	3.8	1.49e+00	0	55	104	0	58	17386
2026-01-17 10:28:34.89	175.58	5.31	-43.1	-56.9	3.8	1.49e+00	0	55	104	0	58	17026
2026-01-17 10:28:36.05	175.62	5.40	-43.1	-56.7	3.8	1.49e+00	0	55	104	0	58	16679
2026-01-17 10:28:36.91	175.64	5.46	-43.1	-56.8	3.8	1.49e+00	0	55	104	0	58	16749
2026-01-17 10:28:38.07	175.68	5.54	-43.1	-56.8	3.8	1.49e+00	0	55	104	0	58	16709
2026-01-17 10:28:38.94	175.70	5.61	-43.1	-56.7	3.8	1.49e+00	0	55	104	0	58	16570
2026-01-17 10:28:40.09	175.73	5.69	-43.1	-56.5	3.8	1.49e+00	0	55	104	0	58	16248
2026-01-17 10:28:40.96	175.76	5.75	-43.1	-56.3	3.8	1.49e+00	0	55	104	0	58	15898
2026-01-17 10:28:42.11	175.79	5.84	-43.1	-55.7	3.8	1.49e+00	0	55	104	0	58	14785
2026-01-17 10:28:42.98	175.82	5.90	-43.0	-55.3	3.9	1.48e+00	0	55	104	0	58	14142
2026-01-17 10:28:44.13	175.86	5.98	-43.0	-55.2	3.8	1.47e+00	0	55	104	0	58	14025
2026-01-17 10:28:45.00	175.88	6.05	-43.0	-55.2	3.8	1.47e+00	0	55	104	0	58	14017
2026-01-17 10:28:46.15	175.92	6.13	-43.0	-54.9	4.0	1.48e+00	0	55	104	0	58	13474
2026-01-17 10:28:47.02	175.94	6.20	-43.0	-54.9	3.9	1.47e+00	0	55	104	0	58	13458
2026-01-17 10:28:48.17	175.98	6.28	-43.0	-54.9	4.0	1.47e+00	0	55	104	0	58	13420
2026-01-17 10:28:49.04	176.00	6.35	-43.0	-55.0	3.8	1.47e+00	0	55	104	0	58	13711
2026-01-17 10:28:50.19	176.04	6.43	-43.0	-54.9	3.9	1.48e+00	0	55	104	0	58	13509
2026-01-17 10:28:51.06	176.07	6.50	-43.0	-55.1	4.0	1.48e+00	0	55	104	0	58	13789
2026-01-17 10:28:52.22	176.10	6.58	-43.0	-55.0	3.8	1.48e+00	0	55	104	0	58	13671
2026-01-17 10:28:53.08	176.13	6.65	-43.0	-54.7	4.1	1.48e+00	0	55	104	0	58	13181
2026-01-17 10:28:54.23	176.17	6.73	-43.0	-54.4	4.1	1.43e+00	0	55	0	0	57	13449
2026-01-17 10:28:55.10	176.19	6.80	-42.9	-53.6	4.3	1.40e+00	0	56	0	0	57	12374
2026-01-17 10:28:56.25	176.23	6.89	-42.8	-52.7	4.7	9.88e-01	0	56	0	2097152	57	11052
2026-01-17 10:28:57.12	176.26	6.95	-42.7	-52.3	4.8	8.45e-01	0	56	0	3145728	57	10647
2026-01-17 10:28:58.27	176.29	7.04	-42.6	-51.4	5.4	5.66e-01	0	56	0	5242880	57	9549
2026-01-17 10:28:59.14	176.32	7.11	-42.6	-51.2	5.5	4.81e-01	0	56	0	7340032	57	9287
2026-01-17 10:29:00.29	176.36	7.19	-42.4	-50.0	6.3	3.41e-01	0	56	0	9437184	56	8644
2026-01-17 10:29:01.16	176.39	7.26	-42.3	-49.6	6.7	2.35e-01	0	56	0	10485760	56	8235
2026-01-17 10:29:02.31	176.43	7.35	-42.2	-49.3	7.0	1.52e-01	0	56	0	12582912	56	7949
2026-01-17 10:29:03.18	176.45	7.42	-42.2	-49.2	7.1	1.62e-01	0	56	0	14680064	56	7863
2026-01-17 10:29:04.33	176.49	7.51	-42.1	-48.9	7.4	1.37e-01	0	56	0	16777216	56	7627
2026-01-17 10:29:05.20	176.52	7.57	-42.1	-48.7	7.6	1.17e-01	0	56	0	18874368	56	7439
2026-01-17 10:29:06.35	176.56	7.66	-42.0	-48.5	7.8	7.91e-02	0	56	0	20971520	56	7206
2026-01-17 10:29:07.22	176.59	7.73	-41.8	-48.1	8.0	7.19e-02	0	56	0	22020096	55	7319
2026-01-17 10:29:08.37	176.63	7.82	-41.7	-47.8	8.3	4.90e-02	0	56	0	24117248	55	7077
2026-01-17 10:29:09.24	176.66	7.89	-41.7	-47.7	8.4	4.64e-02	0	56	0	26214400	55	7011
2026-01-17 10:29:10.40	176.70	7.98	-41.6	-47.5	8.6	3.98e-02	0	56	0	28311552	55	6867
2026-01-17 10:29:11.26	176.73	8.05	-41.7	-47.6	8.6	3.76e-02	0	56	0	29360128	55	6880
2026-01-17 10:29:12.42	176.77	8.14	-42.5	-49.1	7.6	4.97e-01	0	56	0	32505856	57	7314
2026-01-17 10:29:13.28	176.79	8.21	-42.6	-51.7	5.0	1.00e+00	0	56	0	33554432	56	10435
2026-01-17 10:29:14.44	176.84	8.30	-42.3	-48.8	7.6	2.20e-01	0	56	0	35651584	55	7962
2026-01-17 10:29:15.30	176.87	8.37	-42.4	-48.4	8.3	1.40e-01	0	56	0	36700160	56	7204
2026-01-17 10:29:16.46	176.91	8.46	-42.5	-51.6	4.9	1.24e+00	0	56	104	37748736	55	10930
2026-01-17 10:29:17.32	176.94	8.53	-41.8	-47.4	9.1	7.08e-02	0	56	0	38797312	55	6737
2026-01-17 10:29:18.47	176.98	8.63	-41.7	-47.1	9.4	2.01e-02	0	56	0	40894464	55	6507
2026-01-17 10:29:19.34	177.01	8.70	-41.7	-46.9	9.7	1.38e-02	0	56	0	41943040	55	6369
2026-01-17 10:29:20.49	177.05	8.79	-41.7	-46.9	9.7	1.22e-02	0	57	0	45088768	55	6371
2026-01-17 10:29:21.36	177.08	8.86	-41.7	-46.9	9.8	1.18e-02	0	56	0	46137344	55	6361
2026-01-17 10:29:22.51	177.12	8.96	-41.7	-46.8	9.9	1.07e-02	0	57	0	48234496	55	6288
2026-01-17 10:29:23.38	177.15	9.03	-41.7	-46.7	10.0	8.67e-03	0	57	0	50331648	55	6274
2026-01-17 10:29:24.53	177.20	9.12	-41.8	-46.7	10.0	7.05e-03	0	57	0	52428800	55	6261
2026-01-17 10:29:25.40	177.23	9.19	-41.9	-47.0	9.8	8.11e-03	0	57	0	53477376	55	6428
2026-01-17 10:29:26.55	177.27	9.29	-41.8	-46.7	10.2	6.68e-03	0	57	0	55574528	55	6245
2026-01-17 10:29:27.42	177.30	9.36	-41.8	-46.5	10.3	7.20e-03	0	57	0	57671680	55	6128
2026-01-17 10:29:28.57	177.34	9.46	-41.9	-46.7	10.3	5.46e-03	0	57	0	59768832	55	6246
2026-01-17 10:29:29.44	177.38	9.53	-41.9	-46.8	10.1	4.77e-03	0	57	0	61865984	55	6323
2026-01-17 10:29:30.59	177.42	9.63	-41.9	-46.7	10.3	4.85e-03	0	57	0	63963136	55	6248
2026-01-17 10:29:31.45	177.45	9.70	-41.8	-46.6	10.4	4.60e-03	0	57	0	65011712	55	6180
2026-01-17 10:29:32.61	177.50	9.80	-41.8	-46.4	10.7	3.86e-03	0	57	0	67108864	55	6053
2026-01-17 10:29:33.47	177.53	9.87	-41.9	-46.7	10.4	3.08e-03	0	57	0	69206016	55	6246
2026-01-17 10:29:34.63	177.58	9.97	-41.9	-46.6	10.5	3.43e-03	0	57	0	71303168	55	6160
2026-01-17 10:29:35.49	177.61	10.04	-41.9	-46.5	10.6	3.80e-03	0	57	0	72351744	55	6124
2026-01-17 10:29:36.65	177.65	10.14	-41.9	-46.6	10.5	4.10e-03	0	57	0	74448896	55	6167
2026-01-17 10:29:37.51	177.69	10.22	-41.9	-46.5	10.7	3.37e-03	0	57	0	76546048	55	6098
2026-01-17 10:29:38.67	177.73	10.32	-41.9	-46.4	10.8	2.87e-03	0	57	0	78643200	55	6041
2026-01-17 10:29:39.53	177.77	10.39	-41.8	-46.2	11.1	1.79e-03	0	57	0	80740352	55	5857
2026-01-17 10:29:40.69	177.81	10.49	-41.8	-46.2	11.0	1.72e-03	0	57	0	82837504	55	5907
2026-01-17 10:29:41.55	177.85	10.57	-41.9	-46.3	11.0	1.54e-03	0	57	0	83886080	55	5946
2026-01-17 10:29:42.70	177.89	10.67	-41.8	-46.2	11.1	1.36e-03	0	57	0	85983232	55	5885
2026-01-17 10:29:43.57	177.93	10.74	-41.8	-46.0	11.3	1.40e-03	0	57	0	88080384	55	5775
2026-01-17 10:29:44.72	177.98	10.85	-41.8	-46.1	11.2	1.29e-03	0	57	0	90177536	55	5810
2026-01-17 10:29:45.59	178.01	10.92	-41.8	-46.0	11.3	9.63e-04	0	57	0	91226112	55	5787
2026-01-17 10:29:46.74	178.06	11.03	-41.7	-45.9	11.5	9.09e-04	0	57	0	93323264	55	5683
2026-01-17 10:29:47.61	178.10	11.10	-41.7	-45.9	11.4	9.00e-04	0	57	0	95420416	55	5699
2026-01-17 10:29:48.76	178.14	11.21	-41.7	-45.9	11.5	8.18e-04	0	57	0	97517568	55	5673
2026-01-17 10:29:49.62	178.18	11.28	-41.7	-45.9	11.5	8.03e-04	0	57	0	99614720	55	5697
2026-01-17 10:29:50.78	178.23	11.39	-41.8	-46.0	11.4	1.04e-03	0	57	0	101711872	55	5735
2026-01-17 10:29:51.64	178.26	11.46	-41.7	-45.8	11.6	9.80e-04	0	57	0	102760448	55	5638
2026-01-17 10:29:52.80	178.31	11.57	-41.7	-45.8	11.6	5.72e-04	0	57	0	104857600	55	5614
2026-01-17 10:29:53.66	178.35	11.65	-41.7	-45.8	11.6	7.24e-04	0	57	0	106954752	55	5613
2026-01-17 10:29:54.82	178.40	11.75	-41.6	-45.6	11.8	5.77e-04	0	58	0	109051904	55	5496
2026-01-17 10:29:55.68	178.44	11.83	-41.7	-45.8	11.6	5.83e-04	0	57	0	110100480	55	5627
2026-01-17 10:29:56.83	178.49	11.94	-41.7	-45.8	11.7	4.62e-04	0	58	0	113246208	55	5618
2026-01-17 10:29:57.70	178.53	12.02	-41.6	-45.6	11.8	4.81e-04	0	58	0	114294784	55	5515
2026-01-17 10:29:58.85	178.58	12.13	-41.6	-45.6	11.8	4.95e-04	0	58	0	116391936	55	5496
2026-01-17 10:29:59.72	178.62	12.21	-41.7	-45.7	11.7	4.29e-04	0	58	0	118489088	55	5563
2026-01-17 10:30:00.87	178.67	12.31	-41.6	-45.5	11.9	4.43e-04	0	58	0	120586240	55	5455
2026-01-17 10:30:01.74	178.71	12.40	-41.7	-45.7	11.8	4.13e-04	0	57	0	121634816	55	5532
2026-01-17 10:30:02.89	178.76	12.50	-41.6	-45.6	11.9	5.01e-04	0	58	0	123731968	55	5498
2026-01-17 10:30:03.76	178.80	12.59	-41.7	-45.7	11.8	3.47e-04	0	58	0	125829120	55	5539
2026-01-17 10:30:04.91	178.85	12.70	-41.6	-45.6	11.9	4.46e-04	0	58	0	127926272	55	5475
2026-01-17 10:30:05.77	178.89	12.78	-41.6	-45.5	12.0	3.24e-04	0	58	0	130023424	55	5416
2026-01-17 10:30:06.93	178.94	12.89	-41.6	-45.5	12.0	3.04e-04	0	58	0	132120576	55	5454
2026-01-17 10:30:07.80	178.98	12.97	-41.6	-45.5	12.0	3.27e-04	0	58	0	133169152	55	5444
2026-01-17 10:30:08.95	179.04	13.08	-41.6	-45.5	12.0	2.82e-04	0	58	0	135266304	55	5446
2026-01-17 10:30:09.81	179.08	13.17	-41.5	-45.3	12.2	2.57e-04	0	58	0	137363456	55	5330
2026-01-17 10:30:10.97	179.13	13.28	-41.6	-45.4	12.2	2.31e-04	0	58	0	139460608	55	5357
2026-01-17 10:30:11.83	179.18	13.36	-41.6	-45.4	12.2	2.22e-04	0	58	0	140509184	55	5365
2026-01-17 10:30:12.99	179.23	13.48	-41.6	-45.5	12.0	2.57e-04	0	58	0	142606336	55	5464
2026-01-17 10:30:13.85	179.27	13.56	-41.6	-45.5	12.1	2.84e-04	0	58	0	144703488	55	5434
2026-01-17 10:30:15.01	179.33	13.67	-41.6	-45.5	12.1	2.26e-04	0	58	0	146800640	55	5432
2026-01-17 10:30:15.87	179.37	13.76	-41.6	-45.5	12.1	3.03e-04	0	58	0	148897792	55	5456
2026-01-17 10:30:17.03	179.43	13.87	-41.7	-45.6	12.0	2.80e-04	0	58	0	150994944	55	5481
2026-01-17 10:30:17.89	179.47	13.96	-41.6	-45.5	12.1	2.94e-04	0	58	0	152043520	55	5452
2026-01-17 10:30:19.04	179.53	14.08	-41.7	-45.7	11.9	3.83e-04	0	58	0	154140672	55	5546
2026-01-17 10:30:19.91	179.57	14.16	-41.7	-45.6	12.0	3.58e-04	0	58	0	156237824	55	5520
2026-01-17 10:30:21.06	179.63	14.28	-41.7	-45.7	11.9	4.07e-04	0	58	0	158334976	55	5545
2026-01-17 10:30:21.93	179.68	14.37	-41.8	-45.9	11.8	4.52e-04	0	58	0	159383552	55	5664
2026-01-17 10:30:23.08	179.73	14.48	-41.8	-45.7	11.9	4.39e-04	0	58	0	161480704	55	5580
2026-01-17 10:30:23.95	179.78	14.57	-41.8	-45.8	11.8	4.43e-04	0	58	0	163577856	55	5639
2026-01-17 10:30:25.10	179.84	14.69	-41.8	-45.9	11.7	4.56e-04	0	58	0	165675008	55	5686
2026-01-17 10:30:25.96	179.88	14.78	-41.8	-45.7	11.9	4.86e-04	0	58	0	167772160	55	5578
2026-01-17 10:30:27.12	179.94	14.90	-41.8	-45.9	11.7	5.90e-04	0	58	0	169869312	55	5680
2026-01-17 10:30:27.98	179.99	14.99	-41.8	-45.8	11.9	5.58e-04	0	58	0	170917888	55	5602
2026-01-17 10:30:29.14	180.05	15.11	-41.9	-45.9	11.7	4.81e-04	0	58	0	173015040	55	5704
2026-01-17 10:30:30.00	180.10	15.20	-41.8	-45.8	11.8	4.97e-04	0	58	0	175112192	55	5614
2026-01-17 10:30:31.16	180.16	15.32	-41.8	-45.8	11.9	4.05e-04	0	58	0	177209344	55	5618
2026-01-17 10:30:32.02	180.21	15.41	-41.9	-46.1	11.6	4.68e-04	0	58	0	178257920	55	5800
2026-01-17 10:30:33.17	180.27	15.53	-41.9	-45.9	11.7	4.49e-04	0	58	0	181403648	55	5714
2026-01-17 10:30:34.04	180.32	15.63	-41.9	-46.0	11.7	6.23e-04	0	58	0	182452224	55	5727
2026-01-17 10:30:35.20	180.38	15.75	-42.0	-46.2	11.5	6.45e-04	0	58	0	184549376	55	5884
2026-01-17 10:30:36.06	180.43	15.84	-41.9	-46.0	11.7	6.29e-04	0	58	0	186646528	55	5731
2026-01-17 10:30:37.21	180.50	15.97	-41.9	-46.1	11.6	5.12e-04	0	58	0	188743680	55	5795
2026-01-17 10:30:38.08	180.54	16.06	-42.0	-46.1	11.6	6.51e-04	0	58	0	189792256	55	5839
2026-01-17 10:30:39.23	180.61	16.19	-42.0	-46.1	11.6	9.34e-04	0	58	0	191889408	55	5852
2026-01-17 10:30:40.10	180.66	16.28	-42.1	-46.4	11.3	9.71e-04	0	58	0	193986560	55	5993
2026-01-17 10:30:41.25	180.73	16.41	-42.1	-46.4	11.3	1.16e-03	0	58	0	196083712	55	6046
2026-01-17 10:30:42.11	180.78	16.50	-42.1	-46.4	11.3	1.06e-03	0	58	0	197132288	55	6039
2026-01-17 10:30:43.27	180.85	16.63	-42.1	-46.4	11.3	1.08e-03	0	58	0	200278016	55	6001
2026-01-17 10:30:44.13	180.90	16.73	-42.1	-46.4	11.3	1.35e-03	0	59	0	201326592	55	6008
2026-01-17 10:30:45.28	180.96	16.85	-42.2	-46.5	11.2	1.61e-03	0	58	0	203423744	55	6065
2026-01-17 10:30:46.15	181.02	16.95	-42.2	-46.6	11.1	1.10e-03	0	58	0	205520896	55	6173
2026-01-17 10:30:47.30	181.09	17.08	-42.2	-46.5	11.2	1.41e-03	0	58	0	207618048	55	6130
2026-01-17 10:30:48.17	181.14	17.18	-42.2	-46.4	11.3	1.38e-03	0	58	0	208666624	55	6047
2026-01-17 10:30:49.32	181.21	17.31	-42.2	-46.6	11.1	1.54e-03	0	59	0	210763776	55	6167
2026-01-17 10:30:50.19	181.26	17.41	-42.1	-46.4	11.2	1.13e-03	0	58	0	212860928	55	6018
2026-01-17 10:30:51.34	181.33	17.54	-42.2	-46.6	11.2	8.87e-04	0	59	0	214958080	55	6140
2026-01-17 10:30:52.21	181.39	17.64	-42.2	-46.4	11.3	1.35e-03	0	59	0	217055232	55	6059
2026-01-17 10:30:53.36	181.46	17.77	-42.2	-46.4	11.3	1.48e-03	0	58	0	219152384	55	6058
2026-01-17 10:30:54.23	181.52	17.88	-42.2	-46.5	11.2	1.29e-03	0	59	0	220200960	55	6123
2026-01-17 10:30:55.38	181.59	18.01	-42.3	-46.8	11.0	1.33e-03	0	59	0	222298112	55	6279
2026-01-17 10:30:56.25	181.65	18.11	-42.2	-46.4	11.3	1.75e-03	0	59	0	224395264	55	6055
2026-01-17 10:30:57.40	181.72	18.25	-42.3	-46.6	11.2	1.37e-03	0	59	0	226492416	55	6176
2026-01-17 10:30:58.27	181.78	18.35	-42.3	-46.7	11.0	1.66e-03	0	59	0	227540992	55	6261
2026-01-17 10:30:59.42	181.85	18.49	-42.3	-46.7	11.0	1.56e-03	0	59	0	229638144	55	6243
2026-01-17 10:31:00.29	181.91	18.59	-42.3	-46.7	11.1	1.50e-03	0	59	0	231735296	55	6205
2026-01-17 10:31:01.44	181.99	18.73	-42.4	-46.9	10.9	2.02e-03	0	59	0	233832448	55	6358
2026-01-17 10:31:02.31	182.05	18.83	-42.3	-46.6	11.1	1.61e-03	0	59	0	235929600	55	6201
2026-01-17 10:31:03.46	182.12	18.97	-42.3	-46.7	11.0	1.81e-03	0	59	0	238026752	55	6268
2026-01-17 10:31:04.33	182.18	19.08	-42.4	-46.8	10.9	2.03e-03	0	59	0	239075328	55	6333
2026-01-17 10:31:05.48	182.26	19.22	-42.3	-46.7	11.1	1.62e-03	0	59	0	241172480	55	6233
2026-01-17 10:31:06.35	182.32	19.33	-42.3	-46.8	11.0	1.96e-03	0	59	0	243269632	55	6296
2026-01-17 10:31:07.50	182.40	19.47	-42.3	-46.6	11.2	1.79e-03	0	59	0	245366784	55	6182
2026-01-17 10:31:08.37	182.47	19.58	-42.3	-46.6	11.2	1.65e-03	0	59	0	246415360	55	6179
2026-01-17 10:31:09.52	182.55	19.72	-42.4	-46.8	11.0	1.34e-03	0	59	0	249561088	55	6295
2026-01-17 10:31:10.39	182.61	19.83	-42.3	-46.6	11.2	1.36e-03	0	59	0	250609664	55	6136
2026-01-17 10:31:11.55	182.69	19.97	-42.1	-46.2	11.6	8.34e-04	0	59	0	252706816	55	5883
2026-01-17 10:31:12.41	182.76	20.08	-42.2	-46.5	11.3	1.14e-03	0	59	0	254803968	55	6091
2026-01-17 10:31:13.57	182.84	20.23	-42.2	-46.4	11.4	8.64e-04	0	59	0	256901120	55	6033
2026-01-17 10:31:14.43	182.90	20.34	-42.3	-46.5	11.3	8.35e-04	0	59	0	257949696	55	6129
2026-01-17 10:31:15.59	182.99	20.49	-42.2	-46.4	11.4	1.07e-03	0	59	0	260046848	55	6048
2026-01-17 10:31:16.45	183.06	20.60	-42.3	-46.7	11.1	1.44e-03	0	59	0	262144000	55	6212
2026-01-17 10:31:17.60	183.14	20.75	-42.3	-46.7	11.1	1.59e-03	0	59	0	264241152	55	6255
2026-01-17 10:31:18.47	183.21	20.86	-42.4	-46.8	10.9	1.60e-03	0	59	0	266338304	55	6329
2026-01-17 10:31:19.62	183.30	21.01	-42.4	-46.9	10.9	2.19e-03	0	59	0	268435456	55	6397
2026-01-17 10:31:20.49	183.37	21.12	-42.5	-47.1	10.7	2.35e-03	0	59	0	269484032	55	6530
2026-01-17 10:31:21.64	183.46	21.28	-42.6	-47.3	10.5	3.06e-03	0	59	0	271581184	55	6672
2026-01-17 10:31:22.50	183.52	21.39	-42.5	-47.1	10.8	3.02e-03	0	59	0	273678336	55	6504
2026-01-17 10:31:23.66	183.62	21.54	-42.6	-47.2	10.6	3.39e-03	0	59	0	275775488	55	6635
2026-01-17 10:31:24.52	183.68	21.66	-42.5	-47.2	10.6	3.11e-03	0	59	0	276824064	55	6599
2026-01-17 10:31:25.68	183.78	21.82	-42.4	-46.8	11.0	2.12e-03	0	59	0	278921216	55	6319
2026-01-17 10:31:26.54	183.85	21.93	-42.4	-46.8	11.1	1.86e-03	0	59	0	281018368	55	6301
2026-01-17 10:31:27.69	183.94	22.09	-42.4	-46.8	11.0	1.54e-03	0	59	0	283115520	55	6282
2026-01-17 10:31:28.56	184.02	22.21	-42.3	-46.5	11.3	9.21e-04	0	59	0	285212672	55	6122
2026-01-17 10:31:29.71	184.11	22.36	-42.2	-46.4	11.5	9.14e-04	0	59	0	287309824	55	5994
2026-01-17 10:31:30.58	184.19	22.48	-42.0	-46.0	11.8	8.25e-04	0	59	0	288358400	55	5774
2026-01-17 10:31:31.73	184.28	22.64	-42.1	-46.1	11.8	4.00e-04	0	59	0	290455552	55	5801
2026-01-17 10:31:32.60	184.36	22.77	-41.9	-45.8	12.1	2.45e-04	0	59	0	292552704	55	5629
2026-01-17 10:31:33.75	184.46	22.93	-41.8	-45.4	12.5	2.09e-04	0	59	0	294649856	55	5387
2026-01-17 10:31:34.62	184.53	23.05	-41.8	-45.5	12.4	1.04e-04	0	59	0	295698432	55	5437
2026-01-17 10:31:35.77	184.64	23.21	-41.5	-45.0	12.9	9.00e-05	0	59	0	297795584	55	5124
2026-01-17 10:31:36.63	184.71	23.33	-41.5	-44.9	13.0	4.04e-05	0	59	0	299892736	54	5393
2026-01-17 10:31:37.79	184.82	23.50	-41.4	-44.8	13.2	1.14e-05	0	59	0	301989888	54	5301
2026-01-17 10:31:38.65	184.89	23.62	-41.3	-44.6	13.4	2.82e-05	0	59	0	304087040	54	5169
2026-01-17 10:31:39.81	185.00	23.79	-41.3	-44.6	13.4	1.67e-05	0	59	0	306184192	54	5195
2026-01-17 10:31:40.67	185.08	23.92	-41.2	-44.4	13.5	1.98e-05	0	59	0	307232768	54	5099
2026-01-17 10:31:41.83	185.19	24.08	-41.2	-44.4	13.6	9.90e-06	0	59	0	309329920	54	5064
2026-01-17 10:31:42.69	185.27	24.21	-41.2	-44.3	13.7	4.50e-06	0	59	0	311427072	54	5022
2026-01-17 10:31:43.84	185.38	24.38	-41.2	-44.4	13.6	4.50e-06	0	59	0	313524224	54	5062
2026-01-17 10:31:44.71	185.46	24.51	-41.2	-44.4	13.5	1.44e-05	0	59	0	314572800	54	5077
2026-01-17 10:31:45.86	185.57	24.68	-41.2	-44.4	13.6	3.80e-06	0	59	0	317718528	54	5090
2026-01-17 10:31:46.73	185.66	24.81	-41.3	-44.5	13.5	4.50e-06	0	59	0	318767104	54	5142
2026-01-17 10:31:47.88	185.77	24.98	-41.2	-44.4	13.6	6.80e-06	0	59	0	320864256	54	5055
2026-01-17 10:31:48.75	185.86	25.12	-41.2	-44.4	13.6	9.90e-06	0	59	0	322961408	54	5076
2026-01-17 10:31:49.90	185.97	25.29	-41.2	-44.4	13.6	9.10e-06	0	59	0	325058560	54	5043
2026-01-17 10:31:50.77	186.06	25.42	-41.2	-44.3	13.7	7.00e-07	0	59	0	326107136	54	5027
2026-01-17 10:31:51.92	186.18	25.60	-41.1	-44.3	13.8	5.30e-06	0	59	0	328204288	54	4988
2026-01-17 10:31:52.79	186.27	25.73	-41.2	-44.4	13.7	8.30e-06	0	59	0	330301440	54	5053
2026-01-17 10:31:53.94	186.38	25.91	-41.3	-44.5	13.5	6.10e-06	0	59	0	332398592	54	5151
2026-01-17 10:31:54.80	186.48	26.05	-41.2	-44.4	13.7	5.30e-06	0	59	0	333447168	54	5050
2026-01-17 10:31:55.96	186.60	26.23	-41.4	-44.8	13.2	1.98e-05	0	59	0	336592896	54	5294
2026-01-17 10:31:56.82	186.69	26.36	-41.5	-44.9	13.1	1.90e-05	0	59	0	337641472	54	5351
2026-01-17 10:31:57.98	186.82	26.55	-41.5	-44.9	13.1	2.36e-05	0	59	0	339738624	54	5367
2026-01-17 10:31:58.84	186.91	26.69	-41.6	-45.0	13.0	3.89e-05	0	59	0	341835776	54	5455
2026-01-17 10:32:00.00	187.04	26.87	-41.5	-44.9	13.1	3.81e-05	0	59	0	343932928	54	5400
2026-01-17 10:32:00.86	187.13	27.01	-41.6	-45.1	12.9	3.66e-05	0	59	0	344981504	54	5487
2026-01-17 10:32:02.01	187.26	27.20	-41.6	-45.1	12.9	3.35e-05	0	59	0	347078656	54	5472
2026-01-17 10:32:02.88	187.36	27.34	-41.6	-45.1	12.9	4.34e-05	0	59	0	349175808	54	5495
2026-01-17 10:32:04.03	187.49	27.53	-41.6	-45.0	13.1	2.59e-05	0	59	0	351272960	54	5446
2026-01-17 10:32:04.90	187.59	27.67	-41.5	-44.9	13.2	3.81e-05	0	59	0	353370112	54	5344
2026-01-17 10:32:06.05	187.73	27.86	-41.6	-45.0	13.1	4.65e-05	0	60	0	355467264	54	5432
2026-01-17 10:32:06.91	187.83	28.00	-41.6	-45.1	13.0	3.89e-05	0	59	0	356515840	54	5493
2026-01-17 10:32:08.07	187.97	28.20	-41.7	-45.2	12.8	4.27e-05	0	60	0	358612992	54	5556
2026-01-17 10:32:08.93	188.07	28.34	-41.6	-45.1	13.0	4.34e-05	0	59	0	360710144	54	5481
2026-01-17 10:32:10.09	188.21	28.54	-41.7	-45.2	12.9	6.02e-05	0	59	0	362807296	54	5561
2026-01-17 10:32:10.95	188.32	28.68	-41.8	-45.5	12.5	9.23e-05	0	59	0	363855872	54	5738
2026-01-17 10:32:12.10	188.46	28.88	-41.8	-45.4	12.5	8.85e-05	0	60	0	365953024	54	5721
2026-01-17 10:32:12.97	188.57	29.03	-41.9	-45.6	12.5	7.78e-05	0	59	0	368050176	54	5806
2026-01-17 10:32:14.13	188.72	29.23	-42.1	-45.9	12.2	1.11e-04	0	59	0	370147328	54	6041
2026-01-17 10:32:14.99	188.83	29.38	-42.1	-46.0	12.1	3.00e-04	0	60	0	372244480	54	6066
2026-01-17 10:32:16.15	188.98	29.58	-42.0	-45.8	12.2	3.10e-04	0	59	0	374341632	54	5957
2026-01-17 10:32:17.02	189.09	29.73	-42.2	-46.1	11.9	2.94e-04	0	60	0	375390208	54	6200
2026-01-17 10:32:18.17	189.25	29.94	-42.1	-46.1	11.9	6.97e-04	0	60	0	377487360	55	5812
2026-01-17 10:32:19.04	189.36	30.09	-42.3	-46.4	11.7	4.00e-04	0	59	0	379584512	55	6011
2026-01-17 10:32:20.19	189.52	30.30	-42.4	-46.6	11.4	1.04e-03	0	60	0	381681664	55	6155
2026-01-17 10:32:21.06	189.64	30.45	-42.4	-46.6	11.5	1.18e-03	0	60	0	382730240	55	6141
2026-01-17 10:32:22.21	189.80	30.66	-42.5	-46.9	11.1	1.28e-03	0	60	0	384827392	55	6396
2026-01-17 10:32:23.08	189.92	30.82	-42.7	-47.2	10.8	1.64e-03	0	60	0	386924544	55	6599
2026-01-17 10:32:24.23	190.08	31.03	-43.2	-48.3	9.9	4.00e-03	0	60	0	389021696	56	7041
2026-01-17 10:32:25.10	190.21	31.18	-43.1	-48.0	10.2	8.32e-03	0	60	0	391118848	56	6867
2026-01-17 10:32:26.25	190.37	31.40	-43.4	-48.8	9.3	1.48e-02	0	60	0	393216000	57	7094
2026-01-17 10:32:27.12	190.50	31.56	-43.6	-49.6	8.5	3.31e-02	0	60	0	394264576	57	7800
2026-01-17 10:32:28.27	190.67	31.77	-43.8	-50.1	8.1	3.86e-02	0	59	0	396361728	58	7724
2026-01-17 10:32:29.14	190.80	31.93	-43.9	-50.5	7.7	6.95e-02	0	60	0	398458880	58	8104
2026-01-17 10:32:30.29	190.97	32.15	-43.8	-50.2	7.9	8.11e-02	0	59	0	400556032	58	7822
2026-01-17 10:32:31.15	191.11	32.31	-43.7	-49.7	8.4	5.47e-02	0	60	0	401604608	58	7407
2026-01-17 10:32:32.31	191.29	32.53	-43.7	-49.8	8.3	6.01e-02	0	60	0	404750336	58	7480
2026-01-17 10:32:33.17	191.42	32.70	-43.7	-49.7	8.4	4.35e-02	0	60	0	405798912	58	7409
2026-01-17 10:32:34.33	191.60	32.92	-43.6	-49.2	8.8	3.43e-02	0	60	0	407896064	58	7034
2026-01-17 10:32:35.20	191.74	33.09	-43.6	-49.2	8.9	2.21e-02	0	60	0	409993216	58	7010
2026-01-17 10:32:36.35	191.93	33.31	-43.6	-49.2	8.9	2.68e-02	0	60	0	412090368	58	6986
2026-01-17 10:32:37.22	192.07	33.48	-43.3	-48.3	9.8	1.33e-02	0	60	0	413138944	58	6345
2026-01-17 10:32:38.37	192.26	33.70	-43.3	-48.5	9.7	8.56e-03	0	60	0	415236096	58	6456
2026-01-17 10:32:39.24	192.41	33.88	-43.2	-48.2	9.9	9.78e-03	0	60	0	417333248	58	6243
2026-01-17 10:32:40.39	192.61	34.10	-43.0	-47.7	10.5	5.84e-03	0	60	0	419430400	58	5911
2026-01-17 10:32:41.26	192.76	34.28	-43.1	-47.9	10.3	4.12e-03	0	60	0	421527552	58	6017
2026-01-17 10:32:42.41	192.96	34.51	-43.0	-47.6	10.6	2.57e-03	0	60	0	423624704	57	6166
2026-01-17 10:32:43.28	193.11	34.68	-42.8	-47.3	10.9	3.36e-03	0	60	0	424673280	57	5968
2026-01-17 10:32:44.44	193.32	34.92	-43.0	-47.8	10.4	4.04e-03	0	60	0	426770432	57	6283
2026-01-17 10:32:45.30	193.47	35.09	-43.0	-47.7	10.5	3.66e-03	0	60	0	428867584	57	6252
2026-01-17 10:32:46.45	193.68	35.32	-43.1	-48.0	10.2	4.16e-03	0	60	0	430964736	57	6485
2026-01-17 10:32:47.32	193.84	35.50	-43.2	-48.2	10.0	6.52e-03	0	60	0	432013312	57	6597
2026-01-17 10:32:48.47	194.06	35.74	-43.4	-48.6	9.6	1.12e-02	0	60	0	434110464	57	6918
2026-01-17 10:32:49.34	194.22	35.92	-43.4	-48.7	9.5	1.24e-02	0	60	0	436207616	57	6993
2026-01-17 10:32:50.49	194.45	36.16	-43.5	-49.0	9.3	1.84e-02	0	60	0	438304768	57	7216
2026-01-17 10:32:51.35	194.61	36.34	-43.2	-48.3	9.9	1.01e-02	0	60	0	440401920	57	6678
2026-01-17 10:32:52.51	194.84	36.58	-43.3	-48.4	9.7	1.14e-02	0	60	0	442499072	57	6777
2026-01-17 10:32:53.37	195.01	36.76	-43.0	-47.7	10.5	6.83e-03	0	60	0	443547648	57	6235
2026-01-17 10:32:54.53	195.25	37.01	-43.1	-47.9	10.4	5.84e-03	0	60	0	445644800	57	6361
2026-01-17 10:32:55.39	195.42	37.19	-43.3	-48.3	9.9	8.77e-03	0	60	0	447741952	57	6710
2026-01-17 10:32:56.55	195.67	37.44	-43.3	-48.4	9.7	1.23e-02	0	60	0	449839104	57	6800
2026-01-17 10:32:57.42	195.85	37.63	-43.3	-48.4	9.8	8.10e-03	0	60	0	450887680	57	6794
2026-01-17 10:32:58.57	196.09	37.88	-43.4	-48.9	9.4	1.53e-02	0	60	0	454033408	57	7142
2026-01-17 10:32:59.44	196.28	38.07	-43.4	-48.6	9.5	1.95e-02	0	60	0	455081984	57	6943
2026-01-17 10:33:00.59	196.53	38.32	-43.3	-48.5	9.6	1.36e-02	0	60	0	457179136	57	6872
2026-01-17 10:33:01.46	196.73	38.51	-43.1	-47.9	10.2	7.91e-03	0	60	0	459276288	57	6406
2026-01-17 10:33:02.61	196.98	38.76	-43.1	-47.8	10.4	4.75e-03	0	60	0	461373440	57	6325
2026-01-17 10:33:03.47	197.18	38.95	-43.2	-48.1	10.1	4.33e-03	0	60	0	462422016	57	6550
2026-01-17 10:33:04.63	197.45	39.21	-43.3	-48.3	9.9	6.61e-03	0	60	0	464519168	57	6704
2026-01-17 10:33:05.49	197.65	39.40	-43.4	-48.6	9.5	1.17e-02	0	60	0	466616320	57	6898
2026-01-17 10:33:06.64	197.92	39.65	-43.3	-48.5	9.7	1.52e-02	0	60	0	468713472	57	6837
2026-01-17 10:33:07.51	198.13	39.85	-43.5	-49.0	9.2	1.80e-02	0	60	0	469762048	57	7234
2026-01-17 10:33:08.66	198.41	40.11	-43.3	-48.3	10.0	1.04e-02	0	60	0	472907776	57	6699
2026-01-17 10:33:09.53	198.63	40.31	-43.4	-48.7	9.6	9.84e-03	0	60	0	473956352	57	6996
2026-01-17 10:33:10.68	198.92	40.57	-42.9	-47.4	10.9	4.92e-03	0	60	0	476053504	57	5996
2026-01-17 10:33:11.55	199.14	40.76	-42.8	-47.1	11.2	1.59e-03	0	60	0	478150656	57	5814
2026-01-17 10:33:12.70	199.43	41.03	-42.6	-46.7	11.6	7.63e-04	0	60	0	480247808	57	5570
2026-01-17 10:33:13.56	199.66	41.22	-42.4	-46.2	12.1	6.00e-04	0	60	0	481296384	56	5563
2026-01-17 10:33:14.72	199.97	41.49	-42.7	-46.8	11.5	5.32e-04	0	60	0	483393536	56	5972
2026-01-17 10:33:15.58	200.20	41.69	-42.7	-46.9	11.4	9.64e-04	0	60	0	485490688	56	6032
2026-01-17 10:33:16.74	200.51	41.96	-43.0	-47.5	10.7	1.91e-03	0	60	0	487587840	56	6453
2026-01-17 10:33:17.60	200.75	42.16	-43.1	-47.8	10.6	5.00e-03	0	60	0	489684992	56	6654
2026-01-17 10:33:18.76	201.08	42.43	-43.2	-48.0	10.3	7.45e-03	0	60	0	491782144	57	6488
2026-01-17 10:33:19.62	201.32	42.63	-43.3	-48.3	10.0	5.86e-03	0	60	0	492830720	57	6664
2026-01-17 10:33:20.77	201.65	42.90	-43.0	-47.7	10.7	6.24e-03	0	60	0	494927872	57	6223
2026-01-17 10:33:21.64	201.91	43.11	-42.8	-47.1	11.2	3.00e-03	0	60	0	497025024	57	5821
2026-01-17 10:33:22.79	202.25	43.38	-42.8	-47.1	11.2	9.80e-04	0	60	0	499122176	57	5820
2026-01-17 10:33:23.66	202.51	43.58	-42.7	-46.8	11.6	1.50e-03	0	60	0	500170752	57	5613
2026-01-17 10:33:24.81	202.87	43.86	-42.8	-47.0	11.2	1.04e-03	0	60	0	502267904	57	5760
2026-01-17 10:33:25.68	203.14	44.06	-42.7	-47.2	11.1	1.64e-03	0	60	0	504365056	57	5900
2026-01-17 10:33:26.83	203.50	44.34	-43.0	-47.6	10.7	2.88e-03	0	60	0	506462208	56	6554
2026-01-17 10:33:27.70	203.78	44.55	-43.2	-48.3	10.0	3.76e-03	0	60	0	508559360	57	6693
2026-01-17 10:33:28.85	204.15	44.82	-43.2	-48.0	10.4	4.81e-03	0	60	0	510656512	57	6428
2026-01-17 10:33:29.71	204.44	45.03	-43.2	-48.0	10.4	6.84e-03	0	60	0	511705088	57	6421
2026-01-17 10:33:30.87	204.82	45.31	-43.3	-48.2	10.1	3.39e-03	0	60	0	513802240	57	6638
2026-01-17 10:33:31.73	205.12	45.51	-43.1	-47.9	10.4	5.19e-03	0	60	0	515899392	57	6367
2026-01-17 10:33:32.89	205.52	45.79	-43.1	-47.9	10.4	4.24e-03	0	60	0	517996544	57	6351
2026-01-17 10:33:33.75	205.82	46.00	-43.2	-48.1	10.3	4.20e-03	0	60	0	519045120	57	6517
2026-01-17 10:33:34.90	206.23	46.28	-42.9	-47.2	11.1	1.84e-03	0	60	0	521142272	57	5922
2026-01-17 10:33:35.77	206.54	46.49	-42.8	-47.2	11.1	2.21e-03	0	60	0	523239424	57	5897
2026-01-17 10:33:36.92	206.97	46.77	-42.7	-46.9	11.4	8.96e-04	0	60	0	525336576	57	5700
2026-01-17 10:33:37.79	207.29	46.98	-42.7	-46.9	11.4	1.51e-03	0	60	0	527433728	57	5679
2026-01-17 10:33:38.94	207.72	47.25	-42.9	-47.2	11.1	1.13e-03	0	60	0	529530880	57	5916
2026-01-17 10:33:39.81	208.06	47.47	-42.8	-47.0	11.2	1.33e-03	0	60	0	530579456	57	5788
2026-01-17 10:33:40.96	208.51	47.74	-42.7	-46.8	11.5	8.19e-04	0	60	0	532676608	57	5636
2026-01-17 10:33:41.83	208.85	47.95	-42.3	-46.0	12.3	4.57e-04	0	60	0	534773760	56	5464
2026-01-17 10:33:42.98	209.32	48.23	-41.8	-45.1	13.1	1.27e-04	0	60	0	536870912	55	5210
2026-01-17 10:33:43.84	209.67	48.44	-41.8	-45.2	13.0	5.56e-05	0	60	0	537919488	55	5246
2026-01-17 10:33:45.00	210.15	48.72	-42.3	-46.1	12.1	1.52e-04	0	60	0	541065216	55	5841
2026-01-17 10:33:45.86	210.51	48.93	-42.9	-47.3	11.1	9.94e-04	0	60	0	542113792	56	6335
2026-01-17 10:33:47.02	211.01	49.21	-43.4	-48.6	9.7	7.89e-03	0	60	0	544210944	57	6927
2026-01-17 10:33:47.88	211.39	49.41	-43.4	-48.7	9.6	1.09e-02	0	60	0	546308096	57	6981
2026-01-17 10:33:49.04	211.90	49.69	-43.4	-48.4	9.8	1.55e-02	0	60	0	548405248	57	6795
2026-01-17 10:33:49.90	212.29	49.90	-43.1	-47.9	10.4	6.86e-03	0	60	0	549453824	57	6376
2026-01-17 10:33:51.06	212.82	50.18	-42.9	-47.3	11.1	1.83e-03	0	60	0	551550976	57	5937
2026-01-17 10:33:51.92	213.21	50.38	-43.0	-47.6	10.7	2.33e-03	0	60	0	553648128	57	6166
2026-01-17 10:33:53.07	213.76	50.65	-43.1	-47.8	10.5	4.79e-03	0	60	0	555745280	57	6313
2026-01-17 10:33:53.94	214.17	50.86	-43.1	-47.6	10.6	6.10e-03	0	60	0	557842432	57	6202
2026-01-17 10:33:55.09	214.73	51.13	-42.9	-47.2	11.2	2.86e-03	0	60	0	559939584	57	5892
2026-01-17 10:33:55.96	215.16	51.33	-43.0	-47.6	10.8	1.96e-03	0	60	0	560988160	57	6135
2026-01-17 10:33:57.11	215.74	51.60	-43.5	-48.8	9.4	1.04e-02	0	60	0	563085312	57	7091
2026-01-17 10:33:57.97	216.18	51.80	-43.5	-49.0	9.3	2.49e-02	0	60	0	565182464	57	7217
2026-01-17 10:33:59.13	216.78	52.07	-43.3	-48.8	9.3	1.84e-02	0	60	0	567279616	57	7092
2026-01-17 10:33:59.99	217.23	52.27	-43.2	-48.0	10.3	9.73e-03	0	60	0	568328192	57	6473
2026-01-17 10:34:01.14	217.84	52.53	-42.7	-46.8	11.5	1.40e-03	0	60	0	570425344	56	5940
2026-01-17 10:34:02.01	218.31	52.73	-42.1	-46.3	11.8	4.27e-04	0	60	0	572522496	55	5952
2026-01-17 10:34:03.16	218.95	52.99	-42.1	-46.6	11.6	4.92e-04	0	60	0	574619648	55	6164
2026-01-17 10:34:04.03	219.43	53.18	-42.9	-47.5	10.6	6.47e-04	0	60	0	576716800	56	6467
2026-01-17 10:34:05.18	220.09	53.44	-42.7	-47.7	10.6	2.92e-03	0	60	0	578813952	56	6598
2026-01-17 10:34:06.05	220.59	53.63	-43.0	-47.5	10.8	4.33e-03	0	60	0	579862528	56	6436
2026-01-17 10:34:07.20	221.26	53.88	-41.9	-46.6	11.4	1.20e-03	0	60	0	581959680	55	6142
2026-01-17 10:34:08.06	221.77	54.07	-42.4	-46.4	11.8	3.90e-04	0	60	0	584056832	55	6039
2026-01-17 10:34:09.22	222.47	54.31	-42.1	-45.8	12.4	2.35e-04	0	60	0	586153984	55	5623
2026-01-17 10:34:10.08	223.00	54.49	-41.9	-45.5	12.6	1.47e-04	0	60	0	587202560	55	5451
2026-01-17 10:34:11.24	223.72	54.74	-41.9	-45.3	12.9	4.50e-05	0	60	0	589299712	54	5626
2026-01-17 10:34:12.10	224.26	54.91	-42.0	-45.5	12.7	6.56e-05	0	60	0	591396864	54	5780
2026-01-17 10:34:13.25	225.00	55.15	-42.2	-46.0	12.2	2.02e-04	0	60	0	593494016	55	5737
2026-01-17 10:34:14.12	225.56	55.32	-41.9	-45.9	12.2	3.86e-04	0	60	0	595591168	54	6061
2026-01-17 10:34:15.27	226.32	55.55	-42.3	-46.3	11.8	3.75e-04	0	60	0	597688320	55	5992
2026-01-17 10:34:16.14	226.90	55.72	-42.6	-46.8	11.3	5.35e-04	0	60	0	598736896	55	6342
2026-01-17 10:34:17.29	227.67	55.94	-43.1	-47.9	10.4	4.66e-03	0	60	0	600834048	56	6778
2026-01-17 10:34:18.16	228.27	56.11	-43.3	-48.4	10.0	7.91e-03	0	60	0	602931200	57	6792
2026-01-17 10:34:19.31	229.07	56.32	-43.0	-47.5	10.7	3.55e-03	0	60	0	605028352	57	6117
2026-01-17 10:34:20.18	229.68	56.48	-42.5	-46.4	12.0	9.63e-04	0	60	0	606076928	56	5685
2026-01-17 10:34:21.33	230.50	56.68	-42.0	-45.7	12.6	1.37e-04	0	60	0	609222656	56	5273
2026-01-17 10:34:22.20	231.13	56.83	-41.9	-45.4	12.8	7.93e-05	0	60	0	610271232	55	5365
2026-01-17 10:34:23.35	231.97	57.03	-42.2	-46.0	12.2	2.01e-04	0	60	0	612368384	55	5779
2026-01-17 10:34:24.22	232.62	57.17	-42.5	-46.6	11.5	1.00e-03	0	60	0	614465536	55	6167
2026-01-17 10:34:25.37	233.48	57.36	-42.6	-46.7	11.4	1.11e-03	0	60	0	616562688	55	6259
2026-01-17 10:34:26.23	234.13	57.50	-42.5	-46.5	11.6	5.93e-04	0	60	0	617611264	55	6104
2026-01-17 10:34:27.39	235.02	57.67	-41.9	-46.5	11.6	5.11e-04	0	60	0	619708416	55	6096
2026-01-17 10:34:28.25	235.69	57.80	-42.6	-46.8	11.4	8.64e-04	0	60	0	621805568	55	6323
2026-01-17 10:34:29.40	236.59	57.97	-42.3	-46.5	11.7	8.60e-04	0	60	0	623902720	55	6128
2026-01-17 10:34:30.27	237.28	58.09	-42.1	-45.7	12.5	1.72e-04	0	60	0	625999872	55	5589
2026-01-17 10:34:31.42	238.20	58.24	-42.3	-46.2	12.1	1.71e-04	0	60	0	628097024	55	5902
2026-01-17 10:34:32.29	238.91	58.36	-42.1	-46.7	11.3	5.31e-04	0	60	0	629145600	55	6265
2026-01-17 10:34:33.45	239.85	58.50	-42.5	-46.7	11.5	8.51e-04	0	61	0	631242752	55	6257
2026-01-17 10:34:34.31	240.56	58.61	-42.4	-46.5	11.7	9.31e-04	0	60	0	633339904	55	6098
2026-01-17 10:34:35.47	241.53	58.74	-42.5	-46.6	11.5	1.04e-03	0	60	0	635437056	55	6180
2026-01-17 10:34:36.33	242.25	58.83	-42.3	-46.2	11.9	7.48e-04	0	60	0	636485632	55	5909
2026-01-17 10:34:37.48	243.22	58.95	-42.3	-46.2	11.9	4.48e-04	0	60	0	638582784	55	5921
2026-01-17 10:34:38.35	243.96	59.04	-42.3	-46.3	11.9	6.27e-04	0	60	0	640679936	55	5935
2026-01-17 10:34:39.50	244.95	59.14	-42.5	-46.5	11.7	4.75e-04	0	60	0	642777088	55	6096
2026-01-17 10:34:40.37	245.70	59.22	-42.7	-47.0	11.2	1.09e-03	0	60	0	644874240	55	6473
2026-01-17 10:34:41.52	246.70	59.31	-43.4	-48.6	9.8	4.84e-03	0	60	0	646971392	57	6910
2026-01-17 10:34:42.38	247.45	59.37	-43.4	-48.7	9.5	1.43e-02	0	60	0	648019968	57	7023
2026-01-17 10:34:43.54	248.47	59.45	-42.9	-47.5	10.7	4.21e-03	0	60	0	650117120	57	6093
2026-01-17 10:34:44.41	249.24	59.51	-42.9	-47.3	11.0	1.59e-03	0	60	0	652214272	57	5963
2026-01-17 10:34:45.56	250.26	59.57	-43.4	-48.5	9.7	3.98e-03	0	60	0	654311424	57	6824
2026-01-17 10:34:46.42	251.03	59.62	-43.5	-48.8	9.5	1.14e-02	0	60	0	655360000	57	7048
2026-01-17 10:34:47.57	252.06	59.67	-43.3	-48.2	10.1	1.16e-02	0	60	0	657457152	57	6591
2026-01-17 10:34:48.44	252.84	59.70	-43.0	-47.4	10.9	2.84e-03	0	60	0	659554304	57	6057
2026-01-17 10:34:49.59	253.87	59.73	-43.2	-48.1	10.2	4.46e-03	0	60	0	661651456	57	6535
2026-01-17 10:34:50.46	254.66	59.76	-43.4	-48.6	9.7	1.21e-02	0	60	0	663748608	57	6888
2026-01-17 10:34:51.61	255.70	59.78	-43.2	-48.0	10.2	1.27e-02	0	60	0	665845760	57	6454
2026-01-17 10:34:52.48	256.48	59.79	-42.9	-47.2	11.0	4.33e-03	0	60	0	666894336	57	5908
2026-01-17 10:34:53.63	257.52	59.79	-42.9	-47.4	10.8	1.50e-03	0	60	0	668991488	57	6009
2026-01-17 10:34:54.50	258.31	59.79	-43.2	-48.0	10.2	6.49e-03	0	60	0	671088640	57	6475
2026-01-17 10:34:55.65	259.35	59.79	-43.5	-48.8	9.4	1.14e-02	0	60	0	673185792	57	7079
2026-01-17 10:34:56.52	260.14	59.77	-43.5	-48.8	9.4	1.41e-02	0	60	0	674234368	57	7121
2026-01-17 10:34:57.67	261.18	59.75	-43.6	-49.1	9.2	1.68e-02	0	60	0	677380096	57	7293
2026-01-17 10:34:58.53	261.95	59.73	-43.2	-48.0	10.3	1.65e-02	0	60	0	678428672	57	6432
2026-01-17 10:34:59.69	263.00	59.69	-42.8	-47.0	11.2	1.52e-03	0	60	0	680525824	57	5770
2026-01-17 10:35:00.55	263.77	59.66	-42.7	-46.8	11.7	5.43e-04	0	60	0	682622976	57	5601
2026-01-17 10:35:01.70	264.79	59.60	-43.1	-47.9	10.5	1.18e-03	0	60	0	684720128	57	6358
2026-01-17 10:35:02.57	265.57	59.56	-43.0	-47.4	10.8	3.52e-03	0	60	0	685768704	57	6042
2026-01-17 10:35:03.72	266.59	59.49	-42.6	-46.7	11.6	1.23e-03	0	60	0	687865856	57	5580
2026-01-17 10:35:04.59	267.36	59.44	-42.7	-46.8	11.6	5.26e-04	0	60	0	689963008	57	5629
2026-01-17 10:35:05.74	268.37	59.36	-42.9	-47.3	11.0	1.85e-03	0	60	0	692060160	57	5929
2026-01-17 10:35:06.61	269.12	59.29	-43.0	-47.7	10.5	3.36e-03	0	60	0	693108736	57	6228
2026-01-17 10:35:07.76	270.12	59.19	-43.1	-47.9	10.4	4.40e-03	0	60	0	696254464	57	6355
2026-01-17 10:35:08.63	270.87	59.12	-42.9	-47.3	11.0	3.81e-03	0	60	0	697303040	57	5949
2026-01-17 10:35:09.78	271.86	59.01	-42.8	-47.0	11.2	1.94e-03	0	60	0	699400192	57	5787
2026-01-17 10:35:10.65	272.59	58.92	-42.7	-46.8	11.5	9.14e-04	0	60	0	701497344	57	5605
2026-01-17 10:35:11.80	273.56	58.80	-42.5	-46.3	12.0	3.54e-04	0	60	0	703594496	56	5640
2026-01-17 10:35:12.66	274.28	58.71	-42.9	-47.3	11.0	5.07e-04	0	60	0	704643072	56	6276
2026-01-17 10:35:13.81	275.24	58.58	-43.2	-48.0	10.2	4.84e-03	0	60	0	706740224	57	6453
2026-01-17 10:35:14.68	275.95	58.47	-43.0	-47.5	10.8	7.24e-03	0	60	0	708837376	57	6099
2026-01-17 10:35:15.83	276.89	58.33	-43.2	-47.8	10.5	2.79e-03	0	60	0	710934528	57	6334
2026-01-17 10:35:16.69	277.58	58.21	-43.3	-48.3	10.0	5.44e-03	0	60	0	711983104	57	6686
2026-01-17 10:35:17.85	278.50	58.06	-43.0	-47.6	10.7	5.83e-03	0	61	0	715128832	57	6184
2026-01-17 10:35:18.71	279.18	57.93	-42.8	-47.0	11.3	1.64e-03	0	60	0	716177408	57	5728
2026-01-17 10:35:19.86	280.08	57.77	-42.8	-47.0	11.3	1.10e-03	0	61	0	718274560	57	5769
2026-01-17 10:35:20.73	280.75	57.64	-42.6	-46.5	11.9	5.33e-04	0	60	0	720371712	56	5737
2026-01-17 10:35:21.88	281.63	57.46	-41.7	-45.0	13.1	4.11e-05	0	60	0	722468864	55	5152
2026-01-17 10:35:22.74	282.28	57.32	-41.8	-45.2	13.0	2.67e-05	0	60	0	723517440	55	5251
2026-01-17 10:35:23.89	283.14	57.14	-42.1	-45.7	12.5	1.46e-04	0	60	0	725614592	55	5570
2026-01-17 10:35:24.76	283.78	56.99	-41.8	-45.2	13.0	9.46e-05	0	60	0	727711744	55	5249
2026-01-17 10:35:25.91	284.62	56.79	-41.5	-44.7	13.5	1.22e-05	0	60	0	729808896	55	4946
2026-01-17 10:35:26.77	285.24	56.64	-41.1	-44.1	14.2	7.00e-07	0	61	0	731906048	54	4882
2026-01-17 10:35:27.92	286.05	56.44	-41.0	-43.9	14.4	1.50e-06	0	60	0	734003200	54	4760
2026-01-17 10:35:28.79	286.66	56.28	-41.3	-44.4	13.8	7.00e-07	0	61	0	735051776	53	5385
2026-01-17 10:35:29.94	287.46	56.07	-41.7	-45.0	13.2	3.96e-05	0	60	0	737148928	54	5436
2026-01-17 10:35:30.81	288.05	55.90	-40.8	-43.6	14.6	4.50e-06	0	60	0	739246080	53	4871
2026-01-17 10:35:31.96	288.83	55.68	-40.1	-42.5	15.7	0.00e+00	0	60	0	741343232	52	4577
2026-01-17 10:35:32.82	289.40	55.51	-40.7	-43.3	14.9	0.00e+00	0	60	0	742391808	52	5025
2026-01-17 10:35:33.98	290.16	55.29	-40.9	-43.8	14.5	0.00e+00	0	60	0	744488960	52	5284
2026-01-17 10:35:34.84	290.71	55.11	-40.6	-43.2	15.0	0.00e+00	0	61	0	746586112	52	4963
2026-01-17 10:35:36.00	291.45	54.88	-40.3	-42.8	15.4	0.00e+00	0	60	0	748683264	52	4745
2026-01-17 10:35:36.86	291.99	54.70	-40.7	-43.3	14.9	0.00e+00	0	60	0	750780416	52	5029
2026-01-17 10:35:38.01	292.70	54.46	-41.2	-44.2	14.0	1.50e-06	0	61	0	752877568	53	5272
2026-01-17 10:35:38.88	293.23	54.28	-41.2	-44.2	14.0	4.50e-06	0	60	0	753926144	53	5264
2026-01-17 10:35:40.03	293.92	54.03	-40.7	-43.3	14.9	0.00e+00	0	60	0	756023296	53	4758
2026-01-17 10:35:40.89	294.43	53.84	-40.5	-43.1	15.1	0.00e+00	0	60	0	758120448	53	4620
2026-01-17 10:35:42.05	295.10	53.59	-41.2	-44.1	14.1	0.00e+00	0	60	0	760217600	52	5500
2026-01-17 10:35:42.91	295.59	53.40	-41.9	-45.4	12.9	9.90e-06	0	60	0	761266176	54	5676
2026-01-17 10:35:44.07	296.25	53.15	-42.6	-46.8	11.4	3.04e-04	0	60	0	763363328	55	6318
2026-01-17 10:35:44.93	296.73	52.95	-43.0	-47.6	10.8	1.66e-03	0	61	0	765460480	56	6555
2026-01-17 10:35:46.09	297.36	52.69	-43.1	-47.8	10.5	4.97e-03	0	61	0	767557632	56	6694
2026-01-17 10:35:46.95	297.83	52.50	-42.5	-46.3	12.0	9.91e-04	0	61	0	769654784	56	5653
2026-01-17 10:35:48.10	298.44	52.24	-41.6	-44.8	13.5	1.98e-05	0	60	0	771751936	55	4988
2026-01-17 10:35:48.97	298.89	52.04	-41.8	-45.1	13.2	1.52e-05	0	60	0	772800512	55	5215
2026-01-17 10:35:50.12	299.48	51.77	-42.5	-46.6	11.6	2.03e-04	0	60	0	774897664	55	6152
2026-01-17 10:35:50.99	299.93	51.57	-43.0	-47.5	10.9	1.67e-03	0	60	0	776994816	56	6452
2026-01-17 10:35:52.14	300.50	51.30	-43.1	-47.8	10.6	3.99e-03	0	60	0	779091968	56	6657
2026-01-17 10:35:53.00	300.92	51.10	-43.7	-49.4	8.8	9.34e-03	0	60	0	780140544	57	7553
2026-01-17 10:35:54.16	301.48	50.83	-44.4	-51.9	6.2	1.40e-01	0	60	0	782237696	59	9065
2026-01-17 10:35:55.02	301.89	50.63	-44.1	-50.5	7.6	1.21e-01	0	61	0	784334848	59	7707
2026-01-17 10:35:56.18	302.44	50.35	-43.6	-49.0	9.3	3.12e-02	0	61	0	786432000	59	6483
2026-01-17 10:35:57.04	302.83	50.15	-43.4	-48.6	9.6	1.81e-02	0	60	0	788529152	58	6543
2026-01-17 10:35:58.20	303.36	49.87	-43.2	-48.0	10.3	8.90e-03	0	61	0	790626304	58	6084
2026-01-17 10:35:59.06	303.74	49.67	-42.8	-47.1	11.3	1.88e-03	0	61	0	791674880	57	5789
2026-01-17 10:36:00.22	304.25	49.39	-42.4	-46.2	12.1	4.70e-04	0	61	0	793772032	56	5554
2026-01-17 10:36:01.08	304.63	49.18	-42.8	-46.9	11.4	2.87e-04	0	61	0	795869184	56	6046
2026-01-17 10:36:02.24	305.12	48.91	-43.5	-48.8	9.5	9.64e-03	0	60	0	797966336	57	7046
2026-01-17 10:36:03.10	305.48	48.70	-43.9	-50.0	8.3	4.76e-02	0	61	0	799014912	58	7645
2026-01-17 10:36:04.25	305.96	48.42	-43.9	-50.0	8.1	7.02e-02	0	60	0	802160640	58	7692
2026-01-17 10:36:05.12	306.31	48.21	-43.6	-49.2	9.0	2.43e-02	0	61	0	803209216	58	6992
2026-01-17 10:36:06.27	306.77	47.94	-43.3	-48.3	9.8	1.51e-02	0	61	0	805306368	58	6326
2026-01-17 10:36:07.14	307.12	47.73	-43.1	-47.6	10.6	4.82e-03	0	60	0	807403520	58	5846
2026-01-17 10:36:08.29	307.56	47.45	-42.6	-46.7	11.6	1.69e-03	0	60	0	809500672	57	5580
2026-01-17 10:36:09.16	307.90	47.24	-42.5	-46.4	12.0	2.59e-04	0	61	0	810549248	56	5665
2026-01-17 10:36:10.31	308.33	46.96	-42.8	-47.1	11.2	8.77e-04	0	61	0	812646400	56	6176
2026-01-17 10:36:11.17	308.65	46.76	-43.1	-47.7	10.6	2.12e-03	0	61	0	814743552	56	6629
2026-01-17 10:36:12.33	309.07	46.48	-43.4	-48.7	9.5	1.27e-02	0	61	0	816840704	57	6980
2026-01-17 10:36:13.19	309.38	46.27	-42.9	-47.3	11.1	4.93e-03	0	61	0	818937856	57	5925
2026-01-17 10:36:14.35	309.79	45.99	-42.4	-46.1	12.2	3.99e-04	0	60	0	821035008	56	5517
2026-01-17 10:36:15.21	310.09	45.78	-42.1	-45.6	12.7	8.54e-05	0	60	0	822083584	56	5181
2026-01-17 10:36:16.37	310.49	45.51	-42.4	-46.2	12.2	1.40e-04	0	60	0	824180736	56	5542
2026-01-17 10:36:17.23	310.78	45.30	-42.3	-46.0	12.4	1.95e-04	0	61	0	826277888	56	5432
2026-01-17 10:36:18.39	311.17	45.02	-42.2	-45.9	12.4	1.05e-04	0	61	0	828375040	56	5362
2026-01-17 10:36:19.25	311.45	44.82	-42.2	-45.9	12.5	1.06e-04	0	61	0	829423616	56	5347
2026-01-17 10:36:20.41	311.83	44.54	-42.5	-46.4	12.0	2.53e-04	0	61	0	831520768	56	5706
2026-01-17 10:36:21.27	312.10	44.34	-42.5	-46.4	12.0	2.44e-04	0	61	0	833617920	56	5678
2026-01-17 10:36:22.42	312.46	44.07	-42.8	-47.1	11.2	5.01e-04	0	61	0	835715072	56	6190
2026-01-17 10:36:23.29	312.73	43.86	-43.0	-47.6	10.7	2.21e-03	0	60	0	837812224	56	6522
2026-01-17 10:36:24.44	313.08	43.59	-43.2	-48.0	10.3	4.44e-03	0	61	0	839909376	56	6813
2026-01-17 10:36:25.31	313.34	43.38	-43.7	-49.5	8.7	1.61e-02	0	61	0	840957952	57	7638
2026-01-17 10:36:26.46	313.68	43.11	-44.0	-50.5	7.7	6.61e-02	0	60	0	843055104	58	8138
2026-01-17 10:36:27.32	313.93	42.91	-43.5	-48.9	9.2	6.83e-02	0	61	0	845152256	58	6797
2026-01-17 10:36:28.48	314.27	42.64	-43.2	-48.0	10.3	6.62e-03	0	61	0	847249408	58	6131
2026-01-17 10:36:29.34	314.51	42.44	-43.3	-48.1	10.2	3.88e-03	0	60	0	848297984	58	6181
2026-01-17 10:36:30.50	314.84	42.17	-43.7	-49.3	8.9	2.25e-02	0	61	0	850395136	58	7075
2026-01-17 10:36:31.36	315.07	41.97	-44.0	-50.6	7.7	6.96e-02	0	61	0	852492288	58	8227
2026-01-17 10:36:32.51	315.39	41.71	-44.3	-51.5	6.7	1.61e-01	0	61	0	854589440	59	8642
2026-01-17 10:36:33.38	315.62	41.51	-44.0	-50.5	7.6	1.56e-01	0	60	0	856686592	59	7657
2026-01-17 10:36:34.53	315.92	41.24	-43.5	-48.8	9.4	2.03e-02	0	61	0	858783744	58	6667
2026-01-17 10:36:35.40	316.15	41.05	-43.2	-48.0	10.2	7.31e-03	0	60	0	859832320	58	6101
2026-01-17 10:36:36.55	316.44	40.78	-43.3	-48.1	10.1	8.18e-03	0	61	0	861929472	58	6192
2026-01-17 10:36:37.42	316.66	40.59	-43.5	-48.7	9.6	1.08e-02	0	61	0	864026624	58	6628
2026-01-17 10:36:38.57	316.95	40.33	-43.5	-48.7	9.5	1.14e-02	0	61	0	866123776	58	6604
2026-01-17 10:36:39.44	317.17	40.13	-43.5	-48.6	9.7	1.17e-02	0	61	0	867172352	58	6551
2026-01-17 10:36:40.59	317.45	39.88	-43.4	-48.5	9.7	1.27e-02	0	61	0	870318080	58	6464
2026-01-17 10:36:41.46	317.65	39.68	-43.6	-49.1	9.1	2.50e-02	0	61	0	871366656	58	6908
2026-01-17 10:36:42.61	317.93	39.43	-43.5	-48.7	9.4	2.64e-02	0	61	0	873463808	58	6641
2026-01-17 10:36:43.47	318.13	39.24	-43.2	-48.0	10.3	1.14e-02	0	61	0	875560960	58	6078
2026-01-17 10:36:44.63	318.39	38.98	-42.9	-47.4	10.8	2.61e-03	0	61	0	877658112	57	6026
2026-01-17 10:36:45.49	318.59	38.79	-42.4	-46.3	12.0	7.91e-04	0	61	0	878706688	56	5626
2026-01-17 10:36:46.65	318.85	38.54	-42.6	-46.6	11.7	4.81e-04	0	61	0	880803840	56	5805
2026-01-17 10:36:47.51	319.04	38.35	-42.9	-47.3	10.9	1.77e-03	0	61	0	882900992	56	6279
2026-01-17 10:36:48.67	319.29	38.10	-43.9	-50.0	8.3	1.05e-02	0	61	0	884998144	58	7658
2026-01-17 10:36:49.53	319.48	37.91	-44.3	-51.8	6.4	1.14e-01	0	60	0	887095296	59	8944
2026-01-17 10:36:50.68	319.72	37.67	-44.4	-52.6	5.8	3.50e-01	0	61	0	889192448	59	9742
2026-01-17 10:36:51.55	319.90	37.48	-44.2	-51.4	6.8	2.54e-01	0	61	0	890241024	59	8483
2026-01-17 10:36:52.70	320.14	37.24	-44.0	-50.7	7.5	1.32e-01	0	60	0	892338176	59	7837
2026-01-17 10:36:53.57	320.32	37.05	-43.7	-49.6	8.6	5.41e-02	0	61	0	894435328	59	6910
2026-01-17 10:36:54.72	320.55	36.81	-43.2	-48.1	10.0	1.17e-02	0	60	0	896532480	58	6138
2026-01-17 10:36:55.58	320.72	36.63	-43.0	-47.6	10.7	5.27e-03	0	60	0	897581056	58	5817
2026-01-17 10:36:56.74	320.95	36.39	-43.1	-47.9	10.4	6.17e-03	0	60	0	899678208	58	6016
2026-01-17 10:36:57.60	321.12	36.21	-43.0	-47.5	10.7	3.47e-03	0	61	0	901775360	58	5753
2026-01-17 10:36:58.76	321.34	35.97	-42.9	-47.3	10.9	3.76e-03	0	61	0	903872512	57	5983
2026-01-17 10:36:59.62	321.50	35.79	-42.9	-47.4	10.8	3.22e-03	0	61	0	905969664	57	6012
2026-01-17 10:37:00.77	321.72	35.56	-43.2	-48.1	10.1	3.62e-03	0	61	0	908066816	57	6527
2026-01-17 10:37:01.64	321.88	35.38	-43.2	-48.0	10.1	5.17e-03	0	61	0	909115392	57	6490
2026-01-17 10:37:02.79	322.09	35.15	-43.0	-47.6	10.6	3.82e-03	0	61	0	911212544	57	6178
2026-01-17 10:37:03.66	322.25	34.97	-42.8	-47.2	11.0	2.46e-03	0	61	0	913309696	57	5895
2026-01-17 10:37:04.81	322.45	34.74	-42.6	-46.7	11.5	1.38e-03	0	61	0	915406848	57	5586
2026-01-17 10:37:05.68	322.60	34.57	-42.8	-47.0	11.2	1.09e-03	0	61	0	916455424	57	5753
2026-01-17 10:37:06.83	322.80	34.34	-42.8	-47.2	11.0	1.86e-03	0	61	0	918552576	57	5896
2026-01-17 10:37:07.70	322.95	34.17	-43.0	-47.5	10.8	1.65e-03	0	61	0	920649728	57	6067
2026-01-17 10:37:08.85	323.15	33.94	-43.0	-47.5	10.6	3.62e-03	0	61	0	922746880	57	6102
2026-01-17 10:37:09.72	323.30	33.77	-43.0	-47.5	10.7	2.83e-03	0	61	0	924844032	57	6081
2026-01-17 10:37:10.87	323.49	33.55	-42.9	-47.4	10.8	3.47e-03	0	61	0	926941184	57	6031
2026-01-17 10:37:11.74	323.63	33.38	-42.9	-47.5	10.7	3.46e-03	0	61	0	927989760	57	6090
2026-01-17 10:37:12.89	323.81	33.16	-42.9	-47.5	10.6	2.67e-03	0	60	0	930086912	57	6104
2026-01-17 10:37:13.75	323.95	32.99	-42.9	-47.5	10.7	2.25e-03	0	61	0	932184064	57	6117
2026-01-17 10:37:14.91	324.14	32.77	-43.2	-48.1	10.1	5.49e-03	0	61	0	934281216	57	6525
2026-01-17 10:37:15.77	324.27	32.61	-43.2	-48.3	9.8	9.84e-03	0	61	0	935329792	57	6697
2026-01-17 10:37:16.92	324.45	32.39	-43.4	-48.7	9.4	1.29e-02	0	61	0	938475520	57	7035
2026-01-17 10:37:17.79	324.58	32.23	-43.5	-48.9	9.2	1.84e-02	0	61	0	939524096	57	7142
2026-01-17 10:37:18.95	324.76	32.01	-43.3	-48.4	9.7	1.02e-02	0	61	0	941621248	57	6783
2026-01-17 10:37:19.81	324.89	31.85	-43.1	-47.9	10.2	7.64e-03	0	61	0	943718400	57	6390
2026-01-17 10:37:20.96	325.06	31.64	-42.7	-46.9	11.3	3.91e-03	0	61	0	945815552	57	5685
2026-01-17 10:37:21.83	325.18	31.48	-42.4	-46.3	11.9	7.16e-04	0	61	0	946864128	56	5621
2026-01-17 10:37:22.98	325.35	31.27	-42.1	-45.7	12.5	1.39e-04	0	61	0	948961280	56	5265
2026-01-17 10:37:23.85	325.47	31.11	-41.8	-45.3	12.8	4.80e-05	0	60	0	951058432	55	5292
2026-01-17 10:37:25.00	325.64	30.90	-42.0	-45.7	12.4	8.39e-05	0	61	0	953155584	55	5582
2026-01-17 10:37:25.87	325.76	30.74	-42.5	-46.7	11.4	2.08e-04	0	61	0	955252736	55	6232
2026-01-17 10:37:27.02	325.92	30.54	-43.1	-47.8	10.3	3.43e-03	0	61	0	957349888	56	6708
2026-01-17 10:37:27.89	326.04	30.38	-43.4	-48.7	9.5	1.00e-02	0	61	0	958398464	57	6972
2026-01-17 10:37:29.04	326.19	30.18	-43.9	-50.4	7.7	5.11e-02	0	61	0	960495616	58	8063
2026-01-17 10:37:29.90	326.31	30.03	-44.1	-51.3	6.8	1.56e-01	0	61	0	962592768	58	8964
2026-01-17 10:37:31.06	326.46	29.82	-44.0	-50.6	7.5	1.35e-01	0	61	0	964689920	58	8190
2026-01-17 10:37:31.92	326.57	29.67	-44.0	-50.7	7.3	1.13e-01	0	61	0	965738496	58	8347
2026-01-17 10:37:33.08	326.72	29.47	-43.6	-49.3	8.9	6.09e-02	0	61	0	967835648	58	7094
2026-01-17 10:37:33.94	326.83	29.33	-43.4	-48.9	9.2	1.87e-02	0	61	0	969932800	58	6733
2026-01-17 10:37:35.09	326.98	29.13	-43.0	-47.7	10.6	1.25e-02	0	61	0	972029952	58	5867
2026-01-17 10:37:35.96	327.09	28.98	-42.6	-46.7	11.5	2.91e-03	0	61	0	973078528	57	5574
2026-01-17 10:37:37.11	327.23	28.78	-42.1	-45.8	12.4	2.27e-04	0	61	0	976224256	56	5332
2026-01-17 10:37:37.98	327.34	28.64	-41.7	-45.2	12.9	8.39e-05	0	61	0	977272832	55	5234
2026-01-17 10:37:39.13	327.48	28.44	-41.4	-44.6	13.6	1.37e-05	0	61	0	979369984	54	5165
2026-01-17 10:37:39.99	327.58	28.30	-41.5	-44.7	13.4	1.60e-05	0	61	0	981467136	54	5263
2026-01-17 10:37:41.15	327.72	28.11	-41.8	-45.3	12.8	1.90e-05	0	61	0	983564288	54	5632
2026-01-17 10:37:42.02	327.83	27.96	-42.0	-45.7	12.4	5.03e-05	0	61	0	984612864	54	5879
2026-01-17 10:37:43.17	327.96	27.77	-42.2	-46.1	12.0	2.11e-04	0	61	0	986710016	54	6174
2026-01-17 10:37:44.04	328.06	27.63	-42.5	-46.9	11.1	9.92e-04	0	60	0	988807168	55	6357
2026-01-17 10:37:45.19	328.19	27.44	-42.8	-47.3	10.8	2.53e-03	0	61	0	990904320	56	6331
2026-01-17 10:37:46.06	328.29	27.30	-42.8	-47.2	10.9	2.42e-03	0	61	0	993001472	56	6257
2026-01-17 10:37:47.21	328.42	27.12	-43.0	-47.8	10.4	4.88e-03	0	61	0	995098624	56	6656
2026-01-17 10:37:48.07	328.52	26.98	-42.8	-47.2	11.0	2.98e-03	0	61	0	996147200	56	6246
2026-01-17 10:37:49.23	328.65	26.80	-42.7	-47.0	11.1	1.24e-03	0	61	0	998244352	56	6124
2026-01-17 10:37:50.09	328.74	26.66	-42.6	-46.8	11.3	1.39e-03	0	60	0	1000341504	56	5972
2026-01-17 10:37:51.25	328.87	26.48	-42.4	-46.4	11.8	5.20e-04	0	61	0	1002438656	56	5680
2026-01-17 10:37:52.11	328.96	26.34	-42.6	-46.7	11.5	5.15e-04	0	61	0	1003487232	56	5905
2026-01-17 10:37:53.27	329.08	26.16	-42.4	-46.4	11.8	6.26e-04	0	61	0	1006632960	56	5693
2026-01-17 10:37:54.13	329.17	26.03	-42.5	-46.6	11.6	5.49e-04	0	61	0	1007681536	56	5807
2026-01-17 10:37:55.29	329.29	25.85	-42.7	-47.0	11.1	1.62e-03	0	61	0	1009778688	56	6116
2026-01-17 10:37:56.15	329.38	25.72	-42.8	-47.2	10.9	1.78e-03	0	61	0	1011875840	56	6251
2026-01-17 10:37:57.30	329.50	25.54	-43.0	-47.8	10.2	3.16e-03	0	61	0	1013972992	56	6719
2026-01-17 10:37:58.17	329.59	25.41	-43.1	-48.0	10.1	7.00e-03	0	61	0	1015021568	56	6831
2026-01-17 10:37:59.32	329.70	25.24	-43.1	-48.1	10.0	6.83e-03	0	61	0	1017118720	56	6921
2026-01-17 10:38:00.19	329.79	25.10	-43.1	-48.0	10.2	4.63e-03	0	61	0	1019215872	56	6804
2026-01-17 10:38:01.34	329.90	24.93	-43.0	-47.8	10.2	5.80e-03	0	61	0	1021313024	56	6696
2026-01-17 10:38:02.20	329.99	24.80	-43.0	-47.6	10.4	5.28e-03	0	61	0	1022361600	56	6570
2026-01-17 10:38:03.36	330.10	24.63	-42.8	-47.4	10.7	4.11e-03	0	61	0	1024458752	56	6388
2026-01-17 10:38:04.22	330.18	24.51	-42.9	-47.5	10.6	3.38e-03	0	61	0	1026555904	56	6451
2026-01-17 10:38:05.38	330.29	24.34	-42.7	-47.1	11.0	2.12e-03	0	61	0	1028653056	56	6172
2026-01-17 10:38:06.24	330.37	24.21	-42.7	-47.2	10.9	2.54e-03	0	60	0	1030750208	56	6266
2026-01-17 10:38:07.40	330.48	24.04	-42.8	-47.5	10.5	3.77e-03	0	61	0	1032847360	56	6484
2026-01-17 10:38:08.26	330.56	23.92	-42.8	-47.5	10.6	2.84e-03	0	61	0	1033895936	56	6453
2026-01-17 10:38:09.41	330.67	23.75	-42.9	-47.7	10.4	4.58e-03	0	61	0	1035993088	56	6588
2026-01-17 10:38:10.28	330.74	23.63	-42.7	-47.2	10.9	4.54e-03	0	61	0	1038090240	56	6232
2026-01-17 10:38:11.43	330.85	23.47	-42.6	-47.1	11.0	1.53e-03	0	61	0	1040187392	56	6157
2026-01-17 10:38:12.30	330.93	23.34	-42.5	-46.9	11.2	1.43e-03	0	60	0	1041235968	56	5999
2026-01-17 10:38:13.45	331.03	23.18	-42.3	-46.3	11.8	6.54e-04	0	61	0	1044381696	56	5609
2026-01-17 10:38:14.32	331.10	23.06	-42.1	-46.0	12.0	2.96e-04	0	61	0	1045430272	56	5439
2026-01-17 10:38:15.47	331.20	22.90	-41.8	-45.5	12.4	2.08e-04	0	61	0	1047527424	55	5411
2026-01-17 10:38:16.33	331.28	22.78	-41.6	-45.0	12.9	7.47e-05	0	61	0	1049624576	55	5159
2026-01-17 10:38:17.49	331.38	22.62	-41.5	-44.8	13.1	4.95e-05	0	61	0	1051721728	54	5333
2026-01-17 10:38:18.35	331.45	22.50	-41.4	-44.7	13.2	3.20e-05	0	61	0	1052770304	54	5278
2026-01-17 10:38:19.50	331.55	22.34	-41.4	-44.7	13.2	1.75e-05	0	61	0	1054867456	54	5275
2026-01-17 10:38:20.37	331.62	22.23	-41.4	-44.8	13.1	2.67e-05	0	61	0	1056964608	54	5293
2026-01-17 10:38:21.52	331.72	22.07	-41.5	-44.9	13.0	3.66e-05	0	61	0	1059061760	54	5375
2026-01-17 10:38:22.39	331.79	21.95	-41.7	-45.2	12.7	6.56e-05	0	61	0	1061158912	54	5565
2026-01-17 10:38:23.54	331.88	21.80	-41.9	-45.7	12.2	1.27e-04	0	61	0	1063256064	54	5869
2026-01-17 10:38:24.41	331.95	21.68	-41.9	-45.8	12.1	2.10e-04	0	61	0	1064304640	54	5931
2026-01-17 10:38:25.56	332.04	21.53	-42.1	-46.1	11.8	4.70e-04	0	61	0	1066401792	54	6142
2026-01-17 10:38:26.43	332.11	21.42	-42.3	-46.5	11.4	6.77e-04	0	61	0	1068498944	55	6062
2026-01-17 10:38:27.58	332.20	21.27	-42.3	-46.6	11.2	1.17e-03	0	61	0	1070596096	55	6154
2026-01-17 10:38:28.45	332.27	21.15	-42.2	-46.3	11.4	1.12e-03	0	61	0	1071644672	55	5982
2026-01-17 10:38:29.60	332.36	21.00	-42.2	-46.4	11.4	1.09e-03	0	61	0	1073741824	55	6047
2026-01-17 10:38:30.47	332.43	20.89	-42.2	-46.4	11.3	1.17e-03	0	61	0	1075838976	55	6057
2026-01-17 10:38:31.62	332.51	20.74	-42.1	-46.2	11.6	6.97e-04	0	61	0	1077936128	55	5890
2026-01-17 10:38:32.48	332.58	20.63	-42.0	-46.1	11.6	5.83e-04	0	61	0	1080033280	55	5799
2026-01-17 10:38:33.64	332.67	20.48	-41.9	-45.7	12.0	3.73e-04	0	61	0	1082130432	55	5583
2026-01-17 10:38:34.50	332.73	20.38	-41.8	-45.6	12.2	2.19e-04	0	61	0	1083179008	55	5520
2026-01-17 10:38:35.66	332.82	20.23	-41.7	-45.3	12.4	1.84e-04	0	61	0	1085276160	55	5340
2026-01-17 10:38:36.52	332.88	20.12	-41.6	-45.2	12.6	1.27e-04	0	61	0	1087373312	55	5233
2026-01-17 10:38:37.67	332.96	19.98	-41.5	-45.1	12.6	8.62e-05	0	61	0	1089470464	54	5508
2026-01-17 10:38:38.54	333.03	19.87	-41.4	-45.0	12.8	6.17e-05	0	61	0	1090519040	54	5411
2026-01-17 10:38:39.69	333.11	19.73	-41.3	-44.6	13.1	4.80e-05	0	61	0	1092616192	54	5195
2026-01-17 10:38:40.56	333.17	19.62	-41.3	-44.7	13.0	3.66e-05	0	61	0	1094713344	54	5255
2026-01-17 10:38:41.71	333.25	19.48	-41.2	-44.5	13.2	2.13e-05	0	61	0	1096810496	54	5151
2026-01-17 10:38:42.58	333.31	19.37	-41.3	-44.7	13.0	1.52e-05	0	61	0	1098907648	54	5272
2026-01-17 10:38:43.73	333.39	19.23	-41.3	-44.7	13.0	3.28e-05	0	61	0	1101004800	54	5242
2026-01-17 10:38:44.60	333.45	19.13	-41.3	-44.8	12.9	4.88e-05	0	61	0	1102053376	54	5299
2026-01-17 10:38:45.75	333.53	18.99	-41.5	-45.1	12.5	9.91e-05	0	61	0	1104150528	54	5517
2026-01-17 10:38:46.61	333.59	18.89	-41.5	-45.2	12.4	9.61e-05	0	61	0	1106247680	54	5558
2026-01-17 10:38:47.77	333.67	18.75	-41.7	-45.5	12.2	1.63e-04	0	61	0	1108344832	54	5751
2026-01-17 10:38:48.63	333.72	18.64	-41.8	-45.7	11.9	3.87e-04	0	61	0	1109393408	54	5894
2026-01-17 10:38:49.79	333.80	18.51	-41.8	-45.8	11.7	4.19e-04	0	61	0	1112539136	54	5986
2026-01-17 10:38:50.65	333.86	18.41	-42.0	-46.1	11.5	5.32e-04	0	61	0	1113587712	54	6170
2026-01-17 10:38:51.80	333.93	18.27	-42.0	-46.3	11.4	8.37e-04	0	61	0	1115684864	54	6292
2026-01-17 10:38:52.67	333.99	18.17	-42.1	-46.4	11.2	1.61e-03	0	61	0	1117782016	54	6403
2026-01-17 10:38:53.82	334.06	18.04	-42.3	-46.8	10.7	2.69e-03	0	61	0	1119879168	55	6327
2026-01-17 10:38:54.69	334.12	17.94	-42.3	-47.0	10.5	3.44e-03	0	61	0	1120927744	55	6462
2026-01-17 10:38:55.84	334.19	17.80	-42.5	-47.4	10.2	5.25e-03	0	61	0	1123024896	55	6746
2026-01-17 10:38:56.71	334.25	17.70	-42.4	-47.3	10.2	6.86e-03	0	61	0	1125122048	55	6656
2026-01-17 10:38:57.86	334.32	17.57	-42.5	-47.4	10.0	6.45e-03	0	61	0	1127219200	55	6782
2026-01-17 10:38:58.73	334.37	17.47	-42.5	-47.6	9.8	7.63e-03	0	61	0	1129316352	55	6922
2026-01-17 10:38:59.88	334.45	17.34	-42.4	-47.2	10.2	7.15e-03	0	61	0	1131413504	55	6636
2026-01-17 10:39:00.74	334.50	17.25	-42.4	-47.3	10.1	6.78e-03	0	61	0	1132462080	55	6712
2026-01-17 10:39:01.90	334.57	17.12	-42.4	-47.3	10.1	7.53e-03	0	61	0	1134559232	55	6720
2026-01-17 10:39:02.76	334.62	17.02	-42.5	-47.5	9.9	7.67e-03	0	61	0	1136656384	55	6835
2026-01-17 10:39:03.91	334.69	16.89	-42.5	-47.6	9.8	9.09e-03	0	61	0	1138753536	55	6914
2026-01-17 10:39:04.78	334.74	16.80	-42.3	-47.0	10.3	7.35e-03	0	61	0	1139802112	55	6492
2026-01-17 10:39:05.93	334.81	16.67	-42.2	-46.9	10.5	4.32e-03	0	61	0	1141899264	55	6348
2026-01-17 10:39:06.80	334.86	16.58	-42.2	-46.9	10.4	4.67e-03	0	61	0	1143996416	55	6386
2026-01-17 10:39:07.95	334.93	16.45	-42.2	-46.9	10.4	4.17e-03	0	61	0	1146093568	55	6397
2026-01-17 10:39:08.82	334.98	16.36	-42.2	-47.0	10.3	5.00e-03	0	61	0	1148190720	55	6446
2026-01-17 10:39:09.97	335.05	16.23	-42.1	-46.8	10.5	4.30e-03	0	61	0	1150287872	55	6280
2026-01-17 10:39:10.84	335.10	16.14	-42.1	-46.7	10.6	4.17e-03	0	61	0	1151336448	55	6224
2026-01-17 10:39:11.99	335.16	16.01	-41.9	-46.4	10.8	2.42e-03	0	61	0	1153433600	55	6045
2026-01-17 10:39:12.86	335.21	15.92	-41.9	-46.4	10.9	2.28e-03	0	61	0	1155530752	55	6020
2026-01-17 10:39:14.01	335.28	15.80	-42.0	-46.5	10.7	2.82e-03	0	61	0	1157627904	55	6124
2026-01-17 10:39:14.88	335.32	15.71	-42.0	-46.5	10.7	3.51e-03	0	61	0	1158676480	55	6094
2026-01-17 10:39:16.03	335.39	15.58	-41.9	-46.3	10.9	1.86e-03	0	61	0	1160773632	55	5951
2026-01-17 10:39:16.90	335.44	15.49	-41.7	-45.9	11.3	2.02e-03	0	61	0	1162870784	55	5722
2026-01-17 10:39:18.05	335.50	15.37	-41.6	-45.8	11.4	1.16e-03	0	61	0	1164967936	55	5645
2026-01-17 10:39:18.91	335.55	15.28	-41.7	-45.9	11.3	9.86e-04	0	61	0	1167065088	55	5666
2026-01-17 10:39:20.07	335.61	15.16	-41.6	-45.7	11.4	1.25e-03	0	61	0	1169162240	55	5585
2026-01-17 10:39:20.93	335.65	15.07	-41.6	-45.8	11.3	9.95e-04	0	61	0	1170210816	55	5635
2026-01-17 10:39:22.08	335.72	14.96	-41.7	-46.0	11.2	1.23e-03	0	61	0	1172307968	55	5754
2026-01-17 10:39:22.95	335.76	14.87	-41.7	-46.0	11.2	1.36e-03	0	61	0	1174405120	55	5744
