passes_logs/2026/01/16/R2M6_AANII_01/R2M6_AANII_01__20260116_104910_SUOMI_NPP_rec.log

#Pass ID: 20260116_104910_SUOMI NPP
#Satellite: SUOMI NPP
#Configuration: NPP
#almurnet v.1.7.20240730
#Start time: 2026-01-16 10:49:10

#Version: 2.2.20231116
#Station: R2M6_AANII_01
#Location: 30.233357 lon 59.946436 lat
#TLE: 1 37849U 11061A   26015.52691075  .00000052  00000+0  45753-4 0  9993
#TLE: 2 37849  98.7811 317.5709 0002448  62.7632 297.3794 14.19525354736784

#Time	Az	El	Level	Level2	SNR	BER	BlckErr	Temp	State	Recorded	gain1	gain2
2026-01-16 10:49:10.21	173.45	6.98	-30.9	-34.0	5.3	1.24e+00	0	40	0	0	22	5179
2026-01-16 10:49:11.20	173.48	7.06	-31.6	-36.4	4.9	1.31e+00	0	40	104	0	23	6317
2026-01-16 10:49:12.20	173.50	7.13	-31.4	-35.7	7.9	1.51e-01	0	40	0	0	23	5882
2026-01-16 10:49:13.21	173.53	7.21	-31.2	-34.8	8.7	5.90e-02	0	40	0	1048576	23	5428
2026-01-16 10:49:14.21	173.56	7.29	-31.5	-35.9	7.8	7.80e-02	0	40	0	3145728	23	6022
2026-01-16 10:49:15.22	173.59	7.37	-31.3	-35.0	8.5	6.17e-02	0	40	0	5242880	23	5530
2026-01-16 10:49:16.22	173.62	7.45	-31.1	-34.2	9.1	3.21e-02	0	40	0	7340032	23	5172
2026-01-16 10:49:17.22	173.65	7.52	-30.8	-33.6	10.0	1.09e-02	0	41	0	9437184	22	4970
2026-01-16 10:49:18.22	173.68	7.60	-30.7	-33.2	10.3	6.22e-03	0	40	0	10485760	22	4828
2026-01-16 10:49:19.23	173.71	7.68	-30.5	-32.6	10.8	3.00e-03	0	40	0	12582912	22	4594
2026-01-16 10:49:20.23	173.74	7.76	-30.4	-32.2	11.1	1.64e-03	0	40	0	14680064	22	4440
2026-01-16 10:49:21.23	173.77	7.84	-30.3	-32.1	11.2	1.33e-03	0	41	0	16777216	22	4404
2026-01-16 10:49:22.23	173.80	7.92	-30.3	-32.3	11.4	1.12e-03	0	41	0	17825792	21	4566
2026-01-16 10:49:23.23	173.83	8.00	-30.2	-32.2	11.4	8.96e-04	0	41	0	19922944	21	4532
2026-01-16 10:49:24.23	173.86	8.07	-30.2	-32.0	11.6	7.07e-04	0	41	0	22020096	21	4464
2026-01-16 10:49:25.23	173.89	8.15	-30.1	-31.9	11.7	9.16e-04	0	41	0	24117248	21	4421
2026-01-16 10:49:26.23	173.92	8.23	-30.1	-31.8	11.8	5.30e-04	0	41	0	26214400	21	4381
2026-01-16 10:49:27.23	173.95	8.31	-30.1	-31.8	11.8	4.13e-04	0	41	0	27262976	21	4376
2026-01-16 10:49:28.23	173.98	8.40	-30.0	-31.6	12.0	3.18e-04	0	41	0	29360128	21	4328
2026-01-16 10:49:29.23	174.02	8.48	-30.0	-31.6	11.9	4.18e-04	0	41	0	31457280	21	4319
2026-01-16 10:49:30.23	174.05	8.56	-30.0	-31.4	12.1	2.52e-04	0	41	0	33554432	21	4253
2026-01-16 10:49:31.23	174.08	8.64	-30.0	-31.4	12.1	3.04e-04	0	41	0	35651584	21	4249
2026-01-16 10:49:32.23	174.11	8.72	-29.9	-31.2	12.2	1.97e-04	0	41	0	36700160	21	4181
2026-01-16 10:49:33.23	174.14	8.80	-29.9	-31.1	12.3	2.10e-04	0	41	0	38797312	21	4131
2026-01-16 10:49:34.23	174.17	8.88	-29.9	-31.1	12.4	1.51e-04	0	41	0	40894464	21	4131
2026-01-16 10:49:35.24	174.21	8.97	-30.0	-31.4	12.1	2.44e-04	0	41	0	42991616	21	4241
2026-01-16 10:49:36.23	174.24	9.05	-29.8	-30.9	12.5	1.52e-04	0	41	0	45088768	21	4076
2026-01-16 10:49:37.23	174.27	9.13	-29.9	-31.0	12.4	1.42e-04	0	41	0	46137344	21	4114
2026-01-16 10:49:38.24	174.30	9.21	-29.8	-31.0	12.5	1.30e-04	0	41	0	48234496	21	4106
2026-01-16 10:49:39.24	174.34	9.30	-30.0	-31.3	12.2	1.25e-04	0	41	0	50331648	21	4201
2026-01-16 10:49:40.24	174.37	9.38	-29.8	-30.8	12.6	1.46e-04	0	41	0	52428800	21	4031
2026-01-16 10:49:41.24	174.40	9.47	-29.9	-31.5	12.5	1.27e-04	0	41	0	53477376	20	4345
2026-01-16 10:49:42.24	174.44	9.55	-29.9	-31.5	12.5	8.69e-05	0	41	0	55574528	20	4337
2026-01-16 10:49:43.24	174.47	9.63	-29.9	-31.6	12.4	9.68e-05	0	41	0	57671680	20	4388
2026-01-16 10:49:44.24	174.50	9.72	-29.8	-31.2	12.7	6.63e-05	0	41	0	59768832	20	4250
2026-01-16 10:49:45.23	174.54	9.80	-29.9	-31.7	12.4	1.59e-04	0	41	0	61865984	20	4410
2026-01-16 10:49:46.24	174.57	9.89	-29.8	-31.4	12.6	1.33e-04	0	41	0	62914560	20	4319
2026-01-16 10:49:47.24	174.61	9.98	-29.7	-31.0	12.9	8.69e-05	0	41	0	65011712	20	4195
2026-01-16 10:49:48.25	174.64	10.06	-29.7	-31.0	12.9	6.17e-05	0	41	0	67108864	20	4195
2026-01-16 10:49:49.25	174.68	10.15	-29.5	-30.5	13.2	5.18e-05	0	41	0	69206016	20	4037
2026-01-16 10:49:50.24	174.71	10.23	-29.7	-30.9	13.0	3.73e-05	0	41	0	71303168	20	4165
2026-01-16 10:49:51.24	174.74	10.32	-29.8	-31.4	12.7	6.40e-05	0	41	0	72351744	20	4305
2026-01-16 10:49:52.24	174.78	10.41	-30.0	-31.7	12.4	1.16e-04	0	41	0	74448896	20	4409
2026-01-16 10:49:53.24	174.82	10.49	-29.8	-31.2	12.8	1.27e-04	0	41	0	76546048	20	4232
2026-01-16 10:49:54.25	174.85	10.58	-29.6	-30.7	13.1	3.12e-05	0	41	0	78643200	20	4094
2026-01-16 10:49:55.25	174.89	10.67	-29.5	-30.5	13.3	1.90e-05	0	41	0	79691776	20	4029
2026-01-16 10:49:56.25	174.92	10.76	-29.4	-30.2	13.5	1.29e-05	0	41	0	81788928	20	3943
2026-01-16 10:49:57.26	174.96	10.85	-29.5	-30.4	13.3	1.98e-05	0	41	0	83886080	20	4014
2026-01-16 10:49:58.26	175.00	10.94	-29.4	-30.3	13.4	1.90e-05	0	41	0	85983232	20	3962
2026-01-16 10:49:59.26	175.03	11.03	-29.5	-30.5	13.3	2.89e-05	0	41	0	88080384	20	4035
2026-01-16 10:50:00.26	175.07	11.12	-29.4	-30.1	13.6	1.22e-05	0	41	0	89128960	20	3925
2026-01-16 10:50:01.26	175.11	11.21	-29.5	-30.3	13.4	1.60e-05	0	41	0	91226112	20	3979
2026-01-16 10:50:02.26	175.14	11.30	-29.5	-30.4	13.4	1.29e-05	0	41	0	93323264	20	3986
2026-01-16 10:50:03.25	175.18	11.39	-29.6	-30.7	13.2	2.67e-05	0	41	0	95420416	20	4080
2026-01-16 10:50:04.26	175.22	11.48	-29.4	-30.2	13.5	7.60e-06	0	41	0	97517568	20	3955
2026-01-16 10:50:05.26	175.26	11.57	-29.6	-30.6	13.3	2.05e-05	0	41	0	98566144	20	4069
2026-01-16 10:50:06.26	175.29	11.66	-29.5	-30.5	13.4	1.52e-05	0	41	0	100663296	20	4020
2026-01-16 10:50:07.26	175.33	11.75	-29.5	-30.3	13.4	1.37e-05	0	42	0	102760448	20	3976
2026-01-16 10:50:08.27	175.37	11.85	-29.6	-30.7	13.2	2.05e-05	0	41	0	104857600	20	4069
2026-01-16 10:50:09.27	175.41	11.94	-29.5	-30.3	13.5	1.83e-05	0	42	0	106954752	20	3979
2026-01-16 10:50:10.27	175.45	12.03	-29.5	-30.4	13.5	1.22e-05	0	42	0	108003328	20	3997
2026-01-16 10:50:11.27	175.49	12.12	-29.6	-30.5	13.4	1.22e-05	0	42	0	110100480	20	4021
2026-01-16 10:50:12.27	175.53	12.22	-29.5	-30.4	13.5	1.44e-05	0	42	0	112197632	20	3990
2026-01-16 10:50:13.27	175.57	12.31	-29.5	-30.3	13.6	1.37e-05	0	41	0	114294784	20	3958
2026-01-16 10:50:14.26	175.61	12.41	-29.5	-30.4	13.5	1.37e-05	0	41	0	116391936	20	3971
2026-01-16 10:50:15.26	175.65	12.50	-29.4	-30.0	13.7	6.80e-06	0	42	0	117440512	20	3883
2026-01-16 10:50:16.27	175.69	12.60	-29.4	-30.3	13.6	9.90e-06	0	42	0	119537664	20	3950
2026-01-16 10:50:17.27	175.73	12.69	-29.4	-30.1	13.8	6.80e-06	0	41	0	121634816	20	3888
2026-01-16 10:50:18.27	175.77	12.79	-29.3	-29.9	13.8	4.50e-06	0	42	0	123731968	20	3854
2026-01-16 10:50:19.28	175.81	12.88	-29.4	-30.2	13.7	1.06e-05	0	42	0	124780544	20	3918
2026-01-16 10:50:20.27	175.85	12.98	-29.5	-30.7	13.7	6.10e-06	0	42	0	126877696	19	4154
2026-01-16 10:50:21.28	175.89	13.08	-29.5	-30.8	13.7	3.80e-06	0	41	0	128974848	19	4182
2026-01-16 10:50:22.28	175.93	13.17	-29.4	-30.7	13.8	1.14e-05	0	42	0	131072000	19	4143
2026-01-16 10:50:23.29	175.98	13.27	-29.5	-30.7	13.8	9.10e-06	0	42	0	133169152	19	4155
2026-01-16 10:50:24.29	176.02	13.37	-29.6	-31.0	13.6	1.14e-05	0	42	0	134217728	19	4247
2026-01-16 10:50:25.29	176.06	13.47	-29.7	-31.2	13.4	2.74e-05	0	42	0	136314880	19	4312
2026-01-16 10:50:26.29	176.10	13.57	-29.5	-30.8	13.7	4.50e-06	0	42	0	138412032	19	4175
2026-01-16 10:50:27.29	176.15	13.67	-29.6	-31.0	13.6	4.50e-06	0	42	0	140509184	19	4253
2026-01-16 10:50:28.30	176.19	13.77	-29.6	-30.9	13.7	1.98e-05	0	42	0	142606336	19	4215
2026-01-16 10:50:29.30	176.24	13.87	-29.5	-30.8	13.7	6.10e-06	0	42	0	143654912	19	4181
2026-01-16 10:50:30.30	176.28	13.97	-29.6	-31.1	13.6	9.90e-06	0	42	0	145752064	19	4259
2026-01-16 10:50:31.30	176.32	14.07	-29.7	-31.3	13.4	2.13e-05	0	42	0	147849216	19	4339
2026-01-16 10:50:32.30	176.37	14.17	-29.6	-31.1	13.5	6.10e-06	0	42	0	149946368	19	4284
2026-01-16 10:50:33.30	176.41	14.27	-29.6	-30.9	13.6	9.10e-06	0	42	0	152043520	19	4216
2026-01-16 10:50:34.31	176.46	14.37	-29.6	-30.9	13.7	1.67e-05	0	42	0	153092096	19	4212
2026-01-16 10:50:35.31	176.50	14.48	-29.7	-31.2	13.5	8.30e-06	0	42	0	155189248	19	4314
2026-01-16 10:50:36.31	176.55	14.58	-29.6	-31.1	13.6	7.60e-06	0	42	0	157286400	19	4276
2026-01-16 10:50:37.31	176.59	14.68	-29.4	-30.5	13.9	1.29e-05	0	42	0	159383552	19	4082
2026-01-16 10:50:38.31	176.64	14.79	-29.5	-30.8	13.8	9.90e-06	0	42	0	160432128	19	4177
2026-01-16 10:50:39.30	176.69	14.89	-29.5	-30.8	13.8	3.80e-06	0	42	0	162529280	19	4162
2026-01-16 10:50:40.31	176.73	14.99	-29.7	-31.3	13.5	1.52e-05	0	42	0	164626432	19	4329
2026-01-16 10:50:41.31	176.78	15.10	-29.6	-31.0	13.7	1.06e-05	0	42	0	166723584	19	4221
2026-01-16 10:50:42.32	176.83	15.21	-29.6	-30.9	13.8	3.80e-06	0	42	0	168820736	19	4199
2026-01-16 10:50:43.31	176.88	15.31	-29.7	-31.2	13.6	4.50e-06	0	42	0	169869312	19	4281
2026-01-16 10:50:44.31	176.92	15.42	-29.8	-31.5	13.4	1.98e-05	0	42	0	171966464	19	4388
2026-01-16 10:50:45.31	176.97	15.52	-29.7	-31.2	13.6	1.37e-05	0	42	0	174063616	19	4294
2026-01-16 10:50:46.32	177.02	15.63	-29.8	-31.6	13.3	1.06e-05	0	42	0	176160768	19	4421
2026-01-16 10:50:47.32	177.07	15.74	-29.8	-31.5	13.4	1.44e-05	0	42	0	178257920	19	4378
2026-01-16 10:50:48.32	177.12	15.85	-29.6	-31.1	13.6	9.10e-06	0	42	0	179306496	19	4273
2026-01-16 10:50:49.32	177.17	15.96	-29.7	-31.2	13.6	7.60e-06	0	42	0	181403648	19	4310
2026-01-16 10:50:50.32	177.22	16.06	-29.9	-31.7	13.2	2.28e-05	0	42	0	183500800	19	4454
2026-01-16 10:50:51.32	177.27	16.17	-29.6	-31.1	13.6	5.30e-06	0	42	0	185597952	19	4266
2026-01-16 10:50:52.32	177.32	16.28	-29.6	-30.9	13.8	6.10e-06	0	42	0	187695104	19	4215
2026-01-16 10:50:53.32	177.37	16.39	-29.6	-30.9	13.8	7.60e-06	0	42	0	188743680	19	4201
2026-01-16 10:50:54.32	177.42	16.51	-29.5	-30.8	13.8	3.00e-06	0	42	0	190840832	19	4180
2026-01-16 10:50:55.33	177.48	16.62	-29.6	-31.0	13.7	1.06e-05	0	42	0	192937984	19	4234
2026-01-16 10:50:56.33	177.53	16.73	-29.6	-31.0	13.8	3.80e-06	0	42	0	195035136	19	4216
2026-01-16 10:50:57.32	177.58	16.84	-29.5	-30.7	13.9	6.80e-06	0	42	0	197132288	19	4154
2026-01-16 10:50:58.32	177.63	16.95	-29.5	-30.7	13.9	1.50e-06	0	42	0	198180864	19	4146
2026-01-16 10:50:59.32	177.69	17.07	-29.6	-31.1	13.7	8.30e-06	0	42	0	200278016	19	4266
2026-01-16 10:51:00.32	177.74	17.18	-29.5	-30.8	13.9	4.50e-06	0	42	0	202375168	19	4155
2026-01-16 10:51:01.32	177.79	17.30	-29.7	-31.3	13.7	6.10e-06	0	42	0	204472320	19	4304
2026-01-16 10:51:02.33	177.85	17.41	-29.6	-31.1	13.7	6.10e-06	0	42	0	205520896	19	4241
2026-01-16 10:51:03.33	177.90	17.53	-29.8	-31.7	13.4	1.14e-05	0	42	0	207618048	19	4441
2026-01-16 10:51:04.33	177.96	17.64	-29.7	-31.3	13.6	1.14e-05	0	42	0	209715200	19	4323
2026-01-16 10:51:05.33	178.01	17.76	-29.7	-31.3	13.6	6.80e-06	0	42	0	211812352	19	4324
2026-01-16 10:51:06.33	178.07	17.88	-29.9	-31.8	13.2	1.67e-05	0	42	0	213909504	19	4493
2026-01-16 10:51:07.33	178.13	17.99	-29.9	-31.8	13.3	8.30e-06	0	42	0	214958080	19	4484
2026-01-16 10:51:08.33	178.18	18.11	-30.0	-32.0	13.1	2.05e-05	0	42	0	217055232	19	4568
2026-01-16 10:51:09.33	178.24	18.23	-30.0	-31.7	12.9	2.89e-05	0	42	0	219152384	20	4387
2026-01-16 10:51:10.32	178.30	18.35	-30.0	-31.7	13.0	4.88e-05	0	42	0	221249536	20	4365
2026-01-16 10:51:11.32	178.36	18.47	-29.9	-31.3	13.2	1.98e-05	0	42	0	223346688	20	4239
2026-01-16 10:51:12.32	178.41	18.59	-29.9	-31.4	13.1	1.75e-05	0	42	0	224395264	20	4294
2026-01-16 10:51:13.33	178.47	18.71	-29.8	-31.2	13.3	2.05e-05	0	42	0	226492416	20	4235
2026-01-16 10:51:14.33	178.53	18.83	-29.8	-31.1	13.4	1.52e-05	0	42	0	228589568	20	4179
2026-01-16 10:51:15.33	178.59	18.95	-29.8	-31.2	13.3	2.51e-05	0	42	0	230686720	20	4219
2026-01-16 10:51:16.33	178.65	19.08	-29.8	-31.1	13.4	1.83e-05	0	42	0	231735296	20	4170
2026-01-16 10:51:17.33	178.71	19.20	-29.8	-31.2	13.3	2.67e-05	0	42	0	233832448	20	4216
2026-01-16 10:51:18.32	178.77	19.32	-29.9	-31.4	13.2	2.44e-05	0	42	0	235929600	20	4286
2026-01-16 10:51:19.31	178.84	19.45	-29.9	-31.3	13.3	2.74e-05	0	42	0	238026752	20	4235
2026-01-16 10:51:20.31	178.90	19.57	-30.0	-31.5	13.2	2.44e-05	0	42	0	240123904	20	4303
2026-01-16 10:51:21.32	178.96	19.70	-30.0	-31.6	13.1	3.20e-05	0	42	0	241172480	20	4317
2026-01-16 10:51:22.31	179.02	19.82	-30.1	-31.8	12.9	3.58e-05	0	42	0	243269632	20	4408
2026-01-16 10:51:23.32	179.09	19.95	-30.1	-31.8	13.0	3.28e-05	0	42	0	245366784	20	4398
2026-01-16 10:51:24.32	179.15	20.08	-30.2	-32.3	12.6	7.93e-05	0	42	0	247463936	20	4549
2026-01-16 10:51:25.32	179.22	20.21	-30.2	-32.1	12.8	5.34e-05	0	42	0	249561088	20	4491
2026-01-16 10:51:26.32	179.28	20.33	-30.0	-31.6	13.1	4.04e-05	0	42	0	250609664	20	4315
2026-01-16 10:51:27.33	179.35	20.46	-30.0	-31.6	13.2	3.35e-05	0	42	0	252706816	20	4306
2026-01-16 10:51:28.34	179.41	20.60	-29.9	-31.3	13.4	2.74e-05	0	42	0	254803968	20	4211
2026-01-16 10:51:29.33	179.48	20.72	-29.9	-31.2	13.4	2.82e-05	0	42	0	256901120	20	4170
2026-01-16 10:51:30.33	179.55	20.86	-30.0	-31.6	13.2	2.13e-05	0	42	0	258998272	20	4314
2026-01-16 10:51:31.33	179.62	20.99	-30.1	-31.7	13.2	2.44e-05	0	42	0	260046848	20	4329
2026-01-16 10:51:32.33	179.68	21.12	-29.8	-31.0	13.6	1.22e-05	0	42	0	262144000	20	4106
2026-01-16 10:51:33.33	179.75	21.25	-29.9	-31.1	13.6	5.30e-06	0	42	0	264241152	20	4136
2026-01-16 10:51:34.33	179.82	21.39	-29.7	-30.7	13.8	2.20e-06	0	42	0	266338304	20	4025
2026-01-16 10:51:35.33	179.89	21.52	-29.8	-31.0	13.6	6.10e-06	0	42	0	267386880	20	4102
2026-01-16 10:51:36.33	179.96	21.66	-29.6	-30.4	14.0	3.80e-06	0	42	0	269484032	20	3928
2026-01-16 10:51:37.33	180.03	21.79	-29.9	-31.1	13.6	6.10e-06	0	42	0	271581184	20	4134
2026-01-16 10:51:38.33	180.11	21.93	-29.9	-31.2	13.5	9.10e-06	0	42	0	273678336	20	4171
2026-01-16 10:51:39.33	180.18	22.07	-29.8	-30.9	13.7	6.80e-06	0	42	0	275775488	20	4086
2026-01-16 10:51:40.33	180.25	22.20	-29.8	-30.9	13.6	7.60e-06	0	42	0	276824064	20	4094
2026-01-16 10:51:41.33	180.32	22.34	-29.8	-30.9	13.7	6.10e-06	0	42	0	278921216	20	4074
2026-01-16 10:51:42.33	180.40	22.48	-29.8	-31.0	13.6	8.30e-06	0	42	0	281018368	20	4104
2026-01-16 10:51:43.33	180.47	22.62	-29.9	-31.0	13.6	8.30e-06	0	42	0	283115520	20	4123
2026-01-16 10:51:44.34	180.55	22.76	-30.0	-31.3	13.5	8.30e-06	0	42	0	285212672	20	4194
2026-01-16 10:51:45.34	180.63	22.91	-29.8	-31.0	13.7	1.29e-05	0	42	0	286261248	20	4104
2026-01-16 10:51:46.34	180.70	23.05	-29.9	-31.1	13.6	1.06e-05	0	42	0	288358400	20	4149
2026-01-16 10:51:47.35	180.78	23.19	-30.1	-31.8	13.2	2.97e-05	0	42	0	290455552	20	4363
2026-01-16 10:51:48.35	180.86	23.34	-30.0	-31.4	13.5	1.06e-05	0	42	0	292552704	20	4223
2026-01-16 10:51:49.34	180.94	23.48	-30.2	-32.1	13.0	1.29e-05	0	42	0	294649856	20	4446
2026-01-16 10:51:50.34	181.02	23.63	-30.3	-32.1	13.0	5.49e-05	0	42	0	295698432	20	4447
2026-01-16 10:51:51.34	181.10	23.77	-30.1	-31.8	13.3	3.73e-05	0	42	0	297795584	20	4336
2026-01-16 10:51:52.34	181.18	23.92	-30.3	-32.2	12.9	2.89e-05	0	42	0	299892736	20	4492
2026-01-16 10:51:53.34	181.26	24.07	-30.2	-31.9	13.1	2.97e-05	0	42	0	301989888	20	4386
2026-01-16 10:51:54.34	181.34	24.21	-30.0	-31.4	13.4	1.83e-05	0	42	0	303038464	20	4240
2026-01-16 10:51:55.34	181.43	24.36	-29.9	-31.1	13.6	1.14e-05	0	42	0	305135616	20	4129
2026-01-16 10:51:56.34	181.51	24.51	-29.9	-31.1	13.7	9.90e-06	0	42	0	307232768	20	4117
2026-01-16 10:51:57.33	181.59	24.66	-29.7	-30.6	14.0	6.80e-06	0	42	0	309329920	20	3993
2026-01-16 10:51:58.34	181.68	24.82	-29.6	-30.3	14.2	3.80e-06	0	42	0	311427072	20	3906
2026-01-16 10:51:59.34	181.77	24.97	-29.7	-30.6	14.0	2.20e-06	0	42	0	312475648	20	3975
2026-01-16 10:52:00.34	181.85	25.12	-29.4	-29.7	14.6	2.20e-06	0	42	0	314572800	20	3739
2026-01-16 10:52:01.35	181.94	25.28	-29.3	-29.6	14.6	7.00e-07	0	42	0	316669952	20	3708
2026-01-16 10:52:02.35	182.03	25.43	-29.4	-30.4	14.5	0.00e+00	0	42	0	318767104	19	4012
2026-01-16 10:52:03.35	182.12	25.59	-29.2	-29.8	14.9	3.00e-06	0	43	0	320864256	19	3852
2026-01-16 10:52:04.35	182.21	25.74	-29.2	-29.7	15.0	7.00e-07	0	42	0	321912832	19	3807
2026-01-16 10:52:05.36	182.30	25.90	-29.0	-29.3	15.1	7.00e-07	0	42	0	324009984	19	3727
2026-01-16 10:52:06.36	182.40	26.06	-28.9	-28.9	15.4	3.80e-06	0	42	0	326107136	19	3609
2026-01-16 10:52:07.36	182.49	26.22	-28.9	-28.9	15.4	0.00e+00	0	42	0	328204288	19	3618
2026-01-16 10:52:08.35	182.58	26.38	-28.7	-29.0	15.7	0.00e+00	0	42	0	329252864	18	3715
2026-01-16 10:52:09.35	182.68	26.54	-28.7	-29.1	15.6	7.00e-07	0	43	0	331350016	18	3740
2026-01-16 10:52:10.36	182.77	26.70	-28.6	-28.7	15.8	0.00e+00	0	42	0	333447168	18	3642
2026-01-16 10:52:11.36	182.87	26.87	-28.7	-29.0	15.7	0.00e+00	0	42	0	335544320	18	3724
2026-01-16 10:52:12.35	182.97	27.03	-28.7	-29.0	15.7	0.00e+00	0	43	0	337641472	18	3717
2026-01-16 10:52:13.35	183.07	27.19	-28.8	-29.2	15.6	0.00e+00	0	42	0	338690048	18	3777
2026-01-16 10:52:14.35	183.17	27.36	-28.8	-29.3	15.6	0.00e+00	0	42	0	340787200	18	3786
2026-01-16 10:52:15.35	183.27	27.52	-28.9	-29.5	15.4	7.00e-07	0	42	0	342884352	18	3853
2026-01-16 10:52:16.35	183.37	27.69	-29.3	-30.4	14.9	0.00e+00	0	43	0	344981504	18	4110
2026-01-16 10:52:17.36	183.47	27.86	-29.1	-30.0	15.1	0.00e+00	0	42	0	347078656	18	3981
2026-01-16 10:52:18.36	183.58	28.03	-29.2	-30.3	15.0	2.20e-06	0	43	0	348127232	18	4063
2026-01-16 10:52:19.37	183.68	28.20	-29.1	-29.9	15.3	0.00e+00	0	42	0	350224384	18	3947
2026-01-16 10:52:20.37	183.79	28.37	-29.3	-30.4	14.9	7.00e-07	0	42	0	352321536	18	4100
2026-01-16 10:52:21.37	183.89	28.54	-29.4	-30.6	14.8	1.50e-06	0	42	0	354418688	18	4161
2026-01-16 10:52:22.37	184.00	28.72	-29.4	-30.2	14.7	0.00e+00	0	42	0	356515840	19	3944
2026-01-16 10:52:23.37	184.11	28.89	-29.5	-30.6	14.5	7.00e-07	0	42	0	357564416	19	4059
2026-01-16 10:52:24.36	184.22	29.06	-29.6	-30.7	14.4	0.00e+00	0	42	0	359661568	19	4095
2026-01-16 10:52:25.36	184.33	29.24	-29.7	-30.9	14.3	3.00e-06	0	42	0	361758720	19	4157
2026-01-16 10:52:26.36	184.45	29.42	-29.8	-31.3	14.0	3.80e-06	0	42	0	363855872	19	4277
2026-01-16 10:52:27.36	184.56	29.59	-29.9	-31.5	13.9	7.00e-07	0	43	0	365953024	19	4328
2026-01-16 10:52:28.36	184.67	29.77	-30.0	-31.4	13.7	8.30e-06	0	42	0	367001600	20	4200
2026-01-16 10:52:29.37	184.79	29.95	-29.9	-31.2	13.8	6.10e-06	0	42	0	369098752	20	4139
2026-01-16 10:52:30.38	184.91	30.14	-30.1	-31.6	13.5	9.10e-06	0	42	0	371195904	20	4271
2026-01-16 10:52:31.38	185.03	30.32	-30.1	-31.5	13.5	1.22e-05	0	42	0	373293056	20	4244
2026-01-16 10:52:32.38	185.15	30.50	-30.2	-31.8	13.4	1.14e-05	0	43	0	374341632	20	4344
2026-01-16 10:52:33.38	185.27	30.69	-30.4	-32.3	13.1	2.51e-05	0	42	0	376438784	20	4481
2026-01-16 10:52:34.39	185.40	30.87	-30.4	-32.5	13.0	2.67e-05	0	42	0	378535936	20	4546
2026-01-16 10:52:35.38	185.52	31.06	-30.7	-32.7	12.4	4.27e-05	0	42	0	380633088	21	4530
2026-01-16 10:52:36.39	185.65	31.25	-30.7	-32.6	12.5	1.41e-04	0	42	0	382730240	21	4510
2026-01-16 10:52:37.39	185.77	31.43	-31.1	-33.3	11.8	3.01e-04	0	42	0	383778816	22	4646
2026-01-16 10:52:38.39	185.90	31.62	-31.0	-33.3	11.8	4.71e-04	0	42	0	385875968	22	4641
2026-01-16 10:52:39.39	186.03	31.81	-31.0	-33.0	11.9	7.75e-04	0	42	0	387973120	22	4551
2026-01-16 10:52:40.40	186.17	32.01	-31.3	-33.9	11.3	1.31e-03	0	42	0	390070272	22	4888
2026-01-16 10:52:41.40	186.30	32.20	-31.1	-33.3	11.7	7.21e-04	0	42	0	392167424	22	4671
2026-01-16 10:52:42.40	186.43	32.39	-31.5	-34.1	10.7	1.42e-03	0	42	0	393216000	23	4882
2026-01-16 10:52:43.40	186.57	32.59	-31.2	-33.2	11.4	1.04e-03	0	42	0	395313152	23	4528
2026-01-16 10:52:44.39	186.71	32.78	-31.4	-33.8	11.0	1.92e-03	0	43	0	397410304	23	4745
2026-01-16 10:52:45.38	186.84	32.98	-31.4	-33.8	11.0	1.40e-03	0	42	0	399507456	23	4759
2026-01-16 10:52:46.38	186.99	33.17	-31.4	-33.8	11.0	1.54e-03	0	43	0	401604608	23	4758
2026-01-16 10:52:47.38	187.13	33.37	-31.4	-33.9	11.0	2.01e-03	0	42	0	402653184	23	4780
2026-01-16 10:52:48.38	187.27	33.57	-31.4	-33.9	11.0	1.17e-03	0	42	0	404750336	23	4780
2026-01-16 10:52:49.39	187.42	33.78	-31.7	-34.8	10.3	3.32e-03	0	43	0	406847488	23	5132
2026-01-16 10:52:50.39	187.57	33.98	-31.8	-35.1	10.1	6.72e-03	0	43	0	408944640	23	5261
2026-01-16 10:52:51.40	187.72	34.18	-32.1	-35.8	9.2	1.17e-02	0	42	0	409993216	24	5494
2026-01-16 10:52:52.40	187.87	34.39	-32.0	-35.3	9.6	1.51e-02	0	42	0	412090368	24	5288
2026-01-16 10:52:53.41	188.03	34.60	-32.1	-35.8	9.2	2.15e-02	0	43	0	414187520	24	5481
2026-01-16 10:52:54.41	188.18	34.80	-32.0	-35.5	9.4	1.98e-02	0	42	0	416284672	24	5360
2026-01-16 10:52:55.40	188.34	35.01	-31.9	-35.1	9.7	1.44e-02	0	42	0	418381824	24	5176
2026-01-16 10:52:56.41	188.50	35.22	-31.9	-34.8	9.9	8.84e-03	0	42	0	419430400	24	5068
2026-01-16 10:52:57.41	188.66	35.43	-31.6	-33.9	10.5	4.21e-03	0	43	0	421527552	24	4705
2026-01-16 10:52:58.41	188.82	35.64	-31.4	-33.4	11.1	2.61e-03	0	42	0	423624704	24	4503
2026-01-16 10:52:59.41	188.99	35.85	-31.3	-32.9	11.3	3.09e-03	0	43	0	425721856	24	4332
2026-01-16 10:53:00.41	189.16	36.07	-31.0	-32.5	11.9	4.73e-04	0	43	0	427819008	23	4300
2026-01-16 10:53:01.42	189.33	36.29	-31.0	-32.4	12.0	4.71e-04	0	42	0	428867584	23	4256
2026-01-16 10:53:02.42	189.50	36.50	-31.0	-32.4	12.1	2.65e-04	0	42	0	430964736	23	4263
2026-01-16 10:53:03.42	189.68	36.72	-30.9	-32.7	12.1	1.50e-04	0	43	0	433061888	22	4437
2026-01-16 10:53:04.43	189.85	36.94	-31.1	-33.4	11.8	4.18e-04	0	42	0	435159040	22	4669
2026-01-16 10:53:05.43	190.03	37.16	-31.6	-34.3	10.8	1.21e-03	0	42	0	437256192	23	4919
2026-01-16 10:53:06.43	190.21	37.38	-31.5	-34.0	10.9	2.21e-03	0	42	0	438304768	23	4827
2026-01-16 10:53:07.43	190.40	37.60	-31.8	-35.1	10.2	2.99e-03	0	42	0	440401920	23	5251
2026-01-16 10:53:08.43	190.58	37.83	-32.0	-35.2	9.6	7.11e-03	0	42	0	442499072	24	5204
2026-01-16 10:53:09.43	190.77	38.05	-32.2	-35.9	9.1	1.67e-02	0	42	0	444596224	24	5557
2026-01-16 10:53:10.43	190.96	38.27	-32.1	-35.7	9.4	1.84e-02	0	42	0	446693376	24	5433
2026-01-16 10:53:11.42	191.16	38.50	-31.8	-34.7	10.0	1.88e-02	0	43	0	447741952	24	5019
2026-01-16 10:53:12.43	191.35	38.73	-32.2	-35.9	9.1	1.89e-02	0	42	0	449839104	24	5508
2026-01-16 10:53:13.43	191.55	38.96	-32.1	-35.5	9.4	1.39e-02	0	43	0	451936256	24	5364
2026-01-16 10:53:14.43	191.76	39.19	-32.2	-36.2	8.9	2.57e-02	0	43	0	454033408	24	5671
2026-01-16 10:53:15.42	191.96	39.42	-32.0	-35.2	9.6	1.94e-02	0	43	0	455081984	24	5212
2026-01-16 10:53:16.42	192.17	39.65	-32.4	-36.7	8.6	2.64e-02	0	42	0	457179136	24	5942
2026-01-16 10:53:17.43	192.38	39.89	-32.1	-35.8	9.2	3.49e-02	0	43	0	459276288	24	5491
2026-01-16 10:53:18.43	192.59	40.12	-32.2	-36.1	9.1	1.64e-02	0	42	0	461373440	24	5616
2026-01-16 10:53:19.44	192.81	40.36	-32.0	-35.3	9.8	1.79e-02	0	42	0	463470592	24	5254
2026-01-16 10:53:20.44	193.03	40.59	-31.7	-34.1	10.5	8.11e-03	0	43	0	464519168	24	4751
2026-01-16 10:53:21.44	193.25	40.83	-31.6	-33.7	10.9	3.36e-03	0	43	0	466616320	24	4616
2026-01-16 10:53:22.43	193.48	41.07	-31.2	-33.2	11.6	1.38e-03	0	43	0	468713472	23	4493
2026-01-16 10:53:23.43	193.71	41.31	-31.1	-32.7	11.9	6.41e-04	0	43	0	470810624	23	4329
2026-01-16 10:53:24.44	193.94	41.55	-30.7	-32.0	12.7	5.56e-05	0	42	0	472907776	22	4215
2026-01-16 10:53:25.44	194.18	41.80	-30.7	-32.2	12.6	5.95e-05	0	43	0	473956352	22	4277
2026-01-16 10:53:26.44	194.42	42.04	-30.5	-31.5	13.1	6.10e-05	0	43	0	476053504	22	4053
2026-01-16 10:53:27.44	194.66	42.28	-30.8	-32.3	12.5	5.49e-05	0	42	0	478150656	22	4302
2026-01-16 10:53:28.45	194.91	42.53	-30.7	-32.1	12.7	9.68e-05	0	42	0	480247808	22	4243
2026-01-16 10:53:29.44	195.16	42.78	-30.9	-32.7	12.3	1.28e-04	0	42	0	482344960	22	4429
2026-01-16 10:53:30.44	195.42	43.02	-31.0	-32.9	12.2	1.10e-04	0	43	0	483393536	22	4481
2026-01-16 10:53:31.44	195.68	43.27	-30.7	-32.1	12.7	3.96e-05	0	42	0	485490688	22	4239
2026-01-16 10:53:32.45	195.94	43.52	-30.9	-32.8	12.3	1.13e-04	0	42	0	487587840	22	4445
2026-01-16 10:53:33.45	196.21	43.77	-31.0	-32.9	12.2	4.62e-04	0	42	0	489684992	22	4489
2026-01-16 10:53:34.45	196.48	44.03	-31.0	-33.1	12.0	3.50e-04	0	43	0	490733568	22	4547
2026-01-16 10:53:35.45	196.75	44.28	-31.0	-33.0	12.0	4.08e-04	0	43	0	492830720	22	4523
2026-01-16 10:53:36.46	197.04	44.53	-31.2	-33.6	11.8	2.72e-04	0	43	0	494927872	22	4725
2026-01-16 10:53:37.45	197.32	44.79	-31.2	-33.6	11.8	5.77e-04	0	42	0	497025024	22	4743
2026-01-16 10:53:38.45	197.61	45.04	-31.4	-34.2	11.3	6.32e-04	0	42	0	499122176	22	4988
2026-01-16 10:53:39.45	197.90	45.30	-31.4	-33.5	11.4	9.06e-04	0	42	0	500170752	23	4627
2026-01-16 10:53:40.45	198.20	45.55	-31.4	-33.7	11.4	9.70e-04	0	42	0	502267904	23	4674
2026-01-16 10:53:41.46	198.50	45.81	-31.3	-33.3	11.5	1.52e-03	0	43	0	504365056	23	4528
2026-01-16 10:53:42.46	198.81	46.07	-31.3	-33.2	11.6	6.19e-04	0	42	0	506462208	23	4515
2026-01-16 10:53:43.45	199.12	46.33	-30.8	-31.9	12.5	3.05e-04	0	42	0	508559360	23	4074
2026-01-16 10:53:44.46	199.44	46.59	-30.5	-31.6	13.1	1.51e-04	0	42	0	509607936	22	4057
2026-01-16 10:53:45.46	199.76	46.85	-30.0	-30.7	13.8	4.50e-06	0	42	0	511705088	21	3904
2026-01-16 10:53:46.47	200.09	47.12	-29.8	-30.2	14.3	7.00e-07	0	42	0	513802240	21	3761
2026-01-16 10:53:47.48	200.43	47.38	-29.8	-30.1	14.3	2.20e-06	0	42	0	515899392	21	3745
2026-01-16 10:53:48.47	200.77	47.64	-29.6	-30.2	14.6	0.00e+00	0	42	0	517996544	20	3839
2026-01-16 10:53:49.47	201.11	47.90	-29.9	-30.8	14.2	7.00e-07	0	42	0	519045120	20	3999
2026-01-16 10:53:50.47	201.46	48.17	-29.8	-30.8	14.3	3.80e-06	0	43	0	521142272	20	4004
2026-01-16 10:53:51.47	201.82	48.43	-30.0	-31.2	13.9	3.00e-06	0	43	0	523239424	20	4128
2026-01-16 10:53:52.48	202.19	48.70	-30.1	-31.5	13.8	3.00e-06	0	42	0	525336576	20	4214
2026-01-16 10:53:53.48	202.56	48.96	-30.3	-32.1	13.4	1.75e-05	0	43	0	527433728	20	4395
2026-01-16 10:53:54.49	202.93	49.23	-30.6	-32.2	13.1	1.14e-05	0	42	0	528482304	21	4345
2026-01-16 10:53:55.49	203.32	49.49	-30.1	-30.8	13.9	1.22e-05	0	42	0	530579456	21	3932
2026-01-16 10:53:56.49	203.71	49.76	-29.8	-30.6	14.4	0.00e+00	0	42	0	532676608	20	3949
2026-01-16 10:53:57.49	204.10	50.02	-30.0	-31.2	14.0	1.50e-06	0	42	0	534773760	20	4130
2026-01-16 10:53:58.50	204.51	50.29	-29.8	-30.7	14.4	1.50e-06	0	42	0	535822336	20	3976
2026-01-16 10:53:59.50	204.92	50.56	-29.8	-30.5	14.3	2.20e-06	0	43	0	537919488	20	3930
2026-01-16 10:54:00.51	205.34	50.83	-29.7	-30.3	14.6	7.00e-07	0	43	0	540016640	20	3873
2026-01-16 10:54:01.51	205.76	51.09	-29.3	-29.4	15.1	7.00e-07	0	42	0	542113792	20	3648
2026-01-16 10:54:02.51	206.19	51.36	-28.8	-29.3	15.9	0.00e+00	0	42	0	544210944	18	3780
2026-01-16 10:54:03.52	206.64	51.63	-28.5	-28.3	16.4	0.00e+00	0	42	0	545259520	18	3534
2026-01-16 10:54:04.52	207.08	51.89	-29.1	-29.9	15.5	0.00e+00	0	43	0	547356672	18	3944
2026-01-16 10:54:05.52	207.54	52.16	-29.7	-31.0	14.6	0.00e+00	0	43	0	549453824	19	4147
2026-01-16 10:54:06.53	208.01	52.42	-29.6	-30.5	14.9	7.00e-07	0	42	0	551550976	19	4007
2026-01-16 10:54:07.53	208.48	52.69	-29.2	-29.5	15.5	0.00e+00	0	43	0	553648128	19	3741
2026-01-16 10:54:08.53	208.96	52.95	-29.2	-29.5	15.5	0.00e+00	0	42	0	554696704	19	3728
2026-01-16 10:54:09.53	209.45	53.21	-29.1	-29.4	15.5	0.00e+00	0	42	0	556793856	19	3709
2026-01-16 10:54:10.54	209.95	53.48	-29.3	-29.8	15.3	0.00e+00	0	43	0	558891008	19	3808
2026-01-16 10:54:11.55	210.46	53.74	-29.3	-29.9	15.2	0.00e+00	0	42	0	560988160	19	3860
2026-01-16 10:54:12.54	210.97	54.00	-30.0	-31.6	14.2	0.00e+00	0	43	0	563085312	19	4335
2026-01-16 10:54:13.55	211.50	54.26	-29.9	-31.0	14.2	0.00e+00	0	42	0	564133888	20	4054
2026-01-16 10:54:14.56	212.04	54.52	-29.3	-29.8	15.3	0.00e+00	0	42	0	566231040	19	3816
2026-01-16 10:54:15.56	212.58	54.78	-28.7	-28.8	16.1	0.00e+00	0	43	0	568328192	18	3646
2026-01-16 10:54:16.56	213.14	55.03	-28.6	-28.7	16.3	0.00e+00	0	42	0	570425344	18	3623
2026-01-16 10:54:17.56	213.70	55.28	-28.5	-28.4	16.4	0.00e+00	0	42	0	572522496	18	3548
2026-01-16 10:54:18.56	214.27	55.54	-28.1	-28.1	16.8	0.00e+00	0	42	0	573571072	17	3576
2026-01-16 10:54:19.56	214.86	55.79	-27.9	-27.6	17.1	0.00e+00	0	42	0	575668224	17	3455
2026-01-16 10:54:20.56	215.45	56.04	-28.2	-28.2	16.7	0.00e+00	0	43	0	577765376	17	3609
2026-01-16 10:54:21.56	216.06	56.28	-28.6	-29.1	16.3	0.00e+00	0	42	0	579862528	17	3823
2026-01-16 10:54:22.56	216.67	56.53	-29.2	-30.1	15.4	7.00e-07	0	42	0	580911104	18	3998
2026-01-16 10:54:23.56	217.30	56.77	-29.4	-30.0	15.1	0.00e+00	0	42	0	583008256	19	3886
2026-01-16 10:54:24.56	217.94	57.01	-29.2	-29.5	15.5	0.00e+00	0	42	0	585105408	19	3736
2026-01-16 10:54:25.56	218.58	57.25	-28.9	-29.4	15.8	0.00e+00	0	43	0	587202560	18	3804
2026-01-16 10:54:26.56	219.24	57.48	-29.0	-29.5	15.8	0.00e+00	0	43	0	589299712	18	3823
2026-01-16 10:54:27.56	219.92	57.72	-29.2	-30.1	15.5	0.00e+00	0	43	0	590348288	18	3995
2026-01-16 10:54:28.56	220.60	57.95	-29.5	-30.4	15.0	0.00e+00	0	43	0	592445440	19	3966
2026-01-16 10:54:29.56	221.29	58.17	-29.3	-29.8	15.2	0.00e+00	0	42	0	594542592	19	3814
2026-01-16 10:54:30.57	222.01	58.40	-29.4	-30.1	15.2	7.00e-07	0	43	0	596639744	19	3883
2026-01-16 10:54:31.57	222.72	58.62	-29.7	-30.8	14.8	0.00e+00	0	43	0	598736896	19	4095
2026-01-16 10:54:32.58	223.46	58.84	-29.6	-30.5	14.9	0.00e+00	0	43	0	599785472	19	4016
2026-01-16 10:54:33.58	224.20	59.06	-29.3	-29.9	15.3	0.00e+00	0	43	0	601882624	19	3834
2026-01-16 10:54:34.58	224.96	59.27	-29.4	-30.0	15.2	0.00e+00	0	43	0	603979776	19	3876
2026-01-16 10:54:35.58	225.72	59.47	-29.5	-30.3	15.0	0.00e+00	0	42	0	606076928	19	3951
2026-01-16 10:54:36.58	226.50	59.67	-29.6	-30.6	15.0	0.00e+00	0	43	0	608174080	19	4027
2026-01-16 10:54:37.58	227.29	59.87	-29.6	-30.5	15.0	0.00e+00	0	42	0	609222656	19	3990
2026-01-16 10:54:38.58	228.09	60.07	-29.8	-31.0	14.6	1.50e-06	0	43	0	611319808	19	4137
2026-01-16 10:54:39.58	228.91	60.26	-30.2	-31.6	13.8	1.50e-06	0	43	0	613416960	20	4242
2026-01-16 10:54:40.57	229.72	60.44	-30.3	-31.4	13.7	1.14e-05	0	43	0	615514112	21	4082
2026-01-16 10:54:41.58	230.57	60.62	-29.7	-30.3	14.6	7.00e-07	0	43	0	617611264	20	3868
2026-01-16 10:54:42.57	231.41	60.79	-29.3	-29.8	15.4	0.00e+00	0	43	0	618659840	19	3812
2026-01-16 10:54:43.58	232.28	60.97	-29.5	-30.2	15.2	0.00e+00	0	42	0	620756992	19	3913
2026-01-16 10:54:44.59	233.16	61.13	-29.0	-29.0	15.8	0.00e+00	0	43	0	622854144	19	3618
2026-01-16 10:54:45.58	234.04	61.29	-29.1	-29.4	15.6	0.00e+00	0	43	0	624951296	19	3715
2026-01-16 10:54:46.59	234.94	61.45	-29.2	-29.6	15.4	0.00e+00	0	42	0	625999872	19	3763
2026-01-16 10:54:47.59	235.85	61.59	-29.4	-30.1	15.2	0.00e+00	0	43	0	628097024	19	3894
2026-01-16 10:54:48.59	236.76	61.74	-29.2	-29.6	15.5	0.00e+00	0	43	0	630194176	19	3762
2026-01-16 10:54:49.60	237.70	61.87	-29.1	-29.2	15.7	0.00e+00	0	43	0	632291328	19	3663
2026-01-16 10:54:50.61	238.65	62.00	-29.0	-29.0	15.9	0.00e+00	0	42	0	634388480	19	3613
2026-01-16 10:54:51.60	239.58	62.13	-28.9	-28.8	15.9	0.00e+00	0	43	0	635437056	19	3555
2026-01-16 10:54:52.60	240.54	62.24	-29.0	-29.1	15.8	0.00e+00	0	43	0	637534208	19	3633
2026-01-16 10:54:53.60	241.50	62.35	-29.1	-29.4	15.6	0.00e+00	0	42	0	639631360	19	3703
2026-01-16 10:54:54.60	242.48	62.46	-29.2	-29.4	15.6	0.00e+00	0	42	0	641728512	19	3718
2026-01-16 10:54:55.60	243.46	62.55	-29.5	-30.2	15.2	0.00e+00	0	42	0	643825664	19	3913
2026-01-16 10:54:56.60	244.45	62.64	-29.8	-31.1	14.7	0.00e+00	0	42	0	644874240	19	4173
2026-01-16 10:54:57.61	245.45	62.73	-29.7	-30.9	14.7	0.00e+00	0	43	0	646971392	19	4099
2026-01-16 10:54:58.61	246.46	62.80	-29.6	-30.5	15.0	0.00e+00	0	43	0	649068544	19	3987
2026-01-16 10:54:59.61	247.46	62.87	-29.4	-30.0	15.3	0.00e+00	0	43	0	651165696	19	3846
2026-01-16 10:55:00.62	248.49	62.93	-29.0	-29.0	15.9	0.00e+00	0	42	0	653262848	19	3618
2026-01-16 10:55:01.62	249.51	62.99	-29.0	-29.6	15.9	0.00e+00	0	42	0	654311424	18	3843
2026-01-16 10:55:02.63	250.54	63.03	-29.6	-30.4	15.0	0.00e+00	0	43	0	656408576	19	3972
2026-01-16 10:55:03.63	251.57	63.07	-30.6	-32.2	13.3	3.80e-06	0	42	0	658505728	21	4324
2026-01-16 10:55:04.64	252.61	63.10	-30.8	-32.2	12.9	1.26e-04	0	43	0	660602880	22	4236
2026-01-16 10:55:05.64	253.64	63.13	-30.7	-31.9	13.2	5.49e-05	0	42	0	662700032	22	4136
2026-01-16 10:55:06.64	254.67	63.14	-30.4	-31.2	13.7	1.52e-05	0	42	0	663748608	22	3928
2026-01-16 10:55:07.64	255.71	63.15	-29.6	-30.1	14.9	0.00e+00	0	42	0	665845760	20	3796
2026-01-16 10:55:08.64	256.74	63.15	-28.5	-28.4	16.5	0.00e+00	0	42	0	667942912	18	3552
2026-01-16 10:55:09.64	257.78	63.14	-28.2	-28.1	16.9	0.00e+00	0	42	0	670040064	17	3576
2026-01-16 10:55:10.64	258.81	63.13	-28.5	-28.9	16.4	0.00e+00	0	42	0	671088640	17	3765
2026-01-16 10:55:11.64	259.84	63.11	-28.9	-29.8	16.0	0.00e+00	0	42	0	673185792	17	4011
2026-01-16 10:55:12.64	260.87	63.08	-28.3	-28.4	16.7	0.00e+00	0	43	0	675282944	17	3635
2026-01-16 10:55:13.65	261.91	63.04	-28.3	-28.4	16.7	0.00e+00	0	42	0	677380096	17	3639
2026-01-16 10:55:14.65	262.93	62.99	-29.0	-29.5	15.9	0.00e+00	0	43	0	679477248	18	3814
2026-01-16 10:55:15.65	263.95	62.94	-29.5	-30.3	15.1	0.00e+00	0	42	0	680525824	19	3932
2026-01-16 10:55:16.66	264.97	62.88	-28.8	-29.0	16.2	3.00e-06	0	43	0	682622976	18	3696
2026-01-16 10:55:17.66	265.98	62.81	-28.0	-27.7	17.2	0.00e+00	0	42	0	684720128	17	3482
2026-01-16 10:55:18.66	266.99	62.74	-28.2	-28.2	16.9	0.00e+00	0	42	0	686817280	17	3585
2026-01-16 10:55:19.67	267.99	62.65	-28.2	-28.2	16.8	3.80e-06	0	42	0	688914432	17	3596
2026-01-16 10:55:20.66	268.97	62.56	-28.1	-27.8	17.1	0.00e+00	0	43	0	689963008	17	3511
2026-01-16 10:55:21.66	269.95	62.47	-28.0	-27.8	17.0	0.00e+00	0	42	0	692060160	17	3507
2026-01-16 10:55:22.66	270.93	62.37	-28.4	-28.8	16.6	0.00e+00	0	42	0	694157312	17	3733
2026-01-16 10:55:23.67	271.90	62.25	-28.4	-28.6	16.7	0.00e+00	0	42	0	696254464	17	3688
2026-01-16 10:55:24.67	272.86	62.14	-28.0	-27.7	17.1	0.00e+00	0	43	0	698351616	17	3468
2026-01-16 10:55:25.67	273.80	62.02	-29.2	-30.0	15.6	0.00e+00	0	43	0	699400192	18	3953
2026-01-16 10:55:26.67	274.74	61.89	-30.2	-31.7	13.9	0.00e+00	0	43	0	701497344	20	4250
2026-01-16 10:55:27.67	275.67	61.75	-30.3	-31.8	13.8	6.80e-06	0	42	0	703594496	20	4294
2026-01-16 10:55:28.67	276.58	61.61	-30.2	-31.5	14.1	2.20e-06	0	43	0	705691648	20	4187
2026-01-16 10:55:29.67	277.49	61.46	-30.6	-32.2	13.3	3.80e-06	0	43	0	707788800	21	4329
2026-01-16 10:55:30.67	278.38	61.31	-30.8	-32.6	13.0	3.12e-05	0	42	0	708837376	21	4467
2026-01-16 10:55:31.66	279.26	61.15	-30.1	-30.8	14.1	1.29e-05	0	42	0	710934528	21	3916
2026-01-16 10:55:32.67	280.14	60.99	-29.9	-30.7	14.5	0.00e+00	0	42	0	713031680	20	3976
2026-01-16 10:55:33.67	281.00	60.82	-30.7	-32.3	13.2	7.00e-07	0	42	0	715128832	21	4366
2026-01-16 10:55:34.67	281.85	60.65	-31.9	-35.2	10.4	1.38e-03	0	42	0	716177408	23	5229
2026-01-16 10:55:35.67	282.69	60.47	-32.4	-35.7	9.2	2.55e-02	0	43	0	718274560	25	5295
2026-01-16 10:55:36.68	283.53	60.28	-31.5	-33.4	11.4	7.58e-03	0	42	0	720371712	24	4453
2026-01-16 10:55:37.69	284.35	60.09	-30.3	-30.9	13.7	9.10e-06	0	43	0	722468864	22	3863
2026-01-16 10:55:38.70	285.16	59.90	-30.1	-30.8	14.1	0.00e+00	0	43	0	724566016	21	3922
2026-01-16 10:55:39.70	285.95	59.70	-30.1	-30.8	14.0	4.50e-06	0	43	0	725614592	21	3913
2026-01-16 10:55:40.69	286.72	59.50	-29.5	-29.9	15.0	7.00e-07	0	42	0	727711744	20	3740
2026-01-16 10:55:41.69	287.48	59.29	-29.7	-30.4	14.7	0.00e+00	0	43	0	729808896	20	3894
2026-01-16 10:55:42.69	288.24	59.08	-30.6	-32.2	13.2	9.90e-06	0	42	0	731906048	21	4316
2026-01-16 10:55:43.69	288.98	58.87	-30.4	-31.5	13.7	4.34e-05	0	43	0	734003200	21	4108
2026-01-16 10:55:44.69	289.71	58.65	-29.9	-30.9	14.5	7.00e-07	0	42	0	735051776	20	4016
2026-01-16 10:55:45.69	290.43	58.43	-30.6	-32.2	13.4	3.00e-06	0	43	0	737148928	21	4331
2026-01-16 10:55:46.69	291.14	58.21	-30.6	-32.2	13.3	5.03e-05	0	43	0	739246080	21	4319
2026-01-16 10:55:47.69	291.83	57.99	-29.7	-30.3	14.7	3.80e-06	0	42	0	741343232	20	3871
2026-01-16 10:55:48.69	292.51	57.76	-29.6	-30.2	14.8	0.00e+00	0	42	0	742391808	20	3830
2026-01-16 10:55:49.69	293.18	57.52	-30.1	-31.4	14.1	5.30e-06	0	43	0	744488960	20	4162
2026-01-16 10:55:50.70	293.85	57.29	-29.8	-30.5	14.6	3.00e-06	0	42	0	746586112	20	3909
2026-01-16 10:55:51.70	294.50	57.05	-29.2	-29.6	15.6	0.00e+00	0	42	0	748683264	19	3749
2026-01-16 10:55:52.70	295.14	56.81	-29.9	-31.4	14.5	0.00e+00	0	43	0	750780416	19	4259
2026-01-16 10:55:53.71	295.77	56.57	-30.1	-31.4	14.1	1.50e-06	0	42	0	751828992	20	4176
2026-01-16 10:55:54.71	296.39	56.32	-29.6	-30.1	14.8	7.00e-07	0	43	0	753926144	20	3807
2026-01-16 10:55:55.71	296.99	56.08	-29.7	-30.2	14.8	0.00e+00	0	42	0	756023296	20	3838
2026-01-16 10:55:56.71	297.59	55.83	-29.9	-30.7	14.5	0.00e+00	0	42	0	758120448	20	3975
2026-01-16 10:55:57.71	298.17	55.58	-30.2	-31.6	13.9	0.00e+00	0	42	0	760217600	20	4231
2026-01-16 10:55:58.71	298.74	55.33	-29.5	-29.8	15.0	0.00e+00	0	43	0	761266176	20	3720
2026-01-16 10:55:59.71	299.31	55.08	-28.3	-28.0	16.7	0.00e+00	0	42	0	763363328	18	3464
2026-01-16 10:56:00.71	299.86	54.82	-28.2	-28.1	16.9	0.00e+00	0	42	0	765460480	17	3568
2026-01-16 10:56:01.72	300.41	54.56	-28.6	-29.0	16.4	0.00e+00	0	42	0	767557632	17	3793
2026-01-16 10:56:02.72	300.95	54.31	-28.8	-29.5	16.1	0.00e+00	0	42	0	769654784	17	3927
2026-01-16 10:56:03.71	301.46	54.05	-29.6	-30.6	14.9	0.00e+00	0	43	0	770703360	19	4028
2026-01-16 10:56:04.72	301.99	53.79	-29.6	-30.2	14.8	0.00e+00	0	42	0	772800512	20	3821
2026-01-16 10:56:05.72	302.49	53.53	-29.0	-29.0	15.9	0.00e+00	0	43	0	774897664	19	3599
2026-01-16 10:56:06.73	302.99	53.27	-28.2	-28.1	17.0	0.00e+00	0	42	0	776994816	17	3572
2026-01-16 10:56:07.73	303.48	53.01	-27.8	-27.9	17.3	0.00e+00	0	42	0	779091968	16	3609
2026-01-16 10:56:08.73	303.96	52.74	-28.4	-29.1	16.6	0.00e+00	0	42	0	780140544	16	3903
2026-01-16 10:56:09.73	304.44	52.48	-27.8	-27.7	17.4	0.00e+00	0	42	0	782237696	16	3575
2026-01-16 10:56:10.73	304.90	52.22	-27.7	-27.6	17.4	0.00e+00	0	43	0	784334848	16	3556
2026-01-16 10:56:11.74	305.36	51.95	-27.7	-27.4	17.5	0.00e+00	0	42	0	786432000	16	3512
2026-01-16 10:56:12.74	305.81	51.69	-28.3	-28.9	16.7	0.00e+00	0	42	0	788529152	16	3860
2026-01-16 10:56:13.74	306.25	51.42	-29.2	-30.0	15.5	0.00e+00	0	42	0	789577728	18	3959
2026-01-16 10:56:14.75	306.68	51.16	-29.5	-30.8	15.1	0.00e+00	0	43	0	791674880	18	4190
2026-01-16 10:56:15.75	307.11	50.89	-29.4	-30.0	15.3	0.00e+00	0	43	0	793772032	19	3876
2026-01-16 10:56:16.76	307.53	50.63	-28.8	-28.5	16.1	0.00e+00	0	42	0	795869184	19	3488
2026-01-16 10:56:17.76	307.94	50.36	-27.8	-27.8	17.3	0.00e+00	0	42	0	797966336	16	3591
2026-01-16 10:56:18.77	308.34	50.09	-28.5	-29.4	16.5	0.00e+00	0	43	0	799014912	16	3977
2026-01-16 10:56:19.77	308.74	49.83	-29.8	-31.0	14.6	0.00e+00	0	42	0	801112064	19	4157
2026-01-16 10:56:20.77	309.13	49.57	-31.4	-33.9	11.6	4.27e-05	0	43	0	803209216	22	4843
2026-01-16 10:56:21.77	309.51	49.30	-31.4	-33.5	11.4	9.80e-04	0	42	0	805306368	23	4612
2026-01-16 10:56:22.77	309.89	49.04	-30.6	-31.7	13.1	9.38e-05	0	42	0	806354944	22	4085
2026-01-16 10:56:23.77	310.26	48.77	-30.7	-31.9	13.2	1.83e-05	0	43	0	808452096	22	4139
2026-01-16 10:56:24.77	310.62	48.51	-31.8	-34.9	10.7	1.79e-04	0	42	0	810549248	23	5106
2026-01-16 10:56:25.77	310.98	48.25	-32.4	-36.3	9.2	1.40e-02	0	43	0	812646400	24	5665
2026-01-16 10:56:26.77	311.33	47.99	-32.4	-36.4	9.1	1.45e-02	0	42	0	814743552	24	5695
2026-01-16 10:56:27.78	311.68	47.72	-32.3	-36.0	9.3	2.39e-02	0	42	0	815792128	24	5549
2026-01-16 10:56:28.78	312.02	47.46	-32.2	-35.8	9.5	1.37e-02	0	42	0	817889280	24	5428
2026-01-16 10:56:29.79	312.35	47.20	-32.0	-35.2	10.0	8.95e-03	0	42	0	819986432	24	5151
2026-01-16 10:56:30.79	312.68	46.94	-31.4	-32.9	11.6	2.02e-03	0	43	0	822083584	24	4310
2026-01-16 10:56:31.79	313.00	46.68	-30.9	-32.1	12.6	2.39e-04	0	42	0	824180736	23	4107
2026-01-16 10:56:32.79	313.32	46.42	-31.0	-32.8	12.4	1.73e-04	0	43	0	825229312	22	4423
2026-01-16 10:56:33.79	313.64	46.16	-31.8	-34.6	10.8	1.35e-03	0	42	0	827326464	23	5008
2026-01-16 10:56:34.79	313.94	45.90	-32.4	-36.3	9.2	7.60e-03	0	42	0	829423616	24	5688
2026-01-16 10:56:35.79	314.25	45.65	-32.4	-36.3	9.2	2.03e-02	0	43	0	831520768	24	5653
2026-01-16 10:56:36.80	314.55	45.39	-31.5	-33.2	11.4	4.23e-03	0	42	0	833617920	24	4397
2026-01-16 10:56:37.80	314.84	45.13	-31.1	-32.7	12.2	4.11e-04	0	42	0	834666496	23	4294
2026-01-16 10:56:38.81	315.13	44.88	-31.1	-32.7	12.2	2.92e-04	0	43	0	836763648	23	4325
2026-01-16 10:56:39.80	315.41	44.63	-31.7	-34.4	11.0	8.12e-04	0	42	0	838860800	23	4944
2026-01-16 10:56:40.81	315.70	44.37	-32.2	-35.7	9.6	5.09e-03	0	42	0	840957952	24	5372
2026-01-16 10:56:41.81	315.97	44.12	-31.3	-32.7	11.6	4.27e-03	0	42	0	843055104	24	4245
2026-01-16 10:56:42.81	316.24	43.87	-29.9	-30.5	14.1	1.67e-05	0	43	0	844103680	21	3826
2026-01-16 10:56:43.81	316.51	43.62	-29.3	-29.7	15.3	0.00e+00	0	42	0	846200832	19	3801
2026-01-16 10:56:44.82	316.78	43.37	-29.2	-29.7	15.2	0.00e+00	0	42	0	848297984	19	3805
2026-01-16 10:56:45.82	317.04	43.12	-29.8	-31.1	14.5	0.00e+00	0	42	0	850395136	19	4173
2026-01-16 10:56:46.81	317.29	42.88	-30.2	-31.7	13.7	3.80e-06	0	43	0	851443712	20	4270
2026-01-16 10:56:47.81	317.54	42.63	-30.5	-32.0	13.2	9.10e-06	0	43	0	853540864	21	4262
2026-01-16 10:56:48.81	317.79	42.39	-30.6	-32.2	13.1	3.12e-05	0	42	0	855638016	21	4326
2026-01-16 10:56:49.80	318.03	42.15	-30.4	-31.8	13.3	3.20e-05	0	42	0	857735168	21	4226
2026-01-16 10:56:50.81	318.27	41.90	-29.6	-30.0	14.7	1.50e-06	0	42	0	859832320	20	3803
2026-01-16 10:56:51.81	318.51	41.66	-28.9	-28.8	15.8	0.00e+00	0	42	0	860880896	19	3566
2026-01-16 10:56:52.81	318.74	41.42	-28.7	-28.9	16.1	0.00e+00	0	43	0	862978048	18	3687
2026-01-16 10:56:53.81	318.97	41.18	-29.2	-30.1	15.3	0.00e+00	0	42	0	865075200	18	3976
2026-01-16 10:56:54.82	319.20	40.94	-29.8	-31.2	14.3	0.00e+00	0	42	0	867172352	19	4224
2026-01-16 10:56:55.82	319.42	40.70	-30.8	-32.9	12.5	1.90e-05	0	43	0	869269504	21	4592
2026-01-16 10:56:56.82	319.64	40.47	-30.9	-32.7	12.3	2.53e-04	0	43	0	870318080	22	4423
2026-01-16 10:56:57.83	319.86	40.23	-30.2	-31.1	13.7	6.48e-05	0	42	0	872415232	21	4016
2026-01-16 10:56:58.83	320.08	40.00	-29.0	-29.1	15.6	7.00e-07	0	42	0	874512384	19	3640
2026-01-16 10:56:59.83	320.29	39.76	-28.5	-28.4	16.4	0.00e+00	0	43	0	876609536	18	3563
2026-01-16 10:57:00.83	320.50	39.53	-28.9	-29.4	15.7	0.00e+00	0	42	0	878706688	18	3814
2026-01-16 10:57:01.84	320.70	39.30	-29.4	-30.5	15.1	0.00e+00	0	42	0	879755264	18	4110
2026-01-16 10:57:02.84	320.91	39.07	-29.3	-30.3	15.2	0.00e+00	0	43	0	881852416	18	4055
2026-01-16 10:57:03.85	321.11	38.84	-29.7	-30.8	14.6	0.00e+00	0	43	0	883949568	19	4087
2026-01-16 10:57:04.85	321.30	38.61	-29.7	-30.8	14.6	7.00e-07	0	42	0	886046720	19	4104
2026-01-16 10:57:05.85	321.50	38.39	-29.5	-30.3	14.9	1.50e-06	0	43	0	887095296	19	3967
2026-01-16 10:57:06.86	321.69	38.16	-29.5	-30.4	14.8	0.00e+00	0	42	0	889192448	19	3994
2026-01-16 10:57:07.86	321.88	37.94	-29.6	-30.6	14.7	0.00e+00	0	42	0	891289600	19	4034
2026-01-16 10:57:08.86	322.07	37.71	-30.0	-31.1	14.0	0.00e+00	0	43	0	893386752	20	4100
2026-01-16 10:57:09.87	322.25	37.49	-30.0	-31.1	14.0	2.20e-06	0	42	0	895483904	20	4096
2026-01-16 10:57:10.87	322.44	37.27	-30.2	-31.6	13.7	7.00e-07	0	42	0	896532480	20	4264
2026-01-16 10:57:11.87	322.61	37.05	-30.2	-31.7	13.7	8.30e-06	0	42	0	898629632	20	4281
2026-01-16 10:57:12.88	322.79	36.83	-29.9	-31.0	14.1	2.20e-06	0	42	0	900726784	20	4061
2026-01-16 10:57:13.88	322.97	36.62	-29.8	-30.7	14.3	4.50e-06	0	42	0	902823936	20	3974
2026-01-16 10:57:14.88	323.14	36.40	-29.9	-31.0	14.1	1.50e-06	0	43	0	904921088	20	4081
2026-01-16 10:57:15.88	323.31	36.19	-30.5	-32.0	13.1	8.30e-06	0	42	0	905969664	21	4291
2026-01-16 10:57:16.89	323.48	35.97	-31.1	-33.3	11.9	5.33e-04	0	42	0	908066816	22	4647
2026-01-16 10:57:17.89	323.65	35.76	-31.6	-34.2	10.9	1.35e-03	0	42	0	910163968	23	4889
2026-01-16 10:57:18.89	323.81	35.55	-31.9	-35.4	10.0	5.41e-03	0	42	0	912261120	23	5365
2026-01-16 10:57:19.89	323.97	35.34	-31.7	-34.6	10.6	5.13e-03	0	43	0	914358272	23	5038
2026-01-16 10:57:20.90	324.13	35.13	-31.6	-34.3	10.8	3.37e-03	0	43	0	915406848	23	4902
2026-01-16 10:57:21.89	324.29	34.92	-30.6	-31.9	12.8	3.25e-04	0	42	0	917504000	22	4152
2026-01-16 10:57:22.89	324.44	34.72	-30.5	-31.4	13.2	5.18e-05	0	43	0	919601152	22	4004
2026-01-16 10:57:23.90	324.60	34.51	-29.9	-30.5	14.0	4.50e-06	0	43	0	921698304	21	3856
2026-01-16 10:57:24.90	324.75	34.31	-30.2	-31.2	13.8	1.50e-06	0	42	0	923795456	21	4039
2026-01-16 10:57:25.90	324.90	34.11	-30.1	-30.9	13.8	6.10e-06	0	42	0	924844032	21	3950
2026-01-16 10:57:26.90	325.05	33.90	-30.1	-30.9	13.8	2.20e-06	0	43	0	926941184	21	3955
2026-01-16 10:57:27.90	325.20	33.70	-30.5	-32.1	13.0	1.90e-05	0	42	0	929038336	21	4323
2026-01-16 10:57:28.90	325.34	33.50	-30.5	-32.1	13.0	6.79e-05	0	43	0	931135488	21	4323
2026-01-16 10:57:29.90	325.49	33.31	-30.7	-32.5	12.8	7.32e-05	0	42	0	932184064	21	4446
2026-01-16 10:57:30.91	325.63	33.11	-30.6	-32.3	12.8	5.49e-05	0	43	0	934281216	21	4377
2026-01-16 10:57:31.91	325.77	32.91	-30.9	-33.1	12.4	5.18e-05	0	42	0	936378368	21	4637
2026-01-16 10:57:32.91	325.91	32.72	-30.8	-33.0	12.3	1.47e-04	0	42	0	938475520	21	4622
2026-01-16 10:57:33.92	326.04	32.52	-30.7	-32.6	12.7	9.53e-05	0	42	0	940572672	21	4477
2026-01-16 10:57:34.92	326.18	32.33	-30.9	-33.3	12.2	1.74e-04	0	43	0	941621248	21	4720
2026-01-16 10:57:35.92	326.31	32.14	-30.7	-32.7	12.6	1.04e-04	0	42	0	943718400	21	4530
2026-01-16 10:57:36.93	326.45	31.94	-30.8	-33.0	12.4	5.56e-05	0	43	0	945815552	21	4605
2026-01-16 10:57:37.92	326.58	31.76	-30.8	-33.0	12.4	1.36e-04	0	43	0	947912704	21	4623
2026-01-16 10:57:38.92	326.70	31.57	-30.9	-33.1	12.4	1.24e-04	0	42	0	950009856	21	4639
2026-01-16 10:57:39.92	326.83	31.38	-31.2	-33.6	11.7	2.79e-04	0	43	0	951058432	22	4740
2026-01-16 10:57:40.92	326.96	31.19	-31.2	-33.4	11.8	5.70e-04	0	43	0	953155584	22	4676
2026-01-16 10:57:41.93	327.08	31.01	-31.2	-33.6	11.7	2.69e-04	0	43	0	955252736	22	4729
2026-01-16 10:57:42.92	327.21	30.82	-31.2	-33.5	11.8	4.49e-04	0	43	0	957349888	22	4706
2026-01-16 10:57:43.92	327.33	30.64	-31.1	-33.4	11.8	5.22e-04	0	42	0	959447040	22	4652
2026-01-16 10:57:44.92	327.45	30.46	-30.9	-32.7	12.3	3.38e-04	0	42	0	960495616	22	4416
2026-01-16 10:57:45.93	327.57	30.28	-30.8	-32.4	12.5	8.16e-05	0	42	0	962592768	22	4329
2026-01-16 10:57:46.93	327.69	30.10	-31.0	-33.1	12.0	3.10e-04	0	42	0	964689920	22	4569
2026-01-16 10:57:47.92	327.80	29.92	-30.8	-32.5	12.4	2.18e-04	0	43	0	966787072	22	4353
2026-01-16 10:57:48.92	327.92	29.74	-30.9	-32.7	12.2	1.78e-04	0	42	0	968884224	22	4434
2026-01-16 10:57:49.92	328.03	29.56	-31.1	-33.3	11.8	3.17e-04	0	43	0	969932800	22	4656
2026-01-16 10:57:50.92	328.15	29.39	-30.8	-32.6	12.3	1.72e-04	0	43	0	972029952	22	4385
2026-01-16 10:57:51.92	328.26	29.21	-30.7	-32.1	12.7	7.85e-05	0	42	0	974127104	22	4234
2026-01-16 10:57:52.92	328.37	29.04	-30.4	-31.2	13.3	7.17e-05	0	42	0	976224256	22	3964
2026-01-16 10:57:53.92	328.48	28.86	-30.1	-31.0	13.7	1.44e-05	0	42	0	977272832	21	4001
2026-01-16 10:57:54.92	328.59	28.69	-30.5	-32.0	13.0	2.21e-05	0	43	0	979369984	21	4294
2026-01-16 10:57:55.92	328.70	28.52	-30.2	-31.3	13.5	2.13e-05	0	43	0	981467136	21	4080
2026-01-16 10:57:56.92	328.80	28.35	-30.2	-31.2	13.5	1.75e-05	0	42	0	983564288	21	4058
2026-01-16 10:57:57.93	328.91	28.18	-30.3	-31.5	13.4	1.75e-05	0	42	0	985661440	21	4130
2026-01-16 10:57:58.93	329.01	28.01	-30.6	-32.2	12.8	4.04e-05	0	42	0	986710016	21	4373
2026-01-16 10:57:59.94	329.12	27.84	-30.4	-31.8	13.2	3.89e-05	0	42	0	988807168	21	4219
2026-01-16 10:58:00.94	329.22	27.68	-30.6	-32.4	12.8	3.58e-05	0	43	0	990904320	21	4407
2026-01-16 10:58:01.94	329.32	27.51	-30.5	-32.1	13.0	5.72e-05	0	43	0	993001472	21	4315
2026-01-16 10:58:02.94	329.42	27.34	-30.2	-31.3	13.5	1.14e-05	0	42	0	995098624	21	4064
2026-01-16 10:58:03.94	329.52	27.18	-30.4	-31.8	13.1	1.14e-05	0	43	0	996147200	21	4233
2026-01-16 10:58:04.93	329.62	27.02	-30.1	-31.1	13.6	1.44e-05	0	42	0	998244352	21	4018
2026-01-16 10:58:05.94	329.72	26.86	-30.3	-31.4	13.4	9.10e-06	0	43	0	1000341504	21	4107
2026-01-16 10:58:06.94	329.81	26.69	-30.6	-32.5	12.7	3.35e-05	0	42	0	1002438656	21	4461
2026-01-16 10:58:07.94	329.91	26.53	-30.4	-31.7	13.1	7.17e-05	0	43	0	1003487232	21	4202
2026-01-16 10:58:08.95	330.00	26.37	-30.4	-31.7	13.2	2.51e-05	0	42	0	1005584384	21	4200
2026-01-16 10:58:09.95	330.10	26.22	-30.3	-31.6	13.2	2.44e-05	0	43	0	1007681536	21	4169
2026-01-16 10:58:10.96	330.19	26.06	-30.1	-31.0	13.6	1.52e-05	0	43	0	1009778688	21	3997
2026-01-16 10:58:11.96	330.28	25.90	-30.3	-31.4	13.3	1.83e-05	0	43	0	1011875840	21	4115
2026-01-16 10:58:12.96	330.37	25.74	-29.8	-30.2	14.1	3.80e-06	0	43	0	1013972992	21	3768
2026-01-16 10:58:13.96	330.46	25.59	-29.7	-30.4	14.4	7.00e-07	0	43	0	1015021568	20	3926
2026-01-16 10:58:14.96	330.55	25.43	-29.5	-29.9	14.6	7.00e-07	0	43	0	1017118720	20	3782
2026-01-16 10:58:15.96	330.64	25.28	-29.4	-29.7	14.7	0.00e+00	0	42	0	1019215872	20	3724
2026-01-16 10:58:16.97	330.73	25.13	-29.5	-29.9	14.6	2.20e-06	0	43	0	1021313024	20	3771
2026-01-16 10:58:17.97	330.82	24.97	-29.2	-29.8	15.1	0.00e+00	0	43	0	1022361600	19	3820
2026-01-16 10:58:18.97	330.90	24.82	-29.0	-29.2	15.4	0.00e+00	0	43	0	1024458752	19	3677
2026-01-16 10:58:19.97	330.99	24.67	-29.0	-29.1	15.5	5.30e-06	0	42	0	1026555904	19	3652
2026-01-16 10:58:20.98	331.07	24.52	-29.0	-29.2	15.4	0.00e+00	0	43	0	1028653056	19	3681
2026-01-16 10:58:21.98	331.16	24.37	-29.2	-29.7	15.1	0.00e+00	0	42	0	1030750208	19	3820
2026-01-16 10:58:22.98	331.24	24.23	-29.2	-29.7	15.1	0.00e+00	0	42	0	1031798784	19	3800
2026-01-16 10:58:23.99	331.32	24.08	-29.6	-30.8	14.4	0.00e+00	0	43	0	1033895936	19	4110
2026-01-16 10:58:25.00	331.40	23.93	-29.5	-30.5	14.6	7.00e-07	0	43	0	1035993088	19	4034
2026-01-16 10:58:26.01	331.49	23.78	-29.6	-30.8	14.5	7.00e-07	0	43	0	1038090240	19	4106
2026-01-16 10:58:27.01	331.57	23.64	-29.8	-31.3	14.1	2.20e-06	0	43	0	1040187392	19	4257
2026-01-16 10:58:28.02	331.65	23.49	-29.8	-31.3	14.0	1.50e-06	0	43	0	1041235968	19	4268
2026-01-16 10:58:29.02	331.73	23.35	-29.9	-31.6	13.9	1.50e-06	0	42	0	1043333120	19	4344
2026-01-16 10:58:30.02	331.80	23.21	-29.9	-31.6	13.9	1.50e-06	0	43	0	1045430272	19	4352
2026-01-16 10:58:31.02	331.88	23.07	-30.0	-31.4	13.6	4.50e-06	0	43	0	1047527424	20	4208
2026-01-16 10:58:32.02	331.96	22.92	-30.0	-31.3	13.7	6.80e-06	0	43	0	1049624576	20	4196
2026-01-16 10:58:33.01	332.03	22.79	-29.9	-31.0	13.9	1.60e-05	0	43	0	1050673152	20	4080
2026-01-16 10:58:34.01	332.11	22.65	-29.7	-30.6	14.1	1.50e-06	0	43	0	1052770304	20	3970
2026-01-16 10:58:35.02	332.18	22.51	-29.6	-30.2	14.4	2.20e-06	0	43	0	1054867456	20	3855
2026-01-16 10:58:36.02	332.26	22.37	-29.5	-29.9	14.5	0.00e+00	0	43	0	1056964608	20	3789
2026-01-16 10:58:37.03	332.33	22.23	-29.3	-29.6	14.7	0.00e+00	0	43	0	1059061760	20	3708
2026-01-16 10:58:38.03	332.40	22.09	-29.5	-30.5	14.5	0.00e+00	0	42	0	1060110336	19	4039
2026-01-16 10:58:39.03	332.48	21.96	-29.3	-29.9	14.9	0.00e+00	0	43	0	1062207488	19	3863
2026-01-16 10:58:40.04	332.55	21.82	-29.1	-29.4	15.2	1.50e-06	0	42	0	1064304640	19	3736
2026-01-16 10:58:41.04	332.62	21.68	-29.0	-29.2	15.3	7.00e-07	0	43	0	1066401792	19	3683
2026-01-16 10:58:42.04	332.69	21.55	-29.0	-29.2	15.3	0.00e+00	0	43	0	1067450368	19	3682
2026-01-16 10:58:43.04	332.76	21.42	-29.0	-29.2	15.3	0.00e+00	0	43	0	1069547520	19	3693
2026-01-16 10:58:44.04	332.83	21.28	-28.9	-28.9	15.4	0.00e+00	0	43	0	1071644672	19	3619
2026-01-16 10:58:45.04	332.90	21.15	-28.9	-29.0	15.4	0.00e+00	0	43	0	1073741824	19	3642
2026-01-16 10:58:46.04	332.97	21.02	-29.0	-29.1	15.3	0.00e+00	0	43	0	1075838976	19	3679
2026-01-16 10:58:47.04	333.04	20.89	-28.9	-29.1	15.4	0.00e+00	0	42	0	1076887552	19	3658
2026-01-16 10:58:48.04	333.10	20.76	-28.8	-29.3	15.5	0.00e+00	0	43	0	1078984704	18	3791
2026-01-16 10:58:49.04	333.17	20.63	-28.6	-28.9	15.8	0.00e+00	0	43	0	1081081856	18	3693
2026-01-16 10:58:50.04	333.24	20.50	-28.6	-28.7	15.8	0.00e+00	0	43	0	1083179008	18	3662
2026-01-16 10:58:51.04	333.30	20.37	-28.5	-28.5	16.0	0.00e+00	0	43	0	1085276160	18	3615
2026-01-16 10:58:52.04	333.37	20.25	-28.7	-29.0	15.7	0.00e+00	0	43	0	1086324736	18	3729
2026-01-16 10:58:53.04	333.43	20.12	-28.5	-28.6	15.9	0.00e+00	0	43	0	1088421888	18	3621
2026-01-16 10:58:54.05	333.50	19.99	-28.4	-28.4	16.0	0.00e+00	0	43	0	1090519040	18	3571
2026-01-16 10:58:55.05	333.56	19.87	-28.5	-28.5	15.9	0.00e+00	0	42	0	1092616192	18	3616
2026-01-16 10:58:56.06	333.62	19.74	-28.5	-28.4	16.0	0.00e+00	0	42	0	1093664768	18	3584
2026-01-16 10:58:57.06	333.69	19.62	-28.7	-29.1	15.6	0.00e+00	0	43	0	1095761920	18	3742
2026-01-16 10:58:58.05	333.75	19.49	-28.6	-28.8	15.8	0.00e+00	0	43	0	1097859072	18	3673
2026-01-16 10:58:59.06	333.81	19.37	-28.8	-29.2	15.5	0.00e+00	0	43	0	1099956224	18	3796
2026-01-16 10:59:00.06	333.87	19.25	-29.0	-29.8	15.1	0.00e+00	0	43	0	1102053376	18	3943
2026-01-16 10:59:01.06	333.93	19.12	-29.3	-30.4	14.7	0.00e+00	0	43	0	1104150528	18	4115
2026-01-16 10:59:02.06	333.99	19.00	-29.2	-30.3	14.8	0.00e+00	0	42	0	1105199104	18	4094
2026-01-16 10:59:03.06	334.05	18.88	-29.7	-31.0	14.1	0.00e+00	0	43	0	1107296256	19	4185
2026-01-16 10:59:04.07	334.11	18.76	-29.6	-30.7	14.3	1.50e-06	0	43	0	1109393408	19	4103
2026-01-16 10:59:05.07	334.17	18.64	-29.7	-31.0	14.1	0.00e+00	0	43	0	1111490560	19	4182
2026-01-16 10:59:06.07	334.23	18.52	-29.7	-31.1	14.0	0.00e+00	0	43	0	1112539136	19	4213
2026-01-16 10:59:07.07	334.29	18.40	-29.8	-31.4	13.8	0.00e+00	0	43	0	1114636288	19	4306
2026-01-16 10:59:08.08	334.35	18.28	-29.9	-31.6	13.7	7.60e-06	0	42	0	1116733440	19	4365
2026-01-16 10:59:09.08	334.40	18.16	-29.9	-31.2	13.5	6.80e-06	0	43	0	1118830592	20	4165
2026-01-16 10:59:10.08	334.46	18.05	-30.0	-31.4	13.4	1.22e-05	0	43	0	1120927744	20	4241
2026-01-16 10:59:11.09	334.52	17.93	-30.1	-31.6	13.3	1.75e-05	0	43	0	1121976320	20	4293
2026-01-16 10:59:12.09	334.58	17.81	-30.0	-31.3	13.5	1.29e-05	0	43	0	1124073472	20	4187
2026-01-16 10:59:13.10	334.63	17.70	-30.1	-31.5	13.3	1.75e-05	0	43	0	1126170624	20	4266
2026-01-16 10:59:14.11	334.69	17.58	-30.1	-31.6	13.3	7.60e-06	0	43	0	1128267776	20	4278
2026-01-16 10:59:15.11	334.74	17.47	-30.1	-31.6	13.3	1.52e-05	0	43	0	1130364928	20	4281
2026-01-16 10:59:16.11	334.80	17.35	-30.1	-31.7	13.2	1.90e-05	0	43	0	1131413504	20	4315
2026-01-16 10:59:17.11	334.85	17.24	-30.1	-31.7	13.2	1.60e-05	0	43	0	1133510656	20	4327
2026-01-16 10:59:18.11	334.91	17.13	-30.2	-31.8	13.1	2.28e-05	0	43	0	1135607808	20	4369
2026-01-16 10:59:19.12	334.96	17.01	-30.0	-31.3	13.4	2.05e-05	0	42	0	1137704960	20	4207
2026-01-16 10:59:20.12	335.01	16.90	-30.1	-31.6	13.2	1.37e-05	0	42	0	1139802112	20	4293
2026-01-16 10:59:21.11	335.06	16.79	-30.2	-32.0	13.0	2.59e-05	0	42	0	1140850688	20	4412
2026-01-16 10:59:22.11	335.12	16.68	-30.0	-31.6	13.2	3.20e-05	0	43	0	1142947840	20	4284
2026-01-16 10:59:23.11	335.17	16.57	-30.1	-31.6	13.2	2.21e-05	0	42	0	1145044992	20	4295
2026-01-16 10:59:24.12	335.22	16.46	-30.1	-31.8	13.1	2.21e-05	0	43	0	1147142144	20	4351
2026-01-16 10:59:25.12	335.27	16.35	-30.2	-31.9	13.0	1.83e-05	0	43	0	1149239296	20	4385
2026-01-16 10:59:26.12	335.32	16.24	-30.1	-31.6	13.2	1.83e-05	0	42	0	1150287872	20	4303
2026-01-16 10:59:27.13	335.37	16.13	-30.0	-31.4	13.4	1.67e-05	0	43	0	1152385024	20	4241
2026-01-16 10:59:28.13	335.43	16.02	-30.0	-31.6	13.2	2.97e-05	0	43	0	1154482176	20	4299
2026-01-16 10:59:29.13	335.48	15.91	-29.9	-31.2	13.5	2.05e-05	0	43	0	1156579328	20	4165
2026-01-16 10:59:30.14	335.53	15.81	-29.8	-30.9	13.6	6.80e-06	0	43	0	1157627904	20	4095
2026-01-16 10:59:31.14	335.57	15.70	-30.0	-31.3	13.4	5.30e-06	0	43	0	1159725056	20	4212
2026-01-16 10:59:32.13	335.62	15.59	-30.0	-31.6	13.2	2.44e-05	0	43	0	1161822208	20	4286
2026-01-16 10:59:33.13	335.67	15.49	-29.9	-31.2	13.4	1.14e-05	0	43	0	1163919360	20	4177
2026-01-16 10:59:34.13	335.72	15.38	-29.8	-30.9	13.6	1.14e-05	0	43	0	1166016512	20	4099
2026-01-16 10:59:35.14	335.77	15.28	-29.8	-31.0	13.5	8.30e-06	0	42	0	1167065088	20	4134
2026-01-16 10:59:36.14	335.82	15.17	-29.8	-31.1	13.5	1.37e-05	0	42	0	1169162240	20	4147
2026-01-16 10:59:37.14	335.86	15.07	-30.0	-31.4	13.3	2.13e-05	0	43	0	1171259392	20	4234
2026-01-16 10:59:38.15	335.91	14.96	-29.7	-30.6	13.8	9.90e-06	0	42	0	1173356544	20	4020
2026-01-16 10:59:39.15	335.96	14.86	-29.5	-30.1	14.1	5.30e-06	0	43	0	1175453696	20	3878
2026-01-16 10:59:40.15	336.01	14.76	-29.3	-29.8	14.3	2.20e-06	0	42	0	1176502272	20	3776
2026-01-16 10:59:41.15	336.05	14.65	-29.4	-29.9	14.2	2.20e-06	0	43	0	1178599424	20	3800
2026-01-16 10:59:42.15	336.10	14.55	-29.4	-29.8	14.3	7.00e-07	0	43	0	1180696576	20	3780
2026-01-16 10:59:43.15	336.14	14.45	-29.4	-29.8	14.2	7.00e-07	0	42	0	1182793728	20	3797
2026-01-16 10:59:44.16	336.19	14.35	-29.5	-30.1	14.1	7.00e-07	0	43	0	1184890880	20	3874
2026-01-16 10:59:45.16	336.23	14.25	-29.3	-29.7	14.3	1.50e-06	0	43	0	1185939456	20	3763
2026-01-16 10:59:46.17	336.28	14.15	-29.3	-30.1	14.4	3.00e-06	0	43	0	1188036608	19	3960
2026-01-16 10:59:47.17	336.32	14.05	-29.4	-30.4	14.2	7.00e-07	0	42	0	1190133760	19	4026
2026-01-16 10:59:48.17	336.37	13.95	-29.4	-30.3	14.3	0.00e+00	0	43	0	1192230912	19	4008
2026-01-16 10:59:49.17	336.41	13.85	-29.3	-30.2	14.3	0.00e+00	0	43	0	1194328064	19	3975
2026-01-16 10:59:50.17	336.46	13.75	-29.3	-30.3	14.3	0.00e+00	0	43	0	1195376640	19	3994
2026-01-16 10:59:51.18	336.50	13.65	-29.3	-30.1	14.4	0.00e+00	0	42	0	1197473792	19	3955
2026-01-16 10:59:52.18	336.54	13.55	-29.4	-30.2	14.3	0.00e+00	0	43	0	1199570944	19	3987
2026-01-16 10:59:53.18	336.59	13.45	-29.4	-30.4	14.2	1.50e-06	0	42	0	1201668096	19	4032
2026-01-16 10:59:54.19	336.63	13.36	-29.3	-30.2	14.3	0.00e+00	0	43	0	1202716672	19	3983
2026-01-16 10:59:55.19	336.67	13.26	-29.4	-30.3	14.2	7.00e-07	0	43	0	1204813824	19	4001
2026-01-16 10:59:56.19	336.72	13.16	-29.5	-30.5	14.1	7.00e-07	0	43	0	1206910976	19	4067
2026-01-16 10:59:57.19	336.76	13.07	-29.5	-30.5	14.1	0.00e+00	0	43	0	1209008128	19	4074
2026-01-16 10:59:58.19	336.80	12.97	-29.5	-30.7	14.0	3.00e-06	0	43	0	1211105280	19	4123
2026-01-16 10:59:59.19	336.84	12.88	-29.5	-30.7	14.0	4.50e-06	0	43	0	1212153856	19	4122
2026-01-16 11:00:00.19	336.88	12.78	-29.6	-30.9	13.9	4.50e-06	0	43	0	1214251008	19	4172
2026-01-16 11:00:01.19	336.92	12.69	-29.6	-30.9	13.9	3.00e-06	0	43	0	1216348160	19	4177
2026-01-16 11:00:02.19	336.96	12.59	-29.6	-31.0	13.8	3.80e-06	0	43	0	1218445312	19	4216
2026-01-16 11:00:03.19	337.01	12.50	-29.8	-31.3	13.6	5.30e-06	0	43	0	1220542464	19	4314
2026-01-16 11:00:04.19	337.05	12.40	-29.8	-31.5	13.5	8.30e-06	0	42	0	1221591040	19	4354
2026-01-16 11:00:05.20	337.09	12.31	-29.8	-31.6	13.4	1.37e-05	0	43	0	1223688192	19	4394
2026-01-16 11:00:06.20	337.13	12.22	-29.9	-31.3	13.2	2.21e-05	0	43	0	1225785344	20	4223
2026-01-16 11:00:07.20	337.17	12.13	-30.0	-31.6	13.0	4.11e-05	0	43	0	1227882496	20	4322
2026-01-16 11:00:08.19	337.20	12.03	-30.0	-31.4	13.1	3.43e-05	0	42	0	1229979648	20	4272
2026-01-16 11:00:09.20	337.24	11.94	-30.2	-32.2	12.5	8.39e-05	0	43	0	1231028224	20	4528
2026-01-16 11:00:10.20	337.28	11.85	-30.2	-32.0	12.6	1.17e-04	0	43	0	1233125376	20	4466
2026-01-16 11:00:11.19	337.32	11.76	-30.3	-32.6	12.3	1.70e-04	0	43	0	1235222528	20	4652
2026-01-16 11:00:12.19	337.36	11.67	-30.5	-32.9	12.0	2.39e-04	0	43	0	1237319680	20	4777
2026-01-16 11:00:13.20	337.40	11.58	-30.6	-32.8	11.8	4.52e-04	0	43	0	1238368256	21	4641
2026-01-16 11:00:14.20	337.44	11.49	-30.7	-33.1	11.5	5.21e-04	0	43	0	1240465408	21	4758
2026-01-16 11:00:15.20	337.48	11.40	-30.8	-33.3	11.4	6.96e-04	0	43	0	1242562560	21	4848
2026-01-16 11:00:16.20	337.51	11.31	-30.8	-33.5	11.2	1.38e-03	0	43	0	1244659712	21	4925
2026-01-16 11:00:17.20	337.55	11.22	-30.8	-33.4	11.3	1.05e-03	0	43	0	1246756864	21	4878
2026-01-16 11:00:18.20	337.59	11.13	-30.9	-33.7	11.0	1.53e-03	0	43	0	1247805440	21	4972
2026-01-16 11:00:19.20	337.63	11.04	-30.9	-34.0	10.8	2.11e-03	0	43	0	1249902592	21	5110
2026-01-16 11:00:20.21	337.66	10.95	-31.0	-34.0	10.8	2.22e-03	0	43	0	1251999744	21	5140
2026-01-16 11:00:21.21	337.70	10.86	-31.0	-33.6	10.8	2.64e-03	0	43	0	1254096896	22	4879
2026-01-16 11:00:22.21	337.74	10.78	-31.2	-34.3	10.2	4.97e-03	0	43	0	1256194048	22	5165
2026-01-16 11:00:23.22	337.77	10.69	-31.2	-34.2	10.3	6.29e-03	0	43	0	1257242624	22	5113
2026-01-16 11:00:24.23	337.81	10.60	-31.3	-34.7	9.9	5.00e-03	0	43	0	1259339776	22	5347
2026-01-16 11:00:25.23	337.85	10.51	-31.5	-34.9	9.4	1.34e-02	0	43	0	1261436928	23	5332
2026-01-16 11:00:26.24	337.88	10.43	-31.3	-34.2	10.0	9.73e-03	0	43	0	1263534080	23	5034
2026-01-16 11:00:27.24	337.92	10.34	-31.1	-33.6	10.3	6.99e-03	0	43	0	1265631232	23	4804
2026-01-16 11:00:28.25	337.95	10.25	-31.1	-33.5	10.4	4.44e-03	0	43	0	1266679808	23	4747
2026-01-16 11:00:29.24	337.99	10.17	-31.1	-33.6	10.3	5.24e-03	0	43	0	1268776960	23	4796
2026-01-16 11:00:30.24	338.02	10.08	-31.1	-33.4	10.5	4.35e-03	0	43	0	1270874112	23	4716
2026-01-16 11:00:31.25	338.06	10.00	-31.1	-33.4	10.5	4.11e-03	0	43	0	1272971264	23	4722
2026-01-16 11:00:32.25	338.09	9.91	-31.0	-33.3	10.5	5.85e-03	0	43	0	1275068416	23	4672
2026-01-16 11:00:33.26	338.13	9.83	-31.1	-33.4	10.4	3.96e-03	0	43	0	1276116992	23	4718
2026-01-16 11:00:34.27	338.16	9.74	-31.0	-33.2	10.7	3.88e-03	0	43	0	1278214144	23	4644
