passes_logs/2026/01/16/R2M6_AANII_01/R2M6_AANII_01__20260116_090933_SUOMI_NPP_rec.log

#Pass ID: 20260116_090933_SUOMI NPP
#Satellite: SUOMI NPP
#Configuration: NPP
#almurnet v.1.7.20240730
#Start time: 2026-01-16 09:09:33

#Version: 2.2.20231116
#Station: R2M6_AANII_01
#Location: 30.233357 lon 59.946436 lat
#TLE: 1 37849U 11061A   26015.52691075  .00000052  00000+0  45753-4 0  9993
#TLE: 2 37849  98.7811 317.5709 0002448  62.7632 297.3794 14.19525354736784

#Time	Az	El	Level	Level2	SNR	BER	BlckErr	Temp	State	Recorded	gain1	gain2
2026-01-16 09:09:33.00	122.06	6.98	-32.3	-37.8	4.5	1.39e+00	0	41	0	0	26	6811
2026-01-16 09:09:34.01	122.00	7.06	-32.3	-38.3	4.5	1.38e+00	0	41	104	0	25	7189
2026-01-16 09:09:35.01	121.94	7.13	-32.1	-37.2	6.5	3.21e-01	0	41	0	0	25	6486
2026-01-16 09:09:36.02	121.88	7.20	-32.1	-36.9	6.8	1.85e-01	0	41	0	1048576	25	6249
2026-01-16 09:09:37.03	121.82	7.28	-32.0	-36.7	6.9	1.79e-01	0	41	0	3145728	25	6158
2026-01-16 09:09:38.03	121.76	7.35	-32.0	-36.6	7.0	1.51e-01	0	41	0	5242880	25	6119
2026-01-16 09:09:39.04	121.70	7.42	-32.0	-36.5	7.0	1.60e-01	0	41	0	7340032	25	6068
2026-01-16 09:09:40.04	121.63	7.50	-32.1	-37.0	6.6	1.79e-01	0	41	0	9437184	25	6362
2026-01-16 09:09:41.04	121.57	7.57	-32.0	-36.4	7.2	1.79e-01	0	41	0	10485760	25	5972
2026-01-16 09:09:42.04	121.51	7.64	-31.9	-35.8	7.6	1.30e-01	0	41	0	12582912	25	5662
2026-01-16 09:09:43.04	121.45	7.72	-31.7	-35.7	8.2	6.40e-02	0	41	0	14680064	24	5658
2026-01-16 09:09:44.05	121.38	7.79	-31.6	-34.9	8.8	3.27e-02	0	41	0	16777216	24	5299
2026-01-16 09:09:45.04	121.32	7.86	-31.5	-34.6	9.1	2.66e-02	0	41	0	17825792	24	5170
2026-01-16 09:09:46.04	121.25	7.94	-31.8	-35.7	8.2	4.44e-02	0	41	0	19922944	24	5652
2026-01-16 09:09:47.05	121.19	8.01	-31.4	-34.3	9.2	2.59e-02	0	41	0	22020096	24	5033
2026-01-16 09:09:48.05	121.12	8.09	-31.5	-34.5	9.2	1.93e-02	0	41	0	24117248	24	5103
2026-01-16 09:09:49.05	121.06	8.16	-31.4	-34.1	9.5	1.93e-02	0	41	0	26214400	24	4903
2026-01-16 09:09:50.05	120.99	8.24	-31.4	-34.3	9.4	1.76e-02	0	41	0	28311552	24	4999
2026-01-16 09:09:51.06	120.93	8.31	-31.4	-34.2	9.4	1.39e-02	0	41	0	29360128	24	4977
2026-01-16 09:09:52.06	120.86	8.39	-31.4	-34.0	9.6	1.64e-02	0	41	0	31457280	24	4885
2026-01-16 09:09:53.06	120.79	8.46	-31.5	-34.3	9.4	1.67e-02	0	41	0	33554432	24	5008
2026-01-16 09:09:54.07	120.73	8.54	-31.5	-34.4	9.3	1.53e-02	0	41	0	35651584	24	5027
2026-01-16 09:09:55.07	120.66	8.62	-31.2	-33.8	10.1	8.00e-03	0	42	0	36700160	23	4885
2026-01-16 09:09:56.07	120.59	8.69	-31.2	-33.9	10.1	7.08e-03	0	41	0	38797312	23	4902
2026-01-16 09:09:57.07	120.52	8.77	-31.1	-33.5	10.4	8.84e-03	0	41	0	40894464	23	4742
2026-01-16 09:09:58.08	120.45	8.85	-31.1	-33.5	10.4	4.17e-03	0	42	0	42991616	23	4734
2026-01-16 09:09:59.08	120.39	8.92	-30.9	-32.8	10.9	3.46e-03	0	42	0	45088768	23	4487
2026-01-16 09:10:00.08	120.32	9.00	-30.7	-32.8	11.4	1.15e-03	0	42	0	46137344	22	4569
2026-01-16 09:10:01.09	120.25	9.08	-30.8	-33.0	11.2	1.28e-03	0	42	0	48234496	22	4639
2026-01-16 09:10:02.09	120.18	9.15	-30.9	-33.4	10.9	1.53e-03	0	42	0	50331648	22	4790
2026-01-16 09:10:03.09	120.11	9.23	-31.1	-33.9	10.6	3.73e-03	0	42	0	52428800	22	4961
2026-01-16 09:10:04.09	120.04	9.31	-31.1	-33.9	10.6	2.93e-03	0	42	0	54525952	22	4968
2026-01-16 09:10:05.10	119.96	9.39	-30.9	-33.3	11.0	2.73e-03	0	42	0	55574528	22	4743
2026-01-16 09:10:06.10	119.89	9.46	-31.1	-34.1	10.4	2.96e-03	0	42	0	57671680	22	5071
2026-01-16 09:10:07.10	119.82	9.54	-31.0	-33.7	10.7	3.34e-03	0	42	0	59768832	22	4908
2026-01-16 09:10:08.11	119.75	9.62	-31.0	-33.6	10.8	1.79e-03	0	42	0	61865984	22	4869
2026-01-16 09:10:09.11	119.67	9.70	-31.1	-34.0	10.6	2.90e-03	0	42	0	63963136	22	5025
2026-01-16 09:10:10.12	119.60	9.78	-30.9	-33.4	11.0	2.24e-03	0	42	0	65011712	22	4760
2026-01-16 09:10:11.12	119.53	9.86	-30.8	-33.0	11.3	1.35e-03	0	42	0	67108864	22	4642
2026-01-16 09:10:12.12	119.45	9.94	-30.9	-33.2	11.1	1.14e-03	0	42	0	69206016	22	4724
2026-01-16 09:10:13.12	119.38	10.02	-30.9	-33.1	11.3	1.66e-03	0	42	0	71303168	22	4668
2026-01-16 09:10:14.12	119.30	10.10	-30.9	-33.3	11.1	1.42e-03	0	42	0	73400320	22	4735
2026-01-16 09:10:15.12	119.23	10.18	-31.1	-33.8	10.8	2.11e-03	0	42	0	74448896	22	4930
2026-01-16 09:10:16.12	119.15	10.26	-31.3	-34.7	10.1	3.91e-03	0	42	0	76546048	22	5287
2026-01-16 09:10:17.12	119.08	10.34	-31.4	-34.8	10.1	6.51e-03	0	42	0	78643200	22	5321
2026-01-16 09:10:18.12	119.00	10.42	-31.2	-34.3	10.3	5.55e-03	0	42	0	80740352	22	5135
2026-01-16 09:10:19.12	118.92	10.50	-31.3	-34.6	10.3	4.37e-03	0	42	0	81788928	22	5242
2026-01-16 09:10:20.11	118.85	10.58	-31.2	-34.1	10.6	3.79e-03	0	42	0	83886080	22	5021
2026-01-16 09:10:21.11	118.77	10.66	-31.1	-33.9	10.8	3.10e-03	0	42	0	85983232	22	4964
2026-01-16 09:10:22.12	118.69	10.74	-31.2	-34.1	10.6	3.29e-03	0	42	0	88080384	22	5047
2026-01-16 09:10:23.12	118.61	10.82	-31.1	-33.7	10.9	2.82e-03	0	42	0	90177536	22	4875
2026-01-16 09:10:24.13	118.53	10.91	-31.2	-34.0	10.7	2.88e-03	0	42	0	91226112	22	5000
2026-01-16 09:10:25.13	118.45	10.99	-31.0	-33.4	11.1	2.04e-03	0	42	0	93323264	22	4754
2026-01-16 09:10:26.14	118.37	11.07	-30.8	-33.0	11.5	1.12e-03	0	42	0	95420416	22	4595
2026-01-16 09:10:27.13	118.29	11.15	-30.8	-32.7	11.6	6.39e-04	0	42	0	97517568	22	4515
2026-01-16 09:10:28.14	118.21	11.24	-30.8	-32.8	11.6	8.09e-04	0	42	0	99614720	22	4525
2026-01-16 09:10:29.14	118.13	11.32	-30.9	-33.1	11.4	9.25e-04	0	42	0	100663296	22	4630
2026-01-16 09:10:30.14	118.05	11.40	-30.8	-32.8	11.6	6.92e-04	0	42	0	102760448	22	4530
2026-01-16 09:10:31.14	117.96	11.49	-30.8	-32.7	11.7	5.32e-04	0	42	0	104857600	22	4506
2026-01-16 09:10:32.14	117.88	11.57	-30.5	-32.0	12.2	3.75e-04	0	42	0	106954752	22	4265
2026-01-16 09:10:33.14	117.80	11.65	-30.6	-32.2	12.0	2.01e-04	0	42	0	108003328	22	4334
2026-01-16 09:10:34.15	117.71	11.74	-30.7	-32.4	11.9	3.58e-04	0	42	0	110100480	22	4392
2026-01-16 09:10:35.15	117.63	11.82	-30.5	-32.0	12.2	2.26e-04	0	42	0	112197632	22	4248
2026-01-16 09:10:36.15	117.54	11.91	-30.6	-32.3	12.1	2.46e-04	0	42	0	114294784	22	4348
2026-01-16 09:10:37.15	117.46	11.99	-30.8	-32.9	11.6	5.14e-04	0	42	0	116391936	22	4547
2026-01-16 09:10:38.16	117.37	12.08	-31.0	-33.5	11.2	8.75e-04	0	42	0	118489088	22	4781
2026-01-16 09:10:39.16	117.29	12.16	-30.8	-32.9	11.6	9.79e-04	0	42	0	119537664	22	4555
2026-01-16 09:10:40.17	117.20	12.25	-30.8	-32.7	11.8	6.91e-04	0	42	0	121634816	22	4486
2026-01-16 09:10:41.17	117.11	12.33	-30.9	-32.9	11.6	5.66e-04	0	43	0	123731968	22	4568
2026-01-16 09:10:42.17	117.02	12.42	-30.8	-32.8	11.8	4.42e-04	0	42	0	125829120	22	4515
2026-01-16 09:10:43.17	116.93	12.51	-30.9	-33.0	11.6	5.77e-04	0	42	0	126877696	22	4576
2026-01-16 09:10:44.16	116.85	12.59	-31.1	-33.8	11.0	2.02e-03	0	42	0	128974848	22	4902
2026-01-16 09:10:45.17	116.76	12.68	-31.1	-33.7	11.0	1.90e-03	0	42	0	131072000	22	4870
2026-01-16 09:10:46.17	116.66	12.77	-31.2	-34.0	10.8	1.55e-03	0	43	0	133169152	22	4995
2026-01-16 09:10:47.17	116.57	12.85	-31.3	-34.4	10.6	3.55e-03	0	43	0	135266304	22	5124
2026-01-16 09:10:48.17	116.48	12.94	-31.1	-33.8	11.0	3.28e-03	0	43	0	136314880	22	4886
2026-01-16 09:10:49.18	116.39	13.03	-31.1	-33.8	11.0	1.81e-03	0	42	0	138412032	22	4917
2026-01-16 09:10:50.18	116.30	13.12	-31.1	-33.8	11.0	2.00e-03	0	42	0	140509184	22	4912
2026-01-16 09:10:51.18	116.21	13.20	-31.1	-33.8	11.1	1.57e-03	0	42	0	142606336	22	4888
2026-01-16 09:10:52.18	116.11	13.29	-31.2	-34.2	10.8	2.43e-03	0	43	0	144703488	22	5049
2026-01-16 09:10:53.19	116.02	13.38	-31.0	-33.4	11.3	1.68e-03	0	42	0	145752064	22	4745
2026-01-16 09:10:54.19	115.92	13.47	-30.7	-32.5	12.0	4.44e-04	0	43	0	147849216	22	4412
2026-01-16 09:10:55.19	115.83	13.56	-30.6	-32.2	12.2	3.02e-04	0	43	0	149946368	22	4324
2026-01-16 09:10:56.18	115.73	13.65	-30.6	-32.0	12.3	1.76e-04	0	43	0	152043520	22	4252
2026-01-16 09:10:57.18	115.64	13.74	-30.8	-32.8	11.8	3.56e-04	0	43	0	153092096	22	4535
2026-01-16 09:10:58.18	115.54	13.83	-30.8	-32.7	11.9	5.03e-04	0	43	0	155189248	22	4484
2026-01-16 09:10:59.18	115.44	13.92	-30.8	-32.8	11.8	3.71e-04	0	43	0	157286400	22	4522
2026-01-16 09:11:00.19	115.34	14.01	-30.9	-32.9	11.8	6.51e-04	0	43	0	159383552	22	4555
2026-01-16 09:11:01.19	115.24	14.10	-30.6	-32.1	12.3	2.01e-04	0	43	0	161480704	22	4274
2026-01-16 09:11:02.18	115.14	14.19	-30.5	-31.7	12.6	8.08e-05	0	43	0	162529280	22	4137
2026-01-16 09:11:03.18	115.04	14.28	-30.5	-31.7	12.6	7.40e-05	0	43	0	164626432	22	4146
2026-01-16 09:11:04.19	114.94	14.37	-30.4	-31.4	12.8	8.77e-05	0	43	0	166723584	22	4067
2026-01-16 09:11:05.20	114.84	14.46	-30.5	-31.7	12.6	8.23e-05	0	43	0	168820736	22	4150
2026-01-16 09:11:06.20	114.74	14.56	-30.5	-31.6	12.7	1.11e-04	0	43	0	170917888	22	4127
2026-01-16 09:11:07.20	114.64	14.65	-30.5	-31.8	12.5	1.01e-04	0	43	0	171966464	22	4187
2026-01-16 09:11:08.20	114.53	14.74	-30.6	-32.0	12.4	1.69e-04	0	43	0	174063616	22	4257
2026-01-16 09:11:09.20	114.43	14.83	-30.3	-31.2	13.0	7.70e-05	0	43	0	176160768	22	3989
2026-01-16 09:11:10.20	114.32	14.93	-30.1	-31.0	13.4	1.44e-05	0	43	0	178257920	21	4029
2026-01-16 09:11:11.20	114.22	15.02	-29.9	-30.6	13.7	1.14e-05	0	43	0	180355072	21	3900
2026-01-16 09:11:12.19	114.11	15.11	-29.9	-30.6	13.7	9.90e-06	0	43	0	181403648	21	3911
2026-01-16 09:11:13.19	114.01	15.20	-29.9	-30.5	13.7	3.80e-06	0	43	0	183500800	21	3887
2026-01-16 09:11:14.20	113.90	15.30	-29.9	-30.6	13.7	3.80e-06	0	43	0	185597952	21	3901
2026-01-16 09:11:15.20	113.79	15.39	-30.1	-31.1	13.4	6.80e-06	0	43	0	187695104	21	4038
2026-01-16 09:11:16.21	113.68	15.49	-30.1	-31.2	13.4	2.51e-05	0	43	0	189792256	21	4065
2026-01-16 09:11:17.20	113.57	15.58	-30.0	-30.8	13.5	6.80e-06	0	43	0	190840832	21	3961
2026-01-16 09:11:18.20	113.46	15.68	-30.0	-30.8	13.6	9.10e-06	0	43	0	192937984	21	3951
2026-01-16 09:11:19.21	113.35	15.77	-30.0	-30.8	13.6	2.05e-05	0	43	0	195035136	21	3971
2026-01-16 09:11:20.21	113.24	15.87	-29.8	-30.9	13.9	6.80e-06	0	43	0	197132288	20	4072
2026-01-16 09:11:21.21	113.13	15.96	-29.9	-31.2	13.7	5.30e-06	0	43	0	198180864	20	4153
2026-01-16 09:11:22.21	113.01	16.06	-30.0	-31.4	13.5	1.52e-05	0	43	0	200278016	20	4210
2026-01-16 09:11:23.21	112.90	16.16	-30.2	-32.0	13.1	1.06e-05	0	43	0	202375168	20	4423
2026-01-16 09:11:24.21	112.78	16.25	-30.2	-32.0	13.2	2.44e-05	0	43	0	204472320	20	4402
2026-01-16 09:11:25.22	112.67	16.35	-30.3	-32.3	13.0	4.19e-05	0	43	0	206569472	20	4505
2026-01-16 09:11:26.22	112.55	16.45	-30.2	-31.9	13.2	3.20e-05	0	43	0	207618048	20	4388
2026-01-16 09:11:27.22	112.44	16.54	-30.2	-32.0	13.2	2.05e-05	0	43	0	209715200	20	4400
2026-01-16 09:11:28.23	112.32	16.64	-30.0	-31.4	13.6	1.22e-05	0	43	0	211812352	20	4216
2026-01-16 09:11:29.23	112.20	16.74	-30.1	-31.7	13.4	9.90e-06	0	43	0	213909504	20	4316
2026-01-16 09:11:30.22	112.08	16.84	-30.2	-32.0	13.2	1.90e-05	0	43	0	216006656	20	4388
2026-01-16 09:11:31.23	111.96	16.94	-30.3	-32.2	13.0	2.05e-05	0	43	0	217055232	20	4483
2026-01-16 09:11:32.23	111.84	17.04	-30.4	-32.3	13.0	3.12e-05	0	43	0	219152384	20	4492
2026-01-16 09:11:33.23	111.72	17.13	-30.4	-32.3	13.0	3.20e-05	0	43	0	221249536	20	4495
2026-01-16 09:11:34.22	111.60	17.23	-30.3	-32.2	13.0	4.19e-05	0	43	0	223346688	20	4480
2026-01-16 09:11:35.22	111.47	17.33	-30.2	-31.7	13.4	1.67e-05	0	43	0	225443840	20	4321
2026-01-16 09:11:36.23	111.35	17.43	-30.1	-31.5	13.6	1.22e-05	0	43	0	226492416	20	4237
2026-01-16 09:11:37.22	111.22	17.53	-30.0	-31.4	13.6	6.80e-06	0	43	0	228589568	20	4219
2026-01-16 09:11:38.23	111.10	17.63	-29.9	-31.1	13.8	7.60e-06	0	43	0	230686720	20	4127
2026-01-16 09:11:39.23	110.97	17.73	-30.2	-31.9	13.3	1.14e-05	0	43	0	232783872	20	4382
2026-01-16 09:11:40.23	110.84	17.83	-30.2	-31.9	13.3	2.21e-05	0	43	0	233832448	20	4358
2026-01-16 09:11:41.23	110.71	17.93	-30.3	-32.1	13.1	1.90e-05	0	43	0	235929600	20	4426
2026-01-16 09:11:42.23	110.58	18.03	-30.3	-32.1	13.2	2.36e-05	0	43	0	238026752	20	4445
2026-01-16 09:11:43.23	110.45	18.14	-30.3	-32.0	13.3	2.97e-05	0	43	0	240123904	20	4414
2026-01-16 09:11:44.23	110.32	18.24	-30.3	-31.8	13.1	5.26e-05	0	43	0	242221056	21	4247
2026-01-16 09:11:45.23	110.19	18.34	-30.5	-32.3	12.8	4.57e-05	0	43	0	243269632	21	4409
2026-01-16 09:11:46.23	110.06	18.44	-30.4	-32.0	13.0	5.79e-05	0	43	0	245366784	21	4316
2026-01-16 09:11:47.23	109.93	18.54	-30.4	-32.0	13.0	2.97e-05	0	43	0	247463936	21	4299
2026-01-16 09:11:48.23	109.79	18.65	-30.5	-32.0	12.9	3.50e-05	0	43	0	249561088	21	4319
2026-01-16 09:11:49.23	109.66	18.75	-30.6	-32.4	12.7	7.78e-05	0	43	0	251658240	21	4439
2026-01-16 09:11:50.24	109.52	18.85	-30.6	-32.4	12.7	6.71e-05	0	43	0	252706816	21	4445
2026-01-16 09:11:51.24	109.38	18.96	-30.7	-32.6	12.6	8.23e-05	0	43	0	254803968	21	4502
2026-01-16 09:11:52.23	109.24	19.06	-30.7	-32.8	12.4	2.19e-04	0	43	0	256901120	21	4563
2026-01-16 09:11:53.24	109.10	19.17	-30.7	-32.7	12.5	9.23e-05	0	43	0	258998272	21	4541
2026-01-16 09:11:54.24	108.96	19.27	-30.7	-32.6	12.6	8.01e-05	0	43	0	261095424	21	4499
2026-01-16 09:11:55.24	108.82	19.37	-30.7	-32.6	12.6	8.16e-05	0	43	0	262144000	21	4501
2026-01-16 09:11:56.25	108.68	19.48	-30.5	-32.1	13.0	3.89e-05	0	43	0	264241152	21	4319
2026-01-16 09:11:57.25	108.53	19.59	-30.6	-32.3	12.8	5.64e-05	0	43	0	266338304	21	4398
2026-01-16 09:11:58.24	108.39	19.69	-30.7	-32.8	12.5	5.49e-05	0	43	0	268435456	21	4546
2026-01-16 09:11:59.24	108.25	19.80	-30.7	-32.7	12.6	8.62e-05	0	43	0	269484032	21	4525
2026-01-16 09:12:00.24	108.10	19.90	-30.9	-32.8	12.2	2.49e-04	0	43	0	271581184	22	4473
2026-01-16 09:12:01.24	107.95	20.01	-30.7	-32.2	12.6	1.11e-04	0	43	0	273678336	22	4281
2026-01-16 09:12:02.23	107.81	20.11	-30.8	-32.4	12.5	7.93e-05	0	43	0	275775488	22	4357
2026-01-16 09:12:03.23	107.66	20.22	-30.7	-32.2	12.6	1.33e-04	0	43	0	277872640	22	4278
2026-01-16 09:12:04.23	107.51	20.33	-30.6	-31.8	13.0	3.43e-05	0	43	0	278921216	22	4134
2026-01-16 09:12:05.24	107.35	20.43	-30.7	-32.0	12.7	4.65e-05	0	43	0	281018368	22	4218
2026-01-16 09:12:06.25	107.20	20.54	-30.7	-32.1	12.7	7.24e-05	0	43	0	283115520	22	4230
2026-01-16 09:12:07.25	107.04	20.65	-30.5	-31.7	13.0	5.95e-05	0	43	0	285212672	22	4112
2026-01-16 09:12:08.25	106.89	20.76	-30.6	-31.6	13.0	7.62e-05	0	43	0	287309824	22	4083
2026-01-16 09:12:09.25	106.73	20.87	-30.5	-31.4	13.2	2.05e-05	0	43	0	288358400	22	4022
2026-01-16 09:12:10.25	106.58	20.97	-30.7	-32.0	12.8	2.82e-05	0	43	0	290455552	22	4188
2026-01-16 09:12:11.26	106.42	21.08	-30.4	-31.3	13.3	2.82e-05	0	43	0	292552704	22	3970
2026-01-16 09:12:12.26	106.26	21.19	-30.7	-32.0	12.8	2.97e-05	0	43	0	294649856	22	4199
2026-01-16 09:12:13.26	106.10	21.30	-30.6	-31.8	12.9	1.01e-04	0	43	0	296747008	22	4136
2026-01-16 09:12:14.26	105.94	21.41	-30.5	-31.6	13.1	3.58e-05	0	43	0	297795584	22	4058
2026-01-16 09:12:15.26	105.77	21.52	-30.5	-31.4	13.2	3.12e-05	0	43	0	299892736	22	4021
2026-01-16 09:12:16.26	105.61	21.63	-30.6	-31.8	13.0	6.33e-05	0	43	0	301989888	22	4120
2026-01-16 09:12:17.26	105.44	21.74	-30.4	-31.3	13.3	1.83e-05	0	43	0	304087040	22	3987
2026-01-16 09:12:18.27	105.28	21.85	-30.6	-32.3	13.0	8.30e-06	0	43	0	306184192	21	4382
2026-01-16 09:12:19.27	105.11	21.96	-30.6	-32.6	12.7	3.81e-05	0	43	0	307232768	21	4499
2026-01-16 09:12:20.28	104.94	22.07	-30.6	-32.6	12.7	5.41e-05	0	43	0	309329920	21	4497
2026-01-16 09:12:21.27	104.77	22.18	-30.7	-32.6	12.6	1.23e-04	0	43	0	311427072	21	4514
2026-01-16 09:12:22.28	104.60	22.29	-30.4	-31.9	13.1	5.03e-05	0	43	0	313524224	21	4277
2026-01-16 09:12:23.28	104.43	22.41	-30.4	-31.9	13.2	2.59e-05	0	43	0	314572800	21	4264
2026-01-16 09:12:24.28	104.25	22.52	-30.6	-32.4	12.9	2.82e-05	0	43	0	316669952	21	4423
2026-01-16 09:12:25.28	104.08	22.63	-30.7	-32.7	12.7	7.24e-05	0	43	0	318767104	21	4520
2026-01-16 09:12:26.29	103.90	22.74	-31.0	-33.5	12.2	7.70e-05	0	43	0	320864256	21	4800
2026-01-16 09:12:27.29	103.72	22.85	-31.1	-33.4	11.8	3.19e-04	0	43	0	322961408	22	4687
2026-01-16 09:12:28.28	103.54	22.96	-31.0	-33.0	12.2	3.23e-04	0	43	0	324009984	22	4517
2026-01-16 09:12:29.29	103.36	23.08	-31.0	-33.0	12.2	2.06e-04	0	43	0	326107136	22	4535
2026-01-16 09:12:30.29	103.18	23.19	-30.9	-32.8	12.3	1.89e-04	0	43	0	328204288	22	4456
2026-01-16 09:12:31.28	103.00	23.30	-31.1	-33.3	12.0	2.10e-04	0	43	0	330301440	22	4628
2026-01-16 09:12:32.28	102.82	23.41	-31.4	-34.3	11.3	8.25e-04	0	43	0	332398592	22	5011
2026-01-16 09:12:33.28	102.63	23.53	-31.8	-35.0	10.3	2.36e-03	0	43	0	333447168	23	5224
2026-01-16 09:12:34.29	102.44	23.64	-31.9	-35.3	10.4	3.73e-03	0	43	0	335544320	23	5339
2026-01-16 09:12:35.29	102.25	23.76	-31.8	-34.9	10.4	4.72e-03	0	43	0	337641472	23	5190
2026-01-16 09:12:36.29	102.06	23.87	-31.5	-34.3	10.9	2.72e-03	0	43	0	339738624	23	4920
2026-01-16 09:12:37.29	101.87	23.98	-31.4	-33.9	11.1	2.59e-03	0	43	0	340787200	23	4795
2026-01-16 09:12:38.29	101.68	24.10	-31.5	-34.2	10.9	2.08e-03	0	43	0	342884352	23	4904
2026-01-16 09:12:39.29	101.49	24.21	-31.7	-34.7	10.6	3.78e-03	0	43	0	344981504	23	5112
2026-01-16 09:12:40.29	101.29	24.32	-31.6	-34.6	10.7	4.08e-03	0	43	0	347078656	23	5064
2026-01-16 09:12:41.28	101.10	24.44	-31.6	-34.3	10.9	2.21e-03	0	43	0	349175808	23	4949
2026-01-16 09:12:42.28	100.90	24.55	-31.8	-35.0	10.4	2.45e-03	0	43	0	350224384	23	5233
2026-01-16 09:12:43.29	100.70	24.67	-31.8	-34.9	10.5	3.80e-03	0	43	0	352321536	23	5176
2026-01-16 09:12:44.29	100.50	24.78	-31.3	-33.4	11.5	9.23e-04	0	43	0	354418688	23	4591
2026-01-16 09:12:45.28	100.30	24.90	-31.2	-33.1	11.8	6.15e-04	0	43	0	356515840	23	4475
2026-01-16 09:12:46.28	100.09	25.01	-31.0	-32.6	12.1	3.49e-04	0	43	0	358612992	23	4308
2026-01-16 09:12:47.28	99.89	25.12	-31.0	-32.5	12.2	1.98e-04	0	43	0	359661568	23	4286
2026-01-16 09:12:48.28	99.68	25.24	-31.1	-32.9	11.9	3.65e-04	0	43	0	361758720	23	4430
2026-01-16 09:12:49.28	99.47	25.35	-31.1	-32.7	12.0	2.95e-04	0	43	0	363855872	23	4358
2026-01-16 09:12:50.27	99.26	25.47	-31.2	-33.1	11.8	3.19e-04	0	43	0	365953024	23	4470
2026-01-16 09:12:51.27	99.05	25.58	-31.1	-32.8	12.1	3.00e-04	0	43	0	368050176	23	4384
2026-01-16 09:12:52.26	98.84	25.70	-31.3	-33.3	11.7	3.16e-04	0	43	0	369098752	23	4540
2026-01-16 09:12:53.26	98.63	25.81	-31.3	-33.6	11.5	8.58e-04	0	43	0	371195904	23	4645
2026-01-16 09:12:54.26	98.41	25.93	-31.4	-33.9	11.3	8.03e-04	0	43	0	373293056	23	4766
2026-01-16 09:12:55.26	98.19	26.04	-31.6	-34.2	11.1	2.17e-03	0	43	0	375390208	23	4891
2026-01-16 09:12:56.26	97.97	26.16	-31.3	-33.5	11.6	1.01e-03	0	43	0	376438784	23	4606
2026-01-16 09:12:57.27	97.75	26.28	-31.3	-33.4	11.7	5.91e-04	0	43	0	378535936	23	4585
2026-01-16 09:12:58.27	97.53	26.39	-31.3	-33.3	11.6	4.93e-04	0	43	0	380633088	23	4569
2026-01-16 09:12:59.27	97.30	26.51	-31.2	-33.2	11.9	3.89e-04	0	43	0	382730240	23	4506
2026-01-16 09:13:00.27	97.08	26.62	-31.3	-33.5	11.6	7.49e-04	0	43	0	384827392	23	4619
2026-01-16 09:13:01.27	96.85	26.74	-31.2	-33.1	11.9	5.19e-04	0	43	0	385875968	23	4455
2026-01-16 09:13:02.26	96.62	26.85	-31.1	-32.6	12.2	2.32e-04	0	43	0	387973120	23	4318
2026-01-16 09:13:03.27	96.39	26.97	-31.2	-32.9	12.0	2.12e-04	0	43	0	390070272	23	4424
2026-01-16 09:13:04.27	96.16	27.08	-31.2	-33.0	12.0	1.56e-04	0	43	0	392167424	23	4445
2026-01-16 09:13:05.27	95.92	27.20	-31.3	-33.3	11.7	5.57e-04	0	43	0	394264576	23	4544
2026-01-16 09:13:06.27	95.69	27.32	-30.8	-32.3	12.7	1.72e-04	0	43	0	395313152	22	4309
2026-01-16 09:13:07.27	95.45	27.43	-30.7	-32.3	12.7	1.27e-04	0	43	0	397410304	22	4295
2026-01-16 09:13:08.27	95.21	27.55	-30.8	-32.3	12.8	7.32e-05	0	43	0	399507456	22	4307
2026-01-16 09:13:09.27	94.97	27.66	-30.9	-32.6	12.6	3.96e-05	0	43	0	401604608	22	4405
2026-01-16 09:13:10.28	94.72	27.78	-31.0	-33.0	12.5	1.28e-04	0	43	0	402653184	22	4514
2026-01-16 09:13:11.28	94.48	27.89	-31.2	-33.4	12.1	1.94e-04	0	43	0	404750336	22	4667
2026-01-16 09:13:12.29	94.23	28.01	-31.4	-33.7	11.6	9.38e-04	0	43	0	406847488	23	4681
2026-01-16 09:13:13.30	93.98	28.12	-31.4	-33.7	11.6	7.12e-04	0	43	0	408944640	23	4661
2026-01-16 09:13:14.30	93.73	28.24	-31.4	-33.6	11.6	8.83e-04	0	43	0	411041792	23	4645
2026-01-16 09:13:15.31	93.47	28.35	-31.3	-33.2	11.9	4.86e-04	0	43	0	413138944	23	4495
2026-01-16 09:13:16.30	93.22	28.47	-31.4	-33.4	11.7	5.87e-04	0	43	0	414187520	23	4576
2026-01-16 09:13:17.30	92.97	28.58	-31.4	-33.5	11.7	8.34e-04	0	43	0	416284672	23	4605
2026-01-16 09:13:18.31	92.71	28.70	-31.1	-32.6	12.3	2.55e-04	0	43	0	418381824	23	4305
2026-01-16 09:13:19.31	92.45	28.81	-30.7	-32.1	13.0	6.33e-05	0	43	0	420478976	22	4213
2026-01-16 09:13:20.31	92.19	28.92	-30.4	-31.2	13.6	1.83e-05	0	43	0	421527552	22	3938
2026-01-16 09:13:21.32	91.92	29.04	-30.4	-31.3	13.6	7.60e-06	0	43	0	423624704	22	3979
2026-01-16 09:13:22.31	91.66	29.15	-30.5	-31.5	13.3	9.10e-06	0	43	0	425721856	22	4036
2026-01-16 09:13:23.32	91.39	29.26	-30.9	-32.7	12.6	3.28e-05	0	43	0	427819008	22	4423
2026-01-16 09:13:24.32	91.12	29.38	-31.0	-33.1	12.2	1.59e-04	0	43	0	429916160	22	4560
2026-01-16 09:13:25.32	90.85	29.49	-30.9	-32.6	12.6	1.57e-04	0	43	0	430964736	22	4411
2026-01-16 09:13:26.32	90.58	29.60	-30.9	-32.7	12.6	1.16e-04	0	43	0	433061888	22	4430
2026-01-16 09:13:27.33	90.30	29.71	-30.9	-32.7	12.6	7.85e-05	0	43	0	435159040	22	4418
2026-01-16 09:13:28.33	90.02	29.83	-31.2	-33.6	11.9	1.11e-04	0	43	0	437256192	22	4752
2026-01-16 09:13:29.33	89.75	29.94	-31.4	-34.2	11.5	6.05e-04	0	43	0	439353344	22	4988
2026-01-16 09:13:30.34	89.46	30.05	-31.7	-34.8	10.7	1.77e-03	0	43	0	440401920	23	5122
2026-01-16 09:13:31.34	89.18	30.16	-31.8	-35.0	10.6	3.48e-03	0	43	0	442499072	23	5198
2026-01-16 09:13:32.34	88.90	30.27	-32.0	-35.6	10.2	4.69e-03	0	43	0	444596224	23	5469
2026-01-16 09:13:33.33	88.61	30.38	-32.0	-35.3	9.9	7.84e-03	0	43	0	446693376	24	5275
2026-01-16 09:13:34.34	88.32	30.49	-32.1	-35.5	9.8	1.10e-02	0	43	0	447741952	24	5355
2026-01-16 09:13:35.33	88.04	30.60	-31.9	-34.9	10.2	6.89e-03	0	43	0	449839104	24	5075
2026-01-16 09:13:36.33	87.74	30.70	-31.6	-34.1	10.9	2.39e-03	0	43	0	451936256	24	4750
2026-01-16 09:13:37.34	87.45	30.81	-31.4	-33.2	11.5	7.60e-04	0	43	0	454033408	24	4433
2026-01-16 09:13:38.34	87.15	30.92	-31.5	-33.5	11.3	7.84e-04	0	43	0	456130560	24	4538
2026-01-16 09:13:39.35	86.85	31.03	-31.7	-34.0	10.9	1.87e-03	0	43	0	457179136	24	4741
2026-01-16 09:13:40.35	86.55	31.14	-31.8	-34.4	10.7	2.83e-03	0	43	0	459276288	24	4875
2026-01-16 09:13:41.35	86.25	31.24	-32.0	-35.1	10.1	3.12e-03	0	43	0	461373440	24	5175
2026-01-16 09:13:42.35	85.95	31.35	-32.1	-35.7	9.6	1.14e-02	0	43	0	463470592	24	5458
2026-01-16 09:13:43.35	85.64	31.45	-32.2	-36.1	9.3	1.43e-02	0	43	0	465567744	24	5618
2026-01-16 09:13:44.35	85.33	31.56	-32.2	-36.0	9.4	1.26e-02	0	43	0	466616320	24	5601
2026-01-16 09:13:45.35	85.02	31.66	-32.1	-35.8	9.6	1.19e-02	0	43	0	468713472	24	5485
2026-01-16 09:13:46.35	84.71	31.76	-32.3	-36.6	9.0	1.50e-02	0	43	0	470810624	24	5888
2026-01-16 09:13:47.35	84.40	31.87	-32.3	-36.4	9.1	1.99e-02	0	43	0	472907776	24	5783
2026-01-16 09:13:48.36	84.08	31.97	-32.3	-36.6	9.0	2.31e-02	0	43	0	475004928	24	5912
2026-01-16 09:13:49.35	83.76	32.07	-32.4	-36.4	8.7	4.71e-02	0	43	0	476053504	25	5700
2026-01-16 09:13:50.36	83.44	32.17	-32.4	-36.5	8.6	3.00e-02	0	43	0	478150656	25	5798
2026-01-16 09:13:51.35	83.12	32.27	-32.6	-37.3	7.8	4.69e-02	0	43	0	480247808	25	6229
2026-01-16 09:13:52.35	82.80	32.37	-32.6	-37.3	8.0	6.10e-02	0	43	0	482344960	25	6172
2026-01-16 09:13:53.35	82.47	32.47	-32.6	-37.5	7.9	7.49e-02	0	43	0	483393536	25	6305
2026-01-16 09:13:54.34	82.15	32.57	-32.5	-36.9	8.3	8.37e-02	0	43	0	485490688	25	5967
2026-01-16 09:13:55.34	81.82	32.66	-32.4	-36.6	8.4	6.67e-02	0	43	0	487587840	25	5852
2026-01-16 09:13:56.34	81.49	32.76	-32.2	-35.8	9.2	4.64e-02	0	43	0	489684992	25	5427
2026-01-16 09:13:57.35	81.15	32.86	-32.2	-35.6	9.2	1.82e-02	0	43	0	491782144	25	5347
2026-01-16 09:13:58.35	80.81	32.95	-32.1	-35.3	9.5	1.72e-02	0	43	0	493879296	25	5214
2026-01-16 09:13:59.36	80.47	33.05	-32.0	-35.0	9.8	1.25e-02	0	43	0	494927872	25	5088
2026-01-16 09:14:00.36	80.13	33.14	-32.1	-35.2	9.6	1.24e-02	0	43	0	497025024	25	5156
2026-01-16 09:14:01.36	79.79	33.23	-32.1	-35.3	9.5	1.32e-02	0	43	0	499122176	25	5204
2026-01-16 09:14:02.36	79.45	33.32	-32.4	-36.3	8.7	2.12e-02	0	43	0	501219328	25	5648
2026-01-16 09:14:03.36	79.10	33.41	-32.3	-35.8	9.2	1.76e-02	0	43	0	502267904	25	5395
2026-01-16 09:14:04.36	78.76	33.50	-32.2	-35.4	9.6	1.47e-02	0	43	0	504365056	25	5219
2026-01-16 09:14:05.37	78.40	33.59	-31.8	-34.5	10.5	6.41e-03	0	43	0	506462208	24	4952
2026-01-16 09:14:06.37	78.05	33.68	-31.7	-34.2	10.7	2.80e-03	0	43	0	508559360	24	4828
2026-01-16 09:14:07.37	77.70	33.77	-31.7	-34.4	10.5	3.41e-03	0	43	0	510656512	24	4934
2026-01-16 09:14:08.38	77.34	33.85	-32.0	-35.5	9.7	7.94e-03	0	43	0	511705088	24	5415
2026-01-16 09:14:09.38	76.98	33.94	-31.9	-35.1	9.8	1.03e-02	0	43	0	513802240	24	5239
2026-01-16 09:14:10.38	76.63	34.02	-32.0	-35.7	9.5	1.44e-02	0	43	0	515899392	24	5494
2026-01-16 09:14:11.39	76.26	34.11	-31.8	-35.0	10.0	8.37e-03	0	43	0	517996544	24	5197
2026-01-16 09:14:12.39	75.90	34.19	-31.9	-35.1	10.0	7.98e-03	0	43	0	520093696	24	5208
2026-01-16 09:14:13.39	75.54	34.27	-31.9	-35.3	9.9	7.73e-03	0	43	0	521142272	24	5299
2026-01-16 09:14:14.39	75.17	34.35	-32.1	-35.7	9.6	1.32e-02	0	44	0	523239424	24	5443
2026-01-16 09:14:15.39	74.80	34.43	-32.0	-35.6	9.7	1.09e-02	0	44	0	525336576	24	5406
2026-01-16 09:14:16.39	74.43	34.50	-32.1	-35.8	9.6	9.70e-03	0	43	0	527433728	24	5521
2026-01-16 09:14:17.39	74.06	34.58	-32.0	-35.6	9.7	1.23e-02	0	43	0	528482304	24	5401
2026-01-16 09:14:18.40	73.69	34.65	-31.7	-34.3	10.7	5.92e-03	0	43	0	530579456	24	4886
2026-01-16 09:14:19.39	73.31	34.73	-31.3	-33.5	11.7	1.35e-03	0	43	0	532676608	23	4650
2026-01-16 09:14:20.40	72.93	34.80	-30.9	-32.3	12.6	1.66e-04	0	43	0	534773760	23	4213
2026-01-16 09:14:21.40	72.56	34.87	-30.7	-32.0	13.0	9.68e-05	0	43	0	536870912	22	4198
2026-01-16 09:14:22.39	72.18	34.94	-30.6	-31.7	13.3	1.52e-05	0	43	0	537919488	22	4106
2026-01-16 09:14:23.39	71.80	35.01	-30.7	-32.1	13.1	1.29e-05	0	43	0	540016640	22	4209
2026-01-16 09:14:24.39	71.42	35.07	-30.9	-32.6	12.8	7.24e-05	0	43	0	542113792	22	4389
2026-01-16 09:14:25.39	71.03	35.14	-30.8	-32.2	13.0	3.58e-05	0	43	0	544210944	22	4265
2026-01-16 09:14:26.39	70.65	35.20	-30.7	-32.0	13.1	7.09e-05	0	43	0	546308096	22	4178
2026-01-16 09:14:27.39	70.26	35.27	-30.3	-31.0	13.7	1.37e-05	0	43	0	547356672	22	3904
2026-01-16 09:14:28.39	69.87	35.33	-30.2	-31.3	13.9	1.50e-06	0	43	0	549453824	21	4081
2026-01-16 09:14:29.39	69.48	35.39	-30.6	-32.4	13.2	1.14e-05	0	43	0	551550976	21	4412
2026-01-16 09:14:30.39	69.09	35.45	-30.9	-33.2	12.6	5.72e-05	0	43	0	553648128	21	4699
2026-01-16 09:14:31.39	68.70	35.50	-31.1	-33.1	12.3	1.32e-04	0	43	0	555745280	22	4565
2026-01-16 09:14:32.40	68.30	35.56	-31.1	-33.3	12.3	2.94e-04	0	43	0	556793856	22	4612
2026-01-16 09:14:33.40	67.90	35.62	-30.7	-32.0	13.1	1.11e-04	0	43	0	558891008	22	4202
2026-01-16 09:14:34.40	67.51	35.67	-30.3	-31.0	13.7	1.29e-05	0	43	0	560988160	22	3912
2026-01-16 09:14:35.40	67.11	35.72	-29.8	-30.3	14.5	2.20e-06	0	43	0	563085312	21	3789
2026-01-16 09:14:36.41	66.70	35.77	-30.0	-30.7	14.3	7.00e-07	0	43	0	565182464	21	3916
2026-01-16 09:14:37.40	66.31	35.82	-30.4	-31.7	13.6	8.30e-06	0	43	0	566231040	21	4209
2026-01-16 09:14:38.40	65.90	35.87	-30.3	-31.4	13.8	4.50e-06	0	43	0	568328192	21	4108
2026-01-16 09:14:39.41	65.50	35.91	-30.2	-31.2	13.9	4.50e-06	0	44	0	570425344	21	4042
2026-01-16 09:14:40.40	65.10	35.96	-30.1	-31.1	14.0	7.00e-07	0	43	0	572522496	21	4026
2026-01-16 09:14:41.41	64.69	36.00	-30.4	-31.8	13.5	2.20e-06	0	43	0	573571072	21	4225
2026-01-16 09:14:42.40	64.29	36.04	-30.4	-31.9	13.4	1.60e-05	0	43	0	575668224	21	4266
2026-01-16 09:14:43.40	63.88	36.08	-30.1	-31.1	13.9	7.60e-06	0	43	0	577765376	21	4035
2026-01-16 09:14:44.40	63.47	36.11	-29.6	-30.3	14.8	0.00e+00	0	43	0	579862528	20	3876
2026-01-16 09:14:45.40	63.06	36.15	-29.4	-29.6	15.2	0.00e+00	0	43	0	581959680	20	3686
2026-01-16 09:14:46.39	62.66	36.18	-29.3	-29.8	15.4	1.50e-06	0	43	0	583008256	19	3835
2026-01-16 09:14:47.39	62.24	36.22	-29.3	-29.9	15.5	0.00e+00	0	43	0	585105408	19	3857
2026-01-16 09:14:48.40	61.83	36.25	-29.8	-31.1	14.7	0.00e+00	0	43	0	587202560	19	4192
2026-01-16 09:14:49.40	61.42	36.28	-30.0	-31.1	14.3	2.20e-06	0	43	0	589299712	20	4092
2026-01-16 09:14:50.40	61.00	36.31	-30.3	-31.9	13.9	4.50e-06	0	43	0	591396864	20	4344
2026-01-16 09:14:51.41	60.59	36.33	-30.2	-31.7	14.0	6.80e-06	0	43	0	592445440	20	4272
2026-01-16 09:14:52.41	60.17	36.36	-30.4	-32.2	13.7	6.80e-06	0	43	0	594542592	20	4416
2026-01-16 09:14:53.41	59.76	36.38	-30.6	-32.2	13.3	6.10e-06	0	43	0	596639744	21	4352
2026-01-16 09:14:54.41	59.34	36.40	-30.7	-32.4	13.2	9.90e-06	0	43	0	598736896	21	4404
2026-01-16 09:14:55.41	58.92	36.42	-30.6	-32.3	13.3	9.90e-06	0	43	0	600834048	21	4354
2026-01-16 09:14:56.41	58.51	36.44	-30.8	-32.7	13.0	1.60e-05	0	43	0	601882624	21	4492
2026-01-16 09:14:57.41	58.09	36.45	-30.8	-32.7	13.0	1.75e-05	0	43	0	603979776	21	4483
2026-01-16 09:14:58.42	57.67	36.47	-30.9	-32.6	12.8	5.26e-05	0	43	0	606076928	22	4358
2026-01-16 09:14:59.42	57.25	36.48	-30.7	-32.1	13.0	3.73e-05	0	43	0	608174080	22	4220
2026-01-16 09:15:00.42	56.83	36.49	-30.7	-32.1	13.1	4.88e-05	0	43	0	609222656	22	4211
2026-01-16 09:15:01.43	56.41	36.50	-30.7	-32.1	13.1	4.11e-05	0	43	0	611319808	22	4215
2026-01-16 09:15:02.43	55.99	36.50	-30.5	-31.5	13.5	1.29e-05	0	43	0	613416960	22	4035
2026-01-16 09:15:03.43	55.57	36.51	-30.4	-31.6	13.7	3.00e-06	0	44	0	615514112	21	4138
2026-01-16 09:15:04.44	55.15	36.51	-30.2	-31.1	14.1	1.50e-06	0	43	0	617611264	21	3994
2026-01-16 09:15:05.44	54.73	36.51	-30.5	-31.9	13.5	9.10e-06	0	43	0	618659840	21	4251
2026-01-16 09:15:06.44	54.31	36.51	-31.1	-33.1	12.4	3.81e-05	0	43	0	620756992	22	4542
2026-01-16 09:15:07.45	53.89	36.51	-30.9	-32.6	12.8	1.30e-04	0	43	0	622854144	22	4371
2026-01-16 09:15:08.45	53.47	36.51	-30.7	-32.0	13.1	3.20e-05	0	43	0	624951296	22	4193
2026-01-16 09:15:09.46	53.05	36.50	-30.8	-32.4	12.9	1.75e-05	0	43	0	627048448	22	4304
2026-01-16 09:15:10.46	52.63	36.50	-31.1	-33.2	12.4	7.47e-05	0	43	0	628097024	22	4587
2026-01-16 09:15:11.47	52.21	36.49	-31.3	-33.8	12.1	3.24e-04	0	43	0	630194176	22	4815
2026-01-16 09:15:12.46	51.80	36.48	-31.0	-32.9	12.4	2.35e-04	0	43	0	632291328	22	4484
2026-01-16 09:15:13.47	51.37	36.47	-30.8	-32.4	12.9	5.64e-05	0	43	0	634388480	22	4317
2026-01-16 09:15:14.46	50.96	36.45	-30.7	-32.2	12.9	4.73e-05	0	43	0	636485632	22	4257
2026-01-16 09:15:15.46	50.55	36.44	-31.2	-33.5	12.1	1.29e-04	0	43	0	637534208	22	4735
2026-01-16 09:15:16.47	50.12	36.42	-31.5	-34.2	11.1	7.91e-04	0	43	0	639631360	23	4896
2026-01-16 09:15:17.47	49.71	36.40	-32.0	-35.9	9.9	3.40e-03	0	43	0	641728512	23	5620
2026-01-16 09:15:18.47	49.29	36.38	-31.7	-34.5	10.5	6.60e-03	0	43	0	643825664	24	4935
2026-01-16 09:15:19.47	48.88	36.36	-31.5	-33.7	11.2	2.43e-03	0	43	0	645922816	24	4627
2026-01-16 09:15:20.47	48.46	36.33	-31.5	-33.5	11.3	1.61e-03	0	43	0	646971392	24	4548
2026-01-16 09:15:21.47	48.05	36.31	-31.6	-34.0	10.9	1.30e-03	0	43	0	649068544	24	4712
2026-01-16 09:15:22.47	47.64	36.28	-31.7	-34.3	10.7	3.88e-03	0	43	0	651165696	24	4826
2026-01-16 09:15:23.47	47.23	36.25	-31.5	-33.7	11.1	1.40e-03	0	43	0	653262848	24	4630
2026-01-16 09:15:24.47	46.81	36.22	-31.2	-33.2	11.9	3.78e-04	0	43	0	654311424	23	4521
2026-01-16 09:15:25.48	46.40	36.19	-31.0	-32.6	12.3	1.68e-04	0	43	0	656408576	23	4343
2026-01-16 09:15:26.47	45.99	36.15	-31.3	-33.4	11.6	4.58e-04	0	43	0	658505728	23	4624
2026-01-16 09:15:27.47	45.59	36.12	-31.5	-34.2	11.2	1.26e-03	0	43	0	660602880	23	4892
2026-01-16 09:15:28.47	45.18	36.08	-31.5	-34.2	11.1	2.33e-03	0	43	0	662700032	23	4908
2026-01-16 09:15:29.47	44.77	36.04	-31.6	-34.4	11.0	1.16e-03	0	43	0	663748608	23	4988
2026-01-16 09:15:30.47	44.37	36.00	-31.5	-34.0	11.2	8.70e-04	0	43	0	665845760	23	4828
2026-01-16 09:15:31.47	43.96	35.96	-31.5	-34.1	11.2	1.66e-03	0	43	0	667942912	23	4857
2026-01-16 09:15:32.47	43.56	35.91	-31.5	-34.1	11.2	1.45e-03	0	43	0	670040064	23	4877
2026-01-16 09:15:33.47	43.15	35.87	-31.2	-33.4	11.7	4.97e-04	0	43	0	672137216	23	4621
2026-01-16 09:15:34.47	42.75	35.82	-31.4	-33.9	11.3	1.22e-03	0	43	0	673185792	23	4781
2026-01-16 09:15:35.48	42.35	35.77	-31.7	-34.7	10.9	7.32e-04	0	43	0	675282944	23	5095
2026-01-16 09:15:36.48	41.95	35.72	-32.0	-35.2	10.0	6.31e-03	0	43	0	677380096	24	5229
2026-01-16 09:15:37.48	41.55	35.67	-32.4	-36.7	8.8	1.37e-02	0	43	0	679477248	24	5935
2026-01-16 09:15:38.48	41.16	35.62	-32.3	-35.9	9.1	3.52e-02	0	43	0	680525824	25	5489
2026-01-16 09:15:39.48	40.76	35.56	-32.0	-34.8	9.8	1.22e-02	0	43	0	682622976	25	5013
2026-01-16 09:15:40.48	40.37	35.51	-31.6	-34.2	10.6	4.52e-03	0	43	0	684720128	24	4836
2026-01-16 09:15:41.49	39.97	35.45	-31.3	-33.6	11.5	1.41e-03	0	43	0	686817280	23	4686
2026-01-16 09:15:42.48	39.58	35.39	-30.8	-32.1	12.5	4.33e-04	0	43	0	688914432	23	4167
2026-01-16 09:15:43.49	39.19	35.33	-30.3	-31.1	13.3	5.49e-05	0	43	0	689963008	22	3959
2026-01-16 09:15:44.49	38.80	35.27	-30.5	-32.4	12.8	3.28e-05	0	43	0	692060160	21	4440
2026-01-16 09:15:45.49	38.41	35.21	-30.9	-33.5	12.1	9.84e-05	0	43	0	694157312	21	4830
2026-01-16 09:15:46.49	38.03	35.14	-31.3	-33.5	11.4	1.32e-03	0	44	0	696254464	23	4676
2026-01-16 09:15:47.49	37.65	35.08	-31.3	-33.6	11.4	1.15e-03	0	43	0	698351616	23	4694
2026-01-16 09:15:48.49	37.26	35.01	-31.1	-33.0	11.8	9.03e-04	0	43	0	699400192	23	4475
2026-01-16 09:15:49.48	36.89	34.94	-30.8	-32.4	12.5	1.55e-04	0	43	0	701497344	22	4349
2026-01-16 09:15:50.48	36.51	34.87	-30.7	-32.1	12.8	6.40e-05	0	43	0	703594496	22	4258
2026-01-16 09:15:51.48	36.13	34.80	-30.4	-31.2	13.4	2.13e-05	0	43	0	705691648	22	3975
2026-01-16 09:15:52.49	35.75	34.73	-30.9	-32.6	12.6	2.89e-05	0	43	0	707788800	22	4377
2026-01-16 09:15:53.49	35.38	34.66	-31.4	-34.2	11.4	6.60e-04	0	43	0	708837376	22	4985
2026-01-16 09:15:54.50	35.00	34.58	-31.6	-34.3	11.0	2.66e-03	0	43	0	710934528	23	4905
2026-01-16 09:15:55.50	34.63	34.51	-32.1	-35.5	9.8	4.45e-03	0	43	0	713031680	24	5327
2026-01-16 09:15:56.50	34.26	34.43	-32.2	-36.0	9.4	8.40e-03	0	43	0	715128832	24	5546
2026-01-16 09:15:57.51	33.89	34.35	-32.4	-36.5	8.9	2.48e-02	0	43	0	717225984	24	5826
2026-01-16 09:15:58.51	33.53	34.27	-32.3	-36.5	9.0	3.39e-02	0	43	0	718274560	24	5811
2026-01-16 09:15:59.51	33.16	34.19	-32.2	-35.9	9.4	2.36e-02	0	43	0	720371712	24	5518
2026-01-16 09:16:00.51	32.80	34.11	-32.4	-36.4	9.1	1.82e-02	0	43	0	722468864	24	5739
2026-01-16 09:16:01.51	32.44	34.03	-32.3	-35.8	9.2	3.67e-02	0	43	0	724566016	25	5354
2026-01-16 09:16:02.51	32.09	33.95	-32.2	-35.4	9.4	1.50e-02	0	43	0	725614592	25	5204
2026-01-16 09:16:03.51	31.73	33.86	-31.7	-34.3	10.6	5.16e-03	0	43	0	727711744	24	4829
2026-01-16 09:16:04.51	31.38	33.78	-31.5	-33.7	11.0	2.74e-03	0	43	0	729808896	24	4614
2026-01-16 09:16:05.52	31.02	33.69	-31.7	-34.4	10.5	3.26e-03	0	43	0	731906048	24	4891
2026-01-16 09:16:06.52	30.67	33.60	-32.1	-35.7	9.5	8.43e-03	0	43	0	734003200	24	5443
2026-01-16 09:16:07.52	30.32	33.51	-32.0	-35.4	9.7	1.34e-02	0	43	0	735051776	24	5330
2026-01-16 09:16:08.51	29.98	33.43	-31.8	-34.7	10.3	5.57e-03	0	43	0	737148928	24	4997
2026-01-16 09:16:09.52	29.63	33.33	-31.6	-33.8	10.9	2.96e-03	0	44	0	739246080	24	4650
2026-01-16 09:16:10.52	29.29	33.24	-31.6	-34.0	10.8	2.25e-03	0	43	0	741343232	24	4723
2026-01-16 09:16:11.53	28.94	33.15	-31.5	-33.6	11.2	2.43e-03	0	43	0	743440384	24	4557
2026-01-16 09:16:12.53	28.61	33.06	-31.4	-33.1	11.5	7.29e-04	0	43	0	744488960	24	4369
2026-01-16 09:16:13.54	28.27	32.96	-31.4	-33.1	11.5	9.35e-04	0	43	0	746586112	24	4399
2026-01-16 09:16:14.54	27.93	32.87	-31.5	-33.4	11.3	1.38e-03	0	44	0	748683264	24	4473
2026-01-16 09:16:15.53	27.60	32.77	-31.6	-33.7	11.2	9.99e-04	0	43	0	750780416	24	4616
2026-01-16 09:16:16.53	27.27	32.68	-31.9	-34.8	10.2	1.43e-03	0	43	0	752877568	24	5041
2026-01-16 09:16:17.53	26.94	32.58	-32.1	-35.4	9.7	1.25e-02	0	43	0	753926144	24	5279
2026-01-16 09:16:18.53	26.62	32.48	-31.8	-34.6	10.3	5.79e-03	0	43	0	756023296	24	4948
2026-01-16 09:16:19.54	26.29	32.38	-31.3	-32.9	11.6	1.94e-03	0	43	0	758120448	24	4324
2026-01-16 09:16:20.54	25.96	32.28	-30.9	-32.3	12.3	4.81e-04	0	44	0	760217600	23	4199
2026-01-16 09:16:21.54	25.64	32.18	-30.9	-32.1	12.4	2.14e-04	0	43	0	761266176	23	4157
2026-01-16 09:16:22.54	25.32	32.08	-30.7	-32.1	12.7	6.33e-05	0	44	0	763363328	22	4224
2026-01-16 09:16:23.54	25.01	31.98	-31.0	-33.0	12.2	1.04e-04	0	43	0	765460480	22	4513
2026-01-16 09:16:24.54	24.69	31.88	-31.4	-34.3	11.3	5.23e-04	0	43	0	767557632	22	4996
2026-01-16 09:16:25.54	24.38	31.78	-31.9	-35.3	10.2	5.10e-03	0	43	0	769654784	23	5312
2026-01-16 09:16:26.55	24.07	31.68	-31.9	-35.3	10.2	5.01e-03	0	43	0	770703360	23	5317
2026-01-16 09:16:27.55	23.76	31.57	-31.9	-34.9	10.1	7.36e-03	0	43	0	772800512	24	5085
2026-01-16 09:16:28.55	23.45	31.47	-32.1	-35.7	9.6	9.47e-03	0	43	0	774897664	24	5412
2026-01-16 09:16:29.55	23.15	31.36	-32.3	-35.9	8.9	3.35e-02	0	43	0	776994816	25	5425
2026-01-16 09:16:30.55	22.84	31.26	-32.1	-35.0	9.6	1.55e-02	0	43	0	779091968	25	5048
2026-01-16 09:16:31.56	22.54	31.15	-32.1	-35.3	9.7	1.15e-02	0	43	0	780140544	25	5163
2026-01-16 09:16:32.56	22.24	31.04	-31.9	-34.4	10.1	8.45e-03	0	43	0	782237696	25	4816
2026-01-16 09:16:33.56	21.94	30.94	-31.8	-34.7	10.2	6.00e-03	0	43	0	784334848	24	5004
2026-01-16 09:16:34.57	21.65	30.83	-31.8	-34.5	10.2	5.48e-03	0	43	0	786432000	24	4949
2026-01-16 09:16:35.56	21.36	30.72	-32.3	-36.4	8.9	1.80e-02	0	43	0	788529152	24	5778
2026-01-16 09:16:36.57	21.06	30.61	-32.3	-36.5	8.8	3.18e-02	0	43	0	789577728	24	5818
2026-01-16 09:16:37.56	20.78	30.51	-32.4	-36.2	8.7	3.62e-02	0	44	0	791674880	25	5563
2026-01-16 09:16:38.57	20.49	30.40	-32.0	-34.7	9.9	1.53e-02	0	43	0	793772032	25	4930
2026-01-16 09:16:39.57	20.20	30.29	-32.1	-35.1	9.9	8.88e-03	0	43	0	795869184	25	5061
2026-01-16 09:16:40.56	19.92	30.18	-32.0	-34.6	9.9	1.03e-02	0	43	0	797966336	25	4850
2026-01-16 09:16:41.57	19.64	30.07	-32.2	-35.3	9.5	1.12e-02	0	43	0	799014912	25	5162
2026-01-16 09:16:42.57	19.36	29.96	-32.2	-35.3	9.4	1.68e-02	0	43	0	801112064	25	5171
2026-01-16 09:16:43.56	19.08	29.85	-32.0	-34.6	9.9	1.27e-02	0	43	0	803209216	25	4875
2026-01-16 09:16:44.57	18.81	29.74	-31.8	-34.3	10.5	4.95e-03	0	43	0	805306368	24	4833
2026-01-16 09:16:45.57	18.53	29.62	-31.5	-33.5	11.1	2.30e-03	0	43	0	806354944	24	4523
2026-01-16 09:16:46.57	18.26	29.51	-31.4	-33.1	11.4	1.33e-03	0	43	0	808452096	24	4382
2026-01-16 09:16:47.58	17.99	29.40	-31.4	-33.7	11.5	7.70e-04	0	44	0	810549248	23	4691
2026-01-16 09:16:48.58	17.72	29.29	-31.0	-32.6	12.2	5.00e-04	0	43	0	812646400	23	4285
2026-01-16 09:16:49.59	17.45	29.17	-30.6	-31.6	13.1	6.79e-05	0	43	0	814743552	22	4083
2026-01-16 09:16:50.59	17.19	29.06	-30.2	-31.1	13.7	9.90e-06	0	44	0	815792128	21	4026
2026-01-16 09:16:51.58	16.93	28.95	-30.0	-30.7	14.0	1.50e-06	0	43	0	817889280	21	3898
2026-01-16 09:16:52.59	16.67	28.84	-30.1	-31.0	13.8	3.00e-06	0	43	0	819986432	21	3991
2026-01-16 09:16:53.59	16.41	28.72	-30.4	-31.7	13.4	9.90e-06	0	43	0	822083584	21	4197
2026-01-16 09:16:54.60	16.15	28.61	-30.6	-32.2	13.0	4.04e-05	0	43	0	824180736	21	4368
2026-01-16 09:16:55.60	15.89	28.49	-30.7	-32.6	12.7	7.70e-05	0	43	0	825229312	21	4502
2026-01-16 09:16:56.60	15.64	28.38	-30.9	-32.8	12.3	2.13e-04	0	43	0	827326464	22	4460
2026-01-16 09:16:57.60	15.39	28.27	-31.0	-33.0	12.2	2.39e-04	0	43	0	829423616	22	4522
2026-01-16 09:16:58.60	15.14	28.15	-31.1	-33.2	12.0	3.65e-04	0	43	0	831520768	22	4615
2026-01-16 09:16:59.59	14.90	28.04	-30.8	-32.4	12.5	1.96e-04	0	43	0	833617920	22	4343
2026-01-16 09:17:00.60	14.65	27.92	-30.5	-31.5	13.1	3.73e-05	0	44	0	834666496	22	4055
2026-01-16 09:17:01.60	14.40	27.81	-30.3	-31.5	13.5	7.60e-06	0	43	0	836763648	21	4135
2026-01-16 09:17:02.60	14.16	27.69	-30.4	-31.8	13.2	1.22e-05	0	43	0	838860800	21	4230
2026-01-16 09:17:03.60	13.92	27.58	-30.4	-31.9	13.2	3.20e-05	0	43	0	840957952	21	4267
2026-01-16 09:17:04.60	13.68	27.47	-30.7	-32.8	12.5	5.95e-05	0	43	0	842006528	21	4564
2026-01-16 09:17:05.60	13.45	27.35	-30.8	-33.0	12.4	1.91e-04	0	44	0	844103680	21	4647
2026-01-16 09:17:06.61	13.21	27.23	-30.5	-32.3	12.9	7.93e-05	0	43	0	846200832	21	4390
2026-01-16 09:17:07.61	12.97	27.12	-30.1	-31.1	13.6	2.44e-05	0	43	0	848297984	21	4013
2026-01-16 09:17:08.61	12.74	27.00	-30.1	-31.0	13.9	1.50e-06	0	43	0	850395136	21	3992
2026-01-16 09:17:09.61	12.51	26.89	-29.9	-30.6	14.0	1.50e-06	0	43	0	851443712	21	3887
2026-01-16 09:17:10.61	12.28	26.77	-29.8	-30.7	14.2	1.50e-06	0	44	0	853540864	20	4002
2026-01-16 09:17:11.62	12.06	26.66	-30.0	-31.1	13.9	3.00e-06	0	43	0	855638016	20	4127
2026-01-16 09:17:12.62	11.83	26.54	-29.9	-30.9	14.1	7.00e-07	0	43	0	857735168	20	4062
2026-01-16 09:17:13.62	11.61	26.43	-29.9	-30.9	14.1	1.50e-06	0	43	0	859832320	20	4055
2026-01-16 09:17:14.62	11.39	26.31	-29.7	-30.6	14.3	7.00e-07	0	44	0	860880896	20	3965
2026-01-16 09:17:15.62	11.17	26.20	-30.0	-31.3	13.8	2.20e-06	0	43	0	862978048	20	4187
2026-01-16 09:17:16.63	10.94	26.08	-30.1	-31.6	13.6	8.30e-06	0	43	0	865075200	20	4260
2026-01-16 09:17:17.62	10.73	25.97	-30.4	-32.3	13.2	1.60e-05	0	43	0	867172352	20	4510
2026-01-16 09:17:18.62	10.51	25.85	-30.5	-32.1	12.9	3.35e-05	0	43	0	869269504	21	4340
2026-01-16 09:17:19.62	10.30	25.74	-30.7	-32.7	12.4	6.71e-05	0	44	0	870318080	21	4560
2026-01-16 09:17:20.62	10.09	25.62	-30.6	-32.4	12.7	8.46e-05	0	43	0	872415232	21	4436
2026-01-16 09:17:21.63	9.88	25.51	-30.5	-32.2	12.8	5.87e-05	0	44	0	874512384	21	4374
2026-01-16 09:17:22.63	9.67	25.39	-30.4	-31.8	13.1	4.80e-05	0	44	0	876609536	21	4243
2026-01-16 09:17:23.64	9.46	25.28	-30.3	-31.5	13.3	2.82e-05	0	43	0	878706688	21	4169
2026-01-16 09:17:24.64	9.25	25.16	-30.2	-31.5	13.3	1.67e-05	0	43	0	879755264	21	4150
2026-01-16 09:17:25.64	9.05	25.05	-30.3	-31.6	13.3	1.75e-05	0	43	0	881852416	21	4177
2026-01-16 09:17:26.64	8.84	24.94	-30.3	-31.7	13.2	3.05e-05	0	43	0	883949568	21	4218
2026-01-16 09:17:27.63	8.64	24.82	-30.0	-30.9	13.7	1.60e-05	0	44	0	886046720	21	3981
2026-01-16 09:17:28.64	8.44	24.71	-30.0	-30.8	13.8	9.90e-06	0	43	0	887095296	21	3942
2026-01-16 09:17:29.64	8.24	24.59	-29.9	-30.5	13.9	4.50e-06	0	43	0	889192448	21	3854
2026-01-16 09:17:30.64	8.05	24.48	-30.0	-30.7	13.8	3.00e-06	0	44	0	891289600	21	3933
2026-01-16 09:17:31.64	7.85	24.37	-29.9	-30.7	13.8	6.10e-06	0	43	0	893386752	21	3924
2026-01-16 09:17:32.64	7.66	24.25	-30.1	-31.1	13.6	3.80e-06	0	43	0	895483904	21	4043
2026-01-16 09:17:33.63	7.47	24.14	-30.2	-31.2	13.4	2.51e-05	0	44	0	896532480	21	4079
2026-01-16 09:17:34.64	7.27	24.03	-30.0	-30.8	13.8	1.06e-05	0	43	0	898629632	21	3945
2026-01-16 09:17:35.63	7.09	23.91	-30.0	-30.7	13.8	6.80e-06	0	44	0	900726784	21	3939
2026-01-16 09:17:36.63	6.90	23.80	-30.0	-31.3	13.7	4.50e-06	0	43	0	902823936	20	4178
2026-01-16 09:17:37.64	6.71	23.69	-29.8	-30.9	14.0	9.90e-06	0	44	0	904921088	20	4051
2026-01-16 09:17:38.65	6.52	23.57	-29.6	-30.3	14.4	7.00e-07	0	44	0	905969664	20	3895
2026-01-16 09:17:39.65	6.34	23.46	-29.7	-30.6	14.2	1.50e-06	0	43	0	908066816	20	3985
2026-01-16 09:17:40.64	6.15	23.35	-29.7	-30.5	14.2	7.00e-07	0	43	0	910163968	20	3957
2026-01-16 09:17:41.65	5.97	23.24	-29.8	-30.8	14.0	2.20e-06	0	43	0	912261120	20	4042
2026-01-16 09:17:42.65	5.79	23.12	-30.0	-31.2	13.8	4.50e-06	0	43	0	913309696	20	4145
2026-01-16 09:17:43.66	5.61	23.01	-30.1	-31.6	13.5	7.60e-06	0	44	0	915406848	20	4294
2026-01-16 09:17:44.66	5.43	22.90	-30.2	-31.8	13.4	1.06e-05	0	44	0	917504000	20	4347
2026-01-16 09:17:45.65	5.26	22.79	-30.4	-32.4	13.0	9.10e-06	0	43	0	919601152	20	4528
2026-01-16 09:17:46.66	5.08	22.68	-30.4	-32.1	12.8	9.07e-05	0	44	0	921698304	21	4340
2026-01-16 09:17:47.66	4.91	22.57	-30.7	-32.9	12.3	1.06e-04	0	43	0	923795456	21	4608
2026-01-16 09:17:48.66	4.73	22.45	-30.8	-33.2	12.1	3.06e-04	0	43	0	924844032	21	4727
2026-01-16 09:17:49.67	4.56	22.34	-30.9	-33.3	12.0	2.52e-04	0	44	0	926941184	21	4767
2026-01-16 09:17:50.67	4.39	22.23	-30.9	-33.5	11.8	3.75e-04	0	43	0	929038336	21	4860
2026-01-16 09:17:51.69	4.22	22.12	-30.8	-33.0	12.2	3.68e-04	0	43	0	931135488	21	4647
2026-01-16 09:17:52.69	4.05	22.01	-30.5	-32.1	12.8	1.49e-04	0	43	0	932184064	21	4358
2026-01-16 09:17:53.69	3.88	21.90	-30.3	-31.6	13.1	3.89e-05	0	43	0	934281216	21	4200
2026-01-16 09:17:54.70	3.72	21.79	-30.4	-31.9	13.0	3.05e-05	0	43	0	936378368	21	4268
2026-01-16 09:17:55.70	3.55	21.68	-30.0	-30.9	13.6	1.90e-05	0	43	0	938475520	21	3971
2026-01-16 09:17:56.70	3.39	21.57	-29.9	-30.5	13.9	8.30e-06	0	43	0	940572672	21	3872
2026-01-16 09:17:57.70	3.23	21.46	-29.8	-30.4	14.0	4.50e-06	0	43	0	941621248	21	3833
2026-01-16 09:17:58.70	3.07	21.35	-30.0	-30.8	13.7	6.80e-06	0	43	0	943718400	21	3940
2026-01-16 09:17:59.71	2.91	21.24	-30.2	-31.4	13.4	7.60e-06	0	43	0	945815552	21	4118
2026-01-16 09:18:00.71	2.75	21.14	-30.4	-31.9	13.0	2.13e-05	0	43	0	947912704	21	4274
2026-01-16 09:18:01.70	2.59	21.03	-30.4	-32.1	12.8	5.72e-05	0	44	0	950009856	21	4349
2026-01-16 09:18:02.71	2.43	20.92	-30.2	-31.5	13.2	5.72e-05	0	43	0	951058432	21	4148
2026-01-16 09:18:03.71	2.28	20.81	-30.3	-31.6	13.1	2.89e-05	0	43	0	953155584	21	4198
2026-01-16 09:18:04.71	2.12	20.70	-30.0	-30.7	13.7	1.37e-05	0	43	0	955252736	21	3929
2026-01-16 09:18:05.71	1.97	20.60	-29.8	-30.4	13.9	2.20e-06	0	43	0	957349888	21	3859
2026-01-16 09:18:06.71	1.82	20.49	-29.8	-30.7	14.0	1.50e-06	0	43	0	959447040	20	4020
2026-01-16 09:18:07.71	1.67	20.38	-29.7	-30.5	14.1	3.80e-06	0	43	0	960495616	20	3971
2026-01-16 09:18:08.72	1.52	20.28	-29.8	-30.9	13.9	6.10e-06	0	43	0	962592768	20	4065
2026-01-16 09:18:09.71	1.37	20.17	-30.0	-31.5	13.5	5.30e-06	0	43	0	964689920	20	4260
2026-01-16 09:18:10.71	1.22	20.07	-30.3	-32.3	13.0	2.21e-05	0	43	0	966787072	20	4516
2026-01-16 09:18:11.72	1.08	19.96	-30.6	-32.6	12.4	7.17e-05	0	43	0	968884224	21	4530
2026-01-16 09:18:12.72	0.93	19.85	-31.0	-33.7	11.7	2.11e-04	0	43	0	969932800	21	4925
2026-01-16 09:18:13.72	0.79	19.75	-31.2	-33.8	11.3	1.12e-03	0	43	0	972029952	22	4874
2026-01-16 09:18:14.73	0.64	19.64	-31.5	-34.6	10.3	2.83e-03	0	43	0	974127104	23	5086
2026-01-16 09:18:15.73	0.50	19.54	-31.7	-35.0	10.0	7.28e-03	0	44	0	976224256	23	5283
2026-01-16 09:18:16.73	0.36	19.43	-31.8	-35.5	9.6	7.68e-03	0	44	0	977272832	23	5508
2026-01-16 09:18:17.73	0.22	19.33	-31.9	-35.9	9.3	1.82e-02	0	44	0	979369984	23	5678
2026-01-16 09:18:18.74	0.08	19.22	-31.7	-35.3	9.8	1.50e-02	0	44	0	981467136	23	5396
2026-01-16 09:18:19.74	359.94	19.12	-31.7	-35.1	9.9	9.40e-03	0	43	0	983564288	23	5315
2026-01-16 09:18:20.74	359.80	19.02	-31.5	-34.5	10.4	5.46e-03	0	43	0	985661440	23	5072
2026-01-16 09:18:21.74	359.66	18.91	-31.6	-34.6	10.3	5.82e-03	0	43	0	986710016	23	5100
2026-01-16 09:18:22.74	359.53	18.81	-31.5	-34.4	10.5	3.98e-03	0	43	0	988807168	23	5000
2026-01-16 09:18:23.74	359.39	18.71	-31.5	-34.3	10.5	3.98e-03	0	43	0	990904320	23	4983
2026-01-16 09:18:24.74	359.26	18.61	-31.4	-34.0	10.7	3.25e-03	0	43	0	993001472	23	4844
2026-01-16 09:18:25.74	359.13	18.50	-31.4	-33.9	10.8	2.73e-03	0	43	0	995098624	23	4825
2026-01-16 09:18:26.74	359.00	18.40	-31.6	-34.6	10.2	3.74e-03	0	43	0	996147200	23	5110
2026-01-16 09:18:27.75	358.86	18.30	-31.7	-34.8	10.1	5.93e-03	0	43	0	998244352	23	5195
2026-01-16 09:18:28.75	358.73	18.20	-31.8	-35.3	9.8	6.70e-03	0	43	0	1000341504	23	5390
2026-01-16 09:18:29.75	358.60	18.10	-31.8	-35.3	9.8	1.31e-02	0	43	0	1002438656	23	5383
2026-01-16 09:18:30.74	358.48	18.00	-32.0	-36.0	9.2	1.17e-02	0	43	0	1003487232	23	5740
2026-01-16 09:18:31.75	358.35	17.90	-31.8	-35.0	9.6	2.00e-02	0	44	0	1005584384	24	5190
2026-01-16 09:18:32.75	358.22	17.80	-31.5	-34.0	10.4	8.77e-03	0	43	0	1007681536	24	4759
2026-01-16 09:18:33.75	358.10	17.70	-31.1	-33.2	11.3	2.73e-03	0	44	0	1009778688	23	4542
2026-01-16 09:18:34.75	357.97	17.60	-30.7	-32.5	12.1	3.87e-04	0	43	0	1011875840	22	4398
2026-01-16 09:18:35.75	357.85	17.50	-30.3	-31.2	12.9	9.76e-05	0	44	0	1013972992	22	4011
2026-01-16 09:18:36.76	357.72	17.40	-30.1	-31.1	13.2	3.28e-05	0	43	0	1015021568	21	4065
2026-01-16 09:18:37.76	357.60	17.30	-29.9	-30.6	13.6	1.22e-05	0	43	0	1017118720	21	3913
2026-01-16 09:18:38.76	357.48	17.20	-29.9	-30.8	13.5	4.50e-06	0	44	0	1019215872	21	3956
2026-01-16 09:18:39.77	357.36	17.10	-30.0	-30.9	13.4	1.06e-05	0	43	0	1021313024	21	3997
2026-01-16 09:18:40.77	357.24	17.00	-30.0	-30.9	13.5	1.06e-05	0	43	0	1022361600	21	3989
2026-01-16 09:18:41.76	357.12	16.91	-30.2	-31.5	13.0	3.96e-05	0	44	0	1024458752	21	4188
2026-01-16 09:18:42.76	357.00	16.81	-30.4	-32.1	12.6	5.41e-05	0	43	0	1026555904	21	4374
2026-01-16 09:18:43.76	356.88	16.71	-30.5	-32.3	12.5	8.01e-05	0	43	0	1028653056	21	4444
2026-01-16 09:18:44.77	356.77	16.61	-30.6	-32.6	12.3	1.49e-04	0	44	0	1030750208	21	4533
2026-01-16 09:18:45.77	356.65	16.52	-30.6	-32.7	12.2	1.56e-04	0	43	0	1031798784	21	4565
2026-01-16 09:18:46.78	356.53	16.42	-30.7	-32.8	12.1	2.30e-04	0	44	0	1033895936	21	4623
2026-01-16 09:18:47.77	356.42	16.32	-30.7	-32.9	12.1	3.09e-04	0	43	0	1035993088	21	4645
2026-01-16 09:18:48.77	356.31	16.23	-30.7	-33.0	12.0	3.31e-04	0	44	0	1038090240	21	4681
2026-01-16 09:18:49.77	356.19	16.13	-30.8	-33.3	11.8	4.23e-04	0	44	0	1040187392	21	4771
2026-01-16 09:18:50.78	356.08	16.03	-30.8	-33.2	11.8	6.31e-04	0	44	0	1041235968	21	4774
2026-01-16 09:18:51.77	355.97	15.94	-30.8	-33.4	11.7	5.97e-04	0	43	0	1043333120	21	4836
2026-01-16 09:18:52.77	355.86	15.85	-31.2	-33.8	11.1	1.05e-03	0	43	0	1045430272	22	4884
2026-01-16 09:18:53.78	355.75	15.75	-31.0	-33.4	11.4	1.81e-03	0	44	0	1047527424	22	4734
2026-01-16 09:18:54.78	355.64	15.66	-30.9	-33.1	11.6	6.49e-04	0	43	0	1048576000	22	4604
2026-01-16 09:18:55.78	355.53	15.56	-30.9	-32.9	11.6	5.12e-04	0	43	0	1050673152	22	4567
2026-01-16 09:18:56.77	355.42	15.47	-30.8	-32.6	11.9	4.07e-04	0	43	0	1052770304	22	4455
2026-01-16 09:18:57.77	355.32	15.37	-30.8	-32.6	11.9	3.94e-04	0	44	0	1054867456	22	4450
2026-01-16 09:18:58.77	355.21	15.28	-30.6	-32.1	12.2	2.69e-04	0	43	0	1056964608	22	4279
2026-01-16 09:18:59.76	355.11	15.19	-30.7	-32.4	12.1	2.88e-04	0	43	0	1058013184	22	4385
2026-01-16 09:19:00.76	355.00	15.10	-30.6	-32.3	12.2	2.57e-04	0	44	0	1060110336	22	4343
2026-01-16 09:19:01.77	354.89	15.00	-30.7	-32.4	12.1	2.06e-04	0	43	0	1062207488	22	4384
2026-01-16 09:19:02.77	354.79	14.91	-30.7	-32.4	12.0	3.21e-04	0	43	0	1064304640	22	4386
2026-01-16 09:19:03.78	354.69	14.82	-30.8	-32.9	11.7	4.52e-04	0	43	0	1066401792	22	4558
2026-01-16 09:19:04.78	354.58	14.73	-30.9	-32.9	11.7	6.81e-04	0	43	0	1067450368	22	4575
2026-01-16 09:19:05.79	354.48	14.63	-30.8	-32.8	11.8	5.06e-04	0	44	0	1069547520	22	4526
2026-01-16 09:19:06.79	354.38	14.54	-31.0	-33.3	11.3	7.82e-04	0	43	0	1071644672	22	4723
2026-01-16 09:19:07.79	354.28	14.45	-31.2	-34.0	10.8	1.63e-03	0	43	0	1073741824	22	4991
2026-01-16 09:19:08.79	354.18	14.36	-31.2	-34.1	10.7	2.97e-03	0	43	0	1075838976	22	5008
2026-01-16 09:19:09.79	354.08	14.27	-31.3	-34.5	10.4	4.64e-03	0	44	0	1076887552	22	5187
2026-01-16 09:19:10.79	353.98	14.18	-31.3	-34.5	10.3	4.99e-03	0	43	0	1078984704	22	5194
2026-01-16 09:19:11.79	353.88	14.09	-31.4	-34.7	10.3	5.10e-03	0	43	0	1081081856	22	5290
2026-01-16 09:19:12.79	353.79	14.00	-31.2	-34.2	10.6	3.92e-03	0	44	0	1083179008	22	5089
2026-01-16 09:19:13.80	353.69	13.91	-31.3	-34.3	10.6	3.19e-03	0	44	0	1084227584	22	5118
2026-01-16 09:19:14.80	353.59	13.82	-31.0	-33.5	11.2	3.16e-03	0	43	0	1086324736	22	4785
2026-01-16 09:19:15.80	353.50	13.73	-30.8	-32.8	11.6	8.75e-04	0	44	0	1088421888	22	4546
2026-01-16 09:19:16.80	353.40	13.64	-30.6	-32.4	12.0	4.35e-04	0	43	0	1090519040	22	4394
2026-01-16 09:19:17.81	353.31	13.55	-30.5	-32.0	12.2	2.26e-04	0	43	0	1092616192	22	4286
2026-01-16 09:19:18.80	353.21	13.46	-30.4	-31.7	12.4	1.35e-04	0	43	0	1094713344	22	4167
2026-01-16 09:19:19.81	353.12	13.37	-30.3	-31.5	12.5	1.21e-04	0	43	0	1095761920	22	4118
2026-01-16 09:19:20.81	353.03	13.29	-30.3	-31.8	12.6	5.72e-05	0	43	0	1097859072	21	4283
2026-01-16 09:19:21.80	352.94	13.20	-30.2	-31.6	12.7	1.07e-04	0	43	0	1099956224	21	4227
2026-01-16 09:19:22.81	352.84	13.11	-30.2	-31.6	12.7	9.07e-05	0	44	0	1102053376	21	4227
2026-01-16 09:19:23.81	352.75	13.02	-30.3	-31.9	12.5	1.01e-04	0	43	0	1103101952	21	4345
2026-01-16 09:19:24.81	352.66	12.94	-30.2	-31.7	12.6	1.15e-04	0	43	0	1105199104	21	4275
2026-01-16 09:19:25.81	352.57	12.85	-30.2	-31.8	12.6	8.54e-05	0	43	0	1107296256	21	4284
2026-01-16 09:19:26.82	352.48	12.76	-30.2	-31.7	12.6	7.55e-05	0	43	0	1109393408	21	4283
2026-01-16 09:19:27.82	352.39	12.68	-30.4	-32.2	12.3	1.20e-04	0	43	0	1111490560	21	4440
2026-01-16 09:19:28.82	352.31	12.59	-30.3	-32.0	12.4	1.33e-04	0	43	0	1112539136	21	4377
2026-01-16 09:19:29.82	352.22	12.50	-30.3	-31.8	12.5	1.18e-04	0	43	0	1114636288	21	4316
2026-01-16 09:19:30.83	352.13	12.42	-30.3	-32.0	12.4	1.18e-04	0	43	0	1116733440	21	4368
2026-01-16 09:19:31.82	352.04	12.33	-30.4	-32.2	12.3	1.93e-04	0	43	0	1118830592	21	4449
2026-01-16 09:19:32.83	351.96	12.25	-30.4	-32.2	12.4	1.20e-04	0	43	0	1120927744	21	4429
2026-01-16 09:19:33.83	351.87	12.16	-30.5	-32.4	12.2	2.08e-04	0	43	0	1121976320	21	4507
2026-01-16 09:19:34.83	351.79	12.08	-30.5	-32.5	12.0	3.55e-04	0	43	0	1124073472	21	4545
2026-01-16 09:19:35.84	351.70	11.99	-30.5	-32.5	12.0	3.33e-04	0	43	0	1126170624	21	4544
2026-01-16 09:19:36.83	351.62	11.91	-30.7	-33.0	11.7	3.84e-04	0	43	0	1128267776	21	4712
2026-01-16 09:19:37.83	351.53	11.83	-30.7	-33.0	11.7	6.18e-04	0	43	0	1129316352	21	4728
2026-01-16 09:19:38.83	351.45	11.74	-30.7	-33.2	11.5	4.54e-04	0	43	0	1131413504	21	4803
2026-01-16 09:19:39.84	351.37	11.66	-30.8	-33.3	11.5	1.03e-03	0	43	0	1133510656	21	4837
2026-01-16 09:19:40.84	351.29	11.57	-30.8	-33.5	11.3	1.17e-03	0	43	0	1135607808	21	4887
2026-01-16 09:19:41.84	351.21	11.49	-30.9	-33.7	11.2	1.31e-03	0	43	0	1137704960	21	4969
2026-01-16 09:19:42.84	351.12	11.41	-30.9	-33.9	11.0	1.82e-03	0	43	0	1138753536	21	5076
2026-01-16 09:19:43.84	351.04	11.33	-30.9	-33.4	11.1	1.85e-03	0	44	0	1140850688	22	4771
2026-01-16 09:19:44.84	350.96	11.24	-30.9	-33.4	11.1	1.35e-03	0	43	0	1142947840	22	4771
2026-01-16 09:19:45.83	350.88	11.16	-31.0	-33.7	10.9	1.95e-03	0	43	0	1145044992	22	4880
2026-01-16 09:19:46.84	350.80	11.08	-31.0	-33.7	10.9	2.30e-03	0	43	0	1147142144	22	4887
2026-01-16 09:19:47.84	350.73	11.00	-31.1	-33.8	10.8	1.91e-03	0	44	0	1148190720	22	4952
2026-01-16 09:19:48.84	350.65	10.92	-31.3	-34.6	10.2	4.45e-03	0	43	0	1150287872	22	5259
2026-01-16 09:19:49.83	350.57	10.84	-31.3	-34.5	10.2	7.14e-03	0	43	0	1152385024	22	5210
2026-01-16 09:19:50.83	350.49	10.76	-31.0	-33.8	10.8	3.53e-03	0	43	0	1154482176	22	4918
2026-01-16 09:19:51.84	350.42	10.67	-31.1	-33.9	10.7	2.66e-03	0	43	0	1156579328	22	4968
2026-01-16 09:19:52.83	350.34	10.59	-31.1	-33.9	10.6	3.10e-03	0	43	0	1157627904	22	4984
2026-01-16 09:19:53.84	350.26	10.51	-31.3	-34.5	10.1	6.38e-03	0	43	0	1159725056	22	5253
2026-01-16 09:19:54.84	350.19	10.43	-31.4	-35.1	9.7	9.66e-03	0	43	0	1161822208	22	5521
2026-01-16 09:19:55.85	350.11	10.35	-31.5	-34.9	9.5	1.27e-02	0	43	0	1163919360	23	5342
2026-01-16 09:19:56.85	350.04	10.27	-31.6	-35.2	9.3	1.64e-02	0	43	0	1164967936	23	5470
2026-01-16 09:19:57.84	349.96	10.19	-31.6	-35.2	9.2	2.06e-02	0	43	0	1167065088	23	5478
2026-01-16 09:19:58.85	349.89	10.11	-31.7	-35.6	9.0	2.13e-02	0	44	0	1169162240	23	5659
2026-01-16 09:19:59.85	349.82	10.03	-31.8	-36.1	8.6	3.52e-02	0	44	0	1171259392	23	5910
2026-01-16 09:20:00.85	349.74	9.95	-31.7	-35.7	8.8	3.27e-02	0	43	0	1173356544	23	5685
2026-01-16 09:20:01.86	349.67	9.87	-31.7	-35.9	8.7	3.08e-02	0	44	0	1174405120	23	5788
2026-01-16 09:20:02.86	349.60	9.80	-31.8	-35.9	8.6	3.16e-02	0	43	0	1176502272	23	5821
2026-01-16 09:20:03.86	349.52	9.72	-31.8	-36.1	8.5	4.28e-02	0	44	0	1178599424	23	5896
2026-01-16 09:20:04.86	349.45	9.64	-31.8	-36.0	8.5	4.15e-02	0	43	0	1180696576	23	5847
2026-01-16 09:20:05.87	349.38	9.56	-31.8	-36.2	8.4	4.34e-02	0	44	0	1182793728	23	5974
2026-01-16 09:20:06.87	349.31	9.48	-31.8	-36.2	8.4	5.75e-02	0	44	0	1183842304	23	5967
2026-01-16 09:20:07.88	349.24	9.40	-31.7	-35.8	8.7	3.70e-02	0	43	0	1185939456	23	5762
2026-01-16 09:20:08.88	349.17	9.33	-31.7	-35.9	8.6	3.06e-02	0	43	0	1188036608	23	5806
2026-01-16 09:20:09.89	349.10	9.25	-31.6	-35.3	9.1	3.27e-02	0	44	0	1190133760	23	5515
2026-01-16 09:20:10.89	349.03	9.17	-31.5	-35.0	9.2	2.27e-02	0	43	0	1192230912	23	5390
2026-01-16 09:20:11.89	348.96	9.10	-31.4	-34.6	9.5	1.55e-02	0	43	0	1193279488	23	5226
2026-01-16 09:20:12.89	348.89	9.02	-31.5	-35.1	9.1	1.58e-02	0	43	0	1195376640	23	5453
2026-01-16 09:20:13.89	348.83	8.94	-31.4	-34.7	9.4	1.46e-02	0	43	0	1197473792	23	5246
2026-01-16 09:20:14.89	348.76	8.87	-31.3	-34.4	9.7	9.81e-03	0	44	0	1199570944	23	5145
2026-01-16 09:20:15.89	348.69	8.79	-31.5	-35.1	9.2	1.57e-02	0	44	0	1201668096	23	5437
2026-01-16 09:20:16.89	348.63	8.71	-31.3	-34.3	9.7	1.88e-02	0	44	0	1202716672	23	5115
2026-01-16 09:20:17.90	348.56	8.64	-31.1	-33.5	10.3	6.62e-03	0	43	0	1204813824	23	4762
2026-01-16 09:20:18.89	348.49	8.56	-30.9	-33.1	10.6	4.36e-03	0	44	0	1206910976	23	4628
2026-01-16 09:20:19.90	348.43	8.49	-30.8	-33.2	10.9	2.44e-03	0	43	0	1209008128	22	4742
2026-01-16 09:20:20.90	348.36	8.41	-30.9	-33.4	10.7	2.92e-03	0	43	0	1211105280	22	4830
2026-01-16 09:20:21.91	348.30	8.34	-31.0	-34.0	10.3	3.76e-03	0	43	0	1212153856	22	5055
2026-01-16 09:20:22.91	348.23	8.26	-30.9	-33.4	10.7	3.77e-03	0	44	0	1214251008	22	4802
2026-01-16 09:20:23.92	348.17	8.19	-30.9	-33.6	10.6	3.29e-03	0	44	0	1216348160	22	4882
2026-01-16 09:20:24.91	348.10	8.11	-30.9	-33.5	10.6	4.03e-03	0	44	0	1218445312	22	4869
2026-01-16 09:20:25.92	348.04	8.04	-31.1	-34.1	10.2	4.93e-03	0	43	0	1219493888	22	5116
2026-01-16 09:20:26.92	347.98	7.96	-31.1	-34.3	10.0	4.94e-03	0	44	0	1221591040	22	5177
2026-01-16 09:20:27.92	347.91	7.89	-30.9	-33.7	10.4	5.90e-03	0	43	0	1223688192	22	4942
2026-01-16 09:20:28.92	347.85	7.82	-31.1	-34.1	10.1	5.57e-03	0	44	0	1225785344	22	5086
2026-01-16 09:20:29.92	347.79	7.74	-31.1	-34.3	10.0	5.60e-03	0	44	0	1227882496	22	5193
2026-01-16 09:20:30.92	347.73	7.67	-31.2	-34.5	9.9	8.35e-03	0	43	0	1228931072	22	5279
2026-01-16 09:20:31.93	347.66	7.60	-31.1	-34.4	9.9	1.13e-02	0	43	0	1231028224	22	5257
2026-01-16 09:20:32.93	347.60	7.52	-31.2	-34.8	9.5	1.54e-02	0	44	0	1233125376	22	5424
2026-01-16 09:20:33.93	347.54	7.45	-31.5	-35.2	8.8	1.68e-02	0	43	0	1235222528	23	5551
2026-01-16 09:20:34.94	347.48	7.38	-31.3	-34.7	9.2	2.05e-02	0	44	0	1237319680	23	5297
2026-01-16 09:20:35.94	347.42	7.31	-31.3	-34.5	9.4	1.87e-02	0	43	0	1238368256	23	5223
2026-01-16 09:20:36.94	347.36	7.23	-31.2	-34.3	9.6	2.02e-02	0	44	0	1240465408	23	5114
2026-01-16 09:20:37.95	347.30	7.16	-31.4	-34.9	9.1	1.71e-02	0	44	0	1242562560	23	5384
2026-01-16 09:20:38.96	347.24	7.09	-31.4	-34.9	9.0	2.35e-02	0	43	0	1244659712	23	5405
2026-01-16 09:20:39.96	347.18	7.02	-33.1	-44.0	3.8	6.34e-01	0	43	104	1245708288	26	12589

#Closed at: 2026-01-16 09:20:40
#Recorded file [1245 MB]: D:/data/31010_260116_120934.dat