passes_logs/2026/01/16/R2M6_AANII_01/R2M6_AANII_01__20260116_011704_NOAA_20_JPSS-1_rec.log

#Pass ID: 20260116_011704_NOAA 20 (JPSS-1)
#Satellite: NOAA 20 (JPSS-1)
#Configuration: NOAA 20
#almurnet v.1.7.20240730
#Start time: 2026-01-16 01:17:05

#Version: 2.2.20231116
#Station: R2M6_AANII_01
#Location: 30.233357 lon 59.946436 lat
#TLE: 1 43013U 17073A   26015.47098083  .00000029  00000+0  34851-4 0  9997
#TLE: 2 43013  98.7636 316.4053 0001479  38.6686 321.4595 14.19536048422808

#Time	Az	El	Level	Level2	SNR	BER	BlckErr	Temp	State	Recorded	gain1	gain2
2026-01-16 01:17:05.36	13.85	7.03	-31.9	-38.6	5.0	1.28e+00	0	41	0	0	23	7768
2026-01-16 01:17:06.35	13.81	7.10	-32.0	-38.6	4.9	1.30e+00	0	41	104	0	24	7650
2026-01-16 01:17:07.35	13.76	7.17	-32.0	-38.4	7.5	1.04e-01	0	41	0	0	24	7469
2026-01-16 01:17:08.34	13.71	7.25	-32.0	-38.2	7.7	9.57e-02	0	41	0	1048576	24	7336
2026-01-16 01:17:09.34	13.67	7.32	-31.9	-38.4	8.0	7.30e-02	0	41	0	3145728	23	7550
2026-01-16 01:17:10.34	13.62	7.40	-32.0	-38.5	7.5	9.66e-02	0	41	0	5242880	24	7542
2026-01-16 01:17:11.34	13.57	7.47	-32.0	-38.3	7.6	1.23e-01	0	41	0	7340032	24	7419
2026-01-16 01:17:12.34	13.53	7.55	-32.0	-38.1	7.8	8.90e-02	0	41	0	8388608	24	7267
2026-01-16 01:17:13.33	13.48	7.62	-31.7	-37.3	8.8	5.32e-02	0	41	0	10485760	23	6851
2026-01-16 01:17:14.33	13.43	7.70	-31.5	-36.6	9.4	2.68e-02	0	41	0	12582912	23	6466
2026-01-16 01:17:15.33	13.39	7.77	-31.3	-36.2	10.1	8.99e-03	0	41	0	14680064	22	6352
2026-01-16 01:17:16.33	13.34	7.85	-31.1	-35.6	10.6	4.92e-03	0	41	0	16777216	22	6021
2026-01-16 01:17:17.32	13.29	7.92	-30.9	-35.0	11.0	5.91e-03	0	42	0	17825792	22	5748
2026-01-16 01:17:18.32	13.24	8.00	-30.8	-35.1	11.3	2.27e-03	0	42	0	19922944	21	5907
2026-01-16 01:17:19.32	13.19	8.08	-30.8	-35.0	11.4	1.40e-03	0	42	0	22020096	21	5864
2026-01-16 01:17:20.32	13.14	8.15	-30.8	-35.0	11.5	1.01e-03	0	41	0	24117248	21	5822
2026-01-16 01:17:21.31	13.09	8.23	-30.8	-35.0	11.5	1.67e-03	0	42	0	26214400	21	5818
2026-01-16 01:17:22.31	13.04	8.31	-30.6	-34.3	12.0	8.66e-04	0	42	0	27262976	21	5526
2026-01-16 01:17:23.31	12.99	8.38	-30.6	-34.5	11.8	4.37e-04	0	42	0	29360128	21	5607
2026-01-16 01:17:24.31	12.94	8.46	-30.7	-34.5	11.9	1.92e-03	0	42	0	31457280	21	5604
2026-01-16 01:17:25.31	12.89	8.54	-30.6	-34.4	11.9	3.17e-03	0	42	0	33554432	21	5583
2026-01-16 01:17:26.32	12.84	8.62	-30.7	-34.5	11.8	4.90e-04	0	42	0	34603008	21	5625
2026-01-16 01:17:27.31	12.79	8.70	-30.6	-34.3	12.1	7.38e-04	0	42	0	36700160	21	5517
2026-01-16 01:17:28.32	12.74	8.77	-30.6	-34.4	11.9	3.53e-03	0	42	0	38797312	21	5586
2026-01-16 01:17:29.32	12.69	8.85	-30.4	-33.8	12.4	1.64e-04	0	42	0	40894464	21	5322
2026-01-16 01:17:30.32	12.64	8.93	-30.5	-34.2	12.1	7.12e-04	0	42	0	42991616	21	5471
2026-01-16 01:17:31.32	12.58	9.01	-30.6	-34.4	11.9	2.22e-03	0	42	0	44040192	21	5576
2026-01-16 01:17:32.31	12.53	9.09	-30.4	-33.8	12.4	2.98e-03	0	42	0	46137344	21	5295
2026-01-16 01:17:33.31	12.48	9.17	-30.5	-34.0	12.3	6.35e-04	0	42	0	48234496	21	5376
2026-01-16 01:17:34.32	12.42	9.25	-30.4	-33.8	12.4	5.65e-04	0	42	0	50331648	21	5307
2026-01-16 01:17:35.32	12.37	9.33	-30.6	-34.3	12.1	2.74e-03	0	42	0	52428800	21	5498
2026-01-16 01:17:36.32	12.32	9.41	-30.7	-34.5	12.0	7.16e-04	0	42	0	53477376	21	5568
2026-01-16 01:17:37.32	12.26	9.49	-30.5	-34.0	12.3	5.71e-04	0	42	0	55574528	21	5399
2026-01-16 01:17:38.32	12.21	9.57	-30.4	-33.7	12.5	1.34e-04	0	42	0	57671680	21	5264
2026-01-16 01:17:39.33	12.15	9.65	-30.5	-34.0	12.3	1.13e-03	0	42	0	59768832	21	5382
2026-01-16 01:17:40.33	12.10	9.73	-30.4	-33.8	12.5	4.71e-04	0	42	0	61865984	21	5287
2026-01-16 01:17:41.33	12.04	9.82	-30.4	-34.2	12.5	1.33e-04	0	42	0	62914560	20	5587
2026-01-16 01:17:42.33	11.98	9.90	-30.5	-34.0	12.4	9.70e-04	0	42	0	65011712	21	5356
2026-01-16 01:17:43.33	11.93	9.98	-30.4	-34.1	12.6	4.06e-04	0	42	0	67108864	20	5538
2026-01-16 01:17:44.34	11.87	10.06	-30.5	-34.0	12.4	1.17e-04	0	42	0	69206016	21	5361
2026-01-16 01:17:45.34	11.81	10.14	-30.5	-34.0	12.3	5.61e-04	0	42	0	70254592	21	5379
2026-01-16 01:17:46.34	11.76	10.23	-30.5	-33.9	12.4	2.91e-03	0	42	0	72351744	21	5340
2026-01-16 01:17:47.34	11.70	10.31	-30.4	-34.2	12.6	8.31e-05	0	42	0	74448896	20	5563
2026-01-16 01:17:48.35	11.64	10.39	-30.5	-33.8	12.5	3.68e-04	0	42	0	76546048	21	5298
2026-01-16 01:17:49.35	11.58	10.48	-30.6	-34.1	12.3	3.30e-04	0	42	0	78643200	21	5423
2026-01-16 01:17:50.34	11.52	10.56	-30.6	-34.1	12.3	1.98e-04	0	42	0	79691776	21	5410
2026-01-16 01:17:51.34	11.47	10.64	-30.5	-34.0	12.4	3.11e-04	0	42	0	81788928	21	5361
2026-01-16 01:17:52.34	11.41	10.73	-30.5	-33.9	12.5	3.23e-04	0	42	0	83886080	21	5320
2026-01-16 01:17:53.35	11.35	10.81	-30.5	-33.9	12.5	1.30e-04	0	42	0	85983232	21	5318
2026-01-16 01:17:54.35	11.29	10.90	-30.5	-33.9	12.4	3.79e-04	0	42	0	88080384	21	5342
2026-01-16 01:17:55.35	11.23	10.98	-30.4	-34.1	12.6	3.78e-04	0	42	0	89128960	20	5535
2026-01-16 01:17:56.35	11.16	11.07	-30.4	-34.1	12.7	9.91e-05	0	42	0	91226112	20	5494
2026-01-16 01:17:57.35	11.10	11.15	-30.3	-33.8	12.9	5.34e-05	0	42	0	93323264	20	5410
2026-01-16 01:17:58.36	11.04	11.24	-30.4	-34.0	12.7	3.39e-04	0	42	0	95420416	20	5491
2026-01-16 01:17:59.36	10.98	11.33	-30.3	-33.9	12.9	3.58e-05	0	42	0	96468992	20	5419
2026-01-16 01:18:00.36	10.92	11.41	-30.3	-33.9	12.8	5.34e-05	0	43	0	98566144	20	5436
2026-01-16 01:18:01.35	10.85	11.50	-30.3	-33.8	12.9	4.11e-05	0	42	0	100663296	20	5389
2026-01-16 01:18:02.35	10.79	11.58	-30.4	-34.0	12.8	5.11e-05	0	43	0	102760448	20	5488
2026-01-16 01:18:03.36	10.73	11.67	-30.4	-33.7	12.6	4.39e-04	0	43	0	104857600	21	5247
2026-01-16 01:18:04.36	10.66	11.76	-30.4	-34.2	12.7	7.85e-05	0	43	0	106954752	20	5535
2026-01-16 01:18:05.36	10.60	11.85	-29.8	-33.3	12.4	9.53e-05	0	43	0	108003328	21	5423
2026-01-16 01:18:06.36	10.53	11.94	-30.3	-34.7	12.0	5.51e-04	0	43	0	110100480	20	5962
2026-01-16 01:18:07.36	10.47	12.02	-30.8	-34.9	11.3	5.48e-04	0	43	0	112197632	21	5730
2026-01-16 01:18:08.37	10.40	12.11	-30.7	-34.4	11.8	2.74e-04	0	43	0	114294784	21	5516
2026-01-16 01:18:09.36	10.34	12.20	-30.6	-34.3	11.4	5.54e-04	0	43	0	115343360	21	5467
2026-01-16 01:18:10.36	10.27	12.29	-30.7	-34.5	11.9	2.81e-03	0	43	0	117440512	21	5569
2026-01-16 01:18:11.36	10.20	12.38	-30.6	-34.3	12.3	1.94e-04	0	43	0	119537664	21	5459
2026-01-16 01:18:12.36	10.14	12.47	-30.7	-34.4	12.2	3.68e-04	0	43	0	121634816	21	5509
2026-01-16 01:18:13.37	10.07	12.56	-30.7	-34.4	12.2	5.09e-04	0	43	0	123731968	21	5521
2026-01-16 01:18:14.38	10.00	12.65	-30.6	-34.2	12.4	2.16e-04	0	43	0	124780544	21	5446
2026-01-16 01:18:15.38	9.93	12.74	-30.4	-34.0	12.9	8.23e-05	0	43	0	126877696	20	5468
2026-01-16 01:18:16.39	9.86	12.83	-30.3	-33.8	13.0	3.60e-04	0	43	0	128974848	20	5393
2026-01-16 01:18:17.39	9.79	12.92	-30.5	-34.3	12.7	4.55e-04	0	43	0	131072000	20	5570
2026-01-16 01:18:18.39	9.72	13.02	-30.6	-34.2	12.4	1.10e-04	0	43	0	133169152	21	5433
2026-01-16 01:18:19.39	9.65	13.11	-30.7	-34.5	12.2	2.45e-04	0	43	0	134217728	21	5539
2026-01-16 01:18:20.40	9.58	13.20	-30.6	-34.0	12.5	1.61e-04	0	43	0	136314880	21	5363
2026-01-16 01:18:21.40	9.51	13.29	-30.6	-34.2	12.4	2.46e-03	0	43	0	138412032	21	5426
2026-01-16 01:18:22.40	9.43	13.38	-30.6	-34.2	12.4	1.21e-04	0	43	0	140509184	21	5422
2026-01-16 01:18:23.40	9.36	13.48	-30.6	-34.2	12.5	1.50e-04	0	43	0	141557760	21	5414
2026-01-16 01:18:24.40	9.29	13.57	-30.7	-34.3	12.4	2.90e-03	0	43	0	143654912	21	5450
2026-01-16 01:18:25.40	9.22	13.66	-30.6	-34.0	12.6	1.23e-04	0	43	0	145752064	21	5334
2026-01-16 01:18:26.40	9.14	13.76	-30.5	-33.9	12.7	1.02e-04	0	43	0	147849216	21	5297
2026-01-16 01:18:27.41	9.07	13.85	-30.4	-34.1	12.9	3.24e-04	0	43	0	149946368	20	5486
2026-01-16 01:18:28.41	8.99	13.95	-30.7	-34.2	12.5	2.47e-03	0	43	0	152043520	21	5421
2026-01-16 01:18:29.41	8.92	14.04	-30.8	-34.6	12.2	2.38e-04	0	43	0	153092096	21	5607
2026-01-16 01:18:30.41	8.84	14.14	-30.5	-33.7	12.8	1.04e-04	0	43	0	155189248	21	5228
2026-01-16 01:18:31.42	8.76	14.23	-30.3	-33.7	13.2	2.68e-03	0	43	0	157286400	20	5326
2026-01-16 01:18:32.42	8.69	14.33	-30.1	-33.3	13.5	3.02e-04	0	43	0	159383552	20	5155
2026-01-16 01:18:33.42	8.61	14.42	-30.1	-33.2	13.5	1.44e-05	0	43	0	160432128	20	5125
2026-01-16 01:18:34.42	8.53	14.52	-30.1	-33.1	13.6	2.57e-03	0	43	0	162529280	20	5107
2026-01-16 01:18:35.43	8.45	14.62	-30.1	-33.2	13.5	2.37e-04	0	43	0	164626432	20	5130
2026-01-16 01:18:36.42	8.37	14.71	-30.1	-33.2	13.6	9.90e-06	0	43	0	166723584	20	5119
2026-01-16 01:18:37.42	8.29	14.81	-30.1	-33.2	13.6	1.37e-05	0	43	0	168820736	20	5117
2026-01-16 01:18:38.42	8.21	14.91	-30.2	-33.5	13.3	2.94e-04	0	43	0	169869312	20	5230
2026-01-16 01:18:39.42	8.13	15.01	-30.2	-33.3	13.4	2.37e-03	0	43	0	171966464	20	5187
2026-01-16 01:18:40.42	8.05	15.11	-30.0	-32.9	13.7	5.30e-06	0	43	0	174063616	20	5034
2026-01-16 01:18:41.42	7.97	15.20	-30.0	-33.0	13.7	2.79e-04	0	43	0	176160768	20	5044
2026-01-16 01:18:42.43	7.89	15.30	-30.0	-32.9	13.7	2.58e-03	0	43	0	178257920	20	5017
2026-01-16 01:18:43.42	7.81	15.40	-30.0	-32.9	13.7	2.49e-03	0	43	0	179306496	20	5020
2026-01-16 01:18:44.42	7.72	15.50	-30.1	-33.0	13.6	3.80e-06	0	43	0	181403648	20	5061
2026-01-16 01:18:45.42	7.64	15.60	-30.1	-33.1	13.6	2.45e-03	0	43	0	183500800	20	5083
2026-01-16 01:18:46.43	7.55	15.70	-30.0	-32.8	13.9	2.23e-03	0	43	0	185597952	20	4960
2026-01-16 01:18:47.42	7.47	15.80	-30.0	-32.8	13.8	3.80e-06	0	43	0	186646528	20	4982
2026-01-16 01:18:48.43	7.38	15.91	-30.0	-32.9	13.8	2.23e-03	0	43	0	188743680	20	5003
2026-01-16 01:18:49.42	7.30	16.01	-30.1	-33.1	13.7	2.47e-03	0	43	0	190840832	20	5078
2026-01-16 01:18:50.43	7.21	16.11	-30.2	-33.4	13.4	2.90e-04	0	43	0	192937984	20	5209
2026-01-16 01:18:51.43	7.12	16.21	-30.2	-33.4	13.4	2.46e-03	0	43	0	195035136	20	5215
2026-01-16 01:18:52.43	7.03	16.31	-30.1	-33.0	13.7	2.42e-03	0	43	0	196083712	20	5047
2026-01-16 01:18:53.43	6.94	16.42	-30.0	-33.0	13.7	2.88e-04	0	43	0	198180864	20	5038
2026-01-16 01:18:54.44	6.85	16.52	-30.1	-33.0	13.6	2.28e-03	0	43	0	200278016	20	5045
2026-01-16 01:18:55.44	6.76	16.62	-30.1	-33.1	13.7	2.21e-03	0	43	0	202375168	20	5092
2026-01-16 01:18:56.44	6.67	16.73	-30.1	-33.2	13.5	2.78e-04	0	43	0	204472320	20	5122
2026-01-16 01:18:57.44	6.58	16.83	-30.1	-33.0	13.8	2.16e-03	0	43	0	205520896	20	5037
2026-01-16 01:18:58.43	6.49	16.94	-30.0	-32.8	13.9	2.48e-03	0	43	0	207618048	20	4953
2026-01-16 01:18:59.44	6.39	17.04	-30.1	-33.0	13.8	2.23e-04	0	43	0	209715200	20	5035
2026-01-16 01:19:00.44	6.30	17.15	-30.0	-32.8	13.9	2.52e-03	0	43	0	211812352	20	4980
2026-01-16 01:19:01.44	6.21	17.25	-30.1	-33.2	13.7	2.45e-03	0	43	0	213909504	20	5096
2026-01-16 01:19:02.44	6.11	17.36	-30.1	-33.0	13.8	2.53e-04	0	43	0	214958080	20	5044
2026-01-16 01:19:03.44	6.02	17.47	-30.2	-33.3	13.6	2.47e-03	0	43	0	217055232	20	5144
2026-01-16 01:19:04.45	5.92	17.57	-30.2	-33.3	13.6	2.33e-03	0	43	0	219152384	20	5163
2026-01-16 01:19:05.46	5.82	17.68	-30.1	-33.1	13.7	5.43e-04	0	43	0	221249536	20	5086
2026-01-16 01:19:06.46	5.72	17.79	-30.1	-33.0	13.8	2.26e-03	0	43	0	223346688	20	5038
2026-01-16 01:19:07.46	5.62	17.90	-30.2	-33.2	13.7	2.59e-03	0	43	0	224395264	20	5129
2026-01-16 01:19:08.46	5.53	18.01	-30.2	-33.4	13.6	1.91e-04	0	43	0	226492416	20	5189
2026-01-16 01:19:09.46	5.43	18.12	-30.2	-33.4	13.5	2.79e-03	0	43	0	228589568	20	5200
2026-01-16 01:19:10.46	5.33	18.23	-30.3	-33.6	13.4	2.55e-03	0	43	0	230686720	20	5258
2026-01-16 01:19:11.47	5.22	18.34	-30.3	-33.7	13.4	3.52e-04	0	43	0	232783872	20	5292
2026-01-16 01:19:12.47	5.12	18.45	-30.3	-33.5	13.5	2.08e-04	0	43	0	233832448	20	5234
2026-01-16 01:19:13.47	5.02	18.56	-30.3	-33.7	13.4	2.29e-03	0	43	0	235929600	20	5290
2026-01-16 01:19:14.47	4.91	18.67	-30.4	-33.8	13.3	3.42e-04	0	43	0	238026752	20	5351
2026-01-16 01:19:15.47	4.81	18.78	-30.4	-33.5	13.3	2.46e-04	0	43	0	240123904	21	5091
2026-01-16 01:19:16.48	4.70	18.89	-30.4	-33.9	13.2	2.64e-03	0	43	0	241172480	20	5379
2026-01-16 01:19:17.48	4.60	19.00	-30.4	-33.9	13.3	3.22e-04	0	43	0	243269632	20	5367
2026-01-16 01:19:18.48	4.49	19.12	-30.5	-34.1	13.2	2.62e-03	0	43	0	245366784	20	5451
2026-01-16 01:19:19.49	4.38	19.23	-30.6	-33.8	13.0	3.12e-05	0	43	0	247463936	21	5231
2026-01-16 01:19:20.49	4.27	19.34	-30.6	-34.0	12.9	3.22e-04	0	43	0	249561088	21	5296
2026-01-16 01:19:21.50	4.16	19.46	-30.6	-33.8	13.0	2.61e-03	0	43	0	250609664	21	5230
2026-01-16 01:19:22.50	4.05	19.57	-30.6	-33.9	13.0	5.34e-05	0	43	0	252706816	21	5276
2026-01-16 01:19:23.50	3.94	19.69	-30.6	-33.8	13.0	4.42e-05	0	43	0	254803968	21	5232
2026-01-16 01:19:24.50	3.83	19.80	-30.6	-33.7	13.1	2.43e-03	0	43	0	256901120	21	5199
2026-01-16 01:19:25.50	3.71	19.92	-30.6	-34.0	12.9	2.69e-03	0	43	0	258998272	21	5287
2026-01-16 01:19:26.50	3.60	20.03	-30.7	-34.0	12.9	4.50e-05	0	43	0	260046848	21	5301
2026-01-16 01:19:27.50	3.49	20.15	-30.6	-33.8	13.1	2.67e-03	0	43	0	262144000	21	5217
2026-01-16 01:19:28.49	3.37	20.26	-30.7	-34.1	12.9	2.68e-03	0	43	0	264241152	21	5325
2026-01-16 01:19:29.50	3.25	20.38	-30.6	-33.9	13.0	3.73e-05	0	43	0	266338304	21	5268
2026-01-16 01:19:30.50	3.14	20.50	-30.6	-33.9	13.0	4.27e-05	0	43	0	267386880	21	5263
2026-01-16 01:19:31.50	3.02	20.62	-30.6	-33.9	13.0	2.51e-03	0	43	0	269484032	21	5267
2026-01-16 01:19:32.51	2.90	20.74	-30.6	-33.9	13.0	5.18e-05	0	43	0	271581184	21	5241
2026-01-16 01:19:33.50	2.78	20.86	-30.8	-34.3	12.7	6.56e-05	0	43	0	273678336	21	5430
2026-01-16 01:19:34.50	2.66	20.97	-30.9	-34.6	12.5	1.17e-04	0	43	0	275775488	21	5522
2026-01-16 01:19:35.50	2.54	21.09	-30.7	-34.2	12.9	3.62e-04	0	43	0	276824064	21	5353
2026-01-16 01:19:36.50	2.41	21.21	-30.7	-34.1	12.9	3.73e-05	0	43	0	278921216	21	5340
2026-01-16 01:19:37.50	2.29	21.33	-30.7	-34.0	13.0	3.43e-05	0	43	0	281018368	21	5293
2026-01-16 01:19:38.51	2.16	21.46	-30.7	-34.0	13.0	2.98e-04	0	43	0	283115520	21	5300
2026-01-16 01:19:39.51	2.04	21.58	-30.7	-34.2	12.9	5.49e-05	0	43	0	285212672	21	5354
2026-01-16 01:19:40.50	1.91	21.70	-30.7	-34.1	12.9	5.79e-05	0	44	0	286261248	21	5319
2026-01-16 01:19:41.50	1.78	21.82	-30.6	-33.8	13.1	5.79e-05	0	43	0	288358400	21	5210
2026-01-16 01:19:42.50	1.65	21.94	-30.6	-33.9	13.1	2.50e-03	0	43	0	290455552	21	5249
2026-01-16 01:19:43.50	1.52	22.07	-30.7	-34.0	13.1	2.51e-05	0	43	0	292552704	21	5280
2026-01-16 01:19:44.49	1.39	22.19	-30.7	-34.1	13.0	3.89e-05	0	43	0	294649856	21	5302
2026-01-16 01:19:45.49	1.26	22.31	-30.6	-33.9	13.1	2.05e-05	0	43	0	295698432	21	5256
2026-01-16 01:19:46.49	1.13	22.44	-30.7	-34.1	12.9	3.50e-05	0	43	0	297795584	21	5332
2026-01-16 01:19:47.48	0.99	22.56	-30.7	-34.2	12.9	8.62e-05	0	43	0	299892736	21	5361
2026-01-16 01:19:48.48	0.86	22.68	-30.6	-33.8	13.1	4.19e-05	0	43	0	301989888	21	5208
2026-01-16 01:19:49.49	0.72	22.81	-30.5	-33.6	13.2	2.43e-03	0	43	0	303038464	21	5141
2026-01-16 01:19:50.49	0.58	22.94	-30.6	-33.8	13.2	2.28e-05	0	43	0	305135616	21	5221
2026-01-16 01:19:51.49	0.44	23.06	-30.6	-33.8	13.1	2.97e-05	0	43	0	307232768	21	5221
2026-01-16 01:19:52.49	0.30	23.19	-30.6	-33.9	13.1	1.90e-05	0	43	0	309329920	21	5241
2026-01-16 01:19:53.50	0.16	23.32	-30.6	-33.8	13.2	2.28e-05	0	43	0	311427072	21	5217
2026-01-16 01:19:54.49	0.02	23.45	-30.6	-33.9	13.1	3.66e-05	0	43	0	312475648	21	5222
2026-01-16 01:19:55.49	359.87	23.57	-30.5	-33.6	13.3	2.28e-05	0	44	0	314572800	21	5107
2026-01-16 01:19:56.49	359.73	23.70	-30.5	-33.6	13.3	3.29e-04	0	44	0	316669952	21	5110
2026-01-16 01:19:57.50	359.58	23.83	-30.4	-33.3	13.5	1.90e-05	0	43	0	318767104	21	4990
2026-01-16 01:19:58.50	359.43	23.96	-30.5	-33.6	13.3	1.22e-05	0	43	0	320864256	21	5114
2026-01-16 01:19:59.50	359.28	24.09	-30.6	-33.8	13.2	1.90e-05	0	43	0	321912832	21	5185
2026-01-16 01:20:00.50	359.13	24.22	-30.7	-34.1	13.0	3.05e-05	0	44	0	324009984	21	5329
2026-01-16 01:20:01.50	358.98	24.35	-30.6	-33.7	13.3	1.90e-05	0	43	0	326107136	21	5165
2026-01-16 01:20:02.50	358.83	24.48	-30.6	-33.7	13.3	1.90e-05	0	43	0	328204288	21	5180
2026-01-16 01:20:03.50	358.68	24.62	-30.7	-33.9	13.1	2.74e-05	0	43	0	329252864	21	5254
2026-01-16 01:20:04.50	358.52	24.75	-30.8	-34.2	12.9	4.73e-05	0	43	0	331350016	21	5355
2026-01-16 01:20:05.51	358.36	24.88	-30.8	-34.3	13.0	6.10e-05	0	44	0	333447168	21	5376
2026-01-16 01:20:06.51	358.20	25.02	-30.8	-34.3	12.9	9.30e-05	0	43	0	335544320	21	5380
2026-01-16 01:20:07.51	358.05	25.15	-30.7	-34.2	13.0	4.27e-05	0	43	0	337641472	21	5341
2026-01-16 01:20:08.50	357.89	25.28	-30.8	-34.4	12.8	5.41e-05	0	44	0	338690048	21	5442
2026-01-16 01:20:09.51	357.72	25.42	-30.9	-34.5	12.7	5.11e-05	0	43	0	340787200	21	5490
2026-01-16 01:20:10.51	357.56	25.55	-30.8	-34.4	12.8	7.09e-05	0	44	0	342884352	21	5439
2026-01-16 01:20:11.52	357.39	25.69	-30.8	-34.3	12.9	5.95e-05	0	43	0	344981504	21	5396
2026-01-16 01:20:12.52	357.23	25.82	-31.1	-34.6	12.4	9.53e-05	0	44	0	347078656	22	5421
2026-01-16 01:20:13.51	357.06	25.96	-31.1	-34.6	12.4	1.85e-04	0	43	0	348127232	22	5412
2026-01-16 01:20:14.51	356.89	26.09	-31.1	-34.7	12.4	1.18e-04	0	43	0	350224384	22	5443
2026-01-16 01:20:15.51	356.72	26.23	-30.2	-33.9	12.2	2.39e-04	0	43	0	352321536	22	5490
2026-01-16 01:20:16.51	356.55	26.37	-31.2	-34.8	12.2	1.09e-04	0	43	0	354418688	22	5494
2026-01-16 01:20:17.51	356.37	26.51	-31.6	-35.5	12.0	1.45e-04	0	44	0	356515840	22	5644
2026-01-16 01:20:18.51	356.20	26.64	-30.9	-34.6	11.7	7.01e-05	0	43	0	357564416	21	5519
2026-01-16 01:20:19.51	356.02	26.78	-30.9	-34.6	12.7	6.48e-05	0	43	0	359661568	21	5507
2026-01-16 01:20:20.52	355.84	26.92	-31.0	-34.4	12.2	6.63e-05	0	44	0	361758720	22	5323
2026-01-16 01:20:21.51	355.66	27.06	-31.2	-34.9	12.0	1.56e-04	0	43	0	363855872	22	5524
2026-01-16 01:20:22.52	355.48	27.20	-31.1	-34.7	12.3	2.95e-04	0	43	0	365953024	22	5457
2026-01-16 01:20:23.52	355.30	27.34	-31.0	-34.8	12.6	1.46e-04	0	44	0	367001600	21	5577
2026-01-16 01:20:24.52	355.11	27.48	-30.9	-34.5	12.8	2.13e-03	0	43	0	369098752	21	5460
2026-01-16 01:20:25.52	354.92	27.62	-30.8	-34.2	13.0	4.11e-05	0	43	0	371195904	21	5348
2026-01-16 01:20:26.53	354.73	27.77	-30.8	-34.2	13.0	3.96e-05	0	43	0	373293056	21	5360
2026-01-16 01:20:27.54	354.54	27.91	-30.7	-34.1	13.1	3.20e-05	0	43	0	374341632	21	5294
2026-01-16 01:20:28.54	354.35	28.05	-30.8	-34.2	13.0	4.04e-05	0	43	0	376438784	21	5340
2026-01-16 01:20:29.54	354.16	28.19	-30.7	-34.1	13.2	2.21e-05	0	43	0	378535936	21	5295
2026-01-16 01:20:30.54	353.96	28.34	-30.6	-33.7	13.4	2.74e-05	0	43	0	380633088	21	5158
2026-01-16 01:20:31.54	353.76	28.48	-30.6	-33.8	13.3	4.21e-04	0	43	0	382730240	21	5186
2026-01-16 01:20:32.55	353.56	28.62	-30.7	-34.1	13.1	1.29e-05	0	43	0	383778816	21	5300
2026-01-16 01:20:33.55	353.36	28.77	-30.8	-34.2	13.1	1.98e-05	0	43	0	385875968	21	5327
2026-01-16 01:20:34.55	353.16	28.91	-30.9	-34.5	12.9	3.50e-05	0	43	0	387973120	21	5439
2026-01-16 01:20:35.54	352.96	29.05	-31.0	-34.3	12.7	1.84e-03	0	44	0	390070272	22	5278
2026-01-16 01:20:36.54	352.75	29.20	-31.1	-34.5	12.6	1.24e-04	0	43	0	392167424	22	5338
2026-01-16 01:20:37.54	352.54	29.34	-31.2	-34.9	12.3	1.19e-04	0	43	0	393216000	22	5491
2026-01-16 01:20:38.54	352.33	29.49	-31.3	-35.0	12.2	2.16e-03	0	43	0	395313152	22	5549
2026-01-16 01:20:39.54	352.12	29.63	-31.4	-35.5	11.9	3.39e-04	0	43	0	397410304	22	5773
2026-01-16 01:20:40.55	351.90	29.78	-31.7	-36.0	11.2	6.74e-04	0	44	0	399507456	23	5893
2026-01-16 01:20:41.55	351.69	29.93	-31.8	-36.4	10.9	3.98e-03	0	44	0	401604608	23	6061
2026-01-16 01:20:42.55	351.47	30.07	-31.8	-36.4	10.9	4.02e-03	0	44	0	402653184	23	6063
2026-01-16 01:20:43.55	351.25	30.22	-31.9	-36.4	10.8	3.06e-03	0	44	0	404750336	23	6095
2026-01-16 01:20:44.56	351.03	30.37	-31.9	-36.5	10.8	3.25e-03	0	43	0	406847488	23	6155
2026-01-16 01:20:45.57	350.80	30.52	-32.0	-36.4	10.5	5.96e-03	0	44	0	408944640	24	5966
2026-01-16 01:20:46.57	350.57	30.67	-32.1	-36.8	10.2	4.89e-03	0	43	0	411041792	24	6204
2026-01-16 01:20:47.57	350.34	30.81	-32.1	-36.7	10.3	6.66e-03	0	43	0	412090368	24	6142
2026-01-16 01:20:48.57	350.11	30.96	-32.2	-37.0	10.1	8.05e-03	0	43	0	414187520	24	6256
2026-01-16 01:20:49.57	349.88	31.11	-32.2	-36.9	10.1	8.41e-03	0	43	0	416284672	24	6247
2026-01-16 01:20:50.56	349.65	31.26	-32.2	-37.3	9.8	6.91e-03	0	43	0	418381824	24	6450
2026-01-16 01:20:51.56	349.41	31.41	-32.3	-37.6	9.7	1.54e-02	0	44	0	420478976	24	6584
2026-01-16 01:20:52.56	349.17	31.55	-32.2	-36.9	10.1	9.26e-03	0	44	0	421527552	24	6237
2026-01-16 01:20:53.56	348.93	31.70	-32.1	-36.6	10.4	8.19e-03	0	43	0	423624704	24	6079
2026-01-16 01:20:54.56	348.69	31.85	-32.1	-36.6	10.4	5.04e-03	0	43	0	425721856	24	6082
2026-01-16 01:20:55.55	348.44	32.00	-32.1	-36.7	10.3	5.87e-03	0	44	0	427819008	24	6103
2026-01-16 01:20:56.56	348.19	32.15	-32.0	-36.3	10.6	5.49e-03	0	44	0	428867584	24	5897
2026-01-16 01:20:57.56	347.94	32.30	-32.0	-36.7	10.7	2.84e-03	0	44	0	430964736	23	6234
2026-01-16 01:20:58.56	347.69	32.45	-32.0	-36.3	10.6	3.34e-03	0	44	0	433061888	24	5910
2026-01-16 01:20:59.57	347.43	32.60	-31.9	-36.0	10.8	4.06e-03	0	43	0	435159040	24	5797
2026-01-16 01:21:00.57	347.17	32.75	-32.0	-36.5	10.5	3.73e-03	0	44	0	437256192	24	6005
2026-01-16 01:21:01.57	346.91	32.90	-32.1	-36.8	10.3	5.32e-03	0	44	0	438304768	24	6189
2026-01-16 01:21:02.57	346.65	33.05	-32.2	-37.2	10.0	7.06e-03	0	44	0	440401920	24	6363
2026-01-16 01:21:03.57	346.39	33.20	-32.2	-37.1	10.0	1.02e-02	0	44	0	442499072	24	6340
2026-01-16 01:21:04.57	346.12	33.35	-32.1	-36.7	10.3	6.23e-03	0	44	0	444596224	24	6134
2026-01-16 01:21:05.57	345.85	33.50	-32.1	-36.9	10.3	6.21e-03	0	44	0	446693376	24	6197
2026-01-16 01:21:06.57	345.57	33.65	-32.2	-37.0	10.2	8.12e-03	0	43	0	447741952	24	6257
2026-01-16 01:21:07.56	345.30	33.80	-32.3	-37.5	9.8	6.62e-03	0	44	0	449839104	24	6509
2026-01-16 01:21:08.57	345.02	33.95	-32.2	-37.1	10.1	9.34e-03	0	43	0	451936256	24	6299
2026-01-16 01:21:09.56	344.74	34.10	-32.0	-36.5	10.6	6.18e-03	0	44	0	454033408	24	5992
2026-01-16 01:21:10.57	344.46	34.26	-31.9	-35.9	10.9	3.15e-03	0	44	0	455081984	24	5754
2026-01-16 01:21:11.56	344.18	34.40	-31.8	-36.1	11.2	3.79e-03	0	44	0	457179136	23	5917
2026-01-16 01:21:12.56	343.89	34.55	-31.7	-35.9	11.3	3.77e-03	0	44	0	459276288	23	5836
2026-01-16 01:21:13.56	343.60	34.70	-31.7	-35.7	11.4	1.11e-03	0	44	0	461373440	23	5746
2026-01-16 01:21:14.56	343.30	34.85	-31.5	-35.2	11.8	3.17e-03	0	44	0	463470592	23	5515
2026-01-16 01:21:15.56	343.01	35.00	-31.4	-35.3	12.1	2.73e-03	0	44	0	464519168	22	5648
2026-01-16 01:21:16.57	342.70	35.15	-31.3	-35.2	12.2	2.99e-04	0	44	0	466616320	22	5627
2026-01-16 01:21:17.57	342.40	35.30	-31.4	-35.4	12.1	2.53e-03	0	44	0	468713472	22	5716
2026-01-16 01:21:18.57	342.10	35.45	-31.3	-35.2	12.2	2.28e-03	0	43	0	470810624	22	5627
2026-01-16 01:21:19.57	341.79	35.60	-31.3	-35.0	12.3	3.65e-04	0	44	0	472907776	22	5546
2026-01-16 01:21:20.57	341.48	35.75	-31.1	-34.6	12.6	2.22e-03	0	44	0	473956352	22	5363
2026-01-16 01:21:21.57	341.16	35.90	-31.2	-34.9	12.5	2.46e-03	0	43	0	476053504	22	5482
2026-01-16 01:21:22.57	340.85	36.04	-31.2	-34.8	12.5	2.33e-04	0	44	0	478150656	22	5469
2026-01-16 01:21:23.57	340.53	36.19	-31.3	-35.2	12.2	2.59e-03	0	43	0	480247808	22	5623
2026-01-16 01:21:24.57	340.21	36.34	-31.4	-35.5	12.0	2.59e-03	0	44	0	482344960	22	5757
2026-01-16 01:21:25.56	339.89	36.49	-31.3	-35.0	12.4	3.20e-04	0	44	0	483393536	22	5525
2026-01-16 01:21:26.56	339.56	36.63	-31.2	-34.9	12.4	3.70e-04	0	44	0	485490688	22	5499
2026-01-16 01:21:27.56	339.23	36.78	-31.1	-34.6	12.6	2.23e-03	0	44	0	487587840	22	5373
2026-01-16 01:21:28.56	338.89	36.92	-31.1	-34.6	12.6	7.09e-05	0	44	0	489684992	22	5377
2026-01-16 01:21:29.56	338.56	37.07	-31.1	-34.6	12.7	2.17e-03	0	44	0	490733568	22	5347
2026-01-16 01:21:30.56	338.22	37.21	-31.2	-34.9	12.4	2.50e-03	0	44	0	492830720	22	5464
2026-01-16 01:21:31.56	337.87	37.36	-31.3	-34.9	12.4	1.61e-04	0	44	0	494927872	22	5494
2026-01-16 01:21:32.56	337.53	37.50	-31.3	-35.1	12.3	2.58e-03	0	43	0	497025024	22	5555
2026-01-16 01:21:33.56	337.18	37.64	-31.4	-35.5	12.0	3.01e-04	0	44	0	499122176	22	5753
2026-01-16 01:21:34.56	336.82	37.79	-31.4	-35.4	12.1	2.79e-04	0	44	0	500170752	22	5691
2026-01-16 01:21:35.57	336.47	37.93	-31.4	-35.3	12.2	2.52e-03	0	44	0	502267904	22	5650
2026-01-16 01:21:36.57	336.11	38.07	-31.5	-35.6	12.0	3.35e-04	0	44	0	504365056	22	5799
2026-01-16 01:21:37.57	335.75	38.21	-31.5	-35.2	11.9	4.81e-04	0	44	0	506462208	23	5510
2026-01-16 01:21:38.57	335.38	38.35	-31.5	-35.1	11.9	2.54e-03	0	44	0	508559360	23	5464
2026-01-16 01:21:39.57	335.01	38.49	-31.6	-35.4	11.7	2.71e-03	0	43	0	509607936	23	5602
2026-01-16 01:21:40.57	334.64	38.63	-31.5	-35.2	11.9	4.74e-04	0	44	0	511705088	23	5513
2026-01-16 01:21:41.57	334.27	38.76	-31.4	-35.3	12.1	2.04e-03	0	44	0	513802240	22	5675
2026-01-16 01:21:42.57	333.89	38.90	-31.3	-35.0	12.4	1.37e-03	0	44	0	515899392	22	5512
2026-01-16 01:21:43.57	333.51	39.03	-31.3	-35.1	12.3	2.37e-04	0	44	0	516947968	22	5559
2026-01-16 01:21:44.56	333.13	39.17	-31.4	-35.3	12.2	3.68e-04	0	44	0	519045120	22	5647
2026-01-16 01:21:45.57	332.74	39.30	-31.5	-35.3	11.8	6.25e-04	0	44	0	521142272	23	5556
2026-01-16 01:21:46.57	332.35	39.43	-31.6	-35.4	11.8	6.03e-04	0	44	0	523239424	23	5578
2026-01-16 01:21:47.57	331.95	39.57	-31.4	-34.8	12.2	5.19e-04	0	44	0	525336576	23	5337
2026-01-16 01:21:48.57	331.56	39.70	-31.2	-34.9	12.5	1.39e-04	0	44	0	526385152	22	5473
2026-01-16 01:21:49.57	331.16	39.83	-31.3	-34.9	12.4	2.81e-04	0	44	0	528482304	22	5502
2026-01-16 01:21:50.57	330.75	39.95	-31.4	-35.3	12.2	2.44e-04	0	44	0	530579456	22	5643
2026-01-16 01:21:51.57	330.35	40.08	-31.4	-35.3	12.2	2.58e-04	0	44	0	532676608	22	5679
2026-01-16 01:21:52.57	329.94	40.21	-31.2	-34.9	12.5	3.48e-04	0	44	0	534773760	22	5487
2026-01-16 01:21:53.58	329.52	40.33	-30.9	-33.9	13.2	1.51e-03	0	43	0	535822336	22	5066
2026-01-16 01:21:54.58	329.10	40.46	-30.7	-33.8	13.5	9.90e-06	0	44	0	537919488	21	5160
2026-01-16 01:21:55.58	328.68	40.58	-30.8	-34.1	13.3	3.65e-04	0	44	0	540016640	21	5282
2026-01-16 01:21:56.58	328.26	40.70	-30.6	-33.8	13.5	1.92e-03	0	44	0	542113792	21	5154
2026-01-16 01:21:57.58	327.84	40.82	-30.5	-33.3	13.9	3.80e-06	0	44	0	544210944	21	4974
2026-01-16 01:21:58.57	327.41	40.93	-30.4	-33.5	14.0	4.04e-04	0	43	0	545259520	20	5172
2026-01-16 01:21:59.57	326.98	41.05	-30.3	-33.4	14.1	3.36e-04	0	44	0	547356672	20	5140
2026-01-16 01:22:00.57	326.54	41.16	-30.3	-33.3	14.1	2.26e-03	0	44	0	549453824	20	5102
2026-01-16 01:22:01.57	326.11	41.28	-30.3	-33.4	14.1	2.38e-04	0	43	0	551550976	20	5119
2026-01-16 01:22:02.57	325.67	41.39	-30.4	-33.5	14.0	2.32e-04	0	44	0	552599552	20	5166
2026-01-16 01:22:03.57	325.22	41.50	-30.4	-33.6	14.0	2.07e-03	0	44	0	554696704	20	5183
2026-01-16 01:22:04.57	324.77	41.61	-30.4	-33.5	14.0	3.07e-04	0	44	0	556793856	20	5169
2026-01-16 01:22:05.58	324.32	41.72	-30.4	-33.5	14.0	3.65e-04	0	44	0	558891008	20	5173
2026-01-16 01:22:06.58	323.87	41.82	-30.3	-33.4	14.1	1.50e-06	0	44	0	560988160	20	5123
2026-01-16 01:22:07.58	323.41	41.93	-30.3	-33.4	14.1	7.00e-07	0	43	0	562036736	20	5126
2026-01-16 01:22:08.58	322.95	42.03	-30.5	-33.3	13.9	3.78e-04	0	44	0	564133888	21	4964
2026-01-16 01:22:09.59	322.48	42.13	-30.6	-33.7	13.6	1.22e-05	0	44	0	566231040	21	5110
2026-01-16 01:22:10.59	322.02	42.23	-30.7	-34.0	13.4	3.04e-04	0	44	0	568328192	21	5233
2026-01-16 01:22:11.59	321.55	42.32	-30.7	-33.9	13.4	1.83e-04	0	44	0	570425344	21	5198
2026-01-16 01:22:12.59	321.08	42.42	-30.8	-34.1	13.3	1.67e-05	0	44	0	571473920	21	5266
2026-01-16 01:22:13.59	320.61	42.51	-30.8	-34.0	13.3	2.21e-05	0	44	0	573571072	21	5246
2026-01-16 01:22:14.60	320.13	42.60	-30.8	-34.0	13.4	1.61e-03	0	44	0	575668224	21	5249
2026-01-16 01:22:15.59	319.65	42.69	-30.6	-33.7	13.6	1.75e-05	0	43	0	577765376	21	5118
2026-01-16 01:22:16.60	319.16	42.77	-30.4	-33.2	13.9	9.00e-05	0	44	0	578813952	21	4929
2026-01-16 01:22:17.60	318.68	42.86	-30.2	-33.0	14.3	9.68e-05	0	44	0	580911104	20	4988
2026-01-16 01:22:18.60	318.19	42.94	-30.2	-32.9	14.4	0.00e+00	0	44	0	583008256	20	4950
2026-01-16 01:22:19.61	317.70	43.02	-30.3	-33.4	14.1	3.00e-06	0	44	0	585105408	20	5111
2026-01-16 01:22:20.60	317.21	43.10	-30.3	-33.4	14.0	3.00e-06	0	44	0	587202560	20	5145
2026-01-16 01:22:21.61	316.71	43.17	-30.4	-33.5	14.1	3.00e-06	0	44	0	589299712	20	5153
2026-01-16 01:22:22.61	316.22	43.24	-30.1	-32.8	14.5	7.00e-07	0	44	0	590348288	20	4923
2026-01-16 01:22:23.62	315.71	43.32	-30.0	-32.5	14.7	7.00e-07	0	44	0	592445440	20	4805
2026-01-16 01:22:24.62	315.21	43.38	-30.1	-32.7	14.6	0.00e+00	0	44	0	594542592	20	4865
2026-01-16 01:22:25.62	314.71	43.45	-30.1	-32.7	14.6	4.95e-05	0	43	0	596639744	20	4872
2026-01-16 01:22:26.62	314.21	43.51	-30.1	-32.7	14.5	9.30e-05	0	44	0	597688320	20	4869
2026-01-16 01:22:27.62	313.70	43.58	-30.0	-32.6	14.6	0.00e+00	0	44	0	599785472	20	4826
2026-01-16 01:22:28.61	313.20	43.63	-30.1	-32.8	14.5	7.00e-07	0	44	0	601882624	20	4898
2026-01-16 01:22:29.62	312.68	43.69	-30.2	-33.0	14.4	9.30e-05	0	44	0	603979776	20	4965
2026-01-16 01:22:30.62	312.17	43.74	-30.2	-32.9	14.5	1.50e-06	0	44	0	606076928	20	4942
2026-01-16 01:22:31.62	311.65	43.80	-30.4	-33.4	14.1	2.20e-06	0	44	0	607125504	20	5136
2026-01-16 01:22:32.62	311.14	43.84	-30.6	-33.7	13.6	4.50e-06	0	44	0	609222656	21	5124
2026-01-16 01:22:33.62	310.62	43.89	-29.9	-33.0	13.2	1.37e-05	0	44	0	611319808	21	5184
2026-01-16 01:22:34.62	310.10	43.93	-30.6	-33.7	13.2	6.10e-06	0	44	0	613416960	21	5105
2026-01-16 01:22:35.62	309.58	43.98	-30.4	-33.7	12.6	3.80e-06	0	44	0	615514112	20	5217
2026-01-16 01:22:36.62	309.06	44.01	-30.4	-33.2	13.4	6.10e-06	0	44	0	616562688	21	4924
2026-01-16 01:22:37.62	308.54	44.05	-30.6	-33.5	13.2	8.39e-05	0	44	0	618659840	21	5053
2026-01-16 01:22:38.63	308.01	44.08	-30.5	-33.5	13.8	2.03e-03	0	44	0	620756992	21	5095
2026-01-16 01:22:39.63	307.48	44.11	-30.6	-33.7	13.6	7.60e-06	0	44	0	622854144	21	5107
2026-01-16 01:22:40.63	306.96	44.14	-30.6	-33.6	13.7	9.90e-06	0	44	0	624951296	21	5070
2026-01-16 01:22:41.63	306.43	44.17	-30.8	-34.1	13.4	1.06e-05	0	44	0	625999872	21	5286
2026-01-16 01:22:42.64	305.90	44.19	-30.9	-34.3	13.2	3.35e-05	0	44	0	628097024	21	5372
2026-01-16 01:22:43.63	305.38	44.21	-31.1	-34.5	12.7	4.04e-05	0	44	0	630194176	22	5336
2026-01-16 01:22:44.63	304.85	44.23	-31.1	-34.5	12.7	7.40e-05	0	44	0	632291328	22	5332
2026-01-16 01:22:45.63	304.32	44.24	-31.0	-34.2	13.0	1.62e-04	0	44	0	633339904	22	5201
2026-01-16 01:22:46.63	303.79	44.25	-30.8	-34.3	13.2	3.81e-05	0	44	0	635437056	21	5348
2026-01-16 01:22:47.64	303.25	44.26	-30.7	-33.9	13.5	1.75e-05	0	44	0	637534208	21	5179
2026-01-16 01:22:48.64	302.72	44.27	-30.7	-33.9	13.4	1.22e-05	0	44	0	639631360	21	5193
2026-01-16 01:22:49.64	302.19	44.27	-30.9	-34.3	13.3	5.22e-04	0	44	0	641728512	21	5338
2026-01-16 01:22:50.64	301.66	44.27	-30.9	-34.4	13.1	3.05e-05	0	44	0	642777088	21	5381
2026-01-16 01:22:51.64	301.13	44.27	-31.0	-34.1	13.0	3.43e-05	0	44	0	644874240	22	5161
2026-01-16 01:22:52.64	300.60	44.26	-31.1	-34.5	12.8	3.31e-04	0	44	0	646971392	22	5309
2026-01-16 01:22:53.63	300.07	44.26	-31.0	-34.3	12.9	5.64e-05	0	43	0	649068544	22	5228
2026-01-16 01:22:54.63	299.54	44.25	-30.9	-34.0	13.1	4.57e-05	0	44	0	651165696	22	5109
2026-01-16 01:22:55.63	299.01	44.23	-31.2	-34.7	12.7	2.97e-05	0	44	0	652214272	22	5393
2026-01-16 01:22:56.63	298.48	44.22	-31.3	-35.1	12.4	1.70e-03	0	44	0	654311424	22	5576
2026-01-16 01:22:57.64	297.95	44.20	-31.6	-35.3	11.8	3.11e-04	0	44	0	656408576	23	5569
2026-01-16 01:22:58.65	297.42	44.18	-31.6	-35.3	11.9	7.53e-04	0	44	0	658505728	23	5542
2026-01-16 01:22:59.65	296.89	44.15	-31.5	-35.5	12.1	2.21e-03	0	44	0	659554304	22	5730
2026-01-16 01:23:00.64	296.37	44.13	-31.4	-35.0	12.1	3.22e-04	0	44	0	661651456	23	5394
2026-01-16 01:23:01.64	295.84	44.10	-31.7	-35.7	11.6	5.03e-04	0	44	0	663748608	23	5712
2026-01-16 01:23:02.64	295.32	44.07	-31.7	-35.6	11.6	8.64e-04	0	44	0	665845760	23	5666
2026-01-16 01:23:03.65	294.79	44.03	-31.7	-35.8	11.5	7.72e-04	0	44	0	667942912	23	5763
2026-01-16 01:23:04.65	294.27	43.99	-31.6	-35.6	11.6	8.04e-04	0	44	0	668991488	23	5680
2026-01-16 01:23:05.65	293.74	43.95	-31.6	-35.5	11.7	6.79e-04	0	44	0	671088640	23	5654
2026-01-16 01:23:06.65	293.22	43.91	-31.6	-35.5	11.7	5.23e-04	0	44	0	673185792	23	5626
2026-01-16 01:23:07.65	292.71	43.87	-31.8	-36.0	11.5	2.89e-03	0	44	0	675282944	23	5835
2026-01-16 01:23:08.65	292.19	43.82	-31.9	-36.5	11.0	1.36e-03	0	44	0	677380096	23	6102
2026-01-16 01:23:09.66	291.67	43.77	-32.1	-36.7	10.5	3.69e-03	0	44	0	678428672	24	6073
2026-01-16 01:23:10.66	291.16	43.71	-32.1	-36.6	10.5	5.67e-03	0	44	0	680525824	24	6032
2026-01-16 01:23:11.66	290.64	43.66	-32.2	-36.8	10.5	5.06e-03	0	44	0	682622976	24	6117
2026-01-16 01:23:12.67	290.13	43.60	-32.1	-36.5	10.6	4.13e-03	0	44	0	684720128	24	6001
2026-01-16 01:23:13.67	289.62	43.54	-32.1	-36.7	10.5	4.59e-03	0	44	0	686817280	24	6093
2026-01-16 01:23:14.67	289.11	43.48	-32.1	-36.6	10.7	3.69e-03	0	44	0	687865856	24	6029
2026-01-16 01:23:15.67	288.61	43.41	-32.2	-36.8	10.4	4.31e-03	0	43	0	689963008	24	6122
2026-01-16 01:23:16.67	288.11	43.35	-32.4	-37.7	9.8	8.80e-03	0	44	0	692060160	24	6602
2026-01-16 01:23:17.68	287.60	43.27	-32.4	-37.7	9.7	1.26e-02	0	44	0	694157312	24	6607
2026-01-16 01:23:18.68	287.11	43.20	-32.4	-37.6	9.8	9.56e-03	0	44	0	696254464	24	6545
2026-01-16 01:23:19.68	286.61	43.13	-32.5	-38.0	9.5	1.10e-02	0	44	0	697303040	24	6782
2026-01-16 01:23:20.68	286.12	43.05	-32.6	-37.9	9.2	1.98e-02	0	44	0	699400192	25	6647
2026-01-16 01:23:21.68	285.63	42.97	-32.5	-37.4	9.5	2.23e-02	0	44	0	701497344	25	6354
2026-01-16 01:23:22.68	285.14	42.89	-32.1	-36.6	10.6	1.05e-02	0	44	0	703594496	24	6019
2026-01-16 01:23:23.68	284.65	42.81	-31.8	-36.0	11.2	3.94e-03	0	44	0	704643072	23	5876
2026-01-16 01:23:24.68	284.17	42.72	-31.6	-35.5	11.7	7.90e-04	0	44	0	706740224	23	5633
2026-01-16 01:23:25.68	283.69	42.64	-31.5	-35.1	11.9	4.58e-04	0	44	0	708837376	23	5471
2026-01-16 01:23:26.69	283.20	42.55	-31.4	-35.4	12.1	1.45e-03	0	44	0	710934528	22	5705
2026-01-16 01:23:27.68	282.73	42.45	-31.2	-34.9	12.5	2.34e-04	0	44	0	713031680	22	5473
2026-01-16 01:23:28.68	282.26	42.36	-31.0	-34.3	12.8	2.49e-03	0	44	0	714080256	22	5251
2026-01-16 01:23:29.68	281.79	42.27	-31.0	-34.7	12.9	2.32e-03	0	44	0	716177408	21	5504
2026-01-16 01:23:30.69	281.32	42.17	-30.2	-33.1	13.2	2.30e-04	0	44	0	718274560	22	5007
2026-01-16 01:23:31.69	280.86	42.07	-30.9	-34.3	12.9	2.32e-03	0	44	0	720371712	21	5368
2026-01-16 01:23:32.69	280.39	41.97	-31.2	-34.7	12.5	2.10e-03	0	44	0	722468864	22	5430
2026-01-16 01:23:33.69	279.94	41.86	-31.1	-34.6	12.5	3.78e-04	0	44	0	723517440	22	5367
2026-01-16 01:23:34.70	279.48	41.76	-30.7	-34.0	13.2	2.18e-03	0	44	0	725614592	21	5240
2026-01-16 01:23:35.70	279.02	41.65	-30.2	-33.0	14.3	2.36e-03	0	44	0	727711744	20	4991
2026-01-16 01:23:36.70	278.57	41.54	-29.7	-31.9	15.0	0.00e+00	0	44	0	729808896	20	4604
2026-01-16 01:23:37.70	278.13	41.43	-29.5	-31.7	15.4	2.25e-03	0	44	0	731906048	19	4666
2026-01-16 01:23:38.70	277.68	41.32	-29.4	-31.9	15.6	2.16e-03	0	44	0	732954624	18	4835
2026-01-16 01:23:39.70	277.24	41.21	-29.5	-32.1	15.5	0.00e+00	0	44	0	735051776	18	4908
2026-01-16 01:23:40.70	276.81	41.10	-29.5	-31.8	15.4	1.33e-04	0	44	0	737148928	19	4685
2026-01-16 01:23:41.70	276.37	40.98	-29.5	-31.7	15.4	1.97e-03	0	44	0	739246080	19	4649
2026-01-16 01:23:42.71	275.94	40.86	-29.4	-31.6	15.5	0.00e+00	0	43	0	741343232	19	4618
2026-01-16 01:23:43.71	275.51	40.74	-29.3	-31.8	15.7	9.90e-06	0	44	0	742391808	18	4794
2026-01-16 01:23:44.72	275.08	40.62	-29.0	-31.0	16.1	2.17e-03	0	44	0	744488960	18	4537
2026-01-16 01:23:45.72	274.66	40.50	-28.9	-30.8	16.2	0.00e+00	0	44	0	746586112	18	4478
2026-01-16 01:23:46.73	274.24	40.37	-28.9	-31.3	16.2	1.52e-03	0	44	0	748683264	17	4753
2026-01-16 01:23:47.73	273.82	40.25	-28.8	-31.1	16.4	3.00e-06	0	44	0	749731840	17	4674
2026-01-16 01:23:48.74	273.40	40.12	-28.8	-31.2	16.3	1.75e-05	0	44	0	751828992	17	4724
2026-01-16 01:23:49.74	273.00	40.00	-29.2	-31.5	15.8	3.26e-04	0	44	0	753926144	18	4704
2026-01-16 01:23:50.74	272.59	39.87	-29.3	-31.8	15.6	7.00e-07	0	44	0	756023296	18	4803
2026-01-16 01:23:51.74	272.19	39.74	-29.4	-32.1	15.5	0.00e+00	0	44	0	758120448	18	4913
2026-01-16 01:23:52.74	271.79	39.61	-29.2	-31.6	15.7	1.93e-03	0	44	0	759169024	18	4742
2026-01-16 01:23:53.74	271.39	39.48	-28.9	-30.9	16.1	2.18e-03	0	44	0	761266176	18	4506
2026-01-16 01:23:54.73	271.00	39.35	-28.7	-30.3	16.5	8.54e-05	0	44	0	763363328	18	4342
2026-01-16 01:23:55.73	270.61	39.21	-28.7	-30.8	16.5	2.18e-03	0	44	0	765460480	17	4606
2026-01-16 01:23:56.73	270.23	39.08	-28.7	-30.9	16.4	2.17e-03	0	44	0	767557632	17	4628
2026-01-16 01:23:57.73	269.85	38.94	-29.0	-31.1	16.0	1.75e-04	0	44	0	768606208	18	4584
2026-01-16 01:23:58.74	269.46	38.81	-29.2	-31.6	15.8	2.17e-04	0	44	0	770703360	18	4735
2026-01-16 01:23:59.74	269.09	38.67	-29.5	-32.2	15.4	2.00e-03	0	43	0	772800512	18	4925
2026-01-16 01:24:00.74	268.71	38.53	-29.5	-31.7	15.3	0.00e+00	0	44	0	774897664	19	4669
2026-01-16 01:24:01.75	268.34	38.39	-29.5	-31.9	15.2	2.23e-04	0	44	0	776994816	19	4727
2026-01-16 01:24:02.75	267.97	38.25	-29.4	-31.6	15.4	3.80e-06	0	44	0	778043392	19	4640
2026-01-16 01:24:03.76	267.60	38.11	-29.3	-31.4	15.6	0.00e+00	0	44	0	780140544	19	4548
2026-01-16 01:24:04.76	267.24	37.97	-29.4	-32.1	15.5	1.92e-04	0	44	0	782237696	18	4884
2026-01-16 01:24:05.76	266.88	37.83	-29.4	-32.2	15.4	3.00e-06	0	44	0	784334848	18	4922
2026-01-16 01:24:06.76	266.53	37.68	-29.5	-31.8	15.3	0.00e+00	0	44	0	786432000	19	4701
2026-01-16 01:24:07.76	266.18	37.54	-29.8	-32.6	14.8	2.96e-04	0	44	0	787480576	19	4952
2026-01-16 01:24:08.75	265.83	37.40	-29.8	-32.0	14.8	2.20e-06	0	44	0	789577728	20	4654
2026-01-16 01:24:09.76	265.49	37.25	-29.8	-32.1	14.7	3.58e-04	0	44	0	791674880	20	4704
2026-01-16 01:24:10.76	265.14	37.11	-29.9	-32.4	14.6	2.22e-03	0	44	0	793772032	20	4778
2026-01-16 01:24:11.76	264.80	36.96	-29.8	-32.2	14.7	0.00e+00	0	44	0	794820608	20	4720
2026-01-16 01:24:12.76	264.47	36.82	-29.8	-32.1	14.7	1.79e-04	0	44	0	796917760	20	4704
2026-01-16 01:24:13.76	264.13	36.67	-30.0	-32.6	14.5	2.82e-05	0	44	0	799014912	20	4845
2026-01-16 01:24:14.76	263.80	36.52	-29.9	-32.3	14.6	0.00e+00	0	44	0	801112064	20	4762
2026-01-16 01:24:15.76	263.48	36.38	-30.0	-32.6	14.4	0.00e+00	0	44	0	803209216	20	4851
2026-01-16 01:24:16.76	263.15	36.23	-30.2	-33.2	14.1	2.89e-05	0	44	0	804257792	20	5054
2026-01-16 01:24:17.76	262.83	36.08	-30.4	-33.8	13.7	2.24e-03	0	44	0	806354944	20	5296
2026-01-16 01:24:18.76	262.51	35.93	-30.5	-33.5	13.5	3.05e-04	0	44	0	808452096	21	5089
2026-01-16 01:24:19.76	262.20	35.78	-30.6	-33.8	13.3	6.54e-04	0	44	0	810549248	21	5197
2026-01-16 01:24:20.77	261.88	35.63	-30.5	-33.5	13.5	1.98e-05	0	44	0	812646400	21	5073
2026-01-16 01:24:21.77	261.57	35.48	-30.4	-33.7	13.7	1.43e-03	0	44	0	813694976	20	5272
2026-01-16 01:24:22.78	261.26	35.33	-30.5	-33.4	13.6	1.57e-03	0	44	0	815792128	21	5051
2026-01-16 01:24:23.78	260.96	35.18	-30.8	-34.3	13.0	2.05e-05	0	44	0	817889280	21	5390
2026-01-16 01:24:24.78	260.66	35.03	-30.9	-34.5	12.8	1.68e-03	0	44	0	819986432	21	5475
2026-01-16 01:24:25.78	260.36	34.88	-31.0	-34.5	12.6	1.60e-03	0	44	0	822083584	22	5341
2026-01-16 01:24:26.79	260.06	34.73	-31.2	-34.8	12.3	1.41e-04	0	44	0	823132160	22	5486
2026-01-16 01:24:27.79	259.77	34.58	-31.2	-34.9	12.3	8.56e-04	0	44	0	825229312	22	5513
2026-01-16 01:24:28.80	259.47	34.43	-31.2	-34.9	12.2	5.10e-04	0	43	0	827326464	22	5530
2026-01-16 01:24:29.80	259.19	34.28	-31.4	-35.5	11.8	2.87e-04	0	44	0	829423616	22	5773
2026-01-16 01:24:30.81	258.90	34.13	-31.5	-35.7	11.7	4.42e-04	0	44	0	830472192	22	5871
2026-01-16 01:24:31.81	258.62	33.98	-31.5	-35.3	11.6	5.79e-04	0	44	0	832569344	23	5613
2026-01-16 01:24:32.81	258.34	33.83	-31.4	-35.2	11.7	5.57e-04	0	44	0	834666496	23	5535
2026-01-16 01:24:33.81	258.06	33.68	-31.4	-35.6	11.3	4.92e-04	0	44	0	836763648	22	5829
2026-01-16 01:24:34.81	257.79	33.52	-31.6	-35.6	10.8	6.05e-04	0	44	0	838860800	23	5727
2026-01-16 01:24:35.80	257.52	33.38	-31.7	-35.9	11.2	1.46e-03	0	44	0	839909376	23	5857
2026-01-16 01:24:36.80	257.25	33.22	-31.7	-36.1	11.0	1.51e-03	0	44	0	842006528	23	5946
2026-01-16 01:24:37.81	256.98	33.07	-31.8	-36.3	10.8	2.14e-03	0	44	0	844103680	23	6038
2026-01-16 01:24:38.81	256.71	32.92	-31.8	-36.4	10.9	2.05e-03	0	44	0	846200832	23	6079
2026-01-16 01:24:39.81	256.45	32.77	-31.8	-36.2	10.9	2.49e-03	0	44	0	848297984	23	6002
2026-01-16 01:24:40.80	256.20	32.62	-30.8	-35.5	10.7	2.37e-03	0	44	0	849346560	23	6152
2026-01-16 01:24:41.81	255.94	32.47	-31.7	-35.9	11.1	1.69e-03	0	44	0	851443712	23	5875
2026-01-16 01:24:42.81	255.68	32.32	-31.6	-35.6	11.3	1.10e-03	0	44	0	853540864	23	5737
2026-01-16 01:24:43.81	255.43	32.17	-31.7	-35.9	11.2	1.39e-03	0	44	0	855638016	23	5843
2026-01-16 01:24:44.80	255.18	32.02	-31.7	-36.0	11.0	1.47e-03	0	44	0	857735168	23	5927
2026-01-16 01:24:45.81	254.93	31.87	-31.9	-36.7	10.6	4.89e-03	0	44	0	858783744	23	6230
2026-01-16 01:24:46.81	254.69	31.72	-32.0	-36.8	10.4	3.83e-03	0	44	0	860880896	23	6321
2026-01-16 01:24:47.81	254.44	31.57	-31.9	-36.7	10.5	3.80e-03	0	44	0	862978048	23	6245
2026-01-16 01:24:48.81	254.20	31.42	-31.8	-36.3	10.8	4.17e-03	0	44	0	865075200	23	6064
2026-01-16 01:24:49.82	253.96	31.27	-31.8	-36.5	10.7	2.48e-03	0	44	0	867172352	23	6165
2026-01-16 01:24:50.82	253.72	31.12	-31.7	-36.0	11.0	2.48e-03	0	44	0	868220928	23	5917
2026-01-16 01:24:51.83	253.49	30.97	-31.8	-36.5	10.7	2.18e-03	0	44	0	870318080	23	6143
2026-01-16 01:24:52.83	253.26	30.82	-31.8	-36.3	10.8	3.94e-03	0	44	0	872415232	23	6067
2026-01-16 01:24:53.83	253.03	30.67	-31.7	-36.1	10.9	2.03e-03	0	44	0	874512384	23	5988
2026-01-16 01:24:54.84	252.80	30.52	-31.7	-36.2	10.9	2.01e-03	0	44	0	875560960	23	6025
2026-01-16 01:24:55.84	252.57	30.37	-31.7	-35.9	11.1	4.22e-03	0	44	0	877658112	23	5857
2026-01-16 01:24:56.84	252.35	30.23	-31.5	-35.4	11.4	9.87e-04	0	44	0	879755264	23	5644
2026-01-16 01:24:57.85	252.12	30.08	-31.5	-35.4	11.5	9.64e-04	0	44	0	881852416	23	5628
2026-01-16 01:24:58.85	251.90	29.93	-31.5	-35.4	11.4	9.89e-04	0	44	0	883949568	23	5657
2026-01-16 01:24:59.85	251.69	29.78	-31.4	-35.2	11.6	5.93e-04	0	44	0	884998144	23	5539
2026-01-16 01:25:00.84	251.47	29.64	-31.2	-35.0	12.1	3.61e-04	0	44	0	887095296	22	5578
2026-01-16 01:25:01.85	251.26	29.49	-31.1	-34.8	12.2	2.26e-04	0	44	0	889192448	22	5491
2026-01-16 01:25:02.84	251.05	29.35	-31.2	-34.9	12.2	3.99e-04	0	44	0	891289600	22	5539
2026-01-16 01:25:03.84	250.84	29.20	-31.1	-34.8	12.3	2.17e-03	0	44	0	893386752	22	5482
2026-01-16 01:25:04.84	250.63	29.06	-31.1	-34.7	12.3	2.00e-04	0	44	0	894435328	22	5451
2026-01-16 01:25:05.84	250.42	28.91	-31.1	-34.8	12.2	1.92e-04	0	44	0	896532480	22	5488
2026-01-16 01:25:06.84	250.22	28.77	-31.4	-35.5	11.7	2.92e-03	0	44	0	898629632	22	5812
2026-01-16 01:25:07.84	250.02	28.62	-31.2	-35.0	12.0	2.19e-03	0	44	0	900726784	22	5563
2026-01-16 01:25:08.85	249.82	28.48	-31.1	-34.6	12.3	2.37e-04	0	44	0	902823936	22	5424
2026-01-16 01:25:09.86	249.62	28.33	-30.7	-34.1	12.9	2.43e-03	0	44	0	903872512	21	5345
2026-01-16 01:25:10.86	249.42	28.19	-30.6	-33.9	13.2	2.25e-03	0	44	0	905969664	21	5240
2026-01-16 01:25:11.87	249.22	28.04	-30.5	-33.6	13.3	1.75e-05	0	44	0	908066816	21	5131
2026-01-16 01:25:12.86	249.03	27.90	-30.5	-33.7	13.3	2.37e-03	0	44	0	910163968	21	5146
2026-01-16 01:25:13.87	248.84	27.76	-30.4	-33.6	13.6	2.78e-03	0	44	0	912261120	20	5244
2026-01-16 01:25:14.86	248.65	27.62	-30.4	-33.7	13.7	1.42e-03	0	44	0	913309696	20	5259
2026-01-16 01:25:15.87	248.46	27.47	-30.5	-33.9	13.5	1.29e-05	0	44	0	915406848	20	5335
2026-01-16 01:25:16.87	248.27	27.33	-30.5	-33.5	13.3	3.20e-03	0	44	0	917504000	21	5109
2026-01-16 01:25:17.86	248.09	27.19	-30.5	-33.5	13.3	1.90e-03	0	44	0	919601152	21	5106
2026-01-16 01:25:18.86	247.91	27.05	-30.6	-33.8	13.1	1.23e-04	0	44	0	920649728	21	5205
2026-01-16 01:25:19.87	247.72	26.91	-30.6	-33.8	13.1	3.66e-03	0	44	0	922746880	21	5201
2026-01-16 01:25:20.87	247.54	26.77	-30.5	-34.0	13.3	2.37e-03	0	43	0	924844032	20	5403
2026-01-16 01:25:21.87	247.37	26.63	-30.4	-33.7	13.5	3.73e-03	0	44	0	926941184	20	5283
2026-01-16 01:25:22.88	247.19	26.49	-30.5	-34.1	13.3	1.14e-05	0	44	0	929038336	20	5445
2026-01-16 01:25:23.88	247.01	26.36	-30.3	-33.5	13.6	2.12e-03	0	44	0	930086912	20	5230
2026-01-16 01:25:24.89	246.84	26.22	-30.3	-33.5	13.6	3.85e-03	0	44	0	932184064	20	5205
2026-01-16 01:25:25.88	246.67	26.08	-30.4	-33.9	13.4	3.25e-03	0	44	0	934281216	20	5354
2026-01-16 01:25:26.88	246.50	25.94	-30.4	-33.7	13.4	1.13e-03	0	44	0	936378368	20	5306
2026-01-16 01:25:27.89	246.33	25.81	-30.5	-33.6	13.2	2.97e-03	0	44	0	938475520	21	5136
2026-01-16 01:25:28.89	246.16	25.67	-30.7	-34.1	12.9	2.58e-03	0	44	0	939524096	21	5346
2026-01-16 01:25:29.89	245.99	25.53	-30.7	-34.2	12.8	5.41e-05	0	44	0	941621248	21	5371
2026-01-16 01:25:30.89	245.83	25.40	-30.8	-34.3	12.6	2.21e-03	0	44	0	943718400	21	5436
2026-01-16 01:25:31.89	245.66	25.26	-30.8	-34.4	12.6	1.88e-03	0	44	0	945815552	21	5472
2026-01-16 01:25:32.90	245.50	25.13	-30.8	-34.6	12.5	2.37e-04	0	43	0	947912704	21	5527
2026-01-16 01:25:33.90	245.34	24.99	-30.9	-34.6	12.5	9.11e-04	0	44	0	948961280	21	5560
2026-01-16 01:25:34.90	245.18	24.86	-30.9	-34.8	12.4	1.79e-04	0	44	0	951058432	21	5634
2026-01-16 01:25:35.90	245.02	24.73	-30.8	-34.4	12.6	2.68e-04	0	44	0	953155584	21	5485
2026-01-16 01:25:36.90	244.87	24.59	-30.8	-34.4	12.6	1.01e-04	0	44	0	955252736	21	5449
2026-01-16 01:25:37.91	244.71	24.46	-30.8	-34.6	12.5	1.52e-03	0	44	0	957349888	21	5530
2026-01-16 01:25:38.90	244.56	24.33	-31.0	-34.4	12.3	1.68e-04	0	44	0	958398464	22	5372
2026-01-16 01:25:39.90	244.41	24.20	-30.1	-33.9	11.9	2.57e-03	0	44	0	960495616	22	5570
2026-01-16 01:25:40.91	244.25	24.07	-31.1	-34.7	12.1	2.95e-03	0	44	0	962592768	22	5505
2026-01-16 01:25:41.90	244.10	23.94	-30.9	-34.7	12.1	4.55e-04	0	44	0	964689920	21	5589
2026-01-16 01:25:42.91	243.95	23.81	-30.9	-34.9	12.3	2.82e-03	0	44	0	965738496	21	5662
2026-01-16 01:25:43.91	243.81	23.68	-30.9	-34.7	12.4	1.61e-04	0	44	0	967835648	21	5606
2026-01-16 01:25:44.91	243.66	23.55	-30.9	-34.8	12.4	3.56e-04	0	44	0	969932800	21	5624
2026-01-16 01:25:45.91	243.52	23.42	-31.0	-35.1	12.1	2.50e-03	0	44	0	972029952	21	5757
2026-01-16 01:25:46.91	243.37	23.29	-30.8	-34.4	12.6	1.39e-04	0	44	0	974127104	21	5476
2026-01-16 01:25:47.90	243.23	23.16	-30.6	-33.9	12.9	3.22e-04	0	44	0	975175680	21	5272
2026-01-16 01:25:48.91	243.09	23.03	-30.5	-33.6	13.1	1.78e-03	0	44	0	977272832	21	5155
2026-01-16 01:25:49.91	242.95	22.91	-30.6	-33.8	13.0	1.53e-03	0	44	0	979369984	21	5234
2026-01-16 01:25:50.91	242.81	22.78	-30.5	-33.6	13.1	3.89e-05	0	44	0	981467136	21	5159
2026-01-16 01:25:51.91	242.67	22.65	-30.5	-33.7	13.0	3.85e-04	0	44	0	983564288	21	5191
2026-01-16 01:25:52.91	242.53	22.53	-30.6	-34.1	12.8	1.34e-04	0	44	0	984612864	21	5346
2026-01-16 01:25:53.91	242.40	22.40	-30.7	-34.2	12.7	1.86e-04	0	44	0	986710016	21	5392
2026-01-16 01:25:54.91	242.26	22.28	-30.8	-34.5	12.5	3.52e-04	0	44	0	988807168	21	5532
2026-01-16 01:25:55.92	242.13	22.15	-30.8	-34.4	12.5	1.13e-04	0	44	0	990904320	21	5487
2026-01-16 01:25:56.92	242.00	22.03	-30.8	-34.6	12.4	5.32e-04	0	44	0	993001472	21	5583
2026-01-16 01:25:57.92	241.86	21.91	-30.7	-34.2	12.6	1.27e-03	0	44	0	994050048	21	5411
2026-01-16 01:25:58.92	241.73	21.78	-30.7	-34.3	12.6	1.15e-03	0	44	0	996147200	21	5435
2026-01-16 01:25:59.93	241.60	21.66	-30.7	-34.1	12.7	5.93e-04	0	44	0	998244352	21	5373
2026-01-16 01:26:00.93	241.48	21.54	-30.7	-34.2	12.6	1.65e-03	0	44	0	1000341504	21	5414
2026-01-16 01:26:01.92	241.35	21.42	-30.8	-34.6	12.3	1.38e-04	0	44	0	1001390080	21	5561
2026-01-16 01:26:02.92	241.22	21.29	-30.7	-34.4	12.5	9.00e-04	0	44	0	1003487232	21	5480
2026-01-16 01:26:03.92	241.10	21.17	-30.6	-34.1	12.7	2.43e-03	0	44	0	1005584384	21	5342
2026-01-16 01:26:04.92	240.97	21.05	-30.7	-34.2	12.6	1.04e-04	0	44	0	1007681536	21	5398
2026-01-16 01:26:05.92	240.85	20.93	-30.6	-34.1	12.7	9.76e-05	0	44	0	1009778688	21	5373
2026-01-16 01:26:06.92	240.73	20.81	-30.7	-34.3	12.5	2.27e-03	0	44	0	1010827264	21	5456
2026-01-16 01:26:07.92	240.61	20.69	-30.7	-34.2	12.6	9.53e-05	0	44	0	1012924416	21	5399
2026-01-16 01:26:08.92	240.49	20.58	-30.6	-34.1	12.7	1.50e-03	0	44	0	1015021568	21	5359
2026-01-16 01:26:09.93	240.37	20.46	-30.7	-34.3	12.5	2.51e-03	0	44	0	1017118720	21	5437
2026-01-16 01:26:10.93	240.25	20.34	-30.6	-34.0	12.7	2.44e-03	0	44	0	1019215872	21	5323
2026-01-16 01:26:11.93	240.13	20.22	-30.5	-34.2	13.0	1.13e-03	0	44	0	1020264448	20	5500
2026-01-16 01:26:12.93	240.01	20.10	-30.5	-33.8	12.8	1.06e-03	0	44	0	1022361600	21	5257
2026-01-16 01:26:13.94	239.90	19.99	-30.6	-34.1	12.6	2.21e-03	0	44	0	1024458752	21	5375
2026-01-16 01:26:14.94	239.78	19.87	-30.5	-33.9	12.8	6.54e-04	0	44	0	1026555904	21	5283
2026-01-16 01:26:15.95	239.67	19.75	-30.6	-33.9	12.7	6.24e-04	0	44	0	1027604480	21	5293
2026-01-16 01:26:16.95	239.56	19.64	-30.7	-34.2	12.6	6.71e-05	0	44	0	1029701632	21	5403
2026-01-16 01:26:17.96	239.44	19.52	-30.6	-33.9	12.7	4.36e-04	0	44	0	1031798784	21	5303
2026-01-16 01:26:18.96	239.33	19.41	-30.6	-34.2	12.6	4.65e-04	0	44	0	1033895936	21	5397
2026-01-16 01:26:19.96	239.22	19.29	-30.6	-34.1	12.6	7.78e-05	0	44	0	1035993088	21	5370
2026-01-16 01:26:20.96	239.11	19.18	-30.7	-34.4	12.4	2.84e-04	0	44	0	1038090240	21	5488
2026-01-16 01:26:21.95	239.00	19.07	-30.6	-34.0	12.6	3.68e-04	0	44	0	1039138816	21	5341
2026-01-16 01:26:22.95	238.89	18.95	-30.6	-34.1	12.7	7.78e-05	0	44	0	1041235968	21	5363
2026-01-16 01:26:23.95	238.79	18.84	-30.6	-33.9	12.8	2.43e-04	0	44	0	1043333120	21	5307
2026-01-16 01:26:24.95	238.68	18.73	-30.6	-34.0	12.7	2.60e-03	0	44	0	1045430272	21	5315
2026-01-16 01:26:25.95	238.58	18.62	-30.7	-34.2	12.5	1.04e-04	0	44	0	1046478848	21	5428
2026-01-16 01:26:26.95	238.47	18.51	-30.7	-34.3	12.4	3.92e-04	0	44	0	1048576000	21	5467
2026-01-16 01:26:27.96	238.37	18.39	-30.6	-34.0	12.6	9.99e-05	0	44	0	1050673152	21	5348
2026-01-16 01:26:28.96	238.26	18.28	-30.7	-34.2	12.5	1.19e-04	0	44	0	1052770304	21	5438
2026-01-16 01:26:29.96	238.16	18.17	-30.5	-33.9	12.7	2.77e-04	0	44	0	1054867456	21	5306
2026-01-16 01:26:30.96	238.06	18.06	-30.5	-33.9	12.7	2.47e-04	0	43	0	1055916032	21	5279
2026-01-16 01:26:31.97	237.96	17.95	-30.6	-33.9	12.7	9.38e-05	0	44	0	1058013184	21	5312
2026-01-16 01:26:32.98	237.86	17.84	-30.8	-34.5	12.2	3.27e-04	0	44	0	1060110336	21	5569
2026-01-16 01:26:33.98	237.76	17.73	-30.5	-33.9	12.6	3.24e-04	0	44	0	1062207488	21	5308
2026-01-16 01:26:34.98	237.66	17.63	-30.5	-33.7	12.8	7.24e-05	0	44	0	1064304640	21	5221
2026-01-16 01:26:35.98	237.56	17.52	-30.4	-34.1	12.8	2.65e-04	0	44	0	1065353216	20	5495
2026-01-16 01:26:36.98	237.46	17.41	-30.5	-33.9	12.6	3.09e-04	0	44	0	1067450368	21	5325
2026-01-16 01:26:37.99	237.36	17.30	-30.7	-34.4	12.3	1.36e-04	0	43	0	1069547520	21	5516
2026-01-16 01:26:38.99	237.27	17.20	-30.8	-34.7	12.0	5.58e-04	0	44	0	1071644672	21	5655
2026-01-16 01:26:39.99	237.17	17.09	-30.9	-34.9	11.9	6.72e-04	0	44	0	1072693248	21	5730
2026-01-16 01:26:40.99	237.08	16.98	-30.8	-34.8	12.0	3.50e-04	0	44	0	1074790400	21	5683
2026-01-16 01:26:41.99	236.99	16.88	-30.9	-35.0	11.9	4.20e-04	0	44	0	1076887552	21	5770
2026-01-16 01:26:42.99	236.89	16.77	-30.9	-35.0	11.8	8.44e-04	0	44	0	1078984704	21	5756
2026-01-16 01:26:44.00	236.80	16.67	-30.8	-34.9	11.9	3.51e-04	0	44	0	1081081856	21	5724
2026-01-16 01:26:45.00	236.71	16.56	-30.9	-34.9	11.8	8.27e-04	0	44	0	1082130432	21	5760
2026-01-16 01:26:46.00	236.62	16.46	-30.7	-34.6	12.1	2.83e-04	0	44	0	1084227584	21	5615
2026-01-16 01:26:46.99	236.53	16.36	-30.3	-34.5	11.7	4.16e-04	0	44	0	1086324736	21	5816
2026-01-16 01:26:48.01	236.43	16.25	-30.7	-34.4	12.2	6.51e-04	0	44	0	1088421888	21	5527
2026-01-16 01:26:49.00	236.35	16.15	-30.6	-34.2	12.1	1.52e-04	0	44	0	1090519040	21	5459
2026-01-16 01:26:50.00	236.26	16.05	-30.5	-33.7	12.5	8.23e-05	0	44	0	1091567616	21	5260
2026-01-16 01:26:50.99	236.17	15.95	-30.6	-34.0	11.7	3.94e-04	0	44	0	1093664768	21	5373
2026-01-16 01:26:51.99	236.08	15.84	-30.5	-33.9	12.1	4.42e-04	0	44	0	1095761920	21	5340
2026-01-16 01:26:52.99	236.00	15.74	-30.5	-34.0	12.5	1.44e-04	0	44	0	1097859072	21	5357
2026-01-16 01:26:54.00	235.91	15.64	-30.5	-34.0	12.4	4.48e-04	0	44	0	1099956224	21	5367
2026-01-16 01:26:55.00	235.82	15.54	-30.6	-34.2	12.3	4.82e-04	0	44	0	1101004800	21	5458
2026-01-16 01:26:55.99	235.74	15.44	-30.7	-34.4	12.2	1.85e-04	0	44	0	1103101952	21	5509
2026-01-16 01:26:57.00	235.65	15.34	-30.6	-34.3	12.2	2.01e-04	0	44	0	1105199104	21	5500
2026-01-16 01:26:58.00	235.57	15.24	-30.8	-34.8	11.8	7.10e-04	0	44	0	1107296256	21	5713
2026-01-16 01:26:59.00	235.49	15.14	-30.8	-34.9	11.8	3.88e-04	0	44	0	1108344832	21	5754
2026-01-16 01:27:00.00	235.40	15.04	-30.8	-34.9	11.8	4.38e-04	0	44	0	1110441984	21	5734
2026-01-16 01:27:01.00	235.32	14.94	-30.9	-35.2	11.5	9.00e-04	0	44	0	1112539136	21	5888
2026-01-16 01:27:02.01	235.24	14.84	-30.9	-35.0	11.7	6.83e-04	0	44	0	1114636288	21	5784
2026-01-16 01:27:03.00	235.16	14.74	-31.0	-35.3	11.4	3.63e-03	0	44	0	1116733440	21	5962
2026-01-16 01:27:04.00	235.08	14.65	-30.8	-35.0	11.7	5.97e-04	0	44	0	1117782016	21	5786
2026-01-16 01:27:05.01	235.00	14.55	-31.0	-35.4	11.4	5.98e-04	0	44	0	1119879168	21	5990
2026-01-16 01:27:06.01	234.92	14.45	-30.8	-34.9	11.7	3.38e-03	0	44	0	1121976320	21	5762
2026-01-16 01:27:07.01	234.84	14.36	-30.8	-34.8	11.7	3.21e-03	0	44	0	1124073472	21	5722
2026-01-16 01:27:08.02	234.76	14.26	-30.9	-35.1	11.6	5.08e-04	0	44	0	1126170624	21	5855
2026-01-16 01:27:09.02	234.68	14.16	-31.0	-35.1	11.2	9.99e-04	0	44	0	1127219200	22	5765
2026-01-16 01:27:10.02	234.61	14.07	-31.3	-35.9	10.7	5.39e-03	0	44	0	1129316352	22	6104
2026-01-16 01:27:11.02	234.53	13.97	-31.1	-35.3	11.1	2.47e-03	0	44	0	1131413504	22	5840
2026-01-16 01:27:12.03	234.45	13.87	-31.1	-35.3	11.1	1.46e-03	0	44	0	1133510656	22	5824
2026-01-16 01:27:13.03	234.38	13.78	-31.2	-35.6	10.8	5.19e-03	0	44	0	1135607808	22	6002
2026-01-16 01:27:14.03	234.30	13.69	-31.3	-35.8	10.7	2.72e-03	0	44	0	1136656384	22	6104
2026-01-16 01:27:15.02	234.23	13.59	-31.2	-35.7	10.8	2.90e-03	0	44	0	1138753536	22	6023
2026-01-16 01:27:16.03	234.15	13.50	-31.2	-35.6	10.8	2.74e-03	0	44	0	1140850688	22	6016
2026-01-16 01:27:17.03	234.08	13.40	-31.1	-35.6	10.8	2.61e-03	0	44	0	1142947840	22	5994
2026-01-16 01:27:18.03	234.01	13.31	-31.1	-35.3	11.0	5.05e-03	0	44	0	1145044992	22	5857
2026-01-16 01:27:19.03	233.93	13.22	-30.9	-35.3	11.3	1.41e-03	0	44	0	1146093568	21	5987
2026-01-16 01:27:20.03	233.86	13.13	-31.0	-35.3	11.0	1.64e-03	0	44	0	1148190720	22	5853
2026-01-16 01:27:21.03	233.79	13.03	-31.0	-35.6	11.1	4.60e-03	0	44	0	1150287872	21	6109
2026-01-16 01:27:22.04	233.72	12.94	-31.1	-35.4	10.9	1.72e-03	0	44	0	1152385024	22	5922
2026-01-16 01:27:23.04	233.65	12.85	-31.2	-36.0	10.4	2.55e-03	0	44	0	1153433600	22	6256
2026-01-16 01:27:24.04	233.58	12.76	-31.1	-35.5	10.8	5.78e-03	0	44	0	1155530752	22	5980
2026-01-16 01:27:25.05	233.50	12.67	-31.1	-35.6	10.7	5.25e-03	0	44	0	1157627904	22	6035
2026-01-16 01:27:26.04	233.44	12.58	-31.3	-36.1	10.3	3.83e-03	0	44	0	1159725056	22	6302
2026-01-16 01:27:27.04	233.37	12.48	-31.2	-36.0	10.4	6.59e-03	0	44	0	1161822208	22	6209
2026-01-16 01:27:28.04	233.30	12.39	-31.1	-35.6	10.7	5.69e-03	0	44	0	1162870784	22	6040
2026-01-16 01:27:29.04	233.23	12.30	-31.1	-35.5	10.8	2.73e-03	0	44	0	1164967936	22	5993
2026-01-16 01:27:30.04	233.16	12.22	-31.2	-35.8	10.6	3.07e-03	0	44	0	1167065088	22	6113
2026-01-16 01:27:31.04	233.09	12.13	-31.1	-35.3	10.9	5.09e-03	0	44	0	1169162240	22	5897
2026-01-16 01:27:32.05	233.03	12.04	-31.0	-35.3	10.9	1.85e-03	0	44	0	1171259392	22	5868
2026-01-16 01:27:33.05	232.96	11.95	-31.0	-35.2	11.0	1.83e-03	0	44	0	1172307968	22	5817
2026-01-16 01:27:34.05	232.89	11.86	-31.0	-35.1	11.0	4.35e-03	0	44	0	1174405120	22	5805
2026-01-16 01:27:35.05	232.83	11.77	-30.9	-35.0	11.1	1.60e-03	0	44	0	1176502272	22	5722
2026-01-16 01:27:36.06	232.76	11.68	-31.0	-35.3	10.9	4.11e-03	0	44	0	1178599424	22	5868
2026-01-16 01:27:37.06	232.70	11.59	-31.0	-35.2	10.9	4.41e-03	0	44	0	1180696576	22	5852
2026-01-16 01:27:38.06	232.63	11.51	-31.0	-35.1	11.0	1.88e-03	0	44	0	1181745152	22	5790
2026-01-16 01:27:39.07	232.57	11.42	-31.0	-35.3	10.9	4.32e-03	0	44	0	1183842304	22	5870
2026-01-16 01:27:40.08	232.50	11.33	-30.9	-35.4	11.1	4.08e-03	0	44	0	1185939456	21	6043
2026-01-16 01:27:41.08	232.44	11.24	-30.7	-35.3	11.0	1.76e-03	0	44	0	1188036608	21	6121
2026-01-16 01:27:42.08	232.38	11.16	-30.9	-35.4	11.1	4.35e-03	0	44	0	1190133760	21	6047
2026-01-16 01:27:43.09	232.31	11.07	-30.9	-35.4	11.1	3.94e-03	0	44	0	1191182336	21	6033
2026-01-16 01:27:44.09	232.25	10.99	-30.9	-35.3	11.1	1.71e-03	0	44	0	1193279488	21	5999
2026-01-16 01:27:45.08	232.19	10.90	-30.9	-35.4	11.1	3.70e-03	0	44	0	1195376640	21	6031
2026-01-16 01:27:46.09	232.13	10.82	-30.9	-35.4	11.1	4.04e-03	0	44	0	1197473792	21	6048
2026-01-16 01:27:47.09	232.07	10.73	-30.9	-35.4	11.1	1.63e-03	0	44	0	1198522368	21	6035
2026-01-16 01:27:48.09	232.01	10.65	-30.9	-35.3	11.1	4.14e-03	0	44	0	1200619520	21	5990
2026-01-16 01:27:49.09	231.95	10.56	-31.0	-35.6	10.9	4.15e-03	0	44	0	1202716672	21	6135
2026-01-16 01:27:50.09	231.89	10.48	-31.0	-35.2	10.9	2.39e-03	0	44	0	1204813824	22	5818
2026-01-16 01:27:51.10	231.83	10.39	-31.0	-35.7	10.8	3.36e-03	0	44	0	1206910976	21	6200
2026-01-16 01:27:52.11	231.77	10.31	-31.0	-35.2	10.8	5.09e-03	0	44	0	1209008128	22	5865
2026-01-16 01:27:53.11	231.71	10.22	-31.1	-35.5	10.6	2.78e-03	0	44	0	1210056704	22	5994
2026-01-16 01:27:54.12	231.65	10.14	-31.1	-35.5	10.6	3.19e-03	0	44	0	1212153856	22	5971
2026-01-16 01:27:55.12	231.59	10.06	-31.1	-35.6	10.6	6.42e-03	0	44	0	1214251008	22	6016
2026-01-16 01:27:56.12	231.53	9.97	-31.1	-35.6	10.5	4.08e-03	0	44	0	1216348160	22	6064
2026-01-16 01:27:57.12	231.47	9.89	-31.2	-35.9	10.3	5.22e-03	0	44	0	1217396736	22	6193
2026-01-16 01:27:58.12	231.42	9.81	-31.2	-35.8	10.3	4.62e-03	0	44	0	1219493888	22	6161
2026-01-16 01:27:59.11	231.36	9.73	-31.3	-36.5	9.8	7.59e-03	0	44	0	1221591040	22	6501
2026-01-16 01:28:00.12	231.30	9.65	-31.3	-36.2	10.0	1.10e-02	0	44	0	1223688192	22	6380
2026-01-16 01:28:01.11	231.25	9.57	-31.2	-36.1	10.1	6.95e-03	0	44	0	1225785344	22	6328
2026-01-16 01:28:02.11	231.19	9.48	-31.4	-36.8	9.4	1.37e-02	0	44	0	1226833920	22	6726
2026-01-16 01:28:03.11	231.14	9.40	-31.2	-36.2	10.0	1.44e-02	0	44	0	1228931072	22	6379
2026-01-16 01:28:04.11	231.08	9.32	-31.3	-36.4	9.8	9.06e-03	0	44	0	1231028224	22	6469
2026-01-16 01:28:05.11	231.03	9.24	-31.4	-36.7	9.5	1.31e-02	0	44	0	1233125376	22	6678
2026-01-16 01:28:06.10	230.97	9.16	-31.3	-36.6	9.7	1.45e-02	0	44	0	1234173952	22	6577
2026-01-16 01:28:07.10	230.92	9.08	-31.3	-36.4	9.8	1.33e-02	0	44	0	1236271104	22	6500
2026-01-16 01:28:08.10	230.86	9.00	-31.4	-36.7	9.5	1.41e-02	0	44	0	1238368256	22	6665
2026-01-16 01:28:09.10	230.81	8.92	-31.3	-36.3	9.8	9.79e-03	0	44	0	1240465408	22	6450
2026-01-16 01:28:10.10	230.76	8.84	-31.1	-35.9	10.2	1.09e-02	0	44	0	1242562560	22	6226
2026-01-16 01:28:11.10	230.70	8.77	-31.2	-36.0	10.0	9.74e-03	0	44	0	1243611136	22	6302
2026-01-16 01:28:12.10	230.65	8.69	-31.2	-36.2	9.9	9.40e-03	0	44	0	1245708288	22	6383
2026-01-16 01:28:13.10	230.60	8.61	-31.2	-36.1	9.9	1.09e-02	0	44	0	1247805440	22	6352
2026-01-16 01:28:14.10	230.55	8.53	-31.4	-37.1	9.2	1.27e-02	0	44	0	1249902592	22	6897
2026-01-16 01:28:15.11	230.49	8.45	-31.2	-36.3	9.8	1.02e-02	0	44	0	1251999744	22	6449
2026-01-16 01:28:16.11	230.44	8.37	-31.1	-35.9	10.0	9.12e-03	0	44	0	1253048320	22	6238
2026-01-16 01:28:17.10	230.39	8.30	-31.3	-36.5	9.6	1.16e-02	0	44	0	1255145472	22	6573
2026-01-16 01:28:18.10	230.34	8.22	-31.2	-36.2	9.8	1.41e-02	0	44	0	1257242624	22	6415
2026-01-16 01:28:19.10	230.29	8.14	-31.2	-36.4	9.6	1.08e-02	0	44	0	1259339776	22	6514
2026-01-16 01:28:20.09	230.24	8.06	-31.3	-36.6	9.4	1.61e-02	0	44	0	1260388352	22	6661
2026-01-16 01:28:21.10	230.19	7.99	-31.2	-36.3	9.7	1.47e-02	0	44	0	1262485504	22	6457
2026-01-16 01:28:22.10	230.14	7.91	-31.2	-36.1	9.8	1.08e-02	0	44	0	1264582656	22	6379
2026-01-16 01:28:23.10	230.09	7.83	-31.2	-36.4	9.6	9.70e-03	0	44	0	1266679808	22	6537
2026-01-16 01:28:24.10	230.04	7.76	-31.3	-36.8	9.2	1.92e-02	0	44	0	1268776960	22	6782
2026-01-16 01:28:25.10	229.99	7.68	-31.2	-36.4	9.5	2.47e-02	0	44	0	1269825536	22	6561
2026-01-16 01:28:26.10	229.94	7.60	-31.1	-36.1	9.8	9.73e-03	0	44	0	1271922688	22	6369
2026-01-16 01:28:27.09	229.89	7.53	-31.1	-36.0	9.8	1.06e-02	0	44	0	1274019840	22	6343
2026-01-16 01:28:28.09	229.85	7.45	-31.2	-36.4	9.5	1.13e-02	0	44	0	1276116992	22	6554
2026-01-16 01:28:29.09	229.80	7.38	-31.2	-36.3	9.6	1.33e-02	0	44	0	1278214144	22	6473
2026-01-16 01:28:30.10	229.75	7.30	-31.3	-36.7	9.3	1.36e-02	0	44	0	1279262720	22	6711
2026-01-16 01:28:31.10	229.70	7.23	-31.3	-36.9	9.1	2.42e-02	0	44	0	1281359872	22	6821
2026-01-16 01:28:32.10	229.66	7.15	-31.3	-36.8	9.1	2.02e-02	0	44	0	1283457024	22	6797
