passes_logs/2026/01/16/R2M6_AANII_01/R2M6_AANII_01__20260116_092946_NOAA_20_JPSS-1_rec.log

#Pass ID: 20260116_092946_NOAA 20 (JPSS-1)
#Satellite: NOAA 20 (JPSS-1)
#Configuration: NOAA 20
#almurnet v.1.7.20240730
#Start time: 2026-01-16 09:29:46

#Version: 2.2.20231116
#Station: R2M6_AANII_01
#Location: 30.233357 lon 59.946436 lat
#TLE: 1 43013U 17073A   26015.47098083  .00000029  00000+0  34851-4 0  9997
#TLE: 2 43013  98.7636 316.4053 0001479  38.6686 321.4595 14.19536048422808

#Time	Az	El	Level	Level2	SNR	BER	BlckErr	Temp	State	Recorded	gain1	gain2
2026-01-16 09:29:46.31	134.72	6.98	-31.5	-37.1	5.0	1.27e+00	0	41	0	0	24	6846
2026-01-16 09:29:47.31	134.68	7.05	-31.6	-37.7	4.9	1.28e+00	0	41	104	0	24	7247
2026-01-16 09:29:48.32	134.64	7.13	-31.6	-37.7	7.4	1.20e-01	0	41	0	0	24	7226
2026-01-16 09:29:49.32	134.60	7.20	-31.5	-37.3	7.7	7.92e-02	0	41	0	1048576	24	7003
2026-01-16 09:29:50.31	134.56	7.28	-31.6	-37.4	7.7	9.76e-02	0	41	0	3145728	24	7020
2026-01-16 09:29:51.31	134.52	7.36	-31.6	-37.5	7.6	1.03e-01	0	41	0	5242880	24	7111
2026-01-16 09:29:52.31	134.47	7.43	-31.5	-37.1	7.8	8.82e-02	0	41	0	7340032	24	6920
2026-01-16 09:29:53.32	134.43	7.51	-31.3	-36.5	8.4	5.26e-02	0	41	0	9437184	24	6524
2026-01-16 09:29:54.32	134.39	7.59	-31.2	-36.7	8.6	4.30e-02	0	41	0	10485760	23	6770
2026-01-16 09:29:55.32	134.35	7.66	-31.3	-37.0	8.3	4.25e-02	0	41	0	12582912	23	6957
2026-01-16 09:29:56.32	134.31	7.74	-31.2	-36.7	8.6	4.02e-02	0	41	0	14680064	23	6743
2026-01-16 09:29:57.33	134.27	7.82	-31.1	-36.1	9.1	2.44e-02	0	41	0	16777216	23	6430
2026-01-16 09:29:58.33	134.22	7.90	-30.9	-35.3	9.8	1.70e-02	0	41	0	17825792	23	5956
2026-01-16 09:29:59.33	134.18	7.97	-30.7	-35.0	10.4	9.02e-03	0	41	0	19922944	22	5927
2026-01-16 09:30:00.34	134.14	8.05	-30.7	-35.1	10.4	4.25e-03	0	41	0	22020096	22	5946
2026-01-16 09:30:01.34	134.10	8.13	-30.7	-35.1	10.4	5.21e-03	0	41	0	24117248	22	5939
2026-01-16 09:30:02.34	134.05	8.21	-30.6	-34.8	10.6	4.80e-03	0	41	0	26214400	22	5780
2026-01-16 09:30:03.33	134.01	8.29	-30.6	-34.7	10.7	3.29e-03	0	41	0	27262976	22	5737
2026-01-16 09:30:04.33	133.97	8.37	-30.5	-34.3	11.0	3.18e-03	0	41	0	29360128	22	5561
2026-01-16 09:30:05.34	133.92	8.45	-30.4	-33.9	11.3	1.49e-03	0	42	0	31457280	22	5360
2026-01-16 09:30:06.34	133.88	8.53	-30.5	-34.1	11.2	1.27e-03	0	42	0	33554432	22	5445
2026-01-16 09:30:07.34	133.83	8.61	-30.4	-33.9	11.3	1.43e-03	0	42	0	35651584	22	5362
2026-01-16 09:30:08.34	133.79	8.68	-30.4	-34.0	11.3	1.31e-03	0	42	0	36700160	22	5399
2026-01-16 09:30:09.35	133.74	8.77	-30.4	-33.8	11.4	1.08e-03	0	41	0	38797312	22	5316
2026-01-16 09:30:10.34	133.70	8.85	-30.4	-33.7	11.5	6.33e-04	0	42	0	40894464	22	5265
2026-01-16 09:30:11.34	133.65	8.93	-30.2	-33.8	11.8	3.98e-04	0	42	0	42991616	21	5403
2026-01-16 09:30:12.35	133.61	9.01	-30.3	-33.9	11.7	6.48e-04	0	42	0	45088768	21	5456
2026-01-16 09:30:13.35	133.56	9.09	-30.3	-33.8	11.8	4.92e-04	0	42	0	46137344	21	5418
2026-01-16 09:30:14.36	133.52	9.17	-30.4	-34.1	11.6	5.58e-04	0	42	0	48234496	21	5559
2026-01-16 09:30:15.35	133.47	9.25	-30.4	-34.3	11.4	9.34e-04	0	42	0	50331648	21	5635
2026-01-16 09:30:16.34	133.42	9.33	-30.2	-33.8	11.9	5.75e-04	0	42	0	52428800	21	5404
2026-01-16 09:30:17.34	133.38	9.41	-30.4	-34.1	11.7	7.02e-04	0	42	0	53477376	21	5549
2026-01-16 09:30:18.34	133.33	9.50	-30.4	-34.3	11.5	5.35e-04	0	42	0	55574528	21	5629
2026-01-16 09:30:19.34	133.28	9.58	-30.4	-34.1	11.6	7.64e-04	0	42	0	57671680	21	5559
2026-01-16 09:30:20.34	133.23	9.66	-30.4	-34.0	11.7	5.90e-04	0	42	0	59768832	21	5492
2026-01-16 09:30:21.34	133.19	9.75	-30.2	-33.6	12.1	2.78e-04	0	42	0	61865984	21	5297
2026-01-16 09:30:22.34	133.14	9.83	-30.2	-33.6	12.2	2.52e-04	0	42	0	62914560	21	5287
2026-01-16 09:30:23.34	133.09	9.91	-30.2	-33.3	12.4	2.83e-04	0	42	0	65011712	21	5173
2026-01-16 09:30:24.35	133.04	10.00	-30.1	-33.1	12.5	1.40e-04	0	42	0	67108864	21	5071
2026-01-16 09:30:25.34	132.99	10.08	-30.1	-33.0	12.6	7.70e-05	0	42	0	69206016	21	5026
2026-01-16 09:30:26.35	132.94	10.17	-30.2	-33.3	12.4	1.14e-04	0	42	0	71303168	21	5157
2026-01-16 09:30:27.34	132.89	10.25	-30.1	-33.0	12.6	9.61e-05	0	42	0	72351744	21	5046
2026-01-16 09:30:28.34	132.84	10.33	-30.2	-33.3	12.4	9.91e-05	0	42	0	74448896	21	5151
2026-01-16 09:30:29.34	132.79	10.42	-30.3	-33.5	12.3	1.34e-04	0	42	0	76546048	21	5254
2026-01-16 09:30:30.33	132.74	10.50	-30.2	-33.4	12.3	1.98e-04	0	42	0	78643200	21	5205
2026-01-16 09:30:31.33	132.69	10.59	-30.3	-33.7	12.1	2.56e-04	0	42	0	79691776	21	5331
2026-01-16 09:30:32.33	132.64	10.68	-30.3	-33.8	12.1	2.36e-04	0	42	0	81788928	21	5359
2026-01-16 09:30:33.32	132.58	10.76	-30.3	-33.8	12.1	2.79e-04	0	42	0	83886080	21	5361
2026-01-16 09:30:34.32	132.53	10.85	-30.2	-33.5	12.3	2.01e-04	0	42	0	85983232	21	5251
2026-01-16 09:30:35.33	132.48	10.94	-30.3	-33.7	12.1	2.72e-04	0	42	0	88080384	21	5341
2026-01-16 09:30:36.32	132.43	11.02	-30.2	-33.4	12.4	1.95e-04	0	42	0	89128960	21	5214
2026-01-16 09:30:37.32	132.37	11.11	-30.2	-33.4	12.3	1.52e-04	0	42	0	91226112	21	5226
2026-01-16 09:30:38.32	132.32	11.20	-30.2	-33.5	12.3	1.88e-04	0	42	0	93323264	21	5237
2026-01-16 09:30:39.32	132.27	11.28	-30.1	-33.2	12.5	1.01e-04	0	42	0	95420416	21	5151
2026-01-16 09:30:40.32	132.21	11.37	-30.0	-32.7	12.8	8.54e-05	0	42	0	97517568	21	4956
2026-01-16 09:30:41.32	132.16	11.46	-30.1	-33.1	12.6	1.10e-04	0	42	0	98566144	21	5108
2026-01-16 09:30:42.32	132.10	11.55	-29.9	-32.5	13.0	5.03e-05	0	42	0	100663296	21	4891
2026-01-16 09:30:43.31	132.05	11.64	-30.0	-32.8	12.9	8.39e-05	0	42	0	102760448	21	4970
2026-01-16 09:30:44.32	131.99	11.73	-30.1	-33.1	12.6	9.53e-05	0	42	0	104857600	21	5114
2026-01-16 09:30:45.32	131.94	11.82	-30.1	-33.2	12.5	1.25e-04	0	42	0	106954752	21	5143
2026-01-16 09:30:46.32	131.88	11.91	-30.1	-33.1	12.6	9.15e-05	0	42	0	108003328	21	5105
2026-01-16 09:30:47.33	131.82	12.00	-30.0	-33.0	12.8	6.40e-05	0	42	0	110100480	21	5035
2026-01-16 09:30:48.33	131.77	12.09	-30.0	-32.9	12.8	7.85e-05	0	42	0	112197632	21	5028
2026-01-16 09:30:49.33	131.71	12.18	-30.0	-32.8	12.9	5.64e-05	0	42	0	114294784	21	4981
2026-01-16 09:30:50.33	131.65	12.27	-30.0	-32.9	12.8	4.95e-05	0	42	0	115343360	21	5002
2026-01-16 09:30:51.33	131.59	12.37	-30.0	-32.9	12.8	5.56e-05	0	43	0	117440512	21	5020
2026-01-16 09:30:52.34	131.53	12.46	-30.0	-32.7	13.0	3.81e-05	0	42	0	119537664	21	4938
2026-01-16 09:30:53.34	131.48	12.55	-30.0	-32.7	13.0	2.59e-05	0	42	0	121634816	21	4915
2026-01-16 09:30:54.35	131.42	12.64	-30.0	-32.8	13.0	3.58e-05	0	42	0	123731968	21	4936
2026-01-16 09:30:55.35	131.36	12.74	-30.0	-32.8	13.0	6.17e-05	0	42	0	124780544	21	4928
2026-01-16 09:30:56.34	131.30	12.83	-30.1	-32.9	12.9	3.28e-05	0	43	0	126877696	21	4970
2026-01-16 09:30:57.34	131.24	12.92	-29.9	-32.5	13.1	3.43e-05	0	42	0	128974848	21	4848
2026-01-16 09:30:58.34	131.18	13.02	-30.0	-32.8	13.0	3.50e-05	0	42	0	131072000	21	4932
2026-01-16 09:30:59.35	131.11	13.11	-30.0	-32.6	13.1	3.73e-05	0	42	0	133169152	21	4879
2026-01-16 09:31:00.34	131.05	13.20	-30.0	-32.7	13.1	2.74e-05	0	42	0	134217728	21	4915
2026-01-16 09:31:01.34	130.99	13.30	-29.9	-32.5	13.2	2.97e-05	0	43	0	136314880	21	4852
2026-01-16 09:31:02.34	130.93	13.40	-30.0	-32.6	13.1	3.12e-05	0	42	0	138412032	21	4887
2026-01-16 09:31:03.34	130.86	13.49	-30.0	-32.7	13.0	4.57e-05	0	43	0	140509184	21	4911
2026-01-16 09:31:04.33	130.80	13.59	-30.1	-32.9	12.9	3.66e-05	0	43	0	141557760	21	5004
2026-01-16 09:31:05.34	130.74	13.68	-30.2	-33.5	12.5	1.01e-04	0	43	0	143654912	21	5240
2026-01-16 09:31:06.34	130.67	13.78	-30.1	-33.0	12.9	6.33e-05	0	43	0	145752064	21	5039
2026-01-16 09:31:07.33	130.61	13.88	-30.0	-32.7	13.1	3.43e-05	0	43	0	147849216	21	4932
2026-01-16 09:31:08.33	130.54	13.97	-30.0	-32.8	13.0	2.36e-05	0	43	0	149946368	21	4975
2026-01-16 09:31:09.34	130.48	14.07	-29.9	-32.5	13.3	2.82e-05	0	43	0	150994944	21	4838
2026-01-16 09:31:10.34	130.41	14.17	-29.8	-32.2	13.4	2.21e-05	0	43	0	153092096	21	4773
2026-01-16 09:31:11.34	130.35	14.27	-29.8	-32.2	13.4	1.98e-05	0	42	0	155189248	21	4745
2026-01-16 09:31:12.34	130.28	14.37	-29.7	-32.6	13.5	1.22e-05	0	42	0	157286400	20	4986
2026-01-16 09:31:13.35	130.21	14.47	-29.8	-32.7	13.5	4.50e-06	0	43	0	159383552	20	5008
2026-01-16 09:31:14.35	130.14	14.57	-29.8	-32.7	13.5	9.90e-06	0	43	0	160432128	20	5015
2026-01-16 09:31:15.36	130.07	14.67	-29.8	-32.8	13.4	1.67e-05	0	43	0	162529280	20	5044
2026-01-16 09:31:16.36	130.01	14.77	-30.0	-33.0	13.3	1.83e-05	0	43	0	164626432	20	5124
2026-01-16 09:31:17.36	129.94	14.87	-30.0	-33.0	13.3	1.90e-05	0	43	0	166723584	20	5122
2026-01-16 09:31:18.36	129.87	14.97	-30.0	-33.0	13.3	1.14e-05	0	43	0	168820736	20	5124
2026-01-16 09:31:19.36	129.80	15.07	-30.1	-33.3	13.2	1.98e-05	0	43	0	169869312	20	5201
2026-01-16 09:31:20.36	129.73	15.17	-30.0	-33.0	13.4	1.83e-05	0	43	0	171966464	20	5088
2026-01-16 09:31:21.35	129.66	15.27	-29.9	-32.9	13.5	9.10e-06	0	43	0	174063616	20	5049
2026-01-16 09:31:22.36	129.58	15.38	-29.9	-32.7	13.6	1.37e-05	0	43	0	176160768	20	4976
2026-01-16 09:31:23.36	129.51	15.48	-29.8	-32.5	13.8	3.00e-06	0	43	0	177209344	20	4888
2026-01-16 09:31:24.36	129.44	15.58	-29.8	-32.5	13.8	8.30e-06	0	43	0	179306496	20	4917
2026-01-16 09:31:25.37	129.36	15.69	-29.8	-32.5	13.8	6.80e-06	0	43	0	181403648	20	4909
2026-01-16 09:31:26.36	129.29	15.79	-29.9	-32.6	13.7	3.00e-06	0	43	0	183500800	20	4944
2026-01-16 09:31:27.37	129.22	15.89	-29.8	-32.5	13.8	6.10e-06	0	43	0	185597952	20	4927
2026-01-16 09:31:28.36	129.14	16.00	-29.9	-32.7	13.6	4.50e-06	0	43	0	186646528	20	4987
2026-01-16 09:31:29.37	129.07	16.10	-29.9	-32.8	13.6	6.10e-06	0	43	0	188743680	20	5003
2026-01-16 09:31:30.37	128.99	16.21	-29.9	-32.8	13.7	1.06e-05	0	43	0	190840832	20	5003
2026-01-16 09:31:31.37	128.91	16.32	-29.9	-32.7	13.7	4.50e-06	0	43	0	192937984	20	4979
2026-01-16 09:31:32.37	128.84	16.42	-29.8	-32.4	13.9	3.00e-06	0	43	0	195035136	20	4863
2026-01-16 09:31:33.38	128.76	16.53	-29.8	-32.6	13.8	7.60e-06	0	43	0	196083712	20	4931
2026-01-16 09:31:34.37	128.68	16.64	-30.0	-33.1	13.4	6.10e-06	0	43	0	198180864	20	5136
2026-01-16 09:31:35.38	128.60	16.75	-30.0	-33.2	13.4	1.44e-05	0	43	0	200278016	20	5175
2026-01-16 09:31:36.38	128.52	16.85	-30.0	-33.3	13.3	1.67e-05	0	43	0	202375168	20	5218
2026-01-16 09:31:37.38	128.44	16.96	-30.2	-33.6	13.1	1.52e-05	0	43	0	204472320	20	5365
2026-01-16 09:31:38.38	128.36	17.07	-30.0	-33.2	13.3	3.58e-05	0	43	0	205520896	20	5213
2026-01-16 09:31:39.37	128.28	17.18	-30.1	-33.4	13.2	1.60e-05	0	43	0	207618048	20	5261
2026-01-16 09:31:40.37	128.20	17.29	-30.0	-33.3	13.3	2.67e-05	0	43	0	209715200	20	5226
2026-01-16 09:31:41.36	128.12	17.40	-30.2	-33.6	13.1	1.98e-05	0	43	0	211812352	20	5345
2026-01-16 09:31:42.36	128.03	17.51	-30.4	-34.2	12.8	1.67e-05	0	43	0	213909504	20	5579
2026-01-16 09:31:43.37	127.95	17.62	-30.4	-33.8	12.6	2.16e-04	0	43	0	214958080	21	5340
2026-01-16 09:31:44.37	127.86	17.73	-30.2	-33.1	13.1	6.02e-05	0	43	0	217055232	21	5027
2026-01-16 09:31:45.37	127.78	17.84	-30.0	-32.6	13.5	1.75e-05	0	43	0	219152384	21	4846
2026-01-16 09:31:46.37	127.69	17.96	-29.9	-32.3	13.6	9.90e-06	0	43	0	221249536	21	4764
2026-01-16 09:31:47.37	127.61	18.07	-29.9	-32.2	13.8	3.00e-06	0	43	0	222298112	21	4700
2026-01-16 09:31:48.37	127.52	18.18	-29.9	-32.3	13.7	4.50e-06	0	43	0	224395264	21	4724
2026-01-16 09:31:49.38	127.43	18.30	-29.9	-32.3	13.7	4.50e-06	0	43	0	226492416	21	4741
2026-01-16 09:31:50.38	127.34	18.41	-29.9	-32.2	13.8	6.10e-06	0	43	0	228589568	21	4673
2026-01-16 09:31:51.38	127.25	18.53	-29.9	-32.2	13.8	3.00e-06	0	43	0	230686720	21	4693
2026-01-16 09:31:52.37	127.17	18.64	-30.0	-32.4	13.7	4.50e-06	0	43	0	231735296	21	4745
2026-01-16 09:31:53.37	127.08	18.76	-30.1	-32.6	13.6	9.10e-06	0	43	0	233832448	21	4791
2026-01-16 09:31:54.37	126.98	18.87	-30.1	-32.7	13.6	6.10e-06	0	43	0	235929600	21	4830
2026-01-16 09:31:55.38	126.89	18.99	-30.1	-32.6	13.6	1.06e-05	0	43	0	238026752	21	4797
2026-01-16 09:31:56.38	126.80	19.11	-30.2	-32.8	13.5	7.60e-06	0	43	0	240123904	21	4890
2026-01-16 09:31:57.39	126.71	19.22	-30.2	-32.8	13.5	1.52e-05	0	43	0	241172480	21	4878
2026-01-16 09:31:58.39	126.61	19.34	-30.3	-33.1	13.3	2.74e-05	0	43	0	243269632	21	5000
2026-01-16 09:31:59.39	126.52	19.46	-30.2	-33.0	13.4	1.83e-05	0	43	0	245366784	21	4949
2026-01-16 09:32:00.40	126.42	19.58	-30.3	-33.3	13.2	1.67e-05	0	43	0	247463936	21	5048
2026-01-16 09:32:01.40	126.32	19.70	-30.3	-33.2	13.3	2.05e-05	0	43	0	249561088	21	5013
2026-01-16 09:32:02.41	126.23	19.82	-30.4	-33.4	13.1	1.75e-05	0	43	0	250609664	21	5099
2026-01-16 09:32:03.41	126.13	19.94	-30.4	-33.5	13.1	2.67e-05	0	43	0	252706816	21	5139
2026-01-16 09:32:04.41	126.03	20.06	-30.4	-33.4	13.1	3.73e-05	0	43	0	254803968	21	5105
2026-01-16 09:32:05.41	125.93	20.18	-30.4	-33.4	13.0	2.59e-05	0	43	0	256901120	21	5108
2026-01-16 09:32:06.41	125.83	20.31	-30.4	-33.5	13.0	3.81e-05	0	43	0	257949696	21	5153
2026-01-16 09:32:07.41	125.73	20.43	-30.3	-33.3	13.2	2.21e-05	0	43	0	260046848	21	5054
2026-01-16 09:32:08.41	125.63	20.55	-30.5	-33.6	13.0	2.44e-05	0	43	0	262144000	21	5189
2026-01-16 09:32:09.41	125.52	20.67	-30.5	-33.6	13.0	2.36e-05	0	43	0	264241152	21	5179
2026-01-16 09:32:10.41	125.42	20.80	-30.5	-33.6	13.1	3.20e-05	0	43	0	266338304	21	5163
2026-01-16 09:32:11.41	125.32	20.92	-30.5	-33.7	12.9	4.88e-05	0	43	0	267386880	21	5226
2026-01-16 09:32:12.41	125.21	21.05	-30.5	-33.7	13.0	4.19e-05	0	43	0	269484032	21	5202
2026-01-16 09:32:13.40	125.11	21.17	-30.6	-34.0	12.7	3.66e-05	0	43	0	271581184	21	5318
2026-01-16 09:32:14.41	125.00	21.30	-30.6	-34.0	12.8	8.77e-05	0	43	0	273678336	21	5332
2026-01-16 09:32:15.41	124.89	21.43	-30.4	-33.5	13.1	3.50e-05	0	43	0	275775488	21	5121
2026-01-16 09:32:16.41	124.78	21.55	-30.3	-33.3	13.2	2.36e-05	0	43	0	276824064	21	5046
2026-01-16 09:32:17.42	124.67	21.68	-30.4	-33.3	13.3	3.05e-05	0	43	0	278921216	21	5071
2026-01-16 09:32:18.42	124.56	21.81	-30.5	-33.7	13.0	2.67e-05	0	43	0	281018368	21	5195
2026-01-16 09:32:19.42	124.45	21.94	-30.5	-33.7	13.0	4.34e-05	0	43	0	283115520	21	5220
2026-01-16 09:32:20.43	124.33	22.07	-30.5	-33.8	12.9	5.03e-05	0	43	0	285212672	21	5246
2026-01-16 09:32:21.43	124.22	22.20	-30.5	-33.7	13.1	4.34e-05	0	43	0	286261248	21	5189
2026-01-16 09:32:22.43	124.11	22.33	-30.5	-33.7	13.0	3.81e-05	0	43	0	288358400	21	5198
2026-01-16 09:32:23.43	123.99	22.46	-30.5	-33.7	13.0	2.67e-05	0	43	0	290455552	21	5196
2026-01-16 09:32:24.43	123.87	22.59	-30.5	-33.8	12.9	4.80e-05	0	43	0	292552704	21	5246
2026-01-16 09:32:25.44	123.75	22.72	-30.5	-33.8	12.9	4.95e-05	0	43	0	294649856	21	5242
2026-01-16 09:32:26.44	123.64	22.86	-30.5	-33.8	13.0	3.96e-05	0	43	0	295698432	21	5231
2026-01-16 09:32:27.44	123.52	22.99	-30.7	-34.1	12.7	5.34e-05	0	43	0	297795584	21	5364
2026-01-16 09:32:28.43	123.40	23.12	-30.7	-34.2	12.7	1.08e-04	0	43	0	299892736	21	5395
2026-01-16 09:32:29.43	123.27	23.25	-30.5	-33.8	13.0	5.18e-05	0	43	0	301989888	21	5222
2026-01-16 09:32:30.44	123.15	23.39	-30.5	-33.7	13.0	4.88e-05	0	43	0	303038464	21	5203
2026-01-16 09:32:31.44	123.03	23.53	-30.4	-33.5	13.2	2.51e-05	0	43	0	305135616	21	5120
2026-01-16 09:32:32.45	122.90	23.66	-30.5	-33.6	13.1	2.21e-05	0	43	0	307232768	21	5166
2026-01-16 09:32:33.45	122.77	23.80	-30.4	-33.4	13.3	3.05e-05	0	43	0	309329920	21	5063
2026-01-16 09:32:34.45	122.65	23.94	-30.5	-33.5	13.2	2.51e-05	0	43	0	311427072	21	5130
2026-01-16 09:32:35.45	122.52	24.07	-30.6	-33.9	12.9	3.50e-05	0	43	0	312475648	21	5268
2026-01-16 09:32:36.46	122.39	24.21	-30.6	-33.8	13.0	4.11e-05	0	43	0	314572800	21	5221
2026-01-16 09:32:37.45	122.26	24.35	-30.5	-33.5	13.2	5.79e-05	0	43	0	316669952	21	5127
2026-01-16 09:32:38.46	122.13	24.49	-30.4	-33.4	13.2	4.73e-05	0	43	0	318767104	21	5085
2026-01-16 09:32:39.45	121.99	24.63	-30.5	-33.6	13.1	2.97e-05	0	43	0	320864256	21	5158
2026-01-16 09:32:40.45	121.86	24.77	-30.4	-33.3	13.3	1.60e-05	0	43	0	321912832	21	5058
2026-01-16 09:32:41.45	121.72	24.91	-30.3	-33.2	13.4	1.29e-05	0	43	0	324009984	21	4998
2026-01-16 09:32:42.45	121.59	25.05	-30.4	-33.4	13.3	1.22e-05	0	43	0	326107136	21	5085
2026-01-16 09:32:43.45	121.45	25.19	-30.4	-33.4	13.3	2.51e-05	0	43	0	328204288	21	5076
2026-01-16 09:32:44.45	121.31	25.33	-30.5	-33.5	13.2	1.83e-05	0	43	0	329252864	21	5111
2026-01-16 09:32:45.45	121.17	25.48	-30.4	-33.4	13.3	1.60e-05	0	43	0	331350016	21	5074
2026-01-16 09:32:46.45	121.03	25.62	-30.5	-33.7	13.1	3.20e-05	0	43	0	333447168	21	5194
2026-01-16 09:32:47.45	120.89	25.77	-30.5	-33.7	13.1	4.04e-05	0	43	0	335544320	21	5189
2026-01-16 09:32:48.45	120.74	25.91	-30.5	-33.6	13.2	1.44e-05	0	43	0	337641472	21	5146
2026-01-16 09:32:49.45	120.59	26.06	-30.5	-33.7	13.2	2.51e-05	0	43	0	338690048	21	5165
2026-01-16 09:32:50.45	120.45	26.20	-30.6	-33.8	13.1	3.28e-05	0	43	0	340787200	21	5223
2026-01-16 09:32:51.46	120.30	26.35	-30.6	-33.8	13.1	3.05e-05	0	43	0	342884352	21	5215
2026-01-16 09:32:52.46	120.15	26.50	-30.6	-33.9	13.1	3.35e-05	0	43	0	344981504	21	5246
2026-01-16 09:32:53.46	120.00	26.64	-30.6	-33.8	13.1	3.35e-05	0	43	0	347078656	21	5211
2026-01-16 09:32:54.46	119.84	26.79	-30.6	-33.8	13.1	4.65e-05	0	43	0	348127232	21	5211
2026-01-16 09:32:55.47	119.69	26.94	-30.5	-33.7	13.2	1.98e-05	0	43	0	350224384	21	5164
2026-01-16 09:32:56.47	119.53	27.09	-30.5	-33.6	13.2	1.67e-05	0	43	0	352321536	21	5141
2026-01-16 09:32:57.47	119.37	27.24	-30.5	-33.5	13.3	1.67e-05	0	43	0	354418688	21	5102
2026-01-16 09:32:58.47	119.22	27.39	-30.4	-33.4	13.4	1.14e-05	0	43	0	356515840	21	5056
2026-01-16 09:32:59.47	119.06	27.54	-30.5	-33.5	13.3	3.05e-05	0	43	0	357564416	21	5113
2026-01-16 09:33:00.47	118.89	27.70	-30.5	-33.5	13.4	1.29e-05	0	43	0	359661568	21	5090
2026-01-16 09:33:01.48	118.73	27.85	-30.5	-33.5	13.3	1.52e-05	0	43	0	361758720	21	5114
2026-01-16 09:33:02.48	118.56	28.00	-30.5	-33.5	13.3	1.75e-05	0	43	0	363855872	21	5102
2026-01-16 09:33:03.48	118.40	28.16	-30.6	-33.8	13.2	2.44e-05	0	43	0	365953024	21	5198
2026-01-16 09:33:04.47	118.23	28.31	-30.6	-34.0	13.0	3.35e-05	0	43	0	367001600	21	5290
2026-01-16 09:33:05.48	118.06	28.47	-30.6	-33.9	13.1	4.34e-05	0	43	0	369098752	21	5266
2026-01-16 09:33:06.48	117.89	28.62	-30.6	-34.0	13.1	3.28e-05	0	43	0	371195904	21	5274
2026-01-16 09:33:07.47	117.72	28.78	-30.6	-33.9	13.1	3.12e-05	0	43	0	373293056	21	5261
2026-01-16 09:33:08.46	117.54	28.93	-30.7	-34.1	13.0	2.36e-05	0	43	0	374341632	21	5334
2026-01-16 09:33:09.46	117.37	29.09	-30.7	-34.2	13.0	3.89e-05	0	43	0	376438784	21	5361
2026-01-16 09:33:10.45	117.19	29.24	-30.7	-34.0	13.1	2.13e-05	0	43	0	378535936	21	5278
2026-01-16 09:33:11.45	117.01	29.40	-30.6	-33.9	13.1	2.97e-05	0	43	0	380633088	21	5261
2026-01-16 09:33:12.45	116.83	29.56	-30.8	-34.3	12.9	3.96e-05	0	43	0	382730240	21	5405
2026-01-16 09:33:13.45	116.64	29.72	-30.8	-34.4	12.8	5.56e-05	0	43	0	383778816	21	5460
2026-01-16 09:33:14.45	116.46	29.88	-30.7	-34.0	13.1	3.66e-05	0	43	0	385875968	21	5282
2026-01-16 09:33:15.46	116.27	30.04	-30.8	-34.4	12.8	4.50e-05	0	43	0	387973120	21	5436
2026-01-16 09:33:16.46	116.08	30.20	-30.9	-34.3	12.6	1.33e-04	0	43	0	390070272	22	5277
2026-01-16 09:33:17.46	115.89	30.36	-31.1	-34.7	12.4	1.22e-04	0	43	0	392167424	22	5449
2026-01-16 09:33:18.46	115.69	30.52	-31.2	-35.1	12.1	2.43e-04	0	43	0	393216000	22	5623
2026-01-16 09:33:19.46	115.50	30.69	-31.2	-35.1	12.0	3.35e-04	0	43	0	395313152	22	5632
2026-01-16 09:33:20.47	115.30	30.85	-31.2	-35.1	12.0	3.56e-04	0	43	0	397410304	22	5616
2026-01-16 09:33:21.47	115.10	31.02	-31.4	-35.6	11.7	3.85e-04	0	43	0	399507456	22	5857
2026-01-16 09:33:22.47	114.90	31.18	-31.5	-35.5	11.5	6.23e-04	0	43	0	401604608	23	5671
2026-01-16 09:33:23.46	114.70	31.34	-31.5	-35.3	11.5	9.19e-04	0	43	0	402653184	23	5597
2026-01-16 09:33:24.47	114.49	31.51	-31.4	-35.2	11.7	7.39e-04	0	43	0	404750336	23	5546
2026-01-16 09:33:25.47	114.28	31.67	-31.6	-35.6	11.4	6.33e-04	0	43	0	406847488	23	5722
2026-01-16 09:33:26.47	114.07	31.84	-31.5	-35.4	11.5	8.97e-04	0	43	0	408944640	23	5637
2026-01-16 09:33:27.48	113.86	32.01	-31.5	-35.5	11.4	1.03e-03	0	43	0	409993216	23	5670
2026-01-16 09:33:28.48	113.64	32.18	-31.5	-35.3	11.6	8.35e-04	0	43	0	412090368	23	5576
2026-01-16 09:33:29.47	113.43	32.34	-31.6	-35.7	11.3	7.91e-04	0	43	0	414187520	23	5766
2026-01-16 09:33:30.48	113.21	32.51	-31.6	-35.7	11.3	1.34e-03	0	43	0	416284672	23	5756
2026-01-16 09:33:31.49	112.99	32.68	-31.4	-35.1	11.7	6.48e-04	0	43	0	418381824	23	5482
2026-01-16 09:33:32.49	112.76	32.85	-31.5	-35.2	11.6	4.50e-04	0	43	0	419430400	23	5565
2026-01-16 09:33:33.49	112.54	33.02	-31.4	-34.9	11.9	4.99e-04	0	43	0	421527552	23	5431
2026-01-16 09:33:34.48	112.31	33.19	-31.4	-35.0	11.8	4.00e-04	0	43	0	423624704	23	5465
2026-01-16 09:33:35.49	112.08	33.36	-31.4	-35.0	11.8	5.48e-04	0	43	0	425721856	23	5456
2026-01-16 09:33:36.49	111.84	33.53	-31.3	-34.7	12.0	3.63e-04	0	43	0	427819008	23	5333
2026-01-16 09:33:37.49	111.61	33.70	-31.4	-35.0	11.8	4.26e-04	0	43	0	428867584	23	5431
2026-01-16 09:33:38.48	111.37	33.87	-31.4	-35.1	11.8	5.31e-04	0	43	0	430964736	23	5493
2026-01-16 09:33:39.49	111.13	34.05	-31.6	-35.7	11.4	6.21e-04	0	43	0	433061888	23	5762
2026-01-16 09:33:40.49	110.89	34.22	-31.5	-35.4	11.5	8.13e-04	0	43	0	435159040	23	5649
2026-01-16 09:33:41.49	110.64	34.39	-31.5	-35.2	11.7	5.95e-04	0	43	0	437256192	23	5524
2026-01-16 09:33:42.50	110.39	34.56	-31.4	-35.0	11.8	6.06e-04	0	43	0	438304768	23	5457
2026-01-16 09:33:43.51	110.14	34.74	-31.3	-34.8	12.0	3.23e-04	0	43	0	440401920	23	5354
2026-01-16 09:33:44.50	109.89	34.91	-31.3	-34.8	12.0	3.89e-04	0	44	0	442499072	23	5389
2026-01-16 09:33:45.51	109.63	35.09	-31.4	-35.0	11.9	4.35e-04	0	43	0	444596224	23	5432
2026-01-16 09:33:46.51	109.37	35.26	-31.4	-35.1	11.8	4.25e-04	0	43	0	445644800	23	5498
2026-01-16 09:33:47.51	109.10	35.44	-31.4	-35.0	11.9	5.55e-04	0	43	0	447741952	23	5453
2026-01-16 09:33:48.51	108.84	35.61	-31.3	-34.8	12.0	3.30e-04	0	43	0	449839104	23	5370
2026-01-16 09:33:49.51	108.57	35.79	-31.4	-34.8	12.1	4.00e-04	0	43	0	451936256	23	5380
2026-01-16 09:33:50.51	108.30	35.96	-31.3	-34.7	12.1	2.85e-04	0	43	0	454033408	23	5318
2026-01-16 09:33:51.51	108.03	36.14	-31.3	-34.7	12.1	3.27e-04	0	43	0	455081984	23	5307
2026-01-16 09:33:52.51	107.75	36.31	-31.2	-34.5	12.3	1.94e-04	0	43	0	457179136	23	5219
2026-01-16 09:33:53.50	107.47	36.49	-31.2	-34.4	12.3	2.26e-04	0	43	0	459276288	23	5209
2026-01-16 09:33:54.50	107.19	36.66	-31.2	-34.3	12.4	1.59e-04	0	43	0	461373440	23	5158
2026-01-16 09:33:55.50	106.91	36.84	-31.1	-34.1	12.5	1.26e-04	0	43	0	463470592	23	5078
2026-01-16 09:33:56.50	106.62	37.01	-31.2	-34.5	12.3	1.30e-04	0	43	0	464519168	23	5232
2026-01-16 09:33:57.50	106.32	37.19	-31.2	-34.5	12.3	1.73e-04	0	43	0	466616320	23	5231
2026-01-16 09:33:58.50	106.03	37.37	-31.2	-34.4	12.4	2.52e-04	0	43	0	468713472	23	5188
2026-01-16 09:33:59.50	105.73	37.54	-31.1	-34.1	12.6	1.14e-04	0	43	0	470810624	23	5085
2026-01-16 09:34:00.50	105.43	37.72	-31.3	-34.6	12.2	1.74e-04	0	43	0	471859200	23	5294
2026-01-16 09:34:01.51	105.12	37.90	-31.2	-34.3	12.4	1.69e-04	0	44	0	473956352	23	5153
2026-01-16 09:34:02.51	104.81	38.07	-31.2	-34.3	12.5	1.27e-04	0	43	0	476053504	23	5153
2026-01-16 09:34:03.52	104.50	38.25	-31.2	-34.3	12.4	1.02e-04	0	43	0	478150656	23	5165
2026-01-16 09:34:04.52	104.18	38.43	-31.2	-34.2	12.5	1.85e-04	0	43	0	480247808	23	5123
2026-01-16 09:34:05.52	103.86	38.60	-31.2	-34.5	12.3	1.72e-04	0	43	0	482344960	23	5223
2026-01-16 09:34:06.52	103.54	38.78	-31.2	-34.4	12.4	1.48e-04	0	43	0	483393536	23	5180
2026-01-16 09:34:07.52	103.22	38.96	-31.3	-34.7	12.2	2.30e-04	0	43	0	485490688	23	5314
2026-01-16 09:34:08.53	102.88	39.13	-31.2	-34.5	12.4	2.00e-04	0	44	0	487587840	23	5214
2026-01-16 09:34:09.53	102.55	39.31	-31.3	-34.7	12.2	2.08e-04	0	43	0	489684992	23	5307
2026-01-16 09:34:10.54	102.21	39.49	-31.4	-34.9	12.0	2.70e-04	0	44	0	490733568	23	5410
2026-01-16 09:34:11.54	101.87	39.66	-31.7	-35.8	11.4	5.81e-04	0	43	0	492830720	23	5798
2026-01-16 09:34:12.54	101.53	39.84	-31.9	-36.6	10.9	2.61e-03	0	43	0	494927872	23	6154
2026-01-16 09:34:13.55	101.17	40.01	-31.8	-36.2	11.1	1.36e-03	0	43	0	497025024	23	5981
2026-01-16 09:34:14.55	100.82	40.19	-31.9	-36.6	10.8	2.30e-03	0	43	0	499122176	23	6147
2026-01-16 09:34:15.56	100.46	40.36	-31.9	-36.1	10.9	3.73e-03	0	43	0	500170752	24	5795
2026-01-16 09:34:16.56	100.10	40.53	-31.7	-35.5	11.3	1.67e-03	0	43	0	502267904	24	5519
2026-01-16 09:34:17.56	99.74	40.71	-31.7	-35.3	11.5	9.15e-04	0	43	0	504365056	24	5461
2026-01-16 09:34:18.57	99.37	40.88	-31.7	-35.4	11.3	7.32e-04	0	43	0	506462208	24	5490
2026-01-16 09:34:19.58	99.00	41.06	-31.8	-35.6	11.3	8.64e-04	0	44	0	508559360	24	5575
2026-01-16 09:34:20.58	98.62	41.23	-31.8	-35.7	11.2	1.43e-03	0	43	0	509607936	24	5649
2026-01-16 09:34:21.58	98.24	41.40	-31.8	-35.8	11.1	1.66e-03	0	43	0	511705088	24	5666
2026-01-16 09:34:22.57	97.86	41.57	-31.8	-35.8	11.1	1.15e-03	0	43	0	513802240	24	5678
2026-01-16 09:34:23.58	97.47	41.74	-31.8	-35.8	11.1	1.76e-03	0	43	0	515899392	24	5676
2026-01-16 09:34:24.59	97.08	41.91	-31.8	-35.6	11.2	1.46e-03	0	43	0	517996544	24	5603
2026-01-16 09:34:25.59	96.68	42.07	-31.8	-35.7	11.2	1.37e-03	0	43	0	519045120	24	5641
2026-01-16 09:34:26.59	96.28	42.24	-31.8	-35.7	11.2	1.52e-03	0	44	0	521142272	24	5642
2026-01-16 09:34:27.60	95.87	42.41	-31.8	-35.5	11.3	1.26e-03	0	44	0	523239424	24	5546
2026-01-16 09:34:28.60	95.47	42.57	-31.8	-35.7	11.2	1.25e-03	0	44	0	525336576	24	5617
2026-01-16 09:34:29.60	95.05	42.74	-31.4	-34.4	12.2	9.12e-04	0	43	0	527433728	24	5097
2026-01-16 09:34:30.60	94.64	42.90	-31.0	-33.8	12.8	1.40e-04	0	43	0	528482304	23	4968
2026-01-16 09:34:31.60	94.22	43.06	-30.9	-33.3	13.2	2.97e-05	0	43	0	530579456	23	4782
2026-01-16 09:34:32.60	93.79	43.23	-30.7	-33.3	13.5	1.60e-05	0	43	0	532676608	22	4874
2026-01-16 09:34:33.61	93.36	43.39	-30.4	-32.7	14.0	4.50e-06	0	43	0	534773760	22	4644
2026-01-16 09:34:34.60	92.93	43.54	-30.2	-32.4	14.4	1.50e-06	0	43	0	535822336	21	4677
2026-01-16 09:34:35.60	92.49	43.70	-29.9	-31.8	14.8	7.00e-07	0	43	0	537919488	21	4476
2026-01-16 09:34:36.61	92.05	43.86	-30.0	-32.0	14.7	0.00e+00	0	43	0	540016640	21	4528
2026-01-16 09:34:37.59	91.61	44.01	-30.3	-32.7	14.2	7.00e-07	0	43	0	542113792	21	4771
2026-01-16 09:34:38.59	91.16	44.17	-30.4	-33.0	14.1	0.00e+00	0	43	0	544210944	21	4859
2026-01-16 09:34:39.59	90.70	44.32	-30.3	-32.8	14.2	2.20e-06	0	43	0	545259520	21	4815
2026-01-16 09:34:40.59	90.24	44.47	-30.2	-32.4	14.4	2.20e-06	0	43	0	547356672	21	4674
2026-01-16 09:34:41.59	89.78	44.62	-30.4	-33.1	14.0	2.20e-06	0	43	0	549453824	21	4915
2026-01-16 09:34:42.60	89.31	44.77	-30.5	-33.5	13.8	6.10e-06	0	43	0	551550976	21	5042
2026-01-16 09:34:43.60	88.83	44.92	-30.7	-33.9	13.5	1.37e-05	0	43	0	553648128	21	5205
2026-01-16 09:34:44.60	88.36	45.06	-30.5	-33.4	13.8	1.06e-05	0	43	0	554696704	21	5002
2026-01-16 09:34:45.59	87.88	45.20	-30.0	-32.1	14.7	7.00e-07	0	43	0	556793856	21	4558
2026-01-16 09:34:46.60	87.39	45.34	-29.8	-31.9	15.1	0.00e+00	0	43	0	558891008	20	4598
2026-01-16 09:34:47.59	86.91	45.48	-30.1	-32.7	14.6	0.00e+00	0	43	0	560988160	20	4871
2026-01-16 09:34:48.60	86.41	45.62	-30.4	-33.4	14.1	7.00e-07	0	44	0	562036736	20	5133
2026-01-16 09:34:49.59	85.91	45.75	-30.7	-34.0	13.5	9.90e-06	0	44	0	564133888	21	5222
2026-01-16 09:34:50.60	85.40	45.89	-31.0	-34.3	12.9	1.37e-05	0	43	0	566231040	22	5230
2026-01-16 09:34:51.59	84.90	46.02	-31.0	-34.2	13.1	2.89e-05	0	44	0	568328192	22	5217
2026-01-16 09:34:52.60	84.39	46.15	-31.2	-34.8	12.6	6.56e-05	0	43	0	570425344	22	5438
2026-01-16 09:34:53.60	83.87	46.28	-31.3	-35.0	12.5	1.86e-04	0	43	0	571473920	22	5527
2026-01-16 09:34:54.60	83.35	46.40	-31.1	-34.5	12.8	8.31e-05	0	43	0	573571072	22	5324
2026-01-16 09:34:55.61	82.82	46.53	-31.0	-34.2	13.0	4.73e-05	0	43	0	575668224	22	5193
2026-01-16 09:34:56.61	82.29	46.65	-31.0	-34.2	13.0	4.34e-05	0	43	0	577765376	22	5204
2026-01-16 09:34:57.61	81.76	46.77	-31.1	-34.5	12.9	3.96e-05	0	43	0	579862528	22	5300
2026-01-16 09:34:58.62	81.22	46.88	-31.3	-34.9	12.6	7.47e-05	0	43	0	580911104	22	5478
2026-01-16 09:34:59.63	80.68	47.00	-31.7	-35.7	11.7	3.32e-04	0	43	0	583008256	23	5736
2026-01-16 09:35:00.62	80.14	47.11	-31.6	-35.6	11.7	5.10e-04	0	43	0	585105408	23	5662
2026-01-16 09:35:01.62	79.59	47.22	-31.7	-35.7	11.7	5.65e-04	0	43	0	587202560	23	5694
2026-01-16 09:35:02.62	79.04	47.32	-31.6	-35.5	11.8	4.98e-04	0	43	0	589299712	23	5642
2026-01-16 09:35:03.62	78.48	47.42	-31.8	-36.1	11.3	7.06e-04	0	43	0	590348288	23	5888
2026-01-16 09:35:04.62	77.92	47.52	-32.1	-36.4	10.7	2.08e-03	0	43	0	592445440	24	5955
2026-01-16 09:35:05.62	77.36	47.62	-32.2	-37.0	10.3	4.89e-03	0	44	0	594542592	24	6224
2026-01-16 09:35:06.62	76.80	47.72	-32.2	-37.0	10.4	5.31e-03	0	44	0	596639744	24	6256
2026-01-16 09:35:07.63	76.22	47.81	-32.2	-36.7	10.6	3.12e-03	0	44	0	598736896	24	6085
2026-01-16 09:35:08.63	75.65	47.90	-32.3	-37.0	10.3	3.74e-03	0	43	0	599785472	24	6242
2026-01-16 09:35:09.63	75.07	47.98	-32.2	-37.0	10.3	6.37e-03	0	43	0	601882624	24	6245
2026-01-16 09:35:10.63	74.49	48.07	-32.1	-36.4	10.8	3.51e-03	0	43	0	603979776	24	5938
2026-01-16 09:35:11.64	73.91	48.15	-31.9	-35.9	11.2	1.99e-03	0	44	0	606076928	24	5668
2026-01-16 09:35:12.64	73.32	48.22	-32.0	-36.1	11.0	1.57e-03	0	43	0	607125504	24	5805
2026-01-16 09:35:13.64	72.73	48.30	-31.9	-35.7	11.2	1.75e-03	0	43	0	609222656	24	5605
2026-01-16 09:35:14.64	72.14	48.37	-31.6	-35.0	11.7	7.49e-04	0	44	0	611319808	24	5295
2026-01-16 09:35:15.64	71.55	48.43	-31.7	-35.1	11.8	5.16e-04	0	43	0	613416960	24	5338
2026-01-16 09:35:16.65	70.95	48.50	-31.8	-35.5	11.5	7.92e-04	0	44	0	615514112	24	5529
2026-01-16 09:35:17.65	70.35	48.56	-31.7	-35.3	11.6	9.35e-04	0	43	0	616562688	24	5420
2026-01-16 09:35:18.65	69.75	48.62	-31.5	-34.6	12.1	5.44e-04	0	44	0	618659840	24	5155
2026-01-16 09:35:19.65	69.15	48.67	-31.5	-34.7	12.0	2.85e-04	0	44	0	620756992	24	5170
2026-01-16 09:35:20.65	68.54	48.72	-31.6	-34.8	11.9	3.83e-04	0	44	0	622854144	24	5219
2026-01-16 09:35:21.65	67.94	48.77	-31.4	-34.4	12.2	2.85e-04	0	43	0	624951296	24	5052
2026-01-16 09:35:22.65	67.33	48.81	-31.3	-34.5	12.4	1.14e-04	0	43	0	625999872	23	5200
2026-01-16 09:35:23.65	66.72	48.85	-31.2	-34.1	12.8	7.62e-05	0	43	0	628097024	23	5061
2026-01-16 09:35:24.66	66.10	48.89	-31.3	-34.5	12.5	1.03e-04	0	43	0	630194176	23	5188
2026-01-16 09:35:25.67	65.48	48.92	-31.2	-34.2	12.7	1.46e-04	0	43	0	632291328	23	5084
2026-01-16 09:35:26.66	64.87	48.95	-30.9	-33.5	13.1	3.81e-05	0	43	0	634388480	23	4847
2026-01-16 09:35:27.67	64.25	48.98	-31.0	-33.8	13.0	4.65e-05	0	43	0	635437056	23	4943
2026-01-16 09:35:28.67	63.64	49.00	-31.2	-34.2	12.7	5.03e-05	0	43	0	637534208	23	5091
2026-01-16 09:35:29.67	63.02	49.02	-31.2	-34.3	12.6	1.21e-04	0	43	0	639631360	23	5146
2026-01-16 09:35:30.68	62.39	49.04	-31.2	-34.3	12.7	8.01e-05	0	44	0	641728512	23	5112
2026-01-16 09:35:31.68	61.78	49.05	-31.2	-34.1	12.8	5.41e-05	0	44	0	643825664	23	5053
2026-01-16 09:35:32.68	61.16	49.06	-31.2	-34.2	12.7	6.86e-05	0	43	0	644874240	23	5079
2026-01-16 09:35:33.69	60.53	49.06	-31.4	-34.8	12.3	1.22e-04	0	43	0	646971392	23	5310
2026-01-16 09:35:34.69	59.91	49.06	-31.3	-34.4	12.5	1.53e-04	0	44	0	649068544	23	5173
2026-01-16 09:35:35.69	59.29	49.06	-31.2	-34.1	12.7	9.38e-05	0	43	0	651165696	23	5046
2026-01-16 09:35:36.70	58.67	49.05	-31.2	-34.1	12.8	6.25e-05	0	43	0	653262848	23	5061
2026-01-16 09:35:37.70	58.05	49.04	-31.2	-34.4	12.6	8.62e-05	0	43	0	654311424	23	5153
2026-01-16 09:35:38.70	57.43	49.03	-31.2	-34.3	12.6	9.15e-05	0	43	0	656408576	23	5152
2026-01-16 09:35:39.70	56.82	49.01	-31.2	-34.4	12.6	9.61e-05	0	44	0	658505728	23	5167
2026-01-16 09:35:40.70	56.20	48.99	-31.3	-34.6	12.5	1.01e-04	0	43	0	660602880	23	5258
2026-01-16 09:35:41.71	55.58	48.97	-31.1	-34.0	12.8	1.04e-04	0	43	0	662700032	23	5005
2026-01-16 09:35:42.71	54.96	48.94	-31.1	-33.9	12.9	4.57e-05	0	43	0	663748608	23	4982
2026-01-16 09:35:43.71	54.35	48.91	-31.2	-34.3	12.6	7.01e-05	0	44	0	665845760	23	5135
2026-01-16 09:35:44.70	53.74	48.88	-31.2	-34.1	12.7	1.28e-04	0	44	0	667942912	23	5062
2026-01-16 09:35:45.70	53.13	48.84	-31.2	-34.1	12.7	8.62e-05	0	44	0	670040064	23	5061
2026-01-16 09:35:46.70	52.52	48.80	-31.3	-34.4	12.5	1.15e-04	0	44	0	671088640	23	5174
2026-01-16 09:35:47.70	51.92	48.75	-31.3	-34.4	12.5	1.47e-04	0	44	0	673185792	23	5165
2026-01-16 09:35:48.71	51.31	48.70	-31.2	-34.1	12.8	9.07e-05	0	43	0	675282944	23	5050
2026-01-16 09:35:49.71	50.70	48.65	-31.0	-33.8	12.9	6.10e-05	0	43	0	677380096	23	4948
2026-01-16 09:35:50.71	50.10	48.60	-31.2	-34.2	12.7	6.86e-05	0	43	0	679477248	23	5093
2026-01-16 09:35:51.71	49.50	48.54	-31.2	-34.3	12.6	1.27e-04	0	43	0	680525824	23	5148
2026-01-16 09:35:52.71	48.91	48.48	-31.2	-34.3	12.5	1.16e-04	0	43	0	682622976	23	5152
2026-01-16 09:35:53.71	48.31	48.41	-31.1	-33.9	12.9	6.25e-05	0	43	0	684720128	23	4987
2026-01-16 09:35:54.71	47.72	48.34	-31.1	-33.9	12.8	4.95e-05	0	43	0	686817280	23	4990
2026-01-16 09:35:55.71	47.13	48.27	-31.3	-34.6	12.3	8.16e-05	0	43	0	688914432	23	5240
2026-01-16 09:35:56.72	46.54	48.20	-31.3	-34.5	12.5	1.46e-04	0	43	0	689963008	23	5194
2026-01-16 09:35:57.73	45.95	48.12	-31.3	-34.6	12.4	1.69e-04	0	43	0	692060160	23	5255
2026-01-16 09:35:58.72	45.38	48.04	-31.4	-34.9	12.1	2.43e-04	0	44	0	694157312	23	5396
2026-01-16 09:35:59.72	44.80	47.95	-31.4	-34.8	12.2	2.71e-04	0	44	0	696254464	23	5325
2026-01-16 09:36:00.72	44.22	47.87	-31.6	-35.3	11.8	4.01e-04	0	43	0	698351616	23	5557
2026-01-16 09:36:01.73	43.65	47.78	-31.6	-35.6	11.7	4.91e-04	0	44	0	699400192	23	5672
2026-01-16 09:36:02.73	43.08	47.68	-31.8	-36.1	11.3	7.67e-04	0	43	0	701497344	23	5906
2026-01-16 09:36:03.73	42.52	47.59	-31.6	-35.6	11.6	8.31e-04	0	43	0	703594496	23	5672
2026-01-16 09:36:04.72	41.96	47.49	-31.7	-35.7	11.6	7.60e-04	0	43	0	705691648	23	5705
2026-01-16 09:36:05.73	41.40	47.39	-31.6	-35.5	11.7	6.28e-04	0	43	0	706740224	23	5634
2026-01-16 09:36:06.73	40.85	47.29	-31.7	-35.6	11.6	6.03e-04	0	44	0	708837376	23	5688
2026-01-16 09:36:07.73	40.30	47.18	-31.6	-35.4	11.9	5.40e-04	0	43	0	710934528	23	5581
2026-01-16 09:36:08.73	39.75	47.07	-31.8	-36.0	11.4	6.03e-04	0	43	0	713031680	23	5838
2026-01-16 09:36:09.74	39.21	46.96	-31.7	-35.8	11.5	9.47e-04	0	43	0	715128832	23	5778
2026-01-16 09:36:10.74	38.67	46.84	-31.5	-35.3	11.9	5.34e-04	0	43	0	716177408	23	5550
2026-01-16 09:36:11.74	38.13	46.73	-31.3	-34.5	12.4	2.46e-04	0	43	0	718274560	23	5220
2026-01-16 09:36:12.74	37.61	46.61	-31.3	-34.5	12.4	1.63e-04	0	44	0	720371712	23	5226
2026-01-16 09:36:13.74	37.08	46.49	-31.3	-34.7	12.3	1.50e-04	0	43	0	722468864	23	5280
2026-01-16 09:36:14.74	36.56	46.37	-31.2	-34.4	12.5	1.62e-04	0	43	0	724566016	23	5176
2026-01-16 09:36:15.74	36.04	46.24	-31.0	-33.8	12.9	6.17e-05	0	44	0	725614592	23	4935
2026-01-16 09:36:16.75	35.52	46.11	-31.0	-33.7	12.9	4.34e-05	0	44	0	727711744	23	4925
2026-01-16 09:36:17.76	35.01	45.98	-31.2	-34.2	12.6	7.09e-05	0	43	0	729808896	23	5099
2026-01-16 09:36:18.76	34.50	45.85	-31.1	-34.1	12.6	1.01e-04	0	44	0	731906048	23	5057
2026-01-16 09:36:19.77	34.00	45.71	-31.0	-33.8	12.9	6.25e-05	0	44	0	734003200	23	4933
2026-01-16 09:36:20.76	33.51	45.58	-31.1	-34.0	12.8	5.11e-05	0	44	0	735051776	23	5016
2026-01-16 09:36:21.76	33.02	45.44	-31.0	-33.8	12.9	6.48e-05	0	44	0	737148928	23	4947
2026-01-16 09:36:22.76	32.53	45.30	-31.0	-33.7	12.9	5.72e-05	0	44	0	739246080	23	4916
2026-01-16 09:36:23.76	32.05	45.16	-31.1	-33.9	12.8	6.48e-05	0	44	0	741343232	23	4999
2026-01-16 09:36:24.76	31.57	45.02	-30.9	-33.6	13.0	6.10e-05	0	43	0	743440384	23	4863
2026-01-16 09:36:25.77	31.09	44.87	-30.6	-33.1	13.7	1.67e-05	0	43	0	744488960	22	4801
2026-01-16 09:36:26.77	30.62	44.72	-30.4	-32.5	14.0	3.80e-06	0	44	0	746586112	22	4597
2026-01-16 09:36:27.78	30.15	44.57	-30.2	-32.6	14.3	2.20e-06	0	43	0	748683264	21	4750
2026-01-16 09:36:28.78	29.69	44.42	-30.3	-32.7	14.2	1.50e-06	0	44	0	750780416	21	4769
2026-01-16 09:36:29.78	29.23	44.27	-30.3	-32.9	14.1	3.00e-06	0	44	0	751828992	21	4819
2026-01-16 09:36:30.78	28.78	44.12	-30.5	-33.4	13.8	4.50e-06	0	43	0	753926144	21	5022
2026-01-16 09:36:31.78	28.33	43.97	-30.5	-33.3	13.8	3.80e-06	0	43	0	756023296	21	4975
2026-01-16 09:36:32.78	27.89	43.81	-30.4	-33.0	14.0	5.30e-06	0	43	0	758120448	21	4887
2026-01-16 09:36:33.78	27.45	43.66	-30.2	-32.7	14.2	1.50e-06	0	43	0	760217600	21	4762
2026-01-16 09:36:34.78	27.01	43.50	-30.2	-32.6	14.2	0.00e+00	0	44	0	761266176	21	4745
2026-01-16 09:36:35.78	26.58	43.34	-30.4	-33.0	14.1	3.00e-06	0	44	0	763363328	21	4861
2026-01-16 09:36:36.79	26.15	43.18	-30.6	-33.6	13.7	3.80e-06	0	44	0	765460480	21	5092
2026-01-16 09:36:37.79	25.73	43.02	-30.6	-33.7	13.6	4.50e-06	0	43	0	767557632	21	5122
2026-01-16 09:36:38.78	25.31	42.86	-30.6	-33.5	13.6	9.10e-06	0	43	0	769654784	21	5061
2026-01-16 09:36:39.78	24.90	42.69	-30.6	-33.8	13.5	9.90e-06	0	43	0	770703360	21	5156
2026-01-16 09:36:40.79	24.49	42.53	-30.6	-33.7	13.6	1.22e-05	0	43	0	772800512	21	5117
2026-01-16 09:36:41.79	24.08	42.36	-30.6	-33.6	13.5	1.06e-05	0	44	0	774897664	21	5115
2026-01-16 09:36:42.79	23.68	42.20	-30.5	-33.3	13.7	6.10e-06	0	44	0	776994816	21	4998
2026-01-16 09:36:43.79	23.29	42.03	-30.3	-32.9	14.0	4.50e-06	0	44	0	778043392	21	4833
2026-01-16 09:36:44.79	22.89	41.86	-30.2	-32.5	14.3	2.20e-06	0	44	0	780140544	21	4690
2026-01-16 09:36:45.79	22.50	41.69	-30.2	-32.7	14.2	1.50e-06	0	44	0	782237696	21	4767
2026-01-16 09:36:46.80	22.12	41.52	-30.1	-32.4	14.3	2.20e-06	0	44	0	784334848	21	4680
2026-01-16 09:36:47.80	21.74	41.35	-30.4	-33.1	14.0	2.20e-06	0	44	0	786432000	21	4894
2026-01-16 09:36:48.80	21.36	41.18	-30.5	-33.4	13.7	9.90e-06	0	44	0	787480576	21	5036
2026-01-16 09:36:49.80	20.99	41.01	-30.6	-33.7	13.5	1.06e-05	0	43	0	789577728	21	5137
2026-01-16 09:36:50.80	20.62	40.84	-30.5	-33.5	13.6	9.90e-06	0	44	0	791674880	21	5056
2026-01-16 09:36:51.81	20.25	40.67	-30.6	-33.7	13.5	4.50e-06	0	43	0	793772032	21	5111
2026-01-16 09:36:52.81	19.89	40.50	-30.6	-33.7	13.6	7.60e-06	0	43	0	795869184	21	5119
2026-01-16 09:36:53.80	19.54	40.32	-30.9	-34.5	13.0	1.98e-05	0	44	0	796917760	21	5457
2026-01-16 09:36:54.81	19.18	40.15	-30.9	-33.9	13.0	7.17e-05	0	44	0	799014912	22	5092
2026-01-16 09:36:55.81	18.83	39.98	-31.0	-34.2	12.9	3.20e-05	0	44	0	801112064	22	5233
2026-01-16 09:36:56.80	18.49	39.80	-31.2	-34.9	12.4	1.12e-04	0	44	0	803209216	22	5505
2026-01-16 09:36:57.81	18.14	39.63	-31.2	-34.9	12.4	1.39e-04	0	44	0	805306368	22	5518
2026-01-16 09:36:58.81	17.81	39.45	-31.3	-35.3	12.2	1.87e-04	0	43	0	806354944	22	5681
2026-01-16 09:36:59.82	17.47	39.28	-31.3	-35.3	12.0	3.55e-04	0	43	0	808452096	22	5691
2026-01-16 09:37:00.82	17.14	39.10	-31.5	-35.3	11.7	3.63e-04	0	43	0	810549248	23	5575
2026-01-16 09:37:01.82	16.81	38.93	-31.6	-35.5	11.5	8.20e-04	0	44	0	812646400	23	5678
2026-01-16 09:37:02.83	16.48	38.75	-31.6	-35.5	11.5	8.51e-04	0	44	0	814743552	23	5648
2026-01-16 09:37:03.83	16.16	38.57	-31.6	-35.7	11.4	7.25e-04	0	43	0	815792128	23	5749
2026-01-16 09:37:04.83	15.85	38.40	-31.4	-35.1	11.8	6.30e-04	0	43	0	817889280	23	5476
2026-01-16 09:37:05.84	15.53	38.22	-31.4	-34.9	11.9	3.42e-04	0	43	0	819986432	23	5419
2026-01-16 09:37:06.84	15.22	38.05	-31.6	-35.6	11.5	5.29e-04	0	44	0	822083584	23	5720
2026-01-16 09:37:07.85	14.91	37.87	-31.7	-35.8	11.3	1.00e-03	0	44	0	823132160	23	5813
2026-01-16 09:37:08.85	14.61	37.69	-31.7	-35.9	11.2	1.20e-03	0	44	0	825229312	23	5825
2026-01-16 09:37:09.85	14.31	37.52	-31.7	-36.0	11.1	1.34e-03	0	44	0	827326464	23	5905
2026-01-16 09:37:10.86	14.01	37.34	-31.9	-36.6	10.7	2.46e-03	0	44	0	829423616	23	6172
2026-01-16 09:37:11.86	13.72	37.16	-31.9	-36.5	10.8	2.82e-03	0	43	0	831520768	23	6153
2026-01-16 09:37:12.86	13.43	36.99	-31.9	-36.5	10.8	2.71e-03	0	44	0	833617920	23	6150
2026-01-16 09:37:13.87	13.14	36.81	-31.8	-36.4	10.8	2.29e-03	0	44	0	834666496	23	6087
2026-01-16 09:37:14.86	12.86	36.64	-32.0	-36.4	10.5	2.90e-03	0	44	0	836763648	24	5989
2026-01-16 09:37:15.87	12.57	36.46	-32.0	-36.6	10.3	4.47e-03	0	43	0	838860800	24	6077
2026-01-16 09:37:16.87	12.29	36.29	-32.0	-36.5	10.3	5.50e-03	0	43	0	840957952	24	6053
2026-01-16 09:37:17.88	12.02	36.11	-32.0	-36.4	10.4	5.15e-03	0	43	0	842006528	24	5996
2026-01-16 09:37:18.88	11.75	35.94	-32.0	-36.7	10.2	5.62e-03	0	44	0	844103680	24	6132
2026-01-16 09:37:19.88	11.48	35.76	-31.8	-35.9	10.8	3.67e-03	0	43	0	846200832	24	5743
2026-01-16 09:37:20.89	11.21	35.59	-32.0	-36.3	10.5	2.57e-03	0	43	0	848297984	24	5946
2026-01-16 09:37:21.89	10.95	35.41	-31.8	-35.8	10.9	3.44e-03	0	43	0	850395136	24	5691
2026-01-16 09:37:22.90	10.68	35.24	-31.8	-35.7	11.0	1.91e-03	0	44	0	851443712	24	5638
2026-01-16 09:37:23.90	10.43	35.06	-31.8	-35.8	10.9	2.06e-03	0	43	0	853540864	24	5709
2026-01-16 09:37:24.90	10.17	34.89	-31.9	-36.3	10.5	3.96e-03	0	44	0	855638016	24	5961
2026-01-16 09:37:25.91	9.92	34.72	-32.0	-36.5	10.3	4.42e-03	0	44	0	857735168	24	6018
2026-01-16 09:37:26.90	9.67	34.54	-32.2	-37.0	9.9	7.55e-03	0	44	0	859832320	24	6312
2026-01-16 09:37:27.90	9.42	34.37	-31.8	-35.9	10.8	5.50e-03	0	43	0	860880896	24	5758
2026-01-16 09:37:28.91	9.18	34.20	-31.6	-35.0	11.4	1.11e-03	0	43	0	862978048	24	5361
2026-01-16 09:37:29.91	8.94	34.03	-31.4	-34.4	11.8	5.03e-04	0	43	0	865075200	24	5129
2026-01-16 09:37:30.91	8.70	33.86	-31.4	-34.5	11.8	3.83e-04	0	43	0	867172352	24	5169
2026-01-16 09:37:31.92	8.46	33.68	-31.4	-34.6	11.7	5.26e-04	0	43	0	869269504	24	5179
2026-01-16 09:37:32.92	8.22	33.51	-31.5	-34.9	11.5	7.83e-04	0	44	0	870318080	24	5309
2026-01-16 09:37:33.91	8.00	33.35	-31.4	-34.4	11.8	4.98e-04	0	43	0	872415232	24	5117
2026-01-16 09:37:34.91	7.77	33.18	-31.4	-34.5	11.8	3.94e-04	0	44	0	874512384	24	5147
2026-01-16 09:37:35.92	7.54	33.01	-31.3	-34.2	12.0	3.35e-04	0	43	0	876609536	24	5032
2026-01-16 09:37:36.92	7.31	32.84	-31.3	-34.7	12.0	3.33e-04	0	43	0	878706688	23	5335
2026-01-16 09:37:37.93	7.09	32.67	-31.2	-34.4	12.2	2.78e-04	0	44	0	879755264	23	5209
2026-01-16 09:37:38.93	6.87	32.50	-31.3	-34.7	12.0	1.90e-04	0	44	0	881852416	23	5326
2026-01-16 09:37:39.93	6.65	32.33	-31.3	-34.9	11.9	3.71e-04	0	44	0	883949568	23	5405
2026-01-16 09:37:40.94	6.44	32.17	-31.4	-35.0	11.7	5.19e-04	0	43	0	886046720	23	5449
2026-01-16 09:37:41.94	6.22	32.00	-31.4	-35.2	11.6	5.30e-04	0	44	0	887095296	23	5551
2026-01-16 09:37:42.95	6.01	31.83	-31.7	-35.9	11.1	1.03e-03	0	43	0	889192448	23	5857
2026-01-16 09:37:43.94	5.81	31.67	-31.6	-35.8	11.1	1.61e-03	0	43	0	891289600	23	5814
2026-01-16 09:37:44.94	5.60	31.50	-31.7	-36.0	11.0	1.50e-03	0	44	0	893386752	23	5932
2026-01-16 09:37:45.94	5.40	31.34	-31.8	-36.3	10.8	2.28e-03	0	44	0	895483904	23	6061
2026-01-16 09:37:46.94	5.19	31.18	-31.6	-35.7	11.2	1.56e-03	0	43	0	896532480	23	5772
2026-01-16 09:37:47.93	5.00	31.01	-31.5	-35.4	11.5	9.46e-04	0	44	0	898629632	23	5622
2026-01-16 09:37:48.94	4.80	30.85	-31.4	-35.2	11.6	6.79e-04	0	43	0	900726784	23	5562
2026-01-16 09:37:49.93	4.60	30.69	-31.6	-35.7	11.2	1.11e-03	0	43	0	902823936	23	5761
2026-01-16 09:37:50.94	4.41	30.53	-31.6	-35.8	11.2	1.43e-03	0	43	0	904921088	23	5810
2026-01-16 09:37:51.94	4.22	30.37	-31.7	-36.1	11.0	1.65e-03	0	43	0	905969664	23	5948
2026-01-16 09:37:52.94	4.03	30.21	-31.6	-35.8	11.2	1.62e-03	0	44	0	908066816	23	5826
2026-01-16 09:37:53.95	3.84	30.04	-31.5	-35.4	11.4	1.03e-03	0	44	0	910163968	23	5646
2026-01-16 09:37:54.94	3.65	29.89	-31.3	-34.9	11.8	6.75e-04	0	43	0	912261120	23	5419
2026-01-16 09:37:55.95	3.47	29.73	-31.4	-35.0	11.8	4.73e-04	0	44	0	914358272	23	5460
2026-01-16 09:37:56.95	3.28	29.57	-31.3	-34.9	11.7	5.59e-04	0	43	0	915406848	23	5444
2026-01-16 09:37:57.94	3.10	29.41	-31.4	-35.2	11.5	6.49e-04	0	43	0	917504000	23	5577
2026-01-16 09:37:58.94	2.93	29.25	-31.4	-35.0	11.7	7.71e-04	0	43	0	919601152	23	5483
2026-01-16 09:37:59.94	2.75	29.10	-31.4	-35.0	11.7	5.10e-04	0	43	0	921698304	23	5471
2026-01-16 09:38:00.92	2.58	28.94	-31.3	-34.7	11.9	4.54e-04	0	44	0	922746880	23	5356
2026-01-16 09:38:01.92	2.40	28.79	-31.3	-34.7	11.9	4.09e-04	0	43	0	924844032	23	5347
2026-01-16 09:38:02.92	2.23	28.63	-31.0	-34.0	12.4	3.29e-04	0	44	0	926941184	23	5084
2026-01-16 09:38:03.91	2.06	28.48	-31.0	-34.0	12.4	1.23e-04	0	43	0	929038336	23	5063
2026-01-16 09:38:04.92	1.89	28.33	-31.0	-34.1	12.4	1.63e-04	0	43	0	931135488	23	5095
2026-01-16 09:38:05.92	1.73	28.17	-31.1	-34.1	12.3	1.86e-04	0	44	0	932184064	23	5104
2026-01-16 09:38:06.93	1.56	28.02	-31.2	-34.6	11.9	3.49e-04	0	43	0	934281216	23	5306
2026-01-16 09:38:07.93	1.40	27.87	-31.0	-34.1	12.3	2.25e-04	0	43	0	936378368	23	5102
2026-01-16 09:38:08.94	1.23	27.71	-30.9	-33.7	12.6	1.22e-04	0	43	0	938475520	23	4943
2026-01-16 09:38:09.93	1.07	27.56	-30.8	-33.8	12.8	8.23e-05	0	43	0	940572672	22	5103
2026-01-16 09:38:10.94	0.91	27.41	-30.8	-33.9	12.7	6.48e-05	0	44	0	941621248	22	5123
2026-01-16 09:38:11.95	0.75	27.26	-30.7	-33.6	13.0	4.11e-05	0	44	0	943718400	22	5014
2026-01-16 09:38:12.95	0.60	27.11	-30.9	-34.1	12.6	5.41e-05	0	43	0	945815552	22	5220
2026-01-16 09:38:13.94	0.45	26.96	-30.8	-33.8	12.8	7.09e-05	0	43	0	947912704	22	5118
2026-01-16 09:38:14.95	0.29	26.81	-30.8	-33.7	12.9	4.80e-05	0	44	0	948961280	22	5071
2026-01-16 09:38:15.96	0.14	26.67	-30.7	-33.5	13.0	5.26e-05	0	44	0	951058432	22	4991
2026-01-16 09:38:16.96	359.99	26.52	-30.8	-33.8	12.8	4.19e-05	0	44	0	953155584	22	5100
2026-01-16 09:38:17.96	359.84	26.37	-30.7	-33.5	13.0	4.50e-05	0	44	0	955252736	22	4980
2026-01-16 09:38:18.97	359.69	26.23	-30.7	-33.5	13.0	5.18e-05	0	43	0	957349888	22	4993
2026-01-16 09:38:19.97	359.54	26.08	-30.9	-34.1	12.6	4.27e-05	0	43	0	959447040	22	5224
2026-01-16 09:38:20.97	359.40	25.94	-30.7	-33.6	12.9	6.02e-05	0	43	0	960495616	22	5031
2026-01-16 09:38:21.97	359.26	25.79	-30.6	-33.3	13.1	3.28e-05	0	43	0	962592768	22	4922
2026-01-16 09:38:22.97	359.11	25.65	-30.5	-33.2	13.2	2.51e-05	0	43	0	964689920	22	4873
2026-01-16 09:38:23.96	358.98	25.51	-30.5	-33.1	13.2	1.98e-05	0	43	0	966787072	22	4855
2026-01-16 09:38:24.97	358.84	25.36	-30.4	-32.7	13.5	1.29e-05	0	44	0	967835648	22	4699
2026-01-16 09:38:25.97	358.70	25.22	-30.3	-32.5	13.6	1.22e-05	0	44	0	969932800	22	4644
2026-01-16 09:38:26.97	358.56	25.08	-30.2	-32.9	13.6	6.80e-06	0	44	0	972029952	21	4873
2026-01-16 09:38:27.98	358.42	24.94	-30.2	-32.8	13.6	4.50e-06	0	43	0	974127104	21	4853
2026-01-16 09:38:28.99	358.29	24.80	-30.3	-33.0	13.6	6.80e-06	0	43	0	976224256	21	4909
2026-01-16 09:38:29.99	358.15	24.66	-30.2	-32.9	13.6	6.10e-06	0	43	0	977272832	21	4890
2026-01-16 09:38:30.99	358.02	24.52	-30.3	-33.1	13.4	1.14e-05	0	44	0	979369984	21	4977
2026-01-16 09:38:32.00	357.89	24.38	-30.5	-33.7	13.1	2.28e-05	0	44	0	981467136	21	5197
2026-01-16 09:38:33.00	357.76	24.24	-30.6	-34.0	12.9	2.67e-05	0	44	0	983564288	21	5295
2026-01-16 09:38:34.00	357.63	24.11	-30.7	-34.3	12.7	6.71e-05	0	44	0	985661440	21	5413
2026-01-16 09:38:35.00	357.51	23.97	-30.7	-34.2	12.7	1.04e-04	0	43	0	986710016	21	5393
2026-01-16 09:38:35.99	357.38	23.83	-30.7	-34.3	12.7	8.85e-05	0	43	0	988807168	21	5427
2026-01-16 09:38:36.99	357.26	23.70	-30.8	-34.4	12.6	1.04e-04	0	43	0	990904320	21	5473
2026-01-16 09:38:38.00	357.13	23.56	-30.6	-33.8	12.9	6.17e-05	0	43	0	993001472	21	5245
2026-01-16 09:38:38.99	357.01	23.43	-30.5	-33.7	13.1	2.97e-05	0	44	0	994050048	21	5176
2026-01-16 09:38:39.99	356.89	23.30	-30.5	-33.5	13.2	2.13e-05	0	43	0	996147200	21	5126
2026-01-16 09:38:40.99	356.77	23.16	-30.5	-33.6	13.1	1.52e-05	0	43	0	998244352	21	5142
2026-01-16 09:38:42.00	356.65	23.03	-30.3	-33.2	13.4	1.44e-05	0	44	0	1000341504	21	4992
2026-01-16 09:38:43.00	356.53	22.90	-30.3	-33.0	13.5	1.06e-05	0	44	0	1002438656	21	4919
2026-01-16 09:38:44.00	356.41	22.76	-30.3	-33.0	13.5	1.14e-05	0	43	0	1003487232	21	4915
2026-01-16 09:38:45.00	356.29	22.63	-30.4	-33.2	13.3	2.21e-05	0	43	0	1005584384	21	4994
2026-01-16 09:38:46.00	356.18	22.50	-30.4	-33.2	13.3	2.28e-05	0	43	0	1007681536	21	5017
2026-01-16 09:38:47.00	356.07	22.37	-30.4	-33.4	13.1	2.05e-05	0	44	0	1009778688	21	5085
2026-01-16 09:38:48.00	355.95	22.24	-30.4	-33.4	13.2	3.43e-05	0	44	0	1011875840	21	5072
2026-01-16 09:38:49.01	355.84	22.11	-30.5	-33.6	13.1	3.12e-05	0	44	0	1012924416	21	5149
2026-01-16 09:38:50.01	355.73	21.99	-30.5	-33.6	13.1	2.97e-05	0	44	0	1015021568	21	5143
2026-01-16 09:38:51.01	355.62	21.86	-30.5	-33.7	13.0	2.82e-05	0	44	0	1017118720	21	5191
2026-01-16 09:38:52.02	355.51	21.73	-30.4	-33.5	13.2	2.51e-05	0	43	0	1019215872	21	5113
2026-01-16 09:38:53.02	355.40	21.60	-30.5	-33.7	13.0	3.43e-05	0	44	0	1021313024	21	5209
2026-01-16 09:38:54.02	355.29	21.48	-30.4	-33.3	13.3	3.35e-05	0	43	0	1022361600	21	5044
2026-01-16 09:38:55.02	355.18	21.35	-30.3	-33.1	13.4	1.29e-05	0	43	0	1024458752	21	4976
2026-01-16 09:38:56.02	355.08	21.22	-30.2	-32.9	13.5	9.10e-06	0	43	0	1026555904	21	4905
2026-01-16 09:38:57.03	354.97	21.10	-30.2	-32.8	13.6	7.60e-06	0	43	0	1028653056	21	4880
2026-01-16 09:38:58.04	354.86	20.97	-30.2	-33.0	13.5	7.60e-06	0	43	0	1030750208	21	4932
2026-01-16 09:38:59.04	354.76	20.85	-30.2	-32.9	13.5	9.10e-06	0	43	0	1031798784	21	4908
2026-01-16 09:39:00.04	354.66	20.73	-30.2	-32.9	13.5	7.60e-06	0	43	0	1033895936	21	4912
2026-01-16 09:39:01.05	354.56	20.60	-30.2	-32.9	13.5	1.60e-05	0	44	0	1035993088	21	4885
2026-01-16 09:39:02.05	354.46	20.48	-30.4	-33.3	13.2	1.75e-05	0	43	0	1038090240	21	5032
2026-01-16 09:39:03.05	354.36	20.36	-30.3	-33.1	13.3	1.83e-05	0	43	0	1039138816	21	4981
2026-01-16 09:39:04.05	354.26	20.24	-30.4	-33.5	13.1	1.90e-05	0	44	0	1041235968	21	5114
2026-01-16 09:39:05.05	354.16	20.12	-30.4	-33.4	13.1	3.28e-05	0	43	0	1043333120	21	5106
2026-01-16 09:39:06.05	354.06	20.00	-30.5	-33.8	12.8	5.18e-05	0	44	0	1045430272	21	5234
2026-01-16 09:39:07.06	353.96	19.88	-30.5	-33.8	12.8	3.81e-05	0	44	0	1047527424	21	5231
2026-01-16 09:39:08.06	353.87	19.76	-30.5	-33.8	12.7	7.55e-05	0	43	0	1049624576	21	5249
2026-01-16 09:39:09.06	353.77	19.64	-30.5	-33.9	12.7	7.09e-05	0	43	0	1050673152	21	5272
2026-01-16 09:39:10.06	353.68	19.52	-30.5	-33.8	12.7	6.10e-05	0	44	0	1052770304	21	5255
2026-01-16 09:39:11.06	353.58	19.40	-30.6	-34.0	12.6	7.32e-05	0	43	0	1054867456	21	5339
2026-01-16 09:39:12.06	353.49	19.28	-30.6	-34.0	12.7	8.92e-05	0	44	0	1056964608	21	5317
2026-01-16 09:39:13.07	353.40	19.17	-30.6	-34.1	12.7	7.70e-05	0	44	0	1058013184	21	5360
2026-01-16 09:39:14.07	353.31	19.05	-30.7	-34.4	12.4	9.38e-05	0	43	0	1060110336	21	5477
2026-01-16 09:39:15.07	353.21	18.93	-30.6	-34.0	12.7	1.12e-04	0	43	0	1062207488	21	5343
2026-01-16 09:39:16.08	353.12	18.82	-30.5	-33.8	12.8	7.70e-05	0	43	0	1064304640	21	5269
2026-01-16 09:39:17.08	353.03	18.70	-30.7	-34.2	12.5	8.23e-05	0	44	0	1066401792	21	5415
2026-01-16 09:39:18.09	352.94	18.59	-30.5	-33.7	12.8	8.69e-05	0	43	0	1067450368	21	5211
2026-01-16 09:39:19.09	352.86	18.47	-30.4	-33.6	12.9	3.43e-05	0	43	0	1069547520	21	5165
2026-01-16 09:39:20.09	352.77	18.36	-30.4	-33.5	12.9	3.66e-05	0	43	0	1071644672	21	5139
2026-01-16 09:39:21.09	352.68	18.25	-30.4	-33.5	13.0	5.26e-05	0	44	0	1073741824	21	5142
2026-01-16 09:39:22.09	352.60	18.13	-30.3	-33.2	13.2	2.59e-05	0	43	0	1075838976	21	5012
2026-01-16 09:39:23.09	352.51	18.02	-30.3	-33.2	13.2	2.13e-05	0	44	0	1076887552	21	5018
2026-01-16 09:39:24.09	352.43	17.91	-30.4	-33.5	13.0	2.82e-05	0	43	0	1078984704	21	5130
2026-01-16 09:39:25.09	352.34	17.80	-30.2	-33.1	13.2	3.43e-05	0	43	0	1081081856	21	4979
2026-01-16 09:39:26.09	352.26	17.69	-30.3	-33.1	13.2	2.13e-05	0	44	0	1083179008	21	4988
2026-01-16 09:39:27.09	352.18	17.58	-30.2	-33.1	13.2	2.59e-05	0	44	0	1084227584	21	4979
2026-01-16 09:39:28.10	352.09	17.47	-30.3	-33.1	13.2	1.98e-05	0	44	0	1086324736	21	5007
2026-01-16 09:39:29.10	352.01	17.36	-30.2	-33.0	13.3	1.67e-05	0	43	0	1088421888	21	4972
2026-01-16 09:39:30.10	351.93	17.25	-30.3	-33.2	13.1	2.36e-05	0	43	0	1090519040	21	5046
2026-01-16 09:39:31.10	351.85	17.14	-30.4	-33.5	12.9	3.89e-05	0	44	0	1092616192	21	5140
2026-01-16 09:39:32.10	351.77	17.03	-30.4	-33.4	12.9	4.73e-05	0	43	0	1093664768	21	5102
2026-01-16 09:39:33.10	351.69	16.92	-30.4	-33.6	12.8	5.64e-05	0	44	0	1095761920	21	5179
2026-01-16 09:39:34.12	351.61	16.81	-30.5	-33.7	12.7	5.79e-05	0	44	0	1097859072	21	5224
2026-01-16 09:39:35.12	351.54	16.71	-30.6	-34.2	12.4	6.71e-05	0	43	0	1099956224	21	5447
2026-01-16 09:39:36.12	351.46	16.60	-30.6	-34.0	12.6	1.16e-04	0	44	0	1102053376	21	5363
2026-01-16 09:39:37.11	351.38	16.49	-30.6	-34.2	12.4	1.20e-04	0	44	0	1103101952	21	5431
2026-01-16 09:39:38.11	351.31	16.39	-30.6	-34.1	12.5	1.36e-04	0	44	0	1105199104	21	5392
2026-01-16 09:39:39.11	351.23	16.28	-30.6	-34.2	12.4	1.16e-04	0	44	0	1107296256	21	5452
2026-01-16 09:39:40.11	351.16	16.18	-30.6	-34.2	12.4	1.59e-04	0	44	0	1109393408	21	5432
2026-01-16 09:39:41.11	351.08	16.07	-30.6	-34.1	12.4	1.80e-04	0	44	0	1111490560	21	5399
2026-01-16 09:39:42.11	351.01	15.97	-30.7	-34.5	12.2	1.85e-04	0	44	0	1112539136	21	5538
2026-01-16 09:39:43.11	350.93	15.86	-30.7	-34.5	12.2	2.33e-04	0	43	0	1114636288	21	5562
2026-01-16 09:39:44.11	350.86	15.76	-30.7	-34.5	12.2	2.24e-04	0	43	0	1116733440	21	5567
2026-01-16 09:39:45.11	350.79	15.66	-30.9	-34.9	11.9	3.30e-04	0	43	0	1118830592	21	5755
2026-01-16 09:39:46.12	350.72	15.55	-30.7	-34.5	12.1	2.72e-04	0	44	0	1120927744	21	5561
2026-01-16 09:39:47.12	350.65	15.45	-30.7	-34.6	12.1	2.20e-04	0	44	0	1121976320	21	5582
2026-01-16 09:39:48.12	350.57	15.35	-30.8	-34.6	12.1	2.66e-04	0	44	0	1124073472	21	5617
2026-01-16 09:39:49.13	350.50	15.25	-30.7	-34.4	12.2	2.25e-04	0	44	0	1126170624	21	5506
2026-01-16 09:39:50.13	350.43	15.15	-30.8	-34.7	12.0	3.23e-04	0	44	0	1128267776	21	5661
2026-01-16 09:39:51.13	350.36	15.05	-30.7	-34.4	12.1	2.57e-04	0	44	0	1129316352	21	5540
2026-01-16 09:39:52.14	350.30	14.94	-30.7	-34.5	12.1	2.23e-04	0	43	0	1131413504	21	5574
2026-01-16 09:39:53.15	350.23	14.84	-30.7	-34.5	12.1	2.42e-04	0	44	0	1133510656	21	5584
2026-01-16 09:39:54.15	350.16	14.74	-30.8	-34.6	12.0	3.98e-04	0	44	0	1135607808	21	5632
2026-01-16 09:39:55.15	350.09	14.64	-30.7	-34.6	12.0	3.20e-04	0	44	0	1137704960	21	5612
2026-01-16 09:39:56.14	350.03	14.55	-30.8	-34.8	11.9	3.16e-04	0	44	0	1138753536	21	5708
2026-01-16 09:39:57.14	349.96	14.45	-30.8	-34.9	11.8	4.41e-04	0	44	0	1140850688	21	5746
2026-01-16 09:39:58.14	349.89	14.35	-30.8	-34.7	12.0	4.26e-04	0	43	0	1142947840	21	5658
2026-01-16 09:39:59.15	349.83	14.25	-30.8	-34.9	11.9	3.65e-04	0	43	0	1145044992	21	5729
2026-01-16 09:40:00.15	349.76	14.15	-30.8	-34.9	11.7	5.39e-04	0	44	0	1147142144	21	5754
2026-01-16 09:40:01.15	349.70	14.06	-30.8	-34.8	11.8	3.84e-04	0	44	0	1148190720	21	5698
2026-01-16 09:40:02.15	349.63	13.96	-30.9	-35.2	11.5	6.24e-04	0	44	0	1150287872	21	5886
2026-01-16 09:40:03.15	349.57	13.86	-30.8	-34.8	11.8	6.55e-04	0	44	0	1152385024	21	5710
2026-01-16 09:40:04.15	349.51	13.77	-30.8	-34.7	11.9	3.95e-04	0	44	0	1154482176	21	5675
2026-01-16 09:40:05.16	349.44	13.67	-30.8	-34.8	11.8	4.84e-04	0	44	0	1156579328	21	5720
2026-01-16 09:40:06.16	349.38	13.57	-30.7	-34.6	11.9	4.42e-04	0	44	0	1157627904	21	5648
2026-01-16 09:40:07.17	349.32	13.48	-30.8	-34.8	11.8	5.89e-04	0	43	0	1159725056	21	5693
2026-01-16 09:40:08.17	349.26	13.38	-30.7	-34.6	11.9	3.41e-04	0	43	0	1161822208	21	5610
2026-01-16 09:40:09.16	349.20	13.29	-30.8	-34.7	11.8	5.00e-04	0	43	0	1163919360	21	5671
2026-01-16 09:40:10.16	349.14	13.20	-30.7	-34.5	12.0	3.68e-04	0	44	0	1166016512	21	5563
2026-01-16 09:40:11.16	349.08	13.10	-30.7	-34.5	12.0	2.91e-04	0	43	0	1167065088	21	5603
2026-01-16 09:40:12.16	349.02	13.01	-30.7	-34.7	11.8	5.25e-04	0	44	0	1169162240	21	5669
2026-01-16 09:40:13.16	348.96	12.92	-30.7	-34.4	12.0	4.00e-04	0	44	0	1171259392	21	5554
2026-01-16 09:40:14.16	348.90	12.82	-30.6	-34.3	12.1	2.68e-04	0	44	0	1173356544	21	5496
2026-01-16 09:40:15.16	348.84	12.73	-30.6	-34.2	12.1	2.68e-04	0	44	0	1174405120	21	5450
2026-01-16 09:40:16.16	348.78	12.64	-30.8	-34.8	11.7	3.98e-04	0	43	0	1176502272	21	5703
2026-01-16 09:40:17.16	348.72	12.55	-30.6	-34.2	12.1	3.22e-04	0	43	0	1178599424	21	5478
2026-01-16 09:40:18.16	348.66	12.46	-30.6	-34.3	12.0	2.49e-04	0	43	0	1180696576	21	5519
2026-01-16 09:40:19.17	348.61	12.36	-30.7	-34.4	11.9	3.07e-04	0	43	0	1182793728	21	5572
2026-01-16 09:40:20.18	348.55	12.27	-30.6	-34.2	12.0	3.02e-04	0	43	0	1183842304	21	5476
2026-01-16 09:40:21.18	348.49	12.18	-30.7	-34.6	11.8	4.08e-04	0	44	0	1185939456	21	5636
2026-01-16 09:40:22.18	348.44	12.09	-30.6	-34.2	12.0	2.88e-04	0	43	0	1188036608	21	5491
2026-01-16 09:40:23.19	348.38	12.00	-30.6	-34.4	12.0	3.25e-04	0	43	0	1190133760	21	5540
2026-01-16 09:40:24.19	348.33	11.91	-30.7	-34.6	11.7	4.99e-04	0	44	0	1192230912	21	5642
2026-01-16 09:40:25.19	348.27	11.82	-30.8	-34.8	11.6	4.42e-04	0	43	0	1193279488	21	5759
2026-01-16 09:40:26.19	348.22	11.73	-30.8	-35.1	11.4	9.65e-04	0	43	0	1195376640	21	5851
2026-01-16 09:40:27.19	348.16	11.64	-30.9	-35.2	11.4	8.70e-04	0	44	0	1197473792	21	5914
2026-01-16 09:40:28.19	348.11	11.55	-30.9	-35.1	11.4	1.08e-03	0	43	0	1199570944	21	5894
2026-01-16 09:40:29.20	348.05	11.47	-31.0	-35.2	11.0	1.01e-03	0	43	0	1201668096	22	5801
2026-01-16 09:40:30.20	348.00	11.38	-30.9	-34.9	11.2	1.31e-03	0	43	0	1202716672	22	5676
2026-01-16 09:40:31.21	347.95	11.29	-31.1	-35.4	10.8	2.41e-03	0	43	0	1204813824	22	5929
2026-01-16 09:40:32.21	347.90	11.20	-30.9	-34.9	11.2	2.14e-03	0	44	0	1206910976	22	5676
2026-01-16 09:40:33.21	347.84	11.11	-30.9	-34.7	11.3	1.06e-03	0	43	0	1209008128	22	5598
2026-01-16 09:40:34.21	347.79	11.03	-30.8	-34.6	11.4	1.03e-03	0	44	0	1211105280	22	5543
2026-01-16 09:40:35.20	347.74	10.94	-30.9	-34.8	11.2	1.20e-03	0	44	0	1212153856	22	5633
2026-01-16 09:40:36.20	347.69	10.86	-31.0	-35.0	11.0	1.62e-03	0	43	0	1214251008	22	5747
2026-01-16 09:40:37.20	347.64	10.77	-30.9	-35.0	11.1	1.67e-03	0	43	0	1216348160	22	5717
2026-01-16 09:40:38.21	347.59	10.68	-31.0	-35.1	11.0	1.60e-03	0	44	0	1218445312	22	5797
2026-01-16 09:40:39.21	347.54	10.60	-31.0	-35.3	10.8	1.98e-03	0	43	0	1220542464	22	5882
2026-01-16 09:40:40.22	347.49	10.51	-31.0	-35.3	10.8	2.07e-03	0	43	0	1221591040	22	5888
2026-01-16 09:40:41.22	347.44	10.43	-31.2	-35.7	10.5	4.13e-03	0	43	0	1223688192	22	6084
2026-01-16 09:40:42.23	347.39	10.34	-31.0	-35.2	10.9	2.14e-03	0	44	0	1225785344	22	5845
2026-01-16 09:40:43.22	347.34	10.26	-31.0	-35.3	10.8	2.45e-03	0	44	0	1227882496	22	5871
2026-01-16 09:40:44.23	347.29	10.17	-31.0	-35.2	10.9	2.31e-03	0	44	0	1228931072	22	5828
2026-01-16 09:40:45.23	347.24	10.09	-31.1	-35.5	10.6	2.32e-03	0	44	0	1231028224	22	5986
2026-01-16 09:40:46.23	347.19	10.01	-31.3	-36.3	10.0	5.83e-03	0	44	0	1233125376	22	6411
2026-01-16 09:40:47.23	347.15	9.92	-31.0	-35.4	10.7	7.03e-03	0	43	0	1235222528	22	5927
2026-01-16 09:40:48.24	347.10	9.84	-31.0	-35.3	10.8	2.68e-03	0	43	0	1237319680	22	5907
2026-01-16 09:40:49.24	347.05	9.76	-30.9	-34.9	11.0	1.87e-03	0	44	0	1238368256	22	5723
2026-01-16 09:40:50.24	347.00	9.67	-30.8	-34.6	11.2	1.30e-03	0	44	0	1240465408	22	5574
2026-01-16 09:40:51.25	346.96	9.59	-30.9	-34.8	11.1	1.52e-03	0	44	0	1242562560	22	5662
2026-01-16 09:40:52.25	346.91	9.51	-30.8	-34.7	11.2	1.29e-03	0	43	0	1244659712	22	5601
2026-01-16 09:40:53.25	346.87	9.43	-30.8	-34.7	11.2	1.58e-03	0	44	0	1246756864	22	5630
2026-01-16 09:40:54.25	346.82	9.35	-30.9	-34.9	11.0	1.83e-03	0	43	0	1247805440	22	5709
2026-01-16 09:40:55.25	346.77	9.26	-30.9	-34.8	11.1	1.86e-03	0	43	0	1249902592	22	5685
2026-01-16 09:40:56.26	346.73	9.18	-30.9	-35.1	10.9	1.53e-03	0	44	0	1251999744	22	5817
2026-01-16 09:40:57.26	346.68	9.10	-31.0	-35.3	10.7	2.24e-03	0	44	0	1254096896	22	5911
2026-01-16 09:40:58.27	346.64	9.02	-31.0	-35.2	10.8	3.41e-03	0	44	0	1256194048	22	5845
2026-01-16 09:40:59.26	346.59	8.94	-31.0	-35.1	10.9	2.32e-03	0	43	0	1257242624	22	5807
2026-01-16 09:41:00.26	346.55	8.86	-31.1	-35.5	10.6	2.45e-03	0	43	0	1259339776	22	5973
2026-01-16 09:41:01.26	346.51	8.78	-31.0	-35.4	10.7	3.14e-03	0	44	0	1261436928	22	5928
2026-01-16 09:41:02.26	346.46	8.70	-31.1	-35.8	10.3	4.62e-03	0	44	0	1263534080	22	6140
2026-01-16 09:41:03.27	346.42	8.62	-31.1	-35.7	10.4	4.22e-03	0	44	0	1265631232	22	6089
2026-01-16 09:41:04.27	346.38	8.54	-31.1	-35.8	10.3	5.37e-03	0	44	0	1266679808	22	6155
2026-01-16 09:41:05.27	346.33	8.46	-31.2	-36.0	10.1	6.38e-03	0	44	0	1268776960	22	6255
2026-01-16 09:41:06.27	346.29	8.39	-31.2	-36.1	10.0	6.70e-03	0	44	0	1270874112	22	6336
2026-01-16 09:41:07.28	346.25	8.31	-31.3	-36.3	9.8	1.20e-02	0	44	0	1272971264	22	6441
2026-01-16 09:41:08.28	346.21	8.23	-31.3	-36.6	9.7	1.11e-02	0	44	0	1274019840	22	6582
2026-01-16 09:41:09.28	346.16	8.15	-31.3	-36.3	9.8	9.12e-03	0	44	0	1276116992	22	6434
2026-01-16 09:41:10.28	346.12	8.07	-31.2	-36.2	9.9	7.62e-03	0	44	0	1278214144	22	6364
2026-01-16 09:41:11.27	346.08	8.00	-31.3	-36.6	9.6	8.97e-03	0	44	0	1280311296	22	6573
2026-01-16 09:41:12.27	346.04	7.92	-31.3	-36.5	9.7	1.47e-02	0	43	0	1282408448	22	6523
2026-01-16 09:41:13.27	346.00	7.84	-31.3	-36.4	9.7	1.06e-02	0	44	0	1283457024	22	6513
