passes_logs/2026/01/16/R2M6_AANII_01/R2M6_AANII_01__20260116_033539_FENGYUN_3D_rec.log

#Pass ID: 20260116_033539_FENGYUN 3D
#Satellite: FENGYUN 3D
#Configuration: FENGYUN 3D
#almurnet v.1.7.20240730
#Start time: 2026-01-16 03:35:40

#Version: 2.2.20231116
#Station: R2M6_AANII_01
#Location: 30.233357 lon 59.946436 lat
#TLE: 1 43010U 17072A   26015.49690188 -.00000192  00000+0 -69217-4 0  9996
#TLE: 2 43010  98.9932 347.3205 0002350 106.2275 253.9159 14.19694721423329

#Time	Az	El	Level	Level2	SNR	BER	BlckErr	Temp	State	Recorded	gain1	gain2
2026-01-16 03:35:40.11	13.49	7.06	-31.3	-36.3	4.8	8.11e-01	0	41	0	0	22	6407
2026-01-16 03:35:41.10	13.44	7.13	-31.3	-36.3	4.8	8.11e-01	0	41	104	0	22	6408
2026-01-16 03:35:42.10	13.38	7.20	-31.1	-35.5	7.4	1.23e-01	0	41	0	0	22	5960
2026-01-16 03:35:43.10	13.33	7.27	-31.3	-36.0	7.1	1.15e-01	0	41	0	5242880	22	6198
2026-01-16 03:35:44.10	13.27	7.35	-31.4	-36.5	6.8	1.43e-01	0	41	0	10485760	22	6449
2026-01-16 03:35:45.10	13.21	7.42	-31.2	-35.8	7.2	1.26e-01	0	42	0	16777216	22	6118
2026-01-16 03:35:46.10	13.15	7.49	-31.2	-35.8	7.3	1.04e-01	0	41	0	22020096	22	6112
2026-01-16 03:35:47.09	13.09	7.57	-31.1	-35.4	7.6	9.07e-02	0	41	0	27262976	22	5907
2026-01-16 03:35:48.09	13.04	7.64	-31.0	-35.1	7.8	7.42e-02	0	42	0	33554432	22	5747
2026-01-16 03:35:49.09	12.98	7.71	-31.1	-35.2	7.8	6.46e-02	0	42	0	38797312	22	5785
2026-01-16 03:35:50.09	12.92	7.79	-31.1	-35.4	7.7	8.47e-02	0	42	0	44040192	22	5873
2026-01-16 03:35:51.09	12.86	7.86	-31.0	-35.0	8.0	6.31e-02	0	42	0	50331648	22	5690
2026-01-16 03:35:52.09	12.80	7.94	-30.7	-33.9	8.7	3.82e-02	0	42	0	55574528	22	5237
2026-01-16 03:35:53.09	12.74	8.01	-30.0	-32.5	10.0	1.08e-02	0	42	0	61865984	21	4806
2026-01-16 03:35:54.09	12.68	8.09	-29.5	-31.8	10.8	2.55e-03	0	42	0	67108864	20	4650
2026-01-16 03:35:55.09	12.62	8.16	-29.2	-31.3	11.5	7.43e-04	0	42	0	72351744	19	4599
2026-01-16 03:35:56.10	12.56	8.24	-28.7	-30.7	12.3	1.76e-04	0	42	0	78643200	18	4488
2026-01-16 03:35:57.09	12.50	8.31	-28.2	-29.8	13.1	4.00e-05	0	42	0	83886080	17	4339
2026-01-16 03:35:58.09	12.43	8.39	-27.9	-29.1	13.5	8.00e-06	0	42	0	89128960	17	4135
2026-01-16 03:35:59.09	12.37	8.46	-27.7	-29.3	13.7	6.80e-06	0	42	0	95420416	16	4297
2026-01-16 03:36:00.08	12.31	8.54	-27.9	-29.6	13.6	4.50e-06	0	42	0	100663296	16	4378
2026-01-16 03:36:01.08	12.25	8.61	-27.8	-29.6	13.6	1.10e-06	0	42	0	105906176	16	4381
2026-01-16 03:36:02.08	12.18	8.69	-27.7	-29.8	13.5	4.50e-06	0	42	0	112197632	15	4569
2026-01-16 03:36:03.08	12.12	8.77	-27.8	-29.9	13.5	5.70e-06	0	42	0	117440512	15	4612
2026-01-16 03:36:04.07	12.06	8.84	-27.7	-29.8	13.6	2.20e-06	0	42	0	123731968	15	4579
2026-01-16 03:36:05.07	11.99	8.92	-27.8	-30.1	13.4	1.71e-05	0	42	0	128974848	15	4657
2026-01-16 03:36:06.08	11.93	9.00	-27.7	-29.7	13.6	1.14e-05	0	42	0	134217728	15	4550
2026-01-16 03:36:07.09	11.86	9.07	-27.8	-30.1	13.4	8.00e-06	0	42	0	140509184	15	4656
2026-01-16 03:36:08.09	11.80	9.15	-27.5	-29.1	14.0	2.20e-06	0	42	0	145752064	15	4368
2026-01-16 03:36:09.09	11.73	9.23	-27.3	-28.9	14.2	0.00e+00	0	42	0	150994944	15	4292
2026-01-16 03:36:10.09	11.66	9.31	-27.3	-28.8	14.2	0.00e+00	0	42	0	157286400	15	4266
2026-01-16 03:36:11.09	11.60	9.38	-27.1	-28.4	14.5	0.00e+00	0	42	0	162529280	15	4165
2026-01-16 03:36:12.08	11.53	9.46	-27.3	-28.7	14.3	0.00e+00	0	42	0	167772160	15	4258
2026-01-16 03:36:13.08	11.47	9.54	-27.3	-28.9	14.2	1.10e-06	0	42	0	174063616	15	4290
2026-01-16 03:36:14.08	11.40	9.62	-27.5	-29.1	14.1	0.00e+00	0	42	0	179306496	15	4374
2026-01-16 03:36:15.09	11.33	9.70	-27.2	-28.6	14.4	1.10e-06	0	42	0	185597952	15	4215
2026-01-16 03:36:16.09	11.26	9.78	-27.0	-28.2	14.6	0.00e+00	0	42	0	190840832	15	4111
2026-01-16 03:36:17.08	11.19	9.86	-27.0	-28.2	14.6	0.00e+00	0	42	0	196083712	15	4104
2026-01-16 03:36:18.09	11.12	9.94	-27.0	-28.1	14.7	0.00e+00	0	42	0	202375168	15	4077
2026-01-16 03:36:19.08	11.05	10.02	-27.1	-28.3	14.5	2.20e-06	0	42	0	207618048	15	4129
2026-01-16 03:36:20.08	10.98	10.10	-27.0	-28.1	14.7	0.00e+00	0	42	0	212860928	15	4079
2026-01-16 03:36:21.08	10.91	10.18	-26.9	-27.9	14.8	0.00e+00	0	42	0	219152384	15	4023
2026-01-16 03:36:22.08	10.84	10.26	-27.1	-28.4	14.5	0.00e+00	0	43	0	224395264	15	4171
2026-01-16 03:36:23.08	10.77	10.34	-26.9	-27.9	14.8	0.00e+00	0	42	0	229638144	15	4049
2026-01-16 03:36:24.08	10.70	10.42	-26.8	-27.7	14.9	0.00e+00	0	43	0	235929600	15	3986
2026-01-16 03:36:25.08	10.63	10.50	-26.9	-28.3	14.8	0.00e+00	0	42	0	241172480	14	4258
2026-01-16 03:36:26.08	10.56	10.58	-27.0	-28.5	14.7	0.00e+00	0	42	0	247463936	14	4309
2026-01-16 03:36:27.08	10.48	10.66	-27.0	-28.6	14.7	0.00e+00	0	42	0	252706816	14	4335
2026-01-16 03:36:28.08	10.41	10.74	-27.0	-28.5	14.8	0.00e+00	0	42	0	257949696	14	4300
2026-01-16 03:36:29.09	10.34	10.83	-27.1	-28.9	14.5	0.00e+00	0	42	0	264241152	14	4415
2026-01-16 03:36:30.10	10.26	10.91	-26.9	-28.3	14.9	0.00e+00	0	43	0	269484032	14	4233
2026-01-16 03:36:31.11	10.18	10.99	-26.7	-27.9	15.1	0.00e+00	0	42	0	275775488	14	4149
2026-01-16 03:36:32.11	10.11	11.07	-26.8	-28.6	15.0	0.00e+00	0	43	0	281018368	13	4442
2026-01-16 03:36:33.11	10.03	11.16	-26.7	-28.5	15.1	0.00e+00	0	43	0	286261248	13	4412
2026-01-16 03:36:34.11	9.96	11.24	-26.8	-28.7	14.9	0.00e+00	0	43	0	292552704	13	4479
2026-01-16 03:36:35.11	9.88	11.32	-26.8	-28.7	14.9	0.00e+00	0	43	0	297795584	13	4465
2026-01-16 03:36:36.11	9.81	11.41	-26.9	-28.8	14.9	0.00e+00	0	43	0	303038464	13	4506
2026-01-16 03:36:37.11	9.73	11.49	-26.7	-28.5	15.1	0.00e+00	0	43	0	309329920	13	4403
2026-01-16 03:36:38.11	9.65	11.57	-26.7	-28.5	15.1	0.00e+00	0	43	0	314572800	13	4405
2026-01-16 03:36:39.11	9.57	11.66	-26.8	-28.7	14.9	0.00e+00	0	43	0	320864256	13	4466
2026-01-16 03:36:40.11	9.49	11.74	-26.7	-28.5	15.1	0.00e+00	0	43	0	326107136	13	4412
2026-01-16 03:36:41.11	9.41	11.83	-26.6	-28.3	15.2	0.00e+00	0	43	0	331350016	13	4345
2026-01-16 03:36:42.11	9.33	11.91	-26.7	-28.5	15.0	0.00e+00	0	43	0	336592896	13	4407
2026-01-16 03:36:43.11	9.25	12.00	-26.5	-28.0	15.3	0.00e+00	0	43	0	342884352	13	4282
2026-01-16 03:36:44.11	9.17	12.08	-26.5	-27.9	15.4	0.00e+00	0	43	0	348127232	13	4253
2026-01-16 03:36:45.11	9.09	12.17	-26.4	-27.8	15.5	0.00e+00	0	43	0	353370112	13	4219
2026-01-16 03:36:46.11	9.01	12.26	-26.3	-27.6	15.6	0.00e+00	0	43	0	359661568	13	4156
2026-01-16 03:36:47.11	8.93	12.34	-26.5	-27.9	15.4	0.00e+00	0	43	0	364904448	13	4246
2026-01-16 03:36:48.12	8.85	12.43	-26.2	-27.4	15.7	0.00e+00	0	43	0	371195904	13	4105
2026-01-16 03:36:49.12	8.76	12.52	-26.3	-27.6	15.6	0.00e+00	0	43	0	376438784	13	4171
2026-01-16 03:36:50.12	8.68	12.60	-26.5	-27.9	15.4	0.00e+00	0	43	0	382730240	13	4244
2026-01-16 03:36:51.13	8.59	12.69	-26.3	-27.5	15.7	0.00e+00	0	43	0	387973120	13	4139
2026-01-16 03:36:52.12	8.51	12.78	-26.2	-27.4	15.7	0.00e+00	0	43	0	393216000	13	4102
2026-01-16 03:36:53.12	8.42	12.86	-26.4	-27.7	15.5	0.00e+00	0	43	0	399507456	13	4189
2026-01-16 03:36:54.12	8.34	12.95	-26.3	-27.4	15.7	0.00e+00	0	43	0	404750336	13	4120
2026-01-16 03:36:55.12	8.25	13.04	-26.3	-27.5	15.7	0.00e+00	0	43	0	409993216	13	4133
2026-01-16 03:36:56.13	8.16	13.13	-26.2	-27.3	15.8	0.00e+00	0	43	0	416284672	13	4088
2026-01-16 03:36:57.13	8.08	13.22	-26.2	-27.7	15.8	0.00e+00	0	43	0	421527552	12	4312
2026-01-16 03:36:58.14	7.99	13.31	-26.2	-27.7	15.8	0.00e+00	0	43	0	426770432	12	4300
2026-01-16 03:36:59.14	7.90	13.40	-26.3	-27.9	15.7	0.00e+00	0	43	0	433061888	12	4366
2026-01-16 03:37:00.14	7.81	13.49	-26.2	-27.8	15.8	0.00e+00	0	43	0	438304768	12	4321
2026-01-16 03:37:01.15	7.72	13.58	-26.1	-27.6	15.6	0.00e+00	0	43	0	444596224	12	4262
2026-01-16 03:37:02.15	7.63	13.67	-26.1	-27.6	15.8	0.00e+00	0	43	0	449839104	12	4282
2026-01-16 03:37:03.15	7.54	13.76	-26.1	-27.5	16.0	0.00e+00	0	43	0	455081984	12	4239
2026-01-16 03:37:04.15	7.45	13.85	-26.1	-27.5	16.0	0.00e+00	0	43	0	461373440	12	4250
2026-01-16 03:37:05.15	7.36	13.94	-26.0	-27.3	16.1	1.12e-04	0	43	0	466616320	12	4182
2026-01-16 03:37:06.16	7.26	14.03	-26.0	-27.3	16.1	0.00e+00	0	43	0	472907776	12	4178
2026-01-16 03:37:07.17	7.17	14.12	-25.9	-27.2	16.1	9.84e-05	0	43	0	478150656	12	4163
2026-01-16 03:37:08.17	7.08	14.21	-26.0	-27.3	16.1	0.00e+00	0	43	0	483393536	12	4198
2026-01-16 03:37:09.18	6.98	14.31	-26.0	-27.3	16.1	0.00e+00	0	43	0	489684992	12	4184
2026-01-16 03:37:10.18	6.88	14.40	-26.0	-27.5	16.0	7.78e-05	0	43	0	494927872	12	4233
2026-01-16 03:37:11.18	6.79	14.49	-26.0	-27.3	16.1	0.00e+00	0	43	0	500170752	12	4207
2026-01-16 03:37:12.17	6.69	14.58	-26.0	-27.3	16.1	0.00e+00	0	43	0	506462208	12	4194
2026-01-16 03:37:13.17	6.60	14.68	-26.0	-27.3	16.1	0.00e+00	0	43	0	511705088	12	4201
2026-01-16 03:37:14.17	6.50	14.77	-26.0	-27.4	16.1	2.05e-05	0	43	0	517996544	12	4214
2026-01-16 03:37:15.17	6.40	14.86	-26.0	-27.3	16.1	0.00e+00	0	43	0	523239424	12	4196
2026-01-16 03:37:16.18	6.30	14.96	-26.0	-27.3	16.1	8.35e-05	0	43	0	528482304	12	4187
2026-01-16 03:37:17.19	6.20	15.05	-25.9	-27.2	16.3	1.37e-04	0	43	0	534773760	12	4159
2026-01-16 03:37:18.19	6.10	15.15	-26.0	-27.2	16.2	0.00e+00	0	43	0	540016640	12	4179
2026-01-16 03:37:19.19	6.00	15.24	-26.1	-27.6	16.0	1.82e-04	0	43	0	545259520	12	4263
2026-01-16 03:37:20.20	5.90	15.34	-26.0	-27.3	16.2	0.00e+00	0	43	0	551550976	12	4181
2026-01-16 03:37:21.20	5.80	15.43	-25.9	-27.1	16.3	0.00e+00	0	43	0	556793856	12	4138
2026-01-16 03:37:22.20	5.69	15.53	-25.9	-27.1	16.3	1.93e-04	0	43	0	562036736	12	4136
2026-01-16 03:37:23.20	5.59	15.62	-25.9	-27.0	16.3	1.84e-04	0	43	0	568328192	12	4124
2026-01-16 03:37:24.20	5.49	15.72	-25.9	-27.2	16.2	0.00e+00	0	43	0	573571072	12	4162
2026-01-16 03:37:25.21	5.38	15.81	-25.8	-27.0	16.4	1.50e-04	0	43	0	579862528	12	4106
2026-01-16 03:37:26.21	5.28	15.91	-25.8	-27.4	16.5	1.67e-04	0	43	0	585105408	11	4323
2026-01-16 03:37:27.21	5.17	16.01	-25.9	-27.6	16.4	0.00e+00	0	43	0	591396864	11	4379
2026-01-16 03:37:28.21	5.06	16.10	-25.8	-27.4	16.5	1.81e-04	0	43	0	596639744	11	4321
2026-01-16 03:37:29.21	4.96	16.20	-25.8	-27.3	16.5	1.65e-04	0	43	0	601882624	11	4301
2026-01-16 03:37:30.20	4.85	16.30	-25.6	-27.0	16.7	0.00e+00	0	43	0	607125504	11	4218
2026-01-16 03:37:31.20	4.74	16.40	-25.6	-27.0	16.7	1.34e-04	0	43	0	613416960	11	4224
2026-01-16 03:37:32.19	4.63	16.49	-25.7	-27.1	16.7	0.00e+00	0	43	0	618659840	11	4236
2026-01-16 03:37:33.19	4.52	16.59	-25.5	-26.8	16.8	0.00e+00	0	43	0	624951296	11	4157
2026-01-16 03:37:34.19	4.41	16.69	-25.6	-26.9	16.8	2.17e-05	0	43	0	630194176	11	4200
2026-01-16 03:37:35.20	4.30	16.79	-25.5	-26.7	16.9	0.00e+00	0	43	0	635437056	11	4150
2026-01-16 03:37:36.19	4.18	16.89	-25.5	-26.8	16.8	0.00e+00	0	43	0	641728512	11	4158
2026-01-16 03:37:37.20	4.07	16.99	-25.6	-26.9	16.8	0.00e+00	0	43	0	646971392	11	4201
2026-01-16 03:37:38.19	3.96	17.09	-25.6	-27.0	16.7	0.00e+00	0	43	0	652214272	11	4230
2026-01-16 03:37:39.19	3.84	17.19	-25.5	-26.6	16.9	0.00e+00	0	43	0	658505728	11	4126
2026-01-16 03:37:40.19	3.72	17.29	-25.3	-26.2	17.2	0.00e+00	0	43	0	663748608	11	4009
2026-01-16 03:37:41.19	3.61	17.39	-25.2	-26.2	17.2	0.00e+00	0	43	0	668991488	11	3999
2026-01-16 03:37:42.19	3.49	17.49	-25.2	-26.1	17.3	0.00e+00	0	43	0	675282944	11	3980
2026-01-16 03:37:43.19	3.37	17.59	-25.3	-26.2	17.2	0.00e+00	0	43	0	680525824	11	4013
2026-01-16 03:37:44.19	3.25	17.69	-25.3	-26.3	17.1	0.00e+00	0	43	0	686817280	11	4034
2026-01-16 03:37:45.19	3.13	17.80	-25.4	-26.5	17.1	0.00e+00	0	43	0	692060160	11	4082
2026-01-16 03:37:46.19	3.01	17.90	-25.3	-26.4	17.1	0.00e+00	0	43	0	697303040	11	4064
2026-01-16 03:37:47.19	2.89	18.00	-25.5	-26.7	17.0	0.00e+00	0	43	0	703594496	11	4126
2026-01-16 03:37:48.19	2.77	18.10	-25.5	-26.7	16.9	0.00e+00	0	43	0	708837376	11	4143
2026-01-16 03:37:49.19	2.64	18.21	-25.5	-26.8	16.9	0.00e+00	0	43	0	714080256	11	4158
2026-01-16 03:37:50.19	2.52	18.31	-25.3	-26.4	17.1	0.00e+00	0	43	0	720371712	11	4058
2026-01-16 03:37:51.19	2.40	18.41	-25.4	-26.4	17.1	0.00e+00	0	43	0	725614592	11	4076
2026-01-16 03:37:52.20	2.27	18.52	-25.4	-26.4	17.1	0.00e+00	0	43	0	730857472	11	4064
2026-01-16 03:37:53.20	2.14	18.62	-25.5	-26.7	16.9	0.00e+00	0	43	0	737148928	11	4143
2026-01-16 03:37:54.21	2.01	18.73	-25.2	-26.1	17.3	0.00e+00	0	43	0	742391808	11	3976
2026-01-16 03:37:55.21	1.88	18.83	-25.1	-25.8	17.4	0.00e+00	0	43	0	748683264	11	3919
2026-01-16 03:37:56.21	1.75	18.94	-25.2	-26.0	17.4	0.00e+00	0	43	0	753926144	11	3964
2026-01-16 03:37:57.21	1.62	19.04	-25.3	-26.3	17.2	0.00e+00	0	43	0	760217600	11	4042
2026-01-16 03:37:58.21	1.49	19.15	-25.2	-26.0	17.3	0.00e+00	0	43	0	765460480	11	3973
2026-01-16 03:37:59.21	1.36	19.25	-25.1	-25.8	17.5	0.00e+00	0	43	0	770703360	11	3918
2026-01-16 03:38:00.21	1.23	19.36	-25.2	-26.0	17.3	0.00e+00	0	43	0	775946240	11	3966
2026-01-16 03:38:01.20	1.09	19.47	-25.1	-25.9	17.4	0.00e+00	0	44	0	782237696	11	3931
2026-01-16 03:38:02.20	0.96	19.57	-24.9	-25.4	17.6	2.63e-05	0	43	0	787480576	11	3828
2026-01-16 03:38:03.21	0.82	19.68	-24.9	-25.5	17.6	0.00e+00	0	43	0	793772032	11	3839
2026-01-16 03:38:04.21	0.68	19.79	-25.0	-25.6	17.6	3.54e-05	0	43	0	799014912	11	3876
2026-01-16 03:38:05.21	0.55	19.90	-25.0	-25.6	17.6	0.00e+00	0	43	0	804257792	11	3877
2026-01-16 03:38:06.21	0.41	20.00	-24.7	-25.5	17.9	0.00e+00	0	43	0	810549248	10	3955
2026-01-16 03:38:07.21	0.27	20.11	-24.7	-25.4	18.0	0.00e+00	0	43	0	815792128	10	3924
2026-01-16 03:38:08.22	0.12	20.22	-24.7	-25.5	17.9	0.00e+00	0	44	0	822083584	10	3951
2026-01-16 03:38:09.22	359.98	20.33	-24.7	-25.6	17.9	0.00e+00	0	44	0	827326464	10	3961
2026-01-16 03:38:10.22	359.84	20.44	-24.6	-25.2	18.1	0.00e+00	0	44	0	832569344	10	3875
2026-01-16 03:38:11.22	359.69	20.55	-24.7	-25.4	18.0	0.00e+00	0	44	0	838860800	10	3921
2026-01-16 03:38:12.22	359.55	20.66	-24.6	-25.3	18.0	0.00e+00	0	43	0	844103680	10	3908
2026-01-16 03:38:13.22	359.40	20.77	-24.7	-25.4	18.0	0.00e+00	0	44	0	849346560	10	3926
2026-01-16 03:38:14.22	359.25	20.88	-24.8	-25.7	17.9	0.00e+00	0	44	0	855638016	10	3983
2026-01-16 03:38:15.22	359.11	20.99	-24.7	-25.6	17.9	0.00e+00	0	44	0	860880896	10	3972
2026-01-16 03:38:16.23	358.95	21.10	-24.9	-25.8	17.8	0.00e+00	0	44	0	866123776	10	4020
2026-01-16 03:38:17.23	358.80	21.21	-24.9	-26.0	17.7	0.00e+00	0	43	0	872415232	10	4067
2026-01-16 03:38:18.24	358.65	21.33	-24.8	-25.8	17.8	0.00e+00	0	44	0	877658112	10	4011
2026-01-16 03:38:19.24	358.50	21.44	-24.8	-25.7	17.9	0.00e+00	0	43	0	883949568	10	3989
2026-01-16 03:38:20.25	358.34	21.55	-24.8	-25.6	17.9	0.00e+00	0	43	0	889192448	10	3971
2026-01-16 03:38:21.25	358.19	21.66	-24.7	-25.5	18.0	0.00e+00	0	44	0	894435328	10	3934
2026-01-16 03:38:22.25	358.03	21.78	-24.5	-25.5	18.2	0.00e+00	0	44	0	900726784	9	4066
2026-01-16 03:38:23.25	357.87	21.89	-24.3	-25.2	18.4	0.00e+00	0	44	0	905969664	9	3968
2026-01-16 03:38:24.26	357.71	22.00	-24.4	-25.4	18.3	0.00e+00	0	43	0	912261120	9	4018
2026-01-16 03:38:25.26	357.55	22.12	-24.5	-25.5	18.2	0.00e+00	0	44	0	917504000	9	4050
2026-01-16 03:38:26.26	357.39	22.23	-24.2	-24.9	18.5	0.00e+00	0	44	0	922746880	9	3914
2026-01-16 03:38:27.25	357.23	22.34	-24.2	-24.8	18.6	0.00e+00	0	44	0	927989760	9	3887
2026-01-16 03:38:28.25	357.06	22.46	-24.2	-25.0	18.5	0.00e+00	0	44	0	934281216	9	3928
2026-01-16 03:38:29.25	356.90	22.57	-24.2	-24.8	18.6	0.00e+00	0	44	0	939524096	9	3887
2026-01-16 03:38:30.25	356.73	22.69	-24.0	-24.6	18.7	0.00e+00	0	44	0	945815552	9	3836
2026-01-16 03:38:31.25	356.57	22.80	-24.1	-24.7	18.6	0.00e+00	0	43	0	951058432	9	3860
2026-01-16 03:38:32.25	356.40	22.92	-24.1	-24.8	18.6	0.00e+00	0	43	0	956301312	9	3885
2026-01-16 03:38:33.25	356.23	23.03	-23.9	-24.4	18.8	0.00e+00	0	44	0	962592768	9	3792
2026-01-16 03:38:34.25	356.06	23.15	-23.9	-24.4	18.8	0.00e+00	0	44	0	967835648	9	3781
2026-01-16 03:38:35.25	355.88	23.26	-23.8	-24.7	18.9	0.00e+00	0	43	0	973078528	8	3963
2026-01-16 03:38:36.26	355.71	23.38	-24.0	-25.1	18.7	0.00e+00	0	44	0	979369984	8	4053
2026-01-16 03:38:37.25	355.53	23.49	-24.1	-25.2	18.6	0.00e+00	0	44	0	984612864	8	4104
2026-01-16 03:38:38.26	355.36	23.61	-24.1	-25.2	18.7	0.00e+00	0	44	0	990904320	8	4094
2026-01-16 03:38:39.27	355.18	23.73	-24.2	-25.4	18.6	0.00e+00	0	44	0	996147200	8	4135
2026-01-16 03:38:40.26	355.00	23.85	-24.1	-25.3	18.6	0.00e+00	0	44	0	1001390080	8	4106
2026-01-16 03:38:41.27	354.82	23.96	-24.2	-25.4	18.6	0.00e+00	0	43	0	1007681536	8	4145
2026-01-16 03:38:42.28	354.63	24.08	-24.2	-25.5	18.5	0.00e+00	0	43	0	1012924416	8	4168
2026-01-16 03:38:43.28	354.45	24.20	-24.3	-25.5	18.5	0.00e+00	0	44	0	1019215872	8	4176
2026-01-16 03:38:44.28	354.26	24.32	-24.4	-25.8	18.4	0.00e+00	0	44	0	1024458752	8	4231
2026-01-16 03:38:45.28	354.08	24.44	-24.2	-25.4	18.6	0.00e+00	0	44	0	1029701632	8	4132
2026-01-16 03:38:46.27	353.89	24.55	-24.2	-25.4	18.6	0.00e+00	0	43	0	1035993088	8	4146
2026-01-16 03:38:47.27	353.70	24.67	-24.3	-25.6	18.5	0.00e+00	0	43	0	1041235968	8	4192
2026-01-16 03:38:48.27	353.51	24.79	-24.2	-25.5	18.6	0.00e+00	0	43	0	1046478848	8	4158
2026-01-16 03:38:49.27	353.32	24.91	-24.2	-25.5	18.5	0.00e+00	0	44	0	1052770304	8	4163
2026-01-16 03:38:50.27	353.13	25.03	-24.4	-25.8	18.4	0.00e+00	0	44	0	1058013184	8	4234
2026-01-16 03:38:51.27	352.93	25.15	-24.1	-25.2	18.7	0.00e+00	0	43	0	1063256064	8	4081
2026-01-16 03:38:52.28	352.73	25.27	-23.9	-24.7	19.0	0.00e+00	0	44	0	1069547520	8	3977
2026-01-16 03:38:53.28	352.53	25.39	-23.8	-24.7	19.0	0.00e+00	0	44	0	1074790400	8	3960
2026-01-16 03:38:54.29	352.33	25.51	-23.9	-24.8	18.9	0.00e+00	0	44	0	1081081856	8	3982
2026-01-16 03:38:55.29	352.13	25.63	-23.9	-24.7	19.0	0.00e+00	0	44	0	1086324736	8	3972
2026-01-16 03:38:56.28	351.93	25.75	-23.8	-24.5	19.1	0.00e+00	0	44	0	1091567616	8	3918
2026-01-16 03:38:57.29	351.72	25.87	-23.7	-24.4	19.1	0.00e+00	0	44	0	1097859072	8	3885
2026-01-16 03:38:58.29	351.52	25.99	-23.7	-24.4	19.1	0.00e+00	0	44	0	1103101952	8	3898
2026-01-16 03:38:59.29	351.31	26.11	-23.6	-24.1	19.3	0.00e+00	0	44	0	1108344832	8	3833
2026-01-16 03:39:00.29	351.10	26.23	-23.6	-24.1	19.3	0.00e+00	0	43	0	1114636288	8	3826
2026-01-16 03:39:01.29	350.89	26.35	-23.7	-24.3	19.2	0.00e+00	0	44	0	1119879168	8	3871
2026-01-16 03:39:02.29	350.68	26.47	-23.7	-24.4	19.1	0.00e+00	0	44	0	1125122048	8	3898
2026-01-16 03:39:03.30	350.46	26.59	-23.7	-24.3	19.2	0.00e+00	0	43	0	1131413504	8	3874
2026-01-16 03:39:04.30	350.25	26.71	-23.6	-24.1	19.3	0.00e+00	0	44	0	1136656384	8	3830
2026-01-16 03:39:05.30	350.03	26.83	-23.7	-24.3	19.2	0.00e+00	0	44	0	1142947840	8	3870
2026-01-16 03:39:06.29	349.81	26.95	-23.8	-24.5	19.1	0.00e+00	0	44	0	1148190720	8	3913
2026-01-16 03:39:07.30	349.59	27.08	-23.6	-24.1	19.3	0.00e+00	0	44	0	1153433600	8	3820
2026-01-16 03:39:08.30	349.37	27.20	-23.5	-24.0	19.4	0.00e+00	0	44	0	1159725056	8	3795
2026-01-16 03:39:09.29	349.15	27.32	-23.5	-23.9	19.4	0.00e+00	0	43	0	1164967936	8	3780
2026-01-16 03:39:10.29	348.92	27.44	-23.4	-23.8	19.5	0.00e+00	0	43	0	1170210816	8	3756
2026-01-16 03:39:11.29	348.69	27.56	-23.3	-24.1	19.6	0.00e+00	0	44	0	1176502272	7	3926
2026-01-16 03:39:12.29	348.46	27.68	-23.3	-24.1	19.6	0.00e+00	0	44	0	1181745152	7	3929
2026-01-16 03:39:13.29	348.23	27.80	-23.3	-24.1	19.6	0.00e+00	0	44	0	1186988032	7	3922
2026-01-16 03:39:14.29	348.00	27.92	-23.3	-24.6	19.5	0.00e+00	0	44	0	1193279488	6	4171
2026-01-16 03:39:15.28	347.77	28.04	-23.3	-24.6	18.2	0.00e+00	0	44	0	1198522368	6	4169
2026-01-16 03:39:16.29	347.53	28.17	-23.4	-24.7	18.1	0.00e+00	0	44	0	1204813824	6	4199
2026-01-16 03:39:17.29	347.29	28.29	-23.4	-24.7	19.5	0.00e+00	0	44	0	1210056704	6	4179
2026-01-16 03:39:18.30	347.05	28.41	-23.6	-24.6	19.3	0.00e+00	0	44	0	1215299584	7	4045
2026-01-16 03:39:19.29	346.81	28.53	-23.7	-24.9	19.1	0.00e+00	0	44	0	1221591040	7	4127
2026-01-16 03:39:20.30	346.56	28.65	-23.9	-25.2	19.0	0.00e+00	0	44	0	1226833920	7	4202
2026-01-16 03:39:21.30	346.32	28.77	-23.5	-24.4	19.4	0.00e+00	0	44	0	1232076800	7	4012
2026-01-16 03:39:22.30	346.07	28.90	-23.3	-24.5	19.6	0.00e+00	0	44	0	1238368256	6	4140
2026-01-16 03:39:23.31	345.82	29.02	-23.2	-24.3	19.7	0.00e+00	0	44	0	1243611136	6	4082
2026-01-16 03:39:24.31	345.57	29.14	-23.1	-24.1	19.8	0.00e+00	0	44	0	1249902592	6	4033
2026-01-16 03:39:25.31	345.31	29.26	-23.3	-24.5	19.6	0.00e+00	0	44	0	1255145472	6	4131
2026-01-16 03:39:26.31	345.06	29.38	-23.4	-24.8	19.4	0.00e+00	0	44	0	1260388352	6	4222
2026-01-16 03:39:27.31	344.80	29.50	-23.2	-24.3	19.7	3.34e-04	0	44	0	1266679808	6	4093
2026-01-16 03:39:28.31	344.54	29.62	-23.2	-24.2	19.8	0.00e+00	0	44	0	1271922688	6	4077
2026-01-16 03:39:29.31	344.28	29.74	-23.3	-24.6	19.6	0.00e+00	0	44	0	1278214144	6	4154
2026-01-16 03:39:30.32	344.01	29.86	-23.3	-24.5	19.7	0.00e+00	0	44	0	1283457024	6	4139
2026-01-16 03:39:31.32	343.75	29.98	-23.3	-24.5	19.6	2.57e-04	0	44	0	1288699904	6	4149
2026-01-16 03:39:32.32	343.48	30.10	-23.3	-24.6	19.6	0.00e+00	0	44	0	1294991360	6	4160
2026-01-16 03:39:33.32	343.21	30.22	-23.4	-24.8	19.5	0.00e+00	0	44	0	1300234240	6	4215
2026-01-16 03:39:34.33	342.94	30.34	-23.4	-24.8	19.5	3.03e-04	0	44	0	1305477120	6	4213
2026-01-16 03:39:35.33	342.66	30.46	-23.3	-24.6	19.6	0.00e+00	0	44	0	1311768576	6	4153
2026-01-16 03:39:36.34	342.39	30.58	-23.3	-24.6	19.6	2.63e-04	0	43	0	1317011456	6	4155
2026-01-16 03:39:37.33	342.11	30.70	-23.3	-24.6	19.6	2.51e-05	0	44	0	1323302912	6	4171
2026-01-16 03:39:38.33	341.83	30.82	-23.4	-24.7	19.6	0.00e+00	0	44	0	1328545792	6	4182
2026-01-16 03:39:39.33	341.55	30.94	-23.4	-24.7	19.6	2.13e-04	0	44	0	1333788672	6	4181
2026-01-16 03:39:40.33	341.27	31.05	-23.2	-24.3	19.8	0.00e+00	0	44	0	1340080128	6	4081
2026-01-16 03:39:41.34	340.98	31.17	-23.1	-24.2	19.8	0.00e+00	0	44	0	1345323008	6	4057
2026-01-16 03:39:42.34	340.69	31.29	-23.2	-24.3	19.7	0.00e+00	0	44	0	1350565888	6	4092
2026-01-16 03:39:43.35	340.40	31.41	-23.1	-24.1	19.8	1.57e-04	0	44	0	1356857344	6	4043
2026-01-16 03:39:44.35	340.11	31.52	-23.1	-24.2	19.8	0.00e+00	0	44	0	1362100224	6	4061
2026-01-16 03:39:45.34	339.81	31.64	-23.3	-24.5	19.7	1.85e-04	0	44	0	1367343104	6	4130
2026-01-16 03:39:46.35	339.52	31.75	-23.3	-24.5	19.7	1.75e-04	0	44	0	1373634560	6	4127
2026-01-16 03:39:47.34	339.22	31.87	-23.1	-24.1	19.8	0.00e+00	0	44	0	1378877440	6	4047
2026-01-16 03:39:48.35	338.92	31.98	-23.2	-24.2	19.8	1.21e-04	0	44	0	1385168896	6	4072
2026-01-16 03:39:49.35	338.61	32.10	-23.1	-24.1	19.9	5.70e-06	0	44	0	1390411776	6	4047
2026-01-16 03:39:50.35	338.31	32.21	-23.0	-23.9	19.9	0.00e+00	0	44	0	1395654656	6	4001
2026-01-16 03:39:51.35	338.00	32.32	-23.1	-24.1	19.8	0.00e+00	0	44	0	1401946112	6	4038
2026-01-16 03:39:52.36	337.69	32.44	-23.1	-24.2	19.8	0.00e+00	0	44	0	1407188992	6	4059
2026-01-16 03:39:53.36	337.38	32.55	-23.2	-24.2	19.8	0.00e+00	0	44	0	1413480448	6	4072
2026-01-16 03:39:54.36	337.06	32.66	-23.2	-24.3	19.8	1.25e-05	0	44	0	1418723328	6	4097
2026-01-16 03:39:55.37	336.74	32.77	-23.0	-23.8	20.0	1.05e-04	0	44	0	1423966208	6	3977
2026-01-16 03:39:56.37	336.43	32.89	-22.8	-23.6	20.1	0.00e+00	0	44	0	1430257664	6	3920
2026-01-16 03:39:57.37	336.11	32.99	-22.9	-23.8	20.0	2.00e-04	0	44	0	1435500544	6	3966
2026-01-16 03:39:58.37	335.78	33.10	-23.0	-23.8	20.0	1.91e-04	0	44	0	1440743424	6	3972
2026-01-16 03:39:59.38	335.46	33.21	-22.7	-23.4	20.2	0.00e+00	0	44	0	1447034880	6	3865
2026-01-16 03:40:00.37	335.13	33.32	-22.8	-23.4	20.2	1.79e-04	0	44	0	1452277760	6	3882
2026-01-16 03:40:01.38	334.80	33.43	-22.8	-23.6	20.1	0.00e+00	0	43	0	1458569216	6	3921
2026-01-16 03:40:02.38	334.47	33.54	-22.8	-23.4	20.2	0.00e+00	0	44	0	1463812096	6	3875
2026-01-16 03:40:03.39	334.13	33.64	-22.8	-23.4	20.2	0.00e+00	0	44	0	1469054976	6	3885
2026-01-16 03:40:04.39	333.80	33.75	-22.8	-23.5	20.2	4.34e-05	0	44	0	1475346432	6	3899
2026-01-16 03:40:05.40	333.46	33.85	-22.8	-23.4	20.2	0.00e+00	0	44	0	1480589312	6	3869
2026-01-16 03:40:06.40	333.12	33.96	-22.9	-23.6	20.1	8.92e-05	0	44	0	1485832192	6	3929
2026-01-16 03:40:07.40	332.77	34.06	-23.0	-23.8	20.0	1.44e-04	0	44	0	1492123648	6	3981
2026-01-16 03:40:08.40	332.43	34.16	-23.0	-24.0	20.0	0.00e+00	0	44	0	1497366528	6	4005
2026-01-16 03:40:09.39	332.09	34.26	-23.0	-23.9	20.0	1.14e-04	0	44	0	1502609408	6	3982
2026-01-16 03:40:10.39	331.74	34.36	-23.0	-23.8	20.1	0.00e+00	0	44	0	1508900864	6	3967
2026-01-16 03:40:11.40	331.38	34.46	-23.0	-23.9	20.0	0.00e+00	0	44	0	1514143744	6	3991
2026-01-16 03:40:12.40	331.03	34.56	-23.0	-23.8	20.0	0.00e+00	0	44	0	1520435200	6	3972
2026-01-16 03:40:13.40	330.68	34.66	-22.9	-23.7	20.1	0.00e+00	0	44	0	1525678080	6	3944
2026-01-16 03:40:14.40	330.32	34.75	-22.9	-23.6	20.1	0.00e+00	0	44	0	1530920960	6	3929
2026-01-16 03:40:15.41	329.96	34.85	-22.8	-23.4	20.3	0.00e+00	0	44	0	1537212416	6	3873
2026-01-16 03:40:16.41	329.59	34.94	-22.8	-23.5	20.2	0.00e+00	0	44	0	1542455296	6	3886
2026-01-16 03:40:17.41	329.23	35.04	-22.7	-23.3	20.3	0.00e+00	0	44	0	1548746752	6	3839
2026-01-16 03:40:18.41	328.86	35.13	-22.8	-23.4	20.3	0.00e+00	0	44	0	1553989632	6	3871
2026-01-16 03:40:19.42	328.49	35.22	-22.8	-23.5	20.2	0.00e+00	0	44	0	1559232512	6	3892
2026-01-16 03:40:20.42	328.12	35.31	-22.6	-23.1	20.4	0.00e+00	0	43	0	1565523968	6	3811
2026-01-16 03:40:21.43	327.75	35.40	-22.7	-23.2	20.4	0.00e+00	0	44	0	1570766848	6	3823
2026-01-16 03:40:22.43	327.37	35.49	-22.7	-23.8	20.3	0.00e+00	0	44	0	1576009728	5	4079
2026-01-16 03:40:23.43	327.00	35.58	-22.8	-23.9	20.2	0.00e+00	0	44	0	1582301184	5	4117
2026-01-16 03:40:24.43	326.62	35.66	-22.8	-24.1	20.1	0.00e+00	0	44	0	1587544064	5	4150
2026-01-16 03:40:25.43	326.24	35.75	-22.7	-23.7	20.3	0.00e+00	0	44	0	1593835520	5	4048
2026-01-16 03:40:26.43	325.86	35.83	-22.7	-23.7	20.3	0.00e+00	0	44	0	1599078400	5	4067
2026-01-16 03:40:27.43	325.47	35.91	-22.8	-24.0	20.2	0.00e+00	0	44	0	1604321280	5	4118
2026-01-16 03:40:28.43	325.09	35.99	-22.8	-24.0	20.2	0.00e+00	0	44	0	1610612736	5	4131
2026-01-16 03:40:29.43	324.70	36.07	-22.9	-24.1	20.1	0.00e+00	0	44	0	1615855616	5	4160
2026-01-16 03:40:30.43	324.31	36.15	-22.9	-24.2	20.1	0.00e+00	0	44	0	1621098496	5	4192
2026-01-16 03:40:31.43	323.92	36.23	-22.9	-24.2	20.1	0.00e+00	0	44	0	1627389952	5	4181
2026-01-16 03:40:32.44	323.52	36.30	-22.8	-24.0	20.2	0.00e+00	0	44	0	1632632832	5	4134
2026-01-16 03:40:33.43	323.13	36.37	-22.9	-24.1	20.1	0.00e+00	0	44	0	1637875712	5	4165
2026-01-16 03:40:34.44	322.73	36.45	-23.0	-24.4	20.0	0.00e+00	0	44	0	1644167168	5	4229
2026-01-16 03:40:35.44	322.33	36.52	-23.1	-24.0	19.9	0.00e+00	0	44	0	1649410048	6	4022
2026-01-16 03:40:36.43	321.93	36.59	-22.9	-23.7	20.1	0.00e+00	0	44	0	1655701504	6	3942
2026-01-16 03:40:37.44	321.53	36.66	-22.9	-23.7	20.1	0.00e+00	0	44	0	1660944384	6	3934
2026-01-16 03:40:38.44	321.12	36.72	-22.9	-23.7	20.1	0.00e+00	0	44	0	1666187264	6	3939
2026-01-16 03:40:39.44	320.72	36.79	-22.8	-23.4	20.2	0.00e+00	0	44	0	1672478720	6	3870
2026-01-16 03:40:40.45	320.30	36.85	-22.8	-23.5	20.2	0.00e+00	0	44	0	1677721600	6	3900
2026-01-16 03:40:41.45	319.90	36.91	-22.9	-23.6	20.1	0.00e+00	0	44	0	1682964480	6	3933
2026-01-16 03:40:42.45	319.48	36.98	-22.8	-23.6	20.2	0.00e+00	0	44	0	1689255936	6	3913
2026-01-16 03:40:43.45	319.07	37.03	-22.8	-23.5	20.2	0.00e+00	0	44	0	1694498816	6	3902
2026-01-16 03:40:44.45	318.66	37.09	-22.8	-23.5	20.2	0.00e+00	0	44	0	1699741696	6	3895
2026-01-16 03:40:45.45	318.24	37.15	-22.7	-23.3	20.3	0.00e+00	0	44	0	1706033152	6	3860
2026-01-16 03:40:46.45	317.83	37.20	-22.8	-23.4	20.2	0.00e+00	0	44	0	1711276032	6	3882
2026-01-16 03:40:47.45	317.41	37.25	-22.8	-23.6	20.2	0.00e+00	0	44	0	1717567488	6	3916
2026-01-16 03:40:48.45	316.99	37.31	-22.9	-23.6	20.1	0.00e+00	0	44	0	1722810368	6	3919
2026-01-16 03:40:49.45	316.57	37.35	-22.8	-23.5	20.2	0.00e+00	0	44	0	1728053248	6	3896
2026-01-16 03:40:50.46	316.14	37.40	-22.7	-23.2	20.3	0.00e+00	0	44	0	1734344704	6	3832
2026-01-16 03:40:51.46	315.72	37.45	-22.7	-23.3	20.3	0.00e+00	0	44	0	1739587584	6	3852
2026-01-16 03:40:52.45	315.30	37.49	-22.7	-23.3	20.3	0.00e+00	0	44	0	1744830464	6	3857
2026-01-16 03:40:53.46	314.87	37.53	-22.8	-23.4	20.2	0.00e+00	0	44	0	1751121920	6	3875
2026-01-16 03:40:54.46	314.45	37.58	-22.8	-23.4	20.2	0.00e+00	0	44	0	1756364800	6	3883
2026-01-16 03:40:55.46	314.02	37.61	-22.7	-23.3	20.3	0.00e+00	0	44	0	1762656256	6	3845
2026-01-16 03:40:56.47	313.59	37.65	-22.8	-23.5	20.2	0.00e+00	0	44	0	1767899136	6	3897
2026-01-16 03:40:57.47	313.16	37.69	-22.9	-23.7	20.1	0.00e+00	0	44	0	1773142016	6	3946
2026-01-16 03:40:58.47	312.73	37.72	-22.8	-23.4	20.2	0.00e+00	0	44	0	1779433472	6	3869
2026-01-16 03:40:59.48	312.29	37.75	-22.6	-23.1	20.4	0.00e+00	0	44	0	1784676352	6	3817
2026-01-16 03:41:00.47	311.86	37.78	-22.7	-23.2	20.4	0.00e+00	0	44	0	1790967808	6	3827
2026-01-16 03:41:01.48	311.43	37.81	-22.7	-23.2	20.3	0.00e+00	0	44	0	1796210688	6	3833
2026-01-16 03:41:02.48	310.99	37.84	-22.7	-23.3	20.3	0.00e+00	0	44	0	1801453568	6	3863
2026-01-16 03:41:03.49	310.55	37.86	-22.6	-23.6	20.4	0.00e+00	0	44	0	1807745024	5	4027
2026-01-16 03:41:04.49	310.12	37.88	-22.6	-23.5	20.4	0.00e+00	0	44	0	1812987904	5	4009
2026-01-16 03:41:05.49	309.68	37.90	-22.8	-23.9	20.3	0.00e+00	0	44	0	1818230784	5	4096
2026-01-16 03:41:06.49	309.25	37.92	-22.9	-24.1	20.1	0.00e+00	0	44	0	1824522240	5	4164
2026-01-16 03:41:07.50	308.81	37.94	-23.0	-23.9	20.0	0.00e+00	0	44	0	1829765120	6	3997
2026-01-16 03:41:08.50	308.37	37.95	-22.9	-23.6	20.1	0.00e+00	0	44	0	1835008000	6	3936
2026-01-16 03:41:09.50	307.93	37.97	-22.8	-23.5	20.2	0.00e+00	0	44	0	1841299456	6	3889
2026-01-16 03:41:10.51	307.49	37.98	-22.7	-23.8	20.3	0.00e+00	0	44	0	1846542336	5	4068
2026-01-16 03:41:11.51	307.05	37.99	-22.5	-23.4	20.5	0.00e+00	0	44	0	1852833792	5	3973
2026-01-16 03:41:12.52	306.61	37.99	-22.5	-23.5	20.5	0.00e+00	0	44	0	1858076672	5	3998
2026-01-16 03:41:13.52	306.17	38.00	-22.6	-23.6	20.4	0.00e+00	0	44	0	1864368128	5	4039
2026-01-16 03:41:14.53	305.73	38.00	-22.6	-23.5	20.4	0.00e+00	0	44	0	1869611008	5	4017
2026-01-16 03:41:15.53	305.29	38.00	-22.5	-23.4	20.5	0.00e+00	0	44	0	1874853888	5	3988
2026-01-16 03:41:16.53	304.85	38.00	-22.6	-23.5	20.5	0.00e+00	0	44	0	1881145344	5	3999
2026-01-16 03:41:17.53	304.41	38.00	-22.7	-23.9	20.2	0.00e+00	0	44	0	1886388224	5	4098
2026-01-16 03:41:18.54	303.97	38.00	-22.8	-23.9	20.2	0.00e+00	0	44	0	1891631104	5	4111
2026-01-16 03:41:19.54	303.53	37.99	-22.7	-23.8	20.3	0.00e+00	0	44	0	1897922560	5	4079
2026-01-16 03:41:20.54	303.09	37.98	-22.7	-23.9	20.3	0.00e+00	0	44	0	1903165440	5	4092
2026-01-16 03:41:21.55	302.65	37.97	-22.8	-23.9	20.2	0.00e+00	0	44	0	1908408320	5	4106
2026-01-16 03:41:22.55	302.21	37.96	-22.7	-23.8	20.2	0.00e+00	0	44	0	1914699776	5	4078
2026-01-16 03:41:23.55	301.78	37.95	-22.8	-24.0	20.2	0.00e+00	0	44	0	1919942656	5	4127
2026-01-16 03:41:24.55	301.34	37.93	-22.8	-24.0	20.2	0.00e+00	0	44	0	1926234112	5	4128
2026-01-16 03:41:25.55	300.90	37.91	-22.7	-23.8	20.3	0.00e+00	0	44	0	1931476992	5	4078
2026-01-16 03:41:26.56	300.46	37.89	-22.7	-23.8	20.2	0.00e+00	0	44	0	1936719872	5	4094
2026-01-16 03:41:27.56	300.03	37.87	-22.7	-23.7	20.3	0.00e+00	0	44	0	1943011328	5	4051
2026-01-16 03:41:28.57	299.59	37.85	-22.6	-23.5	20.4	0.00e+00	0	44	0	1948254208	5	4013
2026-01-16 03:41:29.57	299.15	37.82	-22.7	-23.7	20.3	0.00e+00	0	44	0	1954545664	5	4056
2026-01-16 03:41:30.57	298.72	37.80	-22.7	-23.7	20.3	0.00e+00	0	44	0	1959788544	5	4061
2026-01-16 03:41:31.58	298.28	37.77	-22.7	-23.7	20.3	0.00e+00	0	44	0	1965031424	5	4063
2026-01-16 03:41:32.58	297.85	37.74	-22.7	-23.8	20.3	0.00e+00	0	44	0	1971322880	5	4072
2026-01-16 03:41:33.58	297.42	37.70	-22.8	-23.9	20.2	0.00e+00	0	44	0	1976565760	5	4116
2026-01-16 03:41:34.58	296.99	37.67	-23.0	-24.3	20.0	0.00e+00	0	44	0	1981808640	5	4203
2026-01-16 03:41:35.57	296.57	37.63	-23.0	-23.9	20.0	0.00e+00	0	44	0	1988100096	6	3985
2026-01-16 03:41:36.57	296.14	37.60	-23.1	-24.1	19.9	0.00e+00	0	44	0	1993342976	6	4038
2026-01-16 03:41:37.57	295.71	37.56	-23.3	-24.5	19.7	0.00e+00	0	44	0	1999634432	6	4133
2026-01-16 03:41:38.57	295.28	37.51	-23.2	-24.4	19.7	0.00e+00	0	44	0	2004877312	6	4112
2026-01-16 03:41:39.58	294.85	37.47	-23.4	-24.7	19.6	0.00e+00	0	44	0	2010120192	6	4186
2026-01-16 03:41:40.58	294.43	37.43	-23.5	-24.3	19.5	0.00e+00	0	44	0	2016411648	7	3991
2026-01-16 03:41:41.58	294.01	37.38	-23.7	-24.8	19.3	0.00e+00	0	44	0	2021654528	7	4099
2026-01-16 03:41:42.57	293.59	37.33	-23.5	-24.5	19.4	0.00e+00	0	44	0	2026897408	7	4023
2026-01-16 03:41:43.57	293.17	37.28	-22.9	-23.1	20.1	0.00e+00	0	44	0	2033188864	7	3694
2026-01-16 03:41:44.58	292.75	37.23	-22.5	-23.0	20.4	0.00e+00	0	44	0	2038431744	6	3776
2026-01-16 03:41:45.58	292.33	37.18	-22.5	-22.9	20.5	0.00e+00	0	44	0	2043674624	6	3754
2026-01-16 03:41:46.59	291.91	37.12	-22.5	-22.9	20.5	0.00e+00	0	44	0	2049966080	6	3753
2026-01-16 03:41:47.59	291.49	37.06	-22.4	-22.7	20.5	0.00e+00	0	44	0	2055208960	6	3726
2026-01-16 03:41:48.59	291.08	37.00	-22.3	-22.4	20.7	0.00e+00	0	44	0	2061500416	6	3660
2026-01-16 03:41:49.58	290.67	36.95	-22.2	-22.8	20.7	0.00e+00	0	44	0	2066743296	5	3849
2026-01-16 03:41:50.59	290.26	36.88	-22.3	-23.0	20.7	1.33e-04	0	44	0	2071986176	5	3889
2026-01-16 03:41:51.59	289.85	36.82	-22.3	-23.0	20.6	1.46e-04	0	44	0	2078277632	5	3893
2026-01-16 03:41:52.59	289.44	36.76	-22.3	-23.0	20.6	0.00e+00	0	44	0	2083520512	5	3901
2026-01-16 03:41:53.59	289.04	36.69	-22.4	-23.2	20.5	9.61e-05	0	44	0	2088763392	5	3937
2026-01-16 03:41:54.59	288.63	36.62	-22.4	-23.2	20.5	0.00e+00	0	44	0	2095054848	5	3950
2026-01-16 03:41:55.59	288.23	36.55	-22.4	-23.2	20.6	0.00e+00	0	44	0	2100297728	5	3932
2026-01-16 03:41:56.59	287.83	36.48	-22.5	-23.5	20.4	0.00e+00	0	44	0	2106589184	5	4001
2026-01-16 03:41:57.59	287.43	36.41	-22.7	-23.7	20.3	0.00e+00	0	44	0	2111832064	5	4053
2026-01-16 03:41:58.60	287.03	36.34	-22.7	-23.7	20.3	0.00e+00	0	44	0	2117074944	5	4067
2026-01-16 03:41:59.61	286.63	36.26	-22.7	-23.7	20.3	0.00e+00	0	44	0	2123366400	5	4054
2026-01-16 03:42:00.60	286.24	36.19	-22.8	-24.0	20.1	0.00e+00	0	44	0	2128609280	5	4123
2026-01-16 03:42:01.60	285.85	36.11	-23.1	-24.1	19.9	0.00e+00	0	44	0	2133852160	6	4031
2026-01-16 03:42:02.60	285.46	36.03	-23.2	-24.4	19.7	0.00e+00	0	44	0	2140143616	6	4112
2026-01-16 03:42:03.61	285.07	35.95	-23.4	-24.8	19.5	0.00e+00	0	44	0	2145386496	6	4206
2026-01-16 03:42:04.60	284.69	35.87	-23.3	-24.6	19.6	0.00e+00	0	44	0	2150629376	6	4152
2026-01-16 03:42:05.60	284.30	35.79	-23.2	-24.3	19.7	0.00e+00	0	44	0	2156920832	6	4099
2026-01-16 03:42:06.60	283.92	35.70	-23.3	-24.6	19.6	5.26e-05	0	44	0	2162163712	6	4160
2026-01-16 03:42:07.60	283.54	35.62	-23.1	-24.2	19.8	0.00e+00	0	44	0	2168455168	6	4064
2026-01-16 03:42:08.60	283.16	35.53	-22.8	-23.4	20.2	1.20e-04	0	44	0	2173698048	6	3872
2026-01-16 03:42:09.60	282.79	35.44	-22.6	-23.0	20.4	1.52e-04	0	44	0	2178940928	6	3784
2026-01-16 03:42:10.60	282.41	35.35	-22.5	-22.8	20.5	0.00e+00	0	44	0	2185232384	6	3747
2026-01-16 03:42:11.60	282.04	35.26	-22.7	-23.2	20.3	1.30e-04	0	44	0	2190475264	6	3823
2026-01-16 03:42:12.60	281.67	35.17	-22.7	-23.3	20.2	1.34e-04	0	44	0	2195718144	6	3861
2026-01-16 03:42:13.60	281.30	35.08	-22.8	-23.6	20.1	0.00e+00	0	44	0	2202009600	6	3919
2026-01-16 03:42:14.61	280.93	34.99	-22.7	-23.4	20.2	6.80e-06	0	44	0	2207252480	6	3870
2026-01-16 03:42:15.60	280.57	34.89	-22.6	-23.0	20.4	0.00e+00	0	44	0	2212495360	6	3785
2026-01-16 03:42:16.60	280.21	34.80	-22.4	-22.7	20.5	0.00e+00	0	44	0	2218786816	6	3705
2026-01-16 03:42:17.60	279.85	34.70	-22.4	-22.6	20.5	0.00e+00	0	44	0	2224029696	6	3690
2026-01-16 03:42:18.61	279.49	34.60	-22.2	-22.8	20.7	0.00e+00	0	44	0	2230321152	5	3857
2026-01-16 03:42:19.60	279.14	34.51	-22.4	-23.1	20.5	0.00e+00	0	44	0	2235564032	5	3913
2026-01-16 03:42:20.61	278.79	34.41	-22.3	-23.0	20.6	0.00e+00	0	44	0	2240806912	5	3898
2026-01-16 03:42:21.61	278.43	34.31	-22.2	-22.8	20.6	0.00e+00	0	44	0	2247098368	5	3859
2026-01-16 03:42:22.61	278.09	34.21	-22.2	-22.8	20.7	0.00e+00	0	44	0	2252341248	5	3838
2026-01-16 03:42:23.61	277.74	34.11	-22.1	-22.6	20.8	0.00e+00	0	44	0	2258632704	5	3798
2026-01-16 03:42:24.61	277.40	34.00	-22.2	-22.7	20.7	0.00e+00	0	44	0	2263875584	5	3812
2026-01-16 03:42:25.62	277.05	33.90	-22.2	-22.7	20.7	0.00e+00	0	44	0	2269118464	5	3815
2026-01-16 03:42:26.62	276.71	33.79	-22.3	-23.0	20.6	0.00e+00	0	44	0	2275409920	5	3887
2026-01-16 03:42:27.63	276.37	33.69	-22.4	-23.1	20.5	0.00e+00	0	44	0	2280652800	5	3913
2026-01-16 03:42:28.63	276.03	33.58	-22.4	-23.2	20.4	0.00e+00	0	44	0	2285895680	5	3944
2026-01-16 03:42:29.63	275.70	33.48	-22.5	-23.5	20.3	0.00e+00	0	44	0	2292187136	5	4001
2026-01-16 03:42:30.62	275.37	33.37	-22.6	-23.5	20.3	0.00e+00	0	44	0	2297430016	5	4005
2026-01-16 03:42:31.63	275.04	33.26	-22.5	-23.4	20.4	0.00e+00	0	44	0	2303721472	5	3988
2026-01-16 03:42:32.63	274.71	33.15	-22.4	-23.2	20.5	0.00e+00	0	44	0	2308964352	5	3928
2026-01-16 03:42:33.63	274.39	33.04	-22.7	-23.7	20.2	0.00e+00	0	44	0	2314207232	5	4058
2026-01-16 03:42:34.63	274.07	32.93	-22.7	-23.8	20.2	0.00e+00	0	44	0	2320498688	5	4086
2026-01-16 03:42:35.63	273.75	32.82	-22.5	-23.3	20.4	4.23e-05	0	44	0	2325741568	5	3955
2026-01-16 03:42:36.64	273.43	32.71	-22.3	-23.0	20.5	0.00e+00	0	44	0	2330984448	5	3898
2026-01-16 03:42:37.63	273.11	32.60	-22.3	-23.0	20.5	0.00e+00	0	44	0	2337275904	5	3885
2026-01-16 03:42:38.63	272.80	32.49	-22.3	-23.0	20.5	0.00e+00	0	44	0	2342518784	5	3889
2026-01-16 03:42:39.63	272.49	32.37	-22.4	-23.3	20.4	0.00e+00	0	44	0	2347761664	5	3956
2026-01-16 03:42:40.63	272.18	32.26	-22.6	-23.6	20.2	0.00e+00	0	44	0	2354053120	5	4032
2026-01-16 03:42:41.62	271.87	32.15	-22.6	-23.5	20.3	0.00e+00	0	44	0	2359296000	5	4016
2026-01-16 03:42:42.62	271.57	32.03	-22.7	-23.7	20.2	0.00e+00	0	44	0	2365587456	5	4052
2026-01-16 03:42:43.62	271.27	31.92	-22.7	-23.8	20.1	0.00e+00	0	44	0	2370830336	5	4084
2026-01-16 03:42:44.62	270.97	31.80	-22.8	-24.1	20.0	0.00e+00	0	44	0	2376073216	5	4157
2026-01-16 03:42:45.62	270.67	31.69	-22.8	-24.0	20.0	0.00e+00	0	44	0	2382364672	5	4131
2026-01-16 03:42:46.62	270.37	31.57	-22.8	-24.0	20.0	0.00e+00	0	44	0	2387607552	5	4128
2026-01-16 03:42:47.61	270.08	31.46	-22.6	-23.6	20.2	0.00e+00	0	44	0	2392850432	5	4041
2026-01-16 03:42:48.61	269.79	31.34	-22.5	-23.3	20.3	0.00e+00	0	44	0	2399141888	5	3963
2026-01-16 03:42:49.61	269.50	31.22	-22.6	-23.6	20.2	0.00e+00	0	44	0	2404384768	5	4038
2026-01-16 03:42:50.62	269.21	31.10	-22.7	-23.7	20.1	0.00e+00	0	44	0	2409627648	5	4067
2026-01-16 03:42:51.61	268.92	30.99	-22.7	-23.8	20.1	0.00e+00	0	44	0	2415919104	5	4076
2026-01-16 03:42:52.62	268.64	30.87	-22.7	-23.8	20.1	0.00e+00	0	44	0	2421161984	5	4077
2026-01-16 03:42:53.62	268.36	30.75	-22.7	-23.8	20.1	0.00e+00	0	44	0	2427453440	5	4082
2026-01-16 03:42:54.62	268.08	30.63	-22.8	-24.0	20.0	0.00e+00	0	44	0	2432696320	5	4119
2026-01-16 03:42:55.63	267.80	30.51	-23.1	-24.1	19.7	0.00e+00	0	44	0	2437939200	6	4041
2026-01-16 03:42:56.63	267.52	30.39	-23.1	-24.1	19.7	0.00e+00	0	44	0	2444230656	6	4043
2026-01-16 03:42:57.63	267.25	30.27	-23.1	-24.1	19.7	0.00e+00	0	44	0	2449473536	6	4056
2026-01-16 03:42:58.62	266.98	30.15	-23.1	-24.1	19.7	0.00e+00	0	44	0	2454716416	6	4038
2026-01-16 03:42:59.62	266.71	30.03	-22.9	-23.6	19.9	0.00e+00	0	44	0	2461007872	6	3933
2026-01-16 03:43:00.63	266.44	29.91	-22.8	-23.6	20.0	0.00e+00	0	44	0	2466250752	6	3915
2026-01-16 03:43:01.63	266.17	29.79	-22.8	-23.4	20.0	0.00e+00	0	44	0	2471493632	6	3884
2026-01-16 03:43:02.62	265.91	29.67	-22.7	-23.2	20.1	0.00e+00	0	44	0	2477785088	6	3843
2026-01-16 03:43:03.63	265.65	29.55	-22.6	-23.1	20.2	0.00e+00	0	44	0	2483027968	6	3818
2026-01-16 03:43:04.63	265.39	29.43	-22.8	-23.5	20.0	0.00e+00	0	44	0	2489319424	6	3905
2026-01-16 03:43:05.63	265.13	29.31	-22.9	-23.7	19.9	0.00e+00	0	44	0	2494562304	6	3934
2026-01-16 03:43:06.64	264.87	29.18	-23.0	-23.9	19.8	0.00e+00	0	44	0	2499805184	6	3986
2026-01-16 03:43:07.64	264.62	29.06	-23.0	-23.9	19.7	0.00e+00	0	44	0	2506096640	6	4007
2026-01-16 03:43:08.64	264.37	28.94	-23.2	-24.4	19.5	0.00e+00	0	44	0	2511339520	6	4116
2026-01-16 03:43:09.64	264.12	28.82	-23.2	-24.4	19.5	0.00e+00	0	44	0	2516582400	6	4121
2026-01-16 03:43:10.64	263.87	28.70	-23.1	-24.2	19.6	0.00e+00	0	44	0	2522873856	6	4056
2026-01-16 03:43:11.64	263.62	28.58	-23.2	-24.2	19.6	0.00e+00	0	44	0	2528116736	6	4074
2026-01-16 03:43:12.64	263.38	28.45	-23.4	-24.7	19.4	0.00e+00	0	44	0	2533359616	6	4184
2026-01-16 03:43:13.63	263.14	28.33	-23.4	-24.3	19.3	0.00e+00	0	44	0	2539651072	7	3990
2026-01-16 03:43:14.63	262.90	28.21	-23.2	-23.9	19.5	0.00e+00	0	44	0	2544893952	7	3881
2026-01-16 03:43:15.63	262.66	28.09	-22.9	-23.7	19.9	0.00e+00	0	44	0	2551185408	6	3956
2026-01-16 03:43:16.63	262.43	27.97	-23.0	-23.9	19.7	0.00e+00	0	44	0	2556428288	6	4006
2026-01-16 03:43:17.63	262.19	27.85	-23.0	-23.9	19.8	0.00e+00	0	44	0	2561671168	6	3999
2026-01-16 03:43:18.63	261.96	27.72	-23.0	-23.9	19.8	0.00e+00	0	44	0	2567962624	6	4000
2026-01-16 03:43:19.63	261.73	27.60	-23.0	-23.9	19.8	0.00e+00	0	44	0	2573205504	6	3991
2026-01-16 03:43:20.63	261.50	27.48	-23.1	-24.1	19.7	0.00e+00	0	44	0	2578448384	6	4040
2026-01-16 03:43:21.63	261.27	27.36	-23.2	-24.3	19.5	0.00e+00	0	44	0	2584739840	6	4100
2026-01-16 03:43:22.63	261.04	27.24	-23.2	-24.4	19.5	0.00e+00	0	44	0	2589982720	6	4111
2026-01-16 03:43:23.63	260.82	27.12	-23.2	-24.3	19.5	0.00e+00	0	44	0	2595225600	6	4104
2026-01-16 03:43:24.63	260.60	26.99	-23.1	-24.2	19.6	0.00e+00	0	44	0	2601517056	6	4059
2026-01-16 03:43:25.63	260.37	26.87	-23.2	-24.2	19.6	0.00e+00	0	44	0	2606759936	6	4077
2026-01-16 03:43:26.63	260.16	26.75	-23.3	-24.5	19.4	0.00e+00	0	44	0	2613051392	6	4138
2026-01-16 03:43:27.63	259.94	26.63	-23.3	-24.6	19.4	0.00e+00	0	44	0	2618294272	6	4169
2026-01-16 03:43:28.63	259.72	26.51	-23.3	-24.5	19.5	0.00e+00	0	44	0	2623537152	6	4134
2026-01-16 03:43:29.62	259.51	26.39	-23.3	-24.5	19.5	0.00e+00	0	44	0	2629828608	6	4140
2026-01-16 03:43:30.63	259.30	26.27	-23.3	-24.5	19.4	0.00e+00	0	44	0	2635071488	6	4142
2026-01-16 03:43:31.62	259.09	26.15	-23.2	-24.4	19.5	0.00e+00	0	44	0	2640314368	6	4108
2026-01-16 03:43:32.63	258.87	26.02	-23.3	-24.5	19.4	0.00e+00	0	44	0	2646605824	6	4142
2026-01-16 03:43:33.63	258.67	25.90	-23.3	-24.5	19.4	0.00e+00	0	44	0	2651848704	6	4140
2026-01-16 03:43:34.63	258.46	25.78	-23.5	-24.4	19.2	0.00e+00	0	44	0	2657091584	7	4018
2026-01-16 03:43:35.63	258.26	25.66	-23.6	-24.7	19.0	0.00e+00	0	44	0	2663383040	7	4092
2026-01-16 03:43:36.63	258.05	25.54	-23.7	-24.8	19.0	0.00e+00	0	44	0	2668625920	7	4105
2026-01-16 03:43:37.62	257.85	25.42	-23.4	-24.4	19.2	0.00e+00	0	44	0	2674917376	7	3999
2026-01-16 03:43:38.62	257.65	25.30	-23.5	-24.5	19.1	0.00e+00	0	44	0	2680160256	7	4043
2026-01-16 03:43:39.62	257.46	25.18	-23.5	-24.5	19.2	0.00e+00	0	44	0	2685403136	7	4033
2026-01-16 03:43:40.63	257.26	25.06	-23.6	-24.6	19.1	0.00e+00	0	44	0	2691694592	7	4070
2026-01-16 03:43:41.64	257.06	24.94	-23.5	-24.4	19.2	0.00e+00	0	44	0	2696937472	7	4003
2026-01-16 03:43:42.63	256.87	24.82	-23.4	-24.3	19.2	0.00e+00	0	44	0	2702180352	7	3978
2026-01-16 03:43:43.63	256.68	24.70	-23.4	-24.2	19.3	0.00e+00	0	44	0	2708471808	7	3959
2026-01-16 03:43:44.63	256.48	24.58	-23.4	-24.3	19.2	0.00e+00	0	44	0	2713714688	7	3987
2026-01-16 03:43:45.63	256.29	24.47	-23.5	-24.4	19.2	0.00e+00	0	44	0	2718957568	7	4006
2026-01-16 03:43:46.63	256.11	24.35	-23.5	-24.4	19.2	0.00e+00	0	44	0	2725249024	7	4006
2026-01-16 03:43:47.64	255.92	24.23	-23.7	-24.8	19.0	0.00e+00	0	44	0	2730491904	7	4118
2026-01-16 03:43:48.64	255.73	24.11	-23.6	-24.7	19.0	0.00e+00	0	44	0	2736783360	7	4088
2026-01-16 03:43:49.65	255.55	23.99	-23.6	-24.7	19.0	0.00e+00	0	44	0	2742026240	7	4093
2026-01-16 03:43:50.65	255.37	23.87	-23.7	-24.8	18.9	0.00e+00	0	44	0	2747269120	7	4117
2026-01-16 03:43:51.65	255.18	23.75	-23.8	-25.1	18.8	0.00e+00	0	44	0	2753560576	7	4173
2026-01-16 03:43:52.65	255.00	23.64	-23.8	-25.1	18.8	0.00e+00	0	44	0	2758803456	7	4183
2026-01-16 03:43:53.66	254.82	23.52	-23.9	-25.3	18.7	0.00e+00	0	44	0	2765094912	7	4236
2026-01-16 03:43:54.66	254.65	23.40	-23.9	-24.7	18.8	0.00e+00	0	44	0	2770337792	8	3972
2026-01-16 03:43:55.66	254.47	23.29	-23.7	-24.3	19.0	0.00e+00	0	44	0	2775580672	8	3877
2026-01-16 03:43:56.66	254.30	23.17	-23.6	-24.2	19.0	6.52e-05	0	44	0	2781872128	8	3847
2026-01-16 03:43:57.67	254.12	23.05	-23.7	-24.3	19.0	0.00e+00	0	44	0	2787115008	8	3882
2026-01-16 03:43:58.68	253.95	22.93	-23.6	-24.2	19.0	0.00e+00	0	44	0	2792357888	8	3859
2026-01-16 03:43:59.68	253.78	22.82	-23.7	-24.8	18.9	0.00e+00	0	44	0	2798649344	7	4110
2026-01-16 03:44:00.68	253.61	22.70	-23.6	-24.7	19.0	0.00e+00	0	44	0	2803892224	7	4070
2026-01-16 03:44:01.68	253.44	22.59	-23.5	-24.6	19.1	2.66e-04	0	44	0	2810183680	7	4048
2026-01-16 03:44:02.68	253.28	22.47	-23.6	-24.7	19.0	0.00e+00	0	44	0	2815426560	7	4084
2026-01-16 03:44:03.69	253.11	22.36	-23.5	-24.6	19.0	0.00e+00	0	44	0	2820669440	7	4049
2026-01-16 03:44:04.69	252.94	22.24	-23.5	-24.5	19.1	0.00e+00	0	44	0	2826960896	7	4034
2026-01-16 03:44:05.70	252.78	22.13	-23.6	-24.7	19.0	0.00e+00	0	44	0	2832203776	7	4079
2026-01-16 03:44:06.70	252.62	22.01	-23.6	-24.6	19.0	0.00e+00	0	44	0	2837446656	7	4056
2026-01-16 03:44:07.70	252.46	21.90	-23.5	-24.4	19.1	0.00e+00	0	44	0	2843738112	7	4020
2026-01-16 03:44:08.69	252.30	21.79	-23.5	-24.5	19.1	1.20e-04	0	44	0	2848980992	7	4031
2026-01-16 03:44:09.69	252.14	21.67	-23.5	-24.5	19.1	0.00e+00	0	44	0	2855272448	7	4039
2026-01-16 03:44:10.69	251.99	21.56	-23.6	-24.6	19.0	0.00e+00	0	44	0	2860515328	7	4068
2026-01-16 03:44:11.69	251.83	21.45	-23.6	-24.7	18.9	0.00e+00	0	44	0	2865758208	7	4093
2026-01-16 03:44:12.70	251.67	21.34	-23.7	-24.9	18.8	0.00e+00	0	44	0	2872049664	7	4143
2026-01-16 03:44:13.71	251.52	21.22	-23.9	-25.3	18.6	1.83e-05	0	44	0	2877292544	7	4244
2026-01-16 03:44:14.72	251.36	21.11	-23.9	-24.9	18.6	0.00e+00	0	44	0	2883584000	8	4018
2026-01-16 03:44:15.72	251.21	21.00	-23.9	-24.8	18.6	0.00e+00	0	44	0	2888826880	8	4003
2026-01-16 03:44:16.72	251.06	20.89	-24.0	-24.9	18.6	0.00e+00	0	44	0	2894069760	8	4032
2026-01-16 03:44:17.72	250.91	20.78	-24.0	-24.9	18.6	2.27e-04	0	44	0	2900361216	8	4031
2026-01-16 03:44:18.73	250.76	20.66	-24.0	-25.1	18.5	0.00e+00	0	44	0	2905604096	8	4071
2026-01-16 03:44:19.73	250.62	20.55	-24.0	-25.0	18.5	2.99e-04	0	44	0	2910846976	8	4052
2026-01-16 03:44:20.73	250.47	20.44	-24.1	-25.2	18.4	3.13e-04	0	44	0	2917138432	8	4103
2026-01-16 03:44:21.73	250.33	20.33	-24.0	-25.0	18.6	0.00e+00	0	44	0	2922381312	8	4035
2026-01-16 03:44:22.73	250.18	20.22	-24.0	-25.0	18.5	5.84e-04	0	44	0	2928672768	8	4054
2026-01-16 03:44:23.73	250.04	20.12	-24.1	-25.1	18.5	0.00e+00	0	44	0	2933915648	8	4081
2026-01-16 03:44:24.73	249.90	20.01	-24.0	-25.1	18.5	0.00e+00	0	44	0	2939158528	8	4068
2026-01-16 03:44:25.73	249.76	19.90	-24.0	-25.0	18.5	6.57e-04	0	44	0	2945449984	8	4041
2026-01-16 03:44:26.73	249.62	19.79	-24.0	-25.0	18.5	6.63e-04	0	44	0	2950692864	8	4057
2026-01-16 03:44:27.73	249.48	19.68	-24.0	-25.1	18.5	0.00e+00	0	44	0	2955935744	8	4071
2026-01-16 03:44:28.73	249.34	19.57	-24.0	-25.1	18.5	6.29e-04	0	44	0	2962227200	8	4076
2026-01-16 03:44:29.73	249.21	19.47	-24.1	-25.3	18.3	6.67e-04	0	44	0	2967470080	8	4128
2026-01-16 03:44:30.73	249.07	19.36	-24.1	-25.2	18.4	0.00e+00	0	44	0	2972712960	8	4090
2026-01-16 03:44:31.73	248.94	19.25	-24.2	-25.6	18.2	2.91e-04	0	44	0	2979004416	8	4184
2026-01-16 03:44:32.72	248.80	19.15	-24.2	-25.5	18.2	1.86e-04	0	44	0	2984247296	8	4173
2026-01-16 03:44:33.72	248.67	19.04	-24.2	-25.6	18.2	0.00e+00	0	44	0	2990538752	8	4191
2026-01-16 03:44:34.73	248.54	18.93	-24.3	-25.7	18.1	8.00e-06	0	44	0	2995781632	8	4220
2026-01-16 03:44:35.73	248.41	18.83	-24.4	-25.9	18.0	2.97e-05	0	44	0	3001024512	8	4284
2026-01-16 03:44:36.72	248.28	18.72	-24.6	-25.7	17.8	0.00e+00	0	44	0	3007315968	9	4120
2026-01-16 03:44:37.72	248.15	18.62	-24.5	-25.5	17.9	1.72e-04	0	44	0	3012558848	9	4068
2026-01-16 03:44:38.71	248.02	18.51	-24.6	-25.7	17.8	2.41e-04	0	44	0	3017801728	9	4115
2026-01-16 03:44:39.72	247.89	18.41	-24.5	-25.7	17.9	0.00e+00	0	44	0	3024093184	9	4106
2026-01-16 03:44:40.72	247.77	18.30	-24.5	-25.6	17.9	2.49e-04	0	44	0	3029336064	9	4079
2026-01-16 03:44:41.73	247.64	18.20	-24.6	-25.8	17.8	2.61e-04	0	44	0	3034578944	9	4121
2026-01-16 03:44:42.73	247.51	18.10	-24.6	-25.7	17.8	0.00e+00	0	44	0	3040870400	9	4118
2026-01-16 03:44:43.73	247.39	17.99	-24.6	-25.9	17.7	1.83e-04	0	44	0	3046113280	9	4149
2026-01-16 03:44:44.74	247.27	17.89	-24.7	-26.0	17.7	1.83e-04	0	44	0	3052404736	9	4193
2026-01-16 03:44:45.73	247.15	17.79	-24.8	-26.2	17.6	0.00e+00	0	44	0	3057647616	9	4240
2026-01-16 03:44:46.73	247.02	17.68	-24.6	-25.9	17.7	1.75e-04	0	44	0	3062890496	9	4155
2026-01-16 03:44:47.74	246.90	17.58	-24.8	-26.2	17.6	1.80e-04	0	44	0	3069181952	9	4241
2026-01-16 03:44:48.74	246.78	17.48	-24.6	-25.8	17.8	0.00e+00	0	44	0	3074424832	9	4122
2026-01-16 03:44:49.74	246.66	17.38	-24.9	-26.4	17.5	0.00e+00	0	44	0	3079667712	9	4277
2026-01-16 03:44:50.76	246.54	17.27	-24.8	-26.1	17.6	2.01e-04	0	44	0	3085959168	9	4219
2026-01-16 03:44:51.75	246.43	17.17	-24.8	-26.2	17.6	0.00e+00	0	44	0	3091202048	9	4230
2026-01-16 03:44:52.75	246.31	17.07	-24.7	-26.1	17.6	1.53e-04	0	44	0	3096444928	9	4212
2026-01-16 03:44:53.75	246.20	16.97	-24.8	-26.2	17.5	1.36e-04	0	44	0	3102736384	9	4233
2026-01-16 03:44:54.76	246.08	16.87	-24.8	-26.3	17.5	0.00e+00	0	44	0	3107979264	9	4262
2026-01-16 03:44:55.76	245.97	16.77	-24.7	-26.1	17.5	3.54e-05	0	44	0	3114270720	9	4220
2026-01-16 03:44:56.76	245.85	16.67	-25.0	-26.7	17.2	0.00e+00	0	44	0	3119513600	9	4362
2026-01-16 03:44:57.76	245.74	16.57	-25.3	-26.7	17.0	0.00e+00	0	44	0	3125805056	10	4265
2026-01-16 03:44:58.76	245.63	16.47	-25.1	-26.3	17.2	0.00e+00	0	44	0	3131047936	10	4157
2026-01-16 03:44:59.76	245.52	16.38	-25.1	-26.5	17.1	0.00e+00	0	44	0	3136290816	10	4197
2026-01-16 03:45:00.76	245.41	16.28	-24.9	-26.0	17.3	0.00e+00	0	44	0	3142582272	10	4072
2026-01-16 03:45:01.77	245.30	16.18	-25.2	-26.7	17.0	0.00e+00	0	44	0	3147825152	10	4252
2026-01-16 03:45:02.77	245.19	16.08	-25.3	-26.7	16.9	1.10e-04	0	44	0	3153068032	10	4271
2026-01-16 03:45:03.78	245.08	15.98	-25.4	-27.1	16.7	0.00e+00	0	44	0	3159359488	10	4356
2026-01-16 03:45:04.79	244.97	15.88	-25.4	-26.6	16.7	2.28e-04	0	44	0	3164602368	11	4122
2026-01-16 03:45:05.79	244.86	15.79	-25.1	-25.9	17.1	0.00e+00	0	44	0	3169845248	11	3935
2026-01-16 03:45:06.79	244.76	15.69	-25.0	-25.6	17.2	0.00e+00	0	44	0	3176136704	11	3875
2026-01-16 03:45:07.80	244.65	15.59	-25.1	-26.3	17.1	0.00e+00	0	44	0	3181379584	10	4165
2026-01-16 03:45:08.80	244.55	15.50	-25.3	-26.8	16.9	0.00e+00	0	44	0	3187671040	10	4283
2026-01-16 03:45:09.80	244.44	15.40	-25.2	-26.6	17.0	0.00e+00	0	44	0	3192913920	10	4224
2026-01-16 03:45:10.79	244.34	15.31	-25.3	-26.9	16.8	0.00e+00	0	44	0	3198156800	10	4315
2026-01-16 03:45:11.78	244.24	15.21	-25.3	-26.9	16.8	0.00e+00	0	44	0	3204448256	10	4305
2026-01-16 03:45:12.78	244.14	15.12	-25.2	-26.7	16.9	0.00e+00	0	44	0	3209691136	10	4246
2026-01-16 03:45:13.78	244.04	15.02	-25.2	-26.6	16.9	0.00e+00	0	44	0	3214934016	10	4222
2026-01-16 03:45:14.79	243.94	14.93	-25.2	-26.5	17.0	0.00e+00	0	44	0	3221225472	10	4204
2026-01-16 03:45:15.79	243.84	14.83	-25.2	-26.7	16.9	0.00e+00	0	44	0	3226468352	10	4251
2026-01-16 03:45:16.80	243.74	14.74	-25.3	-26.7	16.9	0.00e+00	0	44	0	3231711232	10	4269
2026-01-16 03:45:17.80	243.64	14.65	-25.3	-26.9	16.8	0.00e+00	0	44	0	3238002688	10	4318
2026-01-16 03:45:18.80	243.54	14.55	-25.4	-26.6	16.6	0.00e+00	0	44	0	3243245568	11	4119
2026-01-16 03:45:19.81	243.44	14.46	-25.5	-26.8	16.5	0.00e+00	0	44	0	3249537024	11	4180
2026-01-16 03:45:20.81	243.34	14.37	-25.5	-26.8	16.6	0.00e+00	0	44	0	3254779904	11	4180
2026-01-16 03:45:21.81	243.25	14.27	-25.6	-27.0	16.4	0.00e+00	0	44	0	3261071360	11	4242
2026-01-16 03:45:22.81	243.15	14.18	-25.4	-26.6	16.6	0.00e+00	0	44	0	3266314240	11	4134
2026-01-16 03:45:23.81	243.06	14.09	-25.7	-27.1	16.4	0.00e+00	0	44	0	3271557120	11	4256
2026-01-16 03:45:24.81	242.96	14.00	-25.6	-27.0	16.4	0.00e+00	0	44	0	3277848576	11	4227
2026-01-16 03:45:25.82	242.87	13.90	-25.7	-27.2	16.3	0.00e+00	0	44	0	3283091456	11	4266
2026-01-16 03:45:26.82	242.78	13.81	-25.6	-26.9	16.4	0.00e+00	0	44	0	3288334336	11	4214
2026-01-16 03:45:27.82	242.68	13.72	-25.7	-27.3	16.3	0.00e+00	0	44	0	3294625792	11	4310
2026-01-16 03:45:28.82	242.59	13.63	-25.7	-27.2	16.3	0.00e+00	0	44	0	3299868672	11	4270
2026-01-16 03:45:29.83	242.50	13.54	-25.8	-27.5	16.1	0.00e+00	0	44	0	3305111552	11	4357
2026-01-16 03:45:30.83	242.41	13.45	-25.7	-27.1	16.3	0.00e+00	0	44	0	3311403008	11	4260
2026-01-16 03:45:31.83	242.32	13.36	-25.7	-27.2	16.2	0.00e+00	0	44	0	3316645888	11	4292
2026-01-16 03:45:32.83	242.23	13.27	-25.7	-27.1	16.3	0.00e+00	0	44	0	3322937344	11	4253
2026-01-16 03:45:33.84	242.14	13.18	-25.8	-27.3	16.2	0.00e+00	0	44	0	3328180224	11	4307
2026-01-16 03:45:34.84	242.05	13.09	-25.7	-27.1	16.3	0.00e+00	0	44	0	3333423104	11	4265
2026-01-16 03:45:35.84	241.96	13.00	-25.7	-27.2	16.3	0.00e+00	0	44	0	3339714560	11	4269
2026-01-16 03:45:36.83	241.88	12.92	-25.6	-27.0	16.3	0.00e+00	0	44	0	3344957440	11	4226
2026-01-16 03:45:37.83	241.79	12.83	-25.9	-27.6	16.0	0.00e+00	0	44	0	3350200320	11	4387
2026-01-16 03:45:38.83	241.70	12.74	-25.7	-27.2	16.3	0.00e+00	0	44	0	3356491776	11	4274
2026-01-16 03:45:39.83	241.62	12.65	-25.8	-27.3	16.1	0.00e+00	0	44	0	3361734656	11	4315
2026-01-16 03:45:40.84	241.53	12.56	-25.8	-27.4	16.1	0.00e+00	0	44	0	3366977536	11	4342
2026-01-16 03:45:41.84	241.45	12.48	-26.0	-27.4	15.7	0.00e+00	0	44	0	3373268992	12	4243
2026-01-16 03:45:42.84	241.36	12.39	-26.2	-27.8	15.5	0.00e+00	0	44	0	3378511872	12	4323
2026-01-16 03:45:43.84	241.28	12.30	-26.1	-27.6	15.6	0.00e+00	0	44	0	3384803328	12	4292
2026-01-16 03:45:44.84	241.19	12.21	-26.0	-27.4	15.7	0.00e+00	0	44	0	3390046208	12	4223
2026-01-16 03:45:45.85	241.11	12.13	-25.8	-27.0	15.9	0.00e+00	0	44	0	3395289088	12	4136
2026-01-16 03:45:46.85	241.03	12.04	-25.9	-27.1	15.8	0.00e+00	0	44	0	3401580544	12	4157
2026-01-16 03:45:47.85	240.95	11.96	-25.8	-27.0	15.9	0.00e+00	0	44	0	3406823424	12	4133
2026-01-16 03:45:48.85	240.87	11.87	-26.0	-27.3	15.7	0.00e+00	0	44	0	3412066304	12	4207
2026-01-16 03:45:49.84	240.79	11.79	-26.0	-27.3	15.7	0.00e+00	0	44	0	3418357760	12	4215
2026-01-16 03:45:50.85	240.70	11.70	-26.2	-27.8	15.4	0.00e+00	0	44	0	3423600640	12	4347
2026-01-16 03:45:51.84	240.63	11.62	-26.0	-27.3	15.7	0.00e+00	0	44	0	3428843520	12	4218
2026-01-16 03:45:52.83	240.55	11.53	-25.8	-27.0	15.9	0.00e+00	0	44	0	3435134976	12	4141
2026-01-16 03:45:53.83	240.47	11.45	-26.0	-27.5	15.6	0.00e+00	0	44	0	3440377856	12	4257
2026-01-16 03:45:54.84	240.39	11.36	-26.0	-27.4	15.7	0.00e+00	0	44	0	3446669312	12	4242
2026-01-16 03:45:55.84	240.31	11.28	-26.1	-27.6	15.5	0.00e+00	0	44	0	3451912192	12	4288
2026-01-16 03:45:56.83	240.23	11.20	-26.1	-27.6	15.5	0.00e+00	0	44	0	3457155072	12	4296
2026-01-16 03:45:57.83	240.16	11.11	-26.1	-27.7	15.5	0.00e+00	0	44	0	3463446528	12	4313
2026-01-16 03:45:58.83	240.08	11.03	-26.1	-27.7	15.5	0.00e+00	0	44	0	3468689408	12	4304
2026-01-16 03:45:59.83	240.00	10.95	-26.1	-27.7	15.5	0.00e+00	0	44	0	3473932288	12	4326
2026-01-16 03:46:00.84	239.93	10.86	-26.3	-28.2	15.2	0.00e+00	0	44	0	3480223744	12	4453
2026-01-16 03:46:01.84	239.85	10.78	-26.4	-28.4	15.0	0.00e+00	0	44	0	3485466624	12	4512
2026-01-16 03:46:02.84	239.78	10.70	-26.3	-28.1	15.2	0.00e+00	0	44	0	3490709504	12	4439
2026-01-16 03:46:03.84	239.70	10.62	-26.6	-28.3	14.8	0.00e+00	0	44	0	3497000960	13	4374
2026-01-16 03:46:04.84	239.63	10.53	-26.5	-28.0	15.0	0.00e+00	0	44	0	3502243840	13	4298
2026-01-16 03:46:05.84	239.56	10.45	-26.5	-28.1	14.9	0.00e+00	0	44	0	3508535296	13	4300
2026-01-16 03:46:06.84	239.48	10.37	-26.5	-28.0	15.0	0.00e+00	0	44	0	3513778176	13	4276
2026-01-16 03:46:07.85	239.41	10.29	-26.6	-28.3	14.8	0.00e+00	0	44	0	3519021056	13	4377
2026-01-16 03:46:08.85	239.34	10.21	-26.5	-28.1	14.9	0.00e+00	0	44	0	3525312512	13	4301
2026-01-16 03:46:09.86	239.26	10.13	-26.3	-27.6	15.2	0.00e+00	0	44	0	3530555392	13	4181
2026-01-16 03:46:10.86	239.19	10.05	-26.2	-27.4	15.3	0.00e+00	0	44	0	3536846848	13	4118
2026-01-16 03:46:11.86	239.12	9.97	-26.2	-27.4	15.3	0.00e+00	0	44	0	3542089728	13	4120
2026-01-16 03:46:12.87	239.05	9.89	-26.2	-27.3	15.3	0.00e+00	0	44	0	3547332608	13	4111
2026-01-16 03:46:13.87	238.98	9.81	-26.1	-27.3	15.2	0.00e+00	0	44	0	3553624064	13	4121
2026-01-16 03:46:14.87	238.91	9.73	-26.2	-27.4	15.3	0.00e+00	0	44	0	3558866944	13	4112
2026-01-16 03:46:15.87	238.84	9.65	-26.3	-27.5	15.0	1.10e-06	0	44	0	3564109824	13	4157
2026-01-16 03:46:16.87	238.77	9.57	-26.2	-27.3	15.3	0.00e+00	0	44	0	3570401280	13	4112
2026-01-16 03:46:17.87	238.70	9.49	-26.4	-27.9	15.0	0.00e+00	0	44	0	3575644160	13	4246
2026-01-16 03:46:18.87	238.64	9.41	-26.3	-27.6	15.1	0.00e+00	0	44	0	3581935616	13	4179
2026-01-16 03:46:19.87	238.57	9.33	-26.3	-27.7	15.1	0.00e+00	0	44	0	3587178496	13	4208
2026-01-16 03:46:20.87	238.50	9.25	-26.3	-27.6	15.2	0.00e+00	0	44	0	3592421376	13	4174
2026-01-16 03:46:21.88	238.43	9.17	-26.4	-27.9	15.0	0.00e+00	0	44	0	3598712832	13	4248
2026-01-16 03:46:22.88	238.37	9.10	-26.3	-27.7	15.1	0.00e+00	0	44	0	3603955712	13	4199
2026-01-16 03:46:23.89	238.30	9.02	-26.5	-28.1	14.8	0.00e+00	0	44	0	3609198592	13	4327
2026-01-16 03:46:24.89	238.23	8.94	-26.4	-27.7	15.1	0.00e+00	0	44	0	3615490048	13	4207
2026-01-16 03:46:25.90	238.17	8.86	-26.4	-27.9	14.9	0.00e+00	0	44	0	3620732928	13	4271
2026-01-16 03:46:26.91	238.10	8.78	-26.5	-28.0	14.9	0.00e+00	0	44	0	3627024384	13	4297
2026-01-16 03:46:27.92	238.03	8.71	-26.3	-27.6	15.1	0.00e+00	0	44	0	3632267264	13	4195
2026-01-16 03:46:28.91	237.97	8.63	-26.6	-28.3	14.7	0.00e+00	0	44	0	3637510144	13	4386
2026-01-16 03:46:29.91	237.91	8.55	-26.5	-28.2	14.7	0.00e+00	0	44	0	3643801600	13	4335
2026-01-16 03:46:30.92	237.84	8.48	-26.4	-27.9	14.9	0.00e+00	0	44	0	3649044480	13	4260
2026-01-16 03:46:31.91	237.78	8.40	-26.7	-28.5	14.5	5.70e-06	0	44	0	3655335936	13	4448
2026-01-16 03:46:32.91	237.72	8.32	-26.7	-28.6	14.5	0.00e+00	0	44	0	3660578816	13	4475
2026-01-16 03:46:33.91	237.65	8.25	-26.5	-28.0	14.8	3.40e-06	0	44	0	3665821696	13	4308
2026-01-16 03:46:34.92	237.59	8.17	-26.7	-28.5	14.5	9.72e-05	0	44	0	3672113152	13	4435
2026-01-16 03:46:35.92	237.53	8.10	-26.5	-28.1	14.7	0.00e+00	0	44	0	3677356032	13	4339
2026-01-16 03:46:36.92	237.47	8.02	-26.6	-28.4	14.5	9.95e-05	0	44	0	3682598912	13	4408
2026-01-16 03:46:37.92	237.40	7.95	-26.8	-28.8	14.3	1.32e-04	0	44	0	3688890368	13	4530
2026-01-16 03:46:38.92	237.34	7.87	-26.6	-28.4	14.5	0.00e+00	0	44	0	3694133248	13	4404
2026-01-16 03:46:39.93	237.28	7.80	-26.7	-28.5	14.4	1.27e-04	0	44	0	3699376128	13	4447
2026-01-16 03:46:40.93	237.22	7.72	-26.7	-28.5	14.5	0.00e+00	0	44	0	3705667584	13	4441
2026-01-16 03:46:41.93	237.16	7.65	-26.7	-28.6	14.4	0.00e+00	0	44	0	3710910464	13	4477
2026-01-16 03:46:42.92	237.10	7.58	-26.6	-28.4	14.5	1.10e-06	0	44	0	3717201920	13	4417
2026-01-16 03:46:43.92	237.04	7.50	-26.8	-28.8	14.2	1.49e-04	0	44	0	3722444800	13	4540
2026-01-16 03:46:44.92	236.98	7.43	-26.6	-28.2	14.6	0.00e+00	0	44	0	3727687680	13	4371
2026-01-16 03:46:45.93	236.92	7.35	-26.9	-28.5	14.1	1.44e-04	0	44	0	3733979136	14	4342
2026-01-16 03:46:46.93	236.87	7.28	-26.6	-27.8	14.5	1.88e-04	0	44	0	3739222016	14	4127
2026-01-16 03:46:47.93	236.81	7.21	-26.8	-28.3	14.2	0.00e+00	0	44	0	3744464896	14	4270
2026-01-16 03:46:48.92	236.75	7.13	-26.7	-28.5	14.3	1.73e-04	0	44	0	3750756352	13	4459
2026-01-16 03:46:49.92	236.69	7.06	-33.0	-43.8	3.8	8.42e-01	0	44	104	3752853504	25	12536
2026-01-16 03:46:50.93	236.63	6.99	-33.4	-44.9	3.8	8.47e-01	0	44	104	3752853504	26	13461
2026-01-16 03:46:51.92	236.58	6.92	-33.7	-44.9	3.8	8.46e-01	0	44	104	3752853504	27	13096
2026-01-16 03:46:52.92	236.52	6.84	-33.9	-45.3	3.8	8.46e-01	0	44	104	3752853504	27	13413

#Closed at: 2026-01-16 03:46:53
#Recorded file [3752 MB]: D:/data/31010_260116_063541.dat