passes_logs/2026/01/16/R2M6_AANII_01/R2M6_AANII_01__20260116_023701_SUOMI_NPP_rec.log

#Pass ID: 20260116_023701_SUOMI NPP
#Satellite: SUOMI NPP
#Configuration: NPP
#almurnet v.1.7.20240730
#Start time: 2026-01-16 02:37:01

#Version: 2.2.20231116
#Station: R2M6_AANII_01
#Location: 30.233357 lon 59.946436 lat
#TLE: 1 37849U 11061A   26015.52691075  .00000052  00000+0  45753-4 0  9993
#TLE: 2 37849  98.7811 317.5709 0002448  62.7632 297.3794 14.19525354736784

#Time	Az	El	Level	Level2	SNR	BER	BlckErr	Temp	State	Recorded	gain1	gain2
2026-01-16 02:37:01.20	9.55	7.01	-32.4	-39.0	4.4	1.39e+00	0	41	0	0	25	7637
2026-01-16 02:37:02.19	9.45	7.07	-32.1	-37.5	4.7	1.30e+00	0	41	104	0	24	6717
2026-01-16 02:37:03.20	9.35	7.13	-32.1	-37.2	7.0	1.68e-01	0	41	0	0	24	6491
2026-01-16 02:37:04.20	9.25	7.19	-32.1	-37.4	6.9	1.81e-01	0	41	0	1048576	24	6617
2026-01-16 02:37:05.20	9.14	7.25	-32.2	-37.7	6.7	1.87e-01	0	41	0	3145728	24	6780
2026-01-16 02:37:06.20	9.04	7.31	-32.2	-38.1	6.4	2.28e-01	0	41	0	5242880	24	7040
2026-01-16 02:37:07.20	8.94	7.37	-32.3	-38.6	6.1	2.38e-01	0	41	0	7340032	24	7378
2026-01-16 02:37:08.20	8.83	7.43	-32.4	-38.8	6.0	3.08e-01	0	41	0	9437184	24	7519
2026-01-16 02:37:09.20	8.73	7.49	-32.5	-38.7	5.7	4.19e-01	0	41	0	10485760	25	7420
2026-01-16 02:37:10.21	8.62	7.55	-32.2	-37.5	6.5	3.35e-01	0	42	0	12582912	25	6619
2026-01-16 02:37:11.21	8.52	7.61	-32.1	-36.8	7.0	1.91e-01	0	42	0	14680064	25	6150
2026-01-16 02:37:12.21	8.41	7.67	-31.9	-35.9	7.7	1.06e-01	0	42	0	16777216	25	5667
2026-01-16 02:37:13.21	8.31	7.73	-31.7	-35.4	8.5	5.81e-02	0	42	0	17825792	24	5498
2026-01-16 02:37:14.20	8.20	7.79	-31.7	-35.2	8.8	3.06e-02	0	42	0	19922944	24	5406
2026-01-16 02:37:15.20	8.09	7.85	-31.4	-34.3	9.4	1.55e-02	0	42	0	22020096	24	5024
2026-01-16 02:37:16.20	7.99	7.91	-31.3	-34.2	9.9	1.12e-02	0	42	0	24117248	23	5028
2026-01-16 02:37:17.20	7.88	7.97	-31.4	-34.7	9.5	1.10e-02	0	42	0	26214400	23	5245
2026-01-16 02:37:18.20	7.77	8.04	-31.5	-34.8	9.4	1.64e-02	0	42	0	27262976	23	5302
2026-01-16 02:37:19.21	7.66	8.10	-31.4	-34.7	9.5	1.46e-02	0	42	0	29360128	23	5276
2026-01-16 02:37:20.21	7.55	8.16	-31.5	-34.9	9.3	2.36e-02	0	42	0	31457280	23	5359
2026-01-16 02:37:21.21	7.44	8.22	-31.4	-34.8	9.4	1.60e-02	0	42	0	33554432	23	5285
2026-01-16 02:37:22.21	7.33	8.28	-31.5	-35.0	9.4	1.34e-02	0	42	0	35651584	23	5393
2026-01-16 02:37:23.21	7.22	8.34	-31.5	-34.8	9.4	1.34e-02	0	42	0	36700160	23	5305
2026-01-16 02:37:24.21	7.11	8.40	-31.4	-34.7	9.5	1.16e-02	0	42	0	38797312	23	5224
2026-01-16 02:37:25.21	6.99	8.46	-31.3	-34.3	9.9	1.05e-02	0	42	0	40894464	23	5064
2026-01-16 02:37:26.21	6.88	8.52	-31.4	-34.5	9.7	1.29e-02	0	42	0	42991616	23	5160
2026-01-16 02:37:27.22	6.77	8.59	-31.2	-33.8	10.2	6.68e-03	0	42	0	45088768	23	4864
2026-01-16 02:37:28.22	6.66	8.65	-31.1	-33.6	10.4	5.07e-03	0	42	0	46137344	23	4796
2026-01-16 02:37:29.23	6.54	8.71	-31.1	-33.5	10.5	3.88e-03	0	42	0	48234496	23	4729
2026-01-16 02:37:30.23	6.43	8.77	-31.2	-33.9	10.4	3.90e-03	0	42	0	50331648	23	4908
2026-01-16 02:37:31.23	6.31	8.83	-31.2	-33.9	10.2	5.09e-03	0	42	0	52428800	23	4909
2026-01-16 02:37:32.23	6.20	8.89	-31.3	-34.3	9.9	7.57e-03	0	42	0	53477376	23	5083
2026-01-16 02:37:33.23	6.08	8.95	-31.2	-33.8	10.2	8.04e-03	0	42	0	55574528	23	4855
2026-01-16 02:37:34.24	5.96	9.02	-31.1	-33.4	10.6	4.75e-03	0	42	0	57671680	23	4715
2026-01-16 02:37:35.24	5.85	9.08	-31.2	-33.7	10.4	4.40e-03	0	42	0	59768832	23	4826
2026-01-16 02:37:36.24	5.73	9.14	-31.3	-34.6	10.1	7.69e-03	0	42	0	61865984	22	5271
2026-01-16 02:37:37.24	5.61	9.20	-31.3	-34.5	10.1	6.52e-03	0	42	0	62914560	22	5245
2026-01-16 02:37:38.24	5.49	9.26	-31.4	-35.0	9.9	6.10e-03	0	42	0	65011712	22	5459
2026-01-16 02:37:39.24	5.37	9.32	-31.2	-34.4	10.2	6.62e-03	0	42	0	67108864	22	5192
2026-01-16 02:37:40.24	5.25	9.39	-31.2	-34.3	10.3	5.38e-03	0	42	0	69206016	22	5135
2026-01-16 02:37:41.24	5.13	9.45	-31.4	-35.1	9.8	6.38e-03	0	42	0	71303168	22	5476
2026-01-16 02:37:42.25	5.01	9.51	-31.5	-34.8	9.5	1.55e-02	0	42	0	72351744	23	5298
2026-01-16 02:37:43.25	4.89	9.57	-31.4	-34.7	9.7	1.15e-02	0	42	0	74448896	23	5220
2026-01-16 02:37:44.25	4.77	9.63	-31.5	-34.7	9.7	1.11e-02	0	42	0	76546048	23	5220
2026-01-16 02:37:45.25	4.65	9.69	-31.4	-34.3	10.0	1.00e-02	0	42	0	78643200	23	5051
2026-01-16 02:37:46.26	4.52	9.76	-31.4	-35.0	9.9	5.97e-03	0	43	0	80740352	22	5437
2026-01-16 02:37:47.26	4.40	9.82	-31.3	-34.4	10.3	6.21e-03	0	42	0	81788928	22	5198
2026-01-16 02:37:48.26	4.28	9.88	-31.2	-34.3	10.4	5.49e-03	0	43	0	83886080	22	5118
2026-01-16 02:37:49.26	4.15	9.94	-31.2	-34.3	10.4	5.89e-03	0	43	0	85983232	22	5136
2026-01-16 02:37:50.26	4.03	10.00	-31.3	-34.4	10.3	5.89e-03	0	42	0	88080384	22	5177
2026-01-16 02:37:51.26	3.90	10.07	-31.0	-33.7	10.8	3.92e-03	0	43	0	90177536	22	4903
2026-01-16 02:37:52.26	3.78	10.13	-31.0	-33.5	11.0	1.91e-03	0	43	0	91226112	22	4812
2026-01-16 02:37:53.26	3.65	10.19	-30.9	-33.3	11.1	1.51e-03	0	43	0	93323264	22	4741
2026-01-16 02:37:54.26	3.52	10.25	-31.1	-34.0	10.6	2.22e-03	0	43	0	95420416	22	5022
2026-01-16 02:37:55.26	3.40	10.31	-30.9	-33.3	11.1	1.91e-03	0	43	0	97517568	22	4741
2026-01-16 02:37:56.27	3.27	10.38	-30.8	-33.0	11.3	1.06e-03	0	43	0	98566144	22	4638
2026-01-16 02:37:57.26	3.14	10.44	-31.0	-33.5	11.0	1.67e-03	0	43	0	100663296	22	4809
2026-01-16 02:37:58.26	3.01	10.50	-30.8	-33.1	11.3	1.16e-03	0	43	0	102760448	22	4655
2026-01-16 02:37:59.26	2.88	10.56	-30.9	-33.3	11.1	1.34e-03	0	42	0	104857600	22	4731
2026-01-16 02:38:00.25	2.75	10.62	-31.0	-33.4	11.1	1.65e-03	0	43	0	106954752	22	4769
2026-01-16 02:38:01.25	2.62	10.69	-30.9	-33.2	11.3	1.19e-03	0	43	0	108003328	22	4678
2026-01-16 02:38:02.24	2.49	10.75	-30.8	-33.0	11.5	6.65e-04	0	43	0	110100480	22	4621
2026-01-16 02:38:03.24	2.36	10.81	-30.9	-33.1	11.3	9.17e-04	0	43	0	112197632	22	4670
2026-01-16 02:38:04.24	2.23	10.87	-30.7	-32.7	11.6	9.46e-04	0	43	0	114294784	22	4507
2026-01-16 02:38:05.24	2.09	10.93	-30.9	-33.2	11.3	6.90e-04	0	43	0	115343360	22	4681
2026-01-16 02:38:06.24	1.96	11.00	-31.0	-33.5	11.1	1.88e-03	0	43	0	117440512	22	4810
2026-01-16 02:38:07.24	1.83	11.06	-31.0	-33.6	11.0	1.55e-03	0	43	0	119537664	22	4838
2026-01-16 02:38:08.24	1.69	11.12	-31.1	-33.8	10.8	3.12e-03	0	43	0	121634816	22	4944
2026-01-16 02:38:09.24	1.56	11.18	-31.0	-33.7	10.9	2.56e-03	0	43	0	123731968	22	4895
2026-01-16 02:38:10.25	1.42	11.25	-30.9	-33.3	11.2	1.62e-03	0	43	0	124780544	22	4747
2026-01-16 02:38:11.24	1.28	11.31	-30.9	-33.4	11.1	1.33e-03	0	43	0	126877696	22	4766
2026-01-16 02:38:12.24	1.15	11.37	-31.0	-33.5	11.1	1.49e-03	0	43	0	128974848	22	4814
2026-01-16 02:38:13.24	1.01	11.43	-30.8	-32.8	11.5	1.19e-03	0	43	0	131072000	22	4563
2026-01-16 02:38:14.24	0.87	11.49	-30.9	-33.2	11.3	9.40e-04	0	43	0	133169152	22	4678
2026-01-16 02:38:15.24	0.73	11.56	-30.9	-33.1	11.3	1.31e-03	0	43	0	134217728	22	4673
2026-01-16 02:38:16.24	0.59	11.62	-31.0	-33.4	11.2	1.36e-03	0	43	0	136314880	22	4778
2026-01-16 02:38:17.24	0.45	11.68	-31.1	-33.7	11.0	1.97e-03	0	43	0	138412032	22	4887
2026-01-16 02:38:18.25	0.31	11.74	-30.8	-32.9	11.5	1.40e-03	0	43	0	140509184	22	4589
2026-01-16 02:38:19.25	0.17	11.80	-30.8	-32.9	11.5	6.71e-04	0	43	0	141557760	22	4590
2026-01-16 02:38:20.25	0.03	11.87	-30.5	-32.3	11.8	5.63e-04	0	43	0	143654912	22	4437
2026-01-16 02:38:21.25	359.88	11.93	-30.6	-32.4	11.8	5.93e-04	0	43	0	145752064	22	4414
2026-01-16 02:38:22.24	359.74	11.99	-30.7	-32.6	11.8	4.52e-04	0	43	0	147849216	22	4478
2026-01-16 02:38:23.24	359.60	12.05	-30.6	-32.9	11.8	5.48e-04	0	43	0	149946368	21	4675
2026-01-16 02:38:24.25	359.45	12.11	-30.6	-32.8	11.9	4.10e-04	0	43	0	150994944	21	4655
2026-01-16 02:38:25.25	359.31	12.18	-30.6	-32.8	12.0	3.79e-04	0	43	0	153092096	21	4627
2026-01-16 02:38:26.25	359.16	12.24	-30.7	-33.2	11.7	3.44e-04	0	43	0	155189248	21	4777
2026-01-16 02:38:27.24	359.02	12.30	-30.8	-33.4	11.5	7.12e-04	0	43	0	157286400	21	4881
2026-01-16 02:38:28.24	358.87	12.36	-30.7	-33.2	11.7	6.16e-04	0	43	0	159383552	21	4775
2026-01-16 02:38:29.24	358.72	12.42	-30.7	-33.1	11.7	5.20e-04	0	43	0	160432128	21	4742
2026-01-16 02:38:30.24	358.57	12.49	-30.8	-33.4	11.6	5.39e-04	0	43	0	162529280	21	4850
2026-01-16 02:38:31.24	358.42	12.55	-30.8	-33.3	11.6	8.15e-04	0	43	0	164626432	21	4823
2026-01-16 02:38:32.24	358.27	12.61	-30.8	-33.4	11.5	7.35e-04	0	43	0	166723584	21	4859
2026-01-16 02:38:33.25	358.12	12.67	-30.9	-33.7	11.3	9.12e-04	0	43	0	168820736	21	4976
2026-01-16 02:38:34.24	357.97	12.73	-30.9	-33.7	11.4	1.02e-03	0	43	0	169869312	21	4996
2026-01-16 02:38:35.24	357.82	12.79	-30.8	-33.5	11.4	7.98e-04	0	43	0	171966464	21	4911
2026-01-16 02:38:36.24	357.67	12.86	-31.0	-33.4	11.2	1.24e-03	0	43	0	174063616	22	4762
2026-01-16 02:38:37.25	357.51	12.92	-30.9	-33.2	11.4	1.24e-03	0	43	0	176160768	22	4679
2026-01-16 02:38:38.25	357.36	12.98	-31.1	-33.9	10.9	2.21e-03	0	43	0	178257920	22	4957
2026-01-16 02:38:39.26	357.21	13.04	-31.1	-33.8	10.9	1.93e-03	0	43	0	179306496	22	4913
2026-01-16 02:38:40.26	357.05	13.10	-31.1	-33.9	10.9	2.97e-03	0	43	0	181403648	22	4957
2026-01-16 02:38:41.25	356.90	13.16	-31.0	-33.4	11.2	1.86e-03	0	43	0	183500800	22	4771
2026-01-16 02:38:42.26	356.74	13.23	-30.9	-33.7	11.3	1.23e-03	0	43	0	185597952	21	4978
2026-01-16 02:38:43.26	356.58	13.29	-30.8	-33.3	11.6	9.47e-04	0	43	0	186646528	21	4817
2026-01-16 02:38:44.27	356.42	13.35	-30.7	-33.2	11.7	1.00e-03	0	43	0	188743680	21	4793
2026-01-16 02:38:45.27	356.27	13.41	-30.7	-33.1	11.8	1.06e-03	0	43	0	190840832	21	4741
2026-01-16 02:38:46.26	356.11	13.47	-30.8	-33.3	11.7	8.12e-04	0	43	0	192937984	21	4824
2026-01-16 02:38:47.26	355.95	13.53	-30.9	-33.7	11.4	8.11e-04	0	43	0	195035136	21	4970
2026-01-16 02:38:48.26	355.79	13.59	-31.2	-34.0	10.9	3.03e-03	0	43	0	196083712	22	4982
2026-01-16 02:38:49.26	355.63	13.65	-31.2	-34.0	10.8	2.18e-03	0	43	0	198180864	22	4979
2026-01-16 02:38:50.26	355.47	13.71	-31.2	-34.0	10.8	1.86e-03	0	43	0	200278016	22	5010
2026-01-16 02:38:51.26	355.30	13.77	-31.0	-33.6	11.1	2.58e-03	0	43	0	202375168	22	4845
2026-01-16 02:38:52.26	355.14	13.83	-31.2	-34.1	10.8	1.73e-03	0	43	0	204472320	22	5015
2026-01-16 02:38:53.26	354.98	13.89	-31.0	-33.5	11.2	1.84e-03	0	43	0	205520896	22	4812
2026-01-16 02:38:54.27	354.81	13.96	-30.9	-33.7	11.3	1.12e-03	0	43	0	207618048	21	4987
2026-01-16 02:38:55.27	354.65	14.02	-30.8	-33.3	11.7	7.90e-04	0	43	0	209715200	21	4815
2026-01-16 02:38:56.27	354.48	14.08	-30.8	-33.3	11.6	9.27e-04	0	43	0	211812352	21	4829
2026-01-16 02:38:57.28	354.31	14.14	-30.9	-33.6	11.5	8.11e-04	0	43	0	213909504	21	4922
2026-01-16 02:38:58.28	354.15	14.20	-30.8	-33.5	11.5	8.89e-04	0	43	0	214958080	21	4901
2026-01-16 02:38:59.28	353.98	14.26	-31.0	-33.9	11.3	1.42e-03	0	43	0	217055232	21	5036
2026-01-16 02:39:00.28	353.81	14.32	-31.2	-34.0	10.9	1.75e-03	0	43	0	219152384	22	4976
2026-01-16 02:39:01.28	353.64	14.38	-31.1	-33.7	11.1	1.21e-03	0	43	0	221249536	22	4875
2026-01-16 02:39:02.29	353.47	14.44	-31.0	-33.5	11.2	1.76e-03	0	43	0	222298112	22	4810
2026-01-16 02:39:03.29	353.30	14.50	-31.1	-33.6	11.2	1.82e-03	0	43	0	224395264	22	4837
2026-01-16 02:39:04.29	353.13	14.56	-30.8	-32.8	11.7	8.23e-04	0	43	0	226492416	22	4532
2026-01-16 02:39:05.30	352.96	14.62	-31.0	-33.8	11.3	1.30e-03	0	43	0	228589568	21	5015
2026-01-16 02:39:06.30	352.78	14.67	-31.1	-33.6	11.2	1.91e-03	0	43	0	230686720	22	4842
2026-01-16 02:39:07.30	352.61	14.73	-31.2	-34.2	10.8	2.51e-03	0	43	0	231735296	22	5072
2026-01-16 02:39:08.30	352.44	14.79	-31.4	-34.9	10.2	5.14e-03	0	43	0	233832448	22	5372
2026-01-16 02:39:09.30	352.26	14.85	-31.4	-34.8	10.3	4.22e-03	0	43	0	235929600	22	5344
2026-01-16 02:39:10.30	352.09	14.91	-31.4	-34.7	10.4	4.88e-03	0	43	0	238026752	22	5294
2026-01-16 02:39:11.30	351.91	14.97	-31.4	-34.7	10.4	4.33e-03	0	43	0	240123904	22	5293
2026-01-16 02:39:12.30	351.73	15.03	-31.3	-34.3	10.7	3.83e-03	0	43	0	241172480	22	5089
2026-01-16 02:39:13.30	351.56	15.09	-30.9	-33.2	11.4	1.40e-03	0	43	0	243269632	22	4681
2026-01-16 02:39:14.31	351.38	15.14	-30.9	-33.0	11.6	1.07e-03	0	43	0	245366784	22	4620
2026-01-16 02:39:15.31	351.20	15.20	-30.8	-33.2	11.8	1.04e-03	0	43	0	247463936	21	4771
2026-01-16 02:39:16.31	351.02	15.26	-30.7	-33.1	11.9	4.26e-04	0	43	0	249561088	21	4726
2026-01-16 02:39:17.31	350.84	15.32	-30.8	-33.3	11.7	6.87e-04	0	43	0	250609664	21	4808
2026-01-16 02:39:18.31	350.66	15.38	-30.6	-32.7	12.1	6.50e-04	0	43	0	252706816	21	4606
2026-01-16 02:39:19.32	350.47	15.43	-30.4	-32.2	12.4	1.68e-04	0	43	0	254803968	21	4424
2026-01-16 02:39:20.32	350.29	15.49	-30.3	-32.1	12.5	3.74e-04	0	43	0	256901120	21	4383
2026-01-16 02:39:21.32	350.11	15.55	-30.3	-32.3	12.7	3.05e-04	0	43	0	258998272	20	4570
2026-01-16 02:39:22.33	349.92	15.61	-30.4	-32.6	12.5	1.22e-04	0	43	0	260046848	20	4675
2026-01-16 02:39:23.32	349.74	15.66	-30.2	-32.2	12.7	3.53e-04	0	43	0	262144000	20	4536
2026-01-16 02:39:24.32	349.55	15.72	-30.2	-32.2	12.7	2.53e-04	0	43	0	264241152	20	4520
2026-01-16 02:39:25.31	349.37	15.77	-30.2	-32.2	12.7	7.55e-05	0	43	0	266338304	20	4528
2026-01-16 02:39:26.32	349.18	15.83	-30.3	-32.5	12.6	2.52e-04	0	43	0	267386880	20	4620
2026-01-16 02:39:27.31	349.00	15.89	-30.4	-32.7	12.4	2.90e-04	0	44	0	269484032	20	4690
2026-01-16 02:39:28.32	348.81	15.94	-30.4	-32.7	12.5	1.43e-04	0	43	0	271581184	20	4692
2026-01-16 02:39:29.32	348.62	16.00	-30.4	-32.7	12.5	3.00e-04	0	43	0	273678336	20	4685
2026-01-16 02:39:30.32	348.43	16.05	-30.3	-32.5	12.6	2.44e-04	0	43	0	275775488	20	4639
2026-01-16 02:39:31.32	348.24	16.11	-30.0	-31.6	13.2	2.82e-05	0	43	0	276824064	20	4306
2026-01-16 02:39:32.32	348.05	16.16	-29.9	-31.3	13.5	1.44e-05	0	43	0	278921216	20	4232
2026-01-16 02:39:33.32	347.85	16.22	-29.8	-31.1	13.5	1.54e-04	0	43	0	281018368	20	4173
2026-01-16 02:39:34.32	347.66	16.27	-29.9	-31.2	13.4	9.10e-06	0	44	0	283115520	20	4194
2026-01-16 02:39:35.33	347.47	16.33	-30.0	-31.6	13.3	1.36e-04	0	43	0	285212672	20	4310
2026-01-16 02:39:36.32	347.28	16.38	-29.9	-31.4	13.4	1.67e-05	0	43	0	286261248	20	4249
2026-01-16 02:39:37.32	347.08	16.44	-29.9	-31.4	13.4	2.13e-05	0	43	0	288358400	20	4241
2026-01-16 02:39:38.32	346.89	16.49	-29.9	-31.2	13.5	5.64e-05	0	43	0	290455552	20	4210
2026-01-16 02:39:39.32	346.69	16.54	-29.7	-30.9	13.7	5.30e-06	0	43	0	292552704	20	4091
2026-01-16 02:39:40.32	346.49	16.60	-30.0	-31.5	13.3	7.60e-06	0	43	0	294649856	20	4275
2026-01-16 02:39:41.32	346.30	16.65	-29.9	-31.4	13.4	1.23e-04	0	43	0	295698432	20	4248
2026-01-16 02:39:42.32	346.10	16.70	-29.8	-31.0	13.6	1.01e-04	0	43	0	297795584	20	4141
2026-01-16 02:39:43.32	345.90	16.76	-29.8	-31.0	13.6	9.90e-06	0	43	0	299892736	20	4147
2026-01-16 02:39:44.31	345.70	16.81	-29.9	-31.4	13.3	1.15e-04	0	43	0	301989888	20	4256
2026-01-16 02:39:45.32	345.50	16.86	-30.0	-31.4	13.3	1.13e-04	0	43	0	303038464	20	4270
2026-01-16 02:39:46.31	345.30	16.91	-30.0	-31.4	13.3	2.05e-05	0	43	0	305135616	20	4260
2026-01-16 02:39:47.32	345.10	16.96	-29.9	-31.3	13.4	9.07e-05	0	43	0	307232768	20	4219
2026-01-16 02:39:48.32	344.89	17.02	-29.9	-31.1	13.5	6.79e-05	0	43	0	309329920	20	4180
2026-01-16 02:39:49.32	344.69	17.07	-29.8	-30.9	13.7	9.90e-06	0	43	0	311427072	20	4092
2026-01-16 02:39:50.32	344.49	17.12	-29.7	-30.6	13.9	1.50e-06	0	43	0	312475648	20	4027
2026-01-16 02:39:51.32	344.28	17.17	-29.7	-30.7	13.8	1.23e-04	0	43	0	314572800	20	4052
2026-01-16 02:39:52.32	344.08	17.22	-29.9	-31.2	13.5	3.80e-06	0	43	0	316669952	20	4189
2026-01-16 02:39:53.31	343.87	17.27	-30.0	-31.6	13.2	1.29e-05	0	43	0	318767104	20	4310
2026-01-16 02:39:54.31	343.67	17.32	-30.1	-31.8	13.2	1.83e-05	0	43	0	320864256	20	4371
2026-01-16 02:39:55.31	343.46	17.37	-30.2	-32.0	13.0	2.28e-05	0	43	0	321912832	20	4440
2026-01-16 02:39:56.31	343.25	17.42	-30.1	-31.7	13.2	2.82e-05	0	43	0	324009984	20	4354
2026-01-16 02:39:57.31	343.04	17.47	-29.9	-31.4	13.4	1.37e-05	0	43	0	326107136	20	4247
2026-01-16 02:39:58.31	342.83	17.52	-29.7	-30.8	13.8	8.30e-06	0	43	0	328204288	20	4056
2026-01-16 02:39:59.30	342.63	17.56	-29.7	-30.7	13.9	2.20e-06	0	43	0	329252864	20	4029
2026-01-16 02:40:00.31	342.41	17.61	-29.8	-30.9	13.7	4.50e-06	0	43	0	331350016	20	4092
2026-01-16 02:40:01.30	342.21	17.66	-29.7	-30.7	13.8	2.20e-06	0	43	0	333447168	20	4046
2026-01-16 02:40:02.30	341.99	17.71	-29.8	-30.9	13.7	4.50e-06	0	43	0	335544320	20	4104
2026-01-16 02:40:03.29	341.78	17.75	-29.8	-31.0	13.7	9.90e-06	0	43	0	337641472	20	4131
2026-01-16 02:40:04.29	341.57	17.80	-29.8	-31.0	13.7	7.60e-06	0	43	0	338690048	20	4117
2026-01-16 02:40:05.29	341.36	17.85	-29.8	-31.0	13.6	5.30e-06	0	43	0	340787200	20	4137
2026-01-16 02:40:06.29	341.14	17.89	-29.8	-31.0	13.7	1.67e-05	0	43	0	342884352	20	4112
2026-01-16 02:40:07.29	340.93	17.94	-29.8	-30.8	13.8	4.50e-06	0	44	0	344981504	20	4072
2026-01-16 02:40:08.28	340.71	17.98	-29.3	-29.6	14.6	7.00e-07	0	43	0	346030080	20	3731
2026-01-16 02:40:09.28	340.50	18.03	-29.1	-29.6	15.0	7.24e-05	0	43	0	348127232	19	3809
2026-01-16 02:40:10.29	340.28	18.07	-29.4	-30.3	14.6	0.00e+00	0	43	0	350224384	19	4001
2026-01-16 02:40:11.29	340.06	18.12	-29.5	-30.6	14.3	0.00e+00	0	44	0	352321536	19	4096
2026-01-16 02:40:12.30	339.84	18.16	-29.4	-30.4	14.5	7.00e-07	0	44	0	354418688	19	4036
2026-01-16 02:40:13.30	339.62	18.21	-29.4	-30.2	14.6	0.00e+00	0	43	0	355467264	19	3980
2026-01-16 02:40:14.30	339.40	18.25	-29.4	-30.4	14.5	7.00e-07	0	43	0	357564416	19	4021
2026-01-16 02:40:15.30	339.18	18.29	-29.4	-30.4	14.5	0.00e+00	0	44	0	359661568	19	4011
2026-01-16 02:40:16.30	338.96	18.34	-29.4	-30.2	14.6	1.50e-06	0	43	0	361758720	19	3963
2026-01-16 02:40:17.30	338.73	18.38	-29.7	-31.2	14.0	6.94e-05	0	44	0	363855872	19	4239
2026-01-16 02:40:18.29	338.51	18.42	-29.9	-31.6	13.8	1.50e-06	0	43	0	364904448	19	4372
2026-01-16 02:40:19.30	338.29	18.46	-30.1	-31.7	13.4	1.52e-05	0	44	0	367001600	20	4317
2026-01-16 02:40:20.30	338.07	18.50	-30.1	-31.7	13.3	2.88e-04	0	44	0	369098752	20	4328
2026-01-16 02:40:21.31	337.84	18.54	-30.3	-32.2	13.0	3.05e-05	0	43	0	371195904	20	4479
2026-01-16 02:40:22.31	337.61	18.58	-29.9	-31.1	13.7	1.83e-05	0	44	0	373293056	20	4135
2026-01-16 02:40:23.31	337.39	18.62	-29.7	-30.7	13.9	8.30e-06	0	44	0	374341632	20	4039
2026-01-16 02:40:24.31	337.16	18.66	-29.8	-31.4	13.9	2.20e-06	0	44	0	376438784	19	4307
2026-01-16 02:40:25.31	336.94	18.70	-29.8	-31.4	13.8	5.30e-06	0	44	0	378535936	19	4328
2026-01-16 02:40:26.32	336.71	18.74	-29.9	-31.7	13.7	3.00e-06	0	43	0	380633088	19	4418
2026-01-16 02:40:27.32	336.48	18.78	-30.0	-31.8	13.6	7.00e-07	0	44	0	382730240	19	4460
2026-01-16 02:40:28.32	336.25	18.82	-29.9	-31.7	13.7	3.80e-06	0	43	0	383778816	19	4421
2026-01-16 02:40:29.32	336.02	18.86	-29.8	-31.5	13.8	9.90e-06	0	44	0	385875968	19	4358
2026-01-16 02:40:30.32	335.79	18.89	-29.6	-30.9	14.2	1.50e-06	0	44	0	387973120	19	4184
2026-01-16 02:40:31.32	335.56	18.93	-29.3	-30.2	14.7	1.50e-06	0	44	0	390070272	19	3958
2026-01-16 02:40:32.32	335.33	18.97	-29.1	-29.9	15.0	0.00e+00	0	44	0	391118848	18	3986
2026-01-16 02:40:33.32	335.10	19.00	-28.8	-29.3	15.5	0.00e+00	0	43	0	393216000	18	3813
2026-01-16 02:40:34.32	334.87	19.04	-28.9	-29.6	15.3	0.00e+00	0	43	0	395313152	18	3904
2026-01-16 02:40:35.32	334.64	19.07	-28.7	-29.7	15.6	0.00e+00	0	44	0	397410304	17	4001
2026-01-16 02:40:36.32	334.40	19.11	-28.7	-29.6	15.6	0.00e+00	0	43	0	399507456	17	3976
2026-01-16 02:40:37.32	334.17	19.14	-28.9	-30.0	15.4	0.00e+00	0	44	0	400556032	17	4086
2026-01-16 02:40:38.32	333.94	19.18	-28.9	-30.1	15.3	0.00e+00	0	43	0	402653184	17	4118
2026-01-16 02:40:39.33	333.70	19.21	-29.1	-30.0	15.1	0.00e+00	0	44	0	404750336	18	4004
2026-01-16 02:40:40.32	333.47	19.24	-29.1	-30.0	15.1	0.00e+00	0	44	0	406847488	18	4000
2026-01-16 02:40:41.33	333.23	19.27	-28.9	-29.5	15.4	0.00e+00	0	44	0	408944640	18	3857
2026-01-16 02:40:42.33	332.99	19.31	-28.8	-29.4	15.5	0.00e+00	0	43	0	409993216	18	3823
2026-01-16 02:40:43.32	332.76	19.34	-29.1	-30.1	15.0	0.00e+00	0	44	0	412090368	18	4019
2026-01-16 02:40:44.32	332.52	19.37	-29.2	-30.2	15.0	0.00e+00	0	44	0	414187520	18	4062
2026-01-16 02:40:45.32	332.28	19.40	-29.3	-30.5	14.8	0.00e+00	0	44	0	416284672	18	4126
2026-01-16 02:40:46.32	332.05	19.43	-29.5	-30.6	14.4	0.00e+00	0	44	0	418381824	19	4081
2026-01-16 02:40:47.32	331.81	19.46	-29.5	-30.6	14.4	0.00e+00	0	43	0	419430400	19	4088
2026-01-16 02:40:48.31	331.57	19.49	-29.8	-31.4	14.0	3.00e-06	0	44	0	421527552	19	4298
2026-01-16 02:40:49.32	331.33	19.51	-29.0	-30.3	14.1	7.00e-07	0	44	0	423624704	19	4201
2026-01-16 02:40:50.31	331.09	19.54	-29.7	-31.5	13.7	3.80e-06	0	43	0	425721856	18	4436
2026-01-16 02:40:51.31	330.85	19.57	-29.5	-30.6	14.4	2.20e-06	0	43	0	426770432	19	4084
2026-01-16 02:40:52.31	330.61	19.60	-29.5	-30.6	13.6	0.00e+00	0	44	0	428867584	19	4072
2026-01-16 02:40:53.31	330.37	19.62	-29.6	-30.9	14.0	0.00e+00	0	44	0	430964736	19	4156
2026-01-16 02:40:54.31	330.13	19.65	-29.8	-31.3	14.0	0.00e+00	0	44	0	433061888	19	4279
2026-01-16 02:40:55.31	329.89	19.67	-29.9	-31.7	13.7	8.89e-04	0	43	0	435159040	19	4406
2026-01-16 02:40:56.31	329.64	19.70	-30.0	-31.4	13.5	9.90e-06	0	43	0	436207616	20	4227
2026-01-16 02:40:57.31	329.40	19.72	-30.1	-31.7	13.4	1.29e-05	0	44	0	438304768	20	4320
2026-01-16 02:40:58.31	329.16	19.75	-30.0	-31.3	13.6	1.90e-05	0	44	0	440401920	20	4211
2026-01-16 02:40:59.32	328.91	19.77	-30.0	-31.5	13.5	9.10e-06	0	44	0	442499072	20	4252
2026-01-16 02:41:00.32	328.67	19.79	-30.1	-31.7	13.4	4.50e-06	0	44	0	444596224	20	4316
2026-01-16 02:41:01.31	328.43	19.82	-30.2	-31.9	13.2	1.90e-05	0	44	0	445644800	20	4375
2026-01-16 02:41:02.32	328.18	19.84	-30.0	-31.3	13.6	3.04e-04	0	44	0	447741952	20	4193
2026-01-16 02:41:03.32	327.93	19.86	-29.8	-30.9	13.9	3.00e-06	0	44	0	449839104	20	4069
2026-01-16 02:41:04.33	327.69	19.88	-29.8	-30.8	13.9	0.00e+00	0	43	0	451936256	20	4044
2026-01-16 02:41:05.33	327.44	19.90	-30.0	-31.8	13.7	1.50e-06	0	43	0	454033408	19	4435
2026-01-16 02:41:06.33	327.19	19.92	-30.0	-31.3	13.6	1.14e-05	0	43	0	455081984	20	4188
2026-01-16 02:41:07.34	326.95	19.94	-30.1	-31.7	13.3	5.30e-06	0	44	0	457179136	20	4328
2026-01-16 02:41:08.34	326.70	19.96	-30.2	-31.8	13.3	1.06e-05	0	44	0	459276288	20	4372
2026-01-16 02:41:09.33	326.45	19.98	-30.2	-32.1	13.1	2.36e-05	0	44	0	461373440	20	4454
2026-01-16 02:41:10.33	326.21	19.99	-30.3	-32.3	12.9	5.41e-05	0	43	0	462422016	20	4532
2026-01-16 02:41:11.33	325.96	20.01	-30.3	-32.4	12.8	4.42e-05	0	43	0	464519168	20	4559
2026-01-16 02:41:12.33	325.71	20.03	-30.4	-32.5	12.8	5.34e-05	0	44	0	466616320	20	4602
2026-01-16 02:41:13.34	325.46	20.04	-30.7	-32.8	12.3	4.03e-04	0	44	0	468713472	21	4597
2026-01-16 02:41:14.34	325.21	20.06	-30.9	-33.4	11.9	3.02e-04	0	44	0	470810624	21	4798
2026-01-16 02:41:15.34	324.97	20.07	-30.6	-32.6	12.4	2.34e-04	0	43	0	471859200	21	4540
2026-01-16 02:41:16.33	324.72	20.09	-30.5	-32.3	12.5	1.23e-04	0	44	0	473956352	21	4443
2026-01-16 02:41:17.34	324.47	20.10	-30.5	-32.3	12.5	1.22e-04	0	44	0	476053504	21	4452
2026-01-16 02:41:18.34	324.22	20.11	-30.5	-32.2	12.7	9.68e-05	0	43	0	478150656	21	4415
2026-01-16 02:41:19.33	323.97	20.13	-30.3	-31.9	12.9	7.70e-05	0	44	0	480247808	21	4290
2026-01-16 02:41:20.33	323.72	20.14	-30.3	-31.9	12.8	8.54e-05	0	44	0	481296384	21	4312
2026-01-16 02:41:21.33	323.47	20.15	-30.3	-31.9	12.9	5.72e-05	0	44	0	483393536	21	4301
2026-01-16 02:41:22.33	323.22	20.16	-30.1	-31.7	13.3	2.89e-05	0	44	0	485490688	20	4332
2026-01-16 02:41:23.32	322.97	20.17	-30.0	-31.5	13.4	1.83e-04	0	44	0	487587840	20	4273
2026-01-16 02:41:24.32	322.72	20.18	-30.1	-31.8	13.2	1.83e-05	0	44	0	488636416	20	4367
2026-01-16 02:41:25.32	322.47	20.19	-30.2	-32.0	13.1	2.36e-05	0	44	0	490733568	20	4441
2026-01-16 02:41:26.32	322.22	20.20	-30.2	-31.9	13.2	2.21e-05	0	44	0	492830720	20	4400
2026-01-16 02:41:27.31	321.97	20.21	-30.3	-32.2	12.9	5.18e-05	0	44	0	494927872	20	4505
2026-01-16 02:41:28.31	321.72	20.21	-30.3	-32.2	12.9	5.56e-05	0	43	0	497025024	20	4504
2026-01-16 02:41:29.32	321.47	20.22	-30.2	-32.2	13.0	3.12e-05	0	44	0	498073600	20	4493
2026-01-16 02:41:30.32	321.22	20.23	-30.4	-32.6	12.7	4.95e-05	0	44	0	500170752	20	4651
2026-01-16 02:41:31.32	320.97	20.23	-30.5	-32.5	12.5	9.38e-05	0	44	0	502267904	21	4501
2026-01-16 02:41:32.33	320.71	20.24	-30.6	-32.7	12.3	1.61e-04	0	44	0	504365056	21	4564
2026-01-16 02:41:33.32	320.46	20.24	-30.5	-32.3	12.6	9.68e-05	0	44	0	506462208	21	4433
2026-01-16 02:41:34.32	320.21	20.25	-30.6	-32.8	12.2	1.85e-04	0	44	0	507510784	21	4608
2026-01-16 02:41:35.32	319.96	20.25	-30.5	-32.5	12.4	1.58e-04	0	44	0	509607936	21	4520
2026-01-16 02:41:36.32	319.71	20.25	-30.5	-32.3	12.6	6.71e-05	0	44	0	511705088	21	4429
2026-01-16 02:41:37.33	319.46	20.25	-30.4	-32.0	12.7	7.40e-05	0	44	0	513802240	21	4355
2026-01-16 02:41:38.32	319.21	20.26	-30.3	-31.9	12.9	8.01e-05	0	44	0	515899392	21	4319
2026-01-16 02:41:39.32	318.95	20.26	-30.3	-31.8	12.9	7.47e-05	0	44	0	516947968	21	4269
2026-01-16 02:41:40.33	318.70	20.26	-30.2	-31.4	13.2	2.44e-05	0	44	0	519045120	21	4158
2026-01-16 02:41:41.33	318.45	20.26	-30.0	-31.1	13.4	1.18e-04	0	44	0	521142272	21	4056
2026-01-16 02:41:42.33	318.20	20.26	-29.9	-30.8	13.6	1.22e-05	0	44	0	523239424	21	3961
2026-01-16 02:41:43.34	317.94	20.26	-30.0	-31.4	13.5	9.10e-06	0	44	0	524288000	20	4229
2026-01-16 02:41:44.34	317.69	20.25	-30.1	-31.7	13.3	7.30e-04	0	44	0	526385152	20	4333
2026-01-16 02:41:45.33	317.44	20.25	-30.0	-31.3	13.5	1.22e-05	0	44	0	528482304	20	4220
2026-01-16 02:41:46.34	317.19	20.25	-29.9	-31.3	13.6	1.24e-03	0	43	0	530579456	20	4211
2026-01-16 02:41:47.34	316.94	20.24	-30.0	-31.6	13.3	1.34e-03	0	44	0	532676608	20	4304
2026-01-16 02:41:48.34	316.68	20.24	-30.0	-31.5	13.5	9.90e-06	0	44	0	533725184	20	4274
2026-01-16 02:41:49.34	316.43	20.24	-30.2	-31.9	13.2	1.63e-03	0	44	0	535822336	20	4414
2026-01-16 02:41:50.34	316.18	20.23	-30.2	-32.1	13.1	2.59e-05	0	44	0	537919488	20	4446
2026-01-16 02:41:51.34	315.93	20.22	-30.3	-32.3	13.0	3.66e-05	0	44	0	540016640	20	4521
2026-01-16 02:41:52.35	315.68	20.22	-30.5	-32.4	12.6	1.74e-03	0	44	0	542113792	21	4464
2026-01-16 02:41:53.35	315.43	20.21	-30.8	-33.1	12.1	1.71e-03	0	44	0	543162368	21	4707
2026-01-16 02:41:54.34	315.18	20.20	-30.9	-33.1	11.8	5.71e-04	0	44	0	545259520	22	4597
2026-01-16 02:41:55.34	314.93	20.19	-30.7	-32.9	12.2	1.60e-03	0	44	0	547356672	21	4635
2026-01-16 02:41:56.34	314.68	20.19	-30.5	-32.4	12.5	1.22e-03	0	44	0	549453824	21	4484
2026-01-16 02:41:57.33	314.43	20.18	-30.5	-32.4	12.6	1.26e-04	0	43	0	550502400	21	4465
2026-01-16 02:41:58.33	314.18	20.17	-30.4	-32.1	12.7	1.01e-03	0	44	0	552599552	21	4383
2026-01-16 02:41:59.34	313.92	20.16	-30.4	-32.5	12.8	1.28e-03	0	44	0	554696704	20	4590
2026-01-16 02:42:00.33	313.68	20.14	-30.3	-32.2	13.0	5.18e-05	0	44	0	556793856	20	4503
2026-01-16 02:42:01.33	313.43	20.13	-30.0	-31.3	13.5	1.58e-03	0	44	0	558891008	20	4208
2026-01-16 02:42:02.33	313.18	20.12	-30.0	-31.8	13.7	1.74e-03	0	44	0	559939584	19	4440
2026-01-16 02:42:03.34	312.93	20.11	-29.7	-30.6	14.0	4.50e-06	0	43	0	562036736	20	4000
2026-01-16 02:42:04.34	312.68	20.09	-29.4	-30.3	14.6	1.69e-03	0	44	0	564133888	19	3985
2026-01-16 02:42:05.33	312.43	20.08	-29.2	-30.2	14.9	1.53e-03	0	44	0	566231040	18	4062
2026-01-16 02:42:06.33	312.18	20.07	-29.2	-30.3	14.9	0.00e+00	0	44	0	568328192	18	4093
2026-01-16 02:42:07.33	311.93	20.05	-29.1	-30.1	15.0	1.25e-03	0	44	0	569376768	18	4034
2026-01-16 02:42:08.33	311.68	20.04	-29.1	-30.0	15.1	0.00e+00	0	44	0	571473920	18	4007
2026-01-16 02:42:09.33	311.44	20.02	-29.1	-30.0	15.1	0.00e+00	0	44	0	573571072	18	4008
2026-01-16 02:42:10.33	311.19	20.00	-29.0	-29.9	15.2	9.11e-04	0	44	0	575668224	18	3957
2026-01-16 02:42:11.33	310.94	19.99	-29.2	-30.3	14.9	8.31e-04	0	44	0	577765376	18	4086
2026-01-16 02:42:12.32	310.70	19.97	-28.9	-29.6	15.3	0.00e+00	0	43	0	578813952	18	3889
2026-01-16 02:42:13.31	310.45	19.95	-29.0	-29.8	15.2	3.26e-04	0	44	0	580911104	18	3933
2026-01-16 02:42:14.31	310.20	19.93	-29.0	-29.7	15.2	2.43e-04	0	44	0	583008256	18	3926
2026-01-16 02:42:15.31	309.96	19.91	-29.2	-30.4	14.9	0.00e+00	0	44	0	585105408	18	4111
2026-01-16 02:42:16.31	309.71	19.89	-29.3	-30.6	14.7	4.09e-04	0	43	0	586153984	18	4171
2026-01-16 02:42:17.32	309.46	19.87	-29.3	-30.5	14.8	4.12e-04	0	44	0	588251136	18	4132
2026-01-16 02:42:18.32	309.22	19.85	-29.2	-30.2	15.0	7.00e-07	0	44	0	590348288	18	4060
2026-01-16 02:42:19.32	308.97	19.83	-29.2	-30.3	14.9	0.00e+00	0	43	0	592445440	18	4083
2026-01-16 02:42:20.32	308.73	19.81	-29.1	-30.1	15.0	1.56e-04	0	44	0	594542592	18	4029
2026-01-16 02:42:21.32	308.48	19.78	-29.1	-30.0	15.1	0.00e+00	0	44	0	595591168	18	4007
2026-01-16 02:42:22.33	308.24	19.76	-29.0	-29.9	15.2	0.00e+00	0	44	0	597688320	18	3960
2026-01-16 02:42:23.32	308.00	19.74	-29.1	-30.0	15.2	2.40e-04	0	44	0	599785472	18	3980
2026-01-16 02:42:24.32	307.75	19.71	-28.9	-29.5	15.4	0.00e+00	0	44	0	601882624	18	3858
2026-01-16 02:42:25.32	307.51	19.69	-29.1	-30.0	15.2	0.00e+00	0	44	0	603979776	18	3986
2026-01-16 02:42:26.32	307.27	19.66	-29.1	-30.0	15.1	0.00e+00	0	44	0	605028352	18	3985
2026-01-16 02:42:27.32	307.03	19.64	-29.1	-30.0	15.1	0.00e+00	0	44	0	607125504	18	4000
2026-01-16 02:42:28.32	306.78	19.61	-29.1	-30.1	15.1	8.33e-04	0	44	0	609222656	18	4027
2026-01-16 02:42:29.31	306.55	19.58	-29.1	-30.0	15.1	0.00e+00	0	44	0	611319808	18	3999
2026-01-16 02:42:30.32	306.30	19.56	-29.2	-30.1	15.1	7.00e-07	0	44	0	612368384	18	4031
2026-01-16 02:42:31.32	306.06	19.53	-29.3	-30.4	14.9	1.38e-03	0	44	0	614465536	18	4099
2026-01-16 02:42:32.32	305.82	19.50	-29.2	-30.2	15.0	0.00e+00	0	44	0	616562688	18	4061
2026-01-16 02:42:33.31	305.59	19.47	-29.2	-30.3	15.0	0.00e+00	0	43	0	618659840	18	4067
2026-01-16 02:42:34.31	305.35	19.44	-29.0	-29.9	15.1	5.44e-04	0	44	0	620756992	18	3960
2026-01-16 02:42:35.31	305.11	19.41	-29.2	-30.3	15.0	3.42e-04	0	44	0	621805568	18	4076
2026-01-16 02:42:36.31	304.87	19.38	-29.3	-30.6	14.7	1.50e-06	0	44	0	623902720	18	4175
2026-01-16 02:42:37.32	304.63	19.35	-29.3	-30.5	14.8	0.00e+00	0	44	0	625999872	18	4134
2026-01-16 02:42:38.32	304.39	19.32	-29.5	-30.6	14.4	1.36e-04	0	44	0	628097024	19	4067
2026-01-16 02:42:39.31	304.16	19.29	-29.8	-31.4	14.0	7.00e-07	0	44	0	630194176	19	4301
2026-01-16 02:42:40.31	303.92	19.26	-30.1	-31.8	13.3	6.80e-06	0	44	0	631242752	20	4360
2026-01-16 02:42:41.31	303.69	19.22	-30.2	-31.8	13.3	1.75e-05	0	44	0	633339904	20	4355
2026-01-16 02:42:42.31	303.45	19.19	-30.5	-32.3	12.5	2.89e-05	0	43	0	635437056	21	4442
2026-01-16 02:42:43.32	303.21	19.16	-30.4	-32.1	12.8	8.01e-05	0	44	0	637534208	21	4353
2026-01-16 02:42:44.32	302.98	19.12	-30.5	-32.3	12.6	8.54e-05	0	44	0	639631360	21	4435
2026-01-16 02:42:45.32	302.75	19.09	-30.3	-31.9	12.8	8.39e-05	0	44	0	640679936	21	4295
2026-01-16 02:42:46.32	302.51	19.06	-30.5	-32.3	12.6	7.62e-05	0	44	0	642777088	21	4448
2026-01-16 02:42:47.32	302.28	19.02	-30.4	-32.1	12.7	7.47e-05	0	44	0	644874240	21	4363
2026-01-16 02:42:48.31	302.05	18.98	-30.2	-31.3	13.2	2.67e-05	0	44	0	646971392	21	4126
2026-01-16 02:42:49.32	301.82	18.95	-30.2	-31.4	13.2	1.83e-05	0	44	0	648019968	21	4136
2026-01-16 02:42:50.31	301.59	18.91	-30.2	-31.5	13.1	1.90e-05	0	44	0	650117120	21	4174
2026-01-16 02:42:51.32	301.36	18.87	-30.2	-31.5	13.1	3.05e-05	0	44	0	652214272	21	4166
2026-01-16 02:42:52.33	301.12	18.84	-30.3	-31.8	12.9	4.34e-05	0	44	0	654311424	21	4274
2026-01-16 02:42:53.33	300.90	18.80	-30.4	-31.9	12.8	7.24e-05	0	44	0	656408576	21	4322
2026-01-16 02:42:54.33	300.67	18.76	-30.3	-31.7	13.0	4.88e-05	0	44	0	657457152	21	4231
2026-01-16 02:42:55.34	300.44	18.72	-30.3	-31.8	12.9	4.95e-05	0	44	0	659554304	21	4267
2026-01-16 02:42:56.34	300.21	18.68	-30.4	-32.0	12.8	8.31e-05	0	44	0	661651456	21	4329
2026-01-16 02:42:57.34	299.98	18.64	-30.4	-32.2	12.7	6.71e-05	0	44	0	663748608	21	4385
2026-01-16 02:42:58.34	299.76	18.60	-30.4	-32.1	12.7	8.16e-05	0	44	0	665845760	21	4374
2026-01-16 02:42:59.34	299.53	18.56	-30.5	-32.2	12.6	8.31e-05	0	44	0	666894336	21	4415
2026-01-16 02:43:00.34	299.30	18.52	-30.3	-31.7	12.9	6.17e-05	0	44	0	668991488	21	4244
2026-01-16 02:43:01.33	299.08	18.48	-30.3	-31.6	13.0	4.27e-05	0	44	0	671088640	21	4216
2026-01-16 02:43:02.33	298.86	18.44	-30.2	-31.3	13.2	3.81e-05	0	44	0	673185792	21	4120
2026-01-16 02:43:03.34	298.63	18.40	-30.0	-30.9	13.5	1.14e-05	0	44	0	674234368	21	4007
2026-01-16 02:43:04.35	298.41	18.36	-30.1	-31.1	13.4	2.05e-05	0	44	0	676331520	21	4048
2026-01-16 02:43:05.34	298.19	18.31	-30.0	-31.4	13.5	1.52e-05	0	43	0	678428672	20	4240
2026-01-16 02:43:06.34	297.97	18.27	-30.1	-31.8	13.2	1.52e-05	0	44	0	680525824	20	4356
2026-01-16 02:43:07.35	297.74	18.23	-30.1	-31.8	13.2	2.51e-05	0	44	0	682622976	20	4362
2026-01-16 02:43:08.35	297.52	18.18	-30.1	-31.7	13.2	2.59e-05	0	44	0	684720128	20	4320
2026-01-16 02:43:09.35	297.31	18.14	-30.1	-31.6	13.2	1.37e-05	0	44	0	685768704	20	4321
2026-01-16 02:43:10.35	297.09	18.09	-30.0	-31.4	13.4	1.06e-05	0	44	0	687865856	20	4260
2026-01-16 02:43:11.36	296.87	18.05	-30.0	-31.5	13.4	2.05e-05	0	44	0	689963008	20	4271
2026-01-16 02:43:12.37	296.65	18.00	-30.0	-31.6	13.3	1.90e-05	0	44	0	692060160	20	4296
2026-01-16 02:43:13.37	296.43	17.96	-29.8	-31.0	13.6	1.06e-05	0	44	0	693108736	20	4131
2026-01-16 02:43:14.37	296.21	17.91	-29.5	-30.2	14.2	3.80e-06	0	44	0	695205888	20	3904
2026-01-16 02:43:15.37	296.00	17.87	-29.5	-30.2	14.2	3.80e-06	0	44	0	697303040	20	3895
2026-01-16 02:43:16.37	295.78	17.82	-29.4	-30.3	14.4	7.00e-07	0	44	0	699400192	19	4014
2026-01-16 02:43:17.37	295.57	17.77	-29.3	-30.1	14.6	0.00e+00	0	43	0	701497344	19	3942
2026-01-16 02:43:18.36	295.36	17.73	-29.3	-30.0	14.6	7.00e-07	0	44	0	702545920	19	3934
2026-01-16 02:43:19.36	295.14	17.68	-29.3	-30.2	14.5	0.00e+00	0	44	0	704643072	19	3981
2026-01-16 02:43:20.37	294.93	17.63	-29.3	-30.1	14.6	7.00e-07	0	44	0	706740224	19	3946
2026-01-16 02:43:21.37	294.72	17.58	-29.3	-30.1	14.5	0.00e+00	0	44	0	708837376	19	3945
2026-01-16 02:43:22.37	294.51	17.53	-29.5	-30.5	14.2	7.00e-07	0	44	0	710934528	19	4067
2026-01-16 02:43:23.37	294.30	17.49	-29.5	-30.5	14.3	7.00e-07	0	44	0	711983104	19	4075
2026-01-16 02:43:24.38	294.09	17.44	-29.7	-31.2	13.8	2.20e-06	0	44	0	714080256	19	4273
2026-01-16 02:43:25.38	293.88	17.39	-30.0	-31.5	13.3	1.29e-05	0	44	0	716177408	20	4271
2026-01-16 02:43:26.38	293.67	17.34	-30.3	-32.4	12.7	3.58e-05	0	44	0	718274560	20	4565
2026-01-16 02:43:27.38	293.46	17.29	-30.5	-32.5	12.3	7.73e-04	0	44	0	720371712	21	4522
2026-01-16 02:43:28.38	293.26	17.24	-30.5	-32.5	12.2	2.12e-04	0	44	0	721420288	21	4543
2026-01-16 02:43:29.38	293.05	17.19	-30.6	-32.7	12.2	2.88e-04	0	44	0	723517440	21	4582
2026-01-16 02:43:30.39	292.84	17.14	-30.3	-32.5	12.6	1.78e-04	0	44	0	725614592	20	4619
2026-01-16 02:43:31.38	292.64	17.09	-30.3	-32.4	12.7	9.76e-05	0	44	0	727711744	20	4577
2026-01-16 02:43:32.38	292.44	17.03	-30.3	-32.5	12.6	8.31e-05	0	44	0	728760320	20	4601
2026-01-16 02:43:33.38	292.23	16.98	-30.5	-32.5	12.2	1.64e-04	0	44	0	730857472	21	4513
2026-01-16 02:43:34.38	292.03	16.93	-30.5	-32.9	12.3	1.24e-03	0	44	0	732954624	20	4750
2026-01-16 02:43:35.38	291.83	16.88	-30.6	-32.7	12.1	3.20e-04	0	44	0	735051776	21	4599
2026-01-16 02:43:36.38	291.63	16.83	-30.7	-33.0	11.9	5.13e-04	0	44	0	737148928	21	4715
2026-01-16 02:43:37.39	291.42	16.77	-30.8	-33.3	11.6	5.45e-04	0	44	0	738197504	21	4818
2026-01-16 02:43:38.39	291.22	16.72	-30.7	-33.0	11.8	7.05e-04	0	44	0	740294656	21	4725
2026-01-16 02:43:39.38	291.03	16.67	-30.7	-33.2	11.7	6.03e-04	0	44	0	742391808	21	4773
2026-01-16 02:43:40.39	290.83	16.62	-30.6	-32.9	11.9	3.91e-04	0	44	0	744488960	21	4690
2026-01-16 02:43:41.39	290.63	16.56	-30.3	-32.0	12.6	1.43e-04	0	44	0	746586112	21	4346
2026-01-16 02:43:42.39	290.43	16.51	-30.3	-32.0	12.6	1.01e-04	0	44	0	747634688	21	4356
2026-01-16 02:43:43.40	290.23	16.45	-30.3	-31.9	12.6	7.78e-05	0	44	0	749731840	21	4332
2026-01-16 02:43:44.40	290.04	16.40	-30.4	-32.2	12.4	1.27e-04	0	44	0	751828992	21	4426
2026-01-16 02:43:45.41	289.84	16.35	-30.4	-32.0	12.5	3.89e-04	0	44	0	753926144	21	4357
2026-01-16 02:43:46.41	289.65	16.29	-30.2	-32.2	12.8	4.73e-05	0	44	0	756023296	20	4504
2026-01-16 02:43:47.40	289.46	16.24	-30.2	-32.1	12.8	7.17e-05	0	44	0	757071872	20	4496
2026-01-16 02:43:48.40	289.26	16.18	-30.2	-32.1	12.8	3.94e-04	0	44	0	759169024	20	4491
2026-01-16 02:43:49.40	289.07	16.13	-30.3	-32.5	12.5	4.32e-04	0	44	0	761266176	20	4621
2026-01-16 02:43:50.41	288.88	16.07	-30.2	-32.3	12.7	9.46e-05	0	44	0	763363328	20	4539
2026-01-16 02:43:51.41	288.69	16.01	-30.5	-32.9	12.2	1.21e-04	0	44	0	765460480	20	4775
2026-01-16 02:43:52.41	288.50	15.96	-30.6	-32.8	12.0	4.16e-04	0	44	0	766509056	21	4628
2026-01-16 02:43:53.41	288.31	15.90	-30.8	-33.5	11.6	4.52e-04	0	44	0	768606208	21	4887
2026-01-16 02:43:54.41	288.12	15.85	-30.9	-33.3	11.3	1.27e-03	0	44	0	770703360	22	4728
2026-01-16 02:43:55.40	287.94	15.79	-30.7	-33.3	11.6	1.61e-03	0	44	0	772800512	21	4822
2026-01-16 02:43:56.41	287.75	15.73	-30.5	-32.5	12.1	4.35e-04	0	44	0	773849088	21	4547
2026-01-16 02:43:57.41	287.56	15.68	-30.3	-32.4	12.5	1.54e-04	0	43	0	775946240	20	4599
2026-01-16 02:43:58.41	287.38	15.62	-29.9	-31.3	13.2	3.98e-04	0	44	0	778043392	20	4256
2026-01-16 02:43:59.41	287.19	15.56	-29.7	-30.8	13.5	1.14e-05	0	44	0	780140544	20	4092
2026-01-16 02:44:00.41	287.01	15.51	-29.8	-31.5	13.5	3.40e-04	0	44	0	782237696	19	4386
2026-01-16 02:44:01.42	286.82	15.45	-29.7	-31.3	13.6	5.30e-06	0	44	0	783286272	19	4334
2026-01-16 02:44:02.43	286.64	15.39	-29.9	-31.5	13.1	2.05e-05	0	43	0	785383424	20	4306
2026-01-16 02:44:03.42	286.46	15.33	-30.2	-32.1	12.7	8.05e-04	0	44	0	787480576	20	4494
2026-01-16 02:44:04.43	286.27	15.28	-30.4	-32.7	12.3	1.09e-04	0	44	0	789577728	20	4709
2026-01-16 02:44:05.43	286.09	15.22	-30.4	-32.4	12.1	3.26e-04	0	44	0	791674880	21	4504
2026-01-16 02:44:06.43	285.91	15.16	-30.7	-33.2	11.5	1.92e-03	0	44	0	792723456	21	4808
2026-01-16 02:44:07.43	285.73	15.10	-30.9	-33.8	11.1	2.34e-03	0	44	0	794820608	21	5055
2026-01-16 02:44:08.43	285.56	15.04	-31.0	-33.8	10.8	1.89e-03	0	44	0	796917760	22	4945
2026-01-16 02:44:09.43	285.38	14.98	-31.1	-33.9	10.7	4.42e-03	0	44	0	799014912	22	4987
2026-01-16 02:44:10.43	285.20	14.93	-30.9	-33.3	11.2	3.49e-03	0	44	0	800063488	22	4759
2026-01-16 02:44:11.42	285.03	14.87	-31.0	-33.5	11.0	2.08e-03	0	44	0	802160640	22	4848
2026-01-16 02:44:12.43	284.85	14.81	-30.9	-33.9	11.1	2.92e-03	0	44	0	804257792	21	5083
2026-01-16 02:44:13.44	284.67	14.75	-30.8	-33.6	11.2	2.53e-03	0	44	0	806354944	21	4972
2026-01-16 02:44:14.44	284.50	14.69	-30.8	-33.7	11.2	9.60e-04	0	44	0	808452096	21	4981
2026-01-16 02:44:15.44	284.33	14.63	-30.6	-33.0	11.6	1.67e-03	0	44	0	809500672	21	4754
2026-01-16 02:44:16.44	284.15	14.57	-30.5	-32.8	11.8	1.73e-03	0	44	0	811597824	21	4674
2026-01-16 02:44:17.44	283.98	14.51	-30.7	-33.3	11.4	7.11e-04	0	44	0	813694976	21	4870
2026-01-16 02:44:18.44	283.81	14.45	-30.8	-33.7	11.1	3.00e-03	0	44	0	815792128	21	5015
2026-01-16 02:44:19.44	283.64	14.39	-30.6	-33.0	11.6	2.69e-03	0	44	0	817889280	21	4752
2026-01-16 02:44:20.44	283.47	14.33	-30.5	-32.6	11.9	4.36e-04	0	44	0	818937856	21	4584
2026-01-16 02:44:21.44	283.30	14.27	-30.4	-32.8	12.1	2.23e-03	0	44	0	821035008	20	4749
2026-01-16 02:44:22.43	283.13	14.21	-30.4	-32.8	12.2	2.46e-04	0	44	0	823132160	20	4745
2026-01-16 02:44:23.43	282.96	14.15	-30.2	-32.4	12.4	1.95e-04	0	44	0	825229312	20	4608
2026-01-16 02:44:24.44	282.80	14.09	-30.2	-32.4	12.4	2.08e-03	0	44	0	827326464	20	4619
2026-01-16 02:44:25.44	282.63	14.03	-30.3	-32.6	12.3	1.96e-03	0	44	0	828375040	20	4704
2026-01-16 02:44:26.43	282.46	13.97	-30.4	-32.4	12.0	3.51e-04	0	44	0	830472192	21	4522
2026-01-16 02:44:27.44	282.30	13.91	-30.6	-32.9	11.7	2.05e-03	0	44	0	832569344	21	4696
2026-01-16 02:44:28.44	282.13	13.85	-30.7	-33.2	11.5	2.19e-03	0	44	0	834666496	21	4799
2026-01-16 02:44:29.45	281.97	13.79	-30.7	-33.4	11.4	1.05e-03	0	44	0	835715072	21	4880
2026-01-16 02:44:30.45	281.80	13.73	-30.7	-33.2	11.6	2.25e-03	0	44	0	837812224	21	4786
2026-01-16 02:44:31.45	281.64	13.67	-30.6	-32.8	11.8	2.02e-03	0	44	0	839909376	21	4665
2026-01-16 02:44:32.45	281.48	13.61	-30.4	-32.3	12.1	3.97e-04	0	44	0	842006528	21	4500
2026-01-16 02:44:33.44	281.32	13.55	-30.2	-32.3	12.5	6.14e-04	0	44	0	844103680	20	4579
2026-01-16 02:44:34.45	281.16	13.48	-30.0	-31.8	12.8	4.74e-04	0	44	0	845152256	20	4422
2026-01-16 02:44:35.45	281.00	13.42	-30.0	-31.8	12.7	5.11e-05	0	44	0	847249408	20	4433
2026-01-16 02:44:36.45	280.84	13.36	-30.2	-32.2	12.5	7.78e-05	0	44	0	849346560	20	4540
2026-01-16 02:44:37.45	280.68	13.30	-30.2	-32.2	12.5	3.53e-04	0	44	0	851443712	20	4533
2026-01-16 02:44:38.45	280.52	13.24	-30.3	-32.6	12.2	1.36e-04	0	44	0	853540864	20	4702
2026-01-16 02:44:39.46	280.37	13.18	-30.4	-32.9	12.1	2.10e-04	0	44	0	854589440	20	4802
2026-01-16 02:44:40.45	280.21	13.12	-30.4	-32.7	12.1	2.25e-04	0	44	0	856686592	20	4732
2026-01-16 02:44:41.46	280.05	13.05	-30.5	-32.6	11.9	4.10e-04	0	44	0	858783744	21	4585
2026-01-16 02:44:42.46	279.90	12.99	-30.4	-32.4	11.9	1.50e-03	0	44	0	860880896	21	4543
2026-01-16 02:44:43.46	279.74	12.93	-30.6	-33.0	11.6	5.53e-04	0	44	0	862978048	21	4758
2026-01-16 02:44:44.47	279.59	12.87	-30.5	-32.8	11.7	6.49e-04	0	44	0	864026624	21	4679
2026-01-16 02:44:45.47	279.43	12.81	-30.5	-32.9	11.7	2.02e-03	0	44	0	866123776	21	4700
2026-01-16 02:44:46.47	279.28	12.74	-30.6	-33.1	11.5	6.46e-04	0	44	0	868220928	21	4776
2026-01-16 02:44:47.47	279.13	12.68	-30.6	-33.1	11.5	9.09e-04	0	44	0	870318080	21	4789
2026-01-16 02:44:48.48	278.98	12.62	-30.6	-32.8	11.7	1.97e-03	0	44	0	872415232	21	4687
2026-01-16 02:44:49.49	278.83	12.56	-30.5	-32.6	11.8	1.92e-03	0	44	0	873463808	21	4593
2026-01-16 02:44:50.49	278.68	12.50	-30.5	-32.5	12.0	3.26e-04	0	44	0	875560960	21	4560
2026-01-16 02:44:51.48	278.53	12.43	-30.4	-32.4	12.1	3.55e-04	0	44	0	877658112	21	4505
2026-01-16 02:44:52.49	278.38	12.37	-30.5	-32.7	11.8	1.54e-03	0	44	0	879755264	21	4605
2026-01-16 02:44:53.48	278.23	12.31	-30.3	-32.0	12.3	2.45e-04	0	44	0	880803840	21	4396
2026-01-16 02:44:54.49	278.08	12.25	-30.1	-32.0	12.6	1.09e-04	0	44	0	882900992	20	4475
2026-01-16 02:44:55.48	277.94	12.19	-30.1	-31.9	12.7	5.67e-04	0	44	0	884998144	20	4433
2026-01-16 02:44:56.49	277.79	12.12	-29.8	-31.2	13.2	4.42e-05	0	44	0	887095296	20	4201
2026-01-16 02:44:57.50	277.64	12.06	-29.7	-30.8	13.4	2.67e-05	0	44	0	889192448	20	4102
2026-01-16 02:44:58.50	277.50	12.00	-29.4	-30.5	13.9	7.60e-06	0	44	0	890241024	19	4093
2026-01-16 02:44:59.50	277.35	11.94	-29.4	-30.5	14.0	2.20e-06	0	44	0	892338176	19	4095
2026-01-16 02:45:00.50	277.21	11.87	-29.5	-31.3	13.9	2.20e-06	0	44	0	894435328	18	4402
2026-01-16 02:45:01.49	277.07	11.81	-29.3	-30.8	14.1	1.50e-06	0	44	0	896532480	18	4264
2026-01-16 02:45:02.50	276.92	11.75	-29.2	-30.5	14.3	7.00e-07	0	44	0	898629632	18	4185
2026-01-16 02:45:03.50	276.78	11.69	-29.3	-30.6	14.2	2.20e-06	0	44	0	899678208	18	4213
2026-01-16 02:45:04.50	276.64	11.63	-29.5	-30.8	13.8	3.80e-06	0	44	0	901775360	19	4179
2026-01-16 02:45:05.50	276.50	11.56	-29.6	-31.0	13.6	2.20e-06	0	44	0	903872512	19	4229
2026-01-16 02:45:06.51	276.36	11.50	-29.8	-31.5	13.3	1.70e-03	0	44	0	905969664	19	4388
2026-01-16 02:45:07.51	276.22	11.44	-29.9	-31.8	13.1	2.21e-05	0	44	0	908066816	19	4501
2026-01-16 02:45:08.52	276.08	11.38	-29.9	-31.9	13.0	2.21e-05	0	44	0	909115392	19	4520
2026-01-16 02:45:09.52	275.94	11.31	-29.8	-31.7	13.2	2.97e-05	0	44	0	911212544	19	4454
2026-01-16 02:45:10.52	275.80	11.25	-29.9	-32.0	13.0	3.73e-05	0	44	0	913309696	19	4567
2026-01-16 02:45:11.52	275.67	11.19	-29.9	-31.4	12.9	4.27e-05	0	44	0	915406848	20	4274
2026-01-16 02:45:12.52	275.53	11.13	-29.8	-31.5	13.3	2.82e-05	0	44	0	917504000	19	4386
2026-01-16 02:45:13.51	275.40	11.06	-29.8	-31.5	13.3	1.52e-05	0	44	0	918552576	19	4415
2026-01-16 02:45:14.52	275.26	11.00	-29.7	-31.4	13.4	1.60e-05	0	44	0	920649728	19	4358
2026-01-16 02:45:15.52	275.12	10.94	-29.8	-31.6	13.2	2.05e-05	0	44	0	922746880	19	4417
2026-01-16 02:45:16.52	274.99	10.88	-29.8	-31.5	13.3	9.10e-06	0	44	0	924844032	19	4395
2026-01-16 02:45:17.52	274.86	10.81	-29.7	-31.4	13.3	1.67e-05	0	44	0	925892608	19	4361
2026-01-16 02:45:18.52	274.72	10.75	-29.8	-31.5	13.2	2.36e-05	0	44	0	927989760	19	4401
2026-01-16 02:45:19.52	274.59	10.69	-29.6	-31.1	13.5	1.44e-05	0	44	0	930086912	19	4264
2026-01-16 02:45:20.52	274.46	10.63	-29.7	-31.3	13.4	1.90e-05	0	44	0	932184064	19	4340
2026-01-16 02:45:21.51	274.33	10.57	-29.7	-31.2	13.4	1.14e-05	0	44	0	934281216	19	4316
2026-01-16 02:45:22.52	274.20	10.50	-29.8	-31.7	13.1	2.36e-05	0	44	0	935329792	19	4480
2026-01-16 02:45:23.52	274.07	10.44	-29.8	-31.7	13.1	2.36e-05	0	44	0	937426944	19	4455
2026-01-16 02:45:24.51	273.94	10.38	-29.9	-31.9	13.0	3.89e-05	0	44	0	939524096	19	4516
2026-01-16 02:45:25.52	273.81	10.32	-29.9	-31.8	13.0	4.04e-05	0	44	0	941621248	19	4511
2026-01-16 02:45:26.51	273.68	10.26	-29.9	-31.9	13.0	3.96e-05	0	44	0	943718400	19	4533
2026-01-16 02:45:27.50	273.56	10.19	-29.9	-31.9	13.0	4.27e-05	0	44	0	944766976	19	4524
2026-01-16 02:45:28.51	273.43	10.13	-30.0	-31.7	12.7	4.11e-05	0	44	0	946864128	20	4377
2026-01-16 02:45:29.51	273.30	10.07	-30.2	-32.3	12.3	1.59e-04	0	44	0	948961280	20	4572
2026-01-16 02:45:30.51	273.17	10.01	-30.1	-32.1	12.3	1.63e-04	0	44	0	951058432	20	4532
2026-01-16 02:45:31.52	273.05	9.94	-30.2	-32.4	12.2	2.38e-04	0	44	0	952107008	20	4623
2026-01-16 02:45:32.52	272.92	9.88	-30.4	-32.9	11.5	3.06e-04	0	44	0	954204160	20	4814
2026-01-16 02:45:33.52	272.80	9.82	-30.4	-32.9	11.4	4.07e-04	0	44	0	956301312	20	4822
2026-01-16 02:45:34.52	272.67	9.76	-30.4	-32.9	11.8	4.00e-04	0	44	0	958398464	20	4810
2026-01-16 02:45:35.53	272.55	9.70	-30.4	-32.9	11.8	4.61e-04	0	44	0	960495616	20	4803
2026-01-16 02:45:36.53	272.43	9.63	-30.3	-32.7	11.9	4.90e-04	0	44	0	961544192	20	4741
2026-01-16 02:45:37.52	272.31	9.57	-30.3	-32.5	12.0	3.22e-04	0	44	0	963641344	20	4683
2026-01-16 02:45:38.53	272.18	9.51	-30.3	-32.8	11.8	3.20e-04	0	44	0	965738496	20	4771
2026-01-16 02:45:39.53	272.06	9.45	-30.1	-32.0	12.4	2.84e-04	0	44	0	967835648	20	4510
2026-01-16 02:45:40.53	271.94	9.39	-29.9	-31.4	12.8	9.76e-05	0	44	0	969932800	20	4302
2026-01-16 02:45:41.53	271.82	9.32	-29.8	-31.6	13.0	2.13e-03	0	44	0	970981376	19	4451
2026-01-16 02:45:42.54	271.70	9.26	-29.7	-31.3	13.3	1.06e-05	0	44	0	973078528	19	4336
2026-01-16 02:45:43.54	271.58	9.20	-29.6	-31.2	13.3	2.67e-05	0	44	0	975175680	19	4303
2026-01-16 02:45:44.53	271.46	9.14	-29.5	-30.8	13.6	1.52e-05	0	44	0	977272832	19	4187
2026-01-16 02:45:45.53	271.34	9.08	-29.6	-31.1	13.4	6.56e-05	0	44	0	979369984	19	4282
2026-01-16 02:45:46.53	271.23	9.02	-29.7	-31.4	13.2	1.52e-05	0	44	0	980418560	19	4375
2026-01-16 02:45:47.53	271.11	8.95	-30.0	-32.2	12.6	3.96e-05	0	44	0	982515712	19	4654
2026-01-16 02:45:48.54	270.99	8.89	-30.0	-31.8	12.5	1.42e-03	0	44	0	984612864	20	4434
2026-01-16 02:45:49.54	270.87	8.83	-30.0	-32.0	12.4	1.35e-04	0	44	0	986710016	20	4496
2026-01-16 02:45:50.54	270.76	8.77	-30.2	-32.5	12.0	2.64e-04	0	44	0	987758592	20	4677
2026-01-16 02:45:51.55	270.64	8.71	-30.2	-32.4	12.0	3.52e-04	0	44	0	989855744	20	4639
2026-01-16 02:45:52.55	270.53	8.65	-30.3	-32.7	11.8	5.18e-04	0	44	0	991952896	20	4738
2026-01-16 02:45:53.56	270.41	8.58	-30.3	-32.7	11.8	4.10e-04	0	44	0	994050048	20	4754
2026-01-16 02:45:54.57	270.30	8.52	-30.3	-32.6	11.9	5.07e-04	0	44	0	996147200	20	4705
2026-01-16 02:45:55.57	270.18	8.46	-30.2	-32.3	12.1	3.30e-04	0	44	0	997195776	20	4613
2026-01-16 02:45:56.58	270.07	8.40	-30.1	-32.1	12.2	2.46e-04	0	44	0	999292928	20	4534
2026-01-16 02:45:57.58	269.96	8.34	-30.3	-32.6	11.8	3.63e-04	0	44	0	1001390080	20	4726
2026-01-16 02:45:58.58	269.85	8.28	-30.1	-32.3	12.1	2.32e-04	0	44	0	1003487232	20	4596
2026-01-16 02:45:59.57	269.74	8.22	-30.2	-32.4	12.1	1.72e-03	0	44	0	1005584384	20	4623
2026-01-16 02:46:00.57	269.62	8.15	-30.4	-32.9	11.6	4.39e-04	0	44	0	1006632960	20	4841
2026-01-16 02:46:01.57	269.51	8.09	-30.4	-33.0	11.6	7.09e-04	0	44	0	1008730112	20	4852
2026-01-16 02:46:02.57	269.40	8.03	-30.3	-32.7	11.8	2.64e-03	0	44	0	1010827264	20	4769
2026-01-16 02:46:03.57	269.30	7.97	-30.4	-33.2	11.4	2.83e-03	0	44	0	1012924416	20	4930
2026-01-16 02:46:04.57	269.19	7.91	-30.4	-32.7	11.4	1.16e-03	0	44	0	1015021568	21	4676
2026-01-16 02:46:05.57	269.08	7.85	-30.4	-33.1	11.5	3.13e-03	0	44	0	1016070144	20	4898
2026-01-16 02:46:06.57	268.97	7.79	-30.5	-33.3	11.3	3.19e-03	0	44	0	1018167296	20	4980
2026-01-16 02:46:07.57	268.86	7.73	-30.4	-32.7	11.4	1.35e-03	0	44	0	1020264448	21	4662
2026-01-16 02:46:08.57	268.75	7.67	-30.4	-33.0	11.5	3.03e-03	0	44	0	1022361600	20	4883
2026-01-16 02:46:09.57	268.65	7.61	-30.4	-33.0	11.5	2.86e-03	0	44	0	1024458752	20	4878
2026-01-16 02:46:10.57	268.54	7.55	-30.4	-32.5	11.5	1.02e-03	0	44	0	1025507328	21	4607
2026-01-16 02:46:11.57	268.44	7.49	-30.4	-33.0	11.5	7.62e-04	0	44	0	1027604480	20	4874
2026-01-16 02:46:12.57	268.33	7.43	-30.4	-33.1	11.4	2.91e-03	0	44	0	1029701632	20	4907
2026-01-16 02:46:13.58	268.23	7.36	-30.5	-33.1	11.0	1.22e-03	0	44	0	1031798784	21	4809
2026-01-16 02:46:14.58	268.12	7.30	-30.5	-33.1	11.1	3.27e-03	0	44	0	1032847360	21	4804
2026-01-16 02:46:15.59	268.02	7.24	-30.5	-33.0	11.1	3.66e-03	0	44	0	1034944512	21	4782
2026-01-16 02:46:16.59	267.91	7.18	-30.6	-33.4	10.8	2.50e-03	0	44	0	1037041664	21	4932
2026-01-16 02:46:17.59	267.81	7.12	-30.7	-33.4	10.8	4.77e-03	0	44	0	1039138816	21	4954
2026-01-16 02:46:18.60	267.71	7.06	-33.0	-45.0	3.8	2.54e-03	0	44	104	1040187392	26	14215
2026-01-16 02:46:19.60	267.60	7.00	-33.4	-45.9	3.8	1.49e+00	0	44	104	1040187392	26	15309

#Closed at: 2026-01-16 02:46:20
#Recorded file [1040 MB]: D:/data/31010_260116_053703.dat