passes_logs/2026/01/16/R2M6_AANII_01/R2M6_AANII_01__20260116_025747_NOAA_20_JPSS-1_rec.log

#Pass ID: 20260116_025747_NOAA 20 (JPSS-1)
#Satellite: NOAA 20 (JPSS-1)
#Configuration: NOAA 20
#almurnet v.1.7.20240730
#Start time: 2026-01-16 02:57:47

#Version: 2.2.20231116
#Station: R2M6_AANII_01
#Location: 30.233357 lon 59.946436 lat
#TLE: 1 43013U 17073A   26015.47098083  .00000029  00000+0  34851-4 0  9997
#TLE: 2 43013  98.7636 316.4053 0001479  38.6686 321.4595 14.19536048422808

#Time	Az	El	Level	Level2	SNR	BER	BlckErr	Temp	State	Recorded	gain1	gain2
2026-01-16 02:57:47.32	8.34	7.00	-32.8	-42.6	4.0	1.46e+00	0	41	0	0	26	11160
2026-01-16 02:57:48.32	8.22	7.06	-32.4	-40.0	4.6	1.31e+00	0	41	104	0	25	8675
2026-01-16 02:57:49.32	8.10	7.11	-32.3	-39.6	6.2	3.01e-01	0	41	0	0	25	8353
2026-01-16 02:57:50.32	7.99	7.16	-32.4	-39.8	6.1	2.91e-01	0	41	0	1048576	25	8526
2026-01-16 02:57:51.32	7.87	7.22	-32.4	-39.8	6.1	2.93e-01	0	41	0	3145728	25	8480
2026-01-16 02:57:52.32	7.75	7.27	-32.3	-39.6	6.2	3.10e-01	0	41	0	5242880	25	8275
2026-01-16 02:57:53.31	7.63	7.32	-32.3	-39.5	6.3	2.71e-01	0	41	0	7340032	25	8219
2026-01-16 02:57:54.31	7.51	7.38	-32.3	-39.6	6.3	2.80e-01	0	41	0	8388608	25	8286
2026-01-16 02:57:55.30	7.40	7.43	-32.4	-40.1	6.0	2.93e-01	0	41	0	10485760	25	8730
2026-01-16 02:57:56.30	7.28	7.48	-32.5	-40.3	5.8	4.18e-01	0	41	0	12582912	25	8888
2026-01-16 02:57:57.31	7.15	7.54	-32.2	-38.9	6.8	2.14e-01	0	41	0	14680064	25	7767
2026-01-16 02:57:58.30	7.04	7.59	-32.1	-38.1	7.4	1.35e-01	0	41	0	16777216	25	7192
2026-01-16 02:57:59.30	6.91	7.64	-31.8	-37.4	8.4	7.54e-02	0	42	0	17825792	24	6821
2026-01-16 02:58:00.30	6.79	7.70	-31.6	-36.4	9.2	3.55e-02	0	42	0	19922944	24	6259
2026-01-16 02:58:01.30	6.67	7.75	-31.6	-36.2	9.4	1.93e-02	0	42	0	22020096	24	6154
2026-01-16 02:58:02.30	6.55	7.80	-31.3	-35.6	10.2	9.97e-03	0	42	0	24117248	23	5904
2026-01-16 02:58:03.30	6.42	7.85	-31.2	-35.3	10.5	5.72e-03	0	42	0	26214400	23	5796
2026-01-16 02:58:04.31	6.30	7.91	-31.2	-35.3	10.5	4.04e-03	0	42	0	27262976	23	5747
2026-01-16 02:58:05.31	6.18	7.96	-31.2	-35.2	10.6	3.85e-03	0	42	0	29360128	23	5695
2026-01-16 02:58:06.31	6.05	8.01	-31.3	-35.7	10.3	3.38e-03	0	42	0	31457280	23	5958
2026-01-16 02:58:07.32	5.92	8.07	-31.3	-36.2	10.2	6.36e-03	0	42	0	33554432	22	6305
2026-01-16 02:58:08.32	5.80	8.12	-31.3	-36.1	10.3	5.03e-03	0	42	0	35651584	22	6286
2026-01-16 02:58:09.33	5.67	8.18	-31.4	-36.4	10.1	5.96e-03	0	42	0	36700160	22	6394
2026-01-16 02:58:10.33	5.55	8.23	-31.3	-36.1	10.4	6.16e-03	0	42	0	38797312	22	6256
2026-01-16 02:58:11.33	5.42	8.28	-31.2	-35.9	10.5	4.48e-03	0	42	0	40894464	22	6134
2026-01-16 02:58:12.32	5.29	8.33	-31.3	-36.0	10.4	3.90e-03	0	42	0	42991616	22	6190
2026-01-16 02:58:13.32	5.16	8.39	-31.2	-35.9	10.5	4.09e-03	0	42	0	44040192	22	6160
2026-01-16 02:58:14.32	5.04	8.44	-31.3	-36.0	10.4	4.26e-03	0	42	0	46137344	22	6187
2026-01-16 02:58:15.32	4.91	8.49	-31.2	-35.8	10.5	3.37e-03	0	42	0	48234496	22	6116
2026-01-16 02:58:16.32	4.78	8.55	-31.2	-35.8	10.6	3.08e-03	0	42	0	50331648	22	6106
2026-01-16 02:58:17.32	4.65	8.60	-31.2	-35.8	10.6	4.46e-03	0	42	0	52428800	22	6093
2026-01-16 02:58:18.32	4.52	8.65	-31.1	-35.6	10.7	2.55e-03	0	42	0	53477376	22	5985
2026-01-16 02:58:19.32	4.39	8.70	-31.2	-35.6	10.8	3.01e-03	0	42	0	55574528	22	5992
2026-01-16 02:58:20.32	4.26	8.76	-31.2	-35.6	10.7	2.56e-03	0	42	0	57671680	22	6012
2026-01-16 02:58:21.32	4.12	8.81	-31.2	-35.6	10.8	2.30e-03	0	42	0	59768832	22	5974
2026-01-16 02:58:22.32	3.99	8.86	-31.2	-35.8	10.6	3.06e-03	0	42	0	61865984	22	6084
2026-01-16 02:58:23.32	3.86	8.91	-31.2	-35.7	10.7	3.90e-03	0	42	0	62914560	22	6024
2026-01-16 02:58:24.33	3.73	8.97	-31.2	-35.7	10.8	2.49e-03	0	42	0	65011712	22	6025
2026-01-16 02:58:25.33	3.59	9.02	-31.1	-35.3	11.0	1.78e-03	0	42	0	67108864	22	5853
2026-01-16 02:58:26.33	3.46	9.07	-31.1	-35.3	11.0	1.87e-03	0	42	0	69206016	22	5850
2026-01-16 02:58:27.33	3.32	9.13	-31.2	-35.6	10.8	1.71e-03	0	42	0	71303168	22	5983
2026-01-16 02:58:28.34	3.19	9.18	-31.1	-35.3	11.1	2.09e-03	0	42	0	72351744	22	5827
2026-01-16 02:58:29.34	3.05	9.23	-31.2	-35.5	10.8	2.26e-03	0	42	0	74448896	22	5959
2026-01-16 02:58:30.34	2.91	9.28	-31.2	-35.7	10.7	2.21e-03	0	42	0	76546048	22	6028
2026-01-16 02:58:31.34	2.78	9.34	-31.2	-35.8	10.6	3.63e-03	0	42	0	78643200	22	6085
2026-01-16 02:58:32.34	2.64	9.39	-31.2	-35.6	10.8	2.77e-03	0	42	0	79691776	22	6002
2026-01-16 02:58:33.34	2.50	9.44	-31.2	-35.6	10.9	2.39e-03	0	42	0	81788928	22	5973
2026-01-16 02:58:34.34	2.37	9.49	-31.2	-35.5	10.9	2.16e-03	0	43	0	83886080	22	5954
2026-01-16 02:58:35.34	2.23	9.54	-31.2	-35.5	10.9	2.76e-03	0	43	0	85983232	22	5945
2026-01-16 02:58:36.35	2.09	9.60	-31.1	-35.4	11.0	2.32e-03	0	42	0	88080384	22	5902
2026-01-16 02:58:37.35	1.95	9.65	-31.2	-35.5	10.9	2.36e-03	0	43	0	89128960	22	5949
2026-01-16 02:58:38.36	1.80	9.70	-31.1	-35.4	11.0	2.42e-03	0	43	0	91226112	22	5912
2026-01-16 02:58:39.36	1.66	9.75	-31.2	-35.7	10.8	2.53e-03	0	42	0	93323264	22	6007
2026-01-16 02:58:40.36	1.52	9.81	-31.1	-35.4	11.0	1.88e-03	0	43	0	95420416	22	5910
2026-01-16 02:58:41.36	1.38	9.86	-31.2	-35.5	10.9	2.28e-03	0	43	0	97517568	22	5935
2026-01-16 02:58:42.37	1.24	9.91	-31.2	-35.7	10.8	2.69e-03	0	43	0	98566144	22	6045
2026-01-16 02:58:43.36	1.10	9.96	-31.2	-35.7	10.8	3.02e-03	0	43	0	100663296	22	6036
2026-01-16 02:58:44.37	0.95	10.01	-31.2	-35.7	10.8	2.40e-03	0	43	0	102760448	22	6038
2026-01-16 02:58:45.37	0.81	10.06	-31.2	-35.7	10.8	2.89e-03	0	43	0	104857600	22	6009
2026-01-16 02:58:46.37	0.66	10.12	-31.3	-35.8	10.7	2.72e-03	0	43	0	106954752	22	6094
2026-01-16 02:58:47.37	0.52	10.17	-31.3	-35.8	10.8	3.16e-03	0	43	0	108003328	22	6065
2026-01-16 02:58:48.37	0.37	10.22	-31.2	-35.8	10.8	3.29e-03	0	43	0	110100480	22	6059
2026-01-16 02:58:49.36	0.23	10.27	-31.3	-35.8	10.8	1.97e-03	0	43	0	112197632	22	6045
2026-01-16 02:58:50.37	0.08	10.32	-31.2	-35.5	11.0	2.05e-03	0	43	0	114294784	22	5924
2026-01-16 02:58:51.38	359.93	10.37	-31.3	-35.8	10.8	2.37e-03	0	43	0	116391936	22	6079
2026-01-16 02:58:52.38	359.78	10.42	-31.3	-36.1	10.6	3.70e-03	0	43	0	117440512	22	6193
2026-01-16 02:58:53.38	359.64	10.47	-31.2	-35.7	10.8	2.64e-03	0	43	0	119537664	22	6016
2026-01-16 02:58:54.38	359.49	10.52	-31.3	-35.9	10.7	2.59e-03	0	43	0	121634816	22	6107
2026-01-16 02:58:55.38	359.34	10.58	-31.3	-36.0	10.6	3.30e-03	0	43	0	123731968	22	6156
2026-01-16 02:58:56.38	359.19	10.63	-31.4	-36.1	10.5	3.45e-03	0	43	0	124780544	22	6216
2026-01-16 02:58:57.38	359.04	10.68	-31.4	-36.2	10.6	3.14e-03	0	43	0	126877696	22	6239
2026-01-16 02:58:58.38	358.89	10.73	-31.4	-36.3	10.4	4.48e-03	0	43	0	128974848	22	6329
2026-01-16 02:58:59.38	358.74	10.78	-31.4	-36.3	10.4	4.53e-03	0	43	0	131072000	22	6317
2026-01-16 02:59:00.39	358.58	10.83	-31.4	-36.4	10.3	5.01e-03	0	43	0	133169152	22	6370
2026-01-16 02:59:01.39	358.43	10.88	-31.6	-36.5	9.9	8.63e-03	0	43	0	134217728	23	6297
2026-01-16 02:59:02.39	358.28	10.93	-31.6	-36.4	10.0	7.82e-03	0	43	0	136314880	23	6244
2026-01-16 02:59:03.40	358.12	10.98	-31.6	-36.3	10.0	7.71e-03	0	43	0	138412032	23	6220
2026-01-16 02:59:04.40	357.97	11.03	-31.6	-36.3	10.0	6.75e-03	0	43	0	140509184	23	6236
2026-01-16 02:59:05.40	357.82	11.08	-31.6	-36.3	10.0	7.66e-03	0	43	0	142606336	23	6207
2026-01-16 02:59:06.40	357.66	11.13	-31.4	-35.9	10.3	5.85e-03	0	43	0	143654912	23	6012
2026-01-16 02:59:07.40	357.51	11.18	-31.4	-35.8	10.4	4.79e-03	0	43	0	145752064	23	5952
2026-01-16 02:59:08.40	357.35	11.23	-31.5	-35.9	10.3	4.31e-03	0	43	0	147849216	23	6027
2026-01-16 02:59:09.40	357.19	11.28	-31.5	-36.0	10.3	5.62e-03	0	43	0	149946368	23	6024
2026-01-16 02:59:10.40	357.04	11.33	-31.4	-35.8	10.5	4.52e-03	0	43	0	152043520	23	5942
2026-01-16 02:59:11.39	356.88	11.38	-31.5	-36.1	10.2	7.12e-03	0	43	0	153092096	23	6114
2026-01-16 02:59:12.40	356.72	11.42	-31.3	-35.5	10.7	4.54e-03	0	43	0	155189248	23	5817
2026-01-16 02:59:13.40	356.56	11.47	-31.2	-35.1	11.0	2.13e-03	0	43	0	157286400	23	5629
2026-01-16 02:59:14.40	356.40	11.52	-31.1	-34.6	11.3	1.33e-03	0	43	0	159383552	23	5421
2026-01-16 02:59:15.41	356.24	11.57	-31.0	-34.3	11.6	8.25e-04	0	43	0	160432128	23	5287
2026-01-16 02:59:16.41	356.08	11.62	-31.0	-34.2	11.7	5.71e-04	0	43	0	162529280	23	5242
2026-01-16 02:59:17.41	355.92	11.67	-31.0	-34.2	11.6	6.91e-04	0	43	0	164626432	23	5248
2026-01-16 02:59:18.40	355.76	11.72	-30.8	-33.9	11.9	4.83e-04	0	43	0	166723584	23	5090
2026-01-16 02:59:19.41	355.60	11.77	-30.8	-34.3	12.0	3.19e-04	0	43	0	168820736	22	5365
2026-01-16 02:59:20.41	355.43	11.81	-30.8	-34.2	12.0	3.46e-04	0	43	0	169869312	22	5330
2026-01-16 02:59:21.42	355.27	11.86	-30.7	-34.5	12.1	2.78e-04	0	43	0	171966464	21	5568
2026-01-16 02:59:22.42	355.11	11.91	-30.7	-34.4	12.3	2.66e-04	0	43	0	174063616	21	5504
2026-01-16 02:59:23.42	354.94	11.96	-30.6	-34.1	12.4	1.48e-04	0	43	0	176160768	21	5402
2026-01-16 02:59:24.42	354.78	12.00	-30.6	-34.2	12.4	2.72e-04	0	43	0	178257920	21	5448
2026-01-16 02:59:25.42	354.61	12.05	-30.6	-34.2	12.4	1.93e-04	0	43	0	179306496	21	5419
2026-01-16 02:59:26.43	354.44	12.10	-30.6	-34.1	12.4	1.48e-04	0	43	0	181403648	21	5387
2026-01-16 02:59:27.42	354.28	12.15	-30.6	-34.2	12.4	2.90e-04	0	43	0	183500800	21	5446
2026-01-16 02:59:28.42	354.11	12.19	-30.7	-34.3	12.2	1.75e-04	0	43	0	185597952	21	5494
2026-01-16 02:59:29.42	353.95	12.24	-30.7	-34.5	12.2	1.93e-04	0	43	0	186646528	21	5557
2026-01-16 02:59:30.42	353.78	12.29	-30.7	-34.5	12.2	4.21e-04	0	43	0	188743680	21	5567
2026-01-16 02:59:31.42	353.61	12.33	-30.8	-34.8	12.0	4.76e-04	0	43	0	190840832	21	5690
2026-01-16 02:59:32.42	353.44	12.38	-30.8	-34.8	12.0	3.91e-04	0	43	0	192937984	21	5683
2026-01-16 02:59:33.42	353.27	12.43	-30.7	-34.6	12.1	3.34e-04	0	43	0	195035136	21	5600
2026-01-16 02:59:34.42	353.10	12.47	-30.8	-34.8	12.0	5.29e-04	0	43	0	196083712	21	5680
2026-01-16 02:59:35.42	352.93	12.52	-30.8	-34.6	12.1	3.19e-04	0	43	0	198180864	21	5614
2026-01-16 02:59:36.42	352.76	12.56	-30.7	-34.3	12.3	1.93e-04	0	43	0	200278016	21	5464
2026-01-16 02:59:37.43	352.58	12.61	-30.7	-34.3	12.3	3.27e-04	0	43	0	202375168	21	5492
2026-01-16 02:59:38.43	352.41	12.66	-30.6	-34.2	12.4	1.14e-04	0	43	0	204472320	21	5421
2026-01-16 02:59:39.43	352.24	12.70	-30.6	-34.1	12.5	1.52e-04	0	43	0	205520896	21	5386
2026-01-16 02:59:40.43	352.07	12.75	-30.6	-34.2	12.4	2.84e-04	0	43	0	207618048	21	5426
2026-01-16 02:59:41.43	351.89	12.79	-30.6	-34.1	12.5	1.76e-04	0	43	0	209715200	21	5378
2026-01-16 02:59:42.44	351.72	12.84	-30.4	-33.6	12.8	2.55e-04	0	43	0	211812352	21	5179
2026-01-16 02:59:43.44	351.54	12.88	-30.3	-33.6	13.2	2.09e-04	0	43	0	213909504	20	5310
2026-01-16 02:59:44.44	351.37	12.92	-30.2	-33.5	13.2	1.60e-05	0	43	0	214958080	20	5269
2026-01-16 02:59:45.44	351.19	12.97	-30.2	-33.6	13.2	2.26e-04	0	43	0	217055232	20	5296
2026-01-16 02:59:46.44	351.01	13.01	-30.4	-34.0	12.9	2.41e-04	0	43	0	219152384	20	5469
2026-01-16 02:59:47.45	350.83	13.06	-30.4	-34.0	12.9	3.89e-05	0	43	0	221249536	20	5448
2026-01-16 02:59:48.45	350.66	13.10	-30.4	-33.9	13.0	2.90e-04	0	43	0	223346688	20	5405
2026-01-16 02:59:49.45	350.48	13.14	-30.4	-33.9	13.0	2.61e-04	0	43	0	224395264	20	5420
2026-01-16 02:59:50.45	350.30	13.19	-30.5	-34.2	12.8	5.03e-05	0	43	0	226492416	20	5528
2026-01-16 02:59:51.45	350.12	13.23	-30.5	-34.2	12.8	2.49e-04	0	43	0	228589568	20	5528
2026-01-16 02:59:52.44	349.94	13.27	-30.4	-33.4	13.0	2.14e-04	0	43	0	230686720	21	5119
2026-01-16 02:59:53.44	349.76	13.31	-30.4	-33.7	12.8	5.95e-05	0	43	0	232783872	21	5208
2026-01-16 02:59:54.44	349.58	13.36	-30.3	-33.1	13.2	2.01e-04	0	43	0	233832448	21	5000
2026-01-16 02:59:55.43	349.40	13.40	-30.3	-33.3	13.1	1.83e-04	0	43	0	235929600	21	5053
2026-01-16 02:59:56.43	349.22	13.44	-30.3	-33.3	13.1	3.81e-05	0	43	0	238026752	21	5076
2026-01-16 02:59:57.44	349.04	13.48	-30.3	-33.8	13.1	2.12e-04	0	43	0	240123904	20	5371
2026-01-16 02:59:58.44	348.85	13.52	-30.3	-33.8	13.1	2.46e-04	0	43	0	241172480	20	5351
2026-01-16 02:59:59.44	348.67	13.56	-30.3	-33.8	13.0	3.50e-05	0	43	0	243269632	20	5388
2026-01-16 03:00:00.44	348.49	13.61	-30.3	-33.8	13.0	2.43e-04	0	43	0	245366784	20	5386
2026-01-16 03:00:01.45	348.30	13.65	-30.3	-33.7	13.2	2.66e-04	0	43	0	247463936	20	5326
2026-01-16 03:00:02.45	348.11	13.69	-30.3	-33.7	13.1	3.43e-05	0	43	0	249561088	20	5352
2026-01-16 03:00:03.45	347.93	13.73	-30.4	-34.1	12.9	3.45e-04	0	43	0	250609664	20	5491
2026-01-16 03:00:04.45	347.74	13.77	-30.4	-34.0	13.0	2.44e-05	0	44	0	252706816	20	5438
2026-01-16 03:00:05.44	347.56	13.81	-30.5	-33.9	12.7	6.17e-05	0	43	0	254803968	21	5304
2026-01-16 03:00:06.44	347.37	13.85	-30.6	-34.0	12.6	2.77e-04	0	43	0	256901120	21	5343
2026-01-16 03:00:07.45	347.18	13.89	-30.6	-33.9	12.6	3.39e-04	0	43	0	258998272	21	5319
2026-01-16 03:00:08.45	346.99	13.93	-30.4	-33.5	13.0	5.03e-05	0	43	0	260046848	21	5142
2026-01-16 03:00:09.45	346.80	13.96	-30.4	-33.4	13.1	2.03e-04	0	43	0	262144000	21	5101
2026-01-16 03:00:10.45	346.62	14.00	-30.3	-33.3	13.1	1.98e-04	0	43	0	264241152	21	5079
2026-01-16 03:00:11.45	346.43	14.04	-30.4	-33.4	13.1	4.34e-05	0	43	0	266338304	21	5100
2026-01-16 03:00:12.46	346.23	14.08	-30.4	-33.5	13.0	1.67e-04	0	43	0	267386880	21	5129
2026-01-16 03:00:13.46	346.04	14.12	-30.4	-33.4	13.0	1.89e-04	0	43	0	269484032	21	5114
2026-01-16 03:00:14.46	345.85	14.16	-30.4	-33.6	12.9	3.73e-05	0	43	0	271581184	21	5192
2026-01-16 03:00:15.47	345.66	14.19	-30.4	-33.9	13.1	3.73e-05	0	43	0	273678336	20	5396
2026-01-16 03:00:16.47	345.47	14.23	-30.4	-33.9	13.0	2.17e-04	0	43	0	275775488	20	5405
2026-01-16 03:00:17.47	345.27	14.27	-30.2	-33.6	13.3	4.04e-05	0	44	0	277872640	20	5266
2026-01-16 03:00:18.48	345.08	14.30	-30.3	-33.8	13.2	2.89e-05	0	43	0	278921216	20	5366
2026-01-16 03:00:19.48	344.89	14.34	-30.3	-33.6	13.3	2.12e-04	0	43	0	281018368	20	5266
2026-01-16 03:00:20.48	344.69	14.38	-30.2	-33.6	13.2	1.90e-05	0	43	0	283115520	20	5275
2026-01-16 03:00:21.49	344.50	14.41	-30.2	-33.3	13.4	1.14e-05	0	44	0	285212672	20	5169
2026-01-16 03:00:22.49	344.30	14.45	-30.2	-33.4	13.4	1.67e-05	0	43	0	286261248	20	5230
2026-01-16 03:00:23.48	344.11	14.48	-30.2	-33.4	13.3	2.44e-05	0	43	0	288358400	20	5224
2026-01-16 03:00:24.49	343.91	14.52	-30.1	-33.3	13.5	1.91e-04	0	43	0	290455552	20	5161
2026-01-16 03:00:25.49	343.71	14.55	-30.1	-33.1	13.6	1.06e-05	0	43	0	292552704	20	5076
2026-01-16 03:00:26.49	343.52	14.59	-30.1	-33.0	13.6	6.80e-06	0	43	0	294649856	20	5074
2026-01-16 03:00:27.48	343.32	14.62	-29.9	-32.7	13.9	1.55e-04	0	43	0	295698432	20	4933
2026-01-16 03:00:28.48	343.12	14.65	-29.9	-32.7	13.9	3.80e-06	0	43	0	297795584	20	4931
2026-01-16 03:00:29.49	342.92	14.69	-30.0	-33.0	13.7	8.30e-06	0	44	0	299892736	20	5061
2026-01-16 03:00:30.48	342.73	14.72	-30.0	-33.0	13.6	1.20e-04	0	43	0	301989888	20	5064
2026-01-16 03:00:31.48	342.53	14.75	-30.1	-33.1	13.6	1.31e-04	0	43	0	304087040	20	5111
2026-01-16 03:00:32.48	342.33	14.79	-30.1	-33.1	13.6	9.10e-06	0	43	0	305135616	20	5079
2026-01-16 03:00:33.48	342.13	14.82	-30.0	-33.0	13.7	5.30e-06	0	43	0	307232768	20	5043
2026-01-16 03:00:34.48	341.93	14.85	-30.1	-33.0	13.6	1.81e-04	0	43	0	309329920	20	5073
2026-01-16 03:00:35.48	341.73	14.88	-30.2	-33.3	13.5	7.60e-06	0	43	0	311427072	20	5169
2026-01-16 03:00:36.48	341.53	14.91	-30.2	-33.5	13.3	1.67e-05	0	44	0	312475648	20	5235
2026-01-16 03:00:37.48	341.32	14.94	-30.1	-33.0	13.6	2.00e-04	0	43	0	314572800	20	5061
2026-01-16 03:00:38.48	341.12	14.97	-30.0	-32.9	13.7	3.80e-06	0	43	0	316669952	20	5037
2026-01-16 03:00:39.48	340.92	15.00	-30.1	-33.0	13.6	5.30e-06	0	43	0	318767104	20	5073
2026-01-16 03:00:40.48	340.72	15.03	-30.1	-33.0	13.7	3.80e-06	0	43	0	320864256	20	5067
2026-01-16 03:00:41.48	340.51	15.06	-29.9	-32.5	14.0	5.30e-06	0	43	0	321912832	20	4870
2026-01-16 03:00:42.48	340.31	15.09	-29.8	-32.4	14.1	2.20e-06	0	43	0	324009984	20	4846
2026-01-16 03:00:43.48	340.10	15.12	-29.8	-32.4	14.0	3.00e-06	0	43	0	326107136	20	4855
2026-01-16 03:00:44.48	339.90	15.15	-29.7	-32.1	14.2	7.00e-07	0	43	0	328204288	20	4752
2026-01-16 03:00:45.48	339.70	15.18	-29.7	-32.2	14.2	2.20e-06	0	44	0	330301440	20	4761
2026-01-16 03:00:46.48	339.49	15.21	-29.8	-32.4	14.1	1.50e-06	0	43	0	331350016	20	4828
2026-01-16 03:00:47.48	339.28	15.24	-29.9	-32.5	14.0	2.20e-06	0	43	0	333447168	20	4873
2026-01-16 03:00:48.48	339.08	15.26	-29.9	-32.6	13.9	1.58e-04	0	43	0	335544320	20	4915
2026-01-16 03:00:49.48	338.87	15.29	-30.1	-33.2	13.5	3.00e-06	0	43	0	337641472	20	5141
2026-01-16 03:00:50.48	338.66	15.32	-30.2	-33.3	13.5	1.90e-05	0	43	0	339738624	20	5160
2026-01-16 03:00:51.49	338.45	15.34	-30.0	-32.8	13.8	6.10e-06	0	43	0	340787200	20	4968
2026-01-16 03:00:52.50	338.25	15.37	-29.9	-32.6	14.0	1.50e-06	0	44	0	342884352	20	4894
2026-01-16 03:00:53.50	338.04	15.39	-29.9	-32.5	14.0	7.00e-07	0	44	0	344981504	20	4880
2026-01-16 03:00:54.51	337.83	15.42	-29.9	-32.5	14.0	3.80e-06	0	43	0	347078656	20	4862
2026-01-16 03:00:55.51	337.62	15.44	-29.9	-32.5	14.1	7.00e-07	0	43	0	348127232	20	4861
2026-01-16 03:00:56.52	337.41	15.47	-29.9	-32.6	13.9	7.60e-06	0	43	0	350224384	20	4919
2026-01-16 03:00:57.51	337.20	15.49	-29.9	-32.7	13.9	2.20e-06	0	43	0	352321536	20	4931
2026-01-16 03:00:58.52	336.99	15.52	-30.0	-32.8	13.8	1.22e-05	0	43	0	354418688	20	4981
2026-01-16 03:00:59.52	336.78	15.54	-29.9	-32.6	14.0	1.50e-06	0	43	0	356515840	20	4896
2026-01-16 03:01:00.52	336.57	15.56	-29.9	-32.6	14.0	4.50e-06	0	43	0	357564416	20	4898
2026-01-16 03:01:01.52	336.36	15.59	-29.8	-32.4	14.1	2.20e-06	0	43	0	359661568	20	4845
2026-01-16 03:01:02.52	336.14	15.61	-29.8	-32.4	14.1	3.00e-06	0	43	0	361758720	20	4822
2026-01-16 03:01:03.53	335.93	15.63	-29.9	-32.9	14.2	2.20e-06	0	44	0	363855872	19	5101
2026-01-16 03:01:04.52	335.72	15.65	-29.9	-32.9	14.1	7.00e-07	0	44	0	365953024	19	5125
2026-01-16 03:01:05.52	335.51	15.67	-29.9	-33.1	14.0	3.80e-06	0	44	0	367001600	19	5184
2026-01-16 03:01:06.53	335.30	15.69	-30.0	-33.2	14.0	1.50e-06	0	43	0	369098752	19	5214
2026-01-16 03:01:07.53	335.08	15.71	-30.0	-32.8	13.8	4.50e-06	0	43	0	371195904	20	4988
2026-01-16 03:01:08.54	334.87	15.73	-30.1	-33.0	13.7	8.30e-06	0	43	0	373293056	20	5060
2026-01-16 03:01:09.54	334.65	15.75	-30.1	-33.2	13.6	1.14e-05	0	43	0	375390208	20	5120
2026-01-16 03:01:10.54	334.44	15.77	-30.2	-33.4	13.4	1.22e-05	0	44	0	376438784	20	5201
2026-01-16 03:01:11.53	334.23	15.79	-30.2	-33.5	13.3	1.75e-05	0	44	0	378535936	20	5227
2026-01-16 03:01:12.53	334.01	15.81	-30.2	-33.5	13.3	1.60e-05	0	44	0	380633088	20	5242
2026-01-16 03:01:13.53	333.80	15.83	-30.2	-33.4	13.4	1.60e-05	0	44	0	382730240	20	5198
2026-01-16 03:01:14.53	333.59	15.85	-30.2	-33.5	13.4	1.67e-05	0	44	0	384827392	20	5227
2026-01-16 03:01:15.53	333.37	15.86	-30.2	-33.4	13.4	2.13e-05	0	43	0	385875968	20	5205
2026-01-16 03:01:16.53	333.16	15.88	-30.2	-33.4	13.5	1.44e-05	0	43	0	387973120	20	5189
2026-01-16 03:01:17.53	332.94	15.90	-30.3	-33.5	13.4	1.75e-05	0	44	0	390070272	20	5250
2026-01-16 03:01:18.54	332.72	15.91	-30.2	-33.4	13.4	1.37e-05	0	43	0	392167424	20	5212
2026-01-16 03:01:19.54	332.51	15.93	-30.2	-33.3	13.5	6.10e-06	0	44	0	393216000	20	5146
2026-01-16 03:01:20.54	332.29	15.94	-30.2	-33.3	13.5	7.60e-06	0	43	0	395313152	20	5144
2026-01-16 03:01:21.54	332.07	15.96	-30.1	-33.2	13.6	1.14e-05	0	43	0	397410304	20	5116
2026-01-16 03:01:22.54	331.86	15.97	-30.1	-33.1	13.6	9.90e-06	0	43	0	399507456	20	5074
2026-01-16 03:01:23.55	331.64	15.99	-30.1	-33.1	13.6	3.20e-04	0	43	0	401604608	20	5069
2026-01-16 03:01:24.55	331.42	16.00	-30.1	-33.2	13.6	7.60e-06	0	44	0	402653184	20	5107
2026-01-16 03:01:25.56	331.20	16.02	-30.1	-33.2	13.6	1.06e-05	0	44	0	404750336	20	5107
2026-01-16 03:01:26.56	330.99	16.03	-30.1	-33.1	13.6	8.30e-06	0	44	0	406847488	20	5097
2026-01-16 03:01:27.55	330.77	16.04	-30.2	-33.5	13.4	4.25e-04	0	44	0	408944640	20	5233
2026-01-16 03:01:28.55	330.55	16.05	-30.3	-33.6	13.3	1.37e-05	0	43	0	411041792	20	5274
2026-01-16 03:01:29.55	330.33	16.06	-30.3	-33.7	13.2	2.21e-05	0	44	0	412090368	20	5326
2026-01-16 03:01:30.56	330.11	16.08	-30.4	-33.8	13.1	1.74e-04	0	44	0	414187520	20	5374
2026-01-16 03:01:31.56	329.90	16.09	-30.3	-33.7	13.3	2.28e-05	0	43	0	416284672	20	5299
2026-01-16 03:01:32.56	329.68	16.10	-30.3	-33.8	13.2	1.37e-05	0	44	0	418381824	20	5348
2026-01-16 03:01:33.56	329.46	16.11	-30.3	-33.8	13.2	3.46e-04	0	43	0	419430400	20	5336
2026-01-16 03:01:34.56	329.24	16.12	-30.3	-33.6	13.3	2.28e-05	0	44	0	421527552	20	5295
2026-01-16 03:01:35.56	329.02	16.12	-30.3	-33.7	13.2	1.52e-05	0	44	0	423624704	20	5318
2026-01-16 03:01:36.56	328.80	16.13	-30.3	-33.6	13.3	1.37e-05	0	44	0	425721856	20	5283
2026-01-16 03:01:37.56	328.58	16.14	-30.2	-33.5	13.4	1.29e-05	0	44	0	427819008	20	5228
2026-01-16 03:01:38.55	328.37	16.15	-30.3	-33.8	13.2	2.36e-05	0	44	0	428867584	20	5337
2026-01-16 03:01:39.55	328.15	16.16	-30.3	-33.8	13.2	2.36e-05	0	44	0	430964736	20	5342
2026-01-16 03:01:40.55	327.93	16.16	-30.4	-34.0	13.0	2.82e-05	0	44	0	433061888	20	5439
2026-01-16 03:01:41.55	327.71	16.17	-30.4	-34.1	13.0	1.88e-04	0	43	0	435159040	20	5457
2026-01-16 03:01:42.56	327.49	16.18	-30.4	-34.0	13.1	3.66e-05	0	44	0	437256192	20	5425
2026-01-16 03:01:43.55	327.27	16.18	-30.6	-34.0	12.7	5.34e-05	0	43	0	438304768	21	5329
2026-01-16 03:01:44.55	327.05	16.19	-30.6	-33.9	12.8	2.72e-04	0	43	0	440401920	21	5288
2026-01-16 03:01:45.55	326.83	16.19	-30.4	-33.4	13.1	3.42e-04	0	43	0	442499072	21	5079
2026-01-16 03:01:46.55	326.61	16.20	-30.3	-33.1	13.3	2.44e-05	0	44	0	444596224	21	4991
2026-01-16 03:01:47.55	326.39	16.20	-30.3	-33.6	13.3	3.88e-04	0	44	0	446693376	20	5286
2026-01-16 03:01:48.55	326.17	16.20	-30.3	-33.6	13.3	3.79e-04	0	44	0	447741952	20	5259
2026-01-16 03:01:49.56	325.95	16.21	-30.3	-33.5	13.3	1.67e-05	0	44	0	449839104	20	5256
2026-01-16 03:01:50.55	325.73	16.21	-30.3	-33.7	13.3	2.05e-05	0	44	0	451936256	20	5314
2026-01-16 03:01:51.56	325.51	16.21	-30.3	-33.7	13.3	1.16e-04	0	44	0	454033408	20	5304
2026-01-16 03:01:52.55	325.29	16.21	-30.4	-33.8	13.2	2.05e-05	0	44	0	455081984	20	5349
2026-01-16 03:01:53.55	325.07	16.22	-30.4	-33.9	13.2	4.04e-05	0	44	0	457179136	20	5375
2026-01-16 03:01:54.55	324.85	16.22	-30.4	-33.8	13.2	1.90e-05	0	44	0	459276288	20	5362
2026-01-16 03:01:55.55	324.63	16.22	-30.4	-33.9	13.1	2.74e-05	0	44	0	461373440	20	5404
2026-01-16 03:01:56.55	324.41	16.22	-30.5	-34.1	13.0	2.08e-04	0	44	0	463470592	20	5463
2026-01-16 03:01:57.56	324.19	16.22	-30.6	-34.0	12.7	4.65e-05	0	44	0	464519168	21	5338
2026-01-16 03:01:58.56	323.97	16.22	-30.6	-33.9	12.7	8.39e-05	0	44	0	466616320	21	5300
2026-01-16 03:01:59.55	323.75	16.22	-30.5	-34.1	13.0	4.25e-04	0	44	0	468713472	20	5458
2026-01-16 03:02:00.55	323.53	16.21	-30.5	-33.7	12.9	3.35e-05	0	44	0	470810624	21	5205
2026-01-16 03:02:01.55	323.31	16.21	-30.6	-34.1	12.6	8.54e-05	0	44	0	472907776	21	5379
2026-01-16 03:02:02.55	323.09	16.21	-30.6	-34.1	12.6	5.21e-04	0	44	0	473956352	21	5374
2026-01-16 03:02:03.56	322.86	16.21	-30.6	-33.9	12.8	4.63e-04	0	44	0	476053504	21	5271
2026-01-16 03:02:04.56	322.64	16.20	-30.6	-34.0	12.7	7.70e-05	0	44	0	478150656	21	5333
2026-01-16 03:02:05.56	322.42	16.20	-30.7	-34.4	12.4	3.65e-04	0	43	0	480247808	21	5492
2026-01-16 03:02:06.56	322.20	16.20	-30.7	-34.3	12.6	2.97e-04	0	44	0	482344960	21	5426
2026-01-16 03:02:07.57	321.98	16.19	-30.7	-34.2	12.5	9.00e-05	0	44	0	483393536	21	5419
2026-01-16 03:02:08.57	321.76	16.19	-30.7	-34.2	12.6	1.37e-04	0	44	0	485490688	21	5404
2026-01-16 03:02:09.57	321.54	16.18	-30.5	-33.8	12.8	7.17e-05	0	44	0	487587840	21	5258
2026-01-16 03:02:10.58	321.32	16.17	-30.5	-33.6	13.1	4.19e-05	0	44	0	489684992	21	5149
2026-01-16 03:02:11.57	321.10	16.17	-30.4	-33.5	13.0	4.88e-05	0	44	0	490733568	21	5135
2026-01-16 03:02:12.58	320.88	16.16	-30.6	-33.9	12.8	3.00e-04	0	44	0	492830720	21	5275
2026-01-16 03:02:13.58	320.66	16.15	-30.6	-34.0	12.7	6.40e-05	0	44	0	494927872	21	5313
2026-01-16 03:02:14.58	320.44	16.15	-30.8	-34.5	12.4	4.85e-04	0	44	0	497025024	21	5534
2026-01-16 03:02:15.59	320.22	16.14	-30.8	-34.5	12.4	6.34e-04	0	44	0	499122176	21	5511
2026-01-16 03:02:16.58	320.00	16.13	-30.6	-33.9	12.7	9.99e-05	0	44	0	500170752	21	5295
2026-01-16 03:02:17.59	319.78	16.12	-30.5	-33.7	13.0	4.47e-04	0	44	0	502267904	21	5198
2026-01-16 03:02:18.59	319.56	16.11	-30.4	-33.9	13.1	4.29e-04	0	44	0	504365056	20	5394
2026-01-16 03:02:19.59	319.35	16.10	-30.4	-33.8	13.2	2.82e-05	0	44	0	506462208	20	5359
2026-01-16 03:02:20.60	319.12	16.09	-30.3	-33.8	13.2	3.07e-04	0	44	0	508559360	20	5352
2026-01-16 03:02:21.60	318.91	16.08	-30.3	-33.7	13.2	2.72e-04	0	44	0	509607936	20	5324
2026-01-16 03:02:22.60	318.69	16.07	-30.3	-33.7	13.3	2.05e-05	0	44	0	511705088	20	5305
2026-01-16 03:02:23.60	318.47	16.06	-30.2	-33.5	13.4	1.59e-04	0	44	0	513802240	20	5226
2026-01-16 03:02:24.60	318.25	16.05	-30.2	-33.4	13.4	1.23e-04	0	44	0	515899392	20	5216
2026-01-16 03:02:25.60	318.03	16.04	-30.1	-33.2	13.5	9.90e-06	0	44	0	517996544	20	5145
2026-01-16 03:02:26.59	317.82	16.02	-30.1	-33.2	13.5	3.80e-06	0	44	0	519045120	20	5146
2026-01-16 03:02:27.59	317.60	16.01	-30.1	-33.1	13.6	6.80e-06	0	44	0	521142272	20	5081
2026-01-16 03:02:28.59	317.38	16.00	-30.1	-33.1	13.7	4.50e-06	0	44	0	523239424	20	5074
2026-01-16 03:02:29.59	317.17	15.98	-30.1	-33.1	13.6	6.80e-06	0	44	0	525336576	20	5100
2026-01-16 03:02:30.60	316.95	15.97	-30.2	-33.3	13.5	6.10e-06	0	44	0	527433728	20	5162
2026-01-16 03:02:31.60	316.73	15.95	-30.2	-33.4	13.5	1.29e-05	0	44	0	528482304	20	5192
2026-01-16 03:02:32.61	316.51	15.94	-30.3	-33.7	13.2	2.67e-05	0	44	0	530579456	20	5337
2026-01-16 03:02:33.60	316.30	15.92	-30.3	-33.5	13.3	1.67e-05	0	44	0	532676608	20	5252
2026-01-16 03:02:34.61	316.08	15.91	-30.2	-33.3	13.5	1.60e-05	0	44	0	534773760	20	5171
2026-01-16 03:02:35.61	315.86	15.89	-30.1	-33.2	13.6	5.30e-06	0	44	0	535822336	20	5123
2026-01-16 03:02:36.60	315.65	15.87	-30.1	-33.1	13.7	9.10e-06	0	44	0	537919488	20	5069
2026-01-16 03:02:37.61	315.43	15.86	-30.0	-33.0	13.7	6.10e-06	0	44	0	540016640	20	5042
2026-01-16 03:02:38.61	315.22	15.84	-30.2	-33.3	13.5	9.23e-05	0	44	0	542113792	20	5151
2026-01-16 03:02:39.62	315.00	15.82	-30.1	-33.1	13.6	6.80e-06	0	44	0	544210944	20	5089
2026-01-16 03:02:40.61	314.79	15.80	-30.1	-33.2	13.6	5.30e-06	0	44	0	545259520	20	5123
2026-01-16 03:02:41.62	314.57	15.78	-30.1	-33.1	13.6	1.69e-04	0	44	0	547356672	20	5080
2026-01-16 03:02:42.62	314.36	15.77	-30.1	-33.1	13.6	5.30e-06	0	44	0	549453824	20	5079
2026-01-16 03:02:43.62	314.15	15.75	-30.1	-33.2	13.6	8.30e-06	0	44	0	551550976	20	5135
2026-01-16 03:02:44.62	313.93	15.73	-30.0	-32.9	13.7	4.23e-04	0	44	0	553648128	20	5034
2026-01-16 03:02:45.62	313.72	15.71	-30.1	-33.1	13.6	4.81e-04	0	44	0	554696704	20	5113
2026-01-16 03:02:46.62	313.51	15.69	-30.0	-32.9	13.7	9.90e-06	0	44	0	556793856	20	5035
2026-01-16 03:02:47.62	313.29	15.67	-29.9	-33.1	14.0	5.32e-04	0	44	0	558891008	19	5188
2026-01-16 03:02:48.62	313.08	15.64	-29.9	-33.0	14.0	5.24e-04	0	44	0	560988160	19	5162
2026-01-16 03:02:49.62	312.87	15.62	-29.9	-33.2	13.9	4.50e-06	0	44	0	562036736	19	5212
2026-01-16 03:02:50.63	312.66	15.60	-29.9	-33.1	14.0	2.20e-06	0	44	0	564133888	19	5192
2026-01-16 03:02:51.63	312.44	15.58	-30.0	-32.9	13.7	3.50e-04	0	44	0	566231040	20	5033
2026-01-16 03:02:52.63	312.23	15.55	-30.0	-32.8	13.8	5.30e-06	0	44	0	568328192	20	4977
2026-01-16 03:02:53.63	312.02	15.53	-30.0	-32.9	13.7	4.50e-06	0	44	0	570425344	20	5007
2026-01-16 03:02:54.63	311.81	15.51	-30.0	-33.0	13.6	9.10e-06	0	44	0	572522496	20	5056
2026-01-16 03:02:55.64	311.60	15.48	-30.2	-33.5	13.3	7.60e-06	0	44	0	573571072	20	5247
2026-01-16 03:02:56.64	311.39	15.46	-30.1	-33.2	13.5	1.52e-05	0	43	0	575668224	20	5135
2026-01-16 03:02:57.64	311.18	15.43	-30.0	-32.9	13.7	8.30e-06	0	44	0	577765376	20	5020
2026-01-16 03:02:58.64	310.97	15.41	-29.9	-32.5	13.9	2.20e-06	0	44	0	579862528	20	4891
2026-01-16 03:02:59.64	310.76	15.38	-29.9	-33.1	14.0	1.50e-06	0	44	0	580911104	19	5194
2026-01-16 03:03:00.65	310.55	15.36	-29.9	-33.2	13.9	3.80e-06	0	44	0	583008256	19	5223
2026-01-16 03:03:01.65	310.35	15.33	-29.9	-33.2	13.9	3.80e-06	0	44	0	585105408	19	5233
2026-01-16 03:03:02.65	310.14	15.31	-29.9	-32.7	13.8	8.18e-04	0	44	0	587202560	20	4955
2026-01-16 03:03:03.65	309.93	15.28	-30.0	-33.1	13.6	3.00e-06	0	44	0	589299712	20	5089
2026-01-16 03:03:04.65	309.72	15.25	-30.1	-33.1	13.5	9.90e-06	0	44	0	590348288	20	5101
2026-01-16 03:03:05.65	309.52	15.22	-30.1	-33.3	13.4	1.43e-03	0	44	0	592445440	20	5172
2026-01-16 03:03:06.65	309.31	15.20	-30.1	-33.3	13.4	1.29e-05	0	44	0	594542592	20	5163
2026-01-16 03:03:07.65	309.11	15.17	-30.2	-33.5	13.3	1.06e-05	0	44	0	596639744	20	5236
2026-01-16 03:03:08.65	308.90	15.14	-30.3	-33.7	13.1	2.51e-05	0	43	0	598736896	20	5337
2026-01-16 03:03:09.65	308.70	15.11	-30.3	-33.6	13.2	1.31e-03	0	44	0	599785472	20	5298
2026-01-16 03:03:10.64	308.49	15.08	-30.3	-33.7	13.1	2.74e-05	0	44	0	601882624	20	5349
2026-01-16 03:03:11.65	308.29	15.05	-30.3	-33.7	13.1	3.35e-05	0	44	0	603979776	20	5320
2026-01-16 03:03:12.64	308.09	15.02	-30.2	-33.6	13.2	2.28e-05	0	44	0	606076928	20	5276
2026-01-16 03:03:13.64	307.88	14.99	-30.2	-33.6	13.2	2.13e-05	0	44	0	607125504	20	5285
2026-01-16 03:03:14.65	307.68	14.96	-30.3	-33.8	13.0	2.82e-05	0	44	0	609222656	20	5392
2026-01-16 03:03:15.65	307.48	14.93	-30.3	-33.7	13.1	4.27e-05	0	44	0	611319808	20	5340
2026-01-16 03:03:16.65	307.27	14.90	-30.2	-33.4	13.3	2.97e-05	0	44	0	613416960	20	5235
2026-01-16 03:03:17.65	307.07	14.87	-30.2	-33.4	13.3	2.05e-05	0	44	0	615514112	20	5213
2026-01-16 03:03:18.65	306.87	14.84	-30.2	-33.5	13.2	2.44e-05	0	43	0	616562688	20	5259
2026-01-16 03:03:19.65	306.67	14.80	-30.3	-33.7	13.1	2.28e-05	0	44	0	618659840	20	5337
2026-01-16 03:03:20.65	306.47	14.77	-30.3	-33.7	13.1	1.90e-05	0	44	0	620756992	20	5333
2026-01-16 03:03:21.65	306.27	14.74	-30.3	-33.7	13.1	3.89e-05	0	43	0	622854144	20	5337
2026-01-16 03:03:22.65	306.07	14.71	-30.3	-33.8	13.0	3.35e-05	0	44	0	624951296	20	5375
2026-01-16 03:03:23.66	305.87	14.67	-30.3	-33.9	12.9	4.88e-05	0	44	0	625999872	20	5414
2026-01-16 03:03:24.66	305.67	14.64	-30.2	-33.6	13.2	3.89e-05	0	44	0	628097024	20	5292
2026-01-16 03:03:25.66	305.48	14.61	-30.1	-33.3	13.3	1.37e-05	0	44	0	630194176	20	5179
2026-01-16 03:03:26.66	305.28	14.57	-30.0	-32.9	13.6	2.05e-05	0	43	0	632291328	20	5021
2026-01-16 03:03:27.66	305.08	14.54	-30.0	-32.8	13.6	6.80e-06	0	44	0	634388480	20	5017
2026-01-16 03:03:28.66	304.88	14.50	-29.9	-32.7	13.7	7.60e-06	0	44	0	635437056	20	4972
2026-01-16 03:03:29.66	304.69	14.47	-29.9	-33.2	13.7	3.00e-06	0	44	0	637534208	19	5238
2026-01-16 03:03:30.66	304.49	14.43	-29.9	-33.1	13.8	4.50e-06	0	44	0	639631360	19	5220
2026-01-16 03:03:31.67	304.29	14.40	-29.9	-33.0	13.8	3.00e-06	0	44	0	641728512	19	5193
2026-01-16 03:03:32.67	304.10	14.36	-30.0	-32.9	13.6	6.10e-06	0	44	0	642777088	20	5028
2026-01-16 03:03:33.67	303.91	14.32	-30.1	-33.3	13.3	9.90e-06	0	44	0	644874240	20	5188
2026-01-16 03:03:34.66	303.71	14.29	-30.2	-33.4	13.2	3.20e-05	0	44	0	646971392	20	5223
2026-01-16 03:03:35.67	303.52	14.25	-30.1	-33.3	13.3	1.60e-05	0	44	0	649068544	20	5187
2026-01-16 03:03:36.67	303.33	14.21	-30.1	-33.3	13.3	1.67e-05	0	44	0	651165696	20	5192
2026-01-16 03:03:37.67	303.13	14.18	-30.2	-33.5	13.1	2.82e-05	0	44	0	652214272	20	5292
2026-01-16 03:03:38.67	302.94	14.14	-30.6	-33.9	13.1	1.98e-05	0	44	0	654311424	20	5292
2026-01-16 03:03:39.68	302.75	14.10	-30.0	-32.9	13.5	1.75e-05	0	44	0	656408576	20	5051
2026-01-16 03:03:40.68	302.56	14.06	-30.0	-32.9	12.9	9.69e-04	0	44	0	658505728	20	5061
2026-01-16 03:03:41.68	302.37	14.02	-30.1	-33.2	12.8	1.22e-05	0	44	0	660602880	20	5147
2026-01-16 03:03:42.68	302.18	13.99	-30.1	-33.2	13.3	1.98e-05	0	43	0	661651456	20	5151
2026-01-16 03:03:43.69	301.99	13.95	-30.1	-33.1	13.3	1.67e-05	0	44	0	663748608	20	5134
2026-01-16 03:03:44.69	301.80	13.91	-30.1	-33.2	13.2	2.97e-05	0	44	0	665845760	20	5163
2026-01-16 03:03:45.70	301.61	13.87	-30.1	-33.3	13.2	1.44e-05	0	44	0	667942912	20	5197
2026-01-16 03:03:46.69	301.42	13.83	-30.2	-33.7	13.0	1.98e-05	0	44	0	670040064	20	5340
2026-01-16 03:03:47.70	301.23	13.79	-30.3	-33.7	12.9	1.20e-03	0	44	0	671088640	20	5361
2026-01-16 03:03:48.70	301.05	13.75	-30.0	-33.1	13.4	1.98e-05	0	44	0	673185792	20	5127
2026-01-16 03:03:49.71	300.86	13.71	-29.9	-32.8	13.5	1.29e-05	0	44	0	675282944	20	5018
2026-01-16 03:03:50.70	300.67	13.67	-29.9	-32.8	13.5	1.44e-05	0	44	0	677380096	20	5012
2026-01-16 03:03:51.70	300.49	13.63	-29.9	-32.8	13.6	9.90e-06	0	44	0	679477248	20	4994
2026-01-16 03:03:52.71	300.30	13.59	-29.9	-33.3	13.6	9.10e-06	0	44	0	680525824	19	5294
2026-01-16 03:03:53.71	300.12	13.55	-29.9	-33.3	13.6	9.10e-06	0	44	0	682622976	19	5286
2026-01-16 03:03:54.71	299.93	13.50	-30.0	-33.0	13.4	1.52e-05	0	44	0	684720128	20	5070
2026-01-16 03:03:55.71	299.75	13.46	-30.2	-33.5	13.1	3.28e-05	0	44	0	686817280	20	5285
2026-01-16 03:03:56.72	299.57	13.42	-30.1	-33.3	13.2	3.89e-05	0	44	0	687865856	20	5195
2026-01-16 03:03:57.72	299.38	13.38	-29.8	-32.6	13.7	1.44e-05	0	44	0	689963008	20	4927
2026-01-16 03:03:58.72	299.20	13.34	-29.9	-33.2	13.7	1.59e-03	0	44	0	692060160	19	5260
2026-01-16 03:03:59.73	299.02	13.29	-29.9	-33.1	13.7	7.60e-06	0	44	0	694157312	19	5227
2026-01-16 03:04:00.74	298.84	13.25	-30.0	-32.9	13.4	9.10e-06	0	44	0	696254464	20	5068
2026-01-16 03:04:01.74	298.66	13.21	-30.1	-33.3	13.2	1.57e-03	0	44	0	698351616	20	5188
2026-01-16 03:04:02.74	298.48	13.16	-30.1	-33.2	13.2	2.74e-05	0	44	0	699400192	20	5168
2026-01-16 03:04:03.74	298.30	13.12	-30.2	-33.5	13.0	1.60e-05	0	44	0	701497344	20	5298
2026-01-16 03:04:04.74	298.12	13.08	-30.2	-33.7	12.9	1.48e-03	0	44	0	703594496	20	5359
2026-01-16 03:04:05.74	297.94	13.03	-30.3	-33.9	12.7	1.36e-03	0	44	0	705691648	20	5468
2026-01-16 03:04:06.75	297.76	12.99	-30.3	-33.8	12.8	1.02e-04	0	44	0	706740224	20	5412
2026-01-16 03:04:07.75	297.59	12.94	-30.4	-34.2	12.6	5.72e-05	0	44	0	708837376	20	5568
2026-01-16 03:04:08.75	297.41	12.90	-30.4	-34.2	12.5	6.09e-04	0	44	0	710934528	20	5558
2026-01-16 03:04:09.75	297.23	12.86	-30.5	-34.4	12.4	9.46e-05	0	44	0	713031680	20	5644
2026-01-16 03:04:10.76	297.06	12.81	-30.4	-34.3	12.5	1.69e-04	0	44	0	715128832	20	5599
2026-01-16 03:04:11.75	296.88	12.77	-30.3	-34.0	12.7	5.58e-04	0	44	0	716177408	20	5494
2026-01-16 03:04:12.75	296.71	12.72	-30.3	-33.9	12.7	8.23e-05	0	44	0	718274560	20	5459
2026-01-16 03:04:13.75	296.54	12.68	-30.4	-34.1	12.6	8.39e-05	0	44	0	720371712	20	5540
2026-01-16 03:04:14.75	296.36	12.63	-30.5	-34.1	12.3	1.40e-04	0	44	0	722468864	21	5408
2026-01-16 03:04:15.76	296.19	12.59	-30.8	-34.7	11.8	3.30e-04	0	44	0	724566016	21	5694
2026-01-16 03:04:16.76	296.02	12.54	-30.8	-34.7	11.8	1.86e-03	0	44	0	725614592	21	5697
2026-01-16 03:04:17.76	295.84	12.49	-30.8	-34.9	11.7	4.52e-04	0	44	0	727711744	21	5757
2026-01-16 03:04:18.77	295.67	12.45	-30.8	-34.7	11.8	5.81e-04	0	44	0	729808896	21	5701
2026-01-16 03:04:19.76	295.50	12.40	-30.6	-34.4	12.0	1.09e-03	0	44	0	731906048	21	5563
2026-01-16 03:04:20.77	295.33	12.35	-30.6	-34.2	12.1	2.78e-04	0	44	0	732954624	21	5477
2026-01-16 03:04:21.76	295.16	12.31	-30.7	-34.5	12.0	3.23e-04	0	44	0	735051776	21	5573
2026-01-16 03:04:22.76	294.99	12.26	-30.7	-34.5	11.9	1.63e-03	0	44	0	737148928	21	5614
2026-01-16 03:04:23.76	294.83	12.22	-30.7	-34.7	11.8	1.88e-03	0	44	0	739246080	21	5701
2026-01-16 03:04:24.76	294.66	12.17	-30.8	-34.9	11.6	5.42e-04	0	44	0	741343232	21	5756
2026-01-16 03:04:25.76	294.49	12.12	-30.9	-35.1	11.5	2.40e-03	0	44	0	742391808	21	5884
2026-01-16 03:04:26.76	294.32	12.07	-30.9	-35.2	11.4	2.76e-03	0	44	0	744488960	21	5921
2026-01-16 03:04:27.76	294.16	12.03	-30.9	-35.4	11.2	9.31e-04	0	44	0	746586112	21	6010
2026-01-16 03:04:28.77	293.99	11.98	-30.9	-35.4	11.3	2.90e-03	0	44	0	748683264	21	6009
2026-01-16 03:04:29.77	293.83	11.93	-31.0	-35.2	11.0	3.09e-03	0	44	0	750780416	22	5831
2026-01-16 03:04:30.77	293.66	11.88	-31.1	-35.5	10.8	2.06e-03	0	44	0	751828992	22	5950
2026-01-16 03:04:31.77	293.50	11.84	-31.1	-35.3	10.9	2.72e-03	0	44	0	753926144	22	5875
2026-01-16 03:04:32.76	293.34	11.79	-31.1	-35.3	11.0	3.93e-03	0	44	0	756023296	22	5859
2026-01-16 03:04:33.77	293.17	11.74	-31.0	-35.2	11.0	1.77e-03	0	44	0	758120448	22	5813
2026-01-16 03:04:34.77	293.01	11.69	-31.0	-35.3	10.9	4.11e-03	0	44	0	760217600	22	5859
2026-01-16 03:04:35.77	292.85	11.64	-31.1	-35.6	10.7	5.21e-03	0	44	0	761266176	22	6047
2026-01-16 03:04:36.77	292.69	11.59	-31.2	-36.0	10.4	3.76e-03	0	44	0	763363328	22	6206
2026-01-16 03:04:37.77	292.53	11.54	-31.2	-35.9	10.4	6.77e-03	0	44	0	765460480	22	6194
2026-01-16 03:04:38.78	292.36	11.50	-31.4	-36.5	10.1	5.69e-03	0	44	0	767557632	22	6459
2026-01-16 03:04:39.78	292.20	11.45	-31.4	-36.6	9.9	8.74e-03	0	44	0	769654784	22	6557
2026-01-16 03:04:40.78	292.05	11.40	-31.5	-36.3	9.7	1.19e-02	0	44	0	770703360	23	6277
2026-01-16 03:04:41.78	291.89	11.35	-31.7	-37.0	9.2	1.54e-02	0	44	0	772800512	23	6654
2026-01-16 03:04:42.77	291.73	11.30	-31.6	-36.8	9.4	1.86e-02	0	44	0	774897664	23	6538
2026-01-16 03:04:43.77	291.57	11.25	-31.7	-37.3	9.0	1.95e-02	0	44	0	776994816	23	6816
2026-01-16 03:04:44.77	291.42	11.20	-31.6	-36.9	9.3	2.50e-02	0	44	0	778043392	23	6619
2026-01-16 03:04:45.77	291.26	11.15	-31.5	-36.4	9.7	1.24e-02	0	44	0	780140544	23	6345
2026-01-16 03:04:46.77	291.10	11.10	-31.3	-36.3	10.1	8.98e-03	0	44	0	782237696	22	6381
2026-01-16 03:04:47.76	290.95	11.05	-31.3	-36.1	10.3	6.32e-03	0	44	0	784334848	22	6265
2026-01-16 03:04:48.77	290.79	11.00	-31.3	-36.2	10.2	5.58e-03	0	44	0	786432000	22	6343
2026-01-16 03:04:49.78	290.64	10.95	-31.3	-36.1	10.3	5.87e-03	0	44	0	787480576	22	6284
2026-01-16 03:04:50.78	290.48	10.90	-31.2	-35.9	10.5	5.10e-03	0	44	0	789577728	22	6147
2026-01-16 03:04:51.78	290.33	10.85	-31.2	-35.8	10.5	3.65e-03	0	44	0	791674880	22	6102
2026-01-16 03:04:52.78	290.18	10.80	-31.2	-35.8	10.5	3.47e-03	0	44	0	793772032	22	6124
2026-01-16 03:04:53.77	290.03	10.75	-31.1	-35.7	10.6	3.77e-03	0	44	0	795869184	22	6059
2026-01-16 03:04:54.78	289.87	10.70	-31.2	-36.0	10.3	4.22e-03	0	44	0	796917760	22	6241
2026-01-16 03:04:55.78	289.72	10.65	-31.2	-36.0	10.4	5.47e-03	0	44	0	799014912	22	6199
2026-01-16 03:04:56.78	289.57	10.60	-31.3	-36.1	10.2	4.95e-03	0	44	0	801112064	22	6305
2026-01-16 03:04:57.78	289.42	10.55	-31.2	-36.0	10.3	6.01e-03	0	44	0	803209216	22	6238
2026-01-16 03:04:58.78	289.27	10.50	-31.3	-36.2	10.2	6.80e-03	0	44	0	805306368	22	6319
2026-01-16 03:04:59.79	289.12	10.44	-31.2	-36.0	10.2	5.32e-03	0	44	0	806354944	22	6260
2026-01-16 03:05:00.79	288.97	10.39	-31.2	-36.0	10.3	5.86e-03	0	44	0	808452096	22	6254
2026-01-16 03:05:01.79	288.83	10.34	-31.2	-36.1	10.2	5.91e-03	0	44	0	810549248	22	6306
2026-01-16 03:05:02.80	288.68	10.29	-31.2	-35.9	10.3	6.96e-03	0	44	0	812646400	22	6206
2026-01-16 03:05:03.80	288.53	10.24	-31.2	-35.8	10.4	4.13e-03	0	44	0	813694976	22	6151
2026-01-16 03:05:04.81	288.38	10.19	-31.1	-35.8	10.4	5.00e-03	0	44	0	815792128	22	6133
2026-01-16 03:05:05.81	288.24	10.14	-31.2	-36.1	10.2	4.80e-03	0	44	0	817889280	22	6282
2026-01-16 03:05:06.81	288.09	10.08	-31.2	-35.9	10.3	5.18e-03	0	44	0	819986432	22	6212
2026-01-16 03:05:07.81	287.95	10.03	-31.2	-36.0	10.2	5.72e-03	0	44	0	822083584	22	6261
2026-01-16 03:05:08.81	287.80	9.98	-31.2	-36.0	10.2	6.76e-03	0	44	0	823132160	22	6255
2026-01-16 03:05:09.81	287.66	9.93	-31.1	-35.8	10.3	5.73e-03	0	44	0	825229312	22	6175
2026-01-16 03:05:10.81	287.52	9.88	-31.2	-35.9	10.3	5.57e-03	0	44	0	827326464	22	6179
2026-01-16 03:05:11.82	287.37	9.83	-31.1	-35.8	10.4	7.89e-03	0	44	0	829423616	22	6144
2026-01-16 03:05:12.82	287.23	9.77	-31.0	-35.5	10.5	4.85e-03	0	44	0	831520768	22	6019
2026-01-16 03:05:13.82	287.09	9.72	-31.1	-35.8	10.3	4.08e-03	0	44	0	832569344	22	6157
2026-01-16 03:05:14.83	286.95	9.67	-31.0	-35.6	10.4	5.77e-03	0	44	0	834666496	22	6063
2026-01-16 03:05:15.83	286.81	9.62	-31.0	-35.3	10.6	3.66e-03	0	44	0	836763648	22	5942
2026-01-16 03:05:16.83	286.67	9.56	-31.1	-35.7	10.4	3.98e-03	0	44	0	838860800	22	6101
2026-01-16 03:05:17.83	286.53	9.51	-30.9	-35.2	10.7	3.60e-03	0	44	0	840957952	22	5892
2026-01-16 03:05:18.83	286.39	9.46	-30.8	-34.9	10.9	2.66e-03	0	44	0	842006528	22	5737
2026-01-16 03:05:19.83	286.25	9.41	-30.8	-35.2	11.0	4.58e-03	0	44	0	844103680	21	6002
2026-01-16 03:05:20.84	286.11	9.35	-30.8	-35.2	11.0	1.65e-03	0	44	0	846200832	21	6011
2026-01-16 03:05:21.84	285.97	9.30	-30.9	-35.7	10.6	2.49e-03	0	44	0	848297984	21	6237
2026-01-16 03:05:22.84	285.83	9.25	-30.9	-35.5	10.7	5.29e-03	0	44	0	850395136	21	6164
2026-01-16 03:05:23.84	285.70	9.20	-30.8	-35.4	10.8	2.87e-03	0	44	0	851443712	21	6099
2026-01-16 03:05:24.84	285.56	9.15	-30.8	-35.4	10.8	2.50e-03	0	44	0	853540864	21	6117
2026-01-16 03:05:25.84	285.43	9.09	-30.9	-35.6	10.6	2.74e-03	0	44	0	855638016	21	6220
2026-01-16 03:05:26.84	285.29	9.04	-30.8	-35.6	10.7	5.38e-03	0	44	0	857735168	21	6194
2026-01-16 03:05:27.84	285.16	8.99	-30.9	-35.7	10.6	3.24e-03	0	44	0	858783744	21	6237
2026-01-16 03:05:28.84	285.02	8.93	-30.8	-35.5	10.7	3.45e-03	0	44	0	860880896	21	6154
2026-01-16 03:05:29.84	284.89	8.88	-30.8	-35.4	10.8	2.39e-03	0	44	0	862978048	21	6113
2026-01-16 03:05:30.85	284.75	8.83	-30.7	-35.1	10.9	1.87e-03	0	44	0	865075200	21	5977
2026-01-16 03:05:31.85	284.62	8.78	-30.7	-35.2	10.9	2.09e-03	0	44	0	867172352	21	6022
2026-01-16 03:05:32.84	284.49	8.72	-30.6	-34.9	11.1	1.74e-03	0	44	0	868220928	21	5855
2026-01-16 03:05:33.85	284.36	8.67	-30.6	-34.8	11.2	1.30e-03	0	44	0	870318080	21	5812
2026-01-16 03:05:34.85	284.23	8.62	-30.6	-34.6	11.3	1.09e-03	0	44	0	872415232	21	5736
2026-01-16 03:05:35.85	284.10	8.56	-30.6	-34.8	11.2	1.15e-03	0	44	0	874512384	21	5835
2026-01-16 03:05:36.86	283.96	8.51	-30.5	-34.5	11.4	1.35e-03	0	44	0	876609536	21	5687
2026-01-16 03:05:37.86	283.83	8.46	-30.6	-34.9	11.1	1.47e-03	0	44	0	877658112	21	5885
2026-01-16 03:05:38.87	283.70	8.40	-30.5	-34.4	11.4	1.51e-03	0	44	0	879755264	21	5660
2026-01-16 03:05:39.87	283.57	8.35	-30.5	-34.5	11.3	1.06e-03	0	44	0	881852416	21	5704
2026-01-16 03:05:40.87	283.45	8.30	-30.5	-34.5	11.4	9.16e-04	0	44	0	883949568	21	5691
2026-01-16 03:05:41.88	283.32	8.24	-30.6	-34.8	11.1	1.58e-03	0	44	0	886046720	21	5835
2026-01-16 03:05:42.88	283.19	8.19	-30.5	-34.4	11.3	1.54e-03	0	44	0	887095296	21	5673
2026-01-16 03:05:43.88	283.06	8.14	-30.4	-34.6	11.6	6.60e-04	0	44	0	889192448	20	5853
2026-01-16 03:05:44.88	282.94	8.08	-30.4	-34.8	11.4	8.83e-04	0	44	0	891289600	20	5929
2026-01-16 03:05:45.87	282.81	8.03	-30.4	-34.6	11.6	6.55e-04	0	44	0	893386752	20	5869
2026-01-16 03:05:46.88	282.69	7.98	-30.3	-34.4	11.7	5.23e-04	0	44	0	895483904	20	5771
2026-01-16 03:05:47.87	282.56	7.93	-30.4	-34.6	11.6	7.97e-04	0	44	0	896532480	20	5848
2026-01-16 03:05:48.87	282.44	7.87	-30.4	-34.6	11.6	6.52e-04	0	44	0	898629632	20	5864
2026-01-16 03:05:49.88	282.31	7.82	-30.2	-34.6	11.3	7.26e-04	0	44	0	900726784	20	6005
2026-01-16 03:05:50.87	282.19	7.77	-30.3	-34.4	11.6	6.18e-04	0	44	0	902823936	20	5778
2026-01-16 03:05:51.87	282.07	7.71	-30.2	-34.1	11.8	4.46e-04	0	44	0	903872512	20	5659
2026-01-16 03:05:52.87	281.94	7.66	-30.1	-33.7	12.0	4.03e-04	0	44	0	905969664	20	5480
2026-01-16 03:05:53.87	281.82	7.61	-30.3	-34.5	11.6	3.72e-04	0	44	0	908066816	20	5829
2026-01-16 03:05:54.87	281.70	7.55	-30.2	-34.1	11.8	5.69e-04	0	44	0	910163968	20	5644
2026-01-16 03:05:55.88	281.58	7.50	-30.1	-33.8	12.0	2.84e-04	0	44	0	912261120	20	5511
2026-01-16 03:05:56.88	281.46	7.45	-30.2	-34.2	11.8	3.58e-04	0	43	0	913309696	20	5683
2026-01-16 03:05:57.89	281.33	7.39	-30.3	-34.5	11.6	8.78e-04	0	44	0	915406848	20	5834
2026-01-16 03:05:58.88	281.22	7.34	-30.2	-34.2	11.8	5.22e-04	0	44	0	917504000	20	5682
2026-01-16 03:05:59.87	281.10	7.29	-30.4	-34.6	11.5	6.02e-04	0	44	0	919601152	20	5854
2026-01-16 03:06:00.87	280.98	7.23	-30.3	-34.4	11.6	7.22e-04	0	44	0	921698304	20	5792
2026-01-16 03:06:01.87	280.86	7.18	-30.3	-34.3	11.7	5.63e-04	0	44	0	922746880	20	5720
2026-01-16 03:06:02.87	280.74	7.13	-30.1	-33.8	12.1	3.26e-04	0	44	0	924844032	20	5520
2026-01-16 03:06:03.87	280.62	7.07	-30.2	-34.0	11.9	3.81e-04	0	44	0	926941184	20	5612
2026-01-16 03:06:04.86	280.51	7.02	-32.9	-46.6	3.8	2.45e-01	0	44	104	927989760	25	17555
2026-01-16 03:06:05.86	280.39	6.97	-33.5	-48.0	3.8	1.49e+00	0	44	104	927989760	26	19248

#Closed at: 2026-01-16 03:06:06
#Recorded file [927 MB]: D:/data/31010_260116_055749.dat