passes_logs/2026/01/16/R2M6_AANII_01/R2M6_AANII_01__20260116_070056_FENGYUN_3E_rec.log

#Pass ID: 20260116_070056_FENGYUN 3E
#Satellite: FENGYUN 3E
#Configuration: FENGYUN 3E
#almurnet v.1.7.20240730
#Start time: 2026-01-16 07:00:56

#Version: 2.2.20231116
#Station: R2M6_AANII_01
#Location: 30.233357 lon 59.946436 lat
#TLE: 1 49008U 21062A   26015.49897766  .00000206  00000+0  11779-3 0  9997
#TLE: 2 49008  98.7486  20.6219 0002049 135.8566 224.2775 14.19885576234916

#Time	Az	El	Level	Level2	SNR	BER	BlckErr	Temp	State	Recorded	gain1	gain2
2026-01-16 07:00:56.01	8.90	6.98	-31.3	-35.0	4.6	8.12e-01	0	41	0	0	23	5525
2026-01-16 07:00:57.01	8.79	7.04	-30.1	-32.3	5.2	7.71e-01	0	41	104	0	21	4605
2026-01-16 07:00:58.01	8.68	7.09	-30.2	-32.4	8.4	3.83e-02	0	41	0	0	21	4659
2026-01-16 07:00:59.01	8.57	7.15	-30.3	-32.6	8.4	4.55e-02	0	41	0	7340032	21	4693
2026-01-16 07:01:00.01	8.46	7.21	-30.2	-32.4	8.5	3.56e-02	0	41	0	14680064	21	4633
2026-01-16 07:01:01.02	8.35	7.26	-30.1	-32.1	8.6	4.14e-02	0	41	0	22020096	21	4549
2026-01-16 07:01:02.02	8.24	7.32	-30.0	-31.9	8.8	2.95e-02	0	41	0	28311552	21	4479
2026-01-16 07:01:03.02	8.13	7.38	-30.2	-32.3	8.6	3.63e-02	0	41	0	35651584	21	4580
2026-01-16 07:01:04.03	8.01	7.44	-30.1	-32.1	8.8	2.98e-02	0	41	0	42991616	21	4518
2026-01-16 07:01:05.03	7.90	7.49	-29.7	-31.5	9.4	1.70e-02	0	41	0	50331648	20	4423
2026-01-16 07:01:06.03	7.79	7.55	-29.3	-30.9	10.3	4.70e-03	0	41	0	57671680	19	4311
2026-01-16 07:01:07.03	7.67	7.61	-28.9	-29.9	10.9	2.68e-03	0	42	0	65011712	19	4022
2026-01-16 07:01:08.03	7.56	7.66	-28.5	-29.3	11.6	6.48e-04	0	41	0	72351744	18	3966
2026-01-16 07:01:09.04	7.45	7.72	-28.2	-29.1	12.1	2.92e-04	0	42	0	79691776	17	3990
2026-01-16 07:01:10.04	7.33	7.78	-28.0	-28.8	12.3	2.24e-04	0	42	0	85983232	17	3915
2026-01-16 07:01:11.05	7.22	7.84	-28.2	-29.0	12.1	2.16e-04	0	42	0	93323264	17	3984
2026-01-16 07:01:12.06	7.10	7.89	-27.9	-28.5	12.4	1.64e-04	0	42	0	100663296	17	3846
2026-01-16 07:01:13.06	6.98	7.95	-28.0	-29.1	12.4	1.20e-04	0	42	0	108003328	16	4106
2026-01-16 07:01:14.06	6.87	8.01	-28.1	-29.5	12.2	1.60e-04	0	41	0	115343360	16	4202
2026-01-16 07:01:15.07	6.75	8.07	-28.0	-29.1	12.3	1.70e-04	0	42	0	122683392	16	4113
2026-01-16 07:01:16.06	6.63	8.12	-27.8	-28.7	12.6	5.60e-05	0	42	0	130023424	16	3993
2026-01-16 07:01:17.06	6.51	8.18	-27.8	-28.8	12.6	8.01e-05	0	42	0	137363456	16	4003
2026-01-16 07:01:18.07	6.39	8.24	-27.9	-28.9	12.6	5.60e-05	0	42	0	144703488	16	4042
2026-01-16 07:01:19.08	6.27	8.30	-27.9	-28.9	12.5	1.10e-04	0	42	0	152043520	16	4038
2026-01-16 07:01:20.08	6.16	8.35	-27.8	-28.8	12.6	9.72e-05	0	42	0	159383552	16	4012
2026-01-16 07:01:21.09	6.03	8.41	-28.0	-29.1	12.4	8.92e-05	0	42	0	166723584	16	4107
2026-01-16 07:01:22.09	5.91	8.47	-28.6	-30.2	11.4	9.03e-04	0	42	0	173015040	17	4299
2026-01-16 07:01:23.09	5.79	8.53	-27.8	-28.7	12.7	1.58e-04	0	42	0	180355072	16	3984
2026-01-16 07:01:24.09	5.67	8.58	-27.3	-28.1	13.1	9.10e-06	0	42	0	187695104	15	3949
2026-01-16 07:01:25.09	5.55	8.64	-27.4	-28.4	13.0	3.89e-05	0	42	0	195035136	15	4009
2026-01-16 07:01:26.09	5.43	8.70	-27.4	-28.3	13.0	4.23e-05	0	42	0	202375168	15	3988
2026-01-16 07:01:27.09	5.31	8.76	-27.2	-27.9	13.3	1.94e-05	0	42	0	209715200	15	3886
2026-01-16 07:01:28.09	5.18	8.81	-27.4	-28.4	13.0	2.40e-05	0	42	0	217055232	15	4011
2026-01-16 07:01:29.10	5.06	8.87	-27.4	-28.2	13.1	3.77e-05	0	42	0	224395264	15	3976
2026-01-16 07:01:30.10	4.93	8.93	-27.2	-27.8	13.4	1.60e-05	0	42	0	230686720	15	3859
2026-01-16 07:01:31.10	4.81	8.99	-27.3	-28.2	13.1	9.10e-06	0	42	0	238026752	15	3955
2026-01-16 07:01:32.09	4.68	9.04	-27.4	-28.4	13.0	2.05e-05	0	42	0	245366784	15	4005
2026-01-16 07:01:33.10	4.56	9.10	-27.3	-28.0	13.3	2.05e-05	0	42	0	252706816	15	3900
2026-01-16 07:01:34.09	4.43	9.16	-27.5	-28.4	13.0	1.71e-05	0	42	0	260046848	15	4026
2026-01-16 07:01:35.10	4.30	9.21	-27.7	-28.9	12.7	8.01e-05	0	42	0	267386880	15	4157
2026-01-16 07:01:36.10	4.18	9.27	-27.5	-28.4	13.0	3.20e-05	0	42	0	274726912	15	4028
2026-01-16 07:01:37.10	4.05	9.33	-27.2	-27.9	13.3	1.37e-05	0	42	0	282066944	15	3899
2026-01-16 07:01:38.11	3.92	9.39	-27.0	-27.5	13.6	1.48e-05	0	42	0	289406976	15	3786
2026-01-16 07:01:39.11	3.79	9.44	-27.1	-27.5	13.6	5.70e-06	0	42	0	296747008	15	3783
2026-01-16 07:01:40.11	3.66	9.50	-27.2	-27.7	13.4	1.94e-05	0	42	0	303038464	15	3840
2026-01-16 07:01:41.11	3.53	9.56	-27.2	-27.8	13.4	1.02e-05	0	42	0	310378496	15	3874
2026-01-16 07:01:42.11	3.40	9.62	-27.5	-28.5	13.0	4.80e-05	0	42	0	317718528	15	4047
2026-01-16 07:01:43.11	3.27	9.67	-27.3	-28.0	13.3	1.02e-05	0	42	0	325058560	15	3900
2026-01-16 07:01:44.11	3.14	9.73	-27.2	-27.8	13.4	1.02e-05	0	42	0	332398592	15	3854
2026-01-16 07:01:45.10	3.01	9.79	-27.4	-28.4	13.1	2.40e-05	0	43	0	339738624	15	4012
2026-01-16 07:01:46.10	2.88	9.85	-27.4	-28.3	13.2	2.86e-05	0	42	0	347078656	15	3981
2026-01-16 07:01:47.10	2.74	9.90	-27.4	-28.3	13.1	1.60e-05	0	43	0	354418688	15	3985
2026-01-16 07:01:48.10	2.61	9.96	-27.2	-27.8	13.4	1.14e-05	0	42	0	360710144	15	3869
2026-01-16 07:01:49.10	2.47	10.02	-27.3	-28.1	13.3	8.00e-06	0	43	0	368050176	15	3939
2026-01-16 07:01:50.11	2.34	10.07	-27.4	-28.3	13.1	1.83e-05	0	43	0	375390208	15	3994
2026-01-16 07:01:51.10	2.20	10.13	-27.2	-27.9	13.4	1.60e-05	0	42	0	382730240	15	3871
2026-01-16 07:01:52.11	2.07	10.19	-27.1	-27.6	13.5	1.14e-05	0	42	0	390070272	15	3823
2026-01-16 07:01:53.12	1.93	10.25	-26.9	-27.2	13.8	3.40e-06	0	43	0	397410304	15	3707
2026-01-16 07:01:54.12	1.79	10.30	-27.2	-28.3	13.5	6.80e-06	0	43	0	404750336	14	4087
2026-01-16 07:01:55.13	1.65	10.36	-26.9	-27.7	13.8	0.00e+00	0	43	0	412090368	14	3935
2026-01-16 07:01:56.13	1.52	10.42	-26.8	-27.4	13.9	2.20e-06	0	43	0	419430400	14	3866
2026-01-16 07:01:57.14	1.38	10.48	-26.7	-27.1	14.1	1.10e-06	0	43	0	426770432	14	3787
2026-01-16 07:01:58.14	1.24	10.53	-26.7	-27.1	14.2	0.00e+00	0	43	0	434110464	14	3777
2026-01-16 07:01:59.14	1.10	10.59	-26.5	-26.7	14.4	0.00e+00	0	43	0	440401920	14	3683
2026-01-16 07:02:00.14	0.96	10.65	-26.2	-26.5	14.8	1.10e-06	0	43	0	447741952	13	3731
2026-01-16 07:02:01.15	0.82	10.70	-26.3	-26.8	14.6	0.00e+00	0	42	0	455081984	13	3806
2026-01-16 07:02:02.15	0.67	10.76	-26.5	-27.1	14.4	2.20e-06	0	43	0	462422016	13	3892
2026-01-16 07:02:03.15	0.53	10.82	-26.5	-27.3	14.3	1.10e-06	0	43	0	469762048	13	3918
2026-01-16 07:02:04.15	0.39	10.87	-26.9	-28.0	13.9	4.50e-06	0	43	0	477102080	13	4113
2026-01-16 07:02:05.16	0.24	10.93	-26.5	-27.1	14.4	2.20e-06	0	43	0	484442112	13	3881
2026-01-16 07:02:06.16	0.10	10.99	-26.4	-27.1	14.4	0.00e+00	0	43	0	491782144	13	3869
2026-01-16 07:02:07.16	359.96	11.05	-26.4	-26.9	14.5	0.00e+00	0	43	0	499122176	13	3833
2026-01-16 07:02:08.17	359.81	11.10	-26.4	-27.0	14.5	0.00e+00	0	43	0	506462208	13	3864
2026-01-16 07:02:09.18	359.66	11.16	-26.7	-27.7	14.1	1.10e-06	0	43	0	513802240	13	4031
2026-01-16 07:02:10.18	359.52	11.22	-26.6	-27.5	14.2	1.10e-06	0	43	0	521142272	13	3971
2026-01-16 07:02:11.19	359.37	11.27	-26.5	-27.2	14.4	0.00e+00	0	43	0	527433728	13	3915
2026-01-16 07:02:12.19	359.22	11.33	-26.6	-27.4	14.2	2.20e-06	0	43	0	534773760	13	3968
2026-01-16 07:02:13.19	359.08	11.39	-26.7	-27.7	14.1	0.00e+00	0	43	0	542113792	13	4047
2026-01-16 07:02:14.19	358.93	11.44	-26.8	-27.9	14.0	1.10e-06	0	43	0	549453824	13	4074
2026-01-16 07:02:15.19	358.78	11.50	-26.9	-28.1	13.9	2.20e-06	0	43	0	556793856	13	4129
2026-01-16 07:02:16.19	358.63	11.55	-26.8	-27.9	14.0	3.40e-06	0	43	0	564133888	13	4090
2026-01-16 07:02:17.19	358.48	11.61	-26.6	-27.5	14.2	0.00e+00	0	43	0	571473920	13	3979
2026-01-16 07:02:18.19	358.33	11.67	-26.8	-27.9	14.0	2.20e-06	0	43	0	578813952	13	4087
2026-01-16 07:02:19.20	358.18	11.72	-26.9	-28.0	13.9	3.40e-06	0	43	0	586153984	13	4124
2026-01-16 07:02:20.19	358.03	11.78	-26.6	-27.6	14.2	4.50e-06	0	43	0	592445440	13	3996
2026-01-16 07:02:21.19	357.87	11.83	-26.5	-27.2	14.4	0.00e+00	0	43	0	599785472	13	3906
2026-01-16 07:02:22.19	357.72	11.89	-26.6	-27.4	14.3	0.00e+00	0	43	0	607125504	13	3946
2026-01-16 07:02:23.19	357.57	11.95	-26.4	-27.1	14.5	1.10e-06	0	43	0	614465536	13	3871
2026-01-16 07:02:24.19	357.41	12.00	-26.5	-27.2	14.4	0.00e+00	0	43	0	621805568	13	3913
2026-01-16 07:02:25.19	357.26	12.06	-26.3	-26.9	14.6	0.00e+00	0	43	0	629145600	13	3821
2026-01-16 07:02:26.19	357.10	12.11	-26.3	-26.8	14.7	0.00e+00	0	43	0	636485632	13	3809
2026-01-16 07:02:27.19	356.95	12.17	-26.3	-26.7	14.7	0.00e+00	0	43	0	643825664	13	3783
2026-01-16 07:02:28.19	356.79	12.22	-26.2	-26.6	14.8	0.00e+00	0	43	0	650117120	13	3768
2026-01-16 07:02:29.20	356.63	12.28	-26.4	-26.9	14.6	0.00e+00	0	43	0	657457152	13	3830
2026-01-16 07:02:30.20	356.47	12.33	-26.3	-26.7	14.7	0.00e+00	0	43	0	664797184	13	3793
2026-01-16 07:02:31.20	356.32	12.39	-26.4	-27.1	14.5	0.00e+00	0	43	0	672137216	13	3879
2026-01-16 07:02:32.20	356.16	12.44	-26.3	-26.8	14.7	0.00e+00	0	43	0	679477248	13	3797
2026-01-16 07:02:33.20	356.00	12.50	-26.4	-27.0	14.6	1.10e-06	0	43	0	686817280	13	3847
2026-01-16 07:02:34.21	355.84	12.55	-26.4	-26.9	14.6	1.10e-06	0	43	0	694157312	13	3831
2026-01-16 07:02:35.21	355.67	12.61	-26.5	-27.2	14.5	2.20e-06	0	43	0	701497344	13	3909
2026-01-16 07:02:36.21	355.51	12.66	-26.4	-26.9	14.6	1.10e-06	0	43	0	708837376	13	3831
2026-01-16 07:02:37.21	355.35	12.72	-26.4	-27.1	14.6	1.10e-06	0	43	0	715128832	13	3879
2026-01-16 07:02:38.22	355.19	12.77	-26.4	-27.0	14.6	2.20e-06	0	43	0	723517440	13	3870
2026-01-16 07:02:39.22	355.02	12.83	-26.4	-26.9	14.6	0.00e+00	0	43	0	730857472	13	3835
2026-01-16 07:02:40.22	354.86	12.88	-26.4	-26.9	14.6	0.00e+00	0	43	0	737148928	13	3830
2026-01-16 07:02:41.23	354.69	12.93	-26.3	-26.7	14.8	0.00e+00	0	43	0	744488960	13	3793
2026-01-16 07:02:42.24	354.53	12.99	-26.2	-26.5	14.9	0.00e+00	0	43	0	751828992	13	3733
2026-01-16 07:02:43.25	354.36	13.04	-26.2	-26.6	14.8	1.10e-06	0	43	0	759169024	13	3765
2026-01-16 07:02:44.25	354.19	13.10	-26.2	-26.5	14.9	1.10e-06	0	43	0	766509056	13	3741
2026-01-16 07:02:45.24	354.03	13.15	-26.1	-26.3	15.0	0.00e+00	0	43	0	773849088	13	3682
2026-01-16 07:02:46.25	353.86	13.20	-26.2	-26.6	14.8	0.00e+00	0	43	0	781189120	13	3766
2026-01-16 07:02:47.24	353.69	13.26	-26.1	-26.3	15.0	0.00e+00	0	43	0	788529152	13	3690
2026-01-16 07:02:48.24	353.52	13.31	-26.0	-26.1	15.1	0.00e+00	0	43	0	795869184	13	3651
2026-01-16 07:02:49.24	353.35	13.36	-26.0	-26.1	15.1	0.00e+00	0	43	0	802160640	13	3649
2026-01-16 07:02:50.24	353.18	13.41	-26.1	-26.3	15.0	0.00e+00	0	43	0	809500672	13	3683
2026-01-16 07:02:51.25	353.01	13.47	-26.1	-26.3	15.0	0.00e+00	0	43	0	816840704	13	3675
2026-01-16 07:02:52.26	352.84	13.52	-26.0	-26.1	15.1	0.00e+00	0	43	0	824180736	13	3642
2026-01-16 07:02:53.26	352.67	13.57	-26.0	-26.2	15.1	0.00e+00	0	43	0	831520768	13	3663
2026-01-16 07:02:54.26	352.49	13.63	-26.0	-26.1	15.1	0.00e+00	0	43	0	838860800	13	3641
2026-01-16 07:02:55.27	352.32	13.68	-26.0	-26.2	15.1	0.00e+00	0	43	0	846200832	13	3664
2026-01-16 07:02:56.27	352.15	13.73	-26.1	-26.2	15.1	0.00e+00	0	43	0	853540864	13	3675
2026-01-16 07:02:57.27	351.97	13.78	-26.0	-26.1	15.1	0.00e+00	0	43	0	860880896	13	3641
2026-01-16 07:02:58.27	351.80	13.83	-25.8	-26.1	15.4	0.00e+00	0	43	0	868220928	12	3746
2026-01-16 07:02:59.27	351.62	13.88	-25.7	-26.0	15.5	1.10e-06	0	43	0	875560960	12	3718
2026-01-16 07:03:00.28	351.44	13.94	-25.8	-26.2	15.3	0.00e+00	0	43	0	881852416	12	3767
2026-01-16 07:03:01.29	351.26	13.99	-25.8	-26.1	15.4	0.00e+00	0	43	0	889192448	12	3737
2026-01-16 07:03:02.29	351.09	14.04	-25.6	-25.7	15.6	0.00e+00	0	43	0	896532480	12	3655
2026-01-16 07:03:03.29	350.91	14.09	-25.7	-26.0	15.5	0.00e+00	0	43	0	903872512	12	3716
2026-01-16 07:03:04.29	350.73	14.14	-25.6	-25.6	15.7	0.00e+00	0	43	0	911212544	12	3630
2026-01-16 07:03:05.30	350.55	14.19	-25.7	-26.0	15.5	0.00e+00	0	43	0	918552576	12	3714
2026-01-16 07:03:06.30	350.37	14.24	-25.8	-26.1	15.4	1.10e-06	0	43	0	925892608	12	3740
2026-01-16 07:03:07.30	350.19	14.29	-25.8	-26.1	15.4	0.00e+00	0	43	0	933232640	12	3737
2026-01-16 07:03:08.31	350.01	14.34	-25.6	-25.8	15.6	0.00e+00	0	43	0	940572672	12	3657
2026-01-16 07:03:09.31	349.82	14.39	-25.6	-25.8	15.6	0.00e+00	0	43	0	946864128	12	3666
2026-01-16 07:03:10.32	349.64	14.44	-25.7	-26.0	15.5	0.00e+00	0	43	0	955252736	12	3713
2026-01-16 07:03:11.31	349.46	14.49	-25.8	-26.1	15.4	0.00e+00	0	43	0	961544192	12	3743
2026-01-16 07:03:12.31	349.27	14.54	-25.6	-25.7	15.6	0.00e+00	0	43	0	968884224	12	3645
2026-01-16 07:03:13.30	349.09	14.59	-25.7	-25.9	15.6	0.00e+00	0	43	0	976224256	12	3683
2026-01-16 07:03:14.31	348.90	14.64	-25.5	-25.6	15.7	0.00e+00	0	43	0	983564288	12	3626
2026-01-16 07:03:15.31	348.72	14.69	-25.6	-25.8	15.6	0.00e+00	0	43	0	990904320	12	3679
2026-01-16 07:03:16.32	348.53	14.74	-25.7	-25.9	15.5	0.00e+00	0	43	0	998244352	12	3705
2026-01-16 07:03:17.32	348.34	14.78	-25.6	-25.8	15.6	0.00e+00	0	43	0	1005584384	12	3681
2026-01-16 07:03:18.31	348.16	14.83	-25.6	-25.7	15.6	0.00e+00	0	43	0	1012924416	12	3660
2026-01-16 07:03:19.32	347.97	14.88	-25.6	-25.8	15.6	0.00e+00	0	43	0	1020264448	12	3663
2026-01-16 07:03:20.32	347.78	14.93	-25.6	-25.6	15.7	0.00e+00	0	43	0	1026555904	12	3633
2026-01-16 07:03:21.32	347.59	14.97	-25.5	-25.6	15.7	0.00e+00	0	43	0	1033895936	12	3617
2026-01-16 07:03:22.33	347.40	15.02	-25.6	-25.8	15.6	0.00e+00	0	43	0	1041235968	12	3663
2026-01-16 07:03:23.33	347.21	15.07	-25.8	-26.2	15.4	0.00e+00	0	43	0	1048576000	12	3757
2026-01-16 07:03:24.34	347.02	15.12	-25.5	-25.5	15.8	0.00e+00	0	43	0	1055916032	12	3604
2026-01-16 07:03:25.34	346.82	15.16	-25.4	-25.8	16.0	0.00e+00	0	43	0	1063256064	11	3771
2026-01-16 07:03:26.34	346.63	15.21	-25.4	-25.8	16.0	0.00e+00	0	43	0	1070596096	11	3763
2026-01-16 07:03:27.34	346.44	15.25	-25.4	-25.7	16.0	0.00e+00	0	43	0	1077936128	11	3747
2026-01-16 07:03:28.34	346.25	15.30	-25.5	-26.0	15.9	0.00e+00	0	43	0	1085276160	11	3807
2026-01-16 07:03:29.35	346.05	15.35	-25.5	-26.0	15.9	0.00e+00	0	43	0	1091567616	11	3803
2026-01-16 07:03:30.34	345.86	15.39	-25.4	-25.8	16.0	0.00e+00	0	43	0	1098907648	11	3775
2026-01-16 07:03:31.35	345.66	15.44	-25.5	-25.9	15.9	0.00e+00	0	43	0	1106247680	11	3792
2026-01-16 07:03:32.35	345.46	15.48	-25.5	-26.0	15.9	0.00e+00	0	43	0	1113587712	11	3803
2026-01-16 07:03:33.35	345.27	15.52	-25.6	-26.1	15.8	0.00e+00	0	43	0	1120927744	11	3837
2026-01-16 07:03:34.36	345.07	15.57	-25.7	-26.5	15.6	0.00e+00	0	43	0	1128267776	11	3921
2026-01-16 07:03:35.37	344.87	15.61	-25.8	-26.5	15.6	0.00e+00	0	43	0	1135607808	11	3940
2026-01-16 07:03:36.37	344.67	15.66	-25.7	-26.4	15.7	0.00e+00	0	43	0	1142947840	11	3918
2026-01-16 07:03:37.37	344.47	15.70	-25.9	-26.7	15.5	0.00e+00	0	43	0	1150287872	11	3991
2026-01-16 07:03:38.37	344.27	15.74	-25.9	-26.9	15.4	0.00e+00	0	43	0	1157627904	11	4029
2026-01-16 07:03:39.38	344.07	15.79	-25.9	-26.8	15.5	0.00e+00	0	43	0	1164967936	11	3998
2026-01-16 07:03:40.38	343.87	15.83	-25.9	-26.8	15.5	0.00e+00	0	43	0	1172307968	11	3999
2026-01-16 07:03:41.37	343.67	15.87	-25.8	-26.7	15.6	0.00e+00	0	43	0	1178599424	11	3971
2026-01-16 07:03:42.37	343.47	15.91	-25.7	-26.4	15.7	0.00e+00	0	43	0	1185939456	11	3903
2026-01-16 07:03:43.37	343.26	15.95	-25.6	-26.2	15.8	0.00e+00	0	43	0	1193279488	11	3847
2026-01-16 07:03:44.38	343.06	16.00	-25.6	-26.2	15.8	0.00e+00	0	43	0	1200619520	11	3864
2026-01-16 07:03:45.38	342.86	16.04	-25.6	-26.1	15.9	0.00e+00	0	44	0	1207959552	11	3830
2026-01-16 07:03:46.39	342.65	16.08	-25.6	-26.1	15.9	0.00e+00	0	43	0	1215299584	11	3833
2026-01-16 07:03:47.39	342.45	16.12	-25.6	-26.1	15.8	0.00e+00	0	43	0	1222639616	11	3837
2026-01-16 07:03:48.39	342.24	16.16	-25.5	-25.9	15.9	0.00e+00	0	43	0	1229979648	11	3799
2026-01-16 07:03:49.39	342.03	16.20	-25.4	-25.9	16.0	0.00e+00	0	43	0	1236271104	11	3782
2026-01-16 07:03:50.39	341.83	16.24	-25.5	-26.0	15.9	0.00e+00	0	43	0	1243611136	11	3810
2026-01-16 07:03:51.40	341.62	16.28	-25.2	-25.3	16.3	0.00e+00	0	43	0	1250951168	11	3661
2026-01-16 07:03:52.40	341.41	16.32	-25.1	-25.2	16.4	0.00e+00	0	44	0	1258291200	11	3620
2026-01-16 07:03:53.40	341.20	16.35	-25.1	-25.1	16.4	0.00e+00	0	43	0	1265631232	11	3616
2026-01-16 07:03:54.40	340.99	16.39	-25.0	-24.9	16.5	0.00e+00	0	43	0	1272971264	11	3550
2026-01-16 07:03:55.40	340.79	16.43	-24.9	-24.8	16.6	0.00e+00	0	43	0	1280311296	11	3529
2026-01-16 07:03:56.40	340.58	16.47	-25.0	-24.9	16.5	0.00e+00	0	43	0	1287651328	11	3567
2026-01-16 07:03:57.40	340.37	16.51	-25.0	-25.0	16.4	0.00e+00	0	43	0	1294991360	11	3584
2026-01-16 07:03:58.39	340.16	16.54	-24.9	-24.8	16.6	0.00e+00	0	43	0	1301282816	11	3530
2026-01-16 07:03:59.39	339.95	16.58	-25.1	-25.1	16.4	0.00e+00	0	43	0	1308622848	11	3614
2026-01-16 07:04:00.39	339.73	16.61	-25.3	-25.5	16.2	0.00e+00	0	44	0	1315962880	11	3687
2026-01-16 07:04:01.39	339.52	16.65	-25.4	-25.8	16.0	0.00e+00	0	43	0	1323302912	11	3769
2026-01-16 07:04:02.39	339.31	16.69	-25.5	-25.9	16.0	0.00e+00	0	43	0	1330642944	11	3782
2026-01-16 07:04:03.39	339.10	16.72	-25.5	-26.1	15.9	0.00e+00	0	43	0	1337982976	11	3829
2026-01-16 07:04:04.39	338.88	16.76	-25.4	-25.7	16.1	0.00e+00	0	43	0	1345323008	11	3742
2026-01-16 07:04:05.40	338.67	16.79	-25.4	-25.9	16.0	0.00e+00	0	44	0	1352663040	11	3777
2026-01-16 07:04:06.40	338.45	16.82	-25.5	-25.9	16.0	0.00e+00	0	43	0	1360003072	11	3788
2026-01-16 07:04:07.40	338.24	16.86	-25.4	-25.7	16.1	0.00e+00	0	44	0	1366294528	11	3737
2026-01-16 07:04:08.41	338.02	16.89	-25.2	-25.3	16.3	0.00e+00	0	44	0	1373634560	11	3651
2026-01-16 07:04:09.41	337.80	16.93	-25.1	-25.2	16.3	0.00e+00	0	43	0	1380974592	11	3621
2026-01-16 07:04:10.42	337.58	16.96	-25.1	-25.2	16.3	0.00e+00	0	43	0	1388314624	11	3628
2026-01-16 07:04:11.42	337.37	16.99	-25.4	-25.8	16.0	0.00e+00	0	44	0	1395654656	11	3764
2026-01-16 07:04:12.41	337.15	17.02	-25.5	-25.9	16.0	0.00e+00	0	43	0	1402994688	11	3784
2026-01-16 07:04:13.41	336.93	17.05	-25.4	-25.7	16.1	0.00e+00	0	43	0	1410334720	11	3735
2026-01-16 07:04:14.41	336.71	17.08	-25.4	-25.7	16.1	0.00e+00	0	44	0	1417674752	11	3744
2026-01-16 07:04:15.42	336.49	17.12	-25.3	-25.6	16.1	0.00e+00	0	44	0	1425014784	11	3726
2026-01-16 07:04:16.42	336.27	17.15	-25.4	-25.7	16.1	0.00e+00	0	44	0	1432354816	11	3747
2026-01-16 07:04:17.42	336.05	17.18	-25.4	-25.7	16.1	0.00e+00	0	43	0	1439694848	11	3745
2026-01-16 07:04:18.42	335.83	17.20	-25.2	-25.3	16.3	0.00e+00	0	44	0	1445986304	11	3649
2026-01-16 07:04:19.43	335.61	17.23	-25.2	-25.3	16.3	0.00e+00	0	43	0	1453326336	11	3640
2026-01-16 07:04:20.43	335.39	17.26	-25.1	-25.2	16.4	0.00e+00	0	43	0	1460666368	11	3628
2026-01-16 07:04:21.43	335.17	17.29	-25.2	-25.2	16.4	0.00e+00	0	43	0	1468006400	11	3635
2026-01-16 07:04:22.43	334.94	17.32	-25.0	-25.0	16.5	0.00e+00	0	44	0	1475346432	11	3576
2026-01-16 07:04:23.43	334.72	17.35	-25.1	-25.2	16.4	0.00e+00	0	43	0	1482686464	11	3628
2026-01-16 07:04:24.44	334.50	17.37	-25.2	-25.3	16.3	0.00e+00	0	43	0	1490026496	11	3654
2026-01-16 07:04:25.44	334.27	17.40	-25.0	-25.0	16.5	0.00e+00	0	43	0	1497366528	11	3577
2026-01-16 07:04:26.45	334.05	17.43	-25.0	-24.9	16.5	0.00e+00	0	44	0	1504706560	11	3568
2026-01-16 07:04:27.46	333.82	17.45	-25.0	-24.9	16.5	0.00e+00	0	43	0	1510998016	11	3567
2026-01-16 07:04:28.46	333.60	17.48	-25.0	-25.0	16.5	0.00e+00	0	44	0	1518338048	11	3576
2026-01-16 07:04:29.46	333.37	17.50	-24.9	-24.8	16.6	0.00e+00	0	44	0	1525678080	11	3530
2026-01-16 07:04:30.46	333.15	17.53	-25.0	-24.9	16.5	0.00e+00	0	43	0	1533018112	11	3555
2026-01-16 07:04:31.46	332.92	17.55	-24.9	-24.7	16.6	0.00e+00	0	43	0	1540358144	11	3523
2026-01-16 07:04:32.45	332.70	17.58	-24.8	-24.9	16.8	0.00e+00	0	44	0	1547698176	10	3662
2026-01-16 07:04:33.45	332.47	17.60	-24.7	-24.9	16.8	0.00e+00	0	44	0	1555038208	10	3652
2026-01-16 07:04:34.45	332.24	17.62	-24.7	-24.8	16.8	0.00e+00	0	43	0	1562378240	10	3633
2026-01-16 07:04:35.46	332.01	17.64	-24.8	-25.0	16.8	0.00e+00	0	44	0	1569718272	10	3671
2026-01-16 07:04:36.46	331.79	17.67	-24.8	-24.9	16.8	0.00e+00	0	44	0	1577058304	10	3651
2026-01-16 07:04:37.47	331.56	17.69	-24.6	-24.5	17.0	0.00e+00	0	44	0	1584398336	10	3566
2026-01-16 07:04:38.47	331.33	17.71	-24.5	-24.4	17.1	0.00e+00	0	43	0	1590689792	10	3540
2026-01-16 07:04:39.47	331.10	17.73	-24.7	-24.7	16.9	0.00e+00	0	43	0	1598029824	10	3613
2026-01-16 07:04:40.48	330.87	17.75	-24.6	-24.7	16.9	1.10e-06	0	44	0	1605369856	10	3608
2026-01-16 07:04:41.49	330.64	17.77	-24.6	-24.6	16.9	0.00e+00	0	44	0	1612709888	10	3579
2026-01-16 07:04:42.49	330.41	17.79	-24.6	-24.5	17.0	0.00e+00	0	44	0	1620049920	10	3577
2026-01-16 07:04:43.49	330.18	17.81	-24.7	-24.7	16.9	0.00e+00	0	44	0	1627389952	10	3605
2026-01-16 07:04:44.48	329.95	17.82	-24.8	-25.0	16.7	0.00e+00	0	43	0	1634729984	10	3679
2026-01-16 07:04:45.49	329.72	17.84	-24.5	-24.4	17.0	0.00e+00	0	43	0	1642070016	10	3548
2026-01-16 07:04:46.48	329.49	17.86	-24.5	-24.3	17.1	0.00e+00	0	43	0	1649410048	10	3532
2026-01-16 07:04:47.49	329.26	17.88	-24.5	-24.3	17.1	0.00e+00	0	43	0	1655701504	10	3528
2026-01-16 07:04:48.48	329.03	17.89	-24.6	-24.5	17.0	0.00e+00	0	43	0	1663041536	10	3564
2026-01-16 07:04:49.49	328.80	17.91	-24.6	-24.5	17.0	2.20e-06	0	44	0	1670381568	10	3572
2026-01-16 07:04:50.49	328.56	17.92	-24.6	-24.6	17.0	0.00e+00	0	43	0	1677721600	10	3584
2026-01-16 07:04:51.49	328.33	17.94	-24.6	-24.6	17.0	0.00e+00	0	44	0	1685061632	10	3596
2026-01-16 07:04:52.49	328.10	17.95	-24.7	-24.8	16.9	0.00e+00	0	43	0	1692401664	10	3626
2026-01-16 07:04:53.49	327.87	17.97	-24.7	-24.8	16.9	0.00e+00	0	44	0	1699741696	10	3639
2026-01-16 07:04:54.50	327.63	17.98	-24.8	-25.0	16.7	0.00e+00	0	44	0	1707081728	10	3680
2026-01-16 07:04:55.50	327.40	17.99	-24.8	-24.9	16.8	0.00e+00	0	43	0	1714421760	10	3653
2026-01-16 07:04:56.50	327.17	18.01	-24.6	-24.6	17.0	0.00e+00	0	44	0	1720713216	10	3584
2026-01-16 07:04:57.50	326.93	18.02	-24.7	-24.8	16.9	0.00e+00	0	44	0	1728053248	10	3633
2026-01-16 07:04:58.51	326.70	18.03	-24.7	-24.7	16.9	0.00e+00	0	44	0	1736441856	10	3615
2026-01-16 07:04:59.51	326.47	18.04	-24.7	-24.7	16.9	0.00e+00	0	43	0	1742733312	10	3606
2026-01-16 07:05:00.51	326.23	18.05	-24.5	-24.4	17.1	0.00e+00	0	44	0	1750073344	10	3557
2026-01-16 07:05:01.51	326.00	18.06	-24.7	-24.8	16.9	0.00e+00	0	43	0	1757413376	10	3628
2026-01-16 07:05:02.51	325.76	18.07	-24.6	-24.5	17.0	0.00e+00	0	43	0	1764753408	10	3567
2026-01-16 07:05:03.50	325.53	18.08	-24.6	-24.6	17.0	0.00e+00	0	44	0	1772093440	10	3582
2026-01-16 07:05:04.50	325.30	18.09	-24.5	-24.4	17.1	0.00e+00	0	44	0	1779433472	10	3550
2026-01-16 07:05:05.51	325.06	18.10	-24.5	-24.4	17.1	0.00e+00	0	44	0	1786773504	10	3545
2026-01-16 07:05:06.51	324.83	18.11	-24.4	-24.6	17.2	0.00e+00	0	44	0	1794113536	9	3683
2026-01-16 07:05:07.51	324.59	18.11	-24.4	-24.6	17.2	0.00e+00	0	44	0	1800404992	9	3695
2026-01-16 07:05:08.52	324.36	18.12	-24.4	-24.6	17.2	0.00e+00	0	44	0	1807745024	9	3680
2026-01-16 07:05:09.53	324.12	18.13	-24.2	-24.3	17.4	0.00e+00	0	44	0	1815085056	9	3616
2026-01-16 07:05:10.53	323.88	18.13	-24.3	-24.5	17.3	0.00e+00	0	43	0	1822425088	9	3660
2026-01-16 07:05:11.53	323.65	18.14	-24.3	-24.5	17.3	0.00e+00	0	44	0	1829765120	9	3660
2026-01-16 07:05:12.53	323.41	18.14	-24.2	-24.2	17.4	0.00e+00	0	43	0	1837105152	9	3600
2026-01-16 07:05:13.53	323.18	18.15	-24.3	-24.5	17.3	0.00e+00	0	44	0	1844445184	9	3662
2026-01-16 07:05:14.54	322.94	18.15	-24.3	-24.5	17.3	0.00e+00	0	44	0	1851785216	9	3667
2026-01-16 07:05:15.55	322.70	18.15	-24.4	-24.6	17.2	0.00e+00	0	44	0	1859125248	9	3685
2026-01-16 07:05:16.55	322.47	18.16	-24.4	-24.6	17.2	0.00e+00	0	44	0	1865416704	9	3699
2026-01-16 07:05:17.55	322.23	18.16	-24.5	-24.9	17.1	0.00e+00	0	44	0	1872756736	9	3750
2026-01-16 07:05:18.55	322.00	18.16	-24.5	-24.8	17.1	0.00e+00	0	44	0	1880096768	9	3739
2026-01-16 07:05:19.55	321.76	18.16	-24.4	-24.7	17.2	0.00e+00	0	44	0	1887436800	9	3703
2026-01-16 07:05:20.56	321.52	18.16	-24.4	-24.6	17.2	0.00e+00	0	44	0	1894776832	9	3688
2026-01-16 07:05:21.55	321.29	18.16	-24.4	-24.6	17.2	0.00e+00	0	44	0	1902116864	9	3699
2026-01-16 07:05:22.56	321.05	18.16	-24.5	-24.7	17.1	0.00e+00	0	43	0	1909456896	9	3718
2026-01-16 07:05:23.56	320.82	18.16	-24.4	-24.7	17.2	0.00e+00	0	43	0	1916796928	9	3701
2026-01-16 07:05:24.55	320.59	18.16	-24.5	-24.9	17.0	0.00e+00	0	44	0	1924136960	9	3767
2026-01-16 07:05:25.55	320.35	18.16	-24.5	-24.9	17.0	0.00e+00	0	44	0	1930428416	9	3760
2026-01-16 07:05:26.56	320.11	18.16	-24.6	-25.0	17.0	0.00e+00	0	43	0	1938817024	9	3774
2026-01-16 07:05:27.57	319.87	18.15	-24.6	-25.1	16.9	0.00e+00	0	43	0	1946157056	9	3802
2026-01-16 07:05:28.57	319.64	18.15	-24.6	-25.1	16.9	0.00e+00	0	44	0	1952448512	9	3800
2026-01-16 07:05:29.57	319.40	18.15	-24.6	-25.0	17.0	0.00e+00	0	44	0	1959788544	9	3789
2026-01-16 07:05:30.57	319.17	18.14	-24.7	-25.3	16.8	0.00e+00	0	44	0	1967128576	9	3853
2026-01-16 07:05:31.57	318.93	18.14	-24.6	-25.0	17.0	0.00e+00	0	43	0	1974468608	9	3775
2026-01-16 07:05:32.57	318.70	18.13	-24.3	-24.5	17.3	0.00e+00	0	44	0	1981808640	9	3657
2026-01-16 07:05:33.57	318.46	18.13	-24.3	-24.5	17.2	0.00e+00	0	44	0	1989148672	9	3665
2026-01-16 07:05:34.57	318.23	18.12	-24.3	-24.3	17.3	0.00e+00	0	44	0	1996488704	9	3627
2026-01-16 07:05:35.57	317.99	18.11	-24.4	-24.6	17.2	0.00e+00	0	44	0	2003828736	9	3688
2026-01-16 07:05:36.57	317.76	18.10	-24.5	-24.8	17.1	0.00e+00	0	44	0	2010120192	9	3730
2026-01-16 07:05:37.57	317.52	18.10	-24.5	-24.8	17.1	0.00e+00	0	43	0	2017460224	9	3745
2026-01-16 07:05:38.57	317.29	18.09	-24.6	-25.0	17.0	0.00e+00	0	43	0	2024800256	9	3783
2026-01-16 07:05:39.57	317.06	18.08	-24.6	-25.0	17.0	0.00e+00	0	44	0	2032140288	9	3784
2026-01-16 07:05:40.57	316.82	18.07	-24.7	-25.2	16.9	0.00e+00	0	44	0	2039480320	9	3833
2026-01-16 07:05:41.57	316.59	18.06	-24.6	-25.0	16.9	0.00e+00	0	44	0	2046820352	9	3788
2026-01-16 07:05:42.57	316.35	18.05	-24.5	-24.9	17.1	0.00e+00	0	44	0	2054160384	9	3748
2026-01-16 07:05:43.58	316.12	18.04	-24.5	-24.8	17.1	0.00e+00	0	44	0	2061500416	9	3745
2026-01-16 07:05:44.58	315.88	18.03	-24.3	-24.3	17.3	0.00e+00	0	44	0	2068840448	9	3633
2026-01-16 07:05:45.58	315.65	18.02	-24.3	-24.5	17.3	0.00e+00	0	44	0	2075131904	9	3661
2026-01-16 07:05:46.59	315.42	18.00	-24.3	-24.4	17.3	0.00e+00	0	43	0	2082471936	9	3650
2026-01-16 07:05:47.60	315.18	17.99	-24.4	-24.6	17.2	0.00e+00	0	44	0	2089811968	9	3686
2026-01-16 07:05:48.60	314.95	17.98	-24.4	-24.7	17.2	0.00e+00	0	44	0	2097152000	9	3705
2026-01-16 07:05:49.61	314.71	17.97	-24.6	-25.0	17.0	0.00e+00	0	44	0	2104492032	9	3773
2026-01-16 07:05:50.60	314.48	17.95	-24.5	-24.9	17.0	0.00e+00	0	44	0	2111832064	9	3750
2026-01-16 07:05:51.60	314.25	17.94	-24.5	-24.9	17.0	0.00e+00	0	43	0	2119172096	9	3755
2026-01-16 07:05:52.60	314.02	17.92	-24.7	-25.2	16.9	0.00e+00	0	44	0	2126512128	9	3829
2026-01-16 07:05:53.60	313.79	17.91	-24.6	-25.2	16.9	0.00e+00	0	44	0	2133852160	9	3821
2026-01-16 07:05:54.60	313.55	17.89	-24.6	-25.0	17.0	0.00e+00	0	43	0	2140143616	9	3779
2026-01-16 07:05:55.59	313.33	17.87	-24.5	-24.9	17.0	0.00e+00	0	44	0	2147483648	9	3767
2026-01-16 07:05:56.60	313.09	17.86	-24.5	-24.9	17.0	0.00e+00	0	43	0	2154823680	9	3757
2026-01-16 07:05:57.60	312.86	17.84	-24.5	-24.8	17.0	0.00e+00	0	43	0	2162163712	9	3743
2026-01-16 07:05:58.59	312.63	17.82	-24.5	-24.9	17.0	0.00e+00	0	44	0	2169503744	9	3753
2026-01-16 07:05:59.59	312.40	17.80	-24.5	-24.9	17.0	0.00e+00	0	44	0	2176843776	9	3764
2026-01-16 07:06:00.59	312.17	17.78	-24.6	-25.0	16.9	0.00e+00	0	44	0	2184183808	9	3791
2026-01-16 07:06:01.59	311.94	17.77	-24.5	-24.9	17.0	0.00e+00	0	44	0	2191523840	9	3764
2026-01-16 07:06:02.59	311.71	17.75	-24.5	-24.8	17.0	0.00e+00	0	44	0	2197815296	9	3745
2026-01-16 07:06:03.58	311.49	17.73	-24.6	-25.0	17.0	0.00e+00	0	44	0	2205155328	9	3786
2026-01-16 07:06:04.59	311.26	17.71	-24.5	-24.9	17.0	0.00e+00	0	44	0	2212495360	9	3748
2026-01-16 07:06:05.59	311.03	17.68	-24.4	-24.7	17.1	0.00e+00	0	44	0	2219835392	9	3709
2026-01-16 07:06:06.60	310.80	17.66	-24.4	-24.7	17.1	0.00e+00	0	44	0	2227175424	9	3714
2026-01-16 07:06:07.61	310.57	17.64	-24.4	-24.7	17.1	0.00e+00	0	43	0	2234515456	9	3716
2026-01-16 07:06:08.60	310.34	17.62	-24.4	-24.6	17.2	0.00e+00	0	44	0	2241855488	9	3695
2026-01-16 07:06:09.60	310.12	17.60	-24.7	-25.2	16.8	0.00e+00	0	43	0	2249195520	9	3830
2026-01-16 07:06:10.60	309.89	17.57	-24.6	-25.1	16.9	0.00e+00	0	43	0	2256535552	9	3806
2026-01-16 07:06:11.60	309.66	17.55	-24.5	-24.9	17.0	0.00e+00	0	44	0	2262827008	9	3765
2026-01-16 07:06:12.61	309.43	17.52	-24.5	-25.0	17.0	0.00e+00	0	44	0	2271215616	9	3772
2026-01-16 07:06:13.60	309.21	17.50	-24.6	-25.0	16.9	0.00e+00	0	43	0	2277507072	9	3782
2026-01-16 07:06:14.60	308.99	17.47	-24.6	-25.0	17.0	0.00e+00	0	43	0	2284847104	9	3788
2026-01-16 07:06:15.60	308.76	17.45	-24.6	-25.1	16.9	0.00e+00	0	43	0	2292187136	9	3801
2026-01-16 07:06:16.60	308.54	17.42	-24.6	-25.1	16.9	0.00e+00	0	43	0	2299527168	9	3805
2026-01-16 07:06:17.61	308.31	17.40	-24.7	-25.2	16.9	0.00e+00	0	44	0	2306867200	9	3818
2026-01-16 07:06:18.60	308.09	17.37	-24.7	-25.2	16.9	0.00e+00	0	44	0	2314207232	9	3822
2026-01-16 07:06:19.61	307.86	17.34	-24.5	-24.9	17.0	0.00e+00	0	44	0	2321547264	9	3766
2026-01-16 07:06:20.61	307.64	17.32	-24.6	-24.9	17.0	0.00e+00	0	44	0	2328887296	9	3769
2026-01-16 07:06:21.62	307.42	17.29	-24.6	-25.2	16.9	0.00e+00	0	44	0	2336227328	9	3817
2026-01-16 07:06:22.62	307.19	17.26	-24.6	-25.0	16.9	0.00e+00	0	44	0	2342518784	9	3792
2026-01-16 07:06:23.62	306.97	17.23	-24.6	-25.0	16.9	0.00e+00	0	43	0	2349858816	9	3781
2026-01-16 07:06:24.63	306.75	17.20	-24.6	-25.1	16.9	0.00e+00	0	44	0	2357198848	9	3804
2026-01-16 07:06:25.63	306.53	17.17	-24.7	-25.3	16.8	0.00e+00	0	44	0	2364538880	9	3851
2026-01-16 07:06:26.63	306.31	17.14	-24.7	-25.3	16.8	0.00e+00	0	44	0	2371878912	9	3852
2026-01-16 07:06:27.63	306.09	17.11	-24.8	-25.4	16.7	0.00e+00	0	44	0	2379218944	9	3869
2026-01-16 07:06:28.63	305.87	17.08	-24.7	-25.3	16.8	0.00e+00	0	44	0	2386558976	9	3859
2026-01-16 07:06:29.63	305.65	17.05	-24.6	-25.2	16.8	0.00e+00	0	44	0	2393899008	9	3818
2026-01-16 07:06:30.63	305.43	17.02	-24.8	-25.4	16.7	1.10e-06	0	44	0	2401239040	9	3875
2026-01-16 07:06:31.63	305.21	16.99	-24.6	-25.0	16.9	0.00e+00	0	43	0	2407530496	9	3785
2026-01-16 07:06:32.64	304.99	16.95	-24.7	-25.2	16.8	0.00e+00	0	43	0	2414870528	9	3821
2026-01-16 07:06:33.64	304.78	16.92	-24.7	-25.2	16.8	0.00e+00	0	44	0	2422210560	9	3841
2026-01-16 07:06:34.64	304.56	16.89	-24.8	-25.4	16.7	0.00e+00	0	43	0	2429550592	9	3881
2026-01-16 07:06:35.64	304.34	16.85	-24.9	-25.6	16.6	0.00e+00	0	44	0	2436890624	9	3925
2026-01-16 07:06:36.65	304.12	16.82	-24.9	-25.8	16.5	0.00e+00	0	44	0	2444230656	9	3975
2026-01-16 07:06:37.65	303.91	16.78	-25.0	-26.0	16.4	0.00e+00	0	44	0	2451570688	9	4023
2026-01-16 07:06:38.65	303.69	16.75	-25.0	-25.9	16.4	0.00e+00	0	44	0	2458910720	9	4004
2026-01-16 07:06:39.65	303.48	16.72	-25.1	-25.6	16.4	0.00e+00	0	43	0	2466250752	10	3814
2026-01-16 07:06:40.64	303.27	16.68	-25.1	-25.6	16.3	0.00e+00	0	44	0	2472542208	10	3819
2026-01-16 07:06:41.64	303.06	16.65	-25.0	-25.5	16.4	0.00e+00	0	44	0	2479882240	10	3786
2026-01-16 07:06:42.64	302.84	16.61	-24.9	-25.1	16.6	0.00e+00	0	44	0	2487222272	10	3706
2026-01-16 07:06:43.65	302.63	16.57	-24.9	-25.2	16.5	0.00e+00	0	43	0	2494562304	10	3732
2026-01-16 07:06:44.65	302.42	16.54	-24.9	-25.2	16.6	0.00e+00	0	44	0	2501902336	10	3715
2026-01-16 07:06:45.65	302.21	16.50	-25.0	-25.4	16.4	0.00e+00	0	44	0	2509242368	10	3767
2026-01-16 07:06:46.66	301.99	16.46	-25.1	-25.6	16.4	0.00e+00	0	44	0	2516582400	10	3812
2026-01-16 07:06:47.65	301.78	16.42	-25.2	-25.8	16.3	0.00e+00	0	43	0	2523922432	10	3859
2026-01-16 07:06:48.66	301.57	16.39	-25.2	-25.8	16.2	0.00e+00	0	44	0	2531262464	10	3874
2026-01-16 07:06:49.66	301.36	16.35	-25.2	-25.8	16.3	0.00e+00	0	44	0	2538602496	10	3860
2026-01-16 07:06:50.66	301.16	16.31	-25.2	-25.9	16.2	0.00e+00	0	44	0	2545942528	10	3894
2026-01-16 07:06:51.66	300.95	16.27	-25.3	-26.0	16.1	0.00e+00	0	44	0	2552233984	10	3911
2026-01-16 07:06:52.66	300.74	16.23	-25.1	-25.7	16.3	0.00e+00	0	44	0	2559574016	10	3851
2026-01-16 07:06:53.67	300.53	16.19	-25.2	-25.9	16.2	0.00e+00	0	44	0	2566914048	10	3893
2026-01-16 07:06:54.67	300.32	16.15	-25.1	-25.7	16.3	0.00e+00	0	44	0	2574254080	10	3848
2026-01-16 07:06:55.67	300.12	16.11	-25.0	-25.5	16.4	0.00e+00	0	44	0	2581594112	10	3806
2026-01-16 07:06:56.68	299.91	16.07	-25.1	-25.5	16.3	0.00e+00	0	44	0	2588934144	10	3810
2026-01-16 07:06:57.68	299.71	16.03	-25.1	-25.5	16.4	0.00e+00	0	44	0	2596274176	10	3807
2026-01-16 07:06:58.69	299.50	15.99	-25.0	-25.5	16.4	0.00e+00	0	44	0	2603614208	10	3784
2026-01-16 07:06:59.69	299.30	15.94	-25.0	-25.3	16.4	0.00e+00	0	44	0	2610954240	10	3760
2026-01-16 07:07:00.69	299.09	15.90	-25.1	-25.6	16.3	0.00e+00	0	44	0	2617245696	10	3825
2026-01-16 07:07:01.69	298.89	15.86	-25.0	-25.5	16.3	0.00e+00	0	44	0	2624585728	10	3792
2026-01-16 07:07:02.69	298.69	15.82	-25.1	-25.6	16.3	0.00e+00	0	44	0	2631925760	10	3825
2026-01-16 07:07:03.69	298.49	15.78	-25.1	-25.7	16.3	0.00e+00	0	44	0	2639265792	10	3834
2026-01-16 07:07:04.69	298.29	15.73	-25.1	-25.6	16.3	0.00e+00	0	44	0	2646605824	10	3825
2026-01-16 07:07:05.69	298.09	15.69	-25.2	-25.8	16.2	0.00e+00	0	44	0	2653945856	10	3875
2026-01-16 07:07:06.70	297.89	15.65	-25.2	-25.9	16.2	0.00e+00	0	44	0	2661285888	10	3886
2026-01-16 07:07:07.70	297.69	15.60	-25.3	-26.1	16.0	0.00e+00	0	44	0	2668625920	10	3927
2026-01-16 07:07:08.70	297.49	15.56	-25.2	-25.9	16.1	0.00e+00	0	44	0	2675965952	10	3887
2026-01-16 07:07:09.71	297.29	15.51	-25.1	-25.7	16.3	0.00e+00	0	44	0	2683305984	10	3834
2026-01-16 07:07:10.72	297.09	15.47	-25.2	-25.9	16.2	0.00e+00	0	44	0	2690646016	10	3888
2026-01-16 07:07:11.72	296.89	15.42	-25.2	-25.7	16.2	0.00e+00	0	44	0	2697986048	10	3853
2026-01-16 07:07:12.73	296.70	15.38	-25.1	-25.7	16.2	0.00e+00	0	44	0	2704277504	10	3848
2026-01-16 07:07:13.73	296.50	15.33	-25.2	-25.9	16.1	0.00e+00	0	44	0	2711617536	10	3885
2026-01-16 07:07:14.73	296.31	15.29	-25.3	-26.0	16.1	0.00e+00	0	44	0	2718957568	10	3911
2026-01-16 07:07:15.73	296.11	15.24	-25.2	-25.8	16.1	0.00e+00	0	44	0	2726297600	10	3877
2026-01-16 07:07:16.74	295.92	15.20	-25.4	-26.2	15.9	0.00e+00	0	44	0	2733637632	10	3958
2026-01-16 07:07:17.74	295.72	15.15	-25.3	-26.2	16.0	0.00e+00	0	44	0	2740977664	10	3958
2026-01-16 07:07:18.74	295.53	15.10	-25.4	-26.3	15.9	0.00e+00	0	44	0	2748317696	10	3992
2026-01-16 07:07:19.74	295.34	15.06	-25.4	-26.2	15.9	0.00e+00	0	44	0	2755657728	10	3965
2026-01-16 07:07:20.75	295.15	15.01	-25.4	-26.4	15.8	0.00e+00	0	44	0	2761949184	10	4013
2026-01-16 07:07:21.75	294.96	14.96	-25.7	-26.4	15.6	0.00e+00	0	44	0	2769289216	11	3903
2026-01-16 07:07:22.75	294.77	14.91	-25.6	-26.3	15.6	0.00e+00	0	44	0	2777677824	11	3883
2026-01-16 07:07:23.76	294.57	14.87	-25.4	-25.8	15.9	0.00e+00	0	44	0	2783969280	11	3762
2026-01-16 07:07:24.76	294.39	14.82	-25.3	-25.6	16.0	0.00e+00	0	44	0	2791309312	11	3717
2026-01-16 07:07:25.76	294.20	14.77	-25.3	-25.7	15.9	0.00e+00	0	44	0	2798649344	11	3745
2026-01-16 07:07:26.77	294.01	14.72	-25.3	-25.6	16.0	0.00e+00	0	44	0	2805989376	11	3725
2026-01-16 07:07:27.77	293.82	14.67	-25.4	-25.8	15.9	0.00e+00	0	44	0	2813329408	11	3760
2026-01-16 07:07:28.77	293.64	14.62	-25.4	-25.8	15.9	0.00e+00	0	44	0	2820669440	11	3764
2026-01-16 07:07:29.77	293.45	14.57	-25.5	-25.9	15.8	0.00e+00	0	44	0	2828009472	11	3796
2026-01-16 07:07:30.77	293.26	14.53	-25.4	-25.7	15.9	0.00e+00	0	44	0	2835349504	11	3744
2026-01-16 07:07:31.78	293.08	14.48	-25.2	-25.4	16.0	0.00e+00	0	44	0	2842689536	11	3688
2026-01-16 07:07:32.78	292.89	14.43	-25.2	-25.3	16.1	0.00e+00	0	44	0	2848980992	11	3646
2026-01-16 07:07:33.79	292.71	14.38	-25.3	-25.6	15.9	0.00e+00	0	44	0	2856321024	11	3723
2026-01-16 07:07:34.79	292.53	14.33	-25.2	-25.3	16.1	0.00e+00	0	44	0	2863661056	11	3644
2026-01-16 07:07:35.79	292.35	14.28	-25.2	-25.3	16.1	0.00e+00	0	44	0	2871001088	11	3652
2026-01-16 07:07:36.79	292.16	14.23	-25.3	-25.5	16.0	0.00e+00	0	44	0	2878341120	11	3701
2026-01-16 07:07:37.79	291.98	14.18	-25.2	-25.4	16.0	0.00e+00	0	44	0	2885681152	11	3671
2026-01-16 07:07:38.80	291.80	14.12	-25.2	-25.4	16.0	0.00e+00	0	44	0	2893021184	11	3684
2026-01-16 07:07:39.80	291.62	14.07	-25.2	-25.4	16.0	0.00e+00	0	44	0	2900361216	11	3678
2026-01-16 07:07:40.81	291.44	14.02	-25.3	-25.6	15.9	0.00e+00	0	44	0	2907701248	11	3732
2026-01-16 07:07:41.81	291.26	13.97	-25.4	-25.8	15.8	0.00e+00	0	44	0	2915041280	11	3765
2026-01-16 07:07:42.82	291.08	13.92	-25.4	-25.7	15.8	0.00e+00	0	44	0	2922381312	11	3752
2026-01-16 07:07:43.82	290.91	13.87	-25.5	-26.0	15.7	0.00e+00	0	44	0	2928672768	11	3816
2026-01-16 07:07:44.83	290.73	13.82	-25.5	-26.0	15.7	0.00e+00	0	44	0	2936012800	11	3813
2026-01-16 07:07:45.83	290.55	13.76	-25.5	-26.0	15.7	0.00e+00	0	44	0	2943352832	11	3815
2026-01-16 07:07:46.84	290.38	13.71	-25.6	-26.3	15.5	0.00e+00	0	44	0	2950692864	11	3891
2026-01-16 07:07:47.84	290.20	13.66	-25.7	-26.4	15.5	0.00e+00	0	44	0	2958032896	11	3906
2026-01-16 07:07:48.84	290.03	13.61	-25.6	-26.3	15.5	0.00e+00	0	44	0	2965372928	11	3884
2026-01-16 07:07:49.85	289.85	13.55	-25.7	-26.4	15.5	0.00e+00	0	43	0	2972712960	11	3905
2026-01-16 07:07:50.84	289.68	13.50	-25.6	-26.3	15.5	0.00e+00	0	44	0	2980052992	11	3887
2026-01-16 07:07:51.84	289.51	13.45	-25.7	-26.5	15.4	0.00e+00	0	44	0	2987393024	11	3939
2026-01-16 07:07:52.84	289.34	13.40	-25.8	-26.6	15.3	0.00e+00	0	44	0	2993684480	11	3966
2026-01-16 07:07:53.85	289.17	13.34	-25.9	-27.0	15.1	0.00e+00	0	44	0	3001024512	11	4067
2026-01-16 07:07:54.85	289.00	13.29	-26.1	-27.2	14.9	1.10e-06	0	44	0	3008364544	11	4129
2026-01-16 07:07:55.85	288.83	13.24	-26.0	-26.5	15.0	0.00e+00	0	44	0	3015704576	12	3850
2026-01-16 07:07:56.85	288.66	13.18	-25.8	-26.3	15.1	0.00e+00	0	44	0	3023044608	12	3783
2026-01-16 07:07:57.86	288.49	13.13	-25.8	-26.2	15.2	0.00e+00	0	44	0	3030384640	12	3764
2026-01-16 07:07:58.87	288.32	13.07	-25.8	-26.2	15.2	0.00e+00	0	43	0	3037724672	12	3766
2026-01-16 07:07:59.87	288.15	13.02	-25.7	-26.0	15.2	0.00e+00	0	44	0	3045064704	12	3727
2026-01-16 07:08:00.88	287.99	12.97	-25.8	-26.2	15.2	0.00e+00	0	44	0	3052404736	12	3760
2026-01-16 07:08:01.88	287.82	12.91	-26.0	-26.7	14.9	0.00e+00	0	44	0	3059744768	12	3885
2026-01-16 07:08:02.88	287.65	12.86	-25.8	-26.2	15.2	0.00e+00	0	44	0	3067084800	12	3761
2026-01-16 07:08:03.88	287.49	12.80	-25.7	-26.0	15.3	0.00e+00	0	44	0	3074424832	12	3716
2026-01-16 07:08:04.88	287.33	12.75	-25.8	-26.1	15.2	0.00e+00	0	44	0	3080716288	12	3741
2026-01-16 07:08:05.89	287.16	12.69	-25.8	-26.3	15.1	1.10e-06	0	44	0	3088056320	12	3788
2026-01-16 07:08:06.89	287.00	12.64	-25.7	-26.1	15.2	0.00e+00	0	44	0	3095396352	12	3741
2026-01-16 07:08:07.89	286.84	12.59	-26.0	-26.7	14.9	1.10e-06	0	44	0	3102736384	12	3894
2026-01-16 07:08:08.90	286.67	12.53	-25.9	-26.3	15.1	0.00e+00	0	44	0	3110076416	12	3795
2026-01-16 07:08:09.90	286.51	12.47	-25.8	-26.1	15.2	0.00e+00	0	44	0	3117416448	12	3756
2026-01-16 07:08:10.90	286.35	12.42	-25.8	-26.1	15.2	0.00e+00	0	44	0	3124756480	12	3743
2026-01-16 07:08:11.90	286.19	12.36	-25.7	-25.9	15.3	0.00e+00	0	44	0	3132096512	12	3711
2026-01-16 07:08:12.90	286.03	12.31	-25.8	-26.3	15.1	0.00e+00	0	44	0	3138387968	12	3789
2026-01-16 07:08:13.91	285.87	12.25	-25.8	-26.2	15.1	0.00e+00	0	44	0	3146776576	12	3770
2026-01-16 07:08:14.90	285.72	12.20	-25.7	-26.0	15.2	0.00e+00	0	44	0	3153068032	12	3716
2026-01-16 07:08:15.91	285.56	12.14	-25.7	-26.0	15.2	0.00e+00	0	44	0	3160408064	12	3730
2026-01-16 07:08:16.91	285.40	12.09	-26.0	-26.6	14.8	0.00e+00	0	43	0	3167748096	12	3877
2026-01-16 07:08:17.92	285.24	12.03	-25.9	-26.4	14.9	0.00e+00	0	44	0	3175088128	12	3831
2026-01-16 07:08:18.93	285.09	11.98	-25.7	-26.1	15.1	0.00e+00	0	43	0	3182428160	12	3738
2026-01-16 07:08:19.93	284.93	11.92	-25.8	-26.3	15.0	0.00e+00	0	44	0	3189768192	12	3797
2026-01-16 07:08:20.93	284.78	11.86	-25.9	-26.4	15.0	0.00e+00	0	44	0	3197108224	12	3821
2026-01-16 07:08:21.93	284.62	11.81	-25.9	-26.4	14.9	0.00e+00	0	44	0	3204448256	12	3825
2026-01-16 07:08:22.94	284.47	11.75	-25.8	-26.3	15.0	0.00e+00	0	44	0	3211788288	12	3788
2026-01-16 07:08:23.94	284.32	11.70	-26.0	-26.7	14.8	0.00e+00	0	44	0	3219128320	12	3895
2026-01-16 07:08:24.95	284.16	11.64	-25.9	-26.5	14.9	0.00e+00	0	44	0	3225419776	12	3841
2026-01-16 07:08:25.95	284.01	11.58	-25.8	-26.2	15.1	0.00e+00	0	44	0	3232759808	12	3772
2026-01-16 07:08:26.95	283.86	11.53	-25.8	-26.3	15.0	0.00e+00	0	44	0	3240099840	12	3792
2026-01-16 07:08:27.95	283.71	11.47	-25.9	-26.4	15.0	0.00e+00	0	44	0	3247439872	12	3807
2026-01-16 07:08:28.95	283.56	11.41	-26.0	-26.6	14.8	0.00e+00	0	44	0	3254779904	12	3868
2026-01-16 07:08:29.95	283.41	11.36	-25.8	-26.2	15.1	0.00e+00	0	44	0	3262119936	12	3765
2026-01-16 07:08:30.95	283.27	11.30	-25.8	-26.3	15.0	0.00e+00	0	44	0	3269459968	12	3797
2026-01-16 07:08:31.94	283.12	11.24	-25.9	-26.5	14.9	1.10e-06	0	44	0	3276800000	12	3850
2026-01-16 07:08:32.95	282.97	11.19	-25.9	-26.5	14.9	0.00e+00	0	44	0	3283091456	12	3831
2026-01-16 07:08:33.95	282.82	11.13	-26.0	-26.6	14.8	0.00e+00	0	44	0	3290431488	12	3876
2026-01-16 07:08:34.95	282.68	11.07	-26.0	-26.7	14.8	0.00e+00	0	44	0	3298820096	12	3890
2026-01-16 07:08:35.96	282.53	11.02	-26.1	-26.9	14.7	0.00e+00	0	44	0	3305111552	12	3937
2026-01-16 07:08:36.96	282.39	10.96	-26.2	-27.1	14.6	0.00e+00	0	44	0	3312451584	12	3994
2026-01-16 07:08:37.97	282.24	10.90	-26.3	-27.2	14.5	0.00e+00	0	44	0	3319791616	12	4028
2026-01-16 07:08:38.97	282.10	10.85	-26.1	-27.0	14.6	0.00e+00	0	44	0	3327131648	12	3964
2026-01-16 07:08:39.97	281.95	10.79	-26.3	-27.4	14.4	1.10e-06	0	44	0	3334471680	12	4057
2026-01-16 07:08:40.97	281.81	10.73	-26.2	-27.2	14.5	0.00e+00	0	44	0	3341811712	12	4013
2026-01-16 07:08:41.97	281.67	10.67	-26.3	-27.2	14.5	0.00e+00	0	44	0	3349151744	12	4027
2026-01-16 07:08:42.96	281.53	10.62	-26.3	-27.3	14.4	0.00e+00	0	44	0	3356491776	12	4039
2026-01-16 07:08:43.96	281.39	10.56	-26.0	-26.7	14.7	1.10e-06	0	44	0	3363831808	12	3900
2026-01-16 07:08:44.97	281.25	10.50	-26.0	-26.7	14.7	0.00e+00	0	44	0	3370123264	12	3887
2026-01-16 07:08:45.97	281.11	10.45	-25.8	-26.3	15.0	0.00e+00	0	44	0	3377463296	12	3798
2026-01-16 07:08:46.97	280.97	10.39	-26.0	-26.6	14.8	0.00e+00	0	44	0	3384803328	12	3864
2026-01-16 07:08:47.97	280.83	10.33	-25.7	-26.1	15.1	0.00e+00	0	44	0	3392143360	12	3750
2026-01-16 07:08:48.97	280.69	10.27	-25.9	-26.5	14.8	0.00e+00	0	44	0	3399483392	12	3837
2026-01-16 07:08:49.97	280.55	10.22	-25.8	-26.2	15.0	0.00e+00	0	44	0	3406823424	12	3766
2026-01-16 07:08:50.98	280.41	10.16	-25.9	-26.4	14.9	0.00e+00	0	44	0	3414163456	12	3830
2026-01-16 07:08:51.98	280.28	10.10	-26.0	-26.7	14.7	0.00e+00	0	44	0	3421503488	12	3893
2026-01-16 07:08:52.99	280.14	10.04	-26.2	-27.1	14.5	0.00e+00	0	44	0	3428843520	12	3983
2026-01-16 07:08:53.99	280.00	9.99	-26.2	-27.1	14.5	0.00e+00	0	44	0	3435134976	12	4004
2026-01-16 07:08:54.99	279.87	9.93	-26.4	-27.6	14.2	0.00e+00	0	44	0	3442475008	12	4115
2026-01-16 07:08:56.00	279.73	9.87	-26.4	-27.5	14.2	1.10e-06	0	44	0	3449815040	12	4097
2026-01-16 07:08:57.00	279.60	9.81	-26.5	-27.7	14.1	1.10e-06	0	44	0	3457155072	12	4151
2026-01-16 07:08:58.00	279.47	9.76	-26.8	-27.9	13.8	3.40e-06	0	44	0	3464495104	13	4097
2026-01-16 07:08:59.00	279.33	9.70	-26.5	-27.4	14.0	2.20e-06	0	44	0	3471835136	13	3964
2026-01-16 07:09:00.00	279.20	9.64	-26.5	-27.3	14.1	2.20e-06	0	44	0	3479175168	13	3947
2026-01-16 07:09:01.00	279.07	9.58	-26.5	-27.3	14.1	0.00e+00	0	44	0	3486515200	13	3948
2026-01-16 07:09:02.00	278.94	9.53	-26.6	-27.5	14.0	2.20e-06	0	44	0	3493855232	13	3980
2026-01-16 07:09:03.01	278.81	9.47	-26.5	-27.2	14.1	1.10e-06	0	44	0	3501195264	13	3915
2026-01-16 07:09:04.02	278.68	9.41	-26.5	-27.2	14.1	0.00e+00	0	44	0	3508535296	13	3929
2026-01-16 07:09:05.02	278.55	9.35	-26.4	-27.1	14.2	0.00e+00	0	44	0	3514826752	13	3901
2026-01-16 07:09:06.02	278.42	9.30	-26.4	-27.0	14.2	0.00e+00	0	44	0	3522166784	13	3862
2026-01-16 07:09:07.02	278.29	9.24	-26.3	-26.9	14.3	3.40e-06	0	44	0	3529506816	13	3853
2026-01-16 07:09:08.04	278.16	9.18	-26.5	-27.2	14.1	0.00e+00	0	44	0	3536846848	13	3914
2026-01-16 07:09:09.03	278.03	9.12	-26.3	-26.9	14.2	0.00e+00	0	44	0	3544186880	13	3852
2026-01-16 07:09:10.03	277.91	9.06	-26.6	-27.5	13.9	2.20e-06	0	44	0	3551526912	13	3994
2026-01-16 07:09:11.04	277.78	9.01	-26.5	-27.2	14.1	2.20e-06	0	44	0	3558866944	13	3931
2026-01-16 07:09:12.04	277.65	8.95	-26.3	-26.8	14.3	1.10e-06	0	44	0	3566206976	13	3821
2026-01-16 07:09:13.04	277.53	8.89	-26.6	-27.5	14.0	4.50e-06	0	44	0	3573547008	13	3981
2026-01-16 07:09:14.05	277.40	8.83	-26.3	-26.9	14.3	1.10e-06	0	44	0	3579838464	13	3846
2026-01-16 07:09:15.05	277.28	8.78	-26.4	-27.0	14.1	0.00e+00	0	44	0	3587178496	13	3879
2026-01-16 07:09:16.05	277.15	8.72	-26.4	-27.1	14.2	3.40e-06	0	44	0	3594518528	13	3894
2026-01-16 07:09:17.05	277.03	8.66	-26.4	-27.1	14.1	1.10e-06	0	44	0	3601858560	13	3889
2026-01-16 07:09:18.06	276.90	8.60	-26.4	-27.1	14.2	2.20e-06	0	44	0	3609198592	13	3883
2026-01-16 07:09:19.06	276.78	8.54	-26.6	-27.5	13.9	3.40e-06	0	44	0	3616538624	13	3992
2026-01-16 07:09:20.06	276.66	8.49	-26.6	-27.5	13.9	4.50e-06	0	44	0	3623878656	13	4005
2026-01-16 07:09:21.07	276.54	8.43	-26.7	-27.8	13.7	8.00e-06	0	44	0	3631218688	13	4072
2026-01-16 07:09:22.07	276.42	8.37	-26.7	-27.7	13.8	1.10e-06	0	44	0	3638558720	13	4052
2026-01-16 07:09:23.08	276.29	8.31	-26.9	-28.2	13.5	6.80e-06	0	44	0	3645898752	13	4187
2026-01-16 07:09:24.08	276.17	8.26	-26.8	-28.0	13.6	5.70e-06	0	44	0	3653238784	13	4127
2026-01-16 07:09:25.08	276.05	8.20	-27.0	-28.5	13.2	1.48e-05	0	44	0	3660578816	13	4279
2026-01-16 07:09:26.08	275.94	8.14	-26.9	-28.2	13.5	1.14e-05	0	44	0	3666870272	13	4193
2026-01-16 07:09:27.08	275.82	8.08	-27.2	-28.4	13.1	1.83e-05	0	44	0	3674210304	14	4122
2026-01-16 07:09:28.08	275.70	8.03	-26.9	-27.6	13.5	6.80e-06	0	44	0	3681550336	14	3921
2026-01-16 07:09:29.08	275.58	7.97	-27.2	-28.5	13.0	1.60e-05	0	44	0	3688890368	14	4161
2026-01-16 07:09:30.08	275.46	7.91	-27.0	-28.1	13.2	1.25e-05	0	44	0	3696230400	14	4046
2026-01-16 07:09:31.07	275.35	7.85	-27.3	-28.6	12.9	3.20e-05	0	44	0	3703570432	14	4186
2026-01-16 07:09:32.08	275.23	7.80	-27.0	-27.9	13.3	1.94e-05	0	44	0	3710910464	14	4012
2026-01-16 07:09:33.08	275.12	7.74	-27.0	-27.8	13.3	1.25e-05	0	44	0	3718250496	14	3989
2026-01-16 07:09:34.08	275.00	7.68	-26.8	-27.6	13.5	5.70e-06	0	44	0	3724541952	14	3916
2026-01-16 07:09:35.08	274.89	7.62	-27.0	-28.0	13.2	1.25e-05	0	44	0	3731881984	14	4024
2026-01-16 07:09:36.09	274.77	7.57	-27.0	-28.0	13.2	2.28e-05	0	44	0	3739222016	14	4040
2026-01-16 07:09:37.09	274.66	7.51	-27.2	-28.4	13.0	4.23e-05	0	44	0	3746562048	14	4135
2026-01-16 07:09:38.09	274.54	7.45	-27.0	-27.9	13.3	1.60e-05	0	44	0	3753902080	14	4007
2026-01-16 07:09:39.09	274.43	7.39	-27.1	-28.1	13.2	2.40e-05	0	44	0	3761242112	14	4053
2026-01-16 07:09:40.09	274.32	7.34	-27.1	-28.1	13.1	3.54e-05	0	44	0	3768582144	14	4052
2026-01-16 07:09:41.09	274.20	7.28	-27.4	-28.9	12.6	5.26e-05	0	44	0	3775922176	14	4285
2026-01-16 07:09:42.09	274.09	7.22	-27.0	-27.9	13.2	3.43e-05	0	44	0	3783262208	14	4017
2026-01-16 07:09:43.09	273.98	7.17	-27.1	-28.2	13.0	3.66e-05	0	44	0	3789553664	14	4088
2026-01-16 07:09:44.08	273.87	7.11	-27.4	-28.9	12.6	6.98e-05	0	44	0	3796893696	14	4283
2026-01-16 07:09:45.09	273.76	7.05	-27.1	-28.1	13.1	1.83e-05	0	44	0	3804233728	14	4062
2026-01-16 07:09:46.09	273.65	6.99	-33.1	-42.8	3.8	8.46e-01	0	44	104	3806330880	25	10981
2026-01-16 07:09:47.09	273.54	6.94	-33.5	-43.5	3.8	8.47e-01	0	44	104	3806330880	26	11351
2026-01-16 07:09:48.10	273.43	6.88	-33.8	-43.5	3.8	8.47e-01	0	44	104	3806330880	27	10949

#Closed at: 2026-01-16 07:09:48
#Recorded file [3806 MB]: D:/data/31010_260116_100057.dat