passes_logs/2026/01/16/R2M6_AANII_01/R2M6_AANII_01__20260116_132854_FENGYUN_3D_rec.log

#Pass ID: 20260116_132854_FENGYUN 3D
#Satellite: FENGYUN 3D
#Configuration: FENGYUN 3D
#almurnet v.1.7.20240730
#Start time: 2026-01-16 13:28:54

#Version: 2.2.20231116
#Station: R2M6_AANII_01
#Location: 30.233357 lon 59.946436 lat
#TLE: 1 43010U 17072A   26015.99024095 -.00000189  00000+0 -67463-4 0  9996
#TLE: 2 43010  98.9932 347.8215 0002366 106.5594 253.5841 14.19694691423396

#Time	Az	El	Level	Level2	SNR	BER	BlckErr	Temp	State	Recorded	gain1	gain2
2026-01-16 13:28:54.62	195.75	7.04	-27.9	-29.8	5.8	7.65e-01	0	41	0	0	16	4475
2026-01-16 13:28:55.61	195.82	7.11	-29.2	-32.0	5.5	7.76e-01	0	41	104	0	18	4966
2026-01-16 13:28:56.62	195.89	7.18	-28.9	-31.3	11.5	1.27e-03	0	41	0	0	18	4719
2026-01-16 13:28:57.62	195.96	7.25	-28.9	-31.2	11.6	6.00e-04	0	41	0	5242880	18	4686
2026-01-16 13:28:58.62	196.03	7.32	-29.0	-31.4	11.5	1.63e-03	0	41	0	11534336	18	4772
2026-01-16 13:28:59.62	196.10	7.40	-28.4	-29.9	12.4	3.10e-04	0	41	0	16777216	18	4285
2026-01-16 13:29:00.62	196.17	7.47	-28.4	-30.0	12.4	2.45e-04	0	41	0	22020096	18	4332
2026-01-16 13:29:01.61	196.24	7.54	-28.0	-29.5	13.0	5.60e-05	0	41	0	28311552	17	4280
2026-01-16 13:29:02.61	196.31	7.61	-28.4	-30.3	12.5	1.53e-04	0	41	0	33554432	17	4510
2026-01-16 13:29:03.61	196.38	7.68	-27.8	-29.1	13.3	5.37e-05	0	41	0	38797312	17	4157
2026-01-16 13:29:04.61	196.45	7.75	-27.7	-29.3	13.5	2.28e-05	0	41	0	45088768	16	4324
2026-01-16 13:29:05.62	196.52	7.83	-27.8	-29.5	13.4	4.57e-05	0	41	0	50331648	16	4369
2026-01-16 13:29:06.62	196.59	7.90	-28.0	-30.0	13.0	5.26e-05	0	41	0	56623104	16	4525
2026-01-16 13:29:07.62	196.67	7.97	-27.9	-29.6	13.3	3.66e-05	0	41	0	61865984	16	4417
2026-01-16 13:29:08.62	196.74	8.04	-27.9	-29.8	13.2	1.60e-05	0	41	0	67108864	16	4452
2026-01-16 13:29:09.63	196.81	8.12	-27.8	-29.5	13.4	4.00e-05	0	41	0	73400320	16	4374
2026-01-16 13:29:10.64	196.89	8.19	-27.7	-29.3	13.5	1.71e-05	0	41	0	78643200	16	4328
2026-01-16 13:29:11.64	196.96	8.27	-27.1	-28.3	14.2	6.80e-06	0	41	0	84934656	15	4154
2026-01-16 13:29:12.64	197.03	8.34	-26.7	-28.0	14.7	0.00e+00	0	41	0	90177536	14	4190
2026-01-16 13:29:13.64	197.11	8.41	-26.9	-28.5	14.4	2.20e-06	0	41	0	95420416	14	4312
2026-01-16 13:29:14.64	197.18	8.49	-27.2	-29.0	14.1	1.10e-06	0	41	0	101711872	14	4470
2026-01-16 13:29:15.64	197.26	8.56	-27.0	-28.7	14.3	4.50e-06	0	41	0	106954752	14	4375
2026-01-16 13:29:16.65	197.33	8.64	-27.0	-28.6	14.3	0.00e+00	0	41	0	112197632	14	4352
2026-01-16 13:29:17.65	197.41	8.71	-27.1	-28.8	14.3	0.00e+00	0	41	0	118489088	14	4398
2026-01-16 13:29:18.65	197.49	8.79	-27.1	-29.0	14.2	2.20e-06	0	41	0	123731968	14	4457
2026-01-16 13:29:19.66	197.56	8.86	-27.2	-29.2	14.0	0.00e+00	0	41	0	128974848	14	4530
2026-01-16 13:29:20.66	197.64	8.94	-27.2	-29.0	14.2	9.10e-06	0	41	0	135266304	14	4468
2026-01-16 13:29:21.66	197.72	9.01	-27.4	-29.5	13.9	4.50e-06	0	41	0	140509184	14	4616
2026-01-16 13:29:22.67	197.80	9.09	-27.3	-28.9	13.9	8.00e-06	0	41	0	146800640	15	4313
2026-01-16 13:29:23.67	197.87	9.16	-27.0	-28.2	14.4	1.10e-06	0	41	0	152043520	15	4134
2026-01-16 13:29:24.68	197.95	9.24	-26.9	-28.0	14.5	6.80e-06	0	41	0	158334976	15	4070
2026-01-16 13:29:25.68	198.03	9.31	-26.9	-27.8	14.6	1.10e-06	0	42	0	163577856	15	4035
2026-01-16 13:29:26.69	198.11	9.39	-26.9	-27.9	14.6	1.10e-06	0	42	0	168820736	15	4053
2026-01-16 13:29:27.69	198.19	9.47	-27.0	-28.6	14.5	1.10e-06	0	41	0	175112192	14	4327
2026-01-16 13:29:28.69	198.27	9.54	-27.0	-28.5	14.5	2.20e-06	0	41	0	180355072	14	4326
2026-01-16 13:29:29.69	198.35	9.62	-27.0	-28.7	14.4	1.10e-06	0	41	0	185597952	14	4357
2026-01-16 13:29:30.68	198.43	9.70	-27.0	-28.6	14.4	2.20e-06	0	41	0	191889408	14	4353
2026-01-16 13:29:31.68	198.51	9.77	-26.5	-27.6	15.0	0.00e+00	0	41	0	197132288	14	4077
2026-01-16 13:29:32.69	198.59	9.85	-26.6	-27.7	15.0	0.00e+00	0	41	0	202375168	14	4083
2026-01-16 13:29:33.69	198.68	9.93	-26.5	-27.6	15.1	0.00e+00	0	42	0	208666624	14	4057
2026-01-16 13:29:34.69	198.76	10.01	-26.7	-28.0	14.8	0.00e+00	0	42	0	213909504	14	4173
2026-01-16 13:29:35.69	198.84	10.09	-26.4	-27.3	15.2	1.02e-05	0	42	0	220200960	14	3996
2026-01-16 13:29:36.69	198.92	10.16	-26.4	-27.2	15.3	0.00e+00	0	42	0	225443840	14	3963
2026-01-16 13:29:37.69	199.01	10.24	-26.2	-27.3	15.5	0.00e+00	0	42	0	230686720	13	4086
2026-01-16 13:29:38.69	199.09	10.32	-26.4	-27.7	15.3	0.00e+00	0	42	0	236978176	13	4210
2026-01-16 13:29:39.69	199.18	10.40	-26.2	-27.4	15.5	0.00e+00	0	42	0	242221056	13	4115
2026-01-16 13:29:40.69	199.26	10.48	-26.2	-27.2	15.6	0.00e+00	0	42	0	247463936	13	4079
2026-01-16 13:29:41.68	199.35	10.56	-26.3	-27.5	15.4	0.00e+00	0	42	0	253755392	13	4143
2026-01-16 13:29:42.69	199.43	10.64	-26.3	-27.6	15.4	0.00e+00	0	42	0	258998272	13	4159
2026-01-16 13:29:43.69	199.52	10.72	-26.2	-27.4	15.5	0.00e+00	0	42	0	264241152	13	4109
2026-01-16 13:29:44.69	199.61	10.79	-26.5	-27.9	15.2	1.37e-05	0	42	0	270532608	13	4257
2026-01-16 13:29:45.69	199.69	10.87	-26.3	-27.6	15.4	0.00e+00	0	42	0	275775488	13	4161
2026-01-16 13:29:46.69	199.78	10.95	-26.1	-27.1	15.7	0.00e+00	0	42	0	282066944	13	4031
2026-01-16 13:29:47.69	199.87	11.03	-26.0	-26.9	15.8	1.25e-05	0	42	0	287309824	13	3990
2026-01-16 13:29:48.68	199.96	11.11	-26.1	-27.0	15.7	0.00e+00	0	42	0	292552704	13	4011
2026-01-16 13:29:49.68	200.05	11.20	-25.8	-26.5	16.0	0.00e+00	0	42	0	298844160	13	3898
2026-01-16 13:29:50.68	200.14	11.28	-25.9	-26.8	15.9	1.60e-05	0	42	0	304087040	13	3953
2026-01-16 13:29:51.69	200.23	11.36	-26.0	-26.9	15.8	0.00e+00	0	42	0	309329920	13	3985
2026-01-16 13:29:52.68	200.32	11.44	-26.2	-27.2	15.6	0.00e+00	0	42	0	315621376	13	4075
2026-01-16 13:29:53.69	200.41	11.52	-25.9	-26.7	15.9	1.14e-05	0	42	0	320864256	13	3936
2026-01-16 13:29:54.69	200.50	11.60	-26.1	-27.0	15.7	0.00e+00	0	42	0	326107136	13	4025
2026-01-16 13:29:55.70	200.59	11.68	-25.9	-26.7	15.9	0.00e+00	0	42	0	332398592	13	3938
2026-01-16 13:29:56.70	200.69	11.77	-25.8	-26.5	16.0	9.10e-06	0	42	0	337641472	13	3901
2026-01-16 13:29:57.71	200.78	11.85	-26.0	-27.0	15.8	0.00e+00	0	42	0	343932928	13	4013
2026-01-16 13:29:58.71	200.87	11.93	-26.0	-27.0	15.8	0.00e+00	0	42	0	349175808	13	4013
2026-01-16 13:29:59.72	200.97	12.02	-25.7	-26.8	16.2	1.14e-05	0	42	0	354418688	12	4065
2026-01-16 13:30:00.72	201.06	12.10	-25.9	-27.1	16.0	0.00e+00	0	42	0	360710144	12	4141
2026-01-16 13:30:01.72	201.16	12.18	-25.9	-27.1	16.0	0.00e+00	0	42	0	365953024	12	4154
2026-01-16 13:30:02.72	201.25	12.27	-25.7	-26.8	16.2	0.00e+00	0	42	0	372244480	12	4074
2026-01-16 13:30:03.72	201.35	12.35	-25.9	-27.2	16.0	0.00e+00	0	42	0	377487360	12	4176
2026-01-16 13:30:04.72	201.45	12.43	-25.9	-27.1	16.0	0.00e+00	0	42	0	382730240	12	4144
2026-01-16 13:30:05.73	201.54	12.52	-25.7	-26.8	16.2	0.00e+00	0	42	0	389021696	12	4065
2026-01-16 13:30:06.73	201.64	12.60	-25.6	-26.4	16.4	0.00e+00	0	42	0	394264576	12	3966
2026-01-16 13:30:07.72	201.74	12.69	-25.7	-26.8	16.2	0.00e+00	0	42	0	399507456	12	4071
2026-01-16 13:30:08.73	201.84	12.77	-25.8	-26.9	16.2	0.00e+00	0	42	0	405798912	12	4085
2026-01-16 13:30:09.73	201.94	12.86	-25.8	-26.9	16.1	0.00e+00	0	42	0	411041792	12	4092
2026-01-16 13:30:10.73	202.04	12.94	-25.8	-26.9	16.1	0.00e+00	0	42	0	417333248	12	4104
2026-01-16 13:30:11.73	202.14	13.03	-25.7	-26.7	16.3	1.02e-05	0	42	0	422576128	12	4039
2026-01-16 13:30:12.73	202.24	13.11	-26.0	-27.3	16.0	0.00e+00	0	42	0	427819008	12	4195
2026-01-16 13:30:13.73	202.34	13.20	-25.9	-27.2	16.0	0.00e+00	0	42	0	434110464	12	4178
2026-01-16 13:30:14.74	202.44	13.29	-26.0	-27.4	15.9	0.00e+00	0	42	0	439353344	12	4214
2026-01-16 13:30:15.74	202.55	13.37	-25.9	-27.0	16.1	0.00e+00	0	42	0	444596224	12	4128
2026-01-16 13:30:16.75	202.65	13.46	-25.8	-26.9	16.2	0.00e+00	0	42	0	450887680	12	4094
2026-01-16 13:30:17.75	202.75	13.55	-25.8	-26.8	16.2	0.00e+00	0	42	0	456130560	12	4074
2026-01-16 13:30:18.76	202.86	13.63	-25.9	-27.1	16.1	0.00e+00	0	42	0	461373440	12	4131
2026-01-16 13:30:19.76	202.96	13.72	-25.7	-26.7	16.3	0.00e+00	0	42	0	467664896	12	4037
2026-01-16 13:30:20.76	203.07	13.81	-25.6	-26.4	16.4	0.00e+00	0	42	0	472907776	12	3978
2026-01-16 13:30:21.77	203.18	13.90	-25.7	-26.7	16.3	0.00e+00	0	42	0	479199232	12	4038
2026-01-16 13:30:22.77	203.28	13.98	-25.7	-26.7	16.3	0.00e+00	0	42	0	484442112	12	4033
2026-01-16 13:30:23.77	203.39	14.07	-25.7	-26.7	16.3	0.00e+00	0	42	0	490733568	12	4036
2026-01-16 13:30:24.77	203.50	14.16	-25.5	-26.3	16.6	0.00e+00	0	42	0	495976448	12	3927
2026-01-16 13:30:25.77	203.61	14.25	-25.5	-26.3	16.6	0.00e+00	0	42	0	501219328	12	3935
2026-01-16 13:30:26.78	203.72	14.34	-25.5	-26.2	16.6	0.00e+00	0	42	0	507510784	12	3928
2026-01-16 13:30:27.78	203.83	14.43	-25.8	-27.0	16.2	0.00e+00	0	42	0	512753664	12	4110
2026-01-16 13:30:28.79	203.94	14.52	-25.7	-26.6	16.4	0.00e+00	0	42	0	517996544	12	4023
2026-01-16 13:30:29.79	204.05	14.61	-25.6	-26.5	16.5	0.00e+00	0	42	0	524288000	12	3996
2026-01-16 13:30:30.80	204.16	14.70	-25.6	-26.6	16.4	0.00e+00	0	42	0	529530880	12	4008
2026-01-16 13:30:31.80	204.28	14.79	-25.8	-27.0	16.2	0.00e+00	0	42	0	534773760	12	4123
2026-01-16 13:30:32.80	204.39	14.88	-25.6	-26.5	16.4	0.00e+00	0	42	0	541065216	12	3995
2026-01-16 13:30:33.81	204.50	14.97	-25.3	-25.9	16.8	0.00e+00	0	42	0	546308096	12	3848
2026-01-16 13:30:34.81	204.62	15.06	-25.3	-26.2	17.0	0.00e+00	0	43	0	552599552	11	4028
2026-01-16 13:30:35.81	204.73	15.15	-25.3	-26.3	16.9	0.00e+00	0	43	0	557842432	11	4041
2026-01-16 13:30:36.81	204.85	15.24	-25.5	-26.8	16.6	0.00e+00	0	42	0	563085312	11	4177
2026-01-16 13:30:37.82	204.97	15.33	-25.4	-26.5	16.9	0.00e+00	0	42	0	569376768	11	4086
2026-01-16 13:30:38.82	205.09	15.43	-25.2	-26.0	17.1	0.00e+00	0	42	0	574619648	11	3977
2026-01-16 13:30:39.82	205.20	15.52	-25.1	-25.9	17.2	0.00e+00	0	42	0	579862528	11	3943
2026-01-16 13:30:40.82	205.32	15.61	-25.2	-26.1	17.1	0.00e+00	0	42	0	586153984	11	3983
2026-01-16 13:30:41.82	205.44	15.70	-25.2	-26.1	17.1	0.00e+00	0	42	0	591396864	11	3989
2026-01-16 13:30:42.82	205.56	15.79	-25.3	-26.3	17.0	0.00e+00	0	42	0	597688320	11	4040
2026-01-16 13:30:43.82	205.68	15.89	-25.2	-26.1	17.1	0.00e+00	0	43	0	602931200	11	3990
2026-01-16 13:30:44.82	205.80	15.98	-25.3	-26.3	17.0	0.00e+00	0	42	0	608174080	11	4050
2026-01-16 13:30:45.82	205.93	16.07	-25.2	-26.1	17.1	0.00e+00	0	43	0	614465536	11	3993
2026-01-16 13:30:46.82	206.05	16.17	-25.2	-26.0	17.1	0.00e+00	0	42	0	619708416	11	3978
2026-01-16 13:30:47.82	206.17	16.26	-25.2	-26.1	17.1	0.00e+00	0	43	0	625999872	11	3997
2026-01-16 13:30:48.83	206.30	16.36	-25.0	-25.7	17.3	0.00e+00	0	42	0	631242752	11	3888
2026-01-16 13:30:49.84	206.43	16.45	-25.1	-25.9	17.2	0.00e+00	0	42	0	636485632	11	3946
2026-01-16 13:30:50.84	206.55	16.54	-25.1	-25.8	17.3	0.00e+00	0	43	0	642777088	11	3929
2026-01-16 13:30:51.85	206.68	16.64	-24.9	-25.4	17.4	0.00e+00	0	42	0	648019968	11	3835
2026-01-16 13:30:52.84	206.81	16.73	-24.9	-25.4	17.5	5.70e-06	0	43	0	653262848	11	3822
2026-01-16 13:30:53.84	206.93	16.83	-24.9	-25.5	17.4	0.00e+00	0	42	0	659554304	11	3847
2026-01-16 13:30:54.83	207.06	16.92	-24.9	-25.5	17.4	0.00e+00	0	43	0	664797184	11	3860
2026-01-16 13:30:55.83	207.19	17.02	-25.0	-25.7	17.4	4.50e-06	0	43	0	670040064	11	3888
2026-01-16 13:30:56.83	207.32	17.12	-25.1	-25.9	17.2	0.00e+00	0	43	0	676331520	11	3947
2026-01-16 13:30:57.83	207.45	17.21	-25.1	-25.9	17.2	0.00e+00	0	42	0	681574400	11	3952
2026-01-16 13:30:58.84	207.59	17.31	-25.3	-26.4	17.0	0.00e+00	0	43	0	687865856	11	4059
2026-01-16 13:30:59.83	207.72	17.40	-25.2	-26.1	17.1	0.00e+00	0	43	0	693108736	11	3994
2026-01-16 13:31:00.83	207.85	17.50	-25.1	-25.9	17.2	0.00e+00	0	43	0	698351616	11	3954
2026-01-16 13:31:01.83	207.99	17.60	-25.1	-25.9	17.3	0.00e+00	0	43	0	704643072	11	3932
2026-01-16 13:31:02.83	208.12	17.69	-25.1	-25.8	17.3	0.00e+00	0	43	0	709885952	11	3923
2026-01-16 13:31:03.83	208.26	17.79	-25.2	-26.1	17.2	0.00e+00	0	43	0	715128832	11	3978
2026-01-16 13:31:04.84	208.40	17.89	-25.0	-25.8	17.4	1.10e-06	0	43	0	721420288	11	3907
2026-01-16 13:31:05.85	208.54	17.99	-25.0	-25.7	17.4	0.00e+00	0	42	0	726663168	11	3881
2026-01-16 13:31:06.85	208.68	18.09	-24.9	-25.5	17.5	0.00e+00	0	43	0	731906048	11	3838
2026-01-16 13:31:07.85	208.82	18.19	-25.0	-25.7	17.4	2.20e-06	0	43	0	738197504	11	3900
2026-01-16 13:31:08.86	208.96	18.29	-24.8	-25.2	17.6	0.00e+00	0	43	0	743440384	11	3777
2026-01-16 13:31:09.86	209.10	18.39	-24.6	-25.3	17.9	0.00e+00	0	43	0	749731840	10	3907
2026-01-16 13:31:10.87	209.25	18.49	-24.6	-25.4	17.8	5.70e-06	0	43	0	754974720	10	3918
2026-01-16 13:31:11.86	209.39	18.58	-24.5	-25.1	18.0	0.00e+00	0	43	0	760217600	10	3850
2026-01-16 13:31:12.87	209.53	18.68	-24.6	-25.3	17.9	0.00e+00	0	42	0	766509056	10	3894
2026-01-16 13:31:13.87	209.68	18.78	-24.6	-25.2	17.9	0.00e+00	0	43	0	771751936	10	3886
2026-01-16 13:31:14.88	209.83	18.88	-24.5	-25.1	18.0	0.00e+00	0	43	0	778043392	10	3845
2026-01-16 13:31:15.88	209.97	18.99	-24.5	-25.2	18.0	0.00e+00	0	43	0	783286272	10	3864
2026-01-16 13:31:16.89	210.12	19.09	-24.4	-25.0	18.1	0.00e+00	0	42	0	788529152	10	3825
2026-01-16 13:31:17.89	210.27	19.19	-24.5	-25.2	18.0	0.00e+00	0	43	0	794820608	10	3869
2026-01-16 13:31:18.89	210.42	19.29	-24.4	-24.9	18.1	0.00e+00	0	42	0	800063488	10	3823
2026-01-16 13:31:19.90	210.58	19.39	-24.5	-25.0	18.0	4.50e-06	0	43	0	806354944	10	3841
2026-01-16 13:31:20.90	210.73	19.49	-24.4	-25.0	18.1	0.00e+00	0	43	0	811597824	10	3825
2026-01-16 13:31:21.90	210.88	19.59	-24.6	-25.3	17.9	0.00e+00	0	43	0	816840704	10	3892
2026-01-16 13:31:22.90	211.04	19.69	-24.4	-24.8	18.2	0.00e+00	0	43	0	823132160	10	3788
2026-01-16 13:31:23.90	211.19	19.80	-24.2	-25.0	18.3	0.00e+00	0	43	0	828375040	9	3946
2026-01-16 13:31:24.91	211.35	19.90	-24.2	-25.0	18.3	0.00e+00	0	43	0	833617920	9	3929
2026-01-16 13:31:25.91	211.51	20.00	-24.3	-25.1	18.3	0.00e+00	0	43	0	839909376	9	3964
2026-01-16 13:31:26.92	211.67	20.11	-24.2	-25.0	18.3	0.00e+00	0	43	0	845152256	9	3935
2026-01-16 13:31:27.91	211.82	20.21	-24.3	-25.2	18.3	0.00e+00	0	43	0	850395136	9	3974
2026-01-16 13:31:28.92	211.98	20.31	-24.3	-25.2	18.2	0.00e+00	0	43	0	856686592	9	3977
2026-01-16 13:31:29.92	212.15	20.42	-24.4	-25.4	18.1	0.00e+00	0	43	0	861929472	9	4042
2026-01-16 13:31:30.92	212.31	20.52	-24.3	-25.2	18.2	0.00e+00	0	43	0	868220928	9	3991
2026-01-16 13:31:31.93	212.47	20.62	-24.4	-25.4	18.2	0.00e+00	0	43	0	873463808	9	4028
2026-01-16 13:31:32.92	212.64	20.73	-24.5	-25.6	18.1	0.00e+00	0	43	0	879755264	9	4083
2026-01-16 13:31:33.92	212.80	20.83	-24.5	-25.5	18.1	0.00e+00	0	43	0	884998144	9	4064
2026-01-16 13:31:34.92	212.97	20.93	-24.5	-25.6	18.0	0.00e+00	0	43	0	890241024	9	4095
2026-01-16 13:31:35.92	213.14	21.04	-24.4	-25.4	18.2	0.00e+00	0	43	0	895483904	9	4028
2026-01-16 13:31:36.92	213.31	21.14	-24.3	-25.2	18.3	0.00e+00	0	43	0	901775360	9	3982
2026-01-16 13:31:37.92	213.48	21.25	-24.4	-25.3	18.2	0.00e+00	0	43	0	907018240	9	4016
2026-01-16 13:31:38.92	213.65	21.35	-24.5	-25.5	18.1	0.00e+00	0	43	0	913309696	9	4060
2026-01-16 13:31:39.92	213.82	21.46	-24.2	-25.0	18.4	0.00e+00	0	43	0	918552576	9	3934
2026-01-16 13:31:40.92	213.99	21.56	-24.0	-24.5	18.6	0.00e+00	0	43	0	923795456	9	3805
2026-01-16 13:31:41.92	214.17	21.67	-23.8	-24.1	18.8	0.00e+00	0	43	0	930086912	9	3736
2026-01-16 13:31:42.91	214.34	21.77	-23.8	-24.7	18.8	0.00e+00	0	43	0	935329792	8	3966
2026-01-16 13:31:43.92	214.52	21.88	-23.7	-24.4	19.0	0.00e+00	0	43	0	941621248	8	3895
2026-01-16 13:31:44.92	214.70	21.99	-23.7	-24.4	19.0	0.00e+00	0	43	0	946864128	8	3889
2026-01-16 13:31:45.92	214.88	22.09	-23.8	-24.6	18.9	0.00e+00	0	43	0	952107008	8	3939
2026-01-16 13:31:46.92	215.06	22.20	-23.8	-24.5	18.9	0.00e+00	0	43	0	958398464	8	3927
2026-01-16 13:31:47.92	215.24	22.31	-23.7	-24.4	19.0	0.00e+00	0	43	0	963641344	8	3896
2026-01-16 13:31:48.92	215.42	22.41	-23.8	-24.7	18.8	0.00e+00	0	43	0	968884224	8	3976
2026-01-16 13:31:49.92	215.61	22.52	-23.7	-24.5	18.9	0.00e+00	0	43	0	975175680	8	3919
2026-01-16 13:31:50.93	215.79	22.63	-23.8	-24.6	18.9	0.00e+00	0	43	0	980418560	8	3946
2026-01-16 13:31:51.93	215.98	22.73	-23.9	-24.8	18.8	0.00e+00	0	43	0	985661440	8	3995
2026-01-16 13:31:52.93	216.17	22.84	-23.8	-24.5	18.9	0.00e+00	0	43	0	991952896	8	3935
2026-01-16 13:31:53.94	216.36	22.95	-23.6	-24.2	19.1	0.00e+00	0	43	0	997195776	8	3850
2026-01-16 13:31:54.94	216.55	23.06	-23.6	-24.2	19.0	0.00e+00	0	43	0	1003487232	8	3861
2026-01-16 13:31:55.94	216.74	23.17	-23.6	-24.1	19.1	0.00e+00	0	43	0	1008730112	8	3832
2026-01-16 13:31:56.95	216.93	23.27	-23.6	-24.2	19.1	0.00e+00	0	43	0	1013972992	8	3851
2026-01-16 13:31:57.94	217.13	23.38	-23.7	-24.3	19.0	0.00e+00	0	43	0	1020264448	8	3876
2026-01-16 13:31:58.95	217.32	23.49	-23.8	-24.6	18.9	0.00e+00	0	43	0	1025507328	8	3957
2026-01-16 13:31:59.95	217.52	23.60	-23.7	-24.5	18.9	0.00e+00	0	43	0	1030750208	8	3923
2026-01-16 13:32:00.95	217.72	23.71	-23.8	-24.5	18.9	0.00e+00	0	43	0	1037041664	8	3921
2026-01-16 13:32:01.95	217.92	23.82	-23.7	-24.4	19.0	0.00e+00	0	43	0	1042284544	8	3895
2026-01-16 13:32:02.96	218.12	23.92	-23.8	-24.5	18.9	0.00e+00	0	43	0	1047527424	8	3926
2026-01-16 13:32:03.96	218.32	24.03	-23.6	-24.2	19.1	0.00e+00	0	43	0	1053818880	8	3857
2026-01-16 13:32:04.96	218.53	24.14	-23.6	-24.2	19.1	0.00e+00	0	43	0	1059061760	8	3849
2026-01-16 13:32:05.96	218.73	24.25	-23.6	-24.2	19.1	0.00e+00	0	43	0	1065353216	8	3850
2026-01-16 13:32:06.97	218.94	24.36	-24.0	-24.9	18.7	0.00e+00	0	43	0	1070596096	8	4019
2026-01-16 13:32:07.97	219.15	24.47	-23.7	-24.4	19.0	0.00e+00	0	43	0	1075838976	8	3893
2026-01-16 13:32:08.97	219.36	24.58	-23.5	-24.0	19.2	0.00e+00	0	43	0	1082130432	8	3805
2026-01-16 13:32:09.97	219.57	24.69	-23.5	-23.9	19.2	0.00e+00	0	43	0	1087373312	8	3784
2026-01-16 13:32:10.98	219.78	24.80	-23.5	-23.9	19.3	0.00e+00	0	43	0	1093664768	8	3787
2026-01-16 13:32:11.98	220.00	24.91	-23.3	-23.6	19.4	0.00e+00	0	43	0	1098907648	8	3713
2026-01-16 13:32:12.97	220.21	25.01	-23.2	-23.8	19.5	0.00e+00	0	43	0	1104150528	7	3872
2026-01-16 13:32:13.98	220.43	25.12	-23.2	-23.8	19.5	0.00e+00	0	43	0	1110441984	7	3872
2026-01-16 13:32:14.98	220.65	25.23	-23.3	-24.1	19.4	0.00e+00	0	43	0	1115684864	7	3946
2026-01-16 13:32:15.99	220.87	25.34	-23.2	-23.8	19.6	1.10e-06	0	43	0	1120927744	7	3863
2026-01-16 13:32:16.99	221.09	25.45	-23.2	-23.9	19.5	0.00e+00	0	43	0	1127219200	7	3879
2026-01-16 13:32:17.99	221.31	25.56	-23.2	-23.8	19.6	0.00e+00	0	43	0	1132462080	7	3858
2026-01-16 13:32:18.99	221.54	25.67	-23.2	-23.8	19.6	0.00e+00	0	43	0	1138753536	7	3856
2026-01-16 13:32:20.00	221.76	25.78	-23.3	-24.1	19.4	0.00e+00	0	43	0	1143996416	7	3926
2026-01-16 13:32:21.00	221.99	25.89	-23.2	-23.9	19.5	0.00e+00	0	43	0	1149239296	7	3893
2026-01-16 13:32:22.00	222.22	26.00	-23.3	-24.1	19.5	0.00e+00	0	43	0	1155530752	7	3931
2026-01-16 13:32:23.00	222.45	26.11	-23.4	-24.2	19.4	0.00e+00	0	43	0	1160773632	7	3955
2026-01-16 13:32:24.00	222.68	26.22	-23.4	-24.3	19.3	0.00e+00	0	43	0	1166016512	7	3982
2026-01-16 13:32:24.99	222.91	26.33	-23.6	-24.6	19.2	0.00e+00	0	43	0	1172307968	7	4058
2026-01-16 13:32:26.00	223.15	26.44	-23.4	-24.2	19.4	0.00e+00	0	43	0	1177550848	7	3953
2026-01-16 13:32:27.00	223.39	26.55	-23.2	-23.9	19.5	0.00e+00	0	43	0	1182793728	7	3900
2026-01-16 13:32:28.00	223.62	26.65	-23.3	-24.1	19.5	0.00e+00	0	43	0	1189085184	7	3927
2026-01-16 13:32:29.01	223.86	26.76	-23.3	-24.0	19.5	0.00e+00	0	43	0	1194328064	7	3923
2026-01-16 13:32:30.00	224.10	26.87	-23.3	-24.1	19.4	0.00e+00	0	43	0	1200619520	7	3938
2026-01-16 13:32:31.01	224.35	26.98	-23.4	-24.2	19.4	0.00e+00	0	43	0	1205862400	7	3970
2026-01-16 13:32:32.01	224.59	27.09	-23.2	-23.9	19.5	0.00e+00	0	43	0	1211105280	7	3901
2026-01-16 13:32:33.01	224.84	27.20	-23.2	-23.8	19.6	0.00e+00	0	43	0	1217396736	7	3876
2026-01-16 13:32:34.02	225.09	27.31	-23.2	-23.9	19.5	0.00e+00	0	43	0	1222639616	7	3890
2026-01-16 13:32:35.01	225.34	27.41	-23.1	-23.6	19.7	0.00e+00	0	43	0	1227882496	7	3811
2026-01-16 13:32:36.01	225.59	27.52	-23.0	-23.4	19.8	0.00e+00	0	43	0	1234173952	7	3776
2026-01-16 13:32:37.01	225.84	27.63	-23.1	-23.5	19.8	0.00e+00	0	43	0	1239416832	7	3800
2026-01-16 13:32:38.01	226.09	27.74	-22.9	-23.3	19.9	0.00e+00	0	43	0	1244659712	7	3740
2026-01-16 13:32:39.01	226.35	27.85	-22.9	-23.3	19.9	0.00e+00	0	43	0	1250951168	7	3755
2026-01-16 13:32:40.01	226.61	27.95	-23.0	-23.4	19.8	0.00e+00	0	43	0	1256194048	7	3780
2026-01-16 13:32:41.00	226.86	28.06	-23.1	-23.6	19.7	0.00e+00	0	43	0	1262485504	7	3822
2026-01-16 13:32:42.01	227.13	28.17	-23.0	-23.4	19.8	0.00e+00	0	43	0	1267728384	7	3772
2026-01-16 13:32:43.01	227.39	28.27	-22.8	-23.0	20.0	0.00e+00	0	43	0	1272971264	7	3683
2026-01-16 13:32:44.00	227.65	28.38	-22.8	-23.4	20.1	0.00e+00	0	43	0	1279262720	6	3880
2026-01-16 13:32:45.01	227.92	28.49	-22.5	-22.8	20.4	0.00e+00	0	43	0	1284505600	6	3743
2026-01-16 13:32:46.01	228.19	28.59	-22.6	-23.0	20.3	0.00e+00	0	43	0	1289748480	6	3774
2026-01-16 13:32:47.02	228.46	28.70	-22.8	-23.5	20.0	0.00e+00	0	43	0	1296039936	6	3908
2026-01-16 13:32:48.02	228.73	28.80	-22.8	-23.6	20.0	0.00e+00	0	43	0	1301282816	6	3921
2026-01-16 13:32:49.02	229.01	28.91	-23.0	-23.9	19.8	0.00e+00	0	43	0	1306525696	6	3993
2026-01-16 13:32:50.02	229.28	29.01	-22.9	-23.7	19.9	0.00e+00	0	43	0	1312817152	6	3949
2026-01-16 13:32:51.02	229.56	29.12	-22.9	-23.8	19.9	0.00e+00	0	43	0	1318060032	6	3965
2026-01-16 13:32:52.02	229.84	29.22	-22.8	-23.5	20.0	0.00e+00	0	43	0	1324351488	6	3907
2026-01-16 13:32:53.02	230.12	29.32	-22.9	-23.8	19.9	0.00e+00	0	43	0	1329594368	6	3966
2026-01-16 13:32:54.02	230.40	29.43	-22.8	-23.5	20.1	0.00e+00	0	43	0	1335885824	6	3899
2026-01-16 13:32:55.02	230.68	29.53	-22.9	-23.6	20.0	0.00e+00	0	43	0	1341128704	6	3934
2026-01-16 13:32:56.02	230.97	29.63	-22.7	-23.3	20.1	0.00e+00	0	43	0	1346371584	6	3862
2026-01-16 13:32:57.03	231.26	29.74	-22.7	-23.4	20.1	0.00e+00	0	43	0	1352663040	6	3865
2026-01-16 13:32:58.03	231.55	29.84	-22.8	-23.4	20.1	0.00e+00	0	43	0	1357905920	6	3881
2026-01-16 13:32:59.04	231.84	29.94	-22.6	-23.0	20.3	0.00e+00	0	43	0	1363148800	6	3783
2026-01-16 13:33:00.04	232.13	30.04	-22.9	-23.7	20.0	0.00e+00	0	43	0	1369440256	6	3945
2026-01-16 13:33:01.04	232.43	30.14	-22.8	-23.4	20.1	0.00e+00	0	43	0	1374683136	6	3875
2026-01-16 13:33:02.04	232.72	30.24	-23.1	-24.1	19.8	0.00e+00	0	43	0	1379926016	6	4048
2026-01-16 13:33:03.05	233.02	30.34	-22.9	-23.8	19.9	0.00e+00	0	43	0	1386217472	6	3976
2026-01-16 13:33:04.05	233.32	30.44	-22.7	-23.3	20.1	0.00e+00	0	43	0	1391460352	6	3858
2026-01-16 13:33:05.04	233.62	30.54	-22.6	-23.1	20.2	0.00e+00	0	43	0	1397751808	6	3809
2026-01-16 13:33:06.05	233.93	30.64	-22.7	-23.3	20.1	0.00e+00	0	43	0	1402994688	6	3853
2026-01-16 13:33:07.05	234.23	30.74	-22.5	-22.9	20.3	0.00e+00	0	43	0	1408237568	6	3772
2026-01-16 13:33:08.05	234.54	30.83	-22.6	-23.0	20.3	0.00e+00	0	43	0	1414529024	6	3786
2026-01-16 13:33:09.05	234.85	30.93	-22.6	-23.1	20.3	0.00e+00	0	43	0	1419771904	6	3809
2026-01-16 13:33:10.06	235.16	31.03	-22.7	-23.3	20.1	0.00e+00	0	43	0	1425014784	6	3860
2026-01-16 13:33:11.06	235.48	31.12	-22.8	-23.5	20.1	0.00e+00	0	43	0	1431306240	6	3901
2026-01-16 13:33:12.07	235.79	31.22	-22.9	-23.6	20.0	0.00e+00	0	43	0	1436549120	6	3931
2026-01-16 13:33:13.07	236.11	31.31	-22.9	-23.6	20.0	0.00e+00	0	43	0	1442840576	6	3930
2026-01-16 13:33:14.08	236.43	31.40	-22.7	-23.2	20.2	0.00e+00	0	43	0	1448083456	6	3830
2026-01-16 13:33:15.08	236.75	31.50	-22.7	-23.2	20.2	0.00e+00	0	43	0	1453326336	6	3830
2026-01-16 13:33:16.08	237.07	31.59	-22.8	-23.5	20.1	0.00e+00	0	43	0	1459617792	6	3898
2026-01-16 13:33:17.08	237.40	31.68	-22.8	-23.6	20.0	0.00e+00	0	43	0	1464860672	6	3918
2026-01-16 13:33:18.08	237.72	31.77	-23.1	-24.2	19.7	0.00e+00	0	43	0	1471152128	6	4068
2026-01-16 13:33:19.09	238.05	31.86	-22.9	-23.8	19.9	0.00e+00	0	43	0	1476395008	6	3965
2026-01-16 13:33:20.10	238.38	31.95	-23.0	-23.8	19.9	0.00e+00	0	43	0	1481637888	6	3970
2026-01-16 13:33:21.11	238.72	32.04	-23.0	-23.8	19.9	0.00e+00	0	43	0	1487929344	6	3973
2026-01-16 13:33:22.11	239.05	32.13	-22.6	-23.1	20.3	0.00e+00	0	43	0	1493172224	6	3808
2026-01-16 13:33:23.12	239.39	32.21	-22.6	-23.0	20.3	0.00e+00	0	43	0	1498415104	6	3791
2026-01-16 13:33:24.12	239.72	32.30	-22.7	-23.3	20.2	0.00e+00	0	43	0	1504706560	6	3844
2026-01-16 13:33:25.11	240.06	32.38	-22.8	-23.4	20.1	0.00e+00	0	43	0	1509949440	6	3886
2026-01-16 13:33:26.12	240.40	32.47	-22.9	-23.7	20.0	0.00e+00	0	43	0	1516240896	6	3958
2026-01-16 13:33:27.12	240.74	32.55	-23.0	-23.9	19.9	0.00e+00	0	43	0	1521483776	6	3996
2026-01-16 13:33:28.11	241.08	32.63	-22.7	-23.2	20.2	0.00e+00	0	43	0	1526726656	6	3830
2026-01-16 13:33:29.11	241.42	32.71	-22.5	-22.8	20.4	0.00e+00	0	43	0	1533018112	6	3748
2026-01-16 13:33:30.11	241.77	32.80	-22.6	-23.0	20.3	0.00e+00	0	43	0	1538260992	6	3791
2026-01-16 13:33:31.11	242.12	32.87	-22.7	-23.2	20.2	0.00e+00	0	43	0	1543503872	6	3827
2026-01-16 13:33:32.11	242.47	32.95	-22.8	-23.5	20.1	0.00e+00	0	43	0	1549795328	6	3903
2026-01-16 13:33:33.12	242.82	33.03	-22.8	-23.5	20.1	1.10e-06	0	43	0	1555038208	6	3906
2026-01-16 13:33:34.12	243.17	33.11	-22.7	-23.4	20.2	0.00e+00	0	43	0	1561329664	6	3870
2026-01-16 13:33:35.13	243.53	33.19	-22.9	-23.6	20.0	0.00e+00	0	43	0	1566572544	6	3924
2026-01-16 13:33:36.13	243.89	33.26	-23.0	-23.9	19.9	2.20e-06	0	43	0	1571815424	6	4000
2026-01-16 13:33:37.13	244.24	33.33	-22.7	-23.2	20.2	0.00e+00	0	43	0	1578106880	6	3841
2026-01-16 13:33:38.14	244.61	33.41	-22.6	-23.1	20.3	0.00e+00	0	43	0	1583349760	6	3811
2026-01-16 13:33:39.14	244.97	33.48	-22.7	-23.2	20.2	4.50e-06	0	43	0	1589641216	6	3839
2026-01-16 13:33:40.15	245.33	33.55	-22.9	-23.6	20.0	0.00e+00	0	43	0	1594884096	6	3933
2026-01-16 13:33:41.15	245.70	33.62	-22.9	-23.7	20.0	0.00e+00	0	43	0	1600126976	6	3949
2026-01-16 13:33:42.14	246.06	33.69	-22.9	-23.7	20.0	2.20e-06	0	43	0	1606418432	6	3959
2026-01-16 13:33:43.15	246.43	33.75	-22.9	-23.8	20.0	0.00e+00	0	43	0	1611661312	6	3966
2026-01-16 13:33:44.14	246.79	33.82	-22.9	-23.6	20.0	0.00e+00	0	43	0	1616904192	6	3937
2026-01-16 13:33:45.14	247.16	33.88	-23.0	-23.9	19.9	1.10e-06	0	43	0	1623195648	6	4004
2026-01-16 13:33:46.15	247.54	33.95	-22.8	-23.4	20.2	0.00e+00	0	43	0	1628438528	6	3891
2026-01-16 13:33:47.15	247.91	34.01	-22.8	-23.5	20.1	0.00e+00	0	43	0	1633681408	6	3909
2026-01-16 13:33:48.14	248.28	34.07	-23.0	-24.0	19.9	2.20e-06	0	43	0	1639972864	6	4009
2026-01-16 13:33:49.15	248.66	34.13	-22.7	-23.4	20.2	0.00e+00	0	43	0	1645215744	6	3869
2026-01-16 13:33:50.14	249.03	34.19	-22.5	-22.8	20.4	0.00e+00	0	43	0	1651507200	6	3738
2026-01-16 13:33:51.15	249.41	34.25	-22.3	-22.4	20.6	0.00e+00	0	43	0	1656750080	6	3648
2026-01-16 13:33:52.16	249.80	34.31	-22.3	-22.9	20.6	0.00e+00	0	43	0	1661992960	5	3876
2026-01-16 13:33:53.17	250.18	34.36	-22.4	-23.1	20.5	0.00e+00	0	43	0	1668284416	5	3915
2026-01-16 13:33:54.17	250.56	34.41	-22.6	-23.5	20.4	0.00e+00	0	43	0	1673527296	5	4007
2026-01-16 13:33:55.17	250.95	34.47	-22.6	-23.5	20.3	0.00e+00	0	43	0	1679818752	5	4015
2026-01-16 13:33:56.18	251.33	34.52	-22.5	-23.5	20.3	0.00e+00	0	43	0	1685061632	5	4004
2026-01-16 13:33:57.18	251.72	34.57	-22.4	-23.1	20.5	1.10e-06	0	43	0	1690304512	5	3908
2026-01-16 13:33:58.18	252.10	34.62	-22.3	-23.0	20.6	0.00e+00	0	43	0	1696595968	5	3896
2026-01-16 13:33:59.18	252.49	34.66	-22.4	-23.2	20.5	0.00e+00	0	43	0	1701838848	5	3947
2026-01-16 13:34:00.19	252.88	34.71	-22.4	-23.2	20.5	0.00e+00	0	43	0	1707081728	5	3946
2026-01-16 13:34:01.18	253.27	34.75	-22.6	-23.5	20.3	0.00e+00	0	43	0	1713373184	5	4009
2026-01-16 13:34:02.18	253.66	34.80	-22.5	-23.4	20.4	0.00e+00	0	43	0	1718616064	5	3980
2026-01-16 13:34:03.18	254.05	34.84	-22.6	-23.6	20.3	0.00e+00	0	43	0	1724907520	5	4034
2026-01-16 13:34:04.18	254.45	34.88	-22.7	-23.7	20.2	0.00e+00	0	43	0	1730150400	5	4072
2026-01-16 13:34:05.18	254.84	34.92	-22.8	-24.0	20.1	0.00e+00	0	43	0	1735393280	5	4133
2026-01-16 13:34:06.18	255.23	34.95	-22.7	-23.7	20.2	0.00e+00	0	43	0	1741684736	5	4056
2026-01-16 13:34:07.18	255.63	34.99	-22.5	-23.3	20.4	0.00e+00	0	43	0	1746927616	5	3966
2026-01-16 13:34:08.18	256.03	35.02	-22.5	-23.3	20.4	0.00e+00	0	43	0	1752170496	5	3967
2026-01-16 13:34:09.18	256.42	35.06	-22.7	-23.7	20.2	0.00e+00	0	43	0	1758461952	5	4065
2026-01-16 13:34:10.18	256.82	35.09	-22.6	-23.5	20.3	0.00e+00	0	43	0	1763704832	5	4023
2026-01-16 13:34:11.18	257.22	35.12	-22.5	-23.5	20.3	0.00e+00	0	43	0	1768947712	5	4004
2026-01-16 13:34:12.19	257.62	35.14	-22.4	-23.3	20.5	0.00e+00	0	43	0	1775239168	5	3953
2026-01-16 13:34:13.19	258.02	35.17	-22.5	-23.3	20.5	0.00e+00	0	43	0	1780482048	5	3959
2026-01-16 13:34:14.19	258.42	35.20	-22.5	-23.3	20.4	0.00e+00	0	43	0	1786773504	5	3960
2026-01-16 13:34:15.19	258.82	35.22	-22.6	-23.5	20.3	0.00e+00	0	43	0	1792016384	5	4009
2026-01-16 13:34:16.19	259.22	35.24	-22.4	-23.2	20.5	0.00e+00	0	43	0	1797259264	5	3933
2026-01-16 13:34:17.19	259.63	35.26	-22.4	-23.2	20.5	0.00e+00	0	43	0	1803550720	5	3934
2026-01-16 13:34:18.20	260.03	35.28	-22.6	-23.5	20.3	0.00e+00	0	43	0	1808793600	5	4016
2026-01-16 13:34:19.20	260.44	35.30	-22.4	-23.2	20.5	0.00e+00	0	43	0	1814036480	5	3935
2026-01-16 13:34:20.20	260.84	35.32	-22.5	-23.3	20.5	0.00e+00	0	43	0	1820327936	5	3966
2026-01-16 13:34:21.20	261.24	35.33	-22.6	-23.5	20.3	0.00e+00	0	43	0	1825570816	5	4007
2026-01-16 13:34:22.20	261.65	35.34	-22.3	-23.0	20.6	0.00e+00	0	43	0	1830813696	5	3894
2026-01-16 13:34:23.20	262.05	35.35	-22.4	-23.1	20.6	0.00e+00	0	43	0	1837105152	5	3913
2026-01-16 13:34:24.20	262.46	35.36	-22.5	-23.4	20.4	0.00e+00	0	43	0	1842348032	5	3997
2026-01-16 13:34:25.21	262.86	35.37	-22.6	-23.6	20.3	0.00e+00	0	43	0	1848639488	5	4026
2026-01-16 13:34:26.21	263.27	35.38	-22.6	-23.5	20.3	0.00e+00	0	43	0	1853882368	5	4011
2026-01-16 13:34:27.21	263.67	35.38	-22.4	-23.1	20.6	0.00e+00	0	43	0	1859125248	5	3922
2026-01-16 13:34:28.20	264.08	35.39	-22.4	-23.1	20.6	0.00e+00	0	43	0	1865416704	5	3905
2026-01-16 13:34:29.21	264.48	35.39	-22.6	-23.6	20.3	0.00e+00	0	43	0	1870659584	5	4026
2026-01-16 13:34:30.21	264.89	35.39	-22.7	-23.8	20.2	0.00e+00	0	43	0	1875902464	5	4082
2026-01-16 13:34:31.22	265.30	35.39	-22.8	-24.0	20.1	0.00e+00	0	43	0	1882193920	5	4142
2026-01-16 13:34:32.21	265.70	35.39	-22.9	-24.2	20.0	0.00e+00	0	43	0	1887436800	5	4173
2026-01-16 13:34:33.22	266.11	35.38	-22.8	-23.9	20.1	0.00e+00	0	43	0	1892679680	5	4106
2026-01-16 13:34:34.21	266.51	35.38	-22.8	-24.0	20.1	0.00e+00	0	43	0	1898971136	5	4125
2026-01-16 13:34:35.22	266.92	35.37	-22.7	-23.9	20.2	0.00e+00	0	43	0	1904214016	5	4100
2026-01-16 13:34:36.23	267.33	35.36	-22.7	-23.9	20.2	0.00e+00	0	43	0	1910505472	5	4102
2026-01-16 13:34:37.22	267.73	35.35	-22.6	-23.6	20.3	0.00e+00	0	43	0	1915748352	5	4023
2026-01-16 13:34:38.22	268.13	35.34	-22.8	-23.9	20.2	0.00e+00	0	43	0	1922039808	5	4098
2026-01-16 13:34:39.22	268.54	35.32	-22.6	-23.6	20.3	0.00e+00	0	43	0	1927282688	5	4035
2026-01-16 13:34:40.22	268.94	35.31	-22.6	-23.5	20.3	0.00e+00	0	43	0	1932525568	5	4011
2026-01-16 13:34:41.23	269.35	35.29	-22.5	-23.5	20.4	1.10e-06	0	43	0	1938817024	5	4001
2026-01-16 13:34:42.22	269.74	35.27	-22.5	-23.4	20.4	0.00e+00	0	43	0	1944059904	5	3990
2026-01-16 13:34:43.22	270.15	35.25	-22.5	-23.4	20.4	0.00e+00	0	43	0	1949302784	5	3992
2026-01-16 13:34:44.22	270.55	35.23	-22.9	-24.1	20.0	0.00e+00	0	43	0	1955594240	5	4165
2026-01-16 13:34:45.23	270.95	35.21	-23.1	-24.1	19.8	0.00e+00	0	43	0	1960837120	6	4051
2026-01-16 13:34:46.23	271.35	35.18	-23.2	-24.4	19.6	0.00e+00	0	43	0	1966080000	6	4128
2026-01-16 13:34:47.23	271.75	35.16	-23.3	-24.4	19.6	0.00e+00	0	43	0	1972371456	6	4130
2026-01-16 13:34:48.23	272.15	35.13	-23.1	-24.1	19.8	0.00e+00	0	43	0	1977614336	6	4046
2026-01-16 13:34:49.23	272.55	35.10	-23.1	-24.2	19.8	0.00e+00	0	43	0	1983905792	6	4063
2026-01-16 13:34:50.24	272.95	35.07	-23.3	-24.5	19.6	1.10e-06	0	43	0	1989148672	6	4146
2026-01-16 13:34:51.24	273.35	35.04	-23.3	-24.6	19.6	0.00e+00	0	43	0	1994391552	6	4160
2026-01-16 13:34:52.24	273.74	35.00	-23.6	-24.7	19.3	0.00e+00	0	43	0	2000683008	7	4067
2026-01-16 13:34:53.24	274.14	34.97	-23.1	-23.7	19.8	3.40e-06	0	43	0	2005925888	7	3829
2026-01-16 13:34:54.24	274.53	34.93	-22.6	-23.1	20.3	0.00e+00	0	43	0	2011168768	6	3814
2026-01-16 13:34:55.25	274.93	34.89	-22.3	-22.5	20.6	0.00e+00	0	43	0	2017460224	6	3673
2026-01-16 13:34:56.25	275.32	34.85	-22.4	-22.7	20.5	0.00e+00	0	43	0	2022703104	6	3709
2026-01-16 13:34:57.25	275.71	34.81	-22.6	-23.1	20.3	0.00e+00	0	43	0	2027945984	6	3811
2026-01-16 13:34:58.25	276.11	34.77	-22.7	-23.4	20.2	0.00e+00	0	43	0	2034237440	6	3871
2026-01-16 13:34:59.24	276.49	34.73	-22.8	-23.5	20.1	0.00e+00	0	43	0	2039480320	6	3911
2026-01-16 13:35:00.24	276.88	34.68	-22.6	-23.0	20.4	0.00e+00	0	43	0	2045771776	6	3784
2026-01-16 13:35:01.24	277.27	34.64	-22.5	-23.0	20.4	0.00e+00	0	43	0	2051014656	6	3773
2026-01-16 13:35:02.24	277.65	34.59	-22.6	-23.0	20.3	0.00e+00	0	43	0	2056257536	6	3792
2026-01-16 13:35:03.25	278.04	34.54	-22.6	-23.0	20.4	0.00e+00	0	43	0	2062548992	6	3779
2026-01-16 13:35:04.25	278.43	34.49	-22.7	-23.2	20.3	0.00e+00	0	43	0	2067791872	6	3830
2026-01-16 13:35:05.25	278.81	34.44	-22.7	-23.3	20.2	0.00e+00	0	43	0	2073034752	6	3866
2026-01-16 13:35:06.25	279.19	34.38	-22.7	-23.3	20.2	0.00e+00	0	43	0	2079326208	6	3855
2026-01-16 13:35:07.25	279.57	34.33	-22.6	-23.1	20.3	0.00e+00	0	43	0	2084569088	6	3809
2026-01-16 13:35:08.24	279.95	34.28	-22.8	-23.6	20.1	0.00e+00	0	43	0	2089811968	6	3916
2026-01-16 13:35:09.24	280.32	34.22	-23.0	-24.0	19.9	0.00e+00	0	43	0	2096103424	6	4008
2026-01-16 13:35:10.23	280.70	34.16	-23.2	-24.3	19.7	0.00e+00	0	43	0	2101346304	6	4094
2026-01-16 13:35:11.24	281.08	34.10	-22.9	-23.8	20.0	0.00e+00	0	43	0	2107637760	6	3974
2026-01-16 13:35:12.24	281.45	34.04	-22.8	-23.5	20.2	0.00e+00	0	43	0	2112880640	6	3893
2026-01-16 13:35:13.24	281.82	33.98	-22.8	-23.5	20.1	0.00e+00	0	43	0	2118123520	6	3897
2026-01-16 13:35:14.25	282.20	33.92	-22.9	-23.8	20.0	0.00e+00	0	43	0	2124414976	6	3959
2026-01-16 13:35:15.25	282.57	33.85	-22.9	-23.7	20.0	0.00e+00	0	43	0	2129657856	6	3944
2026-01-16 13:35:16.26	282.94	33.79	-23.0	-24.0	19.9	0.00e+00	0	43	0	2134900736	6	4014
2026-01-16 13:35:17.26	283.30	33.72	-22.8	-23.5	20.1	0.00e+00	0	43	0	2141192192	6	3902
2026-01-16 13:35:18.26	283.67	33.65	-22.7	-23.3	20.3	0.00e+00	0	43	0	2146435072	6	3845
2026-01-16 13:35:19.26	284.03	33.58	-22.7	-23.3	20.2	0.00e+00	0	43	0	2152726528	6	3859
2026-01-16 13:35:20.26	284.39	33.51	-22.8	-23.5	20.2	0.00e+00	0	43	0	2157969408	6	3889
2026-01-16 13:35:21.25	284.75	33.44	-22.9	-23.7	20.1	0.00e+00	0	43	0	2163212288	6	3942
2026-01-16 13:35:22.25	285.11	33.37	-22.9	-23.6	20.1	0.00e+00	0	43	0	2169503744	6	3930
2026-01-16 13:35:23.24	285.46	33.30	-22.8	-23.4	20.2	0.00e+00	0	43	0	2174746624	6	3876
2026-01-16 13:35:24.24	285.82	33.23	-22.9	-23.7	20.1	0.00e+00	0	43	0	2179989504	6	3936
2026-01-16 13:35:25.23	286.17	33.15	-23.1	-24.1	19.9	0.00e+00	0	43	0	2186280960	6	4038
2026-01-16 13:35:26.23	286.52	33.08	-23.1	-24.2	19.8	0.00e+00	0	43	0	2191523840	6	4078
2026-01-16 13:35:27.23	286.87	33.00	-23.1	-24.2	19.8	0.00e+00	0	43	0	2196766720	6	4067
2026-01-16 13:35:28.23	287.22	32.92	-22.9	-23.6	20.1	0.00e+00	0	43	0	2203058176	6	3922
2026-01-16 13:35:29.23	287.57	32.84	-22.9	-23.7	20.0	0.00e+00	0	43	0	2208301056	6	3937
2026-01-16 13:35:30.24	287.92	32.76	-23.1	-24.1	19.8	0.00e+00	0	43	0	2213543936	6	4044
2026-01-16 13:35:31.24	288.26	32.68	-23.1	-24.2	19.8	0.00e+00	0	43	0	2219835392	6	4072
2026-01-16 13:35:32.24	288.61	32.60	-23.3	-24.5	19.6	0.00e+00	0	43	0	2225078272	6	4154
2026-01-16 13:35:33.24	288.95	32.52	-23.0	-24.0	19.9	0.00e+00	0	43	0	2231369728	6	4019
2026-01-16 13:35:34.25	289.29	32.43	-22.9	-23.7	20.0	0.00e+00	0	43	0	2236612608	6	3945
2026-01-16 13:35:35.25	289.63	32.35	-22.9	-23.7	20.0	0.00e+00	0	43	0	2241855488	6	3952
2026-01-16 13:35:36.26	289.97	32.26	-23.0	-23.8	20.0	0.00e+00	0	43	0	2248146944	6	3966
2026-01-16 13:35:37.25	290.30	32.18	-23.1	-24.2	19.8	0.00e+00	0	43	0	2253389824	6	4066
2026-01-16 13:35:38.25	290.63	32.09	-23.1	-24.1	19.8	0.00e+00	0	43	0	2258632704	6	4044
2026-01-16 13:35:39.25	290.96	32.00	-23.2	-24.3	19.8	0.00e+00	0	43	0	2264924160	6	4081
2026-01-16 13:35:40.25	291.29	31.92	-23.1	-24.0	19.9	0.00e+00	0	43	0	2270167040	6	4030
2026-01-16 13:35:41.25	291.62	31.83	-23.1	-24.0	19.9	0.00e+00	0	43	0	2276458496	6	4023
2026-01-16 13:35:42.25	291.94	31.74	-23.1	-24.1	19.8	0.00e+00	0	43	0	2281701376	6	4055
2026-01-16 13:35:43.25	292.26	31.65	-23.2	-24.3	19.7	0.00e+00	0	43	0	2286944256	6	4094
2026-01-16 13:35:44.25	292.58	31.56	-23.2	-24.3	19.8	0.00e+00	0	43	0	2293235712	6	4084
2026-01-16 13:35:45.25	292.90	31.46	-23.3	-24.5	19.6	0.00e+00	0	43	0	2298478592	6	4136
2026-01-16 13:35:46.26	293.23	31.37	-23.4	-24.8	19.5	0.00e+00	0	43	0	2303721472	6	4215
2026-01-16 13:35:47.27	293.55	31.28	-23.2	-24.4	19.7	0.00e+00	0	43	0	2310012928	6	4107
2026-01-16 13:35:48.27	293.86	31.18	-23.1	-24.1	19.9	0.00e+00	0	43	0	2315255808	6	4026
2026-01-16 13:35:49.27	294.17	31.09	-23.1	-24.1	19.8	0.00e+00	0	43	0	2321547264	6	4041
2026-01-16 13:35:50.28	294.49	30.99	-23.2	-24.4	19.7	0.00e+00	0	43	0	2326790144	6	4111
2026-01-16 13:35:51.28	294.79	30.90	-23.2	-24.2	19.8	0.00e+00	0	43	0	2332033024	6	4072
2026-01-16 13:35:52.28	295.10	30.80	-23.3	-24.5	19.7	0.00e+00	0	43	0	2338324480	6	4132
2026-01-16 13:35:53.28	295.41	30.70	-23.3	-24.5	19.6	0.00e+00	0	43	0	2343567360	6	4147
2026-01-16 13:35:54.28	295.71	30.61	-23.3	-24.5	19.7	0.00e+00	0	43	0	2349858816	6	4135
2026-01-16 13:35:55.28	296.01	30.51	-23.2	-24.3	19.8	0.00e+00	0	43	0	2355101696	6	4080
2026-01-16 13:35:56.29	296.32	30.41	-23.0	-23.8	19.9	0.00e+00	0	43	0	2360344576	6	3975
2026-01-16 13:35:57.29	296.61	30.31	-23.1	-24.0	19.9	0.00e+00	0	43	0	2366636032	6	4014
2026-01-16 13:35:58.29	296.91	30.21	-23.3	-24.4	19.7	0.00e+00	0	43	0	2371878912	6	4123
2026-01-16 13:35:59.29	297.20	30.11	-23.4	-24.7	19.6	0.00e+00	0	43	0	2377121792	6	4180
2026-01-16 13:36:00.29	297.50	30.01	-23.6	-24.6	19.4	0.00e+00	0	43	0	2383413248	7	4054
2026-01-16 13:36:01.30	297.79	29.91	-23.2	-23.9	19.7	0.00e+00	0	43	0	2388656128	7	3883
2026-01-16 13:36:02.31	298.08	29.81	-23.0	-23.3	20.0	0.00e+00	0	43	0	2394947584	7	3753
2026-01-16 13:36:03.31	298.37	29.71	-22.9	-23.2	20.0	0.00e+00	0	43	0	2400190464	7	3725
2026-01-16 13:36:04.31	298.66	29.61	-23.0	-23.4	19.9	0.00e+00	0	43	0	2405433344	7	3755
2026-01-16 13:36:05.32	298.94	29.50	-23.0	-23.4	20.0	0.00e+00	0	43	0	2411724800	7	3766
2026-01-16 13:36:06.32	299.22	29.40	-23.1	-23.6	19.8	0.00e+00	0	43	0	2416967680	7	3828
2026-01-16 13:36:07.32	299.50	29.30	-23.2	-23.9	19.7	0.00e+00	0	43	0	2423259136	7	3888
2026-01-16 13:36:08.32	299.78	29.19	-23.2	-23.8	19.7	0.00e+00	0	43	0	2428502016	7	3875
2026-01-16 13:36:09.32	300.06	29.09	-23.2	-23.9	19.7	0.00e+00	0	43	0	2433744896	7	3880
2026-01-16 13:36:10.32	300.33	28.99	-23.2	-23.9	19.7	0.00e+00	0	43	0	2440036352	7	3877
2026-01-16 13:36:11.33	300.61	28.88	-23.0	-23.5	19.9	0.00e+00	0	43	0	2445279232	7	3784
2026-01-16 13:36:12.33	300.88	28.78	-23.1	-23.5	19.9	0.00e+00	0	43	0	2450522112	7	3787
2026-01-16 13:36:13.33	301.15	28.67	-23.1	-23.7	19.8	0.00e+00	0	43	0	2456813568	7	3832
2026-01-16 13:36:14.34	301.42	28.57	-23.2	-23.8	19.7	0.00e+00	0	43	0	2462056448	7	3867
2026-01-16 13:36:15.34	301.69	28.46	-23.3	-24.1	19.6	0.00e+00	0	43	0	2467299328	7	3935
2026-01-16 13:36:16.34	301.95	28.36	-23.4	-24.2	19.5	0.00e+00	0	43	0	2473590784	7	3950
2026-01-16 13:36:17.34	302.22	28.25	-23.4	-24.2	19.5	0.00e+00	0	43	0	2478833664	7	3948
2026-01-16 13:36:18.35	302.48	28.14	-23.3	-24.1	19.6	0.00e+00	0	43	0	2485125120	7	3928
2026-01-16 13:36:19.35	302.74	28.04	-23.5	-24.4	19.4	0.00e+00	0	43	0	2490368000	7	3997
2026-01-16 13:36:20.35	303.00	27.93	-23.4	-24.2	19.5	0.00e+00	0	43	0	2495610880	7	3954
2026-01-16 13:36:21.36	303.25	27.82	-23.5	-24.3	19.4	0.00e+00	0	43	0	2501902336	7	3990
2026-01-16 13:36:22.36	303.51	27.72	-23.6	-24.6	19.3	0.00e+00	0	43	0	2507145216	7	4064
2026-01-16 13:36:23.37	303.76	27.61	-23.5	-24.4	19.4	0.00e+00	0	43	0	2513436672	7	4013
2026-01-16 13:36:24.37	304.01	27.50	-23.5	-24.4	19.4	0.00e+00	0	43	0	2518679552	7	4006
2026-01-16 13:36:25.38	304.27	27.39	-23.5	-24.4	19.4	0.00e+00	0	43	0	2523922432	7	4010
2026-01-16 13:36:26.37	304.51	27.29	-23.7	-24.8	19.2	0.00e+00	0	43	0	2530213888	7	4096
2026-01-16 13:36:27.38	304.76	27.18	-23.6	-24.7	19.2	0.00e+00	0	43	0	2535456768	7	4081
2026-01-16 13:36:28.38	305.00	27.07	-23.6	-24.7	19.2	0.00e+00	0	43	0	2540699648	7	4088
2026-01-16 13:36:29.38	305.25	26.96	-23.7	-24.9	19.1	0.00e+00	0	43	0	2546991104	7	4118
2026-01-16 13:36:30.38	305.49	26.85	-23.5	-24.5	19.4	0.00e+00	0	43	0	2552233984	7	4019
2026-01-16 13:36:31.39	305.73	26.74	-23.4	-24.2	19.5	0.00e+00	0	43	0	2558525440	7	3954
2026-01-16 13:36:32.39	305.97	26.64	-23.3	-24.0	19.6	0.00e+00	0	43	0	2563768320	7	3919
2026-01-16 13:36:33.39	306.21	26.53	-23.3	-24.1	19.6	0.00e+00	0	43	0	2569011200	7	3932
2026-01-16 13:36:34.39	306.44	26.42	-23.3	-23.9	19.6	0.00e+00	0	43	0	2575302656	7	3894
2026-01-16 13:36:35.39	306.67	26.31	-23.4	-24.3	19.4	0.00e+00	0	43	0	2580545536	7	3990
2026-01-16 13:36:36.39	306.90	26.20	-23.7	-24.8	19.2	0.00e+00	0	43	0	2585788416	7	4104
2026-01-16 13:36:37.39	307.13	26.10	-23.7	-24.9	19.1	0.00e+00	0	43	0	2592079872	7	4131
2026-01-16 13:36:38.39	307.36	25.99	-23.9	-25.2	19.0	0.00e+00	0	43	0	2597322752	7	4218
2026-01-16 13:36:39.40	307.59	25.88	-23.8	-25.1	19.1	0.00e+00	0	43	0	2602565632	7	4172
2026-01-16 13:36:40.40	307.82	25.77	-23.8	-25.1	19.0	0.00e+00	0	43	0	2608857088	7	4183
2026-01-16 13:36:41.40	308.04	25.66	-23.8	-25.1	19.0	0.00e+00	0	43	0	2614099968	7	4178
2026-01-16 13:36:42.41	308.27	25.55	-23.7	-24.8	19.2	0.00e+00	0	43	0	2620391424	7	4106
2026-01-16 13:36:43.41	308.49	25.44	-23.7	-24.9	19.1	0.00e+00	0	43	0	2625634304	7	4123
2026-01-16 13:36:44.41	308.71	25.33	-23.8	-25.1	19.0	0.00e+00	0	43	0	2630877184	7	4174
2026-01-16 13:36:45.41	308.93	25.23	-23.8	-25.0	19.1	0.00e+00	0	43	0	2637168640	7	4160
2026-01-16 13:36:46.41	309.14	25.12	-23.8	-25.1	19.1	0.00e+00	0	43	0	2642411520	7	4169
2026-01-16 13:36:47.41	309.36	25.01	-23.8	-25.0	19.1	0.00e+00	0	43	0	2647654400	7	4165
2026-01-16 13:36:48.41	309.57	24.90	-23.6	-24.7	19.2	0.00e+00	0	43	0	2653945856	7	4077
2026-01-16 13:36:49.40	309.78	24.79	-23.6	-24.6	19.3	0.00e+00	0	43	0	2659188736	7	4056
2026-01-16 13:36:50.41	309.99	24.68	-23.6	-24.7	19.2	0.00e+00	0	43	0	2665480192	7	4080
2026-01-16 13:36:51.41	310.20	24.58	-23.8	-25.0	19.1	0.00e+00	0	43	0	2670723072	7	4149
2026-01-16 13:36:52.40	310.41	24.47	-23.6	-24.7	19.2	0.00e+00	0	43	0	2675965952	7	4076
2026-01-16 13:36:53.40	310.62	24.36	-23.5	-24.5	19.3	0.00e+00	0	43	0	2682257408	7	4041
2026-01-16 13:36:54.41	310.82	24.25	-23.6	-24.6	19.2	0.00e+00	0	43	0	2687500288	7	4062
2026-01-16 13:36:55.41	311.03	24.14	-23.7	-24.9	19.1	0.00e+00	0	43	0	2693791744	7	4118
2026-01-16 13:36:56.42	311.23	24.03	-23.7	-24.9	19.1	0.00e+00	0	43	0	2699034624	7	4133
2026-01-16 13:36:57.42	311.43	23.93	-23.6	-24.7	19.2	0.00e+00	0	43	0	2704277504	7	4074
2026-01-16 13:36:58.41	311.63	23.82	-23.7	-24.8	19.2	0.00e+00	0	43	0	2710568960	7	4101
2026-01-16 13:36:59.41	311.83	23.71	-23.7	-25.0	19.1	0.00e+00	0	43	0	2715811840	7	4144
2026-01-16 13:37:00.41	312.03	23.61	-23.8	-25.1	19.0	0.00e+00	0	43	0	2721054720	7	4177
2026-01-16 13:37:01.41	312.22	23.50	-23.9	-25.3	18.9	0.00e+00	0	43	0	2727346176	7	4243
2026-01-16 13:37:02.42	312.42	23.39	-24.1	-25.1	18.7	0.00e+00	0	43	0	2732589056	8	4072
2026-01-16 13:37:03.42	312.61	23.28	-24.1	-25.2	18.7	0.00e+00	0	43	0	2737831936	8	4094
2026-01-16 13:37:04.42	312.80	23.18	-24.2	-25.5	18.6	0.00e+00	0	43	0	2744123392	8	4158
2026-01-16 13:37:05.42	312.99	23.07	-24.1	-25.3	18.6	0.00e+00	0	43	0	2749366272	8	4121
2026-01-16 13:37:06.42	313.18	22.96	-24.2	-25.5	18.6	0.00e+00	0	43	0	2755657728	8	4154
2026-01-16 13:37:07.41	313.37	22.86	-24.2	-25.3	18.6	0.00e+00	0	43	0	2760900608	8	4124
2026-01-16 13:37:08.42	313.56	22.75	-24.2	-25.5	18.5	0.00e+00	0	43	0	2766143488	8	4167
2026-01-16 13:37:09.42	313.74	22.64	-24.3	-25.7	18.5	0.00e+00	0	43	0	2772434944	8	4201
2026-01-16 13:37:10.43	313.93	22.53	-24.5	-26.0	18.3	0.00e+00	0	43	0	2777677824	8	4294
2026-01-16 13:37:11.43	314.11	22.43	-24.5	-25.6	18.2	0.00e+00	0	43	0	2782920704	9	4073
2026-01-16 13:37:12.43	314.30	22.32	-24.6	-25.7	18.1	0.00e+00	0	43	0	2789212160	9	4116
2026-01-16 13:37:13.44	314.48	22.22	-24.6	-25.8	18.1	0.00e+00	0	43	0	2794455040	9	4138
2026-01-16 13:37:14.44	314.66	22.11	-24.5	-25.7	18.2	0.00e+00	0	43	0	2799697920	9	4100
2026-01-16 13:37:15.44	314.84	22.01	-24.4	-25.4	18.3	0.00e+00	0	43	0	2805989376	9	4037
2026-01-16 13:37:16.44	315.01	21.90	-24.4	-25.4	18.3	0.00e+00	0	43	0	2811232256	9	4038
2026-01-16 13:37:17.44	315.19	21.80	-24.4	-25.3	18.4	0.00e+00	0	43	0	2817523712	9	4009
2026-01-16 13:37:18.44	315.36	21.69	-24.3	-25.2	18.4	0.00e+00	0	43	0	2822766592	9	3977
2026-01-16 13:37:19.44	315.54	21.59	-24.4	-25.3	18.3	0.00e+00	0	43	0	2828009472	9	3999
2026-01-16 13:37:20.44	315.71	21.48	-24.4	-25.4	18.3	0.00e+00	0	43	0	2834300928	9	4024
2026-01-16 13:37:21.43	315.88	21.38	-24.4	-25.4	18.3	0.00e+00	0	43	0	2839543808	9	4039
2026-01-16 13:37:22.43	316.05	21.27	-24.5	-25.7	18.2	0.00e+00	0	43	0	2844786688	9	4090
2026-01-16 13:37:23.44	316.22	21.17	-24.5	-25.6	18.2	0.00e+00	0	43	0	2851078144	9	4087
2026-01-16 13:37:24.44	316.39	21.06	-24.4	-25.2	18.4	0.00e+00	0	43	0	2856321024	9	3989
2026-01-16 13:37:25.44	316.56	20.96	-24.4	-25.4	18.3	0.00e+00	0	43	0	2861563904	9	4016
2026-01-16 13:37:26.44	316.72	20.86	-24.4	-25.2	18.3	0.00e+00	0	43	0	2867855360	9	3989
2026-01-16 13:37:27.44	316.89	20.75	-24.5	-25.5	18.2	0.00e+00	0	43	0	2873098240	9	4042
2026-01-16 13:37:28.44	317.05	20.65	-24.6	-25.8	18.0	0.00e+00	0	43	0	2879389696	9	4128
2026-01-16 13:37:29.45	317.22	20.55	-24.7	-25.9	18.0	0.00e+00	0	43	0	2884632576	9	4151
2026-01-16 13:37:30.45	317.38	20.44	-24.8	-26.2	17.8	0.00e+00	0	43	0	2889875456	9	4238
2026-01-16 13:37:31.45	317.54	20.34	-24.6	-25.8	18.1	0.00e+00	0	43	0	2896166912	9	4127
2026-01-16 13:37:32.45	317.70	20.24	-24.7	-25.9	18.0	0.00e+00	0	43	0	2901409792	9	4169
2026-01-16 13:37:33.45	317.86	20.14	-24.8	-26.2	17.9	0.00e+00	0	43	0	2906652672	9	4228
2026-01-16 13:37:34.45	318.01	20.04	-24.8	-26.3	17.8	0.00e+00	0	43	0	2912944128	9	4261
2026-01-16 13:37:35.44	318.17	19.94	-24.9	-26.3	17.8	0.00e+00	0	43	0	2918187008	9	4267
2026-01-16 13:37:36.45	318.33	19.83	-24.8	-26.2	17.8	0.00e+00	0	43	0	2923429888	9	4242
2026-01-16 13:37:37.45	318.48	19.73	-24.9	-26.5	17.7	0.00e+00	0	43	0	2929721344	9	4304
2026-01-16 13:37:38.45	318.63	19.63	-25.1	-26.3	17.5	0.00e+00	0	43	0	2934964224	10	4144
2026-01-16 13:37:39.46	318.79	19.53	-25.1	-26.3	17.5	0.00e+00	0	43	0	2941255680	10	4154
2026-01-16 13:37:40.46	318.94	19.43	-25.0	-26.1	17.6	0.00e+00	0	43	0	2946498560	10	4100
2026-01-16 13:37:41.46	319.09	19.33	-25.3	-26.7	17.3	0.00e+00	0	43	0	2952790016	10	4241
2026-01-16 13:37:42.46	319.24	19.23	-25.3	-26.7	17.3	0.00e+00	0	43	0	2958032896	10	4252
2026-01-16 13:37:43.46	319.39	19.13	-25.2	-26.5	17.4	0.00e+00	0	43	0	2963275776	10	4193
2026-01-16 13:37:44.46	319.54	19.03	-25.0	-26.2	17.6	0.00e+00	0	43	0	2969567232	10	4114
2026-01-16 13:37:45.47	319.68	18.93	-25.0	-26.1	17.6	0.00e+00	0	43	0	2974810112	10	4088
2026-01-16 13:37:46.47	319.83	18.83	-25.2	-26.4	17.4	0.00e+00	0	43	0	2980052992	10	4179
2026-01-16 13:37:47.47	319.98	18.73	-25.2	-26.6	17.4	0.00e+00	0	43	0	2986344448	10	4212
2026-01-16 13:37:48.47	320.12	18.63	-25.3	-26.8	17.2	0.00e+00	0	43	0	2991587328	10	4285
2026-01-16 13:37:49.48	320.26	18.53	-25.2	-26.6	17.3	0.00e+00	0	43	0	2996830208	10	4232
2026-01-16 13:37:50.48	320.41	18.43	-25.2	-26.6	17.4	0.00e+00	0	43	0	3003121664	10	4209
2026-01-16 13:37:51.48	320.55	18.34	-25.3	-26.7	17.3	0.00e+00	0	43	0	3008364544	10	4258
2026-01-16 13:37:52.48	320.69	18.24	-25.4	-27.0	17.2	0.00e+00	0	43	0	3014656000	10	4320
2026-01-16 13:37:53.48	320.83	18.14	-25.5	-27.2	17.0	0.00e+00	0	43	0	3019898880	10	4379
2026-01-16 13:37:54.48	320.97	18.04	-25.5	-26.7	17.0	0.00e+00	0	43	0	3025141760	11	4144
2026-01-16 13:37:55.48	321.10	17.95	-25.4	-26.6	17.1	0.00e+00	0	43	0	3031433216	11	4098
2026-01-16 13:37:56.48	321.24	17.85	-25.5	-26.7	17.0	0.00e+00	0	43	0	3036676096	11	4142
2026-01-16 13:37:57.49	321.38	17.75	-25.5	-26.7	17.0	0.00e+00	0	43	0	3041918976	11	4140
2026-01-16 13:37:58.49	321.51	17.65	-25.4	-26.5	17.1	0.00e+00	0	43	0	3048210432	11	4085
2026-01-16 13:37:59.49	321.65	17.56	-25.4	-26.5	17.1	0.00e+00	0	43	0	3053453312	11	4072
2026-01-16 13:38:00.49	321.78	17.46	-25.4	-26.6	17.1	0.00e+00	0	43	0	3058696192	11	4109
2026-01-16 13:38:01.50	321.92	17.37	-25.4	-26.6	17.1	0.00e+00	0	43	0	3064987648	11	4097
2026-01-16 13:38:02.50	322.05	17.27	-25.5	-26.6	17.0	0.00e+00	0	43	0	3070230528	11	4115
2026-01-16 13:38:03.51	322.18	17.17	-25.5	-26.7	17.0	0.00e+00	0	43	0	3076521984	11	4138
2026-01-16 13:38:04.51	322.31	17.08	-25.6	-26.9	16.9	0.00e+00	0	43	0	3081764864	11	4183
2026-01-16 13:38:05.51	322.44	16.98	-25.6	-26.9	16.9	0.00e+00	0	43	0	3088056320	11	4192
2026-01-16 13:38:06.51	322.57	16.89	-25.6	-27.0	16.8	0.00e+00	0	43	0	3093299200	11	4205
2026-01-16 13:38:07.52	322.70	16.79	-25.6	-26.9	16.8	0.00e+00	0	43	0	3098542080	11	4190
2026-01-16 13:38:08.52	322.83	16.70	-25.7	-27.1	16.8	0.00e+00	0	43	0	3104833536	11	4248
2026-01-16 13:38:09.52	322.95	16.61	-25.6	-27.0	16.8	0.00e+00	0	43	0	3110076416	11	4227
2026-01-16 13:38:10.52	323.08	16.51	-25.5	-26.8	16.9	0.00e+00	0	43	0	3115319296	11	4169
2026-01-16 13:38:11.52	323.20	16.42	-25.5	-26.6	17.0	0.00e+00	0	43	0	3121610752	11	4119
2026-01-16 13:38:12.52	323.33	16.33	-25.4	-26.6	17.0	0.00e+00	0	43	0	3126853632	11	4103
2026-01-16 13:38:13.52	323.45	16.23	-25.5	-26.7	17.0	0.00e+00	0	43	0	3132096512	11	4131
2026-01-16 13:38:14.52	323.57	16.14	-25.3	-26.4	17.1	0.00e+00	0	43	0	3138387968	11	4056
2026-01-16 13:38:15.52	323.70	16.05	-25.4	-26.5	17.0	0.00e+00	0	43	0	3143630848	11	4079
2026-01-16 13:38:16.52	323.82	15.96	-25.5	-26.8	16.9	0.00e+00	0	43	0	3149922304	11	4150
2026-01-16 13:38:17.52	323.94	15.86	-25.4	-26.5	17.0	0.00e+00	0	43	0	3155165184	11	4086
2026-01-16 13:38:18.53	324.06	15.77	-25.5	-26.6	17.0	0.00e+00	0	43	0	3160408064	11	4106
2026-01-16 13:38:19.53	324.18	15.68	-25.4	-26.5	17.0	0.00e+00	0	43	0	3166699520	11	4080
2026-01-16 13:38:20.54	324.30	15.59	-25.3	-26.3	17.1	0.00e+00	0	43	0	3171942400	11	4042
2026-01-16 13:38:21.54	324.42	15.50	-25.4	-26.5	17.0	0.00e+00	0	43	0	3177185280	11	4078
2026-01-16 13:38:22.54	324.53	15.40	-25.5	-26.8	16.9	0.00e+00	0	43	0	3183476736	11	4149
2026-01-16 13:38:23.54	324.65	15.31	-25.5	-26.8	16.9	0.00e+00	0	43	0	3188719616	11	4159
2026-01-16 13:38:24.54	324.77	15.22	-25.6	-27.0	16.7	0.00e+00	0	43	0	3195011072	11	4216
2026-01-16 13:38:25.54	324.88	15.13	-25.6	-26.9	16.8	0.00e+00	0	43	0	3200253952	11	4184
2026-01-16 13:38:26.54	325.00	15.04	-25.6	-26.9	16.8	0.00e+00	0	43	0	3205496832	11	4179
2026-01-16 13:38:27.55	325.11	14.95	-25.7	-27.2	16.6	0.00e+00	0	43	0	3211788288	11	4271
2026-01-16 13:38:28.55	325.22	14.86	-25.6	-27.0	16.7	0.00e+00	0	44	0	3217031168	11	4218
2026-01-16 13:38:29.56	325.34	14.77	-25.7	-27.2	16.6	0.00e+00	0	43	0	3222274048	11	4263
2026-01-16 13:38:30.56	325.45	14.68	-25.6	-27.1	16.7	0.00e+00	0	43	0	3228565504	11	4232
2026-01-16 13:38:31.56	325.56	14.60	-25.8	-27.5	16.4	0.00e+00	0	43	0	3233808384	11	4355
2026-01-16 13:38:32.56	325.67	14.51	-25.7	-27.4	16.4	0.00e+00	0	43	0	3240099840	11	4348
2026-01-16 13:38:33.57	325.78	14.42	-25.8	-27.5	16.3	0.00e+00	0	43	0	3245342720	11	4388
2026-01-16 13:38:34.57	325.89	14.33	-26.0	-27.3	16.2	0.00e+00	0	43	0	3250585600	12	4191
2026-01-16 13:38:35.58	326.00	14.24	-25.8	-27.0	16.3	0.00e+00	0	43	0	3256877056	12	4110
2026-01-16 13:38:36.58	326.11	14.15	-25.9	-27.1	16.3	0.00e+00	0	43	0	3262119936	12	4131
2026-01-16 13:38:37.58	326.22	14.07	-26.0	-27.4	16.1	0.00e+00	0	43	0	3268411392	12	4225
2026-01-16 13:38:38.58	326.32	13.98	-26.1	-27.6	16.0	0.00e+00	0	43	0	3273654272	12	4270
2026-01-16 13:38:39.59	326.43	13.89	-26.0	-27.4	16.1	0.00e+00	0	43	0	3278897152	12	4213
2026-01-16 13:38:40.59	326.54	13.80	-26.0	-27.3	16.2	0.00e+00	0	43	0	3285188608	12	4179
2026-01-16 13:38:41.59	326.64	13.72	-25.9	-27.2	16.2	0.00e+00	0	43	0	3290431488	12	4164
2026-01-16 13:38:42.59	326.75	13.63	-26.0	-27.4	16.1	0.00e+00	0	43	0	3295674368	12	4220
2026-01-16 13:38:43.59	326.85	13.55	-26.1	-27.6	16.0	0.00e+00	0	43	0	3301965824	12	4263
2026-01-16 13:38:44.59	326.95	13.46	-26.2	-27.7	15.9	0.00e+00	0	43	0	3307208704	12	4298
2026-01-16 13:38:45.59	327.06	13.37	-26.0	-27.3	16.1	0.00e+00	0	43	0	3312451584	12	4194
2026-01-16 13:38:46.59	327.16	13.29	-26.2	-27.8	15.9	0.00e+00	0	43	0	3318743040	12	4317
2026-01-16 13:38:47.59	327.26	13.20	-26.3	-28.0	15.7	0.00e+00	0	43	0	3323985920	12	4380
2026-01-16 13:38:48.59	327.36	13.12	-26.2	-27.8	15.9	0.00e+00	0	43	0	3330277376	12	4317
2026-01-16 13:38:49.59	327.46	13.03	-26.0	-27.4	16.0	0.00e+00	0	43	0	3335520256	12	4228
2026-01-16 13:38:50.59	327.56	12.95	-26.2	-27.7	15.9	0.00e+00	0	43	0	3340763136	12	4294
2026-01-16 13:38:51.59	327.66	12.87	-26.2	-27.8	15.8	0.00e+00	0	44	0	3347054592	12	4317
2026-01-16 13:38:52.59	327.76	12.78	-26.3	-27.9	15.8	0.00e+00	0	43	0	3352297472	12	4357
2026-01-16 13:38:53.60	327.86	12.70	-26.4	-27.7	15.6	1.10e-06	0	43	0	3357540352	13	4176
2026-01-16 13:38:54.60	327.96	12.61	-26.3	-27.5	15.7	0.00e+00	0	43	0	3363831808	13	4121
2026-01-16 13:38:55.60	328.05	12.53	-26.2	-27.3	15.8	0.00e+00	0	43	0	3369074688	13	4082
2026-01-16 13:38:56.60	328.15	12.45	-26.4	-27.7	15.6	0.00e+00	0	43	0	3374317568	13	4179
2026-01-16 13:38:57.60	328.25	12.36	-26.4	-27.8	15.6	0.00e+00	0	43	0	3380609024	13	4199
2026-01-16 13:38:58.61	328.34	12.28	-26.5	-27.9	15.4	0.00e+00	0	43	0	3385851904	13	4250
2026-01-16 13:38:59.60	328.44	12.20	-26.5	-28.0	15.4	0.00e+00	0	43	0	3392143360	13	4279
2026-01-16 13:39:00.58	328.53	12.12	-26.5	-28.0	15.4	0.00e+00	0	43	0	3397386240	13	4269
2026-01-16 13:39:01.59	328.63	12.03	-26.5	-27.9	15.4	0.00e+00	0	43	0	3402629120	13	4244
2026-01-16 13:39:02.58	328.72	11.95	-26.5	-27.9	15.4	0.00e+00	0	43	0	3408920576	13	4247
2026-01-16 13:39:03.59	328.81	11.87	-26.5	-28.1	15.3	0.00e+00	0	43	0	3414163456	13	4284
2026-01-16 13:39:04.59	328.91	11.79	-26.8	-28.6	15.1	1.10e-06	0	43	0	3419406336	13	4436
2026-01-16 13:39:05.59	329.00	11.71	-26.7	-28.3	15.2	0.00e+00	0	43	0	3425697792	13	4358
2026-01-16 13:39:06.59	329.09	11.63	-26.4	-27.7	15.5	0.00e+00	0	43	0	3430940672	13	4189
2026-01-16 13:39:07.59	329.18	11.55	-26.6	-28.3	15.2	0.00e+00	0	43	0	3436183552	13	4339
2026-01-16 13:39:08.59	329.27	11.47	-26.7	-28.3	15.2	0.00e+00	0	43	0	3442475008	13	4348
2026-01-16 13:39:09.60	329.36	11.38	-26.4	-27.9	15.5	0.00e+00	0	43	0	3447717888	13	4232
2026-01-16 13:39:10.61	329.45	11.30	-26.6	-28.2	15.2	0.00e+00	0	43	0	3454009344	13	4333
2026-01-16 13:39:11.61	329.54	11.22	-26.6	-28.2	15.2	0.00e+00	0	43	0	3459252224	13	4330
2026-01-16 13:39:12.61	329.63	11.14	-26.6	-28.2	15.2	0.00e+00	0	43	0	3465543680	13	4327
2026-01-16 13:39:13.61	329.72	11.06	-26.7	-28.4	15.1	1.10e-06	0	44	0	3470786560	13	4393
2026-01-16 13:39:14.62	329.81	10.98	-26.8	-28.6	15.0	1.10e-06	0	43	0	3476029440	13	4451
2026-01-16 13:39:15.62	329.90	10.90	-26.8	-28.7	14.9	0.00e+00	0	43	0	3482320896	13	4471
2026-01-16 13:39:16.62	329.98	10.83	-26.6	-28.2	15.2	0.00e+00	0	43	0	3487563776	13	4334
2026-01-16 13:39:17.62	330.07	10.75	-26.8	-28.7	14.9	0.00e+00	0	43	0	3492806656	13	4453
2026-01-16 13:39:18.63	330.16	10.67	-26.7	-28.3	15.1	0.00e+00	0	43	0	3499098112	13	4361
2026-01-16 13:39:19.64	330.24	10.59	-26.8	-28.7	14.9	0.00e+00	0	43	0	3504340992	13	4475
2026-01-16 13:39:20.63	330.33	10.51	-27.0	-29.1	14.7	1.10e-06	0	43	0	3509583872	13	4579
2026-01-16 13:39:21.64	330.41	10.43	-26.9	-28.8	14.8	1.10e-06	0	43	0	3515875328	13	4499
2026-01-16 13:39:22.64	330.50	10.35	-27.2	-29.2	14.4	1.10e-06	0	43	0	3521118208	14	4494
2026-01-16 13:39:23.63	330.58	10.28	-27.2	-29.0	14.4	0.00e+00	0	43	0	3527409664	14	4442
2026-01-16 13:39:24.62	330.67	10.20	-27.0	-28.6	14.7	2.20e-06	0	43	0	3532652544	14	4336
2026-01-16 13:39:25.62	330.75	10.12	-27.0	-28.6	14.7	1.10e-06	0	43	0	3537895424	14	4341
2026-01-16 13:39:26.62	330.83	10.05	-26.8	-28.3	14.9	1.10e-06	0	43	0	3544186880	14	4239
2026-01-16 13:39:27.63	330.91	9.97	-27.0	-28.6	14.7	1.10e-06	0	43	0	3549429760	14	4317
2026-01-16 13:39:28.63	331.00	9.89	-26.8	-28.2	14.9	1.10e-06	0	43	0	3554672640	14	4222
2026-01-16 13:39:29.63	331.08	9.81	-26.9	-28.3	14.8	0.00e+00	0	43	0	3560964096	14	4250
2026-01-16 13:39:30.63	331.16	9.74	-27.0	-28.6	14.7	1.10e-06	0	43	0	3566206976	14	4325
2026-01-16 13:39:31.64	331.24	9.66	-27.1	-28.8	14.6	0.00e+00	0	43	0	3571449856	14	4377
2026-01-16 13:39:32.64	331.32	9.59	-27.0	-28.6	14.7	1.10e-06	0	43	0	3577741312	14	4328
2026-01-16 13:39:33.63	331.40	9.51	-26.9	-28.4	14.8	0.00e+00	0	43	0	3582984192	14	4268
2026-01-16 13:39:34.64	331.48	9.43	-26.9	-28.4	14.7	0.00e+00	0	43	0	3589275648	14	4267
2026-01-16 13:39:35.65	331.56	9.36	-27.0	-28.5	14.7	1.10e-06	0	43	0	3594518528	14	4305
2026-01-16 13:39:36.64	331.64	9.28	-27.0	-28.6	14.6	0.00e+00	0	43	0	3599761408	14	4315
2026-01-16 13:39:37.65	331.72	9.21	-27.0	-28.6	14.6	0.00e+00	0	43	0	3606052864	14	4331
2026-01-16 13:39:38.65	331.80	9.13	-26.9	-28.5	14.7	2.20e-06	0	43	0	3611295744	14	4301
2026-01-16 13:39:39.66	331.88	9.06	-27.0	-28.6	14.6	1.10e-06	0	43	0	3616538624	14	4341
2026-01-16 13:39:40.66	331.95	8.98	-26.8	-28.3	14.8	0.00e+00	0	43	0	3622830080	14	4239
2026-01-16 13:39:41.66	332.03	8.91	-27.0	-28.6	14.6	0.00e+00	0	43	0	3628072960	14	4333
2026-01-16 13:39:42.67	332.11	8.83	-27.1	-28.9	14.4	3.40e-06	0	43	0	3634364416	14	4411
2026-01-16 13:39:43.67	332.18	8.76	-27.1	-29.0	14.4	1.10e-06	0	43	0	3639607296	14	4432
2026-01-16 13:39:44.67	332.26	8.69	-27.3	-29.2	14.2	1.10e-06	0	43	0	3644850176	14	4513
2026-01-16 13:39:45.67	332.33	8.61	-27.1	-28.9	14.4	2.20e-06	0	43	0	3651141632	14	4416
2026-01-16 13:39:46.67	332.41	8.54	-27.1	-28.9	14.4	2.20e-06	0	44	0	3656384512	14	4417
2026-01-16 13:39:47.67	332.48	8.47	-27.1	-29.0	14.3	1.10e-06	0	43	0	3662675968	14	4435
2026-01-16 13:39:48.68	332.56	8.39	-27.0	-28.7	14.5	0.00e+00	0	43	0	3667918848	14	4355
2026-01-16 13:39:49.68	332.63	8.32	-27.2	-29.1	14.2	0.00e+00	0	43	0	3673161728	14	4476
2026-01-16 13:39:50.67	332.71	8.25	-27.3	-29.3	14.1	4.50e-06	0	43	0	3679453184	14	4537
2026-01-16 13:39:51.67	332.78	8.18	-27.5	-29.7	13.8	3.40e-06	0	43	0	3684696064	14	4670
2026-01-16 13:39:52.67	332.85	8.10	-27.3	-28.8	14.1	8.00e-06	0	43	0	3689938944	15	4270
2026-01-16 13:39:53.67	332.93	8.03	-27.2	-28.5	14.3	3.40e-06	0	43	0	3696230400	15	4201
2026-01-16 13:39:54.68	333.00	7.96	-27.1	-28.4	14.3	0.00e+00	0	43	0	3701473280	15	4177
2026-01-16 13:39:55.68	333.07	7.89	-27.1	-28.5	14.3	1.10e-06	0	43	0	3706716160	15	4191
2026-01-16 13:39:56.68	333.14	7.81	-27.2	-28.6	14.2	1.10e-06	0	43	0	3713007616	15	4216
2026-01-16 13:39:57.68	333.21	7.74	-27.1	-28.3	14.4	1.10e-06	0	43	0	3718250496	15	4154
2026-01-16 13:39:58.68	333.29	7.67	-27.3	-28.7	14.1	2.20e-06	0	43	0	3724541952	15	4266
2026-01-16 13:39:59.69	333.36	7.60	-27.5	-29.3	13.8	0.00e+00	0	43	0	3729784832	15	4433
2026-01-16 13:40:00.69	333.43	7.53	-27.2	-28.6	14.1	6.80e-06	0	43	0	3735027712	15	4235
2026-01-16 13:40:01.69	333.50	7.46	-27.1	-28.3	14.3	1.10e-06	0	43	0	3741319168	15	4157
2026-01-16 13:40:02.69	333.57	7.39	-27.5	-29.4	13.7	6.80e-06	0	43	0	3746562048	15	4446
2026-01-16 13:40:03.69	333.64	7.32	-27.4	-29.0	13.9	5.70e-06	0	43	0	3751804928	15	4341
2026-01-16 13:40:04.69	333.71	7.25	-27.5	-29.3	13.7	5.70e-06	0	43	0	3758096384	15	4432
2026-01-16 13:40:05.68	333.77	7.18	-27.4	-29.1	13.9	2.20e-06	0	43	0	3763339264	15	4358
2026-01-16 13:40:06.69	333.84	7.11	-27.4	-29.1	13.8	1.71e-05	0	43	0	3768582144	15	4371
2026-01-16 13:40:07.69	333.91	7.04	-33.3	-44.6	3.8	1.46e-02	0	43	104	3772776448	26	13163
2026-01-16 13:40:08.69	333.98	6.97	-33.6	-44.8	3.8	8.46e-01	0	43	104	3772776448	27	13009
2026-01-16 13:40:09.69	334.05	6.90	-33.9	-45.3	3.8	8.46e-01	0	43	104	3772776448	27	13385
2026-01-16 13:40:10.70	334.12	6.83	-33.9	-44.9	3.8	8.47e-01	0	43	104	3772776448	28	12763

#Closed at: 2026-01-16 13:40:11
#Recorded file [3772 MB]: D:/data/31010_260116_162856.dat