passes_logs/2026/01/16/R2M6_AANII_01/R2M6_AANII_01__20260116_151300_FENGYUN_3E_rec.log

#Pass ID: 20260116_151300_FENGYUN 3E
#Satellite: FENGYUN 3E
#Configuration: FENGYUN 3E
#almurnet v.1.7.20240730
#Start time: 2026-01-16 15:13:02

#Version: 2.2.20231116
#Station: R2M6_AANII_01
#Location: 30.233357 lon 59.946436 lat
#TLE: 1 49008U 21062A   26015.99225297  .00000062  00000+0  49720-4 0  9994
#TLE: 2 49008  98.7486  21.1092 0002100 136.3389 223.7953 14.19885247234982

#Time	Az	El	Level	Level2	SNR	BER	BlckErr	Temp	State	Recorded	gain1	gain2
2026-01-16 15:13:02.80	179.59	7.15	-27.6	-29.5	5.6	7.63e-01	0	41	0	0	15	4482
2026-01-16 15:13:03.79	179.62	7.23	-28.4	-30.9	5.5	7.68e-01	0	41	104	0	16	4803
2026-01-16 15:13:04.79	179.66	7.30	-28.0	-29.8	11.1	2.66e-03	0	41	0	0	16	4438
2026-01-16 15:13:05.79	179.70	7.38	-27.6	-28.9	11.6	8.73e-04	0	41	0	6291456	16	4180
2026-01-16 15:13:06.80	179.74	7.46	-27.0	-28.0	12.3	3.92e-04	0	42	0	13631488	15	4036
2026-01-16 15:13:07.80	179.79	7.53	-26.4	-27.2	13.0	4.92e-05	0	42	0	20971520	14	3943
2026-01-16 15:13:08.80	179.83	7.61	-26.0	-26.7	13.6	1.83e-05	0	42	0	28311552	13	3920
2026-01-16 15:13:09.81	179.87	7.69	-25.9	-26.5	13.7	8.00e-06	0	41	0	35651584	13	3873
2026-01-16 15:13:10.80	179.91	7.76	-25.6	-26.4	14.1	1.10e-06	0	42	0	42991616	12	3942
2026-01-16 15:13:11.80	179.95	7.84	-25.6	-26.3	14.1	2.20e-06	0	41	0	50331648	12	3919
2026-01-16 15:13:12.81	179.99	7.92	-25.6	-26.3	14.1	2.20e-06	0	42	0	57671680	12	3919
2026-01-16 15:13:13.81	180.03	8.00	-25.5	-26.2	14.2	1.10e-06	0	42	0	65011712	12	3890
2026-01-16 15:13:14.81	180.07	8.08	-25.4	-26.4	14.4	1.10e-06	0	42	0	72351744	11	4033
2026-01-16 15:13:15.81	180.12	8.15	-25.5	-26.5	14.4	1.10e-06	0	42	0	79691776	11	4058
2026-01-16 15:13:16.82	180.16	8.23	-25.5	-26.7	14.3	1.10e-06	0	42	0	85983232	11	4103
2026-01-16 15:13:17.83	180.20	8.31	-25.5	-26.6	14.3	0.00e+00	0	42	0	93323264	11	4085
2026-01-16 15:13:18.83	180.24	8.39	-25.6	-26.9	14.2	1.10e-06	0	42	0	100663296	11	4173
2026-01-16 15:13:19.83	180.29	8.47	-25.6	-26.9	14.2	0.00e+00	0	42	0	108003328	11	4152
2026-01-16 15:13:20.83	180.33	8.55	-25.5	-26.7	14.3	0.00e+00	0	42	0	115343360	11	4110
2026-01-16 15:13:21.83	180.37	8.63	-25.7	-27.0	14.1	0.00e+00	0	42	0	122683392	11	4198
2026-01-16 15:13:22.84	180.42	8.71	-25.4	-26.4	14.5	2.20e-06	0	42	0	130023424	11	4026
2026-01-16 15:13:23.84	180.46	8.79	-25.4	-26.3	14.6	0.00e+00	0	42	0	137363456	11	3992
2026-01-16 15:13:24.85	180.51	8.87	-25.4	-26.3	14.6	0.00e+00	0	42	0	144703488	11	4013
2026-01-16 15:13:25.85	180.55	8.96	-25.5	-26.6	14.4	1.10e-06	0	42	0	150994944	11	4087
2026-01-16 15:13:26.85	180.59	9.04	-25.2	-26.0	14.8	0.00e+00	0	42	0	158334976	11	3923
2026-01-16 15:13:27.85	180.64	9.12	-25.5	-26.5	14.5	0.00e+00	0	42	0	165675008	11	4063
2026-01-16 15:13:28.85	180.68	9.20	-25.2	-26.0	14.8	0.00e+00	0	42	0	173015040	11	3931
2026-01-16 15:13:29.86	180.73	9.28	-25.5	-26.5	14.5	3.40e-06	0	42	0	180355072	11	4053
2026-01-16 15:13:30.86	180.77	9.36	-25.3	-26.1	14.7	0.00e+00	0	42	0	187695104	11	3965
2026-01-16 15:13:31.86	180.82	9.45	-25.2	-25.9	14.8	0.00e+00	0	42	0	195035136	11	3907
2026-01-16 15:13:32.87	180.87	9.53	-25.2	-25.9	14.8	0.00e+00	0	42	0	202375168	11	3897
2026-01-16 15:13:33.87	180.91	9.61	-25.4	-26.4	14.6	0.00e+00	0	42	0	209715200	11	4025
2026-01-16 15:13:34.87	180.96	9.70	-25.2	-26.0	14.7	0.00e+00	0	42	0	217055232	11	3941
2026-01-16 15:13:35.88	181.01	9.78	-25.0	-25.6	15.0	0.00e+00	0	42	0	224395264	11	3828
2026-01-16 15:13:36.88	181.05	9.86	-25.2	-26.0	14.8	0.00e+00	0	42	0	230686720	11	3940
2026-01-16 15:13:37.88	181.10	9.95	-25.1	-25.8	14.9	0.00e+00	0	42	0	238026752	11	3879
2026-01-16 15:13:38.89	181.15	10.03	-25.1	-25.6	15.0	1.10e-06	0	42	0	245366784	11	3851
2026-01-16 15:13:39.89	181.20	10.12	-25.3	-26.2	14.7	0.00e+00	0	42	0	252706816	11	3985
2026-01-16 15:13:40.89	181.24	10.20	-25.3	-26.2	14.7	0.00e+00	0	42	0	260046848	11	3989
2026-01-16 15:13:41.90	181.29	10.29	-25.2	-25.9	14.9	0.00e+00	0	42	0	267386880	11	3918
2026-01-16 15:13:42.90	181.34	10.37	-25.4	-26.4	14.6	0.00e+00	0	42	0	274726912	11	4032
2026-01-16 15:13:43.91	181.39	10.46	-25.3	-26.2	14.7	0.00e+00	0	43	0	282066944	11	3987
2026-01-16 15:13:44.92	181.44	10.55	-25.0	-25.6	15.0	0.00e+00	0	42	0	289406976	11	3848
2026-01-16 15:13:45.91	181.49	10.63	-25.2	-26.1	14.8	6.80e-06	0	43	0	296747008	11	3961
2026-01-16 15:13:46.91	181.54	10.72	-25.2	-25.9	14.9	0.00e+00	0	43	0	304087040	11	3917
2026-01-16 15:13:47.92	181.59	10.81	-25.1	-25.7	14.9	0.00e+00	0	42	0	311427072	11	3871
2026-01-16 15:13:48.92	181.64	10.89	-25.4	-26.4	14.6	3.40e-06	0	42	0	317718528	11	4034
2026-01-16 15:13:49.93	181.69	10.98	-25.0	-25.7	15.0	0.00e+00	0	42	0	325058560	11	3858
2026-01-16 15:13:50.93	181.74	11.07	-25.3	-26.1	14.7	0.00e+00	0	42	0	332398592	11	3972
2026-01-16 15:13:51.93	181.79	11.16	-25.1	-25.9	14.9	0.00e+00	0	42	0	339738624	11	3911
2026-01-16 15:13:52.94	181.84	11.25	-25.1	-25.7	14.9	0.00e+00	0	43	0	347078656	11	3884
2026-01-16 15:13:53.94	181.89	11.34	-25.2	-26.0	14.8	0.00e+00	0	43	0	354418688	11	3941
2026-01-16 15:13:54.94	181.94	11.42	-25.2	-26.1	14.8	2.20e-06	0	43	0	361758720	11	3968
2026-01-16 15:13:55.94	182.00	11.51	-25.3	-26.2	14.7	0.00e+00	0	43	0	369098752	11	3983
2026-01-16 15:13:56.94	182.05	11.60	-25.5	-26.6	14.5	1.10e-06	0	43	0	376438784	11	4095
2026-01-16 15:13:57.94	182.10	11.69	-25.3	-26.2	14.7	1.14e-05	0	43	0	382730240	11	4008
2026-01-16 15:13:58.94	182.15	11.78	-25.3	-26.2	14.7	1.10e-06	0	43	0	390070272	11	4009
2026-01-16 15:13:59.94	182.21	11.87	-25.4	-26.5	14.5	0.00e+00	0	43	0	397410304	11	4084
2026-01-16 15:14:00.95	182.26	11.97	-25.3	-26.2	14.7	5.70e-06	0	43	0	404750336	11	3998
2026-01-16 15:14:01.95	182.32	12.06	-25.5	-26.6	14.5	0.00e+00	0	43	0	412090368	11	4101
2026-01-16 15:14:02.95	182.37	12.15	-25.3	-26.2	14.7	1.10e-06	0	43	0	419430400	11	3992
2026-01-16 15:14:03.95	182.42	12.24	-24.9	-25.4	15.1	4.50e-06	0	43	0	426770432	11	3815
2026-01-16 15:14:04.95	182.48	12.33	-25.0	-25.6	15.1	0.00e+00	0	43	0	434110464	11	3848
2026-01-16 15:14:05.96	182.53	12.42	-24.9	-25.8	15.2	0.00e+00	0	43	0	441450496	10	4022
2026-01-16 15:14:06.96	182.59	12.52	-25.1	-26.4	14.8	6.80e-06	0	43	0	448790528	10	4174
2026-01-16 15:14:07.96	182.65	12.61	-25.2	-26.4	14.9	0.00e+00	0	43	0	456130560	10	4162
2026-01-16 15:14:08.96	182.70	12.70	-25.1	-26.4	14.9	0.00e+00	0	43	0	462422016	10	4162
2026-01-16 15:14:09.96	182.76	12.80	-25.0	-26.0	15.1	0.00e+00	0	43	0	469762048	10	4070
2026-01-16 15:14:10.95	182.81	12.89	-25.0	-26.2	15.0	0.00e+00	0	43	0	477102080	10	4099
2026-01-16 15:14:11.96	182.87	12.99	-24.9	-25.9	15.2	1.10e-06	0	43	0	484442112	10	4031
2026-01-16 15:14:12.96	182.93	13.08	-25.0	-26.1	15.1	0.00e+00	0	43	0	491782144	10	4093
2026-01-16 15:14:13.96	182.99	13.18	-25.2	-26.6	14.8	0.00e+00	0	43	0	499122176	10	4214
2026-01-16 15:14:14.96	183.05	13.27	-24.8	-25.7	15.3	0.00e+00	0	43	0	506462208	10	3986
2026-01-16 15:14:15.96	183.10	13.37	-24.6	-25.2	15.6	0.00e+00	0	43	0	513802240	10	3869
2026-01-16 15:14:16.96	183.16	13.46	-24.3	-25.1	15.9	0.00e+00	0	43	0	521142272	9	3932
2026-01-16 15:14:17.96	183.22	13.56	-24.4	-25.3	15.8	0.00e+00	0	43	0	527433728	9	3981
2026-01-16 15:14:18.96	183.28	13.66	-24.4	-25.2	15.8	0.00e+00	0	43	0	534773760	9	3958
2026-01-16 15:14:19.96	183.34	13.75	-24.5	-25.4	15.7	0.00e+00	0	43	0	542113792	9	4005
2026-01-16 15:14:20.96	183.40	13.85	-24.8	-26.1	15.4	0.00e+00	0	43	0	549453824	9	4180
2026-01-16 15:14:21.96	183.46	13.95	-24.6	-25.7	15.5	0.00e+00	0	43	0	556793856	9	4100
2026-01-16 15:14:22.97	183.53	14.05	-24.5	-25.5	15.7	0.00e+00	0	43	0	564133888	9	4022
2026-01-16 15:14:23.97	183.59	14.15	-24.5	-25.5	15.7	0.00e+00	0	43	0	571473920	9	4021
2026-01-16 15:14:24.97	183.65	14.25	-24.3	-25.1	15.9	0.00e+00	0	43	0	578813952	9	3923
2026-01-16 15:14:25.98	183.71	14.35	-24.3	-25.0	15.9	0.00e+00	0	43	0	586153984	9	3918
2026-01-16 15:14:26.97	183.77	14.45	-24.6	-25.7	15.6	0.00e+00	0	43	0	592445440	9	4080
2026-01-16 15:14:27.97	183.84	14.55	-24.4	-25.3	15.8	0.00e+00	0	43	0	599785472	9	3982
2026-01-16 15:14:28.98	183.90	14.65	-24.1	-24.7	16.1	0.00e+00	0	43	0	607125504	9	3838
2026-01-16 15:14:29.98	183.96	14.75	-24.1	-24.7	16.1	0.00e+00	0	43	0	614465536	9	3833
2026-01-16 15:14:30.97	184.03	14.85	-24.1	-24.6	16.2	0.00e+00	0	43	0	621805568	9	3821
2026-01-16 15:14:31.97	184.09	14.95	-24.0	-24.5	16.2	0.00e+00	0	43	0	629145600	9	3792
2026-01-16 15:14:32.97	184.16	15.05	-24.2	-24.9	16.0	0.00e+00	0	43	0	636485632	9	3883
2026-01-16 15:14:33.97	184.22	15.16	-24.0	-24.4	16.3	0.00e+00	0	43	0	643825664	9	3763
2026-01-16 15:14:34.97	184.29	15.26	-24.0	-24.5	16.3	0.00e+00	0	43	0	650117120	9	3798
2026-01-16 15:14:35.98	184.36	15.36	-24.1	-24.7	16.2	0.00e+00	0	43	0	657457152	9	3836
2026-01-16 15:14:36.98	184.42	15.47	-23.9	-24.2	16.4	0.00e+00	0	43	0	664797184	9	3719
2026-01-16 15:14:37.98	184.49	15.57	-23.8	-24.5	16.5	0.00e+00	0	43	0	672137216	8	3903
2026-01-16 15:14:38.99	184.56	15.68	-24.0	-24.9	16.3	0.00e+00	0	43	0	679477248	8	3996
2026-01-16 15:14:40.00	184.63	15.78	-23.9	-24.7	16.4	0.00e+00	0	43	0	686817280	8	3955
2026-01-16 15:14:41.01	184.70	15.89	-23.9	-24.8	16.4	0.00e+00	0	43	0	694157312	8	3970
2026-01-16 15:14:42.01	184.77	15.99	-24.0	-24.9	16.3	0.00e+00	0	43	0	701497344	8	4005
2026-01-16 15:14:43.01	184.84	16.10	-24.1	-25.1	16.3	0.00e+00	0	43	0	708837376	8	4038
2026-01-16 15:14:44.02	184.91	16.21	-24.0	-25.0	16.3	0.00e+00	0	43	0	716177408	8	4016
2026-01-16 15:14:45.02	184.98	16.32	-23.8	-24.6	16.5	0.00e+00	0	43	0	723517440	8	3932
2026-01-16 15:14:46.02	185.05	16.42	-23.7	-24.4	16.6	0.00e+00	0	43	0	730857472	8	3888
2026-01-16 15:14:47.02	185.12	16.53	-23.8	-24.5	16.6	0.00e+00	0	43	0	737148928	8	3908
2026-01-16 15:14:48.02	185.19	16.64	-23.8	-24.5	16.6	0.00e+00	0	43	0	744488960	8	3900
2026-01-16 15:14:49.03	185.27	16.75	-24.0	-24.9	16.3	0.00e+00	0	43	0	751828992	8	4002
2026-01-16 15:14:50.03	185.34	16.86	-24.0	-24.9	16.4	0.00e+00	0	43	0	759169024	8	4000
2026-01-16 15:14:51.04	185.41	16.97	-23.8	-24.6	16.5	0.00e+00	0	43	0	766509056	8	3936
2026-01-16 15:14:52.04	185.49	17.08	-23.8	-24.4	16.6	0.00e+00	0	43	0	773849088	8	3887
2026-01-16 15:14:53.05	185.56	17.19	-23.7	-24.4	16.6	0.00e+00	0	43	0	781189120	8	3874
2026-01-16 15:14:54.05	185.64	17.30	-23.9	-24.7	16.5	0.00e+00	0	43	0	788529152	8	3957
2026-01-16 15:14:55.06	185.71	17.42	-23.9	-24.8	16.5	0.00e+00	0	43	0	795869184	8	3974
2026-01-16 15:14:56.06	185.79	17.53	-23.8	-24.6	16.6	0.00e+00	0	43	0	803209216	8	3922
2026-01-16 15:14:57.06	185.87	17.64	-23.8	-24.6	16.6	0.00e+00	0	43	0	810549248	8	3918
2026-01-16 15:14:58.06	185.94	17.75	-23.8	-24.4	16.6	0.00e+00	0	43	0	817889280	8	3875
2026-01-16 15:14:59.07	186.02	17.87	-24.1	-25.1	16.3	0.00e+00	0	43	0	824180736	8	4046
2026-01-16 15:15:00.07	186.10	17.98	-23.7	-24.4	16.7	0.00e+00	0	43	0	831520768	8	3877
2026-01-16 15:15:01.07	186.18	18.10	-23.6	-24.0	16.9	0.00e+00	0	43	0	838860800	8	3795
2026-01-16 15:15:02.07	186.26	18.21	-23.6	-24.1	16.9	0.00e+00	0	43	0	846200832	8	3796
2026-01-16 15:15:03.07	186.34	18.33	-23.6	-24.1	16.8	0.00e+00	0	43	0	853540864	8	3811
2026-01-16 15:15:04.07	186.42	18.44	-23.3	-23.9	17.2	0.00e+00	0	43	0	860880896	7	3843
2026-01-16 15:15:05.07	186.50	18.56	-23.4	-24.1	17.1	0.00e+00	0	43	0	868220928	7	3897
2026-01-16 15:15:06.08	186.58	18.68	-23.4	-24.0	17.1	5.70e-06	0	43	0	875560960	7	3891
2026-01-16 15:15:07.07	186.67	18.80	-23.3	-24.0	17.1	0.00e+00	0	43	0	881852416	7	3874
2026-01-16 15:15:08.07	186.75	18.91	-23.2	-23.8	17.2	0.00e+00	0	43	0	889192448	7	3831
2026-01-16 15:15:09.07	186.83	19.03	-23.4	-24.1	17.1	0.00e+00	0	43	0	896532480	7	3909
2026-01-16 15:15:10.07	186.92	19.15	-23.1	-23.6	17.4	0.00e+00	0	43	0	903872512	7	3779
2026-01-16 15:15:11.08	187.00	19.27	-23.2	-23.6	17.4	0.00e+00	0	43	0	911212544	7	3774
2026-01-16 15:15:12.08	187.09	19.39	-23.3	-23.9	17.2	0.00e+00	0	43	0	918552576	7	3861
2026-01-16 15:15:13.07	187.17	19.51	-23.1	-23.5	17.4	0.00e+00	0	43	0	925892608	7	3753
2026-01-16 15:15:14.07	187.26	19.63	-23.1	-23.4	17.5	0.00e+00	0	43	0	933232640	7	3734
2026-01-16 15:15:15.08	187.35	19.75	-23.1	-24.0	17.4	0.00e+00	0	43	0	940572672	6	3974
2026-01-16 15:15:16.08	187.44	19.88	-23.1	-23.9	17.5	0.00e+00	0	43	0	946864128	6	3964
2026-01-16 15:15:17.08	187.53	20.00	-23.0	-23.8	17.5	0.00e+00	0	43	0	954204160	6	3941
2026-01-16 15:15:18.08	187.62	20.12	-23.1	-24.1	17.4	5.70e-06	0	43	0	961544192	6	3998
2026-01-16 15:15:19.09	187.71	20.25	-23.3	-24.5	17.2	0.00e+00	0	44	0	968884224	6	4109
2026-01-16 15:15:20.09	187.80	20.37	-23.4	-24.5	17.1	0.00e+00	0	44	0	976224256	6	4118
2026-01-16 15:15:21.09	187.89	20.50	-23.4	-24.7	17.1	4.50e-06	0	43	0	983564288	6	4161
2026-01-16 15:15:22.09	187.98	20.62	-23.7	-24.7	16.8	0.00e+00	0	43	0	990904320	7	4038
2026-01-16 15:15:23.09	188.08	20.75	-23.5	-24.3	17.1	0.00e+00	0	43	0	998244352	7	3941
2026-01-16 15:15:24.09	188.17	20.87	-23.3	-23.8	17.3	1.10e-06	0	44	0	1004535808	7	3843
2026-01-16 15:15:25.09	188.26	21.00	-23.0	-23.2	17.6	0.00e+00	0	43	0	1011875840	7	3691
2026-01-16 15:15:26.09	188.36	21.13	-23.3	-24.3	17.2	0.00e+00	0	43	0	1019215872	6	4074
2026-01-16 15:15:27.09	188.46	21.26	-23.1	-24.0	17.4	5.70e-06	0	43	0	1026555904	6	3987
2026-01-16 15:15:28.09	188.55	21.39	-23.1	-24.1	17.4	0.00e+00	0	43	0	1033895936	6	4002
2026-01-16 15:15:29.10	188.65	21.52	-23.1	-24.1	17.4	0.00e+00	0	44	0	1041235968	6	4005
2026-01-16 15:15:30.10	188.75	21.65	-23.2	-24.1	17.4	0.00e+00	0	43	0	1048576000	6	4019
2026-01-16 15:15:31.10	188.85	21.78	-23.0	-23.8	17.5	0.00e+00	0	43	0	1055916032	6	3944
2026-01-16 15:15:32.10	188.95	21.91	-23.2	-24.2	17.4	0.00e+00	0	44	0	1063256064	6	4035
2026-01-16 15:15:33.09	189.05	22.04	-23.2	-24.2	17.3	0.00e+00	0	43	0	1069547520	6	4034
2026-01-16 15:15:34.10	189.15	22.17	-23.0	-23.8	17.5	0.00e+00	0	43	0	1076887552	6	3944
2026-01-16 15:15:35.10	189.25	22.31	-23.0	-23.8	17.6	0.00e+00	0	44	0	1084227584	6	3936
2026-01-16 15:15:36.10	189.36	22.44	-23.0	-23.9	17.5	0.00e+00	0	44	0	1091567616	6	3963
2026-01-16 15:15:37.09	189.46	22.57	-23.3	-24.5	17.2	0.00e+00	0	43	0	1098907648	6	4122
2026-01-16 15:15:38.09	189.57	22.71	-23.0	-23.8	17.5	0.00e+00	0	43	0	1106247680	6	3959
2026-01-16 15:15:39.09	189.67	22.84	-23.2	-24.3	17.3	0.00e+00	0	44	0	1113587712	6	4068
2026-01-16 15:15:40.09	189.78	22.98	-22.9	-23.7	17.5	0.00e+00	0	43	0	1120927744	6	3930
2026-01-16 15:15:41.09	189.89	23.12	-22.9	-23.6	17.6	0.00e+00	0	44	0	1128267776	6	3902
2026-01-16 15:15:42.09	190.00	23.25	-23.0	-23.9	17.4	2.20e-06	0	43	0	1134559232	6	3994
2026-01-16 15:15:43.09	190.11	23.39	-23.2	-24.4	17.1	0.00e+00	0	44	0	1141899264	6	4114
2026-01-16 15:15:44.09	190.22	23.53	-22.9	-23.8	17.4	0.00e+00	0	44	0	1149239296	6	3974
2026-01-16 15:15:45.10	190.33	23.67	-22.8	-23.5	17.6	0.00e+00	0	44	0	1156579328	6	3912
2026-01-16 15:15:46.10	190.44	23.81	-23.1	-24.1	17.3	0.00e+00	0	44	0	1163919360	6	4062
2026-01-16 15:15:47.11	190.56	23.95	-22.8	-23.5	17.5	0.00e+00	0	44	0	1171259392	6	3902
2026-01-16 15:15:48.11	190.67	24.09	-23.0	-24.0	17.3	0.00e+00	0	44	0	1178599424	6	4016
2026-01-16 15:15:49.11	190.79	24.24	-22.8	-23.6	17.5	0.00e+00	0	44	0	1185939456	6	3925
2026-01-16 15:15:50.11	190.90	24.38	-22.7	-23.2	17.7	0.00e+00	0	43	0	1193279488	6	3836
2026-01-16 15:15:51.11	191.02	24.52	-22.8	-23.5	17.6	0.00e+00	0	44	0	1200619520	6	3895
2026-01-16 15:15:52.12	191.14	24.67	-22.7	-23.3	17.7	0.00e+00	0	43	0	1207959552	6	3853
2026-01-16 15:15:53.13	191.26	24.81	-22.8	-23.6	17.6	0.00e+00	0	44	0	1214251008	6	3919
2026-01-16 15:15:54.12	191.38	24.96	-22.8	-23.4	17.7	0.00e+00	0	43	0	1221591040	6	3878
2026-01-16 15:15:55.13	191.50	25.10	-22.8	-23.5	17.6	0.00e+00	0	44	0	1228931072	6	3912
2026-01-16 15:15:56.13	191.63	25.25	-22.9	-23.6	17.6	0.00e+00	0	44	0	1236271104	6	3932
2026-01-16 15:15:57.14	191.75	25.40	-22.5	-23.4	17.9	0.00e+00	0	44	0	1243611136	5	3968
2026-01-16 15:15:58.14	191.88	25.55	-22.7	-23.8	17.8	0.00e+00	0	44	0	1250951168	5	4060
2026-01-16 15:15:59.14	192.00	25.70	-22.8	-24.0	17.7	0.00e+00	0	44	0	1258291200	5	4115
2026-01-16 15:16:00.14	192.13	25.84	-22.6	-23.4	18.0	0.00e+00	0	43	0	1265631232	5	3964
2026-01-16 15:16:01.15	192.26	26.00	-22.5	-23.2	18.1	0.00e+00	0	43	0	1272971264	5	3917
2026-01-16 15:16:02.15	192.39	26.15	-22.8	-23.9	17.8	0.00e+00	0	43	0	1279262720	5	4079
2026-01-16 15:16:03.15	192.52	26.30	-22.5	-23.3	18.1	0.00e+00	0	44	0	1286602752	5	3934
2026-01-16 15:16:04.15	192.65	26.45	-22.4	-23.1	18.2	0.00e+00	0	44	0	1294991360	5	3894
2026-01-16 15:16:05.15	192.79	26.60	-22.6	-23.4	18.1	0.00e+00	0	44	0	1301282816	5	3956
2026-01-16 15:16:06.16	192.92	26.76	-22.5	-23.2	18.2	0.00e+00	0	43	0	1308622848	5	3910
2026-01-16 15:16:07.16	193.06	26.91	-22.7	-23.7	17.9	0.00e+00	0	44	0	1315962880	5	4038
2026-01-16 15:16:08.16	193.20	27.07	-22.5	-23.2	18.2	0.00e+00	0	43	0	1323302912	5	3919
2026-01-16 15:16:09.16	193.34	27.22	-22.7	-23.7	17.9	0.00e+00	0	44	0	1330642944	5	4041
2026-01-16 15:16:10.17	193.48	27.38	-22.4	-23.1	18.2	0.00e+00	0	44	0	1337982976	5	3905
2026-01-16 15:16:11.17	193.62	27.54	-22.3	-22.9	18.3	0.00e+00	0	44	0	1345323008	5	3838
2026-01-16 15:16:12.17	193.76	27.70	-22.3	-22.9	18.3	0.00e+00	0	44	0	1352663040	5	3854
2026-01-16 15:16:13.17	193.90	27.85	-22.5	-23.3	18.1	0.00e+00	0	44	0	1360003072	5	3946
2026-01-16 15:16:14.18	194.05	28.01	-22.6	-23.6	18.0	0.00e+00	0	43	0	1366294528	5	4018
2026-01-16 15:16:15.18	194.20	28.17	-22.4	-23.2	18.2	0.00e+00	0	44	0	1373634560	5	3917
2026-01-16 15:16:16.18	194.35	28.34	-22.3	-22.8	18.3	0.00e+00	0	44	0	1380974592	5	3824
2026-01-16 15:16:17.18	194.50	28.50	-22.3	-22.8	18.4	0.00e+00	0	44	0	1388314624	5	3817
2026-01-16 15:16:18.19	194.65	28.66	-22.1	-23.1	18.4	0.00e+00	0	44	0	1395654656	4	4003
2026-01-16 15:16:19.19	194.80	28.82	-22.1	-22.9	18.5	0.00e+00	0	44	0	1402994688	4	3950
2026-01-16 15:16:20.19	194.96	28.99	-22.1	-22.9	18.5	0.00e+00	0	44	0	1410334720	4	3970
2026-01-16 15:16:21.20	195.11	29.15	-22.1	-23.0	18.5	0.00e+00	0	44	0	1417674752	4	3984
2026-01-16 15:16:22.21	195.27	29.32	-21.8	-22.4	18.7	0.00e+00	0	44	0	1425014784	4	3853
2026-01-16 15:16:23.21	195.43	29.49	-21.8	-22.9	18.7	0.00e+00	0	44	0	1432354816	3	4082
2026-01-16 15:16:24.21	195.59	29.65	-21.9	-23.2	18.6	0.00e+00	0	44	0	1439694848	3	4152
2026-01-16 15:16:25.21	195.75	29.82	-21.9	-23.1	18.6	0.00e+00	0	44	0	1445986304	3	4128
2026-01-16 15:16:26.21	195.92	29.99	-21.9	-23.2	18.6	0.00e+00	0	44	0	1453326336	3	4155
2026-01-16 15:16:27.21	196.08	30.16	-21.9	-22.7	18.5	0.00e+00	0	44	0	1460666368	4	3922
2026-01-16 15:16:28.22	196.25	30.33	-22.1	-23.1	18.2	0.00e+00	0	44	0	1468006400	4	4038
2026-01-16 15:16:29.22	196.42	30.50	-22.1	-23.0	18.3	0.00e+00	0	44	0	1475346432	4	4018
2026-01-16 15:16:30.22	196.59	30.67	-22.1	-23.1	18.3	0.00e+00	0	44	0	1482686464	4	4036
2026-01-16 15:16:31.22	196.76	30.84	-22.2	-23.3	18.2	0.00e+00	0	44	0	1490026496	4	4072
2026-01-16 15:16:32.23	196.94	31.02	-22.2	-23.2	18.2	0.00e+00	0	44	0	1497366528	4	4055
2026-01-16 15:16:33.23	197.12	31.19	-22.3	-23.5	18.1	0.00e+00	0	43	0	1504706560	4	4132
2026-01-16 15:16:34.24	197.30	31.36	-22.3	-23.5	18.1	0.00e+00	0	44	0	1510998016	4	4115
2026-01-16 15:16:35.24	197.48	31.54	-22.4	-23.5	18.2	1.10e-06	0	44	0	1518338048	4	4121
2026-01-16 15:16:36.24	197.66	31.71	-22.5	-23.7	18.1	0.00e+00	0	44	0	1525678080	4	4162
2026-01-16 15:16:37.24	197.84	31.89	-22.3	-23.5	18.2	0.00e+00	0	44	0	1533018112	4	4097
2026-01-16 15:16:38.24	198.03	32.07	-22.4	-23.6	18.2	0.00e+00	0	44	0	1540358144	4	4118
2026-01-16 15:16:39.24	198.21	32.25	-22.4	-23.0	18.2	0.00e+00	0	44	0	1547698176	5	3866
2026-01-16 15:16:40.25	198.41	32.43	-22.5	-23.3	18.1	0.00e+00	0	44	0	1555038208	5	3942
2026-01-16 15:16:41.25	198.60	32.61	-22.5	-23.3	18.2	0.00e+00	0	44	0	1562378240	5	3916
2026-01-16 15:16:42.26	198.79	32.79	-22.4	-23.0	18.3	0.00e+00	0	44	0	1569718272	5	3855
2026-01-16 15:16:43.26	198.99	32.97	-22.5	-23.3	18.1	0.00e+00	0	44	0	1577058304	5	3924
2026-01-16 15:16:44.26	199.19	33.15	-22.3	-22.8	18.4	0.00e+00	0	44	0	1584398336	5	3812
2026-01-16 15:16:45.26	199.39	33.33	-22.4	-23.0	18.3	0.00e+00	0	44	0	1591738368	5	3865
2026-01-16 15:16:46.27	199.59	33.52	-22.4	-23.0	18.2	0.00e+00	0	44	0	1598029824	5	3881
2026-01-16 15:16:47.27	199.80	33.70	-22.4	-23.1	18.2	0.00e+00	0	44	0	1605369856	5	3909
2026-01-16 15:16:48.27	200.00	33.88	-22.4	-23.1	18.2	0.00e+00	0	44	0	1612709888	5	3913
2026-01-16 15:16:49.27	200.21	34.07	-22.2	-22.7	18.4	0.00e+00	0	44	0	1620049920	5	3802
2026-01-16 15:16:50.27	200.43	34.25	-22.2	-22.7	18.3	0.00e+00	0	44	0	1627389952	5	3817
2026-01-16 15:16:51.27	200.64	34.44	-22.0	-22.3	18.6	0.00e+00	0	44	0	1634729984	5	3725
2026-01-16 15:16:52.27	200.86	34.63	-22.1	-22.5	18.5	0.00e+00	0	44	0	1642070016	5	3770
2026-01-16 15:16:53.28	201.08	34.82	-22.4	-23.1	18.2	0.00e+00	0	44	0	1649410048	5	3916
2026-01-16 15:16:54.28	201.30	35.01	-22.3	-23.1	18.2	0.00e+00	0	44	0	1655701504	5	3909
2026-01-16 15:16:55.28	201.52	35.19	-22.4	-23.1	18.2	0.00e+00	0	44	0	1663041536	5	3902
2026-01-16 15:16:56.29	201.75	35.39	-22.3	-22.9	18.3	1.10e-06	0	44	0	1670381568	5	3865
2026-01-16 15:16:57.29	201.98	35.58	-22.3	-23.0	18.3	0.00e+00	0	44	0	1677721600	5	3889
2026-01-16 15:16:58.28	202.21	35.77	-22.1	-22.5	18.6	0.00e+00	0	44	0	1685061632	5	3766
2026-01-16 15:16:59.29	202.45	35.96	-22.2	-22.6	18.5	0.00e+00	0	44	0	1692401664	5	3780
2026-01-16 15:17:00.29	202.68	36.15	-22.3	-22.9	18.4	0.00e+00	0	44	0	1699741696	5	3836
2026-01-16 15:17:01.30	202.93	36.35	-22.4	-23.1	18.3	0.00e+00	0	44	0	1707081728	5	3887
2026-01-16 15:17:02.29	203.17	36.54	-22.2	-22.7	18.5	0.00e+00	0	44	0	1714421760	5	3792
2026-01-16 15:17:03.30	203.41	36.73	-22.3	-22.8	18.4	0.00e+00	0	44	0	1720713216	5	3830
2026-01-16 15:17:04.30	203.66	36.93	-22.1	-22.5	18.6	0.00e+00	0	44	0	1729101824	5	3747
2026-01-16 15:17:05.30	203.91	37.12	-22.0	-22.1	18.7	0.00e+00	0	44	0	1736441856	5	3664
2026-01-16 15:17:06.29	204.17	37.32	-22.5	-23.3	18.1	0.00e+00	0	44	0	1742733312	5	3959
2026-01-16 15:17:07.29	204.42	37.51	-22.6	-23.5	18.0	0.00e+00	0	44	0	1750073344	5	4009
2026-01-16 15:17:08.29	204.68	37.71	-22.5	-23.3	18.1	0.00e+00	0	44	0	1757413376	5	3965
2026-01-16 15:17:09.30	204.95	37.91	-22.4	-23.0	18.2	0.00e+00	0	44	0	1764753408	5	3891
2026-01-16 15:17:10.30	205.22	38.11	-22.4	-23.2	18.1	0.00e+00	0	44	0	1772093440	5	3937
2026-01-16 15:17:11.30	205.49	38.30	-22.7	-23.7	17.9	0.00e+00	0	44	0	1779433472	5	4057
2026-01-16 15:17:12.31	205.76	38.51	-22.7	-23.8	17.9	0.00e+00	0	44	0	1786773504	5	4074
2026-01-16 15:17:13.31	206.04	38.70	-22.6	-23.5	18.0	0.00e+00	0	44	0	1794113536	5	4000
2026-01-16 15:17:14.31	206.32	38.90	-22.6	-23.5	18.0	0.00e+00	0	43	0	1800404992	5	3996
2026-01-16 15:17:15.31	206.60	39.10	-22.6	-23.6	18.0	0.00e+00	0	44	0	1807745024	5	4007
2026-01-16 15:17:16.31	206.89	39.30	-22.7	-23.7	18.0	0.00e+00	0	44	0	1815085056	5	4040
2026-01-16 15:17:17.31	207.18	39.50	-22.7	-23.6	18.1	0.00e+00	0	44	0	1822425088	5	3999
2026-01-16 15:17:18.32	207.48	39.71	-22.6	-23.4	18.3	0.00e+00	0	44	0	1829765120	5	3938
2026-01-16 15:17:19.32	207.77	39.91	-22.6	-23.4	18.3	0.00e+00	0	44	0	1837105152	5	3951
2026-01-16 15:17:20.32	208.07	40.11	-22.7	-23.6	18.2	0.00e+00	0	44	0	1844445184	5	3994
2026-01-16 15:17:21.32	208.38	40.31	-23.3	-23.8	18.4	0.00e+00	0	44	0	1851785216	6	3823
2026-01-16 15:17:22.33	208.69	40.52	-23.1	-23.5	18.6	0.00e+00	0	44	0	1859125248	6	3750
2026-01-16 15:17:23.32	209.00	40.72	-23.3	-23.8	18.5	0.00e+00	0	44	0	1865416704	6	3818
2026-01-16 15:17:24.33	209.32	40.92	-23.3	-23.8	18.5	0.00e+00	0	44	0	1872756736	6	3819
2026-01-16 15:17:25.33	209.64	41.12	-23.5	-24.2	18.2	0.00e+00	0	44	0	1880096768	6	3919
2026-01-16 15:17:26.34	209.97	41.33	-23.6	-23.9	18.1	0.00e+00	0	44	0	1887436800	7	3753
2026-01-16 15:17:27.34	210.30	41.53	-23.5	-23.8	18.2	0.00e+00	0	44	0	1894776832	7	3708
2026-01-16 15:17:28.35	210.63	41.74	-23.6	-23.9	18.2	0.00e+00	0	44	0	1902116864	7	3750
2026-01-16 15:17:29.35	210.97	41.94	-23.6	-23.9	18.2	0.00e+00	0	44	0	1909456896	7	3746
2026-01-16 15:17:30.36	211.31	42.15	-23.5	-23.8	18.3	0.00e+00	0	44	0	1916796928	7	3718
2026-01-16 15:17:31.36	211.66	42.35	-23.4	-23.6	18.3	0.00e+00	0	44	0	1924136960	7	3673
2026-01-16 15:17:32.36	212.01	42.55	-23.7	-24.3	18.0	0.00e+00	0	44	0	1931476992	7	3819
2026-01-16 15:17:33.36	212.36	42.76	-23.4	-23.5	18.4	0.00e+00	0	44	0	1938817024	7	3643
2026-01-16 15:17:34.37	212.72	42.96	-23.4	-23.4	18.4	0.00e+00	0	44	0	1946157056	7	3635
2026-01-16 15:17:35.37	213.08	43.16	-23.5	-23.8	18.2	0.00e+00	0	44	0	1952448512	7	3718
2026-01-16 15:17:36.37	213.45	43.37	-23.5	-23.8	18.3	0.00e+00	0	44	0	1959788544	7	3698
2026-01-16 15:17:37.37	213.82	43.57	-23.6	-23.9	18.2	0.00e+00	0	44	0	1967128576	7	3745
2026-01-16 15:17:38.38	214.20	43.77	-23.9	-24.5	17.9	0.00e+00	0	44	0	1974468608	7	3877
2026-01-16 15:17:39.38	214.59	43.98	-24.1	-24.6	17.6	0.00e+00	0	44	0	1981808640	8	3793
2026-01-16 15:17:40.38	214.97	44.18	-23.9	-24.1	17.9	0.00e+00	0	44	0	1989148672	8	3682
2026-01-16 15:17:41.38	215.36	44.38	-23.5	-23.3	18.3	0.00e+00	0	44	0	1996488704	8	3500
2026-01-16 15:17:42.37	215.75	44.58	-23.5	-23.2	18.4	0.00e+00	0	44	0	2003828736	8	3480
2026-01-16 15:17:43.37	216.16	44.78	-23.5	-23.1	18.4	0.00e+00	0	44	0	2010120192	8	3467
2026-01-16 15:17:44.37	216.56	44.98	-23.6	-23.5	18.2	0.00e+00	0	44	0	2017460224	8	3557
2026-01-16 15:17:45.37	216.97	45.18	-23.6	-23.5	18.2	0.00e+00	0	44	0	2024800256	8	3543
2026-01-16 15:17:46.37	217.39	45.37	-23.8	-23.9	18.0	0.00e+00	0	44	0	2032140288	8	3627
2026-01-16 15:17:47.37	217.81	45.57	-23.6	-23.5	18.1	0.00e+00	0	44	0	2039480320	8	3559
2026-01-16 15:17:48.38	218.24	45.77	-23.6	-23.9	18.2	0.00e+00	0	44	0	2046820352	7	3725
2026-01-16 15:17:49.38	218.67	45.97	-23.6	-24.0	18.2	0.00e+00	0	44	0	2054160384	7	3752
2026-01-16 15:17:50.37	219.10	46.16	-23.5	-23.8	18.3	0.00e+00	0	44	0	2061500416	7	3704
2026-01-16 15:17:51.37	219.55	46.36	-23.4	-23.5	18.4	0.00e+00	0	44	0	2068840448	7	3656
2026-01-16 15:17:52.37	219.99	46.55	-23.5	-23.7	18.4	0.00e+00	0	44	0	2075131904	7	3680
2026-01-16 15:17:53.37	220.45	46.74	-23.4	-23.6	18.4	0.00e+00	0	44	0	2082471936	7	3665
2026-01-16 15:17:54.38	220.91	46.94	-23.5	-23.7	18.4	0.00e+00	0	44	0	2089811968	7	3682
2026-01-16 15:17:55.38	221.37	47.13	-23.5	-23.7	18.3	0.00e+00	0	44	0	2097152000	7	3679
2026-01-16 15:17:56.38	221.84	47.32	-23.6	-23.9	18.2	0.00e+00	0	44	0	2104492032	7	3727
2026-01-16 15:17:57.38	222.32	47.50	-24.0	-24.9	17.7	0.00e+00	0	44	0	2111832064	7	3965
2026-01-16 15:17:58.38	222.80	47.69	-24.2	-24.7	17.5	0.00e+00	0	44	0	2119172096	8	3811
2026-01-16 15:17:59.39	223.29	47.88	-24.2	-24.7	17.6	0.00e+00	0	44	0	2126512128	8	3822
2026-01-16 15:18:00.39	223.79	48.06	-24.0	-24.3	17.8	0.00e+00	0	44	0	2133852160	8	3711
2026-01-16 15:18:01.39	224.29	48.24	-24.3	-24.8	17.6	0.00e+00	0	44	0	2140143616	8	3848
2026-01-16 15:18:02.40	224.80	48.43	-24.4	-25.1	17.4	0.00e+00	0	44	0	2147483648	8	3900
2026-01-16 15:18:03.40	225.31	48.61	-24.5	-25.3	17.3	0.00e+00	0	44	0	2154823680	8	3966
2026-01-16 15:18:04.40	225.82	48.78	-24.6	-25.1	17.2	0.00e+00	0	44	0	2162163712	9	3802
2026-01-16 15:18:05.40	226.34	48.96	-24.7	-25.3	17.1	0.00e+00	0	44	0	2169503744	9	3838
2026-01-16 15:18:06.40	226.87	49.13	-24.5	-24.9	17.3	0.00e+00	0	44	0	2176843776	9	3745
2026-01-16 15:18:07.40	227.41	49.31	-24.3	-24.4	17.5	0.00e+00	0	44	0	2184183808	9	3635
2026-01-16 15:18:08.40	227.95	49.48	-24.4	-24.6	17.5	0.00e+00	0	44	0	2191523840	9	3678
2026-01-16 15:18:09.40	228.49	49.64	-24.5	-24.9	17.3	0.00e+00	0	44	0	2197815296	9	3759
2026-01-16 15:18:10.40	229.04	49.81	-24.7	-25.2	17.1	0.00e+00	0	44	0	2205155328	9	3823
2026-01-16 15:18:11.39	229.60	49.97	-25.0	-25.3	16.8	0.00e+00	0	44	0	2212495360	10	3742
2026-01-16 15:18:12.39	230.16	50.13	-24.8	-24.8	17.1	0.00e+00	0	44	0	2219835392	10	3635
2026-01-16 15:18:13.39	230.73	50.29	-24.6	-24.6	17.2	0.00e+00	0	44	0	2227175424	10	3580
2026-01-16 15:18:14.39	231.31	50.45	-24.5	-24.4	17.3	0.00e+00	0	44	0	2234515456	10	3552
2026-01-16 15:18:15.39	231.89	50.60	-24.5	-24.8	17.4	0.00e+00	0	44	0	2241855488	9	3722
2026-01-16 15:18:16.39	232.47	50.76	-24.3	-24.5	17.6	0.00e+00	0	44	0	2249195520	9	3655
2026-01-16 15:18:17.39	233.07	50.90	-24.2	-24.1	17.7	0.00e+00	0	44	0	2256535552	9	3574
2026-01-16 15:18:18.39	233.67	51.05	-24.2	-24.3	17.6	0.00e+00	0	44	0	2262827008	9	3603
2026-01-16 15:18:19.39	234.27	51.19	-24.2	-24.1	17.7	0.00e+00	0	44	0	2270167040	9	3580
2026-01-16 15:18:20.38	234.88	51.33	-24.2	-24.3	17.7	0.00e+00	0	44	0	2277507072	9	3608
2026-01-16 15:18:21.38	235.49	51.47	-24.3	-24.4	17.6	0.00e+00	0	44	0	2284847104	9	3632
2026-01-16 15:18:22.38	236.11	51.61	-24.4	-24.7	17.4	0.00e+00	0	44	0	2292187136	9	3715
2026-01-16 15:18:23.38	236.74	51.74	-24.4	-24.7	17.5	0.00e+00	0	44	0	2299527168	9	3699
2026-01-16 15:18:24.38	237.37	51.87	-24.2	-24.2	17.7	0.00e+00	0	44	0	2306867200	9	3583
2026-01-16 15:18:25.37	238.00	51.99	-24.1	-23.9	17.8	0.00e+00	0	44	0	2314207232	9	3531
2026-01-16 15:18:26.38	238.65	52.11	-24.1	-24.0	17.8	0.00e+00	0	44	0	2321547264	9	3557
2026-01-16 15:18:27.38	239.30	52.23	-24.3	-24.4	17.6	0.00e+00	0	44	0	2327838720	9	3643
2026-01-16 15:18:28.38	239.96	52.34	-24.5	-24.8	17.4	0.00e+00	0	44	0	2335178752	9	3739
2026-01-16 15:18:29.38	240.61	52.46	-24.8	-25.5	17.0	0.00e+00	0	44	0	2342518784	9	3890
2026-01-16 15:18:30.37	241.27	52.56	-24.9	-25.6	17.0	0.00e+00	0	44	0	2349858816	9	3913
2026-01-16 15:18:31.38	241.95	52.67	-24.8	-25.5	17.0	0.00e+00	0	44	0	2357198848	9	3882
2026-01-16 15:18:32.39	242.62	52.77	-24.9	-25.7	16.9	0.00e+00	0	44	0	2364538880	9	3937
2026-01-16 15:18:33.40	243.31	52.87	-25.1	-25.6	16.7	0.00e+00	0	44	0	2371878912	10	3811
2026-01-16 15:18:34.40	243.99	52.96	-24.9	-25.2	16.9	0.00e+00	0	44	0	2379218944	10	3722
2026-01-16 15:18:35.40	244.68	53.05	-24.7	-24.7	17.2	0.00e+00	0	44	0	2385510400	10	3613
2026-01-16 15:18:36.40	245.37	53.13	-24.7	-24.8	17.1	0.00e+00	0	44	0	2393899008	10	3633
2026-01-16 15:18:37.40	246.06	53.21	-24.8	-25.0	17.0	0.00e+00	0	44	0	2400190464	10	3681
2026-01-16 15:18:38.40	246.76	53.29	-24.7	-24.8	17.1	0.00e+00	0	44	0	2407530496	10	3636
2026-01-16 15:18:39.40	247.46	53.36	-24.7	-24.6	17.2	0.00e+00	0	44	0	2414870528	10	3594
2026-01-16 15:18:40.40	248.16	53.43	-24.7	-24.8	17.1	0.00e+00	0	44	0	2422210560	10	3633
2026-01-16 15:18:41.40	248.87	53.49	-24.7	-24.7	17.2	0.00e+00	0	44	0	2429550592	10	3591
2026-01-16 15:18:42.40	249.58	53.55	-24.5	-24.3	17.4	0.00e+00	0	44	0	2436890624	10	3513
2026-01-16 15:18:43.41	250.30	53.61	-24.6	-24.5	17.3	0.00e+00	0	44	0	2444230656	10	3560
2026-01-16 15:18:44.41	251.01	53.66	-24.5	-24.3	17.4	0.00e+00	0	44	0	2451570688	10	3526
2026-01-16 15:18:45.42	251.74	53.70	-24.5	-24.3	17.5	0.00e+00	0	44	0	2458910720	10	3514
2026-01-16 15:18:46.42	252.46	53.75	-24.4	-24.6	17.4	0.00e+00	0	44	0	2466250752	9	3685
2026-01-16 15:18:47.43	253.19	53.78	-24.5	-24.9	17.4	0.00e+00	0	44	0	2472542208	9	3744
2026-01-16 15:18:48.43	253.91	53.82	-24.6	-25.1	17.2	0.00e+00	0	44	0	2479882240	9	3792
2026-01-16 15:18:49.44	254.65	53.84	-24.6	-25.0	17.3	0.00e+00	0	44	0	2487222272	9	3764
2026-01-16 15:18:50.45	255.38	53.87	-24.5	-24.9	17.4	0.00e+00	0	44	0	2494562304	9	3756
2026-01-16 15:18:51.45	256.11	53.89	-24.4	-24.7	17.5	0.00e+00	0	44	0	2501902336	9	3701
2026-01-16 15:18:52.45	256.84	53.90	-24.3	-24.4	17.6	0.00e+00	0	44	0	2509242368	9	3635
2026-01-16 15:18:53.46	257.57	53.91	-24.4	-24.5	17.5	0.00e+00	0	44	0	2516582400	9	3662
2026-01-16 15:18:54.46	258.30	53.92	-24.5	-24.8	17.4	0.00e+00	0	44	0	2523922432	9	3716
2026-01-16 15:18:55.46	259.03	53.92	-24.5	-24.8	17.4	0.00e+00	0	44	0	2531262464	9	3722
2026-01-16 15:18:56.47	259.77	53.91	-24.8	-25.5	17.1	0.00e+00	0	44	0	2538602496	9	3890
2026-01-16 15:18:57.46	260.49	53.90	-25.0	-25.3	16.9	0.00e+00	0	44	0	2545942528	10	3735
2026-01-16 15:18:58.47	261.23	53.89	-24.9	-25.1	17.0	0.00e+00	0	44	0	2553282560	10	3705
2026-01-16 15:18:59.47	261.95	53.87	-24.9	-25.3	16.9	0.00e+00	0	44	0	2559574016	10	3729
2026-01-16 15:19:00.47	262.68	53.85	-24.9	-25.3	16.9	0.00e+00	0	44	0	2566914048	10	3734
2026-01-16 15:19:01.47	263.41	53.82	-24.7	-24.7	17.2	0.00e+00	0	44	0	2574254080	10	3605
2026-01-16 15:19:02.48	264.14	53.79	-24.5	-24.3	17.5	0.00e+00	0	44	0	2581594112	10	3513
2026-01-16 15:19:03.48	264.86	53.76	-24.5	-24.3	17.4	0.00e+00	0	44	0	2588934144	10	3530
2026-01-16 15:19:04.49	265.59	53.71	-24.7	-24.9	17.2	0.00e+00	0	44	0	2596274176	10	3646
2026-01-16 15:19:05.49	266.30	53.67	-24.8	-25.0	17.1	0.00e+00	0	44	0	2603614208	10	3669
2026-01-16 15:19:06.49	267.02	53.62	-24.9	-25.1	17.0	0.00e+00	0	44	0	2610954240	10	3707
2026-01-16 15:19:07.49	267.73	53.57	-24.7	-24.8	17.2	0.00e+00	0	44	0	2617245696	10	3634
2026-01-16 15:19:08.50	268.45	53.51	-24.6	-24.6	17.3	0.00e+00	0	44	0	2624585728	10	3575
2026-01-16 15:19:09.50	269.16	53.44	-24.8	-24.9	17.1	0.00e+00	0	44	0	2631925760	10	3643
2026-01-16 15:19:10.50	269.86	53.38	-24.9	-25.1	17.0	0.00e+00	0	44	0	2639265792	10	3688
2026-01-16 15:19:11.50	270.56	53.31	-24.6	-24.4	17.3	0.00e+00	0	44	0	2646605824	10	3546
2026-01-16 15:19:12.51	271.27	53.23	-24.5	-24.4	17.4	1.10e-06	0	44	0	2653945856	10	3536
2026-01-16 15:19:13.50	271.95	53.15	-24.7	-24.7	17.2	0.00e+00	0	44	0	2661285888	10	3601
2026-01-16 15:19:14.51	272.65	53.07	-24.6	-24.5	17.3	0.00e+00	0	44	0	2668625920	10	3552
2026-01-16 15:19:15.51	273.34	52.98	-24.5	-24.4	17.3	0.00e+00	0	44	0	2675965952	10	3537
2026-01-16 15:19:16.52	274.03	52.89	-24.8	-24.9	17.0	0.00e+00	0	44	0	2683305984	10	3660
2026-01-16 15:19:17.52	274.70	52.79	-25.1	-25.6	16.7	0.00e+00	0	44	0	2690646016	10	3818
2026-01-16 15:19:18.52	275.38	52.69	-25.2	-25.7	16.6	0.00e+00	0	44	0	2697986048	10	3840
2026-01-16 15:19:19.52	276.04	52.59	-25.1	-25.5	16.8	0.00e+00	0	44	0	2704277504	10	3790
2026-01-16 15:19:20.53	276.71	52.48	-24.6	-24.6	17.3	0.00e+00	0	44	0	2711617536	10	3576
2026-01-16 15:19:21.53	277.37	52.37	-24.5	-24.4	17.3	0.00e+00	0	44	0	2718957568	10	3547
2026-01-16 15:19:22.54	278.03	52.26	-24.5	-24.9	17.4	0.00e+00	0	44	0	2726297600	9	3743
2026-01-16 15:19:23.55	278.69	52.14	-24.5	-24.8	17.4	0.00e+00	0	44	0	2733637632	9	3733
2026-01-16 15:19:24.54	279.33	52.02	-24.2	-24.2	17.7	0.00e+00	0	44	0	2740977664	9	3583
2026-01-16 15:19:25.54	279.96	51.89	-24.3	-24.4	17.6	0.00e+00	0	44	0	2748317696	9	3630
2026-01-16 15:19:26.54	280.60	51.77	-24.4	-24.6	17.5	0.00e+00	0	44	0	2755657728	9	3678
2026-01-16 15:19:27.53	281.22	51.64	-24.5	-24.7	17.5	0.00e+00	0	44	0	2761949184	9	3706
2026-01-16 15:19:28.53	281.84	51.50	-24.5	-24.8	17.4	0.00e+00	0	44	0	2769289216	9	3719
2026-01-16 15:19:29.52	282.45	51.37	-24.4	-24.6	17.4	0.00e+00	0	44	0	2776629248	9	3694
2026-01-16 15:19:30.53	283.07	51.23	-24.4	-24.7	17.5	0.00e+00	0	44	0	2783969280	9	3698
2026-01-16 15:19:31.52	283.66	51.09	-24.5	-24.9	17.4	0.00e+00	0	44	0	2791309312	9	3748
2026-01-16 15:19:32.52	284.26	50.94	-24.5	-24.8	17.4	0.00e+00	0	44	0	2798649344	9	3738
2026-01-16 15:19:33.52	284.86	50.79	-24.5	-24.8	17.4	0.00e+00	0	44	0	2805989376	9	3734
2026-01-16 15:19:34.52	285.45	50.64	-24.6	-25.0	17.3	0.00e+00	0	44	0	2813329408	9	3764
2026-01-16 15:19:35.52	286.03	50.49	-24.7	-25.2	17.2	0.00e+00	0	44	0	2820669440	9	3820
2026-01-16 15:19:36.52	286.60	50.33	-24.5	-24.8	17.4	0.00e+00	0	44	0	2826960896	9	3738
2026-01-16 15:19:37.52	287.17	50.18	-24.6	-24.9	17.3	0.00e+00	0	44	0	2834300928	9	3756
2026-01-16 15:19:38.52	287.74	50.02	-24.4	-24.6	17.5	0.00e+00	0	44	0	2841640960	9	3692
2026-01-16 15:19:39.53	288.30	49.85	-24.4	-24.6	17.4	0.00e+00	0	44	0	2848980992	9	3691
2026-01-16 15:19:40.53	288.85	49.69	-24.4	-24.6	17.5	0.00e+00	0	44	0	2856321024	9	3672
2026-01-16 15:19:41.53	289.40	49.52	-24.4	-24.6	17.5	0.00e+00	0	44	0	2863661056	9	3678
2026-01-16 15:19:42.53	289.94	49.35	-24.4	-24.6	17.5	0.00e+00	0	44	0	2871001088	9	3681
2026-01-16 15:19:43.53	290.47	49.18	-24.3	-24.3	17.7	0.00e+00	0	44	0	2878341120	9	3616
2026-01-16 15:19:44.53	291.00	49.01	-24.0	-23.6	18.0	0.00e+00	0	44	0	2885681152	9	3470
2026-01-16 15:19:45.53	291.52	48.83	-24.0	-24.2	17.9	0.00e+00	0	44	0	2891972608	8	3700
2026-01-16 15:19:46.53	292.04	48.65	-24.0	-24.2	17.9	0.00e+00	0	44	0	2899312640	8	3685
2026-01-16 15:19:47.54	292.56	48.47	-23.9	-24.0	18.1	0.00e+00	0	44	0	2906652672	8	3657
2026-01-16 15:19:48.54	293.06	48.29	-24.0	-24.2	18.0	0.00e+00	0	44	0	2913992704	8	3694
2026-01-16 15:19:49.55	293.57	48.11	-24.0	-24.2	18.0	0.00e+00	0	44	0	2921332736	8	3705
2026-01-16 15:19:50.55	294.06	47.93	-24.1	-24.4	17.9	0.00e+00	0	44	0	2928672768	8	3730
2026-01-16 15:19:51.55	294.55	47.74	-24.1	-24.4	17.8	0.00e+00	0	44	0	2936012800	8	3747
2026-01-16 15:19:52.55	295.03	47.56	-24.1	-24.5	17.8	0.00e+00	0	44	0	2943352832	8	3770
2026-01-16 15:19:53.56	295.51	47.37	-24.1	-24.4	17.9	0.00e+00	0	44	0	2950692864	8	3745
2026-01-16 15:19:54.56	295.98	47.18	-24.0	-24.4	17.9	0.00e+00	0	44	0	2958032896	8	3734
2026-01-16 15:19:55.57	296.45	46.99	-24.1	-24.4	17.9	0.00e+00	0	44	0	2965372928	8	3739
2026-01-16 15:19:56.57	296.91	46.80	-23.9	-24.1	17.9	0.00e+00	0	44	0	2971664384	8	3682
2026-01-16 15:19:57.57	297.36	46.61	-23.8	-23.8	18.1	0.00e+00	0	44	0	2979004416	8	3606
2026-01-16 15:19:58.57	297.81	46.41	-23.8	-23.9	18.0	0.00e+00	0	44	0	2986344448	8	3638
2026-01-16 15:19:59.57	298.25	46.22	-24.0	-24.2	18.0	0.00e+00	0	44	0	2993684480	8	3696
2026-01-16 15:20:00.57	298.69	46.02	-24.0	-24.3	17.8	0.00e+00	0	44	0	3001024512	8	3723
2026-01-16 15:20:01.57	299.12	45.83	-23.8	-23.8	18.1	0.00e+00	0	44	0	3008364544	8	3614
2026-01-16 15:20:02.57	299.55	45.63	-23.7	-23.5	18.3	0.00e+00	0	44	0	3015704576	8	3551
2026-01-16 15:20:03.58	299.97	45.43	-23.8	-23.7	18.2	0.00e+00	0	44	0	3023044608	8	3593
2026-01-16 15:20:04.57	300.38	45.24	-23.9	-24.0	18.0	0.00e+00	0	44	0	3030384640	8	3653
2026-01-16 15:20:05.58	300.80	45.04	-23.8	-23.9	18.1	0.00e+00	0	44	0	3036676096	8	3639
2026-01-16 15:20:06.58	301.20	44.84	-23.7	-23.5	18.3	0.00e+00	0	44	0	3044016128	8	3552
2026-01-16 15:20:07.59	301.61	44.64	-23.5	-23.2	18.5	0.00e+00	0	44	0	3051356160	8	3472
2026-01-16 15:20:08.59	302.01	44.44	-23.5	-23.2	18.4	0.00e+00	0	44	0	3058696192	8	3484
2026-01-16 15:20:09.59	302.40	44.24	-23.4	-23.1	18.5	0.00e+00	0	44	0	3066036224	8	3453
2026-01-16 15:20:10.59	302.78	44.04	-23.2	-23.1	18.7	0.00e+00	0	44	0	3073376256	7	3562
2026-01-16 15:20:11.60	303.17	43.83	-23.1	-22.9	18.8	0.00e+00	0	44	0	3080716288	7	3512
2026-01-16 15:20:12.61	303.55	43.63	-23.0	-22.7	18.9	0.00e+00	0	44	0	3088056320	7	3477
2026-01-16 15:20:13.61	303.92	43.43	-23.0	-22.6	18.9	0.00e+00	0	44	0	3095396352	7	3456
2026-01-16 15:20:14.61	304.29	43.23	-23.0	-22.6	19.0	0.00e+00	0	44	0	3102736384	7	3459
2026-01-16 15:20:15.61	304.65	43.03	-23.1	-22.8	18.9	0.00e+00	0	44	0	3110076416	7	3487
2026-01-16 15:20:16.61	305.01	42.82	-23.2	-23.1	18.7	0.00e+00	0	44	0	3116367872	7	3551
2026-01-16 15:20:17.61	305.36	42.62	-23.3	-23.3	18.6	0.00e+00	0	44	0	3123707904	7	3602
2026-01-16 15:20:18.61	305.71	42.42	-23.5	-23.7	18.4	0.00e+00	0	44	0	3131047936	7	3694
2026-01-16 15:20:19.61	306.06	42.22	-23.6	-23.9	18.1	0.00e+00	0	44	0	3138387968	7	3722
2026-01-16 15:20:20.61	306.40	42.01	-23.8	-24.3	18.1	0.00e+00	0	44	0	3145728000	7	3836
2026-01-16 15:20:21.61	306.73	41.81	-23.8	-24.3	18.1	0.00e+00	0	44	0	3153068032	7	3835
2026-01-16 15:20:22.62	307.07	41.61	-23.7	-24.1	18.2	0.00e+00	0	44	0	3160408064	7	3790
2026-01-16 15:20:23.62	307.40	41.41	-23.4	-23.4	18.5	0.00e+00	0	44	0	3167748096	7	3632
2026-01-16 15:20:24.63	307.73	41.20	-23.2	-23.1	18.6	0.00e+00	0	44	0	3175088128	7	3551
2026-01-16 15:20:25.63	308.05	41.00	-23.4	-23.4	18.5	0.00e+00	0	44	0	3181379584	7	3625
2026-01-16 15:20:26.63	308.36	40.80	-23.3	-23.3	18.6	0.00e+00	0	44	0	3188719616	7	3601
2026-01-16 15:20:27.63	308.68	40.60	-23.4	-23.6	18.5	0.00e+00	0	44	0	3196059648	7	3655
2026-01-16 15:20:28.64	308.99	40.39	-23.6	-23.9	18.3	0.00e+00	0	44	0	3203399680	7	3725
2026-01-16 15:20:29.65	309.30	40.19	-23.7	-24.2	18.1	0.00e+00	0	44	0	3210739712	7	3800
2026-01-16 15:20:30.65	309.60	39.99	-23.8	-24.3	18.0	0.00e+00	0	44	0	3218079744	7	3814
2026-01-16 15:20:31.65	309.89	39.79	-23.6	-24.0	18.3	0.00e+00	0	44	0	3225419776	7	3749
2026-01-16 15:20:32.66	310.19	39.59	-23.6	-24.0	18.2	0.00e+00	0	44	0	3232759808	7	3764
2026-01-16 15:20:33.66	310.48	39.39	-23.5	-23.7	18.4	0.00e+00	0	44	0	3240099840	7	3684
2026-01-16 15:20:34.67	310.77	39.19	-23.3	-23.2	18.6	0.00e+00	0	44	0	3247439872	7	3593
2026-01-16 15:20:35.67	311.06	38.99	-23.1	-23.0	18.7	0.00e+00	0	44	0	3254779904	7	3534
2026-01-16 15:20:36.67	311.34	38.79	-23.1	-22.9	18.7	0.00e+00	0	44	0	3262119936	7	3529
2026-01-16 15:20:37.67	311.61	38.59	-23.1	-22.9	18.8	0.00e+00	0	44	0	3268411392	7	3516
2026-01-16 15:20:38.66	311.88	38.39	-23.0	-22.7	18.8	0.00e+00	0	44	0	3275751424	7	3482
2026-01-16 15:20:39.66	312.15	38.20	-23.1	-22.9	18.7	0.00e+00	0	44	0	3283091456	7	3512
2026-01-16 15:20:40.66	312.42	38.00	-23.2	-23.0	18.3	0.00e+00	0	44	0	3290431488	7	3528
2026-01-16 15:20:41.66	312.68	37.80	-23.3	-23.2	18.6	0.00e+00	0	44	0	3297771520	7	3581
2026-01-16 15:20:42.65	312.94	37.61	-23.4	-23.5	18.4	0.00e+00	0	44	0	3305111552	7	3646
2026-01-16 15:20:43.66	313.20	37.41	-23.3	-23.2	18.5	0.00e+00	0	44	0	3312451584	7	3585
2026-01-16 15:20:44.67	313.46	37.21	-23.2	-23.0	18.7	0.00e+00	0	44	0	3319791616	7	3543
2026-01-16 15:20:45.67	313.71	37.02	-23.2	-23.1	18.6	0.00e+00	0	44	0	3326083072	7	3558
2026-01-16 15:20:46.67	313.96	36.83	-23.1	-22.9	18.6	0.00e+00	0	44	0	3333423104	7	3527
2026-01-16 15:20:47.67	314.21	36.63	-23.3	-23.3	18.5	0.00e+00	0	44	0	3340763136	7	3613
2026-01-16 15:20:48.67	314.45	36.44	-23.4	-23.5	18.4	0.00e+00	0	44	0	3348103168	7	3646
2026-01-16 15:20:49.66	314.69	36.25	-23.5	-23.7	18.3	0.00e+00	0	44	0	3355443200	7	3692
2026-01-16 15:20:50.67	314.93	36.06	-23.4	-23.5	18.4	0.00e+00	0	44	0	3362783232	7	3636
2026-01-16 15:20:51.67	315.16	35.87	-23.1	-22.9	18.7	0.00e+00	0	44	0	3370123264	7	3518
2026-01-16 15:20:52.67	315.39	35.68	-23.1	-22.8	18.7	0.00e+00	0	44	0	3377463296	7	3499
2026-01-16 15:20:53.68	315.63	35.49	-23.1	-23.0	18.7	0.00e+00	0	44	0	3384803328	7	3524
2026-01-16 15:20:54.68	315.85	35.30	-23.0	-22.7	18.8	0.00e+00	0	44	0	3391094784	7	3463
2026-01-16 15:20:55.67	316.07	35.11	-22.8	-22.7	19.1	0.00e+00	0	44	0	3398434816	6	3567
2026-01-16 15:20:56.67	316.30	34.92	-22.7	-22.5	19.1	0.00e+00	0	44	0	3405774848	6	3524
2026-01-16 15:20:57.67	316.52	34.74	-22.7	-22.7	19.0	0.00e+00	0	44	0	3413114880	6	3564
2026-01-16 15:20:58.67	316.73	34.55	-22.6	-22.4	19.1	0.00e+00	0	44	0	3420454912	6	3519
2026-01-16 15:20:59.66	316.94	34.37	-22.7	-22.5	19.2	0.00e+00	0	44	0	3427794944	6	3519
2026-01-16 15:21:00.67	317.16	34.18	-22.8	-22.7	19.0	0.00e+00	0	44	0	3435134976	6	3574
2026-01-16 15:21:01.67	317.37	33.99	-23.1	-23.3	18.7	0.00e+00	0	44	0	3442475008	6	3706
2026-01-16 15:21:02.67	317.58	33.81	-23.2	-23.5	18.6	0.00e+00	0	44	0	3449815040	6	3757
2026-01-16 15:21:03.67	317.78	33.63	-23.0	-23.2	18.8	0.00e+00	0	44	0	3456106496	6	3672
2026-01-16 15:21:04.68	317.99	33.44	-23.2	-23.6	18.6	0.00e+00	0	44	0	3463446528	6	3777
2026-01-16 15:21:05.68	318.19	33.26	-23.3	-23.8	18.5	0.00e+00	0	44	0	3470786560	6	3814
2026-01-16 15:21:06.68	318.38	33.08	-23.4	-24.0	18.3	0.00e+00	0	44	0	3478126592	6	3855
2026-01-16 15:21:07.68	318.58	32.90	-23.4	-24.1	18.3	0.00e+00	0	44	0	3485466624	6	3902
2026-01-16 15:21:08.68	318.78	32.72	-23.5	-24.2	18.2	0.00e+00	0	44	0	3492806656	6	3914
2026-01-16 15:21:09.68	318.97	32.54	-23.7	-24.1	18.0	0.00e+00	0	44	0	3500146688	7	3793
2026-01-16 15:21:10.68	319.16	32.37	-23.9	-24.7	17.7	0.00e+00	0	44	0	3507486720	7	3917
2026-01-16 15:21:11.68	319.35	32.19	-23.8	-24.0	17.9	0.00e+00	0	44	0	3513778176	8	3651
2026-01-16 15:21:12.68	319.53	32.01	-23.4	-23.0	18.4	0.00e+00	0	44	0	3521118208	8	3441
2026-01-16 15:21:13.68	319.72	31.84	-23.1	-22.8	18.7	0.00e+00	0	44	0	3528458240	7	3500
2026-01-16 15:21:14.68	319.90	31.66	-22.8	-22.9	18.9	0.00e+00	0	44	0	3535798272	6	3611
2026-01-16 15:21:15.68	320.08	31.49	-22.8	-22.8	18.9	0.00e+00	0	44	0	3543138304	6	3601
2026-01-16 15:21:16.67	320.25	31.32	-22.9	-23.0	18.8	0.00e+00	0	44	0	3550478336	6	3644
2026-01-16 15:21:17.68	320.43	31.14	-22.9	-23.0	18.9	0.00e+00	0	44	0	3557818368	6	3634
2026-01-16 15:21:18.68	320.61	30.97	-22.8	-22.8	18.9	0.00e+00	0	44	0	3565158400	6	3592
2026-01-16 15:21:19.68	320.78	30.80	-22.9	-23.0	18.8	0.00e+00	0	44	0	3572498432	6	3642
2026-01-16 15:21:20.68	320.95	30.63	-23.0	-23.1	18.8	0.00e+00	0	44	0	3578789888	6	3656
2026-01-16 15:21:21.69	321.12	30.46	-23.0	-23.2	18.7	0.00e+00	0	44	0	3586129920	6	3673
2026-01-16 15:21:22.68	321.29	30.29	-23.0	-23.2	18.7	0.00e+00	0	44	0	3593469952	6	3672
2026-01-16 15:21:23.69	321.46	30.12	-23.1	-23.4	18.6	0.00e+00	0	44	0	3600809984	6	3723
2026-01-16 15:21:24.69	321.62	29.95	-23.1	-23.4	18.6	0.00e+00	0	44	0	3608150016	6	3735
2026-01-16 15:21:25.69	321.78	29.79	-23.1	-23.3	18.7	0.00e+00	0	44	0	3615490048	6	3709
2026-01-16 15:21:26.69	321.95	29.62	-23.2	-23.6	18.5	0.00e+00	0	44	0	3622830080	6	3771
2026-01-16 15:21:27.69	322.10	29.46	-23.3	-23.8	18.4	0.00e+00	0	44	0	3630170112	6	3811
2026-01-16 15:21:28.69	322.26	29.29	-23.4	-24.1	18.2	0.00e+00	0	44	0	3637510144	6	3878
2026-01-16 15:21:29.69	322.42	29.13	-23.5	-24.3	18.1	0.00e+00	0	44	0	3643801600	6	3944
2026-01-16 15:21:30.69	322.57	28.96	-23.6	-24.1	18.0	0.00e+00	0	44	0	3651141632	7	3774
2026-01-16 15:21:31.69	322.73	28.80	-23.6	-24.0	18.1	0.00e+00	0	44	0	3658481664	7	3756
2026-01-16 15:21:32.70	322.88	28.64	-23.7	-24.2	18.0	0.00e+00	0	44	0	3665821696	7	3802
2026-01-16 15:21:33.71	323.03	28.48	-23.8	-24.4	17.7	0.00e+00	0	44	0	3673161728	7	3863
2026-01-16 15:21:34.71	323.18	28.32	-23.8	-24.4	17.8	0.00e+00	0	44	0	3680501760	7	3852
2026-01-16 15:21:35.71	323.33	28.16	-23.8	-24.5	17.8	0.00e+00	0	44	0	3687841792	7	3874
2026-01-16 15:21:36.71	323.47	28.00	-23.8	-24.3	17.9	0.00e+00	0	44	0	3695181824	7	3830
2026-01-16 15:21:37.71	323.62	27.84	-23.6	-24.0	18.0	0.00e+00	0	44	0	3702521856	7	3771
2026-01-16 15:21:38.71	323.76	27.68	-23.5	-23.8	18.1	0.00e+00	0	44	0	3709861888	7	3717
2026-01-16 15:21:39.72	323.90	27.52	-23.6	-24.0	18.0	0.00e+00	0	44	0	3717201920	7	3772
2026-01-16 15:21:40.72	324.05	27.37	-23.5	-23.7	18.2	0.00e+00	0	44	0	3723493376	7	3685
2026-01-16 15:21:41.72	324.18	27.21	-23.4	-23.5	18.2	0.00e+00	0	44	0	3730833408	7	3650
2026-01-16 15:21:42.73	324.32	27.06	-23.6	-23.9	18.1	0.00e+00	0	44	0	3738173440	7	3727
2026-01-16 15:21:43.73	324.46	26.90	-23.4	-23.6	18.2	0.00e+00	0	44	0	3745513472	7	3663
2026-01-16 15:21:44.73	324.60	26.75	-23.2	-23.1	18.5	0.00e+00	0	44	0	3752853504	7	3569
2026-01-16 15:21:45.73	324.73	26.60	-23.1	-23.0	18.5	0.00e+00	0	44	0	3760193536	7	3531
2026-01-16 15:21:46.73	324.86	26.45	-23.2	-23.1	18.5	0.00e+00	0	44	0	3767533568	7	3550
2026-01-16 15:21:47.74	325.00	26.29	-23.2	-23.1	18.5	0.00e+00	0	44	0	3774873600	7	3567
2026-01-16 15:21:48.75	325.13	26.14	-23.2	-23.0	18.4	0.00e+00	0	44	0	3782213632	7	3544
2026-01-16 15:21:49.75	325.26	25.99	-23.3	-23.2	18.4	0.00e+00	0	44	0	3788505088	7	3589
2026-01-16 15:21:50.75	325.38	25.84	-23.3	-23.3	18.3	0.00e+00	0	44	0	3796893696	7	3595
2026-01-16 15:21:51.75	325.51	25.70	-23.4	-23.5	18.2	0.00e+00	0	44	0	3804233728	7	3634
2026-01-16 15:21:52.76	325.64	25.55	-23.3	-23.3	18.3	0.00e+00	0	44	0	3810525184	7	3608
2026-01-16 15:21:53.76	325.76	25.40	-23.4	-23.4	18.3	0.00e+00	0	44	0	3817865216	7	3632
2026-01-16 15:21:54.77	325.89	25.25	-23.4	-23.6	18.2	0.00e+00	0	44	0	3825205248	7	3662
2026-01-16 15:21:55.77	326.01	25.11	-23.4	-23.5	18.2	0.00e+00	0	44	0	3832545280	7	3655
2026-01-16 15:21:56.77	326.13	24.96	-23.3	-23.3	18.3	0.00e+00	0	44	0	3839885312	7	3606
2026-01-16 15:21:57.78	326.25	24.82	-23.3	-23.3	18.3	0.00e+00	0	44	0	3847225344	7	3605
2026-01-16 15:21:58.78	326.37	24.67	-23.3	-23.3	18.3	0.00e+00	0	44	0	3854565376	7	3608
2026-01-16 15:21:59.78	326.49	24.53	-23.4	-23.6	18.2	0.00e+00	0	44	0	3861905408	7	3662
2026-01-16 15:22:00.78	326.61	24.39	-23.4	-23.6	18.2	0.00e+00	0	44	0	3868196864	7	3672
2026-01-16 15:22:01.78	326.72	24.25	-23.5	-23.7	18.1	0.00e+00	0	44	0	3875536896	7	3694
2026-01-16 15:22:02.78	326.84	24.11	-23.4	-23.6	18.2	0.00e+00	0	44	0	3882876928	7	3671
2026-01-16 15:22:03.78	326.95	23.97	-23.5	-23.8	18.0	0.00e+00	0	44	0	3890216960	7	3715
2026-01-16 15:22:04.78	327.07	23.83	-23.5	-23.7	18.1	0.00e+00	0	44	0	3897556992	7	3703
2026-01-16 15:22:05.77	327.18	23.69	-23.6	-23.9	18.0	0.00e+00	0	44	0	3904897024	7	3735
2026-01-16 15:22:06.77	327.29	23.55	-23.5	-23.8	18.0	0.00e+00	0	44	0	3912237056	7	3725
2026-01-16 15:22:07.78	327.40	23.41	-23.5	-23.7	18.1	0.00e+00	0	44	0	3919577088	7	3691
2026-01-16 15:22:08.79	327.51	23.28	-23.4	-23.6	18.1	0.00e+00	0	44	0	3926917120	7	3671
2026-01-16 15:22:09.79	327.62	23.14	-23.6	-23.9	18.0	0.00e+00	0	44	0	3933208576	7	3734
2026-01-16 15:22:10.80	327.73	23.00	-23.5	-23.8	18.0	0.00e+00	0	44	0	3940548608	7	3724
2026-01-16 15:22:11.79	327.83	22.87	-23.6	-24.0	17.9	0.00e+00	0	44	0	3947888640	7	3751
2026-01-16 15:22:12.80	327.94	22.73	-23.5	-23.6	18.1	0.00e+00	0	44	0	3955228672	7	3676
2026-01-16 15:22:13.80	328.04	22.60	-23.7	-24.2	17.7	0.00e+00	0	44	0	3962568704	7	3797
2026-01-16 15:22:14.80	328.15	22.47	-23.7	-24.1	17.9	0.00e+00	0	44	0	3969908736	7	3776
2026-01-16 15:22:15.79	328.25	22.33	-23.9	-24.6	17.6	0.00e+00	0	44	0	3977248768	7	3894
2026-01-16 15:22:16.80	328.35	22.20	-23.8	-24.3	17.7	0.00e+00	0	44	0	3984588800	7	3835
2026-01-16 15:22:17.80	328.46	22.07	-23.6	-24.1	17.9	0.00e+00	0	44	0	3991928832	7	3771
2026-01-16 15:22:18.81	328.56	21.94	-23.7	-24.1	17.8	0.00e+00	0	44	0	3999268864	7	3792
2026-01-16 15:22:19.80	328.66	21.81	-23.7	-24.3	17.8	0.00e+00	0	44	0	4006608896	7	3822
2026-01-16 15:22:20.81	328.76	21.68	-23.8	-24.4	17.7	0.00e+00	0	44	0	4013948928	7	3854
2026-01-16 15:22:21.80	328.85	21.55	-23.8	-24.4	17.7	0.00e+00	0	44	0	4020240384	7	3861
2026-01-16 15:22:22.80	328.95	21.42	-23.9	-24.5	17.6	0.00e+00	0	44	0	4027580416	7	3890
2026-01-16 15:22:23.81	329.05	21.29	-24.0	-24.8	17.5	0.00e+00	0	44	0	4034920448	7	3939
2026-01-16 15:22:24.82	329.15	21.16	-23.9	-24.7	17.5	0.00e+00	0	44	0	4042260480	7	3920
2026-01-16 15:22:25.82	329.24	21.04	-23.9	-24.7	17.5	0.00e+00	0	44	0	4049600512	7	3918
2026-01-16 15:22:26.83	329.34	20.91	-24.2	-24.8	17.2	0.00e+00	0	44	0	4056940544	8	3851
2026-01-16 15:22:27.83	329.43	20.78	-24.4	-25.2	17.0	0.00e+00	0	44	0	4064280576	8	3939
2026-01-16 15:22:28.83	329.52	20.66	-24.3	-24.9	17.2	0.00e+00	0	44	0	4071620608	8	3862
2026-01-16 15:22:29.83	329.62	20.54	-24.2	-24.7	17.3	0.00e+00	0	44	0	4077912064	8	3811
2026-01-16 15:22:30.83	329.71	20.41	-24.1	-24.5	17.4	0.00e+00	0	44	0	4085252096	8	3766
2026-01-16 15:22:31.83	329.80	20.29	-24.2	-24.8	17.3	0.00e+00	0	44	0	4092592128	8	3831
2026-01-16 15:22:32.83	329.89	20.16	-24.1	-24.6	17.3	0.00e+00	0	44	0	4099932160	8	3794
2026-01-16 15:22:33.83	329.98	20.04	-24.1	-24.6	17.3	0.00e+00	0	44	0	4107272192	8	3788
2026-01-16 15:22:34.83	330.07	19.92	-24.2	-24.8	17.2	0.00e+00	0	44	0	4114612224	8	3834
2026-01-16 15:22:35.83	330.16	19.80	-24.2	-24.7	17.2	0.00e+00	0	44	0	4121952256	8	3824
2026-01-16 15:22:36.84	330.24	19.68	-24.2	-24.7	17.3	0.00e+00	0	44	0	4129292288	8	3816
2026-01-16 15:22:37.84	330.33	19.56	-24.5	-25.3	16.9	0.00e+00	0	44	0	4136632320	8	3965
2026-01-16 15:22:38.84	330.42	19.44	-24.3	-25.0	17.1	0.00e+00	0	44	0	4142923776	8	3879
2026-01-16 15:22:39.85	330.50	19.32	-24.2	-24.7	17.2	0.00e+00	0	44	0	4150263808	8	3828
2026-01-16 15:22:40.84	330.59	19.20	-24.0	-24.3	17.4	0.00e+00	0	44	0	4157603840	8	3730
2026-01-16 15:22:41.85	330.67	19.08	-24.2	-24.7	17.2	0.00e+00	0	44	0	4164943872	8	3828
2026-01-16 15:22:42.85	330.76	18.96	-24.2	-24.7	17.3	0.00e+00	0	44	0	4172283904	8	3805
2026-01-16 15:22:43.85	330.84	18.85	-24.2	-24.8	17.2	0.00e+00	0	44	0	4179623936	8	3834
2026-01-16 15:22:44.86	330.92	18.73	-24.3	-24.9	17.1	0.00e+00	0	44	0	4186963968	8	3862
2026-01-16 15:22:45.86	331.00	18.61	-24.3	-25.0	17.1	0.00e+00	0	44	0	4194304000	8	3881
2026-01-16 15:22:46.86	331.09	18.50	-24.4	-25.1	17.0	0.00e+00	0	44	0	4201644032	8	3925
2026-01-16 15:22:47.87	331.17	18.38	-24.2	-24.7	17.2	0.00e+00	0	44	0	4208984064	8	3814
2026-01-16 15:22:48.87	331.25	18.27	-24.3	-25.0	17.1	0.00e+00	0	44	0	4216324096	8	3886
2026-01-16 15:22:49.87	331.33	18.15	-24.3	-25.0	17.0	0.00e+00	0	44	0	4222615552	8	3886
2026-01-16 15:22:50.87	331.41	18.04	-24.3	-25.0	17.0	0.00e+00	0	44	0	4229955584	8	3903
2026-01-16 15:22:51.87	331.48	17.92	-24.4	-25.2	16.9	0.00e+00	0	44	0	4237295616	8	3942
2026-01-16 15:22:52.88	331.56	17.81	-24.3	-25.1	17.0	0.00e+00	0	44	0	4244635648	8	3907
2026-01-16 15:22:53.88	331.64	17.70	-24.4	-25.2	16.9	0.00e+00	0	44	0	4251975680	8	3940
2026-01-16 15:22:54.89	331.72	17.59	-24.4	-25.1	16.9	0.00e+00	0	44	0	4259315712	8	3925
2026-01-16 15:22:55.90	331.80	17.47	-24.4	-25.2	16.8	0.00e+00	0	44	0	4266655744	8	3950
2026-01-16 15:22:56.90	331.87	17.36	-24.5	-25.3	16.8	0.00e+00	0	44	0	4273995776	8	3965
2026-01-16 15:22:57.89	331.95	17.25	-24.5	-25.3	16.8	0.00e+00	0	44	0	4281335808	8	3958
2026-01-16 15:22:58.90	332.02	17.14	-24.6	-25.2	16.7	0.00e+00	0	44	0	4287627264	9	3824
2026-01-16 15:22:59.91	332.10	17.03	-24.8	-25.6	16.4	0.00e+00	0	44	0	4296015872	9	3927
2026-01-16 15:23:00.90	332.17	16.92	-24.7	-25.3	16.5	0.00e+00	0	44	0	4303355904	9	3863
2026-01-16 15:23:01.91	332.24	16.81	-24.7	-25.2	16.6	0.00e+00	0	44	0	4309647360	9	3827
2026-01-16 15:23:02.91	332.32	16.71	-24.6	-25.1	16.7	0.00e+00	0	44	0	4316987392	9	3809
2026-01-16 15:23:03.91	332.39	16.60	-24.8	-25.5	16.5	0.00e+00	0	44	0	4324327424	9	3901
2026-01-16 15:23:04.91	332.46	16.49	-24.7	-25.2	16.6	0.00e+00	0	44	0	4331667456	9	3839
2026-01-16 15:23:05.92	332.53	16.38	-24.7	-25.2	16.6	1.10e-06	0	44	0	4339007488	9	3844
2026-01-16 15:23:06.92	332.60	16.28	-24.8	-25.5	16.5	0.00e+00	0	44	0	4346347520	9	3895
2026-01-16 15:23:07.92	332.67	16.17	-24.7	-25.3	16.5	0.00e+00	0	44	0	4353687552	9	3860
2026-01-16 15:23:08.93	332.74	16.06	-24.9	-25.7	16.3	0.00e+00	0	44	0	4361027584	9	3951
2026-01-16 15:23:09.94	332.81	15.96	-24.8	-25.4	16.4	0.00e+00	0	44	0	4368367616	9	3888
2026-01-16 15:23:10.94	332.88	15.85	-25.0	-25.9	16.2	0.00e+00	0	44	0	4374659072	9	3997
2026-01-16 15:23:11.94	332.95	15.75	-24.9	-25.8	16.3	0.00e+00	0	44	0	4381999104	9	3967
2026-01-16 15:23:12.94	333.02	15.64	-25.0	-26.0	16.1	0.00e+00	0	44	0	4389339136	9	4024
2026-01-16 15:23:13.95	333.09	15.54	-24.9	-25.7	16.3	0.00e+00	0	44	0	4396679168	9	3964
2026-01-16 15:23:14.95	333.16	15.44	-24.9	-25.8	16.2	0.00e+00	0	44	0	4404019200	9	3972
2026-01-16 15:23:15.95	333.22	15.33	-24.9	-25.7	16.2	0.00e+00	0	44	0	4411359232	9	3965
2026-01-16 15:23:16.96	333.29	15.23	-24.9	-25.8	16.2	0.00e+00	0	44	0	4418699264	9	3971
2026-01-16 15:23:17.96	333.35	15.13	-25.2	-26.0	15.9	0.00e+00	0	44	0	4426039296	10	3912
2026-01-16 15:23:18.96	333.42	15.03	-25.5	-26.6	15.5	0.00e+00	0	44	0	4433379328	10	4067
2026-01-16 15:23:19.96	333.49	14.93	-25.3	-26.1	15.8	0.00e+00	0	44	0	4440719360	10	3945
2026-01-16 15:23:20.96	333.55	14.83	-25.1	-25.7	16.0	0.00e+00	0	44	0	4448059392	10	3847
2026-01-16 15:23:21.96	333.61	14.73	-25.1	-25.8	16.0	0.00e+00	0	44	0	4454350848	10	3863
2026-01-16 15:23:22.96	333.68	14.63	-25.2	-25.8	15.9	0.00e+00	0	44	0	4461690880	10	3869
2026-01-16 15:23:23.96	333.74	14.53	-25.3	-26.0	15.8	0.00e+00	0	44	0	4469030912	10	3929
2026-01-16 15:23:24.95	333.80	14.43	-25.2	-25.8	15.9	0.00e+00	0	44	0	4476370944	10	3878
2026-01-16 15:23:25.96	333.87	14.33	-25.1	-25.7	16.0	0.00e+00	0	44	0	4483710976	10	3854
2026-01-16 15:23:26.96	333.93	14.23	-25.1	-25.7	16.0	0.00e+00	0	44	0	4491051008	10	3856
2026-01-16 15:23:27.96	333.99	14.13	-25.0	-25.5	16.1	0.00e+00	0	44	0	4498391040	10	3806
2026-01-16 15:23:28.96	334.05	14.03	-25.2	-25.8	15.9	0.00e+00	0	44	0	4505731072	10	3882
2026-01-16 15:23:29.96	334.11	13.94	-25.1	-25.6	16.0	0.00e+00	0	44	0	4513071104	10	3831
2026-01-16 15:23:30.97	334.18	13.84	-25.2	-26.0	15.8	0.00e+00	0	44	0	4519362560	10	3913
2026-01-16 15:23:31.97	334.24	13.74	-25.2	-25.8	15.9	0.00e+00	0	44	0	4526702592	10	3880
2026-01-16 15:23:32.97	334.30	13.65	-25.2	-25.9	15.9	0.00e+00	0	44	0	4534042624	10	3893
2026-01-16 15:23:33.98	334.36	13.55	-25.1	-25.7	16.0	0.00e+00	0	44	0	4541382656	10	3841
2026-01-16 15:23:34.97	334.42	13.46	-25.6	-26.7	15.4	0.00e+00	0	44	0	4548722688	10	4087
2026-01-16 15:23:35.97	334.47	13.36	-25.5	-25.9	15.6	0.00e+00	0	44	0	4556062720	11	3805
2026-01-16 15:23:36.98	334.53	13.26	-25.4	-25.9	15.6	0.00e+00	0	44	0	4563402752	11	3803
2026-01-16 15:23:37.98	334.59	13.17	-25.4	-25.9	15.5	0.00e+00	0	44	0	4570742784	11	3803
2026-01-16 15:23:38.98	334.65	13.08	-25.4	-25.9	15.5	0.00e+00	0	44	0	4577034240	11	3802
2026-01-16 15:23:39.98	334.71	12.98	-25.5	-26.0	15.5	0.00e+00	0	44	0	4584374272	11	3825
2026-01-16 15:23:40.98	334.76	12.89	-25.7	-26.5	15.2	0.00e+00	0	44	0	4591714304	11	3936
2026-01-16 15:23:41.98	334.82	12.80	-25.6	-26.2	15.3	0.00e+00	0	44	0	4599054336	11	3880
2026-01-16 15:23:42.99	334.88	12.70	-25.7	-26.5	15.2	0.00e+00	0	44	0	4606394368	11	3933
2026-01-16 15:23:43.98	334.93	12.61	-25.8	-26.7	15.1	0.00e+00	0	44	0	4613734400	11	3993
2026-01-16 15:23:44.99	334.99	12.52	-25.9	-26.8	15.0	0.00e+00	0	44	0	4621074432	11	4034
2026-01-16 15:23:45.99	335.05	12.43	-25.9	-26.9	15.0	0.00e+00	0	44	0	4628414464	11	4033
2026-01-16 15:23:46.99	335.10	12.33	-26.0	-27.1	14.9	0.00e+00	0	44	0	4635754496	11	4097
2026-01-16 15:23:47.99	335.16	12.24	-25.9	-27.0	14.9	0.00e+00	0	44	0	4642045952	11	4071
2026-01-16 15:23:48.99	335.21	12.15	-26.1	-26.9	14.6	1.10e-06	0	44	0	4649385984	12	3951
2026-01-16 15:23:49.99	335.27	12.06	-26.2	-27.2	14.4	1.10e-06	0	44	0	4656726016	12	4027
2026-01-16 15:23:50.99	335.32	11.97	-26.3	-27.2	14.4	0.00e+00	0	44	0	4664066048	12	4025
2026-01-16 15:23:51.99	335.37	11.88	-26.4	-27.5	14.2	0.00e+00	0	44	0	4671406080	12	4105
2026-01-16 15:23:52.98	335.43	11.79	-26.3	-27.2	14.4	0.00e+00	0	44	0	4678746112	12	4024
2026-01-16 15:23:53.99	335.48	11.70	-26.3	-27.3	14.4	1.10e-06	0	44	0	4686086144	12	4031
2026-01-16 15:23:54.99	335.53	11.61	-26.4	-27.5	14.3	0.00e+00	0	44	0	4693426176	12	4102
2026-01-16 15:23:55.98	335.59	11.53	-26.2	-27.2	14.4	1.10e-06	0	44	0	4700766208	12	4015
2026-01-16 15:23:56.99	335.64	11.44	-26.2	-27.1	14.5	0.00e+00	0	44	0	4707057664	12	3998
2026-01-16 15:23:57.99	335.69	11.35	-26.3	-27.3	14.3	0.00e+00	0	44	0	4714397696	12	4047
2026-01-16 15:23:58.99	335.74	11.26	-26.2	-27.1	14.5	1.10e-06	0	44	0	4721737728	12	3986
2026-01-16 15:23:59.99	335.79	11.17	-26.1	-27.0	14.5	0.00e+00	0	44	0	4729077760	12	3968
2026-01-16 15:24:00.99	335.84	11.09	-26.0	-26.7	14.7	0.00e+00	0	44	0	4736417792	12	3891
2026-01-16 15:24:01.99	335.90	11.00	-26.1	-27.0	14.5	1.10e-06	0	44	0	4743757824	12	3958
2026-01-16 15:24:02.99	335.95	10.91	-26.1	-26.9	14.6	1.10e-06	0	44	0	4751097856	12	3933
2026-01-16 15:24:03.99	336.00	10.83	-26.2	-27.1	14.4	3.40e-06	0	44	0	4758437888	12	4006
2026-01-16 15:24:05.00	336.05	10.74	-26.0	-26.7	14.6	0.00e+00	0	44	0	4764729344	12	3903
2026-01-16 15:24:06.00	336.10	10.65	-26.2	-27.2	14.4	0.00e+00	0	44	0	4772069376	12	4022
2026-01-16 15:24:07.00	336.15	10.57	-26.3	-27.3	14.3	0.00e+00	0	44	0	4779409408	12	4041
2026-01-16 15:24:07.99	336.20	10.48	-26.2	-27.2	14.4	0.00e+00	0	44	0	4786749440	12	4018
2026-01-16 15:24:08.99	336.24	10.40	-26.2	-27.2	14.4	0.00e+00	0	44	0	4794089472	12	4020
2026-01-16 15:24:09.99	336.29	10.32	-26.3	-27.4	14.2	0.00e+00	0	44	0	4801429504	12	4081
2026-01-16 15:24:10.99	336.34	10.23	-26.4	-27.5	14.2	1.10e-06	0	44	0	4808769536	12	4096
2026-01-16 15:24:11.99	336.39	10.15	-26.4	-27.6	14.1	0.00e+00	0	44	0	4816109568	12	4141
2026-01-16 15:24:12.99	336.44	10.06	-26.4	-27.6	14.1	1.10e-06	0	44	0	4823449600	12	4122
2026-01-16 15:24:13.99	336.49	9.98	-26.4	-27.6	14.1	3.40e-06	0	44	0	4829741056	12	4116
2026-01-16 15:24:14.99	336.53	9.90	-26.4	-27.7	14.1	4.50e-06	0	44	0	4837081088	12	4145
2026-01-16 15:24:15.99	336.58	9.81	-26.4	-27.6	14.1	2.20e-06	0	44	0	4844421120	12	4136
2026-01-16 15:24:17.00	336.63	9.73	-26.5	-27.7	14.0	4.50e-06	0	44	0	4851761152	12	4156
2026-01-16 15:24:18.00	336.68	9.65	-26.7	-27.7	13.7	1.10e-06	0	44	0	4859101184	13	4063
2026-01-16 15:24:19.00	336.72	9.57	-26.9	-28.2	13.4	1.48e-05	0	44	0	4866441216	13	4197
2026-01-16 15:24:20.01	336.77	9.48	-26.6	-27.6	13.7	1.25e-05	0	44	0	4873781248	13	4042
2026-01-16 15:24:21.01	336.81	9.40	-26.6	-27.6	13.8	6.80e-06	0	44	0	4881121280	13	4012
2026-01-16 15:24:22.01	336.86	9.32	-27.0	-28.4	13.3	1.02e-05	0	44	0	4888461312	13	4243
2026-01-16 15:24:23.02	336.91	9.24	-26.6	-27.6	13.8	9.10e-06	0	44	0	4895801344	13	4028
2026-01-16 15:24:24.02	336.95	9.16	-26.8	-27.9	13.5	6.80e-06	0	44	0	4903141376	13	4115
2026-01-16 15:24:25.02	337.00	9.08	-26.7	-27.9	13.6	6.80e-06	0	44	0	4910481408	13	4098
2026-01-16 15:24:26.02	337.04	9.00	-26.8	-28.0	13.5	9.10e-06	0	44	0	4916772864	13	4120
2026-01-16 15:24:27.02	337.09	8.92	-26.5	-27.4	13.8	4.50e-06	0	44	0	4924112896	13	3967
