passes_logs/2026/01/16/R2M6_AANII_01/R2M6_AANII_01__20260116_114804_FENGYUN_3D_rec.log

#Pass ID: 20260116_114804_FENGYUN 3D
#Satellite: FENGYUN 3D
#Configuration: FENGYUN 3D
#almurnet v.1.7.20240730
#Start time: 2026-01-16 11:48:04

#Version: 2.2.20231116
#Station: R2M6_AANII_01
#Location: 30.233357 lon 59.946436 lat
#TLE: 1 43010U 17072A   26015.49690188 -.00000192  00000+0 -69217-4 0  9996
#TLE: 2 43010  98.9932 347.3205 0002350 106.2275 253.9159 14.19694721423329

#Time	Az	El	Level	Level2	SNR	BER	BlckErr	Temp	State	Recorded	gain1	gain2
2026-01-16 11:48:04.48	142.64	6.98	-29.6	-33.1	5.2	7.95e-01	0	40	0	0	20	5379
2026-01-16 11:48:05.48	142.61	7.06	-30.1	-34.5	5.0	8.03e-01	0	40	104	0	20	5991
2026-01-16 11:48:06.48	142.59	7.14	-29.9	-33.8	8.3	5.29e-02	0	40	0	0	20	5656
2026-01-16 11:48:07.48	142.56	7.21	-29.9	-33.8	8.4	3.91e-02	0	41	0	5242880	20	5624
2026-01-16 11:48:08.49	142.53	7.29	-29.8	-33.5	8.6	4.56e-02	0	40	0	11534336	20	5485
2026-01-16 11:48:09.49	142.51	7.37	-29.7	-33.0	9.0	2.46e-02	0	41	0	16777216	20	5249
2026-01-16 11:48:10.48	142.48	7.45	-29.7	-32.9	9.1	1.68e-02	0	40	0	22020096	20	5209
2026-01-16 11:48:11.48	142.46	7.53	-29.3	-31.8	9.9	8.16e-03	0	41	0	27262976	20	4798
2026-01-16 11:48:12.48	142.43	7.60	-29.3	-32.3	10.0	6.51e-03	0	41	0	33554432	19	5044
2026-01-16 11:48:13.48	142.40	7.68	-29.3	-32.1	10.2	4.75e-03	0	41	0	38797312	19	4973
2026-01-16 11:48:14.48	142.38	7.76	-29.3	-32.1	10.2	4.93e-03	0	41	0	44040192	19	4974
2026-01-16 11:48:15.47	142.35	7.84	-29.3	-32.1	10.2	6.27e-03	0	41	0	50331648	19	4983
2026-01-16 11:48:16.48	142.32	7.92	-29.0	-31.5	10.6	3.54e-03	0	41	0	55574528	19	4769
2026-01-16 11:48:17.48	142.30	8.00	-28.8	-31.3	11.1	1.58e-03	0	41	0	61865984	18	4801
2026-01-16 11:48:18.48	142.27	8.08	-28.6	-30.8	11.4	7.43e-04	0	41	0	67108864	18	4661
2026-01-16 11:48:19.48	142.24	8.16	-28.1	-30.2	12.1	2.46e-04	0	41	0	72351744	17	4557
2026-01-16 11:48:20.49	142.21	8.24	-28.2	-30.2	12.1	2.22e-04	0	41	0	78643200	17	4571
2026-01-16 11:48:21.49	142.19	8.32	-28.2	-30.3	12.0	2.18e-04	0	41	0	83886080	17	4596
2026-01-16 11:48:22.50	142.16	8.40	-28.5	-30.9	11.6	3.64e-04	0	41	0	90177536	17	4793
2026-01-16 11:48:23.50	142.13	8.48	-28.1	-30.1	12.2	2.29e-04	0	41	0	95420416	17	4515
2026-01-16 11:48:24.51	142.10	8.56	-28.4	-30.9	11.7	3.01e-04	0	41	0	100663296	17	4773
2026-01-16 11:48:25.51	142.07	8.65	-28.4	-30.8	11.8	4.03e-04	0	41	0	106954752	17	4728
2026-01-16 11:48:26.50	142.04	8.73	-28.4	-30.7	11.9	1.83e-04	0	41	0	112197632	17	4698
2026-01-16 11:48:27.50	142.01	8.81	-28.1	-29.9	12.3	1.59e-04	0	41	0	117440512	17	4465
2026-01-16 11:48:28.50	141.99	8.89	-28.2	-30.3	12.1	1.89e-04	0	41	0	123731968	17	4589
2026-01-16 11:48:29.51	141.96	8.97	-28.3	-30.5	12.0	2.25e-04	0	41	0	128974848	17	4652
2026-01-16 11:48:30.51	141.93	9.06	-28.2	-30.4	12.1	2.06e-04	0	41	0	135266304	17	4590
2026-01-16 11:48:31.51	141.90	9.14	-28.6	-31.3	11.5	3.32e-04	0	41	0	140509184	17	4893
2026-01-16 11:48:32.51	141.87	9.22	-28.7	-31.4	11.5	7.55e-04	0	41	0	145752064	17	4928
2026-01-16 11:48:33.51	141.84	9.31	-28.2	-30.3	12.2	2.28e-04	0	41	0	152043520	17	4554
2026-01-16 11:48:34.51	141.81	9.39	-28.0	-29.7	12.6	9.26e-05	0	41	0	157286400	17	4369
2026-01-16 11:48:35.52	141.78	9.47	-27.9	-29.3	12.8	2.63e-05	0	41	0	162529280	17	4261
2026-01-16 11:48:36.52	141.75	9.56	-27.4	-28.7	13.5	1.25e-05	0	41	0	168820736	16	4185
2026-01-16 11:48:37.52	141.71	9.64	-27.7	-29.3	13.2	1.37e-05	0	41	0	174063616	16	4360
2026-01-16 11:48:38.52	141.68	9.73	-27.2	-28.9	13.6	4.50e-06	0	41	0	179306496	15	4345
2026-01-16 11:48:39.52	141.65	9.81	-27.1	-28.5	13.8	6.80e-06	0	41	0	185597952	15	4230
2026-01-16 11:48:40.52	141.62	9.90	-27.2	-28.8	13.6	6.80e-06	0	41	0	190840832	15	4329
2026-01-16 11:48:41.52	141.59	9.99	-27.2	-28.9	13.5	3.40e-06	0	42	0	197132288	15	4374
2026-01-16 11:48:42.52	141.56	10.07	-26.9	-28.2	14.0	3.40e-06	0	41	0	202375168	15	4159
2026-01-16 11:48:43.52	141.53	10.16	-26.9	-28.1	14.0	2.20e-06	0	41	0	207618048	15	4139
2026-01-16 11:48:44.52	141.49	10.24	-26.9	-28.2	14.0	0.00e+00	0	42	0	213909504	15	4180
2026-01-16 11:48:45.52	141.46	10.33	-26.9	-28.2	14.0	4.50e-06	0	41	0	219152384	15	4170
2026-01-16 11:48:46.52	141.43	10.42	-26.9	-28.2	14.0	1.10e-06	0	41	0	224395264	15	4171
2026-01-16 11:48:47.51	141.40	10.51	-27.0	-28.4	13.9	4.50e-06	0	42	0	230686720	15	4226
2026-01-16 11:48:48.52	141.36	10.59	-26.9	-28.2	14.0	3.40e-06	0	42	0	235929600	15	4177
2026-01-16 11:48:49.52	141.33	10.68	-26.8	-27.9	14.2	1.10e-06	0	42	0	241172480	15	4092
2026-01-16 11:48:50.52	141.30	10.77	-26.7	-28.1	14.4	0.00e+00	0	42	0	247463936	14	4245
2026-01-16 11:48:51.53	141.26	10.86	-26.8	-28.4	14.2	1.10e-06	0	42	0	252706816	14	4333
2026-01-16 11:48:52.52	141.23	10.95	-26.9	-28.5	14.2	0.00e+00	0	42	0	258998272	14	4354
2026-01-16 11:48:53.52	141.20	11.04	-26.8	-28.3	14.3	0.00e+00	0	42	0	264241152	14	4303
2026-01-16 11:48:54.53	141.16	11.13	-26.8	-28.3	14.3	1.10e-06	0	42	0	269484032	14	4282
2026-01-16 11:48:55.53	141.13	11.22	-26.9	-28.6	14.2	1.10e-06	0	42	0	275775488	14	4366
2026-01-16 11:48:56.53	141.09	11.31	-26.8	-28.4	14.3	0.00e+00	0	42	0	281018368	14	4317
2026-01-16 11:48:57.54	141.06	11.40	-27.1	-29.1	13.9	2.20e-06	0	42	0	287309824	14	4509
2026-01-16 11:48:58.54	141.02	11.49	-27.0	-28.8	14.1	0.00e+00	0	42	0	292552704	14	4431
2026-01-16 11:48:59.54	140.99	11.58	-27.1	-29.0	14.0	6.80e-06	0	42	0	297795584	14	4492
2026-01-16 11:49:00.54	140.95	11.68	-27.3	-29.6	13.6	3.40e-06	0	42	0	304087040	14	4664
2026-01-16 11:49:01.54	140.91	11.77	-27.5	-29.6	13.4	9.10e-06	0	42	0	309329920	15	4548
2026-01-16 11:49:02.55	140.88	11.86	-27.0	-28.4	14.0	1.10e-06	0	42	0	314572800	15	4213
2026-01-16 11:49:03.55	140.84	11.95	-27.0	-28.3	14.1	2.20e-06	0	42	0	320864256	15	4194
2026-01-16 11:49:04.56	140.80	12.05	-26.8	-27.9	14.4	0.00e+00	0	42	0	326107136	15	4066
2026-01-16 11:49:05.56	140.77	12.14	-26.6	-27.9	14.7	1.10e-06	0	42	0	332398592	14	4170
2026-01-16 11:49:06.56	140.73	12.23	-26.7	-28.0	14.6	1.10e-06	0	42	0	337641472	14	4210
2026-01-16 11:49:07.56	140.69	12.33	-26.5	-27.7	14.8	0.00e+00	0	42	0	342884352	14	4113
2026-01-16 11:49:08.56	140.65	12.42	-26.6	-27.9	14.6	0.00e+00	0	42	0	349175808	14	4176
2026-01-16 11:49:09.56	140.62	12.52	-26.5	-27.8	14.7	0.00e+00	0	42	0	354418688	14	4143
2026-01-16 11:49:10.56	140.58	12.61	-26.5	-27.6	14.8	1.10e-06	0	42	0	359661568	14	4108
2026-01-16 11:49:11.56	140.54	12.71	-26.5	-27.7	14.8	3.40e-06	0	42	0	365953024	14	4117
2026-01-16 11:49:12.56	140.50	12.80	-26.5	-27.6	14.8	0.00e+00	0	42	0	371195904	14	4115
2026-01-16 11:49:13.57	140.46	12.90	-26.6	-27.9	14.7	0.00e+00	0	42	0	376438784	14	4173
2026-01-16 11:49:14.58	140.42	13.00	-26.5	-27.8	14.7	3.40e-06	0	42	0	382730240	14	4150
2026-01-16 11:49:15.57	140.38	13.09	-26.3	-27.4	14.9	0.00e+00	0	42	0	387973120	14	4050
2026-01-16 11:49:16.58	140.34	13.19	-26.3	-27.8	14.9	0.00e+00	0	42	0	394264576	13	4288
2026-01-16 11:49:17.57	140.30	13.29	-26.1	-27.5	15.2	0.00e+00	0	42	0	399507456	13	4185
2026-01-16 11:49:18.57	140.26	13.39	-26.3	-27.7	15.0	0.00e+00	0	42	0	404750336	13	4258
2026-01-16 11:49:19.57	140.22	13.49	-26.2	-27.4	15.2	0.00e+00	0	42	0	411041792	13	4170
2026-01-16 11:49:20.57	140.18	13.59	-26.2	-27.5	15.1	6.80e-06	0	42	0	416284672	13	4181
2026-01-16 11:49:21.58	140.14	13.69	-26.4	-28.0	14.9	0.00e+00	0	42	0	421527552	13	4329
2026-01-16 11:49:22.58	140.10	13.79	-26.3	-27.8	14.9	0.00e+00	0	42	0	427819008	13	4274
2026-01-16 11:49:23.58	140.06	13.89	-26.2	-27.5	15.2	4.50e-06	0	42	0	433061888	13	4181
2026-01-16 11:49:24.58	140.01	13.99	-26.0	-27.0	15.5	0.00e+00	0	42	0	438304768	13	4044
2026-01-16 11:49:25.58	139.97	14.09	-25.9	-26.9	15.6	0.00e+00	0	42	0	444596224	13	4011
2026-01-16 11:49:26.58	139.93	14.19	-26.0	-27.2	15.4	2.20e-06	0	42	0	449839104	13	4091
2026-01-16 11:49:27.59	139.88	14.29	-26.0	-27.0	15.5	0.00e+00	0	42	0	456130560	13	4060
2026-01-16 11:49:28.60	139.84	14.39	-25.8	-26.7	15.6	0.00e+00	0	42	0	461373440	13	3978
2026-01-16 11:49:29.59	139.80	14.50	-25.9	-26.9	15.6	0.00e+00	0	42	0	467664896	13	4015
2026-01-16 11:49:30.59	139.75	14.60	-25.9	-26.8	15.6	0.00e+00	0	42	0	472907776	13	3986
2026-01-16 11:49:31.60	139.71	14.70	-25.7	-27.0	15.8	0.00e+00	0	42	0	478150656	12	4152
2026-01-16 11:49:32.61	139.66	14.81	-25.7	-27.0	15.8	0.00e+00	0	42	0	484442112	12	4154
2026-01-16 11:49:33.61	139.62	14.91	-25.8	-27.0	15.8	0.00e+00	0	42	0	489684992	12	4155
2026-01-16 11:49:34.61	139.57	15.02	-25.8	-27.0	15.8	0.00e+00	0	42	0	494927872	12	4155
2026-01-16 11:49:35.61	139.53	15.12	-25.7	-26.9	15.9	0.00e+00	0	42	0	501219328	12	4129
2026-01-16 11:49:36.62	139.48	15.23	-25.7	-26.8	15.9	0.00e+00	0	42	0	506462208	12	4101
2026-01-16 11:49:37.62	139.43	15.33	-25.7	-26.9	15.9	0.00e+00	0	42	0	511705088	12	4113
2026-01-16 11:49:38.62	139.39	15.44	-25.7	-26.8	16.0	0.00e+00	0	42	0	517996544	12	4090
2026-01-16 11:49:39.62	139.34	15.55	-25.6	-26.5	16.1	0.00e+00	0	42	0	523239424	12	4026
2026-01-16 11:49:40.62	139.29	15.65	-25.6	-26.6	16.1	0.00e+00	0	42	0	529530880	12	4043
2026-01-16 11:49:41.62	139.24	15.76	-25.7	-26.9	16.0	0.00e+00	0	42	0	534773760	12	4115
2026-01-16 11:49:42.62	139.20	15.87	-25.8	-27.1	15.8	0.00e+00	0	42	0	540016640	12	4178
2026-01-16 11:49:43.63	139.15	15.98	-25.8	-27.1	15.8	0.00e+00	0	42	0	546308096	12	4176
2026-01-16 11:49:44.63	139.10	16.09	-25.7	-26.9	15.9	0.00e+00	0	42	0	551550976	12	4131
2026-01-16 11:49:45.63	139.05	16.20	-25.7	-26.8	15.9	0.00e+00	0	42	0	556793856	12	4113
2026-01-16 11:49:46.63	139.00	16.31	-25.5	-26.4	16.2	0.00e+00	0	42	0	563085312	12	4010
2026-01-16 11:49:47.64	138.95	16.42	-25.5	-26.4	16.2	0.00e+00	0	42	0	568328192	12	4002
2026-01-16 11:49:48.64	138.90	16.53	-25.4	-26.3	16.2	0.00e+00	0	42	0	574619648	12	3983
2026-01-16 11:49:49.64	138.85	16.64	-25.6	-26.6	16.1	0.00e+00	0	42	0	579862528	12	4051
2026-01-16 11:49:50.63	138.80	16.75	-25.6	-26.6	16.1	0.00e+00	0	42	0	585105408	12	4043
2026-01-16 11:49:51.63	138.74	16.87	-25.3	-26.0	16.5	0.00e+00	0	42	0	591396864	12	3896
2026-01-16 11:49:52.63	138.69	16.98	-25.1	-26.0	16.8	0.00e+00	0	42	0	596639744	11	4003
2026-01-16 11:49:53.63	138.64	17.09	-25.1	-26.1	16.8	0.00e+00	0	42	0	601882624	11	4011
2026-01-16 11:49:54.63	138.59	17.21	-25.2	-26.3	16.7	0.00e+00	0	42	0	608174080	11	4060
2026-01-16 11:49:55.63	138.53	17.32	-25.4	-26.7	16.5	0.00e+00	0	42	0	613416960	11	4158
2026-01-16 11:49:56.63	138.48	17.44	-25.4	-26.6	16.5	0.00e+00	0	42	0	618659840	11	4136
2026-01-16 11:49:57.63	138.42	17.55	-25.4	-26.7	16.5	0.00e+00	0	42	0	624951296	11	4171
2026-01-16 11:49:58.63	138.37	17.67	-25.5	-26.9	16.4	0.00e+00	0	42	0	630194176	11	4221
2026-01-16 11:49:59.63	138.31	17.78	-25.4	-26.7	16.5	0.00e+00	0	42	0	636485632	11	4163
2026-01-16 11:50:00.63	138.26	17.90	-25.5	-26.8	16.4	0.00e+00	0	42	0	641728512	11	4205
2026-01-16 11:50:01.63	138.20	18.02	-25.3	-26.5	16.6	0.00e+00	0	42	0	646971392	11	4121
2026-01-16 11:50:02.64	138.15	18.14	-25.0	-25.8	17.0	0.00e+00	0	42	0	653262848	11	3955
2026-01-16 11:50:03.64	138.09	18.26	-24.9	-25.5	17.1	0.00e+00	0	42	0	658505728	11	3870
2026-01-16 11:50:04.65	138.03	18.38	-24.9	-25.6	17.1	0.00e+00	0	42	0	664797184	11	3895
2026-01-16 11:50:05.65	137.97	18.50	-24.8	-25.3	17.3	0.00e+00	0	42	0	670040064	11	3824
2026-01-16 11:50:06.66	137.91	18.62	-24.8	-25.8	17.3	0.00e+00	0	42	0	675282944	10	4059
2026-01-16 11:50:07.66	137.85	18.74	-24.9	-26.0	17.2	0.00e+00	0	42	0	681574400	10	4100
2026-01-16 11:50:08.66	137.80	18.86	-24.8	-25.9	17.3	0.00e+00	0	42	0	686817280	10	4076
2026-01-16 11:50:09.66	137.74	18.98	-24.9	-26.0	17.2	0.00e+00	0	42	0	692060160	10	4100
2026-01-16 11:50:10.66	137.68	19.11	-24.7	-25.7	17.4	0.00e+00	0	43	0	698351616	10	4023
2026-01-16 11:50:11.66	137.61	19.23	-24.7	-25.7	17.4	0.00e+00	0	43	0	703594496	10	4012
2026-01-16 11:50:12.66	137.55	19.35	-24.7	-25.7	17.4	0.00e+00	0	42	0	709885952	10	4011
2026-01-16 11:50:13.66	137.49	19.48	-24.7	-25.6	17.4	0.00e+00	0	43	0	715128832	10	3992
2026-01-16 11:50:14.66	137.43	19.60	-24.8	-25.9	17.3	0.00e+00	0	42	0	720371712	10	4067
2026-01-16 11:50:15.67	137.36	19.73	-24.8	-25.8	17.3	0.00e+00	0	42	0	726663168	10	4057
2026-01-16 11:50:16.67	137.30	19.85	-25.0	-26.2	17.2	0.00e+00	0	42	0	731906048	10	4134
2026-01-16 11:50:17.68	137.24	19.98	-24.9	-26.0	17.3	0.00e+00	0	43	0	737148928	10	4089
2026-01-16 11:50:18.68	137.17	20.11	-24.7	-25.7	17.4	0.00e+00	0	43	0	743440384	10	4022
2026-01-16 11:50:19.68	137.11	20.24	-24.7	-25.6	17.5	0.00e+00	0	43	0	748683264	10	4000
2026-01-16 11:50:20.69	137.04	20.37	-24.6	-25.5	17.6	0.00e+00	0	42	0	754974720	10	3970
2026-01-16 11:50:21.68	136.97	20.50	-24.8	-25.8	17.4	0.00e+00	0	42	0	760217600	10	4040
2026-01-16 11:50:22.69	136.91	20.63	-24.7	-25.7	17.5	0.00e+00	0	42	0	765460480	10	4014
2026-01-16 11:50:23.68	136.84	20.76	-24.6	-25.3	17.6	0.00e+00	0	43	0	771751936	10	3932
2026-01-16 11:50:24.69	136.77	20.89	-24.5	-25.2	17.7	0.00e+00	0	42	0	776994816	10	3902
2026-01-16 11:50:25.68	136.70	21.02	-24.5	-25.2	17.8	0.00e+00	0	43	0	782237696	10	3892
2026-01-16 11:50:26.68	136.63	21.15	-24.6	-25.3	17.7	0.00e+00	0	43	0	788529152	10	3926
2026-01-16 11:50:27.69	136.56	21.28	-24.5	-25.1	17.8	0.00e+00	0	43	0	793772032	10	3869
2026-01-16 11:50:28.69	136.49	21.42	-24.5	-25.3	17.7	0.00e+00	0	42	0	800063488	10	3914
2026-01-16 11:50:29.69	136.42	21.55	-24.5	-25.2	17.8	0.00e+00	0	43	0	805306368	10	3889
2026-01-16 11:50:30.69	136.35	21.69	-24.4	-25.0	17.9	0.00e+00	0	42	0	810549248	10	3858
2026-01-16 11:50:31.70	136.28	21.82	-24.4	-25.0	17.9	0.00e+00	0	42	0	816840704	10	3855
2026-01-16 11:50:32.69	136.20	21.96	-24.4	-25.1	17.9	0.00e+00	0	43	0	822083584	10	3878
2026-01-16 11:50:33.70	136.13	22.10	-24.3	-24.9	18.0	0.00e+00	0	43	0	827326464	10	3826
2026-01-16 11:50:34.70	136.05	22.24	-24.3	-24.7	18.1	0.00e+00	0	43	0	833617920	10	3797
2026-01-16 11:50:35.70	135.98	22.37	-24.2	-25.1	18.1	0.00e+00	0	43	0	838860800	9	3979
2026-01-16 11:50:36.71	135.90	22.52	-24.2	-25.1	18.1	0.00e+00	0	43	0	845152256	9	3977
2026-01-16 11:50:37.71	135.83	22.65	-24.1	-24.9	18.2	2.20e-06	0	43	0	850395136	9	3936
2026-01-16 11:50:38.71	135.75	22.80	-24.0	-24.6	18.4	0.00e+00	0	43	0	855638016	9	3878
2026-01-16 11:50:39.70	135.67	22.94	-24.1	-24.8	18.3	0.00e+00	0	43	0	861929472	9	3914
2026-01-16 11:50:40.70	135.59	23.08	-24.1	-24.8	18.3	2.20e-06	0	43	0	867172352	9	3918
2026-01-16 11:50:41.69	135.51	23.22	-23.9	-24.5	18.4	0.00e+00	0	43	0	872415232	9	3840
2026-01-16 11:50:42.70	135.43	23.36	-23.9	-24.4	18.5	0.00e+00	0	43	0	878706688	9	3820
2026-01-16 11:50:43.70	135.35	23.51	-24.0	-24.7	18.3	0.00e+00	0	43	0	883949568	9	3884
2026-01-16 11:50:44.70	135.27	23.65	-24.1	-24.8	18.3	0.00e+00	0	42	0	889192448	9	3901
2026-01-16 11:50:45.70	135.19	23.80	-23.9	-24.5	18.5	0.00e+00	0	43	0	895483904	9	3833
2026-01-16 11:50:46.70	135.10	23.94	-24.0	-24.7	18.4	0.00e+00	0	43	0	900726784	9	3890
2026-01-16 11:50:47.69	135.02	24.09	-24.0	-24.6	18.5	0.00e+00	0	43	0	907018240	9	3858
2026-01-16 11:50:48.70	134.93	24.24	-23.9	-24.5	18.5	0.00e+00	0	43	0	912261120	9	3839
2026-01-16 11:50:49.70	134.85	24.39	-24.0	-24.6	18.5	0.00e+00	0	43	0	917504000	9	3862
2026-01-16 11:50:50.70	134.76	24.54	-23.9	-24.4	18.6	0.00e+00	0	42	0	923795456	9	3812
2026-01-16 11:50:51.70	134.67	24.69	-24.0	-24.6	18.5	0.00e+00	0	43	0	929038336	9	3858
2026-01-16 11:50:52.71	134.58	24.84	-23.8	-24.3	18.6	0.00e+00	0	43	0	934281216	9	3784
2026-01-16 11:50:53.71	134.49	24.99	-23.7	-24.4	18.8	0.00e+00	0	43	0	940572672	8	3930
2026-01-16 11:50:54.72	134.40	25.15	-23.7	-24.5	18.8	0.00e+00	0	43	0	945815552	8	3931
2026-01-16 11:50:55.72	134.31	25.30	-23.6	-24.3	18.9	0.00e+00	0	43	0	951058432	8	3900
2026-01-16 11:50:56.71	134.22	25.45	-23.4	-23.9	19.1	0.00e+00	0	43	0	957349888	8	3809
2026-01-16 11:50:57.72	134.13	25.61	-23.4	-23.9	19.1	0.00e+00	0	43	0	962592768	8	3806
2026-01-16 11:50:58.72	134.03	25.77	-23.4	-23.8	19.2	0.00e+00	0	43	0	968884224	8	3774
2026-01-16 11:50:59.72	133.94	25.92	-23.3	-23.6	19.2	0.00e+00	0	43	0	974127104	8	3742
2026-01-16 11:51:00.72	133.84	26.08	-23.3	-23.7	19.2	0.00e+00	0	43	0	979369984	8	3765
2026-01-16 11:51:01.72	133.74	26.24	-23.3	-23.7	19.2	0.00e+00	0	43	0	985661440	8	3749
2026-01-16 11:51:02.73	133.64	26.40	-23.4	-23.9	19.1	0.00e+00	0	43	0	990904320	8	3789
2026-01-16 11:51:03.73	133.55	26.56	-23.4	-23.8	19.2	0.00e+00	0	43	0	996147200	8	3777
2026-01-16 11:51:04.74	133.44	26.72	-23.4	-23.9	19.1	0.00e+00	0	43	0	1002438656	8	3795
2026-01-16 11:51:05.73	133.34	26.88	-23.4	-23.9	19.1	0.00e+00	0	43	0	1007681536	8	3807
2026-01-16 11:51:06.73	133.24	27.04	-23.5	-24.0	19.1	0.00e+00	0	43	0	1012924416	8	3823
2026-01-16 11:51:07.74	133.14	27.21	-23.4	-23.9	19.1	0.00e+00	0	43	0	1019215872	8	3797
2026-01-16 11:51:08.74	133.03	27.37	-23.5	-24.0	19.1	0.00e+00	0	43	0	1024458752	8	3832
2026-01-16 11:51:09.74	132.93	27.54	-23.4	-23.8	19.2	0.00e+00	0	43	0	1030750208	8	3776
2026-01-16 11:51:10.75	132.82	27.71	-23.4	-23.9	19.2	0.00e+00	0	43	0	1035993088	8	3799
2026-01-16 11:51:11.75	132.71	27.87	-23.4	-23.8	19.2	0.00e+00	0	43	0	1042284544	8	3773
2026-01-16 11:51:12.76	132.60	28.04	-23.3	-23.7	19.3	0.00e+00	0	43	0	1047527424	8	3745
2026-01-16 11:51:13.75	132.49	28.21	-23.5	-24.0	19.1	0.00e+00	0	43	0	1052770304	8	3833
2026-01-16 11:51:14.75	132.38	28.38	-23.4	-23.8	19.2	0.00e+00	0	43	0	1059061760	8	3764
2026-01-16 11:51:15.75	132.27	28.55	-23.2	-23.9	19.4	0.00e+00	0	43	0	1064304640	7	3911
2026-01-16 11:51:16.76	132.16	28.72	-23.1	-23.8	19.5	0.00e+00	0	43	0	1069547520	7	3878
2026-01-16 11:51:17.76	132.04	28.90	-23.3	-24.0	19.3	0.00e+00	0	43	0	1075838976	7	3929
2026-01-16 11:51:18.76	131.92	29.07	-23.2	-23.9	19.4	0.00e+00	0	43	0	1081081856	7	3895
2026-01-16 11:51:19.76	131.81	29.25	-23.3	-24.2	19.3	0.00e+00	0	43	0	1086324736	7	3974
2026-01-16 11:51:20.76	131.69	29.42	-23.2	-24.0	19.4	0.00e+00	0	43	0	1092616192	7	3914
2026-01-16 11:51:21.76	131.57	29.60	-23.3	-24.1	19.3	0.00e+00	0	43	0	1097859072	7	3943
2026-01-16 11:51:22.76	131.45	29.77	-23.3	-24.1	19.3	0.00e+00	0	43	0	1104150528	7	3954
2026-01-16 11:51:23.76	131.32	29.95	-23.3	-24.1	19.3	0.00e+00	0	43	0	1109393408	7	3958
2026-01-16 11:51:24.76	131.20	30.13	-23.4	-24.2	19.3	0.00e+00	0	43	0	1114636288	7	3978
2026-01-16 11:51:25.76	131.07	30.31	-23.2	-24.0	19.4	0.00e+00	0	43	0	1120927744	7	3923
2026-01-16 11:51:26.76	130.95	30.49	-23.1	-23.6	19.6	0.00e+00	0	43	0	1126170624	7	3839
2026-01-16 11:51:27.77	130.82	30.68	-23.0	-23.4	19.7	0.00e+00	0	43	0	1131413504	7	3793
2026-01-16 11:51:28.78	130.69	30.86	-23.1	-23.6	19.6	0.00e+00	0	43	0	1137704960	7	3841
2026-01-16 11:51:29.78	130.55	31.05	-23.0	-23.4	19.7	0.00e+00	0	43	0	1142947840	7	3792
2026-01-16 11:51:30.79	130.42	31.23	-22.9	-23.3	19.7	0.00e+00	0	43	0	1149239296	7	3767
2026-01-16 11:51:31.79	130.28	31.42	-23.0	-23.4	19.7	0.00e+00	0	43	0	1154482176	7	3790
2026-01-16 11:51:32.79	130.15	31.61	-23.0	-23.5	19.7	0.00e+00	0	43	0	1159725056	7	3802
2026-01-16 11:51:33.79	130.01	31.80	-23.0	-23.5	19.7	0.00e+00	0	43	0	1166016512	7	3807
2026-01-16 11:51:34.79	129.87	31.98	-23.3	-24.1	19.4	0.00e+00	0	43	0	1171259392	7	3943
2026-01-16 11:51:35.79	129.73	32.17	-23.2	-24.0	19.4	0.00e+00	0	43	0	1177550848	7	3919
2026-01-16 11:51:36.79	129.59	32.37	-23.4	-24.3	19.3	0.00e+00	0	43	0	1182793728	7	3999
2026-01-16 11:51:37.79	129.44	32.56	-23.4	-24.3	19.3	0.00e+00	0	43	0	1188036608	7	3995
2026-01-16 11:51:38.79	129.29	32.75	-23.2	-23.8	19.5	0.00e+00	0	43	0	1194328064	7	3879
2026-01-16 11:51:39.78	129.15	32.94	-23.1	-23.8	19.5	0.00e+00	0	43	0	1199570944	7	3875
2026-01-16 11:51:40.79	129.00	33.14	-23.2	-23.8	19.5	0.00e+00	0	43	0	1204813824	7	3888
2026-01-16 11:51:41.80	128.84	33.34	-23.2	-23.8	19.5	0.00e+00	0	43	0	1211105280	7	3882
2026-01-16 11:51:42.80	128.69	33.54	-23.3	-24.2	19.3	0.00e+00	0	43	0	1216348160	7	3967
2026-01-16 11:51:43.81	128.53	33.74	-23.1	-23.8	19.6	0.00e+00	0	43	0	1221591040	7	3868
2026-01-16 11:51:44.82	128.37	33.94	-22.9	-23.4	19.8	0.00e+00	0	43	0	1227882496	7	3778
2026-01-16 11:51:45.82	128.21	34.14	-22.9	-23.4	19.7	0.00e+00	0	43	0	1233125376	7	3776
2026-01-16 11:51:46.82	128.05	34.34	-22.8	-23.1	19.9	0.00e+00	0	43	0	1239416832	7	3717
2026-01-16 11:51:47.82	127.89	34.54	-22.9	-23.3	19.8	0.00e+00	0	43	0	1244659712	7	3772
2026-01-16 11:51:48.82	127.72	34.75	-22.9	-23.2	19.8	0.00e+00	0	43	0	1249902592	7	3743
2026-01-16 11:51:49.82	127.55	34.95	-22.9	-23.3	19.8	0.00e+00	0	43	0	1256194048	7	3771
2026-01-16 11:51:50.81	127.38	35.16	-23.1	-23.7	19.6	0.00e+00	0	43	0	1261436928	7	3864
2026-01-16 11:51:51.82	127.21	35.36	-23.0	-23.4	19.7	0.00e+00	0	43	0	1266679808	7	3789
2026-01-16 11:51:52.82	127.04	35.57	-22.8	-23.0	19.9	0.00e+00	0	43	0	1272971264	7	3707
2026-01-16 11:51:53.82	126.86	35.78	-22.8	-23.5	20.0	0.00e+00	0	43	0	1278214144	6	3911
2026-01-16 11:51:54.82	126.68	35.99	-22.7	-23.3	20.1	0.00e+00	0	43	0	1283457024	6	3864
2026-01-16 11:51:55.83	126.50	36.20	-22.7	-23.3	20.1	0.00e+00	0	43	0	1289748480	6	3864
2026-01-16 11:51:56.83	126.31	36.42	-22.6	-23.2	20.1	0.00e+00	0	43	0	1294991360	6	3851
2026-01-16 11:51:57.84	126.12	36.63	-22.7	-23.4	20.0	1.10e-06	0	43	0	1301282816	6	3894
2026-01-16 11:51:58.83	125.94	36.84	-22.8	-23.5	20.0	0.00e+00	0	43	0	1306525696	6	3906
2026-01-16 11:51:59.84	125.74	37.06	-22.9	-23.8	19.8	0.00e+00	0	43	0	1312817152	6	3976
2026-01-16 11:52:00.85	125.55	37.28	-22.8	-23.7	19.9	0.00e+00	0	43	0	1318060032	6	3956
2026-01-16 11:52:01.84	125.35	37.49	-22.8	-23.6	19.9	0.00e+00	0	43	0	1323302912	6	3951
2026-01-16 11:52:02.84	125.15	37.71	-22.9	-23.8	19.8	0.00e+00	0	43	0	1329594368	6	3985
2026-01-16 11:52:03.84	124.95	37.93	-22.9	-23.8	19.8	0.00e+00	0	43	0	1334837248	6	3982
2026-01-16 11:52:04.84	124.75	38.15	-23.1	-24.2	19.6	0.00e+00	0	43	0	1340080128	6	4072
2026-01-16 11:52:05.84	124.54	38.37	-23.0	-23.9	19.8	0.00e+00	0	43	0	1346371584	6	4019
2026-01-16 11:52:06.83	124.33	38.59	-22.9	-23.8	19.9	0.00e+00	0	43	0	1351614464	6	3975
2026-01-16 11:52:07.83	124.12	38.82	-23.0	-23.9	19.8	0.00e+00	0	43	0	1356857344	6	4009
2026-01-16 11:52:08.84	123.90	39.04	-22.8	-23.6	20.0	0.00e+00	0	43	0	1363148800	6	3943
2026-01-16 11:52:09.84	123.68	39.27	-23.1	-24.1	19.7	0.00e+00	0	43	0	1368391680	6	4050
2026-01-16 11:52:10.84	123.46	39.50	-23.1	-24.2	19.7	0.00e+00	0	43	0	1374683136	6	4071
2026-01-16 11:52:11.85	123.23	39.72	-23.2	-24.4	19.6	0.00e+00	0	43	0	1379926016	6	4141
2026-01-16 11:52:12.85	123.00	39.95	-23.0	-24.0	19.8	0.00e+00	0	43	0	1385168896	6	4042
2026-01-16 11:52:13.86	122.76	40.18	-22.9	-23.8	19.9	0.00e+00	0	43	0	1391460352	6	3981
2026-01-16 11:52:14.87	122.53	40.42	-23.0	-24.0	19.8	0.00e+00	0	43	0	1396703232	6	4021
2026-01-16 11:52:15.87	122.29	40.65	-23.1	-24.1	19.7	0.00e+00	0	43	0	1401946112	6	4055
2026-01-16 11:52:16.88	122.04	40.88	-23.3	-24.5	19.5	0.00e+00	0	43	0	1408237568	6	4170
2026-01-16 11:52:17.87	121.80	41.11	-23.2	-24.4	19.6	0.00e+00	0	43	0	1413480448	6	4136
2026-01-16 11:52:18.87	121.55	41.35	-23.2	-24.4	19.6	0.00e+00	0	43	0	1419771904	6	4131
2026-01-16 11:52:19.88	121.29	41.58	-23.4	-24.8	19.4	0.00e+00	0	43	0	1425014784	6	4237
2026-01-16 11:52:20.88	121.04	41.82	-23.5	-24.5	19.3	0.00e+00	0	43	0	1430257664	7	4054
2026-01-16 11:52:21.88	120.77	42.06	-23.6	-24.7	19.2	0.00e+00	0	43	0	1436549120	7	4097
2026-01-16 11:52:22.88	120.51	42.29	-23.5	-24.4	19.3	0.00e+00	0	43	0	1441792000	7	4031
2026-01-16 11:52:23.88	120.24	42.53	-23.4	-24.3	19.4	0.00e+00	0	43	0	1447034880	7	3989
2026-01-16 11:52:24.89	119.96	42.77	-23.5	-24.5	19.3	0.00e+00	0	43	0	1453326336	7	4036
2026-01-16 11:52:25.89	119.69	43.01	-23.4	-24.2	19.4	0.00e+00	0	43	0	1458569216	7	3971
2026-01-16 11:52:26.89	119.41	43.25	-23.3	-24.2	19.5	0.00e+00	0	43	0	1464860672	7	3967
2026-01-16 11:52:27.89	119.12	43.49	-23.4	-24.2	19.4	0.00e+00	0	43	0	1470103552	7	3974
2026-01-16 11:52:28.89	118.83	43.74	-23.6	-24.8	19.2	0.00e+00	0	43	0	1475346432	7	4105
2026-01-16 11:52:29.89	118.54	43.98	-23.6	-24.7	19.2	0.00e+00	0	43	0	1481637888	7	4100
2026-01-16 11:52:30.90	118.23	44.22	-23.8	-25.1	19.0	0.00e+00	0	43	0	1486880768	7	4194
2026-01-16 11:52:31.91	117.93	44.47	-23.5	-24.6	19.3	0.00e+00	0	43	0	1493172224	7	4071
2026-01-16 11:52:32.91	117.62	44.71	-23.3	-24.1	19.5	0.00e+00	0	43	0	1498415104	7	3957
2026-01-16 11:52:33.92	117.30	44.96	-23.4	-24.2	19.5	0.00e+00	0	43	0	1503657984	7	3970
2026-01-16 11:52:34.92	116.98	45.21	-23.3	-24.0	19.6	0.00e+00	0	43	0	1509949440	7	3919
2026-01-16 11:52:35.92	116.66	45.45	-23.3	-24.2	19.5	0.00e+00	0	43	0	1515192320	7	3955
2026-01-16 11:52:36.92	116.33	45.70	-23.6	-24.7	19.3	0.00e+00	0	43	0	1520435200	7	4090
2026-01-16 11:52:37.92	116.00	45.95	-23.9	-25.3	19.0	0.00e+00	0	43	0	1526726656	7	4251
2026-01-16 11:52:38.92	115.66	46.19	-23.9	-25.3	19.0	0.00e+00	0	43	0	1531969536	7	4242
2026-01-16 11:52:39.92	115.31	46.44	-23.7	-24.8	19.2	0.00e+00	0	43	0	1537212416	7	4119
2026-01-16 11:52:40.93	114.96	46.69	-23.6	-24.7	19.3	0.00e+00	0	43	0	1543503872	7	4089
2026-01-16 11:52:41.93	114.61	46.94	-23.9	-25.3	19.0	0.00e+00	0	43	0	1548746752	7	4243
2026-01-16 11:52:42.93	114.24	47.19	-23.8	-25.2	19.1	0.00e+00	0	43	0	1555038208	7	4205
2026-01-16 11:52:43.93	113.88	47.44	-24.3	-25.7	18.6	0.00e+00	0	43	0	1560281088	8	4232
2026-01-16 11:52:44.93	113.50	47.69	-24.2	-25.5	18.7	0.00e+00	0	43	0	1565523968	8	4166
2026-01-16 11:52:45.93	113.13	47.93	-24.0	-25.0	18.9	0.00e+00	0	43	0	1571815424	8	4058
2026-01-16 11:52:46.93	112.74	48.18	-23.9	-24.8	19.0	0.00e+00	0	43	0	1577058304	8	3993
2026-01-16 11:52:47.93	112.35	48.43	-24.2	-25.5	18.7	0.00e+00	0	43	0	1582301184	8	4181
2026-01-16 11:52:48.94	111.95	48.68	-24.3	-25.7	18.6	0.00e+00	0	43	0	1588592640	8	4221
2026-01-16 11:52:49.94	111.54	48.93	-24.7	-25.9	18.2	0.00e+00	0	43	0	1593835520	9	4170
2026-01-16 11:52:50.94	111.13	49.18	-24.3	-25.2	18.7	0.00e+00	0	43	0	1600126976	9	3976
2026-01-16 11:52:51.95	110.71	49.43	-24.0	-24.5	19.0	0.00e+00	0	43	0	1605369856	9	3812
2026-01-16 11:52:52.94	110.29	49.68	-23.7	-24.3	19.3	0.00e+00	0	43	0	1610612736	8	3879
2026-01-16 11:52:53.94	109.86	49.92	-23.7	-24.4	19.3	0.00e+00	0	43	0	1616904192	8	3898
2026-01-16 11:52:54.94	109.42	50.17	-23.9	-24.9	19.0	0.00e+00	0	43	0	1622147072	8	4028
2026-01-16 11:52:55.94	108.97	50.42	-24.3	-25.8	18.6	0.00e+00	0	43	0	1628438528	8	4245
2026-01-16 11:52:56.94	108.52	50.66	-24.8	-26.3	18.0	0.00e+00	0	43	0	1633681408	9	4278
2026-01-16 11:52:57.95	108.05	50.91	-24.5	-25.6	18.4	0.00e+00	0	43	0	1638924288	9	4089
2026-01-16 11:52:58.94	107.59	51.15	-24.2	-24.9	18.8	0.00e+00	0	43	0	1645215744	9	3913
2026-01-16 11:52:59.94	107.11	51.40	-24.1	-24.7	18.9	0.00e+00	0	43	0	1650458624	9	3869
2026-01-16 11:53:00.95	106.62	51.64	-24.3	-25.2	18.6	0.00e+00	0	43	0	1655701504	9	3995
2026-01-16 11:53:01.95	106.13	51.89	-24.2	-25.0	18.8	0.00e+00	0	43	0	1661992960	9	3925
2026-01-16 11:53:02.96	105.63	52.13	-24.1	-24.7	18.9	0.00e+00	0	43	0	1667235840	9	3870
2026-01-16 11:53:03.96	105.12	52.37	-24.4	-25.3	18.6	0.00e+00	0	43	0	1672478720	9	4014
2026-01-16 11:53:04.96	104.60	52.61	-24.1	-24.8	18.8	0.00e+00	0	43	0	1678770176	9	3892
2026-01-16 11:53:05.97	104.07	52.85	-24.2	-24.9	18.8	0.00e+00	0	43	0	1684013056	9	3914
2026-01-16 11:53:06.98	103.53	53.09	-24.2	-24.9	18.8	0.00e+00	0	43	0	1690304512	9	3923
2026-01-16 11:53:07.98	102.99	53.32	-24.3	-25.1	18.7	0.00e+00	0	43	0	1695547392	9	3967
2026-01-16 11:53:08.98	102.43	53.55	-24.1	-24.7	18.9	0.00e+00	0	43	0	1700790272	9	3870
2026-01-16 11:53:09.99	101.87	53.79	-24.0	-24.6	18.9	0.00e+00	0	43	0	1707081728	9	3846
2026-01-16 11:53:10.99	101.30	54.02	-24.4	-25.2	18.7	0.00e+00	0	43	0	1712324608	9	3990
2026-01-16 11:53:11.99	100.72	54.24	-24.3	-25.2	18.7	0.00e+00	0	43	0	1718616064	9	3995
2026-01-16 11:53:13.00	100.13	54.47	-24.5	-25.6	18.5	0.00e+00	0	43	0	1723858944	9	4075
2026-01-16 11:53:14.00	99.53	54.70	-24.0	-24.6	19.0	0.00e+00	0	43	0	1729101824	9	3839
2026-01-16 11:53:15.00	98.92	54.92	-24.1	-24.6	19.0	0.00e+00	0	43	0	1735393280	9	3850
2026-01-16 11:53:16.00	98.30	55.14	-24.5	-25.5	18.5	0.00e+00	0	43	0	1740636160	9	4064
2026-01-16 11:53:17.00	97.68	55.35	-24.1	-24.8	18.9	0.00e+00	0	43	0	1745879040	9	3885
2026-01-16 11:53:18.00	97.04	55.57	-23.9	-24.2	19.2	0.00e+00	0	43	0	1752170496	9	3757
2026-01-16 11:53:19.00	96.40	55.78	-24.0	-24.6	19.0	0.00e+00	0	43	0	1757413376	9	3834
2026-01-16 11:53:20.00	95.74	55.98	-24.1	-24.8	18.9	0.00e+00	0	43	0	1763704832	9	3886
2026-01-16 11:53:21.00	95.08	56.19	-24.0	-24.6	19.0	0.00e+00	0	43	0	1768947712	9	3835
2026-01-16 11:53:22.00	94.40	56.39	-23.7	-24.5	19.3	0.00e+00	0	43	0	1774190592	8	3922
2026-01-16 11:53:23.00	93.72	56.59	-23.7	-24.4	19.3	0.00e+00	0	43	0	1780482048	8	3907
2026-01-16 11:53:24.00	93.02	56.79	-23.5	-24.0	19.5	0.00e+00	0	43	0	1785724928	8	3809
2026-01-16 11:53:25.01	92.31	56.98	-23.6	-24.2	19.5	0.00e+00	0	43	0	1790967808	8	3842
2026-01-16 11:53:26.01	91.60	57.17	-23.4	-23.8	19.6	0.00e+00	0	43	0	1797259264	8	3756
2026-01-16 11:53:27.01	90.87	57.35	-23.6	-24.2	19.4	0.00e+00	0	43	0	1802502144	8	3860
2026-01-16 11:53:28.01	90.14	57.54	-23.7	-24.5	19.3	0.00e+00	0	43	0	1807745024	8	3919
2026-01-16 11:53:29.01	89.39	57.71	-23.6	-24.1	19.5	0.00e+00	0	43	0	1814036480	8	3830
2026-01-16 11:53:30.01	88.64	57.89	-23.6	-24.2	19.5	0.00e+00	0	43	0	1819279360	8	3857
2026-01-16 11:53:31.02	87.87	58.06	-23.8	-24.7	19.2	0.00e+00	0	43	0	1825570816	8	3964
2026-01-16 11:53:32.02	87.10	58.22	-24.2	-25.5	18.8	0.00e+00	0	43	0	1830813696	8	4191
2026-01-16 11:53:33.02	86.31	58.38	-23.9	-24.9	19.1	0.00e+00	0	43	0	1836056576	8	4014
2026-01-16 11:53:34.03	85.51	58.54	-23.9	-24.8	19.2	0.00e+00	0	43	0	1842348032	8	3994
2026-01-16 11:53:35.03	84.71	58.69	-24.5	-25.7	18.4	0.00e+00	0	43	0	1847590912	9	4119
2026-01-16 11:53:36.03	83.90	58.83	-24.4	-25.3	18.6	0.00e+00	0	43	0	1852833792	9	4029
2026-01-16 11:53:37.04	83.08	58.97	-24.3	-25.1	18.7	0.00e+00	0	43	0	1859125248	9	3972
2026-01-16 11:53:38.04	82.25	59.11	-24.5	-25.5	18.6	0.00e+00	0	43	0	1864368128	9	4055
2026-01-16 11:53:39.04	81.41	59.24	-24.2	-24.9	18.8	0.00e+00	0	43	0	1870659584	9	3918
2026-01-16 11:53:40.04	80.57	59.36	-23.9	-24.4	19.1	0.00e+00	0	43	0	1875902464	9	3810
2026-01-16 11:53:41.05	79.71	59.48	-23.6	-24.2	19.5	0.00e+00	0	43	0	1881145344	8	3843
2026-01-16 11:53:42.05	78.85	59.60	-23.8	-24.5	19.3	0.00e+00	0	43	0	1887436800	8	3936
2026-01-16 11:53:43.05	77.98	59.70	-23.9	-24.8	19.1	0.00e+00	0	43	0	1892679680	8	4007
2026-01-16 11:53:44.05	77.11	59.81	-24.4	-25.9	18.6	0.00e+00	0	43	0	1898971136	8	4274
2026-01-16 11:53:45.04	76.23	59.90	-24.1	-25.2	18.9	0.00e+00	0	43	0	1904214016	8	4105
2026-01-16 11:53:46.04	75.35	59.99	-23.7	-24.4	19.3	0.00e+00	0	43	0	1909456896	8	3903
2026-01-16 11:53:47.05	74.45	60.07	-23.8	-24.6	19.2	0.00e+00	0	43	0	1915748352	8	3950
2026-01-16 11:53:48.05	73.55	60.15	-23.8	-24.6	19.2	0.00e+00	0	43	0	1920991232	8	3960
2026-01-16 11:53:49.06	72.63	60.22	-23.6	-24.2	19.4	0.00e+00	0	43	0	1926234112	8	3849
2026-01-16 11:53:50.06	71.73	60.29	-23.5	-23.9	19.6	0.00e+00	0	43	0	1932525568	8	3781
2026-01-16 11:53:51.05	70.82	60.35	-23.8	-24.6	19.3	2.20e-06	0	43	0	1937768448	8	3943
2026-01-16 11:53:52.06	69.89	60.40	-23.6	-24.2	19.6	0.00e+00	0	43	0	1943011328	8	3844
2026-01-16 11:53:53.06	68.97	60.44	-23.4	-23.7	19.8	0.00e+00	0	43	0	1949302784	8	3733
2026-01-16 11:53:54.06	68.05	60.48	-23.5	-24.0	19.7	0.00e+00	0	43	0	1954545664	8	3796
2026-01-16 11:53:55.07	67.12	60.51	-23.9	-24.8	19.3	0.00e+00	0	43	0	1960837120	8	3991
2026-01-16 11:53:56.07	66.19	60.54	-23.7	-24.4	19.5	0.00e+00	0	43	0	1966080000	8	3888
2026-01-16 11:53:57.07	65.26	60.56	-23.7	-24.4	19.5	0.00e+00	0	43	0	1971322880	8	3894
2026-01-16 11:53:58.06	64.34	60.57	-23.4	-23.8	19.8	0.00e+00	0	43	0	1977614336	8	3757
2026-01-16 11:53:59.07	63.39	60.57	-23.2	-23.7	20.0	0.00e+00	0	43	0	1982857216	7	3829
2026-01-16 11:54:00.07	62.46	60.57	-23.6	-24.6	19.6	0.00e+00	0	43	0	1988100096	7	4064
2026-01-16 11:54:01.07	61.53	60.56	-23.6	-24.6	19.6	0.00e+00	0	43	0	1994391552	7	4047
2026-01-16 11:54:02.07	60.60	60.55	-23.6	-24.6	19.6	0.00e+00	0	43	0	1999634432	7	4035
2026-01-16 11:54:03.07	59.67	60.53	-24.1	-25.3	19.1	0.00e+00	0	43	0	2004877312	8	4096
2026-01-16 11:54:04.08	58.74	60.50	-24.1	-25.1	19.1	0.00e+00	0	43	0	2011168768	8	4064
2026-01-16 11:54:05.08	57.81	60.46	-24.0	-24.9	19.2	0.00e+00	0	43	0	2016411648	8	3996
2026-01-16 11:54:06.09	56.88	60.42	-24.1	-25.2	19.0	0.00e+00	0	43	0	2022703104	8	4085
2026-01-16 11:54:07.09	55.96	60.37	-24.8	-26.1	18.4	0.00e+00	0	43	0	2027945984	9	4179
2026-01-16 11:54:08.10	55.04	60.32	-24.7	-25.9	18.5	0.00e+00	0	43	0	2034237440	9	4149
2026-01-16 11:54:09.09	54.14	60.26	-25.0	-26.1	18.1	0.00e+00	0	43	0	2039480320	10	4083
2026-01-16 11:54:10.09	53.23	60.19	-24.3	-24.6	18.9	0.00e+00	0	43	0	2044723200	10	3722
2026-01-16 11:54:11.09	52.33	60.11	-24.0	-24.5	19.2	0.00e+00	0	43	0	2051014656	9	3808
2026-01-16 11:54:12.09	51.43	60.03	-24.1	-24.7	19.1	0.00e+00	0	43	0	2056257536	9	3850
2026-01-16 11:54:13.10	50.54	59.95	-24.4	-25.3	18.7	0.00e+00	0	43	0	2061500416	9	4008
2026-01-16 11:54:14.10	49.65	59.85	-24.2	-24.9	19.0	0.00e+00	0	43	0	2067791872	9	3895
2026-01-16 11:54:15.10	48.78	59.75	-24.2	-24.9	18.9	0.00e+00	0	43	0	2073034752	9	3905
2026-01-16 11:54:16.10	47.91	59.65	-24.6	-25.7	18.6	0.00e+00	0	43	0	2078277632	9	4086
2026-01-16 11:54:17.11	47.04	59.54	-24.3	-25.0	18.9	0.00e+00	0	43	0	2084569088	9	3924
2026-01-16 11:54:18.12	46.17	59.42	-23.6	-24.1	19.6	0.00e+00	0	43	0	2089811968	8	3826
2026-01-16 11:54:19.11	45.33	59.30	-23.4	-23.6	19.8	0.00e+00	0	43	0	2096103424	8	3718
2026-01-16 11:54:20.11	44.49	59.17	-23.2	-23.8	20.0	0.00e+00	0	43	0	2101346304	7	3864
2026-01-16 11:54:21.11	43.66	59.04	-23.2	-23.8	20.0	0.00e+00	0	43	0	2106589184	7	3857
2026-01-16 11:54:22.11	42.84	58.90	-23.1	-23.5	20.1	0.00e+00	0	43	0	2112880640	7	3796
2026-01-16 11:54:23.11	42.03	58.76	-23.3	-24.0	19.9	0.00e+00	0	43	0	2118123520	7	3901
2026-01-16 11:54:24.11	41.22	58.61	-23.5	-24.5	19.6	0.00e+00	0	43	0	2123366400	7	4025
2026-01-16 11:54:25.11	40.43	58.46	-23.5	-24.5	19.6	0.00e+00	0	43	0	2129657856	7	4022
2026-01-16 11:54:26.11	39.64	58.30	-23.4	-24.2	19.8	0.00e+00	0	43	0	2134900736	7	3943
2026-01-16 11:54:27.12	38.86	58.14	-23.3	-24.1	19.8	0.00e+00	0	43	0	2141192192	7	3920
2026-01-16 11:54:28.12	38.09	57.97	-23.0	-23.4	20.2	0.00e+00	0	43	0	2146435072	7	3767
2026-01-16 11:54:29.12	37.33	57.80	-23.0	-23.4	20.1	0.00e+00	0	43	0	2151677952	7	3777
2026-01-16 11:54:30.13	36.58	57.63	-23.2	-23.8	20.0	0.00e+00	0	43	0	2157969408	7	3853
2026-01-16 11:54:31.14	35.83	57.45	-23.1	-23.7	20.0	0.00e+00	0	43	0	2163212288	7	3822
2026-01-16 11:54:32.14	35.10	57.26	-23.2	-23.8	20.0	0.00e+00	0	43	0	2169503744	7	3867
2026-01-16 11:54:33.13	34.39	57.08	-23.4	-24.3	19.7	0.00e+00	0	43	0	2174746624	7	3971
2026-01-16 11:54:34.13	33.68	56.89	-23.4	-24.1	19.8	0.00e+00	0	43	0	2179989504	7	3937
2026-01-16 11:54:35.13	32.98	56.70	-23.4	-24.3	19.7	0.00e+00	0	43	0	2185232384	7	3974
2026-01-16 11:54:36.13	32.29	56.50	-23.5	-24.5	19.6	0.00e+00	0	43	0	2191523840	7	4015
2026-01-16 11:54:37.14	31.61	56.30	-23.4	-24.2	19.7	0.00e+00	0	43	0	2196766720	7	3958
2026-01-16 11:54:38.14	30.94	56.09	-23.5	-24.4	19.6	0.00e+00	0	43	0	2203058176	7	4002
2026-01-16 11:54:39.14	30.28	55.89	-23.4	-24.2	19.7	0.00e+00	0	43	0	2208301056	7	3957
2026-01-16 11:54:40.14	29.63	55.68	-23.4	-24.1	19.8	0.00e+00	0	43	0	2214592512	7	3937
2026-01-16 11:54:41.14	28.99	55.47	-23.2	-23.9	19.9	0.00e+00	0	43	0	2219835392	7	3878
2026-01-16 11:54:42.14	28.36	55.25	-23.3	-24.1	19.8	0.00e+00	0	43	0	2225078272	7	3920
2026-01-16 11:54:43.14	27.74	55.04	-24.0	-25.0	19.1	0.00e+00	0	43	0	2231369728	8	4026
2026-01-16 11:54:44.14	27.13	54.82	-24.1	-25.2	19.0	0.00e+00	0	43	0	2236612608	8	4090
2026-01-16 11:54:45.14	26.53	54.59	-24.1	-25.2	19.0	0.00e+00	0	43	0	2241855488	8	4094
2026-01-16 11:54:46.14	25.94	54.37	-24.0	-25.0	19.1	0.00e+00	0	43	0	2248146944	8	4034
2026-01-16 11:54:47.15	25.35	54.14	-24.0	-25.1	19.1	0.00e+00	0	43	0	2253389824	8	4054
2026-01-16 11:54:48.15	24.78	53.91	-23.8	-24.5	19.4	0.00e+00	0	43	0	2258632704	8	3914
2026-01-16 11:54:49.15	24.21	53.68	-23.6	-24.0	19.6	0.00e+00	0	43	0	2264924160	8	3803
2026-01-16 11:54:50.16	23.65	53.45	-23.6	-24.2	19.5	0.00e+00	0	43	0	2270167040	8	3847
2026-01-16 11:54:51.16	23.10	53.22	-24.0	-24.9	19.1	0.00e+00	0	43	0	2276458496	8	4015
2026-01-16 11:54:52.16	22.57	52.98	-24.0	-25.0	19.1	0.00e+00	0	43	0	2281701376	8	4031
2026-01-16 11:54:53.17	22.03	52.74	-24.4	-25.7	18.7	0.00e+00	0	43	0	2286944256	8	4219
2026-01-16 11:54:54.17	21.51	52.51	-23.9	-24.7	19.2	0.00e+00	0	43	0	2293235712	8	3969
2026-01-16 11:54:55.18	20.99	52.27	-23.5	-23.9	19.6	0.00e+00	0	43	0	2298478592	8	3775
2026-01-16 11:54:56.18	20.49	52.03	-23.4	-23.8	19.7	0.00e+00	0	43	0	2303721472	8	3752
2026-01-16 11:54:57.17	20.00	51.79	-23.7	-24.4	19.4	0.00e+00	0	43	0	2310012928	8	3888
2026-01-16 11:54:58.18	19.51	51.54	-23.9	-24.8	19.2	0.00e+00	0	43	0	2315255808	8	3987
2026-01-16 11:54:59.18	19.03	51.30	-23.9	-24.8	19.2	0.00e+00	0	43	0	2320498688	8	3983
2026-01-16 11:55:00.19	18.55	51.05	-23.3	-23.5	19.8	0.00e+00	0	43	0	2326790144	8	3683
2026-01-16 11:55:01.19	18.09	50.81	-23.1	-23.7	20.0	0.00e+00	0	43	0	2332033024	7	3831
2026-01-16 11:55:02.19	17.63	50.56	-23.4	-24.1	19.7	0.00e+00	0	43	0	2338324480	7	3938
2026-01-16 11:55:03.19	17.18	50.32	-23.5	-24.4	19.6	0.00e+00	0	43	0	2343567360	7	4004
2026-01-16 11:55:04.20	16.74	50.07	-23.5	-24.4	19.6	0.00e+00	0	43	0	2349858816	7	4009
2026-01-16 11:55:05.20	16.30	49.82	-23.4	-24.2	19.7	0.00e+00	0	43	0	2355101696	7	3956
2026-01-16 11:55:06.19	15.88	49.58	-23.4	-24.3	19.7	0.00e+00	0	43	0	2360344576	7	3964
2026-01-16 11:55:07.19	15.46	49.33	-23.3	-24.1	19.7	0.00e+00	0	43	0	2366636032	7	3916
2026-01-16 11:55:08.20	15.04	49.08	-23.4	-24.3	19.7	0.00e+00	0	43	0	2371878912	7	3974
2026-01-16 11:55:09.20	14.63	48.83	-23.5	-24.5	19.5	0.00e+00	0	43	0	2377121792	7	4031
2026-01-16 11:55:10.20	14.23	48.59	-23.6	-24.7	19.5	0.00e+00	0	43	0	2383413248	7	4067
2026-01-16 11:55:11.20	13.84	48.34	-23.5	-24.5	19.5	0.00e+00	0	43	0	2388656128	7	4038
2026-01-16 11:55:12.21	13.45	48.09	-23.4	-24.2	19.7	0.00e+00	0	43	0	2393899008	7	3951
2026-01-16 11:55:13.22	13.06	47.84	-23.2	-23.8	19.9	0.00e+00	0	43	0	2400190464	7	3865
2026-01-16 11:55:14.21	12.69	47.59	-23.2	-23.9	19.8	0.00e+00	0	43	0	2405433344	7	3885
2026-01-16 11:55:15.21	12.32	47.34	-23.3	-24.1	19.7	0.00e+00	0	43	0	2411724800	7	3926
2026-01-16 11:55:16.22	11.95	47.09	-22.9	-23.3	20.1	0.00e+00	0	43	0	2416967680	7	3744
2026-01-16 11:55:17.22	11.60	46.85	-22.7	-23.2	20.4	0.00e+00	0	43	0	2422210560	6	3835
2026-01-16 11:55:18.22	11.24	46.60	-22.6	-22.9	20.5	0.00e+00	0	43	0	2428502016	6	3767
2026-01-16 11:55:19.23	10.89	46.35	-22.6	-23.1	20.5	0.00e+00	0	43	0	2433744896	6	3801
2026-01-16 11:55:20.23	10.55	46.10	-22.8	-23.4	20.3	0.00e+00	0	43	0	2438987776	6	3879
2026-01-16 11:55:21.23	10.22	45.86	-22.9	-23.7	20.2	0.00e+00	0	43	0	2445279232	6	3947
2026-01-16 11:55:22.24	9.88	45.61	-23.0	-23.8	20.1	0.00e+00	0	43	0	2450522112	6	3970
2026-01-16 11:55:23.24	9.56	45.36	-22.9	-23.7	20.1	0.00e+00	0	43	0	2456813568	6	3945
2026-01-16 11:55:24.23	9.24	45.12	-22.9	-23.6	20.2	0.00e+00	0	43	0	2462056448	6	3926
2026-01-16 11:55:25.23	8.93	44.88	-22.7	-23.3	20.3	0.00e+00	0	43	0	2467299328	6	3865
2026-01-16 11:55:26.23	8.62	44.63	-22.8	-23.4	20.3	0.00e+00	0	43	0	2473590784	6	3879
2026-01-16 11:55:27.23	8.31	44.39	-22.9	-23.7	20.1	0.00e+00	0	43	0	2478833664	6	3948
2026-01-16 11:55:28.23	8.01	44.15	-22.8	-23.5	20.2	0.00e+00	0	43	0	2484076544	6	3905
2026-01-16 11:55:29.24	7.71	43.90	-23.0	-23.9	20.0	0.00e+00	0	43	0	2490368000	6	3986
2026-01-16 11:55:30.24	7.42	43.66	-23.0	-24.0	20.0	0.00e+00	0	43	0	2495610880	6	4021
2026-01-16 11:55:31.24	7.13	43.42	-22.8	-23.5	20.2	0.00e+00	0	43	0	2501902336	6	3900
2026-01-16 11:55:32.25	6.85	43.18	-22.8	-23.4	20.3	0.00e+00	0	43	0	2507145216	6	3874
2026-01-16 11:55:33.25	6.57	42.94	-22.8	-23.5	20.2	0.00e+00	0	43	0	2512388096	6	3884
2026-01-16 11:55:34.25	6.29	42.70	-22.9	-23.8	20.1	0.00e+00	0	43	0	2518679552	6	3955
2026-01-16 11:55:35.26	6.02	42.46	-22.7	-23.2	20.3	0.00e+00	0	43	0	2523922432	6	3833
2026-01-16 11:55:36.27	5.75	42.22	-22.6	-23.1	20.4	0.00e+00	0	43	0	2529165312	6	3801
2026-01-16 11:55:37.27	5.49	41.98	-22.7	-23.3	20.3	0.00e+00	0	43	0	2535456768	6	3844
2026-01-16 11:55:38.28	5.23	41.75	-23.0	-24.0	20.0	0.00e+00	0	43	0	2540699648	6	4009
2026-01-16 11:55:39.29	4.97	41.51	-23.2	-24.3	19.8	0.00e+00	0	43	0	2546991104	6	4098
2026-01-16 11:55:40.28	4.72	41.28	-23.2	-24.3	19.8	0.00e+00	0	43	0	2552233984	6	4094
2026-01-16 11:55:41.28	4.47	41.05	-23.1	-24.1	19.9	0.00e+00	0	43	0	2557476864	6	4054
2026-01-16 11:55:42.28	4.23	40.81	-23.2	-24.2	19.8	0.00e+00	0	43	0	2563768320	6	4066
2026-01-16 11:55:43.28	3.99	40.58	-23.2	-24.3	19.8	0.00e+00	0	43	0	2569011200	6	4076
2026-01-16 11:55:44.28	3.75	40.35	-23.0	-23.9	20.0	0.00e+00	0	43	0	2574254080	6	3988
2026-01-16 11:55:45.28	3.52	40.13	-23.1	-24.1	19.9	0.00e+00	0	43	0	2580545536	6	4045
2026-01-16 11:55:46.29	3.29	39.89	-22.8	-23.5	20.2	0.00e+00	0	43	0	2585788416	6	3906
2026-01-16 11:55:47.29	3.06	39.67	-22.7	-23.3	20.3	0.00e+00	0	43	0	2592079872	6	3840
2026-01-16 11:55:48.29	2.84	39.44	-22.7	-23.3	20.3	0.00e+00	0	43	0	2597322752	6	3840
2026-01-16 11:55:49.29	2.62	39.22	-22.8	-23.5	20.2	0.00e+00	0	43	0	2602565632	6	3896
2026-01-16 11:55:50.29	2.40	38.99	-23.1	-24.0	19.9	0.00e+00	0	43	0	2608857088	6	4018
2026-01-16 11:55:51.28	2.19	38.77	-23.2	-24.3	19.7	0.00e+00	0	43	0	2614099968	6	4103
2026-01-16 11:55:52.29	1.97	38.55	-23.0	-23.8	20.0	0.00e+00	0	43	0	2620391424	6	3981
2026-01-16 11:55:53.29	1.76	38.33	-22.8	-23.4	20.2	0.00e+00	0	43	0	2625634304	6	3878
2026-01-16 11:55:54.30	1.56	38.10	-22.7	-23.3	20.2	0.00e+00	0	43	0	2630877184	6	3856
2026-01-16 11:55:55.29	1.36	37.89	-22.7	-23.2	20.3	0.00e+00	0	43	0	2637168640	6	3838
2026-01-16 11:55:56.30	1.15	37.67	-22.8	-23.4	20.2	0.00e+00	0	43	0	2642411520	6	3879
2026-01-16 11:55:57.30	0.96	37.45	-23.1	-24.2	19.8	0.00e+00	0	43	0	2647654400	6	4070
2026-01-16 11:55:58.31	0.76	37.23	-23.1	-24.2	19.8	0.00e+00	0	43	0	2653945856	6	4063
2026-01-16 11:55:59.31	0.57	37.02	-23.3	-24.6	19.6	0.00e+00	0	43	0	2659188736	6	4170
2026-01-16 11:56:00.32	0.38	36.80	-23.1	-24.2	19.8	0.00e+00	0	43	0	2664431616	6	4077
2026-01-16 11:56:01.31	0.19	36.59	-22.9	-23.8	20.0	0.00e+00	0	43	0	2670723072	6	3966
2026-01-16 11:56:02.32	0.00	36.38	-22.9	-23.6	20.1	0.00e+00	0	43	0	2675965952	6	3929
2026-01-16 11:56:03.32	359.82	36.17	-22.9	-23.7	20.0	0.00e+00	0	43	0	2682257408	6	3937
2026-01-16 11:56:04.32	359.64	35.96	-22.8	-23.5	20.1	0.00e+00	0	43	0	2687500288	6	3898
2026-01-16 11:56:05.33	359.46	35.74	-22.9	-23.6	20.1	0.00e+00	0	43	0	2692743168	6	3934
2026-01-16 11:56:06.33	359.29	35.54	-22.9	-23.7	20.0	0.00e+00	0	43	0	2699034624	6	3961
2026-01-16 11:56:07.33	359.12	35.33	-22.7	-23.4	20.2	0.00e+00	0	43	0	2704277504	6	3879
2026-01-16 11:56:08.33	358.94	35.12	-22.7	-23.4	20.1	0.00e+00	0	43	0	2709520384	6	3871
2026-01-16 11:56:09.34	358.77	34.92	-22.7	-23.3	20.2	0.00e+00	0	43	0	2715811840	6	3864
2026-01-16 11:56:10.34	358.61	34.71	-22.6	-23.0	20.4	0.00e+00	0	43	0	2721054720	6	3788
2026-01-16 11:56:11.34	358.44	34.51	-22.7	-23.3	20.2	0.00e+00	0	43	0	2727346176	6	3842
2026-01-16 11:56:12.34	358.28	34.31	-22.8	-23.5	20.1	0.00e+00	0	43	0	2732589056	6	3906
2026-01-16 11:56:13.34	358.12	34.11	-22.9	-23.7	20.0	0.00e+00	0	43	0	2737831936	6	3935
2026-01-16 11:56:14.35	357.96	33.91	-23.1	-24.1	19.8	0.00e+00	0	43	0	2744123392	6	4046
2026-01-16 11:56:15.34	357.81	33.71	-23.2	-24.3	19.7	0.00e+00	0	43	0	2749366272	6	4090
2026-01-16 11:56:16.34	357.65	33.52	-23.5	-24.9	19.4	0.00e+00	0	43	0	2755657728	6	4246
2026-01-16 11:56:17.35	357.50	33.32	-23.7	-24.8	19.2	0.00e+00	0	43	0	2760900608	7	4104
2026-01-16 11:56:18.35	357.35	33.12	-23.8	-25.0	19.1	0.00e+00	0	43	0	2766143488	7	4162
2026-01-16 11:56:19.35	357.20	32.93	-23.5	-24.4	19.4	0.00e+00	0	43	0	2772434944	7	4012
2026-01-16 11:56:20.35	357.05	32.74	-23.2	-23.9	19.7	0.00e+00	0	43	0	2777677824	7	3876
2026-01-16 11:56:21.35	356.91	32.54	-23.1	-23.7	19.7	0.00e+00	0	43	0	2782920704	7	3834
2026-01-16 11:56:22.34	356.77	32.35	-23.2	-23.9	19.6	0.00e+00	0	43	0	2789212160	7	3894
2026-01-16 11:56:23.35	356.62	32.16	-23.3	-24.1	19.5	0.00e+00	0	43	0	2794455040	7	3933
2026-01-16 11:56:24.35	356.48	31.97	-23.1	-23.6	19.8	0.00e+00	0	43	0	2799697920	7	3808
2026-01-16 11:56:25.35	356.34	31.78	-23.1	-23.5	19.8	0.00e+00	0	43	0	2805989376	7	3798
2026-01-16 11:56:26.36	356.21	31.60	-23.1	-23.7	19.7	0.00e+00	0	43	0	2811232256	7	3841
2026-01-16 11:56:27.35	356.07	31.41	-23.2	-23.7	19.7	0.00e+00	0	43	0	2817523712	7	3848
2026-01-16 11:56:28.36	355.94	31.22	-23.2	-23.8	19.7	0.00e+00	0	43	0	2822766592	7	3853
2026-01-16 11:56:29.37	355.81	31.04	-23.2	-23.9	19.6	0.00e+00	0	43	0	2828009472	7	3878
2026-01-16 11:56:30.36	355.68	30.86	-23.2	-23.9	19.6	0.00e+00	0	43	0	2834300928	7	3897
2026-01-16 11:56:31.36	355.55	30.68	-23.2	-23.7	19.7	0.00e+00	0	43	0	2839543808	7	3854
2026-01-16 11:56:32.36	355.42	30.49	-23.2	-23.8	19.7	0.00e+00	0	43	0	2844786688	7	3856
2026-01-16 11:56:33.36	355.29	30.31	-23.2	-23.8	19.6	0.00e+00	0	43	0	2851078144	7	3875
2026-01-16 11:56:34.36	355.17	30.14	-23.1	-23.7	19.7	0.00e+00	0	43	0	2856321024	7	3846
2026-01-16 11:56:35.36	355.05	29.96	-23.1	-23.7	19.7	0.00e+00	0	43	0	2861563904	7	3841
2026-01-16 11:56:36.36	354.92	29.78	-23.2	-23.9	19.6	0.00e+00	0	43	0	2867855360	7	3878
2026-01-16 11:56:37.37	354.80	29.60	-23.3	-24.0	19.5	0.00e+00	0	43	0	2873098240	7	3905
2026-01-16 11:56:38.37	354.68	29.43	-23.3	-24.1	19.5	0.00e+00	0	43	0	2879389696	7	3932
2026-01-16 11:56:39.37	354.57	29.25	-23.3	-24.0	19.6	0.00e+00	0	43	0	2884632576	7	3898
2026-01-16 11:56:40.38	354.45	29.08	-23.3	-23.9	19.6	0.00e+00	0	43	0	2889875456	7	3890
2026-01-16 11:56:41.38	354.33	28.90	-23.3	-24.0	19.5	0.00e+00	0	43	0	2896166912	7	3903
2026-01-16 11:56:42.37	354.22	28.73	-23.3	-24.1	19.5	0.00e+00	0	43	0	2901409792	7	3934
2026-01-16 11:56:43.38	354.11	28.56	-23.3	-24.0	19.5	0.00e+00	0	43	0	2906652672	7	3910
2026-01-16 11:56:44.38	354.00	28.39	-23.4	-24.2	19.4	0.00e+00	0	43	0	2912944128	7	3946
2026-01-16 11:56:45.39	353.88	28.22	-23.3	-24.0	19.5	0.00e+00	0	43	0	2918187008	7	3908
2026-01-16 11:56:46.39	353.78	28.05	-23.3	-24.1	19.5	0.00e+00	0	43	0	2924478464	7	3932
2026-01-16 11:56:47.39	353.67	27.89	-23.4	-24.3	19.4	0.00e+00	0	43	0	2929721344	7	3969
2026-01-16 11:56:48.40	353.56	27.72	-23.4	-24.3	19.4	0.00e+00	0	43	0	2934964224	7	3970
2026-01-16 11:56:49.40	353.46	27.55	-23.5	-24.5	19.3	0.00e+00	0	43	0	2941255680	7	4018
2026-01-16 11:56:50.40	353.35	27.39	-23.3	-24.0	19.5	0.00e+00	0	43	0	2946498560	7	3911
2026-01-16 11:56:51.39	353.25	27.23	-23.3	-24.0	19.6	0.00e+00	0	43	0	2952790016	7	3900
2026-01-16 11:56:52.39	353.15	27.06	-23.3	-24.0	19.5	0.00e+00	0	43	0	2958032896	7	3913
2026-01-16 11:56:53.40	353.04	26.90	-23.4	-24.2	19.4	0.00e+00	0	43	0	2963275776	7	3957
2026-01-16 11:56:54.40	352.94	26.74	-23.4	-24.2	19.4	0.00e+00	0	43	0	2969567232	7	3960
2026-01-16 11:56:55.40	352.85	26.58	-23.3	-24.1	19.5	0.00e+00	0	43	0	2974810112	7	3941
2026-01-16 11:56:56.40	352.75	26.42	-23.3	-24.1	19.5	0.00e+00	0	43	0	2980052992	7	3933
2026-01-16 11:56:57.41	352.65	26.26	-23.3	-24.1	19.5	0.00e+00	0	43	0	2986344448	7	3933
2026-01-16 11:56:58.41	352.55	26.10	-23.2	-23.9	19.5	0.00e+00	0	43	0	2991587328	7	3889
2026-01-16 11:56:59.41	352.46	25.95	-23.3	-24.0	19.5	0.00e+00	0	43	0	2996830208	7	3919
2026-01-16 11:57:00.41	352.36	25.79	-23.3	-24.1	19.4	0.00e+00	0	43	0	3003121664	7	3942
2026-01-16 11:57:01.42	352.27	25.63	-23.2	-23.9	19.6	0.00e+00	0	43	0	3008364544	7	3876
2026-01-16 11:57:02.42	352.18	25.48	-23.3	-24.1	19.5	0.00e+00	0	43	0	3014656000	7	3923
2026-01-16 11:57:03.41	352.09	25.33	-23.4	-24.2	19.4	0.00e+00	0	43	0	3019898880	7	3956
2026-01-16 11:57:04.42	352.00	25.17	-23.4	-24.2	19.4	0.00e+00	0	43	0	3025141760	7	3957
2026-01-16 11:57:05.42	351.91	25.02	-23.4	-24.3	19.3	0.00e+00	0	43	0	3031433216	7	3988
2026-01-16 11:57:06.41	351.82	24.87	-23.5	-24.5	19.2	0.00e+00	0	43	0	3036676096	7	4029
2026-01-16 11:57:07.41	351.73	24.72	-23.5	-24.5	19.2	0.00e+00	0	43	0	3041918976	7	4021
2026-01-16 11:57:08.41	351.65	24.57	-23.6	-24.6	19.2	0.00e+00	0	43	0	3048210432	7	4054
2026-01-16 11:57:09.41	351.56	24.43	-23.7	-24.8	19.0	0.00e+00	0	43	0	3053453312	7	4106
2026-01-16 11:57:10.40	351.48	24.28	-23.6	-24.8	19.1	0.00e+00	0	43	0	3058696192	7	4099
2026-01-16 11:57:11.40	351.39	24.13	-23.6	-24.7	19.1	0.00e+00	0	43	0	3064987648	7	4091
2026-01-16 11:57:12.40	351.31	23.99	-23.7	-24.9	19.0	0.00e+00	0	43	0	3070230528	7	4120
2026-01-16 11:57:13.40	351.23	23.84	-23.7	-25.0	18.9	0.00e+00	0	43	0	3076521984	7	4150
2026-01-16 11:57:14.40	351.14	23.69	-23.8	-25.0	18.9	0.00e+00	0	43	0	3081764864	7	4156
2026-01-16 11:57:15.40	351.06	23.55	-23.7	-24.8	19.0	0.00e+00	0	43	0	3087007744	7	4107
2026-01-16 11:57:16.40	350.98	23.41	-23.6	-24.8	19.1	0.00e+00	0	43	0	3093299200	7	4090
2026-01-16 11:57:17.41	350.90	23.26	-23.8	-25.0	18.9	0.00e+00	0	43	0	3098542080	7	4145
2026-01-16 11:57:18.41	350.82	23.12	-23.8	-25.0	18.9	0.00e+00	0	43	0	3103784960	7	4158
2026-01-16 11:57:19.41	350.75	22.98	-23.7	-24.8	19.0	0.00e+00	0	43	0	3110076416	7	4104
2026-01-16 11:57:20.42	350.67	22.84	-23.7	-24.8	19.0	0.00e+00	0	43	0	3115319296	7	4104
2026-01-16 11:57:21.42	350.59	22.70	-23.7	-24.9	18.9	0.00e+00	0	43	0	3121610752	7	4130
2026-01-16 11:57:22.42	350.52	22.56	-23.8	-25.0	18.9	0.00e+00	0	43	0	3126853632	7	4150
2026-01-16 11:57:23.41	350.44	22.42	-23.7	-24.9	19.0	0.00e+00	0	43	0	3132096512	7	4133
2026-01-16 11:57:24.42	350.37	22.28	-23.8	-25.1	18.8	0.00e+00	0	43	0	3138387968	7	4188
2026-01-16 11:57:25.41	350.29	22.15	-23.8	-25.0	18.9	0.00e+00	0	43	0	3143630848	7	4156
2026-01-16 11:57:26.42	350.22	22.01	-23.8	-25.2	18.8	0.00e+00	0	43	0	3148873728	7	4200
2026-01-16 11:57:27.42	350.15	21.87	-23.9	-25.2	18.8	0.00e+00	0	43	0	3155165184	7	4213
2026-01-16 11:57:28.42	350.08	21.74	-24.0	-25.4	18.7	0.00e+00	0	43	0	3160408064	7	4259
2026-01-16 11:57:29.42	350.00	21.60	-24.2	-25.4	18.5	0.00e+00	0	43	0	3165650944	8	4134
2026-01-16 11:57:30.41	349.94	21.47	-24.2	-25.4	18.4	0.00e+00	0	43	0	3171942400	8	4157
2026-01-16 11:57:31.41	349.87	21.34	-24.1	-25.3	18.5	0.00e+00	0	43	0	3177185280	8	4127
2026-01-16 11:57:32.40	349.80	21.21	-24.2	-25.4	18.4	0.00e+00	0	43	0	3183476736	8	4152
2026-01-16 11:57:33.41	349.73	21.08	-24.2	-25.4	18.4	0.00e+00	0	43	0	3188719616	8	4158
2026-01-16 11:57:34.40	349.66	20.95	-24.2	-25.5	18.4	0.00e+00	0	43	0	3193962496	8	4181
2026-01-16 11:57:35.40	349.59	20.82	-24.3	-25.7	18.3	0.00e+00	0	43	0	3200253952	8	4226
2026-01-16 11:57:36.40	349.53	20.69	-24.1	-25.3	18.5	0.00e+00	0	43	0	3205496832	8	4117
2026-01-16 11:57:37.40	349.46	20.56	-24.1	-25.4	18.4	0.00e+00	0	43	0	3210739712	8	4136
2026-01-16 11:57:38.40	349.40	20.43	-24.2	-25.4	18.4	0.00e+00	0	43	0	3217031168	8	4141
2026-01-16 11:57:39.40	349.33	20.30	-24.1	-25.3	18.5	0.00e+00	0	43	0	3222274048	8	4110
2026-01-16 11:57:40.41	349.27	20.17	-24.2	-25.4	18.4	0.00e+00	0	43	0	3227516928	8	4135
2026-01-16 11:57:41.40	349.20	20.05	-24.2	-25.5	18.3	0.00e+00	0	43	0	3233808384	8	4170
2026-01-16 11:57:42.40	349.14	19.92	-24.3	-25.5	18.3	0.00e+00	0	43	0	3239051264	8	4178
2026-01-16 11:57:43.40	349.08	19.79	-24.0	-25.1	18.6	0.00e+00	0	43	0	3245342720	8	4058
2026-01-16 11:57:44.40	349.01	19.67	-24.0	-25.0	18.6	0.00e+00	0	43	0	3250585600	8	4047
2026-01-16 11:57:45.40	348.95	19.54	-24.2	-25.5	18.3	0.00e+00	0	43	0	3255828480	8	4161
2026-01-16 11:57:46.40	348.89	19.42	-24.2	-25.5	18.3	0.00e+00	0	43	0	3262119936	8	4166
2026-01-16 11:57:47.40	348.83	19.30	-24.2	-25.3	18.4	0.00e+00	0	43	0	3267362816	8	4118
2026-01-16 11:57:48.40	348.77	19.18	-24.3	-25.6	18.3	0.00e+00	0	43	0	3272605696	8	4197
2026-01-16 11:57:49.41	348.71	19.05	-24.2	-25.4	18.4	0.00e+00	0	43	0	3278897152	8	4145
2026-01-16 11:57:50.41	348.65	18.93	-24.2	-25.5	18.3	0.00e+00	0	43	0	3284140032	8	4171
2026-01-16 11:57:51.42	348.59	18.81	-24.3	-25.7	18.2	0.00e+00	0	43	0	3289382912	8	4219
2026-01-16 11:57:52.43	348.53	18.69	-24.3	-25.6	18.2	0.00e+00	0	43	0	3295674368	8	4201
2026-01-16 11:57:53.43	348.48	18.57	-24.5	-26.0	18.0	0.00e+00	0	43	0	3300917248	8	4307
2026-01-16 11:57:54.44	348.42	18.45	-24.9	-26.4	17.6	0.00e+00	0	43	0	3307208704	9	4288
2026-01-16 11:57:55.44	348.36	18.33	-25.0	-26.1	17.5	0.00e+00	0	43	0	3312451584	10	4097
2026-01-16 11:57:56.44	348.31	18.21	-24.8	-25.7	17.6	0.00e+00	0	43	0	3318743040	10	4007
2026-01-16 11:57:57.44	348.25	18.09	-24.8	-25.8	17.7	0.00e+00	0	43	0	3323985920	10	4012
2026-01-16 11:57:58.44	348.19	17.98	-24.8	-25.7	17.7	0.00e+00	0	43	0	3329228800	10	3998
2026-01-16 11:57:59.44	348.14	17.86	-24.9	-25.9	17.5	0.00e+00	0	43	0	3335520256	10	4057
2026-01-16 11:58:00.44	348.09	17.74	-25.0	-26.1	17.5	0.00e+00	0	43	0	3340763136	10	4094
2026-01-16 11:58:01.44	348.03	17.63	-25.1	-26.3	17.3	0.00e+00	0	43	0	3346006016	10	4152
2026-01-16 11:58:02.44	347.98	17.51	-25.0	-26.1	17.4	0.00e+00	0	43	0	3352297472	10	4097
2026-01-16 11:58:03.44	347.93	17.40	-25.1	-26.4	17.3	0.00e+00	0	43	0	3357540352	10	4176
2026-01-16 11:58:04.44	347.87	17.28	-25.1	-26.4	17.3	0.00e+00	0	43	0	3362783232	10	4179
2026-01-16 11:58:05.45	347.82	17.17	-25.3	-26.8	17.1	0.00e+00	0	43	0	3369074688	10	4279
2026-01-16 11:58:06.46	347.77	17.05	-25.3	-26.8	17.0	0.00e+00	0	43	0	3374317568	10	4290
2026-01-16 11:58:07.46	347.72	16.94	-25.2	-26.6	17.1	0.00e+00	0	43	0	3380609024	10	4241
2026-01-16 11:58:08.46	347.67	16.83	-25.1	-26.4	17.3	0.00e+00	0	43	0	3385851904	10	4173
2026-01-16 11:58:09.47	347.61	16.72	-25.2	-26.6	17.2	0.00e+00	0	43	0	3391094784	10	4213
2026-01-16 11:58:10.47	347.56	16.61	-25.2	-26.6	17.1	0.00e+00	0	43	0	3397386240	10	4229
2026-01-16 11:58:11.47	347.51	16.50	-25.3	-26.8	17.0	0.00e+00	0	43	0	3402629120	10	4268
2026-01-16 11:58:12.46	347.47	16.39	-25.2	-26.7	17.1	0.00e+00	0	43	0	3407872000	10	4247
2026-01-16 11:58:13.46	347.42	16.28	-25.2	-26.6	17.1	0.00e+00	0	43	0	3414163456	10	4233
2026-01-16 11:58:14.46	347.37	16.17	-25.2	-26.6	17.1	0.00e+00	0	43	0	3419406336	10	4224
2026-01-16 11:58:15.46	347.32	16.06	-25.3	-26.8	17.0	0.00e+00	0	43	0	3424649216	10	4280
2026-01-16 11:58:16.46	347.27	15.95	-25.2	-26.7	17.1	0.00e+00	0	43	0	3430940672	10	4248
2026-01-16 11:58:17.46	347.23	15.84	-25.3	-26.8	17.0	0.00e+00	0	43	0	3436183552	10	4283
2026-01-16 11:58:18.47	347.18	15.74	-25.3	-26.8	17.0	0.00e+00	0	43	0	3442475008	10	4284
2026-01-16 11:58:19.48	347.13	15.63	-25.3	-26.9	16.9	0.00e+00	0	43	0	3447717888	10	4305
2026-01-16 11:58:20.48	347.08	15.52	-25.3	-26.8	17.0	0.00e+00	0	43	0	3452960768	10	4290
2026-01-16 11:58:21.48	347.04	15.42	-25.4	-27.0	16.9	0.00e+00	0	43	0	3459252224	10	4330
2026-01-16 11:58:22.49	346.99	15.31	-25.4	-27.1	16.8	0.00e+00	0	43	0	3464495104	10	4357
2026-01-16 11:58:23.50	346.95	15.20	-25.4	-26.6	16.8	0.00e+00	0	43	0	3470786560	11	4128
2026-01-16 11:58:24.49	346.90	15.10	-25.4	-26.6	16.8	0.00e+00	0	43	0	3476029440	11	4120
2026-01-16 11:58:25.49	346.86	15.00	-25.5	-26.7	16.8	0.00e+00	0	43	0	3481272320	11	4138
2026-01-16 11:58:26.49	346.81	14.89	-25.6	-26.9	16.6	0.00e+00	0	43	0	3487563776	11	4204
2026-01-16 11:58:27.48	346.77	14.79	-25.5	-26.7	16.7	0.00e+00	0	43	0	3492806656	11	4140
2026-01-16 11:58:28.48	346.73	14.69	-25.6	-27.0	16.6	0.00e+00	0	43	0	3498049536	11	4220
2026-01-16 11:58:29.48	346.68	14.58	-25.5	-26.9	16.6	0.00e+00	0	43	0	3504340992	11	4192
2026-01-16 11:58:30.48	346.64	14.48	-25.5	-26.8	16.7	0.00e+00	0	43	0	3509583872	11	4166
2026-01-16 11:58:31.48	346.60	14.38	-25.5	-26.8	16.7	0.00e+00	0	43	0	3514826752	11	4169
2026-01-16 11:58:32.48	346.56	14.28	-25.7	-27.1	16.5	0.00e+00	0	43	0	3521118208	11	4258
2026-01-16 11:58:33.48	346.51	14.18	-25.6	-27.1	16.5	0.00e+00	0	43	0	3526361088	11	4249
2026-01-16 11:58:34.49	346.47	14.08	-25.6	-27.1	16.5	0.00e+00	0	43	0	3532652544	11	4240
2026-01-16 11:58:35.49	346.43	13.98	-25.7	-27.3	16.4	0.00e+00	0	43	0	3537895424	11	4301
2026-01-16 11:58:36.49	346.39	13.88	-25.8	-27.4	16.3	0.00e+00	0	43	0	3543138304	11	4344
2026-01-16 11:58:37.49	346.35	13.78	-25.7	-27.3	16.4	0.00e+00	0	43	0	3549429760	11	4303
2026-01-16 11:58:38.50	346.31	13.68	-25.9	-27.1	16.1	0.00e+00	0	43	0	3554672640	12	4154
2026-01-16 11:58:39.49	346.27	13.58	-25.7	-26.6	16.4	0.00e+00	0	43	0	3559915520	12	4024
2026-01-16 11:58:40.50	346.23	13.48	-25.6	-26.5	16.4	0.00e+00	0	43	0	3566206976	12	3994
2026-01-16 11:58:41.50	346.19	13.38	-25.6	-26.6	16.4	0.00e+00	0	43	0	3571449856	12	4020
2026-01-16 11:58:42.50	346.15	13.29	-25.7	-26.7	16.3	0.00e+00	0	43	0	3577741312	12	4037
2026-01-16 11:58:43.50	346.11	13.19	-25.6	-26.5	16.4	0.00e+00	0	43	0	3582984192	12	3998
2026-01-16 11:58:44.50	346.07	13.09	-25.7	-26.7	16.3	0.00e+00	0	43	0	3588227072	12	4027
2026-01-16 11:58:45.51	346.03	13.00	-25.7	-26.8	16.2	0.00e+00	0	43	0	3594518528	12	4072
2026-01-16 11:58:46.51	345.99	12.90	-25.8	-27.0	16.1	0.00e+00	0	43	0	3599761408	12	4126
2026-01-16 11:58:47.50	345.96	12.80	-25.9	-27.2	16.0	0.00e+00	0	43	0	3605004288	12	4178
2026-01-16 11:58:48.51	345.92	12.71	-26.0	-27.4	15.9	0.00e+00	0	43	0	3611295744	12	4228
2026-01-16 11:58:49.50	345.88	12.61	-26.0	-27.4	15.9	0.00e+00	0	43	0	3616538624	12	4219
2026-01-16 11:58:50.50	345.84	12.52	-26.1	-27.6	15.7	0.00e+00	0	43	0	3621781504	12	4287
2026-01-16 11:58:51.51	345.81	12.43	-26.0	-27.3	15.9	0.00e+00	0	43	0	3628072960	12	4207
2026-01-16 11:58:52.50	345.77	12.33	-26.1	-27.6	15.8	0.00e+00	0	43	0	3633315840	12	4275
2026-01-16 11:58:53.51	345.73	12.24	-26.0	-27.4	15.8	0.00e+00	0	43	0	3639607296	12	4235
2026-01-16 11:58:54.52	345.70	12.14	-26.2	-27.8	15.6	0.00e+00	0	43	0	3644850176	12	4340
2026-01-16 11:58:55.52	345.66	12.05	-25.9	-27.2	15.9	0.00e+00	0	43	0	3650093056	12	4183
2026-01-16 11:58:56.52	345.63	11.96	-26.3	-28.0	15.5	0.00e+00	0	43	0	3656384512	12	4398
2026-01-16 11:58:57.51	345.59	11.87	-26.2	-27.8	15.6	0.00e+00	0	43	0	3661627392	12	4331
2026-01-16 11:58:58.52	345.56	11.78	-26.1	-27.7	15.6	0.00e+00	0	43	0	3666870272	12	4319
2026-01-16 11:58:59.51	345.52	11.68	-26.1	-27.5	15.8	0.00e+00	0	43	0	3673161728	12	4255
2026-01-16 11:59:00.51	345.49	11.59	-26.1	-27.6	15.8	0.00e+00	0	43	0	3678404608	12	4275
2026-01-16 11:59:01.51	345.45	11.50	-26.2	-27.8	15.6	0.00e+00	0	43	0	3683647488	12	4348
2026-01-16 11:59:02.52	345.42	11.41	-26.1	-27.7	15.6	0.00e+00	0	43	0	3689938944	12	4310
2026-01-16 11:59:03.51	345.39	11.32	-26.2	-27.8	15.6	0.00e+00	0	43	0	3695181824	12	4339
2026-01-16 11:59:04.52	345.35	11.23	-26.2	-27.8	15.6	0.00e+00	0	43	0	3701473280	12	4328
2026-01-16 11:59:05.53	345.32	11.14	-26.0	-27.5	15.7	0.00e+00	0	43	0	3706716160	12	4257
2026-01-16 11:59:06.52	345.28	11.05	-26.2	-27.8	15.5	1.10e-06	0	43	0	3711959040	12	4337
2026-01-16 11:59:07.52	345.25	10.96	-26.0	-27.4	15.8	0.00e+00	0	43	0	3718250496	12	4228
2026-01-16 11:59:08.52	345.22	10.88	-26.3	-28.0	15.4	0.00e+00	0	43	0	3723493376	12	4397
2026-01-16 11:59:09.52	345.19	10.79	-26.1	-27.7	15.6	0.00e+00	0	43	0	3728736256	12	4303
2026-01-16 11:59:10.53	345.15	10.70	-26.0	-27.4	15.7	0.00e+00	0	43	0	3735027712	12	4235
2026-01-16 11:59:11.54	345.12	10.61	-26.3	-28.1	15.3	0.00e+00	0	43	0	3740270592	12	4424
2026-01-16 11:59:12.54	345.09	10.52	-26.3	-28.0	15.4	0.00e+00	0	43	0	3746562048	12	4382
2026-01-16 11:59:13.55	345.06	10.44	-26.4	-28.2	15.2	0.00e+00	0	43	0	3751804928	12	4447
2026-01-16 11:59:14.55	345.03	10.35	-26.4	-28.3	15.2	0.00e+00	0	43	0	3757047808	12	4488
2026-01-16 11:59:15.55	345.00	10.26	-26.4	-27.8	15.2	0.00e+00	0	43	0	3763339264	13	4224
2026-01-16 11:59:16.55	344.96	10.18	-26.2	-27.4	15.4	0.00e+00	0	43	0	3768582144	13	4111
2026-01-16 11:59:17.55	344.93	10.09	-26.2	-27.3	15.5	0.00e+00	0	43	0	3774873600	13	4102
2026-01-16 11:59:18.56	344.90	10.00	-26.2	-27.4	15.4	0.00e+00	0	43	0	3780116480	13	4116
2026-01-16 11:59:19.56	344.87	9.92	-26.4	-27.9	15.1	0.00e+00	0	43	0	3785359360	13	4241
2026-01-16 11:59:20.56	344.84	9.83	-26.3	-27.6	15.2	0.00e+00	0	43	0	3791650816	13	4182
2026-01-16 11:59:21.55	344.81	9.75	-26.3	-27.5	15.3	0.00e+00	0	43	0	3796893696	13	4155
2026-01-16 11:59:22.55	344.78	9.67	-26.3	-27.5	15.3	0.00e+00	0	43	0	3802136576	13	4155
2026-01-16 11:59:23.56	344.75	9.58	-26.3	-27.5	15.3	0.00e+00	0	43	0	3808428032	13	4133
2026-01-16 11:59:24.56	344.72	9.50	-26.6	-28.2	14.9	0.00e+00	0	43	0	3813670912	13	4341
2026-01-16 11:59:25.56	344.69	9.41	-26.3	-27.5	15.3	0.00e+00	0	43	0	3818913792	13	4134
2026-01-16 11:59:26.56	344.67	9.33	-26.3	-27.5	15.3	0.00e+00	0	43	0	3825205248	13	4146
2026-01-16 11:59:27.55	344.64	9.25	-26.3	-27.7	15.2	0.00e+00	0	43	0	3830448128	13	4186
2026-01-16 11:59:28.55	344.61	9.17	-26.3	-27.7	15.2	0.00e+00	0	43	0	3836739584	13	4191
2026-01-16 11:59:29.55	344.58	9.08	-26.6	-28.2	14.8	0.00e+00	0	43	0	3841982464	13	4346
2026-01-16 11:59:30.55	344.55	9.00	-26.6	-28.2	14.8	0.00e+00	0	43	0	3847225344	13	4353
2026-01-16 11:59:31.55	344.52	8.92	-26.5	-28.0	14.9	0.00e+00	0	43	0	3853516800	13	4288
