passes_logs/2026/01/16/R2M6_AANII_01/R2M6_AANII_01__20260116_225727_SUOMI_NPP_rec.log

#Pass ID: 20260116_225727_SUOMI NPP
#Satellite: SUOMI NPP
#Configuration: NPP
#almurnet v.1.7.20240730
#Start time: 2026-01-16 22:57:26

#Version: 2.2.20231116
#Station: R2M6_AANII_01
#Location: 30.233357 lon 59.946436 lat
#TLE: 1 37849U 11061A   26016.23176763  .00000061  00000+0  49926-4 0  9990
#TLE: 2 37849  98.7812 318.2698 0002434  61.5135 298.6286 14.19525545736883

#Time	Az	El	Level	Level2	SNR	BER	BlckErr	Temp	State	Recorded	gain1	gain2
2026-01-16 22:57:26.87	28.46	6.97	-30.7	-34.2	5.3	1.18e+00	0	41	0	0	21	5380
2026-01-16 22:57:27.86	28.55	7.04	-31.8	-37.9	4.6	1.32e+00	0	41	104	0	23	7276
2026-01-16 22:57:28.86	28.63	7.10	-31.8	-37.9	6.2	3.19e-01	0	41	0	0	23	7244
2026-01-16 22:57:29.86	28.72	7.17	-31.7	-37.2	6.7	2.63e-01	0	41	0	1048576	23	6808
2026-01-16 22:57:30.86	28.81	7.23	-31.8	-37.8	6.3	1.98e-01	0	41	0	3145728	23	7156
2026-01-16 22:57:31.86	28.89	7.30	-31.7	-37.1	6.8	2.40e-01	0	41	0	5242880	23	6717
2026-01-16 22:57:32.87	28.98	7.36	-31.6	-36.8	7.1	2.03e-01	0	41	0	7340032	23	6492
2026-01-16 22:57:33.87	29.07	7.43	-31.4	-35.6	8.0	8.15e-02	0	41	0	9437184	23	5866
2026-01-16 22:57:34.87	29.16	7.49	-31.3	-35.8	8.3	4.32e-02	0	41	0	10485760	22	6002
2026-01-16 22:57:35.88	29.25	7.56	-31.1	-34.9	9.0	3.95e-02	0	41	0	12582912	22	5580
2026-01-16 22:57:36.88	29.34	7.63	-30.9	-34.1	9.5	2.17e-02	0	41	0	14680064	22	5219
2026-01-16 22:57:37.88	29.43	7.69	-30.9	-34.6	9.6	1.69e-02	0	41	0	16777216	21	5520
2026-01-16 22:57:38.89	29.52	7.76	-30.9	-34.6	9.6	1.52e-02	0	41	0	17825792	21	5504
2026-01-16 22:57:39.88	29.61	7.83	-30.7	-33.5	10.0	1.62e-02	0	41	0	19922944	22	4967
2026-01-16 22:57:40.89	29.70	7.89	-30.6	-33.5	10.4	6.87e-03	0	41	0	22020096	21	5053
2026-01-16 22:57:41.89	29.79	7.96	-30.6	-33.8	10.2	3.40e-03	0	42	0	24117248	21	5149
2026-01-16 22:57:42.89	29.88	8.03	-30.8	-34.2	9.9	7.47e-03	0	42	0	26214400	21	5323
2026-01-16 22:57:43.89	29.97	8.09	-30.6	-33.6	10.3	6.65e-03	0	41	0	27262976	21	5096
2026-01-16 22:57:44.89	30.06	8.16	-30.4	-33.0	10.7	5.06e-03	0	42	0	29360128	21	4847
2026-01-16 22:57:45.89	30.16	8.23	-30.3	-33.2	11.0	1.62e-03	0	42	0	31457280	20	4991
2026-01-16 22:57:46.89	30.25	8.30	-30.2	-32.8	11.3	1.54e-03	0	42	0	33554432	20	4854
2026-01-16 22:57:47.89	30.34	8.36	-30.3	-33.2	11.1	1.47e-03	0	42	0	35651584	20	4997
2026-01-16 22:57:48.89	30.44	8.43	-30.3	-33.1	11.2	1.53e-03	0	42	0	36700160	20	4951
2026-01-16 22:57:49.88	30.53	8.50	-30.4	-33.4	10.9	1.29e-03	0	42	0	38797312	20	5092
2026-01-16 22:57:50.89	30.63	8.57	-30.3	-33.1	11.2	1.66e-03	0	42	0	40894464	20	4938
2026-01-16 22:57:51.89	30.72	8.63	-30.2	-32.8	11.4	1.53e-03	0	42	0	42991616	20	4827
2026-01-16 22:57:52.89	30.82	8.70	-30.4	-33.3	11.1	1.65e-03	0	42	0	45088768	20	5038
2026-01-16 22:57:53.89	30.91	8.77	-30.2	-32.8	11.3	1.57e-03	0	42	0	46137344	20	4854
2026-01-16 22:57:54.90	31.01	8.84	-30.5	-33.5	10.9	1.59e-03	0	42	0	48234496	20	5110
2026-01-16 22:57:55.90	31.11	8.91	-30.4	-33.3	11.1	3.04e-03	0	42	0	50331648	20	5022
2026-01-16 22:57:56.91	31.21	8.98	-30.5	-33.1	10.8	2.40e-03	0	42	0	52428800	21	4876
2026-01-16 22:57:57.91	31.30	9.05	-30.5	-33.1	10.9	2.96e-03	0	42	0	53477376	21	4844
2026-01-16 22:57:58.91	31.40	9.11	-30.4	-33.1	11.2	2.51e-03	0	42	0	55574528	20	4956
2026-01-16 22:57:59.91	31.50	9.18	-30.4	-33.3	11.1	2.54e-03	0	42	0	57671680	20	5007
2026-01-16 22:58:00.91	31.60	9.25	-30.5	-33.2	10.8	2.53e-03	0	42	0	59768832	21	4885
2026-01-16 22:58:01.90	31.70	9.32	-30.6	-33.4	10.6	4.45e-03	0	42	0	61865984	21	4992
2026-01-16 22:58:02.91	31.80	9.39	-30.5	-33.1	10.8	3.67e-03	0	42	0	62914560	21	4848
2026-01-16 22:58:03.91	31.90	9.46	-30.4	-33.1	11.2	1.77e-03	0	42	0	65011712	20	4940
2026-01-16 22:58:04.91	32.00	9.53	-30.2	-32.7	11.5	1.62e-03	0	42	0	67108864	20	4773
2026-01-16 22:58:05.90	32.10	9.60	-30.1	-32.3	11.6	9.51e-04	0	42	0	69206016	20	4619
2026-01-16 22:58:06.90	32.20	9.67	-30.1	-32.3	11.7	3.80e-04	0	42	0	71303168	20	4620
2026-01-16 22:58:07.90	32.30	9.74	-30.2	-32.6	11.7	8.98e-04	0	42	0	72351744	20	4749
2026-01-16 22:58:08.90	32.41	9.81	-30.1	-32.1	11.6	4.23e-04	0	42	0	74448896	20	4566
2026-01-16 22:58:09.91	32.51	9.88	-30.1	-32.3	11.7	5.61e-04	0	42	0	76546048	20	4624
2026-01-16 22:58:10.91	32.61	9.95	-29.8	-31.5	12.4	3.87e-04	0	42	0	78643200	20	4363
2026-01-16 22:58:11.91	32.72	10.02	-30.0	-32.4	12.2	2.36e-04	0	42	0	79691776	19	4747
2026-01-16 22:58:12.92	32.82	10.09	-30.0	-32.3	12.3	1.11e-04	0	42	0	81788928	19	4705
2026-01-16 22:58:13.92	32.93	10.16	-29.9	-32.0	12.5	1.15e-04	0	42	0	83886080	19	4619
2026-01-16 22:58:14.93	33.04	10.23	-29.9	-32.2	12.4	7.57e-04	0	42	0	85983232	19	4676
2026-01-16 22:58:15.93	33.14	10.30	-29.9	-32.3	12.3	1.35e-04	0	42	0	88080384	19	4705
2026-01-16 22:58:16.92	33.25	10.37	-29.9	-31.7	12.3	2.36e-04	0	42	0	90177536	20	4441
2026-01-16 22:58:17.92	33.35	10.44	-29.9	-31.6	12.3	7.17e-04	0	42	0	91226112	20	4406
2026-01-16 22:58:18.92	33.46	10.51	-30.0	-31.9	12.2	1.87e-04	0	42	0	93323264	20	4487
2026-01-16 22:58:19.93	33.57	10.59	-29.8	-31.5	12.5	2.23e-04	0	42	0	95420416	20	4354
2026-01-16 22:58:20.93	33.68	10.66	-29.9	-32.2	12.4	1.88e-04	0	42	0	97517568	19	4658
2026-01-16 22:58:21.93	33.79	10.73	-30.0	-32.4	12.3	7.06e-04	0	42	0	98566144	19	4728
2026-01-16 22:58:22.93	33.90	10.80	-30.1	-32.3	11.9	2.13e-04	0	42	0	100663296	20	4633
2026-01-16 22:58:23.93	34.01	10.87	-30.0	-32.3	12.3	3.44e-04	0	42	0	102760448	19	4711
2026-01-16 22:58:24.93	34.12	10.94	-29.9	-32.1	12.5	6.09e-04	0	42	0	104857600	19	4639
2026-01-16 22:58:25.94	34.23	11.02	-29.7	-31.2	12.7	1.17e-04	0	42	0	106954752	20	4242
2026-01-16 22:58:26.94	34.34	11.09	-29.8	-31.8	12.7	7.17e-05	0	42	0	108003328	19	4525
2026-01-16 22:58:27.94	34.45	11.16	-29.9	-32.1	12.6	5.26e-05	0	42	0	110100480	19	4622
2026-01-16 22:58:28.94	34.57	11.23	-29.9	-32.1	12.5	1.17e-04	0	42	0	112197632	19	4628
2026-01-16 22:58:29.94	34.68	11.31	-29.8	-31.9	12.6	7.17e-05	0	42	0	114294784	19	4567
2026-01-16 22:58:30.94	34.79	11.38	-29.9	-32.0	12.6	6.10e-05	0	43	0	116391936	19	4586
2026-01-16 22:58:31.94	34.91	11.45	-29.8	-31.8	12.8	8.54e-05	0	42	0	117440512	19	4533
2026-01-16 22:58:32.93	35.02	11.52	-29.8	-31.7	12.8	4.45e-04	0	42	0	119537664	19	4512
2026-01-16 22:58:33.93	35.14	11.60	-29.9	-32.2	12.5	8.54e-05	0	43	0	121634816	19	4665
2026-01-16 22:58:34.93	35.25	11.67	-29.8	-31.8	12.7	1.12e-04	0	43	0	123731968	19	4546
2026-01-16 22:58:35.94	35.37	11.74	-29.9	-32.2	12.5	4.16e-04	0	42	0	124780544	19	4655
2026-01-16 22:58:36.94	35.49	11.82	-29.9	-32.2	12.5	8.54e-05	0	42	0	126877696	19	4679
2026-01-16 22:58:37.93	35.60	11.89	-29.9	-32.2	12.5	1.35e-04	0	42	0	128974848	19	4676
2026-01-16 22:58:38.93	35.72	11.96	-30.1	-32.3	12.0	4.68e-04	0	42	0	131072000	20	4614
2026-01-16 22:58:39.93	35.84	12.04	-30.5	-33.0	11.2	1.09e-03	0	43	0	133169152	21	4780
2026-01-16 22:58:40.94	35.96	12.11	-30.2	-32.1	11.8	1.10e-03	0	43	0	134217728	21	4464
2026-01-16 22:58:41.94	36.08	12.18	-30.1	-31.7	12.2	5.27e-04	0	42	0	136314880	21	4320
2026-01-16 22:58:42.95	36.20	12.26	-30.2	-32.4	12.0	5.15e-04	0	43	0	138412032	20	4645
2026-01-16 22:58:43.95	36.33	12.33	-30.2	-32.5	11.9	2.97e-04	0	43	0	140509184	20	4697
2026-01-16 22:58:44.95	36.45	12.41	-30.2	-32.6	11.8	4.15e-04	0	43	0	142606336	20	4707
2026-01-16 22:58:45.96	36.57	12.48	-30.3	-32.7	11.8	6.24e-04	0	42	0	143654912	20	4743
2026-01-16 22:58:46.96	36.69	12.56	-30.3	-32.8	11.7	6.02e-04	0	43	0	145752064	20	4792
2026-01-16 22:58:47.96	36.82	12.63	-30.2	-32.4	12.0	5.81e-04	0	43	0	147849216	20	4653
2026-01-16 22:58:48.96	36.94	12.71	-30.2	-32.5	12.0	3.94e-04	0	43	0	149946368	20	4670
2026-01-16 22:58:49.96	37.07	12.78	-30.2	-32.5	12.0	2.25e-04	0	43	0	152043520	20	4675
2026-01-16 22:58:50.96	37.19	12.86	-30.2	-32.4	12.1	4.50e-04	0	43	0	153092096	20	4631
2026-01-16 22:58:51.96	37.32	12.93	-30.4	-33.0	11.6	4.10e-04	0	43	0	155189248	20	4868
2026-01-16 22:58:52.97	37.44	13.01	-30.2	-32.5	12.0	3.98e-04	0	43	0	157286400	20	4669
2026-01-16 22:58:53.97	37.57	13.08	-30.0	-31.7	12.5	2.66e-04	0	43	0	159383552	20	4410
2026-01-16 22:58:54.97	37.70	13.16	-29.8	-31.3	12.8	2.04e-04	0	43	0	161480704	20	4259
2026-01-16 22:58:55.98	37.83	13.23	-29.6	-30.8	13.1	4.04e-05	0	43	0	162529280	20	4127
2026-01-16 22:58:56.98	37.96	13.31	-29.6	-30.7	13.2	3.05e-05	0	43	0	164626432	20	4092
2026-01-16 22:58:57.98	38.09	13.38	-29.8	-31.1	13.0	2.67e-05	0	43	0	166723584	20	4200
2026-01-16 22:58:58.98	38.22	13.46	-29.6	-30.7	13.2	2.05e-05	0	43	0	168820736	20	4095
2026-01-16 22:58:59.99	38.35	13.54	-29.5	-30.4	13.5	8.30e-06	0	43	0	169869312	20	3976
2026-01-16 22:59:00.99	38.48	13.61	-29.6	-30.8	13.3	1.22e-05	0	43	0	171966464	20	4098
2026-01-16 22:59:01.99	38.61	13.69	-29.4	-30.1	13.7	1.29e-04	0	43	0	174063616	20	3898
2026-01-16 22:59:02.99	38.75	13.76	-29.5	-30.9	13.6	9.90e-06	0	43	0	176160768	19	4206
2026-01-16 22:59:03.99	38.88	13.84	-29.5	-30.9	13.6	9.10e-06	0	43	0	178257920	19	4208
2026-01-16 22:59:05.00	39.02	13.92	-29.7	-31.5	13.2	1.14e-05	0	43	0	179306496	19	4395
2026-01-16 22:59:06.00	39.15	13.99	-29.9	-31.9	13.0	2.51e-05	0	43	0	181403648	19	4529
2026-01-16 22:59:07.01	39.29	14.07	-29.6	-31.2	13.4	2.21e-05	0	43	0	183500800	19	4298
2026-01-16 22:59:08.01	39.42	14.15	-29.6	-31.1	13.5	7.60e-06	0	43	0	185597952	19	4267
2026-01-16 22:59:09.01	39.56	14.23	-29.6	-31.1	13.4	3.62e-04	0	43	0	187695104	19	4286
2026-01-16 22:59:10.01	39.70	14.30	-29.6	-31.1	13.4	5.49e-05	0	43	0	188743680	19	4282
2026-01-16 22:59:11.01	39.84	14.38	-29.5	-30.8	13.7	1.22e-05	0	43	0	190840832	19	4196
2026-01-16 22:59:12.01	39.98	14.46	-29.4	-30.5	13.9	1.60e-05	0	43	0	192937984	19	4097
2026-01-16 22:59:13.02	40.12	14.53	-29.5	-30.9	13.7	6.80e-06	0	43	0	195035136	19	4196
2026-01-16 22:59:14.02	40.26	14.61	-29.5	-30.7	13.7	1.06e-05	0	43	0	197132288	19	4153
2026-01-16 22:59:15.03	40.40	14.69	-29.5	-30.7	13.8	7.60e-06	0	43	0	198180864	19	4143
2026-01-16 22:59:16.03	40.54	14.77	-29.5	-30.7	13.8	3.80e-06	0	43	0	200278016	19	4150
2026-01-16 22:59:17.03	40.69	14.84	-29.8	-31.5	13.3	1.14e-05	0	43	0	202375168	19	4378
2026-01-16 22:59:18.03	40.83	14.92	-29.6	-31.0	13.6	7.60e-06	0	43	0	204472320	19	4241
2026-01-16 22:59:19.03	40.97	15.00	-29.8	-31.5	13.3	9.90e-06	0	43	0	206569472	19	4385
2026-01-16 22:59:20.03	41.12	15.08	-29.8	-31.7	13.2	1.83e-05	0	43	0	207618048	19	4460
2026-01-16 22:59:21.04	41.26	15.16	-29.9	-31.9	13.1	3.05e-05	0	43	0	209715200	19	4523
2026-01-16 22:59:22.04	41.41	15.23	-30.2	-32.2	12.4	5.56e-05	0	43	0	211812352	20	4537
2026-01-16 22:59:23.04	41.56	15.31	-30.0	-31.8	12.7	6.56e-05	0	43	0	213909504	20	4425
2026-01-16 22:59:24.04	41.71	15.39	-30.0	-31.6	12.8	3.96e-05	0	43	0	214958080	20	4358
2026-01-16 22:59:25.04	41.85	15.47	-29.9	-31.6	12.8	3.05e-05	0	43	0	217055232	20	4330
2026-01-16 22:59:26.04	42.00	15.55	-29.9	-31.5	12.9	4.42e-05	0	43	0	219152384	20	4305
2026-01-16 22:59:27.05	42.15	15.62	-30.1	-32.0	12.6	7.55e-05	0	43	0	221249536	20	4470
2026-01-16 22:59:28.05	42.31	15.70	-29.9	-31.4	13.0	7.01e-05	0	43	0	223346688	20	4266
2026-01-16 22:59:29.05	42.46	15.78	-29.7	-30.9	13.3	1.60e-05	0	43	0	224395264	20	4128
2026-01-16 22:59:30.05	42.61	15.86	-29.8	-31.5	13.4	1.44e-05	0	43	0	226492416	19	4377
2026-01-16 22:59:31.05	42.76	15.94	-29.5	-30.8	13.7	1.67e-05	0	43	0	228589568	19	4180
2026-01-16 22:59:32.04	42.91	16.02	-29.5	-30.8	13.7	3.80e-06	0	43	0	230686720	19	4179
2026-01-16 22:59:33.04	43.07	16.10	-29.3	-30.2	14.1	3.80e-06	0	43	0	232783872	19	4008
2026-01-16 22:59:34.04	43.22	16.17	-29.6	-31.0	13.6	3.00e-06	0	43	0	233832448	19	4228
2026-01-16 22:59:35.04	43.38	16.25	-29.2	-30.1	14.2	3.00e-06	0	43	0	235929600	19	3959
2026-01-16 22:59:36.04	43.54	16.33	-29.0	-30.1	14.5	7.00e-07	0	43	0	238026752	18	4046
2026-01-16 22:59:37.04	43.70	16.41	-29.3	-30.7	13.9	0.00e+00	0	43	0	240123904	18	4236
2026-01-16 22:59:38.04	43.85	16.49	-29.1	-30.1	14.3	7.00e-07	0	43	0	242221056	18	4059
2026-01-16 22:59:39.05	44.02	16.57	-29.1	-30.2	14.5	0.00e+00	0	43	0	243269632	18	4077
2026-01-16 22:59:40.05	44.18	16.65	-29.0	-29.9	14.5	6.40e-05	0	43	0	245366784	18	4003
2026-01-16 22:59:41.05	44.34	16.73	-29.0	-30.0	14.6	7.00e-07	0	43	0	247463936	18	4030
2026-01-16 22:59:42.05	44.50	16.81	-28.8	-29.4	15.0	0.00e+00	0	43	0	249561088	18	3860
2026-01-16 22:59:43.05	44.66	16.89	-28.8	-29.3	15.0	0.00e+00	0	43	0	250609664	18	3854
2026-01-16 22:59:44.06	44.83	16.97	-28.7	-29.2	15.1	0.00e+00	0	43	0	252706816	18	3812
2026-01-16 22:59:45.06	44.99	17.05	-28.7	-29.3	15.1	0.00e+00	0	43	0	254803968	18	3828
2026-01-16 22:59:46.06	45.16	17.12	-28.9	-29.7	14.8	0.00e+00	0	43	0	256901120	18	3954
2026-01-16 22:59:47.06	45.32	17.20	-28.8	-29.4	15.0	0.00e+00	0	43	0	258998272	18	3874
2026-01-16 22:59:48.06	45.49	17.28	-29.0	-30.0	14.6	7.00e-07	0	43	0	260046848	18	4043
2026-01-16 22:59:49.06	45.66	17.36	-29.1	-30.1	14.6	1.50e-06	0	43	0	262144000	18	4061
2026-01-16 22:59:50.06	45.83	17.44	-29.4	-31.1	14.0	0.00e+00	0	43	0	264241152	18	4338
2026-01-16 22:59:51.06	46.00	17.52	-29.3	-30.7	14.2	3.80e-06	0	43	0	266338304	18	4240
2026-01-16 22:59:52.06	46.17	17.60	-29.3	-30.8	14.2	0.00e+00	0	43	0	268435456	18	4259
2026-01-16 22:59:53.07	46.34	17.68	-29.4	-30.5	14.0	2.20e-06	0	43	0	269484032	19	4079
2026-01-16 22:59:54.07	46.51	17.76	-29.5	-30.6	14.0	0.00e+00	0	43	0	271581184	19	4096
2026-01-16 22:59:55.07	46.68	17.84	-29.6	-30.9	13.8	2.20e-06	0	43	0	273678336	19	4187
2026-01-16 22:59:56.07	46.86	17.92	-29.3	-30.2	14.2	1.50e-06	0	43	0	275775488	19	3998
2026-01-16 22:59:57.07	47.03	18.00	-29.5	-30.8	13.9	7.00e-07	0	43	0	277872640	19	4160
2026-01-16 22:59:58.07	47.21	18.08	-29.5	-30.8	13.9	8.69e-05	0	43	0	278921216	19	4159
2026-01-16 22:59:59.07	47.38	18.16	-29.6	-30.9	13.8	4.50e-06	0	43	0	281018368	19	4209
2026-01-16 23:00:00.07	47.56	18.24	-29.7	-31.1	13.7	3.00e-06	0	43	0	283115520	19	4268
2026-01-16 23:00:01.07	47.74	18.32	-29.6	-30.9	13.9	5.30e-06	0	43	0	285212672	19	4190
2026-01-16 23:00:02.07	47.92	18.40	-29.5	-30.6	14.0	4.50e-06	0	43	0	286261248	19	4107
2026-01-16 23:00:03.07	48.10	18.48	-29.4	-30.6	14.1	2.20e-06	0	43	0	288358400	19	4087
2026-01-16 23:00:04.07	48.28	18.56	-29.5	-30.7	13.9	3.80e-06	0	43	0	290455552	19	4133
2026-01-16 23:00:05.07	48.46	18.64	-29.2	-29.9	14.5	4.11e-05	0	43	0	292552704	19	3896
2026-01-16 23:00:06.07	48.65	18.72	-29.1	-29.5	14.7	0.00e+00	0	43	0	294649856	19	3807
2026-01-16 23:00:07.08	48.83	18.80	-29.1	-30.1	14.6	0.00e+00	0	43	0	295698432	18	4060
2026-01-16 23:00:08.08	49.02	18.87	-29.1	-30.2	14.6	1.44e-04	0	43	0	297795584	18	4082
2026-01-16 23:00:09.07	49.20	18.95	-29.0	-30.0	14.8	0.00e+00	0	43	0	299892736	18	4013
2026-01-16 23:00:10.07	49.39	19.03	-29.0	-30.0	14.8	0.00e+00	0	43	0	301989888	18	4012
2026-01-16 23:00:11.07	49.58	19.11	-29.0	-29.8	14.8	3.15e-04	0	43	0	304087040	18	3967
2026-01-16 23:00:12.07	49.77	19.19	-28.8	-29.4	15.1	0.00e+00	0	43	0	305135616	18	3852
2026-01-16 23:00:13.07	49.95	19.27	-28.7	-29.6	15.3	0.00e+00	0	43	0	307232768	17	3999
2026-01-16 23:00:14.07	50.15	19.35	-28.6	-29.3	15.5	0.00e+00	0	43	0	309329920	17	3914
2026-01-16 23:00:15.08	50.34	19.43	-28.6	-29.5	15.4	0.00e+00	0	43	0	311427072	17	3957
2026-01-16 23:00:16.08	50.53	19.51	-28.6	-29.5	15.4	1.94e-04	0	43	0	313524224	17	3972
2026-01-16 23:00:17.08	50.73	19.59	-28.8	-30.0	15.1	0.00e+00	0	43	0	314572800	17	4100
2026-01-16 23:00:18.09	50.92	19.67	-28.5	-29.2	15.5	0.00e+00	0	43	0	316669952	17	3899
2026-01-16 23:00:19.08	51.12	19.75	-28.4	-28.8	15.7	1.38e-04	0	43	0	318767104	17	3791
2026-01-16 23:00:20.09	51.31	19.82	-28.4	-29.0	15.7	0.00e+00	0	43	0	320864256	17	3832
2026-01-16 23:00:21.09	51.51	19.90	-28.5	-29.1	15.6	0.00e+00	0	43	0	322961408	17	3859
2026-01-16 23:00:22.09	51.71	19.98	-28.3	-28.7	15.8	2.21e-04	0	43	0	324009984	17	3766
2026-01-16 23:00:23.09	51.91	20.06	-28.2	-28.4	16.0	2.21e-04	0	43	0	326107136	17	3693
2026-01-16 23:00:24.10	52.11	20.14	-28.6	-29.3	15.4	0.00e+00	0	43	0	328204288	17	3930
2026-01-16 23:00:25.10	52.31	20.22	-28.1	-28.2	16.1	2.29e-04	0	43	0	330301440	17	3639
2026-01-16 23:00:26.10	52.52	20.30	-28.1	-28.6	16.2	4.87e-04	0	43	0	331350016	16	3837
2026-01-16 23:00:27.11	52.72	20.38	-27.9	-28.3	16.4	0.00e+00	0	43	0	333447168	16	3760
2026-01-16 23:00:28.11	52.93	20.45	-28.1	-28.7	16.1	0.00e+00	0	43	0	335544320	16	3855
2026-01-16 23:00:29.10	53.13	20.53	-28.4	-29.4	15.7	1.51e-03	0	43	0	337641472	16	4032
2026-01-16 23:00:30.10	53.34	20.61	-28.2	-28.8	16.1	0.00e+00	0	43	0	339738624	16	3888
2026-01-16 23:00:31.10	53.54	20.69	-28.3	-29.1	15.8	0.00e+00	0	43	0	340787200	16	3946
2026-01-16 23:00:32.11	53.75	20.76	-28.4	-29.3	15.8	3.77e-04	0	43	0	342884352	16	4011
2026-01-16 23:00:33.11	53.96	20.84	-28.5	-29.1	15.6	0.00e+00	0	43	0	344981504	17	3870
2026-01-16 23:00:34.11	54.17	20.92	-28.5	-29.2	15.6	6.02e-05	0	43	0	347078656	17	3880
2026-01-16 23:00:35.11	54.39	21.00	-28.5	-29.2	15.6	2.86e-04	0	43	0	349175808	17	3881
2026-01-16 23:00:36.11	54.60	21.07	-28.4	-28.9	15.7	0.00e+00	0	43	0	350224384	17	3806
2026-01-16 23:00:37.10	54.81	21.15	-28.4	-29.0	15.7	4.12e-04	0	43	0	352321536	17	3827
2026-01-16 23:00:38.10	55.03	21.23	-28.2	-28.5	16.0	1.64e-04	0	43	0	354418688	17	3710
2026-01-16 23:00:39.10	55.24	21.30	-28.2	-28.5	16.0	0.00e+00	0	43	0	356515840	17	3705
2026-01-16 23:00:40.10	55.46	21.38	-28.2	-28.4	16.0	0.00e+00	0	43	0	357564416	17	3689
2026-01-16 23:00:41.10	55.68	21.45	-28.0	-28.0	16.1	0.00e+00	0	43	0	359661568	17	3587
2026-01-16 23:00:42.10	55.90	21.53	-27.9	-27.7	16.4	0.00e+00	0	43	0	361758720	17	3519
2026-01-16 23:00:43.10	56.12	21.61	-28.2	-28.4	16.1	0.00e+00	0	43	0	363855872	17	3684
2026-01-16 23:00:44.10	56.34	21.68	-28.1	-28.2	16.2	1.06e-05	0	43	0	365953024	17	3644
2026-01-16 23:00:45.10	56.56	21.76	-28.4	-28.9	15.8	0.00e+00	0	43	0	367001600	17	3814
2026-01-16 23:00:46.10	56.78	21.83	-28.6	-29.3	15.6	6.71e-05	0	43	0	369098752	17	3907
2026-01-16 23:00:47.11	57.01	21.91	-28.6	-29.4	15.6	2.59e-05	0	43	0	371195904	17	3944
2026-01-16 23:00:48.11	57.23	21.98	-28.9	-30.1	15.1	0.00e+00	0	43	0	373293056	17	4127
2026-01-16 23:00:49.11	57.46	22.06	-28.7	-29.5	15.4	1.53e-04	0	43	0	375390208	17	3977
2026-01-16 23:00:50.11	57.69	22.13	-28.7	-29.7	15.4	2.79e-04	0	43	0	376438784	17	4006
2026-01-16 23:00:51.11	57.92	22.20	-28.5	-29.2	15.7	0.00e+00	0	43	0	378535936	17	3869
2026-01-16 23:00:52.10	58.14	22.28	-28.7	-29.7	15.3	3.60e-04	0	43	0	380633088	17	4018
2026-01-16 23:00:53.10	58.38	22.35	-28.8	-29.7	15.3	3.01e-04	0	43	0	382730240	17	4017
2026-01-16 23:00:54.11	58.61	22.42	-28.9	-30.0	15.2	7.00e-07	0	43	0	384827392	17	4100
2026-01-16 23:00:55.10	58.84	22.50	-29.1	-30.0	14.8	1.40e-04	0	43	0	385875968	18	4008
2026-01-16 23:00:56.10	59.07	22.57	-29.0	-29.7	15.1	0.00e+00	0	43	0	387973120	18	3930
2026-01-16 23:00:57.10	59.31	22.64	-29.1	-30.0	14.9	0.00e+00	0	43	0	390070272	18	3993
2026-01-16 23:00:58.11	59.55	22.72	-28.6	-29.2	15.6	5.13e-04	0	43	0	392167424	17	3892
2026-01-16 23:00:59.11	59.78	22.79	-28.5	-29.0	15.8	4.95e-04	0	43	0	393216000	17	3823
2026-01-16 23:01:00.12	60.03	22.86	-28.6	-29.3	15.6	0.00e+00	0	43	0	395313152	17	3897
2026-01-16 23:01:01.12	60.26	22.93	-28.8	-29.9	15.2	2.61e-04	0	43	0	397410304	17	4069
2026-01-16 23:01:02.13	60.51	23.00	-29.1	-30.1	14.8	8.85e-05	0	43	0	399507456	18	4034
2026-01-16 23:01:03.13	60.75	23.07	-29.3	-30.5	14.6	0.00e+00	0	43	0	401604608	18	4162
2026-01-16 23:01:04.13	60.99	23.14	-29.2	-30.4	14.6	3.07e-04	0	43	0	402653184	18	4110
2026-01-16 23:01:05.13	61.24	23.21	-29.0	-29.9	15.0	3.55e-04	0	43	0	404750336	18	3963
2026-01-16 23:01:06.13	61.48	23.28	-28.9	-29.6	15.2	0.00e+00	0	43	0	406847488	18	3895
2026-01-16 23:01:07.14	61.73	23.35	-28.8	-29.9	15.3	0.00e+00	0	43	0	408944640	17	4059
2026-01-16 23:01:08.13	61.97	23.42	-28.7	-29.5	15.5	9.56e-04	0	43	0	411041792	17	3970
2026-01-16 23:01:09.12	62.22	23.49	-28.9	-30.0	15.2	0.00e+00	0	43	0	412090368	17	4087
2026-01-16 23:01:10.12	62.47	23.56	-29.4	-30.8	14.4	0.00e+00	0	43	0	414187520	18	4237
2026-01-16 23:01:11.12	62.72	23.62	-29.4	-30.9	14.4	8.96e-04	0	43	0	416284672	18	4259
2026-01-16 23:01:12.12	62.97	23.69	-29.8	-31.4	13.8	1.50e-06	0	43	0	418381824	19	4318
2026-01-16 23:01:13.12	63.22	23.76	-29.6	-30.9	14.1	4.50e-06	0	43	0	420478976	19	4181
2026-01-16 23:01:14.12	63.47	23.83	-29.9	-31.7	13.5	3.00e-06	0	43	0	421527552	19	4410
2026-01-16 23:01:15.12	63.73	23.89	-29.7	-31.1	13.9	4.50e-06	0	43	0	423624704	19	4235
2026-01-16 23:01:16.12	63.98	23.96	-30.0	-31.4	13.4	5.99e-04	0	43	0	425721856	20	4229
2026-01-16 23:01:17.12	64.24	24.02	-30.2	-32.1	12.9	2.67e-05	0	43	0	427819008	20	4454
2026-01-16 23:01:18.12	64.50	24.09	-30.1	-31.8	13.0	4.73e-05	0	43	0	429916160	20	4369
2026-01-16 23:01:19.12	64.76	24.15	-30.1	-31.7	13.1	3.66e-04	0	43	0	430964736	20	4339
2026-01-16 23:01:20.12	65.02	24.22	-30.0	-31.6	13.3	1.14e-05	0	43	0	433061888	20	4297
2026-01-16 23:01:21.12	65.28	24.28	-30.0	-31.4	13.3	2.13e-05	0	43	0	435159040	20	4248
2026-01-16 23:01:22.12	65.54	24.34	-29.8	-30.8	13.7	2.15e-04	0	43	0	437256192	20	4059
2026-01-16 23:01:23.12	65.80	24.41	-29.9	-31.1	13.6	1.82e-04	0	43	0	438304768	20	4133
2026-01-16 23:01:24.12	66.06	24.47	-30.0	-31.5	13.4	8.30e-06	0	43	0	440401920	20	4256
2026-01-16 23:01:25.12	66.33	24.53	-30.4	-32.4	12.7	3.20e-05	0	43	0	442499072	20	4569
2026-01-16 23:01:26.11	66.59	24.59	-30.6	-32.5	12.3	2.67e-04	0	43	0	444596224	21	4509
2026-01-16 23:01:27.12	66.86	24.65	-30.8	-33.4	11.6	4.49e-04	0	43	0	446693376	21	4832
2026-01-16 23:01:28.12	67.13	24.71	-31.1	-33.6	11.2	9.28e-04	0	43	0	447741952	22	4795
2026-01-16 23:01:29.12	67.40	24.77	-31.0	-33.5	11.2	1.47e-03	0	43	0	449839104	22	4764
2026-01-16 23:01:30.12	67.67	24.83	-31.1	-33.7	11.1	1.54e-03	0	43	0	451936256	22	4864
2026-01-16 23:01:31.13	67.94	24.89	-31.2	-33.9	11.0	1.65e-03	0	43	0	454033408	22	4901
2026-01-16 23:01:32.13	68.21	24.95	-30.9	-33.1	11.5	1.16e-03	0	43	0	456130560	22	4634
2026-01-16 23:01:33.12	68.48	25.01	-31.0	-33.4	11.3	9.77e-04	0	43	0	457179136	22	4719
2026-01-16 23:01:34.13	68.76	25.07	-30.9	-33.5	11.6	7.63e-04	0	43	0	459276288	21	4856
2026-01-16 23:01:35.14	69.04	25.12	-30.7	-32.9	12.0	3.94e-04	0	43	0	461373440	21	4624
2026-01-16 23:01:36.14	69.31	25.18	-30.9	-33.4	11.7	3.38e-04	0	43	0	463470592	21	4818
2026-01-16 23:01:37.14	69.59	25.23	-31.2	-33.8	11.1	1.19e-03	0	43	0	464519168	22	4885
2026-01-16 23:01:38.13	69.86	25.29	-31.7	-35.1	9.7	8.01e-03	0	43	0	466616320	23	5311
2026-01-16 23:01:39.13	70.14	25.34	-31.8	-35.5	9.5	1.62e-02	0	43	0	468713472	23	5525
2026-01-16 23:01:40.13	70.42	25.40	-31.7	-35.1	9.6	1.52e-02	0	43	0	470810624	23	5346
2026-01-16 23:01:41.14	70.71	25.45	-31.7	-35.1	9.7	1.22e-02	0	43	0	472907776	23	5333
2026-01-16 23:01:42.13	70.98	25.50	-31.3	-33.8	10.7	6.66e-03	0	43	0	473956352	23	4784
2026-01-16 23:01:43.14	71.27	25.55	-31.0	-32.9	11.4	1.28e-03	0	43	0	476053504	23	4448
2026-01-16 23:01:44.14	71.55	25.61	-30.9	-33.1	11.6	1.04e-03	0	43	0	478150656	22	4611
2026-01-16 23:01:45.14	71.84	25.66	-31.2	-33.9	11.0	1.64e-03	0	43	0	480247808	22	4918
2026-01-16 23:01:46.14	72.12	25.71	-31.2	-33.8	11.2	1.43e-03	0	43	0	482344960	22	4871
2026-01-16 23:01:47.14	72.41	25.76	-30.9	-32.8	11.7	1.61e-03	0	43	0	483393536	22	4512
2026-01-16 23:01:48.15	72.70	25.81	-30.8	-32.6	11.9	5.19e-04	0	43	0	485490688	22	4448
2026-01-16 23:01:49.14	72.98	25.85	-30.9	-33.3	11.8	3.48e-04	0	43	0	487587840	21	4781
2026-01-16 23:01:50.14	73.27	25.90	-31.1	-33.5	11.3	6.61e-04	0	43	0	489684992	22	4763
2026-01-16 23:01:51.15	73.56	25.95	-31.2	-33.7	11.2	1.21e-03	0	43	0	491782144	22	4854
2026-01-16 23:01:52.14	73.85	25.99	-31.1	-33.8	11.2	1.46e-03	0	43	0	492830720	22	4864
2026-01-16 23:01:53.14	74.14	26.04	-31.2	-34.1	10.8	2.48e-03	0	43	0	494927872	22	4978
2026-01-16 23:01:54.15	74.44	26.08	-31.0	-33.2	11.5	1.93e-03	0	43	0	497025024	22	4670
2026-01-16 23:01:55.14	74.73	26.13	-30.9	-33.4	11.7	7.37e-04	0	43	0	499122176	21	4829
2026-01-16 23:01:56.14	75.02	26.17	-30.8	-33.1	11.9	4.18e-04	0	43	0	500170752	21	4701
2026-01-16 23:01:57.13	75.31	26.21	-31.2	-33.9	11.1	5.51e-04	0	43	0	502267904	22	4895
2026-01-16 23:01:58.14	75.61	26.25	-31.4	-34.4	10.7	2.10e-03	0	43	0	504365056	22	5119
2026-01-16 23:01:59.14	75.91	26.30	-31.6	-34.6	10.1	4.02e-03	0	43	0	506462208	23	5102
2026-01-16 23:02:00.14	76.20	26.34	-31.4	-34.0	10.6	6.59e-03	0	43	0	508559360	23	4854
2026-01-16 23:02:01.15	76.50	26.38	-31.1	-33.2	11.1	3.45e-03	0	43	0	509607936	23	4573
2026-01-16 23:02:02.15	76.80	26.41	-30.8	-32.6	11.9	4.71e-04	0	43	0	511705088	22	4452
2026-01-16 23:02:03.14	77.10	26.45	-30.6	-32.2	12.3	1.63e-04	0	43	0	513802240	22	4304
2026-01-16 23:02:04.15	77.40	26.49	-30.5	-32.3	12.4	1.24e-04	0	43	0	515899392	21	4427
2026-01-16 23:02:05.15	77.70	26.53	-30.4	-32.0	12.7	1.01e-04	0	43	0	517996544	21	4327
2026-01-16 23:02:06.15	78.00	26.56	-30.2	-31.4	13.1	6.48e-05	0	43	0	519045120	21	4147
2026-01-16 23:02:07.16	78.30	26.60	-30.3	-32.2	12.8	6.25e-05	0	43	0	521142272	20	4500
2026-01-16 23:02:08.16	78.61	26.63	-30.6	-32.6	12.3	9.68e-05	0	43	0	523239424	21	4530
2026-01-16 23:02:09.16	78.91	26.67	-30.8	-33.2	11.8	3.40e-04	0	43	0	525336576	21	4753
2026-01-16 23:02:10.16	79.21	26.70	-31.0	-33.3	11.3	6.09e-04	0	43	0	527433728	22	4708
2026-01-16 23:02:11.17	79.52	26.73	-31.1	-33.6	11.3	5.83e-04	0	43	0	528482304	22	4785
2026-01-16 23:02:12.17	79.82	26.76	-31.1	-33.7	11.2	1.77e-03	0	43	0	530579456	22	4842
2026-01-16 23:02:13.17	80.13	26.79	-31.1	-33.7	11.1	2.11e-03	0	44	0	532676608	22	4849
2026-01-16 23:02:14.18	80.44	26.82	-31.3	-34.2	10.8	2.10e-03	0	43	0	534773760	22	5044
2026-01-16 23:02:15.18	80.74	26.85	-31.2	-33.9	11.0	2.23e-03	0	43	0	536870912	22	4925
2026-01-16 23:02:16.18	81.05	26.88	-31.1	-33.8	11.0	2.33e-03	0	43	0	537919488	22	4888
2026-01-16 23:02:17.18	81.36	26.90	-31.1	-33.6	11.3	9.88e-04	0	43	0	540016640	22	4791
2026-01-16 23:02:18.18	81.67	26.93	-31.0	-33.3	11.3	7.97e-04	0	43	0	542113792	22	4703
2026-01-16 23:02:19.19	81.98	26.95	-31.1	-33.5	11.3	1.68e-03	0	43	0	544210944	22	4784
2026-01-16 23:02:20.18	82.28	26.98	-31.1	-33.6	11.1	1.36e-03	0	43	0	545259520	22	4815
2026-01-16 23:02:21.18	82.59	27.00	-31.3	-34.3	10.7	2.30e-03	0	43	0	547356672	22	5103
2026-01-16 23:02:22.19	82.91	27.02	-31.3	-34.3	10.7	3.15e-03	0	43	0	549453824	22	5086
2026-01-16 23:02:23.18	83.21	27.05	-31.2	-34.1	10.8	1.81e-03	0	43	0	551550976	22	5012
2026-01-16 23:02:24.19	83.53	27.07	-31.1	-33.5	11.3	1.88e-03	0	43	0	553648128	22	4776
2026-01-16 23:02:25.19	83.84	27.09	-31.2	-33.9	11.0	1.79e-03	0	43	0	554696704	22	4904
2026-01-16 23:02:26.19	84.15	27.11	-30.7	-32.4	12.1	6.45e-04	0	43	0	556793856	22	4376
2026-01-16 23:02:27.19	84.46	27.12	-30.6	-32.1	12.3	1.79e-04	0	43	0	558891008	22	4285
2026-01-16 23:02:28.18	84.77	27.14	-30.7	-32.3	12.2	1.89e-04	0	43	0	560988160	22	4336
2026-01-16 23:02:29.17	85.08	27.16	-30.8	-32.6	11.9	3.52e-04	0	43	0	563085312	22	4447
2026-01-16 23:02:30.17	85.39	27.17	-30.8	-32.6	11.9	3.42e-04	0	43	0	564133888	22	4459
2026-01-16 23:02:31.17	85.70	27.19	-30.7	-32.4	12.0	3.13e-04	0	43	0	566231040	22	4391
2026-01-16 23:02:32.17	86.02	27.20	-30.7	-32.4	12.1	1.89e-04	0	43	0	568328192	22	4371
2026-01-16 23:02:33.17	86.33	27.21	-30.5	-32.5	12.3	1.73e-04	0	43	0	570425344	21	4500
2026-01-16 23:02:34.17	86.65	27.23	-30.7	-33.0	12.0	1.96e-04	0	43	0	572522496	21	4687
2026-01-16 23:02:35.17	86.96	27.24	-31.0	-33.8	11.5	5.32e-04	0	43	0	573571072	21	4963
2026-01-16 23:02:36.17	87.27	27.25	-30.9	-33.1	11.7	7.95e-04	0	43	0	575668224	22	4630
2026-01-16 23:02:37.17	87.59	27.26	-30.9	-33.0	11.7	5.90e-04	0	43	0	577765376	22	4596
2026-01-16 23:02:38.16	87.90	27.27	-30.7	-32.4	12.0	3.75e-04	0	43	0	579862528	22	4394
2026-01-16 23:02:39.16	88.21	27.27	-30.9	-33.0	11.7	3.56e-04	0	43	0	580911104	22	4590
2026-01-16 23:02:40.16	88.53	27.28	-31.1	-33.7	11.3	7.45e-04	0	43	0	583008256	22	4834
2026-01-16 23:02:41.17	88.85	27.28	-31.2	-33.8	11.2	1.45e-03	0	43	0	585105408	22	4871
2026-01-16 23:02:42.17	89.16	27.29	-31.2	-34.1	10.8	2.33e-03	0	43	0	587202560	22	4986
2026-01-16 23:02:43.17	89.48	27.29	-31.0	-33.3	11.5	1.33e-03	0	43	0	589299712	22	4710
2026-01-16 23:02:44.17	89.79	27.30	-30.7	-32.5	12.0	5.26e-04	0	44	0	590348288	22	4397
2026-01-16 23:02:45.16	90.11	27.30	-30.7	-32.3	12.1	2.72e-04	0	43	0	592445440	22	4337
2026-01-16 23:02:46.16	90.42	27.30	-30.7	-32.4	12.1	2.72e-04	0	43	0	594542592	22	4358
2026-01-16 23:02:47.15	90.73	27.30	-30.3	-31.3	12.8	1.07e-04	0	43	0	596639744	22	4011
2026-01-16 23:02:48.15	91.05	27.30	-30.1	-31.7	13.2	5.87e-05	0	43	0	597688320	20	4328
2026-01-16 23:02:49.16	91.37	27.30	-29.8	-30.7	13.8	1.22e-05	0	43	0	599785472	20	4031
2026-01-16 23:02:50.16	91.68	27.29	-29.6	-30.4	14.1	3.00e-06	0	43	0	601882624	20	3931
2026-01-16 23:02:51.16	92.00	27.29	-29.7	-31.1	14.0	4.21e-04	0	43	0	603979776	19	4219
2026-01-16 23:02:52.16	92.31	27.29	-30.0	-31.5	13.4	9.10e-06	0	43	0	606076928	20	4254
2026-01-16 23:02:53.16	92.63	27.28	-30.1	-31.6	13.3	1.44e-05	0	43	0	607125504	20	4313
2026-01-16 23:02:54.16	92.94	27.27	-30.5	-32.7	12.5	4.27e-04	0	43	0	609222656	20	4679
2026-01-16 23:02:55.16	93.26	27.27	-30.7	-32.8	12.0	2.59e-04	0	43	0	611319808	21	4624
2026-01-16 23:02:56.16	93.57	27.26	-30.8	-33.4	11.7	4.05e-04	0	44	0	613416960	21	4819
2026-01-16 23:02:57.17	93.89	27.25	-30.8	-33.2	11.8	4.99e-04	0	43	0	615514112	21	4744
2026-01-16 23:02:58.17	94.21	27.24	-30.6	-32.8	12.1	3.07e-04	0	43	0	616562688	21	4617
2026-01-16 23:02:59.17	94.52	27.23	-30.7	-32.8	12.0	2.71e-04	0	43	0	618659840	21	4626
2026-01-16 23:03:00.17	94.83	27.22	-30.6	-32.7	12.1	3.02e-04	0	43	0	620756992	21	4571
2026-01-16 23:03:01.18	95.15	27.20	-30.5	-32.5	12.3	2.66e-04	0	43	0	622854144	21	4515
2026-01-16 23:03:02.18	95.46	27.19	-30.4	-32.1	12.5	1.72e-04	0	43	0	624951296	21	4370
2026-01-16 23:03:03.18	95.78	27.18	-30.3	-31.9	12.7	9.23e-05	0	43	0	625999872	21	4323
2026-01-16 23:03:04.18	96.09	27.16	-30.5	-32.4	12.4	1.36e-04	0	43	0	628097024	21	4461
2026-01-16 23:03:05.17	96.40	27.15	-30.5	-32.4	12.4	1.11e-04	0	43	0	630194176	21	4463
2026-01-16 23:03:06.17	96.71	27.13	-30.4	-32.1	12.6	1.11e-04	0	43	0	632291328	21	4370
2026-01-16 23:03:07.18	97.03	27.11	-30.3	-31.9	12.7	9.91e-05	0	43	0	634388480	21	4299
2026-01-16 23:03:08.18	97.34	27.09	-30.5	-32.2	12.4	1.14e-04	0	43	0	635437056	21	4416
2026-01-16 23:03:09.19	97.65	27.07	-30.7	-33.1	11.9	4.96e-04	0	43	0	637534208	21	4719
2026-01-16 23:03:10.19	97.97	27.05	-30.7	-33.1	11.9	5.03e-04	0	43	0	639631360	21	4706
2026-01-16 23:03:11.19	98.28	27.03	-31.1	-33.6	11.2	1.12e-03	0	43	0	641728512	22	4847
2026-01-16 23:03:12.19	98.59	27.01	-31.3	-34.3	10.6	2.73e-03	0	43	0	642777088	22	5125
2026-01-16 23:03:13.19	98.90	26.98	-30.8	-32.7	11.7	1.73e-03	0	43	0	644874240	22	4520
2026-01-16 23:03:14.19	99.21	26.96	-30.7	-32.4	12.0	4.65e-04	0	43	0	646971392	22	4408
2026-01-16 23:03:15.19	99.51	26.93	-30.3	-31.3	12.7	2.31e-04	0	43	0	649068544	22	4062
2026-01-16 23:03:16.19	99.82	26.91	-30.3	-31.8	12.8	7.93e-05	0	43	0	651165696	21	4300
2026-01-16 23:03:17.18	100.13	26.88	-30.3	-31.9	12.6	8.69e-05	0	43	0	652214272	21	4341
2026-01-16 23:03:18.19	100.44	26.85	-30.6	-32.6	12.2	2.52e-04	0	43	0	654311424	21	4571
2026-01-16 23:03:19.19	100.75	26.83	-30.9	-33.5	11.6	5.56e-04	0	43	0	656408576	21	4894
2026-01-16 23:03:20.19	101.05	26.80	-31.1	-33.8	11.0	9.00e-04	0	43	0	658505728	22	4922
2026-01-16 23:03:21.19	101.36	26.77	-31.5	-34.6	9.9	8.41e-03	0	43	0	660602880	23	5169
2026-01-16 23:03:22.20	101.67	26.74	-31.0	-32.9	11.2	3.46e-03	0	43	0	661651456	23	4489
2026-01-16 23:03:23.19	101.97	26.70	-30.6	-32.4	12.0	7.72e-04	0	43	0	663748608	22	4405
2026-01-16 23:03:24.19	102.27	26.67	-30.1	-31.4	12.9	1.33e-04	0	43	0	665845760	21	4157
2026-01-16 23:03:25.19	102.57	26.64	-29.6	-30.4	13.9	1.52e-05	0	43	0	667942912	20	3962
2026-01-16 23:03:26.19	102.88	26.60	-29.6	-30.5	13.9	3.80e-06	0	43	0	668991488	20	3988
2026-01-16 23:03:27.19	103.18	26.57	-29.6	-30.6	13.8	3.80e-06	0	43	0	671088640	20	4011
2026-01-16 23:03:28.19	103.48	26.53	-29.6	-30.4	13.9	8.30e-06	0	43	0	673185792	20	3945
2026-01-16 23:03:29.19	103.78	26.50	-29.6	-30.3	13.9	2.20e-06	0	43	0	675282944	20	3941
2026-01-16 23:03:30.19	104.08	26.46	-29.2	-29.8	14.7	3.00e-06	0	43	0	677380096	19	3873
2026-01-16 23:03:31.19	104.38	26.42	-28.9	-29.0	15.1	2.20e-06	0	44	0	678428672	19	3669
2026-01-16 23:03:32.19	104.68	26.38	-29.0	-29.4	14.9	7.00e-07	0	44	0	680525824	19	3770
2026-01-16 23:03:33.19	104.98	26.34	-29.5	-30.7	14.2	0.00e+00	0	43	0	682622976	19	4113
2026-01-16 23:03:34.18	105.27	26.30	-29.9	-31.6	13.5	6.10e-06	0	43	0	684720128	19	4408
2026-01-16 23:03:35.19	105.57	26.26	-30.0	-31.5	13.3	1.37e-05	0	43	0	686817280	20	4285
2026-01-16 23:03:36.18	105.87	26.22	-29.7	-30.8	13.7	8.30e-06	0	43	0	687865856	20	4078
2026-01-16 23:03:37.18	106.16	26.18	-29.3	-30.1	14.5	0.00e+00	0	43	0	689963008	19	3948
2026-01-16 23:03:38.19	106.46	26.13	-29.0	-29.3	14.9	0.00e+00	0	43	0	692060160	19	3731
2026-01-16 23:03:39.18	106.75	26.09	-28.9	-29.1	15.1	0.00e+00	0	44	0	694157312	19	3673
2026-01-16 23:03:40.18	107.04	26.05	-29.1	-29.6	14.8	1.50e-06	0	43	0	696254464	19	3813
2026-01-16 23:03:41.19	107.34	26.00	-28.8	-29.0	15.2	0.00e+00	0	43	0	697303040	19	3655
2026-01-16 23:03:42.19	107.63	25.95	-28.9	-29.2	15.0	0.00e+00	0	43	0	699400192	19	3724
2026-01-16 23:03:43.19	107.92	25.91	-28.9	-29.1	15.1	0.00e+00	0	43	0	701497344	19	3696
2026-01-16 23:03:44.18	108.20	25.86	-28.6	-29.0	15.5	0.00e+00	0	43	0	703594496	18	3747
2026-01-16 23:03:45.18	108.49	25.81	-28.4	-28.3	15.8	0.00e+00	0	43	0	704643072	18	3588
2026-01-16 23:03:46.17	108.78	25.76	-28.3	-28.6	16.0	0.00e+00	0	43	0	706740224	17	3728
2026-01-16 23:03:47.17	109.06	25.72	-28.6	-29.3	15.5	0.00e+00	0	43	0	708837376	17	3913
2026-01-16 23:03:48.17	109.35	25.67	-28.8	-30.0	15.1	3.89e-05	0	43	0	710934528	17	4115
2026-01-16 23:03:49.18	109.64	25.61	-29.2	-30.3	14.7	1.50e-06	0	44	0	713031680	18	4104
2026-01-16 23:03:50.17	109.92	25.56	-29.3	-30.6	14.5	0.00e+00	0	43	0	714080256	18	4190
2026-01-16 23:03:51.18	110.21	25.51	-29.2	-30.3	14.7	2.20e-06	0	44	0	716177408	18	4094
2026-01-16 23:03:52.17	110.49	25.46	-28.8	-29.4	15.2	0.00e+00	0	43	0	718274560	18	3844
2026-01-16 23:03:53.17	110.77	25.41	-28.6	-28.8	15.5	0.00e+00	0	44	0	720371712	18	3705
2026-01-16 23:03:54.17	111.05	25.35	-28.4	-28.5	15.7	0.00e+00	0	43	0	722468864	18	3610
2026-01-16 23:03:55.17	111.33	25.30	-28.6	-28.8	15.6	0.00e+00	0	43	0	723517440	18	3684
2026-01-16 23:03:56.17	111.61	25.24	-28.7	-29.2	15.4	0.00e+00	0	43	0	725614592	18	3795
2026-01-16 23:03:57.17	111.88	25.19	-28.5	-28.7	15.6	0.00e+00	0	43	0	727711744	18	3672
2026-01-16 23:03:58.17	112.16	25.13	-28.7	-29.2	15.3	0.00e+00	0	43	0	729808896	18	3796
2026-01-16 23:03:59.17	112.44	25.07	-28.6	-28.8	15.6	0.00e+00	0	43	0	731906048	18	3691
2026-01-16 23:04:00.16	112.71	25.02	-28.6	-28.8	15.6	0.00e+00	0	43	0	732954624	18	3704
2026-01-16 23:04:01.16	112.98	24.96	-28.7	-29.2	15.3	2.51e-05	0	43	0	735051776	18	3792
2026-01-16 23:04:02.16	113.25	24.90	-29.0	-29.9	14.9	0.00e+00	0	43	0	737148928	18	3989
2026-01-16 23:04:03.16	113.53	24.84	-29.2	-30.3	14.6	7.00e-07	0	43	0	739246080	18	4115
2026-01-16 23:04:04.16	113.80	24.78	-29.3	-30.7	14.3	8.01e-05	0	43	0	740294656	18	4218
2026-01-16 23:04:05.17	114.07	24.72	-28.9	-29.5	15.1	0.00e+00	0	43	0	742391808	18	3892
2026-01-16 23:04:06.16	114.34	24.66	-28.5	-28.6	15.6	0.00e+00	0	43	0	744488960	18	3660
2026-01-16 23:04:07.17	114.61	24.60	-28.1	-28.2	16.1	0.00e+00	0	43	0	746586112	17	3646
2026-01-16 23:04:08.16	114.87	24.54	-28.1	-28.2	16.1	0.00e+00	0	43	0	748683264	17	3629
2026-01-16 23:04:09.16	115.14	24.48	-28.1	-28.7	16.1	3.67e-04	0	43	0	749731840	16	3863
2026-01-16 23:04:10.16	115.40	24.41	-28.4	-29.4	15.7	0.00e+00	0	43	0	751828992	16	4047
2026-01-16 23:04:11.16	115.67	24.35	-28.6	-29.4	15.4	0.00e+00	0	43	0	753926144	17	3941
2026-01-16 23:04:12.17	115.93	24.29	-28.7	-29.7	15.2	6.33e-05	0	43	0	756023296	17	4039
2026-01-16 23:04:13.17	116.19	24.22	-28.8	-29.9	15.1	0.00e+00	0	43	0	758120448	17	4090
2026-01-16 23:04:14.17	116.45	24.16	-28.8	-29.9	15.1	0.00e+00	0	43	0	759169024	17	4075
2026-01-16 23:04:15.17	116.71	24.09	-28.8	-29.9	15.1	1.01e-04	0	43	0	761266176	17	4093
2026-01-16 23:04:16.17	116.97	24.03	-28.8	-29.8	15.1	0.00e+00	0	43	0	763363328	17	4067
2026-01-16 23:04:17.18	117.23	23.96	-29.1	-30.1	14.7	0.00e+00	0	43	0	765460480	18	4047
2026-01-16 23:04:18.18	117.49	23.90	-29.3	-30.6	14.3	7.00e-07	0	43	0	766509056	18	4205
2026-01-16 23:04:19.18	117.74	23.83	-29.3	-30.5	14.5	1.84e-04	0	43	0	768606208	18	4174
2026-01-16 23:04:20.18	118.00	23.76	-29.4	-30.8	14.2	3.00e-06	0	43	0	770703360	18	4250
2026-01-16 23:04:21.19	118.25	23.69	-29.1	-30.3	14.6	0.00e+00	0	43	0	772800512	18	4089
2026-01-16 23:04:22.19	118.51	23.63	-28.9	-29.6	15.0	4.88e-05	0	43	0	774897664	18	3918
2026-01-16 23:04:23.19	118.76	23.56	-28.8	-29.5	15.1	0.00e+00	0	43	0	775946240	18	3867
2026-01-16 23:04:24.19	119.01	23.49	-28.7	-29.1	15.3	0.00e+00	0	43	0	778043392	18	3770
2026-01-16 23:04:25.19	119.26	23.42	-28.7	-29.2	15.2	0.00e+00	0	43	0	780140544	18	3793
2026-01-16 23:04:26.19	119.50	23.35	-28.6	-28.9	15.4	0.00e+00	0	43	0	782237696	18	3733
2026-01-16 23:04:27.20	119.75	23.28	-28.6	-28.9	15.4	0.00e+00	0	43	0	784334848	18	3720
2026-01-16 23:04:28.19	120.00	23.21	-28.8	-29.4	15.2	0.00e+00	0	43	0	785383424	18	3847
2026-01-16 23:04:29.19	120.24	23.14	-28.7	-29.2	15.3	0.00e+00	0	43	0	787480576	18	3801
2026-01-16 23:04:30.19	120.48	23.07	-28.9	-29.6	15.0	0.00e+00	0	43	0	789577728	18	3914
2026-01-16 23:04:31.19	120.73	23.00	-29.2	-30.5	14.5	7.00e-07	0	43	0	791674880	18	4152
2026-01-16 23:04:32.19	120.97	22.93	-29.2	-30.5	14.4	6.80e-06	0	43	0	793772032	18	4167
2026-01-16 23:04:33.19	121.21	22.86	-29.2	-30.3	14.6	3.81e-05	0	43	0	794820608	18	4099
2026-01-16 23:04:34.20	121.45	22.78	-29.0	-29.9	14.8	0.00e+00	0	43	0	796917760	18	3989
2026-01-16 23:04:35.20	121.69	22.71	-29.0	-29.8	14.8	0.00e+00	0	44	0	799014912	18	3969
2026-01-16 23:04:36.20	121.93	22.64	-29.0	-29.9	14.8	7.00e-07	0	43	0	801112064	18	3981
2026-01-16 23:04:37.21	122.16	22.57	-28.9	-29.6	15.0	0.00e+00	0	43	0	802160640	18	3899
2026-01-16 23:04:38.21	122.40	22.49	-29.3	-30.8	14.3	7.00e-07	0	43	0	804257792	18	4240
2026-01-16 23:04:39.21	122.63	22.42	-29.3	-30.7	14.2	7.00e-07	0	43	0	806354944	18	4216
2026-01-16 23:04:40.21	122.87	22.35	-29.5	-30.6	14.0	2.91e-04	0	43	0	808452096	19	4106
2026-01-16 23:04:41.21	123.10	22.27	-29.5	-30.6	14.0	7.00e-07	0	43	0	810549248	19	4096
2026-01-16 23:04:42.22	123.33	22.20	-29.4	-30.5	14.1	3.00e-06	0	43	0	811597824	19	4069
2026-01-16 23:04:43.22	123.56	22.12	-29.6	-30.9	13.8	9.10e-06	0	43	0	813694976	19	4207
2026-01-16 23:04:44.22	123.79	22.05	-29.2	-30.0	14.3	0.00e+00	0	44	0	815792128	19	3943
2026-01-16 23:04:45.23	124.02	21.97	-29.3	-30.3	14.2	0.00e+00	0	44	0	817889280	19	4025
2026-01-16 23:04:46.23	124.25	21.90	-29.5	-30.8	13.8	8.30e-06	0	43	0	819986432	19	4179
2026-01-16 23:04:47.23	124.47	21.82	-30.0	-32.0	13.1	1.83e-05	0	44	0	821035008	19	4556
2026-01-16 23:04:48.22	124.69	21.75	-30.0	-31.5	13.0	3.50e-05	0	43	0	823132160	20	4303
2026-01-16 23:04:49.22	124.92	21.67	-29.8	-31.0	13.3	2.44e-05	0	43	0	825229312	20	4148
2026-01-16 23:04:50.22	125.14	21.60	-29.6	-30.5	13.7	1.98e-05	0	43	0	827326464	20	3994
2026-01-16 23:04:51.22	125.36	21.52	-29.5	-30.2	13.9	4.50e-06	0	43	0	829423616	20	3908
2026-01-16 23:04:52.23	125.58	21.44	-29.5	-30.7	13.9	2.20e-06	0	43	0	830472192	19	4125
2026-01-16 23:04:53.24	125.80	21.36	-29.2	-29.8	14.4	1.50e-06	0	43	0	832569344	19	3891
2026-01-16 23:04:54.23	126.02	21.29	-29.0	-29.3	14.8	0.00e+00	0	43	0	834666496	19	3744
2026-01-16 23:04:55.24	126.24	21.21	-29.3	-30.1	14.3	1.50e-06	0	44	0	836763648	19	3970
2026-01-16 23:04:56.24	126.45	21.13	-29.4	-30.4	14.1	7.00e-07	0	44	0	838860800	19	4051
2026-01-16 23:04:57.24	126.67	21.06	-29.5	-30.7	13.9	5.30e-06	0	43	0	839909376	19	4139
2026-01-16 23:04:58.24	126.88	20.98	-29.8	-31.6	13.3	1.06e-05	0	43	0	842006528	19	4423
2026-01-16 23:04:59.24	127.09	20.90	-29.3	-30.3	14.1	3.80e-06	0	44	0	844103680	19	4028
2026-01-16 23:05:00.24	127.31	20.82	-29.4	-30.5	14.0	1.50e-06	0	44	0	846200832	19	4078
2026-01-16 23:05:01.24	127.52	20.75	-29.3	-30.2	14.2	3.80e-06	0	43	0	847249408	19	3996
2026-01-16 23:05:02.25	127.73	20.67	-29.6	-31.1	13.7	3.80e-06	0	43	0	849346560	19	4255
2026-01-16 23:05:03.25	127.94	20.59	-29.8	-31.6	13.3	1.06e-05	0	43	0	851443712	19	4406
2026-01-16 23:05:04.24	128.14	20.51	-29.8	-31.1	13.2	2.74e-05	0	43	0	853540864	20	4178
2026-01-16 23:05:05.24	128.35	20.43	-29.6	-30.6	13.6	1.37e-05	0	44	0	855638016	20	4029
2026-01-16 23:05:06.24	128.55	20.35	-29.4	-30.3	14.1	3.00e-06	0	43	0	856686592	19	4034
2026-01-16 23:05:07.25	128.76	20.27	-29.1	-29.8	14.4	7.00e-07	0	43	0	858783744	19	3874
2026-01-16 23:05:08.24	128.96	20.20	-28.6	-28.9	15.3	0.00e+00	0	43	0	860880896	18	3741
2026-01-16 23:05:09.24	129.16	20.12	-28.5	-29.2	15.3	0.00e+00	0	43	0	862978048	17	3903
2026-01-16 23:05:10.24	129.37	20.04	-28.6	-29.5	15.2	0.00e+00	0	43	0	865075200	17	3984
2026-01-16 23:05:11.24	129.57	19.96	-28.8	-29.9	15.0	3.06e-04	0	43	0	866123776	17	4094
2026-01-16 23:05:12.24	129.77	19.88	-29.3	-30.7	14.2	0.00e+00	0	43	0	868220928	18	4233
2026-01-16 23:05:13.25	129.97	19.80	-29.7	-31.4	13.4	9.90e-06	0	43	0	870318080	19	4356
2026-01-16 23:05:14.24	130.16	19.72	-29.9	-31.9	13.0	1.52e-05	0	43	0	872415232	19	4546
2026-01-16 23:05:15.24	130.36	19.64	-30.0	-32.1	12.8	7.17e-05	0	43	0	873463808	19	4607
2026-01-16 23:05:16.25	130.55	19.56	-29.6	-30.7	13.4	3.43e-05	0	43	0	875560960	20	4072
2026-01-16 23:05:17.25	130.75	19.48	-29.6	-31.0	13.5	1.37e-05	0	43	0	877658112	19	4268
2026-01-16 23:05:18.26	130.94	19.40	-29.5	-31.2	13.7	1.14e-03	0	43	0	879755264	18	4423
2026-01-16 23:05:19.25	131.13	19.32	-29.3	-30.9	13.9	2.20e-06	0	44	0	881852416	18	4298
2026-01-16 23:05:20.24	131.32	19.24	-29.4	-31.0	13.9	3.80e-06	0	43	0	882900992	18	4330
2026-01-16 23:05:21.25	131.52	19.16	-29.3	-30.9	13.9	2.20e-06	0	43	0	884998144	18	4314
2026-01-16 23:05:22.25	131.71	19.08	-29.5	-31.3	13.6	5.30e-06	0	43	0	887095296	18	4430
2026-01-16 23:05:23.25	131.89	19.00	-29.4	-31.1	13.8	9.10e-06	0	43	0	889192448	18	4369
2026-01-16 23:05:24.25	132.08	18.92	-29.3	-30.8	14.0	3.80e-06	0	43	0	891289600	18	4277
2026-01-16 23:05:25.25	132.27	18.84	-28.9	-29.9	14.6	7.00e-07	0	44	0	892338176	18	4016
2026-01-16 23:05:26.25	132.45	18.76	-28.9	-29.7	14.7	7.00e-07	0	43	0	894435328	18	3972
2026-01-16 23:05:27.26	132.64	18.68	-28.8	-29.6	14.7	0.00e+00	0	43	0	896532480	18	3948
2026-01-16 23:05:28.26	132.82	18.60	-28.9	-29.9	14.5	7.00e-07	0	44	0	898629632	18	4027
2026-01-16 23:05:29.26	133.01	18.52	-28.8	-29.6	14.7	5.41e-05	0	43	0	900726784	18	3930
2026-01-16 23:05:30.26	133.19	18.44	-29.0	-30.2	14.3	7.00e-07	0	44	0	901775360	18	4095
2026-01-16 23:05:31.26	133.37	18.36	-29.1	-30.2	14.3	7.00e-07	0	43	0	903872512	18	4102
2026-01-16 23:05:32.26	133.55	18.28	-29.1	-30.4	14.2	3.89e-05	0	43	0	905969664	18	4151
2026-01-16 23:05:33.26	133.73	18.20	-29.3	-30.9	13.9	3.20e-05	0	44	0	908066816	18	4296
2026-01-16 23:05:34.26	133.91	18.12	-29.3	-30.6	14.1	7.00e-07	0	43	0	909115392	18	4223
2026-01-16 23:05:35.26	134.09	18.04	-29.3	-30.7	14.0	3.80e-06	0	43	0	911212544	18	4255
2026-01-16 23:05:36.26	134.26	17.96	-29.2	-30.7	14.0	2.08e-04	0	43	0	913309696	18	4232
2026-01-16 23:05:37.26	134.44	17.88	-29.3	-30.8	14.0	3.00e-06	0	43	0	915406848	18	4261
2026-01-16 23:05:38.26	134.61	17.80	-29.5	-30.9	13.5	7.00e-07	0	43	0	917504000	19	4227
2026-01-16 23:05:39.26	134.79	17.72	-29.8	-31.6	13.1	9.68e-04	0	43	0	918552576	19	4428
2026-01-16 23:05:40.26	134.96	17.64	-29.8	-31.7	12.9	3.81e-05	0	43	0	920649728	19	4489
2026-01-16 23:05:41.27	135.13	17.56	-29.9	-32.0	12.7	4.88e-05	0	43	0	922746880	19	4572
2026-01-16 23:05:42.27	135.30	17.48	-29.9	-31.6	12.6	1.14e-03	0	43	0	924844032	20	4363
2026-01-16 23:05:43.28	135.47	17.40	-30.0	-31.7	12.5	1.36e-04	0	44	0	926941184	20	4402
2026-01-16 23:05:44.28	135.64	17.32	-29.7	-31.6	13.0	8.23e-05	0	43	0	927989760	19	4443
2026-01-16 23:05:45.29	135.81	17.24	-29.6	-31.3	13.2	2.82e-05	0	43	0	930086912	19	4353
2026-01-16 23:05:46.29	135.98	17.16	-29.5	-31.0	13.3	2.05e-05	0	43	0	932184064	19	4289
2026-01-16 23:05:47.29	136.15	17.08	-29.6	-31.3	13.1	2.44e-05	0	43	0	934281216	19	4383
2026-01-16 23:05:48.29	136.31	17.00	-29.6	-31.3	13.0	3.20e-05	0	43	0	936378368	19	4380
2026-01-16 23:05:49.29	136.48	16.92	-29.4	-30.9	13.3	1.60e-05	0	43	0	937426944	19	4257
2026-01-16 23:05:50.30	136.64	16.84	-29.2	-30.1	13.8	2.75e-04	0	43	0	939524096	19	4028
2026-01-16 23:05:51.30	136.81	16.76	-29.0	-30.3	14.1	4.10e-04	0	43	0	941621248	18	4157
2026-01-16 23:05:52.30	136.97	16.68	-28.9	-29.9	14.3	1.50e-06	0	43	0	943718400	18	4049
2026-01-16 23:05:53.30	137.13	16.60	-28.8	-29.6	14.5	4.39e-04	0	43	0	945815552	18	3956
2026-01-16 23:05:54.31	137.29	16.52	-28.7	-30.0	14.5	4.90e-04	0	43	0	946864128	17	4177
2026-01-16 23:05:55.31	137.45	16.44	-28.7	-29.9	14.5	7.00e-07	0	43	0	948961280	17	4138
2026-01-16 23:05:56.31	137.61	16.36	-28.6	-29.8	14.6	5.48e-04	0	44	0	951058432	17	4097
2026-01-16 23:05:57.32	137.77	16.28	-28.7	-29.8	14.6	5.10e-04	0	43	0	953155584	17	4101
2026-01-16 23:05:58.32	137.93	16.20	-28.7	-29.9	14.6	0.00e+00	0	43	0	955252736	17	4133
2026-01-16 23:05:59.32	138.09	16.12	-28.8	-30.1	14.4	9.54e-04	0	44	0	956301312	17	4198
2026-01-16 23:06:00.32	138.24	16.04	-28.9	-30.4	14.2	9.06e-04	0	43	0	958398464	17	4281
2026-01-16 23:06:01.33	138.40	15.96	-28.9	-30.6	14.1	3.00e-06	0	43	0	960495616	17	4358
2026-01-16 23:06:02.33	138.55	15.88	-29.1	-30.4	13.9	1.37e-05	0	44	0	962592768	18	4203
2026-01-16 23:06:03.34	138.71	15.80	-29.1	-30.7	13.6	3.26e-04	0	43	0	963641344	18	4296
2026-01-16 23:06:04.34	138.86	15.72	-29.3	-31.0	13.4	7.60e-06	0	43	0	965738496	18	4401
2026-01-16 23:06:05.35	139.01	15.64	-29.3	-31.2	13.3	2.59e-04	0	44	0	967835648	18	4472
2026-01-16 23:06:06.34	139.16	15.56	-29.5	-31.2	13.0	4.03e-04	0	43	0	969932800	19	4359
2026-01-16 23:06:07.34	139.31	15.49	-29.5	-31.3	13.0	4.19e-05	0	43	0	972029952	19	4388
2026-01-16 23:06:08.34	139.46	15.41	-29.6	-31.5	12.7	6.72e-04	0	43	0	973078528	19	4483
2026-01-16 23:06:09.34	139.61	15.33	-29.5	-31.2	13.0	2.89e-05	0	43	0	975175680	19	4367
2026-01-16 23:06:10.34	139.76	15.25	-29.4	-30.9	13.1	4.80e-05	0	43	0	977272832	19	4289
2026-01-16 23:06:11.35	139.91	15.17	-29.4	-31.0	13.0	6.00e-04	0	43	0	979369984	19	4332
2026-01-16 23:06:12.35	140.06	15.09	-29.3	-30.6	13.3	6.26e-04	0	44	0	981467136	19	4182
2026-01-16 23:06:13.35	140.20	15.01	-29.2	-30.4	13.4	5.49e-05	0	43	0	982515712	19	4132
2026-01-16 23:06:14.35	140.35	14.93	-29.2	-30.9	13.4	4.40e-04	0	44	0	984612864	18	4372
2026-01-16 23:06:15.35	140.49	14.86	-29.1	-30.6	13.5	4.67e-04	0	43	0	986710016	18	4312
2026-01-16 23:06:16.35	140.63	14.78	-29.2	-30.9	13.4	1.52e-05	0	44	0	988807168	18	4392
2026-01-16 23:06:17.36	140.78	14.70	-29.2	-31.1	13.2	5.68e-04	0	43	0	990904320	18	4465
2026-01-16 23:06:18.36	140.92	14.62	-29.0	-30.8	13.6	7.20e-04	0	44	0	991952896	17	4479
2026-01-16 23:06:19.36	141.06	14.54	-28.9	-30.3	13.6	8.30e-06	0	43	0	994050048	18	4200
2026-01-16 23:06:20.36	141.20	14.46	-28.8	-30.4	13.9	6.10e-06	0	43	0	996147200	17	4326
2026-01-16 23:06:21.37	141.34	14.39	-28.8	-30.5	13.8	7.61e-04	0	44	0	998244352	17	4348
2026-01-16 23:06:22.37	141.48	14.31	-28.8	-30.5	13.8	6.80e-06	0	43	0	1000341504	17	4337
2026-01-16 23:06:23.37	141.62	14.23	-28.8	-30.3	13.9	4.50e-06	0	44	0	1001390080	17	4272
2026-01-16 23:06:24.37	141.76	14.15	-28.9	-30.7	13.7	9.64e-04	0	44	0	1003487232	17	4398
2026-01-16 23:06:25.37	141.90	14.08	-28.9	-30.5	13.8	3.80e-06	0	43	0	1005584384	17	4348
2026-01-16 23:06:26.37	142.03	14.00	-28.8	-30.2	14.0	0.00e+00	0	44	0	1007681536	17	4253
2026-01-16 23:06:27.37	142.17	13.92	-28.9	-30.6	13.8	3.00e-06	0	43	0	1008730112	17	4366
2026-01-16 23:06:28.37	142.30	13.84	-29.0	-30.3	13.6	1.50e-06	0	43	0	1010827264	18	4190
2026-01-16 23:06:29.37	142.44	13.77	-29.2	-30.8	13.3	1.81e-03	0	44	0	1012924416	18	4339
2026-01-16 23:06:30.37	142.57	13.69	-29.3	-31.2	13.0	2.89e-05	0	43	0	1015021568	18	4488
2026-01-16 23:06:31.37	142.71	13.61	-29.3	-31.4	12.9	4.57e-05	0	43	0	1017118720	18	4548
2026-01-16 23:06:32.37	142.84	13.54	-29.5	-31.4	12.5	1.80e-03	0	43	0	1018167296	19	4483
2026-01-16 23:06:33.38	142.97	13.46	-29.6	-31.7	12.3	1.19e-04	0	43	0	1020264448	19	4575
2026-01-16 23:06:34.38	143.10	13.38	-29.7	-32.0	12.0	2.55e-04	0	44	0	1022361600	19	4722
2026-01-16 23:06:35.39	143.23	13.31	-29.6	-31.7	12.3	1.94e-03	0	43	0	1024458752	19	4586
2026-01-16 23:06:36.39	143.36	13.23	-29.7	-32.2	11.9	1.90e-03	0	44	0	1026555904	19	4786
2026-01-16 23:06:37.39	143.49	13.15	-29.6	-31.8	12.2	4.24e-04	0	44	0	1027604480	19	4628
2026-01-16 23:06:38.38	143.62	13.08	-29.3	-31.0	12.7	1.30e-04	0	44	0	1029701632	19	4380
2026-01-16 23:06:39.39	143.75	13.00	-29.3	-31.4	12.8	1.79e-03	0	43	0	1031798784	18	4599
2026-01-16 23:06:40.39	143.88	12.93	-29.5	-31.5	12.3	1.22e-04	0	44	0	1033895936	19	4557
2026-01-16 23:06:41.40	144.00	12.85	-29.5	-31.5	12.4	1.65e-04	0	43	0	1035993088	19	4552
2026-01-16 23:06:42.39	144.13	12.78	-29.5	-31.6	12.3	1.68e-04	0	44	0	1037041664	19	4584
2026-01-16 23:06:43.39	144.25	12.70	-29.5	-31.6	12.4	1.96e-04	0	43	0	1039138816	19	4556
2026-01-16 23:06:44.39	144.38	12.62	-29.8	-32.5	11.7	4.61e-04	0	43	0	1041235968	19	4906
2026-01-16 23:06:45.39	144.50	12.55	-29.7	-32.2	12.0	3.78e-04	0	43	0	1043333120	19	4781
2026-01-16 23:06:46.38	144.63	12.47	-29.8	-32.4	11.8	4.29e-04	0	43	0	1044381696	19	4833
2026-01-16 23:06:47.38	144.75	12.40	-30.0	-32.4	11.4	9.54e-04	0	44	0	1046478848	20	4762
2026-01-16 23:06:48.39	144.87	12.32	-30.0	-32.9	11.5	6.54e-04	0	43	0	1048576000	19	5027
2026-01-16 23:06:49.39	144.99	12.25	-30.1	-32.9	11.0	1.23e-03	0	43	0	1050673152	20	4972
2026-01-16 23:06:50.40	145.12	12.17	-30.2	-33.3	10.7	4.33e-03	0	43	0	1052770304	20	5103
2026-01-16 23:06:51.41	145.24	12.10	-30.1	-32.8	11.0	1.75e-03	0	44	0	1053818880	20	4940
2026-01-16 23:06:52.41	145.36	12.02	-30.1	-32.9	11.0	1.48e-03	0	43	0	1055916032	20	4974
2026-01-16 23:06:53.41	145.48	11.95	-29.9	-32.1	11.5	3.76e-03	0	44	0	1058013184	20	4674
2026-01-16 23:06:54.41	145.60	11.88	-30.1	-32.8	11.1	1.06e-03	0	44	0	1060110336	20	4909
2026-01-16 23:06:55.41	145.71	11.80	-29.8	-31.9	11.8	8.28e-04	0	43	0	1062207488	20	4582
2026-01-16 23:06:56.41	145.83	11.73	-29.8	-32.3	11.9	3.66e-04	0	43	0	1063256064	19	4809
2026-01-16 23:06:57.41	145.95	11.65	-29.8	-32.3	11.8	4.19e-04	0	44	0	1065353216	19	4813
2026-01-16 23:06:58.42	146.07	11.58	-29.8	-32.4	11.8	6.71e-04	0	44	0	1067450368	19	4852
2026-01-16 23:06:59.42	146.18	11.51	-29.8	-32.5	11.7	6.31e-04	0	43	0	1069547520	19	4900
2026-01-16 23:07:00.42	146.30	11.43	-29.9	-32.4	11.3	1.03e-03	0	43	0	1071644672	20	4760
2026-01-16 23:07:01.43	146.41	11.36	-29.9	-32.4	11.3	1.39e-03	0	43	0	1072693248	20	4784
2026-01-16 23:07:02.42	146.53	11.28	-30.0	-32.8	11.0	1.16e-03	0	43	0	1074790400	20	4947
2026-01-16 23:07:03.43	146.64	11.21	-30.0	-32.8	10.9	1.81e-03	0	43	0	1076887552	20	4953
2026-01-16 23:07:04.44	146.76	11.14	-30.0	-32.9	10.9	2.15e-03	0	44	0	1078984704	20	4993
2026-01-16 23:07:05.44	146.87	11.06	-30.1	-33.1	10.6	2.23e-03	0	44	0	1081081856	20	5127
2026-01-16 23:07:06.44	146.98	10.99	-30.0	-33.1	10.7	3.69e-03	0	43	0	1082130432	20	5103
2026-01-16 23:07:07.44	147.09	10.92	-29.9	-32.5	11.1	1.83e-03	0	43	0	1084227584	20	4895
2026-01-16 23:07:08.43	147.20	10.85	-29.9	-32.7	10.8	3.16e-03	0	44	0	1086324736	20	4985
2026-01-16 23:07:09.43	147.31	10.77	-29.7	-32.0	11.4	1.39e-03	0	43	0	1088421888	20	4668
2026-01-16 23:07:10.44	147.42	10.70	-29.5	-31.2	12.0	4.98e-04	0	43	0	1089470464	20	4404
2026-01-16 23:07:11.44	147.53	10.63	-29.5	-31.8	12.0	3.14e-04	0	44	0	1091567616	19	4668
2026-01-16 23:07:12.44	147.64	10.56	-29.5	-31.7	12.1	3.18e-04	0	44	0	1093664768	19	4639
2026-01-16 23:07:13.45	147.75	10.48	-29.5	-31.5	12.2	2.46e-04	0	44	0	1095761920	19	4561
2026-01-16 23:07:14.45	147.86	10.41	-29.6	-31.8	12.0	2.84e-04	0	43	0	1097859072	19	4659
2026-01-16 23:07:15.45	147.97	10.34	-29.6	-31.7	12.1	3.42e-04	0	43	0	1098907648	19	4603
2026-01-16 23:07:16.46	148.07	10.27	-29.7	-32.0	11.9	3.62e-04	0	43	0	1101004800	19	4727
2026-01-16 23:07:17.46	148.18	10.20	-29.6	-32.0	12.0	3.22e-04	0	43	0	1103101952	19	4699
2026-01-16 23:07:18.46	148.29	10.13	-29.9	-32.8	11.5	5.08e-04	0	43	0	1105199104	19	4996
2026-01-16 23:07:19.46	148.39	10.05	-29.9	-32.5	11.1	9.64e-04	0	43	0	1107296256	20	4810
2026-01-16 23:07:20.47	148.50	9.98	-30.2	-33.4	10.5	1.63e-03	0	43	0	1108344832	20	5180
2026-01-16 23:07:21.47	148.60	9.91	-30.3	-33.7	10.2	5.32e-03	0	44	0	1110441984	20	5338
2026-01-16 23:07:22.47	148.71	9.84	-30.3	-33.8	10.1	5.40e-03	0	43	0	1112539136	20	5409
2026-01-16 23:07:23.47	148.81	9.77	-30.2	-33.8	10.0	7.27e-03	0	44	0	1114636288	20	5463
2026-01-16 23:07:24.48	148.91	9.70	-30.2	-34.1	9.7	1.42e-02	0	43	0	1116733440	20	5628
2026-01-16 23:07:25.48	149.02	9.63	-30.1	-33.7	10.0	9.08e-03	0	43	0	1117782016	20	5440
2026-01-16 23:07:26.48	149.12	9.56	-30.1	-33.5	10.2	5.77e-03	0	44	0	1119879168	20	5314
2026-01-16 23:07:27.49	149.22	9.49	-30.0	-33.2	10.4	6.75e-03	0	43	0	1121976320	20	5193
2026-01-16 23:07:28.49	149.32	9.42	-30.1	-33.6	10.0	9.63e-03	0	44	0	1124073472	20	5405
2026-01-16 23:07:29.49	149.42	9.35	-30.1	-33.9	9.7	8.59e-03	0	43	0	1126170624	20	5573
2026-01-16 23:07:30.49	149.52	9.28	-30.1	-33.8	9.8	9.44e-03	0	44	0	1127219200	20	5519
2026-01-16 23:07:31.49	149.62	9.21	-30.0	-33.1	10.4	8.79e-03	0	44	0	1129316352	20	5169
2026-01-16 23:07:32.49	149.72	9.14	-30.2	-34.1	9.7	8.52e-03	0	43	0	1131413504	20	5607
2026-01-16 23:07:33.49	149.82	9.07	-30.3	-34.2	9.6	1.22e-02	0	44	0	1133510656	20	5650
2026-01-16 23:07:34.50	149.92	9.00	-30.2	-33.5	10.2	8.70e-03	0	43	0	1134559232	20	5276
2026-01-16 23:07:35.50	150.02	8.93	-30.3	-34.0	9.8	1.18e-02	0	44	0	1136656384	20	5512
2026-01-16 23:07:36.51	150.11	8.86	-30.3	-33.9	9.9	1.15e-02	0	43	0	1138753536	20	5437
2026-01-16 23:07:37.51	150.21	8.79	-30.2	-33.3	10.4	6.51e-03	0	43	0	1140850688	20	5148
2026-01-16 23:07:38.51	150.31	8.72	-30.0	-32.8	10.7	6.19e-03	0	43	0	1142947840	20	4941
2026-01-16 23:07:39.51	150.40	8.65	-29.9	-32.5	10.9	2.69e-03	0	43	0	1143996416	20	4872
2026-01-16 23:07:40.52	150.50	8.58	-29.9	-32.6	10.8	3.13e-03	0	43	0	1146093568	20	4916
2026-01-16 23:07:41.52	150.60	8.51	-29.8	-32.9	11.0	4.17e-03	0	43	0	1148190720	19	5158
2026-01-16 23:07:42.53	150.69	8.45	-29.9	-33.4	10.5	3.64e-03	0	43	0	1150287872	19	5381
2026-01-16 23:07:43.53	150.79	8.38	-29.7	-33.1	10.6	3.78e-03	0	44	0	1152385024	19	5316
2026-01-16 23:07:44.53	150.88	8.31	-29.5	-32.6	10.9	2.52e-03	0	43	0	1153433600	19	5186
2026-01-16 23:07:45.53	150.97	8.24	-29.1	-32.4	11.3	1.91e-03	0	44	0	1155530752	18	5223
2026-01-16 23:07:46.53	151.07	8.17	-29.0	-32.1	11.4	3.96e-03	0	43	0	1157627904	18	5155
2026-01-16 23:07:47.53	151.16	8.11	-29.2	-32.7	11.0	1.49e-03	0	44	0	1159725056	18	5391
2026-01-16 23:07:48.53	151.25	8.04	-29.2	-32.9	10.7	2.66e-03	0	43	0	1161822208	18	5544
2026-01-16 23:07:49.53	151.34	7.97	-29.3	-33.2	10.5	5.91e-03	0	44	0	1162870784	18	5697
2026-01-16 23:07:50.53	151.43	7.90	-29.3	-33.3	10.5	1.97e-03	0	44	0	1164967936	18	5703
2026-01-16 23:07:51.53	151.53	7.84	-29.3	-33.3	10.4	5.92e-03	0	43	0	1167065088	18	5689
2026-01-16 23:07:52.53	151.62	7.77	-29.3	-33.2	10.5	6.08e-03	0	43	0	1169162240	18	5645
2026-01-16 23:07:53.53	151.71	7.70	-29.4	-33.2	10.6	7.76e-03	0	44	0	1171259392	18	5574
2026-01-16 23:07:54.53	151.80	7.63	-29.2	-32.5	11.2	2.35e-03	0	43	0	1172307968	18	5242
2026-01-16 23:07:55.53	151.89	7.57	-29.7	-33.3	10.2	5.96e-03	0	43	0	1174405120	19	5456
2026-01-16 23:07:56.53	151.97	7.50	-29.7	-33.1	10.5	9.89e-03	0	44	0	1176502272	19	5281
2026-01-16 23:07:57.53	152.06	7.43	-29.8	-33.3	10.4	3.59e-03	0	44	0	1178599424	19	5387
2026-01-16 23:07:58.54	152.15	7.37	-29.9	-33.5	10.3	4.68e-03	0	43	0	1179648000	19	5429
2026-01-16 23:07:59.54	152.24	7.30	-29.8	-32.9	10.9	4.95e-03	0	43	0	1181745152	19	5110
2026-01-16 23:08:00.54	152.33	7.23	-29.8	-32.7	11.0	2.51e-03	0	43	0	1183842304	19	5020
2026-01-16 23:08:01.53	152.41	7.17	-29.7	-32.4	11.1	1.30e-03	0	44	0	1185939456	19	4946
2026-01-16 23:08:02.53	152.50	7.10	-29.5	-32.2	11.2	4.07e-03	0	43	0	1188036608	19	4876
2026-01-16 23:08:03.53	152.59	7.04	-31.7	-44.1	3.8	1.26e-01	0	44	104	1189085184	23	15067

#Closed at: 2026-01-16 23:08:04
#Recorded file [1189 MB]: D:/data/31010_260117_015728.dat