passes_logs/2026/01/16/R2M6_AANII_01/R2M6_AANII_01__20260116_084028_NOAA_21_JPSS-2_rec.log

#Pass ID: 20260116_084028_NOAA 21 (JPSS-2)
#Satellite: NOAA 21 (JPSS-2)
#Configuration: NOAA 21
#almurnet v.1.7.20240730
#Start time: 2026-01-16 08:40:27

#Version: 2.2.20231116
#Station: R2M6_AANII_01
#Location: 30.233357 lon 59.946436 lat
#TLE: 1 54234U 22150A   26015.43562254  .00000028  00000+0  34201-4 0  9996
#TLE: 2 54234  98.7498 316.3301 0000635 288.4972  71.6135 14.19534768164873

#Time	Az	El	Level	Level2	SNR	BER	BlckErr	Temp	State	Recorded	gain1	gain2
2026-01-16 08:40:27.50	109.42	6.95	-31.4	-37.4	4.3	1.43e+00	0	41	0	0	23	7133
2026-01-16 08:40:28.49	109.34	7.02	-30.6	-35.4	4.6	1.39e+00	0	41	104	0	21	6250
2026-01-16 08:40:29.50	109.26	7.09	-30.5	-34.4	9.0	2.53e-02	0	41	0	0	21	5654
2026-01-16 08:40:30.50	109.18	7.16	-30.6	-34.8	8.8	2.94e-02	0	41	0	3145728	21	5784
2026-01-16 08:40:31.50	109.10	7.22	-30.4	-34.1	9.2	1.93e-02	0	41	0	6291456	21	5509
2026-01-16 08:40:32.50	109.02	7.29	-30.5	-34.4	9.0	2.42e-02	0	41	0	9437184	21	5619
2026-01-16 08:40:33.50	108.94	7.36	-30.6	-34.5	8.9	2.31e-02	0	41	0	12582912	21	5677
2026-01-16 08:40:34.51	108.85	7.43	-30.6	-34.5	8.9	3.71e-02	0	41	0	15728640	21	5682
2026-01-16 08:40:35.51	108.77	7.50	-30.2	-34.0	9.7	1.72e-02	0	41	0	18874368	20	5539
2026-01-16 08:40:36.51	108.69	7.57	-30.0	-33.3	10.3	5.46e-03	0	41	0	22020096	20	5232
2026-01-16 08:40:37.51	108.61	7.63	-29.7	-32.4	10.9	2.40e-03	0	41	0	24117248	20	4906
2026-01-16 08:40:38.51	108.52	7.70	-29.4	-32.0	11.6	3.04e-03	0	41	0	27262976	19	4853
2026-01-16 08:40:39.52	108.44	7.77	-29.2	-31.9	12.0	2.97e-04	0	41	0	30408704	18	4923
2026-01-16 08:40:40.52	108.36	7.84	-29.1	-31.8	12.1	2.28e-04	0	41	0	33554432	18	4887
2026-01-16 08:40:41.53	108.27	7.91	-29.4	-32.5	11.6	6.32e-04	0	41	0	36700160	18	5157
2026-01-16 08:40:42.54	108.19	7.98	-29.2	-31.9	12.0	2.36e-03	0	41	0	39845888	18	4942
2026-01-16 08:40:43.54	108.10	8.05	-29.1	-31.6	12.2	2.23e-04	0	41	0	42991616	18	4822
2026-01-16 08:40:44.54	108.01	8.12	-29.1	-31.7	12.2	2.26e-04	0	41	0	46137344	18	4846
2026-01-16 08:40:45.54	107.93	8.19	-29.2	-31.9	12.1	2.20e-04	0	41	0	49283072	18	4921
2026-01-16 08:40:46.54	107.84	8.26	-29.0	-31.4	12.4	1.62e-04	0	41	0	52428800	18	4749
2026-01-16 08:40:47.54	107.76	8.33	-29.0	-31.5	12.4	1.72e-03	0	41	0	55574528	18	4787
2026-01-16 08:40:48.54	107.67	8.40	-28.8	-31.3	12.8	1.57e-03	0	41	0	58720256	17	4830
2026-01-16 08:40:49.53	107.58	8.47	-28.7	-31.2	12.9	7.47e-05	0	41	0	61865984	17	4782
2026-01-16 08:40:50.53	107.49	8.54	-28.8	-31.4	12.8	2.82e-05	0	41	0	65011712	17	4860
2026-01-16 08:40:51.54	107.40	8.61	-28.6	-31.0	13.0	5.68e-04	0	41	0	68157440	17	4729
2026-01-16 08:40:52.54	107.31	8.68	-28.6	-30.8	13.1	3.73e-05	0	41	0	71303168	17	4661
2026-01-16 08:40:53.54	107.23	8.75	-28.7	-31.2	12.9	4.45e-04	0	41	0	74448896	17	4803
2026-01-16 08:40:54.54	107.14	8.82	-28.7	-31.3	12.9	4.29e-04	0	42	0	77594624	17	4807
2026-01-16 08:40:55.55	107.04	8.90	-28.6	-30.9	13.1	3.58e-05	0	41	0	80740352	17	4698
2026-01-16 08:40:56.55	106.95	8.97	-28.6	-30.8	13.2	3.09e-04	0	42	0	83886080	17	4660
2026-01-16 08:40:57.55	106.86	9.04	-28.6	-30.8	13.2	3.09e-04	0	42	0	87031808	17	4668
2026-01-16 08:40:58.55	106.77	9.11	-28.6	-30.8	13.2	2.51e-05	0	42	0	90177536	17	4658
2026-01-16 08:40:59.56	106.68	9.18	-28.5	-30.6	13.3	2.84e-04	0	42	0	93323264	17	4598
2026-01-16 08:41:00.55	106.59	9.25	-28.6	-30.9	13.1	1.98e-05	0	42	0	96468992	17	4685
2026-01-16 08:41:01.56	106.49	9.32	-28.5	-30.5	13.4	1.52e-05	0	42	0	99614720	17	4568
2026-01-16 08:41:02.55	106.40	9.40	-28.5	-30.6	13.4	2.57e-04	0	42	0	102760448	17	4578
2026-01-16 08:41:03.56	106.30	9.47	-28.4	-30.3	13.5	2.69e-04	0	42	0	105906176	17	4495
2026-01-16 08:41:04.56	106.21	9.54	-28.4	-30.3	13.6	9.90e-06	0	42	0	109051904	17	4494
2026-01-16 08:41:05.56	106.11	9.61	-28.4	-30.3	13.5	1.37e-05	0	42	0	112197632	17	4498
2026-01-16 08:41:06.55	106.02	9.68	-28.3	-30.1	13.7	6.80e-06	0	42	0	115343360	17	4437
2026-01-16 08:41:07.55	105.92	9.76	-28.3	-30.0	13.7	9.90e-06	0	42	0	118489088	17	4418
2026-01-16 08:41:08.56	105.83	9.83	-28.3	-30.6	13.7	4.95e-04	0	42	0	121634816	16	4705
2026-01-16 08:41:09.56	105.73	9.90	-28.2	-30.4	13.8	4.12e-04	0	42	0	124780544	16	4631
2026-01-16 08:41:10.56	105.63	9.98	-28.3	-30.6	13.7	2.20e-06	0	42	0	127926272	16	4691
2026-01-16 08:41:11.56	105.53	10.05	-28.2	-30.4	13.8	3.00e-06	0	42	0	131072000	16	4633
2026-01-16 08:41:12.57	105.44	10.12	-28.1	-30.1	14.0	1.36e-04	0	42	0	134217728	16	4543
2026-01-16 08:41:13.57	105.34	10.20	-28.1	-30.1	14.0	3.80e-06	0	42	0	137363456	16	4547
2026-01-16 08:41:14.57	105.24	10.27	-28.0	-29.9	14.1	7.09e-05	0	42	0	140509184	16	4487
2026-01-16 08:41:15.57	105.14	10.34	-28.1	-30.2	14.0	7.00e-07	0	42	0	143654912	16	4562
2026-01-16 08:41:16.58	105.04	10.42	-28.0	-29.9	14.1	6.10e-06	0	42	0	146800640	16	4479
2026-01-16 08:41:17.59	104.93	10.49	-27.9	-29.8	14.2	7.32e-05	0	42	0	149946368	16	4443
2026-01-16 08:41:18.59	104.83	10.57	-27.8	-29.5	14.4	6.94e-05	0	42	0	153092096	16	4377
2026-01-16 08:41:19.59	104.73	10.64	-27.9	-29.8	14.2	0.00e+00	0	42	0	156237824	16	4442
2026-01-16 08:41:20.59	104.63	10.72	-27.8	-29.4	14.5	0.00e+00	0	42	0	159383552	16	4337
2026-01-16 08:41:21.59	104.52	10.79	-27.9	-29.7	14.3	1.50e-06	0	42	0	162529280	16	4428
2026-01-16 08:41:22.59	104.42	10.86	-27.9	-29.6	14.4	6.80e-06	0	42	0	165675008	16	4382
2026-01-16 08:41:23.58	104.32	10.94	-28.1	-30.0	14.1	4.65e-05	0	42	0	168820736	16	4515
2026-01-16 08:41:24.59	104.21	11.01	-27.9	-29.7	14.3	1.50e-06	0	42	0	171966464	16	4408
2026-01-16 08:41:25.59	104.11	11.09	-27.9	-29.8	14.3	5.30e-06	0	42	0	175112192	16	4437
2026-01-16 08:41:26.59	104.00	11.16	-28.0	-29.8	14.2	0.00e+00	0	42	0	178257920	16	4463
2026-01-16 08:41:27.59	103.89	11.24	-28.0	-29.8	14.3	2.20e-06	0	42	0	181403648	16	4441
2026-01-16 08:41:28.59	103.79	11.32	-28.0	-30.0	14.1	1.50e-06	0	42	0	184549376	16	4509
2026-01-16 08:41:29.60	103.68	11.39	-27.8	-29.4	14.4	7.00e-07	0	42	0	187695104	16	4343
2026-01-16 08:41:30.60	103.57	11.47	-28.0	-29.9	14.2	7.00e-07	0	42	0	190840832	16	4478
2026-01-16 08:41:31.60	103.46	11.54	-27.9	-29.7	14.3	7.00e-07	0	42	0	193986560	16	4419
2026-01-16 08:41:32.60	103.35	11.62	-27.8	-29.5	14.4	7.00e-07	0	42	0	197132288	16	4367
2026-01-16 08:41:33.60	103.24	11.69	-27.7	-29.2	14.6	0.00e+00	0	42	0	200278016	16	4269
2026-01-16 08:41:34.61	103.13	11.77	-27.7	-29.3	14.5	7.00e-07	0	42	0	203423744	16	4291
2026-01-16 08:41:35.61	103.02	11.85	-27.8	-29.4	14.5	0.00e+00	0	42	0	206569472	16	4344
2026-01-16 08:41:36.62	102.91	11.93	-27.8	-29.4	14.5	7.00e-07	0	42	0	209715200	16	4322
2026-01-16 08:41:37.62	102.79	12.00	-27.5	-28.8	14.8	7.00e-07	0	42	0	212860928	16	4160
2026-01-16 08:41:38.61	102.68	12.08	-27.5	-28.7	14.9	0.00e+00	0	42	0	216006656	16	4138
2026-01-16 08:41:39.61	102.57	12.15	-27.5	-28.7	14.9	1.50e-06	0	42	0	219152384	16	4145
2026-01-16 08:41:40.61	102.46	12.23	-27.5	-28.6	15.0	1.50e-06	0	42	0	222298112	16	4109
2026-01-16 08:41:41.61	102.34	12.31	-27.5	-28.7	14.9	0.00e+00	0	42	0	225443840	16	4132
2026-01-16 08:41:42.61	102.23	12.39	-27.5	-28.7	14.9	0.00e+00	0	42	0	228589568	16	4127
2026-01-16 08:41:43.61	102.11	12.46	-27.5	-28.8	14.9	7.00e-07	0	42	0	230686720	16	4146
2026-01-16 08:41:44.61	101.99	12.54	-27.4	-28.5	15.0	0.00e+00	0	42	0	233832448	16	4091
2026-01-16 08:41:45.61	101.88	12.62	-27.6	-28.9	14.8	0.00e+00	0	42	0	236978176	16	4175
2026-01-16 08:41:46.62	101.76	12.70	-27.5	-28.8	14.8	0.00e+00	0	42	0	240123904	16	4177
2026-01-16 08:41:47.62	101.64	12.78	-27.5	-28.7	14.9	0.00e+00	0	42	0	243269632	16	4141
2026-01-16 08:41:48.62	101.52	12.85	-27.5	-28.7	14.9	0.00e+00	0	42	0	246415360	16	4146
2026-01-16 08:41:49.62	101.40	12.93	-27.4	-28.6	15.0	0.00e+00	0	42	0	249561088	16	4096
2026-01-16 08:41:50.63	101.28	13.01	-27.6	-28.9	14.8	0.00e+00	0	42	0	252706816	16	4188
2026-01-16 08:41:51.63	101.16	13.09	-27.5	-28.7	14.9	0.00e+00	0	42	0	255852544	16	4138
2026-01-16 08:41:52.64	101.04	13.17	-27.5	-28.7	15.0	0.00e+00	0	42	0	258998272	16	4120
2026-01-16 08:41:53.64	100.91	13.25	-27.6	-28.9	14.9	0.00e+00	0	42	0	262144000	16	4181
2026-01-16 08:41:54.65	100.79	13.33	-27.6	-28.8	14.9	0.00e+00	0	42	0	265289728	16	4167
2026-01-16 08:41:55.65	100.67	13.40	-27.7	-29.2	14.7	0.00e+00	0	42	0	268435456	16	4274
2026-01-16 08:41:56.65	100.54	13.48	-27.9	-29.6	14.5	7.00e-07	0	42	0	271581184	16	4385
2026-01-16 08:41:57.65	100.42	13.56	-27.9	-29.6	14.5	0.00e+00	0	42	0	274726912	16	4385
2026-01-16 08:41:58.65	100.29	13.64	-28.0	-29.9	14.3	2.20e-06	0	42	0	277872640	16	4478
2026-01-16 08:41:59.66	100.16	13.72	-28.0	-29.8	14.4	7.00e-07	0	43	0	281018368	16	4429
2026-01-16 08:42:00.66	100.04	13.80	-27.9	-29.6	14.5	0.00e+00	0	42	0	284164096	16	4376
2026-01-16 08:42:01.66	99.91	13.88	-28.0	-29.8	14.3	0.00e+00	0	42	0	287309824	16	4448
2026-01-16 08:42:02.67	99.78	13.96	-28.0	-29.8	14.4	7.00e-07	0	42	0	290455552	16	4426
2026-01-16 08:42:03.66	99.65	14.04	-28.0	-29.9	14.3	0.00e+00	0	43	0	293601280	16	4471
2026-01-16 08:42:04.66	99.52	14.12	-27.9	-29.6	14.5	7.00e-07	0	42	0	296747008	16	4380
2026-01-16 08:42:05.66	99.39	14.20	-27.8	-29.4	14.6	7.00e-07	0	42	0	299892736	16	4321
2026-01-16 08:42:06.66	99.26	14.28	-27.6	-29.0	14.9	0.00e+00	0	42	0	303038464	16	4198
2026-01-16 08:42:07.65	99.13	14.36	-27.6	-28.9	14.9	0.00e+00	0	42	0	306184192	16	4191
2026-01-16 08:42:08.66	98.99	14.44	-27.7	-29.2	14.8	0.00e+00	0	43	0	309329920	16	4262
2026-01-16 08:42:09.67	98.86	14.52	-27.7	-29.2	14.8	0.00e+00	0	42	0	312475648	16	4262
2026-01-16 08:42:10.66	98.73	14.60	-27.8	-29.3	14.8	0.00e+00	0	42	0	315621376	16	4283
2026-01-16 08:42:11.67	98.59	14.68	-27.8	-29.3	14.8	7.00e-07	0	43	0	318767104	16	4290
2026-01-16 08:42:12.67	98.45	14.77	-27.7	-29.2	14.8	7.00e-07	0	43	0	321912832	16	4248
2026-01-16 08:42:13.67	98.32	14.85	-28.0	-29.8	14.5	0.00e+00	0	42	0	325058560	16	4423
2026-01-16 08:42:14.66	98.18	14.93	-27.8	-29.3	14.7	2.20e-06	0	43	0	328204288	16	4296
2026-01-16 08:42:15.66	98.04	15.01	-27.9	-29.5	14.6	7.00e-07	0	42	0	331350016	16	4357
2026-01-16 08:42:16.66	97.91	15.09	-27.8	-29.5	14.7	0.00e+00	0	42	0	334495744	16	4334
2026-01-16 08:42:17.67	97.76	15.17	-27.8	-29.3	14.8	0.00e+00	0	43	0	337641472	16	4297
2026-01-16 08:42:18.67	97.62	15.25	-27.8	-29.4	14.7	0.00e+00	0	43	0	340787200	16	4315
2026-01-16 08:42:19.67	97.48	15.33	-27.8	-29.4	14.8	0.00e+00	0	43	0	343932928	16	4307
2026-01-16 08:42:20.67	97.34	15.42	-27.7	-29.1	14.9	0.00e+00	0	43	0	347078656	16	4238
2026-01-16 08:42:21.67	97.20	15.50	-27.8	-29.4	14.7	0.00e+00	0	43	0	350224384	16	4318
2026-01-16 08:42:22.67	97.06	15.58	-27.8	-29.4	14.7	2.20e-06	0	42	0	353370112	16	4322
2026-01-16 08:42:23.67	96.91	15.66	-27.8	-29.4	14.8	7.00e-07	0	43	0	356515840	16	4297
2026-01-16 08:42:24.67	96.77	15.74	-27.8	-29.3	14.8	0.00e+00	0	43	0	359661568	16	4282
2026-01-16 08:42:25.67	96.62	15.82	-27.7	-29.2	14.9	0.00e+00	0	43	0	362807296	16	4242
2026-01-16 08:42:26.67	96.47	15.91	-27.7	-29.1	14.9	0.00e+00	0	43	0	365953024	16	4238
2026-01-16 08:42:27.67	96.33	15.99	-27.9	-29.4	14.8	7.00e-07	0	42	0	369098752	16	4318
2026-01-16 08:42:28.67	96.18	16.07	-27.9	-29.6	14.7	0.00e+00	0	42	0	372244480	16	4375
2026-01-16 08:42:29.67	96.03	16.15	-28.1	-30.0	14.5	7.00e-07	0	43	0	375390208	16	4491
2026-01-16 08:42:30.67	95.88	16.24	-28.1	-30.0	14.5	7.00e-07	0	43	0	378535936	16	4483
2026-01-16 08:42:31.67	95.73	16.32	-27.9	-29.6	14.6	0.00e+00	0	43	0	381681664	16	4367
2026-01-16 08:42:32.67	95.58	16.40	-27.8	-29.3	14.8	7.00e-07	0	43	0	384827392	16	4288
2026-01-16 08:42:33.67	95.42	16.48	-28.0	-29.7	14.7	0.00e+00	0	43	0	387973120	16	4386
2026-01-16 08:42:34.67	95.27	16.57	-27.9	-29.5	14.8	1.11e-04	0	43	0	391118848	16	4330
2026-01-16 08:42:35.67	95.12	16.65	-28.0	-29.8	14.6	7.00e-07	0	43	0	394264576	16	4412
2026-01-16 08:42:36.67	94.96	16.73	-27.9	-29.4	14.8	0.00e+00	0	43	0	397410304	16	4319
2026-01-16 08:42:37.67	94.81	16.82	-27.9	-29.5	14.8	0.00e+00	0	43	0	400556032	16	4327
2026-01-16 08:42:38.68	94.65	16.90	-27.8	-29.4	14.8	0.00e+00	0	43	0	403701760	16	4311
2026-01-16 08:42:39.67	94.49	16.98	-27.9	-29.5	14.8	0.00e+00	0	43	0	406847488	16	4327
2026-01-16 08:42:40.68	94.33	17.07	-27.9	-29.5	14.8	7.00e-07	0	43	0	409993216	16	4330
2026-01-16 08:42:41.67	94.17	17.15	-27.9	-29.5	14.8	0.00e+00	0	43	0	412090368	16	4344
2026-01-16 08:42:42.68	94.01	17.23	-27.9	-29.6	14.7	7.00e-07	0	43	0	415236096	16	4365
2026-01-16 08:42:43.68	93.85	17.32	-27.9	-29.5	14.7	7.00e-07	0	43	0	418381824	16	4355
2026-01-16 08:42:44.68	93.69	17.40	-28.0	-29.8	14.6	7.00e-07	0	43	0	421527552	16	4429
2026-01-16 08:42:45.68	93.53	17.48	-28.0	-29.8	14.6	0.00e+00	0	43	0	424673280	16	4432
2026-01-16 08:42:46.68	93.36	17.57	-27.8	-29.2	15.0	0.00e+00	0	43	0	427819008	16	4262
2026-01-16 08:42:47.68	93.20	17.65	-27.7	-29.1	15.1	0.00e+00	0	43	0	430964736	16	4214
2026-01-16 08:42:48.67	93.03	17.73	-27.7	-29.2	15.0	0.00e+00	0	43	0	434110464	16	4237
2026-01-16 08:42:49.68	92.87	17.82	-27.8	-29.2	15.0	0.00e+00	0	43	0	437256192	16	4259
2026-01-16 08:42:50.68	92.70	17.90	-27.8	-29.2	15.0	0.00e+00	0	43	0	440401920	16	4261
2026-01-16 08:42:51.68	92.53	17.98	-27.8	-29.2	15.0	0.00e+00	0	43	0	443547648	16	4261
2026-01-16 08:42:52.69	92.36	18.07	-27.7	-29.0	15.1	0.00e+00	0	43	0	446693376	16	4189
2026-01-16 08:42:53.69	92.19	18.15	-27.8	-29.3	14.9	0.00e+00	0	43	0	449839104	16	4280
2026-01-16 08:42:54.68	92.02	18.24	-27.7	-29.1	15.0	0.00e+00	0	43	0	452984832	16	4233
2026-01-16 08:42:55.67	91.85	18.32	-27.6	-28.9	15.2	0.00e+00	0	43	0	456130560	16	4179
2026-01-16 08:42:56.66	91.68	18.40	-27.7	-29.0	15.1	7.00e-07	0	43	0	459276288	16	4207
2026-01-16 08:42:57.65	91.50	18.48	-27.7	-29.2	15.0	7.00e-07	0	43	0	462422016	16	4249
2026-01-16 08:42:58.65	91.33	18.57	-27.7	-29.0	15.1	7.00e-07	0	43	0	465567744	16	4208
2026-01-16 08:42:59.65	91.15	18.65	-27.9	-29.4	14.9	0.00e+00	0	43	0	468713472	16	4316
2026-01-16 08:43:00.65	90.97	18.73	-27.8	-29.3	15.0	7.00e-07	0	43	0	471859200	16	4271
2026-01-16 08:43:01.65	90.80	18.82	-27.7	-29.0	15.1	3.80e-06	0	43	0	475004928	16	4194
2026-01-16 08:43:02.65	90.62	18.90	-27.6	-28.8	15.2	0.00e+00	0	43	0	478150656	16	4150
2026-01-16 08:43:03.65	90.44	18.99	-27.5	-28.7	15.3	0.00e+00	0	43	0	481296384	16	4117
2026-01-16 08:43:04.66	90.25	19.07	-27.5	-28.5	15.4	1.74e-04	0	43	0	484442112	16	4073
2026-01-16 08:43:05.65	90.07	19.15	-27.5	-28.6	15.4	1.28e-04	0	43	0	487587840	16	4097
2026-01-16 08:43:06.65	89.89	19.24	-27.5	-28.6	15.4	0.00e+00	0	43	0	490733568	16	4101
2026-01-16 08:43:07.64	89.71	19.32	-27.6	-28.8	15.3	0.00e+00	0	43	0	493879296	16	4145
2026-01-16 08:43:08.64	89.52	19.40	-27.5	-28.7	15.4	1.63e-04	0	43	0	497025024	16	4109
2026-01-16 08:43:09.64	89.34	19.49	-27.3	-28.2	15.6	0.00e+00	0	43	0	500170752	16	3986
2026-01-16 08:43:10.64	89.15	19.57	-27.4	-28.3	15.6	1.93e-04	0	43	0	503316480	16	3998
2026-01-16 08:43:11.64	88.96	19.65	-27.7	-29.0	15.2	2.28e-04	0	43	0	506462208	16	4185
2026-01-16 08:43:12.64	88.77	19.74	-27.6	-28.9	15.2	7.00e-07	0	43	0	509607936	16	4163
2026-01-16 08:43:13.63	88.58	19.82	-27.4	-28.9	15.3	2.68e-04	0	43	0	512753664	15	4285
2026-01-16 08:43:14.62	88.39	19.90	-27.3	-28.6	15.5	2.14e-04	0	43	0	515899392	15	4199
2026-01-16 08:43:15.62	88.20	19.99	-27.2	-28.5	15.6	0.00e+00	0	43	0	519045120	15	4170
2026-01-16 08:43:16.63	88.01	20.07	-27.1	-28.1	15.8	1.07e-04	0	43	0	522190848	15	4066
2026-01-16 08:43:17.63	87.81	20.15	-27.0	-28.0	15.9	8.77e-05	0	43	0	525336576	15	4027
2026-01-16 08:43:18.64	87.61	20.24	-27.1	-28.1	15.8	0.00e+00	0	43	0	528482304	15	4069
2026-01-16 08:43:19.64	87.42	20.32	-27.2	-28.4	15.6	6.17e-05	0	43	0	531628032	15	4138
2026-01-16 08:43:20.65	87.22	20.40	-27.0	-28.1	15.9	1.60e-05	0	43	0	534773760	15	4052
2026-01-16 08:43:21.65	87.02	20.49	-26.9	-27.8	16.0	0.00e+00	0	43	0	537919488	15	3982
2026-01-16 08:43:22.65	86.82	20.57	-26.9	-27.8	16.0	0.00e+00	0	43	0	541065216	15	3988
2026-01-16 08:43:23.65	86.62	20.65	-27.0	-27.9	16.0	0.00e+00	0	43	0	544210944	15	4012
2026-01-16 08:43:24.64	86.42	20.73	-26.9	-27.9	16.0	0.00e+00	0	43	0	546308096	15	4005
2026-01-16 08:43:25.65	86.21	20.82	-26.9	-27.9	16.0	0.00e+00	0	43	0	550502400	15	3999
2026-01-16 08:43:26.65	86.01	20.90	-26.9	-27.8	16.0	0.00e+00	0	43	0	552599552	15	3989
2026-01-16 08:43:27.65	85.80	20.98	-27.0	-28.0	15.9	0.00e+00	0	43	0	555745280	15	4025
2026-01-16 08:43:28.64	85.60	21.06	-27.0	-28.1	15.9	0.00e+00	0	43	0	558891008	15	4051
2026-01-16 08:43:29.64	85.39	21.14	-26.8	-27.6	16.2	0.00e+00	0	43	0	562036736	15	3922
2026-01-16 08:43:30.65	85.18	21.23	-26.9	-27.8	16.0	0.00e+00	0	43	0	566231040	15	3993
2026-01-16 08:43:31.65	84.97	21.31	-27.0	-28.0	15.9	0.00e+00	0	43	0	569376768	15	4040
2026-01-16 08:43:32.65	84.76	21.39	-27.0	-28.0	15.9	0.00e+00	0	43	0	571473920	15	4038
2026-01-16 08:43:33.65	84.55	21.47	-27.0	-27.9	16.0	0.00e+00	0	43	0	574619648	15	4011
2026-01-16 08:43:34.66	84.33	21.55	-26.9	-27.8	16.1	2.04e-04	0	43	0	577765376	15	3984
2026-01-16 08:43:35.66	84.12	21.63	-26.9	-27.8	16.0	1.69e-04	0	43	0	580911104	15	3982
2026-01-16 08:43:36.67	83.90	21.72	-26.8	-27.5	16.2	0.00e+00	0	43	0	584056832	15	3916
2026-01-16 08:43:37.66	83.68	21.80	-26.7	-27.9	16.3	0.00e+00	0	43	0	587202560	14	4117
2026-01-16 08:43:38.67	83.47	21.88	-26.7	-27.9	16.3	0.00e+00	0	43	0	590348288	14	4111
2026-01-16 08:43:39.67	83.25	21.96	-26.8	-28.0	16.2	0.00e+00	0	43	0	593494016	14	4136
2026-01-16 08:43:40.67	83.03	22.04	-26.8	-27.9	16.3	2.20e-06	0	43	0	596639744	14	4122
2026-01-16 08:43:41.67	82.80	22.12	-26.7	-27.8	16.3	0.00e+00	0	43	0	599785472	14	4089
2026-01-16 08:43:42.68	82.58	22.20	-26.8	-28.1	16.2	0.00e+00	0	43	0	602931200	14	4151
2026-01-16 08:43:43.68	82.36	22.28	-26.8	-27.9	16.3	0.00e+00	0	43	0	606076928	14	4108
2026-01-16 08:43:44.67	82.13	22.35	-26.8	-28.0	16.2	0.00e+00	0	43	0	609222656	14	4143
2026-01-16 08:43:45.68	81.91	22.43	-26.9	-28.3	16.1	0.00e+00	0	43	0	612368384	14	4202
2026-01-16 08:43:46.68	81.68	22.51	-26.9	-28.2	16.2	0.00e+00	0	43	0	615514112	14	4198
2026-01-16 08:43:47.68	81.45	22.59	-27.0	-28.3	16.1	0.00e+00	0	43	0	618659840	14	4225
2026-01-16 08:43:48.68	81.22	22.67	-26.9	-28.3	16.1	0.00e+00	0	43	0	621805568	14	4211
2026-01-16 08:43:49.69	80.99	22.75	-27.0	-28.4	16.1	0.00e+00	0	43	0	624951296	14	4244
2026-01-16 08:43:50.68	80.76	22.83	-27.0	-28.4	16.1	0.00e+00	0	43	0	628097024	14	4241
2026-01-16 08:43:51.68	80.53	22.90	-27.0	-28.4	16.1	0.00e+00	0	43	0	631242752	14	4230
2026-01-16 08:43:52.68	80.29	22.98	-27.0	-28.5	16.0	0.00e+00	0	43	0	634388480	14	4278
2026-01-16 08:43:53.69	80.06	23.06	-26.9	-28.3	16.1	0.00e+00	0	43	0	637534208	14	4204
2026-01-16 08:43:54.70	79.82	23.14	-26.9	-28.3	16.2	0.00e+00	0	43	0	640679936	14	4202
2026-01-16 08:43:55.70	79.58	23.21	-26.9	-28.3	16.1	0.00e+00	0	43	0	643825664	14	4205
2026-01-16 08:43:56.70	79.34	23.29	-27.0	-28.5	16.0	2.20e-06	0	43	0	646971392	14	4265
2026-01-16 08:43:57.70	79.10	23.36	-27.0	-28.4	16.1	0.00e+00	0	43	0	650117120	14	4249
2026-01-16 08:43:58.71	78.86	23.44	-27.1	-28.8	15.9	0.00e+00	0	43	0	653262848	14	4345
2026-01-16 08:43:59.71	78.62	23.51	-27.2	-28.9	15.8	0.00e+00	0	43	0	656408576	14	4389
2026-01-16 08:44:00.71	78.37	23.59	-27.2	-29.0	15.8	0.00e+00	0	43	0	659554304	14	4401
2026-01-16 08:44:01.72	78.13	23.66	-27.4	-29.4	15.5	0.00e+00	0	43	0	662700032	14	4527
2026-01-16 08:44:02.72	77.88	23.74	-27.5	-29.0	15.5	0.00e+00	0	43	0	665845760	15	4309
2026-01-16 08:44:03.72	77.63	23.81	-27.2	-28.4	15.8	0.00e+00	0	43	0	668991488	15	4131
2026-01-16 08:44:04.71	77.39	23.88	-27.2	-28.5	15.8	0.00e+00	0	43	0	672137216	15	4146
2026-01-16 08:44:05.71	77.14	23.96	-27.1	-28.2	15.9	3.00e-06	0	43	0	675282944	15	4077
2026-01-16 08:44:06.72	76.89	24.03	-27.2	-28.5	15.8	0.00e+00	0	43	0	678428672	15	4153
2026-01-16 08:44:07.72	76.64	24.10	-27.3	-28.6	15.7	0.00e+00	0	43	0	681574400	15	4198
2026-01-16 08:44:08.72	76.38	24.17	-27.3	-28.6	15.7	0.00e+00	0	43	0	684720128	15	4193
2026-01-16 08:44:09.73	76.13	24.24	-27.3	-28.6	15.7	0.00e+00	0	43	0	687865856	15	4183
2026-01-16 08:44:10.73	75.87	24.32	-27.4	-28.8	15.6	0.00e+00	0	43	0	691011584	15	4236
2026-01-16 08:44:11.73	75.62	24.39	-27.4	-28.9	15.6	5.30e-06	0	43	0	694157312	15	4264
2026-01-16 08:44:12.73	75.36	24.46	-27.5	-29.0	15.5	0.00e+00	0	43	0	697303040	15	4277
2026-01-16 08:44:13.73	75.10	24.53	-27.6	-29.2	15.4	0.00e+00	0	43	0	700448768	15	4356
2026-01-16 08:44:14.73	74.84	24.59	-27.5	-29.1	15.5	3.00e-06	0	43	0	703594496	15	4310
2026-01-16 08:44:15.73	74.58	24.66	-27.3	-28.7	15.7	0.00e+00	0	43	0	706740224	15	4202
2026-01-16 08:44:16.73	74.32	24.73	-27.3	-28.6	15.7	0.00e+00	0	43	0	709885952	15	4186
2026-01-16 08:44:17.74	74.05	24.80	-27.2	-28.5	15.8	4.50e-06	0	43	0	713031680	15	4153
2026-01-16 08:44:18.74	73.79	24.87	-27.2	-28.5	15.8	0.00e+00	0	43	0	716177408	15	4150
2026-01-16 08:44:19.74	73.52	24.93	-27.2	-28.4	15.9	0.00e+00	0	43	0	719323136	15	4123
2026-01-16 08:44:20.75	73.26	25.00	-27.2	-28.4	15.8	1.50e-06	0	43	0	722468864	15	4135
2026-01-16 08:44:21.75	72.99	25.07	-27.3	-28.6	15.8	0.00e+00	0	43	0	725614592	15	4172
2026-01-16 08:44:22.76	72.72	25.13	-27.2	-28.4	15.9	0.00e+00	0	43	0	728760320	15	4134
2026-01-16 08:44:23.77	72.44	25.20	-27.3	-29.1	15.7	0.00e+00	0	43	0	731906048	14	4424
2026-01-16 08:44:24.77	72.17	25.26	-27.2	-28.9	15.9	0.00e+00	0	43	0	735051776	14	4368
2026-01-16 08:44:25.77	71.90	25.32	-27.1	-28.7	16.0	0.00e+00	0	43	0	738197504	14	4324
2026-01-16 08:44:26.77	71.63	25.39	-27.2	-28.9	15.9	5.30e-06	0	43	0	741343232	14	4382
2026-01-16 08:44:27.77	71.36	25.45	-27.4	-29.2	15.7	0.00e+00	0	43	0	744488960	14	4467
2026-01-16 08:44:28.77	71.08	25.51	-27.5	-29.5	15.6	0.00e+00	0	43	0	747634688	14	4540
2026-01-16 08:44:29.77	70.80	25.57	-27.6	-29.3	15.4	0.00e+00	0	43	0	750780416	15	4383
2026-01-16 08:44:30.77	70.53	25.63	-27.7	-29.5	15.3	0.00e+00	0	43	0	753926144	15	4430
2026-01-16 08:44:31.77	70.25	25.69	-27.6	-29.2	15.4	0.00e+00	0	43	0	757071872	15	4346
2026-01-16 08:44:32.78	69.97	25.75	-27.5	-29.0	15.6	0.00e+00	0	43	0	760217600	15	4287
2026-01-16 08:44:33.78	69.69	25.81	-27.4	-28.8	15.7	0.00e+00	0	43	0	763363328	15	4227
2026-01-16 08:44:34.78	69.40	25.87	-27.5	-29.2	15.5	0.00e+00	0	43	0	766509056	15	4340
2026-01-16 08:44:35.78	69.12	25.93	-27.4	-28.8	15.6	0.00e+00	0	43	0	769654784	15	4247
2026-01-16 08:44:36.78	68.84	25.98	-27.5	-29.0	15.5	0.00e+00	0	43	0	772800512	15	4300
2026-01-16 08:44:37.79	68.55	26.04	-27.4	-28.9	15.6	0.00e+00	0	43	0	775946240	15	4275
2026-01-16 08:44:38.79	68.27	26.09	-27.2	-28.4	15.8	0.00e+00	0	43	0	778043392	15	4140
2026-01-16 08:44:39.79	67.98	26.15	-27.2	-28.3	15.9	0.00e+00	0	43	0	781189120	15	4101
2026-01-16 08:44:40.78	67.70	26.20	-27.0	-28.0	16.1	0.00e+00	0	43	0	784334848	15	4011
2026-01-16 08:44:41.78	67.41	26.26	-27.0	-27.9	16.1	0.00e+00	0	43	0	787480576	15	4001
2026-01-16 08:44:42.79	67.11	26.31	-27.2	-28.5	15.8	0.00e+00	0	43	0	790626304	15	4144
2026-01-16 08:44:43.79	66.82	26.36	-27.1	-28.2	16.0	0.00e+00	0	43	0	793772032	15	4066
2026-01-16 08:44:44.79	66.53	26.41	-27.0	-27.9	16.2	0.00e+00	0	43	0	796917760	15	4009
2026-01-16 08:44:45.79	66.24	26.46	-27.2	-28.4	15.9	0.00e+00	0	43	0	800063488	15	4120
2026-01-16 08:44:46.80	65.94	26.51	-27.2	-28.4	15.8	0.00e+00	0	43	0	803209216	15	4147
2026-01-16 08:44:47.80	65.65	26.56	-27.2	-28.5	15.8	0.00e+00	0	43	0	806354944	15	4157
2026-01-16 08:44:48.80	65.36	26.61	-27.3	-28.7	15.7	0.00e+00	0	43	0	809500672	15	4208
2026-01-16 08:44:49.80	65.06	26.66	-27.2	-28.3	15.9	0.00e+00	0	43	0	812646400	15	4103
2026-01-16 08:44:50.80	64.76	26.71	-27.0	-28.0	16.1	0.00e+00	0	43	0	815792128	15	4027
2026-01-16 08:44:51.80	64.47	26.75	-27.0	-27.9	16.1	1.12e-04	0	43	0	818937856	15	4006
2026-01-16 08:44:52.80	64.17	26.80	-27.0	-28.3	16.2	2.75e-04	0	43	0	822083584	14	4223
2026-01-16 08:44:53.80	63.87	26.84	-26.9	-28.3	16.2	0.00e+00	0	43	0	825229312	14	4216
2026-01-16 08:44:54.81	63.56	26.89	-27.0	-28.5	16.1	0.00e+00	0	43	0	828375040	14	4259
2026-01-16 08:44:55.81	63.26	26.93	-27.0	-28.4	16.1	0.00e+00	0	43	0	831520768	14	4232
2026-01-16 08:44:56.81	62.96	26.97	-26.9	-28.2	16.3	0.00e+00	0	43	0	834666496	14	4172
2026-01-16 08:44:57.81	62.66	27.01	-26.9	-28.2	16.2	4.18e-04	0	43	0	837812224	14	4182
2026-01-16 08:44:58.80	62.36	27.05	-26.9	-28.3	16.2	6.17e-04	0	43	0	840957952	14	4203
2026-01-16 08:44:59.80	62.06	27.09	-27.0	-28.4	16.1	0.00e+00	0	43	0	844103680	14	4241
2026-01-16 08:45:00.80	61.75	27.13	-26.9	-28.3	16.2	0.00e+00	0	43	0	847249408	14	4208
2026-01-16 08:45:01.80	61.45	27.17	-26.9	-28.6	16.3	1.59e-03	0	43	0	850395136	13	4411
2026-01-16 08:45:02.79	61.14	27.20	-26.7	-28.4	16.4	0.00e+00	0	43	0	853540864	13	4338
2026-01-16 08:45:03.79	60.83	27.24	-26.8	-28.4	16.4	0.00e+00	0	43	0	856686592	13	4357
2026-01-16 08:45:04.80	60.52	27.28	-26.8	-28.5	16.4	0.00e+00	0	43	0	859832320	13	4361
2026-01-16 08:45:05.80	60.22	27.31	-26.8	-28.6	16.3	0.00e+00	0	43	0	862978048	13	4398
2026-01-16 08:45:06.80	59.91	27.34	-26.9	-28.8	16.2	6.13e-04	0	43	0	866123776	13	4452
2026-01-16 08:45:07.79	59.60	27.38	-27.0	-28.5	16.1	3.69e-04	0	43	0	869269504	14	4271
2026-01-16 08:45:08.80	59.29	27.41	-27.1	-28.6	16.0	0.00e+00	0	43	0	872415232	14	4301
2026-01-16 08:45:09.79	58.98	27.44	-26.9	-28.3	16.2	0.00e+00	0	43	0	875560960	14	4201
2026-01-16 08:45:10.80	58.66	27.47	-27.0	-28.4	16.1	7.85e-05	0	43	0	878706688	14	4237
2026-01-16 08:45:11.81	58.35	27.50	-27.0	-28.4	16.1	0.00e+00	0	43	0	881852416	14	4230
2026-01-16 08:45:12.81	58.04	27.53	-27.1	-28.8	16.0	0.00e+00	0	43	0	884998144	14	4337
2026-01-16 08:45:13.81	57.72	27.56	-27.0	-28.4	16.1	0.00e+00	0	43	0	888143872	14	4248
2026-01-16 08:45:14.81	57.41	27.58	-27.0	-28.5	16.1	0.00e+00	0	43	0	891289600	14	4273
2026-01-16 08:45:15.82	57.09	27.61	-27.0	-28.5	16.1	0.00e+00	0	43	0	894435328	14	4257
2026-01-16 08:45:16.82	56.78	27.63	-26.9	-28.3	16.2	0.00e+00	0	43	0	897581056	14	4207
2026-01-16 08:45:17.83	56.46	27.66	-26.9	-28.2	16.3	0.00e+00	0	43	0	900726784	14	4171
2026-01-16 08:45:18.83	56.14	27.68	-27.0	-28.5	16.1	0.00e+00	0	43	0	903872512	14	4262
2026-01-16 08:45:19.83	55.83	27.70	-27.1	-28.6	16.0	0.00e+00	0	43	0	907018240	14	4292
2026-01-16 08:45:20.83	55.51	27.72	-27.4	-29.3	15.7	0.00e+00	0	43	0	910163968	14	4480
2026-01-16 08:45:21.84	55.19	27.74	-27.2	-29.0	15.8	7.09e-05	0	43	0	913309696	14	4396
2026-01-16 08:45:22.84	54.88	27.76	-27.1	-28.7	16.0	7.93e-05	0	43	0	916455424	14	4326
2026-01-16 08:45:23.85	54.55	27.78	-27.2	-28.9	15.9	0.00e+00	0	43	0	919601152	14	4372
2026-01-16 08:45:24.85	54.24	27.79	-27.1	-28.7	16.0	0.00e+00	0	43	0	922746880	14	4309
2026-01-16 08:45:25.85	53.92	27.81	-27.0	-28.4	16.2	0.00e+00	0	43	0	925892608	14	4224
2026-01-16 08:45:26.86	53.60	27.82	-27.0	-28.4	16.2	0.00e+00	0	43	0	929038336	14	4228
2026-01-16 08:45:27.87	53.27	27.84	-27.0	-28.5	16.1	0.00e+00	0	43	0	932184064	14	4263
2026-01-16 08:45:28.86	52.96	27.85	-27.1	-28.6	16.0	0.00e+00	0	43	0	935329792	14	4282
2026-01-16 08:45:29.86	52.64	27.86	-27.0	-28.4	16.2	0.00e+00	0	43	0	938475520	14	4229
2026-01-16 08:45:30.86	52.32	27.87	-26.8	-28.0	16.4	0.00e+00	0	43	0	941621248	14	4141
2026-01-16 08:45:31.86	52.00	27.88	-26.8	-28.1	16.3	0.00e+00	0	43	0	944766976	14	4154
2026-01-16 08:45:32.86	51.68	27.89	-26.8	-28.0	16.4	0.00e+00	0	43	0	947912704	14	4126
2026-01-16 08:45:33.86	51.36	27.90	-26.8	-27.9	16.4	5.63e-04	0	43	0	951058432	14	4103
2026-01-16 08:45:34.85	51.04	27.91	-27.0	-28.9	16.2	0.00e+00	0	43	0	954204160	13	4478
2026-01-16 08:45:35.86	50.72	27.91	-26.9	-28.6	16.3	0.00e+00	0	43	0	957349888	13	4410
2026-01-16 08:45:36.86	50.40	27.92	-26.9	-28.8	16.2	0.00e+00	0	43	0	960495616	13	4452
2026-01-16 08:45:37.86	50.08	27.92	-26.9	-28.8	16.2	6.68e-04	0	43	0	963641344	13	4447
2026-01-16 08:45:38.86	49.76	27.93	-27.0	-28.8	16.2	0.00e+00	0	43	0	966787072	13	4469
2026-01-16 08:45:39.87	49.43	27.93	-27.3	-29.1	15.8	0.00e+00	0	43	0	969932800	14	4425
2026-01-16 08:45:40.87	49.11	27.93	-27.1	-28.6	16.1	0.00e+00	0	43	0	973078528	14	4283
2026-01-16 08:45:41.88	48.79	27.93	-27.0	-28.3	16.2	0.00e+00	0	43	0	976224256	14	4220
2026-01-16 08:45:42.88	48.47	27.93	-26.9	-28.2	16.3	0.00e+00	0	43	0	979369984	14	4177
2026-01-16 08:45:43.88	48.15	27.93	-27.0	-28.4	16.2	0.00e+00	0	43	0	981467136	14	4225
2026-01-16 08:45:44.88	47.83	27.92	-26.8	-28.0	16.4	0.00e+00	0	43	0	984612864	14	4116
2026-01-16 08:45:45.88	47.51	27.92	-26.7	-27.9	16.5	0.00e+00	0	43	0	987758592	14	4087
2026-01-16 08:45:46.88	47.19	27.91	-26.7	-27.8	16.5	0.00e+00	0	43	0	990904320	14	4065
2026-01-16 08:45:47.88	46.87	27.91	-26.7	-27.8	16.5	0.00e+00	0	43	0	994050048	14	4063
2026-01-16 08:45:48.87	46.55	27.90	-26.9	-28.3	16.3	0.00e+00	0	43	0	997195776	14	4196
2026-01-16 08:45:49.88	46.23	27.89	-26.9	-28.2	16.3	0.00e+00	0	43	0	1000341504	14	4175
2026-01-16 08:45:50.88	45.91	27.88	-27.0	-28.5	16.1	0.00e+00	0	43	0	1003487232	14	4265
2026-01-16 08:45:51.89	45.59	27.87	-27.2	-29.0	15.9	0.00e+00	0	43	0	1006632960	14	4390
2026-01-16 08:45:52.89	45.27	27.86	-27.1	-28.7	16.0	0.00e+00	0	43	0	1009778688	14	4323
2026-01-16 08:45:53.89	44.95	27.85	-27.1	-28.6	16.1	0.00e+00	0	43	0	1012924416	14	4286
2026-01-16 08:45:54.89	44.63	27.84	-27.2	-28.8	16.0	0.00e+00	0	43	0	1016070144	14	4340
2026-01-16 08:45:55.89	44.31	27.82	-27.1	-28.7	16.0	0.00e+00	0	43	0	1019215872	14	4315
2026-01-16 08:45:56.89	43.99	27.81	-27.2	-28.8	16.0	0.00e+00	0	43	0	1022361600	14	4337
2026-01-16 08:45:57.89	43.67	27.79	-27.4	-29.4	15.6	0.00e+00	0	43	0	1025507328	14	4519
2026-01-16 08:45:58.90	43.35	27.78	-27.3	-28.6	15.8	0.00e+00	0	43	0	1028653056	15	4173
2026-01-16 08:45:59.90	43.03	27.76	-27.1	-28.2	16.0	0.00e+00	0	43	0	1031798784	15	4065
2026-01-16 08:46:00.90	42.72	27.74	-27.1	-28.1	16.1	0.00e+00	0	43	0	1034944512	15	4050
2026-01-16 08:46:01.90	42.40	27.72	-27.2	-28.3	16.0	0.00e+00	0	43	0	1038090240	15	4094
2026-01-16 08:46:02.89	42.09	27.70	-27.1	-28.1	16.0	0.00e+00	0	43	0	1041235968	15	4051
2026-01-16 08:46:03.89	41.77	27.68	-27.0	-27.9	16.1	0.00e+00	0	43	0	1044381696	15	4000
2026-01-16 08:46:04.89	41.46	27.66	-27.0	-28.0	16.1	0.00e+00	0	43	0	1047527424	15	4021
2026-01-16 08:46:05.90	41.14	27.63	-27.1	-28.2	16.0	0.00e+00	0	43	0	1050673152	15	4077
2026-01-16 08:46:06.90	40.83	27.61	-27.2	-28.4	15.9	0.00e+00	0	43	0	1053818880	15	4133
2026-01-16 08:46:07.91	40.51	27.58	-27.3	-28.6	15.8	0.00e+00	0	43	0	1056964608	15	4191
2026-01-16 08:46:08.90	40.20	27.56	-27.3	-28.5	15.8	0.00e+00	0	43	0	1060110336	15	4159
2026-01-16 08:46:09.91	39.88	27.53	-27.3	-28.6	15.8	0.00e+00	0	43	0	1063256064	15	4178
2026-01-16 08:46:10.90	39.57	27.50	-27.1	-28.2	16.0	0.00e+00	0	43	0	1066401792	15	4085
2026-01-16 08:46:11.90	39.26	27.47	-27.2	-28.4	15.9	0.00e+00	0	43	0	1069547520	15	4122
2026-01-16 08:46:12.89	38.95	27.44	-27.2	-28.5	15.8	0.00e+00	0	43	0	1072693248	15	4152
2026-01-16 08:46:13.89	38.64	27.41	-27.3	-28.5	15.8	0.00e+00	0	43	0	1075838976	15	4155
2026-01-16 08:46:14.90	38.33	27.38	-27.4	-28.9	15.6	0.00e+00	0	43	0	1078984704	15	4270
2026-01-16 08:46:15.89	38.02	27.35	-27.3	-28.6	15.8	0.00e+00	0	43	0	1082130432	15	4182
2026-01-16 08:46:16.90	37.71	27.31	-27.1	-28.2	16.0	0.00e+00	0	43	0	1085276160	15	4070
2026-01-16 08:46:17.90	37.40	27.28	-27.1	-28.2	16.0	0.00e+00	0	43	0	1088421888	15	4067
2026-01-16 08:46:18.90	37.10	27.24	-27.1	-28.1	16.0	0.00e+00	0	43	0	1091567616	15	4048
2026-01-16 08:46:19.90	36.79	27.21	-27.2	-28.5	15.9	0.00e+00	0	43	0	1094713344	15	4144
2026-01-16 08:46:20.91	36.48	27.17	-27.0	-28.0	16.1	0.00e+00	0	43	0	1097859072	15	4019
2026-01-16 08:46:21.91	36.18	27.13	-26.8	-27.6	16.3	0.00e+00	0	43	0	1101004800	15	3913
2026-01-16 08:46:22.91	35.87	27.09	-26.9	-27.8	16.2	0.00e+00	0	43	0	1104150528	15	3983
2026-01-16 08:46:23.91	35.57	27.05	-27.1	-28.1	16.0	0.00e+00	0	43	0	1107296256	15	4063
2026-01-16 08:46:24.92	35.26	27.01	-27.0	-28.0	16.0	0.00e+00	0	43	0	1110441984	15	4035
2026-01-16 08:46:25.91	34.96	26.97	-27.1	-28.2	15.9	0.00e+00	0	43	0	1113587712	15	4108
2026-01-16 08:46:26.92	34.66	26.93	-27.0	-28.2	15.9	0.00e+00	0	43	0	1116733440	15	4125
2026-01-16 08:46:27.92	34.36	26.89	-26.7	-28.4	15.8	0.00e+00	0	43	0	1119879168	14	4364
2026-01-16 08:46:28.92	34.06	26.84	-26.6	-28.2	15.7	0.00e+00	0	43	0	1123024896	14	4349
2026-01-16 08:46:29.93	33.76	26.80	-27.0	-28.7	15.8	0.00e+00	0	43	0	1126170624	14	4384
2026-01-16 08:46:30.93	33.46	26.75	-27.2	-28.9	15.8	0.00e+00	0	43	0	1129316352	14	4376
2026-01-16 08:46:31.93	33.16	26.71	-27.3	-29.1	15.8	0.00e+00	0	43	0	1132462080	14	4417
2026-01-16 08:46:32.94	32.86	26.66	-27.3	-29.0	15.8	0.00e+00	0	43	0	1135607808	14	4398
2026-01-16 08:46:33.94	32.57	26.61	-27.3	-29.2	15.7	0.00e+00	0	43	0	1138753536	14	4446
2026-01-16 08:46:34.94	32.28	26.56	-27.3	-29.0	15.8	0.00e+00	0	43	0	1141899264	14	4405
2026-01-16 08:46:35.95	31.98	26.52	-27.3	-29.2	15.7	0.00e+00	0	43	0	1145044992	14	4456
2026-01-16 08:46:36.95	31.69	26.47	-27.4	-29.4	15.6	0.00e+00	0	43	0	1148190720	14	4510
2026-01-16 08:46:37.95	31.40	26.42	-27.5	-29.5	15.5	0.00e+00	0	43	0	1151336448	14	4557
2026-01-16 08:46:38.95	31.10	26.36	-27.3	-29.2	15.6	7.70e-05	0	43	0	1154482176	14	4474
2026-01-16 08:46:39.96	30.81	26.31	-27.3	-29.1	15.7	0.00e+00	0	43	0	1157627904	14	4443
2026-01-16 08:46:40.96	30.52	26.26	-27.3	-29.1	15.7	0.00e+00	0	43	0	1160773632	14	4441
2026-01-16 08:46:41.96	30.24	26.21	-27.2	-28.9	15.9	0.00e+00	0	43	0	1163919360	14	4369
2026-01-16 08:46:42.97	29.95	26.15	-27.1	-28.7	16.0	0.00e+00	0	43	0	1167065088	14	4305
2026-01-16 08:46:43.98	29.66	26.10	-27.1	-28.8	15.9	0.00e+00	0	43	0	1170210816	14	4339
2026-01-16 08:46:44.98	29.37	26.04	-27.0	-28.5	16.0	0.00e+00	0	43	0	1173356544	14	4277
2026-01-16 08:46:45.97	29.09	25.99	-27.1	-28.7	16.0	0.00e+00	0	43	0	1176502272	14	4305
2026-01-16 08:46:46.98	28.81	25.93	-27.3	-29.0	15.8	0.00e+00	0	43	0	1179648000	14	4412
2026-01-16 08:46:47.98	28.52	25.87	-27.1	-28.7	15.9	0.00e+00	0	43	0	1182793728	14	4329
2026-01-16 08:46:48.98	28.24	25.81	-27.0	-28.4	16.1	3.50e-05	0	43	0	1185939456	14	4245
2026-01-16 08:46:49.99	27.96	25.75	-26.9	-28.2	16.2	0.00e+00	0	43	0	1188036608	14	4171
2026-01-16 08:46:50.99	27.68	25.69	-26.8	-28.1	16.3	0.00e+00	0	43	0	1191182336	14	4147
2026-01-16 08:46:52.00	27.40	25.63	-26.9	-28.2	16.2	0.00e+00	0	43	0	1195376640	14	4190
2026-01-16 08:46:53.00	27.13	25.57	-26.8	-27.9	16.4	0.00e+00	0	43	0	1198522368	14	4091
2026-01-16 08:46:54.01	26.85	25.51	-26.8	-28.0	16.3	4.15e-04	0	43	0	1201668096	14	4123
2026-01-16 08:46:55.01	26.57	25.45	-27.0	-28.5	16.1	5.23e-04	0	43	0	1204813824	14	4255
2026-01-16 08:46:56.01	26.30	25.39	-27.1	-28.7	15.9	0.00e+00	0	43	0	1207959552	14	4320
2026-01-16 08:46:57.01	26.03	25.33	-27.3	-29.2	15.7	0.00e+00	0	43	0	1210056704	14	4457
2026-01-16 08:46:58.01	25.76	25.26	-27.3	-29.1	15.7	3.00e-04	0	43	0	1213202432	14	4423
2026-01-16 08:46:59.01	25.49	25.20	-27.0	-28.5	16.0	0.00e+00	0	43	0	1216348160	14	4275
2026-01-16 08:47:00.01	25.22	25.13	-26.7	-28.4	16.3	3.95e-04	0	43	0	1219493888	13	4339
2026-01-16 08:47:01.00	24.95	25.07	-26.6	-28.0	16.5	4.28e-04	0	43	0	1222639616	13	4249
2026-01-16 08:47:02.00	24.69	25.01	-26.6	-28.1	16.5	0.00e+00	0	43	0	1225785344	13	4267
2026-01-16 08:47:03.01	24.42	24.94	-26.6	-28.0	16.6	9.73e-04	0	43	0	1228931072	13	4229
2026-01-16 08:47:04.01	24.16	24.87	-26.9	-28.8	16.1	2.07e-03	0	43	0	1232076800	13	4455
2026-01-16 08:47:05.02	23.89	24.80	-26.8	-28.5	16.3	0.00e+00	0	43	0	1235222528	13	4367
2026-01-16 08:47:06.02	23.63	24.74	-27.1	-28.7	15.9	2.97e-03	0	43	0	1238368256	14	4321
2026-01-16 08:47:07.02	23.37	24.67	-26.9	-28.6	16.2	3.05e-03	0	43	0	1241513984	13	4414
2026-01-16 08:47:08.03	23.10	24.60	-27.2	-28.8	15.8	0.00e+00	0	43	0	1244659712	14	4360
2026-01-16 08:47:09.03	22.85	24.53	-27.4	-29.4	15.5	2.98e-03	0	43	0	1247805440	14	4519
2026-01-16 08:47:10.04	22.59	24.46	-27.4	-29.3	15.6	2.75e-03	0	43	0	1250951168	14	4497
2026-01-16 08:47:11.04	22.33	24.39	-27.2	-28.9	15.8	0.00e+00	0	43	0	1254096896	14	4384
2026-01-16 08:47:12.04	22.08	24.32	-27.3	-29.1	15.7	0.00e+00	0	43	0	1257242624	14	4419
2026-01-16 08:47:13.04	21.82	24.25	-27.5	-29.5	15.5	2.93e-03	0	43	0	1260388352	14	4558
2026-01-16 08:47:14.04	21.57	24.18	-27.7	-29.6	15.2	0.00e+00	0	43	0	1263534080	15	4451
2026-01-16 08:47:15.04	21.32	24.11	-27.8	-29.9	15.0	3.42e-03	0	43	0	1266679808	15	4545
2026-01-16 08:47:16.05	21.06	24.04	-27.6	-29.4	15.3	3.85e-03	0	43	0	1269825536	15	4399
2026-01-16 08:47:17.05	20.81	23.96	-27.3	-28.7	15.6	0.00e+00	0	43	0	1272971264	15	4222
2026-01-16 08:47:18.06	20.56	23.89	-27.0	-28.4	16.0	0.00e+00	0	43	0	1276116992	14	4243
2026-01-16 08:47:19.06	20.32	23.82	-26.7	-28.3	16.4	0.00e+00	0	43	0	1279262720	13	4311
2026-01-16 08:47:20.06	20.07	23.75	-26.6	-28.0	16.5	0.00e+00	0	43	0	1282408448	13	4248
2026-01-16 08:47:21.06	19.83	23.67	-26.7	-28.2	16.4	3.69e-03	0	43	0	1285554176	13	4300
2026-01-16 08:47:22.06	19.58	23.60	-26.5	-27.9	16.6	0.00e+00	0	43	0	1288699904	13	4214
2026-01-16 08:47:23.07	19.34	23.52	-26.8	-28.5	16.3	0.00e+00	0	43	0	1291845632	13	4369
2026-01-16 08:47:24.06	19.10	23.45	-26.9	-28.7	16.2	0.00e+00	0	43	0	1294991360	13	4427
2026-01-16 08:47:25.06	18.86	23.37	-27.1	-28.8	15.9	3.91e-03	0	43	0	1298137088	14	4339
2026-01-16 08:47:26.07	18.62	23.30	-27.1	-28.8	15.9	0.00e+00	0	43	0	1301282816	14	4343
2026-01-16 08:47:27.08	18.38	23.22	-27.3	-29.2	15.6	0.00e+00	0	43	0	1304428544	14	4457
2026-01-16 08:47:28.07	18.14	23.15	-27.3	-29.1	15.7	0.00e+00	0	43	0	1307574272	14	4433
2026-01-16 08:47:29.07	17.91	23.07	-27.3	-29.2	15.6	0.00e+00	0	43	0	1310720000	14	4454
2026-01-16 08:47:30.08	17.67	22.99	-27.1	-28.7	15.9	3.63e-03	0	43	0	1313865728	14	4313
2026-01-16 08:47:31.07	17.44	22.92	-27.0	-28.5	16.0	0.00e+00	0	43	0	1317011456	14	4274
2026-01-16 08:47:32.07	17.21	22.84	-27.1	-28.7	15.9	0.00e+00	0	43	0	1320157184	14	4327
2026-01-16 08:47:33.08	16.98	22.76	-27.1	-28.7	15.9	0.00e+00	0	43	0	1323302912	14	4314
2026-01-16 08:47:34.08	16.75	22.68	-27.3	-29.2	15.6	0.00e+00	0	43	0	1326448640	14	4468
2026-01-16 08:47:35.08	16.52	22.61	-27.4	-29.3	15.6	0.00e+00	0	43	0	1329594368	14	4495
2026-01-16 08:47:36.08	16.29	22.53	-27.3	-29.2	15.6	0.00e+00	0	43	0	1332740096	14	4470
2026-01-16 08:47:37.08	16.07	22.45	-27.3	-29.2	15.6	0.00e+00	0	43	0	1335885824	14	4453
2026-01-16 08:47:38.07	15.84	22.37	-27.3	-29.2	15.6	0.00e+00	0	43	0	1339031552	14	4461
2026-01-16 08:47:39.08	15.62	22.29	-27.4	-29.3	15.5	7.00e-07	0	43	0	1342177280	14	4485
2026-01-16 08:47:40.08	15.40	22.21	-27.6	-29.2	15.3	0.00e+00	0	43	0	1345323008	15	4352
2026-01-16 08:47:41.09	15.17	22.13	-27.7	-29.5	15.1	7.00e-07	0	43	0	1348468736	15	4445
2026-01-16 08:47:42.09	14.95	22.05	-27.2	-28.5	15.7	2.20e-06	0	43	0	1351614464	15	4155
2026-01-16 08:47:43.09	14.73	21.97	-27.2	-29.0	15.7	0.00e+00	0	43	0	1354760192	14	4401
2026-01-16 08:47:44.08	14.52	21.89	-27.4	-29.3	15.5	7.00e-07	0	43	0	1357905920	14	4493
2026-01-16 08:47:45.08	14.30	21.81	-27.4	-29.4	15.5	7.00e-07	0	43	0	1361051648	14	4529
2026-01-16 08:47:46.08	14.08	21.73	-27.5	-29.1	15.3	0.00e+00	0	43	0	1364197376	15	4329
2026-01-16 08:47:47.08	13.87	21.65	-27.7	-29.6	15.1	2.20e-06	0	43	0	1367343104	15	4479
2026-01-16 08:47:48.07	13.66	21.57	-27.7	-29.5	15.1	0.00e+00	0	43	0	1370488832	15	4441
2026-01-16 08:47:49.07	13.45	21.49	-28.0	-30.2	14.7	0.00e+00	0	43	0	1373634560	15	4644
2026-01-16 08:47:50.07	13.23	21.41	-27.6	-29.2	15.3	0.00e+00	0	43	0	1376780288	15	4355
2026-01-16 08:47:51.07	13.02	21.33	-27.3	-29.1	15.6	0.00e+00	0	43	0	1379926016	14	4436
2026-01-16 08:47:52.08	12.81	21.25	-27.2	-28.8	15.8	7.00e-07	0	43	0	1383071744	14	4352
2026-01-16 08:47:53.08	12.61	21.17	-27.0	-28.5	15.9	0.00e+00	0	43	0	1386217472	14	4271
2026-01-16 08:47:54.09	12.40	21.08	-27.2	-28.8	15.8	0.00e+00	0	43	0	1389363200	14	4362
2026-01-16 08:47:55.09	12.19	21.00	-27.3	-29.1	15.6	0.00e+00	0	43	0	1391460352	14	4447
2026-01-16 08:47:56.09	11.99	20.92	-27.5	-29.6	15.3	3.80e-06	0	43	0	1394606080	14	4577
2026-01-16 08:47:57.10	11.78	20.84	-27.4	-29.5	15.4	0.00e+00	0	43	0	1398800384	14	4544
2026-01-16 08:47:58.11	11.58	20.75	-27.6	-29.4	15.2	0.00e+00	0	43	0	1401946112	15	4401
2026-01-16 08:47:59.11	11.38	20.67	-27.7	-29.7	15.0	0.00e+00	0	43	0	1405091840	15	4493
2026-01-16 08:48:00.11	11.18	20.59	-27.5	-29.1	15.3	0.00e+00	0	43	0	1408237568	15	4337
2026-01-16 08:48:01.12	10.97	20.51	-27.4	-29.3	15.4	7.00e-07	0	43	0	1411383296	14	4507
2026-01-16 08:48:02.11	10.78	20.43	-27.5	-29.1	15.3	0.00e+00	0	43	0	1414529024	15	4322
2026-01-16 08:48:03.12	10.58	20.34	-27.3	-29.0	15.6	0.00e+00	0	43	0	1416626176	14	4424
2026-01-16 08:48:04.11	10.39	20.26	-27.2	-28.9	15.7	0.00e+00	0	43	0	1419771904	14	4375
2026-01-16 08:48:05.12	10.19	20.18	-27.2	-28.9	15.6	0.00e+00	0	43	0	1422917632	14	4389
2026-01-16 08:48:06.12	10.00	20.09	-27.5	-29.5	15.3	0.00e+00	0	43	0	1426063360	14	4569
2026-01-16 08:48:07.12	9.80	20.01	-27.2	-28.4	15.7	0.00e+00	0	43	0	1429209088	15	4133
2026-01-16 08:48:08.11	9.61	19.93	-27.2	-28.4	15.6	1.50e-06	0	43	0	1432354816	15	4140
2026-01-16 08:48:09.12	9.42	19.85	-27.3	-29.2	15.5	0.00e+00	0	43	0	1435500544	14	4460
2026-01-16 08:48:10.11	9.23	19.76	-27.1	-28.7	15.8	0.00e+00	0	43	0	1438646272	14	4325
2026-01-16 08:48:11.12	9.04	19.68	-27.1	-28.7	15.8	7.00e-07	0	43	0	1441792000	14	4322
2026-01-16 08:48:12.12	8.86	19.60	-27.0	-28.4	15.9	0.00e+00	0	43	0	1444937728	14	4240
2026-01-16 08:48:13.12	8.67	19.51	-27.0	-28.5	15.9	0.00e+00	0	43	0	1448083456	14	4265
2026-01-16 08:48:14.12	8.48	19.43	-26.9	-28.3	16.0	0.00e+00	0	43	0	1451229184	14	4207
2026-01-16 08:48:15.12	8.30	19.35	-26.9	-28.7	16.0	0.00e+00	0	43	0	1454374912	13	4454
2026-01-16 08:48:16.11	8.12	19.26	-26.8	-28.5	16.1	0.00e+00	0	43	0	1457520640	13	4382
2026-01-16 08:48:17.11	7.94	19.18	-27.0	-29.0	15.8	0.00e+00	0	43	0	1460666368	13	4517
2026-01-16 08:48:18.11	7.76	19.10	-26.8	-28.6	16.0	0.00e+00	0	43	0	1463812096	13	4419
2026-01-16 08:48:19.11	7.58	19.01	-26.9	-28.8	15.9	0.00e+00	0	43	0	1466957824	13	4481
2026-01-16 08:48:20.11	7.40	18.93	-27.2	-29.0	15.6	0.00e+00	0	43	0	1470103552	14	4418
2026-01-16 08:48:21.12	7.22	18.85	-27.6	-29.4	15.0	7.00e-07	0	43	0	1473249280	15	4412
2026-01-16 08:48:22.13	7.04	18.76	-27.2	-28.5	15.6	0.00e+00	0	43	0	1476395008	15	4159
2026-01-16 08:48:23.13	6.86	18.68	-27.0	-28.1	15.8	0.00e+00	0	43	0	1479540736	15	4061
2026-01-16 08:48:24.13	6.69	18.60	-27.1	-28.6	15.7	0.00e+00	0	43	0	1482686464	14	4317
2026-01-16 08:48:25.14	6.51	18.51	-27.2	-29.0	15.5	7.00e-07	0	43	0	1485832192	14	4430
2026-01-16 08:48:26.14	6.34	18.43	-27.4	-29.3	15.4	7.00e-07	0	43	0	1488977920	14	4501
2026-01-16 08:48:27.14	6.16	18.34	-27.4	-28.9	15.3	7.00e-07	0	43	0	1492123648	15	4285
2026-01-16 08:48:28.15	5.99	18.26	-27.5	-29.2	15.1	0.00e+00	0	43	0	1495269376	15	4360
2026-01-16 08:48:29.15	5.82	18.18	-27.6	-29.3	15.1	0.00e+00	0	43	0	1498415104	15	4389
2026-01-16 08:48:30.15	5.65	18.09	-27.4	-29.0	15.3	7.00e-07	0	43	0	1501560832	15	4299
2026-01-16 08:48:31.15	5.48	18.01	-27.1	-28.7	15.0	0.00e+00	0	43	0	1504706560	15	4336
2026-01-16 08:48:32.15	5.32	17.93	-27.5	-29.6	12.4	0.00e+00	0	43	0	1507852288	14	4576
2026-01-16 08:48:33.16	5.15	17.84	-27.7	-29.5	12.8	7.00e-07	0	43	0	1510998016	15	4458
2026-01-16 08:48:34.16	4.98	17.76	-27.7	-29.5	14.9	0.00e+00	0	43	0	1514143744	15	4450
2026-01-16 08:48:35.16	4.82	17.68	-27.8	-29.8	14.7	0.00e+00	0	43	0	1517289472	15	4528
2026-01-16 08:48:36.16	4.65	17.59	-28.0	-30.2	14.5	3.69e-03	0	43	0	1520435200	15	4656
2026-01-16 08:48:37.16	4.49	17.51	-28.3	-30.5	14.2	0.00e+00	0	43	0	1523580928	16	4631
2026-01-16 08:48:38.16	4.33	17.43	-28.1	-29.9	14.5	0.00e+00	0	43	0	1526726656	16	4456
2026-01-16 08:48:39.16	4.17	17.34	-27.9	-30.0	14.6	7.00e-07	0	43	0	1529872384	15	4609
2026-01-16 08:48:40.15	4.01	17.26	-28.1	-30.0	14.5	0.00e+00	0	43	0	1533018112	16	4478
2026-01-16 08:48:41.15	3.85	17.18	-28.2	-30.1	14.4	4.23e-03	0	43	0	1536163840	16	4525
2026-01-16 08:48:42.16	3.69	17.10	-28.0	-29.9	14.5	3.79e-03	0	43	0	1539309568	16	4441
2026-01-16 08:48:43.17	3.53	17.01	-27.7	-29.6	14.8	0.00e+00	0	43	0	1542455296	15	4485
2026-01-16 08:48:44.17	3.37	16.93	-27.8	-30.0	14.6	0.00e+00	0	43	0	1545601024	15	4592
2026-01-16 08:48:45.17	3.22	16.85	-27.7	-29.6	14.8	0.00e+00	0	43	0	1548746752	15	4494
2026-01-16 08:48:46.17	3.06	16.76	-27.7	-29.7	14.8	3.19e-04	0	43	0	1551892480	15	4503
2026-01-16 08:48:47.17	2.91	16.68	-27.6	-29.4	14.9	4.33e-03	0	43	0	1555038208	15	4416
2026-01-16 08:48:48.18	2.75	16.60	-27.4	-29.4	15.2	0.00e+00	0	43	0	1558183936	14	4547
2026-01-16 08:48:49.18	2.60	16.52	-27.6	-29.3	15.0	7.00e-07	0	43	0	1561329664	15	4390
2026-01-16 08:48:50.18	2.45	16.43	-27.6	-29.4	14.9	7.00e-07	0	43	0	1564475392	15	4434
2026-01-16 08:48:51.19	2.30	16.35	-27.9	-30.2	14.5	3.84e-03	0	43	0	1567621120	15	4648
2026-01-16 08:48:52.20	2.15	16.27	-27.9	-30.1	14.5	2.06e-04	0	43	0	1570766848	15	4633
2026-01-16 08:48:53.19	2.00	16.19	-28.0	-30.2	14.4	7.00e-07	0	43	0	1573912576	15	4669
2026-01-16 08:48:54.19	1.85	16.10	-28.2	-30.1	14.4	0.00e+00	0	43	0	1577058304	16	4519
2026-01-16 08:48:55.19	1.70	16.02	-28.0	-29.8	14.5	1.91e-04	0	43	0	1580204032	16	4424
2026-01-16 08:48:56.20	1.56	15.94	-28.0	-29.9	14.5	4.27e-03	0	43	0	1583349760	16	4459
2026-01-16 08:48:57.20	1.41	15.86	-27.8	-29.9	14.6	4.09e-03	0	43	0	1586495488	15	4574
2026-01-16 08:48:58.20	1.27	15.78	-27.8	-29.8	14.6	1.91e-04	0	43	0	1589641216	15	4550
2026-01-16 08:48:59.20	1.12	15.69	-27.9	-30.1	14.5	4.15e-03	0	43	0	1592786944	15	4636
2026-01-16 08:49:00.20	0.98	15.61	-27.5	-29.3	14.9	3.77e-03	0	43	0	1595932672	15	4388
2026-01-16 08:49:01.20	0.84	15.53	-27.4	-29.0	15.1	1.82e-04	0	43	0	1599078400	15	4311
2026-01-16 08:49:02.21	0.69	15.45	-27.3	-29.3	15.2	3.85e-03	0	43	0	1602224128	14	4517
2026-01-16 08:49:03.21	0.55	15.37	-27.4	-29.5	15.0	4.37e-03	0	43	0	1605369856	14	4569
2026-01-16 08:49:04.21	0.41	15.29	-27.4	-29.5	15.1	2.66e-04	0	43	0	1608515584	14	4568
2026-01-16 08:49:05.22	0.27	15.20	-27.6	-29.3	14.9	4.26e-03	0	43	0	1611661312	15	4392
2026-01-16 08:49:06.22	0.13	15.12	-27.8	-30.0	14.5	4.10e-03	0	43	0	1614807040	15	4596
2026-01-16 08:49:07.22	360.00	15.04	-28.1	-30.1	14.3	3.11e-04	0	43	0	1617952768	16	4526
2026-01-16 08:49:08.22	359.86	14.96	-27.8	-29.9	14.5	4.14e-03	0	43	0	1620049920	15	4586
2026-01-16 08:49:09.22	359.72	14.88	-27.7	-29.7	14.7	3.86e-03	0	43	0	1623195648	15	4514
2026-01-16 08:49:10.23	359.59	14.80	-27.9	-30.1	14.4	7.00e-07	0	43	0	1626341376	15	4648
2026-01-16 08:49:11.23	359.45	14.72	-27.8	-29.8	14.6	3.86e-03	0	43	0	1629487104	15	4562
2026-01-16 08:49:12.23	359.32	14.64	-27.8	-29.9	14.5	4.32e-03	0	43	0	1632632832	15	4572
2026-01-16 08:49:13.24	359.18	14.56	-27.7	-29.6	14.7	3.40e-04	0	43	0	1635778560	15	4487
2026-01-16 08:49:14.23	359.05	14.48	-27.7	-29.6	14.7	1.50e-06	0	43	0	1638924288	15	4502
2026-01-16 08:49:15.23	358.92	14.40	-27.7	-29.6	14.7	1.50e-06	0	43	0	1642070016	15	4478
2026-01-16 08:49:16.24	358.79	14.32	-27.6	-29.3	14.9	3.35e-04	0	43	0	1645215744	15	4396
2026-01-16 08:49:17.24	358.66	14.24	-27.4	-29.0	15.0	3.97e-03	0	43	0	1648361472	15	4324
2026-01-16 08:49:18.24	358.53	14.16	-27.4	-29.4	15.1	3.67e-03	0	43	0	1651507200	14	4542
2026-01-16 08:49:19.24	358.40	14.08	-27.3	-29.3	15.1	7.00e-07	0	43	0	1654652928	14	4504
2026-01-16 08:49:20.25	358.27	14.00	-27.3	-29.1	15.2	2.20e-06	0	43	0	1657798656	14	4456
2026-01-16 08:49:21.26	358.14	13.92	-27.1	-28.8	15.4	0.00e+00	0	43	0	1660944384	14	4377
2026-01-16 08:49:22.26	358.01	13.84	-27.4	-29.4	15.1	3.29e-04	0	43	0	1664090112	14	4533
2026-01-16 08:49:23.26	357.89	13.76	-27.3	-29.3	15.1	4.03e-03	0	43	0	1667235840	14	4519
2026-01-16 08:49:24.26	357.76	13.68	-27.4	-29.5	14.9	0.00e+00	0	43	0	1670381568	14	4589
2026-01-16 08:49:25.26	357.64	13.60	-27.6	-29.5	14.7	7.00e-07	0	43	0	1673527296	15	4466
2026-01-16 08:49:26.27	357.51	13.52	-27.5	-29.1	14.9	7.00e-07	0	43	0	1676673024	15	4352
2026-01-16 08:49:27.26	357.39	13.44	-27.6	-29.4	14.7	1.50e-06	0	43	0	1679818752	15	4431
2026-01-16 08:49:28.26	357.27	13.37	-27.7	-29.8	14.5	4.37e-04	0	43	0	1682964480	15	4546
2026-01-16 08:49:29.27	357.15	13.29	-27.7	-29.6	14.6	0.00e+00	0	43	0	1686110208	15	4501
2026-01-16 08:49:30.27	357.02	13.21	-27.8	-29.9	14.4	3.00e-06	0	43	0	1689255936	15	4580
2026-01-16 08:49:31.27	356.90	13.13	-27.8	-29.8	14.5	0.00e+00	0	43	0	1692401664	15	4568
2026-01-16 08:49:32.27	356.78	13.05	-27.8	-29.9	14.4	0.00e+00	0	43	0	1695547392	15	4584
2026-01-16 08:49:33.27	356.66	12.97	-27.9	-30.1	14.2	4.44e-04	0	43	0	1698693120	15	4654
2026-01-16 08:49:34.27	356.55	12.90	-27.7	-29.6	14.6	1.50e-06	0	43	0	1701838848	15	4493
2026-01-16 08:49:35.27	356.43	12.82	-27.6	-29.4	14.7	0.00e+00	0	43	0	1704984576	15	4443
2026-01-16 08:49:36.27	356.31	12.74	-27.5	-29.2	14.8	0.00e+00	0	43	0	1708130304	15	4388
2026-01-16 08:49:37.26	356.19	12.66	-27.5	-29.1	14.8	0.00e+00	0	43	0	1711276032	15	4357
2026-01-16 08:49:38.26	356.08	12.59	-27.4	-29.4	14.9	7.00e-07	0	43	0	1714421760	14	4561
2026-01-16 08:49:39.26	355.96	12.51	-27.4	-29.4	15.0	0.00e+00	0	43	0	1717567488	14	4542
2026-01-16 08:49:40.26	355.85	12.43	-27.4	-29.5	14.9	2.20e-06	0	43	0	1720713216	14	4591
2026-01-16 08:49:41.26	355.73	12.36	-27.4	-29.5	14.9	7.00e-07	0	43	0	1723858944	14	4575
2026-01-16 08:49:42.26	355.62	12.28	-27.4	-29.5	14.9	7.00e-07	0	43	0	1727004672	14	4579
2026-01-16 08:49:43.25	355.51	12.20	-27.6	-29.4	14.6	0.00e+00	0	43	0	1730150400	15	4434
2026-01-16 08:49:44.25	355.40	12.13	-27.8	-29.9	14.3	2.20e-06	0	43	0	1733296128	15	4596
2026-01-16 08:49:45.26	355.28	12.05	-27.9	-30.2	14.1	7.00e-07	0	43	0	1736441856	15	4699
2026-01-16 08:49:46.26	355.17	11.97	-28.2	-30.3	14.0	1.50e-06	0	43	0	1739587584	16	4593
2026-01-16 08:49:47.27	355.06	11.90	-28.2	-30.3	14.0	2.20e-06	0	43	0	1742733312	16	4581
2026-01-16 08:49:48.27	354.95	11.82	-28.5	-30.6	13.5	1.14e-05	0	43	0	1745879040	17	4563
2026-01-16 08:49:49.27	354.84	11.74	-28.5	-30.5	13.6	4.50e-06	0	43	0	1749024768	17	4533
2026-01-16 08:49:50.28	354.73	11.67	-28.5	-30.5	13.6	6.80e-06	0	43	0	1752170496	17	4532
2026-01-16 08:49:51.28	354.62	11.59	-28.5	-30.6	13.5	1.60e-05	0	43	0	1755316224	17	4564
2026-01-16 08:49:52.28	354.51	11.52	-28.5	-30.7	13.4	1.22e-05	0	43	0	1758461952	17	4599
2026-01-16 08:49:53.29	354.41	11.44	-28.6	-30.7	13.4	1.90e-05	0	43	0	1761607680	17	4625
2026-01-16 08:49:54.30	354.30	11.36	-28.5	-31.0	13.6	4.50e-06	0	43	0	1764753408	16	4807
2026-01-16 08:49:55.30	354.19	11.29	-28.7	-30.9	13.3	1.67e-05	0	43	0	1767899136	17	4684
2026-01-16 08:49:56.30	354.09	11.21	-28.6	-30.7	13.4	2.21e-05	0	43	0	1771044864	17	4618
2026-01-16 08:49:57.30	353.98	11.14	-28.4	-30.7	13.7	9.10e-06	0	43	0	1774190592	16	4720
2026-01-16 08:49:58.30	353.88	11.06	-28.3	-30.6	13.8	5.30e-06	0	43	0	1777336320	16	4670
2026-01-16 08:49:59.31	353.77	10.99	-28.1	-30.1	14.1	3.00e-06	0	43	0	1780482048	16	4518
2026-01-16 08:50:00.31	353.67	10.91	-28.1	-30.2	14.0	3.80e-06	0	43	0	1783627776	16	4554
2026-01-16 08:50:01.31	353.57	10.84	-28.3	-30.6	13.7	1.14e-05	0	43	0	1786773504	16	4699
2026-01-16 08:50:02.31	353.47	10.77	-28.2	-30.3	13.9	3.00e-06	0	43	0	1789919232	16	4600
2026-01-16 08:50:03.31	353.36	10.69	-28.3	-30.6	13.8	1.50e-06	0	43	0	1793064960	16	4674
2026-01-16 08:50:04.31	353.26	10.62	-28.4	-30.7	13.7	6.80e-06	0	43	0	1796210688	16	4727
2026-01-16 08:50:05.31	353.16	10.54	-28.5	-30.5	13.5	8.30e-06	0	43	0	1799356416	17	4554
2026-01-16 08:50:06.31	353.06	10.47	-28.5	-30.5	13.5	1.52e-05	0	43	0	1802502144	17	4548
2026-01-16 08:50:07.32	352.96	10.40	-28.6	-30.9	13.2	2.51e-05	0	43	0	1805647872	17	4666
2026-01-16 08:50:08.32	352.86	10.32	-28.9	-31.5	12.9	6.10e-05	0	43	0	1808793600	17	4856
2026-01-16 08:50:09.33	352.76	10.25	-28.8	-31.4	12.9	4.34e-05	0	43	0	1811939328	17	4850
2026-01-16 08:50:10.33	352.66	10.18	-29.1	-31.6	12.5	1.40e-04	0	43	0	1815085056	18	4774
2026-01-16 08:50:11.33	352.57	10.10	-28.9	-31.0	12.9	4.65e-05	0	43	0	1818230784	18	4587
2026-01-16 08:50:12.32	352.47	10.03	-29.0	-31.7	12.7	7.40e-05	0	43	0	1821376512	17	4945
2026-01-16 08:50:13.33	352.37	9.96	-29.0	-31.4	12.6	9.68e-05	0	43	0	1824522240	18	4734
2026-01-16 08:50:14.33	352.28	9.88	-29.0	-31.4	12.6	7.78e-05	0	43	0	1826619392	18	4736
2026-01-16 08:50:15.33	352.18	9.81	-29.0	-31.4	12.6	9.84e-05	0	43	0	1829765120	18	4714
2026-01-16 08:50:16.33	352.09	9.74	-29.1	-31.5	12.5	1.46e-04	0	43	0	1832910848	18	4758
2026-01-16 08:50:17.33	351.99	9.67	-29.0	-31.2	12.7	1.01e-04	0	43	0	1836056576	18	4677
2026-01-16 08:50:18.33	351.90	9.60	-29.2	-31.8	12.3	1.11e-04	0	43	0	1839202304	18	4867
2026-01-16 08:50:19.34	351.80	9.52	-29.1	-31.5	12.5	9.91e-05	0	43	0	1842348032	18	4747
2026-01-16 08:50:20.33	351.71	9.45	-29.1	-31.7	12.4	1.70e-04	0	43	0	1845493760	18	4818
2026-01-16 08:50:21.34	351.62	9.38	-29.1	-31.5	12.5	1.03e-04	0	43	0	1848639488	18	4775
2026-01-16 08:50:22.34	351.53	9.31	-29.1	-31.6	12.4	1.77e-04	0	43	0	1851785216	18	4804
2026-01-16 08:50:23.34	351.44	9.24	-28.9	-31.1	12.7	8.54e-05	0	44	0	1854930944	18	4631
2026-01-16 08:50:24.34	351.34	9.17	-28.7	-31.2	12.9	4.19e-05	0	43	0	1858076672	17	4783
2026-01-16 08:50:25.35	351.25	9.09	-29.0	-31.8	12.6	6.94e-05	0	43	0	1861222400	17	4975
2026-01-16 08:50:26.36	351.16	9.02	-29.1	-31.5	12.5	1.08e-04	0	43	0	1864368128	18	4771
2026-01-16 08:50:27.36	351.07	8.95	-29.4	-32.4	11.9	4.48e-04	0	43	0	1867513856	18	5098
2026-01-16 08:50:28.36	350.98	8.88	-29.3	-32.2	11.9	3.37e-04	0	43	0	1870659584	18	5027
2026-01-16 08:50:29.36	350.89	8.81	-28.4	-31.3	12.0	3.22e-04	0	43	0	1873805312	18	5034
2026-01-16 08:50:30.36	350.80	8.74	-29.4	-32.3	11.9	3.82e-04	0	43	0	1876951040	18	5033
2026-01-16 08:50:31.36	350.72	8.67	-29.4	-32.0	11.7	5.77e-04	0	43	0	1880096768	19	4833
2026-01-16 08:50:32.36	350.63	8.60	-29.6	-32.5	11.3	6.64e-04	0	43	0	1883242496	19	5025
2026-01-16 08:50:33.36	350.54	8.53	-29.8	-32.8	11.2	1.42e-03	0	43	0	1886388224	19	5138
2026-01-16 08:50:34.36	350.46	8.46	-29.6	-32.6	11.4	4.26e-03	0	43	0	1889533952	19	5036
2026-01-16 08:50:35.35	350.37	8.39	-29.9	-33.3	10.9	3.05e-03	0	43	0	1892679680	19	5318
2026-01-16 08:50:36.36	350.28	8.32	-29.7	-32.7	11.3	1.52e-03	0	43	0	1895825408	19	5081
2026-01-16 08:50:37.36	350.20	8.25	-29.4	-32.4	11.8	6.16e-04	0	43	0	1898971136	18	5106
2026-01-16 08:50:38.35	350.11	8.18	-29.4	-32.5	11.7	4.39e-04	0	43	0	1902116864	18	5129
2026-01-16 08:50:39.36	350.03	8.11	-29.4	-32.3	11.9	4.92e-04	0	43	0	1905262592	18	5066
2026-01-16 08:50:40.37	349.94	8.04	-29.6	-32.4	11.4	6.50e-04	0	43	0	1908408320	19	4986
2026-01-16 08:50:41.37	349.86	7.97	-29.8	-33.0	11.0	1.32e-03	0	43	0	1911554048	19	5220
2026-01-16 08:50:42.37	349.78	7.90	-29.9	-33.3	10.8	3.06e-03	0	43	0	1914699776	19	5321
2026-01-16 08:50:43.37	349.69	7.83	-29.5	-32.3	11.5	4.87e-03	0	43	0	1917845504	19	4945
2026-01-16 08:50:44.37	349.61	7.77	-29.6	-32.5	11.3	4.96e-03	0	43	0	1920991232	19	5023
2026-01-16 08:50:45.37	349.53	7.70	-29.7	-32.7	11.2	2.25e-03	0	43	0	1924136960	19	5090
2026-01-16 08:50:46.37	349.45	7.63	-29.4	-32.6	11.6	1.03e-03	0	43	0	1927282688	18	5164
2026-01-16 08:50:47.37	349.37	7.56	-29.4	-32.0	11.7	6.47e-04	0	43	0	1930428416	19	4839
2026-01-16 08:50:48.37	349.28	7.49	-29.4	-32.0	11.6	7.62e-04	0	43	0	1933574144	19	4859
2026-01-16 08:50:49.37	349.20	7.42	-29.4	-32.4	11.7	4.00e-03	0	43	0	1936719872	18	5089
2026-01-16 08:50:50.37	349.12	7.36	-29.4	-32.4	11.7	4.50e-03	0	43	0	1939865600	18	5095
2026-01-16 08:50:51.37	349.04	7.29	-29.1	-31.7	12.2	3.07e-04	0	43	0	1943011328	18	4857
2026-01-16 08:50:52.37	348.97	7.22	-29.3	-32.1	11.9	2.68e-04	0	43	0	1946157056	18	4986
2026-01-16 08:50:53.37	348.89	7.15	-29.2	-31.8	12.1	4.12e-03	0	43	0	1949302784	18	4887
2026-01-16 08:50:54.37	348.81	7.09	-31.3	-36.0	8.2	1.36e-03	0	43	0	1952448512	22	6202
2026-01-16 08:50:55.37	348.73	7.02	-33.3	-45.0	3.8	1.49e+00	0	44	104	1952448512	26	13963

#Closed at: 2026-01-16 08:50:56
#Recorded file [1952 MB]: D:/data/31010_260116_114029.dat