passes_logs/2026/01/16/R2M6_AANII_01/R2M6_AANII_01__20260116_123744_AQUA_rec.log

#Pass ID: 20260116_123744_AQUA
#Satellite: AQUA
#Configuration: AQUA
#almurnet v.1.7.20240730
#Start time: 2026-01-16 12:40:49

#Version: 2.2.20231116
#Station: R2M6_AANII_01
#Location: 30.233357 lon 59.946436 lat
#TLE: 1 27424U 02022A   26015.51279194  .00000651  00000+0  14022-3 0  9990
#TLE: 2 27424  98.4082 341.9487 0002034  77.6776  33.2672 14.61821775260965

#Time	Az	El	Level	Level2	SNR	BER	BlckErr	Temp	State	Recorded	gain1	gain2
2026-01-16 12:40:49.13	196.97	29.67	-33.9	-46.5	3.8	1.49e+00	0	43	0	0	27	15366
2026-01-16 12:40:50.13	197.17	29.86	-34.7	-53.5	3.8	7.44e-01	0	43	104	0	31	31210
2026-01-16 12:40:51.12	197.37	30.05	-34.8	-53.5	3.8	7.41e-01	0	43	104	0	31	31297
2026-01-16 12:40:52.11	197.57	30.24	-34.8	-53.6	3.8	7.46e-01	0	43	104	0	31	31439
2026-01-16 12:40:53.10	197.78	30.43	-34.8	-53.6	3.8	7.45e-01	0	43	104	0	31	31344
2026-01-16 12:40:54.10	197.99	30.63	-34.8	-53.5	3.8	7.45e-01	0	43	104	0	31	31324
2026-01-16 12:40:55.11	198.20	30.83	-34.7	-53.5	3.8	7.45e-01	0	42	104	0	31	31349
2026-01-16 12:40:56.10	198.42	31.02	-34.7	-53.5	3.8	7.46e-01	0	43	104	0	31	31273
2026-01-16 12:40:57.10	198.64	31.22	-34.7	-53.5	3.8	7.43e-01	0	43	104	0	31	31234
2026-01-16 12:40:58.09	198.85	31.42	-34.7	-53.4	3.8	7.43e-01	0	42	104	0	31	31198
2026-01-16 12:40:59.08	199.08	31.61	-34.7	-53.5	3.8	7.46e-01	0	43	104	0	31	31230
2026-01-16 12:41:00.07	199.30	31.81	-34.7	-53.5	3.8	7.44e-01	0	43	104	0	31	31177
2026-01-16 12:41:01.06	199.53	32.01	-34.7	-53.5	3.8	7.48e-01	0	42	104	0	31	31253
2026-01-16 12:41:02.05	199.76	32.22	-34.7	-53.5	3.8	7.42e-01	0	43	104	0	31	31232
2026-01-16 12:41:03.05	199.99	32.42	-34.7	-53.4	3.8	7.46e-01	0	42	104	0	31	31187
2026-01-16 12:41:04.04	200.23	32.62	-34.7	-53.4	3.8	7.44e-01	0	43	104	0	31	31148
2026-01-16 12:41:05.05	200.47	32.83	-34.7	-53.4	3.8	7.44e-01	0	43	104	0	31	31124
2026-01-16 12:41:06.04	200.71	33.04	-34.7	-53.5	3.8	7.43e-01	0	43	104	0	31	31253
2026-01-16 12:41:07.04	200.96	33.24	-34.8	-53.6	3.8	7.48e-01	0	43	104	0	31	31363
2026-01-16 12:41:08.04	201.21	33.45	-34.8	-53.6	3.8	7.46e-01	0	43	104	0	31	31382
2026-01-16 12:41:09.05	201.47	33.67	-34.8	-53.6	3.8	7.45e-01	0	42	104	0	31	31446
2026-01-16 12:41:10.04	201.72	33.87	-34.7	-53.5	3.8	7.43e-01	0	43	104	0	31	31361
2026-01-16 12:41:11.04	201.98	34.09	-34.7	-53.5	3.8	7.45e-01	0	43	104	0	31	31217
2026-01-16 12:41:12.03	202.25	34.30	-34.6	-53.3	3.8	7.45e-01	0	42	104	0	31	30996
2026-01-16 12:41:13.03	202.51	34.51	-34.5	-53.0	3.8	7.44e-01	0	43	104	0	31	30298
2026-01-16 12:41:14.02	202.78	34.72	-34.5	-53.0	3.8	7.45e-01	0	43	104	0	31	30530
2026-01-16 12:41:15.02	203.06	34.94	-34.4	-52.9	3.8	7.47e-01	0	43	104	0	31	30195
2026-01-16 12:41:16.01	203.33	35.15	-34.4	-52.8	3.8	7.45e-01	0	43	104	0	31	30025
2026-01-16 12:41:17.01	203.61	35.37	-34.4	-52.6	3.8	7.47e-01	0	43	104	0	31	29270
2026-01-16 12:41:18.00	203.90	35.59	-34.4	-52.7	3.8	7.43e-01	0	43	104	0	31	29611
2026-01-16 12:41:18.99	204.18	35.80	-34.4	-52.8	3.8	7.45e-01	0	43	104	0	31	29966
2026-01-16 12:41:19.98	204.48	36.02	-34.4	-52.7	3.8	7.43e-01	0	42	104	0	31	29651
2026-01-16 12:41:20.97	204.77	36.24	-34.4	-52.7	3.8	7.46e-01	0	43	104	0	31	29666
2026-01-16 12:41:21.97	205.07	36.46	-34.4	-52.7	3.8	7.46e-01	0	43	104	0	31	29617
2026-01-16 12:41:22.96	205.37	36.68	-34.4	-53.1	3.8	7.47e-01	0	43	104	0	30	31082
2026-01-16 12:41:23.96	205.68	36.90	-34.4	-53.2	3.8	7.45e-01	0	43	104	0	30	31391
2026-01-16 12:41:24.96	206.00	37.12	-34.4	-53.1	3.8	7.46e-01	0	43	104	0	30	31210
2026-01-16 12:41:25.95	206.31	37.34	-34.4	-53.2	3.8	7.46e-01	0	43	104	0	30	31367
2026-01-16 12:41:26.94	206.63	37.57	-34.4	-53.4	3.8	7.44e-01	0	43	104	0	30	31995
2026-01-16 12:41:27.93	206.96	37.79	-34.4	-53.0	3.8	7.43e-01	0	43	104	0	30	30875
2026-01-16 12:41:28.93	207.29	38.01	-34.3	-52.1	3.8	7.42e-01	0	43	104	0	30	27902
2026-01-16 12:41:29.92	207.62	38.24	-34.3	-51.7	3.8	7.45e-01	0	43	104	0	30	26596
2026-01-16 12:41:30.92	207.97	38.47	-34.3	-51.8	3.8	7.45e-01	0	43	104	0	30	26836
2026-01-16 12:41:31.91	208.31	38.69	-34.3	-51.8	3.8	7.48e-01	0	43	104	0	30	26881
2026-01-16 12:41:32.90	208.66	38.92	-34.4	-52.2	3.8	7.45e-01	0	43	104	0	30	28095
2026-01-16 12:41:33.90	209.01	39.14	-34.4	-52.8	3.8	7.48e-01	0	43	104	0	30	30139
2026-01-16 12:41:34.89	209.37	39.37	-34.4	-53.1	3.8	7.45e-01	0	43	104	0	30	31090
2026-01-16 12:41:35.89	209.74	39.60	-34.3	-52.2	3.8	7.46e-01	0	43	104	0	30	28226
2026-01-16 12:41:36.88	210.10	39.82	-34.3	-49.7	3.9	7.38e-01	0	43	104	0	30	21241
2026-01-16 12:41:37.88	210.48	40.05	-34.2	-48.5	4.0	7.27e-01	0	43	104	0	30	18623
2026-01-16 12:41:38.88	210.86	40.28	-34.3	-50.3	3.9	7.43e-01	0	43	104	0	30	22846
2026-01-16 12:41:39.86	211.24	40.51	-33.5	-40.6	10.8	6.17e-01	0	43	104	0	29	8197
2026-01-16 12:41:40.86	211.64	40.74	-31.7	-35.4	16.6	6.08e-01	0	42	0	524288	25	5520
2026-01-16 12:41:41.86	212.03	40.97	-30.4	-32.7	19.1	6.06e-01	0	43	0	2621440	23	4676
2026-01-16 12:41:42.86	212.44	41.20	-30.4	-33.1	19.3	6.07e-01	0	43	0	4194304	22	4908
2026-01-16 12:41:43.86	212.85	41.43	-30.7	-33.8	18.8	6.08e-01	0	43	0	6291456	22	5192
2026-01-16 12:41:44.85	213.26	41.65	-30.2	-32.7	19.5	6.06e-01	0	43	0	7864320	22	4771
2026-01-16 12:41:45.84	213.68	41.88	-30.6	-33.5	19.0	6.07e-01	0	43	0	9961472	22	5075
2026-01-16 12:41:46.84	214.11	42.11	-30.2	-32.6	19.5	6.06e-01	0	43	0	12058624	22	4737
2026-01-16 12:41:47.83	214.54	42.34	-29.8	-32.1	20.2	6.06e-01	0	43	0	13631488	21	4668
2026-01-16 12:41:48.83	214.98	42.57	-29.7	-31.9	20.3	6.06e-01	0	43	0	15728640	21	4609
2026-01-16 12:41:49.82	215.42	42.79	-29.5	-31.4	20.6	6.05e-01	0	43	0	17301504	21	4467
2026-01-16 12:41:50.81	215.87	43.02	-29.6	-31.6	20.5	6.07e-01	0	43	0	19398656	21	4537
2026-01-16 12:41:51.80	216.32	43.24	-29.6	-31.6	20.5	6.08e-01	0	43	0	20971520	21	4530
2026-01-16 12:41:52.80	216.79	43.47	-29.8	-32.1	20.2	6.06e-01	0	43	0	23068672	21	4701
2026-01-16 12:41:53.80	217.26	43.70	-29.4	-31.2	20.7	6.06e-01	0	42	0	24641536	21	4405
2026-01-16 12:41:54.79	217.74	43.92	-29.2	-31.2	21.0	6.06e-01	0	43	0	26738688	20	4506
2026-01-16 12:41:55.79	218.22	44.14	-29.4	-31.7	20.7	6.08e-01	0	43	0	28835840	20	4669
2026-01-16 12:41:56.78	218.71	44.37	-29.2	-31.1	21.0	6.05e-01	0	43	0	30408704	20	4491
2026-01-16 12:41:57.79	219.22	44.59	-29.1	-30.9	21.2	6.06e-01	0	43	0	32505856	20	4413
2026-01-16 12:41:58.78	219.72	44.81	-29.0	-30.6	21.3	6.05e-01	0	43	0	34078720	20	4329
2026-01-16 12:41:59.78	220.23	45.03	-29.0	-30.7	21.4	6.07e-01	0	43	0	36175872	20	4351
2026-01-16 12:42:00.77	220.75	45.25	-29.1	-30.9	21.2	6.08e-01	0	43	0	37748736	20	4424
2026-01-16 12:42:01.75	221.27	45.46	-29.2	-31.0	21.1	6.06e-01	0	43	0	39845888	20	4458
2026-01-16 12:42:02.74	221.80	45.68	-29.1	-30.9	21.2	6.06e-01	0	43	0	41418752	20	4421
2026-01-16 12:42:03.73	222.33	45.89	-29.0	-30.7	21.3	6.04e-01	0	43	0	43515904	20	4355
2026-01-16 12:42:04.72	222.88	46.10	-29.1	-30.8	21.2	6.06e-01	0	42	0	45088768	20	4398
2026-01-16 12:42:05.72	223.44	46.31	-29.1	-30.8	21.3	6.04e-01	0	43	0	47185920	20	4383
2026-01-16 12:42:06.72	224.00	46.52	-29.3	-31.5	20.9	6.06e-01	0	43	0	49283072	20	4590
2026-01-16 12:42:07.71	224.57	46.73	-29.4	-31.6	20.8	6.06e-01	0	43	0	50855936	20	4627
2026-01-16 12:42:08.71	225.15	46.93	-29.4	-31.6	20.8	6.07e-01	0	43	0	52953088	20	4640
2026-01-16 12:42:09.71	225.74	47.14	-29.5	-31.8	20.7	6.05e-01	0	43	0	54525952	20	4695
2026-01-16 12:42:10.71	226.33	47.34	-29.4	-31.6	20.8	6.07e-01	0	43	0	56623104	20	4622
2026-01-16 12:42:11.71	226.94	47.54	-29.4	-31.5	20.9	6.07e-01	0	43	0	58195968	20	4598
2026-01-16 12:42:12.71	227.55	47.74	-29.4	-31.6	20.8	6.08e-01	0	43	0	60293120	20	4646
2026-01-16 12:42:13.72	228.17	47.93	-29.2	-31.1	21.1	6.06e-01	0	43	0	62390272	20	4485
2026-01-16 12:42:14.72	228.80	48.12	-29.2	-31.1	21.1	6.08e-01	0	43	0	63963136	20	4486
2026-01-16 12:42:15.72	229.44	48.31	-29.1	-30.8	21.2	6.06e-01	0	43	0	66060288	20	4400
2026-01-16 12:42:16.72	230.08	48.50	-29.4	-31.7	20.8	6.06e-01	0	43	0	67633152	20	4664
2026-01-16 12:42:17.71	230.72	48.68	-29.3	-31.4	20.9	6.06e-01	0	43	0	69730304	20	4585
2026-01-16 12:42:18.71	231.38	48.86	-29.3	-31.3	21.0	6.05e-01	0	43	0	71303168	20	4531
2026-01-16 12:42:19.71	232.05	49.04	-29.4	-31.6	20.8	6.05e-01	0	43	0	73400320	20	4631
2026-01-16 12:42:20.72	232.73	49.21	-29.3	-31.4	20.9	6.08e-01	0	42	0	75497472	20	4577
2026-01-16 12:42:21.72	233.41	49.38	-29.3	-31.4	20.9	6.06e-01	0	43	0	77070336	20	4582
2026-01-16 12:42:22.72	234.10	49.55	-29.4	-31.7	20.8	6.06e-01	0	43	0	79167488	20	4647
2026-01-16 12:42:23.72	234.79	49.71	-29.4	-31.5	20.9	6.06e-01	0	43	0	80740352	20	4607
2026-01-16 12:42:24.72	235.50	49.87	-29.3	-31.4	21.0	6.05e-01	0	43	0	82837504	20	4569
2026-01-16 12:42:25.72	236.21	50.03	-29.6	-31.9	20.6	6.07e-01	0	43	0	84934656	20	4731
2026-01-16 12:42:26.73	236.93	50.18	-29.5	-31.9	20.7	6.05e-01	0	43	0	86507520	20	4712
2026-01-16 12:42:27.73	237.66	50.32	-29.4	-31.6	20.8	6.06e-01	0	43	0	88604672	20	4621
2026-01-16 12:42:28.73	238.39	50.47	-29.5	-31.8	20.7	6.06e-01	0	43	0	90177536	20	4699
2026-01-16 12:42:29.73	239.13	50.60	-29.5	-31.8	20.8	6.07e-01	0	43	0	92274688	20	4680
2026-01-16 12:42:30.73	239.87	50.74	-29.5	-31.7	20.8	6.06e-01	0	43	0	94371840	20	4646
2026-01-16 12:42:31.73	240.63	50.87	-29.7	-32.3	20.5	6.06e-01	0	43	0	95944704	20	4839
2026-01-16 12:42:32.73	241.38	50.99	-29.7	-32.3	20.4	6.07e-01	0	43	0	98041856	20	4863
2026-01-16 12:42:33.74	242.16	51.11	-29.7	-32.3	20.4	6.05e-01	0	43	0	99614720	20	4850
2026-01-16 12:42:34.73	242.92	51.22	-29.8	-32.4	20.4	6.06e-01	0	43	0	101711872	20	4886
2026-01-16 12:42:35.74	243.70	51.33	-29.8	-32.6	20.3	6.08e-01	0	43	0	103284736	20	4937
2026-01-16 12:42:36.74	244.48	51.44	-29.8	-32.6	20.3	6.05e-01	0	43	0	105381888	20	4958
2026-01-16 12:42:37.74	245.27	51.53	-29.8	-32.6	20.3	6.07e-01	0	43	0	107479040	20	4947
2026-01-16 12:42:38.74	246.06	51.63	-30.3	-33.2	19.7	6.07e-01	0	43	0	109051904	21	5058
2026-01-16 12:42:39.75	246.87	51.72	-30.5	-33.8	19.3	6.05e-01	0	43	0	111149056	21	5249
2026-01-16 12:42:40.74	247.66	51.80	-30.5	-33.3	19.3	6.07e-01	0	43	0	112721920	22	4968
2026-01-16 12:42:41.74	248.47	51.87	-30.4	-33.0	19.6	6.08e-01	0	43	0	114819072	22	4847
2026-01-16 12:42:42.74	249.28	51.95	-30.4	-33.0	19.5	6.07e-01	0	43	0	116391936	22	4863
2026-01-16 12:42:43.73	250.08	52.01	-30.4	-33.1	19.5	6.05e-01	0	43	0	118489088	22	4885
2026-01-16 12:42:44.74	250.91	52.07	-30.4	-33.1	19.4	6.08e-01	0	43	0	120586240	22	4905
2026-01-16 12:42:45.74	251.73	52.12	-30.4	-33.1	19.5	6.05e-01	0	43	0	122159104	22	4895
2026-01-16 12:42:46.74	252.55	52.17	-30.8	-34.1	18.9	6.07e-01	0	43	0	124256256	22	5247
2026-01-16 12:42:47.73	253.37	52.21	-30.8	-34.0	18.9	6.07e-01	0	43	0	125829120	22	5212
2026-01-16 12:42:48.74	254.20	52.25	-30.3	-32.9	19.6	6.05e-01	0	43	0	127926272	22	4809
2026-01-16 12:42:49.74	255.03	52.28	-30.1	-32.3	20.0	6.07e-01	0	43	0	130023424	22	4611
2026-01-16 12:42:50.74	255.86	52.30	-30.1	-32.3	19.9	6.08e-01	0	43	0	131596288	22	4628
2026-01-16 12:42:51.74	256.69	52.32	-30.1	-32.2	20.0	6.07e-01	0	43	0	133693440	22	4582
2026-01-16 12:42:52.74	257.53	52.33	-30.4	-33.0	19.6	6.06e-01	0	43	0	135266304	22	4848
2026-01-16 12:42:53.75	258.37	52.34	-30.2	-32.6	19.8	6.07e-01	0	43	0	137363456	22	4708
2026-01-16 12:42:54.75	259.20	52.34	-30.2	-32.5	19.8	6.05e-01	0	43	0	138936320	22	4692
2026-01-16 12:42:55.75	260.03	52.33	-30.2	-32.4	19.9	6.05e-01	0	42	0	141033472	22	4643
2026-01-16 12:42:56.75	260.87	52.32	-30.4	-33.0	19.6	6.06e-01	0	43	0	143130624	22	4840
2026-01-16 12:42:57.76	261.71	52.30	-30.3	-32.8	19.7	6.07e-01	0	43	0	144703488	22	4784
2026-01-16 12:42:58.76	262.54	52.27	-30.4	-33.1	19.5	6.06e-01	0	43	0	146800640	22	4891
2026-01-16 12:42:59.76	263.37	52.24	-30.3	-32.7	19.7	6.06e-01	0	43	0	148373504	22	4760
2026-01-16 12:43:00.76	264.19	52.20	-30.2	-32.5	19.8	6.07e-01	0	42	0	150470656	22	4688
2026-01-16 12:43:01.76	265.02	52.16	-29.9	-31.7	20.3	6.08e-01	0	43	0	152043520	22	4428
2026-01-16 12:43:02.77	265.85	52.11	-30.1	-32.3	19.9	6.04e-01	0	43	0	154140672	22	4642
2026-01-16 12:43:03.77	266.66	52.06	-30.0	-31.9	20.2	6.06e-01	0	43	0	156237824	22	4481
2026-01-16 12:43:04.77	267.48	51.99	-30.1	-32.3	20.0	6.09e-01	0	43	0	157810688	22	4635
2026-01-16 12:43:05.77	268.29	51.93	-30.1	-32.3	20.0	6.07e-01	0	43	0	159907840	22	4631
2026-01-16 12:43:06.77	269.10	51.86	-30.2	-32.4	19.8	6.06e-01	0	43	0	161480704	22	4665
2026-01-16 12:43:07.77	269.90	51.78	-30.3	-32.7	19.7	6.08e-01	0	43	0	163577856	22	4767
2026-01-16 12:43:08.77	270.70	51.69	-30.4	-33.0	19.6	6.03e-01	0	43	0	165150720	22	4855
2026-01-16 12:43:09.77	271.50	51.61	-30.4	-33.1	19.4	6.08e-01	0	43	0	167247872	22	4904
2026-01-16 12:43:10.77	272.29	51.51	-30.3	-32.7	19.7	6.04e-01	0	43	0	169345024	22	4739
2026-01-16 12:43:11.76	273.07	51.41	-30.4	-33.1	19.5	6.08e-01	0	43	0	170917888	22	4901
2026-01-16 12:43:12.77	273.85	51.31	-30.5	-33.2	19.4	6.05e-01	0	43	0	173015040	22	4933
2026-01-16 12:43:13.77	274.63	51.20	-30.3	-32.9	19.6	6.07e-01	0	43	0	174587904	22	4818
2026-01-16 12:43:14.77	275.39	51.08	-30.4	-33.2	19.4	6.06e-01	0	43	0	176685056	22	4936
2026-01-16 12:43:15.77	276.16	50.96	-30.3	-32.7	19.7	6.06e-01	0	43	0	178257920	22	4770
2026-01-16 12:43:16.77	276.91	50.84	-30.5	-33.4	19.2	6.08e-01	0	43	0	180355072	22	5010
2026-01-16 12:43:17.77	277.66	50.71	-30.5	-33.2	19.3	6.05e-01	0	43	0	182452224	22	4933
2026-01-16 12:43:18.78	278.41	50.57	-30.3	-32.8	19.6	6.06e-01	0	43	0	184025088	22	4782
2026-01-16 12:43:19.78	279.15	50.43	-30.3	-32.8	19.7	6.08e-01	0	43	0	186122240	22	4782
2026-01-16 12:43:20.78	279.88	50.29	-30.5	-33.3	19.2	6.06e-01	0	43	0	187695104	22	4981
2026-01-16 12:43:21.79	280.61	50.14	-30.6	-33.6	19.1	6.10e-01	0	43	0	189792256	22	5088
2026-01-16 12:43:22.79	281.32	49.99	-30.3	-32.8	19.6	6.07e-01	0	43	0	191889408	22	4781
2026-01-16 12:43:23.79	282.03	49.84	-30.5	-33.2	19.3	6.06e-01	0	43	0	193462272	22	4943
2026-01-16 12:43:24.78	282.72	49.68	-30.6	-33.5	19.2	6.05e-01	0	43	0	195559424	22	5043
2026-01-16 12:43:25.79	283.42	49.51	-30.8	-34.0	18.7	6.08e-01	0	43	0	197132288	22	5225
2026-01-16 12:43:26.79	284.11	49.35	-30.5	-33.3	19.2	6.07e-01	0	43	0	199229440	22	4968
2026-01-16 12:43:27.79	284.79	49.18	-30.7	-33.9	18.7	6.05e-01	0	43	0	201326592	22	5180
2026-01-16 12:43:28.79	285.46	49.00	-30.5	-33.3	19.1	6.06e-01	0	43	0	202899456	22	4948
2026-01-16 12:43:29.79	286.12	48.83	-30.6	-33.6	19.0	6.06e-01	0	43	0	204996608	22	5059
2026-01-16 12:43:30.79	286.77	48.65	-30.7	-33.8	18.9	6.06e-01	0	43	0	206569472	22	5155
2026-01-16 12:43:31.78	287.41	48.46	-30.7	-33.9	18.8	6.05e-01	0	43	0	208666624	22	5179
2026-01-16 12:43:32.78	288.05	48.28	-30.5	-33.4	19.1	6.05e-01	0	43	0	210239488	22	5007
2026-01-16 12:43:33.79	288.69	48.09	-30.5	-33.2	19.1	6.06e-01	0	43	0	212336640	22	4944
2026-01-16 12:43:34.79	289.32	47.90	-30.6	-33.4	19.1	6.06e-01	0	43	0	214433792	22	5016
2026-01-16 12:43:35.80	289.94	47.70	-30.6	-33.5	19.0	6.05e-01	0	43	0	216006656	22	5034
2026-01-16 12:43:36.80	290.55	47.50	-30.4	-33.1	19.1	6.04e-01	0	42	0	218103808	22	4908
2026-01-16 12:43:37.80	291.15	47.30	-30.7	-33.9	18.7	6.05e-01	0	43	0	219676672	22	5200
2026-01-16 12:43:38.80	291.74	47.10	-30.5	-33.2	19.1	6.08e-01	0	43	0	221773824	22	4927
2026-01-16 12:43:39.80	292.32	46.90	-30.5	-33.3	19.0	6.07e-01	0	43	0	223870976	22	4971
2026-01-16 12:43:40.80	292.90	46.69	-30.6	-33.4	19.1	6.07e-01	0	43	0	225443840	22	5002
2026-01-16 12:43:41.80	293.47	46.48	-30.5	-33.4	19.1	6.06e-01	0	43	0	227540992	22	4986
2026-01-16 12:43:42.80	294.03	46.27	-30.6	-33.6	19.0	6.07e-01	0	42	0	229113856	22	5054
2026-01-16 12:43:43.80	294.59	46.06	-30.6	-33.6	19.0	6.07e-01	0	43	0	231211008	22	5057
2026-01-16 12:43:44.80	295.14	45.85	-30.6	-33.6	19.0	6.06e-01	0	43	0	232783872	22	5071
2026-01-16 12:43:45.80	295.68	45.64	-30.3	-32.8	19.5	6.06e-01	0	43	0	234881024	22	4798
2026-01-16 12:43:46.79	296.20	45.42	-30.4	-32.9	19.4	6.06e-01	0	43	0	236978176	22	4829
2026-01-16 12:43:47.79	296.73	45.20	-30.4	-33.0	19.4	6.07e-01	0	43	0	238551040	22	4856
2026-01-16 12:43:48.79	297.25	44.99	-30.5	-33.2	19.3	6.05e-01	0	43	0	240648192	22	4926
2026-01-16 12:43:49.80	297.76	44.76	-30.3	-32.7	19.6	6.06e-01	0	42	0	242221056	22	4755
2026-01-16 12:43:50.80	298.27	44.54	-30.4	-32.9	19.6	6.07e-01	0	43	0	244318208	22	4818
2026-01-16 12:43:51.81	298.77	44.32	-30.5	-33.3	19.3	6.06e-01	0	43	0	245891072	22	4964
2026-01-16 12:43:52.81	299.26	44.09	-30.3	-32.7	19.7	6.04e-01	0	42	0	247988224	22	4746
2026-01-16 12:43:53.82	299.74	43.87	-30.4	-33.1	19.5	6.08e-01	0	43	0	250085376	22	4877
2026-01-16 12:43:54.83	300.22	43.64	-30.4	-33.0	19.5	6.06e-01	0	42	0	251658240	22	4849
2026-01-16 12:43:55.84	300.70	43.41	-30.3	-32.8	19.6	6.07e-01	0	43	0	253755392	22	4780
2026-01-16 12:43:56.84	301.16	43.19	-30.3	-32.8	19.7	6.06e-01	0	43	0	255328256	22	4781
2026-01-16 12:43:57.85	301.62	42.96	-30.7	-33.8	19.0	6.07e-01	0	43	0	257425408	22	5156
2026-01-16 12:43:58.85	302.07	42.73	-30.7	-33.9	19.0	6.07e-01	0	42	0	259522560	22	5179
2026-01-16 12:43:59.85	302.51	42.50	-30.5	-33.3	19.4	6.08e-01	0	42	0	261095424	22	4962
2026-01-16 12:44:00.85	302.95	42.28	-30.6	-33.5	19.2	6.08e-01	0	43	0	263192576	22	5037
2026-01-16 12:44:01.86	303.39	42.05	-30.8	-33.9	19.0	6.08e-01	0	43	0	264765440	22	5196
2026-01-16 12:44:02.85	303.81	41.82	-30.8	-34.1	18.8	6.08e-01	0	43	0	266862592	22	5255
2026-01-16 12:44:03.85	304.22	41.59	-30.6	-33.6	19.2	6.07e-01	0	43	0	268959744	22	5065
2026-01-16 12:44:04.86	304.64	41.36	-30.9	-34.3	18.8	6.07e-01	0	43	0	270532608	22	5316
2026-01-16 12:44:05.86	305.05	41.13	-31.0	-34.7	18.5	6.07e-01	0	43	0	272629760	22	5501
2026-01-16 12:44:06.87	305.45	40.90	-30.5	-33.2	19.3	6.07e-01	0	43	0	274202624	22	4928
2026-01-16 12:44:07.86	305.84	40.68	-30.4	-33.0	19.5	6.07e-01	0	42	0	276299776	22	4862
2026-01-16 12:44:08.86	306.23	40.45	-30.7	-33.8	19.1	6.07e-01	0	42	0	277872640	22	5127
2026-01-16 12:44:09.87	306.62	40.22	-30.7	-33.9	18.9	6.06e-01	0	43	0	279969792	22	5192
2026-01-16 12:44:10.88	307.00	39.99	-30.5	-33.3	19.3	6.06e-01	0	43	0	282066944	22	4962
2026-01-16 12:44:11.88	307.38	39.76	-30.7	-33.7	19.1	6.06e-01	0	43	0	283639808	22	5093
2026-01-16 12:44:12.88	307.75	39.53	-30.6	-33.6	19.1	6.08e-01	0	43	0	285736960	22	5060
2026-01-16 12:44:13.88	308.11	39.30	-30.6	-33.6	19.2	6.07e-01	0	43	0	287309824	22	5079
2026-01-16 12:44:14.89	308.47	39.07	-30.9	-34.2	18.8	6.08e-01	0	43	0	289406976	22	5290
2026-01-16 12:44:15.88	308.82	38.85	-30.7	-33.9	18.9	6.07e-01	0	43	0	291504128	22	5165
2026-01-16 12:44:16.89	309.17	38.62	-30.8	-34.1	18.8	6.04e-01	0	43	0	293076992	22	5269
2026-01-16 12:44:17.89	309.51	38.40	-31.1	-34.9	18.4	6.07e-01	0	43	0	295174144	22	5566
2026-01-16 12:44:18.89	309.85	38.17	-30.7	-33.3	19.0	6.06e-01	0	43	0	296747008	23	4870
2026-01-16 12:44:19.89	310.19	37.95	-30.5	-32.7	19.4	6.08e-01	0	43	0	298844160	23	4661
2026-01-16 12:44:20.89	310.51	37.72	-30.5	-32.7	19.4	6.05e-01	0	42	0	300417024	23	4638
2026-01-16 12:44:21.89	310.84	37.50	-30.8	-33.5	18.9	6.06e-01	0	43	0	302514176	23	4913
2026-01-16 12:44:22.89	311.16	37.28	-30.7	-33.3	19.0	6.05e-01	0	42	0	304611328	23	4842
2026-01-16 12:44:23.89	311.47	37.05	-30.5	-32.8	19.3	6.04e-01	0	43	0	306184192	23	4689
2026-01-16 12:44:24.89	311.79	36.83	-30.3	-32.8	19.6	6.06e-01	0	43	0	308281344	22	4804
2026-01-16 12:44:25.89	312.09	36.61	-30.4	-33.0	19.5	6.06e-01	0	42	0	309854208	22	4873
2026-01-16 12:44:26.89	312.40	36.39	-30.3	-32.7	19.7	6.06e-01	0	43	0	311951360	22	4766
2026-01-16 12:44:27.90	312.70	36.17	-30.1	-32.2	20.0	6.05e-01	0	42	0	314048512	22	4593
2026-01-16 12:44:28.90	312.99	35.95	-30.0	-31.9	20.1	6.05e-01	0	42	0	315621376	22	4515
2026-01-16 12:44:29.90	313.28	35.73	-29.8	-32.1	20.3	6.08e-01	0	43	0	317718528	21	4672
2026-01-16 12:44:30.90	313.57	35.52	-29.7	-31.8	20.5	6.09e-01	0	43	0	319291392	21	4580
2026-01-16 12:44:31.90	313.85	35.30	-29.7	-31.8	20.5	6.05e-01	0	42	0	321388544	21	4566
2026-01-16 12:44:32.90	314.13	35.08	-29.9	-32.2	20.2	6.06e-01	0	42	0	322961408	21	4699
2026-01-16 12:44:33.90	314.41	34.87	-29.7	-31.9	20.4	6.06e-01	0	43	0	325058560	21	4610
2026-01-16 12:44:34.91	314.68	34.65	-29.8	-31.9	20.4	6.07e-01	0	42	0	327155712	21	4613
2026-01-16 12:44:35.91	314.95	34.44	-29.8	-32.0	20.3	6.04e-01	0	43	0	328728576	21	4652
2026-01-16 12:44:36.90	315.21	34.23	-29.7	-31.8	20.5	6.07e-01	0	43	0	330825728	21	4588
2026-01-16 12:44:37.90	315.48	34.02	-29.7	-31.7	20.5	6.06e-01	0	43	0	332398592	21	4535
2026-01-16 12:44:38.91	315.74	33.81	-29.6	-31.5	20.7	6.07e-01	0	42	0	334495744	21	4469
2026-01-16 12:44:39.91	315.99	33.60	-29.6	-31.5	20.6	6.06e-01	0	42	0	336068608	21	4490
2026-01-16 12:44:40.91	316.24	33.39	-29.4	-31.1	20.9	6.05e-01	0	42	0	338165760	21	4379
2026-01-16 12:44:41.91	316.49	33.18	-29.4	-31.5	20.9	6.06e-01	0	43	0	340262912	20	4594
2026-01-16 12:44:42.90	316.73	32.98	-29.5	-31.8	20.7	6.08e-01	0	43	0	341835776	20	4696
2026-01-16 12:44:43.90	316.98	32.77	-29.3	-31.3	21.0	6.04e-01	0	43	0	343932928	20	4541
2026-01-16 12:44:44.90	317.21	32.57	-29.1	-30.9	21.3	6.07e-01	0	43	0	345505792	20	4394
2026-01-16 12:44:45.91	317.45	32.36	-29.1	-30.9	21.2	6.07e-01	0	43	0	347602944	20	4411
2026-01-16 12:44:46.91	317.69	32.16	-29.1	-30.8	21.3	6.07e-01	0	43	0	349175808	20	4374
2026-01-16 12:44:47.91	317.92	31.96	-29.2	-31.0	21.2	6.05e-01	0	43	0	351272960	20	4449
2026-01-16 12:44:48.90	318.14	31.76	-29.3	-31.3	21.1	6.05e-01	0	43	0	353370112	20	4539
2026-01-16 12:44:49.90	318.36	31.56	-29.3	-31.2	21.1	6.07e-01	0	43	0	354942976	20	4499
2026-01-16 12:44:50.90	318.59	31.36	-29.3	-31.3	21.0	6.05e-01	0	42	0	357040128	20	4520
2026-01-16 12:44:51.90	318.80	31.17	-29.4	-31.6	20.8	6.06e-01	0	43	0	358612992	20	4625
2026-01-16 12:44:52.90	319.02	30.97	-29.3	-31.4	20.9	6.08e-01	0	42	0	360710144	20	4551
2026-01-16 12:44:53.91	319.24	30.77	-29.3	-31.3	21.0	6.05e-01	0	43	0	362807296	20	4551
2026-01-16 12:44:54.91	319.45	30.58	-29.4	-31.6	20.8	6.05e-01	0	43	0	364380160	20	4646
2026-01-16 12:44:55.91	319.66	30.38	-29.3	-31.4	20.9	6.09e-01	0	43	0	366477312	20	4571
2026-01-16 12:44:56.91	319.86	30.19	-29.3	-31.2	21.0	6.04e-01	0	43	0	368050176	20	4515
2026-01-16 12:44:57.92	320.07	30.00	-29.4	-31.7	20.7	6.06e-01	0	43	0	370147328	20	4649
2026-01-16 12:44:58.92	320.27	29.81	-29.4	-31.6	20.8	6.05e-01	0	43	0	371720192	20	4616
2026-01-16 12:44:59.92	320.47	29.62	-29.4	-31.6	20.8	6.05e-01	0	43	0	373817344	20	4638
2026-01-16 12:45:00.92	320.66	29.43	-29.6	-32.0	20.6	6.06e-01	0	43	0	375914496	20	4752
2026-01-16 12:45:01.92	320.86	29.24	-29.7	-32.3	20.4	6.06e-01	0	43	0	377487360	20	4856
2026-01-16 12:45:02.92	321.05	29.05	-29.6	-32.0	20.6	6.08e-01	0	43	0	379584512	20	4765
2026-01-16 12:45:03.92	321.24	28.87	-29.6	-32.1	20.5	6.07e-01	0	43	0	381157376	20	4776
2026-01-16 12:45:04.93	321.43	28.68	-29.7	-32.2	20.4	6.07e-01	0	43	0	383254528	20	4826
2026-01-16 12:45:05.93	321.61	28.50	-29.6	-32.0	20.5	6.05e-01	0	43	0	384827392	20	4766
2026-01-16 12:45:06.94	321.80	28.31	-29.6	-32.1	20.5	6.07e-01	0	43	0	386924544	20	4796
2026-01-16 12:45:07.93	321.98	28.14	-29.6	-32.0	20.5	6.06e-01	0	42	0	389021696	20	4763
2026-01-16 12:45:08.93	322.15	27.95	-29.8	-32.6	20.2	6.06e-01	0	43	0	390594560	20	4949
2026-01-16 12:45:09.94	322.33	27.77	-29.7	-32.4	20.3	6.09e-01	0	43	0	392691712	20	4880
2026-01-16 12:45:10.94	322.51	27.59	-29.9	-32.8	20.1	6.08e-01	0	43	0	394264576	20	5034
2026-01-16 12:45:11.94	322.68	27.42	-29.9	-32.7	20.1	6.06e-01	0	43	0	396361728	20	5008
2026-01-16 12:45:12.94	322.85	27.24	-30.2	-33.0	19.7	6.05e-01	0	43	0	398458880	21	4978
2026-01-16 12:45:13.94	323.02	27.07	-30.0	-32.6	19.9	6.06e-01	0	43	0	400031744	21	4836
2026-01-16 12:45:14.94	323.19	26.89	-30.1	-32.7	19.8	6.06e-01	0	42	0	402128896	21	4891
2026-01-16 12:45:15.94	323.35	26.72	-29.9	-32.4	19.9	6.05e-01	0	43	0	403701760	21	4791
2026-01-16 12:45:16.94	323.52	26.54	-29.9	-32.4	20.0	6.08e-01	0	43	0	405798912	21	4780
2026-01-16 12:45:17.94	323.68	26.37	-30.1	-32.8	19.8	6.06e-01	0	43	0	407896064	21	4903
2026-01-16 12:45:18.95	323.84	26.20	-30.0	-32.6	19.9	6.05e-01	0	43	0	409468928	21	4847
2026-01-16 12:45:19.95	324.00	26.03	-30.0	-32.6	19.9	6.07e-01	0	43	0	411566080	21	4851
2026-01-16 12:45:20.96	324.16	25.86	-29.9	-32.4	20.0	6.07e-01	0	43	0	413138944	21	4797
2026-01-16 12:45:21.95	324.31	25.69	-30.0	-32.5	19.9	6.07e-01	0	42	0	415236096	21	4833
2026-01-16 12:45:22.96	324.46	25.53	-30.2	-33.0	19.6	6.07e-01	0	43	0	416808960	21	4979
2026-01-16 12:45:23.96	324.62	25.36	-30.0	-32.7	19.8	6.06e-01	0	43	0	418906112	21	4868
2026-01-16 12:45:24.96	324.77	25.19	-29.9	-32.3	20.0	6.07e-01	0	43	0	421003264	21	4751
2026-01-16 12:45:25.96	324.91	25.03	-29.9	-32.4	19.9	6.05e-01	0	43	0	422576128	21	4787
2026-01-16 12:45:26.96	325.06	24.87	-30.0	-32.6	19.8	6.08e-01	0	43	0	424673280	21	4868
2026-01-16 12:45:27.96	325.21	24.70	-30.1	-32.8	19.7	6.06e-01	0	43	0	426246144	21	4914
2026-01-16 12:45:28.96	325.35	24.54	-30.0	-32.7	19.7	6.07e-01	0	43	0	428343296	21	4886
2026-01-16 12:45:29.96	325.49	24.38	-30.0	-32.6	19.8	6.03e-01	0	43	0	429916160	21	4864
2026-01-16 12:45:30.96	325.63	24.22	-30.0	-32.7	19.8	6.02e-01	0	43	0	432013312	21	4874
2026-01-16 12:45:31.97	325.77	24.06	-30.1	-32.7	19.7	6.04e-01	0	43	0	434110464	21	4903
2026-01-16 12:45:32.97	325.91	23.90	-30.1	-32.8	19.7	6.04e-01	0	43	0	435683328	21	4917
2026-01-16 12:45:33.98	326.05	23.75	-30.1	-32.9	19.6	6.03e-01	0	43	0	437780480	21	4976
2026-01-16 12:45:34.98	326.18	23.59	-30.0	-32.7	19.7	6.01e-01	0	43	0	439353344	21	4902
2026-01-16 12:45:35.98	326.32	23.44	-30.1	-32.8	19.7	6.05e-01	0	43	0	441450496	21	4940
2026-01-16 12:45:36.99	326.45	23.28	-30.1	-32.8	19.7	6.05e-01	0	43	0	443547648	21	4942
2026-01-16 12:45:37.99	326.58	23.13	-30.1	-33.0	19.5	6.04e-01	0	43	0	445120512	21	4996
2026-01-16 12:45:38.99	326.71	22.97	-30.0	-32.7	19.7	6.05e-01	0	43	0	447217664	21	4883
2026-01-16 12:45:39.99	326.84	22.82	-30.0	-32.5	19.8	6.03e-01	0	43	0	448790528	21	4835
2026-01-16 12:45:40.99	326.97	22.67	-30.0	-32.6	19.8	6.05e-01	0	43	0	450887680	21	4857
2026-01-16 12:45:41.99	327.10	22.52	-29.9	-32.5	19.8	6.03e-01	0	43	0	452984832	21	4820
2026-01-16 12:45:42.99	327.22	22.37	-30.0	-32.6	19.8	6.03e-01	0	43	0	454557696	21	4851
2026-01-16 12:45:43.99	327.34	22.22	-30.0	-32.7	19.7	6.02e-01	0	43	0	456654848	21	4911
2026-01-16 12:45:45.00	327.47	22.07	-30.0	-32.7	19.7	6.04e-01	0	43	0	458227712	21	4885
2026-01-16 12:45:46.00	327.59	21.93	-30.0	-32.7	19.7	6.02e-01	0	43	0	460324864	21	4910
2026-01-16 12:45:47.01	327.71	21.78	-30.2	-33.3	19.3	6.02e-01	0	43	0	461897728	21	5106
2026-01-16 12:45:48.00	327.83	21.64	-30.0	-32.7	19.6	6.02e-01	0	43	0	463994880	21	4911
2026-01-16 12:45:49.01	327.95	21.49	-29.9	-32.4	19.8	6.04e-01	0	43	0	466092032	21	4811
2026-01-16 12:45:50.01	328.06	21.35	-29.8	-32.3	19.9	6.04e-01	0	43	0	467664896	21	4752
2026-01-16 12:45:51.02	328.18	21.20	-30.0	-32.5	19.7	6.03e-01	0	43	0	469762048	21	4845
2026-01-16 12:45:52.02	328.30	21.06	-29.8	-32.1	20.0	6.04e-01	0	43	0	471334912	21	4705
2026-01-16 12:45:53.02	328.41	20.92	-29.8	-32.1	20.0	6.02e-01	0	43	0	473432064	21	4691
2026-01-16 12:45:54.02	328.52	20.78	-29.9	-32.3	19.9	6.01e-01	0	43	0	475004928	21	4763
2026-01-16 12:45:55.02	328.63	20.64	-29.8	-32.0	20.0	6.03e-01	0	43	0	477102080	21	4675
2026-01-16 12:45:56.02	328.74	20.50	-29.7	-31.9	20.1	6.01e-01	0	43	0	479199232	21	4633
2026-01-16 12:45:57.01	328.85	20.36	-29.9	-32.3	19.9	6.04e-01	0	43	0	480772096	21	4777
2026-01-16 12:45:58.02	328.96	20.22	-29.8	-32.1	20.0	6.03e-01	0	43	0	482869248	21	4711
2026-01-16 12:45:59.01	329.07	20.09	-29.8	-32.2	19.9	6.06e-01	0	43	0	484442112	21	4725
2026-01-16 12:46:00.01	329.17	19.95	-29.9	-32.4	19.8	6.04e-01	0	43	0	486539264	21	4803
2026-01-16 12:46:01.02	329.28	19.81	-29.8	-32.1	19.9	6.04e-01	0	43	0	488112128	21	4715
2026-01-16 12:46:02.01	329.38	19.68	-29.8	-32.1	20.0	6.05e-01	0	43	0	490209280	21	4703
2026-01-16 12:46:03.02	329.49	19.55	-29.8	-32.1	20.0	6.06e-01	0	43	0	492306432	21	4711
2026-01-16 12:46:04.02	329.59	19.41	-29.8	-32.0	20.0	6.02e-01	0	43	0	493879296	21	4687
2026-01-16 12:46:05.02	329.69	19.28	-29.9	-32.4	19.8	6.03e-01	0	43	0	495976448	21	4805
2026-01-16 12:46:06.03	329.80	19.15	-29.7	-31.8	20.1	6.04e-01	0	43	0	497549312	21	4610
2026-01-16 12:46:07.03	329.90	19.02	-29.7	-31.9	20.0	6.03e-01	0	43	0	499646464	21	4646
2026-01-16 12:46:08.03	330.00	18.89	-29.7	-31.9	20.1	6.04e-01	0	43	0	501743616	21	4647
2026-01-16 12:46:09.03	330.09	18.76	-29.8	-32.2	19.8	6.03e-01	0	43	0	503316480	21	4759
2026-01-16 12:46:10.03	330.19	18.63	-29.7	-32.0	20.0	6.03e-01	0	43	0	505413632	21	4683
2026-01-16 12:46:11.04	330.29	18.50	-29.7	-31.9	20.0	6.04e-01	0	43	0	506986496	21	4641
2026-01-16 12:46:12.04	330.39	18.37	-29.8	-32.2	19.9	6.03e-01	0	43	0	509083648	21	4727
2026-01-16 12:46:13.04	330.48	18.24	-30.0	-32.8	19.5	6.04e-01	0	43	0	511180800	21	4952
2026-01-16 12:46:14.05	330.58	18.11	-29.9	-32.5	19.7	6.03e-01	0	43	0	512753664	21	4838
2026-01-16 12:46:15.05	330.67	17.99	-29.8	-32.2	19.8	6.03e-01	0	43	0	514850816	21	4758
2026-01-16 12:46:16.05	330.76	17.86	-29.8	-32.1	19.9	6.05e-01	0	43	0	516423680	21	4710
2026-01-16 12:46:17.05	330.85	17.74	-29.9	-32.5	19.6	6.04e-01	0	43	0	518520832	21	4842
2026-01-16 12:46:18.04	330.94	17.62	-29.8	-32.2	19.8	6.05e-01	0	43	0	520093696	21	4755
2026-01-16 12:46:19.05	331.04	17.49	-29.8	-32.1	19.8	6.06e-01	0	43	0	522190848	21	4720
2026-01-16 12:46:20.06	331.13	17.37	-29.8	-32.3	19.7	6.02e-01	0	43	0	524288000	21	4790
2026-01-16 12:46:21.06	331.21	17.25	-29.7	-32.0	19.9	6.03e-01	0	43	0	525860864	21	4691
2026-01-16 12:46:22.06	331.30	17.13	-29.8	-32.2	19.7	6.01e-01	0	43	0	527958016	21	4765
2026-01-16 12:46:23.07	331.39	17.00	-29.7	-32.1	19.8	6.05e-01	0	43	0	529530880	21	4708
2026-01-16 12:46:24.07	331.48	16.88	-29.8	-32.2	19.8	6.04e-01	0	43	0	531628032	21	4739
2026-01-16 12:46:25.08	331.57	16.76	-29.7	-31.9	19.9	6.05e-01	0	43	0	533200896	21	4668
2026-01-16 12:46:26.08	331.65	16.64	-29.7	-31.9	19.9	6.02e-01	0	43	0	535298048	21	4658
2026-01-16 12:46:27.07	331.73	16.53	-29.8	-32.3	19.7	6.02e-01	0	43	0	537395200	21	4768
2026-01-16 12:46:28.07	331.82	16.41	-29.7	-31.9	19.9	6.03e-01	0	43	0	538968064	21	4655
2026-01-16 12:46:29.07	331.90	16.29	-29.7	-32.0	19.8	6.03e-01	0	43	0	541065216	21	4698
2026-01-16 12:46:30.07	331.99	16.17	-29.7	-32.0	19.9	6.02e-01	0	43	0	542638080	21	4694
2026-01-16 12:46:31.08	332.07	16.06	-29.8	-32.2	19.8	6.05e-01	0	43	0	544735232	21	4753
2026-01-16 12:46:32.08	332.15	15.94	-29.8	-32.3	19.6	6.04e-01	0	43	0	546832384	21	4799
2026-01-16 12:46:33.07	332.23	15.83	-29.8	-32.3	19.6	6.00e-01	0	43	0	548405248	21	4796
2026-01-16 12:46:34.08	332.31	15.71	-29.9	-32.6	19.5	6.03e-01	0	43	0	550502400	21	4891
2026-01-16 12:46:35.08	332.39	15.60	-29.8	-32.3	19.6	6.01e-01	0	42	0	552075264	21	4808
2026-01-16 12:46:36.08	332.47	15.48	-29.9	-32.5	19.6	6.03e-01	0	43	0	554172416	21	4843
2026-01-16 12:46:37.09	332.55	15.37	-29.9	-32.4	19.6	6.02e-01	0	43	0	556269568	21	4824
2026-01-16 12:46:38.09	332.63	15.26	-30.0	-32.7	19.4	6.03e-01	0	43	0	557842432	21	4933
2026-01-16 12:46:39.10	332.70	15.15	-29.9	-32.5	19.5	6.04e-01	0	43	0	559939584	21	4843
2026-01-16 12:46:40.11	332.78	15.03	-30.0	-32.8	19.3	6.03e-01	0	43	0	561512448	21	4968
2026-01-16 12:46:41.11	332.86	14.92	-29.8	-32.4	19.6	6.03e-01	0	43	0	563609600	21	4817
2026-01-16 12:46:42.12	332.93	14.81	-29.7	-32.0	19.8	6.00e-01	0	43	0	565182464	21	4700
2026-01-16 12:46:43.13	333.01	14.70	-29.6	-31.8	19.9	6.03e-01	0	43	0	567279616	21	4631
2026-01-16 12:46:44.13	333.08	14.59	-29.7	-32.1	19.7	6.04e-01	0	43	0	569376768	21	4708
2026-01-16 12:46:45.13	333.16	14.48	-29.7	-32.1	19.8	6.02e-01	0	43	0	570949632	21	4715
2026-01-16 12:46:46.13	333.23	14.37	-29.7	-32.1	19.7	6.05e-01	0	42	0	573046784	21	4737
2026-01-16 12:46:47.14	333.30	14.27	-29.8	-32.2	19.7	6.04e-01	0	43	0	575143936	21	4753
2026-01-16 12:46:48.14	333.38	14.16	-29.7	-32.1	19.7	6.03e-01	0	43	0	576716800	21	4730
2026-01-16 12:46:49.14	333.45	14.05	-29.7	-32.0	19.8	6.03e-01	0	42	0	578813952	21	4701
2026-01-16 12:46:50.14	333.52	13.95	-29.8	-32.3	19.5	6.01e-01	0	42	0	580386816	21	4801
2026-01-16 12:46:51.14	333.59	13.84	-29.7	-32.1	19.7	6.02e-01	0	43	0	582483968	21	4741
2026-01-16 12:46:52.14	333.66	13.73	-29.7	-32.1	19.7	6.03e-01	0	43	0	584056832	21	4744
2026-01-16 12:46:53.15	333.73	13.63	-29.8	-32.2	19.6	6.02e-01	0	43	0	586153984	21	4779
2026-01-16 12:46:54.15	333.80	13.52	-29.7	-32.1	19.6	6.02e-01	0	43	0	588251136	21	4723
2026-01-16 12:46:55.16	333.87	13.42	-29.8	-32.3	19.5	6.03e-01	0	42	0	589824000	21	4813
2026-01-16 12:46:56.16	333.94	13.32	-30.0	-32.8	19.2	6.02e-01	0	43	0	591921152	21	4980
2026-01-16 12:46:57.16	334.01	13.21	-29.9	-32.5	19.4	6.02e-01	0	43	0	593494016	21	4876
2026-01-16 12:46:58.17	334.07	13.11	-29.9	-32.7	19.3	6.03e-01	0	43	0	595591168	21	4939
2026-01-16 12:46:59.17	334.14	13.01	-29.9	-32.7	19.3	6.05e-01	0	43	0	597164032	21	4942
2026-01-16 12:47:00.16	334.21	12.91	-30.1	-33.1	19.0	6.04e-01	0	43	0	599261184	21	5075
2026-01-16 12:47:01.17	334.27	12.80	-29.9	-32.7	19.2	6.05e-01	0	43	0	601358336	21	4952
2026-01-16 12:47:02.17	334.34	12.70	-30.0	-32.9	19.1	6.03e-01	0	43	0	602931200	21	5031
2026-01-16 12:47:03.17	334.40	12.60	-29.9	-32.6	19.3	6.03e-01	0	42	0	605028352	21	4907
2026-01-16 12:47:04.17	334.47	12.50	-30.0	-32.8	19.2	6.02e-01	0	43	0	606601216	21	4971
2026-01-16 12:47:05.17	334.53	12.40	-30.0	-32.8	19.1	6.01e-01	0	43	0	608698368	21	5002
2026-01-16 12:47:06.17	334.60	12.31	-29.9	-32.6	19.2	6.04e-01	0	43	0	610271232	21	4914
2026-01-16 12:47:07.18	334.66	12.21	-30.0	-32.8	19.1	6.05e-01	0	43	0	612368384	21	4988
2026-01-16 12:47:08.18	334.72	12.11	-29.9	-32.7	19.2	6.04e-01	0	43	0	614465536	21	4947
2026-01-16 12:47:09.18	334.78	12.01	-30.0	-32.8	19.1	6.04e-01	0	43	0	616038400	21	4982
2026-01-16 12:47:10.18	334.85	11.91	-30.0	-32.8	19.1	6.04e-01	0	43	0	618135552	21	4999
2026-01-16 12:47:11.19	334.91	11.81	-30.0	-33.0	18.9	6.02e-01	0	43	0	620232704	21	5065
2026-01-16 12:47:12.19	334.97	11.72	-30.1	-33.1	18.8	6.02e-01	0	43	0	621805568	21	5104
2026-01-16 12:47:13.19	335.03	11.62	-30.1	-33.3	18.8	6.04e-01	0	42	0	623902720	21	5158
2026-01-16 12:47:14.20	335.09	11.53	-30.2	-33.6	18.6	6.03e-01	0	43	0	625475584	21	5277
2026-01-16 12:47:15.20	335.15	11.43	-30.2	-33.3	18.7	6.04e-01	0	43	0	627572736	21	5191
2026-01-16 12:47:16.20	335.21	11.34	-30.0	-33.0	18.9	6.05e-01	0	42	0	629145600	21	5060
2026-01-16 12:47:17.21	335.27	11.24	-30.0	-32.9	19.0	6.04e-01	0	43	0	631242752	21	5031
2026-01-16 12:47:18.20	335.33	11.15	-30.0	-33.0	18.9	6.03e-01	0	43	0	633339904	21	5069
2026-01-16 12:47:19.20	335.39	11.05	-30.1	-33.1	18.8	6.02e-01	0	43	0	634912768	21	5120
2026-01-16 12:47:20.20	335.45	10.96	-30.1	-33.2	18.8	6.02e-01	0	43	0	637009920	21	5148
2026-01-16 12:47:21.20	335.50	10.87	-30.2	-33.5	18.6	6.02e-01	0	43	0	638582784	21	5266
2026-01-16 12:47:22.20	335.56	10.77	-30.3	-33.8	18.3	6.02e-01	0	43	0	640679936	21	5391
2026-01-16 12:47:23.19	335.62	10.68	-30.1	-33.2	18.7	6.01e-01	0	43	0	642252800	21	5158
2026-01-16 12:47:24.19	335.67	10.59	-30.1	-33.3	18.7	6.03e-01	0	43	0	644349952	21	5164
2026-01-16 12:47:25.20	335.73	10.50	-30.2	-33.6	18.5	6.02e-01	0	43	0	646447104	21	5294
2026-01-16 12:47:26.20	335.79	10.41	-30.4	-33.9	18.3	6.03e-01	0	43	0	648019968	21	5427
2026-01-16 12:47:27.20	335.84	10.32	-30.2	-33.6	18.5	6.05e-01	0	43	0	650117120	21	5292
2026-01-16 12:47:28.19	335.90	10.23	-30.1	-33.2	18.8	6.04e-01	0	43	0	651689984	21	5137
2026-01-16 12:47:29.20	335.95	10.13	-30.2	-33.5	18.5	6.03e-01	0	43	0	653787136	21	5246
2026-01-16 12:47:30.21	336.01	10.04	-30.3	-33.7	18.4	6.03e-01	0	43	0	655360000	21	5334
2026-01-16 12:47:31.20	336.06	9.96	-30.3	-33.7	18.4	6.02e-01	0	43	0	657457152	21	5332
2026-01-16 12:47:32.21	336.12	9.87	-30.5	-34.2	18.1	6.02e-01	0	43	0	659554304	21	5558
2026-01-16 12:47:33.20	336.17	9.78	-30.3	-33.8	18.3	6.03e-01	0	43	0	661127168	21	5372
2026-01-16 12:47:34.20	336.22	9.69	-30.1	-33.2	18.7	6.01e-01	0	43	0	663224320	21	5155
2026-01-16 12:47:35.21	336.28	9.60	-30.2	-33.5	18.5	6.03e-01	0	43	0	664797184	21	5280
2026-01-16 12:47:36.21	336.33	9.51	-30.2	-33.6	18.4	6.03e-01	0	43	0	666894336	21	5307
2026-01-16 12:47:37.21	336.38	9.42	-30.3	-33.9	18.2	6.03e-01	0	43	0	668991488	21	5413
2026-01-16 12:47:38.21	336.43	9.34	-30.1	-33.4	18.6	6.05e-01	0	43	0	670564352	21	5233
2026-01-16 12:47:39.22	336.49	9.25	-30.3	-33.8	18.3	6.02e-01	0	43	0	672661504	21	5371
2026-01-16 12:47:40.22	336.54	9.16	-30.3	-33.9	18.2	6.04e-01	0	43	0	674234368	21	5450
2026-01-16 12:47:41.21	336.59	9.08	-30.4	-34.1	18.0	6.04e-01	0	43	0	676331520	21	5533
2026-01-16 12:47:42.22	336.64	8.99	-30.3	-33.7	18.3	6.03e-01	0	43	0	677904384	21	5363
2026-01-16 12:47:43.22	336.69	8.91	-30.3	-33.7	18.3	6.02e-01	0	43	0	680001536	21	5365
2026-01-16 12:47:44.23	336.74	8.82	-30.3	-33.9	18.1	6.03e-01	0	43	0	682098688	21	5448
2026-01-16 12:47:45.22	336.79	8.74	-30.4	-34.3	17.9	6.04e-01	0	43	0	683671552	21	5593
2026-01-16 12:47:46.22	336.84	8.65	-30.7	-34.4	17.5	6.01e-01	0	43	0	685768704	22	5543
2026-01-16 12:47:47.23	336.89	8.57	-30.4	-33.6	18.0	6.03e-01	0	43	0	687341568	22	5221
2026-01-16 12:47:48.23	336.94	8.48	-30.5	-33.9	17.9	6.01e-01	0	43	0	689438720	22	5313
2026-01-16 12:47:49.23	336.99	8.40	-30.3	-33.4	18.2	6.02e-01	0	43	0	691011584	22	5148
2026-01-16 12:47:50.23	337.04	8.31	-30.4	-33.7	18.0	6.03e-01	0	42	0	693108736	22	5242
2026-01-16 12:47:51.23	337.08	8.23	-30.5	-33.9	17.9	6.02e-01	0	43	0	695205888	22	5312
2026-01-16 12:47:52.23	337.13	8.15	-30.4	-33.7	17.9	6.04e-01	0	43	0	696778752	22	5267
2026-01-16 12:47:53.23	337.18	8.07	-30.5	-34.0	17.7	6.01e-01	0	42	0	698875904	22	5372
2026-01-16 12:47:54.24	337.23	7.98	-30.4	-33.7	17.9	6.05e-01	0	43	0	700448768	22	5250
2026-01-16 12:47:55.24	337.28	7.90	-30.7	-34.5	17.4	6.04e-01	0	43	0	702545920	22	5589
2026-01-16 12:47:56.24	337.32	7.82	-30.6	-34.2	17.6	6.04e-01	0	43	0	704643072	22	5478
2026-01-16 12:47:57.23	337.37	7.74	-30.7	-34.6	17.3	6.03e-01	0	43	0	706215936	22	5623
2026-01-16 12:47:58.24	337.42	7.66	-30.6	-34.2	17.6	6.01e-01	0	43	0	708313088	22	5474
2026-01-16 12:47:59.23	337.46	7.58	-30.5	-33.8	17.8	6.04e-01	0	43	0	709885952	22	5314
2026-01-16 12:48:00.23	337.51	7.50	-30.6	-34.3	17.5	6.03e-01	0	43	0	711983104	22	5521
2026-01-16 12:48:01.23	337.55	7.42	-30.7	-34.7	17.2	6.01e-01	0	43	0	714080256	22	5676
2026-01-16 12:48:02.24	337.60	7.33	-30.6	-34.2	17.5	6.00e-01	0	43	0	715653120	22	5489
2026-01-16 12:48:03.25	337.64	7.25	-30.7	-34.6	17.3	6.03e-01	0	43	0	717750272	22	5624
2026-01-16 12:48:04.25	337.69	7.17	-30.8	-34.8	17.2	6.03e-01	0	43	0	719323136	22	5723
2026-01-16 12:48:05.25	337.73	7.10	-30.9	-35.3	17.2	6.02e-01	0	43	0	721420288	22	5951
2026-01-16 12:48:06.26	337.78	7.02	-33.9	-53.2	3.8	7.46e-01	0	43	104	721944576	28	33478
2026-01-16 12:48:07.26	337.82	6.94	-34.1	-53.3	3.9	7.47e-01	0	43	104	721944576	29	32590
2026-01-16 12:48:08.27	337.87	6.86	-34.3	-53.7	3.8	7.44e-01	0	43	104	721944576	29	33377

#Closed at: 2026-01-16 12:48:08
#Recorded file [721 MB]: D:/data/31010_260116_154140.dat