passes_logs/2026/01/16/R2M6_AANII_01/R2M6_AANII_01__20260116_002639_NOAA_21_JPSS-2_rec.log

#Pass ID: 20260116_002639_NOAA 21 (JPSS-2)
#Satellite: NOAA 21 (JPSS-2)
#Configuration: NOAA 21
#almurnet v.1.7.20240730
#Start time: 2026-01-16 00:26:40

#Version: 2.2.20231116
#Station: R2M6_AANII_01
#Location: 30.233357 lon 59.946436 lat
#TLE: 1 54234U 22150A   26015.43562254  .00000028  00000+0  34201-4 0  9996
#TLE: 2 54234  98.7498 316.3301 0000635 288.4972  71.6135 14.19534768164873

#Time	Az	El	Level	Level2	SNR	BER	BlckErr	Temp	State	Recorded	gain1	gain2
2026-01-16 00:26:40.39	17.57	7.06	-31.1	-36.4	4.5	1.41e+00	0	41	0	0	22	6599
2026-01-16 00:26:41.38	17.56	7.14	-31.5	-37.2	4.4	1.43e+00	0	41	104	0	23	6951
2026-01-16 00:26:42.39	17.56	7.22	-31.4	-36.6	7.4	1.06e-01	0	41	0	0	22	6551
2026-01-16 00:26:43.39	17.56	7.30	-31.5	-36.5	7.1	1.55e-01	0	41	0	2097152	23	6387
2026-01-16 00:26:44.38	17.56	7.37	-31.2	-35.8	8.0	6.51e-02	0	41	0	5242880	22	6112
2026-01-16 00:26:45.38	17.56	7.45	-31.2	-35.9	7.9	6.70e-02	0	41	0	8388608	22	6156
2026-01-16 00:26:46.38	17.55	7.53	-31.3	-36.1	7.8	8.12e-02	0	41	0	11534336	22	6245
2026-01-16 00:26:47.38	17.55	7.61	-31.4	-36.3	7.6	9.59e-02	0	41	0	14680064	22	6396
2026-01-16 00:26:48.38	17.55	7.69	-31.4	-36.6	7.5	9.36e-02	0	41	0	17825792	22	6516
2026-01-16 00:26:49.38	17.55	7.76	-31.5	-36.3	7.3	1.26e-01	0	42	0	20971520	23	6288
2026-01-16 00:26:50.39	17.55	7.84	-31.3	-36.0	7.9	9.00e-02	0	41	0	24117248	22	6228
2026-01-16 00:26:51.39	17.54	7.92	-31.1	-35.4	8.3	5.85e-02	0	41	0	27262976	22	5914
2026-01-16 00:26:52.39	17.54	8.00	-30.8	-34.8	9.1	2.90e-02	0	41	0	30408704	21	5753
2026-01-16 00:26:53.39	17.54	8.08	-30.7	-34.5	9.3	2.02e-02	0	41	0	33554432	21	5623
2026-01-16 00:26:54.38	17.54	8.16	-30.5	-33.9	9.7	1.19e-02	0	42	0	36700160	21	5354
2026-01-16 00:26:55.39	17.53	8.24	-30.3	-34.0	10.1	7.56e-03	0	42	0	39845888	20	5483
2026-01-16 00:26:56.40	17.53	8.33	-30.3	-34.0	10.0	7.23e-03	0	41	0	42991616	20	5484
2026-01-16 00:26:57.39	17.53	8.41	-30.4	-34.2	9.9	5.99e-03	0	42	0	46137344	20	5580
2026-01-16 00:26:58.38	17.53	8.49	-30.6	-34.2	9.6	1.77e-02	0	42	0	49283072	21	5463
2026-01-16 00:26:59.38	17.53	8.57	-30.0	-33.1	10.6	3.92e-03	0	42	0	52428800	20	5147
2026-01-16 00:27:00.38	17.52	8.65	-29.7	-32.5	11.5	1.05e-03	0	42	0	55574528	19	5021
2026-01-16 00:27:01.37	17.52	8.73	-29.5	-32.2	11.7	4.45e-03	0	42	0	58720256	19	4913
2026-01-16 00:27:02.37	17.52	8.81	-29.3	-32.0	12.2	2.84e-04	0	42	0	61865984	18	4952
2026-01-16 00:27:03.37	17.51	8.90	-29.5	-32.1	11.8	5.61e-04	0	42	0	65011712	19	4848
2026-01-16 00:27:04.37	17.51	8.98	-29.3	-32.1	12.2	1.98e-04	0	42	0	68157440	18	4960
2026-01-16 00:27:05.37	17.51	9.06	-29.3	-32.0	12.2	2.15e-04	0	42	0	71303168	18	4931
2026-01-16 00:27:06.38	17.51	9.15	-29.1	-31.6	12.5	1.23e-04	0	42	0	74448896	18	4804
2026-01-16 00:27:07.38	17.50	9.23	-29.1	-31.5	12.5	1.18e-04	0	42	0	77594624	18	4759
2026-01-16 00:27:08.39	17.50	9.31	-28.9	-31.6	12.8	7.47e-05	0	42	0	80740352	17	4910
2026-01-16 00:27:09.40	17.50	9.40	-29.1	-31.6	12.5	1.12e-04	0	42	0	83886080	18	4795
2026-01-16 00:27:10.40	17.50	9.48	-29.0	-31.3	12.7	8.46e-05	0	42	0	87031808	18	4683
2026-01-16 00:27:11.40	17.49	9.57	-29.0	-31.7	12.7	7.01e-05	0	42	0	90177536	17	4953
2026-01-16 00:27:12.41	17.49	9.65	-28.9	-31.1	12.9	5.11e-05	0	42	0	93323264	18	4624
2026-01-16 00:27:13.40	17.49	9.74	-28.8	-31.3	13.0	4.19e-05	0	42	0	96468992	17	4814
2026-01-16 00:27:14.41	17.48	9.83	-28.7	-31.1	13.2	3.81e-05	0	42	0	99614720	17	4743
2026-01-16 00:27:15.42	17.48	9.91	-28.7	-31.0	13.2	1.37e-05	0	42	0	102760448	17	4714
2026-01-16 00:27:16.42	17.48	10.00	-28.8	-31.3	13.1	2.36e-05	0	42	0	105906176	17	4800
2026-01-16 00:27:17.42	17.47	10.08	-28.9	-31.1	12.9	5.18e-05	0	42	0	109051904	18	4603
2026-01-16 00:27:18.43	17.47	10.17	-28.7	-31.1	13.2	3.20e-05	0	42	0	112197632	17	4728
2026-01-16 00:27:19.43	17.47	10.26	-28.7	-31.0	13.3	1.60e-05	0	42	0	115343360	17	4694
2026-01-16 00:27:20.43	17.46	10.35	-28.8	-31.2	13.2	2.28e-05	0	42	0	118489088	17	4762
2026-01-16 00:27:21.43	17.46	10.44	-28.7	-30.9	13.3	1.37e-05	0	42	0	121634816	17	4678
2026-01-16 00:27:22.43	17.46	10.52	-28.7	-31.0	13.3	2.05e-05	0	42	0	124780544	17	4699
2026-01-16 00:27:23.44	17.45	10.61	-28.8	-31.2	13.2	2.74e-05	0	42	0	127926272	17	4746
2026-01-16 00:27:24.44	17.45	10.70	-28.8	-31.2	13.2	2.05e-05	0	42	0	131072000	17	4765
2026-01-16 00:27:25.45	17.45	10.79	-28.7	-31.1	13.2	2.44e-05	0	42	0	134217728	17	4734
2026-01-16 00:27:26.45	17.44	10.88	-28.6	-30.7	13.5	1.44e-05	0	42	0	137363456	17	4593
2026-01-16 00:27:27.45	17.44	10.97	-28.6	-30.7	13.5	1.14e-05	0	42	0	140509184	17	4593
2026-01-16 00:27:28.44	17.44	11.06	-28.6	-30.9	13.3	9.10e-06	0	42	0	143654912	17	4665
2026-01-16 00:27:29.44	17.43	11.15	-28.7	-31.0	13.3	2.13e-05	0	42	0	146800640	17	4687
2026-01-16 00:27:30.45	17.43	11.24	-28.5	-30.4	13.7	7.60e-06	0	42	0	149946368	17	4517
2026-01-16 00:27:31.45	17.42	11.33	-28.4	-30.8	13.7	4.50e-06	0	42	0	153092096	16	4752
2026-01-16 00:27:32.45	17.42	11.42	-28.5	-30.6	13.6	8.30e-06	0	42	0	156237824	17	4557
2026-01-16 00:27:33.45	17.42	11.52	-28.7	-31.1	13.3	1.90e-05	0	42	0	159383552	17	4723
2026-01-16 00:27:34.45	17.41	11.61	-28.8	-31.1	13.3	2.36e-05	0	43	0	162529280	17	4739
2026-01-16 00:27:35.45	17.41	11.70	-28.7	-30.9	13.4	1.52e-05	0	42	0	165675008	17	4663
2026-01-16 00:27:36.45	17.40	11.79	-28.4	-30.3	13.8	5.30e-06	0	42	0	168820736	17	4461
2026-01-16 00:27:37.45	17.40	11.89	-28.4	-30.8	13.8	3.80e-06	0	43	0	171966464	16	4755
2026-01-16 00:27:38.46	17.40	11.98	-28.5	-30.6	13.6	7.60e-06	0	42	0	175112192	17	4565
2026-01-16 00:27:39.46	17.39	12.08	-28.4	-30.2	13.9	5.30e-06	0	43	0	178257920	17	4446
2026-01-16 00:27:40.46	17.39	12.17	-28.4	-30.7	13.9	2.20e-06	0	42	0	181403648	16	4706
2026-01-16 00:27:41.46	17.38	12.26	-28.3	-30.6	13.9	3.00e-06	0	42	0	184549376	16	4663
2026-01-16 00:27:42.47	17.38	12.36	-28.5	-30.9	13.7	5.30e-06	0	42	0	187695104	16	4787
2026-01-16 00:27:43.46	17.37	12.45	-28.4	-30.7	13.9	2.20e-06	0	42	0	190840832	16	4696
2026-01-16 00:27:44.46	17.37	12.55	-28.5	-30.5	13.7	6.10e-06	0	43	0	193986560	17	4531
2026-01-16 00:27:45.47	17.36	12.65	-28.8	-31.2	13.3	2.05e-05	0	43	0	197132288	17	4764
2026-01-16 00:27:46.47	17.36	12.74	-29.0	-31.3	13.0	5.34e-05	0	43	0	200278016	18	4673
2026-01-16 00:27:47.47	17.36	12.84	-28.7	-30.9	13.5	1.44e-05	0	42	0	203423744	17	4663
2026-01-16 00:27:48.47	17.35	12.94	-28.4	-30.3	13.9	2.20e-06	0	42	0	205520896	17	4458
2026-01-16 00:27:49.46	17.35	13.03	-28.3	-30.4	14.1	7.00e-07	0	42	0	208666624	16	4603
2026-01-16 00:27:50.47	17.34	13.13	-28.1	-30.1	14.3	7.00e-07	0	43	0	211812352	16	4528
2026-01-16 00:27:51.47	17.34	13.23	-28.1	-30.0	14.3	1.50e-06	0	43	0	214958080	16	4474
2026-01-16 00:27:52.47	17.33	13.33	-27.9	-30.2	14.3	0.00e+00	0	43	0	218103808	15	4662
2026-01-16 00:27:53.47	17.33	13.43	-26.9	-29.0	14.1	0.00e+00	0	43	0	221249536	15	4606
2026-01-16 00:27:54.47	17.32	13.53	-27.8	-29.9	14.5	7.00e-07	0	43	0	224395264	15	4575
2026-01-16 00:27:55.47	17.32	13.63	-27.8	-29.8	14.0	0.00e+00	0	43	0	227540992	15	4539
2026-01-16 00:27:56.47	17.31	13.73	-27.8	-29.8	14.5	7.00e-07	0	43	0	230686720	15	4553
2026-01-16 00:27:57.47	17.30	13.83	-26.9	-28.9	14.3	1.50e-06	0	43	0	233832448	15	4545
2026-01-16 00:27:58.47	17.30	13.93	-27.8	-29.9	14.1	1.50e-06	0	43	0	236978176	15	4578
2026-01-16 00:27:59.49	17.29	14.04	-27.7	-29.7	12.9	0.00e+00	0	43	0	240123904	15	4507
2026-01-16 00:28:00.48	17.29	14.14	-27.9	-30.1	14.2	7.00e-07	0	43	0	243269632	15	4638
2026-01-16 00:28:01.48	17.28	14.24	-27.8	-30.0	14.5	7.00e-07	0	43	0	246415360	15	4599
2026-01-16 00:28:02.48	17.28	14.34	-27.8	-29.9	14.5	4.89e-03	0	43	0	249561088	15	4586
2026-01-16 00:28:03.48	17.27	14.45	-27.8	-30.0	14.5	0.00e+00	0	43	0	252706816	15	4596
2026-01-16 00:28:04.48	17.27	14.55	-27.9	-30.0	14.5	7.00e-07	0	43	0	255852544	15	4598
2026-01-16 00:28:05.48	17.26	14.65	-27.7	-29.7	14.7	7.00e-07	0	43	0	258998272	15	4507
2026-01-16 00:28:06.48	17.25	14.76	-27.7	-29.5	14.8	0.00e+00	0	43	0	262144000	15	4463
2026-01-16 00:28:07.48	17.25	14.86	-27.7	-29.5	14.8	1.05e-03	0	43	0	265289728	15	4463
2026-01-16 00:28:08.47	17.24	14.97	-27.7	-29.6	14.7	0.00e+00	0	43	0	268435456	15	4494
2026-01-16 00:28:09.47	17.24	15.08	-27.8	-29.8	14.7	0.00e+00	0	43	0	271581184	15	4530
2026-01-16 00:28:10.48	17.23	15.18	-27.8	-29.8	14.7	0.00e+00	0	43	0	274726912	15	4549
2026-01-16 00:28:11.49	17.22	15.29	-27.6	-29.4	14.9	2.04e-03	0	43	0	277872640	15	4416
2026-01-16 00:28:12.49	17.22	15.40	-27.4	-29.5	15.1	4.13e-03	0	43	0	281018368	14	4566
2026-01-16 00:28:13.49	17.21	15.51	-27.5	-29.6	15.1	9.44e-04	0	43	0	284164096	14	4598
2026-01-16 00:28:14.48	17.20	15.61	-27.5	-29.2	15.0	0.00e+00	0	43	0	287309824	15	4368
2026-01-16 00:28:15.48	17.20	15.72	-27.6	-29.3	15.0	0.00e+00	0	43	0	290455552	15	4407
2026-01-16 00:28:16.49	17.19	15.83	-27.5	-29.2	15.1	9.83e-04	0	43	0	293601280	15	4364
2026-01-16 00:28:17.49	17.18	15.94	-27.5	-29.3	15.0	4.38e-03	0	43	0	296747008	15	4383
2026-01-16 00:28:18.49	17.18	16.05	-27.6	-29.3	15.0	4.25e-03	0	43	0	299892736	15	4403
2026-01-16 00:28:19.49	17.17	16.17	-27.6	-29.3	15.0	1.02e-03	0	43	0	303038464	15	4401
2026-01-16 00:28:20.49	17.16	16.28	-27.6	-29.4	15.0	0.00e+00	0	43	0	306184192	15	4413
2026-01-16 00:28:21.49	17.16	16.39	-27.6	-29.5	14.9	4.12e-03	0	43	0	309329920	15	4446
2026-01-16 00:28:22.49	17.15	16.50	-27.6	-29.5	14.9	1.03e-03	0	43	0	312475648	15	4452
2026-01-16 00:28:23.49	17.14	16.61	-27.7	-29.6	14.9	4.66e-03	0	43	0	315621376	15	4482
2026-01-16 00:28:24.50	17.13	16.73	-27.7	-29.7	14.8	3.83e-03	0	43	0	318767104	15	4506
2026-01-16 00:28:25.50	17.13	16.84	-27.7	-29.7	14.8	5.63e-04	0	43	0	321912832	15	4510
2026-01-16 00:28:26.51	17.12	16.96	-27.8	-29.8	14.8	4.40e-03	0	43	0	325058560	15	4542
2026-01-16 00:28:27.50	17.11	17.07	-27.8	-29.7	14.8	4.25e-03	0	43	0	328204288	15	4524
2026-01-16 00:28:28.50	17.10	17.19	-27.8	-29.9	14.7	9.99e-04	0	43	0	331350016	15	4562
2026-01-16 00:28:29.51	17.10	17.31	-27.9	-30.1	14.6	4.82e-03	0	43	0	334495744	15	4618
2026-01-16 00:28:30.50	17.09	17.42	-27.8	-29.9	14.7	7.00e-07	0	43	0	337641472	15	4574
2026-01-16 00:28:31.51	17.08	17.54	-27.9	-30.1	14.6	1.15e-03	0	43	0	340787200	15	4623
2026-01-16 00:28:32.52	17.07	17.66	-28.1	-30.0	14.6	4.76e-03	0	43	0	343932928	16	4468
2026-01-16 00:28:33.52	17.06	17.78	-28.0	-29.7	14.7	3.76e-03	0	43	0	347078656	16	4387
2026-01-16 00:28:34.51	17.06	17.90	-27.8	-29.8	14.8	1.13e-03	0	43	0	350224384	15	4534
2026-01-16 00:28:35.52	17.05	18.02	-27.8	-29.8	14.8	7.00e-07	0	43	0	353370112	15	4539
2026-01-16 00:28:36.52	17.04	18.14	-27.9	-30.0	14.7	4.23e-03	0	43	0	356515840	15	4585
2026-01-16 00:28:37.53	17.03	18.26	-27.9	-30.0	14.7	1.12e-03	0	43	0	359661568	15	4597
2026-01-16 00:28:38.53	17.02	18.38	-27.7	-29.5	15.0	4.81e-03	0	43	0	362807296	15	4461
2026-01-16 00:28:39.52	17.01	18.50	-27.6	-29.3	15.1	4.09e-03	0	43	0	365953024	15	4396
2026-01-16 00:28:40.52	17.00	18.63	-27.7	-29.5	15.0	0.00e+00	0	43	0	369098752	15	4450
2026-01-16 00:28:41.52	16.99	18.75	-27.7	-29.5	15.0	7.00e-07	0	43	0	372244480	15	4461
2026-01-16 00:28:42.52	16.99	18.87	-27.6	-29.3	15.1	3.78e-03	0	43	0	375390208	15	4398
2026-01-16 00:28:43.51	16.98	19.00	-27.6	-29.4	15.1	1.17e-03	0	43	0	378535936	15	4402
2026-01-16 00:28:44.52	16.97	19.12	-27.6	-29.4	15.0	7.25e-04	0	43	0	381681664	15	4433
2026-01-16 00:28:45.52	16.96	19.25	-27.6	-29.4	15.0	0.00e+00	0	43	0	384827392	15	4424
2026-01-16 00:28:46.52	16.95	19.37	-27.6	-29.3	15.1	0.00e+00	0	43	0	387973120	15	4403
2026-01-16 00:28:47.52	16.94	19.50	-27.6	-29.4	15.1	4.70e-03	0	43	0	390070272	15	4406
2026-01-16 00:28:48.52	16.93	19.63	-27.6	-29.3	15.1	3.94e-03	0	43	0	393216000	15	4386
2026-01-16 00:28:49.52	16.92	19.76	-27.6	-29.4	15.1	0.00e+00	0	43	0	396361728	15	4421
2026-01-16 00:28:50.53	16.91	19.89	-27.6	-29.4	15.1	0.00e+00	0	43	0	399507456	15	4410
2026-01-16 00:28:51.53	16.90	20.02	-27.6	-29.3	15.2	0.00e+00	0	43	0	402653184	15	4378
2026-01-16 00:28:52.54	16.89	20.15	-27.6	-29.3	15.1	1.02e-03	0	43	0	405798912	15	4389
2026-01-16 00:28:53.54	16.88	20.28	-27.5	-29.2	15.2	4.32e-03	0	43	0	408944640	15	4361
2026-01-16 00:28:54.54	16.87	20.41	-27.7	-29.6	15.0	0.00e+00	0	43	0	412090368	15	4484
2026-01-16 00:28:55.54	16.86	20.55	-27.8	-29.7	14.9	7.00e-07	0	43	0	415236096	15	4510
2026-01-16 00:28:56.54	16.85	20.68	-27.7	-29.6	15.0	0.00e+00	0	43	0	418381824	15	4470
2026-01-16 00:28:57.54	16.84	20.81	-27.7	-29.5	15.0	0.00e+00	0	43	0	421527552	15	4455
2026-01-16 00:28:58.54	16.82	20.95	-27.6	-29.3	15.1	4.86e-04	0	43	0	424673280	15	4398
2026-01-16 00:28:59.54	16.81	21.08	-27.7	-29.6	15.0	0.00e+00	0	43	0	427819008	15	4468
2026-01-16 00:29:00.54	16.80	21.22	-27.6	-29.4	15.1	0.00e+00	0	43	0	430964736	15	4406
2026-01-16 00:29:01.55	16.79	21.36	-27.6	-29.4	15.1	0.00e+00	0	43	0	434110464	15	4412
2026-01-16 00:29:02.55	16.78	21.50	-27.5	-29.2	15.2	0.00e+00	0	43	0	437256192	15	4369
2026-01-16 00:29:03.55	16.77	21.63	-27.2	-29.0	15.6	0.00e+00	0	43	0	440401920	14	4416
2026-01-16 00:29:04.55	16.76	21.77	-27.0	-28.5	15.9	0.00e+00	0	43	0	443547648	14	4264
2026-01-16 00:29:05.55	16.74	21.91	-26.9	-28.7	16.1	0.00e+00	0	43	0	446693376	13	4444
2026-01-16 00:29:06.55	16.73	22.05	-26.8	-28.6	16.1	0.00e+00	0	43	0	449839104	13	4410
2026-01-16 00:29:07.56	16.72	22.20	-26.8	-28.4	16.2	0.00e+00	0	43	0	452984832	13	4367
2026-01-16 00:29:08.55	16.71	22.34	-26.7	-28.4	16.2	0.00e+00	0	43	0	456130560	13	4363
2026-01-16 00:29:09.56	16.69	22.48	-26.7	-28.3	16.3	0.00e+00	0	43	0	459276288	13	4332
2026-01-16 00:29:10.56	16.68	22.63	-26.7	-28.3	16.3	0.00e+00	0	43	0	462422016	13	4341
2026-01-16 00:29:11.56	16.67	22.77	-26.7	-28.3	16.3	0.00e+00	0	43	0	465567744	13	4326
2026-01-16 00:29:12.56	16.66	22.92	-26.5	-27.9	16.5	0.00e+00	0	43	0	468713472	13	4228
2026-01-16 00:29:13.56	16.64	23.06	-26.6	-28.0	16.4	0.00e+00	0	43	0	471859200	13	4257
2026-01-16 00:29:14.56	16.63	23.21	-26.5	-27.9	16.5	0.00e+00	0	43	0	475004928	13	4223
2026-01-16 00:29:15.56	16.62	23.36	-26.5	-27.8	16.6	0.00e+00	0	43	0	478150656	13	4183
2026-01-16 00:29:16.56	16.60	23.51	-26.6	-28.0	16.5	0.00e+00	0	43	0	481296384	13	4249
2026-01-16 00:29:17.56	16.59	23.66	-26.5	-27.8	16.6	0.00e+00	0	43	0	484442112	13	4191
2026-01-16 00:29:18.56	16.57	23.81	-26.4	-28.1	16.8	0.00e+00	0	43	0	487587840	12	4374
2026-01-16 00:29:19.56	16.56	23.96	-26.4	-28.0	16.7	0.00e+00	0	43	0	490733568	12	4370
2026-01-16 00:29:20.56	16.55	24.11	-26.4	-28.0	16.7	0.00e+00	0	43	0	493879296	12	4367
2026-01-16 00:29:21.57	16.53	24.27	-26.4	-28.1	16.7	0.00e+00	0	43	0	497025024	12	4386
2026-01-16 00:29:22.58	16.52	24.42	-26.3	-28.0	16.8	0.00e+00	0	43	0	500170752	12	4343
2026-01-16 00:29:23.59	16.50	24.58	-26.4	-28.1	16.7	0.00e+00	0	43	0	503316480	12	4397
2026-01-16 00:29:24.59	16.49	24.73	-26.4	-28.2	16.7	0.00e+00	0	43	0	506462208	12	4398
2026-01-16 00:29:25.59	16.47	24.89	-26.4	-28.1	16.7	0.00e+00	0	43	0	509607936	12	4379
2026-01-16 00:29:26.60	16.45	25.05	-26.5	-28.2	16.7	0.00e+00	0	43	0	512753664	12	4416
2026-01-16 00:29:27.60	16.44	25.21	-26.4	-28.1	16.7	0.00e+00	0	43	0	515899392	12	4374
2026-01-16 00:29:28.60	16.42	25.37	-26.5	-28.3	16.7	0.00e+00	0	43	0	519045120	12	4422
2026-01-16 00:29:29.60	16.41	25.53	-26.7	-28.4	16.3	0.00e+00	0	43	0	522190848	13	4339
2026-01-16 00:29:30.60	16.39	25.69	-26.7	-28.2	16.4	0.00e+00	0	43	0	525336576	13	4305
2026-01-16 00:29:31.61	16.37	25.86	-26.7	-28.3	16.4	0.00e+00	0	43	0	528482304	13	4326
2026-01-16 00:29:32.61	16.36	26.02	-26.8	-28.4	16.4	0.00e+00	0	43	0	531628032	13	4343
2026-01-16 00:29:33.61	16.34	26.18	-26.9	-28.7	16.2	0.00e+00	0	43	0	534773760	13	4421
2026-01-16 00:29:34.60	16.32	26.35	-27.0	-28.5	16.1	0.00e+00	0	43	0	537919488	14	4259
2026-01-16 00:29:35.61	16.31	26.52	-27.1	-28.6	16.0	0.00e+00	0	43	0	541065216	14	4280
2026-01-16 00:29:36.60	16.29	26.68	-27.2	-28.9	15.9	0.00e+00	0	43	0	544210944	14	4361
2026-01-16 00:29:37.60	16.27	26.85	-27.2	-29.0	15.8	0.00e+00	0	43	0	547356672	14	4396
2026-01-16 00:29:38.61	16.25	27.02	-27.3	-29.2	15.7	0.00e+00	0	44	0	550502400	14	4454
2026-01-16 00:29:39.61	16.23	27.19	-27.4	-29.4	15.6	0.00e+00	0	43	0	553648128	14	4526
2026-01-16 00:29:40.61	16.22	27.37	-27.5	-29.1	15.5	0.00e+00	0	43	0	556793856	15	4312
2026-01-16 00:29:41.61	16.20	27.54	-27.6	-29.3	15.4	0.00e+00	0	43	0	559939584	15	4360
2026-01-16 00:29:42.62	16.18	27.72	-27.5	-29.2	15.4	0.00e+00	0	43	0	563085312	15	4334
2026-01-16 00:29:43.61	16.16	27.89	-27.6	-29.2	15.4	0.00e+00	0	43	0	566231040	15	4338
2026-01-16 00:29:44.61	16.14	28.07	-27.6	-29.3	15.3	0.00e+00	0	43	0	569376768	15	4383
2026-01-16 00:29:45.61	16.12	28.24	-27.6	-29.3	15.3	0.00e+00	0	43	0	572522496	15	4382
2026-01-16 00:29:46.61	16.10	28.42	-27.6	-29.4	15.3	0.00e+00	0	43	0	575668224	15	4388
2026-01-16 00:29:47.61	16.08	28.60	-27.6	-29.3	15.3	0.00e+00	0	44	0	578813952	15	4386
2026-01-16 00:29:48.62	16.06	28.79	-27.6	-29.3	15.3	0.00e+00	0	44	0	581959680	15	4380
2026-01-16 00:29:49.61	16.04	28.97	-27.6	-29.3	15.4	0.00e+00	0	43	0	585105408	15	4361
2026-01-16 00:29:50.62	16.02	29.15	-27.6	-29.2	15.5	0.00e+00	0	43	0	588251136	15	4344
2026-01-16 00:29:51.62	16.00	29.34	-27.5	-29.2	15.5	0.00e+00	0	43	0	591396864	15	4337
2026-01-16 00:29:52.62	15.97	29.52	-27.6	-29.2	15.4	0.00e+00	0	43	0	594542592	15	4337
2026-01-16 00:29:53.63	15.95	29.71	-27.5	-29.1	15.5	0.00e+00	0	44	0	596639744	15	4326
2026-01-16 00:29:54.64	15.93	29.90	-27.5	-29.1	15.5	0.00e+00	0	43	0	599785472	15	4311
2026-01-16 00:29:55.64	15.91	30.09	-27.7	-29.5	15.0	0.00e+00	0	44	0	603979776	15	4428
2026-01-16 00:29:56.64	15.88	30.28	-27.6	-29.2	15.5	0.00e+00	0	43	0	607125504	15	4352
2026-01-16 00:29:57.64	15.86	30.47	-27.4	-28.7	15.7	0.00e+00	0	43	0	609222656	15	4221
2026-01-16 00:29:58.64	15.84	30.67	-27.2	-28.9	14.4	0.00e+00	0	43	0	612368384	14	4380
2026-01-16 00:29:59.64	15.81	30.86	-27.2	-28.8	14.2	0.00e+00	0	44	0	615514112	14	4350
2026-01-16 00:30:00.65	15.79	31.06	-27.2	-28.9	15.9	0.00e+00	0	43	0	618659840	14	4361
2026-01-16 00:30:01.65	15.76	31.26	-27.1	-28.8	16.0	0.00e+00	0	43	0	621805568	14	4332
2026-01-16 00:30:02.66	15.74	31.46	-27.1	-28.7	16.1	0.00e+00	0	43	0	624951296	14	4302
2026-01-16 00:30:03.65	15.71	31.66	-27.1	-28.8	16.0	0.00e+00	0	44	0	628097024	14	4333
2026-01-16 00:30:04.65	15.69	31.86	-27.2	-28.8	16.0	3.09e-03	0	43	0	631242752	14	4348
2026-01-16 00:30:05.65	15.66	32.06	-27.4	-29.4	15.7	3.23e-03	0	43	0	634388480	14	4509
2026-01-16 00:30:06.66	15.63	32.27	-27.5	-29.0	15.6	0.00e+00	0	43	0	637534208	15	4299
2026-01-16 00:30:07.66	15.61	32.47	-27.7	-29.5	15.4	0.00e+00	0	43	0	640679936	15	4425
2026-01-16 00:30:08.67	15.58	32.68	-27.7	-29.4	15.4	1.35e-03	0	43	0	643825664	15	4405
2026-01-16 00:30:09.67	15.55	32.89	-27.8	-29.7	15.3	2.56e-04	0	43	0	646971392	15	4475
2026-01-16 00:30:10.68	15.52	33.10	-27.9	-29.8	15.1	3.01e-03	0	44	0	650117120	15	4520
2026-01-16 00:30:11.68	15.50	33.31	-28.2	-30.1	14.9	7.00e-07	0	43	0	653262848	16	4462
2026-01-16 00:30:12.69	15.47	33.53	-28.2	-30.0	15.0	0.00e+00	0	44	0	656408576	16	4431
2026-01-16 00:30:13.68	15.44	33.74	-28.4	-30.6	14.6	2.51e-03	0	43	0	659554304	16	4622
2026-01-16 00:30:14.69	15.41	33.96	-28.5	-30.2	14.6	2.50e-03	0	43	0	662700032	17	4391
2026-01-16 00:30:15.69	15.38	34.18	-28.4	-30.0	14.7	2.81e-04	0	43	0	665845760	17	4351
2026-01-16 00:30:16.69	15.35	34.40	-28.4	-30.5	14.7	0.00e+00	0	43	0	668991488	16	4584
2026-01-16 00:30:17.68	15.32	34.61	-28.5	-30.3	14.5	0.00e+00	0	43	0	672137216	17	4436
2026-01-16 00:30:18.69	15.28	34.84	-28.8	-30.9	14.2	4.50e-06	0	43	0	675282944	17	4600
2026-01-16 00:30:19.69	15.25	35.06	-28.9	-31.3	13.9	2.70e-03	0	43	0	678428672	17	4735
2026-01-16 00:30:20.69	15.22	35.29	-29.0	-31.4	13.9	2.28e-03	0	43	0	681574400	17	4760
2026-01-16 00:30:21.69	15.19	35.51	-29.1	-31.3	13.7	2.72e-04	0	44	0	684720128	18	4621
2026-01-16 00:30:22.69	15.15	35.74	-29.2	-31.3	13.6	2.49e-03	0	43	0	687865856	18	4621
2026-01-16 00:30:23.70	15.12	35.97	-29.2	-31.5	13.6	2.29e-03	0	44	0	691011584	18	4670
2026-01-16 00:30:24.70	15.08	36.21	-29.1	-31.3	13.7	2.38e-04	0	44	0	694157312	18	4613
2026-01-16 00:30:25.70	15.05	36.44	-29.1	-31.3	13.7	2.45e-03	0	44	0	697303040	18	4607
2026-01-16 00:30:26.71	15.01	36.68	-29.0	-30.9	13.9	2.39e-03	0	43	0	700448768	18	4493
2026-01-16 00:30:27.70	14.98	36.91	-29.1	-31.2	13.7	2.38e-04	0	44	0	703594496	18	4592
2026-01-16 00:30:28.71	14.94	37.15	-28.8	-31.1	14.1	2.28e-03	0	43	0	706740224	17	4650
2026-01-16 00:30:29.71	14.90	37.39	-28.8	-30.9	14.2	1.82e-03	0	44	0	709885952	17	4614
2026-01-16 00:30:30.71	14.86	37.63	-28.8	-30.9	14.2	2.29e-04	0	43	0	713031680	17	4585
2026-01-16 00:30:31.71	14.82	37.88	-28.8	-30.9	14.2	2.18e-03	0	44	0	716177408	17	4583
2026-01-16 00:30:32.70	14.79	38.12	-28.8	-30.8	14.2	2.20e-06	0	43	0	719323136	17	4579
2026-01-16 00:30:33.70	14.75	38.37	-28.9	-31.1	14.1	0.00e+00	0	43	0	722468864	17	4654
2026-01-16 00:30:34.70	14.70	38.62	-28.9	-31.1	14.1	2.11e-03	0	43	0	725614592	17	4650
2026-01-16 00:30:35.71	14.66	38.87	-29.0	-31.0	13.9	1.77e-03	0	43	0	728760320	18	4516
2026-01-16 00:30:36.71	14.62	39.12	-29.0	-31.0	13.9	3.37e-04	0	43	0	731906048	18	4518
2026-01-16 00:30:37.71	14.58	39.38	-29.0	-31.0	13.9	2.72e-04	0	43	0	735051776	18	4511
2026-01-16 00:30:38.71	14.53	39.64	-29.0	-31.3	14.0	5.30e-06	0	43	0	738197504	17	4737
2026-01-16 00:30:39.71	14.49	39.89	-28.9	-31.2	14.0	4.32e-04	0	43	0	741343232	17	4704
2026-01-16 00:30:40.72	14.44	40.16	-29.0	-31.0	13.8	1.86e-03	0	43	0	744488960	18	4534
2026-01-16 00:30:41.72	14.40	40.42	-29.3	-31.8	13.4	1.12e-03	0	44	0	747634688	18	4773
2026-01-16 00:30:42.72	14.35	40.68	-29.4	-31.9	13.3	3.88e-04	0	43	0	750780416	18	4819
2026-01-16 00:30:43.72	14.30	40.95	-29.7	-32.2	12.8	5.34e-05	0	44	0	753926144	19	4799
2026-01-16 00:30:44.72	14.25	41.22	-29.7	-32.1	12.9	1.27e-03	0	43	0	757071872	19	4774
2026-01-16 00:30:45.72	14.21	41.49	-29.8	-32.5	12.6	6.30e-04	0	43	0	760217600	19	4904
2026-01-16 00:30:46.72	14.16	41.76	-29.7	-32.3	12.8	4.26e-04	0	43	0	763363328	19	4824
2026-01-16 00:30:47.72	14.10	42.03	-29.7	-32.2	12.8	5.79e-05	0	43	0	766509056	19	4805
2026-01-16 00:30:48.73	14.05	42.31	-29.7	-32.0	12.9	5.11e-05	0	43	0	769654784	19	4739
2026-01-16 00:30:49.72	14.00	42.59	-29.6	-31.9	13.0	4.04e-05	0	43	0	772800512	19	4676
2026-01-16 00:30:50.72	13.94	42.87	-29.7	-32.0	13.0	1.02e-03	0	43	0	775946240	19	4733
2026-01-16 00:30:51.73	13.89	43.15	-30.0	-32.3	12.4	3.57e-04	0	43	0	779091968	20	4731
2026-01-16 00:30:52.73	13.83	43.44	-29.9	-32.2	12.5	1.51e-04	0	44	0	782237696	20	4689
2026-01-16 00:30:53.73	13.78	43.72	-30.1	-32.6	12.2	2.10e-04	0	43	0	785383424	20	4830
2026-01-16 00:30:54.73	13.72	44.01	-30.1	-32.7	12.1	2.34e-04	0	43	0	788529152	20	4862
2026-01-16 00:30:55.73	13.66	44.30	-30.1	-32.6	12.2	9.41e-04	0	44	0	791674880	20	4839
2026-01-16 00:30:56.73	13.60	44.60	-30.1	-32.7	12.1	2.53e-04	0	43	0	794820608	20	4863
2026-01-16 00:30:57.74	13.53	44.89	-30.0	-32.5	12.3	1.83e-04	0	43	0	797966336	20	4779
2026-01-16 00:30:58.75	13.47	45.19	-30.0	-32.3	12.4	1.52e-04	0	44	0	801112064	20	4733
2026-01-16 00:30:59.75	13.41	45.49	-29.9	-32.2	12.5	1.41e-04	0	43	0	804257792	20	4676
2026-01-16 00:31:00.75	13.34	45.79	-29.6	-31.3	13.0	4.57e-05	0	43	0	807403520	20	4402
2026-01-16 00:31:01.76	13.27	46.10	-29.5	-31.6	13.3	2.13e-05	0	43	0	810549248	19	4589
2026-01-16 00:31:02.77	13.20	46.41	-29.6	-31.7	13.2	1.98e-05	0	44	0	813694976	19	4634
2026-01-16 00:31:03.77	13.13	46.72	-29.4	-31.4	13.4	1.37e-05	0	44	0	816840704	19	4517
2026-01-16 00:31:04.76	13.06	47.03	-29.3	-31.2	13.5	1.52e-05	0	44	0	819986432	19	4462
2026-01-16 00:31:05.77	12.99	47.34	-29.3	-31.2	13.4	6.80e-06	0	43	0	823132160	19	4455
2026-01-16 00:31:06.77	12.91	47.66	-29.3	-31.1	13.5	9.10e-06	0	43	0	825229312	19	4442
2026-01-16 00:31:07.78	12.84	47.98	-29.2	-31.0	13.6	9.90e-06	0	44	0	828375040	19	4395
2026-01-16 00:31:08.78	12.76	48.30	-28.8	-30.5	14.2	3.80e-06	0	44	0	831520768	18	4382
2026-01-16 00:31:09.78	12.68	48.62	-28.8	-30.3	14.3	1.50e-06	0	43	0	834666496	18	4316
2026-01-16 00:31:10.78	12.60	48.95	-28.9	-30.6	14.2	2.20e-06	0	44	0	837812224	18	4383
2026-01-16 00:31:11.78	12.52	49.27	-28.8	-30.5	14.2	7.00e-07	0	44	0	840957952	18	4366
2026-01-16 00:31:12.79	12.43	49.60	-28.8	-30.3	14.3	0.00e+00	0	43	0	844103680	18	4321
2026-01-16 00:31:13.80	12.34	49.94	-28.9	-30.7	14.1	7.00e-07	0	43	0	848297984	18	4424
2026-01-16 00:31:14.80	12.25	50.27	-29.0	-30.8	14.0	1.50e-06	0	44	0	850395136	18	4463
2026-01-16 00:31:15.81	12.16	50.61	-29.0	-30.9	13.9	6.10e-06	0	44	0	853540864	18	4495
2026-01-16 00:31:16.81	12.07	50.95	-29.0	-31.0	13.9	6.80e-06	0	43	0	856686592	18	4505
2026-01-16 00:31:17.81	11.97	51.29	-28.9	-30.7	14.1	1.50e-06	0	43	0	859832320	18	4414
2026-01-16 00:31:18.82	11.88	51.64	-28.8	-30.6	14.1	7.00e-07	0	43	0	862978048	18	4392
2026-01-16 00:31:19.82	11.78	51.99	-28.8	-30.4	14.2	7.00e-07	0	44	0	866123776	18	4346
2026-01-16 00:31:20.83	11.67	52.34	-28.8	-30.4	14.3	1.50e-06	0	43	0	869269504	18	4327
2026-01-16 00:31:21.83	11.57	52.69	-28.8	-30.5	14.2	7.00e-07	0	44	0	872415232	18	4352
2026-01-16 00:31:22.83	11.46	53.04	-28.6	-30.0	14.5	0.00e+00	0	44	0	875560960	18	4220
2026-01-16 00:31:23.84	11.35	53.40	-28.4	-30.1	14.7	0.00e+00	0	43	0	878706688	17	4348
2026-01-16 00:31:24.83	11.24	53.75	-28.3	-29.7	15.0	7.00e-07	0	43	0	881852416	17	4240
2026-01-16 00:31:25.83	11.12	54.12	-28.3	-29.7	14.9	0.00e+00	0	43	0	884998144	17	4246
2026-01-16 00:31:26.83	11.00	54.48	-28.2	-30.1	14.9	0.00e+00	0	44	0	888143872	16	4482
2026-01-16 00:31:27.83	10.88	54.84	-28.2	-30.2	15.0	0.00e+00	0	43	0	891289600	16	4495
2026-01-16 00:31:28.83	10.75	55.21	-28.5	-30.6	14.7	0.00e+00	0	44	0	894435328	16	4632
2026-01-16 00:31:29.84	10.62	55.58	-28.0	-29.1	15.3	0.00e+00	0	44	0	897581056	17	4079
2026-01-16 00:31:30.84	10.49	55.96	-27.6	-28.7	15.8	0.00e+00	0	43	0	900726784	16	4075
2026-01-16 00:31:31.83	10.35	56.33	-27.2	-28.3	16.1	0.00e+00	0	43	0	903872512	15	4092
2026-01-16 00:31:32.83	10.21	56.71	-27.2	-28.9	16.1	0.00e+00	0	43	0	907018240	14	4351
2026-01-16 00:31:33.83	10.07	57.09	-27.2	-28.8	16.2	0.00e+00	0	43	0	910163968	14	4326
2026-01-16 00:31:34.83	9.92	57.47	-27.3	-29.0	16.0	0.00e+00	0	43	0	913309696	14	4389
2026-01-16 00:31:35.83	9.77	57.85	-27.1	-28.6	16.2	0.00e+00	0	44	0	916455424	14	4290
2026-01-16 00:31:36.82	9.61	58.24	-27.2	-28.8	16.1	0.00e+00	0	44	0	919601152	14	4351
2026-01-16 00:31:37.82	9.45	58.62	-27.0	-28.4	16.3	0.00e+00	0	43	0	922746880	14	4231
2026-01-16 00:31:38.83	9.28	59.02	-26.6	-27.9	16.8	0.00e+00	0	44	0	925892608	13	4208
2026-01-16 00:31:39.82	9.11	59.41	-26.5	-27.8	16.9	0.00e+00	0	43	0	929038336	13	4176
2026-01-16 00:31:40.82	8.93	59.81	-26.6	-28.0	16.9	0.00e+00	0	44	0	932184064	13	4221
2026-01-16 00:31:41.82	8.75	60.20	-26.7	-28.2	16.7	0.00e+00	0	44	0	935329792	13	4274
2026-01-16 00:31:42.83	8.56	60.61	-26.9	-28.6	16.5	0.00e+00	0	43	0	938475520	13	4412
2026-01-16 00:31:43.82	8.37	61.01	-26.8	-28.4	16.6	0.00e+00	0	44	0	941621248	13	4344
2026-01-16 00:31:44.82	8.16	61.41	-26.6	-28.0	16.8	0.00e+00	0	44	0	944766976	13	4226
2026-01-16 00:31:45.82	7.95	61.82	-26.3	-27.4	17.1	0.00e+00	0	44	0	947912704	13	4081
2026-01-16 00:31:46.82	7.74	62.23	-26.3	-27.3	17.2	0.00e+00	0	43	0	951058432	13	4042
2026-01-16 00:31:47.82	7.52	62.64	-26.1	-27.0	17.4	0.00e+00	0	44	0	954204160	13	3966
2026-01-16 00:31:48.82	7.28	63.05	-26.2	-27.1	17.3	0.00e+00	0	44	0	957349888	13	3993
2026-01-16 00:31:49.83	7.04	63.47	-26.0	-26.8	17.4	0.00e+00	0	43	0	960495616	13	3921
2026-01-16 00:31:50.83	6.79	63.89	-26.0	-26.7	17.5	0.00e+00	0	44	0	963641344	13	3912
2026-01-16 00:31:51.83	6.54	64.31	-26.3	-27.2	17.2	0.00e+00	0	44	0	966787072	13	4032
2026-01-16 00:31:52.84	6.27	64.74	-26.0	-26.8	17.5	0.00e+00	0	43	0	969932800	13	3915
2026-01-16 00:31:53.84	5.99	65.16	-25.8	-26.8	17.7	0.00e+00	0	43	0	973078528	12	4034
2026-01-16 00:31:54.85	5.70	65.59	-25.8	-26.7	17.8	0.00e+00	0	43	0	976224256	12	4020
2026-01-16 00:31:55.84	5.40	66.01	-25.5	-26.2	18.0	0.00e+00	0	43	0	979369984	12	3877
2026-01-16 00:31:56.84	5.09	66.44	-25.4	-25.9	18.2	0.00e+00	0	43	0	982515712	12	3803
2026-01-16 00:31:57.84	4.76	66.87	-25.5	-26.2	17.0	0.00e+00	0	44	0	985661440	12	3876
2026-01-16 00:31:58.84	4.42	67.30	-25.7	-27.0	17.8	0.00e+00	0	44	0	988807168	11	4176
2026-01-16 00:31:59.84	4.07	67.74	-25.9	-27.6	17.6	0.00e+00	0	43	0	991952896	11	4330
2026-01-16 00:32:00.84	3.70	68.17	-25.8	-26.7	17.8	0.00e+00	0	43	0	995098624	12	4016
2026-01-16 00:32:01.84	3.31	68.61	-25.8	-27.2	17.8	9.36e-04	0	44	0	998244352	11	4248
2026-01-16 00:32:02.84	2.91	69.04	-25.9	-27.4	17.7	0.00e+00	0	44	0	1001390080	11	4281
2026-01-16 00:32:03.83	2.49	69.48	-26.0	-27.6	17.6	0.00e+00	0	43	0	1004535808	11	4358
2026-01-16 00:32:04.83	2.05	69.91	-26.3	-28.0	17.1	0.00e+00	0	43	0	1006632960	12	4331
2026-01-16 00:32:05.83	1.59	70.35	-26.5	-27.7	16.9	0.00e+00	0	43	0	1009778688	13	4167
2026-01-16 00:32:06.83	1.10	70.80	-26.5	-28.3	17.0	2.43e-03	0	43	0	1012924416	12	4429
2026-01-16 00:32:07.83	0.59	71.24	-26.5	-27.9	16.9	0.00e+00	0	43	0	1016070144	13	4207
2026-01-16 00:32:08.84	0.05	71.68	-26.7	-28.3	16.7	0.00e+00	0	43	0	1019215872	13	4304
2026-01-16 00:32:09.84	359.48	72.12	-26.5	-27.9	16.9	0.00e+00	0	44	0	1022361600	13	4213
2026-01-16 00:32:10.83	358.89	72.56	-26.5	-27.8	17.0	0.00e+00	0	44	0	1025507328	13	4189
2026-01-16 00:32:11.83	358.26	73.00	-26.6	-27.9	16.9	0.00e+00	0	44	0	1028653056	13	4209
2026-01-16 00:32:12.83	357.60	73.44	-26.2	-27.6	17.4	2.29e-03	0	44	0	1031798784	12	4236
2026-01-16 00:32:13.83	356.90	73.88	-25.9	-26.9	17.7	0.00e+00	0	44	0	1034944512	12	4059
2026-01-16 00:32:14.83	356.15	74.32	-25.8	-26.7	17.8	0.00e+00	0	44	0	1038090240	12	4004
2026-01-16 00:32:15.83	355.37	74.76	-25.8	-26.9	17.7	0.00e+00	0	44	0	1041235968	12	4041
2026-01-16 00:32:16.82	354.54	75.20	-25.9	-27.5	17.7	6.98e-04	0	43	0	1044381696	11	4323
2026-01-16 00:32:17.83	353.64	75.63	-25.9	-27.5	17.7	0.00e+00	0	43	0	1047527424	11	4313
2026-01-16 00:32:18.82	352.70	76.06	-25.9	-27.4	17.8	0.00e+00	0	43	0	1050673152	11	4283
2026-01-16 00:32:19.82	351.69	76.49	-26.1	-27.4	17.4	0.00e+00	0	44	0	1053818880	12	4193
2026-01-16 00:32:20.82	350.61	76.92	-26.3	-27.9	17.2	0.00e+00	0	43	0	1056964608	12	4321
2026-01-16 00:32:21.82	349.45	77.35	-25.9	-27.0	17.7	1.10e-03	0	43	0	1060110336	12	4069
2026-01-16 00:32:22.82	348.22	77.76	-26.2	-27.6	17.3	7.49e-04	0	44	0	1063256064	12	4238
2026-01-16 00:32:23.83	346.88	78.18	-26.4	-28.1	17.1	0.00e+00	0	44	0	1066401792	12	4375
2026-01-16 00:32:24.82	345.46	78.59	-26.8	-28.5	16.6	5.30e-06	0	44	0	1069547520	13	4353
2026-01-16 00:32:25.82	343.93	78.99	-26.5	-27.8	16.9	8.99e-04	0	43	0	1072693248	13	4172
2026-01-16 00:32:26.83	342.26	79.39	-26.7	-28.3	16.8	0.00e+00	0	44	0	1075838976	13	4297
2026-01-16 00:32:27.83	340.48	79.78	-26.9	-28.8	16.5	1.40e-04	0	44	0	1078984704	13	4441
2026-01-16 00:32:28.83	338.56	80.15	-27.1	-28.5	16.3	7.00e-07	0	44	0	1082130432	14	4262
2026-01-16 00:32:29.84	336.46	80.52	-26.8	-27.9	16.6	0.00e+00	0	44	0	1085276160	14	4098
2026-01-16 00:32:30.83	334.24	80.87	-26.4	-27.1	17.1	7.00e-07	0	43	0	1088421888	14	3905
2026-01-16 00:32:31.84	331.79	81.21	-26.0	-26.6	17.6	2.26e-04	0	44	0	1091567616	13	3877
2026-01-16 00:32:32.84	329.18	81.54	-25.9	-26.4	17.7	0.00e+00	0	43	0	1094713344	13	3815
2026-01-16 00:32:33.84	326.36	81.84	-26.1	-26.9	17.3	0.00e+00	0	43	0	1097859072	13	3957
2026-01-16 00:32:34.84	323.33	82.12	-26.2	-27.1	17.4	0.00e+00	0	43	0	1101004800	13	3985
2026-01-16 00:32:35.84	320.07	82.38	-26.5	-27.8	17.0	0.00e+00	0	44	0	1104150528	13	4183
2026-01-16 00:32:36.85	316.57	82.62	-26.5	-27.7	17.0	1.32e-03	0	44	0	1107296256	13	4159
2026-01-16 00:32:37.86	312.84	82.83	-26.1	-27.0	17.4	1.89e-04	0	43	0	1110441984	13	3965
2026-01-16 00:32:38.85	308.99	83.00	-26.1	-26.9	17.4	0.00e+00	0	44	0	1113587712	13	3962
2026-01-16 00:32:39.86	304.87	83.14	-26.3	-27.9	17.2	0.00e+00	0	44	0	1116733440	12	4318
2026-01-16 00:32:40.86	300.65	83.24	-26.2	-27.6	17.4	0.00e+00	0	44	0	1119879168	12	4228
2026-01-16 00:32:41.86	296.32	83.31	-26.2	-27.6	17.3	0.00e+00	0	44	0	1123024896	12	4236
2026-01-16 00:32:42.86	291.92	83.34	-26.4	-28.1	17.0	2.98e-03	0	43	0	1126170624	12	4358
2026-01-16 00:32:43.86	287.51	83.33	-26.5	-27.7	17.0	2.47e-03	0	44	0	1129316352	13	4152
2026-01-16 00:32:44.87	283.10	83.28	-26.6	-28.1	16.8	0.00e+00	0	44	0	1132462080	13	4244
2026-01-16 00:32:45.87	278.83	83.19	-27.1	-28.7	16.3	2.21e-05	0	44	0	1135607808	14	4298
2026-01-16 00:32:46.87	274.68	83.07	-27.1	-28.6	16.4	0.00e+00	0	43	0	1138753536	14	4264
2026-01-16 00:32:47.87	270.70	82.91	-27.6	-29.1	15.8	1.56e-04	0	44	0	1141899264	15	4308
2026-01-16 00:32:48.87	266.92	82.71	-26.9	-28.3	16.5	5.63e-04	0	43	0	1145044992	14	4187
2026-01-16 00:32:49.87	263.35	82.49	-26.4	-27.6	17.1	0.00e+00	0	43	0	1148190720	13	4107
2026-01-16 00:32:50.87	259.99	82.24	-26.4	-27.5	17.1	0.00e+00	0	44	0	1151336448	13	4088
2026-01-16 00:32:51.87	256.86	81.97	-26.6	-28.0	16.9	0.00e+00	0	44	0	1154482176	13	4231
2026-01-16 00:32:52.88	253.91	81.67	-26.5	-27.9	16.9	2.14e-03	0	44	0	1157627904	13	4189
2026-01-16 00:32:53.87	251.23	81.36	-26.5	-27.7	17.0	1.29e-04	0	44	0	1160773632	13	4146
2026-01-16 00:32:54.88	248.70	81.03	-26.1	-27.4	17.4	0.00e+00	0	44	0	1163919360	12	4173
2026-01-16 00:32:55.88	246.37	80.68	-26.5	-28.2	17.0	0.00e+00	0	44	0	1167065088	12	4402
2026-01-16 00:32:56.89	244.20	80.32	-26.4	-27.6	17.0	7.00e-07	0	43	0	1170210816	13	4135
2026-01-16 00:32:57.88	242.23	79.95	-26.6	-28.1	16.7	3.24e-03	0	44	0	1173356544	13	4263
2026-01-16 00:32:58.89	240.37	79.56	-26.9	-28.7	16.4	0.00e+00	0	44	0	1176502272	13	4437
2026-01-16 00:32:59.88	238.67	79.17	-26.7	-28.3	16.6	0.00e+00	0	43	0	1179648000	13	4308
2026-01-16 00:33:00.89	237.07	78.77	-26.4	-27.6	17.0	0.00e+00	0	43	0	1182793728	13	4120
2026-01-16 00:33:01.89	235.59	78.36	-26.2	-27.6	17.2	0.00e+00	0	44	0	1185939456	12	4244
2026-01-16 00:33:02.89	234.22	77.95	-27.1	-28.6	16.3	0.00e+00	0	43	0	1189085184	14	4291
2026-01-16 00:33:03.89	232.95	77.53	-27.1	-28.6	16.2	0.00e+00	0	44	0	1192230912	14	4277
2026-01-16 00:33:04.89	231.75	77.11	-26.4	-27.6	17.0	0.00e+00	0	43	0	1194328064	13	4139
2026-01-16 00:33:05.89	230.64	76.68	-26.1	-27.0	17.3	0.00e+00	0	43	0	1197473792	13	3974
2026-01-16 00:33:06.89	229.60	76.25	-26.1	-27.4	17.3	0.00e+00	0	43	0	1200619520	12	4188
2026-01-16 00:33:07.89	228.62	75.82	-25.8	-27.3	17.8	0.00e+00	0	43	0	1203765248	11	4263
2026-01-16 00:33:08.89	227.70	75.39	-26.4	-28.0	17.1	0.00e+00	0	43	0	1207959552	12	4334
2026-01-16 00:33:09.89	226.84	74.95	-26.7	-28.2	16.6	0.00e+00	0	43	0	1210056704	13	4301
2026-01-16 00:33:10.89	226.03	74.51	-27.1	-28.7	16.1	0.00e+00	0	44	0	1213202432	14	4319
2026-01-16 00:33:11.89	225.27	74.07	-26.3	-26.9	17.2	0.00e+00	0	43	0	1216348160	14	3832
2026-01-16 00:33:12.88	224.56	73.63	-25.4	-25.9	18.1	0.00e+00	0	43	0	1219493888	12	3815
2026-01-16 00:33:13.89	223.87	73.19	-25.3	-26.1	18.3	0.00e+00	0	43	0	1222639616	11	3962
2026-01-16 00:33:14.89	223.22	72.75	-25.5	-26.6	18.1	0.00e+00	0	44	0	1225785344	11	4095
2026-01-16 00:33:15.90	222.61	72.30	-25.9	-27.4	17.7	0.00e+00	0	43	0	1228931072	11	4287
2026-01-16 00:33:16.91	222.02	71.85	-26.2	-27.7	17.2	0.00e+00	0	44	0	1232076800	12	4271
2026-01-16 00:33:17.91	221.47	71.41	-26.1	-27.4	17.3	0.00e+00	0	44	0	1235222528	12	4183
2026-01-16 00:33:18.91	220.95	70.97	-25.7	-26.6	17.5	0.00e+00	0	44	0	1238368256	12	3972
2026-01-16 00:33:19.91	220.45	70.53	-25.7	-27.0	17.6	0.00e+00	0	44	0	1241513984	11	4182
2026-01-16 00:33:20.91	219.98	70.09	-25.7	-27.0	17.8	0.00e+00	0	43	0	1244659712	11	4180
2026-01-16 00:33:21.91	219.53	69.65	-26.1	-27.4	17.3	0.00e+00	0	43	0	1247805440	12	4188
2026-01-16 00:33:22.92	219.10	69.20	-26.4	-28.1	16.9	0.00e+00	0	44	0	1250951168	12	4379
2026-01-16 00:33:23.91	218.69	68.77	-26.6	-28.0	16.8	1.50e-06	0	43	0	1254096896	13	4226
2026-01-16 00:33:24.92	218.29	68.33	-26.7	-28.2	16.6	0.00e+00	0	44	0	1257242624	13	4284
2026-01-16 00:33:25.92	217.92	67.89	-26.7	-28.4	16.5	0.00e+00	0	44	0	1260388352	13	4340
2026-01-16 00:33:26.93	217.55	67.45	-26.4	-27.6	17.0	0.00e+00	0	44	0	1263534080	13	4139
2026-01-16 00:33:27.93	217.21	67.02	-25.8	-26.7	17.6	0.00e+00	0	44	0	1266679808	12	4018
2026-01-16 00:33:28.93	216.88	66.59	-25.7	-27.1	17.7	0.00e+00	0	44	0	1269825536	11	4213
2026-01-16 00:33:29.93	216.56	66.16	-25.7	-27.1	17.7	0.00e+00	0	43	0	1272971264	11	4213
2026-01-16 00:33:30.93	216.25	65.73	-26.2	-27.6	17.0	0.00e+00	0	44	0	1276116992	12	4250
2026-01-16 00:33:31.94	215.96	65.30	-26.4	-28.0	16.9	0.00e+00	0	43	0	1279262720	12	4346
2026-01-16 00:33:32.94	215.67	64.87	-26.3	-27.8	17.1	0.00e+00	0	44	0	1282408448	12	4289
2026-01-16 00:33:33.94	215.40	64.45	-25.8	-26.8	17.6	0.00e+00	0	43	0	1285554176	12	4022
2026-01-16 00:33:34.93	215.14	64.03	-26.0	-27.6	17.5	0.00e+00	0	43	0	1288699904	11	4327
2026-01-16 00:33:35.94	214.89	63.61	-25.9	-26.9	17.5	0.00e+00	0	44	0	1291845632	12	4052
2026-01-16 00:33:36.93	214.65	63.19	-26.0	-27.2	17.4	0.00e+00	0	44	0	1294991360	12	4142
2026-01-16 00:33:37.93	214.41	62.78	-26.1	-27.4	17.4	0.00e+00	0	44	0	1298137088	12	4176
2026-01-16 00:33:38.93	214.19	62.37	-26.9	-28.8	16.4	0.00e+00	0	44	0	1301282816	13	4439
2026-01-16 00:33:39.93	213.97	61.95	-27.6	-29.3	15.4	7.00e-07	0	43	0	1304428544	15	4365
2026-01-16 00:33:40.93	213.75	61.54	-28.2	-30.1	14.8	0.00e+00	0	44	0	1307574272	16	4489
2026-01-16 00:33:41.92	213.55	61.14	-27.6	-28.7	15.5	0.00e+00	0	43	0	1310720000	16	4100
2026-01-16 00:33:42.92	213.35	60.74	-26.6	-27.5	16.6	0.00e+00	0	43	0	1313865728	14	4009
2026-01-16 00:33:43.93	213.16	60.33	-26.1	-26.9	17.2	0.00e+00	0	43	0	1317011456	13	3965
2026-01-16 00:33:44.93	212.97	59.93	-26.0	-26.8	17.3	0.00e+00	0	44	0	1320157184	13	3916
2026-01-16 00:33:45.93	212.79	59.53	-26.2	-27.6	17.1	0.00e+00	0	44	0	1323302912	12	4237
2026-01-16 00:33:46.93	212.62	59.14	-26.1	-27.5	17.2	0.00e+00	0	44	0	1326448640	12	4217
2026-01-16 00:33:47.94	212.45	58.74	-26.5	-28.3	16.9	0.00e+00	0	44	0	1329594368	12	4421
2026-01-16 00:33:48.94	212.28	58.35	-27.0	-28.5	16.3	0.00e+00	0	43	0	1332740096	14	4257
2026-01-16 00:33:49.94	212.12	57.96	-27.7	-29.4	15.4	0.00e+00	0	43	0	1335885824	15	4409
2026-01-16 00:33:50.94	211.97	57.57	-27.7	-29.5	15.3	0.00e+00	0	44	0	1339031552	15	4433
2026-01-16 00:33:51.95	211.82	57.18	-27.2	-28.4	15.9	0.00e+00	0	44	0	1342177280	15	4133
2026-01-16 00:33:52.95	211.67	56.80	-26.8	-28.0	16.4	0.00e+00	0	44	0	1345323008	14	4120
2026-01-16 00:33:53.95	211.53	56.42	-27.1	-28.5	16.2	0.00e+00	0	43	0	1348468736	14	4270
2026-01-16 00:33:54.95	211.39	56.04	-26.7	-27.7	16.5	0.00e+00	0	43	0	1351614464	14	4041
2026-01-16 00:33:55.95	211.26	55.67	-26.7	-28.3	16.5	0.00e+00	0	44	0	1354760192	13	4309
2026-01-16 00:33:56.94	211.13	55.30	-27.1	-28.7	16.1	0.00e+00	0	43	0	1357905920	14	4298
2026-01-16 00:33:57.94	211.00	54.93	-27.4	-29.4	15.8	0.00e+00	0	44	0	1361051648	14	4509
2026-01-16 00:33:58.94	210.88	54.56	-28.0	-30.1	15.0	0.00e+00	0	44	0	1364197376	15	4602
2026-01-16 00:33:59.94	210.76	54.20	-29.1	-31.2	13.7	0.00e+00	0	44	0	1367343104	18	4588
2026-01-16 00:34:00.95	210.64	53.83	-29.6	-32.0	13.0	2.74e-05	0	44	0	1370488832	19	4733
2026-01-16 00:34:01.95	210.52	53.47	-29.6	-32.1	12.9	5.03e-05	0	44	0	1373634560	19	4773
2026-01-16 00:34:02.95	210.41	53.12	-29.0	-30.5	13.8	6.80e-06	0	43	0	1376780288	19	4272
2026-01-16 00:34:03.95	210.30	52.76	-28.2	-29.5	14.9	0.00e+00	0	44	0	1379926016	17	4208
2026-01-16 00:34:04.95	210.20	52.41	-27.8	-29.1	15.4	0.00e+00	0	44	0	1383071744	16	4204
2026-01-16 00:34:05.95	210.09	52.06	-26.8	-28.6	15.4	0.00e+00	0	44	0	1386217472	15	4409
2026-01-16 00:34:06.96	209.99	51.71	-28.0	-30.2	13.8	0.00e+00	0	44	0	1389363200	15	4620
2026-01-16 00:34:07.96	209.89	51.36	-28.7	-30.7	14.0	0.00e+00	0	44	0	1392508928	17	4563
2026-01-16 00:34:08.97	209.79	51.01	-28.9	-31.3	13.8	2.20e-06	0	44	0	1394606080	17	4738
2026-01-16 00:34:09.96	209.70	50.68	-28.8	-31.1	13.9	6.10e-06	0	44	0	1397751808	17	4674
2026-01-16 00:34:10.97	209.61	50.33	-28.8	-31.0	14.1	7.00e-07	0	43	0	1400897536	17	4653
2026-01-16 00:34:11.97	209.52	50.00	-29.3	-31.7	13.4	4.50e-06	0	44	0	1404043264	18	4756
2026-01-16 00:34:12.97	209.43	49.67	-29.3	-31.8	13.4	1.44e-05	0	43	0	1407188992	18	4779
2026-01-16 00:34:13.97	209.34	49.33	-29.7	-32.1	12.9	4.27e-05	0	44	0	1410334720	19	4751
2026-01-16 00:34:14.98	209.26	49.00	-29.8	-32.4	12.7	1.12e-03	0	44	0	1413480448	19	4876
2026-01-16 00:34:15.98	209.18	48.68	-29.8	-32.3	12.7	7.24e-05	0	44	0	1416626176	19	4842
2026-01-16 00:34:16.98	209.10	48.35	-29.4	-31.5	13.1	4.11e-05	0	43	0	1419771904	19	4560
2026-01-16 00:34:17.98	209.02	48.03	-29.3	-31.7	13.3	2.28e-05	0	44	0	1422917632	18	4750
2026-01-16 00:34:18.98	208.94	47.71	-29.2	-31.5	13.5	1.72e-03	0	44	0	1426063360	18	4701
2026-01-16 00:34:19.98	208.86	47.39	-28.9	-30.8	13.9	1.72e-04	0	43	0	1429209088	18	4467
2026-01-16 00:34:20.98	208.79	47.08	-29.3	-31.6	13.5	9.90e-06	0	44	0	1432354816	18	4703
2026-01-16 00:34:21.98	208.72	46.77	-29.3	-31.7	13.4	1.37e-05	0	44	0	1435500544	18	4756
2026-01-16 00:34:22.99	208.65	46.45	-29.2	-31.4	13.6	1.06e-05	0	44	0	1438646272	18	4645
2026-01-16 00:34:23.99	208.58	46.14	-29.5	-31.7	13.1	3.91e-04	0	44	0	1441792000	19	4637
2026-01-16 00:34:24.99	208.51	45.84	-29.7	-32.3	12.7	6.81e-04	0	44	0	1444937728	19	4830
2026-01-16 00:34:25.98	208.44	45.54	-30.0	-32.6	12.1	1.67e-04	0	43	0	1448083456	20	4847
2026-01-16 00:34:26.98	208.38	45.24	-29.9	-32.3	12.3	2.01e-04	0	44	0	1451229184	20	4737
2026-01-16 00:34:27.99	208.31	44.93	-30.1	-32.7	12.1	2.44e-04	0	43	0	1454374912	20	4846
2026-01-16 00:34:28.98	208.25	44.64	-29.9	-32.3	12.3	2.55e-04	0	44	0	1457520640	20	4720
2026-01-16 00:34:29.98	208.19	44.34	-29.9	-32.6	12.4	1.88e-03	0	43	0	1460666368	19	4933
2026-01-16 00:34:30.97	208.13	44.06	-29.9	-32.7	12.3	1.31e-03	0	44	0	1463812096	19	4982
2026-01-16 00:34:31.70	208.09	43.84	-29.8	-32.4	12.6	1.18e-04	0	43	0	1466957824	19	4866
2026-01-16 00:34:32.99	208.01	43.47	-30.1	-32.8	12.0	1.05e-03	0	44	0	1471152128	20	4899
2026-01-16 00:34:33.70	207.97	43.27	-30.1	-32.7	12.0	9.82e-04	0	44	0	1473249280	20	4871
2026-01-16 00:34:34.99	207.90	42.90	-30.3	-33.4	11.5	9.09e-04	0	43	0	1477443584	20	5124
2026-01-16 00:34:35.70	207.86	42.70	-30.1	-32.7	12.0	1.03e-03	0	44	0	1479540736	20	4873
2026-01-16 00:34:36.98	207.79	42.34	-29.6	-31.9	12.9	5.56e-05	0	44	0	1483735040	19	4714
2026-01-16 00:34:37.71	207.75	42.14	-29.3	-31.3	13.3	1.17e-04	0	44	0	1485832192	19	4504
2026-01-16 00:34:39.00	207.68	41.78	-29.0	-31.1	13.7	6.10e-06	0	44	0	1490026496	18	4567
2026-01-16 00:34:39.73	207.65	41.58	-29.1	-31.2	13.7	1.46e-03	0	44	0	1492123648	18	4591
2026-01-16 00:34:41.02	207.58	41.23	-29.4	-31.8	13.3	1.14e-05	0	44	0	1496317952	18	4796
2026-01-16 00:34:41.73	207.55	41.04	-29.6	-32.0	12.8	1.93e-03	0	44	0	1498415104	19	4737
2026-01-16 00:34:43.02	207.49	40.69	-29.7	-32.2	12.7	7.17e-05	0	44	0	1502609408	19	4813
2026-01-16 00:34:43.74	207.45	40.50	-29.8	-32.5	12.5	2.82e-04	0	43	0	1504706560	19	4908
2026-01-16 00:34:45.03	207.39	40.16	-29.6	-32.0	12.9	1.23e-04	0	44	0	1508900864	19	4728
2026-01-16 00:34:45.75	207.36	39.97	-29.5	-31.8	13.0	1.34e-03	0	44	0	1510998016	19	4661
2026-01-16 00:34:47.03	207.30	39.64	-29.3	-31.3	13.3	2.89e-05	0	43	0	1515192320	19	4528
2026-01-16 00:34:47.75	207.27	39.45	-29.3	-31.3	13.3	2.44e-05	0	44	0	1517289472	19	4520
2026-01-16 00:34:49.04	207.21	39.12	-29.5	-31.8	13.0	2.59e-05	0	44	0	1521483776	19	4663
2026-01-16 00:34:49.75	207.18	38.94	-29.5	-31.8	13.0	5.11e-05	0	44	0	1523580928	19	4669
2026-01-16 00:34:51.04	207.13	38.61	-29.9	-32.6	12.4	1.46e-04	0	44	0	1527775232	19	4947
2026-01-16 00:34:51.77	207.10	38.43	-29.7	-32.1	12.8	2.65e-04	0	43	0	1529872384	19	4779
2026-01-16 00:34:53.06	207.04	38.11	-29.3	-31.3	13.2	2.13e-05	0	44	0	1534066688	19	4519
2026-01-16 00:34:53.77	207.01	37.93	-29.1	-30.7	13.6	9.10e-06	0	44	0	1536163840	19	4343
2026-01-16 00:34:55.06	206.96	37.62	-28.7	-30.4	14.1	3.00e-06	0	43	0	1540358144	18	4350
2026-01-16 00:34:55.78	206.94	37.44	-28.7	-30.3	14.2	3.00e-06	0	44	0	1542455296	18	4315
2026-01-16 00:34:57.07	206.89	37.13	-28.7	-30.3	14.1	0.00e+00	0	44	0	1546649600	18	4342
2026-01-16 00:34:57.78	206.86	36.96	-28.6	-30.6	14.3	1.50e-06	0	44	0	1548746752	17	4514
2026-01-16 00:34:59.07	206.81	36.65	-28.6	-30.5	14.3	7.00e-07	0	44	0	1552941056	17	4480
2026-01-16 00:34:59.80	206.79	36.48	-28.7	-30.7	14.2	7.00e-07	0	44	0	1555038208	17	4549
2026-01-16 00:35:01.09	206.74	36.18	-28.3	-30.0	14.6	1.50e-06	0	44	0	1559232512	17	4334
2026-01-16 00:35:01.82	206.71	36.00	-28.3	-29.8	14.7	0.00e+00	0	44	0	1561329664	17	4303
2026-01-16 00:35:03.11	206.67	35.71	-28.5	-30.4	14.4	0.00e+00	0	44	0	1565523968	17	4463
2026-01-16 00:35:03.82	206.64	35.54	-28.7	-30.8	14.1	1.50e-06	0	44	0	1567621120	17	4574
2026-01-16 00:35:05.11	206.60	35.25	-28.6	-30.5	14.3	7.00e-07	0	44	0	1571815424	17	4494
2026-01-16 00:35:05.82	206.58	35.09	-28.4	-30.2	14.5	0.00e+00	0	44	0	1573912576	17	4394
2026-01-16 00:35:07.15	206.53	34.79	-28.4	-30.6	14.5	0.00e+00	0	44	0	1578106880	16	4626
2026-01-16 00:35:07.87	206.51	34.63	-28.2	-30.2	14.8	0.00e+00	0	44	0	1580204032	16	4513
2026-01-16 00:35:09.16	206.47	34.34	-28.1	-29.8	14.9	0.00e+00	0	44	0	1584398336	16	4411
2026-01-16 00:35:09.88	206.45	34.18	-28.0	-29.8	14.9	0.00e+00	0	44	0	1586495488	16	4394
2026-01-16 00:35:11.17	206.41	33.90	-28.0	-29.6	15.0	0.00e+00	0	44	0	1590689792	16	4354
2026-01-16 00:35:11.89	206.38	33.74	-27.8	-29.7	15.1	7.00e-07	0	44	0	1592786944	15	4485
2026-01-16 00:35:13.19	206.35	33.46	-27.5	-29.1	15.4	0.00e+00	0	44	0	1596981248	15	4323
2026-01-16 00:35:13.90	206.33	33.31	-27.5	-29.2	15.4	7.00e-07	0	44	0	1599078400	15	4338
2026-01-16 00:35:15.19	206.29	33.04	-27.5	-29.0	15.4	0.00e+00	0	44	0	1603272704	15	4300
2026-01-16 00:35:15.90	206.27	32.89	-27.5	-29.1	15.4	0.00e+00	0	44	0	1605369856	15	4336
2026-01-16 00:35:17.19	206.23	32.62	-27.7	-29.5	15.2	0.00e+00	0	44	0	1609564160	15	4431
2026-01-16 00:35:17.90	206.21	32.47	-27.8	-29.7	15.1	0.00e+00	0	44	0	1611661312	15	4502
2026-01-16 00:35:19.22	206.17	32.19	-28.2	-30.2	14.7	0.00e+00	0	44	0	1615855616	16	4512
2026-01-16 00:35:19.93	206.16	32.05	-28.3	-30.5	14.5	3.07e-04	0	44	0	1617952768	16	4614
2026-01-16 00:35:21.22	206.12	31.79	-28.1	-29.9	14.8	0.00e+00	0	44	0	1622147072	16	4433
2026-01-16 00:35:21.93	206.10	31.64	-28.0	-29.7	14.9	0.00e+00	0	44	0	1624244224	16	4388
2026-01-16 00:35:23.22	206.07	31.38	-27.7	-29.5	15.2	0.00e+00	0	44	0	1628438528	15	4431
2026-01-16 00:35:23.94	206.05	31.24	-27.7	-29.5	15.2	0.00e+00	0	44	0	1630535680	15	4424
2026-01-16 00:35:25.23	206.02	30.98	-27.8	-29.7	15.1	5.64e-04	0	43	0	1634729984	15	4487
2026-01-16 00:35:25.96	206.00	30.84	-27.9	-29.9	14.9	7.00e-07	0	44	0	1636827136	15	4568
2026-01-16 00:35:27.25	205.97	30.58	-27.7	-29.6	15.1	0.00e+00	0	44	0	1641021440	15	4477
2026-01-16 00:35:27.97	205.95	30.44	-27.8	-29.9	14.9	0.00e+00	0	44	0	1643118592	15	4560
2026-01-16 00:35:29.26	205.92	30.20	-28.1	-29.9	14.8	2.91e-03	0	44	0	1647312896	16	4450
2026-01-16 00:35:29.99	205.90	30.05	-27.8	-29.3	15.2	0.00e+00	0	44	0	1649410048	16	4256
2026-01-16 00:35:31.27	205.87	29.81	-27.6	-29.3	15.2	3.94e-04	0	44	0	1653604352	15	4391
2026-01-16 00:35:32.00	205.86	29.67	-27.5	-29.0	15.4	0.00e+00	0	44	0	1655701504	15	4318
2026-01-16 00:35:33.29	205.83	29.43	-27.5	-29.2	15.3	0.00e+00	0	44	0	1659895808	15	4357
2026-01-16 00:35:34.00	205.81	29.30	-27.6	-29.3	15.2	0.00e+00	0	44	0	1661992960	15	4384
2026-01-16 00:35:35.28	205.78	29.06	-27.7	-29.5	15.1	6.96e-04	0	44	0	1666187264	15	4461
2026-01-16 00:35:36.02	205.77	28.92	-27.8	-29.7	15.0	0.00e+00	0	44	0	1668284416	15	4523
2026-01-16 00:35:37.30	205.74	28.69	-27.6	-29.4	15.1	8.77e-05	0	44	0	1672478720	15	4439
2026-01-16 00:35:38.02	205.72	28.56	-27.7	-29.5	15.1	0.00e+00	0	44	0	1674575872	15	4456
2026-01-16 00:35:39.31	205.70	28.32	-27.6	-29.4	15.2	1.43e-03	0	43	0	1677721600	15	4429
2026-01-16 00:35:40.03	205.68	28.19	-27.6	-29.3	15.2	0.00e+00	0	43	0	1680867328	15	4393
2026-01-16 00:35:41.32	205.66	27.96	-27.5	-29.2	15.3	2.70e-03	0	44	0	1685061632	15	4368
2026-01-16 00:35:42.03	205.64	27.84	-27.6	-29.3	14.0	0.00e+00	0	44	0	1687158784	15	4388
2026-01-16 00:35:43.32	205.62	27.61	-27.4	-29.4	15.4	3.35e-04	0	44	0	1691353088	14	4519
2026-01-16 00:35:44.04	205.60	27.48	-27.4	-29.3	15.3	0.00e+00	0	44	0	1693450240	14	4519
2026-01-16 00:35:45.32	205.58	27.26	-27.1	-28.8	15.7	3.75e-03	0	44	0	1697644544	14	4376
2026-01-16 00:35:46.04	205.56	27.14	-27.0	-28.5	15.9	8.30e-06	0	44	0	1699741696	14	4283
2026-01-16 00:35:47.33	205.54	26.91	-26.8	-28.5	16.2	3.76e-03	0	44	0	1702887424	13	4373
2026-01-16 00:35:48.04	205.53	26.79	-26.7	-28.4	16.2	3.62e-03	0	44	0	1706033152	13	4361
2026-01-16 00:35:49.33	205.50	26.57	-26.5	-28.0	16.4	8.42e-04	0	44	0	1709178880	13	4241
2026-01-16 00:35:50.04	205.49	26.45	-26.5	-27.8	16.5	0.00e+00	0	44	0	1712324608	13	4202
2026-01-16 00:35:51.35	205.47	26.24	-26.5	-27.8	16.5	3.35e-03	0	44	0	1715470336	13	4193
2026-01-16 00:35:52.07	205.45	26.12	-26.5	-27.8	16.5	9.90e-06	0	44	0	1718616064	13	4196
2026-01-16 00:35:53.35	205.43	25.90	-26.5	-27.9	16.4	6.62e-04	0	44	0	1721761792	13	4229
2026-01-16 00:35:54.07	205.42	25.78	-26.6	-28.0	16.4	3.78e-03	0	44	0	1724907520	13	4257
2026-01-16 00:35:55.35	205.40	25.58	-26.7	-28.2	16.2	0.00e+00	0	44	0	1728053248	13	4321
2026-01-16 00:35:56.07	205.39	25.46	-26.7	-28.3	16.2	0.00e+00	0	44	0	1731198976	13	4323
2026-01-16 00:35:57.36	205.36	25.25	-26.6	-28.1	16.3	3.70e-03	0	44	0	1734344704	13	4277
2026-01-16 00:35:58.07	205.35	25.14	-26.7	-28.2	16.2	0.00e+00	0	44	0	1737490432	13	4322
2026-01-16 00:35:59.36	205.33	24.93	-26.7	-28.3	16.2	5.33e-04	0	44	0	1740636160	13	4347
2026-01-16 00:36:00.08	205.32	24.82	-26.8	-28.5	16.1	3.45e-03	0	44	0	1742733312	13	4386
2026-01-16 00:36:01.39	205.30	24.61	-26.7	-28.4	16.1	5.48e-04	0	44	0	1746927616	13	4375
2026-01-16 00:36:02.11	205.29	24.50	-26.8	-28.6	16.0	3.44e-03	0	44	0	1749024768	13	4411
2026-01-16 00:36:03.40	205.27	24.29	-26.9	-28.8	15.9	0.00e+00	0	44	0	1753219072	13	4475
2026-01-16 00:36:04.11	205.26	24.18	-26.9	-28.8	15.9	0.00e+00	0	44	0	1755316224	13	4488
2026-01-16 00:36:05.41	205.24	23.98	-27.0	-28.9	15.8	5.82e-04	0	44	0	1759510528	13	4509
2026-01-16 00:36:06.12	205.23	23.88	-26.9	-28.4	15.9	3.77e-03	0	44	0	1762656256	14	4245
2026-01-16 00:36:07.41	205.21	23.68	-27.0	-28.5	15.8	5.65e-04	0	44	0	1765801984	14	4272
2026-01-16 00:36:08.14	205.20	23.57	-27.0	-28.4	15.1	3.77e-03	0	44	0	1767899136	14	4262
2026-01-16 00:36:09.42	205.18	23.38	-26.9	-28.8	15.9	0.00e+00	0	44	0	1772093440	13	4463
2026-01-16 00:36:10.15	205.17	23.27	-26.9	-28.7	15.9	7.60e-06	0	43	0	1774190592	13	4454
2026-01-16 00:36:11.44	205.15	23.08	-26.8	-28.5	16.0	4.61e-04	0	44	0	1778384896	13	4392
2026-01-16 00:36:12.16	205.14	22.97	-26.6	-28.2	16.2	0.00e+00	0	44	0	1780482048	13	4305
2026-01-16 00:36:13.45	205.12	22.78	-26.6	-28.1	16.2	0.00e+00	0	44	0	1784676352	13	4284
2026-01-16 00:36:14.17	205.11	22.67	-26.6	-28.2	16.2	3.93e-03	0	44	0	1787822080	13	4302
2026-01-16 00:36:15.45	205.09	22.49	-26.5	-27.9	16.3	0.00e+00	0	44	0	1790967808	13	4219
2026-01-16 00:36:16.17	205.08	22.38	-26.6	-28.1	16.2	6.63e-05	0	44	0	1793064960	13	4276
2026-01-16 00:36:17.46	205.07	22.20	-26.6	-28.1	16.2	0.00e+00	0	44	0	1797259264	13	4287
2026-01-16 00:36:18.18	205.06	22.10	-26.5	-27.9	16.4	0.00e+00	0	43	0	1799356416	13	4220
2026-01-16 00:36:19.47	205.04	21.91	-26.5	-27.9	16.3	0.00e+00	0	44	0	1803550720	13	4224
2026-01-16 00:36:20.19	205.03	21.81	-26.6	-28.1	16.3	3.50e-03	0	44	0	1805647872	13	4268
2026-01-16 00:36:21.48	205.02	21.63	-26.6	-28.0	16.3	0.00e+00	0	44	0	1809842176	13	4258
2026-01-16 00:36:22.20	205.01	21.53	-26.5	-27.8	16.4	2.80e-04	0	44	0	1811939328	13	4203
2026-01-16 00:36:23.48	204.99	21.35	-26.6	-28.2	16.2	0.00e+00	0	43	0	1816133632	13	4298
2026-01-16 00:36:24.20	204.98	21.25	-26.6	-28.1	16.2	0.00e+00	0	43	0	1818230784	13	4282
2026-01-16 00:36:25.50	204.97	21.07	-26.7	-28.3	16.1	2.69e-04	0	44	0	1822425088	13	4328
2026-01-16 00:36:26.21	204.96	20.98	-26.7	-28.3	16.1	2.93e-04	0	44	0	1824522240	13	4345
2026-01-16 00:36:27.50	204.94	20.80	-26.7	-28.2	16.1	9.90e-06	0	44	0	1828716544	13	4320
2026-01-16 00:36:28.21	204.94	20.70	-26.8	-28.5	16.0	2.46e-04	0	44	0	1830813696	13	4390
2026-01-16 00:36:29.50	204.92	20.53	-26.8	-28.6	15.9	0.00e+00	0	44	0	1835008000	13	4420
2026-01-16 00:36:30.22	204.91	20.43	-26.7	-28.4	16.0	0.00e+00	0	44	0	1837105152	13	4357
2026-01-16 00:36:31.51	204.90	20.26	-26.8	-28.5	16.0	0.00e+00	0	44	0	1841299456	13	4384
2026-01-16 00:36:32.22	204.89	20.17	-26.9	-28.8	15.8	1.46e-04	0	44	0	1843396608	13	4475
2026-01-16 00:36:33.52	204.88	20.00	-26.9	-28.3	15.8	8.30e-06	0	44	0	1847590912	14	4234
2026-01-16 00:36:34.23	204.87	19.90	-26.9	-28.9	15.7	1.29e-04	0	44	0	1849688064	13	4495
2026-01-16 00:36:35.52	204.85	19.74	-26.9	-28.8	15.8	0.00e+00	0	44	0	1853882368	13	4489
2026-01-16 00:36:36.24	204.85	19.64	-27.1	-28.7	15.6	0.00e+00	0	43	0	1855979520	14	4327
2026-01-16 00:36:37.53	204.83	19.48	-27.2	-29.0	15.4	7.00e-07	0	44	0	1860173824	14	4427
2026-01-16 00:36:38.24	204.83	19.39	-27.2	-29.0	15.3	8.77e-05	0	44	0	1862270976	14	4437
2026-01-16 00:36:39.53	204.81	19.22	-27.6	-29.5	14.8	1.22e-05	0	44	0	1866465280	15	4445
2026-01-16 00:36:40.24	204.81	19.13	-27.7	-29.6	14.8	6.86e-05	0	44	0	1868562432	15	4477
2026-01-16 00:36:41.52	204.79	18.97	-27.7	-29.8	14.7	0.00e+00	0	44	0	1872756736	15	4534
2026-01-16 00:36:42.24	204.78	18.88	-27.8	-29.9	14.6	0.00e+00	0	44	0	1874853888	15	4571
2026-01-16 00:36:43.53	204.77	18.72	-27.8	-29.9	14.5	1.50e-06	0	44	0	1879048192	15	4587
2026-01-16 00:36:44.25	204.77	18.63	-27.9	-30.1	14.4	7.01e-05	0	44	0	1881145344	15	4635
2026-01-16 00:36:45.54	204.75	18.47	-27.9	-30.0	14.5	2.20e-06	0	44	0	1885339648	15	4618
2026-01-16 00:36:46.25	204.75	18.38	-28.2	-30.2	14.3	7.00e-07	0	44	0	1887436800	16	4556
2026-01-16 00:36:47.54	204.73	18.22	-28.3	-30.5	14.1	0.00e+00	0	44	0	1891631104	16	4642
2026-01-16 00:36:48.26	204.73	18.13	-28.1	-30.1	14.3	3.00e-06	0	43	0	1893728256	16	4510
2026-01-16 00:36:49.55	204.72	17.98	-27.9	-29.5	14.7	0.00e+00	0	44	0	1897922560	16	4339
2026-01-16 00:36:50.27	204.71	17.89	-27.6	-29.5	14.7	0.00e+00	0	44	0	1900019712	15	4467
2026-01-16 00:36:51.56	204.70	17.74	-27.6	-29.4	14.8	7.00e-07	0	44	0	1904214016	15	4443
2026-01-16 00:36:52.27	204.69	17.65	-27.6	-29.4	14.8	7.00e-07	0	44	0	1906311168	15	4435
2026-01-16 00:36:53.56	204.68	17.50	-27.6	-29.5	14.7	0.00e+00	0	44	0	1910505472	15	4480
2026-01-16 00:36:54.27	204.67	17.41	-27.7	-29.8	14.6	1.44e-05	0	44	0	1912602624	15	4543
2026-01-16 00:36:55.56	204.66	17.26	-27.0	-29.2	13.7	0.00e+00	0	43	0	1916796928	15	4620
2026-01-16 00:36:56.27	204.66	17.18	-27.7	-29.6	14.7	7.00e-07	0	43	0	1918894080	15	4509
2026-01-16 00:36:57.58	204.64	17.03	-27.6	-29.6	14.7	0.00e+00	0	44	0	1923088384	15	4488
2026-01-16 00:36:58.29	204.64	16.94	-27.8	-30.0	14.5	0.00e+00	0	44	0	1925185536	15	4607
2026-01-16 00:36:59.57	204.63	16.79	-27.7	-29.7	14.6	3.72e-03	0	44	0	1929379840	15	4524
2026-01-16 00:37:00.28	204.62	16.71	-27.7	-29.7	14.6	1.22e-05	0	44	0	1931476992	15	4517
2026-01-16 00:37:01.58	204.61	16.56	-27.8	-29.8	14.5	7.00e-07	0	44	0	1935671296	15	4561
2026-01-16 00:37:02.30	204.61	16.48	-27.7	-29.7	14.5	0.00e+00	0	44	0	1937768448	15	4537
2026-01-16 00:37:03.58	204.60	16.34	-27.8	-29.9	14.4	5.29e-04	0	44	0	1941962752	15	4598
2026-01-16 00:37:04.29	204.59	16.26	-27.8	-29.9	14.4	1.06e-05	0	44	0	1944059904	15	4594
2026-01-16 00:37:05.60	204.58	16.11	-27.8	-29.9	14.5	7.00e-07	0	44	0	1948254208	15	4583
2026-01-16 00:37:06.32	204.57	16.03	-27.9	-30.1	14.3	7.00e-07	0	44	0	1950351360	15	4651
2026-01-16 00:37:07.61	204.56	15.89	-28.1	-30.0	14.2	2.20e-06	0	44	0	1954545664	16	4497
2026-01-16 00:37:08.33	204.56	15.81	-28.0	-29.8	14.4	0.00e+00	0	44	0	1956642816	16	4431
2026-01-16 00:37:09.62	204.55	15.66	-27.9	-30.1	14.3	5.46e-04	0	44	0	1960837120	15	4661
2026-01-16 00:37:10.34	204.54	15.58	-27.8	-30.0	14.3	7.00e-07	0	44	0	1962934272	15	4639
2026-01-16 00:37:11.64	204.53	15.44	-27.9	-30.1	14.3	3.35e-03	0	44	0	1967128576	15	4665
2026-01-16 00:37:12.36	204.53	15.36	-28.2	-30.3	14.0	0.00e+00	0	44	0	1969225728	16	4602
2026-01-16 00:37:13.64	204.52	15.22	-28.0	-29.9	14.3	3.40e-03	0	44	0	1973420032	16	4460
2026-01-16 00:37:14.35	204.51	15.15	-28.0	-29.9	14.3	1.50e-06	0	44	0	1975517184	16	4477
2026-01-16 00:37:15.66	204.50	15.01	-27.9	-30.1	14.3	5.51e-04	0	43	0	1979711488	15	4656
2026-01-16 00:37:16.37	204.50	14.93	-27.8	-30.0	14.3	2.20e-06	0	44	0	1981808640	15	4636
2026-01-16 00:37:17.66	204.49	14.79	-27.8	-30.0	14.3	3.65e-03	0	44	0	1986002944	15	4637
2026-01-16 00:37:18.39	204.49	14.72	-28.0	-30.3	13.6	7.00e-07	0	44	0	1988100096	15	4715
2026-01-16 00:37:19.68	204.48	14.58	-27.9	-30.1	14.2	3.64e-03	0	44	0	1992294400	15	4661
2026-01-16 00:37:20.39	204.47	14.51	-27.9	-30.1	14.0	3.00e-06	0	43	0	1994391552	15	4647
2026-01-16 00:37:21.68	204.46	14.37	-27.8	-30.0	14.3	5.80e-04	0	44	0	1998585856	15	4627
2026-01-16 00:37:22.39	204.46	14.30	-27.7	-29.8	14.4	3.34e-03	0	44	0	2000683008	15	4566
2026-01-16 00:37:23.67	204.45	14.16	-27.8	-30.1	14.2	3.73e-03	0	44	0	2004877312	15	4645
2026-01-16 00:37:24.39	204.45	14.09	-27.9	-30.1	14.2	0.00e+00	0	44	0	2006974464	15	4654
2026-01-16 00:37:25.67	204.44	13.96	-27.8	-29.8	14.4	3.65e-03	0	44	0	2011168768	15	4582
2026-01-16 00:37:26.39	204.43	13.88	-27.9	-30.2	14.1	7.00e-07	0	44	0	2013265920	15	4684
2026-01-16 00:37:27.67	204.43	13.75	-27.9	-30.1	14.2	1.22e-05	0	44	0	2017460224	15	4670
2026-01-16 00:37:28.38	204.42	13.68	-27.8	-30.0	14.2	2.20e-06	0	44	0	2019557376	15	4629
2026-01-16 00:37:29.67	204.41	13.55	-27.8	-30.0	14.2	3.33e-03	0	44	0	2023751680	15	4631
2026-01-16 00:37:30.38	204.41	13.48	-28.2	-30.3	14.0	4.50e-06	0	43	0	2025848832	16	4585
2026-01-16 00:37:31.68	204.40	13.35	-28.1	-30.2	14.0	5.30e-06	0	43	0	2028994560	16	4583
2026-01-16 00:37:32.39	204.40	13.28	-28.1	-30.2	14.0	3.50e-03	0	44	0	2032140288	16	4557
2026-01-16 00:37:33.69	204.39	13.15	-28.4	-30.7	13.6	2.51e-05	0	44	0	2035286016	16	4734
2026-01-16 00:37:34.42	204.39	13.08	-28.1	-30.2	14.0	5.30e-06	0	44	0	2038431744	16	4552
2026-01-16 00:37:35.70	204.38	12.95	-27.9	-30.3	14.0	3.29e-03	0	44	0	2041577472	15	4719
2026-01-16 00:37:36.41	204.37	12.88	-28.1	-30.2	13.9	4.20e-04	0	44	0	2043674624	16	4581
2026-01-16 00:37:37.72	204.37	12.75	-28.3	-30.7	13.6	3.35e-05	0	44	0	2047868928	16	4730
2026-01-16 00:37:38.43	204.36	12.68	-28.3	-30.7	13.6	2.90e-03	0	43	0	2051014656	16	4733
2026-01-16 00:37:39.72	204.36	12.56	-28.4	-30.9	13.5	5.95e-05	0	44	0	2054160384	16	4804
2026-01-16 00:37:40.44	204.35	12.49	-28.7	-31.1	13.1	1.90e-05	0	44	0	2057306112	17	4755
2026-01-16 00:37:41.73	204.34	12.36	-28.4	-30.4	13.5	3.28e-05	0	44	0	2060451840	17	4531
2026-01-16 00:37:42.45	204.34	12.29	-28.2	-30.4	13.8	5.19e-04	0	44	0	2063597568	16	4639
2026-01-16 00:37:43.73	204.33	12.17	-28.1	-30.1	14.0	6.17e-05	0	44	0	2066743296	16	4538
2026-01-16 00:37:44.46	204.33	12.10	-28.0	-30.0	14.0	2.80e-03	0	43	0	2068840448	16	4512
2026-01-16 00:37:45.75	204.32	11.98	-28.2	-30.3	13.8	5.49e-05	0	44	0	2073034752	16	4586
2026-01-16 00:37:46.46	204.32	11.91	-28.0	-29.9	14.1	2.61e-03	0	44	0	2075131904	16	4472
2026-01-16 00:37:47.74	204.31	11.79	-28.2	-30.3	13.9	1.44e-05	0	44	0	2079326208	16	4589
2026-01-16 00:37:48.48	204.31	11.72	-27.9	-30.0	13.8	4.06e-04	0	44	0	2082471936	16	4602
2026-01-16 00:37:49.77	204.30	11.60	-28.2	-30.3	13.8	9.68e-05	0	44	0	2085617664	16	4602
2026-01-16 00:37:50.48	204.30	11.54	-28.1	-30.2	13.9	1.29e-05	0	44	0	2087714816	16	4573
2026-01-16 00:37:51.78	204.29	11.42	-28.5	-31.1	13.4	2.28e-05	0	44	0	2091909120	16	4848
2026-01-16 00:37:52.50	204.29	11.35	-28.4	-30.8	13.5	3.17e-03	0	44	0	2094006272	16	4766
2026-01-16 00:37:53.79	204.28	11.23	-28.4	-30.9	13.5	1.60e-05	0	44	0	2098200576	16	4790
2026-01-16 00:37:54.51	204.28	11.16	-28.4	-30.9	13.5	4.41e-04	0	44	0	2100297728	16	4788
2026-01-16 00:37:55.80	204.27	11.05	-28.4	-30.8	13.5	7.70e-05	0	44	0	2104492032	16	4775
2026-01-16 00:37:56.52	204.27	10.98	-28.6	-30.8	13.2	2.36e-05	0	44	0	2107637760	17	4636
2026-01-16 00:37:57.81	204.26	10.86	-28.8	-31.3	12.9	4.11e-05	0	44	0	2110783488	17	4808
2026-01-16 00:37:58.53	204.26	10.80	-28.6	-30.9	13.1	3.40e-03	0	44	0	2112880640	17	4672
2026-01-16 00:37:59.81	204.26	10.68	-28.4	-30.9	13.4	1.44e-05	0	44	0	2117074944	16	4784
2026-01-16 00:38:00.54	204.25	10.62	-28.6	-30.8	13.1	2.05e-05	0	44	0	2119172096	17	4662
2026-01-16 00:38:01.83	204.25	10.50	-28.4	-30.4	13.4	1.37e-05	0	44	0	2123366400	17	4525
2026-01-16 00:38:02.54	204.24	10.44	-28.3	-30.7	13.5	1.60e-05	0	44	0	2125463552	16	4745
2026-01-16 00:38:03.85	204.24	10.32	-28.5	-30.6	13.3	2.44e-05	0	44	0	2129657856	17	4578
2026-01-16 00:38:04.56	204.23	10.26	-28.4	-30.9	13.3	1.83e-05	0	44	0	2131755008	16	4813
2026-01-16 00:38:05.85	204.23	10.15	-28.6	-30.9	13.0	5.26e-05	0	44	0	2135949312	17	4695
