passes_logs/2026/01/16/R2M6_AANII_01/R2M6_AANII_01__20260116_052016_FENGYUN_3E_rec.log

#Pass ID: 20260116_052016_FENGYUN 3E
#Satellite: FENGYUN 3E
#Configuration: FENGYUN 3E
#almurnet v.1.7.20240730
#Start time: 2026-01-16 05:20:16

#Version: 2.2.20231116
#Station: R2M6_AANII_01
#Location: 30.233357 lon 59.946436 lat
#TLE: 1 49008U 21062A   26015.49897766  .00000206  00000+0  11779-3 0  9997
#TLE: 2 49008  98.7486  20.6219 0002049 135.8566 224.2775 14.19885576234916

#Time	Az	El	Level	Level2	SNR	BER	BlckErr	Temp	State	Recorded	gain1	gain2
2026-01-16 05:20:16.27	14.75	6.97	-29.8	-32.3	5.2	7.84e-01	0	41	0	0	19	4815
2026-01-16 05:20:17.27	14.71	7.05	-30.2	-33.0	5.1	7.87e-01	0	41	104	0	20	4992
2026-01-16 05:20:18.27	14.68	7.12	-30.2	-33.1	8.3	6.38e-02	0	41	0	0	20	4979
2026-01-16 05:20:19.27	14.65	7.20	-30.1	-32.7	8.6	2.80e-02	0	41	0	7340032	20	4852
2026-01-16 05:20:20.26	14.61	7.27	-30.3	-33.4	8.1	7.36e-02	0	41	0	13631488	20	5097
2026-01-16 05:20:21.26	14.58	7.35	-30.2	-32.8	8.5	4.02e-02	0	41	0	20971520	20	4883
2026-01-16 05:20:22.26	14.54	7.43	-30.3	-33.1	8.4	4.65e-02	0	42	0	28311552	20	4974
2026-01-16 05:20:23.27	14.51	7.50	-30.3	-33.2	8.3	4.60e-02	0	42	0	35651584	20	5028
2026-01-16 05:20:24.26	14.47	7.58	-30.6	-33.7	7.6	8.98e-02	0	42	0	42991616	21	5131
2026-01-16 05:20:25.26	14.43	7.66	-30.4	-32.9	8.1	5.78e-02	0	42	0	50331648	21	4815
2026-01-16 05:20:26.26	14.40	7.73	-29.8	-31.6	9.3	1.96e-02	0	42	0	57671680	20	4473
2026-01-16 05:20:27.26	14.36	7.81	-29.1	-30.3	10.6	5.87e-03	0	42	0	63963136	19	4163
2026-01-16 05:20:28.26	14.33	7.89	-28.6	-29.7	11.3	2.05e-03	0	42	0	71303168	18	4067
2026-01-16 05:20:29.27	14.29	7.97	-28.3	-29.3	11.9	4.31e-04	0	42	0	79691776	17	4072
2026-01-16 05:20:30.27	14.25	8.04	-27.7	-28.4	12.7	7.55e-05	0	42	0	85983232	16	3923
2026-01-16 05:20:31.27	14.22	8.12	-27.2	-27.9	13.2	4.11e-05	0	42	0	93323264	15	3900
2026-01-16 05:20:32.28	14.18	8.20	-27.2	-27.8	13.2	3.66e-05	0	42	0	100663296	15	3872
2026-01-16 05:20:33.28	14.14	8.28	-27.5	-28.5	12.8	4.80e-05	0	42	0	108003328	15	4052
2026-01-16 05:20:34.29	14.10	8.36	-27.6	-28.9	12.6	1.17e-04	0	42	0	115343360	15	4168
2026-01-16 05:20:35.29	14.06	8.44	-27.2	-27.8	13.2	5.26e-05	0	42	0	122683392	15	3860
2026-01-16 05:20:36.29	14.03	8.52	-27.8	-29.2	12.4	7.20e-05	0	42	0	130023424	15	4251
2026-01-16 05:20:37.30	13.99	8.60	-27.2	-27.9	13.2	2.74e-05	0	42	0	137363456	15	3880
2026-01-16 05:20:38.30	13.95	8.68	-27.3	-28.1	13.1	5.83e-05	0	42	0	144703488	15	3939
2026-01-16 05:20:39.30	13.91	8.76	-27.2	-28.5	13.2	2.17e-05	0	42	0	150994944	14	4143
2026-01-16 05:20:40.30	13.87	8.84	-27.2	-28.3	13.3	2.86e-05	0	42	0	158334976	14	4086
2026-01-16 05:20:41.31	13.83	8.92	-27.5	-29.0	12.9	2.17e-05	0	42	0	165675008	14	4284
2026-01-16 05:20:42.31	13.79	9.00	-27.4	-28.9	12.9	5.72e-05	0	42	0	173015040	14	4252
2026-01-16 05:20:43.31	13.75	9.08	-27.1	-28.0	13.4	1.48e-05	0	42	0	180355072	14	4031
2026-01-16 05:20:44.30	13.71	9.16	-26.9	-27.7	13.7	2.20e-06	0	42	0	187695104	14	3943
2026-01-16 05:20:45.29	13.67	9.24	-26.7	-27.8	13.9	1.10e-06	0	42	0	195035136	13	4058
2026-01-16 05:20:46.29	13.63	9.33	-26.8	-27.9	13.8	8.00e-06	0	42	0	202375168	13	4104
2026-01-16 05:20:47.29	13.59	9.41	-27.0	-27.9	13.5	2.17e-05	0	42	0	208666624	14	3986
2026-01-16 05:20:48.28	13.55	9.49	-26.9	-27.7	13.7	3.40e-06	0	42	0	216006656	14	3936
2026-01-16 05:20:49.28	13.51	9.57	-26.9	-28.2	13.6	9.10e-06	0	42	0	223346688	13	4190
2026-01-16 05:20:50.29	13.47	9.66	-26.7	-27.8	13.9	6.80e-06	0	42	0	230686720	13	4057
2026-01-16 05:20:51.29	13.42	9.74	-26.6	-27.4	14.1	2.20e-06	0	42	0	238026752	13	3970
2026-01-16 05:20:52.30	13.38	9.82	-26.5	-27.4	14.2	3.40e-06	0	43	0	245366784	13	3954
2026-01-16 05:20:53.29	13.34	9.91	-26.4	-27.2	14.3	1.10e-06	0	43	0	252706816	13	3905
2026-01-16 05:20:54.29	13.30	9.99	-26.6	-27.5	14.1	2.20e-06	0	43	0	260046848	13	3979
2026-01-16 05:20:55.29	13.25	10.07	-26.5	-27.3	14.2	1.10e-06	0	42	0	267386880	13	3930
2026-01-16 05:20:56.29	13.21	10.16	-26.9	-28.1	13.8	1.10e-06	0	42	0	273678336	13	4160
2026-01-16 05:20:57.29	13.17	10.24	-26.9	-27.8	13.7	5.70e-06	0	43	0	281018368	14	3955
2026-01-16 05:20:58.29	13.12	10.33	-26.7	-27.6	14.0	4.50e-06	0	43	0	288358400	13	4021
2026-01-16 05:20:59.30	13.08	10.41	-26.3	-26.9	14.5	0.00e+00	0	43	0	295698432	13	3827
2026-01-16 05:21:00.31	13.03	10.50	-26.4	-27.6	14.3	2.20e-06	0	43	0	303038464	12	4131
2026-01-16 05:21:01.31	12.99	10.59	-26.3	-27.2	14.6	0.00e+00	0	42	0	310378496	12	4026
2026-01-16 05:21:02.31	12.95	10.67	-25.3	-26.1	14.1	0.00e+00	0	43	0	317718528	12	3955
2026-01-16 05:21:03.31	12.90	10.76	-26.3	-27.4	13.6	0.00e+00	0	43	0	325058560	12	4065
2026-01-16 05:21:04.31	12.85	10.84	-26.5	-27.2	14.3	1.10e-06	0	43	0	332398592	13	3910
2026-01-16 05:21:05.31	12.81	10.93	-26.2	-27.0	14.7	0.00e+00	0	43	0	338690048	12	3975
2026-01-16 05:21:06.31	12.76	11.02	-26.3	-27.4	14.5	1.10e-06	0	43	0	346030080	12	4058
2026-01-16 05:21:07.31	12.72	11.11	-26.1	-26.9	14.8	1.10e-06	0	43	0	353370112	12	3940
2026-01-16 05:21:08.32	12.67	11.20	-26.1	-26.9	14.8	0.00e+00	0	43	0	360710144	12	3945
2026-01-16 05:21:09.31	12.62	11.28	-26.1	-27.0	14.7	0.00e+00	0	43	0	368050176	12	3960
2026-01-16 05:21:10.32	12.57	11.37	-26.2	-27.0	14.7	0.00e+00	0	43	0	375390208	12	3975
2026-01-16 05:21:11.32	12.53	11.46	-26.0	-27.2	14.9	0.00e+00	0	43	0	382730240	11	4108
2026-01-16 05:21:12.31	12.48	11.55	-26.1	-26.8	14.8	4.10e-04	0	43	0	390070272	12	3926
2026-01-16 05:21:13.31	12.43	11.64	-26.2	-27.0	14.8	0.00e+00	0	43	0	396361728	12	3952
2026-01-16 05:21:14.31	12.38	11.73	-26.0	-27.1	15.0	0.00e+00	0	43	0	403701760	11	4085
2026-01-16 05:21:15.32	12.33	11.82	-26.0	-27.1	15.1	3.89e-04	0	43	0	411041792	11	4080
2026-01-16 05:21:16.32	12.28	11.91	-25.9	-26.3	15.1	0.00e+00	0	43	0	418381824	12	3790
2026-01-16 05:21:17.32	12.24	12.00	-26.1	-26.8	14.9	3.76e-04	0	43	0	425721856	12	3903
2026-01-16 05:21:18.32	12.19	12.09	-26.1	-26.8	14.9	4.07e-04	0	43	0	433061888	12	3917
2026-01-16 05:21:19.32	12.14	12.18	-25.9	-26.4	15.1	1.10e-06	0	43	0	440401920	12	3804
2026-01-16 05:21:20.33	12.08	12.27	-25.8	-26.7	15.3	4.10e-04	0	43	0	447741952	11	3995
2026-01-16 05:21:21.33	12.03	12.37	-25.9	-26.9	15.2	0.00e+00	0	43	0	455081984	11	4044
2026-01-16 05:21:22.33	11.98	12.46	-25.9	-27.0	15.2	0.00e+00	0	43	0	462422016	11	4054
2026-01-16 05:21:23.33	11.93	12.55	-25.9	-27.0	15.2	3.49e-04	0	43	0	469762048	11	4052
2026-01-16 05:21:24.33	11.88	12.64	-25.8	-26.6	15.4	3.20e-04	0	43	0	477102080	11	3965
2026-01-16 05:21:25.34	11.83	12.74	-25.9	-26.8	15.2	0.00e+00	0	43	0	483393536	11	4023
2026-01-16 05:21:26.34	11.77	12.83	-25.9	-26.5	15.1	3.43e-04	0	43	0	490733568	12	3837
2026-01-16 05:21:27.34	11.72	12.92	-25.9	-26.9	15.2	2.86e-04	0	43	0	498073600	11	4037
2026-01-16 05:21:28.35	11.67	13.02	-25.7	-26.5	15.4	0.00e+00	0	43	0	505413632	11	3943
2026-01-16 05:21:29.35	11.61	13.11	-25.7	-26.4	15.5	2.44e-04	0	43	0	512753664	11	3904
2026-01-16 05:21:30.35	11.56	13.21	-25.8	-26.7	15.3	2.56e-04	0	43	0	520093696	11	3990
2026-01-16 05:21:31.36	11.50	13.30	-25.9	-26.8	15.3	0.00e+00	0	43	0	527433728	11	4009
2026-01-16 05:21:32.35	11.45	13.40	-25.9	-26.9	15.3	2.56e-04	0	43	0	534773760	11	4027
2026-01-16 05:21:33.35	11.39	13.50	-25.8	-26.6	15.4	2.35e-04	0	43	0	542113792	11	3946
2026-01-16 05:21:34.35	11.34	13.59	-25.7	-26.5	15.5	0.00e+00	0	43	0	548405248	11	3937
2026-01-16 05:21:35.36	11.28	13.69	-25.7	-26.5	15.5	2.47e-04	0	43	0	555745280	11	3931
2026-01-16 05:21:36.36	11.23	13.79	-25.7	-26.5	15.5	2.66e-04	0	43	0	563085312	11	3930
2026-01-16 05:21:37.36	11.17	13.88	-25.6	-26.2	15.6	0.00e+00	0	43	0	570425344	11	3872
2026-01-16 05:21:38.35	11.11	13.98	-25.7	-26.4	15.6	2.64e-04	0	43	0	577765376	11	3906
2026-01-16 05:21:39.35	11.05	14.08	-25.4	-26.4	15.8	1.10e-06	0	43	0	585105408	10	4011
2026-01-16 05:21:40.36	11.00	14.18	-25.4	-26.3	15.9	0.00e+00	0	43	0	592445440	10	3991
2026-01-16 05:21:41.36	10.94	14.28	-25.4	-26.3	15.9	0.00e+00	0	43	0	599785472	10	3993
2026-01-16 05:21:42.36	10.88	14.38	-25.6	-26.1	15.7	0.00e+00	0	43	0	606076928	11	3837
2026-01-16 05:21:43.36	10.82	14.47	-25.4	-25.8	15.9	0.00e+00	0	43	0	613416960	11	3772
2026-01-16 05:21:44.36	10.76	14.57	-25.2	-25.9	16.1	0.00e+00	0	43	0	620756992	10	3892
2026-01-16 05:21:45.35	10.70	14.67	-25.4	-26.2	16.0	2.80e-04	0	43	0	628097024	10	3961
2026-01-16 05:21:46.35	10.64	14.77	-25.2	-25.9	16.2	0.00e+00	0	43	0	635437056	10	3891
2026-01-16 05:21:47.35	10.58	14.88	-25.3	-26.2	16.0	0.00e+00	0	43	0	642777088	10	3956
2026-01-16 05:21:48.35	10.52	14.98	-25.3	-26.1	16.0	3.41e-04	0	43	0	650117120	10	3951
2026-01-16 05:21:49.35	10.46	15.08	-25.4	-26.2	16.0	0.00e+00	0	43	0	657457152	10	3959
2026-01-16 05:21:50.35	10.39	15.18	-25.5	-26.0	15.8	0.00e+00	0	43	0	664797184	11	3814
2026-01-16 05:21:51.36	10.33	15.28	-25.7	-26.4	15.6	0.00e+00	0	43	0	671088640	11	3899
2026-01-16 05:21:52.35	10.27	15.39	-25.7	-26.4	15.7	0.00e+00	0	43	0	678428672	11	3897
2026-01-16 05:21:53.35	10.20	15.49	-25.6	-26.6	15.8	3.42e-04	0	43	0	685768704	10	4067
2026-01-16 05:21:54.36	10.14	15.59	-25.4	-26.3	15.9	1.10e-06	0	43	0	693108736	10	4001
2026-01-16 05:21:55.36	10.07	15.70	-25.5	-25.9	15.9	0.00e+00	0	43	0	700448768	11	3787
2026-01-16 05:21:56.36	10.01	15.80	-25.5	-26.5	15.9	0.00e+00	0	44	0	707788800	10	4037
2026-01-16 05:21:57.37	9.94	15.91	-25.6	-26.3	15.7	0.00e+00	0	43	0	715128832	11	3886
2026-01-16 05:21:58.37	9.88	16.01	-25.3	-25.7	16.0	0.00e+00	0	43	0	722468864	11	3736
2026-01-16 05:21:59.37	9.81	16.12	-25.0	-25.5	16.4	0.00e+00	0	43	0	729808896	10	3791
2026-01-16 05:22:00.37	9.74	16.23	-25.0	-25.4	16.4	0.00e+00	0	43	0	737148928	10	3782
2026-01-16 05:22:01.38	9.67	16.33	-24.8	-25.1	16.7	0.00e+00	0	43	0	744488960	10	3694
2026-01-16 05:22:02.37	9.61	16.44	-24.9	-25.1	16.6	0.00e+00	0	44	0	751828992	10	3713
2026-01-16 05:22:03.37	9.54	16.55	-24.8	-25.4	16.7	0.00e+00	0	44	0	758120448	9	3885
2026-01-16 05:22:04.37	9.47	16.66	-24.7	-25.4	16.7	1.10e-06	0	43	0	765460480	9	3867
2026-01-16 05:22:05.37	9.40	16.76	-24.6	-25.1	16.9	0.00e+00	0	43	0	772800512	9	3810
2026-01-16 05:22:06.38	9.33	16.87	-24.8	-25.6	16.6	0.00e+00	0	43	0	780140544	9	3923
2026-01-16 05:22:07.38	9.26	16.98	-24.7	-25.2	16.9	0.00e+00	0	44	0	787480576	9	3826
2026-01-16 05:22:08.39	9.19	17.09	-24.6	-25.1	16.9	0.00e+00	0	43	0	794820608	9	3810
2026-01-16 05:22:09.38	9.11	17.20	-24.6	-25.1	17.0	0.00e+00	0	43	0	802160640	9	3795
2026-01-16 05:22:10.38	9.04	17.31	-24.7	-25.2	16.9	0.00e+00	0	44	0	809500672	9	3826
2026-01-16 05:22:11.38	8.97	17.43	-24.6	-25.0	17.0	0.00e+00	0	44	0	815792128	9	3785
2026-01-16 05:22:12.38	8.90	17.54	-24.6	-25.1	16.9	0.00e+00	0	44	0	823132160	9	3811
2026-01-16 05:22:13.39	8.82	17.65	-24.7	-25.2	16.9	0.00e+00	0	44	0	830472192	9	3819
2026-01-16 05:22:14.39	8.75	17.76	-24.6	-25.1	16.9	0.00e+00	0	43	0	837812224	9	3807
2026-01-16 05:22:15.40	8.67	17.88	-24.8	-25.4	16.8	0.00e+00	0	44	0	845152256	9	3878
2026-01-16 05:22:16.40	8.59	17.99	-24.8	-25.5	16.8	0.00e+00	0	43	0	852492288	9	3892
2026-01-16 05:22:17.39	8.52	18.10	-24.7	-25.3	16.9	0.00e+00	0	44	0	859832320	9	3850
2026-01-16 05:22:18.39	8.44	18.22	-24.8	-25.4	16.8	0.00e+00	0	44	0	867172352	9	3867
2026-01-16 05:22:19.39	8.36	18.33	-24.5	-24.8	17.1	0.00e+00	0	43	0	874512384	9	3737
2026-01-16 05:22:20.39	8.29	18.45	-24.6	-25.0	17.0	0.00e+00	0	44	0	880803840	9	3779
2026-01-16 05:22:21.39	8.21	18.56	-24.6	-25.0	17.0	1.10e-06	0	43	0	888143872	9	3783
2026-01-16 05:22:22.38	8.13	18.68	-24.6	-25.0	17.0	1.10e-06	0	44	0	895483904	9	3787
2026-01-16 05:22:23.38	8.05	18.80	-24.4	-24.6	17.2	0.00e+00	0	43	0	902823936	9	3685
2026-01-16 05:22:24.37	7.97	18.91	-24.4	-25.2	17.2	0.00e+00	0	44	0	910163968	8	3938
2026-01-16 05:22:25.38	7.89	19.03	-24.5	-25.3	17.2	1.10e-06	0	43	0	917504000	8	3952
2026-01-16 05:22:26.39	7.80	19.15	-24.3	-24.9	17.4	0.00e+00	0	44	0	924844032	8	3870
2026-01-16 05:22:27.39	7.72	19.27	-24.3	-24.9	17.3	0.00e+00	0	43	0	932184064	8	3867
2026-01-16 05:22:28.39	7.64	19.39	-24.3	-25.0	17.3	0.00e+00	0	44	0	939524096	8	3872
2026-01-16 05:22:29.39	7.55	19.51	-24.3	-24.8	17.4	0.00e+00	0	44	0	945815552	8	3841
2026-01-16 05:22:30.39	7.47	19.63	-24.3	-24.9	17.4	0.00e+00	0	44	0	953155584	8	3860
2026-01-16 05:22:31.39	7.38	19.75	-24.4	-25.2	17.2	0.00e+00	0	44	0	960495616	8	3933
2026-01-16 05:22:32.39	7.30	19.87	-24.6	-25.1	17.0	0.00e+00	0	44	0	967835648	9	3803
2026-01-16 05:22:33.38	7.21	19.99	-24.7	-25.3	16.9	0.00e+00	0	44	0	975175680	9	3834
2026-01-16 05:22:34.38	7.12	20.11	-24.9	-25.6	16.7	0.00e+00	0	44	0	982515712	9	3930
2026-01-16 05:22:35.38	7.03	20.24	-24.5	-24.9	17.1	0.00e+00	0	44	0	989855744	9	3752
2026-01-16 05:22:36.38	6.94	20.36	-24.3	-24.5	17.3	0.00e+00	0	44	0	997195776	9	3666
2026-01-16 05:22:37.38	6.85	20.48	-24.3	-24.4	17.4	0.00e+00	0	44	0	1003487232	9	3649
2026-01-16 05:22:38.38	6.76	20.61	-24.3	-24.9	17.4	0.00e+00	0	43	0	1010827264	8	3863
2026-01-16 05:22:39.38	6.67	20.73	-24.3	-24.8	17.4	0.00e+00	0	44	0	1018167296	8	3845
2026-01-16 05:22:40.39	6.58	20.86	-24.4	-24.7	17.3	0.00e+00	0	44	0	1025507328	9	3700
2026-01-16 05:22:41.39	6.48	20.99	-24.1	-24.1	17.6	0.00e+00	0	44	0	1032847360	9	3569
2026-01-16 05:22:42.39	6.39	21.11	-24.0	-23.8	17.8	1.10e-06	0	44	0	1040187392	9	3511
2026-01-16 05:22:43.39	6.30	21.24	-24.0	-23.8	17.7	0.00e+00	0	44	0	1047527424	9	3508
2026-01-16 05:22:44.39	6.20	21.37	-24.0	-24.3	17.7	0.00e+00	0	44	0	1054867456	8	3718
2026-01-16 05:22:45.39	6.10	21.50	-23.9	-24.2	17.8	0.00e+00	0	44	0	1062207488	8	3692
2026-01-16 05:22:46.39	6.01	21.63	-23.9	-24.2	17.8	0.00e+00	0	43	0	1068498944	8	3686
2026-01-16 05:22:47.39	5.91	21.75	-24.1	-24.6	17.6	0.00e+00	0	44	0	1075838976	8	3779
2026-01-16 05:22:48.39	5.81	21.88	-24.0	-24.3	17.8	0.00e+00	0	44	0	1083179008	8	3720
2026-01-16 05:22:49.39	5.71	22.02	-24.2	-24.8	17.5	0.00e+00	0	44	0	1090519040	8	3826
2026-01-16 05:22:50.39	5.61	22.15	-24.0	-24.7	17.8	0.00e+00	0	44	0	1097859072	7	3922
2026-01-16 05:22:51.39	5.51	22.28	-24.0	-24.8	17.7	0.00e+00	0	44	0	1105199104	7	3944
2026-01-16 05:22:52.39	5.41	22.41	-24.2	-24.6	17.6	0.00e+00	0	44	0	1112539136	8	3788
2026-01-16 05:22:53.39	5.30	22.54	-24.2	-24.7	17.6	0.00e+00	0	44	0	1119879168	8	3809
2026-01-16 05:22:54.40	5.20	22.68	-24.2	-24.7	17.6	0.00e+00	0	44	0	1127219200	8	3801
2026-01-16 05:22:55.40	5.09	22.81	-24.2	-24.8	17.5	0.00e+00	0	44	0	1133510656	8	3826
2026-01-16 05:22:56.40	4.99	22.95	-24.4	-25.1	17.4	0.00e+00	0	44	0	1140850688	8	3895
2026-01-16 05:22:57.40	4.88	23.08	-24.4	-25.0	17.4	0.00e+00	0	44	0	1148190720	8	3893
2026-01-16 05:22:58.40	4.77	23.22	-24.4	-25.2	17.3	0.00e+00	0	44	0	1155530752	8	3920
2026-01-16 05:22:59.40	4.66	23.36	-24.4	-25.2	17.3	0.00e+00	0	44	0	1162870784	8	3927
2026-01-16 05:23:00.40	4.55	23.49	-24.6	-25.1	17.2	0.00e+00	0	43	0	1170210816	9	3798
2026-01-16 05:23:01.41	4.44	23.63	-24.3	-24.5	17.4	0.00e+00	0	44	0	1177550848	9	3659
2026-01-16 05:23:02.41	4.33	23.77	-24.3	-24.4	17.5	0.00e+00	0	44	0	1184890880	9	3648
2026-01-16 05:23:03.41	4.22	23.91	-24.3	-24.5	17.5	0.00e+00	0	44	0	1191182336	9	3659
2026-01-16 05:23:04.42	4.10	24.05	-24.1	-24.0	17.7	0.00e+00	0	44	0	1199570944	9	3559
2026-01-16 05:23:05.42	3.98	24.19	-24.4	-24.6	17.4	0.00e+00	0	44	0	1206910976	9	3694
2026-01-16 05:23:06.42	3.87	24.33	-24.4	-24.6	17.4	0.00e+00	0	44	0	1213202432	9	3694
2026-01-16 05:23:07.42	3.75	24.47	-24.1	-24.0	17.7	0.00e+00	0	44	0	1220542464	9	3563
2026-01-16 05:23:08.42	3.63	24.62	-23.9	-23.6	17.9	0.00e+00	0	44	0	1227882496	9	3476
2026-01-16 05:23:09.42	3.51	24.76	-23.9	-24.0	18.0	0.00e+00	0	44	0	1235222528	8	3663
2026-01-16 05:23:10.42	3.39	24.90	-24.2	-24.7	17.6	0.00e+00	0	44	0	1242562560	8	3808
2026-01-16 05:23:11.43	3.27	25.05	-23.8	-24.1	17.8	0.00e+00	0	44	0	1249902592	8	3725
2026-01-16 05:23:12.43	3.15	25.19	-24.0	-24.3	17.9	1.10e-06	0	44	0	1257242624	8	3711
2026-01-16 05:23:13.43	3.02	25.34	-23.8	-23.9	18.0	0.00e+00	0	44	0	1264582656	8	3622
2026-01-16 05:23:14.43	2.90	25.49	-23.6	-23.3	18.3	0.00e+00	0	44	0	1271922688	8	3513
2026-01-16 05:23:15.43	2.77	25.63	-23.8	-23.8	18.1	0.00e+00	0	44	0	1278214144	8	3613
2026-01-16 05:23:16.44	2.64	25.78	-23.5	-23.2	18.4	0.00e+00	0	44	0	1285554176	8	3492
2026-01-16 05:23:17.44	2.51	25.93	-23.6	-23.4	18.3	0.00e+00	0	44	0	1292894208	8	3517
2026-01-16 05:23:18.44	2.38	26.08	-23.6	-23.4	18.3	0.00e+00	0	44	0	1300234240	8	3518
2026-01-16 05:23:19.44	2.25	26.23	-23.3	-23.3	18.6	0.00e+00	0	44	0	1307574272	7	3590
2026-01-16 05:23:20.44	2.12	26.38	-23.2	-23.1	18.7	0.00e+00	0	44	0	1314914304	7	3564
2026-01-16 05:23:21.44	1.98	26.53	-23.4	-23.5	18.5	0.00e+00	0	44	0	1322254336	7	3647
2026-01-16 05:23:22.44	1.85	26.68	-23.3	-23.3	18.6	0.00e+00	0	44	0	1329594368	7	3604
2026-01-16 05:23:23.44	1.71	26.83	-23.0	-22.8	18.9	0.00e+00	0	44	0	1335885824	7	3484
2026-01-16 05:23:24.44	1.57	26.98	-23.0	-22.6	18.9	0.00e+00	0	44	0	1343225856	7	3443
2026-01-16 05:23:25.45	1.43	27.14	-23.0	-22.7	18.9	0.00e+00	0	44	0	1350565888	7	3463
2026-01-16 05:23:26.45	1.29	27.29	-23.1	-23.3	18.8	0.00e+00	0	44	0	1357905920	6	3703
2026-01-16 05:23:27.45	1.15	27.45	-23.0	-23.2	18.9	0.00e+00	0	44	0	1365245952	6	3687
2026-01-16 05:23:28.45	1.01	27.60	-23.1	-23.3	18.8	0.00e+00	0	44	0	1372585984	6	3703
2026-01-16 05:23:29.46	0.86	27.76	-23.2	-23.5	18.8	0.00e+00	0	44	0	1379926016	6	3753
2026-01-16 05:23:30.46	0.71	27.92	-23.1	-23.5	18.8	0.00e+00	0	44	0	1387266048	6	3745
2026-01-16 05:23:31.46	0.57	28.08	-23.0	-23.2	18.9	0.00e+00	0	44	0	1394606080	6	3692
2026-01-16 05:23:32.46	0.42	28.23	-23.2	-23.7	18.7	0.00e+00	0	44	0	1400897536	6	3787
2026-01-16 05:23:33.46	0.26	28.39	-23.3	-23.7	18.7	0.00e+00	0	44	0	1408237568	6	3804
2026-01-16 05:23:34.46	0.11	28.55	-23.3	-23.8	18.6	0.00e+00	0	44	0	1415577600	6	3807
2026-01-16 05:23:35.47	359.96	28.71	-23.3	-23.8	18.6	0.00e+00	0	44	0	1422917632	6	3810
2026-01-16 05:23:36.48	359.80	28.88	-23.4	-24.1	18.5	0.00e+00	0	44	0	1430257664	6	3893
2026-01-16 05:23:37.47	359.64	29.04	-23.4	-24.1	18.5	0.00e+00	0	44	0	1437597696	6	3886
2026-01-16 05:23:38.47	359.48	29.20	-23.5	-24.2	18.4	0.00e+00	0	44	0	1444937728	6	3906
2026-01-16 05:23:39.48	359.32	29.36	-23.4	-24.0	18.6	0.00e+00	0	44	0	1452277760	6	3855
2026-01-16 05:23:40.48	359.16	29.53	-23.4	-24.1	18.5	0.00e+00	0	44	0	1459617792	6	3877
2026-01-16 05:23:41.48	359.00	29.69	-23.4	-24.1	18.5	0.00e+00	0	44	0	1466957824	6	3884
2026-01-16 05:23:42.48	358.83	29.86	-23.5	-23.8	18.4	0.00e+00	0	44	0	1474297856	7	3709
2026-01-16 05:23:43.49	358.66	30.03	-23.7	-24.1	18.2	0.00e+00	0	44	0	1481637888	7	3780
2026-01-16 05:23:44.49	358.49	30.19	-23.6	-23.8	18.4	0.00e+00	0	44	0	1487929344	7	3709
2026-01-16 05:23:45.49	358.32	30.36	-23.6	-23.9	18.3	0.00e+00	0	44	0	1495269376	7	3720
2026-01-16 05:23:46.49	358.15	30.53	-23.4	-23.6	18.5	0.00e+00	0	44	0	1502609408	7	3659
2026-01-16 05:23:47.49	357.97	30.70	-23.4	-23.5	18.6	0.00e+00	0	44	0	1509949440	7	3645
2026-01-16 05:23:48.49	357.80	30.86	-23.5	-23.6	18.5	0.00e+00	0	44	0	1517289472	7	3673
2026-01-16 05:23:49.49	357.62	31.03	-23.7	-24.1	18.3	0.00e+00	0	44	0	1524629504	7	3771
2026-01-16 05:23:50.49	357.44	31.20	-23.8	-24.4	18.1	0.00e+00	0	44	0	1531969536	7	3838
2026-01-16 05:23:51.49	357.25	31.38	-23.7	-24.1	18.3	0.00e+00	0	44	0	1539309568	7	3779
2026-01-16 05:23:52.49	357.07	31.55	-24.1	-24.4	17.9	0.00e+00	0	44	0	1545601024	8	3738
2026-01-16 05:23:53.49	356.88	31.72	-23.9	-24.1	18.0	0.00e+00	0	44	0	1552941056	8	3664
2026-01-16 05:23:54.49	356.70	31.89	-23.6	-23.5	18.3	0.00e+00	0	44	0	1560281088	8	3537
2026-01-16 05:23:55.48	356.51	32.07	-23.7	-23.6	18.3	0.00e+00	0	44	0	1567621120	8	3557
2026-01-16 05:23:56.48	356.31	32.24	-23.7	-23.5	18.3	0.00e+00	0	44	0	1574961152	8	3550
2026-01-16 05:23:57.49	356.12	32.42	-23.2	-23.1	18.8	0.00e+00	0	44	0	1582301184	7	3566
2026-01-16 05:23:58.49	355.92	32.59	-23.4	-23.5	18.6	0.00e+00	0	44	0	1589641216	7	3637
2026-01-16 05:23:59.49	355.72	32.77	-23.5	-23.8	18.4	5.37e-05	0	44	0	1596981248	7	3710
2026-01-16 05:24:00.48	355.52	32.95	-23.6	-24.0	18.3	0.00e+00	0	44	0	1604321280	7	3749
2026-01-16 05:24:01.48	355.32	33.12	-23.3	-23.3	18.7	0.00e+00	0	44	0	1610612736	7	3594
2026-01-16 05:24:02.48	355.11	33.30	-23.3	-23.4	18.6	7.89e-05	0	44	0	1617952768	7	3615
2026-01-16 05:24:03.48	354.90	33.48	-23.0	-23.3	18.9	0.00e+00	0	44	0	1625292800	6	3689
2026-01-16 05:24:04.49	354.69	33.66	-23.2	-23.6	18.8	8.35e-05	0	44	0	1632632832	6	3759
2026-01-16 05:24:05.49	354.48	33.84	-23.3	-23.8	18.7	0.00e+00	0	44	0	1639972864	6	3803
2026-01-16 05:24:06.49	354.26	34.02	-23.0	-23.2	19.0	0.00e+00	0	44	0	1647312896	6	3687
2026-01-16 05:24:07.50	354.04	34.21	-23.3	-23.7	18.7	1.09e-04	0	44	0	1654652928	6	3797
2026-01-16 05:24:08.50	353.82	34.39	-23.0	-23.2	18.9	0.00e+00	0	44	0	1661992960	6	3675
2026-01-16 05:24:09.50	353.60	34.57	-23.0	-23.2	19.0	0.00e+00	0	44	0	1669332992	6	3678
2026-01-16 05:24:10.50	353.38	34.75	-23.2	-23.5	18.8	0.00e+00	0	44	0	1675624448	6	3751
2026-01-16 05:24:11.50	353.15	34.94	-23.2	-23.6	18.8	0.00e+00	0	44	0	1682964480	6	3773
2026-01-16 05:24:12.51	352.92	35.12	-23.3	-23.9	18.6	0.00e+00	0	44	0	1690304512	6	3829
2026-01-16 05:24:13.51	352.68	35.31	-23.7	-24.1	18.3	0.00e+00	0	44	0	1697644544	7	3767
2026-01-16 05:24:14.52	352.44	35.50	-23.5	-23.7	18.5	0.00e+00	0	44	0	1704984576	7	3690
2026-01-16 05:24:15.52	352.20	35.68	-23.5	-23.8	18.4	0.00e+00	0	44	0	1712324608	7	3702
2026-01-16 05:24:16.52	351.96	35.87	-23.6	-24.0	18.3	0.00e+00	0	44	0	1719664640	7	3751
2026-01-16 05:24:17.53	351.72	36.06	-23.4	-23.6	18.5	0.00e+00	0	44	0	1727004672	7	3655
2026-01-16 05:24:18.53	351.47	36.25	-23.3	-23.3	18.7	0.00e+00	0	44	0	1734344704	7	3587
2026-01-16 05:24:19.53	351.22	36.43	-23.2	-23.0	18.8	0.00e+00	0	44	0	1741684736	7	3533
2026-01-16 05:24:20.53	350.97	36.62	-23.2	-23.0	18.9	0.00e+00	0	44	0	1749024768	7	3525
2026-01-16 05:24:21.54	350.71	36.81	-23.2	-23.2	18.8	0.00e+00	0	44	0	1755316224	7	3568
2026-01-16 05:24:22.54	350.45	37.00	-23.3	-23.4	18.7	0.00e+00	0	44	0	1762656256	7	3610
2026-01-16 05:24:23.54	350.19	37.19	-23.4	-23.6	18.5	0.00e+00	0	44	0	1769996288	7	3667
2026-01-16 05:24:24.55	349.92	37.38	-23.1	-22.8	18.9	0.00e+00	0	44	0	1777336320	7	3498
2026-01-16 05:24:25.56	349.65	37.58	-23.2	-23.2	18.8	0.00e+00	0	44	0	1784676352	7	3577
2026-01-16 05:24:26.56	349.38	37.77	-23.3	-23.2	18.8	0.00e+00	0	44	0	1792016384	7	3580
2026-01-16 05:24:27.57	349.10	37.96	-23.1	-22.8	18.9	0.00e+00	0	44	0	1799356416	7	3498
2026-01-16 05:24:28.57	348.82	38.15	-23.5	-23.7	18.5	0.00e+00	0	44	0	1806696448	7	3684
2026-01-16 05:24:29.57	348.54	38.34	-23.0	-23.3	19.0	0.00e+00	0	44	0	1814036480	6	3695
2026-01-16 05:24:30.57	348.25	38.54	-23.0	-23.1	19.1	0.00e+00	0	44	0	1821376512	6	3648
2026-01-16 05:24:31.58	347.96	38.73	-23.1	-23.3	19.0	0.00e+00	0	44	0	1828716544	6	3701
2026-01-16 05:24:32.58	347.67	38.92	-23.1	-23.4	18.9	0.00e+00	0	44	0	1836056576	6	3725
2026-01-16 05:24:33.58	347.37	39.12	-23.2	-23.5	18.8	0.00e+00	0	44	0	1842348032	6	3750
2026-01-16 05:24:34.58	347.08	39.31	-23.3	-23.9	18.6	0.00e+00	0	44	0	1849688064	6	3833
2026-01-16 05:24:35.58	346.77	39.50	-23.3	-23.7	18.7	0.00e+00	0	44	0	1857028096	6	3790
2026-01-16 05:24:36.58	346.47	39.70	-23.3	-23.8	18.7	0.00e+00	0	44	0	1864368128	6	3807
2026-01-16 05:24:37.57	346.16	39.89	-23.4	-24.1	18.5	0.00e+00	0	44	0	1871708160	6	3879
2026-01-16 05:24:38.57	345.85	40.08	-23.2	-23.6	18.8	0.00e+00	0	44	0	1879048192	6	3775
2026-01-16 05:24:39.58	345.53	40.28	-23.5	-23.6	18.5	0.00e+00	0	44	0	1886388224	7	3671
2026-01-16 05:24:40.58	345.20	40.47	-23.5	-23.8	18.5	0.00e+00	0	44	0	1893728256	7	3697
2026-01-16 05:24:41.58	344.88	40.66	-23.7	-24.0	18.4	0.00e+00	0	44	0	1901068288	7	3756
2026-01-16 05:24:42.58	344.55	40.86	-23.7	-24.1	18.3	0.00e+00	0	44	0	1907359744	7	3786
2026-01-16 05:24:43.58	344.22	41.05	-23.8	-24.2	18.2	0.00e+00	0	44	0	1914699776	7	3805
2026-01-16 05:24:44.59	343.88	41.25	-23.6	-23.9	18.4	0.00e+00	0	44	0	1922039808	7	3729
2026-01-16 05:24:45.59	343.53	41.44	-23.6	-24.0	18.4	0.00e+00	0	44	0	1929379840	7	3755
2026-01-16 05:24:46.60	343.19	41.64	-23.6	-24.0	18.4	0.00e+00	0	44	0	1936719872	7	3744
2026-01-16 05:24:47.60	342.84	41.83	-23.5	-23.7	18.5	0.00e+00	0	44	0	1944059904	7	3681
2026-01-16 05:24:48.60	342.48	42.02	-23.4	-23.6	18.6	0.00e+00	0	44	0	1951399936	7	3654
2026-01-16 05:24:49.59	342.13	42.21	-23.5	-23.7	18.4	0.00e+00	0	44	0	1958739968	7	3683
2026-01-16 05:24:50.60	341.76	42.41	-23.4	-23.5	18.7	0.00e+00	0	44	0	1965031424	7	3636
2026-01-16 05:24:51.60	341.39	42.60	-23.4	-23.5	18.6	0.00e+00	0	44	0	1972371456	7	3632
2026-01-16 05:24:52.60	341.02	42.79	-23.2	-23.2	18.8	0.00e+00	0	44	0	1979711488	7	3570
2026-01-16 05:24:53.59	340.65	42.98	-23.1	-23.4	18.9	0.00e+00	0	44	0	1987051520	6	3728
2026-01-16 05:24:54.59	340.27	43.17	-23.1	-23.4	19.0	0.00e+00	0	44	0	1994391552	6	3709
2026-01-16 05:24:55.59	339.88	43.36	-23.5	-24.2	18.5	0.00e+00	0	44	0	2001731584	6	3906
2026-01-16 05:24:56.59	339.49	43.55	-23.4	-24.0	18.6	0.00e+00	0	44	0	2009071616	6	3868
2026-01-16 05:24:57.59	339.10	43.74	-23.7	-24.2	18.3	0.00e+00	0	44	0	2016411648	7	3802
2026-01-16 05:24:58.59	338.70	43.93	-23.9	-24.6	18.1	0.00e+00	0	44	0	2023751680	7	3897
2026-01-16 05:24:59.60	338.29	44.12	-23.9	-24.5	18.1	0.00e+00	0	44	0	2030043136	7	3873
2026-01-16 05:25:00.60	337.88	44.31	-24.1	-24.4	17.9	0.00e+00	0	44	0	2037383168	8	3747
2026-01-16 05:25:01.60	337.47	44.49	-24.2	-24.6	17.8	0.00e+00	0	44	0	2044723200	8	3799
2026-01-16 05:25:02.60	337.05	44.68	-24.4	-25.0	17.6	0.00e+00	0	44	0	2052063232	8	3876
2026-01-16 05:25:03.60	336.63	44.86	-24.4	-25.1	17.6	0.00e+00	0	44	0	2059403264	8	3905
2026-01-16 05:25:04.59	336.20	45.05	-24.3	-24.8	17.7	0.00e+00	0	44	0	2066743296	8	3835
2026-01-16 05:25:05.59	335.77	45.23	-24.2	-24.6	17.9	0.00e+00	0	44	0	2074083328	8	3791
2026-01-16 05:25:06.60	335.32	45.41	-24.0	-24.3	18.0	0.00e+00	0	44	0	2081423360	8	3721
2026-01-16 05:25:07.60	334.88	45.60	-23.9	-24.0	18.2	0.00e+00	0	44	0	2087714816	8	3642
2026-01-16 05:25:08.60	334.43	45.78	-23.8	-23.9	18.2	0.00e+00	0	44	0	2095054848	8	3630
2026-01-16 05:25:09.60	333.98	45.95	-24.0	-24.2	18.1	0.00e+00	0	44	0	2102394880	8	3695
2026-01-16 05:25:10.60	333.52	46.13	-24.0	-24.2	18.1	0.00e+00	0	44	0	2109734912	8	3686
2026-01-16 05:25:11.60	333.05	46.31	-24.1	-24.4	17.9	0.00e+00	0	44	0	2117074944	8	3743
2026-01-16 05:25:12.60	332.58	46.48	-24.0	-24.3	18.0	0.00e+00	0	44	0	2124414976	8	3724
2026-01-16 05:25:13.61	332.10	46.66	-24.1	-24.5	17.9	0.00e+00	0	44	0	2131755008	8	3763
2026-01-16 05:25:14.61	331.62	46.83	-24.4	-25.0	17.6	0.00e+00	0	44	0	2139095040	8	3878
2026-01-16 05:25:15.61	331.14	47.00	-24.3	-24.8	17.7	0.00e+00	0	44	0	2146435072	8	3826
2026-01-16 05:25:16.61	330.64	47.17	-24.3	-24.9	17.7	0.00e+00	0	44	0	2152726528	8	3859
2026-01-16 05:25:17.61	330.15	47.34	-24.3	-24.9	17.8	0.00e+00	0	44	0	2160066560	8	3846
2026-01-16 05:25:18.61	329.65	47.50	-24.0	-24.3	18.0	0.00e+00	0	44	0	2167406592	8	3721
2026-01-16 05:25:19.61	329.14	47.66	-24.0	-24.3	18.0	0.00e+00	0	44	0	2174746624	8	3724
2026-01-16 05:25:20.61	328.63	47.83	-23.7	-23.6	18.4	0.00e+00	0	44	0	2182086656	8	3563
2026-01-16 05:25:21.61	328.11	47.99	-23.7	-23.6	18.4	0.00e+00	0	44	0	2189426688	8	3550
2026-01-16 05:25:22.61	327.58	48.14	-23.7	-23.5	18.4	0.00e+00	0	44	0	2196766720	8	3537
2026-01-16 05:25:23.60	327.06	48.30	-23.7	-23.6	18.4	0.00e+00	0	44	0	2204106752	8	3566
2026-01-16 05:25:24.60	326.53	48.45	-23.8	-23.7	18.3	0.00e+00	0	44	0	2211446784	8	3581
2026-01-16 05:25:25.61	325.98	48.61	-24.3	-24.9	17.7	0.00e+00	0	44	0	2217738240	8	3850
2026-01-16 05:25:26.62	325.43	48.76	-24.6	-24.9	17.4	0.00e+00	0	44	0	2225078272	9	3759
2026-01-16 05:25:27.62	324.88	48.90	-24.8	-25.4	17.2	0.00e+00	0	44	0	2233466880	9	3865
2026-01-16 05:25:28.62	324.32	49.05	-24.8	-25.4	17.2	0.00e+00	0	44	0	2239758336	9	3866
2026-01-16 05:25:29.62	323.76	49.19	-24.8	-25.4	17.2	0.00e+00	0	44	0	2247098368	9	3856
2026-01-16 05:25:30.62	323.20	49.33	-24.7	-25.2	17.3	0.00e+00	0	44	0	2254438400	9	3821
2026-01-16 05:25:31.63	322.62	49.47	-24.5	-24.9	17.5	0.00e+00	0	44	0	2261778432	9	3739
2026-01-16 05:25:32.63	322.04	49.60	-24.4	-24.6	17.6	0.00e+00	0	44	0	2269118464	9	3682
2026-01-16 05:25:33.63	321.46	49.73	-24.6	-24.9	17.4	0.00e+00	0	44	0	2276458496	9	3750
2026-01-16 05:25:34.63	320.88	49.86	-24.3	-24.4	17.7	0.00e+00	0	44	0	2283798528	9	3638
2026-01-16 05:25:35.64	320.28	49.99	-24.3	-24.4	17.7	0.00e+00	0	44	0	2291138560	9	3632
2026-01-16 05:25:36.64	319.68	50.11	-24.3	-24.3	17.8	0.00e+00	0	44	0	2297430016	9	3609
2026-01-16 05:25:37.64	319.08	50.23	-24.5	-24.7	17.6	0.00e+00	0	44	0	2304770048	9	3720
2026-01-16 05:25:38.65	318.47	50.35	-25.0	-25.8	17.0	0.00e+00	0	44	0	2312110080	9	3963
2026-01-16 05:25:39.65	317.86	50.46	-25.1	-25.5	16.9	0.00e+00	0	44	0	2319450112	10	3780
2026-01-16 05:25:40.65	317.24	50.57	-24.9	-25.1	17.2	0.00e+00	0	44	0	2326790144	10	3693
2026-01-16 05:25:41.66	316.62	50.68	-24.3	-24.4	17.7	0.00e+00	0	44	0	2334130176	9	3637
2026-01-16 05:25:42.66	315.99	50.79	-24.3	-24.3	17.8	0.00e+00	0	44	0	2341470208	9	3616
2026-01-16 05:25:43.67	315.36	50.89	-24.1	-23.9	18.0	0.00e+00	0	44	0	2348810240	9	3528
2026-01-16 05:25:44.67	314.73	50.98	-24.1	-24.0	17.9	0.00e+00	0	44	0	2356150272	9	3556
2026-01-16 05:25:45.67	314.09	51.08	-24.3	-24.3	17.8	0.00e+00	0	44	0	2363490304	9	3619
2026-01-16 05:25:46.67	313.45	51.17	-24.4	-24.6	17.6	0.00e+00	0	44	0	2370830336	9	3676
2026-01-16 05:25:47.68	312.80	51.25	-24.4	-24.7	17.6	0.00e+00	0	44	0	2378170368	9	3696
2026-01-16 05:25:48.68	312.15	51.34	-24.3	-24.3	17.8	0.00e+00	0	44	0	2384461824	9	3616
2026-01-16 05:25:49.68	311.50	51.41	-24.2	-24.2	17.9	0.00e+00	0	44	0	2391801856	9	3584
2026-01-16 05:25:50.68	310.84	51.49	-24.2	-24.1	17.9	0.00e+00	0	44	0	2399141888	9	3571
2026-01-16 05:25:51.69	310.18	51.56	-24.2	-24.2	17.8	0.00e+00	0	44	0	2406481920	9	3592
2026-01-16 05:25:52.69	309.52	51.63	-24.4	-24.6	17.7	0.00e+00	0	44	0	2413821952	9	3683
2026-01-16 05:25:53.69	308.85	51.69	-24.5	-24.9	17.5	0.00e+00	0	44	0	2421161984	9	3746
2026-01-16 05:25:54.69	308.18	51.75	-24.6	-25.0	17.4	0.00e+00	0	44	0	2428502016	9	3776
2026-01-16 05:25:55.69	307.51	51.81	-24.8	-25.4	17.2	0.00e+00	0	44	0	2435842048	9	3851
2026-01-16 05:25:56.68	306.85	51.86	-24.9	-25.6	17.2	0.00e+00	0	44	0	2443182080	9	3904
2026-01-16 05:25:57.68	306.17	51.90	-24.7	-25.3	17.3	0.00e+00	0	44	0	2449473536	9	3841
2026-01-16 05:25:58.68	305.50	51.95	-24.7	-25.2	17.3	0.00e+00	0	44	0	2456813568	9	3819
2026-01-16 05:25:59.69	304.81	51.99	-24.8	-25.4	17.2	0.00e+00	0	44	0	2464153600	9	3871
2026-01-16 05:26:00.69	304.13	52.02	-25.0	-25.8	17.0	0.00e+00	0	44	0	2471493632	9	3948
2026-01-16 05:26:01.69	303.45	52.05	-25.0	-25.8	17.0	0.00e+00	0	44	0	2478833664	9	3959
2026-01-16 05:26:02.69	302.77	52.08	-24.8	-25.5	17.1	0.00e+00	0	44	0	2486173696	9	3875
2026-01-16 05:26:03.70	302.08	52.10	-24.6	-25.0	17.4	0.00e+00	0	44	0	2493513728	9	3764
2026-01-16 05:26:04.70	301.39	52.12	-24.5	-24.8	17.6	0.00e+00	0	44	0	2500853760	9	3719
2026-01-16 05:26:05.70	300.71	52.13	-24.4	-24.6	17.6	0.00e+00	0	44	0	2507145216	9	3684
2026-01-16 05:26:06.70	300.02	52.14	-24.5	-24.8	17.5	0.00e+00	0	44	0	2514485248	9	3728
2026-01-16 05:26:07.71	299.33	52.15	-24.6	-25.0	17.4	0.00e+00	0	44	0	2521825280	9	3778
2026-01-16 05:26:08.71	298.64	52.15	-24.9	-25.5	17.2	0.00e+00	0	44	0	2529165312	9	3889
2026-01-16 05:26:09.71	297.95	52.14	-24.8	-25.5	17.2	0.00e+00	0	44	0	2536505344	9	3889
2026-01-16 05:26:10.70	297.27	52.14	-24.6	-25.0	17.5	9.49e-05	0	44	0	2543845376	9	3761
2026-01-16 05:26:11.70	296.59	52.12	-24.3	-24.3	17.8	0.00e+00	0	44	0	2551185408	9	3617
2026-01-16 05:26:12.70	295.90	52.11	-24.1	-24.4	18.0	0.00e+00	0	44	0	2558525440	8	3732
2026-01-16 05:26:13.70	295.21	52.09	-24.2	-24.6	17.9	3.11e-04	0	44	0	2565865472	8	3776
2026-01-16 05:26:14.70	294.53	52.06	-24.3	-24.9	17.7	0.00e+00	0	44	0	2572156928	8	3859
2026-01-16 05:26:15.70	293.85	52.03	-24.7	-25.3	17.3	1.93e-04	0	44	0	2579496960	9	3851
2026-01-16 05:26:16.70	293.17	52.00	-25.0	-25.8	16.6	0.00e+00	0	44	0	2586836992	9	3964
2026-01-16 05:26:17.70	292.49	51.96	-24.8	-25.5	17.2	0.00e+00	0	44	0	2594177024	9	3898
2026-01-16 05:26:18.70	291.81	51.92	-24.6	-24.9	17.5	0.00e+00	0	44	0	2601517056	9	3753
2026-01-16 05:26:19.70	291.13	51.88	-24.7	-25.1	17.4	0.00e+00	0	44	0	2608857088	9	3801
2026-01-16 05:26:20.70	290.46	51.83	-24.5	-24.7	17.6	0.00e+00	0	44	0	2616197120	9	3714
2026-01-16 05:26:21.70	289.79	51.77	-24.5	-24.7	17.6	0.00e+00	0	44	0	2623537152	9	3710
2026-01-16 05:26:22.71	289.11	51.72	-24.6	-25.0	17.5	0.00e+00	0	44	0	2630877184	9	3764
2026-01-16 05:26:23.72	288.44	51.65	-24.5	-24.8	17.5	0.00e+00	0	44	0	2638217216	9	3735
2026-01-16 05:26:24.72	287.78	51.59	-24.5	-24.8	17.6	1.10e-06	0	44	0	2645557248	9	3718
2026-01-16 05:26:25.72	287.12	51.52	-24.5	-24.9	17.5	0.00e+00	0	44	0	2652897280	9	3742
2026-01-16 05:26:26.72	286.46	51.44	-24.3	-24.3	17.8	0.00e+00	0	44	0	2659188736	9	3622
2026-01-16 05:26:27.72	285.81	51.37	-24.0	-23.8	18.1	0.00e+00	0	44	0	2666528768	9	3510
2026-01-16 05:26:28.72	285.16	51.29	-24.1	-23.9	18.0	0.00e+00	0	44	0	2673868800	9	3529
2026-01-16 05:26:29.72	284.51	51.20	-24.2	-24.2	17.8	0.00e+00	0	44	0	2681208832	9	3589
2026-01-16 05:26:30.73	283.86	51.11	-24.2	-24.0	17.9	0.00e+00	0	44	0	2688548864	9	3556
2026-01-16 05:26:31.74	283.22	51.02	-24.3	-24.3	17.8	0.00e+00	0	44	0	2695888896	9	3618
2026-01-16 05:26:32.74	282.58	50.92	-24.4	-24.6	17.6	0.00e+00	0	44	0	2703228928	9	3691
2026-01-16 05:26:33.74	281.95	50.82	-24.4	-24.6	17.6	0.00e+00	0	44	0	2710568960	9	3688
2026-01-16 05:26:34.74	281.32	50.72	-24.2	-24.1	17.9	0.00e+00	0	44	0	2716860416	9	3580
2026-01-16 05:26:35.74	280.70	50.61	-24.2	-24.2	17.8	0.00e+00	0	44	0	2724200448	9	3596
2026-01-16 05:26:36.73	280.09	50.51	-24.3	-24.4	17.7	0.00e+00	0	44	0	2731540480	9	3639
2026-01-16 05:26:37.74	279.47	50.39	-24.5	-24.8	17.5	0.00e+00	0	44	0	2738880512	9	3732
2026-01-16 05:26:38.73	278.87	50.28	-24.5	-24.8	17.6	0.00e+00	0	44	0	2746220544	9	3727
2026-01-16 05:26:39.74	278.26	50.16	-24.4	-24.7	17.6	0.00e+00	0	44	0	2753560576	9	3703
2026-01-16 05:26:40.74	277.66	50.04	-24.4	-24.6	17.6	0.00e+00	0	44	0	2760900608	9	3670
2026-01-16 05:26:41.75	277.06	49.91	-24.3	-24.4	17.7	0.00e+00	0	44	0	2768240640	9	3626
2026-01-16 05:26:42.76	276.46	49.78	-24.3	-24.3	17.8	0.00e+00	0	44	0	2775580672	9	3615
2026-01-16 05:26:43.76	275.88	49.65	-24.5	-24.9	17.5	0.00e+00	0	44	0	2781872128	9	3747
2026-01-16 05:26:44.76	275.30	49.52	-24.7	-25.3	17.2	0.00e+00	0	44	0	2789212160	9	3838
2026-01-16 05:26:45.76	274.72	49.38	-24.8	-25.4	17.2	0.00e+00	0	44	0	2796552192	9	3858
2026-01-16 05:26:46.76	274.15	49.24	-24.5	-24.8	17.5	0.00e+00	0	44	0	2803892224	9	3738
2026-01-16 05:26:47.77	273.58	49.10	-24.3	-24.4	17.7	0.00e+00	0	44	0	2811232256	9	3639
2026-01-16 05:26:48.77	273.02	48.96	-24.3	-24.4	17.7	0.00e+00	0	44	0	2818572288	9	3646
2026-01-16 05:26:49.78	272.47	48.81	-24.3	-24.4	17.7	0.00e+00	0	44	0	2825912320	9	3628
2026-01-16 05:26:50.78	271.92	48.66	-24.3	-24.3	17.7	0.00e+00	0	44	0	2833252352	9	3626
2026-01-16 05:26:51.78	271.37	48.51	-24.2	-24.3	17.7	0.00e+00	0	44	0	2840592384	9	3620
2026-01-16 05:26:52.79	270.83	48.35	-23.9	-23.7	18.1	0.00e+00	0	44	0	2847932416	9	3479
2026-01-16 05:26:53.80	270.29	48.20	-23.8	-23.9	18.2	0.00e+00	0	44	0	2855272448	8	3617
2026-01-16 05:26:54.80	269.77	48.04	-23.7	-23.6	18.3	0.00e+00	0	44	0	2861563904	8	3561
2026-01-16 05:26:55.80	269.25	47.88	-23.6	-23.5	18.4	0.00e+00	0	44	0	2868903936	8	3535
2026-01-16 05:26:56.80	268.73	47.72	-23.9	-24.1	18.1	0.00e+00	0	44	0	2876243968	8	3670
2026-01-16 05:26:57.80	268.22	47.55	-24.0	-24.3	18.0	0.00e+00	0	44	0	2883584000	8	3712
2026-01-16 05:26:58.80	267.71	47.39	-24.3	-24.8	17.7	0.00e+00	0	44	0	2890924032	8	3845
2026-01-16 05:26:59.80	267.22	47.22	-24.3	-25.0	17.5	0.00e+00	0	44	0	2898264064	8	3870
2026-01-16 05:27:00.80	266.72	47.05	-24.1	-24.4	17.9	0.00e+00	0	44	0	2905604096	8	3746
2026-01-16 05:27:01.80	266.23	46.88	-23.6	-23.5	18.4	0.00e+00	0	44	0	2912944128	8	3530
2026-01-16 05:27:02.81	265.74	46.71	-23.4	-23.0	18.6	0.00e+00	0	44	0	2920284160	8	3445
2026-01-16 05:27:03.81	265.26	46.54	-23.5	-23.7	18.5	0.00e+00	0	44	0	2926575616	7	3695
2026-01-16 05:27:04.80	264.80	46.36	-23.5	-24.1	18.5	0.00e+00	0	44	0	2933915648	6	3886
2026-01-16 05:27:05.81	264.32	46.18	-23.8	-24.3	18.2	0.00e+00	0	44	0	2941255680	7	3824
2026-01-16 05:27:06.81	263.86	46.01	-23.9	-24.5	18.1	0.00e+00	0	44	0	2948595712	7	3857
2026-01-16 05:27:07.81	263.40	45.83	-23.8	-24.3	18.2	0.00e+00	0	44	0	2955935744	7	3829
2026-01-16 05:27:08.81	262.95	45.65	-23.9	-24.5	18.0	0.00e+00	0	44	0	2963275776	7	3883
2026-01-16 05:27:09.82	262.50	45.46	-23.8	-24.4	18.1	0.00e+00	0	44	0	2970615808	7	3855
2026-01-16 05:27:10.82	262.06	45.28	-23.9	-24.5	18.1	0.00e+00	0	44	0	2977955840	7	3869
2026-01-16 05:27:11.83	261.62	45.10	-23.6	-23.9	18.4	0.00e+00	0	44	0	2985295872	7	3731
2026-01-16 05:27:12.82	261.19	44.91	-23.7	-24.2	18.2	0.00e+00	0	44	0	2992635904	7	3801
2026-01-16 05:27:13.84	260.76	44.73	-23.6	-23.9	18.4	0.00e+00	0	44	0	2999975936	7	3729
2026-01-16 05:27:14.84	260.33	44.54	-23.3	-23.4	18.6	0.00e+00	0	44	0	3007315968	7	3615
2026-01-16 05:27:15.84	259.92	44.35	-23.2	-23.0	18.7	0.00e+00	0	44	0	3013607424	7	3535
2026-01-16 05:27:16.83	259.51	44.17	-23.3	-23.8	18.7	0.00e+00	0	44	0	3020947456	6	3802
2026-01-16 05:27:17.84	259.10	43.98	-23.2	-23.6	18.7	0.00e+00	0	44	0	3028287488	6	3775
2026-01-16 05:27:18.84	258.70	43.79	-23.1	-23.4	18.8	0.00e+00	0	44	0	3035627520	6	3735
2026-01-16 05:27:19.83	258.30	43.60	-23.1	-23.4	18.8	0.00e+00	0	44	0	3042967552	6	3736
2026-01-16 05:27:20.83	257.91	43.41	-23.0	-23.2	18.9	0.00e+00	0	44	0	3050307584	6	3684
2026-01-16 05:27:21.83	257.52	43.22	-22.9	-23.0	19.0	0.00e+00	0	44	0	3057647616	6	3634
2026-01-16 05:27:22.84	257.13	43.02	-23.1	-23.5	18.8	0.00e+00	0	44	0	3064987648	6	3736
2026-01-16 05:27:23.84	256.76	42.83	-22.9	-23.0	19.0	0.00e+00	0	44	0	3071279104	6	3642
2026-01-16 05:27:24.85	256.38	42.64	-23.1	-23.4	18.9	0.00e+00	0	44	0	3078619136	6	3713
2026-01-16 05:27:25.85	256.01	42.44	-23.3	-23.8	18.7	0.00e+00	0	44	0	3085959168	6	3805
2026-01-16 05:27:26.85	255.64	42.25	-23.5	-24.1	18.5	0.00e+00	0	44	0	3093299200	6	3895
2026-01-16 05:27:27.85	255.28	42.06	-23.3	-24.0	18.4	0.00e+00	0	44	0	3100639232	6	3914
2026-01-16 05:27:28.84	254.93	41.87	-23.6	-24.4	17.1	0.00e+00	0	44	0	3107979264	6	3952
2026-01-16 05:27:29.85	254.57	41.67	-23.4	-23.5	18.5	0.00e+00	0	44	0	3115319296	7	3640
2026-01-16 05:27:30.85	254.23	41.48	-23.3	-23.3	18.6	0.00e+00	0	44	0	3122659328	7	3612
2026-01-16 05:27:31.85	253.88	41.28	-23.3	-23.3	18.6	0.00e+00	0	44	0	3129999360	7	3601
2026-01-16 05:27:32.85	253.54	41.09	-23.1	-22.9	18.8	0.00e+00	0	44	0	3136290816	7	3510
2026-01-16 05:27:33.86	253.20	40.89	-23.0	-22.6	19.0	0.00e+00	0	44	0	3143630848	7	3445
2026-01-16 05:27:34.86	252.87	40.70	-23.0	-22.7	18.9	0.00e+00	0	44	0	3150970880	7	3481
2026-01-16 05:27:35.86	252.54	40.50	-23.0	-22.8	18.9	0.00e+00	0	44	0	3158310912	7	3485
2026-01-16 05:27:36.87	252.22	40.31	-23.1	-22.9	18.8	0.00e+00	0	44	0	3165650944	7	3504
2026-01-16 05:27:37.87	251.90	40.11	-23.1	-23.4	18.8	0.00e+00	0	44	0	3172990976	6	3731
2026-01-16 05:27:38.87	251.58	39.92	-23.1	-23.3	18.9	4.50e-06	0	44	0	3180331008	6	3691
2026-01-16 05:27:39.87	251.27	39.72	-23.1	-23.8	18.8	0.00e+00	0	44	0	3187671040	5	3928
2026-01-16 05:27:40.88	250.96	39.53	-23.0	-23.7	18.9	2.28e-04	0	44	0	3195011072	5	3893
2026-01-16 05:27:41.88	250.65	39.33	-23.0	-23.2	18.3	2.20e-06	0	44	0	3202351104	6	3671
2026-01-16 05:27:42.88	250.35	39.14	-23.4	-24.0	18.5	0.00e+00	0	44	0	3209691136	6	3858
2026-01-16 05:27:43.88	250.05	38.94	-23.4	-23.9	18.5	0.00e+00	0	44	0	3217031168	6	3843
2026-01-16 05:27:44.88	249.76	38.75	-23.3	-23.7	18.7	0.00e+00	0	44	0	3223322624	6	3790
2026-01-16 05:27:45.88	249.47	38.56	-23.5	-24.1	18.4	0.00e+00	0	44	0	3230662656	6	3895
2026-01-16 05:27:46.88	249.18	38.36	-23.4	-24.0	18.5	0.00e+00	0	44	0	3238002688	6	3860
2026-01-16 05:27:47.89	248.90	38.17	-23.4	-23.9	18.6	0.00e+00	0	44	0	3245342720	6	3853
2026-01-16 05:27:48.89	248.62	37.98	-23.5	-24.3	18.3	0.00e+00	0	44	0	3252682752	6	3942
2026-01-16 05:27:49.88	248.34	37.79	-23.4	-23.6	18.5	0.00e+00	0	44	0	3260022784	7	3661
2026-01-16 05:27:50.89	248.07	37.59	-23.3	-23.3	18.6	0.00e+00	0	44	0	3267362816	7	3608
2026-01-16 05:27:51.89	247.80	37.40	-23.3	-23.2	18.6	0.00e+00	0	44	0	3274702848	7	3574
2026-01-16 05:27:52.89	247.53	37.21	-23.5	-23.7	18.4	0.00e+00	0	44	0	3280994304	7	3681
2026-01-16 05:27:53.90	247.26	37.02	-23.4	-23.6	18.5	0.00e+00	0	44	0	3288334336	7	3663
2026-01-16 05:27:54.90	247.00	36.83	-23.5	-23.7	18.4	0.00e+00	0	44	0	3295674368	7	3699
2026-01-16 05:27:55.90	246.74	36.64	-23.5	-23.8	18.4	0.00e+00	0	44	0	3303014400	7	3701
2026-01-16 05:27:56.90	246.49	36.45	-23.4	-23.6	18.4	0.00e+00	0	44	0	3310354432	7	3665
2026-01-16 05:27:57.90	246.24	36.26	-23.4	-23.6	18.4	0.00e+00	0	44	0	3317694464	7	3661
2026-01-16 05:27:58.90	245.99	36.07	-23.6	-23.9	18.3	0.00e+00	0	44	0	3325034496	7	3738
2026-01-16 05:27:59.90	245.74	35.88	-23.4	-23.5	18.5	0.00e+00	0	44	0	3332374528	7	3648
2026-01-16 05:28:00.90	245.50	35.70	-23.8	-24.4	18.0	0.00e+00	0	44	0	3339714560	7	3839
2026-01-16 05:28:01.90	245.26	35.51	-23.7	-24.1	18.2	0.00e+00	0	44	0	3346006016	7	3774
2026-01-16 05:28:02.90	245.02	35.32	-23.5	-23.7	18.3	0.00e+00	0	44	0	3353346048	7	3695
2026-01-16 05:28:03.90	244.78	35.14	-23.4	-23.5	18.5	1.18e-04	0	44	0	3360686080	7	3645
2026-01-16 05:28:04.91	244.55	34.95	-23.1	-22.9	18.8	1.45e-04	0	44	0	3368026112	7	3511
2026-01-16 05:28:05.90	244.32	34.77	-23.0	-22.6	18.9	0.00e+00	0	44	0	3375366144	7	3444
2026-01-16 05:28:06.90	244.09	34.58	-23.0	-23.1	18.9	1.44e-04	0	44	0	3382706176	6	3659
2026-01-16 05:28:07.91	243.87	34.40	-22.6	-22.4	19.2	0.00e+00	0	44	0	3390046208	6	3513
2026-01-16 05:28:08.91	243.65	34.21	-22.6	-22.4	19.2	0.00e+00	0	44	0	3397386240	6	3499
2026-01-16 05:28:09.91	243.43	34.03	-22.8	-22.8	19.0	7.55e-05	0	44	0	3403677696	6	3596
2026-01-16 05:28:10.92	243.21	33.85	-23.0	-23.3	18.8	0.00e+00	0	44	0	3412066304	6	3704
2026-01-16 05:28:11.92	242.99	33.67	-23.2	-23.6	18.6	0.00e+00	0	44	0	3419406336	6	3773
2026-01-16 05:28:12.92	242.78	33.49	-23.3	-23.7	18.5	0.00e+00	0	44	0	3425697792	6	3805
2026-01-16 05:28:13.93	242.57	33.30	-23.3	-23.8	18.5	0.00e+00	0	44	0	3433037824	6	3812
2026-01-16 05:28:14.93	242.36	33.12	-23.2	-23.5	18.7	0.00e+00	0	44	0	3440377856	6	3748
2026-01-16 05:28:15.93	242.16	32.95	-23.0	-23.1	18.9	0.00e+00	0	44	0	3447717888	6	3666
2026-01-16 05:28:16.93	241.95	32.77	-22.9	-23.0	19.0	0.00e+00	0	44	0	3455057920	6	3637
2026-01-16 05:28:17.93	241.75	32.59	-22.9	-23.0	18.9	0.00e+00	0	44	0	3462397952	6	3638
2026-01-16 05:28:18.93	241.55	32.41	-23.2	-23.5	18.7	0.00e+00	0	44	0	3469737984	6	3741
2026-01-16 05:28:19.93	241.36	32.24	-22.9	-23.0	18.9	0.00e+00	0	44	0	3477078016	6	3636
2026-01-16 05:28:20.93	241.16	32.06	-22.8	-22.9	19.0	0.00e+00	0	44	0	3484418048	6	3608
2026-01-16 05:28:21.93	240.97	31.89	-22.9	-23.5	18.9	0.00e+00	0	44	0	3490709504	5	3843
2026-01-16 05:28:22.93	240.78	31.71	-22.9	-23.4	18.9	0.00e+00	0	44	0	3498049536	5	3820
2026-01-16 05:28:23.93	240.59	31.54	-23.1	-23.9	18.7	0.00e+00	0	44	0	3505389568	5	3945
2026-01-16 05:28:24.93	240.41	31.37	-23.1	-23.3	18.8	0.00e+00	0	44	0	3512729600	6	3702
2026-01-16 05:28:25.93	240.22	31.19	-23.0	-23.2	18.8	0.00e+00	0	44	0	3520069632	6	3683
2026-01-16 05:28:26.93	240.04	31.02	-23.0	-23.3	18.8	0.00e+00	0	44	0	3527409664	6	3699
2026-01-16 05:28:27.93	239.86	30.85	-23.1	-23.5	18.7	0.00e+00	0	44	0	3534749696	6	3734
2026-01-16 05:28:28.94	239.68	30.68	-22.9	-23.0	18.9	0.00e+00	0	44	0	3542089728	6	3633
2026-01-16 05:28:29.94	239.51	30.51	-22.8	-22.7	19.1	0.00e+00	0	44	0	3549429760	6	3565
2026-01-16 05:28:30.94	239.33	30.34	-22.8	-22.8	19.0	0.00e+00	0	44	0	3555721216	6	3585
2026-01-16 05:28:31.94	239.16	30.17	-22.7	-23.0	19.1	0.00e+00	0	44	0	3563061248	5	3744
2026-01-16 05:28:32.95	238.99	30.00	-22.8	-23.3	19.0	0.00e+00	0	44	0	3570401280	5	3808
2026-01-16 05:28:33.95	238.82	29.84	-22.8	-23.2	19.0	0.00e+00	0	44	0	3577741312	5	3787
2026-01-16 05:28:34.95	238.65	29.67	-22.9	-23.5	18.9	0.00e+00	0	44	0	3585081344	5	3845
2026-01-16 05:28:35.96	238.49	29.50	-22.9	-23.5	18.9	0.00e+00	0	44	0	3592421376	5	3852
2026-01-16 05:28:36.96	238.32	29.34	-23.0	-23.6	18.8	0.00e+00	0	44	0	3599761408	5	3872
2026-01-16 05:28:37.96	238.16	29.17	-23.0	-23.8	18.8	0.00e+00	0	44	0	3607101440	5	3911
2026-01-16 05:28:38.96	238.00	29.01	-23.1	-23.9	18.7	0.00e+00	0	44	0	3613392896	5	3943
2026-01-16 05:28:39.96	237.84	28.85	-23.4	-24.0	18.4	0.00e+00	0	44	0	3620732928	6	3864
2026-01-16 05:28:40.97	237.68	28.69	-23.3	-23.9	18.4	0.00e+00	0	44	0	3628072960	6	3832
2026-01-16 05:28:41.97	237.53	28.52	-23.3	-23.9	18.4	0.00e+00	0	44	0	3635412992	6	3832
2026-01-16 05:28:42.96	237.37	28.37	-23.5	-24.2	18.3	0.00e+00	0	44	0	3642753024	6	3901
2026-01-16 05:28:43.96	237.22	28.21	-23.4	-24.1	18.3	0.00e+00	0	44	0	3650093056	6	3894
2026-01-16 05:28:44.96	237.07	28.05	-23.5	-24.3	18.2	0.00e+00	0	44	0	3657433088	6	3942
2026-01-16 05:28:45.96	236.92	27.89	-23.4	-24.1	18.3	0.00e+00	0	44	0	3664773120	6	3886
2026-01-16 05:28:46.97	236.77	27.73	-23.4	-24.0	18.4	0.00e+00	0	44	0	3672113152	6	3864
2026-01-16 05:28:47.97	236.63	27.57	-23.5	-24.2	18.3	0.00e+00	0	44	0	3678404608	6	3910
2026-01-16 05:28:48.97	236.48	27.42	-23.4	-24.0	18.4	0.00e+00	0	44	0	3686793216	6	3864
2026-01-16 05:28:49.98	236.34	27.26	-23.4	-24.0	18.3	0.00e+00	0	44	0	3694133248	6	3875
2026-01-16 05:28:50.98	236.19	27.10	-23.5	-24.1	18.3	0.00e+00	0	44	0	3700424704	6	3897
2026-01-16 05:28:51.97	236.06	26.95	-23.5	-24.3	18.2	0.00e+00	0	44	0	3707764736	6	3922
2026-01-16 05:28:52.98	235.91	26.79	-23.5	-23.8	18.2	0.00e+00	0	44	0	3715104768	7	3706
2026-01-16 05:28:53.97	235.78	26.64	-23.6	-24.0	18.2	0.00e+00	0	44	0	3722444800	7	3752
2026-01-16 05:28:54.98	235.64	26.49	-23.6	-23.9	18.2	0.00e+00	0	44	0	3729784832	7	3726
2026-01-16 05:28:55.98	235.51	26.34	-23.7	-24.2	18.0	0.00e+00	0	44	0	3737124864	7	3794
2026-01-16 05:28:56.97	235.37	26.19	-23.6	-23.9	18.2	0.00e+00	0	44	0	3744464896	7	3738
2026-01-16 05:28:57.97	235.24	26.04	-23.5	-23.6	18.3	0.00e+00	0	44	0	3751804928	7	3678
2026-01-16 05:28:58.98	235.11	25.89	-23.6	-23.9	18.1	0.00e+00	0	44	0	3758096384	7	3745
2026-01-16 05:28:59.98	234.98	25.74	-23.5	-23.7	18.2	0.00e+00	0	44	0	3765436416	7	3683
2026-01-16 05:29:00.98	234.85	25.59	-23.5	-23.7	18.2	0.00e+00	0	44	0	3772776448	7	3699
2026-01-16 05:29:01.98	234.72	25.44	-23.7	-24.0	18.1	1.10e-06	0	44	0	3780116480	7	3768
2026-01-16 05:29:02.98	234.59	25.30	-23.5	-23.8	18.2	0.00e+00	0	44	0	3787456512	7	3714
2026-01-16 05:29:03.98	234.47	25.15	-23.4	-24.1	18.3	0.00e+00	0	44	0	3794796544	6	3889
2026-01-16 05:29:04.98	234.35	25.00	-23.5	-24.3	18.2	0.00e+00	0	44	0	3802136576	6	3921
2026-01-16 05:29:05.98	234.22	24.86	-23.4	-24.0	18.3	0.00e+00	0	44	0	3809476608	6	3865
2026-01-16 05:29:06.98	234.10	24.71	-23.4	-24.1	18.3	0.00e+00	0	44	0	3816816640	6	3892
2026-01-16 05:29:07.98	233.98	24.57	-23.4	-23.9	18.4	0.00e+00	0	44	0	3823108096	6	3850
2026-01-16 05:29:08.99	233.86	24.43	-23.5	-24.2	18.2	0.00e+00	0	44	0	3830448128	6	3904
2026-01-16 05:29:09.99	233.74	24.28	-23.3	-23.9	18.4	0.00e+00	0	44	0	3837788160	6	3840
2026-01-16 05:29:11.00	233.62	24.14	-23.3	-23.8	18.4	0.00e+00	0	44	0	3845128192	6	3827
2026-01-16 05:29:12.00	233.51	24.00	-23.3	-23.8	18.4	0.00e+00	0	44	0	3852468224	6	3820
2026-01-16 05:29:13.00	233.39	23.86	-23.2	-23.6	18.5	0.00e+00	0	44	0	3859808256	6	3782
2026-01-16 05:29:14.00	233.28	23.72	-23.4	-24.0	18.3	0.00e+00	0	44	0	3867148288	6	3864
2026-01-16 05:29:14.99	233.17	23.58	-23.1	-23.5	18.5	0.00e+00	0	44	0	3874488320	6	3747
2026-01-16 05:29:16.00	233.05	23.44	-23.1	-23.5	18.6	0.00e+00	0	44	0	3881828352	6	3747
2026-01-16 05:29:17.00	232.94	23.30	-23.1	-23.4	18.6	0.00e+00	0	44	0	3888119808	6	3734
2026-01-16 05:29:18.00	232.83	23.17	-23.3	-23.8	18.4	0.00e+00	0	44	0	3895459840	6	3819
2026-01-16 05:29:19.00	232.72	23.03	-23.4	-24.0	18.3	0.00e+00	0	44	0	3902799872	6	3856
2026-01-16 05:29:20.00	232.61	22.89	-23.4	-23.9	18.3	0.00e+00	0	44	0	3910139904	6	3844
2026-01-16 05:29:21.00	232.51	22.76	-23.5	-24.1	18.2	0.00e+00	0	44	0	3917479936	6	3895
2026-01-16 05:29:22.00	232.40	22.62	-23.5	-24.1	18.2	0.00e+00	0	44	0	3924819968	6	3893
2026-01-16 05:29:23.00	232.30	22.49	-23.6	-24.0	18.0	0.00e+00	0	44	0	3932160000	7	3766
2026-01-16 05:29:23.99	232.19	22.36	-23.9	-24.6	17.7	0.00e+00	0	44	0	3939500032	7	3899
2026-01-16 05:29:25.00	232.09	22.22	-23.9	-24.7	17.7	0.00e+00	0	44	0	3945791488	7	3913
2026-01-16 05:29:26.00	231.98	22.09	-23.8	-24.5	17.8	0.00e+00	0	44	0	3953131520	7	3869
2026-01-16 05:29:27.01	231.88	21.95	-24.1	-24.9	17.5	0.00e+00	0	44	0	3960471552	7	3984
2026-01-16 05:29:28.01	231.78	21.82	-24.2	-24.7	17.4	0.00e+00	0	44	0	3967811584	8	3821
2026-01-16 05:29:29.02	231.68	21.69	-24.5	-25.4	17.0	0.00e+00	0	44	0	3975151616	8	4002
2026-01-16 05:29:30.02	231.58	21.56	-24.5	-25.3	17.1	0.00e+00	0	44	0	3982491648	8	3968
2026-01-16 05:29:31.02	231.48	21.43	-24.5	-25.5	17.0	0.00e+00	0	44	0	3989831680	8	4011
2026-01-16 05:29:32.02	231.39	21.30	-24.4	-25.2	17.2	0.00e+00	0	44	0	3997171712	8	3932
2026-01-16 05:29:33.02	231.29	21.17	-24.5	-25.3	17.1	0.00e+00	0	44	0	4004511744	8	3967
2026-01-16 05:29:34.03	231.19	21.04	-24.6	-25.6	16.9	0.00e+00	0	44	0	4011851776	8	4034
2026-01-16 05:29:35.03	231.10	20.92	-24.3	-25.0	17.2	0.00e+00	0	44	0	4019191808	8	3881
2026-01-16 05:29:36.03	231.00	20.79	-24.2	-24.8	17.3	0.00e+00	0	44	0	4026531840	8	3858
2026-01-16 05:29:37.03	230.91	20.66	-24.1	-24.6	17.4	0.00e+00	0	44	0	4032823296	8	3796
2026-01-16 05:29:38.04	230.82	20.54	-24.3	-24.9	17.3	0.00e+00	0	44	0	4040163328	8	3858
2026-01-16 05:29:39.03	230.73	20.41	-24.0	-24.3	17.2	0.00e+00	0	44	0	4047503360	8	3735
2026-01-16 05:29:40.04	230.63	20.29	-24.2	-24.7	17.3	0.00e+00	0	44	0	4054843392	8	3823
2026-01-16 05:29:41.04	230.54	20.16	-24.0	-24.3	17.5	0.00e+00	0	44	0	4062183424	8	3733
2026-01-16 05:29:42.05	230.45	20.04	-23.9	-24.2	17.6	0.00e+00	0	44	0	4069523456	8	3697
2026-01-16 05:29:43.06	230.36	19.91	-23.9	-24.1	17.6	0.00e+00	0	44	0	4076863488	8	3683
2026-01-16 05:29:44.07	230.28	19.79	-24.1	-24.5	17.4	0.00e+00	0	44	0	4084203520	8	3775
2026-01-16 05:29:45.07	230.19	19.67	-24.1	-24.5	17.4	0.00e+00	0	44	0	4091543552	8	3761
2026-01-16 05:29:46.07	230.10	19.55	-24.3	-25.0	17.2	0.00e+00	0	44	0	4098883584	8	3881
2026-01-16 05:29:47.08	230.02	19.43	-24.2	-24.7	17.4	0.00e+00	0	44	0	4106223616	8	3813
2026-01-16 05:29:48.08	229.93	19.30	-24.2	-24.8	17.3	0.00e+00	0	44	0	4113563648	8	3841
2026-01-16 05:29:49.08	229.85	19.18	-24.3	-25.0	17.2	0.00e+00	0	44	0	4119855104	8	3885
2026-01-16 05:29:50.07	229.76	19.07	-24.6	-25.5	16.9	0.00e+00	0	44	0	4127195136	8	4010
2026-01-16 05:29:51.07	229.68	18.95	-24.4	-25.3	17.1	2.20e-06	0	44	0	4134535168	8	3951
2026-01-16 05:29:52.08	229.60	18.83	-24.6	-25.1	16.9	0.00e+00	0	44	0	4141875200	9	3811
2026-01-16 05:29:53.07	229.52	18.71	-24.7	-25.2	16.8	0.00e+00	0	44	0	4149215232	9	3837
2026-01-16 05:29:54.07	229.43	18.59	-24.7	-25.4	16.7	0.00e+00	0	44	0	4156555264	9	3869
2026-01-16 05:29:55.08	229.35	18.48	-24.8	-25.4	16.7	0.00e+00	0	44	0	4163895296	9	3885
2026-01-16 05:29:56.08	229.27	18.36	-25.0	-25.9	16.4	0.00e+00	0	44	0	4171235328	9	3991
2026-01-16 05:29:57.08	229.19	18.24	-24.9	-25.8	16.5	1.10e-06	0	44	0	4177526784	9	3973
2026-01-16 05:29:58.08	229.12	18.13	-25.0	-25.9	16.4	0.00e+00	0	44	0	4184866816	9	4009
2026-01-16 05:29:59.08	229.04	18.01	-24.8	-25.6	16.6	0.00e+00	0	44	0	4192206848	9	3918
2026-01-16 05:30:00.08	228.96	17.90	-24.7	-25.4	16.7	0.00e+00	0	44	0	4199546880	9	3874
2026-01-16 05:30:01.08	228.88	17.79	-24.8	-25.5	16.6	0.00e+00	0	44	0	4206886912	9	3914
2026-01-16 05:30:02.08	228.81	17.67	-24.8	-25.6	16.6	0.00e+00	0	44	0	4214226944	9	3933
2026-01-16 05:30:03.09	228.73	17.56	-24.7	-25.3	16.7	0.00e+00	0	44	0	4221566976	9	3864
2026-01-16 05:30:04.09	228.66	17.45	-24.8	-25.6	16.5	0.00e+00	0	44	0	4228907008	9	3932
2026-01-16 05:30:05.09	228.58	17.33	-24.9	-25.7	16.5	0.00e+00	0	44	0	4236247040	9	3946
2026-01-16 05:30:06.09	228.51	17.22	-24.7	-25.3	16.6	4.50e-06	0	44	0	4242538496	9	3870
2026-01-16 05:30:07.09	228.43	17.11	-24.6	-25.2	16.7	1.48e-05	0	44	0	4249878528	9	3831
2026-01-16 05:30:08.09	228.36	17.00	-24.6	-25.2	16.7	0.00e+00	0	44	0	4257218560	9	3829
2026-01-16 05:30:09.09	228.29	16.89	-24.7	-25.2	16.7	5.70e-06	0	44	0	4264558592	9	3838
2026-01-16 05:30:10.09	228.22	16.78	-24.6	-25.0	16.8	1.14e-05	0	44	0	4271898624	9	3798
2026-01-16 05:30:11.10	228.15	16.67	-24.7	-25.3	16.7	0.00e+00	0	44	0	4279238656	9	3863
2026-01-16 05:30:12.10	228.08	16.56	-24.8	-25.5	16.6	6.80e-06	0	44	0	4286578688	9	3894
2026-01-16 05:30:13.11	228.01	16.45	-24.6	-25.2	16.7	1.10e-06	0	44	0	4293918720	9	3829
2026-01-16 05:30:14.11	227.94	16.34	-24.8	-25.4	16.6	0.00e+00	0	44	0	4300210176	9	3880
2026-01-16 05:30:15.11	227.87	16.24	-24.8	-25.5	16.5	0.00e+00	0	44	0	4307550208	9	3908
2026-01-16 05:30:16.12	227.80	16.13	-24.7	-25.3	16.6	0.00e+00	0	44	0	4315938816	9	3857
2026-01-16 05:30:17.12	227.73	16.02	-24.7	-25.2	16.7	0.00e+00	0	44	0	4322230272	9	3843
2026-01-16 05:30:18.12	227.66	15.91	-24.8	-25.5	16.5	0.00e+00	0	44	0	4329570304	9	3904
2026-01-16 05:30:19.12	227.59	15.81	-24.7	-25.3	16.6	0.00e+00	0	44	0	4336910336	9	3864
2026-01-16 05:30:20.12	227.53	15.70	-24.8	-25.6	16.5	0.00e+00	0	44	0	4344250368	9	3936
2026-01-16 05:30:21.12	227.46	15.60	-24.8	-25.4	16.5	1.02e-05	0	44	0	4351590400	9	3888
2026-01-16 05:30:22.12	227.40	15.49	-24.6	-25.1	16.7	5.60e-05	0	44	0	4358930432	9	3811
2026-01-16 05:30:23.12	227.33	15.39	-24.7	-25.4	16.6	0.00e+00	0	44	0	4366270464	9	3879
2026-01-16 05:30:24.12	227.27	15.29	-24.8	-25.5	16.5	0.00e+00	0	44	0	4373610496	9	3901
2026-01-16 05:30:25.12	227.20	15.18	-24.9	-25.7	16.4	9.95e-05	0	44	0	4380950528	9	3956
2026-01-16 05:30:26.13	227.14	15.08	-25.0	-25.9	16.3	0.00e+00	0	44	0	4387241984	9	4014
2026-01-16 05:30:27.13	227.08	14.98	-25.0	-26.0	16.2	0.00e+00	0	44	0	4394582016	9	4023
2026-01-16 05:30:28.13	227.01	14.87	-25.0	-25.9	16.3	0.00e+00	0	44	0	4401922048	9	4001
2026-01-16 05:30:29.14	226.95	14.77	-25.1	-25.6	16.2	0.00e+00	0	44	0	4409262080	10	3818
2026-01-16 05:30:30.14	226.89	14.67	-25.3	-26.1	15.9	5.70e-06	0	44	0	4416602112	10	3947
2026-01-16 05:30:31.14	226.83	14.57	-25.2	-26.0	15.9	0.00e+00	0	44	0	4423942144	10	3915
2026-01-16 05:30:32.14	226.77	14.47	-25.3	-26.1	15.8	0.00e+00	0	44	0	4431282176	10	3944
2026-01-16 05:30:33.15	226.70	14.37	-25.3	-26.0	15.9	0.00e+00	0	44	0	4438622208	10	3926
2026-01-16 05:30:34.15	226.64	14.27	-25.3	-26.1	15.8	0.00e+00	0	44	0	4445962240	10	3959
2026-01-16 05:30:35.15	226.58	14.17	-25.3	-26.1	15.9	0.00e+00	0	44	0	4452253696	10	3940
2026-01-16 05:30:36.15	226.53	14.07	-25.3	-26.1	15.8	0.00e+00	0	44	0	4459593728	10	3951
2026-01-16 05:30:37.15	226.47	13.97	-25.6	-26.7	15.5	0.00e+00	0	44	0	4466933760	10	4091
2026-01-16 05:30:38.15	226.41	13.87	-25.5	-26.5	15.6	0.00e+00	0	44	0	4474273792	10	4036
2026-01-16 05:30:39.16	226.35	13.77	-25.4	-26.3	15.7	0.00e+00	0	44	0	4481613824	10	4003
2026-01-16 05:30:40.15	226.29	13.67	-25.5	-26.5	15.6	0.00e+00	0	44	0	4488953856	10	4043
2026-01-16 05:30:41.15	226.24	13.58	-25.4	-26.3	15.7	0.00e+00	0	44	0	4496293888	10	4008
2026-01-16 05:30:42.16	226.18	13.48	-25.6	-26.3	15.4	0.00e+00	0	44	0	4503633920	11	3899
2026-01-16 05:30:43.16	226.12	13.38	-25.5	-26.1	15.6	0.00e+00	0	44	0	4509925376	11	3838
2026-01-16 05:30:44.16	226.07	13.29	-25.6	-26.2	15.5	0.00e+00	0	44	0	4517265408	11	3877
2026-01-16 05:30:45.16	226.01	13.19	-25.6	-26.3	15.4	0.00e+00	0	44	0	4524605440	11	3907
2026-01-16 05:30:46.16	225.95	13.09	-25.7	-26.4	15.3	0.00e+00	0	44	0	4531945472	11	3916
2026-01-16 05:30:47.16	225.90	13.00	-25.8	-26.6	15.2	0.00e+00	0	44	0	4539285504	11	3968
2026-01-16 05:30:48.16	225.84	12.90	-25.7	-26.5	15.3	0.00e+00	0	44	0	4546625536	11	3955
2026-01-16 05:30:49.16	225.79	12.81	-25.7	-26.5	15.3	0.00e+00	0	44	0	4553965568	11	3959
2026-01-16 05:30:50.16	225.74	12.72	-25.7	-26.6	15.2	0.00e+00	0	44	0	4561305600	11	3965
2026-01-16 05:30:51.17	225.68	12.62	-25.7	-26.5	15.3	0.00e+00	0	44	0	4568645632	11	3939
2026-01-16 05:30:52.17	225.63	12.53	-25.9	-27.0	15.0	0.00e+00	0	44	0	4575985664	11	4079
2026-01-16 05:30:53.17	225.58	12.43	-25.9	-27.0	15.0	0.00e+00	0	44	0	4583325696	11	4066
2026-01-16 05:30:54.17	225.52	12.34	-26.1	-27.3	14.8	0.00e+00	0	44	0	4589617152	11	4154
2026-01-16 05:30:55.17	225.47	12.25	-26.2	-27.2	14.5	1.10e-06	0	44	0	4596957184	12	4023
2026-01-16 05:30:56.17	225.42	12.16	-26.5	-27.7	14.2	0.00e+00	0	44	0	4604297216	12	4155
2026-01-16 05:30:57.17	225.37	12.07	-26.3	-27.3	14.4	0.00e+00	0	44	0	4611637248	12	4040
2026-01-16 05:30:58.17	225.32	11.97	-26.5	-27.7	14.2	1.10e-06	0	44	0	4618977280	12	4147
2026-01-16 05:30:59.17	225.27	11.88	-26.6	-27.6	14.0	4.50e-06	0	44	0	4626317312	13	4019
2026-01-16 05:31:00.18	225.22	11.79	-26.5	-27.3	14.1	1.10e-06	0	44	0	4633657344	13	3951
2026-01-16 05:31:01.18	225.17	11.70	-26.2	-26.7	14.5	0.00e+00	0	44	0	4640997376	13	3804
2026-01-16 05:31:02.18	225.12	11.61	-26.4	-27.2	14.2	1.10e-06	0	44	0	4648337408	13	3908
2026-01-16 05:31:03.19	225.07	11.52	-26.6	-27.4	14.1	2.20e-06	0	44	0	4655677440	13	3980
2026-01-16 05:31:04.19	225.02	11.43	-26.7	-27.7	13.9	3.40e-06	0	44	0	4661968896	13	4049
2026-01-16 05:31:05.19	224.97	11.34	-26.4	-27.1	14.3	2.20e-06	0	44	0	4669308928	13	3890
2026-01-16 05:31:06.19	224.92	11.25	-26.3	-26.8	14.4	0.00e+00	0	44	0	4676648960	13	3832
2026-01-16 05:31:07.20	224.87	11.16	-26.1	-26.5	14.6	0.00e+00	0	44	0	4683988992	13	3738
2026-01-16 05:31:08.20	224.82	11.07	-26.1	-26.5	14.6	1.10e-06	0	44	0	4691329024	13	3744
2026-01-16 05:31:09.20	224.78	10.98	-26.2	-26.7	14.4	0.00e+00	0	44	0	4698669056	13	3798
2026-01-16 05:31:10.20	224.73	10.90	-26.6	-27.4	14.0	0.00e+00	0	44	0	4706009088	13	3969
2026-01-16 05:31:11.20	224.68	10.81	-26.4	-27.2	14.2	0.00e+00	0	44	0	4713349120	13	3912
2026-01-16 05:31:12.20	224.63	10.72	-26.3	-26.9	14.3	0.00e+00	0	44	0	4719640576	13	3840
2026-01-16 05:31:13.20	224.59	10.64	-26.7	-27.7	13.9	3.40e-06	0	44	0	4726980608	13	4042
2026-01-16 05:31:14.19	224.54	10.55	-26.4	-27.1	14.2	0.00e+00	0	44	0	4734320640	13	3908
2026-01-16 05:31:15.19	224.50	10.46	-26.5	-27.3	14.1	2.20e-06	0	44	0	4741660672	13	3943
2026-01-16 05:31:16.19	224.45	10.38	-26.5	-27.2	14.1	1.10e-06	0	44	0	4749000704	13	3934
2026-01-16 05:31:17.19	224.41	10.29	-26.7	-27.8	13.7	2.20e-06	0	44	0	4756340736	13	4084
2026-01-16 05:31:18.19	224.36	10.21	-26.5	-27.4	14.0	3.40e-06	0	44	0	4763680768	13	3962
2026-01-16 05:31:19.20	224.32	10.12	-26.4	-27.1	14.1	1.10e-06	0	44	0	4771020800	13	3909
2026-01-16 05:31:20.20	224.27	10.03	-26.3	-26.8	14.3	0.00e+00	0	44	0	4778360832	13	3828
2026-01-16 05:31:21.20	224.23	9.95	-26.3	-26.8	14.3	1.10e-06	0	44	0	4784652288	13	3836
2026-01-16 05:31:22.21	224.18	9.86	-26.4	-27.0	14.2	1.10e-06	0	44	0	4791992320	13	3872
2026-01-16 05:31:23.21	224.14	9.78	-26.6	-27.4	13.9	1.10e-06	0	44	0	4799332352	13	3980
2026-01-16 05:31:24.22	224.10	9.70	-26.7	-27.6	13.8	1.10e-06	0	44	0	4806672384	13	4034
2026-01-16 05:31:25.22	224.05	9.61	-26.5	-27.2	14.0	1.10e-06	0	44	0	4814012416	13	3928
2026-01-16 05:31:26.21	224.01	9.53	-26.4	-27.1	14.1	2.20e-06	0	44	0	4821352448	13	3907
2026-01-16 05:31:27.22	223.97	9.45	-26.5	-27.2	14.0	1.10e-06	0	44	0	4828692480	13	3925
2026-01-16 05:31:28.22	223.93	9.36	-26.5	-27.3	14.0	2.20e-06	0	44	0	4836032512	13	3947
2026-01-16 05:31:29.23	223.88	9.28	-26.6	-27.6	13.8	3.40e-06	0	44	0	4843372544	13	4029
2026-01-16 05:31:30.22	223.84	9.20	-26.5	-27.3	13.9	0.00e+00	0	44	0	4850712576	13	3962
2026-01-16 05:31:31.22	223.80	9.12	-26.7	-27.8	13.7	5.70e-06	0	44	0	4858052608	13	4074
2026-01-16 05:31:32.23	223.76	9.03	-26.7	-27.8	13.7	6.80e-06	0	44	0	4864344064	13	4069
2026-01-16 05:31:33.23	223.72	8.95	-26.7	-27.8	13.7	3.40e-06	0	44	0	4871684096	13	4070
2026-01-16 05:31:34.23	223.68	8.87	-26.7	-27.7	13.7	1.10e-06	0	44	0	4879024128	13	4059
2026-01-16 05:31:35.24	223.64	8.79	-26.6	-27.4	13.9	1.25e-05	0	44	0	4886364160	13	3988
2026-01-16 05:31:36.24	223.60	8.71	-26.5	-27.3	13.9	1.10e-06	0	44	0	4893704192	13	3940
2026-01-16 05:31:37.24	223.56	8.63	-26.5	-27.4	13.8	2.20e-06	0	44	0	4901044224	13	3982
2026-01-16 05:31:38.24	223.52	8.55	-26.7	-27.7	13.7	4.50e-06	0	44	0	4908384256	13	4059
2026-01-16 05:31:39.25	223.48	8.47	-26.5	-27.4	13.8	5.70e-06	0	44	0	4915724288	13	3991
2026-01-16 05:31:40.25	223.44	8.39	-26.6	-27.6	13.7	4.50e-06	0	44	0	4923064320	13	4020
2026-01-16 05:31:41.26	223.40	8.31	-26.4	-27.2	14.0	6.80e-06	0	44	0	4929355776	13	3917
2026-01-16 05:31:42.26	223.36	8.23	-26.6	-27.6	13.7	1.10e-06	0	44	0	4936695808	13	4035
2026-01-16 05:31:43.26	223.32	8.15	-26.6	-27.5	13.8	1.10e-06	0	44	0	4944035840	13	4001
2026-01-16 05:31:44.27	223.28	8.07	-26.7	-27.8	13.6	8.00e-06	0	44	0	4951375872	13	4086
