passes_logs/2026/01/16/R2M6_AANII_01/R2M6_AANII_01__20260116_101000_FENGYUN_3D_rec.log

#Pass ID: 20260116_101000_FENGYUN 3D
#Satellite: FENGYUN 3D
#Configuration: FENGYUN 3D
#almurnet v.1.7.20240730
#Start time: 2026-01-16 10:09:59

#Version: 2.2.20231116
#Station: R2M6_AANII_01
#Location: 30.233357 lon 59.946436 lat
#TLE: 1 43010U 17072A   26015.49690188 -.00000192  00000+0 -69217-4 0  9996
#TLE: 2 43010  98.9932 347.3205 0002350 106.2275 253.9159 14.19694721423329

#Time	Az	El	Level	Level2	SNR	BER	BlckErr	Temp	State	Recorded	gain1	gain2
2026-01-16 10:09:59.32	92.12	6.96	-31.7	-42.4	3.8	8.45e-01	0	40	0	0	23	12357
2026-01-16 10:10:00.32	92.02	7.02	-31.4	-40.0	3.8	8.45e-01	0	40	104	0	24	9685
2026-01-16 10:10:01.32	91.92	7.08	-30.8	-38.9	4.1	8.43e-01	0	40	0	0	23	9175
2026-01-16 10:10:02.32	91.81	7.14	-31.2	-38.1	4.1	8.41e-01	0	41	104	0	23	7962
2026-01-16 10:10:03.33	91.71	7.20	-31.0	-36.6	5.3	7.77e-01	0	41	0	0	23	6841
2026-01-16 10:10:04.32	91.61	7.26	-30.7	-35.7	6.1	3.90e-01	0	41	0	3145728	22	6355
2026-01-16 10:10:05.33	91.50	7.32	-30.4	-34.3	7.1	2.17e-01	0	40	0	8388608	22	5663
2026-01-16 10:10:06.33	91.40	7.38	-30.0	-33.5	8.0	8.73e-02	0	41	0	14680064	21	5371
2026-01-16 10:10:07.34	91.29	7.44	-29.9	-33.0	8.4	6.16e-02	0	41	0	19922944	21	5167
2026-01-16 10:10:08.34	91.19	7.50	-29.8	-33.2	8.7	4.22e-02	0	41	0	25165824	20	5330
2026-01-16 10:10:09.34	91.08	7.56	-29.8	-33.1	8.9	4.72e-02	0	41	0	31457280	20	5259
2026-01-16 10:10:10.35	90.97	7.62	-29.9	-33.5	8.9	3.42e-02	0	41	0	36700160	20	5407
2026-01-16 10:10:11.35	90.87	7.68	-30.4	-34.7	8.0	8.53e-02	0	41	0	41943040	20	5933
2026-01-16 10:10:12.34	90.76	7.74	-29.9	-33.1	9.2	4.09e-02	0	41	0	48234496	20	5243
2026-01-16 10:10:13.34	90.65	7.81	-29.3	-31.6	10.3	9.48e-03	0	41	0	53477376	20	4666
2026-01-16 10:10:14.34	90.55	7.87	-28.8	-30.7	11.3	3.11e-03	0	41	0	59768832	19	4469
2026-01-16 10:10:15.34	90.44	7.93	-28.4	-30.0	12.1	4.84e-04	0	41	0	65011712	18	4363
2026-01-16 10:10:16.34	90.33	7.99	-28.0	-29.7	12.6	2.32e-04	0	41	0	70254592	17	4363
2026-01-16 10:10:17.34	90.22	8.05	-27.5	-29.0	13.3	3.66e-05	0	41	0	76546048	16	4278
2026-01-16 10:10:18.35	90.11	8.11	-27.4	-28.8	13.5	1.02e-05	0	41	0	81788928	16	4204
2026-01-16 10:10:19.35	90.00	8.17	-27.0	-28.3	13.8	1.25e-05	0	41	0	87031808	15	4199
2026-01-16 10:10:20.35	89.89	8.23	-27.0	-28.4	13.8	1.02e-05	0	41	0	93323264	15	4201
2026-01-16 10:10:21.36	89.78	8.30	-26.9	-28.1	14.1	4.50e-06	0	41	0	98566144	15	4124
2026-01-16 10:10:22.37	89.66	8.36	-27.2	-28.7	13.7	1.02e-05	0	41	0	103809024	15	4282
2026-01-16 10:10:23.37	89.55	8.42	-26.9	-28.1	14.1	8.00e-06	0	41	0	110100480	15	4138
2026-01-16 10:10:24.38	89.44	8.48	-26.8	-27.9	14.2	4.50e-06	0	41	0	115343360	15	4067
2026-01-16 10:10:25.38	89.32	8.54	-26.8	-28.3	14.4	4.50e-06	0	41	0	121634816	14	4277
2026-01-16 10:10:26.38	89.21	8.60	-26.9	-28.6	14.2	1.10e-06	0	41	0	126877696	14	4371
2026-01-16 10:10:27.38	89.10	8.67	-27.0	-28.8	14.1	4.50e-06	0	42	0	133169152	14	4414
2026-01-16 10:10:28.38	88.98	8.73	-26.8	-28.4	14.3	0.00e+00	0	41	0	138412032	14	4304
2026-01-16 10:10:29.38	88.87	8.79	-27.0	-28.8	14.1	9.10e-06	0	41	0	143654912	14	4437
2026-01-16 10:10:30.38	88.75	8.85	-27.1	-29.0	14.0	4.50e-06	0	41	0	149946368	14	4484
2026-01-16 10:10:31.38	88.63	8.91	-27.2	-29.3	13.8	9.10e-06	0	41	0	155189248	14	4569
2026-01-16 10:10:32.38	88.52	8.97	-26.9	-28.6	14.2	6.80e-06	0	42	0	160432128	14	4360
2026-01-16 10:10:33.39	88.40	9.04	-26.9	-28.6	14.3	6.80e-06	0	42	0	166723584	14	4357
2026-01-16 10:10:34.39	88.28	9.10	-26.9	-28.5	14.3	2.20e-06	0	41	0	171966464	14	4331
2026-01-16 10:10:35.39	88.16	9.16	-26.9	-28.6	14.2	1.10e-06	0	41	0	177209344	14	4367
2026-01-16 10:10:36.39	88.04	9.22	-26.8	-28.3	14.4	1.10e-06	0	41	0	183500800	14	4285
2026-01-16 10:10:37.39	87.92	9.28	-26.9	-28.5	14.4	1.10e-06	0	42	0	188743680	14	4327
2026-01-16 10:10:38.39	87.80	9.35	-27.0	-28.8	14.2	6.80e-06	0	41	0	195035136	14	4425
2026-01-16 10:10:39.40	87.68	9.41	-26.8	-28.3	14.5	3.40e-06	0	42	0	200278016	14	4273
2026-01-16 10:10:40.40	87.56	9.47	-26.8	-28.4	14.4	1.10e-06	0	42	0	205520896	14	4304
2026-01-16 10:10:41.41	87.44	9.53	-26.6	-28.0	14.7	3.40e-06	0	42	0	211812352	14	4187
2026-01-16 10:10:42.41	87.32	9.60	-26.7	-28.1	14.6	1.10e-06	0	42	0	217055232	14	4225
2026-01-16 10:10:43.40	87.20	9.66	-26.9	-28.5	14.4	0.00e+00	0	41	0	222298112	14	4333
2026-01-16 10:10:44.41	87.07	9.72	-27.0	-28.7	14.3	1.10e-06	0	41	0	228589568	14	4380
2026-01-16 10:10:45.40	86.95	9.78	-26.7	-28.0	14.7	1.10e-06	0	42	0	233832448	14	4187
2026-01-16 10:10:46.41	86.83	9.84	-26.6	-27.8	14.8	0.00e+00	0	42	0	239075328	14	4127
2026-01-16 10:10:47.40	86.70	9.91	-26.6	-27.9	14.8	1.10e-06	0	42	0	245366784	14	4177
2026-01-16 10:10:48.41	86.58	9.97	-26.5	-27.7	14.9	0.00e+00	0	42	0	250609664	14	4118
2026-01-16 10:10:49.41	86.45	10.03	-26.7	-28.2	14.7	0.00e+00	0	42	0	256901120	14	4241
2026-01-16 10:10:50.42	86.32	10.09	-26.6	-27.8	14.9	0.00e+00	0	42	0	262144000	14	4133
2026-01-16 10:10:51.42	86.20	10.16	-26.8	-28.2	14.7	0.00e+00	0	42	0	268435456	14	4249
2026-01-16 10:10:52.42	86.07	10.22	-26.7	-28.1	14.7	0.00e+00	0	42	0	273678336	14	4233
2026-01-16 10:10:53.42	85.94	10.28	-26.8	-28.2	14.7	0.00e+00	0	42	0	278921216	14	4231
2026-01-16 10:10:54.41	85.81	10.34	-26.6	-27.8	14.9	0.00e+00	0	42	0	284164096	14	4140
2026-01-16 10:10:55.42	85.68	10.41	-26.7	-28.0	14.8	0.00e+00	0	42	0	290455552	14	4193
2026-01-16 10:10:56.42	85.55	10.47	-26.7	-28.1	14.7	1.10e-06	0	42	0	295698432	14	4225
2026-01-16 10:10:57.43	85.42	10.53	-26.7	-28.0	14.8	2.20e-06	0	42	0	301989888	14	4204
2026-01-16 10:10:58.43	85.29	10.59	-26.8	-28.2	14.6	1.10e-06	0	42	0	307232768	14	4251
2026-01-16 10:10:59.44	85.16	10.66	-26.6	-27.7	14.9	0.00e+00	0	42	0	312475648	14	4120
2026-01-16 10:11:00.44	85.03	10.72	-26.4	-27.4	15.2	0.00e+00	0	42	0	318767104	14	4021
2026-01-16 10:11:01.44	84.90	10.78	-26.5	-27.5	15.1	0.00e+00	0	42	0	324009984	14	4064
2026-01-16 10:11:02.44	84.76	10.85	-26.4	-27.5	15.1	0.00e+00	0	42	0	330301440	14	4047
2026-01-16 10:11:03.44	84.63	10.91	-26.4	-27.3	15.2	0.00e+00	0	42	0	335544320	14	4000
2026-01-16 10:11:04.44	84.49	10.97	-26.4	-27.3	15.2	0.00e+00	0	42	0	340787200	14	4012
2026-01-16 10:11:05.44	84.36	11.03	-26.4	-27.3	15.2	0.00e+00	0	42	0	347078656	14	4008
2026-01-16 10:11:06.45	84.22	11.10	-26.4	-27.3	15.2	0.00e+00	0	42	0	352321536	14	4001
2026-01-16 10:11:07.45	84.09	11.16	-26.4	-27.3	15.2	1.10e-06	0	42	0	357564416	14	3996
2026-01-16 10:11:08.45	83.95	11.22	-26.5	-27.6	15.1	1.10e-06	0	42	0	363855872	14	4090
2026-01-16 10:11:09.44	83.82	11.28	-26.5	-27.7	15.1	0.00e+00	0	42	0	369098752	14	4102
2026-01-16 10:11:10.45	83.68	11.35	-26.5	-27.6	15.1	2.20e-06	0	42	0	374341632	14	4076
2026-01-16 10:11:11.45	83.54	11.41	-26.4	-27.4	15.2	0.00e+00	0	42	0	380633088	14	4026
2026-01-16 10:11:12.45	83.40	11.47	-26.4	-27.4	15.2	0.00e+00	0	42	0	385875968	14	4031
2026-01-16 10:11:13.45	83.26	11.53	-26.4	-27.3	15.2	0.00e+00	0	42	0	392167424	14	4017
2026-01-16 10:11:14.46	83.12	11.60	-26.4	-27.3	15.3	0.00e+00	0	42	0	397410304	14	3990
2026-01-16 10:11:15.46	82.98	11.66	-26.3	-27.2	15.4	0.00e+00	0	42	0	402653184	14	3982
2026-01-16 10:11:16.45	82.84	11.72	-26.3	-27.1	15.4	0.00e+00	0	42	0	408944640	14	3965
2026-01-16 10:11:17.45	82.70	11.78	-26.2	-27.5	15.4	0.00e+00	0	42	0	414187520	13	4157
2026-01-16 10:11:18.45	82.55	11.85	-26.2	-27.4	15.5	0.00e+00	0	42	0	419430400	13	4143
2026-01-16 10:11:19.46	82.41	11.91	-26.2	-27.5	15.4	0.00e+00	0	42	0	425721856	13	4166
2026-01-16 10:11:20.46	82.27	11.97	-26.2	-27.4	15.5	0.00e+00	0	42	0	430964736	13	4139
2026-01-16 10:11:21.47	82.12	12.03	-26.2	-27.5	15.5	0.00e+00	0	42	0	437256192	13	4165
2026-01-16 10:11:22.47	81.97	12.10	-26.3	-27.7	15.4	0.00e+00	0	42	0	442499072	13	4205
2026-01-16 10:11:23.47	81.83	12.16	-26.2	-27.4	15.5	0.00e+00	0	42	0	447741952	13	4136
2026-01-16 10:11:24.47	81.68	12.22	-26.3	-27.6	15.4	0.00e+00	0	42	0	454033408	13	4176
2026-01-16 10:11:25.48	81.53	12.29	-26.1	-27.3	15.6	0.00e+00	0	42	0	459276288	13	4103
2026-01-16 10:11:26.49	81.39	12.35	-26.2	-27.4	15.5	0.00e+00	0	42	0	465567744	13	4135
2026-01-16 10:11:27.49	81.24	12.41	-26.2	-27.4	15.5	0.00e+00	0	42	0	470810624	13	4127
2026-01-16 10:11:28.49	81.09	12.47	-26.1	-27.2	15.7	0.00e+00	0	42	0	476053504	13	4073
2026-01-16 10:11:29.50	80.94	12.54	-26.1	-27.2	15.7	0.00e+00	0	42	0	482344960	13	4075
2026-01-16 10:11:30.51	80.79	12.60	-26.0	-26.9	15.8	0.00e+00	0	42	0	487587840	13	4015
2026-01-16 10:11:31.50	80.64	12.66	-26.1	-27.3	15.6	0.00e+00	0	42	0	492830720	13	4101
2026-01-16 10:11:32.51	80.48	12.72	-26.4	-27.7	15.3	0.00e+00	0	43	0	499122176	13	4218
2026-01-16 10:11:33.51	80.33	12.78	-26.3	-27.5	15.5	0.00e+00	0	42	0	504365056	13	4172
2026-01-16 10:11:34.51	80.18	12.85	-26.3	-27.5	15.5	0.00e+00	0	42	0	510656512	13	4168
2026-01-16 10:11:35.51	80.03	12.91	-26.3	-27.6	15.5	1.10e-06	0	42	0	515899392	13	4171
2026-01-16 10:11:36.51	79.87	12.97	-26.1	-27.3	15.6	0.00e+00	0	42	0	521142272	13	4097
2026-01-16 10:11:37.51	79.72	13.03	-26.2	-27.4	15.6	0.00e+00	0	42	0	527433728	13	4126
2026-01-16 10:11:38.51	79.56	13.09	-26.4	-27.8	15.4	0.00e+00	0	42	0	532676608	13	4240
2026-01-16 10:11:39.51	79.41	13.16	-26.3	-27.7	15.4	0.00e+00	0	42	0	537919488	13	4204
2026-01-16 10:11:40.51	79.25	13.22	-26.2	-27.3	15.6	0.00e+00	0	42	0	544210944	13	4114
2026-01-16 10:11:41.51	79.09	13.28	-26.0	-27.0	15.8	0.00e+00	0	42	0	549453824	13	4019
2026-01-16 10:11:42.51	78.93	13.34	-25.9	-26.8	15.9	0.00e+00	0	42	0	554696704	13	3970
2026-01-16 10:11:43.51	78.78	13.40	-25.8	-26.6	16.0	0.00e+00	0	43	0	560988160	13	3915
2026-01-16 10:11:44.51	78.62	13.46	-25.8	-26.6	16.0	0.00e+00	0	43	0	566231040	13	3921
2026-01-16 10:11:45.52	78.45	13.53	-25.8	-26.5	16.1	0.00e+00	0	43	0	572522496	13	3903
2026-01-16 10:11:46.52	78.29	13.59	-25.8	-26.9	16.1	1.10e-06	0	42	0	577765376	12	4113
2026-01-16 10:11:47.52	78.13	13.65	-25.7	-26.8	16.2	0.00e+00	0	42	0	584056832	12	4073
2026-01-16 10:11:48.53	77.97	13.71	-25.6	-26.5	16.4	0.00e+00	0	42	0	589299712	12	4002
2026-01-16 10:11:49.53	77.81	13.77	-25.6	-26.5	16.3	0.00e+00	0	43	0	594542592	12	4007
2026-01-16 10:11:50.54	77.64	13.83	-25.7	-26.7	16.3	1.10e-06	0	42	0	600834048	12	4050
2026-01-16 10:11:51.53	77.48	13.89	-25.8	-27.0	16.1	0.00e+00	0	42	0	606076928	12	4130
2026-01-16 10:11:52.54	77.31	13.96	-25.8	-26.9	16.1	0.00e+00	0	43	0	611319808	12	4119
2026-01-16 10:11:53.54	77.15	14.02	-26.0	-27.4	15.9	0.00e+00	0	43	0	617611264	12	4237
2026-01-16 10:11:54.55	76.98	14.08	-26.0	-27.5	15.9	0.00e+00	0	42	0	622854144	12	4266
2026-01-16 10:11:55.55	76.81	14.14	-26.0	-27.5	15.9	0.00e+00	0	43	0	628097024	12	4257
2026-01-16 10:11:56.55	76.65	14.20	-26.2	-27.8	15.7	0.00e+00	0	42	0	634388480	12	4359
2026-01-16 10:11:57.56	76.48	14.26	-26.2	-28.0	15.6	0.00e+00	0	42	0	639631360	12	4396
2026-01-16 10:11:58.56	76.31	14.32	-26.2	-28.0	15.6	0.00e+00	0	43	0	645922816	12	4395
2026-01-16 10:11:59.56	76.14	14.38	-26.2	-27.9	15.6	0.00e+00	0	42	0	651165696	12	4381
2026-01-16 10:12:00.57	75.97	14.44	-26.0	-27.5	15.8	0.00e+00	0	42	0	656408576	12	4274
2026-01-16 10:12:01.57	75.79	14.50	-25.9	-27.3	16.0	0.00e+00	0	42	0	662700032	12	4214
2026-01-16 10:12:02.58	75.62	14.56	-25.9	-27.3	16.0	1.10e-06	0	42	0	667942912	12	4198
2026-01-16 10:12:03.58	75.45	14.62	-25.8	-27.0	16.1	0.00e+00	0	42	0	674234368	12	4140
2026-01-16 10:12:04.58	75.28	14.68	-25.9	-27.1	16.1	0.00e+00	0	42	0	679477248	12	4168
2026-01-16 10:12:05.58	75.10	14.74	-25.7	-26.8	16.3	0.00e+00	0	43	0	684720128	12	4088
2026-01-16 10:12:06.59	74.93	14.80	-25.5	-26.3	16.5	0.00e+00	0	42	0	691011584	12	3963
2026-01-16 10:12:07.58	74.75	14.86	-25.3	-26.0	16.7	0.00e+00	0	42	0	696254464	12	3875
2026-01-16 10:12:08.59	74.57	14.92	-25.4	-26.6	16.8	0.00e+00	0	42	0	701497344	11	4132
2026-01-16 10:12:09.59	74.40	14.98	-25.4	-26.6	16.7	0.00e+00	0	42	0	707788800	11	4138
2026-01-16 10:12:10.59	74.22	15.04	-25.5	-26.8	16.7	0.00e+00	0	42	0	713031680	11	4177
2026-01-16 10:12:11.59	74.04	15.10	-25.5	-26.9	16.6	0.00e+00	0	42	0	719323136	11	4204
2026-01-16 10:12:12.60	73.86	15.16	-25.5	-26.8	16.6	0.00e+00	0	43	0	724566016	11	4196
2026-01-16 10:12:13.60	73.68	15.21	-25.5	-26.7	16.8	0.00e+00	0	43	0	729808896	11	4150
2026-01-16 10:12:14.60	73.50	15.27	-25.6	-27.0	16.7	1.10e-06	0	43	0	736100352	11	4210
2026-01-16 10:12:15.60	73.32	15.33	-25.5	-26.7	16.8	0.00e+00	0	43	0	741343232	11	4152
2026-01-16 10:12:16.61	73.14	15.39	-25.5	-26.6	16.9	0.00e+00	0	43	0	746586112	11	4124
2026-01-16 10:12:17.61	72.96	15.45	-25.4	-26.5	16.9	0.00e+00	0	43	0	752877568	11	4096
2026-01-16 10:12:18.62	72.77	15.51	-25.5	-26.8	16.8	0.00e+00	0	43	0	758120448	11	4156
2026-01-16 10:12:19.62	72.59	15.56	-25.4	-26.6	16.9	0.00e+00	0	42	0	764411904	11	4109
2026-01-16 10:12:20.63	72.40	15.62	-25.3	-26.3	17.1	0.00e+00	0	42	0	769654784	11	4031
2026-01-16 10:12:21.62	72.22	15.68	-25.4	-26.6	16.9	3.40e-06	0	43	0	774897664	11	4113
2026-01-16 10:12:22.63	72.03	15.74	-25.4	-26.5	16.9	0.00e+00	0	43	0	781189120	11	4086
2026-01-16 10:12:23.64	71.84	15.79	-25.3	-26.4	17.0	0.00e+00	0	42	0	786432000	11	4052
2026-01-16 10:12:24.63	71.66	15.85	-25.4	-26.5	17.0	0.00e+00	0	42	0	792723456	11	4079
2026-01-16 10:12:25.64	71.47	15.91	-25.5	-26.7	16.8	0.00e+00	0	42	0	797966336	11	4148
2026-01-16 10:12:26.63	71.28	15.96	-25.5	-26.7	16.8	0.00e+00	0	42	0	803209216	11	4145
2026-01-16 10:12:27.64	71.09	16.02	-25.4	-26.6	16.9	0.00e+00	0	43	0	809500672	11	4114
2026-01-16 10:12:28.64	70.90	16.08	-25.3	-26.3	17.1	0.00e+00	0	43	0	814743552	11	4040
2026-01-16 10:12:29.64	70.71	16.13	-25.2	-26.2	17.1	0.00e+00	0	43	0	819986432	11	4017
2026-01-16 10:12:30.64	70.51	16.19	-25.3	-26.3	17.1	0.00e+00	0	43	0	826277888	11	4041
2026-01-16 10:12:31.64	70.32	16.24	-25.5	-26.7	16.9	0.00e+00	0	42	0	831520768	11	4143
2026-01-16 10:12:32.65	70.13	16.30	-25.5	-26.8	16.8	0.00e+00	0	43	0	836763648	11	4174
2026-01-16 10:12:33.65	69.93	16.35	-25.5	-26.7	16.9	0.00e+00	0	43	0	843055104	11	4147
2026-01-16 10:12:34.65	69.74	16.41	-25.5	-26.7	16.9	0.00e+00	0	42	0	848297984	11	4146
2026-01-16 10:12:35.66	69.54	16.46	-25.6	-27.0	16.7	0.00e+00	0	42	0	854589440	11	4219
2026-01-16 10:12:36.66	69.35	16.52	-25.7	-27.1	16.7	0.00e+00	0	43	0	859832320	11	4240
2026-01-16 10:12:37.66	69.15	16.57	-25.6	-26.9	16.7	0.00e+00	0	43	0	865075200	11	4203
2026-01-16 10:12:38.67	68.95	16.63	-25.6	-26.9	16.8	0.00e+00	0	42	0	871366656	11	4185
2026-01-16 10:12:39.66	68.75	16.68	-25.6	-26.9	16.8	0.00e+00	0	42	0	876609536	11	4178
2026-01-16 10:12:40.66	68.55	16.73	-25.4	-26.5	17.0	0.00e+00	0	43	0	881852416	11	4099
2026-01-16 10:12:41.66	68.35	16.79	-25.5	-26.8	16.9	0.00e+00	0	43	0	888143872	11	4163
2026-01-16 10:12:42.66	68.15	16.84	-25.5	-26.8	16.8	0.00e+00	0	43	0	893386752	11	4174
2026-01-16 10:12:43.66	67.95	16.89	-25.3	-26.4	17.1	0.00e+00	0	43	0	898629632	11	4056
2026-01-16 10:12:44.66	67.75	16.95	-25.1	-25.9	17.3	0.00e+00	0	42	0	904921088	11	3951
2026-01-16 10:12:45.66	67.55	17.00	-25.0	-25.7	17.4	0.00e+00	0	43	0	910163968	11	3892
2026-01-16 10:12:46.66	67.35	17.05	-24.9	-25.5	17.5	0.00e+00	0	43	0	916455424	11	3841
2026-01-16 10:12:47.65	67.14	17.10	-24.9	-25.5	17.5	0.00e+00	0	42	0	921698304	11	3843
2026-01-16 10:12:48.66	66.94	17.15	-24.9	-25.4	17.6	0.00e+00	0	42	0	926941184	11	3812
2026-01-16 10:12:49.66	66.73	17.20	-25.0	-25.6	17.5	0.00e+00	0	43	0	933232640	11	3861
2026-01-16 10:12:50.67	66.53	17.26	-25.0	-25.7	17.4	0.00e+00	0	43	0	938475520	11	3902
2026-01-16 10:12:51.67	66.32	17.31	-25.1	-25.8	17.4	0.00e+00	0	43	0	944766976	11	3908
2026-01-16 10:12:52.68	66.11	17.36	-25.0	-25.7	17.4	0.00e+00	0	43	0	950009856	11	3888
2026-01-16 10:12:53.69	65.90	17.41	-25.1	-25.9	17.3	0.00e+00	0	43	0	955252736	11	3931
2026-01-16 10:12:54.69	65.69	17.46	-25.3	-26.2	17.2	0.00e+00	0	43	0	961544192	11	4025
2026-01-16 10:12:55.69	65.48	17.51	-25.5	-26.6	16.9	0.00e+00	0	43	0	966787072	11	4119
2026-01-16 10:12:56.70	65.27	17.56	-25.4	-26.6	17.0	0.00e+00	0	43	0	972029952	11	4111
2026-01-16 10:12:57.70	65.06	17.61	-25.4	-26.6	17.0	0.00e+00	0	43	0	978321408	11	4100
2026-01-16 10:12:58.70	64.85	17.65	-25.5	-26.8	16.9	0.00e+00	0	42	0	983564288	11	4162
2026-01-16 10:12:59.70	64.63	17.70	-25.5	-26.6	17.0	0.00e+00	0	43	0	989855744	11	4121
2026-01-16 10:13:00.70	64.42	17.75	-25.4	-26.6	17.0	0.00e+00	0	43	0	995098624	11	4104
2026-01-16 10:13:01.71	64.21	17.80	-25.4	-26.5	17.0	0.00e+00	0	43	0	1000341504	11	4088
2026-01-16 10:13:02.72	63.99	17.85	-25.4	-26.6	17.0	0.00e+00	0	42	0	1006632960	11	4101
2026-01-16 10:13:03.72	63.77	17.89	-25.6	-27.0	16.8	0.00e+00	0	43	0	1011875840	11	4201
2026-01-16 10:13:04.72	63.56	17.94	-25.5	-26.6	17.0	0.00e+00	0	43	0	1018167296	11	4119
2026-01-16 10:13:05.73	63.34	17.99	-25.1	-25.9	17.4	0.00e+00	0	43	0	1023410176	11	3928
2026-01-16 10:13:06.72	63.13	18.03	-24.8	-25.3	17.7	0.00e+00	0	42	0	1028653056	11	3789
2026-01-16 10:13:07.72	62.91	18.08	-24.7	-25.5	17.9	0.00e+00	0	43	0	1034944512	10	3936
2026-01-16 10:13:08.72	62.69	18.12	-24.8	-25.7	17.8	0.00e+00	0	43	0	1040187392	10	3984
2026-01-16 10:13:09.72	62.47	18.17	-24.9	-25.9	17.6	0.00e+00	0	43	0	1045430272	10	4056
2026-01-16 10:13:10.73	62.25	18.21	-25.0	-26.1	17.5	0.00e+00	0	43	0	1051721728	10	4110
2026-01-16 10:13:11.73	62.03	18.26	-25.0	-26.2	17.5	0.00e+00	0	43	0	1056964608	10	4131
2026-01-16 10:13:12.73	61.81	18.30	-25.1	-26.4	17.4	0.00e+00	0	43	0	1063256064	10	4161
2026-01-16 10:13:13.74	61.59	18.35	-24.9	-26.0	17.6	0.00e+00	0	43	0	1068498944	10	4060
2026-01-16 10:13:14.73	61.37	18.39	-24.8	-25.8	17.7	0.00e+00	0	43	0	1073741824	10	4024
2026-01-16 10:13:15.73	61.14	18.43	-24.8	-25.8	17.7	0.00e+00	0	43	0	1080033280	10	4020
2026-01-16 10:13:16.73	60.92	18.47	-24.8	-25.6	17.8	0.00e+00	0	43	0	1085276160	10	3971
2026-01-16 10:13:17.74	60.69	18.52	-24.8	-25.8	17.7	0.00e+00	0	43	0	1090519040	10	4020
2026-01-16 10:13:18.74	60.47	18.56	-24.9	-25.9	17.6	0.00e+00	0	43	0	1096810496	10	4054
2026-01-16 10:13:19.74	60.24	18.60	-25.1	-26.3	17.5	0.00e+00	0	43	0	1102053376	10	4150
2026-01-16 10:13:20.74	60.02	18.64	-25.0	-26.1	17.6	0.00e+00	0	43	0	1107296256	10	4096
2026-01-16 10:13:21.74	59.79	18.68	-24.9	-25.9	17.7	0.00e+00	0	43	0	1113587712	10	4033
2026-01-16 10:13:22.74	59.56	18.72	-24.8	-25.7	17.8	0.00e+00	0	43	0	1118830592	10	3993
2026-01-16 10:13:23.74	59.34	18.76	-24.8	-25.8	17.7	0.00e+00	0	43	0	1125122048	10	4014
2026-01-16 10:13:24.74	59.11	18.80	-24.7	-25.4	17.9	0.00e+00	0	43	0	1130364928	10	3922
2026-01-16 10:13:25.74	58.88	18.84	-24.4	-24.9	18.2	0.00e+00	0	43	0	1135607808	10	3810
2026-01-16 10:13:26.75	58.65	18.88	-24.5	-25.0	18.2	0.00e+00	0	43	0	1141899264	10	3823
2026-01-16 10:13:27.75	58.42	18.92	-24.4	-24.9	18.2	0.00e+00	0	43	0	1147142144	10	3816
2026-01-16 10:13:28.76	58.18	18.95	-24.5	-25.1	18.1	0.00e+00	0	43	0	1152385024	10	3848
2026-01-16 10:13:29.76	57.95	18.99	-24.4	-24.9	18.2	0.00e+00	0	43	0	1158676480	10	3798
2026-01-16 10:13:30.77	57.72	19.03	-24.2	-25.0	18.4	0.00e+00	0	43	0	1163919360	9	3929
2026-01-16 10:13:31.77	57.49	19.06	-24.2	-24.9	18.5	0.00e+00	0	43	0	1170210816	9	3904
2026-01-16 10:13:32.77	57.25	19.10	-24.1	-24.7	18.5	0.00e+00	0	43	0	1175453696	9	3870
2026-01-16 10:13:33.77	57.02	19.14	-24.1	-24.8	18.5	0.00e+00	0	43	0	1180696576	9	3887
2026-01-16 10:13:34.77	56.79	19.17	-24.3	-25.2	18.3	0.00e+00	0	43	0	1186988032	9	3982
2026-01-16 10:13:35.77	56.55	19.21	-24.3	-25.1	18.3	0.00e+00	0	43	0	1192230912	9	3969
2026-01-16 10:13:36.77	56.32	19.24	-24.2	-25.0	18.4	0.00e+00	0	43	0	1198522368	9	3940
2026-01-16 10:13:37.77	56.08	19.27	-24.3	-25.2	18.3	0.00e+00	0	43	0	1203765248	9	3978
2026-01-16 10:13:38.77	55.85	19.31	-24.2	-24.9	18.4	0.00e+00	0	42	0	1209008128	9	3920
2026-01-16 10:13:39.77	55.61	19.34	-24.2	-24.9	18.5	0.00e+00	0	43	0	1215299584	9	3914
2026-01-16 10:13:40.77	55.37	19.37	-24.3	-25.2	18.3	0.00e+00	0	43	0	1220542464	9	3973
2026-01-16 10:13:41.77	55.13	19.40	-24.2	-25.0	18.4	0.00e+00	0	43	0	1225785344	9	3931
2026-01-16 10:13:42.77	54.90	19.43	-24.2	-24.8	18.5	0.00e+00	0	43	0	1232076800	9	3896
2026-01-16 10:13:43.78	54.66	19.47	-24.1	-24.7	18.5	0.00e+00	0	43	0	1237319680	9	3872
2026-01-16 10:13:44.77	54.42	19.50	-24.1	-24.8	18.5	0.00e+00	0	43	0	1242562560	9	3876
2026-01-16 10:13:45.77	54.18	19.53	-24.3	-25.1	18.4	0.00e+00	0	43	0	1248854016	9	3965
2026-01-16 10:13:46.78	53.94	19.56	-24.4	-25.3	18.3	0.00e+00	0	43	0	1254096896	9	4015
2026-01-16 10:13:47.78	53.70	19.58	-24.3	-25.1	18.4	0.00e+00	0	43	0	1260388352	9	3967
2026-01-16 10:13:48.78	53.46	19.61	-24.2	-24.9	18.5	0.00e+00	0	43	0	1265631232	9	3909
2026-01-16 10:13:49.78	53.22	19.64	-24.2	-25.0	18.4	0.00e+00	0	43	0	1270874112	9	3943
2026-01-16 10:13:50.79	52.97	19.67	-24.2	-24.9	18.5	0.00e+00	0	43	0	1277165568	9	3912
2026-01-16 10:13:51.79	52.73	19.70	-24.1	-24.7	18.6	0.00e+00	0	43	0	1282408448	9	3864
2026-01-16 10:13:52.80	52.48	19.72	-24.2	-24.9	18.5	0.00e+00	0	43	0	1287651328	9	3910
2026-01-16 10:13:53.80	52.24	19.75	-24.3	-25.2	18.4	0.00e+00	0	43	0	1293942784	9	3972
2026-01-16 10:13:54.80	52.00	19.77	-24.5	-25.5	18.2	0.00e+00	0	43	0	1299185664	9	4064
2026-01-16 10:13:55.80	51.75	19.80	-24.4	-25.3	18.3	0.00e+00	0	43	0	1305477120	9	4015
2026-01-16 10:13:56.80	51.51	19.82	-24.3	-25.1	18.4	0.00e+00	0	43	0	1310720000	9	3958
2026-01-16 10:13:57.80	51.26	19.85	-24.3	-25.1	18.4	0.00e+00	0	43	0	1315962880	9	3946
2026-01-16 10:13:58.81	51.02	19.87	-24.1	-24.8	18.5	0.00e+00	0	43	0	1322254336	9	3881
2026-01-16 10:13:59.81	50.77	19.89	-24.2	-24.9	18.5	0.00e+00	0	43	0	1327497216	9	3917
2026-01-16 10:14:00.81	50.53	19.91	-24.1	-24.7	18.6	0.00e+00	0	43	0	1332740096	9	3869
2026-01-16 10:14:01.82	50.28	19.94	-24.1	-24.7	18.6	0.00e+00	0	43	0	1339031552	9	3852
2026-01-16 10:14:02.82	50.03	19.96	-24.1	-24.8	18.6	0.00e+00	0	43	0	1344274432	9	3875
2026-01-16 10:14:03.81	49.79	19.98	-24.1	-24.7	18.6	0.00e+00	0	43	0	1349517312	9	3852
2026-01-16 10:14:04.81	49.54	20.00	-24.1	-24.7	18.6	0.00e+00	0	43	0	1355808768	9	3869
2026-01-16 10:14:05.82	49.29	20.02	-24.2	-25.0	18.4	0.00e+00	0	43	0	1361051648	9	3940
2026-01-16 10:14:06.82	49.04	20.04	-24.2	-24.9	18.5	0.00e+00	0	43	0	1367343104	9	3920
2026-01-16 10:14:07.82	48.79	20.05	-24.2	-24.9	18.5	0.00e+00	0	43	0	1372585984	9	3907
2026-01-16 10:14:08.83	48.54	20.07	-24.1	-24.6	18.6	0.00e+00	0	43	0	1378877440	9	3852
2026-01-16 10:14:09.83	48.30	20.09	-24.0	-24.5	18.7	0.00e+00	0	43	0	1384120320	9	3818
2026-01-16 10:14:10.82	48.05	20.11	-24.1	-24.8	18.6	0.00e+00	0	43	0	1389363200	9	3877
2026-01-16 10:14:11.82	47.80	20.12	-24.0	-24.5	18.7	0.00e+00	0	43	0	1395654656	9	3824
2026-01-16 10:14:12.82	47.55	20.14	-24.1	-24.8	18.6	0.00e+00	0	43	0	1400897536	9	3885
2026-01-16 10:14:13.81	47.30	20.15	-24.0	-24.6	18.7	0.00e+00	0	43	0	1406140416	9	3827
2026-01-16 10:14:14.82	47.05	20.17	-24.0	-24.5	18.7	0.00e+00	0	43	0	1412431872	9	3810
2026-01-16 10:14:15.82	46.80	20.18	-24.1	-24.6	18.7	0.00e+00	0	43	0	1417674752	9	3844
2026-01-16 10:14:16.83	46.55	20.20	-24.1	-24.7	18.6	0.00e+00	0	43	0	1422917632	9	3872
2026-01-16 10:14:17.83	46.30	20.21	-24.2	-24.9	18.5	0.00e+00	0	43	0	1429209088	9	3906
2026-01-16 10:14:18.83	46.05	20.22	-24.3	-25.2	18.4	0.00e+00	0	43	0	1434451968	9	3973
2026-01-16 10:14:19.83	45.80	20.23	-24.2	-24.9	18.5	0.00e+00	0	43	0	1440743424	9	3918
2026-01-16 10:14:20.83	45.55	20.24	-24.1	-24.8	18.6	0.00e+00	0	43	0	1445986304	9	3880
2026-01-16 10:14:21.83	45.29	20.25	-24.3	-25.1	18.4	0.00e+00	0	43	0	1451229184	9	3952
2026-01-16 10:14:22.83	45.04	20.26	-24.3	-25.1	18.4	0.00e+00	0	43	0	1457520640	9	3970
2026-01-16 10:14:23.84	44.79	20.27	-24.3	-25.2	18.4	0.00e+00	0	43	0	1462763520	9	3989
2026-01-16 10:14:24.84	44.54	20.28	-24.3	-25.2	18.4	0.00e+00	0	43	0	1468006400	9	3978
2026-01-16 10:14:25.83	44.29	20.29	-24.2	-24.9	18.5	0.00e+00	0	43	0	1474297856	9	3917
2026-01-16 10:14:26.84	44.03	20.30	-24.2	-25.0	18.5	0.00e+00	0	43	0	1479540736	9	3936
2026-01-16 10:14:27.85	43.78	20.30	-24.1	-24.8	18.6	0.00e+00	0	43	0	1484783616	9	3891
2026-01-16 10:14:28.85	43.53	20.31	-24.0	-24.6	18.7	0.00e+00	0	43	0	1491075072	9	3828
2026-01-16 10:14:29.85	43.27	20.32	-24.1	-24.7	18.6	0.00e+00	0	43	0	1496317952	9	3866
2026-01-16 10:14:30.85	43.02	20.32	-24.0	-24.6	18.7	0.00e+00	0	43	0	1502609408	9	3834
2026-01-16 10:14:31.85	42.77	20.33	-24.2	-24.9	18.5	0.00e+00	0	43	0	1507852288	9	3914
2026-01-16 10:14:32.86	42.51	20.33	-24.0	-24.6	18.7	0.00e+00	0	43	0	1513095168	9	3831
2026-01-16 10:14:33.85	42.26	20.33	-24.0	-24.4	18.8	0.00e+00	0	43	0	1519386624	9	3796
2026-01-16 10:14:34.86	42.01	20.34	-24.0	-24.5	18.7	0.00e+00	0	43	0	1524629504	9	3809
2026-01-16 10:14:35.86	41.76	20.34	-24.0	-24.4	18.7	0.00e+00	0	43	0	1529872384	9	3802
2026-01-16 10:14:36.86	41.50	20.34	-24.0	-24.5	18.7	0.00e+00	0	43	0	1536163840	9	3820
2026-01-16 10:14:37.86	41.25	20.34	-23.9	-24.4	18.8	0.00e+00	0	43	0	1541406720	9	3788
2026-01-16 10:14:38.86	41.00	20.34	-23.9	-24.3	18.8	0.00e+00	0	43	0	1546649600	9	3775
2026-01-16 10:14:39.87	40.74	20.34	-24.1	-24.7	18.6	0.00e+00	0	43	0	1552941056	9	3871
2026-01-16 10:14:40.86	40.49	20.34	-24.0	-24.6	18.7	0.00e+00	0	43	0	1558183936	9	3845
2026-01-16 10:14:41.85	40.24	20.34	-24.0	-24.5	18.8	0.00e+00	0	43	0	1564475392	9	3813
2026-01-16 10:14:42.85	39.99	20.34	-24.0	-24.4	18.8	0.00e+00	0	43	0	1569718272	9	3799
2026-01-16 10:14:43.85	39.74	20.34	-24.1	-24.8	18.6	0.00e+00	0	43	0	1574961152	9	3885
2026-01-16 10:14:44.85	39.48	20.33	-24.0	-24.6	18.7	0.00e+00	0	43	0	1581252608	9	3827
2026-01-16 10:14:45.85	39.23	20.33	-24.1	-24.7	18.7	0.00e+00	0	43	0	1586495488	9	3851
2026-01-16 10:14:46.85	38.98	20.33	-24.2	-24.9	18.5	0.00e+00	0	43	0	1591738368	9	3910
2026-01-16 10:14:47.86	38.72	20.32	-24.3	-25.1	18.4	0.00e+00	0	43	0	1598029824	9	3951
2026-01-16 10:14:48.87	38.47	20.32	-24.3	-25.1	18.4	0.00e+00	0	43	0	1603272704	9	3952
2026-01-16 10:14:49.87	38.22	20.31	-24.3	-25.1	18.4	0.00e+00	0	43	0	1608515584	9	3968
2026-01-16 10:14:50.87	37.97	20.30	-24.4	-25.3	18.3	0.00e+00	0	43	0	1614807040	9	3999
2026-01-16 10:14:51.87	37.71	20.30	-24.5	-25.6	18.2	0.00e+00	0	43	0	1620049920	9	4071
2026-01-16 10:14:52.88	37.46	20.29	-24.3	-25.2	18.4	0.00e+00	0	43	0	1626341376	9	3980
2026-01-16 10:14:53.88	37.21	20.28	-24.2	-25.0	18.5	0.00e+00	0	43	0	1631584256	9	3926
2026-01-16 10:14:54.88	36.96	20.27	-24.2	-24.8	18.6	0.00e+00	0	43	0	1637875712	9	3888
2026-01-16 10:14:55.88	36.70	20.26	-24.2	-25.0	18.5	0.00e+00	0	43	0	1643118592	9	3930
2026-01-16 10:14:56.89	36.45	20.25	-24.2	-24.9	18.5	0.00e+00	0	43	0	1648361472	9	3906
2026-01-16 10:14:57.90	36.20	20.24	-24.5	-25.5	18.2	0.00e+00	0	43	0	1654652928	9	4059
2026-01-16 10:14:58.90	35.95	20.23	-24.3	-25.3	18.3	0.00e+00	0	43	0	1659895808	9	3997
2026-01-16 10:14:59.90	35.70	20.22	-24.2	-24.9	18.5	0.00e+00	0	43	0	1665138688	9	3921
2026-01-16 10:15:00.91	35.44	20.21	-24.2	-24.8	18.5	0.00e+00	0	43	0	1671430144	9	3892
2026-01-16 10:15:01.91	35.19	20.19	-24.1	-24.8	18.6	0.00e+00	0	43	0	1676673024	9	3889
2026-01-16 10:15:02.92	34.94	20.18	-24.2	-25.0	18.4	0.00e+00	0	43	0	1681915904	9	3936
2026-01-16 10:15:03.91	34.69	20.17	-24.0	-24.6	18.7	0.00e+00	0	43	0	1688207360	9	3829
2026-01-16 10:15:04.91	34.44	20.15	-23.9	-24.4	18.8	0.00e+00	0	43	0	1693450240	9	3785
2026-01-16 10:15:05.91	34.19	20.14	-24.0	-24.5	18.7	0.00e+00	0	43	0	1699741696	9	3824
2026-01-16 10:15:06.92	33.94	20.12	-23.9	-24.9	18.8	0.00e+00	0	43	0	1704984576	8	4011
2026-01-16 10:15:07.92	33.69	20.11	-24.1	-25.1	18.7	0.00e+00	0	43	0	1711276032	8	4070
2026-01-16 10:15:08.92	33.44	20.09	-24.0	-25.0	18.7	0.00e+00	0	43	0	1716518912	8	4050
2026-01-16 10:15:09.91	33.20	20.07	-24.1	-25.1	18.6	0.00e+00	0	43	0	1721761792	8	4078
2026-01-16 10:15:10.91	32.95	20.05	-23.9	-24.9	18.8	0.00e+00	0	43	0	1727004672	8	4010
2026-01-16 10:15:11.91	32.70	20.04	-23.9	-24.8	18.8	0.00e+00	0	43	0	1733296128	8	3986
2026-01-16 10:15:12.92	32.45	20.02	-23.9	-24.8	18.8	0.00e+00	0	43	0	1738539008	8	3996
2026-01-16 10:15:13.91	32.21	20.00	-24.0	-25.0	18.7	0.00e+00	0	43	0	1743781888	8	4035
2026-01-16 10:15:14.91	31.96	19.98	-24.0	-24.9	18.7	0.00e+00	0	43	0	1750073344	8	4021
2026-01-16 10:15:15.91	31.71	19.96	-23.9	-24.8	18.8	0.00e+00	0	43	0	1755316224	8	4002
2026-01-16 10:15:16.91	31.47	19.94	-24.0	-25.0	18.7	0.00e+00	0	43	0	1761607680	8	4034
2026-01-16 10:15:17.91	31.22	19.91	-23.9	-24.8	18.8	0.00e+00	0	43	0	1766850560	8	4001
2026-01-16 10:15:18.91	30.98	19.89	-24.1	-25.1	18.6	0.00e+00	0	43	0	1772093440	8	4075
2026-01-16 10:15:19.91	30.73	19.87	-24.0	-25.0	18.7	0.00e+00	0	43	0	1778384896	8	4034
2026-01-16 10:15:20.91	30.49	19.85	-24.0	-25.1	18.7	0.00e+00	0	43	0	1783627776	8	4064
2026-01-16 10:15:21.92	30.24	19.82	-24.1	-25.3	18.5	0.00e+00	0	43	0	1789919232	8	4122
2026-01-16 10:15:22.92	30.00	19.80	-24.2	-25.4	18.5	0.00e+00	0	43	0	1795162112	8	4150
2026-01-16 10:15:23.92	29.75	19.77	-24.1	-25.2	18.6	0.00e+00	0	43	0	1800404992	8	4087
2026-01-16 10:15:24.93	29.51	19.75	-24.0	-25.0	18.7	1.79e-04	0	43	0	1806696448	8	4037
2026-01-16 10:15:25.93	29.27	19.72	-24.0	-25.0	18.7	0.00e+00	0	43	0	1811939328	8	4040
2026-01-16 10:15:26.94	29.02	19.70	-24.1	-25.3	18.6	0.00e+00	0	43	0	1817182208	8	4107
2026-01-16 10:15:27.94	28.78	19.67	-24.0	-24.9	18.7	0.00e+00	0	43	0	1823473664	8	4020
2026-01-16 10:15:28.94	28.54	19.64	-23.9	-24.9	18.7	0.00e+00	0	43	0	1828716544	8	4008
2026-01-16 10:15:29.93	28.30	19.61	-23.9	-24.9	18.7	1.74e-04	0	43	0	1835008000	8	4011
2026-01-16 10:15:30.92	28.06	19.59	-23.9	-24.9	18.7	0.00e+00	0	43	0	1840250880	8	4015
2026-01-16 10:15:31.92	27.82	19.56	-24.2	-25.3	18.5	1.33e-04	0	43	0	1845493760	8	4123
2026-01-16 10:15:32.92	27.58	19.53	-24.0	-24.9	18.7	0.00e+00	0	43	0	1851785216	8	4022
2026-01-16 10:15:33.92	27.34	19.50	-24.0	-25.0	18.7	0.00e+00	0	43	0	1857028096	8	4027
2026-01-16 10:15:34.93	27.10	19.47	-24.1	-25.2	18.6	0.00e+00	0	43	0	1862270976	8	4090
2026-01-16 10:15:35.92	26.87	19.44	-24.3	-25.6	18.4	0.00e+00	0	43	0	1868562432	8	4181
2026-01-16 10:15:36.92	26.63	19.40	-24.4	-25.9	18.2	1.68e-04	0	43	0	1873805312	8	4261
2026-01-16 10:15:37.92	26.39	19.37	-24.3	-25.7	18.3	0.00e+00	0	43	0	1879048192	8	4226
2026-01-16 10:15:38.92	26.15	19.34	-24.3	-25.7	18.4	1.52e-04	0	43	0	1885339648	8	4210
2026-01-16 10:15:39.93	25.92	19.31	-24.4	-25.9	18.2	0.00e+00	0	43	0	1890582528	8	4257
2026-01-16 10:15:40.94	25.68	19.27	-24.6	-25.9	18.0	1.33e-04	0	43	0	1896873984	9	4144
2026-01-16 10:15:41.93	25.45	19.24	-24.4	-25.4	18.2	1.48e-04	0	43	0	1902116864	9	4021
2026-01-16 10:15:42.94	25.21	19.21	-24.3	-25.1	18.4	0.00e+00	0	43	0	1907359744	9	3951
2026-01-16 10:15:43.95	24.97	19.17	-24.1	-24.8	18.5	1.36e-04	0	43	0	1913651200	9	3876
2026-01-16 10:15:44.95	24.74	19.14	-24.0	-24.5	18.7	0.00e+00	0	43	0	1918894080	9	3826
2026-01-16 10:15:45.95	24.51	19.10	-24.1	-24.8	18.5	1.20e-04	0	43	0	1924136960	9	3873
2026-01-16 10:15:46.95	24.27	19.07	-24.1	-24.7	18.6	1.32e-04	0	43	0	1930428416	9	3857
2026-01-16 10:15:47.96	24.04	19.03	-24.2	-24.9	18.5	1.40e-04	0	43	0	1935671296	9	3912
2026-01-16 10:15:48.96	23.81	18.99	-24.2	-25.0	18.4	1.06e-04	0	43	0	1940914176	9	3939
2026-01-16 10:15:49.96	23.58	18.96	-24.4	-25.3	18.3	0.00e+00	0	43	0	1947205632	9	3998
2026-01-16 10:15:50.95	23.35	18.92	-24.3	-25.1	18.3	1.51e-04	0	43	0	1952448512	9	3967
2026-01-16 10:15:51.95	23.12	18.88	-24.4	-25.4	18.2	1.76e-04	0	43	0	1958739968	9	4037
2026-01-16 10:15:52.96	22.89	18.84	-24.4	-25.3	18.2	1.40e-04	0	43	0	1963982848	9	4018
2026-01-16 10:15:53.96	22.66	18.80	-24.3	-25.2	18.3	1.09e-04	0	43	0	1969225728	9	3988
2026-01-16 10:15:54.96	22.43	18.76	-24.3	-25.2	18.3	2.97e-05	0	43	0	1975517184	9	3988
2026-01-16 10:15:55.96	22.21	18.72	-24.5	-25.7	18.0	1.53e-04	0	43	0	1980760064	9	4100
2026-01-16 10:15:56.96	21.98	18.68	-24.4	-25.4	18.2	0.00e+00	0	43	0	1986002944	9	4037
2026-01-16 10:15:57.97	21.75	18.64	-24.3	-25.2	18.3	1.97e-04	0	43	0	1992294400	9	3982
2026-01-16 10:15:58.97	21.53	18.60	-24.3	-25.2	18.3	1.62e-04	0	43	0	1997537280	9	3988
2026-01-16 10:15:59.97	21.30	18.56	-24.4	-25.4	18.2	1.90e-04	0	43	0	2003828736	9	4041
2026-01-16 10:16:00.97	21.08	18.52	-24.6	-25.8	18.0	2.05e-04	0	43	0	2009071616	9	4119
2026-01-16 10:16:01.97	20.85	18.48	-24.6	-25.8	18.0	2.09e-04	0	43	0	2014314496	9	4141
2026-01-16 10:16:02.98	20.63	18.43	-24.7	-26.0	17.9	1.48e-04	0	43	0	2020605952	9	4177
2026-01-16 10:16:03.98	20.41	18.39	-24.5	-25.6	18.1	0.00e+00	0	43	0	2025848832	9	4085
2026-01-16 10:16:04.99	20.18	18.35	-24.4	-25.4	18.2	1.46e-04	0	43	0	2032140288	9	4028
2026-01-16 10:16:05.99	19.96	18.30	-24.5	-25.5	18.1	0.00e+00	0	43	0	2037383168	9	4062
2026-01-16 10:16:06.99	19.74	18.26	-24.5	-25.6	18.1	1.86e-04	0	43	0	2042626048	9	4077
2026-01-16 10:16:07.99	19.52	18.22	-24.6	-25.8	18.0	1.92e-04	0	43	0	2048917504	9	4129
2026-01-16 10:16:08.99	19.30	18.17	-24.6	-25.8	18.0	0.00e+00	0	43	0	2054160384	9	4134
2026-01-16 10:16:09.99	19.08	18.13	-24.6	-25.7	18.0	2.41e-04	0	43	0	2059403264	9	4112
2026-01-16 10:16:10.99	18.87	18.08	-24.7	-26.0	17.9	0.00e+00	0	43	0	2065694720	9	4178
2026-01-16 10:16:11.99	18.65	18.04	-24.6	-25.8	17.9	2.59e-04	0	43	0	2070937600	9	4139
2026-01-16 10:16:13.00	18.43	17.99	-24.7	-25.9	17.9	0.00e+00	0	43	0	2076180480	9	4152
2026-01-16 10:16:14.00	18.22	17.94	-24.8	-26.2	17.8	0.00e+00	0	43	0	2082471936	9	4226
2026-01-16 10:16:15.01	18.00	17.90	-25.0	-26.6	17.6	1.69e-04	0	43	0	2087714816	9	4326
2026-01-16 10:16:16.01	17.78	17.85	-24.9	-26.4	17.6	0.00e+00	0	43	0	2094006272	9	4283
2026-01-16 10:16:17.02	17.57	17.80	-24.9	-26.5	17.6	2.17e-04	0	43	0	2099249152	9	4313
2026-01-16 10:16:18.02	17.36	17.75	-25.0	-26.6	17.5	0.00e+00	0	43	0	2104492032	9	4333
2026-01-16 10:16:19.02	17.14	17.71	-25.0	-26.2	17.5	1.48e-04	0	43	0	2110783488	10	4118
2026-01-16 10:16:20.03	16.93	17.66	-25.2	-26.5	17.3	0.00e+00	0	43	0	2116026368	10	4209
2026-01-16 10:16:21.03	16.72	17.61	-25.0	-26.2	17.5	0.00e+00	0	43	0	2122317824	10	4111
2026-01-16 10:16:22.03	16.51	17.56	-25.3	-26.7	17.2	0.00e+00	0	43	0	2127560704	10	4254
2026-01-16 10:16:23.03	16.30	17.51	-24.9	-26.0	17.6	0.00e+00	0	43	0	2132803584	10	4062
2026-01-16 10:16:24.03	16.09	17.46	-24.8	-25.7	17.7	1.94e-04	0	43	0	2139095040	10	4004
2026-01-16 10:16:25.03	15.88	17.41	-24.8	-25.7	17.7	0.00e+00	0	43	0	2144337920	10	3997
2026-01-16 10:16:26.04	15.67	17.36	-25.0	-26.1	17.5	0.00e+00	0	43	0	2150629376	10	4089
2026-01-16 10:16:27.04	15.47	17.31	-24.9	-26.5	17.5	0.00e+00	0	43	0	2155872256	9	4310
2026-01-16 10:16:28.05	15.26	17.26	-25.1	-26.3	17.4	0.00e+00	0	43	0	2161115136	10	4146
2026-01-16 10:16:29.06	15.05	17.21	-25.0	-26.2	17.5	0.00e+00	0	43	0	2167406592	10	4128
2026-01-16 10:16:30.07	14.84	17.16	-25.0	-26.0	17.5	0.00e+00	0	43	0	2172649472	10	4074
2026-01-16 10:16:31.07	14.64	17.11	-24.9	-25.9	17.6	0.00e+00	0	43	0	2178940928	10	4050
2026-01-16 10:16:32.08	14.43	17.05	-25.0	-26.2	17.5	0.00e+00	0	43	0	2184183808	10	4105
2026-01-16 10:16:33.08	14.23	17.00	-24.9	-25.9	17.6	0.00e+00	0	43	0	2189426688	10	4034
2026-01-16 10:16:34.07	14.03	16.95	-24.9	-25.9	17.6	0.00e+00	0	43	0	2195718144	10	4049
2026-01-16 10:16:35.08	13.83	16.90	-25.0	-26.1	17.5	0.00e+00	0	43	0	2200961024	10	4107
2026-01-16 10:16:36.08	13.63	16.84	-25.1	-26.3	17.4	0.00e+00	0	43	0	2206203904	10	4140
2026-01-16 10:16:37.08	13.43	16.79	-25.0	-26.2	17.4	0.00e+00	0	43	0	2212495360	10	4120
2026-01-16 10:16:38.09	13.23	16.74	-25.2	-26.5	17.2	0.00e+00	0	43	0	2217738240	10	4210
2026-01-16 10:16:39.09	13.03	16.68	-25.0	-26.1	17.5	0.00e+00	0	43	0	2224029696	10	4095
2026-01-16 10:16:40.09	12.83	16.63	-25.0	-26.2	17.4	0.00e+00	0	43	0	2229272576	10	4128
2026-01-16 10:16:41.09	12.64	16.58	-25.1	-26.3	17.4	0.00e+00	0	43	0	2234515456	10	4151
2026-01-16 10:16:42.09	12.44	16.52	-25.1	-26.3	17.4	0.00e+00	0	43	0	2240806912	10	4134
2026-01-16 10:16:43.09	12.25	16.47	-25.2	-26.7	17.2	0.00e+00	0	43	0	2246049792	10	4241
2026-01-16 10:16:44.09	12.05	16.41	-25.1	-26.3	17.4	0.00e+00	0	43	0	2251292672	10	4150
2026-01-16 10:16:45.09	11.86	16.36	-25.0	-26.1	17.5	0.00e+00	0	43	0	2257584128	10	4094
2026-01-16 10:16:46.10	11.66	16.30	-25.0	-26.2	17.4	0.00e+00	0	43	0	2262827008	10	4134
2026-01-16 10:16:47.11	11.47	16.25	-25.1	-26.3	17.4	0.00e+00	0	43	0	2268069888	10	4156
2026-01-16 10:16:48.11	11.28	16.19	-25.2	-26.6	17.2	0.00e+00	0	43	0	2274361344	10	4228
2026-01-16 10:16:49.12	11.08	16.14	-25.3	-26.8	17.1	0.00e+00	0	43	0	2279604224	10	4292
2026-01-16 10:16:50.12	10.89	16.08	-25.2	-26.6	17.2	0.00e+00	0	43	0	2285895680	10	4211
2026-01-16 10:16:51.12	10.70	16.03	-25.1	-26.3	17.3	0.00e+00	0	43	0	2291138560	10	4142
2026-01-16 10:16:52.12	10.51	15.97	-25.1	-26.3	17.3	0.00e+00	0	43	0	2297430016	10	4132
2026-01-16 10:16:53.13	10.32	15.91	-25.0	-26.2	17.4	0.00e+00	0	43	0	2302672896	10	4111
2026-01-16 10:16:54.13	10.14	15.86	-25.1	-26.4	17.3	0.00e+00	0	43	0	2307915776	10	4168
2026-01-16 10:16:55.14	9.95	15.80	-25.3	-26.8	17.1	0.00e+00	0	43	0	2314207232	10	4267
2026-01-16 10:16:56.14	9.76	15.74	-25.3	-26.7	17.1	1.10e-06	0	43	0	2319450112	10	4258
2026-01-16 10:16:57.14	9.58	15.68	-25.3	-26.9	17.0	0.00e+00	0	43	0	2324692992	10	4297
2026-01-16 10:16:58.13	9.39	15.63	-25.1	-26.4	17.3	0.00e+00	0	43	0	2330984448	10	4170
2026-01-16 10:16:59.14	9.21	15.57	-25.1	-26.4	17.2	1.10e-06	0	43	0	2336227328	10	4181
2026-01-16 10:17:00.14	9.03	15.51	-25.2	-26.6	17.1	0.00e+00	0	43	0	2341470208	10	4232
2026-01-16 10:17:01.15	8.84	15.45	-25.1	-26.3	17.3	0.00e+00	0	43	0	2347761664	10	4149
2026-01-16 10:17:02.15	8.66	15.40	-25.3	-26.8	17.1	0.00e+00	0	43	0	2353004544	10	4269
2026-01-16 10:17:03.16	8.48	15.34	-25.3	-26.7	17.1	0.00e+00	0	43	0	2359296000	10	4254
2026-01-16 10:17:04.16	8.30	15.28	-25.5	-26.7	16.8	0.00e+00	0	43	0	2364538880	11	4149
2026-01-16 10:17:05.17	8.12	15.22	-25.3	-26.3	17.0	0.00e+00	0	43	0	2370830336	11	4046
2026-01-16 10:17:06.17	7.94	15.16	-25.2	-26.1	17.1	0.00e+00	0	43	0	2376073216	11	3997
2026-01-16 10:17:07.17	7.76	15.10	-25.2	-26.0	17.2	0.00e+00	0	43	0	2381316096	11	3958
2026-01-16 10:17:08.17	7.58	15.05	-25.1	-25.8	17.3	0.00e+00	0	43	0	2387607552	11	3911
2026-01-16 10:17:09.17	7.41	14.99	-24.9	-25.5	17.5	0.00e+00	0	43	0	2392850432	11	3838
2026-01-16 10:17:10.17	7.23	14.93	-25.1	-25.8	17.3	0.00e+00	0	43	0	2398093312	11	3902
2026-01-16 10:17:11.18	7.05	14.87	-25.1	-25.9	17.2	0.00e+00	0	43	0	2404384768	11	3939
2026-01-16 10:17:12.18	6.88	14.81	-25.3	-26.3	17.0	0.00e+00	0	43	0	2409627648	11	4038
2026-01-16 10:17:13.18	6.70	14.75	-25.4	-26.4	16.9	0.00e+00	0	43	0	2414870528	11	4074
2026-01-16 10:17:14.18	6.53	14.69	-25.5	-26.8	16.7	1.10e-06	0	43	0	2421161984	11	4158
2026-01-16 10:17:15.17	6.36	14.63	-25.5	-26.7	16.8	0.00e+00	0	43	0	2426404864	11	4149
2026-01-16 10:17:16.17	6.19	14.57	-25.5	-26.6	16.8	1.94e-05	0	43	0	2432696320	11	4125
2026-01-16 10:17:17.17	6.02	14.51	-25.5	-26.8	16.7	0.00e+00	0	43	0	2437939200	11	4173
2026-01-16 10:17:18.18	5.85	14.45	-25.7	-27.1	16.6	0.00e+00	0	43	0	2443182080	11	4255
2026-01-16 10:17:19.18	5.68	14.39	-25.5	-26.8	16.7	2.28e-05	0	43	0	2449473536	11	4175
2026-01-16 10:17:20.18	5.51	14.33	-25.6	-26.9	16.6	0.00e+00	0	43	0	2454716416	11	4196
2026-01-16 10:17:21.19	5.34	14.27	-25.5	-26.8	16.7	1.14e-05	0	43	0	2459959296	11	4181
2026-01-16 10:17:22.18	5.17	14.21	-25.5	-26.8	16.7	0.00e+00	0	43	0	2466250752	11	4180
2026-01-16 10:17:23.19	5.00	14.15	-25.6	-27.0	16.6	4.57e-05	0	43	0	2471493632	11	4209
2026-01-16 10:17:24.19	4.84	14.09	-25.5	-26.7	16.7	6.06e-05	0	43	0	2476736512	11	4134
2026-01-16 10:17:25.20	4.67	14.03	-25.4	-26.4	16.9	0.00e+00	0	43	0	2483027968	11	4076
2026-01-16 10:17:26.20	4.51	13.97	-25.4	-26.5	16.9	0.00e+00	0	43	0	2488270848	11	4097
2026-01-16 10:17:27.20	4.34	13.91	-25.5	-26.8	16.7	0.00e+00	0	43	0	2494562304	11	4164
2026-01-16 10:17:28.20	4.18	13.85	-25.6	-26.9	16.6	0.00e+00	0	43	0	2499805184	11	4192
2026-01-16 10:17:29.21	4.02	13.78	-25.6	-26.9	16.6	0.00e+00	0	43	0	2505048064	11	4196
2026-01-16 10:17:30.21	3.85	13.72	-25.6	-26.9	16.6	0.00e+00	0	43	0	2511339520	11	4187
2026-01-16 10:17:31.22	3.69	13.66	-25.8	-27.4	16.3	0.00e+00	0	43	0	2516582400	11	4328
2026-01-16 10:17:32.23	3.53	13.60	-25.7	-27.2	16.5	0.00e+00	0	43	0	2522873856	11	4261
2026-01-16 10:17:33.23	3.37	13.54	-25.8	-27.5	16.3	0.00e+00	0	43	0	2528116736	11	4343
2026-01-16 10:17:34.23	3.21	13.48	-25.6	-27.1	16.5	0.00e+00	0	43	0	2533359616	11	4236
2026-01-16 10:17:35.24	3.05	13.41	-25.8	-27.3	16.4	0.00e+00	0	43	0	2539651072	11	4303
2026-01-16 10:17:36.25	2.89	13.35	-25.8	-27.4	16.3	0.00e+00	0	43	0	2544893952	11	4341
2026-01-16 10:17:37.25	2.73	13.29	-25.9	-27.6	16.2	0.00e+00	0	43	0	2550136832	11	4386
2026-01-16 10:17:38.24	2.58	13.23	-26.0	-27.4	16.0	0.00e+00	0	43	0	2556428288	12	4219
2026-01-16 10:17:39.24	2.42	13.17	-26.1	-27.5	15.9	0.00e+00	0	43	0	2561671168	12	4247
2026-01-16 10:17:40.24	2.27	13.11	-25.8	-27.0	16.2	0.00e+00	0	43	0	2567962624	12	4109
2026-01-16 10:17:41.25	2.11	13.04	-25.8	-26.8	16.3	0.00e+00	0	43	0	2573205504	12	4075
2026-01-16 10:17:42.25	1.96	12.98	-25.7	-26.8	16.3	0.00e+00	0	43	0	2578448384	12	4055
2026-01-16 10:17:43.26	1.80	12.92	-25.8	-27.0	16.2	0.00e+00	0	43	0	2584739840	12	4114
2026-01-16 10:17:44.26	1.65	12.86	-25.9	-27.2	16.1	0.00e+00	0	43	0	2589982720	12	4156
2026-01-16 10:17:45.25	1.50	12.80	-26.1	-27.6	15.9	0.00e+00	0	43	0	2595225600	12	4263
2026-01-16 10:17:46.26	1.35	12.74	-26.0	-27.2	16.0	0.00e+00	0	43	0	2601517056	12	4180
2026-01-16 10:17:47.26	1.20	12.67	-25.9	-27.1	16.1	0.00e+00	0	43	0	2606759936	12	4144
2026-01-16 10:17:48.27	1.04	12.61	-25.7	-26.6	16.4	0.00e+00	0	43	0	2613051392	12	4020
2026-01-16 10:17:49.28	0.89	12.55	-25.7	-26.8	16.3	0.00e+00	0	43	0	2618294272	12	4056
2026-01-16 10:17:50.29	0.74	12.49	-25.7	-26.6	16.4	0.00e+00	0	43	0	2623537152	12	4020
2026-01-16 10:17:51.29	0.60	12.42	-25.7	-26.7	16.3	0.00e+00	0	43	0	2629828608	12	4039
2026-01-16 10:17:52.29	0.45	12.36	-25.9	-27.2	16.0	1.10e-06	0	43	0	2635071488	12	4164
2026-01-16 10:17:53.29	0.30	12.30	-25.9	-27.2	16.1	0.00e+00	0	43	0	2641362944	12	4157
2026-01-16 10:17:54.30	0.15	12.24	-26.1	-27.5	15.8	0.00e+00	0	43	0	2646605824	12	4259
2026-01-16 10:17:55.30	0.01	12.17	-26.0	-27.5	15.9	0.00e+00	0	43	0	2651848704	12	4248
2026-01-16 10:17:56.30	359.86	12.11	-26.2	-27.8	15.7	0.00e+00	0	43	0	2658140160	12	4344
2026-01-16 10:17:57.30	359.72	12.05	-26.2	-27.8	15.6	0.00e+00	0	43	0	2663383040	12	4346
2026-01-16 10:17:58.30	359.58	11.99	-26.3	-27.9	15.6	0.00e+00	0	43	0	2668625920	12	4370
2026-01-16 10:17:59.31	359.43	11.92	-26.1	-27.6	15.8	0.00e+00	0	43	0	2674917376	12	4273
2026-01-16 10:18:00.31	359.29	11.86	-26.2	-27.9	15.6	0.00e+00	0	43	0	2680160256	12	4361
2026-01-16 10:18:01.31	359.15	11.80	-26.2	-27.8	15.7	0.00e+00	0	43	0	2685403136	12	4335
2026-01-16 10:18:02.31	359.01	11.74	-26.3	-28.1	15.5	0.00e+00	0	43	0	2691694592	12	4415
2026-01-16 10:18:03.31	358.87	11.67	-26.1	-27.6	15.8	0.00e+00	0	43	0	2696937472	12	4270
2026-01-16 10:18:04.31	358.73	11.61	-26.2	-27.8	15.7	0.00e+00	0	43	0	2703228928	12	4322
2026-01-16 10:18:05.31	358.59	11.55	-26.2	-27.9	15.6	0.00e+00	0	43	0	2708471808	12	4356
2026-01-16 10:18:06.31	358.45	11.49	-26.1	-27.6	15.8	0.00e+00	0	43	0	2713714688	12	4272
2026-01-16 10:18:07.31	358.31	11.43	-26.1	-27.6	15.8	2.05e-05	0	43	0	2720006144	12	4277
2026-01-16 10:18:08.32	358.17	11.36	-26.3	-28.0	15.6	0.00e+00	0	43	0	2725249024	12	4381
2026-01-16 10:18:09.32	358.03	11.30	-26.1	-27.5	15.8	0.00e+00	0	43	0	2731540480	12	4256
2026-01-16 10:18:10.32	357.90	11.24	-26.2	-27.9	15.6	0.00e+00	0	43	0	2736783360	12	4364
2026-01-16 10:18:11.33	357.76	11.17	-26.3	-28.1	15.5	0.00e+00	0	43	0	2742026240	12	4419
2026-01-16 10:18:12.32	357.63	11.11	-26.4	-28.3	15.3	0.00e+00	0	43	0	2748317696	12	4481
2026-01-16 10:18:13.33	357.49	11.05	-26.5	-28.4	15.3	0.00e+00	0	43	0	2753560576	12	4494
2026-01-16 10:18:14.33	357.36	10.99	-26.7	-28.4	15.0	1.59e-04	0	43	0	2758803456	13	4398
2026-01-16 10:18:15.33	357.22	10.92	-26.7	-28.3	15.0	1.10e-06	0	43	0	2765094912	13	4367
2026-01-16 10:18:16.33	357.09	10.86	-26.5	-28.0	15.2	0.00e+00	0	43	0	2770337792	13	4281
2026-01-16 10:18:17.34	356.96	10.80	-26.6	-28.2	15.1	0.00e+00	0	43	0	2776629248	13	4344
2026-01-16 10:18:18.33	356.83	10.74	-26.6	-28.3	15.1	1.10e-06	0	43	0	2781872128	13	4358
2026-01-16 10:18:19.34	356.70	10.67	-26.6	-28.2	15.1	0.00e+00	0	43	0	2787115008	13	4324
2026-01-16 10:18:20.34	356.56	10.61	-26.6	-28.2	15.1	1.10e-06	0	43	0	2793406464	13	4341
2026-01-16 10:18:21.35	356.43	10.55	-26.8	-28.8	14.8	0.00e+00	0	43	0	2798649344	13	4496
2026-01-16 10:18:22.34	356.31	10.49	-26.9	-28.4	14.7	2.72e-04	0	43	0	2803892224	14	4291
2026-01-16 10:18:23.34	356.18	10.43	-26.8	-28.1	14.9	0.00e+00	0	43	0	2810183680	14	4202
2026-01-16 10:18:24.35	356.05	10.36	-26.7	-27.8	15.0	0.00e+00	0	43	0	2815426560	14	4124
2026-01-16 10:18:25.35	355.92	10.30	-26.2	-27.4	15.5	0.00e+00	0	43	0	2820669440	13	4120
2026-01-16 10:18:26.35	355.79	10.24	-26.4	-27.9	15.2	1.05e-04	0	43	0	2826960896	13	4237
2026-01-16 10:18:27.36	355.67	10.18	-26.4	-27.7	15.3	0.00e+00	0	43	0	2832203776	13	4209
2026-01-16 10:18:28.36	355.54	10.11	-26.6	-28.1	15.1	0.00e+00	0	43	0	2838495232	13	4318
2026-01-16 10:18:29.37	355.41	10.05	-26.3	-27.6	15.3	0.00e+00	0	43	0	2843738112	13	4174
2026-01-16 10:18:30.37	355.29	9.99	-26.7	-28.5	14.9	0.00e+00	0	43	0	2848980992	13	4413
2026-01-16 10:18:31.37	355.16	9.93	-26.7	-28.5	14.8	0.00e+00	0	43	0	2855272448	13	4423
2026-01-16 10:18:32.37	355.04	9.86	-26.7	-28.6	14.8	0.00e+00	0	43	0	2860515328	13	4432
2026-01-16 10:18:33.37	354.92	9.80	-26.7	-28.4	14.9	1.10e-06	0	43	0	2865758208	13	4389
2026-01-16 10:18:34.37	354.79	9.74	-26.7	-28.4	14.9	0.00e+00	0	43	0	2872049664	13	4403
2026-01-16 10:18:35.37	354.67	9.68	-26.7	-28.4	14.9	1.10e-06	0	43	0	2877292544	13	4385
2026-01-16 10:18:36.38	354.55	9.62	-26.8	-28.7	14.8	0.00e+00	0	43	0	2883584000	13	4469
2026-01-16 10:18:37.38	354.43	9.55	-26.9	-29.0	14.3	5.98e-04	0	43	0	2888826880	13	4578
2026-01-16 10:18:38.38	354.31	9.49	-26.9	-28.9	14.6	0.00e+00	0	43	0	2894069760	13	4541
2026-01-16 10:18:39.38	354.19	9.43	-27.2	-29.0	14.3	0.00e+00	0	43	0	2900361216	14	4452
2026-01-16 10:18:40.37	354.07	9.37	-27.3	-28.8	14.1	4.50e-06	0	43	0	2905604096	15	4289
2026-01-16 10:18:41.37	353.95	9.31	-27.1	-28.3	14.4	8.16e-04	0	43	0	2911895552	15	4144
2026-01-16 10:18:42.37	353.83	9.24	-26.9	-27.9	14.6	0.00e+00	0	43	0	2917138432	15	4045
2026-01-16 10:18:43.37	353.71	9.18	-26.8	-28.2	14.7	0.00e+00	0	43	0	2922381312	14	4216
2026-01-16 10:18:44.37	353.60	9.12	-26.8	-28.3	14.7	1.10e-06	0	43	0	2928672768	14	4251
2026-01-16 10:18:45.37	353.48	9.06	-26.9	-28.4	14.6	3.40e-06	0	43	0	2933915648	14	4270
2026-01-16 10:18:46.37	353.36	9.00	-27.1	-28.9	14.3	2.20e-06	0	43	0	2939158528	14	4416
2026-01-16 10:18:47.37	353.25	8.94	-26.8	-28.2	14.7	0.00e+00	0	43	0	2944401408	14	4236
2026-01-16 10:18:48.37	353.13	8.87	-26.9	-28.5	14.5	0.00e+00	0	43	0	2950692864	14	4320
2026-01-16 10:18:49.38	353.02	8.81	-26.9	-28.5	14.6	4.50e-06	0	43	0	2955935744	14	4300
2026-01-16 10:18:50.38	352.90	8.75	-26.7	-28.0	14.8	0.00e+00	0	43	0	2962227200	14	4185
2026-01-16 10:18:51.39	352.79	8.69	-26.9	-28.3	14.6	1.10e-06	0	43	0	2967470080	14	4258
2026-01-16 10:18:52.38	352.67	8.63	-27.0	-28.7	14.5	4.00e-04	0	43	0	2973761536	14	4351
2026-01-16 10:18:53.38	352.56	8.57	-26.9	-28.4	14.6	0.00e+00	0	43	0	2979004416	14	4272
2026-01-16 10:18:54.38	352.45	8.51	-27.1	-28.9	14.2	3.40e-06	0	43	0	2984247296	14	4431
2026-01-16 10:18:55.38	352.34	8.44	-27.1	-28.9	14.2	0.00e+00	0	43	0	2990538752	14	4435
2026-01-16 10:18:56.38	352.23	8.38	-27.2	-29.0	14.2	1.60e-05	0	43	0	2995781632	14	4469
2026-01-16 10:18:57.38	352.11	8.32	-27.3	-29.4	14.0	2.20e-06	0	43	0	3001024512	14	4569
2026-01-16 10:18:58.38	352.00	8.26	-27.0	-28.7	14.3	3.40e-06	0	43	0	3007315968	14	4370
2026-01-16 10:18:59.39	351.89	8.20	-27.2	-29.1	14.1	3.40e-06	0	43	0	3012558848	14	4500
2026-01-16 10:19:00.39	351.78	8.14	-27.5	-29.2	13.8	1.60e-05	0	43	0	3017801728	15	4407
2026-01-16 10:19:01.40	351.67	8.08	-27.1	-28.5	14.2	1.14e-05	0	43	0	3024093184	15	4191
2026-01-16 10:19:02.40	351.56	8.02	-27.3	-28.8	14.0	4.50e-06	0	43	0	3029336064	15	4280
2026-01-16 10:19:03.40	351.46	7.95	-27.1	-28.5	14.2	1.02e-05	0	43	0	3035627520	15	4199
2026-01-16 10:19:04.40	351.35	7.89	-27.4	-29.1	13.8	8.00e-06	0	43	0	3040870400	15	4377
2026-01-16 10:19:05.41	351.24	7.83	-27.3	-28.8	13.9	1.25e-05	0	43	0	3046113280	15	4304
2026-01-16 10:19:06.41	351.13	7.77	-27.3	-28.8	13.9	5.70e-06	0	43	0	3052404736	15	4294
2026-01-16 10:19:07.41	351.03	7.71	-27.3	-29.0	13.8	8.00e-06	0	43	0	3057647616	15	4350
2026-01-16 10:19:08.41	350.92	7.65	-27.4	-29.0	13.8	9.10e-06	0	43	0	3062890496	15	4364
2026-01-16 10:19:09.41	350.82	7.59	-27.3	-28.8	13.9	9.10e-06	0	43	0	3069181952	15	4300
2026-01-16 10:19:10.41	350.71	7.53	-27.2	-28.6	14.1	1.02e-05	0	43	0	3074424832	15	4246
2026-01-16 10:19:11.42	350.61	7.47	-27.2	-28.7	13.9	1.14e-05	0	43	0	3080716288	15	4278
2026-01-16 10:19:12.42	350.50	7.41	-27.3	-28.8	13.9	4.00e-05	0	43	0	3085959168	15	4281
2026-01-16 10:19:13.42	350.40	7.35	-27.1	-28.5	14.0	1.48e-05	0	43	0	3091202048	15	4211
2026-01-16 10:19:14.43	350.29	7.29	-27.1	-28.5	14.0	5.95e-05	0	43	0	3097493504	15	4223
2026-01-16 10:19:15.43	350.19	7.23	-27.1	-28.4	14.1	1.60e-05	0	43	0	3102736384	15	4182
2026-01-16 10:19:16.44	350.09	7.16	-27.2	-28.7	13.9	6.29e-05	0	43	0	3109027840	15	4265
2026-01-16 10:19:17.43	349.99	7.10	-27.1	-28.5	14.0	2.86e-05	0	43	0	3114270720	15	4211
2026-01-16 10:19:18.43	349.89	7.04	-30.4	-34.2	9.3	2.40e-05	0	43	0	3119513600	20	5619
2026-01-16 10:19:19.43	349.79	6.98	-33.2	-43.9	3.8	8.45e-01	0	43	104	3120562176	26	12279
2026-01-16 10:19:20.43	349.69	6.92	-33.6	-44.7	3.8	8.45e-01	0	43	104	3120562176	27	12961
2026-01-16 10:19:21.43	349.59	6.86	-33.8	-45.1	3.8	8.45e-01	0	43	104	3120562176	27	13278

#Closed at: 2026-01-16 10:19:21
#Recorded file [3120 MB]: D:/data/31010_260116_131003.dat