passes_logs/2026/01/16/R2M6_AANII_01/R2M6_AANII_01__20260116_020715_NOAA_21_JPSS-2_rec.log

#Pass ID: 20260116_020715_NOAA 21 (JPSS-2)
#Satellite: NOAA 21 (JPSS-2)
#Configuration: NOAA 21
#almurnet v.1.7.20240730
#Start time: 2026-01-16 02:07:18

#Version: 2.2.20231116
#Station: R2M6_AANII_01
#Location: 30.233357 lon 59.946436 lat
#TLE: 1 54234U 22150A   26015.43562254  .00000028  00000+0  34201-4 0  9996
#TLE: 2 54234  98.7498 316.3301 0000635 288.4972  71.6135 14.19534768164873

#Time	Az	El	Level	Level2	SNR	BER	BlckErr	Temp	State	Recorded	gain1	gain2
2026-01-16 02:07:18.80	10.54	7.22	-33.5	-44.7	3.8	8.45e-01	0	44	0	0	27	13013
2026-01-16 02:07:19.79	10.45	7.28	-33.9	-45.2	3.8	1.49e+00	0	44	104	0	29	13308
2026-01-16 02:07:20.80	10.37	7.35	-34.0	-45.4	3.8	1.49e+00	0	44	104	0	29	13418
2026-01-16 02:07:21.80	10.28	7.42	-34.1	-45.6	3.8	1.49e+00	0	44	104	0	29	13495
2026-01-16 02:07:22.80	10.19	7.48	-34.1	-45.5	3.8	1.49e+00	0	44	104	0	29	13468
2026-01-16 02:07:23.80	10.11	7.55	-34.1	-45.5	3.8	1.49e+00	0	44	104	0	29	13466
2026-01-16 02:07:24.81	10.02	7.62	-34.1	-45.7	3.8	1.49e+00	0	44	104	0	29	13570
2026-01-16 02:07:25.81	9.93	7.68	-34.2	-45.7	3.8	1.49e+00	0	44	104	0	29	13524
2026-01-16 02:07:26.81	9.84	7.75	-34.2	-45.7	3.8	1.49e+00	0	44	104	0	29	13591
2026-01-16 02:07:27.81	9.75	7.82	-34.2	-45.7	3.8	1.49e+00	0	44	104	0	29	13578
2026-01-16 02:07:28.81	9.66	7.88	-34.2	-45.7	3.8	1.49e+00	0	44	104	0	29	13554
2026-01-16 02:07:29.82	9.57	7.95	-34.2	-45.7	3.8	1.49e+00	0	44	104	0	29	13586
2026-01-16 02:07:30.83	9.48	8.02	-34.2	-45.7	3.8	1.49e+00	0	44	104	0	29	13539
2026-01-16 02:07:31.83	9.39	8.09	-34.2	-45.7	3.8	1.49e+00	0	43	104	0	29	13580
2026-01-16 02:07:32.83	9.30	8.15	-34.2	-45.7	3.8	1.49e+00	0	44	104	0	29	13543
2026-01-16 02:07:33.83	9.21	8.22	-34.2	-45.7	3.8	1.49e+00	0	44	104	0	29	13565
2026-01-16 02:07:34.83	9.12	8.29	-34.2	-45.8	3.8	1.49e+00	0	44	104	0	29	13612
2026-01-16 02:07:35.83	9.03	8.36	-34.3	-45.9	3.8	1.49e+00	0	44	104	0	29	13700
2026-01-16 02:07:36.84	8.93	8.43	-34.3	-45.9	3.8	1.49e+00	0	44	104	0	29	13688
2026-01-16 02:07:37.84	8.84	8.49	-34.2	-45.8	3.8	1.49e+00	0	44	104	0	29	13707
2026-01-16 02:07:38.84	8.75	8.56	-34.3	-45.9	3.8	1.49e+00	0	44	104	0	29	13711
2026-01-16 02:07:39.84	8.65	8.63	-34.2	-45.8	3.8	1.49e+00	0	44	104	0	29	13672
2026-01-16 02:07:40.84	8.56	8.70	-34.2	-45.7	3.8	1.49e+00	0	44	104	0	29	13631
2026-01-16 02:07:41.84	8.46	8.77	-34.2	-45.8	3.8	1.49e+00	0	44	104	0	29	13617
2026-01-16 02:07:42.83	8.37	8.83	-34.2	-45.7	3.8	1.49e+00	0	44	104	0	29	13577
2026-01-16 02:07:43.83	8.27	8.90	-34.2	-46.2	3.8	1.49e+00	0	44	104	0	28	14359
2026-01-16 02:07:44.82	8.18	8.97	-34.2	-46.1	3.8	1.49e+00	0	44	104	0	28	14317
2026-01-16 02:07:45.82	8.08	9.04	-34.1	-46.1	3.8	1.49e+00	0	44	104	0	28	14264
2026-01-16 02:07:46.83	7.98	9.11	-34.1	-46.0	3.8	1.49e+00	0	44	104	0	28	14163
2026-01-16 02:07:47.82	7.88	9.18	-34.0	-45.9	3.8	1.49e+00	0	44	104	0	28	14084
2026-01-16 02:07:48.83	7.78	9.25	-33.9	-45.7	3.8	1.49e+00	0	44	104	0	28	13944
2026-01-16 02:07:49.83	7.68	9.31	-33.8	-45.5	3.8	1.49e+00	0	44	104	0	28	13781
2026-01-16 02:07:50.84	7.58	9.38	-33.8	-45.7	3.8	1.49e+00	0	44	104	0	27	14292
2026-01-16 02:07:51.83	7.49	9.45	-33.5	-45.0	3.8	1.49e+00	0	44	104	0	27	13465
2026-01-16 02:07:52.83	7.39	9.52	-33.4	-45.0	3.8	1.49e+00	0	44	104	0	27	13584
2026-01-16 02:07:53.83	7.28	9.59	-33.4	-45.5	3.8	1.49e+00	0	44	104	0	26	14379
2026-01-16 02:07:54.83	7.18	9.66	-33.4	-45.4	3.8	1.49e+00	0	44	104	0	26	14326
2026-01-16 02:07:55.84	7.08	9.73	-33.4	-45.4	3.8	1.49e+00	0	44	104	0	26	14294
2026-01-16 02:07:56.84	6.98	9.80	-33.4	-45.3	3.8	1.49e+00	0	44	104	0	26	14097
2026-01-16 02:07:57.84	6.88	9.87	-33.4	-45.1	3.8	1.49e+00	0	44	104	0	26	13820
2026-01-16 02:07:58.84	6.77	9.94	-33.4	-44.9	3.8	1.49e+00	0	44	104	0	26	13600
2026-01-16 02:07:59.84	6.67	10.01	-33.4	-44.9	3.8	1.49e+00	0	44	104	0	26	13528
2026-01-16 02:08:00.84	6.56	10.08	-33.4	-44.9	3.8	1.49e+00	0	44	104	0	26	13579
2026-01-16 02:08:01.84	6.46	10.15	-33.4	-45.1	3.8	1.49e+00	0	44	104	0	26	13866
2026-01-16 02:08:02.85	6.35	10.23	-33.4	-45.5	3.8	1.49e+00	0	44	104	0	26	14422
2026-01-16 02:08:03.85	6.25	10.30	-33.4	-45.7	3.8	1.49e+00	0	43	104	0	26	14710
2026-01-16 02:08:04.85	6.14	10.37	-33.4	-45.3	3.8	1.49e+00	0	43	104	0	26	14177
2026-01-16 02:08:05.84	6.03	10.44	-33.3	-44.0	3.8	1.49e+00	0	43	104	0	26	12400
2026-01-16 02:08:06.85	5.93	10.51	-33.0	-42.0	3.9	1.48e+00	0	44	104	0	26	10109
2026-01-16 02:08:07.84	5.82	10.58	-32.7	-39.3	5.1	8.39e-01	0	44	104	0	26	7693
2026-01-16 02:08:08.84	5.71	10.65	-32.2	-37.3	6.4	3.37e-01	0	43	0	2097152	25	6532
2026-01-16 02:08:09.84	5.60	10.72	-31.7	-36.0	7.6	1.18e-01	0	44	0	5242880	24	5934
2026-01-16 02:08:10.84	5.49	10.79	-31.3	-34.6	8.6	4.45e-02	0	43	0	8388608	24	5282
2026-01-16 02:08:11.84	5.38	10.86	-30.9	-33.9	9.4	1.75e-02	0	43	0	11534336	23	5099
2026-01-16 02:08:12.84	5.27	10.94	-30.7	-33.8	9.8	1.27e-02	0	44	0	14680064	22	5168
2026-01-16 02:08:13.84	5.16	11.01	-30.6	-33.4	10.2	7.15e-03	0	44	0	17825792	22	4999
2026-01-16 02:08:14.84	5.05	11.08	-30.4	-33.6	10.4	5.75e-03	0	44	0	20971520	21	5160
2026-01-16 02:08:15.84	4.93	11.15	-30.5	-33.8	10.3	5.61e-03	0	43	0	24117248	21	5236
2026-01-16 02:08:16.85	4.82	11.22	-30.6	-34.0	10.1	6.36e-03	0	43	0	27262976	21	5335
2026-01-16 02:08:17.85	4.71	11.30	-30.4	-33.6	10.4	4.43e-03	0	43	0	30408704	21	5154
2026-01-16 02:08:18.85	4.59	11.37	-30.5	-33.8	10.2	4.30e-03	0	44	0	33554432	21	5246
2026-01-16 02:08:19.85	4.48	11.44	-30.5	-33.7	10.3	5.09e-03	0	43	0	36700160	21	5189
2026-01-16 02:08:20.85	4.36	11.51	-30.8	-34.6	9.7	8.23e-03	0	44	0	39845888	21	5593
2026-01-16 02:08:21.85	4.25	11.58	-30.5	-33.7	10.3	6.66e-03	0	43	0	42991616	21	5221
2026-01-16 02:08:22.85	4.13	11.66	-30.0	-32.3	11.3	1.45e-03	0	43	0	46137344	21	4709
2026-01-16 02:08:23.86	4.01	11.73	-29.5	-31.4	12.1	3.17e-04	0	43	0	49283072	20	4512
2026-01-16 02:08:24.87	3.89	11.80	-28.9	-30.4	13.2	4.95e-05	0	43	0	52428800	19	4290
2026-01-16 02:08:25.87	3.77	11.88	-28.5	-29.9	13.8	4.50e-06	0	43	0	55574528	18	4237
2026-01-16 02:08:26.87	3.65	11.95	-28.1	-29.6	14.3	1.50e-06	0	43	0	58720256	17	4262
2026-01-16 02:08:27.87	3.53	12.02	-27.9	-29.0	14.6	0.00e+00	0	44	0	61865984	17	4110
2026-01-16 02:08:28.88	3.41	12.10	-27.9	-28.9	14.7	0.00e+00	0	43	0	65011712	17	4082
2026-01-16 02:08:29.88	3.29	12.17	-27.7	-29.2	14.9	0.00e+00	0	44	0	68157440	16	4244
2026-01-16 02:08:30.88	3.17	12.24	-27.9	-29.5	14.7	7.00e-07	0	43	0	71303168	16	4332
2026-01-16 02:08:31.88	3.05	12.32	-27.8	-29.3	14.8	0.00e+00	0	43	0	74448896	16	4282
2026-01-16 02:08:32.88	2.93	12.39	-27.8	-29.3	14.8	0.00e+00	0	43	0	77594624	16	4283
2026-01-16 02:08:33.88	2.80	12.46	-27.8	-29.3	14.8	0.00e+00	0	43	0	80740352	16	4268
2026-01-16 02:08:34.88	2.68	12.54	-27.8	-29.4	14.7	7.00e-07	0	43	0	83886080	16	4322
2026-01-16 02:08:35.88	2.55	12.61	-27.8	-29.4	14.7	0.00e+00	0	43	0	85983232	16	4310
2026-01-16 02:08:36.88	2.43	12.69	-27.8	-29.3	14.8	0.00e+00	0	43	0	89128960	16	4286
2026-01-16 02:08:37.88	2.30	12.76	-28.0	-29.8	14.5	7.00e-07	0	43	0	92274688	16	4426
2026-01-16 02:08:38.88	2.18	12.83	-27.8	-29.4	14.8	7.00e-07	0	43	0	95420416	16	4308
2026-01-16 02:08:39.88	2.05	12.91	-27.8	-29.2	14.9	0.00e+00	0	43	0	98566144	16	4264
2026-01-16 02:08:40.88	1.92	12.98	-27.9	-29.5	14.8	3.00e-06	0	43	0	101711872	16	4325
2026-01-16 02:08:41.87	1.79	13.06	-27.8	-29.4	14.8	6.10e-06	0	43	0	104857600	16	4305
2026-01-16 02:08:42.88	1.66	13.13	-27.9	-29.5	14.7	0.00e+00	0	44	0	108003328	16	4340
2026-01-16 02:08:43.88	1.53	13.20	-27.8	-29.3	14.8	0.00e+00	0	43	0	111149056	16	4272
2026-01-16 02:08:44.88	1.40	13.28	-27.9	-29.6	14.7	0.00e+00	0	43	0	114294784	16	4352
2026-01-16 02:08:45.88	1.27	13.35	-27.8	-29.4	14.8	0.00e+00	0	43	0	117440512	16	4306
2026-01-16 02:08:46.89	1.14	13.43	-27.7	-29.1	15.0	1.33e-04	0	43	0	120586240	16	4227
2026-01-16 02:08:47.89	1.01	13.50	-27.7	-29.1	15.0	0.00e+00	0	43	0	123731968	16	4237
2026-01-16 02:08:48.90	0.87	13.58	-27.8	-29.4	14.8	0.00e+00	0	43	0	126877696	16	4306
2026-01-16 02:08:49.90	0.74	13.65	-27.8	-29.4	14.8	0.00e+00	0	43	0	130023424	16	4294
2026-01-16 02:08:50.90	0.60	13.73	-27.8	-29.2	14.9	7.00e-07	0	43	0	133169152	16	4264
2026-01-16 02:08:51.90	0.47	13.80	-27.8	-29.4	14.8	2.20e-06	0	43	0	136314880	16	4304
2026-01-16 02:08:52.90	0.33	13.88	-27.8	-29.9	14.7	0.00e+00	0	43	0	139460608	15	4568
2026-01-16 02:08:53.90	0.19	13.95	-27.7	-29.7	14.8	0.00e+00	0	43	0	142606336	15	4512
2026-01-16 02:08:54.91	0.05	14.03	-27.8	-29.9	14.7	0.00e+00	0	43	0	145752064	15	4562
2026-01-16 02:08:55.91	359.92	14.11	-27.7	-29.5	14.9	1.50e-06	0	43	0	148897792	15	4464
2026-01-16 02:08:56.92	359.78	14.18	-27.7	-29.6	14.8	0.00e+00	0	43	0	152043520	15	4485
2026-01-16 02:08:57.91	359.64	14.26	-27.7	-29.7	14.8	0.00e+00	0	43	0	155189248	15	4496
2026-01-16 02:08:58.91	359.50	14.33	-27.8	-29.7	14.7	0.00e+00	0	43	0	158334976	15	4524
2026-01-16 02:08:59.92	359.35	14.41	-27.8	-29.8	14.8	0.00e+00	0	43	0	161480704	15	4537
2026-01-16 02:09:00.92	359.21	14.48	-27.8	-29.7	14.8	0.00e+00	0	43	0	164626432	15	4525
2026-01-16 02:09:01.92	359.07	14.56	-27.9	-30.0	14.6	0.00e+00	0	43	0	167772160	15	4600
2026-01-16 02:09:02.92	358.93	14.64	-28.3	-30.4	14.3	0.00e+00	0	43	0	170917888	16	4593
2026-01-16 02:09:03.93	358.78	14.71	-28.2	-30.2	14.5	3.80e-06	0	43	0	174063616	16	4523
2026-01-16 02:09:04.93	358.64	14.79	-28.0	-29.7	14.7	0.00e+00	0	43	0	177209344	16	4391
2026-01-16 02:09:05.93	358.49	14.86	-28.0	-29.8	14.7	7.00e-07	0	43	0	180355072	16	4425
2026-01-16 02:09:06.92	358.35	14.94	-28.0	-29.6	14.8	0.00e+00	0	43	0	183500800	16	4371
2026-01-16 02:09:07.93	358.20	15.02	-28.0	-29.8	14.7	0.00e+00	0	43	0	186646528	16	4409
2026-01-16 02:09:08.92	358.05	15.09	-27.7	-29.7	14.9	0.00e+00	0	43	0	189792256	15	4489
2026-01-16 02:09:09.92	357.90	15.17	-27.8	-29.9	14.8	0.00e+00	0	44	0	192937984	15	4565
2026-01-16 02:09:10.92	357.75	15.24	-27.8	-29.8	14.8	0.00e+00	0	43	0	196083712	15	4531
2026-01-16 02:09:11.93	357.60	15.32	-27.7	-29.6	14.9	0.00e+00	0	44	0	199229440	15	4471
2026-01-16 02:09:12.93	357.45	15.40	-27.7	-29.5	15.0	0.00e+00	0	43	0	202375168	15	4441
2026-01-16 02:09:13.93	357.30	15.47	-27.7	-29.6	14.9	0.00e+00	0	43	0	205520896	15	4486
2026-01-16 02:09:14.94	357.14	15.55	-27.7	-29.7	14.9	7.00e-07	0	43	0	208666624	15	4498
2026-01-16 02:09:15.94	356.99	15.63	-27.9	-30.0	14.7	0.00e+00	0	43	0	211812352	15	4606
2026-01-16 02:09:16.94	356.84	15.70	-27.8	-29.9	14.7	7.00e-07	0	43	0	214958080	15	4572
2026-01-16 02:09:17.94	356.68	15.78	-28.0	-30.2	14.6	0.00e+00	0	43	0	218103808	15	4648
2026-01-16 02:09:18.94	356.52	15.85	-27.9	-30.0	14.7	7.00e-07	0	43	0	221249536	15	4599
2026-01-16 02:09:19.94	356.37	15.93	-27.9	-29.9	14.8	7.00e-07	0	43	0	224395264	15	4577
2026-01-16 02:09:20.95	356.21	16.01	-28.2	-30.1	14.6	7.00e-07	0	43	0	227540992	16	4506
2026-01-16 02:09:21.96	356.05	16.08	-28.0	-29.6	14.8	0.00e+00	0	43	0	230686720	16	4360
2026-01-16 02:09:22.95	355.89	16.16	-28.0	-29.8	14.7	7.00e-07	0	43	0	233832448	16	4418
2026-01-16 02:09:23.95	355.73	16.24	-28.2	-30.1	14.6	0.00e+00	0	43	0	236978176	16	4489
2026-01-16 02:09:24.94	355.57	16.31	-28.1	-30.0	14.6	0.00e+00	0	43	0	240123904	16	4465
2026-01-16 02:09:25.94	355.41	16.39	-28.1	-30.1	14.6	0.00e+00	0	43	0	243269632	16	4493
2026-01-16 02:09:26.93	355.25	16.46	-28.4	-30.7	14.2	7.00e-07	0	43	0	246415360	16	4682
2026-01-16 02:09:27.93	355.09	16.54	-28.3	-30.4	14.4	2.20e-06	0	43	0	249561088	16	4583
2026-01-16 02:09:28.92	354.92	16.62	-28.3	-30.5	14.3	0.00e+00	0	43	0	252706816	16	4610
2026-01-16 02:09:29.92	354.76	16.69	-28.2	-30.3	14.5	1.50e-06	0	43	0	255852544	16	4547
2026-01-16 02:09:30.91	354.59	16.77	-28.5	-30.9	14.1	7.00e-07	0	44	0	258998272	16	4733
2026-01-16 02:09:31.90	354.43	16.84	-28.3	-29.8	14.4	2.20e-06	0	44	0	261095424	17	4310
2026-01-16 02:09:32.90	354.26	16.92	-28.2	-30.1	14.6	0.00e+00	0	43	0	264241152	16	4516
2026-01-16 02:09:33.90	354.09	17.00	-28.2	-30.1	14.6	0.00e+00	0	44	0	267386880	16	4507
2026-01-16 02:09:34.89	353.93	17.07	-28.3	-30.4	14.4	0.00e+00	0	44	0	270532608	16	4577
2026-01-16 02:09:35.88	353.76	17.15	-28.5	-30.4	14.1	0.00e+00	0	44	0	273678336	17	4467
2026-01-16 02:09:36.88	353.59	17.22	-28.3	-30.0	14.3	7.00e-07	0	43	0	276824064	17	4348
2026-01-16 02:09:37.87	353.42	17.30	-28.3	-29.9	14.4	0.00e+00	0	44	0	279969792	17	4328
2026-01-16 02:09:38.86	353.24	17.38	-28.4	-30.6	14.3	0.00e+00	0	44	0	283115520	16	4641
2026-01-16 02:09:39.86	353.07	17.45	-28.2	-30.3	14.5	0.00e+00	0	44	0	286261248	16	4550
2026-01-16 02:09:40.85	352.90	17.53	-28.4	-30.5	14.4	0.00e+00	0	44	0	289406976	16	4630
2026-01-16 02:09:41.84	352.72	17.60	-28.2	-30.3	14.5	0.00e+00	0	44	0	292552704	16	4559
2026-01-16 02:09:42.84	352.55	17.68	-28.4	-30.7	14.2	0.00e+00	0	44	0	295698432	16	4687
2026-01-16 02:09:43.84	352.37	17.76	-28.3	-30.3	14.4	0.00e+00	0	44	0	298844160	16	4568
2026-01-16 02:09:44.83	352.19	17.83	-28.0	-29.7	14.9	7.00e-07	0	44	0	301989888	16	4372
2026-01-16 02:09:45.83	352.01	17.91	-27.9	-29.6	14.9	7.00e-07	0	44	0	305135616	16	4346
2026-01-16 02:09:46.82	351.84	17.98	-27.9	-29.6	15.0	0.00e+00	0	44	0	308281344	16	4340
2026-01-16 02:09:47.81	351.66	18.06	-27.6	-29.4	15.1	0.00e+00	0	44	0	311427072	15	4414
2026-01-16 02:09:48.81	351.48	18.13	-27.6	-29.3	15.2	0.00e+00	0	44	0	314572800	15	4376
2026-01-16 02:09:49.80	351.29	18.21	-27.5	-29.2	15.2	0.00e+00	0	44	0	317718528	15	4359
2026-01-16 02:09:50.79	351.11	18.28	-27.5	-29.1	15.3	0.00e+00	0	44	0	320864256	15	4342
2026-01-16 02:09:51.79	350.93	18.36	-27.5	-29.2	15.2	0.00e+00	0	44	0	324009984	15	4362
2026-01-16 02:09:52.79	350.74	18.43	-27.5	-29.1	15.3	7.00e-07	0	44	0	327155712	15	4314
2026-01-16 02:09:53.78	350.56	18.51	-27.4	-28.9	15.4	0.00e+00	0	44	0	330301440	15	4285
2026-01-16 02:09:54.78	350.37	18.58	-27.6	-29.3	15.2	0.00e+00	0	44	0	333447168	15	4375
2026-01-16 02:09:55.78	350.18	18.66	-27.4	-28.8	15.5	0.00e+00	0	44	0	336592896	15	4242
2026-01-16 02:09:56.78	349.99	18.73	-27.3	-28.7	15.5	0.00e+00	0	44	0	339738624	15	4216
2026-01-16 02:09:57.78	349.80	18.81	-27.5	-29.2	15.3	7.00e-07	0	44	0	342884352	15	4349
2026-01-16 02:09:58.78	349.61	18.88	-27.4	-28.9	15.5	0.00e+00	0	44	0	346030080	15	4271
2026-01-16 02:09:59.78	349.42	18.96	-27.3	-28.6	15.6	0.00e+00	0	44	0	349175808	15	4184
2026-01-16 02:10:00.79	349.22	19.03	-27.2	-28.4	15.7	0.00e+00	0	44	0	352321536	15	4145
2026-01-16 02:10:01.78	349.03	19.11	-27.3	-28.7	15.6	0.00e+00	0	44	0	355467264	15	4223
2026-01-16 02:10:02.78	348.84	19.18	-27.2	-28.5	15.7	0.00e+00	0	44	0	357564416	15	4163
2026-01-16 02:10:03.79	348.64	19.26	-27.2	-28.4	15.8	0.00e+00	0	44	0	360710144	15	4123
2026-01-16 02:10:04.79	348.44	19.33	-27.2	-28.5	15.7	0.00e+00	0	44	0	363855872	15	4162
2026-01-16 02:10:05.78	348.25	19.40	-27.3	-28.6	15.6	0.00e+00	0	44	0	367001600	15	4189
2026-01-16 02:10:06.79	348.04	19.48	-27.4	-28.8	15.5	0.00e+00	0	44	0	370147328	15	4234
2026-01-16 02:10:07.79	347.84	19.55	-27.5	-29.1	15.4	0.00e+00	0	44	0	373293056	15	4318
2026-01-16 02:10:08.79	347.64	19.63	-27.5	-29.2	15.3	0.00e+00	0	44	0	376438784	15	4353
2026-01-16 02:10:09.79	347.44	19.70	-27.3	-28.7	15.5	0.00e+00	0	44	0	379584512	15	4222
2026-01-16 02:10:10.80	347.24	19.77	-27.4	-28.9	15.5	0.00e+00	0	44	0	382730240	15	4268
2026-01-16 02:10:11.80	347.03	19.85	-27.4	-28.9	15.5	0.00e+00	0	44	0	385875968	15	4270
2026-01-16 02:10:12.80	346.83	19.92	-27.4	-28.9	15.5	0.00e+00	0	44	0	389021696	15	4275
2026-01-16 02:10:13.80	346.62	19.99	-27.5	-29.1	15.4	0.00e+00	0	44	0	392167424	15	4316
2026-01-16 02:10:14.80	346.41	20.07	-27.4	-28.8	15.5	0.00e+00	0	44	0	395313152	15	4258
2026-01-16 02:10:15.80	346.21	20.14	-27.4	-28.9	15.5	0.00e+00	0	44	0	398458880	15	4283
2026-01-16 02:10:16.81	346.00	20.21	-27.4	-28.8	15.5	0.00e+00	0	44	0	401604608	15	4245
2026-01-16 02:10:17.80	345.79	20.28	-27.3	-28.6	15.6	0.00e+00	0	44	0	404750336	15	4189
2026-01-16 02:10:18.80	345.58	20.35	-27.3	-28.7	15.6	0.00e+00	0	44	0	407896064	15	4225
2026-01-16 02:10:19.81	345.36	20.43	-27.2	-28.4	15.8	0.00e+00	0	44	0	411041792	15	4132
2026-01-16 02:10:20.81	345.15	20.50	-27.1	-28.1	15.9	0.00e+00	0	44	0	414187520	15	4058
2026-01-16 02:10:21.81	344.94	20.57	-27.1	-28.2	15.9	0.00e+00	0	44	0	417333248	15	4087
2026-01-16 02:10:22.81	344.72	20.64	-27.0	-27.9	16.0	0.00e+00	0	44	0	420478976	15	4004
2026-01-16 02:10:23.82	344.50	20.71	-26.9	-27.7	16.1	0.00e+00	0	44	0	423624704	15	3957
2026-01-16 02:10:24.82	344.29	20.78	-27.0	-28.0	16.0	0.00e+00	0	44	0	426770432	15	4040
2026-01-16 02:10:25.82	344.07	20.85	-27.0	-28.0	16.0	0.00e+00	0	44	0	429916160	15	4031
2026-01-16 02:10:26.82	343.85	20.92	-27.0	-28.0	16.0	0.00e+00	0	44	0	433061888	15	4039
2026-01-16 02:10:27.83	343.63	20.99	-27.1	-28.2	15.9	0.00e+00	0	44	0	436207616	15	4083
2026-01-16 02:10:28.82	343.41	21.06	-27.0	-28.0	16.0	0.00e+00	0	44	0	439353344	15	4023
2026-01-16 02:10:29.83	343.18	21.13	-27.0	-27.9	16.1	0.00e+00	0	44	0	442499072	15	3996
2026-01-16 02:10:30.83	342.96	21.20	-27.0	-28.0	16.0	0.00e+00	0	44	0	445644800	15	4037
2026-01-16 02:10:31.83	342.74	21.27	-27.0	-27.9	16.1	0.00e+00	0	44	0	448790528	15	3998
2026-01-16 02:10:32.84	342.51	21.34	-27.0	-27.9	16.1	0.00e+00	0	44	0	451936256	15	4012
2026-01-16 02:10:33.84	342.28	21.41	-27.1	-28.1	15.9	0.00e+00	0	44	0	455081984	15	4061
2026-01-16 02:10:34.84	342.06	21.47	-27.0	-28.1	16.0	0.00e+00	0	44	0	458227712	15	4045
2026-01-16 02:10:35.85	341.83	21.54	-27.1	-28.2	15.9	0.00e+00	0	44	0	461373440	15	4088
2026-01-16 02:10:36.85	341.60	21.61	-27.1	-28.2	15.9	0.00e+00	0	44	0	464519168	15	4082
2026-01-16 02:10:37.85	341.37	21.68	-27.1	-28.2	15.9	0.00e+00	0	44	0	467664896	15	4083
2026-01-16 02:10:38.85	341.14	21.74	-27.2	-28.3	15.9	0.00e+00	0	44	0	470810624	15	4105
2026-01-16 02:10:39.86	340.90	21.81	-27.3	-28.6	15.7	0.00e+00	0	44	0	473956352	15	4192
2026-01-16 02:10:40.86	340.67	21.87	-27.2	-28.4	15.8	0.00e+00	0	44	0	477102080	15	4126
2026-01-16 02:10:41.85	340.44	21.94	-27.1	-28.3	15.9	0.00e+00	0	44	0	480247808	15	4098
2026-01-16 02:10:42.85	340.20	22.00	-27.2	-28.4	15.8	4.50e-06	0	44	0	483393536	15	4130
2026-01-16 02:10:43.86	339.96	22.07	-27.1	-28.2	15.9	1.44e-05	0	44	0	486539264	15	4090
2026-01-16 02:10:44.86	339.73	22.13	-27.2	-28.5	15.8	0.00e+00	0	44	0	489684992	15	4151
2026-01-16 02:10:45.87	339.49	22.20	-27.2	-28.4	15.9	0.00e+00	0	44	0	492830720	15	4119
2026-01-16 02:10:46.88	339.24	22.26	-27.1	-28.2	15.9	1.98e-05	0	44	0	495976448	15	4087
2026-01-16 02:10:47.87	339.01	22.33	-27.2	-28.4	15.8	0.00e+00	0	44	0	499122176	15	4130
2026-01-16 02:10:48.87	338.77	22.39	-27.1	-28.3	15.9	1.22e-05	0	44	0	502267904	15	4104
2026-01-16 02:10:49.87	338.52	22.45	-27.2	-28.3	15.9	7.60e-06	0	44	0	505413632	15	4114
2026-01-16 02:10:50.87	338.28	22.51	-27.2	-28.3	15.9	0.00e+00	0	44	0	508559360	15	4110
2026-01-16 02:10:51.87	338.04	22.58	-27.1	-28.1	16.0	2.19e-04	0	44	0	511705088	15	4048
2026-01-16 02:10:52.86	337.79	22.64	-27.2	-29.0	15.8	3.89e-04	0	44	0	514850816	14	4395
2026-01-16 02:10:53.87	337.54	22.70	-27.2	-28.9	15.8	0.00e+00	0	44	0	517996544	14	4371
2026-01-16 02:10:54.87	337.30	22.76	-27.3	-29.1	15.7	8.40e-04	0	44	0	521142272	14	4441
2026-01-16 02:10:55.87	337.05	22.82	-27.3	-29.0	15.8	1.22e-03	0	44	0	524288000	14	4408
2026-01-16 02:10:56.87	336.80	22.88	-27.4	-29.4	15.6	0.00e+00	0	44	0	527433728	14	4522
2026-01-16 02:10:57.87	336.55	22.94	-27.3	-29.2	15.7	1.18e-03	0	44	0	530579456	14	4449
2026-01-16 02:10:58.86	336.30	23.00	-27.3	-29.1	15.7	9.15e-04	0	44	0	533725184	14	4427
2026-01-16 02:10:59.87	336.05	23.06	-27.4	-29.3	15.7	0.00e+00	0	44	0	536870912	14	4474
2026-01-16 02:11:00.87	335.80	23.11	-27.3	-29.0	15.8	0.00e+00	0	44	0	540016640	14	4416
2026-01-16 02:11:01.87	335.54	23.17	-27.2	-28.8	15.9	6.03e-04	0	44	0	543162368	14	4349
2026-01-16 02:11:02.88	335.28	23.23	-27.2	-28.9	15.8	0.00e+00	0	44	0	546308096	14	4371
2026-01-16 02:11:03.88	335.03	23.28	-27.2	-28.9	15.9	8.25e-04	0	44	0	549453824	14	4371
2026-01-16 02:11:04.88	334.77	23.34	-27.3	-29.1	15.7	1.42e-03	0	44	0	552599552	14	4418
2026-01-16 02:11:05.89	334.51	23.40	-27.1	-28.7	15.9	0.00e+00	0	44	0	555745280	14	4332
2026-01-16 02:11:06.89	334.25	23.45	-27.0	-28.5	16.1	1.77e-03	0	44	0	558891008	14	4274
2026-01-16 02:11:07.89	333.99	23.51	-27.1	-28.6	16.0	1.80e-03	0	44	0	562036736	14	4290
2026-01-16 02:11:08.89	333.73	23.56	-27.0	-28.4	16.1	0.00e+00	0	44	0	564133888	14	4231
2026-01-16 02:11:09.90	333.47	23.61	-27.0	-28.4	16.1	1.82e-03	0	44	0	567279616	14	4244
2026-01-16 02:11:10.90	333.21	23.67	-27.1	-28.6	16.0	0.00e+00	0	44	0	570425344	14	4303
2026-01-16 02:11:11.90	332.95	23.72	-27.2	-28.9	15.9	0.00e+00	0	44	0	573571072	14	4374
2026-01-16 02:11:12.90	332.68	23.77	-27.3	-29.0	15.8	2.21e-03	0	44	0	576716800	14	4406
2026-01-16 02:11:13.90	332.42	23.82	-27.3	-29.2	15.6	2.32e-03	0	44	0	579862528	14	4463
2026-01-16 02:11:14.90	332.15	23.87	-27.5	-29.6	15.5	0.00e+00	0	44	0	583008256	14	4568
2026-01-16 02:11:15.91	331.88	23.92	-27.5	-29.1	15.5	0.00e+00	0	44	0	586153984	15	4306
2026-01-16 02:11:16.92	331.61	23.97	-27.6	-29.2	15.4	0.00e+00	0	44	0	589299712	15	4352
2026-01-16 02:11:17.93	331.34	24.02	-27.3	-28.7	15.7	0.00e+00	0	44	0	592445440	15	4197
2026-01-16 02:11:18.93	331.07	24.07	-27.3	-29.2	15.7	1.84e-03	0	44	0	595591168	14	4457
2026-01-16 02:11:19.93	330.80	24.12	-27.1	-28.7	15.9	0.00e+00	0	44	0	598736896	14	4318
2026-01-16 02:11:20.93	330.53	24.16	-27.1	-28.6	16.0	0.00e+00	0	44	0	601882624	14	4296
2026-01-16 02:11:21.94	330.26	24.21	-27.0	-28.5	16.1	0.00e+00	0	44	0	605028352	14	4264
2026-01-16 02:11:22.94	329.99	24.26	-26.9	-28.8	16.2	0.00e+00	0	44	0	608174080	13	4451
2026-01-16 02:11:23.94	329.71	24.30	-26.9	-28.7	16.2	0.00e+00	0	44	0	611319808	13	4436
2026-01-16 02:11:24.95	329.44	24.35	-26.9	-28.8	16.2	0.00e+00	0	44	0	614465536	13	4445
2026-01-16 02:11:25.95	329.16	24.39	-26.9	-28.7	16.2	0.00e+00	0	44	0	617611264	13	4444
2026-01-16 02:11:26.96	328.88	24.43	-26.9	-28.8	16.2	0.00e+00	0	44	0	620756992	13	4450
2026-01-16 02:11:27.95	328.61	24.48	-27.1	-28.7	15.9	0.00e+00	0	44	0	623902720	14	4320
2026-01-16 02:11:28.96	328.33	24.52	-27.4	-29.3	15.6	0.00e+00	0	44	0	627048448	14	4481
2026-01-16 02:11:29.96	328.05	24.56	-27.2	-28.8	15.9	0.00e+00	0	44	0	630194176	14	4340
2026-01-16 02:11:30.96	327.77	24.60	-26.9	-28.3	16.2	0.00e+00	0	44	0	633339904	14	4204
2026-01-16 02:11:31.96	327.49	24.64	-26.9	-28.3	16.2	0.00e+00	0	44	0	636485632	14	4209
2026-01-16 02:11:32.97	327.21	24.68	-26.9	-28.3	16.2	0.00e+00	0	44	0	639631360	14	4207
2026-01-16 02:11:33.97	326.93	24.72	-27.0	-28.4	16.1	0.00e+00	0	44	0	642777088	14	4234
2026-01-16 02:11:34.97	326.65	24.76	-27.0	-28.5	16.1	0.00e+00	0	44	0	645922816	14	4262
2026-01-16 02:11:35.97	326.37	24.79	-27.0	-28.5	16.1	0.00e+00	0	44	0	649068544	14	4253
2026-01-16 02:11:36.97	326.08	24.83	-27.1	-28.7	16.0	0.00e+00	0	44	0	652214272	14	4316
2026-01-16 02:11:37.97	325.80	24.86	-27.0	-28.5	16.1	0.00e+00	0	44	0	655360000	14	4258
2026-01-16 02:11:38.96	325.52	24.90	-27.0	-28.5	16.1	0.00e+00	0	44	0	658505728	14	4265
2026-01-16 02:11:39.96	325.24	24.93	-26.9	-28.1	16.3	0.00e+00	0	44	0	661651456	14	4168
2026-01-16 02:11:40.97	324.95	24.97	-26.9	-28.2	16.2	0.00e+00	0	44	0	664797184	14	4191
2026-01-16 02:11:41.97	324.66	25.00	-27.0	-28.4	16.1	0.00e+00	0	44	0	667942912	14	4240
2026-01-16 02:11:42.98	324.37	25.03	-26.8	-27.9	16.4	0.00e+00	0	44	0	671088640	14	4113
2026-01-16 02:11:43.98	324.09	25.06	-26.6	-28.1	16.5	0.00e+00	0	44	0	674234368	13	4263
2026-01-16 02:11:44.98	323.80	25.09	-26.7	-28.2	16.5	0.00e+00	0	44	0	677380096	13	4297
2026-01-16 02:11:45.98	323.51	25.12	-26.8	-28.5	16.3	0.00e+00	0	44	0	680525824	13	4382
2026-01-16 02:11:46.99	323.22	25.15	-26.7	-28.3	16.4	0.00e+00	0	44	0	683671552	13	4328
2026-01-16 02:11:47.99	322.93	25.18	-26.9	-28.6	16.3	0.00e+00	0	44	0	686817280	13	4403
2026-01-16 02:11:49.00	322.64	25.21	-26.9	-28.7	16.2	0.00e+00	0	44	0	689963008	13	4420
2026-01-16 02:11:50.00	322.35	25.24	-27.1	-28.6	16.0	0.00e+00	0	44	0	693108736	14	4287
2026-01-16 02:11:51.01	322.05	25.26	-27.4	-29.3	15.6	0.00e+00	0	44	0	696254464	14	4489
2026-01-16 02:11:52.01	321.76	25.29	-27.3	-29.0	15.8	0.00e+00	0	44	0	699400192	14	4411
2026-01-16 02:11:53.01	321.47	25.31	-27.4	-29.3	15.7	0.00e+00	0	44	0	702545920	14	4478
2026-01-16 02:11:54.01	321.18	25.34	-27.1	-28.7	16.0	0.00e+00	0	44	0	705691648	14	4311
2026-01-16 02:11:55.01	320.89	25.36	-27.0	-28.3	16.2	0.00e+00	0	44	0	708837376	14	4221
2026-01-16 02:11:56.00	320.60	25.38	-27.0	-28.5	16.1	0.00e+00	0	44	0	711983104	14	4252
2026-01-16 02:11:57.01	320.30	25.40	-27.0	-28.4	16.1	0.00e+00	0	44	0	715128832	14	4225
2026-01-16 02:11:58.01	320.00	25.42	-27.0	-28.4	16.1	0.00e+00	0	44	0	718274560	14	4241
2026-01-16 02:11:59.01	319.71	25.44	-27.2	-28.9	15.9	0.00e+00	0	44	0	721420288	14	4360
2026-01-16 02:12:00.01	319.42	25.46	-26.9	-28.3	16.2	0.00e+00	0	44	0	724566016	14	4198
2026-01-16 02:12:01.01	319.12	25.48	-26.8	-28.5	16.4	0.00e+00	0	44	0	727711744	13	4382
2026-01-16 02:12:02.01	318.83	25.49	-26.8	-28.5	16.4	0.00e+00	0	44	0	730857472	13	4368
2026-01-16 02:12:03.01	318.53	25.51	-27.1	-28.7	16.0	0.00e+00	0	44	0	734003200	14	4304
2026-01-16 02:12:04.02	318.23	25.53	-27.0	-28.4	16.2	0.00e+00	0	44	0	737148928	14	4228
2026-01-16 02:12:05.02	317.94	25.54	-27.0	-28.4	16.2	0.00e+00	0	44	0	740294656	14	4228
2026-01-16 02:12:06.03	317.64	25.55	-27.0	-28.5	16.1	0.00e+00	0	44	0	743440384	14	4277
2026-01-16 02:12:07.03	317.34	25.57	-27.0	-28.4	16.2	0.00e+00	0	44	0	746586112	14	4247
2026-01-16 02:12:08.03	317.04	25.58	-26.9	-28.3	16.2	0.00e+00	0	44	0	749731840	14	4210
2026-01-16 02:12:09.03	316.75	25.59	-27.1	-28.7	16.0	0.00e+00	0	44	0	752877568	14	4315
2026-01-16 02:12:10.03	316.45	25.60	-27.0	-28.4	16.1	0.00e+00	0	44	0	756023296	14	4240
2026-01-16 02:12:11.03	316.15	25.61	-27.0	-28.5	16.1	0.00e+00	0	44	0	759169024	14	4267
2026-01-16 02:12:12.02	315.86	25.62	-27.1	-28.7	16.0	0.00e+00	0	44	0	762314752	14	4307
2026-01-16 02:12:13.02	315.56	25.63	-27.2	-29.0	15.9	0.00e+00	0	44	0	765460480	14	4388
2026-01-16 02:12:14.02	315.26	25.63	-27.2	-28.9	15.9	0.00e+00	0	44	0	768606208	14	4377
2026-01-16 02:12:15.03	314.96	25.64	-27.0	-28.5	16.1	0.00e+00	0	44	0	771751936	14	4254
2026-01-16 02:12:16.02	314.66	25.65	-26.9	-28.2	16.3	0.00e+00	0	44	0	774897664	14	4184
2026-01-16 02:12:17.03	314.36	25.65	-27.0	-28.5	16.1	0.00e+00	0	44	0	778043392	14	4250
2026-01-16 02:12:18.03	314.06	25.65	-26.9	-28.2	16.3	0.00e+00	0	44	0	781189120	14	4183
2026-01-16 02:12:19.04	313.76	25.66	-26.9	-28.2	16.3	0.00e+00	0	44	0	784334848	14	4182
2026-01-16 02:12:20.04	313.46	25.66	-27.0	-28.5	16.1	0.00e+00	0	44	0	787480576	14	4251
2026-01-16 02:12:21.04	313.17	25.66	-26.9	-28.2	16.2	0.00e+00	0	44	0	790626304	14	4194
2026-01-16 02:12:22.04	312.87	25.66	-26.8	-28.6	16.3	0.00e+00	0	44	0	792723456	13	4402
2026-01-16 02:12:23.04	312.57	25.66	-26.8	-28.6	16.3	0.00e+00	0	44	0	795869184	13	4396
2026-01-16 02:12:24.05	312.27	25.66	-27.0	-28.9	16.1	0.00e+00	0	44	0	799014912	13	4480
2026-01-16 02:12:25.05	311.97	25.66	-26.9	-28.7	16.3	0.00e+00	0	44	0	803209216	13	4422
2026-01-16 02:12:26.06	311.67	25.65	-27.0	-28.4	16.2	0.00e+00	0	44	0	806354944	14	4239
2026-01-16 02:12:27.06	311.37	25.65	-27.1	-28.7	16.0	0.00e+00	0	44	0	809500672	14	4322
2026-01-16 02:12:28.05	311.07	25.64	-26.9	-28.1	16.3	0.00e+00	0	44	0	812646400	14	4165
2026-01-16 02:12:29.04	310.78	25.64	-26.9	-28.2	16.3	0.00e+00	0	44	0	814743552	14	4173
2026-01-16 02:12:30.04	310.48	25.63	-26.9	-28.3	16.1	0.00e+00	0	44	0	817889280	14	4212
2026-01-16 02:12:31.04	310.18	25.62	-27.0	-28.5	16.1	0.00e+00	0	44	0	821035008	14	4264
2026-01-16 02:12:32.04	309.88	25.61	-27.0	-28.5	16.2	0.00e+00	0	44	0	824180736	14	4248
2026-01-16 02:12:33.04	309.59	25.61	-27.0	-28.5	16.1	0.00e+00	0	44	0	827326464	14	4259
2026-01-16 02:12:34.04	309.29	25.60	-27.1	-28.6	16.1	0.00e+00	0	44	0	830472192	14	4293
2026-01-16 02:12:35.04	308.99	25.58	-27.1	-28.6	16.0	0.00e+00	0	44	0	833617920	14	4301
2026-01-16 02:12:36.04	308.69	25.57	-26.9	-28.3	16.2	0.00e+00	0	44	0	836763648	14	4210
2026-01-16 02:12:37.04	308.40	25.56	-26.9	-28.3	16.2	0.00e+00	0	44	0	839909376	14	4203
2026-01-16 02:12:38.05	308.10	25.55	-26.8	-27.9	16.4	0.00e+00	0	44	0	843055104	14	4110
2026-01-16 02:12:39.05	307.80	25.53	-26.7	-27.9	16.4	0.00e+00	0	44	0	846200832	14	4096
2026-01-16 02:12:40.05	307.50	25.52	-26.8	-28.0	16.3	1.57e-04	0	44	0	849346560	14	4137
2026-01-16 02:12:41.06	307.21	25.50	-26.8	-28.0	16.4	0.00e+00	0	44	0	852492288	14	4129
2026-01-16 02:12:42.05	306.91	25.49	-26.8	-28.0	16.3	0.00e+00	0	44	0	855638016	14	4141
2026-01-16 02:12:43.05	306.62	25.47	-26.8	-28.1	16.3	0.00e+00	0	44	0	858783744	14	4149
2026-01-16 02:12:44.05	306.32	25.45	-26.8	-28.1	16.3	0.00e+00	0	44	0	861929472	14	4149
2026-01-16 02:12:45.06	306.02	25.43	-26.9	-28.3	16.2	1.46e-04	0	44	0	865075200	14	4208
2026-01-16 02:12:46.06	305.73	25.41	-26.9	-28.2	16.2	2.25e-04	0	44	0	868220928	14	4197
2026-01-16 02:12:47.06	305.44	25.39	-26.9	-28.3	16.2	0.00e+00	0	44	0	871366656	14	4213
2026-01-16 02:12:48.06	305.14	25.37	-27.1	-28.6	16.0	0.00e+00	0	44	0	874512384	14	4300
2026-01-16 02:12:49.06	304.85	25.35	-27.0	-28.4	16.2	0.00e+00	0	44	0	877658112	14	4225
2026-01-16 02:12:50.07	304.55	25.32	-26.9	-28.2	16.2	0.00e+00	0	44	0	880803840	14	4172
2026-01-16 02:12:51.07	304.26	25.30	-26.8	-28.1	16.3	2.01e-04	0	44	0	883949568	14	4150
2026-01-16 02:12:52.07	303.97	25.27	-27.0	-28.4	16.2	2.75e-04	0	44	0	887095296	14	4231
2026-01-16 02:12:53.07	303.68	25.25	-26.8	-28.1	16.3	0.00e+00	0	44	0	890241024	14	4153
2026-01-16 02:12:54.07	303.39	25.22	-27.0	-28.9	16.1	0.00e+00	0	44	0	893386752	13	4492
2026-01-16 02:12:55.08	303.10	25.19	-26.9	-28.8	16.2	8.48e-04	0	44	0	896532480	13	4450
2026-01-16 02:12:56.08	302.81	25.17	-27.0	-28.6	16.0	0.00e+00	0	44	0	899678208	14	4281
2026-01-16 02:12:57.08	302.52	25.14	-27.2	-29.0	15.8	5.89e-04	0	44	0	902823936	14	4390
2026-01-16 02:12:58.08	302.23	25.11	-27.0	-28.4	16.2	4.55e-04	0	44	0	905969664	14	4231
2026-01-16 02:12:59.08	301.94	25.08	-26.8	-28.0	16.3	0.00e+00	0	44	0	909115392	14	4117
2026-01-16 02:13:00.08	301.65	25.05	-26.8	-28.0	16.3	1.96e-04	0	44	0	912261120	14	4142
2026-01-16 02:13:01.08	301.36	25.01	-26.8	-28.0	16.3	1.50e-06	0	44	0	915406848	14	4125
2026-01-16 02:13:02.08	301.08	24.98	-26.8	-28.0	16.4	0.00e+00	0	44	0	918552576	14	4122
2026-01-16 02:13:03.08	300.79	24.95	-26.9	-28.2	16.2	0.00e+00	0	44	0	921698304	14	4187
2026-01-16 02:13:04.08	300.51	24.92	-26.9	-28.1	16.3	0.00e+00	0	44	0	924844032	14	4166
2026-01-16 02:13:05.08	300.22	24.88	-26.9	-28.3	16.2	0.00e+00	0	44	0	927989760	14	4216
2026-01-16 02:13:06.08	299.94	24.85	-27.0	-28.5	16.1	0.00e+00	0	44	0	931135488	14	4262
2026-01-16 02:13:07.08	299.65	24.81	-27.1	-28.6	16.0	0.00e+00	0	44	0	934281216	14	4296
2026-01-16 02:13:08.09	299.37	24.77	-27.2	-28.9	15.8	0.00e+00	0	44	0	937426944	14	4373
2026-01-16 02:13:09.08	299.09	24.73	-27.2	-29.0	15.8	0.00e+00	0	44	0	940572672	14	4397
2026-01-16 02:13:10.09	298.81	24.70	-27.4	-29.4	15.5	0.00e+00	0	44	0	943718400	14	4531
2026-01-16 02:13:11.09	298.52	24.66	-27.4	-28.9	15.6	0.00e+00	0	44	0	946864128	15	4255
2026-01-16 02:13:12.10	298.24	24.62	-27.4	-28.8	15.6	0.00e+00	0	44	0	950009856	15	4233
2026-01-16 02:13:13.10	297.96	24.58	-27.4	-28.8	15.6	0.00e+00	0	44	0	953155584	15	4245
2026-01-16 02:13:14.10	297.68	24.54	-27.2	-28.4	15.9	0.00e+00	0	44	0	956301312	15	4120
2026-01-16 02:13:15.11	297.40	24.49	-27.1	-28.2	15.9	0.00e+00	0	44	0	959447040	15	4083
2026-01-16 02:13:16.11	297.13	24.45	-27.2	-28.5	15.8	0.00e+00	0	44	0	962592768	15	4154
2026-01-16 02:13:17.11	296.85	24.41	-27.1	-28.2	16.0	0.00e+00	0	44	0	965738496	15	4071
2026-01-16 02:13:18.11	296.57	24.36	-27.0	-28.0	16.1	0.00e+00	0	44	0	968884224	15	4019
2026-01-16 02:13:19.11	296.30	24.32	-27.0	-28.0	16.0	0.00e+00	0	44	0	972029952	15	4039
2026-01-16 02:13:20.12	296.02	24.28	-27.1	-28.2	15.9	0.00e+00	0	44	0	975175680	15	4091
2026-01-16 02:13:21.11	295.75	24.23	-27.3	-28.6	15.7	0.00e+00	0	44	0	978321408	15	4192
2026-01-16 02:13:22.11	295.48	24.18	-27.1	-28.2	15.9	0.00e+00	0	44	0	981467136	15	4084
2026-01-16 02:13:23.12	295.20	24.14	-27.0	-27.9	16.1	0.00e+00	0	44	0	984612864	15	4008
2026-01-16 02:13:24.11	294.94	24.09	-27.0	-28.3	16.1	0.00e+00	0	44	0	987758592	14	4218
2026-01-16 02:13:25.12	294.66	24.04	-26.8	-28.0	16.3	0.00e+00	0	44	0	990904320	14	4125
2026-01-16 02:13:26.12	294.39	23.99	-26.8	-28.1	16.2	0.00e+00	0	44	0	994050048	14	4155
2026-01-16 02:13:27.13	294.12	23.94	-26.9	-28.7	16.2	8.72e-04	0	44	0	996147200	13	4424
2026-01-16 02:13:28.13	293.86	23.89	-26.8	-28.6	16.2	0.00e+00	0	44	0	999292928	13	4389
2026-01-16 02:13:29.13	293.59	23.84	-27.0	-28.8	16.1	0.00e+00	0	44	0	1002438656	13	4472
2026-01-16 02:13:30.13	293.32	23.79	-26.8	-28.5	16.3	0.00e+00	0	44	0	1005584384	13	4379
2026-01-16 02:13:31.13	293.06	23.74	-26.8	-28.5	16.3	0.00e+00	0	44	0	1008730112	13	4369
2026-01-16 02:13:32.13	292.79	23.69	-26.8	-28.4	16.3	0.00e+00	0	44	0	1011875840	13	4362
2026-01-16 02:13:33.14	292.53	23.64	-26.9	-28.7	16.2	0.00e+00	0	44	0	1015021568	13	4434
2026-01-16 02:13:34.14	292.27	23.58	-27.1	-28.6	15.9	0.00e+00	0	44	0	1018167296	14	4288
2026-01-16 02:13:35.14	292.00	23.53	-27.0	-28.5	16.0	0.00e+00	0	44	0	1021313024	14	4272
2026-01-16 02:13:36.15	291.74	23.47	-27.2	-29.0	15.8	0.00e+00	0	44	0	1024458752	14	4401
2026-01-16 02:13:37.14	291.48	23.42	-27.2	-28.9	15.8	0.00e+00	0	44	0	1027604480	14	4390
2026-01-16 02:13:38.14	291.23	23.36	-27.2	-29.0	15.8	0.00e+00	0	44	0	1030750208	14	4407
2026-01-16 02:13:39.13	290.97	23.31	-27.1	-28.6	15.9	0.00e+00	0	44	0	1033895936	14	4304
2026-01-16 02:13:40.14	290.71	23.25	-27.0	-28.5	16.0	0.00e+00	0	44	0	1037041664	14	4273
2026-01-16 02:13:41.15	290.45	23.19	-27.1	-28.7	15.9	0.00e+00	0	44	0	1040187392	14	4310
2026-01-16 02:13:42.15	290.20	23.14	-26.9	-28.3	16.1	0.00e+00	0	44	0	1043333120	14	4203
2026-01-16 02:13:43.16	289.94	23.08	-27.1	-28.6	16.0	0.00e+00	0	44	0	1046478848	14	4287
2026-01-16 02:13:44.15	289.69	23.02	-26.8	-28.1	16.2	0.00e+00	0	44	0	1049624576	14	4156
2026-01-16 02:13:45.15	289.44	22.96	-26.8	-28.5	16.2	0.00e+00	0	44	0	1052770304	13	4374
2026-01-16 02:13:46.16	289.19	22.90	-27.0	-28.9	16.0	0.00e+00	0	44	0	1055916032	13	4479
2026-01-16 02:13:47.16	288.94	22.84	-27.0	-28.5	16.0	0.00e+00	0	44	0	1059061760	14	4265
2026-01-16 02:13:48.17	288.68	22.78	-27.0	-28.6	15.9	0.00e+00	0	44	0	1062207488	14	4290
2026-01-16 02:13:49.17	288.44	22.72	-27.1	-28.6	15.9	0.00e+00	0	44	0	1065353216	14	4297
2026-01-16 02:13:50.17	288.19	22.66	-27.0	-28.5	16.0	0.00e+00	0	44	0	1068498944	14	4257
2026-01-16 02:13:51.17	287.94	22.60	-27.0	-28.4	16.0	0.00e+00	0	44	0	1071644672	14	4232
2026-01-16 02:13:52.18	287.69	22.54	-27.0	-28.4	16.0	0.00e+00	0	44	0	1074790400	14	4239
2026-01-16 02:13:53.18	287.45	22.48	-26.7	-27.8	16.3	0.00e+00	0	44	0	1077936128	14	4091
2026-01-16 02:13:54.17	287.21	22.41	-26.6	-27.7	16.4	0.00e+00	0	44	0	1081081856	14	4045
2026-01-16 02:13:55.18	286.96	22.35	-26.6	-27.6	16.5	0.00e+00	0	44	0	1084227584	14	4020
2026-01-16 02:13:56.17	286.72	22.29	-26.8	-28.0	16.2	0.00e+00	0	44	0	1087373312	14	4138
2026-01-16 02:13:57.18	286.48	22.22	-26.8	-27.9	16.2	0.00e+00	0	44	0	1090519040	14	4114
2026-01-16 02:13:58.18	286.24	22.16	-27.0	-28.5	15.9	0.00e+00	0	44	0	1093664768	14	4273
2026-01-16 02:13:59.18	286.00	22.09	-27.1	-28.7	15.8	0.00e+00	0	44	0	1096810496	14	4324
2026-01-16 02:14:00.18	285.77	22.03	-27.2	-28.9	15.7	0.00e+00	0	44	0	1099956224	14	4387
2026-01-16 02:14:01.19	285.53	21.96	-27.1	-28.8	15.8	0.00e+00	0	44	0	1103101952	14	4341
2026-01-16 02:14:02.19	285.29	21.90	-27.1	-28.7	15.8	0.00e+00	0	44	0	1106247680	14	4326
2026-01-16 02:14:03.19	285.06	21.83	-27.2	-29.0	15.7	0.00e+00	0	44	0	1109393408	14	4416
2026-01-16 02:14:04.20	284.82	21.76	-27.0	-28.4	16.0	0.00e+00	0	44	0	1112539136	14	4228
2026-01-16 02:14:05.20	284.59	21.70	-26.8	-28.0	16.2	0.00e+00	0	44	0	1115684864	14	4135
2026-01-16 02:14:06.20	284.36	21.63	-26.8	-28.1	16.2	0.00e+00	0	44	0	1118830592	14	4148
2026-01-16 02:14:07.20	284.13	21.56	-26.9	-28.8	16.0	0.00e+00	0	44	0	1121976320	13	4455
2026-01-16 02:14:08.20	283.90	21.50	-26.9	-28.7	16.1	0.00e+00	0	44	0	1125122048	13	4437
2026-01-16 02:14:09.19	283.67	21.43	-27.0	-28.9	16.0	0.00e+00	0	44	0	1128267776	13	4491
2026-01-16 02:14:10.20	283.44	21.36	-27.0	-28.9	15.9	0.00e+00	0	44	0	1131413504	13	4490
2026-01-16 02:14:11.20	283.22	21.29	-26.9	-28.8	16.0	0.00e+00	0	44	0	1134559232	13	4461
2026-01-16 02:14:12.20	282.99	21.22	-26.8	-28.4	16.2	0.00e+00	0	44	0	1137704960	13	4361
2026-01-16 02:14:13.21	282.76	21.15	-26.8	-28.5	16.1	0.00e+00	0	44	0	1140850688	13	4397
2026-01-16 02:14:14.21	282.54	21.08	-26.7	-28.4	16.2	0.00e+00	0	44	0	1143996416	13	4353
2026-01-16 02:14:15.21	282.32	21.01	-26.8	-28.5	16.2	0.00e+00	0	44	0	1147142144	13	4376
2026-01-16 02:14:16.21	282.10	20.94	-26.5	-27.9	16.5	0.00e+00	0	44	0	1150287872	13	4217
2026-01-16 02:14:17.21	281.88	20.87	-26.5	-27.8	16.5	0.00e+00	0	44	0	1153433600	13	4193
2026-01-16 02:14:18.21	281.66	20.80	-26.6	-28.0	16.4	0.00e+00	0	44	0	1156579328	13	4242
2026-01-16 02:14:19.22	281.44	20.73	-26.8	-28.6	16.1	0.00e+00	0	44	0	1159725056	13	4415
2026-01-16 02:14:20.22	281.22	20.66	-26.9	-28.7	16.1	0.00e+00	0	44	0	1162870784	13	4431
2026-01-16 02:14:21.23	281.00	20.59	-26.8	-28.5	16.2	0.00e+00	0	44	0	1166016512	13	4385
2026-01-16 02:14:22.23	280.79	20.52	-26.9	-28.8	16.0	0.00e+00	0	44	0	1169162240	13	4455
2026-01-16 02:14:23.23	280.57	20.45	-27.0	-28.5	15.9	0.00e+00	0	44	0	1172307968	14	4283
2026-01-16 02:14:24.22	280.36	20.38	-27.0	-28.4	16.0	0.00e+00	0	44	0	1175453696	14	4233
2026-01-16 02:14:25.22	280.15	20.30	-27.1	-28.7	15.8	0.00e+00	0	44	0	1178599424	14	4312
2026-01-16 02:14:26.23	279.94	20.23	-27.2	-28.9	15.7	0.00e+00	0	44	0	1181745152	14	4386
2026-01-16 02:14:27.24	279.72	20.16	-27.2	-29.0	15.6	0.00e+00	0	44	0	1184890880	14	4423
2026-01-16 02:14:28.23	279.52	20.09	-27.2	-29.0	15.6	0.00e+00	0	44	0	1188036608	14	4425
2026-01-16 02:14:29.24	279.31	20.01	-27.3	-29.2	15.5	0.00e+00	0	44	0	1191182336	14	4481
2026-01-16 02:14:30.24	279.10	19.94	-27.3	-29.2	15.5	0.00e+00	0	44	0	1194328064	14	4471
2026-01-16 02:14:31.24	278.89	19.87	-27.4	-29.3	15.4	0.00e+00	0	44	0	1197473792	14	4508
2026-01-16 02:14:32.24	278.69	19.79	-27.3	-29.1	15.5	0.00e+00	0	44	0	1200619520	14	4451
2026-01-16 02:14:33.24	278.48	19.72	-27.4	-29.3	15.4	0.00e+00	0	44	0	1202716672	14	4508
2026-01-16 02:14:34.25	278.28	19.64	-27.6	-29.3	15.1	0.00e+00	0	44	0	1205862400	15	4390
2026-01-16 02:14:35.25	278.07	19.57	-27.8	-29.7	14.9	0.00e+00	0	44	0	1210056704	15	4506
2026-01-16 02:14:36.26	277.87	19.50	-27.4	-28.8	15.4	0.00e+00	0	44	0	1213202432	15	4258
2026-01-16 02:14:37.26	277.67	19.42	-27.1	-28.3	15.7	0.00e+00	0	44	0	1216348160	15	4101
2026-01-16 02:14:38.26	277.47	19.35	-26.9	-27.9	15.9	0.00e+00	0	44	0	1219493888	15	3999
2026-01-16 02:14:39.25	277.28	19.27	-26.9	-27.7	16.0	0.00e+00	0	44	0	1222639616	15	3960
2026-01-16 02:14:40.26	277.08	19.20	-26.9	-27.8	15.9	0.00e+00	0	44	0	1225785344	15	3988
2026-01-16 02:14:41.26	276.88	19.12	-26.9	-27.7	16.0	0.00e+00	0	44	0	1227882496	15	3968
2026-01-16 02:14:42.26	276.68	19.05	-27.0	-28.0	15.9	0.00e+00	0	44	0	1231028224	15	4022
2026-01-16 02:14:43.26	276.49	18.97	-26.9	-27.8	15.9	0.00e+00	0	44	0	1234173952	15	3988
2026-01-16 02:14:44.27	276.29	18.90	-26.9	-27.7	15.9	2.79e-04	0	44	0	1237319680	15	3965
2026-01-16 02:14:45.27	276.10	18.82	-26.9	-28.2	16.0	5.51e-04	0	44	0	1240465408	14	4202
2026-01-16 02:14:46.28	275.91	18.75	-26.8	-28.1	16.0	0.00e+00	0	44	0	1243611136	14	4168
2026-01-16 02:14:47.27	275.72	18.67	-26.8	-28.5	16.0	0.00e+00	0	44	0	1246756864	13	4400
2026-01-16 02:14:48.28	275.53	18.60	-26.8	-28.5	16.0	0.00e+00	0	44	0	1249902592	13	4391
2026-01-16 02:14:49.28	275.34	18.52	-26.7	-28.3	16.1	0.00e+00	0	44	0	1253048320	13	4337
2026-01-16 02:14:50.28	275.15	18.45	-26.8	-28.5	16.0	1.76e-03	0	44	0	1256194048	13	4377
2026-01-16 02:14:51.29	274.96	18.37	-26.8	-28.4	16.0	0.00e+00	0	44	0	1259339776	13	4368
2026-01-16 02:14:52.28	274.78	18.29	-26.9	-28.7	15.9	0.00e+00	0	44	0	1262485504	13	4457
2026-01-16 02:14:53.28	274.59	18.22	-26.9	-28.9	15.8	0.00e+00	0	44	0	1265631232	13	4489
2026-01-16 02:14:54.28	274.41	18.14	-27.1	-28.8	15.6	1.11e-04	0	44	0	1268776960	14	4354
2026-01-16 02:14:55.28	274.23	18.07	-27.2	-29.0	15.5	0.00e+00	0	44	0	1271922688	14	4431
2026-01-16 02:14:56.28	274.04	17.99	-27.2	-29.0	15.5	3.00e-06	0	44	0	1275068416	14	4418
2026-01-16 02:14:57.28	273.86	17.91	-27.3	-29.2	15.4	0.00e+00	0	44	0	1278214144	14	4472
2026-01-16 02:14:58.28	273.68	17.84	-27.1	-28.7	15.7	0.00e+00	0	44	0	1281359872	14	4319
2026-01-16 02:14:59.27	273.50	17.76	-27.0	-28.5	15.8	1.50e-06	0	44	0	1284505600	14	4275
2026-01-16 02:15:00.27	273.33	17.69	-26.9	-28.3	15.9	0.00e+00	0	44	0	1287651328	14	4219
2026-01-16 02:15:01.27	273.15	17.61	-26.9	-28.2	15.9	0.00e+00	0	44	0	1290797056	14	4209
2026-01-16 02:15:02.27	272.97	17.53	-26.7	-27.8	16.2	0.00e+00	0	44	0	1293942784	14	4078
2026-01-16 02:15:03.27	272.80	17.46	-26.8	-28.0	16.0	0.00e+00	0	44	0	1297088512	14	4150
2026-01-16 02:15:04.27	272.62	17.38	-26.8	-28.1	16.0	0.00e+00	0	44	0	1300234240	14	4176
2026-01-16 02:15:05.28	272.44	17.30	-26.9	-28.3	15.8	0.00e+00	0	44	0	1303379968	14	4232
2026-01-16 02:15:06.29	272.27	17.23	-27.1	-28.7	15.6	0.00e+00	0	44	0	1306525696	14	4339
2026-01-16 02:15:07.30	272.10	17.15	-27.2	-29.0	15.4	0.00e+00	0	44	0	1309671424	14	4432
2026-01-16 02:15:08.30	271.92	17.07	-27.3	-29.1	15.4	0.00e+00	0	44	0	1312817152	14	4453
2026-01-16 02:15:09.31	271.75	16.99	-27.4	-29.3	15.3	4.68e-04	0	44	0	1315962880	14	4513
2026-01-16 02:15:10.31	271.58	16.92	-27.4	-29.4	15.2	0.00e+00	0	44	0	1319108608	14	4523
2026-01-16 02:15:11.30	271.42	16.84	-27.2	-29.0	15.4	5.55e-04	0	44	0	1322254336	14	4435
2026-01-16 02:15:12.31	271.25	16.76	-27.3	-29.1	15.4	5.32e-04	0	44	0	1325400064	14	4449
2026-01-16 02:15:13.31	271.08	16.69	-27.3	-29.2	15.3	0.00e+00	0	44	0	1328545792	14	4471
2026-01-16 02:15:14.31	270.91	16.61	-27.4	-29.4	15.2	5.96e-04	0	44	0	1331691520	14	4529
2026-01-16 02:15:15.31	270.75	16.53	-27.6	-29.4	14.9	6.63e-04	0	44	0	1334837248	15	4420
2026-01-16 02:15:16.31	270.58	16.46	-27.7	-29.5	14.8	0.00e+00	0	44	0	1337982976	15	4471
2026-01-16 02:15:17.31	270.42	16.38	-27.8	-29.9	14.6	1.61e-03	0	44	0	1341128704	15	4593
2026-01-16 02:15:18.31	270.26	16.30	-27.9	-30.0	14.6	0.00e+00	0	44	0	1344274432	15	4610
2026-01-16 02:15:19.31	270.09	16.23	-27.9	-30.0	14.5	0.00e+00	0	44	0	1347420160	15	4623
2026-01-16 02:15:20.30	269.93	16.15	-27.9	-30.1	14.5	1.70e-03	0	44	0	1350565888	15	4642
2026-01-16 02:15:21.31	269.77	16.07	-28.0	-30.2	14.5	1.91e-03	0	44	0	1353711616	15	4679
2026-01-16 02:15:22.32	269.61	16.00	-28.1	-30.0	14.4	0.00e+00	0	44	0	1356857344	16	4499
2026-01-16 02:15:23.31	269.45	15.92	-27.9	-29.6	14.7	3.80e-06	0	44	0	1360003072	16	4369
2026-01-16 02:15:24.31	269.30	15.84	-27.7	-29.5	14.8	0.00e+00	0	44	0	1363148800	15	4470
2026-01-16 02:15:25.32	269.14	15.77	-27.6	-29.4	14.9	0.00e+00	0	44	0	1366294528	15	4421
2026-01-16 02:15:26.31	268.98	15.69	-27.6	-29.4	14.9	3.08e-03	0	44	0	1369440256	15	4427
2026-01-16 02:15:27.31	268.83	15.61	-27.7	-29.5	14.8	3.19e-03	0	44	0	1372585984	15	4469
2026-01-16 02:15:28.32	268.67	15.54	-27.6	-29.5	14.9	7.00e-07	0	44	0	1375731712	15	4443
2026-01-16 02:15:29.32	268.52	15.46	-27.7	-29.6	14.8	0.00e+00	0	44	0	1378877440	15	4494
2026-01-16 02:15:30.33	268.36	15.38	-27.6	-29.3	14.9	3.30e-03	0	44	0	1382023168	15	4409
2026-01-16 02:15:31.32	268.21	15.31	-27.6	-29.4	14.9	0.00e+00	0	44	0	1385168896	15	4420
2026-01-16 02:15:32.33	268.06	15.23	-27.5	-29.3	14.9	3.09e-03	0	44	0	1388314624	15	4387
2026-01-16 02:15:33.33	267.91	15.15	-27.4	-29.4	15.2	0.00e+00	0	44	0	1391460352	14	4537
2026-01-16 02:15:34.33	267.76	15.08	-27.4	-29.4	15.1	0.00e+00	0	44	0	1394606080	14	4537
2026-01-16 02:15:35.33	267.61	15.00	-27.4	-29.5	15.1	3.45e-03	0	44	0	1397751808	14	4564
2026-01-16 02:15:36.34	267.46	14.92	-27.4	-29.4	15.2	3.42e-03	0	44	0	1400897536	14	4526
2026-01-16 02:15:37.35	267.31	14.85	-27.5	-29.2	15.0	0.00e+00	0	44	0	1404043264	15	4361
2026-01-16 02:15:38.34	267.17	14.77	-27.8	-29.8	14.6	0.00e+00	0	44	0	1406140416	15	4541
2026-01-16 02:15:39.35	267.02	14.69	-28.1	-30.1	14.3	7.00e-07	0	44	0	1409286144	16	4523
2026-01-16 02:15:40.35	266.87	14.62	-28.3	-30.5	14.1	2.20e-06	0	44	0	1412431872	16	4640
2026-01-16 02:15:41.35	266.73	14.54	-28.6	-30.6	13.7	3.59e-03	0	44	0	1415577600	17	4579
2026-01-16 02:15:42.35	266.59	14.47	-28.7	-31.0	13.5	2.36e-04	0	44	0	1418723328	17	4674
2026-01-16 02:15:43.34	266.44	14.39	-28.8	-31.2	13.3	2.44e-05	0	44	0	1421869056	17	4757
2026-01-16 02:15:44.35	266.30	14.31	-28.7	-31.1	13.4	1.22e-05	0	44	0	1425014784	17	4733
2026-01-16 02:15:45.34	266.16	14.24	-28.6	-30.7	13.7	7.60e-06	0	44	0	1428160512	17	4608
2026-01-16 02:15:46.34	266.02	14.16	-28.5	-30.6	13.7	9.90e-06	0	44	0	1431306240	17	4570
2026-01-16 02:15:47.34	265.88	14.09	-28.5	-30.5	13.8	8.30e-06	0	44	0	1434451968	17	4526
2026-01-16 02:15:48.34	265.74	14.01	-28.3	-30.4	14.1	1.50e-06	0	44	0	1437597696	16	4613
2026-01-16 02:15:49.33	265.60	13.94	-28.2	-30.2	14.2	2.20e-06	0	44	0	1440743424	16	4551
2026-01-16 02:15:50.34	265.46	13.86	-27.9	-29.5	14.7	0.00e+00	0	44	0	1443889152	16	4343
2026-01-16 02:15:51.33	265.33	13.79	-27.6	-29.4	14.8	0.00e+00	0	44	0	1447034880	15	4431
2026-01-16 02:15:52.34	265.19	13.71	-27.6	-29.4	14.8	0.00e+00	0	44	0	1450180608	15	4423
2026-01-16 02:15:53.34	265.05	13.64	-27.7	-29.6	14.6	0.00e+00	0	44	0	1453326336	15	4494
2026-01-16 02:15:54.34	264.92	13.56	-27.9	-30.1	14.4	0.00e+00	0	44	0	1456472064	15	4629
2026-01-16 02:15:55.34	264.79	13.49	-28.3	-30.4	14.1	3.80e-06	0	44	0	1459617792	16	4623
2026-01-16 02:15:56.34	264.65	13.41	-28.4	-30.7	13.9	1.50e-06	0	45	0	1462763520	16	4708
2026-01-16 02:15:57.35	264.52	13.33	-28.8	-31.2	13.3	1.67e-05	0	44	0	1465909248	17	4759
2026-01-16 02:15:58.35	264.39	13.26	-28.9	-31.5	13.1	1.52e-05	0	44	0	1469054976	17	4842
2026-01-16 02:15:59.35	264.25	13.19	-28.9	-31.6	13.1	3.35e-05	0	44	0	1472200704	17	4887
2026-01-16 02:16:00.35	264.12	13.11	-28.8	-31.3	13.2	3.73e-05	0	44	0	1475346432	17	4785
2026-01-16 02:16:01.36	263.99	13.03	-28.6	-30.9	13.5	1.22e-05	0	44	0	1478492160	17	4665
2026-01-16 02:16:02.35	263.86	12.96	-28.5	-30.6	13.6	7.60e-06	0	44	0	1481637888	17	4568
2026-01-16 02:16:03.36	263.73	12.89	-28.4	-30.2	13.9	8.30e-06	0	44	0	1484783616	17	4442
2026-01-16 02:16:04.36	263.60	12.81	-28.4	-30.3	13.8	5.30e-06	0	45	0	1487929344	17	4459
2026-01-16 02:16:05.36	263.48	12.74	-28.4	-30.2	13.8	4.50e-06	0	44	0	1491075072	17	4449
2026-01-16 02:16:06.36	263.35	12.66	-28.0	-29.9	14.3	7.00e-07	0	44	0	1494220800	16	4463
2026-01-16 02:16:07.36	263.22	12.59	-28.0	-29.9	14.3	7.00e-07	0	44	0	1497366528	16	4448
2026-01-16 02:16:08.36	263.10	12.51	-27.8	-29.9	14.4	1.50e-06	0	44	0	1500512256	15	4598
2026-01-16 02:16:09.36	262.97	12.44	-27.8	-29.9	14.4	2.20e-06	0	44	0	1503657984	15	4600
2026-01-16 02:16:10.36	262.85	12.37	-27.9	-30.1	14.2	0.00e+00	0	44	0	1506803712	15	4664
2026-01-16 02:16:11.37	262.72	12.29	-28.2	-30.2	14.1	3.00e-06	0	44	0	1509949440	16	4569
2026-01-16 02:16:12.37	262.60	12.22	-28.4	-30.8	13.7	4.50e-06	0	44	0	1513095168	16	4751
2026-01-16 02:16:13.36	262.48	12.15	-28.6	-30.9	13.3	1.44e-05	0	44	0	1516240896	17	4673
2026-01-16 02:16:14.37	262.36	12.07	-28.7	-31.1	13.2	1.44e-05	0	44	0	1519386624	17	4723
2026-01-16 02:16:15.37	262.23	12.00	-28.9	-31.6	12.9	3.73e-05	0	44	0	1522532352	17	4892
2026-01-16 02:16:16.38	262.11	11.92	-28.7	-31.1	13.2	2.44e-05	0	44	0	1525678080	17	4722
2026-01-16 02:16:17.38	261.99	11.85	-28.6	-30.9	13.3	1.90e-05	0	44	0	1528823808	17	4680
2026-01-16 02:16:18.38	261.87	11.78	-28.6	-30.8	13.4	1.90e-05	0	44	0	1531969536	17	4626
2026-01-16 02:16:19.39	261.75	11.70	-28.7	-31.0	13.3	1.98e-05	0	44	0	1535115264	17	4690
2026-01-16 02:16:20.39	261.63	11.63	-28.5	-30.5	13.5	1.60e-05	0	44	0	1538260992	17	4555
2026-01-16 02:16:21.39	261.52	11.56	-28.4	-30.8	13.7	6.80e-06	0	44	0	1541406720	16	4737
2026-01-16 02:16:22.39	261.40	11.49	-28.3	-30.6	13.8	4.50e-06	0	44	0	1544552448	16	4686
2026-01-16 02:16:23.40	261.28	11.41	-28.3	-30.6	13.8	7.00e-07	0	44	0	1547698176	16	4681
2026-01-16 02:16:24.40	261.17	11.34	-28.1	-30.1	14.1	1.50e-06	0	45	0	1550843904	16	4547
2026-01-16 02:16:25.40	261.05	11.27	-28.0	-29.8	14.3	7.00e-07	0	44	0	1553989632	16	4446
2026-01-16 02:16:26.40	260.94	11.19	-27.8	-30.0	14.3	2.20e-06	0	44	0	1557135360	15	4613
2026-01-16 02:16:27.41	260.82	11.12	-27.8	-30.0	14.2	2.20e-06	0	44	0	1560281088	15	4626
2026-01-16 02:16:28.40	260.71	11.05	-27.9	-30.2	14.1	9.10e-06	0	44	0	1563426816	15	4675
2026-01-16 02:16:29.41	260.59	10.98	-27.9	-30.3	14.1	2.20e-06	0	44	0	1566572544	15	4710
2026-01-16 02:16:30.40	260.48	10.91	-28.4	-30.8	13.7	6.10e-06	0	44	0	1569718272	16	4740
2026-01-16 02:16:31.41	260.37	10.83	-28.4	-30.8	13.6	1.44e-05	0	44	0	1572864000	16	4749
2026-01-16 02:16:32.40	260.26	10.76	-28.5	-30.7	13.4	2.05e-05	0	44	0	1576009728	17	4615
2026-01-16 02:16:33.40	260.15	10.69	-28.5	-30.5	13.4	1.83e-05	0	44	0	1579155456	17	4567
2026-01-16 02:16:34.40	260.04	10.62	-28.6	-30.8	13.3	2.59e-05	0	45	0	1582301184	17	4656
2026-01-16 02:16:35.40	259.93	10.55	-28.7	-31.2	13.1	3.66e-05	0	44	0	1585446912	17	4769
2026-01-16 02:16:36.40	259.82	10.48	-28.6	-30.9	13.2	2.74e-05	0	44	0	1588592640	17	4685
2026-01-16 02:16:37.40	259.71	10.41	-28.6	-30.9	13.2	3.43e-05	0	44	0	1591738368	17	4674
2026-01-16 02:16:38.41	259.60	10.33	-28.5	-30.6	13.4	2.28e-05	0	44	0	1594884096	17	4579
2026-01-16 02:16:39.41	259.49	10.26	-28.4	-30.9	13.5	1.37e-05	0	44	0	1598029824	16	4794
2026-01-16 02:16:40.40	259.39	10.19	-28.4	-30.9	13.5	2.21e-05	0	44	0	1601175552	16	4782
2026-01-16 02:16:41.41	259.28	10.12	-28.2	-30.4	13.7	9.90e-06	0	44	0	1604321280	16	4644
2026-01-16 02:16:42.41	259.18	10.05	-28.5	-31.0	13.4	6.10e-06	0	44	0	1607467008	16	4815
2026-01-16 02:16:43.42	259.07	9.98	-28.4	-30.4	13.5	2.51e-05	0	44	0	1610612736	17	4514
2026-01-16 02:16:44.43	258.96	9.91	-28.2	-29.9	13.7	8.30e-06	0	44	0	1612709888	17	4383
2026-01-16 02:16:45.43	258.86	9.84	-28.3	-30.6	13.6	8.30e-06	0	44	0	1615855616	16	4698
2026-01-16 02:16:46.43	258.75	9.77	-28.4	-30.8	13.5	1.14e-05	0	44	0	1619001344	16	4747
2026-01-16 02:16:47.44	258.65	9.70	-28.4	-30.9	13.5	7.60e-06	0	45	0	1622147072	16	4776
2026-01-16 02:16:48.45	258.55	9.63	-28.4	-31.0	13.4	1.06e-05	0	44	0	1625292800	16	4812
2026-01-16 02:16:49.44	258.45	9.56	-28.5	-30.7	13.3	2.28e-05	0	44	0	1628438528	17	4607
2026-01-16 02:16:50.45	258.34	9.49	-28.6	-30.8	13.2	3.12e-05	0	44	0	1631584256	17	4646
2026-01-16 02:16:51.45	258.24	9.42	-28.7	-31.1	13.0	2.51e-05	0	44	0	1635778560	17	4734
2026-01-16 02:16:52.46	258.14	9.35	-28.6	-31.0	13.1	3.05e-05	0	44	0	1637875712	17	4713
2026-01-16 02:16:53.46	258.04	9.28	-28.7	-31.1	13.0	4.92e-04	0	44	0	1641021440	17	4756
2026-01-16 02:16:54.46	257.94	9.21	-28.8	-31.4	12.8	3.96e-05	0	44	0	1644167168	17	4863
2026-01-16 02:16:55.46	257.84	9.14	-28.9	-31.6	12.6	7.47e-05	0	44	0	1647312896	17	4920
2026-01-16 02:16:56.46	257.74	9.07	-29.0	-31.9	12.5	9.76e-05	0	44	0	1650458624	17	5009
2026-01-16 02:16:57.46	257.64	9.00	-29.0	-31.3	12.6	9.61e-05	0	44	0	1653604352	18	4700
2026-01-16 02:16:58.46	257.54	8.93	-29.0	-31.3	12.5	2.53e-04	0	44	0	1656750080	18	4715
2026-01-16 02:16:59.46	257.45	8.86	-29.0	-31.3	12.5	1.47e-04	0	44	0	1659895808	18	4708
2026-01-16 02:17:00.45	257.35	8.79	-28.9	-31.2	12.6	9.61e-05	0	44	0	1663041536	18	4680
2026-01-16 02:17:01.45	257.25	8.72	-29.0	-31.3	12.5	1.37e-04	0	44	0	1666187264	18	4717
2026-01-16 02:17:02.45	257.16	8.66	-29.0	-31.4	12.5	1.35e-04	0	44	0	1669332992	18	4733
2026-01-16 02:17:03.45	257.06	8.59	-29.0	-31.4	12.4	1.40e-04	0	44	0	1672478720	18	4740
2026-01-16 02:17:04.46	256.97	8.52	-29.2	-31.9	12.1	1.31e-03	0	44	0	1675624448	18	4911
2026-01-16 02:17:05.46	256.87	8.45	-29.1	-31.7	12.2	2.43e-04	0	44	0	1678770176	18	4854
2026-01-16 02:17:06.47	256.78	8.38	-28.9	-31.1	12.6	1.09e-04	0	44	0	1681915904	18	4659
2026-01-16 02:17:07.47	256.68	8.31	-28.8	-31.5	12.6	9.53e-05	0	44	0	1685061632	17	4884
2026-01-16 02:17:08.47	256.59	8.25	-29.1	-31.6	12.3	2.05e-03	0	44	0	1688207360	18	4807
2026-01-16 02:17:09.47	256.50	8.18	-28.9	-31.0	12.6	8.85e-05	0	44	0	1691353088	18	4625
2026-01-16 02:17:10.47	256.40	8.11	-29.0	-31.4	12.4	1.04e-04	0	44	0	1694498816	18	4759
2026-01-16 02:17:11.48	256.31	8.04	-29.0	-31.4	12.3	1.54e-04	0	44	0	1697644544	18	4751
2026-01-16 02:17:12.48	256.22	7.98	-29.0	-31.5	12.3	1.61e-04	0	44	0	1700790272	18	4779
2026-01-16 02:17:13.48	256.13	7.91	-29.2	-32.0	12.0	2.40e-03	0	44	0	1703936000	18	4942
2026-01-16 02:17:14.49	256.04	7.84	-29.1	-31.6	12.3	2.25e-03	0	44	0	1707081728	18	4800
2026-01-16 02:17:15.49	255.95	7.77	-29.6	-32.6	11.3	1.03e-03	0	44	0	1710227456	19	5056
2026-01-16 02:17:16.48	255.86	7.71	-29.6	-32.4	11.3	1.87e-03	0	44	0	1713373184	19	5003
2026-01-16 02:17:17.48	255.77	7.64	-29.4	-32.5	11.6	1.88e-03	0	44	0	1716518912	18	5144
2026-01-16 02:17:18.49	255.68	7.57	-29.4	-32.5	11.6	6.45e-04	0	44	0	1719664640	18	5152
2026-01-16 02:17:19.50	255.59	7.50	-29.7	-32.9	11.0	2.18e-03	0	44	0	1722810368	19	5177
2026-01-16 02:17:20.50	255.50	7.44	-29.7	-32.8	11.1	2.18e-03	0	44	0	1725956096	19	5137
2026-01-16 02:17:21.51	255.41	7.37	-29.6	-32.7	11.2	1.43e-03	0	44	0	1729101824	19	5095
2026-01-16 02:17:22.51	255.33	7.30	-29.5	-32.3	11.4	1.19e-03	0	44	0	1732247552	19	4947
2026-01-16 02:17:23.52	255.24	7.24	-29.9	-33.4	10.7	1.89e-03	0	44	0	1735393280	19	5369
2026-01-16 02:17:24.53	255.15	7.17	-29.7	-32.8	11.0	1.78e-03	0	44	0	1738539008	19	5152
2026-01-16 02:17:25.53	255.06	7.11	-29.7	-32.7	11.1	1.62e-03	0	44	0	1741684736	19	5102
2026-01-16 02:17:26.53	254.98	7.04	-33.0	-44.8	3.8	2.57e-01	0	44	104	1744830464	26	13911
2026-01-16 02:17:27.52	254.89	6.97	-33.4	-45.6	3.8	1.49e+00	0	44	104	1744830464	26	14698
2026-01-16 02:17:28.52	254.81	6.91	-33.6	-45.6	3.8	1.49e+00	0	44	104	1744830464	27	14308
2026-01-16 02:17:29.53	254.72	6.84	-33.9	-46.1	3.8	1.49e+00	0	44	104	1744830464	27	14724

#Closed at: 2026-01-16 02:17:30
#Recorded file [1744 MB]: D:/data/31010_260116_050807.dat