passes_logs/2026/01/16/R2M6_AANII_01/R2M6_AANII_01__20260116_123216_SUOMI_NPP_rec.log

#Pass ID: 20260116_123216_SUOMI NPP
#Satellite: SUOMI NPP
#Configuration: NPP
#almurnet v.1.7.20240730
#Start time: 2026-01-16 12:32:17

#Version: 2.2.20231116
#Station: R2M6_AANII_01
#Location: 30.233357 lon 59.946436 lat
#TLE: 1 37849U 11061A   26015.52691075  .00000052  00000+0  45753-4 0  9993
#TLE: 2 37849  98.7811 317.5709 0002448  62.7632 297.3794 14.19525354736784

#Time	Az	El	Level	Level2	SNR	BER	BlckErr	Temp	State	Recorded	gain1	gain2
2026-01-16 12:32:17.25	233.53	7.04	-30.9	-33.5	5.4	1.13e+00	0	40	0	0	23	4847
2026-01-16 12:32:18.25	233.65	7.09	-31.6	-36.3	4.9	1.22e+00	0	40	104	0	23	6197
2026-01-16 12:32:19.25	233.77	7.14	-31.6	-36.1	7.9	8.51e-02	0	40	0	0	23	6027
2026-01-16 12:32:20.25	233.90	7.19	-31.7	-36.6	7.6	1.08e-01	0	40	0	1048576	23	6300
2026-01-16 12:32:21.25	234.02	7.24	-31.5	-35.6	8.2	6.15e-02	0	40	0	3145728	23	5780
2026-01-16 12:32:22.26	234.15	7.29	-31.2	-34.3	9.2	3.33e-02	0	40	0	5242880	23	5178
2026-01-16 12:32:23.26	234.27	7.34	-30.7	-33.3	10.4	1.06e-02	0	40	0	7340032	22	4819
2026-01-16 12:32:24.26	234.40	7.39	-30.9	-33.9	10.0	6.13e-03	0	41	0	9437184	22	5085
2026-01-16 12:32:25.27	234.53	7.45	-31.1	-34.3	9.7	1.09e-02	0	41	0	10485760	22	5240
2026-01-16 12:32:26.27	234.65	7.50	-30.9	-33.7	10.2	8.47e-03	0	41	0	12582912	22	4982
2026-01-16 12:32:27.27	234.78	7.55	-30.6	-32.6	11.0	2.83e-03	0	41	0	14680064	22	4557
2026-01-16 12:32:28.27	234.91	7.60	-30.5	-32.3	11.3	1.63e-03	0	41	0	16777216	22	4434
2026-01-16 12:32:29.27	235.04	7.65	-30.2	-32.1	11.8	8.64e-04	0	41	0	17825792	21	4452
2026-01-16 12:32:30.27	235.17	7.70	-30.2	-32.0	11.9	5.14e-04	0	41	0	19922944	21	4410
2026-01-16 12:32:31.27	235.29	7.75	-30.4	-32.7	11.4	6.29e-04	0	41	0	22020096	21	4682
2026-01-16 12:32:32.28	235.42	7.80	-30.5	-33.0	11.1	1.89e-03	0	41	0	24117248	21	4793
2026-01-16 12:32:33.29	235.56	7.85	-30.3	-32.3	11.6	1.18e-03	0	41	0	26214400	21	4522
2026-01-16 12:32:34.29	235.69	7.90	-30.3	-32.2	11.7	5.42e-04	0	41	0	27262976	21	4492
2026-01-16 12:32:35.29	235.82	7.95	-30.2	-31.9	11.9	5.35e-04	0	41	0	29360128	21	4392
2026-01-16 12:32:36.29	235.95	8.00	-30.2	-31.9	12.0	2.83e-04	0	41	0	31457280	21	4385
2026-01-16 12:32:37.29	236.08	8.05	-30.5	-32.7	11.4	8.19e-04	0	41	0	33554432	21	4679
2026-01-16 12:32:38.29	236.21	8.10	-30.5	-32.8	11.3	6.73e-04	0	41	0	35651584	21	4713
2026-01-16 12:32:39.29	236.34	8.15	-30.4	-32.6	11.5	1.02e-03	0	41	0	36700160	21	4629
2026-01-16 12:32:40.29	236.48	8.20	-30.2	-32.1	11.9	5.47e-04	0	41	0	38797312	21	4444
2026-01-16 12:32:41.29	236.61	8.26	-30.4	-32.4	11.6	4.91e-04	0	41	0	40894464	21	4565
2026-01-16 12:32:42.28	236.74	8.31	-30.3	-32.1	11.8	4.93e-04	0	41	0	42991616	21	4454
2026-01-16 12:32:43.28	236.88	8.36	-30.4	-32.4	11.7	5.28e-04	0	41	0	45088768	21	4543
2026-01-16 12:32:44.28	237.01	8.41	-30.4	-32.4	11.6	6.19e-04	0	41	0	46137344	21	4558
2026-01-16 12:32:45.29	237.15	8.46	-30.2	-31.8	12.1	3.32e-04	0	41	0	48234496	21	4341
2026-01-16 12:32:46.28	237.28	8.51	-30.3	-32.0	12.0	3.83e-04	0	41	0	50331648	21	4415
2026-01-16 12:32:47.29	237.42	8.56	-30.3	-32.3	11.8	4.27e-04	0	41	0	52428800	21	4495
2026-01-16 12:32:48.29	237.55	8.61	-30.4	-32.3	11.7	4.87e-04	0	41	0	53477376	21	4521
2026-01-16 12:32:49.29	237.69	8.66	-30.5	-32.8	11.4	1.17e-03	0	41	0	55574528	21	4677
2026-01-16 12:32:50.30	237.83	8.71	-30.5	-32.7	11.5	6.23e-04	0	41	0	57671680	21	4663
2026-01-16 12:32:51.30	237.97	8.76	-30.5	-32.8	11.4	9.37e-04	0	41	0	59768832	21	4687
2026-01-16 12:32:52.30	238.11	8.81	-30.3	-32.2	11.9	6.28e-04	0	41	0	61865984	21	4477
2026-01-16 12:32:53.30	238.24	8.86	-30.5	-32.6	11.6	5.64e-04	0	41	0	62914560	21	4619
2026-01-16 12:32:54.30	238.38	8.91	-30.6	-32.9	11.3	1.26e-03	0	41	0	65011712	21	4730
2026-01-16 12:32:55.30	238.52	8.96	-30.4	-32.5	11.7	7.86e-04	0	41	0	67108864	21	4578
2026-01-16 12:32:56.30	238.66	9.01	-30.3	-32.2	11.9	4.33e-04	0	41	0	69206016	21	4485
2026-01-16 12:32:57.30	238.80	9.06	-30.4	-32.5	11.7	4.23e-04	0	41	0	71303168	21	4564
2026-01-16 12:32:58.30	238.94	9.11	-30.5	-32.8	11.5	6.76e-04	0	41	0	72351744	21	4674
2026-01-16 12:32:59.30	239.09	9.16	-30.5	-32.8	11.5	6.92e-04	0	41	0	74448896	21	4685
2026-01-16 12:33:00.30	239.23	9.21	-30.5	-32.7	11.6	1.13e-03	0	41	0	76546048	21	4636
2026-01-16 12:33:01.31	239.37	9.26	-30.3	-32.2	11.9	3.57e-04	0	42	0	78643200	21	4454
2026-01-16 12:33:02.31	239.51	9.30	-30.1	-31.4	12.4	1.40e-04	0	42	0	80740352	21	4213
2026-01-16 12:33:03.32	239.66	9.35	-30.0	-31.4	12.5	1.50e-04	0	42	0	81788928	21	4199
2026-01-16 12:33:04.32	239.80	9.40	-30.1	-31.4	12.5	1.17e-04	0	41	0	83886080	21	4197
2026-01-16 12:33:05.32	239.95	9.45	-30.0	-31.1	12.7	1.02e-04	0	41	0	85983232	21	4121
2026-01-16 12:33:06.32	240.09	9.50	-30.0	-31.4	12.5	7.55e-05	0	42	0	88080384	21	4199
2026-01-16 12:33:07.32	240.24	9.55	-30.1	-31.6	12.3	1.92e-04	0	42	0	90177536	21	4273
2026-01-16 12:33:08.33	240.38	9.60	-30.0	-31.2	12.6	1.30e-04	0	42	0	91226112	21	4125
2026-01-16 12:33:09.33	240.53	9.65	-29.8	-30.6	13.0	8.16e-05	0	42	0	93323264	21	3956
2026-01-16 12:33:10.34	240.68	9.70	-29.8	-31.2	12.9	3.96e-05	0	42	0	95420416	20	4239
2026-01-16 12:33:11.34	240.83	9.75	-29.8	-31.2	13.0	3.43e-05	0	41	0	97517568	20	4229
2026-01-16 12:33:12.35	240.98	9.80	-30.0	-31.7	12.6	1.04e-04	0	41	0	98566144	20	4385
2026-01-16 12:33:13.35	241.12	9.85	-29.8	-31.3	13.0	4.80e-05	0	42	0	100663296	20	4242
2026-01-16 12:33:14.35	241.27	9.90	-29.7	-30.8	13.2	2.13e-05	0	42	0	102760448	20	4105
2026-01-16 12:33:15.35	241.42	9.94	-29.6	-30.7	13.4	1.37e-05	0	42	0	104857600	20	4055
2026-01-16 12:33:16.36	241.57	9.99	-29.6	-30.6	13.4	1.52e-05	0	41	0	106954752	20	4036
2026-01-16 12:33:17.36	241.72	10.04	-29.5	-30.4	13.5	1.44e-05	0	42	0	108003328	20	3977
2026-01-16 12:33:18.35	241.87	10.09	-29.5	-30.4	13.6	1.14e-05	0	42	0	110100480	20	3974
2026-01-16 12:33:19.36	242.02	10.14	-29.7	-30.7	13.3	2.44e-05	0	42	0	112197632	20	4078
2026-01-16 12:33:20.36	242.17	10.19	-29.5	-30.3	13.6	1.14e-05	0	42	0	114294784	20	3955
2026-01-16 12:33:21.36	242.33	10.23	-29.5	-30.2	13.6	7.60e-06	0	42	0	116391936	20	3929
2026-01-16 12:33:22.37	242.48	10.28	-29.4	-30.2	13.7	7.60e-06	0	42	0	117440512	20	3907
2026-01-16 12:33:23.36	242.63	10.33	-29.7	-30.7	13.3	8.30e-06	0	42	0	119537664	20	4077
2026-01-16 12:33:24.37	242.79	10.38	-29.7	-30.9	13.2	1.22e-05	0	42	0	121634816	20	4137
2026-01-16 12:33:25.37	242.94	10.43	-29.8	-31.1	13.1	6.02e-05	0	42	0	123731968	20	4194
2026-01-16 12:33:26.37	243.09	10.47	-29.8	-31.0	13.1	3.58e-05	0	42	0	125829120	20	4167
2026-01-16 12:33:27.37	243.25	10.52	-29.7	-30.9	13.2	2.36e-05	0	42	0	126877696	20	4140
2026-01-16 12:33:28.37	243.40	10.57	-29.9	-31.3	13.0	2.44e-05	0	42	0	128974848	20	4257
2026-01-16 12:33:29.37	243.56	10.62	-29.9	-31.4	13.0	3.50e-05	0	42	0	131072000	20	4266
2026-01-16 12:33:30.37	243.72	10.66	-29.8	-31.2	13.1	3.73e-05	0	42	0	133169152	20	4210
2026-01-16 12:33:31.37	243.87	10.71	-29.7	-30.9	13.3	2.13e-05	0	42	0	135266304	20	4118
2026-01-16 12:33:32.37	244.03	10.76	-29.7	-30.9	13.3	2.05e-05	0	42	0	136314880	20	4117
2026-01-16 12:33:33.37	244.19	10.81	-29.9	-31.3	13.1	2.13e-05	0	42	0	138412032	20	4234
2026-01-16 12:33:34.37	244.35	10.85	-30.0	-31.6	12.8	3.50e-05	0	42	0	140509184	20	4345
2026-01-16 12:33:35.37	244.51	10.90	-29.9	-31.5	12.9	4.73e-05	0	42	0	142606336	20	4300
2026-01-16 12:33:36.37	244.67	10.95	-30.1	-31.8	12.6	9.38e-05	0	42	0	143654912	20	4426
2026-01-16 12:33:37.38	244.83	10.99	-30.0	-31.7	12.7	8.16e-05	0	42	0	145752064	20	4366
2026-01-16 12:33:38.38	244.99	11.04	-29.9	-31.2	13.1	5.34e-05	0	42	0	147849216	20	4226
2026-01-16 12:33:39.39	245.15	11.09	-29.9	-31.4	13.0	4.04e-05	0	42	0	149946368	20	4258
2026-01-16 12:33:40.39	245.31	11.13	-29.9	-31.5	12.9	5.41e-05	0	42	0	152043520	20	4305
2026-01-16 12:33:41.39	245.47	11.18	-30.1	-31.8	12.7	5.95e-05	0	42	0	153092096	20	4384
2026-01-16 12:33:42.39	245.63	11.23	-29.9	-31.5	12.9	7.40e-05	0	42	0	155189248	20	4306
2026-01-16 12:33:43.39	245.80	11.27	-29.9	-31.3	13.1	3.58e-05	0	42	0	157286400	20	4240
2026-01-16 12:33:44.40	245.96	11.32	-29.8	-31.2	13.1	3.05e-05	0	42	0	159383552	20	4193
2026-01-16 12:33:45.40	246.13	11.36	-29.9	-31.4	13.0	3.12e-05	0	42	0	161480704	20	4286
2026-01-16 12:33:46.40	246.29	11.41	-29.9	-31.4	13.0	4.19e-05	0	42	0	162529280	20	4257
2026-01-16 12:33:47.40	246.45	11.45	-29.9	-31.4	13.0	3.81e-05	0	42	0	164626432	20	4257
2026-01-16 12:33:48.41	246.62	11.50	-30.1	-31.8	12.7	4.88e-05	0	42	0	166723584	20	4382
2026-01-16 12:33:49.41	246.79	11.55	-30.2	-32.1	12.5	9.46e-05	0	42	0	168820736	20	4511
2026-01-16 12:33:50.41	246.95	11.59	-30.1	-31.8	12.7	5.87e-05	0	42	0	170917888	20	4403
2026-01-16 12:33:51.41	247.12	11.64	-30.2	-32.1	12.5	7.01e-05	0	42	0	171966464	20	4496
2026-01-16 12:33:52.41	247.29	11.68	-30.0	-31.7	12.8	5.72e-05	0	42	0	174063616	20	4370
2026-01-16 12:33:53.42	247.46	11.73	-30.1	-31.9	12.7	5.79e-05	0	42	0	176160768	20	4435
2026-01-16 12:33:54.42	247.62	11.77	-30.2	-32.0	12.6	6.33e-05	0	42	0	178257920	20	4469
2026-01-16 12:33:55.43	247.79	11.81	-30.1	-32.0	12.6	8.77e-05	0	42	0	180355072	20	4454
2026-01-16 12:33:56.44	247.96	11.86	-30.0	-31.5	13.0	4.34e-05	0	42	0	181403648	20	4299
2026-01-16 12:33:57.44	248.13	11.90	-29.9	-31.4	13.0	4.27e-05	0	42	0	183500800	20	4273
2026-01-16 12:33:58.44	248.30	11.95	-30.1	-32.0	12.6	6.33e-05	0	42	0	185597952	20	4454
2026-01-16 12:33:59.44	248.48	11.99	-30.1	-31.9	12.7	7.62e-05	0	42	0	187695104	20	4427
2026-01-16 12:34:00.44	248.65	12.03	-30.2	-32.0	12.7	6.79e-05	0	42	0	188743680	20	4463
2026-01-16 12:34:01.44	248.82	12.08	-30.2	-32.1	12.5	8.16e-05	0	42	0	190840832	20	4502
2026-01-16 12:34:02.44	248.99	12.12	-30.2	-32.1	12.6	9.61e-05	0	42	0	192937984	20	4483
2026-01-16 12:34:03.44	249.16	12.16	-30.1	-32.0	12.6	1.27e-04	0	42	0	195035136	20	4455
2026-01-16 12:34:04.44	249.34	12.21	-30.0	-31.7	12.9	5.95e-05	0	42	0	197132288	20	4352
2026-01-16 12:34:05.45	249.51	12.25	-30.1	-31.9	12.7	5.03e-05	0	42	0	198180864	20	4428
2026-01-16 12:34:06.45	249.68	12.29	-30.0	-31.7	12.9	5.26e-05	0	42	0	200278016	20	4362
2026-01-16 12:34:07.46	249.86	12.34	-30.2	-32.1	12.6	7.09e-05	0	42	0	202375168	20	4492
2026-01-16 12:34:08.46	250.04	12.38	-30.2	-32.3	12.5	1.08e-04	0	42	0	204472320	20	4552
2026-01-16 12:34:09.46	250.21	12.42	-30.1	-31.9	12.7	7.55e-05	0	42	0	206569472	20	4411
2026-01-16 12:34:10.47	250.39	12.46	-30.2	-32.0	12.7	7.32e-05	0	42	0	207618048	20	4463
2026-01-16 12:34:11.47	250.57	12.51	-30.3	-32.3	12.5	1.07e-04	0	42	0	209715200	20	4549
2026-01-16 12:34:12.46	250.74	12.55	-30.3	-32.3	12.5	1.28e-04	0	42	0	211812352	20	4547
2026-01-16 12:34:13.46	250.92	12.59	-30.2	-32.1	12.6	1.11e-04	0	42	0	213909504	20	4502
2026-01-16 12:34:14.47	251.10	12.63	-30.2	-32.2	12.6	1.01e-04	0	42	0	216006656	20	4510
2026-01-16 12:34:15.47	251.28	12.67	-30.3	-32.4	12.5	6.33e-05	0	42	0	217055232	20	4569
2026-01-16 12:34:16.47	251.46	12.71	-30.3	-32.4	12.4	1.58e-04	0	42	0	219152384	20	4575
2026-01-16 12:34:17.47	251.63	12.75	-30.3	-32.5	12.4	9.30e-05	0	42	0	221249536	20	4612
2026-01-16 12:34:18.48	251.82	12.79	-30.3	-32.5	12.4	1.64e-04	0	42	0	223346688	20	4616
2026-01-16 12:34:19.48	252.00	12.83	-30.5	-32.9	12.1	1.45e-04	0	42	0	225443840	20	4778
2026-01-16 12:34:20.48	252.18	12.87	-30.6	-32.9	11.8	4.20e-04	0	42	0	226492416	21	4664
2026-01-16 12:34:21.48	252.36	12.91	-30.7	-33.1	11.6	6.62e-04	0	42	0	228589568	21	4746
2026-01-16 12:34:22.48	252.54	12.95	-30.8	-33.4	11.5	6.51e-04	0	42	0	230686720	21	4838
2026-01-16 12:34:23.48	252.72	12.99	-30.8	-33.3	11.5	9.07e-04	0	42	0	232783872	21	4830
2026-01-16 12:34:24.49	252.91	13.03	-30.7	-33.1	11.6	8.02e-04	0	42	0	233832448	21	4750
2026-01-16 12:34:25.49	253.09	13.07	-30.9	-33.6	11.3	1.01e-03	0	42	0	235929600	21	4911
2026-01-16 12:34:26.48	253.27	13.11	-30.9	-33.6	11.4	1.09e-03	0	42	0	238026752	21	4925
2026-01-16 12:34:27.49	253.46	13.15	-31.0	-33.5	11.0	2.02e-03	0	42	0	240123904	22	4787
2026-01-16 12:34:28.49	253.64	13.19	-30.8	-32.9	11.5	1.20e-03	0	42	0	242221056	22	4562
2026-01-16 12:34:29.50	253.83	13.23	-30.7	-32.5	11.8	6.55e-04	0	42	0	243269632	22	4427
2026-01-16 12:34:30.50	254.01	13.27	-30.7	-32.5	11.8	3.78e-04	0	42	0	245366784	22	4424
2026-01-16 12:34:31.50	254.20	13.30	-30.7	-32.5	11.9	4.76e-04	0	42	0	247463936	22	4419
2026-01-16 12:34:32.49	254.39	13.34	-30.7	-32.5	11.8	4.52e-04	0	42	0	249561088	22	4439
2026-01-16 12:34:33.49	254.57	13.38	-30.7	-32.5	11.8	5.42e-04	0	42	0	251658240	22	4435
2026-01-16 12:34:34.49	254.76	13.42	-30.7	-32.6	11.7	6.55e-04	0	42	0	252706816	22	4467
2026-01-16 12:34:35.49	254.95	13.45	-30.8	-32.8	11.5	7.18e-04	0	42	0	254803968	22	4553
2026-01-16 12:34:36.49	255.14	13.49	-30.9	-33.0	11.4	7.13e-04	0	42	0	256901120	22	4626
2026-01-16 12:34:37.48	255.32	13.53	-30.9	-33.2	11.3	1.37e-03	0	43	0	258998272	22	4662
2026-01-16 12:34:38.48	255.51	13.56	-30.9	-33.2	11.3	1.17e-03	0	42	0	261095424	22	4698
2026-01-16 12:34:39.48	255.70	13.60	-31.1	-33.7	10.9	1.54e-03	0	42	0	262144000	22	4888
2026-01-16 12:34:40.48	255.89	13.63	-31.0	-33.5	11.0	1.68e-03	0	43	0	264241152	22	4813
2026-01-16 12:34:41.49	256.08	13.67	-31.0	-33.5	11.0	2.01e-03	0	42	0	266338304	22	4810
2026-01-16 12:34:42.48	256.27	13.71	-31.1	-33.9	10.8	2.10e-03	0	42	0	268435456	22	4955
2026-01-16 12:34:43.49	256.47	13.74	-31.1	-33.9	10.8	2.22e-03	0	42	0	269484032	22	4934
2026-01-16 12:34:44.48	256.66	13.78	-31.1	-33.8	10.8	1.96e-03	0	42	0	271581184	22	4911
2026-01-16 12:34:45.48	256.85	13.81	-31.3	-34.4	10.5	3.51e-03	0	42	0	273678336	22	5130
2026-01-16 12:34:46.49	257.04	13.85	-31.2	-34.0	10.7	2.52e-03	0	42	0	275775488	22	4998
2026-01-16 12:34:47.49	257.24	13.88	-31.2	-34.1	10.6	4.69e-03	0	43	0	277872640	22	5026
2026-01-16 12:34:48.49	257.43	13.91	-31.0	-33.6	11.1	2.33e-03	0	43	0	278921216	22	4817
2026-01-16 12:34:49.49	257.62	13.95	-30.9	-33.0	11.5	1.27e-03	0	42	0	281018368	22	4593
2026-01-16 12:34:50.49	257.82	13.98	-30.8	-32.7	11.6	8.03e-04	0	42	0	283115520	22	4507
2026-01-16 12:34:51.48	258.01	14.01	-30.7	-32.6	11.8	4.62e-04	0	42	0	285212672	22	4445
2026-01-16 12:34:52.49	258.21	14.05	-30.7	-32.6	11.8	6.13e-04	0	43	0	287309824	22	4468
2026-01-16 12:34:53.48	258.40	14.08	-30.9	-33.0	11.5	7.30e-04	0	43	0	288358400	22	4613
2026-01-16 12:34:54.49	258.60	14.11	-30.8	-32.7	11.7	9.09e-04	0	43	0	290455552	22	4515
2026-01-16 12:34:55.49	258.80	14.14	-30.9	-33.1	11.4	8.09e-04	0	42	0	292552704	22	4633
2026-01-16 12:34:56.50	258.99	14.18	-31.0	-33.3	11.2	1.29e-03	0	42	0	294649856	22	4726
2026-01-16 12:34:57.51	259.19	14.21	-31.0	-33.5	11.1	1.23e-03	0	43	0	296747008	22	4800
2026-01-16 12:34:58.51	259.39	14.24	-30.8	-32.8	11.7	8.77e-04	0	42	0	297795584	22	4515
2026-01-16 12:34:59.51	259.59	14.27	-30.7	-32.6	11.8	6.18e-04	0	42	0	299892736	22	4454
2026-01-16 12:35:00.51	259.79	14.30	-30.7	-32.6	11.8	4.53e-04	0	43	0	301989888	22	4451
2026-01-16 12:35:01.51	259.99	14.33	-30.7	-32.5	11.9	5.01e-04	0	42	0	304087040	22	4417
2026-01-16 12:35:02.51	260.19	14.36	-30.7	-32.5	11.8	3.45e-04	0	43	0	306184192	22	4435
2026-01-16 12:35:03.51	260.39	14.39	-30.6	-32.2	12.0	2.35e-04	0	43	0	307232768	22	4322
2026-01-16 12:35:04.51	260.59	14.42	-30.6	-32.2	12.1	1.88e-04	0	43	0	309329920	22	4319
2026-01-16 12:35:05.51	260.79	14.45	-30.6	-32.2	12.1	2.66e-04	0	42	0	311427072	22	4309
2026-01-16 12:35:06.51	260.99	14.48	-30.5	-31.8	12.3	1.84e-04	0	43	0	313524224	22	4201
2026-01-16 12:35:07.52	261.19	14.51	-30.3	-31.3	12.6	1.42e-04	0	42	0	314572800	22	4048
2026-01-16 12:35:08.52	261.39	14.54	-30.3	-31.7	12.7	7.55e-05	0	43	0	316669952	21	4260
2026-01-16 12:35:09.52	261.59	14.57	-30.4	-32.1	12.4	6.40e-05	0	43	0	318767104	21	4394
2026-01-16 12:35:10.51	261.79	14.59	-30.3	-31.9	12.6	1.52e-04	0	42	0	320864256	21	4323
2026-01-16 12:35:11.52	262.00	14.62	-30.1	-31.4	13.0	4.80e-05	0	42	0	322961408	21	4152
2026-01-16 12:35:12.51	262.20	14.65	-30.0	-31.0	13.2	1.98e-05	0	42	0	324009984	21	4039
2026-01-16 12:35:13.51	262.40	14.67	-29.9	-30.9	13.3	2.82e-05	0	42	0	326107136	21	3998
2026-01-16 12:35:14.51	262.61	14.70	-30.0	-31.1	13.1	2.82e-05	0	43	0	328204288	21	4058
2026-01-16 12:35:15.52	262.81	14.73	-30.1	-31.4	13.0	2.44e-05	0	42	0	330301440	21	4150
2026-01-16 12:35:16.52	263.02	14.75	-30.1	-31.3	13.0	8.39e-05	0	43	0	332398592	21	4136
2026-01-16 12:35:17.52	263.22	14.78	-30.1	-31.2	13.1	5.18e-05	0	43	0	333447168	21	4085
2026-01-16 12:35:18.52	263.43	14.81	-30.0	-30.9	13.3	1.75e-05	0	43	0	335544320	21	3993
2026-01-16 12:35:19.52	263.63	14.83	-29.9	-30.8	13.3	1.44e-05	0	42	0	337641472	21	3962
2026-01-16 12:35:20.52	263.84	14.86	-29.9	-30.8	13.4	1.60e-05	0	42	0	339738624	21	3984
2026-01-16 12:35:21.52	264.04	14.88	-29.9	-30.8	13.4	1.22e-05	0	43	0	340787200	21	3968
2026-01-16 12:35:22.52	264.25	14.90	-29.7	-30.7	13.7	6.10e-06	0	42	0	342884352	20	4030
2026-01-16 12:35:23.52	264.46	14.93	-29.7	-30.6	13.8	1.06e-05	0	43	0	344981504	20	3995
2026-01-16 12:35:24.52	264.67	14.95	-29.6	-30.4	13.9	1.50e-06	0	42	0	347078656	20	3934
2026-01-16 12:35:25.52	264.87	14.97	-29.5	-30.2	14.0	3.00e-06	0	43	0	349175808	20	3881
2026-01-16 12:35:26.51	265.08	15.00	-29.8	-31.0	13.5	5.30e-06	0	43	0	350224384	20	4120
2026-01-16 12:35:27.52	265.29	15.02	-30.0	-31.4	13.3	1.14e-05	0	43	0	352321536	20	4244
2026-01-16 12:35:28.52	265.50	15.04	-30.2	-31.9	13.0	3.05e-05	0	43	0	354418688	20	4402
2026-01-16 12:35:29.51	265.70	15.06	-30.2	-32.0	12.9	3.81e-05	0	43	0	356515840	20	4435
2026-01-16 12:35:30.51	265.91	15.08	-30.2	-31.9	13.0	3.81e-05	0	43	0	358612992	20	4409
2026-01-16 12:35:31.52	266.12	15.11	-30.1	-31.8	13.1	2.89e-05	0	43	0	359661568	20	4358
2026-01-16 12:35:32.52	266.33	15.13	-30.0	-31.5	13.3	1.83e-05	0	43	0	361758720	20	4256
2026-01-16 12:35:33.52	266.54	15.15	-29.8	-30.9	13.7	9.90e-06	0	43	0	363855872	20	4089
2026-01-16 12:35:34.53	266.75	15.17	-29.8	-31.0	13.5	9.90e-06	0	43	0	365953024	20	4120
2026-01-16 12:35:35.54	266.97	15.19	-30.0	-31.5	13.3	2.13e-05	0	43	0	368050176	20	4277
2026-01-16 12:35:36.55	267.18	15.21	-30.2	-31.9	13.1	2.36e-05	0	43	0	369098752	20	4395
2026-01-16 12:35:37.55	267.39	15.23	-30.3	-32.3	12.7	3.73e-05	0	43	0	371195904	20	4524
2026-01-16 12:35:38.55	267.60	15.25	-30.4	-32.5	12.6	8.69e-05	0	43	0	373293056	20	4593
2026-01-16 12:35:39.55	267.81	15.26	-30.3	-32.2	12.8	4.65e-05	0	43	0	375390208	20	4491
2026-01-16 12:35:40.55	268.02	15.28	-30.3	-32.2	12.8	6.56e-05	0	43	0	377487360	20	4507
2026-01-16 12:35:41.55	268.24	15.30	-30.3	-32.4	12.8	4.34e-05	0	43	0	378535936	20	4555
2026-01-16 12:35:42.56	268.45	15.32	-30.4	-32.6	12.6	6.79e-05	0	43	0	380633088	20	4621
2026-01-16 12:35:43.56	268.66	15.33	-30.5	-32.2	12.5	9.76e-05	0	43	0	382730240	21	4404
2026-01-16 12:35:44.56	268.88	15.35	-30.8	-33.1	11.9	1.93e-04	0	43	0	384827392	21	4699
2026-01-16 12:35:45.56	269.09	15.37	-31.0	-33.7	11.5	6.10e-04	0	43	0	385875968	21	4934
2026-01-16 12:35:46.56	269.30	15.38	-31.0	-33.3	11.4	1.04e-03	0	43	0	387973120	22	4677
2026-01-16 12:35:47.57	269.52	15.40	-31.1	-33.5	11.3	1.15e-03	0	43	0	390070272	22	4770
2026-01-16 12:35:48.57	269.73	15.41	-30.9	-32.9	11.7	8.33e-04	0	42	0	392167424	22	4536
2026-01-16 12:35:49.57	269.94	15.43	-30.8	-32.6	11.9	3.68e-04	0	43	0	394264576	22	4463
2026-01-16 12:35:50.58	270.16	15.44	-30.8	-32.8	11.7	4.24e-04	0	43	0	395313152	22	4507
2026-01-16 12:35:51.58	270.37	15.46	-31.0	-33.3	11.4	5.10e-04	0	43	0	397410304	22	4682
2026-01-16 12:35:52.59	270.59	15.47	-31.2	-34.0	10.9	1.82e-03	0	43	0	399507456	22	4943
2026-01-16 12:35:53.58	270.80	15.48	-31.4	-34.6	10.5	3.42e-03	0	43	0	401604608	22	5193
2026-01-16 12:35:54.59	271.02	15.50	-31.6	-34.7	10.0	4.38e-03	0	43	0	403701760	23	5171
2026-01-16 12:35:55.59	271.23	15.51	-31.7	-35.0	9.7	9.57e-03	0	42	0	404750336	23	5296
2026-01-16 12:35:56.59	271.45	15.52	-31.6	-34.9	9.8	1.09e-02	0	42	0	406847488	23	5249
2026-01-16 12:35:57.59	271.66	15.53	-31.7	-35.3	9.5	1.48e-02	0	43	0	408944640	23	5419
2026-01-16 12:35:58.58	271.88	15.55	-31.5	-34.5	10.1	1.16e-02	0	43	0	411041792	23	5086
2026-01-16 12:35:59.59	272.09	15.56	-31.5	-34.6	10.1	6.26e-03	0	42	0	413138944	23	5121
2026-01-16 12:36:00.58	272.31	15.57	-31.5	-34.5	10.1	8.59e-03	0	43	0	414187520	23	5098
2026-01-16 12:36:01.58	272.52	15.58	-31.2	-33.4	11.0	3.71e-03	0	43	0	416284672	23	4647
2026-01-16 12:36:02.59	272.74	15.59	-30.9	-32.4	11.7	1.14e-03	0	43	0	418381824	23	4297
2026-01-16 12:36:03.59	272.96	15.60	-30.7	-32.4	12.0	4.39e-04	0	42	0	420478976	22	4373
2026-01-16 12:36:04.59	273.17	15.61	-30.5	-31.8	12.4	2.29e-04	0	42	0	422576128	22	4200
2026-01-16 12:36:05.59	273.39	15.62	-30.3	-31.3	12.7	9.30e-05	0	43	0	423624704	22	4035
2026-01-16 12:36:06.59	273.60	15.62	-30.2	-31.6	12.9	4.42e-05	0	43	0	425721856	21	4193
2026-01-16 12:36:07.59	273.82	15.63	-30.1	-31.2	13.2	3.35e-05	0	43	0	427819008	21	4100
2026-01-16 12:36:08.59	274.04	15.64	-30.2	-31.4	13.0	3.58e-05	0	43	0	429916160	21	4147
2026-01-16 12:36:09.59	274.25	15.65	-30.1	-31.1	13.2	2.51e-05	0	43	0	430964736	21	4061
2026-01-16 12:36:10.60	274.47	15.65	-30.1	-31.2	13.1	3.35e-05	0	43	0	433061888	21	4080
2026-01-16 12:36:11.60	274.69	15.66	-30.2	-31.6	12.9	4.42e-05	0	42	0	435159040	21	4216
2026-01-16 12:36:12.60	274.91	15.67	-30.3	-31.9	12.7	6.17e-05	0	43	0	437256192	21	4300
2026-01-16 12:36:13.60	275.12	15.67	-30.3	-31.7	12.8	6.40e-05	0	43	0	439353344	21	4251
2026-01-16 12:36:14.60	275.34	15.68	-30.2	-31.5	12.9	5.18e-05	0	43	0	440401920	21	4190
2026-01-16 12:36:15.59	275.56	15.68	-30.3	-31.9	12.6	3.73e-05	0	42	0	442499072	21	4301
2026-01-16 12:36:16.59	275.77	15.69	-30.3	-31.7	12.9	9.23e-05	0	43	0	444596224	21	4233
2026-01-16 12:36:17.60	275.99	15.69	-30.2	-31.6	12.9	6.40e-05	0	43	0	446693376	21	4219
2026-01-16 12:36:18.60	276.21	15.70	-30.3	-31.7	12.8	6.56e-05	0	43	0	448790528	21	4241
2026-01-16 12:36:19.60	276.43	15.70	-30.5	-32.2	12.5	7.09e-05	0	43	0	449839104	21	4411
2026-01-16 12:36:20.60	276.64	15.70	-30.6	-32.5	12.3	2.11e-04	0	43	0	451936256	21	4527
2026-01-16 12:36:21.61	276.86	15.70	-30.7	-32.9	12.0	2.95e-04	0	42	0	454033408	21	4633
2026-01-16 12:36:22.61	277.08	15.71	-30.5	-32.5	12.2	3.24e-04	0	43	0	456130560	21	4501
2026-01-16 12:36:23.61	277.30	15.71	-30.4	-32.2	12.4	1.83e-04	0	42	0	458227712	21	4404
2026-01-16 12:36:24.62	277.52	15.71	-30.4	-32.1	12.5	1.59e-04	0	43	0	459276288	21	4357
2026-01-16 12:36:25.62	277.74	15.71	-30.4	-32.2	12.5	9.99e-05	0	43	0	461373440	21	4393
2026-01-16 12:36:26.63	277.96	15.71	-30.4	-32.2	12.5	1.27e-04	0	43	0	463470592	21	4405
2026-01-16 12:36:27.63	278.17	15.71	-30.5	-32.4	12.3	1.53e-04	0	43	0	465567744	21	4480
2026-01-16 12:36:28.62	278.39	15.71	-30.4	-32.2	12.4	2.26e-04	0	43	0	466616320	21	4404
2026-01-16 12:36:29.63	278.61	15.71	-30.2	-31.5	12.9	1.17e-04	0	43	0	468713472	21	4181
2026-01-16 12:36:30.63	278.83	15.71	-30.2	-31.4	13.0	4.27e-05	0	43	0	470810624	21	4159
2026-01-16 12:36:31.62	279.04	15.71	-30.2	-31.4	13.0	2.82e-05	0	43	0	472907776	21	4162
2026-01-16 12:36:32.63	279.26	15.71	-30.2	-31.4	13.1	3.81e-05	0	43	0	475004928	21	4133
2026-01-16 12:36:33.63	279.48	15.71	-30.2	-31.4	13.0	3.35e-05	0	43	0	476053504	21	4134
2026-01-16 12:36:34.62	279.69	15.70	-30.3	-31.8	12.7	6.94e-05	0	43	0	478150656	21	4283
2026-01-16 12:36:35.63	279.91	15.70	-30.4	-32.1	12.5	1.11e-04	0	43	0	480247808	21	4374
2026-01-16 12:36:36.62	280.13	15.70	-30.5	-32.2	12.5	1.09e-04	0	43	0	482344960	21	4414
2026-01-16 12:36:37.63	280.35	15.69	-30.3	-31.8	12.7	1.07e-04	0	43	0	484442112	21	4267
2026-01-16 12:36:38.63	280.56	15.69	-30.2	-31.4	13.0	3.05e-05	0	43	0	485490688	21	4134
2026-01-16 12:36:39.64	280.78	15.69	-29.8	-30.4	13.6	1.75e-05	0	43	0	487587840	21	3858
2026-01-16 12:36:40.64	281.00	15.68	-30.0	-30.9	13.3	1.60e-05	0	43	0	489684992	21	3998
2026-01-16 12:36:41.64	281.22	15.68	-30.0	-30.9	13.3	2.05e-05	0	43	0	491782144	21	3989
2026-01-16 12:36:42.64	281.43	15.67	-29.9	-30.7	13.5	1.29e-05	0	42	0	493879296	21	3928
2026-01-16 12:36:43.64	281.65	15.67	-30.0	-31.0	13.2	2.13e-05	0	43	0	494927872	21	4031
2026-01-16 12:36:44.63	281.87	15.66	-30.2	-31.5	12.9	2.97e-05	0	43	0	497025024	21	4179
2026-01-16 12:36:45.64	282.08	15.65	-30.1	-31.3	13.1	4.42e-05	0	43	0	499122176	21	4117
2026-01-16 12:36:46.63	282.30	15.65	-30.1	-31.3	13.1	2.74e-05	0	43	0	501219328	21	4104
2026-01-16 12:36:47.64	282.52	15.64	-30.1	-31.2	13.1	3.12e-05	0	43	0	502267904	21	4094
2026-01-16 12:36:48.64	282.73	15.63	-30.3	-31.7	12.7	5.72e-05	0	43	0	504365056	21	4257
2026-01-16 12:36:49.64	282.95	15.62	-30.5	-32.3	12.4	8.46e-05	0	43	0	506462208	21	4442
2026-01-16 12:36:50.65	283.17	15.61	-30.5	-32.4	12.3	1.79e-04	0	43	0	508559360	21	4462
2026-01-16 12:36:51.65	283.38	15.61	-30.6	-32.6	12.2	1.73e-04	0	43	0	510656512	21	4529
2026-01-16 12:36:52.65	283.60	15.60	-30.6	-32.6	12.2	1.84e-04	0	43	0	511705088	21	4546
2026-01-16 12:36:53.65	283.82	15.59	-30.5	-32.4	12.3	2.01e-04	0	43	0	513802240	21	4482
2026-01-16 12:36:54.65	284.03	15.58	-30.5	-32.5	12.2	2.04e-04	0	43	0	515899392	21	4498
2026-01-16 12:36:55.66	284.25	15.57	-30.6	-32.7	12.1	1.65e-04	0	43	0	517996544	21	4573
2026-01-16 12:36:56.65	284.46	15.56	-30.5	-32.3	12.4	3.01e-04	0	43	0	520093696	21	4441
2026-01-16 12:36:57.65	284.68	15.54	-30.0	-31.0	13.2	2.82e-05	0	43	0	521142272	21	4044
2026-01-16 12:36:58.65	284.89	15.53	-29.7	-30.7	13.8	9.10e-06	0	43	0	523239424	20	4035
2026-01-16 12:36:59.65	285.11	15.52	-29.6	-30.4	14.0	3.00e-06	0	43	0	525336576	20	3956
2026-01-16 12:37:00.65	285.32	15.51	-29.6	-30.4	14.0	3.00e-06	0	43	0	527433728	20	3940
2026-01-16 12:37:01.65	285.53	15.50	-29.8	-30.8	13.8	3.00e-06	0	43	0	529530880	20	4052
2026-01-16 12:37:02.65	285.75	15.48	-30.0	-31.4	13.3	6.80e-06	0	43	0	530579456	20	4236
2026-01-16 12:37:03.65	285.96	15.47	-30.1	-31.7	13.1	1.75e-05	0	43	0	532676608	20	4345
2026-01-16 12:37:04.65	286.18	15.46	-30.2	-32.0	12.9	3.28e-05	0	43	0	534773760	20	4428
2026-01-16 12:37:05.65	286.39	15.44	-30.3	-32.1	12.8	7.09e-05	0	43	0	536870912	20	4475
2026-01-16 12:37:06.66	286.61	15.43	-30.2	-31.9	13.0	4.19e-05	0	43	0	538968064	20	4397
2026-01-16 12:37:07.66	286.82	15.41	-30.1	-31.9	13.0	3.89e-05	0	43	0	540016640	20	4390
2026-01-16 12:37:08.66	287.03	15.40	-30.2	-32.0	12.9	4.50e-05	0	43	0	542113792	20	4418
2026-01-16 12:37:09.66	287.24	15.38	-30.1	-31.7	13.1	4.80e-05	0	43	0	544210944	20	4342
2026-01-16 12:37:10.67	287.46	15.37	-30.1	-31.7	13.1	2.51e-05	0	43	0	546308096	20	4331
2026-01-16 12:37:11.67	287.67	15.35	-30.1	-31.8	13.1	3.05e-05	0	43	0	547356672	20	4364
2026-01-16 12:37:12.68	287.89	15.33	-30.2	-32.1	12.9	2.59e-05	0	43	0	549453824	20	4459
2026-01-16 12:37:13.68	288.10	15.32	-30.2	-32.1	12.9	3.73e-05	0	43	0	551550976	20	4461
2026-01-16 12:37:14.69	288.31	15.30	-30.3	-32.4	12.7	5.41e-05	0	43	0	553648128	20	4554
2026-01-16 12:37:15.70	288.53	15.28	-30.3	-32.3	12.7	6.25e-05	0	43	0	555745280	20	4517
2026-01-16 12:37:16.70	288.74	15.26	-30.4	-32.7	12.5	6.56e-05	0	43	0	556793856	20	4658
2026-01-16 12:37:17.70	288.95	15.24	-30.3	-32.3	12.7	1.36e-04	0	43	0	558891008	20	4531
2026-01-16 12:37:18.70	289.16	15.23	-30.3	-32.2	12.7	6.63e-05	0	43	0	560988160	20	4511
2026-01-16 12:37:19.70	289.37	15.21	-30.3	-32.2	12.7	5.03e-05	0	43	0	563085312	20	4515
2026-01-16 12:37:20.69	289.58	15.19	-30.3	-32.4	12.6	7.17e-05	0	42	0	565182464	20	4567
2026-01-16 12:37:21.69	289.79	15.17	-30.3	-32.2	12.8	6.94e-05	0	43	0	566231040	20	4500
2026-01-16 12:37:22.70	290.00	15.15	-30.2	-32.0	12.9	5.11e-05	0	43	0	568328192	20	4429
2026-01-16 12:37:23.69	290.20	15.13	-30.1	-31.6	13.1	3.05e-05	0	43	0	570425344	20	4318
2026-01-16 12:37:24.69	290.41	15.11	-30.2	-31.9	12.9	2.97e-05	0	43	0	572522496	20	4409
2026-01-16 12:37:25.69	290.62	15.08	-30.1	-31.7	13.1	4.04e-05	0	43	0	573571072	20	4335
2026-01-16 12:37:26.69	290.83	15.06	-29.9	-31.1	13.5	1.75e-05	0	43	0	575668224	20	4156
2026-01-16 12:37:27.68	291.04	15.04	-29.7	-30.7	13.7	9.10e-06	0	43	0	577765376	20	4028
2026-01-16 12:37:28.68	291.24	15.02	-29.8	-30.8	13.7	5.30e-06	0	43	0	579862528	20	4053
2026-01-16 12:37:29.68	291.45	15.00	-29.7	-30.7	13.7	4.50e-06	0	43	0	581959680	20	4033
2026-01-16 12:37:30.68	291.66	14.97	-29.7	-30.8	13.7	2.20e-06	0	43	0	583008256	20	4060
2026-01-16 12:37:31.68	291.87	14.95	-29.8	-30.8	13.7	3.00e-06	0	43	0	585105408	20	4066
2026-01-16 12:37:32.68	292.07	14.93	-29.6	-30.5	13.8	3.80e-06	0	43	0	587202560	20	3981
2026-01-16 12:37:33.67	292.28	14.90	-29.7	-30.8	13.7	1.50e-06	0	43	0	589299712	20	4059
2026-01-16 12:37:34.68	292.48	14.88	-29.8	-30.9	13.6	6.10e-06	0	43	0	591396864	20	4099
2026-01-16 12:37:35.68	292.69	14.86	-29.7	-30.8	13.7	7.60e-06	0	43	0	592445440	20	4046
2026-01-16 12:37:36.67	292.89	14.83	-29.9	-31.1	13.5	9.90e-06	0	43	0	594542592	20	4155
2026-01-16 12:37:37.67	293.10	14.81	-29.7	-30.6	13.8	3.80e-06	0	43	0	596639744	20	3999
2026-01-16 12:37:38.67	293.30	14.78	-29.5	-30.2	14.1	3.80e-06	0	43	0	598736896	20	3882
2026-01-16 12:37:39.67	293.51	14.76	-29.3	-29.7	14.4	0.00e+00	0	43	0	600834048	20	3753
2026-01-16 12:37:40.68	293.71	14.73	-29.4	-29.9	14.2	1.50e-06	0	43	0	601882624	20	3803
2026-01-16 12:37:41.68	293.91	14.70	-29.5	-30.1	14.1	7.00e-07	0	43	0	603979776	20	3858
2026-01-16 12:37:42.68	294.12	14.68	-29.7	-30.7	13.7	4.50e-06	0	43	0	606076928	20	4041
2026-01-16 12:37:43.69	294.32	14.65	-29.8	-30.8	13.7	8.30e-06	0	43	0	608174080	20	4059
2026-01-16 12:37:44.69	294.52	14.62	-29.8	-30.9	13.6	9.10e-06	0	43	0	609222656	20	4094
2026-01-16 12:37:45.69	294.73	14.59	-29.9	-31.1	13.4	1.22e-05	0	43	0	611319808	20	4152
2026-01-16 12:37:46.70	294.93	14.57	-29.8	-30.8	13.6	8.30e-06	0	43	0	613416960	20	4074
2026-01-16 12:37:47.70	295.13	14.54	-29.9	-31.1	13.4	5.30e-06	0	43	0	615514112	20	4141
2026-01-16 12:37:48.70	295.33	14.51	-29.9	-31.1	13.4	6.80e-06	0	43	0	617611264	20	4156
2026-01-16 12:37:49.70	295.53	14.48	-30.0	-31.5	13.2	1.52e-05	0	43	0	618659840	20	4287
2026-01-16 12:37:50.71	295.74	14.45	-30.0	-31.5	13.2	4.04e-05	0	43	0	620756992	20	4283
2026-01-16 12:37:51.71	295.94	14.42	-29.9	-31.1	13.4	1.52e-05	0	43	0	622854144	20	4151
2026-01-16 12:37:52.72	296.14	14.39	-29.8	-31.0	13.6	7.60e-06	0	43	0	624951296	20	4114
2026-01-16 12:37:53.72	296.34	14.36	-29.8	-30.8	13.7	1.37e-05	0	43	0	627048448	20	4067
2026-01-16 12:37:54.72	296.53	14.33	-29.8	-31.0	13.5	9.90e-06	0	43	0	628097024	20	4127
2026-01-16 12:37:55.73	296.73	14.30	-29.6	-30.3	13.9	5.30e-06	0	43	0	630194176	20	3930
2026-01-16 12:37:56.73	296.93	14.27	-29.4	-30.0	14.2	1.50e-06	0	43	0	632291328	20	3835
2026-01-16 12:37:57.73	297.13	14.24	-29.4	-29.9	14.2	0.00e+00	0	43	0	634388480	20	3803
2026-01-16 12:37:58.73	297.33	14.21	-29.4	-30.3	14.3	1.50e-06	0	43	0	636485632	19	4009
2026-01-16 12:37:59.72	297.52	14.18	-29.4	-30.3	14.3	0.00e+00	0	43	0	637534208	19	4002
2026-01-16 12:38:00.71	297.71	14.15	-29.2	-29.8	14.6	7.00e-07	0	43	0	639631360	19	3857
2026-01-16 12:38:01.71	297.91	14.12	-29.0	-29.4	14.9	0.00e+00	0	43	0	641728512	19	3749
2026-01-16 12:38:02.71	298.11	14.08	-29.0	-29.4	14.9	0.00e+00	0	43	0	643825664	19	3758
2026-01-16 12:38:03.70	298.30	14.05	-29.1	-29.5	14.8	0.00e+00	0	43	0	645922816	19	3780
2026-01-16 12:38:04.71	298.50	14.02	-29.3	-30.2	14.4	0.00e+00	0	43	0	646971392	19	3977
2026-01-16 12:38:05.71	298.69	13.99	-29.4	-30.4	14.2	1.50e-06	0	43	0	649068544	19	4040
2026-01-16 12:38:06.71	298.88	13.95	-29.5	-30.6	14.2	0.00e+00	0	43	0	651165696	19	4089
2026-01-16 12:38:07.71	299.08	13.92	-29.4	-30.4	14.2	0.00e+00	0	43	0	653262848	19	4046
2026-01-16 12:38:08.71	299.27	13.89	-29.3	-30.0	14.5	7.00e-07	0	43	0	654311424	19	3927
2026-01-16 12:38:09.71	299.46	13.85	-29.3	-30.0	14.5	3.80e-06	0	43	0	656408576	19	3923
2026-01-16 12:38:10.71	299.65	13.82	-29.4	-30.3	14.3	0.00e+00	0	43	0	658505728	19	3997
2026-01-16 12:38:11.71	299.84	13.78	-29.4	-30.5	14.2	0.00e+00	0	43	0	660602880	19	4053
2026-01-16 12:38:12.70	300.03	13.75	-29.6	-30.8	14.0	1.50e-06	0	43	0	662700032	19	4161
2026-01-16 12:38:13.71	300.23	13.71	-29.7	-31.1	13.8	6.10e-06	0	43	0	663748608	19	4247
2026-01-16 12:38:14.70	300.41	13.68	-29.7	-31.1	13.8	3.00e-06	0	43	0	665845760	19	4248
2026-01-16 12:38:15.71	300.61	13.64	-29.7	-31.3	13.7	3.00e-06	0	43	0	667942912	19	4287
2026-01-16 12:38:16.71	300.80	13.61	-29.6	-31.0	13.9	9.10e-06	0	43	0	670040064	19	4214
2026-01-16 12:38:17.71	300.98	13.57	-29.6	-30.9	13.9	4.50e-06	0	43	0	672137216	19	4167
2026-01-16 12:38:18.72	301.17	13.53	-29.5	-30.7	14.0	3.00e-06	0	43	0	673185792	19	4125
2026-01-16 12:38:19.71	301.36	13.50	-29.7	-31.1	13.8	2.20e-06	0	43	0	675282944	19	4243
2026-01-16 12:38:20.72	301.55	13.46	-29.6	-30.9	13.9	6.10e-06	0	43	0	677380096	19	4192
2026-01-16 12:38:21.72	301.74	13.42	-29.7	-31.2	13.7	8.30e-06	0	43	0	679477248	19	4285
2026-01-16 12:38:22.72	301.92	13.39	-29.7	-31.1	13.8	3.00e-06	0	43	0	680525824	19	4240
2026-01-16 12:38:23.73	302.11	13.35	-29.7	-31.2	13.7	6.10e-06	0	43	0	682622976	19	4272
2026-01-16 12:38:24.73	302.30	13.31	-29.6	-31.0	13.9	4.50e-06	0	43	0	684720128	19	4211
2026-01-16 12:38:25.73	302.48	13.27	-29.6	-31.0	13.9	3.00e-06	0	43	0	686817280	19	4219
2026-01-16 12:38:26.73	302.67	13.24	-29.5	-30.7	14.1	7.00e-07	0	43	0	688914432	19	4113
2026-01-16 12:38:27.73	302.85	13.20	-29.5	-30.6	14.1	0.00e+00	0	43	0	689963008	19	4083
2026-01-16 12:38:28.73	303.03	13.16	-29.5	-30.6	14.1	5.30e-06	0	43	0	692060160	19	4106
2026-01-16 12:38:29.73	303.22	13.12	-29.6	-31.0	13.9	3.00e-06	0	43	0	694157312	19	4211
2026-01-16 12:38:30.73	303.40	13.08	-29.6	-31.0	13.8	3.80e-06	0	43	0	696254464	19	4220
2026-01-16 12:38:31.73	303.58	13.04	-29.8	-31.4	13.6	9.10e-06	0	43	0	698351616	19	4322
2026-01-16 12:38:32.73	303.76	13.01	-29.8	-31.4	13.5	8.30e-06	0	43	0	699400192	19	4339
2026-01-16 12:38:33.74	303.95	12.97	-29.8	-31.1	13.4	1.75e-05	0	43	0	701497344	20	4154
2026-01-16 12:38:34.74	304.13	12.93	-30.0	-31.6	13.1	1.75e-05	0	43	0	703594496	20	4300
2026-01-16 12:38:35.74	304.31	12.89	-30.0	-31.5	13.1	7.60e-06	0	43	0	705691648	20	4296
2026-01-16 12:38:36.74	304.49	12.85	-30.0	-31.4	13.2	2.13e-05	0	43	0	707788800	20	4257
2026-01-16 12:38:37.74	304.67	12.81	-30.0	-31.5	13.1	3.12e-05	0	43	0	708837376	20	4292
2026-01-16 12:38:38.75	304.85	12.77	-30.1	-31.7	13.0	4.34e-05	0	43	0	710934528	20	4352
2026-01-16 12:38:39.75	305.03	12.73	-30.1	-31.9	12.8	2.82e-05	0	43	0	713031680	20	4416
2026-01-16 12:38:40.75	305.21	12.68	-30.3	-32.2	12.7	5.34e-05	0	43	0	715128832	20	4501
2026-01-16 12:38:41.74	305.38	12.64	-30.2	-32.1	12.7	6.17e-05	0	43	0	717225984	20	4494
2026-01-16 12:38:42.74	305.56	12.60	-30.3	-32.5	12.5	7.62e-05	0	43	0	718274560	20	4605
2026-01-16 12:38:43.74	305.74	12.56	-30.4	-32.7	12.3	1.42e-04	0	43	0	720371712	20	4688
2026-01-16 12:38:44.74	305.91	12.52	-30.5	-32.6	12.1	2.01e-04	0	43	0	722468864	21	4549
2026-01-16 12:38:45.75	306.09	12.48	-30.6	-32.8	11.9	3.53e-04	0	43	0	724566016	21	4632
2026-01-16 12:38:46.74	306.26	12.44	-30.7	-33.0	11.7	4.42e-04	0	43	0	725614592	21	4714
2026-01-16 12:38:47.75	306.44	12.40	-30.7	-33.1	11.6	6.55e-04	0	43	0	727711744	21	4740
2026-01-16 12:38:48.75	306.61	12.35	-30.8	-33.5	11.4	8.26e-04	0	43	0	729808896	21	4877
2026-01-16 12:38:49.75	306.79	12.31	-30.7	-33.1	11.7	7.13e-04	0	42	0	731906048	21	4728
2026-01-16 12:38:50.75	306.96	12.27	-30.6	-32.7	11.9	5.74e-04	0	43	0	734003200	21	4610
2026-01-16 12:38:51.75	307.13	12.23	-30.8	-33.3	11.6	5.18e-04	0	43	0	735051776	21	4828
2026-01-16 12:38:52.75	307.30	12.18	-30.9	-33.6	11.4	8.64e-04	0	43	0	737148928	21	4912
2026-01-16 12:38:53.74	307.47	12.14	-31.0	-33.6	11.0	9.99e-04	0	43	0	739246080	22	4821
2026-01-16 12:38:54.74	307.65	12.10	-30.9	-33.3	11.2	1.72e-03	0	43	0	741343232	22	4719
2026-01-16 12:38:55.75	307.82	12.06	-31.0	-33.6	11.0	1.81e-03	0	43	0	743440384	22	4831
2026-01-16 12:38:56.75	307.99	12.01	-31.0	-33.4	11.1	1.89e-03	0	43	0	744488960	22	4740
2026-01-16 12:38:57.75	308.16	11.97	-30.7	-32.6	11.7	9.14e-04	0	43	0	746586112	22	4459
2026-01-16 12:38:58.75	308.33	11.93	-30.4	-31.6	12.4	2.79e-04	0	43	0	748683264	22	4148
2026-01-16 12:38:59.76	308.50	11.88	-30.3	-31.8	12.6	1.27e-04	0	43	0	750780416	21	4297
2026-01-16 12:39:00.76	308.67	11.84	-30.1	-31.3	12.9	8.85e-05	0	43	0	752877568	21	4125
2026-01-16 12:39:01.76	308.83	11.79	-30.2	-31.6	12.7	5.72e-05	0	43	0	753926144	21	4236
2026-01-16 12:39:02.76	309.00	11.75	-30.3	-32.0	12.5	9.76e-05	0	43	0	756023296	21	4338
2026-01-16 12:39:03.77	309.17	11.70	-30.4	-32.2	12.3	1.11e-04	0	43	0	758120448	21	4407
2026-01-16 12:39:04.77	309.34	11.66	-30.6	-32.7	11.9	2.12e-04	0	43	0	760217600	21	4607
2026-01-16 12:39:05.78	309.50	11.61	-30.7	-33.1	11.6	5.68e-04	0	43	0	761266176	21	4754
2026-01-16 12:39:06.77	309.67	11.57	-30.8	-33.3	11.5	9.22e-04	0	43	0	763363328	21	4811
2026-01-16 12:39:07.78	309.83	11.53	-30.8	-33.4	11.4	1.11e-03	0	43	0	765460480	21	4857
2026-01-16 12:39:08.78	310.00	11.48	-30.9	-33.7	11.2	1.16e-03	0	42	0	767557632	21	4966
2026-01-16 12:39:09.78	310.16	11.44	-31.0	-33.4	11.1	1.77e-03	0	43	0	769654784	22	4751
2026-01-16 12:39:10.79	310.33	11.39	-31.1	-33.6	10.9	2.51e-03	0	43	0	770703360	22	4848
2026-01-16 12:39:11.79	310.49	11.34	-31.2	-34.3	10.5	2.76e-03	0	43	0	772800512	22	5097
2026-01-16 12:39:12.80	310.66	11.30	-31.3	-34.4	10.3	3.86e-03	0	43	0	774897664	22	5175
2026-01-16 12:39:13.80	310.82	11.25	-31.3	-34.4	10.3	4.51e-03	0	43	0	776994816	22	5169
2026-01-16 12:39:14.80	310.98	11.21	-31.3	-34.5	10.3	4.68e-03	0	43	0	779091968	22	5192
2026-01-16 12:39:15.81	311.14	11.16	-31.1	-33.9	10.7	2.89e-03	0	43	0	780140544	22	4963
2026-01-16 12:39:16.80	311.30	11.12	-31.2	-34.1	10.6	3.24e-03	0	43	0	782237696	22	5040
2026-01-16 12:39:17.81	311.46	11.07	-31.0	-33.4	11.1	2.55e-03	0	43	0	784334848	22	4774
2026-01-16 12:39:18.81	311.62	11.02	-30.9	-33.1	11.3	1.28e-03	0	43	0	786432000	22	4642
2026-01-16 12:39:19.82	311.78	10.98	-30.8	-33.0	11.4	1.07e-03	0	43	0	788529152	22	4622
2026-01-16 12:39:20.83	311.94	10.93	-30.8	-32.7	11.6	7.45e-04	0	43	0	789577728	22	4514
2026-01-16 12:39:21.83	312.10	10.88	-31.0	-33.4	11.1	8.36e-04	0	43	0	791674880	22	4772
2026-01-16 12:39:22.84	312.26	10.84	-30.9	-33.1	11.3	1.11e-03	0	43	0	793772032	22	4637
2026-01-16 12:39:23.84	312.42	10.79	-30.8	-32.9	11.4	8.87e-04	0	43	0	795869184	22	4587
2026-01-16 12:39:24.84	312.57	10.74	-30.9	-33.2	11.2	1.24e-03	0	43	0	797966336	22	4696
2026-01-16 12:39:25.84	312.73	10.70	-30.7	-32.7	11.6	7.82e-04	0	43	0	799014912	22	4502
2026-01-16 12:39:26.84	312.88	10.65	-30.8	-32.8	11.5	6.38e-04	0	43	0	801112064	22	4537
2026-01-16 12:39:27.84	313.04	10.60	-30.5	-32.0	12.0	6.34e-04	0	43	0	803209216	22	4268
2026-01-16 12:39:28.84	313.19	10.56	-30.5	-32.1	12.0	3.20e-04	0	43	0	805306368	22	4308
2026-01-16 12:39:29.85	313.35	10.51	-30.5	-31.9	12.1	2.98e-04	0	43	0	807403520	22	4235
2026-01-16 12:39:30.85	313.50	10.46	-30.7	-32.4	11.7	4.42e-04	0	43	0	808452096	22	4427
2026-01-16 12:39:31.85	313.66	10.41	-30.5	-32.1	11.9	6.16e-04	0	43	0	810549248	22	4317
2026-01-16 12:39:32.85	313.81	10.37	-30.5	-32.0	12.1	3.06e-04	0	43	0	812646400	22	4264
2026-01-16 12:39:33.85	313.96	10.32	-30.5	-32.1	11.9	3.23e-04	0	43	0	814743552	22	4302
2026-01-16 12:39:34.85	314.11	10.27	-30.7	-32.6	11.6	5.72e-04	0	43	0	816840704	22	4487
2026-01-16 12:39:35.85	314.26	10.22	-30.8	-33.0	11.3	9.55e-04	0	43	0	817889280	22	4624
2026-01-16 12:39:36.85	314.41	10.18	-31.1	-33.7	10.8	1.59e-03	0	43	0	819986432	22	4905
2026-01-16 12:39:37.85	314.57	10.13	-31.1	-33.8	10.7	2.70e-03	0	43	0	822083584	22	4927
2026-01-16 12:39:38.84	314.71	10.08	-31.1	-34.0	10.6	3.33e-03	0	43	0	824180736	22	5012
2026-01-16 12:39:39.84	314.86	10.03	-31.1	-33.9	10.6	4.10e-03	0	43	0	825229312	22	4979
2026-01-16 12:39:40.84	315.01	9.98	-31.1	-34.0	10.5	4.08e-03	0	43	0	827326464	22	5026
2026-01-16 12:39:41.85	315.16	9.94	-31.3	-34.5	10.1	6.20e-03	0	43	0	829423616	22	5236
2026-01-16 12:39:42.85	315.31	9.89	-31.0	-33.7	10.8	3.73e-03	0	43	0	831520768	22	4873
2026-01-16 12:39:43.85	315.46	9.84	-30.9	-33.3	11.1	2.47e-03	0	43	0	833617920	22	4727
2026-01-16 12:39:44.85	315.60	9.79	-30.9	-33.2	11.1	1.83e-03	0	43	0	834666496	22	4681
2026-01-16 12:39:45.85	315.75	9.74	-30.7	-32.5	11.6	8.15e-04	0	43	0	836763648	22	4455
2026-01-16 12:39:46.85	315.90	9.69	-30.8	-32.9	11.3	8.63e-04	0	43	0	838860800	22	4582
2026-01-16 12:39:47.85	316.04	9.65	-30.6	-32.4	11.7	6.88e-04	0	43	0	840957952	22	4416
2026-01-16 12:39:48.85	316.19	9.60	-30.6	-32.2	11.8	4.19e-04	0	43	0	843055104	22	4354
2026-01-16 12:39:49.85	316.33	9.55	-30.6	-32.4	11.7	5.35e-04	0	43	0	844103680	22	4414
2026-01-16 12:39:50.85	316.48	9.50	-30.4	-31.9	12.1	2.66e-04	0	43	0	846200832	22	4237
2026-01-16 12:39:51.85	316.62	9.45	-30.6	-32.3	11.8	4.14e-04	0	43	0	848297984	22	4373
2026-01-16 12:39:52.86	316.76	9.40	-30.5	-32.0	11.9	3.97e-04	0	43	0	850395136	22	4294
2026-01-16 12:39:53.86	316.91	9.35	-30.3	-31.5	12.3	1.90e-04	0	43	0	851443712	22	4122
2026-01-16 12:39:54.86	317.05	9.30	-30.3	-32.1	12.2	1.26e-04	0	43	0	853540864	21	4406
2026-01-16 12:39:55.86	317.19	9.26	-30.4	-32.4	12.0	2.54e-04	0	43	0	855638016	21	4498
2026-01-16 12:39:56.85	317.33	9.21	-30.3	-32.1	12.1	2.13e-04	0	43	0	857735168	21	4418
2026-01-16 12:39:57.85	317.47	9.16	-30.7	-33.1	11.5	4.95e-04	0	43	0	859832320	21	4757
2026-01-16 12:39:58.86	317.61	9.11	-30.4	-32.3	12.0	5.55e-04	0	43	0	860880896	21	4478
2026-01-16 12:39:59.86	317.75	9.06	-30.4	-32.2	12.1	2.88e-04	0	43	0	862978048	21	4449
2026-01-16 12:40:00.85	317.89	9.01	-30.2	-31.8	12.3	2.13e-04	0	43	0	865075200	21	4320
2026-01-16 12:40:01.85	318.03	8.96	-30.3	-32.0	12.2	2.39e-04	0	43	0	867172352	21	4369
2026-01-16 12:40:02.86	318.17	8.91	-30.4	-32.3	12.0	2.97e-04	0	43	0	869269504	21	4465
2026-01-16 12:40:03.86	318.31	8.86	-30.4	-32.3	12.0	2.56e-04	0	43	0	870318080	21	4484
2026-01-16 12:40:04.86	318.45	8.81	-30.2	-31.8	12.3	2.83e-04	0	43	0	872415232	21	4319
2026-01-16 12:40:05.86	318.58	8.76	-30.2	-31.8	12.3	1.19e-04	0	43	0	874512384	21	4331
2026-01-16 12:40:06.86	318.72	8.71	-30.5	-32.7	11.7	4.12e-04	0	43	0	876609536	21	4612
2026-01-16 12:40:07.86	318.86	8.66	-30.4	-32.3	12.0	5.35e-04	0	43	0	878706688	21	4474
2026-01-16 12:40:08.87	319.00	8.61	-30.1	-31.4	12.6	2.06e-04	0	43	0	879755264	21	4187
2026-01-16 12:40:09.86	319.13	8.56	-30.3	-31.9	12.3	9.53e-05	0	43	0	881852416	21	4345
2026-01-16 12:40:10.86	319.26	8.51	-30.3	-32.1	12.1	2.38e-04	0	43	0	883949568	21	4417
2026-01-16 12:40:11.87	319.40	8.46	-30.3	-32.0	12.1	2.55e-04	0	43	0	886046720	21	4398
2026-01-16 12:40:12.87	319.53	8.41	-30.4	-32.3	12.1	2.38e-04	0	43	0	887095296	21	4473
2026-01-16 12:40:13.87	319.67	8.37	-30.5	-32.7	11.7	4.31e-04	0	43	0	889192448	21	4639
2026-01-16 12:40:14.87	319.80	8.32	-30.4	-32.4	11.9	2.85e-04	0	43	0	891289600	21	4530
2026-01-16 12:40:15.87	319.93	8.27	-30.4	-32.3	12.0	3.41e-04	0	43	0	893386752	21	4471
2026-01-16 12:40:16.88	320.07	8.22	-30.4	-32.4	11.9	3.60e-04	0	43	0	895483904	21	4514
2026-01-16 12:40:17.88	320.20	8.17	-30.4	-32.4	11.9	4.00e-04	0	43	0	896532480	21	4524
2026-01-16 12:40:18.88	320.33	8.12	-30.4	-32.4	11.8	4.42e-04	0	43	0	898629632	21	4530
2026-01-16 12:40:19.88	320.46	8.07	-30.6	-32.9	11.5	5.10e-04	0	43	0	900726784	21	4703
2026-01-16 12:40:20.89	320.59	8.01	-30.5	-32.6	11.7	5.69e-04	0	43	0	902823936	21	4601
2026-01-16 12:40:21.89	320.72	7.96	-30.3	-32.0	12.1	2.69e-04	0	43	0	904921088	21	4397
2026-01-16 12:40:22.89	320.85	7.91	-30.5	-32.6	11.7	2.66e-04	0	43	0	905969664	21	4596
2026-01-16 12:40:23.89	320.98	7.86	-30.5	-32.6	11.7	5.22e-04	0	43	0	908066816	21	4601
2026-01-16 12:40:24.89	321.11	7.81	-30.4	-32.4	11.8	5.30e-04	0	43	0	910163968	21	4537
2026-01-16 12:40:25.90	321.24	7.76	-30.6	-33.2	11.2	7.40e-04	0	43	0	912261120	21	4809
2026-01-16 12:40:26.89	321.37	7.71	-30.5	-32.8	11.5	9.60e-04	0	43	0	914358272	21	4676
2026-01-16 12:40:27.89	321.50	7.66	-30.4	-32.4	11.8	7.09e-04	0	43	0	915406848	21	4547
2026-01-16 12:40:28.89	321.62	7.61	-30.5	-32.6	11.6	5.12e-04	0	43	0	917504000	21	4612
2026-01-16 12:40:29.89	321.75	7.56	-30.5	-32.7	11.6	7.45e-04	0	43	0	919601152	21	4629
2026-01-16 12:40:30.89	321.88	7.51	-30.7	-33.2	11.2	1.00e-03	0	43	0	921698304	21	4829
2026-01-16 12:40:31.89	322.00	7.46	-30.5	-32.8	11.4	8.04e-04	0	43	0	923795456	21	4698
2026-01-16 12:40:32.89	322.13	7.41	-30.4	-32.4	11.8	9.88e-04	0	43	0	924844032	21	4519
2026-01-16 12:40:33.89	322.25	7.36	-30.5	-32.8	11.5	8.88e-04	0	43	0	926941184	21	4667
2026-01-16 12:40:34.89	322.38	7.31	-30.5	-32.8	11.5	9.12e-04	0	43	0	929038336	21	4683
2026-01-16 12:40:35.89	322.50	7.26	-30.6	-33.0	11.3	1.03e-03	0	43	0	931135488	21	4739
2026-01-16 12:40:36.89	322.63	7.21	-30.5	-32.9	11.5	7.74e-04	0	43	0	932184064	21	4704
2026-01-16 12:40:37.89	322.75	7.16	-30.6	-33.2	11.2	1.36e-03	0	43	0	934281216	21	4820
2026-01-16 12:40:38.89	322.87	7.11	-30.5	-32.8	11.4	1.16e-03	0	43	0	936378368	21	4695
2026-01-16 12:40:39.89	323.00	7.06	-30.5	-32.7	11.5	7.89e-04	0	43	0	938475520	21	4651
2026-01-16 12:40:40.89	323.12	7.01	-33.2	-45.1	3.8	2.06e-01	0	43	104	939524096	26	14111
2026-01-16 12:40:41.89	323.24	6.96	-33.6	-46.0	3.8	1.49e+00	0	43	104	939524096	27	14895

#Closed at: 2026-01-16 12:40:42
#Recorded file [939 MB]: D:/data/31010_260116_153219.dat