passes_logs/2026/01/16/R2M6_AANII_01/R2M6_AANII_01__20260116_005621_SUOMI_NPP_rec.log

#Pass ID: 20260116_005621_SUOMI NPP
#Satellite: SUOMI NPP
#Configuration: NPP
#almurnet v.1.7.20240730
#Start time: 2026-01-16 00:56:21

#Version: 2.2.20231116
#Station: R2M6_AANII_01
#Location: 30.233357 lon 59.946436 lat
#TLE: 1 37849U 11061A   26015.52691075  .00000052  00000+0  45753-4 0  9993
#TLE: 2 37849  98.7811 317.5709 0002448  62.7632 297.3794 14.19525354736784

#Time	Az	El	Level	Level2	SNR	BER	BlckErr	Temp	State	Recorded	gain1	gain2
2026-01-16 00:56:21.92	15.66	7.03	-31.6	-35.9	5.1	1.29e+00	0	41	0	0	23	5858
2026-01-16 00:56:22.91	15.64	7.10	-32.0	-37.2	4.8	1.34e+00	0	41	104	0	24	6508
2026-01-16 00:56:23.91	15.62	7.18	-31.9	-36.7	7.7	1.32e-01	0	41	0	0	23	6297
2026-01-16 00:56:24.91	15.59	7.26	-32.0	-37.2	7.4	6.95e-02	0	41	0	1048576	23	6598
2026-01-16 00:56:25.91	15.57	7.33	-31.8	-36.3	8.1	6.70e-02	0	41	0	3145728	23	6071
2026-01-16 00:56:26.91	15.54	7.41	-31.7	-36.1	8.3	6.46e-02	0	41	0	5242880	23	5924
2026-01-16 00:56:27.91	15.52	7.49	-31.4	-34.9	9.3	3.98e-02	0	41	0	7340032	23	5339
2026-01-16 00:56:28.91	15.49	7.57	-31.5	-35.4	9.4	1.42e-02	0	41	0	8388608	22	5644
2026-01-16 00:56:29.92	15.47	7.64	-31.5	-35.0	9.2	2.69e-02	0	41	0	10485760	23	5386
2026-01-16 00:56:30.91	15.44	7.72	-31.3	-34.6	9.9	1.84e-02	0	41	0	12582912	22	5299
2026-01-16 00:56:31.91	15.42	7.80	-31.1	-33.9	10.4	6.35e-03	0	42	0	14680064	22	5002
2026-01-16 00:56:32.91	15.39	7.88	-30.8	-33.6	11.0	6.20e-03	0	42	0	16777216	21	4963
2026-01-16 00:56:33.91	15.37	7.96	-30.7	-33.2	11.3	4.61e-03	0	42	0	17825792	21	4825
2026-01-16 00:56:34.91	15.34	8.04	-30.6	-32.8	11.6	9.47e-04	0	41	0	19922944	21	4653
2026-01-16 00:56:35.90	15.31	8.11	-30.4	-32.8	12.0	3.03e-03	0	42	0	22020096	20	4744
2026-01-16 00:56:36.91	15.29	8.19	-30.5	-33.1	11.9	3.24e-03	0	42	0	24117248	20	4849
2026-01-16 00:56:37.91	15.26	8.27	-30.4	-32.4	12.0	1.02e-03	0	42	0	26214400	21	4505
2026-01-16 00:56:38.92	15.23	8.35	-30.3	-32.6	12.2	3.12e-03	0	42	0	27262976	20	4677
2026-01-16 00:56:39.92	15.21	8.43	-30.3	-32.5	12.2	2.96e-03	0	42	0	29360128	20	4630
2026-01-16 00:56:40.92	15.18	8.51	-30.2	-32.3	12.4	6.68e-04	0	42	0	31457280	20	4560
2026-01-16 00:56:41.92	15.15	8.60	-30.6	-32.8	11.7	3.45e-04	0	42	0	33554432	21	4650
2026-01-16 00:56:42.92	15.13	8.68	-30.6	-32.8	11.7	3.32e-03	0	42	0	35651584	21	4643
2026-01-16 00:56:43.92	15.10	8.76	-30.4	-32.3	12.0	8.86e-04	0	42	0	36700160	21	4494
2026-01-16 00:56:44.91	15.07	8.84	-30.6	-32.7	11.9	3.35e-03	0	42	0	38797312	21	4616
2026-01-16 00:56:45.91	15.05	8.92	-30.6	-32.8	11.7	3.61e-03	0	42	0	40894464	21	4637
2026-01-16 00:56:46.91	15.02	9.00	-30.6	-32.9	11.7	9.43e-04	0	42	0	42991616	21	4665
2026-01-16 00:56:47.92	14.99	9.08	-30.8	-33.3	11.4	3.74e-03	0	42	0	45088768	21	4835
2026-01-16 00:56:48.92	14.96	9.17	-30.5	-32.7	11.8	5.61e-04	0	42	0	46137344	21	4594
2026-01-16 00:56:49.92	14.93	9.25	-30.4	-32.4	12.1	9.32e-04	0	42	0	48234496	21	4486
2026-01-16 00:56:50.92	14.90	9.33	-30.3	-32.4	12.4	2.93e-03	0	42	0	50331648	20	4603
2026-01-16 00:56:51.92	14.87	9.42	-30.4	-32.7	12.2	3.13e-03	0	42	0	52428800	20	4708
2026-01-16 00:56:52.93	14.85	9.50	-30.6	-32.7	11.9	2.79e-04	0	42	0	53477376	21	4602
2026-01-16 00:56:53.92	14.82	9.58	-30.3	-32.0	12.4	2.93e-03	0	42	0	55574528	21	4369
2026-01-16 00:56:54.92	14.79	9.67	-30.3	-32.3	12.5	2.90e-03	0	42	0	57671680	20	4545
2026-01-16 00:56:55.92	14.76	9.75	-30.3	-32.5	12.4	1.22e-04	0	42	0	59768832	20	4639
2026-01-16 00:56:56.93	14.73	9.84	-30.1	-31.9	12.7	2.85e-03	0	42	0	61865984	20	4431
2026-01-16 00:56:57.93	14.70	9.92	-30.2	-32.1	12.7	2.79e-03	0	42	0	62914560	20	4463
2026-01-16 00:56:58.93	14.67	10.01	-30.2	-32.1	12.7	6.26e-04	0	42	0	65011712	20	4482
2026-01-16 00:56:59.92	14.64	10.09	-30.1	-31.9	12.8	6.56e-05	0	42	0	67108864	20	4419
2026-01-16 00:57:00.92	14.61	10.18	-30.0	-31.4	13.1	2.52e-03	0	42	0	69206016	20	4258
2026-01-16 00:57:01.93	14.58	10.26	-29.9	-31.3	13.2	5.89e-04	0	42	0	71303168	20	4222
2026-01-16 00:57:02.93	14.54	10.35	-29.9	-31.4	13.2	2.44e-05	0	42	0	72351744	20	4234
2026-01-16 00:57:03.94	14.51	10.44	-30.0	-31.4	13.2	2.69e-03	0	42	0	74448896	20	4260
2026-01-16 00:57:04.94	14.48	10.53	-29.9	-31.2	13.3	5.39e-04	0	42	0	76546048	20	4188
2026-01-16 00:57:05.94	14.45	10.61	-30.0	-31.4	13.2	2.81e-03	0	42	0	78643200	20	4250
2026-01-16 00:57:06.95	14.42	10.70	-29.9	-31.2	13.3	2.89e-05	0	42	0	79691776	20	4185
2026-01-16 00:57:07.95	14.39	10.79	-29.8	-31.4	13.6	5.95e-04	0	42	0	81788928	19	4321
2026-01-16 00:57:08.94	14.35	10.88	-29.8	-31.5	13.6	2.63e-03	0	43	0	83886080	19	4362
2026-01-16 00:57:09.95	14.32	10.97	-29.8	-31.4	13.6	8.30e-06	0	42	0	85983232	19	4335
2026-01-16 00:57:10.95	14.29	11.05	-29.7	-31.2	13.7	4.50e-06	0	42	0	88080384	19	4271
2026-01-16 00:57:11.95	14.26	11.14	-29.9	-31.8	13.3	2.42e-03	0	42	0	89128960	19	4462
2026-01-16 00:57:12.96	14.22	11.23	-29.9	-31.7	13.4	2.74e-03	0	43	0	91226112	19	4426
2026-01-16 00:57:13.96	14.19	11.32	-29.9	-31.6	13.5	1.37e-05	0	43	0	93323264	19	4387
2026-01-16 00:57:14.96	14.16	11.41	-29.9	-31.6	13.5	2.76e-03	0	42	0	95420416	19	4375
2026-01-16 00:57:15.96	14.12	11.50	-29.8	-31.4	13.6	2.57e-03	0	43	0	97517568	19	4327
2026-01-16 00:57:16.96	14.09	11.59	-29.8	-31.3	13.8	6.80e-06	0	42	0	98566144	19	4277
2026-01-16 00:57:17.95	14.05	11.68	-29.8	-31.4	13.7	4.50e-06	0	43	0	100663296	19	4313
2026-01-16 00:57:18.96	14.02	11.78	-29.8	-31.4	13.7	2.36e-03	0	43	0	102760448	19	4310
2026-01-16 00:57:19.95	13.98	11.87	-30.0	-31.5	13.2	6.41e-04	0	43	0	104857600	20	4276
2026-01-16 00:57:20.95	13.95	11.96	-29.8	-31.4	13.7	4.50e-06	0	43	0	106954752	19	4311
2026-01-16 00:57:21.95	13.91	12.05	-29.6	-30.8	14.1	2.20e-06	0	43	0	108003328	19	4129
2026-01-16 00:57:22.95	13.88	12.14	-29.5	-30.5	14.2	6.09e-04	0	43	0	110100480	19	4066
2026-01-16 00:57:23.96	13.84	12.24	-29.4	-30.4	14.4	2.20e-06	0	43	0	112197632	19	4037
2026-01-16 00:57:24.96	13.81	12.33	-29.7	-31.0	14.0	3.00e-06	0	43	0	114294784	19	4189
2026-01-16 00:57:25.96	13.77	12.43	-29.4	-30.9	13.8	6.36e-04	0	43	0	115343360	18	4256
2026-01-16 00:57:26.96	13.73	12.52	-29.5	-30.5	13.7	4.93e-04	0	43	0	117440512	19	4048
2026-01-16 00:57:27.97	13.70	12.62	-29.5	-30.6	14.2	1.50e-06	0	43	0	119537664	19	4085
2026-01-16 00:57:28.97	13.66	12.71	-29.4	-30.8	14.4	7.00e-07	0	43	0	121634816	18	4233
2026-01-16 00:57:29.97	13.62	12.81	-29.3	-30.7	14.5	2.25e-03	0	43	0	123731968	18	4190
2026-01-16 00:57:30.97	13.58	12.90	-29.4	-30.4	14.4	0.00e+00	0	43	0	124780544	19	4010
2026-01-16 00:57:31.97	13.55	13.00	-29.5	-30.7	14.2	0.00e+00	0	43	0	126877696	19	4092
2026-01-16 00:57:32.97	13.51	13.09	-29.4	-30.7	14.5	0.00e+00	0	43	0	128974848	18	4210
2026-01-16 00:57:33.97	13.47	13.19	-29.4	-30.2	14.5	7.00e-07	0	43	0	131072000	19	3971
2026-01-16 00:57:34.96	13.43	13.29	-29.5	-30.6	14.3	7.00e-07	0	43	0	133169152	19	4081
2026-01-16 00:57:35.96	13.39	13.38	-29.5	-30.6	14.3	0.00e+00	0	43	0	134217728	19	4077
2026-01-16 00:57:36.96	13.35	13.48	-29.5	-30.5	14.4	2.41e-03	0	43	0	136314880	19	4032
2026-01-16 00:57:37.96	13.31	13.58	-29.6	-30.8	14.2	2.30e-04	0	43	0	138412032	19	4129
2026-01-16 00:57:38.96	13.27	13.68	-29.5	-30.5	14.3	1.50e-06	0	43	0	140509184	19	4045
2026-01-16 00:57:39.96	13.23	13.78	-29.6	-30.9	14.2	1.50e-06	0	43	0	141557760	19	4147
2026-01-16 00:57:40.96	13.19	13.87	-29.7	-31.0	14.1	4.25e-04	0	43	0	143654912	19	4183
2026-01-16 00:57:41.97	13.15	13.98	-29.7	-31.0	14.1	2.20e-06	0	43	0	145752064	19	4176
2026-01-16 00:57:42.97	13.11	14.08	-29.7	-31.0	14.1	3.00e-06	0	43	0	147849216	19	4176
2026-01-16 00:57:43.97	13.07	14.18	-29.9	-31.5	13.8	5.19e-04	0	43	0	149946368	19	4326
2026-01-16 00:57:44.97	13.03	14.28	-29.7	-31.1	14.1	5.11e-04	0	43	0	152043520	19	4208
2026-01-16 00:57:45.97	12.99	14.38	-29.7	-31.1	14.1	2.20e-06	0	43	0	153092096	19	4200
2026-01-16 00:57:46.97	12.94	14.48	-29.6	-30.7	14.3	2.20e-06	0	43	0	155189248	19	4100
2026-01-16 00:57:47.97	12.90	14.58	-29.7	-31.1	14.0	4.59e-04	0	43	0	157286400	19	4232
2026-01-16 00:57:48.98	12.86	14.69	-29.5	-30.5	14.4	0.00e+00	0	43	0	159383552	19	4043
2026-01-16 00:57:49.97	12.82	14.79	-29.6	-30.7	14.4	1.50e-06	0	43	0	160432128	19	4085
2026-01-16 00:57:50.97	12.77	14.89	-29.6	-30.8	14.3	4.64e-04	0	43	0	162529280	19	4120
2026-01-16 00:57:51.97	12.73	14.99	-29.6	-30.7	14.3	0.00e+00	0	43	0	164626432	19	4106
2026-01-16 00:57:52.97	12.68	15.10	-29.4	-30.9	14.6	0.00e+00	0	43	0	166723584	18	4238
2026-01-16 00:57:53.98	12.64	15.20	-29.7	-31.1	14.1	7.00e-07	0	43	0	168820736	19	4215
2026-01-16 00:57:54.98	12.59	15.31	-29.7	-31.1	14.1	7.00e-07	0	43	0	169869312	19	4207
2026-01-16 00:57:55.98	12.55	15.41	-29.7	-30.9	14.2	4.87e-04	0	43	0	171966464	19	4150
2026-01-16 00:57:56.98	12.50	15.52	-29.5	-30.5	14.5	3.00e-06	0	43	0	174063616	19	4050
2026-01-16 00:57:57.99	12.46	15.63	-29.7	-30.9	14.2	7.00e-07	0	43	0	176160768	19	4156
2026-01-16 00:57:59.00	12.41	15.74	-29.4	-30.4	14.5	4.30e-04	0	43	0	178257920	19	4062
2026-01-16 00:58:00.00	12.36	15.84	-28.5	-30.0	14.4	7.00e-07	0	43	0	179306496	18	4263
2026-01-16 00:58:01.00	12.32	15.95	-29.6	-30.6	14.0	0.00e+00	0	43	0	181403648	19	4075
2026-01-16 00:58:02.00	12.27	16.06	-29.7	-31.0	12.5	4.08e-04	0	43	0	183500800	19	4177
2026-01-16 00:58:03.00	12.22	16.17	-29.4	-30.8	13.2	3.92e-04	0	43	0	185597952	18	4217
2026-01-16 00:58:04.00	12.17	16.28	-29.3	-30.6	14.5	0.00e+00	0	43	0	186646528	18	4142
2026-01-16 00:58:05.00	12.12	16.39	-29.2	-30.3	14.8	3.29e-04	0	43	0	188743680	18	4076
2026-01-16 00:58:06.00	12.08	16.50	-29.2	-30.3	14.8	3.29e-04	0	43	0	190840832	18	4081
2026-01-16 00:58:07.00	12.03	16.61	-29.3	-30.4	14.9	0.00e+00	0	43	0	192937984	18	4098
2026-01-16 00:58:08.00	11.98	16.72	-29.3	-30.4	14.9	0.00e+00	0	43	0	195035136	18	4084
2026-01-16 00:58:09.00	11.93	16.83	-29.3	-30.4	14.9	2.52e-04	0	43	0	196083712	18	4105
2026-01-16 00:58:10.00	11.88	16.94	-29.3	-30.3	15.0	0.00e+00	0	43	0	198180864	18	4078
2026-01-16 00:58:11.00	11.83	17.05	-29.3	-30.4	14.9	0.00e+00	0	43	0	200278016	18	4087
2026-01-16 00:58:12.01	11.77	17.17	-29.4	-30.7	14.7	2.48e-03	0	43	0	202375168	18	4187
2026-01-16 00:58:13.01	11.72	17.28	-29.2	-30.2	15.0	0.00e+00	0	43	0	204472320	18	4052
2026-01-16 00:58:14.01	11.67	17.39	-29.4	-30.6	14.8	2.46e-04	0	43	0	205520896	18	4149
2026-01-16 00:58:15.02	11.62	17.51	-29.3	-30.4	15.0	2.70e-03	0	43	0	207618048	18	4095
2026-01-16 00:58:16.02	11.56	17.62	-29.2	-30.2	15.1	0.00e+00	0	43	0	209715200	18	4027
2026-01-16 00:58:17.02	11.51	17.74	-29.5	-30.3	14.7	2.27e-04	0	43	0	211812352	19	3985
2026-01-16 00:58:18.02	11.46	17.86	-29.4	-30.6	14.8	2.51e-04	0	43	0	213909504	18	4153
2026-01-16 00:58:19.01	11.40	17.97	-29.3	-30.5	14.9	3.33e-04	0	43	0	214958080	18	4118
2026-01-16 00:58:20.02	11.35	18.09	-29.4	-30.6	14.8	3.06e-04	0	43	0	217055232	18	4161
2026-01-16 00:58:21.01	11.29	18.21	-29.2	-30.3	15.1	3.11e-04	0	43	0	219152384	18	4048
2026-01-16 00:58:22.01	11.24	18.32	-29.4	-30.7	14.8	2.72e-04	0	43	0	221249536	18	4188
2026-01-16 00:58:23.01	11.18	18.44	-29.5	-30.4	14.6	2.55e-03	0	43	0	222298112	19	3997
2026-01-16 00:58:24.01	11.12	18.56	-29.3	-30.4	15.0	3.17e-04	0	43	0	224395264	18	4081
2026-01-16 00:58:25.01	11.07	18.68	-29.4	-30.6	14.9	0.00e+00	0	43	0	226492416	18	4153
2026-01-16 00:58:26.02	11.01	18.80	-29.5	-30.8	14.7	2.72e-03	0	43	0	228589568	18	4211
2026-01-16 00:58:27.03	10.95	18.93	-29.5	-30.9	14.7	2.37e-04	0	43	0	230686720	18	4244
2026-01-16 00:58:28.03	10.89	19.05	-29.5	-30.3	14.7	0.00e+00	0	43	0	232783872	19	3980
2026-01-16 00:58:29.04	10.83	19.17	-29.6	-30.6	14.6	2.44e-03	0	43	0	233832448	19	4046
2026-01-16 00:58:30.04	10.77	19.29	-29.6	-30.6	14.5	2.39e-03	0	43	0	235929600	19	4062
2026-01-16 00:58:31.05	10.71	19.42	-29.7	-30.9	14.4	7.00e-07	0	43	0	238026752	19	4145
2026-01-16 00:58:32.05	10.65	19.54	-29.8	-31.3	14.2	2.24e-03	0	43	0	240123904	19	4245
2026-01-16 00:58:33.05	10.59	19.66	-29.7	-30.9	14.4	2.73e-03	0	43	0	241172480	19	4149
2026-01-16 00:58:34.05	10.53	19.79	-29.9	-31.4	14.1	2.71e-04	0	43	0	243269632	19	4272
2026-01-16 00:58:35.06	10.46	19.92	-30.0	-31.1	13.9	3.08e-04	0	43	0	245366784	20	4114
2026-01-16 00:58:36.05	10.40	20.04	-30.1	-31.6	13.6	2.36e-03	0	44	0	247463936	20	4258
2026-01-16 00:58:37.06	10.34	20.17	-30.0	-31.3	13.8	2.75e-04	0	43	0	249561088	20	4161
2026-01-16 00:58:38.06	10.27	20.30	-30.4	-32.4	13.0	3.61e-04	0	43	0	250609664	20	4529
2026-01-16 00:58:39.07	10.21	20.43	-30.2	-31.7	13.5	2.27e-03	0	43	0	252706816	20	4301
2026-01-16 00:58:40.07	10.14	20.55	-29.8	-30.8	14.1	2.45e-04	0	43	0	254803968	20	4038
2026-01-16 00:58:41.07	10.08	20.68	-29.8	-31.1	14.3	2.48e-03	0	43	0	256901120	19	4194
2026-01-16 00:58:42.08	10.01	20.81	-29.9	-31.0	14.0	2.43e-03	0	43	0	258998272	20	4078
2026-01-16 00:58:43.08	9.95	20.94	-30.2	-31.8	13.4	2.29e-04	0	43	0	260046848	20	4329
2026-01-16 00:58:44.08	9.88	21.08	-29.9	-30.8	14.1	2.77e-03	0	43	0	262144000	20	4034
2026-01-16 00:58:45.08	9.81	21.21	-29.6	-30.8	14.5	2.58e-03	0	43	0	264241152	19	4099
2026-01-16 00:58:46.08	9.74	21.34	-29.7	-30.9	14.5	1.88e-04	0	43	0	266338304	19	4122
2026-01-16 00:58:47.09	9.67	21.47	-29.7	-30.8	14.6	2.29e-03	0	43	0	268435456	19	4099
2026-01-16 00:58:48.09	9.60	21.61	-29.8	-31.0	14.4	2.29e-03	0	43	0	269484032	19	4173
2026-01-16 00:58:49.09	9.53	21.74	-30.1	-31.4	13.8	1.74e-04	0	43	0	271581184	20	4198
2026-01-16 00:58:50.10	9.46	21.88	-29.8	-31.2	14.3	2.05e-03	0	43	0	273678336	19	4227
2026-01-16 00:58:51.09	9.39	22.01	-30.1	-31.4	13.8	2.30e-03	0	43	0	275775488	20	4190
2026-01-16 00:58:52.10	9.32	22.15	-29.9	-30.8	14.1	1.36e-04	0	43	0	277872640	20	4032
2026-01-16 00:58:53.10	9.24	22.29	-29.7	-30.9	14.5	2.31e-03	0	43	0	278921216	19	4117
2026-01-16 00:58:54.11	9.17	22.43	-29.7	-30.9	14.5	2.22e-03	0	43	0	281018368	19	4120
2026-01-16 00:58:55.11	9.09	22.56	-29.8	-31.0	14.4	1.18e-04	0	43	0	283115520	19	4171
2026-01-16 00:58:56.11	9.02	22.70	-29.7	-30.8	14.6	0.00e+00	0	43	0	285212672	19	4100
2026-01-16 00:58:57.12	8.94	22.84	-29.7	-30.9	14.5	2.00e-03	0	43	0	287309824	19	4133
2026-01-16 00:58:58.11	8.86	22.98	-29.5	-30.3	14.8	1.37e-05	0	43	0	288358400	19	3966
2026-01-16 00:58:59.11	8.79	23.12	-29.5	-30.4	14.8	2.12e-03	0	43	0	290455552	19	3985
2026-01-16 00:59:00.12	8.71	23.27	-29.6	-30.6	14.7	2.30e-03	0	44	0	292552704	19	4039
2026-01-16 00:59:01.12	8.63	23.41	-29.3	-29.9	15.1	4.19e-05	0	43	0	294649856	19	3852
2026-01-16 00:59:02.12	8.55	23.55	-29.6	-30.6	14.7	2.45e-03	0	43	0	295698432	19	4041
2026-01-16 00:59:03.12	8.47	23.70	-29.7	-30.8	14.6	7.00e-07	0	43	0	297795584	19	4090
2026-01-16 00:59:04.13	8.39	23.84	-29.8	-31.1	14.5	1.14e-04	0	43	0	299892736	19	4174
2026-01-16 00:59:05.13	8.31	23.99	-30.0	-31.3	13.9	2.18e-03	0	43	0	301989888	20	4165
2026-01-16 00:59:06.12	8.22	24.13	-29.9	-30.9	14.1	7.00e-07	0	44	0	304087040	20	4043
2026-01-16 00:59:07.12	8.14	24.28	-30.1	-31.3	13.9	3.00e-06	0	43	0	305135616	20	4167
2026-01-16 00:59:08.13	8.05	24.43	-30.1	-31.5	13.8	2.02e-03	0	43	0	307232768	20	4217
2026-01-16 00:59:09.13	7.97	24.58	-30.0	-31.1	14.1	2.31e-03	0	43	0	309329920	20	4093
2026-01-16 00:59:10.14	7.88	24.73	-30.2	-31.8	13.6	1.29e-05	0	44	0	311427072	20	4313
2026-01-16 00:59:11.13	7.80	24.88	-30.2	-31.8	13.5	2.34e-03	0	43	0	313524224	20	4301
2026-01-16 00:59:12.13	7.71	25.03	-30.2	-31.5	13.8	2.23e-03	0	43	0	314572800	20	4225
2026-01-16 00:59:13.12	7.62	25.18	-30.4	-32.2	13.4	9.10e-06	0	44	0	316669952	20	4429
2026-01-16 00:59:14.13	7.53	25.34	-30.3	-32.0	13.5	1.67e-05	0	43	0	318767104	20	4364
2026-01-16 00:59:15.12	7.44	25.49	-30.2	-31.8	13.6	2.05e-03	0	44	0	320864256	20	4313
2026-01-16 00:59:16.12	7.35	25.64	-30.4	-32.1	13.4	4.11e-05	0	43	0	322961408	20	4415
2026-01-16 00:59:17.12	7.26	25.80	-30.2	-31.8	13.6	1.06e-05	0	43	0	324009984	20	4309
2026-01-16 00:59:18.12	7.16	25.95	-30.3	-32.1	13.5	1.75e-05	0	43	0	326107136	20	4392
2026-01-16 00:59:19.12	7.07	26.11	-30.4	-31.8	13.2	5.18e-05	0	43	0	328204288	21	4210
2026-01-16 00:59:20.13	6.97	26.27	-30.6	-32.3	13.0	2.13e-05	0	43	0	330301440	21	4364
2026-01-16 00:59:21.13	6.88	26.43	-30.5	-32.0	13.1	3.43e-05	0	43	0	331350016	21	4286
2026-01-16 00:59:22.12	6.78	26.58	-30.7	-32.5	12.9	7.62e-05	0	43	0	333447168	21	4435
2026-01-16 00:59:23.13	6.68	26.75	-30.6	-32.2	13.1	2.31e-03	0	43	0	335544320	21	4335
2026-01-16 00:59:24.12	6.58	26.90	-30.8	-32.8	12.7	9.91e-05	0	44	0	337641472	21	4540
2026-01-16 00:59:25.12	6.48	27.07	-30.6	-32.2	13.0	6.25e-05	0	43	0	339738624	21	4334
2026-01-16 00:59:26.12	6.38	27.23	-30.5	-32.0	13.2	2.09e-03	0	43	0	340787200	21	4259
2026-01-16 00:59:27.13	6.28	27.39	-30.6	-32.1	13.1	3.66e-05	0	44	0	342884352	21	4293
2026-01-16 00:59:28.13	6.17	27.56	-30.5	-31.9	13.2	1.67e-05	0	44	0	344981504	21	4239
2026-01-16 00:59:29.13	6.07	27.72	-30.4	-31.7	13.2	2.05e-05	0	43	0	347078656	21	4178
2026-01-16 00:59:30.13	5.96	27.89	-30.4	-31.7	13.6	1.37e-05	0	43	0	349175808	21	4169
2026-01-16 00:59:31.13	5.86	28.06	-30.3	-31.9	13.5	6.80e-06	0	43	0	350224384	20	4340
2026-01-16 00:59:32.12	5.75	28.22	-30.3	-31.9	13.6	6.10e-06	0	43	0	352321536	20	4333
2026-01-16 00:59:33.12	5.64	28.39	-30.0	-31.0	14.2	2.17e-03	0	43	0	354418688	20	4055
2026-01-16 00:59:34.13	5.53	28.56	-30.1	-31.2	14.1	1.50e-06	0	44	0	356515840	20	4126
2026-01-16 00:59:35.13	5.42	28.73	-30.3	-31.8	13.6	5.30e-06	0	43	0	357564416	20	4295
2026-01-16 00:59:36.13	5.30	28.91	-30.2	-31.7	13.8	6.80e-06	0	44	0	359661568	20	4261
2026-01-16 00:59:37.13	5.19	29.08	-30.4	-32.3	13.4	1.94e-04	0	44	0	361758720	20	4439
2026-01-16 00:59:38.14	5.07	29.25	-30.7	-32.5	12.9	3.66e-05	0	43	0	363855872	21	4441
2026-01-16 00:59:39.14	4.96	29.43	-30.7	-32.5	13.0	6.10e-05	0	43	0	365953024	21	4437
2026-01-16 00:59:40.14	4.84	29.60	-31.0	-33.2	12.5	1.55e-04	0	44	0	367001600	21	4664
2026-01-16 00:59:41.14	4.72	29.78	-31.3	-33.7	11.8	5.26e-04	0	43	0	369098752	22	4735
2026-01-16 00:59:42.13	4.60	29.95	-31.3	-33.6	11.9	5.62e-04	0	43	0	371195904	22	4699
2026-01-16 00:59:43.12	4.48	30.13	-31.4	-33.5	11.5	7.13e-04	0	43	0	373293056	23	4572
2026-01-16 00:59:44.13	4.35	30.31	-31.5	-33.8	11.3	1.49e-03	0	44	0	375390208	23	4698
2026-01-16 00:59:45.13	4.23	30.49	-31.6	-34.3	11.1	1.05e-03	0	43	0	376438784	23	4869
2026-01-16 00:59:46.13	4.10	30.67	-31.7	-34.3	11.0	1.38e-03	0	44	0	378535936	23	4897
2026-01-16 00:59:47.13	3.97	30.86	-31.4	-33.6	11.5	1.39e-03	0	43	0	380633088	23	4621
2026-01-16 00:59:48.13	3.85	31.04	-31.7	-34.5	10.9	2.27e-03	0	43	0	382730240	23	4947
2026-01-16 00:59:49.14	3.71	31.22	-31.6	-34.1	11.2	2.13e-03	0	44	0	384827392	23	4787
2026-01-16 00:59:50.14	3.58	31.41	-31.7	-34.6	10.8	3.01e-03	0	43	0	385875968	23	4979
2026-01-16 00:59:51.14	3.45	31.60	-31.8	-34.5	10.9	2.38e-03	0	44	0	387973120	23	4967
2026-01-16 00:59:52.15	3.31	31.78	-31.9	-34.5	10.6	3.94e-03	0	43	0	390070272	24	4866
2026-01-16 00:59:53.15	3.17	31.97	-31.8	-34.7	10.8	2.88e-03	0	44	0	392167424	23	5030
2026-01-16 00:59:54.15	3.03	32.16	-31.9	-35.0	10.5	3.05e-03	0	43	0	393216000	23	5149
2026-01-16 00:59:55.15	2.89	32.35	-31.7	-34.1	10.9	3.30e-03	0	44	0	395313152	24	4696
2026-01-16 00:59:56.15	2.75	32.54	-31.8	-34.8	10.7	1.95e-03	0	43	0	397410304	23	5082
2026-01-16 00:59:57.15	2.61	32.73	-31.8	-34.7	10.7	3.54e-03	0	44	0	399507456	23	5040
2026-01-16 00:59:58.14	2.46	32.93	-31.5	-33.8	11.5	1.61e-03	0	44	0	401604608	23	4665
2026-01-16 00:59:59.15	2.31	33.12	-31.6	-34.2	11.1	1.20e-03	0	44	0	402653184	23	4824
2026-01-16 01:00:00.15	2.16	33.32	-32.0	-35.2	10.4	2.15e-03	0	43	0	404750336	23	5245
2026-01-16 01:00:01.15	2.01	33.51	-32.1	-35.2	10.0	5.07e-03	0	44	0	406847488	24	5152
2026-01-16 01:00:02.15	1.86	33.71	-31.9	-34.7	10.2	6.48e-03	0	44	0	408944640	24	4936
2026-01-16 01:00:03.15	1.70	33.91	-32.5	-36.5	9.1	1.01e-02	0	44	0	411041792	24	5747
2026-01-16 01:00:04.15	1.55	34.11	-32.4	-35.9	9.2	1.73e-02	0	44	0	412090368	25	5361
2026-01-16 01:00:05.15	1.39	34.31	-32.1	-35.2	10.1	9.82e-03	0	44	0	414187520	24	5123
2026-01-16 01:00:06.14	1.23	34.51	-32.3	-35.8	9.6	1.03e-02	0	44	0	416284672	24	5384
2026-01-16 01:00:07.14	1.07	34.71	-32.2	-35.7	9.6	1.09e-02	0	44	0	418381824	24	5379
2026-01-16 01:00:08.14	0.90	34.91	-31.5	-35.3	9.2	8.36e-03	0	44	0	419430400	24	5600
2026-01-16 01:00:09.14	0.73	35.12	-32.6	-36.6	8.6	2.98e-02	0	44	0	421527552	25	5671
2026-01-16 01:00:10.14	0.56	35.32	-32.5	-36.6	8.6	3.54e-02	0	44	0	423624704	24	5801
2026-01-16 01:00:11.14	0.39	35.53	-32.7	-37.0	8.0	2.72e-02	0	44	0	425721856	25	5886
2026-01-16 01:00:12.15	0.22	35.74	-32.7	-37.2	8.2	5.67e-02	0	44	0	427819008	25	6004
2026-01-16 01:00:13.16	0.04	35.95	-32.3	-36.0	9.3	3.14e-02	0	44	0	428867584	24	5503
2026-01-16 01:00:14.15	359.86	36.16	-32.4	-36.4	9.1	2.12e-02	0	44	0	430964736	24	5673
2026-01-16 01:00:15.16	359.68	36.37	-32.3	-35.9	9.4	2.01e-02	0	44	0	433061888	24	5458
2026-01-16 01:00:16.16	359.50	36.58	-32.0	-35.0	10.3	3.75e-03	0	44	0	435159040	24	5047
2026-01-16 01:00:17.16	359.31	36.80	-31.8	-34.7	10.8	2.99e-03	0	44	0	437256192	23	5008
2026-01-16 01:00:18.17	359.12	37.01	-31.7	-34.2	11.3	1.84e-03	0	44	0	438304768	23	4826
2026-01-16 01:00:19.16	358.93	37.23	-31.5	-34.2	11.7	2.83e-03	0	44	0	440401920	22	4908
2026-01-16 01:00:20.16	358.74	37.44	-31.5	-33.9	11.5	7.52e-04	0	44	0	442499072	23	4709
2026-01-16 01:00:21.16	358.54	37.66	-31.5	-33.8	11.5	1.11e-03	0	44	0	444596224	23	4662
2026-01-16 01:00:22.15	358.35	37.88	-31.6	-34.1	11.3	4.21e-03	0	43	0	446693376	23	4779
2026-01-16 01:00:23.16	358.14	38.10	-31.8	-34.6	10.9	1.88e-03	0	44	0	447741952	23	4988
2026-01-16 01:00:24.16	357.94	38.32	-31.8	-34.3	10.9	2.65e-03	0	44	0	449839104	24	4769
2026-01-16 01:00:25.16	357.73	38.54	-32.0	-34.9	10.4	4.16e-03	0	44	0	451936256	24	5005
2026-01-16 01:00:26.16	357.52	38.76	-31.7	-34.2	11.2	4.18e-03	0	43	0	454033408	23	4812
2026-01-16 01:00:27.17	357.31	38.99	-31.4	-33.9	11.8	4.52e-04	0	44	0	456130560	22	4790
2026-01-16 01:00:28.17	357.09	39.21	-31.1	-32.9	12.5	2.04e-04	0	44	0	457179136	22	4449
2026-01-16 01:00:29.18	356.87	39.44	-30.7	-32.4	13.2	2.52e-03	0	44	0	459276288	21	4376
2026-01-16 01:00:30.18	356.65	39.66	-31.0	-32.7	12.6	2.38e-04	0	44	0	461373440	22	4384
2026-01-16 01:00:31.18	356.42	39.89	-31.2	-33.3	12.4	1.31e-04	0	44	0	463470592	22	4578
2026-01-16 01:00:32.17	356.20	40.12	-31.3	-33.5	12.1	2.41e-03	0	44	0	465567744	22	4669
2026-01-16 01:00:33.18	355.96	40.35	-31.3	-33.5	12.1	4.59e-04	0	44	0	466616320	22	4637
2026-01-16 01:00:34.18	355.73	40.58	-31.4	-33.8	12.0	2.78e-04	0	44	0	468713472	22	4764
2026-01-16 01:00:35.18	355.49	40.81	-31.4	-33.4	11.9	5.21e-04	0	44	0	470810624	23	4527
2026-01-16 01:00:36.17	355.25	41.04	-30.9	-32.4	12.8	5.16e-04	0	44	0	472907776	22	4292
2026-01-16 01:00:37.17	355.01	41.27	-31.2	-33.4	12.3	2.22e-03	0	44	0	473956352	22	4605
2026-01-16 01:00:38.17	354.76	41.50	-31.0	-32.8	12.6	9.53e-05	0	44	0	476053504	22	4400
2026-01-16 01:00:39.17	354.50	41.74	-30.9	-32.5	12.8	3.74e-04	0	44	0	478150656	22	4298
2026-01-16 01:00:40.17	354.25	41.97	-31.2	-33.3	12.3	2.50e-03	0	44	0	480247808	22	4582
2026-01-16 01:00:41.17	353.99	42.21	-30.9	-32.9	12.8	6.63e-05	0	44	0	482344960	21	4537
2026-01-16 01:00:42.17	353.72	42.45	-31.1	-32.9	12.6	5.18e-05	0	44	0	483393536	22	4423
2026-01-16 01:00:43.17	353.46	42.69	-31.3	-33.5	12.2	2.53e-03	0	44	0	485490688	22	4647
2026-01-16 01:00:44.17	353.18	42.92	-31.4	-33.9	11.8	2.45e-03	0	44	0	487587840	22	4808
2026-01-16 01:00:45.18	352.90	43.17	-31.8	-34.6	11.0	4.24e-04	0	44	0	489684992	23	4959
2026-01-16 01:00:46.17	352.63	43.40	-31.4	-33.9	11.8	2.61e-03	0	44	0	491782144	22	4798
2026-01-16 01:00:47.17	352.34	43.65	-31.2	-33.4	12.2	2.69e-03	0	44	0	492830720	22	4610
2026-01-16 01:00:48.16	352.05	43.88	-31.0	-32.8	12.7	3.44e-04	0	44	0	494927872	22	4411
2026-01-16 01:00:49.16	351.76	44.13	-31.4	-33.8	12.0	1.66e-04	0	44	0	497025024	22	4767
2026-01-16 01:00:50.16	351.46	44.37	-31.4	-33.4	11.9	3.14e-03	0	44	0	499122176	23	4518
2026-01-16 01:00:51.17	351.16	44.62	-31.5	-33.7	11.6	6.18e-04	0	44	0	500170752	23	4634
2026-01-16 01:00:52.17	350.85	44.86	-31.6	-33.9	11.6	5.75e-04	0	44	0	502267904	23	4700
2026-01-16 01:00:53.17	350.54	45.11	-31.3	-33.5	12.2	2.46e-03	0	44	0	504365056	22	4638
2026-01-16 01:00:54.17	350.22	45.35	-31.4	-33.4	11.9	7.26e-04	0	44	0	506462208	23	4519
2026-01-16 01:00:55.18	349.89	45.60	-31.3	-33.6	12.2	2.61e-03	0	44	0	508559360	22	4669
2026-01-16 01:00:56.18	349.57	45.85	-31.0	-32.8	12.6	1.73e-04	0	44	0	509607936	22	4415
2026-01-16 01:00:57.18	349.23	46.09	-31.3	-33.5	12.2	4.69e-04	0	44	0	511705088	22	4642
2026-01-16 01:00:58.18	348.90	46.34	-31.3	-33.4	12.2	2.56e-03	0	44	0	513802240	22	4609
2026-01-16 01:00:59.18	348.55	46.59	-31.0	-32.7	12.7	2.03e-03	0	44	0	515899392	22	4360
2026-01-16 01:01:00.18	348.20	46.83	-31.0	-32.6	12.7	1.90e-04	0	44	0	517996544	22	4353
2026-01-16 01:01:01.19	347.84	47.09	-30.6	-32.2	13.3	1.36e-03	0	44	0	519045120	21	4306
2026-01-16 01:01:02.19	347.48	47.33	-30.5	-31.9	13.5	6.53e-04	0	44	0	521142272	21	4222
2026-01-16 01:01:03.19	347.12	47.58	-30.6	-32.1	13.5	1.44e-05	0	44	0	523239424	21	4268
2026-01-16 01:01:04.19	346.75	47.83	-30.8	-32.7	13.1	1.40e-03	0	44	0	525336576	21	4454
2026-01-16 01:01:05.20	346.36	48.08	-30.5	-31.7	13.7	1.77e-03	0	44	0	527433728	21	4165
2026-01-16 01:01:06.20	345.98	48.33	-30.2	-31.1	14.1	1.50e-06	0	44	0	528482304	21	3979
2026-01-16 01:01:07.20	345.59	48.58	-30.3	-31.7	14.0	2.25e-03	0	44	0	530579456	20	4232
2026-01-16 01:01:08.20	345.19	48.83	-30.4	-31.4	13.9	2.25e-03	0	44	0	532676608	21	4078
2026-01-16 01:01:09.20	344.79	49.08	-30.7	-32.3	13.4	8.30e-06	0	44	0	534773760	21	4330
2026-01-16 01:01:10.20	344.38	49.33	-31.0	-32.8	12.7	2.21e-05	0	44	0	535822336	22	4416
2026-01-16 01:01:11.20	343.96	49.57	-31.0	-32.7	12.7	2.11e-03	0	43	0	537919488	22	4376
2026-01-16 01:01:12.20	343.53	49.82	-31.0	-32.8	12.7	8.46e-05	0	44	0	540016640	22	4400
2026-01-16 01:01:13.21	343.10	50.07	-31.0	-32.6	12.7	2.14e-03	0	44	0	542113792	22	4351
2026-01-16 01:01:14.21	342.66	50.32	-30.4	-31.6	13.7	2.34e-03	0	44	0	544210944	21	4111
2026-01-16 01:01:15.22	342.21	50.57	-30.1	-30.9	14.2	2.20e-06	0	44	0	545259520	21	3907
2026-01-16 01:01:16.22	341.76	50.81	-30.1	-31.2	14.3	2.28e-03	0	44	0	547356672	20	4092
2026-01-16 01:01:17.23	341.29	51.06	-29.9	-30.7	14.6	1.50e-06	0	44	0	549453824	20	3966
2026-01-16 01:01:18.23	340.82	51.31	-29.9	-30.6	14.6	7.00e-07	0	44	0	551550976	20	3944
2026-01-16 01:01:19.22	340.35	51.55	-29.2	-29.4	15.7	2.04e-03	0	44	0	553648128	19	3699
2026-01-16 01:01:20.22	339.87	51.79	-28.6	-28.5	16.5	0.00e+00	0	44	0	554696704	18	3561
2026-01-16 01:01:21.22	339.38	52.03	-28.3	-28.3	16.9	0.00e+00	0	44	0	556793856	17	3610
2026-01-16 01:01:22.23	338.87	52.28	-28.4	-28.7	16.6	1.42e-03	0	44	0	558891008	17	3699
2026-01-16 01:01:23.23	338.36	52.52	-28.9	-29.8	16.1	1.34e-03	0	44	0	560988160	17	3988
2026-01-16 01:01:24.23	337.84	52.76	-29.6	-30.5	15.1	0.00e+00	0	44	0	563085312	19	3984
2026-01-16 01:01:25.24	337.31	53.00	-29.8	-31.0	14.9	1.07e-03	0	44	0	564133888	19	4120
2026-01-16 01:01:26.23	336.78	53.23	-29.9	-30.9	14.5	1.04e-03	0	44	0	566231040	20	3997
2026-01-16 01:01:27.23	336.24	53.47	-30.2	-31.6	14.0	1.50e-06	0	44	0	568328192	20	4221
2026-01-16 01:01:28.24	335.68	53.70	-30.8	-32.6	13.1	2.21e-05	0	44	0	570425344	21	4440
2026-01-16 01:01:29.24	335.12	53.93	-30.8	-32.2	13.1	1.29e-03	0	44	0	572522496	22	4225
2026-01-16 01:01:30.24	334.55	54.16	-31.0	-32.7	12.9	6.02e-05	0	44	0	573571072	22	4364
2026-01-16 01:01:31.24	333.97	54.39	-30.3	-31.3	13.9	4.50e-06	0	44	0	575668224	21	4036
2026-01-16 01:01:32.25	333.38	54.62	-29.8	-30.4	14.8	1.17e-03	0	44	0	577765376	20	3880
2026-01-16 01:01:33.25	332.78	54.84	-29.7	-30.2	15.1	0.00e+00	0	44	0	579862528	20	3825
2026-01-16 01:01:34.25	332.17	55.06	-29.8	-30.5	14.7	1.50e-06	0	44	0	580911104	20	3909
2026-01-16 01:01:35.25	331.56	55.28	-30.4	-32.0	13.9	2.20e-06	0	44	0	583008256	20	4326
2026-01-16 01:01:36.26	330.92	55.50	-30.9	-32.3	13.0	3.50e-05	0	44	0	585105408	22	4253
2026-01-16 01:01:37.26	330.29	55.72	-31.0	-32.8	12.8	1.89e-03	0	44	0	587202560	22	4396
2026-01-16 01:01:38.26	329.64	55.93	-30.7	-32.2	13.3	2.82e-05	0	44	0	589299712	21	4302
2026-01-16 01:01:39.26	328.99	56.14	-30.2	-31.0	14.1	2.20e-06	0	44	0	590348288	21	3950
2026-01-16 01:01:40.26	328.32	56.34	-30.2	-31.4	14.2	1.83e-03	0	44	0	592445440	20	4135
2026-01-16 01:01:41.26	327.64	56.54	-30.1	-31.2	14.4	4.50e-06	0	44	0	594542592	20	4084
2026-01-16 01:01:42.26	326.96	56.74	-30.3	-31.7	14.0	3.00e-06	0	44	0	596639744	20	4249
2026-01-16 01:01:43.26	326.26	56.94	-30.1	-31.2	14.3	2.23e-03	0	44	0	598736896	20	4099
2026-01-16 01:01:44.26	325.56	57.13	-30.1	-31.1	14.3	2.13e-03	0	44	0	599785472	20	4078
2026-01-16 01:01:45.26	324.84	57.32	-30.2	-31.6	14.1	3.00e-06	0	44	0	601882624	20	4216
2026-01-16 01:01:46.27	324.11	57.51	-30.0	-30.9	14.5	2.20e-06	0	44	0	603979776	20	4003
2026-01-16 01:01:47.28	323.36	57.69	-29.9	-30.7	14.6	1.52e-03	0	44	0	606076928	20	3951
2026-01-16 01:01:48.27	322.63	57.87	-29.8	-30.5	14.8	1.50e-06	0	44	0	608174080	20	3895
2026-01-16 01:01:49.27	321.87	58.04	-29.8	-30.5	14.8	0.00e+00	0	44	0	609222656	20	3907
2026-01-16 01:01:50.28	321.10	58.21	-29.5	-30.3	15.2	2.66e-04	0	44	0	611319808	19	3923
2026-01-16 01:01:51.28	320.32	58.37	-29.9	-30.8	14.6	1.50e-06	0	44	0	613416960	20	3970
2026-01-16 01:01:52.29	319.53	58.54	-30.4	-32.0	13.9	7.00e-07	0	44	0	615514112	20	4344
2026-01-16 01:01:53.29	318.74	58.69	-30.8	-32.8	13.0	1.60e-05	0	44	0	617611264	21	4497
2026-01-16 01:01:54.30	317.92	58.84	-30.7	-32.3	13.3	3.43e-05	0	44	0	618659840	21	4331
2026-01-16 01:01:55.30	317.11	58.99	-30.4	-31.5	13.8	4.50e-06	0	44	0	620756992	21	4093
2026-01-16 01:01:56.30	316.29	59.13	-30.2	-31.6	14.1	1.50e-06	0	44	0	622854144	20	4226
2026-01-16 01:01:57.31	315.45	59.27	-30.6	-32.2	13.4	6.10e-06	0	44	0	624951296	21	4293
2026-01-16 01:01:58.31	314.61	59.40	-30.3	-31.3	13.9	1.22e-05	0	44	0	625999872	21	4048
2026-01-16 01:01:59.32	313.76	59.52	-29.7	-30.1	15.0	7.00e-07	0	44	0	628097024	20	3794
2026-01-16 01:02:00.31	312.91	59.64	-29.6	-30.0	15.1	3.00e-06	0	44	0	630194176	20	3768
2026-01-16 01:02:01.31	312.05	59.75	-30.3	-31.8	14.1	1.46e-03	0	44	0	632291328	20	4260
2026-01-16 01:02:02.32	311.17	59.86	-30.8	-32.0	12.9	2.74e-05	0	44	0	634388480	22	4159
2026-01-16 01:02:03.32	310.29	59.96	-30.2	-31.0	14.2	1.29e-05	0	44	0	635437056	21	3945
2026-01-16 01:02:04.31	309.42	60.06	-29.9	-30.8	14.6	0.00e+00	0	44	0	637534208	20	3970
2026-01-16 01:02:05.31	308.52	60.15	-30.3	-31.8	13.9	2.20e-06	0	44	0	639631360	20	4281
2026-01-16 01:02:06.31	307.63	60.23	-30.8	-32.7	13.1	1.34e-04	0	44	0	641728512	21	4481
2026-01-16 01:02:07.31	306.73	60.31	-30.8	-32.3	13.1	7.85e-05	0	44	0	643825664	22	4231
2026-01-16 01:02:08.31	305.82	60.38	-30.9	-32.3	13.0	7.85e-05	0	44	0	644874240	22	4243
2026-01-16 01:02:09.31	304.90	60.44	-30.7	-31.8	13.4	7.09e-05	0	44	0	646971392	22	4088
2026-01-16 01:02:10.32	303.98	60.50	-31.0	-32.6	12.8	3.20e-05	0	44	0	649068544	22	4338
2026-01-16 01:02:11.31	303.07	60.55	-31.2	-33.2	12.4	6.56e-05	0	44	0	651165696	22	4546
2026-01-16 01:02:12.31	302.14	60.60	-31.3	-33.6	12.1	3.29e-04	0	44	0	652214272	22	4672
2026-01-16 01:02:13.32	301.20	60.64	-30.7	-31.7	13.4	3.66e-05	0	44	0	654311424	22	4063
2026-01-16 01:02:14.32	300.27	60.67	-30.4	-31.6	13.8	5.30e-06	0	44	0	656408576	21	4133
2026-01-16 01:02:15.32	299.34	60.70	-30.6	-32.0	13.5	1.23e-04	0	44	0	658505728	21	4258
2026-01-16 01:02:16.32	298.41	60.71	-30.5	-31.7	13.7	1.51e-04	0	44	0	660602880	21	4166
2026-01-16 01:02:17.32	297.47	60.73	-30.2	-31.0	14.2	5.30e-06	0	44	0	662700032	21	3956
2026-01-16 01:02:18.32	296.54	60.73	-29.4	-29.6	15.3	7.00e-07	0	44	0	663748608	20	3655
2026-01-16 01:02:19.33	295.59	60.73	-28.9	-29.2	16.2	3.65e-04	0	44	0	665845760	18	3731
2026-01-16 01:02:20.33	294.66	60.72	-28.2	-28.2	17.0	0.00e+00	0	44	0	667942912	17	3581
2026-01-16 01:02:21.33	293.72	60.70	-28.3	-28.4	16.9	0.00e+00	0	44	0	670040064	17	3643
2026-01-16 01:02:22.33	292.79	60.68	-28.9	-29.8	16.2	0.00e+00	0	44	0	671088640	17	3984
2026-01-16 01:02:23.34	291.85	60.65	-29.2	-30.1	15.7	0.00e+00	0	44	0	673185792	18	3958
2026-01-16 01:02:24.34	290.92	60.62	-29.2	-30.0	15.7	8.46e-05	0	44	0	675282944	18	3935
2026-01-16 01:02:25.34	289.99	60.57	-28.7	-28.9	16.3	1.60e-04	0	44	0	677380096	18	3665
2026-01-16 01:02:26.35	289.06	60.52	-28.0	-27.7	17.3	0.00e+00	0	44	0	679477248	17	3496
2026-01-16 01:02:27.34	288.15	60.47	-26.9	-27.3	17.3	1.60e-04	0	44	0	680525824	15	3757
2026-01-16 01:02:28.34	287.23	60.41	-28.7	-29.3	16.3	1.30e-04	0	44	0	682622976	17	3864
2026-01-16 01:02:29.34	286.32	60.34	-29.0	-29.6	15.9	0.00e+00	0	44	0	684720128	18	3850
2026-01-16 01:02:30.35	285.41	60.26	-29.6	-30.5	14.0	1.80e-04	0	44	0	686817280	19	3984
2026-01-16 01:02:31.35	284.51	60.18	-29.7	-30.7	13.8	1.45e-04	0	44	0	688914432	19	4045
2026-01-16 01:02:32.35	283.62	60.09	-28.6	-28.6	16.5	0.00e+00	0	44	0	689963008	18	3595
2026-01-16 01:02:33.35	282.73	60.00	-27.6	-27.8	17.5	0.00e+00	0	44	0	692060160	15	3686
2026-01-16 01:02:34.36	281.84	59.90	-28.2	-28.6	17.0	0.00e+00	0	44	0	694157312	16	3791
2026-01-16 01:02:35.36	280.97	59.79	-28.8	-29.4	16.2	0.00e+00	0	44	0	696254464	17	3893
2026-01-16 01:02:36.37	280.09	59.68	-29.5	-30.7	15.3	0.00e+00	0	44	0	697303040	18	4138
2026-01-16 01:02:37.37	279.23	59.56	-29.9	-31.3	14.6	1.12e-04	0	44	0	699400192	19	4225
2026-01-16 01:02:38.37	278.38	59.44	-29.9	-31.2	14.7	0.00e+00	0	44	0	701497344	19	4186
2026-01-16 01:02:39.38	277.53	59.31	-29.5	-30.4	15.1	2.08e-03	0	44	0	703594496	19	3954
2026-01-16 01:02:40.38	276.70	59.18	-29.8	-30.9	14.9	4.50e-05	0	44	0	705691648	19	4113
2026-01-16 01:02:41.38	275.87	59.04	-30.4	-32.2	13.7	7.00e-07	0	44	0	707788800	20	4414
2026-01-16 01:02:42.39	275.05	58.89	-30.3	-31.4	13.8	2.05e-03	0	44	0	708837376	21	4086
2026-01-16 01:02:43.38	274.25	58.75	-29.5	-30.3	15.1	2.42e-03	0	44	0	710934528	19	3948
2026-01-16 01:02:44.38	273.45	58.59	-29.1	-29.2	15.8	0.00e+00	0	44	0	713031680	19	3664
2026-01-16 01:02:45.38	272.66	58.43	-29.5	-30.2	15.3	9.68e-05	0	44	0	715128832	19	3897
2026-01-16 01:02:46.38	271.88	58.27	-29.4	-30.4	15.5	2.13e-03	0	44	0	716177408	18	4060
2026-01-16 01:02:47.37	271.12	58.10	-29.6	-30.5	15.2	0.00e+00	0	44	0	718274560	19	3992
2026-01-16 01:02:48.37	270.36	57.93	-29.6	-30.4	15.1	1.58e-04	0	44	0	720371712	19	3967
2026-01-16 01:02:49.38	269.60	57.76	-29.0	-29.6	15.9	1.92e-03	0	44	0	722468864	18	3847
2026-01-16 01:02:50.38	268.86	57.58	-29.0	-29.4	16.0	0.00e+00	0	44	0	724566016	18	3782
2026-01-16 01:02:51.38	268.13	57.39	-29.0	-29.5	16.0	1.71e-04	0	44	0	725614592	18	3806
2026-01-16 01:02:52.38	267.41	57.20	-28.8	-29.5	16.3	1.35e-04	0	44	0	727711744	17	3899
2026-01-16 01:02:53.38	266.69	57.01	-28.6	-29.2	16.5	0.00e+00	0	44	0	729808896	17	3827
2026-01-16 01:02:54.38	265.99	56.82	-28.5	-28.8	16.6	2.18e-03	0	44	0	731906048	17	3728
2026-01-16 01:02:55.39	265.30	56.62	-28.3	-28.8	16.9	0.00e+00	0	44	0	734003200	16	3823
2026-01-16 01:02:56.39	264.62	56.41	-28.5	-28.9	16.6	3.00e-06	0	44	0	735051776	17	3763
2026-01-16 01:02:57.39	263.94	56.21	-28.8	-29.6	16.2	2.05e-03	0	44	0	737148928	17	3944
2026-01-16 01:02:58.41	263.27	56.00	-28.8	-29.1	16.2	3.08e-04	0	44	0	739246080	18	3716
2026-01-16 01:02:59.41	262.62	55.79	-28.9	-29.3	16.0	0.00e+00	0	44	0	741343232	18	3776
2026-01-16 01:03:00.41	261.98	55.57	-29.3	-30.2	15.5	1.63e-03	0	44	0	743440384	18	4002
2026-01-16 01:03:01.41	261.35	55.36	-29.2	-30.1	15.7	1.66e-03	0	44	0	744488960	18	3964
2026-01-16 01:03:02.42	260.72	55.14	-29.3	-30.2	15.6	0.00e+00	0	44	0	746586112	18	3999
2026-01-16 01:03:03.42	260.11	54.92	-29.8	-31.0	14.9	4.92e-04	0	44	0	748683264	19	4124
2026-01-16 01:03:04.43	259.50	54.69	-29.8	-30.6	14.7	2.68e-04	0	44	0	750780416	20	3933
2026-01-16 01:03:05.43	258.91	54.46	-30.1	-31.4	14.3	7.00e-07	0	44	0	752877568	20	4144
2026-01-16 01:03:06.43	258.32	54.24	-30.3	-31.7	14.1	1.49e-03	0	44	0	753926144	20	4255
2026-01-16 01:03:07.43	257.75	54.01	-29.7	-30.2	14.9	1.12e-03	0	44	0	756023296	20	3832
2026-01-16 01:03:08.43	257.18	53.78	-29.7	-30.3	14.8	2.20e-06	0	44	0	758120448	20	3843
2026-01-16 01:03:09.42	256.63	53.55	-30.4	-32.0	13.8	1.50e-06	0	44	0	760217600	20	4332
2026-01-16 01:03:10.43	256.08	53.31	-30.5	-31.9	13.4	1.52e-05	0	44	0	761266176	21	4221
2026-01-16 01:03:11.42	255.55	53.07	-30.7	-32.4	13.1	3.73e-05	0	44	0	763363328	21	4369
2026-01-16 01:03:12.43	255.01	52.83	-30.3	-31.4	13.7	1.20e-03	0	44	0	765460480	21	4073
2026-01-16 01:03:13.44	254.49	52.59	-29.9	-30.9	14.5	1.67e-03	0	44	0	767557632	20	4008
2026-01-16 01:03:14.44	253.97	52.35	-30.0	-30.9	14.4	3.00e-06	0	44	0	769654784	20	4013
2026-01-16 01:03:15.44	253.47	52.11	-30.0	-31.4	14.5	1.44e-03	0	44	0	770703360	19	4238
2026-01-16 01:03:16.44	252.97	51.87	-30.0	-31.1	14.3	1.06e-05	0	44	0	772800512	20	4079
2026-01-16 01:03:17.44	252.48	51.62	-30.4	-32.2	13.6	6.80e-06	0	44	0	774897664	20	4428
2026-01-16 01:03:18.43	252.01	51.38	-31.1	-33.0	12.4	1.83e-03	0	44	0	776994816	22	4503
2026-01-16 01:03:19.43	251.54	51.14	-30.1	-30.8	14.1	1.59e-03	0	44	0	779091968	21	3907
2026-01-16 01:03:20.44	251.07	50.89	-29.2	-29.6	15.5	1.52e-05	0	44	0	780140544	19	3757
2026-01-16 01:03:21.44	250.61	50.64	-29.1	-29.8	15.8	4.17e-04	0	44	0	782237696	18	3903
2026-01-16 01:03:22.43	250.17	50.40	-29.9	-30.9	14.4	4.57e-04	0	44	0	784334848	20	4030
2026-01-16 01:03:23.43	249.72	50.15	-30.7	-32.4	13.0	3.76e-04	0	44	0	786432000	21	4399
2026-01-16 01:03:24.43	249.29	49.90	-31.4	-34.1	11.7	2.68e-03	0	44	0	788529152	22	4867
2026-01-16 01:03:25.44	248.86	49.65	-31.8	-34.6	11.0	2.88e-03	0	44	0	789577728	23	4997
2026-01-16 01:03:26.43	248.44	49.40	-31.4	-33.6	11.6	2.08e-03	0	44	0	791674880	23	4595
2026-01-16 01:03:27.43	248.03	49.15	-31.1	-33.2	12.2	2.63e-03	0	44	0	793772032	22	4562
2026-01-16 01:03:28.44	247.61	48.90	-31.1	-33.2	12.2	3.05e-03	0	44	0	795869184	22	4546
2026-01-16 01:03:29.44	247.21	48.65	-31.1	-33.0	12.3	7.92e-04	0	44	0	796917760	22	4497
2026-01-16 01:03:30.44	246.82	48.40	-31.4	-34.0	11.7	3.62e-04	0	44	0	799014912	22	4833
2026-01-16 01:03:31.44	246.43	48.15	-32.2	-35.5	10.0	5.61e-03	0	44	0	801112064	24	5277
2026-01-16 01:03:32.45	246.05	47.90	-32.9	-38.1	7.5	4.37e-02	0	44	0	803209216	25	6501
2026-01-16 01:03:33.45	245.67	47.65	-32.6	-36.7	8.4	7.67e-02	0	44	0	805306368	25	5780
2026-01-16 01:03:34.45	245.30	47.40	-32.0	-34.9	10.2	1.16e-02	0	43	0	806354944	24	5037
2026-01-16 01:03:35.45	244.94	47.15	-31.8	-34.2	10.8	6.07e-03	0	44	0	808452096	24	4768
2026-01-16 01:03:36.44	244.58	46.91	-31.8	-34.2	10.7	7.02e-03	0	44	0	810549248	24	4763
2026-01-16 01:03:37.44	244.23	46.66	-32.0	-34.9	10.2	6.47e-03	0	44	0	812646400	24	5012
2026-01-16 01:03:38.44	243.89	46.41	-31.8	-34.7	10.7	5.08e-03	0	44	0	814743552	23	5052
2026-01-16 01:03:39.44	243.54	46.16	-31.8	-34.7	10.8	4.22e-03	0	44	0	815792128	23	5048
2026-01-16 01:03:40.45	243.21	45.91	-31.3	-33.3	11.7	4.33e-03	0	44	0	817889280	23	4511
2026-01-16 01:03:41.44	242.88	45.67	-30.6	-31.6	13.2	5.34e-05	0	44	0	819986432	22	4064
2026-01-16 01:03:42.44	242.55	45.42	-30.4	-31.7	13.5	2.36e-03	0	44	0	822083584	21	4174
2026-01-16 01:03:43.44	242.23	45.17	-30.7	-32.3	13.1	2.08e-03	0	44	0	823132160	21	4369
2026-01-16 01:03:44.45	241.91	44.93	-30.5	-32.0	13.3	1.98e-05	0	44	0	825229312	21	4261
2026-01-16 01:03:45.44	241.61	44.68	-30.9	-33.0	12.7	3.89e-05	0	44	0	827326464	21	4576
2026-01-16 01:03:46.45	241.30	44.44	-31.3	-33.8	11.7	2.50e-03	0	44	0	829423616	22	4783
2026-01-16 01:03:47.45	241.00	44.19	-31.9	-35.0	10.5	8.58e-04	0	44	0	831520768	23	5171
2026-01-16 01:03:48.45	240.70	43.95	-31.7	-33.9	10.9	5.39e-03	0	44	0	832569344	24	4663
2026-01-16 01:03:49.46	240.41	43.70	-31.3	-33.2	11.9	3.79e-03	0	44	0	834666496	23	4459
2026-01-16 01:03:50.46	240.12	43.46	-31.0	-32.7	12.5	3.68e-04	0	44	0	836763648	22	4384
2026-01-16 01:03:51.46	239.84	43.22	-30.8	-32.8	12.7	5.26e-05	0	44	0	838860800	21	4532
2026-01-16 01:03:52.45	239.56	42.98	-31.0	-32.7	12.5	4.11e-05	0	44	0	840957952	22	4393
2026-01-16 01:03:53.45	239.29	42.74	-31.0	-32.6	12.6	2.60e-04	0	44	0	842006528	22	4370
2026-01-16 01:03:54.46	239.01	42.50	-30.8	-32.8	12.8	2.20e-03	0	44	0	844103680	21	4522
2026-01-16 01:03:55.46	238.75	42.26	-31.2	-33.4	11.9	2.68e-04	0	44	0	846200832	22	4652
2026-01-16 01:03:56.46	238.48	42.02	-31.0	-32.7	12.5	1.62e-04	0	44	0	848297984	22	4416
2026-01-16 01:03:57.47	238.22	41.79	-30.4	-31.7	13.5	2.40e-03	0	44	0	850395136	21	4170
2026-01-16 01:03:58.47	237.97	41.55	-30.5	-31.9	13.4	1.67e-05	0	44	0	851443712	21	4230
2026-01-16 01:03:59.47	237.72	41.32	-30.8	-32.7	12.9	1.52e-05	0	44	0	853540864	21	4502
2026-01-16 01:04:00.47	237.47	41.08	-31.2	-33.4	12.0	2.19e-03	0	44	0	855638016	22	4647
2026-01-16 01:04:01.47	237.23	40.85	-31.3	-33.7	11.8	4.73e-04	0	44	0	857735168	22	4742
2026-01-16 01:04:02.47	236.98	40.62	-31.5	-33.8	11.5	5.60e-04	0	44	0	859832320	23	4702
2026-01-16 01:04:03.47	236.75	40.38	-31.3	-33.2	11.8	1.17e-03	0	44	0	860880896	23	4486
2026-01-16 01:04:04.47	236.51	40.15	-31.5	-34.0	11.2	3.50e-03	0	44	0	862978048	23	4769
2026-01-16 01:04:05.47	236.28	39.93	-31.9	-34.6	10.4	5.23e-03	0	44	0	865075200	24	4937
2026-01-16 01:04:06.48	236.06	39.69	-31.9	-34.6	10.4	5.44e-03	0	44	0	867172352	24	4923
2026-01-16 01:04:07.48	235.83	39.47	-31.6	-34.1	11.1	1.60e-03	0	44	0	868220928	23	4804
2026-01-16 01:04:08.47	235.61	39.24	-31.4	-34.0	11.6	3.66e-04	0	44	0	870318080	22	4874
2026-01-16 01:04:09.47	235.40	39.02	-31.2	-33.6	11.8	6.32e-04	0	44	0	872415232	22	4700
2026-01-16 01:04:10.47	235.18	38.79	-31.0	-32.8	12.4	4.55e-04	0	44	0	874512384	22	4448
2026-01-16 01:04:11.47	234.97	38.57	-30.9	-32.6	12.5	2.36e-04	0	44	0	876609536	22	4376
2026-01-16 01:04:12.48	234.76	38.35	-31.0	-33.4	12.4	9.68e-05	0	44	0	877658112	21	4723
2026-01-16 01:04:13.48	234.55	38.12	-31.5	-34.4	11.3	3.44e-04	0	44	0	879755264	22	5019
2026-01-16 01:04:14.49	234.35	37.90	-31.3	-33.4	11.7	5.02e-04	0	44	0	881852416	23	4552
2026-01-16 01:04:15.49	234.15	37.68	-31.5	-33.8	11.4	7.62e-04	0	44	0	883949568	23	4702
2026-01-16 01:04:16.49	233.95	37.46	-31.5	-33.9	11.2	1.14e-03	0	44	0	886046720	23	4760
2026-01-16 01:04:17.49	233.76	37.25	-31.4	-33.7	11.3	2.32e-03	0	43	0	887095296	23	4677
2026-01-16 01:04:18.49	233.56	37.03	-30.8	-32.4	12.7	2.18e-03	0	44	0	889192448	22	4299
2026-01-16 01:04:19.49	233.37	36.82	-30.4	-31.7	13.4	3.12e-05	0	44	0	891289600	21	4183
2026-01-16 01:04:20.50	233.18	36.60	-30.6	-32.2	13.2	1.37e-05	0	44	0	893386752	21	4324
2026-01-16 01:04:21.50	233.00	36.39	-30.8	-32.8	12.7	3.43e-05	0	44	0	895483904	21	4537
2026-01-16 01:04:22.51	232.82	36.17	-31.1	-33.1	12.2	1.29e-04	0	44	0	896532480	22	4569
2026-01-16 01:04:23.51	232.64	35.96	-31.3	-33.9	11.7	7.80e-04	0	44	0	898629632	22	4855
2026-01-16 01:04:24.51	232.46	35.75	-31.4	-33.5	11.4	2.05e-03	0	44	0	900726784	23	4615
2026-01-16 01:04:25.51	232.28	35.54	-31.1	-33.2	12.0	8.78e-04	0	44	0	902823936	22	4603
2026-01-16 01:04:26.51	232.11	35.34	-31.2	-33.5	11.8	3.17e-04	0	44	0	903872512	22	4702
2026-01-16 01:04:27.52	231.94	35.13	-31.4	-34.3	11.4	3.91e-04	0	44	0	905969664	22	4997
2026-01-16 01:04:28.52	231.77	34.92	-31.6	-34.4	10.9	1.32e-03	0	44	0	908066816	23	4941
2026-01-16 01:04:29.52	231.60	34.72	-31.3	-33.5	11.5	9.98e-04	0	44	0	910163968	23	4612
2026-01-16 01:04:30.52	231.44	34.51	-31.1	-32.8	12.0	9.97e-04	0	44	0	912261120	23	4370
2026-01-16 01:04:31.52	231.28	34.31	-30.3	-31.0	13.3	8.08e-05	0	44	0	913309696	22	3909
2026-01-16 01:04:32.52	231.12	34.11	-29.3	-30.6	13.9	1.47e-04	0	44	0	915406848	20	4181
2026-01-16 01:04:33.53	230.96	33.91	-30.2	-32.1	13.4	1.57e-04	0	44	0	917504000	19	4499
2026-01-16 01:04:34.53	230.80	33.71	-30.6	-32.4	12.9	1.52e-05	0	44	0	919601152	21	4417
2026-01-16 01:04:35.54	230.64	33.51	-31.2	-33.6	11.0	2.53e-03	0	44	0	921698304	22	4742
2026-01-16 01:04:36.54	230.49	33.31	-31.2	-33.5	11.4	9.07e-04	0	44	0	922746880	22	4700
2026-01-16 01:04:37.54	230.34	33.11	-30.8	-32.5	12.5	3.56e-04	0	44	0	924844032	22	4348
2026-01-16 01:04:38.54	230.19	32.92	-30.7	-32.5	12.8	1.79e-04	0	44	0	926941184	21	4443
2026-01-16 01:04:39.54	230.05	32.72	-30.5	-32.4	13.2	3.66e-05	0	44	0	929038336	20	4520
2026-01-16 01:04:40.54	229.90	32.53	-30.9	-33.1	12.4	3.20e-05	0	44	0	931135488	21	4669
2026-01-16 01:04:41.55	229.76	32.34	-31.4	-34.2	11.4	2.74e-04	0	44	0	932184064	22	4956
2026-01-16 01:04:42.55	229.61	32.15	-31.7	-34.6	10.6	5.02e-03	0	44	0	934281216	23	5054
2026-01-16 01:04:43.54	229.48	31.96	-31.8	-34.7	10.2	8.41e-03	0	44	0	936378368	24	4985
2026-01-16 01:04:44.54	229.34	31.77	-31.7	-34.6	10.6	4.29e-03	0	44	0	938475520	23	5057
2026-01-16 01:04:45.54	229.20	31.58	-31.3	-34.1	11.4	1.70e-03	0	44	0	940572672	22	4925
2026-01-16 01:04:46.54	229.07	31.39	-31.1	-33.2	12.0	4.36e-04	0	44	0	941621248	22	4604
2026-01-16 01:04:47.54	228.93	31.21	-31.3	-34.0	11.4	2.64e-04	0	44	0	943718400	22	4880
2026-01-16 01:04:48.54	228.80	31.02	-31.3	-33.9	11.5	1.80e-03	0	44	0	945815552	22	4852
2026-01-16 01:04:49.54	228.67	30.84	-31.3	-33.8	11.5	9.64e-04	0	44	0	947912704	22	4822
2026-01-16 01:04:50.54	228.54	30.66	-31.4	-34.2	11.2	9.47e-04	0	44	0	948961280	22	4988
2026-01-16 01:04:51.55	228.41	30.47	-31.3	-33.9	11.5	8.79e-04	0	44	0	951058432	22	4850
2026-01-16 01:04:52.54	228.29	30.29	-31.1	-33.4	11.8	6.25e-04	0	44	0	953155584	22	4680
2026-01-16 01:04:53.55	228.16	30.11	-31.1	-33.2	12.0	2.40e-03	0	44	0	955252736	22	4608
2026-01-16 01:04:54.56	228.04	29.93	-31.2	-33.5	11.7	1.39e-03	0	44	0	957349888	22	4725
2026-01-16 01:04:55.55	227.92	29.75	-31.2	-33.5	11.8	5.16e-04	0	44	0	958398464	22	4709
2026-01-16 01:04:56.55	227.80	29.58	-31.5	-34.0	11.0	3.15e-03	0	44	0	960495616	23	4826
2026-01-16 01:04:57.55	227.68	29.40	-31.8	-35.0	10.3	4.46e-03	0	44	0	962592768	23	5206
2026-01-16 01:04:58.55	227.56	29.23	-32.1	-35.5	9.5	7.19e-03	0	44	0	964689920	24	5342
2026-01-16 01:04:59.55	227.44	29.05	-32.0	-35.2	9.7	1.70e-02	0	44	0	966787072	24	5228
2026-01-16 01:05:00.55	227.33	28.88	-31.6	-34.4	10.7	8.86e-03	0	44	0	967835648	23	4948
2026-01-16 01:05:01.55	227.21	28.71	-31.3	-33.5	11.3	1.48e-03	0	44	0	969932800	23	4606
2026-01-16 01:05:02.54	227.10	28.54	-30.9	-33.2	12.2	1.46e-03	0	44	0	972029952	21	4700
2026-01-16 01:05:03.55	226.99	28.36	-30.9	-33.3	12.1	2.33e-03	0	44	0	974127104	21	4739
2026-01-16 01:05:04.54	226.88	28.20	-30.8	-32.5	12.4	3.98e-04	0	44	0	975175680	22	4371
2026-01-16 01:05:05.54	226.77	28.03	-30.8	-33.0	12.3	1.23e-03	0	44	0	977272832	21	4650
2026-01-16 01:05:06.54	226.66	27.86	-30.9	-33.1	12.3	1.22e-03	0	44	0	979369984	21	4678
2026-01-16 01:05:07.55	226.56	27.69	-30.8	-33.1	12.3	2.49e-04	0	44	0	981467136	21	4663
2026-01-16 01:05:08.55	226.45	27.52	-30.5	-32.3	12.9	1.09e-04	0	44	0	983564288	21	4391
2026-01-16 01:05:09.55	226.35	27.36	-30.4	-32.4	13.2	5.12e-04	0	44	0	984612864	20	4517
2026-01-16 01:05:10.55	226.24	27.19	-30.2	-31.8	13.5	1.27e-04	0	44	0	986710016	20	4341
2026-01-16 01:05:11.56	226.14	27.03	-30.1	-31.5	13.7	1.91e-03	0	44	0	988807168	20	4231
2026-01-16 01:05:12.56	226.04	26.87	-30.2	-32.0	13.3	1.67e-05	0	44	0	990904320	20	4382
2026-01-16 01:05:13.56	225.94	26.71	-30.1	-31.7	13.6	2.77e-04	0	44	0	993001472	20	4297
2026-01-16 01:05:14.57	225.84	26.54	-30.5	-32.1	12.9	2.06e-03	0	44	0	994050048	21	4353
2026-01-16 01:05:15.57	225.74	26.38	-30.8	-32.9	12.4	2.47e-03	0	44	0	996147200	21	4601
2026-01-16 01:05:16.58	225.64	26.22	-31.0	-33.6	11.8	2.22e-04	0	44	0	998244352	21	4850
2026-01-16 01:05:17.58	225.54	26.06	-31.2	-33.6	11.6	3.21e-03	0	44	0	1000341504	22	4771
2026-01-16 01:05:18.58	225.45	25.91	-31.4	-34.3	11.1	3.72e-03	0	44	0	1002438656	22	5035
2026-01-16 01:05:19.58	225.35	25.75	-31.3	-34.1	11.2	1.36e-03	0	44	0	1003487232	22	4953
2026-01-16 01:05:20.58	225.26	25.59	-31.2	-33.6	11.6	3.09e-03	0	44	0	1005584384	22	4747
2026-01-16 01:05:21.59	225.17	25.44	-31.1	-33.5	11.6	2.62e-03	0	44	0	1007681536	22	4745
2026-01-16 01:05:22.60	225.08	25.28	-31.0	-33.1	11.9	1.24e-03	0	44	0	1009778688	22	4592
2026-01-16 01:05:23.60	224.99	25.13	-31.1	-33.3	11.8	3.96e-04	0	44	0	1011875840	22	4676
2026-01-16 01:05:24.60	224.90	24.98	-31.0	-33.2	11.8	1.06e-03	0	44	0	1012924416	22	4635
2026-01-16 01:05:25.60	224.81	24.82	-30.9	-33.5	11.9	8.61e-04	0	44	0	1015021568	21	4816
2026-01-16 01:05:26.61	224.72	24.67	-31.0	-33.6	11.9	3.97e-04	0	44	0	1017118720	21	4854
2026-01-16 01:05:27.61	224.63	24.52	-30.9	-33.3	12.1	7.69e-04	0	44	0	1019215872	21	4768
2026-01-16 01:05:28.61	224.55	24.37	-31.1	-33.4	11.7	6.13e-04	0	44	0	1021313024	22	4682
2026-01-16 01:05:29.61	224.46	24.22	-31.2	-33.8	11.4	3.02e-03	0	44	0	1022361600	22	4837
2026-01-16 01:05:30.62	224.38	24.08	-31.2	-33.8	11.3	3.44e-03	0	44	0	1024458752	22	4849
2026-01-16 01:05:31.61	224.29	23.93	-31.2	-33.7	11.4	8.91e-04	0	44	0	1026555904	22	4813
2026-01-16 01:05:32.61	224.21	23.78	-31.3	-34.1	11.1	3.32e-03	0	44	0	1028653056	22	4955
2026-01-16 01:05:33.61	224.13	23.64	-31.2	-33.9	11.2	4.02e-03	0	44	0	1029701632	22	4895
2026-01-16 01:05:34.61	224.05	23.49	-31.1	-33.6	11.5	8.90e-04	0	44	0	1031798784	22	4763
2026-01-16 01:05:35.61	223.97	23.35	-31.1	-33.3	11.7	3.28e-03	0	44	0	1033895936	22	4680
2026-01-16 01:05:36.61	223.89	23.21	-31.1	-33.6	11.5	3.46e-03	0	44	0	1035993088	22	4768
2026-01-16 01:05:37.61	223.81	23.06	-30.9	-32.9	11.9	5.89e-04	0	44	0	1038090240	22	4531
2026-01-16 01:05:38.61	223.73	22.92	-30.7	-32.8	12.3	2.82e-03	0	44	0	1039138816	21	4597
2026-01-16 01:05:39.62	223.65	22.78	-30.4	-31.9	12.9	2.50e-03	0	44	0	1041235968	21	4284
2026-01-16 01:05:40.61	223.57	22.64	-30.2	-31.4	13.3	1.46e-04	0	44	0	1043333120	21	4123
2026-01-16 01:05:41.61	223.50	22.50	-29.9	-31.2	13.6	2.40e-03	0	44	0	1045430272	20	4206
2026-01-16 01:05:42.61	223.42	22.36	-30.0	-31.3	13.7	2.65e-03	0	44	0	1047527424	20	4179
2026-01-16 01:05:43.61	223.35	22.22	-29.9	-31.1	13.8	1.78e-04	0	44	0	1048576000	20	4121
2026-01-16 01:05:44.61	223.27	22.09	-29.9	-31.0	13.6	2.12e-04	0	44	0	1050673152	20	4099
2026-01-16 01:05:45.62	223.20	21.95	-29.9	-31.2	13.7	2.81e-03	0	44	0	1052770304	20	4167
2026-01-16 01:05:46.61	223.13	21.81	-30.0	-31.2	13.7	4.36e-04	0	44	0	1054867456	20	4176
2026-01-16 01:05:47.61	223.06	21.68	-30.1	-31.6	13.4	2.82e-03	0	44	0	1055916032	20	4301
2026-01-16 01:05:48.62	222.98	21.54	-30.3	-32.3	13.0	2.61e-03	0	44	0	1058013184	20	4524
2026-01-16 01:05:49.61	222.92	21.41	-30.5	-32.7	12.7	8.86e-04	0	44	0	1060110336	20	4640
2026-01-16 01:05:50.62	222.84	21.27	-30.7	-32.8	12.3	2.70e-03	0	44	0	1062207488	21	4611
2026-01-16 01:05:51.63	222.77	21.14	-30.9	-33.6	11.7	4.58e-04	0	44	0	1064304640	21	4895
2026-01-16 01:05:52.62	222.71	21.01	-31.2	-33.8	11.3	1.82e-03	0	44	0	1066401792	22	4861
2026-01-16 01:05:53.62	222.64	20.88	-31.3	-34.3	10.9	4.61e-03	0	44	0	1067450368	22	5077
2026-01-16 01:05:54.62	222.57	20.75	-31.4	-34.6	10.7	2.54e-03	0	44	0	1069547520	22	5174
2026-01-16 01:05:55.62	222.50	20.61	-31.4	-34.5	10.7	3.01e-03	0	44	0	1071644672	22	5162
2026-01-16 01:05:56.63	222.44	20.48	-31.4	-34.5	10.7	5.61e-03	0	44	0	1073741824	22	5131
2026-01-16 01:05:57.63	222.37	20.35	-31.3	-34.2	10.9	5.31e-03	0	44	0	1074790400	22	5037
2026-01-16 01:05:58.63	222.31	20.23	-31.2	-33.8	11.2	1.86e-03	0	44	0	1076887552	22	4877
2026-01-16 01:05:59.63	222.24	20.10	-31.2	-33.8	11.2	3.52e-03	0	44	0	1078984704	22	4890
2026-01-16 01:06:00.64	222.18	19.97	-31.1	-33.6	11.3	3.76e-03	0	44	0	1081081856	22	4802
2026-01-16 01:06:01.64	222.11	19.84	-31.0	-33.4	11.5	1.16e-03	0	44	0	1083179008	22	4704
2026-01-16 01:06:02.65	222.05	19.72	-30.9	-33.0	11.8	8.52e-04	0	44	0	1084227584	22	4590
2026-01-16 01:06:03.66	221.99	19.59	-30.7	-33.0	12.1	3.02e-03	0	44	0	1086324736	21	4672
2026-01-16 01:06:04.66	221.92	19.46	-30.7	-32.9	12.2	1.28e-03	0	44	0	1088421888	21	4623
2026-01-16 01:06:05.66	221.86	19.34	-30.7	-32.9	12.1	5.01e-04	0	44	0	1090519040	21	4645
2026-01-16 01:06:06.66	221.80	19.22	-30.6	-32.7	12.3	2.47e-03	0	44	0	1092616192	21	4562
2026-01-16 01:06:07.66	221.74	19.09	-30.8	-33.1	12.0	8.71e-04	0	44	0	1093664768	21	4692
2026-01-16 01:06:08.66	221.68	18.97	-30.7	-32.8	12.1	6.57e-04	0	44	0	1095761920	21	4609
2026-01-16 01:06:09.66	221.62	18.85	-30.4	-31.9	12.8	1.03e-04	0	44	0	1097859072	21	4291
2026-01-16 01:06:10.65	221.56	18.73	-30.0	-31.4	13.4	4.77e-04	0	44	0	1099956224	20	4245
2026-01-16 01:06:11.66	221.50	18.61	-30.0	-31.9	13.5	2.29e-03	0	44	0	1101004800	19	4465
2026-01-16 01:06:12.66	221.45	18.49	-29.8	-31.3	13.9	3.80e-06	0	44	0	1103101952	19	4293
2026-01-16 01:06:13.66	221.39	18.37	-29.7	-31.1	14.0	3.20e-04	0	44	0	1105199104	19	4222
2026-01-16 01:06:14.67	221.33	18.25	-29.8	-31.2	13.9	1.83e-03	0	44	0	1107296256	19	4261
2026-01-16 01:06:15.67	221.27	18.13	-29.7	-31.0	14.0	3.00e-06	0	44	0	1109393408	19	4210
2026-01-16 01:06:16.67	221.22	18.01	-29.7	-31.2	13.9	3.17e-04	0	44	0	1111490560	19	4248
2026-01-16 01:06:17.68	221.16	17.89	-29.6	-31.0	14.1	1.80e-03	0	44	0	1112539136	19	4187
2026-01-16 01:06:18.68	221.11	17.78	-29.8	-31.3	13.8	3.00e-06	0	44	0	1114636288	19	4304
2026-01-16 01:06:19.68	221.05	17.66	-29.9	-31.6	13.6	3.60e-04	0	44	0	1116733440	19	4372
2026-01-16 01:06:20.68	221.00	17.54	-29.9	-31.7	13.6	2.83e-04	0	44	0	1118830592	19	4417
2026-01-16 01:06:21.68	220.94	17.43	-29.9	-31.7	13.6	2.19e-03	0	44	0	1119879168	19	4404
2026-01-16 01:06:22.68	220.89	17.31	-30.2	-32.0	12.9	2.38e-04	0	44	0	1121976320	20	4445
2026-01-16 01:06:23.68	220.84	17.20	-30.1	-31.7	13.1	3.24e-04	0	44	0	1124073472	20	4346
2026-01-16 01:06:24.69	220.78	17.08	-30.2	-32.1	12.9	4.04e-05	0	44	0	1126170624	20	4454
2026-01-16 01:06:25.69	220.73	16.97	-30.3	-32.3	12.8	2.69e-04	0	44	0	1128267776	20	4537
2026-01-16 01:06:26.69	220.68	16.86	-30.4	-32.0	12.6	2.96e-04	0	44	0	1129316352	21	4362
2026-01-16 01:06:27.69	220.63	16.74	-30.2	-32.0	13.0	5.64e-05	0	44	0	1131413504	20	4423
2026-01-16 01:06:28.70	220.58	16.63	-30.3	-32.3	12.7	4.68e-04	0	44	0	1133510656	20	4549
2026-01-16 01:06:29.70	220.53	16.52	-30.5	-32.3	12.4	3.45e-04	0	44	0	1135607808	21	4453
2026-01-16 01:06:30.70	220.48	16.41	-30.3	-32.3	12.7	6.79e-05	0	44	0	1137704960	20	4549
2026-01-16 01:06:31.71	220.43	16.30	-30.4	-32.5	12.5	4.27e-04	0	44	0	1138753536	20	4619
2026-01-16 01:06:32.70	220.38	16.19	-30.4	-32.5	12.5	4.94e-04	0	44	0	1140850688	20	4616
2026-01-16 01:06:33.71	220.33	16.08	-30.2	-32.1	12.8	7.24e-05	0	44	0	1142947840	20	4476
2026-01-16 01:06:34.71	220.28	15.97	-30.4	-32.5	12.5	4.85e-04	0	44	0	1145044992	20	4615
2026-01-16 01:06:35.71	220.23	15.86	-30.2	-32.2	12.8	7.85e-05	0	44	0	1147142144	20	4503
2026-01-16 01:06:36.72	220.18	15.75	-30.3	-32.3	12.6	7.70e-05	0	44	0	1148190720	20	4532
2026-01-16 01:06:37.72	220.14	15.64	-30.4	-32.6	12.5	7.17e-04	0	44	0	1150287872	20	4648
2026-01-16 01:06:38.72	220.09	15.54	-30.5	-32.9	12.3	6.35e-04	0	44	0	1152385024	20	4741
2026-01-16 01:06:39.72	220.04	15.43	-30.7	-33.0	11.8	2.50e-04	0	44	0	1154482176	21	4714
2026-01-16 01:06:40.72	220.00	15.32	-30.7	-33.2	11.7	9.57e-04	0	44	0	1156579328	21	4771
2026-01-16 01:06:41.73	219.95	15.22	-30.7	-33.1	11.7	1.08e-03	0	44	0	1157627904	21	4733
2026-01-16 01:06:42.73	219.90	15.11	-30.8	-33.4	11.6	7.39e-04	0	44	0	1159725056	21	4837
2026-01-16 01:06:43.73	219.86	15.01	-30.9	-33.7	11.3	1.45e-03	0	44	0	1161822208	21	4973
2026-01-16 01:06:44.73	219.81	14.90	-31.0	-33.5	11.2	1.72e-03	0	44	0	1163919360	22	4793
2026-01-16 01:06:45.73	219.77	14.80	-31.0	-33.5	11.1	1.63e-03	0	44	0	1164967936	22	4805
2026-01-16 01:06:46.73	219.72	14.69	-31.2	-34.0	10.7	3.17e-03	0	44	0	1167065088	22	5011
2026-01-16 01:06:47.74	219.68	14.59	-31.1	-33.7	10.9	3.68e-03	0	44	0	1169162240	22	4879
2026-01-16 01:06:48.74	219.64	14.49	-29.7	-32.5	11.0	1.62e-03	0	44	0	1171259392	21	4933
2026-01-16 01:06:49.74	219.59	14.38	-31.1	-34.3	10.7	1.97e-03	0	44	0	1173356544	21	5201
2026-01-16 01:06:50.75	219.55	14.28	-31.2	-34.0	10.5	2.93e-03	0	44	0	1174405120	22	5002
2026-01-16 01:06:51.75	219.51	14.18	-31.2	-34.2	10.5	3.88e-03	0	44	0	1176502272	22	5059
2026-01-16 01:06:52.76	219.46	14.08	-31.2	-34.0	10.4	4.20e-03	0	44	0	1178599424	22	4986
2026-01-16 01:06:53.76	219.42	13.98	-30.9	-33.8	11.0	1.53e-03	0	44	0	1180696576	21	5003
2026-01-16 01:06:54.76	219.38	13.88	-31.0	-33.4	11.1	1.66e-03	0	44	0	1182793728	22	4764
2026-01-16 01:06:55.75	219.34	13.78	-30.8	-33.3	11.5	1.34e-03	0	44	0	1183842304	21	4809
2026-01-16 01:06:56.76	219.30	13.68	-30.8	-33.4	11.4	6.93e-04	0	44	0	1185939456	21	4872
2026-01-16 01:06:57.76	219.26	13.58	-30.6	-32.9	11.8	7.23e-04	0	44	0	1188036608	21	4661
2026-01-16 01:06:58.75	219.22	13.48	-30.5	-32.4	12.1	7.01e-04	0	44	0	1190133760	21	4507
2026-01-16 01:06:59.75	219.17	13.38	-30.4	-32.6	12.3	1.83e-03	0	44	0	1191182336	20	4669
2026-01-16 01:07:00.76	219.13	13.28	-30.4	-32.6	12.3	1.70e-04	0	44	0	1193279488	20	4664
2026-01-16 01:07:01.76	219.09	13.19	-30.2	-32.2	12.6	3.84e-04	0	44	0	1195376640	20	4509
2026-01-16 01:07:02.76	219.05	13.09	-30.2	-32.0	12.7	1.65e-03	0	44	0	1197473792	20	4466
2026-01-16 01:07:03.76	219.02	12.99	-30.4	-32.9	12.1	2.30e-04	0	44	0	1199570944	20	4759
2026-01-16 01:07:04.76	218.98	12.89	-30.2	-32.2	12.5	2.01e-04	0	44	0	1201668096	20	4529
2026-01-16 01:07:05.76	218.94	12.80	-29.9	-31.9	13.1	2.87e-04	0	44	0	1202716672	19	4502
2026-01-16 01:07:06.77	218.90	12.70	-30.0	-31.5	13.0	1.23e-04	0	44	0	1204813824	20	4307
2026-01-16 01:07:07.77	218.86	12.61	-29.8	-31.4	13.5	1.67e-05	0	44	0	1206910976	19	4355
2026-01-16 01:07:08.77	218.82	12.51	-29.8	-31.5	13.5	2.05e-05	0	44	0	1209008128	19	4374
2026-01-16 01:07:09.76	218.79	12.42	-29.9	-31.8	13.2	8.69e-05	0	44	0	1210056704	19	4464
2026-01-16 01:07:10.76	218.75	12.32	-29.8	-31.6	13.3	1.23e-03	0	44	0	1212153856	19	4405
2026-01-16 01:07:11.76	218.71	12.23	-29.8	-31.6	13.3	1.83e-05	0	44	0	1214251008	19	4412
2026-01-16 01:07:12.76	218.67	12.14	-29.9	-31.7	13.3	2.21e-05	0	44	0	1216348160	19	4450
2026-01-16 01:07:13.76	218.64	12.04	-29.9	-31.7	13.3	1.24e-03	0	44	0	1218445312	19	4439
2026-01-16 01:07:14.76	218.60	11.95	-30.0	-32.0	13.1	2.74e-05	0	44	0	1219493888	19	4551
2026-01-16 01:07:15.76	218.56	11.86	-29.9	-31.8	13.2	2.59e-05	0	44	0	1221591040	19	4497
2026-01-16 01:07:16.76	218.53	11.76	-30.0	-32.0	13.0	2.46e-04	0	44	0	1223688192	19	4567
2026-01-16 01:07:17.76	218.49	11.67	-30.1	-32.0	12.6	1.66e-03	0	44	0	1225785344	20	4483
2026-01-16 01:07:18.76	218.46	11.58	-30.1	-32.0	12.6	9.91e-05	0	44	0	1226833920	20	4457
2026-01-16 01:07:19.77	218.42	11.49	-30.2	-32.3	12.4	7.70e-05	0	44	0	1228931072	20	4573
2026-01-16 01:07:20.77	218.39	11.40	-30.2	-32.3	12.4	1.92e-03	0	44	0	1231028224	20	4572
2026-01-16 01:07:21.77	218.35	11.31	-30.3	-32.6	12.1	4.77e-04	0	44	0	1233125376	20	4693
2026-01-16 01:07:22.77	218.32	11.22	-30.4	-32.7	12.1	2.79e-04	0	44	0	1235222528	20	4724
2026-01-16 01:07:23.78	218.28	11.13	-30.4	-32.8	12.0	1.89e-03	0	44	0	1236271104	20	4747
2026-01-16 01:07:24.78	218.25	11.04	-30.4	-32.8	12.0	5.95e-04	0	44	0	1238368256	20	4767
2026-01-16 01:07:25.78	218.22	10.95	-30.5	-32.7	11.7	5.81e-04	0	44	0	1240465408	21	4628
2026-01-16 01:07:26.78	218.18	10.86	-30.6	-33.0	11.5	6.96e-04	0	44	0	1242562560	21	4742
2026-01-16 01:07:27.78	218.15	10.77	-30.6	-32.8	11.6	1.17e-03	0	44	0	1244659712	21	4682
2026-01-16 01:07:28.78	218.12	10.68	-30.6	-33.1	11.4	2.44e-03	0	44	0	1245708288	21	4777
2026-01-16 01:07:29.78	218.08	10.59	-30.6	-33.0	11.4	1.13e-03	0	44	0	1247805440	21	4746
2026-01-16 01:07:30.78	218.05	10.50	-30.7	-33.3	11.2	1.35e-03	0	44	0	1249902592	21	4856
2026-01-16 01:07:31.79	218.02	10.42	-30.7	-33.2	11.3	2.71e-03	0	44	0	1251999744	21	4803
2026-01-16 01:07:32.79	217.98	10.33	-30.6	-33.1	11.3	2.66e-03	0	44	0	1254096896	21	4797
2026-01-16 01:07:33.79	217.95	10.24	-30.5	-32.8	11.6	8.22e-04	0	44	0	1255145472	21	4689
2026-01-16 01:07:34.79	217.92	10.16	-30.7	-33.2	11.3	2.29e-03	0	44	0	1257242624	21	4802
2026-01-16 01:07:35.79	217.89	10.07	-30.7	-33.2	11.3	2.78e-03	0	44	0	1259339776	21	4813
2026-01-16 01:07:36.80	217.86	9.98	-30.7	-33.3	11.2	1.25e-03	0	44	0	1261436928	21	4851
2026-01-16 01:07:37.79	217.83	9.90	-30.6	-32.9	11.5	2.31e-03	0	44	0	1263534080	21	4714
2026-01-16 01:07:38.79	217.80	9.81	-30.5	-32.8	11.5	1.86e-03	0	44	0	1264582656	21	4685
2026-01-16 01:07:39.80	217.76	9.73	-30.6	-32.9	11.4	1.04e-03	0	44	0	1266679808	21	4721
2026-01-16 01:07:40.80	217.73	9.64	-30.7	-33.2	11.2	8.06e-04	0	44	0	1268776960	21	4838
2026-01-16 01:07:41.81	217.70	9.56	-30.8	-33.5	11.0	3.06e-03	0	44	0	1270874112	21	4959
2026-01-16 01:07:42.81	217.67	9.47	-30.7	-33.3	11.1	2.21e-03	0	44	0	1271922688	21	4879
2026-01-16 01:07:43.81	217.64	9.39	-30.6	-33.2	11.2	2.83e-03	0	44	0	1274019840	21	4812
2026-01-16 01:07:44.80	217.61	9.30	-30.8	-33.6	10.9	3.12e-03	0	44	0	1276116992	21	4973
2026-01-16 01:07:45.80	217.58	9.22	-30.7	-33.5	11.0	2.89e-03	0	44	0	1278214144	21	4941
2026-01-16 01:07:46.80	217.55	9.14	-30.6	-33.2	11.2	3.15e-03	0	44	0	1280311296	21	4837
2026-01-16 01:07:47.80	217.52	9.05	-30.8	-33.9	10.7	3.80e-03	0	44	0	1281359872	21	5099
2026-01-16 01:07:48.80	217.49	8.97	-30.9	-34.0	10.6	3.86e-03	0	44	0	1283457024	21	5144
2026-01-16 01:07:49.80	217.47	8.89	-30.8	-33.9	10.6	4.01e-03	0	44	0	1285554176	21	5113
