passes_logs/2026/01/16/R2M6_AANII_01/R2M6_AANII_01__20260116_015513_FENGYUN_3D_rec.log

#Pass ID: 20260116_015513_FENGYUN 3D
#Satellite: FENGYUN 3D
#Configuration: FENGYUN 3D
#almurnet v.1.7.20240730
#Start time: 2026-01-16 01:55:13

#Version: 2.2.20231116
#Station: R2M6_AANII_01
#Location: 30.233357 lon 59.946436 lat
#TLE: 1 43010U 17072A   26015.49690188 -.00000192  00000+0 -69217-4 0  9996
#TLE: 2 43010  98.9932 347.3205 0002350 106.2275 253.9159 14.19694721423329

#Time	Az	El	Level	Level2	SNR	BER	BlckErr	Temp	State	Recorded	gain1	gain2
2026-01-16 01:55:13.48	21.49	6.96	-28.5	-30.9	5.6	7.77e-01	0	41	0	0	17	4757
2026-01-16 01:55:14.47	21.52	7.04	-29.3	-32.5	5.4	7.87e-01	0	41	104	0	18	5230
2026-01-16 01:55:15.48	21.55	7.11	-29.2	-32.3	10.2	7.43e-03	0	41	0	0	18	5144
2026-01-16 01:55:16.49	21.58	7.19	-29.4	-32.6	10.2	6.11e-03	0	41	0	5242880	18	5244
2026-01-16 01:55:17.48	21.62	7.26	-29.4	-32.3	10.1	1.06e-02	0	41	0	11534336	19	5019
2026-01-16 01:55:18.48	21.65	7.34	-29.2	-32.2	10.5	5.49e-03	0	41	0	16777216	18	5074
2026-01-16 01:55:19.48	21.68	7.42	-28.9	-31.4	11.0	3.27e-03	0	42	0	22020096	18	4816
2026-01-16 01:55:20.48	21.72	7.49	-28.8	-31.1	11.2	1.97e-03	0	42	0	28311552	18	4708
2026-01-16 01:55:21.48	21.75	7.57	-28.2	-30.8	11.3	1.22e-03	0	42	0	33554432	17	4839
2026-01-16 01:55:22.48	21.78	7.65	-28.4	-31.2	11.9	1.43e-03	0	42	0	38797312	16	4936
2026-01-16 01:55:23.49	21.82	7.73	-28.3	-30.8	12.1	4.45e-04	0	42	0	45088768	16	4806
2026-01-16 01:55:24.49	21.85	7.80	-28.0	-30.1	12.5	1.01e-03	0	42	0	50331648	16	4596
2026-01-16 01:55:25.49	21.88	7.88	-27.6	-29.7	12.9	6.40e-05	0	42	0	55574528	15	4574
2026-01-16 01:55:26.49	21.92	7.96	-27.0	-28.3	13.7	3.77e-05	0	42	0	61865984	15	4192
2026-01-16 01:55:27.50	21.95	8.04	-26.9	-28.5	13.9	5.74e-04	0	42	0	67108864	14	4329
2026-01-16 01:55:28.50	21.99	8.12	-26.8	-28.9	14.0	5.70e-06	0	42	0	73400320	13	4567
2026-01-16 01:55:29.50	22.02	8.20	-26.8	-28.8	14.0	3.40e-06	0	42	0	78643200	13	4556
2026-01-16 01:55:30.50	22.06	8.27	-26.7	-28.5	14.2	3.40e-06	0	42	0	83886080	13	4461
2026-01-16 01:55:31.51	22.09	8.35	-26.6	-28.4	14.3	3.86e-04	0	42	0	90177536	13	4415
2026-01-16 01:55:32.51	22.13	8.43	-26.6	-28.4	14.3	0.00e+00	0	42	0	95420416	13	4412
2026-01-16 01:55:33.51	22.16	8.51	-26.5	-28.2	14.4	2.20e-06	0	42	0	100663296	13	4357
2026-01-16 01:55:34.51	22.20	8.59	-26.6	-28.3	14.4	3.52e-04	0	42	0	106954752	13	4385
2026-01-16 01:55:35.51	22.23	8.67	-26.4	-27.9	14.6	0.00e+00	0	42	0	112197632	13	4281
2026-01-16 01:55:36.51	22.27	8.75	-26.7	-28.5	14.3	3.18e-04	0	42	0	117440512	13	4452
2026-01-16 01:55:37.52	22.30	8.84	-26.7	-28.6	14.3	1.10e-06	0	42	0	123731968	13	4480
2026-01-16 01:55:38.52	22.34	8.92	-27.0	-28.8	13.8	1.25e-05	0	42	0	128974848	14	4431
2026-01-16 01:55:39.52	22.38	9.00	-26.5	-27.7	14.5	3.38e-04	0	42	0	135266304	14	4112
2026-01-16 01:55:40.53	22.41	9.08	-26.5	-28.2	14.5	1.10e-06	0	42	0	140509184	13	4352
2026-01-16 01:55:41.52	22.45	9.16	-26.4	-28.0	14.6	0.00e+00	0	42	0	145752064	13	4315
2026-01-16 01:55:42.53	22.49	9.24	-26.4	-28.0	14.6	0.00e+00	0	42	0	152043520	13	4316
2026-01-16 01:55:43.53	22.52	9.33	-26.5	-28.6	14.6	3.34e-04	0	42	0	157286400	12	4582
2026-01-16 01:55:44.53	22.56	9.41	-26.6	-28.3	14.5	0.00e+00	0	42	0	163577856	13	4377
2026-01-16 01:55:45.52	22.60	9.49	-26.5	-28.1	14.6	3.27e-04	0	42	0	168820736	13	4340
2026-01-16 01:55:46.53	22.63	9.57	-26.6	-28.4	14.3	3.23e-04	0	42	0	174063616	13	4434
2026-01-16 01:55:47.53	22.67	9.66	-26.5	-28.1	14.6	0.00e+00	0	42	0	180355072	13	4325
2026-01-16 01:55:48.53	22.71	9.74	-26.5	-28.1	14.5	3.29e-04	0	42	0	185597952	13	4343
2026-01-16 01:55:49.53	22.75	9.82	-26.6	-28.3	14.4	2.99e-04	0	42	0	190840832	13	4404
2026-01-16 01:55:50.54	22.79	9.91	-26.6	-28.5	14.4	1.10e-06	0	42	0	197132288	13	4443
2026-01-16 01:55:51.53	22.83	9.99	-26.4	-28.4	14.7	3.04e-04	0	42	0	202375168	12	4538
2026-01-16 01:55:52.54	22.86	10.08	-26.3	-28.2	14.8	2.85e-04	0	42	0	208666624	12	4477
2026-01-16 01:55:53.54	22.90	10.16	-26.5	-28.2	14.6	2.20e-06	0	42	0	213909504	13	4359
2026-01-16 01:55:54.55	22.94	10.25	-26.6	-28.4	14.4	2.75e-04	0	42	0	219152384	13	4430
2026-01-16 01:55:55.55	22.98	10.34	-26.7	-28.6	14.3	2.97e-04	0	42	0	225443840	13	4473
2026-01-16 01:55:56.55	23.02	10.42	-26.6	-28.3	14.5	2.20e-06	0	42	0	230686720	13	4372
2026-01-16 01:55:57.55	23.06	10.51	-26.6	-28.4	14.5	2.28e-04	0	43	0	235929600	13	4402
2026-01-16 01:55:58.55	23.10	10.59	-26.7	-28.5	14.4	2.51e-04	0	42	0	242221056	13	4456
2026-01-16 01:55:59.56	23.14	10.68	-26.5	-28.1	14.6	0.00e+00	0	43	0	247463936	13	4329
2026-01-16 01:56:00.56	23.18	10.77	-26.5	-28.1	14.6	2.27e-04	0	42	0	252706816	13	4336
2026-01-16 01:56:01.56	23.22	10.86	-26.4	-27.8	14.8	0.00e+00	0	42	0	258998272	13	4256
2026-01-16 01:56:02.56	23.26	10.94	-26.2	-27.4	15.0	0.00e+00	0	43	0	264241152	13	4146
2026-01-16 01:56:03.56	23.30	11.03	-26.0	-27.5	15.2	0.00e+00	0	42	0	270532608	12	4288
2026-01-16 01:56:04.57	23.35	11.12	-25.9	-27.4	15.4	2.30e-04	0	42	0	275775488	12	4238
2026-01-16 01:56:05.57	23.39	11.21	-26.0	-27.6	15.2	0.00e+00	0	43	0	281018368	12	4292
2026-01-16 01:56:06.57	23.43	11.30	-26.1	-27.6	15.2	1.34e-04	0	43	0	287309824	12	4306
2026-01-16 01:56:07.56	23.47	11.39	-25.8	-27.0	15.5	2.35e-04	0	43	0	292552704	12	4149
2026-01-16 01:56:08.56	23.51	11.47	-25.7	-26.9	15.7	0.00e+00	0	43	0	297795584	12	4100
2026-01-16 01:56:09.56	23.55	11.56	-25.7	-26.8	15.7	2.57e-04	0	43	0	304087040	12	4077
2026-01-16 01:56:10.55	23.60	11.65	-25.7	-27.3	15.8	0.00e+00	0	43	0	309329920	11	4336
2026-01-16 01:56:11.55	23.64	11.74	-25.7	-27.3	15.8	0.00e+00	0	43	0	314572800	11	4325
2026-01-16 01:56:12.55	23.68	11.84	-25.6	-27.1	15.9	3.16e-04	0	43	0	320864256	11	4276
2026-01-16 01:56:13.55	23.72	11.93	-25.8	-27.4	15.7	0.00e+00	0	43	0	326107136	11	4357
2026-01-16 01:56:14.55	23.77	12.02	-25.7	-27.3	15.8	0.00e+00	0	43	0	332398592	11	4318
2026-01-16 01:56:15.55	23.81	12.11	-25.6	-27.1	15.9	0.00e+00	0	42	0	337641472	11	4280
2026-01-16 01:56:16.55	23.86	12.20	-25.7	-27.2	15.8	3.29e-04	0	43	0	342884352	11	4307
2026-01-16 01:56:17.55	23.90	12.29	-25.6	-27.0	15.9	0.00e+00	0	43	0	349175808	11	4259
2026-01-16 01:56:18.55	23.94	12.39	-25.7	-27.2	15.9	0.00e+00	0	43	0	354418688	11	4298
2026-01-16 01:56:19.55	23.99	12.48	-25.6	-27.1	15.9	0.00e+00	0	43	0	359661568	11	4283
2026-01-16 01:56:20.55	24.03	12.57	-25.6	-27.1	15.9	0.00e+00	0	43	0	365953024	11	4282
2026-01-16 01:56:21.55	24.08	12.67	-25.5	-26.9	16.0	3.03e-04	0	43	0	371195904	11	4224
2026-01-16 01:56:22.55	24.13	12.76	-25.6	-27.1	16.0	0.00e+00	0	43	0	376438784	11	4261
2026-01-16 01:56:23.56	24.17	12.86	-25.7	-27.3	15.8	0.00e+00	0	43	0	382730240	11	4317
2026-01-16 01:56:24.56	24.22	12.95	-25.7	-27.3	15.8	0.00e+00	0	43	0	387973120	11	4338
2026-01-16 01:56:25.56	24.26	13.05	-25.7	-27.2	15.9	0.00e+00	0	43	0	394264576	11	4295
2026-01-16 01:56:26.57	24.31	13.14	-25.7	-27.2	15.9	0.00e+00	0	43	0	399507456	11	4292
2026-01-16 01:56:27.57	24.36	13.24	-25.5	-26.8	16.1	0.00e+00	0	43	0	404750336	11	4201
2026-01-16 01:56:28.57	24.40	13.34	-25.7	-27.2	15.9	2.68e-04	0	43	0	411041792	11	4306
2026-01-16 01:56:29.58	24.45	13.43	-25.6	-27.1	16.0	0.00e+00	0	43	0	416284672	11	4258
2026-01-16 01:56:30.57	24.50	13.53	-25.5	-26.9	16.0	0.00e+00	0	43	0	421527552	11	4215
2026-01-16 01:56:31.58	24.55	13.63	-25.6	-27.1	16.0	0.00e+00	0	43	0	427819008	11	4258
2026-01-16 01:56:32.58	24.60	13.72	-25.6	-27.1	16.0	0.00e+00	0	43	0	433061888	11	4277
2026-01-16 01:56:33.59	24.65	13.82	-25.6	-27.0	16.0	0.00e+00	0	43	0	439353344	11	4236
2026-01-16 01:56:34.59	24.69	13.92	-25.4	-26.7	16.2	0.00e+00	0	43	0	444596224	11	4156
2026-01-16 01:56:35.59	24.74	14.02	-25.5	-26.8	16.2	0.00e+00	0	43	0	449839104	11	4189
2026-01-16 01:56:36.60	24.79	14.12	-25.4	-26.6	16.3	0.00e+00	0	43	0	456130560	11	4149
2026-01-16 01:56:37.60	24.84	14.22	-25.3	-26.4	16.4	0.00e+00	0	43	0	461373440	11	4089
2026-01-16 01:56:38.60	24.89	14.32	-25.3	-26.4	16.4	0.00e+00	0	43	0	467664896	11	4083
2026-01-16 01:56:39.60	24.94	14.42	-25.2	-26.8	16.5	0.00e+00	0	43	0	472907776	10	4294
2026-01-16 01:56:40.60	24.99	14.52	-25.3	-27.0	16.3	0.00e+00	0	43	0	478150656	10	4344
2026-01-16 01:56:41.60	25.05	14.62	-25.1	-26.6	16.6	0.00e+00	0	43	0	484442112	10	4235
2026-01-16 01:56:42.61	25.10	14.73	-25.1	-26.5	16.6	0.00e+00	0	43	0	489684992	10	4212
2026-01-16 01:56:43.61	25.15	14.83	-25.1	-26.5	16.6	0.00e+00	0	43	0	494927872	10	4233
2026-01-16 01:56:44.61	25.20	14.93	-25.1	-26.4	16.7	0.00e+00	0	43	0	501219328	10	4189
2026-01-16 01:56:45.61	25.25	15.03	-25.1	-26.5	16.6	0.00e+00	0	43	0	506462208	10	4207
2026-01-16 01:56:46.62	25.31	15.14	-25.1	-26.4	16.7	0.00e+00	0	43	0	511705088	10	4202
2026-01-16 01:56:47.62	25.36	15.24	-25.1	-26.6	16.6	0.00e+00	0	43	0	517996544	10	4241
2026-01-16 01:56:48.62	25.41	15.35	-25.1	-26.4	16.7	0.00e+00	0	43	0	523239424	10	4201
2026-01-16 01:56:49.63	25.47	15.45	-25.1	-26.4	16.7	0.00e+00	0	43	0	529530880	10	4182
2026-01-16 01:56:50.63	25.52	15.56	-25.1	-26.4	16.7	0.00e+00	0	43	0	534773760	10	4187
2026-01-16 01:56:51.63	25.57	15.66	-25.2	-26.6	16.6	0.00e+00	0	43	0	541065216	10	4250
2026-01-16 01:56:52.63	25.63	15.77	-25.1	-26.6	16.6	0.00e+00	0	43	0	546308096	10	4241
2026-01-16 01:56:53.63	25.68	15.88	-25.0	-26.3	16.8	0.00e+00	0	43	0	551550976	10	4172
2026-01-16 01:56:54.63	25.74	15.98	-25.2	-26.6	16.6	0.00e+00	0	43	0	557842432	10	4247
2026-01-16 01:56:55.64	25.80	16.09	-25.0	-26.3	16.8	0.00e+00	0	43	0	563085312	10	4160
2026-01-16 01:56:56.64	25.85	16.20	-25.0	-26.3	16.8	0.00e+00	0	43	0	568328192	10	4167
2026-01-16 01:56:57.64	25.91	16.31	-24.9	-26.6	16.9	0.00e+00	0	43	0	574619648	9	4357
2026-01-16 01:56:58.65	25.97	16.42	-24.9	-26.4	17.0	0.00e+00	0	43	0	579862528	9	4318
2026-01-16 01:56:59.65	26.02	16.53	-25.0	-26.6	16.8	0.00e+00	0	43	0	585105408	9	4373
2026-01-16 01:57:00.65	26.08	16.64	-25.1	-26.5	16.7	0.00e+00	0	43	0	591396864	10	4215
2026-01-16 01:57:01.65	26.14	16.75	-25.0	-26.3	16.8	0.00e+00	0	43	0	596639744	10	4158
2026-01-16 01:57:02.65	26.20	16.86	-24.8	-25.7	17.1	0.00e+00	0	43	0	602931200	10	4008
2026-01-16 01:57:03.66	26.26	16.97	-24.6	-25.4	17.3	0.00e+00	0	43	0	608174080	10	3939
2026-01-16 01:57:04.66	26.32	17.08	-24.6	-25.8	17.3	0.00e+00	0	43	0	613416960	9	4156
2026-01-16 01:57:05.66	26.38	17.19	-24.6	-25.9	17.3	0.00e+00	0	43	0	619708416	9	4169
2026-01-16 01:57:06.66	26.44	17.31	-24.7	-26.0	17.2	0.00e+00	0	43	0	624951296	9	4214
2026-01-16 01:57:07.67	26.50	17.42	-24.6	-25.9	17.3	0.00e+00	0	43	0	630194176	9	4177
2026-01-16 01:57:08.67	26.56	17.53	-24.6	-25.8	17.3	0.00e+00	0	43	0	636485632	9	4155
2026-01-16 01:57:09.67	26.62	17.65	-24.5	-25.8	17.4	0.00e+00	0	43	0	641728512	9	4147
2026-01-16 01:57:10.67	26.68	17.76	-24.6	-25.9	17.3	0.00e+00	0	43	0	646971392	9	4178
2026-01-16 01:57:11.67	26.74	17.88	-24.5	-25.8	17.4	0.00e+00	0	43	0	653262848	9	4136
2026-01-16 01:57:12.67	26.81	17.99	-24.5	-25.7	17.4	0.00e+00	0	43	0	658505728	9	4134
2026-01-16 01:57:13.67	26.87	18.11	-24.6	-25.9	17.3	0.00e+00	0	43	0	664797184	9	4174
2026-01-16 01:57:14.68	26.93	18.23	-24.5	-25.7	17.5	0.00e+00	0	43	0	670040064	9	4118
2026-01-16 01:57:15.68	27.00	18.34	-24.7	-26.0	17.3	0.00e+00	0	43	0	676331520	9	4210
2026-01-16 01:57:16.68	27.06	18.46	-24.6	-25.9	17.3	0.00e+00	0	43	0	681574400	9	4180
2026-01-16 01:57:17.68	27.13	18.58	-24.3	-25.3	17.5	0.00e+00	0	43	0	686817280	9	4054
2026-01-16 01:57:18.68	27.19	18.70	-24.3	-25.8	16.7	0.00e+00	0	43	0	693108736	8	4266
2026-01-16 01:57:19.68	27.26	18.82	-24.3	-25.6	17.7	0.00e+00	0	43	0	698351616	8	4215
2026-01-16 01:57:20.69	27.33	18.94	-24.3	-25.7	17.7	0.00e+00	0	43	0	703594496	8	4225
2026-01-16 01:57:21.68	27.39	19.06	-24.3	-25.8	17.7	0.00e+00	0	43	0	709885952	8	4270
2026-01-16 01:57:22.68	27.46	19.18	-24.2	-25.5	17.8	0.00e+00	0	43	0	715128832	8	4172
2026-01-16 01:57:23.69	27.53	19.30	-24.1	-25.2	18.0	0.00e+00	0	43	0	721420288	8	4114
2026-01-16 01:57:24.69	27.60	19.42	-24.2	-25.6	17.8	0.00e+00	0	44	0	726663168	8	4206
2026-01-16 01:57:25.69	27.67	19.55	-24.1	-25.3	17.9	0.00e+00	0	43	0	731906048	8	4142
2026-01-16 01:57:26.69	27.74	19.67	-24.2	-25.5	17.8	0.00e+00	0	43	0	738197504	8	4187
2026-01-16 01:57:27.69	27.81	19.79	-24.1	-25.3	18.0	0.00e+00	0	43	0	743440384	8	4127
2026-01-16 01:57:28.69	27.88	19.92	-24.0	-25.2	18.0	0.00e+00	0	43	0	748683264	8	4108
2026-01-16 01:57:29.69	27.95	20.04	-24.1	-25.3	17.9	0.00e+00	0	43	0	754974720	8	4141
2026-01-16 01:57:30.69	28.02	20.17	-24.2	-25.5	17.9	0.00e+00	0	44	0	760217600	8	4188
2026-01-16 01:57:31.69	28.09	20.29	-24.1	-25.4	17.9	0.00e+00	0	43	0	765460480	8	4155
2026-01-16 01:57:32.68	28.16	20.42	-24.2	-25.5	17.9	2.23e-04	0	44	0	771751936	8	4173
2026-01-16 01:57:33.69	28.24	20.55	-24.1	-25.2	18.0	0.00e+00	0	43	0	776994816	8	4105
2026-01-16 01:57:34.69	28.31	20.68	-24.2	-25.5	17.9	0.00e+00	0	43	0	783286272	8	4171
2026-01-16 01:57:35.69	28.39	20.80	-24.2	-25.4	17.9	0.00e+00	0	43	0	788529152	8	4166
2026-01-16 01:57:36.69	28.46	20.93	-24.0	-25.1	18.1	0.00e+00	0	43	0	793772032	8	4088
2026-01-16 01:57:37.69	28.54	21.06	-24.2	-25.5	17.9	0.00e+00	0	43	0	800063488	8	4173
2026-01-16 01:57:38.68	28.61	21.19	-24.1	-25.2	18.0	0.00e+00	0	44	0	805306368	8	4109
2026-01-16 01:57:39.68	28.69	21.32	-24.0	-25.1	18.1	2.37e-04	0	44	0	810549248	8	4073
2026-01-16 01:57:40.68	28.77	21.46	-24.0	-25.2	18.1	0.00e+00	0	43	0	816840704	8	4096
2026-01-16 01:57:41.68	28.84	21.59	-24.0	-25.1	18.1	2.21e-04	0	43	0	822083584	8	4067
2026-01-16 01:57:42.69	28.92	21.72	-23.8	-24.7	18.3	2.48e-04	0	43	0	827326464	8	3984
2026-01-16 01:57:43.69	29.00	21.86	-23.8	-24.7	18.3	0.00e+00	0	44	0	833617920	8	3974
2026-01-16 01:57:44.69	29.08	21.99	-23.9	-24.8	18.3	2.91e-04	0	43	0	838860800	8	4000
2026-01-16 01:57:45.69	29.16	22.13	-23.8	-24.7	18.3	0.00e+00	0	43	0	845152256	8	3976
2026-01-16 01:57:46.69	29.24	22.26	-23.7	-24.5	18.5	0.00e+00	0	43	0	850395136	8	3924
2026-01-16 01:57:47.69	29.33	22.40	-23.6	-24.7	18.6	2.91e-04	0	43	0	855638016	7	4088
2026-01-16 01:57:48.69	29.41	22.53	-23.6	-24.8	18.5	2.99e-04	0	43	0	861929472	7	4123
2026-01-16 01:57:49.69	29.49	22.67	-23.8	-25.1	18.4	0.00e+00	0	44	0	867172352	7	4183
2026-01-16 01:57:50.70	29.58	22.81	-23.7	-24.9	18.5	0.00e+00	0	44	0	872415232	7	4147
2026-01-16 01:57:51.70	29.66	22.95	-23.7	-24.9	18.5	2.31e-04	0	44	0	878706688	7	4140
2026-01-16 01:57:52.70	29.75	23.09	-23.6	-24.7	18.6	0.00e+00	0	43	0	883949568	7	4102
2026-01-16 01:57:53.71	29.84	23.23	-23.7	-24.9	18.5	1.91e-04	0	43	0	889192448	7	4131
2026-01-16 01:57:54.71	29.92	23.37	-23.7	-24.9	18.5	2.00e-04	0	43	0	895483904	7	4139
2026-01-16 01:57:55.72	30.01	23.52	-23.6	-24.7	18.6	0.00e+00	0	43	0	900726784	7	4105
2026-01-16 01:57:56.72	30.10	23.66	-23.5	-24.5	18.7	2.09e-04	0	44	0	907018240	7	4043
2026-01-16 01:57:57.72	30.19	23.80	-23.5	-24.5	18.7	0.00e+00	0	43	0	912261120	7	4056
2026-01-16 01:57:58.72	30.28	23.95	-23.4	-24.3	18.8	0.00e+00	0	44	0	917504000	7	4008
2026-01-16 01:57:59.72	30.37	24.09	-23.4	-24.3	18.8	2.15e-04	0	44	0	923795456	7	3987
2026-01-16 01:58:00.72	30.46	24.24	-23.6	-24.7	18.6	2.15e-04	0	44	0	929038336	7	4082
2026-01-16 01:58:01.72	30.55	24.38	-23.4	-24.3	18.8	0.00e+00	0	43	0	934281216	7	3997
2026-01-16 01:58:02.71	30.65	24.53	-23.3	-24.1	18.9	2.05e-04	0	44	0	940572672	7	3946
2026-01-16 01:58:03.72	30.74	24.68	-23.2	-24.3	19.1	2.08e-04	0	43	0	945815552	6	4106
2026-01-16 01:58:04.72	30.84	24.83	-23.2	-24.3	19.1	0.00e+00	0	44	0	951058432	6	4095
2026-01-16 01:58:05.72	30.93	24.98	-23.0	-24.0	19.2	1.98e-04	0	44	0	957349888	6	4042
2026-01-16 01:58:06.71	31.03	25.13	-23.0	-23.9	19.3	1.79e-04	0	44	0	962592768	6	4016
2026-01-16 01:58:07.71	31.13	25.28	-23.1	-24.2	19.2	0.00e+00	0	44	0	968884224	6	4079
2026-01-16 01:58:08.71	31.23	25.43	-23.0	-23.9	19.3	1.52e-04	0	44	0	974127104	6	3995
2026-01-16 01:58:09.71	31.32	25.58	-22.8	-23.6	19.5	1.40e-04	0	44	0	979369984	6	3925
2026-01-16 01:58:10.71	31.43	25.73	-22.9	-23.7	19.4	0.00e+00	0	43	0	985661440	6	3950
2026-01-16 01:58:11.71	31.53	25.89	-22.9	-23.8	19.4	0.00e+00	0	43	0	990904320	6	3970
2026-01-16 01:58:12.72	31.63	26.05	-23.0	-23.9	19.3	1.10e-04	0	43	0	996147200	6	4008
2026-01-16 01:58:13.71	31.73	26.20	-23.0	-24.1	19.3	0.00e+00	0	44	0	1002438656	6	4041
2026-01-16 01:58:14.71	31.84	26.36	-23.1	-24.3	19.2	1.10e-04	0	43	0	1007681536	6	4093
2026-01-16 01:58:15.71	31.94	26.51	-23.2	-24.3	19.1	1.03e-04	0	43	0	1012924416	6	4113
2026-01-16 01:58:16.72	32.05	26.67	-23.1	-24.3	19.1	0.00e+00	0	44	0	1019215872	6	4093
2026-01-16 01:58:17.72	32.16	26.83	-23.2	-24.4	19.1	1.37e-04	0	44	0	1024458752	6	4139
2026-01-16 01:58:18.72	32.26	26.99	-23.1	-24.3	19.2	0.00e+00	0	44	0	1030750208	6	4091
2026-01-16 01:58:19.72	32.37	27.15	-23.1	-24.1	19.3	0.00e+00	0	44	0	1035993088	6	4053
2026-01-16 01:58:20.72	32.48	27.31	-23.2	-24.4	19.1	1.49e-04	0	44	0	1041235968	6	4119
2026-01-16 01:58:21.72	32.60	27.48	-23.2	-24.3	19.1	0.00e+00	0	44	0	1047527424	6	4113
2026-01-16 01:58:22.72	32.71	27.64	-23.1	-24.1	19.3	0.00e+00	0	44	0	1052770304	6	4056
2026-01-16 01:58:23.72	32.82	27.80	-23.1	-24.1	19.3	0.00e+00	0	44	0	1058013184	6	4052
2026-01-16 01:58:24.72	32.94	27.97	-23.0	-24.0	19.3	1.62e-04	0	44	0	1064304640	6	4030
2026-01-16 01:58:25.72	33.05	28.14	-22.9	-23.8	19.4	0.00e+00	0	44	0	1069547520	6	3988
2026-01-16 01:58:26.72	33.17	28.30	-22.9	-23.8	19.5	1.82e-04	0	44	0	1074790400	6	3978
2026-01-16 01:58:27.72	33.29	28.47	-23.0	-23.8	19.4	1.66e-04	0	43	0	1081081856	6	3991
2026-01-16 01:58:28.73	33.41	28.64	-23.0	-24.0	19.3	0.00e+00	0	44	0	1086324736	6	4030
2026-01-16 01:58:29.73	33.53	28.81	-23.1	-24.1	19.3	0.00e+00	0	44	0	1092616192	6	4041
2026-01-16 01:58:30.73	33.65	28.98	-23.0	-24.0	19.4	0.00e+00	0	44	0	1097859072	6	4017
2026-01-16 01:58:31.74	33.78	29.15	-23.0	-24.0	19.3	0.00e+00	0	44	0	1104150528	6	4033
2026-01-16 01:58:32.74	33.90	29.33	-23.1	-24.2	19.3	0.00e+00	0	44	0	1109393408	6	4069
2026-01-16 01:58:33.74	34.03	29.50	-23.0	-24.0	19.4	0.00e+00	0	44	0	1114636288	6	4018
2026-01-16 01:58:34.74	34.15	29.67	-22.9	-23.8	19.4	0.00e+00	0	44	0	1120927744	6	3986
2026-01-16 01:58:35.74	34.28	29.85	-22.9	-23.8	19.5	0.00e+00	0	44	0	1126170624	6	3978
2026-01-16 01:58:36.75	34.41	30.03	-22.9	-23.8	19.4	0.00e+00	0	44	0	1131413504	6	3991
2026-01-16 01:58:37.74	34.54	30.20	-22.9	-23.7	19.5	0.00e+00	0	44	0	1137704960	6	3953
2026-01-16 01:58:38.74	34.68	30.38	-22.9	-23.8	19.5	0.00e+00	0	43	0	1142947840	6	3969
2026-01-16 01:58:39.75	34.81	30.56	-23.1	-24.2	19.3	0.00e+00	0	44	0	1148190720	6	4072
2026-01-16 01:58:40.75	34.95	30.74	-23.0	-23.9	19.4	0.00e+00	0	44	0	1154482176	6	4013
2026-01-16 01:58:41.75	35.09	30.92	-22.9	-23.6	19.6	0.00e+00	0	44	0	1159725056	6	3936
2026-01-16 01:58:42.76	35.23	31.10	-22.9	-23.8	19.5	0.00e+00	0	44	0	1166016512	6	3980
2026-01-16 01:58:43.75	35.36	31.28	-23.0	-24.0	19.4	0.00e+00	0	44	0	1171259392	6	4020
2026-01-16 01:58:44.76	35.51	31.47	-23.0	-24.0	19.4	0.00e+00	0	43	0	1176502272	6	4031
2026-01-16 01:58:45.76	35.65	31.65	-23.0	-24.0	19.4	0.00e+00	0	44	0	1182793728	6	4026
2026-01-16 01:58:46.77	35.80	31.84	-23.1	-24.1	19.4	0.00e+00	0	44	0	1188036608	6	4051
2026-01-16 01:58:47.77	35.94	32.03	-22.9	-23.8	19.5	0.00e+00	0	44	0	1193279488	6	3980
2026-01-16 01:58:48.77	36.09	32.22	-22.8	-23.4	19.7	0.00e+00	0	44	0	1199570944	6	3889
2026-01-16 01:58:49.77	36.24	32.41	-22.7	-23.4	19.7	0.00e+00	0	43	0	1204813824	6	3874
2026-01-16 01:58:50.77	36.39	32.59	-22.7	-23.3	19.7	0.00e+00	0	44	0	1210056704	6	3862
2026-01-16 01:58:51.78	36.55	32.79	-22.9	-23.6	19.6	0.00e+00	0	44	0	1216348160	6	3935
2026-01-16 01:58:52.78	36.70	32.98	-22.7	-23.3	19.8	0.00e+00	0	44	0	1221591040	6	3853
2026-01-16 01:58:53.78	36.86	33.17	-22.5	-23.0	19.9	0.00e+00	0	44	0	1227882496	6	3792
2026-01-16 01:58:54.79	37.02	33.37	-22.6	-23.1	19.9	0.00e+00	0	44	0	1233125376	6	3810
2026-01-16 01:58:55.78	37.18	33.56	-22.6	-23.1	19.9	0.00e+00	0	44	0	1239416832	6	3804
2026-01-16 01:58:56.79	37.34	33.76	-22.7	-23.3	19.7	0.00e+00	0	44	0	1244659712	6	3868
2026-01-16 01:58:57.79	37.51	33.95	-22.9	-23.7	19.6	0.00e+00	0	44	0	1249902592	6	3951
2026-01-16 01:58:58.80	37.67	34.15	-22.9	-23.7	19.6	0.00e+00	0	44	0	1256194048	6	3951
2026-01-16 01:58:59.80	37.84	34.35	-22.8	-23.6	19.6	0.00e+00	0	44	0	1261436928	6	3923
2026-01-16 01:59:00.80	38.01	34.55	-22.9	-23.7	19.6	0.00e+00	0	44	0	1266679808	6	3947
2026-01-16 01:59:01.80	38.18	34.75	-23.0	-24.0	19.4	0.00e+00	0	44	0	1272971264	6	4031
2026-01-16 01:59:02.80	38.36	34.95	-22.8	-23.6	19.7	0.00e+00	0	44	0	1278214144	6	3928
2026-01-16 01:59:03.80	38.54	35.16	-22.7	-23.4	19.7	0.00e+00	0	43	0	1283457024	6	3881
2026-01-16 01:59:04.81	38.72	35.36	-22.8	-23.4	19.7	0.00e+00	0	44	0	1289748480	6	3898
2026-01-16 01:59:05.81	38.90	35.57	-22.8	-23.6	19.7	0.00e+00	0	43	0	1294991360	6	3922
2026-01-16 01:59:06.81	39.08	35.77	-22.8	-23.4	19.7	0.00e+00	0	44	0	1301282816	6	3897
2026-01-16 01:59:07.81	39.27	35.98	-22.8	-23.4	19.7	0.00e+00	0	44	0	1306525696	6	3894
2026-01-16 01:59:08.81	39.45	36.19	-22.7	-23.2	19.8	0.00e+00	0	44	0	1311768576	6	3849
2026-01-16 01:59:09.81	39.64	36.40	-22.6	-23.2	19.9	0.00e+00	0	44	0	1318060032	6	3828
2026-01-16 01:59:10.81	39.84	36.61	-22.7	-23.3	19.8	0.00e+00	0	44	0	1323302912	6	3866
2026-01-16 01:59:11.81	40.03	36.82	-22.6	-23.0	20.0	0.00e+00	0	44	0	1328545792	6	3789
2026-01-16 01:59:12.81	40.23	37.03	-22.7	-23.3	19.8	0.00e+00	0	44	0	1334837248	6	3852
2026-01-16 01:59:13.81	40.43	37.24	-22.6	-23.2	19.9	0.00e+00	0	44	0	1340080128	6	3836
2026-01-16 01:59:14.81	40.63	37.46	-22.8	-23.5	19.7	0.00e+00	0	44	0	1346371584	6	3917
2026-01-16 01:59:15.81	40.84	37.67	-22.7	-23.4	19.8	0.00e+00	0	44	0	1351614464	6	3874
2026-01-16 01:59:16.81	41.04	37.89	-22.7	-23.2	19.9	0.00e+00	0	44	0	1356857344	6	3847
2026-01-16 01:59:17.82	41.26	38.11	-22.6	-23.1	19.9	0.00e+00	0	44	0	1363148800	6	3812
2026-01-16 01:59:18.82	41.47	38.32	-22.6	-23.1	19.9	0.00e+00	0	44	0	1368391680	6	3817
2026-01-16 01:59:19.82	41.69	38.54	-22.4	-22.8	20.1	0.00e+00	0	44	0	1373634560	6	3735
2026-01-16 01:59:20.82	41.91	38.76	-22.4	-22.6	20.2	0.00e+00	0	44	0	1379926016	6	3700
2026-01-16 01:59:21.81	42.13	38.98	-22.5	-22.8	20.1	0.00e+00	0	44	0	1385168896	6	3742
2026-01-16 01:59:22.81	42.35	39.20	-22.6	-23.1	20.0	0.00e+00	0	43	0	1390411776	6	3815
2026-01-16 01:59:23.81	42.58	39.43	-22.7	-23.4	19.8	0.00e+00	0	44	0	1396703232	6	3879
2026-01-16 01:59:24.82	42.81	39.65	-22.7	-23.4	19.8	0.00e+00	0	44	0	1401946112	6	3890
2026-01-16 01:59:25.82	43.05	39.88	-22.8	-23.5	19.7	0.00e+00	0	44	0	1408237568	6	3915
2026-01-16 01:59:26.82	43.28	40.10	-23.1	-24.1	19.5	0.00e+00	0	44	0	1413480448	6	4058
2026-01-16 01:59:27.82	43.52	40.33	-22.9	-23.8	19.6	0.00e+00	0	44	0	1418723328	6	3968
2026-01-16 01:59:28.82	43.77	40.56	-22.7	-23.3	19.9	0.00e+00	0	43	0	1425014784	6	3856
2026-01-16 01:59:29.83	44.02	40.79	-22.6	-23.2	19.9	0.00e+00	0	44	0	1430257664	6	3829
2026-01-16 01:59:30.83	44.27	41.02	-22.8	-23.4	19.8	0.00e+00	0	44	0	1436549120	6	3895
2026-01-16 01:59:31.83	44.52	41.25	-22.6	-23.1	20.0	0.00e+00	0	44	0	1441792000	6	3812
2026-01-16 01:59:32.83	44.78	41.48	-22.5	-23.0	20.1	0.00e+00	0	44	0	1447034880	6	3779
2026-01-16 01:59:33.84	45.05	41.71	-22.7	-23.4	19.8	0.00e+00	0	44	0	1453326336	6	3874
2026-01-16 01:59:34.85	45.32	41.95	-22.8	-23.5	19.8	0.00e+00	0	44	0	1458569216	6	3902
2026-01-16 01:59:35.85	45.58	42.18	-22.8	-23.4	19.8	0.00e+00	0	44	0	1463812096	6	3886
2026-01-16 01:59:36.85	45.86	42.41	-22.8	-23.4	19.9	0.00e+00	0	44	0	1470103552	6	3887
2026-01-16 01:59:37.85	46.14	42.65	-22.6	-23.1	20.0	0.00e+00	0	44	0	1475346432	6	3808
2026-01-16 01:59:38.85	46.42	42.88	-22.7	-23.3	19.9	0.00e+00	0	44	0	1481637888	6	3852
2026-01-16 01:59:39.85	46.70	43.12	-22.7	-23.4	19.8	0.00e+00	0	44	0	1486880768	6	3886
2026-01-16 01:59:40.85	46.99	43.36	-22.8	-23.5	19.8	0.00e+00	0	44	0	1492123648	6	3917
2026-01-16 01:59:41.85	47.29	43.60	-23.0	-23.9	19.6	0.00e+00	0	44	0	1498415104	6	4003
2026-01-16 01:59:42.85	47.58	43.83	-22.9	-23.6	19.8	0.00e+00	0	44	0	1503657984	6	3938
2026-01-16 01:59:43.85	47.89	44.07	-22.8	-23.6	19.8	0.00e+00	0	44	0	1508900864	6	3923
2026-01-16 01:59:44.85	48.19	44.31	-23.0	-23.9	19.6	0.00e+00	0	44	0	1515192320	6	3998
2026-01-16 01:59:45.84	48.50	44.55	-22.9	-23.7	19.7	0.00e+00	0	44	0	1520435200	6	3963
2026-01-16 01:59:46.84	48.82	44.79	-22.9	-23.7	19.7	0.00e+00	0	44	0	1525678080	6	3955
2026-01-16 01:59:47.85	49.14	45.04	-22.8	-23.6	19.8	0.00e+00	0	43	0	1531969536	6	3919
2026-01-16 01:59:48.85	49.47	45.28	-23.2	-24.3	19.4	0.00e+00	0	44	0	1537212416	6	4099
2026-01-16 01:59:49.85	49.80	45.52	-23.3	-24.5	19.4	0.00e+00	0	44	0	1543503872	6	4144
2026-01-16 01:59:50.86	50.14	45.76	-23.6	-24.7	19.0	0.00e+00	0	44	0	1548746752	7	4094
2026-01-16 01:59:51.87	50.48	46.01	-23.4	-24.2	19.2	0.00e+00	0	44	0	1553989632	7	3974
2026-01-16 01:59:52.87	50.83	46.25	-22.9	-23.2	19.8	0.00e+00	0	44	0	1560281088	7	3736
2026-01-16 01:59:53.87	51.18	46.50	-22.7	-23.2	20.0	0.00e+00	0	44	0	1565523968	6	3825
2026-01-16 01:59:54.87	51.54	46.74	-22.7	-23.2	20.0	0.00e+00	0	44	0	1570766848	6	3838
2026-01-16 01:59:55.88	51.91	46.99	-23.0	-23.8	19.7	0.00e+00	0	44	0	1577058304	6	3988
2026-01-16 01:59:56.88	52.28	47.23	-23.0	-23.9	19.7	0.00e+00	0	44	0	1582301184	6	4007
2026-01-16 01:59:57.88	52.65	47.48	-23.1	-24.1	19.6	0.00e+00	0	44	0	1588592640	6	4045
2026-01-16 01:59:58.88	53.03	47.72	-23.1	-24.1	19.6	0.00e+00	0	44	0	1593835520	6	4038
2026-01-16 01:59:59.88	53.42	47.97	-23.1	-24.0	19.6	0.00e+00	0	44	0	1599078400	6	4034
2026-01-16 02:00:00.88	53.81	48.21	-22.8	-23.5	19.9	0.00e+00	0	44	0	1605369856	6	3912
2026-01-16 02:00:01.88	54.21	48.46	-22.7	-23.3	19.9	0.00e+00	0	44	0	1610612736	6	3864
2026-01-16 02:00:02.88	54.61	48.70	-23.0	-24.0	19.7	0.00e+00	0	44	0	1616904192	6	4011
2026-01-16 02:00:03.88	55.02	48.95	-23.1	-24.0	19.6	0.00e+00	0	44	0	1622147072	6	4033
2026-01-16 02:00:04.88	55.44	49.19	-23.1	-24.0	19.6	0.00e+00	0	44	0	1627389952	6	4035
2026-01-16 02:00:05.88	55.87	49.44	-23.3	-24.6	19.3	0.00e+00	0	44	0	1633681408	6	4176
2026-01-16 02:00:06.88	56.30	49.68	-23.1	-24.2	19.5	0.00e+00	0	44	0	1638924288	6	4075
2026-01-16 02:00:07.88	56.74	49.92	-23.0	-24.0	19.7	0.00e+00	0	44	0	1644167168	6	4015
2026-01-16 02:00:08.88	57.18	50.17	-23.2	-24.2	19.5	0.00e+00	0	44	0	1650458624	6	4081
2026-01-16 02:00:09.88	57.63	50.41	-23.1	-24.2	19.6	0.00e+00	0	44	0	1655701504	6	4061
2026-01-16 02:00:10.87	58.09	50.65	-23.4	-24.7	19.3	0.00e+00	0	44	0	1660944384	6	4185
2026-01-16 02:00:11.87	58.55	50.89	-23.3	-24.6	19.3	0.00e+00	0	44	0	1667235840	6	4167
2026-01-16 02:00:12.87	59.03	51.13	-23.5	-24.5	19.1	0.00e+00	0	44	0	1672478720	7	4032
2026-01-16 02:00:13.87	59.51	51.37	-23.5	-24.6	19.1	0.00e+00	0	44	0	1677721600	7	4050
2026-01-16 02:00:14.88	60.01	51.61	-23.3	-23.9	19.4	0.00e+00	0	44	0	1684013056	7	3899
2026-01-16 02:00:15.88	60.50	51.85	-23.2	-23.7	19.5	0.00e+00	0	44	0	1689255936	7	3850
2026-01-16 02:00:16.89	61.01	52.09	-23.3	-24.1	19.3	0.00e+00	0	44	0	1695547392	7	3943
2026-01-16 02:00:17.89	61.53	52.32	-23.2	-23.8	19.5	0.00e+00	0	44	0	1700790272	7	3854
2026-01-16 02:00:18.89	62.05	52.56	-23.3	-24.0	19.4	0.00e+00	0	44	0	1706033152	7	3918
2026-01-16 02:00:19.89	62.58	52.79	-23.4	-24.2	19.3	0.00e+00	0	44	0	1712324608	7	3961
2026-01-16 02:00:20.90	63.12	53.02	-23.5	-24.5	19.2	0.00e+00	0	44	0	1717567488	7	4032
2026-01-16 02:00:21.90	63.67	53.25	-23.3	-24.1	19.4	0.00e+00	0	44	0	1722810368	7	3933
2026-01-16 02:00:22.90	64.23	53.48	-23.2	-23.7	19.6	0.00e+00	0	44	0	1729101824	7	3849
2026-01-16 02:00:23.90	64.79	53.71	-23.5	-24.4	19.3	0.00e+00	0	44	0	1734344704	7	3996
2026-01-16 02:00:24.90	65.36	53.93	-23.8	-25.1	18.9	2.20e-06	0	44	0	1740636160	7	4187
2026-01-16 02:00:25.91	65.95	54.16	-24.2	-25.4	18.5	0.00e+00	0	44	0	1745879040	8	4140
2026-01-16 02:00:26.92	66.55	54.38	-23.9	-24.7	18.9	0.00e+00	0	44	0	1751121920	8	3971
2026-01-16 02:00:27.92	67.15	54.60	-23.7	-24.4	19.1	0.00e+00	0	44	0	1757413376	8	3885
2026-01-16 02:00:28.93	67.77	54.82	-23.9	-24.8	18.8	0.00e+00	0	44	0	1762656256	8	4004
2026-01-16 02:00:29.93	68.38	55.04	-24.0	-24.9	18.8	0.00e+00	0	44	0	1768947712	8	4025
2026-01-16 02:00:30.94	69.02	55.25	-23.9	-24.8	18.9	0.00e+00	0	44	0	1774190592	8	3985
2026-01-16 02:00:31.94	69.66	55.46	-24.1	-25.2	18.6	0.00e+00	0	44	0	1779433472	8	4088
2026-01-16 02:00:32.94	70.30	55.67	-24.0	-25.1	18.7	0.00e+00	0	44	0	1785724928	8	4060
2026-01-16 02:00:33.94	70.96	55.87	-24.2	-25.4	18.5	1.10e-06	0	44	0	1790967808	8	4145
2026-01-16 02:00:34.94	71.63	56.07	-23.8	-24.5	19.0	0.00e+00	0	44	0	1796210688	8	3925
2026-01-16 02:00:35.95	72.31	56.27	-23.9	-24.9	18.8	0.00e+00	0	44	0	1802502144	8	4007
2026-01-16 02:00:36.94	72.99	56.46	-24.3	-25.6	18.5	3.40e-06	0	44	0	1807745024	8	4185
2026-01-16 02:00:37.94	73.68	56.65	-24.0	-25.1	18.6	0.00e+00	0	44	0	1814036480	8	4071
2026-01-16 02:00:38.94	74.39	56.84	-23.8	-24.6	18.8	0.00e+00	0	44	0	1819279360	8	3950
2026-01-16 02:00:39.94	75.10	57.03	-24.2	-25.5	18.3	0.00e+00	0	44	0	1824522240	8	4190
2026-01-16 02:00:40.95	75.83	57.21	-24.2	-25.6	18.3	0.00e+00	0	44	0	1830813696	8	4226
2026-01-16 02:00:41.96	76.57	57.39	-24.4	-25.9	18.1	0.00e+00	0	44	0	1836056576	8	4302
2026-01-16 02:00:42.96	77.32	57.56	-23.9	-24.8	18.7	0.00e+00	0	44	0	1841299456	8	4016
2026-01-16 02:00:43.96	78.07	57.73	-23.4	-23.9	19.2	0.00e+00	0	44	0	1847590912	8	3797
2026-01-16 02:00:44.96	78.83	57.90	-22.9	-23.2	19.7	0.00e+00	0	44	0	1852833792	7	3741
2026-01-16 02:00:45.96	79.60	58.06	-23.0	-23.5	19.6	0.00e+00	0	44	0	1858076672	7	3810
2026-01-16 02:00:46.96	80.38	58.21	-23.1	-23.7	19.5	0.00e+00	0	44	0	1864368128	7	3861
2026-01-16 02:00:47.95	81.16	58.36	-23.2	-24.0	19.4	0.00e+00	0	44	0	1869611008	7	3918
2026-01-16 02:00:48.95	81.96	58.51	-23.3	-24.2	19.3	0.00e+00	0	44	0	1875902464	7	3969
2026-01-16 02:00:49.95	82.77	58.65	-23.4	-24.4	19.1	0.00e+00	0	44	0	1881145344	7	4033
2026-01-16 02:00:50.96	83.59	58.79	-23.2	-24.0	19.3	0.00e+00	0	44	0	1886388224	7	3925
2026-01-16 02:00:51.96	84.42	58.92	-23.4	-24.4	19.1	0.00e+00	0	44	0	1892679680	7	4039
2026-01-16 02:00:52.97	85.26	59.05	-23.3	-24.2	19.2	0.00e+00	0	44	0	1897922560	7	3974
2026-01-16 02:00:53.96	86.09	59.17	-23.3	-24.1	19.3	0.00e+00	0	44	0	1903165440	7	3958
2026-01-16 02:00:54.96	86.93	59.29	-22.9	-23.3	19.7	0.00e+00	0	44	0	1909456896	7	3751
2026-01-16 02:00:55.97	87.80	59.40	-22.8	-23.1	19.8	0.00e+00	0	44	0	1914699776	7	3722
2026-01-16 02:00:56.97	88.66	59.51	-23.0	-23.6	19.6	0.00e+00	0	44	0	1919942656	7	3828
2026-01-16 02:00:57.97	89.53	59.61	-23.1	-23.8	19.5	0.00e+00	0	44	0	1926234112	7	3880
2026-01-16 02:00:58.98	90.41	59.70	-23.0	-23.6	19.6	0.00e+00	0	44	0	1931476992	7	3828
2026-01-16 02:00:59.98	91.29	59.79	-23.1	-23.7	19.5	0.00e+00	0	44	0	1937768448	7	3867
2026-01-16 02:01:00.98	92.18	59.87	-23.6	-24.8	18.9	0.00e+00	0	44	0	1943011328	7	4130
2026-01-16 02:01:01.99	93.08	59.95	-23.6	-24.8	19.0	0.00e+00	0	44	0	1949302784	7	4121
2026-01-16 02:01:02.99	93.98	60.02	-23.7	-25.0	18.9	0.00e+00	0	44	0	1954545664	7	4172
2026-01-16 02:01:03.99	94.88	60.08	-23.6	-24.8	18.9	0.00e+00	0	44	0	1959788544	7	4137
2026-01-16 02:01:04.99	95.79	60.14	-23.5	-24.6	19.1	0.00e+00	0	44	0	1966080000	7	4062
2026-01-16 02:01:05.99	96.70	60.19	-23.8	-25.1	18.9	0.00e+00	0	44	0	1971322880	7	4190
2026-01-16 02:01:07.00	97.62	60.24	-23.7	-25.0	18.9	0.00e+00	0	44	0	1976565760	7	4179
2026-01-16 02:01:08.00	98.54	60.28	-23.5	-24.5	19.1	0.00e+00	0	44	0	1982857216	7	4058
2026-01-16 02:01:08.99	99.45	60.31	-23.2	-23.9	19.4	0.00e+00	0	44	0	1988100096	7	3915
2026-01-16 02:01:10.00	100.38	60.33	-23.2	-23.8	19.5	0.00e+00	0	44	0	1993342976	7	3884
2026-01-16 02:01:11.00	101.30	60.35	-23.4	-24.2	19.3	0.00e+00	0	44	0	1999634432	7	3978
2026-01-16 02:01:12.00	102.23	60.36	-23.4	-24.3	19.2	0.00e+00	0	44	0	2004877312	7	4012
2026-01-16 02:01:13.00	103.15	60.37	-23.6	-24.8	19.0	0.00e+00	0	44	0	2011168768	7	4113
2026-01-16 02:01:14.01	104.09	60.37	-23.8	-25.2	18.8	0.00e+00	0	44	0	2016411648	7	4207
2026-01-16 02:01:15.01	105.01	60.36	-23.2	-23.8	19.5	0.00e+00	0	44	0	2021654528	7	3876
2026-01-16 02:01:16.01	105.94	60.35	-23.1	-23.8	19.6	0.00e+00	0	44	0	2027945984	7	3867
2026-01-16 02:01:17.01	106.86	60.32	-23.3	-24.2	19.3	0.00e+00	0	44	0	2033188864	7	3976
2026-01-16 02:01:18.02	107.79	60.30	-23.4	-24.3	19.3	0.00e+00	0	44	0	2038431744	7	3999
2026-01-16 02:01:19.02	108.71	60.26	-23.8	-25.1	18.9	0.00e+00	0	44	0	2044723200	7	4193
2026-01-16 02:01:20.03	109.64	60.22	-23.5	-24.5	19.1	0.00e+00	0	44	0	2049966080	7	4055
2026-01-16 02:01:21.02	110.54	60.18	-23.4	-24.2	19.3	0.00e+00	0	44	0	2055208960	7	3980
2026-01-16 02:01:22.01	111.44	60.12	-23.1	-23.8	19.6	0.00e+00	0	44	0	2061500416	7	3870
2026-01-16 02:01:23.02	112.36	60.06	-23.1	-23.7	19.6	0.00e+00	0	44	0	2066743296	7	3839
2026-01-16 02:01:24.01	113.25	60.00	-23.5	-24.6	19.1	0.00e+00	0	44	0	2073034752	7	4065
2026-01-16 02:01:25.02	114.15	59.92	-23.5	-24.5	19.2	0.00e+00	0	44	0	2078277632	7	4037
2026-01-16 02:01:26.02	115.04	59.85	-23.4	-24.4	19.2	0.00e+00	0	44	0	2083520512	7	4012
2026-01-16 02:01:27.02	115.93	59.76	-23.9	-25.4	18.7	0.00e+00	0	44	0	2089811968	7	4273
2026-01-16 02:01:28.01	116.80	59.67	-23.8	-24.7	18.9	0.00e+00	0	44	0	2095054848	8	3972
2026-01-16 02:01:29.02	117.68	59.58	-23.9	-24.9	18.8	0.00e+00	0	44	0	2100297728	8	4029
2026-01-16 02:01:30.02	118.55	59.47	-24.0	-25.0	18.7	0.00e+00	0	44	0	2106589184	8	4070
2026-01-16 02:01:31.02	119.41	59.37	-23.2	-23.8	19.5	0.00e+00	0	44	0	2111832064	7	3884
2026-01-16 02:01:32.03	120.27	59.25	-23.2	-23.8	19.5	0.00e+00	0	44	0	2118123520	7	3881
2026-01-16 02:01:33.03	121.12	59.13	-23.6	-24.7	19.1	0.00e+00	0	44	0	2123366400	7	4106
2026-01-16 02:01:34.02	121.95	59.01	-23.3	-24.1	19.4	0.00e+00	0	44	0	2128609280	7	3954
2026-01-16 02:01:35.02	122.78	58.88	-23.2	-24.0	19.5	0.00e+00	0	44	0	2134900736	7	3915
2026-01-16 02:01:36.02	123.60	58.75	-23.6	-24.8	19.1	0.00e+00	0	44	0	2140143616	7	4121
2026-01-16 02:01:37.01	124.41	58.61	-23.7	-25.0	18.9	0.00e+00	0	44	0	2145386496	7	4164
2026-01-16 02:01:38.02	125.22	58.47	-23.9	-25.3	18.8	0.00e+00	0	44	0	2151677952	7	4239
2026-01-16 02:01:39.02	126.02	58.32	-23.6	-24.7	19.1	0.00e+00	0	44	0	2156920832	7	4083
2026-01-16 02:01:40.02	126.80	58.16	-23.8	-25.1	18.9	0.00e+00	0	44	0	2162163712	7	4201
2026-01-16 02:01:41.02	127.58	58.01	-23.7	-24.8	19.0	0.00e+00	0	44	0	2168455168	7	4130
2026-01-16 02:01:42.03	128.36	57.84	-23.4	-24.4	19.2	0.00e+00	0	44	0	2173698048	7	4026
2026-01-16 02:01:43.04	129.13	57.67	-23.2	-23.9	19.5	0.00e+00	0	44	0	2179989504	7	3893
2026-01-16 02:01:44.04	129.88	57.50	-23.3	-24.1	19.4	0.00e+00	0	44	0	2185232384	7	3949
2026-01-16 02:01:45.04	130.62	57.33	-23.4	-24.2	19.3	0.00e+00	0	44	0	2191523840	7	3978
2026-01-16 02:01:46.05	131.36	57.15	-23.7	-24.9	19.0	0.00e+00	0	44	0	2196766720	7	4149
2026-01-16 02:01:47.05	132.08	56.96	-23.6	-24.7	19.1	0.00e+00	0	44	0	2202009600	7	4099
2026-01-16 02:01:48.06	132.80	56.78	-23.6	-24.8	19.0	0.00e+00	0	44	0	2208301056	7	4112
2026-01-16 02:01:49.06	133.50	56.59	-23.6	-24.7	19.1	0.00e+00	0	44	0	2213543936	7	4082
2026-01-16 02:01:50.06	134.19	56.39	-23.7	-24.9	19.0	0.00e+00	0	44	0	2218786816	7	4131
2026-01-16 02:01:51.07	134.88	56.19	-24.1	-25.2	18.6	0.00e+00	0	44	0	2225078272	8	4119
2026-01-16 02:01:52.06	135.55	56.00	-23.6	-24.3	19.0	0.00e+00	0	44	0	2230321152	8	3899
2026-01-16 02:01:53.06	136.22	55.79	-23.6	-24.2	19.1	0.00e+00	0	44	0	2235564032	8	3864
2026-01-16 02:01:54.06	136.87	55.59	-23.8	-24.7	18.8	0.00e+00	0	44	0	2241855488	8	3985
2026-01-16 02:01:55.06	137.51	55.38	-23.7	-24.6	18.9	0.00e+00	0	44	0	2247098368	8	3954
2026-01-16 02:01:56.06	138.15	55.17	-23.8	-24.7	18.8	0.00e+00	0	44	0	2253389824	8	3994
2026-01-16 02:01:57.06	138.78	54.96	-24.3	-25.6	18.3	0.00e+00	0	44	0	2258632704	8	4219
2026-01-16 02:01:58.06	139.39	54.74	-24.1	-25.4	18.4	0.00e+00	0	44	0	2263875584	8	4158
2026-01-16 02:01:59.06	140.00	54.52	-24.2	-25.6	18.3	0.00e+00	0	44	0	2270167040	8	4212
2026-01-16 02:02:00.06	140.60	54.30	-23.8	-24.6	18.9	0.00e+00	0	44	0	2275409920	8	3963
2026-01-16 02:02:01.06	141.19	54.08	-23.7	-24.5	18.9	0.00e+00	0	44	0	2280652800	8	3943
2026-01-16 02:02:02.06	141.77	53.85	-23.9	-24.9	18.7	0.00e+00	0	44	0	2286944256	8	4025
2026-01-16 02:02:03.07	142.35	53.63	-23.7	-24.5	18.9	0.00e+00	0	44	0	2292187136	8	3933
2026-01-16 02:02:04.07	142.91	53.40	-23.7	-24.5	18.9	0.00e+00	0	44	0	2297430016	8	3928
2026-01-16 02:02:05.08	143.47	53.17	-23.8	-24.7	18.8	0.00e+00	0	44	0	2303721472	8	3980
2026-01-16 02:02:06.08	144.02	52.93	-23.8	-24.6	18.8	0.00e+00	0	44	0	2308964352	8	3979
2026-01-16 02:02:07.09	144.56	52.70	-23.9	-24.9	18.7	0.00e+00	0	44	0	2315255808	8	4034
2026-01-16 02:02:08.09	145.09	52.46	-23.6	-24.3	19.0	0.00e+00	0	44	0	2320498688	8	3889
2026-01-16 02:02:09.10	145.61	52.23	-23.5	-23.9	19.2	0.00e+00	0	44	0	2326790144	8	3803
2026-01-16 02:02:10.10	146.12	51.99	-23.6	-24.3	19.0	0.00e+00	0	44	0	2332033024	8	3888
2026-01-16 02:02:11.09	146.62	51.75	-23.7	-24.4	19.0	0.00e+00	0	44	0	2337275904	8	3909
2026-01-16 02:02:12.09	147.12	51.51	-23.9	-24.9	18.7	0.00e+00	0	44	0	2343567360	8	4035
2026-01-16 02:02:13.10	147.61	51.27	-23.7	-24.5	18.9	0.00e+00	0	44	0	2348810240	8	3935
2026-01-16 02:02:14.09	148.09	51.03	-23.5	-24.0	19.1	0.00e+00	0	44	0	2354053120	8	3817
2026-01-16 02:02:15.10	148.56	50.79	-23.5	-24.1	19.1	0.00e+00	0	44	0	2360344576	8	3832
2026-01-16 02:02:16.10	149.03	50.55	-23.6	-24.3	19.0	0.00e+00	0	44	0	2365587456	8	3889
2026-01-16 02:02:17.10	149.49	50.30	-23.3	-23.6	19.3	0.00e+00	0	44	0	2370830336	8	3724
2026-01-16 02:02:18.10	149.94	50.06	-23.0	-23.6	19.6	0.00e+00	0	44	0	2377121792	7	3817
2026-01-16 02:02:19.09	150.38	49.82	-23.0	-23.4	19.6	0.00e+00	0	44	0	2382364672	7	3790
2026-01-16 02:02:20.10	150.82	49.57	-23.1	-23.7	19.5	0.00e+00	0	44	0	2388656128	7	3843
2026-01-16 02:02:21.10	151.25	49.33	-23.0	-23.5	19.6	0.00e+00	0	44	0	2393899008	7	3802
2026-01-16 02:02:22.10	151.67	49.08	-23.1	-23.7	19.5	0.00e+00	0	44	0	2399141888	7	3860
2026-01-16 02:02:23.11	152.09	48.83	-23.2	-23.8	19.4	0.00e+00	0	44	0	2405433344	7	3897
2026-01-16 02:02:24.11	152.50	48.59	-23.1	-23.7	19.4	0.00e+00	0	44	0	2410676224	7	3869
2026-01-16 02:02:25.11	152.91	48.34	-23.1	-23.7	19.5	0.00e+00	0	44	0	2415919104	7	3845
2026-01-16 02:02:26.11	153.30	48.10	-23.2	-23.9	19.4	7.09e-05	0	44	0	2422210560	7	3888
2026-01-16 02:02:27.11	153.69	47.85	-23.0	-23.5	19.6	0.00e+00	0	44	0	2427453440	7	3803
2026-01-16 02:02:28.12	154.08	47.60	-22.9	-23.4	19.6	9.15e-05	0	44	0	2432696320	7	3783
2026-01-16 02:02:29.12	154.46	47.36	-22.9	-23.3	19.7	1.37e-05	0	44	0	2438987776	7	3760
2026-01-16 02:02:30.12	154.83	47.11	-22.8	-23.2	19.7	0.00e+00	0	44	0	2444230656	7	3739
2026-01-16 02:02:31.12	155.20	46.87	-23.0	-23.5	19.6	0.00e+00	0	44	0	2450522112	7	3806
2026-01-16 02:02:32.12	155.56	46.62	-22.8	-23.0	19.8	0.00e+00	0	44	0	2455764992	7	3702
2026-01-16 02:02:33.11	155.92	46.38	-22.8	-23.6	19.8	0.00e+00	0	44	0	2461007872	6	3937
2026-01-16 02:02:34.11	156.27	46.13	-22.8	-23.7	19.7	0.00e+00	0	44	0	2467299328	6	3957
2026-01-16 02:02:35.11	156.61	45.89	-23.1	-24.2	19.4	0.00e+00	0	44	0	2472542208	6	4086
2026-01-16 02:02:36.11	156.95	45.64	-22.9	-23.9	19.5	0.00e+00	0	44	0	2477785088	6	4007
2026-01-16 02:02:37.11	157.29	45.40	-22.9	-23.8	19.6	0.00e+00	0	44	0	2484076544	6	3993
2026-01-16 02:02:38.11	157.62	45.16	-22.9	-23.9	19.6	0.00e+00	0	44	0	2489319424	6	4013
2026-01-16 02:02:39.11	157.94	44.91	-23.0	-24.0	19.5	0.00e+00	0	44	0	2494562304	6	4052
2026-01-16 02:02:40.12	158.26	44.67	-23.0	-24.0	19.5	0.00e+00	0	44	0	2500853760	6	4048
2026-01-16 02:02:41.12	158.58	44.43	-22.8	-23.6	19.7	0.00e+00	0	44	0	2506096640	6	3945
2026-01-16 02:02:42.12	158.89	44.19	-22.7	-23.4	19.8	0.00e+00	0	44	0	2512388096	6	3895
2026-01-16 02:02:43.12	159.20	43.95	-22.8	-23.5	19.7	0.00e+00	0	44	0	2517630976	6	3923
2026-01-16 02:02:44.12	159.50	43.71	-22.6	-23.2	19.9	0.00e+00	0	44	0	2522873856	6	3848
2026-01-16 02:02:45.12	159.80	43.47	-22.7	-23.4	19.7	0.00e+00	0	44	0	2529165312	6	3908
2026-01-16 02:02:46.12	160.09	43.23	-22.9	-23.8	19.5	0.00e+00	0	44	0	2534408192	6	4008
2026-01-16 02:02:47.12	160.38	42.99	-22.8	-23.6	19.7	0.00e+00	0	44	0	2539651072	6	3945
2026-01-16 02:02:48.12	160.66	42.75	-22.8	-23.7	19.6	0.00e+00	0	44	0	2545942528	6	3974
2026-01-16 02:02:49.12	160.94	42.52	-22.7	-23.4	19.7	0.00e+00	0	44	0	2551185408	6	3901
2026-01-16 02:02:50.13	161.22	42.28	-22.8	-23.6	19.6	0.00e+00	0	44	0	2556428288	6	3951
2026-01-16 02:02:51.13	161.49	42.04	-22.9	-23.9	19.5	0.00e+00	0	44	0	2562719744	6	4032
2026-01-16 02:02:52.12	161.76	41.81	-23.0	-24.0	19.4	0.00e+00	0	44	0	2567962624	6	4038
2026-01-16 02:02:53.12	162.02	41.58	-23.0	-24.0	19.4	2.20e-06	0	44	0	2574254080	6	4061
2026-01-16 02:02:54.12	162.28	41.35	-23.0	-24.1	19.4	0.00e+00	0	44	0	2579496960	6	4080
2026-01-16 02:02:55.13	162.54	41.11	-23.1	-24.3	19.3	0.00e+00	0	44	0	2585788416	6	4116
2026-01-16 02:02:56.13	162.80	40.88	-22.8	-23.6	19.6	0.00e+00	0	44	0	2591031296	6	3944
2026-01-16 02:02:57.14	163.05	40.65	-22.6	-23.1	19.8	0.00e+00	0	44	0	2596274176	6	3841
2026-01-16 02:02:58.14	163.30	40.42	-22.4	-22.9	20.0	0.00e+00	0	44	0	2602565632	6	3775
2026-01-16 02:02:59.15	163.54	40.19	-22.6	-23.2	19.8	0.00e+00	0	44	0	2607808512	6	3850
2026-01-16 02:03:00.15	163.78	39.96	-22.5	-23.0	19.9	0.00e+00	0	44	0	2613051392	6	3813
2026-01-16 02:03:01.15	164.02	39.74	-22.5	-22.9	19.9	0.00e+00	0	44	0	2619342848	6	3802
2026-01-16 02:03:02.15	164.25	39.51	-22.6	-23.2	19.8	0.00e+00	0	44	0	2624585728	6	3852
2026-01-16 02:03:03.15	164.48	39.29	-22.4	-22.8	20.0	0.00e+00	0	44	0	2629828608	6	3776
2026-01-16 02:03:04.15	164.71	39.06	-22.5	-23.1	19.9	0.00e+00	0	44	0	2636120064	6	3821
2026-01-16 02:03:05.16	164.94	38.84	-22.6	-23.1	19.9	0.00e+00	0	44	0	2641362944	6	3828
2026-01-16 02:03:06.16	165.16	38.62	-22.4	-22.7	20.1	0.00e+00	0	44	0	2647654400	6	3741
2026-01-16 02:03:07.17	165.38	38.39	-22.5	-23.0	19.9	0.00e+00	0	44	0	2652897280	6	3816
2026-01-16 02:03:08.17	165.59	38.17	-22.7	-23.4	19.7	3.40e-06	0	44	0	2658140160	6	3911
2026-01-16 02:03:09.17	165.81	37.95	-22.7	-23.5	19.7	0.00e+00	0	44	0	2664431616	6	3918
2026-01-16 02:03:10.17	166.02	37.74	-22.8	-23.7	19.5	0.00e+00	0	44	0	2669674496	6	3976
2026-01-16 02:03:11.17	166.22	37.52	-22.7	-23.3	19.7	0.00e+00	0	44	0	2674917376	6	3888
2026-01-16 02:03:12.17	166.43	37.30	-22.6	-23.2	19.8	0.00e+00	0	44	0	2681208832	6	3856
2026-01-16 02:03:13.17	166.63	37.09	-22.6	-23.3	19.8	0.00e+00	0	44	0	2686451712	6	3870
2026-01-16 02:03:14.18	166.83	36.87	-22.6	-23.2	19.8	6.80e-06	0	44	0	2692743168	6	3854
2026-01-16 02:03:15.18	167.03	36.66	-22.5	-22.9	19.9	0.00e+00	0	44	0	2697986048	6	3780
2026-01-16 02:03:16.18	167.22	36.45	-22.4	-22.7	20.0	0.00e+00	0	44	0	2703228928	6	3735
2026-01-16 02:03:17.19	167.41	36.24	-22.4	-22.8	20.0	0.00e+00	0	44	0	2709520384	6	3764
2026-01-16 02:03:18.19	167.60	36.03	-22.6	-23.2	19.8	0.00e+00	0	44	0	2714763264	6	3853
2026-01-16 02:03:19.19	167.79	35.82	-22.5	-23.0	19.9	0.00e+00	0	44	0	2721054720	6	3807
2026-01-16 02:03:20.19	167.98	35.61	-22.6	-23.2	19.8	0.00e+00	0	44	0	2726297600	6	3854
2026-01-16 02:03:21.18	168.16	35.41	-22.6	-23.3	19.7	0.00e+00	0	44	0	2731540480	6	3886
2026-01-16 02:03:22.18	168.34	35.20	-22.8	-23.6	19.6	0.00e+00	0	44	0	2737831936	6	3947
2026-01-16 02:03:23.19	168.52	35.00	-22.6	-23.3	19.7	0.00e+00	0	44	0	2743074816	6	3881
2026-01-16 02:03:24.19	168.69	34.79	-22.6	-23.2	19.7	0.00e+00	0	44	0	2748317696	6	3869
2026-01-16 02:03:25.19	168.87	34.59	-22.7	-23.3	19.7	0.00e+00	0	44	0	2754609152	6	3889
2026-01-16 02:03:26.19	169.04	34.39	-22.8	-23.7	19.5	0.00e+00	0	44	0	2759852032	6	3959
2026-01-16 02:03:27.19	169.21	34.19	-22.7	-23.4	19.7	0.00e+00	0	44	0	2765094912	6	3899
2026-01-16 02:03:28.20	169.38	33.99	-22.9	-23.8	19.4	0.00e+00	0	44	0	2771386368	6	3999
2026-01-16 02:03:29.20	169.54	33.79	-22.9	-23.8	19.5	0.00e+00	0	44	0	2776629248	6	3985
2026-01-16 02:03:30.20	169.70	33.59	-22.9	-23.9	19.4	0.00e+00	0	44	0	2782920704	6	4019
2026-01-16 02:03:31.20	169.87	33.40	-23.0	-24.1	19.3	0.00e+00	0	44	0	2788163584	6	4067
2026-01-16 02:03:32.19	170.02	33.20	-23.0	-24.0	19.4	0.00e+00	0	44	0	2793406464	6	4042
2026-01-16 02:03:33.20	170.18	33.01	-23.0	-24.1	19.3	0.00e+00	0	44	0	2799697920	6	4078
2026-01-16 02:03:34.19	170.34	32.82	-23.2	-24.5	19.1	0.00e+00	0	44	0	2804940800	6	4171
2026-01-16 02:03:35.20	170.49	32.62	-23.0	-23.9	19.4	0.00e+00	0	44	0	2810183680	6	4033
2026-01-16 02:03:36.19	170.65	32.43	-22.8	-23.7	19.5	0.00e+00	0	44	0	2816475136	6	3964
2026-01-16 02:03:37.19	170.80	32.24	-22.8	-23.6	19.5	0.00e+00	0	44	0	2821718016	6	3954
2026-01-16 02:03:38.19	170.94	32.05	-22.8	-23.7	19.5	0.00e+00	0	44	0	2826960896	6	3971
2026-01-16 02:03:39.19	171.09	31.86	-22.8	-23.7	19.5	0.00e+00	0	44	0	2833252352	6	3974
2026-01-16 02:03:40.19	171.24	31.68	-22.9	-23.8	19.4	0.00e+00	0	44	0	2838495232	6	3991
2026-01-16 02:03:41.19	171.38	31.49	-23.1	-24.3	19.2	0.00e+00	0	44	0	2844786688	6	4108
2026-01-16 02:03:42.18	171.52	31.31	-22.9	-23.8	19.4	0.00e+00	0	44	0	2850029568	6	4005
2026-01-16 02:03:43.19	171.67	31.12	-22.9	-23.8	19.4	0.00e+00	0	44	0	2855272448	6	3987
2026-01-16 02:03:44.19	171.81	30.94	-22.9	-23.8	19.4	0.00e+00	0	44	0	2861563904	6	3992
2026-01-16 02:03:45.19	171.94	30.76	-22.8	-23.7	19.5	0.00e+00	0	44	0	2866806784	6	3974
2026-01-16 02:03:46.19	172.08	30.58	-23.0	-23.9	19.3	0.00e+00	0	44	0	2872049664	6	4030
2026-01-16 02:03:47.19	172.21	30.39	-23.1	-24.3	19.2	0.00e+00	0	44	0	2878341120	6	4123
2026-01-16 02:03:48.20	172.35	30.21	-22.9	-23.9	19.4	0.00e+00	0	44	0	2883584000	6	4016
2026-01-16 02:03:49.20	172.48	30.04	-22.9	-23.8	19.4	0.00e+00	0	44	0	2888826880	6	3999
2026-01-16 02:03:50.20	172.61	29.86	-23.0	-24.0	19.3	0.00e+00	0	44	0	2895118336	6	4037
2026-01-16 02:03:51.20	172.74	29.68	-23.0	-24.0	19.3	0.00e+00	0	44	0	2900361216	6	4041
2026-01-16 02:03:52.20	172.87	29.51	-23.1	-24.2	19.2	0.00e+00	0	44	0	2906652672	6	4090
2026-01-16 02:03:53.19	172.99	29.33	-23.0	-24.0	19.3	0.00e+00	0	44	0	2911895552	6	4057
2026-01-16 02:03:54.20	173.12	29.16	-23.2	-24.5	19.1	0.00e+00	0	44	0	2917138432	6	4164
2026-01-16 02:03:55.20	173.25	28.98	-23.0	-24.0	18.9	0.00e+00	0	44	0	2923429888	6	4058
2026-01-16 02:03:56.20	173.37	28.81	-22.9	-23.9	19.4	0.00e+00	0	44	0	2928672768	6	4023
2026-01-16 02:03:57.20	173.49	28.64	-22.9	-23.9	19.3	0.00e+00	0	44	0	2933915648	6	4024
2026-01-16 02:03:58.20	173.61	28.47	-22.8	-23.6	19.5	0.00e+00	0	44	0	2940207104	6	3941
2026-01-16 02:03:59.20	173.73	28.30	-22.8	-23.7	19.5	0.00e+00	0	44	0	2945449984	6	3969
2026-01-16 02:04:00.20	173.85	28.13	-22.9	-23.8	19.4	0.00e+00	0	44	0	2951741440	6	4001
2026-01-16 02:04:01.20	173.96	27.97	-23.0	-24.0	19.3	0.00e+00	0	44	0	2956984320	6	4038
2026-01-16 02:04:02.21	174.08	27.80	-22.9	-23.9	19.4	0.00e+00	0	44	0	2962227200	6	4007
2026-01-16 02:04:03.21	174.19	27.63	-23.0	-24.0	19.3	0.00e+00	0	44	0	2968518656	6	4030
2026-01-16 02:04:04.20	174.31	27.47	-23.0	-24.0	19.3	0.00e+00	0	44	0	2973761536	6	4039
2026-01-16 02:04:05.20	174.42	27.31	-23.1	-24.2	19.2	0.00e+00	0	44	0	2979004416	6	4098
2026-01-16 02:04:06.20	174.53	27.14	-23.1	-24.3	19.1	1.34e-04	0	44	0	2985295872	6	4113
2026-01-16 02:04:07.21	174.64	26.98	-23.3	-24.6	19.0	0.00e+00	0	44	0	2990538752	6	4202
2026-01-16 02:04:08.20	174.75	26.82	-23.2	-24.4	19.1	0.00e+00	0	44	0	2995781632	6	4149
2026-01-16 02:04:09.20	174.85	26.66	-23.1	-24.2	19.1	0.00e+00	0	44	0	3002073088	6	4109
2026-01-16 02:04:10.20	174.96	26.50	-23.2	-24.4	19.1	0.00e+00	0	44	0	3007315968	6	4135
2026-01-16 02:04:11.20	175.07	26.34	-23.2	-24.4	19.1	0.00e+00	0	44	0	3013607424	6	4137
2026-01-16 02:04:12.20	175.17	26.18	-23.2	-24.5	19.0	0.00e+00	0	44	0	3018850304	6	4159
2026-01-16 02:04:13.21	175.28	26.03	-23.3	-24.6	19.0	1.20e-04	0	44	0	3024093184	6	4184
2026-01-16 02:04:14.21	175.38	25.87	-23.1	-24.1	19.2	0.00e+00	0	44	0	3030384640	6	4075
2026-01-16 02:04:15.21	175.48	25.71	-23.2	-24.5	19.0	1.11e-04	0	44	0	3035627520	6	4168
2026-01-16 02:04:16.21	175.58	25.56	-23.0	-24.0	19.3	0.00e+00	0	44	0	3040870400	6	4033
2026-01-16 02:04:17.22	175.68	25.40	-22.9	-23.9	19.3	0.00e+00	0	44	0	3047161856	6	4016
2026-01-16 02:04:18.21	175.78	25.25	-22.8	-23.7	19.4	5.60e-05	0	44	0	3052404736	6	3954
2026-01-16 02:04:19.22	175.88	25.10	-23.0	-24.1	19.2	0.00e+00	0	44	0	3057647616	6	4059
2026-01-16 02:04:20.22	175.98	24.95	-22.8	-23.6	19.4	0.00e+00	0	44	0	3063939072	6	3953
2026-01-16 02:04:21.22	176.07	24.80	-22.8	-23.5	19.5	0.00e+00	0	44	0	3069181952	6	3933
2026-01-16 02:04:22.23	176.17	24.65	-22.9	-23.8	19.3	1.67e-04	0	44	0	3075473408	6	3996
2026-01-16 02:04:23.23	176.26	24.50	-22.9	-23.9	19.3	0.00e+00	0	44	0	3080716288	6	4022
2026-01-16 02:04:24.23	176.36	24.35	-23.1	-24.1	19.2	1.90e-04	0	44	0	3087007744	6	4078
2026-01-16 02:04:25.23	176.45	24.20	-23.1	-24.1	19.2	2.35e-04	0	44	0	3092250624	6	4077
2026-01-16 02:04:26.23	176.54	24.05	-23.2	-24.5	19.0	0.00e+00	0	44	0	3097493504	6	4157
2026-01-16 02:04:27.22	176.63	23.91	-23.3	-24.7	18.9	2.71e-04	0	44	0	3102736384	6	4217
2026-01-16 02:04:28.23	176.72	23.76	-23.2	-24.5	19.0	2.49e-04	0	44	0	3109027840	6	4163
2026-01-16 02:04:29.23	176.81	23.62	-23.4	-24.8	18.8	0.00e+00	0	44	0	3114270720	6	4242
2026-01-16 02:04:30.23	176.90	23.47	-23.3	-24.7	18.9	2.62e-04	0	44	0	3120562176	6	4221
2026-01-16 02:04:31.24	176.99	23.33	-23.4	-24.8	18.8	2.37e-04	0	44	0	3125805056	6	4241
2026-01-16 02:04:32.23	177.08	23.19	-23.5	-25.0	18.7	0.00e+00	0	44	0	3131047936	6	4298
2026-01-16 02:04:33.23	177.16	23.05	-23.5	-24.7	18.6	0.00e+00	0	44	0	3137339392	7	4093
2026-01-16 02:04:34.24	177.25	22.90	-23.7	-25.0	18.5	2.00e-04	0	44	0	3142582272	7	4174
2026-01-16 02:04:35.24	177.33	22.76	-23.5	-24.6	18.7	0.00e+00	0	44	0	3148873728	7	4089
2026-01-16 02:04:36.24	177.42	22.63	-23.5	-24.6	18.7	1.90e-04	0	44	0	3154116608	7	4068
2026-01-16 02:04:37.24	177.50	22.49	-23.5	-24.6	18.6	1.74e-04	0	44	0	3159359488	7	4083
2026-01-16 02:04:38.25	177.58	22.35	-23.6	-24.8	18.6	0.00e+00	0	44	0	3165650944	7	4123
2026-01-16 02:04:39.25	177.67	22.21	-23.7	-24.9	18.5	1.96e-04	0	44	0	3170893824	7	4160
2026-01-16 02:04:40.25	177.75	22.07	-23.8	-25.2	18.3	0.00e+00	0	44	0	3176136704	7	4223
2026-01-16 02:04:41.25	177.83	21.94	-23.7	-25.0	18.4	0.00e+00	0	44	0	3182428160	7	4173
2026-01-16 02:04:42.25	177.91	21.80	-23.9	-25.4	18.2	2.64e-04	0	44	0	3187671040	7	4292
2026-01-16 02:04:43.26	177.99	21.67	-23.9	-25.3	18.3	2.99e-04	0	44	0	3192913920	7	4268
2026-01-16 02:04:44.26	178.07	21.53	-24.2	-25.5	17.9	0.00e+00	0	44	0	3199205376	8	4201
2026-01-16 02:04:45.27	178.15	21.40	-24.4	-25.9	17.7	0.00e+00	0	44	0	3204448256	8	4311
2026-01-16 02:04:46.27	178.22	21.26	-24.4	-25.9	17.7	3.16e-04	0	44	0	3210739712	8	4310
2026-01-16 02:04:47.27	178.30	21.13	-24.5	-25.8	17.5	0.00e+00	0	44	0	3215982592	9	4152
2026-01-16 02:04:48.27	178.38	21.00	-24.5	-25.8	17.5	3.25e-04	0	44	0	3222274048	9	4157
2026-01-16 02:04:49.28	178.45	20.87	-24.6	-25.9	17.5	0.00e+00	0	44	0	3227516928	9	4192
2026-01-16 02:04:50.28	178.53	20.74	-24.7	-26.1	17.4	0.00e+00	0	44	0	3232759808	9	4235
2026-01-16 02:04:51.28	178.60	20.61	-24.6	-26.0	17.4	2.88e-04	0	44	0	3239051264	9	4204
2026-01-16 02:04:52.29	178.68	20.48	-24.8	-26.4	17.2	0.00e+00	0	44	0	3244294144	9	4333
2026-01-16 02:04:53.28	178.75	20.35	-24.6	-26.0	17.4	0.00e+00	0	44	0	3249537024	9	4215
2026-01-16 02:04:54.28	178.82	20.22	-24.4	-25.5	17.7	0.00e+00	0	44	0	3255828480	9	4085
2026-01-16 02:04:55.28	178.89	20.10	-24.2	-25.1	17.9	2.72e-04	0	44	0	3261071360	9	3984
2026-01-16 02:04:56.27	178.96	19.97	-24.2	-25.0	17.9	0.00e+00	0	44	0	3266314240	9	3957
2026-01-16 02:04:57.27	179.03	19.85	-24.1	-25.4	18.0	0.00e+00	0	44	0	3272605696	8	4170
2026-01-16 02:04:58.28	179.11	19.72	-24.0	-25.3	18.0	0.00e+00	0	44	0	3277848576	8	4134
2026-01-16 02:04:59.28	179.18	19.59	-24.1	-25.3	18.0	0.00e+00	0	44	0	3284140032	8	4147
2026-01-16 02:05:00.28	179.24	19.47	-24.1	-25.3	18.0	2.88e-04	0	44	0	3289382912	8	4140
2026-01-16 02:05:01.28	179.31	19.35	-24.1	-25.3	18.0	0.00e+00	0	44	0	3294625792	8	4153
2026-01-16 02:05:02.28	179.38	19.22	-24.0	-25.1	18.1	0.00e+00	0	44	0	3300917248	8	4093
2026-01-16 02:05:03.29	179.45	19.10	-24.1	-25.3	18.0	0.00e+00	0	44	0	3306160128	8	4132
2026-01-16 02:05:04.30	179.52	18.98	-24.1	-25.3	18.0	0.00e+00	0	44	0	3311403008	8	4152
2026-01-16 02:05:05.30	179.58	18.86	-24.1	-25.3	18.0	0.00e+00	0	44	0	3317694464	8	4153
2026-01-16 02:05:06.29	179.65	18.74	-24.1	-25.4	17.9	0.00e+00	0	44	0	3322937344	8	4175
2026-01-16 02:05:07.30	179.72	18.62	-24.2	-25.6	17.8	2.92e-04	0	44	0	3328180224	8	4233
2026-01-16 02:05:08.30	179.78	18.50	-24.3	-25.8	17.7	0.00e+00	0	44	0	3334471680	8	4269
2026-01-16 02:05:09.31	179.85	18.38	-24.4	-25.9	17.7	0.00e+00	0	44	0	3339714560	8	4303
2026-01-16 02:05:10.31	179.91	18.26	-24.4	-26.0	17.6	0.00e+00	0	44	0	3346006016	8	4315
2026-01-16 02:05:11.31	179.98	18.14	-24.4	-26.0	17.6	0.00e+00	0	44	0	3351248896	8	4322
2026-01-16 02:05:12.31	180.04	18.02	-24.6	-26.0	17.4	0.00e+00	0	44	0	3356491776	9	4218
2026-01-16 02:05:13.31	180.10	17.91	-24.7	-26.1	17.3	0.00e+00	0	44	0	3362783232	9	4246
2026-01-16 02:05:14.31	180.16	17.79	-24.7	-26.1	17.3	0.00e+00	0	44	0	3368026112	9	4245
2026-01-16 02:05:15.31	180.23	17.67	-24.7	-26.1	17.3	0.00e+00	0	44	0	3373268992	9	4242
2026-01-16 02:05:16.31	180.29	17.56	-24.8	-26.4	17.1	0.00e+00	0	44	0	3379560448	9	4316
2026-01-16 02:05:17.31	180.35	17.44	-25.0	-26.3	17.0	0.00e+00	0	44	0	3384803328	10	4185
2026-01-16 02:05:18.31	180.41	17.33	-25.1	-26.6	16.8	0.00e+00	0	44	0	3390046208	10	4254
2026-01-16 02:05:19.31	180.47	17.21	-25.2	-26.8	16.7	0.00e+00	0	44	0	3396337664	10	4322
2026-01-16 02:05:20.31	180.53	17.10	-25.1	-26.5	16.8	0.00e+00	0	44	0	3401580544	10	4237
2026-01-16 02:05:21.31	180.59	16.99	-25.0	-26.2	17.0	0.00e+00	0	44	0	3407872000	10	4152
2026-01-16 02:05:22.31	180.65	16.88	-25.2	-26.6	16.8	0.00e+00	0	44	0	3413114880	10	4267
2026-01-16 02:05:23.30	180.70	16.77	-25.2	-26.7	16.7	0.00e+00	0	44	0	3418357760	10	4298
2026-01-16 02:05:24.30	180.76	16.65	-25.2	-26.7	16.7	8.00e-06	0	44	0	3424649216	10	4284
2026-01-16 02:05:25.30	180.82	16.54	-25.3	-26.9	16.6	0.00e+00	0	44	0	3429892096	10	4339
2026-01-16 02:05:26.31	180.88	16.43	-25.2	-26.7	16.7	0.00e+00	0	44	0	3435134976	10	4282
2026-01-16 02:05:27.31	180.94	16.32	-25.0	-26.2	17.0	0.00e+00	0	44	0	3441426432	10	4155
2026-01-16 02:05:28.31	180.99	16.21	-24.9	-26.2	17.0	0.00e+00	0	44	0	3446669312	10	4141
2026-01-16 02:05:29.31	181.05	16.10	-25.0	-26.3	16.9	0.00e+00	0	44	0	3451912192	10	4184
2026-01-16 02:05:30.31	181.10	16.00	-25.0	-26.2	17.0	0.00e+00	0	44	0	3458203648	10	4153
2026-01-16 02:05:31.31	181.16	15.89	-24.8	-25.8	17.1	0.00e+00	0	44	0	3463446528	10	4062
2026-01-16 02:05:32.31	181.21	15.78	-24.8	-25.9	17.1	0.00e+00	0	44	0	3469737984	10	4068
2026-01-16 02:05:33.31	181.27	15.67	-24.9	-26.0	17.1	2.20e-06	0	44	0	3474980864	10	4089
2026-01-16 02:05:34.31	181.32	15.57	-24.8	-26.3	17.1	0.00e+00	0	44	0	3480223744	9	4300
2026-01-16 02:05:35.31	181.38	15.46	-24.9	-26.5	17.0	0.00e+00	0	44	0	3486515200	9	4334
2026-01-16 02:05:36.31	181.43	15.35	-24.9	-26.5	17.0	0.00e+00	0	44	0	3491758080	9	4333
2026-01-16 02:05:37.31	181.48	15.25	-25.0	-26.7	16.9	0.00e+00	0	44	0	3497000960	9	4407
2026-01-16 02:05:38.31	181.54	15.14	-24.9	-26.2	17.0	0.00e+00	0	44	0	3503292416	10	4140
2026-01-16 02:05:39.31	181.59	15.04	-25.1	-26.5	16.8	4.50e-06	0	44	0	3508535296	10	4222
2026-01-16 02:05:40.32	181.64	14.93	-25.0	-26.3	16.9	0.00e+00	0	44	0	3514826752	10	4181
2026-01-16 02:05:41.33	181.69	14.83	-25.1	-26.5	16.7	0.00e+00	0	44	0	3520069632	10	4243
2026-01-16 02:05:42.32	181.74	14.73	-25.0	-26.4	16.8	0.00e+00	0	44	0	3525312512	10	4201
2026-01-16 02:05:43.33	181.80	14.62	-25.2	-26.7	16.6	0.00e+00	0	44	0	3531603968	10	4284
2026-01-16 02:05:44.32	181.85	14.52	-25.2	-26.6	16.7	0.00e+00	0	44	0	3536846848	10	4251
2026-01-16 02:05:45.31	181.90	14.42	-25.1	-26.6	16.7	1.02e-05	0	44	0	3542089728	10	4262
2026-01-16 02:05:46.32	181.95	14.32	-25.2	-26.7	16.6	0.00e+00	0	44	0	3548381184	10	4287
2026-01-16 02:05:47.32	182.00	14.22	-25.2	-26.8	16.6	0.00e+00	0	44	0	3553624064	10	4310
2026-01-16 02:05:48.32	182.05	14.12	-25.4	-27.1	16.4	6.80e-06	0	44	0	3559915520	10	4386
2026-01-16 02:05:49.33	182.10	14.01	-25.3	-27.0	16.4	0.00e+00	0	44	0	3565158400	10	4374
2026-01-16 02:05:50.33	182.15	13.91	-25.4	-26.6	16.4	0.00e+00	0	44	0	3570401280	11	4150
2026-01-16 02:05:51.33	182.19	13.82	-25.2	-26.2	16.6	0.00e+00	0	44	0	3576692736	11	4051
2026-01-16 02:05:52.33	182.24	13.72	-25.4	-26.7	16.3	0.00e+00	0	44	0	3581935616	11	4173
2026-01-16 02:05:53.33	182.29	13.62	-25.5	-26.8	16.3	0.00e+00	0	44	0	3587178496	11	4192
2026-01-16 02:05:54.33	182.34	13.52	-25.3	-26.4	16.4	0.00e+00	0	44	0	3593469952	11	4101
2026-01-16 02:05:55.34	182.39	13.42	-25.5	-27.0	16.2	0.00e+00	0	44	0	3598712832	11	4246
2026-01-16 02:05:56.35	182.43	13.32	-25.6	-27.0	16.1	0.00e+00	0	44	0	3605004288	11	4253
2026-01-16 02:05:57.35	182.48	13.22	-25.8	-27.6	15.8	0.00e+00	0	44	0	3610247168	11	4408
2026-01-16 02:05:58.35	182.53	13.13	-25.7	-27.2	16.0	0.00e+00	0	44	0	3615490048	11	4306
2026-01-16 02:05:59.35	182.57	13.03	-25.8	-27.5	15.8	0.00e+00	0	44	0	3621781504	11	4393
2026-01-16 02:06:00.35	182.62	12.93	-26.1	-27.8	15.4	0.00e+00	0	44	0	3627024384	12	4364
2026-01-16 02:06:01.36	182.67	12.84	-25.8	-27.0	15.8	0.00e+00	0	44	0	3632267264	12	4153
2026-01-16 02:06:02.36	182.71	12.74	-25.9	-27.3	15.6	0.00e+00	0	44	0	3638558720	12	4231
2026-01-16 02:06:03.36	182.76	12.65	-25.8	-26.9	15.8	0.00e+00	0	44	0	3643801600	12	4127
2026-01-16 02:06:04.36	182.80	12.55	-25.9	-27.4	15.6	0.00e+00	0	44	0	3649044480	12	4240
2026-01-16 02:06:05.36	182.85	12.46	-25.9	-27.2	15.7	0.00e+00	0	44	0	3655335936	12	4187
2026-01-16 02:06:06.36	182.89	12.36	-26.1	-27.6	15.4	0.00e+00	0	44	0	3660578816	12	4316
2026-01-16 02:06:07.36	182.93	12.27	-25.8	-27.1	15.7	0.00e+00	0	44	0	3666870272	12	4159
2026-01-16 02:06:08.36	182.98	12.18	-25.7	-26.7	15.9	0.00e+00	0	44	0	3672113152	12	4082
2026-01-16 02:06:09.36	183.02	12.08	-25.7	-27.4	15.9	0.00e+00	0	44	0	3677356032	11	4346
2026-01-16 02:06:10.36	183.06	11.99	-25.8	-27.5	15.8	0.00e+00	0	44	0	3683647488	11	4396
2026-01-16 02:06:11.36	183.11	11.90	-25.9	-27.3	15.6	0.00e+00	0	44	0	3688890368	12	4210
2026-01-16 02:06:12.37	183.15	11.81	-25.8	-27.5	15.8	0.00e+00	0	44	0	3695181824	11	4389
2026-01-16 02:06:13.37	183.19	11.71	-25.9	-27.7	15.7	0.00e+00	0	44	0	3700424704	11	4430
2026-01-16 02:06:14.37	183.24	11.62	-25.9	-27.4	15.5	0.00e+00	0	44	0	3705667584	12	4248
2026-01-16 02:06:15.38	183.28	11.53	-26.0	-27.6	15.4	0.00e+00	0	44	0	3711959040	12	4301
2026-01-16 02:06:16.38	183.32	11.44	-26.0	-27.6	15.4	0.00e+00	0	44	0	3717201920	12	4307
2026-01-16 02:06:17.38	183.36	11.35	-25.9	-27.3	15.5	0.00e+00	0	44	0	3722444800	12	4222
2026-01-16 02:06:18.38	183.40	11.26	-25.9	-27.4	15.5	0.00e+00	0	44	0	3728736256	12	4244
2026-01-16 02:06:19.39	183.44	11.17	-25.9	-27.3	15.5	0.00e+00	0	44	0	3733979136	12	4226
2026-01-16 02:06:20.39	183.49	11.08	-26.1	-27.7	15.3	1.10e-06	0	44	0	3740270592	12	4336
2026-01-16 02:06:21.39	183.53	10.99	-26.1	-27.8	15.2	2.53e-04	0	44	0	3745513472	12	4370
2026-01-16 02:06:22.40	183.57	10.90	-26.1	-27.8	15.2	0.00e+00	0	44	0	3750756352	12	4371
2026-01-16 02:06:23.40	183.61	10.81	-26.2	-28.0	15.1	2.27e-04	0	44	0	3757047808	12	4413
2026-01-16 02:06:24.40	183.65	10.73	-26.2	-27.9	15.1	0.00e+00	0	44	0	3762290688	12	4401
2026-01-16 02:06:25.39	183.69	10.64	-26.2	-28.0	15.1	0.00e+00	0	44	0	3767533568	12	4404
2026-01-16 02:06:26.39	183.73	10.55	-26.3	-28.2	15.0	0.00e+00	0	44	0	3773825024	12	4489
2026-01-16 02:06:27.40	183.77	10.46	-26.4	-28.4	14.9	1.10e-06	0	44	0	3779067904	12	4522
2026-01-16 02:06:28.40	183.81	10.38	-26.2	-28.1	15.1	0.00e+00	0	44	0	3784310784	12	4439
2026-01-16 02:06:29.41	183.84	10.29	-26.2	-28.0	15.1	0.00e+00	0	44	0	3790602240	12	4410
2026-01-16 02:06:30.41	183.88	10.20	-26.3	-28.1	15.0	1.84e-04	0	44	0	3795845120	12	4448
2026-01-16 02:06:31.41	183.92	10.12	-26.5	-28.5	14.8	0.00e+00	0	44	0	3802136576	12	4581
2026-01-16 02:06:32.42	183.96	10.03	-26.4	-27.8	14.9	2.05e-04	0	44	0	3807379456	13	4261
2026-01-16 02:06:33.42	184.00	9.94	-26.6	-28.4	14.6	1.96e-04	0	44	0	3813670912	13	4418
2026-01-16 02:06:34.42	184.04	9.86	-26.7	-28.6	14.4	0.00e+00	0	44	0	3818913792	13	4493
2026-01-16 02:06:35.42	184.07	9.77	-26.8	-28.8	14.3	2.06e-04	0	44	0	3824156672	13	4530
2026-01-16 02:06:36.42	184.11	9.69	-26.8	-28.9	14.2	3.40e-06	0	44	0	3830448128	13	4573
2026-01-16 02:06:37.43	184.15	9.60	-26.6	-28.5	14.5	0.00e+00	0	44	0	3835691008	13	4450
2026-01-16 02:06:38.43	184.19	9.52	-26.5	-28.1	14.7	2.16e-04	0	44	0	3840933888	13	4348
2026-01-16 02:06:39.43	184.22	9.44	-26.3	-27.7	14.9	1.94e-04	0	44	0	3847225344	13	4238
2026-01-16 02:06:40.44	184.26	9.35	-26.2	-27.5	15.0	0.00e+00	0	44	0	3852468224	13	4186
2026-01-16 02:06:41.44	184.30	9.27	-26.3	-28.3	14.8	2.02e-04	0	44	0	3858759680	12	4514
2026-01-16 02:06:42.44	184.33	9.19	-26.4	-28.3	14.8	1.97e-04	0	44	0	3864002560	12	4525
