passes_logs/2026/01/16/R2M6_AANII_01/R2M6_AANII_01__20260116_120126_NOAA_21_JPSS-2_rec.log

#Pass ID: 20260116_120126_NOAA 21 (JPSS-2)
#Satellite: NOAA 21 (JPSS-2)
#Configuration: NOAA 21
#almurnet v.1.7.20240730
#Start time: 2026-01-16 12:03:53

#Version: 2.2.20231116
#Station: R2M6_AANII_01
#Location: 30.233357 lon 59.946436 lat
#TLE: 1 54234U 22150A   26015.43562254  .00000028  00000+0  34201-4 0  9996
#TLE: 2 54234  98.7498 316.3301 0000635 288.4972  71.6135 14.19534768164873

#Time	Az	El	Level	Level2	SNR	BER	BlckErr	Temp	State	Recorded	gain1	gain2
2026-01-16 12:03:53.65	236.62	16.51	-33.5	-43.4	3.8	8.46e-01	0	43	0	0	26	11251
2026-01-16 12:03:54.65	236.81	16.58	-34.2	-45.8	3.8	1.49e+00	0	43	104	0	29	13688
2026-01-16 12:03:55.65	237.00	16.64	-34.3	-45.9	3.8	1.49e+00	0	43	104	0	29	13673
2026-01-16 12:03:56.65	237.18	16.70	-34.3	-46.0	3.8	1.49e+00	0	43	104	0	29	13759
2026-01-16 12:03:57.64	237.37	16.77	-34.3	-46.0	3.8	1.49e+00	0	43	104	0	29	13818
2026-01-16 12:03:58.65	237.56	16.83	-34.4	-46.0	3.8	1.49e+00	0	43	104	0	29	13824
2026-01-16 12:03:59.64	237.75	16.89	-34.4	-46.0	3.8	1.49e+00	0	43	104	0	29	13795
2026-01-16 12:04:00.64	237.94	16.96	-34.3	-46.0	3.8	1.49e+00	0	43	104	0	29	13782
2026-01-16 12:04:01.64	238.13	17.02	-34.3	-45.9	3.8	1.49e+00	0	43	104	0	29	13706
2026-01-16 12:04:02.64	238.32	17.08	-34.3	-45.9	3.8	1.49e+00	0	43	104	0	29	13716
2026-01-16 12:04:03.64	238.51	17.14	-34.3	-45.9	3.8	1.49e+00	0	43	104	0	29	13777
2026-01-16 12:04:04.64	238.71	17.21	-34.3	-45.8	3.8	1.49e+00	0	43	104	0	29	13656
2026-01-16 12:04:05.64	238.90	17.27	-34.2	-45.8	3.8	1.49e+00	0	43	104	0	29	13670
2026-01-16 12:04:06.64	239.10	17.33	-34.2	-45.8	3.8	1.49e+00	0	43	104	0	29	13632
2026-01-16 12:04:07.64	239.29	17.39	-34.2	-45.8	3.8	1.49e+00	0	43	104	0	29	13635
2026-01-16 12:04:08.64	239.49	17.45	-34.2	-45.8	3.8	1.49e+00	0	43	104	0	29	13618
2026-01-16 12:04:09.65	239.69	17.51	-34.2	-45.7	3.8	1.49e+00	0	43	104	0	29	13601
2026-01-16 12:04:10.65	239.89	17.58	-34.2	-45.8	3.8	1.49e+00	0	43	104	0	29	13628
2026-01-16 12:04:11.65	240.09	17.64	-34.2	-45.8	3.8	1.49e+00	0	43	104	0	29	13634
2026-01-16 12:04:12.65	240.29	17.70	-34.2	-45.8	3.8	1.49e+00	0	43	104	0	29	13675
2026-01-16 12:04:13.66	240.49	17.76	-34.3	-45.8	3.8	1.49e+00	0	43	104	0	29	13636
2026-01-16 12:04:14.66	240.69	17.82	-34.2	-45.9	3.8	1.49e+00	0	43	104	0	29	13701
2026-01-16 12:04:15.66	240.89	17.88	-34.2	-45.7	3.8	1.49e+00	0	43	104	0	29	13573
2026-01-16 12:04:16.66	241.10	17.94	-34.2	-45.7	3.8	1.49e+00	0	43	104	0	29	13581
2026-01-16 12:04:17.66	241.30	18.00	-34.1	-45.6	3.8	1.49e+00	0	43	104	0	29	13487
2026-01-16 12:04:18.66	241.50	18.06	-34.1	-45.5	3.8	1.49e+00	0	43	104	0	29	13411
2026-01-16 12:04:19.66	241.71	18.12	-34.0	-45.4	3.8	1.49e+00	0	43	104	0	29	13383
2026-01-16 12:04:20.66	241.92	18.18	-34.0	-45.4	3.8	1.49e+00	0	43	104	0	29	13346
2026-01-16 12:04:21.67	242.12	18.24	-34.0	-45.3	3.8	1.49e+00	0	43	104	0	29	13269
2026-01-16 12:04:22.67	242.33	18.30	-34.0	-45.2	3.8	1.49e+00	0	43	104	0	29	13209
2026-01-16 12:04:23.68	242.54	18.36	-33.9	-45.1	3.8	1.49e+00	0	43	104	0	29	13115
2026-01-16 12:04:24.68	242.75	18.41	-33.8	-44.9	3.8	1.49e+00	0	43	104	0	29	12858
2026-01-16 12:04:25.68	242.96	18.47	-33.7	-44.8	3.8	1.49e+00	0	43	104	0	28	12876
2026-01-16 12:04:26.68	243.17	18.53	-33.5	-43.8	3.8	1.49e+00	0	43	104	0	28	11788
2026-01-16 12:04:27.68	243.38	18.59	-33.5	-43.9	3.8	1.49e+00	0	43	104	0	28	11903
2026-01-16 12:04:28.68	243.60	18.65	-33.5	-44.0	3.8	1.49e+00	0	43	104	0	28	12029
2026-01-16 12:04:29.69	243.81	18.70	-33.5	-44.0	3.8	1.49e+00	0	43	104	0	28	12084
2026-01-16 12:04:30.70	244.03	18.76	-33.5	-44.0	3.8	1.49e+00	0	43	104	0	28	12084
2026-01-16 12:04:31.70	244.24	18.82	-33.5	-44.1	3.8	1.49e+00	0	43	104	0	28	12165
2026-01-16 12:04:32.70	244.46	18.87	-33.5	-44.1	3.8	1.49e+00	0	43	104	0	28	12259
2026-01-16 12:04:33.70	244.67	18.93	-33.5	-44.2	3.8	1.49e+00	0	43	104	0	28	12383
2026-01-16 12:04:34.71	244.89	18.99	-33.5	-44.2	3.8	1.49e+00	0	43	104	0	28	12402
2026-01-16 12:04:35.71	245.11	19.04	-33.5	-44.2	3.8	1.49e+00	0	43	104	0	28	12415
2026-01-16 12:04:36.71	245.33	19.10	-33.5	-44.2	3.8	1.49e+00	0	43	104	0	28	12344
2026-01-16 12:04:37.71	245.55	19.15	-33.5	-44.1	3.8	1.49e+00	0	43	104	0	28	12277
2026-01-16 12:04:38.72	245.77	19.21	-33.5	-44.3	3.8	1.49e+00	0	43	104	0	28	12484
2026-01-16 12:04:39.72	245.99	19.26	-33.5	-44.8	3.8	1.49e+00	0	43	104	0	28	13207
2026-01-16 12:04:40.73	246.22	19.32	-33.5	-44.6	3.8	1.49e+00	0	43	104	0	28	12911
2026-01-16 12:04:41.74	246.44	19.37	-33.3	-42.4	3.9	1.49e+00	0	43	104	0	27	10307
2026-01-16 12:04:42.74	246.66	19.42	-32.4	-37.5	6.1	3.99e-01	0	43	104	0	26	6467
2026-01-16 12:04:43.74	246.89	19.48	-31.0	-34.1	9.6	4.74e-02	0	43	0	2097152	23	5108
2026-01-16 12:04:44.75	247.11	19.53	-29.6	-31.7	12.2	9.53e-04	0	43	0	5242880	20	4584
2026-01-16 12:04:45.75	247.34	19.58	-28.9	-30.3	13.4	2.44e-05	0	43	0	8388608	19	4257
2026-01-16 12:04:46.76	247.57	19.64	-28.6	-30.2	13.8	1.06e-05	0	43	0	11534336	18	4325
2026-01-16 12:04:47.76	247.80	19.69	-28.9	-30.8	13.4	1.14e-05	0	43	0	14680064	18	4516
2026-01-16 12:04:48.77	248.03	19.74	-29.1	-31.4	13.0	2.82e-05	0	43	0	17825792	18	4684
2026-01-16 12:04:49.76	248.25	19.79	-29.0	-31.2	13.2	2.97e-05	0	43	0	20971520	18	4611
2026-01-16 12:04:50.76	248.48	19.84	-29.0	-31.3	13.1	2.28e-05	0	43	0	24117248	18	4652
2026-01-16 12:04:51.76	248.71	19.89	-29.3	-31.9	12.7	6.40e-05	0	43	0	27262976	18	4860
2026-01-16 12:04:52.76	248.94	19.94	-29.1	-31.4	13.1	3.12e-05	0	43	0	30408704	18	4687
2026-01-16 12:04:53.75	249.17	19.99	-28.9	-30.9	13.4	1.29e-05	0	43	0	33554432	18	4525
2026-01-16 12:04:54.76	249.40	20.04	-28.7	-30.5	13.6	7.60e-06	0	43	0	36700160	18	4402
2026-01-16 12:04:55.75	249.64	20.09	-28.6	-30.3	13.8	9.90e-06	0	43	0	39845888	18	4338
2026-01-16 12:04:56.76	249.87	20.14	-28.6	-30.2	13.8	4.50e-06	0	43	0	42991616	18	4322
2026-01-16 12:04:57.76	250.11	20.19	-28.6	-30.1	13.9	4.50e-06	0	43	0	46137344	18	4286
2026-01-16 12:04:58.76	250.34	20.24	-28.9	-31.0	13.3	1.29e-05	0	43	0	49283072	18	4558
2026-01-16 12:04:59.76	250.58	20.28	-28.7	-30.3	13.7	8.30e-06	0	43	0	52428800	18	4363
2026-01-16 12:05:00.77	250.81	20.33	-28.2	-29.8	14.4	2.20e-06	0	43	0	55574528	17	4299
2026-01-16 12:05:01.77	251.05	20.38	-27.8	-28.9	14.9	0.00e+00	0	43	0	58720256	17	4063
2026-01-16 12:05:02.77	251.29	20.42	-27.5	-28.7	15.2	0.00e+00	0	43	0	61865984	16	4114
2026-01-16 12:05:03.77	251.53	20.47	-27.3	-28.2	15.5	0.00e+00	0	43	0	65011712	16	3992
2026-01-16 12:05:04.78	251.77	20.52	-27.0	-28.1	15.7	0.00e+00	0	43	0	68157440	15	4060
2026-01-16 12:05:05.78	252.01	20.56	-27.0	-27.9	15.8	0.00e+00	0	43	0	71303168	15	4009
2026-01-16 12:05:06.77	252.25	20.60	-27.0	-28.1	15.8	0.00e+00	0	43	0	74448896	15	4065
2026-01-16 12:05:07.77	252.49	20.65	-26.9	-27.8	15.9	0.00e+00	0	43	0	77594624	15	3988
2026-01-16 12:05:08.77	252.73	20.69	-26.9	-27.8	15.9	0.00e+00	0	43	0	80740352	15	3983
2026-01-16 12:05:09.78	252.98	20.74	-27.0	-28.1	15.7	0.00e+00	0	43	0	83886080	15	4068
2026-01-16 12:05:10.77	253.22	20.78	-27.1	-28.3	15.6	0.00e+00	0	43	0	87031808	15	4110
2026-01-16 12:05:11.77	253.46	20.82	-27.2	-28.4	15.6	0.00e+00	0	43	0	90177536	15	4161
2026-01-16 12:05:12.77	253.71	20.86	-27.2	-28.4	15.6	0.00e+00	0	43	0	93323264	15	4133
2026-01-16 12:05:13.77	253.95	20.91	-27.0	-28.0	15.8	0.00e+00	0	43	0	96468992	15	4050
2026-01-16 12:05:14.77	254.20	20.95	-26.9	-27.9	15.9	0.00e+00	0	43	0	99614720	15	4005
2026-01-16 12:05:15.77	254.44	20.99	-26.9	-27.9	15.9	0.00e+00	0	43	0	102760448	15	4006
2026-01-16 12:05:16.77	254.69	21.03	-27.3	-28.6	15.5	0.00e+00	0	43	0	105906176	15	4205
2026-01-16 12:05:17.77	254.94	21.07	-27.1	-28.2	15.6	0.00e+00	0	43	0	109051904	15	4095
2026-01-16 12:05:18.78	255.19	21.11	-27.0	-28.0	15.8	0.00e+00	0	43	0	111149056	15	4048
2026-01-16 12:05:19.78	255.44	21.15	-27.2	-28.3	15.6	0.00e+00	0	43	0	114294784	15	4127
2026-01-16 12:05:20.78	255.69	21.18	-27.1	-28.3	15.6	0.00e+00	0	43	0	117440512	15	4126
2026-01-16 12:05:21.78	255.94	21.22	-27.2	-28.4	15.6	0.00e+00	0	43	0	120586240	15	4148
2026-01-16 12:05:22.78	256.19	21.26	-27.3	-28.7	15.4	0.00e+00	0	43	0	123731968	15	4230
2026-01-16 12:05:23.78	256.44	21.30	-27.1	-28.3	15.6	0.00e+00	0	43	0	126877696	15	4118
2026-01-16 12:05:24.78	256.69	21.33	-26.9	-27.7	15.9	0.00e+00	0	43	0	130023424	15	3974
2026-01-16 12:05:25.78	256.94	21.37	-26.7	-27.9	16.1	0.00e+00	0	43	0	133169152	14	4104
2026-01-16 12:05:26.78	257.20	21.40	-26.7	-27.8	16.2	0.00e+00	0	43	0	136314880	14	4077
2026-01-16 12:05:27.77	257.45	21.44	-26.7	-27.9	16.1	0.00e+00	0	43	0	139460608	14	4122
2026-01-16 12:05:28.77	257.70	21.47	-27.0	-28.6	15.8	0.00e+00	0	43	0	142606336	14	4296
2026-01-16 12:05:29.78	257.96	21.51	-26.9	-28.3	15.9	0.00e+00	0	43	0	145752064	14	4238
2026-01-16 12:05:30.77	258.21	21.54	-27.0	-28.6	15.7	0.00e+00	0	43	0	148897792	14	4302
2026-01-16 12:05:31.78	258.47	21.57	-26.9	-28.3	15.9	0.00e+00	0	43	0	152043520	14	4234
2026-01-16 12:05:32.79	258.73	21.60	-26.9	-28.3	15.9	0.00e+00	0	43	0	155189248	14	4223
2026-01-16 12:05:33.78	258.98	21.64	-26.9	-28.3	15.9	7.00e-07	0	43	0	158334976	14	4216
2026-01-16 12:05:34.79	259.24	21.67	-27.0	-28.5	15.7	0.00e+00	0	43	0	161480704	14	4283
2026-01-16 12:05:35.80	259.50	21.70	-26.9	-28.2	15.9	0.00e+00	0	43	0	164626432	14	4192
2026-01-16 12:05:36.80	259.76	21.73	-26.8	-28.0	16.1	0.00e+00	0	43	0	167772160	14	4151
2026-01-16 12:05:37.80	260.02	21.76	-26.9	-28.2	15.9	0.00e+00	0	43	0	170917888	14	4201
2026-01-16 12:05:38.80	260.28	21.79	-26.9	-28.2	15.9	0.00e+00	0	43	0	174063616	14	4208
2026-01-16 12:05:39.80	260.54	21.82	-27.0	-28.4	15.8	0.00e+00	0	43	0	177209344	14	4265
2026-01-16 12:05:40.80	260.80	21.84	-27.0	-28.4	15.8	0.00e+00	0	43	0	180355072	14	4255
2026-01-16 12:05:41.80	261.06	21.87	-27.0	-28.5	15.8	0.00e+00	0	43	0	183500800	14	4266
2026-01-16 12:05:42.80	261.32	21.90	-27.0	-28.4	15.8	0.00e+00	0	43	0	186646528	14	4244
2026-01-16 12:05:43.79	261.58	21.92	-26.8	-28.1	16.0	0.00e+00	0	43	0	189792256	14	4159
2026-01-16 12:05:44.80	261.84	21.95	-26.8	-28.0	16.0	0.00e+00	0	43	0	192937984	14	4144
2026-01-16 12:05:45.80	262.11	21.97	-26.9	-28.3	15.9	0.00e+00	0	43	0	196083712	14	4210
2026-01-16 12:05:46.80	262.37	22.00	-26.9	-28.2	15.9	0.00e+00	0	43	0	199229440	14	4193
2026-01-16 12:05:47.80	262.63	22.02	-26.9	-28.3	15.8	0.00e+00	0	43	0	202375168	14	4229
2026-01-16 12:05:48.81	262.90	22.04	-27.0	-28.6	15.8	0.00e+00	0	43	0	205520896	14	4304
2026-01-16 12:05:49.81	263.16	22.07	-26.9	-28.4	15.9	0.00e+00	0	43	0	208666624	14	4247
2026-01-16 12:05:50.81	263.42	22.09	-27.0	-28.4	15.8	0.00e+00	0	43	0	211812352	14	4259
2026-01-16 12:05:51.81	263.69	22.11	-27.1	-28.6	15.7	7.00e-07	0	43	0	214958080	14	4309
2026-01-16 12:05:52.81	263.95	22.13	-27.0	-28.6	15.7	2.20e-06	0	43	0	218103808	14	4312
2026-01-16 12:05:53.82	264.22	22.15	-27.2	-29.0	15.5	0.00e+00	0	43	0	221249536	14	4406
2026-01-16 12:05:54.82	264.49	22.17	-27.2	-28.9	15.5	9.10e-06	0	43	0	224395264	14	4402
2026-01-16 12:05:55.82	264.75	22.19	-27.4	-29.4	15.3	1.50e-06	0	43	0	227540992	14	4544
2026-01-16 12:05:56.82	265.02	22.21	-27.4	-28.9	15.3	0.00e+00	0	43	0	230686720	15	4278
2026-01-16 12:05:57.83	265.29	22.23	-27.1	-28.3	15.6	8.30e-06	0	43	0	233832448	15	4117
2026-01-16 12:05:58.82	265.55	22.24	-27.0	-28.0	15.8	0.00e+00	0	43	0	236978176	15	4036
2026-01-16 12:05:59.83	265.82	22.26	-27.0	-27.9	15.9	0.00e+00	0	43	0	240123904	15	4009
2026-01-16 12:06:00.82	266.09	22.28	-27.0	-28.1	15.8	4.50e-06	0	43	0	243269632	15	4059
2026-01-16 12:06:01.82	266.35	22.29	-26.9	-27.8	15.9	0.00e+00	0	43	0	246415360	15	3977
2026-01-16 12:06:02.82	266.62	22.31	-26.8	-27.5	16.1	0.00e+00	0	43	0	249561088	15	3901
2026-01-16 12:06:03.81	266.89	22.32	-26.6	-27.6	16.3	9.10e-06	0	43	0	252706816	14	4046
2026-01-16 12:06:04.82	267.16	22.33	-26.6	-27.6	16.3	0.00e+00	0	43	0	255852544	14	4047
2026-01-16 12:06:05.82	267.43	22.35	-26.8	-28.1	16.0	0.00e+00	0	43	0	258998272	14	4167
2026-01-16 12:06:06.82	267.70	22.36	-26.7	-27.8	16.2	9.10e-06	0	43	0	262144000	14	4089
2026-01-16 12:06:07.83	267.97	22.37	-26.8	-27.9	16.2	0.00e+00	0	43	0	265289728	14	4124
2026-01-16 12:06:08.84	268.24	22.38	-26.9	-28.2	16.0	0.00e+00	0	43	0	268435456	14	4203
2026-01-16 12:06:09.85	268.51	22.39	-27.1	-28.6	15.7	7.00e-07	0	43	0	271581184	14	4314
2026-01-16 12:06:10.85	268.78	22.40	-26.9	-28.4	15.9	0.00e+00	0	43	0	274726912	14	4244
2026-01-16 12:06:11.85	269.05	22.41	-26.8	-28.1	16.0	0.00e+00	0	43	0	277872640	14	4182
2026-01-16 12:06:12.85	269.32	22.42	-26.8	-28.0	16.1	0.00e+00	0	43	0	281018368	14	4146
2026-01-16 12:06:13.84	269.59	22.43	-26.9	-28.2	15.9	0.00e+00	0	43	0	284164096	14	4199
2026-01-16 12:06:14.85	269.86	22.43	-26.7	-27.9	16.1	0.00e+00	0	43	0	287309824	14	4114
2026-01-16 12:06:15.84	270.13	22.44	-26.9	-28.3	15.9	0.00e+00	0	43	0	290455552	14	4215
2026-01-16 12:06:16.85	270.40	22.44	-26.9	-28.2	15.9	0.00e+00	0	43	0	293601280	14	4206
2026-01-16 12:06:17.85	270.67	22.45	-26.9	-28.2	15.9	0.00e+00	0	43	0	296747008	14	4209
2026-01-16 12:06:18.85	270.94	22.45	-27.0	-28.5	15.8	0.00e+00	0	43	0	299892736	14	4274
2026-01-16 12:06:19.86	271.21	22.46	-26.9	-28.4	15.9	0.00e+00	0	43	0	303038464	14	4243
2026-01-16 12:06:20.86	271.48	22.46	-27.2	-29.0	15.5	0.00e+00	0	43	0	306184192	14	4408
2026-01-16 12:06:21.87	271.76	22.46	-27.4	-29.3	15.3	0.00e+00	0	43	0	309329920	14	4516
2026-01-16 12:06:22.87	272.03	22.47	-27.2	-28.9	15.6	0.00e+00	0	43	0	312475648	14	4387
2026-01-16 12:06:23.87	272.30	22.47	-27.3	-29.1	15.5	0.00e+00	0	43	0	315621376	14	4445
2026-01-16 12:06:24.87	272.57	22.47	-27.3	-29.2	15.4	0.00e+00	0	43	0	317718528	14	4480
2026-01-16 12:06:25.87	272.84	22.47	-27.1	-28.6	15.7	0.00e+00	0	43	0	320864256	14	4312
2026-01-16 12:06:26.88	273.11	22.47	-27.0	-28.4	15.8	0.00e+00	0	43	0	324009984	14	4258
2026-01-16 12:06:27.89	273.38	22.46	-27.2	-29.0	15.6	0.00e+00	0	43	0	327155712	14	4407
2026-01-16 12:06:28.89	273.65	22.46	-27.1	-28.6	15.7	0.00e+00	0	43	0	330301440	14	4313
2026-01-16 12:06:29.89	273.93	22.46	-27.4	-29.4	15.3	0.00e+00	0	43	0	333447168	14	4518
2026-01-16 12:06:30.89	274.20	22.46	-27.3	-29.1	15.5	0.00e+00	0	43	0	336592896	14	4449
2026-01-16 12:06:31.90	274.47	22.45	-27.0	-28.5	15.8	0.00e+00	0	43	0	339738624	14	4265
2026-01-16 12:06:32.90	274.74	22.45	-26.8	-28.1	16.0	0.00e+00	0	43	0	342884352	14	4158
2026-01-16 12:06:33.90	275.01	22.44	-26.8	-27.9	16.1	0.00e+00	0	43	0	346030080	14	4127
2026-01-16 12:06:34.90	275.28	22.44	-26.8	-27.9	16.1	0.00e+00	0	43	0	349175808	14	4120
2026-01-16 12:06:35.91	275.55	22.43	-26.8	-28.1	16.0	0.00e+00	0	43	0	352321536	14	4167
2026-01-16 12:06:36.91	275.82	22.42	-26.8	-28.1	16.0	0.00e+00	0	43	0	355467264	14	4180
2026-01-16 12:06:37.92	276.09	22.42	-26.8	-28.0	16.0	0.00e+00	0	43	0	358612992	14	4150
2026-01-16 12:06:38.92	276.36	22.41	-27.0	-28.4	15.9	0.00e+00	0	43	0	361758720	14	4251
2026-01-16 12:06:39.92	276.63	22.40	-26.9	-28.3	16.0	0.00e+00	0	43	0	364904448	14	4218
2026-01-16 12:06:40.92	276.90	22.39	-26.9	-28.3	15.9	0.00e+00	0	43	0	368050176	14	4222
2026-01-16 12:06:41.92	277.17	22.38	-27.0	-28.4	15.8	0.00e+00	0	43	0	371195904	14	4264
2026-01-16 12:06:42.93	277.44	22.37	-26.8	-28.0	16.1	0.00e+00	0	43	0	374341632	14	4145
2026-01-16 12:06:43.93	277.71	22.35	-26.7	-27.8	16.2	0.00e+00	0	43	0	377487360	14	4097
2026-01-16 12:06:44.93	277.98	22.34	-26.8	-28.0	16.1	0.00e+00	0	43	0	380633088	14	4137
2026-01-16 12:06:45.93	278.25	22.33	-26.8	-28.0	16.1	0.00e+00	0	43	0	383778816	14	4154
2026-01-16 12:06:46.93	278.51	22.32	-26.9	-28.3	15.9	0.00e+00	0	43	0	386924544	14	4214
2026-01-16 12:06:47.92	278.78	22.30	-26.8	-28.0	16.0	0.00e+00	0	43	0	390070272	14	4153
2026-01-16 12:06:48.92	279.05	22.29	-26.8	-28.1	16.0	0.00e+00	0	43	0	393216000	14	4171
2026-01-16 12:06:49.92	279.31	22.27	-26.6	-27.7	16.2	0.00e+00	0	43	0	396361728	14	4067
2026-01-16 12:06:50.93	279.58	22.26	-26.5	-27.3	16.5	0.00e+00	0	43	0	399507456	14	3950
2026-01-16 12:06:51.93	279.85	22.24	-26.5	-27.4	16.4	0.00e+00	0	43	0	402653184	14	3988
2026-01-16 12:06:52.93	280.12	22.22	-26.7	-27.9	16.2	0.00e+00	0	43	0	405798912	14	4107
2026-01-16 12:06:53.92	280.38	22.20	-26.6	-27.7	16.2	0.00e+00	0	43	0	408944640	14	4064
2026-01-16 12:06:54.93	280.65	22.19	-26.6	-27.6	16.3	0.00e+00	0	43	0	412090368	14	4053
2026-01-16 12:06:55.93	280.91	22.17	-26.7	-27.8	16.2	0.00e+00	0	43	0	415236096	14	4090
2026-01-16 12:06:56.92	281.18	22.15	-26.9	-28.2	15.9	1.50e-06	0	43	0	418381824	14	4196
2026-01-16 12:06:57.93	281.44	22.13	-26.8	-28.0	16.1	0.00e+00	0	43	0	421527552	14	4130
2026-01-16 12:06:58.93	281.71	22.11	-26.8	-28.1	16.0	0.00e+00	0	43	0	424673280	14	4176
2026-01-16 12:06:59.94	281.97	22.08	-26.8	-28.1	16.1	0.00e+00	0	43	0	427819008	14	4160
2026-01-16 12:07:00.94	282.24	22.06	-26.8	-28.0	16.1	0.00e+00	0	43	0	430964736	14	4132
2026-01-16 12:07:01.94	282.50	22.04	-26.8	-28.0	16.1	0.00e+00	0	43	0	434110464	14	4136
2026-01-16 12:07:02.94	282.76	22.02	-27.1	-28.6	15.8	0.00e+00	0	43	0	437256192	14	4309
2026-01-16 12:07:03.95	283.03	21.99	-26.9	-28.3	15.9	0.00e+00	0	43	0	440401920	14	4222
2026-01-16 12:07:04.94	283.29	21.97	-26.9	-28.3	15.9	0.00e+00	0	43	0	443547648	14	4211
2026-01-16 12:07:05.94	283.55	21.94	-26.7	-27.9	16.1	0.00e+00	0	43	0	446693376	14	4122
2026-01-16 12:07:06.94	283.81	21.92	-27.0	-28.4	15.8	0.00e+00	0	43	0	449839104	14	4245
2026-01-16 12:07:07.94	284.07	21.89	-26.8	-28.0	16.1	0.00e+00	0	43	0	452984832	14	4142
2026-01-16 12:07:08.95	284.33	21.86	-26.9	-28.3	15.9	0.00e+00	0	43	0	456130560	14	4226
2026-01-16 12:07:09.95	284.59	21.84	-27.0	-28.6	15.7	0.00e+00	0	43	0	459276288	14	4301
2026-01-16 12:07:10.95	284.85	21.81	-26.8	-28.1	16.0	0.00e+00	0	43	0	462422016	14	4166
2026-01-16 12:07:11.95	285.11	21.78	-26.7	-27.7	16.2	0.00e+00	0	43	0	465567744	14	4068
2026-01-16 12:07:12.95	285.37	21.75	-26.7	-27.8	16.2	0.00e+00	0	43	0	468713472	14	4079
2026-01-16 12:07:13.95	285.63	21.72	-26.7	-27.8	16.2	0.00e+00	0	43	0	471859200	14	4086
2026-01-16 12:07:14.94	285.88	21.69	-26.7	-27.8	16.2	0.00e+00	0	43	0	475004928	14	4082
2026-01-16 12:07:15.94	286.14	21.66	-26.7	-27.8	16.2	0.00e+00	0	43	0	478150656	14	4087
2026-01-16 12:07:16.95	286.40	21.63	-26.7	-27.7	16.2	0.00e+00	0	43	0	481296384	14	4068
2026-01-16 12:07:17.95	286.66	21.60	-26.7	-27.8	16.1	0.00e+00	0	43	0	484442112	14	4101
2026-01-16 12:07:18.95	286.91	21.57	-26.9	-28.3	15.9	0.00e+00	0	43	0	487587840	14	4232
2026-01-16 12:07:19.96	287.17	21.53	-26.7	-27.9	16.1	0.00e+00	0	43	0	490733568	14	4118
2026-01-16 12:07:20.96	287.42	21.50	-26.6	-27.7	16.2	0.00e+00	0	43	0	493879296	14	4064
2026-01-16 12:07:21.96	287.68	21.47	-26.6	-27.7	16.2	0.00e+00	0	43	0	497025024	14	4070
2026-01-16 12:07:22.96	287.93	21.43	-26.7	-27.8	16.1	0.00e+00	0	43	0	500170752	14	4103
2026-01-16 12:07:23.97	288.18	21.40	-26.7	-27.9	16.1	0.00e+00	0	43	0	503316480	14	4112
2026-01-16 12:07:24.97	288.44	21.36	-26.8	-28.0	16.1	0.00e+00	0	43	0	506462208	14	4151
2026-01-16 12:07:25.97	288.69	21.33	-26.7	-27.7	16.2	0.00e+00	0	43	0	509607936	14	4072
2026-01-16 12:07:26.97	288.94	21.29	-26.7	-27.9	16.1	0.00e+00	0	43	0	512753664	14	4107
2026-01-16 12:07:27.98	289.19	21.25	-26.7	-27.9	16.1	0.00e+00	0	43	0	515899392	14	4133
2026-01-16 12:07:28.98	289.44	21.21	-26.8	-28.1	16.0	0.00e+00	0	43	0	519045120	14	4174
2026-01-16 12:07:29.99	289.69	21.18	-26.8	-28.2	16.0	0.00e+00	0	43	0	521142272	14	4190
2026-01-16 12:07:30.99	289.94	21.14	-26.9	-28.2	15.9	0.00e+00	0	43	0	524288000	14	4203
2026-01-16 12:07:31.98	290.19	21.10	-26.7	-27.8	16.2	0.00e+00	0	43	0	527433728	14	4100
2026-01-16 12:07:32.99	290.44	21.06	-26.6	-27.6	16.2	0.00e+00	0	43	0	530579456	14	4042
2026-01-16 12:07:33.99	290.68	21.02	-26.6	-27.6	16.2	0.00e+00	0	43	0	533725184	14	4052
2026-01-16 12:07:34.99	290.93	20.98	-26.6	-27.5	16.3	0.00e+00	0	43	0	536870912	14	4016
2026-01-16 12:07:35.99	291.18	20.94	-26.6	-27.7	16.2	0.00e+00	0	43	0	540016640	14	4053
2026-01-16 12:07:36.99	291.42	20.90	-26.7	-27.8	16.2	0.00e+00	0	43	0	543162368	14	4082
2026-01-16 12:07:37.99	291.66	20.86	-26.8	-28.1	16.0	0.00e+00	0	43	0	546308096	14	4161
2026-01-16 12:07:39.00	291.91	20.81	-26.8	-28.1	16.0	0.00e+00	0	43	0	549453824	14	4172
2026-01-16 12:07:40.00	292.15	20.77	-26.9	-28.3	15.9	0.00e+00	0	43	0	552599552	14	4223
2026-01-16 12:07:41.00	292.40	20.73	-26.9	-28.2	15.9	0.00e+00	0	43	0	555745280	14	4194
2026-01-16 12:07:42.00	292.64	20.69	-27.0	-28.4	15.8	0.00e+00	0	43	0	558891008	14	4263
2026-01-16 12:07:43.00	292.88	20.64	-26.9	-28.2	15.9	0.00e+00	0	43	0	562036736	14	4196
2026-01-16 12:07:44.00	293.12	20.60	-27.0	-28.4	15.8	0.00e+00	0	43	0	565182464	14	4253
2026-01-16 12:07:45.01	293.36	20.55	-26.8	-28.0	16.0	0.00e+00	0	43	0	568328192	14	4141
2026-01-16 12:07:46.00	293.60	20.51	-26.7	-27.8	16.2	0.00e+00	0	43	0	571473920	14	4088
2026-01-16 12:07:47.00	293.83	20.46	-26.8	-28.2	16.0	0.00e+00	0	43	0	574619648	14	4183
2026-01-16 12:07:48.01	294.07	20.42	-26.7	-27.9	16.1	0.00e+00	0	43	0	577765376	14	4113
2026-01-16 12:07:49.02	294.31	20.37	-26.8	-28.0	16.1	0.00e+00	0	43	0	580911104	14	4130
2026-01-16 12:07:50.03	294.55	20.32	-26.8	-28.1	16.0	0.00e+00	0	43	0	584056832	14	4159
2026-01-16 12:07:51.02	294.78	20.28	-26.9	-28.3	15.9	0.00e+00	0	43	0	587202560	14	4225
2026-01-16 12:07:52.03	295.02	20.23	-26.8	-28.1	15.9	0.00e+00	0	43	0	590348288	14	4183
2026-01-16 12:07:53.03	295.26	20.18	-27.0	-28.5	15.8	0.00e+00	0	43	0	593494016	14	4277
2026-01-16 12:07:54.04	295.49	20.13	-26.9	-28.4	15.8	0.00e+00	0	43	0	596639744	14	4243
2026-01-16 12:07:55.04	295.72	20.08	-27.0	-28.5	15.8	0.00e+00	0	43	0	599785472	14	4273
2026-01-16 12:07:56.04	295.96	20.04	-26.8	-28.1	15.9	0.00e+00	0	43	0	602931200	14	4168
2026-01-16 12:07:57.04	296.19	19.99	-26.8	-28.1	16.0	0.00e+00	0	43	0	606076928	14	4169
2026-01-16 12:07:58.03	296.41	19.94	-27.0	-28.4	15.8	0.00e+00	0	43	0	609222656	14	4265
2026-01-16 12:07:59.03	296.64	19.89	-26.9	-28.3	15.9	0.00e+00	0	43	0	612368384	14	4220
2026-01-16 12:08:00.04	296.87	19.84	-27.0	-28.5	15.7	0.00e+00	0	43	0	615514112	14	4292
2026-01-16 12:08:01.04	297.10	19.79	-26.8	-28.0	16.0	0.00e+00	0	43	0	618659840	14	4145
2026-01-16 12:08:02.04	297.33	19.73	-26.8	-28.0	16.0	0.00e+00	0	43	0	621805568	14	4155
2026-01-16 12:08:03.04	297.56	19.68	-26.9	-28.4	15.8	0.00e+00	0	43	0	624951296	14	4251
2026-01-16 12:08:04.04	297.78	19.63	-26.9	-28.3	15.8	0.00e+00	0	43	0	628097024	14	4233
2026-01-16 12:08:05.05	298.01	19.58	-27.0	-28.4	15.8	0.00e+00	0	43	0	631242752	14	4256
2026-01-16 12:08:06.05	298.23	19.53	-26.9	-28.3	15.8	0.00e+00	0	43	0	634388480	14	4229
2026-01-16 12:08:07.05	298.46	19.47	-27.0	-28.6	15.6	0.00e+00	0	43	0	637534208	14	4316
2026-01-16 12:08:08.05	298.68	19.42	-27.0	-28.6	15.6	0.00e+00	0	43	0	640679936	14	4308
2026-01-16 12:08:09.05	298.90	19.37	-27.0	-28.6	15.7	0.00e+00	0	43	0	643825664	14	4312
2026-01-16 12:08:10.05	299.12	19.32	-26.9	-28.4	15.8	0.00e+00	0	43	0	646971392	14	4252
2026-01-16 12:08:11.06	299.35	19.26	-27.0	-28.5	15.7	0.00e+00	0	43	0	650117120	14	4294
2026-01-16 12:08:12.06	299.57	19.21	-27.0	-28.5	15.7	0.00e+00	0	43	0	653262848	14	4278
2026-01-16 12:08:13.07	299.79	19.15	-27.2	-29.0	15.4	0.00e+00	0	43	0	656408576	14	4434
2026-01-16 12:08:14.06	300.00	19.10	-27.2	-28.9	15.5	0.00e+00	0	43	0	659554304	14	4391
2026-01-16 12:08:15.07	300.22	19.04	-27.3	-29.2	15.3	0.00e+00	0	43	0	662700032	14	4486
2026-01-16 12:08:16.07	300.44	18.99	-27.2	-29.0	15.5	0.00e+00	0	43	0	665845760	14	4411
2026-01-16 12:08:17.07	300.65	18.93	-27.2	-28.9	15.5	0.00e+00	0	43	0	668991488	14	4398
2026-01-16 12:08:18.08	300.87	18.88	-27.2	-29.0	15.4	0.00e+00	0	43	0	672137216	14	4429
2026-01-16 12:08:19.08	301.09	18.82	-27.0	-28.6	15.7	0.00e+00	0	43	0	675282944	14	4311
2026-01-16 12:08:20.08	301.30	18.76	-27.0	-28.4	15.7	0.00e+00	0	43	0	678428672	14	4263
2026-01-16 12:08:21.09	301.51	18.71	-27.0	-28.5	15.7	0.00e+00	0	43	0	681574400	14	4283
2026-01-16 12:08:22.09	301.73	18.65	-27.1	-28.7	15.6	0.00e+00	0	43	0	684720128	14	4342
2026-01-16 12:08:23.10	301.94	18.59	-26.9	-28.3	15.8	0.00e+00	0	43	0	687865856	14	4219
2026-01-16 12:08:24.10	302.15	18.53	-26.8	-28.0	16.0	0.00e+00	0	43	0	691011584	14	4159
2026-01-16 12:08:25.10	302.36	18.48	-26.8	-28.0	16.0	0.00e+00	0	43	0	694157312	14	4141
2026-01-16 12:08:26.10	302.57	18.42	-26.9	-28.3	15.8	4.50e-06	0	43	0	697303040	14	4215
2026-01-16 12:08:27.11	302.78	18.36	-26.8	-28.1	15.9	0.00e+00	0	43	0	700448768	14	4165
2026-01-16 12:08:28.11	302.99	18.30	-26.9	-28.3	15.8	0.00e+00	0	43	0	703594496	14	4218
2026-01-16 12:08:29.11	303.19	18.24	-26.9	-28.3	15.8	0.00e+00	0	43	0	706740224	14	4218
2026-01-16 12:08:30.11	303.40	18.18	-27.1	-28.8	15.5	0.00e+00	0	43	0	709885952	14	4370
2026-01-16 12:08:31.11	303.60	18.13	-27.2	-28.9	15.5	0.00e+00	0	43	0	713031680	14	4382
2026-01-16 12:08:32.11	303.81	18.07	-27.4	-29.3	15.2	1.50e-06	0	43	0	716177408	14	4510
2026-01-16 12:08:33.11	304.01	18.01	-27.3	-29.2	15.3	0.00e+00	0	43	0	719323136	14	4471
2026-01-16 12:08:34.11	304.21	17.95	-27.4	-29.4	15.2	0.00e+00	0	43	0	722468864	14	4546
2026-01-16 12:08:35.12	304.42	17.89	-27.3	-29.2	15.3	0.00e+00	0	43	0	725614592	14	4489
2026-01-16 12:08:36.12	304.62	17.83	-27.2	-29.0	15.4	0.00e+00	0	43	0	728760320	14	4425
2026-01-16 12:08:37.12	304.82	17.77	-27.3	-29.1	15.4	0.00e+00	0	43	0	731906048	14	4443
2026-01-16 12:08:38.12	305.02	17.71	-27.1	-28.7	15.6	0.00e+00	0	43	0	735051776	14	4336
2026-01-16 12:08:39.13	305.22	17.65	-27.1	-28.7	15.6	0.00e+00	0	43	0	738197504	14	4335
2026-01-16 12:08:40.13	305.42	17.59	-27.1	-28.8	15.5	0.00e+00	0	43	0	741343232	14	4375
2026-01-16 12:08:41.13	305.61	17.53	-27.2	-28.9	15.5	1.50e-06	0	43	0	744488960	14	4389
2026-01-16 12:08:42.14	305.81	17.46	-27.1	-28.8	15.5	0.00e+00	0	43	0	747634688	14	4360
2026-01-16 12:08:43.13	306.01	17.40	-27.2	-29.0	15.4	0.00e+00	0	43	0	750780416	14	4408
2026-01-16 12:08:44.13	306.20	17.34	-27.3	-29.2	15.3	0.00e+00	0	43	0	752877568	14	4469
2026-01-16 12:08:45.13	306.40	17.28	-27.3	-29.3	15.2	0.00e+00	0	43	0	756023296	14	4496
2026-01-16 12:08:46.13	306.59	17.22	-27.3	-29.3	15.2	0.00e+00	0	43	0	759169024	14	4507
2026-01-16 12:08:47.13	306.78	17.16	-27.7	-29.6	14.8	0.00e+00	0	43	0	762314752	15	4487
2026-01-16 12:08:48.13	306.97	17.10	-27.9	-30.1	14.5	7.00e-07	0	43	0	765460480	15	4630
2026-01-16 12:08:49.13	307.16	17.03	-27.7	-29.6	14.8	0.00e+00	0	43	0	768606208	15	4499
2026-01-16 12:08:50.13	307.35	16.97	-27.5	-29.2	15.0	0.00e+00	0	43	0	771751936	15	4373
2026-01-16 12:08:51.13	307.54	16.91	-27.4	-28.9	15.2	0.00e+00	0	43	0	774897664	15	4275
2026-01-16 12:08:52.14	307.73	16.85	-27.3	-28.7	15.3	0.00e+00	0	43	0	778043392	15	4234
2026-01-16 12:08:53.14	307.92	16.78	-27.4	-28.8	15.2	0.00e+00	0	43	0	781189120	15	4268
2026-01-16 12:08:54.15	308.11	16.72	-27.3	-28.6	15.3	0.00e+00	0	43	0	784334848	15	4206
2026-01-16 12:08:55.15	308.30	16.66	-27.3	-28.8	15.2	0.00e+00	0	43	0	787480576	15	4249
2026-01-16 12:08:56.15	308.48	16.59	-27.2	-28.5	15.4	0.00e+00	0	43	0	790626304	15	4180
2026-01-16 12:08:57.15	308.67	16.53	-27.2	-28.5	15.4	0.00e+00	0	43	0	793772032	15	4177
2026-01-16 12:08:58.15	308.85	16.47	-27.3	-28.6	15.3	0.00e+00	0	43	0	796917760	15	4207
2026-01-16 12:08:59.15	309.04	16.40	-27.4	-28.8	15.2	0.00e+00	0	43	0	800063488	15	4258
2026-01-16 12:09:00.15	309.22	16.34	-27.5	-29.2	15.0	0.00e+00	0	43	0	803209216	15	4359
2026-01-16 12:09:01.14	309.40	16.28	-27.6	-29.5	14.8	0.00e+00	0	43	0	806354944	15	4458
2026-01-16 12:09:02.15	309.58	16.21	-27.6	-29.5	14.8	7.00e-07	0	43	0	809500672	15	4452
2026-01-16 12:09:03.15	309.76	16.15	-27.7	-29.7	14.7	0.00e+00	0	43	0	812646400	15	4510
2026-01-16 12:09:04.15	309.94	16.09	-27.7	-29.7	14.7	7.00e-07	0	43	0	815792128	15	4532
2026-01-16 12:09:05.16	310.12	16.02	-27.8	-29.9	14.6	7.00e-07	0	43	0	818937856	15	4578
2026-01-16 12:09:06.16	310.30	15.96	-27.7	-29.7	14.7	0.00e+00	0	43	0	822083584	15	4532
2026-01-16 12:09:07.16	310.48	15.89	-27.8	-29.9	14.6	7.00e-07	0	43	0	825229312	15	4569
2026-01-16 12:09:08.17	310.66	15.83	-27.7	-29.6	14.8	0.00e+00	0	43	0	828375040	15	4483
2026-01-16 12:09:09.17	310.83	15.76	-27.7	-29.6	14.8	0.00e+00	0	43	0	831520768	15	4491
2026-01-16 12:09:10.18	311.01	15.70	-27.8	-29.8	14.7	0.00e+00	0	43	0	834666496	15	4538
2026-01-16 12:09:11.17	311.18	15.64	-27.6	-29.5	14.8	0.00e+00	0	43	0	837812224	15	4465
2026-01-16 12:09:12.18	311.36	15.57	-27.7	-29.7	14.6	0.00e+00	0	43	0	840957952	15	4536
2026-01-16 12:09:13.19	311.53	15.51	-27.8	-29.9	14.5	0.00e+00	0	43	0	844103680	15	4581
2026-01-16 12:09:14.19	311.70	15.44	-28.0	-30.3	14.3	0.00e+00	0	43	0	847249408	15	4693
2026-01-16 12:09:15.19	311.88	15.38	-27.8	-30.0	14.5	1.50e-06	0	43	0	850395136	15	4602
2026-01-16 12:09:16.19	312.05	15.31	-27.8	-29.8	14.6	7.00e-07	0	43	0	853540864	15	4565
2026-01-16 12:09:17.19	312.22	15.25	-27.8	-29.9	14.6	7.00e-07	0	43	0	856686592	15	4569
2026-01-16 12:09:18.19	312.39	15.18	-27.9	-30.1	14.4	0.00e+00	0	43	0	859832320	15	4628
2026-01-16 12:09:19.19	312.55	15.12	-27.8	-29.8	14.6	0.00e+00	0	43	0	862978048	15	4541
2026-01-16 12:09:20.19	312.72	15.05	-27.7	-29.6	14.7	2.20e-06	0	43	0	866123776	15	4485
2026-01-16 12:09:21.20	312.89	14.99	-27.7	-29.6	14.7	7.00e-07	0	43	0	869269504	15	4489
2026-01-16 12:09:22.20	313.06	14.92	-27.7	-29.7	14.6	7.00e-07	0	43	0	872415232	15	4515
2026-01-16 12:09:23.20	313.22	14.86	-27.9	-30.1	14.4	7.00e-07	0	43	0	875560960	15	4648
2026-01-16 12:09:24.20	313.39	14.79	-27.6	-29.4	14.8	7.00e-07	0	43	0	878706688	15	4447
2026-01-16 12:09:25.21	313.55	14.73	-27.6	-29.3	14.8	0.00e+00	0	43	0	881852416	15	4414
2026-01-16 12:09:26.20	313.72	14.66	-27.6	-29.4	14.8	7.00e-07	0	43	0	884998144	15	4431
2026-01-16 12:09:27.20	313.88	14.60	-27.6	-29.5	14.8	0.00e+00	0	43	0	888143872	15	4457
2026-01-16 12:09:28.20	314.04	14.53	-27.5	-29.3	14.9	0.00e+00	0	43	0	891289600	15	4402
2026-01-16 12:09:29.20	314.20	14.46	-27.5	-29.3	14.8	7.00e-07	0	43	0	894435328	15	4407
2026-01-16 12:09:30.21	314.37	14.40	-27.6	-29.3	14.8	7.00e-07	0	43	0	897581056	15	4408
2026-01-16 12:09:31.21	314.53	14.33	-27.5	-29.2	14.9	0.00e+00	0	43	0	900726784	15	4370
2026-01-16 12:09:32.21	314.69	14.27	-27.6	-29.3	14.8	0.00e+00	0	43	0	903872512	15	4411
2026-01-16 12:09:33.21	314.84	14.20	-27.5	-29.3	14.9	0.00e+00	0	43	0	907018240	15	4395
2026-01-16 12:09:34.21	315.00	14.14	-27.4	-28.9	15.1	0.00e+00	0	43	0	910163968	15	4277
2026-01-16 12:09:35.21	315.16	14.07	-27.5	-29.1	14.9	0.00e+00	0	43	0	913309696	15	4346
2026-01-16 12:09:36.22	315.32	14.01	-27.5	-29.1	14.9	0.00e+00	0	43	0	916455424	15	4358
2026-01-16 12:09:37.22	315.47	13.94	-27.5	-29.3	14.9	0.00e+00	0	43	0	919601152	15	4394
2026-01-16 12:09:38.22	315.63	13.87	-27.6	-29.5	14.7	0.00e+00	0	43	0	922746880	15	4455
2026-01-16 12:09:39.22	315.78	13.81	-27.9	-30.1	14.4	2.20e-06	0	43	0	925892608	15	4644
2026-01-16 12:09:40.22	315.94	13.74	-27.6	-29.4	14.8	0.00e+00	0	43	0	929038336	15	4427
2026-01-16 12:09:41.22	316.09	13.68	-27.6	-29.4	14.8	0.00e+00	0	43	0	932184064	15	4423
2026-01-16 12:09:42.22	316.25	13.61	-27.6	-29.3	14.8	0.00e+00	0	43	0	935329792	15	4417
2026-01-16 12:09:43.23	316.40	13.55	-27.6	-29.5	14.7	7.00e-07	0	43	0	938475520	15	4457
2026-01-16 12:09:44.23	316.55	13.48	-27.7	-29.5	14.6	0.00e+00	0	43	0	941621248	15	4469
2026-01-16 12:09:45.23	316.70	13.41	-27.7	-29.7	14.5	7.00e-07	0	43	0	944766976	15	4526
2026-01-16 12:09:46.23	316.85	13.35	-27.8	-29.8	14.5	0.00e+00	0	43	0	947912704	15	4547
2026-01-16 12:09:47.23	317.00	13.28	-27.9	-30.2	14.3	1.50e-06	0	43	0	951058432	15	4660
2026-01-16 12:09:48.24	317.15	13.22	-28.4	-30.7	13.8	5.30e-06	0	43	0	954204160	16	4716
2026-01-16 12:09:49.25	317.30	13.15	-28.2	-30.3	14.1	3.80e-06	0	43	0	956301312	16	4591
2026-01-16 12:09:50.25	317.45	13.09	-28.4	-30.7	13.9	1.50e-06	0	43	0	960495616	16	4696
2026-01-16 12:09:51.25	317.60	13.02	-28.1	-30.1	14.2	7.00e-07	0	43	0	963641344	16	4533
2026-01-16 12:09:52.25	317.74	12.95	-28.1	-30.0	14.3	2.20e-06	0	43	0	966787072	16	4490
2026-01-16 12:09:53.25	317.89	12.89	-28.1	-30.0	14.3	7.00e-07	0	43	0	969932800	16	4486
2026-01-16 12:09:54.25	318.03	12.82	-28.2	-30.2	14.1	7.00e-07	0	43	0	973078528	16	4552
2026-01-16 12:09:55.26	318.18	12.76	-28.2	-30.4	14.0	4.50e-06	0	43	0	976224256	16	4618
2026-01-16 12:09:56.27	318.32	12.69	-28.2	-30.4	14.0	1.50e-06	0	43	0	979369984	16	4606
2026-01-16 12:09:57.27	318.47	12.63	-28.3	-30.5	13.9	3.80e-06	0	43	0	981467136	16	4641
2026-01-16 12:09:58.27	318.61	12.56	-28.2	-30.4	14.0	3.00e-06	0	43	0	984612864	16	4613
2026-01-16 12:09:59.27	318.75	12.49	-28.1	-30.1	14.2	1.50e-06	0	43	0	987758592	16	4528
2026-01-16 12:10:00.27	318.89	12.43	-28.3	-30.4	14.0	4.50e-06	0	43	0	990904320	16	4629
2026-01-16 12:10:01.28	319.04	12.36	-28.2	-30.4	14.0	5.30e-06	0	43	0	994050048	16	4620
2026-01-16 12:10:02.27	319.17	12.30	-28.2	-30.4	14.0	3.80e-06	0	43	0	997195776	16	4603
2026-01-16 12:10:03.27	319.31	12.23	-28.4	-30.7	13.8	4.50e-06	0	43	0	1000341504	16	4705
2026-01-16 12:10:04.28	319.45	12.17	-28.4	-30.8	13.7	5.30e-06	0	43	0	1003487232	16	4725
2026-01-16 12:10:05.28	319.59	12.10	-28.4	-30.7	13.8	2.20e-06	0	43	0	1006632960	16	4718
2026-01-16 12:10:06.28	319.73	12.04	-28.5	-30.5	13.6	7.60e-06	0	43	0	1009778688	17	4527
2026-01-16 12:10:07.29	319.87	11.97	-28.4	-30.4	13.7	8.30e-06	0	43	0	1012924416	17	4517
2026-01-16 12:10:08.29	320.01	11.90	-28.4	-30.3	13.7	1.50e-06	0	43	0	1016070144	17	4469
2026-01-16 12:10:09.29	320.14	11.84	-28.5	-30.4	13.6	8.30e-06	0	43	0	1019215872	17	4520
2026-01-16 12:10:10.29	320.28	11.77	-28.3	-30.0	13.9	3.80e-06	0	43	0	1022361600	17	4404
2026-01-16 12:10:11.30	320.41	11.71	-28.3	-30.0	13.9	4.50e-06	0	43	0	1025507328	17	4387
2026-01-16 12:10:12.29	320.55	11.64	-28.3	-30.2	13.8	5.30e-06	0	43	0	1028653056	17	4434
2026-01-16 12:10:13.29	320.68	11.58	-28.3	-30.1	13.8	8.30e-06	0	43	0	1031798784	17	4431
2026-01-16 12:10:14.29	320.81	11.51	-28.2	-29.9	13.9	6.10e-06	0	43	0	1034944512	17	4372
2026-01-16 12:10:15.29	320.95	11.45	-28.2	-29.9	13.9	3.00e-06	0	43	0	1038090240	17	4359
2026-01-16 12:10:16.30	321.08	11.38	-28.3	-29.9	13.9	1.50e-06	0	43	0	1041235968	17	4360
2026-01-16 12:10:17.30	321.21	11.32	-28.1	-29.6	14.1	2.20e-06	0	43	0	1044381696	17	4279
2026-01-16 12:10:18.30	321.34	11.25	-28.2	-29.8	14.0	5.30e-06	0	43	0	1047527424	17	4322
2026-01-16 12:10:19.31	321.47	11.19	-28.3	-30.0	13.8	5.30e-06	0	43	0	1050673152	17	4400
2026-01-16 12:10:20.31	321.60	11.12	-28.3	-30.1	13.8	9.10e-06	0	43	0	1053818880	17	4413
2026-01-16 12:10:21.31	321.73	11.06	-28.4	-30.4	13.6	8.30e-06	0	43	0	1056964608	17	4513
2026-01-16 12:10:22.31	321.86	10.99	-28.4	-30.3	13.7	3.80e-06	0	43	0	1060110336	17	4465
2026-01-16 12:10:23.31	321.99	10.93	-28.5	-30.4	13.6	1.44e-05	0	43	0	1063256064	17	4517
2026-01-16 12:10:24.32	322.12	10.86	-28.4	-30.3	13.7	1.14e-05	0	43	0	1066401792	17	4494
2026-01-16 12:10:25.32	322.25	10.80	-28.6	-30.7	13.4	1.29e-05	0	43	0	1069547520	17	4608
2026-01-16 12:10:26.32	322.37	10.74	-28.6	-30.9	13.3	9.10e-06	0	43	0	1072693248	17	4666
2026-01-16 12:10:27.32	322.50	10.67	-28.6	-30.8	13.4	1.83e-05	0	43	0	1075838976	17	4620
2026-01-16 12:10:28.32	322.62	10.61	-28.5	-30.6	13.5	1.37e-05	0	43	0	1078984704	17	4562
2026-01-16 12:10:29.33	322.75	10.54	-28.6	-30.9	13.3	1.29e-05	0	43	0	1082130432	17	4659
2026-01-16 12:10:30.33	322.87	10.48	-28.6	-30.9	13.3	3.05e-05	0	43	0	1085276160	17	4659
2026-01-16 12:10:31.33	323.00	10.41	-28.4	-30.4	13.5	1.29e-05	0	43	0	1088421888	17	4511
2026-01-16 12:10:32.33	323.12	10.35	-28.5	-30.7	13.4	6.10e-06	0	43	0	1091567616	17	4603
2026-01-16 12:10:33.33	323.24	10.28	-28.7	-30.9	13.3	2.36e-05	0	43	0	1094713344	17	4683
2026-01-16 12:10:34.33	323.37	10.22	-28.6	-30.7	13.3	9.90e-06	0	43	0	1097859072	17	4618
2026-01-16 12:10:35.34	323.49	10.16	-28.7	-30.9	13.2	2.36e-05	0	43	0	1101004800	17	4685
2026-01-16 12:10:36.34	323.61	10.09	-28.5	-30.5	13.4	9.10e-06	0	43	0	1104150528	17	4553
2026-01-16 12:10:37.34	323.73	10.03	-28.6	-30.7	13.4	1.75e-05	0	43	0	1107296256	17	4607
2026-01-16 12:10:38.34	323.85	9.96	-28.6	-30.7	13.3	2.13e-05	0	43	0	1110441984	17	4622
2026-01-16 12:10:39.33	323.97	9.90	-28.6	-30.8	13.3	2.28e-05	0	43	0	1113587712	17	4640
2026-01-16 12:10:40.34	324.09	9.84	-28.7	-31.0	13.2	2.13e-05	0	43	0	1116733440	17	4714
2026-01-16 12:10:41.34	324.21	9.77	-28.7	-31.0	13.2	2.74e-05	0	43	0	1119879168	17	4702
2026-01-16 12:10:42.34	324.33	9.71	-28.8	-31.3	13.0	2.82e-05	0	43	0	1123024896	17	4799
2026-01-16 12:10:43.35	324.45	9.65	-28.8	-31.4	12.9	5.87e-05	0	43	0	1126170624	17	4831
2026-01-16 12:10:44.35	324.56	9.58	-28.7	-31.0	13.1	3.43e-05	0	43	0	1129316352	17	4716
2026-01-16 12:10:45.35	324.68	9.52	-28.7	-31.2	13.0	2.36e-05	0	43	0	1132462080	17	4770
2026-01-16 12:10:46.34	324.80	9.46	-28.7	-31.1	13.1	3.66e-05	0	43	0	1135607808	17	4752
2026-01-16 12:10:47.34	324.91	9.39	-28.6	-30.9	13.2	1.67e-05	0	43	0	1138753536	17	4683
2026-01-16 12:10:48.34	325.03	9.33	-28.6	-30.8	13.2	1.98e-05	0	43	0	1141899264	17	4652
2026-01-16 12:10:49.34	325.14	9.27	-28.7	-31.1	13.1	2.97e-05	0	43	0	1145044992	17	4744
2026-01-16 12:10:50.34	325.26	9.20	-28.7	-31.1	13.0	4.04e-05	0	43	0	1148190720	17	4751
2026-01-16 12:10:51.34	325.37	9.14	-28.7	-31.2	13.0	3.81e-05	0	43	0	1151336448	17	4781
2026-01-16 12:10:52.35	325.49	9.08	-28.7	-31.1	13.1	2.67e-05	0	43	0	1154482176	17	4730
2026-01-16 12:10:53.34	325.60	9.01	-28.8	-31.3	12.9	5.18e-05	0	43	0	1157627904	17	4810
2026-01-16 12:10:54.34	325.71	8.95	-28.8	-31.4	12.9	2.59e-05	0	43	0	1160773632	17	4846
2026-01-16 12:10:55.34	325.82	8.89	-29.0	-31.7	12.7	6.79e-05	0	43	0	1162870784	17	4945
2026-01-16 12:10:56.34	325.93	8.83	-28.9	-31.5	12.8	7.32e-05	0	43	0	1166016512	17	4860
2026-01-16 12:10:57.34	326.04	8.76	-28.9	-31.7	12.7	7.09e-05	0	43	0	1169162240	17	4929
2026-01-16 12:10:58.34	326.16	8.70	-29.0	-31.2	12.7	9.15e-05	0	43	0	1172307968	18	4676
2026-01-16 12:10:59.34	326.27	8.64	-28.9	-31.1	12.7	6.63e-05	0	43	0	1175453696	18	4628
2026-01-16 12:11:00.35	326.38	8.57	-28.8	-30.9	12.9	5.49e-05	0	43	0	1179648000	18	4560
2026-01-16 12:11:01.34	326.48	8.51	-28.9	-31.0	12.7	6.86e-05	0	43	0	1181745152	18	4618
2026-01-16 12:11:02.35	326.59	8.45	-28.9	-31.0	12.7	8.46e-05	0	43	0	1184890880	18	4614
2026-01-16 12:11:03.35	326.70	8.39	-28.9	-31.1	12.7	5.79e-05	0	43	0	1188036608	18	4651
2026-01-16 12:11:04.35	326.81	8.33	-29.1	-31.5	12.4	1.29e-04	0	43	0	1191182336	18	4766
2026-01-16 12:11:05.34	326.92	8.26	-29.0	-31.3	12.5	1.08e-04	0	43	0	1194328064	18	4718
2026-01-16 12:11:06.35	327.03	8.20	-29.0	-31.3	12.5	8.31e-05	0	43	0	1197473792	18	4697
2026-01-16 12:11:07.35	327.13	8.14	-29.0	-31.5	12.5	1.67e-04	0	43	0	1200619520	18	4765
2026-01-16 12:11:08.35	327.24	8.08	-29.0	-31.4	12.5	1.27e-04	0	43	0	1203765248	18	4743
2026-01-16 12:11:09.35	327.34	8.02	-29.0	-31.3	12.5	1.06e-04	0	43	0	1206910976	18	4704
2026-01-16 12:11:10.36	327.45	7.95	-29.0	-31.4	12.5	2.04e-04	0	43	0	1210056704	18	4732
2026-01-16 12:11:11.36	327.56	7.89	-28.9	-31.1	12.7	6.33e-05	0	43	0	1213202432	18	4632
2026-01-16 12:11:12.36	327.66	7.83	-29.0	-31.4	12.5	9.99e-05	0	43	0	1216348160	18	4728
2026-01-16 12:11:13.36	327.76	7.77	-29.0	-31.5	12.4	1.37e-04	0	43	0	1219493888	18	4766
2026-01-16 12:11:14.36	327.87	7.71	-28.9	-31.0	12.7	7.93e-05	0	43	0	1222639616	18	4617
2026-01-16 12:11:15.37	327.97	7.65	-29.1	-31.6	12.3	7.24e-05	0	43	0	1225785344	18	4795
2026-01-16 12:11:16.38	328.08	7.58	-29.1	-31.7	12.3	1.81e-04	0	43	0	1228931072	18	4838
2026-01-16 12:11:17.38	328.18	7.52	-29.1	-31.6	12.3	1.75e-04	0	43	0	1232076800	18	4810
2026-01-16 12:11:18.38	328.28	7.46	-29.2	-32.0	12.1	1.86e-04	0	43	0	1235222528	18	4934
2026-01-16 12:11:19.39	328.38	7.40	-29.3	-32.1	12.0	4.23e-04	0	43	0	1238368256	18	4967
2026-01-16 12:11:20.38	328.48	7.34	-29.3	-32.1	11.9	4.03e-04	0	43	0	1241513984	18	4981
2026-01-16 12:11:21.38	328.58	7.28	-29.1	-31.6	12.3	2.46e-04	0	43	0	1244659712	18	4827
2026-01-16 12:11:22.39	328.69	7.22	-29.1	-31.7	12.2	1.91e-04	0	43	0	1247805440	18	4832
2026-01-16 12:11:23.39	328.79	7.16	-29.2	-31.9	12.1	2.13e-04	0	43	0	1250951168	18	4914
2026-01-16 12:11:24.39	328.89	7.09	-31.0	-35.6	9.0	2.47e-04	0	43	0	1254096896	21	6122
2026-01-16 12:11:25.40	328.99	7.03	-33.5	-45.8	3.8	1.49e+00	0	43	104	1254096896	26	14864
2026-01-16 12:11:26.40	329.09	6.97	-33.8	-46.0	3.8	1.49e+00	0	43	104	1254096896	27	14601
2026-01-16 12:11:27.40	329.18	6.91	-34.0	-46.3	3.8	1.49e+00	0	43	104	1254096896	27	14889

#Closed at: 2026-01-16 12:11:28
#Recorded file [1254 MB]: D:/data/31010_260116_150442.dat