passes_logs/2026/01/16/R2M6_AANII_01/R2M6_AANII_01__20260116_075204_NOAA_20_JPSS-1_rec.log

#Pass ID: 20260116_075204_NOAA 20 (JPSS-1)
#Satellite: NOAA 20 (JPSS-1)
#Configuration: NOAA 20
#almurnet v.1.7.20240730
#Start time: 2026-01-16 07:52:04

#Version: 2.2.20231116
#Station: R2M6_AANII_01
#Location: 30.233357 lon 59.946436 lat
#TLE: 1 43013U 17073A   26015.47098083  .00000029  00000+0  34851-4 0  9997
#TLE: 2 43013  98.7636 316.4053 0001479  38.6686 321.4595 14.19536048422808

#Time	Az	El	Level	Level2	SNR	BER	BlckErr	Temp	State	Recorded	gain1	gain2
2026-01-16 07:52:04.50	83.79	7.02	-32.7	-42.7	4.0	1.47e+00	0	41	0	0	26	11437
2026-01-16 07:52:05.50	83.67	7.08	-32.1	-39.3	4.6	1.31e+00	0	41	104	0	25	8203
2026-01-16 07:52:06.50	83.56	7.14	-32.2	-39.4	6.2	2.76e-01	0	41	0	0	25	8226
2026-01-16 07:52:07.49	83.45	7.19	-32.2	-39.2	6.4	2.68e-01	0	41	0	1048576	25	8087
2026-01-16 07:52:08.49	83.33	7.25	-32.1	-38.7	6.7	2.14e-01	0	41	0	3145728	25	7744
2026-01-16 07:52:09.51	83.22	7.30	-32.1	-38.7	6.7	1.89e-01	0	41	0	5242880	25	7701
2026-01-16 07:52:10.51	83.10	7.36	-32.0	-38.5	6.9	1.86e-01	0	41	0	7340032	25	7543
2026-01-16 07:52:11.51	82.99	7.42	-32.0	-38.3	7.0	1.71e-01	0	41	0	9437184	25	7439
2026-01-16 07:52:12.51	82.87	7.47	-31.8	-37.2	7.9	1.00e-01	0	41	0	10485760	25	6725
2026-01-16 07:52:13.51	82.75	7.53	-31.6	-36.7	8.6	5.90e-02	0	41	0	12582912	24	6528
2026-01-16 07:52:14.51	82.64	7.58	-31.3	-35.7	9.5	2.18e-02	0	41	0	14680064	24	5956
2026-01-16 07:52:15.51	82.52	7.64	-31.2	-35.9	9.7	1.48e-02	0	41	0	16777216	23	6141
2026-01-16 07:52:16.51	82.40	7.70	-31.1	-35.4	10.1	9.49e-03	0	41	0	17825792	23	5884
2026-01-16 07:52:17.52	82.28	7.75	-31.0	-34.8	10.6	4.19e-03	0	41	0	19922944	23	5618
2026-01-16 07:52:18.51	82.17	7.81	-31.1	-35.3	10.3	4.06e-03	0	41	0	22020096	23	5827
2026-01-16 07:52:19.51	82.05	7.86	-31.1	-35.2	10.3	6.23e-03	0	41	0	24117248	23	5779
2026-01-16 07:52:20.51	81.93	7.92	-31.1	-35.2	10.3	4.18e-03	0	41	0	26214400	23	5795
2026-01-16 07:52:21.51	81.81	7.97	-31.0	-35.0	10.5	4.62e-03	0	41	0	27262976	23	5682
2026-01-16 07:52:22.51	81.69	8.03	-31.0	-34.9	10.5	3.98e-03	0	41	0	29360128	23	5658
2026-01-16 07:52:23.51	81.57	8.09	-31.0	-35.0	10.5	4.09e-03	0	41	0	31457280	23	5666
2026-01-16 07:52:24.51	81.44	8.14	-31.0	-34.9	10.6	4.22e-03	0	41	0	33554432	23	5629
2026-01-16 07:52:25.52	81.32	8.20	-31.2	-35.5	10.2	4.70e-03	0	41	0	35651584	23	5899
2026-01-16 07:52:26.52	81.20	8.25	-31.1	-35.2	10.4	5.53e-03	0	42	0	36700160	23	5781
2026-01-16 07:52:27.52	81.08	8.31	-31.1	-35.4	10.3	3.89e-03	0	41	0	38797312	23	5847
2026-01-16 07:52:28.52	80.95	8.37	-31.0	-35.0	10.6	4.11e-03	0	42	0	40894464	23	5654
2026-01-16 07:52:29.52	80.83	8.42	-31.1	-35.1	10.5	4.11e-03	0	42	0	42991616	23	5707
2026-01-16 07:52:30.52	80.70	8.48	-31.2	-35.3	10.3	4.44e-03	0	42	0	45088768	23	5819
2026-01-16 07:52:31.51	80.58	8.53	-31.1	-35.3	10.4	4.80e-03	0	42	0	46137344	23	5785
2026-01-16 07:52:32.51	80.46	8.59	-31.2	-35.5	10.3	5.58e-03	0	42	0	48234496	23	5887
2026-01-16 07:52:33.52	80.33	8.65	-31.1	-35.2	10.4	5.80e-03	0	42	0	50331648	23	5778
2026-01-16 07:52:34.52	80.20	8.70	-31.1	-35.1	10.6	3.80e-03	0	41	0	52428800	23	5731
2026-01-16 07:52:35.51	80.08	8.76	-31.1	-35.1	10.5	3.68e-03	0	42	0	53477376	23	5710
2026-01-16 07:52:36.52	79.95	8.81	-31.1	-35.1	10.6	3.29e-03	0	42	0	55574528	23	5687
2026-01-16 07:52:37.51	79.82	8.87	-31.0	-34.9	10.7	3.74e-03	0	42	0	57671680	23	5627
2026-01-16 07:52:38.52	79.69	8.93	-31.2	-35.3	10.5	3.80e-03	0	42	0	59768832	23	5782
2026-01-16 07:52:39.52	79.56	8.98	-31.1	-35.0	10.7	3.64e-03	0	42	0	61865984	23	5649
2026-01-16 07:52:40.53	79.43	9.04	-31.0	-34.9	10.8	2.79e-03	0	42	0	62914560	23	5584
2026-01-16 07:52:41.53	79.30	9.09	-31.0	-34.8	10.9	2.23e-03	0	42	0	65011712	23	5548
2026-01-16 07:52:42.54	79.17	9.15	-31.1	-34.9	10.7	2.45e-03	0	42	0	67108864	23	5615
2026-01-16 07:52:43.54	79.04	9.21	-31.1	-34.9	10.8	3.38e-03	0	42	0	69206016	23	5628
2026-01-16 07:52:44.54	78.91	9.26	-31.0	-34.8	10.9	2.63e-03	0	42	0	71303168	23	5546
2026-01-16 07:52:45.54	78.78	9.32	-31.0	-34.7	10.9	2.11e-03	0	42	0	72351744	23	5512
2026-01-16 07:52:46.54	78.65	9.37	-31.1	-34.9	10.8	2.30e-03	0	42	0	74448896	23	5600
2026-01-16 07:52:47.54	78.51	9.43	-31.0	-34.8	10.9	2.36e-03	0	42	0	76546048	23	5540
2026-01-16 07:52:48.54	78.38	9.48	-31.1	-35.1	10.7	2.53e-03	0	42	0	78643200	23	5697
2026-01-16 07:52:49.55	78.24	9.54	-31.1	-35.1	10.7	3.14e-03	0	42	0	80740352	23	5673
2026-01-16 07:52:50.55	78.11	9.60	-31.1	-34.9	10.9	2.45e-03	0	42	0	81788928	23	5595
2026-01-16 07:52:51.55	77.97	9.65	-31.0	-34.8	11.0	1.89e-03	0	42	0	83886080	23	5531
2026-01-16 07:52:52.55	77.84	9.71	-31.1	-34.8	10.9	2.28e-03	0	42	0	85983232	23	5568
2026-01-16 07:52:53.56	77.70	9.76	-31.0	-34.6	11.1	1.87e-03	0	42	0	88080384	23	5467
2026-01-16 07:52:54.56	77.57	9.82	-31.1	-34.8	10.9	2.32e-03	0	42	0	90177536	23	5546
2026-01-16 07:52:55.56	77.43	9.87	-31.1	-34.9	10.9	2.54e-03	0	42	0	91226112	23	5601
2026-01-16 07:52:56.56	77.29	9.93	-31.1	-34.9	10.9	2.01e-03	0	42	0	93323264	23	5587
2026-01-16 07:52:57.56	77.15	9.99	-31.1	-35.0	10.8	2.94e-03	0	42	0	95420416	23	5619
2026-01-16 07:52:58.57	77.01	10.04	-31.2	-35.4	10.5	2.15e-03	0	42	0	97517568	23	5814
2026-01-16 07:52:59.57	76.87	10.10	-31.2	-35.3	10.6	3.59e-03	0	42	0	98566144	23	5778
2026-01-16 07:53:00.58	76.73	10.15	-31.2	-35.3	10.6	3.42e-03	0	42	0	100663296	23	5742
2026-01-16 07:53:01.57	76.59	10.21	-31.2	-35.3	10.6	3.75e-03	0	42	0	102760448	23	5786
2026-01-16 07:53:02.57	76.45	10.26	-31.1	-34.9	10.9	2.43e-03	0	42	0	104857600	23	5566
2026-01-16 07:53:03.58	76.31	10.32	-31.1	-34.8	11.0	2.28e-03	0	42	0	106954752	23	5530
2026-01-16 07:53:04.57	76.17	10.37	-31.1	-34.7	11.0	1.88e-03	0	42	0	108003328	23	5495
2026-01-16 07:53:05.58	76.03	10.43	-31.0	-34.6	11.1	1.95e-03	0	42	0	110100480	23	5462
2026-01-16 07:53:06.58	75.88	10.48	-31.1	-34.7	11.1	1.49e-03	0	42	0	112197632	23	5496
2026-01-16 07:53:07.59	75.74	10.54	-31.0	-34.7	11.1	1.63e-03	0	42	0	114294784	23	5465
2026-01-16 07:53:08.58	75.60	10.59	-31.0	-34.6	11.2	1.25e-03	0	42	0	116391936	23	5444
2026-01-16 07:53:09.59	75.45	10.65	-31.1	-34.9	11.0	1.70e-03	0	42	0	117440512	23	5556
2026-01-16 07:53:10.59	75.30	10.70	-31.1	-34.9	11.0	2.07e-03	0	42	0	119537664	23	5569
2026-01-16 07:53:11.59	75.16	10.76	-31.1	-34.7	11.1	1.64e-03	0	43	0	121634816	23	5498
2026-01-16 07:53:12.59	75.01	10.81	-31.0	-34.6	11.2	1.37e-03	0	42	0	123731968	23	5425
2026-01-16 07:53:13.59	74.87	10.87	-31.2	-35.1	10.9	1.91e-03	0	43	0	124780544	23	5637
2026-01-16 07:53:14.59	74.72	10.92	-31.2	-35.0	10.9	2.65e-03	0	42	0	126877696	23	5623
2026-01-16 07:53:15.60	74.57	10.98	-31.1	-34.9	10.9	2.42e-03	0	42	0	128974848	23	5578
2026-01-16 07:53:16.60	74.42	11.03	-31.2	-35.3	10.7	2.68e-03	0	42	0	131072000	23	5749
2026-01-16 07:53:17.59	74.27	11.09	-31.2	-35.3	10.7	3.70e-03	0	42	0	133169152	23	5744
2026-01-16 07:53:18.60	74.12	11.14	-31.3	-35.4	10.7	2.87e-03	0	42	0	134217728	23	5778
2026-01-16 07:53:19.60	73.97	11.19	-31.2	-35.2	10.8	2.51e-03	0	43	0	136314880	23	5690
2026-01-16 07:53:20.60	73.82	11.25	-31.2	-35.2	10.8	2.53e-03	0	42	0	138412032	23	5683
2026-01-16 07:53:21.60	73.67	11.30	-31.3	-35.5	10.6	2.58e-03	0	42	0	140509184	23	5851
2026-01-16 07:53:22.60	73.52	11.36	-31.3	-35.4	10.6	3.86e-03	0	42	0	142606336	23	5777
2026-01-16 07:53:23.60	73.37	11.41	-31.1	-34.7	11.1	2.27e-03	0	43	0	143654912	23	5493
2026-01-16 07:53:24.60	73.21	11.46	-31.1	-34.7	11.2	1.49e-03	0	42	0	145752064	23	5462
2026-01-16 07:53:25.60	73.06	11.52	-31.0	-34.4	11.4	1.12e-03	0	43	0	147849216	23	5350
2026-01-16 07:53:26.60	72.91	11.57	-30.9	-34.2	11.6	9.17e-04	0	43	0	149946368	23	5250
2026-01-16 07:53:27.59	72.75	11.62	-30.9	-34.1	11.6	6.36e-04	0	42	0	152043520	23	5229
2026-01-16 07:53:28.59	72.60	11.68	-30.9	-34.3	11.5	8.19e-04	0	43	0	153092096	23	5299
2026-01-16 07:53:29.60	72.44	11.73	-31.0	-34.3	11.5	9.01e-04	0	43	0	155189248	23	5300
2026-01-16 07:53:30.60	72.28	11.79	-30.9	-34.3	11.5	8.77e-04	0	43	0	157286400	23	5285
2026-01-16 07:53:31.61	72.12	11.84	-30.8	-34.0	11.7	6.18e-04	0	42	0	159383552	23	5151
2026-01-16 07:53:32.61	71.97	11.89	-30.8	-34.2	11.9	4.54e-04	0	43	0	161480704	22	5354
2026-01-16 07:53:33.61	71.81	11.95	-30.7	-34.0	12.1	2.93e-04	0	43	0	162529280	22	5266
2026-01-16 07:53:34.61	71.65	12.00	-30.7	-34.0	12.2	2.57e-04	0	43	0	164626432	22	5246
2026-01-16 07:53:35.62	71.49	12.05	-30.7	-34.0	12.1	2.62e-04	0	43	0	166723584	22	5271
2026-01-16 07:53:36.62	71.33	12.10	-30.8	-34.4	11.8	3.87e-04	0	43	0	168820736	22	5443
2026-01-16 07:53:37.62	71.17	12.16	-30.7	-34.1	12.0	4.42e-04	0	43	0	169869312	22	5294
2026-01-16 07:53:38.61	71.01	12.21	-30.5	-33.5	12.5	2.19e-04	0	43	0	171966464	22	5072
2026-01-16 07:53:39.61	70.85	12.26	-30.4	-33.3	12.6	1.30e-04	0	43	0	174063616	22	4979
2026-01-16 07:53:40.61	70.69	12.31	-30.5	-33.5	12.5	1.01e-04	0	43	0	176160768	22	5055
2026-01-16 07:53:41.62	70.52	12.37	-30.4	-33.2	12.7	9.84e-05	0	43	0	178257920	22	4963
2026-01-16 07:53:42.62	70.36	12.42	-30.4	-33.1	12.7	8.62e-05	0	43	0	179306496	22	4937
2026-01-16 07:53:43.62	70.19	12.47	-30.6	-33.6	12.4	1.04e-04	0	43	0	181403648	22	5112
2026-01-16 07:53:44.62	70.03	12.52	-30.5	-33.3	12.6	1.43e-04	0	43	0	183500800	22	5000
2026-01-16 07:53:45.63	69.86	12.57	-30.4	-33.2	12.7	8.85e-05	0	43	0	185597952	22	4955
2026-01-16 07:53:46.62	69.70	12.63	-30.4	-33.2	12.7	7.40e-05	0	43	0	187695104	22	4952
2026-01-16 07:53:47.62	69.53	12.68	-30.3	-32.9	12.9	5.34e-05	0	43	0	188743680	22	4834
2026-01-16 07:53:48.63	69.36	12.73	-30.4	-33.2	12.7	7.01e-05	0	43	0	190840832	22	4954
2026-01-16 07:53:49.62	69.20	12.78	-30.5	-33.3	12.7	9.00e-05	0	43	0	192937984	22	4976
2026-01-16 07:53:50.62	69.03	12.83	-30.3	-32.9	12.9	5.79e-05	0	43	0	195035136	22	4831
2026-01-16 07:53:51.63	68.86	12.88	-30.4	-33.0	12.8	5.41e-05	0	43	0	197132288	22	4891
2026-01-16 07:53:52.62	68.69	12.93	-30.4	-33.1	12.8	7.85e-05	0	43	0	198180864	22	4896
2026-01-16 07:53:53.61	68.52	12.98	-30.4	-33.0	12.8	5.18e-05	0	43	0	200278016	22	4884
2026-01-16 07:53:54.62	68.35	13.03	-30.5	-33.5	12.5	6.94e-05	0	43	0	202375168	22	5066
2026-01-16 07:53:55.63	68.18	13.08	-30.5	-33.3	12.7	1.07e-04	0	43	0	204472320	22	4972
2026-01-16 07:53:56.62	68.01	13.13	-30.3	-32.8	13.0	4.57e-05	0	43	0	205520896	22	4806
2026-01-16 07:53:57.62	67.84	13.18	-30.3	-32.9	13.0	3.50e-05	0	43	0	207618048	22	4817
2026-01-16 07:53:58.62	67.66	13.23	-30.3	-32.8	13.0	4.42e-05	0	43	0	209715200	22	4815
2026-01-16 07:53:59.62	67.49	13.28	-30.2	-33.1	13.2	2.13e-05	0	43	0	211812352	21	5005
2026-01-16 07:54:00.63	67.32	13.33	-30.3	-33.2	13.1	1.98e-05	0	43	0	213909504	21	5055
2026-01-16 07:54:01.62	67.14	13.38	-30.2	-32.9	13.3	2.05e-05	0	43	0	214958080	21	4950
2026-01-16 07:54:02.62	66.97	13.43	-30.1	-32.7	13.4	1.29e-05	0	43	0	217055232	21	4849
2026-01-16 07:54:03.62	66.79	13.48	-30.0	-32.5	13.5	8.30e-06	0	43	0	219152384	21	4788
2026-01-16 07:54:04.63	66.61	13.53	-30.0	-32.6	13.5	1.14e-05	0	43	0	221249536	21	4818
2026-01-16 07:54:05.63	66.44	13.58	-30.2	-32.9	13.3	1.29e-05	0	43	0	223346688	21	4949
2026-01-16 07:54:06.63	66.26	13.63	-30.2	-33.1	13.2	1.60e-05	0	43	0	224395264	21	4989
2026-01-16 07:54:07.63	66.08	13.68	-30.1	-32.8	13.3	2.21e-05	0	43	0	226492416	21	4901
2026-01-16 07:54:08.63	65.90	13.72	-30.0	-32.5	13.6	4.50e-06	0	43	0	228589568	21	4786
2026-01-16 07:54:09.63	65.72	13.77	-30.1	-32.8	13.4	7.60e-06	0	43	0	230686720	21	4906
2026-01-16 07:54:10.63	65.54	13.82	-30.1	-32.8	13.4	1.83e-05	0	43	0	232783872	21	4896
2026-01-16 07:54:11.63	65.36	13.87	-30.1	-32.6	13.5	8.30e-06	0	43	0	233832448	21	4823
2026-01-16 07:54:12.63	65.18	13.91	-30.1	-32.7	13.4	1.22e-05	0	43	0	235929600	21	4845
2026-01-16 07:54:13.63	65.00	13.96	-30.1	-32.8	13.4	9.90e-06	0	43	0	238026752	21	4893
2026-01-16 07:54:14.62	64.82	14.01	-30.2	-32.9	13.3	1.22e-05	0	43	0	240123904	21	4944
2026-01-16 07:54:15.63	64.64	14.06	-30.3	-33.3	13.1	2.36e-05	0	43	0	241172480	21	5068
2026-01-16 07:54:16.62	64.45	14.10	-30.4	-33.4	13.0	4.88e-05	0	43	0	243269632	21	5125
2026-01-16 07:54:17.62	64.27	14.15	-30.4	-33.5	12.9	3.35e-05	0	43	0	245366784	21	5162
2026-01-16 07:54:18.63	64.08	14.20	-30.4	-33.4	13.0	4.65e-05	0	43	0	247463936	21	5131
2026-01-16 07:54:19.63	63.90	14.24	-30.3	-33.2	13.2	3.96e-05	0	43	0	249561088	21	5023
2026-01-16 07:54:20.63	63.71	14.29	-30.3	-33.4	13.0	2.97e-05	0	43	0	250609664	21	5101
2026-01-16 07:54:21.64	63.53	14.33	-30.4	-33.6	12.9	4.80e-05	0	43	0	252706816	21	5189
2026-01-16 07:54:22.64	63.34	14.38	-30.4	-33.5	13.0	4.80e-05	0	43	0	254803968	21	5150
2026-01-16 07:54:23.64	63.15	14.42	-30.3	-33.3	13.1	3.96e-05	0	43	0	256901120	21	5073
2026-01-16 07:54:24.65	62.96	14.47	-30.3	-33.4	13.0	2.89e-05	0	43	0	258998272	21	5099
2026-01-16 07:54:25.65	62.77	14.51	-30.3	-33.2	13.2	3.20e-05	0	43	0	260046848	21	5038
2026-01-16 07:54:26.65	62.58	14.56	-30.3	-33.2	13.2	2.44e-05	0	43	0	262144000	21	5022
2026-01-16 07:54:27.65	62.39	14.60	-30.3	-33.1	13.2	1.14e-05	0	43	0	264241152	21	4999
2026-01-16 07:54:28.65	62.20	14.65	-30.3	-33.2	13.1	2.89e-05	0	43	0	266338304	21	5043
2026-01-16 07:54:29.65	62.01	14.69	-30.3	-33.3	13.1	2.97e-05	0	43	0	268435456	21	5078
2026-01-16 07:54:30.65	61.82	14.73	-30.3	-33.3	13.1	2.74e-05	0	43	0	269484032	21	5078
2026-01-16 07:54:31.66	61.63	14.78	-30.4	-33.5	13.0	3.66e-05	0	43	0	271581184	21	5142
2026-01-16 07:54:32.65	61.44	14.82	-30.4	-33.5	13.0	3.58e-05	0	43	0	273678336	21	5131
2026-01-16 07:54:33.66	61.24	14.86	-30.4	-33.6	12.9	3.05e-05	0	43	0	275775488	21	5173
2026-01-16 07:54:34.66	61.05	14.91	-30.6	-33.9	12.7	4.95e-05	0	43	0	277872640	21	5312
2026-01-16 07:54:35.66	60.86	14.95	-30.4	-33.5	13.0	5.56e-05	0	43	0	278921216	21	5158
2026-01-16 07:54:36.67	60.66	14.99	-30.4	-33.4	13.1	3.89e-05	0	43	0	281018368	21	5100
2026-01-16 07:54:37.67	60.46	15.03	-30.4	-33.4	13.1	3.50e-05	0	43	0	283115520	21	5092
2026-01-16 07:54:38.67	60.27	15.07	-30.3	-33.2	13.2	3.43e-05	0	43	0	285212672	21	5023
2026-01-16 07:54:39.68	60.07	15.12	-30.3	-33.2	13.2	2.89e-05	0	43	0	286261248	21	5020
2026-01-16 07:54:40.68	59.87	15.16	-30.3	-33.2	13.2	2.28e-05	0	43	0	288358400	21	5022
2026-01-16 07:54:41.68	59.68	15.20	-30.4	-33.4	13.1	2.13e-05	0	43	0	290455552	21	5106
2026-01-16 07:54:42.68	59.48	15.24	-30.4	-33.5	13.0	3.58e-05	0	43	0	292552704	21	5158
2026-01-16 07:54:43.68	59.28	15.28	-30.5	-33.8	12.8	4.50e-05	0	43	0	294649856	21	5255
2026-01-16 07:54:44.68	59.08	15.32	-30.4	-33.6	12.9	7.24e-05	0	43	0	295698432	21	5174
2026-01-16 07:54:45.68	58.88	15.36	-30.1	-32.8	13.5	1.29e-05	0	43	0	297795584	21	4864
2026-01-16 07:54:46.69	58.68	15.40	-30.0	-32.3	13.8	5.30e-06	0	43	0	299892736	21	4712
2026-01-16 07:54:47.69	58.48	15.44	-29.9	-32.2	13.9	4.50e-06	0	43	0	301989888	21	4679
2026-01-16 07:54:48.69	58.28	15.47	-29.9	-32.2	13.9	4.50e-06	0	43	0	304087040	21	4683
2026-01-16 07:54:49.69	58.07	15.51	-29.9	-32.2	13.9	2.20e-06	0	43	0	305135616	21	4667
2026-01-16 07:54:50.69	57.87	15.55	-29.8	-31.9	14.1	3.00e-06	0	43	0	307232768	21	4568
2026-01-16 07:54:51.69	57.67	15.59	-29.7	-32.1	14.3	7.00e-07	0	43	0	309329920	20	4742
2026-01-16 07:54:52.69	57.47	15.63	-29.8	-32.3	14.2	7.00e-07	0	43	0	311427072	20	4797
2026-01-16 07:54:53.70	57.26	15.66	-29.8	-32.3	14.1	1.50e-06	0	43	0	312475648	20	4813
2026-01-16 07:54:54.70	57.06	15.70	-29.7	-32.1	14.3	7.00e-07	0	43	0	314572800	20	4731
2026-01-16 07:54:55.70	56.85	15.74	-29.7	-32.0	14.4	0.00e+00	0	43	0	316669952	20	4688
2026-01-16 07:54:56.71	56.64	15.77	-29.6	-31.9	14.4	0.00e+00	0	43	0	318767104	20	4663
2026-01-16 07:54:57.70	56.44	15.81	-29.6	-31.8	14.5	7.00e-07	0	43	0	320864256	20	4623
2026-01-16 07:54:58.70	56.23	15.84	-29.6	-31.7	14.5	7.00e-07	0	43	0	322961408	20	4617
2026-01-16 07:54:59.70	56.03	15.88	-29.8	-32.4	14.1	1.50e-06	0	43	0	324009984	20	4856
2026-01-16 07:55:00.70	55.82	15.92	-29.8	-32.2	14.2	1.50e-06	0	43	0	326107136	20	4769
2026-01-16 07:55:01.70	55.61	15.95	-29.7	-32.1	14.3	7.00e-07	0	43	0	328204288	20	4726
2026-01-16 07:55:02.70	55.40	15.98	-29.6	-31.9	14.5	0.00e+00	0	43	0	330301440	20	4659
2026-01-16 07:55:03.70	55.20	16.02	-29.7	-32.0	14.4	0.00e+00	0	43	0	331350016	20	4698
2026-01-16 07:55:04.69	54.99	16.05	-29.7	-32.1	14.3	0.00e+00	0	43	0	333447168	20	4727
2026-01-16 07:55:05.69	54.78	16.08	-29.7	-32.2	14.3	7.00e-07	0	43	0	335544320	20	4757
2026-01-16 07:55:06.69	54.57	16.12	-29.8	-32.2	14.2	0.00e+00	0	43	0	337641472	20	4785
2026-01-16 07:55:07.70	54.36	16.15	-29.8	-32.3	14.2	3.00e-06	0	43	0	339738624	20	4803
2026-01-16 07:55:08.70	54.14	16.18	-29.9	-32.5	14.0	3.00e-06	0	43	0	340787200	20	4890
2026-01-16 07:55:09.70	53.93	16.21	-29.8	-32.3	14.2	7.00e-07	0	43	0	342884352	20	4805
2026-01-16 07:55:10.70	53.72	16.25	-29.8	-32.3	14.2	7.00e-07	0	43	0	344981504	20	4800
2026-01-16 07:55:11.71	53.51	16.28	-29.8	-32.3	14.2	1.50e-06	0	43	0	347078656	20	4806
2026-01-16 07:55:12.71	53.29	16.31	-29.8	-32.4	14.1	7.00e-07	0	43	0	349175808	20	4827
2026-01-16 07:55:13.72	53.08	16.34	-29.8	-32.2	14.2	0.00e+00	0	43	0	350224384	20	4775
2026-01-16 07:55:14.72	52.86	16.37	-29.9	-32.6	14.0	1.50e-06	0	43	0	352321536	20	4888
2026-01-16 07:55:15.72	52.65	16.40	-29.8	-32.4	14.2	3.80e-06	0	43	0	354418688	20	4816
2026-01-16 07:55:16.72	52.44	16.43	-29.8	-32.2	14.2	1.50e-06	0	43	0	356515840	20	4767
2026-01-16 07:55:17.72	52.22	16.46	-29.8	-32.3	14.2	1.50e-06	0	43	0	357564416	20	4813
2026-01-16 07:55:18.72	52.01	16.49	-29.8	-32.3	14.2	2.20e-06	0	43	0	359661568	20	4795
2026-01-16 07:55:19.73	51.79	16.51	-29.8	-32.4	14.1	3.00e-06	0	43	0	361758720	20	4845
2026-01-16 07:55:20.73	51.57	16.54	-30.0	-32.8	13.9	4.50e-06	0	43	0	363855872	20	4987
2026-01-16 07:55:21.73	51.36	16.57	-30.0	-32.8	13.9	5.30e-06	0	43	0	365953024	20	4957
2026-01-16 07:55:22.74	51.14	16.60	-29.9	-32.7	14.0	3.00e-06	0	43	0	367001600	20	4922
2026-01-16 07:55:23.74	50.92	16.62	-30.0	-32.7	13.9	3.80e-06	0	43	0	369098752	20	4951
2026-01-16 07:55:24.74	50.70	16.65	-29.9	-32.7	14.0	5.30e-06	0	43	0	371195904	20	4932
2026-01-16 07:55:25.75	50.48	16.68	-30.1	-33.2	13.7	4.50e-06	0	43	0	373293056	20	5113
2026-01-16 07:55:26.75	50.26	16.70	-30.2	-33.3	13.6	6.80e-06	0	43	0	375390208	20	5141
2026-01-16 07:55:27.76	50.04	16.73	-30.3	-33.6	13.4	7.60e-06	0	43	0	376438784	20	5280
2026-01-16 07:55:28.76	49.82	16.75	-30.3	-33.7	13.3	2.13e-05	0	43	0	378535936	20	5291
2026-01-16 07:55:29.77	49.60	16.78	-30.5	-34.1	13.1	1.90e-05	0	43	0	380633088	20	5457
2026-01-16 07:55:30.76	49.38	16.80	-30.3	-33.7	13.3	3.89e-05	0	43	0	382730240	20	5312
2026-01-16 07:55:31.76	49.16	16.82	-30.4	-33.8	13.2	2.13e-05	0	43	0	384827392	20	5361
2026-01-16 07:55:32.77	48.94	16.85	-30.4	-33.8	13.2	1.60e-05	0	43	0	385875968	20	5355
2026-01-16 07:55:33.77	48.72	16.87	-30.5	-34.2	13.0	3.73e-05	0	43	0	387973120	20	5498
2026-01-16 07:55:34.77	48.50	16.89	-30.7	-34.1	12.7	6.86e-05	0	43	0	390070272	21	5365
2026-01-16 07:55:35.77	48.28	16.91	-30.4	-33.5	13.1	6.10e-05	0	43	0	392167424	21	5108
2026-01-16 07:55:36.77	48.05	16.93	-30.2	-32.8	13.6	1.06e-05	0	43	0	394264576	21	4875
2026-01-16 07:55:37.77	47.83	16.95	-30.1	-32.5	13.8	1.06e-05	0	43	0	395313152	21	4753
2026-01-16 07:55:38.77	47.61	16.97	-30.0	-32.4	13.8	4.50e-06	0	43	0	397410304	21	4721
2026-01-16 07:55:39.77	47.39	16.99	-30.1	-32.5	13.8	3.80e-06	0	43	0	399507456	21	4770
2026-01-16 07:55:40.78	47.16	17.01	-30.2	-32.8	13.6	9.90e-06	0	43	0	401604608	21	4856
2026-01-16 07:55:41.78	46.94	17.03	-30.3	-33.0	13.5	6.80e-06	0	43	0	402653184	21	4940
2026-01-16 07:55:42.77	46.72	17.05	-30.2	-32.8	13.6	1.29e-05	0	43	0	404750336	21	4877
2026-01-16 07:55:43.78	46.49	17.07	-30.2	-32.8	13.6	6.80e-06	0	43	0	406847488	21	4865
2026-01-16 07:55:44.78	46.27	17.09	-30.3	-33.0	13.5	9.90e-06	0	43	0	408944640	21	4937
2026-01-16 07:55:45.78	46.04	17.11	-30.3	-33.2	13.4	1.06e-05	0	43	0	411041792	21	4999
2026-01-16 07:55:46.78	45.82	17.12	-30.3	-33.2	13.3	1.37e-05	0	43	0	412090368	21	5007
2026-01-16 07:55:47.78	45.59	17.14	-30.4	-33.3	13.3	3.20e-05	0	43	0	414187520	21	5065
2026-01-16 07:55:48.78	45.37	17.16	-30.4	-33.3	13.3	2.36e-05	0	43	0	416284672	21	5047
2026-01-16 07:55:49.79	45.14	17.17	-30.4	-33.4	13.2	2.97e-05	0	43	0	418381824	21	5100
2026-01-16 07:55:50.79	44.91	17.19	-30.4	-33.5	13.1	2.36e-05	0	43	0	420478976	21	5114
2026-01-16 07:55:51.79	44.69	17.20	-30.5	-33.7	13.0	3.58e-05	0	43	0	421527552	21	5194
2026-01-16 07:55:52.79	44.46	17.22	-30.6	-33.8	12.9	4.19e-05	0	43	0	423624704	21	5259
2026-01-16 07:55:53.78	44.24	17.23	-30.6	-33.9	12.8	6.48e-05	0	43	0	425721856	21	5288
2026-01-16 07:55:54.79	44.01	17.24	-30.5	-33.8	12.9	5.03e-05	0	43	0	427819008	21	5229
2026-01-16 07:55:55.79	43.78	17.26	-30.7	-34.1	12.7	4.42e-05	0	43	0	429916160	21	5382
2026-01-16 07:55:56.79	43.55	17.27	-30.7	-34.2	12.7	1.15e-04	0	43	0	430964736	21	5396
2026-01-16 07:55:57.78	43.33	17.28	-30.8	-34.4	12.5	1.04e-04	0	43	0	433061888	21	5501
2026-01-16 07:55:58.78	43.10	17.29	-30.8	-34.4	12.5	1.22e-04	0	43	0	435159040	21	5495
2026-01-16 07:55:59.78	42.87	17.30	-30.8	-34.6	12.4	1.27e-04	0	43	0	437256192	21	5580
2026-01-16 07:56:00.79	42.64	17.31	-30.7	-34.4	12.5	1.87e-04	0	43	0	438304768	21	5478
2026-01-16 07:56:01.79	42.42	17.32	-30.5	-33.8	12.9	4.80e-05	0	43	0	440401920	21	5243
2026-01-16 07:56:02.79	42.19	17.33	-30.4	-33.5	13.1	3.43e-05	0	43	0	442499072	21	5144
2026-01-16 07:56:03.79	41.96	17.34	-30.5	-33.6	13.1	2.97e-05	0	43	0	444596224	21	5150
2026-01-16 07:56:04.79	41.73	17.35	-30.5	-33.6	13.0	4.11e-05	0	43	0	446693376	21	5172
2026-01-16 07:56:05.80	41.50	17.36	-30.5	-33.8	12.9	3.43e-05	0	43	0	447741952	21	5237
2026-01-16 07:56:06.80	41.27	17.37	-30.6	-34.1	12.7	4.42e-05	0	43	0	449839104	21	5345
2026-01-16 07:56:07.80	41.04	17.38	-30.5	-33.5	13.1	3.28e-05	0	43	0	451936256	21	5137
2026-01-16 07:56:08.81	40.81	17.38	-30.4	-33.3	13.3	2.44e-05	0	43	0	454033408	21	5044
2026-01-16 07:56:09.81	40.58	17.39	-30.3	-33.1	13.4	1.52e-05	0	43	0	456130560	21	4990
2026-01-16 07:56:10.81	40.36	17.40	-30.4	-33.5	13.1	1.90e-05	0	43	0	457179136	21	5116
2026-01-16 07:56:11.81	40.13	17.40	-30.4	-33.4	13.2	3.28e-05	0	43	0	459276288	21	5090
2026-01-16 07:56:12.80	39.90	17.41	-30.5	-33.7	13.0	3.05e-05	0	43	0	461373440	21	5210
2026-01-16 07:56:13.81	39.67	17.41	-30.5	-33.7	13.0	3.89e-05	0	43	0	463470592	21	5184
2026-01-16 07:56:14.81	39.44	17.42	-30.6	-34.0	12.8	3.35e-05	0	43	0	465567744	21	5299
2026-01-16 07:56:15.82	39.21	17.42	-30.5	-33.7	12.9	6.63e-05	0	43	0	466616320	21	5214
2026-01-16 07:56:16.81	38.98	17.42	-30.5	-33.6	13.0	3.28e-05	0	43	0	468713472	21	5183
2026-01-16 07:56:17.81	38.75	17.43	-30.5	-33.8	12.9	4.34e-05	0	43	0	470810624	21	5235
2026-01-16 07:56:18.81	38.52	17.43	-30.5	-33.6	13.0	4.34e-05	0	43	0	472907776	21	5175
2026-01-16 07:56:19.81	38.29	17.43	-30.4	-33.5	13.1	2.97e-05	0	43	0	475004928	21	5119
2026-01-16 07:56:20.81	38.06	17.43	-30.4	-33.5	13.1	2.44e-05	0	43	0	476053504	21	5122
2026-01-16 07:56:21.81	37.83	17.43	-30.5	-33.6	13.1	2.59e-05	0	43	0	478150656	21	5146
2026-01-16 07:56:22.82	37.60	17.43	-30.6	-33.9	12.9	4.34e-05	0	43	0	480247808	21	5267
2026-01-16 07:56:23.82	37.37	17.43	-30.4	-33.3	13.2	3.81e-05	0	43	0	482344960	21	5062
2026-01-16 07:56:24.82	37.14	17.43	-30.3	-33.1	13.4	1.67e-05	0	43	0	483393536	21	4990
2026-01-16 07:56:25.82	36.91	17.43	-30.2	-33.0	13.5	1.14e-05	0	43	0	485490688	21	4924
2026-01-16 07:56:26.82	36.68	17.43	-30.3	-33.2	13.3	1.44e-05	0	43	0	487587840	21	5029
2026-01-16 07:56:27.82	36.45	17.43	-30.3	-33.2	13.3	1.83e-05	0	43	0	489684992	21	5000
2026-01-16 07:56:28.82	36.22	17.43	-30.3	-33.1	13.4	1.90e-05	0	43	0	491782144	21	4993
2026-01-16 07:56:29.82	36.00	17.42	-30.3	-33.1	13.4	2.36e-05	0	43	0	492830720	21	4973
2026-01-16 07:56:30.83	35.76	17.42	-30.4	-33.3	13.2	1.83e-05	0	43	0	494927872	21	5062
2026-01-16 07:56:31.83	35.53	17.42	-30.2	-32.9	13.5	1.22e-05	0	43	0	497025024	21	4917
2026-01-16 07:56:32.83	35.31	17.41	-30.1	-32.6	13.7	5.30e-06	0	43	0	499122176	21	4783
2026-01-16 07:56:33.84	35.07	17.41	-30.1	-32.6	13.7	3.00e-06	0	43	0	501219328	21	4805
2026-01-16 07:56:34.84	34.85	17.40	-30.2	-32.9	13.5	1.22e-05	0	43	0	502267904	21	4913
2026-01-16 07:56:35.84	34.62	17.40	-30.2	-32.8	13.6	1.06e-05	0	43	0	504365056	21	4876
2026-01-16 07:56:36.84	34.39	17.39	-30.1	-32.7	13.6	5.30e-06	0	43	0	506462208	21	4828
2026-01-16 07:56:37.84	34.16	17.38	-30.1	-32.6	13.7	3.00e-06	0	43	0	508559360	21	4804
2026-01-16 07:56:38.84	33.93	17.38	-30.0	-32.3	13.9	5.30e-06	0	43	0	510656512	21	4697
2026-01-16 07:56:39.84	33.70	17.37	-30.1	-32.6	13.7	4.50e-06	0	43	0	511705088	21	4793
2026-01-16 07:56:40.84	33.47	17.36	-29.9	-32.2	14.0	5.30e-06	0	43	0	513802240	21	4648
2026-01-16 07:56:41.85	33.24	17.35	-30.0	-32.4	13.8	3.00e-06	0	43	0	515899392	21	4711
2026-01-16 07:56:42.85	33.02	17.34	-30.1	-32.7	13.6	4.50e-06	0	43	0	517996544	21	4844
2026-01-16 07:56:43.85	32.79	17.33	-30.0	-32.4	13.8	6.80e-06	0	43	0	520093696	21	4738
2026-01-16 07:56:44.85	32.56	17.32	-30.2	-32.7	13.6	4.50e-06	0	43	0	521142272	21	4843
2026-01-16 07:56:45.85	32.33	17.31	-30.0	-32.4	13.8	3.80e-06	0	43	0	523239424	21	4710
2026-01-16 07:56:46.85	32.10	17.30	-29.9	-32.1	14.0	2.20e-06	0	43	0	525336576	21	4634
2026-01-16 07:56:47.85	31.88	17.29	-29.8	-31.9	14.2	3.00e-06	0	43	0	527433728	21	4550
2026-01-16 07:56:48.84	31.65	17.28	-29.8	-31.8	14.2	2.20e-06	0	43	0	528482304	21	4534
2026-01-16 07:56:49.84	31.43	17.27	-29.8	-31.9	14.2	3.00e-06	0	43	0	530579456	21	4558
2026-01-16 07:56:50.84	31.20	17.25	-29.8	-31.8	14.2	2.20e-06	0	43	0	532676608	21	4547
2026-01-16 07:56:51.85	30.97	17.24	-29.8	-32.3	14.2	7.00e-07	0	43	0	534773760	20	4803
2026-01-16 07:56:52.84	30.75	17.23	-29.8	-32.3	14.2	7.00e-07	0	43	0	536870912	20	4798
2026-01-16 07:56:53.85	30.52	17.21	-29.9	-32.6	14.1	3.80e-06	0	43	0	537919488	20	4906
2026-01-16 07:56:54.84	30.29	17.20	-29.8	-32.2	14.3	7.00e-07	0	43	0	540016640	20	4766
2026-01-16 07:56:55.84	30.07	17.18	-29.7	-31.9	14.5	2.20e-06	0	43	0	542113792	20	4675
2026-01-16 07:56:56.84	29.84	17.17	-29.6	-31.7	14.6	0.00e+00	0	43	0	544210944	20	4610
2026-01-16 07:56:57.84	29.62	17.15	-29.6	-31.8	14.5	1.50e-06	0	43	0	545259520	20	4629
2026-01-16 07:56:58.84	29.39	17.14	-29.6	-31.7	14.6	0.00e+00	0	43	0	547356672	20	4578
2026-01-16 07:56:59.84	29.17	17.12	-29.5	-31.4	14.8	0.00e+00	0	43	0	549453824	20	4504
2026-01-16 07:57:00.84	28.94	17.10	-29.6	-31.7	14.6	7.00e-07	0	43	0	551550976	20	4607
2026-01-16 07:57:01.84	28.72	17.09	-29.6	-31.9	14.5	0.00e+00	0	43	0	553648128	20	4656
2026-01-16 07:57:02.84	28.49	17.07	-29.7	-32.1	14.4	0.00e+00	0	43	0	554696704	20	4721
2026-01-16 07:57:03.84	28.27	17.05	-29.7	-32.1	14.3	0.00e+00	0	43	0	556793856	20	4739
2026-01-16 07:57:04.84	28.05	17.03	-29.8	-32.2	14.3	1.50e-06	0	43	0	558891008	20	4758
2026-01-16 07:57:05.85	27.82	17.01	-29.7	-32.0	14.4	0.00e+00	0	43	0	560988160	20	4706
2026-01-16 07:57:06.85	27.60	16.99	-29.7	-31.9	14.4	7.00e-07	0	43	0	563085312	20	4674
2026-01-16 07:57:07.85	27.38	16.97	-29.7	-32.0	14.4	0.00e+00	0	43	0	564133888	20	4689
2026-01-16 07:57:08.85	27.16	16.95	-29.7	-32.0	14.4	0.00e+00	0	43	0	566231040	20	4707
2026-01-16 07:57:09.86	26.93	16.93	-29.8	-32.2	14.3	0.00e+00	0	43	0	568328192	20	4760
2026-01-16 07:57:10.86	26.71	16.91	-29.8	-32.3	14.2	1.50e-06	0	43	0	570425344	20	4801
2026-01-16 07:57:11.86	26.49	16.89	-29.9	-32.5	14.1	7.00e-07	0	43	0	572522496	20	4854
2026-01-16 07:57:12.87	26.27	16.86	-29.9	-32.6	14.0	3.00e-06	0	43	0	573571072	20	4910
2026-01-16 07:57:13.86	26.05	16.84	-30.0	-32.7	13.9	1.50e-06	0	43	0	575668224	20	4946
2026-01-16 07:57:14.87	25.82	16.82	-30.0	-32.7	13.9	5.30e-06	0	43	0	577765376	20	4950
2026-01-16 07:57:15.86	25.61	16.80	-30.1	-33.0	13.7	6.80e-06	0	43	0	579862528	20	5036
2026-01-16 07:57:16.86	25.39	16.77	-29.9	-32.6	13.9	2.20e-06	0	43	0	581959680	20	4916
2026-01-16 07:57:17.86	25.17	16.75	-29.9	-32.5	14.1	0.00e+00	0	43	0	583008256	20	4862
2026-01-16 07:57:18.86	24.95	16.72	-29.8	-32.4	14.1	1.50e-06	0	43	0	585105408	20	4826
2026-01-16 07:57:19.86	24.73	16.70	-29.9	-32.6	14.0	1.50e-06	0	43	0	587202560	20	4884
2026-01-16 07:57:20.86	24.51	16.67	-29.8	-32.4	14.1	0.00e+00	0	43	0	589299712	20	4830
2026-01-16 07:57:21.86	24.30	16.65	-30.0	-32.8	13.8	2.20e-06	0	43	0	590348288	20	4987
2026-01-16 07:57:22.87	24.08	16.62	-30.1	-33.1	13.6	4.50e-06	0	43	0	592445440	20	5086
2026-01-16 07:57:23.87	23.86	16.59	-30.2	-33.3	13.4	1.06e-05	0	43	0	594542592	20	5164
2026-01-16 07:57:24.87	23.64	16.57	-30.2	-33.5	13.4	1.83e-05	0	43	0	596639744	20	5227
2026-01-16 07:57:25.88	23.42	16.54	-30.3	-33.7	13.3	1.29e-05	0	43	0	598736896	20	5296
2026-01-16 07:57:26.88	23.21	16.51	-30.3	-33.6	13.4	1.90e-05	0	43	0	599785472	20	5263
2026-01-16 07:57:27.87	23.00	16.48	-30.3	-33.8	13.3	1.60e-05	0	43	0	601882624	20	5330
2026-01-16 07:57:28.88	22.78	16.45	-30.2	-33.4	13.5	9.10e-06	0	43	0	603979776	20	5193
2026-01-16 07:57:29.88	22.56	16.43	-30.2	-33.5	13.4	1.60e-05	0	43	0	606076928	20	5230
2026-01-16 07:57:30.88	22.35	16.40	-30.3	-33.5	13.3	1.67e-05	0	43	0	608174080	20	5249
2026-01-16 07:57:31.88	22.14	16.37	-30.3	-33.6	13.3	1.52e-05	0	43	0	609222656	20	5291
2026-01-16 07:57:32.88	21.92	16.34	-30.5	-34.1	13.0	2.82e-05	0	43	0	611319808	20	5469
2026-01-16 07:57:33.88	21.71	16.31	-30.5	-33.7	12.9	3.96e-05	0	43	0	613416960	21	5187
2026-01-16 07:57:34.88	21.50	16.28	-30.5	-33.6	13.0	2.82e-05	0	43	0	615514112	21	5150
2026-01-16 07:57:35.88	21.29	16.24	-30.6	-33.9	12.7	5.03e-05	0	44	0	617611264	21	5278
2026-01-16 07:57:36.88	21.07	16.21	-30.5	-33.6	12.9	6.10e-05	0	43	0	618659840	21	5167
2026-01-16 07:57:37.88	20.86	16.18	-30.5	-33.6	12.9	2.97e-05	0	43	0	620756992	21	5180
2026-01-16 07:57:38.88	20.65	16.15	-30.4	-33.5	12.8	4.80e-05	0	43	0	622854144	21	5138
2026-01-16 07:57:39.87	20.45	16.12	-30.5	-33.8	12.5	6.17e-05	0	43	0	624951296	21	5270
2026-01-16 07:57:40.87	20.24	16.08	-30.3	-33.2	12.9	6.17e-05	0	43	0	625999872	21	5020
2026-01-16 07:57:41.88	20.02	16.05	-30.1	-32.6	13.3	3.35e-05	0	43	0	628097024	21	4810
2026-01-16 07:57:42.88	19.82	16.02	-30.0	-32.4	13.4	1.90e-05	0	43	0	630194176	21	4736
2026-01-16 07:57:43.88	19.61	15.98	-30.0	-32.3	13.4	1.14e-05	0	43	0	632291328	21	4720
2026-01-16 07:57:44.87	19.40	15.95	-30.0	-32.5	13.5	1.37e-05	0	43	0	634388480	21	4758
2026-01-16 07:57:45.87	19.20	15.91	-30.1	-32.7	13.4	1.37e-05	0	43	0	635437056	21	4858
2026-01-16 07:57:46.88	18.99	15.88	-30.1	-32.7	13.4	1.67e-05	0	43	0	637534208	21	4839
2026-01-16 07:57:47.88	18.78	15.84	-30.2	-32.9	13.2	1.29e-05	0	43	0	639631360	21	4893
2026-01-16 07:57:48.88	18.57	15.81	-30.3	-33.2	12.8	5.03e-05	0	43	0	641728512	21	5035
2026-01-16 07:57:49.88	18.37	15.77	-30.3	-33.2	12.8	7.17e-05	0	43	0	643825664	21	5021
2026-01-16 07:57:50.88	18.16	15.74	-30.4	-33.7	12.5	5.56e-05	0	43	0	644874240	21	5212
2026-01-16 07:57:51.88	17.96	15.70	-30.4	-33.5	12.6	1.02e-04	0	43	0	646971392	21	5150
2026-01-16 07:57:52.87	17.76	15.66	-30.5	-33.6	12.6	6.56e-05	0	43	0	649068544	21	5200
2026-01-16 07:57:53.87	17.56	15.63	-30.4	-33.6	12.8	7.93e-05	0	43	0	651165696	21	5178
2026-01-16 07:57:54.87	17.35	15.59	-30.3	-33.2	13.1	3.81e-05	0	43	0	652214272	21	5038
2026-01-16 07:57:55.88	17.15	15.55	-30.3	-33.3	13.1	3.35e-05	0	43	0	654311424	21	5064
2026-01-16 07:57:56.88	16.95	15.51	-30.3	-33.1	13.2	2.89e-05	0	43	0	656408576	21	4987
2026-01-16 07:57:57.89	16.74	15.47	-30.3	-33.1	13.3	1.29e-05	0	43	0	658505728	21	4984
2026-01-16 07:57:58.90	16.54	15.44	-30.3	-33.2	13.1	2.28e-05	0	43	0	660602880	21	5038
2026-01-16 07:57:59.90	16.34	15.40	-30.2	-32.8	13.4	1.60e-05	0	43	0	661651456	21	4881
2026-01-16 07:58:00.90	16.14	15.36	-30.1	-32.7	13.4	1.60e-05	0	43	0	663748608	21	4837
2026-01-16 07:58:01.91	15.94	15.32	-30.3	-33.0	13.3	1.14e-05	0	43	0	665845760	21	4968
2026-01-16 07:58:02.91	15.74	15.28	-30.3	-33.1	13.3	2.21e-05	0	43	0	667942912	21	5004
2026-01-16 07:58:03.91	15.55	15.24	-30.4	-33.5	13.0	2.36e-05	0	43	0	670040064	21	5126
2026-01-16 07:58:04.91	15.35	15.20	-30.3	-33.3	13.1	3.28e-05	0	43	0	671088640	21	5055
2026-01-16 07:58:05.91	15.15	15.16	-30.4	-33.6	12.8	3.66e-05	0	43	0	673185792	21	5185
2026-01-16 07:58:06.92	14.95	15.11	-30.4	-33.6	12.9	5.64e-05	0	43	0	675282944	21	5171
2026-01-16 07:58:07.92	14.76	15.07	-30.2	-33.1	13.2	2.44e-05	0	43	0	677380096	21	4974
2026-01-16 07:58:08.92	14.56	15.03	-30.2	-32.9	13.3	1.83e-05	0	43	0	679477248	21	4927
2026-01-16 07:58:09.92	14.37	14.99	-30.3	-33.2	13.2	1.83e-05	0	43	0	680525824	21	5025
2026-01-16 07:58:10.93	14.17	14.95	-30.2	-32.9	13.3	2.59e-05	0	43	0	682622976	21	4933
2026-01-16 07:58:11.92	13.98	14.91	-30.1	-32.8	13.4	1.22e-05	0	43	0	684720128	21	4876
2026-01-16 07:58:12.93	13.79	14.86	-30.2	-32.9	13.2	2.13e-05	0	43	0	686817280	21	4927
2026-01-16 07:58:13.93	13.59	14.82	-30.3	-33.3	13.0	2.89e-05	0	43	0	688914432	21	5073
2026-01-16 07:58:14.94	13.40	14.78	-30.4	-33.4	12.9	4.04e-05	0	43	0	689963008	21	5117
2026-01-16 07:58:15.94	13.21	14.73	-30.4	-33.5	12.9	3.81e-05	0	43	0	692060160	21	5135
2026-01-16 07:58:16.93	13.02	14.69	-30.4	-33.5	12.9	4.57e-05	0	43	0	694157312	21	5149
2026-01-16 07:58:17.93	12.83	14.65	-30.4	-33.6	12.9	5.64e-05	0	43	0	696254464	21	5170
2026-01-16 07:58:18.93	12.64	14.60	-30.4	-33.4	13.0	2.97e-05	0	43	0	698351616	21	5098
2026-01-16 07:58:19.93	12.45	14.56	-30.4	-33.4	13.0	2.97e-05	0	43	0	699400192	21	5120
2026-01-16 07:58:20.93	12.26	14.52	-30.4	-33.6	12.9	4.80e-05	0	43	0	701497344	21	5171
2026-01-16 07:58:21.94	12.07	14.47	-30.6	-34.0	12.6	6.56e-05	0	43	0	703594496	21	5341
2026-01-16 07:58:22.94	11.89	14.43	-30.5	-33.7	12.8	8.16e-05	0	43	0	705691648	21	5219
2026-01-16 07:58:23.95	11.70	14.38	-30.4	-33.6	12.8	6.40e-05	0	43	0	706740224	21	5204
2026-01-16 07:58:24.95	11.51	14.33	-30.4	-33.6	12.9	8.54e-05	0	43	0	708837376	21	5171
2026-01-16 07:58:25.95	11.33	14.29	-30.5	-33.7	12.8	6.63e-05	0	43	0	710934528	21	5230
2026-01-16 07:58:26.95	11.14	14.24	-30.6	-34.1	12.4	9.84e-05	0	43	0	713031680	21	5393
2026-01-16 07:58:27.95	10.96	14.20	-30.5	-33.9	12.7	1.11e-04	0	43	0	715128832	21	5283
2026-01-16 07:58:28.95	10.77	14.15	-30.7	-34.5	12.3	1.34e-04	0	43	0	716177408	21	5536
2026-01-16 07:58:29.96	10.59	14.10	-30.6	-34.2	12.4	1.36e-04	0	43	0	718274560	21	5420
2026-01-16 07:58:30.96	10.40	14.06	-30.7	-34.5	12.3	1.41e-04	0	43	0	720371712	21	5535
2026-01-16 07:58:31.96	10.22	14.01	-30.8	-34.7	12.0	2.85e-04	0	43	0	722468864	21	5660
2026-01-16 07:58:32.96	10.04	13.96	-30.8	-34.8	11.9	3.01e-04	0	43	0	724566016	21	5707
2026-01-16 07:58:33.96	9.86	13.92	-30.9	-35.0	11.9	3.23e-04	0	43	0	725614592	21	5766
2026-01-16 07:58:34.97	9.68	13.87	-30.9	-35.1	11.8	4.58e-04	0	43	0	727711744	21	5818
2026-01-16 07:58:35.97	9.50	13.82	-31.0	-35.2	11.7	5.35e-04	0	43	0	729808896	21	5880
2026-01-16 07:58:36.97	9.32	13.77	-31.0	-35.2	11.7	5.43e-04	0	43	0	731906048	21	5862
2026-01-16 07:58:37.97	9.14	13.73	-31.0	-34.9	11.6	4.96e-04	0	43	0	734003200	22	5624
2026-01-16 07:58:38.97	8.96	13.68	-30.9	-34.6	11.8	4.76e-04	0	43	0	735051776	22	5512
2026-01-16 07:58:39.96	8.79	13.63	-30.9	-34.6	11.8	4.82e-04	0	43	0	737148928	22	5477
2026-01-16 07:58:40.96	8.61	13.58	-31.0	-34.8	11.6	5.48e-04	0	43	0	739246080	22	5577
2026-01-16 07:58:41.96	8.44	13.53	-30.8	-34.2	12.0	5.04e-04	0	43	0	741343232	22	5330
2026-01-16 07:58:42.96	8.26	13.48	-30.7	-34.0	12.2	2.36e-04	0	43	0	743440384	22	5231
2026-01-16 07:58:43.96	8.09	13.44	-30.9	-34.4	11.9	2.97e-04	0	43	0	744488960	22	5391
2026-01-16 07:58:44.96	7.91	13.39	-30.9	-34.5	11.8	3.17e-04	0	43	0	746586112	22	5463
2026-01-16 07:58:45.96	7.74	13.34	-31.0	-34.9	11.6	6.48e-04	0	43	0	748683264	22	5614
2026-01-16 07:58:46.96	7.56	13.29	-31.1	-35.1	11.4	8.51e-04	0	43	0	750780416	22	5717
2026-01-16 07:58:47.96	7.39	13.24	-31.2	-35.3	11.2	1.13e-03	0	43	0	751828992	22	5820
2026-01-16 07:58:48.97	7.22	13.19	-31.2	-35.4	11.2	1.45e-03	0	43	0	753926144	22	5841
2026-01-16 07:58:49.96	7.05	13.14	-31.2	-35.3	11.2	1.38e-03	0	43	0	756023296	22	5833
2026-01-16 07:58:50.97	6.88	13.09	-31.1	-35.3	11.2	1.20e-03	0	43	0	758120448	22	5820
2026-01-16 07:58:51.97	6.71	13.04	-31.2	-35.4	11.2	1.24e-03	0	43	0	760217600	22	5836
2026-01-16 07:58:52.98	6.53	12.99	-31.3	-35.7	10.9	1.92e-03	0	43	0	761266176	22	6005
2026-01-16 07:58:53.97	6.37	12.94	-31.2	-35.6	11.0	1.86e-03	0	43	0	763363328	22	5932
2026-01-16 07:58:54.98	6.20	12.89	-31.2	-35.5	11.1	1.77e-03	0	43	0	765460480	22	5903
2026-01-16 07:58:55.98	6.03	12.84	-31.3	-35.9	10.7	2.05e-03	0	43	0	767557632	22	6103
2026-01-16 07:58:56.98	5.86	12.78	-31.3	-35.9	10.7	2.59e-03	0	43	0	769654784	22	6113
2026-01-16 07:58:57.97	5.70	12.73	-31.3	-35.7	10.9	2.52e-03	0	43	0	770703360	22	6005
2026-01-16 07:58:58.97	5.53	12.68	-31.4	-36.3	10.5	3.45e-03	0	43	0	772800512	22	6310
2026-01-16 07:58:59.97	5.36	12.63	-31.4	-36.1	10.6	3.60e-03	0	43	0	774897664	22	6193
2026-01-16 07:59:00.98	5.20	12.58	-31.4	-36.3	10.5	4.04e-03	0	43	0	776994816	22	6303
2026-01-16 07:59:01.98	5.03	12.53	-31.3	-35.8	10.8	3.85e-03	0	43	0	778043392	22	6078
2026-01-16 07:59:02.99	4.87	12.48	-31.2	-35.6	11.0	2.02e-03	0	43	0	780140544	22	5943
2026-01-16 07:59:04.00	4.70	12.42	-31.1	-35.1	11.3	1.50e-03	0	43	0	782237696	22	5742
2026-01-16 07:59:04.99	4.54	12.37	-31.1	-35.2	11.2	1.26e-03	0	43	0	784334848	22	5778
2026-01-16 07:59:06.00	4.38	12.32	-31.1	-35.3	11.1	1.67e-03	0	43	0	786432000	22	5829
2026-01-16 07:59:07.00	4.22	12.27	-31.1	-35.1	11.3	1.29e-03	0	44	0	788529152	22	5752
2026-01-16 07:59:08.00	4.06	12.21	-31.0	-35.0	11.3	1.23e-03	0	43	0	789577728	22	5703
2026-01-16 07:59:09.00	3.90	12.16	-31.1	-35.3	11.2	1.15e-03	0	43	0	791674880	22	5811
2026-01-16 07:59:10.00	3.74	12.11	-31.1	-35.3	11.2	1.64e-03	0	43	0	793772032	22	5833
2026-01-16 07:59:11.00	3.58	12.06	-31.2	-35.5	10.9	1.95e-03	0	43	0	795869184	22	5937
2026-01-16 07:59:12.00	3.42	12.00	-31.2	-35.5	11.0	1.83e-03	0	43	0	796917760	22	5906
2026-01-16 07:59:13.00	3.26	11.95	-31.2	-35.6	10.9	1.82e-03	0	43	0	799014912	22	5980
2026-01-16 07:59:14.00	3.10	11.90	-31.1	-35.4	11.1	1.63e-03	0	43	0	801112064	22	5874
2026-01-16 07:59:15.00	2.95	11.85	-31.1	-35.4	11.0	1.87e-03	0	43	0	803209216	22	5897
2026-01-16 07:59:16.01	2.79	11.79	-31.1	-35.4	11.0	1.79e-03	0	43	0	805306368	22	5863
2026-01-16 07:59:17.00	2.64	11.74	-31.2	-35.6	10.9	1.95e-03	0	43	0	806354944	22	5959
2026-01-16 07:59:18.01	2.48	11.69	-31.0	-34.9	11.4	1.56e-03	0	44	0	808452096	22	5649
2026-01-16 07:59:19.01	2.33	11.63	-30.9	-34.6	11.6	8.41e-04	0	43	0	810549248	22	5502
2026-01-16 07:59:20.01	2.17	11.58	-30.8	-34.3	11.8	4.60e-04	0	43	0	812646400	22	5395
2026-01-16 07:59:21.02	2.02	11.53	-30.8	-34.3	11.8	4.18e-04	0	43	0	814743552	22	5413
2026-01-16 07:59:22.02	1.86	11.47	-30.8	-34.3	11.8	7.14e-04	0	43	0	815792128	22	5406
2026-01-16 07:59:23.02	1.71	11.42	-30.8	-34.2	11.9	4.38e-04	0	43	0	817889280	22	5355
2026-01-16 07:59:24.02	1.56	11.36	-30.8	-34.4	11.8	4.68e-04	0	43	0	819986432	22	5418
2026-01-16 07:59:25.02	1.41	11.31	-30.8	-34.4	11.7	5.67e-04	0	43	0	822083584	22	5459
2026-01-16 07:59:26.03	1.26	11.26	-30.7	-34.0	12.0	4.58e-04	0	43	0	823132160	22	5263
2026-01-16 07:59:27.04	1.11	11.20	-30.7	-33.9	12.1	2.97e-04	0	43	0	825229312	22	5244
2026-01-16 07:59:28.04	0.96	11.15	-30.7	-34.0	12.0	3.20e-04	0	43	0	827326464	22	5291
2026-01-16 07:59:29.05	0.81	11.09	-30.6	-33.9	12.1	3.67e-04	0	43	0	829423616	22	5240
2026-01-16 07:59:30.05	0.66	11.04	-30.8	-34.3	11.8	3.76e-04	0	43	0	831520768	22	5413
2026-01-16 07:59:31.05	0.51	10.98	-30.7	-34.1	11.9	4.04e-04	0	43	0	832569344	22	5337
2026-01-16 07:59:32.05	0.36	10.93	-30.7	-34.1	11.9	3.50e-04	0	43	0	834666496	22	5305
2026-01-16 07:59:33.05	0.22	10.88	-30.7	-33.9	12.0	4.50e-04	0	44	0	836763648	22	5256
2026-01-16 07:59:34.05	0.07	10.82	-30.7	-34.2	11.8	5.45e-04	0	43	0	838860800	22	5376
2026-01-16 07:59:35.04	359.93	10.77	-30.8	-34.3	11.7	5.11e-04	0	43	0	840957952	22	5416
2026-01-16 07:59:36.05	359.78	10.71	-30.7	-34.1	11.9	2.97e-04	0	43	0	842006528	22	5313
2026-01-16 07:59:37.05	359.64	10.66	-30.8	-34.3	11.7	4.71e-04	0	44	0	844103680	22	5412
2026-01-16 07:59:38.06	359.49	10.60	-30.6	-33.8	12.1	4.30e-04	0	43	0	846200832	22	5185
2026-01-16 07:59:39.06	359.35	10.55	-30.7	-34.0	11.9	3.33e-04	0	43	0	848297984	22	5301
2026-01-16 07:59:40.06	359.21	10.49	-30.8	-34.4	11.6	4.26e-04	0	43	0	850395136	22	5459
2026-01-16 07:59:41.06	359.06	10.44	-30.6	-33.9	12.0	5.04e-04	0	43	0	851443712	22	5248
2026-01-16 07:59:42.07	358.92	10.38	-30.8	-34.6	11.5	5.55e-04	0	43	0	853540864	22	5533
2026-01-16 07:59:43.08	358.78	10.33	-30.6	-33.8	12.1	3.55e-04	0	43	0	855638016	22	5192
2026-01-16 07:59:44.08	358.64	10.27	-30.5	-33.7	12.1	2.27e-04	0	43	0	857735168	22	5153
2026-01-16 07:59:45.07	358.50	10.22	-30.4	-33.2	12.4	1.85e-04	0	43	0	859832320	22	4983
2026-01-16 07:59:46.08	358.36	10.16	-30.4	-33.2	12.5	1.21e-04	0	43	0	860880896	22	4962
2026-01-16 07:59:47.07	358.22	10.11	-30.4	-33.3	12.4	1.29e-04	0	43	0	862978048	22	5009
2026-01-16 07:59:48.07	358.08	10.05	-30.5	-33.4	12.3	1.40e-04	0	44	0	865075200	22	5045
2026-01-16 07:59:49.08	357.94	10.00	-30.5	-33.7	12.1	1.88e-04	0	43	0	867172352	22	5166
2026-01-16 07:59:50.08	357.81	9.94	-30.2	-33.1	12.7	1.33e-04	0	44	0	868220928	21	5054
2026-01-16 07:59:51.08	357.67	9.89	-30.1	-33.0	12.8	4.95e-05	0	43	0	870318080	21	5011
2026-01-16 07:59:52.08	357.53	9.83	-30.3	-33.4	12.5	7.93e-05	0	43	0	872415232	21	5160
2026-01-16 07:59:53.09	357.40	9.77	-30.2	-33.3	12.6	4.95e-05	0	43	0	874512384	21	5105
2026-01-16 07:59:54.09	357.26	9.72	-30.1	-32.8	13.0	6.40e-05	0	43	0	876609536	21	4938
2026-01-16 07:59:55.10	357.13	9.66	-29.9	-32.5	13.2	2.97e-05	0	43	0	877658112	21	4819
2026-01-16 07:59:56.09	356.99	9.61	-29.9	-32.3	13.3	2.44e-05	0	43	0	879755264	21	4762
2026-01-16 07:59:57.09	356.86	9.55	-29.9	-32.5	13.1	2.74e-05	0	43	0	881852416	21	4825
2026-01-16 07:59:58.09	356.73	9.50	-30.0	-32.6	13.1	3.05e-05	0	44	0	883949568	21	4879
2026-01-16 07:59:59.09	356.60	9.44	-30.1	-33.0	12.8	4.80e-05	0	43	0	886046720	21	4995
2026-01-16 08:00:00.09	356.46	9.39	-30.1	-33.0	12.8	4.04e-05	0	43	0	887095296	21	5013
2026-01-16 08:00:01.09	356.33	9.33	-30.0	-32.7	13.0	4.34e-05	0	43	0	889192448	21	4893
2026-01-16 08:00:02.09	356.20	9.27	-30.2	-33.2	12.7	6.63e-05	0	43	0	891289600	21	5072
2026-01-16 08:00:03.09	356.07	9.22	-30.0	-32.8	12.9	5.64e-05	0	43	0	893386752	21	4947
2026-01-16 08:00:04.10	355.94	9.16	-30.3	-33.4	12.5	4.19e-05	0	43	0	895483904	21	5174
2026-01-16 08:00:05.10	355.81	9.11	-30.0	-32.7	13.0	4.42e-05	0	43	0	896532480	21	4906
2026-01-16 08:00:06.10	355.68	9.05	-30.1	-33.0	12.8	2.82e-05	0	43	0	898629632	21	5027
2026-01-16 08:00:07.11	355.55	9.00	-30.1	-33.1	12.7	1.01e-04	0	43	0	900726784	21	5071
2026-01-16 08:00:08.11	355.42	8.94	-30.0	-32.7	12.9	4.34e-05	0	43	0	902823936	21	4920
2026-01-16 08:00:09.11	355.30	8.88	-30.0	-32.8	12.9	4.73e-05	0	43	0	904921088	21	4950
2026-01-16 08:00:10.11	355.17	8.83	-30.2	-33.3	12.6	6.86e-05	0	43	0	905969664	21	5122
2026-01-16 08:00:11.11	355.04	8.77	-30.2	-33.2	12.6	1.18e-04	0	44	0	908066816	21	5112
2026-01-16 08:00:12.11	354.92	8.72	-30.2	-33.3	12.5	1.14e-04	0	43	0	910163968	21	5145
2026-01-16 08:00:13.11	354.79	8.66	-30.4	-33.7	12.2	1.83e-04	0	44	0	912261120	21	5315
2026-01-16 08:00:14.12	354.67	8.61	-30.4	-33.9	12.1	2.09e-04	0	43	0	913309696	21	5363
2026-01-16 08:00:15.12	354.54	8.55	-30.4	-34.0	12.0	2.59e-04	0	43	0	915406848	21	5444
2026-01-16 08:00:16.12	354.42	8.49	-30.4	-34.0	12.0	2.62e-04	0	43	0	917504000	21	5434
2026-01-16 08:00:17.13	354.29	8.44	-30.5	-34.3	11.8	3.32e-04	0	43	0	919601152	21	5537
2026-01-16 08:00:18.13	354.17	8.38	-30.5	-34.1	11.9	4.60e-04	0	43	0	921698304	21	5470
2026-01-16 08:00:19.13	354.05	8.33	-30.5	-34.2	11.9	3.08e-04	0	44	0	922746880	21	5506
2026-01-16 08:00:20.13	353.93	8.27	-30.5	-34.3	11.7	5.52e-04	0	43	0	924844032	21	5578
2026-01-16 08:00:21.13	353.80	8.21	-30.5	-34.1	11.9	3.52e-04	0	43	0	926941184	21	5492
2026-01-16 08:00:22.13	353.68	8.16	-30.5	-34.3	11.7	6.82e-04	0	43	0	929038336	21	5559
2026-01-16 08:00:23.13	353.56	8.10	-30.3	-33.5	12.3	2.82e-04	0	43	0	931135488	21	5242
2026-01-16 08:00:24.12	353.44	8.05	-30.3	-33.6	12.3	2.41e-04	0	43	0	932184064	21	5274
2026-01-16 08:00:25.12	353.32	7.99	-30.3	-33.8	12.1	2.33e-04	0	43	0	934281216	21	5347
2026-01-16 08:00:26.13	353.20	7.94	-30.5	-34.3	11.7	3.87e-04	0	43	0	936378368	21	5557
2026-01-16 08:00:27.13	353.08	7.88	-30.2	-33.2	12.5	3.32e-04	0	43	0	938475520	21	5131
2026-01-16 08:00:28.14	352.97	7.82	-30.3	-33.7	12.2	1.17e-04	0	43	0	940572672	21	5327
2026-01-16 08:00:29.14	352.85	7.77	-30.3	-33.7	12.1	3.17e-04	0	43	0	941621248	21	5345
2026-01-16 08:00:30.15	352.73	7.71	-30.3	-33.8	12.0	2.23e-04	0	44	0	943718400	21	5376
2026-01-16 08:00:31.15	352.61	7.66	-30.4	-33.9	12.0	4.12e-04	0	43	0	945815552	21	5387
2026-01-16 08:00:32.15	352.50	7.60	-30.3	-33.8	12.1	3.00e-04	0	44	0	947912704	21	5342
2026-01-16 08:00:33.16	352.38	7.54	-30.5	-34.5	11.6	4.78e-04	0	43	0	950009856	21	5656
2026-01-16 08:00:34.15	352.26	7.49	-30.6	-34.6	11.4	7.90e-04	0	43	0	951058432	21	5715
2026-01-16 08:00:35.15	352.15	7.43	-30.6	-34.6	11.4	1.06e-03	0	43	0	953155584	21	5716
2026-01-16 08:00:36.16	352.03	7.38	-30.5	-34.4	11.5	8.01e-04	0	43	0	955252736	21	5630
2026-01-16 08:00:37.16	351.92	7.32	-30.4	-34.2	11.7	5.15e-04	0	43	0	957349888	21	5528
2026-01-16 08:00:38.16	351.81	7.27	-30.4	-34.0	11.8	6.10e-04	0	43	0	959447040	21	5440
2026-01-16 08:00:39.17	351.69	7.21	-30.6	-34.8	11.3	7.13e-04	0	43	0	960495616	21	5809
2026-01-16 08:00:40.17	351.58	7.15	-30.4	-34.2	11.6	1.03e-03	0	43	0	962592768	21	5531
2026-01-16 08:00:41.17	351.47	7.10	-30.5	-34.5	11.5	6.01e-04	0	43	0	964689920	21	5670
2026-01-16 08:00:42.18	351.35	7.04	-33.3	-47.7	3.8	1.49e+00	0	43	104	964689920	26	18838
2026-01-16 08:00:43.18	351.24	6.99	-33.6	-47.7	3.8	1.49e+00	0	43	104	964689920	27	18285
2026-01-16 08:00:44.18	351.13	6.93	-33.8	-48.1	3.8	1.49e+00	0	43	104	964689920	27	18731

#Closed at: 2026-01-16 08:00:44
#Recorded file [964 MB]: D:/data/31010_260116_105206.dat