passes_logs/2026/01/16/R2M6_AANII_01/R2M6_AANII_01__20260116_101924_NOAA_21_JPSS-2_rec.log

#Pass ID: 20260116_101924_NOAA 21 (JPSS-2)
#Satellite: NOAA 21 (JPSS-2)
#Configuration: NOAA 21
#almurnet v.1.7.20240730
#Start time: 2026-01-16 10:19:28

#Version: 2.2.20231116
#Station: R2M6_AANII_01
#Location: 30.233357 lon 59.946436 lat
#TLE: 1 54234U 22150A   26015.43562254  .00000028  00000+0  34201-4 0  9996
#TLE: 2 54234  98.7498 316.3301 0000635 288.4972  71.6135 14.19534768164873

#Time	Az	El	Level	Level2	SNR	BER	BlckErr	Temp	State	Recorded	gain1	gain2
2026-01-16 10:19:28.48	160.30	7.31	-33.9	-45.3	3.8	8.46e-01	0	43	0	0	27	13435
2026-01-16 10:19:29.48	160.30	7.39	-34.2	-45.8	3.8	1.49e+00	0	43	104	0	29	13654
2026-01-16 10:19:30.47	160.31	7.47	-34.2	-45.8	3.8	1.49e+00	0	43	104	0	29	13607
2026-01-16 10:19:31.47	160.31	7.55	-34.2	-45.8	3.8	1.49e+00	0	43	104	0	29	13643
2026-01-16 10:19:32.47	160.32	7.63	-34.2	-45.8	3.8	1.49e+00	0	43	104	0	29	13625
2026-01-16 10:19:33.47	160.32	7.71	-34.2	-45.8	3.8	1.49e+00	0	43	104	0	29	13613
2026-01-16 10:19:34.48	160.33	7.79	-34.2	-45.8	3.8	1.49e+00	0	43	104	0	29	13601
2026-01-16 10:19:35.48	160.33	7.87	-34.2	-45.8	3.8	1.49e+00	0	43	104	0	29	13620
2026-01-16 10:19:36.48	160.34	7.95	-34.2	-45.7	3.8	1.49e+00	0	43	104	0	29	13597
2026-01-16 10:19:37.49	160.34	8.03	-34.2	-45.7	3.8	1.49e+00	0	43	104	0	29	13531
2026-01-16 10:19:38.49	160.35	8.11	-34.2	-45.7	3.8	1.49e+00	0	43	104	0	29	13510
2026-01-16 10:19:39.49	160.35	8.19	-34.2	-45.7	3.8	1.49e+00	0	43	104	0	29	13505
2026-01-16 10:19:40.49	160.36	8.27	-34.2	-45.6	3.8	1.49e+00	0	43	104	0	29	13521
2026-01-16 10:19:41.49	160.36	8.36	-34.1	-45.7	3.8	1.49e+00	0	43	104	0	29	13545
2026-01-16 10:19:42.49	160.37	8.44	-34.2	-45.7	3.8	1.49e+00	0	43	104	0	29	13536
2026-01-16 10:19:43.49	160.37	8.52	-34.1	-45.6	3.8	1.49e+00	0	43	104	0	29	13480
2026-01-16 10:19:44.50	160.38	8.60	-34.1	-45.6	3.8	1.49e+00	0	43	104	0	29	13491
2026-01-16 10:19:45.50	160.38	8.69	-34.2	-45.7	3.8	1.49e+00	0	43	104	0	29	13523
2026-01-16 10:19:46.50	160.39	8.77	-34.1	-45.6	3.8	1.49e+00	0	43	104	0	29	13472
2026-01-16 10:19:47.49	160.39	8.85	-34.1	-45.6	3.8	1.49e+00	0	43	104	0	29	13516
2026-01-16 10:19:48.50	160.40	8.93	-34.1	-45.6	3.8	1.49e+00	0	43	104	0	29	13470
2026-01-16 10:19:49.50	160.40	9.02	-34.1	-45.5	3.8	1.49e+00	0	43	104	0	29	13431
2026-01-16 10:19:50.51	160.41	9.10	-34.0	-45.5	3.8	1.49e+00	0	43	104	0	29	13426
2026-01-16 10:19:51.51	160.41	9.19	-34.0	-45.4	3.8	1.49e+00	0	43	104	0	29	13355
2026-01-16 10:19:52.51	160.42	9.27	-33.9	-45.3	3.8	1.49e+00	0	43	104	0	29	13320
2026-01-16 10:19:53.52	160.42	9.36	-33.9	-45.2	3.8	1.49e+00	0	43	104	0	29	13306
2026-01-16 10:19:54.53	160.43	9.44	-33.9	-45.2	3.8	1.49e+00	0	43	104	0	29	13170
2026-01-16 10:19:55.52	160.44	9.53	-33.8	-45.0	3.8	1.49e+00	0	43	104	0	29	13110
2026-01-16 10:19:56.53	160.44	9.62	-33.8	-45.4	3.8	1.49e+00	0	43	104	0	28	13798
2026-01-16 10:19:57.52	160.45	9.70	-33.8	-45.4	3.8	1.49e+00	0	43	104	0	28	13767
2026-01-16 10:19:58.52	160.45	9.79	-33.7	-45.3	3.8	1.49e+00	0	43	104	0	28	13720
2026-01-16 10:19:59.52	160.46	9.87	-33.6	-45.1	3.8	1.49e+00	0	43	104	0	28	13547
2026-01-16 10:20:00.52	160.46	9.96	-33.5	-44.9	3.8	1.49e+00	0	43	104	0	28	13382
2026-01-16 10:20:01.52	160.47	10.05	-33.4	-45.2	3.8	1.49e+00	0	43	104	0	27	13967
2026-01-16 10:20:02.52	160.47	10.14	-33.3	-44.8	3.8	1.49e+00	0	43	104	0	27	13498
2026-01-16 10:20:03.53	160.48	10.22	-33.0	-43.6	3.8	1.49e+00	0	43	104	0	27	12259
2026-01-16 10:20:04.53	160.48	10.31	-32.9	-42.9	3.8	1.49e+00	0	43	104	0	27	11365
2026-01-16 10:20:05.54	160.49	10.40	-32.8	-42.4	3.8	1.49e+00	0	43	104	0	27	10773
2026-01-16 10:20:06.54	160.49	10.49	-32.8	-41.5	4.0	1.48e+00	0	43	104	0	27	9829
2026-01-16 10:20:07.55	160.50	10.58	-32.7	-42.1	3.9	1.48e+00	0	43	104	0	26	10633
2026-01-16 10:20:08.56	160.51	10.67	-32.7	-41.1	4.2	1.45e+00	0	43	104	0	26	9513
2026-01-16 10:20:09.56	160.51	10.76	-32.6	-41.4	3.9	1.48e+00	0	43	104	0	26	9823
2026-01-16 10:20:10.57	160.52	10.85	-32.6	-40.4	4.4	1.44e+00	0	43	104	0	26	8850
2026-01-16 10:20:11.57	160.52	10.94	-32.5	-40.7	3.9	1.48e+00	0	43	104	0	26	9185
2026-01-16 10:20:12.58	160.53	11.04	-32.5	-40.4	4.0	1.35e+00	0	43	104	0	26	8943
2026-01-16 10:20:13.58	160.53	11.13	-32.4	-39.5	4.7	1.47e+00	0	43	104	0	26	8113
2026-01-16 10:20:14.58	160.54	11.22	-32.3	-38.9	4.9	7.63e-01	0	43	104	0	26	7684
2026-01-16 10:20:15.58	160.54	11.31	-32.1	-38.2	5.5	6.03e-01	0	43	104	0	25	7248
2026-01-16 10:20:16.59	160.55	11.40	-31.9	-37.1	6.1	3.43e-01	0	43	104	0	25	6587
2026-01-16 10:20:17.59	160.56	11.50	-31.6	-36.4	6.8	2.03e-01	0	43	104	0	24	6283
2026-01-16 10:20:18.59	160.56	11.59	-31.0	-34.9	8.3	6.26e-02	0	43	104	0	23	5610
2026-01-16 10:20:19.59	160.57	11.68	-30.7	-34.2	9.1	3.50e-02	0	43	104	0	22	5389
2026-01-16 10:20:20.59	160.57	11.78	-30.3	-33.1	9.9	9.64e-03	0	43	104	0	22	4971
2026-01-16 10:20:21.60	160.58	11.87	-30.1	-33.0	10.3	5.37e-03	0	43	104	0	21	5007
2026-01-16 10:20:22.60	160.58	11.96	-30.0	-32.7	10.5	4.44e-03	0	43	104	0	21	4905
2026-01-16 10:20:23.60	160.59	12.06	-29.9	-32.4	10.7	3.25e-03	0	43	104	0	21	4794
2026-01-16 10:20:24.60	160.60	12.15	-30.0	-32.7	10.5	3.72e-03	0	43	104	0	21	4919
2026-01-16 10:20:25.60	160.60	12.25	-30.0	-32.7	10.5	5.25e-03	0	43	104	0	21	4926
2026-01-16 10:20:26.61	160.61	12.35	-29.9	-32.3	10.8	3.24e-03	0	43	104	0	21	4778
2026-01-16 10:20:27.61	160.61	12.44	-29.9	-32.3	10.7	2.89e-03	0	43	104	0	21	4774
2026-01-16 10:20:28.61	160.62	12.54	-29.8	-32.7	10.8	2.20e-03	0	43	104	0	20	5020
2026-01-16 10:20:29.62	160.63	12.64	-29.9	-33.0	10.7	3.15e-03	0	43	104	0	20	5105
2026-01-16 10:20:30.62	160.63	12.74	-30.1	-33.4	10.4	3.37e-03	0	43	104	0	20	5268
2026-01-16 10:20:31.61	160.64	12.83	-30.0	-33.2	10.5	5.08e-03	0	43	104	0	20	5207
2026-01-16 10:20:32.61	160.64	12.93	-29.8	-32.7	10.9	2.87e-03	0	43	104	0	20	4998
2026-01-16 10:20:33.62	160.65	13.03	-29.3	-31.4	11.7	7.61e-04	0	43	104	0	20	4551
2026-01-16 10:20:34.62	160.65	13.13	-28.9	-30.7	12.6	1.37e-04	0	43	104	0	19	4411
2026-01-16 10:20:35.62	160.66	13.23	-28.6	-30.5	13.0	4.19e-05	0	43	104	0	18	4457
2026-01-16 10:20:36.62	160.67	13.33	-28.2	-30.1	13.6	3.43e-05	0	43	104	0	17	4441
2026-01-16 10:20:37.63	160.67	13.43	-27.9	-29.2	14.1	3.80e-06	0	43	104	0	17	4190
2026-01-16 10:20:38.63	160.68	13.53	-27.7	-29.3	14.3	7.00e-07	0	43	104	0	16	4316
2026-01-16 10:20:39.64	160.68	13.63	-27.5	-28.8	14.6	7.00e-07	0	43	104	0	16	4188
2026-01-16 10:20:40.64	160.69	13.73	-27.5	-28.8	14.6	7.00e-07	0	43	104	0	16	4191
2026-01-16 10:20:41.64	160.70	13.84	-27.3	-28.4	14.8	0.00e+00	0	43	104	0	16	4080
2026-01-16 10:20:42.64	160.70	13.94	-27.4	-28.5	14.8	1.44e-05	0	43	104	0	16	4106
2026-01-16 10:20:43.64	160.71	14.04	-27.3	-28.5	14.8	0.00e+00	0	43	104	0	16	4095
2026-01-16 10:20:44.64	160.72	14.14	-27.4	-28.5	14.8	0.00e+00	0	43	104	0	16	4113
2026-01-16 10:20:45.64	160.72	14.25	-27.3	-28.4	14.8	2.20e-06	0	43	104	0	16	4091
2026-01-16 10:20:46.64	160.73	14.35	-27.2	-28.6	14.8	1.50e-06	0	43	104	0	15	4261
2026-01-16 10:20:47.63	160.73	14.46	-27.1	-28.5	14.9	3.00e-06	0	43	104	0	15	4225
2026-01-16 10:20:48.63	160.74	14.56	-27.2	-28.7	14.8	3.58e-05	0	43	104	0	15	4283
2026-01-16 10:20:49.63	160.75	14.67	-27.2	-28.7	14.8	4.65e-05	0	43	104	0	15	4274
2026-01-16 10:20:50.63	160.75	14.77	-27.1	-28.4	15.0	1.22e-04	0	43	104	0	15	4197
2026-01-16 10:20:51.64	160.76	14.88	-27.0	-28.2	15.1	3.05e-05	0	43	104	0	15	4143
2026-01-16 10:20:52.65	160.77	14.99	-27.1	-28.4	15.0	0.00e+00	0	43	104	0	15	4190
2026-01-16 10:20:53.65	160.77	15.09	-27.0	-28.3	15.0	0.00e+00	0	43	104	0	15	4175
2026-01-16 10:20:54.65	160.78	15.20	-27.0	-28.1	15.2	0.00e+00	0	43	104	0	15	4114
2026-01-16 10:20:55.66	160.78	15.31	-27.0	-28.2	15.1	0.00e+00	0	43	104	0	15	4127
2026-01-16 10:20:56.67	160.79	15.42	-27.2	-28.5	15.0	7.00e-07	0	43	104	0	15	4212
2026-01-16 10:20:57.66	160.80	15.53	-27.1	-28.4	15.0	0.00e+00	0	43	104	0	15	4188
2026-01-16 10:20:58.67	160.80	15.64	-27.1	-28.3	15.1	7.00e-07	0	43	104	0	15	4149
2026-01-16 10:20:59.67	160.81	15.75	-27.2	-28.7	14.9	0.00e+00	0	43	104	0	15	4244
2026-01-16 10:21:00.67	160.82	15.86	-27.1	-28.4	15.1	0.00e+00	0	43	104	0	15	4180
2026-01-16 10:21:01.68	160.82	15.97	-27.2	-28.7	14.9	0.00e+00	0	43	104	0	15	4254
2026-01-16 10:21:02.68	160.83	16.09	-27.2	-28.6	15.0	0.00e+00	0	43	104	0	15	4219
2026-01-16 10:21:03.68	160.84	16.20	-27.2	-28.6	15.0	0.00e+00	0	43	104	0	15	4218
2026-01-16 10:21:04.69	160.84	16.31	-27.3	-28.7	14.9	7.00e-07	0	43	104	0	15	4262
2026-01-16 10:21:05.69	160.85	16.43	-27.3	-28.8	14.9	0.00e+00	0	43	104	0	15	4282
2026-01-16 10:21:06.69	160.86	16.54	-27.3	-28.8	14.9	0.00e+00	0	43	104	0	15	4270
2026-01-16 10:21:07.69	160.86	16.65	-27.4	-29.0	14.8	0.00e+00	0	43	104	0	15	4339
2026-01-16 10:21:08.70	160.87	16.77	-27.5	-29.3	14.6	0.00e+00	0	43	104	0	15	4420
2026-01-16 10:21:09.71	160.88	16.89	-27.5	-29.3	14.7	0.00e+00	0	43	104	0	15	4410
2026-01-16 10:21:10.71	160.88	17.00	-27.5	-29.3	14.6	0.00e+00	0	43	104	0	15	4434
2026-01-16 10:21:11.72	160.89	17.12	-27.5	-29.3	14.6	0.00e+00	0	43	104	0	15	4426
2026-01-16 10:21:12.72	160.90	17.24	-27.6	-29.5	14.5	0.00e+00	0	43	104	0	15	4474
2026-01-16 10:21:13.72	160.90	17.35	-27.5	-29.3	14.6	7.00e-07	0	43	104	0	15	4435
2026-01-16 10:21:14.71	160.91	17.47	-27.5	-29.3	14.7	1.50e-06	0	43	104	0	15	4428
2026-01-16 10:21:15.72	160.92	17.59	-27.7	-29.7	14.4	0.00e+00	0	43	104	0	15	4537
2026-01-16 10:21:16.73	160.93	17.71	-27.6	-29.5	14.5	1.50e-06	0	43	104	0	15	4489
2026-01-16 10:21:17.73	160.93	17.83	-27.4	-29.0	14.8	0.00e+00	0	43	104	0	15	4351
2026-01-16 10:21:18.74	160.94	17.95	-27.4	-28.9	14.9	0.00e+00	0	43	104	0	15	4324
2026-01-16 10:21:19.74	160.95	18.08	-27.3	-28.8	15.0	0.00e+00	0	43	104	0	15	4290
2026-01-16 10:21:20.75	160.95	18.20	-27.4	-29.1	14.8	0.00e+00	0	43	104	0	15	4355
2026-01-16 10:21:21.75	160.96	18.32	-27.4	-29.1	14.8	0.00e+00	0	43	104	0	15	4368
2026-01-16 10:21:22.75	160.97	18.44	-27.3	-28.9	14.9	0.00e+00	0	43	104	0	15	4299
2026-01-16 10:21:23.75	160.98	18.57	-27.4	-29.0	14.9	0.00e+00	0	43	104	0	15	4350
2026-01-16 10:21:24.76	160.98	18.69	-27.4	-29.1	14.8	0.00e+00	0	43	104	0	15	4349
2026-01-16 10:21:25.76	160.99	18.82	-27.5	-29.2	14.8	0.00e+00	0	43	104	0	15	4385
2026-01-16 10:21:26.76	161.00	18.94	-27.4	-29.1	14.9	0.00e+00	0	43	104	0	15	4354
2026-01-16 10:21:27.76	161.00	19.07	-27.3	-28.7	15.1	0.00e+00	0	43	104	0	15	4257
2026-01-16 10:21:28.76	161.01	19.20	-27.1	-28.4	15.3	0.00e+00	0	43	104	0	15	4149
2026-01-16 10:21:29.77	161.02	19.33	-27.2	-28.5	15.2	0.00e+00	0	43	104	0	15	4186
2026-01-16 10:21:30.78	161.03	19.46	-27.1	-28.3	15.3	0.00e+00	0	43	104	0	15	4129
2026-01-16 10:21:31.77	161.03	19.58	-27.2	-28.6	15.2	0.00e+00	0	43	104	0	15	4220
2026-01-16 10:21:32.77	161.04	19.71	-27.2	-28.4	15.3	7.00e-07	0	43	104	0	15	4168
2026-01-16 10:21:33.78	161.05	19.84	-27.2	-28.5	15.3	0.00e+00	0	43	104	0	15	4179
2026-01-16 10:21:34.78	161.06	19.98	-27.1	-28.4	15.3	0.00e+00	0	43	104	0	15	4164
2026-01-16 10:21:35.78	161.06	20.11	-27.1	-28.4	15.3	0.00e+00	0	43	104	0	15	4146
2026-01-16 10:21:36.78	161.07	20.24	-27.1	-28.2	15.4	0.00e+00	0	43	104	0	15	4112
2026-01-16 10:21:37.77	161.08	20.37	-27.2	-28.5	15.2	0.00e+00	0	43	104	0	15	4187
2026-01-16 10:21:38.77	161.09	20.50	-27.1	-28.3	15.4	0.00e+00	0	43	104	0	15	4132
2026-01-16 10:21:39.78	161.10	20.64	-27.3	-28.8	15.1	0.00e+00	0	43	104	0	15	4265
2026-01-16 10:21:40.78	161.10	20.78	-27.1	-28.3	15.3	0.00e+00	0	43	104	0	15	4137
2026-01-16 10:21:41.79	161.11	20.91	-27.0	-28.1	15.5	3.00e-06	0	43	104	0	15	4084
2026-01-16 10:21:42.79	161.12	21.05	-27.1	-28.2	15.4	0.00e+00	0	43	104	0	15	4108
2026-01-16 10:21:43.79	161.13	21.19	-27.0	-28.0	15.5	0.00e+00	0	43	104	0	15	4046
2026-01-16 10:21:44.80	161.13	21.33	-27.1	-28.4	15.3	7.00e-07	0	43	104	0	15	4152
2026-01-16 10:21:45.81	161.14	21.47	-27.0	-28.2	15.5	0.00e+00	0	43	104	0	15	4102
2026-01-16 10:21:46.81	161.15	21.61	-26.8	-28.0	15.8	0.00e+00	0	43	104	0	14	4172
2026-01-16 10:21:47.81	161.16	21.75	-26.7	-27.8	15.9	0.00e+00	0	43	104	0	14	4108
2026-01-16 10:21:48.82	161.17	21.89	-26.4	-27.3	16.2	0.00e+00	0	43	104	0	14	3972
2026-01-16 10:21:49.82	161.18	22.03	-26.4	-27.2	16.3	0.00e+00	0	43	104	0	14	3964
2026-01-16 10:21:50.82	161.18	22.17	-26.3	-27.1	16.3	0.00e+00	0	43	104	0	14	3930
2026-01-16 10:21:51.82	161.19	22.32	-26.4	-27.2	16.2	0.00e+00	0	43	104	0	14	3962
2026-01-16 10:21:52.83	161.20	22.46	-26.3	-27.1	16.4	0.00e+00	0	43	104	0	14	3927
2026-01-16 10:21:53.83	161.21	22.61	-26.3	-27.5	16.4	0.00e+00	0	43	104	0	13	4124
2026-01-16 10:21:54.83	161.22	22.75	-26.2	-27.4	16.5	0.00e+00	0	43	104	0	13	4103
2026-01-16 10:21:55.83	161.23	22.90	-26.3	-27.5	16.4	0.00e+00	0	43	104	0	13	4126
2026-01-16 10:21:56.84	161.23	23.05	-26.2	-27.2	16.6	1.50e-06	0	43	104	0	13	4059
2026-01-16 10:21:57.84	161.24	23.20	-26.2	-27.3	16.5	0.00e+00	0	43	104	0	13	4078
2026-01-16 10:21:58.84	161.25	23.35	-26.1	-27.1	16.6	0.00e+00	0	43	104	0	13	4033
2026-01-16 10:21:59.85	161.26	23.50	-26.3	-27.4	16.4	0.00e+00	0	43	104	0	13	4117
2026-01-16 10:22:00.85	161.27	23.65	-26.3	-27.4	16.4	0.00e+00	0	43	104	0	13	4118
2026-01-16 10:22:01.85	161.28	23.80	-26.3	-27.6	16.4	0.00e+00	0	43	104	0	13	4160
2026-01-16 10:22:02.86	161.29	23.96	-26.2	-27.3	16.5	7.00e-07	0	43	104	0	13	4086
2026-01-16 10:22:03.86	161.30	24.11	-26.3	-27.5	16.4	0.00e+00	0	43	104	0	13	4145
2026-01-16 10:22:04.86	161.31	24.27	-26.1	-27.1	16.6	0.00e+00	0	43	104	0	13	4036
2026-01-16 10:22:05.86	161.31	24.42	-26.2	-27.2	16.6	0.00e+00	0	43	104	0	13	4049
2026-01-16 10:22:06.86	161.32	24.58	-26.2	-27.2	16.6	0.00e+00	0	43	104	0	13	4059
2026-01-16 10:22:07.86	161.33	24.74	-26.2	-27.2	16.6	0.00e+00	0	43	104	0	13	4064
2026-01-16 10:22:08.86	161.34	24.90	-26.4	-27.8	16.3	0.00e+00	0	43	104	0	13	4205
2026-01-16 10:22:09.87	161.35	25.06	-26.6	-28.2	16.1	0.00e+00	0	43	104	0	13	4318
2026-01-16 10:22:10.87	161.36	25.22	-26.5	-28.0	16.2	0.00e+00	0	43	104	0	13	4273
2026-01-16 10:22:11.88	161.37	25.38	-26.5	-28.0	16.2	0.00e+00	0	43	104	0	13	4267
2026-01-16 10:22:12.88	161.38	25.54	-26.6	-28.1	16.1	0.00e+00	0	43	104	0	13	4305
2026-01-16 10:22:13.88	161.39	25.71	-26.6	-28.1	16.2	0.00e+00	0	43	104	0	13	4285
2026-01-16 10:22:14.89	161.40	25.87	-26.7	-28.3	16.0	0.00e+00	0	43	104	0	13	4355
2026-01-16 10:22:15.89	161.41	26.04	-26.7	-28.4	16.0	0.00e+00	0	43	104	0	13	4366
2026-01-16 10:22:16.89	161.42	26.20	-26.6	-28.2	16.1	0.00e+00	0	43	104	0	13	4312
2026-01-16 10:22:17.89	161.43	26.37	-26.6	-28.2	16.1	0.00e+00	0	43	104	0	13	4310
2026-01-16 10:22:18.89	161.44	26.54	-26.6	-28.3	16.1	0.00e+00	0	43	104	0	13	4334
2026-01-16 10:22:19.90	161.45	26.71	-26.8	-28.6	15.9	0.00e+00	0	43	104	0	13	4434
2026-01-16 10:22:20.90	161.46	26.88	-26.8	-28.6	15.9	0.00e+00	0	43	104	0	13	4417
2026-01-16 10:22:21.91	161.47	27.06	-27.0	-29.0	15.7	0.00e+00	0	43	104	0	13	4550
2026-01-16 10:22:22.90	161.48	27.23	-27.0	-28.6	15.7	0.00e+00	0	43	104	0	14	4300
2026-01-16 10:22:23.90	161.49	27.40	-27.1	-28.7	15.6	0.00e+00	0	43	104	0	14	4351
2026-01-16 10:22:24.90	161.50	27.58	-27.1	-28.7	15.6	0.00e+00	0	43	104	0	14	4334
2026-01-16 10:22:25.90	161.51	27.75	-27.3	-29.2	15.4	0.00e+00	0	43	104	0	14	4471
2026-01-16 10:22:26.90	161.52	27.93	-27.3	-29.3	15.3	0.00e+00	0	43	104	0	14	4509
2026-01-16 10:22:27.90	161.53	28.11	-27.4	-29.4	15.3	0.00e+00	0	43	104	0	14	4532
2026-01-16 10:22:28.89	161.54	28.29	-27.3	-29.3	15.3	0.00e+00	0	43	104	0	14	4493
2026-01-16 10:22:29.89	161.55	28.47	-27.4	-29.3	15.3	0.00e+00	0	43	104	0	14	4521
2026-01-16 10:22:30.90	161.56	28.65	-27.3	-29.3	15.3	0.00e+00	0	43	104	0	14	4495
2026-01-16 10:22:31.90	161.57	28.83	-27.4	-29.3	15.3	0.00e+00	0	43	104	0	14	4522
2026-01-16 10:22:32.91	161.58	29.02	-27.3	-29.2	15.4	0.00e+00	0	43	104	0	14	4489
2026-01-16 10:22:33.91	161.59	29.21	-27.3	-29.1	15.4	0.00e+00	0	43	104	0	14	4464
2026-01-16 10:22:34.91	161.61	29.39	-27.3	-29.1	15.4	0.00e+00	0	43	104	0	14	4449
2026-01-16 10:22:35.91	161.62	29.58	-27.4	-29.4	15.3	0.00e+00	0	43	104	0	14	4546
2026-01-16 10:22:36.92	161.63	29.77	-27.2	-29.1	15.5	0.00e+00	0	43	104	0	14	4431
2026-01-16 10:22:37.92	161.64	29.96	-27.3	-29.1	15.4	0.00e+00	0	43	104	0	14	4458
2026-01-16 10:22:38.93	161.65	30.16	-27.2	-28.8	15.6	0.00e+00	0	43	104	0	14	4369
2026-01-16 10:22:39.93	161.66	30.35	-27.0	-28.4	15.8	0.00e+00	0	43	104	0	14	4246
2026-01-16 10:22:40.93	161.67	30.55	-26.9	-28.2	15.9	0.00e+00	0	43	104	0	14	4198
2026-01-16 10:22:41.93	161.69	30.74	-27.0	-28.4	15.8	0.00e+00	0	43	104	0	14	4255
2026-01-16 10:22:42.94	161.70	30.94	-26.9	-28.2	16.0	0.00e+00	0	43	104	0	14	4191
2026-01-16 10:22:43.94	161.71	31.14	-27.2	-28.8	15.6	0.00e+00	0	43	104	0	14	4371
2026-01-16 10:22:44.94	161.72	31.34	-26.7	-27.9	16.1	0.00e+00	0	43	104	0	14	4120
2026-01-16 10:22:45.94	161.73	31.54	-26.6	-27.5	16.4	0.00e+00	0	43	104	0	14	4007
2026-01-16 10:22:46.95	161.75	31.74	-26.5	-27.3	16.5	0.00e+00	0	43	104	0	14	3956
2026-01-16 10:22:47.95	161.76	31.95	-26.5	-27.4	16.4	0.00e+00	0	43	104	0	14	3982
2026-01-16 10:22:48.96	161.77	32.16	-26.6	-27.6	16.4	0.00e+00	0	43	104	0	14	4027
2026-01-16 10:22:49.97	161.79	32.37	-26.8	-28.1	16.0	0.00e+00	0	43	104	0	14	4177
2026-01-16 10:22:50.97	161.80	32.57	-26.9	-28.2	16.0	0.00e+00	0	43	104	0	14	4208
2026-01-16 10:22:51.98	161.81	32.79	-27.1	-28.6	15.8	0.00e+00	0	43	104	0	14	4314
2026-01-16 10:22:52.99	161.82	33.00	-27.0	-28.5	15.8	0.00e+00	0	43	104	0	14	4286
2026-01-16 10:22:53.99	161.84	33.21	-27.1	-28.8	15.7	0.00e+00	0	43	104	0	14	4360
2026-01-16 10:22:54.99	161.85	33.43	-27.3	-29.1	15.6	0.00e+00	0	43	104	0	14	4439
2026-01-16 10:22:56.00	161.86	33.64	-27.3	-29.2	15.5	0.00e+00	0	43	104	0	14	4463
2026-01-16 10:22:57.00	161.88	33.86	-27.5	-29.5	15.3	0.00e+00	0	43	104	0	14	4566
2026-01-16 10:22:58.01	161.89	34.08	-27.7	-29.5	15.0	0.00e+00	0	43	104	0	15	4438
2026-01-16 10:22:59.01	161.91	34.30	-27.9	-30.1	14.7	7.00e-07	0	43	104	0	15	4614
2026-01-16 10:23:00.01	161.92	34.53	-28.0	-30.2	14.6	0.00e+00	0	43	104	0	15	4649
2026-01-16 10:23:01.01	161.93	34.75	-28.2	-30.2	14.5	0.00e+00	0	43	104	0	16	4545
2026-01-16 10:23:02.02	161.95	34.98	-28.5	-30.8	14.2	6.10e-06	0	43	104	0	16	4726
2026-01-16 10:23:03.02	161.96	35.20	-28.6	-30.7	14.0	2.20e-06	0	43	104	0	17	4580
2026-01-16 10:23:04.03	161.98	35.43	-28.7	-30.9	13.8	3.80e-06	0	43	104	0	17	4652
2026-01-16 10:23:05.03	161.99	35.67	-28.9	-31.3	13.6	4.50e-06	0	43	104	0	17	4757
2026-01-16 10:23:06.03	162.01	35.90	-29.0	-31.1	13.4	1.44e-05	0	43	104	0	18	4596
2026-01-16 10:23:07.03	162.02	36.13	-29.1	-31.4	13.3	1.06e-05	0	43	104	0	18	4692
2026-01-16 10:23:08.04	162.04	36.37	-29.1	-31.4	13.3	3.43e-05	0	43	104	0	18	4667
2026-01-16 10:23:09.04	162.05	36.61	-29.0	-31.0	13.5	1.29e-05	0	43	104	0	18	4539
2026-01-16 10:23:10.05	162.07	36.85	-29.1	-31.3	13.4	1.60e-05	0	43	104	0	18	4641
2026-01-16 10:23:11.05	162.09	37.09	-28.8	-30.6	13.8	6.10e-06	0	43	104	0	18	4423
2026-01-16 10:23:12.06	162.10	37.33	-28.7	-30.4	13.9	3.00e-06	0	43	104	0	18	4375
2026-01-16 10:23:13.07	162.12	37.58	-28.6	-30.1	14.1	2.20e-06	0	43	104	0	18	4273
2026-01-16 10:23:14.07	162.13	37.82	-28.8	-30.5	13.9	4.50e-06	0	43	104	0	18	4389
2026-01-16 10:23:15.08	162.15	38.07	-28.6	-30.1	14.1	7.00e-07	0	43	104	0	18	4286
2026-01-16 10:23:16.07	162.17	38.32	-28.5	-29.9	14.2	1.50e-06	0	43	104	0	18	4220
2026-01-16 10:23:17.08	162.18	38.58	-28.5	-29.8	14.3	6.10e-06	0	43	104	0	18	4205
2026-01-16 10:23:18.08	162.20	38.83	-28.7	-30.3	14.0	7.00e-07	0	43	104	0	18	4322
2026-01-16 10:23:19.08	162.22	39.08	-28.6	-30.0	14.1	2.20e-06	0	43	104	0	18	4253
2026-01-16 10:23:20.09	162.24	39.34	-28.4	-29.6	14.4	7.00e-07	0	43	104	0	18	4126
2026-01-16 10:23:21.09	162.26	39.60	-28.3	-29.5	14.4	1.50e-06	0	43	104	0	18	4106
2026-01-16 10:23:22.09	162.27	39.86	-28.3	-29.4	14.5	0.00e+00	0	43	104	0	18	4084
2026-01-16 10:23:23.10	162.29	40.13	-28.3	-30.0	14.4	1.50e-06	0	43	104	0	17	4360
2026-01-16 10:23:24.10	162.31	40.39	-28.4	-30.0	14.4	7.00e-07	0	43	104	0	17	4369
2026-01-16 10:23:25.11	162.33	40.66	-28.4	-30.1	14.3	7.00e-07	0	43	104	0	17	4398
2026-01-16 10:23:26.11	162.35	40.93	-28.6	-30.5	14.1	2.20e-06	0	43	104	0	17	4503
2026-01-16 10:23:27.11	162.37	41.20	-28.7	-31.0	13.9	3.00e-06	0	43	104	0	17	4661
2026-01-16 10:23:28.12	162.39	41.48	-28.8	-31.2	13.7	3.00e-06	0	43	104	0	17	4722
2026-01-16 10:23:29.11	162.41	41.75	-28.8	-31.2	13.8	5.30e-06	0	43	104	0	17	4727
2026-01-16 10:23:30.12	162.43	42.03	-28.9	-31.4	13.6	8.30e-06	0	43	104	0	17	4796
2026-01-16 10:23:31.12	162.45	42.31	-29.0	-31.1	13.5	8.30e-06	0	43	104	0	18	4590
2026-01-16 10:23:32.12	162.47	42.59	-29.2	-31.6	13.3	1.90e-05	0	43	104	0	18	4739
2026-01-16 10:23:33.12	162.49	42.87	-29.2	-31.5	13.3	2.21e-05	0	43	104	0	18	4707
2026-01-16 10:23:34.12	162.51	43.16	-29.3	-31.8	13.1	3.35e-05	0	43	104	0	18	4794
2026-01-16 10:23:35.12	162.53	43.45	-29.3	-31.8	13.1	3.89e-05	0	43	104	0	18	4795
2026-01-16 10:23:36.13	162.56	43.74	-29.3	-31.9	13.1	2.51e-05	0	43	104	0	18	4824
2026-01-16 10:23:37.13	162.58	44.03	-29.4	-31.9	13.1	3.96e-05	0	43	104	0	18	4833
2026-01-16 10:23:38.13	162.60	44.33	-29.4	-32.0	13.0	3.81e-05	0	43	104	0	18	4871
2026-01-16 10:23:39.14	162.62	44.63	-29.4	-32.1	12.9	4.11e-05	0	43	104	0	18	4887
2026-01-16 10:23:40.14	162.65	44.92	-29.4	-31.6	12.9	4.80e-05	0	43	104	0	19	4626
2026-01-16 10:23:41.14	162.67	45.23	-29.4	-31.5	12.9	3.89e-05	0	43	104	0	19	4614
2026-01-16 10:23:42.14	162.70	45.53	-29.6	-32.1	12.6	9.61e-05	0	43	104	0	19	4807
2026-01-16 10:23:43.15	162.72	45.84	-29.6	-32.3	12.5	1.33e-04	0	43	104	0	19	4862
2026-01-16 10:23:44.15	162.75	46.15	-29.9	-32.8	12.2	2.19e-04	0	43	104	0	19	5061
2026-01-16 10:23:45.15	162.77	46.46	-29.9	-32.9	12.1	2.71e-04	0	43	104	0	19	5091
2026-01-16 10:23:46.15	162.80	46.77	-29.9	-32.4	12.1	3.40e-04	0	43	104	0	20	4800
2026-01-16 10:23:47.15	162.82	47.08	-29.8	-32.1	12.3	2.04e-04	0	43	104	0	20	4680
2026-01-16 10:23:48.15	162.85	47.40	-29.7	-31.8	12.5	1.13e-04	0	43	104	0	20	4579
2026-01-16 10:23:49.15	162.88	47.72	-29.5	-31.3	12.8	6.56e-05	0	43	104	0	20	4421
2026-01-16 10:23:50.15	162.91	48.04	-29.5	-31.4	12.7	6.17e-05	0	43	104	0	20	4468
2026-01-16 10:23:51.15	162.94	48.37	-29.8	-32.0	12.3	6.71e-05	0	43	104	0	20	4651
2026-01-16 10:23:52.16	162.96	48.70	-29.9	-32.4	12.1	2.30e-04	0	43	104	0	20	4772
2026-01-16 10:23:53.16	162.99	49.03	-29.7	-31.9	12.5	1.59e-04	0	43	104	0	20	4605
2026-01-16 10:23:54.16	163.02	49.36	-29.7	-31.8	12.5	1.94e-04	0	43	104	0	20	4583
2026-01-16 10:23:55.16	163.05	49.69	-29.9	-32.4	12.1	2.53e-04	0	43	104	0	20	4787
2026-01-16 10:23:56.17	163.09	50.03	-29.7	-31.7	12.5	1.26e-04	0	43	104	0	20	4564
2026-01-16 10:23:57.17	163.12	50.37	-29.7	-31.8	12.5	1.31e-04	0	43	104	0	20	4571
2026-01-16 10:23:58.17	163.15	50.71	-29.7	-31.9	12.5	2.03e-04	0	43	104	0	20	4617
2026-01-16 10:23:59.18	163.18	51.06	-29.6	-31.5	12.7	8.16e-05	0	43	104	0	20	4488
2026-01-16 10:24:00.18	163.22	51.41	-29.8	-32.1	12.3	1.65e-04	0	43	104	0	20	4680
2026-01-16 10:24:01.18	163.25	51.76	-29.5	-31.4	12.7	8.23e-05	0	43	104	0	20	4452
2026-01-16 10:24:02.19	163.29	52.11	-29.1	-30.7	13.6	1.29e-05	0	43	104	0	19	4330
2026-01-16 10:24:03.19	163.32	52.47	-28.7	-30.4	14.0	2.20e-06	0	43	104	0	18	4377
2026-01-16 10:24:04.19	163.36	52.82	-28.4	-29.5	14.6	7.00e-07	0	43	104	0	18	4109
2026-01-16 10:24:05.19	163.40	53.18	-28.2	-29.7	14.7	0.00e+00	0	43	104	0	17	4262
2026-01-16 10:24:06.20	163.44	53.55	-28.4	-30.1	14.5	0.00e+00	0	43	104	0	17	4387
2026-01-16 10:24:07.20	163.48	53.91	-28.5	-30.3	14.4	7.00e-07	0	43	104	0	17	4426
2026-01-16 10:24:08.20	163.52	54.28	-28.4	-30.2	14.4	2.20e-06	0	43	104	0	17	4409
2026-01-16 10:24:09.20	163.56	54.65	-28.3	-29.8	14.6	7.00e-07	0	43	104	0	17	4290
2026-01-16 10:24:10.19	163.60	55.02	-28.2	-29.5	14.8	0.00e+00	0	43	104	0	17	4220
2026-01-16 10:24:11.19	163.65	55.40	-28.1	-29.3	14.9	2.74e-05	0	43	104	0	17	4165
2026-01-16 10:24:12.19	163.69	55.77	-28.1	-29.4	14.9	0.00e+00	0	43	104	0	17	4166
2026-01-16 10:24:13.19	163.74	56.15	-27.8	-28.7	15.3	2.20e-06	0	43	104	0	17	3996
2026-01-16 10:24:14.19	163.78	56.54	-27.7	-29.1	15.4	0.00e+00	0	43	104	0	16	4198
2026-01-16 10:24:15.19	163.83	56.92	-27.9	-29.4	15.2	0.00e+00	0	43	104	0	16	4278
2026-01-16 10:24:16.20	163.88	57.32	-28.0	-29.6	15.1	0.00e+00	0	43	104	0	16	4354
2026-01-16 10:24:17.21	163.93	57.71	-28.0	-29.8	15.0	0.00e+00	0	43	104	0	16	4399
2026-01-16 10:24:18.22	163.98	58.11	-28.1	-30.0	14.9	0.00e+00	0	43	104	0	16	4456
2026-01-16 10:24:19.21	164.04	58.50	-27.7	-29.1	15.4	0.00e+00	0	43	104	0	16	4208
2026-01-16 10:24:20.22	164.09	58.90	-27.3	-28.1	15.9	0.00e+00	0	43	104	0	16	3938
2026-01-16 10:24:21.22	164.15	59.31	-26.6	-27.6	16.5	0.00e+00	0	43	104	0	14	4033
2026-01-16 10:24:22.23	164.21	59.71	-26.6	-27.5	16.6	0.00e+00	0	43	104	0	14	4004
2026-01-16 10:24:23.22	164.27	60.12	-26.7	-27.8	16.6	0.00e+00	0	43	104	0	14	4071
2026-01-16 10:24:24.22	164.33	60.53	-26.7	-27.8	16.5	0.00e+00	0	43	104	0	14	4088
2026-01-16 10:24:25.22	164.39	60.94	-26.6	-27.6	16.6	0.00e+00	0	43	104	0	14	4031
2026-01-16 10:24:26.22	164.46	61.35	-26.6	-27.5	16.7	0.00e+00	0	43	104	0	14	3998
2026-01-16 10:24:27.22	164.53	61.77	-26.6	-27.6	16.6	0.00e+00	0	43	104	0	14	4039
2026-01-16 10:24:28.21	164.60	62.19	-26.4	-27.1	16.8	0.00e+00	0	43	104	0	14	3914
2026-01-16 10:24:29.23	164.67	62.62	-26.3	-27.0	16.9	0.00e+00	0	43	104	0	14	3878
2026-01-16 10:24:30.23	164.75	63.04	-26.3	-27.0	16.9	0.00e+00	0	43	104	0	14	3871
2026-01-16 10:24:31.23	164.82	63.47	-26.2	-27.2	17.0	0.00e+00	0	43	104	0	13	4047
2026-01-16 10:24:32.24	164.90	63.90	-26.3	-27.4	17.0	0.00e+00	0	43	104	0	13	4097
2026-01-16 10:24:33.24	164.99	64.34	-26.4	-27.6	16.9	0.00e+00	0	43	104	0	13	4132
2026-01-16 10:24:34.23	165.07	64.77	-26.3	-27.4	16.9	0.00e+00	0	43	104	0	13	4104
2026-01-16 10:24:35.23	165.16	65.20	-26.2	-27.1	17.1	0.00e+00	0	43	104	0	13	4023
2026-01-16 10:24:36.24	165.26	65.65	-25.8	-26.3	17.5	0.00e+00	0	43	104	0	13	3823
2026-01-16 10:24:37.25	165.35	66.09	-25.7	-26.6	17.6	0.00e+00	0	43	104	0	12	4002
2026-01-16 10:24:38.24	165.45	66.53	-25.8	-26.9	17.5	0.00e+00	0	43	104	0	12	4054
2026-01-16 10:24:39.24	165.56	66.98	-26.0	-27.3	17.3	0.00e+00	0	43	104	0	12	4163
2026-01-16 10:24:40.25	165.67	67.43	-25.9	-26.9	17.4	0.00e+00	0	43	104	0	12	4070
2026-01-16 10:24:41.25	165.78	67.89	-25.8	-26.8	17.6	0.00e+00	0	43	104	0	12	4026
2026-01-16 10:24:42.25	165.90	68.34	-26.0	-27.2	17.3	0.00e+00	0	43	104	0	12	4140
2026-01-16 10:24:43.24	166.02	68.79	-26.1	-27.4	17.2	0.00e+00	0	43	104	0	12	4201
2026-01-16 10:24:44.25	166.15	69.25	-26.5	-28.2	16.8	0.00e+00	0	43	104	0	12	4420
2026-01-16 10:24:45.25	166.29	69.72	-26.4	-27.6	16.8	0.00e+00	0	43	104	0	13	4140
2026-01-16 10:24:46.25	166.43	70.18	-26.2	-27.3	17.1	0.00e+00	0	43	104	0	13	4049
2026-01-16 10:24:47.25	166.58	70.64	-26.0	-26.7	17.3	0.00e+00	0	43	104	0	13	3914
2026-01-16 10:24:48.25	166.74	71.11	-26.0	-26.8	17.3	0.00e+00	0	43	104	0	13	3920
2026-01-16 10:24:49.26	166.91	71.58	-26.0	-26.8	17.3	0.00e+00	0	43	104	0	13	3923
2026-01-16 10:24:50.26	167.08	72.05	-25.8	-26.7	17.6	0.00e+00	0	43	104	0	12	4022
2026-01-16 10:24:51.26	167.27	72.53	-26.1	-27.5	17.2	0.00e+00	0	43	104	0	12	4217
2026-01-16 10:24:52.26	167.46	73.00	-25.6	-26.3	17.8	0.00e+00	0	43	104	0	12	3916
2026-01-16 10:24:53.26	167.67	73.48	-25.4	-25.9	18.0	0.00e+00	0	43	104	0	12	3822
2026-01-16 10:24:54.26	167.89	73.95	-25.6	-26.3	17.8	0.00e+00	0	43	104	0	12	3912
2026-01-16 10:24:55.26	168.12	74.43	-25.9	-27.0	17.4	0.00e+00	0	43	104	0	12	4094
2026-01-16 10:24:56.27	168.37	74.92	-25.9	-26.9	17.5	0.00e+00	0	43	104	0	12	4071
2026-01-16 10:24:57.26	168.64	75.40	-25.7	-26.7	17.6	0.00e+00	0	43	104	0	12	4002
2026-01-16 10:24:58.26	168.92	75.88	-25.7	-26.7	17.6	0.00e+00	0	43	104	0	12	4002
2026-01-16 10:24:59.27	169.23	76.37	-25.9	-27.1	17.4	0.00e+00	0	43	104	0	12	4108
2026-01-16 10:25:00.27	169.56	76.86	-26.0	-27.1	17.4	0.00e+00	0	43	104	0	12	4122
2026-01-16 10:25:01.27	169.91	77.35	-26.1	-27.5	17.2	0.00e+00	0	43	104	0	12	4215
2026-01-16 10:25:02.28	170.30	77.84	-25.8	-26.8	17.6	0.00e+00	0	43	104	0	12	4035
2026-01-16 10:25:03.28	170.71	78.33	-25.8	-26.9	17.5	0.00e+00	0	43	104	0	12	4055
2026-01-16 10:25:04.28	171.16	78.82	-26.0	-27.2	17.4	0.00e+00	0	43	104	0	12	4133
2026-01-16 10:25:05.28	171.66	79.31	-26.2	-27.6	17.2	0.00e+00	0	43	104	0	12	4239
2026-01-16 10:25:06.29	172.21	79.81	-26.2	-27.7	17.1	0.00e+00	0	43	104	0	12	4277
2026-01-16 10:25:07.29	172.81	80.30	-26.1	-27.4	17.2	0.00e+00	0	43	104	0	12	4202
2026-01-16 10:25:08.29	173.47	80.79	-25.7	-26.6	17.7	0.00e+00	0	43	104	0	12	3993
2026-01-16 10:25:09.29	174.21	81.28	-26.0	-27.2	17.4	0.00e+00	0	43	104	0	12	4126
2026-01-16 10:25:10.29	175.04	81.77	-26.2	-27.8	17.1	0.00e+00	0	43	104	0	12	4285
2026-01-16 10:25:11.29	175.97	82.26	-26.3	-27.9	17.0	0.00e+00	0	43	104	0	12	4322
2026-01-16 10:25:12.29	177.03	82.75	-26.2	-27.8	17.1	0.00e+00	0	43	104	0	12	4283
2026-01-16 10:25:13.29	178.25	83.24	-26.4	-28.0	17.0	0.00e+00	0	43	104	0	12	4336
2026-01-16 10:25:14.29	179.65	83.72	-26.6	-27.9	16.8	0.00e+00	0	43	104	0	13	4215
2026-01-16 10:25:15.29	181.29	84.20	-26.6	-27.9	16.8	0.00e+00	0	43	104	0	13	4214
2026-01-16 10:25:16.29	183.23	84.68	-26.4	-27.5	17.1	0.00e+00	0	43	104	0	13	4097
2026-01-16 10:25:17.29	185.54	85.15	-26.5	-27.8	17.0	0.00e+00	0	43	104	0	13	4172
2026-01-16 10:25:18.29	188.34	85.61	-26.8	-28.5	16.6	0.00e+00	0	43	104	0	13	4366
2026-01-16 10:25:19.29	191.79	86.06	-27.1	-28.7	16.2	0.00e+00	0	43	104	0	14	4310
2026-01-16 10:25:20.29	196.11	86.49	-27.5	-29.0	15.8	0.00e+00	0	43	104	0	15	4266
2026-01-16 10:25:21.30	201.65	86.89	-27.9	-29.8	15.3	0.00e+00	0	43	104	0	15	4493
2026-01-16 10:25:22.31	208.79	87.27	-28.3	-30.4	15.0	0.00e+00	0	43	104	0	16	4544
2026-01-16 10:25:23.30	217.77	87.58	-28.5	-30.6	14.8	0.00e+00	0	43	104	0	16	4620
2026-01-16 10:25:24.31	229.27	87.82	-28.1	-29.9	15.3	0.00e+00	0	43	104	0	16	4415
2026-01-16 10:25:25.30	242.63	87.95	-27.8	-29.1	15.7	0.00e+00	0	43	104	0	16	4196
2026-01-16 10:25:26.30	257.08	87.96	-27.6	-28.7	16.0	0.00e+00	0	43	104	0	16	4069
2026-01-16 10:25:27.31	270.93	87.84	-27.0	-27.8	16.5	0.00e+00	0	43	104	0	15	3953
2026-01-16 10:25:28.30	282.52	87.62	-26.8	-27.5	16.6	0.00e+00	0	43	104	0	15	3889
2026-01-16 10:25:29.30	291.90	87.31	-26.3	-26.8	17.3	0.00e+00	0	43	104	0	14	3825
2026-01-16 10:25:30.30	299.22	86.95	-26.2	-27.2	17.3	0.00e+00	0	43	104	0	13	4020
2026-01-16 10:25:31.30	304.91	86.55	-26.0	-26.7	17.6	0.00e+00	0	43	104	0	13	3885
2026-01-16 10:25:32.31	309.43	86.12	-26.1	-26.8	17.5	0.00e+00	0	43	104	0	13	3929
2026-01-16 10:25:33.31	312.99	85.67	-26.2	-27.2	17.3	0.00e+00	0	43	104	0	13	4019
2026-01-16 10:25:34.31	315.88	85.22	-26.6	-27.9	16.8	0.00e+00	0	43	104	0	13	4199
2026-01-16 10:25:35.32	318.27	84.74	-26.6	-28.0	16.7	0.00e+00	0	43	104	0	13	4224
2026-01-16 10:25:36.32	320.25	84.27	-26.6	-28.1	16.7	0.00e+00	0	43	104	0	13	4250
2026-01-16 10:25:37.32	321.93	83.79	-26.5	-27.7	16.9	0.00e+00	0	43	104	0	13	4153
2026-01-16 10:25:38.33	323.38	83.30	-26.7	-28.2	16.6	0.00e+00	0	43	104	0	13	4279
2026-01-16 10:25:39.33	324.61	82.82	-26.9	-28.8	16.3	0.00e+00	0	43	104	0	13	4450
2026-01-16 10:25:40.33	325.69	82.33	-26.6	-28.0	16.7	0.00e+00	0	43	104	0	13	4216
2026-01-16 10:25:41.34	326.65	81.83	-26.5	-27.7	16.9	0.00e+00	0	43	104	0	13	4156
2026-01-16 10:25:42.35	327.50	81.34	-26.7	-28.2	16.6	7.00e-07	0	43	104	0	13	4296
2026-01-16 10:25:43.35	328.24	80.85	-26.5	-27.7	16.9	0.00e+00	0	43	104	0	13	4161
2026-01-16 10:25:44.35	328.92	80.36	-26.1	-27.0	17.3	0.00e+00	0	43	104	0	13	3962
2026-01-16 10:25:45.35	329.52	79.86	-26.3	-27.4	17.1	0.00e+00	0	43	104	0	13	4064
2026-01-16 10:25:46.36	330.08	79.37	-26.5	-27.8	16.8	0.00e+00	0	43	104	0	13	4196
2026-01-16 10:25:47.36	330.58	78.88	-26.4	-27.5	17.0	0.00e+00	0	43	104	0	13	4106
2026-01-16 10:25:48.37	331.04	78.38	-26.5	-27.7	16.9	0.00e+00	0	43	104	0	13	4151
2026-01-16 10:25:49.37	331.46	77.89	-26.7	-28.3	16.5	0.00e+00	0	43	104	0	13	4324
2026-01-16 10:25:50.37	331.84	77.41	-26.2	-27.1	17.2	0.00e+00	0	43	104	0	13	3997
2026-01-16 10:25:51.37	332.20	76.92	-25.9	-26.5	17.5	0.00e+00	0	43	104	0	13	3850
2026-01-16 10:25:52.37	332.53	76.43	-25.7	-26.5	17.8	0.00e+00	0	43	104	0	12	3958
2026-01-16 10:25:53.37	332.84	75.95	-26.0	-27.3	17.3	0.00e+00	0	43	104	0	12	4157
2026-01-16 10:25:54.38	333.12	75.46	-25.8	-26.8	17.6	0.00e+00	0	43	104	0	12	4044
2026-01-16 10:25:55.37	333.39	74.98	-25.8	-26.8	17.6	0.00e+00	0	43	104	0	12	4038
2026-01-16 10:25:56.38	333.64	74.50	-25.9	-26.9	17.6	0.00e+00	0	43	104	0	12	4071
2026-01-16 10:25:57.37	333.88	74.02	-26.3	-28.0	17.0	3.80e-06	0	43	104	0	12	4351
2026-01-16 10:25:58.38	334.10	73.54	-26.3	-27.9	17.0	0.00e+00	0	43	104	0	12	4319
2026-01-16 10:25:59.38	334.31	73.07	-26.2	-27.6	17.1	0.00e+00	0	43	104	0	12	4254
2026-01-16 10:26:00.38	334.50	72.59	-26.4	-28.1	16.9	0.00e+00	0	43	104	0	12	4368
2026-01-16 10:26:01.38	334.69	72.12	-26.5	-27.8	16.8	0.00e+00	0	43	104	0	13	4197
2026-01-16 10:26:02.39	334.87	71.65	-26.1	-26.9	17.3	0.00e+00	0	43	104	0	13	3945
2026-01-16 10:26:03.39	335.03	71.18	-26.4	-27.5	16.9	0.00e+00	0	43	104	0	13	4111
2026-01-16 10:26:04.39	335.19	70.71	-26.8	-28.5	16.4	0.00e+00	0	43	104	0	13	4368
2026-01-16 10:26:05.39	335.34	70.25	-27.3	-29.1	15.8	0.00e+00	0	43	104	0	14	4438
2026-01-16 10:26:06.39	335.49	69.79	-27.6	-29.3	15.4	0.00e+00	0	43	104	0	15	4393
2026-01-16 10:26:07.39	335.62	69.33	-27.7	-29.5	15.3	0.00e+00	0	43	104	0	15	4444
2026-01-16 10:26:08.39	335.75	68.87	-27.6	-29.3	15.4	0.00e+00	0	43	104	0	15	4394
2026-01-16 10:26:09.39	335.88	68.41	-26.9	-27.7	16.2	0.00e+00	0	43	104	0	15	3955
2026-01-16 10:26:10.40	336.00	67.96	-26.4	-27.1	16.8	0.00e+00	0	43	104	0	14	3914
2026-01-16 10:26:11.41	336.11	67.50	-26.1	-27.0	17.2	0.00e+00	0	43	104	0	13	3990
2026-01-16 10:26:12.41	336.22	67.05	-26.4	-27.6	16.8	1.50e-06	0	43	104	0	13	4136
2026-01-16 10:26:13.41	336.33	66.61	-26.5	-27.8	16.7	0.00e+00	0	43	104	0	13	4201
2026-01-16 10:26:14.42	336.43	66.16	-26.2	-27.0	17.1	0.00e+00	0	43	104	0	13	3992
2026-01-16 10:26:15.41	336.53	65.72	-25.7	-26.7	17.5	0.00e+00	0	43	104	0	12	4007
2026-01-16 10:26:16.42	336.62	65.28	-25.7	-26.5	17.6	0.00e+00	0	43	104	0	12	3978
2026-01-16 10:26:17.42	336.71	64.84	-25.5	-26.2	17.8	0.00e+00	0	43	104	0	12	3885
2026-01-16 10:26:18.42	336.80	64.41	-25.9	-27.1	17.3	0.00e+00	0	43	104	0	12	4126
2026-01-16 10:26:19.42	336.88	63.98	-26.3	-28.0	16.9	0.00e+00	0	43	104	0	12	4358
2026-01-16 10:26:20.42	336.96	63.55	-26.5	-28.3	16.7	0.00e+00	0	43	104	0	12	4435
2026-01-16 10:26:21.43	337.04	63.12	-27.0	-28.6	16.0	0.00e+00	0	43	104	0	14	4287
2026-01-16 10:26:22.43	337.12	62.69	-27.1	-28.7	15.9	0.00e+00	0	43	104	0	14	4318
2026-01-16 10:26:23.43	337.19	62.27	-27.0	-28.6	16.0	0.00e+00	0	43	104	0	14	4280
2026-01-16 10:26:24.44	337.26	61.85	-26.8	-28.1	16.2	0.00e+00	0	43	104	0	14	4152
2026-01-16 10:26:25.44	337.33	61.43	-26.8	-28.0	16.3	0.00e+00	0	43	104	0	14	4141
2026-01-16 10:26:26.44	337.40	61.02	-27.4	-29.4	15.6	0.00e+00	0	43	104	0	14	4526
2026-01-16 10:26:27.45	337.46	60.60	-27.8	-29.9	14.9	0.00e+00	0	43	104	0	15	4552
2026-01-16 10:26:28.45	337.52	60.19	-28.2	-30.3	14.6	7.00e-07	0	43	104	0	16	4552
2026-01-16 10:26:29.45	337.58	59.79	-27.8	-29.3	15.1	0.00e+00	0	43	104	0	16	4272
2026-01-16 10:26:30.45	337.64	59.39	-27.0	-28.0	16.0	0.00e+00	0	43	104	0	15	4022
2026-01-16 10:26:31.45	337.70	58.99	-27.0	-28.0	15.9	0.00e+00	0	43	104	0	15	4017
2026-01-16 10:26:32.46	337.75	58.58	-27.2	-28.5	15.7	0.00e+00	0	43	104	0	15	4155
2026-01-16 10:26:33.47	337.81	58.18	-27.0	-27.9	16.0	0.00e+00	0	43	104	0	15	4004
2026-01-16 10:26:34.47	337.86	57.79	-26.8	-28.0	16.3	0.00e+00	0	43	104	0	14	4119
2026-01-16 10:26:35.48	337.91	57.40	-27.0	-28.5	16.0	0.00e+00	0	43	104	0	14	4262
2026-01-16 10:26:36.48	337.96	57.01	-27.5	-29.5	15.4	0.00e+00	0	43	104	0	14	4557
2026-01-16 10:26:37.49	338.01	56.62	-28.3	-30.4	14.4	7.00e-07	0	43	104	0	16	4590
2026-01-16 10:26:38.49	338.06	56.24	-28.7	-30.7	14.0	0.00e+00	0	43	104	0	17	4569
2026-01-16 10:26:39.50	338.10	55.86	-29.3	-31.8	13.1	2.13e-05	0	43	104	0	18	4796
2026-01-16 10:26:40.49	338.15	55.48	-29.6	-31.9	12.7	5.41e-05	0	43	104	0	19	4720
2026-01-16 10:26:41.49	338.19	55.11	-29.4	-31.6	12.9	3.89e-05	0	43	104	0	19	4619
2026-01-16 10:26:42.49	338.23	54.74	-29.4	-31.6	12.9	5.03e-05	0	43	104	0	19	4619
2026-01-16 10:26:43.50	338.28	54.36	-29.3	-31.4	13.1	3.73e-05	0	43	104	0	19	4557
2026-01-16 10:26:44.50	338.32	54.00	-29.2	-31.0	13.3	1.22e-05	0	43	104	0	19	4422
2026-01-16 10:26:45.50	338.36	53.63	-29.0	-30.6	13.5	9.10e-06	0	43	104	0	19	4316
2026-01-16 10:26:46.50	338.40	53.27	-29.1	-30.7	13.5	9.10e-06	0	43	104	0	19	4342
2026-01-16 10:26:47.51	338.43	52.91	-29.1	-30.8	13.4	1.06e-05	0	43	104	0	19	4383
2026-01-16 10:26:48.51	338.47	52.56	-29.1	-30.9	13.4	2.51e-05	0	43	104	0	19	4395
2026-01-16 10:26:49.51	338.51	52.20	-29.1	-30.9	13.4	1.29e-05	0	43	104	0	19	4399
2026-01-16 10:26:50.51	338.54	51.85	-29.4	-31.5	13.0	2.59e-05	0	43	104	0	19	4595
2026-01-16 10:26:51.52	338.58	51.50	-29.9	-32.8	12.1	2.01e-04	0	43	104	0	19	5032
2026-01-16 10:26:52.52	338.61	51.15	-29.9	-32.7	12.2	1.64e-04	0	43	104	0	19	4969
2026-01-16 10:26:53.53	338.65	50.81	-29.7	-32.4	12.4	2.20e-04	0	43	104	0	19	4866
2026-01-16 10:26:54.53	338.68	50.47	-29.1	-30.7	13.4	3.73e-05	0	43	104	0	19	4347
2026-01-16 10:26:55.53	338.71	50.13	-28.7	-30.2	14.0	5.30e-06	0	43	104	0	18	4307
2026-01-16 10:26:56.53	338.74	49.79	-28.4	-29.6	14.4	0.00e+00	0	43	104	0	18	4144
2026-01-16 10:26:57.53	338.77	49.46	-28.5	-29.8	14.3	3.00e-06	0	43	104	0	18	4180
2026-01-16 10:26:58.53	338.80	49.13	-28.6	-30.1	14.1	2.20e-06	0	43	104	0	18	4277
2026-01-16 10:26:59.54	338.84	48.80	-28.8	-30.6	13.8	4.50e-06	0	43	104	0	18	4415
2026-01-16 10:27:00.54	338.86	48.47	-28.8	-30.6	13.7	5.30e-06	0	43	104	0	18	4427
2026-01-16 10:27:01.54	338.89	48.15	-29.0	-31.1	13.5	9.90e-06	0	43	104	0	18	4580
2026-01-16 10:27:02.55	338.92	47.82	-29.3	-31.7	13.1	3.20e-05	0	43	104	0	18	4778
2026-01-16 10:27:03.55	338.95	47.50	-29.3	-31.7	13.0	3.58e-05	0	43	104	0	18	4777
2026-01-16 10:27:04.56	338.98	47.18	-29.2	-31.6	13.1	4.19e-05	0	43	104	0	18	4728
2026-01-16 10:27:05.55	339.00	46.87	-29.3	-31.7	13.1	2.36e-05	0	43	104	0	18	4775
2026-01-16 10:27:06.55	339.03	46.56	-29.4	-32.0	12.9	3.28e-05	0	43	104	0	18	4860
2026-01-16 10:27:07.56	339.06	46.25	-29.3	-31.8	12.9	4.11e-05	0	43	104	0	18	4802
2026-01-16 10:27:08.55	339.08	45.95	-29.5	-32.2	12.7	6.10e-05	0	43	104	0	18	4950
2026-01-16 10:27:09.55	339.11	45.64	-29.8	-32.4	12.2	1.26e-04	0	43	104	0	19	4899
2026-01-16 10:27:10.56	339.13	45.34	-29.9	-32.3	11.9	4.55e-04	0	43	104	0	20	4769
2026-01-16 10:27:11.55	339.15	45.04	-30.1	-32.9	11.7	5.35e-04	0	43	104	0	20	4966
2026-01-16 10:27:12.56	339.18	44.74	-30.1	-32.9	11.6	8.27e-04	0	43	104	0	20	4984
2026-01-16 10:27:13.56	339.20	44.44	-30.1	-32.9	11.6	6.37e-04	0	43	104	0	20	4974
2026-01-16 10:27:14.56	339.23	44.15	-30.0	-32.7	11.8	6.38e-04	0	43	104	0	20	4890
2026-01-16 10:27:15.56	339.25	43.86	-30.0	-32.7	11.8	4.15e-04	0	43	104	0	20	4892
2026-01-16 10:27:16.56	339.27	43.57	-29.8	-32.0	12.2	3.05e-04	0	43	104	0	20	4641
2026-01-16 10:27:17.55	339.29	43.28	-29.5	-31.4	12.6	1.36e-04	0	43	104	0	20	4457
2026-01-16 10:27:18.55	339.31	43.00	-29.2	-31.0	13.2	2.82e-05	0	43	104	0	19	4448
2026-01-16 10:27:19.55	339.34	42.72	-29.0	-30.6	13.4	1.14e-05	0	43	104	0	19	4334
2026-01-16 10:27:20.55	339.36	42.44	-29.2	-31.1	13.2	1.52e-05	0	43	104	0	19	4462
2026-01-16 10:27:21.55	339.38	42.16	-29.2	-31.0	13.1	3.35e-05	0	43	104	0	19	4432
2026-01-16 10:27:22.55	339.40	41.88	-29.1	-30.8	13.1	3.43e-05	0	43	104	0	19	4391
2026-01-16 10:27:23.55	339.42	41.61	-28.9	-30.4	13.3	2.05e-05	0	43	104	0	19	4271
2026-01-16 10:27:24.56	339.44	41.33	-29.0	-30.7	13.3	1.83e-05	0	43	104	0	19	4347
2026-01-16 10:27:25.56	339.46	41.06	-29.2	-31.0	13.1	2.59e-05	0	43	104	0	19	4433
2026-01-16 10:27:26.56	339.48	40.79	-29.2	-31.2	13.1	2.97e-05	0	43	104	0	19	4499
2026-01-16 10:27:27.56	339.50	40.53	-29.1	-30.9	13.2	3.20e-05	0	43	104	0	19	4407
2026-01-16 10:27:28.56	339.52	40.26	-29.1	-30.8	13.3	2.36e-05	0	43	104	0	19	4369
2026-01-16 10:27:29.56	339.53	40.00	-29.1	-30.9	13.2	2.74e-05	0	43	104	0	19	4404
2026-01-16 10:27:30.56	339.55	39.74	-29.2	-31.0	13.2	2.59e-05	0	43	104	0	19	4438
2026-01-16 10:27:31.57	339.57	39.48	-29.2	-31.1	13.1	2.44e-05	0	43	104	0	19	4472
2026-01-16 10:27:32.57	339.59	39.22	-29.1	-30.9	13.2	1.75e-05	0	43	104	0	19	4402
2026-01-16 10:27:33.57	339.61	38.97	-28.9	-30.4	13.5	1.14e-05	0	43	104	0	19	4260
2026-01-16 10:27:34.57	339.63	38.72	-28.8	-30.1	13.7	3.80e-06	0	43	104	0	19	4174
2026-01-16 10:27:35.56	339.64	38.47	-28.9	-30.2	13.6	8.30e-06	0	43	104	0	19	4211
2026-01-16 10:27:36.57	339.66	38.22	-28.8	-30.1	13.7	9.90e-06	0	43	104	0	19	4189
2026-01-16 10:27:37.58	339.68	37.97	-28.7	-30.4	13.8	3.80e-06	0	43	104	0	18	4357
2026-01-16 10:27:38.58	339.69	37.72	-28.7	-30.3	13.9	1.50e-06	0	43	104	0	18	4334
2026-01-16 10:27:39.58	339.71	37.48	-28.5	-29.8	14.1	7.60e-06	0	43	104	0	18	4208
2026-01-16 10:27:40.58	339.73	37.24	-28.4	-29.7	14.2	1.50e-06	0	43	104	0	18	4179
2026-01-16 10:27:41.58	339.74	37.00	-28.5	-29.8	14.1	3.00e-06	0	43	104	0	18	4208
2026-01-16 10:27:42.58	339.76	36.76	-28.7	-30.3	13.8	2.20e-06	0	43	104	0	18	4343
2026-01-16 10:27:43.59	339.77	36.52	-28.8	-30.5	13.7	7.60e-06	0	43	104	0	18	4412
2026-01-16 10:27:44.59	339.79	36.29	-29.0	-31.1	13.4	1.06e-05	0	43	104	0	18	4579
2026-01-16 10:27:45.59	339.81	36.05	-29.2	-31.7	13.1	2.89e-05	0	43	104	0	18	4765
2026-01-16 10:27:46.59	339.82	35.82	-29.2	-31.5	13.1	4.19e-05	0	43	104	0	18	4725
2026-01-16 10:27:47.59	339.84	35.59	-28.9	-30.8	13.6	9.10e-06	0	43	104	0	18	4478
2026-01-16 10:27:48.59	339.85	35.36	-28.8	-30.7	13.6	7.60e-06	0	43	104	0	18	4458
2026-01-16 10:27:49.59	339.87	35.14	-28.8	-30.5	13.7	6.80e-06	0	43	104	0	18	4417
2026-01-16 10:27:50.60	339.88	34.91	-28.8	-30.7	13.6	1.29e-05	0	43	104	0	18	4464
2026-01-16 10:27:51.60	339.90	34.69	-28.8	-30.7	13.6	9.10e-06	0	43	104	0	18	4469
2026-01-16 10:27:52.61	339.91	34.46	-29.0	-31.0	13.4	1.44e-05	0	43	104	0	18	4562
2026-01-16 10:27:53.62	339.93	34.24	-28.9	-30.9	13.5	1.52e-05	0	43	104	0	18	4531
2026-01-16 10:27:54.63	339.94	34.02	-28.8	-30.7	13.6	1.60e-05	0	43	104	0	18	4477
2026-01-16 10:27:55.62	339.95	33.81	-28.8	-30.6	13.6	9.10e-06	0	43	104	0	18	4439
2026-01-16 10:27:56.62	339.97	33.59	-28.7	-30.5	13.7	7.60e-06	0	43	104	0	18	4417
2026-01-16 10:27:57.63	339.98	33.38	-28.8	-30.7	13.6	6.80e-06	0	43	104	0	18	4457
2026-01-16 10:27:58.63	339.99	33.16	-28.7	-30.3	13.8	2.20e-06	0	43	104	0	18	4345
2026-01-16 10:27:59.63	340.01	32.95	-28.1	-29.4	14.6	3.80e-06	0	43	104	0	17	4203
2026-01-16 10:28:00.62	340.02	32.74	-27.8	-28.8	14.9	0.00e+00	0	43	104	0	17	4043
2026-01-16 10:28:01.63	340.03	32.53	-27.7	-29.2	15.0	0.00e+00	0	43	104	0	16	4239
2026-01-16 10:28:02.63	340.05	32.33	-27.6	-28.9	15.2	0.00e+00	0	43	104	0	16	4159
2026-01-16 10:28:03.63	340.06	32.12	-27.7	-29.0	15.1	0.00e+00	0	43	104	0	16	4191
2026-01-16 10:28:04.63	340.07	31.92	-27.6	-28.9	15.2	0.00e+00	0	43	104	0	16	4167
2026-01-16 10:28:05.63	340.09	31.72	-27.5	-28.6	15.3	0.00e+00	0	43	104	0	16	4090
2026-01-16 10:28:06.63	340.10	31.52	-27.6	-28.8	15.2	0.00e+00	0	43	104	0	16	4141
2026-01-16 10:28:07.63	340.11	31.32	-27.5	-28.7	15.3	0.00e+00	0	43	104	0	16	4112
2026-01-16 10:28:08.63	340.12	31.12	-27.6	-28.8	15.2	0.00e+00	0	43	104	0	16	4131
2026-01-16 10:28:09.64	340.14	30.92	-27.6	-28.9	15.1	0.00e+00	0	43	104	0	16	4162
2026-01-16 10:28:10.64	340.15	30.72	-27.7	-29.2	14.9	0.00e+00	0	43	104	0	16	4253
2026-01-16 10:28:11.64	340.16	30.53	-27.7	-29.1	15.0	7.00e-07	0	43	104	0	16	4233
2026-01-16 10:28:12.65	340.17	30.34	-27.7	-29.2	14.9	0.00e+00	0	43	104	0	16	4253
2026-01-16 10:28:13.65	340.19	30.14	-27.7	-29.1	15.0	0.00e+00	0	43	104	0	16	4220
2026-01-16 10:28:14.65	340.20	29.95	-27.8	-29.2	14.9	0.00e+00	0	43	104	0	16	4255
2026-01-16 10:28:15.65	340.21	29.76	-27.7	-29.1	14.9	0.00e+00	0	43	104	0	16	4243
2026-01-16 10:28:16.64	340.22	29.58	-27.7	-29.1	15.0	0.00e+00	0	43	104	0	16	4231
2026-01-16 10:28:17.65	340.23	29.39	-27.8	-29.2	14.9	0.00e+00	0	43	104	0	16	4270
2026-01-16 10:28:18.65	340.24	29.20	-27.9	-29.6	14.7	0.00e+00	0	43	104	0	16	4363
2026-01-16 10:28:19.65	340.26	29.02	-27.8	-29.4	14.8	0.00e+00	0	43	104	0	16	4310
2026-01-16 10:28:20.65	340.27	28.84	-27.7	-29.2	14.9	7.00e-07	0	43	104	0	16	4255
2026-01-16 10:28:21.65	340.28	28.66	-27.8	-29.3	14.8	7.00e-07	0	43	104	0	16	4288
2026-01-16 10:28:22.66	340.29	28.47	-27.8	-29.4	14.8	7.00e-07	0	43	104	0	16	4304
2026-01-16 10:28:23.66	340.30	28.29	-27.9	-29.6	14.6	0.00e+00	0	43	104	0	16	4374
2026-01-16 10:28:24.66	340.31	28.12	-27.9	-29.6	14.6	7.00e-07	0	43	104	0	16	4379
2026-01-16 10:28:25.67	340.32	27.94	-27.9	-29.5	14.7	3.00e-06	0	43	104	0	16	4335
2026-01-16 10:28:26.67	340.33	27.76	-28.0	-29.7	14.6	7.00e-07	0	43	104	0	16	4401
2026-01-16 10:28:27.67	340.34	27.59	-27.8	-29.4	14.8	0.00e+00	0	43	104	0	16	4304
2026-01-16 10:28:28.67	340.36	27.41	-27.4	-28.5	15.3	0.00e+00	0	43	104	0	16	4054
2026-01-16 10:28:29.67	340.37	27.24	-27.0	-27.9	15.7	0.00e+00	0	43	104	0	15	4031
2026-01-16 10:28:30.67	340.38	27.07	-26.7	-27.9	16.0	0.00e+00	0	43	104	0	14	4127
2026-01-16 10:28:31.67	340.39	26.90	-26.6	-27.7	16.1	0.00e+00	0	43	104	0	14	4075
2026-01-16 10:28:32.67	340.40	26.73	-26.6	-27.6	16.1	0.00e+00	0	43	104	0	14	4049
2026-01-16 10:28:33.68	340.41	26.56	-26.6	-27.7	16.1	0.00e+00	0	43	104	0	14	4060
2026-01-16 10:28:34.68	340.42	26.39	-26.6	-27.6	16.1	0.00e+00	0	43	104	0	14	4053
2026-01-16 10:28:35.68	340.43	26.23	-26.6	-27.6	16.1	0.00e+00	0	43	104	0	14	4050
2026-01-16 10:28:36.68	340.44	26.06	-26.6	-27.7	16.1	0.00e+00	0	43	104	0	14	4070
2026-01-16 10:28:37.67	340.45	25.90	-26.6	-27.6	16.1	0.00e+00	0	43	104	0	14	4043
2026-01-16 10:28:38.68	340.46	25.73	-26.5	-27.4	16.2	0.00e+00	0	43	104	0	14	3995
2026-01-16 10:28:39.68	340.47	25.57	-26.6	-27.7	16.1	0.00e+00	0	43	104	0	14	4072
2026-01-16 10:28:40.68	340.48	25.41	-26.7	-27.8	16.0	0.00e+00	0	43	104	0	14	4093
2026-01-16 10:28:41.68	340.49	25.25	-26.5	-27.4	16.2	0.00e+00	0	43	104	0	14	4002
2026-01-16 10:28:42.69	340.50	25.09	-26.4	-27.2	16.3	0.00e+00	0	43	104	0	14	3941
2026-01-16 10:28:43.69	340.51	24.93	-26.5	-27.5	16.2	0.00e+00	0	43	104	0	14	4013
2026-01-16 10:28:44.69	340.52	24.77	-26.6	-27.7	16.1	0.00e+00	0	43	104	0	14	4073
2026-01-16 10:28:45.70	340.53	24.61	-26.7	-27.9	15.9	0.00e+00	0	43	104	0	14	4127
2026-01-16 10:28:46.70	340.54	24.46	-26.7	-27.8	16.0	0.00e+00	0	43	104	0	14	4112
2026-01-16 10:28:47.71	340.55	24.30	-26.6	-27.7	16.0	0.00e+00	0	43	104	0	14	4077
2026-01-16 10:28:48.70	340.56	24.15	-26.6	-27.7	16.0	0.00e+00	0	43	104	0	14	4074
2026-01-16 10:28:49.70	340.57	24.00	-26.7	-27.8	16.0	0.00e+00	0	43	104	0	14	4105
2026-01-16 10:28:50.71	340.58	23.85	-26.6	-27.7	16.0	0.00e+00	0	43	104	0	14	4068
2026-01-16 10:28:51.71	340.58	23.69	-26.4	-27.2	16.3	0.00e+00	0	43	104	0	14	3951
2026-01-16 10:28:52.71	340.59	23.54	-26.4	-27.2	16.3	0.00e+00	0	43	104	0	14	3951
2026-01-16 10:28:53.71	340.60	23.40	-26.4	-27.2	16.3	0.00e+00	0	43	104	0	14	3935
2026-01-16 10:28:54.71	340.61	23.25	-26.3	-27.0	16.4	0.00e+00	0	43	104	0	14	3903
2026-01-16 10:28:55.71	340.62	23.10	-26.3	-27.0	16.4	0.00e+00	0	43	104	0	14	3895
2026-01-16 10:28:56.72	340.63	22.95	-26.4	-27.1	16.3	0.00e+00	0	43	104	0	14	3928
2026-01-16 10:28:57.73	340.64	22.80	-26.4	-27.1	16.3	0.00e+00	0	43	104	0	14	3929
2026-01-16 10:28:58.73	340.65	22.66	-26.4	-27.2	16.3	0.00e+00	0	43	104	0	14	3932
2026-01-16 10:28:59.74	340.66	22.51	-26.4	-27.3	16.2	0.00e+00	0	43	104	0	14	3970
2026-01-16 10:29:00.74	340.67	22.37	-26.5	-27.5	16.1	0.00e+00	0	43	104	0	14	4010
2026-01-16 10:29:01.74	340.68	22.23	-26.5	-27.5	16.1	0.00e+00	0	43	104	0	14	4011
2026-01-16 10:29:02.74	340.68	22.09	-26.6	-27.7	16.0	0.00e+00	0	43	104	0	14	4073
2026-01-16 10:29:03.73	340.69	21.95	-26.7	-27.8	15.9	0.00e+00	0	43	104	0	14	4111
2026-01-16 10:29:04.74	340.70	21.80	-26.8	-28.0	15.8	0.00e+00	0	43	104	0	14	4150
2026-01-16 10:29:05.74	340.71	21.67	-26.8	-28.2	15.7	0.00e+00	0	43	104	0	14	4207
2026-01-16 10:29:06.74	340.72	21.53	-26.8	-28.1	15.7	0.00e+00	0	43	104	0	14	4186
2026-01-16 10:29:07.74	340.73	21.39	-27.0	-28.6	15.5	0.00e+00	0	43	104	0	14	4316
2026-01-16 10:29:08.74	340.74	21.25	-27.1	-28.7	15.4	7.00e-07	0	43	104	0	14	4353
2026-01-16 10:29:09.74	340.74	21.12	-27.2	-28.9	15.3	0.00e+00	0	43	104	0	14	4406
2026-01-16 10:29:10.75	340.75	20.98	-27.3	-29.2	15.2	0.00e+00	0	43	104	0	14	4479
2026-01-16 10:29:11.75	340.76	20.84	-27.2	-29.0	15.2	0.00e+00	0	43	104	0	14	4438
2026-01-16 10:29:12.76	340.77	20.71	-27.3	-29.3	15.1	0.00e+00	0	43	104	0	14	4523
2026-01-16 10:29:13.76	340.78	20.57	-27.3	-29.4	15.0	0.00e+00	0	43	104	0	14	4541
2026-01-16 10:29:14.76	340.79	20.44	-27.3	-29.2	15.1	0.00e+00	0	43	104	0	14	4499
2026-01-16 10:29:15.76	340.80	20.31	-27.3	-29.3	15.1	7.00e-07	0	43	104	0	14	4508
2026-01-16 10:29:16.77	340.80	20.18	-27.5	-29.6	14.9	0.00e+00	0	43	104	0	14	4613
2026-01-16 10:29:17.77	340.81	20.05	-27.6	-29.5	14.6	0.00e+00	0	43	104	0	15	4482
2026-01-16 10:29:18.77	340.82	19.92	-27.9	-30.2	14.3	3.00e-06	0	43	104	0	15	4660
2026-01-16 10:29:19.78	340.83	19.79	-28.1	-30.1	14.2	3.80e-06	0	43	104	0	16	4524
2026-01-16 10:29:20.78	340.84	19.66	-27.8	-29.4	14.6	0.00e+00	0	43	104	0	16	4319
2026-01-16 10:29:21.78	340.84	19.53	-27.6	-28.8	14.9	0.00e+00	0	43	104	0	16	4161
2026-01-16 10:29:22.78	340.85	19.40	-27.5	-28.7	14.9	0.00e+00	0	43	104	0	16	4143
2026-01-16 10:29:23.79	340.86	19.27	-27.5	-28.6	15.0	0.00e+00	0	43	104	0	16	4112
2026-01-16 10:29:24.79	340.87	19.15	-27.8	-29.3	14.6	0.00e+00	0	43	104	0	16	4297
2026-01-16 10:29:25.79	340.88	19.02	-27.6	-28.9	14.9	7.00e-07	0	43	104	0	16	4178
2026-01-16 10:29:26.79	340.88	18.90	-27.3	-28.3	15.2	0.00e+00	0	43	104	0	16	4013
2026-01-16 10:29:27.80	340.89	18.77	-27.1	-28.2	15.3	0.00e+00	0	43	104	0	15	4115
2026-01-16 10:29:28.81	340.90	18.65	-27.2	-28.4	15.2	0.00e+00	0	43	104	0	15	4168
2026-01-16 10:29:29.81	340.91	18.52	-27.1	-28.3	15.3	0.00e+00	0	43	104	0	15	4132
2026-01-16 10:29:30.81	340.92	18.40	-27.1	-28.4	15.2	0.00e+00	0	43	104	0	15	4149
2026-01-16 10:29:31.82	340.92	18.28	-27.2	-28.5	15.2	0.00e+00	0	43	104	0	15	4175
2026-01-16 10:29:32.82	340.93	18.16	-27.1	-28.4	15.2	0.00e+00	0	43	104	0	15	4164
2026-01-16 10:29:33.81	340.94	18.04	-27.3	-28.9	14.9	0.00e+00	0	43	104	0	15	4291
2026-01-16 10:29:34.81	340.95	17.92	-27.4	-28.9	14.9	0.00e+00	0	43	104	0	15	4312
2026-01-16 10:29:35.81	340.95	17.80	-27.5	-29.3	14.7	0.00e+00	0	43	104	0	15	4399
2026-01-16 10:29:36.81	340.96	17.68	-27.5	-29.3	14.7	7.00e-07	0	43	104	0	15	4422
2026-01-16 10:29:37.82	340.97	17.56	-27.6	-29.4	14.7	0.00e+00	0	43	104	0	15	4439
2026-01-16 10:29:38.82	340.98	17.44	-27.6	-29.5	14.6	0.00e+00	0	43	104	0	15	4472
2026-01-16 10:29:39.82	340.99	17.33	-27.6	-29.6	14.5	1.50e-06	0	43	104	0	15	4491
2026-01-16 10:29:40.82	340.99	17.21	-27.6	-29.5	14.6	0.00e+00	0	43	104	0	15	4462
2026-01-16 10:29:41.82	341.00	17.10	-27.6	-29.4	14.6	0.00e+00	0	43	104	0	15	4454
2026-01-16 10:29:42.82	341.01	16.98	-27.8	-29.9	14.4	7.00e-07	0	43	104	0	15	4579
2026-01-16 10:29:43.82	341.02	16.87	-27.7	-29.6	14.5	1.50e-06	0	43	104	0	15	4509
2026-01-16 10:29:44.82	341.02	16.75	-27.5	-29.2	14.7	0.00e+00	0	43	104	0	15	4392
2026-01-16 10:29:45.82	341.03	16.64	-27.4	-29.1	14.8	0.00e+00	0	43	104	0	15	4352
2026-01-16 10:29:46.82	341.04	16.52	-27.3	-28.7	14.9	7.00e-07	0	43	104	0	15	4258
2026-01-16 10:29:47.82	341.04	16.41	-27.3	-28.7	15.0	7.00e-07	0	43	104	0	15	4257
2026-01-16 10:29:48.83	341.05	16.30	-27.3	-28.9	14.9	0.00e+00	0	43	104	0	15	4298
2026-01-16 10:29:49.84	341.06	16.19	-27.4	-29.0	14.8	0.00e+00	0	43	104	0	15	4334
2026-01-16 10:29:50.84	341.07	16.07	-27.4	-29.1	14.8	0.00e+00	0	43	104	0	15	4356
2026-01-16 10:29:51.85	341.07	15.96	-27.5	-29.2	14.7	0.00e+00	0	43	104	0	15	4382
2026-01-16 10:29:52.85	341.08	15.85	-27.5	-29.2	14.6	0.00e+00	0	43	104	0	15	4401
2026-01-16 10:29:53.85	341.09	15.74	-27.5	-29.4	14.6	0.00e+00	0	43	104	0	15	4440
2026-01-16 10:29:54.86	341.10	15.63	-27.6	-29.6	14.4	7.00e-07	0	43	104	0	15	4499
2026-01-16 10:29:55.86	341.10	15.52	-27.4	-29.1	14.7	0.00e+00	0	43	104	0	15	4351
2026-01-16 10:29:56.87	341.11	15.41	-27.6	-29.4	14.5	0.00e+00	0	43	104	0	15	4449
2026-01-16 10:29:57.87	341.12	15.31	-27.6	-29.6	14.4	0.00e+00	0	43	104	0	15	4501
2026-01-16 10:29:58.88	341.12	15.20	-27.6	-29.4	14.5	0.00e+00	0	43	104	0	15	4457
2026-01-16 10:29:59.88	341.13	15.09	-27.6	-29.6	14.4	7.00e-07	0	43	104	0	15	4500
2026-01-16 10:30:00.89	341.14	14.98	-27.8	-29.9	14.2	7.00e-07	0	43	104	0	15	4596
2026-01-16 10:30:01.89	341.15	14.88	-27.7	-29.8	14.2	0.00e+00	0	43	104	0	15	4588
2026-01-16 10:30:02.90	341.15	14.77	-27.9	-30.2	14.0	2.20e-06	0	43	104	0	15	4694
2026-01-16 10:30:03.90	341.16	14.67	-27.8	-29.9	14.2	1.50e-06	0	43	104	0	15	4600
2026-01-16 10:30:04.91	341.17	14.56	-27.8	-30.0	14.1	0.00e+00	0	43	104	0	15	4647
2026-01-16 10:30:05.91	341.17	14.46	-27.8	-30.0	14.1	3.00e-06	0	43	104	0	15	4644
2026-01-16 10:30:06.91	341.18	14.36	-27.6	-29.6	14.3	7.00e-07	0	43	104	0	15	4517
2026-01-16 10:30:07.91	341.19	14.25	-27.8	-29.9	14.2	2.20e-06	0	43	104	0	15	4601
2026-01-16 10:30:08.90	341.19	14.15	-27.8	-29.8	14.2	1.50e-06	0	43	104	0	15	4583
2026-01-16 10:30:09.90	341.20	14.05	-27.9	-30.1	14.1	7.00e-07	0	43	104	0	15	4668
2026-01-16 10:30:10.90	341.21	13.95	-27.9	-30.3	13.9	3.00e-06	0	43	104	0	15	4720
2026-01-16 10:30:11.90	341.22	13.85	-28.0	-29.9	14.1	3.00e-06	0	43	104	0	16	4487
2026-01-16 10:30:12.91	341.22	13.74	-28.0	-29.9	14.1	5.30e-06	0	43	104	0	16	4471
2026-01-16 10:30:13.91	341.23	13.64	-27.9	-29.7	14.1	7.00e-07	0	43	104	0	16	4425
2026-01-16 10:30:14.92	341.24	13.54	-27.8	-29.5	14.3	7.00e-07	0	43	104	0	16	4376
2026-01-16 10:30:15.92	341.24	13.44	-27.9	-29.8	14.1	3.80e-06	0	43	104	0	16	4450
2026-01-16 10:30:16.91	341.25	13.34	-28.0	-29.9	14.1	7.00e-07	0	43	104	0	16	4469
2026-01-16 10:30:17.91	341.26	13.24	-27.8	-29.5	14.2	1.50e-06	0	43	104	0	16	4370
2026-01-16 10:30:18.92	341.26	13.15	-27.8	-29.4	14.3	0.00e+00	0	43	104	0	16	4353
2026-01-16 10:30:19.92	341.27	13.05	-27.9	-29.7	14.1	1.50e-06	0	43	104	0	16	4431
2026-01-16 10:30:20.92	341.28	12.95	-27.8	-29.5	14.2	3.00e-06	0	43	104	0	16	4372
2026-01-16 10:30:21.92	341.28	12.85	-27.9	-29.7	14.1	5.30e-06	0	43	104	0	16	4423
2026-01-16 10:30:22.93	341.29	12.75	-27.8	-29.5	14.2	1.50e-06	0	43	104	0	16	4368
2026-01-16 10:30:23.93	341.30	12.66	-27.8	-29.5	14.2	3.80e-06	0	43	104	0	16	4370
2026-01-16 10:30:24.93	341.30	12.56	-27.9	-29.7	14.1	7.00e-07	0	43	104	0	16	4415
2026-01-16 10:30:25.94	341.31	12.47	-27.8	-29.6	14.2	1.50e-06	0	43	104	0	16	4398
2026-01-16 10:30:26.93	341.32	12.37	-27.9	-29.7	14.1	2.20e-06	0	43	104	0	16	4430
2026-01-16 10:30:27.93	341.32	12.28	-27.9	-29.6	14.1	1.50e-06	0	43	104	0	16	4412
2026-01-16 10:30:28.93	341.33	12.18	-27.9	-29.8	14.0	2.20e-06	0	43	104	0	16	4459
2026-01-16 10:30:29.93	341.34	12.09	-27.8	-29.6	14.1	1.50e-06	0	43	104	0	16	4389
2026-01-16 10:30:30.93	341.34	11.99	-28.0	-30.0	13.9	3.00e-06	0	43	104	0	16	4510
2026-01-16 10:30:31.92	341.35	11.90	-27.9	-29.8	14.0	1.50e-06	0	43	104	0	16	4449
2026-01-16 10:30:32.93	341.36	11.81	-27.9	-29.7	14.1	1.50e-06	0	43	104	0	16	4420
2026-01-16 10:30:33.93	341.36	11.71	-27.9	-29.7	14.1	2.20e-06	0	43	104	0	16	4413
2026-01-16 10:30:34.94	341.37	11.62	-28.0	-29.9	13.9	4.50e-06	0	43	104	0	16	4489
2026-01-16 10:30:35.94	341.38	11.53	-27.9	-29.8	14.0	2.20e-06	0	43	104	0	16	4450
2026-01-16 10:30:36.94	341.38	11.44	-28.0	-29.8	14.0	7.00e-07	0	43	104	0	16	4468
2026-01-16 10:30:37.95	341.39	11.34	-28.0	-29.8	13.9	3.00e-06	0	43	104	0	16	4469
2026-01-16 10:30:38.95	341.39	11.25	-27.9	-29.6	14.1	1.50e-06	0	43	104	0	16	4410
2026-01-16 10:30:39.96	341.40	11.16	-28.0	-29.8	14.0	2.20e-06	0	43	104	0	16	4477
2026-01-16 10:30:40.96	341.41	11.07	-28.0	-29.9	13.9	4.50e-06	0	43	104	0	16	4493
2026-01-16 10:30:41.97	341.41	10.98	-27.8	-29.5	14.1	1.50e-06	0	43	104	0	16	4375
2026-01-16 10:30:42.97	341.42	10.89	-27.9	-29.6	14.1	1.50e-06	0	43	104	0	16	4415
2026-01-16 10:30:43.96	341.43	10.80	-28.0	-29.9	13.9	5.30e-06	0	43	104	0	16	4495
2026-01-16 10:30:44.97	341.43	10.71	-27.9	-29.7	14.0	3.80e-06	0	43	104	0	16	4434
2026-01-16 10:30:45.97	341.44	10.62	-28.0	-29.9	13.9	4.50e-06	0	43	104	0	16	4506
2026-01-16 10:30:46.96	341.45	10.54	-27.9	-29.7	14.0	3.00e-06	0	43	104	0	16	4441
2026-01-16 10:30:47.96	341.45	10.45	-28.0	-30.0	13.8	4.50e-06	0	43	104	0	16	4513
2026-01-16 10:30:48.96	341.46	10.36	-27.9	-29.7	14.0	3.00e-06	0	43	104	0	16	4437
2026-01-16 10:30:49.96	341.46	10.27	-28.1	-30.1	13.7	5.30e-06	0	43	104	0	16	4550
2026-01-16 10:30:50.97	341.47	10.18	-28.0	-30.0	13.8	2.20e-06	0	43	104	0	16	4517
2026-01-16 10:30:51.97	341.48	10.10	-28.1	-30.2	13.7	9.90e-06	0	43	104	0	16	4585
2026-01-16 10:30:52.97	341.48	10.01	-28.1	-30.2	13.6	7.60e-06	0	43	104	0	16	4581
2026-01-16 10:30:53.97	341.49	9.92	-28.2	-30.4	13.5	7.60e-06	0	43	104	0	16	4657
2026-01-16 10:30:54.97	341.50	9.84	-28.2	-30.4	13.5	9.10e-06	0	43	104	0	16	4653
2026-01-16 10:30:55.97	341.50	9.75	-28.1	-30.2	13.6	1.14e-05	0	43	104	0	16	4600
2026-01-16 10:30:56.98	341.51	9.67	-28.1	-30.2	13.6	8.30e-06	0	43	104	0	16	4605
2026-01-16 10:30:57.98	341.51	9.58	-28.2	-30.5	13.5	1.29e-05	0	43	104	0	16	4672
2026-01-16 10:30:58.98	341.52	9.50	-28.4	-30.9	13.2	1.67e-05	0	43	104	0	16	4825
2026-01-16 10:30:59.98	341.53	9.41	-28.1	-30.3	13.6	1.60e-05	0	43	104	0	16	4615
2026-01-16 10:31:00.99	341.53	9.33	-28.3	-30.7	13.3	1.06e-05	0	43	104	0	16	4734
2026-01-16 10:31:01.98	341.54	9.24	-28.1	-30.3	13.5	1.22e-05	0	43	104	0	16	4622
2026-01-16 10:31:02.98	341.55	9.16	-28.4	-31.1	13.1	1.83e-05	0	43	104	0	16	4867
2026-01-16 10:31:03.98	341.55	9.08	-28.3	-30.7	13.3	2.97e-05	0	43	104	0	16	4758
2026-01-16 10:31:04.98	341.56	8.99	-28.5	-31.1	13.0	2.51e-05	0	43	104	0	16	4879
2026-01-16 10:31:05.99	341.56	8.91	-28.3	-30.8	13.2	2.74e-05	0	43	104	0	16	4787
2026-01-16 10:31:06.99	341.57	8.83	-28.3	-30.7	13.2	2.59e-05	0	43	104	0	16	4752
2026-01-16 10:31:07.99	341.58	8.74	-28.2	-30.6	13.3	2.28e-05	0	43	104	0	16	4707
2026-01-16 10:31:08.99	341.58	8.66	-28.4	-30.9	13.1	2.28e-05	0	43	104	0	16	4814
2026-01-16 10:31:10.00	341.59	8.58	-28.5	-30.7	12.9	2.59e-05	0	43	104	0	17	4641
2026-01-16 10:31:11.00	341.59	8.50	-28.7	-31.2	12.6	5.26e-05	0	43	104	0	17	4808
2026-01-16 10:31:12.01	341.60	8.42	-28.6	-31.0	12.8	9.07e-05	0	43	104	0	17	4734
2026-01-16 10:31:13.02	341.61	8.34	-28.5	-30.6	12.9	4.11e-05	0	43	104	0	17	4629
2026-01-16 10:31:14.02	341.61	8.25	-28.6	-30.9	12.8	5.41e-05	0	43	104	0	17	4722
2026-01-16 10:31:15.03	341.62	8.17	-28.5	-30.8	12.8	5.49e-05	0	43	104	0	17	4690
2026-01-16 10:31:16.03	341.62	8.09	-28.5	-30.9	12.8	6.02e-05	0	43	104	0	17	4699
2026-01-16 10:31:17.04	341.63	8.01	-28.5	-30.8	12.8	9.61e-05	0	43	104	0	17	4685
2026-01-16 10:31:18.04	341.64	7.93	-28.4	-30.6	12.9	5.34e-05	0	43	104	0	17	4618
2026-01-16 10:31:19.04	341.64	7.85	-28.5	-30.8	12.8	5.11e-05	0	43	104	0	17	4673
2026-01-16 10:31:20.05	341.65	7.77	-28.5	-30.8	12.8	3.96e-05	0	43	104	0	17	4675
2026-01-16 10:31:21.03	341.65	7.70	-28.4	-30.6	12.9	3.35e-05	0	43	104	0	17	4607
2026-01-16 10:31:22.04	341.66	7.62	-28.8	-31.7	12.2	1.81e-04	0	43	104	0	17	4981
2026-01-16 10:31:23.04	341.67	7.54	-28.8	-31.4	12.3	2.12e-04	0	43	104	0	17	4902
2026-01-16 10:31:24.04	341.67	7.46	-29.1	-31.8	11.8	3.52e-04	0	43	104	0	18	4918
2026-01-16 10:31:25.04	341.68	7.38	-29.0	-31.7	11.9	4.14e-04	0	43	104	0	18	4867
2026-01-16 10:31:26.04	341.68	7.30	-29.1	-31.9	11.7	4.52e-04	0	43	104	0	18	4968
2026-01-16 10:31:27.05	341.69	7.23	-28.9	-31.3	12.1	3.14e-04	0	43	104	0	18	4757
2026-01-16 10:31:28.05	341.70	7.15	-29.2	-32.2	11.5	5.02e-04	0	43	104	0	18	5060
2026-01-16 10:31:29.06	341.70	7.07	-33.0	-45.3	3.8	1.49e+00	0	43	104	0	25	14808
2026-01-16 10:31:30.06	341.71	6.99	-33.3	-45.4	3.8	1.49e+00	0	43	104	0	26	14548

#Closed at: 2026-01-16 10:31:30
#Recorded file [0 MB]: D:/data/31010_260116_131928.dat