passes_logs/2026/01/16/R2M6_AANII_01/R2M6_AANII_01__20260116_222803_NOAA_21_JPSS-2_rec.log

#Pass ID: 20260116_222803_NOAA 21 (JPSS-2)
#Satellite: NOAA 21 (JPSS-2)
#Configuration: NOAA 21
#almurnet v.1.7.20240730
#Start time: 2026-01-16 22:28:03

#Version: 2.2.20231116
#Station: R2M6_AANII_01
#Location: 30.233357 lon 59.946436 lat
#TLE: 1 54234U 22150A   26016.21096038  .00000027  00000+0  33607-4 0  9993
#TLE: 2 54234  98.7500 317.0960 0000625 282.3388  77.7718 14.19534911164985

#Time	Az	El	Level	Level2	SNR	BER	BlckErr	Temp	State	Recorded	gain1	gain2
2026-01-16 22:28:03.58	33.09	7.01	-30.3	-35.5	4.6	1.37e+00	0	41	0	0	20	6563
2026-01-16 22:28:04.58	33.20	7.07	-31.5	-38.7	4.2	1.45e+00	0	41	104	0	23	8264
2026-01-16 22:28:05.57	33.31	7.13	-31.4	-38.0	5.8	4.49e-01	0	41	0	0	22	7716
2026-01-16 22:28:06.57	33.42	7.18	-31.4	-37.9	5.8	3.69e-01	0	41	0	2097152	22	7610
2026-01-16 22:28:07.57	33.53	7.24	-31.5	-37.6	5.7	4.36e-01	0	41	0	5242880	23	7307
2026-01-16 22:28:08.57	33.64	7.30	-31.5	-37.7	5.7	3.97e-01	0	41	0	8388608	23	7346
2026-01-16 22:28:09.57	33.75	7.35	-31.4	-37.3	5.9	3.33e-01	0	41	0	11534336	23	7125
2026-01-16 22:28:10.57	33.86	7.41	-31.3	-37.5	6.1	3.27e-01	0	41	0	14680064	22	7312
2026-01-16 22:28:11.58	33.97	7.47	-31.3	-37.1	6.3	2.47e-01	0	41	0	17825792	22	7074
2026-01-16 22:28:12.58	34.08	7.53	-31.2	-36.7	6.6	2.23e-01	0	41	0	20971520	22	6801
2026-01-16 22:28:13.57	34.19	7.58	-31.1	-36.3	7.0	1.32e-01	0	41	0	24117248	22	6578
2026-01-16 22:28:14.57	34.31	7.64	-31.0	-35.9	7.3	1.43e-01	0	41	0	27262976	22	6363
2026-01-16 22:28:15.57	34.42	7.70	-30.9	-35.6	7.5	8.35e-02	0	42	0	30408704	22	6180
2026-01-16 22:28:16.56	34.53	7.75	-30.9	-36.2	7.4	1.11e-01	0	41	0	33554432	21	6594
2026-01-16 22:28:17.57	34.65	7.81	-30.8	-35.3	7.7	9.82e-02	0	41	0	36700160	22	6011
2026-01-16 22:28:18.58	34.76	7.87	-30.3	-33.9	9.0	2.61e-02	0	42	0	39845888	21	5450
2026-01-16 22:28:19.57	34.87	7.93	-30.0	-33.4	9.7	1.65e-02	0	41	0	42991616	20	5365
2026-01-16 22:28:20.57	34.99	7.98	-29.8	-32.9	10.1	9.18e-03	0	42	0	46137344	20	5158
2026-01-16 22:28:21.57	35.11	8.04	-29.2	-31.8	11.3	1.63e-03	0	42	0	49283072	19	4846
2026-01-16 22:28:22.58	35.22	8.10	-29.0	-31.8	11.6	1.12e-03	0	41	0	52428800	18	4961
2026-01-16 22:28:23.58	35.34	8.16	-29.1	-32.0	11.5	9.63e-04	0	42	0	55574528	18	5014
2026-01-16 22:28:24.58	35.46	8.22	-29.2	-32.1	11.4	1.04e-03	0	42	0	58720256	18	5066
2026-01-16 22:28:25.58	35.57	8.27	-29.0	-31.8	11.6	6.62e-04	0	42	0	61865984	18	4941
2026-01-16 22:28:26.58	35.69	8.33	-29.1	-32.0	11.5	9.37e-04	0	42	0	65011712	18	5010
2026-01-16 22:28:27.57	35.81	8.39	-29.0	-31.8	11.6	7.58e-04	0	42	0	68157440	18	4952
2026-01-16 22:28:28.58	35.93	8.45	-29.1	-32.0	11.4	1.17e-03	0	42	0	71303168	18	5029
2026-01-16 22:28:29.58	36.05	8.50	-29.1	-31.9	11.6	7.00e-04	0	42	0	74448896	18	4976
2026-01-16 22:28:30.59	36.17	8.56	-28.9	-31.4	11.9	3.93e-04	0	42	0	77594624	18	4793
2026-01-16 22:28:31.59	36.29	8.62	-28.8	-31.2	12.1	2.78e-04	0	42	0	80740352	18	4718
2026-01-16 22:28:32.59	36.41	8.68	-29.0	-32.0	11.8	4.68e-04	0	42	0	83886080	17	5127
2026-01-16 22:28:33.60	36.53	8.74	-28.8	-31.6	12.1	2.77e-04	0	42	0	87031808	17	4956
2026-01-16 22:28:34.61	36.65	8.80	-28.8	-31.5	12.2	2.45e-04	0	42	0	90177536	17	4935
2026-01-16 22:28:35.61	36.78	8.85	-28.4	-30.7	12.7	5.95e-05	0	42	0	93323264	17	4667
2026-01-16 22:28:36.61	36.90	8.91	-28.4	-30.6	12.8	6.63e-05	0	42	0	96468992	17	4643
2026-01-16 22:28:37.61	37.02	8.97	-28.4	-30.5	12.8	1.66e-04	0	42	0	99614720	17	4606
2026-01-16 22:28:38.60	37.14	9.03	-28.4	-30.7	12.7	1.01e-04	0	42	0	102760448	17	4664
2026-01-16 22:28:39.60	37.27	9.08	-28.4	-30.6	12.9	6.17e-05	0	42	0	105906176	17	4621
2026-01-16 22:28:40.60	37.39	9.14	-28.6	-31.0	12.6	8.08e-05	0	42	0	109051904	17	4774
2026-01-16 22:28:41.61	37.52	9.20	-28.5	-30.9	12.6	1.27e-04	0	42	0	112197632	17	4737
2026-01-16 22:28:42.61	37.64	9.26	-28.3	-30.3	13.0	6.63e-05	0	42	0	115343360	17	4555
2026-01-16 22:28:43.61	37.77	9.32	-28.2	-30.6	13.1	8.92e-05	0	42	0	118489088	16	4749
2026-01-16 22:28:44.61	37.90	9.38	-28.3	-30.7	13.1	3.20e-05	0	42	0	121634816	16	4792
2026-01-16 22:28:45.62	38.02	9.43	-28.3	-30.8	13.0	2.82e-05	0	42	0	124780544	16	4811
2026-01-16 22:28:46.62	38.15	9.49	-28.2	-30.5	13.2	3.66e-05	0	42	0	127926272	16	4725
2026-01-16 22:28:47.62	38.28	9.55	-28.2	-30.5	13.2	2.62e-04	0	42	0	131072000	16	4708
2026-01-16 22:28:48.62	38.41	9.61	-28.1	-30.3	13.3	2.05e-05	0	42	0	134217728	16	4651
2026-01-16 22:28:49.63	38.54	9.67	-28.3	-30.9	12.9	3.81e-05	0	42	0	137363456	16	4858
2026-01-16 22:28:50.63	38.67	9.73	-28.2	-30.6	13.2	2.21e-05	0	42	0	140509184	16	4746
2026-01-16 22:28:51.63	38.80	9.78	-28.3	-30.9	13.0	3.50e-05	0	42	0	143654912	16	4848
2026-01-16 22:28:52.63	38.93	9.84	-28.3	-30.9	13.0	3.41e-04	0	42	0	146800640	16	4838
2026-01-16 22:28:53.63	39.06	9.90	-28.2	-30.5	13.2	2.86e-04	0	42	0	149946368	16	4701
2026-01-16 22:28:54.63	39.19	9.96	-28.3	-30.8	13.1	3.73e-05	0	42	0	153092096	16	4793
2026-01-16 22:28:55.64	39.32	10.02	-28.0	-30.0	13.5	2.05e-05	0	42	0	156237824	16	4542
2026-01-16 22:28:56.64	39.45	10.08	-28.2	-30.5	13.3	1.44e-05	0	42	0	159383552	16	4715
2026-01-16 22:28:57.64	39.59	10.13	-28.0	-30.0	13.5	1.06e-05	0	42	0	162529280	16	4545
2026-01-16 22:28:58.63	39.72	10.19	-28.1	-30.4	13.3	1.83e-05	0	42	0	165675008	16	4684
2026-01-16 22:28:59.63	39.85	10.25	-28.0	-30.1	13.5	1.22e-05	0	42	0	168820736	16	4567
2026-01-16 22:29:00.64	39.99	10.31	-27.9	-29.8	13.7	9.10e-06	0	42	0	171966464	16	4482
2026-01-16 22:29:01.64	40.12	10.37	-28.1	-30.4	13.3	1.52e-05	0	42	0	175112192	16	4667
2026-01-16 22:29:02.65	40.26	10.43	-28.1	-30.2	13.4	1.52e-05	0	42	0	178257920	16	4616
2026-01-16 22:29:03.65	40.39	10.48	-27.9	-29.9	13.6	8.30e-06	0	43	0	181403648	16	4526
2026-01-16 22:29:04.65	40.53	10.54	-28.0	-30.2	13.5	1.22e-05	0	43	0	184549376	16	4595
2026-01-16 22:29:05.65	40.67	10.60	-28.0	-30.2	13.5	1.83e-05	0	42	0	187695104	16	4606
2026-01-16 22:29:06.65	40.80	10.66	-28.1	-30.2	13.4	7.60e-06	0	43	0	190840832	16	4625
2026-01-16 22:29:07.65	40.94	10.72	-28.1	-30.3	13.4	7.60e-06	0	42	0	193986560	16	4631
2026-01-16 22:29:08.65	41.08	10.78	-28.1	-30.2	13.6	1.06e-05	0	43	0	197132288	16	4614
2026-01-16 22:29:09.64	41.22	10.83	-28.0	-30.1	13.6	4.50e-06	0	42	0	200278016	16	4571
2026-01-16 22:29:10.65	41.36	10.89	-28.2	-30.5	13.3	8.30e-06	0	42	0	203423744	16	4712
2026-01-16 22:29:11.64	41.50	10.95	-28.1	-30.3	13.5	1.75e-05	0	42	0	205520896	16	4647
2026-01-16 22:29:12.65	41.64	11.01	-28.0	-30.0	13.7	1.29e-05	0	42	0	208666624	16	4532
2026-01-16 22:29:13.65	41.78	11.07	-27.9	-29.9	13.8	7.60e-06	0	43	0	211812352	16	4496
2026-01-16 22:29:14.66	41.92	11.13	-27.9	-29.9	13.7	7.60e-06	0	42	0	214958080	16	4505
2026-01-16 22:29:15.66	42.07	11.18	-28.0	-29.9	13.7	3.80e-06	0	43	0	218103808	16	4523
2026-01-16 22:29:16.66	42.21	11.24	-28.0	-29.9	13.8	3.80e-06	0	43	0	221249536	16	4521
2026-01-16 22:29:17.66	42.35	11.30	-28.0	-29.9	13.7	5.30e-06	0	43	0	224395264	16	4511
2026-01-16 22:29:18.67	42.50	11.36	-28.0	-30.1	13.7	6.10e-06	0	43	0	227540992	16	4563
2026-01-16 22:29:19.67	42.64	11.42	-28.1	-30.3	13.5	1.14e-05	0	43	0	230686720	16	4628
2026-01-16 22:29:20.67	42.79	11.48	-27.8	-29.5	14.0	1.50e-06	0	43	0	233832448	16	4376
2026-01-16 22:29:21.66	42.93	11.53	-28.0	-30.0	13.7	6.80e-06	0	43	0	236978176	16	4538
2026-01-16 22:29:22.67	43.08	11.59	-27.9	-29.8	13.8	8.30e-06	0	43	0	240123904	16	4475
2026-01-16 22:29:23.68	43.23	11.65	-27.8	-29.5	14.0	0.00e+00	0	43	0	243269632	16	4380
2026-01-16 22:29:24.68	43.38	11.71	-27.7	-29.3	14.1	9.10e-06	0	43	0	246415360	16	4328
2026-01-16 22:29:25.67	43.52	11.77	-27.6	-29.1	14.3	7.00e-07	0	43	0	249561088	16	4267
2026-01-16 22:29:26.68	43.67	11.82	-27.7	-29.2	14.2	2.20e-06	0	43	0	252706816	16	4304
2026-01-16 22:29:27.68	43.82	11.88	-27.6	-29.0	14.3	0.00e+00	0	42	0	255852544	16	4240
2026-01-16 22:29:28.69	43.97	11.94	-27.7	-29.2	14.2	2.20e-06	0	43	0	258998272	16	4297
2026-01-16 22:29:29.68	44.12	12.00	-27.8	-29.4	14.1	3.80e-06	0	43	0	262144000	16	4358
2026-01-16 22:29:30.68	44.27	12.06	-27.7	-29.4	14.1	2.20e-06	0	43	0	265289728	16	4358
2026-01-16 22:29:31.67	44.42	12.11	-27.8	-29.5	14.0	3.00e-06	0	43	0	268435456	16	4389
2026-01-16 22:29:32.68	44.57	12.17	-27.8	-29.4	14.0	3.80e-06	0	43	0	271581184	16	4366
2026-01-16 22:29:33.68	44.73	12.23	-27.9	-29.8	13.8	4.50e-06	0	43	0	274726912	16	4482
2026-01-16 22:29:34.69	44.88	12.29	-27.8	-29.6	13.9	4.50e-06	0	43	0	277872640	16	4422
2026-01-16 22:29:35.69	45.03	12.35	-27.9	-29.8	13.8	6.80e-06	0	43	0	281018368	16	4464
2026-01-16 22:29:36.69	45.19	12.40	-28.0	-30.1	13.7	6.10e-06	0	43	0	284164096	16	4558
2026-01-16 22:29:37.69	45.34	12.46	-28.0	-30.1	13.6	6.10e-06	0	43	0	287309824	16	4583
2026-01-16 22:29:38.69	45.50	12.52	-27.8	-29.6	14.0	3.00e-06	0	43	0	290455552	16	4410
2026-01-16 22:29:39.69	45.65	12.58	-27.8	-29.6	14.0	2.20e-06	0	43	0	293601280	16	4416
2026-01-16 22:29:40.70	45.81	12.63	-27.6	-29.7	14.0	3.80e-06	0	43	0	296747008	15	4571
2026-01-16 22:29:41.70	45.97	12.69	-27.8	-30.0	13.9	6.80e-06	0	43	0	299892736	15	4672
2026-01-16 22:29:42.70	46.13	12.75	-28.0	-30.5	13.6	1.22e-05	0	43	0	303038464	15	4815
2026-01-16 22:29:43.70	46.29	12.80	-28.1	-30.2	13.6	1.06e-05	0	43	0	306184192	16	4605
2026-01-16 22:29:44.70	46.44	12.86	-28.0	-30.0	13.8	5.30e-06	0	43	0	309329920	16	4532
2026-01-16 22:29:45.70	46.60	12.92	-27.8	-29.5	14.0	2.20e-06	0	43	0	312475648	16	4396
2026-01-16 22:29:46.70	46.76	12.98	-27.9	-29.7	14.0	5.30e-06	0	43	0	315621376	16	4435
2026-01-16 22:29:47.70	46.92	13.03	-27.7	-29.2	14.3	2.20e-06	0	43	0	318767104	16	4291
2026-01-16 22:29:48.70	47.09	13.09	-27.7	-29.3	14.2	7.00e-07	0	43	0	321912832	16	4309
2026-01-16 22:29:49.70	47.25	13.15	-27.6	-29.0	14.4	1.50e-06	0	43	0	325058560	16	4241
2026-01-16 22:29:50.71	47.41	13.20	-27.5	-28.8	14.5	1.50e-06	0	43	0	328204288	16	4187
2026-01-16 22:29:51.72	47.58	13.26	-27.5	-28.8	14.5	0.00e+00	0	43	0	331350016	16	4185
2026-01-16 22:29:52.72	47.74	13.32	-27.6	-29.1	14.3	1.50e-06	0	43	0	334495744	16	4274
2026-01-16 22:29:53.72	47.91	13.37	-27.6	-29.0	14.4	1.50e-06	0	43	0	337641472	16	4244
2026-01-16 22:29:54.72	48.07	13.43	-27.6	-28.9	14.4	0.00e+00	0	43	0	340787200	16	4219
2026-01-16 22:29:55.71	48.23	13.49	-27.5	-29.3	14.3	3.80e-06	0	43	0	343932928	15	4442
2026-01-16 22:29:56.72	48.40	13.54	-27.5	-29.4	14.3	0.00e+00	0	43	0	347078656	15	4455
2026-01-16 22:29:57.72	48.57	13.60	-27.6	-29.6	14.2	7.00e-07	0	43	0	350224384	15	4520
2026-01-16 22:29:58.72	48.74	13.65	-27.5	-29.5	14.2	0.00e+00	0	43	0	353370112	15	4486
2026-01-16 22:29:59.72	48.90	13.71	-27.5	-29.4	14.3	1.50e-06	0	43	0	356515840	15	4454
2026-01-16 22:30:00.72	49.07	13.77	-27.7	-29.8	14.0	2.20e-06	0	43	0	359661568	15	4595
2026-01-16 22:30:01.73	49.24	13.82	-27.4	-29.2	14.4	7.00e-07	0	43	0	362807296	15	4413
2026-01-16 22:30:02.73	49.41	13.88	-27.4	-29.1	14.5	0.00e+00	0	43	0	365953024	15	4371
2026-01-16 22:30:03.73	49.58	13.93	-27.6	-29.5	14.2	1.50e-06	0	43	0	369098752	15	4498
2026-01-16 22:30:04.73	49.76	13.99	-27.5	-29.5	14.2	7.00e-07	0	43	0	372244480	15	4487
2026-01-16 22:30:05.73	49.93	14.05	-27.6	-29.6	14.2	7.00e-07	0	43	0	375390208	15	4522
2026-01-16 22:30:06.73	50.10	14.10	-27.6	-29.5	14.3	1.50e-06	0	43	0	378535936	15	4485
2026-01-16 22:30:07.74	50.27	14.16	-27.6	-29.6	14.1	7.00e-07	0	43	0	381681664	15	4535
2026-01-16 22:30:08.73	50.45	14.21	-27.6	-29.6	14.2	2.20e-06	0	43	0	384827392	15	4535
2026-01-16 22:30:09.73	50.62	14.27	-27.7	-29.8	14.1	2.20e-06	0	43	0	387973120	15	4580
2026-01-16 22:30:10.74	50.80	14.32	-27.5	-29.3	14.3	7.00e-07	0	43	0	391118848	15	4440
2026-01-16 22:30:11.75	50.97	14.38	-27.4	-29.1	14.5	0.00e+00	0	43	0	394264576	15	4371
2026-01-16 22:30:12.75	51.15	14.43	-27.4	-29.1	14.5	1.50e-06	0	43	0	397410304	15	4369
2026-01-16 22:30:13.74	51.33	14.48	-26.9	-29.1	14.5	7.00e-07	0	43	0	400556032	14	4604
2026-01-16 22:30:14.74	51.50	14.54	-27.5	-29.7	14.4	0.00e+00	0	43	0	403701760	14	4667
2026-01-16 22:30:15.76	51.68	14.59	-27.1	-29.4	14.0	0.00e+00	0	43	0	406847488	14	4657
2026-01-16 22:30:16.76	51.86	14.65	-27.3	-29.2	13.8	7.00e-07	0	43	0	409993216	15	4446
2026-01-16 22:30:17.75	52.04	14.70	-27.8	-30.0	14.0	1.50e-06	0	43	0	412090368	15	4647
2026-01-16 22:30:18.76	52.22	14.76	-27.8	-30.1	12.8	5.30e-06	0	43	0	415236096	15	4664
2026-01-16 22:30:19.76	52.40	14.81	-27.9	-30.2	12.6	7.00e-07	0	43	0	418381824	15	4717
2026-01-16 22:30:20.76	52.58	14.86	-27.8	-30.0	14.0	3.80e-06	0	43	0	421527552	15	4647
2026-01-16 22:30:21.77	52.77	14.92	-28.2	-30.5	13.6	2.17e-03	0	43	0	424673280	16	4679
2026-01-16 22:30:22.77	52.95	14.97	-28.2	-30.4	13.7	7.60e-06	0	43	0	427819008	16	4646
2026-01-16 22:30:23.77	53.13	15.02	-28.1	-30.2	13.8	9.10e-06	0	43	0	430964736	16	4573
2026-01-16 22:30:24.77	53.32	15.07	-28.1	-30.1	13.8	5.30e-06	0	43	0	434110464	16	4559
2026-01-16 22:30:25.78	53.50	15.13	-28.1	-30.2	13.8	2.20e-06	0	43	0	437256192	16	4570
2026-01-16 22:30:26.78	53.69	15.18	-28.1	-30.1	13.9	3.80e-06	0	43	0	440401920	16	4538
2026-01-16 22:30:27.78	53.87	15.23	-27.9	-30.3	13.8	1.24e-03	0	43	0	443547648	15	4743
2026-01-16 22:30:28.79	54.06	15.29	-27.8	-30.1	13.9	6.10e-06	0	43	0	446693376	15	4671
2026-01-16 22:30:29.79	54.25	15.34	-27.5	-29.2	14.5	0.00e+00	0	43	0	449839104	15	4394
2026-01-16 22:30:30.79	54.44	15.39	-27.4	-29.5	14.7	7.00e-07	0	43	0	452984832	14	4592
2026-01-16 22:30:31.80	54.63	15.44	-27.5	-29.2	14.5	2.19e-03	0	43	0	456130560	15	4409
2026-01-16 22:30:32.79	54.81	15.49	-27.7	-29.7	14.2	1.50e-06	0	43	0	459276288	15	4561
2026-01-16 22:30:33.80	55.01	15.54	-27.7	-29.9	14.0	2.75e-03	0	43	0	462422016	15	4609
2026-01-16 22:30:34.79	55.19	15.59	-27.7	-29.8	14.1	1.50e-06	0	43	0	465567744	15	4578
2026-01-16 22:30:35.80	55.39	15.65	-27.8	-30.2	13.9	1.50e-06	0	43	0	468713472	15	4700
2026-01-16 22:30:36.80	55.58	15.70	-27.8	-30.1	13.9	1.54e-03	0	43	0	471859200	15	4673
2026-01-16 22:30:37.81	55.77	15.75	-27.7	-29.8	14.1	8.42e-04	0	43	0	475004928	15	4589
2026-01-16 22:30:38.81	55.96	15.80	-27.6	-29.4	14.4	2.20e-06	0	43	0	478150656	15	4474
2026-01-16 22:30:39.81	56.16	15.85	-27.5	-29.2	14.5	0.00e+00	0	43	0	481296384	15	4413
2026-01-16 22:30:40.81	56.35	15.90	-27.4	-29.1	14.5	0.00e+00	0	43	0	484442112	15	4374
2026-01-16 22:30:41.81	56.55	15.95	-27.5	-29.3	14.5	7.00e-07	0	43	0	487587840	15	4424
2026-01-16 22:30:42.81	56.74	16.00	-27.3	-29.4	14.7	2.74e-03	0	43	0	490733568	14	4555
2026-01-16 22:30:43.82	56.94	16.05	-27.4	-29.7	14.5	3.16e-03	0	43	0	493879296	14	4652
2026-01-16 22:30:44.82	57.14	16.10	-27.4	-29.5	14.6	0.00e+00	0	43	0	497025024	14	4617
2026-01-16 22:30:45.82	57.33	16.15	-27.3	-29.4	14.7	7.00e-07	0	43	0	500170752	14	4566
2026-01-16 22:30:46.82	57.53	16.19	-27.4	-29.6	14.6	2.44e-03	0	43	0	503316480	14	4630
2026-01-16 22:30:47.82	57.73	16.24	-27.5	-29.3	14.4	1.50e-06	0	43	0	506462208	15	4434
2026-01-16 22:30:48.82	57.93	16.29	-27.6	-29.6	14.3	1.01e-03	0	43	0	509607936	15	4509
2026-01-16 22:30:49.83	58.13	16.34	-27.5	-29.4	14.4	1.06e-03	0	43	0	512753664	15	4468
2026-01-16 22:30:50.83	58.33	16.39	-27.4	-29.1	14.5	7.00e-07	0	43	0	515899392	15	4370
2026-01-16 22:30:51.83	58.53	16.43	-27.3	-29.3	14.7	1.34e-03	0	43	0	519045120	14	4538
2026-01-16 22:30:52.83	58.73	16.48	-27.2	-29.1	14.9	1.54e-03	0	43	0	522190848	14	4472
2026-01-16 22:30:53.83	58.93	16.53	-27.2	-29.2	14.8	1.50e-06	0	43	0	525336576	14	4513
2026-01-16 22:30:54.83	59.14	16.58	-27.2	-29.1	14.9	2.27e-03	0	43	0	528482304	14	4492
2026-01-16 22:30:55.82	59.34	16.62	-27.1	-28.9	15.0	2.14e-03	0	43	0	531628032	14	4423
2026-01-16 22:30:56.83	59.54	16.67	-27.0	-28.6	15.2	7.00e-07	0	43	0	534773760	14	4324
2026-01-16 22:30:57.82	59.75	16.71	-27.0	-28.7	15.1	2.29e-03	0	43	0	537919488	14	4372
2026-01-16 22:30:58.83	59.95	16.76	-27.1	-28.8	15.1	2.27e-03	0	43	0	541065216	14	4389
2026-01-16 22:30:59.82	60.16	16.80	-27.2	-29.1	14.9	0.00e+00	0	43	0	544210944	14	4480
2026-01-16 22:31:00.83	60.37	16.85	-27.2	-29.1	14.9	0.00e+00	0	43	0	547356672	14	4492
2026-01-16 22:31:01.83	60.57	16.90	-27.2	-29.2	14.9	8.03e-04	0	43	0	550502400	14	4498
2026-01-16 22:31:02.83	60.78	16.94	-27.4	-29.6	14.6	0.00e+00	0	43	0	553648128	14	4643
2026-01-16 22:31:03.83	60.99	16.98	-27.2	-29.1	14.9	7.24e-04	0	43	0	556793856	14	4483
2026-01-16 22:31:04.84	61.20	17.03	-27.0	-28.7	15.1	5.10e-04	0	43	0	559939584	14	4370
2026-01-16 22:31:05.84	61.41	17.07	-27.0	-28.6	15.2	0.00e+00	0	43	0	563085312	14	4348
2026-01-16 22:31:06.83	61.62	17.12	-27.0	-28.6	15.2	0.00e+00	0	43	0	566231040	14	4334
2026-01-16 22:31:07.83	61.83	17.16	-26.9	-28.4	15.3	8.32e-04	0	43	0	569376768	14	4288
2026-01-16 22:31:08.83	62.04	17.20	-26.8	-28.2	15.4	0.00e+00	0	43	0	572522496	14	4224
2026-01-16 22:31:09.84	62.25	17.25	-26.8	-28.6	15.5	2.02e-03	0	43	0	575668224	13	4444
2026-01-16 22:31:10.84	62.47	17.29	-26.8	-28.6	15.5	0.00e+00	0	43	0	578813952	13	4439
2026-01-16 22:31:11.84	62.68	17.33	-26.8	-28.6	15.5	0.00e+00	0	43	0	581959680	13	4448
2026-01-16 22:31:12.84	62.89	17.37	-26.8	-28.7	15.4	2.16e-03	0	43	0	585105408	13	4474
2026-01-16 22:31:13.85	63.11	17.41	-27.0	-29.1	15.2	2.18e-03	0	43	0	588251136	13	4592
2026-01-16 22:31:14.85	63.32	17.45	-26.9	-28.5	15.3	7.00e-07	0	44	0	591396864	14	4304
2026-01-16 22:31:15.86	63.54	17.50	-27.0	-28.7	15.1	7.00e-07	0	43	0	594542592	14	4358
2026-01-16 22:31:16.86	63.76	17.54	-27.0	-28.5	15.3	0.00e+00	0	43	0	597688320	14	4316
2026-01-16 22:31:17.86	63.97	17.58	-26.8	-28.2	15.5	0.00e+00	0	43	0	600834048	14	4214
2026-01-16 22:31:18.86	64.19	17.62	-26.8	-28.2	15.5	1.36e-03	0	43	0	603979776	14	4228
2026-01-16 22:31:19.87	64.41	17.66	-26.9	-29.0	15.3	0.00e+00	0	43	0	607125504	13	4552
2026-01-16 22:31:20.86	64.63	17.69	-27.0	-29.0	15.2	0.00e+00	0	43	0	610271232	13	4572
2026-01-16 22:31:21.86	64.85	17.73	-26.9	-28.3	15.4	0.00e+00	0	43	0	613416960	14	4252
2026-01-16 22:31:22.86	65.06	17.77	-26.8	-28.8	15.4	0.00e+00	0	43	0	616562688	13	4488
2026-01-16 22:31:23.86	65.28	17.81	-26.8	-28.7	15.4	1.50e-06	0	43	0	618659840	13	4487
2026-01-16 22:31:24.86	65.50	17.85	-26.9	-28.9	15.3	0.00e+00	0	43	0	621805568	13	4526
2026-01-16 22:31:25.86	65.73	17.89	-26.8	-28.8	15.4	0.00e+00	0	43	0	624951296	13	4488
2026-01-16 22:31:26.86	65.95	17.92	-27.0	-29.1	15.2	0.00e+00	0	43	0	628097024	13	4576
2026-01-16 22:31:27.86	66.17	17.96	-26.8	-28.1	15.5	0.00e+00	0	43	0	631242752	14	4198
2026-01-16 22:31:28.87	66.39	18.00	-26.7	-28.4	15.7	0.00e+00	0	43	0	634388480	13	4374
2026-01-16 22:31:29.88	66.62	18.03	-26.8	-28.6	15.5	0.00e+00	0	43	0	637534208	13	4442
2026-01-16 22:31:30.88	66.84	18.07	-26.7	-28.5	15.5	0.00e+00	0	43	0	640679936	13	4426
2026-01-16 22:31:31.88	67.07	18.10	-26.6	-28.3	15.6	0.00e+00	0	43	0	643825664	13	4368
2026-01-16 22:31:32.89	67.29	18.14	-26.6	-28.3	15.7	0.00e+00	0	43	0	646971392	13	4377
2026-01-16 22:31:33.89	67.52	18.17	-26.8	-28.6	15.5	0.00e+00	0	43	0	650117120	13	4457
2026-01-16 22:31:34.88	67.74	18.21	-26.6	-28.2	15.7	0.00e+00	0	43	0	653262848	13	4329
2026-01-16 22:31:35.89	67.97	18.24	-26.6	-28.2	15.8	0.00e+00	0	43	0	656408576	13	4323
2026-01-16 22:31:36.89	68.20	18.27	-26.4	-27.8	16.0	0.00e+00	0	43	0	659554304	13	4219
2026-01-16 22:31:37.88	68.42	18.31	-26.5	-27.9	15.9	0.00e+00	0	43	0	662700032	13	4245
2026-01-16 22:31:38.89	68.65	18.34	-26.5	-28.0	15.9	0.00e+00	0	43	0	665845760	13	4268
2026-01-16 22:31:39.89	68.88	18.37	-26.5	-27.9	15.8	0.00e+00	0	43	0	668991488	13	4261
2026-01-16 22:31:40.89	69.11	18.40	-26.6	-28.2	15.8	0.00e+00	0	43	0	672137216	13	4329
2026-01-16 22:31:41.88	69.33	18.44	-26.8	-28.6	15.6	0.00e+00	0	43	0	675282944	13	4434
2026-01-16 22:31:42.88	69.56	18.47	-26.7	-28.5	15.6	0.00e+00	0	43	0	678428672	13	4418
2026-01-16 22:31:43.88	69.79	18.50	-26.7	-28.3	15.7	0.00e+00	0	43	0	681574400	13	4371
2026-01-16 22:31:44.88	70.02	18.53	-26.7	-28.4	15.6	0.00e+00	0	44	0	684720128	13	4396
2026-01-16 22:31:45.88	70.25	18.56	-26.6	-28.2	15.7	7.00e-07	0	43	0	687865856	13	4340
2026-01-16 22:31:46.88	70.49	18.59	-26.6	-28.2	15.7	0.00e+00	0	43	0	691011584	13	4341
2026-01-16 22:31:47.88	70.72	18.62	-26.6	-28.2	15.7	0.00e+00	0	43	0	694157312	13	4332
2026-01-16 22:31:48.88	70.95	18.64	-26.7	-28.3	15.6	0.00e+00	0	43	0	697303040	13	4369
2026-01-16 22:31:49.88	71.18	18.67	-26.6	-28.3	15.7	0.00e+00	0	43	0	700448768	13	4353
2026-01-16 22:31:50.88	71.42	18.70	-26.5	-28.1	15.8	0.00e+00	0	43	0	703594496	13	4302
2026-01-16 22:31:51.88	71.65	18.73	-26.5	-27.9	15.9	0.00e+00	0	43	0	706740224	13	4258
2026-01-16 22:31:52.88	71.88	18.75	-26.5	-28.1	15.8	0.00e+00	0	43	0	709885952	13	4306
2026-01-16 22:31:53.88	72.12	18.78	-26.5	-28.1	15.8	0.00e+00	0	43	0	713031680	13	4293
2026-01-16 22:31:54.89	72.35	18.81	-26.4	-27.9	16.0	0.00e+00	0	43	0	716177408	13	4234
2026-01-16 22:31:55.89	72.59	18.83	-26.6	-28.3	15.8	0.00e+00	0	43	0	719323136	13	4347
2026-01-16 22:31:56.89	72.82	18.86	-26.4	-27.8	16.0	0.00e+00	0	43	0	722468864	13	4225
2026-01-16 22:31:57.90	73.06	18.88	-26.5	-27.9	15.9	0.00e+00	0	43	0	725614592	13	4240
2026-01-16 22:31:58.90	73.30	18.91	-26.6	-28.1	15.8	0.00e+00	0	43	0	728760320	13	4318
2026-01-16 22:31:59.90	73.53	18.93	-26.7	-28.3	15.7	5.72e-05	0	43	0	731906048	13	4368
2026-01-16 22:32:00.89	73.77	18.95	-26.7	-28.5	15.6	6.80e-06	0	43	0	735051776	13	4418
2026-01-16 22:32:01.89	74.01	18.98	-26.9	-28.8	15.4	0.00e+00	0	43	0	738197504	13	4513
2026-01-16 22:32:02.89	74.24	19.00	-26.8	-28.8	15.5	0.00e+00	0	43	0	741343232	13	4493
2026-01-16 22:32:03.90	74.48	19.02	-26.8	-28.7	15.5	0.00e+00	0	43	0	744488960	13	4485
2026-01-16 22:32:04.90	74.72	19.04	-26.9	-28.9	15.4	0.00e+00	0	44	0	747634688	13	4521
2026-01-16 22:32:05.90	74.96	19.06	-26.9	-28.8	15.5	0.00e+00	0	43	0	750780416	13	4491
2026-01-16 22:32:06.90	75.20	19.08	-26.8	-28.6	15.6	0.00e+00	0	43	0	753926144	13	4443
2026-01-16 22:32:07.90	75.44	19.10	-26.9	-28.9	15.4	0.00e+00	0	44	0	757071872	13	4523
2026-01-16 22:32:08.90	75.68	19.12	-26.9	-28.9	15.4	0.00e+00	0	43	0	760217600	13	4519
2026-01-16 22:32:09.91	75.92	19.14	-26.9	-28.8	15.5	0.00e+00	0	44	0	763363328	13	4508
2026-01-16 22:32:10.91	76.16	19.16	-26.9	-28.9	15.4	0.00e+00	0	44	0	766509056	13	4527
2026-01-16 22:32:11.91	76.40	19.18	-26.8	-28.8	15.5	0.00e+00	0	44	0	769654784	13	4492
2026-01-16 22:32:12.91	76.64	19.20	-26.7	-28.5	15.6	0.00e+00	0	43	0	772800512	13	4402
2026-01-16 22:32:13.92	76.89	19.21	-26.7	-28.4	15.7	0.00e+00	0	44	0	775946240	13	4396
2026-01-16 22:32:14.92	77.13	19.23	-26.8	-28.6	15.6	0.00e+00	0	43	0	779091968	13	4431
2026-01-16 22:32:15.92	77.37	19.25	-26.9	-28.9	15.4	7.00e-07	0	43	0	782237696	13	4541
2026-01-16 22:32:16.93	77.61	19.26	-26.7	-28.4	15.7	0.00e+00	0	43	0	785383424	13	4399
2026-01-16 22:32:17.93	77.85	19.28	-26.8	-28.6	15.6	0.00e+00	0	44	0	788529152	13	4445
2026-01-16 22:32:18.93	78.10	19.29	-26.9	-28.8	15.5	0.00e+00	0	43	0	791674880	13	4497
2026-01-16 22:32:19.93	78.34	19.31	-26.8	-28.7	15.5	0.00e+00	0	43	0	794820608	13	4469
2026-01-16 22:32:20.93	78.58	19.32	-26.8	-28.7	15.5	0.00e+00	0	43	0	797966336	13	4474
2026-01-16 22:32:21.93	78.82	19.33	-26.9	-28.9	15.4	0.00e+00	0	44	0	800063488	13	4535
2026-01-16 22:32:22.93	79.07	19.35	-27.0	-29.0	15.3	0.00e+00	0	43	0	803209216	13	4572
2026-01-16 22:32:23.93	79.31	19.36	-27.1	-28.9	15.2	0.00e+00	0	43	0	806354944	14	4419
2026-01-16 22:32:24.93	79.55	19.37	-27.4	-29.6	14.8	0.00e+00	0	43	0	810549248	14	4616
2026-01-16 22:32:25.93	79.80	19.38	-27.3	-29.3	14.9	0.00e+00	0	44	0	812646400	14	4526
2026-01-16 22:32:26.93	80.04	19.39	-27.5	-29.7	14.7	0.00e+00	0	43	0	816840704	14	4648
2026-01-16 22:32:27.93	80.29	19.40	-27.2	-29.0	15.1	0.00e+00	0	43	0	818937856	14	4442
2026-01-16 22:32:28.93	80.53	19.41	-26.9	-28.3	15.4	0.00e+00	0	43	0	822083584	14	4259
2026-01-16 22:32:29.93	80.77	19.42	-26.8	-28.1	15.6	0.00e+00	0	44	0	825229312	14	4203
2026-01-16 22:32:30.93	81.02	19.43	-26.7	-28.5	15.6	2.36e-05	0	43	0	828375040	13	4430
2026-01-16 22:32:31.92	81.26	19.44	-26.9	-28.8	15.4	0.00e+00	0	43	0	831520768	13	4510
2026-01-16 22:32:32.92	81.51	19.44	-27.0	-29.0	15.3	7.00e-07	0	43	0	834666496	13	4571
2026-01-16 22:32:33.92	81.75	19.45	-26.9	-28.9	15.4	0.00e+00	0	43	0	837812224	13	4544
2026-01-16 22:32:34.91	81.99	19.46	-26.8	-28.7	15.6	0.00e+00	0	43	0	840957952	13	4461
2026-01-16 22:32:35.92	82.24	19.46	-26.7	-28.4	15.7	0.00e+00	0	43	0	844103680	13	4392
2026-01-16 22:32:36.92	82.49	19.47	-26.9	-28.8	15.5	0.00e+00	0	43	0	847249408	13	4504
2026-01-16 22:32:37.92	82.73	19.48	-26.8	-28.6	15.6	0.00e+00	0	43	0	850395136	13	4440
2026-01-16 22:32:38.92	82.98	19.48	-26.8	-28.7	15.5	0.00e+00	0	44	0	853540864	13	4469
2026-01-16 22:32:39.92	83.22	19.48	-26.7	-28.4	15.6	0.00e+00	0	44	0	856686592	13	4385
2026-01-16 22:32:40.92	83.47	19.49	-26.7	-28.4	15.7	0.00e+00	0	43	0	859832320	13	4383
2026-01-16 22:32:41.93	83.72	19.49	-26.8	-28.5	15.6	0.00e+00	0	43	0	862978048	13	4424
2026-01-16 22:32:42.92	83.96	19.49	-26.7	-28.4	15.7	0.00e+00	0	43	0	866123776	13	4372
2026-01-16 22:32:43.93	84.21	19.50	-26.8	-28.6	15.6	0.00e+00	0	43	0	869269504	13	4439
2026-01-16 22:32:44.93	84.45	19.50	-26.8	-28.5	15.6	0.00e+00	0	43	0	872415232	13	4418
2026-01-16 22:32:45.93	84.70	19.50	-26.8	-28.7	15.5	0.00e+00	0	43	0	875560960	13	4466
2026-01-16 22:32:46.93	84.94	19.50	-26.9	-28.9	15.4	0.00e+00	0	43	0	878706688	13	4520
2026-01-16 22:32:47.93	85.19	19.50	-26.9	-28.8	15.5	0.00e+00	0	44	0	881852416	13	4500
2026-01-16 22:32:48.93	85.44	19.50	-26.8	-28.6	15.6	0.00e+00	0	44	0	884998144	13	4445
2026-01-16 22:32:49.93	85.68	19.50	-26.8	-28.6	15.6	0.00e+00	0	43	0	888143872	13	4441
2026-01-16 22:32:50.94	85.93	19.49	-26.9	-28.8	15.5	0.00e+00	0	43	0	891289600	13	4511
2026-01-16 22:32:51.93	86.17	19.49	-26.9	-28.8	15.4	0.00e+00	0	44	0	894435328	13	4509
2026-01-16 22:32:52.94	86.42	19.49	-27.1	-28.8	15.2	0.00e+00	0	43	0	897581056	14	4373
2026-01-16 22:32:53.94	86.67	19.49	-27.4	-29.4	14.9	7.00e-07	0	43	0	900726784	14	4572
2026-01-16 22:32:54.94	86.91	19.48	-27.2	-29.0	15.1	0.00e+00	0	43	0	903872512	14	4457
2026-01-16 22:32:55.94	87.16	19.48	-27.1	-28.8	15.2	0.00e+00	0	43	0	907018240	14	4395
2026-01-16 22:32:56.95	87.41	19.47	-27.0	-28.6	14.9	0.00e+00	0	43	0	910163968	14	4326
2026-01-16 22:32:57.96	87.65	19.47	-27.1	-28.8	14.8	0.00e+00	0	43	0	913309696	14	4370
2026-01-16 22:32:58.97	87.90	19.46	-26.9	-28.4	15.5	0.00e+00	0	43	0	916455424	14	4274
2026-01-16 22:32:59.97	88.15	19.46	-27.0	-28.7	15.3	0.00e+00	0	43	0	919601152	14	4353
2026-01-16 22:33:00.96	88.39	19.45	-26.8	-28.2	15.5	0.00e+00	0	43	0	922746880	14	4220
2026-01-16 22:33:01.96	88.63	19.44	-26.7	-27.9	15.7	0.00e+00	0	43	0	925892608	14	4143
2026-01-16 22:33:02.96	88.88	19.43	-26.7	-27.9	15.8	0.00e+00	0	44	0	929038336	14	4135
2026-01-16 22:33:03.96	89.12	19.43	-26.6	-27.8	15.8	0.00e+00	0	44	0	932184064	14	4102
2026-01-16 22:33:04.96	89.37	19.42	-26.7	-27.9	15.7	0.00e+00	0	43	0	935329792	14	4135
2026-01-16 22:33:05.97	89.62	19.41	-26.7	-27.8	15.7	0.00e+00	0	43	0	938475520	14	4119
2026-01-16 22:33:06.97	89.86	19.40	-26.9	-28.4	15.4	0.00e+00	0	44	0	941621248	14	4279
2026-01-16 22:33:07.97	90.10	19.39	-26.7	-28.0	15.7	0.00e+00	0	43	0	944766976	14	4165
2026-01-16 22:33:08.97	90.35	19.38	-26.7	-27.9	15.7	0.00e+00	0	43	0	947912704	14	4145
2026-01-16 22:33:09.97	90.59	19.37	-26.9	-28.4	15.4	0.00e+00	0	43	0	951058432	14	4283
2026-01-16 22:33:10.96	90.83	19.35	-26.8	-28.1	15.6	0.00e+00	0	44	0	954204160	14	4197
2026-01-16 22:33:11.96	91.08	19.34	-26.8	-28.1	15.6	1.31e-04	0	43	0	957349888	14	4208
2026-01-16 22:33:12.96	91.32	19.33	-26.7	-27.9	15.7	1.27e-04	0	43	0	960495616	14	4137
2026-01-16 22:33:13.97	91.57	19.32	-26.8	-28.3	15.5	0.00e+00	0	43	0	963641344	14	4234
2026-01-16 22:33:14.97	91.81	19.30	-26.7	-27.9	15.7	0.00e+00	0	43	0	966787072	14	4139
2026-01-16 22:33:15.98	92.05	19.29	-26.6	-27.6	15.8	0.00e+00	0	43	0	969932800	14	4073
2026-01-16 22:33:16.98	92.30	19.27	-26.5	-27.6	15.9	7.00e-07	0	43	0	973078528	14	4050
2026-01-16 22:33:17.98	92.54	19.26	-26.5	-27.5	15.9	9.68e-05	0	44	0	976224256	14	4036
2026-01-16 22:33:18.98	92.78	19.24	-26.5	-27.4	16.0	8.92e-05	0	43	0	979369984	14	4023
2026-01-16 22:33:19.97	93.02	19.22	-26.6	-27.8	15.8	0.00e+00	0	43	0	981467136	14	4113
2026-01-16 22:33:20.97	93.26	19.21	-26.5	-27.4	16.0	0.00e+00	0	43	0	984612864	14	4009
2026-01-16 22:33:21.97	93.50	19.19	-26.6	-27.7	15.8	2.20e-06	0	43	0	987758592	14	4083
2026-01-16 22:33:22.97	93.74	19.17	-26.6	-27.7	15.8	0.00e+00	0	44	0	990904320	14	4072
2026-01-16 22:33:23.97	93.99	19.15	-26.7	-27.8	15.7	0.00e+00	0	44	0	994050048	14	4126
2026-01-16 22:33:24.98	94.23	19.14	-26.7	-27.9	15.7	0.00e+00	0	43	0	997195776	14	4128
2026-01-16 22:33:25.97	94.47	19.12	-26.6	-27.7	15.8	0.00e+00	0	44	0	1000341504	14	4090
2026-01-16 22:33:26.97	94.71	19.10	-26.5	-27.6	15.9	0.00e+00	0	43	0	1003487232	14	4059
2026-01-16 22:33:27.97	94.95	19.08	-26.5	-27.4	16.0	1.50e-06	0	43	0	1006632960	14	4007
2026-01-16 22:33:28.97	95.18	19.06	-26.6	-27.8	15.8	0.00e+00	0	44	0	1009778688	14	4110
2026-01-16 22:33:29.97	95.42	19.03	-26.5	-27.5	15.9	0.00e+00	0	43	0	1012924416	14	4037
2026-01-16 22:33:30.98	95.66	19.01	-26.4	-27.3	16.0	0.00e+00	0	43	0	1016070144	14	3987
2026-01-16 22:33:31.98	95.90	18.99	-26.4	-27.2	16.0	0.00e+00	0	43	0	1019215872	14	3968
2026-01-16 22:33:32.98	96.14	18.97	-26.4	-27.3	16.0	0.00e+00	0	43	0	1022361600	14	3979
2026-01-16 22:33:33.98	96.38	18.95	-26.6	-27.8	15.8	0.00e+00	0	44	0	1025507328	14	4107
2026-01-16 22:33:34.99	96.62	18.92	-26.5	-27.5	15.9	0.00e+00	0	43	0	1028653056	14	4045
2026-01-16 22:33:35.99	96.86	18.90	-26.4	-27.3	16.0	7.00e-07	0	43	0	1031798784	14	3975
2026-01-16 22:33:36.99	97.09	18.87	-26.5	-27.5	15.9	0.00e+00	0	43	0	1034944512	14	4031
2026-01-16 22:33:37.99	97.33	18.85	-26.6	-27.6	15.8	0.00e+00	0	43	0	1038090240	14	4071
2026-01-16 22:33:38.99	97.56	18.82	-26.5	-27.4	16.0	3.43e-05	0	43	0	1041235968	14	4015
2026-01-16 22:33:39.98	97.80	18.80	-26.6	-27.8	15.7	6.63e-05	0	43	0	1044381696	14	4109
2026-01-16 22:33:40.99	98.03	18.77	-26.6	-27.8	15.7	0.00e+00	0	44	0	1047527424	14	4118
2026-01-16 22:33:41.99	98.27	18.74	-26.7	-27.9	15.7	3.00e-06	0	44	0	1050673152	14	4125
2026-01-16 22:33:42.98	98.50	18.72	-26.5	-27.6	15.9	0.00e+00	0	44	0	1053818880	14	4059
2026-01-16 22:33:43.98	98.74	18.69	-26.5	-27.5	15.9	0.00e+00	0	43	0	1056964608	14	4021
2026-01-16 22:33:44.98	98.97	18.66	-26.5	-27.4	15.9	0.00e+00	0	44	0	1060110336	14	4010
2026-01-16 22:33:45.98	99.20	18.63	-26.5	-27.5	15.8	5.30e-06	0	43	0	1063256064	14	4048
2026-01-16 22:33:46.98	99.43	18.61	-26.5	-27.6	15.8	0.00e+00	0	44	0	1066401792	14	4051
2026-01-16 22:33:47.98	99.67	18.58	-26.6	-27.6	15.8	5.26e-05	0	43	0	1069547520	14	4068
2026-01-16 22:33:48.98	99.90	18.55	-26.4	-27.4	15.9	6.71e-05	0	44	0	1072693248	14	4002
2026-01-16 22:33:49.98	100.13	18.52	-26.5	-27.4	15.9	0.00e+00	0	44	0	1075838976	14	4008
2026-01-16 22:33:50.97	100.36	18.49	-26.4	-27.3	16.0	9.84e-05	0	44	0	1078984704	14	3989
2026-01-16 22:33:51.98	100.59	18.46	-26.5	-27.4	15.9	7.78e-05	0	43	0	1082130432	14	4012
2026-01-16 22:33:52.98	100.82	18.42	-26.4	-27.2	16.0	0.00e+00	0	43	0	1085276160	14	3960
2026-01-16 22:33:53.97	101.05	18.39	-26.3	-27.6	16.0	1.66e-04	0	44	0	1088421888	13	4179
2026-01-16 22:33:54.98	101.28	18.36	-26.3	-27.6	16.1	4.57e-05	0	43	0	1091567616	13	4180
2026-01-16 22:33:55.98	101.51	18.33	-26.4	-27.7	16.0	0.00e+00	0	44	0	1094713344	13	4191
2026-01-16 22:33:56.98	101.74	18.29	-26.4	-27.8	16.0	0.00e+00	0	44	0	1097859072	13	4217
2026-01-16 22:33:57.98	101.96	18.26	-26.4	-27.8	16.0	5.30e-06	0	44	0	1101004800	13	4229
2026-01-16 22:33:58.99	102.19	18.23	-26.5	-27.9	15.9	0.00e+00	0	43	0	1104150528	13	4259
2026-01-16 22:33:59.99	102.42	18.19	-26.5	-28.0	15.8	1.70e-04	0	43	0	1107296256	13	4268
2026-01-16 22:34:00.99	102.65	18.16	-26.4	-27.8	16.0	2.85e-04	0	44	0	1110441984	13	4231
2026-01-16 22:34:01.99	102.87	18.12	-26.5	-28.0	15.8	0.00e+00	0	43	0	1113587712	13	4279
2026-01-16 22:34:03.00	103.10	18.09	-26.4	-27.8	15.9	0.00e+00	0	43	0	1116733440	13	4232
2026-01-16 22:34:04.00	103.32	18.05	-26.5	-28.1	15.8	3.12e-04	0	44	0	1119879168	13	4299
2026-01-16 22:34:05.00	103.55	18.02	-26.5	-28.0	15.8	0.00e+00	0	43	0	1123024896	13	4281
2026-01-16 22:34:06.00	103.77	17.98	-26.5	-28.1	15.8	1.60e-04	0	43	0	1126170624	13	4297
2026-01-16 22:34:07.00	103.99	17.94	-26.5	-28.0	15.8	0.00e+00	0	44	0	1129316352	13	4281
2026-01-16 22:34:08.00	104.22	17.91	-26.7	-28.4	15.6	0.00e+00	0	43	0	1132462080	13	4384
2026-01-16 22:34:09.00	104.44	17.87	-26.6	-28.3	15.7	8.62e-05	0	44	0	1135607808	13	4353
2026-01-16 22:34:10.00	104.66	17.83	-26.7	-28.5	15.6	7.78e-05	0	43	0	1138753536	13	4412
2026-01-16 22:34:11.00	104.88	17.79	-26.6	-28.2	15.7	0.00e+00	0	43	0	1141899264	13	4331
2026-01-16 22:34:12.00	105.10	17.76	-26.6	-28.2	15.7	7.00e-07	0	43	0	1145044992	13	4343
2026-01-16 22:34:13.00	105.32	17.72	-26.6	-28.2	15.7	0.00e+00	0	44	0	1148190720	13	4332
2026-01-16 22:34:14.01	105.54	17.68	-26.7	-28.4	15.6	0.00e+00	0	44	0	1151336448	13	4404
2026-01-16 22:34:15.01	105.76	17.64	-26.6	-28.3	15.6	3.13e-04	0	44	0	1154482176	13	4370
2026-01-16 22:34:16.01	105.98	17.60	-26.8	-28.7	15.4	1.90e-04	0	44	0	1157627904	13	4468
2026-01-16 22:34:17.01	106.20	17.56	-26.6	-28.3	15.6	0.00e+00	0	44	0	1160773632	13	4370
2026-01-16 22:34:18.01	106.42	17.52	-26.7	-28.5	15.6	0.00e+00	0	44	0	1162870784	13	4409
2026-01-16 22:34:19.02	106.63	17.48	-26.7	-28.5	15.5	0.00e+00	0	44	0	1166016512	13	4431
2026-01-16 22:34:20.02	106.85	17.43	-26.9	-29.0	15.3	0.00e+00	0	44	0	1169162240	13	4557
2026-01-16 22:34:21.02	107.07	17.39	-27.0	-28.5	15.3	5.03e-05	0	44	0	1172307968	14	4314
2026-01-16 22:34:22.03	107.28	17.35	-27.1	-28.9	15.1	7.00e-07	0	44	0	1176502272	14	4409
2026-01-16 22:34:23.03	107.50	17.31	-27.0	-28.6	15.3	0.00e+00	0	44	0	1178599424	14	4332
2026-01-16 22:34:24.03	107.71	17.27	-27.1	-29.0	15.0	0.00e+00	0	43	0	1182793728	14	4438
2026-01-16 22:34:25.03	107.92	17.22	-27.0	-28.5	15.3	0.00e+00	0	44	0	1185939456	14	4312
2026-01-16 22:34:26.03	108.14	17.18	-26.8	-28.2	15.5	0.00e+00	0	44	0	1188036608	14	4216
2026-01-16 22:34:27.03	108.35	17.14	-27.0	-28.5	15.3	0.00e+00	0	43	0	1191182336	14	4316
2026-01-16 22:34:28.03	108.56	17.09	-27.0	-28.6	15.3	0.00e+00	0	44	0	1194328064	14	4328
2026-01-16 22:34:29.03	108.77	17.05	-26.9	-28.4	15.3	0.00e+00	0	44	0	1197473792	14	4268
2026-01-16 22:34:30.03	108.98	17.01	-27.0	-28.6	15.2	0.00e+00	0	44	0	1200619520	14	4345
2026-01-16 22:34:31.04	109.19	16.96	-27.1	-28.9	15.1	0.00e+00	0	43	0	1203765248	14	4427
2026-01-16 22:34:32.03	109.40	16.92	-27.1	-28.9	15.1	0.00e+00	0	43	0	1206910976	14	4426
2026-01-16 22:34:33.03	109.61	16.87	-27.0	-28.7	15.1	0.00e+00	0	44	0	1210056704	14	4378
2026-01-16 22:34:34.03	109.81	16.83	-27.2	-29.1	15.0	0.00e+00	0	44	0	1213202432	14	4463
2026-01-16 22:34:35.03	110.02	16.78	-27.2	-29.0	15.0	0.00e+00	0	43	0	1216348160	14	4455
2026-01-16 22:34:36.03	110.23	16.73	-27.1	-28.8	15.1	0.00e+00	0	44	0	1219493888	14	4393
2026-01-16 22:34:37.03	110.43	16.69	-27.0	-28.6	15.2	0.00e+00	0	44	0	1222639616	14	4340
2026-01-16 22:34:38.04	110.64	16.64	-27.0	-28.7	15.1	0.00e+00	0	44	0	1225785344	14	4374
2026-01-16 22:34:39.04	110.85	16.59	-26.8	-28.6	15.5	0.00e+00	0	44	0	1228931072	13	4440
2026-01-16 22:34:40.04	111.05	16.55	-26.7	-28.4	15.5	0.00e+00	0	44	0	1232076800	13	4387
2026-01-16 22:34:41.05	111.26	16.50	-26.7	-28.4	15.5	0.00e+00	0	44	0	1235222528	13	4398
2026-01-16 22:34:42.05	111.46	16.45	-26.8	-28.7	15.4	0.00e+00	0	43	0	1238368256	13	4470
2026-01-16 22:34:43.06	111.66	16.40	-27.0	-29.1	15.2	0.00e+00	0	44	0	1241513984	13	4599
2026-01-16 22:34:44.06	111.86	16.36	-27.0	-28.8	15.1	7.00e-07	0	43	0	1244659712	14	4380
2026-01-16 22:34:45.06	112.07	16.31	-27.1	-28.9	15.0	0.00e+00	0	43	0	1247805440	14	4415
2026-01-16 22:34:46.06	112.27	16.26	-27.2	-29.1	14.9	7.00e-07	0	44	0	1250951168	14	4487
2026-01-16 22:34:47.05	112.46	16.21	-27.2	-29.2	14.9	7.00e-07	0	44	0	1254096896	14	4505
2026-01-16 22:34:48.06	112.66	16.16	-27.1	-28.9	15.0	0.00e+00	0	44	0	1257242624	14	4423
2026-01-16 22:34:49.06	112.86	16.11	-27.2	-29.2	14.8	0.00e+00	0	44	0	1260388352	14	4521
2026-01-16 22:34:50.06	113.06	16.06	-27.0	-28.7	15.1	0.00e+00	0	43	0	1263534080	14	4384
2026-01-16 22:34:51.07	113.26	16.01	-27.1	-29.0	15.0	0.00e+00	0	43	0	1266679808	14	4450
2026-01-16 22:34:52.07	113.46	15.96	-27.2	-29.2	14.8	0.00e+00	0	44	0	1269825536	14	4518
2026-01-16 22:34:53.07	113.65	15.91	-27.2	-29.1	14.9	0.00e+00	0	44	0	1272971264	14	4480
2026-01-16 22:34:54.06	113.85	15.86	-27.2	-29.2	14.8	0.00e+00	0	44	0	1276116992	14	4517
2026-01-16 22:34:55.07	114.04	15.81	-27.5	-29.7	14.5	0.00e+00	0	44	0	1279262720	14	4663
2026-01-16 22:34:56.07	114.24	15.76	-27.2	-29.0	15.0	0.00e+00	0	44	0	1282408448	14	4450
2026-01-16 22:34:57.07	114.43	15.71	-27.2	-29.1	14.9	0.00e+00	0	44	0	1285554176	14	4477
2026-01-16 22:34:58.08	114.62	15.66	-27.3	-29.2	14.8	8.30e-06	0	44	0	1288699904	14	4524
2026-01-16 22:34:59.08	114.82	15.61	-27.2	-29.1	14.9	0.00e+00	0	44	0	1291845632	14	4476
2026-01-16 22:35:00.08	115.01	15.56	-27.4	-29.5	14.6	2.74e-05	0	44	0	1294991360	14	4607
2026-01-16 22:35:01.09	115.20	15.51	-27.6	-29.4	14.4	0.00e+00	0	44	0	1298137088	15	4476
2026-01-16 22:35:02.09	115.39	15.45	-27.6	-29.5	14.4	8.01e-05	0	44	0	1301282816	15	4484
2026-01-16 22:35:03.09	115.58	15.40	-27.5	-29.4	14.4	0.00e+00	0	44	0	1304428544	15	4463
2026-01-16 22:35:04.08	115.77	15.35	-27.4	-29.1	14.6	4.50e-06	0	44	0	1307574272	15	4379
2026-01-16 22:35:05.09	115.96	15.30	-27.4	-29.0	14.6	7.00e-07	0	44	0	1310720000	15	4353
2026-01-16 22:35:06.09	116.14	15.24	-27.3	-28.8	14.7	0.00e+00	0	44	0	1313865728	15	4295
2026-01-16 22:35:07.10	116.33	15.19	-27.3	-28.9	14.7	7.60e-06	0	44	0	1317011456	15	4317
2026-01-16 22:35:08.10	116.52	15.14	-27.2	-28.6	14.8	7.00e-07	0	44	0	1320157184	15	4246
2026-01-16 22:35:09.10	116.71	15.09	-27.4	-29.0	14.6	0.00e+00	0	44	0	1323302912	15	4348
2026-01-16 22:35:10.10	116.89	15.03	-27.3	-28.8	14.7	6.10e-06	0	44	0	1326448640	15	4296
2026-01-16 22:35:11.11	117.08	14.98	-27.2	-28.5	14.9	7.00e-07	0	44	0	1329594368	15	4215
2026-01-16 22:35:12.11	117.26	14.93	-27.2	-28.7	14.8	0.00e+00	0	44	0	1332740096	15	4263
2026-01-16 22:35:13.11	117.44	14.87	-27.2	-28.6	14.8	3.80e-06	0	43	0	1335885824	15	4220
2026-01-16 22:35:14.11	117.63	14.82	-27.2	-28.7	14.7	0.00e+00	0	44	0	1339031552	15	4258
2026-01-16 22:35:15.11	117.81	14.76	-27.4	-29.0	14.6	7.00e-07	0	44	0	1342177280	15	4348
2026-01-16 22:35:16.11	117.99	14.71	-27.4	-29.0	14.6	0.00e+00	0	44	0	1345323008	15	4345
2026-01-16 22:35:17.11	118.17	14.66	-27.3	-28.8	14.6	0.00e+00	0	44	0	1348468736	15	4302
2026-01-16 22:35:18.11	118.35	14.60	-27.5	-29.2	14.5	7.00e-07	0	44	0	1351614464	15	4409
2026-01-16 22:35:19.11	118.53	14.55	-27.6	-29.5	14.3	3.80e-06	0	44	0	1354760192	15	4504
2026-01-16 22:35:20.11	118.71	14.49	-27.6	-29.6	14.2	7.00e-07	0	44	0	1357905920	15	4515
2026-01-16 22:35:21.12	118.89	14.44	-27.8	-30.0	14.0	2.20e-06	0	43	0	1361051648	15	4631
2026-01-16 22:35:22.12	119.06	14.38	-27.6	-29.7	14.2	9.10e-06	0	43	0	1364197376	15	4538
2026-01-16 22:35:23.12	119.24	14.33	-27.7	-29.8	14.1	7.00e-07	0	44	0	1367343104	15	4574
2026-01-16 22:35:24.13	119.42	14.27	-27.7	-29.8	14.0	3.80e-06	0	44	0	1370488832	15	4601
2026-01-16 22:35:25.13	119.59	14.22	-27.8	-30.1	13.9	9.10e-06	0	44	0	1373634560	15	4684
2026-01-16 22:35:26.13	119.77	14.16	-27.6	-29.6	14.1	3.00e-06	0	44	0	1376780288	15	4545
2026-01-16 22:35:27.13	119.94	14.10	-27.4	-29.1	14.5	0.00e+00	0	44	0	1379926016	15	4386
2026-01-16 22:35:28.13	120.12	14.05	-27.6	-29.6	14.1	1.50e-06	0	44	0	1383071744	15	4542
2026-01-16 22:35:29.13	120.29	13.99	-27.5	-29.4	14.3	7.00e-07	0	43	0	1386217472	15	4484
2026-01-16 22:35:30.13	120.46	13.94	-27.7	-29.8	14.1	2.20e-06	0	43	0	1389363200	15	4585
2026-01-16 22:35:31.13	120.63	13.88	-27.2	-28.8	14.6	0.00e+00	0	44	0	1391460352	15	4287
2026-01-16 22:35:32.14	120.81	13.82	-27.2	-28.6	14.8	0.00e+00	0	44	0	1394606080	15	4232
2026-01-16 22:35:33.14	120.98	13.77	-27.1	-28.3	14.9	0.00e+00	0	44	0	1397751808	15	4160
2026-01-16 22:35:34.14	121.15	13.71	-27.1	-28.3	14.9	2.20e-06	0	43	0	1400897536	15	4161
2026-01-16 22:35:35.14	121.32	13.66	-27.0	-28.3	15.0	0.00e+00	0	44	0	1404043264	15	4139
2026-01-16 22:35:36.15	121.49	13.60	-27.2	-28.6	14.8	7.00e-07	0	44	0	1407188992	15	4236
2026-01-16 22:35:37.15	121.65	13.54	-27.3	-28.9	14.6	0.00e+00	0	43	0	1410334720	15	4316
2026-01-16 22:35:38.15	121.82	13.49	-27.3	-29.0	14.5	7.00e-07	0	44	0	1413480448	15	4347
2026-01-16 22:35:39.16	121.99	13.43	-27.2	-28.6	14.7	7.00e-07	0	44	0	1416626176	15	4240
2026-01-16 22:35:40.16	122.16	13.37	-27.1	-28.4	14.8	3.80e-06	0	43	0	1419771904	15	4190
2026-01-16 22:35:41.16	122.32	13.31	-27.4	-29.0	14.5	0.00e+00	0	44	0	1422917632	15	4357
2026-01-16 22:35:42.17	122.49	13.26	-27.2	-28.6	14.7	0.00e+00	0	44	0	1426063360	15	4250
2026-01-16 22:35:43.17	122.65	13.20	-27.2	-28.7	14.7	0.00e+00	0	43	0	1429209088	15	4261
2026-01-16 22:35:44.17	122.82	13.14	-27.0	-28.3	14.9	0.00e+00	0	43	0	1432354816	15	4152
2026-01-16 22:35:45.18	122.98	13.08	-27.1	-28.4	14.8	0.00e+00	0	44	0	1435500544	15	4178
2026-01-16 22:35:46.18	123.14	13.03	-27.2	-28.6	14.7	0.00e+00	0	43	0	1438646272	15	4247
2026-01-16 22:35:47.18	123.30	12.97	-27.1	-28.4	14.8	7.00e-07	0	43	0	1441792000	15	4176
2026-01-16 22:35:48.18	123.47	12.91	-27.1	-28.4	14.8	0.00e+00	0	43	0	1444937728	15	4187
2026-01-16 22:35:49.18	123.63	12.85	-27.1	-28.4	14.8	7.00e-07	0	43	0	1448083456	15	4201
2026-01-16 22:35:50.18	123.79	12.80	-26.9	-28.5	15.0	7.00e-07	0	44	0	1451229184	14	4318
2026-01-16 22:35:51.18	123.95	12.74	-27.0	-28.6	14.9	0.00e+00	0	43	0	1454374912	14	4354
2026-01-16 22:35:52.18	124.10	12.68	-27.0	-28.6	15.0	0.00e+00	0	44	0	1457520640	14	4336
2026-01-16 22:35:53.19	124.26	12.62	-27.0	-28.6	14.9	0.00e+00	0	44	0	1460666368	14	4358
2026-01-16 22:35:54.19	124.42	12.56	-27.0	-28.7	14.8	6.52e-04	0	44	0	1463812096	14	4373
2026-01-16 22:35:55.19	124.58	12.51	-27.0	-28.7	14.9	0.00e+00	0	44	0	1466957824	14	4374
2026-01-16 22:35:56.19	124.73	12.45	-27.1	-28.8	14.8	0.00e+00	0	44	0	1470103552	14	4417
2026-01-16 22:35:57.20	124.89	12.39	-27.1	-28.9	14.8	7.00e-07	0	43	0	1473249280	14	4416
2026-01-16 22:35:58.19	125.05	12.33	-27.2	-29.1	14.6	2.20e-06	0	44	0	1476395008	14	4489
2026-01-16 22:35:59.20	125.20	12.27	-27.2	-29.2	14.5	5.52e-04	0	44	0	1479540736	14	4538
2026-01-16 22:36:00.20	125.36	12.22	-27.2	-29.3	14.5	2.34e-04	0	44	0	1482686464	14	4543
2026-01-16 22:36:01.21	125.51	12.16	-27.3	-29.5	14.4	7.00e-07	0	44	0	1485832192	14	4618
2026-01-16 22:36:02.21	125.66	12.10	-27.2	-29.2	14.5	7.00e-07	0	43	0	1488977920	14	4542
2026-01-16 22:36:03.22	125.82	12.04	-27.3	-29.4	14.4	0.00e+00	0	44	0	1492123648	14	4610
2026-01-16 22:36:04.22	125.97	11.98	-27.4	-29.8	14.2	0.00e+00	0	44	0	1495269376	14	4713
2026-01-16 22:36:05.22	126.12	11.92	-27.4	-29.7	14.3	1.45e-03	0	44	0	1498415104	14	4680
2026-01-16 22:36:06.22	126.27	11.86	-27.5	-29.4	14.1	1.78e-03	0	44	0	1501560832	15	4491
2026-01-16 22:36:07.23	126.42	11.81	-27.6	-29.6	14.0	1.50e-06	0	43	0	1504706560	15	4535
2026-01-16 22:36:08.24	126.57	11.75	-27.6	-29.7	13.9	3.00e-06	0	44	0	1507852288	15	4567
2026-01-16 22:36:09.23	126.72	11.69	-27.6	-29.7	14.0	1.38e-03	0	44	0	1510998016	15	4559
2026-01-16 22:36:10.24	126.87	11.63	-27.7	-29.8	13.9	2.20e-06	0	44	0	1514143744	15	4599
2026-01-16 22:36:11.23	127.02	11.57	-27.6	-29.7	14.0	9.55e-04	0	44	0	1517289472	15	4557
2026-01-16 22:36:12.23	127.16	11.51	-27.7	-29.9	13.8	5.13e-04	0	44	0	1520435200	15	4643
2026-01-16 22:36:13.23	127.31	11.45	-27.7	-29.9	13.8	9.10e-06	0	44	0	1523580928	15	4628
2026-01-16 22:36:14.24	127.46	11.39	-27.7	-30.0	13.8	6.02e-05	0	43	0	1526726656	15	4664
2026-01-16 22:36:15.23	127.60	11.34	-27.9	-30.3	13.6	2.36e-05	0	44	0	1529872384	15	4749
2026-01-16 22:36:16.23	127.74	11.28	-27.7	-29.9	13.8	6.80e-06	0	44	0	1533018112	15	4645
2026-01-16 22:36:17.24	127.89	11.22	-27.9	-30.4	13.5	5.64e-05	0	43	0	1536163840	15	4809
2026-01-16 22:36:18.25	128.04	11.16	-27.8	-30.1	13.6	9.10e-06	0	44	0	1539309568	15	4722
2026-01-16 22:36:19.25	128.18	11.10	-28.2	-30.5	13.3	1.75e-05	0	44	0	1542455296	16	4708
2026-01-16 22:36:20.26	128.32	11.04	-28.0	-30.1	13.5	1.18e-04	0	44	0	1545601024	16	4565
2026-01-16 22:36:21.26	128.46	10.98	-27.9	-29.9	13.7	9.07e-05	0	43	0	1548746752	16	4507
2026-01-16 22:36:22.26	128.61	10.92	-28.0	-30.0	13.6	9.90e-06	0	43	0	1551892480	16	4555
2026-01-16 22:36:23.26	128.75	10.86	-27.9	-29.8	13.7	5.30e-06	0	44	0	1555038208	16	4474
2026-01-16 22:36:24.26	128.89	10.81	-27.9	-29.8	13.7	2.67e-05	0	44	0	1558183936	16	4467
2026-01-16 22:36:25.26	129.03	10.75	-27.8	-29.5	13.9	6.10e-06	0	44	0	1561329664	16	4397
2026-01-16 22:36:26.27	129.17	10.69	-27.9	-29.9	13.6	3.80e-06	0	43	0	1564475392	16	4516
2026-01-16 22:36:27.27	129.31	10.63	-28.0	-30.0	13.5	1.22e-05	0	44	0	1567621120	16	4565
2026-01-16 22:36:28.27	129.44	10.57	-27.9	-29.8	13.6	1.37e-05	0	44	0	1570766848	16	4493
2026-01-16 22:36:29.26	129.58	10.51	-27.7	-29.5	13.9	5.30e-06	0	44	0	1573912576	16	4387
2026-01-16 22:36:30.26	129.72	10.45	-28.0	-30.0	13.5	8.30e-06	0	44	0	1577058304	16	4563
2026-01-16 22:36:31.25	129.85	10.39	-27.8	-29.7	13.7	9.10e-06	0	44	0	1580204032	16	4455
2026-01-16 22:36:32.25	129.99	10.33	-28.0	-30.0	13.5	4.50e-06	0	44	0	1583349760	16	4560
2026-01-16 22:36:33.25	130.12	10.28	-28.0	-30.0	13.5	9.90e-06	0	44	0	1586495488	16	4559
2026-01-16 22:36:34.25	130.26	10.22	-28.0	-30.1	13.4	1.06e-05	0	44	0	1589641216	16	4584
2026-01-16 22:36:35.25	130.39	10.16	-28.0	-30.0	13.5	7.60e-06	0	43	0	1592786944	16	4560
2026-01-16 22:36:36.26	130.53	10.10	-28.3	-30.8	13.0	3.50e-05	0	44	0	1595932672	16	4811
2026-01-16 22:36:37.25	130.66	10.04	-28.1	-30.4	13.3	2.05e-05	0	44	0	1598029824	16	4683
2026-01-16 22:36:38.26	130.79	9.98	-28.1	-30.3	13.4	2.36e-05	0	44	0	1601175552	16	4635
2026-01-16 22:36:39.26	130.93	9.92	-28.1	-30.3	13.3	2.13e-05	0	44	0	1604321280	16	4645
2026-01-16 22:36:40.26	131.06	9.86	-28.2	-30.7	13.1	1.83e-05	0	44	0	1607467008	16	4764
2026-01-16 22:36:41.26	131.19	9.80	-28.2	-30.7	13.1	1.08e-04	0	44	0	1610612736	16	4769
2026-01-16 22:36:42.26	131.32	9.75	-27.9	-29.8	13.5	7.17e-05	0	44	0	1613758464	16	4506
2026-01-16 22:36:43.25	131.45	9.69	-28.2	-30.6	13.1	2.59e-05	0	44	0	1616904192	16	4757
2026-01-16 22:36:44.25	131.58	9.63	-28.0	-30.1	13.4	2.36e-05	0	44	0	1620049920	16	4587
2026-01-16 22:36:45.25	131.71	9.57	-28.2	-30.7	13.0	2.67e-05	0	44	0	1623195648	16	4769
2026-01-16 22:36:46.25	131.84	9.51	-28.0	-30.1	13.4	2.67e-05	0	44	0	1626341376	16	4585
2026-01-16 22:36:47.26	131.97	9.45	-28.2	-30.5	13.1	4.19e-05	0	44	0	1629487104	16	4722
2026-01-16 22:36:48.26	132.10	9.39	-28.3	-30.8	12.9	4.27e-05	0	44	0	1632632832	16	4803
2026-01-16 22:36:49.27	132.22	9.33	-28.2	-30.6	13.0	3.43e-05	0	44	0	1635778560	16	4743
2026-01-16 22:36:50.27	132.35	9.27	-28.3	-30.9	12.8	3.89e-05	0	44	0	1638924288	16	4851
2026-01-16 22:36:51.27	132.48	9.22	-28.4	-30.7	12.6	1.07e-04	0	44	0	1642070016	17	4680
2026-01-16 22:36:52.28	132.60	9.16	-28.4	-30.6	12.7	3.73e-05	0	44	0	1645215744	17	4632
2026-01-16 22:36:53.28	132.73	9.10	-28.5	-30.9	12.5	1.51e-04	0	43	0	1648361472	17	4726
2026-01-16 22:36:54.28	132.85	9.04	-28.3	-30.4	12.8	6.17e-05	0	44	0	1651507200	17	4573
2026-01-16 22:36:55.29	132.98	8.98	-28.3	-30.3	12.8	6.94e-05	0	44	0	1654652928	17	4564
2026-01-16 22:36:56.28	133.10	8.92	-28.4	-31.2	12.6	9.00e-05	0	44	0	1657798656	16	4960
2026-01-16 22:36:57.29	133.23	8.86	-28.3	-31.0	12.7	9.08e-04	0	44	0	1660944384	16	4910
2026-01-16 22:36:58.29	133.35	8.80	-28.5	-30.9	12.4	1.32e-04	0	44	0	1664090112	17	4769
2026-01-16 22:36:59.29	133.47	8.75	-28.4	-30.8	12.5	1.06e-04	0	43	0	1667235840	17	4725
2026-01-16 22:37:00.29	133.60	8.69	-28.6	-31.2	12.2	2.55e-04	0	44	0	1670381568	17	4883
2026-01-16 22:37:01.29	133.72	8.63	-28.4	-30.7	12.5	1.01e-04	0	44	0	1673527296	17	4697
2026-01-16 22:37:02.29	133.84	8.57	-28.5	-30.9	12.4	9.30e-05	0	44	0	1676673024	17	4759
2026-01-16 22:37:03.30	133.96	8.51	-28.4	-30.8	12.4	1.87e-04	0	44	0	1679818752	17	4736
2026-01-16 22:37:04.30	134.08	8.45	-28.3	-30.4	12.7	1.06e-04	0	44	0	1682964480	17	4596
2026-01-16 22:37:05.30	134.20	8.39	-28.4	-30.8	12.4	1.33e-04	0	44	0	1686110208	17	4745
2026-01-16 22:37:06.31	134.32	8.33	-28.5	-31.0	12.3	2.52e-04	0	44	0	1689255936	17	4802
2026-01-16 22:37:07.31	134.44	8.28	-28.6	-31.2	12.1	1.94e-04	0	44	0	1692401664	17	4895
2026-01-16 22:37:08.31	134.56	8.22	-28.6	-31.4	12.0	4.87e-04	0	43	0	1695547392	17	4956
2026-01-16 22:37:09.31	134.67	8.16	-28.4	-31.4	12.3	2.21e-04	0	44	0	1698693120	16	5078
2026-01-16 22:37:10.31	134.79	8.10	-28.5	-31.1	12.2	3.28e-04	0	44	0	1701838848	17	4851
2026-01-16 22:37:11.31	134.91	8.04	-28.3	-30.7	12.4	1.94e-04	0	44	0	1704984576	17	4742
2026-01-16 22:37:12.31	135.03	7.99	-28.6	-31.3	12.0	3.58e-04	0	44	0	1708130304	17	4921
2026-01-16 22:37:13.32	135.14	7.93	-28.6	-31.3	12.0	2.58e-04	0	44	0	1711276032	17	4914
2026-01-16 22:37:14.32	135.26	7.87	-28.5	-30.9	12.2	4.62e-04	0	44	0	1714421760	17	4795
2026-01-16 22:37:15.32	135.37	7.81	-28.5	-31.1	12.1	2.39e-04	0	44	0	1717567488	17	4851
2026-01-16 22:37:16.32	135.49	7.75	-28.5	-31.1	12.2	2.37e-04	0	44	0	1720713216	17	4822
2026-01-16 22:37:17.32	135.60	7.69	-28.8	-31.8	11.7	5.84e-04	0	44	0	1723858944	17	5101
2026-01-16 22:37:18.32	135.72	7.64	-28.6	-31.2	12.0	2.42e-04	0	44	0	1727004672	17	4877
2026-01-16 22:37:19.32	135.83	7.58	-28.5	-31.0	12.2	1.98e-04	0	44	0	1730150400	17	4796
2026-01-16 22:37:20.33	135.94	7.52	-28.4	-30.8	12.3	1.93e-04	0	44	0	1733296128	17	4742
2026-01-16 22:37:21.33	136.06	7.46	-28.3	-31.0	12.5	1.35e-04	0	44	0	1736441856	16	4899
2026-01-16 22:37:22.33	136.17	7.40	-28.4	-30.9	12.2	2.53e-04	0	44	0	1739587584	17	4776
2026-01-16 22:37:23.33	136.28	7.35	-28.2	-30.4	12.5	8.46e-05	0	44	0	1742733312	17	4627
2026-01-16 22:37:24.34	136.39	7.29	-28.4	-30.7	12.3	2.88e-04	0	44	0	1745879040	17	4737
2026-01-16 22:37:25.34	136.50	7.23	-28.5	-31.3	11.9	3.60e-04	0	44	0	1749024768	17	4940
2026-01-16 22:37:26.34	136.61	7.17	-28.6	-31.4	11.7	3.29e-04	0	44	0	1752170496	17	5016
2026-01-16 22:37:27.34	136.72	7.12	-28.5	-31.3	11.8	4.51e-04	0	44	0	1755316224	17	4966
2026-01-16 22:37:28.34	136.83	7.06	-31.0	-36.9	7.3	1.05e-03	0	44	0	1758461952	21	7090
2026-01-16 22:37:29.35	136.94	7.00	-32.9	-45.1	3.8	1.49e+00	0	44	104	1758461952	25	14697
2026-01-16 22:37:30.35	137.05	6.94	-33.3	-45.4	3.8	1.49e+00	0	44	104	1758461952	26	14533
2026-01-16 22:37:31.35	137.16	6.88	-33.5	-45.8	3.8	1.49e+00	0	44	104	1758461952	26	14923

#Closed at: 2026-01-16 22:37:31
#Recorded file [1758 MB]: D:/data/31010_260117_012805.dat