passes_logs/2026/01/16/R2M6_AANII_01/R2M6_AANII_01__20260116_110041_AQUA_rec.log

#Pass ID: 20260116_110041_AQUA
#Satellite: AQUA
#Configuration: AQUA
#almurnet v.1.7.20240730
#Start time: 2026-01-16 11:01:15

#Version: 2.2.20231116
#Station: R2M6_AANII_01
#Location: 30.233357 lon 59.946436 lat
#TLE: 1 27424U 02022A   26015.51279194  .00000651  00000+0  14022-3 0  9990
#TLE: 2 27424  98.4082 341.9487 0002034  77.6776  33.2672 14.61821775260965

#Time	Az	El	Level	Level2	SNR	BER	BlckErr	Temp	State	Recorded	gain1	gain2
2026-01-16 11:01:15.50	123.20	9.73	-33.5	-45.7	3.8	1.49e+00	0	42	0	0	27	14661
2026-01-16 11:01:16.50	123.12	9.82	-34.5	-53.6	3.8	7.47e-01	0	43	104	0	30	32226
2026-01-16 11:01:17.49	123.04	9.90	-34.6	-53.6	3.8	7.42e-01	0	43	104	0	30	32396
2026-01-16 11:01:18.49	122.95	9.99	-34.6	-53.6	3.8	7.44e-01	0	43	104	0	30	32263
2026-01-16 11:01:19.49	122.87	10.07	-34.6	-53.7	3.8	7.47e-01	0	42	104	0	30	32500
2026-01-16 11:01:20.49	122.78	10.16	-34.6	-53.7	3.8	7.44e-01	0	43	104	0	30	32425
2026-01-16 11:01:21.48	122.70	10.24	-34.6	-53.7	3.8	7.45e-01	0	43	104	0	30	32702
2026-01-16 11:01:22.47	122.62	10.33	-34.6	-53.7	3.8	7.44e-01	0	43	104	0	30	32524
2026-01-16 11:01:23.46	122.53	10.42	-34.6	-53.7	3.8	7.47e-01	0	43	104	0	30	32590
2026-01-16 11:01:24.46	122.44	10.50	-34.6	-53.7	3.8	7.45e-01	0	43	104	0	30	32638
2026-01-16 11:01:25.46	122.36	10.59	-34.6	-53.7	3.8	7.45e-01	0	43	104	0	30	32555
2026-01-16 11:01:26.45	122.27	10.68	-34.6	-53.7	3.8	7.50e-01	0	43	104	0	30	32635
2026-01-16 11:01:27.45	122.18	10.76	-34.6	-53.7	3.8	7.47e-01	0	43	104	0	30	32629
2026-01-16 11:01:28.45	122.09	10.85	-34.5	-53.7	3.8	7.45e-01	0	43	104	0	30	32600
2026-01-16 11:01:29.45	122.00	10.94	-34.6	-53.7	3.8	7.46e-01	0	43	104	0	30	32573
2026-01-16 11:01:30.44	121.91	11.03	-34.6	-53.7	3.8	7.45e-01	0	42	104	0	30	32504
2026-01-16 11:01:31.44	121.82	11.12	-34.6	-53.7	3.8	7.44e-01	0	43	104	0	30	32527
2026-01-16 11:01:32.43	121.73	11.21	-34.5	-53.7	3.8	7.43e-01	0	42	104	0	30	32500
2026-01-16 11:01:33.42	121.64	11.30	-34.6	-53.7	3.8	7.48e-01	0	43	104	0	30	32581
2026-01-16 11:01:34.41	121.55	11.38	-34.7	-53.8	3.8	7.45e-01	0	43	104	0	30	32793
2026-01-16 11:01:35.40	121.46	11.47	-34.6	-53.9	3.8	7.45e-01	0	42	104	0	30	32869
2026-01-16 11:01:36.40	121.36	11.56	-34.6	-53.8	3.8	7.49e-01	0	43	104	0	30	32773
2026-01-16 11:01:37.40	121.27	11.66	-34.8	-54.2	3.8	7.43e-01	0	42	104	0	30	33567
2026-01-16 11:01:38.39	121.17	11.75	-34.7	-54.1	3.8	7.47e-01	0	42	104	0	30	33281
2026-01-16 11:01:39.40	121.08	11.84	-34.7	-53.9	3.8	7.46e-01	0	43	104	0	30	33093
2026-01-16 11:01:40.39	120.98	11.93	-34.6	-53.9	3.8	7.43e-01	0	43	104	0	30	33096
2026-01-16 11:01:41.38	120.89	12.02	-34.5	-53.7	3.8	7.44e-01	0	43	104	0	30	32810
2026-01-16 11:01:42.37	120.79	12.11	-34.5	-53.7	3.8	7.46e-01	0	43	104	0	30	32850
2026-01-16 11:01:43.37	120.69	12.20	-34.5	-53.7	3.8	7.46e-01	0	43	104	0	30	32618
2026-01-16 11:01:44.36	120.59	12.30	-34.5	-53.6	3.8	7.46e-01	0	43	104	0	30	32476
2026-01-16 11:01:45.36	120.49	12.39	-34.5	-53.6	3.8	7.45e-01	0	43	104	0	30	32374
2026-01-16 11:01:46.36	120.39	12.48	-34.4	-53.5	3.8	7.46e-01	0	43	104	0	30	32255
2026-01-16 11:01:47.36	120.29	12.58	-34.3	-53.2	3.8	7.44e-01	0	43	104	0	30	31904
2026-01-16 11:01:48.36	120.19	12.67	-34.2	-52.8	3.8	7.46e-01	0	43	104	0	30	30659
2026-01-16 11:01:49.35	120.09	12.77	-33.7	-52.3	3.8	7.45e-01	0	43	104	0	29	30553
2026-01-16 11:01:50.34	119.98	12.86	-33.8	-49.8	3.9	7.41e-01	0	43	104	0	29	22782
2026-01-16 11:01:51.34	119.88	12.95	-33.7	-50.2	3.9	7.44e-01	0	43	104	0	29	23924
2026-01-16 11:01:52.33	119.78	13.05	-33.7	-48.5	4.3	7.30e-01	0	43	104	0	29	19808
2026-01-16 11:01:53.33	119.67	13.15	-33.6	-48.2	4.0	7.36e-01	0	43	104	0	29	19205
2026-01-16 11:01:54.33	119.56	13.24	-33.6	-47.0	5.0	7.09e-01	0	43	0	0	29	16762
2026-01-16 11:01:55.33	119.46	13.34	-33.6	-46.4	5.3	7.02e-01	0	43	0	0	29	15777
2026-01-16 11:01:56.32	119.35	13.43	-33.6	-46.0	5.6	6.93e-01	0	43	0	524288	29	14989
2026-01-16 11:01:57.32	119.24	13.53	-33.6	-45.8	5.7	6.90e-01	0	43	0	1048576	29	14762
2026-01-16 11:01:58.32	119.13	13.63	-33.6	-45.8	5.7	6.91e-01	0	43	0	2621440	29	14679
2026-01-16 11:01:59.32	119.02	13.73	-33.6	-46.2	5.5	6.96e-01	0	43	0	3145728	29	15361
2026-01-16 11:02:00.31	118.91	13.82	-33.6	-47.4	4.8	7.13e-01	0	43	0	3145728	29	17506
2026-01-16 11:02:01.30	118.80	13.92	-33.7	-50.1	3.9	7.43e-01	0	43	104	3145728	29	23755
2026-01-16 11:02:02.30	118.69	14.02	-33.8	-52.3	3.8	7.48e-01	0	43	104	3145728	29	30472
2026-01-16 11:02:03.31	118.57	14.12	-33.7	-51.1	3.9	7.44e-01	0	43	104	3145728	29	26649
2026-01-16 11:02:04.31	118.46	14.22	-33.6	-47.1	4.1	7.34e-01	0	43	104	3145728	29	16962
2026-01-16 11:02:05.31	118.34	14.32	-33.3	-43.0	8.2	6.44e-01	0	43	104	3145728	28	11043
2026-01-16 11:02:06.30	118.23	14.42	-32.9	-40.4	11.2	6.18e-01	0	43	0	524288	27	8518
2026-01-16 11:02:07.29	118.11	14.52	-32.5	-38.1	13.2	6.09e-01	0	43	0	2621440	27	6854
2026-01-16 11:02:08.29	118.00	14.62	-32.1	-36.9	14.5	6.08e-01	0	43	0	4194304	26	6289
2026-01-16 11:02:09.28	117.88	14.72	-31.8	-36.4	15.2	6.06e-01	0	43	0	6291456	25	6148
2026-01-16 11:02:10.27	117.76	14.82	-31.7	-36.2	15.4	6.06e-01	0	43	0	8388608	25	6041
2026-01-16 11:02:11.27	117.64	14.92	-31.7	-36.0	15.6	6.06e-01	0	43	0	9961472	25	5907
2026-01-16 11:02:12.26	117.52	15.02	-31.5	-35.6	15.9	6.07e-01	0	43	0	12058624	25	5732
2026-01-16 11:02:13.26	117.40	15.13	-31.5	-35.3	16.0	6.08e-01	0	43	0	13631488	25	5607
2026-01-16 11:02:14.25	117.28	15.23	-31.6	-35.7	15.8	6.05e-01	0	43	0	15728640	25	5790
2026-01-16 11:02:15.24	117.15	15.33	-31.5	-35.6	15.9	6.07e-01	0	43	0	17301504	25	5722
2026-01-16 11:02:16.24	117.03	15.44	-30.9	-34.6	16.2	6.04e-01	0	43	0	19398656	24	5524
2026-01-16 11:02:17.23	116.90	15.54	-31.0	-34.4	17.0	6.05e-01	0	43	0	20971520	24	5300
2026-01-16 11:02:18.23	116.78	15.64	-30.6	-33.6	17.9	6.06e-01	0	43	0	23068672	23	5084
2026-01-16 11:02:19.23	116.65	15.75	-30.3	-33.4	18.3	6.09e-01	0	43	0	25165824	22	5132
2026-01-16 11:02:20.23	116.52	15.85	-30.0	-32.6	18.8	6.06e-01	0	43	0	26738688	22	4836
2026-01-16 11:02:21.22	116.39	15.96	-29.7	-32.3	19.3	6.09e-01	0	43	0	28835840	21	4854
2026-01-16 11:02:22.21	116.26	16.06	-29.7	-32.2	19.4	6.05e-01	0	43	0	30408704	21	4800
2026-01-16 11:02:23.21	116.13	16.17	-29.7	-32.3	19.3	6.06e-01	0	43	0	32505856	21	4846
2026-01-16 11:02:24.19	116.00	16.27	-29.7	-32.3	19.4	6.06e-01	0	43	0	34078720	21	4846
2026-01-16 11:02:25.18	115.87	16.38	-29.8	-32.5	19.2	6.07e-01	0	43	0	36175872	21	4903
2026-01-16 11:02:26.18	115.73	16.49	-29.8	-32.3	19.3	6.06e-01	0	43	0	37748736	21	4851
2026-01-16 11:02:27.18	115.60	16.59	-29.6	-32.0	19.6	6.06e-01	0	43	0	39845888	21	4735
2026-01-16 11:02:28.17	115.46	16.70	-29.7	-32.1	19.6	6.08e-01	0	43	0	41943040	21	4742
2026-01-16 11:02:29.16	115.33	16.81	-29.6	-32.0	19.6	6.08e-01	0	43	0	43515904	21	4721
2026-01-16 11:02:30.15	115.19	16.92	-29.8	-32.5	19.3	6.06e-01	0	43	0	45613056	21	4893
2026-01-16 11:02:31.14	115.05	17.02	-29.6	-31.9	19.6	6.06e-01	0	43	0	47185920	21	4692
2026-01-16 11:02:32.14	114.91	17.13	-29.5	-31.7	19.7	6.07e-01	0	43	0	49283072	21	4633
2026-01-16 11:02:33.13	114.77	17.24	-29.5	-31.7	19.8	6.07e-01	0	43	0	50855936	21	4633
2026-01-16 11:02:34.13	114.62	17.35	-29.6	-31.9	19.7	6.07e-01	0	42	0	52953088	21	4692
2026-01-16 11:02:35.13	114.48	17.46	-29.7	-32.2	19.5	6.06e-01	0	43	0	54525952	21	4801
2026-01-16 11:02:36.12	114.33	17.57	-29.8	-32.4	19.4	6.06e-01	0	43	0	56623104	21	4864
2026-01-16 11:02:37.13	114.19	17.69	-29.8	-32.4	19.4	6.06e-01	0	43	0	58720256	21	4872
2026-01-16 11:02:38.12	114.04	17.80	-29.8	-32.5	19.3	6.08e-01	0	43	0	60293120	21	4914
2026-01-16 11:02:39.12	113.89	17.91	-29.9	-32.7	19.2	6.06e-01	0	43	0	62390272	21	4964
2026-01-16 11:02:40.11	113.74	18.02	-29.8	-32.6	19.3	6.08e-01	0	43	0	63963136	21	4941
2026-01-16 11:02:41.11	113.59	18.13	-29.9	-32.8	19.2	6.08e-01	0	43	0	66060288	21	4997
2026-01-16 11:02:42.11	113.44	18.25	-29.8	-32.6	19.3	6.04e-01	0	43	0	67633152	21	4940
2026-01-16 11:02:43.10	113.28	18.36	-30.0	-32.9	19.1	6.05e-01	0	43	0	69730304	21	5056
2026-01-16 11:02:44.09	113.13	18.47	-29.8	-32.4	19.4	6.04e-01	0	42	0	71303168	21	4877
2026-01-16 11:02:45.09	112.97	18.58	-29.7	-32.1	19.6	6.05e-01	0	42	0	73400320	21	4755
2026-01-16 11:02:46.09	112.82	18.70	-29.6	-31.9	19.8	6.06e-01	0	43	0	75497472	21	4680
2026-01-16 11:02:47.08	112.66	18.81	-29.6	-32.0	19.8	6.06e-01	0	43	0	77070336	21	4702
2026-01-16 11:02:48.08	112.50	18.93	-29.6	-31.8	19.8	6.04e-01	0	43	0	79167488	21	4660
2026-01-16 11:02:49.08	112.34	19.04	-29.8	-32.2	19.6	6.07e-01	0	43	0	80740352	21	4796
2026-01-16 11:02:50.07	112.18	19.16	-29.8	-32.5	19.4	6.08e-01	0	43	0	82837504	21	4885
2026-01-16 11:02:51.07	112.01	19.28	-29.8	-32.4	19.5	6.06e-01	0	42	0	84934656	21	4862
2026-01-16 11:02:52.06	111.85	19.39	-29.8	-32.4	19.5	6.06e-01	0	43	0	86507520	21	4842
2026-01-16 11:02:53.05	111.68	19.51	-29.9	-32.6	19.4	6.07e-01	0	43	0	88604672	21	4919
2026-01-16 11:02:54.05	111.51	19.63	-29.8	-32.5	19.5	6.07e-01	0	42	0	90177536	21	4883
2026-01-16 11:02:55.04	111.35	19.74	-29.8	-32.4	19.5	6.06e-01	0	42	0	92274688	21	4845
2026-01-16 11:02:56.04	111.18	19.86	-30.1	-33.2	19.1	6.07e-01	0	43	0	93847552	21	5130
2026-01-16 11:02:57.03	111.00	19.98	-30.0	-32.7	19.3	6.05e-01	0	43	0	95944704	21	4958
2026-01-16 11:02:58.03	110.83	20.10	-30.3	-33.5	18.9	6.06e-01	0	43	0	97517568	21	5244
2026-01-16 11:02:59.02	110.66	20.21	-30.0	-32.8	19.3	6.08e-01	0	43	0	99614720	21	4960
2026-01-16 11:03:00.03	110.48	20.34	-29.9	-32.5	19.5	6.04e-01	0	43	0	101711872	21	4874
2026-01-16 11:03:01.03	110.30	20.46	-29.8	-32.4	19.6	6.07e-01	0	43	0	103284736	21	4829
2026-01-16 11:03:02.02	110.12	20.57	-29.8	-32.3	19.6	6.05e-01	0	43	0	105381888	21	4808
2026-01-16 11:03:03.01	109.94	20.69	-29.9	-32.6	19.5	6.09e-01	0	43	0	106954752	21	4912
2026-01-16 11:03:04.01	109.76	20.82	-29.8	-32.3	19.6	6.10e-01	0	42	0	109051904	21	4820
2026-01-16 11:03:05.00	109.58	20.94	-29.9	-32.6	19.5	6.04e-01	0	43	0	110624768	21	4908
2026-01-16 11:03:06.00	109.39	21.06	-29.8	-32.4	19.6	6.07e-01	0	42	0	112721920	21	4829
2026-01-16 11:03:07.00	109.20	21.18	-29.7	-32.1	19.8	6.07e-01	0	43	0	114294784	21	4742
2026-01-16 11:03:07.99	109.02	21.30	-29.8	-32.3	19.7	6.05e-01	0	43	0	116391936	21	4812
2026-01-16 11:03:08.98	108.83	21.42	-29.8	-32.3	19.7	6.06e-01	0	43	0	118489088	21	4783
2026-01-16 11:03:09.99	108.63	21.55	-29.9	-32.6	19.5	6.07e-01	0	43	0	120061952	21	4905
2026-01-16 11:03:10.99	108.44	21.67	-29.9	-32.5	19.6	6.06e-01	0	43	0	122159104	21	4876
2026-01-16 11:03:11.98	108.25	21.79	-29.8	-32.4	19.7	6.08e-01	0	43	0	123731968	21	4821
2026-01-16 11:03:12.98	108.05	21.92	-29.9	-32.6	19.6	6.08e-01	0	43	0	125829120	21	4893
2026-01-16 11:03:13.98	107.85	22.04	-30.0	-32.8	19.4	6.08e-01	0	42	0	127401984	21	4948
2026-01-16 11:03:14.98	107.65	22.16	-29.8	-32.3	19.7	6.07e-01	0	43	0	129499136	21	4807
2026-01-16 11:03:15.99	107.45	22.29	-29.7	-32.0	19.9	6.06e-01	0	43	0	131596288	21	4697
2026-01-16 11:03:16.99	107.24	22.42	-29.7	-32.0	19.9	6.08e-01	0	42	0	133169152	21	4690
2026-01-16 11:03:17.99	107.04	22.54	-29.8	-32.2	19.8	6.04e-01	0	43	0	135266304	21	4763
2026-01-16 11:03:18.99	106.83	22.67	-29.9	-32.4	19.7	6.06e-01	0	42	0	136839168	21	4823
2026-01-16 11:03:20.00	106.62	22.79	-29.9	-32.4	19.6	6.05e-01	0	43	0	138936320	21	4839
2026-01-16 11:03:21.00	106.41	22.92	-29.9	-32.5	19.6	6.05e-01	0	42	0	140509184	21	4853
2026-01-16 11:03:22.00	106.19	23.05	-29.9	-32.5	19.6	6.06e-01	0	43	0	142606336	21	4866
2026-01-16 11:03:23.01	105.98	23.17	-30.0	-32.8	19.5	6.08e-01	0	43	0	144703488	21	4947
2026-01-16 11:03:24.01	105.76	23.30	-30.0	-32.7	19.5	6.07e-01	0	43	0	146276352	21	4912
2026-01-16 11:03:25.01	105.54	23.43	-30.0	-32.7	19.5	6.07e-01	0	43	0	148373504	21	4922
2026-01-16 11:03:26.02	105.32	23.56	-30.2	-33.4	19.1	6.06e-01	0	43	0	150470656	21	5175
2026-01-16 11:03:27.02	105.10	23.69	-29.9	-32.6	19.6	6.08e-01	0	43	0	152043520	21	4882
2026-01-16 11:03:28.03	104.87	23.82	-29.8	-32.2	19.8	6.07e-01	0	42	0	154140672	21	4746
2026-01-16 11:03:29.04	104.64	23.94	-29.8	-32.2	19.8	6.06e-01	0	43	0	155713536	21	4758
2026-01-16 11:03:30.04	104.41	24.07	-29.9	-32.4	19.7	6.06e-01	0	43	0	157810688	21	4812
2026-01-16 11:03:31.04	104.18	24.20	-29.9	-32.5	19.6	6.06e-01	0	43	0	159383552	21	4860
2026-01-16 11:03:32.04	103.95	24.33	-29.8	-32.3	19.8	6.06e-01	0	43	0	161480704	21	4794
2026-01-16 11:03:33.03	103.72	24.46	-30.0	-32.7	19.6	6.06e-01	0	43	0	163577856	21	4913
2026-01-16 11:03:34.04	103.48	24.59	-29.8	-32.1	19.9	6.06e-01	0	43	0	165150720	21	4731
2026-01-16 11:03:35.03	103.25	24.72	-29.8	-32.2	19.9	6.08e-01	0	43	0	167247872	21	4739
2026-01-16 11:03:36.03	103.01	24.85	-29.8	-32.3	19.8	6.08e-01	0	43	0	168820736	21	4799
2026-01-16 11:03:37.03	102.76	24.98	-30.0	-32.8	19.5	6.06e-01	0	43	0	170917888	21	4957
2026-01-16 11:03:38.03	102.52	25.11	-30.0	-32.7	19.5	6.07e-01	0	43	0	172490752	21	4940
2026-01-16 11:03:39.03	102.27	25.24	-29.9	-32.6	19.6	6.05e-01	0	43	0	174587904	21	4892
2026-01-16 11:03:40.04	102.02	25.37	-30.0	-32.7	19.5	6.02e-01	0	43	0	176685056	21	4952
2026-01-16 11:03:41.04	101.77	25.50	-29.9	-32.5	19.7	6.07e-01	0	43	0	178257920	21	4861
2026-01-16 11:03:42.04	101.52	25.63	-29.8	-32.2	19.9	6.08e-01	0	43	0	180355072	21	4767
2026-01-16 11:03:43.04	101.26	25.76	-29.8	-32.2	19.9	6.06e-01	0	43	0	181927936	21	4761
2026-01-16 11:03:44.04	101.00	25.89	-29.7	-31.9	20.1	6.07e-01	0	43	0	184025088	21	4662
2026-01-16 11:03:45.04	100.74	26.02	-30.0	-32.7	19.6	6.04e-01	0	43	0	185597952	21	4913
2026-01-16 11:03:46.04	100.48	26.15	-29.8	-32.2	19.9	6.07e-01	0	43	0	187695104	21	4770
2026-01-16 11:03:47.04	100.22	26.28	-29.7	-31.9	20.1	6.08e-01	0	43	0	189792256	21	4657
2026-01-16 11:03:48.04	99.95	26.41	-29.6	-31.8	20.1	6.06e-01	0	43	0	191365120	21	4637
2026-01-16 11:03:49.04	99.68	26.54	-29.7	-32.0	20.0	6.04e-01	0	43	0	193462272	21	4690
2026-01-16 11:03:50.04	99.41	26.67	-29.6	-31.8	20.1	6.07e-01	0	43	0	195035136	21	4629
2026-01-16 11:03:51.04	99.14	26.80	-29.6	-31.9	20.1	6.06e-01	0	43	0	197132288	21	4658
2026-01-16 11:03:52.05	98.86	26.94	-29.5	-31.6	20.3	6.08e-01	0	43	0	198705152	21	4564
2026-01-16 11:03:53.05	98.58	27.07	-29.6	-31.7	20.2	6.04e-01	0	43	0	200802304	21	4618
2026-01-16 11:03:54.05	98.30	27.20	-29.4	-31.3	20.4	6.06e-01	0	43	0	202899456	21	4489
2026-01-16 11:03:55.05	98.02	27.33	-29.4	-31.8	20.4	6.10e-01	0	43	0	204472320	20	4753
2026-01-16 11:03:56.06	97.73	27.46	-29.4	-31.7	20.5	6.06e-01	0	43	0	206569472	20	4711
2026-01-16 11:03:57.06	97.44	27.59	-29.5	-31.9	20.4	6.06e-01	0	43	0	208666624	20	4779
2026-01-16 11:03:58.07	97.15	27.72	-29.4	-31.9	20.5	6.08e-01	0	43	0	210239488	20	4747
2026-01-16 11:03:59.07	96.86	27.85	-29.4	-31.6	20.6	6.07e-01	0	43	0	212336640	20	4679
2026-01-16 11:04:00.07	96.56	27.98	-29.3	-31.5	20.6	6.08e-01	0	43	0	213909504	20	4639
2026-01-16 11:04:01.07	96.26	28.11	-29.4	-31.8	20.5	6.06e-01	0	43	0	216006656	20	4740
2026-01-16 11:04:02.07	95.96	28.24	-29.4	-31.7	20.5	6.07e-01	0	43	0	217579520	20	4709
2026-01-16 11:04:03.07	95.66	28.37	-29.5	-31.9	20.4	6.07e-01	0	43	0	219676672	20	4790
2026-01-16 11:04:04.08	95.35	28.50	-29.4	-31.7	20.5	6.06e-01	0	43	0	221773824	20	4696
2026-01-16 11:04:05.08	95.05	28.63	-29.3	-31.5	20.7	6.07e-01	0	43	0	223346688	20	4637
2026-01-16 11:04:06.08	94.73	28.76	-29.4	-31.7	20.5	6.08e-01	0	43	0	225443840	20	4705
2026-01-16 11:04:07.08	94.42	28.89	-29.3	-31.4	20.8	6.06e-01	0	43	0	227016704	20	4587
2026-01-16 11:04:08.08	94.11	29.01	-29.3	-31.3	20.8	6.05e-01	0	43	0	229113856	20	4556
2026-01-16 11:04:09.09	93.78	29.14	-29.2	-31.3	20.8	6.05e-01	0	43	0	230686720	20	4554
2026-01-16 11:04:10.09	93.46	29.27	-29.2	-31.2	20.9	6.08e-01	0	43	0	232783872	20	4528
2026-01-16 11:04:11.09	93.14	29.40	-29.3	-31.4	20.7	6.07e-01	0	43	0	234881024	20	4597
2026-01-16 11:04:12.09	92.81	29.52	-29.2	-31.3	20.8	6.05e-01	0	43	0	236453888	20	4567
2026-01-16 11:04:13.10	92.48	29.65	-29.2	-31.1	20.9	6.06e-01	0	43	0	238551040	20	4502
2026-01-16 11:04:14.09	92.15	29.77	-29.3	-31.3	20.8	6.08e-01	0	43	0	240123904	20	4571
2026-01-16 11:04:15.09	91.82	29.90	-29.2	-31.2	20.8	6.06e-01	0	43	0	242221056	20	4536
2026-01-16 11:04:16.10	91.48	30.03	-29.1	-30.8	21.1	6.06e-01	0	43	0	243793920	20	4405
2026-01-16 11:04:17.10	91.14	30.15	-29.1	-30.9	21.1	6.04e-01	0	43	0	245891072	20	4433
2026-01-16 11:04:18.11	90.79	30.27	-29.4	-31.7	20.6	6.03e-01	0	43	0	247988224	20	4677
2026-01-16 11:04:19.11	90.45	30.40	-29.4	-31.7	20.6	6.06e-01	0	43	0	249561088	20	4693
2026-01-16 11:04:20.11	90.10	30.52	-29.6	-32.0	20.4	6.07e-01	0	42	0	251658240	20	4789
2026-01-16 11:04:21.12	89.75	30.64	-29.2	-31.1	20.9	6.07e-01	0	43	0	253755392	20	4503
2026-01-16 11:04:22.12	89.39	30.76	-29.0	-30.7	21.2	6.08e-01	0	42	0	255328256	20	4368
2026-01-16 11:04:23.12	89.04	30.88	-29.1	-30.8	21.1	6.07e-01	0	43	0	257425408	20	4402
2026-01-16 11:04:24.12	88.68	31.00	-29.3	-31.4	20.9	6.04e-01	0	43	0	258998272	20	4570
2026-01-16 11:04:25.12	88.32	31.12	-29.6	-32.0	20.4	6.06e-01	0	43	0	261095424	20	4775
2026-01-16 11:04:26.12	87.95	31.24	-29.3	-31.5	20.7	6.07e-01	0	43	0	262668288	20	4612
2026-01-16 11:04:27.12	87.58	31.36	-29.3	-31.4	20.8	6.07e-01	0	43	0	264765440	20	4590
2026-01-16 11:04:28.12	87.21	31.48	-29.4	-31.5	20.7	6.02e-01	0	43	0	266862592	20	4622
2026-01-16 11:04:29.12	86.84	31.59	-29.2	-31.2	20.9	6.06e-01	0	43	0	268435456	20	4523
2026-01-16 11:04:30.12	86.47	31.71	-29.3	-31.3	20.8	6.06e-01	0	43	0	270532608	20	4563
2026-01-16 11:04:31.13	86.08	31.82	-29.3	-31.4	20.8	6.05e-01	0	43	0	272105472	20	4591
2026-01-16 11:04:32.13	85.70	31.94	-29.4	-31.6	20.7	6.08e-01	0	43	0	274202624	20	4639
2026-01-16 11:04:33.14	85.32	32.05	-29.2	-31.2	20.9	6.06e-01	0	43	0	275775488	20	4514
2026-01-16 11:04:34.14	84.93	32.16	-29.1	-31.0	21.0	6.06e-01	0	43	0	277872640	20	4440
2026-01-16 11:04:35.13	84.54	32.27	-29.2	-31.2	21.0	6.08e-01	0	43	0	279969792	20	4512
2026-01-16 11:04:36.14	84.15	32.38	-29.4	-31.7	20.6	6.05e-01	0	43	0	281542656	20	4679
2026-01-16 11:04:37.13	83.76	32.49	-29.4	-31.5	20.8	6.06e-01	0	43	0	283639808	20	4615
2026-01-16 11:04:38.12	83.36	32.59	-29.4	-31.6	20.7	6.07e-01	0	43	0	285212672	20	4652
2026-01-16 11:04:39.12	82.97	32.70	-29.2	-31.1	21.0	6.08e-01	0	43	0	287309824	20	4472
2026-01-16 11:04:40.12	82.56	32.80	-29.3	-31.4	20.8	6.07e-01	0	43	0	289406976	20	4592
2026-01-16 11:04:41.12	82.16	32.91	-29.5	-31.8	20.6	6.06e-01	0	43	0	290979840	20	4707
2026-01-16 11:04:42.12	81.75	33.01	-29.4	-31.5	20.8	6.07e-01	0	42	0	293076992	20	4611
2026-01-16 11:04:43.12	81.34	33.11	-29.4	-31.5	20.8	6.07e-01	0	43	0	294649856	20	4622
2026-01-16 11:04:44.12	80.93	33.21	-29.6	-32.0	20.5	6.05e-01	0	43	0	296747008	20	4783
2026-01-16 11:04:45.13	80.51	33.31	-29.4	-31.7	20.7	6.06e-01	0	42	0	298319872	20	4676
2026-01-16 11:04:46.13	80.09	33.41	-29.4	-31.5	20.8	6.08e-01	0	43	0	300417024	20	4621
2026-01-16 11:04:47.13	79.67	33.50	-29.4	-31.5	20.8	6.06e-01	0	43	0	302514176	20	4615
2026-01-16 11:04:48.13	79.24	33.60	-29.9	-42.2	3.8	7.46e-01	0	43	104	302514176	20	14895
2026-01-16 11:04:49.13	78.82	33.69	-30.4	-43.0	3.8	7.45e-01	0	43	104	302514176	21	15418
2026-01-16 11:04:50.13	78.39	33.78	-30.7	-43.4	3.8	7.43e-01	0	43	104	302514176	22	15403
2026-01-16 11:04:51.13	77.96	33.87	-30.9	-43.8	3.8	7.47e-01	0	43	104	302514176	22	15896
2026-01-16 11:04:52.13	77.52	33.96	-30.9	-43.8	3.8	7.43e-01	0	43	104	302514176	22	15930
2026-01-16 11:04:53.13	77.09	34.05	-31.1	-43.8	3.8	7.45e-01	0	43	104	302514176	23	15604
2026-01-16 11:04:54.13	76.65	34.13	-31.4	-44.4	3.9	7.43e-01	0	43	104	302514176	23	16214
2026-01-16 11:04:55.14	76.21	34.22	-31.7	-44.9	3.8	7.46e-01	0	43	104	302514176	24	16461
2026-01-16 11:04:56.14	75.76	34.30	-31.9	-45.3	3.8	7.46e-01	0	43	104	302514176	24	16976
2026-01-16 11:04:57.15	75.31	34.38	-32.2	-45.9	3.8	7.45e-01	0	43	104	302514176	25	17397
2026-01-16 11:04:58.15	74.87	34.46	-32.7	-46.8	3.8	7.46e-01	0	43	104	302514176	26	18365
2026-01-16 11:04:59.15	74.42	34.54	-33.0	-48.0	3.8	7.46e-01	0	43	104	302514176	26	20346
2026-01-16 11:05:00.15	73.97	34.61	-33.2	-48.4	3.8	7.45e-01	0	43	104	302514176	27	20699
2026-01-16 11:05:01.15	73.51	34.68	-33.4	-49.2	3.8	7.46e-01	0	43	104	302514176	27	22112
2026-01-16 11:05:02.15	73.06	34.76	-33.6	-49.8	3.8	7.46e-01	0	43	104	302514176	27	23318
2026-01-16 11:05:03.15	72.60	34.83	-33.6	-49.5	3.8	7.44e-01	0	43	104	302514176	28	22625
2026-01-16 11:05:04.15	72.14	34.89	-33.6	-49.7	3.8	7.45e-01	0	43	104	302514176	28	22878
2026-01-16 11:05:05.15	71.68	34.96	-33.8	-50.4	3.8	7.46e-01	0	43	104	302514176	28	24345
2026-01-16 11:05:06.15	71.21	35.02	-33.8	-50.7	3.8	7.43e-01	0	42	104	302514176	28	25096
2026-01-16 11:05:07.15	70.75	35.08	-33.8	-50.3	3.8	7.44e-01	0	42	104	302514176	28	24226
2026-01-16 11:05:08.16	70.28	35.14	-33.7	-49.9	3.8	7.43e-01	0	43	104	302514176	28	23351
2026-01-16 11:05:09.16	69.81	35.20	-33.6	-49.5	3.8	7.45e-01	0	43	104	302514176	28	22462
2026-01-16 11:05:10.16	69.34	35.26	-33.5	-49.2	3.8	7.43e-01	0	43	104	302514176	28	21806
2026-01-16 11:05:11.16	68.86	35.31	-33.6	-49.6	3.8	7.45e-01	0	43	104	302514176	28	22790
2026-01-16 11:05:12.16	68.39	35.36	-33.5	-49.1	3.8	7.46e-01	0	43	104	302514176	28	21786
2026-01-16 11:05:13.16	67.91	35.41	-33.4	-48.7	3.8	7.47e-01	0	43	104	302514176	28	20948
2026-01-16 11:05:14.16	67.44	35.46	-33.1	-47.5	3.8	7.44e-01	0	43	104	302514176	28	18988
2026-01-16 11:05:15.16	66.96	35.51	-33.0	-47.3	3.8	7.47e-01	0	42	104	302514176	28	18721
2026-01-16 11:05:16.16	66.48	35.55	-32.7	-46.6	3.8	7.44e-01	0	43	104	302514176	27	17743
2026-01-16 11:05:17.16	66.00	35.59	-32.6	-46.2	3.8	7.45e-01	0	43	104	302514176	27	17218
2026-01-16 11:05:18.17	65.51	35.63	-32.4	-45.6	3.8	7.44e-01	0	43	104	302514176	27	16419
2026-01-16 11:05:19.17	65.03	35.67	-32.1	-45.2	3.8	7.43e-01	0	42	104	302514176	26	16175
2026-01-16 11:05:20.17	64.55	35.70	-32.1	-45.2	3.8	7.46e-01	0	43	104	302514176	26	16188
2026-01-16 11:05:21.17	64.06	35.73	-32.1	-45.2	3.8	7.44e-01	0	43	104	302514176	26	16192
2026-01-16 11:05:22.17	63.57	35.76	-32.1	-45.1	3.8	7.45e-01	0	42	104	302514176	26	16068
2026-01-16 11:05:23.17	63.09	35.79	-32.2	-45.1	3.8	7.44e-01	0	42	104	302514176	26	16028
2026-01-16 11:05:24.18	62.59	35.81	-31.7	-44.3	3.8	7.42e-01	0	43	104	302514176	25	15379
2026-01-16 11:05:25.17	62.11	35.84	-31.4	-43.4	3.8	7.48e-01	0	43	104	302514176	25	14417
2026-01-16 11:05:26.17	61.62	35.86	-31.1	-43.1	3.8	7.41e-01	0	42	104	302514176	24	14390
2026-01-16 11:05:27.16	61.14	35.88	-30.7	-42.5	3.8	7.43e-01	0	43	104	302514176	23	14069
2026-01-16 11:05:28.16	60.65	35.89	-30.4	-42.2	3.9	7.46e-01	0	43	104	302514176	22	14150
2026-01-16 11:05:29.16	60.16	35.91	-30.3	-42.1	3.8	7.43e-01	0	43	104	302514176	22	14029
2026-01-16 11:05:30.17	59.66	35.92	-30.4	-42.5	3.8	7.45e-01	0	43	104	302514176	22	14422
2026-01-16 11:05:31.17	59.17	35.93	-30.3	-42.1	3.8	7.46e-01	0	43	104	302514176	22	13959
2026-01-16 11:05:32.17	58.68	35.93	-30.2	-42.0	3.8	7.44e-01	0	42	104	302514176	22	13894
2026-01-16 11:05:33.18	58.18	35.94	-30.2	-41.8	3.8	7.45e-01	0	43	104	302514176	22	13691
2026-01-16 11:05:34.18	57.69	35.94	-30.3	-42.1	3.8	7.45e-01	0	43	104	302514176	22	13989
2026-01-16 11:05:35.19	57.19	35.94	-30.5	-42.7	3.8	7.45e-01	0	43	104	302514176	22	14582
2026-01-16 11:05:36.19	56.70	35.93	-30.5	-42.6	3.8	7.44e-01	0	43	104	302514176	22	14486
2026-01-16 11:05:37.19	56.21	35.93	-30.5	-42.5	3.8	7.44e-01	0	43	104	302514176	22	14405
2026-01-16 11:05:38.20	55.71	35.92	-30.7	-43.0	3.8	7.45e-01	0	42	104	302514176	22	14948
2026-01-16 11:05:39.20	55.22	35.91	-30.9	-43.5	3.8	7.47e-01	0	42	104	302514176	22	15380
2026-01-16 11:05:40.21	54.73	35.90	-31.2	-44.0	3.8	7.47e-01	0	42	104	302514176	23	15706
2026-01-16 11:05:41.20	54.24	35.88	-31.7	-44.7	3.8	7.46e-01	0	42	104	302514176	24	16109
2026-01-16 11:05:42.21	53.75	35.87	-31.9	-45.6	3.8	7.43e-01	0	42	104	302514176	24	17263
2026-01-16 11:05:43.21	53.26	35.85	-32.2	-45.8	3.8	7.42e-01	0	43	104	302514176	25	17252
2026-01-16 11:05:44.22	52.76	35.83	-32.5	-46.7	3.8	7.48e-01	0	43	104	302514176	25	18572
2026-01-16 11:05:45.22	52.28	35.80	-32.9	-47.6	3.8	7.47e-01	0	43	104	302514176	26	19516
2026-01-16 11:05:46.22	51.79	35.78	-33.3	-48.7	3.8	7.47e-01	0	43	104	302514176	27	21163
2026-01-16 11:05:47.22	51.30	35.75	-33.5	-49.1	3.8	7.46e-01	0	43	104	302514176	27	21867
2026-01-16 11:05:48.22	50.82	35.72	-33.7	-50.0	3.8	7.45e-01	0	43	104	302514176	28	23470
2026-01-16 11:05:49.22	50.33	35.68	-33.7	-50.1	3.8	7.41e-01	0	43	104	302514176	28	23821
2026-01-16 11:05:50.23	49.85	35.65	-33.8	-50.4	3.8	7.47e-01	0	43	104	302514176	28	24462
2026-01-16 11:05:51.23	49.36	35.61	-33.8	-50.3	3.8	7.44e-01	0	43	104	302514176	28	24141
2026-01-16 11:05:52.23	48.88	35.57	-33.8	-50.3	3.8	7.46e-01	0	43	104	302514176	28	24213
2026-01-16 11:05:53.23	48.40	35.53	-33.7	-50.1	3.8	7.45e-01	0	43	104	302514176	28	23784
2026-01-16 11:05:54.24	47.92	35.48	-33.7	-50.1	3.8	7.44e-01	0	43	104	302514176	28	23706
2026-01-16 11:05:55.25	47.44	35.44	-33.7	-49.9	3.8	7.46e-01	0	43	104	302514176	28	23284
2026-01-16 11:05:56.26	46.96	35.39	-33.6	-49.5	3.8	7.46e-01	0	42	104	302514176	28	22526
2026-01-16 11:05:57.26	46.48	35.34	-33.6	-49.4	3.8	7.45e-01	0	43	104	302514176	28	22133
2026-01-16 11:05:58.25	46.02	35.29	-33.6	-49.4	3.8	7.46e-01	0	43	104	302514176	28	22337
2026-01-16 11:05:59.25	45.55	35.23	-33.5	-49.0	3.8	7.47e-01	0	43	104	302514176	28	21517
2026-01-16 11:06:00.25	45.08	35.18	-33.5	-49.0	3.8	7.45e-01	0	43	104	302514176	28	21521
2026-01-16 11:06:01.26	44.60	35.12	-33.6	-49.4	3.8	7.45e-01	0	43	104	302514176	28	22307
2026-01-16 11:06:02.26	44.14	35.06	-33.4	-48.7	3.8	7.44e-01	0	43	104	302514176	28	20920
2026-01-16 11:06:03.26	43.68	34.99	-33.2	-47.9	3.8	7.45e-01	0	43	104	302514176	28	19564
2026-01-16 11:06:04.25	43.22	34.93	-32.9	-46.9	3.8	7.42e-01	0	43	104	302514176	28	17882
2026-01-16 11:06:05.25	42.76	34.86	-32.7	-46.3	3.8	7.45e-01	0	43	104	302514176	27	17298
2026-01-16 11:06:06.25	42.30	34.79	-32.4	-45.4	3.8	7.45e-01	0	43	104	302514176	27	16151
2026-01-16 11:06:07.25	41.84	34.72	-32.2	-45.4	3.8	7.44e-01	0	42	104	302514176	26	16415
2026-01-16 11:06:08.26	41.39	34.65	-32.0	-44.8	3.8	7.48e-01	0	42	104	302514176	26	15598
2026-01-16 11:06:09.26	40.93	34.58	-32.0	-44.6	3.8	7.46e-01	0	43	104	302514176	26	15448
2026-01-16 11:06:10.26	40.48	34.50	-31.9	-44.5	3.8	7.46e-01	0	43	104	302514176	26	15272
2026-01-16 11:06:11.27	40.03	34.42	-31.8	-44.7	3.8	7.44e-01	0	43	104	302514176	25	15865
2026-01-16 11:06:12.27	39.59	34.34	-31.8	-44.7	3.8	7.41e-01	0	43	104	302514176	25	15844
2026-01-16 11:06:13.27	39.14	34.26	-31.8	-44.6	3.8	7.45e-01	0	43	104	302514176	25	15653
2026-01-16 11:06:14.28	38.70	34.18	-31.3	-43.8	3.9	7.45e-01	0	43	104	302514176	24	15169
2026-01-16 11:06:15.28	38.26	34.09	-30.9	-42.7	3.8	7.45e-01	0	43	104	302514176	24	13968
2026-01-16 11:06:16.28	37.82	34.01	-30.5	-41.9	3.8	7.42e-01	0	43	104	302514176	23	13457
2026-01-16 11:06:17.28	37.39	33.92	-30.2	-41.9	3.8	7.45e-01	0	43	104	302514176	22	13842
2026-01-16 11:06:18.28	36.96	33.83	-30.2	-42.0	3.8	7.42e-01	0	43	104	302514176	22	13964
2026-01-16 11:06:19.28	36.53	33.74	-30.1	-41.8	3.8	7.43e-01	0	43	104	302514176	22	13809
2026-01-16 11:06:20.28	36.10	33.65	-30.0	-41.2	3.8	7.41e-01	0	43	104	302514176	22	13149
2026-01-16 11:06:21.28	35.68	33.56	-30.1	-41.6	3.8	7.46e-01	0	43	104	302514176	22	13490
2026-01-16 11:06:22.28	35.26	33.46	-30.4	-42.4	3.8	7.46e-01	0	43	104	302514176	22	14417
2026-01-16 11:06:23.29	34.84	33.36	-30.7	-43.0	3.8	7.43e-01	0	43	104	302514176	22	14898
2026-01-16 11:06:24.29	34.42	33.27	-31.1	-44.1	3.8	7.46e-01	0	42	104	302514176	22	16164
2026-01-16 11:06:25.29	34.01	33.17	-31.4	-44.6	3.8	7.44e-01	0	43	104	302514176	23	16437
2026-01-16 11:06:26.29	33.60	33.07	-31.4	-44.5	3.8	7.41e-01	0	43	104	302514176	23	16220
2026-01-16 11:06:27.29	33.19	32.97	-31.5	-44.5	3.8	7.39e-01	0	43	104	302514176	23	16241
2026-01-16 11:06:28.30	32.78	32.86	-31.6	-45.0	3.8	7.47e-01	0	43	104	302514176	23	16961
2026-01-16 11:06:29.30	32.38	32.76	-31.9	-45.6	3.8	7.43e-01	0	43	104	302514176	24	17309
2026-01-16 11:06:30.31	31.97	32.65	-32.2	-45.8	3.8	7.45e-01	0	43	104	302514176	25	17255
2026-01-16 11:06:31.31	31.57	32.55	-32.3	-46.2	3.8	7.46e-01	0	43	104	302514176	25	17745
2026-01-16 11:06:32.31	31.18	32.44	-32.6	-46.7	3.8	7.45e-01	0	43	104	302514176	26	18152
2026-01-16 11:06:33.31	30.79	32.33	-33.0	-48.2	3.8	7.46e-01	0	43	104	302514176	26	20584
2026-01-16 11:06:34.30	30.40	32.22	-33.4	-49.1	3.8	7.40e-01	0	43	104	302514176	27	22011
2026-01-16 11:06:35.30	30.02	32.11	-33.6	-49.5	3.8	7.45e-01	0	43	104	302514176	28	22586
2026-01-16 11:06:36.30	29.63	32.00	-33.7	-50.2	3.8	7.46e-01	0	43	104	302514176	28	23947
2026-01-16 11:06:37.30	29.25	31.89	-33.6	-49.5	3.8	7.43e-01	0	43	104	302514176	28	22561
2026-01-16 11:06:38.31	28.87	31.77	-33.4	-48.7	3.8	7.44e-01	0	43	104	302514176	28	21094
2026-01-16 11:06:39.31	28.49	31.66	-33.4	-48.8	3.8	7.47e-01	0	43	104	302514176	28	21166
2026-01-16 11:06:40.31	28.12	31.54	-33.4	-49.0	3.8	7.47e-01	0	43	104	302514176	28	21568
2026-01-16 11:06:41.32	27.75	31.43	-33.4	-48.9	3.8	7.41e-01	0	43	104	302514176	28	21337
2026-01-16 11:06:42.32	27.38	31.31	-33.5	-49.1	3.8	7.43e-01	0	43	104	302514176	28	21723
2026-01-16 11:06:43.32	27.02	31.19	-33.5	-49.4	3.8	7.45e-01	0	43	104	302514176	28	22330
2026-01-16 11:06:44.32	26.65	31.08	-33.5	-49.4	3.8	7.46e-01	0	43	104	302514176	28	22394
2026-01-16 11:06:45.33	26.29	30.95	-33.5	-49.2	3.8	7.47e-01	0	43	104	302514176	28	22049
2026-01-16 11:06:46.34	25.93	30.83	-33.5	-49.2	3.8	7.45e-01	0	42	104	302514176	28	21899
2026-01-16 11:06:47.34	25.58	30.71	-33.4	-48.9	3.8	7.43e-01	0	42	104	302514176	28	21381
2026-01-16 11:06:48.34	25.23	30.59	-33.4	-48.6	3.8	7.41e-01	0	43	104	302514176	28	20809
2026-01-16 11:06:49.34	24.88	30.47	-33.3	-48.4	3.8	7.47e-01	0	43	104	302514176	28	20433
2026-01-16 11:06:50.35	24.53	30.35	-33.3	-48.3	3.8	7.46e-01	0	43	104	302514176	28	20335
2026-01-16 11:06:51.35	24.19	30.22	-33.4	-48.7	3.8	7.47e-01	0	43	104	302514176	28	20965
2026-01-16 11:06:52.35	23.85	30.10	-33.2	-48.0	3.8	7.45e-01	0	43	104	302514176	28	19865
2026-01-16 11:06:53.35	23.51	29.98	-32.9	-47.0	3.8	7.49e-01	0	43	104	302514176	28	18169
2026-01-16 11:06:54.36	23.17	29.85	-32.6	-46.2	3.8	7.50e-01	0	42	104	302514176	27	17160
2026-01-16 11:06:55.37	22.84	29.73	-32.2	-45.2	3.8	7.46e-01	0	43	104	302514176	26	16240
2026-01-16 11:06:56.37	22.51	29.60	-31.9	-44.5	3.8	7.45e-01	0	43	104	302514176	26	15411
2026-01-16 11:06:57.37	22.18	29.47	-31.7	-44.4	3.8	7.40e-01	0	43	104	302514176	25	15568
2026-01-16 11:06:58.36	21.86	29.35	-31.5	-43.9	3.8	7.45e-01	0	43	104	302514176	25	14987
2026-01-16 11:06:59.36	21.54	29.22	-31.5	-43.9	3.8	7.45e-01	0	43	104	302514176	25	15060
2026-01-16 11:07:00.36	21.22	29.10	-31.5	-43.9	3.8	7.47e-01	0	43	104	302514176	25	15092
2026-01-16 11:07:01.36	20.91	28.97	-31.5	-43.9	3.8	7.46e-01	0	43	104	302514176	25	15035
2026-01-16 11:07:02.36	20.59	28.84	-31.6	-44.0	3.8	7.45e-01	0	43	104	302514176	25	15055
2026-01-16 11:07:03.37	20.28	28.71	-31.6	-44.1	3.8	7.43e-01	0	43	104	302514176	25	15277
2026-01-16 11:07:04.37	19.97	28.58	-31.3	-43.8	3.8	7.44e-01	0	43	104	302514176	24	15204
2026-01-16 11:07:05.38	19.66	28.45	-30.9	-42.7	3.8	7.42e-01	0	43	104	302514176	24	14016
2026-01-16 11:07:06.38	19.36	28.33	-30.7	-42.6	3.8	7.47e-01	0	43	104	302514176	23	14220
2026-01-16 11:07:07.38	19.06	28.20	-30.5	-42.4	3.8	7.47e-01	0	43	104	302514176	23	14070
2026-01-16 11:07:08.38	18.76	28.07	-30.3	-42.4	3.8	7.43e-01	0	43	104	302514176	22	14496
2026-01-16 11:07:09.39	18.47	27.94	-30.4	-42.3	3.8	7.44e-01	0	43	104	302514176	22	14317
2026-01-16 11:07:10.40	18.17	27.81	-30.7	-43.1	3.8	7.47e-01	0	43	104	302514176	22	14985
2026-01-16 11:07:11.40	17.88	27.68	-31.3	-44.2	3.8	7.44e-01	0	43	104	302514176	23	15855
2026-01-16 11:07:12.41	17.59	27.55	-31.8	-45.3	3.8	7.43e-01	0	43	104	302514176	24	17068
2026-01-16 11:07:13.41	17.30	27.42	-32.1	-45.9	3.8	7.42e-01	0	43	104	302514176	25	17709
2026-01-16 11:07:14.41	17.02	27.29	-32.9	-47.6	3.8	7.46e-01	0	43	104	302514176	26	19688
2026-01-16 11:07:15.42	16.74	27.16	-33.1	-48.2	3.8	7.45e-01	0	43	104	302514176	27	20317
2026-01-16 11:07:16.42	16.46	27.03	-33.0	-47.5	3.8	7.39e-01	0	43	104	302514176	27	19112
2026-01-16 11:07:17.43	16.18	26.89	-32.8	-46.7	3.8	7.43e-01	0	43	104	302514176	27	17880
2026-01-16 11:07:18.44	15.90	26.76	-32.8	-46.7	3.8	7.46e-01	0	43	104	302514176	27	17970
2026-01-16 11:07:19.44	15.63	26.63	-32.8	-47.1	3.8	7.46e-01	0	43	104	302514176	27	18585
2026-01-16 11:07:20.43	15.37	26.50	-32.9	-47.7	3.8	7.48e-01	0	43	104	302514176	27	19619
2026-01-16 11:07:21.44	15.10	26.37	-33.1	-48.2	3.8	7.43e-01	0	43	104	302514176	27	20462
2026-01-16 11:07:22.43	14.84	26.24	-33.4	-49.4	3.8	7.46e-01	0	43	104	302514176	27	22755
2026-01-16 11:07:23.43	14.58	26.11	-33.6	-49.9	3.8	7.47e-01	0	43	104	302514176	28	23522
2026-01-16 11:07:24.44	14.31	25.98	-33.6	-50.1	3.8	7.47e-01	0	43	104	302514176	28	24023
2026-01-16 11:07:25.44	14.06	25.85	-33.4	-49.3	3.8	7.45e-01	0	43	104	302514176	28	22395
2026-01-16 11:07:26.44	13.80	25.72	-33.3	-48.6	3.8	7.48e-01	0	43	104	302514176	28	20971
2026-01-16 11:07:27.45	13.55	25.59	-33.0	-47.4	3.8	7.43e-01	0	43	104	302514176	28	18951
2026-01-16 11:07:28.45	13.30	25.46	-33.0	-47.7	3.8	7.46e-01	0	43	104	302514176	27	19559
2026-01-16 11:07:29.45	13.05	25.33	-33.1	-48.1	3.8	7.43e-01	0	43	104	302514176	27	20373
2026-01-16 11:07:30.46	12.80	25.20	-33.1	-48.3	3.8	7.45e-01	0	43	104	302514176	27	20685
2026-01-16 11:07:31.46	12.55	25.07	-33.2	-48.8	3.8	7.44e-01	0	43	104	302514176	27	21705
2026-01-16 11:07:32.46	12.31	24.94	-33.3	-49.3	3.8	7.43e-01	0	43	104	302514176	27	22516
2026-01-16 11:07:33.46	12.07	24.81	-33.5	-49.8	3.8	7.47e-01	0	43	104	302514176	27	23632
2026-01-16 11:07:34.46	11.83	24.69	-33.5	-50.0	3.8	7.43e-01	0	42	104	302514176	27	24107
2026-01-16 11:07:35.47	11.60	24.56	-33.4	-49.7	3.8	7.45e-01	0	43	104	302514176	27	23429
2026-01-16 11:07:36.47	11.36	24.43	-33.4	-49.4	3.8	7.46e-01	0	43	104	302514176	27	22864
2026-01-16 11:07:37.47	11.13	24.30	-33.3	-49.1	3.8	7.49e-01	0	43	104	302514176	27	22282
2026-01-16 11:07:38.48	10.90	24.17	-33.2	-48.8	3.8	7.44e-01	0	43	104	302514176	27	21693
2026-01-16 11:07:39.48	10.67	24.04	-33.1	-48.5	3.8	7.47e-01	0	43	104	302514176	27	21125
2026-01-16 11:07:40.48	10.44	23.91	-33.2	-48.7	3.8	7.46e-01	0	43	104	302514176	27	21446
2026-01-16 11:07:41.48	10.22	23.79	-33.2	-48.9	3.8	7.44e-01	0	43	104	302514176	27	21878
2026-01-16 11:07:42.49	10.00	23.66	-32.9	-47.7	3.8	7.44e-01	0	43	104	302514176	27	19569
2026-01-16 11:07:43.49	9.77	23.53	-32.6	-46.6	3.8	7.43e-01	0	43	104	302514176	27	18062
2026-01-16 11:07:44.49	9.56	23.40	-32.3	-46.1	3.8	7.44e-01	0	43	104	302514176	26	17674
2026-01-16 11:07:45.49	9.34	23.28	-32.0	-45.1	3.8	7.46e-01	0	43	104	302514176	26	16205
2026-01-16 11:07:46.49	9.13	23.15	-31.6	-44.2	3.8	7.40e-01	0	43	104	302514176	25	15433
2026-01-16 11:07:47.50	8.91	23.02	-31.4	-43.7	3.8	7.45e-01	0	42	104	302514176	25	14776
2026-01-16 11:07:48.50	8.70	22.90	-31.4	-43.6	3.8	7.43e-01	0	43	104	302514176	25	14723
2026-01-16 11:07:49.50	8.49	22.77	-31.5	-44.0	3.8	7.43e-01	0	42	104	302514176	25	15186
2026-01-16 11:07:50.51	8.28	22.65	-31.8	-44.9	3.8	7.45e-01	0	43	104	302514176	25	16263
2026-01-16 11:07:51.50	8.08	22.52	-31.9	-45.3	3.8	7.44e-01	0	43	104	302514176	25	16921
2026-01-16 11:07:52.51	7.87	22.40	-32.1	-45.9	3.8	7.44e-01	0	43	104	302514176	25	17705
2026-01-16 11:07:53.51	7.67	22.27	-32.1	-45.9	3.8	7.46e-01	0	43	104	302514176	25	17588
2026-01-16 11:07:54.51	7.47	22.15	-31.8	-45.1	3.8	7.46e-01	0	42	104	302514176	25	16544
2026-01-16 11:07:55.51	7.27	22.02	-31.6	-44.4	3.8	7.45e-01	0	43	104	302514176	25	15569
2026-01-16 11:07:56.51	7.07	21.90	-31.3	-43.9	3.8	7.42e-01	0	43	104	302514176	24	15378
2026-01-16 11:07:57.52	6.88	21.78	-31.1	-43.4	3.8	7.45e-01	0	43	104	302514176	24	14814
2026-01-16 11:07:58.51	6.69	21.65	-31.2	-43.7	3.8	7.47e-01	0	43	104	302514176	24	15196
2026-01-16 11:07:59.51	6.49	21.53	-31.6	-45.0	3.8	7.44e-01	0	43	104	302514176	24	16795
2026-01-16 11:08:00.51	6.30	21.41	-31.7	-45.3	3.8	7.44e-01	0	43	104	302514176	24	17180
2026-01-16 11:08:01.51	6.12	21.29	-32.0	-46.1	3.8	7.47e-01	0	43	104	302514176	24	18284
2026-01-16 11:08:02.50	5.93	21.17	-32.6	-47.4	3.8	7.44e-01	0	43	104	302514176	25	19845
2026-01-16 11:08:03.50	5.74	21.05	-33.0	-48.4	3.8	7.45e-01	0	43	104	302514176	26	21144
2026-01-16 11:08:04.51	5.56	20.92	-33.2	-49.0	3.8	7.45e-01	0	43	104	302514176	27	22059
2026-01-16 11:08:05.50	5.38	20.80	-33.4	-50.0	3.8	7.43e-01	0	43	104	302514176	27	24226
2026-01-16 11:08:06.51	5.19	20.68	-33.4	-49.9	3.8	7.47e-01	0	42	104	302514176	27	24160
2026-01-16 11:08:07.51	5.02	20.56	-33.4	-49.9	3.8	7.43e-01	0	43	104	302514176	27	24017
2026-01-16 11:08:08.52	4.84	20.44	-33.3	-49.4	3.8	7.45e-01	0	43	104	302514176	27	23028
2026-01-16 11:08:09.52	4.66	20.32	-33.3	-49.3	3.8	7.45e-01	0	43	104	302514176	27	22807
2026-01-16 11:08:10.52	4.48	20.20	-33.3	-49.4	3.8	7.46e-01	0	43	104	302514176	27	22985
2026-01-16 11:08:11.53	4.31	20.08	-33.3	-49.4	3.8	7.42e-01	0	43	104	302514176	27	23073
2026-01-16 11:08:12.53	4.14	19.97	-33.3	-49.4	3.8	7.46e-01	0	43	104	302514176	27	23120
2026-01-16 11:08:13.53	3.97	19.85	-33.1	-48.8	3.8	7.44e-01	0	43	104	302514176	27	21788
2026-01-16 11:08:14.53	3.80	19.73	-32.9	-48.0	3.8	7.47e-01	0	43	104	302514176	27	20340
2026-01-16 11:08:15.53	3.63	19.61	-32.7	-47.0	3.8	7.44e-01	0	43	104	302514176	27	18717
2026-01-16 11:08:16.53	3.46	19.50	-32.4	-46.0	3.8	7.46e-01	0	43	104	302514176	27	17213
2026-01-16 11:08:17.53	3.30	19.38	-32.1	-45.5	3.8	7.46e-01	0	43	104	302514176	26	16801
2026-01-16 11:08:18.53	3.13	19.26	-32.1	-45.7	3.8	7.47e-01	0	43	104	302514176	26	17187
2026-01-16 11:08:19.54	2.97	19.15	-32.3	-46.4	3.8	7.46e-01	0	43	104	302514176	26	18214
2026-01-16 11:08:20.54	2.81	19.03	-32.5	-47.0	3.8	7.45e-01	0	43	104	302514176	26	19040
2026-01-16 11:08:21.54	2.65	18.92	-32.7	-47.6	3.8	7.47e-01	0	43	104	302514176	26	19971
2026-01-16 11:08:22.55	2.49	18.80	-32.9	-48.4	3.8	7.43e-01	0	43	104	302514176	26	21352
2026-01-16 11:08:23.54	2.33	18.69	-33.1	-49.2	3.8	7.42e-01	0	43	104	302514176	26	23097
2026-01-16 11:08:24.55	2.17	18.57	-33.1	-49.1	3.8	7.46e-01	0	43	104	302514176	27	22681
2026-01-16 11:08:25.56	2.02	18.46	-33.0	-48.7	3.8	7.43e-01	0	43	104	302514176	27	21945
2026-01-16 11:08:26.57	1.86	18.34	-32.9	-48.2	3.8	7.46e-01	0	43	104	302514176	27	20917
2026-01-16 11:08:27.56	1.71	18.23	-32.8	-47.8	3.8	7.43e-01	0	43	104	302514176	27	20111
2026-01-16 11:08:28.56	1.56	18.12	-32.7	-47.3	3.8	7.41e-01	0	43	104	302514176	27	19217
2026-01-16 11:08:29.57	1.41	18.01	-32.7	-47.1	3.8	7.45e-01	0	43	104	302514176	27	18999
2026-01-16 11:08:30.58	1.26	17.89	-32.8	-47.5	3.8	7.44e-01	0	43	104	302514176	27	19596
2026-01-16 11:08:31.58	1.11	17.78	-32.8	-47.5	3.8	7.45e-01	0	43	104	302514176	27	19599
2026-01-16 11:08:32.58	0.97	17.67	-32.5	-46.5	3.8	7.44e-01	0	43	104	302514176	27	18075
2026-01-16 11:08:33.58	0.82	17.56	-32.1	-45.7	3.8	7.45e-01	0	43	104	302514176	26	17200
2026-01-16 11:08:34.58	0.68	17.45	-31.6	-44.7	3.8	7.46e-01	0	43	104	302514176	25	16245
2026-01-16 11:08:35.59	0.53	17.34	-31.3	-44.2	3.8	7.43e-01	0	43	104	302514176	24	15932
2026-01-16 11:08:36.59	0.39	17.23	-31.1	-43.6	3.8	7.45e-01	0	43	104	302514176	24	15132
2026-01-16 11:08:37.60	0.25	17.12	-31.4	-44.4	3.8	7.44e-01	0	43	104	302514176	24	16063
2026-01-16 11:08:38.60	0.11	17.01	-31.5	-44.7	3.8	7.43e-01	0	43	104	302514176	24	16446
2026-01-16 11:08:39.59	359.97	16.90	-31.8	-45.6	3.8	7.44e-01	0	43	104	302514176	24	17822
2026-01-16 11:08:40.60	359.84	16.80	-32.0	-46.5	3.8	7.45e-01	0	43	104	302514176	24	19034
2026-01-16 11:08:41.61	359.70	16.69	-32.3	-46.8	3.8	7.42e-01	0	43	104	302514176	25	19255
2026-01-16 11:08:42.61	359.56	16.58	-32.5	-47.5	3.8	7.41e-01	0	43	104	302514176	25	20298
2026-01-16 11:08:43.61	359.43	16.47	-32.5	-47.4	3.8	7.44e-01	0	43	104	302514176	25	20039
2026-01-16 11:08:44.61	359.30	16.37	-32.3	-46.7	3.8	7.45e-01	0	43	104	302514176	25	18934
2026-01-16 11:08:45.62	359.16	16.26	-32.2	-46.2	3.8	7.46e-01	0	43	104	302514176	25	18066
2026-01-16 11:08:46.61	359.03	16.15	-32.1	-46.0	3.8	7.41e-01	0	43	104	302514176	25	17856
2026-01-16 11:08:47.61	358.90	16.05	-32.0	-45.7	3.8	7.42e-01	0	43	104	302514176	25	17505
2026-01-16 11:08:48.61	358.77	15.94	-32.0	-45.8	3.8	7.44e-01	0	43	104	302514176	25	17824
2026-01-16 11:08:49.61	358.65	15.84	-32.1	-46.5	3.8	7.44e-01	0	43	104	302514176	25	18779
2026-01-16 11:08:50.61	358.52	15.73	-32.5	-47.9	3.8	7.43e-01	0	43	104	302514176	25	21053
2026-01-16 11:08:51.61	358.39	15.63	-32.9	-48.4	3.8	7.47e-01	0	42	104	302514176	26	21672
2026-01-16 11:08:52.60	358.27	15.53	-33.2	-49.2	3.8	7.43e-01	0	42	104	302514176	27	22773
2026-01-16 11:08:53.60	358.14	15.42	-33.3	-50.1	3.8	7.44e-01	0	43	104	302514176	27	24735
2026-01-16 11:08:54.60	358.02	15.32	-33.3	-49.8	3.8	7.43e-01	0	42	104	302514176	27	24132
2026-01-16 11:08:55.60	357.90	15.22	-33.2	-49.6	3.8	7.44e-01	0	43	104	302514176	27	23621
2026-01-16 11:08:56.60	357.78	15.12	-33.3	-49.7	3.8	7.43e-01	0	43	104	302514176	27	23880
2026-01-16 11:08:57.60	357.66	15.01	-33.2	-49.5	3.8	7.42e-01	0	43	104	302514176	27	23505
2026-01-16 11:08:58.61	357.54	14.91	-33.1	-49.4	3.8	7.45e-01	0	43	104	302514176	27	23283
2026-01-16 11:08:59.61	357.42	14.81	-33.1	-49.4	3.8	7.42e-01	0	43	104	302514176	27	23350
2026-01-16 11:09:00.61	357.30	14.71	-33.1	-49.2	3.8	7.45e-01	0	43	104	302514176	27	23005
2026-01-16 11:09:01.61	357.18	14.61	-33.0	-48.7	3.8	7.44e-01	0	42	104	302514176	27	22029
2026-01-16 11:09:02.61	357.07	14.51	-32.9	-48.1	3.8	7.46e-01	0	43	104	302514176	27	20756
2026-01-16 11:09:03.62	356.95	14.41	-32.7	-47.3	3.8	7.42e-01	0	42	104	302514176	27	19400
2026-01-16 11:09:04.62	356.84	14.31	-32.4	-46.3	3.8	7.46e-01	0	43	104	302514176	26	17954
2026-01-16 11:09:05.62	356.72	14.21	-32.1	-45.6	3.8	7.43e-01	0	43	104	302514176	26	17091
2026-01-16 11:09:06.62	356.61	14.11	-31.8	-45.2	3.8	7.44e-01	0	43	104	302514176	25	16824
2026-01-16 11:09:07.62	356.50	14.01	-31.5	-44.3	3.8	7.45e-01	0	43	104	302514176	25	15775
2026-01-16 11:09:08.63	356.39	13.91	-31.5	-44.4	3.8	7.48e-01	0	43	104	302514176	25	15903
2026-01-16 11:09:09.63	356.28	13.81	-31.8	-45.3	3.8	7.42e-01	0	43	104	302514176	25	16977
2026-01-16 11:09:10.63	356.17	13.72	-32.0	-46.1	3.8	7.46e-01	0	43	104	302514176	25	18205
2026-01-16 11:09:11.63	356.06	13.62	-32.3	-47.1	3.8	7.45e-01	0	43	104	302514176	25	19737
2026-01-16 11:09:12.64	355.95	13.52	-32.5	-48.0	3.8	7.43e-01	0	43	104	302514176	25	21381
2026-01-16 11:09:13.64	355.84	13.43	-32.8	-48.5	3.8	7.44e-01	0	43	104	302514176	26	22008
2026-01-16 11:09:14.64	355.73	13.33	-32.8	-48.7	3.8	7.46e-01	0	43	104	302514176	26	22399
2026-01-16 11:09:15.65	355.63	13.23	-32.7	-48.3	3.8	7.45e-01	0	43	104	302514176	26	21583
2026-01-16 11:09:16.66	355.52	13.14	-32.6	-47.8	3.8	7.47e-01	0	43	104	302514176	26	20790
2026-01-16 11:09:17.66	355.42	13.04	-32.5	-47.3	3.8	7.45e-01	0	43	104	302514176	26	19803
2026-01-16 11:09:18.66	355.32	12.95	-32.5	-47.3	3.8	7.45e-01	0	43	104	302514176	26	19814
2026-01-16 11:09:19.67	355.21	12.85	-32.6	-47.7	3.8	7.44e-01	0	43	104	302514176	26	20566
2026-01-16 11:09:20.67	355.11	12.76	-32.8	-48.5	3.8	7.44e-01	0	43	104	302514176	26	21889
2026-01-16 11:09:21.67	355.01	12.66	-32.7	-48.2	3.8	7.46e-01	0	43	104	302514176	26	21430
2026-01-16 11:09:22.67	354.91	12.57	-32.5	-47.2	3.8	7.43e-01	0	43	104	302514176	26	19644
2026-01-16 11:09:23.68	354.81	12.47	-32.2	-46.2	3.8	7.47e-01	0	43	104	302514176	26	18022
2026-01-16 11:09:24.69	354.71	12.38	-31.8	-45.6	3.8	7.45e-01	0	43	104	302514176	25	17570
2026-01-16 11:09:25.69	354.61	12.29	-31.6	-44.7	3.8	7.46e-01	0	43	104	302514176	25	16389
2026-01-16 11:09:26.70	354.51	12.19	-31.6	-44.9	3.8	7.44e-01	0	43	104	302514176	25	16580
2026-01-16 11:09:27.70	354.41	12.10	-31.9	-45.8	3.8	7.47e-01	0	43	104	302514176	25	17838
2026-01-16 11:09:28.71	354.32	12.01	-32.1	-46.7	3.8	7.44e-01	0	43	104	302514176	25	19242
2026-01-16 11:09:29.71	354.22	11.92	-32.3	-47.4	3.8	7.43e-01	0	43	104	302514176	25	20439
2026-01-16 11:09:30.71	354.13	11.83	-32.5	-48.2	3.8	7.45e-01	0	43	104	302514176	25	21944
2026-01-16 11:09:31.71	354.03	11.74	-32.7	-48.5	3.8	7.45e-01	0	43	104	302514176	26	22070
2026-01-16 11:09:32.72	353.94	11.65	-32.9	-49.0	3.8	7.44e-01	0	43	104	302514176	26	23140
2026-01-16 11:09:33.72	353.85	11.56	-32.9	-49.0	3.8	7.47e-01	0	43	104	302514176	26	23149
2026-01-16 11:09:34.72	353.75	11.47	-32.8	-48.8	3.8	7.46e-01	0	43	104	302514176	26	22716
2026-01-16 11:09:35.72	353.66	11.38	-32.8	-48.6	3.8	7.44e-01	0	43	104	302514176	26	22299
2026-01-16 11:09:36.72	353.57	11.29	-32.8	-48.7	3.8	7.43e-01	0	43	104	302514176	26	22410
2026-01-16 11:09:37.72	353.48	11.20	-32.8	-48.7	3.8	7.46e-01	0	43	104	302514176	26	22516
2026-01-16 11:09:38.73	353.39	11.11	-32.8	-48.9	3.8	7.43e-01	0	43	104	302514176	26	22888
2026-01-16 11:09:39.72	353.30	11.02	-33.0	-49.6	3.8	7.46e-01	0	43	104	302514176	26	24379
2026-01-16 11:09:40.73	353.21	10.93	-33.1	-50.2	3.8	7.44e-01	0	42	104	302514176	26	25803
2026-01-16 11:09:41.73	353.12	10.84	-33.3	-50.6	3.8	7.45e-01	0	43	104	302514176	27	26395
2026-01-16 11:09:42.73	353.04	10.76	-33.2	-50.3	3.8	7.47e-01	0	43	104	302514176	27	25766
2026-01-16 11:09:43.74	352.95	10.67	-33.1	-49.6	3.8	7.43e-01	0	43	104	302514176	27	24103
2026-01-16 11:09:44.74	352.86	10.58	-32.8	-48.5	3.8	7.48e-01	0	43	104	302514176	27	21782
2026-01-16 11:09:45.74	352.78	10.49	-32.8	-48.1	3.8	7.44e-01	0	43	104	302514176	27	20995
2026-01-16 11:09:46.75	352.69	10.41	-32.8	-48.2	3.8	7.43e-01	0	43	104	302514176	27	21258
2026-01-16 11:09:47.75	352.61	10.32	-32.8	-48.0	3.8	7.45e-01	0	43	104	302514176	27	20911
2026-01-16 11:09:48.76	352.52	10.23	-32.7	-48.0	3.8	7.46e-01	0	43	104	302514176	27	20847
2026-01-16 11:09:49.76	352.44	10.15	-32.8	-48.1	3.8	7.46e-01	0	43	104	302514176	27	21034
2026-01-16 11:09:50.77	352.35	10.06	-32.7	-48.1	3.8	7.51e-01	0	43	104	302514176	27	21098
2026-01-16 11:09:51.77	352.27	9.98	-32.7	-47.7	3.8	7.47e-01	0	43	104	302514176	27	20379
2026-01-16 11:09:52.78	352.19	9.89	-32.5	-46.8	3.8	7.45e-01	0	43	104	302514176	27	18858
2026-01-16 11:09:53.78	352.11	9.81	-32.2	-46.5	3.8	7.44e-01	0	43	104	302514176	26	18673
2026-01-16 11:09:54.78	352.03	9.72	-32.0	-45.7	3.8	7.46e-01	0	43	104	302514176	26	17452
2026-01-16 11:09:55.78	351.95	9.64	-31.7	-45.3	3.8	7.45e-01	0	43	104	302514176	25	17118
2026-01-16 11:09:56.79	351.87	9.55	-31.4	-44.4	3.8	7.44e-01	0	43	104	302514176	25	15990
2026-01-16 11:09:57.78	351.79	9.47	-31.2	-44.3	3.8	7.46e-01	0	43	104	302514176	24	16198
2026-01-16 11:09:58.79	351.71	9.39	-31.3	-44.7	3.8	7.47e-01	0	43	104	302514176	24	16761
2026-01-16 11:09:59.79	351.63	9.30	-31.5	-45.3	3.8	7.47e-01	0	43	104	302514176	24	17549
2026-01-16 11:10:00.79	351.55	9.22	-31.8	-46.4	3.8	7.44e-01	0	43	104	302514176	24	19174
2026-01-16 11:10:01.80	351.48	9.14	-32.1	-47.3	3.8	7.44e-01	0	43	104	302514176	24	20676
2026-01-16 11:10:02.81	351.40	9.05	-32.3	-47.8	3.8	7.49e-01	0	43	104	302514176	25	21248
2026-01-16 11:10:03.81	351.32	8.97	-32.5	-48.7	3.8	7.50e-01	0	43	104	302514176	25	23025
2026-01-16 11:10:04.82	351.25	8.89	-32.5	-48.1	3.8	7.45e-01	0	43	104	302514176	26	21535
2026-01-16 11:10:05.82	351.17	8.81	-32.4	-47.7	3.8	7.45e-01	0	43	104	302514176	26	20825
2026-01-16 11:10:06.82	351.10	8.73	-32.5	-48.0	3.8	7.45e-01	0	43	104	302514176	26	21324
2026-01-16 11:10:07.83	351.02	8.65	-32.6	-48.5	3.8	7.42e-01	0	43	104	302514176	26	22436
2026-01-16 11:10:08.83	350.95	8.57	-32.7	-48.9	3.8	7.43e-01	0	43	104	302514176	26	23257
2026-01-16 11:10:09.83	350.87	8.48	-32.8	-49.4	3.8	7.49e-01	0	43	104	302514176	26	24381
2026-01-16 11:10:10.84	350.80	8.40	-32.9	-50.2	3.8	7.45e-01	0	43	104	302514176	26	26201
2026-01-16 11:10:11.84	350.73	8.32	-32.8	-49.5	3.8	7.45e-01	0	43	104	302514176	26	24594
2026-01-16 11:10:12.84	350.66	8.24	-32.7	-49.0	3.8	7.45e-01	0	43	104	302514176	26	23428
2026-01-16 11:10:13.85	350.58	8.16	-32.5	-48.0	3.8	7.45e-01	0	43	104	302514176	26	21449
2026-01-16 11:10:14.86	350.51	8.08	-32.3	-47.3	3.8	7.47e-01	0	43	104	302514176	26	20269
2026-01-16 11:10:15.85	350.44	8.01	-32.1	-46.6	3.8	7.46e-01	0	43	104	302514176	26	19071
2026-01-16 11:10:16.85	350.37	7.93	-32.3	-47.1	3.8	7.48e-01	0	43	104	302514176	26	19837
2026-01-16 11:10:17.85	350.30	7.85	-32.5	-47.9	3.8	7.45e-01	0	43	104	302514176	26	21201
2026-01-16 11:10:18.86	350.23	7.77	-32.6	-48.6	3.8	7.47e-01	0	43	104	302514176	26	22710
2026-01-16 11:10:19.86	350.16	7.69	-32.7	-49.0	3.8	7.47e-01	0	43	104	302514176	26	23652
2026-01-16 11:10:20.86	350.10	7.61	-32.7	-49.4	3.8	7.48e-01	0	43	104	302514176	26	24609
2026-01-16 11:10:21.86	350.03	7.54	-32.8	-49.9	3.8	7.45e-01	0	43	104	302514176	26	25642
2026-01-16 11:10:22.87	349.96	7.46	-32.8	-50.1	3.8	7.46e-01	0	43	104	302514176	26	26105
2026-01-16 11:10:23.87	349.89	7.38	-32.8	-50.1	3.8	7.46e-01	0	43	104	302514176	26	26268
2026-01-16 11:10:24.87	349.83	7.30	-32.8	-50.0	3.8	7.42e-01	0	43	104	302514176	26	26080
2026-01-16 11:10:25.87	349.76	7.23	-32.8	-50.0	3.8	7.45e-01	0	43	104	302514176	26	26023
2026-01-16 11:10:26.88	349.69	7.15	-32.8	-49.9	3.8	7.44e-01	0	43	104	302514176	26	25871
2026-01-16 11:10:27.88	349.63	7.07	-33.5	-53.0	3.8	7.46e-01	0	43	104	302514176	27	34013
2026-01-16 11:10:28.88	349.56	7.00	-33.7	-52.9	3.8	7.44e-01	0	43	104	302514176	28	32724

#Closed at: 2026-01-16 11:10:29
#Recorded file [302 MB]: D:/data/31010_260116_140205.dat