passes_logs/2026/01/16/R2M6_AANII_01/R2M6_AANII_01__20260116_231756_NOAA_20_JPSS-1_rec.log

#Pass ID: 20260116_231756_NOAA 20 (JPSS-1)
#Satellite: NOAA 20 (JPSS-1)
#Configuration: NOAA 20
#almurnet v.1.7.20240730
#Start time: 2026-01-16 23:17:58

#Version: 2.2.20231116
#Station: R2M6_AANII_01
#Location: 30.233357 lon 59.946436 lat
#TLE: 1 43013U 17073A   26016.24631778  .00000038  00000+0  39093-4 0  9990
#TLE: 2 43013  98.7637 317.1726 0001455  37.6755 322.4523 14.19536243422915

#Time	Az	El	Level	Level2	SNR	BER	BlckErr	Temp	State	Recorded	gain1	gain2
2026-01-16 23:17:58.13	24.84	7.08	-31.7	-39.2	4.7	1.32e+00	0	41	0	0	23	8480
2026-01-16 23:17:59.13	24.90	7.15	-32.0	-40.5	4.4	1.40e+00	0	41	104	0	24	9532
2026-01-16 23:18:00.13	24.96	7.23	-32.1	-40.8	5.2	4.92e-01	0	41	0	0	24	9863
2026-01-16 23:18:01.13	25.02	7.30	-32.2	-41.5	4.8	8.04e-01	0	41	0	1048576	24	10583
2026-01-16 23:18:02.14	25.09	7.37	-32.1	-40.8	5.3	5.83e-01	0	41	0	3145728	24	9750
2026-01-16 23:18:03.14	25.15	7.44	-32.0	-39.9	5.8	4.82e-01	0	41	0	5242880	24	8977
2026-01-16 23:18:04.14	25.22	7.51	-31.9	-39.7	6.0	3.88e-01	0	41	0	7340032	24	8747
2026-01-16 23:18:05.14	25.28	7.59	-31.8	-39.0	6.8	1.96e-01	0	41	0	9437184	23	8240
2026-01-16 23:18:06.15	25.35	7.66	-31.5	-37.5	8.0	1.26e-01	0	41	0	10485760	23	7182
2026-01-16 23:18:07.15	25.41	7.73	-31.3	-36.7	8.6	5.25e-02	0	41	0	12582912	23	6721
2026-01-16 23:18:08.14	25.48	7.80	-31.3	-37.0	8.8	3.33e-02	0	41	0	14680064	22	6950
2026-01-16 23:18:09.13	25.54	7.87	-31.2	-36.9	8.9	3.24e-02	0	41	0	16777216	22	6891
2026-01-16 23:18:10.14	25.61	7.95	-31.3	-37.3	8.5	3.92e-02	0	41	0	17825792	22	7173
2026-01-16 23:18:11.14	25.67	8.02	-31.3	-37.2	8.7	4.41e-02	0	41	0	19922944	22	7075
2026-01-16 23:18:12.14	25.74	8.10	-31.0	-36.1	9.5	2.23e-02	0	41	0	22020096	22	6439
2026-01-16 23:18:13.14	25.81	8.17	-31.0	-35.9	9.7	1.14e-02	0	42	0	24117248	22	6325
2026-01-16 23:18:14.14	25.87	8.24	-30.9	-35.6	9.9	1.31e-02	0	42	0	26214400	22	6172
2026-01-16 23:18:15.15	25.94	8.32	-31.1	-36.1	9.6	1.35e-02	0	42	0	27262976	22	6420
2026-01-16 23:18:16.15	26.01	8.39	-30.2	-36.2	8.9	2.21e-02	0	42	0	29360128	21	7153
2026-01-16 23:18:17.15	26.08	8.47	-31.0	-36.1	9.4	1.69e-02	0	42	0	31457280	22	6475
2026-01-16 23:18:18.16	26.15	8.54	-30.8	-35.1	10.3	5.53e-03	0	42	0	33554432	22	5908
2026-01-16 23:18:19.16	26.21	8.62	-30.6	-34.9	10.8	3.26e-03	0	42	0	35651584	21	5916
2026-01-16 23:18:20.16	26.28	8.69	-30.4	-34.8	11.2	1.64e-03	0	42	0	36700160	20	5980
2026-01-16 23:18:21.16	26.35	8.77	-30.4	-34.9	11.3	9.85e-04	0	42	0	38797312	20	6012
2026-01-16 23:18:22.16	26.42	8.84	-30.4	-34.9	11.2	1.54e-03	0	42	0	40894464	20	6000
2026-01-16 23:18:23.17	26.49	8.92	-30.4	-34.4	11.3	1.82e-03	0	42	0	42991616	21	5664
2026-01-16 23:18:24.17	26.56	8.99	-30.3	-34.1	11.5	1.06e-03	0	42	0	45088768	21	5518
2026-01-16 23:18:25.18	26.64	9.07	-30.4	-34.6	11.5	2.07e-03	0	42	0	46137344	20	5878
2026-01-16 23:18:26.18	26.71	9.15	-30.4	-34.9	11.3	1.36e-03	0	42	0	48234496	20	5988
2026-01-16 23:18:27.18	26.78	9.22	-30.4	-34.8	11.4	1.05e-03	0	42	0	50331648	20	5964
2026-01-16 23:18:28.18	26.85	9.30	-30.4	-34.7	11.4	2.45e-03	0	42	0	52428800	20	5905
2026-01-16 23:18:29.18	26.92	9.38	-30.3	-34.4	11.7	1.99e-03	0	42	0	54525952	20	5745
2026-01-16 23:18:30.19	27.00	9.45	-30.4	-34.7	11.5	5.91e-04	0	42	0	55574528	20	5907
2026-01-16 23:18:31.18	27.07	9.53	-30.2	-34.1	11.9	8.93e-04	0	42	0	57671680	20	5627
2026-01-16 23:18:32.19	27.14	9.61	-30.4	-34.7	11.5	1.95e-03	0	42	0	59768832	20	5911
2026-01-16 23:18:33.19	27.21	9.69	-30.6	-34.7	11.1	1.28e-03	0	42	0	61865984	21	5806
2026-01-16 23:18:34.19	27.29	9.76	-30.2	-33.9	12.0	1.11e-03	0	42	0	62914560	20	5558
2026-01-16 23:18:35.19	27.36	9.84	-30.3	-34.2	11.8	1.53e-03	0	42	0	65011712	20	5694
2026-01-16 23:18:36.20	27.44	9.92	-30.2	-34.2	11.9	2.49e-04	0	42	0	67108864	20	5649
2026-01-16 23:18:37.19	27.51	10.00	-30.4	-34.6	11.6	8.37e-04	0	42	0	69206016	20	5830
2026-01-16 23:18:38.19	27.59	10.08	-30.2	-34.0	12.0	5.07e-04	0	42	0	71303168	20	5578
2026-01-16 23:18:39.19	27.66	10.15	-30.3	-34.3	11.8	4.20e-04	0	42	0	72351744	20	5695
2026-01-16 23:18:40.19	27.74	10.23	-30.3	-34.3	11.8	1.48e-03	0	42	0	74448896	20	5718
2026-01-16 23:18:41.19	27.82	10.31	-30.4	-34.7	11.5	7.24e-04	0	42	0	76546048	20	5890
2026-01-16 23:18:42.19	27.89	10.39	-30.3	-34.3	11.8	4.71e-04	0	42	0	78643200	20	5702
2026-01-16 23:18:43.19	27.97	10.47	-30.3	-34.3	11.8	1.24e-03	0	42	0	80740352	20	5710
2026-01-16 23:18:44.19	28.05	10.55	-30.3	-34.3	11.8	4.18e-04	0	42	0	81788928	20	5716
2026-01-16 23:18:45.19	28.13	10.63	-30.3	-34.3	11.8	4.02e-04	0	42	0	83886080	20	5711
2026-01-16 23:18:46.19	28.21	10.71	-30.4	-34.5	11.7	1.80e-03	0	42	0	85983232	20	5791
2026-01-16 23:18:47.19	28.29	10.79	-30.2	-34.0	12.1	1.22e-03	0	42	0	88080384	20	5566
2026-01-16 23:18:48.19	28.36	10.87	-30.1	-33.7	12.3	2.44e-04	0	42	0	90177536	20	5442
2026-01-16 23:18:49.19	28.44	10.95	-30.1	-33.8	12.3	1.02e-03	0	42	0	91226112	20	5481
2026-01-16 23:18:50.20	28.53	11.04	-30.2	-33.9	12.2	1.21e-03	0	42	0	93323264	20	5547
2026-01-16 23:18:51.20	28.61	11.12	-30.3	-34.2	12.0	2.56e-04	0	42	0	95420416	20	5635
2026-01-16 23:18:52.21	28.69	11.20	-30.0	-33.3	12.7	7.12e-04	0	42	0	97517568	20	5269
2026-01-16 23:18:53.21	28.77	11.28	-30.1	-33.6	12.4	1.27e-03	0	42	0	98566144	20	5396
2026-01-16 23:18:54.20	28.85	11.36	-29.9	-33.0	12.9	5.11e-05	0	43	0	100663296	20	5145
2026-01-16 23:18:55.21	28.93	11.45	-29.9	-33.1	12.8	6.27e-04	0	42	0	102760448	20	5199
2026-01-16 23:18:56.21	29.02	11.53	-29.9	-33.1	12.7	9.89e-04	0	42	0	104857600	20	5211
2026-01-16 23:18:57.21	29.10	11.61	-29.9	-33.0	12.9	6.02e-05	0	42	0	106954752	20	5157
2026-01-16 23:18:58.21	29.18	11.69	-29.9	-33.6	12.9	1.01e-03	0	42	0	108003328	19	5492
2026-01-16 23:18:59.21	29.27	11.78	-30.0	-33.7	12.8	4.22e-04	0	42	0	110100480	19	5533
2026-01-16 23:19:00.21	29.35	11.86	-30.0	-33.3	12.7	5.95e-05	0	43	0	112197632	20	5285
2026-01-16 23:19:01.21	29.44	11.94	-30.0	-33.4	12.7	1.32e-03	0	42	0	114294784	20	5301
2026-01-16 23:19:02.21	29.52	12.03	-30.0	-33.2	12.8	1.08e-03	0	42	0	116391936	20	5247
2026-01-16 23:19:03.22	29.61	12.11	-29.8	-32.9	13.0	5.11e-05	0	43	0	117440512	20	5095
2026-01-16 23:19:04.22	29.70	12.20	-29.9	-33.6	12.9	1.20e-03	0	42	0	119537664	19	5487
2026-01-16 23:19:05.22	29.78	12.28	-29.8	-33.2	13.2	9.57e-04	0	43	0	121634816	19	5314
2026-01-16 23:19:06.21	29.87	12.37	-29.8	-33.3	13.1	2.97e-05	0	43	0	123731968	19	5386
2026-01-16 23:19:07.22	29.96	12.45	-29.8	-33.1	13.2	9.54e-04	0	42	0	124780544	19	5290
2026-01-16 23:19:08.22	30.05	12.54	-29.8	-33.1	13.3	1.01e-03	0	43	0	126877696	19	5277
2026-01-16 23:19:09.21	30.13	12.62	-29.8	-33.2	13.2	1.52e-05	0	43	0	128974848	19	5335
2026-01-16 23:19:10.21	30.22	12.71	-29.7	-33.1	13.3	1.12e-03	0	43	0	131072000	19	5272
2026-01-16 23:19:11.21	30.31	12.79	-29.6	-32.7	13.5	1.19e-03	0	43	0	133169152	19	5149
2026-01-16 23:19:12.21	30.40	12.88	-29.7	-33.0	13.4	1.37e-05	0	43	0	134217728	19	5236
2026-01-16 23:19:13.21	30.49	12.97	-29.6	-32.5	13.6	7.60e-06	0	43	0	136314880	19	5060
2026-01-16 23:19:14.21	30.59	13.05	-29.6	-32.7	13.5	1.26e-03	0	43	0	138412032	19	5135
2026-01-16 23:19:15.21	30.68	13.14	-29.6	-32.5	13.7	2.20e-06	0	43	0	140509184	19	5059
2026-01-16 23:19:16.21	30.77	13.23	-29.5	-32.4	13.8	1.12e-03	0	43	0	142606336	19	5019
2026-01-16 23:19:17.21	30.86	13.31	-29.6	-32.6	13.7	1.02e-03	0	43	0	143654912	19	5075
2026-01-16 23:19:18.22	30.96	13.40	-29.7	-32.8	13.6	6.10e-06	0	43	0	145752064	19	5149
2026-01-16 23:19:19.22	31.05	13.49	-29.6	-32.6	13.6	9.93e-04	0	43	0	147849216	19	5097
2026-01-16 23:19:20.22	31.15	13.58	-29.6	-32.6	13.7	6.80e-06	0	43	0	149946368	19	5081
2026-01-16 23:19:21.22	31.24	13.67	-29.5	-32.3	13.9	6.10e-06	0	43	0	152043520	19	4972
2026-01-16 23:19:22.23	31.34	13.76	-28.6	-32.0	13.9	7.98e-04	0	43	0	153092096	18	5295
2026-01-16 23:19:23.24	31.43	13.85	-29.8	-33.0	13.4	1.60e-05	0	43	0	155189248	19	5252
2026-01-16 23:19:24.24	31.53	13.94	-29.5	-32.3	13.7	6.10e-06	0	43	0	157286400	19	4984
2026-01-16 23:19:25.24	31.63	14.03	-29.5	-32.7	13.6	9.84e-04	0	43	0	159383552	18	5235
2026-01-16 23:19:26.24	31.73	14.12	-29.7	-32.7	13.6	8.53e-04	0	43	0	161480704	19	5128
2026-01-16 23:19:27.24	31.82	14.21	-29.8	-33.2	13.3	1.52e-05	0	43	0	162529280	19	5316
2026-01-16 23:19:28.24	31.92	14.30	-29.6	-32.6	13.7	8.41e-04	0	43	0	164626432	19	5094
2026-01-16 23:19:29.24	32.02	14.39	-29.7	-32.8	13.6	1.02e-03	0	43	0	166723584	19	5160
2026-01-16 23:19:30.24	32.12	14.48	-29.7	-33.0	13.5	6.63e-05	0	43	0	168820736	19	5221
2026-01-16 23:19:31.25	32.22	14.57	-29.8	-33.1	13.3	6.10e-06	0	43	0	169869312	19	5275
2026-01-16 23:19:32.25	32.33	14.66	-29.8	-33.2	13.3	7.97e-04	0	43	0	171966464	19	5326
2026-01-16 23:19:33.25	32.43	14.75	-29.8	-33.1	13.4	1.29e-05	0	43	0	174063616	19	5281
2026-01-16 23:19:34.25	32.53	14.85	-29.9	-33.3	13.3	1.75e-05	0	43	0	176160768	19	5348
2026-01-16 23:19:35.26	32.63	14.94	-29.7	-32.9	13.6	6.80e-06	0	43	0	178257920	19	5171
2026-01-16 23:19:36.26	32.74	15.03	-29.7	-32.9	13.6	1.29e-05	0	43	0	179306496	19	5171
2026-01-16 23:19:37.26	32.84	15.12	-29.9	-33.3	13.3	1.37e-05	0	43	0	181403648	19	5344
2026-01-16 23:19:38.27	32.95	15.22	-29.9	-33.5	13.1	3.35e-05	0	43	0	183500800	19	5439
2026-01-16 23:19:39.26	33.05	15.31	-29.9	-33.3	13.2	3.20e-05	0	43	0	185597952	19	5347
2026-01-16 23:19:40.26	33.16	15.40	-29.8	-33.2	13.3	4.69e-04	0	43	0	187695104	19	5314
2026-01-16 23:19:41.27	33.27	15.50	-29.8	-33.2	13.3	1.67e-05	0	43	0	188743680	19	5289
2026-01-16 23:19:42.27	33.37	15.59	-29.9	-33.5	13.1	2.05e-05	0	43	0	190840832	19	5428
2026-01-16 23:19:43.27	33.48	15.69	-30.0	-33.1	13.0	4.30e-04	0	43	0	192937984	20	5181
2026-01-16 23:19:44.27	33.59	15.78	-30.0	-33.3	12.8	6.02e-05	0	43	0	195035136	20	5269
2026-01-16 23:19:45.27	33.70	15.88	-29.9	-33.3	13.3	3.96e-05	0	43	0	197132288	19	5330
2026-01-16 23:19:46.27	33.81	15.97	-29.8	-33.2	13.4	1.67e-05	0	43	0	198180864	19	5296
2026-01-16 23:19:47.27	33.92	16.07	-29.9	-33.4	13.3	4.43e-04	0	43	0	200278016	19	5369
2026-01-16 23:19:48.27	34.03	16.16	-29.9	-33.5	13.2	4.20e-04	0	43	0	202375168	19	5423
2026-01-16 23:19:49.28	34.15	16.26	-29.8	-33.0	13.5	2.28e-05	0	43	0	204472320	19	5227
2026-01-16 23:19:50.28	34.26	16.36	-29.7	-32.9	13.6	4.04e-04	0	43	0	205520896	19	5168
2026-01-16 23:19:51.27	34.37	16.45	-29.8	-33.1	13.4	2.36e-05	0	43	0	207618048	19	5268
2026-01-16 23:19:52.28	34.49	16.55	-29.8	-33.1	13.5	7.60e-06	0	43	0	209715200	19	5253
2026-01-16 23:19:53.28	34.60	16.65	-29.8	-33.0	13.5	8.30e-06	0	43	0	211812352	19	5225
2026-01-16 23:19:54.28	34.72	16.74	-29.9	-33.3	13.4	1.60e-05	0	43	0	213909504	19	5317
2026-01-16 23:19:55.28	34.83	16.84	-29.8	-33.0	13.6	1.22e-05	0	43	0	214958080	19	5213
2026-01-16 23:19:56.29	34.95	16.94	-29.8	-33.1	13.5	1.06e-05	0	43	0	217055232	19	5256
2026-01-16 23:19:57.29	35.07	17.04	-29.9	-33.3	13.3	8.30e-06	0	43	0	219152384	19	5351
2026-01-16 23:19:58.29	35.19	17.14	-29.9	-33.2	13.4	1.70e-04	0	43	0	221249536	19	5305
2026-01-16 23:19:59.29	35.31	17.24	-29.9	-33.4	13.3	1.60e-05	0	43	0	223346688	19	5365
2026-01-16 23:20:00.29	35.43	17.34	-29.9	-33.4	13.3	1.60e-05	0	43	0	224395264	19	5364
2026-01-16 23:20:01.29	35.55	17.44	-29.9	-33.0	13.2	1.31e-04	0	43	0	226492416	20	5122
2026-01-16 23:20:02.29	35.67	17.54	-29.9	-33.0	13.2	2.51e-05	0	43	0	228589568	20	5098
2026-01-16 23:20:03.28	35.79	17.63	-30.1	-33.5	12.9	5.64e-05	0	43	0	230686720	20	5312
2026-01-16 23:20:04.29	35.92	17.74	-30.3	-33.9	12.6	6.10e-05	0	43	0	232783872	20	5468
2026-01-16 23:20:05.28	36.04	17.84	-30.3	-34.1	12.5	1.04e-04	0	43	0	233832448	20	5541
2026-01-16 23:20:06.28	36.16	17.94	-30.4	-34.4	12.3	1.39e-04	0	43	0	235929600	20	5664
2026-01-16 23:20:07.29	36.29	18.04	-30.4	-34.4	12.3	1.88e-04	0	43	0	238026752	20	5672
2026-01-16 23:20:08.28	36.42	18.14	-30.5	-34.5	12.3	1.72e-04	0	43	0	240123904	20	5712
2026-01-16 23:20:09.29	36.54	18.24	-30.5	-34.5	12.2	2.80e-04	0	43	0	242221056	20	5727
2026-01-16 23:20:10.29	36.67	18.34	-30.6	-34.3	12.1	3.58e-04	0	43	0	243269632	21	5519
2026-01-16 23:20:11.30	36.80	18.45	-30.7	-34.5	11.9	4.48e-04	0	43	0	245366784	21	5626
2026-01-16 23:20:12.30	36.93	18.55	-30.5	-34.1	12.2	2.76e-04	0	43	0	247463936	21	5452
2026-01-16 23:20:13.31	37.06	18.65	-30.4	-33.7	12.5	1.56e-04	0	43	0	249561088	21	5255
2026-01-16 23:20:14.31	37.20	18.76	-30.3	-34.0	12.5	1.04e-04	0	43	0	250609664	20	5515
2026-01-16 23:20:15.30	37.33	18.86	-30.4	-34.2	12.4	1.85e-04	0	43	0	252706816	20	5601
2026-01-16 23:20:16.31	37.46	18.96	-30.4	-34.3	12.4	1.18e-04	0	43	0	254803968	20	5638
2026-01-16 23:20:17.31	37.60	19.07	-30.4	-34.4	12.4	1.04e-04	0	43	0	256901120	20	5665
2026-01-16 23:20:18.31	37.73	19.17	-29.7	-33.1	12.4	1.60e-04	0	43	0	258998272	21	5331
2026-01-16 23:20:19.31	37.87	19.28	-30.4	-33.8	12.4	1.34e-04	0	43	0	260046848	21	5303
2026-01-16 23:20:20.31	38.00	19.38	-30.5	-34.0	12.3	1.53e-04	0	43	0	262144000	21	5383
2026-01-16 23:20:21.31	38.14	19.49	-30.3	-33.4	12.6	1.17e-04	0	43	0	264241152	21	5158
2026-01-16 23:20:22.31	38.28	19.59	-30.2	-33.1	13.0	5.87e-05	0	43	0	266338304	21	5028
2026-01-16 23:20:23.31	38.42	19.70	-30.1	-33.0	13.0	3.43e-05	0	43	0	268435456	21	4979
2026-01-16 23:20:24.30	38.56	19.80	-30.1	-32.8	13.1	4.42e-05	0	43	0	269484032	21	4930
2026-01-16 23:20:25.30	38.70	19.91	-30.0	-33.2	13.2	1.73e-04	0	43	0	271581184	20	5183
2026-01-16 23:20:26.30	38.84	20.02	-30.1	-33.3	13.2	1.44e-05	0	43	0	273678336	20	5208
2026-01-16 23:20:27.30	38.99	20.13	-30.1	-33.3	13.1	4.27e-05	0	43	0	275775488	20	5228
2026-01-16 23:20:28.30	39.13	20.23	-30.3	-33.8	12.9	5.95e-05	0	43	0	277872640	20	5396
2026-01-16 23:20:29.30	39.27	20.34	-30.3	-33.8	12.8	4.50e-05	0	43	0	278921216	20	5415
2026-01-16 23:20:30.31	39.42	20.45	-30.3	-33.9	12.8	1.37e-04	0	43	0	281018368	20	5467
2026-01-16 23:20:31.30	39.57	20.56	-30.3	-34.0	12.7	2.31e-04	0	43	0	283115520	20	5503
2026-01-16 23:20:32.31	39.72	20.67	-30.4	-34.2	12.6	7.17e-05	0	43	0	285212672	20	5585
2026-01-16 23:20:33.30	39.87	20.77	-30.4	-34.3	12.5	7.32e-04	0	43	0	286261248	20	5619
2026-01-16 23:20:34.30	40.02	20.88	-30.3	-33.8	12.9	7.16e-04	0	43	0	288358400	20	5393
2026-01-16 23:20:35.30	40.17	20.99	-30.3	-33.8	12.9	4.19e-05	0	43	0	290455552	20	5410
2026-01-16 23:20:36.31	40.32	21.10	-30.2	-33.7	13.0	5.51e-04	0	43	0	292552704	20	5357
2026-01-16 23:20:37.31	40.47	21.21	-30.3	-33.8	12.9	4.91e-04	0	43	0	294649856	20	5403
2026-01-16 23:20:38.31	40.63	21.32	-30.2	-33.7	13.0	3.20e-05	0	43	0	295698432	20	5351
2026-01-16 23:20:39.31	40.79	21.43	-30.4	-34.0	12.7	6.71e-05	0	43	0	297795584	20	5492
2026-01-16 23:20:40.31	40.94	21.54	-30.3	-33.7	13.0	4.04e-05	0	43	0	299892736	20	5361
2026-01-16 23:20:41.31	41.10	21.65	-30.2	-33.6	13.1	2.97e-05	0	43	0	301989888	20	5314
2026-01-16 23:20:42.31	41.26	21.77	-30.1	-33.4	13.2	2.74e-05	0	43	0	304087040	20	5226
2026-01-16 23:20:43.32	41.42	21.88	-30.1	-33.3	13.3	1.15e-04	0	43	0	305135616	20	5206
2026-01-16 23:20:44.32	41.58	21.99	-30.1	-33.4	13.2	2.13e-05	0	43	0	307232768	20	5215
2026-01-16 23:20:45.32	41.74	22.10	-29.9	-32.8	13.6	4.19e-05	0	43	0	309329920	20	5016
2026-01-16 23:20:46.32	41.91	22.21	-30.0	-32.9	13.5	3.66e-05	0	43	0	311427072	20	5064
2026-01-16 23:20:47.33	42.07	22.33	-30.0	-32.8	13.6	9.90e-06	0	43	0	312475648	20	5023
2026-01-16 23:20:48.32	42.24	22.44	-29.9	-32.6	13.7	8.30e-06	0	43	0	314572800	20	4944
2026-01-16 23:20:49.33	42.41	22.55	-29.8	-32.6	13.8	1.37e-05	0	43	0	316669952	20	4923
2026-01-16 23:20:50.32	42.57	22.67	-30.1	-33.3	13.3	8.30e-06	0	43	0	318767104	20	5178
2026-01-16 23:20:51.33	42.74	22.78	-29.9	-32.8	13.6	3.66e-05	0	43	0	320864256	20	5007
2026-01-16 23:20:52.33	42.91	22.90	-30.0	-32.9	13.5	4.95e-05	0	43	0	321912832	20	5050
2026-01-16 23:20:53.33	43.09	23.01	-30.1	-33.2	13.4	1.37e-05	0	43	0	324009984	20	5156
2026-01-16 23:20:54.33	43.26	23.12	-29.9	-32.8	13.7	2.67e-05	0	43	0	326107136	20	4981
2026-01-16 23:20:55.33	43.43	23.24	-29.8	-32.4	13.9	3.00e-06	0	43	0	328204288	20	4870
2026-01-16 23:20:56.33	43.61	23.35	-29.8	-32.3	14.0	4.50e-06	0	43	0	330301440	20	4819
2026-01-16 23:20:57.33	43.78	23.47	-29.7	-32.2	14.0	3.80e-06	0	43	0	331350016	20	4803
2026-01-16 23:20:58.34	43.96	23.58	-29.7	-32.2	14.0	1.04e-04	0	43	0	333447168	20	4781
2026-01-16 23:20:59.34	44.14	23.70	-29.7	-32.2	14.1	7.00e-07	0	43	0	335544320	20	4785
2026-01-16 23:21:00.35	44.33	23.82	-29.7	-32.7	14.1	7.00e-07	0	43	0	337641472	19	5058
2026-01-16 23:21:01.35	44.51	23.93	-29.7	-32.7	14.1	2.20e-06	0	43	0	339738624	19	5055
2026-01-16 23:21:02.35	44.69	24.05	-29.7	-32.5	14.3	3.00e-06	0	43	0	340787200	19	4979
2026-01-16 23:21:03.35	44.88	24.17	-29.6	-32.2	14.4	7.00e-07	0	43	0	342884352	19	4890
2026-01-16 23:21:04.36	45.06	24.28	-29.5	-32.0	14.6	2.20e-06	0	43	0	344981504	19	4816
2026-01-16 23:21:05.36	45.25	24.40	-29.4	-31.9	14.7	0.00e+00	0	43	0	347078656	19	4770
2026-01-16 23:21:06.36	45.44	24.52	-29.5	-32.0	14.6	1.50e-06	0	43	0	349175808	19	4796
2026-01-16 23:21:07.36	45.63	24.64	-29.3	-31.6	14.8	0.00e+00	0	43	0	350224384	19	4685
2026-01-16 23:21:08.35	45.82	24.75	-29.3	-31.5	14.9	0.00e+00	0	43	0	352321536	19	4661
2026-01-16 23:21:09.35	46.01	24.87	-29.3	-32.0	14.9	5.15e-04	0	43	0	354418688	18	4916
2026-01-16 23:21:10.35	46.21	24.99	-29.3	-31.9	15.0	0.00e+00	0	43	0	356515840	18	4893
2026-01-16 23:21:11.35	46.40	25.11	-29.2	-31.7	15.1	0.00e+00	0	43	0	357564416	18	4832
2026-01-16 23:21:12.34	46.60	25.22	-29.2	-31.7	15.1	0.00e+00	0	43	0	359661568	18	4821
2026-01-16 23:21:13.35	46.80	25.34	-29.2	-31.8	15.0	0.00e+00	0	43	0	361758720	18	4855
2026-01-16 23:21:14.35	47.00	25.46	-29.3	-32.0	14.9	0.00e+00	0	43	0	363855872	18	4908
2026-01-16 23:21:15.35	47.20	25.58	-29.3	-31.9	15.0	0.00e+00	0	43	0	365953024	18	4890
2026-01-16 23:21:16.36	47.40	25.70	-29.2	-31.9	15.0	7.00e-07	0	43	0	367001600	18	4873
2026-01-16 23:21:17.37	47.61	25.82	-29.2	-31.9	15.0	0.00e+00	0	43	0	369098752	18	4882
2026-01-16 23:21:18.37	47.82	25.94	-29.2	-31.8	15.1	0.00e+00	0	43	0	371195904	18	4853
2026-01-16 23:21:19.37	48.02	26.06	-29.3	-31.9	15.0	0.00e+00	0	43	0	373293056	18	4895
2026-01-16 23:21:20.37	48.23	26.18	-29.4	-32.2	14.9	0.00e+00	0	43	0	375390208	18	4976
2026-01-16 23:21:21.37	48.44	26.30	-29.3	-32.1	14.9	7.00e-07	0	43	0	376438784	18	4939
2026-01-16 23:21:22.37	48.65	26.42	-29.3	-32.1	14.9	0.00e+00	0	43	0	378535936	18	4949
2026-01-16 23:21:23.37	48.87	26.54	-29.4	-32.3	14.8	7.00e-07	0	43	0	380633088	18	5027
2026-01-16 23:21:24.37	49.08	26.66	-29.6	-32.3	14.4	1.50e-06	0	43	0	382730240	19	4913
2026-01-16 23:21:25.37	49.30	26.78	-29.8	-32.7	14.2	1.50e-06	0	44	0	384827392	19	5051
2026-01-16 23:21:26.37	49.52	26.90	-29.8	-32.7	14.2	0.00e+00	0	43	0	385875968	19	5064
2026-01-16 23:21:27.37	49.74	27.02	-29.9	-33.1	14.0	4.50e-06	0	43	0	387973120	19	5206
2026-01-16 23:21:28.38	49.96	27.14	-30.0	-33.3	13.9	1.50e-06	0	43	0	390070272	19	5280
2026-01-16 23:21:29.38	50.19	27.27	-30.0	-32.8	13.8	5.30e-06	0	43	0	392167424	20	4979
2026-01-16 23:21:30.39	50.41	27.39	-30.1	-33.1	13.6	3.80e-06	0	43	0	394264576	20	5118
2026-01-16 23:21:31.39	50.64	27.51	-30.1	-33.1	13.5	1.29e-05	0	43	0	395313152	20	5116
2026-01-16 23:21:32.39	50.87	27.63	-29.9	-32.6	13.8	4.50e-06	0	43	0	397410304	20	4937
2026-01-16 23:21:33.39	51.10	27.75	-30.0	-32.9	13.7	7.60e-06	0	43	0	399507456	20	5018
2026-01-16 23:21:34.40	51.33	27.87	-30.2	-33.5	13.3	6.80e-06	0	43	0	401604608	20	5261
2026-01-16 23:21:35.41	51.57	27.99	-29.7	-33.1	12.9	3.73e-05	0	43	0	402653184	20	5346
2026-01-16 23:21:36.41	51.80	28.12	-30.2	-33.5	13.2	1.98e-05	0	43	0	404750336	20	5293
2026-01-16 23:21:37.41	52.04	28.24	-30.1	-33.2	13.5	1.60e-05	0	43	0	406847488	20	5139
2026-01-16 23:21:38.41	52.28	28.36	-30.1	-33.2	13.5	6.80e-06	0	43	0	408944640	20	5139
2026-01-16 23:21:39.41	52.52	28.48	-30.2	-33.4	13.4	1.14e-05	0	43	0	411041792	20	5209
2026-01-16 23:21:40.40	52.76	28.60	-30.3	-33.8	13.1	2.13e-05	0	43	0	412090368	20	5351
2026-01-16 23:21:41.40	53.01	28.72	-30.4	-33.8	13.1	3.50e-05	0	43	0	414187520	20	5367
2026-01-16 23:21:42.41	53.25	28.84	-30.6	-34.0	12.7	7.85e-05	0	43	0	416284672	21	5317
2026-01-16 23:21:43.41	53.50	28.96	-30.8	-34.5	12.3	8.77e-05	0	43	0	418381824	21	5558
2026-01-16 23:21:44.41	53.75	29.09	-30.9	-34.9	12.0	3.56e-04	0	43	0	420478976	21	5735
2026-01-16 23:21:45.40	54.00	29.20	-31.0	-35.2	11.8	3.26e-04	0	43	0	421527552	21	5866
2026-01-16 23:21:46.41	54.26	29.33	-31.1	-35.1	11.6	6.91e-04	0	43	0	423624704	22	5668
2026-01-16 23:21:47.40	54.51	29.45	-31.2	-35.3	11.5	8.16e-04	0	44	0	425721856	22	5768
2026-01-16 23:21:48.41	54.77	29.57	-31.2	-35.3	11.5	1.02e-03	0	43	0	427819008	22	5757
2026-01-16 23:21:49.41	55.03	29.69	-31.0	-34.6	12.0	4.80e-04	0	43	0	429916160	22	5466
2026-01-16 23:21:50.41	55.29	29.81	-30.9	-34.5	12.0	3.27e-04	0	43	0	430964736	22	5419
2026-01-16 23:21:51.41	55.55	29.93	-30.9	-34.4	12.1	2.39e-04	0	43	0	433061888	22	5366
2026-01-16 23:21:52.41	55.82	30.05	-31.0	-34.8	11.8	4.24e-04	0	43	0	435159040	22	5539
2026-01-16 23:21:53.41	56.08	30.17	-31.2	-35.4	11.4	4.58e-04	0	43	0	437256192	22	5811
2026-01-16 23:21:54.42	56.36	30.29	-31.4	-36.0	11.0	2.01e-03	0	44	0	438304768	22	6087
2026-01-16 23:21:55.42	56.63	30.41	-31.5	-35.8	10.8	2.27e-03	0	43	0	440401920	23	5905
2026-01-16 23:21:56.41	56.90	30.53	-31.6	-36.1	10.6	2.92e-03	0	43	0	442499072	23	6058
2026-01-16 23:21:57.42	57.17	30.65	-31.7	-36.6	10.2	4.71e-03	0	43	0	444596224	23	6282
2026-01-16 23:21:58.42	57.45	30.77	-31.9	-37.1	9.8	7.84e-03	0	43	0	446693376	23	6563
2026-01-16 23:21:59.42	57.73	30.89	-32.0	-37.1	9.4	1.41e-02	0	43	0	447741952	24	6448
2026-01-16 23:22:00.42	58.01	31.01	-32.2	-37.7	9.0	2.48e-02	0	43	0	449839104	24	6819
2026-01-16 23:22:01.42	58.29	31.13	-32.3	-38.2	8.6	3.80e-02	0	43	0	451936256	24	7091
2026-01-16 23:22:02.43	58.58	31.25	-32.3	-38.3	8.5	4.53e-02	0	43	0	454033408	24	7168
2026-01-16 23:22:03.43	58.87	31.36	-32.3	-38.2	8.6	3.88e-02	0	43	0	456130560	24	7084
2026-01-16 23:22:04.43	59.16	31.48	-32.2	-37.6	9.0	2.93e-02	0	43	0	457179136	24	6728
2026-01-16 23:22:05.43	59.45	31.60	-32.1	-37.5	9.2	2.52e-02	0	43	0	459276288	24	6660
2026-01-16 23:22:06.43	59.74	31.72	-32.1	-37.5	9.2	2.58e-02	0	43	0	461373440	24	6690
2026-01-16 23:22:07.43	60.04	31.83	-32.2	-37.7	9.0	2.19e-02	0	43	0	463470592	24	6811
2026-01-16 23:22:08.44	60.34	31.95	-32.3	-38.0	8.8	3.23e-02	0	43	0	465567744	24	6991
2026-01-16 23:22:09.44	60.64	32.06	-32.3	-38.3	8.5	3.95e-02	0	43	0	466616320	24	7163
2026-01-16 23:22:10.44	60.94	32.18	-32.4	-38.4	8.5	4.10e-02	0	43	0	468713472	24	7207
2026-01-16 23:22:11.44	61.24	32.30	-32.3	-38.0	8.8	3.39e-02	0	43	0	470810624	24	6976
2026-01-16 23:22:12.45	61.55	32.41	-32.1	-37.5	9.1	2.86e-02	0	43	0	472907776	24	6696
2026-01-16 23:22:13.45	61.86	32.53	-32.0	-37.0	9.5	1.95e-02	0	44	0	475004928	24	6407
2026-01-16 23:22:14.46	62.17	32.64	-32.0	-36.8	9.7	1.11e-02	0	43	0	476053504	24	6282
2026-01-16 23:22:15.46	62.49	32.75	-32.0	-37.1	9.5	1.66e-02	0	43	0	478150656	24	6453
2026-01-16 23:22:16.46	62.80	32.87	-32.1	-37.2	9.4	1.67e-02	0	43	0	480247808	24	6499
2026-01-16 23:22:17.46	63.12	32.98	-32.0	-36.9	9.6	1.49e-02	0	43	0	482344960	24	6372
2026-01-16 23:22:18.47	63.44	33.09	-32.0	-36.9	9.6	1.41e-02	0	43	0	483393536	24	6321
2026-01-16 23:22:19.47	63.76	33.20	-31.8	-36.3	10.0	9.83e-03	0	43	0	485490688	24	6042
2026-01-16 23:22:20.47	64.08	33.31	-31.8	-36.3	10.1	8.05e-03	0	44	0	487587840	24	6035
2026-01-16 23:22:21.47	64.41	33.42	-31.8	-36.4	9.9	6.85e-03	0	43	0	489684992	24	6097
2026-01-16 23:22:22.48	64.74	33.53	-31.9	-36.6	9.8	9.10e-03	0	43	0	491782144	24	6197
2026-01-16 23:22:23.48	65.07	33.64	-32.0	-37.0	9.5	2.31e-02	0	43	0	493879296	24	6412
2026-01-16 23:22:24.48	65.40	33.75	-31.9	-36.8	9.7	1.17e-02	0	43	0	494927872	24	6294
2026-01-16 23:22:25.49	65.74	33.86	-31.7	-36.1	10.2	6.69e-03	0	43	0	497025024	24	5935
2026-01-16 23:22:26.49	66.07	33.96	-31.8	-36.2	10.1	6.66e-03	0	43	0	499122176	24	5984
2026-01-16 23:22:27.49	66.41	34.07	-31.7	-35.9	10.4	6.22e-03	0	43	0	501219328	24	5846
2026-01-16 23:22:28.49	66.75	34.18	-31.7	-35.8	10.4	4.93e-03	0	43	0	502267904	24	5788
2026-01-16 23:22:29.49	67.10	34.28	-31.5	-35.7	10.8	3.04e-03	0	43	0	504365056	23	5839
2026-01-16 23:22:30.49	67.44	34.38	-31.3	-34.9	11.4	2.09e-03	0	43	0	506462208	23	5499
2026-01-16 23:22:31.49	67.79	34.49	-31.0	-34.2	11.9	4.74e-04	0	43	0	508559360	23	5176
2026-01-16 23:22:32.49	68.14	34.59	-31.1	-34.4	11.8	4.81e-04	0	43	0	510656512	23	5285
2026-01-16 23:22:33.50	68.49	34.69	-31.2	-34.9	11.5	5.90e-04	0	43	0	511705088	23	5457
2026-01-16 23:22:34.50	68.85	34.79	-31.4	-35.4	11.1	1.40e-03	0	43	0	513802240	23	5682
2026-01-16 23:22:35.50	69.20	34.89	-31.5	-35.7	10.9	1.87e-03	0	43	0	515899392	23	5841
2026-01-16 23:22:36.50	69.56	34.99	-31.3	-35.1	11.3	1.52e-03	0	44	0	517996544	23	5586
2026-01-16 23:22:37.51	69.92	35.09	-31.2	-34.8	11.5	8.42e-04	0	43	0	520093696	23	5430
2026-01-16 23:22:38.51	70.29	35.18	-31.1	-34.5	11.7	6.42e-04	0	43	0	521142272	23	5295
2026-01-16 23:22:39.51	70.65	35.28	-31.1	-34.3	11.9	4.46e-04	0	43	0	523239424	23	5222
2026-01-16 23:22:40.52	71.02	35.37	-30.9	-33.8	12.3	4.54e-04	0	43	0	525336576	23	5019
2026-01-16 23:22:41.52	71.39	35.47	-30.7	-33.7	12.7	8.77e-05	0	44	0	527433728	22	5081
2026-01-16 23:22:42.52	71.76	35.56	-30.7	-33.7	12.7	6.40e-05	0	43	0	528482304	22	5071
2026-01-16 23:22:43.52	72.13	35.65	-30.7	-33.6	12.7	1.57e-04	0	43	0	530579456	22	5066
2026-01-16 23:22:44.52	72.51	35.74	-30.7	-33.8	12.6	1.01e-04	0	43	0	532676608	22	5133
2026-01-16 23:22:45.52	72.88	35.83	-30.8	-33.9	12.5	7.47e-05	0	43	0	534773760	22	5186
2026-01-16 23:22:46.52	73.26	35.92	-30.9	-34.2	12.3	2.33e-04	0	44	0	536870912	22	5304
2026-01-16 23:22:47.51	73.64	36.01	-30.7	-33.6	12.7	1.01e-04	0	43	0	537919488	22	5054
2026-01-16 23:22:48.51	74.02	36.09	-30.6	-33.4	12.9	9.91e-05	0	43	0	540016640	22	4994
2026-01-16 23:22:49.51	74.41	36.18	-30.4	-32.9	13.2	2.97e-05	0	43	0	542113792	22	4785
2026-01-16 23:22:50.52	74.80	36.26	-30.2	-33.0	13.4	3.20e-05	0	43	0	544210944	21	4947
2026-01-16 23:22:51.52	75.19	36.34	-30.4	-33.3	13.2	6.48e-05	0	43	0	546308096	21	5046
2026-01-16 23:22:52.52	75.58	36.43	-30.3	-33.2	13.3	1.22e-05	0	43	0	547356672	21	5027
2026-01-16 23:22:53.52	75.97	36.51	-30.5	-33.6	13.0	2.21e-05	0	43	0	549453824	21	5163
2026-01-16 23:22:54.52	76.37	36.58	-30.5	-33.7	12.9	1.81e-04	0	43	0	551550976	21	5213
2026-01-16 23:22:55.52	76.76	36.66	-30.5	-33.8	12.9	5.34e-05	0	43	0	553648128	21	5248
2026-01-16 23:22:56.52	77.16	36.74	-30.7	-34.3	12.6	7.17e-05	0	43	0	555745280	21	5447
2026-01-16 23:22:57.53	77.56	36.81	-30.9	-34.4	12.2	2.84e-04	0	43	0	556793856	22	5374
2026-01-16 23:22:58.54	77.97	36.89	-30.8	-34.1	12.3	2.37e-04	0	43	0	558891008	22	5238
2026-01-16 23:22:59.54	78.37	36.96	-30.8	-34.4	12.4	1.54e-04	0	44	0	560988160	21	5501
2026-01-16 23:23:00.55	78.78	37.03	-30.7	-34.4	12.5	1.04e-04	0	43	0	563085312	21	5494
2026-01-16 23:23:01.54	79.19	37.10	-30.7	-34.3	12.6	9.38e-05	0	43	0	565182464	21	5465
2026-01-16 23:23:02.55	79.60	37.17	-30.7	-34.3	12.5	3.93e-04	0	43	0	566231040	21	5450
2026-01-16 23:23:03.55	80.01	37.23	-30.6	-33.9	12.8	8.92e-05	0	44	0	568328192	21	5292
2026-01-16 23:23:04.55	80.42	37.30	-30.5	-33.8	12.9	4.57e-05	0	43	0	570425344	21	5229
2026-01-16 23:23:05.55	80.84	37.36	-30.7	-34.1	12.7	3.02e-04	0	43	0	572522496	21	5377
2026-01-16 23:23:06.56	81.26	37.42	-30.9	-35.0	12.1	1.74e-04	0	43	0	573571072	21	5720
2026-01-16 23:23:07.56	81.67	37.48	-31.2	-35.3	11.5	6.61e-04	0	43	0	575668224	22	5766
2026-01-16 23:23:08.56	82.09	37.54	-31.5	-36.1	11.0	1.02e-03	0	43	0	577765376	22	6119
2026-01-16 23:23:09.54	82.50	37.59	-31.3	-35.7	11.3	2.14e-03	0	43	0	579862528	22	5938
2026-01-16 23:23:10.54	82.92	37.65	-31.3	-35.4	11.5	1.14e-03	0	43	0	581959680	22	5806
2026-01-16 23:23:11.54	83.35	37.70	-31.3	-35.5	11.4	9.93e-04	0	44	0	583008256	22	5825
2026-01-16 23:23:12.54	83.77	37.76	-31.2	-35.3	11.6	9.73e-04	0	43	0	585105408	22	5744
2026-01-16 23:23:13.54	84.20	37.81	-31.2	-35.3	11.5	7.42e-04	0	43	0	587202560	22	5757
2026-01-16 23:23:14.55	84.63	37.85	-31.2	-35.2	11.6	5.99e-04	0	44	0	589299712	22	5702
2026-01-16 23:23:15.54	85.05	37.90	-31.2	-35.1	11.7	6.10e-04	0	44	0	591396864	22	5683
2026-01-16 23:23:16.55	85.49	37.95	-31.3	-35.7	11.2	1.02e-03	0	43	0	592445440	22	5948
2026-01-16 23:23:17.54	85.91	37.99	-31.4	-35.8	11.1	1.26e-03	0	43	0	594542592	22	6005
2026-01-16 23:23:18.55	86.35	38.03	-31.4	-35.3	11.2	1.96e-03	0	43	0	596639744	23	5657
2026-01-16 23:23:19.55	86.78	38.07	-31.4	-35.4	11.1	1.48e-03	0	44	0	598736896	23	5698
2026-01-16 23:23:20.55	87.21	38.11	-31.5	-35.7	10.9	1.95e-03	0	43	0	600834048	23	5838
2026-01-16 23:23:21.55	87.65	38.15	-31.5	-35.7	10.8	2.31e-03	0	43	0	601882624	23	5858
2026-01-16 23:23:22.55	88.08	38.18	-31.5	-35.6	11.0	2.19e-03	0	44	0	603979776	23	5804
2026-01-16 23:23:23.55	88.52	38.21	-31.5	-35.7	11.0	2.11e-03	0	44	0	606076928	23	5814
2026-01-16 23:23:24.56	88.96	38.25	-31.6	-35.9	10.7	2.50e-03	0	43	0	608174080	23	5921
2026-01-16 23:23:25.56	89.40	38.27	-31.6	-36.0	10.7	4.05e-03	0	43	0	609222656	23	5953
2026-01-16 23:23:26.56	89.84	38.30	-31.6	-36.1	10.6	3.30e-03	0	43	0	611319808	23	6040
2026-01-16 23:23:27.56	90.28	38.33	-31.8	-36.8	10.1	5.34e-03	0	44	0	613416960	23	6374
2026-01-16 23:23:28.56	90.72	38.35	-31.9	-37.0	9.9	5.88e-03	0	44	0	615514112	23	6505
2026-01-16 23:23:29.56	91.16	38.37	-31.9	-37.1	9.9	8.42e-03	0	44	0	617611264	23	6538
2026-01-16 23:23:30.57	91.61	38.39	-32.1	-37.3	9.4	1.43e-02	0	44	0	618659840	24	6529
2026-01-16 23:23:31.57	92.05	38.41	-32.1	-37.4	9.3	2.07e-02	0	43	0	620756992	24	6632
2026-01-16 23:23:32.57	92.49	38.43	-31.9	-36.5	9.8	1.69e-02	0	44	0	622854144	24	6149
2026-01-16 23:23:33.57	92.93	38.44	-31.7	-36.0	10.3	8.61e-03	0	43	0	624951296	24	5864
2026-01-16 23:23:34.57	93.38	38.45	-31.4	-34.8	11.2	2.17e-03	0	44	0	627048448	24	5329
2026-01-16 23:23:35.58	93.82	38.46	-31.1	-34.4	11.7	8.22e-04	0	43	0	628097024	23	5272
2026-01-16 23:23:36.58	94.27	38.47	-30.9	-33.9	12.2	3.39e-04	0	44	0	630194176	23	5050
2026-01-16 23:23:37.58	94.71	38.48	-31.0	-34.2	12.0	2.46e-04	0	44	0	632291328	23	5180
2026-01-16 23:23:38.59	95.16	38.49	-31.2	-34.7	11.7	5.19e-04	0	44	0	634388480	23	5399
2026-01-16 23:23:39.59	95.61	38.49	-31.3	-35.2	11.3	7.38e-04	0	43	0	636485632	23	5590
2026-01-16 23:23:40.59	96.05	38.49	-31.5	-35.8	10.8	2.29e-03	0	43	0	637534208	23	5887
2026-01-16 23:23:41.59	96.49	38.49	-31.5	-35.7	10.9	3.14e-03	0	44	0	639631360	23	5838
2026-01-16 23:23:42.60	96.94	38.49	-31.4	-35.3	11.2	1.57e-03	0	43	0	641728512	23	5640
2026-01-16 23:23:43.60	97.39	38.48	-31.2	-34.6	11.7	9.06e-04	0	43	0	643825664	23	5359
2026-01-16 23:23:44.61	97.84	38.47	-31.2	-34.6	11.7	4.87e-04	0	44	0	645922816	23	5336
2026-01-16 23:23:45.61	98.28	38.47	-31.0	-34.1	12.1	5.16e-04	0	43	0	646971392	23	5127
2026-01-16 23:23:46.60	98.72	38.46	-30.8	-33.5	12.5	1.80e-04	0	43	0	649068544	23	4892
2026-01-16 23:23:47.61	99.17	38.44	-30.9	-34.2	12.4	1.37e-04	0	43	0	651165696	22	5272
2026-01-16 23:23:48.62	99.62	38.43	-31.1	-34.9	11.8	4.45e-04	0	44	0	653262848	22	5596
2026-01-16 23:23:49.62	100.06	38.41	-31.2	-35.1	11.7	4.07e-04	0	43	0	654311424	22	5669
2026-01-16 23:23:50.61	100.50	38.40	-31.2	-35.3	11.5	8.61e-04	0	44	0	656408576	22	5756
2026-01-16 23:23:51.61	100.94	38.38	-31.2	-35.2	11.7	6.71e-04	0	43	0	658505728	22	5689
2026-01-16 23:23:52.61	101.38	38.35	-31.1	-35.0	11.8	5.94e-04	0	44	0	660602880	22	5612
2026-01-16 23:23:53.61	101.82	38.33	-31.3	-35.4	11.6	6.37e-04	0	43	0	662700032	22	5790
2026-01-16 23:23:54.62	102.26	38.30	-31.6	-36.0	10.7	1.94e-03	0	43	0	663748608	23	5997
2026-01-16 23:23:55.62	102.70	38.28	-31.9	-37.1	9.9	6.33e-03	0	43	0	665845760	23	6525
2026-01-16 23:23:56.62	103.14	38.25	-32.3	-38.3	8.6	1.73e-02	0	44	0	667942912	24	7127
2026-01-16 23:23:57.62	103.58	38.22	-32.6	-39.0	7.6	6.23e-02	0	44	0	670040064	25	7479
2026-01-16 23:23:58.62	104.02	38.19	-32.6	-38.8	7.8	7.25e-02	0	44	0	672137216	25	7408
2026-01-16 23:23:59.62	104.45	38.15	-32.6	-38.7	7.8	7.96e-02	0	43	0	673185792	25	7335
2026-01-16 23:24:00.63	104.89	38.11	-32.4	-38.2	8.2	6.08e-02	0	43	0	675282944	25	7016
2026-01-16 23:24:01.63	105.33	38.08	-32.5	-38.6	7.9	6.17e-02	0	43	0	677380096	25	7252
2026-01-16 23:24:02.63	105.76	38.04	-32.3	-37.8	8.4	7.04e-02	0	43	0	679477248	25	6765
2026-01-16 23:24:03.64	106.20	37.99	-32.2	-37.2	9.1	2.70e-02	0	43	0	681574400	25	6383
2026-01-16 23:24:04.65	106.63	37.95	-32.2	-37.3	8.9	2.29e-02	0	44	0	682622976	25	6465
2026-01-16 23:24:05.65	107.06	37.91	-32.2	-37.2	9.0	2.83e-02	0	43	0	684720128	25	6410
2026-01-16 23:24:06.66	107.49	37.86	-32.2	-37.2	9.1	2.22e-02	0	44	0	686817280	25	6382
2026-01-16 23:24:07.66	107.92	37.81	-32.2	-37.3	8.9	2.40e-02	0	43	0	688914432	25	6426
2026-01-16 23:24:08.67	108.35	37.76	-32.3	-37.5	8.8	3.20e-02	0	43	0	691011584	25	6595
2026-01-16 23:24:09.66	108.77	37.71	-31.9	-36.1	9.9	2.18e-02	0	43	0	692060160	25	5810
2026-01-16 23:24:10.67	109.20	37.65	-31.5	-35.1	11.0	4.69e-03	0	43	0	694157312	24	5453
2026-01-16 23:24:11.67	109.62	37.60	-31.2	-34.8	11.5	8.66e-04	0	44	0	696254464	23	5451
2026-01-16 23:24:12.67	110.04	37.54	-31.2	-34.8	11.5	8.41e-04	0	44	0	698351616	23	5453
2026-01-16 23:24:13.67	110.46	37.48	-31.3	-35.0	11.4	8.11e-04	0	44	0	699400192	23	5505
2026-01-16 23:24:14.68	110.89	37.42	-31.0	-34.3	11.9	5.87e-04	0	44	0	701497344	23	5216
2026-01-16 23:24:15.68	111.30	37.36	-31.0	-34.2	11.9	3.69e-04	0	44	0	703594496	23	5186
2026-01-16 23:24:16.68	111.72	37.30	-31.0	-34.3	11.8	2.28e-04	0	44	0	705691648	23	5226
2026-01-16 23:24:17.69	112.13	37.23	-31.1	-34.4	11.7	6.39e-04	0	44	0	707788800	23	5272
2026-01-16 23:24:18.69	112.54	37.17	-30.9	-33.8	12.2	2.72e-04	0	44	0	709885952	23	5040
2026-01-16 23:24:19.70	112.96	37.10	-30.9	-34.0	12.1	2.52e-04	0	44	0	710934528	23	5108
2026-01-16 23:24:20.69	113.36	37.03	-30.9	-33.8	12.1	2.49e-04	0	44	0	713031680	23	5032
2026-01-16 23:24:21.70	113.77	36.96	-30.8	-33.7	12.3	2.29e-04	0	44	0	715128832	23	4995
2026-01-16 23:24:22.71	114.18	36.89	-30.8	-34.2	12.2	3.16e-04	0	44	0	717225984	22	5280
2026-01-16 23:24:23.71	114.58	36.81	-30.9	-34.2	12.2	3.28e-04	0	43	0	718274560	22	5307
2026-01-16 23:24:24.72	114.99	36.74	-31.2	-35.1	11.6	3.29e-04	0	44	0	720371712	22	5698
2026-01-16 23:24:25.72	115.39	36.66	-31.0	-34.8	11.9	1.03e-03	0	43	0	722468864	22	5539
2026-01-16 23:24:26.72	115.79	36.59	-30.5	-33.2	13.0	1.33e-04	0	43	0	724566016	22	4894
2026-01-16 23:24:27.73	116.19	36.51	-30.0	-32.2	13.8	1.67e-05	0	44	0	726663168	21	4682
2026-01-16 23:24:28.72	116.58	36.43	-30.0	-32.3	13.8	4.50e-06	0	44	0	727711744	21	4705
2026-01-16 23:24:29.72	116.97	36.34	-30.2	-32.9	13.4	4.50e-06	0	44	0	729808896	21	4916
2026-01-16 23:24:30.73	117.36	36.26	-30.4	-33.4	13.1	2.21e-05	0	44	0	731906048	21	5103
2026-01-16 23:24:31.73	117.75	36.18	-30.8	-34.8	12.2	1.58e-04	0	44	0	734003200	21	5656
2026-01-16 23:24:32.73	118.14	36.09	-30.6	-34.0	12.7	2.78e-04	0	44	0	736100352	21	5323
2026-01-16 23:24:33.73	118.52	36.01	-29.8	-31.9	14.0	2.13e-05	0	44	0	737148928	21	4582
2026-01-16 23:24:34.73	118.90	35.92	-29.2	-31.3	15.1	7.00e-07	0	43	0	739246080	19	4561
2026-01-16 23:24:35.73	119.28	35.83	-29.2	-31.2	15.2	0.00e+00	0	44	0	741343232	19	4526
2026-01-16 23:24:36.74	119.66	35.74	-29.6	-32.2	14.6	0.00e+00	0	44	0	743440384	19	4868
2026-01-16 23:24:37.75	120.04	35.65	-30.0	-32.9	13.7	1.50e-06	0	43	0	745537536	20	5036
2026-01-16 23:24:38.75	120.42	35.56	-29.9	-32.5	14.0	5.30e-06	0	44	0	746586112	20	4862
2026-01-16 23:24:39.75	120.79	35.46	-29.5	-31.5	14.6	7.00e-07	0	44	0	748683264	20	4553
2026-01-16 23:24:40.76	121.16	35.37	-29.3	-31.1	14.8	7.00e-07	0	44	0	750780416	20	4415
2026-01-16 23:24:41.76	121.53	35.27	-29.5	-31.6	14.6	7.00e-07	0	44	0	752877568	20	4560
2026-01-16 23:24:42.76	121.89	35.18	-29.9	-32.6	14.0	2.20e-06	0	44	0	754974720	20	4914
2026-01-16 23:24:43.76	122.26	35.08	-29.8	-32.4	14.0	2.67e-05	0	44	0	756023296	20	4824
2026-01-16 23:24:44.76	122.62	34.98	-29.4	-31.3	14.7	1.29e-05	0	44	0	758120448	20	4491
2026-01-16 23:24:45.76	122.98	34.88	-29.1	-31.0	15.3	0.00e+00	0	44	0	760217600	19	4488
2026-01-16 23:24:46.76	123.33	34.78	-29.2	-31.3	15.2	7.00e-07	0	44	0	762314752	19	4560
2026-01-16 23:24:47.76	123.69	34.68	-29.5	-32.1	14.6	2.05e-05	0	43	0	763363328	19	4850
2026-01-16 23:24:48.76	124.04	34.58	-30.1	-33.2	13.5	9.10e-06	0	44	0	765460480	20	5118
2026-01-16 23:24:49.77	124.39	34.48	-30.4	-34.1	12.9	3.58e-05	0	43	0	767557632	20	5469
2026-01-16 23:24:50.77	124.74	34.37	-30.3	-33.7	13.1	6.02e-05	0	44	0	769654784	20	5326
2026-01-16 23:24:51.78	125.09	34.27	-30.0	-32.8	13.7	6.80e-06	0	43	0	771751936	20	4990
2026-01-16 23:24:52.79	125.44	34.16	-29.9	-32.6	13.9	1.50e-06	0	43	0	772800512	20	4926
2026-01-16 23:24:53.80	125.78	34.06	-30.3	-33.8	13.1	8.30e-06	0	43	0	774897664	20	5360
2026-01-16 23:24:54.80	126.12	33.95	-30.6	-34.2	12.5	7.62e-05	0	43	0	776994816	21	5414
2026-01-16 23:24:55.80	126.46	33.84	-30.9	-34.9	11.9	2.55e-04	0	43	0	779091968	21	5724
2026-01-16 23:24:56.80	126.80	33.73	-30.7	-34.4	12.3	2.04e-04	0	44	0	781189120	21	5510
2026-01-16 23:24:57.81	127.13	33.63	-30.6	-33.9	12.7	9.00e-05	0	44	0	782237696	21	5305
2026-01-16 23:24:58.81	127.46	33.52	-30.8	-34.6	12.3	1.39e-04	0	44	0	784334848	21	5580
2026-01-16 23:24:59.81	127.79	33.41	-30.9	-35.1	11.9	2.90e-04	0	44	0	786432000	21	5796
2026-01-16 23:25:00.80	128.11	33.30	-31.5	-36.0	10.6	1.32e-03	0	43	0	788529152	23	6005
2026-01-16 23:25:01.81	128.44	33.18	-31.6	-36.2	10.4	5.30e-03	0	43	0	790626304	23	6100
2026-01-16 23:25:02.81	128.76	33.07	-31.1	-34.6	11.5	1.67e-03	0	44	0	791674880	23	5362
2026-01-16 23:25:03.80	129.08	32.96	-30.5	-33.2	12.9	1.65e-04	0	44	0	793772032	22	4909
2026-01-16 23:25:04.81	129.40	32.85	-30.1	-32.7	13.4	1.67e-05	0	44	0	795869184	21	4860
2026-01-16 23:25:05.81	129.72	32.73	-30.3	-33.2	13.2	1.29e-05	0	44	0	797966336	21	5041
2026-01-16 23:25:06.80	130.03	32.62	-30.8	-34.6	12.2	1.23e-04	0	44	0	800063488	21	5597
2026-01-16 23:25:07.80	130.34	32.51	-31.3	-35.8	11.0	8.50e-04	0	43	0	801112064	22	6043
2026-01-16 23:25:08.80	130.65	32.39	-31.6	-36.4	10.2	3.29e-03	0	44	0	803209216	23	6206
2026-01-16 23:25:09.80	130.95	32.28	-31.1	-34.7	11.4	1.96e-03	0	44	0	805306368	23	5407
2026-01-16 23:25:10.81	131.26	32.16	-30.5	-33.3	12.8	1.85e-04	0	44	0	807403520	22	4969
2026-01-16 23:25:11.82	131.57	32.04	-30.3	-32.8	13.1	3.35e-05	0	43	0	808452096	22	4776
2026-01-16 23:25:12.82	131.87	31.93	-30.6	-33.5	12.6	5.95e-05	0	44	0	810549248	22	5049
2026-01-16 23:25:13.82	132.17	31.81	-31.1	-35.4	11.3	4.46e-04	0	44	0	812646400	22	5855
2026-01-16 23:25:14.83	132.47	31.69	-31.4	-36.3	10.6	2.67e-03	0	44	0	814743552	22	6320
2026-01-16 23:25:15.83	132.76	31.57	-31.2	-35.6	11.0	3.50e-03	0	44	0	816840704	22	5966
2026-01-16 23:25:16.83	133.05	31.46	-30.6	-33.7	12.4	3.69e-04	0	44	0	817889280	22	5156
2026-01-16 23:25:17.84	133.34	31.34	-30.2	-33.2	13.0	5.79e-05	0	44	0	819986432	21	5083
2026-01-16 23:25:18.84	133.63	31.22	-30.4	-33.9	12.6	5.18e-05	0	43	0	822083584	21	5350
2026-01-16 23:25:19.85	133.92	31.10	-30.8	-34.9	11.8	2.86e-04	0	43	0	824180736	21	5807
2026-01-16 23:25:20.85	134.20	30.98	-31.5	-36.7	10.2	1.89e-03	0	43	0	826277888	22	6601
2026-01-16 23:25:21.85	134.49	30.86	-31.9	-37.8	9.0	1.55e-02	0	44	0	827326464	23	7109
2026-01-16 23:25:22.85	134.77	30.74	-31.7	-37.0	9.6	1.67e-02	0	44	0	829423616	23	6618
2026-01-16 23:25:23.85	135.04	30.62	-31.3	-35.5	10.7	5.79e-03	0	44	0	831520768	23	5840
2026-01-16 23:25:24.86	135.32	30.50	-31.0	-34.4	11.5	1.10e-03	0	44	0	833617920	23	5350
2026-01-16 23:25:25.86	135.60	30.38	-31.0	-34.9	11.6	6.42e-04	0	44	0	835715072	22	5631
2026-01-16 23:25:26.87	135.87	30.26	-31.0	-34.9	11.6	6.14e-04	0	43	0	836763648	22	5643
2026-01-16 23:25:27.87	136.14	30.14	-31.3	-35.8	10.9	1.35e-03	0	44	0	838860800	22	6064
2026-01-16 23:25:28.88	136.41	30.01	-31.7	-36.6	9.9	3.68e-03	0	43	0	840957952	23	6371
2026-01-16 23:25:29.88	136.68	29.89	-31.4	-35.8	10.5	5.74e-03	0	44	0	843055104	23	5953
2026-01-16 23:25:30.89	136.94	29.77	-30.8	-34.2	12.0	1.06e-03	0	44	0	845152256	22	5344
2026-01-16 23:25:31.89	137.20	29.65	-30.0	-32.8	13.2	9.53e-05	0	44	0	846200832	21	4967
2026-01-16 23:25:32.90	137.47	29.53	-29.9	-32.3	13.6	6.80e-06	0	44	0	848297984	21	4746
2026-01-16 23:25:33.90	137.72	29.41	-30.2	-33.6	12.5	7.60e-06	0	44	0	850395136	20	5288
2026-01-16 23:25:34.90	137.98	29.28	-30.5	-34.0	12.2	5.41e-05	0	44	0	852492288	21	5362
2026-01-16 23:25:35.90	138.23	29.16	-31.1	-35.2	11.3	3.10e-04	0	43	0	854589440	22	5789
2026-01-16 23:25:36.90	138.49	29.04	-30.9	-34.6	11.7	1.02e-03	0	44	0	855638016	22	5496
2026-01-16 23:25:37.91	138.74	28.92	-30.3	-33.2	13.0	1.51e-04	0	44	0	857735168	21	5060
2026-01-16 23:25:38.91	138.99	28.80	-29.5	-31.7	14.3	8.30e-06	0	44	0	859832320	20	4624
2026-01-16 23:25:39.91	139.23	28.67	-29.3	-31.5	14.8	3.68e-04	0	43	0	861929472	19	4661
2026-01-16 23:25:40.91	139.48	28.55	-29.5	-32.5	14.5	0.00e+00	0	44	0	862978048	18	5116
2026-01-16 23:25:41.92	139.72	28.43	-29.8	-32.8	14.0	7.00e-07	0	44	0	865075200	19	5115
2026-01-16 23:25:42.92	139.97	28.31	-30.2	-33.5	13.1	2.20e-06	0	44	0	867172352	20	5285
2026-01-16 23:25:43.92	140.21	28.18	-30.2	-33.6	13.1	2.36e-05	0	44	0	869269504	20	5304
2026-01-16 23:25:44.92	140.44	28.06	-30.1	-33.2	13.3	2.74e-05	0	43	0	871366656	20	5150
2026-01-16 23:25:45.93	140.68	27.94	-29.8	-32.9	13.9	1.14e-05	0	44	0	872415232	19	5135
2026-01-16 23:25:46.93	140.92	27.82	-29.4	-32.5	14.5	1.63e-03	0	44	0	874512384	18	5096
2026-01-16 23:25:47.93	141.15	27.70	-29.2	-31.8	15.0	7.00e-07	0	44	0	876609536	18	4845
2026-01-16 23:25:48.94	141.38	27.57	-29.3	-32.1	14.8	0.00e+00	0	44	0	878706688	18	4958
2026-01-16 23:25:49.94	141.61	27.45	-29.3	-32.0	14.8	1.46e-03	0	43	0	880803840	18	4929
2026-01-16 23:25:50.94	141.84	27.33	-29.4	-32.5	14.5	0.00e+00	0	43	0	881852416	18	5109
2026-01-16 23:25:51.94	142.06	27.21	-29.7	-32.7	14.0	3.00e-06	0	44	0	883949568	19	5080
2026-01-16 23:25:52.94	142.29	27.09	-29.6	-32.5	14.1	2.20e-06	0	43	0	886046720	19	4999
2026-01-16 23:25:53.95	142.51	26.96	-29.4	-31.9	14.5	0.00e+00	0	44	0	888143872	19	4809
2026-01-16 23:25:54.95	142.73	26.84	-29.0	-31.4	15.1	7.00e-07	0	44	0	890241024	18	4728
2026-01-16 23:25:55.95	142.95	26.72	-29.0	-31.4	15.1	0.00e+00	0	44	0	891289600	18	4749
2026-01-16 23:25:56.95	143.17	26.60	-29.1	-31.5	15.0	0.00e+00	0	43	0	893386752	18	4772
2026-01-16 23:25:57.95	143.38	26.48	-28.8	-31.5	15.3	1.76e-03	0	43	0	895483904	17	4877
2026-01-16 23:25:58.95	143.60	26.36	-29.1	-31.6	15.0	0.00e+00	0	43	0	897581056	18	4819
2026-01-16 23:25:59.96	143.81	26.24	-29.7	-32.6	14.1	0.00e+00	0	43	0	899678208	19	5048
2026-01-16 23:26:00.96	144.02	26.11	-30.0	-33.2	13.2	1.89e-03	0	44	0	900726784	20	5200
2026-01-16 23:26:01.96	144.23	25.99	-30.2	-33.8	12.8	4.04e-05	0	43	0	902823936	20	5399
2026-01-16 23:26:02.96	144.44	25.87	-30.0	-33.0	13.3	3.20e-05	0	43	0	904921088	20	5113
2026-01-16 23:26:03.96	144.65	25.75	-29.7	-32.6	14.0	2.04e-03	0	43	0	907018240	19	5044
2026-01-16 23:26:04.97	144.85	25.63	-29.2	-31.8	14.8	2.24e-03	0	43	0	908066816	18	4884
2026-01-16 23:26:05.96	145.05	25.51	-28.9	-31.2	15.1	0.00e+00	0	43	0	910163968	18	4689
2026-01-16 23:26:06.96	145.26	25.39	-29.0	-31.8	15.1	2.18e-03	0	44	0	912261120	17	4987
2026-01-16 23:26:07.96	145.46	25.27	-28.9	-31.7	15.2	2.17e-03	0	44	0	914358272	17	4942
2026-01-16 23:26:08.96	145.66	25.16	-28.9	-31.7	15.1	0.00e+00	0	44	0	916455424	17	4967
2026-01-16 23:26:09.96	145.85	25.04	-29.5	-32.7	14.2	0.00e+00	0	44	0	917504000	18	5208
2026-01-16 23:26:10.96	146.05	24.92	-29.5	-32.1	14.2	1.99e-03	0	44	0	919601152	19	4893
2026-01-16 23:26:11.96	146.24	24.80	-29.4	-31.9	14.4	0.00e+00	0	43	0	921698304	19	4822
2026-01-16 23:26:12.97	146.44	24.68	-29.0	-31.4	15.0	1.50e-06	0	44	0	923795456	18	4756
2026-01-16 23:26:13.97	146.63	24.56	-28.6	-30.9	15.6	2.20e-03	0	44	0	925892608	17	4690
2026-01-16 23:26:14.98	146.82	24.44	-28.2	-29.9	16.1	0.00e+00	0	44	0	926941184	17	4405
2026-01-16 23:26:15.98	147.01	24.32	-28.1	-30.2	16.3	2.17e-03	0	44	0	929038336	16	4583
2026-01-16 23:26:16.99	147.20	24.20	-27.8	-30.1	16.5	2.15e-03	0	43	0	931135488	15	4679
2026-01-16 23:26:17.99	147.39	24.09	-27.9	-30.3	16.3	0.00e+00	0	43	0	933232640	15	4760
2026-01-16 23:26:19.00	147.57	23.97	-28.4	-30.8	15.9	2.15e-03	0	44	0	935329792	16	4797
2026-01-16 23:26:20.00	147.76	23.85	-28.6	-31.0	15.5	2.01e-03	0	44	0	936378368	17	4734
2026-01-16 23:26:21.00	147.94	23.73	-28.9	-31.7	15.1	0.00e+00	0	44	0	938475520	17	4965
2026-01-16 23:26:22.00	148.12	23.62	-28.9	-31.7	15.1	2.12e-03	0	44	0	940572672	17	4963
2026-01-16 23:26:23.00	148.30	23.50	-28.8	-31.6	15.2	2.26e-03	0	44	0	942669824	17	4929
2026-01-16 23:26:24.00	148.48	23.38	-28.8	-31.5	15.2	0.00e+00	0	43	0	944766976	17	4895
2026-01-16 23:26:25.01	148.65	23.27	-28.8	-31.5	15.2	2.30e-03	0	44	0	945815552	17	4896
2026-01-16 23:26:26.01	148.83	23.15	-28.9	-31.7	15.0	2.11e-03	0	44	0	947912704	17	4985
2026-01-16 23:26:27.01	149.00	23.04	-28.8	-31.6	15.1	0.00e+00	0	44	0	950009856	17	4932
2026-01-16 23:26:28.01	149.18	22.92	-28.8	-31.5	15.2	2.20e-03	0	44	0	952107008	17	4892
2026-01-16 23:26:29.02	149.35	22.81	-29.0	-31.6	14.9	2.12e-03	0	44	0	953155584	18	4826
2026-01-16 23:26:30.02	149.52	22.69	-29.1	-31.8	14.7	7.00e-07	0	43	0	955252736	18	4883
2026-01-16 23:26:31.03	149.69	22.58	-29.1	-31.8	14.7	0.00e+00	0	44	0	957349888	18	4891
2026-01-16 23:26:32.03	149.86	22.46	-29.1	-31.7	14.7	2.49e-03	0	44	0	959447040	18	4871
2026-01-16 23:26:33.02	150.03	22.35	-28.9	-31.2	15.1	0.00e+00	0	43	0	961544192	18	4675
2026-01-16 23:26:34.03	150.19	22.23	-28.9	-31.7	15.0	2.37e-03	0	44	0	962592768	17	4953
2026-01-16 23:26:35.03	150.36	22.12	-28.7	-31.2	15.3	2.30e-03	0	43	0	964689920	17	4785
2026-01-16 23:26:36.03	150.52	22.01	-28.6	-30.9	15.5	0.00e+00	0	44	0	966787072	17	4694
2026-01-16 23:26:37.03	150.68	21.89	-28.8	-31.4	15.2	2.27e-03	0	44	0	968884224	17	4867
2026-01-16 23:26:38.03	150.84	21.78	-28.8	-31.4	15.1	0.00e+00	0	43	0	970981376	17	4886
2026-01-16 23:26:39.04	151.01	21.67	-28.8	-31.6	15.1	7.00e-07	0	44	0	972029952	17	4941
2026-01-16 23:26:40.04	151.17	21.56	-29.0	-31.9	14.9	2.08e-03	0	43	0	974127104	17	5034
2026-01-16 23:26:41.04	151.32	21.45	-29.1	-31.7	14.7	7.00e-07	0	43	0	976224256	18	4853
2026-01-16 23:26:42.04	151.48	21.33	-29.0	-31.6	14.8	0.00e+00	0	44	0	978321408	18	4822
2026-01-16 23:26:43.04	151.64	21.22	-29.2	-32.0	14.5	2.35e-03	0	43	0	980418560	18	4964
2026-01-16 23:26:44.04	151.79	21.11	-29.3	-32.1	14.4	2.27e-03	0	44	0	981467136	18	5012
2026-01-16 23:26:45.04	151.94	21.00	-29.1	-31.7	14.6	7.00e-07	0	44	0	983564288	18	4872
2026-01-16 23:26:46.05	152.10	20.89	-29.2	-31.9	14.5	2.25e-03	0	43	0	985661440	18	4944
2026-01-16 23:26:47.05	152.25	20.78	-29.3	-32.1	14.4	2.16e-03	0	44	0	987758592	18	5011
2026-01-16 23:26:48.05	152.40	20.67	-29.4	-32.6	14.1	7.00e-07	0	43	0	989855744	18	5175
2026-01-16 23:26:49.06	152.55	20.56	-29.5	-32.4	13.9	6.80e-06	0	44	0	990904320	19	4999
2026-01-16 23:26:50.06	152.70	20.45	-29.8	-33.2	13.3	2.51e-03	0	44	0	993001472	19	5293
2026-01-16 23:26:51.07	152.85	20.34	-29.9	-33.4	13.2	1.64e-04	0	44	0	995098624	19	5372
2026-01-16 23:26:52.06	152.99	20.23	-30.1	-33.6	12.7	5.56e-05	0	43	0	997195776	20	5384
2026-01-16 23:26:53.06	153.14	20.12	-30.0	-33.3	12.9	2.62e-03	0	44	0	999292928	20	5245
2026-01-16 23:26:54.06	153.28	20.02	-30.0	-33.1	13.0	2.55e-04	0	43	0	1000341504	20	5194
2026-01-16 23:26:55.06	153.42	19.91	-29.9	-33.5	13.1	2.97e-05	0	44	0	1002438656	19	5448
2026-01-16 23:26:56.06	153.57	19.80	-29.7	-32.8	13.6	1.44e-05	0	44	0	1004535808	19	5163
2026-01-16 23:26:57.06	153.71	19.69	-29.6	-32.6	13.7	2.33e-04	0	44	0	1006632960	19	5078
2026-01-16 23:26:58.06	153.85	19.59	-29.5	-32.5	13.8	2.18e-03	0	44	0	1007681536	19	5061
2026-01-16 23:26:59.06	153.99	19.48	-29.4	-32.6	14.0	1.50e-06	0	44	0	1009778688	18	5203
2026-01-16 23:27:00.06	154.13	19.37	-29.4	-32.6	14.0	3.00e-06	0	44	0	1011875840	18	5211
2026-01-16 23:27:01.06	154.26	19.27	-29.3	-32.4	14.1	2.46e-03	0	44	0	1013972992	18	5140
2026-01-16 23:27:02.06	154.40	19.16	-29.6	-32.7	13.5	8.30e-06	0	44	0	1016070144	19	5184
2026-01-16 23:27:03.06	154.54	19.06	-29.5	-32.5	13.6	6.10e-06	0	44	0	1017118720	19	5110
2026-01-16 23:27:04.06	154.67	18.95	-29.5	-32.9	13.7	2.51e-03	0	44	0	1019215872	18	5362
2026-01-16 23:27:05.07	154.81	18.85	-29.6	-32.9	13.4	7.60e-06	0	44	0	1021313024	19	5236
2026-01-16 23:27:06.07	154.94	18.74	-29.7	-33.1	13.3	2.13e-05	0	44	0	1023410176	19	5300
2026-01-16 23:27:07.08	155.07	18.64	-29.8	-33.3	13.1	1.37e-05	0	43	0	1025507328	19	5393
2026-01-16 23:27:08.08	155.20	18.53	-29.9	-33.5	13.1	2.53e-03	0	43	0	1026555904	19	5441
2026-01-16 23:27:09.08	155.33	18.43	-29.8	-33.3	13.2	3.28e-05	0	44	0	1028653056	19	5374
2026-01-16 23:27:10.07	155.46	18.33	-29.9	-33.5	13.0	3.05e-05	0	44	0	1030750208	19	5435
2026-01-16 23:27:11.07	155.59	18.22	-29.8	-33.1	13.3	3.81e-05	0	43	0	1032847360	19	5291
2026-01-16 23:27:12.08	155.72	18.12	-29.7	-32.9	13.4	2.51e-05	0	44	0	1034944512	19	5215
2026-01-16 23:27:13.07	155.84	18.02	-29.7	-33.1	13.3	2.28e-05	0	44	0	1035993088	19	5277
2026-01-16 23:27:14.08	155.97	17.92	-29.6	-32.7	13.5	1.44e-05	0	44	0	1038090240	19	5154
2026-01-16 23:27:15.07	156.10	17.82	-29.6	-32.7	13.5	1.22e-04	0	44	0	1040187392	19	5162
2026-01-16 23:27:16.07	156.22	17.71	-29.9	-33.5	12.9	3.43e-05	0	44	0	1042284544	19	5477
2026-01-16 23:27:17.06	156.34	17.61	-29.6	-32.7	13.4	1.83e-05	0	44	0	1043333120	19	5168
2026-01-16 23:27:18.07	156.47	17.51	-29.6	-32.7	13.4	1.29e-05	0	44	0	1045430272	19	5144
2026-01-16 23:27:19.07	156.59	17.41	-29.4	-32.7	13.7	7.60e-06	0	44	0	1047527424	18	5274
2026-01-16 23:27:20.07	156.71	17.31	-29.4	-32.7	13.8	9.10e-06	0	44	0	1049624576	18	5268
2026-01-16 23:27:21.07	156.83	17.21	-29.6	-32.6	13.6	4.50e-06	0	44	0	1051721728	19	5106
2026-01-16 23:27:22.07	156.95	17.11	-29.8	-33.1	13.2	2.05e-04	0	44	0	1052770304	19	5272
2026-01-16 23:27:23.08	157.07	17.01	-29.7	-32.8	13.4	9.90e-06	0	44	0	1054867456	19	5181
2026-01-16 23:27:24.08	157.19	16.91	-29.7	-33.0	13.3	1.52e-05	0	44	0	1056964608	19	5229
2026-01-16 23:27:25.09	157.31	16.81	-29.7	-33.0	13.3	1.44e-05	0	44	0	1059061760	19	5247
2026-01-16 23:27:26.09	157.43	16.71	-29.9	-33.4	13.0	1.37e-05	0	44	0	1061158912	19	5404
2026-01-16 23:27:27.09	157.54	16.61	-29.7	-32.9	13.3	2.82e-05	0	43	0	1062207488	19	5225
2026-01-16 23:27:28.09	157.66	16.52	-29.7	-32.9	13.3	1.67e-05	0	44	0	1064304640	19	5221
2026-01-16 23:27:29.08	157.77	16.42	-29.8	-33.3	13.1	2.44e-05	0	44	0	1066401792	19	5371
2026-01-16 23:27:30.09	157.89	16.32	-29.7	-33.0	13.3	3.12e-05	0	44	0	1068498944	19	5240
2026-01-16 23:27:31.08	158.00	16.23	-29.9	-33.6	12.9	1.75e-05	0	44	0	1070596096	19	5479
2026-01-16 23:27:32.08	158.11	16.13	-29.9	-33.1	12.7	4.88e-05	0	44	0	1071644672	20	5214
2026-01-16 23:27:33.08	158.22	16.03	-29.8	-32.9	12.9	5.72e-05	0	43	0	1073741824	20	5130
2026-01-16 23:27:34.08	158.33	15.94	-29.9	-33.7	12.8	5.64e-05	0	44	0	1075838976	19	5516
2026-01-16 23:27:35.09	158.44	15.84	-30.0	-33.7	12.8	4.34e-05	0	44	0	1077936128	19	5550
2026-01-16 23:27:36.08	158.55	15.74	-30.1	-33.6	12.4	1.43e-04	0	44	0	1078984704	20	5410
2026-01-16 23:27:37.08	158.66	15.65	-30.3	-34.5	11.8	4.29e-04	0	44	0	1081081856	20	5785
2026-01-16 23:27:38.08	158.77	15.55	-30.0	-33.6	12.3	2.55e-04	0	43	0	1083179008	20	5476
2026-01-16 23:27:39.08	158.88	15.46	-29.2	-33.0	11.9	3.03e-04	0	43	0	1085276160	20	5571
2026-01-16 23:27:40.09	158.99	15.36	-30.4	-34.7	11.0	4.59e-04	0	44	0	1087373312	20	5899
2026-01-16 23:27:41.10	159.09	15.27	-30.6	-34.8	11.1	1.03e-03	0	44	0	1088421888	21	5811
2026-01-16 23:27:42.10	159.20	15.17	-30.5	-34.9	10.9	1.11e-03	0	44	0	1090519040	20	5971
2026-01-16 23:27:43.10	159.31	15.08	-30.2	-34.1	11.2	3.94e-04	0	43	0	1092616192	20	5647
2026-01-16 23:27:44.10	159.41	14.99	-30.2	-34.0	12.0	2.74e-04	0	44	0	1094713344	20	5602
2026-01-16 23:27:45.10	159.51	14.89	-30.2	-34.2	11.8	2.77e-04	0	44	0	1096810496	20	5661
2026-01-16 23:27:46.09	159.62	14.80	-30.2	-34.1	11.9	3.81e-04	0	44	0	1097859072	20	5648
2026-01-16 23:27:47.10	159.72	14.71	-30.2	-34.0	12.0	3.55e-04	0	44	0	1099956224	20	5615
2026-01-16 23:27:48.10	159.82	14.61	-30.4	-34.7	11.5	6.31e-04	0	44	0	1102053376	20	5910
2026-01-16 23:27:49.11	159.92	14.52	-30.1	-33.8	12.2	4.36e-04	0	44	0	1104150528	20	5494
2026-01-16 23:27:50.11	160.02	14.43	-29.9	-33.3	12.5	1.85e-04	0	44	0	1106247680	20	5301
2026-01-16 23:27:51.11	160.12	14.34	-29.8	-33.5	12.7	7.85e-05	0	44	0	1107296256	19	5480
2026-01-16 23:27:52.11	160.22	14.25	-29.8	-33.3	12.9	5.26e-05	0	44	0	1109393408	19	5389
2026-01-16 23:27:53.12	160.32	14.15	-29.8	-33.3	12.8	5.34e-05	0	44	0	1111490560	19	5441
2026-01-16 23:27:54.12	160.42	14.06	-29.7	-33.2	12.9	4.50e-05	0	44	0	1113587712	19	5369
2026-01-16 23:27:55.12	160.52	13.97	-29.7	-33.1	12.9	5.56e-05	0	44	0	1114636288	19	5378
2026-01-16 23:27:56.12	160.62	13.88	-29.7	-33.3	12.8	5.95e-05	0	44	0	1116733440	19	5434
2026-01-16 23:27:57.12	160.71	13.79	-29.8	-33.7	12.5	2.86e-03	0	44	0	1118830592	19	5619
2026-01-16 23:27:58.13	160.81	13.70	-29.8	-33.5	12.6	9.38e-05	0	44	0	1120927744	19	5532
2026-01-16 23:27:59.13	160.91	13.61	-29.7	-33.4	12.7	8.54e-05	0	43	0	1123024896	19	5497
2026-01-16 23:28:00.14	161.00	13.52	-29.8	-33.6	12.6	2.76e-03	0	44	0	1124073472	19	5575
2026-01-16 23:28:01.14	161.10	13.43	-30.0	-34.1	12.2	3.09e-03	0	43	0	1126170624	19	5776
2026-01-16 23:28:02.14	161.19	13.34	-29.9	-33.9	12.3	1.40e-04	0	44	0	1128267776	19	5705
2026-01-16 23:28:03.15	161.29	13.25	-29.9	-33.7	12.5	1.61e-04	0	44	0	1130364928	19	5614
2026-01-16 23:28:04.14	161.38	13.17	-29.9	-33.9	12.4	3.05e-03	0	44	0	1132462080	19	5681
2026-01-16 23:28:05.14	161.47	13.08	-29.9	-33.3	12.3	2.01e-04	0	44	0	1133510656	20	5353
2026-01-16 23:28:06.14	161.56	12.99	-30.0	-34.0	12.3	1.63e-04	0	44	0	1135607808	19	5737
2026-01-16 23:28:07.14	161.65	12.90	-30.0	-33.5	12.2	2.80e-03	0	44	0	1137704960	20	5410
2026-01-16 23:28:08.13	161.74	12.82	-29.9	-33.4	12.3	4.36e-04	0	44	0	1139802112	20	5373
2026-01-16 23:28:09.13	161.83	12.73	-30.1	-33.8	12.0	2.29e-04	0	43	0	1141899264	20	5533
2026-01-16 23:28:10.14	161.92	12.64	-30.0	-33.5	12.2	2.97e-03	0	44	0	1142947840	20	5415
2026-01-16 23:28:11.14	162.01	12.56	-29.9	-33.4	12.3	3.68e-04	0	44	0	1145044992	20	5360
2026-01-16 23:28:12.14	162.10	12.47	-30.0	-33.6	12.1	3.91e-04	0	43	0	1147142144	20	5451
2026-01-16 23:28:13.14	162.19	12.38	-30.0	-33.5	12.2	2.42e-04	0	44	0	1149239296	20	5409
2026-01-16 23:28:14.15	162.28	12.30	-30.0	-33.5	12.2	3.89e-04	0	44	0	1151336448	20	5408
2026-01-16 23:28:15.15	162.37	12.21	-30.0	-33.7	12.0	2.98e-03	0	44	0	1152385024	20	5500
2026-01-16 23:28:16.15	162.45	12.13	-30.0	-33.9	11.9	3.98e-04	0	44	0	1154482176	20	5585
2026-01-16 23:28:17.16	162.54	12.04	-30.3	-34.5	11.4	1.04e-03	0	44	0	1156579328	20	5878
2026-01-16 23:28:18.16	162.63	11.96	-30.1	-34.0	11.8	3.07e-03	0	44	0	1158676480	20	5651
2026-01-16 23:28:19.16	162.71	11.87	-30.0	-33.8	11.9	3.36e-03	0	44	0	1159725056	20	5571
2026-01-16 23:28:20.16	162.80	11.79	-29.9	-33.6	12.1	4.26e-04	0	44	0	1161822208	20	5462
2026-01-16 23:28:21.16	162.88	11.70	-30.0	-33.9	11.8	3.43e-03	0	44	0	1163919360	20	5632
2026-01-16 23:28:22.17	162.97	11.62	-30.0	-34.0	11.7	3.36e-03	0	44	0	1166016512	20	5658
2026-01-16 23:28:23.17	163.05	11.53	-30.0	-33.9	11.8	5.80e-04	0	44	0	1168113664	20	5625
2026-01-16 23:28:24.17	163.13	11.45	-30.0	-34.0	11.7	3.46e-03	0	44	0	1169162240	20	5673
2026-01-16 23:28:25.18	163.22	11.37	-30.0	-34.1	11.6	3.29e-03	0	44	0	1171259392	20	5728
2026-01-16 23:28:26.18	163.30	11.28	-30.0	-34.1	11.6	7.59e-04	0	44	0	1173356544	20	5726
2026-01-16 23:28:27.18	163.38	11.20	-30.1	-34.3	11.4	3.49e-03	0	44	0	1175453696	20	5851
2026-01-16 23:28:28.18	163.46	11.12	-30.1	-34.4	11.3	4.06e-03	0	44	0	1177550848	20	5892
2026-01-16 23:28:29.19	163.54	11.04	-30.2	-34.5	11.2	1.32e-03	0	44	0	1178599424	20	5945
2026-01-16 23:28:30.18	163.62	10.95	-30.2	-34.8	11.0	4.36e-03	0	44	0	1180696576	20	6093
2026-01-16 23:28:31.18	163.70	10.87	-30.3	-35.0	10.8	5.09e-03	0	44	0	1182793728	20	6219
2026-01-16 23:28:32.19	163.78	10.79	-30.2	-34.8	11.0	2.35e-03	0	44	0	1184890880	20	6122
2026-01-16 23:28:33.19	163.86	10.71	-30.3	-35.3	10.6	5.54e-03	0	44	0	1186988032	20	6352
2026-01-16 23:28:34.19	163.94	10.63	-30.4	-35.7	10.3	7.72e-03	0	44	0	1188036608	20	6580
2026-01-16 23:28:35.19	164.02	10.55	-30.5	-35.8	10.2	5.50e-03	0	44	0	1190133760	20	6630
2026-01-16 23:28:36.19	164.10	10.47	-30.4	-35.8	10.2	9.11e-03	0	44	0	1192230912	20	6637
2026-01-16 23:28:37.19	164.18	10.39	-30.5	-35.5	10.0	9.89e-03	0	44	0	1194328064	21	6371
2026-01-16 23:28:38.19	164.25	10.31	-30.6	-35.6	9.9	7.79e-03	0	44	0	1196425216	21	6425
2026-01-16 23:28:39.19	164.33	10.23	-30.5	-35.6	9.9	1.15e-02	0	43	0	1197473792	21	6440
2026-01-16 23:28:40.19	164.41	10.15	-30.5	-35.5	10.0	1.18e-02	0	44	0	1199570944	21	6375
2026-01-16 23:28:41.19	164.48	10.07	-30.6	-35.7	9.8	1.02e-02	0	43	0	1201668096	21	6515
2026-01-16 23:28:42.19	164.56	9.99	-30.5	-35.3	10.1	1.09e-02	0	44	0	1203765248	21	6275
2026-01-16 23:28:43.19	164.63	9.91	-30.3	-35.1	10.7	7.46e-03	0	43	0	1204813824	20	6228
2026-01-16 23:28:44.19	164.71	9.83	-30.2	-34.5	11.2	3.20e-03	0	44	0	1206910976	20	5945
2026-01-16 23:28:45.19	164.78	9.75	-30.3	-35.0	10.8	5.63e-03	0	44	0	1209008128	20	6182
2026-01-16 23:28:46.19	164.85	9.67	-30.2	-34.6	11.1	5.31e-03	0	44	0	1211105280	20	5941
2026-01-16 23:28:47.19	164.93	9.59	-30.2	-34.6	11.2	1.19e-03	0	44	0	1213202432	20	5921
2026-01-16 23:28:48.19	165.00	9.51	-30.2	-34.4	11.3	1.17e-03	0	44	0	1214251008	20	5828
2026-01-16 23:28:49.19	165.07	9.44	-30.3	-34.6	11.2	4.22e-03	0	43	0	1216348160	20	5927
2026-01-16 23:28:50.19	165.15	9.36	-30.3	-34.6	11.2	1.62e-03	0	43	0	1218445312	20	5914
2026-01-16 23:28:51.18	165.22	9.28	-30.4	-35.0	10.9	4.79e-03	0	44	0	1220542464	20	6124
2026-01-16 23:28:52.19	165.29	9.20	-30.1	-34.2	11.4	1.11e-03	0	44	0	1222639616	20	5735
2026-01-16 23:28:53.18	165.36	9.13	-30.0	-33.9	11.6	7.22e-04	0	44	0	1223688192	20	5634
2026-01-16 23:28:54.19	165.43	9.05	-30.4	-35.0	10.8	4.86e-03	0	44	0	1225785344	20	6157
2026-01-16 23:28:55.20	165.50	8.97	-30.2	-34.6	11.1	1.78e-03	0	44	0	1227882496	20	5953
2026-01-16 23:28:56.20	165.57	8.90	-30.2	-34.7	11.1	1.48e-03	0	44	0	1229979648	20	5993
2026-01-16 23:28:57.20	165.64	8.82	-30.3	-34.8	10.9	5.92e-03	0	44	0	1231028224	20	6081
2026-01-16 23:28:58.20	165.71	8.74	-30.3	-34.8	11.0	5.95e-03	0	44	0	1233125376	20	6046
2026-01-16 23:28:59.20	165.78	8.67	-30.5	-35.6	10.3	4.44e-03	0	44	0	1235222528	20	6475
2026-01-16 23:29:00.21	165.85	8.59	-30.3	-35.0	10.7	8.15e-03	0	44	0	1237319680	20	6166
2026-01-16 23:29:01.21	165.92	8.52	-30.5	-35.2	10.2	6.97e-03	0	44	0	1239416832	21	6146
2026-01-16 23:29:02.22	165.99	8.44	-30.4	-34.7	10.5	4.53e-03	0	44	0	1240465408	21	5936
2026-01-16 23:29:03.21	166.06	8.37	-30.5	-35.1	10.3	7.35e-03	0	44	0	1242562560	21	6110
2026-01-16 23:29:04.22	166.13	8.29	-30.6	-35.4	10.0	1.16e-02	0	44	0	1244659712	21	6284
2026-01-16 23:29:05.22	166.19	8.21	-30.6	-35.4	10.0	6.92e-03	0	44	0	1246756864	21	6273
2026-01-16 23:29:06.23	166.26	8.14	-30.7	-35.9	9.6	1.03e-02	0	44	0	1248854016	21	6547
2026-01-16 23:29:07.22	166.33	8.07	-30.9	-36.4	9.2	2.26e-02	0	44	0	1249902592	21	6833
2026-01-16 23:29:08.23	166.39	7.99	-30.7	-36.0	9.6	1.65e-02	0	44	0	1251999744	21	6592
2026-01-16 23:29:09.23	166.46	7.92	-30.7	-35.9	9.6	1.52e-02	0	44	0	1254096896	21	6542
2026-01-16 23:29:10.22	166.53	7.84	-30.9	-36.6	9.1	1.86e-02	0	44	0	1256194048	21	6924
2026-01-16 23:29:11.22	166.59	7.77	-30.9	-36.4	9.2	1.97e-02	0	44	0	1258291200	21	6820
2026-01-16 23:29:12.22	166.66	7.70	-30.9	-36.6	9.0	2.40e-02	0	44	0	1259339776	21	6956
2026-01-16 23:29:13.22	166.72	7.62	-30.9	-36.4	9.2	2.00e-02	0	44	0	1261436928	21	6815
2026-01-16 23:29:14.23	166.79	7.55	-30.9	-36.4	9.2	1.93e-02	0	43	0	1263534080	21	6825
2026-01-16 23:29:15.23	166.85	7.48	-31.8	-40.5	5.8	1.35e-01	0	44	0	1265631232	23	9745
2026-01-16 23:29:16.23	166.91	7.40	-32.3	-46.6	3.8	1.49e+00	0	44	104	1265631232	24	18587
2026-01-16 23:29:17.23	166.98	7.33	-32.2	-46.6	3.8	1.49e+00	0	44	104	1265631232	24	18830
2026-01-16 23:29:18.23	167.04	7.26	-32.1	-46.3	3.8	1.49e+00	0	44	104	1265631232	24	18350
2026-01-16 23:29:19.24	167.10	7.19	-32.0	-46.3	3.8	1.49e+00	0	44	104	1265631232	24	18575
2026-01-16 23:29:20.24	167.17	7.11	-32.1	-46.4	3.8	1.49e+00	0	44	104	1265631232	24	18696
2026-01-16 23:29:21.25	167.23	7.04	-32.4	-46.5	3.8	1.49e+00	0	44	104	1265631232	25	18210
2026-01-16 23:29:22.25	167.29	6.97	-32.8	-47.4	3.8	1.49e+00	0	44	104	1265631232	25	19175
2026-01-16 23:29:23.26	167.35	6.90	-33.3	-47.8	3.8	1.49e+00	0	44	104	1265631232	26	19098

#Closed at: 2026-01-16 23:29:23
#Recorded file [1265 MB]: D:/data/31010_260117_021800.dat