passes_logs/2026/01/16/R2M6_AANII_01/R2M6_AANII_01__20260116_111007_NOAA_20_JPSS-1_rec.log

#Pass ID: 20260116_111007_NOAA 20 (JPSS-1)
#Satellite: NOAA 20 (JPSS-1)
#Configuration: NOAA 20
#almurnet v.1.7.20240730
#Start time: 2026-01-16 11:10:36

#Version: 2.2.20231116
#Station: R2M6_AANII_01
#Location: 30.233357 lon 59.946436 lat
#TLE: 1 43013U 17073A   26015.47098083  .00000029  00000+0  34851-4 0  9997
#TLE: 2 43013  98.7636 316.4053 0001479  38.6686 321.4595 14.19536048422808

#Time	Az	El	Level	Level2	SNR	BER	BlckErr	Temp	State	Recorded	gain1	gain2
2026-01-16 11:10:36.55	188.62	9.22	-34.0	-53.6	3.8	7.42e-01	0	42	0	0	28	34200
2026-01-16 11:10:37.54	188.68	9.30	-34.2	-48.0	3.8	1.49e+00	0	43	104	0	29	17610
2026-01-16 11:10:38.54	188.74	9.38	-34.3	-48.0	3.8	1.49e+00	0	43	104	0	29	17603
2026-01-16 11:10:39.54	188.80	9.46	-34.3	-48.1	3.8	1.49e+00	0	43	104	0	29	17664
2026-01-16 11:10:40.55	188.86	9.54	-34.3	-48.1	3.8	1.49e+00	0	43	104	0	29	17719
2026-01-16 11:10:41.54	188.92	9.62	-34.3	-48.1	3.8	1.49e+00	0	43	104	0	29	17659
2026-01-16 11:10:42.53	188.98	9.70	-34.3	-48.1	3.8	1.49e+00	0	43	104	0	29	17636
2026-01-16 11:10:43.54	189.05	9.78	-34.2	-48.0	3.8	1.49e+00	0	43	104	0	29	17641
2026-01-16 11:10:44.53	189.11	9.86	-34.3	-48.1	3.8	1.49e+00	0	43	104	0	29	17676
2026-01-16 11:10:45.53	189.17	9.94	-34.2	-48.1	3.8	1.49e+00	0	43	104	0	29	17675
2026-01-16 11:10:46.52	189.24	10.02	-34.2	-48.0	3.8	1.49e+00	0	43	104	0	29	17597
2026-01-16 11:10:47.52	189.30	10.10	-34.2	-48.0	3.8	1.49e+00	0	43	104	0	29	17587
2026-01-16 11:10:48.52	189.36	10.19	-34.2	-48.0	3.8	1.49e+00	0	43	104	0	29	17658
2026-01-16 11:10:49.52	189.43	10.27	-34.2	-48.0	3.8	1.49e+00	0	43	104	0	29	17593
2026-01-16 11:10:50.51	189.49	10.35	-34.2	-48.0	3.8	1.49e+00	0	43	104	0	29	17513
2026-01-16 11:10:51.52	189.56	10.43	-34.2	-48.0	3.8	1.49e+00	0	43	104	0	29	17576
2026-01-16 11:10:52.50	189.62	10.52	-34.2	-48.0	3.8	1.49e+00	0	43	104	0	29	17586
2026-01-16 11:10:53.50	189.69	10.60	-34.2	-48.0	3.8	1.49e+00	0	43	104	0	29	17542
2026-01-16 11:10:54.49	189.75	10.68	-34.2	-48.0	3.8	1.49e+00	0	43	104	0	29	17558
2026-01-16 11:10:55.49	189.82	10.77	-34.2	-48.0	3.8	1.49e+00	0	43	104	0	29	17633
2026-01-16 11:10:56.48	189.89	10.85	-34.2	-48.0	3.8	1.49e+00	0	43	104	0	29	17636
2026-01-16 11:10:57.48	189.95	10.93	-34.2	-48.1	3.8	1.49e+00	0	43	104	0	29	17666
2026-01-16 11:10:58.48	190.02	11.02	-34.2	-48.0	3.8	1.49e+00	0	43	104	0	29	17579
2026-01-16 11:10:59.47	190.09	11.10	-34.2	-48.0	3.8	1.49e+00	0	43	104	0	29	17609
2026-01-16 11:11:00.47	190.16	11.19	-34.2	-47.9	3.8	1.49e+00	0	43	104	0	29	17446
2026-01-16 11:11:01.47	190.22	11.27	-34.1	-47.7	3.8	1.49e+00	0	43	104	0	29	17353
2026-01-16 11:11:02.45	190.29	11.36	-34.0	-47.6	3.8	1.49e+00	0	43	104	0	29	17205
2026-01-16 11:11:03.44	190.36	11.44	-33.9	-47.4	3.8	1.49e+00	0	43	104	0	29	17064
2026-01-16 11:11:04.44	190.43	11.53	-33.9	-47.3	3.8	1.49e+00	0	43	104	0	29	16950
2026-01-16 11:11:05.44	190.50	11.62	-33.9	-47.3	3.8	1.49e+00	0	43	104	0	29	16967
2026-01-16 11:11:06.45	190.57	11.70	-33.8	-47.2	3.8	1.49e+00	0	43	104	0	29	16831
2026-01-16 11:11:07.45	190.64	11.79	-33.8	-47.2	3.8	1.49e+00	0	43	104	0	29	16801
2026-01-16 11:11:08.46	190.72	11.88	-33.8	-47.6	3.8	1.49e+00	0	43	104	0	28	17657
2026-01-16 11:11:09.46	190.79	11.97	-33.5	-47.3	3.8	1.49e+00	0	43	104	0	28	17472
2026-01-16 11:11:10.46	190.86	12.06	-33.5	-47.1	3.8	1.49e+00	0	43	104	0	28	17230
2026-01-16 11:11:11.46	190.93	12.14	-33.3	-47.0	3.8	1.49e+00	0	43	104	0	27	17385
2026-01-16 11:11:12.47	191.01	12.23	-32.8	-42.2	4.0	1.46e+00	0	43	104	0	27	10516
2026-01-16 11:11:13.48	191.08	12.32	-32.8	-41.9	4.6	9.80e-01	0	43	104	0	27	10236
2026-01-16 11:11:14.48	191.15	12.41	-32.8	-41.9	4.6	9.64e-01	0	43	0	1048576	27	10192
2026-01-16 11:11:15.49	191.23	12.50	-32.8	-41.5	4.7	8.97e-01	0	43	0	3145728	27	9865
2026-01-16 11:11:16.48	191.30	12.59	-32.7	-41.3	5.0	8.03e-01	0	43	0	5242880	26	9726
2026-01-16 11:11:17.48	191.38	12.68	-32.6	-40.5	5.5	5.14e-01	0	43	0	7340032	26	8897
2026-01-16 11:11:18.48	191.45	12.77	-32.2	-38.5	7.1	2.14e-01	0	43	0	8388608	25	7462
2026-01-16 11:11:19.49	191.53	12.86	-31.8	-36.7	8.4	7.88e-02	0	43	0	10485760	25	6367
2026-01-16 11:11:20.49	191.61	12.95	-31.5	-35.9	9.5	2.86e-02	0	43	0	12582912	24	6002
2026-01-16 11:11:21.49	191.69	13.05	-31.0	-34.7	10.7	3.18e-03	0	43	0	14680064	23	5549
2026-01-16 11:11:22.49	191.76	13.14	-30.6	-33.9	11.7	9.41e-04	0	43	0	16777216	22	5290
2026-01-16 11:11:23.49	191.84	13.23	-30.2	-33.2	12.5	2.57e-04	0	43	0	17825792	21	5111
2026-01-16 11:11:24.50	191.92	13.32	-29.9	-32.4	13.1	8.31e-05	0	43	0	19922944	21	4800
2026-01-16 11:11:25.50	192.00	13.41	-29.7	-32.4	13.3	2.36e-05	0	43	0	22020096	20	4927
2026-01-16 11:11:26.50	192.08	13.51	-29.6	-32.2	13.5	1.44e-05	0	43	0	24117248	20	4859
2026-01-16 11:11:27.50	192.16	13.60	-29.7	-32.4	13.4	6.80e-06	0	43	0	25165824	20	4916
2026-01-16 11:11:28.51	192.24	13.69	-29.9	-33.0	13.0	1.67e-05	0	43	0	27262976	20	5126
2026-01-16 11:11:29.51	192.32	13.79	-30.2	-33.9	12.4	9.15e-05	0	43	0	29360128	20	5482
2026-01-16 11:11:30.51	192.40	13.88	-30.5	-34.3	11.8	2.84e-04	0	43	0	31457280	21	5576
2026-01-16 11:11:31.50	192.48	13.97	-30.9	-35.5	10.8	2.40e-03	0	43	0	33554432	21	6129
2026-01-16 11:11:32.50	192.56	14.07	-30.8	-35.2	11.1	1.96e-03	0	43	0	34603008	21	5955
2026-01-16 11:11:33.51	192.65	14.16	-30.7	-34.9	11.3	7.67e-04	0	43	0	36700160	21	5831
2026-01-16 11:11:34.50	192.73	14.26	-30.6	-34.6	11.5	1.46e-03	0	43	0	38797312	21	5704
2026-01-16 11:11:35.51	192.81	14.36	-30.3	-33.7	12.1	4.10e-04	0	43	0	40894464	21	5300
2026-01-16 11:11:36.51	192.90	14.45	-30.0	-32.7	12.9	8.62e-05	0	43	0	42991616	21	4904
2026-01-16 11:11:37.51	192.98	14.55	-29.8	-32.2	13.2	2.59e-05	0	43	0	44040192	21	4747
2026-01-16 11:11:38.51	193.07	14.64	-29.8	-32.5	13.4	6.80e-06	0	43	0	46137344	20	4940
2026-01-16 11:11:39.51	193.16	14.74	-29.8	-32.6	13.4	1.83e-05	0	43	0	48234496	20	4986
2026-01-16 11:11:40.52	193.24	14.84	-29.8	-32.7	13.4	1.52e-05	0	43	0	50331648	20	4981
2026-01-16 11:11:41.51	193.33	14.94	-29.7	-32.3	13.7	9.10e-06	0	43	0	52428800	20	4836
2026-01-16 11:11:42.51	193.42	15.03	-29.8	-32.5	13.6	1.06e-05	0	43	0	53477376	20	4919
2026-01-16 11:11:43.52	193.51	15.13	-29.8	-32.5	13.6	6.10e-06	0	43	0	55574528	20	4913
2026-01-16 11:11:44.52	193.59	15.23	-29.8	-32.5	13.7	6.80e-06	0	43	0	57671680	20	4902
2026-01-16 11:11:45.51	193.68	15.33	-29.8	-32.6	13.6	3.80e-06	0	43	0	59768832	20	4949
2026-01-16 11:11:46.52	193.77	15.43	-29.8	-32.4	13.7	4.50e-06	0	43	0	61865984	20	4866
2026-01-16 11:11:47.52	193.86	15.53	-29.9	-32.8	13.5	9.90e-06	0	43	0	62914560	20	5024
2026-01-16 11:11:48.51	193.95	15.63	-30.0	-32.9	13.3	2.51e-05	0	43	0	65011712	20	5075
2026-01-16 11:11:49.51	194.04	15.73	-29.9	-32.7	13.6	6.10e-06	0	43	0	67108864	20	4977
2026-01-16 11:11:50.51	194.14	15.83	-29.7	-32.3	13.8	3.80e-06	0	43	0	69206016	20	4827
2026-01-16 11:11:51.51	194.23	15.93	-29.5	-31.7	14.2	3.80e-06	0	43	0	70254592	20	4639
2026-01-16 11:11:52.51	194.32	16.03	-29.4	-31.4	14.4	2.20e-06	0	43	0	72351744	20	4547
2026-01-16 11:11:53.51	194.42	16.13	-29.4	-31.3	14.4	7.00e-07	0	43	0	74448896	20	4513
2026-01-16 11:11:54.52	194.51	16.23	-29.4	-31.4	14.4	0.00e+00	0	43	0	76546048	20	4534
2026-01-16 11:11:55.52	194.61	16.34	-29.4	-31.5	14.3	0.00e+00	0	43	0	78643200	20	4566
2026-01-16 11:11:56.53	194.70	16.44	-29.5	-31.6	14.3	1.50e-06	0	43	0	79691776	20	4610
2026-01-16 11:11:57.53	194.80	16.54	-29.5	-31.6	14.3	1.50e-06	0	43	0	81788928	20	4593
2026-01-16 11:11:58.53	194.90	16.65	-29.6	-31.9	14.1	0.00e+00	0	43	0	83886080	20	4695
2026-01-16 11:11:59.54	195.00	16.75	-29.6	-31.8	14.1	5.30e-06	0	43	0	85983232	20	4679
2026-01-16 11:12:00.54	195.09	16.86	-29.5	-31.6	14.3	2.20e-06	0	43	0	88080384	20	4607
2026-01-16 11:12:01.55	195.19	16.96	-29.5	-31.7	14.2	1.50e-06	0	43	0	89128960	20	4648
2026-01-16 11:12:02.55	195.29	17.07	-29.5	-31.7	14.2	1.50e-06	0	43	0	91226112	20	4641
2026-01-16 11:12:03.55	195.39	17.17	-29.6	-31.8	14.1	7.00e-07	0	43	0	93323264	20	4670
2026-01-16 11:12:04.55	195.50	17.28	-29.6	-31.9	14.1	1.50e-06	0	43	0	95420416	20	4698
2026-01-16 11:12:05.56	195.60	17.38	-29.6	-32.0	14.0	7.00e-07	0	43	0	97517568	20	4724
2026-01-16 11:12:06.56	195.70	17.49	-29.6	-31.9	14.1	7.00e-07	0	43	0	98566144	20	4705
2026-01-16 11:12:07.55	195.80	17.60	-29.7	-32.0	14.0	2.20e-06	0	43	0	100663296	20	4739
2026-01-16 11:12:08.55	195.91	17.70	-29.8	-32.6	13.7	3.00e-06	0	43	0	102760448	20	4921
2026-01-16 11:12:09.55	196.01	17.81	-29.8	-32.5	13.8	4.50e-06	0	43	0	104857600	20	4892
2026-01-16 11:12:10.56	196.12	17.92	-29.8	-32.6	13.7	5.30e-06	0	43	0	106954752	20	4918
2026-01-16 11:12:11.55	196.22	18.03	-30.0	-32.9	13.5	1.06e-05	0	43	0	108003328	20	5047
2026-01-16 11:12:12.55	196.33	18.13	-30.0	-32.8	13.5	9.10e-06	0	43	0	110100480	20	5021
2026-01-16 11:12:13.55	196.44	18.24	-29.9	-32.7	13.6	6.10e-06	0	43	0	112197632	20	4983
2026-01-16 11:12:14.55	196.54	18.35	-30.0	-32.8	13.6	7.60e-06	0	43	0	114294784	20	5016
2026-01-16 11:12:15.54	196.65	18.46	-30.0	-33.1	13.4	1.37e-05	0	43	0	115343360	20	5101
2026-01-16 11:12:16.55	196.76	18.57	-30.0	-33.1	13.4	1.83e-05	0	43	0	117440512	20	5110
2026-01-16 11:12:17.56	196.87	18.69	-29.8	-32.5	13.8	1.22e-05	0	43	0	119537664	20	4914
2026-01-16 11:12:18.56	196.99	18.80	-29.8	-32.4	13.9	7.00e-07	0	43	0	121634816	20	4844
2026-01-16 11:12:19.56	197.10	18.91	-29.8	-32.5	13.8	3.00e-06	0	43	0	123731968	20	4912
2026-01-16 11:12:20.57	197.21	19.02	-29.9	-32.8	13.7	2.20e-06	0	43	0	124780544	20	4997
2026-01-16 11:12:21.57	197.33	19.13	-29.9	-32.6	13.8	9.10e-06	0	43	0	126877696	20	4927
2026-01-16 11:12:22.57	197.44	19.25	-29.9	-32.7	13.7	5.30e-06	0	43	0	128974848	20	4965
2026-01-16 11:12:23.57	197.55	19.36	-30.0	-32.9	13.6	7.60e-06	0	43	0	131072000	20	5048
2026-01-16 11:12:24.57	197.67	19.47	-30.0	-32.9	13.6	1.06e-05	0	43	0	133169152	20	5042
2026-01-16 11:12:25.57	197.79	19.59	-30.0	-32.9	13.6	4.50e-06	0	43	0	134217728	20	5030
2026-01-16 11:12:26.57	197.91	19.70	-30.1	-33.1	13.5	1.22e-05	0	43	0	136314880	20	5101
2026-01-16 11:12:27.57	198.02	19.81	-30.1	-33.1	13.5	6.10e-06	0	43	0	138412032	20	5106
2026-01-16 11:12:28.57	198.14	19.93	-30.0	-33.0	13.6	8.30e-06	0	43	0	140509184	20	5074
2026-01-16 11:12:29.57	198.26	20.04	-30.2	-33.6	13.2	1.44e-05	0	43	0	141557760	20	5287
2026-01-16 11:12:30.57	198.39	20.16	-30.4	-34.1	12.9	6.10e-05	0	43	0	143654912	20	5475
2026-01-16 11:12:31.58	198.51	20.28	-30.4	-33.9	13.0	2.97e-05	0	43	0	145752064	20	5413
2026-01-16 11:12:32.59	198.63	20.40	-30.4	-33.5	13.0	6.40e-05	0	43	0	147849216	21	5139
2026-01-16 11:12:33.58	198.76	20.51	-30.2	-32.9	13.3	2.36e-05	0	43	0	149946368	21	4914
2026-01-16 11:12:34.58	198.88	20.63	-30.0	-32.4	13.7	6.80e-06	0	43	0	150994944	21	4754
2026-01-16 11:12:35.59	199.01	20.75	-29.9	-32.2	13.8	1.22e-05	0	43	0	153092096	21	4678
2026-01-16 11:12:36.59	199.13	20.87	-29.9	-32.1	13.9	4.50e-06	0	43	0	155189248	21	4662
2026-01-16 11:12:37.58	199.26	20.98	-29.9	-32.0	13.9	6.80e-06	0	43	0	157286400	21	4626
2026-01-16 11:12:38.58	199.39	21.10	-29.8	-31.9	14.0	9.90e-06	0	43	0	159383552	21	4576
2026-01-16 11:12:39.59	199.52	21.22	-29.9	-32.2	13.8	1.50e-06	0	43	0	160432128	21	4661
2026-01-16 11:12:40.59	199.65	21.34	-29.9	-32.1	13.9	5.30e-06	0	43	0	162529280	21	4628
2026-01-16 11:12:41.60	199.78	21.47	-29.8	-32.2	14.1	3.00e-06	0	43	0	164626432	20	4790
2026-01-16 11:12:42.60	199.92	21.59	-29.8	-32.3	14.1	3.00e-06	0	43	0	166723584	20	4803
2026-01-16 11:12:43.60	200.05	21.71	-29.8	-32.4	14.0	3.00e-06	0	43	0	168820736	20	4838
2026-01-16 11:12:44.61	200.19	21.83	-29.8	-32.3	14.0	4.50e-06	0	43	0	169869312	20	4833
2026-01-16 11:12:45.61	200.32	21.95	-29.8	-32.3	14.1	3.00e-06	0	43	0	171966464	20	4828
2026-01-16 11:12:46.61	200.46	22.08	-29.8	-32.4	14.0	2.20e-06	0	43	0	174063616	20	4832
2026-01-16 11:12:47.61	200.60	22.20	-29.8	-32.4	14.1	2.20e-06	0	43	0	176160768	20	4833
2026-01-16 11:12:48.61	200.73	22.32	-29.8	-32.4	14.0	7.00e-07	0	43	0	178257920	20	4859
2026-01-16 11:12:49.61	200.87	22.45	-29.9	-32.5	13.9	3.80e-06	0	43	0	179306496	20	4894
2026-01-16 11:12:50.62	201.02	22.57	-29.8	-32.4	14.0	1.50e-06	0	43	0	181403648	20	4857
2026-01-16 11:12:51.62	201.16	22.70	-29.9	-32.6	13.9	2.20e-06	0	43	0	183500800	20	4928
2026-01-16 11:12:52.62	201.30	22.82	-29.8	-32.5	14.0	1.50e-06	0	43	0	185597952	20	4870
2026-01-16 11:12:53.62	201.45	22.95	-29.8	-32.3	14.1	5.30e-06	0	43	0	186646528	20	4827
2026-01-16 11:12:54.63	201.59	23.08	-29.9	-32.7	13.8	4.50e-06	0	43	0	188743680	20	4969
2026-01-16 11:12:55.62	201.74	23.20	-29.9	-32.7	13.9	3.80e-06	0	43	0	190840832	20	4946
2026-01-16 11:12:56.63	201.89	23.33	-29.8	-32.5	14.0	0.00e+00	0	43	0	192937984	20	4870
2026-01-16 11:12:57.63	202.04	23.46	-29.8	-32.5	14.0	1.50e-06	0	43	0	195035136	20	4867
2026-01-16 11:12:58.63	202.19	23.58	-29.8	-32.4	14.0	3.00e-06	0	43	0	196083712	20	4862
2026-01-16 11:12:59.64	202.34	23.71	-29.8	-32.4	14.0	2.20e-06	0	43	0	198180864	20	4856
2026-01-16 11:13:00.63	202.49	23.84	-29.9	-32.7	13.9	3.00e-06	0	43	0	200278016	20	4937
2026-01-16 11:13:01.63	202.64	23.97	-29.8	-32.5	14.0	5.30e-06	0	43	0	202375168	20	4876
2026-01-16 11:13:02.63	202.80	24.10	-29.7	-32.2	14.2	7.00e-07	0	43	0	204472320	20	4765
2026-01-16 11:13:03.63	202.95	24.23	-29.7	-32.0	14.4	7.00e-07	0	43	0	205520896	20	4695
2026-01-16 11:13:04.63	203.11	24.36	-29.7	-32.1	14.3	7.00e-07	0	43	0	207618048	20	4746
2026-01-16 11:13:05.63	203.27	24.49	-29.8	-32.5	14.1	1.50e-06	0	43	0	209715200	20	4868
2026-01-16 11:13:06.63	203.43	24.62	-29.8	-32.3	14.2	7.00e-07	0	43	0	211812352	20	4805
2026-01-16 11:13:07.64	203.59	24.76	-29.7	-32.1	14.3	1.50e-06	0	43	0	213909504	20	4748
2026-01-16 11:13:08.64	203.76	24.89	-29.8	-32.2	14.2	2.20e-06	0	43	0	214958080	20	4781
2026-01-16 11:13:09.65	203.92	25.02	-29.7	-32.1	14.3	7.00e-07	0	43	0	217055232	20	4753
2026-01-16 11:13:10.65	204.09	25.15	-29.8	-32.4	14.2	7.00e-07	0	43	0	219152384	20	4833
2026-01-16 11:13:11.65	204.25	25.29	-29.8	-32.4	14.1	7.00e-07	0	43	0	221249536	20	4849
2026-01-16 11:13:12.65	204.42	25.42	-29.8	-32.3	14.2	1.50e-06	0	43	0	222298112	20	4796
2026-01-16 11:13:13.65	204.59	25.56	-29.7	-32.2	14.2	0.00e+00	0	43	0	224395264	20	4768
2026-01-16 11:13:14.65	204.76	25.69	-29.7	-32.2	14.3	0.00e+00	0	43	0	226492416	20	4774
2026-01-16 11:13:15.65	204.93	25.83	-29.8	-32.2	14.2	7.00e-07	0	43	0	228589568	20	4775
2026-01-16 11:13:16.66	205.11	25.96	-29.8	-32.3	14.2	7.00e-07	0	43	0	230686720	20	4811
2026-01-16 11:13:17.66	205.28	26.10	-29.9	-32.5	14.1	3.00e-06	0	43	0	232783872	20	4865
2026-01-16 11:13:18.66	205.46	26.24	-30.0	-32.8	13.9	3.00e-06	0	43	0	233832448	20	4960
2026-01-16 11:13:19.67	205.64	26.37	-30.0	-32.9	13.8	5.30e-06	0	43	0	235929600	20	5013
2026-01-16 11:13:20.67	205.82	26.51	-30.2	-33.4	13.5	3.00e-06	0	43	0	238026752	20	5206
2026-01-16 11:13:21.68	206.00	26.65	-30.2	-33.4	13.5	6.10e-06	0	43	0	240123904	20	5199
2026-01-16 11:13:22.67	206.18	26.79	-30.2	-33.4	13.5	1.37e-05	0	43	0	241172480	20	5200
2026-01-16 11:13:23.67	206.37	26.92	-30.4	-33.9	13.2	1.14e-05	0	43	0	243269632	20	5402
2026-01-16 11:13:24.68	206.56	27.07	-30.4	-33.9	13.2	2.28e-05	0	43	0	245366784	20	5410
2026-01-16 11:13:25.69	206.75	27.21	-30.4	-34.1	13.1	2.74e-05	0	43	0	247463936	20	5484
2026-01-16 11:13:26.70	206.94	27.35	-30.5	-33.8	13.0	3.81e-05	0	43	0	249561088	21	5240
2026-01-16 11:13:27.70	207.13	27.49	-30.5	-33.6	13.0	4.04e-05	0	43	0	250609664	21	5183
2026-01-16 11:13:28.70	207.32	27.63	-30.5	-33.9	12.8	3.58e-05	0	43	0	252706816	21	5309
2026-01-16 11:13:29.69	207.51	27.77	-30.6	-34.0	12.8	6.86e-05	0	43	0	254803968	21	5328
2026-01-16 11:13:30.69	207.71	27.91	-30.6	-34.1	12.7	4.42e-05	0	43	0	256901120	21	5385
2026-01-16 11:13:31.69	207.91	28.05	-30.6	-34.1	12.7	7.47e-05	0	43	0	258998272	21	5377
2026-01-16 11:13:32.70	208.11	28.19	-30.8	-34.5	12.5	1.17e-04	0	43	0	260046848	21	5529
2026-01-16 11:13:33.70	208.31	28.33	-30.8	-34.5	12.5	1.34e-04	0	43	0	262144000	21	5528
2026-01-16 11:13:34.70	208.51	28.48	-30.9	-34.9	12.2	1.43e-04	0	43	0	264241152	21	5704
2026-01-16 11:13:35.71	208.72	28.62	-31.0	-34.7	12.0	3.49e-04	0	43	0	266338304	22	5515
2026-01-16 11:13:36.71	208.92	28.76	-31.1	-34.8	11.9	3.29e-04	0	43	0	268435456	22	5550
2026-01-16 11:13:37.71	209.13	28.91	-31.2	-35.4	11.5	4.52e-04	0	43	0	269484032	22	5791
2026-01-16 11:13:38.71	209.34	29.05	-31.2	-35.2	11.7	6.45e-04	0	43	0	271581184	22	5716
2026-01-16 11:13:39.71	209.55	29.20	-31.3	-35.7	11.4	7.84e-04	0	43	0	273678336	22	5922
2026-01-16 11:13:40.72	209.77	29.34	-31.3	-35.5	11.5	1.06e-03	0	43	0	275775488	22	5857
2026-01-16 11:13:41.72	209.98	29.49	-31.3	-35.7	11.4	8.96e-04	0	43	0	277872640	22	5933
2026-01-16 11:13:42.72	210.20	29.63	-31.4	-35.7	11.3	9.41e-04	0	43	0	278921216	22	5951
2026-01-16 11:13:43.72	210.42	29.78	-31.3	-35.6	11.5	1.01e-03	0	43	0	281018368	22	5874
2026-01-16 11:13:44.72	210.64	29.92	-31.2	-35.3	11.7	6.81e-04	0	43	0	283115520	22	5764
2026-01-16 11:13:45.73	210.87	30.07	-31.1	-34.8	12.0	3.48e-04	0	43	0	285212672	22	5531
2026-01-16 11:13:46.74	211.09	30.22	-30.9	-34.4	12.3	2.35e-04	0	43	0	286261248	22	5339
2026-01-16 11:13:47.74	211.32	30.37	-30.9	-34.4	12.4	1.50e-04	0	43	0	288358400	22	5359
2026-01-16 11:13:48.74	211.55	30.51	-30.9	-34.4	12.4	1.79e-04	0	43	0	290455552	22	5343
2026-01-16 11:13:49.74	211.78	30.66	-31.0	-34.4	12.3	1.41e-04	0	43	0	292552704	22	5362
2026-01-16 11:13:50.75	212.02	30.81	-30.9	-34.3	12.4	2.17e-04	0	43	0	294649856	22	5328
2026-01-16 11:13:51.75	212.25	30.96	-30.9	-34.2	12.4	1.27e-04	0	43	0	295698432	22	5268
2026-01-16 11:13:52.75	212.49	31.10	-30.9	-34.2	12.4	1.60e-04	0	43	0	297795584	22	5289
2026-01-16 11:13:53.75	212.73	31.25	-30.8	-33.9	12.6	8.85e-05	0	43	0	299892736	22	5163
2026-01-16 11:13:54.75	212.97	31.40	-30.9	-34.1	12.5	1.21e-04	0	43	0	301989888	22	5245
2026-01-16 11:13:55.76	213.22	31.55	-30.9	-34.1	12.5	1.06e-04	0	43	0	304087040	22	5247
2026-01-16 11:13:56.76	213.46	31.70	-30.8	-34.0	12.6	9.84e-05	0	43	0	305135616	22	5176
2026-01-16 11:13:57.76	213.71	31.85	-30.8	-34.0	12.7	1.08e-04	0	43	0	307232768	22	5180
2026-01-16 11:13:58.76	213.96	32.00	-30.7	-33.7	12.9	6.71e-05	0	43	0	309329920	22	5059
2026-01-16 11:13:59.76	214.21	32.15	-30.8	-33.8	12.7	5.26e-05	0	43	0	311427072	22	5116
2026-01-16 11:14:00.76	214.47	32.30	-30.7	-33.8	12.8	5.56e-05	0	43	0	313524224	22	5103
2026-01-16 11:14:01.76	214.73	32.45	-30.7	-33.7	12.8	5.64e-05	0	43	0	314572800	22	5078
2026-01-16 11:14:02.76	214.99	32.59	-30.8	-34.0	12.6	8.54e-05	0	43	0	316669952	22	5182
2026-01-16 11:14:03.77	215.25	32.75	-30.8	-33.9	12.7	9.68e-05	0	43	0	318767104	22	5165
2026-01-16 11:14:04.77	215.52	32.90	-30.8	-33.9	12.7	6.63e-05	0	43	0	320864256	22	5166
2026-01-16 11:14:05.77	215.78	33.05	-30.8	-34.1	12.6	1.18e-04	0	43	0	322961408	22	5218
2026-01-16 11:14:06.77	216.05	33.20	-31.0	-34.4	12.3	1.18e-04	0	43	0	324009984	22	5368
2026-01-16 11:14:07.77	216.33	33.35	-30.8	-33.9	12.7	1.36e-04	0	43	0	326107136	22	5153
2026-01-16 11:14:08.76	216.60	33.49	-30.7	-33.5	12.9	6.10e-05	0	43	0	328204288	22	5015
2026-01-16 11:14:09.76	216.87	33.64	-30.7	-33.6	12.9	4.11e-05	0	43	0	330301440	22	5036
2026-01-16 11:14:10.76	217.15	33.79	-30.7	-33.6	12.9	4.11e-05	0	43	0	331350016	22	5038
2026-01-16 11:14:11.76	217.44	33.94	-30.7	-33.5	13.0	4.80e-05	0	43	0	333447168	22	5000
2026-01-16 11:14:12.76	217.72	34.09	-30.8	-33.8	12.8	4.73e-05	0	43	0	335544320	22	5120
2026-01-16 11:14:13.76	218.01	34.24	-30.8	-33.9	12.7	7.09e-05	0	43	0	337641472	22	5161
2026-01-16 11:14:14.77	218.30	34.39	-31.0	-34.5	12.4	9.00e-05	0	43	0	339738624	22	5369
2026-01-16 11:14:15.77	218.59	34.54	-30.9	-34.3	12.4	1.59e-04	0	43	0	340787200	22	5302
2026-01-16 11:14:16.77	218.89	34.69	-31.0	-34.6	12.3	1.50e-04	0	43	0	342884352	22	5420
2026-01-16 11:14:17.77	219.18	34.84	-30.9	-34.3	12.5	1.55e-04	0	43	0	344981504	22	5313
2026-01-16 11:14:18.77	219.48	34.99	-30.8	-33.9	12.7	9.91e-05	0	43	0	347078656	22	5157
2026-01-16 11:14:19.77	219.79	35.14	-30.7	-33.6	13.0	5.72e-05	0	43	0	349175808	22	5037
2026-01-16 11:14:20.77	220.09	35.29	-30.7	-33.7	12.9	6.10e-05	0	43	0	350224384	22	5084
2026-01-16 11:14:21.77	220.40	35.44	-30.4	-32.8	13.5	4.65e-05	0	43	0	352321536	22	4746
2026-01-16 11:14:22.78	220.72	35.59	-30.1	-32.4	14.0	3.80e-06	0	43	0	354418688	21	4715
2026-01-16 11:14:23.78	221.03	35.74	-29.9	-31.8	14.4	7.00e-07	0	43	0	356515840	21	4528
2026-01-16 11:14:24.78	221.35	35.89	-29.9	-32.0	14.3	1.50e-06	0	43	0	357564416	21	4564
2026-01-16 11:14:25.79	221.67	36.04	-30.0	-32.2	14.2	1.50e-06	0	43	0	359661568	21	4640
2026-01-16 11:14:26.79	221.99	36.18	-30.1	-32.4	14.0	3.80e-06	0	43	0	361758720	21	4717
2026-01-16 11:14:27.80	222.32	36.33	-30.2	-32.6	13.8	4.50e-06	0	43	0	363855872	21	4797
2026-01-16 11:14:28.81	222.65	36.48	-30.4	-33.2	13.5	6.10e-06	0	43	0	365953024	21	4978
2026-01-16 11:14:29.81	222.98	36.63	-30.3	-33.0	13.7	9.90e-06	0	43	0	368050176	21	4899
2026-01-16 11:14:30.82	223.32	36.77	-30.1	-32.5	14.0	6.10e-06	0	43	0	369098752	21	4752
2026-01-16 11:14:31.83	223.66	36.92	-30.0	-32.2	14.2	3.00e-06	0	43	0	371195904	21	4649
2026-01-16 11:14:32.83	224.00	37.07	-30.1	-32.5	14.0	7.00e-07	0	43	0	373293056	21	4737
2026-01-16 11:14:33.83	224.35	37.21	-30.0	-32.3	14.1	1.50e-06	0	43	0	375390208	21	4687
2026-01-16 11:14:34.83	224.69	37.35	-30.2	-32.7	13.9	6.10e-06	0	43	0	376438784	21	4808
2026-01-16 11:14:35.83	225.04	37.50	-30.4	-33.3	13.5	9.90e-06	0	43	0	378535936	21	5029
2026-01-16 11:14:36.82	225.39	37.64	-30.6	-33.9	13.1	1.83e-05	0	43	0	380633088	21	5245
2026-01-16 11:14:37.82	225.75	37.78	-30.8	-34.4	12.7	4.42e-05	0	43	0	382730240	21	5461
2026-01-16 11:14:38.83	226.11	37.92	-30.9	-34.7	12.6	8.23e-05	0	43	0	384827392	21	5571
2026-01-16 11:14:39.83	226.47	38.07	-30.9	-34.8	12.4	1.17e-04	0	43	0	385875968	21	5609
2026-01-16 11:14:40.83	226.83	38.21	-30.8	-34.5	12.7	1.11e-04	0	43	0	387973120	21	5500
2026-01-16 11:14:41.83	227.20	38.35	-30.8	-34.5	12.7	8.01e-05	0	43	0	390070272	21	5511
2026-01-16 11:14:42.83	227.57	38.48	-30.9	-34.8	12.5	8.85e-05	0	43	0	392167424	21	5607
2026-01-16 11:14:43.84	227.95	38.62	-31.0	-34.4	12.4	1.26e-04	0	43	0	394264576	22	5339
2026-01-16 11:14:44.83	228.32	38.76	-31.0	-34.6	12.4	1.53e-04	0	43	0	395313152	22	5425
2026-01-16 11:14:45.84	228.71	38.90	-31.2	-35.0	12.0	2.53e-04	0	43	0	397410304	22	5601
2026-01-16 11:14:46.84	229.09	39.03	-31.3	-35.3	11.8	4.12e-04	0	43	0	399507456	22	5730
2026-01-16 11:14:47.84	229.48	39.17	-31.5	-35.9	11.4	8.99e-04	0	43	0	401604608	22	5990
2026-01-16 11:14:48.84	229.87	39.30	-31.5	-35.4	11.4	1.03e-03	0	43	0	402653184	23	5661
2026-01-16 11:14:49.84	230.26	39.44	-31.3	-35.0	11.8	7.41e-04	0	43	0	404750336	23	5491
2026-01-16 11:14:50.84	230.66	39.57	-31.2	-34.6	12.1	3.33e-04	0	42	0	406847488	23	5311
2026-01-16 11:14:51.85	231.06	39.70	-31.2	-34.5	12.1	2.61e-04	0	43	0	408944640	23	5271
2026-01-16 11:14:52.84	231.46	39.83	-30.9	-33.8	12.5	1.74e-04	0	43	0	411041792	23	5000
2026-01-16 11:14:53.84	231.86	39.96	-30.9	-33.8	12.6	1.07e-04	0	43	0	412090368	23	5003
2026-01-16 11:14:54.84	232.27	40.08	-31.0	-33.9	12.5	9.30e-05	0	43	0	414187520	23	5020
2026-01-16 11:14:55.83	232.68	40.21	-31.1	-34.1	12.3	1.62e-04	0	43	0	416284672	23	5115
2026-01-16 11:14:56.84	233.10	40.34	-31.1	-34.2	12.3	1.96e-04	0	43	0	418381824	23	5133
2026-01-16 11:14:57.84	233.52	40.46	-31.1	-34.3	12.3	1.75e-04	0	43	0	420478976	23	5183
2026-01-16 11:14:58.84	233.94	40.58	-30.9	-33.7	12.6	1.38e-04	0	43	0	421527552	23	4951
2026-01-16 11:14:59.85	234.37	40.71	-30.6	-33.3	13.2	6.17e-05	0	43	0	423624704	22	4908
2026-01-16 11:15:00.85	234.79	40.83	-30.6	-33.1	13.4	1.60e-05	0	43	0	425721856	22	4839
2026-01-16 11:15:01.85	235.22	40.94	-30.7	-33.4	13.2	1.52e-05	0	43	0	427819008	22	4946
2026-01-16 11:15:02.84	235.65	41.06	-31.0	-34.5	12.5	5.34e-05	0	43	0	429916160	22	5365
2026-01-16 11:15:03.85	236.09	41.18	-31.4	-35.6	11.7	2.19e-04	0	43	0	430964736	22	5809
2026-01-16 11:15:04.85	236.53	41.29	-31.5	-35.5	11.4	8.57e-04	0	43	0	433061888	23	5666
2026-01-16 11:15:05.85	236.98	41.41	-31.5	-35.3	11.6	8.62e-04	0	43	0	435159040	23	5586
2026-01-16 11:15:06.85	237.42	41.52	-31.4	-35.1	11.7	7.01e-04	0	43	0	437256192	23	5512
2026-01-16 11:15:07.84	237.87	41.63	-31.4	-35.2	11.6	6.48e-04	0	43	0	438304768	23	5530
2026-01-16 11:15:08.84	238.32	41.73	-31.3	-34.9	11.9	5.29e-04	0	43	0	440401920	23	5418
2026-01-16 11:15:09.84	238.78	41.84	-31.4	-35.0	11.8	3.65e-04	0	43	0	442499072	23	5458
2026-01-16 11:15:10.85	239.24	41.95	-31.8	-36.3	10.9	7.09e-04	0	43	0	444596224	23	6066
2026-01-16 11:15:11.84	239.69	42.05	-32.0	-36.7	10.2	5.67e-03	0	43	0	446693376	24	6147
2026-01-16 11:15:12.84	240.16	42.15	-32.1	-36.9	10.0	7.74e-03	0	43	0	447741952	24	6280
2026-01-16 11:15:13.84	240.62	42.25	-31.9	-36.3	10.4	6.94e-03	0	43	0	449839104	24	5971
2026-01-16 11:15:14.84	241.09	42.35	-31.7	-35.6	11.0	2.38e-03	0	43	0	451936256	24	5640
2026-01-16 11:15:15.84	241.57	42.44	-31.7	-35.5	11.1	1.78e-03	0	43	0	454033408	24	5585
2026-01-16 11:15:16.84	242.04	42.54	-31.6	-35.2	11.4	1.44e-03	0	43	0	456130560	24	5435
2026-01-16 11:15:17.84	242.52	42.63	-31.5	-34.9	11.5	9.76e-04	0	43	0	457179136	24	5335
2026-01-16 11:15:18.85	243.00	42.72	-31.6	-35.1	11.4	7.20e-04	0	43	0	459276288	24	5407
2026-01-16 11:15:19.85	243.49	42.81	-31.7	-35.6	11.1	1.35e-03	0	43	0	461373440	24	5596
2026-01-16 11:15:20.85	243.97	42.89	-31.8	-35.8	10.8	1.93e-03	0	43	0	463470592	24	5726
2026-01-16 11:15:21.86	244.47	42.98	-31.5	-35.0	11.4	1.71e-03	0	43	0	465567744	24	5343
2026-01-16 11:15:22.86	244.96	43.06	-31.0	-33.9	12.6	3.82e-04	0	43	0	466616320	23	5023
2026-01-16 11:15:23.86	245.45	43.14	-31.0	-33.7	12.7	8.92e-05	0	43	0	468713472	23	4944
2026-01-16 11:15:24.86	245.95	43.22	-31.2	-34.5	12.2	1.40e-04	0	43	0	470810624	23	5236
2026-01-16 11:15:25.86	246.44	43.29	-31.6	-35.6	11.5	5.52e-04	0	43	0	472907776	23	5727
2026-01-16 11:15:26.86	246.94	43.37	-31.6	-35.7	11.2	1.03e-03	0	43	0	475004928	23	5783
2026-01-16 11:15:27.86	247.45	43.44	-31.2	-34.5	12.2	7.35e-04	0	43	0	476053504	23	5254
2026-01-16 11:15:28.87	247.95	43.51	-30.8	-33.4	12.9	6.79e-05	0	43	0	478150656	23	4827
2026-01-16 11:15:29.87	248.46	43.57	-30.7	-33.6	13.1	3.28e-05	0	43	0	480247808	22	5017
2026-01-16 11:15:30.87	248.97	43.64	-30.4	-32.6	13.8	1.60e-05	0	43	0	482344960	22	4661
2026-01-16 11:15:31.87	249.48	43.70	-30.3	-33.0	13.9	6.10e-06	0	43	0	483393536	21	4878
2026-01-16 11:15:32.87	249.99	43.76	-30.7	-34.1	13.1	1.52e-05	0	43	0	485490688	21	5316
2026-01-16 11:15:33.87	250.51	43.81	-31.2	-34.9	12.2	6.10e-05	0	43	0	487587840	22	5514
2026-01-16 11:15:34.87	251.02	43.87	-31.2	-35.0	12.1	2.42e-04	0	43	0	489684992	22	5573
2026-01-16 11:15:35.88	251.55	43.92	-31.2	-34.9	12.3	2.19e-04	0	43	0	491782144	22	5502
2026-01-16 11:15:36.87	252.06	43.97	-31.3	-35.2	12.1	2.39e-04	0	43	0	492830720	22	5627
2026-01-16 11:15:37.87	252.58	44.02	-31.2	-35.1	12.1	2.96e-04	0	43	0	494927872	22	5602
2026-01-16 11:15:38.87	253.10	44.06	-31.2	-34.8	12.2	2.88e-04	0	43	0	497025024	22	5497
2026-01-16 11:15:39.87	253.63	44.10	-31.3	-35.2	12.0	2.62e-04	0	43	0	499122176	22	5650
2026-01-16 11:15:40.87	254.15	44.14	-31.2	-35.0	12.2	3.11e-04	0	43	0	501219328	22	5542
2026-01-16 11:15:41.87	254.68	44.18	-31.5	-35.8	11.6	4.62e-04	0	43	0	502267904	22	5893
2026-01-16 11:15:42.88	255.21	44.21	-31.6	-35.6	11.4	8.24e-04	0	43	0	504365056	23	5735
2026-01-16 11:15:43.88	255.74	44.24	-31.7	-35.8	11.2	1.38e-03	0	43	0	506462208	23	5826
2026-01-16 11:15:44.89	256.27	44.27	-31.3	-34.8	12.0	7.27e-04	0	43	0	508559360	23	5370
2026-01-16 11:15:45.89	256.80	44.30	-31.0	-33.9	12.6	1.33e-04	0	43	0	510656512	23	4990
2026-01-16 11:15:46.89	257.34	44.32	-30.9	-33.5	12.8	6.79e-05	0	43	0	511705088	23	4853
2026-01-16 11:15:47.89	257.87	44.34	-30.8	-33.2	13.1	4.19e-05	0	43	0	513802240	23	4748
2026-01-16 11:15:48.89	258.40	44.36	-30.8	-33.2	13.0	4.19e-05	0	43	0	515899392	23	4758
2026-01-16 11:15:49.90	258.94	44.38	-30.7	-33.3	13.3	2.89e-05	0	43	0	517996544	22	4903
2026-01-16 11:15:50.90	259.47	44.39	-30.6	-33.3	13.3	1.06e-05	0	43	0	519045120	22	4892
2026-01-16 11:15:51.90	260.01	44.40	-30.7	-33.4	13.3	2.82e-05	0	43	0	521142272	22	4935
2026-01-16 11:15:52.91	260.54	44.40	-30.6	-33.3	13.4	2.59e-05	0	43	0	523239424	22	4888
2026-01-16 11:15:53.91	261.08	44.41	-30.5	-33.0	13.6	7.60e-06	0	43	0	525336576	22	4767
2026-01-16 11:15:54.91	261.61	44.41	-30.6	-33.3	13.4	1.14e-05	0	43	0	527433728	22	4883
2026-01-16 11:15:55.91	262.15	44.41	-30.5	-33.0	13.6	6.10e-06	0	43	0	528482304	22	4791
2026-01-16 11:15:56.92	262.69	44.41	-30.6	-33.1	13.5	8.30e-06	0	43	0	530579456	22	4816
2026-01-16 11:15:57.92	263.22	44.40	-30.5	-32.8	13.7	1.44e-05	0	43	0	532676608	22	4734
2026-01-16 11:15:58.92	263.75	44.39	-30.4	-32.5	13.9	2.20e-06	0	43	0	534773760	22	4621
2026-01-16 11:15:59.92	264.29	44.38	-30.4	-32.6	13.8	6.80e-06	0	43	0	536870912	22	4660
2026-01-16 11:16:00.92	264.82	44.36	-30.1	-32.4	14.3	1.50e-06	0	43	0	537919488	21	4682
2026-01-16 11:16:01.93	265.36	44.35	-30.1	-32.4	14.3	7.00e-07	0	43	0	540016640	21	4683
2026-01-16 11:16:02.93	265.89	44.33	-30.4	-33.1	13.8	4.50e-06	0	43	0	542113792	21	4931
2026-01-16 11:16:03.93	266.42	44.30	-30.5	-33.6	13.5	1.06e-05	0	43	0	544210944	21	5095
2026-01-16 11:16:04.94	266.96	44.28	-30.3	-32.8	14.0	4.50e-06	0	43	0	546308096	21	4823
2026-01-16 11:16:05.94	267.49	44.25	-29.9	-31.9	14.5	7.00e-07	0	43	0	547356672	21	4520
2026-01-16 11:16:06.94	268.01	44.22	-29.8	-32.2	14.7	0.00e+00	0	43	0	549453824	20	4723
2026-01-16 11:16:07.95	268.55	44.19	-30.0	-32.7	14.4	0.00e+00	0	43	0	551550976	20	4876
2026-01-16 11:16:08.95	269.07	44.15	-30.5	-33.5	13.6	3.00e-06	0	43	0	553648128	21	5073
2026-01-16 11:16:09.95	269.60	44.11	-30.8	-34.3	13.1	2.36e-05	0	43	0	555745280	21	5370
2026-01-16 11:16:10.95	270.12	44.07	-30.8	-34.2	13.1	3.43e-05	0	43	0	556793856	21	5322
2026-01-16 11:16:11.95	270.64	44.03	-30.8	-34.2	13.1	2.59e-05	0	43	0	558891008	21	5328
2026-01-16 11:16:12.96	271.17	43.98	-30.7	-33.9	13.3	1.75e-05	0	43	0	560988160	21	5201
2026-01-16 11:16:13.96	271.69	43.93	-30.7	-34.0	13.3	1.52e-05	0	43	0	563085312	21	5267
2026-01-16 11:16:14.96	272.21	43.88	-30.5	-33.4	13.7	8.30e-06	0	43	0	565182464	21	5015
2026-01-16 11:16:15.96	272.72	43.83	-30.3	-32.8	14.0	2.20e-06	0	43	0	566231040	21	4826
2026-01-16 11:16:16.96	273.24	43.77	-30.2	-32.6	14.2	7.00e-07	0	43	0	568328192	21	4737
2026-01-16 11:16:17.96	273.75	43.72	-30.3	-33.0	13.9	3.00e-06	0	43	0	570425344	21	4883
2026-01-16 11:16:18.96	274.26	43.66	-30.6	-33.7	13.5	1.50e-06	0	43	0	572522496	21	5137
2026-01-16 11:16:19.96	274.77	43.59	-30.8	-34.2	13.1	2.59e-05	0	43	0	573571072	21	5321
2026-01-16 11:16:20.96	275.27	43.53	-31.0	-34.4	12.6	6.10e-05	0	43	0	575668224	22	5307
2026-01-16 11:16:21.96	275.78	43.46	-31.2	-34.9	12.3	1.17e-04	0	43	0	577765376	22	5509
2026-01-16 11:16:22.96	276.28	43.39	-31.2	-34.9	12.3	2.07e-04	0	43	0	579862528	22	5526
2026-01-16 11:16:23.95	276.78	43.32	-31.0	-34.2	12.8	1.08e-04	0	43	0	581959680	22	5236
2026-01-16 11:16:24.96	277.28	43.24	-31.0	-34.4	12.7	5.87e-05	0	43	0	583008256	22	5322
2026-01-16 11:16:25.96	277.77	43.17	-31.5	-35.8	11.8	1.84e-04	0	43	0	585105408	22	5879
2026-01-16 11:16:26.96	278.27	43.09	-31.7	-35.8	11.4	8.20e-04	0	43	0	587202560	23	5782
2026-01-16 11:16:27.97	278.76	43.01	-31.3	-34.6	12.2	4.99e-04	0	43	0	589299712	23	5276
2026-01-16 11:16:28.97	279.25	42.92	-31.0	-33.8	12.7	1.12e-04	0	43	0	591396864	23	4978
2026-01-16 11:16:29.97	279.74	42.84	-31.2	-34.3	12.5	9.07e-05	0	43	0	592445440	23	5139
2026-01-16 11:16:30.97	280.22	42.75	-31.4	-35.0	11.9	2.53e-04	0	43	0	594542592	23	5437
2026-01-16 11:16:31.97	280.70	42.66	-31.7	-35.8	11.3	7.61e-04	0	43	0	596639744	23	5797
2026-01-16 11:16:32.97	281.18	42.57	-31.4	-34.8	12.0	8.99e-04	0	43	0	598736896	23	5379
2026-01-16 11:16:33.97	281.65	42.48	-30.9	-33.4	13.0	6.48e-05	0	43	0	600834048	23	4814
2026-01-16 11:16:34.97	282.12	42.38	-30.5	-33.0	13.6	1.90e-05	0	43	0	601882624	22	4759
2026-01-16 11:16:35.97	282.59	42.28	-30.7	-33.4	13.4	9.90e-06	0	43	0	603979776	22	4912
2026-01-16 11:16:36.98	283.06	42.18	-30.9	-34.1	12.9	4.34e-05	0	43	0	606076928	22	5166
2026-01-16 11:16:37.97	283.52	42.09	-31.1	-34.4	12.7	7.17e-05	0	43	0	608174080	22	5317
2026-01-16 11:16:38.97	283.98	41.98	-31.0	-34.3	12.7	9.99e-05	0	43	0	609222656	22	5246
2026-01-16 11:16:39.96	284.44	41.88	-30.5	-32.7	13.7	5.30e-06	0	43	0	611319808	22	4685
2026-01-16 11:16:40.97	284.90	41.77	-30.0	-32.0	14.5	7.00e-07	0	43	0	613416960	21	4552
2026-01-16 11:16:41.97	285.35	41.67	-30.1	-32.4	14.3	0.00e+00	0	43	0	615514112	21	4679
2026-01-16 11:16:42.97	285.80	41.56	-30.4	-33.1	13.8	1.50e-06	0	43	0	617611264	21	4926
2026-01-16 11:16:43.97	286.24	41.45	-30.6	-33.6	13.5	1.44e-05	0	43	0	618659840	21	5114
2026-01-16 11:16:44.97	286.69	41.33	-29.8	-31.6	14.7	2.20e-06	0	43	0	620756992	21	4438
2026-01-16 11:16:45.98	287.13	41.22	-29.4	-31.0	15.5	0.00e+00	0	43	0	622854144	20	4352
2026-01-16 11:16:46.98	287.57	41.11	-29.5	-31.4	15.2	0.00e+00	0	43	0	624951296	20	4469
2026-01-16 11:16:47.98	288.00	40.99	-29.8	-32.1	14.8	0.00e+00	0	43	0	627048448	20	4699
2026-01-16 11:16:48.97	288.43	40.87	-30.6	-33.8	13.4	1.50e-06	0	43	0	628097024	21	5194
2026-01-16 11:16:49.98	288.86	40.75	-30.5	-33.5	13.5	2.05e-05	0	43	0	630194176	21	5081
2026-01-16 11:16:50.98	289.28	40.63	-30.1	-32.4	14.2	4.50e-06	0	43	0	632291328	21	4698
2026-01-16 11:16:51.97	289.70	40.51	-29.6	-31.5	15.1	0.00e+00	0	43	0	634388480	20	4486
2026-01-16 11:16:52.97	290.12	40.39	-29.5	-31.2	15.3	0.00e+00	0	43	0	635437056	20	4395
2026-01-16 11:16:53.97	290.53	40.26	-29.9	-32.4	14.6	0.00e+00	0	43	0	637534208	20	4768
2026-01-16 11:16:54.97	290.94	40.14	-30.1	-33.0	14.2	7.00e-07	0	43	0	639631360	20	4982
2026-01-16 11:16:55.97	291.35	40.01	-30.3	-33.3	14.0	7.00e-07	0	43	0	641728512	20	5090
2026-01-16 11:16:56.97	291.76	39.88	-29.8	-32.1	14.8	7.00e-07	0	43	0	643825664	20	4682
2026-01-16 11:16:57.98	292.16	39.75	-29.8	-32.1	14.8	0.00e+00	0	43	0	644874240	20	4678
2026-01-16 11:16:58.98	292.56	39.62	-30.3	-33.4	14.0	2.20e-06	0	43	0	646971392	20	5133
2026-01-16 11:16:59.99	292.96	39.49	-30.2	-33.1	14.2	1.50e-06	0	43	0	649068544	20	5012
2026-01-16 11:17:00.99	293.36	39.36	-30.9	-34.4	13.0	2.74e-05	0	43	0	651165696	21	5419
2026-01-16 11:17:02.00	293.75	39.22	-30.6	-33.8	13.3	2.21e-05	0	43	0	653262848	21	5180
2026-01-16 11:17:03.00	294.14	39.09	-30.2	-32.7	14.1	7.60e-06	0	43	0	654311424	21	4767
2026-01-16 11:17:04.00	294.52	38.96	-29.8	-31.7	14.7	0.00e+00	0	43	0	656408576	21	4457
2026-01-16 11:17:05.01	294.90	38.82	-29.7	-31.9	14.9	7.00e-07	0	43	0	658505728	20	4633
2026-01-16 11:17:06.01	295.28	38.68	-30.2	-33.1	14.2	0.00e+00	0	43	0	660602880	20	5027
2026-01-16 11:17:07.01	295.65	38.54	-30.5	-33.8	13.6	1.50e-06	0	43	0	662700032	20	5308
2026-01-16 11:17:08.00	296.02	38.41	-30.2	-32.7	14.0	5.30e-06	0	43	0	663748608	21	4788
2026-01-16 11:17:09.01	296.39	38.27	-29.7	-31.9	14.9	0.00e+00	0	43	0	665845760	20	4632
2026-01-16 11:17:10.01	296.76	38.13	-29.6	-31.7	15.0	0.00e+00	0	43	0	667942912	20	4558
2026-01-16 11:17:11.01	297.12	37.99	-29.7	-31.9	14.9	0.00e+00	0	43	0	670040064	20	4630
2026-01-16 11:17:12.01	297.48	37.85	-30.1	-32.9	14.2	0.00e+00	0	43	0	672137216	20	4984
2026-01-16 11:17:13.01	297.83	37.71	-29.9	-32.5	14.5	7.00e-07	0	43	0	673185792	20	4815
2026-01-16 11:17:14.02	298.19	37.56	-29.7	-31.7	15.0	7.00e-07	0	43	0	675282944	20	4563
2026-01-16 11:17:15.02	298.54	37.42	-29.5	-31.3	15.3	0.00e+00	0	43	0	677380096	20	4429
2026-01-16 11:17:16.02	298.88	37.28	-29.7	-31.8	14.9	0.00e+00	0	43	0	679477248	20	4608
2026-01-16 11:17:17.03	299.23	37.13	-29.9	-32.4	14.6	0.00e+00	0	43	0	681574400	20	4783
2026-01-16 11:17:18.03	299.57	36.99	-30.3	-33.4	13.9	2.20e-06	0	43	0	682622976	20	5135
2026-01-16 11:17:19.04	299.91	36.84	-30.3	-33.5	13.9	5.30e-06	0	43	0	684720128	20	5176
2026-01-16 11:17:20.04	300.24	36.70	-30.2	-33.2	14.0	3.80e-06	0	43	0	686817280	20	5087
2026-01-16 11:17:21.04	300.57	36.55	-30.3	-33.3	14.0	0.00e+00	0	43	0	688914432	20	5122
2026-01-16 11:17:22.04	300.90	36.41	-29.8	-32.2	14.7	0.00e+00	0	43	0	689963008	20	4726
2026-01-16 11:17:23.05	301.23	36.26	-29.8	-32.0	14.8	7.00e-07	0	43	0	692060160	20	4668
2026-01-16 11:17:24.05	301.55	36.11	-29.7	-31.8	14.9	0.00e+00	0	43	0	694157312	20	4602
2026-01-16 11:17:25.05	301.87	35.97	-29.6	-31.6	15.1	0.00e+00	0	43	0	696254464	20	4538
2026-01-16 11:17:26.06	302.19	35.82	-29.7	-31.7	15.0	0.00e+00	0	43	0	698351616	20	4572
2026-01-16 11:17:27.06	302.51	35.67	-29.8	-32.2	14.6	0.00e+00	0	43	0	699400192	20	4731
2026-01-16 11:17:28.06	302.82	35.52	-29.6	-31.6	15.0	0.00e+00	0	43	0	701497344	20	4525
2026-01-16 11:17:29.06	303.13	35.37	-29.8	-32.1	14.7	0.00e+00	0	43	0	703594496	20	4704
2026-01-16 11:17:30.06	303.43	35.23	-30.6	-33.7	13.4	6.80e-06	0	43	0	705691648	21	5151
2026-01-16 11:17:31.06	303.74	35.08	-30.6	-33.8	13.3	2.28e-05	0	43	0	707788800	21	5202
2026-01-16 11:17:32.05	304.03	34.93	-30.5	-33.6	13.4	1.06e-05	0	43	0	708837376	21	5127
2026-01-16 11:17:33.06	304.33	34.78	-30.1	-32.4	14.2	2.20e-06	0	43	0	710934528	21	4697
2026-01-16 11:17:34.06	304.63	34.63	-30.2	-32.5	14.1	0.00e+00	0	43	0	713031680	21	4727
2026-01-16 11:17:35.06	304.92	34.48	-30.6	-33.6	13.4	6.10e-06	0	43	0	715128832	21	5100
2026-01-16 11:17:36.07	305.21	34.33	-31.0	-34.7	12.7	3.05e-05	0	43	0	717225984	21	5566
2026-01-16 11:17:37.07	305.50	34.18	-31.7	-36.1	11.0	4.56e-04	0	43	0	718274560	23	5956
2026-01-16 11:17:38.06	305.78	34.04	-31.6	-35.9	11.2	1.78e-03	0	43	0	720371712	23	5887
2026-01-16 11:17:39.06	306.06	33.89	-31.3	-34.8	11.9	7.03e-04	0	43	0	722468864	23	5385
2026-01-16 11:17:40.06	306.34	33.74	-30.7	-33.4	13.2	1.08e-04	0	43	0	724566016	22	4921
2026-01-16 11:17:41.06	306.62	33.59	-30.3	-32.5	13.8	9.90e-06	0	43	0	726663168	22	4637
2026-01-16 11:17:42.06	306.90	33.44	-30.4	-32.6	13.8	3.80e-06	0	43	0	727711744	22	4640
2026-01-16 11:17:43.05	307.16	33.29	-30.8	-33.7	13.0	1.83e-05	0	43	0	729808896	22	5053
2026-01-16 11:17:44.05	307.43	33.14	-31.2	-34.8	12.3	8.31e-05	0	43	0	731906048	22	5487
2026-01-16 11:17:45.05	307.70	33.00	-31.7	-36.0	11.1	1.27e-03	0	43	0	734003200	23	5910
2026-01-16 11:17:46.05	307.97	32.85	-31.6	-35.8	11.2	1.55e-03	0	43	0	735051776	23	5804
2026-01-16 11:17:47.05	308.23	32.70	-31.2	-34.5	12.1	7.51e-04	0	43	0	737148928	23	5269
2026-01-16 11:17:48.05	308.49	32.55	-30.9	-33.6	12.7	1.26e-04	0	43	0	739246080	23	4920
2026-01-16 11:17:49.05	308.75	32.40	-30.9	-33.6	12.8	5.41e-05	0	42	0	741343232	23	4904
2026-01-16 11:17:50.05	309.00	32.25	-31.5	-35.5	11.5	3.32e-04	0	43	0	743440384	23	5668
2026-01-16 11:17:51.05	309.25	32.10	-31.5	-35.5	11.4	9.77e-04	0	43	0	744488960	23	5677
2026-01-16 11:17:52.06	309.51	31.95	-32.3	-37.8	9.4	1.10e-02	0	43	0	746586112	24	6739
2026-01-16 11:17:53.07	309.76	31.80	-32.7	-38.8	8.2	4.56e-02	0	43	0	748683264	25	7301
2026-01-16 11:17:54.07	310.00	31.66	-32.7	-38.8	8.1	7.56e-02	0	43	0	750780416	25	7242
2026-01-16 11:17:55.07	310.25	31.51	-32.1	-36.5	9.9	3.15e-02	0	43	0	752877568	25	5975
2026-01-16 11:17:56.07	310.49	31.36	-31.5	-35.0	11.4	1.49e-03	0	43	0	753926144	24	5349
2026-01-16 11:17:57.07	310.73	31.21	-31.0	-33.9	12.5	1.82e-04	0	43	0	756023296	23	5004
2026-01-16 11:17:58.06	310.97	31.07	-30.9	-33.6	12.7	5.64e-05	0	43	0	758120448	23	4922
2026-01-16 11:17:59.07	311.20	30.92	-31.3	-34.7	12.0	2.00e-04	0	43	0	760217600	23	5333
2026-01-16 11:18:00.07	311.44	30.77	-31.6	-35.8	11.2	9.21e-04	0	43	0	761266176	23	5798
2026-01-16 11:18:01.07	311.67	30.63	-32.3	-37.7	9.3	6.57e-03	0	43	0	763363328	24	6691
2026-01-16 11:18:02.08	311.90	30.48	-32.3	-37.9	9.2	1.73e-02	0	43	0	765460480	24	6834
2026-01-16 11:18:03.08	312.13	30.34	-32.5	-38.2	8.5	3.52e-02	0	43	0	767557632	25	6884
2026-01-16 11:18:04.07	312.35	30.19	-31.7	-35.5	11.0	9.16e-03	0	43	0	769654784	24	5589
2026-01-16 11:18:05.08	312.58	30.04	-30.9	-33.5	12.8	5.38e-04	0	43	0	770703360	23	4865
2026-01-16 11:18:06.08	312.80	29.90	-30.0	-32.2	14.2	3.00e-06	0	43	0	772800512	21	4612
2026-01-16 11:18:07.08	313.02	29.75	-29.6	-31.6	14.9	0.00e+00	0	43	0	774897664	20	4546
2026-01-16 11:18:08.08	313.23	29.61	-29.5	-31.5	14.9	7.00e-07	0	43	0	776994816	20	4508
2026-01-16 11:18:09.08	313.45	29.47	-30.0	-32.7	14.2	0.00e+00	0	43	0	779091968	20	4891
2026-01-16 11:18:10.09	313.67	29.32	-30.7	-34.2	13.0	1.06e-05	0	43	0	780140544	21	5349
2026-01-16 11:18:11.08	313.88	29.18	-31.3	-35.5	11.7	3.42e-04	0	43	0	782237696	22	5797
2026-01-16 11:18:12.09	314.09	29.03	-31.1	-34.7	12.2	5.00e-04	0	43	0	784334848	22	5462
2026-01-16 11:18:13.09	314.30	28.89	-30.4	-32.8	13.4	4.04e-05	0	43	0	786432000	22	4752
2026-01-16 11:18:14.10	314.50	28.75	-29.8	-31.6	14.5	1.50e-06	0	43	0	788529152	21	4449
2026-01-16 11:18:15.10	314.71	28.61	-29.5	-31.3	15.0	0.00e+00	0	43	0	789577728	20	4458
2026-01-16 11:18:16.10	314.91	28.46	-29.4	-31.1	15.2	0.00e+00	0	43	0	791674880	20	4394
2026-01-16 11:18:17.11	315.12	28.32	-29.7	-31.8	14.7	0.00e+00	0	43	0	793772032	20	4608
2026-01-16 11:18:18.11	315.31	28.18	-29.7	-31.8	14.8	7.00e-07	0	43	0	795869184	20	4608
2026-01-16 11:18:19.11	315.51	28.04	-30.3	-33.6	13.6	0.00e+00	0	43	0	797966336	20	5231
2026-01-16 11:18:20.11	315.71	27.90	-30.7	-34.0	13.0	2.51e-05	0	43	0	799014912	21	5278
2026-01-16 11:18:21.12	315.90	27.76	-31.2	-35.0	12.0	1.63e-04	0	43	0	801112064	22	5593
2026-01-16 11:18:22.11	316.10	27.62	-31.1	-34.8	12.2	3.13e-04	0	43	0	803209216	22	5489
2026-01-16 11:18:23.11	316.29	27.48	-30.6	-33.4	13.0	6.02e-05	0	43	0	805306368	22	4955
2026-01-16 11:18:24.10	316.47	27.34	-30.2	-32.7	13.8	6.80e-06	0	43	0	806354944	21	4816
2026-01-16 11:18:25.11	316.66	27.20	-30.0	-32.1	14.3	2.20e-06	0	43	0	808452096	21	4596
2026-01-16 11:18:26.11	316.85	27.07	-29.9	-31.8	14.4	7.00e-07	0	43	0	810549248	21	4503
2026-01-16 11:18:27.11	317.03	26.93	-29.8	-32.1	14.5	0.00e+00	0	43	0	812646400	20	4716
2026-01-16 11:18:28.11	317.22	26.79	-29.9	-32.5	14.3	7.00e-07	0	43	0	814743552	20	4852
2026-01-16 11:18:29.11	317.40	26.65	-30.4	-33.9	13.4	4.50e-06	0	43	0	815792128	20	5356
2026-01-16 11:18:30.11	317.58	26.52	-30.3	-33.6	13.6	8.30e-06	0	43	0	817889280	20	5231
2026-01-16 11:18:31.12	317.76	26.38	-30.7	-34.3	12.8	2.59e-05	0	43	0	819986432	21	5400
2026-01-16 11:18:32.12	317.94	26.24	-30.8	-34.6	12.6	1.32e-04	0	43	0	822083584	21	5532
2026-01-16 11:18:33.11	318.11	26.11	-30.9	-34.7	12.4	1.32e-04	0	43	0	824180736	21	5596
2026-01-16 11:18:34.11	318.28	25.98	-30.4	-33.4	13.4	4.11e-05	0	43	0	825229312	21	5053
2026-01-16 11:18:35.11	318.46	25.84	-29.9	-32.1	14.2	2.20e-06	0	43	0	827326464	21	4607
2026-01-16 11:18:36.11	318.63	25.71	-29.7	-31.8	14.7	7.00e-07	0	43	0	829423616	20	4627
2026-01-16 11:18:37.11	318.80	25.57	-29.5	-31.4	14.9	0.00e+00	0	43	0	831520768	20	4480
2026-01-16 11:18:38.12	318.97	25.44	-29.5	-31.5	14.9	0.00e+00	0	43	0	833617920	20	4527
2026-01-16 11:18:39.12	319.13	25.31	-29.6	-31.6	14.8	0.00e+00	0	43	0	834666496	20	4557
2026-01-16 11:18:40.12	319.30	25.17	-30.0	-32.6	14.2	7.00e-07	0	43	0	836763648	20	4889
2026-01-16 11:18:41.12	319.47	25.04	-29.9	-32.5	14.3	1.50e-06	0	43	0	838860800	20	4848
2026-01-16 11:18:42.12	319.63	24.91	-29.8	-32.3	14.4	7.00e-07	0	43	0	840957952	20	4770
2026-01-16 11:18:43.13	319.79	24.78	-30.0	-32.7	14.1	0.00e+00	0	43	0	842006528	20	4935
2026-01-16 11:18:44.13	319.95	24.65	-30.1	-33.0	13.9	2.20e-06	0	43	0	844103680	20	5035
2026-01-16 11:18:45.14	320.11	24.52	-30.1	-32.9	14.0	1.50e-06	0	43	0	846200832	20	4997
2026-01-16 11:18:46.14	320.27	24.39	-30.2	-33.3	13.7	3.00e-06	0	43	0	848297984	20	5155
2026-01-16 11:18:47.14	320.43	24.26	-30.1	-33.0	13.9	3.80e-06	0	43	0	850395136	20	5023
2026-01-16 11:18:48.14	320.58	24.13	-30.1	-32.9	14.0	4.50e-06	0	43	0	851443712	20	4988
2026-01-16 11:18:49.14	320.74	24.00	-30.2	-33.2	13.8	9.10e-06	0	43	0	853540864	20	5103
2026-01-16 11:18:50.15	320.89	23.87	-29.9	-32.4	14.2	3.00e-06	0	43	0	855638016	20	4830
2026-01-16 11:18:51.15	321.04	23.74	-29.7	-31.9	14.6	0.00e+00	0	43	0	857735168	20	4655
2026-01-16 11:18:52.15	321.19	23.62	-29.6	-31.7	14.7	0.00e+00	0	43	0	859832320	20	4594
2026-01-16 11:18:53.15	321.34	23.49	-29.6	-31.7	14.7	0.00e+00	0	43	0	860880896	20	4566
2026-01-16 11:18:54.14	321.49	23.36	-29.7	-32.0	14.5	0.00e+00	0	43	0	862978048	20	4680
2026-01-16 11:18:55.15	321.64	23.24	-29.5	-31.5	14.9	0.00e+00	0	43	0	865075200	20	4519
2026-01-16 11:18:56.16	321.78	23.11	-29.7	-32.0	14.5	0.00e+00	0	43	0	867172352	20	4678
2026-01-16 11:18:57.16	321.93	22.98	-29.7	-31.9	14.6	1.50e-06	0	43	0	869269504	20	4649
2026-01-16 11:18:58.16	322.07	22.86	-29.7	-32.0	14.5	1.50e-06	0	43	0	870318080	20	4676
2026-01-16 11:18:59.16	322.22	22.74	-29.8	-32.1	14.4	1.50e-06	0	43	0	872415232	20	4715
2026-01-16 11:19:00.17	322.36	22.61	-29.9	-32.4	14.3	2.20e-06	0	43	0	874512384	20	4814
2026-01-16 11:19:01.17	322.50	22.49	-29.9	-32.4	14.2	0.00e+00	0	43	0	876609536	20	4826
2026-01-16 11:19:02.17	322.64	22.36	-29.9	-32.3	14.3	2.20e-06	0	43	0	878706688	20	4789
2026-01-16 11:19:03.17	322.78	22.24	-29.9	-32.5	14.2	1.50e-06	0	43	0	879755264	20	4849
2026-01-16 11:19:04.17	322.91	22.12	-30.0	-32.8	14.0	1.50e-06	0	43	0	881852416	20	4960
2026-01-16 11:19:05.17	323.05	22.00	-29.9	-32.5	14.2	7.00e-07	0	43	0	883949568	20	4870
2026-01-16 11:19:06.17	323.18	21.88	-30.0	-32.8	14.0	2.20e-06	0	43	0	886046720	20	4945
2026-01-16 11:19:07.17	323.32	21.76	-30.0	-32.8	14.0	7.00e-07	0	43	0	887095296	20	4965
2026-01-16 11:19:08.18	323.45	21.64	-30.0	-32.8	14.0	1.50e-06	0	43	0	889192448	20	4972
2026-01-16 11:19:09.18	323.58	21.52	-30.1	-32.9	13.9	4.50e-06	0	43	0	891289600	20	5014
2026-01-16 11:19:10.19	323.72	21.39	-30.1	-33.0	13.9	3.00e-06	0	43	0	893386752	20	5027
2026-01-16 11:19:11.19	323.85	21.28	-30.2	-33.2	13.7	4.50e-06	0	43	0	895483904	20	5124
2026-01-16 11:19:12.19	323.98	21.16	-30.3	-33.6	13.5	1.37e-05	0	43	0	896532480	20	5248
2026-01-16 11:19:13.19	324.10	21.04	-30.2	-33.5	13.5	4.50e-06	0	43	0	898629632	20	5206
2026-01-16 11:19:14.19	324.23	20.92	-30.4	-33.8	13.3	1.98e-05	0	43	0	900726784	20	5362
2026-01-16 11:19:15.20	324.36	20.80	-30.5	-34.0	13.1	2.74e-05	0	43	0	902823936	20	5430
2026-01-16 11:19:16.20	324.48	20.69	-30.4	-34.0	13.2	2.82e-05	0	43	0	904921088	20	5415
2026-01-16 11:19:17.20	324.61	20.57	-30.6	-33.9	12.9	2.67e-05	0	43	0	905969664	21	5264
2026-01-16 11:19:18.20	324.73	20.45	-30.5	-33.6	13.0	3.20e-05	0	43	0	908066816	21	5168
2026-01-16 11:19:19.20	324.86	20.34	-30.6	-34.0	12.8	3.96e-05	0	43	0	910163968	21	5314
2026-01-16 11:19:20.21	324.98	20.22	-30.6	-33.9	12.9	4.19e-05	0	43	0	912261120	21	5255
2026-01-16 11:19:21.21	325.10	20.11	-30.4	-33.4	13.3	1.98e-05	0	43	0	914358272	21	5069
2026-01-16 11:19:22.21	325.22	19.99	-30.5	-33.6	13.1	2.51e-05	0	43	0	915406848	21	5135
2026-01-16 11:19:23.21	325.34	19.88	-30.3	-33.2	13.4	2.44e-05	0	43	0	917504000	21	5005
2026-01-16 11:19:24.21	325.46	19.76	-30.3	-33.1	13.5	1.37e-05	0	43	0	919601152	21	4959
2026-01-16 11:19:25.21	325.57	19.65	-30.3	-33.1	13.4	1.90e-05	0	43	0	921698304	21	4966
2026-01-16 11:19:26.22	325.69	19.54	-30.1	-32.5	13.8	6.10e-06	0	43	0	923795456	21	4747
2026-01-16 11:19:27.22	325.81	19.42	-30.1	-32.4	13.8	6.80e-06	0	43	0	924844032	21	4720
2026-01-16 11:19:28.22	325.92	19.31	-30.2	-32.7	13.7	3.00e-06	0	43	0	926941184	21	4815
2026-01-16 11:19:29.22	326.04	19.20	-29.9	-32.1	14.0	4.50e-06	0	43	0	929038336	21	4637
2026-01-16 11:19:30.23	326.15	19.09	-30.0	-32.2	13.9	7.00e-07	0	43	0	931135488	21	4654
2026-01-16 11:19:31.24	326.27	18.98	-30.1	-32.4	13.8	6.10e-06	0	43	0	932184064	21	4739
2026-01-16 11:19:32.23	326.38	18.87	-30.2	-32.7	13.6	5.30e-06	0	43	0	934281216	21	4826
2026-01-16 11:19:33.23	326.49	18.76	-30.0	-32.4	13.8	2.20e-06	0	43	0	936378368	21	4721
2026-01-16 11:19:34.23	326.60	18.65	-30.1	-32.5	13.8	3.80e-06	0	43	0	938475520	21	4760
2026-01-16 11:19:35.24	326.71	18.54	-30.2	-32.8	13.5	6.80e-06	0	43	0	940572672	21	4874
2026-01-16 11:19:36.24	326.82	18.43	-30.2	-32.9	13.5	8.30e-06	0	43	0	941621248	21	4895
2026-01-16 11:19:37.24	326.92	18.32	-30.3	-33.1	13.4	1.37e-05	0	43	0	943718400	21	4963
2026-01-16 11:19:38.24	327.03	18.21	-30.3	-33.2	13.3	1.22e-05	0	43	0	945815552	21	5006
2026-01-16 11:19:39.24	327.14	18.10	-30.4	-33.5	13.1	2.28e-05	0	43	0	947912704	21	5116
2026-01-16 11:19:40.23	327.24	18.00	-30.4	-33.5	13.0	2.28e-05	0	43	0	950009856	21	5131
2026-01-16 11:19:41.23	327.35	17.89	-30.3	-33.1	13.3	2.21e-05	0	43	0	951058432	21	4972
2026-01-16 11:19:42.22	327.45	17.78	-30.1	-32.7	13.6	1.52e-05	0	43	0	953155584	21	4839
2026-01-16 11:19:43.23	327.56	17.68	-30.2	-32.8	13.5	9.90e-06	0	43	0	955252736	21	4883
2026-01-16 11:19:44.23	327.66	17.57	-30.2	-32.9	13.5	9.90e-06	0	43	0	957349888	21	4900
2026-01-16 11:19:45.23	327.76	17.47	-30.1	-32.7	13.6	8.30e-06	0	43	0	959447040	21	4825
2026-01-16 11:19:46.24	327.86	17.36	-30.2	-32.8	13.5	1.14e-05	0	43	0	960495616	21	4857
2026-01-16 11:19:47.25	327.97	17.25	-30.2	-32.9	13.5	9.10e-06	0	43	0	962592768	21	4899
2026-01-16 11:19:48.25	328.07	17.15	-30.1	-32.7	13.6	1.37e-05	0	43	0	964689920	21	4840
2026-01-16 11:19:49.26	328.17	17.04	-30.3	-33.0	13.4	1.06e-05	0	43	0	966787072	21	4953
2026-01-16 11:19:50.26	328.27	16.94	-30.4	-33.3	13.1	3.58e-05	0	43	0	968884224	21	5073
2026-01-16 11:19:51.25	328.36	16.84	-30.4	-33.5	13.0	2.44e-05	0	43	0	969932800	21	5135
2026-01-16 11:19:52.25	328.46	16.74	-30.4	-33.6	12.9	5.03e-05	0	43	0	972029952	21	5176
2026-01-16 11:19:53.25	328.56	16.63	-30.6	-34.1	12.6	7.24e-05	0	43	0	974127104	21	5375
2026-01-16 11:19:54.25	328.65	16.53	-30.7	-34.2	12.5	9.61e-05	0	43	0	976224256	21	5432
2026-01-16 11:19:55.25	328.75	16.43	-30.8	-34.7	12.2	1.41e-04	0	43	0	977272832	21	5631
2026-01-16 11:19:56.25	328.85	16.33	-30.8	-34.5	12.3	1.80e-04	0	43	0	979369984	21	5562
2026-01-16 11:19:57.25	328.94	16.23	-30.8	-34.7	12.2	2.27e-04	0	43	0	981467136	21	5626
2026-01-16 11:19:58.25	329.03	16.13	-30.9	-34.9	12.0	2.46e-04	0	43	0	983564288	21	5710
2026-01-16 11:19:59.26	329.13	16.02	-30.9	-35.0	11.9	3.92e-04	0	43	0	985661440	21	5776
2026-01-16 11:20:00.26	329.22	15.92	-30.8	-34.8	12.1	3.16e-04	0	43	0	986710016	21	5673
2026-01-16 11:20:01.27	329.31	15.82	-30.9	-35.0	12.0	3.88e-04	0	43	0	988807168	21	5746
2026-01-16 11:20:02.27	329.41	15.72	-30.9	-35.0	11.9	3.85e-04	0	43	0	990904320	21	5765
2026-01-16 11:20:03.27	329.50	15.62	-31.1	-34.9	11.7	4.44e-04	0	43	0	993001472	22	5624
2026-01-16 11:20:04.28	329.59	15.53	-31.2	-35.3	11.3	7.99e-04	0	43	0	995098624	22	5800
2026-01-16 11:20:05.28	329.68	15.43	-31.2	-35.3	11.3	1.21e-03	0	43	0	996147200	22	5801
2026-01-16 11:20:06.28	329.77	15.33	-31.0	-34.9	11.7	7.56e-04	0	43	0	998244352	22	5595
2026-01-16 11:20:07.28	329.86	15.23	-30.8	-34.3	12.0	4.08e-04	0	43	0	1000341504	22	5372
2026-01-16 11:20:08.29	329.95	15.13	-30.8	-34.0	12.3	2.15e-04	0	43	0	1002438656	22	5243
2026-01-16 11:20:09.29	330.03	15.04	-30.8	-34.1	12.2	2.08e-04	0	43	0	1004535808	22	5264
2026-01-16 11:20:10.29	330.12	14.94	-30.8	-34.1	12.2	1.87e-04	0	43	0	1005584384	22	5269
2026-01-16 11:20:11.28	330.21	14.84	-30.9	-34.5	11.9	3.94e-04	0	43	0	1007681536	22	5454
2026-01-16 11:20:12.28	330.29	14.75	-30.6	-33.6	12.5	2.24e-04	0	43	0	1009778688	22	5077
2026-01-16 11:20:13.29	330.38	14.65	-30.5	-33.4	12.6	1.08e-04	0	43	0	1011875840	22	5011
2026-01-16 11:20:14.29	330.46	14.56	-30.5	-33.3	12.7	1.14e-04	0	43	0	1012924416	22	4960
2026-01-16 11:20:15.29	330.55	14.46	-30.4	-32.9	13.0	5.95e-05	0	43	0	1015021568	22	4817
2026-01-16 11:20:16.29	330.63	14.37	-30.4	-33.1	12.8	6.17e-05	0	43	0	1017118720	22	4909
2026-01-16 11:20:17.30	330.72	14.27	-30.4	-33.1	12.8	5.87e-05	0	43	0	1019215872	22	4894
2026-01-16 11:20:18.29	330.80	14.18	-30.4	-33.0	12.9	4.73e-05	0	43	0	1021313024	22	4870
2026-01-16 11:20:19.29	330.88	14.08	-30.5	-33.2	12.7	5.26e-05	0	43	0	1022361600	22	4938
2026-01-16 11:20:20.29	330.96	13.99	-30.4	-33.1	12.8	5.79e-05	0	43	0	1024458752	22	4892
2026-01-16 11:20:21.30	331.05	13.90	-30.5	-33.4	12.6	7.62e-05	0	43	0	1026555904	22	4992
2026-01-16 11:20:22.30	331.13	13.80	-30.4	-33.1	12.8	7.09e-05	0	43	0	1028653056	22	4903
2026-01-16 11:20:23.30	331.21	13.71	-30.6	-33.5	12.5	7.01e-05	0	43	0	1030750208	22	5034
2026-01-16 11:20:24.31	331.29	13.62	-30.6	-33.5	12.5	1.04e-04	0	43	0	1031798784	22	5073
2026-01-16 11:20:25.31	331.37	13.52	-30.6	-33.7	12.4	1.45e-04	0	43	0	1033895936	22	5118
2026-01-16 11:20:26.31	331.45	13.43	-30.5	-33.5	12.5	1.04e-04	0	43	0	1035993088	22	5036
2026-01-16 11:20:27.30	331.52	13.34	-30.7	-33.8	12.3	2.11e-04	0	43	0	1038090240	22	5182
2026-01-16 11:20:28.31	331.60	13.25	-30.7	-33.8	12.2	1.77e-04	0	43	0	1040187392	22	5187
2026-01-16 11:20:29.31	331.68	13.16	-30.7	-34.0	12.1	2.21e-04	0	43	0	1041235968	22	5266
2026-01-16 11:20:30.31	331.76	13.07	-30.8	-34.2	11.9	4.36e-04	0	43	0	1043333120	22	5340
2026-01-16 11:20:31.30	331.83	12.98	-30.8	-34.3	11.9	3.29e-04	0	43	0	1045430272	22	5370
2026-01-16 11:20:32.30	331.91	12.89	-30.9	-34.5	11.8	4.65e-04	0	43	0	1047527424	22	5452
2026-01-16 11:20:33.30	331.99	12.80	-30.8	-34.1	12.0	4.68e-04	0	43	0	1048576000	22	5298
2026-01-16 11:20:34.31	332.06	12.71	-30.7	-34.0	12.1	3.18e-04	0	43	0	1050673152	22	5267
2026-01-16 11:20:35.31	332.14	12.62	-30.7	-34.1	12.1	2.29e-04	0	43	0	1052770304	22	5278
2026-01-16 11:20:36.31	332.21	12.53	-30.8	-34.2	11.9	3.76e-04	0	43	0	1054867456	22	5329
2026-01-16 11:20:37.31	332.29	12.44	-30.8	-34.3	11.9	3.94e-04	0	43	0	1056964608	22	5376
2026-01-16 11:20:38.31	332.36	12.36	-30.8	-34.2	11.9	3.81e-04	0	43	0	1058013184	22	5331
2026-01-16 11:20:39.32	332.44	12.27	-30.8	-34.1	11.9	4.20e-04	0	43	0	1060110336	22	5311
2026-01-16 11:20:40.32	332.51	12.18	-30.9	-34.6	11.5	7.79e-04	0	43	0	1062207488	22	5526
2026-01-16 11:20:41.32	332.58	12.09	-30.8	-34.3	11.7	6.45e-04	0	43	0	1064304640	22	5389
2026-01-16 11:20:42.31	332.65	12.01	-30.9	-34.6	11.4	8.50e-04	0	43	0	1066401792	22	5527
2026-01-16 11:20:43.32	332.73	11.92	-30.9	-34.7	11.4	8.09e-04	0	43	0	1067450368	22	5561
2026-01-16 11:20:44.31	332.80	11.83	-30.9	-34.6	11.6	6.71e-04	0	43	0	1069547520	22	5497
2026-01-16 11:20:45.31	332.87	11.75	-30.9	-34.7	11.5	7.70e-04	0	43	0	1071644672	22	5550
2026-01-16 11:20:46.31	332.94	11.66	-31.0	-35.0	11.4	8.44e-04	0	43	0	1073741824	22	5677
2026-01-16 11:20:47.31	333.01	11.57	-31.0	-35.0	11.3	1.21e-03	0	43	0	1075838976	22	5706
2026-01-16 11:20:48.31	333.08	11.49	-31.0	-35.0	11.3	1.33e-03	0	43	0	1076887552	22	5698
2026-01-16 11:20:49.32	333.15	11.40	-31.1	-35.2	11.1	1.47e-03	0	43	0	1078984704	22	5800
2026-01-16 11:20:50.32	333.22	11.32	-31.1	-35.2	11.1	1.52e-03	0	43	0	1081081856	22	5780
2026-01-16 11:20:51.33	333.29	11.23	-31.1	-35.4	10.9	1.92e-03	0	43	0	1083179008	22	5905
2026-01-16 11:20:52.33	333.36	11.15	-31.2	-35.8	10.6	2.06e-03	0	43	0	1084227584	22	6065
2026-01-16 11:20:53.33	333.42	11.06	-31.2	-35.6	10.6	4.82e-03	0	43	0	1086324736	22	5982
2026-01-16 11:20:54.33	333.49	10.98	-31.2	-35.6	10.6	3.19e-03	0	43	0	1088421888	22	5982
2026-01-16 11:20:55.33	333.56	10.90	-31.1	-35.5	10.6	2.78e-03	0	43	0	1090519040	22	5927
2026-01-16 11:20:56.33	333.63	10.81	-31.1	-35.4	10.7	2.81e-03	0	43	0	1092616192	22	5877
2026-01-16 11:20:57.33	333.69	10.73	-31.0	-35.2	11.0	2.25e-03	0	43	0	1093664768	22	5783
2026-01-16 11:20:58.33	333.76	10.65	-31.1	-35.3	10.8	3.04e-03	0	43	0	1095761920	22	5858
2026-01-16 11:20:59.33	333.82	10.56	-31.0	-35.2	10.6	3.15e-03	0	42	0	1097859072	22	5801
2026-01-16 11:21:00.34	333.89	10.48	-31.0	-35.0	10.6	3.06e-03	0	43	0	1099956224	22	5737
2026-01-16 11:21:01.34	333.96	10.40	-31.0	-35.0	10.8	3.29e-03	0	43	0	1102053376	22	5713
2026-01-16 11:21:02.34	334.02	10.32	-30.9	-34.7	11.2	1.70e-03	0	43	0	1103101952	22	5575
2026-01-16 11:21:03.34	334.09	10.24	-31.0	-35.0	11.0	1.60e-03	0	43	0	1105199104	22	5709
2026-01-16 11:21:04.34	334.15	10.15	-30.9	-34.8	11.2	1.93e-03	0	43	0	1107296256	22	5631
2026-01-16 11:21:05.34	334.21	10.07	-31.0	-35.0	11.1	1.53e-03	0	43	0	1109393408	22	5720
2026-01-16 11:21:06.35	334.28	9.99	-30.9	-34.8	11.3	1.19e-03	0	43	0	1111490560	22	5626
2026-01-16 11:21:07.35	334.34	9.91	-31.0	-34.9	11.2	1.29e-03	0	43	0	1112539136	22	5693
2026-01-16 11:21:08.35	334.40	9.83	-30.9	-34.8	11.1	1.60e-03	0	43	0	1114636288	22	5643
2026-01-16 11:21:09.35	334.47	9.75	-30.8	-34.5	10.9	1.68e-03	0	43	0	1116733440	22	5519
2026-01-16 11:21:10.35	334.53	9.67	-30.7	-34.4	10.5	2.57e-03	0	43	0	1118830592	22	5474
2026-01-16 11:21:11.34	334.59	9.59	-30.8	-34.8	9.9	5.92e-03	0	43	0	1119879168	22	5664
2026-01-16 11:21:12.35	334.65	9.51	-30.9	-34.9	9.7	1.09e-02	0	43	0	1121976320	22	5740
2026-01-16 11:21:13.34	334.71	9.43	-30.9	-34.8	10.0	8.16e-03	0	43	0	1124073472	22	5672
2026-01-16 11:21:14.34	334.77	9.35	-31.0	-35.2	9.9	6.94e-03	0	43	0	1126170624	22	5847
2026-01-16 11:21:15.33	334.83	9.27	-31.1	-35.7	9.8	1.11e-02	0	43	0	1128267776	22	6094
2026-01-16 11:21:16.33	334.90	9.20	-31.0	-35.1	10.4	6.58e-03	0	43	0	1129316352	22	5792
2026-01-16 11:21:17.33	334.96	9.12	-30.9	-35.0	10.6	3.70e-03	0	43	0	1131413504	22	5728
2026-01-16 11:21:18.33	335.02	9.04	-30.9	-34.7	10.9	2.36e-03	0	43	0	1133510656	22	5587
2026-01-16 11:21:19.34	335.08	8.96	-30.8	-34.6	11.0	1.64e-03	0	43	0	1135607808	22	5563
2026-01-16 11:21:20.33	335.13	8.88	-30.9	-34.9	10.9	2.10e-03	0	43	0	1137704960	22	5689
2026-01-16 11:21:21.33	335.19	8.81	-30.9	-34.8	11.1	1.86e-03	0	43	0	1138753536	22	5634
2026-01-16 11:21:22.33	335.25	8.73	-30.9	-35.0	11.0	1.97e-03	0	43	0	1140850688	22	5732
2026-01-16 11:21:23.33	335.31	8.65	-31.1	-35.4	10.7	2.20e-03	0	43	0	1142947840	22	5917
2026-01-16 11:21:24.33	335.37	8.58	-31.0	-35.2	10.9	2.69e-03	0	43	0	1145044992	22	5841
2026-01-16 11:21:25.33	335.43	8.50	-31.1	-35.5	10.6	2.77e-03	0	43	0	1146093568	22	5965
2026-01-16 11:21:26.34	335.48	8.42	-31.2	-35.7	10.4	4.25e-03	0	43	0	1148190720	22	6086
2026-01-16 11:21:27.35	335.54	8.34	-31.2	-36.0	10.0	5.67e-03	0	43	0	1150287872	22	6256
2026-01-16 11:21:28.36	335.60	8.27	-31.2	-36.0	9.9	8.93e-03	0	43	0	1152385024	22	6266
2026-01-16 11:21:29.36	335.66	8.19	-31.3	-36.2	9.7	1.10e-02	0	43	0	1154482176	22	6358
2026-01-16 11:21:30.36	335.71	8.12	-31.3	-36.4	9.6	1.13e-02	0	43	0	1156579328	22	6459
2026-01-16 11:21:31.37	335.77	8.04	-31.4	-36.6	9.5	1.37e-02	0	43	0	1157627904	22	6555
2026-01-16 11:21:32.37	335.83	7.96	-31.3	-36.4	9.7	1.11e-02	0	43	0	1159725056	22	6475
2026-01-16 11:21:33.37	335.88	7.89	-31.5	-36.9	9.4	1.18e-02	0	43	0	1161822208	22	6728
2026-01-16 11:21:34.37	335.94	7.81	-31.6	-36.8	9.1	1.79e-02	0	43	0	1163919360	23	6597
2026-01-16 11:21:35.37	335.99	7.74	-31.5	-36.5	9.3	1.81e-02	0	43	0	1164967936	23	6431
2026-01-16 11:21:36.37	336.05	7.67	-31.4	-36.3	9.5	1.48e-02	0	43	0	1167065088	23	6298
2026-01-16 11:21:37.37	336.10	7.59	-31.4	-36.2	9.6	1.52e-02	0	43	0	1169162240	23	6249
2026-01-16 11:21:38.37	336.16	7.52	-31.6	-36.8	9.1	1.44e-02	0	43	0	1171259392	23	6579
2026-01-16 11:21:39.37	336.21	7.44	-31.5	-36.8	9.2	1.67e-02	0	43	0	1173356544	23	6581
2026-01-16 11:21:40.37	336.26	7.37	-31.6	-36.9	9.0	2.14e-02	0	43	0	1174405120	23	6636
2026-01-16 11:21:41.37	336.32	7.30	-31.6	-36.9	9.0	2.53e-02	0	43	0	1176502272	23	6641
2026-01-16 11:21:42.37	336.37	7.22	-31.7	-37.3	8.7	3.36e-02	0	43	0	1178599424	23	6902
2026-01-16 11:21:43.37	336.42	7.15	-31.6	-37.0	8.9	2.87e-02	0	43	0	1180696576	23	6705
2026-01-16 11:21:44.37	336.48	7.08	-32.8	-42.4	5.4	2.41e-02	0	43	0	1182793728	25	10965
2026-01-16 11:21:45.37	336.53	7.00	-33.5	-48.0	3.8	1.49e+00	0	43	104	1182793728	26	19148
2026-01-16 11:21:46.37	336.58	6.93	-33.7	-48.0	3.8	1.49e+00	0	43	104	1182793728	27	18609
2026-01-16 11:21:47.37	336.63	6.86	-33.9	-48.3	3.8	1.49e+00	0	43	104	1182793728	27	19007

#Closed at: 2026-01-16 11:21:47
#Recorded file [1182 MB]: D:/data/31010_260116_141113.dat