passes_logs/2026/01/01/PlanumMoscow/PlanumMoscow__20260101_112820_METEOR-M2_4_rec.log

#Pass ID: 20260101_112820_METEOR-M2 4
#Satellite: METEOR-M2 4
#Configuration: METEOR-M2 4
#Start time: 2026-01-01 11:28:25.054474

#LorettStation: 1.0.0 05.05.2024
#Station: PlanumMoscow
#Location: 37.6253844 lon 55.6713361 lat
#TLE: 1 59051U 24039A   25293.94737965  .00000087  00000+0  58459-4 0  9998
#TLE: 2 59051  98.6671 251.7071 0007726 135.4772 224.7028 14.22388966 85257

#Time	Az	El	Level	SNR
2026-01-01 11:32:03.468036	170.8	29.7	-63.5	14.7
2026-01-01 11:32:04.583288	170.8	29.9	-64.6	14.2
2026-01-01 11:32:05.699547	170.9	30.1	-64.9	14.4
2026-01-01 11:32:06.814836	170.9	30.3	-64.7	14.5
2026-01-01 11:32:07.931591	171.0	30.6	-64.9	14.6
2026-01-01 11:32:09.048859	171.0	30.8	-65.0	14.7
2026-01-01 11:32:10.165119	171.1	31.0	-64.7	13.6
2026-01-01 11:32:11.280378	171.1	31.2	-64.8	14.6
2026-01-01 11:32:12.397667	171.2	31.4	-64.8	14.1
2026-01-01 11:32:13.514422	171.3	31.7	-64.3	14.2
2026-01-01 11:32:14.631673	171.3	31.9	-64.6	14.1
2026-01-01 11:32:15.749925	171.4	32.1	-64.6	14.4
2026-01-01 11:32:16.865176	171.4	32.4	-64.6	14.5
2026-01-01 11:32:17.981436	171.5	32.6	-64.6	13.9
2026-01-01 11:32:19.098688	171.6	32.8	-64.6	14.0
2026-01-01 11:32:20.213939	171.6	33.1	-64.9	14.6
2026-01-01 11:32:21.330190	171.7	33.3	-64.4	13.7
2026-01-01 11:32:22.444946	171.7	33.5	-65.0	13.8
2026-01-01 11:32:23.560701	171.8	33.8	-64.7	13.9
2026-01-01 11:32:24.677457	171.9	34.0	-64.9	13.6
2026-01-01 11:32:25.794708	171.9	34.3	-65.1	14.1
2026-01-01 11:32:26.910473	172.0	34.5	-65.0	13.8
2026-01-01 11:32:28.028238	172.1	34.8	-65.3	14.6
2026-01-01 11:32:29.144489	172.1	35.0	-64.1	11.8
2026-01-01 11:32:30.261245	172.2	35.3	-65.0	13.1
2026-01-01 11:32:31.377513	172.3	35.5	-64.8	14.1
2026-01-01 11:32:32.494269	172.4	35.8	-64.5	12.4
2026-01-01 11:32:33.610529	172.4	36.0	-64.4	12.3
2026-01-01 11:32:34.727285	172.5	36.3	-64.9	14.4
2026-01-01 11:32:35.843544	172.6	36.6	-65.4	14.2
2026-01-01 11:32:36.958795	172.7	36.8	-65.4	15.0
2026-01-01 11:32:38.076047	172.7	37.1	-65.5	14.8
2026-01-01 11:32:39.194298	172.8	37.4	-65.5	15.0
2026-01-01 11:32:40.311063	172.9	37.6	-64.9	14.3
2026-01-01 11:32:41.432326	173.0	37.9	-65.0	14.2
2026-01-01 11:32:42.556083	173.1	38.2	-64.5	13.7
2026-01-01 11:32:43.678839	173.2	38.5	-64.9	13.7
2026-01-01 11:32:44.796099	173.2	38.8	-64.5	14.4
2026-01-01 11:32:45.919352	173.3	39.0	-64.7	13.2
2026-01-01 11:32:47.042109	173.4	39.3	-64.2	12.3
2026-01-01 11:32:48.163369	173.5	39.6	-65.0	14.2
2026-01-01 11:32:49.282630	173.6	39.9	-64.7	13.8
2026-01-01 11:32:50.405387	173.7	40.2	-64.8	13.9
2026-01-01 11:32:51.527649	173.8	40.5	-64.8	14.0
2026-01-01 11:32:52.650405	173.9	40.8	-64.7	13.5
2026-01-01 11:32:53.772658	174.0	41.1	-65.1	14.2
2026-01-01 11:32:54.894911	174.1	41.4	-64.8	12.5
2026-01-01 11:32:56.017164	174.2	41.7	-65.8	14.9
2026-01-01 11:32:57.138920	174.3	42.0	-65.8	15.6
2026-01-01 11:32:58.256172	174.4	42.3	-66.2	15.9
2026-01-01 11:32:59.372928	174.5	42.6	-66.1	15.3
2026-01-01 11:33:00.493180	174.6	42.9	-65.6	13.8
2026-01-01 11:33:01.612432	174.7	43.3	-66.0	14.3
2026-01-01 11:33:02.727187	174.8	43.6	-66.1	14.8
2026-01-01 11:33:03.844447	175.0	43.9	-65.5	13.5
2026-01-01 11:33:04.959698	175.1	44.2	-65.7	13.6
2026-01-01 11:33:06.075454	175.2	44.6	-66.1	13.1
2026-01-01 11:33:07.194714	175.3	44.9	-66.1	14.0
2026-01-01 11:33:08.310973	175.5	45.2	-66.3	13.2
2026-01-01 11:33:09.427728	175.6	45.6	-66.5	13.4
2026-01-01 11:33:10.543980	175.7	45.9	-66.5	14.3
2026-01-01 11:33:11.660231	175.9	46.2	-66.2	13.6
2026-01-01 11:33:12.777483	176.0	46.6	-66.7	13.1
2026-01-01 11:33:13.893742	176.1	46.9	-66.4	13.2
2026-01-01 11:33:15.010002	176.3	47.3	-66.2	11.8
2026-01-01 11:33:16.126253	176.4	47.6	-66.6	12.7
2026-01-01 11:33:17.241514	176.6	48.0	-66.2	12.2
2026-01-01 11:33:18.357765	176.7	48.3	-66.5	12.9
2026-01-01 11:33:19.473017	176.9	48.7	-66.3	12.4
2026-01-01 11:33:20.589276	177.0	49.0	-66.5	12.9
2026-01-01 11:33:21.705535	177.2	49.4	-66.4	13.0
2026-01-01 11:33:22.821787	177.4	49.8	-66.8	13.5
2026-01-01 11:33:23.939543	177.5	50.1	-66.8	13.7
2026-01-01 11:33:25.055298	177.7	50.5	-66.9	13.7
2026-01-01 11:33:26.170549	177.9	50.9	-66.9	13.0
2026-01-01 11:33:27.283813	178.1	51.3	-67.3	12.9
2026-01-01 11:33:28.400069	178.3	51.7	-67.2	13.0
2026-01-01 11:33:29.515320	178.5	52.0	-67.0	12.5
2026-01-01 11:33:30.631579	178.7	52.4	-67.6	13.2
2026-01-01 11:33:31.745334	178.9	52.8	-67.6	12.4
2026-01-01 11:33:32.863099	179.1	53.2	-67.7	13.8
2026-01-01 11:33:33.981351	179.3	53.6	-67.5	12.7
2026-01-01 11:33:35.095602	179.5	54.0	-67.8	12.9
2026-01-01 11:33:36.211357	179.8	54.4	-67.7	12.8
2026-01-01 11:33:37.326617	180.0	54.8	-67.7	12.1
2026-01-01 11:33:38.443868	180.2	55.2	-67.6	11.9
2026-01-01 11:33:39.558133	180.5	55.6	-67.5	11.5
2026-01-01 11:33:40.673889	180.7	56.0	-67.6	11.6
2026-01-01 11:33:41.789140	181.0	56.4	-68.1	11.7
2026-01-01 11:33:42.903895	181.3	56.8	-68.0	10.9
2026-01-01 11:33:44.020146	181.5	57.3	-67.7	10.8
2026-01-01 11:33:45.134397	181.8	57.7	-68.1	11.8
2026-01-01 11:33:46.250152	182.1	58.1	-68.1	10.7
2026-01-01 11:33:47.365411	182.4	58.5	-67.9	10.5
2026-01-01 11:33:48.481663	182.7	59.0	-68.4	10.9
2026-01-01 11:33:49.596914	183.1	59.4	-68.5	11.1
2026-01-01 11:33:50.713165	183.4	59.8	-68.8	11.0
2026-01-01 11:33:51.831921	183.7	60.2	-68.9	11.2
2026-01-01 11:33:52.948172	184.1	60.7	-68.7	10.8
2026-01-01 11:33:54.063423	184.5	61.1	-68.3	10.7
2026-01-01 11:33:55.179178	184.9	61.6	-68.6	12.3
2026-01-01 11:33:56.294429	185.3	62.0	-68.6	12.5
2026-01-01 11:33:57.410681	185.7	62.4	-68.5	12.5
2026-01-01 11:33:58.525940	186.1	62.9	-68.8	12.6
2026-01-01 11:33:59.643696	186.5	63.3	-68.5	12.7
2026-01-01 11:34:00.763957	187.0	63.8	-68.8	12.6
2026-01-01 11:34:01.884723	187.5	64.2	-68.1	12.9
2026-01-01 11:34:03.006976	188.0	64.7	-68.1	12.5
2026-01-01 11:34:04.129229	188.5	65.1	-68.0	13.1
2026-01-01 11:34:05.251482	189.0	65.6	-68.0	13.3
2026-01-01 11:34:06.373238	189.6	66.0	-68.4	13.7
2026-01-01 11:34:07.495491	190.2	66.5	-68.0	13.7
2026-01-01 11:34:08.617248	190.8	66.9	-68.0	13.7
2026-01-01 11:34:09.740005	191.5	67.4	-68.2	13.8
2026-01-01 11:34:10.862257	192.1	67.9	-68.1	13.9
2026-01-01 11:34:11.985014	192.8	68.3	-68.0	14.2
2026-01-01 11:34:13.106275	193.6	68.8	-67.8	14.5
2026-01-01 11:34:14.228032	194.3	69.2	-67.9	13.8
2026-01-01 11:34:15.349789	195.1	69.7	-68.1	12.8
2026-01-01 11:34:16.470041	196.0	70.1	-67.9	12.9
2026-01-01 11:34:17.587329	196.8	70.6	-68.5	13.0
2026-01-01 11:34:18.705086	197.8	71.0	-68.5	12.9
2026-01-01 11:34:19.822338	198.7	71.4	-68.6	12.5
2026-01-01 11:34:20.941590	199.7	71.9	-68.7	12.9
2026-01-01 11:34:22.057841	200.8	72.3	-68.9	12.4
2026-01-01 11:34:23.176093	201.9	72.7	-68.6	11.8
2026-01-01 11:34:24.290344	203.1	73.2	-69.1	12.5
2026-01-01 11:34:25.404603	204.4	73.6	-68.8	12.5
2026-01-01 11:34:26.520855	205.7	74.0	-68.9	13.0
2026-01-01 11:34:27.635619	207.1	74.4	-68.4	12.7
2026-01-01 11:34:28.751870	208.5	74.8	-68.4	13.6
2026-01-01 11:34:29.867626	210.1	75.2	-68.3	13.5
2026-01-01 11:34:30.983389	211.7	75.5	-68.4	13.8
2026-01-01 11:34:32.098640	213.4	75.9	-68.8	13.5
2026-01-01 11:34:33.217892	215.2	76.3	-68.2	13.2
2026-01-01 11:34:34.332654	217.1	76.6	-68.2	13.3
2026-01-01 11:34:35.448914	219.1	76.9	-68.5	13.6
2026-01-01 11:34:36.565166	221.2	77.2	-68.3	13.8
2026-01-01 11:34:37.680417	223.4	77.5	-68.3	14.0
2026-01-01 11:34:38.799669	225.8	77.8	-68.4	14.0
2026-01-01 11:34:39.913929	228.2	78.1	-68.2	14.2
2026-01-01 11:34:41.031190	230.7	78.3	-68.3	14.4
2026-01-01 11:34:42.145441	233.3	78.5	-68.2	15.0
2026-01-01 11:34:43.261692	236.0	78.7	-68.1	13.9
2026-01-01 11:34:44.375952	238.8	78.9	-68.1	13.8
2026-01-01 11:34:45.492708	241.7	79.0	-68.1	14.1
2026-01-01 11:34:46.608960	244.7	79.1	-67.7	14.1
2026-01-01 11:34:47.727723	247.7	79.2	-67.8	14.4
2026-01-01 11:34:48.843487	250.7	79.2	-67.5	14.2
2026-01-01 11:34:49.957738	253.8	79.3	-67.4	14.4
2026-01-01 11:34:51.073990	256.8	79.2	-67.8	14.9
2026-01-01 11:34:52.189241	259.9	79.2	-67.3	14.6
2026-01-01 11:34:53.305996	262.9	79.1	-67.2	14.6
2026-01-01 11:34:54.423248	265.9	79.0	-67.7	15.0
2026-01-01 11:34:55.540500	268.8	78.9	-67.7	14.7
2026-01-01 11:34:56.657255	271.6	78.8	-67.6	15.3
2026-01-01 11:34:57.772513	274.4	78.6	-67.8	14.5
2026-01-01 11:34:58.888269	277.0	78.4	-66.8	10.8
2026-01-01 11:35:00.004048	279.6	78.1	-67.6	14.0
2026-01-01 11:35:01.119804	282.0	77.9	-67.6	13.4
2026-01-01 11:35:02.235064	284.4	77.6	-67.8	13.9
2026-01-01 11:35:03.350315	286.6	77.3	-67.8	13.4
2026-01-01 11:35:04.467070	288.7	77.0	-67.8	14.0
2026-01-01 11:35:05.583322	290.8	76.7	-67.7	13.7
2026-01-01 11:35:06.698078	292.7	76.4	-67.7	12.7
2026-01-01 11:35:07.813329	294.5	76.0	-68.0	13.2
2026-01-01 11:35:08.927588	296.3	75.7	-67.6	12.9
2026-01-01 11:35:10.044343	297.9	75.3	-67.5	12.9
2026-01-01 11:35:11.159098	299.5	74.9	-67.4	12.9
2026-01-01 11:35:12.275854	301.0	74.5	-67.9	13.8
2026-01-01 11:35:13.392115	302.4	74.1	-67.7	13.1
2026-01-01 11:35:14.507366	303.7	73.7	-67.7	12.3
2026-01-01 11:35:15.624618	305.0	73.3	-67.5	12.5
2026-01-01 11:35:16.740869	306.2	72.9	-67.6	12.1
2026-01-01 11:35:17.855120	307.3	72.5	-67.6	12.0
2026-01-01 11:35:18.972372	308.4	72.0	-68.0	12.9
2026-01-01 11:35:20.089631	309.4	71.6	-68.0	12.0
2026-01-01 11:35:21.206891	310.4	71.2	-67.8	11.8
2026-01-01 11:35:22.322646	311.4	70.7	-67.8	10.5
2026-01-01 11:35:23.442898	312.3	70.3	-68.2	10.8
2026-01-01 11:35:24.558157	313.1	69.8	-68.0	9.2
2026-01-01 11:35:25.675409	313.9	69.4	-67.7	8.7
2026-01-01 11:35:26.791660	314.7	68.9	-68.0	11.0
2026-01-01 11:35:27.912913	315.4	68.5	-67.6	11.6
2026-01-01 11:35:29.034670	316.1	68.0	-67.1	11.2
2026-01-01 11:35:30.155435	316.8	67.6	-67.0	11.2
2026-01-01 11:35:31.277192	317.5	67.1	-67.4	10.7
2026-01-01 11:35:32.399949	318.1	66.7	-67.3	11.0
2026-01-01 11:35:33.522202	318.7	66.2	-68.0	11.5
2026-01-01 11:35:34.644455	319.3	65.8	-67.9	11.3
2026-01-01 11:35:35.761211	319.8	65.3	-67.9	9.9
2026-01-01 11:35:36.878471	320.3	64.9	-67.5	9.5
2026-01-01 11:35:37.995227	320.8	64.4	-67.6	9.9
2026-01-01 11:35:39.112488	321.3	64.0	-67.7	9.9
2026-01-01 11:35:40.228739	321.8	63.5	-67.6	9.2
2026-01-01 11:35:41.345494	322.2	63.1	-67.5	8.9
2026-01-01 11:35:42.460746	322.7	62.6	-67.6	9.5
2026-01-01 11:35:43.576509	323.1	62.2	-68.2	9.7
2026-01-01 11:35:44.693761	323.5	61.8	-68.0	9.4
2026-01-01 11:35:45.811013	323.9	61.3	-67.7	8.0
2026-01-01 11:35:46.927264	324.2	60.9	-67.7	8.6
2026-01-01 11:35:48.044524	324.6	60.5	-67.3	8.9
2026-01-01 11:35:49.159280	325.0	60.0	-67.0	9.4
2026-01-01 11:35:50.276540	325.3	59.6	-67.3	9.6
2026-01-01 11:35:51.391791	325.6	59.2	-67.5	9.6
2026-01-01 11:35:52.508051	326.0	58.7	-67.1	8.4
2026-01-01 11:35:53.625302	326.3	58.3	-67.8	9.7
2026-01-01 11:35:54.740553	326.6	57.9	-67.7	9.3
2026-01-01 11:35:55.855309	326.8	57.5	-66.8	7.4
2026-01-01 11:35:56.970560	327.1	57.1	-67.5	9.0
2026-01-01 11:35:58.085316	327.4	56.6	-67.6	8.4
2026-01-01 11:35:59.199567	327.7	56.2	-67.5	8.8
2026-01-01 11:36:00.314826	327.9	55.8	-67.5	8.9
2026-01-01 11:36:01.429582	328.2	55.4	-67.3	8.9
2026-01-01 11:36:02.545834	328.4	55.0	-66.6	8.6
2026-01-01 11:36:03.662085	328.7	54.6	-67.5	8.8
2026-01-01 11:36:04.777336	328.9	54.2	-67.1	8.0
2026-01-01 11:36:05.894588	329.1	53.8	-67.7	8.5
2026-01-01 11:36:07.010839	329.3	53.4	-67.8	9.1
2026-01-01 11:36:08.126091	329.5	53.0	-67.7	9.0
2026-01-01 11:36:09.241342	329.7	52.7	-67.6	8.2
2026-01-01 11:36:10.358593	329.9	52.3	-67.6	8.5
2026-01-01 11:36:11.478350	330.1	51.9	-67.2	8.6
2026-01-01 11:36:12.596106	330.3	51.5	-67.1	7.9
2026-01-01 11:36:13.711357	330.5	51.1	-67.3	9.7
2026-01-01 11:36:14.825608	330.7	50.8	-67.2	9.4
2026-01-01 11:36:15.943364	330.9	50.4	-67.7	9.6
2026-01-01 11:36:17.063616	331.1	50.0	-67.3	9.8
2026-01-01 11:36:18.179877	331.2	49.6	-67.9	9.0
2026-01-01 11:36:19.295137	331.4	49.3	-68.1	10.7
2026-01-01 11:36:20.411892	331.6	48.9	-67.8	10.7
2026-01-01 11:36:21.529152	331.7	48.6	-66.9	9.5
2026-01-01 11:36:22.643908	331.9	48.2	-66.9	10.0
2026-01-01 11:36:23.758663	332.0	47.9	-67.2	11.0
2026-01-01 11:36:24.872418	332.2	47.5	-67.6	10.7
2026-01-01 11:36:25.990685	332.3	47.2	-67.5	9.9
2026-01-01 11:36:27.109937	332.5	46.8	-67.8	11.1
2026-01-01 11:36:28.226189	332.6	46.5	-67.1	9.4
2026-01-01 11:36:29.340440	332.7	46.1	-67.6	10.4
2026-01-01 11:36:30.454691	332.9	45.8	-66.9	10.5
2026-01-01 11:36:31.570950	333.0	45.5	-67.6	11.7
2026-01-01 11:36:32.688706	333.1	45.1	-65.9	9.5
2026-01-01 11:36:33.804966	333.2	44.8	-66.5	11.1
2026-01-01 11:36:34.925730	333.4	44.5	-65.8	8.5
2026-01-01 11:36:36.047983	333.5	44.1	-66.3	11.0
2026-01-01 11:36:37.169740	333.6	43.8	-66.9	10.4
2026-01-01 11:36:38.291993	333.7	43.5	-67.4	12.3
2026-01-01 11:36:39.413750	333.8	43.2	-67.4	12.3
2026-01-01 11:36:40.535507	333.9	42.9	-67.5	12.0
2026-01-01 11:36:41.657759	334.1	42.6	-67.1	11.6
2026-01-01 11:36:42.777019	334.2	42.3	-67.1	11.1
2026-01-01 11:36:43.892775	334.3	41.9	-67.3	11.1
2026-01-01 11:36:45.007530	334.4	41.6	-67.0	11.6
2026-01-01 11:36:46.124791	334.5	41.3	-66.8	12.1
2026-01-01 11:36:47.239042	334.6	41.0	-66.8	11.9
2026-01-01 11:36:48.354293	334.7	40.7	-66.4	11.6
2026-01-01 11:36:49.468544	334.8	40.5	-65.4	10.1
2026-01-01 11:36:50.582803	334.9	40.2	-65.5	10.3
2026-01-01 11:36:51.698054	335.0	39.9	-65.7	12.7
2026-01-01 11:36:52.815306	335.1	39.6	-66.0	11.2
2026-01-01 11:36:53.930557	335.1	39.3	-66.7	12.2
2026-01-01 11:36:55.046809	335.2	39.0	-66.7	12.1
2026-01-01 11:36:56.163565	335.3	38.7	-66.8	12.0
2026-01-01 11:36:57.281817	335.4	38.5	-65.5	9.2
2026-01-01 11:36:58.397075	335.5	38.2	-66.6	12.8
2026-01-01 11:36:59.512830	335.6	37.9	-66.1	12.0
2026-01-01 11:37:00.630587	335.7	37.6	-66.2	12.6
2026-01-01 11:37:01.746342	335.7	37.4	-66.1	12.2
2026-01-01 11:37:02.862097	335.8	37.1	-66.2	12.2
2026-01-01 11:37:03.978853	335.9	36.8	-66.2	12.0
2026-01-01 11:37:05.095609	336.0	36.6	-66.0	11.4
2026-01-01 11:37:06.210868	336.0	36.3	-65.8	9.6
2026-01-01 11:37:07.327120	336.1	36.1	-65.4	10.5
2026-01-01 11:37:08.446877	336.2	35.8	-65.6	8.7
2026-01-01 11:37:09.562128	336.3	35.5	-66.6	12.1
2026-01-01 11:37:10.679883	336.3	35.3	-66.0	11.3
2026-01-01 11:37:11.796639	336.4	35.0	-66.1	12.2
2026-01-01 11:37:12.913403	336.5	34.8	-64.6	9.7
2026-01-01 11:37:14.030655	336.5	34.5	-66.2	12.9
2026-01-01 11:37:15.146411	336.6	34.3	-66.1	13.0
2026-01-01 11:37:16.263167	336.7	34.1	-64.6	10.5
2026-01-01 11:37:17.378418	336.7	33.8	-65.0	10.4
2026-01-01 11:37:18.493677	336.8	33.6	-66.0	9.8
2026-01-01 11:37:19.607936	336.9	33.3	-66.3	11.9
2026-01-01 11:37:20.723196	336.9	33.1	-65.3	9.9
2026-01-01 11:37:21.840447	337.0	32.9	-65.3	9.6
2026-01-01 11:37:22.959699	337.1	32.6	-64.5	9.5
2026-01-01 11:37:24.080959	337.1	32.4	-66.1	11.9
2026-01-01 11:37:25.202715	337.2	32.2	-65.9	11.8
2026-01-01 11:37:26.323968	337.2	32.0	-65.9	12.2
2026-01-01 11:37:27.441724	337.3	31.7	-66.0	12.2
2026-01-01 11:37:28.562985	337.4	31.5	-66.1	11.3
2026-01-01 11:37:29.677236	337.4	31.3	-66.1	11.9
2026-01-01 11:37:30.791991	337.5	31.1	-66.1	11.8
2026-01-01 11:37:31.907250	337.5	30.8	-66.2	11.8
2026-01-01 11:37:33.027007	337.6	30.6	-65.9	10.7
2026-01-01 11:37:34.143762	337.6	30.4	-65.2	11.2
2026-01-01 11:37:35.259518	337.7	30.2	-65.6	10.9
2026-01-01 11:37:36.375778	337.7	30.0	-66.1	11.5
2026-01-01 11:37:37.493029	337.8	29.8	-65.4	9.9
2026-01-01 11:37:38.615786	337.8	29.6	-65.0	10.3
2026-01-01 11:37:39.731045	337.9	29.4	-65.8	11.4
2026-01-01 11:37:40.847801	337.9	29.1	-64.2	8.5
2026-01-01 11:37:41.964558	338.0	28.9	-66.2	12.1
2026-01-01 11:37:43.081322	338.0	28.7	-66.5	12.8
2026-01-01 11:37:44.196574	338.1	28.5	-65.7	11.0
2026-01-01 11:37:45.315330	338.1	28.3	-65.9	11.8
2026-01-01 11:37:46.429589	338.2	28.1	-66.0	12.5
2026-01-01 11:37:47.551346	338.2	27.9	-65.9	12.9
2026-01-01 11:37:48.672608	338.3	27.7	-65.4	11.1
2026-01-01 11:37:49.793869	338.3	27.6	-65.6	11.3
2026-01-01 11:37:50.915625	338.4	27.4	-65.7	11.1
2026-01-01 11:37:52.037878	338.4	27.2	-66.1	12.1
2026-01-01 11:37:53.159139	338.5	27.0	-66.4	11.2
2026-01-01 11:37:54.281392	338.5	26.8	-66.6	12.1
2026-01-01 11:37:55.402653	338.5	26.6	-66.7	11.8
2026-01-01 11:37:56.524409	338.6	26.4	-66.8	11.9
2026-01-01 11:37:57.646166	338.6	26.2	-66.5	11.8
2026-01-01 11:37:58.768419	338.7	26.0	-65.5	10.5
2026-01-01 11:37:59.887687	338.7	25.9	-66.2	12.1
2026-01-01 11:38:01.006444	338.8	25.7	-65.8	12.2
2026-01-01 11:38:02.128200	338.8	25.5	-66.5	13.0
2026-01-01 11:38:03.249957	338.8	25.3	-66.4	13.1
2026-01-01 11:38:04.376219	338.9	25.1	-66.2	13.1
2026-01-01 11:38:05.496471	338.9	25.0	-66.6	13.4
2026-01-01 11:38:06.612227	339.0	24.8	-65.7	10.8
2026-01-01 11:38:07.729991	339.0	24.6	-66.1	11.4
2026-01-01 11:38:08.846754	339.0	24.4	-66.4	12.2
2026-01-01 11:38:09.963510	339.1	24.3	-66.4	12.4
2026-01-01 11:38:11.080265	339.1	24.1	-66.2	11.7
2026-01-01 11:38:12.195516	339.1	23.9	-65.9	10.8
2026-01-01 11:38:13.312785	339.2	23.8	-66.6	11.8
2026-01-01 11:38:14.429037	339.2	23.6	-66.0	11.9
2026-01-01 11:38:15.545288	339.3	23.4	-66.4	11.0
2026-01-01 11:38:16.662044	339.3	23.3	-66.4	11.5
2026-01-01 11:38:17.780296	339.3	23.1	-66.7	11.9
2026-01-01 11:38:18.896563	339.4	22.9	-66.4	12.3
2026-01-01 11:38:20.012815	339.4	22.8	-66.1	11.3
2026-01-01 11:38:21.128083	339.4	22.6	-66.1	10.8
2026-01-01 11:38:22.242334	339.5	22.4	-65.6	10.3
2026-01-01 11:38:23.358098	339.5	22.3	-65.8	10.4
2026-01-01 11:38:24.474358	339.5	22.1	-66.1	11.0
2026-01-01 11:38:25.587617	339.6	22.0	-66.2	11.7
2026-01-01 11:38:26.702868	339.6	21.8	-66.4	12.0
2026-01-01 11:38:27.819120	339.6	21.7	-66.0	10.7
2026-01-01 11:38:28.934379	339.7	21.5	-66.4	12.0
2026-01-01 11:38:30.050630	339.7	21.3	-66.6	12.1
2026-01-01 11:38:31.165385	339.7	21.2	-66.4	11.5
2026-01-01 11:38:32.281140	339.8	21.0	-66.5	12.3
2026-01-01 11:38:33.395391	339.8	20.9	-66.4	11.3
2026-01-01 11:38:34.512643	339.8	20.7	-66.6	11.4
2026-01-01 11:38:35.629903	339.8	20.6	-66.2	11.1
2026-01-01 11:38:36.749666	339.9	20.4	-66.1	10.8
2026-01-01 11:38:37.865918	339.9	20.3	-66.1	10.8
2026-01-01 11:38:38.980169	339.9	20.2	-65.7	10.4
2026-01-01 11:38:40.097420	340.0	20.0	-66.6	12.3
2026-01-01 11:38:41.211671	340.0	19.9	-66.0	10.9
2026-01-01 11:38:42.326922	340.0	19.7	-65.8	10.9
2026-01-01 11:38:43.443678	340.1	19.6	-66.0	10.4
2026-01-01 11:38:44.558434	340.1	19.4	-66.3	11.9
2026-01-01 11:38:45.675189	340.1	19.3	-65.7	9.2
2026-01-01 11:38:46.791945	340.1	19.2	-65.1	10.4
2026-01-01 11:38:47.908204	340.2	19.0	-65.0	8.9
2026-01-01 11:38:49.025960	340.2	18.9	-65.1	9.7
2026-01-01 11:38:50.142715	340.2	18.7	-66.0	11.2
2026-01-01 11:38:51.255966	340.3	18.6	-65.8	10.7
2026-01-01 11:38:52.371217	340.3	18.5	-66.1	10.1
2026-01-01 11:38:53.487469	340.3	18.3	-66.2	11.5
2026-01-01 11:38:54.603720	340.3	18.2	-65.8	10.5
2026-01-01 11:38:55.719483	340.4	18.1	-65.7	10.7
2026-01-01 11:38:56.836239	340.4	17.9	-65.6	10.2
2026-01-01 11:38:57.952491	340.4	17.8	-66.0	10.2
2026-01-01 11:38:59.071246	340.4	17.7	-65.9	11.1
2026-01-01 11:39:00.186505	340.5	17.5	-66.1	11.0
2026-01-01 11:39:01.301756	340.5	17.4	-65.2	9.3
2026-01-01 11:39:02.418007	340.5	17.3	-65.5	10.0
2026-01-01 11:39:03.535771	340.5	17.1	-65.4	10.1
2026-01-01 11:39:04.652022	340.6	17.0	-65.4	9.1
2026-01-01 11:39:05.768779	340.6	16.9	-65.8	9.2
2026-01-01 11:39:06.883030	340.6	16.8	-65.9	9.3
2026-01-01 11:39:07.998281	340.6	16.6	-65.9	10.4
2026-01-01 11:39:09.113532	340.7	16.5	-65.7	8.9
2026-01-01 11:39:10.229793	340.7	16.4	-66.0	8.7
2026-01-01 11:39:11.347548	340.7	16.2	-65.5	9.5
2026-01-01 11:39:12.464304	340.7	16.1	-65.4	8.0
2026-01-01 11:39:13.580565	340.8	16.0	-66.0	9.0
2026-01-01 11:39:14.695816	340.8	15.9	-65.6	8.7
2026-01-01 11:39:15.812067	340.8	15.8	-65.9	9.1
2026-01-01 11:39:16.929823	340.8	15.6	-65.7	8.5
2026-01-01 11:39:18.048075	340.9	15.5	-65.9	8.5
2026-01-01 11:39:19.166335	340.9	15.4	-65.9	9.1
2026-01-01 11:39:20.288093	340.9	15.3	-65.8	8.5
2026-01-01 11:39:21.408849	340.9	15.2	-65.4	8.3
2026-01-01 11:39:22.531101	341.0	15.0	-65.7	8.7
2026-01-01 11:39:23.653355	341.0	14.9	-65.8	9.8
2026-01-01 11:39:24.770118	341.0	14.8	-65.6	8.3
2026-01-01 11:39:25.891875	341.0	14.7	-65.7	8.9
2026-01-01 11:39:27.013631	341.0	14.6	-66.1	9.5
2026-01-01 11:39:28.135389	341.1	14.4	-65.6	9.4
2026-01-01 11:39:29.257145	341.1	14.3	-65.5	7.8
2026-01-01 11:39:30.378406	341.1	14.2	-65.5	8.4
2026-01-01 11:39:31.500162	341.1	14.1	-65.8	8.6
2026-01-01 11:39:32.621919	341.2	14.0	-65.9	9.2
2026-01-01 11:39:33.743676	341.2	13.9	-65.6	8.2
2026-01-01 11:39:34.864433	341.2	13.8	-65.3	7.8
2026-01-01 11:39:35.982200	341.2	13.6	-65.4	8.9
2026-01-01 11:39:37.097458	341.2	13.5	-65.9	8.0
2026-01-01 11:39:38.213213	341.3	13.4	-65.1	7.2
2026-01-01 11:39:39.329473	341.3	13.3	-66.1	8.9
2026-01-01 11:39:40.445739	341.3	13.2	-66.4	8.8
2026-01-01 11:39:41.561983	341.3	13.1	-66.5	9.0
2026-01-01 11:39:42.678739	341.3	13.0	-65.0	7.2
2026-01-01 11:39:43.793494	341.4	12.9	-65.6	7.1
2026-01-01 11:39:44.909745	341.4	12.8	-65.5	7.0
2026-01-01 11:39:46.027501	341.4	12.7	-66.0	8.3
2026-01-01 11:39:47.143753	341.4	12.6	-65.8	7.9
2026-01-01 11:39:48.259508	341.4	12.4	-64.9	6.2
2026-01-01 11:39:49.372759	341.5	12.3	-66.1	7.5
2026-01-01 11:39:50.489010	341.5	12.2	-66.2	7.8
2026-01-01 11:39:51.606262	341.5	12.1	-65.9	7.3
2026-01-01 11:39:52.723514	341.5	12.0	-65.8	7.9
2026-01-01 11:39:53.839269	341.5	11.9	-65.6	6.2
2026-01-01 11:39:54.955025	341.6	11.8	-66.0	8.0
2026-01-01 11:39:56.072276	341.6	11.7	-66.0	7.7
2026-01-01 11:39:57.186032	341.6	11.6	-66.0	7.5
2026-01-01 11:39:58.302787	341.6	11.5	-66.5	7.9
2026-01-01 11:39:59.419039	341.6	11.4	-66.7	7.3
2026-01-01 11:40:00.537300	341.7	11.3	-66.0	6.3
2026-01-01 11:40:01.656552	341.7	11.2	-66.2	7.7
2026-01-01 11:40:02.771812	341.7	11.1	-65.8	7.0
2026-01-01 11:40:03.887063	341.7	11.0	-66.2	6.6
2026-01-01 11:40:05.002315	341.7	10.9	-65.1	6.3
2026-01-01 11:40:06.118070	341.8	10.8	-65.7	7.1
2026-01-01 11:40:07.234322	341.8	10.7	-65.8	5.8
2026-01-01 11:40:08.349573	341.8	10.6	-65.7	7.3
2026-01-01 11:40:09.464329	341.8	10.5	-65.4	6.5
2026-01-01 11:40:10.582580	341.8	10.4	-66.0	6.0
2026-01-01 11:40:11.695839	341.8	10.3	-66.4	7.6
2026-01-01 11:40:12.813099	341.9	10.2	-65.6	6.7
2026-01-01 11:40:13.930855	341.9	10.1	-66.3	7.4
2026-01-01 11:40:15.046611	341.9	10.0	-65.7	5.7
2026-01-01 11:40:16.161862	341.9	9.9	-65.5	5.7
2026-01-01 11:40:17.278113	341.9	9.8	-66.0	5.9
2026-01-01 11:40:18.396869	341.9	9.7	-64.1	4.9
2026-01-01 11:40:19.512625	342.0	9.6	-65.7	6.4
2026-01-01 11:40:20.628885	342.0	9.5	-65.5	6.2
2026-01-01 11:40:21.745163	342.0	9.4	-65.4	5.7
2026-01-01 11:40:22.860423	342.0	9.4	-65.1	5.7
2026-01-01 11:40:23.977675	342.0	9.3	-65.5	5.1
2026-01-01 11:40:25.093926	342.0	9.2	-65.3	7.1
2026-01-01 11:40:26.208681	342.1	9.1	-65.6	7.0
2026-01-01 11:40:27.323932	342.1	9.0	-66.4	6.6
2026-01-01 11:40:28.438688	342.1	8.9	-65.6	6.6
2026-01-01 11:40:29.554949	342.1	8.8	-65.6	7.5
2026-01-01 11:40:30.670704	342.1	8.7	-64.8	6.0
2026-01-01 11:40:31.786965	342.1	8.6	-65.8	7.0
2026-01-01 11:40:32.905217	342.2	8.5	-64.7	5.6
2026-01-01 11:40:34.019972	342.2	8.4	-65.7	7.3
2026-01-01 11:40:35.136728	342.2	8.3	-65.3	7.2
2026-01-01 11:40:36.253484	342.2	8.3	-64.9	5.2
2026-01-01 11:40:37.369248	342.2	8.2	-65.0	4.6
2026-01-01 11:40:38.486500	342.2	8.1	-65.2	6.7
2026-01-01 11:40:39.602751	342.3	8.0	-65.5	6.3
2026-01-01 11:40:40.719002	342.3	7.9	-65.2	6.9
2026-01-01 11:40:41.835758	342.3	7.8	-65.4	4.4
2026-01-01 11:40:42.952514	342.3	7.7	-65.1	7.6
2026-01-01 11:40:44.067270	342.3	7.6	-65.1	5.1
2026-01-01 11:40:45.183522	342.3	7.5	-64.5	7.0
2026-01-01 11:40:46.299781	342.4	7.5	-64.4	5.4
2026-01-01 11:40:47.418033	342.4	7.4	-65.2	6.4
2026-01-01 11:40:48.540286	342.4	7.3	-64.9	5.3
2026-01-01 11:40:49.661547	342.4	7.2	-65.0	4.1
2026-01-01 11:40:50.783304	342.4	7.1	-64.4	4.4
2026-01-01 11:40:51.905061	342.4	7.0	-65.4	5.6
2026-01-01 11:40:53.026817	342.4	6.9	-65.7	4.7
2026-01-01 11:40:54.149070	342.5	6.9	-65.9	5.9
2026-01-01 11:40:55.271323	342.5	6.8	-64.9	3.1
2026-01-01 11:40:56.393080	342.5	6.7	-65.0	5.7
2026-01-01 11:40:57.514341	342.5	6.6	-64.8	6.7
2026-01-01 11:40:58.635602	342.5	6.5	-65.8	4.2
2026-01-01 11:40:59.758360	342.5	6.4	-65.1	7.0
2026-01-01 11:41:00.880612	342.6	6.3	-65.3	5.0
2026-01-01 11:41:02.002369	342.6	6.3	-65.3	6.3
2026-01-01 11:41:03.125126	342.6	6.2	-64.9	6.6
2026-01-01 11:41:04.246883	342.6	6.1	-65.0	3.9
2026-01-01 11:41:05.365639	342.6	6.0	-65.0	7.4
2026-01-01 11:41:06.479898	342.6	5.9	-65.5	5.5
2026-01-01 11:41:07.598159	342.6	5.8	-67.3	1.7
2026-01-01 11:41:08.716915	342.7	5.8	-69.4	0.0
2026-01-01 11:41:09.831671	342.7	5.7	-68.9	0.0
2026-01-01 11:41:10.946426	342.7	5.6	-68.4	0.0
2026-01-01 11:41:12.062678	342.7	5.5	-69.2	0.0
2026-01-01 11:41:13.180433	342.7	5.4	-69.6	0.0
2026-01-01 11:41:14.295685	342.7	5.4	-67.8	0.0
2026-01-01 11:41:15.410944	342.7	5.3	-68.4	0.0
2026-01-01 11:41:16.529204	342.8	5.2	-69.1	0.0
2026-01-01 11:41:17.646463	342.8	5.1	-68.2	0.0
2026-01-01 11:41:18.766220	342.8	5.0	-67.4	0.0
2026-01-01 11:41:19.880471	342.8	5.0	-68.0	0.0
#Closed at: 2026-01-01 11:28:20.055161