passes_logs/2026/01/13/T1/T1__20260113_142804_FENGYUN_3E_rec.log

#Pass ID: 20260113_142804_FENGYUN 3E
#Satellite: FENGYUN 3E
#Configuration: FENGYUN 3E
#almurnet v.1.7.20251203
#Start time: 2026-01-13 14:28:04

#Version: 2.0.20230620
#Station: T1
#Location: 37.570604 lon 55.790049 lat
#TLE: 1 49008U 21062A   26012.89166517 -.00000229  00000+0 -86979-4 0  9993
#TLE: 2 49008  98.7492  18.0449 0001954 141.1957 218.9360 14.19884302234542

#Time	Az	El	Level	Level2	SNR	BER	BlckErr	Temp	State	Recorded	gain1	gain2
2026-01-13 14:28:04.96	168.42	5.01	-50.5	-61.4	3.8	8.46e-01	0	38	0	0	71	12642
2026-01-13 14:28:05.95	168.44	5.08	-46.7	-60.7	3.8	8.47e-01	0	38	104	0	63	18382
2026-01-13 14:28:06.94	168.45	5.15	-46.7	-60.8	3.8	8.47e-01	0	38	104	0	63	18576
2026-01-13 14:28:07.93	168.47	5.23	-46.7	-60.8	3.8	8.47e-01	0	38	104	0	63	18584
2026-01-13 14:28:08.92	168.48	5.30	-46.7	-60.9	3.8	8.49e-01	0	38	104	0	63	18749
2026-01-13 14:28:09.92	168.50	5.37	-46.7	-60.8	3.8	8.46e-01	0	38	104	0	63	18601
2026-01-13 14:28:10.91	168.52	5.44	-46.7	-60.8	3.8	8.46e-01	0	38	104	0	63	18588
2026-01-13 14:28:11.90	168.53	5.51	-46.7	-60.7	3.8	8.48e-01	0	38	104	0	63	18512
2026-01-13 14:28:12.90	168.55	5.59	-46.6	-60.7	3.8	8.47e-01	0	38	104	0	63	18402
2026-01-13 14:28:13.89	168.57	5.66	-46.6	-60.4	3.8	8.47e-01	0	38	104	0	63	17759
2026-01-13 14:28:14.88	168.58	5.73	-46.6	-60.3	3.8	8.47e-01	0	39	104	0	63	17552
2026-01-13 14:28:15.88	168.60	5.80	-46.6	-60.0	3.8	8.46e-01	0	38	104	0	63	16950
2026-01-13 14:28:16.87	168.61	5.88	-46.5	-59.7	3.8	8.45e-01	0	38	104	0	63	16490
2026-01-13 14:28:17.86	168.63	5.95	-46.5	-59.4	3.8	8.47e-01	0	39	104	0	63	15876
2026-01-13 14:28:18.85	168.65	6.02	-46.5	-59.0	3.9	8.47e-01	0	39	104	0	63	15175
2026-01-13 14:28:19.85	168.66	6.10	-46.5	-58.7	4.0	8.47e-01	0	38	104	0	63	14681
2026-01-13 14:28:20.84	168.68	6.17	-46.4	-58.6	3.8	8.45e-01	0	39	104	0	63	14403
2026-01-13 14:28:21.83	168.70	6.25	-46.4	-58.0	4.1	8.43e-01	0	39	104	0	63	13442
2026-01-13 14:28:22.83	168.72	6.32	-46.3	-57.5	4.2	8.40e-01	0	39	0	0	63	12706
2026-01-13 14:28:23.82	168.73	6.40	-46.3	-57.1	4.3	8.34e-01	0	39	0	0	63	12159
2026-01-13 14:28:24.81	168.75	6.47	-46.2	-56.3	4.6	8.20e-01	0	39	0	0	63	11107
2026-01-13 14:28:25.81	168.77	6.55	-46.2	-56.1	4.7	8.01e-01	0	39	0	0	63	10829
2026-01-13 14:28:26.80	168.78	6.62	-46.1	-55.3	5.1	7.63e-01	0	39	0	0	62	10451
2026-01-13 14:28:27.80	168.80	6.70	-46.0	-54.7	5.6	7.04e-01	0	39	0	0	62	9723
2026-01-13 14:28:28.79	168.82	6.77	-45.8	-53.5	6.4	2.86e-01	0	39	0	5242880	62	8528
2026-01-13 14:28:29.78	168.84	6.85	-45.7	-52.9	7.0	1.87e-01	0	39	0	12582912	62	7945
2026-01-13 14:28:30.78	168.85	6.93	-45.4	-52.1	7.7	1.12e-01	0	39	0	19922944	61	7699
2026-01-13 14:28:31.77	168.87	7.00	-45.2	-51.4	8.4	6.39e-02	0	39	0	27262976	61	7078
2026-01-13 14:28:32.76	168.89	7.08	-44.9	-50.7	9.1	2.56e-02	0	39	0	34603008	60	6888
2026-01-13 14:28:33.76	168.91	7.16	-44.8	-50.1	9.7	1.15e-02	0	39	0	41943040	60	6443
2026-01-13 14:28:34.75	168.93	7.23	-44.5	-49.1	10.6	4.90e-03	0	39	0	48234496	59	6086
2026-01-13 14:28:35.74	168.94	7.31	-44.3	-48.7	11.0	2.17e-03	0	39	0	55574528	59	5822
2026-01-13 14:28:36.73	168.96	7.39	-43.9	-47.8	11.9	7.28e-04	0	39	0	62914560	58	5582
2026-01-13 14:28:37.73	168.98	7.46	-43.5	-47.1	12.6	1.01e-04	0	39	0	70254592	57	5447
2026-01-13 14:28:38.72	169.00	7.54	-43.1	-46.5	13.3	2.86e-05	0	39	0	77594624	57	5066
2026-01-13 14:28:39.71	169.02	7.62	-42.9	-46.2	13.6	1.02e-05	0	40	0	84934656	56	5179
2026-01-13 14:28:40.71	169.03	7.70	-42.8	-45.8	13.9	2.20e-06	0	39	0	92274688	56	4977
2026-01-13 14:28:41.70	169.05	7.78	-42.3	-45.2	14.4	1.10e-06	0	39	0	98566144	55	4904
2026-01-13 14:28:42.69	169.07	7.86	-42.1	-45.1	14.5	0.00e+00	0	39	0	105906176	55	4815
2026-01-13 14:28:43.69	169.09	7.94	-42.3	-45.3	14.3	0.00e+00	0	40	0	113246208	55	4939
2026-01-13 14:28:44.68	169.11	8.02	-42.3	-45.3	14.3	0.00e+00	0	40	0	120586240	54	5249
2026-01-13 14:28:45.68	169.13	8.10	-42.3	-45.2	14.4	0.00e+00	0	40	0	127926272	55	4905
2026-01-13 14:28:46.67	169.15	8.18	-42.7	-45.9	13.8	1.10e-06	0	39	0	135266304	55	5295
2026-01-13 14:28:47.66	169.17	8.26	-43.8	-47.3	7.9	2.17e-05	0	40	0	142606336	57	5560
2026-01-13 14:28:48.66	169.18	8.34	-43.5	-47.2	12.6	4.00e-05	0	40	0	148897792	57	5492
2026-01-13 14:28:49.65	169.20	8.42	-44.1	-48.3	11.5	3.97e-04	0	40	0	156237824	57	6234
2026-01-13 14:28:50.64	169.22	8.50	-44.7	-49.4	10.3	4.32e-03	0	40	0	163577856	59	6324
2026-01-13 14:28:51.64	169.24	8.58	-45.2	-50.6	9.1	1.91e-02	0	40	0	170917888	59	7241
2026-01-13 14:28:52.63	169.26	8.66	-45.6	-52.8	7.1	8.33e-02	0	40	0	178257920	60	8772
2026-01-13 14:28:53.62	169.28	8.74	-46.0	-54.7	5.6	6.04e-01	0	40	0	184549376	62	9727
2026-01-13 14:28:54.62	169.30	8.83	-46.4	-56.8	4.4	8.19e-01	0	40	0	185597952	62	12502
2026-01-13 14:28:55.61	169.32	8.91	-46.6	-59.3	3.8	8.44e-01	0	40	104	185597952	62	16623
2026-01-13 14:28:56.60	169.34	8.99	-46.7	-60.5	3.8	8.47e-01	0	40	104	185597952	63	17910
2026-01-13 14:28:57.60	169.36	9.07	-46.7	-54.3	4.5	8.46e-01	0	40	104	185597952	63	8830
2026-01-13 14:28:58.59	169.38	9.16	-45.5	-49.6	10.3	1.51e-02	0	40	0	189792256	61	5756
2026-01-13 14:28:59.78	169.41	9.26	-46.5	-59.3	3.8	8.47e-01	0	40	104	196083712	63	15630
2026-01-13 14:29:00.63	169.42	9.33	-47.1	-59.2	3.8	8.47e-01	0	40	104	196083712	63	15451
2026-01-13 14:29:01.99	169.45	9.44	-44.6	-47.3	12.6	1.74e-03	0	40	0	202375168	59	4943
2026-01-13 14:29:02.70	169.47	9.51	-44.6	-47.3	12.5	1.48e-04	0	40	0	206569472	59	4954
2026-01-13 14:29:04.15	169.50	9.63	-44.0	-46.3	13.5	1.25e-05	0	40	0	217055232	58	4699
2026-01-13 14:29:04.86	169.51	9.69	-44.0	-46.3	13.5	4.50e-06	0	40	0	223346688	58	4704
2026-01-13 14:29:06.21	169.54	9.81	-43.5	-45.8	14.0	5.70e-06	0	40	0	232783872	57	4669
2026-01-13 14:29:06.92	169.55	9.87	-43.6	-45.9	13.9	4.50e-06	0	40	0	238026752	57	4736
2026-01-13 14:29:08.20	169.58	9.98	-43.4	-45.7	14.1	0.00e+00	0	40	0	246415360	57	4627
2026-01-13 14:29:08.94	169.60	10.04	-43.4	-45.6	14.2	1.10e-06	0	40	0	251658240	57	4586
2026-01-13 14:29:10.22	169.62	10.15	-42.4	-44.5	15.3	0.00e+00	0	40	0	261095424	55	4498
2026-01-13 14:29:10.93	169.64	10.22	-42.5	-44.6	15.1	1.09e-03	0	40	0	266338304	55	4555
2026-01-13 14:29:12.21	169.67	10.33	-42.2	-44.3	15.4	0.00e+00	0	40	0	275775488	54	4660
2026-01-13 14:29:12.92	169.68	10.39	-41.8	-43.8	15.9	0.00e+00	0	40	0	281018368	54	4415
2026-01-13 14:29:14.20	169.71	10.50	-41.4	-43.3	16.3	0.00e+00	0	40	0	290455552	53	4434
2026-01-13 14:29:14.93	169.73	10.57	-41.1	-43.1	16.5	0.00e+00	0	40	0	295698432	53	4309
2026-01-13 14:29:16.21	169.75	10.68	-40.9	-42.8	16.8	0.00e+00	0	40	0	304087040	52	4402
2026-01-13 14:29:16.92	169.77	10.75	-41.0	-42.8	16.8	0.00e+00	0	40	0	310378496	52	4438
2026-01-13 14:29:18.20	169.80	10.86	-40.7	-42.6	17.0	0.00e+00	0	40	0	318767104	52	4323
2026-01-13 14:29:18.91	169.81	10.92	-40.9	-42.8	16.9	0.00e+00	0	40	0	324009984	52	4400
2026-01-13 14:29:20.19	169.84	11.04	-40.8	-42.7	16.9	0.00e+00	0	40	0	333447168	52	4379
2026-01-13 14:29:20.92	169.86	11.11	-40.7	-42.6	17.0	0.00e+00	0	40	0	338690048	52	4322
2026-01-13 14:29:22.20	169.89	11.22	-40.7	-42.6	17.1	0.00e+00	0	40	0	348127232	51	4564
2026-01-13 14:29:23.17	169.91	11.31	-40.8	-42.7	17.0	0.00e+00	0	40	0	355467264	51	4617
2026-01-13 14:29:24.47	169.94	11.43	-40.5	-42.2	17.5	0.00e+00	0	40	0	364904448	51	4388
2026-01-13 14:29:25.18	169.96	11.50	-40.7	-42.5	17.2	9.73e-03	0	40	0	369098752	51	4523
2026-01-13 14:29:26.80	170.00	11.65	-40.6	-42.3	17.4	0.00e+00	0	40	0	380633088	51	4432
2026-01-13 14:29:27.37	170.01	11.70	-40.7	-42.4	17.3	0.00e+00	0	40	0	384827392	51	4486
2026-01-13 14:29:29.27	170.05	11.88	-40.6	-42.3	17.4	0.00e+00	0	40	0	399507456	51	4426
2026-01-13 14:29:29.83	170.07	11.93	-40.6	-42.2	17.5	0.00e+00	0	40	0	402653184	51	4389
2026-01-13 14:29:31.54	170.11	12.09	-40.5	-42.2	17.6	0.00e+00	0	40	0	415236096	51	4356
2026-01-13 14:29:32.11	170.12	12.14	-40.6	-42.3	17.4	0.00e+00	0	40	0	419430400	51	4411
2026-01-13 14:29:33.88	170.17	12.31	-40.8	-42.4	17.3	0.00e+00	0	40	0	432013312	51	4469
2026-01-13 14:29:34.44	170.18	12.37	-40.8	-42.5	17.3	0.00e+00	0	40	0	436207616	51	4512
2026-01-13 14:29:36.15	170.22	12.53	-40.8	-42.4	17.3	0.00e+00	0	41	0	448790528	51	4477
2026-01-13 14:29:36.72	170.24	12.58	-40.6	-42.2	17.6	0.00e+00	0	41	0	452984832	51	4360
2026-01-13 14:29:38.51	170.28	12.76	-40.5	-42.0	17.7	0.00e+00	0	41	0	465567744	51	4282
2026-01-13 14:29:39.07	170.29	12.81	-40.3	-41.9	17.8	0.00e+00	0	40	0	469762048	51	4220
2026-01-13 14:29:40.78	170.34	12.98	-40.4	-42.0	17.8	0.00e+00	0	40	0	482344960	51	4246
2026-01-13 14:29:41.35	170.35	13.03	-40.5	-42.0	17.7	0.00e+00	0	40	0	486539264	51	4281
2026-01-13 14:29:43.06	170.40	13.20	-40.3	-41.8	18.0	0.00e+00	0	40	0	498073600	51	4185
2026-01-13 14:29:43.62	170.41	13.26	-40.3	-41.9	17.9	0.00e+00	0	41	0	502267904	51	4211
2026-01-13 14:29:45.33	170.45	13.43	-40.3	-41.8	17.9	0.00e+00	0	41	0	514850816	51	4191
2026-01-13 14:29:45.90	170.47	13.49	-40.3	-41.8	18.0	0.00e+00	0	41	0	519045120	51	4172
2026-01-13 14:29:47.61	170.51	13.66	-40.2	-41.8	18.0	0.00e+00	0	40	0	531628032	51	4157
2026-01-13 14:29:48.18	170.53	13.71	-40.2	-41.8	18.0	0.00e+00	0	40	0	535822336	51	4152
2026-01-13 14:29:49.88	170.57	13.89	-40.1	-41.7	18.1	0.00e+00	0	40	0	547356672	50	4350
2026-01-13 14:29:50.45	170.59	13.94	-40.3	-41.8	18.0	0.00e+00	0	40	0	551550976	50	4407
2026-01-13 14:29:52.15	170.64	14.12	-40.2	-41.7	18.1	0.00e+00	0	40	0	564133888	50	4362
2026-01-13 14:29:52.72	170.65	14.18	-40.2	-41.7	18.1	0.00e+00	0	41	0	568328192	50	4358
2026-01-13 14:29:54.46	170.70	14.36	-40.2	-41.7	18.1	0.00e+00	0	40	0	580911104	50	4362
2026-01-13 14:29:55.03	170.72	14.42	-40.1	-41.6	18.1	0.00e+00	0	41	0	585105408	50	4337
2026-01-13 14:29:56.73	170.76	14.59	-40.1	-41.6	18.2	0.00e+00	0	41	0	597688320	50	4325
2026-01-13 14:29:57.30	170.78	14.65	-39.9	-41.4	18.3	0.00e+00	0	41	0	600834048	50	4219
2026-01-13 14:29:59.07	170.83	14.84	-40.1	-41.6	18.1	0.00e+00	0	41	0	614465536	50	4328
2026-01-13 14:29:59.63	170.84	14.90	-40.1	-41.6	18.1	0.00e+00	0	41	0	618659840	50	4302
2026-01-13 14:30:01.34	170.89	15.08	-40.3	-41.8	18.0	0.00e+00	0	41	0	630194176	50	4414
2026-01-13 14:30:02.05	170.91	15.16	-40.2	-41.7	18.1	0.00e+00	0	41	0	635437056	50	4370
2026-01-13 14:30:03.33	170.95	15.29	-40.2	-41.7	18.0	0.00e+00	0	41	0	644874240	50	4391
2026-01-13 14:30:04.04	170.97	15.37	-40.0	-41.4	18.3	0.00e+00	0	41	0	650117120	50	4242
2026-01-13 14:30:05.32	171.01	15.51	-40.2	-41.7	18.1	0.00e+00	0	41	0	659554304	50	4347
2026-01-13 14:30:06.04	171.03	15.59	-40.1	-41.6	18.2	0.00e+00	0	41	0	664797184	50	4305
2026-01-13 14:30:07.32	171.07	15.73	-40.0	-41.5	18.3	0.00e+00	0	41	0	674234368	50	4262
2026-01-13 14:30:08.05	171.09	15.81	-40.0	-41.4	18.3	0.00e+00	0	41	0	678428672	50	4238
2026-01-13 14:30:09.42	171.13	15.96	-40.0	-41.4	18.3	0.00e+00	0	41	0	688914432	50	4235
2026-01-13 14:30:10.13	171.15	16.04	-39.9	-41.3	18.4	0.00e+00	0	41	0	694157312	50	4187
2026-01-13 14:30:11.48	171.20	16.19	-39.9	-41.4	18.4	0.00e+00	0	41	0	703594496	50	4210
2026-01-13 14:30:12.19	171.22	16.27	-39.9	-41.4	18.4	0.00e+00	0	41	0	708837376	50	4209
2026-01-13 14:30:13.53	171.26	16.42	-39.9	-41.3	18.5	0.00e+00	0	40	0	718274560	50	4173
2026-01-13 14:30:14.24	171.28	16.50	-39.8	-41.3	18.5	0.00e+00	0	41	0	723517440	50	4156
2026-01-13 14:30:15.52	171.32	16.64	-39.9	-41.3	18.4	0.00e+00	0	41	0	732954624	50	4184
2026-01-13 14:30:16.25	171.35	16.72	-39.8	-41.2	18.5	0.00e+00	0	41	0	738197504	50	4144
2026-01-13 14:30:17.53	171.39	16.87	-39.7	-41.1	18.7	0.00e+00	0	41	0	747634688	50	4073
2026-01-13 14:30:18.25	171.41	16.95	-39.7	-41.1	18.7	0.00e+00	0	41	0	752877568	50	4057
2026-01-13 14:30:19.53	171.45	17.10	-39.8	-41.2	18.6	0.00e+00	0	41	0	761266176	50	4106
2026-01-13 14:30:20.24	171.47	17.18	-39.8	-41.2	18.6	0.00e+00	0	41	0	766509056	50	4109
2026-01-13 14:30:21.52	171.52	17.33	-39.7	-41.1	18.6	0.00e+00	0	41	0	775946240	50	4094
2026-01-13 14:30:22.24	171.54	17.42	-40.1	-41.5	18.3	0.00e+00	0	41	0	781189120	50	4291
2026-01-13 14:30:23.51	171.58	17.57	-39.8	-41.2	18.5	0.00e+00	0	41	0	790626304	50	4130
2026-01-13 14:30:24.24	171.61	17.65	-39.9	-41.4	18.4	0.00e+00	0	41	0	795869184	50	4202
2026-01-13 14:30:25.52	171.65	17.81	-39.7	-41.2	18.6	0.00e+00	0	41	0	805306368	50	4122
2026-01-13 14:30:26.24	171.67	17.89	-39.7	-41.2	18.6	0.00e+00	0	41	0	810549248	50	4105
2026-01-13 14:30:27.52	171.72	18.05	-39.7	-41.1	18.6	0.00e+00	0	41	0	819986432	49	4327
2026-01-13 14:30:28.23	171.74	18.13	-39.6	-41.0	18.7	0.00e+00	0	41	0	824180736	49	4270
2026-01-13 14:30:29.51	171.79	18.29	-39.7	-41.1	18.6	0.00e+00	0	41	0	833617920	49	4334
2026-01-13 14:30:30.24	171.81	18.37	-39.6	-41.1	18.7	0.00e+00	0	41	0	838860800	49	4294
2026-01-13 14:30:31.52	171.86	18.53	-39.4	-40.8	18.9	0.00e+00	0	41	0	848297984	49	4186
2026-01-13 14:30:32.23	171.88	18.62	-39.3	-40.7	19.0	0.00e+00	0	41	0	853540864	49	4122
2026-01-13 14:30:33.50	171.93	18.78	-39.6	-41.0	18.7	0.00e+00	0	41	0	862978048	49	4268
2026-01-13 14:30:34.22	171.96	18.86	-39.5	-41.0	18.7	0.00e+00	0	41	0	868220928	49	4270
2026-01-13 14:30:35.62	172.01	19.04	-39.4	-40.8	18.9	0.00e+00	0	41	0	877658112	49	4179
2026-01-13 14:30:36.33	172.03	19.13	-39.5	-40.9	18.8	0.00e+00	0	41	0	882900992	49	4236
2026-01-13 14:30:37.61	172.08	19.29	-39.5	-40.9	18.7	0.00e+00	0	41	0	892338176	49	4242
2026-01-13 14:30:38.65	172.12	19.42	-39.2	-40.7	19.0	0.00e+00	0	41	0	899678208	49	4102
2026-01-13 14:30:39.90	172.17	19.58	-39.2	-40.6	19.0	0.00e+00	0	41	0	909115392	49	4090
2026-01-13 14:30:40.83	172.20	19.70	-38.9	-40.4	19.3	0.00e+00	0	41	0	915406848	48	4201
2026-01-13 14:30:41.83	172.24	19.83	-38.9	-40.3	19.3	0.00e+00	0	41	0	922746880	48	4162
2026-01-13 14:30:42.82	172.28	19.96	-38.7	-40.1	19.1	0.00e+00	0	41	0	930086912	48	4095
2026-01-13 14:30:43.82	172.32	20.09	-38.8	-40.2	19.4	0.00e+00	0	41	0	937426944	48	4102
2026-01-13 14:30:44.81	172.35	20.22	-38.9	-40.3	19.3	0.00e+00	0	41	0	944766976	48	4166
2026-01-13 14:30:45.80	172.39	20.35	-38.6	-40.0	19.6	0.00e+00	0	41	0	951058432	48	4035
2026-01-13 14:30:46.80	172.43	20.48	-38.7	-40.1	19.5	0.00e+00	0	41	0	958398464	48	4057
2026-01-13 14:30:47.79	172.47	20.61	-38.6	-40.0	19.6	0.00e+00	0	41	0	965738496	48	4018
2026-01-13 14:30:48.79	172.51	20.75	-38.8	-40.2	19.5	0.00e+00	0	41	0	973078528	48	4106
2026-01-13 14:30:49.78	172.55	20.88	-38.6	-40.1	19.3	0.00e+00	0	41	0	980418560	47	4295
2026-01-13 14:30:50.83	172.60	21.02	-38.5	-39.9	19.4	0.00e+00	0	41	0	987758592	47	4224
2026-01-13 14:30:51.82	172.64	21.15	-38.5	-40.0	19.4	0.00e+00	0	41	0	995098624	47	4256
2026-01-13 14:30:52.82	172.68	21.29	-38.6	-40.1	19.3	0.00e+00	0	41	0	1002438656	47	4305
2026-01-13 14:30:53.81	172.72	21.43	-38.5	-40.0	19.3	0.00e+00	0	41	0	1009778688	47	4281
2026-01-13 14:30:54.81	172.76	21.56	-38.5	-40.0	19.3	0.00e+00	0	41	0	1016070144	47	4276
2026-01-13 14:30:55.80	172.81	21.70	-38.5	-40.0	19.4	0.00e+00	0	41	0	1023410176	47	4249
2026-01-13 14:30:56.80	172.85	21.84	-38.5	-40.0	19.3	0.00e+00	0	41	0	1030750208	47	4258
2026-01-13 14:30:58.03	172.90	22.01	-38.5	-40.0	19.3	0.00e+00	0	41	0	1040187392	47	4247
2026-01-13 14:30:58.88	172.94	22.13	-38.4	-39.9	19.4	0.00e+00	0	41	0	1045430272	47	4242
2026-01-13 14:31:00.02	172.99	22.30	-38.5	-40.0	19.4	0.00e+00	0	41	0	1053818880	47	4252
2026-01-13 14:31:00.87	173.03	22.42	-38.4	-39.9	19.4	0.00e+00	0	41	0	1060110336	47	4240
2026-01-13 14:31:02.01	173.08	22.58	-38.4	-39.9	19.4	0.00e+00	0	41	0	1068498944	47	4214
2026-01-13 14:31:02.86	173.12	22.70	-38.4	-39.9	19.4	0.00e+00	0	41	0	1074790400	47	4230
2026-01-13 14:31:04.00	173.17	22.87	-38.4	-40.0	19.4	0.00e+00	0	41	0	1083179008	47	4250
2026-01-13 14:31:04.85	173.21	22.99	-38.5	-40.1	19.3	0.00e+00	0	41	0	1088421888	47	4309
2026-01-13 14:31:05.99	173.26	23.16	-38.5	-40.1	19.3	0.00e+00	0	41	0	1096810496	47	4301
2026-01-13 14:31:06.84	173.30	23.28	-38.4	-39.9	19.4	0.00e+00	0	41	0	1103101952	47	4240
2026-01-13 14:31:07.97	173.36	23.45	-38.4	-39.9	19.4	0.00e+00	0	41	0	1111490560	47	4237
2026-01-13 14:31:08.82	173.40	23.58	-38.4	-39.9	19.5	0.00e+00	0	41	0	1117782016	47	4212
2026-01-13 14:31:10.02	173.45	23.76	-38.5	-40.1	19.3	0.00e+00	0	41	0	1126170624	47	4314
2026-01-13 14:31:10.88	173.50	23.89	-38.4	-39.9	19.5	0.00e+00	0	41	0	1132462080	47	4221
2026-01-13 14:31:12.09	173.56	24.07	-38.4	-39.9	19.5	0.00e+00	0	41	0	1140850688	47	4218
2026-01-13 14:31:12.94	173.60	24.20	-38.3	-39.8	19.6	0.00e+00	0	41	0	1147142144	47	4174
2026-01-13 14:31:14.13	173.66	24.38	-38.5	-40.0	19.4	0.00e+00	0	41	0	1155530752	47	4269
2026-01-13 14:31:14.98	173.70	24.51	-38.5	-40.0	19.4	0.00e+00	0	41	0	1161822208	47	4258
2026-01-13 14:31:16.12	173.76	24.69	-38.4	-39.9	19.5	0.00e+00	0	41	0	1170210816	47	4213
2026-01-13 14:31:16.97	173.80	24.82	-38.4	-39.9	19.5	0.00e+00	0	41	0	1176502272	47	4210
2026-01-13 14:31:18.11	173.86	25.00	-38.4	-39.9	19.5	0.00e+00	0	41	0	1184890880	47	4223
2026-01-13 14:31:18.96	173.91	25.14	-38.5	-40.0	19.4	0.00e+00	0	41	0	1191182336	47	4287
2026-01-13 14:31:20.10	173.97	25.32	-38.4	-39.9	19.6	0.00e+00	0	41	0	1198522368	47	4199
2026-01-13 14:31:21.05	174.02	25.47	-38.4	-39.9	19.6	0.00e+00	0	41	0	1205862400	47	4198
2026-01-13 14:31:22.04	174.07	25.63	-38.5	-40.0	19.5	0.00e+00	0	41	0	1213202432	47	4267
2026-01-13 14:31:23.04	174.13	25.79	-38.3	-39.7	19.7	0.00e+00	0	41	0	1220542464	47	4140
2026-01-13 14:31:24.03	174.18	25.95	-38.2	-39.6	19.8	0.00e+00	0	41	0	1227882496	47	4080
2026-01-13 14:31:25.03	174.24	26.12	-38.2	-39.6	19.8	0.00e+00	0	41	0	1234173952	47	4087
2026-01-13 14:31:26.02	174.29	26.28	-38.2	-39.6	19.8	0.00e+00	0	41	0	1241513984	47	4073
2026-01-13 14:31:27.02	174.35	26.44	-38.0	-39.4	20.0	0.00e+00	0	41	0	1248854016	46	4233
2026-01-13 14:31:28.01	174.40	26.61	-38.0	-39.4	20.1	0.00e+00	0	41	0	1256194048	46	4202
2026-01-13 14:31:29.01	174.46	26.78	-38.0	-39.4	20.0	0.00e+00	0	41	0	1263534080	46	4223
2026-01-13 14:31:30.00	174.52	26.94	-37.9	-39.3	20.1	0.00e+00	0	41	0	1269825536	46	4166
2026-01-13 14:31:31.00	174.58	27.11	-38.1	-39.4	20.0	0.00e+00	0	41	0	1277165568	46	4233
2026-01-13 14:31:31.99	174.64	27.28	-37.9	-39.3	20.1	0.00e+00	0	41	0	1284505600	46	4164
2026-01-13 14:31:32.99	174.70	27.45	-38.0	-39.3	20.1	0.00e+00	0	41	0	1291845632	46	4169
2026-01-13 14:31:33.98	174.76	27.63	-37.8	-39.1	20.3	0.00e+00	0	41	0	1299185664	46	4068
2026-01-13 14:31:34.98	174.82	27.80	-37.9	-39.2	20.2	0.00e+00	0	41	0	1306525696	46	4134
2026-01-13 14:31:35.97	174.88	27.97	-37.8	-39.2	20.2	0.00e+00	0	41	0	1313865728	46	4103
2026-01-13 14:31:36.97	174.94	28.15	-37.7	-39.0	20.3	0.00e+00	0	41	0	1321205760	46	4034
2026-01-13 14:31:37.96	175.01	28.32	-37.6	-38.9	20.4	0.00e+00	0	41	0	1328545792	46	3980
2026-01-13 14:31:38.96	175.07	28.50	-37.7	-39.0	20.2	0.00e+00	0	41	0	1334837248	46	4042
2026-01-13 14:31:39.95	175.13	28.68	-37.6	-38.9	20.4	0.00e+00	0	41	0	1342177280	45	4213
2026-01-13 14:31:40.95	175.20	28.86	-37.6	-38.9	20.4	0.00e+00	0	41	0	1349517312	45	4225
2026-01-13 14:31:41.94	175.26	29.04	-37.7	-39.0	20.3	0.00e+00	0	41	0	1356857344	45	4263
2026-01-13 14:31:42.94	175.33	29.22	-37.6	-39.0	20.3	0.00e+00	0	41	0	1364197376	45	4251
2026-01-13 14:31:43.93	175.40	29.40	-37.8	-39.1	20.2	0.00e+00	0	41	0	1371537408	45	4317
2026-01-13 14:31:44.93	175.47	29.59	-37.6	-39.0	20.2	0.00e+00	0	41	0	1377828864	45	4265
2026-01-13 14:31:45.92	175.53	29.77	-37.7	-39.1	20.2	0.00e+00	0	41	0	1385168896	45	4314
2026-01-13 14:31:46.92	175.60	29.96	-37.7	-39.1	20.1	0.00e+00	0	41	0	1392508928	45	4319
2026-01-13 14:31:47.96	175.68	30.16	-37.7	-39.1	20.2	0.00e+00	0	41	0	1399848960	45	4302
2026-01-13 14:31:48.93	175.75	30.34	-37.7	-39.1	20.1	0.00e+00	0	41	0	1407188992	45	4321
2026-01-13 14:31:49.98	175.82	30.54	-37.6	-39.0	20.2	0.00e+00	0	41	0	1414529024	45	4262
2026-01-13 14:31:50.91	175.89	30.72	-37.6	-39.0	20.2	0.00e+00	0	41	0	1421869056	45	4287
2026-01-13 14:31:51.90	175.96	30.91	-37.8	-39.2	20.0	0.00e+00	0	41	0	1428160512	45	4374
2026-01-13 14:31:52.90	176.04	31.11	-37.8	-39.3	20.0	0.00e+00	0	41	0	1435500544	45	4400
2026-01-13 14:31:53.89	176.11	31.30	-37.8	-39.3	20.0	0.00e+00	0	41	0	1442840576	45	4397
2026-01-13 14:31:54.89	176.19	31.50	-37.8	-39.3	19.9	0.00e+00	0	41	0	1450180608	45	4409
2026-01-13 14:31:55.88	176.26	31.69	-37.9	-39.5	19.8	0.00e+00	0	41	0	1457520640	45	4499
2026-01-13 14:31:56.88	176.34	31.89	-38.0	-39.5	19.8	0.00e+00	0	41	0	1464860672	45	4516
2026-01-13 14:31:57.87	176.42	32.09	-38.1	-39.7	19.6	0.00e+00	0	41	0	1472200704	45	4609
2026-01-13 14:31:58.86	176.50	32.29	-38.2	-39.8	19.5	0.00e+00	0	41	0	1478492160	45	4655
2026-01-13 14:31:59.86	176.58	32.49	-38.1	-39.6	19.6	0.00e+00	0	41	0	1485832192	45	4598
2026-01-13 14:32:00.86	176.66	32.70	-38.2	-39.7	19.6	0.00e+00	0	41	0	1493172224	45	4643
2026-01-13 14:32:01.85	176.74	32.90	-38.2	-39.7	19.7	0.00e+00	0	41	0	1500512256	46	4360
2026-01-13 14:32:02.92	176.83	33.13	-38.1	-39.7	19.7	0.00e+00	0	41	0	1507852288	46	4343
2026-01-13 14:32:03.83	176.91	33.32	-38.1	-39.6	19.8	0.00e+00	0	41	0	1515192320	46	4302
2026-01-13 14:32:04.84	177.00	33.53	-38.0	-39.5	19.9	0.00e+00	0	41	0	1521483776	46	4264
2026-01-13 14:32:05.83	177.08	33.74	-38.1	-39.5	19.9	0.00e+00	0	41	0	1528823808	46	4277
2026-01-13 14:32:06.82	177.17	33.95	-38.0	-39.4	20.0	0.00e+00	0	41	0	1536163840	46	4225
2026-01-13 14:32:07.82	177.26	34.16	-37.9	-39.3	20.1	0.00e+00	0	41	0	1543503872	46	4185
2026-01-13 14:32:08.81	177.35	34.38	-37.9	-39.3	20.1	0.00e+00	0	41	0	1550843904	46	4168
2026-01-13 14:32:09.81	177.44	34.59	-37.8	-39.2	20.2	0.00e+00	0	41	0	1558183936	46	4122
2026-01-13 14:32:10.81	177.53	34.81	-37.8	-39.1	20.3	0.00e+00	0	41	0	1564475392	46	4081
2026-01-13 14:32:11.80	177.63	35.03	-37.8	-39.2	20.2	0.00e+00	0	41	0	1571815424	46	4116
2026-01-13 14:32:12.79	177.72	35.25	-37.7	-39.0	20.3	0.00e+00	0	41	0	1579155456	46	4048
2026-01-13 14:32:13.78	177.82	35.47	-37.5	-38.8	20.5	0.00e+00	0	41	0	1586495488	45	4186
2026-01-13 14:32:14.78	177.91	35.70	-37.6	-38.9	20.4	0.00e+00	0	41	0	1593835520	45	4214
2026-01-13 14:32:15.77	178.01	35.92	-37.4	-38.7	20.5	0.00e+00	0	41	0	1601175552	45	4137
2026-01-13 14:32:16.77	178.11	36.15	-37.4	-38.8	20.5	0.00e+00	0	41	0	1608515584	45	4146
2026-01-13 14:32:17.76	178.21	36.37	-37.3	-38.6	20.6	0.00e+00	0	41	0	1615855616	45	4088
2026-01-13 14:32:18.84	178.32	36.62	-37.5	-38.9	20.4	0.00e+00	0	41	0	1623195648	45	4194
2026-01-13 14:32:19.73	178.42	36.83	-37.7	-39.0	20.2	0.00e+00	0	41	0	1629487104	45	4285
2026-01-13 14:32:21.00	178.55	37.13	-37.8	-39.2	20.1	0.00e+00	0	41	0	1638924288	45	4370
2026-01-13 14:32:21.79	178.63	37.31	-37.9	-39.4	19.9	0.00e+00	0	41	0	1644167168	45	4450
2026-01-13 14:32:22.98	178.76	37.59	-38.0	-39.5	19.8	0.00e+00	0	41	0	1652555776	45	4521
2026-01-13 14:32:23.84	178.86	37.80	-38.1	-39.7	19.7	0.00e+00	0	41	0	1658847232	45	4600
2026-01-13 14:32:24.97	178.99	38.07	-38.2	-39.7	19.7	0.00e+00	0	41	0	1667235840	46	4348
2026-01-13 14:32:25.82	179.08	38.28	-38.3	-39.8	19.5	0.00e+00	0	41	0	1673527296	46	4431
2026-01-13 14:32:26.96	179.21	38.55	-38.2	-39.7	19.7	0.00e+00	0	41	0	1681915904	46	4383
2026-01-13 14:32:27.81	179.31	38.76	-38.4	-39.9	19.6	0.00e+00	0	41	0	1688207360	46	4462
2026-01-13 14:32:28.95	179.45	39.04	-38.4	-39.9	19.6	0.00e+00	0	41	0	1695547392	46	4457
2026-01-13 14:32:29.80	179.55	39.25	-38.4	-39.9	19.6	0.00e+00	0	41	0	1701838848	46	4466
2026-01-13 14:32:30.94	179.69	39.54	-38.3	-39.8	19.7	0.00e+00	0	41	0	1710227456	46	4429
2026-01-13 14:32:31.79	179.80	39.75	-38.4	-39.9	19.7	0.00e+00	0	41	0	1716518912	46	4447
2026-01-13 14:32:32.92	179.94	40.04	-38.6	-40.1	19.5	0.00e+00	0	41	0	1724907520	46	4569
2026-01-13 14:32:33.78	180.05	40.26	-38.3	-39.8	19.7	0.00e+00	0	41	0	1731198976	46	4406
2026-01-13 14:32:34.92	180.20	40.55	-38.4	-39.8	19.7	0.00e+00	0	41	0	1739587584	46	4431
2026-01-13 14:32:35.77	180.31	40.77	-38.4	-39.8	19.8	0.00e+00	0	41	0	1744830464	46	4399
2026-01-13 14:32:37.00	180.47	41.09	-38.2	-39.6	20.0	0.00e+00	0	41	0	1754267648	46	4293
2026-01-13 14:32:37.85	180.59	41.31	-38.2	-39.5	20.0	0.00e+00	0	41	0	1760559104	46	4291
2026-01-13 14:32:39.07	180.76	41.64	-38.3	-39.7	19.8	0.00e+00	0	41	0	1768947712	46	4361
2026-01-13 14:32:39.92	180.88	41.86	-38.2	-39.5	20.0	0.00e+00	0	41	0	1775239168	46	4275
2026-01-13 14:32:41.12	181.05	42.18	-38.3	-39.7	19.8	0.00e+00	0	41	0	1783627776	46	4364
2026-01-13 14:32:41.97	181.17	42.41	-38.3	-39.7	19.8	0.00e+00	0	41	0	1789919232	46	4359
2026-01-13 14:32:43.11	181.34	42.72	-38.4	-39.8	19.7	0.00e+00	0	41	0	1798307840	46	4428
2026-01-13 14:32:43.97	181.47	42.95	-38.3	-39.7	19.7	0.00e+00	0	41	0	1804599296	46	4381
2026-01-13 14:32:45.10	181.64	43.26	-38.4	-39.9	19.6	0.00e+00	0	41	0	1812987904	46	4449
2026-01-13 14:32:45.99	181.78	43.51	-38.3	-39.7	19.8	0.00e+00	0	41	0	1819279360	46	4372
2026-01-13 14:32:47.12	181.96	43.82	-38.4	-39.8	19.6	0.00e+00	0	41	0	1827667968	46	4411
2026-01-13 14:32:47.98	182.10	44.06	-38.6	-40.0	19.5	0.00e+00	0	41	0	1832910848	46	4509
2026-01-13 14:32:49.11	182.29	44.38	-38.7	-40.1	19.4	0.00e+00	0	41	0	1841299456	46	4597
2026-01-13 14:32:49.97	182.43	44.63	-38.4	-39.8	19.7	0.00e+00	0	41	0	1847590912	47	4150
2026-01-13 14:32:51.10	182.62	44.95	-38.4	-39.8	19.7	0.00e+00	0	41	0	1855979520	47	4158
2026-01-13 14:32:52.19	182.81	45.26	-38.9	-39.9	20.0	0.00e+00	0	41	0	1863319552	47	4227
2026-01-13 14:32:53.22	182.99	45.56	-38.9	-39.9	20.0	0.00e+00	0	41	0	1871708160	47	4233
2026-01-13 14:32:54.39	183.20	45.90	-39.2	-40.2	19.8	0.00e+00	0	41	0	1880096768	47	4361
2026-01-13 14:32:55.24	183.36	46.15	-39.2	-40.1	20.1	0.00e+00	0	41	0	1885339648	48	4091
2026-01-13 14:32:56.38	183.57	46.48	-39.2	-40.2	20.1	0.00e+00	0	41	0	1893728256	48	4111
2026-01-13 14:32:57.23	183.73	46.73	-39.4	-40.4	19.9	0.00e+00	0	41	0	1900019712	48	4195
2026-01-13 14:32:58.37	183.95	47.07	-39.6	-40.6	19.7	0.00e+00	0	41	0	1908408320	48	4298
2026-01-13 14:32:59.22	184.12	47.33	-39.6	-40.6	19.7	0.00e+00	0	41	0	1914699776	48	4324
2026-01-13 14:33:00.36	184.35	47.67	-39.8	-40.9	19.5	0.00e+00	0	41	0	1923088384	49	4199
2026-01-13 14:33:01.21	184.52	47.93	-39.8	-40.8	19.5	0.00e+00	0	41	0	1929379840	49	4187
2026-01-13 14:33:02.35	184.76	48.28	-40.0	-41.1	19.3	0.00e+00	0	41	0	1936719872	49	4300
2026-01-13 14:33:03.20	184.94	48.54	-40.2	-41.3	19.1	0.00e+00	0	41	0	1943011328	49	4424
2026-01-13 14:33:04.34	185.18	48.89	-40.2	-41.2	19.1	0.00e+00	0	41	0	1951399936	50	4143
2026-01-13 14:33:05.19	185.37	49.15	-40.3	-41.4	18.9	0.00e+00	0	41	0	1957691392	50	4224
2026-01-13 14:33:06.33	185.63	49.51	-40.0	-41.0	19.4	0.00e+00	0	42	0	1966080000	50	4024
2026-01-13 14:33:07.18	185.82	49.78	-40.0	-41.0	19.4	0.00e+00	0	41	0	1972371456	50	4013
2026-01-13 14:33:08.40	186.11	50.16	-39.9	-40.9	19.5	0.00e+00	0	41	0	1980760064	50	3977
2026-01-13 14:33:09.25	186.31	50.43	-40.1	-41.1	19.2	0.00e+00	0	41	0	1987051520	50	4090
2026-01-13 14:33:10.39	186.59	50.79	-40.7	-41.8	18.6	0.00e+00	0	41	0	1995440128	50	4407
2026-01-13 14:33:11.24	186.81	51.07	-40.3	-41.4	19.0	0.00e+00	0	41	0	2001731584	50	4198
2026-01-13 14:33:12.38	187.10	51.43	-40.3	-41.4	19.0	0.00e+00	0	41	0	2009071616	50	4212
2026-01-13 14:33:13.23	187.32	51.71	-40.2	-41.3	19.1	0.00e+00	0	41	0	2015363072	50	4163
2026-01-13 14:33:14.57	187.68	52.14	-40.2	-41.3	19.1	0.00e+00	0	41	0	2025848832	50	4158
2026-01-13 14:33:15.28	187.87	52.38	-39.9	-40.9	19.5	0.00e+00	0	41	0	2030043136	49	4216
2026-01-13 14:33:16.56	188.23	52.80	-40.1	-41.2	19.2	0.00e+00	0	41	0	2039480320	50	4108
2026-01-13 14:33:17.27	188.43	53.03	-40.0	-41.0	19.4	0.00e+00	0	41	0	2044723200	50	4034
2026-01-13 14:33:18.55	188.80	53.46	-39.9	-40.9	19.5	0.00e+00	0	41	0	2054160384	50	3989
2026-01-13 14:33:19.28	189.02	53.70	-39.8	-40.9	19.5	0.00e+00	0	41	0	2059403264	50	3965
2026-01-13 14:33:20.56	189.41	54.13	-40.4	-41.5	18.9	0.00e+00	0	41	0	2068840448	51	4027
2026-01-13 14:33:21.28	189.64	54.37	-40.2	-41.3	19.1	0.00e+00	0	41	0	2074083328	50	4155
2026-01-13 14:33:22.56	190.05	54.80	-40.1	-41.1	19.3	0.00e+00	0	41	0	2083520512	50	4063
2026-01-13 14:33:23.27	190.28	55.04	-40.1	-41.1	19.2	0.00e+00	0	41	0	2087714816	50	4093
2026-01-13 14:33:24.55	190.71	55.47	-40.3	-41.3	19.1	0.00e+00	0	41	0	2097152000	50	4163
2026-01-13 14:33:25.26	190.95	55.72	-39.8	-40.8	19.5	0.00e+00	0	41	0	2102394880	50	3921
2026-01-13 14:33:26.57	191.41	56.16	-39.9	-40.9	19.4	0.00e+00	0	41	0	2111832064	50	4003
2026-01-13 14:33:27.28	191.67	56.41	-40.2	-41.3	19.1	0.00e+00	0	41	0	2117074944	50	4167
2026-01-13 14:33:28.62	192.16	56.87	-40.4	-41.4	18.9	0.00e+00	0	41	0	2126512128	50	4242
2026-01-13 14:33:29.33	192.43	57.11	-40.3	-41.3	19.1	0.00e+00	0	41	0	2131755008	50	4179
2026-01-13 14:33:30.67	192.95	57.58	-40.2	-41.3	19.2	0.00e+00	0	41	0	2141192192	50	4158
2026-01-13 14:33:31.38	193.23	57.82	-39.1	-40.0	20.1	0.00e+00	0	41	0	2146435072	49	3814
2026-01-13 14:33:32.74	193.79	58.29	-40.1	-41.1	19.3	0.00e+00	0	41	0	2156920832	50	4071
2026-01-13 14:33:33.45	194.09	58.54	-40.0	-41.1	19.3	0.00e+00	0	41	0	2161115136	50	4064
2026-01-13 14:33:34.78	194.66	59.01	-39.9	-40.9	19.5	0.00e+00	0	41	0	2171600896	50	3977
2026-01-13 14:33:35.49	194.98	59.25	-39.8	-40.8	19.6	0.00e+00	0	41	0	2175795200	50	3947
2026-01-13 14:33:36.85	195.60	59.73	-39.9	-40.9	19.2	0.00e+00	0	41	0	2186280960	49	4242
2026-01-13 14:33:37.56	195.93	59.98	-39.6	-40.6	19.7	0.00e+00	0	41	0	2191523840	49	4082
2026-01-13 14:33:38.84	196.55	60.43	-39.6	-40.6	19.7	0.00e+00	0	41	0	2200961024	49	4072
2026-01-13 14:33:39.55	196.90	60.67	-39.6	-40.6	19.7	0.00e+00	0	41	0	2205155328	49	4058
2026-01-13 14:33:40.83	197.55	61.12	-39.4	-40.4	19.9	0.00e+00	0	41	0	2214592512	49	3976
2026-01-13 14:33:41.56	197.93	61.38	-39.6	-40.6	19.6	0.00e+00	0	41	0	2219835392	49	4077
2026-01-13 14:33:42.84	198.62	61.83	-39.4	-40.4	19.9	0.00e+00	0	41	0	2229272576	48	4195
2026-01-13 14:33:43.56	199.02	62.08	-39.4	-40.3	20.0	0.00e+00	0	41	0	2234515456	48	4192
2026-01-13 14:33:44.84	199.75	62.52	-39.1	-40.0	20.2	0.00e+00	0	41	0	2243952640	48	4031
2026-01-13 14:33:45.55	200.16	62.77	-39.0	-39.9	20.4	0.00e+00	0	41	0	2249195520	48	3990
2026-01-13 14:33:46.83	200.93	63.22	-39.0	-40.0	20.3	0.00e+00	0	42	0	2258632704	48	4011
2026-01-13 14:33:47.65	201.44	63.50	-39.1	-40.0	20.2	0.00e+00	0	41	0	2263875584	48	4041
2026-01-13 14:33:49.11	202.38	64.00	-38.9	-39.9	20.4	0.00e+00	0	41	0	2274361344	48	3969
2026-01-13 14:33:49.81	202.84	64.24	-39.0	-39.9	20.3	0.00e+00	0	42	0	2279604224	48	3993
2026-01-13 14:33:51.11	203.73	64.69	-39.0	-40.0	20.3	0.00e+00	0	41	0	2289041408	48	4014
2026-01-13 14:33:51.82	204.23	64.93	-38.9	-39.9	20.4	0.00e+00	0	41	0	2294284288	48	3971
2026-01-13 14:33:53.10	205.16	65.36	-38.7	-39.6	20.3	0.00e+00	0	41	0	2303721472	47	4079
2026-01-13 14:33:53.83	205.70	65.61	-38.5	-39.4	20.5	0.00e+00	0	41	0	2308964352	47	3987
2026-01-13 14:33:55.10	206.68	66.03	-38.4	-39.4	20.5	0.00e+00	0	41	0	2317352960	47	3973
2026-01-13 14:33:55.81	207.24	66.27	-38.5	-39.4	20.5	0.00e+00	0	41	0	2323644416	47	3997
2026-01-13 14:33:57.09	208.29	66.69	-38.3	-39.2	20.7	0.00e+00	0	41	0	2332033024	47	3896
2026-01-13 14:33:58.01	209.07	66.99	-38.5	-39.4	20.5	0.00e+00	0	42	0	2339373056	47	3984
2026-01-13 14:33:59.01	209.94	67.31	-38.5	-39.4	20.5	0.00e+00	0	41	0	2345664512	47	3995
2026-01-13 14:34:00.00	210.83	67.62	-38.5	-39.5	20.5	0.00e+00	0	41	0	2353004544	47	4016
2026-01-13 14:34:01.00	211.76	67.94	-38.8	-39.8	20.2	0.00e+00	0	42	0	2360344576	47	4149
2026-01-13 14:34:01.99	212.70	68.24	-38.7	-39.7	20.3	0.00e+00	0	42	0	2367684608	47	4109
2026-01-13 14:34:02.99	213.68	68.55	-38.9	-39.9	20.1	0.00e+00	0	42	0	2375024640	47	4230
2026-01-13 14:34:03.98	214.69	68.85	-38.9	-39.9	20.1	0.00e+00	0	41	0	2382364672	47	4220
2026-01-13 14:34:04.98	215.73	69.14	-38.7	-39.7	20.3	0.00e+00	0	41	0	2389704704	47	4120
2026-01-13 14:34:05.97	216.80	69.43	-38.6	-39.5	20.4	0.00e+00	0	41	0	2395996160	47	4045
2026-01-13 14:34:06.97	217.91	69.71	-38.5	-39.4	20.4	0.00e+00	0	42	0	2403336192	47	3992
2026-01-13 14:34:07.98	219.06	69.99	-38.5	-39.4	20.5	0.00e+00	0	42	0	2410676224	47	3999
2026-01-13 14:34:08.98	220.24	70.26	-38.7	-39.6	20.3	0.00e+00	0	42	0	2418016256	47	4091
2026-01-13 14:34:09.97	221.44	70.52	-38.9	-39.8	20.2	0.00e+00	0	41	0	2425356288	47	4182
2026-01-13 14:34:10.96	222.67	70.77	-38.9	-39.9	20.1	0.00e+00	0	42	0	2432696320	47	4239
2026-01-13 14:34:11.96	223.95	71.02	-38.8	-39.8	20.2	0.00e+00	0	41	0	2440036352	47	4182
2026-01-13 14:34:12.95	225.25	71.26	-38.6	-39.6	20.3	0.00e+00	0	42	0	2446327808	47	4078
2026-01-13 14:34:13.95	226.60	71.49	-38.2	-39.1	20.8	0.00e+00	0	41	0	2453667840	47	3839
2026-01-13 14:34:14.94	227.97	71.70	-38.2	-39.2	20.7	0.00e+00	0	42	0	2461007872	46	4104
2026-01-13 14:34:15.94	229.39	71.91	-38.3	-39.2	20.7	0.00e+00	0	41	0	2468347904	46	4129
2026-01-13 14:34:16.94	230.84	72.11	-38.4	-39.4	20.5	0.00e+00	0	41	0	2475687936	46	4216
2026-01-13 14:34:17.93	232.31	72.30	-38.4	-39.4	20.6	0.00e+00	0	42	0	2483027968	46	4199
2026-01-13 14:34:18.93	233.83	72.48	-38.4	-39.4	20.5	0.00e+00	0	41	0	2490368000	46	4217
2026-01-13 14:34:19.93	235.38	72.65	-38.4	-39.3	20.0	0.00e+00	0	41	0	2496659456	46	4183
2026-01-13 14:34:20.92	236.95	72.80	-38.2	-39.1	20.8	0.00e+00	0	41	0	2503999488	46	4083
2026-01-13 14:34:21.93	238.57	72.94	-38.3	-39.3	20.7	0.00e+00	0	42	0	2511339520	46	4151
2026-01-13 14:34:22.97	240.28	73.08	-38.5	-39.5	20.5	0.00e+00	0	41	0	2518679552	46	4247
2026-01-13 14:34:23.92	241.86	73.19	-38.6	-39.6	20.4	0.00e+00	0	41	0	2526019584	46	4327
2026-01-13 14:34:24.91	243.52	73.29	-38.2	-39.2	20.7	0.00e+00	0	41	0	2533359616	46	4113
2026-01-13 14:34:25.91	245.23	73.38	-38.2	-39.1	20.8	0.00e+00	0	41	0	2540699648	46	4081
2026-01-13 14:34:26.91	246.95	73.45	-38.2	-39.1	20.8	0.00e+00	0	41	0	2546991104	46	4095
2026-01-13 14:34:27.90	248.67	73.51	-38.3	-39.2	20.7	0.00e+00	0	41	0	2554331136	46	4140
2026-01-13 14:34:28.90	250.42	73.56	-38.5	-39.5	20.5	0.00e+00	0	41	0	2561671168	46	4274
2026-01-13 14:34:29.89	252.16	73.59	-38.6	-39.5	20.4	0.00e+00	0	42	0	2569011200	46	4282
2026-01-13 14:34:30.88	253.91	73.61	-38.5	-39.4	20.4	0.00e+00	0	41	0	2576351232	46	4235
2026-01-13 14:34:31.88	255.67	73.61	-38.4	-39.3	20.6	0.00e+00	0	41	0	2583691264	46	4183
2026-01-13 14:34:32.88	257.44	73.60	-38.3	-39.3	20.7	0.00e+00	0	42	0	2591031296	46	4170
2026-01-13 14:34:33.87	259.18	73.57	-38.3	-39.2	20.7	0.00e+00	0	42	0	2598371328	46	4129
2026-01-13 14:34:34.87	260.93	73.53	-38.4	-39.4	20.6	0.00e+00	0	41	0	2604662784	46	4200
2026-01-13 14:34:35.86	262.66	73.48	-38.6	-39.6	20.2	0.00e+00	0	42	0	2612002816	46	4299
2026-01-13 14:34:36.85	264.37	73.41	-38.5	-39.5	20.5	0.00e+00	0	42	0	2619342848	46	4266
2026-01-13 14:34:37.87	266.11	73.32	-38.4	-39.3	20.7	0.00e+00	0	42	0	2626682880	46	4173
2026-01-13 14:34:38.88	267.82	73.22	-38.3	-39.2	20.7	0.00e+00	0	42	0	2634022912	46	4136
2026-01-13 14:34:39.89	269.51	73.11	-38.4	-39.3	20.6	0.00e+00	0	42	0	2641362944	46	4177
2026-01-13 14:34:40.93	271.21	72.98	-38.5	-39.5	20.5	0.00e+00	0	42	0	2648702976	46	4261
2026-01-13 14:34:41.91	272.80	72.84	-38.6	-39.5	20.4	0.00e+00	0	41	0	2656043008	46	4275
2026-01-13 14:34:42.98	274.50	72.68	-38.5	-39.4	20.6	0.00e+00	0	42	0	2663383040	46	4219
2026-01-13 14:34:43.84	275.84	72.54	-38.3	-39.3	20.7	0.00e+00	0	42	0	2669674496	46	4149
2026-01-13 14:34:44.97	277.56	72.34	-38.5	-39.5	20.4	0.00e+00	0	42	0	2678063104	46	4268
2026-01-13 14:34:45.83	278.85	72.18	-38.4	-39.3	20.6	0.00e+00	0	42	0	2684354560	46	4188
2026-01-13 14:34:46.97	280.52	71.96	-38.5	-39.4	20.5	0.00e+00	0	42	0	2692743168	46	4235
2026-01-13 14:34:47.82	281.73	71.78	-38.5	-39.5	20.5	0.00e+00	0	42	0	2699034624	46	4248
2026-01-13 14:34:48.96	283.32	71.53	-38.4	-39.3	20.6	0.00e+00	0	42	0	2706374656	46	4183
2026-01-13 14:34:49.81	284.47	71.34	-38.4	-39.3	20.6	0.00e+00	0	42	0	2712666112	46	4184
2026-01-13 14:34:50.95	285.98	71.07	-38.6	-39.5	20.5	0.00e+00	0	42	0	2721054720	46	4284
2026-01-13 14:34:51.80	287.08	70.87	-38.6	-39.6	20.4	0.00e+00	0	42	0	2727346176	47	4062
2026-01-13 14:34:52.94	288.51	70.58	-38.9	-39.9	20.1	0.00e+00	0	42	0	2735734784	47	4224
2026-01-13 14:34:53.79	289.54	70.36	-38.7	-39.7	20.3	0.00e+00	0	42	0	2742026240	47	4111
2026-01-13 14:34:54.97	290.94	70.04	-38.5	-39.4	20.5	0.00e+00	0	42	0	2750414848	47	4004
2026-01-13 14:34:55.83	291.93	69.81	-38.6	-39.5	20.5	0.00e+00	0	42	0	2756706304	47	4027
2026-01-13 14:34:56.96	293.19	69.49	-38.4	-39.3	20.6	0.00e+00	0	42	0	2765094912	47	3935
2026-01-13 14:34:57.82	294.12	69.24	-38.4	-39.4	20.6	0.00e+00	0	42	0	2770337792	47	3966
2026-01-13 14:34:59.08	295.44	68.87	-38.3	-39.3	20.6	0.00e+00	0	42	0	2779774976	47	3929
2026-01-13 14:34:59.87	296.25	68.64	-38.5	-39.5	20.4	0.00e+00	0	42	0	2786066432	47	4025
2026-01-13 14:35:01.07	297.43	68.27	-38.6	-39.6	20.4	0.00e+00	0	42	0	2794455040	47	4054
2026-01-13 14:35:01.92	298.25	68.01	-38.4	-39.4	20.6	0.00e+00	0	42	0	2800746496	47	3966
2026-01-13 14:35:03.06	299.31	67.65	-38.4	-39.4	20.6	0.00e+00	0	41	0	2809135104	47	3968
2026-01-13 14:35:03.91	300.07	67.38	-38.4	-39.3	20.7	0.00e+00	0	42	0	2814377984	47	3940
2026-01-13 14:35:05.05	301.07	67.02	-38.5	-39.5	20.5	0.00e+00	0	42	0	2822766592	47	4029
2026-01-13 14:35:05.90	301.79	66.74	-38.5	-39.4	20.6	0.00e+00	0	42	0	2829058048	47	4004
2026-01-13 14:35:07.04	302.73	66.37	-38.3	-39.2	20.7	0.00e+00	0	42	0	2837446656	47	3880
2026-01-13 14:35:07.89	303.41	66.09	-38.3	-39.2	20.7	0.00e+00	0	42	0	2843738112	47	3904
2026-01-13 14:35:09.03	304.29	65.71	-38.4	-39.4	20.6	0.00e+00	0	42	0	2851078144	47	3965
2026-01-13 14:35:09.88	304.93	65.43	-38.5	-39.4	20.5	0.00e+00	0	41	0	2857369600	47	4000
2026-01-13 14:35:11.02	305.76	65.04	-38.4	-39.4	20.6	0.00e+00	0	42	0	2865758208	47	3968
2026-01-13 14:35:11.87	306.36	64.75	-38.5	-39.5	20.5	0.00e+00	0	42	0	2872049664	47	4028
2026-01-13 14:35:13.02	307.15	64.36	-38.6	-39.5	20.4	0.00e+00	0	41	0	2880438272	47	4041
2026-01-13 14:35:13.88	307.72	64.07	-38.7	-39.7	20.2	0.00e+00	0	41	0	2886729728	47	4116
2026-01-13 14:35:15.01	308.45	63.68	-38.9	-39.9	20.2	0.00e+00	0	42	0	2895118336	47	4196
2026-01-13 14:35:15.87	308.99	63.38	-39.1	-40.0	19.9	0.00e+00	0	41	0	2901409792	47	4286
2026-01-13 14:35:17.00	309.68	62.99	-39.2	-40.2	19.8	0.00e+00	0	42	0	2908749824	47	4355
2026-01-13 14:35:17.86	310.19	62.69	-39.3	-40.3	19.8	0.00e+00	0	42	0	2915041280	47	4415
2026-01-13 14:35:19.00	310.85	62.30	-39.4	-40.4	19.9	0.00e+00	0	42	0	2923429888	48	4225
2026-01-13 14:35:19.85	311.33	62.00	-39.4	-40.4	19.9	0.00e+00	0	42	0	2929721344	48	4212
2026-01-13 14:35:20.99	311.95	61.60	-39.6	-40.5	19.8	0.00e+00	0	42	0	2938109952	48	4291
2026-01-13 14:35:21.84	312.40	61.31	-39.8	-40.8	19.6	0.00e+00	0	42	0	2944401408	48	4422
2026-01-13 14:35:22.97	312.98	60.91	-39.8	-40.9	19.5	0.00e+00	0	42	0	2952790016	49	4204
2026-01-13 14:35:23.82	313.41	60.61	-39.8	-40.9	19.5	0.00e+00	0	42	0	2958032896	49	4209
2026-01-13 14:35:24.96	313.96	60.22	-40.0	-41.0	19.3	0.00e+00	0	42	0	2966421504	49	4280
2026-01-13 14:35:25.81	314.37	59.92	-40.1	-41.2	19.2	0.00e+00	0	42	0	2972712960	49	4367
2026-01-13 14:35:27.00	314.92	59.50	-40.2	-41.2	19.1	0.00e+00	0	42	0	2981101568	50	4133
2026-01-13 14:35:27.85	315.30	59.21	-40.4	-41.5	18.9	0.00e+00	0	42	0	2987393024	50	4265
2026-01-13 14:35:29.05	315.83	58.79	-40.4	-41.5	18.9	0.00e+00	0	42	0	2995781632	50	4261
2026-01-13 14:35:29.90	316.19	58.50	-40.3	-41.4	19.0	0.00e+00	0	42	0	3002073088	50	4203
2026-01-13 14:35:31.09	316.68	58.08	-40.4	-41.4	19.0	0.00e+00	0	42	0	3010461696	50	4237
2026-01-13 14:35:31.94	317.03	57.79	-40.4	-41.5	18.9	0.00e+00	0	42	0	3016753152	50	4274
2026-01-13 14:35:33.15	317.50	57.37	-40.4	-41.5	18.9	0.00e+00	0	42	0	3025141760	50	4263
2026-01-13 14:35:34.01	317.83	57.08	-40.4	-41.5	18.5	0.00e+00	0	42	0	3032481792	50	4261
2026-01-13 14:35:35.14	318.26	56.69	-40.3	-41.4	19.0	0.00e+00	0	42	0	3039821824	50	4204
2026-01-13 14:35:35.99	318.57	56.40	-40.3	-41.3	19.1	0.00e+00	0	42	0	3046113280	50	4176
2026-01-13 14:35:37.13	318.97	56.01	-40.1	-41.1	19.1	0.00e+00	0	42	0	3054501888	50	4075
2026-01-13 14:35:37.98	319.27	55.72	-40.1	-41.1	19.2	0.00e+00	0	42	0	3060793344	50	4079
2026-01-13 14:35:39.12	319.66	55.33	-39.8	-40.8	19.5	0.00e+00	0	42	0	3069181952	50	3945
2026-01-13 14:35:39.97	319.94	55.04	-39.8	-40.8	19.5	0.00e+00	0	42	0	3075473408	50	3954
2026-01-13 14:35:41.11	320.31	54.66	-39.8	-40.8	19.5	0.00e+00	0	42	0	3082813440	50	3950
2026-01-13 14:35:41.97	320.58	54.37	-39.7	-40.7	19.6	0.00e+00	0	42	0	3089104896	50	3897
2026-01-13 14:35:43.10	320.93	53.99	-39.9	-40.9	19.4	0.00e+00	0	42	0	3097493504	50	4001
2026-01-13 14:35:44.22	321.27	53.62	-39.9	-40.9	19.4	0.00e+00	0	42	0	3105882112	50	3987
2026-01-13 14:35:45.25	321.58	53.28	-39.8	-40.8	19.5	0.00e+00	0	42	0	3113222144	50	3927
2026-01-13 14:35:46.24	321.86	52.95	-39.7	-40.7	19.7	0.00e+00	0	42	0	3120562176	50	3891
2026-01-13 14:35:47.44	322.20	52.56	-39.9	-40.9	19.5	0.00e+00	0	42	0	3128950784	50	3967
2026-01-13 14:35:48.33	322.44	52.27	-39.9	-40.9	19.4	0.00e+00	0	42	0	3135242240	50	3998
2026-01-13 14:35:49.64	322.79	51.85	-40.0	-41.0	19.3	0.00e+00	0	42	0	3144679424	50	4051
2026-01-13 14:35:50.35	322.98	51.62	-40.1	-41.1	19.2	0.00e+00	0	42	0	3149922304	50	4098
2026-01-13 14:35:51.63	323.31	51.21	-40.0	-41.0	19.4	0.00e+00	0	42	0	3159359488	50	4027
2026-01-13 14:35:52.34	323.49	50.98	-39.9	-40.9	19.5	0.00e+00	0	42	0	3164602368	50	3993
2026-01-13 14:35:53.62	323.80	50.57	-39.7	-40.7	19.6	0.00e+00	0	42	0	3174039552	49	4120
2026-01-13 14:35:54.33	323.98	50.35	-39.8	-40.8	19.5	0.00e+00	0	42	0	3178233856	49	4191
2026-01-13 14:35:55.61	324.28	49.94	-39.9	-40.9	19.5	0.00e+00	0	42	0	3187671040	49	4225
2026-01-13 14:35:56.33	324.45	49.72	-40.1	-41.1	19.2	0.00e+00	0	42	0	3192913920	49	4326
2026-01-13 14:35:57.61	324.74	49.32	-40.1	-41.1	19.3	0.00e+00	0	42	0	3202351104	49	4331
2026-01-13 14:35:58.35	324.90	49.09	-40.0	-41.1	19.2	0.00e+00	0	42	0	3207593984	49	4312
2026-01-13 14:35:59.63	325.18	48.70	-40.0	-41.0	19.3	0.00e+00	0	42	0	3217031168	49	4268
2026-01-13 14:36:00.56	325.38	48.41	-39.7	-40.7	19.5	0.00e+00	0	42	0	3223322624	49	4137
2026-01-13 14:36:01.56	325.59	48.11	-39.6	-40.6	19.7	0.00e+00	0	42	0	3230662656	49	4096
2026-01-13 14:36:02.55	325.79	47.81	-39.5	-40.6	19.7	0.00e+00	0	42	0	3238002688	49	4059
2026-01-13 14:36:03.55	326.00	47.51	-39.7	-40.8	19.0	0.00e+00	0	42	0	3245342720	49	4159
2026-01-13 14:36:04.54	326.19	47.21	-39.7	-40.7	19.6	0.00e+00	0	42	0	3252682752	49	4125
2026-01-13 14:36:05.54	326.39	46.91	-39.8	-40.8	19.5	0.00e+00	0	42	0	3258974208	49	4166
2026-01-13 14:36:06.53	326.57	46.62	-39.7	-40.7	19.6	0.00e+00	0	42	0	3266314240	49	4136
2026-01-13 14:36:07.53	326.76	46.33	-39.5	-40.5	19.7	0.00e+00	0	42	0	3273654272	49	4041
2026-01-13 14:36:08.52	326.94	46.04	-39.3	-40.3	20.0	0.00e+00	0	42	0	3280994304	49	3931
2026-01-13 14:36:09.52	327.13	45.75	-39.1	-40.1	20.2	0.00e+00	0	42	0	3288334336	49	3836
2026-01-13 14:36:10.51	327.30	45.46	-39.0	-39.9	20.2	0.00e+00	0	42	0	3295674368	48	4002
2026-01-13 14:36:11.51	327.48	45.17	-38.8	-39.7	20.5	0.00e+00	0	42	0	3303014400	48	3909
2026-01-13 14:36:12.50	327.64	44.89	-38.4	-39.4	20.5	0.00e+00	0	42	0	3309305856	47	3969
2026-01-13 14:36:13.50	327.81	44.61	-38.5	-39.5	20.4	0.00e+00	0	42	0	3316645888	47	4022
2026-01-13 14:36:14.49	327.98	44.33	-38.4	-39.4	20.4	0.00e+00	0	42	0	3323985920	47	3987
2026-01-13 14:36:15.49	328.14	44.05	-38.3	-39.3	20.6	0.00e+00	0	42	0	3331325952	47	3929
2026-01-13 14:36:16.48	328.30	43.78	-38.4	-39.3	20.5	0.00e+00	0	42	0	3338665984	47	3946
2026-01-13 14:36:17.48	328.46	43.50	-38.4	-39.4	20.5	0.00e+00	0	42	0	3346006016	47	3976
2026-01-13 14:36:18.47	328.61	43.23	-38.4	-39.4	20.5	0.00e+00	0	42	0	3353346048	47	3961
2026-01-13 14:36:19.47	328.76	42.96	-38.4	-39.3	20.6	0.00e+00	0	42	0	3359637504	47	3957
2026-01-13 14:36:20.46	328.91	42.69	-38.5	-39.4	20.5	0.00e+00	0	42	0	3366977536	47	3989
2026-01-13 14:36:21.46	329.06	42.42	-38.5	-39.4	20.4	0.00e+00	0	42	0	3374317568	47	3993
2026-01-13 14:36:22.45	329.20	42.15	-38.4	-39.4	20.5	0.00e+00	0	42	0	3381657600	47	3985
2026-01-13 14:36:23.45	329.34	41.89	-38.4	-39.4	20.5	0.00e+00	0	42	0	3388997632	47	3965
2026-01-13 14:36:24.48	329.49	41.62	-38.4	-39.3	20.6	0.00e+00	0	42	0	3396337664	47	3949
2026-01-13 14:36:25.47	329.62	41.36	-38.3	-39.3	20.6	0.00e+00	0	42	0	3403677696	47	3933
2026-01-13 14:36:26.47	329.76	41.10	-38.3	-39.2	20.7	0.00e+00	0	42	0	3411017728	47	3897
2026-01-13 14:36:27.46	329.89	40.84	-38.2	-39.2	20.7	0.00e+00	0	42	0	3418357760	47	3887
2026-01-13 14:36:28.45	330.02	40.58	-38.3	-39.2	20.7	0.00e+00	0	42	0	3424649216	47	3905
2026-01-13 14:36:29.45	330.15	40.33	-38.3	-39.3	20.6	0.00e+00	0	42	0	3431989248	47	3941
2026-01-13 14:36:30.44	330.28	40.08	-38.3	-39.3	20.6	0.00e+00	0	42	0	3439329280	47	3940
2026-01-13 14:36:31.44	330.41	39.83	-38.3	-39.3	20.6	0.00e+00	0	42	0	3446669312	47	3929
2026-01-13 14:36:32.43	330.53	39.58	-38.4	-39.4	20.5	0.00e+00	0	42	0	3454009344	47	3960
2026-01-13 14:36:33.43	330.65	39.33	-38.4	-39.4	20.5	0.00e+00	0	42	0	3461349376	47	3979
2026-01-13 14:36:34.42	330.77	39.08	-38.5	-39.5	20.4	0.00e+00	0	42	0	3467640832	47	4017
2026-01-13 14:36:35.42	330.89	38.84	-38.6	-39.5	20.4	0.00e+00	0	42	0	3474980864	47	4037
2026-01-13 14:36:36.42	331.01	38.60	-38.7	-39.6	20.3	0.00e+00	0	42	0	3482320896	47	4089
2026-01-13 14:36:37.41	331.12	38.36	-38.8	-39.8	20.2	0.00e+00	0	42	0	3489660928	47	4160
2026-01-13 14:36:38.41	331.23	38.11	-38.8	-39.8	20.1	0.00e+00	0	42	0	3497000960	47	4160
2026-01-13 14:36:39.40	331.35	37.88	-38.7	-39.7	20.2	0.00e+00	0	42	0	3503292416	47	4119
2026-01-13 14:36:40.46	331.46	37.63	-38.7	-39.7	20.3	0.00e+00	0	42	0	3511681024	47	4112
2026-01-13 14:36:41.33	331.56	37.42	-38.7	-39.7	20.2	0.00e+00	0	42	0	3517972480	47	4127
2026-01-13 14:36:42.47	331.68	37.15	-38.8	-39.8	20.2	0.00e+00	0	42	0	3526361088	47	4157
2026-01-13 14:36:43.32	331.77	36.96	-38.5	-39.4	20.5	0.00e+00	0	42	0	3532652544	47	4001
2026-01-13 14:36:44.46	331.89	36.69	-38.3	-39.2	20.6	0.00e+00	0	42	0	3541041152	47	3913
2026-01-13 14:36:45.31	331.98	36.50	-38.3	-39.3	20.6	0.00e+00	0	42	0	3546284032	47	3917
2026-01-13 14:36:46.45	332.09	36.24	-38.1	-39.1	20.8	0.00e+00	0	42	0	3554672640	47	3831
2026-01-13 14:36:47.30	332.18	36.04	-38.1	-39.0	20.8	0.00e+00	0	42	0	3560964096	47	3821
2026-01-13 14:36:48.44	332.29	35.79	-38.0	-38.9	21.0	0.00e+00	0	42	0	3569352704	46	3971
2026-01-13 14:36:49.29	332.37	35.60	-37.9	-38.8	21.0	0.00e+00	0	42	0	3575644160	46	3927
2026-01-13 14:36:50.43	332.48	35.34	-37.9	-38.8	21.0	0.00e+00	0	42	0	3584032768	46	3922
2026-01-13 14:36:51.28	332.57	35.16	-37.9	-38.8	21.0	0.00e+00	0	42	0	3589275648	46	3929
2026-01-13 14:36:52.42	332.67	34.91	-38.0	-38.9	20.9	0.00e+00	0	42	0	3597664256	46	3982
2026-01-13 14:36:53.27	332.75	34.72	-38.0	-39.0	20.8	0.00e+00	0	42	0	3603955712	46	4006
2026-01-13 14:36:54.49	332.86	34.46	-38.0	-38.9	20.9	0.00e+00	0	42	0	3612344320	46	3996
2026-01-13 14:36:55.34	332.94	34.27	-38.1	-39.0	20.7	0.00e+00	0	42	0	3618635776	46	4038
2026-01-13 14:36:56.48	333.04	34.03	-38.1	-39.1	20.7	0.00e+00	0	42	0	3627024384	46	4076
2026-01-13 14:36:57.33	333.12	33.85	-38.2	-39.2	20.6	0.00e+00	0	42	0	3633315840	46	4124
2026-01-13 14:36:58.47	333.22	33.61	-38.1	-39.1	20.7	0.00e+00	0	42	0	3641704448	46	4065
2026-01-13 14:36:59.32	333.29	33.43	-38.2	-39.1	20.7	0.00e+00	0	42	0	3647995904	46	4086
2026-01-13 14:37:00.46	333.39	33.20	-38.1	-39.1	20.7	0.00e+00	0	42	0	3656384512	46	4073
2026-01-13 14:37:01.31	333.46	33.02	-38.2	-39.2	20.6	0.00e+00	0	42	0	3662675968	46	4109
2026-01-13 14:37:02.45	333.55	32.79	-38.1	-39.0	20.8	0.00e+00	0	42	0	3670016000	46	4035
2026-01-13 14:37:03.30	333.62	32.61	-38.1	-39.0	20.8	0.00e+00	0	42	0	3676307456	46	4050
2026-01-13 14:37:04.44	333.72	32.38	-38.0	-39.0	20.8	0.00e+00	0	42	0	3684696064	46	4013
2026-01-13 14:37:05.30	333.79	32.21	-38.1	-39.0	20.8	0.00e+00	0	42	0	3690987520	46	4043
2026-01-13 14:37:06.44	333.88	31.98	-38.0	-39.0	20.9	0.00e+00	0	42	0	3699376128	46	4009
2026-01-13 14:37:07.29	333.94	31.81	-38.0	-38.9	20.8	0.00e+00	0	42	0	3705667584	46	3996
2026-01-13 14:37:08.49	334.04	31.57	-38.1	-39.1	20.7	0.00e+00	0	42	0	3714056192	46	4069
2026-01-13 14:37:09.34	334.10	31.41	-38.1	-39.1	20.7	0.00e+00	0	42	0	3720347648	46	4066
2026-01-13 14:37:10.48	334.19	31.19	-38.2	-39.2	20.7	0.00e+00	0	42	0	3728736256	46	4101
2026-01-13 14:37:11.33	334.25	31.02	-38.3	-39.3	20.6	0.00e+00	0	42	0	3733979136	46	4159
2026-01-13 14:37:12.47	334.33	30.80	-38.4	-39.4	20.5	0.00e+00	0	42	0	3742367744	46	4208
2026-01-13 14:37:13.32	334.40	30.64	-38.3	-39.3	20.6	0.00e+00	0	42	0	3748659200	46	4168
2026-01-13 14:37:14.46	334.48	30.42	-38.4	-39.3	20.5	0.00e+00	0	42	0	3757047808	46	4180
2026-01-13 14:37:15.31	334.54	30.26	-38.3	-39.3	20.5	0.00e+00	0	42	0	3763339264	46	4181
2026-01-13 14:37:16.45	334.62	30.05	-38.4	-39.4	20.4	0.00e+00	0	42	0	3771727872	46	4237
2026-01-13 14:37:17.30	334.68	29.89	-38.4	-39.4	20.4	0.00e+00	0	42	0	3776970752	46	4225
2026-01-13 14:37:18.44	334.76	29.68	-38.4	-39.4	20.5	0.00e+00	0	42	0	3785359360	46	4224
2026-01-13 14:37:19.29	334.82	29.52	-38.4	-39.4	20.5	0.00e+00	0	42	0	3791650816	46	4230
2026-01-13 14:37:20.42	334.89	29.32	-38.4	-39.4	20.5	0.00e+00	0	42	0	3800039424	46	4217
2026-01-13 14:37:21.28	334.95	29.16	-38.4	-39.4	20.4	0.00e+00	0	42	0	3806330880	46	4227
2026-01-13 14:37:22.41	335.03	28.95	-38.4	-39.4	20.4	0.00e+00	0	42	0	3814719488	46	4230
2026-01-13 14:37:23.27	335.08	28.80	-38.4	-39.4	20.5	0.00e+00	0	42	0	3821010944	46	4209
2026-01-13 14:37:24.48	335.16	28.58	-38.5	-39.5	20.3	0.00e+00	0	42	0	3829399552	46	4287
2026-01-13 14:37:25.33	335.22	28.43	-38.5	-39.5	20.4	0.00e+00	0	42	0	3835691008	46	4265
2026-01-13 14:37:26.53	335.29	28.22	-38.5	-39.6	20.3	0.00e+00	0	42	0	3844079616	46	4294
2026-01-13 14:37:27.39	335.35	28.07	-38.6	-39.6	20.3	0.00e+00	0	42	0	3850371072	46	4317
2026-01-13 14:37:28.59	335.42	27.86	-38.7	-39.7	20.2	0.00e+00	0	42	0	3858759680	46	4367
2026-01-13 14:37:29.44	335.47	27.72	-38.6	-39.7	20.2	0.00e+00	0	42	0	3865051136	46	4343
2026-01-13 14:37:30.58	335.54	27.52	-38.7	-39.8	20.1	0.00e+00	0	42	0	3873439744	46	4398
2026-01-13 14:37:31.43	335.59	27.38	-38.7	-39.7	20.2	0.00e+00	0	42	0	3879731200	46	4368
2026-01-13 14:37:32.57	335.66	27.18	-38.8	-39.8	20.1	0.00e+00	0	42	0	3888119808	46	4395
2026-01-13 14:37:33.42	335.71	27.04	-38.8	-39.8	20.1	0.00e+00	0	42	0	3894411264	47	4151
2026-01-13 14:37:34.56	335.78	26.85	-38.9	-39.9	20.0	0.00e+00	0	42	0	3901751296	47	4194
2026-01-13 14:37:35.41	335.83	26.71	-38.7	-39.7	20.1	0.00e+00	0	42	0	3908042752	47	4124
2026-01-13 14:37:36.55	335.90	26.52	-38.8	-39.8	20.1	0.00e+00	0	42	0	3916431360	47	4154
2026-01-13 14:37:37.40	335.94	26.38	-38.7	-39.7	20.1	0.00e+00	0	42	0	3922722816	47	4114
2026-01-13 14:37:38.54	336.01	26.19	-38.7	-39.7	20.2	0.00e+00	0	42	0	3931111424	47	4115
2026-01-13 14:37:39.39	336.06	26.05	-38.7	-39.7	20.2	0.00e+00	0	42	0	3937402880	47	4109
2026-01-13 14:37:40.53	336.12	25.87	-38.7	-39.7	20.2	0.00e+00	0	42	0	3944742912	47	4103
2026-01-13 14:37:41.38	336.17	25.73	-38.5	-39.5	20.3	0.00e+00	0	42	0	3951034368	47	4038
2026-01-13 14:37:42.52	336.23	25.55	-38.6	-39.5	20.3	0.00e+00	0	42	0	3959422976	47	4040
2026-01-13 14:37:43.37	336.27	25.41	-38.6	-39.5	20.3	0.00e+00	0	42	0	3965714432	47	4047
2026-01-13 14:37:44.51	336.33	25.23	-38.4	-39.4	20.4	0.00e+00	0	42	0	3974103040	47	3988
2026-01-13 14:37:45.37	336.38	25.10	-38.5	-39.4	20.4	0.00e+00	0	42	0	3980394496	47	3996
2026-01-13 14:37:46.50	336.44	24.92	-38.5	-39.4	20.4	0.00e+00	0	42	0	3987734528	47	3992
2026-01-13 14:37:47.36	336.48	24.79	-38.6	-39.5	20.2	0.00e+00	0	42	0	3994025984	47	4044
2026-01-13 14:37:48.62	336.55	24.59	-38.5	-39.4	20.4	0.00e+00	0	42	0	4003463168	47	3989
2026-01-13 14:37:49.39	336.59	24.47	-38.4	-39.4	20.4	0.00e+00	0	42	0	4008706048	47	3963
2026-01-13 14:37:50.67	336.65	24.28	-38.5	-39.5	20.3	0.00e+00	0	42	0	4018143232	47	4019
2026-01-13 14:37:51.40	336.69	24.17	-38.5	-39.5	20.3	0.00e+00	0	42	0	4023386112	47	4034
2026-01-13 14:37:52.68	336.75	23.98	-38.6	-39.5	20.2	0.00e+00	0	42	0	4032823296	47	4047
2026-01-13 14:37:53.40	336.79	23.87	-38.5	-39.5	20.3	0.00e+00	0	42	0	4038066176	47	4038
2026-01-13 14:37:54.68	336.85	23.68	-38.5	-39.5	20.3	0.00e+00	0	42	0	4047503360	47	4038
2026-01-13 14:37:55.42	336.89	23.57	-38.6	-39.6	20.2	0.00e+00	0	42	0	4052746240	47	4076
2026-01-13 14:37:56.70	336.95	23.38	-38.7	-39.6	20.2	0.00e+00	0	42	0	4062183424	47	4096
2026-01-13 14:37:57.49	336.98	23.26	-38.6	-39.6	20.2	0.00e+00	0	42	0	4067426304	47	4072
2026-01-13 14:37:58.72	337.04	23.08	-38.6	-39.6	20.2	0.00e+00	0	42	0	4076863488	47	4078
2026-01-13 14:37:59.65	337.09	22.95	-38.8	-39.8	20.0	0.00e+00	0	42	0	4083154944	47	4190
2026-01-13 14:38:00.64	337.13	22.81	-38.8	-39.8	20.1	0.00e+00	0	42	0	4090494976	47	4159
2026-01-13 14:38:01.84	337.19	22.63	-38.9	-40.0	19.9	0.00e+00	0	42	0	4098883584	47	4244
2026-01-13 14:38:02.71	337.23	22.51	-38.9	-39.9	19.9	0.00e+00	0	42	0	4105175040	47	4231
2026-01-13 14:38:04.00	337.28	22.33	-39.0	-40.0	19.8	0.00e+00	0	42	0	4114612224	47	4259
2026-01-13 14:38:04.71	337.32	22.23	-39.0	-40.1	19.8	0.00e+00	0	42	0	4119855104	47	4293
2026-01-13 14:38:05.99	337.37	22.05	-39.1	-40.2	19.7	0.00e+00	0	42	0	4129292288	47	4366
2026-01-13 14:38:06.70	337.40	21.95	-39.2	-40.3	19.5	0.00e+00	0	42	0	4133486592	47	4404
2026-01-13 14:38:07.98	337.46	21.77	-39.1	-40.1	19.7	0.00e+00	0	42	0	4142923776	47	4329
2026-01-13 14:38:08.69	337.49	21.67	-39.1	-40.2	19.7	0.00e+00	0	42	0	4148166656	47	4357
2026-01-13 14:38:09.97	337.54	21.50	-39.1	-40.1	19.7	0.00e+00	0	42	0	4157603840	47	4333
2026-01-13 14:38:10.70	337.58	21.40	-39.1	-40.2	19.6	0.00e+00	0	42	0	4162846720	47	4380
2026-01-13 14:38:11.97	337.63	21.23	-39.2	-40.3	19.5	0.00e+00	0	42	0	4172283904	47	4424
2026-01-13 14:38:12.68	337.66	21.13	-39.2	-40.3	19.5	0.00e+00	0	42	0	4177526784	47	4436
2026-01-13 14:38:13.96	337.71	20.96	-39.3	-40.4	19.8	0.00e+00	0	42	0	4186963968	48	4206
2026-01-13 14:38:14.68	337.74	20.86	-39.4	-40.4	19.7	0.00e+00	0	42	0	4192206848	48	4238
2026-01-13 14:38:15.95	337.79	20.69	-39.3	-40.3	19.8	0.00e+00	0	42	0	4200595456	48	4168
2026-01-13 14:38:16.67	337.82	20.60	-39.3	-40.4	19.8	0.00e+00	0	42	0	4205838336	48	4198
2026-01-13 14:38:17.95	337.87	20.43	-39.3	-40.3	19.8	0.00e+00	0	42	0	4215275520	48	4160
2026-01-13 14:38:18.67	337.90	20.34	-39.3	-40.4	19.8	0.00e+00	0	42	0	4220518400	48	4195
2026-01-13 14:38:19.95	337.95	20.17	-39.2	-40.3	19.9	0.00e+00	0	42	0	4229955584	48	4151
2026-01-13 14:38:20.66	337.98	20.08	-39.2	-40.3	19.8	0.00e+00	0	42	0	4235198464	48	4150
2026-01-13 14:38:21.94	338.03	19.91	-39.2	-40.3	19.8	0.00e+00	0	42	0	4243587072	48	4150
2026-01-13 14:38:22.68	338.06	19.82	-39.2	-40.2	19.9	0.00e+00	0	42	0	4249878528	48	4140
2026-01-13 14:38:24.27	338.12	19.61	-39.2	-40.4	19.8	0.00e+00	0	42	0	4261412864	48	4194
2026-01-13 14:38:24.90	338.15	19.54	-39.2	-40.3	19.8	0.00e+00	0	42	0	4265607168	48	4147
2026-01-13 14:38:26.40	338.20	19.35	-39.2	-40.3	19.8	0.00e+00	0	42	0	4276092928	48	4187
2026-01-13 14:38:27.11	338.23	19.26	-39.3	-40.4	19.7	0.00e+00	0	42	0	4281335808	48	4231
2026-01-13 14:38:28.39	338.28	19.10	-39.3	-40.4	19.7	0.00e+00	0	42	0	4290772992	48	4224
2026-01-13 14:38:29.10	338.30	19.01	-39.4	-40.5	19.6	0.00e+00	0	42	0	4296015872	48	4272
2026-01-13 14:38:30.44	338.35	18.84	-39.3	-40.4	19.7	0.00e+00	0	42	0	4305453056	48	4213
2026-01-13 14:38:31.15	338.38	18.76	-39.4	-40.5	19.6	0.00e+00	0	42	0	4310695936	48	4259
2026-01-13 14:38:32.47	338.43	18.60	-39.5	-40.5	19.6	0.00e+00	0	42	0	4320133120	48	4278
2026-01-13 14:38:33.19	338.45	18.51	-39.5	-40.5	19.6	0.00e+00	0	42	0	4325376000	48	4271
2026-01-13 14:38:34.52	338.50	18.35	-39.5	-40.5	19.6	0.00e+00	0	42	0	4334813184	48	4269
2026-01-13 14:38:35.23	338.52	18.26	-39.6	-40.7	19.5	0.00e+00	0	42	0	4340056064	48	4343
2026-01-13 14:38:36.58	338.57	18.10	-39.6	-40.6	19.5	0.00e+00	0	42	0	4349493248	48	4338
2026-01-13 14:38:37.29	338.60	18.01	-39.6	-40.6	19.5	0.00e+00	0	42	0	4354736128	48	4336
2026-01-13 14:38:38.57	338.64	17.86	-39.7	-40.8	19.4	0.00e+00	0	42	0	4364173312	48	4392
2026-01-13 14:38:39.28	338.67	17.78	-39.6	-40.7	19.4	0.00e+00	0	42	0	4369416192	48	4371
2026-01-13 14:38:40.56	338.71	17.63	-39.8	-40.9	19.2	0.00e+00	0	42	0	4378853376	49	4203
2026-01-13 14:38:41.27	338.73	17.55	-39.8	-40.9	19.2	0.00e+00	0	42	0	4384096256	49	4198
2026-01-13 14:38:42.72	338.78	17.38	-39.8	-40.9	19.2	0.00e+00	0	42	0	4394582016	49	4228
2026-01-13 14:38:43.43	338.81	17.29	-39.8	-40.9	19.2	0.00e+00	0	42	0	4398776320	49	4199
2026-01-13 14:38:44.77	338.85	17.14	-39.9	-41.0	19.1	0.00e+00	0	42	0	4409262080	49	4252
2026-01-13 14:38:45.48	338.87	17.06	-40.0	-41.1	19.0	0.00e+00	0	42	0	4414504960	49	4307
2026-01-13 14:38:46.86	338.92	16.90	-39.9	-41.0	19.1	0.00e+00	0	42	0	4423942144	49	4270
2026-01-13 14:38:47.57	338.94	16.82	-40.0	-41.1	19.0	0.00e+00	0	42	0	4429185024	49	4329
2026-01-13 14:38:48.85	338.98	16.68	-40.1	-41.2	18.9	0.00e+00	0	42	0	4438622208	49	4345
2026-01-13 14:38:49.57	339.01	16.59	-40.1	-41.1	19.0	0.00e+00	0	42	0	4443865088	49	4329
2026-01-13 14:38:50.85	339.05	16.45	-40.1	-41.1	19.0	0.00e+00	0	42	0	4452253696	49	4330
2026-01-13 14:38:51.57	339.07	16.37	-40.2	-41.3	18.8	0.00e+00	0	42	0	4458545152	49	4400
2026-01-13 14:38:52.84	339.11	16.23	-40.3	-41.4	18.7	0.00e+00	0	42	0	4466933760	49	4452
2026-01-13 14:38:53.55	339.13	16.15	-40.2	-41.3	18.8	0.00e+00	0	42	0	4472176640	49	4413
2026-01-13 14:38:54.83	339.17	16.01	-40.3	-41.4	18.7	0.00e+00	0	42	0	4481613824	50	4203
2026-01-13 14:38:55.56	339.20	15.93	-40.3	-41.5	18.7	0.00e+00	0	42	0	4486856704	50	4250
2026-01-13 14:38:56.84	339.24	15.79	-40.3	-41.4	18.7	0.00e+00	0	42	0	4496293888	50	4208
2026-01-13 14:38:57.57	339.26	15.71	-40.4	-41.5	18.6	0.00e+00	0	42	0	4501536768	50	4290
2026-01-13 14:38:58.85	339.30	15.57	-40.1	-41.2	18.8	0.00e+00	0	42	0	4509925376	50	4145
2026-01-13 14:38:59.65	339.32	15.49	-40.3	-41.4	18.7	0.00e+00	0	42	0	4516216832	50	4209
2026-01-13 14:39:01.11	339.36	15.33	-40.4	-41.6	18.5	0.00e+00	0	42	0	4526702592	50	4309
2026-01-13 14:39:01.82	339.39	15.26	-40.2	-41.4	18.7	0.00e+00	0	42	0	4531945472	50	4199
2026-01-13 14:39:03.10	339.42	15.12	-40.3	-41.5	18.6	0.00e+00	0	42	0	4541382656	50	4252
2026-01-13 14:39:03.81	339.44	15.04	-40.3	-41.4	18.7	0.00e+00	0	42	0	4546625536	50	4212
2026-01-13 14:39:05.09	339.48	14.91	-40.5	-41.6	18.5	0.00e+00	0	42	0	4555014144	50	4315
2026-01-13 14:39:05.81	339.50	14.83	-40.3	-41.5	18.6	0.00e+00	0	42	0	4561305600	50	4243
2026-01-13 14:39:07.09	339.54	14.70	-40.3	-41.5	18.6	0.00e+00	0	42	0	4569694208	50	4251
2026-01-13 14:39:07.80	339.56	14.63	-40.4	-41.5	18.5	0.00e+00	0	42	0	4574937088	50	4279
2026-01-13 14:39:09.08	339.60	14.49	-40.4	-41.6	18.5	0.00e+00	0	42	0	4584374272	50	4303
2026-01-13 14:39:09.79	339.62	14.42	-40.5	-41.6	18.4	0.00e+00	0	42	0	4589617152	50	4336
2026-01-13 14:39:11.07	339.65	14.29	-40.4	-41.6	18.5	0.00e+00	0	42	0	4599054336	50	4304
2026-01-13 14:39:11.78	339.67	14.22	-40.5	-41.6	18.4	0.00e+00	0	42	0	4604297216	50	4337
2026-01-13 14:39:13.06	339.71	14.09	-40.5	-41.7	18.4	0.00e+00	0	42	0	4613734400	50	4351
2026-01-13 14:39:13.79	339.73	14.01	-40.5	-41.7	18.4	0.00e+00	0	42	0	4617928704	50	4362
2026-01-13 14:39:15.07	339.76	13.88	-40.4	-41.6	18.4	0.00e+00	0	42	0	4627365888	50	4327
2026-01-13 14:39:15.79	339.78	13.81	-40.4	-41.6	18.4	0.00e+00	0	42	0	4632608768	50	4339
2026-01-13 14:39:17.15	339.82	13.68	-40.5	-41.7	18.3	0.00e+00	0	42	0	4642045952	50	4376
2026-01-13 14:39:17.86	339.84	13.61	-40.5	-41.7	18.4	0.00e+00	0	42	0	4648337408	50	4372
2026-01-13 14:39:19.22	339.88	13.47	-40.6	-41.8	18.2	0.00e+00	0	42	0	4657774592	50	4441
2026-01-13 14:39:19.93	339.90	13.40	-40.8	-42.0	18.0	0.00e+00	0	42	0	4663017472	51	4290
2026-01-13 14:39:21.21	339.93	13.27	-40.7	-41.9	18.1	0.00e+00	0	42	0	4672454656	51	4238
2026-01-13 14:39:22.25	339.96	13.17	-40.8	-42.1	18.0	0.00e+00	0	42	0	4679794688	51	4300
2026-01-13 14:39:23.53	339.99	13.05	-40.6	-41.8	18.2	0.00e+00	0	42	0	4689231872	51	4169
2026-01-13 14:39:24.24	340.01	12.98	-40.6	-41.9	18.2	0.00e+00	0	42	0	4693426176	51	4205
2026-01-13 14:39:25.52	340.04	12.86	-40.8	-42.1	18.0	0.00e+00	0	42	0	4702863360	51	4300
2026-01-13 14:39:26.23	340.06	12.79	-40.8	-42.1	17.9	0.00e+00	0	42	0	4708106240	51	4331
2026-01-13 14:39:27.52	340.09	12.66	-40.8	-42.2	17.9	0.00e+00	0	42	0	4717543424	51	4352
2026-01-13 14:39:28.23	340.11	12.60	-40.7	-42.1	18.0	0.00e+00	0	42	0	4722786304	51	4294
2026-01-13 14:39:29.52	340.14	12.47	-40.7	-42.1	18.0	0.00e+00	0	42	0	4732223488	51	4296
2026-01-13 14:39:30.23	340.16	12.40	-40.7	-42.1	17.9	0.00e+00	0	42	0	4737466368	51	4309
2026-01-13 14:39:31.51	340.19	12.28	-40.7	-42.1	17.9	0.00e+00	0	42	0	4746903552	51	4329
2026-01-13 14:39:32.24	340.21	12.22	-40.8	-42.3	17.8	0.00e+00	0	42	0	4751097856	51	4394
2026-01-13 14:39:33.52	340.24	12.10	-40.8	-42.3	17.7	0.00e+00	0	42	0	4760535040	51	4411
2026-01-13 14:39:34.24	340.26	12.03	-40.8	-42.3	17.7	0.00e+00	0	42	0	4765777920	51	4439
