passes_logs/2026/01/13/T1/T1__20260113_235353_SUOMI_NPP_rec.log

#Pass ID: 20260113_235353_SUOMI NPP
#Satellite: SUOMI NPP
#Configuration: NPP
#almurnet v.1.7.20251203
#Start time: 2026-01-13 23:53:54

#Version: 2.0.20230620
#Station: T1
#Location: 37.570604 lon 55.790049 lat
#TLE: 1 37849U 11061A   26013.27136842  .00000065  00000+0  51889-4 0  9990
#TLE: 2 37849  98.7808 315.3349 0002489  66.6776 293.4661 14.19524902736466

#Time	Az	El	Level	Level2	SNR	BER	BlckErr	Temp	State	Recorded	gain1	gain2
2026-01-13 23:53:54.97	15.51	5.12	-50.3	-66.9	3.8	1.49e+00	0	40	0	0	72	23954
2026-01-13 23:53:55.96	15.51	5.19	-50.4	-67.0	3.8	1.49e+00	0	40	104	0	71	25669
2026-01-13 23:53:56.95	15.51	5.26	-50.4	-67.0	3.8	1.49e+00	0	41	104	0	71	25691
2026-01-13 23:53:57.95	15.50	5.33	-50.4	-67.0	3.8	1.49e+00	0	41	104	0	71	25719
2026-01-13 23:53:58.94	15.50	5.40	-50.3	-66.9	3.8	1.49e+00	0	41	104	0	71	25437
2026-01-13 23:53:59.93	15.50	5.48	-50.3	-66.9	3.8	1.49e+00	0	41	104	0	71	25315
2026-01-13 23:54:00.92	15.49	5.55	-50.3	-66.8	3.8	1.49e+00	0	41	104	0	71	25049
2026-01-13 23:54:01.92	15.49	5.62	-50.3	-66.8	3.8	1.49e+00	0	41	104	0	71	24996
2026-01-13 23:54:02.91	15.49	5.69	-50.3	-66.8	3.8	1.49e+00	0	41	104	0	71	24998
2026-01-13 23:54:03.90	15.48	5.77	-50.3	-66.7	3.8	1.49e+00	0	41	104	0	71	24914
2026-01-13 23:54:04.90	15.48	5.84	-50.3	-66.7	3.8	1.49e+00	0	41	104	0	71	24928
2026-01-13 23:54:05.89	15.48	5.91	-50.3	-66.7	3.8	1.49e+00	0	41	104	0	71	24826
2026-01-13 23:54:06.89	15.47	5.98	-50.3	-66.8	3.8	1.49e+00	0	41	104	0	71	25023
2026-01-13 23:54:07.88	15.47	6.06	-50.3	-66.8	3.8	1.49e+00	0	41	104	0	71	25142
2026-01-13 23:54:08.87	15.46	6.13	-50.3	-66.9	3.8	1.49e+00	0	41	104	0	71	25510
2026-01-13 23:54:09.87	15.46	6.21	-50.3	-66.9	3.8	1.49e+00	0	41	104	0	71	25457
2026-01-13 23:54:10.86	15.46	6.28	-50.4	-66.9	3.8	1.49e+00	0	41	104	0	71	25503
2026-01-13 23:54:11.85	15.45	6.35	-50.3	-67.0	3.8	1.49e+00	0	41	104	0	71	25609
2026-01-13 23:54:12.85	15.45	6.43	-50.4	-67.0	3.8	1.49e+00	0	41	104	0	71	25750
2026-01-13 23:54:13.84	15.45	6.50	-50.4	-67.0	3.8	1.49e+00	0	41	104	0	71	25762
2026-01-13 23:54:14.83	15.44	6.58	-50.3	-67.0	3.8	1.49e+00	0	41	104	0	71	25783
2026-01-13 23:54:15.82	15.44	6.65	-50.4	-67.1	3.8	1.49e+00	0	41	104	0	71	26036
2026-01-13 23:54:16.82	15.43	6.73	-50.4	-67.2	3.8	1.49e+00	0	41	104	0	71	26187
2026-01-13 23:54:17.81	15.43	6.80	-50.4	-67.1	3.8	1.49e+00	0	41	104	0	71	26145
2026-01-13 23:54:18.80	15.42	6.88	-50.4	-67.1	3.8	1.49e+00	0	42	104	0	71	25879
2026-01-13 23:54:19.80	15.42	6.96	-50.3	-66.9	3.8	1.49e+00	0	41	104	0	71	25286
2026-01-13 23:54:20.79	15.42	7.03	-50.3	-66.5	3.8	1.49e+00	0	41	104	0	71	24204
2026-01-13 23:54:21.79	15.41	7.11	-50.3	-66.0	3.8	1.49e+00	0	41	104	0	71	22835
2026-01-13 23:54:22.78	15.41	7.19	-50.3	-65.4	3.8	1.49e+00	0	42	104	0	71	21274
2026-01-13 23:54:23.77	15.40	7.26	-50.2	-64.5	3.9	1.48e+00	0	42	104	0	71	19204
2026-01-13 23:54:24.76	15.40	7.34	-50.2	-63.7	4.1	1.42e+00	0	42	0	0	71	17580
2026-01-13 23:54:25.76	15.39	7.42	-50.2	-62.9	4.4	1.34e+00	0	42	0	0	71	16067
2026-01-13 23:54:26.75	15.39	7.49	-50.1	-62.0	4.8	9.82e-01	0	42	0	2097152	71	14466
2026-01-13 23:54:27.75	15.38	7.57	-50.1	-61.6	5.0	8.00e-01	0	42	0	4194304	71	13829
2026-01-13 23:54:28.74	15.38	7.65	-50.0	-61.1	5.2	6.25e-01	0	42	0	5242880	71	13069
2026-01-13 23:54:29.73	15.38	7.73	-49.9	-60.7	5.5	4.78e-01	0	42	0	7340032	71	12383
2026-01-13 23:54:30.73	15.37	7.81	-49.9	-60.3	5.8	4.51e-01	0	42	0	9437184	71	11870
2026-01-13 23:54:31.72	15.37	7.89	-49.9	-60.1	5.9	3.69e-01	0	42	0	11534336	71	11562
2026-01-13 23:54:32.71	15.36	7.97	-49.9	-60.0	6.0	3.33e-01	0	42	0	12582912	71	11422
2026-01-13 23:54:33.71	15.36	8.05	-49.9	-59.9	6.1	3.29e-01	0	42	0	14680064	71	11350
2026-01-13 23:54:34.70	15.35	8.12	-49.8	-59.7	6.2	3.15e-01	0	42	0	16777216	71	11157
2026-01-13 23:54:35.69	15.35	8.20	-49.9	-59.8	6.1	3.13e-01	0	42	0	18874368	71	11286
2026-01-13 23:54:36.69	15.34	8.28	-49.9	-59.9	6.1	3.25e-01	0	42	0	20971520	71	11366
2026-01-13 23:54:37.68	15.34	8.36	-49.9	-60.1	5.9	3.13e-01	0	42	0	22020096	71	11631
2026-01-13 23:54:38.67	15.33	8.45	-49.9	-60.2	5.9	3.67e-01	0	42	0	24117248	71	11763
2026-01-13 23:54:39.67	15.33	8.53	-49.9	-60.3	5.8	4.00e-01	0	42	0	26214400	71	11891
2026-01-13 23:54:40.66	15.32	8.61	-50.0	-60.7	5.5	4.21e-01	0	42	0	28311552	71	12484
2026-01-13 23:54:41.65	15.32	8.69	-50.0	-61.2	5.2	5.42e-01	0	42	0	29360128	71	13165
2026-01-13 23:54:42.64	15.31	8.77	-50.1	-61.6	5.0	6.92e-01	0	42	0	31457280	71	13852
2026-01-13 23:54:43.64	15.30	8.85	-50.1	-62.5	4.6	8.77e-01	0	42	0	33554432	71	15305
2026-01-13 23:54:44.63	15.30	8.93	-50.2	-63.3	4.3	1.17e+00	0	42	0	34603008	71	16695
2026-01-13 23:54:45.63	15.29	9.02	-50.3	-64.4	3.9	1.39e+00	0	42	104	34603008	71	18987
2026-01-13 23:54:46.62	15.29	9.10	-50.2	-65.3	3.8	1.49e+00	0	42	104	34603008	71	21063
2026-01-13 23:54:47.61	15.28	9.18	-50.0	-67.0	3.8	1.49e+00	0	42	104	34603008	71	25588
2026-01-13 23:54:48.61	15.28	9.27	-50.1	-63.2	4.0	1.49e+00	0	42	104	34603008	71	16599
2026-01-13 23:54:49.60	15.27	9.35	-49.5	-55.9	9.8	1.34e-01	0	42	0	35651584	71	7200
2026-01-13 23:54:50.60	15.27	9.43	-50.2	-58.8	7.4	9.86e-03	0	42	0	36700160	70	10552
2026-01-13 23:54:51.59	15.26	9.52	-49.9	-57.5	8.1	1.18e+00	0	42	0	38797312	71	8562
2026-01-13 23:54:52.73	15.25	9.62	-49.1	-55.5	10.4	5.44e-03	0	42	0	40894464	70	7255
2026-01-13 23:54:53.62	15.25	9.69	-49.2	-55.7	10.2	3.62e-03	0	42	0	41943040	70	7403
2026-01-13 23:54:54.75	15.24	9.79	-49.0	-55.4	10.5	4.18e-03	0	42	0	45088768	70	7140
2026-01-13 23:54:55.69	15.23	9.87	-48.9	-55.0	10.9	4.75e-03	0	42	0	46137344	69	7213
2026-01-13 23:54:56.85	15.23	9.97	-48.8	-54.7	11.1	1.15e-03	0	42	0	48234496	69	7018
2026-01-13 23:54:57.71	15.22	10.04	-48.8	-54.7	11.2	1.53e-03	0	42	0	50331648	69	7022
2026-01-13 23:54:59.05	15.21	10.16	-48.8	-54.8	11.1	1.25e-03	0	42	0	52428800	69	7073
2026-01-13 23:54:59.76	15.21	10.22	-48.8	-54.4	11.5	8.81e-04	0	42	0	53477376	69	6771
2026-01-13 23:55:01.26	15.20	10.35	-48.6	-54.1	11.8	5.88e-04	0	42	0	56623104	69	6509
2026-01-13 23:55:01.97	15.19	10.41	-48.6	-54.0	11.9	5.39e-04	0	42	0	57671680	69	6430
2026-01-13 23:55:03.25	15.19	10.53	-48.6	-53.7	12.2	2.97e-04	0	42	0	60817408	69	6266
2026-01-13 23:55:03.96	15.18	10.59	-48.4	-53.2	12.8	1.67e-04	0	42	0	61865984	68	6222
2026-01-13 23:55:05.24	15.17	10.70	-48.5	-53.5	12.5	9.68e-05	0	42	0	63963136	68	6440
2026-01-13 23:55:05.95	15.17	10.77	-48.3	-53.2	12.7	9.76e-05	0	42	0	66060288	68	6252
2026-01-13 23:55:07.22	15.16	10.88	-48.2	-53.0	13.0	3.28e-05	0	42	0	68157440	68	6073
2026-01-13 23:55:07.95	15.15	10.95	-48.3	-53.0	12.9	3.89e-05	0	42	0	69206016	68	6124
2026-01-13 23:55:09.23	15.15	11.06	-48.1	-52.6	13.3	2.05e-05	0	42	0	71303168	68	5849
2026-01-13 23:55:09.94	15.14	11.13	-48.2	-52.8	13.2	1.60e-05	0	42	0	73400320	68	5950
2026-01-13 23:55:11.22	15.13	11.24	-48.2	-52.7	13.3	2.44e-05	0	42	0	75497472	68	5911
2026-01-13 23:55:11.99	15.13	11.31	-48.0	-52.6	13.4	1.44e-05	0	42	0	76546048	68	5805
2026-01-13 23:55:13.28	15.12	11.43	-48.0	-52.6	13.4	1.90e-05	0	42	0	79691776	68	5846
2026-01-13 23:55:14.01	15.11	11.50	-47.8	-52.4	13.4	2.05e-05	0	42	0	80740352	67	6031
2026-01-13 23:55:15.29	15.10	11.62	-47.7	-52.3	13.5	7.60e-06	0	42	0	82837504	67	5950
2026-01-13 23:55:16.00	15.10	11.68	-47.8	-52.3	13.6	1.22e-05	0	43	0	83886080	67	5958
2026-01-13 23:55:17.28	15.09	11.80	-47.7	-52.1	13.8	6.10e-06	0	42	0	87031808	67	5809
2026-01-13 23:55:18.20	15.08	11.89	-47.8	-52.2	13.7	9.10e-06	0	42	0	88080384	67	5860
2026-01-13 23:55:19.19	15.07	11.98	-47.7	-52.1	13.7	9.90e-06	0	43	0	90177536	67	5828
2026-01-13 23:55:20.19	15.06	12.07	-47.6	-52.1	13.8	3.00e-06	0	42	0	92274688	67	5797
2026-01-13 23:55:21.19	15.06	12.17	-47.6	-52.1	13.7	5.30e-06	0	42	0	94371840	67	5837
2026-01-13 23:55:22.18	15.05	12.26	-47.5	-51.9	14.0	3.80e-06	0	43	0	96468992	67	5687
2026-01-13 23:55:23.17	15.04	12.35	-47.5	-51.9	13.9	3.00e-06	0	42	0	97517568	66	6059
2026-01-13 23:55:24.17	15.03	12.45	-47.6	-52.1	13.8	6.10e-06	0	42	0	99614720	66	6132
2026-01-13 23:55:25.17	15.02	12.55	-47.5	-51.9	13.9	5.30e-06	0	43	0	101711872	66	6033
2026-01-13 23:55:26.16	15.02	12.64	-47.5	-52.0	13.9	3.00e-06	0	43	0	103809024	66	6101
2026-01-13 23:55:27.25	15.01	12.75	-47.5	-51.8	14.0	6.10e-06	0	43	0	105906176	66	5991
2026-01-13 23:55:28.13	15.00	12.83	-47.5	-51.8	14.0	1.50e-06	0	42	0	106954752	66	5976
2026-01-13 23:55:29.27	14.99	12.94	-47.5	-51.8	14.1	3.80e-06	0	42	0	109051904	66	5924
2026-01-13 23:55:30.12	14.98	13.03	-47.4	-51.8	14.1	3.80e-06	0	42	0	111149056	66	5935
2026-01-13 23:55:31.48	14.97	13.16	-47.4	-51.7	14.1	3.80e-06	0	42	0	113246208	66	5922
2026-01-13 23:55:32.19	14.96	13.23	-47.3	-51.8	14.1	0.00e+00	0	42	0	114294784	66	5936
2026-01-13 23:55:33.48	14.95	13.36	-47.3	-51.6	14.3	0.00e+00	0	43	0	117440512	66	5817
2026-01-13 23:55:34.20	14.95	13.43	-47.4	-51.7	14.1	7.00e-07	0	43	0	118489088	66	5918
2026-01-13 23:55:35.48	14.93	13.56	-47.4	-51.5	14.3	3.80e-06	0	42	0	120586240	66	5774
2026-01-13 23:55:36.19	14.93	13.63	-47.3	-51.5	14.4	2.20e-06	0	43	0	122683392	66	5786
2026-01-13 23:55:37.47	14.92	13.76	-47.3	-51.7	14.2	3.00e-06	0	43	0	124780544	66	5890
2026-01-13 23:55:38.18	14.91	13.83	-47.2	-51.5	14.4	2.20e-06	0	42	0	125829120	66	5765
2026-01-13 23:55:39.46	14.90	13.96	-47.3	-51.5	14.4	7.00e-07	0	43	0	127926272	66	5779
2026-01-13 23:55:40.17	14.89	14.03	-47.3	-51.5	14.4	1.50e-06	0	42	0	130023424	66	5770
2026-01-13 23:55:41.46	14.88	14.16	-47.1	-51.2	14.7	0.00e+00	0	43	0	132120576	66	5564
2026-01-13 23:55:42.17	14.87	14.24	-47.2	-51.4	14.6	0.00e+00	0	43	0	133169152	66	5658
2026-01-13 23:55:43.47	14.86	14.37	-47.3	-51.4	14.4	0.00e+00	0	43	0	136314880	66	5718
2026-01-13 23:55:44.18	14.85	14.44	-47.1	-51.2	14.7	0.00e+00	0	43	0	137363456	66	5573
2026-01-13 23:55:45.52	14.84	14.58	-47.2	-51.2	14.7	0.00e+00	0	43	0	139460608	66	5561
2026-01-13 23:55:46.23	14.83	14.66	-47.1	-51.2	14.7	0.00e+00	0	43	0	141557760	66	5550
2026-01-13 23:55:47.59	14.82	14.80	-47.1	-51.1	14.8	0.00e+00	0	43	0	143654912	66	5505
2026-01-13 23:55:48.55	14.81	14.90	-47.1	-51.1	14.9	0.00e+00	0	43	0	145752064	66	5482
2026-01-13 23:55:49.55	14.80	15.01	-47.1	-50.9	15.0	0.00e+00	0	43	0	146800640	66	5355
2026-01-13 23:55:50.54	14.79	15.11	-47.2	-51.1	14.9	0.00e+00	0	43	0	148897792	66	5474
2026-01-13 23:55:51.53	14.78	15.22	-47.1	-50.9	15.1	7.00e-07	0	43	0	150994944	66	5359
2026-01-13 23:55:52.53	14.77	15.33	-47.1	-50.9	15.1	0.00e+00	0	43	0	153092096	66	5353
2026-01-13 23:55:53.52	14.75	15.43	-47.2	-50.8	15.1	0.00e+00	0	43	0	155189248	66	5339
2026-01-13 23:55:54.52	14.74	15.54	-47.1	-50.7	15.2	0.00e+00	0	43	0	156237824	66	5244
2026-01-13 23:55:55.51	14.73	15.65	-47.2	-50.8	15.2	7.00e-07	0	43	0	158334976	66	5326
2026-01-13 23:55:56.51	14.72	15.76	-47.2	-50.8	15.1	0.00e+00	0	43	0	160432128	66	5331
2026-01-13 23:55:57.50	14.71	15.87	-47.1	-50.7	15.3	0.00e+00	0	43	0	162529280	66	5235
2026-01-13 23:55:58.53	14.70	15.98	-47.2	-50.8	15.2	0.00e+00	0	43	0	164626432	66	5317
2026-01-13 23:55:59.56	14.69	16.09	-47.2	-50.8	15.2	0.00e+00	0	43	0	165675008	66	5285
2026-01-13 23:56:00.55	14.68	16.20	-47.2	-50.8	15.2	0.00e+00	0	43	0	167772160	66	5291
2026-01-13 23:56:01.55	14.66	16.32	-47.3	-50.8	15.1	0.00e+00	0	43	0	169869312	66	5319
2026-01-13 23:56:02.54	14.65	16.43	-47.1	-50.7	15.3	0.00e+00	0	43	0	171966464	66	5232
2026-01-13 23:56:03.54	14.64	16.54	-47.2	-50.8	15.1	0.00e+00	0	43	0	174063616	66	5296
2026-01-13 23:56:04.53	14.63	16.65	-47.3	-50.9	15.1	0.00e+00	0	43	0	175112192	66	5357
2026-01-13 23:56:05.53	14.62	16.77	-47.3	-50.9	15.1	0.00e+00	0	43	0	177209344	66	5364
2026-01-13 23:56:06.52	14.60	16.88	-47.3	-50.8	15.2	0.00e+00	0	43	0	179306496	66	5295
2026-01-13 23:56:07.52	14.59	16.99	-47.2	-50.7	15.2	0.00e+00	0	43	0	181403648	66	5261
2026-01-13 23:56:08.51	14.58	17.11	-47.3	-50.7	15.2	0.00e+00	0	43	0	182452224	66	5264
2026-01-13 23:56:09.51	14.57	17.22	-47.2	-50.6	15.3	0.00e+00	0	43	0	184549376	66	5202
2026-01-13 23:56:10.50	14.55	17.34	-47.2	-50.6	15.3	0.00e+00	0	43	0	186646528	66	5209
2026-01-13 23:56:11.50	14.54	17.46	-47.2	-50.7	15.3	0.00e+00	0	43	0	188743680	66	5221
2026-01-13 23:56:12.49	14.53	17.57	-47.2	-50.7	15.3	0.00e+00	0	43	0	190840832	66	5230
2026-01-13 23:56:13.49	14.51	17.69	-47.1	-50.5	15.5	0.00e+00	0	43	0	191889408	66	5142
2026-01-13 23:56:14.49	14.50	17.81	-47.2	-50.6	15.4	0.00e+00	0	43	0	193986560	66	5174
2026-01-13 23:56:15.48	14.49	17.93	-47.0	-50.3	15.7	0.00e+00	0	43	0	196083712	66	4984
2026-01-13 23:56:16.47	14.47	18.05	-47.1	-50.5	15.5	0.00e+00	0	43	0	198180864	65	5413
2026-01-13 23:56:17.47	14.46	18.17	-47.1	-50.3	15.6	0.00e+00	0	43	0	199229440	65	5334
2026-01-13 23:56:18.47	14.45	18.29	-47.0	-50.2	15.8	0.00e+00	0	43	0	201326592	65	5229
2026-01-13 23:56:19.46	14.43	18.41	-46.9	-50.1	15.8	0.00e+00	0	43	0	203423744	65	5187
2026-01-13 23:56:20.45	14.42	18.53	-46.9	-50.0	16.0	0.00e+00	0	43	0	205520896	65	5114
2026-01-13 23:56:21.45	14.40	18.65	-46.8	-49.8	16.1	0.00e+00	0	43	0	207618048	65	5025
2026-01-13 23:56:22.45	14.39	18.78	-46.8	-49.9	16.1	0.00e+00	0	43	0	208666624	65	5049
2026-01-13 23:56:23.44	14.38	18.90	-46.8	-49.8	16.1	0.00e+00	0	43	0	210763776	65	5013
2026-01-13 23:56:24.44	14.36	19.03	-46.9	-49.9	16.1	0.00e+00	0	43	0	212860928	65	5055
2026-01-13 23:56:25.43	14.35	19.15	-46.9	-49.9	16.1	0.00e+00	0	43	0	214958080	65	5054
2026-01-13 23:56:26.42	14.33	19.27	-46.8	-49.7	16.2	0.00e+00	0	43	0	216006656	65	4983
2026-01-13 23:56:27.42	14.32	19.40	-46.8	-49.8	16.2	0.00e+00	0	43	0	218103808	65	4990
2026-01-13 23:56:28.41	14.30	19.53	-46.9	-49.8	16.1	0.00e+00	0	43	0	220200960	65	5037
2026-01-13 23:56:29.41	14.28	19.66	-46.8	-49.7	16.2	0.00e+00	0	43	0	222298112	65	4963
2026-01-13 23:56:30.41	14.27	19.78	-46.8	-49.8	16.2	0.00e+00	0	43	0	224395264	65	5001
2026-01-13 23:56:31.40	14.25	19.91	-46.9	-49.9	16.1	0.00e+00	0	43	0	225443840	65	5044
2026-01-13 23:56:32.46	14.24	20.05	-46.9	-49.9	16.0	0.00e+00	0	43	0	227540992	65	5097
2026-01-13 23:56:33.31	14.22	20.16	-46.9	-49.8	16.1	0.00e+00	0	43	0	229638144	65	5033
2026-01-13 23:56:34.45	14.20	20.31	-46.8	-49.7	16.2	0.00e+00	0	43	0	231735296	65	4981
2026-01-13 23:56:35.30	14.19	20.42	-46.9	-49.8	16.2	0.00e+00	0	43	0	232783872	65	5010
2026-01-13 23:56:36.44	14.17	20.57	-46.9	-49.8	16.2	0.00e+00	0	43	0	234881024	65	5022
2026-01-13 23:56:37.29	14.16	20.69	-46.7	-49.5	16.4	0.00e+00	0	43	0	236978176	65	4848
2026-01-13 23:56:38.43	14.14	20.84	-46.7	-49.6	16.3	0.00e+00	0	43	0	239075328	65	4912
2026-01-13 23:56:39.28	14.12	20.96	-46.7	-49.6	16.4	0.00e+00	0	43	0	240123904	65	4874
2026-01-13 23:56:40.42	14.10	21.11	-46.7	-49.6	16.3	0.00e+00	0	43	0	243269632	65	4899
2026-01-13 23:56:41.27	14.09	21.23	-46.6	-49.4	16.5	0.00e+00	0	43	0	244318208	65	4789
2026-01-13 23:56:42.41	14.07	21.38	-46.6	-49.4	16.6	0.00e+00	0	43	0	246415360	65	4782
2026-01-13 23:56:43.27	14.05	21.50	-46.5	-49.3	16.6	0.00e+00	0	43	0	248512512	65	4756
2026-01-13 23:56:44.40	14.03	21.66	-46.6	-49.4	16.5	0.00e+00	0	43	0	250609664	65	4807
2026-01-13 23:56:45.25	14.01	21.78	-46.6	-49.4	16.6	0.00e+00	0	43	0	251658240	65	4762
2026-01-13 23:56:46.52	13.99	21.95	-46.7	-49.5	16.5	0.00e+00	0	43	0	253755392	65	4837
2026-01-13 23:56:47.32	13.98	22.07	-46.7	-49.6	16.4	0.00e+00	0	43	0	255852544	65	4876
2026-01-13 23:56:48.46	13.95	22.23	-46.9	-49.9	16.1	0.00e+00	0	43	0	257949696	65	5045
2026-01-13 23:56:49.31	13.94	22.35	-46.7	-49.6	16.4	0.00e+00	0	43	0	258998272	65	4911
2026-01-13 23:56:50.62	13.91	22.54	-46.6	-49.5	16.5	0.00e+00	0	43	0	262144000	65	4835
2026-01-13 23:56:51.33	13.90	22.64	-46.8	-49.7	16.3	0.00e+00	0	43	0	263192576	65	4946
2026-01-13 23:56:52.61	13.87	22.83	-46.8	-49.8	16.2	0.00e+00	0	43	0	265289728	65	4984
2026-01-13 23:56:53.32	13.86	22.93	-46.6	-49.4	16.5	0.00e+00	0	43	0	266338304	65	4808
2026-01-13 23:56:54.60	13.83	23.12	-46.8	-49.7	16.3	0.00e+00	0	43	0	269484032	65	4952
2026-01-13 23:56:55.31	13.82	23.22	-46.8	-49.7	16.3	0.00e+00	0	43	0	270532608	65	4969
2026-01-13 23:56:56.59	13.79	23.41	-46.7	-49.6	16.4	0.00e+00	0	43	0	272629760	65	4889
2026-01-13 23:56:57.32	13.78	23.52	-46.6	-49.4	16.6	0.00e+00	0	43	0	274726912	64	5083
2026-01-13 23:56:58.59	13.75	23.71	-46.4	-49.3	16.7	0.00e+00	0	43	0	276824064	64	4987
2026-01-13 23:56:59.32	13.73	23.82	-46.5	-49.4	16.6	0.00e+00	0	43	0	277872640	64	5049
2026-01-13 23:57:00.60	13.70	24.01	-46.5	-49.4	16.5	0.00e+00	0	43	0	281018368	64	5084
2026-01-13 23:57:01.32	13.69	24.12	-46.4	-49.3	16.7	0.00e+00	0	43	0	282066944	64	5011
2026-01-13 23:57:02.60	13.66	24.32	-46.4	-49.3	16.7	0.00e+00	0	43	0	284164096	64	5025
2026-01-13 23:57:03.31	13.64	24.43	-46.6	-49.5	16.5	0.00e+00	0	43	0	285212672	64	5131
2026-01-13 23:57:04.65	13.61	24.64	-46.6	-49.6	16.4	0.00e+00	0	43	0	288358400	64	5197
2026-01-13 23:57:05.37	13.60	24.75	-46.6	-49.6	16.4	0.00e+00	0	43	0	289406976	64	5173
2026-01-13 23:57:06.64	13.57	24.95	-46.6	-49.6	16.4	0.00e+00	0	43	0	291504128	64	5207
2026-01-13 23:57:07.35	13.55	25.06	-46.6	-49.5	16.5	0.00e+00	0	43	0	293601280	64	5138
2026-01-13 23:57:08.76	13.52	25.29	-46.7	-49.7	16.4	0.00e+00	0	43	0	295698432	64	5233
2026-01-13 23:57:09.47	13.50	25.40	-46.5	-49.3	16.7	0.00e+00	0	43	0	296747008	64	5037
2026-01-13 23:57:10.81	13.47	25.62	-46.5	-49.4	16.6	0.00e+00	0	43	0	299892736	64	5074
2026-01-13 23:57:11.52	13.45	25.73	-46.6	-49.5	16.4	0.00e+00	0	43	0	300941312	64	5144
2026-01-13 23:57:12.80	13.42	25.94	-46.6	-49.4	16.6	0.00e+00	0	43	0	303038464	64	5097
2026-01-13 23:57:13.53	13.40	26.06	-46.6	-49.5	16.6	0.00e+00	0	43	0	305135616	64	5129
2026-01-13 23:57:14.81	13.36	26.27	-46.5	-49.3	16.7	0.00e+00	0	43	0	307232768	64	5026
2026-01-13 23:57:15.52	13.35	26.39	-46.8	-49.7	16.3	0.00e+00	0	43	0	308281344	64	5256
2026-01-13 23:57:16.80	13.31	26.61	-47.2	-50.3	15.7	0.00e+00	0	43	0	311427072	65	5299
2026-01-13 23:57:17.51	13.29	26.73	-47.0	-50.1	16.0	0.00e+00	0	43	0	312475648	65	5177
2026-01-13 23:57:18.79	13.26	26.94	-47.3	-50.5	15.6	0.00e+00	0	43	0	314572800	65	5445
2026-01-13 23:57:19.56	13.24	27.07	-47.5	-50.8	15.2	0.00e+00	0	43	0	315621376	65	5619
2026-01-13 23:57:20.84	13.20	27.29	-47.7	-51.1	15.0	0.00e+00	0	43	0	318767104	66	5498
2026-01-13 23:57:21.60	13.18	27.42	-47.6	-50.9	15.2	0.00e+00	0	43	0	319815680	66	5360
2026-01-13 23:57:22.87	13.15	27.64	-47.7	-51.0	15.1	0.00e+00	0	43	0	321912832	66	5438
2026-01-13 23:57:23.68	13.12	27.79	-47.7	-51.1	15.0	0.00e+00	0	43	0	324009984	66	5478
2026-01-13 23:57:25.12	13.08	28.04	-47.6	-50.9	15.2	0.00e+00	0	43	0	326107136	66	5361
2026-01-13 23:57:25.83	13.06	28.17	-47.6	-50.9	15.2	0.00e+00	0	43	0	328204288	66	5342
2026-01-13 23:57:27.11	13.02	28.39	-47.5	-50.7	15.5	0.00e+00	0	43	0	330301440	66	5235
2026-01-13 23:57:27.82	13.00	28.52	-47.5	-50.8	15.3	0.00e+00	0	43	0	331350016	66	5308
2026-01-13 23:57:29.10	12.96	28.75	-47.7	-51.0	15.1	0.00e+00	0	43	0	334495744	66	5417
2026-01-13 23:57:29.86	12.94	28.89	-47.8	-51.1	15.0	0.00e+00	0	43	0	335544320	66	5519
2026-01-13 23:57:31.14	12.90	29.13	-48.0	-51.4	14.7	0.00e+00	0	43	0	337641472	66	5717
2026-01-13 23:57:31.86	12.87	29.26	-47.9	-51.4	14.7	0.00e+00	0	43	0	338690048	66	5705
2026-01-13 23:57:33.14	12.83	29.50	-48.3	-52.1	14.1	7.00e-07	0	43	0	341835776	67	5799
2026-01-13 23:57:33.86	12.81	29.63	-48.5	-52.5	13.7	1.50e-06	0	43	0	342884352	67	6106
2026-01-13 23:57:35.14	12.77	29.87	-48.3	-52.1	14.1	3.00e-06	0	43	0	344981504	67	5800
2026-01-13 23:57:35.85	12.74	30.01	-48.4	-52.3	13.8	1.50e-06	0	43	0	347078656	67	5986
2026-01-13 23:57:37.14	12.70	30.25	-48.2	-52.0	14.0	3.00e-06	0	43	0	349175808	67	5787
2026-01-13 23:57:37.85	12.67	30.39	-48.1	-51.9	14.2	0.00e+00	0	43	0	350224384	67	5693
2026-01-13 23:57:39.17	12.63	30.64	-48.3	-52.2	14.0	3.80e-06	0	43	0	353370112	67	5873
2026-01-13 23:57:40.17	12.59	30.84	-48.2	-52.0	14.2	1.50e-06	0	43	0	354418688	67	5741
2026-01-13 23:57:41.48	12.54	31.09	-48.6	-52.7	13.6	7.60e-06	0	43	0	357564416	67	6226
2026-01-13 23:57:42.19	12.52	31.23	-48.9	-53.0	13.4	1.06e-05	0	43	0	358612992	68	6117
2026-01-13 23:57:43.85	12.46	31.56	-49.5	-54.2	12.2	4.42e-05	0	43	0	361758720	69	6597
2026-01-13 23:57:44.42	12.43	31.68	-49.5	-54.1	12.2	1.87e-04	0	43	0	362807296	69	6540
2026-01-13 23:57:46.12	12.37	32.02	-49.8	-54.8	11.7	1.15e-03	0	43	0	365953024	70	6672
2026-01-13 23:57:46.74	12.35	32.15	-50.3	-56.0	10.4	2.04e-03	0	43	0	367001600	71	7205
2026-01-13 23:57:48.30	12.28	32.47	-50.2	-55.6	10.7	3.65e-03	0	43	0	370147328	71	6926
2026-01-13 23:57:49.01	12.26	32.61	-50.2	-55.7	10.6	2.72e-03	0	43	0	371195904	71	7038
2026-01-13 23:57:50.29	12.20	32.88	-50.1	-55.5	10.8	2.44e-03	0	43	0	373293056	71	6875
2026-01-13 23:57:51.00	12.17	33.03	-50.0	-55.2	11.1	2.87e-03	0	43	0	375390208	71	6630
2026-01-13 23:57:52.28	12.12	33.30	-49.9	-55.0	11.2	1.43e-03	0	43	0	377487360	71	6489
2026-01-13 23:57:53.00	12.09	33.45	-50.0	-55.3	11.0	1.07e-03	0	43	0	378535936	71	6693
2026-01-13 23:57:54.29	12.03	33.73	-49.8	-54.7	11.6	8.85e-04	0	43	0	381681664	71	6260
2026-01-13 23:57:55.00	12.00	33.88	-49.7	-54.6	11.7	1.63e-03	0	43	0	382730240	71	6163
2026-01-13 23:57:56.27	11.95	34.16	-49.4	-53.8	12.5	2.10e-04	0	43	0	384827392	70	5974
2026-01-13 23:57:57.21	11.90	34.36	-49.3	-53.7	12.7	4.80e-05	0	43	0	386924544	70	5877
2026-01-13 23:57:58.20	11.86	34.58	-48.7	-52.4	14.0	6.80e-06	0	43	0	389021696	69	5364
2026-01-13 23:57:59.20	11.81	34.80	-48.3	-51.7	14.7	1.50e-06	0	43	0	390070272	68	5254
2026-01-13 23:58:00.19	11.77	35.02	-47.7	-51.0	15.1	0.00e+00	0	43	0	392167424	67	5111
2026-01-13 23:58:01.19	11.72	35.25	-47.5	-50.6	15.6	0.00e+00	0	43	0	394264576	66	5191
2026-01-13 23:58:02.18	11.67	35.47	-47.2	-50.2	15.9	0.00e+00	0	43	0	396361728	66	4983
2026-01-13 23:58:03.18	11.62	35.70	-46.8	-49.7	16.4	0.00e+00	0	43	0	397410304	65	4927
2026-01-13 23:58:04.17	11.57	35.93	-46.9	-49.9	16.2	0.00e+00	0	43	0	399507456	65	5071
2026-01-13 23:58:05.17	11.52	36.16	-47.0	-50.0	16.1	0.00e+00	0	43	0	401604608	65	5119
2026-01-13 23:58:06.19	11.47	36.40	-46.7	-49.6	16.5	0.00e+00	0	43	0	403701760	65	4892
2026-01-13 23:58:07.19	11.42	36.63	-46.7	-49.5	16.6	0.00e+00	0	43	0	405798912	65	4862
2026-01-13 23:58:08.24	11.36	36.88	-46.5	-49.2	16.8	0.00e+00	0	43	0	407896064	65	4696
2026-01-13 23:58:09.14	11.31	37.09	-46.3	-49.0	17.1	0.00e+00	0	43	0	408944640	64	4825
2026-01-13 23:58:10.38	11.25	37.39	-46.1	-48.7	17.5	0.00e+00	0	43	0	411041792	63	4953
2026-01-13 23:58:11.23	11.20	37.59	-45.8	-48.4	17.7	0.00e+00	0	43	0	413138944	63	4770
2026-01-13 23:58:12.49	11.13	37.90	-45.9	-48.5	17.5	0.00e+00	0	43	0	415236096	63	4858
2026-01-13 23:58:13.28	11.08	38.09	-46.1	-48.7	17.5	0.00e+00	0	43	0	417333248	63	4941
2026-01-13 23:58:14.46	11.01	38.39	-46.1	-48.7	17.5	0.00e+00	0	43	0	419430400	63	4928
2026-01-13 23:58:15.32	10.96	38.60	-46.5	-49.2	17.0	0.00e+00	0	43	0	420478976	63	5272
2026-01-13 23:58:16.46	10.89	38.88	-46.5	-49.3	16.8	0.00e+00	0	43	0	422576128	64	4993
2026-01-13 23:58:17.31	10.84	39.10	-46.5	-49.3	16.8	0.00e+00	0	43	0	424673280	64	5010
2026-01-13 23:58:18.45	10.77	39.39	-46.3	-48.9	17.2	0.00e+00	0	43	0	426770432	64	4813
2026-01-13 23:58:19.30	10.71	39.61	-46.3	-48.9	17.2	0.00e+00	0	43	0	427819008	64	4789
2026-01-13 23:58:20.44	10.64	39.90	-46.3	-48.9	17.2	0.00e+00	0	43	0	429916160	64	4796
2026-01-13 23:58:21.30	10.58	40.12	-45.9	-48.4	17.7	0.00e+00	0	43	0	432013312	63	4808
2026-01-13 23:58:22.43	10.51	40.42	-46.4	-49.0	17.2	0.00e+00	0	43	0	434110464	63	5150
2026-01-13 23:58:23.28	10.45	40.64	-46.4	-49.0	17.1	0.00e+00	0	43	0	435159040	63	5150
2026-01-13 23:58:24.42	10.37	40.94	-46.2	-48.8	17.3	0.00e+00	0	43	0	437256192	63	5034
2026-01-13 23:58:25.27	10.31	41.17	-46.3	-49.0	17.1	0.00e+00	0	43	0	439353344	63	5119
2026-01-13 23:58:26.41	10.23	41.48	-46.7	-49.5	16.6	0.00e+00	0	43	0	441450496	64	5134
2026-01-13 23:58:27.27	10.17	41.71	-46.8	-49.7	16.4	0.00e+00	0	43	0	442499072	64	5247
2026-01-13 23:58:28.40	10.09	42.02	-46.9	-49.9	16.3	0.00e+00	0	43	0	445644800	64	5368
2026-01-13 23:58:29.26	10.02	42.26	-46.9	-49.9	16.2	0.00e+00	0	43	0	446693376	65	5065
2026-01-13 23:58:30.50	9.93	42.60	-47.2	-50.3	15.9	0.00e+00	0	43	0	448790528	65	5287
2026-01-13 23:58:31.36	9.86	42.84	-47.2	-50.2	16.0	0.00e+00	0	43	0	450887680	65	5247
2026-01-13 23:58:32.49	9.77	43.16	-47.3	-50.4	15.8	0.00e+00	0	43	0	452984832	65	5394
2026-01-13 23:58:33.34	9.70	43.40	-47.4	-50.5	15.7	0.00e+00	0	43	0	454033408	65	5450
2026-01-13 23:58:34.61	9.59	43.76	-47.9	-51.2	15.0	0.00e+00	0	43	0	457179136	66	5591
2026-01-13 23:58:35.41	9.53	43.99	-48.0	-51.3	15.0	0.00e+00	0	43	0	458227712	66	5644
2026-01-13 23:58:36.55	9.43	44.32	-48.1	-51.6	14.6	7.00e-07	0	43	0	460324864	67	5498
2026-01-13 23:58:37.40	9.35	44.57	-48.4	-52.0	14.2	1.50e-06	0	43	0	462422016	67	5760
2026-01-13 23:58:38.54	9.25	44.90	-48.0	-51.3	14.8	0.00e+00	0	43	0	464519168	67	5328
2026-01-13 23:58:39.39	9.18	45.16	-47.8	-51.0	15.2	0.00e+00	0	43	0	465567744	67	5115
2026-01-13 23:58:40.53	9.07	45.50	-47.4	-50.5	15.8	0.00e+00	0	43	0	467664896	66	5123
2026-01-13 23:58:41.38	8.99	45.75	-47.6	-50.8	15.4	0.00e+00	0	43	0	469762048	66	5291
2026-01-13 23:58:42.51	8.88	46.09	-48.1	-51.4	14.8	0.00e+00	0	43	0	471859200	66	5708
2026-01-13 23:58:43.37	8.80	46.35	-48.4	-52.0	14.3	0.00e+00	0	43	0	472907776	67	5742
2026-01-13 23:58:44.50	8.68	46.70	-49.0	-52.9	13.4	8.30e-06	0	43	0	475004928	68	6041
2026-01-13 23:58:45.36	8.59	46.97	-49.2	-53.4	12.9	2.82e-05	0	43	0	477102080	69	6049
2026-01-13 23:58:46.49	8.48	47.32	-49.1	-53.1	13.3	3.50e-05	0	43	0	479199232	69	5849
2026-01-13 23:58:47.35	8.38	47.59	-48.9	-52.9	13.5	1.22e-05	0	43	0	480247808	69	5665
2026-01-13 23:58:48.48	8.26	47.94	-48.5	-52.2	14.2	1.50e-06	0	43	0	482344960	68	5529
2026-01-13 23:58:49.33	8.17	48.21	-48.1	-51.5	14.9	0.00e+00	0	43	0	484442112	68	5112
2026-01-13 23:58:50.52	8.03	48.59	-48.5	-52.0	14.4	7.00e-07	0	43	0	486539264	68	5449
2026-01-13 23:58:51.37	7.93	48.87	-48.8	-52.5	14.0	1.50e-06	0	43	0	488636416	68	5726
2026-01-13 23:58:52.51	7.80	49.24	-48.8	-52.5	14.1	3.00e-06	0	43	0	490733568	68	5724
2026-01-13 23:58:53.36	7.69	49.51	-48.2	-51.5	15.0	2.20e-06	0	43	0	491782144	68	5136
2026-01-13 23:58:54.63	7.54	49.93	-47.8	-51.1	15.2	0.00e+00	0	43	0	493879296	67	5165
2026-01-13 23:58:55.34	7.45	50.17	-47.7	-51.0	15.3	0.00e+00	0	43	0	495976448	67	5101
2026-01-13 23:58:56.62	7.28	50.59	-47.4	-50.4	15.8	0.00e+00	0	43	0	498073600	66	5090
2026-01-13 23:58:57.34	7.18	50.83	-47.3	-50.3	15.9	0.00e+00	0	43	0	499122176	66	5026
2026-01-13 23:58:58.62	7.01	51.27	-47.5	-50.7	15.5	0.00e+00	0	43	0	502267904	66	5277
2026-01-13 23:58:59.34	6.91	51.51	-47.4	-50.4	15.8	0.00e+00	0	43	0	503316480	66	5099
2026-01-13 23:59:00.61	6.73	51.95	-47.1	-50.1	16.1	0.00e+00	0	43	0	505413632	66	4891
2026-01-13 23:59:01.33	6.62	52.19	-47.2	-50.2	16.0	0.00e+00	0	43	0	506462208	65	5247
2026-01-13 23:59:02.60	6.43	52.63	-47.3	-50.3	15.9	0.00e+00	0	43	0	509607936	65	5331
2026-01-13 23:59:03.49	6.30	52.95	-47.8	-51.1	15.1	0.00e+00	0	43	0	510656512	66	5482
2026-01-13 23:59:04.62	6.12	53.34	-48.5	-52.2	14.1	1.50e-06	0	43	0	512753664	67	5893
2026-01-13 23:59:05.48	5.98	53.65	-48.1	-51.6	14.7	3.00e-06	0	43	0	514850816	67	5498
2026-01-13 23:59:06.61	5.79	54.05	-47.2	-50.2	16.0	0.00e+00	0	43	0	516947968	66	4936
2026-01-13 23:59:07.46	5.65	54.35	-46.7	-49.5	16.7	0.00e+00	0	43	0	517996544	65	4845
2026-01-13 23:59:08.60	5.45	54.76	-46.3	-49.0	17.1	0.00e+00	0	43	0	520093696	64	4827
2026-01-13 23:59:09.46	5.30	55.08	-46.3	-49.0	17.1	0.00e+00	0	43	0	522190848	64	4869
2026-01-13 23:59:10.59	5.09	55.49	-46.7	-49.6	16.6	0.00e+00	0	43	0	524288000	64	5197
2026-01-13 23:59:11.82	4.86	55.94	-46.8	-49.7	16.5	0.00e+00	0	43	0	526385152	65	4966
2026-01-13 23:59:12.83	4.66	56.31	-46.8	-49.7	16.5	0.00e+00	0	43	0	528482304	65	4931
2026-01-13 23:59:13.99	4.43	56.75	-46.9	-49.7	16.6	0.00e+00	0	43	0	530579456	65	4970
2026-01-13 23:59:14.84	4.26	57.06	-47.4	-50.5	15.7	0.00e+00	0	43	0	532676608	65	5422
2026-01-13 23:59:15.98	4.01	57.49	-47.9	-51.1	15.2	0.00e+00	0	43	0	534773760	66	5478
2026-01-13 23:59:16.83	3.83	57.82	-48.1	-51.5	14.6	0.00e+00	0	43	0	535822336	67	5403
2026-01-13 23:59:17.97	3.57	58.25	-48.7	-52.3	14.0	2.20e-06	0	43	0	537919488	68	5642
2026-01-13 23:59:18.82	3.38	58.58	-49.2	-53.2	13.3	5.30e-06	0	43	0	540016640	68	6231
2026-01-13 23:59:19.96	3.11	59.01	-49.7	-54.3	12.2	3.43e-05	0	43	0	542113792	70	6293
2026-01-13 23:59:20.81	2.90	59.34	-49.4	-53.6	12.8	9.53e-05	0	43	0	543162368	70	5810
2026-01-13 23:59:21.95	2.61	59.79	-47.8	-50.9	15.2	1.50e-06	0	43	0	545259520	67	5098
2026-01-13 23:59:22.80	2.39	60.12	-46.9	-49.7	16.4	0.00e+00	0	43	0	547356672	65	4962
2026-01-13 23:59:23.94	2.09	60.57	-46.9	-49.8	16.4	0.00e+00	0	43	0	549453824	65	4990
2026-01-13 23:59:24.79	1.85	60.90	-47.4	-50.4	15.8	0.00e+00	0	43	0	550502400	65	5402
2026-01-13 23:59:25.93	1.52	61.35	-47.6	-50.8	15.4	0.00e+00	0	43	0	552599552	66	5322
2026-01-13 23:59:26.78	1.27	61.69	-47.3	-50.4	15.8	0.00e+00	0	43	0	554696704	66	5046
2026-01-13 23:59:27.92	0.93	62.15	-46.3	-49.0	17.2	0.00e+00	0	43	0	556793856	64	4822
2026-01-13 23:59:28.77	0.66	62.49	-46.2	-48.7	17.4	0.00e+00	0	43	0	558891008	64	4702
2026-01-13 23:59:30.08	0.23	63.01	-46.4	-49.1	17.2	0.00e+00	0	43	0	560988160	64	4882
2026-01-13 23:59:30.79	359.99	63.30	-46.4	-49.0	17.0	0.00e+00	0	43	0	562036736	64	4862
2026-01-13 23:59:32.07	359.54	63.82	-46.5	-49.3	16.9	0.00e+00	0	43	0	564133888	64	4989
2026-01-13 23:59:32.80	359.28	64.12	-46.8	-49.6	16.5	0.00e+00	0	43	0	566231040	64	5186
2026-01-13 23:59:34.07	358.80	64.64	-47.2	-50.2	16.0	0.00e+00	0	43	0	568328192	65	5251
2026-01-13 23:59:34.79	358.52	64.93	-47.0	-49.9	16.3	0.00e+00	0	43	0	569376768	65	5066
2026-01-13 23:59:36.07	358.01	65.46	-46.4	-49.1	17.1	0.00e+00	0	43	0	572522496	64	4902
2026-01-13 23:59:36.78	357.71	65.75	-47.0	-49.9	16.3	0.00e+00	0	43	0	573571072	64	5363
2026-01-13 23:59:38.06	357.15	66.28	-47.6	-50.9	15.4	0.00e+00	0	43	0	575668224	65	5678
2026-01-13 23:59:38.78	356.82	66.58	-47.6	-50.9	15.3	0.00e+00	0	43	0	576716800	66	5386
2026-01-13 23:59:40.06	356.22	67.11	-47.0	-49.9	16.3	0.00e+00	0	43	0	579862528	65	5075
2026-01-13 23:59:40.78	355.87	67.41	-46.9	-49.7	16.4	0.00e+00	0	43	0	580911104	65	4964
2026-01-13 23:59:42.05	355.22	67.93	-47.5	-50.6	15.6	0.00e+00	0	43	0	583008256	65	5488
2026-01-13 23:59:42.78	354.83	68.24	-48.1	-51.4	14.9	0.00e+00	0	43	0	585105408	66	5715
2026-01-13 23:59:44.15	354.07	68.81	-48.3	-51.8	14.5	0.00e+00	0	43	0	587202560	67	5600
2026-01-13 23:59:44.86	353.66	69.10	-48.4	-52.1	14.1	7.00e-07	0	43	0	588251136	67	5811
2026-01-13 23:59:46.14	352.89	69.63	-48.2	-51.8	14.5	7.00e-07	0	43	0	591396864	67	5621
2026-01-13 23:59:47.20	352.21	70.07	-48.2	-51.8	14.5	0.00e+00	0	43	0	592445440	67	5595
2026-01-13 23:59:48.38	351.42	70.56	-48.2	-51.7	14.6	4.50e-06	0	43	0	595591168	67	5533
2026-01-13 23:59:49.23	350.82	70.91	-47.8	-51.0	15.2	0.00e+00	0	43	0	596639744	67	5154
2026-01-13 23:59:50.37	349.98	71.38	-46.8	-49.5	16.7	0.00e+00	0	43	0	598736896	65	4866
2026-01-13 23:59:51.22	349.33	71.73	-46.1	-48.7	17.4	0.00e+00	0	43	0	600834048	64	4669
2026-01-13 23:59:52.36	348.41	72.20	-45.4	-47.8	18.2	0.00e+00	0	43	0	602931200	62	4737
2026-01-13 23:59:53.22	347.68	72.55	-45.2	-47.5	18.6	0.00e+00	0	43	0	603979776	62	4566
2026-01-13 23:59:54.35	346.67	73.01	-45.6	-48.1	18.2	0.00e+00	0	43	0	606076928	62	4890
2026-01-13 23:59:55.21	345.87	73.35	-46.1	-48.7	17.4	0.00e+00	0	43	0	608174080	63	4940
2026-01-13 23:59:56.34	344.75	73.80	-46.6	-49.3	17.0	0.00e+00	0	43	0	610271232	63	5286
2026-01-13 23:59:57.20	343.86	74.14	-46.8	-49.6	16.5	0.00e+00	0	43	0	611319808	64	5205
2026-01-13 23:59:58.33	342.63	74.58	-48.2	-51.6	14.8	0.00e+00	0	43	0	613416960	66	5819
2026-01-13 23:59:59.19	341.64	74.92	-49.0	-52.8	13.6	3.80e-06	0	43	0	615514112	68	5985
2026-01-14 00:00:00.40	340.17	75.38	-48.7	-52.4	14.0	1.50e-06	0	43	0	617611264	68	5705
2026-01-14 00:00:01.26	339.06	75.70	-49.1	-53.2	13.4	3.80e-06	0	43	0	619708416	68	6222
2026-01-14 00:00:02.39	337.53	76.12	-49.7	-54.3	12.0	1.72e-04	0	43	0	621805568	70	6316
2026-01-14 00:00:03.25	336.30	76.43	-48.9	-52.6	13.7	6.40e-05	0	43	0	622854144	69	5506
2026-01-14 00:00:04.38	334.59	76.83	-48.5	-52.1	14.3	0.00e+00	0	43	0	624951296	68	5470
2026-01-14 00:00:05.27	333.17	77.14	-49.8	-54.4	12.0	5.72e-05	0	43	0	627048448	70	6388
2026-01-14 00:00:06.40	331.26	77.52	-49.4	-53.7	12.8	7.57e-04	0	43	0	629145600	70	5883
2026-01-14 00:00:07.26	329.73	77.80	-47.8	-51.1	15.2	6.10e-06	0	43	0	630194176	67	5190
2026-01-14 00:00:08.62	327.15	78.23	-48.0	-51.3	14.9	0.00e+00	0	43	0	633339904	66	5606
2026-01-14 00:00:09.33	325.73	78.44	-47.7	-50.8	15.4	0.00e+00	0	43	0	634388480	66	5331
2026-01-14 00:00:10.61	323.03	78.81	-47.8	-50.9	15.4	0.00e+00	0	43	0	636485632	67	5087
2026-01-14 00:00:11.32	321.46	79.00	-47.9	-51.1	15.1	0.00e+00	0	43	0	638582784	67	5204
2026-01-14 00:00:12.60	318.48	79.33	-47.6	-50.7	15.5	0.00e+00	0	43	0	640679936	67	4971
2026-01-14 00:00:13.31	316.74	79.49	-47.8	-51.0	15.2	0.00e+00	0	43	0	641728512	66	5454
2026-01-14 00:00:14.59	313.48	79.77	-49.2	-53.2	13.4	0.00e+00	0	43	0	643825664	68	6227
2026-01-14 00:00:15.30	311.60	79.91	-49.3	-53.3	13.1	7.85e-05	0	43	0	645922816	69	5928
2026-01-14 00:00:16.58	308.07	80.14	-49.8	-54.4	12.1	2.00e-04	0	43	0	648019968	70	6400
2026-01-14 00:00:17.32	305.96	80.25	-50.1	-55.0	11.6	8.35e-04	0	43	0	649068544	71	6446
2026-01-14 00:00:18.60	302.20	80.41	-50.8	-56.8	9.5	3.92e-03	0	43	0	652214272	72	7513
2026-01-14 00:00:19.48	299.55	80.50	-50.8	-56.9	9.4	1.04e-02	0	43	0	653262848	72	7626
2026-01-14 00:00:20.62	296.05	80.58	-50.7	-56.6	9.6	1.98e-02	0	43	0	655360000	72	7337
2026-01-14 00:00:21.71	292.65	80.63	-50.1	-55.1	11.1	1.71e-03	0	43	0	657457152	71	6520
2026-01-14 00:00:22.73	289.45	80.64	-50.6	-56.3	10.3	2.82e-03	0	43	0	659554304	71	7482
2026-01-14 00:00:23.88	285.85	80.62	-50.9	-56.9	9.5	2.18e-02	0	43	0	661651456	72	7603
2026-01-14 00:00:24.75	283.14	80.58	-50.2	-55.2	11.2	6.99e-03	0	43	0	663748608	72	6249
2026-01-14 00:00:26.08	279.06	80.48	-49.8	-54.5	12.0	3.17e-04	0	43	0	665845760	71	6113
2026-01-14 00:00:26.79	276.93	80.41	-49.9	-54.7	11.8	3.45e-04	0	43	0	666894336	71	6213
2026-01-14 00:00:28.24	272.67	80.23	-50.5	-55.8	10.6	1.51e-03	0	43	0	670040064	71	7078
2026-01-14 00:00:28.95	270.66	80.12	-50.7	-56.5	10.1	3.91e-03	0	43	0	671088640	71	7640
2026-01-14 00:00:30.28	267.01	79.88	-49.5	-53.8	12.5	2.62e-04	0	43	0	674234368	71	5649
2026-01-14 00:00:30.99	265.13	79.74	-50.2	-55.5	11.0	8.31e-04	0	43	0	675282944	71	6820
2026-01-14 00:00:32.27	261.90	79.45	-49.9	-54.5	11.9	4.16e-03	0	43	0	677380096	71	6116
2026-01-14 00:00:32.98	260.18	79.28	-48.9	-52.7	13.8	8.85e-05	0	43	0	678428672	69	5541
2026-01-14 00:00:34.26	257.22	78.95	-50.3	-55.6	10.7	3.75e-04	0	43	0	681574400	71	6944
2026-01-14 00:00:34.97	255.66	78.76	-50.0	-54.9	11.4	3.58e-03	0	43	0	682622976	71	6411
2026-01-14 00:00:36.25	252.98	78.39	-49.4	-53.6	12.9	4.04e-05	0	43	0	684720128	70	5852
2026-01-14 00:00:36.96	251.57	78.18	-50.2	-55.2	11.3	1.69e-04	0	43	0	685768704	71	6642
2026-01-14 00:00:38.24	249.16	77.77	-50.6	-56.5	9.9	1.98e-02	0	43	0	688914432	72	7250
2026-01-14 00:00:39.04	247.74	77.51	-50.5	-56.2	10.2	6.74e-03	0	43	0	689963008	72	6978
2026-01-14 00:00:40.18	245.82	77.13	-51.0	-57.3	9.2	1.65e-02	0	43	0	692060160	72	7969
2026-01-14 00:00:41.21	244.18	76.77	-51.5	-59.2	7.0	1.65e-01	0	43	0	694157312	73	9339
2026-01-14 00:00:42.38	242.43	76.35	-50.5	-56.1	10.1	1.96e-02	0	43	0	696254464	73	6560
2026-01-14 00:00:43.23	241.22	76.04	-49.5	-53.7	12.7	2.73e-04	0	43	0	698351616	70	5873
2026-01-14 00:00:44.37	239.69	75.62	-48.8	-52.4	14.0	2.20e-06	0	43	0	700448768	69	5402
2026-01-14 00:00:45.22	238.61	75.30	-48.5	-52.0	14.5	2.20e-06	0	43	0	701497344	68	5425
2026-01-14 00:00:46.36	237.24	74.86	-48.2	-51.4	15.1	0.00e+00	0	43	0	703594496	68	5098
2026-01-14 00:00:47.21	236.27	74.53	-47.4	-50.5	15.7	0.00e+00	0	43	0	705691648	66	5119
2026-01-14 00:00:48.35	235.03	74.08	-46.7	-49.4	16.7	0.00e+00	0	43	0	707788800	65	4785
2026-01-14 00:00:49.20	234.16	73.74	-46.8	-49.5	16.6	0.00e+00	0	43	0	708837376	65	4870
2026-01-14 00:00:50.34	233.04	73.29	-45.8	-48.2	18.0	0.00e+00	0	43	0	710934528	63	4688
2026-01-14 00:00:51.19	232.25	72.95	-45.8	-48.2	17.9	0.00e+00	0	43	0	713031680	63	4671
2026-01-14 00:00:52.33	231.24	72.48	-46.6	-49.3	16.9	0.00e+00	0	43	0	715128832	63	5336
2026-01-14 00:00:53.18	230.52	72.14	-46.9	-49.7	16.5	0.00e+00	0	43	0	716177408	65	4936
2026-01-14 00:00:54.32	229.61	71.67	-46.8	-49.5	16.7	0.00e+00	0	44	0	718274560	65	4838
2026-01-14 00:00:55.17	228.96	71.32	-46.6	-49.2	17.0	0.00e+00	0	43	0	720371712	65	4683
2026-01-14 00:00:56.34	228.10	70.83	-46.2	-48.7	17.5	0.00e+00	0	43	0	722468864	63	4951
2026-01-14 00:00:57.19	227.51	70.48	-46.7	-49.4	16.8	0.00e+00	0	43	0	724566016	64	5071
2026-01-14 00:00:58.39	226.71	69.98	-48.2	-51.7	14.5	0.00e+00	0	43	0	726663168	67	5537
2026-01-14 00:00:59.24	226.17	69.63	-47.7	-50.9	15.4	0.00e+00	0	43	0	727711744	67	5055
2026-01-14 00:01:00.44	225.44	69.13	-47.8	-51.1	15.3	0.00e+00	0	43	0	729808896	66	5490
2026-01-14 00:01:01.29	224.95	68.78	-48.5	-52.2	14.2	7.00e-07	0	43	0	731906048	67	5869
2026-01-14 00:01:02.49	224.28	68.28	-48.6	-52.2	14.2	0.00e+00	0	43	0	734003200	68	5571
2026-01-14 00:01:03.34	223.83	67.92	-48.4	-51.9	14.6	7.00e-07	0	43	0	736100352	68	5347
2026-01-14 00:01:04.54	223.21	67.42	-47.7	-50.8	15.4	1.50e-06	0	43	0	738197504	67	5019
2026-01-14 00:01:05.40	222.79	67.07	-46.7	-49.5	16.7	0.00e+00	0	43	0	739246080	65	4820
2026-01-14 00:01:06.60	222.23	66.57	-46.8	-49.6	16.6	0.00e+00	0	43	0	741343232	64	5181
2026-01-14 00:01:07.45	221.84	66.22	-47.5	-50.5	15.7	0.00e+00	0	43	0	743440384	65	5439
2026-01-14 00:01:08.68	221.31	65.71	-47.8	-51.0	15.2	0.00e+00	0	43	0	745537536	66	5453
2026-01-14 00:01:09.53	220.95	65.36	-47.6	-50.7	15.6	0.00e+00	0	43	0	747634688	67	4973
2026-01-14 00:01:10.67	220.49	64.89	-48.3	-51.8	14.6	0.00e+00	0	43	0	749731840	67	5594
2026-01-14 00:01:11.52	220.16	64.54	-47.7	-50.8	15.6	0.00e+00	0	43	0	750780416	67	5029
2026-01-14 00:01:12.66	219.74	64.07	-47.6	-50.6	15.6	0.00e+00	0	43	0	752877568	66	5195
2026-01-14 00:01:13.51	219.43	63.72	-48.4	-51.9	14.4	0.00e+00	0	43	0	754974720	67	5720
2026-01-14 00:01:14.65	219.03	63.26	-49.9	-54.7	11.7	4.21e-04	0	43	0	757071872	71	6204
2026-01-14 00:01:15.60	218.71	62.88	-49.5	-53.9	12.6	1.35e-04	0	43	0	759169024	71	5689
2026-01-14 00:01:16.77	218.33	62.40	-50.1	-55.0	11.6	5.18e-05	0	43	0	761266176	70	6829
2026-01-14 00:01:17.65	218.06	62.05	-49.7	-54.3	12.0	6.48e-04	0	43	0	762314752	71	5967
2026-01-14 00:01:18.98	217.65	61.52	-47.7	-50.9	15.4	4.50e-06	0	43	0	765460480	67	5081
2026-01-14 00:01:19.69	217.45	61.23	-47.7	-50.8	15.3	0.00e+00	0	43	0	766509056	66	5336
2026-01-14 00:01:20.98	217.08	60.72	-46.5	-49.1	17.0	0.00e+00	0	43	0	768606208	64	4925
2026-01-14 00:01:21.69	216.89	60.44	-46.2	-48.8	17.3	0.00e+00	0	43	0	769654784	64	4732
2026-01-14 00:01:23.22	216.48	59.84	-46.3	-49.0	17.3	0.00e+00	0	43	0	772800512	63	5113
2026-01-14 00:01:23.93	216.30	59.56	-46.8	-49.6	16.6	0.00e+00	0	43	0	773849088	64	5212
2026-01-14 00:01:25.28	215.96	59.04	-46.8	-49.6	16.6	0.00e+00	0	43	0	776994816	64	5199
2026-01-14 00:01:25.99	215.79	58.77	-47.1	-50.1	16.1	0.00e+00	0	43	0	778043392	65	5191
2026-01-14 00:01:27.27	215.49	58.27	-47.2	-50.2	16.0	0.00e+00	0	43	0	780140544	65	5223
2026-01-14 00:01:27.98	215.33	58.00	-47.3	-50.2	15.9	0.00e+00	0	43	0	782237696	65	5262
2026-01-14 00:01:29.27	215.05	57.51	-46.9	-49.7	16.4	0.00e+00	0	43	0	784334848	65	4974
2026-01-14 00:01:29.98	214.90	57.24	-47.1	-49.9	16.2	0.00e+00	0	43	0	785383424	65	5097
2026-01-14 00:01:31.27	214.63	56.76	-47.6	-50.7	15.5	0.00e+00	0	43	0	788529152	65	5590
2026-01-14 00:01:31.98	214.48	56.49	-48.4	-52.0	14.2	0.00e+00	0	43	0	789577728	67	5769
2026-01-14 00:01:33.26	214.23	56.02	-49.1	-53.0	13.4	6.80e-06	0	43	0	791674880	69	5773
2026-01-14 00:01:33.97	214.09	55.75	-49.1	-53.0	13.4	2.36e-05	0	43	0	792723456	69	5729
2026-01-14 00:01:35.25	213.86	55.28	-49.4	-53.6	12.9	8.69e-05	0	43	0	795869184	69	6139
2026-01-14 00:01:35.98	213.72	55.02	-48.9	-52.7	13.8	2.36e-05	0	43	0	796917760	69	5562
2026-01-14 00:01:37.26	213.50	54.55	-48.4	-51.8	14.7	0.00e+00	0	43	0	799014912	68	5316
2026-01-14 00:01:37.97	213.37	54.29	-48.2	-51.6	14.7	0.00e+00	0	43	0	800063488	67	5489
2026-01-14 00:01:39.25	213.16	53.83	-48.1	-51.4	14.8	0.00e+00	0	43	0	803209216	67	5396
2026-01-14 00:01:39.96	213.04	53.58	-47.5	-50.6	15.6	7.00e-07	0	43	0	804257792	66	5176
2026-01-14 00:01:41.24	212.83	53.13	-47.5	-50.6	15.7	0.00e+00	0	43	0	806354944	66	5164
2026-01-14 00:01:42.22	212.68	52.78	-47.7	-50.9	15.4	0.00e+00	0	43	0	808452096	66	5344
2026-01-14 00:01:43.21	212.53	52.44	-47.4	-50.4	15.7	0.00e+00	0	43	0	810549248	66	5047
2026-01-14 00:01:44.54	212.33	51.98	-47.1	-49.9	16.2	0.00e+00	0	43	0	812646400	65	5094
2026-01-14 00:01:45.28	212.23	51.72	-47.2	-50.2	16.0	0.00e+00	0	43	0	814743552	65	5250
2026-01-14 00:01:46.56	212.05	51.28	-48.4	-52.0	14.2	0.00e+00	0	43	0	816840704	67	5773
2026-01-14 00:01:47.27	211.95	51.04	-48.0	-51.4	14.9	0.00e+00	0	43	0	817889280	67	5342
2026-01-14 00:01:48.55	211.78	50.61	-48.1	-51.4	14.9	0.00e+00	0	43	0	819986432	67	5400
2026-01-14 00:01:49.28	211.68	50.36	-48.3	-51.8	14.5	0.00e+00	0	43	0	822083584	67	5603
2026-01-14 00:01:50.56	211.52	49.94	-49.5	-53.8	12.5	3.00e-06	0	43	0	824180736	69	6321
2026-01-14 00:01:51.27	211.43	49.70	-49.6	-54.1	12.4	2.49e-04	0	43	0	825229312	70	6180
2026-01-14 00:01:52.56	211.27	49.28	-49.1	-53.1	13.3	2.89e-05	0	43	0	828375040	70	5483
2026-01-14 00:01:53.27	211.18	49.05	-48.8	-52.6	13.8	8.30e-06	0	43	0	829423616	69	5483
2026-01-14 00:01:54.62	211.02	48.61	-49.5	-53.8	12.6	8.16e-05	0	43	0	831520768	70	5930
2026-01-14 00:01:55.33	210.94	48.38	-49.8	-54.4	12.1	1.70e-04	0	43	0	833617920	70	6354
2026-01-14 00:01:56.61	210.80	47.97	-50.4	-55.8	10.5	8.26e-04	0	43	0	835715072	71	7119
2026-01-14 00:01:57.67	210.68	47.64	-50.0	-54.9	11.5	1.50e-03	0	43	0	837812224	71	6356
2026-01-14 00:01:58.86	210.55	47.26	-49.6	-54.0	12.2	3.16e-04	0	43	0	839909376	71	5780
2026-01-14 00:01:59.71	210.46	47.00	-49.4	-53.6	12.8	1.69e-04	0	43	0	840957952	70	5832
2026-01-14 00:02:00.85	210.34	46.64	-49.4	-53.6	12.7	1.14e-04	0	44	0	843055104	70	5841
2026-01-14 00:02:01.70	210.26	46.38	-49.4	-53.7	12.8	8.01e-05	0	43	0	845152256	70	5868
2026-01-14 00:02:02.84	210.15	46.03	-48.7	-52.5	13.9	3.80e-06	0	43	0	847249408	69	5424
2026-01-14 00:02:03.69	210.06	45.77	-48.0	-51.3	15.0	0.00e+00	0	43	0	849346560	68	4987
2026-01-14 00:02:04.83	209.95	45.43	-47.7	-50.9	15.1	0.00e+00	0	43	0	851443712	67	5051
2026-01-14 00:02:05.68	209.87	45.18	-48.6	-52.3	14.1	0.00e+00	0	43	0	852492288	68	5593
2026-01-14 00:02:06.81	209.77	44.84	-48.4	-52.0	14.4	7.00e-07	0	43	0	854589440	68	5426
2026-01-14 00:02:07.67	209.69	44.59	-48.3	-51.9	14.4	2.20e-06	0	43	0	856686592	68	5351
2026-01-14 00:02:08.80	209.59	44.26	-48.5	-52.2	14.2	0.00e+00	0	43	0	858783744	68	5585
2026-01-14 00:02:09.65	209.52	44.01	-48.8	-52.8	13.6	9.10e-06	0	43	0	859832320	68	5968
2026-01-14 00:02:10.79	209.42	43.68	-48.7	-52.6	13.7	4.50e-06	0	43	0	861929472	68	5827
2026-01-14 00:02:11.64	209.35	43.44	-48.8	-52.7	13.6	3.80e-06	0	43	0	864026624	68	5891
2026-01-14 00:02:12.78	209.26	43.11	-49.0	-53.1	13.4	8.30e-06	0	43	0	866123776	68	6144
2026-01-14 00:02:13.63	209.19	42.87	-49.6	-54.1	12.1	7.40e-05	0	43	0	867172352	69	6556
2026-01-14 00:02:14.77	209.10	42.55	-50.3	-55.7	10.5	9.41e-04	0	43	0	869269504	71	7022
2026-01-14 00:02:15.62	209.03	42.31	-51.2	-58.2	8.0	1.28e-02	0	43	0	871366656	72	8794
2026-01-14 00:02:16.76	208.95	42.00	-50.4	-55.8	10.4	4.58e-02	0	43	0	873463808	72	6691
2026-01-14 00:02:17.61	208.88	41.77	-49.5	-53.8	12.5	2.27e-03	0	43	0	874512384	71	5605
2026-01-14 00:02:18.75	208.80	41.45	-48.5	-52.0	14.1	1.06e-05	0	43	0	876609536	69	5157
2026-01-14 00:02:19.61	208.74	41.22	-48.5	-52.1	14.2	2.20e-06	0	43	0	878706688	68	5478
2026-01-14 00:02:20.74	208.66	40.92	-49.0	-53.0	13.4	6.10e-06	0	43	0	880803840	68	6102
2026-01-14 00:02:21.60	208.60	40.69	-48.7	-52.5	13.9	2.20e-06	0	43	0	882900992	69	5446
2026-01-14 00:02:22.74	208.52	40.39	-49.1	-53.2	13.2	9.90e-06	0	43	0	884998144	69	5881
2026-01-14 00:02:23.59	208.46	40.16	-48.9	-52.8	13.5	2.59e-05	0	43	0	886046720	69	5654
2026-01-14 00:02:24.88	208.38	39.83	-49.1	-53.1	13.4	1.52e-05	0	43	0	888143872	69	5809
2026-01-14 00:02:25.60	208.33	39.64	-49.1	-53.2	13.2	2.28e-05	0	43	0	890241024	69	5897
2026-01-14 00:02:26.87	208.25	39.31	-49.7	-54.4	12.1	3.85e-04	0	43	0	892338176	70	6350
2026-01-14 00:02:27.59	208.20	39.13	-49.4	-53.7	12.6	3.65e-04	0	43	0	893386752	70	5919
2026-01-14 00:02:28.87	208.12	38.80	-48.4	-51.8	14.1	7.60e-06	0	43	0	895483904	68	5284
2026-01-14 00:02:29.58	208.08	38.63	-48.1	-51.5	14.9	7.00e-07	0	43	0	897581056	68	5117
2026-01-14 00:02:30.86	208.00	38.31	-47.3	-50.4	15.7	0.00e+00	0	43	0	899678208	66	5048
2026-01-14 00:02:31.57	207.96	38.13	-47.3	-50.4	15.8	0.00e+00	0	43	0	900726784	66	5054
2026-01-14 00:02:32.84	207.89	37.82	-47.7	-51.0	15.2	0.00e+00	0	43	0	903872512	66	5432
2026-01-14 00:02:33.55	207.85	37.64	-48.0	-51.4	14.7	0.00e+00	0	43	0	904921088	66	5709
2026-01-14 00:02:34.83	207.77	37.33	-48.4	-52.1	14.1	2.20e-06	0	43	0	907018240	67	5827
2026-01-14 00:02:35.55	207.73	37.16	-48.9	-52.8	13.6	1.50e-06	0	43	0	908066816	68	5970
2026-01-14 00:02:36.83	207.66	36.85	-49.1	-53.3	13.4	9.90e-06	0	43	0	911212544	68	6283
2026-01-14 00:02:37.57	207.62	36.68	-48.8	-52.7	13.6	1.44e-05	0	43	0	912261120	69	5569
2026-01-14 00:02:38.85	207.56	36.37	-49.1	-53.3	13.1	1.44e-05	0	43	0	914358272	69	5935
2026-01-14 00:02:39.56	207.52	36.21	-49.1	-53.1	13.4	1.98e-05	0	43	0	916455424	69	5804
2026-01-14 00:02:40.84	207.45	35.91	-49.2	-53.4	12.9	6.63e-05	0	43	0	918552576	69	6019
2026-01-14 00:02:41.56	207.42	35.74	-49.3	-53.5	12.7	3.96e-05	0	43	0	919601152	69	6129
2026-01-14 00:02:42.84	207.35	35.45	-49.9	-54.7	11.6	3.40e-04	0	43	0	922746880	70	6633
2026-01-14 00:02:43.60	207.31	35.28	-49.7	-54.2	12.0	4.65e-04	0	43	0	923795456	70	6274
2026-01-14 00:02:45.16	207.24	34.92	-49.0	-53.0	13.3	7.09e-05	0	43	0	926941184	69	5764
2026-01-14 00:02:45.79	207.21	34.78	-48.8	-52.6	13.8	9.10e-06	0	43	0	927989760	69	5470
2026-01-14 00:02:47.31	207.14	34.45	-48.6	-52.2	14.0	3.80e-06	0	43	0	930086912	68	5571
2026-01-14 00:02:48.02	207.11	34.29	-48.2	-51.7	14.6	7.00e-07	0	43	0	932184064	68	5228
2026-01-14 00:02:49.30	207.05	34.01	-48.3	-51.7	14.6	7.00e-07	0	43	0	934281216	68	5269
2026-01-14 00:02:50.01	207.02	33.85	-48.2	-51.6	14.6	1.50e-06	0	43	0	935329792	68	5215
2026-01-14 00:02:51.32	206.96	33.57	-48.5	-52.0	14.3	0.00e+00	0	43	0	938475520	68	5443
2026-01-14 00:02:52.04	206.93	33.42	-48.3	-51.7	14.6	0.00e+00	0	43	0	939524096	68	5245
2026-01-14 00:02:53.32	206.87	33.14	-48.5	-52.0	14.2	0.00e+00	0	43	0	941621248	68	5464
2026-01-14 00:02:54.04	206.84	32.99	-48.3	-51.7	14.6	7.00e-07	0	43	0	943718400	68	5264
2026-01-14 00:02:55.32	206.79	32.72	-48.4	-51.9	14.4	7.00e-07	0	43	0	945815552	68	5363
2026-01-14 00:02:56.05	206.76	32.57	-48.3	-51.8	14.4	0.00e+00	0	43	0	946864128	68	5327
2026-01-14 00:02:57.33	206.71	32.30	-48.5	-52.0	14.3	7.00e-07	0	43	0	948961280	68	5432
2026-01-14 00:02:58.04	206.68	32.16	-48.4	-52.0	14.3	1.50e-06	0	43	0	951058432	68	5429
2026-01-14 00:02:59.32	206.63	31.89	-48.3	-51.8	14.2	3.80e-06	0	43	0	953155584	67	5654
2026-01-14 00:03:00.03	206.60	31.75	-48.5	-52.1	14.0	1.50e-06	0	43	0	954204160	67	5833
2026-01-14 00:03:01.31	206.55	31.49	-48.3	-51.8	14.3	1.50e-06	0	43	0	957349888	67	5635
2026-01-14 00:03:02.04	206.52	31.35	-48.4	-52.1	14.1	1.50e-06	0	43	0	958398464	67	5799
2026-01-14 00:03:03.32	206.47	31.09	-48.5	-52.1	13.9	4.50e-06	0	43	0	960495616	67	5850
2026-01-14 00:03:04.17	206.44	30.92	-48.5	-52.2	13.9	3.00e-06	0	43	0	962592768	67	5907
2026-01-14 00:03:05.62	206.39	30.64	-48.4	-52.0	14.1	7.00e-07	0	43	0	964689920	67	5750
2026-01-14 00:03:06.33	206.36	30.50	-48.2	-51.7	14.3	7.00e-07	0	43	0	966787072	67	5569
2026-01-14 00:03:07.61	206.32	30.25	-48.1	-51.6	14.4	1.50e-06	0	43	0	968884224	67	5526
2026-01-14 00:03:08.32	206.29	30.12	-48.2	-51.7	14.3	0.00e+00	0	44	0	969932800	67	5566
2026-01-14 00:03:09.60	206.25	29.87	-48.5	-52.2	14.0	4.50e-06	0	43	0	972029952	68	5555
2026-01-14 00:03:10.33	206.22	29.73	-48.7	-52.5	13.7	4.50e-06	0	43	0	974127104	68	5788
2026-01-14 00:03:11.61	206.18	29.49	-48.6	-52.4	13.8	6.10e-06	0	43	0	976224256	68	5674
2026-01-14 00:03:12.33	206.16	29.36	-48.8	-52.6	13.6	4.50e-06	0	43	0	977272832	68	5851
2026-01-14 00:03:13.61	206.12	29.12	-48.6	-52.2	13.9	5.30e-06	0	43	0	980418560	68	5590
2026-01-14 00:03:14.34	206.09	28.98	-48.6	-52.3	14.0	1.50e-06	0	43	0	981467136	68	5616
2026-01-14 00:03:15.62	206.05	28.75	-47.8	-51.1	15.0	0.00e+00	0	43	0	983564288	67	5182
2026-01-14 00:03:16.33	206.03	28.62	-47.5	-50.7	15.4	0.00e+00	0	43	0	984612864	67	4950
2026-01-14 00:03:17.61	205.99	28.39	-47.4	-50.5	15.6	0.00e+00	0	43	0	987758592	66	5125
2026-01-14 00:03:18.34	205.97	28.26	-47.2	-50.3	15.8	0.00e+00	0	43	0	988807168	66	4998
2026-01-14 00:03:19.62	205.93	28.03	-47.2	-50.2	15.8	0.00e+00	0	43	0	990904320	65	5264
2026-01-14 00:03:20.33	205.90	27.90	-47.1	-50.2	15.9	0.00e+00	0	43	0	993001472	65	5224
2026-01-14 00:03:21.67	205.87	27.66	-47.4	-50.4	15.6	0.00e+00	0	43	0	995098624	65	5396
2026-01-14 00:03:22.38	205.84	27.54	-47.4	-50.5	15.6	0.00e+00	0	43	0	996147200	65	5407
2026-01-14 00:03:23.72	205.81	27.31	-47.3	-50.4	15.6	0.00e+00	0	43	0	999292928	65	5383
2026-01-14 00:03:24.43	205.79	27.18	-47.2	-50.2	15.8	0.00e+00	0	43	0	1000341504	65	5222
2026-01-14 00:03:25.71	205.75	26.96	-47.2	-50.2	15.8	0.00e+00	0	43	0	1002438656	65	5274
2026-01-14 00:03:26.44	205.73	26.84	-47.1	-50.1	15.9	0.00e+00	0	43	0	1003487232	65	5192
2026-01-14 00:03:27.72	205.69	26.62	-46.8	-49.6	16.3	0.00e+00	0	43	0	1006632960	65	4908
2026-01-14 00:03:28.44	205.67	26.50	-46.8	-49.6	16.3	0.00e+00	0	43	0	1007681536	65	4914
2026-01-14 00:03:29.72	205.64	26.28	-46.7	-49.6	16.3	0.00e+00	0	43	0	1009778688	65	4901
2026-01-14 00:03:30.45	205.62	26.16	-46.7	-49.5	16.3	0.00e+00	0	43	0	1011875840	65	4868
2026-01-14 00:03:31.73	205.59	25.95	-46.8	-49.8	16.1	0.00e+00	0	43	0	1013972992	65	4998
2026-01-14 00:03:32.44	205.57	25.83	-46.8	-49.7	16.1	0.00e+00	0	43	0	1015021568	65	4982
2026-01-14 00:03:33.72	205.53	25.62	-46.7	-49.6	16.2	0.00e+00	0	43	0	1017118720	65	4891
2026-01-14 00:03:34.43	205.52	25.51	-46.8	-49.7	16.1	0.00e+00	0	43	0	1019215872	65	4942
2026-01-14 00:03:35.71	205.48	25.30	-46.9	-50.0	15.8	0.00e+00	0	43	0	1021313024	65	5122
2026-01-14 00:03:36.67	205.46	25.15	-46.9	-50.0	15.8	0.00e+00	0	43	0	1023410176	65	5126
2026-01-14 00:03:37.98	205.43	24.94	-47.1	-50.2	15.5	0.00e+00	0	43	0	1025507328	65	5227
2026-01-14 00:03:38.69	205.41	24.82	-47.0	-50.1	15.6	0.00e+00	0	43	0	1026555904	65	5173
2026-01-14 00:03:39.97	205.38	24.62	-47.0	-50.1	15.6	0.00e+00	0	43	0	1029701632	65	5198
2026-01-14 00:03:40.68	205.36	24.51	-47.0	-50.1	15.6	0.00e+00	0	43	0	1030750208	65	5179
2026-01-14 00:03:41.96	205.33	24.31	-46.9	-50.0	15.6	0.00e+00	0	43	0	1032847360	65	5137
2026-01-14 00:03:42.67	205.32	24.20	-47.0	-50.2	15.5	0.00e+00	0	43	0	1034944512	65	5220
2026-01-14 00:03:43.95	205.29	24.00	-46.9	-50.0	15.7	0.00e+00	0	43	0	1037041664	65	5121
2026-01-14 00:03:44.69	205.27	23.89	-47.0	-50.1	15.5	0.00e+00	0	43	0	1038090240	65	5217
2026-01-14 00:03:45.97	205.24	23.69	-47.3	-50.6	15.0	0.00e+00	0	43	0	1040187392	65	5520
2026-01-14 00:03:46.68	205.22	23.59	-47.5	-51.0	14.7	0.00e+00	0	43	0	1042284544	65	5743
2026-01-14 00:03:48.13	205.19	23.37	-47.8	-51.5	14.1	7.00e-07	0	43	0	1044381696	66	5761
2026-01-14 00:03:48.85	205.18	23.26	-47.8	-51.5	14.2	7.00e-07	0	43	0	1046478848	66	5760
2026-01-14 00:03:50.13	205.15	23.07	-47.9	-51.7	14.0	2.20e-06	0	43	0	1048576000	66	5858
2026-01-14 00:03:51.18	205.13	22.92	-47.8	-51.5	14.0	5.30e-06	0	43	0	1050673152	66	5759
2026-01-14 00:03:52.37	205.10	22.74	-48.1	-52.1	13.6	3.00e-06	0	43	0	1052770304	66	6137
2026-01-14 00:03:53.36	205.08	22.60	-47.8	-51.6	14.0	1.50e-06	0	43	0	1054867456	66	5794
2026-01-14 00:03:54.36	205.06	22.45	-47.9	-51.7	13.9	3.00e-06	0	43	0	1055916032	66	5871
2026-01-14 00:03:55.35	205.04	22.31	-47.5	-51.0	14.5	3.80e-06	0	43	0	1058013184	66	5461
2026-01-14 00:03:56.35	205.02	22.17	-47.3	-50.8	14.8	0.00e+00	0	43	0	1060110336	66	5281
2026-01-14 00:03:57.34	205.00	22.02	-47.2	-50.6	15.1	0.00e+00	0	43	0	1062207488	66	5162
2026-01-14 00:03:58.34	204.98	21.88	-47.0	-50.3	15.2	0.00e+00	0	43	0	1064304640	66	5021
2026-01-14 00:03:59.33	204.96	21.74	-46.9	-50.1	15.5	0.00e+00	0	43	0	1065353216	65	5167
2026-01-14 00:04:00.33	204.94	21.60	-47.0	-50.3	15.2	0.00e+00	0	44	0	1067450368	65	5300
2026-01-14 00:04:01.32	204.92	21.47	-47.0	-50.2	15.3	0.00e+00	0	43	0	1069547520	65	5261
2026-01-14 00:04:02.32	204.91	21.33	-46.9	-50.0	15.4	0.00e+00	0	43	0	1071644672	65	5153
2026-01-14 00:04:03.31	204.89	21.19	-46.8	-50.0	15.5	0.00e+00	0	43	0	1072693248	65	5116
2026-01-14 00:04:04.34	204.87	21.05	-46.8	-49.9	15.5	0.00e+00	0	43	0	1074790400	65	5097
2026-01-14 00:04:05.37	204.85	20.91	-46.8	-50.0	15.4	0.00e+00	0	43	0	1076887552	65	5134
2026-01-14 00:04:06.36	204.83	20.77	-47.0	-50.2	15.2	0.00e+00	0	43	0	1078984704	65	5265
2026-01-14 00:04:07.41	204.81	20.63	-47.0	-50.3	15.1	0.00e+00	0	43	0	1081081856	65	5312
2026-01-14 00:04:08.37	204.80	20.50	-46.9	-50.1	15.3	0.00e+00	0	43	0	1082130432	65	5208
2026-01-14 00:04:09.49	204.78	20.35	-47.1	-50.5	15.0	0.00e+00	0	43	0	1084227584	65	5408
2026-01-14 00:04:10.34	204.76	20.24	-47.2	-50.6	14.8	0.00e+00	0	43	0	1086324736	65	5523
2026-01-14 00:04:11.48	204.74	20.09	-46.9	-50.2	15.2	0.00e+00	0	43	0	1088421888	65	5267
2026-01-14 00:04:12.33	204.73	19.98	-46.9	-50.2	15.2	0.00e+00	0	43	0	1090519040	65	5256
2026-01-14 00:04:13.47	204.71	19.83	-46.7	-49.8	15.5	0.00e+00	0	43	0	1092616192	65	5013
2026-01-14 00:04:14.32	204.69	19.72	-46.5	-49.7	15.7	0.00e+00	0	43	0	1093664768	65	4931
2026-01-14 00:04:15.46	204.67	19.57	-46.5	-49.6	15.7	0.00e+00	0	43	0	1095761920	65	4917
2026-01-14 00:04:16.31	204.66	19.46	-46.5	-49.5	15.8	0.00e+00	0	43	0	1097859072	64	5145
2026-01-14 00:04:17.45	204.64	19.32	-46.4	-49.4	15.9	0.00e+00	0	43	0	1099956224	64	5074
2026-01-14 00:04:18.30	204.63	19.21	-46.5	-49.6	15.7	0.00e+00	0	43	0	1101004800	64	5218
2026-01-14 00:04:19.44	204.61	19.06	-46.4	-49.4	15.9	0.00e+00	0	43	0	1103101952	64	5094
2026-01-14 00:04:20.29	204.60	18.96	-46.3	-49.3	16.0	0.00e+00	0	43	0	1105199104	64	5007
2026-01-14 00:04:21.43	204.58	18.81	-46.6	-49.7	15.7	0.00e+00	0	43	0	1107296256	64	5240
2026-01-14 00:04:22.28	204.57	18.71	-46.7	-49.8	15.6	0.00e+00	0	44	0	1108344832	64	5319
2026-01-14 00:04:23.50	204.55	18.55	-46.7	-49.9	15.5	0.00e+00	0	43	0	1110441984	64	5341
2026-01-14 00:04:24.35	204.53	18.45	-46.9	-50.2	15.2	0.00e+00	0	43	0	1112539136	64	5554
2026-01-14 00:04:25.49	204.52	18.31	-47.0	-50.3	15.1	0.00e+00	0	43	0	1114636288	64	5604
2026-01-14 00:04:26.34	204.50	18.21	-47.1	-50.5	14.8	0.00e+00	0	43	0	1116733440	64	5762
2026-01-14 00:04:27.48	204.49	18.07	-47.2	-50.6	14.8	0.00e+00	0	43	0	1118830592	65	5478
2026-01-14 00:04:28.33	204.48	17.96	-47.4	-51.0	14.4	0.00e+00	0	43	0	1119879168	65	5729
2026-01-14 00:04:29.47	204.46	17.83	-47.7	-51.5	14.0	7.00e-07	0	43	0	1121976320	65	6068
2026-01-14 00:04:30.32	204.45	17.72	-47.7	-51.4	13.8	4.50e-06	0	43	0	1124073472	66	5697
2026-01-14 00:04:31.46	204.43	17.59	-47.8	-51.6	13.7	1.50e-06	0	43	0	1126170624	66	5840
2026-01-14 00:04:32.32	204.42	17.49	-48.1	-52.1	13.2	1.29e-05	0	43	0	1127219200	66	6161
2026-01-14 00:04:33.45	204.40	17.35	-47.9	-51.9	13.4	1.14e-05	0	43	0	1129316352	66	6012
2026-01-14 00:04:34.31	204.39	17.25	-48.0	-52.0	13.3	1.37e-05	0	43	0	1131413504	66	6081
2026-01-14 00:04:35.45	204.38	17.12	-48.1	-52.3	13.1	4.65e-05	0	43	0	1133510656	67	5932
2026-01-14 00:04:36.30	204.36	17.02	-48.1	-52.1	13.2	2.36e-05	0	43	0	1134559232	67	5848
2026-01-14 00:04:37.44	204.35	16.89	-48.0	-52.0	13.3	1.60e-05	0	43	0	1136656384	67	5748
2026-01-14 00:04:38.29	204.34	16.79	-48.0	-52.0	13.3	2.13e-05	0	43	0	1138753536	67	5757
2026-01-14 00:04:39.43	204.32	16.66	-48.1	-52.1	13.2	2.28e-05	0	43	0	1140850688	67	5834
2026-01-14 00:04:40.28	204.31	16.56	-48.1	-52.2	13.0	2.28e-05	0	43	0	1142947840	67	5913
2026-01-14 00:04:41.51	204.30	16.42	-48.0	-52.0	13.3	2.36e-05	0	43	0	1145044992	67	5752
2026-01-14 00:04:42.37	204.28	16.32	-47.9	-51.8	13.4	2.44e-05	0	43	0	1146093568	67	5656
2026-01-14 00:04:43.58	204.27	16.19	-48.0	-52.1	13.1	1.29e-05	0	43	0	1148190720	67	5804
2026-01-14 00:04:44.44	204.26	16.09	-47.9	-51.9	13.4	1.98e-05	0	43	0	1150287872	67	5691
2026-01-14 00:04:45.57	204.24	15.96	-48.0	-52.1	13.2	1.75e-05	0	43	0	1152385024	67	5800
2026-01-14 00:04:46.43	204.23	15.87	-48.1	-52.3	13.0	1.60e-05	0	43	0	1154482176	67	5948
2026-01-14 00:04:47.57	204.22	15.74	-48.0	-52.0	13.0	3.35e-05	0	43	0	1156579328	67	5788
2026-01-14 00:04:48.42	204.21	15.65	-47.9	-52.0	13.2	3.05e-05	0	43	0	1157627904	67	5756
2026-01-14 00:04:49.55	204.20	15.52	-48.0	-52.2	13.0	2.89e-05	0	43	0	1159725056	67	5876
2026-01-14 00:04:50.40	204.19	15.43	-48.1	-52.2	13.0	3.35e-05	0	43	0	1161822208	67	5884
2026-01-14 00:04:51.54	204.17	15.31	-48.1	-52.3	12.9	3.50e-05	0	43	0	1163919360	67	5971
2026-01-14 00:04:52.39	204.16	15.21	-48.2	-52.5	12.7	5.56e-05	0	43	0	1164967936	67	6083
2026-01-14 00:04:53.53	204.15	15.09	-48.2	-52.5	12.7	5.72e-05	0	43	0	1167065088	67	6083
2026-01-14 00:04:54.38	204.14	15.00	-48.3	-52.6	12.5	8.54e-05	0	43	0	1169162240	67	6190
2026-01-14 00:04:55.52	204.13	14.88	-48.2	-52.4	12.6	1.10e-04	0	43	0	1171259392	67	6043
2026-01-14 00:04:56.37	204.12	14.79	-48.1	-52.2	13.0	5.56e-05	0	43	0	1172307968	67	5911
2026-01-14 00:04:57.51	204.10	14.67	-48.2	-52.5	12.6	1.52e-04	0	43	0	1174405120	67	6129
2026-01-14 00:04:58.36	204.09	14.58	-48.3	-52.7	12.5	1.09e-04	0	43	0	1176502272	67	6214
2026-01-14 00:04:59.50	204.08	14.46	-48.4	-52.9	12.3	1.14e-04	0	43	0	1178599424	67	6366
2026-01-14 00:05:00.35	204.07	14.37	-48.5	-53.1	12.0	2.78e-04	0	43	0	1179648000	67	6536
2026-01-14 00:05:01.60	204.06	14.24	-48.2	-52.6	12.5	1.33e-04	0	43	0	1182793728	67	6146
2026-01-14 00:05:02.45	204.05	14.15	-48.3	-52.8	12.3	1.16e-04	0	43	0	1183842304	67	6286
2026-01-14 00:05:03.59	204.04	14.03	-48.4	-52.9	12.2	1.69e-04	0	43	0	1185939456	67	6369
2026-01-14 00:05:04.44	204.03	13.95	-48.3	-52.7	12.4	1.31e-04	0	43	0	1188036608	67	6262
2026-01-14 00:05:05.58	204.02	13.83	-48.4	-52.9	12.2	1.97e-04	0	43	0	1190133760	67	6382
2026-01-14 00:05:06.43	204.01	13.74	-48.5	-53.1	12.0	2.42e-04	0	43	0	1191182336	67	6565
2026-01-14 00:05:07.57	204.00	13.63	-48.4	-53.1	12.1	2.51e-04	0	43	0	1193279488	67	6506
2026-01-14 00:05:08.42	203.99	13.54	-48.4	-53.0	12.2	2.81e-04	0	43	0	1195376640	67	6431
2026-01-14 00:05:09.55	203.98	13.43	-48.3	-52.9	12.2	2.57e-04	0	44	0	1197473792	67	6404
2026-01-14 00:05:10.41	203.97	13.34	-48.3	-52.8	12.4	2.67e-04	0	43	0	1198522368	67	6299
2026-01-14 00:05:11.55	203.96	13.23	-48.3	-52.9	12.3	2.00e-04	0	43	0	1200619520	67	6385
2026-01-14 00:05:12.40	203.95	13.14	-48.3	-52.9	12.2	2.08e-04	0	43	0	1202716672	67	6371
2026-01-14 00:05:13.54	203.94	13.03	-48.4	-53.1	12.1	2.44e-04	0	43	0	1204813824	67	6499
2026-01-14 00:05:14.39	203.93	12.95	-48.3	-52.9	12.3	1.88e-04	0	43	0	1206910976	67	6359
2026-01-14 00:05:15.53	203.92	12.83	-48.1	-52.5	12.6	1.30e-04	0	43	0	1209008128	67	6117
2026-01-14 00:05:16.38	203.91	12.75	-48.0	-52.4	12.8	5.56e-05	0	43	0	1210056704	67	6019
2026-01-14 00:05:17.62	203.90	12.63	-48.0	-52.3	12.8	5.87e-05	0	43	0	1212153856	67	5989
2026-01-14 00:05:18.47	203.89	12.55	-47.9	-52.1	13.0	6.94e-05	0	43	0	1214251008	67	5845
2026-01-14 00:05:19.60	203.88	12.44	-48.0	-52.4	12.7	3.58e-05	0	43	0	1216348160	67	6028
2026-01-14 00:05:20.46	203.87	12.36	-48.1	-52.6	12.6	6.79e-05	0	43	0	1217396736	67	6153
2026-01-14 00:05:21.60	203.86	12.25	-47.9	-52.1	13.1	3.43e-05	0	43	0	1219493888	67	5817
2026-01-14 00:05:22.45	203.85	12.16	-47.9	-52.2	13.0	4.42e-05	0	43	0	1221591040	67	5894
2026-01-14 00:05:23.59	203.84	12.06	-47.9	-52.2	13.1	6.17e-05	0	43	0	1223688192	67	5913
2026-01-14 00:05:24.44	203.84	11.98	-48.0	-52.3	12.8	4.34e-05	0	43	0	1224736768	67	5986
2026-01-14 00:05:25.58	203.83	11.87	-48.0	-52.5	12.7	5.11e-05	0	43	0	1227882496	67	6089
2026-01-14 00:05:26.43	203.82	11.79	-48.0	-52.4	12.8	8.16e-05	0	43	0	1228931072	67	5997
2026-01-14 00:05:27.57	203.81	11.68	-48.0	-52.5	12.8	4.73e-05	0	43	0	1231028224	67	6062
2026-01-14 00:05:28.42	203.80	11.60	-48.0	-52.5	12.6	7.85e-05	0	43	0	1233125376	67	6131
2026-01-14 00:05:29.56	203.79	11.50	-48.0	-52.5	12.6	6.40e-05	0	43	0	1235222528	67	6131
2026-01-14 00:05:30.41	203.78	11.42	-48.1	-52.7	12.5	5.72e-05	0	43	0	1236271104	67	6223
2026-01-14 00:05:31.55	203.78	11.31	-48.1	-52.6	12.6	1.14e-04	0	43	0	1238368256	67	6168
2026-01-14 00:05:32.40	203.77	11.23	-48.0	-52.5	12.8	6.33e-05	0	43	0	1240465408	67	6067
