passes_logs/2026/01/13/T1/T1__20260113_015332_SUOMI_NPP_rec.log

#Pass ID: 20260113_015332_SUOMI NPP
#Satellite: SUOMI NPP
#Configuration: NPP
#almurnet v.1.7.20251203
#Start time: 2026-01-13 01:53:33

#Version: 2.0.20230620
#Station: T1
#Location: 37.570604 lon 55.790049 lat
#TLE: 1 37849U 11061A   26012.28456845  .00000093  00000+0  65163-4 0  9999
#TLE: 2 37849  98.7807 314.3566 0002508  68.3553 291.7890 14.19524725736322

#Time	Az	El	Level	Level2	SNR	BER	BlckErr	Temp	State	Recorded	gain1	gain2
2026-01-13 01:53:33.76	3.89	5.06	-47.0	-65.7	3.8	1.49e+00	0	36	0	0	65	31359
2026-01-13 01:53:34.75	3.79	5.11	-46.0	-65.7	3.8	1.49e+00	0	37	104	0	62	37058
2026-01-13 01:53:35.74	3.70	5.16	-46.0	-65.7	3.8	1.49e+00	0	36	104	0	62	37191
2026-01-13 01:53:36.73	3.60	5.22	-46.0	-65.7	3.8	1.49e+00	0	36	104	0	62	37255
2026-01-13 01:53:37.73	3.50	5.27	-46.0	-65.7	3.8	1.49e+00	0	36	104	0	62	37201
2026-01-13 01:53:38.72	3.40	5.32	-46.0	-65.7	3.8	1.49e+00	0	37	104	0	62	37129
2026-01-13 01:53:39.71	3.30	5.38	-46.0	-65.7	3.8	1.49e+00	0	37	104	0	62	37123
2026-01-13 01:53:40.71	3.19	5.43	-46.0	-65.7	3.8	1.49e+00	0	37	104	0	62	37047
2026-01-13 01:53:41.70	3.09	5.49	-46.1	-65.7	3.8	1.49e+00	0	37	104	0	62	37097
2026-01-13 01:53:42.70	2.99	5.54	-46.1	-65.7	3.8	1.49e+00	0	37	104	0	62	37080
2026-01-13 01:53:43.69	2.89	5.59	-46.1	-65.7	3.8	1.49e+00	0	37	104	0	62	37083
2026-01-13 01:53:44.68	2.79	5.65	-46.1	-65.7	3.8	1.49e+00	0	37	104	0	62	37018
2026-01-13 01:53:45.68	2.68	5.70	-46.1	-65.7	3.8	1.49e+00	0	37	104	0	62	37044
2026-01-13 01:53:46.67	2.58	5.75	-46.1	-65.7	3.8	1.49e+00	0	37	104	0	62	37060
2026-01-13 01:53:47.66	2.48	5.81	-46.1	-65.7	3.8	1.49e+00	0	37	104	0	62	37103
2026-01-13 01:53:48.66	2.37	5.86	-46.1	-65.7	3.8	1.49e+00	0	37	104	0	62	37267
2026-01-13 01:53:49.65	2.27	5.92	-46.1	-65.7	3.8	1.49e+00	0	37	104	0	62	37094
2026-01-13 01:53:50.64	2.16	5.97	-46.1	-65.7	3.8	1.49e+00	0	37	104	0	62	37288
2026-01-13 01:53:51.64	2.06	6.02	-46.1	-65.7	3.8	1.49e+00	0	37	104	0	62	37212
2026-01-13 01:53:52.63	1.95	6.08	-46.1	-65.7	3.8	1.49e+00	0	37	104	0	62	37157
2026-01-13 01:53:53.62	1.85	6.13	-46.1	-65.7	3.8	1.49e+00	0	37	104	0	62	37134
2026-01-13 01:53:54.62	1.74	6.19	-46.1	-65.7	3.8	1.49e+00	0	37	104	0	62	37062
2026-01-13 01:53:55.61	1.63	6.24	-46.1	-65.7	3.8	1.49e+00	0	37	104	0	62	37103
2026-01-13 01:53:56.60	1.53	6.29	-46.1	-65.7	3.8	1.49e+00	0	37	104	0	62	37165
2026-01-13 01:53:57.60	1.42	6.35	-46.1	-65.7	3.8	1.49e+00	0	37	104	0	62	37263
2026-01-13 01:53:58.59	1.31	6.40	-46.1	-65.7	3.8	1.49e+00	0	37	104	0	62	37149
2026-01-13 01:53:59.58	1.20	6.46	-46.1	-65.7	3.8	1.49e+00	0	37	104	0	62	37110
2026-01-13 01:54:00.58	1.09	6.51	-46.1	-65.7	3.8	1.49e+00	0	37	104	0	62	37074
2026-01-13 01:54:01.57	0.98	6.56	-46.1	-65.6	3.8	1.49e+00	0	37	104	0	62	36901
2026-01-13 01:54:02.57	0.87	6.62	-46.1	-65.6	3.8	1.49e+00	0	37	104	0	62	36864
2026-01-13 01:54:03.56	0.76	6.67	-46.1	-65.6	3.8	1.49e+00	0	37	104	0	62	36840
2026-01-13 01:54:04.55	0.65	6.73	-46.1	-65.7	3.8	1.49e+00	0	37	104	0	62	36965
2026-01-13 01:54:05.55	0.54	6.78	-46.1	-65.7	3.8	1.49e+00	0	38	104	0	62	37218
2026-01-13 01:54:06.54	0.43	6.83	-46.1	-65.7	3.8	1.49e+00	0	37	104	0	62	37222
2026-01-13 01:54:07.53	0.32	6.89	-46.1	-65.7	3.8	1.49e+00	0	38	104	0	62	37217
2026-01-13 01:54:08.53	0.21	6.94	-46.1	-65.7	3.8	1.49e+00	0	38	104	0	62	37149
2026-01-13 01:54:09.52	0.09	7.00	-46.1	-65.7	3.8	1.49e+00	0	38	104	0	62	37333
2026-01-13 01:54:10.51	359.98	7.05	-46.1	-65.7	3.8	1.49e+00	0	38	104	0	62	37205
2026-01-13 01:54:11.51	359.87	7.11	-46.1	-65.7	3.8	1.49e+00	0	38	104	0	62	37303
2026-01-13 01:54:12.50	359.75	7.16	-46.1	-65.7	3.8	1.49e+00	0	38	104	0	62	37074
2026-01-13 01:54:13.49	359.64	7.21	-46.1	-65.6	3.8	1.49e+00	0	38	104	0	62	36902
2026-01-13 01:54:14.49	359.52	7.27	-46.1	-65.5	3.8	1.49e+00	0	38	104	0	62	36403
2026-01-13 01:54:15.48	359.41	7.32	-46.1	-65.3	3.8	1.49e+00	0	38	104	0	62	35685
2026-01-13 01:54:16.48	359.29	7.38	-46.1	-65.3	3.8	1.49e+00	0	38	104	0	62	35369
2026-01-13 01:54:17.47	359.18	7.43	-46.1	-65.3	3.8	1.49e+00	0	38	104	0	62	35338
2026-01-13 01:54:18.46	359.06	7.48	-46.1	-65.4	3.8	1.49e+00	0	38	104	0	62	35986
2026-01-13 01:54:19.46	358.94	7.54	-46.1	-65.5	3.8	1.49e+00	0	38	104	0	62	36130
2026-01-13 01:54:20.45	358.82	7.59	-46.1	-65.4	3.8	1.49e+00	0	38	104	0	62	36087
2026-01-13 01:54:21.44	358.71	7.65	-46.1	-65.4	3.8	1.49e+00	0	38	104	0	62	35775
2026-01-13 01:54:22.44	358.59	7.70	-46.1	-65.1	3.8	1.49e+00	0	38	104	0	62	34718
2026-01-13 01:54:23.43	358.47	7.76	-46.1	-64.9	3.8	1.49e+00	0	38	104	0	62	33917
2026-01-13 01:54:24.42	358.35	7.81	-46.1	-64.8	3.8	1.49e+00	0	38	104	0	62	33631
2026-01-13 01:54:25.42	358.23	7.86	-46.1	-64.9	3.8	1.49e+00	0	38	104	0	62	33735
2026-01-13 01:54:26.41	358.11	7.92	-46.1	-65.0	3.8	1.49e+00	0	38	104	0	62	34349
2026-01-13 01:54:27.40	357.99	7.97	-46.1	-65.2	3.8	1.49e+00	0	38	104	0	62	35012
2026-01-13 01:54:28.40	357.87	8.03	-46.1	-65.4	3.8	1.49e+00	0	38	104	0	62	35748
2026-01-13 01:54:29.39	357.74	8.08	-46.1	-65.5	3.8	1.49e+00	0	38	104	0	62	36119
2026-01-13 01:54:30.38	357.62	8.13	-46.1	-65.5	3.8	1.49e+00	0	38	104	0	62	36371
2026-01-13 01:54:31.38	357.50	8.19	-46.1	-65.6	3.8	1.49e+00	0	38	104	0	62	36860
2026-01-13 01:54:32.37	357.38	8.24	-46.1	-65.7	3.8	1.49e+00	0	38	104	0	62	37112
2026-01-13 01:54:33.36	357.25	8.30	-46.1	-65.6	3.8	1.49e+00	0	38	104	0	62	36564
2026-01-13 01:54:34.36	357.13	8.35	-46.1	-64.8	3.8	1.49e+00	0	38	104	0	62	33532
2026-01-13 01:54:35.35	357.00	8.41	-46.1	-63.2	3.9	1.49e+00	0	38	104	0	62	27888
2026-01-13 01:54:36.34	356.88	8.46	-46.0	-61.2	4.5	1.37e+00	0	38	0	0	62	22250
2026-01-13 01:54:37.34	356.75	8.51	-45.9	-59.4	5.4	7.18e-01	0	38	0	1048576	62	17979
2026-01-13 01:54:38.33	356.63	8.57	-45.8	-58.1	6.4	3.76e-01	0	38	0	3145728	62	15416
2026-01-13 01:54:39.32	356.50	8.62	-45.7	-57.4	7.0	1.63e-01	0	38	0	5242880	62	14286
2026-01-13 01:54:40.32	356.37	8.68	-45.6	-56.5	7.8	1.04e-01	0	38	0	7340032	62	12839
2026-01-13 01:54:41.31	356.25	8.73	-45.6	-56.2	8.1	6.00e-02	0	38	0	9437184	62	12435
2026-01-13 01:54:42.30	356.12	8.78	-45.5	-55.9	8.3	5.43e-02	0	38	0	10485760	62	12055
2026-01-13 01:54:43.30	355.99	8.84	-45.5	-55.5	8.7	3.71e-02	0	38	0	12582912	62	11540
2026-01-13 01:54:44.29	355.86	8.89	-45.5	-55.4	8.9	3.00e-02	0	38	0	14680064	62	11345
2026-01-13 01:54:45.28	355.73	8.95	-45.4	-55.3	9.0	2.96e-02	0	38	0	16777216	62	11182
2026-01-13 01:54:46.28	355.60	9.00	-45.5	-55.6	8.7	2.76e-02	0	38	0	17825792	62	11573
2026-01-13 01:54:47.27	355.47	9.05	-45.6	-56.3	8.0	4.99e-02	0	38	0	19922944	62	12540
2026-01-13 01:54:48.27	355.34	9.11	-46.0	-57.5	6.9	2.22e-01	0	38	0	22020096	62	14415
2026-01-13 01:54:49.26	355.21	9.16	-45.7	-55.2	9.1	3.30e-02	0	38	0	24117248	62	11109
2026-01-13 01:54:50.26	355.08	9.22	-46.0	-58.8	5.8	6.75e-02	0	38	0	26214400	62	16869
2026-01-13 01:54:51.33	354.93	9.27	-47.5	-61.1	4.0	1.49e+00	0	38	104	26214400	66	17460
2026-01-13 01:54:52.23	354.81	9.32	-44.9	-51.7	12.6	1.52e-03	0	39	0	27262976	61	7827
2026-01-13 01:54:53.48	354.65	9.39	-45.0	-51.9	12.4	1.68e-04	0	38	0	29360128	61	8074
2026-01-13 01:54:54.33	354.53	9.44	-44.9	-52.0	12.3	1.52e-04	0	38	0	30408704	61	8156
2026-01-13 01:54:55.46	354.38	9.50	-44.8	-51.7	12.6	1.43e-04	0	38	0	32505856	61	7852
2026-01-13 01:54:56.32	354.26	9.54	-44.9	-51.8	12.5	1.30e-04	0	38	0	34603008	61	7929
2026-01-13 01:54:57.45	354.11	9.60	-44.9	-52.2	12.2	2.57e-04	0	38	0	36700160	61	8279
2026-01-13 01:54:58.31	353.99	9.65	-45.0	-52.2	12.0	2.00e-04	0	38	0	37748736	61	8360
2026-01-13 01:54:59.44	353.83	9.71	-44.8	-51.9	12.4	1.66e-04	0	38	0	39845888	61	8065
2026-01-13 01:55:00.30	353.72	9.76	-44.9	-51.8	12.5	1.59e-04	0	38	0	41943040	61	7957
2026-01-13 01:55:01.43	353.56	9.82	-45.0	-51.4	12.9	9.07e-05	0	38	0	44040192	61	7569
2026-01-13 01:55:02.28	353.44	9.86	-45.0	-51.4	12.9	5.18e-05	0	38	0	46137344	61	7594
2026-01-13 01:55:03.42	353.28	9.92	-45.2	-51.3	13.0	4.04e-05	0	38	0	48234496	61	7459
2026-01-13 01:55:04.28	353.16	9.97	-45.3	-51.3	13.0	2.51e-05	0	39	0	49283072	61	7505
2026-01-13 01:55:05.41	353.00	10.03	-45.4	-51.5	12.8	3.96e-05	0	38	0	51380224	61	7705
2026-01-13 01:55:06.27	352.88	10.08	-45.9	-51.5	12.8	5.56e-05	0	39	0	53477376	62	7252
2026-01-13 01:55:07.40	352.72	10.14	-46.1	-51.5	12.9	4.42e-05	0	38	0	55574528	62	7219
2026-01-13 01:55:08.26	352.60	10.18	-46.3	-51.7	12.7	7.32e-05	0	38	0	56623104	63	6960
2026-01-13 01:55:09.39	352.44	10.24	-46.6	-52.0	12.4	1.10e-04	0	39	0	58720256	63	7226
2026-01-13 01:55:10.25	352.31	10.29	-46.6	-51.8	12.5	1.58e-04	0	39	0	60817408	64	6708
2026-01-13 01:55:11.39	352.15	10.35	-46.5	-51.6	12.6	1.50e-04	0	39	0	62914560	64	6524
2026-01-13 01:55:12.24	352.03	10.39	-46.5	-51.7	12.6	1.10e-04	0	39	0	63963136	64	6620
2026-01-13 01:55:13.37	351.86	10.45	-46.2	-51.3	13.0	6.86e-05	0	38	0	66060288	64	6314
2026-01-13 01:55:14.31	351.73	10.50	-46.3	-51.8	12.5	3.89e-05	0	38	0	68157440	64	6673
2026-01-13 01:55:15.48	351.56	10.57	-46.0	-51.5	12.7	4.57e-05	0	39	0	70254592	64	6492
2026-01-13 01:55:16.33	351.43	10.61	-45.9	-51.7	12.7	8.77e-05	0	38	0	72351744	63	6970
2026-01-13 01:55:17.66	351.24	10.68	-45.9	-52.0	12.4	1.03e-04	0	39	0	74448896	63	7215
2026-01-13 01:55:18.37	351.13	10.72	-45.8	-52.1	12.2	1.50e-04	0	39	0	75497472	63	7356
2026-01-13 01:55:19.65	350.94	10.79	-45.9	-52.5	11.8	2.46e-04	0	39	0	78643200	63	7691
2026-01-13 01:55:20.36	350.84	10.82	-45.8	-52.4	12.0	3.05e-04	0	39	0	79691776	63	7544
2026-01-13 01:55:21.64	350.65	10.89	-45.8	-52.4	11.9	3.20e-04	0	39	0	81788928	63	7619
2026-01-13 01:55:22.36	350.54	10.93	-45.8	-52.6	11.7	3.10e-04	0	39	0	82837504	63	7784
2026-01-13 01:55:23.64	350.35	11.00	-45.7	-52.2	12.1	2.74e-04	0	39	0	85983232	63	7453
2026-01-13 01:55:24.36	350.24	11.03	-45.9	-52.3	12.1	2.11e-04	0	39	0	87031808	63	7479
2026-01-13 01:55:25.64	350.04	11.10	-46.0	-52.2	12.2	2.27e-04	0	39	0	89128960	63	7408
2026-01-13 01:55:26.49	349.91	11.14	-46.1	-52.3	12.1	1.94e-04	0	39	0	91226112	63	7510
2026-01-13 01:55:27.63	349.74	11.20	-46.2	-52.7	11.7	3.78e-04	0	39	0	93323264	63	7848
2026-01-13 01:55:28.48	349.61	11.25	-46.0	-52.3	12.1	3.02e-04	0	39	0	94371840	63	7501
2026-01-13 01:55:29.62	349.43	11.31	-46.0	-52.4	12.0	3.71e-04	0	39	0	96468992	63	7566
2026-01-13 01:55:30.47	349.30	11.35	-45.9	-52.5	12.0	2.75e-04	0	39	0	98566144	63	7641
2026-01-13 01:55:31.61	349.13	11.41	-45.6	-52.3	12.1	3.46e-04	0	39	0	100663296	63	7480
2026-01-13 01:55:32.46	348.99	11.45	-45.5	-52.2	12.2	2.76e-04	0	39	0	102760448	63	7406
2026-01-13 01:55:33.59	348.82	11.51	-45.3	-52.2	12.2	2.17e-04	0	39	0	103809024	62	7852
2026-01-13 01:55:34.45	348.68	11.56	-45.1	-51.8	12.6	1.01e-04	0	39	0	105906176	62	7514
2026-01-13 01:55:35.60	348.50	11.61	-44.9	-51.4	13.0	9.76e-05	0	39	0	108003328	61	7589
2026-01-13 01:55:36.45	348.37	11.66	-44.9	-51.4	12.9	3.28e-05	0	39	0	110100480	61	7593
2026-01-13 01:55:37.59	348.19	11.72	-44.8	-51.1	13.3	1.52e-05	0	39	0	112197632	61	7324
2026-01-13 01:55:38.44	348.05	11.76	-44.9	-51.0	13.4	1.75e-05	0	39	0	113246208	61	7249
2026-01-13 01:55:39.58	347.87	11.82	-45.0	-51.3	13.1	1.29e-05	0	39	0	115343360	61	7480
2026-01-13 01:55:40.43	347.74	11.86	-45.2	-51.4	13.0	2.67e-05	0	39	0	117440512	61	7598
2026-01-13 01:55:41.57	347.55	11.92	-45.4	-51.5	12.9	2.74e-05	0	39	0	119537664	61	7645
2026-01-13 01:55:42.42	347.42	11.96	-45.5	-51.5	12.9	2.82e-05	0	39	0	120586240	61	7711
2026-01-13 01:55:43.56	347.23	12.02	-45.7	-51.5	13.0	4.42e-05	0	39	0	122683392	61	7638
2026-01-13 01:55:44.41	347.09	12.06	-45.8	-51.1	13.3	2.97e-05	0	39	0	124780544	62	6919
2026-01-13 01:55:45.54	346.91	12.12	-45.7	-50.9	13.5	8.30e-06	0	39	0	126877696	62	6762
2026-01-13 01:55:46.40	346.77	12.16	-45.7	-50.6	13.8	1.06e-05	0	39	0	127926272	62	6549
2026-01-13 01:55:47.54	346.58	12.22	-46.0	-50.4	14.0	2.20e-06	0	38	0	130023424	62	6383
2026-01-13 01:55:48.39	346.44	12.26	-45.8	-50.0	14.4	1.50e-06	0	39	0	132120576	62	6078
2026-01-13 01:55:49.52	346.26	12.32	-46.0	-50.2	14.2	7.00e-07	0	39	0	134217728	62	6239
2026-01-13 01:55:50.38	346.12	12.36	-46.1	-50.2	14.2	7.00e-07	0	39	0	136314880	62	6224
2026-01-13 01:55:51.51	345.93	12.41	-46.2	-50.3	14.0	0.00e+00	0	39	0	138412032	63	5986
2026-01-13 01:55:52.37	345.78	12.46	-46.0	-50.1	14.3	3.00e-06	0	39	0	139460608	63	5835
2026-01-13 01:55:53.60	345.58	12.52	-45.8	-49.8	14.5	0.00e+00	0	39	0	141557760	63	5650
2026-01-13 01:55:54.45	345.44	12.56	-45.8	-50.0	14.4	0.00e+00	0	39	0	143654912	63	5759
2026-01-13 01:55:55.67	345.23	12.62	-45.7	-49.9	14.6	7.00e-07	0	39	0	145752064	63	5661
2026-01-13 01:55:56.52	345.09	12.66	-45.6	-49.6	14.8	7.00e-07	0	39	0	147849216	63	5498
2026-01-13 01:55:57.72	344.88	12.72	-45.5	-49.4	14.9	0.00e+00	0	39	0	149946368	63	5401
2026-01-13 01:55:58.58	344.74	12.76	-45.5	-49.2	15.1	7.00e-07	0	39	0	150994944	63	5263
2026-01-13 01:55:59.71	344.54	12.81	-45.7	-49.3	15.0	0.00e+00	0	39	0	153092096	63	5338
2026-01-13 01:56:00.57	344.40	12.85	-45.8	-49.3	15.1	0.00e+00	0	39	0	155189248	63	5304
2026-01-13 01:56:01.70	344.20	12.91	-45.9	-49.4	15.0	0.00e+00	0	39	0	157286400	63	5368
2026-01-13 01:56:02.56	344.06	12.95	-45.9	-49.5	14.9	0.00e+00	0	39	0	158334976	63	5427
2026-01-13 01:56:03.69	343.86	13.00	-46.0	-49.8	14.6	0.00e+00	0	38	0	160432128	63	5610
2026-01-13 01:56:04.64	343.69	13.05	-45.9	-49.8	14.6	7.00e-07	0	39	0	162529280	63	5615
2026-01-13 01:56:05.63	343.52	13.10	-45.8	-49.8	14.6	7.00e-07	0	39	0	164626432	63	5607
2026-01-13 01:56:06.63	343.35	13.14	-45.6	-49.6	14.8	7.00e-07	0	39	0	166723584	63	5489
2026-01-13 01:56:07.62	343.17	13.19	-45.3	-49.1	15.3	0.00e+00	0	39	0	167772160	62	5505
2026-01-13 01:56:08.62	343.00	13.24	-45.1	-48.9	15.4	0.00e+00	0	39	0	169869312	62	5384
2026-01-13 01:56:09.61	342.82	13.28	-45.0	-49.1	15.3	0.00e+00	0	39	0	171966464	62	5469
2026-01-13 01:56:10.61	342.65	13.33	-45.0	-49.1	15.3	0.00e+00	0	39	0	174063616	61	5802
2026-01-13 01:56:11.60	342.47	13.37	-45.0	-49.2	15.1	0.00e+00	0	39	0	175112192	61	5904
2026-01-13 01:56:12.60	342.29	13.42	-45.1	-49.5	14.9	0.00e+00	0	39	0	177209344	61	6092
2026-01-13 01:56:13.59	342.12	13.46	-45.3	-49.7	14.7	0.00e+00	0	39	0	179306496	61	6230
2026-01-13 01:56:14.59	341.94	13.51	-45.4	-49.8	14.6	1.50e-06	0	39	0	181403648	61	6340
2026-01-13 01:56:15.59	341.76	13.56	-45.7	-50.2	14.2	3.00e-06	0	39	0	183500800	61	6583
2026-01-13 01:56:16.58	341.58	13.60	-45.8	-50.2	14.2	7.00e-07	0	39	0	184549376	62	6265
2026-01-13 01:56:17.58	341.40	13.64	-45.8	-50.3	14.1	3.00e-06	0	39	0	186646528	62	6296
2026-01-13 01:56:18.58	341.22	13.69	-45.9	-50.2	14.3	1.50e-06	0	39	0	188743680	62	6217
2026-01-13 01:56:19.57	341.04	13.73	-45.8	-49.9	14.5	0.00e+00	0	39	0	190840832	62	6037
2026-01-13 01:56:20.56	340.86	13.78	-45.6	-49.6	14.8	0.00e+00	0	39	0	192937984	62	5818
2026-01-13 01:56:21.56	340.67	13.82	-45.5	-49.4	15.0	0.00e+00	0	39	0	193986560	62	5666
2026-01-13 01:56:22.55	340.49	13.87	-45.4	-49.1	15.3	0.00e+00	0	39	0	196083712	62	5481
2026-01-13 01:56:23.55	340.31	13.91	-45.4	-49.1	15.3	0.00e+00	0	39	0	198180864	62	5488
2026-01-13 01:56:24.54	340.12	13.95	-45.2	-48.8	15.6	0.00e+00	0	39	0	200278016	62	5311
2026-01-13 01:56:25.54	339.94	14.00	-45.3	-48.9	15.4	0.00e+00	0	39	0	201326592	62	5372
2026-01-13 01:56:26.53	339.76	14.04	-45.1	-48.4	15.8	7.00e-07	0	39	0	203423744	62	5096
2026-01-13 01:56:27.53	339.57	14.08	-45.1	-48.4	16.0	0.00e+00	0	39	0	205520896	62	5056
2026-01-13 01:56:28.52	339.38	14.12	-45.1	-48.4	16.0	0.00e+00	0	39	0	207618048	62	5045
2026-01-13 01:56:29.52	339.20	14.17	-45.1	-48.2	16.1	0.00e+00	0	39	0	209715200	62	4980
2026-01-13 01:56:30.51	339.01	14.21	-45.1	-48.3	16.0	0.00e+00	0	39	0	210763776	62	4996
2026-01-13 01:56:31.51	338.82	14.25	-45.0	-48.3	16.0	0.00e+00	0	39	0	212860928	62	5001
2026-01-13 01:56:32.51	338.63	14.29	-45.2	-48.7	15.7	0.00e+00	0	39	0	214958080	62	5250
2026-01-13 01:56:33.50	338.45	14.33	-45.5	-49.3	15.2	0.00e+00	0	39	0	217055232	62	5600
2026-01-13 01:56:34.50	338.26	14.37	-45.7	-49.6	14.8	0.00e+00	0	39	0	218103808	62	5803
2026-01-13 01:56:35.49	338.07	14.41	-45.8	-49.7	14.8	0.00e+00	0	39	0	220200960	62	5865
2026-01-13 01:56:36.48	337.88	14.45	-45.8	-49.7	14.8	7.00e-07	0	39	0	222298112	62	5864
2026-01-13 01:56:37.48	337.69	14.49	-45.9	-49.7	14.8	0.00e+00	0	39	0	224395264	62	5889
2026-01-13 01:56:38.48	337.49	14.53	-45.8	-49.3	15.1	0.00e+00	0	39	0	226492416	62	5653
2026-01-13 01:56:39.47	337.30	14.57	-45.5	-48.9	15.6	0.00e+00	0	39	0	227540992	62	5352
2026-01-13 01:56:40.47	337.11	14.61	-45.5	-48.8	15.6	0.00e+00	0	39	0	229638144	62	5331
2026-01-13 01:56:41.46	336.92	14.65	-45.3	-48.6	15.8	0.00e+00	0	39	0	231735296	62	5162
2026-01-13 01:56:42.46	336.72	14.69	-45.1	-48.5	15.9	0.00e+00	0	39	0	233832448	62	5125
2026-01-13 01:56:43.45	336.53	14.73	-45.4	-48.9	15.6	0.00e+00	0	39	0	234881024	62	5345
2026-01-13 01:56:44.45	336.33	14.77	-45.6	-49.2	15.2	0.00e+00	0	39	0	236978176	62	5588
2026-01-13 01:56:45.44	336.14	14.81	-45.8	-49.5	14.9	0.00e+00	0	39	0	239075328	62	5784
2026-01-13 01:56:46.43	335.95	14.84	-46.0	-49.7	14.7	7.00e-07	0	39	0	241172480	62	5920
2026-01-13 01:56:47.46	335.74	14.88	-45.9	-49.6	14.9	7.00e-07	0	39	0	243269632	62	5800
2026-01-13 01:56:48.49	335.54	14.92	-45.9	-49.5	14.9	0.00e+00	0	39	0	244318208	62	5753
2026-01-13 01:56:49.48	335.34	14.96	-45.7	-49.2	15.3	0.00e+00	0	39	0	246415360	62	5536
2026-01-13 01:56:50.54	335.13	15.00	-45.4	-48.8	15.6	0.00e+00	0	39	0	248512512	62	5340
2026-01-13 01:56:51.44	334.95	15.03	-45.3	-48.9	15.5	0.00e+00	0	39	0	250609664	62	5344
2026-01-13 01:56:52.46	334.75	15.07	-45.2	-48.8	15.6	0.00e+00	0	39	0	252706816	62	5337
2026-01-13 01:56:53.45	334.55	15.10	-45.2	-48.9	15.5	0.00e+00	0	39	0	253755392	62	5348
2026-01-13 01:56:54.45	334.35	15.14	-45.2	-48.9	15.5	0.00e+00	0	39	0	255852544	62	5402
2026-01-13 01:56:55.44	334.15	15.17	-45.3	-48.9	15.5	0.00e+00	0	39	0	257949696	62	5371
2026-01-13 01:56:56.44	333.95	15.21	-45.3	-48.9	15.5	0.00e+00	0	39	0	260046848	62	5348
2026-01-13 01:56:57.43	333.75	15.24	-45.4	-48.8	15.6	0.00e+00	0	38	0	261095424	62	5299
2026-01-13 01:56:58.43	333.55	15.28	-45.6	-49.0	15.5	0.00e+00	0	39	0	263192576	62	5403
2026-01-13 01:56:59.42	333.35	15.31	-45.6	-48.9	15.5	0.00e+00	0	39	0	265289728	62	5358
2026-01-13 01:57:00.42	333.15	15.35	-45.5	-48.8	15.7	0.00e+00	0	38	0	267386880	62	5292
2026-01-13 01:57:01.42	332.94	15.38	-45.5	-48.9	15.5	0.00e+00	0	39	0	269484032	62	5350
2026-01-13 01:57:02.41	332.74	15.41	-45.5	-48.9	15.5	0.00e+00	0	39	0	270532608	62	5390
2026-01-13 01:57:03.40	332.54	15.45	-45.4	-48.9	15.5	0.00e+00	0	39	0	272629760	62	5358
2026-01-13 01:57:04.40	332.33	15.48	-45.5	-49.1	15.3	0.00e+00	0	39	0	274726912	62	5504
2026-01-13 01:57:05.39	332.13	15.51	-45.5	-49.2	15.3	0.00e+00	0	39	0	276824064	62	5560
2026-01-13 01:57:06.44	331.91	15.54	-45.5	-49.0	15.4	0.00e+00	0	39	0	278921216	62	5448
2026-01-13 01:57:07.43	331.71	15.57	-45.4	-48.9	15.6	0.00e+00	0	39	0	279969792	62	5355
2026-01-13 01:57:08.42	331.50	15.61	-45.5	-48.9	15.5	0.00e+00	0	39	0	282066944	62	5356
2026-01-13 01:57:09.52	331.28	15.64	-45.3	-48.5	15.9	0.00e+00	0	39	0	284164096	62	5136
2026-01-13 01:57:10.38	331.10	15.67	-45.0	-48.1	16.3	0.00e+00	0	39	0	286261248	62	4887
2026-01-13 01:57:11.51	330.86	15.70	-44.9	-47.9	16.3	0.00e+00	0	39	0	288358400	61	5080
2026-01-13 01:57:12.37	330.68	15.73	-44.8	-47.9	16.5	0.00e+00	0	39	0	289406976	61	5055
2026-01-13 01:57:13.50	330.45	15.76	-44.7	-47.8	16.6	0.00e+00	0	39	0	291504128	61	4999
2026-01-13 01:57:14.35	330.27	15.78	-45.0	-48.1	16.2	0.00e+00	0	39	0	293601280	61	5201
2026-01-13 01:57:15.49	330.03	15.82	-44.8	-47.8	16.6	0.00e+00	0	39	0	295698432	61	5005
2026-01-13 01:57:16.35	329.85	15.84	-44.9	-47.9	16.5	0.00e+00	0	39	0	296747008	61	5079
2026-01-13 01:57:17.48	329.61	15.87	-45.1	-48.2	16.2	0.00e+00	0	39	0	298844160	61	5252
2026-01-13 01:57:18.34	329.43	15.90	-45.0	-48.1	16.3	0.00e+00	0	39	0	300941312	61	5164
2026-01-13 01:57:19.50	329.18	15.93	-45.0	-48.1	16.3	0.00e+00	0	39	0	303038464	61	5179
2026-01-13 01:57:20.36	329.00	15.95	-45.1	-48.1	16.3	0.00e+00	0	39	0	304087040	61	5194
2026-01-13 01:57:21.49	328.76	15.98	-45.1	-48.2	16.1	0.00e+00	0	39	0	306184192	61	5275
2026-01-13 01:57:22.34	328.58	16.00	-44.9	-47.9	16.5	0.00e+00	0	39	0	308281344	61	5042
2026-01-13 01:57:23.61	328.31	16.04	-45.2	-48.4	16.1	0.00e+00	0	39	0	310378496	61	5355
2026-01-13 01:57:24.41	328.14	16.06	-45.4	-48.6	15.8	0.00e+00	0	39	0	312475648	61	5521
2026-01-13 01:57:25.55	327.90	16.09	-45.5	-48.9	15.6	0.00e+00	0	39	0	314572800	61	5666
2026-01-13 01:57:26.40	327.71	16.11	-45.6	-49.1	15.4	0.00e+00	0	39	0	315621376	61	5792
2026-01-13 01:57:27.54	327.47	16.14	-45.4	-48.8	15.6	0.00e+00	0	39	0	317718528	61	5635
2026-01-13 01:57:28.39	327.29	16.16	-45.4	-48.9	15.6	7.00e-07	0	39	0	319815680	61	5663
2026-01-13 01:57:29.53	327.04	16.18	-45.4	-48.7	15.7	0.00e+00	0	39	0	321912832	61	5577
2026-01-13 01:57:30.38	326.86	16.20	-45.4	-48.8	15.6	0.00e+00	0	38	0	322961408	61	5650
2026-01-13 01:57:31.52	326.61	16.23	-45.3	-48.7	15.7	0.00e+00	0	39	0	325058560	61	5548
2026-01-13 01:57:32.38	326.43	16.25	-45.2	-48.7	15.7	0.00e+00	0	39	0	327155712	61	5576
2026-01-13 01:57:33.51	326.18	16.27	-45.2	-48.9	15.6	0.00e+00	0	39	0	329252864	61	5658
2026-01-13 01:57:34.37	325.99	16.29	-45.1	-48.8	15.6	0.00e+00	0	39	0	330301440	61	5635
2026-01-13 01:57:35.50	325.75	16.32	-45.2	-48.9	15.5	0.00e+00	0	39	0	332398592	61	5720
2026-01-13 01:57:36.36	325.56	16.33	-45.2	-49.0	15.5	0.00e+00	0	39	0	334495744	61	5730
2026-01-13 01:57:37.50	325.31	16.36	-45.5	-49.3	15.1	0.00e+00	0	39	0	336592896	61	5988
2026-01-13 01:57:38.35	325.13	16.37	-45.6	-49.2	15.2	0.00e+00	0	39	0	338690048	62	5584
2026-01-13 01:57:39.49	324.88	16.40	-45.8	-49.3	15.2	0.00e+00	0	39	0	340787200	62	5619
2026-01-13 01:57:40.39	324.68	16.41	-45.9	-49.3	15.1	0.00e+00	0	39	0	341835776	62	5652
2026-01-13 01:57:41.44	324.45	16.43	-45.8	-49.1	15.3	0.00e+00	0	39	0	343932928	62	5500
2026-01-13 01:57:42.30	324.26	16.45	-45.7	-49.0	15.4	0.00e+00	0	39	0	346030080	62	5432
2026-01-13 01:57:43.44	324.01	16.47	-45.3	-48.4	16.0	0.00e+00	0	39	0	348127232	62	5070
2026-01-13 01:57:44.29	323.83	16.49	-45.3	-48.4	16.0	0.00e+00	0	39	0	349175808	62	5092
2026-01-13 01:57:45.43	323.58	16.51	-45.4	-48.5	16.0	0.00e+00	0	39	0	351272960	62	5110
2026-01-13 01:57:46.28	323.39	16.52	-45.4	-48.6	15.8	0.00e+00	0	39	0	353370112	62	5197
2026-01-13 01:57:47.42	323.14	16.54	-45.7	-49.0	15.5	0.00e+00	0	39	0	355467264	62	5426
2026-01-13 01:57:48.27	322.95	16.55	-45.4	-48.7	15.8	0.00e+00	0	39	0	356515840	62	5238
2026-01-13 01:57:49.41	322.70	16.57	-45.5	-48.8	15.7	0.00e+00	0	39	0	358612992	62	5329
2026-01-13 01:57:50.26	322.51	16.58	-45.4	-48.8	15.7	0.00e+00	0	39	0	360710144	62	5297
2026-01-13 01:57:51.48	322.24	16.60	-45.3	-48.7	15.8	0.00e+00	0	39	0	362807296	62	5262
2026-01-13 01:57:52.33	322.05	16.61	-45.2	-48.5	15.9	0.00e+00	0	39	0	364904448	62	5140
2026-01-13 01:57:53.47	321.80	16.63	-45.3	-48.4	16.0	0.00e+00	0	39	0	367001600	62	5098
2026-01-13 01:57:54.32	321.61	16.64	-45.2	-48.3	16.1	0.00e+00	0	39	0	368050176	62	5020
2026-01-13 01:57:55.46	321.35	16.66	-45.2	-48.3	16.2	0.00e+00	0	39	0	370147328	62	5001
2026-01-13 01:57:56.31	321.17	16.67	-45.3	-48.4	16.0	0.00e+00	0	39	0	372244480	62	5090
2026-01-13 01:57:57.67	320.86	16.68	-45.4	-48.6	15.8	0.00e+00	0	39	0	374341632	62	5182
2026-01-13 01:57:58.38	320.70	16.69	-45.5	-48.7	15.7	0.00e+00	0	39	0	375390208	62	5263
2026-01-13 01:57:59.85	320.38	16.71	-45.9	-49.4	15.0	0.00e+00	0	39	0	378535936	62	5714
2026-01-13 01:58:00.56	320.22	16.71	-45.9	-49.3	15.1	0.00e+00	0	39	0	379584512	62	5654
2026-01-13 01:58:01.85	319.93	16.73	-46.1	-49.8	14.7	0.00e+00	0	39	0	382730240	62	5968
2026-01-13 01:58:02.56	319.77	16.74	-46.2	-50.0	14.5	0.00e+00	0	39	0	383778816	63	5731
2026-01-13 01:58:03.84	319.48	16.75	-46.2	-50.1	14.4	0.00e+00	0	39	0	385875968	63	5829
2026-01-13 01:58:04.55	319.32	16.75	-46.2	-50.1	14.4	0.00e+00	0	39	0	386924544	63	5824
2026-01-13 01:58:05.83	319.04	16.76	-46.1	-50.0	14.4	0.00e+00	0	39	0	390070272	63	5788
2026-01-13 01:58:06.54	318.88	16.77	-46.0	-49.9	14.6	2.20e-06	0	39	0	391118848	63	5688
2026-01-13 01:58:07.82	318.59	16.78	-45.8	-49.7	14.8	0.00e+00	0	39	0	393216000	63	5529
2026-01-13 01:58:08.55	318.43	16.78	-45.9	-50.0	14.5	7.00e-07	0	39	0	395313152	63	5732
2026-01-13 01:58:09.83	318.14	16.79	-45.8	-49.7	14.7	0.00e+00	0	38	0	397410304	63	5587
2026-01-13 01:58:10.54	317.98	16.80	-45.7	-49.5	15.0	0.00e+00	0	39	0	398458880	63	5438
2026-01-13 01:58:11.82	317.69	16.81	-45.7	-49.6	14.8	0.00e+00	0	39	0	400556032	63	5494
2026-01-13 01:58:12.54	317.53	16.81	-45.7	-49.5	14.9	7.00e-07	0	39	0	402653184	63	5427
2026-01-13 01:58:13.83	317.24	16.82	-45.8	-49.4	15.0	0.00e+00	0	39	0	404750336	63	5344
2026-01-13 01:58:14.54	317.08	16.82	-45.9	-49.6	14.9	7.00e-07	0	39	0	405798912	63	5467
2026-01-13 01:58:15.82	316.79	16.82	-46.1	-49.7	14.7	0.00e+00	0	39	0	408944640	63	5584
2026-01-13 01:58:16.53	316.63	16.83	-45.9	-49.4	15.0	0.00e+00	0	39	0	409993216	63	5391
2026-01-13 01:58:17.81	316.35	16.83	-45.8	-49.3	15.2	0.00e+00	0	39	0	412090368	63	5280
2026-01-13 01:58:18.53	316.18	16.83	-45.7	-49.1	15.3	0.00e+00	0	39	0	413138944	63	5176
2026-01-13 01:58:19.81	315.89	16.84	-45.5	-48.8	15.6	0.00e+00	0	39	0	416284672	63	4998
2026-01-13 01:58:20.52	315.73	16.84	-45.4	-48.7	15.8	0.00e+00	0	39	0	417333248	62	5223
2026-01-13 01:58:21.80	315.45	16.84	-45.3	-48.4	16.0	0.00e+00	0	39	0	419430400	62	5085
2026-01-13 01:58:22.51	315.29	16.84	-45.2	-48.4	16.0	0.00e+00	0	39	0	421527552	62	5042
2026-01-13 01:58:23.79	315.00	16.84	-45.1	-48.2	16.2	0.00e+00	0	39	0	423624704	62	4969
2026-01-13 01:58:24.58	314.82	16.84	-45.3	-48.5	15.9	0.00e+00	0	39	0	424673280	62	5147
2026-01-13 01:58:25.75	314.56	16.84	-45.5	-48.7	15.7	0.00e+00	0	39	0	426770432	62	5269
2026-01-13 01:58:26.60	314.36	16.84	-45.7	-49.1	15.4	0.00e+00	0	39	0	428867584	62	5478
2026-01-13 01:58:27.74	314.11	16.84	-45.8	-49.3	15.2	0.00e+00	0	39	0	430964736	62	5616
2026-01-13 01:58:28.80	313.87	16.83	-46.0	-49.6	14.9	0.00e+00	0	39	0	433061888	62	5808
2026-01-13 01:58:29.84	313.63	16.83	-46.1	-49.7	14.8	0.00e+00	0	39	0	435159040	62	5895
2026-01-13 01:58:30.79	313.42	16.83	-46.1	-49.7	14.7	0.00e+00	0	39	0	436207616	62	5922
2026-01-13 01:58:31.78	313.20	16.83	-46.0	-49.7	14.8	0.00e+00	0	39	0	438304768	62	5856
2026-01-13 01:58:32.78	312.97	16.82	-46.0	-49.7	14.8	0.00e+00	0	39	0	440401920	62	5870
2026-01-13 01:58:33.78	312.75	16.82	-45.8	-49.3	15.1	0.00e+00	0	39	0	442499072	62	5627
2026-01-13 01:58:34.77	312.52	16.81	-45.7	-49.1	15.3	0.00e+00	0	39	0	443547648	62	5512
2026-01-13 01:58:35.76	312.30	16.81	-45.6	-48.9	15.5	0.00e+00	0	39	0	445644800	62	5376
2026-01-13 01:58:36.76	312.08	16.80	-45.5	-48.7	15.7	0.00e+00	0	39	0	447741952	62	5263
2026-01-13 01:58:37.75	311.85	16.80	-45.4	-48.6	15.8	0.00e+00	0	39	0	449839104	62	5204
2026-01-13 01:58:38.78	311.62	16.79	-45.6	-48.9	15.6	0.00e+00	0	39	0	451936256	62	5352
2026-01-13 01:58:39.81	311.39	16.78	-45.8	-49.2	15.2	0.00e+00	0	39	0	452984832	62	5590
2026-01-13 01:58:40.80	311.17	16.78	-45.8	-49.3	15.2	0.00e+00	0	39	0	455081984	62	5613
2026-01-13 01:58:41.80	310.95	16.77	-46.0	-49.6	14.9	0.00e+00	0	39	0	457179136	62	5794
2026-01-13 01:58:42.79	310.72	16.76	-46.2	-49.8	14.6	0.00e+00	0	39	0	459276288	63	5611
2026-01-13 01:58:43.79	310.50	16.75	-46.4	-50.2	14.3	7.00e-07	0	39	0	461373440	63	5879
2026-01-13 01:58:44.96	310.24	16.74	-46.5	-50.4	14.1	2.20e-06	0	39	0	463470592	63	6013
2026-01-13 01:58:45.81	310.05	16.73	-46.6	-50.5	13.9	3.80e-06	0	39	0	464519168	63	6115
2026-01-13 01:58:46.95	309.79	16.72	-46.7	-50.9	13.5	1.14e-05	0	39	0	466616320	64	6020
2026-01-13 01:58:47.80	309.60	16.71	-46.7	-50.9	13.6	7.60e-06	0	39	0	468713472	64	5995
2026-01-13 01:58:48.94	309.35	16.70	-46.6	-50.7	13.6	1.06e-05	0	39	0	470810624	64	5903
2026-01-13 01:58:49.79	309.16	16.69	-46.6	-50.7	13.6	8.30e-06	0	39	0	471859200	64	5893
2026-01-13 01:58:50.93	308.90	16.68	-46.3	-50.3	14.1	4.50e-06	0	39	0	473956352	64	5625
2026-01-13 01:58:51.79	308.71	16.67	-46.0	-49.8	14.5	0.00e+00	0	39	0	476053504	64	5313
2026-01-13 01:58:52.93	308.46	16.65	-46.0	-49.8	14.7	0.00e+00	0	39	0	478150656	63	5596
2026-01-13 01:58:53.78	308.27	16.64	-45.8	-49.4	15.0	0.00e+00	0	39	0	479199232	63	5395
2026-01-13 01:58:54.92	308.01	16.63	-45.8	-49.4	15.0	0.00e+00	0	39	0	482344960	63	5374
2026-01-13 01:58:55.77	307.83	16.62	-45.8	-49.4	15.0	0.00e+00	0	39	0	483393536	63	5393
2026-01-13 01:58:56.90	307.57	16.60	-45.7	-49.3	15.1	0.00e+00	0	39	0	485490688	63	5282
2026-01-13 01:58:57.76	307.38	16.59	-45.7	-49.2	15.3	0.00e+00	0	39	0	487587840	63	5224
2026-01-13 01:58:59.01	307.11	16.57	-45.5	-48.9	15.5	0.00e+00	0	39	0	489684992	63	5090
2026-01-13 01:58:59.86	306.92	16.55	-45.5	-48.9	15.5	0.00e+00	0	39	0	490733568	62	5388
2026-01-13 01:59:00.99	306.67	16.54	-45.4	-48.7	15.8	0.00e+00	0	39	0	492830720	62	5263
2026-01-13 01:59:01.85	306.48	16.52	-45.6	-49.0	15.4	0.00e+00	0	39	0	494927872	62	5455
2026-01-13 01:59:02.98	306.23	16.50	-45.7	-49.1	15.3	0.00e+00	0	39	0	497025024	62	5519
2026-01-13 01:59:03.84	306.04	16.49	-45.8	-49.3	15.2	0.00e+00	0	39	0	498073600	62	5606
2026-01-13 01:59:04.97	305.79	16.47	-45.8	-49.2	15.2	0.00e+00	0	39	0	500170752	62	5569
2026-01-13 01:59:05.83	305.60	16.45	-45.8	-49.1	15.3	0.00e+00	0	39	0	502267904	62	5516
2026-01-13 01:59:06.96	305.35	16.43	-45.6	-48.9	15.5	0.00e+00	0	39	0	504365056	62	5392
2026-01-13 01:59:07.81	305.17	16.42	-45.4	-48.6	15.8	0.00e+00	0	39	0	506462208	62	5172
2026-01-13 01:59:08.95	304.92	16.39	-45.3	-48.5	15.9	0.00e+00	0	39	0	508559360	62	5108
2026-01-13 01:59:09.80	304.73	16.38	-45.2	-48.3	16.1	0.00e+00	0	39	0	509607936	62	4992
2026-01-13 01:59:10.94	304.48	16.35	-45.0	-48.0	16.4	0.00e+00	0	39	0	511705088	62	4817
2026-01-13 01:59:11.79	304.30	16.34	-45.1	-48.0	16.3	0.00e+00	0	39	0	513802240	62	4850
2026-01-13 01:59:13.02	304.03	16.31	-45.2	-48.2	16.2	0.00e+00	0	39	0	515899392	62	4962
2026-01-13 01:59:13.88	303.84	16.29	-45.3	-48.3	16.0	0.00e+00	0	39	0	516947968	62	5039
2026-01-13 01:59:15.10	303.58	16.27	-45.4	-48.5	15.9	0.00e+00	0	39	0	520093696	62	5112
2026-01-13 01:59:15.95	303.39	16.25	-45.4	-48.5	15.9	0.00e+00	0	39	0	521142272	62	5123
2026-01-13 01:59:17.09	303.15	16.22	-45.4	-48.5	15.9	0.00e+00	0	39	0	523239424	62	5154
2026-01-13 01:59:17.94	302.96	16.20	-45.4	-48.5	15.9	0.00e+00	0	39	0	525336576	62	5141
2026-01-13 01:59:19.08	302.72	16.17	-45.5	-48.6	15.8	0.00e+00	0	39	0	527433728	62	5168
2026-01-13 01:59:19.93	302.53	16.15	-45.5	-48.6	15.8	0.00e+00	0	39	0	528482304	62	5204
2026-01-13 01:59:21.07	302.29	16.13	-45.6	-48.8	15.6	0.00e+00	0	39	0	530579456	62	5297
2026-01-13 01:59:22.02	302.08	16.10	-45.6	-48.8	15.6	0.00e+00	0	39	0	532676608	62	5299
2026-01-13 01:59:23.01	301.87	16.08	-45.7	-49.0	15.4	0.00e+00	0	39	0	534773760	62	5437
2026-01-13 01:59:24.00	301.66	16.05	-45.7	-49.0	15.4	0.00e+00	0	39	0	535822336	62	5444
2026-01-13 01:59:25.00	301.45	16.03	-45.7	-49.0	15.4	0.00e+00	0	39	0	537919488	62	5445
2026-01-13 01:59:25.99	301.23	16.00	-45.9	-49.3	15.2	0.00e+00	0	39	0	540016640	62	5628
2026-01-13 01:59:26.99	301.02	15.98	-45.8	-49.2	15.3	0.00e+00	0	39	0	542113792	62	5550
2026-01-13 01:59:27.98	300.81	15.95	-45.7	-49.0	15.4	0.00e+00	0	39	0	544210944	62	5460
2026-01-13 01:59:28.98	300.60	15.92	-45.7	-48.9	15.5	0.00e+00	0	39	0	545259520	62	5395
2026-01-13 01:59:29.97	300.39	15.90	-45.5	-48.8	15.6	0.00e+00	0	39	0	547356672	62	5290
2026-01-13 01:59:30.97	300.18	15.87	-45.4	-48.5	15.9	0.00e+00	0	39	0	549453824	62	5107
2026-01-13 01:59:31.96	299.97	15.84	-45.4	-48.5	15.9	0.00e+00	0	39	0	551550976	62	5109
2026-01-13 01:59:32.96	299.76	15.81	-45.5	-48.6	15.9	0.00e+00	0	39	0	552599552	62	5167
2026-01-13 01:59:33.95	299.55	15.78	-45.3	-48.4	16.0	0.00e+00	0	39	0	554696704	62	5057
2026-01-13 01:59:34.95	299.34	15.75	-45.4	-48.5	15.8	0.00e+00	0	39	0	556793856	62	5150
2026-01-13 01:59:35.94	299.13	15.72	-45.5	-48.6	15.8	0.00e+00	0	39	0	558891008	62	5196
2026-01-13 01:59:36.94	298.92	15.69	-45.4	-48.5	15.9	0.00e+00	0	39	0	560988160	62	5115
2026-01-13 01:59:37.93	298.72	15.66	-45.4	-48.5	15.9	0.00e+00	0	39	0	562036736	62	5111
2026-01-13 01:59:38.92	298.51	15.63	-45.3	-48.3	16.0	0.00e+00	0	39	0	564133888	62	5035
2026-01-13 01:59:39.92	298.30	15.60	-45.4	-48.5	15.9	0.00e+00	0	39	0	566231040	62	5106
2026-01-13 01:59:40.91	298.10	15.57	-45.4	-48.4	15.9	0.00e+00	0	39	0	568328192	62	5066
2026-01-13 01:59:41.91	297.89	15.54	-45.5	-48.6	15.8	0.00e+00	0	39	0	569376768	62	5177
2026-01-13 01:59:42.90	297.69	15.51	-45.7	-48.9	15.5	0.00e+00	0	39	0	571473920	62	5374
2026-01-13 01:59:43.90	297.48	15.48	-45.7	-48.9	15.5	0.00e+00	0	39	0	573571072	62	5362
2026-01-13 01:59:44.89	297.28	15.44	-45.7	-48.9	15.5	0.00e+00	0	39	0	575668224	62	5381
2026-01-13 01:59:45.95	297.06	15.41	-45.8	-49.1	15.3	0.00e+00	0	39	0	577765376	62	5490
2026-01-13 01:59:46.86	296.87	15.38	-45.8	-49.2	15.2	0.00e+00	0	39	0	578813952	62	5549
2026-01-13 01:59:47.86	296.67	15.34	-45.8	-49.2	15.1	0.00e+00	0	39	0	580911104	62	5570
2026-01-13 01:59:48.85	296.47	15.31	-45.9	-49.3	15.0	0.00e+00	0	39	0	583008256	62	5654
2026-01-13 01:59:50.05	296.22	15.27	-46.1	-49.5	14.9	0.00e+00	0	39	0	585105408	62	5784
2026-01-13 01:59:50.91	296.05	15.24	-46.1	-49.6	14.8	7.00e-07	0	39	0	587202560	62	5851
2026-01-13 01:59:52.04	295.82	15.20	-46.4	-49.9	14.5	2.20e-06	0	39	0	589299712	63	5718
2026-01-13 01:59:52.90	295.65	15.17	-46.5	-50.2	14.2	0.00e+00	0	39	0	590348288	63	5917
2026-01-13 01:59:54.03	295.42	15.13	-46.6	-50.3	14.2	0.00e+00	0	39	0	592445440	63	5938
2026-01-13 01:59:54.88	295.25	15.10	-46.4	-50.1	14.4	0.00e+00	0	39	0	594542592	63	5821
2026-01-13 01:59:56.02	295.02	15.06	-46.4	-50.1	14.3	0.00e+00	0	39	0	596639744	63	5829
2026-01-13 01:59:56.87	294.85	15.03	-46.3	-50.0	14.4	7.00e-07	0	39	0	597688320	63	5737
2026-01-13 01:59:58.01	294.62	14.98	-46.3	-49.8	14.6	7.00e-07	0	39	0	599785472	63	5637
2026-01-13 01:59:58.86	294.45	14.95	-46.1	-49.5	14.8	0.00e+00	0	39	0	601882624	63	5461
2026-01-13 02:00:00.00	294.23	14.91	-46.1	-49.5	14.9	0.00e+00	0	39	0	603979776	63	5458
2026-01-13 02:00:00.85	294.06	14.88	-46.0	-49.5	15.0	0.00e+00	0	39	0	605028352	63	5410
2026-01-13 02:00:01.99	293.83	14.84	-46.0	-49.5	15.0	0.00e+00	0	39	0	607125504	63	5412
2026-01-13 02:00:02.84	293.67	14.80	-46.1	-49.5	14.9	0.00e+00	0	39	0	609222656	63	5452
2026-01-13 02:00:03.97	293.44	14.76	-46.1	-49.5	14.9	0.00e+00	0	39	0	611319808	63	5448
2026-01-13 02:00:04.83	293.28	14.73	-46.1	-49.6	14.8	0.00e+00	0	39	0	613416960	63	5517
2026-01-13 02:00:05.96	293.05	14.68	-46.1	-49.6	14.8	1.50e-06	0	39	0	615514112	63	5522
2026-01-13 02:00:06.82	292.89	14.65	-46.0	-49.4	15.1	0.00e+00	0	39	0	616562688	63	5352
2026-01-13 02:00:07.95	292.67	14.60	-45.9	-49.2	15.2	7.00e-07	0	39	0	618659840	63	5257
2026-01-13 02:00:08.80	292.50	14.57	-45.7	-49.0	15.4	7.00e-07	0	39	0	620756992	63	5128
2026-01-13 02:00:09.94	292.28	14.52	-45.7	-48.9	15.5	0.00e+00	0	39	0	622854144	63	5048
2026-01-13 02:00:10.79	292.12	14.49	-45.6	-48.7	15.7	0.00e+00	0	39	0	623902720	63	4956
2026-01-13 02:00:11.93	291.90	14.44	-45.7	-48.8	15.5	0.00e+00	0	39	0	625999872	63	5036
2026-01-13 02:00:12.78	291.74	14.41	-45.8	-49.1	15.3	0.00e+00	0	39	0	628097024	63	5178
2026-01-13 02:00:13.94	291.51	14.36	-45.7	-48.9	15.5	0.00e+00	0	39	0	630194176	63	5075
2026-01-13 02:00:14.79	291.35	14.33	-45.8	-49.1	15.3	0.00e+00	0	39	0	631242752	63	5218
2026-01-13 02:00:15.93	291.14	14.28	-46.0	-49.3	15.1	0.00e+00	0	39	0	633339904	63	5331
2026-01-13 02:00:16.78	290.97	14.24	-46.1	-49.5	14.9	0.00e+00	0	39	0	635437056	63	5435
2026-01-13 02:00:17.91	290.76	14.20	-46.0	-49.4	15.0	7.00e-07	0	39	0	637534208	63	5358
2026-01-13 02:00:18.77	290.60	14.16	-46.1	-49.5	14.9	0.00e+00	0	39	0	638582784	63	5460
2026-01-13 02:00:20.08	290.35	14.10	-46.1	-49.6	14.8	0.00e+00	0	39	0	641728512	63	5522
2026-01-13 02:00:20.79	290.22	14.07	-46.3	-49.9	14.5	0.00e+00	0	39	0	642777088	63	5710
2026-01-13 02:00:22.27	289.94	14.01	-46.6	-50.5	14.0	3.00e-06	0	39	0	645922816	63	6104
2026-01-13 02:00:22.98	289.81	13.98	-46.6	-50.5	13.8	1.50e-06	0	39	0	646971392	64	5766
2026-01-13 02:00:24.26	289.57	13.92	-46.7	-50.7	13.6	3.80e-06	0	39	0	649068544	64	5866
2026-01-13 02:00:24.97	289.44	13.89	-46.8	-50.8	13.5	6.80e-06	0	39	0	651165696	64	5972
2026-01-13 02:00:26.25	289.20	13.84	-46.6	-50.5	13.8	6.10e-06	0	39	0	653262848	64	5780
2026-01-13 02:00:26.96	289.07	13.81	-46.5	-50.3	14.0	2.20e-06	0	39	0	654311424	64	5616
2026-01-13 02:00:28.24	288.84	13.75	-46.6	-50.4	13.9	2.20e-06	0	39	0	656408576	64	5704
2026-01-13 02:00:28.95	288.71	13.72	-46.4	-50.1	14.2	1.50e-06	0	39	0	658505728	64	5501
2026-01-13 02:00:30.23	288.48	13.66	-46.4	-50.1	14.2	0.00e+00	0	39	0	660602880	64	5509
2026-01-13 02:00:30.95	288.35	13.63	-46.4	-50.1	14.2	1.50e-06	0	39	0	661651456	64	5506
2026-01-13 02:00:32.23	288.11	13.57	-46.6	-50.4	13.9	3.00e-06	0	39	0	664797184	64	5715
2026-01-13 02:00:32.94	287.98	13.54	-46.4	-50.2	14.1	3.00e-06	0	39	0	665845760	64	5566
2026-01-13 02:00:34.22	287.75	13.48	-46.5	-50.4	13.9	2.20e-06	0	39	0	667942912	64	5708
2026-01-13 02:00:34.94	287.62	13.45	-46.6	-50.6	13.8	6.80e-06	0	39	0	668991488	64	5792
2026-01-13 02:00:36.21	287.40	13.39	-46.6	-50.5	13.8	2.20e-06	0	39	0	672137216	64	5760
2026-01-13 02:00:37.08	287.24	13.35	-46.6	-50.5	13.8	5.30e-06	0	39	0	673185792	64	5746
2026-01-13 02:00:38.22	287.04	13.30	-46.5	-50.3	14.1	3.80e-06	0	39	0	675282944	64	5604
2026-01-13 02:00:39.29	286.85	13.25	-46.3	-50.0	14.3	1.50e-06	0	39	0	677380096	64	5423
2026-01-13 02:00:40.35	286.66	13.20	-46.3	-50.0	14.3	7.00e-07	0	39	0	679477248	64	5425
2026-01-13 02:00:41.20	286.51	13.16	-46.3	-49.9	14.4	3.80e-06	0	39	0	681574400	64	5390
2026-01-13 02:00:42.34	286.31	13.10	-46.3	-50.1	14.2	2.20e-06	0	39	0	683671552	64	5489
2026-01-13 02:00:43.19	286.16	13.06	-46.4	-50.2	14.1	3.00e-06	0	39	0	684720128	64	5546
2026-01-13 02:00:44.33	285.96	13.01	-46.4	-50.3	14.1	4.50e-06	0	39	0	686817280	64	5618
2026-01-13 02:00:45.18	285.82	12.97	-46.2	-50.0	14.3	0.00e+00	0	39	0	688914432	64	5405
2026-01-13 02:00:46.32	285.62	12.91	-46.2	-49.9	14.4	0.00e+00	0	39	0	691011584	64	5386
2026-01-13 02:00:47.17	285.47	12.87	-46.0	-49.5	14.8	0.00e+00	0	39	0	692060160	63	5441
2026-01-13 02:00:48.31	285.28	12.82	-46.1	-49.5	14.9	0.00e+00	0	39	0	694157312	63	5439
2026-01-13 02:00:49.16	285.13	12.78	-45.9	-49.3	15.1	0.00e+00	0	39	0	696254464	63	5285
2026-01-13 02:00:50.30	284.94	12.72	-45.7	-49.1	15.3	0.00e+00	0	39	0	698351616	63	5162
2026-01-13 02:00:51.15	284.79	12.68	-45.8	-49.2	15.2	0.00e+00	0	39	0	699400192	63	5233
2026-01-13 02:00:52.29	284.60	12.63	-46.1	-49.7	14.6	0.00e+00	0	39	0	701497344	63	5534
2026-01-13 02:00:53.14	284.45	12.58	-46.2	-49.9	14.4	1.50e-06	0	39	0	703594496	63	5719
2026-01-13 02:00:54.28	284.26	12.53	-46.5	-50.4	14.0	0.00e+00	0	39	0	705691648	63	6046
2026-01-13 02:00:55.13	284.12	12.49	-46.6	-50.5	13.8	4.50e-06	0	39	0	706740224	63	6083
2026-01-13 02:00:56.26	283.93	12.43	-46.6	-50.6	13.7	3.00e-06	0	39	0	709885952	64	5821
2026-01-13 02:00:57.12	283.78	12.39	-46.8	-50.9	13.4	3.80e-06	0	39	0	710934528	64	6015
2026-01-13 02:00:58.25	283.60	12.33	-46.6	-50.4	13.9	1.37e-05	0	39	0	713031680	64	5708
2026-01-13 02:00:59.26	283.43	12.28	-46.8	-50.9	13.4	9.10e-06	0	39	0	715128832	64	6020
2026-01-13 02:01:00.26	283.26	12.23	-46.8	-50.8	13.4	7.60e-06	0	39	0	717225984	64	5975
2026-01-13 02:01:01.25	283.10	12.18	-46.5	-50.3	14.0	4.50e-06	0	39	0	718274560	64	5627
2026-01-13 02:01:02.25	282.94	12.13	-46.4	-50.1	14.2	3.80e-06	0	39	0	720371712	64	5481
2026-01-13 02:01:03.24	282.77	12.08	-46.3	-49.9	14.4	0.00e+00	0	39	0	722468864	64	5353
2026-01-13 02:01:04.24	282.61	12.03	-46.3	-50.0	14.3	2.20e-06	0	39	0	724566016	64	5410
2026-01-13 02:01:05.56	282.40	11.97	-46.4	-50.1	14.2	1.50e-06	0	39	0	726663168	64	5466
2026-01-13 02:01:06.28	282.28	11.93	-46.5	-50.3	14.0	2.20e-06	0	39	0	727711744	64	5651
2026-01-13 02:01:07.56	282.07	11.87	-46.8	-50.9	13.4	1.29e-05	0	39	0	730857472	64	6046
2026-01-13 02:01:08.28	281.96	11.83	-47.1	-51.5	12.8	1.83e-05	0	39	0	731906048	64	6458
2026-01-13 02:01:09.56	281.75	11.76	-47.6	-52.5	11.8	1.79e-04	0	39	0	734003200	65	6850
2026-01-13 02:01:10.27	281.64	11.73	-47.9	-53.2	11.1	8.35e-04	0	39	0	736100352	66	6972
2026-01-13 02:01:11.55	281.43	11.66	-48.1	-53.6	10.6	4.10e-03	0	39	0	738197504	67	6923
2026-01-13 02:01:12.27	281.32	11.63	-48.3	-54.1	10.1	3.33e-03	0	39	0	739246080	67	7361
2026-01-13 02:01:13.55	281.12	11.56	-48.1	-53.7	10.5	4.48e-03	0	39	0	741343232	67	6971
2026-01-13 02:01:14.27	281.00	11.52	-48.0	-53.5	10.6	2.90e-03	0	39	0	743440384	67	6867
2026-01-13 02:01:15.64	280.79	11.45	-47.8	-52.8	11.4	1.57e-03	0	39	0	745537536	67	6343
2026-01-13 02:01:16.36	280.68	11.42	-47.7	-52.7	11.6	8.32e-04	0	39	0	746586112	67	6216
2026-01-13 02:01:17.64	280.48	11.35	-47.6	-52.6	11.6	8.51e-04	0	39	0	749731840	67	6160
2026-01-13 02:01:18.37	280.36	11.31	-47.6	-52.5	11.7	5.44e-04	0	39	0	750780416	67	6120
2026-01-13 02:01:19.75	280.15	11.24	-47.5	-52.4	11.8	4.54e-04	0	39	0	752877568	66	6405
2026-01-13 02:01:20.46	280.04	11.20	-47.3	-52.0	12.3	2.77e-04	0	39	0	754974720	66	6089
2026-01-13 02:01:21.74	279.85	11.14	-47.2	-51.8	12.4	1.98e-04	0	39	0	757071872	66	5966
2026-01-13 02:01:22.45	279.74	11.10	-47.2	-51.8	12.4	1.18e-04	0	39	0	758120448	66	5972
2026-01-13 02:01:23.73	279.54	11.03	-47.0	-51.4	12.8	6.48e-05	0	39	0	761266176	66	5718
2026-01-13 02:01:24.44	279.43	10.99	-46.9	-51.2	13.0	4.80e-05	0	39	0	762314752	65	5894
2026-01-13 02:01:25.72	279.24	10.93	-46.7	-50.8	13.4	7.60e-06	0	39	0	764411904	65	5609
2026-01-13 02:01:26.43	279.13	10.89	-46.7	-50.7	13.5	9.10e-06	0	39	0	765460480	65	5545
2026-01-13 02:01:27.71	278.94	10.82	-46.6	-50.6	13.6	6.80e-06	0	39	0	768606208	65	5482
2026-01-13 02:01:28.42	278.83	10.79	-46.8	-50.9	13.3	6.10e-06	0	39	0	769654784	65	5693
2026-01-13 02:01:29.70	278.64	10.72	-46.8	-51.0	13.2	1.83e-05	0	39	0	771751936	65	5770
2026-01-13 02:01:30.41	278.54	10.68	-46.9	-51.2	13.0	2.82e-05	0	39	0	773849088	65	5859
2026-01-13 02:01:31.70	278.35	10.61	-46.8	-51.1	13.1	3.81e-05	0	39	0	775946240	65	5816
2026-01-13 02:01:32.42	278.24	10.57	-46.9	-51.2	12.9	3.20e-05	0	39	0	776994816	65	5921
2026-01-13 02:01:33.70	278.05	10.51	-46.8	-51.2	13.0	4.19e-05	0	39	0	779091968	65	5860
2026-01-13 02:01:34.61	277.92	10.46	-46.7	-50.8	13.4	2.13e-05	0	39	0	781189120	65	5640
2026-01-13 02:01:35.61	277.77	10.40	-46.6	-50.7	13.5	1.29e-05	0	39	0	783286272	65	5552
2026-01-13 02:01:36.92	277.58	10.33	-46.6	-50.7	13.5	1.44e-05	0	39	0	785383424	65	5571
2026-01-13 02:01:37.70	277.47	10.29	-46.5	-50.6	13.6	1.06e-05	0	39	0	787480576	65	5474
2026-01-13 02:01:38.98	277.29	10.22	-46.5	-50.6	13.6	9.90e-06	0	39	0	789577728	65	5471
2026-01-13 02:01:39.69	277.18	10.19	-46.5	-50.4	13.8	5.30e-06	0	39	0	790626304	64	5666
2026-01-13 02:01:40.97	277.00	10.12	-46.5	-50.4	13.8	2.20e-06	0	39	0	792723456	64	5662
2026-01-13 02:01:41.68	276.90	10.08	-46.5	-50.4	13.8	7.00e-07	0	39	0	794820608	64	5669
2026-01-13 02:01:42.96	276.72	10.01	-46.4	-50.2	14.0	2.20e-06	0	39	0	796917760	64	5551
2026-01-13 02:01:43.67	276.62	9.97	-46.4	-50.1	14.0	2.20e-06	0	39	0	797966336	64	5528
2026-01-13 02:01:44.95	276.44	9.90	-46.5	-50.4	13.8	5.30e-06	0	39	0	801112064	64	5658
2026-01-13 02:01:45.66	276.34	9.87	-46.5	-50.4	13.8	3.80e-06	0	39	0	802160640	64	5692
2026-01-13 02:01:46.93	276.16	9.80	-46.5	-50.3	13.8	4.50e-06	0	39	0	804257792	64	5636
2026-01-13 02:01:47.66	276.06	9.76	-46.6	-50.5	13.7	3.80e-06	0	39	0	805306368	64	5769
2026-01-13 02:01:48.94	275.88	9.69	-46.6	-50.7	13.5	9.10e-06	0	39	0	808452096	64	5875
2026-01-13 02:01:49.65	275.78	9.65	-46.7	-50.8	13.4	1.37e-05	0	39	0	809500672	64	5928
2026-01-13 02:01:50.93	275.61	9.58	-46.7	-50.9	13.3	1.67e-05	0	39	0	811597824	64	6024
2026-01-13 02:01:51.64	275.51	9.54	-46.8	-51.0	13.2	2.05e-05	0	39	0	812646400	64	6066
2026-01-13 02:01:52.91	275.34	9.48	-46.8	-51.0	13.2	2.21e-05	0	39	0	815792128	64	6072
2026-01-13 02:01:53.64	275.24	9.44	-46.6	-50.8	13.4	1.37e-05	0	39	0	816840704	64	5934
2026-01-13 02:01:54.92	275.06	9.37	-46.6	-50.8	13.3	1.06e-05	0	39	0	818937856	64	5954
2026-01-13 02:01:55.63	274.97	9.33	-46.7	-50.8	13.3	1.60e-05	0	39	0	821035008	64	5969
2026-01-13 02:01:56.91	274.79	9.26	-46.6	-50.7	13.5	1.44e-05	0	39	0	823132160	64	5860
2026-01-13 02:01:57.62	274.70	9.22	-46.6	-50.6	13.5	1.06e-05	0	39	0	824180736	64	5829
2026-01-13 02:01:58.90	274.53	9.15	-46.4	-50.4	13.7	5.30e-06	0	39	0	826277888	64	5671
2026-01-13 02:01:59.63	274.43	9.11	-46.4	-50.3	13.9	3.80e-06	0	39	0	828375040	64	5647
2026-01-13 02:02:01.02	274.24	9.04	-46.6	-50.5	13.6	9.90e-06	0	39	0	830472192	64	5787
2026-01-13 02:02:01.73	274.15	9.00	-49.9	-59.6	5.8	1.34e-02	0	39	0	832569344	70	11582
2026-01-13 02:02:03.00	273.98	8.93	-50.5	-65.8	3.8	1.49e+00	0	39	104	832569344	71	22487
2026-01-13 02:02:03.71	273.89	8.89	-50.6	-65.9	3.8	1.49e+00	0	39	104	832569344	72	21404
2026-01-13 02:02:04.99	273.72	8.82	-50.8	-66.0	3.8	1.49e+00	0	39	104	832569344	72	21740
2026-01-13 02:02:05.72	273.63	8.78	-50.9	-66.1	3.8	1.49e+00	0	39	104	832569344	72	21927
2026-01-13 02:02:06.99	273.46	8.71	-50.9	-66.2	3.8	1.49e+00	0	39	104	832569344	72	22008
2026-01-13 02:02:07.70	273.37	8.67	-51.0	-66.2	3.8	1.49e+00	0	39	104	832569344	72	22055
2026-01-13 02:02:08.98	273.21	8.60	-51.0	-66.2	3.8	1.49e+00	0	39	104	832569344	72	22146
2026-01-13 02:02:09.69	273.12	8.56	-51.0	-66.2	3.8	1.49e+00	0	39	104	832569344	72	22129
2026-01-13 02:02:10.96	272.95	8.49	-51.1	-66.3	3.8	1.49e+00	0	39	104	832569344	72	22292
2026-01-13 02:02:11.70	272.86	8.45	-51.1	-66.3	3.8	1.49e+00	0	39	104	832569344	72	22342
2026-01-13 02:02:12.98	272.70	8.38	-51.0	-66.3	3.8	1.49e+00	0	39	104	832569344	72	22265
2026-01-13 02:02:13.69	272.61	8.35	-51.0	-66.3	3.8	1.49e+00	0	39	104	832569344	72	22343
2026-01-13 02:02:14.97	272.45	8.28	-51.0	-66.3	3.8	1.49e+00	0	39	104	832569344	72	22396
2026-01-13 02:02:15.68	272.36	8.24	-50.9	-66.3	3.8	1.49e+00	0	39	104	832569344	72	22422
2026-01-13 02:02:16.95	272.20	8.17	-50.9	-66.3	3.8	1.49e+00	0	39	104	832569344	72	22383
2026-01-13 02:02:17.68	272.11	8.13	-50.9	-66.3	3.8	1.49e+00	0	39	104	832569344	72	22335
2026-01-13 02:02:18.96	271.95	8.06	-51.0	-66.3	3.8	1.49e+00	0	39	104	832569344	72	22358
2026-01-13 02:02:19.68	271.86	8.02	-50.9	-66.3	3.8	1.49e+00	0	39	104	832569344	72	22312
2026-01-13 02:02:20.96	271.70	7.95	-51.0	-66.3	3.8	1.49e+00	0	39	104	832569344	72	22289
2026-01-13 02:02:21.67	271.62	7.91	-51.0	-66.3	3.8	1.49e+00	0	39	104	832569344	72	22292
2026-01-13 02:02:22.95	271.46	7.84	-51.0	-66.3	3.8	1.49e+00	0	39	104	832569344	72	22298
2026-01-13 02:02:23.66	271.37	7.80	-50.9	-66.2	3.8	1.49e+00	0	39	104	832569344	72	22080
2026-01-13 02:02:24.94	271.22	7.73	-50.9	-66.2	3.8	1.49e+00	0	39	104	832569344	72	22152
2026-01-13 02:02:25.65	271.13	7.69	-50.9	-66.2	3.8	1.49e+00	0	39	104	832569344	72	22179
2026-01-13 02:02:26.92	270.98	7.62	-50.9	-66.2	3.8	1.49e+00	0	39	104	832569344	72	22145
2026-01-13 02:02:27.63	270.89	7.58	-50.9	-66.2	3.8	1.49e+00	0	39	104	832569344	72	22129
2026-01-13 02:02:28.91	270.74	7.51	-50.9	-66.2	3.8	1.49e+00	0	39	104	832569344	72	22192
2026-01-13 02:02:29.62	270.66	7.47	-50.9	-66.2	3.8	1.49e+00	0	39	104	832569344	72	22175
2026-01-13 02:02:30.89	270.51	7.41	-50.9	-66.2	3.8	1.49e+00	0	39	104	832569344	72	22188
2026-01-13 02:02:31.60	270.42	7.37	-50.9	-66.2	3.8	1.49e+00	0	39	104	832569344	72	22165
2026-01-13 02:02:32.88	270.27	7.30	-50.9	-66.2	3.8	1.49e+00	0	39	104	832569344	72	22122
2026-01-13 02:02:33.59	270.19	7.26	-50.9	-66.2	3.8	1.49e+00	0	39	104	832569344	72	22141
2026-01-13 02:02:34.87	270.04	7.19	-50.9	-66.2	3.8	1.49e+00	0	39	104	832569344	72	22112
2026-01-13 02:02:35.58	269.96	7.15	-50.9	-66.2	3.8	1.49e+00	0	39	104	832569344	72	22160
2026-01-13 02:02:36.85	269.81	7.08	-50.9	-66.2	3.8	1.49e+00	0	39	104	832569344	72	22180
2026-01-13 02:02:37.56	269.73	7.04	-50.9	-66.2	3.8	1.49e+00	0	39	104	832569344	72	22187
2026-01-13 02:02:38.84	269.58	6.97	-50.9	-66.2	3.8	1.49e+00	0	39	104	832569344	72	22099
2026-01-13 02:02:39.55	269.50	6.93	-50.9	-66.2	3.8	1.49e+00	0	39	104	832569344	72	22180
2026-01-13 02:02:40.83	269.36	6.86	-50.9	-66.2	3.8	1.49e+00	0	39	104	832569344	72	22150
2026-01-13 02:02:41.54	269.27	6.82	-50.9	-66.2	3.8	1.49e+00	0	39	104	832569344	72	22166
2026-01-13 02:02:42.83	269.13	6.75	-50.9	-66.2	3.8	1.49e+00	0	39	104	832569344	72	22097
2026-01-13 02:02:43.54	269.05	6.71	-50.9	-66.2	3.8	1.49e+00	0	39	104	832569344	72	22173
2026-01-13 02:02:44.82	268.90	6.64	-50.9	-66.2	3.8	1.49e+00	0	39	104	832569344	72	22060
2026-01-13 02:02:45.54	268.82	6.61	-50.9	-66.2	3.8	1.49e+00	0	39	104	832569344	72	22102
2026-01-13 02:02:46.82	268.68	6.54	-50.9	-66.2	3.8	1.49e+00	0	39	104	832569344	72	22139
2026-01-13 02:02:47.53	268.60	6.50	-50.9	-66.2	3.8	1.49e+00	0	39	104	832569344	72	22197
2026-01-13 02:02:48.81	268.46	6.43	-50.9	-66.2	3.8	1.49e+00	0	39	104	832569344	72	22074
2026-01-13 02:02:49.53	268.38	6.39	-50.9	-66.2	3.8	1.49e+00	0	39	104	832569344	72	22141
2026-01-13 02:02:50.81	268.24	6.32	-50.9	-66.2	3.8	1.49e+00	0	39	104	832569344	72	22140
2026-01-13 02:02:51.52	268.16	6.28	-50.9	-66.2	3.8	1.49e+00	0	39	104	832569344	72	22121
2026-01-13 02:02:52.80	268.02	6.21	-50.9	-66.2	3.8	1.49e+00	0	39	104	832569344	72	22132
2026-01-13 02:02:53.51	267.95	6.17	-50.9	-66.2	3.8	1.49e+00	0	39	104	832569344	72	22093
2026-01-13 02:02:54.78	267.81	6.10	-50.9	-66.2	3.8	1.49e+00	0	39	104	832569344	72	22103
2026-01-13 02:02:55.49	267.73	6.06	-50.9	-66.2	3.8	1.49e+00	0	39	104	832569344	72	22142
2026-01-13 02:02:56.77	267.60	5.99	-50.9	-66.2	3.8	1.49e+00	0	39	104	832569344	72	22034
2026-01-13 02:02:57.48	267.52	5.95	-50.9	-66.2	3.8	1.49e+00	0	39	104	832569344	72	22148
2026-01-13 02:02:58.76	267.38	5.89	-50.9	-66.2	3.8	1.49e+00	0	39	104	832569344	72	22113
2026-01-13 02:02:59.47	267.31	5.85	-50.9	-66.2	3.8	1.49e+00	0	39	104	832569344	72	22154
2026-01-13 02:03:00.74	267.17	5.78	-50.9	-66.2	3.8	1.49e+00	0	39	104	832569344	72	22132
2026-01-13 02:03:01.45	267.10	5.74	-50.9	-66.2	3.8	1.49e+00	0	39	104	832569344	72	22089
2026-01-13 02:03:02.73	266.97	5.67	-50.9	-66.2	3.8	1.49e+00	0	39	104	832569344	72	22078
2026-01-13 02:03:03.44	266.89	5.63	-50.9	-66.2	3.8	1.49e+00	0	39	104	832569344	72	22093
2026-01-13 02:03:04.72	266.76	5.56	-50.9	-66.2	3.8	1.49e+00	0	39	104	832569344	72	22088
2026-01-13 02:03:05.43	266.68	5.52	-50.9	-66.2	3.8	1.49e+00	0	39	104	832569344	72	22061
2026-01-13 02:03:06.71	266.55	5.45	-50.9	-66.2	3.8	1.49e+00	0	39	104	832569344	72	22073
2026-01-13 02:03:07.42	266.48	5.42	-50.9	-66.2	3.8	1.49e+00	0	39	104	832569344	72	22070
2026-01-13 02:03:08.69	266.35	5.35	-50.9	-66.1	3.8	1.49e+00	0	39	104	832569344	72	21980
2026-01-13 02:03:09.40	266.28	5.31	-50.9	-66.2	3.8	1.49e+00	0	39	104	832569344	72	22078
2026-01-13 02:03:10.68	266.15	5.24	-50.9	-66.2	3.8	1.49e+00	0	39	104	832569344	72	22039
2026-01-13 02:03:11.39	266.07	5.20	-50.9	-66.2	3.8	1.49e+00	0	39	104	832569344	72	22042
2026-01-13 02:03:12.67	265.95	5.13	-50.9	-66.2	3.8	1.49e+00	0	39	104	832569344	72	22084
2026-01-13 02:03:13.39	265.87	5.09	-50.8	-66.2	3.8	1.49e+00	0	39	104	832569344	72	22049
2026-01-13 02:03:14.67	265.74	5.02	-50.8	-66.2	3.8	1.49e+00	0	39	104	832569344	72	22029
2026-01-13 02:03:15.39	265.67	4.99	-50.8	-66.2	3.8	1.49e+00	0	39	104	832569344	72	22150

#Closed at: 2026-01-13 02:03:16
#Recorded file [832 MB]: D:/Data/31040_260113_045333.dat