passes_logs/2026/01/13/T1/T1__20260113_121916_AQUA_rec.log

#Pass ID: 20260113_121916_AQUA
#Satellite: AQUA
#Configuration: AQUA
#almurnet v.1.7.20251203
#Start time: 2026-01-13 12:19:18

#Version: 2.0.20230620
#Station: T1
#Location: 37.570604 lon 55.790049 lat
#TLE: 1 27424U 02022A   26012.29577270  .00001027  00000+0  21555-3 0  9995
#TLE: 2 27424  98.4078 338.6778 0002034  81.5885  29.6294 14.61817302260499

#Time	Az	El	Level	Level2	SNR	BER	BlckErr	Temp	State	Recorded	gain1	gain2
2026-01-13 12:19:18.05	183.13	5.12	-51.4	-73.3	3.8	7.45e-01	0	41	0	0	74	44503
2026-01-13 12:19:19.04	183.18	5.19	-51.4	-71.8	3.8	7.47e-01	0	42	104	0	73	39988
2026-01-13 12:19:20.03	183.22	5.27	-51.4	-71.0	4.0	7.41e-01	0	42	104	0	73	36134
2026-01-13 12:19:21.03	183.27	5.34	-51.4	-70.9	4.0	7.40e-01	0	42	104	0	73	36015
2026-01-13 12:19:22.02	183.32	5.41	-51.4	-70.7	4.0	7.44e-01	0	41	104	0	73	35234
2026-01-13 12:19:23.01	183.36	5.49	-51.4	-70.3	4.1	7.39e-01	0	42	104	0	73	33401
2026-01-13 12:19:24.01	183.41	5.56	-51.3	-70.8	3.9	7.39e-01	0	42	104	0	73	35672
2026-01-13 12:19:25.00	183.46	5.63	-51.3	-71.4	3.8	7.44e-01	0	42	104	0	73	37883
2026-01-13 12:19:25.99	183.51	5.71	-51.3	-71.7	3.9	7.46e-01	0	42	104	0	73	39569
2026-01-13 12:19:26.99	183.56	5.78	-51.3	-72.4	3.8	7.45e-01	0	42	104	0	73	42544
2026-01-13 12:19:27.98	183.60	5.86	-51.3	-72.8	3.8	7.44e-01	0	42	104	0	73	44619
2026-01-13 12:19:28.97	183.65	5.93	-51.3	-72.9	3.8	7.47e-01	0	42	104	0	73	45045
2026-01-13 12:19:29.97	183.70	6.01	-51.3	-72.7	3.8	7.45e-01	0	42	104	0	73	43969
2026-01-13 12:19:30.96	183.75	6.08	-51.2	-72.1	3.8	7.48e-01	0	42	104	0	73	41442
2026-01-13 12:19:31.95	183.80	6.16	-51.2	-71.5	3.8	7.43e-01	0	42	104	0	73	38310
2026-01-13 12:19:32.95	183.85	6.23	-51.2	-70.7	4.0	7.48e-01	0	42	104	0	73	34952
2026-01-13 12:19:33.94	183.90	6.31	-51.2	-69.7	4.2	7.34e-01	0	42	104	0	73	31280
2026-01-13 12:19:34.93	183.95	6.39	-51.1	-69.3	4.3	7.30e-01	0	42	104	0	73	29729
2026-01-13 12:19:35.93	184.00	6.46	-51.1	-69.4	3.9	7.41e-01	0	42	104	0	73	30065
2026-01-13 12:19:36.92	184.05	6.54	-51.1	-68.4	4.6	7.21e-01	0	42	104	0	73	26907
2026-01-13 12:19:37.91	184.10	6.62	-51.0	-68.5	4.6	7.19e-01	0	42	104	0	73	27157
2026-01-13 12:19:38.90	184.15	6.69	-51.0	-68.0	4.8	7.13e-01	0	42	104	0	73	25775
2026-01-13 12:19:39.90	184.20	6.77	-51.0	-67.7	4.9	7.08e-01	0	42	0	0	73	24961
2026-01-13 12:19:40.89	184.25	6.85	-51.0	-66.9	5.4	6.97e-01	0	42	0	0	73	22571
2026-01-13 12:19:41.88	184.31	6.93	-50.9	-66.9	5.4	6.98e-01	0	42	0	524288	73	22649
2026-01-13 12:19:42.87	184.36	7.00	-50.9	-66.8	5.4	6.98e-01	0	42	0	1048576	73	22346
2026-01-13 12:19:43.87	184.41	7.08	-51.0	-67.2	5.2	7.01e-01	0	42	0	1572864	73	23413
2026-01-13 12:19:44.86	184.46	7.16	-51.0	-68.7	4.4	7.26e-01	0	42	104	2097152	73	27871
2026-01-13 12:19:45.85	184.52	7.24	-51.0	-71.0	3.8	7.45e-01	0	42	104	2097152	73	36169
2026-01-13 12:19:46.85	184.57	7.32	-51.0	-72.8	3.8	7.42e-01	0	42	104	2097152	73	44501
2026-01-13 12:19:47.84	184.63	7.40	-50.9	-71.2	3.9	7.44e-01	0	42	104	2097152	73	37043
2026-01-13 12:19:48.84	184.68	7.48	-50.7	-65.9	5.8	6.88e-01	0	42	0	2097152	73	20243
2026-01-13 12:19:49.83	184.73	7.56	-50.4	-62.3	9.1	6.34e-01	0	42	0	3670016	72	14200
2026-01-13 12:19:50.82	184.79	7.64	-50.0	-59.2	12.5	6.10e-01	0	43	0	5767168	71	10440
2026-01-13 12:19:51.82	184.84	7.72	-49.6	-57.2	14.5	6.09e-01	0	42	0	7340032	71	8342
2026-01-13 12:19:52.81	184.90	7.80	-49.0	-55.3	16.4	6.07e-01	0	43	0	9437184	70	7091
2026-01-13 12:19:53.80	184.95	7.88	-48.4	-53.8	17.8	6.07e-01	0	42	0	11010048	68	6704
2026-01-13 12:19:54.80	185.01	7.96	-48.2	-53.2	18.4	6.06e-01	0	42	0	13107200	68	6220
2026-01-13 12:19:55.79	185.07	8.04	-47.6	-52.2	19.2	6.07e-01	0	42	0	14680064	67	5905
2026-01-13 12:19:56.79	185.12	8.12	-47.4	-51.8	19.7	6.06e-01	0	42	0	16777216	66	5948
2026-01-13 12:19:57.78	185.18	8.21	-47.3	-51.7	19.8	6.06e-01	0	43	0	18874368	66	5902
2026-01-13 12:19:58.77	185.24	8.29	-47.4	-52.0	19.5	6.08e-01	0	43	0	20447232	66	6080
2026-01-13 12:19:59.76	185.30	8.37	-47.4	-52.0	19.5	6.06e-01	0	43	0	22544384	66	6096
2026-01-13 12:20:00.76	185.35	8.45	-47.8	-52.9	18.7	6.06e-01	0	43	0	24117248	66	6751
2026-01-13 12:20:01.75	185.41	8.54	-48.1	-53.5	18.0	6.09e-01	0	43	0	26214400	66	7255
2026-01-13 12:20:02.75	185.47	8.62	-48.5	-54.6	16.9	6.06e-01	0	43	0	27787264	67	7754
2026-01-13 12:20:03.74	185.53	8.70	-48.9	-55.4	16.3	6.07e-01	0	43	0	29884416	68	8030
2026-01-13 12:20:04.73	185.59	8.79	-49.4	-57.1	14.5	6.07e-01	0	43	0	31457280	69	9256
2026-01-13 12:20:05.73	185.65	8.87	-49.7	-58.1	13.5	6.09e-01	0	43	0	33554432	69	10412
2026-01-13 12:20:06.72	185.71	8.96	-49.9	-59.1	12.4	6.10e-01	0	43	0	35651584	70	10997
2026-01-13 12:20:07.71	185.77	9.04	-50.1	-60.3	11.3	6.18e-01	0	43	0	37224448	70	12554
2026-01-13 12:20:08.71	185.83	9.13	-49.0	-55.6	15.8	6.07e-01	0	43	0	39321600	70	7332
2026-01-13 12:20:09.70	185.89	9.21	-49.0	-55.4	16.1	6.07e-01	0	43	0	40894464	69	7629
2026-01-13 12:20:10.70	185.95	9.30	-50.2	-62.0	9.9	6.29e-01	0	43	0	42991616	71	14483
2026-01-13 12:20:11.69	186.01	9.39	-49.6	-57.3	13.8	6.10e-01	0	43	0	44564480	71	8412
2026-01-13 12:20:12.69	186.08	9.47	-49.5	-56.4	15.3	6.05e-01	0	43	0	46661632	70	8041
2026-01-13 12:20:13.68	186.14	9.56	-49.3	-55.4	16.2	6.08e-01	0	43	0	48234496	70	7175
2026-01-13 12:20:14.68	186.20	9.65	-49.4	-55.3	16.2	6.05e-01	0	43	0	50331648	70	7081
2026-01-13 12:20:15.75	186.27	9.74	-49.4	-55.2	16.2	6.06e-01	0	43	0	52428800	70	7035
2026-01-13 12:20:16.60	186.33	9.82	-49.1	-54.5	17.1	6.08e-01	0	43	0	54001664	70	6436
2026-01-13 12:20:17.74	186.40	9.92	-49.1	-54.5	17.0	6.05e-01	0	43	0	56098816	70	6468
2026-01-13 12:20:18.59	186.46	9.99	-49.1	-54.6	16.9	6.07e-01	0	43	0	57671680	70	6560
2026-01-13 12:20:19.73	186.53	10.09	-49.2	-54.9	16.7	6.07e-01	0	43	0	59768832	69	7187
2026-01-13 12:20:20.59	186.59	10.17	-49.1	-54.8	16.7	6.09e-01	0	43	0	61341696	69	7075
2026-01-13 12:20:22.07	186.68	10.30	-49.1	-54.6	16.9	6.09e-01	0	43	0	63963136	69	6895
2026-01-13 12:20:22.79	186.73	10.37	-49.1	-54.6	16.9	6.05e-01	0	43	0	65536000	69	6909
2026-01-13 12:20:24.07	186.82	10.49	-49.0	-54.3	17.1	6.08e-01	0	43	0	68157440	69	6693
2026-01-13 12:20:24.79	186.87	10.55	-48.8	-53.9	17.5	6.07e-01	0	43	0	69206016	69	6419
2026-01-13 12:20:26.07	186.95	10.67	-48.8	-54.0	17.5	6.09e-01	0	43	0	71827456	69	6481
2026-01-13 12:20:26.80	187.00	10.74	-48.6	-53.6	17.9	6.08e-01	0	43	0	72876032	69	6171
2026-01-13 12:20:28.07	187.09	10.85	-48.3	-53.1	18.3	6.06e-01	0	43	0	75497472	68	6190
2026-01-13 12:20:28.86	187.15	10.93	-48.4	-53.2	18.3	6.08e-01	0	43	0	77070336	68	6218
2026-01-13 12:20:30.06	187.23	11.04	-48.4	-53.1	18.5	6.09e-01	0	43	0	79167488	68	6158
2026-01-13 12:20:30.92	187.29	11.12	-48.4	-53.1	18.5	6.08e-01	0	43	0	80740352	68	6188
2026-01-13 12:20:32.05	187.37	11.22	-47.8	-52.2	19.2	6.08e-01	0	43	0	82837504	67	5865
2026-01-13 12:20:32.91	187.43	11.30	-47.5	-51.6	19.7	6.05e-01	0	43	0	84410368	67	5524
2026-01-13 12:20:34.05	187.52	11.41	-47.5	-51.6	19.7	6.08e-01	0	43	0	86507520	67	5516
2026-01-13 12:20:34.90	187.58	11.49	-47.3	-51.2	20.1	6.08e-01	0	43	0	88080384	66	5576
2026-01-13 12:20:36.04	187.66	11.60	-47.4	-51.4	19.9	6.06e-01	0	43	0	90177536	66	5684
2026-01-13 12:20:36.89	187.72	11.68	-47.4	-51.5	19.9	6.08e-01	0	43	0	91750400	66	5757
2026-01-13 12:20:38.02	187.81	11.79	-47.4	-51.4	19.9	6.07e-01	0	43	0	94371840	66	5719
2026-01-13 12:20:38.88	187.87	11.87	-47.3	-51.3	20.0	6.05e-01	0	43	0	95944704	66	5634
2026-01-13 12:20:40.01	187.95	11.98	-47.1	-51.1	20.3	6.08e-01	0	43	0	98041856	66	5476
2026-01-13 12:20:40.86	188.02	12.06	-47.0	-51.0	20.4	6.07e-01	0	43	0	99614720	66	5420
2026-01-13 12:20:42.00	188.10	12.17	-47.0	-51.0	20.3	6.07e-01	0	43	0	101711872	65	5759
2026-01-13 12:20:42.90	188.17	12.26	-46.8	-50.8	20.6	6.08e-01	0	43	0	103284736	65	5601
2026-01-13 12:20:43.94	188.25	12.36	-46.8	-50.8	20.5	6.06e-01	0	43	0	105381888	65	5613
2026-01-13 12:20:44.94	188.33	12.46	-46.7	-50.8	20.5	6.09e-01	0	43	0	106954752	65	5606
2026-01-13 12:20:45.93	188.41	12.56	-46.5	-50.4	20.8	6.07e-01	0	43	0	109051904	65	5396
2026-01-13 12:20:46.93	188.48	12.66	-46.5	-50.4	20.9	6.08e-01	0	43	0	110624768	65	5386
2026-01-13 12:20:47.92	188.56	12.76	-46.6	-50.4	20.9	6.07e-01	0	43	0	112721920	65	5386
2026-01-13 12:20:48.92	188.64	12.86	-46.5	-50.3	21.0	6.07e-01	0	43	0	114819072	65	5301
2026-01-13 12:20:49.92	188.72	12.96	-46.5	-50.3	21.0	6.06e-01	0	43	0	116391936	64	5616
2026-01-13 12:20:50.91	188.80	13.06	-46.5	-50.3	21.0	6.07e-01	0	43	0	118489088	64	5612
2026-01-13 12:20:51.91	188.88	13.16	-46.3	-50.1	21.2	6.08e-01	0	43	0	120061952	64	5468
2026-01-13 12:20:52.90	188.96	13.26	-46.4	-50.2	21.1	6.08e-01	0	43	0	122159104	64	5570
2026-01-13 12:20:53.90	189.05	13.36	-46.4	-50.2	21.1	6.05e-01	0	44	0	123731968	64	5559
2026-01-13 12:20:54.93	189.13	13.47	-46.4	-50.2	21.1	6.08e-01	0	43	0	125829120	64	5548
2026-01-13 12:20:55.97	189.22	13.58	-46.4	-50.2	21.1	6.08e-01	0	43	0	127926272	64	5555
2026-01-13 12:20:56.93	189.30	13.67	-46.5	-50.3	21.1	6.06e-01	0	43	0	129499136	64	5598
2026-01-13 12:20:57.92	189.38	13.78	-46.5	-50.3	21.0	6.06e-01	0	43	0	131596288	64	5641
2026-01-13 12:20:58.92	189.47	13.88	-46.6	-50.3	21.0	6.06e-01	0	43	0	133169152	64	5620
2026-01-13 12:20:59.91	189.55	13.99	-46.6	-50.2	21.1	6.07e-01	0	43	0	135266304	64	5591
2026-01-13 12:21:00.90	189.64	14.09	-46.7	-50.3	21.1	6.09e-01	0	43	0	136839168	64	5603
2026-01-13 12:21:01.90	189.73	14.20	-46.7	-50.2	21.1	6.07e-01	0	43	0	138936320	64	5586
2026-01-13 12:21:02.89	189.81	14.30	-46.7	-50.2	21.1	6.06e-01	0	43	0	140509184	64	5556
2026-01-13 12:21:03.89	189.90	14.41	-46.7	-50.2	21.2	6.06e-01	0	43	0	142606336	64	5547
2026-01-13 12:21:04.88	189.99	14.51	-46.8	-50.3	21.0	6.08e-01	0	43	0	144703488	64	5600
2026-01-13 12:21:05.88	190.08	14.62	-46.8	-50.3	21.0	6.07e-01	0	43	0	146276352	64	5650
2026-01-13 12:21:06.87	190.17	14.73	-46.7	-50.2	21.2	6.08e-01	0	43	0	148373504	64	5547
2026-01-13 12:21:07.86	190.26	14.83	-46.7	-50.2	21.1	6.07e-01	0	43	0	149946368	64	5577
2026-01-13 12:21:08.86	190.35	14.94	-46.7	-50.2	21.2	6.06e-01	0	43	0	152043520	64	5553
2026-01-13 12:21:09.85	190.44	15.05	-46.8	-50.2	21.0	6.07e-01	0	43	0	153616384	64	5584
2026-01-13 12:21:10.85	190.54	15.16	-46.8	-50.2	21.1	6.04e-01	0	43	0	155713536	64	5580
2026-01-13 12:21:11.86	190.63	15.27	-46.7	-50.1	21.2	6.08e-01	0	43	0	157810688	64	5528
2026-01-13 12:21:12.87	190.73	15.39	-46.7	-50.1	21.2	6.08e-01	0	43	0	159383552	64	5502
2026-01-13 12:21:13.86	190.82	15.50	-46.8	-50.2	21.2	6.06e-01	0	43	0	161480704	64	5555
2026-01-13 12:21:14.86	190.92	15.61	-46.8	-50.2	21.1	6.06e-01	0	43	0	163053568	64	5559
2026-01-13 12:21:15.85	191.01	15.72	-46.7	-50.1	21.2	6.09e-01	0	43	0	165150720	64	5522
2026-01-13 12:21:16.85	191.11	15.83	-46.8	-50.1	21.2	6.07e-01	0	43	0	166723584	64	5517
2026-01-13 12:21:17.84	191.21	15.94	-46.6	-49.9	21.4	6.06e-01	0	43	0	168820736	64	5380
2026-01-13 12:21:18.83	191.31	16.06	-46.6	-49.9	21.4	6.07e-01	0	43	0	170393600	64	5393
2026-01-13 12:21:19.83	191.40	16.17	-46.7	-49.9	21.4	6.07e-01	0	43	0	172490752	64	5397
2026-01-13 12:21:20.83	191.51	16.29	-46.6	-49.9	21.5	6.06e-01	0	43	0	174587904	64	5358
2026-01-13 12:21:21.82	191.61	16.40	-46.6	-49.9	21.5	6.08e-01	0	43	0	176160768	64	5356
2026-01-13 12:21:22.82	191.71	16.52	-46.7	-50.0	21.4	6.07e-01	0	43	0	178257920	64	5429
2026-01-13 12:21:23.81	191.81	16.63	-46.8	-50.1	21.3	6.08e-01	0	43	0	179830784	64	5465
2026-01-13 12:21:24.81	191.91	16.75	-46.7	-50.0	21.4	6.08e-01	0	43	0	181927936	64	5404
2026-01-13 12:21:25.80	192.02	16.86	-46.8	-50.1	21.3	6.09e-01	0	43	0	183500800	64	5476
2026-01-13 12:21:26.80	192.12	16.98	-46.6	-49.8	21.5	6.08e-01	0	44	0	185597952	64	5319
2026-01-13 12:21:27.80	192.23	17.10	-46.6	-49.8	21.5	6.05e-01	0	44	0	187170816	64	5328
2026-01-13 12:21:28.79	192.34	17.22	-46.6	-49.8	21.5	6.07e-01	0	43	0	189267968	64	5334
2026-01-13 12:21:29.83	192.45	17.34	-46.5	-49.8	21.6	6.07e-01	0	43	0	191365120	64	5301
2026-01-13 12:21:30.81	192.55	17.46	-46.4	-49.7	21.7	6.08e-01	0	43	0	192937984	64	5227
2026-01-13 12:21:31.81	192.66	17.58	-46.4	-49.6	21.7	6.06e-01	0	43	0	195035136	64	5208
2026-01-13 12:21:32.93	192.79	17.72	-46.4	-49.7	21.6	6.07e-01	0	43	0	197132288	64	5258
2026-01-13 12:21:33.81	192.89	17.83	-46.4	-49.8	21.6	6.07e-01	0	43	0	198705152	64	5283
2026-01-13 12:21:35.12	193.03	17.99	-46.6	-50.0	21.3	6.07e-01	0	43	0	201326592	64	5448
2026-01-13 12:21:35.83	193.12	18.07	-46.5	-49.9	21.4	6.06e-01	0	43	0	202375168	64	5392
2026-01-13 12:21:37.11	193.26	18.23	-46.6	-50.0	21.4	6.06e-01	0	44	0	204996608	64	5412
2026-01-13 12:21:37.82	193.34	18.32	-46.4	-49.8	21.5	6.08e-01	0	43	0	206045184	64	5330
2026-01-13 12:21:39.10	193.49	18.48	-46.3	-49.7	21.6	6.07e-01	0	43	0	208666624	64	5248
2026-01-13 12:21:39.82	193.58	18.57	-46.4	-49.7	21.6	6.06e-01	0	43	0	210239488	64	5269
2026-01-13 12:21:41.10	193.73	18.73	-46.4	-49.8	21.5	6.08e-01	0	43	0	212336640	64	5337
2026-01-13 12:21:41.82	193.82	18.82	-46.4	-49.8	21.6	6.08e-01	0	43	0	213909504	64	5299
2026-01-13 12:21:43.09	193.97	18.99	-46.5	-49.9	21.5	6.09e-01	0	43	0	216006656	64	5366
2026-01-13 12:21:43.99	194.08	19.10	-46.5	-49.9	21.5	6.08e-01	0	44	0	217579520	64	5346
2026-01-13 12:21:44.99	194.20	19.23	-46.5	-49.9	21.5	6.06e-01	0	44	0	219676672	64	5392
2026-01-13 12:21:45.99	194.33	19.36	-46.6	-50.0	21.4	6.10e-01	0	43	0	221773824	64	5434
2026-01-13 12:21:46.98	194.45	19.49	-46.6	-50.0	21.4	6.07e-01	0	43	0	223346688	64	5413
2026-01-13 12:21:47.98	194.58	19.62	-46.4	-49.7	21.6	6.08e-01	0	43	0	225443840	64	5276
2026-01-13 12:21:48.98	194.70	19.75	-46.5	-49.8	21.6	6.08e-01	0	43	0	227016704	64	5301
2026-01-13 12:21:49.97	194.83	19.88	-46.5	-49.8	21.6	6.07e-01	0	43	0	229113856	64	5291
2026-01-13 12:21:50.97	194.96	20.01	-46.5	-49.8	21.6	6.08e-01	0	44	0	230686720	64	5288
2026-01-13 12:21:51.96	195.09	20.14	-46.7	-49.9	21.5	6.06e-01	0	44	0	232783872	64	5344
2026-01-13 12:21:52.96	195.22	20.28	-46.7	-49.9	21.3	6.07e-01	0	43	0	234881024	64	5347
2026-01-13 12:21:53.95	195.35	20.41	-46.8	-49.9	21.4	6.08e-01	0	43	0	236453888	64	5395
2026-01-13 12:21:54.95	195.48	20.54	-46.6	-49.8	21.6	6.09e-01	0	44	0	238551040	64	5288
2026-01-13 12:21:55.94	195.62	20.68	-46.7	-49.8	21.6	6.09e-01	0	44	0	240123904	64	5332
2026-01-13 12:21:56.94	195.75	20.81	-46.8	-49.8	21.6	6.08e-01	0	43	0	242221056	64	5333
2026-01-13 12:21:57.93	195.89	20.95	-46.8	-49.8	21.6	6.06e-01	0	43	0	243793920	64	5318
2026-01-13 12:21:58.93	196.03	21.09	-46.8	-49.9	21.5	6.08e-01	0	43	0	245891072	64	5384
2026-01-13 12:21:59.92	196.17	21.22	-46.9	-50.1	21.3	6.09e-01	0	43	0	247463936	64	5488
2026-01-13 12:22:00.91	196.31	21.36	-46.9	-50.1	21.3	6.07e-01	0	43	0	249561088	64	5525
2026-01-13 12:22:01.91	196.45	21.50	-46.7	-50.0	21.4	6.08e-01	0	43	0	251658240	64	5433
2026-01-13 12:22:02.90	196.59	21.64	-46.7	-49.9	21.5	6.07e-01	0	43	0	253231104	64	5382
2026-01-13 12:22:03.90	196.74	21.78	-46.7	-50.0	21.4	6.06e-01	0	44	0	255328256	64	5408
2026-01-13 12:22:04.90	196.89	21.92	-46.6	-49.9	21.5	6.08e-01	0	43	0	256901120	64	5362
2026-01-13 12:22:05.89	197.03	22.06	-46.6	-49.9	21.5	6.08e-01	0	43	0	258998272	64	5381
2026-01-13 12:22:06.93	197.19	22.21	-46.8	-50.1	21.3	6.06e-01	0	43	0	260571136	64	5526
2026-01-13 12:22:07.96	197.34	22.36	-46.8	-50.2	21.2	6.10e-01	0	44	0	262668288	64	5535
2026-01-13 12:22:08.96	197.50	22.50	-46.8	-50.1	21.3	6.08e-01	0	44	0	264765440	64	5510
2026-01-13 12:22:09.95	197.65	22.65	-46.8	-50.1	21.3	6.09e-01	0	43	0	266338304	64	5475
2026-01-13 12:22:10.94	197.80	22.79	-46.7	-49.9	21.4	6.08e-01	0	44	0	268435456	64	5388
2026-01-13 12:22:11.94	197.96	22.94	-46.8	-50.0	21.4	6.07e-01	0	44	0	270008320	64	5415
2026-01-13 12:22:12.93	198.12	23.08	-47.0	-50.2	21.2	6.07e-01	0	44	0	272105472	64	5565
2026-01-13 12:22:13.93	198.28	23.23	-46.9	-50.1	21.2	6.07e-01	0	43	0	274202624	64	5511
2026-01-13 12:22:14.93	198.44	23.38	-47.0	-50.2	21.2	6.07e-01	0	44	0	275775488	64	5569
2026-01-13 12:22:15.92	198.60	23.53	-47.1	-50.3	21.1	6.06e-01	0	44	0	277872640	64	5601
2026-01-13 12:22:16.92	198.76	23.68	-47.1	-50.2	21.2	6.08e-01	0	43	0	279445504	64	5552
2026-01-13 12:22:17.91	198.93	23.82	-47.0	-50.0	21.3	6.07e-01	0	44	0	281542656	64	5452
2026-01-13 12:22:18.91	199.09	23.98	-47.0	-50.1	21.2	6.07e-01	0	44	0	283115520	64	5494
2026-01-13 12:22:19.90	199.26	24.13	-46.9	-50.0	21.3	6.06e-01	0	44	0	285212672	64	5421
2026-01-13 12:22:20.89	199.43	24.28	-46.9	-50.0	21.3	6.07e-01	0	44	0	286785536	64	5460
2026-01-13 12:22:21.89	199.60	24.43	-47.0	-50.2	21.2	6.08e-01	0	44	0	288882688	64	5538
2026-01-13 12:22:22.88	199.78	24.58	-47.0	-50.2	21.1	6.07e-01	0	44	0	290979840	64	5557
2026-01-13 12:22:23.94	199.96	24.75	-46.9	-50.1	21.3	6.07e-01	0	44	0	292552704	64	5481
2026-01-13 12:22:24.86	200.13	24.89	-46.9	-50.0	21.3	6.08e-01	0	44	0	294649856	64	5428
2026-01-13 12:22:26.00	200.33	25.07	-46.9	-50.0	21.3	6.05e-01	0	43	0	296747008	64	5438
2026-01-13 12:22:26.85	200.49	25.20	-46.8	-49.9	21.4	6.05e-01	0	44	0	298319872	64	5374
2026-01-13 12:22:28.19	200.73	25.41	-46.8	-49.9	21.5	6.06e-01	0	44	0	300417024	64	5374
2026-01-13 12:22:28.90	200.87	25.53	-46.8	-49.8	21.5	6.06e-01	0	44	0	301989888	64	5338
2026-01-13 12:22:30.18	201.11	25.73	-46.7	-49.8	21.6	6.05e-01	0	43	0	304611328	64	5300
2026-01-13 12:22:30.89	201.24	25.84	-46.8	-49.8	21.5	6.06e-01	0	44	0	305659904	64	5320
2026-01-13 12:22:32.47	201.54	26.10	-46.7	-49.8	21.5	6.08e-01	0	44	0	308805632	64	5314
2026-01-13 12:22:33.13	201.67	26.20	-46.8	-49.9	21.5	6.06e-01	0	44	0	309854208	64	5348
2026-01-13 12:22:34.68	201.97	26.46	-46.7	-49.9	21.5	6.06e-01	0	43	0	312999936	64	5346
2026-01-13 12:22:35.39	202.12	26.57	-46.6	-49.8	21.6	6.08e-01	0	44	0	314048512	64	5286
2026-01-13 12:22:36.67	202.37	26.78	-46.6	-49.8	21.6	6.09e-01	0	44	0	316669952	64	5297
2026-01-13 12:22:37.58	202.56	26.93	-46.6	-49.8	21.6	6.06e-01	0	44	0	318242816	64	5281
2026-01-13 12:22:38.86	202.82	27.14	-46.6	-49.6	21.7	6.07e-01	0	44	0	320864256	64	5218
2026-01-13 12:22:39.57	202.97	27.26	-46.6	-49.7	21.7	6.10e-01	0	44	0	321912832	64	5230
2026-01-13 12:22:40.85	203.24	27.47	-46.7	-49.8	21.6	6.09e-01	0	44	0	324534272	64	5293
2026-01-13 12:22:41.71	203.42	27.62	-46.7	-49.7	21.6	6.07e-01	0	44	0	326107136	64	5272
2026-01-13 12:22:42.84	203.66	27.81	-46.8	-49.9	21.5	6.07e-01	0	44	0	328204288	64	5361
2026-01-13 12:22:43.69	203.84	27.95	-46.8	-49.9	21.4	6.07e-01	0	44	0	329777152	64	5379
2026-01-13 12:22:44.83	204.09	28.15	-46.9	-50.1	21.3	6.08e-01	0	44	0	331874304	64	5479
2026-01-13 12:22:45.68	204.28	28.29	-46.8	-50.0	21.4	6.09e-01	0	44	0	333447168	64	5403
2026-01-13 12:22:46.82	204.54	28.49	-46.6	-49.7	21.6	6.06e-01	0	44	0	335544320	64	5260
2026-01-13 12:22:47.67	204.73	28.63	-46.5	-49.5	21.8	6.07e-01	0	44	0	337117184	64	5145
2026-01-13 12:22:48.81	204.99	28.83	-46.6	-49.6	21.8	6.09e-01	0	44	0	339214336	64	5186
2026-01-13 12:22:49.66	205.19	28.98	-46.7	-49.7	21.6	6.07e-01	0	44	0	340787200	64	5269
2026-01-13 12:22:50.80	205.45	29.17	-46.7	-49.7	21.7	6.07e-01	0	44	0	342884352	64	5249
2026-01-13 12:22:51.65	205.65	29.32	-46.6	-49.7	21.7	6.07e-01	0	44	0	344457216	64	5219
2026-01-13 12:22:52.79	205.92	29.52	-46.6	-49.6	21.8	6.05e-01	0	44	0	346554368	64	5170
2026-01-13 12:22:53.64	206.13	29.67	-46.6	-49.6	21.7	6.08e-01	0	43	0	348127232	64	5187
2026-01-13 12:22:55.00	206.46	29.91	-46.7	-49.7	21.6	6.08e-01	0	43	0	350748672	64	5277
2026-01-13 12:22:55.71	206.64	30.04	-46.7	-49.8	21.6	6.07e-01	0	44	0	352321536	64	5285
2026-01-13 12:22:57.00	206.96	30.27	-46.7	-49.8	21.6	6.05e-01	0	44	0	354418688	64	5294
2026-01-13 12:22:57.71	207.14	30.39	-46.8	-49.8	21.5	6.08e-01	0	44	0	355991552	64	5334
2026-01-13 12:22:58.99	207.47	30.62	-46.7	-49.8	21.7	6.06e-01	0	44	0	358612992	64	5281
2026-01-13 12:22:59.71	207.65	30.75	-46.7	-49.7	21.7	6.05e-01	0	44	0	359661568	64	5238
2026-01-13 12:23:00.99	207.99	30.98	-46.7	-49.7	21.7	6.05e-01	0	44	0	362283008	64	5238
2026-01-13 12:23:01.70	208.17	31.11	-46.8	-49.7	21.7	6.08e-01	0	43	0	363331584	64	5278
2026-01-13 12:23:02.98	208.52	31.34	-47.0	-50.0	21.4	6.08e-01	0	44	0	365953024	64	5463
2026-01-13 12:23:03.72	208.72	31.47	-46.9	-49.9	21.5	6.10e-01	0	43	0	367525888	64	5386
2026-01-13 12:23:05.00	209.07	31.71	-46.7	-49.7	21.7	6.07e-01	0	43	0	369623040	64	5276
2026-01-13 12:23:05.72	209.27	31.84	-46.8	-49.8	21.6	6.06e-01	0	44	0	371195904	64	5308
2026-01-13 12:23:07.04	209.64	32.08	-47.0	-50.1	21.3	6.04e-01	0	44	0	373293056	64	5491
2026-01-13 12:23:07.75	209.84	32.21	-47.0	-50.1	21.3	6.07e-01	0	44	0	374865920	64	5525
2026-01-13 12:23:09.03	210.20	32.45	-46.8	-49.8	21.7	6.07e-01	0	44	0	377487360	64	5281
2026-01-13 12:23:09.74	210.41	32.58	-46.8	-49.8	21.6	6.08e-01	0	43	0	378535936	64	5322
2026-01-13 12:23:11.02	210.78	32.81	-47.0	-50.2	21.2	6.08e-01	0	44	0	381157376	64	5581
2026-01-13 12:23:11.73	210.99	32.95	-47.0	-50.2	21.2	6.09e-01	0	44	0	382205952	64	5575
2026-01-13 12:23:13.22	211.44	33.22	-47.1	-50.3	21.2	6.03e-01	0	44	0	385351680	64	5596
2026-01-13 12:23:13.93	211.66	33.36	-47.0	-50.2	21.3	6.08e-01	0	44	0	386400256	64	5547
2026-01-13 12:23:15.21	212.05	33.59	-47.2	-50.4	21.1	6.09e-01	0	43	0	389021696	65	5387
2026-01-13 12:23:15.93	212.27	33.73	-47.1	-50.3	21.2	6.06e-01	0	44	0	390070272	65	5324
2026-01-13 12:23:17.21	212.68	33.97	-47.1	-50.3	21.1	6.09e-01	0	44	0	392691712	65	5333
2026-01-13 12:23:17.92	212.90	34.10	-47.2	-50.4	21.1	6.07e-01	0	44	0	393740288	65	5364
2026-01-13 12:23:19.20	213.32	34.34	-47.2	-50.4	21.1	6.07e-01	0	44	0	396361728	65	5385
2026-01-13 12:23:19.91	213.55	34.47	-47.3	-50.4	21.0	6.08e-01	0	43	0	397934592	65	5402
2026-01-13 12:23:21.19	213.97	34.72	-47.3	-50.4	21.0	6.06e-01	0	44	0	400031744	65	5392
2026-01-13 12:23:21.91	214.21	34.85	-47.4	-50.7	20.8	6.06e-01	0	44	0	401604608	65	5561
2026-01-13 12:23:23.18	214.64	35.09	-47.2	-50.4	21.0	6.08e-01	0	44	0	403701760	65	5389
2026-01-13 12:23:23.89	214.88	35.22	-47.3	-50.5	21.0	6.07e-01	0	44	0	405274624	65	5437
2026-01-13 12:23:25.17	215.32	35.47	-47.2	-50.4	21.1	6.07e-01	0	44	0	407371776	65	5390
2026-01-13 12:23:26.09	215.64	35.64	-47.3	-50.5	21.0	6.06e-01	0	44	0	409468928	65	5455
2026-01-13 12:23:27.37	216.10	35.88	-47.4	-50.8	20.7	6.06e-01	0	44	0	411566080	65	5628
2026-01-13 12:23:28.12	216.37	36.02	-47.3	-50.6	20.9	6.06e-01	0	44	0	413138944	65	5526
2026-01-13 12:23:29.40	216.83	36.26	-47.3	-50.9	20.7	6.06e-01	0	43	0	415236096	65	5681
2026-01-13 12:23:30.21	217.13	36.42	-47.2	-50.7	20.8	6.08e-01	0	44	0	416808960	65	5572
2026-01-13 12:23:31.61	217.65	36.68	-47.5	-50.8	20.7	6.07e-01	0	44	0	419430400	65	5656
2026-01-13 12:23:32.32	217.92	36.81	-47.5	-50.9	20.7	6.07e-01	0	44	0	421003264	65	5674
2026-01-13 12:23:33.60	218.40	37.05	-47.5	-50.8	20.8	6.06e-01	0	43	0	423100416	65	5636
2026-01-13 12:23:34.31	218.68	37.19	-47.6	-51.0	20.6	6.08e-01	0	44	0	424673280	65	5748
2026-01-13 12:23:35.59	219.18	37.43	-47.5	-50.8	20.7	6.08e-01	0	44	0	427294720	65	5641
2026-01-13 12:23:36.30	219.46	37.56	-47.6	-50.9	20.7	6.06e-01	0	44	0	428343296	65	5693
2026-01-13 12:23:37.58	219.97	37.80	-47.6	-50.9	20.6	6.07e-01	0	44	0	430964736	65	5698
2026-01-13 12:23:38.48	220.33	37.97	-47.6	-51.0	20.6	6.09e-01	0	44	0	432537600	65	5744
2026-01-13 12:23:39.57	220.78	38.17	-47.6	-50.9	20.6	6.06e-01	0	44	0	434634752	65	5684
2026-01-13 12:23:40.42	221.13	38.33	-47.5	-50.8	20.7	6.07e-01	0	44	0	436207616	65	5629
2026-01-13 12:23:41.56	221.60	38.54	-47.5	-50.7	20.8	6.06e-01	0	44	0	438304768	65	5556
2026-01-13 12:23:42.41	221.96	38.69	-47.4	-50.6	21.0	6.08e-01	0	44	0	439877632	65	5478
2026-01-13 12:23:43.55	222.45	38.90	-47.4	-50.6	20.9	6.07e-01	0	43	0	441974784	65	5527
2026-01-13 12:23:44.40	222.82	39.06	-47.4	-50.6	20.9	6.08e-01	0	43	0	443547648	65	5483
2026-01-13 12:23:45.54	223.32	39.26	-47.2	-50.5	21.0	6.07e-01	0	44	0	445644800	65	5417
2026-01-13 12:23:46.39	223.69	39.42	-47.2	-50.4	21.1	6.08e-01	0	44	0	447217664	65	5376
2026-01-13 12:23:47.53	224.20	39.62	-47.1	-50.1	21.3	6.07e-01	0	44	0	449314816	65	5208
2026-01-13 12:23:48.39	224.59	39.78	-47.1	-50.2	21.2	6.06e-01	0	44	0	450887680	65	5268
2026-01-13 12:23:49.52	225.11	39.98	-47.1	-50.2	21.3	6.06e-01	0	44	0	452984832	65	5231
2026-01-13 12:23:50.38	225.50	40.13	-47.0	-50.0	21.4	6.05e-01	0	44	0	454557696	65	5143
2026-01-13 12:23:51.51	226.03	40.33	-46.9	-50.0	21.5	6.08e-01	0	44	0	457179136	65	5122
2026-01-13 12:23:52.37	226.44	40.48	-46.9	-50.0	21.4	6.07e-01	0	44	0	458752000	65	5112
2026-01-13 12:23:53.50	226.98	40.68	-46.9	-49.8	21.6	6.05e-01	0	44	0	460849152	65	5040
2026-01-13 12:23:54.35	227.39	40.82	-46.9	-49.9	21.5	6.06e-01	0	44	0	462422016	65	5087
2026-01-13 12:23:55.49	227.94	41.02	-46.7	-49.5	21.8	6.07e-01	0	44	0	464519168	65	4870
2026-01-13 12:23:56.34	228.36	41.16	-46.7	-49.6	21.8	6.07e-01	0	44	0	466092032	65	4881
2026-01-13 12:23:57.48	228.93	41.35	-46.8	-49.8	21.6	6.06e-01	0	44	0	468189184	65	5005
2026-01-13 12:23:58.33	229.36	41.50	-46.8	-49.8	21.6	6.07e-01	0	44	0	469762048	65	4997
2026-01-13 12:23:59.47	229.94	41.68	-46.8	-49.8	21.5	6.08e-01	0	44	0	471859200	65	5021
2026-01-13 12:24:00.32	230.37	41.82	-46.8	-49.9	21.5	6.08e-01	0	44	0	473432064	65	5045
2026-01-13 12:24:01.53	231.00	42.02	-46.8	-49.9	21.5	6.07e-01	0	44	0	475529216	65	5056
2026-01-13 12:24:02.38	231.45	42.15	-46.6	-49.8	21.6	6.06e-01	0	44	0	477102080	65	4989
2026-01-13 12:24:03.52	232.05	42.33	-46.0	-49.1	21.7	6.06e-01	0	44	0	479199232	64	4908
2026-01-13 12:24:04.37	232.51	42.47	-46.4	-49.4	21.9	6.07e-01	0	44	0	481296384	64	5096
2026-01-13 12:24:05.59	233.16	42.65	-46.5	-49.4	21.9	6.09e-01	0	44	0	483393536	64	5098
2026-01-13 12:24:06.44	233.63	42.78	-46.6	-49.4	21.9	6.05e-01	0	44	0	484966400	64	5079
2026-01-13 12:24:07.58	234.26	42.95	-46.2	-49.0	22.3	6.07e-01	0	44	0	487063552	64	4827
2026-01-13 12:24:08.44	234.73	43.08	-46.1	-48.8	22.4	6.07e-01	0	44	0	488636416	64	4735
2026-01-13 12:24:09.57	235.37	43.24	-46.1	-48.9	22.4	6.07e-01	0	44	0	490733568	64	4777
2026-01-13 12:24:10.43	235.85	43.36	-46.3	-49.1	22.2	6.09e-01	0	44	0	492306432	64	4899
2026-01-13 12:24:11.57	236.50	43.52	-46.1	-48.8	22.4	6.04e-01	0	43	0	494403584	64	4750
2026-01-13 12:24:12.42	236.99	43.64	-46.2	-48.9	22.4	6.08e-01	0	44	0	495976448	64	4779
2026-01-13 12:24:13.55	237.65	43.79	-46.2	-49.0	22.3	6.07e-01	0	44	0	498073600	64	4832
2026-01-13 12:24:14.41	238.15	43.90	-46.2	-49.0	22.2	6.07e-01	0	43	0	499646464	64	4827
2026-01-13 12:24:15.55	238.83	44.05	-46.2	-49.0	22.2	6.08e-01	0	44	0	501743616	64	4866
2026-01-13 12:24:16.40	239.33	44.16	-46.3	-49.1	22.1	6.07e-01	0	44	0	503316480	64	4920
2026-01-13 12:24:17.54	240.02	44.30	-46.4	-49.2	22.0	6.07e-01	0	44	0	505937920	64	4955
2026-01-13 12:24:18.39	240.53	44.40	-46.3	-49.2	22.1	6.06e-01	0	44	0	507510784	64	4937
2026-01-13 12:24:19.53	241.22	44.53	-46.0	-48.9	22.3	6.06e-01	0	44	0	509607936	64	4802
2026-01-13 12:24:20.38	241.74	44.63	-46.1	-49.0	22.3	6.08e-01	0	44	0	511180800	63	5148
2026-01-13 12:24:21.52	242.45	44.76	-46.1	-48.9	22.3	6.08e-01	0	43	0	513277952	63	5095
2026-01-13 12:24:22.38	242.98	44.85	-46.3	-49.2	22.1	6.05e-01	0	44	0	514850816	63	5225
2026-01-13 12:24:23.51	243.69	44.97	-46.4	-49.3	22.1	6.07e-01	0	43	0	516947968	63	5283
2026-01-13 12:24:24.37	244.23	45.05	-46.4	-49.2	22.1	6.06e-01	0	43	0	518520832	63	5251
2026-01-13 12:24:25.50	244.95	45.16	-46.5	-49.3	22.0	6.06e-01	0	44	0	520617984	63	5340
2026-01-13 12:24:26.35	245.49	45.24	-46.4	-49.3	22.0	6.07e-01	0	43	0	522190848	63	5286
2026-01-13 12:24:27.49	246.22	45.35	-46.2	-49.0	22.3	6.06e-01	0	44	0	524288000	63	5114
2026-01-13 12:24:28.34	246.77	45.42	-46.0	-48.7	22.5	6.08e-01	0	44	0	525860864	63	4972
2026-01-13 12:24:29.47	247.50	45.51	-46.2	-49.1	22.2	6.09e-01	0	43	0	527958016	63	5205
2026-01-13 12:24:30.33	248.06	45.58	-46.2	-49.0	22.3	6.08e-01	0	44	0	529530880	63	5112
2026-01-13 12:24:31.46	248.80	45.67	-46.4	-49.2	22.1	6.08e-01	0	44	0	531628032	63	5275
2026-01-13 12:24:32.32	249.37	45.73	-46.1	-48.9	22.4	6.07e-01	0	44	0	533200896	63	5054
2026-01-13 12:24:33.45	250.11	45.80	-46.4	-49.3	22.1	6.06e-01	0	44	0	535822336	63	5285
2026-01-13 12:24:34.31	250.68	45.86	-46.3	-49.3	22.1	6.08e-01	0	44	0	537395200	63	5282
2026-01-13 12:24:35.50	251.48	45.93	-46.3	-49.3	22.0	6.06e-01	0	43	0	539492352	63	5286
2026-01-13 12:24:36.36	252.05	45.98	-46.3	-49.2	22.1	6.06e-01	0	44	0	541065216	63	5241
2026-01-13 12:24:37.50	252.82	46.03	-46.5	-49.5	21.9	6.06e-01	0	44	0	543162368	63	5417
2026-01-13 12:24:38.35	253.39	46.07	-46.4	-49.2	22.1	6.07e-01	0	43	0	544735232	63	5238
2026-01-13 12:24:39.61	254.24	46.13	-46.3	-49.2	22.1	6.05e-01	0	43	0	547356672	63	5236
2026-01-13 12:24:40.40	254.77	46.16	-46.3	-49.1	22.2	6.07e-01	0	44	0	548405248	63	5215
2026-01-13 12:24:41.60	255.59	46.20	-46.5	-49.4	21.9	6.06e-01	0	44	0	551026688	63	5400
2026-01-13 12:24:42.46	256.17	46.22	-46.4	-49.3	22.1	6.08e-01	0	44	0	552599552	63	5288
2026-01-13 12:24:43.59	256.94	46.25	-46.6	-49.6	21.8	6.08e-01	0	44	0	554696704	63	5474
2026-01-13 12:24:44.45	257.52	46.27	-46.5	-49.5	21.8	6.07e-01	0	43	0	556269568	64	5108
2026-01-13 12:24:45.59	258.30	46.29	-46.5	-49.5	21.7	6.07e-01	0	44	0	558366720	64	5147
2026-01-13 12:24:46.44	258.88	46.30	-46.4	-49.3	22.0	6.08e-01	0	43	0	559939584	64	4992
2026-01-13 12:24:47.57	259.66	46.31	-46.5	-49.5	21.8	6.06e-01	0	43	0	562036736	64	5128
2026-01-13 12:24:48.43	260.24	46.31	-46.5	-49.6	21.7	6.08e-01	0	44	0	563609600	64	5172
2026-01-13 12:24:49.56	261.02	46.31	-46.3	-49.3	21.9	6.08e-01	0	44	0	565706752	64	5033
2026-01-13 12:24:50.42	261.60	46.31	-46.5	-49.5	21.7	6.09e-01	0	43	0	567279616	64	5150
2026-01-13 12:24:51.56	262.38	46.30	-46.5	-49.5	21.8	6.06e-01	0	43	0	569376768	64	5116
2026-01-13 12:24:52.41	262.96	46.29	-46.6	-49.7	21.6	6.07e-01	0	44	0	570949632	64	5240
2026-01-13 12:24:53.55	263.74	46.27	-46.5	-49.5	21.8	6.07e-01	0	44	0	573046784	64	5128
2026-01-13 12:24:54.40	264.32	46.25	-46.8	-49.8	21.5	6.07e-01	0	44	0	574619648	64	5305
2026-01-13 12:24:55.54	265.10	46.22	-47.2	-50.4	20.6	6.06e-01	0	44	0	576716800	65	5343
2026-01-13 12:24:56.39	265.67	46.19	-46.6	-49.5	21.8	6.04e-01	0	44	0	578289664	65	4838
2026-01-13 12:24:57.52	266.44	46.15	-46.7	-49.8	21.6	6.06e-01	0	44	0	580911104	64	5281
2026-01-13 12:24:58.38	267.02	46.12	-46.7	-49.7	21.5	6.07e-01	0	44	0	582483968	64	5277
2026-01-13 12:24:59.51	267.78	46.07	-46.5	-49.4	21.8	6.02e-01	0	44	0	584581120	64	5084
2026-01-13 12:25:00.36	268.35	46.03	-46.8	-49.8	21.4	6.07e-01	0	44	0	586153984	64	5331
2026-01-13 12:25:01.50	269.12	45.97	-46.3	-49.2	22.0	6.06e-01	0	43	0	588251136	64	4937
2026-01-13 12:25:02.35	269.68	45.92	-46.6	-49.6	21.7	6.07e-01	0	44	0	589824000	64	5171
2026-01-13 12:25:03.49	270.44	45.86	-46.6	-49.7	21.6	6.06e-01	0	44	0	591921152	64	5240
2026-01-13 12:25:04.34	271.00	45.80	-46.5	-49.6	21.6	6.07e-01	0	44	0	593494016	64	5186
2026-01-13 12:25:05.48	271.76	45.73	-46.7	-49.7	21.6	6.09e-01	0	44	0	595591168	64	5261
2026-01-13 12:25:06.33	272.32	45.66	-46.9	-50.0	21.3	6.05e-01	0	44	0	597164032	64	5408
2026-01-13 12:25:07.47	273.06	45.58	-47.0	-50.0	21.3	6.05e-01	0	44	0	599261184	64	5439
2026-01-13 12:25:08.33	273.62	45.51	-46.9	-50.0	21.3	6.07e-01	0	44	0	600834048	64	5435
2026-01-13 12:25:09.46	274.35	45.42	-46.8	-49.9	21.4	6.08e-01	0	44	0	602931200	64	5353
2026-01-13 12:25:10.32	274.90	45.34	-46.9	-50.0	21.3	6.09e-01	0	44	0	604504064	64	5413
2026-01-13 12:25:11.45	275.63	45.24	-46.9	-50.0	21.3	6.06e-01	0	44	0	606601216	64	5441
2026-01-13 12:25:12.30	276.17	45.16	-47.0	-50.0	21.3	6.06e-01	0	44	0	608698368	64	5442
2026-01-13 12:25:13.60	276.99	45.04	-47.1	-50.2	21.1	6.08e-01	0	44	0	610795520	64	5537
2026-01-13 12:25:14.31	277.44	44.96	-46.6	-49.6	21.7	6.08e-01	0	44	0	612368384	64	5167
2026-01-13 12:25:15.59	278.24	44.83	-46.7	-49.9	21.4	6.05e-01	0	44	0	614465536	64	5357
2026-01-13 12:25:16.31	278.68	44.75	-46.6	-49.8	21.5	6.09e-01	0	44	0	616038400	64	5300
2026-01-13 12:25:17.83	279.62	44.58	-46.6	-49.7	21.5	6.05e-01	0	44	0	618659840	64	5255
2026-01-13 12:25:18.55	280.06	44.50	-46.5	-49.4	21.8	6.06e-01	0	44	0	620232704	64	5095
2026-01-13 12:25:19.82	280.83	44.35	-46.5	-49.4	21.8	6.08e-01	0	44	0	622329856	64	5076
2026-01-13 12:25:20.53	281.25	44.27	-46.8	-49.9	21.4	6.08e-01	0	44	0	623902720	64	5347
2026-01-13 12:25:21.81	282.02	44.11	-46.4	-49.4	21.8	6.05e-01	0	44	0	625999872	64	5082
2026-01-13 12:25:22.53	282.44	44.02	-46.3	-49.2	22.0	6.05e-01	0	44	0	627572736	64	4965
2026-01-13 12:25:23.80	283.19	43.85	-46.6	-49.5	21.7	6.08e-01	0	44	0	630194176	64	5145
2026-01-13 12:25:24.53	283.61	43.76	-46.6	-49.6	21.7	6.08e-01	0	44	0	631242752	64	5169
2026-01-13 12:25:25.81	284.35	43.58	-46.7	-49.7	21.6	6.06e-01	0	44	0	633864192	64	5233
2026-01-13 12:25:26.52	284.76	43.49	-46.7	-49.7	21.6	6.07e-01	0	44	0	634912768	64	5248
2026-01-13 12:25:27.80	285.49	43.31	-46.7	-49.7	21.6	6.02e-01	0	44	0	637534208	64	5223
2026-01-13 12:25:28.52	285.89	43.20	-46.7	-49.7	21.5	6.06e-01	0	44	0	638582784	64	5258
2026-01-13 12:25:29.80	286.60	43.02	-46.8	-49.8	21.5	6.06e-01	0	44	0	641204224	64	5328
2026-01-13 12:25:30.53	287.01	42.91	-46.7	-49.7	21.6	6.06e-01	0	44	0	642777088	64	5242
2026-01-13 12:25:31.81	287.71	42.72	-46.8	-49.8	21.5	6.05e-01	0	44	0	644874240	64	5282
2026-01-13 12:25:32.52	288.09	42.61	-46.8	-49.8	21.5	6.06e-01	0	44	0	646447104	64	5297
2026-01-13 12:25:33.80	288.78	42.41	-46.8	-49.8	21.5	6.06e-01	0	44	0	648544256	64	5299
2026-01-13 12:25:34.53	289.17	42.30	-46.6	-49.5	21.7	6.06e-01	0	44	0	650117120	64	5148
2026-01-13 12:25:35.80	289.84	42.10	-46.7	-49.8	21.5	6.07e-01	0	44	0	652738560	64	5284
2026-01-13 12:25:36.51	290.21	41.99	-46.8	-49.9	21.4	6.09e-01	0	44	0	653787136	64	5343
2026-01-13 12:25:37.79	290.87	41.78	-46.8	-49.9	21.4	6.07e-01	0	44	0	656408576	64	5352
2026-01-13 12:25:38.53	291.24	41.66	-46.7	-49.8	21.5	6.05e-01	0	44	0	657457152	64	5316
2026-01-13 12:25:39.81	291.89	41.45	-46.7	-49.7	21.6	6.08e-01	0	44	0	660078592	64	5253
2026-01-13 12:25:40.52	292.25	41.33	-46.8	-49.8	21.5	6.04e-01	0	44	0	661127168	64	5286
2026-01-13 12:25:41.80	292.88	41.12	-46.9	-50.0	21.3	6.07e-01	0	44	0	663748608	64	5425
2026-01-13 12:25:42.58	293.26	40.99	-46.9	-50.1	21.2	6.07e-01	0	44	0	665321472	64	5493
2026-01-13 12:25:43.86	293.88	40.77	-46.8	-49.9	21.3	6.07e-01	0	44	0	667418624	64	5386
2026-01-13 12:25:44.64	294.26	40.63	-46.8	-49.9	21.4	6.04e-01	0	44	0	668991488	64	5380
2026-01-13 12:25:45.86	294.83	40.42	-47.2	-50.4	20.9	6.07e-01	0	44	0	671088640	65	5397
2026-01-13 12:25:46.80	295.27	40.26	-47.1	-50.3	21.0	6.03e-01	0	44	0	673185792	65	5281
2026-01-13 12:25:47.99	295.83	40.05	-47.1	-50.4	20.9	6.10e-01	0	44	0	675282944	65	5354
2026-01-13 12:25:48.85	296.22	39.90	-47.0	-50.3	21.0	6.08e-01	0	44	0	676855808	65	5300
2026-01-13 12:25:49.98	296.73	39.69	-46.8	-49.9	21.3	6.10e-01	0	44	0	678952960	65	5100
2026-01-13 12:25:50.84	297.12	39.54	-46.8	-50.0	21.3	6.06e-01	0	44	0	680525824	65	5110
2026-01-13 12:25:51.97	297.62	39.34	-47.0	-50.3	21.0	6.07e-01	0	44	0	682622976	65	5292
2026-01-13 12:25:52.83	297.99	39.18	-47.1	-50.4	20.9	6.08e-01	0	44	0	684195840	65	5397
2026-01-13 12:25:53.96	298.48	38.98	-46.7	-49.9	21.3	6.08e-01	0	44	0	686292992	65	5069
2026-01-13 12:25:54.82	298.85	38.82	-46.7	-49.9	21.4	6.08e-01	0	44	0	688390144	65	5064
2026-01-13 12:25:55.95	299.33	38.61	-46.8	-50.0	21.2	6.06e-01	0	43	0	690487296	65	5135
2026-01-13 12:25:56.81	299.69	38.46	-46.7	-49.9	21.4	6.07e-01	0	44	0	692060160	65	5049
2026-01-13 12:25:57.94	300.16	38.25	-46.9	-50.0	21.2	6.06e-01	0	44	0	694157312	65	5139
2026-01-13 12:25:58.79	300.51	38.09	-46.9	-50.0	21.2	6.04e-01	0	44	0	695730176	65	5110
2026-01-13 12:25:59.93	300.97	37.88	-46.8	-49.9	21.3	6.06e-01	0	44	0	697827328	65	5085
2026-01-13 12:26:00.79	301.31	37.72	-46.7	-49.8	21.4	6.06e-01	0	44	0	699400192	65	5023
2026-01-13 12:26:01.92	301.76	37.51	-46.8	-50.0	21.3	6.07e-01	0	44	0	701497344	65	5105
2026-01-13 12:26:02.77	302.09	37.35	-46.6	-49.7	21.6	6.04e-01	0	44	0	703070208	65	4942
2026-01-13 12:26:03.91	302.53	37.14	-46.4	-49.5	21.7	6.06e-01	0	44	0	705167360	64	5110
2026-01-13 12:26:04.76	302.86	36.98	-46.4	-49.5	21.7	6.08e-01	0	44	0	706740224	64	5133
2026-01-13 12:26:05.90	303.29	36.77	-46.4	-49.5	21.7	6.05e-01	0	43	0	708837376	64	5114
2026-01-13 12:26:06.76	303.61	36.61	-46.4	-49.6	21.6	6.05e-01	0	43	0	710410240	64	5197
2026-01-13 12:26:07.89	304.02	36.40	-46.4	-49.5	21.7	6.06e-01	0	44	0	712507392	64	5159
2026-01-13 12:26:08.74	304.33	36.24	-46.3	-49.4	21.8	6.06e-01	0	44	0	714080256	64	5054
2026-01-13 12:26:09.88	304.75	36.02	-46.3	-49.4	21.8	6.07e-01	0	44	0	716177408	64	5060
2026-01-13 12:26:10.73	305.05	35.86	-46.4	-49.6	21.6	6.06e-01	0	44	0	717750272	64	5198
2026-01-13 12:26:11.90	305.46	35.64	-46.1	-49.1	22.1	6.07e-01	0	44	0	719847424	64	4901
2026-01-13 12:26:12.75	305.76	35.49	-46.0	-49.0	22.2	6.07e-01	0	44	0	721944576	64	4818
2026-01-13 12:26:13.89	306.15	35.27	-46.0	-49.0	22.2	6.08e-01	0	44	0	724041728	64	4820
2026-01-13 12:26:14.74	306.44	35.11	-46.1	-49.0	22.2	6.05e-01	0	44	0	725614592	64	4835
2026-01-13 12:26:16.01	306.86	34.87	-46.1	-49.0	22.1	6.05e-01	0	44	0	727711744	64	4827
2026-01-13 12:26:16.81	307.13	34.73	-45.9	-48.8	22.4	6.09e-01	0	44	0	729284608	63	4985
2026-01-13 12:26:18.07	307.54	34.49	-45.8	-48.5	22.6	6.06e-01	0	44	0	731906048	63	4870
2026-01-13 12:26:18.88	307.81	34.34	-45.8	-48.6	22.6	6.07e-01	0	44	0	733478912	63	4904
2026-01-13 12:26:20.09	308.19	34.11	-45.8	-48.7	22.5	6.07e-01	0	44	0	735576064	63	4937
2026-01-13 12:26:20.94	308.46	33.95	-45.9	-48.7	22.4	6.07e-01	0	44	0	737148928	63	4961
2026-01-13 12:26:22.11	308.83	33.74	-45.9	-48.7	22.5	6.05e-01	0	44	0	739246080	63	4932
2026-01-13 12:26:22.96	309.09	33.58	-46.0	-48.7	22.5	6.07e-01	0	44	0	740818944	63	4949
2026-01-13 12:26:24.10	309.44	33.37	-46.0	-48.8	22.4	6.08e-01	0	44	0	742916096	63	4984
2026-01-13 12:26:25.41	309.83	33.13	-46.0	-48.7	22.4	6.06e-01	0	44	0	745537536	63	4970
2026-01-13 12:26:26.12	310.05	32.99	-45.7	-48.3	22.8	6.07e-01	0	44	0	746586112	63	4755
2026-01-13 12:26:27.40	310.42	32.76	-45.4	-48.0	23.1	6.06e-01	0	44	0	749207552	62	4834
2026-01-13 12:26:28.12	310.63	32.63	-45.5	-48.1	23.0	6.06e-01	0	44	0	750780416	62	4884
2026-01-13 12:26:29.46	311.02	32.38	-45.6	-48.3	22.8	6.08e-01	0	44	0	752877568	62	5003
2026-01-13 12:26:30.16	311.22	32.25	-45.6	-48.4	22.7	6.03e-01	0	44	0	754450432	62	5055
2026-01-13 12:26:31.44	311.58	32.02	-45.6	-48.3	22.8	6.06e-01	0	44	0	756547584	62	5034
2026-01-13 12:26:32.17	311.78	31.89	-45.6	-48.4	22.7	6.04e-01	0	44	0	758120448	62	5064
2026-01-13 12:26:33.54	312.16	31.64	-45.6	-48.3	22.8	6.05e-01	0	44	0	760741888	62	5007
2026-01-13 12:26:34.26	312.35	31.51	-45.6	-48.3	22.8	6.08e-01	0	44	0	762314752	62	5026
2026-01-13 12:26:35.53	312.69	31.28	-45.5	-48.3	22.9	6.08e-01	0	44	0	764411904	62	4992
2026-01-13 12:26:36.25	312.88	31.15	-45.5	-48.3	22.9	6.08e-01	0	44	0	765984768	62	4987
2026-01-13 12:26:37.52	313.22	30.92	-45.5	-48.2	22.9	6.07e-01	0	44	0	768081920	62	4938
2026-01-13 12:26:38.26	313.41	30.79	-45.5	-48.2	22.9	6.05e-01	0	44	0	769654784	62	4931
2026-01-13 12:26:39.54	313.74	30.56	-45.6	-48.3	22.8	6.07e-01	0	44	0	771751936	62	5007
2026-01-13 12:26:40.27	313.92	30.43	-45.7	-48.5	22.6	6.06e-01	0	44	0	773324800	62	5126
2026-01-13 12:26:41.55	314.24	30.21	-45.7	-48.6	22.6	6.06e-01	0	43	0	775946240	62	5166
2026-01-13 12:26:42.26	314.42	30.08	-45.7	-48.5	22.6	6.07e-01	0	44	0	776994816	62	5153
2026-01-13 12:26:43.54	314.73	29.86	-45.7	-48.5	22.6	6.05e-01	0	44	0	779616256	62	5140
2026-01-13 12:26:44.26	314.91	29.73	-45.7	-48.5	22.6	6.08e-01	0	44	0	780664832	62	5135
2026-01-13 12:26:45.54	315.22	29.51	-45.6	-48.4	22.7	6.07e-01	0	44	0	783286272	62	5094
2026-01-13 12:26:46.25	315.38	29.38	-45.6	-48.4	22.7	6.05e-01	0	44	0	784334848	62	5051
2026-01-13 12:26:47.53	315.69	29.16	-45.5	-48.4	22.7	6.08e-01	0	44	0	786956288	62	5072
2026-01-13 12:26:48.24	315.85	29.04	-45.6	-48.5	22.6	6.07e-01	0	44	0	788004864	62	5121
2026-01-13 12:26:49.52	316.14	28.82	-45.6	-48.6	22.5	6.07e-01	0	44	0	790626304	62	5174
2026-01-13 12:26:50.23	316.31	28.70	-45.7	-48.7	22.4	6.05e-01	0	44	0	792199168	62	5274
2026-01-13 12:26:51.51	316.59	28.48	-45.6	-48.7	22.4	6.04e-01	0	44	0	794296320	62	5268
2026-01-13 12:26:52.22	316.75	28.36	-45.5	-48.7	22.4	6.09e-01	0	44	0	795869184	62	5264
2026-01-13 12:26:53.50	317.03	28.14	-45.5	-48.7	22.4	6.08e-01	0	44	0	797966336	62	5255
2026-01-13 12:26:54.21	317.19	28.02	-45.6	-48.8	22.3	6.04e-01	0	44	0	799539200	62	5299
2026-01-13 12:26:55.57	317.48	27.80	-45.7	-48.8	22.4	6.07e-01	0	44	0	802160640	62	5285
2026-01-13 12:26:56.28	317.63	27.68	-45.7	-48.7	22.4	6.06e-01	0	44	0	803209216	62	5271
2026-01-13 12:26:57.56	317.90	27.47	-45.8	-48.8	22.4	6.05e-01	0	44	0	805830656	62	5307
2026-01-13 12:26:58.27	318.05	27.35	-45.8	-48.9	22.3	6.06e-01	0	44	0	806879232	62	5344
2026-01-13 12:26:59.55	318.31	27.14	-45.8	-48.9	22.2	6.06e-01	0	44	0	809500672	62	5360
2026-01-13 12:27:00.28	318.46	27.02	-45.9	-49.0	22.2	6.07e-01	0	44	0	811073536	62	5409
2026-01-13 12:27:01.56	318.72	26.81	-45.9	-49.0	22.1	6.06e-01	0	44	0	813170688	62	5453
2026-01-13 12:27:02.28	318.87	26.69	-46.0	-49.1	22.1	6.06e-01	0	44	0	814743552	62	5488
2026-01-13 12:27:03.77	319.16	26.45	-46.2	-49.3	21.9	6.07e-01	0	44	0	817364992	62	5626
2026-01-13 12:27:04.48	319.30	26.33	-46.3	-49.4	21.7	6.07e-01	0	44	0	818937856	63	5375
2026-01-13 12:27:05.83	319.56	26.12	-46.3	-49.4	21.8	6.07e-01	0	44	0	821035008	63	5378
2026-01-13 12:27:06.55	319.70	26.00	-46.2	-49.3	21.8	6.06e-01	0	44	0	822607872	63	5330
2026-01-13 12:27:07.83	319.94	25.80	-46.2	-49.3	21.9	6.05e-01	0	44	0	825229312	63	5319
2026-01-13 12:27:08.57	320.08	25.68	-46.1	-49.2	21.9	6.07e-01	0	43	0	826277888	63	5279
2026-01-13 12:27:09.85	320.32	25.48	-45.9	-49.0	22.1	6.08e-01	0	44	0	828899328	63	5152
2026-01-13 12:27:10.56	320.45	25.37	-45.9	-49.0	22.1	6.06e-01	0	44	0	829947904	63	5143
2026-01-13 12:27:11.84	320.68	25.17	-46.0	-49.1	22.1	6.07e-01	0	44	0	832569344	63	5175
2026-01-13 12:27:12.55	320.81	25.06	-46.0	-49.1	21.7	6.06e-01	0	44	0	833617920	63	5199
2026-01-13 12:27:13.83	321.04	24.86	-45.9	-49.1	22.0	6.07e-01	0	44	0	836239360	63	5208
2026-01-13 12:27:14.55	321.16	24.75	-45.9	-49.1	22.1	6.08e-01	0	44	0	837812224	63	5187
2026-01-13 12:27:15.83	321.39	24.55	-45.9	-49.1	22.0	6.08e-01	0	44	0	839909376	63	5214
2026-01-13 12:27:16.56	321.51	24.44	-45.9	-49.2	21.9	6.06e-01	0	44	0	841482240	63	5250
2026-01-13 12:27:17.83	321.73	24.25	-45.9	-49.1	22.1	6.08e-01	0	44	0	843579392	63	5193
2026-01-13 12:27:18.56	321.86	24.14	-46.0	-49.2	21.9	6.06e-01	0	44	0	845152256	63	5267
2026-01-13 12:27:19.84	322.07	23.95	-46.0	-49.3	21.9	6.07e-01	0	44	0	847249408	63	5294
2026-01-13 12:27:20.55	322.19	23.84	-46.1	-49.3	21.9	6.09e-01	0	44	0	848822272	63	5322
2026-01-13 12:27:21.83	322.40	23.65	-46.2	-49.4	21.8	6.07e-01	0	44	0	851443712	63	5390
2026-01-13 12:27:22.57	322.52	23.54	-46.2	-49.4	21.8	6.04e-01	0	44	0	852492288	63	5393
2026-01-13 12:27:23.85	322.73	23.35	-46.3	-49.5	21.7	6.06e-01	0	44	0	855113728	63	5431
2026-01-13 12:27:24.56	322.84	23.25	-46.3	-49.5	21.7	6.06e-01	0	44	0	856162304	63	5435
2026-01-13 12:27:25.84	323.05	23.06	-46.3	-49.5	21.6	6.06e-01	0	44	0	858783744	63	5464
2026-01-13 12:27:26.57	323.16	22.95	-46.2	-49.4	21.8	6.06e-01	0	44	0	860356608	63	5362
2026-01-13 12:27:27.85	323.36	22.77	-46.2	-49.4	21.8	6.07e-01	0	44	0	862453760	63	5371
2026-01-13 12:27:28.56	323.47	22.66	-46.3	-49.5	21.7	6.08e-01	0	44	0	864026624	63	5422
2026-01-13 12:27:29.84	323.66	22.48	-46.2	-49.3	21.9	6.07e-01	0	44	0	866123776	63	5280
2026-01-13 12:27:30.55	323.77	22.38	-46.1	-49.2	21.9	6.07e-01	0	44	0	867696640	63	5261
2026-01-13 12:27:31.83	323.96	22.20	-46.3	-49.3	21.9	6.08e-01	0	44	0	869793792	63	5331
2026-01-13 12:27:32.55	324.07	22.10	-46.2	-49.2	21.9	6.07e-01	0	44	0	871366656	63	5262
2026-01-13 12:27:33.83	324.26	21.92	-46.2	-49.2	22.0	6.07e-01	0	44	0	873988096	63	5255
2026-01-13 12:27:34.54	324.36	21.82	-46.2	-49.2	22.0	6.06e-01	0	44	0	875036672	63	5240
2026-01-13 12:27:35.82	324.55	21.64	-46.2	-49.2	21.9	6.06e-01	0	44	0	877658112	63	5260
2026-01-13 12:27:36.53	324.65	21.54	-46.0	-49.1	22.0	6.07e-01	0	44	0	878706688	63	5218
2026-01-13 12:27:37.81	324.83	21.36	-46.0	-49.3	21.9	6.08e-01	0	44	0	881328128	63	5289
2026-01-13 12:27:38.69	324.95	21.24	-45.9	-49.3	21.9	6.07e-01	0	44	0	882900992	63	5302
2026-01-13 12:27:39.83	325.11	21.09	-45.7	-49.2	22.0	6.08e-01	0	44	0	884998144	63	5228
2026-01-13 12:27:40.68	325.23	20.97	-45.7	-49.2	22.0	6.07e-01	0	44	0	886571008	63	5232
2026-01-13 12:27:42.18	325.43	20.77	-46.0	-49.3	21.9	6.08e-01	0	44	0	889192448	63	5298
2026-01-13 12:27:42.89	325.53	20.67	-46.1	-49.3	21.8	6.07e-01	0	44	0	890765312	63	5319
2026-01-13 12:27:44.17	325.70	20.50	-46.2	-49.3	21.8	6.07e-01	0	44	0	893386752	63	5312
2026-01-13 12:27:44.88	325.80	20.41	-46.3	-49.3	21.9	6.05e-01	0	44	0	894435328	63	5304
2026-01-13 12:27:46.18	325.97	20.23	-46.4	-49.4	21.7	6.06e-01	0	44	0	897056768	63	5354
2026-01-13 12:27:46.89	326.06	20.14	-46.3	-49.2	21.9	6.07e-01	0	44	0	898105344	63	5261
2026-01-13 12:27:48.20	326.23	19.97	-46.1	-49.1	22.0	6.08e-01	0	44	0	900726784	63	5206
2026-01-13 12:27:48.91	326.32	19.87	-46.1	-49.1	22.0	6.08e-01	0	44	0	902299648	63	5210
2026-01-13 12:27:50.19	326.48	19.71	-46.0	-49.1	22.1	6.06e-01	0	44	0	904396800	63	5173
2026-01-13 12:27:51.17	326.61	19.58	-46.0	-49.1	22.0	6.08e-01	0	44	0	906493952	63	5198
2026-01-13 12:27:52.46	326.77	19.41	-45.9	-49.1	22.1	6.05e-01	0	44	0	908591104	63	5201
2026-01-13 12:27:53.20	326.86	19.32	-45.9	-49.2	22.0	6.08e-01	0	44	0	910163968	63	5229
2026-01-13 12:27:54.48	327.01	19.16	-45.7	-49.1	22.0	6.07e-01	0	44	0	912261120	63	5182
2026-01-13 12:27:55.19	327.10	19.07	-45.6	-49.1	22.0	6.07e-01	0	44	0	913833984	63	5182
2026-01-13 12:27:56.83	327.30	18.86	-45.5	-49.0	22.1	6.08e-01	0	44	0	916979712	63	5144
2026-01-13 12:27:57.40	327.37	18.79	-45.5	-49.1	22.0	6.06e-01	0	44	0	918028288	63	5184
2026-01-13 12:27:59.10	327.57	18.58	-45.6	-49.0	22.1	6.10e-01	0	44	0	921174016	63	5143
2026-01-13 12:27:59.67	327.63	18.50	-45.7	-49.1	22.0	6.08e-01	0	44	0	922222592	63	5204
2026-01-13 12:28:01.38	327.83	18.29	-45.7	-49.0	22.1	6.06e-01	0	44	0	925368320	63	5140
2026-01-13 12:28:01.94	327.90	18.22	-45.8	-49.1	22.0	6.06e-01	0	44	0	926416896	63	5173
2026-01-13 12:28:03.65	328.09	18.02	-45.9	-49.0	22.1	6.06e-01	0	44	0	929562624	63	5157
2026-01-13 12:28:04.22	328.15	17.95	-45.9	-49.1	22.0	6.10e-01	0	44	0	930611200	63	5180
2026-01-13 12:28:05.99	328.35	17.73	-45.9	-49.1	22.0	6.06e-01	0	44	0	934281216	63	5198
2026-01-13 12:28:06.56	328.41	17.66	-45.8	-49.0	22.2	6.08e-01	0	44	0	935329792	63	5111
2026-01-13 12:28:08.26	328.60	17.46	-45.9	-48.9	22.2	6.09e-01	0	44	0	938475520	63	5098
2026-01-13 12:28:08.83	328.66	17.39	-45.9	-49.0	22.2	6.04e-01	0	44	0	939524096	63	5107
2026-01-13 12:28:10.54	328.85	17.19	-45.9	-49.0	22.1	6.06e-01	0	44	0	942669824	63	5104
2026-01-13 12:28:11.11	328.91	17.12	-45.9	-48.9	22.2	6.06e-01	0	44	0	943718400	63	5083
2026-01-13 12:28:13.18	329.12	16.88	-46.0	-48.9	22.2	6.07e-01	0	44	0	947388416	63	5066
2026-01-13 12:28:13.74	329.18	16.81	-46.0	-48.9	22.2	6.08e-01	0	44	0	948436992	63	5065
2026-01-13 12:28:15.45	329.36	16.62	-46.0	-48.9	22.2	6.10e-01	0	44	0	951582720	63	5068
2026-01-13 12:28:16.02	329.42	16.55	-46.0	-48.9	22.2	6.06e-01	0	44	0	952631296	63	5064
2026-01-13 12:28:17.71	329.59	16.36	-46.1	-49.0	22.1	6.05e-01	0	44	0	956301312	63	5144
2026-01-13 12:28:18.28	329.65	16.29	-46.1	-49.1	22.1	6.06e-01	0	44	0	957349888	63	5175
2026-01-13 12:28:19.98	329.82	16.10	-46.0	-49.0	22.1	6.08e-01	0	44	0	960495616	63	5148
2026-01-13 12:28:20.55	329.87	16.03	-46.1	-49.1	22.0	6.07e-01	0	44	0	961544192	63	5202
2026-01-13 12:28:22.25	330.04	15.84	-46.1	-49.2	21.9	6.08e-01	0	44	0	964689920	63	5279
2026-01-13 12:28:22.82	330.10	15.78	-46.1	-49.3	21.9	6.09e-01	0	44	0	965738496	63	5289
2026-01-13 12:28:24.59	330.27	15.58	-46.1	-49.2	21.9	6.01e-01	0	44	0	968884224	63	5274
2026-01-13 12:28:25.16	330.32	15.52	-46.1	-49.3	21.9	6.05e-01	0	44	0	969932800	63	5312
2026-01-13 12:28:27.15	330.51	15.30	-46.1	-49.2	22.0	6.04e-01	0	44	0	973602816	63	5231
2026-01-13 12:28:27.72	330.56	15.24	-46.2	-49.2	21.9	6.00e-01	0	44	0	974651392	63	5278
2026-01-13 12:28:29.42	330.72	15.05	-46.2	-49.3	21.9	6.05e-01	0	44	0	977797120	63	5286
2026-01-13 12:28:29.99	330.77	14.99	-46.2	-49.2	21.9	6.01e-01	0	44	0	978845696	63	5277
2026-01-13 12:28:31.70	330.93	14.81	-46.2	-49.3	21.9	6.03e-01	0	44	0	981991424	63	5332
2026-01-13 12:28:32.27	330.98	14.75	-46.2	-49.4	21.8	6.04e-01	0	44	0	983564288	63	5344
2026-01-13 12:28:33.97	331.13	14.57	-46.0	-49.2	21.9	6.01e-01	0	44	0	986710016	63	5274
2026-01-13 12:28:34.54	331.18	14.51	-46.0	-49.3	21.8	6.03e-01	0	44	0	987758592	63	5332
2026-01-13 12:28:36.25	331.33	14.33	-46.0	-49.4	21.7	6.06e-01	0	44	0	990904320	63	5386
2026-01-13 12:28:36.83	331.39	14.26	-45.8	-49.2	21.9	6.04e-01	0	44	0	991952896	63	5259
2026-01-13 12:28:38.39	331.52	14.10	-45.9	-49.4	21.8	6.04e-01	0	44	0	994574336	63	5374
2026-01-13 12:28:39.10	331.58	14.03	-45.9	-49.4	21.8	6.01e-01	0	44	0	996147200	63	5366
2026-01-13 12:28:40.67	331.72	13.86	-46.1	-49.4	21.7	6.04e-01	0	44	0	999292928	63	5397
2026-01-13 12:28:41.31	331.77	13.80	-46.3	-49.6	21.6	6.03e-01	0	44	0	1000341504	63	5472
2026-01-13 12:28:42.73	331.89	13.65	-46.5	-49.7	21.5	6.03e-01	0	44	0	1002962944	63	5539
2026-01-13 12:28:43.69	331.97	13.55	-46.5	-49.6	21.6	6.03e-01	0	44	0	1004535808	63	5467
2026-01-13 12:28:44.69	332.05	13.45	-46.5	-49.6	21.6	6.04e-01	0	44	0	1006632960	63	5501
2026-01-13 12:28:45.68	332.14	13.35	-46.6	-49.6	21.6	6.05e-01	0	44	0	1008205824	63	5481
2026-01-13 12:28:46.68	332.22	13.25	-46.6	-49.7	21.5	6.01e-01	0	44	0	1010302976	63	5533
2026-01-13 12:28:47.67	332.30	13.15	-46.6	-49.7	21.5	6.00e-01	0	44	0	1012400128	63	5535
2026-01-13 12:28:48.67	332.38	13.05	-46.6	-49.8	21.4	6.04e-01	0	44	0	1013972992	63	5623
2026-01-13 12:28:49.67	332.46	12.95	-46.4	-49.7	21.5	6.05e-01	0	44	0	1016070144	63	5569
2026-01-13 12:28:50.66	332.54	12.85	-46.2	-49.6	21.6	6.01e-01	0	43	0	1017643008	63	5477
2026-01-13 12:28:51.65	332.62	12.76	-46.3	-49.8	21.3	6.03e-01	0	44	0	1019740160	63	5625
2026-01-13 12:28:52.65	332.69	12.66	-46.3	-49.8	21.3	6.03e-01	0	44	0	1021313024	63	5645
2026-01-13 12:28:53.75	332.78	12.55	-46.1	-49.6	21.5	6.03e-01	0	44	0	1023410176	63	5519
2026-01-13 12:28:54.63	332.85	12.46	-46.2	-49.7	21.4	6.03e-01	0	44	0	1025507328	63	5545
2026-01-13 12:28:55.95	332.95	12.34	-46.3	-49.7	21.4	6.02e-01	0	44	0	1027604480	63	5582
2026-01-13 12:28:56.65	333.00	12.27	-46.4	-49.8	21.3	6.02e-01	0	43	0	1029177344	63	5602
2026-01-13 12:28:58.17	333.12	12.12	-46.5	-49.8	21.3	6.02e-01	0	44	0	1031798784	63	5644
2026-01-13 12:28:58.88	333.17	12.05	-46.5	-49.9	21.3	6.02e-01	0	44	0	1033371648	63	5658
2026-01-13 12:29:00.22	333.27	11.92	-46.6	-49.8	21.3	6.04e-01	0	44	0	1035993088	63	5625
2026-01-13 12:29:00.93	333.33	11.86	-46.6	-49.8	21.3	6.02e-01	0	44	0	1037041664	63	5630
2026-01-13 12:29:02.21	333.42	11.74	-46.6	-49.8	21.3	6.01e-01	0	44	0	1039663104	63	5646
2026-01-13 12:29:02.92	333.47	11.67	-46.7	-49.9	21.2	6.04e-01	0	44	0	1040711680	63	5694
2026-01-13 12:29:04.20	333.56	11.55	-46.6	-49.8	21.2	6.01e-01	0	44	0	1043333120	64	5337
2026-01-13 12:29:04.91	333.62	11.48	-46.6	-49.9	21.1	6.03e-01	0	44	0	1044381696	64	5379
2026-01-13 12:29:06.19	333.71	11.36	-46.6	-49.8	21.2	6.00e-01	0	44	0	1047003136	64	5337
2026-01-13 12:29:06.90	333.76	11.30	-46.5	-49.9	21.2	6.05e-01	0	44	0	1048051712	64	5341
2026-01-13 12:29:08.18	333.85	11.18	-46.5	-49.9	21.2	6.04e-01	0	44	0	1050673152	64	5347
2026-01-13 12:29:08.92	333.90	11.11	-46.5	-50.0	21.1	6.02e-01	0	44	0	1052246016	64	5407
2026-01-13 12:29:10.20	333.99	10.99	-46.4	-49.9	21.1	6.03e-01	0	44	0	1054343168	64	5392
2026-01-13 12:29:10.91	334.04	10.93	-46.4	-49.9	21.1	6.03e-01	0	44	0	1055916032	64	5352
2026-01-13 12:29:12.19	334.13	10.81	-46.3	-49.8	21.1	6.06e-01	0	44	0	1058013184	64	5331
2026-01-13 12:29:12.99	334.18	10.74	-46.3	-50.0	21.0	6.02e-01	0	44	0	1059586048	64	5411
2026-01-13 12:29:14.13	334.26	10.63	-46.3	-50.0	21.0	6.03e-01	0	44	0	1061683200	64	5405
2026-01-13 12:29:14.98	334.32	10.56	-46.3	-50.0	21.0	6.02e-01	0	44	0	1063256064	64	5448
2026-01-13 12:29:16.12	334.40	10.45	-46.3	-50.1	20.9	6.04e-01	0	44	0	1065353216	64	5470
2026-01-13 12:29:17.26	334.47	10.35	-46.4	-50.1	20.9	6.04e-01	0	44	0	1067974656	64	5517
2026-01-13 12:29:18.11	334.53	10.28	-46.5	-50.3	20.7	6.00e-01	0	44	0	1069547520	64	5638
2026-01-13 12:29:19.25	334.61	10.18	-46.3	-50.2	20.8	6.00e-01	0	44	0	1071120384	64	5549
2026-01-13 12:29:20.34	334.68	10.08	-46.2	-50.1	20.9	6.04e-01	0	44	0	1073217536	64	5466
2026-01-13 12:29:21.19	334.73	10.00	-46.1	-50.2	20.8	6.03e-01	0	44	0	1074790400	64	5555
2026-01-13 12:29:22.32	334.81	9.91	-46.1	-50.4	20.6	6.06e-01	0	44	0	1077411840	64	5669
2026-01-13 12:29:23.18	334.86	9.83	-46.0	-50.3	20.7	6.03e-01	0	44	0	1078984704	64	5608
2026-01-13 12:29:24.32	334.94	9.73	-46.0	-50.3	20.6	6.03e-01	0	44	0	1081081856	64	5606
2026-01-13 12:29:25.17	334.99	9.66	-46.0	-50.3	20.7	6.02e-01	0	44	0	1082654720	63	5949
2026-01-13 12:29:26.31	335.06	9.56	-46.0	-50.4	20.6	6.01e-01	0	44	0	1084751872	63	6054
2026-01-13 12:29:27.16	335.12	9.48	-46.0	-50.4	20.6	6.03e-01	0	44	0	1086324736	63	6038
2026-01-13 12:29:28.30	335.19	9.39	-46.0	-50.5	20.4	6.02e-01	0	44	0	1088421888	63	6123
2026-01-13 12:29:29.15	335.24	9.31	-45.9	-50.5	20.5	6.02e-01	0	44	0	1089994752	63	6071
2026-01-13 12:29:30.29	335.31	9.22	-45.9	-50.4	20.5	6.02e-01	0	44	0	1092091904	63	6058
2026-01-13 12:29:31.14	335.36	9.14	-45.9	-50.5	20.5	6.03e-01	0	44	0	1093664768	63	6065
2026-01-13 12:29:32.49	335.45	9.03	-46.2	-51.1	20.1	6.04e-01	0	44	0	1096286208	63	6532
2026-01-13 12:29:33.20	335.49	8.97	-50.6	-69.8	4.0	7.47e-01	0	44	104	1096810496	71	35362
2026-01-13 12:29:34.69	335.58	8.84	-50.8	-72.3	3.8	7.49e-01	0	44	104	1096810496	73	41980
2026-01-13 12:29:35.40	335.62	8.78	-51.6	-72.6	3.8	7.48e-01	0	44	104	1096810496	74	41200
2026-01-13 12:29:36.76	335.70	8.67	-51.1	-72.7	3.8	7.44e-01	0	44	104	1096810496	73	44296
2026-01-13 12:29:37.47	335.75	8.61	-51.8	-72.7	3.8	7.42e-01	0	44	104	1096810496	74	41932
2026-01-13 12:29:38.79	335.82	8.50	-51.7	-72.8	3.8	7.44e-01	0	44	104	1096810496	74	42339
2026-01-13 12:29:39.50	335.86	8.44	-52.4	-72.9	3.8	7.48e-01	0	44	104	1096810496	75	40237
2026-01-13 12:29:40.84	335.94	8.33	-52.6	-73.0	3.8	7.46e-01	0	44	104	1096810496	76	38355
2026-01-13 12:29:41.55	335.98	8.28	-51.6	-73.0	3.8	7.41e-01	0	44	104	1096810496	74	43029
2026-01-13 12:29:42.83	336.06	8.17	-52.3	-73.0	3.8	7.46e-01	0	44	104	1096810496	76	38653
2026-01-13 12:29:43.54	336.10	8.11	-52.8	-73.1	3.8	7.44e-01	0	44	104	1096810496	76	38723
2026-01-13 12:29:44.82	336.17	8.01	-52.6	-73.1	3.8	7.45e-01	0	44	104	1096810496	76	38716
2026-01-13 12:29:45.56	336.21	7.95	-53.1	-73.1	3.8	7.43e-01	0	44	104	1096810496	76	38795
2026-01-13 12:29:46.84	336.29	7.85	-53.1	-73.1	3.8	7.42e-01	0	44	104	1096810496	76	38751
2026-01-13 12:29:47.55	336.33	7.79	-52.6	-73.1	3.8	7.46e-01	0	44	104	1096810496	77	36690
2026-01-13 12:29:48.82	336.40	7.69	-53.1	-73.1	3.8	7.46e-01	0	44	104	1096810496	76	38841
2026-01-13 12:29:49.53	336.44	7.63	-52.9	-73.1	3.8	7.45e-01	0	44	104	1096810496	77	36753
2026-01-13 12:29:50.81	336.51	7.53	-53.0	-73.1	3.8	7.51e-01	0	44	104	1096810496	77	36649
2026-01-13 12:29:51.54	336.55	7.47	-53.2	-73.1	3.8	7.47e-01	0	44	104	1096810496	77	36597
2026-01-13 12:29:52.81	336.62	7.37	-53.0	-73.1	3.8	7.47e-01	0	44	104	1096810496	77	36620
2026-01-13 12:29:53.52	336.65	7.31	-52.8	-73.1	3.8	7.51e-01	0	44	104	1096810496	77	36526
2026-01-13 12:29:54.80	336.72	7.21	-52.8	-73.0	3.8	7.44e-01	0	44	104	1096810496	77	36489
2026-01-13 12:29:55.51	336.76	7.16	-52.4	-72.8	3.8	7.44e-01	0	44	104	1096810496	76	37710
2026-01-13 12:29:56.79	336.83	7.06	-52.6	-73.0	3.8	7.46e-01	0	44	104	1096810496	76	38573
2026-01-13 12:29:57.51	336.87	7.00	-52.5	-73.0	3.8	7.44e-01	0	44	104	1096810496	76	38557
2026-01-13 12:29:58.79	336.94	6.90	-52.5	-73.0	3.8	7.49e-01	0	44	104	1096810496	76	38501
2026-01-13 12:29:59.50	336.97	6.85	-52.5	-73.0	3.8	7.48e-01	0	44	104	1096810496	76	38460
2026-01-13 12:30:00.78	337.04	6.75	-52.5	-73.0	3.8	7.47e-01	0	44	104	1096810496	76	38512
2026-01-13 12:30:01.50	337.08	6.69	-52.4	-73.0	3.8	7.46e-01	0	44	104	1096810496	76	38346
2026-01-13 12:30:02.78	337.14	6.60	-52.5	-73.0	3.8	7.46e-01	0	44	104	1096810496	76	38378
2026-01-13 12:30:03.50	337.18	6.54	-52.4	-73.0	3.8	7.45e-01	0	44	104	1096810496	76	38348
2026-01-13 12:30:04.78	337.25	6.44	-52.4	-73.0	3.8	7.43e-01	0	44	104	1096810496	76	38246
2026-01-13 12:30:05.49	337.28	6.39	-52.4	-73.0	3.8	7.47e-01	0	44	104	1096810496	76	38290
2026-01-13 12:30:06.78	337.35	6.29	-52.4	-72.9	3.8	7.47e-01	0	44	104	1096810496	76	38238
2026-01-13 12:30:07.49	337.38	6.24	-52.4	-73.0	3.8	7.45e-01	0	44	104	1096810496	76	38305
2026-01-13 12:30:08.77	337.45	6.14	-52.4	-73.0	3.8	7.45e-01	0	44	104	1096810496	76	38267
2026-01-13 12:30:09.48	337.48	6.09	-52.4	-72.9	3.8	7.46e-01	0	44	104	1096810496	76	38182
2026-01-13 12:30:10.76	337.55	5.99	-52.4	-72.9	3.8	7.44e-01	0	44	104	1096810496	76	38138
2026-01-13 12:30:11.47	337.58	5.94	-52.4	-72.9	3.8	7.43e-01	0	44	104	1096810496	76	38029
2026-01-13 12:30:12.74	337.64	5.84	-52.4	-72.9	3.8	7.45e-01	0	44	104	1096810496	76	38012
2026-01-13 12:30:13.47	337.68	5.79	-52.4	-72.9	3.8	7.49e-01	0	44	104	1096810496	76	38031
2026-01-13 12:30:14.75	337.74	5.70	-52.4	-72.9	3.8	7.46e-01	0	44	104	1096810496	76	37885
2026-01-13 12:30:15.47	337.78	5.64	-52.4	-72.9	3.8	7.44e-01	0	44	104	1096810496	76	37875
2026-01-13 12:30:16.75	337.84	5.55	-52.3	-72.8	3.8	7.45e-01	0	44	104	1096810496	76	37796
2026-01-13 12:30:17.46	337.87	5.50	-52.4	-72.9	3.8	7.46e-01	0	44	104	1096810496	76	37938
2026-01-13 12:30:18.73	337.93	5.40	-52.3	-72.9	3.8	7.46e-01	0	44	104	1096810496	76	37890
2026-01-13 12:30:19.44	337.97	5.35	-52.3	-72.8	3.8	7.46e-01	0	44	104	1096810496	76	37788
2026-01-13 12:30:20.72	338.03	5.26	-52.3	-72.9	3.8	7.43e-01	0	44	104	1096810496	76	37855
2026-01-13 12:30:21.43	338.06	5.21	-52.3	-72.8	3.8	7.46e-01	0	44	104	1096810496	76	37792
2026-01-13 12:30:22.71	338.12	5.12	-52.3	-72.8	3.8	7.47e-01	0	44	104	1096810496	76	37725
2026-01-13 12:30:23.42	338.15	5.06	-52.3	-72.8	3.8	7.48e-01	0	44	104	1096810496	76	37740
2026-01-13 12:30:24.69	338.21	4.97	-52.3	-72.8	3.8	7.45e-01	0	44	104	1096810496	76	37652

#Closed at: 2026-01-13 12:30:25
#Recorded file [1096 MB]: D:/Data/31040_260113_151918.dat