passes_logs/2026/01/13/T1/T1__20260113_082434_SUOMI_NPP_rec.log

#Pass ID: 20260113_082434_SUOMI NPP
#Satellite: SUOMI NPP
#Configuration: NPP
#almurnet v.1.7.20251203
#Start time: 2026-01-13 08:24:35

#Version: 2.0.20230620
#Station: T1
#Location: 37.570604 lon 55.790049 lat
#TLE: 1 37849U 11061A   26012.28456845  .00000093  00000+0  65163-4 0  9999
#TLE: 2 37849  98.7807 314.3566 0002508  68.3553 291.7890 14.19524725736322

#Time	Az	El	Level	Level2	SNR	BER	BlckErr	Temp	State	Recorded	gain1	gain2
2026-01-13 08:24:35.80	109.69	5.07	-49.8	-65.0	3.8	1.49e+00	0	39	0	0	71	20398
2026-01-13 08:24:36.79	109.61	5.13	-49.8	-65.0	3.8	1.49e+00	0	39	104	0	71	20357
2026-01-13 08:24:37.78	109.53	5.20	-49.8	-65.0	3.8	1.49e+00	0	39	104	0	71	20368
2026-01-13 08:24:38.78	109.45	5.26	-49.8	-65.0	3.8	1.49e+00	0	39	104	0	71	20445
2026-01-13 08:24:39.77	109.37	5.32	-49.8	-65.0	3.8	1.49e+00	0	39	104	0	71	20434
2026-01-13 08:24:40.76	109.29	5.38	-49.8	-65.0	3.8	1.49e+00	0	39	104	0	71	20343
2026-01-13 08:24:41.76	109.20	5.44	-49.8	-65.0	3.8	1.49e+00	0	39	104	0	71	20322
2026-01-13 08:24:42.75	109.12	5.50	-49.8	-65.0	3.8	1.49e+00	0	39	104	0	71	20434
2026-01-13 08:24:43.74	109.04	5.56	-49.8	-64.9	3.8	1.49e+00	0	39	104	0	71	20273
2026-01-13 08:24:44.74	108.96	5.62	-49.8	-65.0	3.8	1.49e+00	0	39	104	0	71	20395
2026-01-13 08:24:45.73	108.87	5.69	-49.8	-65.0	3.8	1.49e+00	0	39	104	0	71	20359
2026-01-13 08:24:46.73	108.79	5.75	-49.8	-64.9	3.8	1.49e+00	0	39	104	0	71	20296
2026-01-13 08:24:47.72	108.71	5.81	-49.8	-64.9	3.8	1.49e+00	0	39	104	0	71	20225
2026-01-13 08:24:48.71	108.62	5.87	-49.8	-64.9	3.8	1.49e+00	0	39	104	0	71	20137
2026-01-13 08:24:49.71	108.54	5.93	-49.8	-64.9	3.8	1.49e+00	0	39	104	0	71	20132
2026-01-13 08:24:50.70	108.45	6.00	-49.8	-64.9	3.8	1.49e+00	0	39	104	0	71	20080
2026-01-13 08:24:51.69	108.37	6.06	-49.8	-64.8	3.8	1.49e+00	0	39	104	0	71	20008
2026-01-13 08:24:52.69	108.28	6.12	-49.8	-64.8	3.8	1.49e+00	0	39	104	0	71	19996
2026-01-13 08:24:53.68	108.20	6.18	-49.8	-64.9	3.8	1.49e+00	0	39	104	0	71	20102
2026-01-13 08:24:54.67	108.11	6.24	-49.8	-64.9	3.8	1.49e+00	0	39	104	0	71	20177
2026-01-13 08:24:55.67	108.02	6.31	-49.8	-64.9	3.8	1.49e+00	0	39	104	0	71	20167
2026-01-13 08:24:56.66	107.94	6.37	-49.8	-64.8	3.8	1.49e+00	0	39	104	0	71	20044
2026-01-13 08:24:57.65	107.85	6.43	-49.8	-64.8	3.8	1.49e+00	0	39	104	0	71	20023
2026-01-13 08:24:58.65	107.76	6.49	-49.8	-64.8	3.8	1.49e+00	0	40	104	0	71	19923
2026-01-13 08:24:59.64	107.67	6.56	-49.8	-64.7	3.8	1.49e+00	0	40	104	0	71	19820
2026-01-13 08:25:00.63	107.58	6.62	-49.8	-64.7	3.8	1.49e+00	0	39	104	0	71	19815
2026-01-13 08:25:01.63	107.50	6.68	-49.8	-64.7	3.8	1.49e+00	0	40	104	0	71	19619
2026-01-13 08:25:02.62	107.41	6.75	-49.8	-64.7	3.8	1.49e+00	0	40	104	0	71	19653
2026-01-13 08:25:03.61	107.32	6.81	-49.8	-64.7	3.8	1.49e+00	0	40	104	0	71	19695
2026-01-13 08:25:04.61	107.23	6.87	-49.8	-64.7	3.8	1.49e+00	0	40	104	0	71	19765
2026-01-13 08:25:05.60	107.14	6.94	-49.8	-64.8	3.8	1.49e+00	0	40	104	0	71	19849
2026-01-13 08:25:06.59	107.04	7.00	-49.8	-64.8	3.8	1.49e+00	0	40	104	0	71	20043
2026-01-13 08:25:07.59	106.95	7.06	-49.8	-64.9	3.8	1.49e+00	0	40	104	0	71	20202
2026-01-13 08:25:08.58	106.86	7.13	-49.8	-65.0	3.8	1.49e+00	0	40	104	0	71	20405
2026-01-13 08:25:09.57	106.77	7.19	-49.8	-65.0	3.8	1.49e+00	0	40	104	0	71	20422
2026-01-13 08:25:10.57	106.68	7.25	-49.8	-65.0	3.8	1.49e+00	0	40	104	0	71	20388
2026-01-13 08:25:11.56	106.58	7.32	-49.8	-65.0	3.8	1.49e+00	0	40	104	0	71	20424
2026-01-13 08:25:12.56	106.49	7.38	-49.8	-64.9	3.8	1.49e+00	0	40	104	0	71	20272
2026-01-13 08:25:13.55	106.40	7.45	-49.8	-64.8	3.8	1.49e+00	0	40	104	0	71	19913
2026-01-13 08:25:14.54	106.30	7.51	-49.7	-64.4	3.8	1.49e+00	0	40	104	0	71	19115
2026-01-13 08:25:15.54	106.21	7.58	-49.7	-63.9	3.8	1.49e+00	0	40	104	0	71	18014
2026-01-13 08:25:16.53	106.11	7.64	-49.7	-63.4	3.8	1.49e+00	0	40	104	0	71	17064
2026-01-13 08:25:17.52	106.02	7.70	-49.7	-63.2	3.8	1.49e+00	0	40	104	0	71	16525
2026-01-13 08:25:18.52	105.92	7.77	-49.7	-63.1	3.8	1.49e+00	0	40	104	0	71	16480
2026-01-13 08:25:19.51	105.82	7.83	-49.7	-63.6	3.8	1.49e+00	0	40	104	0	71	17421
2026-01-13 08:25:20.51	105.73	7.90	-49.7	-64.5	3.8	1.49e+00	0	40	104	0	71	19344
2026-01-13 08:25:21.50	105.63	7.96	-49.8	-65.0	3.8	1.49e+00	0	40	104	0	71	20354
2026-01-13 08:25:22.49	105.53	8.03	-49.7	-63.9	3.8	1.49e+00	0	40	104	0	71	17972
2026-01-13 08:25:23.49	105.43	8.09	-49.5	-61.1	4.3	1.45e+00	0	40	104	0	71	13008
2026-01-13 08:25:24.48	105.33	8.16	-49.1	-58.2	5.7	6.24e-01	0	40	0	1048576	70	9879
2026-01-13 08:25:25.47	105.24	8.22	-48.7	-56.0	7.6	2.09e-01	0	40	0	3145728	69	8105
2026-01-13 08:25:26.47	105.13	8.29	-48.4	-54.9	8.7	6.43e-02	0	40	0	5242880	68	7549
2026-01-13 08:25:27.46	105.04	8.35	-47.8	-53.6	9.9	1.42e-02	0	40	0	7340032	67	6928
2026-01-13 08:25:28.45	104.93	8.42	-47.7	-53.4	10.0	7.68e-03	0	40	0	8388608	67	6784
2026-01-13 08:25:29.45	104.83	8.48	-47.6	-53.1	10.4	4.94e-03	0	40	0	10485760	67	6556
2026-01-13 08:25:30.44	104.73	8.55	-47.8	-53.6	9.9	6.37e-03	0	40	0	12582912	67	6902
2026-01-13 08:25:31.43	104.63	8.62	-47.9	-53.7	9.8	8.60e-03	0	40	0	14680064	67	7015
2026-01-13 08:25:32.43	104.53	8.68	-48.3	-55.0	8.4	2.35e-02	0	40	0	15728640	67	8169
2026-01-13 08:25:33.42	104.42	8.75	-48.9	-57.2	6.6	9.19e-02	0	40	0	17825792	68	9842
2026-01-13 08:25:34.41	104.32	8.81	-49.3	-59.6	4.9	5.31e-01	0	40	0	19922944	69	12241
2026-01-13 08:25:35.41	104.22	8.88	-49.6	-62.5	3.8	1.36e+00	0	40	104	20971520	69	17103
2026-01-13 08:25:36.40	104.11	8.95	-49.7	-64.3	3.8	1.49e+00	0	40	104	20971520	70	20069
2026-01-13 08:25:37.39	104.01	9.01	-49.8	-65.0	3.8	1.49e+00	0	40	104	20971520	70	21592
2026-01-13 08:25:38.39	103.90	9.08	-49.8	-65.0	3.8	1.49e+00	0	40	104	20971520	70	21527
2026-01-13 08:25:39.56	103.78	9.16	-49.6	-61.5	4.2	1.11e+00	0	40	0	20971520	70	14501
2026-01-13 08:25:40.41	103.69	9.21	-49.8	-64.8	3.8	1.47e+00	0	40	104	20971520	70	21039
2026-01-13 08:25:41.55	103.56	9.29	-49.8	-64.6	3.8	1.49e+00	0	40	104	20971520	70	20673
2026-01-13 08:25:42.40	103.47	9.35	-49.3	-59.1	5.4	3.89e-01	0	40	0	20971520	69	11555
2026-01-13 08:25:43.54	103.35	9.42	-49.7	-63.7	3.8	1.49e+00	0	40	104	20971520	70	18653
2026-01-13 08:25:44.39	103.26	9.48	-48.9	-57.0	6.8	1.22e+00	0	41	0	20971520	69	9136
2026-01-13 08:25:45.52	103.13	9.56	-48.1	-54.1	9.6	3.72e-02	0	41	0	23068672	68	6935
2026-01-13 08:25:46.38	103.04	9.61	-47.8	-53.4	10.1	4.60e-03	0	41	0	24117248	67	6794
2026-01-13 08:25:47.51	102.91	9.69	-47.6	-52.8	10.8	3.06e-03	0	40	0	26214400	67	6323
2026-01-13 08:25:48.37	102.82	9.75	-47.3	-52.3	11.4	1.56e-03	0	40	0	28311552	66	6284
2026-01-13 08:25:49.50	102.69	9.82	-47.3	-52.3	11.4	7.53e-04	0	40	0	30408704	66	6315
2026-01-13 08:25:50.36	102.60	9.88	-47.3	-52.1	11.6	6.13e-04	0	41	0	32505856	66	6196
2026-01-13 08:25:51.49	102.47	9.96	-47.1	-51.8	11.8	4.61e-04	0	40	0	34603008	66	5962
2026-01-13 08:25:52.35	102.37	10.02	-47.3	-52.2	11.5	1.02e-03	0	40	0	35651584	66	6256
2026-01-13 08:25:53.48	102.24	10.09	-47.1	-51.7	11.9	4.46e-04	0	40	0	37748736	66	5923
2026-01-13 08:25:54.33	102.14	10.15	-47.1	-51.7	12.1	2.30e-04	0	40	0	39845888	65	6217
2026-01-13 08:25:55.61	102.00	10.24	-46.6	-50.8	12.9	1.03e-04	0	40	0	41943040	65	5642
2026-01-13 08:25:56.32	101.92	10.29	-46.5	-50.5	13.3	1.98e-05	0	40	0	42991616	65	5432
2026-01-13 08:25:57.60	101.77	10.37	-46.6	-50.8	12.9	2.74e-05	0	40	0	46137344	65	5637
2026-01-13 08:25:58.31	101.68	10.42	-46.6	-50.8	13.0	4.11e-05	0	41	0	47185920	65	5606
2026-01-13 08:25:59.60	101.53	10.51	-46.9	-51.3	12.5	4.27e-05	0	40	0	49283072	65	5942
2026-01-13 08:26:00.32	101.45	10.56	-46.8	-51.2	12.5	7.85e-05	0	40	0	50331648	65	5895
2026-01-13 08:26:01.60	101.30	10.65	-46.7	-50.9	12.9	5.41e-05	0	40	0	53477376	65	5660
2026-01-13 08:26:02.31	101.21	10.70	-46.8	-51.2	12.6	4.42e-05	0	40	0	54525952	65	5858
2026-01-13 08:26:03.61	101.06	10.79	-46.6	-50.7	13.1	4.04e-05	0	40	0	56623104	65	5575
2026-01-13 08:26:04.32	100.97	10.84	-46.6	-50.6	13.1	3.05e-05	0	41	0	58720256	65	5525
2026-01-13 08:26:05.60	100.82	10.92	-46.7	-50.7	13.1	2.74e-05	0	41	0	60817408	65	5577
2026-01-13 08:26:06.56	100.70	10.99	-46.5	-50.5	13.3	2.28e-05	0	41	0	62914560	65	5436
2026-01-13 08:26:07.55	100.58	11.06	-46.6	-50.7	13.2	9.90e-06	0	40	0	63963136	64	5869
2026-01-13 08:26:08.55	100.46	11.13	-46.6	-50.7	13.2	1.83e-05	0	41	0	66060288	64	5872
2026-01-13 08:26:09.54	100.34	11.19	-46.6	-50.6	13.2	1.90e-05	0	40	0	68157440	64	5823
2026-01-13 08:26:10.54	100.22	11.26	-46.5	-50.5	13.3	1.75e-05	0	40	0	70254592	64	5776
2026-01-13 08:26:11.53	100.09	11.33	-46.4	-50.3	13.6	1.75e-05	0	41	0	71303168	64	5593
2026-01-13 08:26:12.53	99.97	11.40	-46.2	-50.0	13.9	2.20e-06	0	41	0	73400320	64	5404
2026-01-13 08:26:13.52	99.84	11.47	-46.0	-49.6	14.2	2.20e-06	0	40	0	75497472	64	5197
2026-01-13 08:26:14.52	99.72	11.54	-46.1	-49.6	14.3	0.00e+00	0	41	0	77594624	63	5487
2026-01-13 08:26:15.51	99.59	11.61	-46.1	-49.7	14.2	0.00e+00	0	41	0	79691776	63	5578
2026-01-13 08:26:16.51	99.47	11.68	-46.4	-50.2	13.7	3.80e-06	0	41	0	80740352	63	5919
2026-01-13 08:26:17.50	99.34	11.75	-46.5	-50.4	13.6	1.22e-05	0	41	0	82837504	63	6016
2026-01-13 08:26:18.49	99.21	11.82	-46.4	-50.2	13.7	6.10e-06	0	40	0	84934656	63	5912
2026-01-13 08:26:19.49	99.08	11.89	-46.2	-49.9	14.1	3.80e-06	0	41	0	87031808	63	5680
2026-01-13 08:26:20.48	98.96	11.95	-46.1	-49.6	14.4	1.50e-06	0	41	0	88080384	63	5480
2026-01-13 08:26:21.48	98.83	12.02	-46.1	-49.7	14.2	1.50e-06	0	41	0	90177536	63	5565
2026-01-13 08:26:22.47	98.70	12.09	-46.3	-50.0	14.0	2.20e-06	0	41	0	92274688	63	5724
2026-01-13 08:26:23.47	98.57	12.16	-46.3	-50.0	13.9	3.00e-06	0	41	0	94371840	63	5744
2026-01-13 08:26:24.46	98.43	12.23	-46.5	-50.4	13.6	4.50e-06	0	40	0	96468992	63	6025
2026-01-13 08:26:25.45	98.30	12.30	-46.5	-50.4	13.6	8.30e-06	0	41	0	97517568	63	6042
2026-01-13 08:26:26.45	98.17	12.37	-46.4	-50.2	13.8	5.30e-06	0	41	0	99614720	63	5867
2026-01-13 08:26:27.44	98.04	12.44	-46.1	-49.8	14.2	1.50e-06	0	41	0	101711872	63	5607
2026-01-13 08:26:28.44	97.90	12.51	-46.2	-49.8	14.1	7.00e-07	0	41	0	103809024	63	5636
2026-01-13 08:26:29.44	97.77	12.58	-46.2	-49.9	14.1	3.80e-06	0	41	0	104857600	63	5694
2026-01-13 08:26:30.43	97.63	12.65	-46.4	-50.3	13.7	3.00e-06	0	41	0	106954752	63	5953
2026-01-13 08:26:31.42	97.50	12.72	-46.6	-50.6	13.2	6.80e-06	0	41	0	109051904	64	5821
2026-01-13 08:26:32.42	97.36	12.79	-46.6	-50.7	13.2	1.90e-05	0	41	0	111149056	64	5903
2026-01-13 08:26:33.41	97.22	12.86	-46.7	-50.9	13.1	2.67e-05	0	41	0	113246208	64	6017
2026-01-13 08:26:34.41	97.09	12.93	-46.5	-50.3	13.5	1.22e-05	0	41	0	114294784	64	5653
2026-01-13 08:26:35.40	96.95	13.00	-46.3	-50.0	13.9	2.20e-06	0	41	0	116391936	64	5442
2026-01-13 08:26:36.40	96.81	13.07	-46.1	-49.6	14.3	0.00e+00	0	41	0	118489088	64	5215
2026-01-13 08:26:37.39	96.67	13.14	-46.1	-49.7	14.2	0.00e+00	0	41	0	120586240	64	5273
2026-01-13 08:26:38.39	96.53	13.21	-46.4	-50.2	13.8	3.00e-06	0	41	0	121634816	64	5568
2026-01-13 08:26:39.38	96.39	13.28	-46.5	-50.4	13.6	5.30e-06	0	41	0	123731968	64	5659
2026-01-13 08:26:40.38	96.25	13.35	-46.4	-50.2	13.7	6.80e-06	0	41	0	125829120	64	5544
2026-01-13 08:26:41.37	96.10	13.42	-46.4	-50.1	13.8	4.50e-06	0	41	0	127926272	64	5521
2026-01-13 08:26:42.37	95.96	13.49	-46.3	-50.1	13.9	8.30e-06	0	41	0	130023424	64	5467
2026-01-13 08:26:43.36	95.82	13.56	-46.2	-49.9	14.0	1.50e-06	0	41	0	131072000	64	5382
2026-01-13 08:26:44.45	95.66	13.64	-46.2	-49.8	14.2	1.50e-06	0	41	0	133169152	64	5299
2026-01-13 08:26:45.33	95.53	13.70	-46.0	-49.5	14.4	0.00e+00	0	41	0	135266304	64	5130
2026-01-13 08:26:46.47	95.36	13.78	-46.1	-49.7	14.2	2.20e-06	0	41	0	137363456	64	5266
2026-01-13 08:26:47.32	95.24	13.84	-46.0	-49.6	14.4	0.00e+00	0	41	0	138412032	64	5173
2026-01-13 08:26:48.46	95.07	13.92	-46.1	-49.6	14.4	1.50e-06	0	41	0	140509184	64	5198
2026-01-13 08:26:49.31	94.94	13.98	-46.1	-49.7	14.3	7.00e-07	0	41	0	142606336	64	5232
2026-01-13 08:26:50.45	94.77	14.06	-46.0	-49.5	14.5	1.50e-06	0	41	0	144703488	63	5459
2026-01-13 08:26:51.30	94.64	14.13	-46.2	-49.8	14.3	1.50e-06	0	41	0	146800640	63	5600
2026-01-13 08:26:52.44	94.47	14.21	-46.3	-50.0	14.1	7.00e-07	0	41	0	148897792	63	5737
2026-01-13 08:26:53.29	94.34	14.27	-46.3	-50.0	14.1	7.00e-07	0	41	0	149946368	63	5751
2026-01-13 08:26:54.43	94.17	14.35	-46.5	-50.4	13.6	3.80e-06	0	41	0	152043520	63	6039
2026-01-13 08:26:55.28	94.04	14.41	-46.5	-50.3	13.8	3.00e-06	0	41	0	154140672	63	5967
2026-01-13 08:26:56.42	93.86	14.49	-46.5	-50.4	13.6	5.30e-06	0	41	0	156237824	64	5668
2026-01-13 08:26:57.27	93.73	14.55	-46.6	-50.6	13.4	1.06e-05	0	41	0	157286400	64	5802
2026-01-13 08:26:58.41	93.55	14.63	-46.7	-50.7	13.3	2.51e-05	0	41	0	159383552	64	5916
2026-01-13 08:26:59.26	93.42	14.69	-46.7	-50.6	13.3	1.67e-05	0	41	0	161480704	64	5849
2026-01-13 08:27:00.40	93.24	14.77	-46.4	-50.2	13.7	1.06e-05	0	41	0	163577856	64	5581
2026-01-13 08:27:01.25	93.11	14.83	-46.3	-50.1	13.9	9.10e-06	0	41	0	164626432	64	5476
2026-01-13 08:27:02.51	92.91	14.92	-46.2	-49.7	14.2	0.00e+00	0	41	0	167772160	64	5273
2026-01-13 08:27:03.27	92.79	14.97	-46.2	-49.8	14.2	7.00e-07	0	41	0	168820736	64	5311
2026-01-13 08:27:04.55	92.58	15.06	-46.3	-50.0	14.0	4.50e-06	0	41	0	170917888	64	5414
2026-01-13 08:27:05.26	92.47	15.11	-46.4	-50.2	13.8	3.80e-06	0	41	0	171966464	64	5557
2026-01-13 08:27:06.54	92.26	15.20	-46.5	-50.4	13.6	9.90e-06	0	41	0	175112192	64	5703
2026-01-13 08:27:07.27	92.14	15.26	-46.4	-50.3	13.7	2.20e-06	0	41	0	176160768	64	5643
2026-01-13 08:27:08.80	91.89	15.36	-46.3	-50.0	14.0	8.30e-06	0	41	0	179306496	64	5452
2026-01-13 08:27:09.51	91.78	15.41	-46.1	-49.8	14.2	7.00e-07	0	41	0	180355072	64	5302
2026-01-13 08:27:10.79	91.57	15.50	-46.2	-49.9	14.1	3.00e-06	0	41	0	182452224	64	5402
2026-01-13 08:27:11.50	91.45	15.55	-46.3	-50.1	14.0	6.10e-06	0	41	0	184549376	64	5480
2026-01-13 08:27:12.78	91.24	15.64	-46.3	-50.1	13.9	2.20e-06	0	41	0	186646528	64	5510
2026-01-13 08:27:13.49	91.12	15.70	-46.4	-50.3	13.8	2.20e-06	0	41	0	187695104	64	5596
2026-01-13 08:27:14.77	90.90	15.79	-46.2	-49.9	14.1	2.20e-06	0	41	0	189792256	64	5358
2026-01-13 08:27:15.49	90.78	15.84	-46.1	-49.8	14.2	7.00e-07	0	41	0	191889408	64	5306
2026-01-13 08:27:16.77	90.56	15.93	-46.0	-49.6	14.4	1.50e-06	0	41	0	193986560	64	5184
2026-01-13 08:27:17.56	90.43	15.98	-45.9	-49.4	14.7	0.00e+00	0	41	0	195035136	63	5356
2026-01-13 08:27:18.76	90.22	16.07	-46.1	-49.7	14.4	7.00e-07	0	41	0	198180864	63	5559
2026-01-13 08:27:19.62	90.07	16.13	-46.0	-49.5	14.6	0.00e+00	0	41	0	199229440	63	5407
2026-01-13 08:27:20.75	89.88	16.21	-46.3	-50.0	14.1	1.50e-06	0	41	0	201326592	63	5775
2026-01-13 08:27:21.79	89.70	16.28	-46.4	-50.2	13.9	3.00e-06	0	41	0	203423744	63	5913
2026-01-13 08:27:22.91	89.50	16.36	-46.3	-50.1	14.0	1.50e-06	0	41	0	205520896	63	5800
2026-01-13 08:27:23.84	89.34	16.42	-46.2	-49.9	14.1	2.20e-06	0	41	0	207618048	63	5700
2026-01-13 08:27:24.84	89.16	16.49	-46.2	-50.0	14.0	3.80e-06	0	41	0	208666624	63	5786
2026-01-13 08:27:25.83	88.99	16.56	-46.4	-50.3	13.8	2.20e-06	0	41	0	210763776	63	5952
2026-01-13 08:27:26.83	88.81	16.63	-46.5	-50.5	13.7	6.10e-06	0	41	0	212860928	63	6083
2026-01-13 08:27:27.82	88.63	16.70	-46.6	-50.5	13.6	5.30e-06	0	41	0	214958080	63	6130
2026-01-13 08:27:28.82	88.45	16.77	-46.5	-50.3	13.8	9.10e-06	0	41	0	217055232	63	5978
2026-01-13 08:27:29.81	88.27	16.84	-46.2	-50.0	14.1	1.50e-06	0	41	0	218103808	63	5747
2026-01-13 08:27:30.81	88.09	16.91	-46.1	-49.8	14.4	0.00e+00	0	41	0	220200960	63	5598
2026-01-13 08:27:31.80	87.91	16.98	-46.0	-49.6	14.6	7.00e-07	0	41	0	222298112	63	5469
2026-01-13 08:27:32.80	87.73	17.04	-45.9	-49.5	14.6	0.00e+00	0	41	0	224395264	63	5441
2026-01-13 08:27:33.79	87.55	17.11	-45.8	-49.4	14.8	0.00e+00	0	41	0	225443840	63	5357
2026-01-13 08:27:34.78	87.36	17.18	-45.8	-49.3	14.8	0.00e+00	0	41	0	227540992	63	5306
2026-01-13 08:27:35.78	87.18	17.25	-45.8	-49.5	14.7	0.00e+00	0	41	0	229638144	63	5413
2026-01-13 08:27:36.78	86.99	17.32	-45.7	-49.3	14.8	0.00e+00	0	41	0	231735296	63	5308
2026-01-13 08:27:37.77	86.81	17.39	-45.7	-49.3	14.8	0.00e+00	0	41	0	233832448	63	5319
2026-01-13 08:27:38.77	86.62	17.45	-45.5	-49.0	15.1	0.00e+00	0	41	0	234881024	63	5127
2026-01-13 08:27:39.76	86.43	17.52	-45.5	-49.0	15.2	0.00e+00	0	41	0	236978176	62	5409
2026-01-13 08:27:40.76	86.24	17.59	-45.4	-48.8	15.2	0.00e+00	0	41	0	239075328	62	5329
2026-01-13 08:27:41.75	86.05	17.66	-45.5	-48.9	15.2	7.00e-07	0	41	0	241172480	62	5387
2026-01-13 08:27:42.75	85.86	17.73	-45.5	-49.0	15.2	7.00e-07	0	41	0	242221056	62	5412
2026-01-13 08:27:43.74	85.67	17.79	-45.4	-48.7	15.3	0.00e+00	0	41	0	244318208	62	5272
2026-01-13 08:27:45.01	85.43	17.88	-45.3	-48.5	15.5	0.00e+00	0	41	0	247463936	62	5139
2026-01-13 08:27:45.81	85.27	17.93	-45.4	-48.6	15.5	0.00e+00	0	41	0	248512512	62	5198
2026-01-13 08:27:46.95	85.05	18.01	-45.2	-48.4	15.6	0.00e+00	0	41	0	250609664	62	5052
2026-01-13 08:27:47.80	84.88	18.07	-45.3	-48.6	15.5	0.00e+00	0	41	0	251658240	62	5172
2026-01-13 08:27:48.94	84.66	18.14	-45.3	-48.7	15.4	0.00e+00	0	41	0	254803968	62	5268
2026-01-13 08:27:49.79	84.49	18.20	-45.3	-48.8	15.3	0.00e+00	0	41	0	255852544	62	5315
2026-01-13 08:27:50.93	84.26	18.28	-45.3	-48.6	15.5	7.00e-07	0	41	0	257949696	62	5205
2026-01-13 08:27:51.78	84.09	18.33	-45.2	-48.5	15.7	0.00e+00	0	41	0	260046848	62	5109
2026-01-13 08:27:52.92	83.86	18.41	-45.2	-48.4	15.7	0.00e+00	0	41	0	262144000	62	5077
2026-01-13 08:27:53.77	83.69	18.46	-45.1	-48.3	15.8	0.00e+00	0	41	0	263192576	62	5007
2026-01-13 08:27:55.00	83.45	18.54	-45.0	-48.1	16.0	0.00e+00	0	41	0	265289728	62	4905
2026-01-13 08:27:55.86	83.27	18.60	-44.9	-47.9	16.2	0.00e+00	0	41	0	267386880	61	5090
2026-01-13 08:27:56.99	83.04	18.67	-44.9	-47.9	16.1	0.00e+00	0	41	0	269484032	61	5080
2026-01-13 08:27:57.84	82.87	18.73	-44.8	-47.8	16.2	0.00e+00	0	41	0	270532608	61	5038
2026-01-13 08:27:58.98	82.63	18.80	-44.7	-47.7	16.3	0.00e+00	0	41	0	273678336	61	4967
2026-01-13 08:27:59.83	82.46	18.86	-44.8	-47.7	16.3	0.00e+00	0	41	0	274726912	61	4983
2026-01-13 08:28:00.97	82.22	18.93	-44.6	-47.6	16.5	0.00e+00	0	41	0	276824064	61	4879
2026-01-13 08:28:01.82	82.04	18.99	-44.5	-47.3	16.7	0.00e+00	0	41	0	278921216	60	5034
2026-01-13 08:28:02.96	81.80	19.06	-44.6	-47.6	16.5	0.00e+00	0	41	0	281018368	60	5168
2026-01-13 08:28:03.81	81.63	19.12	-44.7	-47.6	16.5	0.00e+00	0	41	0	282066944	60	5195
2026-01-13 08:28:04.95	81.38	19.19	-44.6	-47.5	16.6	0.00e+00	0	41	0	284164096	60	5142
2026-01-13 08:28:05.80	81.20	19.24	-44.6	-47.6	16.5	0.00e+00	0	41	0	286261248	60	5166
2026-01-13 08:28:06.94	80.96	19.31	-44.8	-47.7	16.4	0.00e+00	0	41	0	288358400	60	5262
2026-01-13 08:28:07.79	80.78	19.37	-45.0	-48.0	16.1	0.00e+00	0	41	0	289406976	60	5447
2026-01-13 08:28:08.93	80.54	19.44	-45.1	-48.2	15.9	0.00e+00	0	41	0	291504128	60	5574
2026-01-13 08:28:09.81	80.35	19.49	-45.0	-48.0	16.1	0.00e+00	0	41	0	293601280	60	5422
2026-01-13 08:28:11.14	80.06	19.58	-44.9	-47.9	16.2	0.00e+00	0	41	0	295698432	60	5343
2026-01-13 08:28:11.85	79.90	19.62	-44.8	-47.7	16.4	0.00e+00	0	41	0	296747008	60	5277
2026-01-13 08:28:13.13	79.62	19.70	-44.8	-47.7	16.4	0.00e+00	0	41	0	299892736	60	5258
2026-01-13 08:28:13.85	79.47	19.74	-44.7	-47.7	16.4	0.00e+00	0	41	0	300941312	60	5235
2026-01-13 08:28:15.13	79.19	19.82	-44.9	-47.9	16.2	0.00e+00	0	41	0	303038464	60	5361
2026-01-13 08:28:15.87	79.02	19.87	-45.0	-48.0	16.1	0.00e+00	0	41	0	305135616	60	5458
2026-01-13 08:28:17.16	78.74	19.94	-44.8	-47.7	16.4	0.00e+00	0	41	0	307232768	60	5269
2026-01-13 08:28:17.90	78.57	19.99	-44.6	-47.4	16.7	0.00e+00	0	41	0	308281344	60	5072
2026-01-13 08:28:19.17	78.29	20.06	-44.6	-47.7	16.4	0.00e+00	0	41	0	311427072	60	5234
2026-01-13 08:28:19.90	78.12	20.11	-44.6	-47.6	16.4	0.00e+00	0	41	0	312475648	60	5212
2026-01-13 08:28:21.18	77.84	20.18	-44.4	-47.3	16.7	0.00e+00	0	41	0	314572800	60	5030
2026-01-13 08:28:21.89	77.68	20.23	-44.4	-47.4	16.6	0.00e+00	0	41	0	315621376	60	5053
2026-01-13 08:28:23.17	77.38	20.30	-44.2	-47.0	16.9	0.00e+00	0	41	0	318767104	60	4866
2026-01-13 08:28:24.10	77.17	20.35	-44.0	-46.8	17.2	0.00e+00	0	41	0	319815680	60	4709
2026-01-13 08:28:25.10	76.94	20.41	-44.1	-46.9	17.1	0.00e+00	0	41	0	321912832	60	4788
2026-01-13 08:28:26.09	76.72	20.47	-44.1	-46.9	17.0	0.00e+00	0	41	0	324009984	60	4813
2026-01-13 08:28:27.09	76.49	20.53	-44.0	-46.9	17.1	0.00e+00	0	41	0	326107136	60	4761
2026-01-13 08:28:28.08	76.26	20.58	-44.0	-46.7	17.2	0.00e+00	0	41	0	328204288	59	4974
2026-01-13 08:28:29.07	76.03	20.64	-44.0	-46.8	17.2	0.00e+00	0	41	0	329252864	59	4984
2026-01-13 08:28:30.07	75.79	20.69	-44.1	-46.8	17.1	0.00e+00	0	41	0	331350016	59	5016
2026-01-13 08:28:31.07	75.56	20.75	-44.2	-46.9	17.0	0.00e+00	0	41	0	333447168	59	5085
2026-01-13 08:28:32.06	75.33	20.80	-44.2	-47.0	17.0	0.00e+00	0	41	0	335544320	59	5110
2026-01-13 08:28:33.05	75.09	20.86	-44.0	-46.7	17.2	0.00e+00	0	41	0	336592896	59	4980
2026-01-13 08:28:34.05	74.86	20.91	-44.3	-47.1	16.9	0.00e+00	0	41	0	338690048	59	5195
2026-01-13 08:28:35.04	74.62	20.97	-44.3	-47.2	16.8	0.00e+00	0	41	0	340787200	59	5234
2026-01-13 08:28:36.04	74.39	21.02	-44.4	-47.3	16.7	0.00e+00	0	41	0	342884352	59	5298
2026-01-13 08:28:37.03	74.15	21.07	-44.5	-47.3	16.6	0.00e+00	0	41	0	344981504	59	5331
2026-01-13 08:28:38.03	73.91	21.13	-44.6	-47.5	16.6	0.00e+00	0	41	0	346030080	59	5442
2026-01-13 08:28:39.02	73.67	21.18	-44.6	-47.6	16.5	0.00e+00	0	41	0	348127232	60	5173
2026-01-13 08:28:40.02	73.43	21.23	-44.7	-47.6	16.5	0.00e+00	0	41	0	350224384	60	5193
2026-01-13 08:28:41.01	73.19	21.28	-44.6	-47.5	16.5	0.00e+00	0	41	0	352321536	60	5143
2026-01-13 08:28:42.01	72.95	21.33	-44.4	-47.3	16.8	0.00e+00	0	41	0	353370112	60	5011
2026-01-13 08:28:43.00	72.71	21.38	-44.3	-47.1	16.8	0.00e+00	0	41	0	355467264	60	4912
2026-01-13 08:28:44.00	72.46	21.43	-44.4	-47.3	16.8	0.00e+00	0	41	0	357564416	60	5015
2026-01-13 08:28:44.99	72.22	21.48	-44.5	-47.4	16.5	0.00e+00	0	41	0	359661568	60	5099
2026-01-13 08:28:45.99	71.97	21.53	-44.4	-47.2	16.8	0.00e+00	0	41	0	361758720	60	4969
2026-01-13 08:28:46.98	71.73	21.58	-44.4	-47.3	16.8	0.00e+00	0	41	0	362807296	60	5006
2026-01-13 08:28:47.98	71.48	21.63	-44.4	-47.3	16.8	0.00e+00	0	41	0	364904448	60	4991
2026-01-13 08:28:48.98	71.23	21.68	-44.2	-47.0	17.0	0.00e+00	0	41	0	367001600	60	4846
2026-01-13 08:28:49.97	70.99	21.72	-44.3	-47.1	16.9	0.00e+00	0	41	0	369098752	60	4891
2026-01-13 08:28:50.97	70.74	21.77	-44.2	-47.0	16.9	0.00e+00	0	41	0	371195904	60	4850
2026-01-13 08:28:51.96	70.49	21.81	-44.0	-46.6	17.3	0.00e+00	0	41	0	372244480	59	4907
2026-01-13 08:28:52.95	70.24	21.86	-43.8	-46.5	17.5	0.00e+00	0	41	0	374341632	59	4816
2026-01-13 08:28:53.95	69.99	21.91	-44.2	-47.0	17.0	0.00e+00	0	41	0	376438784	59	5119
2026-01-13 08:28:54.94	69.74	21.95	-44.2	-47.0	16.9	0.00e+00	0	41	0	378535936	59	5119
2026-01-13 08:28:55.94	69.48	21.99	-44.2	-46.9	17.0	0.00e+00	0	41	0	379584512	59	5083
2026-01-13 08:28:56.93	69.23	22.04	-44.0	-46.8	16.8	5.30e-06	0	41	0	381681664	59	4989
2026-01-13 08:28:57.93	68.98	22.08	-43.8	-46.6	16.7	3.93e-03	0	41	0	383778816	59	4881
2026-01-13 08:28:58.94	68.72	22.12	-44.0	-46.8	16.6	6.83e-03	0	41	0	385875968	59	4995
2026-01-13 08:28:59.97	68.45	22.17	-44.2	-47.0	16.6	5.50e-04	0	41	0	387973120	59	5146
2026-01-13 08:29:00.96	68.20	22.21	-44.6	-47.6	16.2	1.61e-04	0	41	0	389021696	59	5494
2026-01-13 08:29:01.95	67.94	22.25	-44.6	-47.4	16.5	6.10e-06	0	41	0	391118848	59	5380
2026-01-13 08:29:02.95	67.68	22.29	-44.9	-47.8	16.3	0.00e+00	0	41	0	393216000	60	5333
2026-01-13 08:29:03.94	67.43	22.33	-45.1	-48.2	16.0	0.00e+00	0	41	0	395313152	61	5226
2026-01-13 08:29:04.94	67.17	22.37	-45.2	-48.4	15.7	0.00e+00	0	41	0	396361728	61	5351
2026-01-13 08:29:05.93	66.91	22.41	-45.3	-48.6	15.5	0.00e+00	0	41	0	398458880	61	5483
2026-01-13 08:29:06.93	66.65	22.45	-45.4	-48.7	15.4	7.00e-07	0	41	0	400556032	61	5570
2026-01-13 08:29:07.92	66.39	22.48	-45.7	-49.2	15.0	0.00e+00	0	41	0	402653184	62	5538
2026-01-13 08:29:08.92	66.13	22.52	-45.8	-49.3	14.8	0.00e+00	0	41	0	404750336	62	5634
2026-01-13 08:29:09.91	65.87	22.56	-45.9	-49.5	14.7	7.00e-07	0	41	0	405798912	62	5749
2026-01-13 08:29:10.91	65.60	22.59	-45.9	-49.3	14.9	7.00e-07	0	41	0	407896064	62	5651
2026-01-13 08:29:11.90	65.34	22.63	-45.8	-49.2	15.0	0.00e+00	0	41	0	409993216	62	5556
2026-01-13 08:29:12.89	65.08	22.66	-45.6	-49.0	15.1	0.00e+00	0	41	0	412090368	62	5413
2026-01-13 08:29:13.89	64.81	22.70	-45.5	-49.0	14.9	4.97e-03	0	41	0	413138944	62	5455
2026-01-13 08:29:14.88	64.55	22.73	-45.4	-48.9	15.0	5.71e-03	0	41	0	415236096	62	5368
2026-01-13 08:29:15.88	64.28	22.76	-45.2	-48.6	15.3	6.62e-03	0	41	0	417333248	62	5183
2026-01-13 08:29:16.95	64.00	22.80	-45.3	-48.6	15.3	6.59e-03	0	41	0	419430400	62	5180
2026-01-13 08:29:17.84	63.76	22.83	-45.3	-48.5	15.5	1.10e-03	0	41	0	421527552	62	5119
2026-01-13 08:29:18.97	63.46	22.86	-45.4	-48.7	15.4	5.30e-06	0	41	0	423624704	62	5231
2026-01-13 08:29:19.83	63.23	22.89	-45.2	-48.5	15.6	0.00e+00	0	41	0	424673280	62	5119
2026-01-13 08:29:20.96	62.92	22.92	-45.2	-48.5	15.6	7.00e-07	0	41	0	426770432	62	5123
2026-01-13 08:29:21.81	62.69	22.95	-45.2	-48.5	15.6	1.44e-05	0	41	0	428867584	62	5113
2026-01-13 08:29:22.95	62.38	22.98	-45.3	-48.6	15.4	2.20e-06	0	41	0	430964736	62	5217
2026-01-13 08:29:23.81	62.15	23.00	-45.3	-48.6	15.5	0.00e+00	0	41	0	432013312	62	5210
2026-01-13 08:29:24.94	61.85	23.03	-45.4	-48.7	15.4	0.00e+00	0	41	0	434110464	62	5258
2026-01-13 08:29:25.80	61.61	23.06	-45.6	-49.0	15.1	0.00e+00	0	41	0	436207616	62	5415
2026-01-13 08:29:26.93	61.30	23.09	-45.6	-49.0	15.1	0.00e+00	0	41	0	438304768	62	5430
2026-01-13 08:29:27.79	61.07	23.11	-45.5	-48.9	15.2	0.00e+00	0	41	0	439353344	62	5352
2026-01-13 08:29:28.92	60.76	23.13	-45.5	-48.8	15.3	0.00e+00	0	41	0	441450496	62	5323
2026-01-13 08:29:29.77	60.53	23.15	-45.4	-48.6	15.5	0.00e+00	0	41	0	443547648	62	5218
2026-01-13 08:29:31.01	60.19	23.18	-45.6	-49.0	15.1	0.00e+00	0	41	0	445644800	62	5427
2026-01-13 08:29:31.86	59.96	23.20	-45.8	-49.3	14.8	0.00e+00	0	41	0	447741952	62	5619
2026-01-13 08:29:33.00	59.64	23.23	-45.9	-49.5	14.6	0.00e+00	0	41	0	449839104	62	5783
2026-01-13 08:29:33.85	59.41	23.25	-45.9	-49.5	14.6	0.00e+00	0	41	0	450887680	62	5741
2026-01-13 08:29:34.99	59.10	23.27	-45.9	-49.5	14.7	7.00e-07	0	41	0	452984832	62	5723
2026-01-13 08:29:35.84	58.86	23.29	-45.8	-49.4	14.7	0.00e+00	0	41	0	455081984	62	5715
2026-01-13 08:29:36.98	58.55	23.31	-45.6	-49.0	15.1	0.00e+00	0	41	0	457179136	62	5453
2026-01-13 08:29:37.83	58.31	23.32	-45.6	-49.1	15.0	0.00e+00	0	41	0	458227712	62	5485
2026-01-13 08:29:38.97	58.00	23.34	-45.8	-49.3	14.8	0.00e+00	0	41	0	460324864	62	5653
2026-01-13 08:29:39.82	57.76	23.36	-45.9	-49.5	14.7	0.00e+00	0	41	0	462422016	62	5728
2026-01-13 08:29:40.95	57.45	23.37	-46.1	-49.8	14.4	1.50e-06	0	41	0	464519168	62	5942
2026-01-13 08:29:41.80	57.21	23.39	-46.3	-50.2	13.9	4.50e-06	0	41	0	465567744	63	5913
2026-01-13 08:29:42.94	56.89	23.40	-46.4	-50.3	13.8	6.10e-06	0	41	0	467664896	63	5990
2026-01-13 08:29:43.79	56.66	23.42	-46.4	-50.3	13.9	6.80e-06	0	41	0	469762048	63	5941
2026-01-13 08:29:44.93	56.34	23.43	-46.5	-50.5	13.6	1.44e-05	0	41	0	471859200	63	6128
2026-01-13 08:29:45.78	56.10	23.44	-46.4	-50.5	13.7	1.50e-06	0	41	0	472907776	63	6078
2026-01-13 08:29:47.01	55.76	23.46	-46.3	-50.2	14.0	2.20e-06	0	41	0	476053504	63	5869
2026-01-13 08:29:47.86	55.52	23.47	-46.2	-50.0	14.1	3.80e-06	0	41	0	477102080	63	5763
2026-01-13 08:29:49.00	55.21	23.48	-46.0	-49.7	14.4	7.00e-07	0	41	0	479199232	63	5584
2026-01-13 08:29:49.85	54.97	23.49	-45.6	-49.1	15.0	0.00e+00	0	41	0	481296384	63	5180
2026-01-13 08:29:51.10	54.62	23.50	-45.2	-48.5	15.7	0.00e+00	0	41	0	483393536	62	5101
2026-01-13 08:29:51.95	54.38	23.50	-45.0	-48.1	15.9	0.00e+00	0	41	0	485490688	62	4925
2026-01-13 08:29:53.09	54.06	23.51	-44.9	-48.1	15.9	0.00e+00	0	41	0	487587840	61	5196
2026-01-13 08:29:53.94	53.82	23.52	-45.0	-48.2	15.8	0.00e+00	0	41	0	488636416	61	5273
2026-01-13 08:29:55.08	53.51	23.53	-45.2	-48.5	15.6	0.00e+00	0	41	0	490733568	61	5452
2026-01-13 08:29:56.01	53.25	23.53	-45.3	-48.7	15.4	0.00e+00	0	41	0	492830720	61	5538
2026-01-13 08:29:57.00	52.97	23.53	-45.3	-48.7	15.4	0.00e+00	0	41	0	494927872	61	5530
2026-01-13 08:29:58.00	52.69	23.54	-45.4	-48.8	15.2	0.00e+00	0	41	0	495976448	61	5632
2026-01-13 08:29:59.00	52.41	23.54	-45.3	-48.6	15.5	0.00e+00	0	41	0	498073600	61	5499
2026-01-13 08:29:59.99	52.13	23.54	-45.1	-48.4	15.7	0.00e+00	0	41	0	500170752	61	5371
2026-01-13 08:30:00.98	51.85	23.55	-45.2	-48.4	15.7	0.00e+00	0	41	0	502267904	61	5381
2026-01-13 08:30:01.98	51.57	23.55	-45.3	-48.6	15.5	0.00e+00	0	41	0	503316480	61	5522
2026-01-13 08:30:02.98	51.29	23.55	-45.2	-48.5	15.6	0.00e+00	0	41	0	505413632	61	5436
2026-01-13 08:30:03.97	51.01	23.55	-45.2	-48.6	15.5	0.00e+00	0	41	0	507510784	61	5471
2026-01-13 08:30:04.97	50.73	23.54	-45.0	-48.2	15.8	0.00e+00	0	41	0	509607936	61	5268
2026-01-13 08:30:05.96	50.46	23.54	-45.1	-48.3	15.7	0.00e+00	0	41	0	511705088	61	5332
2026-01-13 08:30:06.96	50.18	23.54	-45.1	-48.3	15.7	0.00e+00	0	41	0	512753664	61	5318
2026-01-13 08:30:07.95	49.90	23.54	-45.2	-48.5	15.6	0.00e+00	0	41	0	514850816	61	5421
2026-01-13 08:30:08.95	49.62	23.53	-45.0	-48.2	15.9	0.00e+00	0	41	0	516947968	61	5255
2026-01-13 08:30:09.94	49.34	23.53	-45.0	-48.1	15.9	0.00e+00	0	41	0	519045120	61	5214
2026-01-13 08:30:10.94	49.06	23.52	-44.8	-47.9	16.2	0.00e+00	0	41	0	520093696	61	5042
2026-01-13 08:30:11.93	48.78	23.51	-44.7	-47.7	16.3	0.00e+00	0	41	0	522190848	61	4981
2026-01-13 08:30:12.92	48.51	23.51	-44.9	-48.0	16.1	0.00e+00	0	41	0	524288000	61	5114
2026-01-13 08:30:13.92	48.23	23.50	-45.0	-48.1	16.0	0.00e+00	0	41	0	526385152	61	5216
2026-01-13 08:30:14.92	47.95	23.49	-45.1	-48.3	15.8	0.00e+00	0	41	0	528482304	61	5332
2026-01-13 08:30:15.91	47.67	23.48	-44.9	-48.1	16.0	0.00e+00	0	41	0	529530880	61	5185
2026-01-13 08:30:16.91	47.39	23.47	-44.8	-47.8	16.3	0.00e+00	0	41	0	531628032	61	5033
2026-01-13 08:30:17.90	47.12	23.46	-44.6	-47.5	16.6	0.00e+00	0	41	0	533725184	61	4835
2026-01-13 08:30:18.90	46.84	23.45	-44.5	-47.4	16.6	0.00e+00	0	41	0	535822336	61	4806
2026-01-13 08:30:19.89	46.56	23.44	-44.3	-47.1	17.0	0.00e+00	0	41	0	536870912	60	4908
2026-01-13 08:30:20.89	46.28	23.42	-44.4	-47.3	16.7	0.00e+00	0	41	0	538968064	60	5028
2026-01-13 08:30:21.88	46.01	23.41	-44.1	-46.9	17.1	0.00e+00	0	41	0	541065216	60	4795
2026-01-13 08:30:22.88	45.73	23.39	-44.1	-46.8	17.2	0.00e+00	0	41	0	543162368	60	4742
2026-01-13 08:30:23.87	45.46	23.38	-43.8	-46.5	17.5	0.00e+00	0	41	0	545259520	59	4825
2026-01-13 08:30:24.87	45.18	23.36	-43.6	-46.1	17.8	0.00e+00	0	41	0	546308096	59	4648
2026-01-13 08:30:25.86	44.91	23.35	-43.5	-46.1	17.9	0.00e+00	0	41	0	548405248	59	4601
2026-01-13 08:30:26.86	44.63	23.33	-43.5	-46.0	17.9	0.00e+00	0	41	0	550502400	58	4845
2026-01-13 08:30:27.85	44.36	23.31	-43.6	-46.1	17.9	0.00e+00	0	41	0	552599552	58	4880
2026-01-13 08:30:28.85	44.08	23.29	-43.8	-46.4	17.5	0.00e+00	0	41	0	553648128	58	5057
2026-01-13 08:30:29.84	43.81	23.27	-43.7	-46.2	17.8	0.00e+00	0	41	0	555745280	58	4959
2026-01-13 08:30:30.84	43.53	23.25	-43.8	-46.3	17.6	0.00e+00	0	41	0	557842432	58	5033
2026-01-13 08:30:31.83	43.26	23.23	-43.9	-46.6	17.4	0.00e+00	0	41	0	559939584	58	5178
2026-01-13 08:30:32.83	42.99	23.21	-44.1	-46.7	17.3	0.00e+00	0	41	0	562036736	58	5273
2026-01-13 08:30:33.82	42.72	23.19	-44.2	-46.8	17.2	0.00e+00	0	41	0	563085312	58	5330
2026-01-13 08:30:34.82	42.44	23.17	-44.2	-46.9	17.1	0.00e+00	0	41	0	565182464	59	5078
2026-01-13 08:30:35.81	42.17	23.14	-44.4	-47.1	16.9	0.00e+00	0	41	0	567279616	59	5177
2026-01-13 08:30:36.81	41.90	23.12	-44.3	-47.0	17.0	0.00e+00	0	41	0	569376768	59	5116
2026-01-13 08:30:37.80	41.63	23.09	-44.2	-46.9	17.1	0.00e+00	0	41	0	571473920	59	5082
2026-01-13 08:30:38.80	41.36	23.07	-44.2	-46.9	17.2	0.00e+00	0	41	0	572522496	59	5054
2026-01-13 08:30:39.79	41.09	23.04	-44.1	-46.8	17.2	0.00e+00	0	41	0	574619648	59	4986
2026-01-13 08:30:40.79	40.82	23.02	-44.1	-46.8	17.3	0.00e+00	0	41	0	576716800	59	4987
2026-01-13 08:30:41.78	40.55	22.99	-44.3	-47.0	17.0	0.00e+00	0	41	0	578813952	59	5134
2026-01-13 08:30:42.78	40.28	22.96	-44.6	-47.5	16.6	0.00e+00	0	41	0	579862528	59	5425
2026-01-13 08:30:43.78	40.01	22.93	-44.8	-47.8	16.3	0.00e+00	0	41	0	581959680	60	5299
2026-01-13 08:30:44.77	39.74	22.90	-44.9	-48.0	16.2	0.00e+00	0	41	0	584056832	60	5409
2026-01-13 08:30:45.77	39.48	22.87	-45.0	-48.0	16.1	0.00e+00	0	41	0	586153984	60	5455
2026-01-13 08:30:46.76	39.21	22.84	-44.7	-47.7	16.4	0.00e+00	0	41	0	588251136	60	5225
2026-01-13 08:30:47.76	38.94	22.81	-44.6	-47.5	16.6	0.00e+00	0	41	0	589299712	60	5105
2026-01-13 08:30:48.77	38.67	22.78	-44.7	-47.7	16.5	0.00e+00	0	41	0	591396864	60	5232
2026-01-13 08:30:49.77	38.41	22.75	-44.8	-47.7	16.4	0.00e+00	0	41	0	593494016	60	5245
2026-01-13 08:30:50.76	38.14	22.71	-44.8	-47.8	16.4	0.00e+00	0	41	0	595591168	60	5282
2026-01-13 08:30:51.76	37.88	22.68	-44.7	-47.6	16.5	0.00e+00	0	41	0	597688320	60	5203
2026-01-13 08:30:52.75	37.62	22.64	-45.0	-48.0	16.1	0.00e+00	0	41	0	598736896	60	5444
2026-01-13 08:30:53.75	37.35	22.61	-45.2	-48.4	15.7	0.00e+00	0	41	0	600834048	61	5386
2026-01-13 08:30:54.93	37.04	22.57	-45.3	-48.5	15.6	0.00e+00	0	41	0	602931200	61	5450
2026-01-13 08:30:55.81	36.81	22.54	-45.4	-48.7	15.5	0.00e+00	0	41	0	605028352	61	5547
2026-01-13 08:30:57.12	36.47	22.49	-45.6	-49.1	15.1	0.00e+00	0	41	0	607125504	61	5792
2026-01-13 08:30:57.84	36.28	22.46	-45.5	-48.9	15.3	0.00e+00	0	41	0	608174080	61	5667
2026-01-13 08:30:59.13	35.94	22.41	-45.8	-49.5	14.7	0.00e+00	0	41	0	611319808	62	5747
2026-01-13 08:30:59.84	35.76	22.38	-46.0	-49.7	14.5	0.00e+00	0	41	0	612368384	62	5892
2026-01-13 08:31:01.12	35.43	22.33	-45.8	-49.5	14.6	0.00e+00	0	41	0	614465536	62	5764
2026-01-13 08:31:01.83	35.24	22.30	-45.7	-49.4	14.7	1.50e-06	0	41	0	615514112	62	5688
2026-01-13 08:31:03.11	34.91	22.25	-45.6	-49.2	14.9	0.00e+00	0	41	0	618659840	62	5586
2026-01-13 08:31:03.92	34.70	22.22	-45.5	-49.1	15.1	7.00e-07	0	41	0	619708416	62	5494
2026-01-13 08:31:05.05	34.41	22.17	-45.6	-49.1	15.0	0.00e+00	0	41	0	621805568	62	5519
2026-01-13 08:31:05.91	34.19	22.14	-45.6	-49.3	14.8	7.00e-07	0	41	0	623902720	62	5610
2026-01-13 08:31:07.04	33.91	22.09	-45.7	-49.3	14.9	0.00e+00	0	41	0	625999872	62	5607
2026-01-13 08:31:07.90	33.69	22.05	-45.6	-49.1	15.0	0.00e+00	0	41	0	627048448	62	5498
2026-01-13 08:31:09.03	33.40	22.00	-45.7	-49.4	14.8	0.00e+00	0	41	0	629145600	62	5664
2026-01-13 08:31:09.89	33.18	21.96	-45.8	-49.5	14.6	0.00e+00	0	41	0	631242752	62	5755
2026-01-13 08:31:11.02	32.90	21.91	-45.7	-49.4	14.7	1.50e-06	0	41	0	633339904	62	5717
2026-01-13 08:31:11.88	32.68	21.87	-45.7	-49.4	14.7	7.00e-07	0	41	0	634388480	62	5709
2026-01-13 08:31:13.01	32.40	21.82	-45.5	-49.2	14.9	0.00e+00	0	41	0	637534208	62	5555
2026-01-13 08:31:13.87	32.18	21.78	-45.4	-49.0	15.2	0.00e+00	0	41	0	638582784	62	5419
2026-01-13 08:31:15.00	31.90	21.73	-45.3	-48.8	15.2	0.00e+00	0	41	0	640679936	62	5339
2026-01-13 08:31:15.86	31.69	21.69	-45.3	-48.7	15.4	0.00e+00	0	41	0	642777088	62	5272
2026-01-13 08:31:17.00	31.41	21.64	-45.5	-48.9	15.2	0.00e+00	0	41	0	644874240	62	5400
2026-01-13 08:31:17.85	31.20	21.59	-45.5	-49.1	15.1	0.00e+00	0	41	0	645922816	62	5465
2026-01-13 08:31:18.99	30.91	21.54	-45.4	-48.8	15.4	0.00e+00	0	41	0	648019968	62	5282
2026-01-13 08:31:19.84	30.71	21.50	-45.4	-48.8	15.3	0.00e+00	0	41	0	650117120	62	5315
2026-01-13 08:31:20.97	30.43	21.44	-45.3	-48.7	15.4	0.00e+00	0	41	0	652214272	62	5236
2026-01-13 08:31:21.83	30.22	21.40	-45.6	-49.1	15.1	0.00e+00	0	41	0	653262848	62	5469
2026-01-13 08:31:22.96	29.95	21.34	-45.8	-49.4	14.7	0.00e+00	0	41	0	655360000	62	5716
2026-01-13 08:31:23.82	29.74	21.30	-46.0	-49.8	14.4	0.00e+00	0	41	0	657457152	62	5961
2026-01-13 08:31:24.98	29.46	21.24	-45.9	-49.6	14.5	1.50e-06	0	41	0	659554304	62	5814
2026-01-13 08:31:25.84	29.25	21.19	-46.1	-50.0	14.1	7.00e-07	0	41	0	660602880	62	6093
2026-01-13 08:31:27.04	28.96	21.13	-45.9	-49.7	14.4	1.50e-06	0	41	0	663748608	62	5904
2026-01-13 08:31:27.89	28.76	21.09	-45.8	-49.5	14.7	7.00e-07	0	41	0	664797184	62	5734
2026-01-13 08:31:29.09	28.47	21.02	-45.6	-49.1	15.0	0.00e+00	0	41	0	666894336	62	5512
2026-01-13 08:31:29.94	28.27	20.98	-45.5	-49.0	15.1	0.00e+00	0	41	0	668991488	62	5418
2026-01-13 08:31:31.14	27.99	20.91	-45.7	-49.3	14.8	0.00e+00	0	41	0	671088640	62	5655
2026-01-13 08:31:31.99	27.79	20.87	-46.0	-49.8	14.4	7.00e-07	0	41	0	672137216	62	5924
2026-01-13 08:31:33.13	27.52	20.80	-46.2	-50.2	13.9	2.20e-06	0	41	0	674234368	63	5921
2026-01-13 08:31:33.98	27.32	20.76	-46.5	-50.7	13.4	6.80e-06	0	41	0	676331520	63	6251
2026-01-13 08:31:35.12	27.06	20.69	-46.7	-51.2	12.8	4.65e-05	0	41	0	678428672	64	6239
2026-01-13 08:31:35.97	26.86	20.65	-46.4	-50.6	13.4	1.98e-05	0	41	0	680525824	64	5838
2026-01-13 08:31:37.11	26.60	20.58	-46.2	-50.3	13.8	1.14e-05	0	41	0	682622976	64	5607
2026-01-13 08:31:38.07	26.37	20.53	-45.8	-49.7	14.4	7.00e-07	0	40	0	683671552	63	5541
2026-01-13 08:31:39.06	26.15	20.47	-45.6	-49.3	14.8	7.00e-07	0	41	0	685768704	63	5298
2026-01-13 08:31:40.06	25.92	20.41	-45.4	-49.1	15.0	0.00e+00	0	41	0	687865856	62	5497
2026-01-13 08:31:41.05	25.69	20.36	-45.4	-49.1	14.9	0.00e+00	0	41	0	689963008	62	5526
2026-01-13 08:31:42.05	25.47	20.30	-44.9	-48.4	15.7	0.00e+00	0	41	0	691011584	61	5362
2026-01-13 08:31:43.04	25.24	20.24	-44.9	-48.4	15.6	0.00e+00	0	41	0	693108736	61	5374
2026-01-13 08:31:44.04	25.02	20.18	-44.6	-48.0	16.1	0.00e+00	0	41	0	695205888	61	5107
2026-01-13 08:31:45.03	24.79	20.12	-44.9	-48.3	15.7	0.00e+00	0	41	0	697303040	61	5330
2026-01-13 08:31:46.03	24.57	20.07	-44.9	-48.3	15.8	0.00e+00	0	41	0	699400192	61	5289
2026-01-13 08:31:47.02	24.35	20.01	-44.7	-48.1	15.9	0.00e+00	0	41	0	700448768	61	5169
2026-01-13 08:31:48.01	24.13	19.95	-44.8	-48.0	16.0	0.00e+00	0	41	0	702545920	61	5156
2026-01-13 08:31:49.01	23.91	19.89	-44.6	-47.7	16.3	0.00e+00	0	41	0	704643072	61	4980
2026-01-13 08:31:50.00	23.69	19.83	-44.4	-47.5	16.6	0.00e+00	0	41	0	706740224	60	5117
2026-01-13 08:31:51.00	23.47	19.77	-44.3	-47.2	16.8	0.00e+00	0	41	0	707788800	60	4982
2026-01-13 08:31:51.99	23.26	19.71	-44.1	-47.0	17.0	0.00e+00	0	41	0	709885952	60	4853
2026-01-13 08:31:52.98	23.04	19.65	-43.8	-46.5	17.4	0.00e+00	0	41	0	711983104	59	4829
2026-01-13 08:31:53.98	22.83	19.58	-43.7	-46.4	17.5	0.00e+00	0	41	0	714080256	59	4778
2026-01-13 08:31:54.97	22.61	19.52	-43.7	-46.5	17.5	0.00e+00	0	41	0	716177408	59	4824
2026-01-13 08:31:55.97	22.40	19.46	-44.0	-46.8	17.1	0.00e+00	0	40	0	717225984	59	5039
2026-01-13 08:31:56.96	22.19	19.40	-44.1	-46.9	17.1	0.00e+00	0	41	0	719323136	59	5078
2026-01-13 08:31:57.96	21.97	19.34	-44.6	-47.6	16.4	0.00e+00	0	41	0	721420288	59	5493
2026-01-13 08:31:58.95	21.76	19.27	-44.9	-48.1	15.9	0.00e+00	0	41	0	723517440	60	5524
2026-01-13 08:31:59.95	21.55	19.21	-45.0	-48.3	15.8	0.00e+00	0	41	0	724566016	60	5656
2026-01-13 08:32:00.94	21.34	19.15	-45.2	-48.7	15.4	0.00e+00	0	41	0	726663168	61	5530
2026-01-13 08:32:01.94	21.13	19.08	-45.4	-48.9	15.2	0.00e+00	0	41	0	728760320	61	5665
2026-01-13 08:32:02.95	20.92	19.02	-45.4	-49.0	15.1	0.00e+00	0	41	0	730857472	61	5731
2026-01-13 08:32:03.98	20.71	18.95	-45.4	-49.0	15.1	0.00e+00	0	41	0	732954624	61	5771
2026-01-13 08:32:04.97	20.51	18.89	-45.4	-49.1	15.0	0.00e+00	0	41	0	734003200	61	5815
2026-01-13 08:32:05.97	20.30	18.83	-45.2	-48.8	15.3	0.00e+00	0	41	0	736100352	61	5649
2026-01-13 08:32:06.96	20.10	18.76	-45.1	-48.6	15.5	0.00e+00	0	41	0	738197504	61	5516
2026-01-13 08:32:07.95	19.90	18.70	-45.0	-48.4	15.7	0.00e+00	0	41	0	740294656	61	5395
2026-01-13 08:32:08.95	19.69	18.63	-45.0	-48.4	15.7	0.00e+00	0	41	0	741343232	61	5365
2026-01-13 08:32:09.94	19.49	18.57	-44.9	-48.4	15.7	0.00e+00	0	41	0	743440384	61	5351
2026-01-13 08:32:10.94	19.29	18.50	-44.8	-48.2	15.9	0.00e+00	0	41	0	745537536	61	5220
2026-01-13 08:32:11.93	19.09	18.44	-44.7	-48.0	16.1	0.00e+00	0	41	0	747634688	61	5123
2026-01-13 08:32:12.93	18.89	18.37	-44.5	-47.7	16.3	0.00e+00	0	41	0	749731840	60	5263
2026-01-13 08:32:13.92	18.70	18.31	-44.3	-47.4	16.6	0.00e+00	0	41	0	750780416	60	5062
2026-01-13 08:32:14.92	18.50	18.24	-44.3	-47.4	16.6	0.00e+00	0	41	0	752877568	60	5075
2026-01-13 08:32:15.91	18.30	18.17	-44.5	-47.6	16.4	0.00e+00	0	41	0	754974720	60	5214
2026-01-13 08:32:16.91	18.11	18.11	-44.7	-48.0	16.1	0.00e+00	0	41	0	757071872	60	5449
2026-01-13 08:32:17.90	17.91	18.04	-45.1	-48.5	15.6	0.00e+00	0	41	0	759169024	60	5759
2026-01-13 08:32:18.90	17.72	17.97	-45.2	-48.7	15.4	0.00e+00	0	41	0	760217600	61	5561
2026-01-13 08:32:19.97	17.51	17.90	-45.4	-48.9	15.1	0.00e+00	0	41	0	762314752	61	5696
2026-01-13 08:32:20.82	17.35	17.84	-45.2	-48.6	15.5	0.00e+00	0	41	0	764411904	61	5493
2026-01-13 08:32:21.96	17.13	17.77	-45.2	-48.5	15.6	0.00e+00	0	41	0	766509056	61	5406
2026-01-13 08:32:22.82	16.96	17.71	-45.1	-48.3	15.8	0.00e+00	0	41	0	767557632	61	5292
2026-01-13 08:32:23.96	16.75	17.63	-45.1	-48.3	15.8	0.00e+00	0	41	0	769654784	61	5293
2026-01-13 08:32:24.81	16.59	17.57	-45.3	-48.6	15.5	0.00e+00	0	41	0	771751936	61	5492
2026-01-13 08:32:25.94	16.37	17.50	-45.4	-48.8	15.2	0.00e+00	0	41	0	773849088	61	5653
2026-01-13 08:32:26.80	16.21	17.44	-45.6	-49.1	15.0	0.00e+00	0	41	0	774897664	61	5802
2026-01-13 08:32:27.94	16.00	17.36	-45.6	-49.2	14.9	0.00e+00	0	41	0	776994816	61	5880
2026-01-13 08:32:28.79	15.84	17.30	-45.4	-48.8	15.2	0.00e+00	0	41	0	779091968	61	5655
2026-01-13 08:32:29.92	15.63	17.23	-45.1	-48.4	15.6	0.00e+00	0	41	0	781189120	61	5367
2026-01-13 08:32:30.78	15.48	17.17	-45.0	-48.3	15.7	0.00e+00	0	41	0	783286272	61	5333
2026-01-13 08:32:31.91	15.27	17.09	-44.8	-48.0	16.0	0.00e+00	0	41	0	785383424	61	5155
2026-01-13 08:32:32.76	15.11	17.03	-44.7	-47.9	16.2	0.00e+00	0	41	0	786432000	61	5063
2026-01-13 08:32:34.03	14.88	16.94	-44.7	-47.9	16.1	0.00e+00	0	41	0	788529152	61	5099
2026-01-13 08:32:34.80	14.74	16.89	-44.6	-47.9	16.2	0.00e+00	0	41	0	790626304	61	5045
2026-01-13 08:32:36.24	14.49	16.79	-44.5	-47.6	16.4	0.00e+00	0	41	0	792723456	60	5189
2026-01-13 08:32:36.95	14.36	16.74	-44.5	-47.6	16.4	0.00e+00	0	41	0	794820608	60	5215
2026-01-13 08:32:38.23	14.13	16.65	-44.4	-47.5	16.5	0.00e+00	0	41	0	796917760	60	5152
2026-01-13 08:32:38.94	14.00	16.60	-44.6	-47.8	16.3	0.00e+00	0	41	0	797966336	60	5313
2026-01-13 08:32:40.22	13.78	16.51	-44.5	-47.8	16.2	0.00e+00	0	41	0	800063488	60	5337
2026-01-13 08:32:40.93	13.65	16.47	-44.6	-48.0	16.0	0.00e+00	0	41	0	802160640	60	5458
2026-01-13 08:32:42.21	13.43	16.38	-44.7	-48.2	15.8	0.00e+00	0	41	0	804257792	60	5568
2026-01-13 08:32:42.92	13.31	16.33	-44.7	-48.2	15.8	0.00e+00	0	41	0	805306368	60	5590
2026-01-13 08:32:44.20	13.09	16.24	-44.5	-47.8	16.2	0.00e+00	0	41	0	807403520	60	5321
2026-01-13 08:32:44.91	12.96	16.19	-44.5	-47.8	16.2	0.00e+00	0	41	0	809500672	60	5333
2026-01-13 08:32:46.19	12.74	16.10	-44.1	-47.0	17.0	0.00e+00	0	41	0	811597824	60	4857
2026-01-13 08:32:47.01	12.60	16.04	-44.0	-46.9	17.1	0.00e+00	0	41	0	813694976	60	4783
2026-01-13 08:32:48.15	12.41	15.96	-44.1	-46.8	17.1	0.00e+00	0	41	0	815792128	59	5030
2026-01-13 08:32:49.00	12.27	15.90	-43.9	-46.8	17.2	0.00e+00	0	41	0	816840704	59	4984
2026-01-13 08:32:50.14	12.08	15.82	-44.0	-46.9	17.1	0.00e+00	0	41	0	818937856	59	5055
2026-01-13 08:32:50.99	11.93	15.76	-43.9	-46.9	17.1	0.00e+00	0	41	0	821035008	59	5045
2026-01-13 08:32:52.13	11.74	15.68	-44.0	-47.0	16.9	0.00e+00	0	41	0	823132160	59	5130
2026-01-13 08:32:53.30	11.55	15.60	-44.0	-47.1	16.9	0.00e+00	0	41	0	825229312	59	5183
2026-01-13 08:32:54.32	11.38	15.53	-44.1	-47.3	16.7	0.00e+00	0	41	0	827326464	59	5305
2026-01-13 08:32:55.32	11.22	15.46	-44.3	-47.5	16.4	0.00e+00	0	41	0	828375040	59	5451
2026-01-13 08:32:56.31	11.06	15.39	-44.4	-47.6	16.4	0.00e+00	0	41	0	830472192	59	5493
2026-01-13 08:32:57.31	10.89	15.32	-44.5	-47.7	16.3	0.00e+00	0	41	0	832569344	59	5572
2026-01-13 08:32:58.31	10.73	15.25	-44.5	-47.7	16.2	0.00e+00	0	41	0	834666496	59	5588
2026-01-13 08:32:59.30	10.57	15.18	-44.3	-47.5	16.5	0.00e+00	0	41	0	835715072	59	5418
2026-01-13 08:33:00.30	10.41	15.11	-44.1	-47.3	16.6	0.00e+00	0	41	0	837812224	59	5310
2026-01-13 08:33:01.29	10.26	15.04	-43.9	-47.1	16.8	0.00e+00	0	41	0	839909376	59	5210
2026-01-13 08:33:02.29	10.10	14.97	-43.6	-46.7	17.2	0.00e+00	0	41	0	842006528	59	4978
2026-01-13 08:33:03.28	9.94	14.90	-43.6	-46.8	17.1	0.00e+00	0	41	0	844103680	59	5019
2026-01-13 08:33:04.28	9.78	14.83	-43.8	-46.9	17.0	0.00e+00	0	41	0	845152256	59	5087
2026-01-13 08:33:05.27	9.63	14.76	-44.2	-47.4	16.5	0.00e+00	0	41	0	847249408	59	5384
2026-01-13 08:33:06.27	9.47	14.69	-44.3	-47.5	16.4	0.00e+00	0	41	0	849346560	59	5431
2026-01-13 08:33:07.26	9.32	14.62	-44.7	-47.9	16.1	0.00e+00	0	41	0	851443712	59	5677
2026-01-13 08:33:08.26	9.17	14.55	-44.9	-48.2	15.8	0.00e+00	0	41	0	853540864	60	5590
2026-01-13 08:33:09.25	9.01	14.48	-45.0	-48.4	15.6	0.00e+00	0	41	0	854589440	60	5692
2026-01-13 08:33:10.25	8.86	14.41	-45.1	-48.6	15.5	0.00e+00	0	41	0	856686592	60	5789
2026-01-13 08:33:11.24	8.71	14.34	-45.0	-48.5	15.5	0.00e+00	0	41	0	858783744	60	5777
2026-01-13 08:33:12.24	8.56	14.27	-44.9	-48.4	15.6	0.00e+00	0	41	0	860880896	60	5712
2026-01-13 08:33:13.23	8.41	14.20	-44.8	-48.2	15.8	0.00e+00	0	41	0	861929472	60	5538
2026-01-13 08:33:14.23	8.26	14.13	-44.9	-48.3	15.8	0.00e+00	0	41	0	864026624	60	5625
2026-01-13 08:33:15.55	8.07	14.03	-44.7	-48.0	16.0	0.00e+00	0	41	0	867172352	60	5450
2026-01-13 08:33:16.28	7.96	13.98	-44.8	-48.1	15.9	0.00e+00	0	41	0	868220928	60	5504
2026-01-13 08:33:17.56	7.77	13.89	-44.8	-48.1	15.9	0.00e+00	0	41	0	870318080	60	5479
2026-01-13 08:33:18.27	7.67	13.84	-44.6	-47.8	16.2	0.00e+00	0	41	0	871366656	60	5290
2026-01-13 08:33:19.55	7.48	13.75	-44.4	-47.5	16.4	0.00e+00	0	41	0	874512384	60	5135
2026-01-13 08:33:20.28	7.37	13.70	-44.5	-47.6	16.4	0.00e+00	0	41	0	875560960	60	5170
2026-01-13 08:33:21.56	7.19	13.61	-44.4	-47.6	16.4	0.00e+00	0	41	0	877658112	60	5165
2026-01-13 08:33:22.27	7.09	13.56	-44.3	-47.5	16.5	0.00e+00	0	41	0	879755264	60	5111
2026-01-13 08:33:23.55	6.90	13.47	-44.4	-47.8	16.2	0.00e+00	0	41	0	881852416	60	5298
2026-01-13 08:33:24.26	6.80	13.42	-44.5	-48.1	15.9	0.00e+00	0	41	0	882900992	60	5480
2026-01-13 08:33:25.54	6.62	13.33	-44.6	-48.3	15.7	0.00e+00	0	41	0	884998144	60	5655
2026-01-13 08:33:26.25	6.52	13.28	-44.8	-48.8	15.2	0.00e+00	0	41	0	887095296	60	5971
2026-01-13 08:33:27.65	6.32	13.18	-45.1	-49.3	14.7	0.00e+00	0	41	0	889192448	60	6329
2026-01-13 08:33:28.36	6.22	13.13	-45.4	-49.7	14.4	7.00e-07	0	41	0	891289600	61	6229
2026-01-13 08:33:29.72	6.04	13.03	-45.5	-49.7	14.3	7.00e-07	0	41	0	893386752	61	6248
2026-01-13 08:33:30.43	5.94	12.98	-45.6	-49.6	14.4	0.00e+00	0	41	0	894435328	61	6178
2026-01-13 08:33:31.79	5.75	12.89	-45.5	-49.3	14.7	0.00e+00	0	41	0	897581056	61	5954
2026-01-13 08:33:32.50	5.65	12.84	-45.4	-49.1	14.9	7.00e-07	0	41	0	898629632	61	5840
2026-01-13 08:33:33.78	5.48	12.75	-45.0	-48.6	15.4	0.00e+00	0	41	0	900726784	61	5481
2026-01-13 08:33:34.49	5.38	12.70	-44.9	-48.5	15.5	0.00e+00	0	41	0	901775360	61	5403
2026-01-13 08:33:35.77	5.21	12.61	-44.6	-48.1	15.8	0.00e+00	0	41	0	904921088	61	5197
2026-01-13 08:33:36.50	5.11	12.56	-44.6	-48.1	15.9	0.00e+00	0	41	0	905969664	61	5186
2026-01-13 08:33:37.77	4.94	12.47	-44.6	-48.2	15.7	0.00e+00	0	41	0	908066816	61	5266
2026-01-13 08:33:38.50	4.85	12.42	-44.5	-48.0	15.9	0.00e+00	0	41	0	910163968	61	5145
2026-01-13 08:33:39.78	4.68	12.33	-44.8	-48.3	15.6	0.00e+00	0	41	0	912261120	61	5310
2026-01-13 08:33:40.51	4.58	12.28	-45.0	-48.4	15.5	0.00e+00	0	41	0	913309696	61	5368
2026-01-13 08:33:41.78	4.41	12.19	-45.0	-48.4	15.6	0.00e+00	0	41	0	915406848	61	5348
2026-01-13 08:33:42.56	4.31	12.14	-45.0	-48.3	15.6	0.00e+00	0	41	0	917504000	61	5305
2026-01-13 08:33:43.84	4.15	12.05	-45.2	-48.4	15.5	0.00e+00	0	41	0	919601152	61	5394
2026-01-13 08:33:44.58	4.05	12.00	-45.0	-48.2	15.7	0.00e+00	0	41	0	920649728	61	5238
2026-01-13 08:33:45.86	3.89	11.91	-44.8	-48.0	15.9	0.00e+00	0	41	0	923795456	61	5134
2026-01-13 08:33:46.62	3.79	11.85	-45.1	-48.4	15.5	0.00e+00	0	41	0	924844032	61	5388
2026-01-13 08:33:47.90	3.63	11.77	-45.1	-48.5	15.4	0.00e+00	0	41	0	926941184	61	5431
2026-01-13 08:33:48.66	3.53	11.71	-45.2	-48.6	15.3	0.00e+00	0	41	0	929038336	61	5502
2026-01-13 08:33:50.24	3.33	11.60	-45.4	-49.0	14.9	0.00e+00	0	41	0	932184064	61	5747
2026-01-13 08:33:50.87	3.25	11.56	-45.4	-49.0	14.9	0.00e+00	0	41	0	933232640	61	5782
2026-01-13 08:33:52.51	3.05	11.45	-45.5	-49.2	14.8	0.00e+00	0	41	0	936378368	61	5860
2026-01-13 08:33:53.08	2.98	11.41	-45.7	-49.4	14.6	0.00e+00	0	41	0	937426944	61	6011
2026-01-13 08:33:54.79	2.77	11.29	-45.5	-49.1	14.8	0.00e+00	0	41	0	940572672	62	5495
2026-01-13 08:33:55.36	2.70	11.25	-45.8	-49.5	14.5	0.00e+00	0	41	0	941621248	62	5740
2026-01-13 08:33:57.06	2.49	11.13	-45.5	-49.1	14.7	0.00e+00	0	41	0	944766976	62	5516
2026-01-13 08:33:57.63	2.42	11.09	-45.5	-49.3	14.6	7.00e-07	0	41	0	945815552	62	5614
2026-01-13 08:33:59.48	2.20	10.97	-45.2	-49.4	14.5	7.00e-07	0	40	0	948961280	62	5666
2026-01-13 08:34:00.05	2.13	10.93	-45.3	-49.7	14.2	1.50e-06	0	41	0	950009856	62	5891
2026-01-13 08:34:01.75	1.93	10.81	-45.1	-49.8	14.1	1.50e-06	0	41	0	953155584	62	5950
2026-01-13 08:34:02.43	1.85	10.77	-45.4	-50.2	13.7	3.00e-06	0	41	0	954204160	62	6249
2026-01-13 08:34:03.85	1.68	10.67	-45.8	-50.3	13.6	1.06e-05	0	41	0	957349888	62	6291
2026-01-13 08:34:04.56	1.60	10.62	-45.9	-50.4	13.5	6.80e-06	0	41	0	958398464	62	6374
2026-01-13 08:34:05.84	1.45	10.53	-46.1	-50.4	13.5	1.14e-05	0	41	0	960495616	63	6036
2026-01-13 08:34:06.69	1.35	10.47	-46.1	-50.4	13.5	1.06e-05	0	41	0	962592768	63	6002
2026-01-13 08:34:08.13	1.19	10.38	-46.0	-50.0	13.9	3.80e-06	0	41	0	965738496	63	5725
2026-01-13 08:34:08.84	1.10	10.33	-45.8	-49.7	14.1	2.20e-06	0	41	0	966787072	63	5566
2026-01-13 08:34:10.12	0.96	10.24	-45.6	-49.4	14.5	7.00e-07	0	41	0	968884224	63	5347
2026-01-13 08:34:10.83	0.88	10.19	-45.6	-49.3	14.5	7.00e-07	0	41	0	969932800	63	5339
2026-01-13 08:34:12.11	0.73	10.11	-45.4	-49.2	14.6	7.00e-07	0	41	0	973078528	62	5556
2026-01-13 08:34:12.88	0.65	10.05	-45.1	-48.8	15.0	7.00e-07	0	41	0	974127104	62	5325
2026-01-13 08:34:14.16	0.50	9.97	-45.2	-49.0	14.8	7.00e-07	0	41	0	976224256	62	5459
2026-01-13 08:34:14.87	0.42	9.92	-45.2	-49.3	14.6	0.00e+00	0	40	0	978321408	62	5598
2026-01-13 08:34:16.15	0.28	9.83	-45.2	-49.3	14.5	0.00e+00	0	41	0	980418560	62	5619
2026-01-13 08:34:16.87	0.20	9.79	-45.2	-49.4	14.4	0.00e+00	0	41	0	981467136	62	5708
2026-01-13 08:34:18.15	0.06	9.70	-45.3	-49.6	14.2	0.00e+00	0	41	0	984612864	62	5837
2026-01-13 08:34:18.88	359.98	9.65	-45.3	-49.6	14.2	1.50e-06	0	41	0	985661440	62	5799
2026-01-13 08:34:20.16	359.84	9.56	-45.6	-49.9	13.9	7.00e-07	0	41	0	987758592	62	6055
2026-01-13 08:34:20.87	359.77	9.52	-45.8	-50.2	13.6	4.50e-06	0	41	0	988807168	62	6229
2026-01-13 08:34:22.15	359.63	9.43	-45.8	-50.1	13.7	6.80e-06	0	41	0	991952896	62	6179
2026-01-13 08:34:22.86	359.55	9.38	-45.6	-49.9	14.0	6.10e-06	0	41	0	993001472	62	5994
2026-01-13 08:34:24.15	359.41	9.30	-45.5	-50.0	13.9	6.80e-06	0	41	0	995098624	62	6071
2026-01-13 08:34:24.86	359.34	9.25	-45.3	-49.8	14.0	3.80e-06	0	41	0	997195776	62	5959
2026-01-13 08:34:26.19	359.20	9.16	-45.0	-49.8	14.0	5.30e-06	0	41	0	999292928	61	6321
2026-01-13 08:34:26.90	359.12	9.11	-44.6	-49.6	14.2	1.50e-06	0	41	0	1000341504	61	6179
2026-01-13 08:34:28.24	358.98	9.03	-44.3	-49.4	14.4	1.50e-06	0	41	0	1003487232	60	6383
2026-01-13 08:34:28.95	358.91	8.98	-47.7	-55.8	8.5	1.50e-06	0	41	0	1004535808	65	9947
2026-01-13 08:34:30.23	358.78	8.89	-50.0	-65.2	3.8	1.49e+00	0	41	104	1004535808	70	22234
2026-01-13 08:34:30.94	358.70	8.85	-49.4	-65.5	3.8	1.49e+00	0	41	104	1004535808	70	23040
2026-01-13 08:34:32.23	358.57	8.76	-49.6	-65.6	3.8	1.49e+00	0	41	104	1004535808	71	21965
2026-01-13 08:34:32.94	358.50	8.71	-50.3	-65.7	3.8	1.49e+00	0	41	104	1004535808	71	22034
2026-01-13 08:34:34.22	358.37	8.63	-49.4	-65.7	3.8	1.49e+00	0	41	104	1004535808	70	23524
2026-01-13 08:34:34.94	358.29	8.58	-50.2	-65.8	3.8	1.49e+00	0	41	104	1004535808	71	22304
2026-01-13 08:34:36.22	358.17	8.50	-50.5	-65.8	3.8	1.49e+00	0	41	104	1004535808	71	22418
2026-01-13 08:34:36.99	358.09	8.45	-50.5	-65.8	3.8	1.49e+00	0	41	104	1004535808	71	22504
2026-01-13 08:34:38.27	357.96	8.36	-50.3	-65.8	3.8	1.49e+00	0	41	104	1004535808	71	22503
2026-01-13 08:34:39.01	357.89	8.32	-50.5	-65.8	3.8	1.49e+00	0	41	104	1004535808	71	22405
2026-01-13 08:34:40.29	357.76	8.23	-50.6	-65.9	3.8	1.49e+00	0	41	104	1004535808	71	22581
2026-01-13 08:34:41.12	357.68	8.18	-50.3	-65.9	3.8	1.49e+00	0	41	104	1004535808	71	22548
2026-01-13 08:34:42.26	357.57	8.10	-50.7	-65.8	3.8	1.49e+00	0	41	104	1004535808	71	22487
2026-01-13 08:34:43.28	357.47	8.04	-50.7	-65.9	3.8	1.49e+00	0	41	104	1004535808	71	22548
2026-01-13 08:34:44.43	357.36	7.96	-50.6	-65.8	3.8	1.49e+00	0	41	104	1004535808	72	21248
2026-01-13 08:34:45.35	357.27	7.90	-50.5	-65.8	3.8	1.49e+00	0	41	104	1004535808	72	21192
2026-01-13 08:34:46.53	357.15	7.83	-50.6	-65.8	3.8	1.49e+00	0	41	104	1004535808	72	21197
2026-01-13 08:34:47.40	357.07	7.77	-50.7	-65.9	3.8	1.49e+00	0	41	104	1004535808	72	21311
2026-01-13 08:34:48.54	356.96	7.70	-50.6	-65.8	3.8	1.49e+00	0	41	104	1004535808	72	21208
2026-01-13 08:34:49.39	356.88	7.64	-50.7	-65.8	3.8	1.49e+00	0	41	104	1004535808	72	21240
2026-01-13 08:34:50.52	356.77	7.57	-50.7	-65.9	3.8	1.49e+00	0	41	104	1004535808	72	21324
2026-01-13 08:34:51.37	356.69	7.51	-50.6	-65.9	3.8	1.49e+00	0	41	104	1004535808	72	21298
2026-01-13 08:34:52.51	356.59	7.44	-50.7	-65.9	3.8	1.49e+00	0	41	104	1004535808	72	21340
2026-01-13 08:34:53.36	356.51	7.39	-50.6	-65.9	3.8	1.49e+00	0	41	104	1004535808	72	21363
2026-01-13 08:34:54.49	356.40	7.31	-50.7	-65.8	3.8	1.49e+00	0	41	104	1004535808	72	21232
2026-01-13 08:34:55.34	356.33	7.26	-50.6	-65.9	3.8	1.49e+00	0	41	104	1004535808	72	21265
2026-01-13 08:34:56.48	356.22	7.19	-50.6	-65.9	3.8	1.49e+00	0	41	104	1004535808	72	21296
2026-01-13 08:34:57.33	356.14	7.13	-50.6	-65.8	3.8	1.49e+00	0	41	104	1004535808	72	21211
2026-01-13 08:34:58.47	356.04	7.06	-50.5	-65.8	3.8	1.49e+00	0	41	104	1004535808	72	21205
2026-01-13 08:34:59.32	355.96	7.01	-50.5	-65.8	3.8	1.49e+00	0	41	104	1004535808	72	21213
2026-01-13 08:35:00.45	355.86	6.93	-50.5	-65.8	3.8	1.49e+00	0	41	104	1004535808	72	21255
2026-01-13 08:35:01.31	355.78	6.88	-50.5	-65.8	3.8	1.49e+00	0	41	104	1004535808	72	21180
2026-01-13 08:35:02.44	355.68	6.81	-50.5	-65.9	3.8	1.49e+00	0	41	104	1004535808	72	21278
2026-01-13 08:35:03.29	355.61	6.75	-50.5	-65.8	3.8	1.49e+00	0	41	104	1004535808	72	21132
2026-01-13 08:35:04.43	355.51	6.68	-50.5	-65.8	3.8	1.49e+00	0	41	104	1004535808	72	21157
2026-01-13 08:35:05.28	355.43	6.63	-50.5	-65.8	3.8	1.49e+00	0	41	104	1004535808	72	21205
2026-01-13 08:35:06.42	355.33	6.56	-50.5	-65.8	3.8	1.49e+00	0	41	104	1004535808	72	21146
2026-01-13 08:35:07.27	355.26	6.50	-50.5	-65.8	3.8	1.49e+00	0	41	104	1004535808	72	21139
2026-01-13 08:35:08.40	355.16	6.43	-50.5	-65.8	3.8	1.49e+00	0	41	104	1004535808	72	21177
2026-01-13 08:35:09.25	355.08	6.38	-50.5	-65.8	3.8	1.49e+00	0	41	104	1004535808	72	21120
2026-01-13 08:35:10.39	354.99	6.31	-50.5	-65.8	3.8	1.49e+00	0	41	104	1004535808	72	21191
2026-01-13 08:35:11.24	354.91	6.25	-50.5	-65.8	3.8	1.49e+00	0	41	104	1004535808	72	21090
2026-01-13 08:35:12.38	354.82	6.18	-50.5	-65.8	3.8	1.49e+00	0	41	104	1004535808	72	21173
2026-01-13 08:35:13.23	354.74	6.13	-50.5	-65.8	3.8	1.49e+00	0	41	104	1004535808	72	21150
2026-01-13 08:35:14.36	354.65	6.06	-50.5	-65.8	3.8	1.49e+00	0	41	104	1004535808	72	21178
2026-01-13 08:35:15.21	354.58	6.00	-50.5	-65.8	3.8	1.49e+00	0	41	104	1004535808	72	21154
2026-01-13 08:35:16.35	354.48	5.93	-50.5	-65.8	3.8	1.49e+00	0	41	104	1004535808	72	21161
2026-01-13 08:35:17.20	354.41	5.88	-50.5	-65.8	3.8	1.49e+00	0	41	104	1004535808	72	21125
2026-01-13 08:35:18.33	354.32	5.81	-50.5	-65.8	3.8	1.49e+00	0	41	104	1004535808	72	21177
2026-01-13 08:35:19.18	354.25	5.76	-50.5	-65.8	3.8	1.49e+00	0	41	104	1004535808	72	21169
2026-01-13 08:35:20.32	354.15	5.69	-50.5	-65.8	3.8	1.49e+00	0	41	104	1004535808	72	21099
2026-01-13 08:35:21.17	354.08	5.64	-50.5	-65.8	3.8	1.49e+00	0	41	104	1004535808	72	21095
2026-01-13 08:35:22.31	353.99	5.57	-50.5	-65.8	3.8	1.49e+00	0	41	104	1004535808	72	21167
2026-01-13 08:35:23.16	353.92	5.51	-50.5	-65.8	3.8	1.49e+00	0	41	104	1004535808	72	21104
2026-01-13 08:35:24.29	353.83	5.44	-50.5	-65.8	3.8	1.49e+00	0	41	104	1004535808	72	21133
2026-01-13 08:35:25.15	353.76	5.39	-50.5	-65.8	3.8	1.49e+00	0	41	104	1004535808	72	21027
2026-01-13 08:35:26.28	353.67	5.32	-50.5	-65.8	3.8	1.49e+00	0	41	104	1004535808	72	21040
2026-01-13 08:35:27.13	353.60	5.27	-50.5	-65.8	3.8	1.49e+00	0	41	104	1004535808	72	21079
2026-01-13 08:35:28.27	353.51	5.20	-50.5	-65.8	3.8	1.49e+00	0	41	104	1004535808	72	21108
2026-01-13 08:35:29.12	353.44	5.15	-50.5	-65.8	3.8	1.49e+00	0	41	104	1004535808	72	21102
2026-01-13 08:35:30.25	353.35	5.08	-50.5	-65.8	3.8	1.49e+00	0	41	104	1004535808	72	21075
2026-01-13 08:35:31.10	353.29	5.03	-50.5	-65.8	3.8	1.49e+00	0	41	104	1004535808	72	21075
2026-01-13 08:35:32.24	353.20	4.96	-50.4	-65.8	3.8	1.49e+00	0	41	104	1004535808	72	21089

#Closed at: 2026-01-13 08:35:33
#Recorded file [1004 MB]: D:/Data/31040_260113_112435.dat