passes_logs/2026/01/13/T1/T1__20260113_043743_FENGYUN_3E_rec.log

#Pass ID: 20260113_043743_FENGYUN 3E
#Satellite: FENGYUN 3E
#Configuration: FENGYUN 3E
#almurnet v.1.7.20251203
#Start time: 2026-01-13 04:37:42

#Version: 2.0.20230620
#Station: T1
#Location: 37.570604 lon 55.790049 lat
#TLE: 1 49008U 21062A   26012.25745337  .00000274  00000+0  14981-3 0  9997
#TLE: 2 49008  98.7491  17.4183 0001913 142.8235 217.3074 14.19885845234459

#Time	Az	El	Level	Level2	SNR	BER	BlckErr	Temp	State	Recorded	gain1	gain2
2026-01-13 04:37:42.82	12.23	4.97	-48.9	-61.4	3.8	8.47e-01	0	40	0	0	68	15012
2026-01-13 04:37:43.81	12.20	5.03	-48.3	-61.5	3.8	8.46e-01	0	40	104	0	65	17930
2026-01-13 04:37:44.80	12.17	5.10	-48.3	-61.4	3.8	8.47e-01	0	40	104	0	65	17874
2026-01-13 04:37:45.79	12.14	5.17	-48.3	-61.3	3.8	8.45e-01	0	40	104	0	65	17672
2026-01-13 04:37:46.79	12.11	5.24	-48.2	-61.4	3.8	8.46e-01	0	40	104	0	65	17697
2026-01-13 04:37:47.78	12.08	5.31	-48.2	-61.2	3.8	8.46e-01	0	40	104	0	65	17409
2026-01-13 04:37:48.78	12.05	5.38	-48.2	-61.2	3.8	8.47e-01	0	40	104	0	65	17349
2026-01-13 04:37:49.77	12.01	5.45	-48.2	-61.1	3.8	8.47e-01	0	40	104	0	65	17153
2026-01-13 04:37:50.76	11.98	5.52	-48.2	-61.0	3.8	8.46e-01	0	40	104	0	65	16922
2026-01-13 04:37:51.76	11.95	5.59	-48.2	-60.9	3.8	8.47e-01	0	40	104	0	65	16738
2026-01-13 04:37:52.75	11.92	5.66	-48.2	-60.8	3.8	8.47e-01	0	40	104	0	65	16674
2026-01-13 04:37:53.74	11.89	5.74	-48.2	-60.7	3.8	8.46e-01	0	41	104	0	65	16492
2026-01-13 04:37:54.74	11.85	5.81	-48.2	-60.7	3.8	8.47e-01	0	41	104	0	65	16408
2026-01-13 04:37:55.73	11.82	5.88	-48.2	-60.7	3.8	8.47e-01	0	41	104	0	65	16363
2026-01-13 04:37:56.72	11.79	5.95	-48.2	-60.5	3.8	8.48e-01	0	41	104	0	65	16038
2026-01-13 04:37:57.72	11.75	6.02	-48.2	-60.5	3.8	8.47e-01	0	41	104	0	65	15981
2026-01-13 04:37:58.71	11.72	6.09	-48.2	-60.4	3.8	8.47e-01	0	41	104	0	65	15772
2026-01-13 04:37:59.70	11.69	6.16	-48.2	-60.1	3.8	8.47e-01	0	41	104	0	65	15389
2026-01-13 04:38:00.70	11.65	6.24	-48.1	-59.9	3.8	8.47e-01	0	41	104	0	65	14938
2026-01-13 04:38:01.69	11.62	6.31	-48.1	-59.7	3.8	8.47e-01	0	41	104	0	65	14697
2026-01-13 04:38:02.68	11.59	6.38	-48.1	-59.7	3.8	8.45e-01	0	41	104	0	65	14658
2026-01-13 04:38:03.67	11.55	6.45	-48.1	-59.8	3.8	8.47e-01	0	41	104	0	65	14742
2026-01-13 04:38:04.67	11.52	6.53	-48.1	-59.8	3.8	8.46e-01	0	41	104	0	65	14769
2026-01-13 04:38:05.66	11.48	6.60	-48.1	-60.1	3.8	8.46e-01	0	41	104	0	65	15266
2026-01-13 04:38:06.65	11.45	6.67	-48.1	-60.4	3.8	8.47e-01	0	41	104	0	65	15803
2026-01-13 04:38:07.65	11.41	6.75	-48.2	-60.9	3.8	8.45e-01	0	41	104	0	65	16703
2026-01-13 04:38:08.64	11.38	6.82	-48.2	-61.2	3.8	8.47e-01	0	41	104	0	65	17464
2026-01-13 04:38:09.63	11.34	6.90	-48.2	-61.4	3.8	8.46e-01	0	41	104	0	65	17724
2026-01-13 04:38:10.63	11.30	6.97	-48.2	-61.0	3.8	8.47e-01	0	41	104	0	65	17055
2026-01-13 04:38:11.62	11.27	7.04	-48.1	-60.2	3.8	8.47e-01	0	41	104	0	65	15456
2026-01-13 04:38:12.61	11.23	7.12	-48.0	-58.6	4.0	8.45e-01	0	41	0	0	65	12938
2026-01-13 04:38:13.61	11.20	7.19	-47.8	-57.3	4.4	8.31e-01	0	41	0	0	65	11082
2026-01-13 04:38:14.60	11.16	7.27	-47.6	-55.6	5.2	7.77e-01	0	41	0	0	65	9124
2026-01-13 04:38:15.60	11.12	7.34	-47.3	-54.1	6.2	3.24e-01	0	41	0	4194304	65	7703
2026-01-13 04:38:16.59	11.09	7.42	-47.0	-53.0	7.2	1.63e-01	0	41	0	11534336	64	7168
2026-01-13 04:38:17.58	11.05	7.49	-46.6	-51.8	8.4	7.20e-02	0	41	0	18874368	64	6226
2026-01-13 04:38:18.58	11.01	7.57	-46.3	-50.9	9.4	1.96e-02	0	41	0	26214400	63	5941
2026-01-13 04:38:19.57	10.97	7.65	-46.1	-50.4	9.9	9.67e-03	0	41	0	33554432	63	5643
2026-01-13 04:38:20.56	10.94	7.72	-45.8	-49.6	10.7	3.93e-03	0	41	0	39845888	62	5426
2026-01-13 04:38:21.55	10.90	7.80	-45.5	-49.0	11.4	1.29e-03	0	41	0	47185920	61	5355
2026-01-13 04:38:22.55	10.86	7.88	-45.2	-48.6	11.8	7.45e-04	0	42	0	54525952	61	5117
2026-01-13 04:38:23.54	10.82	7.95	-45.0	-48.2	12.2	3.05e-04	0	41	0	61865984	60	5163
2026-01-13 04:38:24.54	10.78	8.03	-44.8	-47.7	12.7	1.12e-04	0	41	0	69206016	60	4925
2026-01-13 04:38:25.53	10.74	8.11	-44.6	-47.6	12.9	7.43e-05	0	41	0	76546048	60	4820
2026-01-13 04:38:26.52	10.70	8.18	-44.6	-47.5	12.9	5.37e-05	0	42	0	83886080	60	4781
2026-01-13 04:38:27.52	10.66	8.26	-44.4	-47.0	13.3	2.28e-05	0	41	0	90177536	59	4763
2026-01-13 04:38:28.51	10.62	8.34	-44.4	-47.1	13.2	2.74e-05	0	41	0	97517568	59	4827
2026-01-13 04:38:29.50	10.58	8.42	-44.7	-47.4	12.8	6.06e-05	0	41	0	104857600	59	5040
2026-01-13 04:38:30.50	10.54	8.50	-45.0	-48.0	12.3	1.54e-04	0	42	0	112197632	59	5362
2026-01-13 04:38:31.49	10.50	8.58	-45.1	-48.3	12.0	2.91e-04	0	42	0	119537664	59	5529
2026-01-13 04:38:32.49	10.46	8.66	-45.4	-49.0	11.4	8.65e-04	0	42	0	126877696	60	5658
2026-01-13 04:38:33.48	10.42	8.73	-45.9	-49.9	10.4	2.70e-03	0	41	0	134217728	61	5966
2026-01-13 04:38:34.47	10.38	8.81	-46.4	-51.1	9.2	1.68e-02	0	42	0	140509184	62	6426
2026-01-13 04:38:35.46	10.34	8.89	-46.9	-52.3	8.0	5.77e-02	0	42	0	147849216	63	7027
2026-01-13 04:38:36.46	10.30	8.97	-47.3	-54.1	6.3	2.05e-01	0	42	0	155189248	64	8097
2026-01-13 04:38:37.45	10.26	9.05	-47.8	-56.7	4.7	7.78e-01	0	42	0	158334976	65	10409
2026-01-13 04:38:38.56	10.21	9.14	-48.5	-59.9	3.8	8.46e-01	0	42	104	158334976	66	14150
2026-01-13 04:38:39.41	10.17	9.21	-48.3	-58.5	3.9	8.47e-01	0	42	104	158334976	66	12051
2026-01-13 04:38:40.55	10.12	9.31	-43.9	-46.3	13.9	2.51e-03	0	42	0	162529280	58	4672
2026-01-13 04:38:41.40	10.09	9.37	-44.4	-47.0	13.4	0.00e+00	0	42	0	168820736	58	5078
2026-01-13 04:38:42.54	10.04	9.47	-45.8	-49.6	10.6	6.24e-01	0	42	0	174063616	62	5447
2026-01-13 04:38:43.39	10.00	9.54	-42.8	-44.6	15.7	0.00e+00	0	42	0	180355072	56	4340
2026-01-13 04:38:44.53	9.95	9.63	-42.1	-43.8	16.4	0.00e+00	0	42	0	188743680	55	4165
2026-01-13 04:38:45.38	9.91	9.70	-41.9	-43.5	16.7	0.00e+00	0	42	0	195035136	54	4291
2026-01-13 04:38:46.52	9.86	9.80	-42.0	-43.6	16.6	0.00e+00	0	42	0	202375168	54	4332
2026-01-13 04:38:47.37	9.82	9.87	-42.0	-43.6	16.7	0.00e+00	0	42	0	208666624	54	4294
2026-01-13 04:38:48.51	9.77	9.96	-42.1	-43.7	16.6	0.00e+00	0	42	0	217055232	54	4365
2026-01-13 04:38:49.36	9.73	10.03	-41.9	-43.5	16.8	0.00e+00	0	42	0	223346688	54	4252
2026-01-13 04:38:50.50	9.68	10.13	-42.1	-43.7	16.6	0.00e+00	0	42	0	231735296	54	4350
2026-01-13 04:38:51.35	9.64	10.20	-42.1	-43.6	16.6	0.00e+00	0	42	0	238026752	54	4339
2026-01-13 04:38:52.48	9.59	10.30	-41.9	-43.4	16.8	0.00e+00	0	42	0	245366784	54	4232
2026-01-13 04:38:53.34	9.55	10.37	-41.9	-43.4	16.8	0.00e+00	0	42	0	251658240	54	4209
2026-01-13 04:38:54.47	9.50	10.47	-41.8	-43.3	17.0	0.00e+00	0	42	0	260046848	54	4146
2026-01-13 04:38:55.32	9.46	10.54	-42.0	-43.5	16.8	0.00e+00	0	42	0	266338304	54	4263
2026-01-13 04:38:56.46	9.40	10.64	-41.8	-43.3	17.0	0.00e+00	0	42	0	274726912	54	4160
2026-01-13 04:38:57.32	9.36	10.71	-41.7	-43.1	17.2	0.00e+00	0	42	0	279969792	54	4064
2026-01-13 04:38:58.45	9.31	10.81	-41.8	-43.2	17.1	0.00e+00	0	42	0	288358400	54	4127
2026-01-13 04:38:59.30	9.27	10.88	-41.8	-43.2	17.0	0.00e+00	0	42	0	294649856	54	4145
2026-01-13 04:39:00.44	9.21	10.98	-41.7	-43.0	17.2	0.00e+00	0	42	0	303038464	54	4050
2026-01-13 04:39:01.29	9.17	11.05	-41.7	-43.1	17.2	0.00e+00	0	42	0	309329920	54	4062
2026-01-13 04:39:02.43	9.11	11.15	-41.7	-43.0	17.2	0.00e+00	0	42	0	317718528	53	4278
2026-01-13 04:39:03.28	9.07	11.23	-41.7	-43.1	17.2	0.00e+00	0	42	0	324009984	53	4322
2026-01-13 04:39:04.42	9.02	11.33	-41.7	-43.1	17.2	0.00e+00	0	42	0	331350016	53	4296
2026-01-13 04:39:05.27	8.97	11.40	-41.7	-43.0	17.3	0.00e+00	0	42	0	338690048	53	4279
2026-01-13 04:39:06.47	8.91	11.51	-41.6	-42.9	17.4	0.00e+00	0	42	0	347078656	53	4225
2026-01-13 04:39:07.32	8.87	11.58	-41.7	-43.0	17.3	0.00e+00	0	42	0	353370112	53	4274
2026-01-13 04:39:08.46	8.81	11.69	-41.7	-43.0	17.3	0.00e+00	0	42	0	360710144	53	4266
2026-01-13 04:39:09.31	8.77	11.76	-41.5	-42.8	17.5	0.00e+00	0	42	0	367001600	53	4164
2026-01-13 04:39:10.45	8.71	11.86	-41.5	-42.8	17.5	0.00e+00	0	42	0	375390208	53	4176
2026-01-13 04:39:11.30	8.66	11.94	-41.7	-43.0	17.3	0.00e+00	0	42	0	381681664	53	4263
2026-01-13 04:39:12.44	8.60	12.04	-41.4	-42.7	17.5	0.00e+00	0	42	0	390070272	53	4135
2026-01-13 04:39:13.42	8.55	12.13	-41.5	-42.8	17.4	0.00e+00	0	42	0	397410304	53	4187
2026-01-13 04:39:14.41	8.50	12.22	-41.5	-42.8	17.5	0.00e+00	0	42	0	403701760	53	4153
2026-01-13 04:39:15.41	8.45	12.31	-41.5	-42.8	17.5	0.00e+00	0	42	0	411041792	53	4170
2026-01-13 04:39:16.41	8.39	12.41	-41.5	-42.8	17.5	0.00e+00	0	42	0	418381824	53	4179
2026-01-13 04:39:17.40	8.34	12.50	-41.5	-42.7	17.6	0.00e+00	0	42	0	425721856	53	4140
2026-01-13 04:39:18.40	8.28	12.59	-41.4	-42.7	17.6	0.00e+00	0	42	0	433061888	53	4124
2026-01-13 04:39:19.39	8.23	12.68	-41.6	-42.9	17.4	0.00e+00	0	42	0	440401920	53	4198
2026-01-13 04:39:20.38	8.17	12.77	-41.3	-42.5	17.8	0.00e+00	0	42	0	446693376	53	4040
2026-01-13 04:39:21.38	8.12	12.87	-41.4	-42.7	17.6	0.00e+00	0	42	0	454033408	53	4111
2026-01-13 04:39:22.37	8.06	12.96	-41.4	-42.6	17.7	0.00e+00	0	42	0	461373440	53	4097
2026-01-13 04:39:23.37	8.01	13.05	-41.6	-42.8	17.5	0.00e+00	0	43	0	468713472	53	4174
2026-01-13 04:39:24.36	7.95	13.14	-41.4	-42.7	17.6	0.00e+00	0	42	0	476053504	53	4100
2026-01-13 04:39:25.36	7.89	13.24	-41.5	-42.7	17.6	0.00e+00	0	42	0	483393536	53	4127
2026-01-13 04:39:26.35	7.83	13.33	-41.4	-42.7	17.6	0.00e+00	0	42	0	489684992	53	4114
2026-01-13 04:39:27.34	7.78	13.43	-41.5	-42.7	17.6	0.00e+00	0	42	0	497025024	53	4114
2026-01-13 04:39:28.34	7.72	13.52	-41.4	-42.6	17.7	0.00e+00	0	42	0	504365056	53	4075
2026-01-13 04:39:29.33	7.66	13.62	-41.5	-42.7	17.6	0.00e+00	0	43	0	511705088	53	4133
2026-01-13 04:39:30.33	7.60	13.71	-41.1	-42.3	18.0	0.00e+00	0	42	0	519045120	53	3923
2026-01-13 04:39:31.32	7.54	13.81	-41.3	-42.5	17.8	0.00e+00	0	42	0	526385152	52	4257
2026-01-13 04:39:32.32	7.48	13.91	-41.2	-42.4	18.0	0.00e+00	0	42	0	532676608	52	4204
2026-01-13 04:39:33.31	7.42	14.00	-41.2	-42.3	18.0	0.00e+00	0	42	0	540016640	52	4191
2026-01-13 04:39:34.31	7.36	14.10	-41.5	-42.7	17.7	0.00e+00	0	42	0	547356672	52	4356
2026-01-13 04:39:35.30	7.30	14.20	-41.4	-42.6	17.8	0.00e+00	0	43	0	554696704	52	4301
2026-01-13 04:39:36.30	7.24	14.30	-41.3	-42.5	17.9	0.00e+00	0	43	0	562036736	52	4255
2026-01-13 04:39:37.30	7.18	14.39	-41.0	-42.2	18.1	0.00e+00	0	43	0	569376768	52	4108
2026-01-13 04:39:38.29	7.11	14.49	-41.1	-42.3	18.1	0.00e+00	0	42	0	576716800	52	4176
2026-01-13 04:39:39.28	7.05	14.59	-40.9	-42.0	18.3	0.00e+00	0	42	0	584056832	52	4047
2026-01-13 04:39:40.27	6.99	14.69	-41.0	-42.1	18.3	0.00e+00	0	43	0	590348288	52	4086
2026-01-13 04:39:41.30	6.92	14.79	-40.9	-42.0	18.3	0.00e+00	0	42	0	597688320	52	4041
2026-01-13 04:39:42.30	6.86	14.89	-41.0	-42.1	18.3	0.00e+00	0	42	0	605028352	52	4076
2026-01-13 04:39:43.36	6.79	15.00	-40.8	-42.0	18.4	0.00e+00	0	43	0	612368384	52	4010
2026-01-13 04:39:44.21	6.73	15.09	-40.7	-41.8	18.5	0.00e+00	0	43	0	618659840	52	3955
2026-01-13 04:39:45.35	6.66	15.20	-40.8	-41.9	18.5	0.00e+00	0	42	0	627048448	52	3975
2026-01-13 04:39:46.20	6.60	15.29	-40.8	-42.0	18.4	0.00e+00	0	43	0	633339904	52	4016
2026-01-13 04:39:47.34	6.52	15.41	-40.8	-41.9	18.5	0.00e+00	0	42	0	641728512	51	4203
2026-01-13 04:39:48.19	6.47	15.49	-40.8	-41.9	18.5	0.00e+00	0	43	0	648019968	51	4218
2026-01-13 04:39:49.33	6.39	15.61	-40.8	-41.9	18.6	0.00e+00	0	43	0	656408576	51	4203
2026-01-13 04:39:50.18	6.33	15.70	-40.6	-41.7	18.7	0.00e+00	0	42	0	662700032	51	4116
2026-01-13 04:39:51.32	6.25	15.82	-40.7	-41.8	18.7	0.00e+00	0	43	0	670040064	51	4147
2026-01-13 04:39:52.17	6.19	15.91	-40.8	-41.9	18.5	0.00e+00	0	43	0	676331520	51	4231
2026-01-13 04:39:53.30	6.11	16.02	-40.7	-41.8	18.7	0.00e+00	0	43	0	684720128	51	4154
2026-01-13 04:39:54.16	6.05	16.12	-40.6	-41.7	18.8	0.00e+00	0	42	0	691011584	51	4111
2026-01-13 04:39:55.30	5.97	16.24	-40.7	-41.7	18.7	0.00e+00	0	42	0	699400192	51	4141
2026-01-13 04:39:56.15	5.91	16.33	-40.6	-41.7	18.8	0.00e+00	0	42	0	705691648	51	4117
2026-01-13 04:39:57.29	5.83	16.45	-40.8	-41.9	18.5	0.00e+00	0	43	0	714080256	51	4226
2026-01-13 04:39:58.14	5.77	16.54	-40.4	-41.5	18.9	0.00e+00	0	43	0	719323136	51	4033
2026-01-13 04:39:59.28	5.69	16.66	-40.6	-41.7	18.7	0.00e+00	0	42	0	727711744	51	4128
2026-01-13 04:40:00.19	5.62	16.76	-40.5	-41.6	18.9	0.00e+00	0	43	0	734003200	51	4057
2026-01-13 04:40:01.36	5.53	16.89	-40.5	-41.6	18.8	0.00e+00	0	42	0	742391808	51	4073
2026-01-13 04:40:02.25	5.47	16.98	-40.5	-41.6	18.8	0.00e+00	0	42	0	749731840	51	4071
2026-01-13 04:40:03.38	5.38	17.11	-40.4	-41.5	18.9	0.00e+00	0	43	0	758120448	51	4051
2026-01-13 04:40:04.30	5.31	17.21	-40.2	-41.3	19.2	0.00e+00	0	43	0	764411904	51	3916
2026-01-13 04:40:05.46	5.22	17.33	-40.6	-41.7	18.7	0.00e+00	0	42	0	772800512	51	4123
2026-01-13 04:40:06.35	5.15	17.43	-40.4	-41.5	18.9	0.00e+00	0	42	0	779091968	51	4026
2026-01-13 04:40:07.49	5.06	17.56	-40.4	-41.5	18.9	0.00e+00	0	43	0	787480576	51	4051
2026-01-13 04:40:08.34	5.00	17.65	-40.3	-41.3	19.1	0.00e+00	0	43	0	793772032	51	3952
2026-01-13 04:40:09.70	4.89	17.81	-40.2	-41.3	19.2	0.00e+00	0	43	0	803209216	51	3928
2026-01-13 04:40:10.41	4.83	17.88	-40.1	-41.2	19.2	0.00e+00	0	43	0	808452096	51	3878
2026-01-13 04:40:11.69	4.73	18.03	-40.3	-41.3	19.2	0.00e+00	0	43	0	817889280	51	3948
2026-01-13 04:40:12.40	4.67	18.11	-40.2	-41.3	19.2	0.00e+00	0	43	0	822083584	51	3933
2026-01-13 04:40:13.68	4.57	18.26	-40.3	-41.4	19.1	0.00e+00	0	43	0	831520768	51	3974
2026-01-13 04:40:14.39	4.51	18.34	-40.3	-41.4	19.1	0.00e+00	0	43	0	836763648	51	3964
2026-01-13 04:40:15.67	4.40	18.48	-40.0	-41.1	19.4	0.00e+00	0	43	0	846200832	50	4070
2026-01-13 04:40:16.50	4.33	18.58	-40.1	-41.2	19.3	0.00e+00	0	43	0	852492288	50	4107
2026-01-13 04:40:17.63	4.24	18.71	-40.2	-41.3	19.2	0.00e+00	0	43	0	860880896	50	4153
2026-01-13 04:40:18.49	4.17	18.81	-40.2	-41.3	19.2	0.00e+00	0	43	0	866123776	50	4150
2026-01-13 04:40:19.62	4.07	18.94	-40.1	-41.2	19.3	0.00e+00	0	43	0	874512384	50	4113
2026-01-13 04:40:20.48	4.00	19.04	-40.2	-41.3	19.3	0.00e+00	0	43	0	880803840	50	4156
2026-01-13 04:40:21.62	3.90	19.17	-40.1	-41.1	19.4	0.00e+00	0	43	0	889192448	50	4072
2026-01-13 04:40:22.82	3.79	19.32	-39.9	-41.0	19.5	0.00e+00	0	42	0	897581056	50	4005
2026-01-13 04:40:23.67	3.72	19.42	-39.8	-40.8	19.7	0.00e+00	0	43	0	903872512	50	3935
2026-01-13 04:40:24.81	3.61	19.55	-40.0	-41.0	19.5	0.00e+00	0	43	0	912261120	50	4023
2026-01-13 04:40:25.66	3.54	19.65	-39.9	-40.9	19.6	0.00e+00	0	43	0	918552576	50	3982
2026-01-13 04:40:26.80	3.43	19.79	-39.6	-40.6	19.8	0.00e+00	0	43	0	926941184	50	3868
2026-01-13 04:40:27.65	3.36	19.89	-39.9	-40.9	19.6	0.00e+00	0	43	0	932184064	50	3997
2026-01-13 04:40:28.79	3.25	20.03	-39.8	-40.8	19.7	0.00e+00	0	43	0	940572672	50	3952
2026-01-13 04:40:29.64	3.17	20.14	-39.9	-41.0	19.5	0.00e+00	0	43	0	946864128	50	4011
2026-01-13 04:40:30.78	3.07	20.27	-39.9	-40.9	19.6	0.00e+00	0	43	0	955252736	50	3989
2026-01-13 04:40:31.63	2.99	20.38	-39.9	-41.0	19.5	0.00e+00	0	43	0	961544192	50	4017
2026-01-13 04:40:32.76	2.88	20.52	-40.0	-41.1	19.5	0.00e+00	0	43	0	969932800	50	4067
2026-01-13 04:40:33.70	2.79	20.63	-39.9	-41.0	19.5	0.00e+00	0	43	0	976224256	50	4015
2026-01-13 04:40:34.88	2.67	20.78	-39.9	-40.9	19.7	0.00e+00	0	43	0	984612864	50	3977
2026-01-13 04:40:35.73	2.59	20.89	-40.0	-41.1	19.5	0.00e+00	0	43	0	990904320	50	4053
2026-01-13 04:40:37.05	2.46	21.05	-40.0	-41.0	19.6	0.00e+00	0	43	0	1000341504	50	4019
2026-01-13 04:40:37.76	2.39	21.14	-39.9	-40.9	19.7	0.00e+00	0	43	0	1005584384	50	3969
2026-01-13 04:40:39.26	2.24	21.33	-40.0	-41.0	19.6	0.00e+00	0	43	0	1016070144	50	4022
2026-01-13 04:40:39.97	2.17	21.42	-40.0	-41.0	19.5	0.00e+00	0	43	0	1021313024	50	4045
2026-01-13 04:40:41.25	2.04	21.58	-40.1	-41.1	19.5	0.00e+00	0	43	0	1030750208	50	4072
2026-01-13 04:40:41.96	1.96	21.68	-40.0	-41.0	19.6	0.00e+00	0	43	0	1035993088	50	4034
2026-01-13 04:40:43.24	1.83	21.84	-39.9	-41.0	19.6	0.00e+00	0	43	0	1045430272	50	4008
2026-01-13 04:40:43.96	1.75	21.93	-40.0	-41.0	19.6	0.00e+00	0	43	0	1050673152	50	4023
2026-01-13 04:40:45.24	1.62	22.10	-40.0	-41.1	19.5	0.00e+00	0	43	0	1060110336	50	4053
2026-01-13 04:40:45.97	1.54	22.19	-40.0	-41.0	19.6	0.00e+00	0	43	0	1064304640	50	4028
2026-01-13 04:40:47.24	1.40	22.36	-40.0	-41.0	19.6	0.00e+00	0	43	0	1073741824	50	4019
2026-01-13 04:40:47.97	1.33	22.46	-40.1	-41.1	19.5	0.00e+00	0	43	0	1080033280	50	4074
2026-01-13 04:40:49.25	1.19	22.63	-40.0	-41.1	19.5	0.00e+00	0	43	0	1088421888	50	4066
2026-01-13 04:40:49.96	1.11	22.72	-39.8	-40.9	19.7	0.00e+00	0	43	0	1093664768	50	3968
2026-01-13 04:40:51.24	0.96	22.89	-39.8	-40.8	19.7	0.00e+00	0	43	0	1103101952	50	3942
2026-01-13 04:40:51.95	0.88	22.99	-39.8	-40.8	19.8	0.00e+00	0	43	0	1108344832	50	3932
2026-01-13 04:40:53.23	0.74	23.16	-39.8	-40.8	19.7	0.00e+00	0	43	0	1117782016	50	3948
2026-01-13 04:40:53.95	0.66	23.25	-39.9	-40.9	19.7	0.00e+00	0	43	0	1123024896	50	3994
2026-01-13 04:40:55.23	0.51	23.43	-39.8	-40.9	19.7	0.00e+00	0	43	0	1131413504	50	3972
2026-01-13 04:40:56.20	0.40	23.56	-39.9	-41.0	19.6	0.00e+00	0	43	0	1138753536	50	4007
2026-01-13 04:40:57.19	0.28	23.70	-39.8	-40.9	19.7	0.00e+00	0	43	0	1146093568	50	3968
2026-01-13 04:40:58.19	0.16	23.83	-39.7	-40.8	19.8	0.00e+00	0	43	0	1153433600	50	3918
2026-01-13 04:40:59.18	0.04	23.97	-39.7	-40.7	19.9	0.00e+00	0	43	0	1160773632	50	3893
2026-01-13 04:41:00.17	359.92	24.11	-39.6	-40.7	19.9	0.00e+00	0	43	0	1167065088	49	4110
2026-01-13 04:41:01.15	359.80	24.24	-39.6	-40.6	19.9	0.00e+00	0	43	0	1174405120	49	4076
2026-01-13 04:41:02.14	359.68	24.38	-39.6	-40.7	19.9	0.00e+00	0	43	0	1181745152	49	4113
2026-01-13 04:41:03.16	359.55	24.52	-39.6	-40.7	19.9	0.00e+00	0	43	0	1189085184	49	4112
2026-01-13 04:41:04.18	359.43	24.67	-39.6	-40.7	19.9	0.00e+00	0	43	0	1196425216	49	4102
2026-01-13 04:41:05.18	359.30	24.81	-39.7	-40.7	19.9	0.00e+00	0	43	0	1203765248	49	4122
2026-01-13 04:41:06.24	359.16	24.96	-39.6	-40.6	19.9	0.00e+00	0	43	0	1211105280	49	4091
2026-01-13 04:41:07.14	359.05	25.09	-39.6	-40.6	20.0	0.00e+00	0	43	0	1217396736	49	4072
2026-01-13 04:41:08.24	358.90	25.25	-39.6	-40.6	19.9	0.00e+00	0	43	0	1225785344	49	4092
2026-01-13 04:41:09.09	358.79	25.37	-39.7	-40.6	19.9	0.00e+00	0	43	0	1232076800	49	4098
2026-01-13 04:41:10.23	358.64	25.53	-39.9	-40.9	19.7	0.00e+00	0	43	0	1240465408	49	4207
2026-01-13 04:41:11.08	358.53	25.66	-39.5	-40.4	20.1	0.00e+00	0	43	0	1246756864	49	3996
2026-01-13 04:41:12.22	358.37	25.82	-39.5	-40.4	20.1	0.00e+00	0	43	0	1255145472	49	3999
2026-01-13 04:41:13.07	358.26	25.95	-39.4	-40.4	20.2	0.00e+00	0	43	0	1260388352	49	3959
2026-01-13 04:41:14.21	358.10	26.12	-39.3	-40.2	20.3	0.00e+00	0	43	0	1268776960	49	3906
2026-01-13 04:41:15.06	357.98	26.24	-39.3	-40.3	20.2	0.00e+00	0	43	0	1275068416	49	3932
2026-01-13 04:41:16.20	357.82	26.41	-39.3	-40.3	20.2	0.00e+00	0	43	0	1283457024	49	3942
2026-01-13 04:41:17.05	357.70	26.54	-39.3	-40.3	20.2	0.00e+00	0	43	0	1289748480	49	3929
2026-01-13 04:41:18.19	357.54	26.71	-39.3	-40.3	20.2	0.00e+00	0	43	0	1297088512	49	3938
2026-01-13 04:41:19.04	357.42	26.83	-39.3	-40.3	20.2	0.00e+00	0	43	0	1303379968	49	3940
2026-01-13 04:41:20.18	357.25	27.01	-39.2	-40.1	20.4	0.00e+00	0	43	0	1311768576	49	3863
2026-01-13 04:41:21.03	357.13	27.14	-39.2	-40.1	20.4	0.00e+00	0	43	0	1318060032	48	4086
2026-01-13 04:41:22.17	356.96	27.31	-39.1	-40.1	20.4	0.00e+00	0	43	0	1326448640	48	4061
2026-01-13 04:41:23.02	356.83	27.44	-39.0	-39.9	20.7	0.00e+00	0	43	0	1332740096	48	3976
2026-01-13 04:41:24.16	356.66	27.61	-38.8	-39.7	20.8	0.00e+00	0	43	0	1340080128	48	3896
2026-01-13 04:41:25.01	356.53	27.74	-38.8	-39.7	20.8	0.00e+00	0	43	0	1346371584	48	3877
2026-01-13 04:41:26.15	356.35	27.92	-38.6	-39.6	20.6	0.00e+00	0	43	0	1354760192	47	4060
2026-01-13 04:41:27.00	356.22	28.05	-38.7	-39.6	20.6	0.00e+00	0	43	0	1361051648	47	4074
2026-01-13 04:41:28.14	356.04	28.23	-38.6	-39.5	20.7	0.00e+00	0	43	0	1369440256	47	4017
2026-01-13 04:41:28.99	355.90	28.36	-38.5	-39.4	20.7	0.00e+00	0	43	0	1375731712	47	3994
2026-01-13 04:41:30.13	355.72	28.54	-38.5	-39.4	20.8	0.00e+00	0	43	0	1384120320	47	3978
2026-01-13 04:41:30.98	355.58	28.68	-38.3	-39.2	20.9	0.00e+00	0	43	0	1390411776	47	3901
2026-01-13 04:41:32.12	355.39	28.86	-38.5	-39.4	20.7	0.00e+00	0	43	0	1397751808	46	4235
2026-01-13 04:41:33.33	355.19	29.05	-38.5	-39.4	20.8	0.00e+00	0	43	0	1407188992	46	4223
2026-01-13 04:41:34.19	355.05	29.19	-38.7	-39.6	20.6	0.00e+00	0	43	0	1413480448	46	4310
2026-01-13 04:41:35.32	354.86	29.37	-38.6	-39.5	20.7	0.00e+00	0	43	0	1421869056	46	4286
2026-01-13 04:41:36.18	354.71	29.51	-38.9	-39.8	20.4	0.00e+00	0	43	0	1427111936	47	4193
2026-01-13 04:41:37.32	354.51	29.69	-38.8	-39.7	20.5	0.00e+00	0	43	0	1435500544	47	4136
2026-01-13 04:41:38.17	354.36	29.83	-38.9	-39.8	20.4	0.00e+00	0	43	0	1441792000	47	4192
2026-01-13 04:41:39.30	354.17	30.01	-39.0	-40.0	20.3	0.00e+00	0	43	0	1450180608	47	4243
2026-01-13 04:41:40.16	354.01	30.15	-39.0	-40.0	20.3	0.00e+00	0	43	0	1456472064	47	4263
2026-01-13 04:41:41.31	353.80	30.34	-39.1	-40.0	20.2	0.00e+00	0	43	0	1464860672	47	4291
2026-01-13 04:41:42.16	353.65	30.48	-39.2	-40.2	20.4	0.00e+00	0	43	0	1470103552	48	4120
2026-01-13 04:41:43.43	353.42	30.69	-39.4	-40.4	20.2	0.00e+00	0	43	0	1479540736	48	4213
2026-01-13 04:41:44.20	353.27	30.82	-39.5	-40.5	20.2	0.00e+00	0	43	0	1484783616	48	4253
2026-01-13 04:41:45.48	353.03	31.03	-39.4	-40.4	20.2	0.00e+00	0	43	0	1494220800	48	4213
2026-01-13 04:41:46.22	352.89	31.16	-39.4	-40.4	20.2	0.00e+00	0	43	0	1500512256	48	4212
2026-01-13 04:41:47.50	352.65	31.37	-39.5	-40.4	20.2	0.00e+00	0	43	0	1508900864	49	4002
2026-01-13 04:41:48.21	352.51	31.49	-39.3	-40.3	20.3	0.00e+00	0	43	0	1514143744	49	3928
2026-01-13 04:41:49.49	352.26	31.71	-39.4	-40.3	20.2	0.00e+00	0	43	0	1523580928	49	3958
2026-01-13 04:41:50.21	352.11	31.83	-39.4	-40.3	20.3	0.00e+00	0	43	0	1528823808	49	3936
2026-01-13 04:41:51.49	351.86	32.05	-39.3	-40.2	20.4	0.00e+00	0	43	0	1538260992	49	3906
2026-01-13 04:41:52.22	351.71	32.17	-38.9	-39.8	20.8	0.00e+00	0	43	0	1543503872	48	3924
2026-01-13 04:41:53.78	351.39	32.44	-38.9	-39.8	20.7	0.00e+00	0	43	0	1555038208	48	3957
2026-01-13 04:41:54.44	351.25	32.55	-38.8	-39.8	20.8	0.00e+00	0	43	0	1559232512	48	3918
2026-01-13 04:41:55.97	350.93	32.82	-38.7	-39.7	20.9	0.00e+00	0	43	0	1570766848	48	3876
2026-01-13 04:41:56.68	350.78	32.94	-38.7	-39.7	20.9	0.00e+00	0	43	0	1576009728	48	3877
2026-01-13 04:41:57.97	350.50	33.17	-38.6	-39.5	20.7	0.00e+00	0	43	0	1584398336	47	4044
2026-01-13 04:41:58.69	350.35	33.29	-38.6	-39.5	20.7	0.00e+00	0	43	0	1589641216	47	4034
2026-01-13 04:41:59.97	350.07	33.52	-38.5	-39.4	20.8	0.00e+00	0	43	0	1599078400	47	3999
2026-01-13 04:42:00.68	349.91	33.64	-38.5	-39.5	20.8	0.00e+00	0	43	0	1604321280	47	4010
2026-01-13 04:42:01.96	349.62	33.86	-38.7	-39.7	20.6	0.00e+00	0	43	0	1613758464	47	4117
2026-01-13 04:42:02.67	349.46	33.99	-38.6	-39.5	20.7	0.00e+00	0	43	0	1619001344	47	4045
2026-01-13 04:42:03.95	349.17	34.22	-38.7	-39.7	20.5	0.00e+00	0	43	0	1627389952	47	4119
2026-01-13 04:42:04.66	349.00	34.34	-38.7	-39.7	20.6	0.00e+00	0	43	0	1632632832	47	4118
2026-01-13 04:42:05.94	348.70	34.57	-38.9	-39.9	20.4	0.00e+00	0	43	0	1642070016	47	4200
2026-01-13 04:42:06.66	348.53	34.70	-38.7	-39.6	20.6	0.00e+00	0	43	0	1647312896	47	4095
2026-01-13 04:42:08.26	348.15	34.99	-38.8	-39.7	20.6	0.00e+00	0	43	0	1658847232	47	4134
2026-01-13 04:42:08.83	348.01	35.09	-38.7	-39.6	20.7	0.00e+00	0	43	0	1663041536	47	4076
2026-01-13 04:42:10.53	347.59	35.39	-38.8	-39.7	20.5	0.00e+00	0	43	0	1675624448	47	4131
2026-01-13 04:42:11.10	347.45	35.50	-38.9	-39.8	20.5	0.00e+00	0	43	0	1679818752	47	4175
2026-01-13 04:42:12.81	347.01	35.81	-38.9	-39.8	20.5	0.00e+00	0	43	0	1691353088	47	4183
2026-01-13 04:42:13.38	346.87	35.91	-39.3	-40.3	20.4	0.00e+00	0	43	0	1695547392	48	4169
2026-01-13 04:42:15.08	346.43	36.22	-39.3	-40.3	20.4	0.00e+00	0	43	0	1708130304	48	4165
2026-01-13 04:42:15.65	346.28	36.32	-39.4	-40.3	20.3	0.00e+00	0	43	0	1712324608	48	4190
2026-01-13 04:42:17.39	345.82	36.64	-39.4	-40.4	20.3	0.00e+00	0	43	0	1724907520	48	4205
2026-01-13 04:42:17.95	345.66	36.74	-39.6	-40.6	20.1	0.00e+00	0	43	0	1729101824	48	4332
2026-01-13 04:42:19.66	345.20	37.05	-39.3	-40.2	20.4	0.00e+00	0	43	0	1741684736	48	4134
2026-01-13 04:42:20.22	345.04	37.16	-39.2	-40.2	20.5	0.00e+00	0	43	0	1745879040	48	4103
2026-01-13 04:42:21.96	344.56	37.48	-39.2	-40.1	20.5	0.00e+00	0	43	0	1757413376	48	4084
2026-01-13 04:42:22.53	344.39	37.58	-39.1	-40.0	20.6	0.00e+00	0	43	0	1761607680	48	4032
2026-01-13 04:42:24.23	343.90	37.89	-39.6	-40.5	20.1	0.00e+00	0	43	0	1774190592	48	4285
2026-01-13 04:42:24.80	343.74	38.00	-39.4	-40.4	20.3	0.00e+00	0	43	0	1778384896	48	4207
2026-01-13 04:42:26.58	343.21	38.33	-39.2	-40.2	20.5	0.00e+00	0	43	0	1790967808	48	4107
2026-01-13 04:42:27.15	343.04	38.43	-39.3	-40.3	20.4	0.00e+00	0	43	0	1795162112	48	4154
2026-01-13 04:42:28.86	342.52	38.75	-39.4	-40.3	20.3	0.00e+00	0	43	0	1807745024	48	4185
2026-01-13 04:42:29.56	342.31	38.88	-39.3	-40.2	20.5	0.00e+00	0	43	0	1812987904	48	4125
2026-01-13 04:42:30.96	341.87	39.14	-39.3	-40.2	20.4	0.00e+00	0	43	0	1822425088	48	4132
2026-01-13 04:42:31.67	341.65	39.27	-39.4	-40.3	20.4	0.00e+00	0	43	0	1827667968	48	4185
2026-01-13 04:42:32.95	341.24	39.51	-39.3	-40.2	20.4	0.00e+00	0	43	0	1837105152	48	4132
2026-01-13 04:42:33.67	341.01	39.64	-39.1	-40.0	20.6	0.00e+00	0	43	0	1842348032	48	4017
2026-01-13 04:42:34.95	340.59	39.88	-39.3	-40.3	20.4	0.00e+00	0	43	0	1851785216	48	4159
2026-01-13 04:42:35.66	340.36	40.01	-39.4	-40.4	20.3	0.00e+00	0	43	0	1857028096	48	4207
2026-01-13 04:42:36.94	339.93	40.24	-39.4	-40.4	20.3	0.00e+00	0	43	0	1866465280	48	4224
2026-01-13 04:42:37.69	339.68	40.38	-39.4	-40.3	20.3	0.00e+00	0	43	0	1871708160	48	4175
2026-01-13 04:42:38.97	339.24	40.62	-39.3	-40.2	20.4	0.00e+00	0	43	0	1881145344	49	3899
2026-01-13 04:42:39.68	339.00	40.75	-39.5	-40.5	20.2	0.00e+00	0	43	0	1886388224	49	4005
2026-01-13 04:42:41.16	338.48	41.02	-39.7	-40.6	20.1	0.00e+00	0	43	0	1896873984	49	4089
2026-01-13 04:42:41.87	338.23	41.15	-39.8	-40.8	20.0	0.00e+00	0	43	0	1902116864	49	4172
2026-01-13 04:42:43.23	337.74	41.40	-40.0	-40.9	19.8	0.00e+00	0	43	0	1911554048	49	4238
2026-01-13 04:42:43.94	337.48	41.53	-39.9	-40.9	19.9	0.00e+00	0	43	0	1916796928	49	4233
2026-01-13 04:42:45.27	336.99	41.77	-39.6	-40.5	20.2	0.00e+00	0	43	0	1926234112	49	4036
2026-01-13 04:42:45.98	336.73	41.90	-39.3	-40.3	20.4	0.00e+00	0	43	0	1931476992	49	3925
2026-01-13 04:42:47.26	336.25	42.13	-39.2	-40.1	20.5	0.00e+00	0	43	0	1940914176	49	3857
2026-01-13 04:42:47.97	335.98	42.26	-39.1	-40.0	20.6	0.00e+00	0	43	0	1946157056	49	3799
2026-01-13 04:42:49.25	335.49	42.49	-38.4	-39.3	20.9	0.00e+00	0	43	0	1954545664	47	3946
2026-01-13 04:42:49.96	335.21	42.62	-38.9	-39.9	20.4	0.00e+00	0	43	0	1959788544	47	4218
2026-01-13 04:42:51.24	334.71	42.85	-38.8	-39.8	20.5	0.00e+00	0	43	0	1969225728	47	4160
2026-01-13 04:42:51.96	334.42	42.98	-39.0	-39.9	20.4	0.00e+00	0	43	0	1974468608	47	4236
2026-01-13 04:42:53.24	333.91	43.21	-38.9	-39.8	20.5	0.00e+00	0	43	0	1983905792	47	4173
2026-01-13 04:42:54.00	333.60	43.34	-38.9	-39.9	20.5	0.00e+00	0	43	0	1989148672	47	4196
2026-01-13 04:42:55.28	333.07	43.57	-38.9	-39.8	20.5	0.00e+00	0	43	0	1998585856	47	4166
2026-01-13 04:42:55.99	332.78	43.69	-39.0	-39.9	20.4	0.00e+00	0	43	0	2003828736	47	4226
2026-01-13 04:42:57.27	332.24	43.91	-39.2	-40.1	20.3	0.00e+00	0	43	0	2013265920	47	4336
2026-01-13 04:42:58.11	331.88	44.06	-39.6	-40.5	20.2	0.00e+00	0	43	0	2018508800	48	4268
2026-01-13 04:42:59.24	331.40	44.25	-39.7	-40.6	20.1	0.00e+00	0	43	0	2026897408	49	4083
2026-01-13 04:43:00.29	330.94	44.43	-40.0	-41.0	19.8	0.00e+00	0	43	0	2034237440	49	4254
2026-01-13 04:43:01.40	330.45	44.62	-39.9	-40.9	19.8	0.00e+00	0	43	0	2042626048	49	4223
2026-01-13 04:43:02.33	330.04	44.78	-40.0	-41.0	19.8	0.00e+00	0	43	0	2048917504	49	4271
2026-01-13 04:43:03.33	329.59	44.95	-39.7	-40.7	20.0	0.00e+00	0	43	0	2056257536	49	4122
2026-01-13 04:43:04.32	329.14	45.11	-39.6	-40.6	20.1	0.00e+00	0	43	0	2063597568	49	4081
2026-01-13 04:43:05.32	328.68	45.28	-39.5	-40.5	20.2	0.00e+00	0	43	0	2070937600	49	4031
2026-01-13 04:43:06.31	328.22	45.44	-39.6	-40.5	20.2	0.00e+00	0	43	0	2078277632	49	4045
2026-01-13 04:43:07.31	327.76	45.60	-39.6	-40.6	20.1	0.00e+00	0	43	0	2085617664	49	4076
2026-01-13 04:43:08.30	327.29	45.76	-39.6	-40.5	20.2	0.00e+00	0	43	0	2091909120	49	4039
2026-01-13 04:43:09.30	326.81	45.92	-39.4	-40.4	20.3	0.00e+00	0	43	0	2099249152	49	3972
2026-01-13 04:43:10.29	326.33	46.07	-39.6	-40.5	20.2	0.00e+00	0	43	0	2106589184	49	4035
2026-01-13 04:43:11.29	325.84	46.23	-39.4	-40.4	20.3	0.00e+00	0	43	0	2113929216	49	3967
2026-01-13 04:43:12.28	325.36	46.38	-39.5	-40.4	20.3	0.00e+00	0	43	0	2121269248	49	4001
2026-01-13 04:43:13.28	324.86	46.54	-39.7	-40.6	20.1	0.00e+00	0	43	0	2128609280	49	4096
2026-01-13 04:43:14.27	324.36	46.68	-39.8	-40.7	19.9	0.00e+00	0	43	0	2135949312	49	4137
2026-01-13 04:43:15.34	323.82	46.84	-40.0	-41.0	19.7	0.00e+00	0	43	0	2143289344	49	4277
2026-01-13 04:43:16.20	323.38	46.97	-40.1	-41.1	19.7	0.00e+00	0	43	0	2149580800	49	4328
2026-01-13 04:43:17.33	322.79	47.13	-40.1	-41.1	19.7	0.00e+00	0	43	0	2157969408	49	4320
2026-01-13 04:43:18.19	322.35	47.26	-40.0	-41.0	19.8	0.00e+00	0	43	0	2164260864	49	4258
2026-01-13 04:43:19.32	321.75	47.42	-39.8	-40.8	19.9	0.00e+00	0	43	0	2172649472	49	4177
2026-01-13 04:43:20.18	321.29	47.53	-39.7	-40.6	20.1	0.00e+00	0	43	0	2177892352	49	4090
2026-01-13 04:43:21.31	320.69	47.69	-39.6	-40.5	20.2	0.00e+00	0	43	0	2186280960	49	4029
2026-01-13 04:43:22.16	320.23	47.80	-39.7	-40.6	20.2	0.00e+00	0	43	0	2192572416	49	4086
2026-01-13 04:43:23.30	319.61	47.95	-40.1	-41.1	19.7	0.00e+00	0	43	0	2200961024	49	4297
2026-01-13 04:43:24.16	319.14	48.06	-40.2	-41.2	19.6	0.00e+00	0	43	0	2207252480	50	4137
2026-01-13 04:43:25.29	318.51	48.21	-40.4	-41.5	19.3	0.00e+00	0	43	0	2214592512	50	4260
2026-01-13 04:43:26.14	318.03	48.31	-40.4	-41.4	19.4	0.00e+00	0	43	0	2220883968	50	4239
2026-01-13 04:43:27.28	317.39	48.45	-40.4	-41.4	19.4	0.00e+00	0	43	0	2229272576	50	4239
2026-01-13 04:43:28.13	316.91	48.55	-40.1	-41.1	19.7	0.00e+00	0	43	0	2235564032	50	4083
2026-01-13 04:43:29.26	316.26	48.68	-40.0	-41.0	19.8	0.00e+00	0	43	0	2243952640	50	4021
2026-01-13 04:43:30.12	315.77	48.78	-40.0	-41.0	19.8	0.00e+00	0	43	0	2250244096	50	4028
2026-01-13 04:43:31.26	315.11	48.90	-40.1	-41.1	19.7	0.00e+00	0	43	0	2257584128	50	4080
2026-01-13 04:43:32.20	314.56	49.00	-40.5	-41.6	19.3	0.00e+00	0	43	0	2264924160	50	4293
2026-01-13 04:43:33.37	313.87	49.13	-40.9	-42.0	19.0	0.00e+00	0	43	0	2273312768	51	4259
2026-01-13 04:43:34.23	313.36	49.21	-41.0	-42.1	18.8	0.00e+00	0	43	0	2279604224	51	4315
2026-01-13 04:43:35.36	312.68	49.32	-40.9	-42.0	18.9	0.00e+00	0	43	0	2287992832	51	4265
2026-01-13 04:43:36.31	312.11	49.41	-40.7	-41.7	19.2	0.00e+00	0	43	0	2294284288	51	4138
2026-01-13 04:43:37.31	311.51	49.50	-40.9	-41.9	19.0	0.00e+00	0	43	0	2301624320	51	4227
2026-01-13 04:43:38.30	310.90	49.59	-40.6	-41.7	19.2	0.00e+00	0	43	0	2308964352	51	4103
2026-01-13 04:43:39.30	310.29	49.68	-41.0	-42.0	18.9	0.00e+00	0	43	0	2316304384	51	4289
2026-01-13 04:43:40.29	309.68	49.76	-41.0	-42.0	18.9	0.00e+00	0	43	0	2323644416	51	4273
2026-01-13 04:43:41.29	309.07	49.84	-40.7	-41.8	19.2	0.00e+00	0	43	0	2330984448	51	4150
2026-01-13 04:43:42.29	308.44	49.91	-40.6	-41.6	19.3	0.00e+00	0	43	0	2337275904	51	4087
2026-01-13 04:43:43.28	307.83	49.98	-40.6	-41.6	19.3	0.00e+00	0	43	0	2344615936	51	4079
2026-01-13 04:43:44.27	307.21	50.05	-40.5	-41.5	19.4	0.00e+00	0	43	0	2351955968	51	4039
2026-01-13 04:43:45.27	306.58	50.11	-40.8	-41.8	19.1	0.00e+00	0	43	0	2359296000	51	4176
2026-01-13 04:43:46.27	305.94	50.17	-41.0	-42.1	18.9	0.00e+00	0	43	0	2366636032	51	4293
2026-01-13 04:43:47.26	305.31	50.23	-41.2	-42.3	18.6	0.00e+00	0	43	0	2373976064	52	4161
2026-01-13 04:43:48.26	304.68	50.28	-41.1	-42.2	18.7	0.00e+00	0	43	0	2380267520	52	4124
2026-01-13 04:43:49.25	304.04	50.33	-40.8	-41.9	19.0	0.00e+00	0	43	0	2387607552	52	3966
2026-01-13 04:43:50.24	303.41	50.38	-40.6	-41.6	19.3	0.00e+00	0	43	0	2394947584	52	3840
2026-01-13 04:43:51.24	302.76	50.42	-40.7	-41.7	19.3	0.00e+00	0	43	0	2402287616	51	4134
2026-01-13 04:43:52.24	302.12	50.46	-40.6	-41.6	19.4	0.00e+00	0	43	0	2409627648	51	4080
2026-01-13 04:43:53.43	301.35	50.50	-40.5	-41.5	19.4	0.00e+00	0	43	0	2418016256	51	4013
2026-01-13 04:43:54.32	300.77	50.53	-40.6	-41.6	19.4	0.00e+00	0	43	0	2424307712	51	4067
2026-01-13 04:43:55.63	299.92	50.56	-40.2	-41.2	19.7	0.00e+00	0	43	0	2433744896	51	3884
2026-01-13 04:43:56.34	299.46	50.58	-40.3	-41.3	19.6	0.00e+00	0	43	0	2438987776	51	3929
2026-01-13 04:43:57.84	298.48	50.60	-40.2	-41.1	19.8	0.00e+00	0	43	0	2450522112	51	3867
2026-01-13 04:43:58.55	298.02	50.61	-40.3	-41.3	19.7	0.00e+00	0	43	0	2454716416	51	3917
2026-01-13 04:43:59.83	297.18	50.62	-40.5	-41.5	19.5	0.00e+00	0	43	0	2464153600	51	4011
2026-01-13 04:44:00.54	296.72	50.63	-40.5	-41.5	19.4	0.00e+00	0	43	0	2469396480	51	4010
2026-01-13 04:44:01.82	295.88	50.63	-40.6	-41.6	19.3	0.00e+00	0	43	0	2478833664	51	4082
2026-01-13 04:44:02.55	295.40	50.63	-40.6	-41.7	19.3	0.00e+00	0	43	0	2484076544	51	4102
2026-01-13 04:44:03.83	294.57	50.62	-40.1	-41.1	19.9	0.00e+00	0	43	0	2493513728	50	4067
2026-01-13 04:44:04.54	294.10	50.61	-40.1	-41.1	19.8	0.00e+00	0	43	0	2498756608	50	4063
2026-01-13 04:44:05.82	293.27	50.59	-40.2	-41.2	19.7	0.00e+00	0	43	0	2508193792	50	4128
2026-01-13 04:44:06.55	292.79	50.58	-40.4	-41.4	19.6	0.00e+00	0	43	0	2512388096	50	4213
2026-01-13 04:44:07.83	291.96	50.55	-40.6	-41.7	19.3	0.00e+00	0	43	0	2521825280	50	4342
2026-01-13 04:44:08.60	291.46	50.53	-40.5	-41.5	19.5	0.00e+00	0	43	0	2528116736	50	4281
2026-01-13 04:44:10.17	290.44	50.48	-40.2	-41.2	19.7	0.00e+00	0	43	0	2538602496	50	4129
2026-01-13 04:44:10.80	290.03	50.46	-40.2	-41.2	19.7	0.00e+00	0	43	0	2543845376	50	4120
2026-01-13 04:44:12.46	288.96	50.40	-40.4	-41.3	19.6	0.00e+00	0	43	0	2555379712	50	4192
2026-01-13 04:44:13.03	288.59	50.37	-40.5	-41.5	19.5	0.00e+00	0	43	0	2559574016	50	4246
2026-01-13 04:44:14.73	287.50	50.29	-40.3	-41.3	19.6	0.00e+00	0	43	0	2572156928	50	4156
2026-01-13 04:44:15.30	287.14	50.26	-40.4	-41.4	19.6	0.00e+00	0	43	0	2576351232	50	4195
2026-01-13 04:44:17.01	286.05	50.17	-40.5	-41.5	19.5	0.00e+00	0	43	0	2587885568	50	4247
2026-01-13 04:44:17.57	285.70	50.13	-40.5	-41.5	19.5	0.00e+00	0	43	0	2593128448	50	4285
2026-01-13 04:44:19.28	284.62	50.02	-40.4	-41.4	19.6	0.00e+00	0	43	0	2604662784	50	4230
2026-01-13 04:44:19.85	284.26	49.98	-40.3	-41.3	19.6	0.00e+00	0	43	0	2608857088	50	4187
2026-01-13 04:44:21.56	283.19	49.86	-40.4	-41.4	19.6	0.00e+00	0	43	0	2621440000	50	4195
2026-01-13 04:44:22.13	282.84	49.82	-40.3	-41.3	19.7	0.00e+00	0	43	0	2625634304	50	4152
2026-01-13 04:44:23.99	281.69	49.66	-40.2	-41.2	19.8	0.00e+00	0	43	0	2639265792	50	4111
2026-01-13 04:44:24.56	281.34	49.62	-40.3	-41.2	19.7	0.00e+00	0	43	0	2642411520	50	4141
2026-01-13 04:44:26.26	280.31	49.47	-40.5	-41.5	19.5	0.00e+00	0	43	0	2654994432	50	4252
2026-01-13 04:44:26.83	279.96	49.41	-40.8	-41.9	19.1	0.00e+00	0	43	0	2659188736	51	4210
2026-01-13 04:44:28.54	278.94	49.25	-40.6	-41.6	19.3	0.00e+00	0	43	0	2671771648	51	4085
2026-01-13 04:44:29.11	278.60	49.19	-40.7	-41.7	19.3	0.00e+00	0	43	0	2675965952	51	4128
2026-01-13 04:44:31.16	277.39	48.98	-40.5	-41.5	19.5	0.00e+00	0	43	0	2690646016	51	4030
2026-01-13 04:44:31.73	277.05	48.92	-40.4	-41.4	19.6	0.00e+00	0	43	0	2694840320	51	3993
2026-01-13 04:44:33.43	276.06	48.73	-40.5	-41.5	19.6	0.00e+00	0	43	0	2707423232	51	4007
2026-01-13 04:44:34.00	275.74	48.67	-40.3	-41.3	19.6	0.00e+00	0	43	0	2710568960	51	3935
2026-01-13 04:44:35.71	274.76	48.47	-40.0	-41.0	20.0	0.00e+00	0	43	0	2723151872	50	4020
2026-01-13 04:44:36.28	274.44	48.40	-39.8	-40.8	20.2	0.00e+00	0	43	0	2727346176	50	3931
2026-01-13 04:44:37.98	273.48	48.19	-39.7	-40.7	20.3	0.00e+00	0	43	0	2739929088	50	3871
2026-01-13 04:44:38.55	273.16	48.11	-39.7	-40.7	20.2	0.00e+00	0	43	0	2744123392	50	3878
2026-01-13 04:44:40.26	272.22	47.89	-40.2	-41.2	19.8	0.00e+00	0	43	0	2755657728	50	4117
2026-01-13 04:44:40.83	271.91	47.82	-40.3	-41.3	19.6	0.00e+00	0	43	0	2760900608	50	4176
2026-01-13 04:44:42.56	270.98	47.59	-40.2	-41.2	19.7	0.00e+00	0	43	0	2772434944	50	4122
2026-01-13 04:44:43.13	270.67	47.51	-40.0	-41.0	20.0	0.00e+00	0	43	0	2776629248	50	4018
2026-01-13 04:44:44.84	269.77	47.27	-39.5	-40.4	20.5	0.00e+00	0	43	0	2789212160	49	3979
2026-01-13 04:44:45.53	269.41	47.17	-39.6	-40.5	20.4	0.00e+00	0	43	0	2794455040	49	4031
2026-01-13 04:44:46.95	268.67	46.96	-39.8	-40.7	20.2	0.00e+00	0	43	0	2804940800	49	4117
2026-01-13 04:44:47.66	268.30	46.86	-39.9	-40.9	20.0	0.00e+00	0	43	0	2809135104	49	4224
2026-01-13 04:44:48.94	267.65	46.67	-40.0	-40.9	20.0	0.00e+00	0	43	0	2818572288	49	4234
2026-01-13 04:44:49.65	267.30	46.56	-40.0	-40.9	20.0	0.00e+00	0	43	0	2823815168	49	4233
2026-01-13 04:44:50.93	266.66	46.37	-40.0	-40.9	20.0	0.00e+00	0	43	0	2833252352	49	4228
2026-01-13 04:44:51.65	266.30	46.25	-39.9	-40.9	20.1	0.00e+00	0	43	0	2838495232	49	4198
2026-01-13 04:44:52.93	265.67	46.05	-39.8	-40.8	20.1	0.00e+00	0	43	0	2847932416	49	4152
2026-01-13 04:44:53.67	265.32	45.94	-39.8	-40.8	20.1	0.00e+00	0	43	0	2853175296	49	4167
2026-01-13 04:44:54.95	264.70	45.73	-39.8	-40.8	20.2	0.00e+00	0	43	0	2862612480	49	4149
2026-01-13 04:44:55.66	264.37	45.62	-39.7	-40.7	20.3	0.00e+00	0	43	0	2866806784	49	4101
2026-01-13 04:44:56.94	263.76	45.41	-39.7	-40.7	20.2	0.00e+00	0	43	0	2876243968	49	4119
2026-01-13 04:44:57.65	263.43	45.29	-39.6	-40.6	20.3	0.00e+00	0	43	0	2881486848	49	4058
2026-01-13 04:44:59.12	262.76	45.05	-39.5	-40.4	20.5	0.00e+00	0	43	0	2893021184	49	3989
2026-01-13 04:44:59.83	262.44	44.93	-39.6	-40.5	20.4	0.00e+00	0	43	0	2897215488	49	4022
2026-01-13 04:45:01.11	261.86	44.72	-39.2	-40.1	20.7	0.00e+00	0	43	0	2906652672	49	3833
2026-01-13 04:45:02.17	261.39	44.54	-39.0	-39.9	20.9	0.00e+00	0	43	0	2913992704	48	3980
2026-01-13 04:45:03.35	260.87	44.33	-38.9	-39.8	21.0	0.00e+00	0	43	0	2922381312	48	3930
2026-01-13 04:45:04.34	260.44	44.16	-39.0	-40.0	20.9	0.00e+00	0	43	0	2929721344	48	4005
2026-01-13 04:45:05.34	260.01	43.99	-39.2	-40.1	20.7	0.00e+00	0	43	0	2937061376	48	4069
2026-01-13 04:45:06.33	259.59	43.82	-39.4	-40.3	20.5	0.00e+00	0	43	0	2944401408	48	4190
2026-01-13 04:45:07.33	259.17	43.64	-39.3	-40.3	20.6	0.00e+00	0	43	0	2951741440	48	4150
2026-01-13 04:45:08.33	258.76	43.47	-39.3	-40.2	20.6	0.00e+00	0	43	0	2959081472	48	4128
2026-01-13 04:45:09.32	258.35	43.29	-39.2	-40.1	20.8	0.00e+00	0	43	0	2966421504	48	4065
2026-01-13 04:45:10.31	257.95	43.11	-39.1	-40.0	20.8	0.00e+00	0	43	0	2972712960	48	4021
2026-01-13 04:45:11.31	257.55	42.94	-39.1	-40.0	20.8	0.00e+00	0	43	0	2980052992	48	4030
2026-01-13 04:45:12.30	257.15	42.76	-39.3	-40.2	20.7	0.00e+00	0	43	0	2987393024	48	4116
2026-01-13 04:45:13.30	256.76	42.58	-39.2	-40.1	20.7	0.00e+00	0	43	0	2994733056	48	4084
2026-01-13 04:45:14.29	256.38	42.40	-39.2	-40.1	20.7	0.00e+00	0	43	0	3002073088	48	4080
2026-01-13 04:45:15.29	255.99	42.22	-39.2	-40.1	20.7	0.00e+00	0	43	0	3009413120	48	4089
2026-01-13 04:45:16.28	255.62	42.04	-39.2	-40.1	20.7	0.00e+00	0	43	0	3016753152	48	4078
2026-01-13 04:45:17.28	255.24	41.85	-39.2	-40.1	20.8	0.00e+00	0	43	0	3023044608	48	4073
2026-01-13 04:45:18.27	254.87	41.67	-39.3	-40.2	20.7	0.00e+00	0	43	0	3030384640	48	4109
2026-01-13 04:45:19.27	254.51	41.49	-39.1	-40.0	20.8	0.00e+00	0	43	0	3037724672	48	4020
2026-01-13 04:45:20.26	254.15	41.31	-39.1	-40.0	20.8	0.00e+00	0	43	0	3045064704	48	4043
2026-01-13 04:45:21.26	253.79	41.12	-39.3	-40.2	20.6	0.00e+00	0	43	0	3052404736	48	4130
2026-01-13 04:45:22.26	253.43	40.94	-39.4	-40.3	20.6	0.00e+00	0	43	0	3059744768	48	4174
2026-01-13 04:45:23.53	252.99	40.71	-39.5	-40.5	20.4	0.00e+00	0	43	0	3069181952	48	4245
2026-01-13 04:45:24.29	252.73	40.57	-39.5	-40.5	20.4	0.00e+00	0	43	0	3074424832	48	4266
2026-01-13 04:45:25.57	252.29	40.33	-39.4	-40.4	20.5	0.00e+00	0	43	0	3083862016	48	4195
2026-01-13 04:45:26.28	252.05	40.20	-39.5	-40.4	20.4	0.00e+00	0	43	0	3088056320	48	4234
2026-01-13 04:45:27.56	251.62	39.96	-39.6	-40.5	20.4	0.00e+00	0	43	0	3097493504	48	4269
2026-01-13 04:45:28.28	251.38	39.83	-39.4	-40.3	20.6	0.00e+00	0	43	0	3102736384	48	4160
2026-01-13 04:45:29.56	250.96	39.59	-39.3	-40.2	20.6	0.00e+00	0	43	0	3112173568	48	4127
2026-01-13 04:45:30.27	250.73	39.46	-39.3	-40.2	20.6	0.00e+00	0	43	0	3117416448	48	4123
2026-01-13 04:45:31.56	250.32	39.22	-39.2	-40.2	20.7	0.00e+00	0	43	0	3126853632	48	4106
2026-01-13 04:45:32.28	250.09	39.08	-39.3	-40.2	20.6	0.00e+00	0	43	0	3132096512	48	4138
2026-01-13 04:45:33.55	249.70	38.85	-39.4	-40.3	20.5	0.00e+00	0	43	0	3140485120	48	4182
2026-01-13 04:45:34.26	249.48	38.71	-39.4	-40.4	20.5	0.00e+00	0	43	0	3145728000	48	4212
2026-01-13 04:45:35.65	249.05	38.46	-39.5	-40.5	20.4	0.00e+00	0	43	0	3156213760	48	4260
2026-01-13 04:45:36.36	248.84	38.32	-39.5	-40.4	20.3	0.00e+00	0	43	0	3161456640	48	4231
2026-01-13 04:45:37.72	248.44	38.07	-39.4	-40.3	20.5	0.00e+00	0	43	0	3170893824	48	4184
2026-01-13 04:45:38.43	248.23	37.94	-39.3	-40.3	20.6	0.00e+00	0	43	0	3176136704	48	4148
2026-01-13 04:45:39.71	247.85	37.70	-39.1	-40.0	20.8	0.00e+00	0	43	0	3185573888	48	4027
2026-01-13 04:45:40.42	247.65	37.57	-39.3	-40.2	20.6	0.00e+00	0	43	0	3190816768	48	4120
2026-01-13 04:45:41.84	247.25	37.31	-39.0	-39.9	20.5	0.00e+00	0	43	0	3201302528	48	3977
2026-01-13 04:45:42.56	247.04	37.18	-39.1	-40.1	20.7	0.00e+00	0	43	0	3205496832	48	4057
2026-01-13 04:45:43.83	246.69	36.94	-38.9	-39.8	21.0	0.00e+00	0	43	0	3214934016	48	3922
2026-01-13 04:45:44.56	246.49	36.81	-38.8	-39.7	21.0	0.00e+00	0	43	0	3220176896	48	3885
2026-01-13 04:45:45.84	246.14	36.57	-38.5	-39.4	21.0	0.00e+00	0	43	0	3229614080	47	3969
2026-01-13 04:45:46.55	245.95	36.44	-38.4	-39.3	21.1	0.00e+00	0	43	0	3234856960	47	3954
2026-01-13 04:45:47.83	245.61	36.21	-38.6	-39.5	20.9	0.00e+00	0	43	0	3244294144	47	4038
2026-01-13 04:45:48.54	245.43	36.08	-38.7	-39.6	20.8	0.00e+00	0	43	0	3249537024	47	4098
2026-01-13 04:45:49.82	245.10	35.85	-38.8	-39.7	20.7	0.00e+00	0	43	0	3257925632	47	4137
2026-01-13 04:45:50.57	244.90	35.71	-39.0	-39.9	20.5	0.00e+00	0	43	0	3264217088	47	4241
2026-01-13 04:45:51.85	244.58	35.48	-38.9	-39.9	20.5	0.00e+00	0	43	0	3272605696	47	4202
2026-01-13 04:45:52.62	244.39	35.34	-38.9	-39.9	20.6	0.00e+00	0	43	0	3278897152	47	4203
2026-01-13 04:45:53.90	244.07	35.11	-39.0	-39.9	20.5	0.00e+00	0	43	0	3287285760	47	4223
2026-01-13 04:45:54.63	243.89	34.97	-39.0	-39.9	20.6	0.00e+00	0	43	0	3293577216	47	4211
2026-01-13 04:45:55.91	243.58	34.74	-38.8	-39.7	20.7	0.00e+00	0	43	0	3301965824	47	4118
2026-01-13 04:45:56.62	243.41	34.62	-38.7	-39.6	20.8	0.00e+00	0	43	0	3307208704	47	4080
2026-01-13 04:45:57.90	243.11	34.39	-38.8	-39.7	20.7	0.00e+00	0	43	0	3316645888	47	4111
2026-01-13 04:45:58.63	242.94	34.26	-38.8	-39.7	20.7	0.00e+00	0	43	0	3321888768	47	4139
2026-01-13 04:45:59.90	242.64	34.03	-38.9	-39.8	20.6	0.00e+00	0	43	0	3331325952	47	4171
2026-01-13 04:46:00.61	242.48	33.91	-38.9	-39.8	20.6	0.00e+00	0	43	0	3336568832	47	4179
2026-01-13 04:46:01.89	242.19	33.68	-39.0	-39.9	20.6	0.00e+00	0	43	0	3346006016	47	4224
2026-01-13 04:46:02.60	242.03	33.55	-39.0	-39.9	20.5	0.00e+00	0	43	0	3350200320	47	4224
2026-01-13 04:46:03.88	241.74	33.33	-38.9	-39.9	20.6	0.00e+00	0	43	0	3359637504	47	4217
2026-01-13 04:46:04.59	241.59	33.20	-39.0	-40.0	20.5	0.00e+00	0	43	0	3364880384	47	4249
2026-01-13 04:46:05.87	241.31	32.98	-38.6	-39.6	20.8	0.00e+00	0	43	0	3374317568	47	4053
2026-01-13 04:46:06.60	241.15	32.85	-38.6	-39.5	20.9	0.00e+00	0	43	0	3379560448	47	4047
2026-01-13 04:46:08.14	240.83	32.58	-38.8	-39.7	20.7	0.00e+00	0	43	0	3391094784	47	4105
2026-01-13 04:46:08.85	240.68	32.46	-38.9	-39.8	20.6	0.00e+00	0	43	0	3395289088	47	4171
2026-01-13 04:46:10.14	240.41	32.24	-38.9	-39.8	20.6	0.00e+00	0	43	0	3404726272	47	4167
2026-01-13 04:46:11.15	240.20	32.06	-39.1	-40.0	20.5	0.00e+00	0	43	0	3412066304	47	4272
2026-01-13 04:46:12.46	239.94	31.84	-39.1	-40.1	20.4	0.00e+00	0	43	0	3421503488	47	4293
2026-01-13 04:46:13.21	239.79	31.71	-39.0	-40.0	20.5	0.00e+00	0	43	0	3426746368	47	4251
2026-01-13 04:46:14.49	239.54	31.49	-39.0	-39.9	20.6	0.00e+00	0	43	0	3436183552	47	4207
2026-01-13 04:46:15.29	239.38	31.36	-39.0	-40.0	20.5	0.00e+00	0	43	0	3442475008	47	4246
2026-01-13 04:46:16.43	239.16	31.17	-38.9	-39.8	20.6	0.00e+00	0	43	0	3450863616	47	4187
2026-01-13 04:46:17.28	239.00	31.02	-38.9	-39.9	20.6	0.00e+00	0	43	0	3457155072	47	4209
2026-01-13 04:46:18.42	238.78	30.83	-38.9	-39.9	20.6	0.00e+00	0	43	0	3464495104	47	4202
2026-01-13 04:46:19.27	238.62	30.69	-38.9	-39.9	20.5	0.00e+00	0	43	0	3470786560	47	4202
2026-01-13 04:46:20.41	238.41	30.50	-39.0	-40.0	20.5	0.00e+00	0	43	0	3479175168	47	4251
2026-01-13 04:46:21.26	238.25	30.36	-39.1	-40.0	20.5	0.00e+00	0	43	0	3485466624	47	4264
2026-01-13 04:46:22.40	238.04	30.17	-39.2	-40.2	20.3	0.00e+00	0	43	0	3493855232	47	4348
2026-01-13 04:46:23.25	237.89	30.03	-39.2	-40.2	20.3	0.00e+00	0	43	0	3500146688	47	4344
2026-01-13 04:46:24.39	237.69	29.84	-39.5	-40.5	20.3	0.00e+00	0	43	0	3507486720	48	4254
2026-01-13 04:46:25.24	237.54	29.71	-39.5	-40.5	20.3	0.00e+00	0	43	0	3513778176	48	4247
2026-01-13 04:46:26.38	237.34	29.52	-39.4	-40.4	20.4	0.00e+00	0	43	0	3522166784	48	4201
2026-01-13 04:46:27.23	237.19	29.38	-39.4	-40.4	20.4	0.00e+00	0	43	0	3528458240	48	4204
2026-01-13 04:46:28.37	237.00	29.20	-39.3	-40.3	20.5	0.00e+00	0	43	0	3536846848	48	4158
2026-01-13 04:46:29.22	236.85	29.06	-39.4	-40.3	20.5	0.00e+00	0	43	0	3543138304	48	4176
2026-01-13 04:46:30.58	236.62	28.84	-39.2	-40.1	20.6	0.00e+00	0	43	0	3552575488	48	4076
2026-01-13 04:46:31.29	236.51	28.73	-39.2	-40.1	20.7	0.00e+00	0	43	0	3557818368	48	4057
2026-01-13 04:46:32.58	236.29	28.52	-39.0	-39.9	20.8	0.00e+00	0	43	0	3567255552	48	3990
2026-01-13 04:46:33.30	236.18	28.41	-38.9	-39.8	20.8	0.00e+00	0	43	0	3572498432	48	3956
2026-01-13 04:46:34.58	235.97	28.21	-39.1	-40.1	20.7	0.00e+00	0	43	0	3581935616	48	4053
2026-01-13 04:46:35.29	235.86	28.10	-39.3	-40.2	20.6	0.00e+00	0	43	0	3586129920	48	4113
2026-01-13 04:46:36.57	235.65	27.90	-39.4	-40.3	20.4	0.00e+00	0	43	0	3595567104	48	4189
2026-01-13 04:46:37.28	235.54	27.79	-39.3	-40.3	20.4	0.00e+00	0	43	0	3600809984	48	4164
2026-01-13 04:46:38.56	235.35	27.59	-39.4	-40.3	20.5	0.00e+00	0	43	0	3610247168	48	4163
2026-01-13 04:46:39.27	235.24	27.48	-39.4	-40.4	20.4	0.00e+00	0	43	0	3615490048	48	4194
2026-01-13 04:46:40.57	235.04	27.28	-39.3	-40.2	20.5	0.00e+00	0	43	0	3624927232	48	4131
2026-01-13 04:46:41.28	234.93	27.17	-39.3	-40.2	20.6	0.00e+00	0	43	0	3630170112	48	4123
2026-01-13 04:46:42.56	234.74	26.97	-39.2	-40.1	20.6	0.00e+00	0	43	0	3638558720	48	4094
2026-01-13 04:46:43.29	234.63	26.86	-39.2	-40.1	20.6	0.00e+00	0	43	0	3644850176	48	4073
2026-01-13 04:46:44.56	234.45	26.67	-39.2	-40.1	20.6	0.00e+00	0	43	0	3653238784	48	4084
2026-01-13 04:46:45.29	234.34	26.56	-39.2	-40.2	20.6	0.00e+00	0	43	0	3658481664	48	4107
2026-01-13 04:46:46.73	234.14	26.35	-39.2	-40.1	20.6	0.00e+00	0	43	0	3668967424	48	4081
2026-01-13 04:46:47.44	234.04	26.24	-39.2	-40.2	20.6	0.00e+00	0	43	0	3674210304	48	4101
2026-01-13 04:46:48.72	233.86	26.05	-39.2	-40.2	20.6	0.00e+00	0	43	0	3683647488	48	4110
2026-01-13 04:46:49.43	233.76	25.94	-39.3	-40.3	20.5	0.00e+00	0	43	0	3688890368	48	4151
2026-01-13 04:46:50.71	233.58	25.76	-39.3	-40.2	20.5	0.00e+00	0	43	0	3697278976	48	4141
2026-01-13 04:46:51.42	233.49	25.65	-39.3	-40.2	20.5	0.00e+00	0	43	0	3703570432	48	4145
2026-01-13 04:46:52.70	233.31	25.47	-39.4	-40.4	20.4	0.00e+00	0	43	0	3711959040	48	4212
2026-01-13 04:46:53.44	233.21	25.36	-39.5	-40.4	20.3	0.00e+00	0	43	0	3717201920	48	4238
2026-01-13 04:46:54.72	233.04	25.17	-39.5	-40.4	20.4	0.00e+00	0	43	0	3726639104	48	4223
2026-01-13 04:46:55.43	232.95	25.07	-39.5	-40.4	20.4	0.00e+00	0	43	0	3731881984	48	4218
2026-01-13 04:46:56.71	232.78	24.89	-39.6	-40.6	20.2	0.00e+00	0	43	0	3741319168	48	4305
2026-01-13 04:46:57.50	232.68	24.77	-39.6	-40.6	20.2	0.00e+00	0	43	0	3746562048	48	4328
2026-01-13 04:46:58.78	232.52	24.59	-39.6	-40.6	20.2	0.00e+00	0	43	0	3755999232	48	4326
2026-01-13 04:46:59.49	232.43	24.49	-39.6	-40.6	20.2	0.00e+00	0	43	0	3761242112	48	4306
2026-01-13 04:47:00.77	232.27	24.31	-39.6	-40.6	20.2	0.00e+00	0	43	0	3770679296	48	4296
2026-01-13 04:47:01.48	232.18	24.21	-39.6	-40.6	20.2	0.00e+00	0	43	0	3775922176	48	4322
2026-01-13 04:47:02.76	232.02	24.03	-39.6	-40.6	20.2	0.00e+00	0	43	0	3784310784	48	4318
2026-01-13 04:47:03.69	231.91	23.90	-39.5	-40.5	20.3	0.00e+00	0	43	0	3791650816	48	4272
2026-01-13 04:47:04.99	231.75	23.72	-39.6	-40.5	20.3	0.00e+00	0	43	0	3801088000	48	4279
2026-01-13 04:47:05.70	231.67	23.62	-39.6	-40.5	20.2	0.00e+00	0	43	0	3806330880	48	4274
2026-01-13 04:47:06.98	231.51	23.45	-39.6	-40.5	20.2	0.00e+00	0	43	0	3815768064	48	4291
2026-01-13 04:47:07.70	231.43	23.35	-39.5	-40.5	20.3	0.00e+00	0	43	0	3821010944	48	4258
2026-01-13 04:47:08.98	231.28	23.17	-39.5	-40.5	20.3	0.00e+00	0	43	0	3829399552	48	4250
2026-01-13 04:47:09.71	231.20	23.08	-39.5	-40.4	20.3	0.00e+00	0	43	0	3834642432	48	4223
2026-01-13 04:47:10.99	231.05	22.90	-39.5	-40.4	20.4	0.00e+00	0	43	0	3844079616	48	4210
2026-01-13 04:47:11.71	230.97	22.81	-39.5	-40.4	20.3	0.00e+00	0	43	0	3849322496	48	4236
2026-01-13 04:47:13.02	230.82	22.63	-39.5	-40.4	20.3	0.00e+00	0	43	0	3858759680	48	4224
2026-01-13 04:47:13.73	230.74	22.54	-39.5	-40.4	20.3	0.00e+00	0	43	0	3864002560	48	4237
2026-01-13 04:47:15.02	230.60	22.36	-39.7	-40.6	20.1	0.00e+00	0	43	0	3873439744	48	4330
2026-01-13 04:47:15.74	230.52	22.27	-39.7	-40.6	20.1	0.00e+00	0	43	0	3878682624	48	4329
2026-01-13 04:47:17.02	230.38	22.10	-39.7	-40.7	20.1	0.00e+00	0	43	0	3888119808	48	4343
2026-01-13 04:47:17.73	230.31	22.01	-39.8	-40.8	19.9	0.00e+00	0	43	0	3893362688	49	4159
2026-01-13 04:47:19.01	230.17	21.84	-39.8	-40.7	20.0	0.00e+00	0	43	0	3901751296	49	4128
2026-01-13 04:47:19.72	230.09	21.75	-39.7	-40.6	20.1	0.00e+00	0	43	0	3906994176	49	4098
2026-01-13 04:47:21.25	229.93	21.55	-39.8	-40.7	20.0	0.00e+00	0	43	0	3918528512	49	4123
2026-01-13 04:47:21.97	229.86	21.46	-39.9	-40.8	20.0	0.00e+00	0	43	0	3923771392	49	4179
2026-01-13 04:47:23.25	229.73	21.29	-39.9	-40.9	19.9	0.00e+00	0	43	0	3933208576	49	4212
2026-01-13 04:47:23.97	229.65	21.20	-40.0	-41.0	19.8	0.00e+00	0	43	0	3938451456	49	4266
2026-01-13 04:47:25.25	229.52	21.04	-40.0	-41.0	19.7	0.00e+00	0	43	0	3946840064	49	4269
2026-01-13 04:47:25.96	229.45	20.95	-40.1	-41.0	19.7	0.00e+00	0	43	0	3952082944	49	4288
2026-01-13 04:47:27.24	229.33	20.79	-40.2	-41.2	19.6	0.00e+00	0	43	0	3961520128	49	4348
2026-01-13 04:47:27.97	229.25	20.70	-40.3	-41.2	19.5	0.00e+00	0	43	0	3966763008	49	4387
2026-01-13 04:47:29.23	229.13	20.54	-40.4	-41.4	19.4	0.00e+00	0	43	0	3976200192	50	4223
2026-01-13 04:47:29.94	229.06	20.45	-40.4	-41.4	19.4	0.00e+00	0	43	0	3981443072	50	4227
2026-01-13 04:47:31.22	228.94	20.29	-40.5	-41.6	19.3	0.00e+00	0	43	0	3990880256	50	4300
2026-01-13 04:47:31.93	228.87	20.21	-40.6	-41.6	19.3	0.00e+00	0	43	0	3995074560	50	4307
2026-01-13 04:47:33.22	228.75	20.05	-40.6	-41.7	19.2	0.00e+00	0	43	0	4004511744	50	4346
2026-01-13 04:47:33.93	228.68	19.96	-40.6	-41.7	19.2	0.00e+00	0	43	0	4009754624	50	4341
2026-01-13 04:47:35.21	228.56	19.81	-40.7	-41.7	19.1	0.00e+00	0	43	0	4019191808	50	4389
2026-01-13 04:47:36.11	228.48	19.70	-40.7	-41.7	19.1	0.00e+00	0	43	0	4025483264	50	4376
2026-01-13 04:47:37.13	228.38	19.57	-40.7	-41.8	19.1	0.00e+00	0	43	0	4032823296	50	4397
2026-01-13 04:47:38.43	228.27	19.42	-40.6	-41.6	19.3	0.00e+00	0	43	0	4042260480	50	4309
2026-01-13 04:47:39.17	228.20	19.33	-40.5	-41.5	19.4	0.00e+00	0	43	0	4047503360	50	4258
2026-01-13 04:47:40.45	228.09	19.18	-40.4	-41.4	19.5	0.00e+00	0	43	0	4056940544	50	4207
2026-01-13 04:47:41.16	228.02	19.09	-40.4	-41.4	19.5	0.00e+00	0	43	0	4062183424	50	4199
2026-01-13 04:47:42.44	227.91	18.94	-40.3	-41.3	19.5	0.00e+00	0	43	0	4071620608	50	4177
2026-01-13 04:47:43.17	227.85	18.86	-40.4	-41.4	19.5	0.00e+00	0	43	0	4076863488	50	4200
2026-01-13 04:47:44.45	227.74	18.71	-40.4	-41.5	19.4	0.00e+00	0	43	0	4085252096	50	4248
2026-01-13 04:47:45.17	227.67	18.62	-40.5	-41.5	19.3	0.00e+00	0	43	0	4091543552	50	4262
2026-01-13 04:47:46.45	227.57	18.47	-40.5	-41.5	19.3	0.00e+00	0	43	0	4099932160	50	4274
2026-01-13 04:47:47.16	227.50	18.39	-40.5	-41.6	19.3	0.00e+00	0	43	0	4105175040	50	4295
2026-01-13 04:47:48.44	227.40	18.24	-40.7	-41.7	19.1	0.00e+00	0	43	0	4114612224	50	4380
2026-01-13 04:47:49.15	227.34	18.16	-40.7	-41.8	19.1	0.00e+00	0	43	0	4119855104	50	4406
2026-01-13 04:47:50.57	227.22	18.00	-40.8	-41.8	19.0	0.00e+00	0	43	0	4130340864	51	4168
2026-01-13 04:47:51.28	227.16	17.92	-40.8	-41.8	19.0	0.00e+00	0	43	0	4135583744	51	4184
2026-01-13 04:47:52.65	227.05	17.76	-40.9	-42.0	18.9	0.00e+00	0	43	0	4145020928	51	4260
2026-01-13 04:47:53.36	226.99	17.68	-40.9	-42.0	18.9	0.00e+00	0	43	0	4150263808	51	4258
2026-01-13 04:47:54.66	226.89	17.54	-40.9	-42.0	18.9	0.00e+00	0	43	0	4159700992	51	4262
2026-01-13 04:47:55.37	226.83	17.46	-41.0	-42.1	18.8	0.00e+00	0	43	0	4164943872	51	4308
2026-01-13 04:47:56.74	226.73	17.31	-41.0	-42.0	18.8	0.00e+00	0	43	0	4174381056	51	4287
2026-01-13 04:47:57.45	226.67	17.23	-41.0	-42.1	18.8	0.00e+00	0	43	0	4179623936	51	4313
2026-01-13 04:47:58.73	226.57	17.09	-41.0	-42.1	18.7	0.00e+00	0	43	0	4189061120	51	4302
2026-01-13 04:47:59.44	226.52	17.01	-41.1	-42.1	18.7	0.00e+00	0	43	0	4194304000	51	4338
2026-01-13 04:48:00.72	226.42	16.87	-41.2	-42.2	18.7	0.00e+00	0	43	0	4203741184	51	4380
2026-01-13 04:48:01.43	226.37	16.79	-41.1	-42.2	18.7	0.00e+00	0	43	0	4208984064	51	4362
2026-01-13 04:48:02.71	226.27	16.65	-41.1	-42.2	18.7	0.00e+00	0	43	0	4217372672	51	4355
2026-01-13 04:48:03.42	226.22	16.57	-41.2	-42.3	18.6	0.00e+00	0	43	0	4222615552	51	4397
2026-01-13 04:48:04.70	226.12	16.44	-41.2	-42.3	18.5	0.00e+00	0	43	0	4232052736	52	4178
2026-01-13 04:48:05.41	226.07	16.36	-41.3	-42.4	18.4	0.00e+00	0	43	0	4237295616	52	4204
2026-01-13 04:48:06.69	225.98	16.22	-41.2	-42.2	18.6	0.00e+00	0	43	0	4246732800	52	4144
2026-01-13 04:48:07.43	225.92	16.14	-41.3	-42.3	18.5	0.00e+00	0	43	0	4251975680	52	4187
2026-01-13 04:48:08.71	225.83	16.01	-41.1	-42.2	18.6	0.00e+00	0	43	0	4261412864	52	4128
2026-01-13 04:48:09.58	225.77	15.92	-41.2	-42.2	18.5	0.00e+00	0	43	0	4267704320	52	4135
2026-01-13 04:48:11.02	225.67	15.76	-41.2	-42.3	18.5	0.00e+00	0	43	0	4278190080	52	4179
2026-01-13 04:48:11.73	225.62	15.69	-41.2	-42.3	18.5	0.00e+00	0	43	0	4282384384	52	4185
2026-01-13 04:48:13.01	225.53	15.56	-41.2	-42.3	18.5	0.00e+00	0	43	0	4291821568	52	4186
2026-01-13 04:48:13.74	225.48	15.48	-41.3	-42.3	18.5	0.00e+00	0	43	0	4297064448	52	4189
2026-01-13 04:48:15.02	225.39	15.35	-41.2	-42.3	18.5	0.00e+00	0	43	0	4306501632	52	4170
2026-01-13 04:48:15.73	225.34	15.27	-41.3	-42.4	18.4	0.00e+00	0	43	0	4311744512	52	4207
2026-01-13 04:48:17.01	225.25	15.14	-41.3	-42.3	18.4	0.00e+00	0	43	0	4321181696	52	4191
2026-01-13 04:48:17.72	225.21	15.07	-41.3	-42.4	18.3	0.00e+00	0	43	0	4326424576	52	4236
2026-01-13 04:48:19.00	225.12	14.94	-41.3	-42.4	18.3	0.00e+00	0	43	0	4334813184	52	4221
2026-01-13 04:48:19.71	225.07	14.87	-41.3	-42.4	18.3	0.00e+00	0	43	0	4341104640	52	4232
2026-01-13 04:48:20.99	224.99	14.74	-41.5	-42.6	18.2	0.00e+00	0	43	0	4349493248	52	4313
2026-01-13 04:48:21.72	224.94	14.66	-41.4	-42.5	18.2	0.00e+00	0	43	0	4354736128	52	4289
2026-01-13 04:48:23.04	224.85	14.53	-41.3	-42.4	18.3	0.00e+00	0	43	0	4364173312	52	4227
2026-01-13 04:48:23.75	224.81	14.46	-41.3	-42.4	18.3	0.00e+00	0	43	0	4369416192	52	4239
2026-01-13 04:48:25.11	224.72	14.32	-41.3	-42.4	18.3	0.00e+00	0	43	0	4379901952	52	4235
2026-01-13 04:48:25.82	224.68	14.25	-41.4	-42.5	18.2	0.00e+00	0	43	0	4384096256	52	4262
2026-01-13 04:48:27.16	224.59	14.12	-41.4	-42.5	18.2	0.00e+00	0	43	0	4394582016	52	4284
2026-01-13 04:48:27.87	224.55	14.05	-41.4	-42.5	18.1	0.00e+00	0	43	0	4399824896	52	4255
2026-01-13 04:48:29.21	224.46	13.92	-41.5	-42.6	18.1	0.00e+00	0	43	0	4409262080	52	4306
2026-01-13 04:48:29.93	224.42	13.85	-41.5	-42.7	18.1	0.00e+00	0	43	0	4414504960	52	4348
2026-01-13 04:48:31.26	224.34	13.72	-41.6	-42.8	18.0	0.00e+00	0	43	0	4423942144	52	4396
2026-01-13 04:48:31.98	224.29	13.65	-41.7	-42.8	17.9	0.00e+00	0	43	0	4429185024	52	4417
2026-01-13 04:48:33.26	224.22	13.53	-41.7	-42.8	17.9	0.00e+00	0	43	0	4437573632	52	4418
2026-01-13 04:48:33.99	224.17	13.46	-41.8	-42.9	17.8	0.00e+00	0	43	0	4443865088	52	4469
2026-01-13 04:48:35.28	224.10	13.33	-41.8	-43.0	17.8	0.00e+00	0	43	0	4453302272	53	4250
2026-01-13 04:48:35.99	224.05	13.26	-41.8	-43.0	17.7	0.00e+00	0	43	0	4457496576	53	4258
2026-01-13 04:48:37.26	223.98	13.14	-41.9	-43.0	17.7	0.00e+00	0	43	0	4466933760	53	4276
2026-01-13 04:48:38.02	223.93	13.07	-41.9	-43.0	17.7	0.00e+00	0	43	0	4472176640	53	4286
2026-01-13 04:48:39.30	223.86	12.95	-42.0	-43.2	17.5	0.00e+00	0	43	0	4481613824	53	4359
2026-01-13 04:48:40.01	223.82	12.88	-42.0	-43.2	17.5	0.00e+00	0	43	0	4486856704	53	4357
2026-01-13 04:48:41.29	223.75	12.76	-42.1	-43.2	17.5	0.00e+00	0	43	0	4496293888	53	4391
2026-01-13 04:48:42.01	223.70	12.69	-42.1	-43.3	17.4	0.00e+00	0	43	0	4501536768	53	4398
2026-01-13 04:48:43.29	223.63	12.57	-42.1	-43.3	17.4	0.00e+00	0	43	0	4510973952	53	4434
2026-01-13 04:48:44.00	223.59	12.51	-42.2	-43.4	17.3	0.00e+00	0	44	0	4515168256	53	4448
2026-01-13 04:48:45.29	223.52	12.39	-42.2	-43.4	17.3	0.00e+00	0	43	0	4524605440	53	4470
2026-01-13 04:48:46.02	223.48	12.32	-42.2	-43.5	17.2	0.00e+00	0	43	0	4530896896	53	4495
2026-01-13 04:48:47.31	223.41	12.20	-42.3	-43.6	17.1	0.00e+00	0	43	0	4539285504	54	4296
2026-01-13 04:48:48.03	223.37	12.14	-42.3	-43.5	17.2	0.00e+00	0	43	0	4544528384	54	4259
2026-01-13 04:48:49.31	223.30	12.02	-42.4	-43.6	17.1	0.00e+00	0	43	0	4553965568	54	4315
2026-01-13 04:48:50.04	223.26	11.95	-42.4	-43.7	17.0	0.00e+00	0	43	0	4559208448	54	4355
2026-01-13 04:48:51.32	223.19	11.84	-42.5	-43.7	17.0	0.00e+00	0	43	0	4568645632	54	4367
2026-01-13 04:48:52.26	223.14	11.75	-42.5	-43.7	16.9	0.00e+00	0	43	0	4575985664	54	4384
2026-01-13 04:48:53.26	223.09	11.66	-42.5	-43.7	16.9	0.00e+00	0	43	0	4582277120	54	4373
2026-01-13 04:48:54.25	223.04	11.57	-42.3	-43.6	17.1	0.00e+00	0	43	0	4589617152	54	4299
2026-01-13 04:48:55.24	222.98	11.48	-42.4	-43.7	16.9	0.00e+00	0	43	0	4596957184	54	4346
2026-01-13 04:48:56.24	222.93	11.40	-42.5	-43.8	16.9	0.00e+00	0	43	0	4604297216	54	4403
2026-01-13 04:48:57.24	222.88	11.31	-42.5	-43.8	16.9	0.00e+00	0	43	0	4611637248	54	4405
2026-01-13 04:48:58.23	222.83	11.22	-42.6	-43.8	16.8	0.00e+00	0	43	0	4618977280	54	4434
2026-01-13 04:48:59.26	222.78	11.13	-42.7	-44.0	16.7	0.00e+00	0	43	0	4625268736	54	4508
2026-01-13 04:49:00.25	222.73	11.04	-42.7	-44.0	16.7	0.00e+00	0	43	0	4632608768	54	4502
2026-01-13 04:49:01.24	222.68	10.95	-42.7	-44.0	16.7	0.00e+00	0	43	0	4639948800	54	4497
2026-01-13 04:49:02.33	222.62	10.86	-42.7	-44.0	16.6	0.00e+00	0	43	0	4648337408	54	4521
2026-01-13 04:49:03.23	222.58	10.78	-42.7	-44.0	16.6	0.00e+00	0	43	0	4654628864	54	4533
2026-01-13 04:49:04.32	222.52	10.69	-42.8	-44.1	16.6	0.00e+00	0	43	0	4663017472	54	4558
2026-01-13 04:49:05.18	222.48	10.61	-42.7	-44.0	16.6	0.00e+00	0	43	0	4668260352	54	4536
2026-01-13 04:49:06.58	222.41	10.49	-42.8	-44.1	16.5	0.00e+00	0	43	0	4678746112	55	4310
2026-01-13 04:49:07.29	222.38	10.43	-42.8	-44.1	16.5	0.00e+00	0	43	0	4683988992	55	4324
2026-01-13 04:49:08.57	222.32	10.32	-43.0	-44.3	16.3	0.00e+00	0	43	0	4693426176	55	4424
2026-01-13 04:49:09.31	222.28	10.26	-42.8	-44.1	16.4	0.00e+00	0	43	0	4698669056	55	4333
2026-01-13 04:49:10.59	222.22	10.15	-42.9	-44.2	16.3	0.00e+00	0	43	0	4708106240	55	4386
2026-01-13 04:49:11.31	222.19	10.09	-42.9	-44.3	16.3	0.00e+00	0	43	0	4713349120	55	4398
2026-01-13 04:49:12.59	222.13	9.98	-42.7	-44.1	16.4	0.00e+00	0	43	0	4721737728	55	4319
2026-01-13 04:49:13.34	222.09	9.91	-42.8	-44.2	16.3	0.00e+00	0	43	0	4726980608	55	4380
2026-01-13 04:49:14.61	222.03	9.81	-42.7	-44.2	16.4	0.00e+00	0	43	0	4736417792	55	4341
2026-01-13 04:49:15.40	222.00	9.74	-42.9	-44.4	16.1	0.00e+00	0	43	0	4742709248	55	4456
2026-01-13 04:49:16.59	221.94	9.64	-42.9	-44.4	16.0	0.00e+00	0	43	0	4751097856	55	4467
2026-01-13 04:49:17.63	221.89	9.56	-43.0	-44.5	16.0	0.00e+00	0	43	0	4758437888	55	4500
2026-01-13 04:49:18.78	221.84	9.46	-42.9	-44.4	16.0	0.00e+00	0	43	0	4766826496	55	4491
2026-01-13 04:49:19.64	221.80	9.39	-43.1	-44.6	15.8	0.00e+00	0	43	0	4773117952	55	4560
2026-01-13 04:49:20.98	221.74	9.28	-43.0	-44.5	15.9	0.00e+00	0	43	0	4782555136	55	4511
