passes_logs/2026/01/13/T1/T1__20260113_061836_FENGYUN_3E_rec.log

#Pass ID: 20260113_061836_FENGYUN 3E
#Satellite: FENGYUN 3E
#Configuration: FENGYUN 3E
#almurnet v.1.7.20251203
#Start time: 2026-01-13 06:18:36

#Version: 2.0.20230620
#Station: T1
#Location: 37.570604 lon 55.790049 lat
#TLE: 1 49008U 21062A   26012.25745337  .00000274  00000+0  14981-3 0  9997
#TLE: 2 49008  98.7491  17.4183 0001913 142.8235 217.3074 14.19885845234459

#Time	Az	El	Level	Level2	SNR	BER	BlckErr	Temp	State	Recorded	gain1	gain2
2026-01-13 06:18:36.88	2.58	5.00	-50.1	-62.2	3.8	8.47e-01	0	41	0	0	70	14689
2026-01-13 06:18:37.87	2.48	5.05	-47.1	-61.7	3.8	8.47e-01	0	41	104	0	65	18502
2026-01-13 06:18:38.87	2.37	5.10	-47.1	-61.7	3.8	8.46e-01	0	41	104	0	65	18466
2026-01-13 06:18:39.87	2.26	5.15	-47.1	-61.7	3.8	8.46e-01	0	41	104	0	65	18448
2026-01-13 06:18:40.86	2.15	5.20	-47.1	-61.8	3.8	8.47e-01	0	41	104	0	65	18556
2026-01-13 06:18:41.86	2.04	5.25	-47.1	-61.7	3.8	8.47e-01	0	41	104	0	65	18482
2026-01-13 06:18:42.86	1.94	5.30	-47.1	-61.8	3.8	8.47e-01	0	41	104	0	64	19639
2026-01-13 06:18:43.85	1.83	5.35	-47.1	-61.7	3.8	8.46e-01	0	41	104	0	64	19570
2026-01-13 06:18:44.85	1.72	5.40	-47.1	-61.7	3.8	8.46e-01	0	41	104	0	64	19588
2026-01-13 06:18:45.85	1.61	5.45	-47.1	-61.7	3.8	8.47e-01	0	42	104	0	64	19447
2026-01-13 06:18:46.84	1.50	5.50	-47.1	-61.7	3.8	8.47e-01	0	42	104	0	64	19536
2026-01-13 06:18:47.84	1.39	5.55	-47.1	-61.7	3.8	8.47e-01	0	42	104	0	64	19465
2026-01-13 06:18:48.84	1.27	5.60	-47.1	-61.7	3.8	8.47e-01	0	42	104	0	64	19587
2026-01-13 06:18:49.84	1.16	5.65	-47.1	-61.7	3.8	8.48e-01	0	42	104	0	64	19583
2026-01-13 06:18:50.83	1.05	5.70	-47.1	-61.8	3.8	8.47e-01	0	42	104	0	64	19653
2026-01-13 06:18:51.83	0.94	5.75	-47.1	-61.7	3.8	8.47e-01	0	42	104	0	64	19539
2026-01-13 06:18:52.83	0.82	5.80	-47.1	-61.7	3.8	8.46e-01	0	42	104	0	64	19560
2026-01-13 06:18:53.82	0.71	5.85	-47.1	-61.7	3.8	8.47e-01	0	42	104	0	64	19571
2026-01-13 06:18:54.82	0.60	5.90	-47.1	-61.7	3.8	8.48e-01	0	42	104	0	64	19553
2026-01-13 06:18:55.81	0.48	5.95	-47.1	-61.7	3.8	8.46e-01	0	42	104	0	64	19536
2026-01-13 06:18:56.81	0.37	6.00	-47.1	-61.7	3.8	8.47e-01	0	42	104	0	64	19548
2026-01-13 06:18:57.81	0.25	6.05	-47.1	-61.7	3.8	8.47e-01	0	42	104	0	64	19503
2026-01-13 06:18:58.80	0.14	6.10	-47.1	-61.7	3.8	8.46e-01	0	42	104	0	64	19556
2026-01-13 06:18:59.80	0.02	6.15	-47.2	-61.7	3.8	8.46e-01	0	42	104	0	64	19489
2026-01-13 06:19:00.80	359.91	6.20	-47.1	-61.7	3.8	8.46e-01	0	42	104	0	64	19498
2026-01-13 06:19:01.80	359.79	6.25	-47.1	-61.7	3.8	8.47e-01	0	42	104	0	64	19577
2026-01-13 06:19:02.80	359.67	6.29	-47.1	-61.7	3.8	8.47e-01	0	42	104	0	64	19580
2026-01-13 06:19:03.79	359.56	6.34	-47.1	-61.7	3.8	8.48e-01	0	42	104	0	64	19458
2026-01-13 06:19:04.79	359.44	6.39	-47.1	-61.7	3.8	8.47e-01	0	42	104	0	64	19491
2026-01-13 06:19:05.78	359.32	6.44	-47.1	-61.7	3.8	8.48e-01	0	42	104	0	64	19493
2026-01-13 06:19:06.78	359.20	6.49	-47.1	-61.7	3.8	8.46e-01	0	42	104	0	64	19445
2026-01-13 06:19:07.78	359.08	6.54	-47.1	-61.7	3.8	8.46e-01	0	42	104	0	64	19459
2026-01-13 06:19:08.77	358.96	6.59	-47.1	-61.7	3.8	8.46e-01	0	42	104	0	64	19432
2026-01-13 06:19:09.77	358.84	6.64	-47.1	-61.7	3.8	8.46e-01	0	42	104	0	64	19544
2026-01-13 06:19:10.77	358.72	6.69	-47.1	-61.7	3.8	8.47e-01	0	43	104	0	64	19513
2026-01-13 06:19:11.76	358.60	6.74	-47.1	-61.7	3.8	8.46e-01	0	42	104	0	64	19552
2026-01-13 06:19:12.76	358.48	6.79	-47.1	-61.6	3.8	8.47e-01	0	42	104	0	64	19388
2026-01-13 06:19:13.75	358.36	6.84	-47.1	-61.7	3.8	8.46e-01	0	42	104	0	64	19511
2026-01-13 06:19:14.75	358.24	6.89	-47.1	-61.7	3.8	8.46e-01	0	43	104	0	64	19550
2026-01-13 06:19:15.75	358.12	6.94	-47.1	-61.7	3.8	8.47e-01	0	43	104	0	64	19608
2026-01-13 06:19:16.74	357.99	6.99	-47.1	-61.7	3.8	8.47e-01	0	43	104	0	64	19458
2026-01-13 06:19:17.74	357.87	7.04	-47.1	-61.7	3.8	8.46e-01	0	43	104	0	64	19552
2026-01-13 06:19:18.74	357.75	7.09	-47.1	-61.7	3.8	8.47e-01	0	43	104	0	64	19491
2026-01-13 06:19:19.73	357.62	7.13	-47.1	-61.7	3.8	8.46e-01	0	43	104	0	64	19612
2026-01-13 06:19:20.73	357.50	7.18	-47.1	-61.7	3.8	8.47e-01	0	43	104	0	64	19514
2026-01-13 06:19:21.72	357.37	7.23	-47.1	-61.7	3.8	8.46e-01	0	43	104	0	64	19547
2026-01-13 06:19:22.72	357.25	7.28	-47.1	-61.7	3.8	8.47e-01	0	43	104	0	64	19567
2026-01-13 06:19:23.72	357.12	7.33	-47.1	-61.7	3.8	8.46e-01	0	43	104	0	64	19556
2026-01-13 06:19:24.71	357.00	7.38	-47.1	-61.7	3.8	8.47e-01	0	43	104	0	64	19606
2026-01-13 06:19:25.71	356.87	7.43	-47.1	-61.8	3.8	8.46e-01	0	43	104	0	64	19662
2026-01-13 06:19:26.71	356.74	7.48	-47.1	-61.7	3.8	8.46e-01	0	43	104	0	64	19587
2026-01-13 06:19:27.71	356.61	7.53	-47.1	-61.7	3.8	8.46e-01	0	43	104	0	64	19499
2026-01-13 06:19:28.70	356.49	7.58	-47.1	-61.7	3.8	8.47e-01	0	43	104	0	64	19494
2026-01-13 06:19:29.70	356.36	7.63	-47.1	-61.7	3.8	8.48e-01	0	43	104	0	64	19505
2026-01-13 06:19:30.70	356.23	7.67	-47.1	-61.7	3.8	8.47e-01	0	43	104	0	64	19547
2026-01-13 06:19:31.69	356.10	7.72	-47.1	-61.7	3.8	8.47e-01	0	43	104	0	64	19587
2026-01-13 06:19:32.69	355.97	7.77	-47.1	-61.6	3.8	8.46e-01	0	43	104	0	64	19342
2026-01-13 06:19:33.69	355.84	7.82	-47.1	-61.3	3.8	8.46e-01	0	43	104	0	64	18518
2026-01-13 06:19:34.68	355.71	7.87	-47.1	-60.7	3.8	8.48e-01	0	43	104	0	64	17473
2026-01-13 06:19:35.68	355.58	7.92	-47.1	-60.1	3.8	8.47e-01	0	43	104	0	64	16137
2026-01-13 06:19:36.67	355.45	7.97	-47.0	-59.5	3.9	8.46e-01	0	43	104	0	64	15065
2026-01-13 06:19:37.67	355.31	8.01	-47.0	-58.9	4.0	8.45e-01	0	43	104	0	64	14104
2026-01-13 06:19:38.67	355.18	8.06	-47.0	-58.9	4.0	8.44e-01	0	43	104	0	64	14063
2026-01-13 06:19:39.66	355.05	8.11	-47.0	-59.3	3.8	8.45e-01	0	43	104	0	64	14741
2026-01-13 06:19:40.66	354.91	8.16	-47.1	-59.8	3.8	8.46e-01	0	43	104	0	64	15734
2026-01-13 06:19:41.65	354.78	8.21	-47.1	-60.4	3.8	8.47e-01	0	43	104	0	64	16827
2026-01-13 06:19:42.65	354.65	8.26	-47.1	-60.7	3.8	8.45e-01	0	43	104	0	64	17455
2026-01-13 06:19:43.64	354.51	8.30	-47.1	-60.6	3.8	8.46e-01	0	43	104	0	64	17201
2026-01-13 06:19:44.64	354.38	8.35	-47.1	-60.6	3.8	8.46e-01	0	43	104	0	64	17110
2026-01-13 06:19:45.64	354.24	8.40	-47.1	-60.6	3.8	8.47e-01	0	43	104	0	64	17113
2026-01-13 06:19:46.63	354.11	8.45	-47.1	-60.7	3.8	8.46e-01	0	43	104	0	64	17477
2026-01-13 06:19:47.63	353.97	8.50	-47.1	-60.4	3.8	8.47e-01	0	43	104	0	64	16885
2026-01-13 06:19:48.63	353.83	8.54	-47.0	-58.9	3.8	8.44e-01	0	43	104	0	64	14172
2026-01-13 06:19:49.62	353.69	8.59	-46.7	-56.2	5.0	8.11e-01	0	43	0	0	64	10310
2026-01-13 06:19:50.62	353.56	8.64	-46.5	-54.2	6.5	2.75e-01	0	43	0	3145728	63	8681
2026-01-13 06:19:51.62	353.42	8.69	-46.3	-53.0	7.5	1.25e-01	0	43	0	10485760	63	7618
2026-01-13 06:19:52.61	353.28	8.73	-46.0	-52.3	8.3	5.33e-02	0	43	0	17825792	62	7376
2026-01-13 06:19:53.61	353.14	8.78	-45.9	-51.7	8.8	3.51e-02	0	43	0	25165824	62	6933
2026-01-13 06:19:54.61	353.00	8.83	-45.6	-51.0	9.5	1.45e-02	0	43	0	32505856	62	6401
2026-01-13 06:19:55.60	352.86	8.88	-45.5	-50.8	9.8	1.11e-02	0	43	0	39845888	61	6586
2026-01-13 06:19:56.60	352.72	8.92	-45.2	-49.9	10.7	4.12e-03	0	43	0	46137344	61	5927
2026-01-13 06:19:57.59	352.58	8.97	-45.0	-49.5	11.2	1.46e-03	0	43	0	53477376	60	6002
2026-01-13 06:19:58.59	352.43	9.02	-45.0	-49.3	11.3	7.55e-04	0	43	0	60817408	60	5897
2026-01-13 06:19:59.59	352.29	9.07	-44.4	-47.7	12.9	6.58e-04	0	43	0	68157440	59	5199
2026-01-13 06:20:00.59	352.15	9.11	-45.1	-48.8	11.8	7.32e-05	0	44	0	75497472	59	5905
2026-01-13 06:20:01.59	352.01	9.16	-44.8	-48.8	11.9	1.03e-03	0	43	0	82837504	60	5534
2026-01-13 06:20:02.59	351.86	9.21	-48.2	-56.7	4.8	1.69e-01	0	43	0	90177536	65	10310
2026-01-13 06:20:03.60	351.72	9.25	-43.9	-46.8	13.6	7.16e-01	0	43	104	90177536	58	4934
2026-01-13 06:20:04.59	351.57	9.30	-42.4	-44.3	16.1	0.00e+00	0	43	0	96468992	55	4441
2026-01-13 06:20:05.59	351.43	9.35	-42.4	-44.4	16.0	0.00e+00	0	43	0	103809024	55	4447
2026-01-13 06:20:06.59	351.28	9.39	-42.4	-44.4	16.1	0.00e+00	0	43	0	111149056	55	4444
2026-01-13 06:20:07.59	351.13	9.44	-42.4	-44.3	16.1	0.00e+00	0	43	0	118489088	55	4398
2026-01-13 06:20:08.60	350.98	9.49	-42.4	-44.2	16.2	0.00e+00	0	43	0	124780544	55	4390
2026-01-13 06:20:09.60	350.84	9.53	-42.5	-44.2	16.3	0.00e+00	0	43	0	132120576	55	4355
2026-01-13 06:20:10.60	350.69	9.58	-42.6	-44.2	16.3	0.00e+00	0	44	0	139460608	55	4344
2026-01-13 06:20:11.60	350.54	9.63	-42.7	-44.2	16.2	0.00e+00	0	43	0	146800640	55	4386
2026-01-13 06:20:12.60	350.39	9.67	-42.5	-43.9	16.5	0.00e+00	0	43	0	154140672	55	4232
2026-01-13 06:20:13.60	350.24	9.72	-42.4	-43.7	16.7	0.00e+00	0	43	0	161480704	55	4136
2026-01-13 06:20:14.61	350.09	9.76	-42.7	-44.2	16.3	0.00e+00	0	43	0	168820736	55	4343
2026-01-13 06:20:15.61	349.94	9.81	-42.8	-44.2	16.2	0.00e+00	0	43	0	176160768	55	4391
2026-01-13 06:20:16.61	349.79	9.85	-42.7	-44.2	16.3	0.00e+00	0	44	0	183500800	55	4352
2026-01-13 06:20:17.62	349.64	9.90	-42.8	-44.3	16.2	0.00e+00	0	43	0	189792256	55	4392
2026-01-13 06:20:18.62	349.49	9.95	-42.4	-44.0	16.4	0.00e+00	0	43	0	197132288	55	4272
2026-01-13 06:20:19.62	349.33	9.99	-42.5	-44.1	16.3	0.00e+00	0	44	0	204472320	55	4323
2026-01-13 06:20:20.62	349.18	10.04	-42.5	-44.2	16.2	0.00e+00	0	44	0	211812352	55	4388
2026-01-13 06:20:21.63	349.03	10.08	-42.4	-44.3	16.2	0.00e+00	0	44	0	219152384	55	4405
2026-01-13 06:20:22.62	348.87	10.13	-42.4	-44.4	16.1	0.00e+00	0	44	0	226492416	55	4465
2026-01-13 06:20:23.62	348.72	10.17	-42.2	-44.2	16.2	0.00e+00	0	44	0	233832448	55	4374
2026-01-13 06:20:24.62	348.56	10.22	-42.1	-44.2	16.3	0.00e+00	0	44	0	241172480	54	4607
2026-01-13 06:20:25.62	348.41	10.26	-42.1	-44.3	16.2	0.00e+00	0	43	0	248512512	54	4655
2026-01-13 06:20:26.62	348.25	10.30	-41.9	-44.1	16.3	0.00e+00	0	44	0	254803968	54	4589
2026-01-13 06:20:27.62	348.10	10.35	-41.9	-44.1	16.4	0.00e+00	0	44	0	262144000	54	4578
2026-01-13 06:20:28.62	347.94	10.39	-41.8	-44.0	16.4	0.00e+00	0	44	0	269484032	54	4539
2026-01-13 06:20:29.62	347.78	10.44	-41.9	-44.2	16.2	0.00e+00	0	43	0	276824064	54	4647
2026-01-13 06:20:30.63	347.62	10.48	-41.4	-43.5	16.9	0.00e+00	0	44	0	284164096	53	4515
2026-01-13 06:20:31.62	347.47	10.53	-41.5	-43.7	16.7	0.00e+00	0	44	0	291504128	53	4623
2026-01-13 06:20:32.62	347.31	10.57	-41.5	-43.7	16.7	0.00e+00	0	44	0	298844160	53	4612
2026-01-13 06:20:33.63	347.15	10.61	-41.6	-43.8	16.6	0.00e+00	0	44	0	306184192	53	4656
2026-01-13 06:20:34.63	346.99	10.66	-41.6	-43.7	16.7	0.00e+00	0	44	0	312475648	53	4644
2026-01-13 06:20:35.63	346.83	10.70	-41.7	-43.8	16.7	0.00e+00	0	44	0	319815680	53	4676
2026-01-13 06:20:36.63	346.67	10.74	-41.6	-43.6	16.8	0.00e+00	0	44	0	327155712	53	4589
2026-01-13 06:20:37.63	346.51	10.79	-41.6	-43.6	16.9	0.00e+00	0	44	0	334495744	53	4578
2026-01-13 06:20:38.63	346.35	10.83	-41.7	-43.6	16.8	0.00e+00	0	44	0	341835776	53	4580
2026-01-13 06:20:39.63	346.18	10.87	-41.8	-43.8	16.7	0.00e+00	0	44	0	349175808	53	4666
2026-01-13 06:20:40.63	346.02	10.91	-41.9	-43.8	16.6	0.00e+00	0	44	0	356515840	53	4703
2026-01-13 06:20:41.63	345.86	10.96	-41.7	-43.6	16.9	0.00e+00	0	44	0	363855872	53	4550
2026-01-13 06:20:42.63	345.69	11.00	-41.8	-43.7	16.8	0.00e+00	0	44	0	371195904	53	4618
2026-01-13 06:20:43.63	345.53	11.04	-41.8	-43.6	16.9	0.00e+00	0	44	0	378535936	53	4579
2026-01-13 06:20:44.63	345.37	11.08	-42.2	-44.0	16.5	0.00e+00	0	44	0	385875968	53	4775
2026-01-13 06:20:45.64	345.20	11.12	-42.3	-44.0	16.5	0.00e+00	0	44	0	393216000	54	4544
2026-01-13 06:20:46.63	345.04	11.17	-42.3	-43.9	16.6	0.00e+00	0	44	0	399507456	54	4483
2026-01-13 06:20:47.64	344.87	11.21	-42.3	-43.8	16.7	0.00e+00	0	44	0	406847488	54	4411
2026-01-13 06:20:48.64	344.70	11.25	-42.4	-43.9	16.6	0.00e+00	0	44	0	414187520	54	4485
2026-01-13 06:20:49.64	344.54	11.29	-42.5	-43.9	16.6	0.00e+00	0	44	0	421527552	54	4481
2026-01-13 06:20:50.64	344.37	11.33	-42.4	-43.9	16.6	0.00e+00	0	44	0	428867584	54	4451
2026-01-13 06:20:51.64	344.20	11.37	-42.4	-43.9	16.6	0.00e+00	0	44	0	436207616	54	4447
2026-01-13 06:20:52.65	344.03	11.41	-42.3	-43.7	16.7	0.00e+00	0	44	0	443547648	54	4387
2026-01-13 06:20:53.65	343.86	11.45	-42.4	-43.9	16.6	0.00e+00	0	44	0	450887680	54	4466
2026-01-13 06:20:54.65	343.69	11.49	-42.3	-43.8	16.8	0.00e+00	0	44	0	458227712	54	4392
2026-01-13 06:20:55.65	343.52	11.53	-42.5	-43.9	16.6	0.00e+00	0	44	0	464519168	54	4475
2026-01-13 06:20:56.65	343.35	11.57	-42.1	-43.4	17.1	0.00e+00	0	44	0	471859200	54	4223
2026-01-13 06:20:57.65	343.18	11.61	-42.1	-43.5	17.0	0.00e+00	0	43	0	479199232	54	4262
2026-01-13 06:20:58.65	343.01	11.65	-42.1	-43.5	17.0	0.00e+00	0	44	0	486539264	54	4250
2026-01-13 06:20:59.65	342.84	11.69	-42.0	-43.3	17.2	0.00e+00	0	44	0	493879296	54	4186
2026-01-13 06:21:00.66	342.67	11.73	-41.7	-43.0	17.5	0.00e+00	0	44	0	501219328	54	4030
2026-01-13 06:21:01.66	342.49	11.77	-41.9	-43.2	17.2	0.00e+00	0	44	0	508559360	54	4127
2026-01-13 06:21:02.66	342.32	11.81	-42.1	-43.5	17.0	0.00e+00	0	44	0	515899392	54	4254
2026-01-13 06:21:03.67	342.15	11.85	-42.1	-43.6	16.9	0.00e+00	0	44	0	522190848	54	4332
2026-01-13 06:21:04.67	341.97	11.89	-42.0	-43.5	17.0	0.00e+00	0	44	0	529530880	54	4270
2026-01-13 06:21:05.67	341.80	11.92	-42.0	-43.5	17.0	0.00e+00	0	44	0	536870912	54	4282
2026-01-13 06:21:06.67	341.62	11.96	-41.9	-43.5	17.0	0.00e+00	0	44	0	544210944	54	4245
2026-01-13 06:21:07.67	341.45	12.00	-41.8	-43.3	17.1	0.00e+00	0	44	0	551550976	54	4181
2026-01-13 06:21:08.68	341.27	12.04	-41.9	-43.5	17.0	0.00e+00	0	44	0	558891008	54	4257
2026-01-13 06:21:09.68	341.09	12.07	-41.9	-43.5	17.0	0.00e+00	0	44	0	566231040	54	4272
2026-01-13 06:21:10.68	340.92	12.11	-42.0	-43.6	16.9	0.00e+00	0	44	0	573571072	54	4326
2026-01-13 06:21:11.68	340.74	12.15	-42.0	-43.6	16.9	0.00e+00	0	43	0	580911104	54	4328
2026-01-13 06:21:12.68	340.56	12.19	-41.9	-43.5	17.0	0.00e+00	0	44	0	588251136	54	4272
2026-01-13 06:21:13.68	340.38	12.22	-41.7	-43.2	17.3	0.00e+00	0	44	0	594542592	54	4132
2026-01-13 06:21:14.68	340.21	12.26	-41.6	-43.1	17.4	0.00e+00	0	44	0	601882624	54	4057
2026-01-13 06:21:15.68	340.03	12.29	-41.7	-43.2	17.2	0.00e+00	0	44	0	609222656	53	4378
2026-01-13 06:21:16.68	339.85	12.33	-41.7	-43.1	17.4	0.00e+00	0	44	0	616562688	53	4312
2026-01-13 06:21:17.68	339.67	12.37	-41.6	-43.0	17.5	0.00e+00	0	44	0	623902720	53	4270
2026-01-13 06:21:18.68	339.49	12.40	-41.5	-42.8	17.6	0.00e+00	0	44	0	631242752	53	4178
2026-01-13 06:21:19.68	339.31	12.44	-41.8	-43.1	17.4	0.00e+00	0	44	0	638582784	53	4306
2026-01-13 06:21:20.68	339.13	12.47	-41.8	-43.1	17.4	0.00e+00	0	44	0	645922816	53	4294
2026-01-13 06:21:21.68	338.94	12.51	-41.8	-43.1	17.4	0.00e+00	0	44	0	653262848	53	4304
2026-01-13 06:21:22.69	338.76	12.54	-41.7	-43.1	17.4	0.00e+00	0	44	0	660602880	53	4295
2026-01-13 06:21:23.69	338.58	12.58	-41.9	-43.2	17.3	0.00e+00	0	44	0	667942912	53	4356
2026-01-13 06:21:24.69	338.39	12.61	-41.7	-43.0	17.5	0.00e+00	0	44	0	674234368	53	4256
2026-01-13 06:21:25.69	338.21	12.64	-41.9	-43.3	17.2	0.00e+00	0	44	0	681574400	53	4401
2026-01-13 06:21:26.69	338.03	12.68	-42.0	-43.4	17.1	0.00e+00	0	44	0	688914432	53	4451
2026-01-13 06:21:27.70	337.84	12.71	-41.9	-43.2	17.2	0.00e+00	0	44	0	696254464	53	4385
2026-01-13 06:21:28.70	337.66	12.74	-41.9	-43.3	17.2	0.00e+00	0	44	0	703594496	53	4398
2026-01-13 06:21:29.70	337.47	12.78	-41.7	-43.1	17.4	0.00e+00	0	44	0	710934528	53	4311
2026-01-13 06:21:30.70	337.29	12.81	-41.8	-43.2	17.2	0.00e+00	0	44	0	718274560	53	4388
2026-01-13 06:21:31.70	337.10	12.84	-41.7	-43.1	17.4	0.00e+00	0	44	0	725614592	53	4297
2026-01-13 06:21:32.70	336.91	12.87	-41.7	-43.1	17.4	0.00e+00	0	44	0	731906048	53	4320
2026-01-13 06:21:33.70	336.73	12.90	-41.7	-43.0	17.4	0.00e+00	0	44	0	739246080	53	4285
2026-01-13 06:21:34.70	336.54	12.94	-41.8	-43.2	17.2	0.00e+00	0	44	0	746586112	53	4371
2026-01-13 06:21:35.70	336.35	12.97	-41.9	-43.2	17.2	0.00e+00	0	44	0	753926144	53	4376
2026-01-13 06:21:36.71	336.16	13.00	-41.8	-43.2	17.3	0.00e+00	0	44	0	761266176	53	4351
2026-01-13 06:21:37.71	335.97	13.03	-42.1	-43.4	17.1	0.00e+00	0	44	0	768606208	53	4468
2026-01-13 06:21:38.71	335.79	13.06	-41.9	-43.2	17.3	0.00e+00	0	44	0	775946240	53	4357
2026-01-13 06:21:39.71	335.60	13.09	-41.8	-43.1	17.3	0.00e+00	0	44	0	783286272	53	4334
2026-01-13 06:21:40.71	335.41	13.12	-41.7	-43.0	17.5	0.00e+00	0	44	0	790626304	53	4257
2026-01-13 06:21:41.71	335.22	13.15	-41.8	-43.1	17.4	0.00e+00	0	44	0	796917760	53	4311
2026-01-13 06:21:42.71	335.03	13.18	-41.7	-43.0	17.5	0.00e+00	0	44	0	804257792	53	4278
2026-01-13 06:21:43.72	334.83	13.21	-41.6	-42.9	17.5	0.00e+00	0	44	0	811597824	53	4225
2026-01-13 06:21:44.72	334.64	13.24	-41.6	-42.9	17.5	0.00e+00	0	44	0	818937856	53	4230
2026-01-13 06:21:45.72	334.45	13.26	-41.5	-42.7	17.7	0.00e+00	0	44	0	826277888	53	4129
2026-01-13 06:21:46.72	334.26	13.29	-41.6	-42.8	17.6	0.00e+00	0	44	0	833617920	53	4175
2026-01-13 06:21:47.72	334.07	13.32	-41.4	-42.6	17.9	0.00e+00	0	44	0	840957952	53	4060
2026-01-13 06:21:48.72	333.88	13.35	-41.3	-42.6	17.9	0.00e+00	0	44	0	848297984	53	4055
2026-01-13 06:21:49.72	333.68	13.38	-41.4	-42.6	17.9	0.00e+00	0	44	0	854589440	53	4062
2026-01-13 06:21:50.73	333.49	13.40	-41.3	-42.6	17.9	0.00e+00	0	44	0	861929472	53	4062
2026-01-13 06:21:51.73	333.29	13.43	-41.3	-42.5	17.9	0.00e+00	0	44	0	869269504	53	4030
2026-01-13 06:21:52.73	333.10	13.46	-41.3	-42.6	17.9	0.00e+00	0	44	0	876609536	53	4053
2026-01-13 06:21:53.73	332.91	13.48	-41.1	-42.4	18.1	0.00e+00	0	44	0	883949568	53	3973
2026-01-13 06:21:54.73	332.71	13.51	-41.2	-42.4	18.0	0.00e+00	0	44	0	891289600	53	3986
2026-01-13 06:21:55.72	332.52	13.53	-41.3	-42.5	18.0	0.00e+00	0	44	0	898629632	53	4008
2026-01-13 06:21:56.73	332.32	13.56	-41.4	-42.6	17.9	0.00e+00	0	44	0	905969664	53	4055
2026-01-13 06:21:57.73	332.12	13.58	-41.4	-42.6	17.8	0.00e+00	0	44	0	913309696	53	4080
2026-01-13 06:21:58.73	331.93	13.61	-41.6	-42.8	17.7	0.00e+00	0	44	0	919601152	53	4152
2026-01-13 06:21:59.73	331.73	13.63	-41.6	-42.9	17.6	0.00e+00	0	44	0	927989760	53	4196
2026-01-13 06:22:00.73	331.54	13.66	-41.4	-42.7	17.8	0.00e+00	0	44	0	935329792	53	4105
2026-01-13 06:22:01.74	331.34	13.68	-41.5	-42.7	17.8	0.00e+00	0	44	0	941621248	53	4125
2026-01-13 06:22:02.74	331.14	13.70	-41.4	-42.7	17.8	0.00e+00	0	44	0	948961280	53	4111
2026-01-13 06:22:03.74	330.94	13.73	-41.4	-42.7	17.8	0.00e+00	0	44	0	956301312	53	4116
2026-01-13 06:22:04.74	330.74	13.75	-41.4	-42.6	17.8	0.00e+00	0	44	0	963641344	53	4090
2026-01-13 06:22:05.74	330.55	13.77	-41.3	-42.5	18.0	0.00e+00	0	44	0	970981376	53	4025
2026-01-13 06:22:06.74	330.35	13.80	-41.3	-42.5	18.0	0.00e+00	0	44	0	978321408	53	4023
2026-01-13 06:22:07.74	330.15	13.82	-41.3	-42.5	18.0	0.00e+00	0	44	0	985661440	53	4011
2026-01-13 06:22:08.75	329.95	13.84	-41.2	-42.3	18.1	0.00e+00	0	44	0	993001472	53	3946
2026-01-13 06:22:09.75	329.75	13.86	-41.1	-42.2	18.3	0.00e+00	0	44	0	1000341504	52	4130
2026-01-13 06:22:10.75	329.55	13.88	-41.1	-42.3	18.2	0.00e+00	0	44	0	1006632960	52	4161
2026-01-13 06:22:11.75	329.35	13.90	-41.0	-42.2	18.2	0.00e+00	0	44	0	1013972992	52	4134
2026-01-13 06:22:12.75	329.15	13.92	-41.0	-42.3	18.2	0.00e+00	0	44	0	1021313024	52	4147
2026-01-13 06:22:13.75	328.95	13.94	-41.2	-42.4	18.0	0.00e+00	0	44	0	1028653056	52	4227
2026-01-13 06:22:14.76	328.74	13.96	-41.1	-42.3	18.1	0.00e+00	0	44	0	1035993088	52	4180
2026-01-13 06:22:15.76	328.54	13.98	-41.1	-42.3	18.2	0.00e+00	0	44	0	1043333120	52	4167
2026-01-13 06:22:16.76	328.34	14.00	-41.2	-42.3	18.1	0.00e+00	0	44	0	1050673152	52	4189
2026-01-13 06:22:17.77	328.14	14.02	-41.3	-42.5	18.0	0.00e+00	0	44	0	1058013184	52	4252
2026-01-13 06:22:18.77	327.93	14.04	-41.3	-42.5	18.0	0.00e+00	0	44	0	1064304640	52	4252
2026-01-13 06:22:19.77	327.73	14.05	-41.4	-42.6	17.9	0.00e+00	0	44	0	1071644672	52	4313
2026-01-13 06:22:20.77	327.53	14.07	-41.5	-42.7	17.7	0.00e+00	0	44	0	1078984704	52	4379
2026-01-13 06:22:21.77	327.33	14.09	-41.3	-42.6	17.9	0.00e+00	0	44	0	1086324736	52	4300
2026-01-13 06:22:22.78	327.12	14.11	-41.4	-42.7	17.8	0.00e+00	0	44	0	1093664768	52	4356
2026-01-13 06:22:23.77	326.92	14.12	-41.2	-42.4	18.0	0.00e+00	0	44	0	1101004800	52	4217
2026-01-13 06:22:24.77	326.72	14.14	-41.1	-42.3	18.1	0.00e+00	0	44	0	1108344832	52	4176
2026-01-13 06:22:25.77	326.51	14.15	-41.0	-42.2	18.3	0.00e+00	0	44	0	1115684864	52	4139
2026-01-13 06:22:26.77	326.31	14.17	-41.1	-42.3	18.2	0.00e+00	0	44	0	1123024896	52	4146
2026-01-13 06:22:27.78	326.10	14.18	-41.1	-42.3	18.2	0.00e+00	0	44	0	1129316352	52	4170
2026-01-13 06:22:28.77	325.90	14.20	-41.1	-42.3	18.1	0.00e+00	0	44	0	1136656384	52	4192
2026-01-13 06:22:29.78	325.70	14.21	-41.1	-42.3	18.1	0.00e+00	0	44	0	1143996416	52	4190
2026-01-13 06:22:30.78	325.49	14.23	-41.1	-42.4	18.1	0.00e+00	0	44	0	1151336448	52	4196
2026-01-13 06:22:31.78	325.29	14.24	-41.0	-42.3	18.2	0.00e+00	0	44	0	1158676480	52	4172
2026-01-13 06:22:32.78	325.08	14.25	-41.0	-42.3	18.2	0.00e+00	0	44	0	1166016512	52	4168
2026-01-13 06:22:33.78	324.88	14.27	-41.0	-42.3	18.1	0.00e+00	0	44	0	1173356544	52	4181
2026-01-13 06:22:34.78	324.67	14.28	-41.1	-42.4	18.1	0.00e+00	0	44	0	1180696576	52	4201
2026-01-13 06:22:35.78	324.46	14.29	-41.4	-42.6	17.9	0.00e+00	0	44	0	1188036608	52	4332
2026-01-13 06:22:36.78	324.26	14.30	-41.4	-42.7	17.8	0.00e+00	0	44	0	1195376640	52	4355
2026-01-13 06:22:37.78	324.05	14.32	-41.5	-42.7	17.8	0.00e+00	0	44	0	1202716672	52	4372
2026-01-13 06:22:38.78	323.85	14.33	-41.6	-42.8	17.7	0.00e+00	0	44	0	1210056704	52	4394
2026-01-13 06:22:39.78	323.64	14.34	-41.6	-42.8	17.7	0.00e+00	0	44	0	1216348160	52	4423
2026-01-13 06:22:40.78	323.43	14.35	-41.6	-42.8	17.7	0.00e+00	0	44	0	1223688192	52	4405
2026-01-13 06:22:41.78	323.23	14.36	-41.4	-42.5	17.9	0.00e+00	0	44	0	1231028224	52	4278
2026-01-13 06:22:42.78	323.02	14.37	-41.2	-42.4	18.1	0.00e+00	0	44	0	1238368256	52	4205
2026-01-13 06:22:43.78	322.81	14.38	-41.1	-42.3	18.2	0.00e+00	0	44	0	1245708288	52	4152
2026-01-13 06:22:44.78	322.61	14.39	-41.3	-42.5	18.0	0.00e+00	0	44	0	1253048320	52	4246
2026-01-13 06:22:45.79	322.40	14.39	-41.2	-42.3	18.2	0.00e+00	0	44	0	1260388352	52	4156
2026-01-13 06:22:46.79	322.19	14.40	-41.0	-42.1	18.4	0.00e+00	0	44	0	1267728384	52	4076
2026-01-13 06:22:47.79	321.98	14.41	-40.9	-42.0	18.5	0.00e+00	0	44	0	1274019840	52	4030
2026-01-13 06:22:48.79	321.77	14.42	-41.1	-42.2	18.3	0.00e+00	0	44	0	1281359872	52	4130
2026-01-13 06:22:49.79	321.57	14.42	-41.1	-42.3	18.2	0.00e+00	0	44	0	1288699904	52	4150
2026-01-13 06:22:50.79	321.36	14.43	-41.1	-42.2	18.2	0.00e+00	0	44	0	1296039936	52	4139
2026-01-13 06:22:51.79	321.15	14.44	-41.0	-42.2	18.3	0.00e+00	0	44	0	1303379968	52	4117
2026-01-13 06:22:52.79	320.94	14.44	-41.2	-42.4	18.1	0.00e+00	0	44	0	1310720000	52	4229
2026-01-13 06:22:53.79	320.74	14.45	-41.1	-42.3	18.2	0.00e+00	0	44	0	1318060032	52	4171
2026-01-13 06:22:54.79	320.53	14.45	-41.3	-42.4	18.1	0.00e+00	0	44	0	1325400064	52	4220
2026-01-13 06:22:55.79	320.32	14.46	-41.0	-42.1	18.3	0.00e+00	0	44	0	1332740096	52	4089
2026-01-13 06:22:56.79	320.11	14.46	-41.1	-42.2	18.3	0.00e+00	0	44	0	1339031552	52	4124
2026-01-13 06:22:57.79	319.90	14.47	-41.0	-42.2	18.3	0.00e+00	0	44	0	1346371584	52	4107
2026-01-13 06:22:58.79	319.69	14.47	-41.0	-42.1	18.4	0.00e+00	0	44	0	1353711616	52	4081
2026-01-13 06:22:59.79	319.49	14.47	-41.1	-42.3	18.2	0.00e+00	0	44	0	1361051648	52	4152
2026-01-13 06:23:00.80	319.28	14.48	-41.0	-42.1	18.4	0.00e+00	0	44	0	1368391680	52	4082
2026-01-13 06:23:01.80	319.07	14.48	-41.0	-42.2	18.3	0.00e+00	0	44	0	1375731712	52	4119
2026-01-13 06:23:02.80	318.86	14.48	-41.0	-42.2	18.3	0.00e+00	0	44	0	1383071744	52	4126
2026-01-13 06:23:03.80	318.65	14.48	-41.0	-42.2	18.2	0.00e+00	0	44	0	1390411776	52	4136
2026-01-13 06:23:04.80	318.44	14.49	-41.2	-42.4	18.1	0.00e+00	0	44	0	1397751808	52	4201
2026-01-13 06:23:05.80	318.23	14.49	-41.2	-42.4	18.1	0.00e+00	0	44	0	1404043264	52	4216
2026-01-13 06:23:06.80	318.02	14.49	-41.3	-42.5	18.0	0.00e+00	0	44	0	1411383296	52	4287
2026-01-13 06:23:07.80	317.82	14.49	-41.2	-42.4	18.1	0.00e+00	0	44	0	1418723328	52	4227
2026-01-13 06:23:08.81	317.61	14.49	-41.3	-42.5	18.0	0.00e+00	0	44	0	1426063360	52	4258
2026-01-13 06:23:09.81	317.40	14.49	-41.2	-42.4	18.1	0.00e+00	0	44	0	1433403392	52	4222
2026-01-13 06:23:10.81	317.19	14.49	-41.2	-42.4	18.1	0.00e+00	0	44	0	1440743424	52	4224
2026-01-13 06:23:11.81	316.98	14.48	-41.2	-42.4	18.1	0.00e+00	0	44	0	1448083456	52	4233
2026-01-13 06:23:12.81	316.77	14.48	-41.1	-42.4	18.1	0.00e+00	0	44	0	1455423488	52	4194
2026-01-13 06:23:13.81	316.56	14.48	-41.1	-42.3	18.2	0.00e+00	0	44	0	1461714944	52	4173
2026-01-13 06:23:14.81	316.35	14.48	-41.2	-42.4	18.1	0.00e+00	0	44	0	1469054976	52	4200
2026-01-13 06:23:15.81	316.15	14.48	-41.1	-42.2	18.3	0.00e+00	0	44	0	1476395008	52	4141
2026-01-13 06:23:16.81	315.94	14.47	-41.0	-42.1	18.3	0.00e+00	0	44	0	1483735040	52	4084
2026-01-13 06:23:17.81	315.73	14.47	-41.0	-42.1	18.3	0.00e+00	0	44	0	1491075072	52	4097
2026-01-13 06:23:18.82	315.52	14.47	-41.0	-42.1	18.3	0.00e+00	0	44	0	1498415104	52	4098
2026-01-13 06:23:19.81	315.31	14.46	-40.9	-42.0	18.4	0.00e+00	0	44	0	1505755136	52	4051
2026-01-13 06:23:20.82	315.10	14.46	-41.0	-42.1	18.4	0.00e+00	0	44	0	1513095168	52	4078
2026-01-13 06:23:21.82	314.89	14.45	-40.9	-42.0	18.5	0.00e+00	0	44	0	1520435200	52	4020
2026-01-13 06:23:22.82	314.69	14.45	-40.9	-42.0	18.5	0.00e+00	0	44	0	1526726656	52	4024
2026-01-13 06:23:23.82	314.48	14.44	-40.9	-42.0	18.5	0.00e+00	0	44	0	1534066688	52	4019
2026-01-13 06:23:24.82	314.27	14.43	-40.9	-42.1	18.4	0.00e+00	0	44	0	1541406720	52	4057
2026-01-13 06:23:25.82	314.06	14.43	-40.9	-42.0	18.4	0.00e+00	0	44	0	1548746752	52	4036
2026-01-13 06:23:26.82	313.85	14.42	-41.0	-42.1	18.3	0.00e+00	0	44	0	1556086784	52	4095
2026-01-13 06:23:27.82	313.65	14.41	-40.9	-42.1	18.4	0.00e+00	0	44	0	1563426816	52	4069
2026-01-13 06:23:28.82	313.44	14.41	-40.8	-41.9	18.5	0.00e+00	0	44	0	1570766848	52	3995
2026-01-13 06:23:29.83	313.23	14.40	-40.9	-42.1	18.4	0.00e+00	0	44	0	1578106880	52	4052
2026-01-13 06:23:30.83	313.02	14.39	-40.9	-42.0	18.5	0.00e+00	0	44	0	1584398336	52	4028
2026-01-13 06:23:31.83	312.81	14.38	-40.8	-42.0	18.5	0.00e+00	0	44	0	1591738368	52	4024
2026-01-13 06:23:32.83	312.61	14.37	-40.9	-42.1	18.3	0.00e+00	0	44	0	1599078400	52	4067
2026-01-13 06:23:33.83	312.40	14.36	-40.9	-42.1	18.4	0.00e+00	0	44	0	1606418432	52	4057
2026-01-13 06:23:34.83	312.19	14.35	-40.8	-41.9	18.5	0.00e+00	0	44	0	1613758464	52	3991
2026-01-13 06:23:35.83	311.99	14.34	-40.8	-42.0	18.5	0.00e+00	0	44	0	1621098496	52	4020
2026-01-13 06:23:36.83	311.78	14.33	-40.8	-41.9	18.5	0.00e+00	0	44	0	1628438528	52	3991
2026-01-13 06:23:37.83	311.57	14.32	-40.9	-42.0	18.4	0.00e+00	0	44	0	1635778560	52	4029
2026-01-13 06:23:38.84	311.36	14.31	-40.9	-42.1	18.4	0.00e+00	0	44	0	1643118592	52	4053
2026-01-13 06:23:39.84	311.16	14.30	-41.0	-42.2	18.3	0.00e+00	0	44	0	1650458624	52	4100
2026-01-13 06:23:40.84	310.95	14.29	-41.1	-42.2	18.2	0.00e+00	0	44	0	1657798656	52	4133
2026-01-13 06:23:41.84	310.75	14.27	-41.0	-42.1	18.3	0.00e+00	0	44	0	1665138688	52	4089
2026-01-13 06:23:42.84	310.54	14.26	-41.0	-42.1	18.4	0.00e+00	0	44	0	1671430144	52	4085
2026-01-13 06:23:43.84	310.34	14.25	-41.1	-42.2	18.3	0.00e+00	0	44	0	1678770176	52	4115
2026-01-13 06:23:44.84	310.13	14.23	-41.1	-42.3	18.2	0.00e+00	0	44	0	1686110208	52	4163
2026-01-13 06:23:45.84	309.93	14.22	-41.0	-42.2	18.3	0.00e+00	0	44	0	1693450240	52	4113
2026-01-13 06:23:46.84	309.72	14.21	-41.0	-42.2	18.3	0.00e+00	0	44	0	1700790272	52	4100
2026-01-13 06:23:47.84	309.52	14.19	-41.1	-42.2	18.2	0.00e+00	0	44	0	1708130304	52	4118
2026-01-13 06:23:48.85	309.31	14.18	-41.2	-42.4	18.1	0.00e+00	0	44	0	1715470336	52	4195
2026-01-13 06:23:49.85	309.11	14.16	-41.3	-42.4	18.0	0.00e+00	0	44	0	1722810368	52	4218
2026-01-13 06:23:50.85	308.90	14.15	-41.2	-42.4	18.1	0.00e+00	0	44	0	1730150400	52	4201
2026-01-13 06:23:51.85	308.70	14.13	-41.3	-42.4	18.1	0.00e+00	0	44	0	1736441856	52	4211
2026-01-13 06:23:52.85	308.49	14.11	-41.2	-42.4	18.1	0.00e+00	0	44	0	1743781888	52	4213
2026-01-13 06:23:53.85	308.29	14.10	-41.3	-42.4	18.1	0.00e+00	0	44	0	1751121920	52	4242
2026-01-13 06:23:54.86	308.09	14.08	-41.2	-42.4	18.1	0.00e+00	0	44	0	1758461952	52	4195
2026-01-13 06:23:55.86	307.88	14.06	-41.2	-42.4	18.1	0.00e+00	0	44	0	1765801984	52	4211
2026-01-13 06:23:56.86	307.68	14.04	-41.1	-42.3	18.2	0.00e+00	0	44	0	1773142016	52	4158
2026-01-13 06:23:57.86	307.48	14.03	-41.0	-42.1	18.4	0.00e+00	0	44	0	1780482048	52	4076
2026-01-13 06:23:58.86	307.27	14.01	-41.2	-42.4	18.1	0.00e+00	0	44	0	1787822080	52	4209
2026-01-13 06:23:59.87	307.07	13.99	-41.1	-42.2	18.3	0.00e+00	0	44	0	1794113536	52	4140
2026-01-13 06:24:00.87	306.87	13.97	-41.1	-42.3	18.2	0.00e+00	0	44	0	1801453568	52	4161
2026-01-13 06:24:01.87	306.67	13.95	-41.3	-42.5	18.0	0.00e+00	0	44	0	1808793600	52	4243
2026-01-13 06:24:02.87	306.47	13.93	-41.3	-42.4	18.0	0.00e+00	0	44	0	1816133632	52	4236
2026-01-13 06:24:03.87	306.27	13.91	-41.3	-42.4	18.0	0.00e+00	0	44	0	1823473664	52	4240
2026-01-13 06:24:04.87	306.06	13.89	-41.2	-42.4	18.1	0.00e+00	0	44	0	1830813696	52	4215
2026-01-13 06:24:05.87	305.86	13.87	-41.3	-42.5	18.0	0.00e+00	0	44	0	1838153728	52	4262
2026-01-13 06:24:06.87	305.66	13.85	-41.2	-42.3	18.1	0.00e+00	0	44	0	1845493760	52	4189
2026-01-13 06:24:07.87	305.46	13.83	-41.3	-42.4	18.1	0.00e+00	0	44	0	1852833792	52	4220
2026-01-13 06:24:08.87	305.27	13.80	-41.3	-42.4	18.0	0.00e+00	0	44	0	1859125248	52	4215
2026-01-13 06:24:09.88	305.06	13.78	-41.4	-42.5	17.9	0.00e+00	0	44	0	1866465280	52	4279
2026-01-13 06:24:10.87	304.87	13.76	-41.3	-42.4	18.0	0.00e+00	0	44	0	1873805312	52	4222
2026-01-13 06:24:11.87	304.67	13.74	-41.2	-42.4	18.1	0.00e+00	0	44	0	1881145344	52	4194
2026-01-13 06:24:12.87	304.47	13.71	-41.4	-42.5	17.9	0.00e+00	0	44	0	1888485376	52	4280
2026-01-13 06:24:13.87	304.27	13.69	-41.5	-42.7	17.7	0.00e+00	0	44	0	1895825408	52	4362
2026-01-13 06:24:14.87	304.07	13.67	-41.5	-42.7	17.7	0.00e+00	0	44	0	1903165440	52	4378
2026-01-13 06:24:15.87	303.88	13.64	-41.4	-42.6	17.8	0.00e+00	0	44	0	1910505472	52	4306
2026-01-13 06:24:16.87	303.68	13.62	-41.4	-42.6	17.9	0.00e+00	0	44	0	1917845504	52	4295
2026-01-13 06:24:17.87	303.48	13.60	-41.4	-42.6	17.8	0.00e+00	0	44	0	1924136960	52	4323
2026-01-13 06:24:18.88	303.29	13.57	-41.3	-42.4	18.0	0.00e+00	0	44	0	1931476992	52	4222
2026-01-13 06:24:19.88	303.09	13.54	-41.4	-42.6	17.8	0.00e+00	0	44	0	1938817024	52	4293
2026-01-13 06:24:20.88	302.89	13.52	-41.5	-42.7	17.8	0.00e+00	0	44	0	1946157056	52	4350
2026-01-13 06:24:21.88	302.70	13.49	-41.4	-42.6	17.8	0.00e+00	0	44	0	1953497088	52	4310
2026-01-13 06:24:22.88	302.50	13.47	-41.3	-42.5	17.9	0.00e+00	0	44	0	1960837120	52	4255
2026-01-13 06:24:23.88	302.31	13.44	-41.4	-42.6	17.9	0.00e+00	0	44	0	1968177152	52	4300
2026-01-13 06:24:24.88	302.11	13.41	-41.4	-42.6	17.8	0.00e+00	0	44	0	1975517184	52	4310
2026-01-13 06:24:25.88	301.92	13.39	-41.4	-42.5	17.9	0.00e+00	0	44	0	1981808640	52	4283
2026-01-13 06:24:26.88	301.73	13.36	-41.3	-42.5	17.9	0.00e+00	0	44	0	1990197248	52	4262
2026-01-13 06:24:27.89	301.53	13.33	-41.4	-42.6	17.8	0.00e+00	0	44	0	1997537280	52	4303
2026-01-13 06:24:28.89	301.34	13.30	-41.5	-42.6	17.8	0.00e+00	0	44	0	2003828736	52	4322
2026-01-13 06:24:29.89	301.15	13.28	-41.4	-42.5	17.8	0.00e+00	0	44	0	2011168768	52	4290
2026-01-13 06:24:30.89	300.95	13.25	-41.5	-42.6	17.8	0.00e+00	0	44	0	2018508800	52	4322
2026-01-13 06:24:31.89	300.76	13.22	-41.5	-42.6	17.8	0.00e+00	0	44	0	2025848832	52	4337
2026-01-13 06:24:32.89	300.57	13.19	-41.5	-42.7	17.8	0.00e+00	0	44	0	2033188864	52	4345
2026-01-13 06:24:33.90	300.38	13.16	-41.6	-42.8	17.6	0.00e+00	0	44	0	2040528896	52	4408
2026-01-13 06:24:34.90	300.19	13.13	-41.6	-42.8	17.6	0.00e+00	0	44	0	2047868928	52	4429
2026-01-13 06:24:35.90	300.00	13.10	-41.7	-42.9	17.6	0.00e+00	0	44	0	2055208960	52	4451
2026-01-13 06:24:36.90	299.81	13.07	-41.7	-42.9	17.5	0.00e+00	0	44	0	2062548992	52	4475
2026-01-13 06:24:37.90	299.62	13.04	-41.8	-43.0	17.4	0.00e+00	0	44	0	2068840448	53	4262
2026-01-13 06:24:38.90	299.43	13.01	-41.7	-42.9	17.5	0.00e+00	0	44	0	2076180480	53	4218
2026-01-13 06:24:39.90	299.24	12.98	-41.7	-42.9	17.5	0.00e+00	0	44	0	2083520512	53	4220
2026-01-13 06:24:40.90	299.05	12.95	-41.6	-42.8	17.4	0.00e+00	0	44	0	2090860544	53	4152
2026-01-13 06:24:41.91	298.86	12.92	-41.6	-42.7	17.7	0.00e+00	0	44	0	2098200576	53	4134
2026-01-13 06:24:42.91	298.67	12.88	-41.7	-42.9	17.6	0.00e+00	0	44	0	2105540608	53	4194
2026-01-13 06:24:43.91	298.49	12.85	-41.7	-42.9	17.5	0.00e+00	0	44	0	2112880640	53	4227
2026-01-13 06:24:44.91	298.30	12.82	-41.7	-42.9	17.5	0.00e+00	0	44	0	2120220672	53	4223
2026-01-13 06:24:45.91	298.11	12.79	-41.9	-43.1	17.4	0.00e+00	0	44	0	2126512128	53	4298
2026-01-13 06:24:46.91	297.93	12.76	-41.9	-43.1	17.3	0.00e+00	0	44	0	2133852160	53	4305
2026-01-13 06:24:47.92	297.74	12.72	-41.8	-43.0	17.4	0.00e+00	0	44	0	2141192192	53	4287
2026-01-13 06:24:48.92	297.56	12.69	-41.7	-42.9	17.5	0.00e+00	0	44	0	2148532224	53	4216
2026-01-13 06:24:49.92	297.37	12.66	-41.8	-43.0	17.4	0.00e+00	0	44	0	2155872256	53	4270
2026-01-13 06:24:50.92	297.19	12.62	-41.8	-43.1	17.4	0.00e+00	0	44	0	2163212288	53	4294
2026-01-13 06:24:51.92	297.00	12.59	-41.7	-42.8	17.6	0.00e+00	0	44	0	2170552320	53	4181
2026-01-13 06:24:52.93	296.82	12.55	-41.9	-43.1	17.4	0.00e+00	0	44	0	2177892352	53	4295
2026-01-13 06:24:53.93	296.64	12.52	-41.7	-42.9	17.6	0.00e+00	0	44	0	2185232384	53	4199
2026-01-13 06:24:54.93	296.45	12.48	-41.8	-43.0	17.4	0.00e+00	0	44	0	2191523840	53	4279
2026-01-13 06:24:55.93	296.27	12.45	-41.6	-42.8	17.6	0.00e+00	0	44	0	2198863872	53	4169
2026-01-13 06:24:56.93	296.09	12.41	-41.8	-43.0	17.4	0.00e+00	0	44	0	2206203904	53	4251
2026-01-13 06:24:57.93	295.91	12.38	-41.8	-43.0	17.4	0.00e+00	0	44	0	2213543936	53	4249
2026-01-13 06:24:58.93	295.73	12.34	-41.7	-42.9	17.5	0.00e+00	0	44	0	2220883968	53	4219
2026-01-13 06:24:59.94	295.55	12.31	-41.9	-43.1	17.3	0.00e+00	0	44	0	2228224000	53	4317
2026-01-13 06:25:00.94	295.37	12.27	-41.9	-43.1	17.3	0.00e+00	0	44	0	2235564032	53	4314
2026-01-13 06:25:01.94	295.19	12.23	-42.0	-43.2	17.2	0.00e+00	0	44	0	2242904064	53	4376
2026-01-13 06:25:02.94	295.01	12.20	-41.9	-43.1	17.3	0.00e+00	0	44	0	2250244096	53	4340
2026-01-13 06:25:03.94	294.83	12.16	-42.0	-43.2	17.2	0.00e+00	0	44	0	2257584128	53	4377
2026-01-13 06:25:04.94	294.65	12.12	-42.0	-43.2	17.2	0.00e+00	0	44	0	2264924160	53	4389
2026-01-13 06:25:05.94	294.47	12.09	-42.1	-43.3	17.1	0.00e+00	0	44	0	2272264192	53	4401
2026-01-13 06:25:06.95	294.29	12.05	-42.0	-43.2	17.2	0.00e+00	0	44	0	2278555648	53	4362
2026-01-13 06:25:07.95	294.12	12.01	-42.1	-43.3	17.1	0.00e+00	0	44	0	2285895680	53	4414
2026-01-13 06:25:08.95	293.94	11.97	-42.1	-43.3	17.1	0.00e+00	0	44	0	2293235712	53	4428
2026-01-13 06:25:09.95	293.77	11.94	-42.2	-43.4	17.0	0.00e+00	0	44	0	2300575744	53	4488
2026-01-13 06:25:10.95	293.59	11.90	-42.2	-43.5	17.0	0.00e+00	0	44	0	2307915776	54	4243
2026-01-13 06:25:11.95	293.42	11.86	-42.1	-43.3	17.1	0.00e+00	0	44	0	2315255808	54	4177
2026-01-13 06:25:12.96	293.24	11.82	-41.9	-43.1	17.3	0.00e+00	0	44	0	2322595840	54	4083
2026-01-13 06:25:13.96	293.07	11.78	-42.0	-43.2	17.2	0.00e+00	0	44	0	2329935872	54	4124
2026-01-13 06:25:14.96	292.89	11.74	-42.0	-43.2	17.2	0.00e+00	0	44	0	2336227328	54	4135
2026-01-13 06:25:15.96	292.72	11.70	-42.2	-43.4	17.0	0.00e+00	0	44	0	2343567360	54	4223
2026-01-13 06:25:16.96	292.55	11.66	-42.1	-43.4	17.0	0.00e+00	0	44	0	2350907392	54	4209
2026-01-13 06:25:17.96	292.37	11.63	-42.2	-43.4	17.0	0.00e+00	0	44	0	2358247424	54	4231
2026-01-13 06:25:18.96	292.20	11.59	-42.2	-43.5	17.0	0.00e+00	0	44	0	2365587456	54	4257
2026-01-13 06:25:19.96	292.03	11.55	-42.3	-43.5	16.9	0.00e+00	0	44	0	2372927488	54	4276
2026-01-13 06:25:20.97	291.86	11.51	-42.4	-43.7	16.7	0.00e+00	0	44	0	2380267520	54	4357
2026-01-13 06:25:21.97	291.69	11.46	-42.3	-43.6	16.8	0.00e+00	0	44	0	2387607552	54	4299
2026-01-13 06:25:22.97	291.52	11.42	-42.4	-43.7	16.7	0.00e+00	0	44	0	2394947584	54	4354
2026-01-13 06:25:23.97	291.35	11.38	-42.4	-43.6	16.8	0.00e+00	0	44	0	2401239040	54	4331
2026-01-13 06:25:24.97	291.18	11.34	-42.5	-43.8	16.6	0.00e+00	0	44	0	2408579072	54	4412
2026-01-13 06:25:25.97	291.01	11.30	-42.5	-43.8	16.7	0.00e+00	0	44	0	2415919104	54	4407
2026-01-13 06:25:26.97	290.85	11.26	-42.4	-43.7	16.7	0.00e+00	0	44	0	2423259136	54	4371
2026-01-13 06:25:27.97	290.68	11.22	-42.5	-43.8	16.6	0.00e+00	0	44	0	2430599168	54	4431
2026-01-13 06:25:28.98	290.51	11.18	-42.6	-43.9	16.5	0.00e+00	0	44	0	2437939200	54	4481
2026-01-13 06:25:29.98	290.34	11.14	-42.6	-43.9	16.5	0.00e+00	0	44	0	2445279232	54	4461
2026-01-13 06:25:30.98	290.18	11.09	-42.4	-43.7	16.7	0.00e+00	0	44	0	2452619264	54	4353
2026-01-13 06:25:31.98	290.01	11.05	-42.5	-43.8	16.6	0.00e+00	0	44	0	2459959296	54	4395
2026-01-13 06:25:32.98	289.85	11.01	-42.6	-43.9	16.3	0.00e+00	0	44	0	2466250752	54	4460
2026-01-13 06:25:33.98	289.68	10.97	-42.5	-43.8	16.5	0.00e+00	0	44	0	2473590784	54	4409
2026-01-13 06:25:34.98	289.52	10.93	-42.5	-43.8	16.5	0.00e+00	0	44	0	2481979392	54	4411
2026-01-13 06:25:35.99	289.35	10.88	-42.4	-43.8	16.5	0.00e+00	0	44	0	2488270848	54	4398
2026-01-13 06:25:36.98	289.19	10.84	-42.3	-43.6	16.7	0.00e+00	0	44	0	2495610880	54	4334
2026-01-13 06:25:37.99	289.03	10.80	-42.5	-43.8	16.6	0.00e+00	0	44	0	2502950912	54	4420
2026-01-13 06:25:38.99	288.87	10.75	-42.5	-43.9	16.5	0.00e+00	0	44	0	2510290944	54	4448
2026-01-13 06:25:39.99	288.70	10.71	-42.4	-43.7	16.7	0.00e+00	0	44	0	2517630976	54	4387
2026-01-13 06:25:40.99	288.54	10.67	-42.4	-43.7	16.7	0.00e+00	0	44	0	2524971008	54	4367
2026-01-13 06:25:41.99	288.38	10.62	-42.5	-43.8	16.6	0.00e+00	0	44	0	2532311040	54	4398
2026-01-13 06:25:42.99	288.22	10.58	-42.5	-43.8	16.6	0.00e+00	0	44	0	2539651072	54	4401
2026-01-13 06:25:43.99	288.06	10.54	-42.5	-43.8	16.6	0.00e+00	0	44	0	2545942528	54	4414
2026-01-13 06:25:44.99	287.90	10.49	-42.5	-43.7	16.6	0.00e+00	0	44	0	2553282560	54	4391
2026-01-13 06:25:45.99	287.74	10.45	-42.2	-43.4	17.0	0.00e+00	0	44	0	2560622592	54	4229
2026-01-13 06:25:46.99	287.59	10.40	-42.3	-43.6	16.8	0.00e+00	0	44	0	2567962624	54	4319
2026-01-13 06:25:47.99	287.43	10.36	-42.5	-43.8	16.6	0.00e+00	0	44	0	2575302656	54	4417
2026-01-13 06:25:48.99	287.27	10.32	-42.6	-43.9	16.5	0.00e+00	0	44	0	2582642688	54	4462
2026-01-13 06:25:49.99	287.11	10.27	-42.4	-43.7	16.7	0.00e+00	0	44	0	2589982720	54	4359
2026-01-13 06:25:50.99	286.96	10.23	-42.3	-43.6	16.8	0.00e+00	0	44	0	2597322752	54	4300
2026-01-13 06:25:51.99	286.80	10.18	-42.5	-43.7	16.6	0.00e+00	0	44	0	2604662784	54	4390
2026-01-13 06:25:52.99	286.65	10.14	-42.6	-43.9	16.5	0.00e+00	0	44	0	2610954240	54	4461
2026-01-13 06:25:53.99	286.49	10.09	-42.5	-43.8	16.6	0.00e+00	0	44	0	2618294272	54	4399
2026-01-13 06:25:54.99	286.34	10.05	-42.5	-43.8	16.6	0.00e+00	0	44	0	2625634304	54	4418
2026-01-13 06:25:55.99	286.18	10.00	-42.5	-43.8	16.6	0.00e+00	0	44	0	2632974336	54	4416
2026-01-13 06:25:56.99	286.03	9.96	-42.6	-43.9	16.5	0.00e+00	0	44	0	2640314368	54	4483
2026-01-13 06:25:58.00	285.88	9.91	-42.7	-44.0	16.4	0.00e+00	0	44	0	2647654400	54	4514
2026-01-13 06:25:59.00	285.72	9.87	-42.5	-43.8	16.5	0.00e+00	0	44	0	2654994432	54	4424
2026-01-13 06:26:00.00	285.57	9.82	-42.6	-44.0	16.4	0.00e+00	0	44	0	2662334464	54	4498
2026-01-13 06:26:01.00	285.42	9.77	-42.6	-43.9	16.4	0.00e+00	0	44	0	2668625920	54	4481
2026-01-13 06:26:02.00	285.27	9.73	-42.8	-44.2	16.2	0.00e+00	0	44	0	2675965952	55	4348
2026-01-13 06:26:03.00	285.12	9.68	-42.8	-44.2	16.2	0.00e+00	0	44	0	2683305984	55	4358
2026-01-13 06:26:04.00	284.97	9.64	-42.8	-44.2	16.2	0.00e+00	0	44	0	2690646016	55	4342
2026-01-13 06:26:05.00	284.82	9.59	-42.6	-43.9	16.4	0.00e+00	0	44	0	2697986048	55	4214
2026-01-13 06:26:06.00	284.67	9.54	-42.7	-44.1	16.3	0.00e+00	0	44	0	2705326080	55	4311
2026-01-13 06:26:07.00	284.52	9.50	-42.4	-43.7	16.6	0.00e+00	0	44	0	2712666112	55	4126
2026-01-13 06:26:08.00	284.37	9.45	-42.7	-44.1	16.3	0.00e+00	0	44	0	2720006144	55	4297
2026-01-13 06:26:09.01	284.22	9.40	-42.8	-44.1	16.2	0.00e+00	0	44	0	2727346176	55	4336
2026-01-13 06:26:10.01	284.08	9.36	-42.4	-43.7	16.6	0.00e+00	0	44	0	2733637632	55	4135
2026-01-13 06:26:11.01	283.93	9.31	-42.5	-43.9	16.5	0.00e+00	0	44	0	2740977664	55	4194
2026-01-13 06:26:12.01	283.78	9.26	-42.5	-43.8	16.5	0.00e+00	0	44	0	2748317696	55	4174
2026-01-13 06:26:13.02	283.64	9.22	-42.5	-43.8	16.5	0.00e+00	0	44	0	2755657728	55	4186
2026-01-13 06:26:14.02	283.49	9.17	-42.6	-43.9	16.5	0.00e+00	0	44	0	2762997760	55	4214
2026-01-13 06:26:15.02	283.35	9.12	-42.9	-44.3	16.0	0.00e+00	0	44	0	2770337792	55	4422
2026-01-13 06:26:16.02	283.20	9.07	-42.7	-44.0	16.3	0.00e+00	0	44	0	2777677824	55	4266
2026-01-13 06:26:17.02	283.06	9.03	-42.8	-44.2	16.2	0.00e+00	0	44	0	2785017856	55	4348
2026-01-13 06:26:18.02	282.92	8.98	-50.7	-59.5	3.8	4.48e-01	0	44	104	2790260736	71	10114
2026-01-13 06:26:19.01	282.77	8.93	-51.2	-62.0	3.8	8.47e-01	0	44	104	2790260736	71	13427
2026-01-13 06:26:20.01	282.63	8.88	-51.3	-62.1	3.8	8.48e-01	0	44	104	2790260736	72	12939
2026-01-13 06:26:21.00	282.49	8.84	-51.3	-62.2	3.8	8.46e-01	0	44	104	2790260736	72	13102
2026-01-13 06:26:22.00	282.35	8.79	-51.4	-62.3	3.8	8.47e-01	0	44	104	2790260736	72	13198
2026-01-13 06:26:22.99	282.21	8.74	-51.4	-62.4	3.8	8.46e-01	0	44	104	2790260736	72	13262
2026-01-13 06:26:23.99	282.07	8.69	-51.5	-62.4	3.8	8.46e-01	0	44	104	2790260736	72	13367
2026-01-13 06:26:24.98	281.93	8.65	-51.6	-62.5	3.8	8.47e-01	0	44	104	2790260736	72	13452
2026-01-13 06:26:25.98	281.79	8.60	-51.7	-62.5	3.8	8.47e-01	0	44	104	2790260736	72	13444
2026-01-13 06:26:26.98	281.65	8.55	-51.7	-62.5	3.8	8.47e-01	0	44	104	2790260736	72	13474
2026-01-13 06:26:27.97	281.52	8.50	-51.6	-62.5	3.8	8.47e-01	0	44	104	2790260736	72	13482
2026-01-13 06:26:28.96	281.38	8.46	-51.6	-62.5	3.8	8.47e-01	0	44	104	2790260736	72	13438
2026-01-13 06:26:29.96	281.24	8.41	-51.6	-62.5	3.8	8.46e-01	0	44	104	2790260736	72	13425
2026-01-13 06:26:30.96	281.10	8.36	-51.6	-62.5	3.8	8.46e-01	0	44	104	2790260736	72	13433
2026-01-13 06:26:31.95	280.97	8.31	-51.6	-62.5	3.8	8.47e-01	0	44	104	2790260736	72	13556
2026-01-13 06:26:32.95	280.83	8.26	-51.5	-62.5	3.8	8.47e-01	0	44	104	2790260736	72	13438
2026-01-13 06:26:33.94	280.70	8.22	-51.5	-62.5	3.8	8.46e-01	0	44	104	2790260736	72	13421
2026-01-13 06:26:34.94	280.56	8.17	-51.6	-62.4	3.8	8.46e-01	0	44	104	2790260736	72	13404
2026-01-13 06:26:35.93	280.43	8.12	-51.6	-62.5	3.8	8.47e-01	0	44	104	2790260736	72	13432
2026-01-13 06:26:36.93	280.29	8.07	-51.6	-62.5	3.8	8.47e-01	0	44	104	2790260736	72	13434
2026-01-13 06:26:37.92	280.16	8.02	-51.6	-62.4	3.8	8.47e-01	0	44	104	2790260736	72	13293
2026-01-13 06:26:38.92	280.03	7.97	-51.5	-62.4	3.8	8.47e-01	0	44	104	2790260736	72	13345
2026-01-13 06:26:39.91	279.89	7.92	-51.5	-62.4	3.8	8.47e-01	0	44	104	2790260736	72	13297
2026-01-13 06:26:40.91	279.76	7.88	-51.4	-62.4	3.8	8.47e-01	0	44	104	2790260736	72	13267
2026-01-13 06:26:41.91	279.63	7.83	-51.4	-62.4	3.8	8.47e-01	0	44	104	2790260736	72	13295
2026-01-13 06:26:42.90	279.50	7.78	-51.4	-62.4	3.8	8.47e-01	0	44	104	2790260736	72	13262
2026-01-13 06:26:43.90	279.37	7.73	-51.4	-62.4	3.8	8.47e-01	0	44	104	2790260736	72	13307
2026-01-13 06:26:44.89	279.24	7.68	-51.4	-62.3	3.8	8.47e-01	0	44	104	2790260736	72	13243
2026-01-13 06:26:45.89	279.11	7.63	-51.4	-62.3	3.8	8.47e-01	0	44	104	2790260736	72	13254
2026-01-13 06:26:46.88	278.98	7.58	-51.4	-62.3	3.8	8.46e-01	0	44	104	2790260736	72	13244
2026-01-13 06:26:47.88	278.85	7.53	-51.4	-62.4	3.8	8.47e-01	0	44	104	2790260736	72	13264
2026-01-13 06:26:48.88	278.72	7.48	-51.4	-62.3	3.8	8.47e-01	0	44	104	2790260736	72	13238
2026-01-13 06:26:49.88	278.59	7.44	-51.4	-62.3	3.8	8.46e-01	0	44	104	2790260736	72	13259
2026-01-13 06:26:50.88	278.46	7.39	-51.4	-62.3	3.8	8.46e-01	0	44	104	2790260736	72	13201
2026-01-13 06:26:51.87	278.34	7.34	-51.4	-62.4	3.8	8.47e-01	0	44	104	2790260736	72	13261
2026-01-13 06:26:52.87	278.21	7.29	-51.4	-62.4	3.8	8.47e-01	0	44	104	2790260736	72	13277
2026-01-13 06:26:53.87	278.08	7.24	-51.4	-62.3	3.8	8.46e-01	0	44	104	2790260736	72	13254
2026-01-13 06:26:54.87	277.96	7.19	-51.4	-62.3	3.8	8.47e-01	0	44	104	2790260736	72	13258
2026-01-13 06:26:55.86	277.83	7.14	-51.4	-62.4	3.8	8.48e-01	0	44	104	2790260736	72	13261
2026-01-13 06:26:56.86	277.71	7.09	-51.4	-62.3	3.8	8.46e-01	0	44	104	2790260736	72	13216
2026-01-13 06:26:57.86	277.58	7.04	-51.4	-62.4	3.8	8.46e-01	0	44	104	2790260736	72	13283
2026-01-13 06:26:58.85	277.46	6.99	-51.4	-62.3	3.8	8.46e-01	0	44	104	2790260736	72	13193
2026-01-13 06:26:59.85	277.33	6.94	-51.4	-62.3	3.8	8.46e-01	0	44	104	2790260736	72	13216
2026-01-13 06:27:00.85	277.21	6.89	-51.4	-62.3	3.8	8.47e-01	0	44	104	2790260736	72	13235
2026-01-13 06:27:01.85	277.08	6.84	-51.4	-62.3	3.8	8.47e-01	0	44	104	2790260736	72	13251
2026-01-13 06:27:02.84	276.96	6.79	-51.4	-62.3	3.8	8.46e-01	0	44	104	2790260736	72	13203
2026-01-13 06:27:03.84	276.84	6.74	-51.4	-62.4	3.8	8.47e-01	0	44	104	2790260736	72	13270
2026-01-13 06:27:04.83	276.72	6.69	-51.4	-62.3	3.8	8.48e-01	0	44	104	2790260736	72	13120
2026-01-13 06:27:05.83	276.60	6.64	-51.4	-62.3	3.8	8.47e-01	0	44	104	2790260736	72	13228
2026-01-13 06:27:06.82	276.48	6.60	-51.4	-62.3	3.8	8.47e-01	0	44	104	2790260736	72	13254
2026-01-13 06:27:07.82	276.36	6.55	-51.4	-62.3	3.8	8.46e-01	0	44	104	2790260736	72	13226
2026-01-13 06:27:08.82	276.24	6.50	-51.4	-62.3	3.8	8.46e-01	0	44	104	2790260736	72	13212
2026-01-13 06:27:09.82	276.12	6.45	-51.4	-62.3	3.8	8.46e-01	0	44	104	2790260736	72	13170
2026-01-13 06:27:10.81	276.00	6.40	-51.4	-62.3	3.8	8.46e-01	0	44	104	2790260736	72	13208
2026-01-13 06:27:11.81	275.88	6.35	-51.4	-62.3	3.8	8.48e-01	0	44	104	2790260736	72	13206
2026-01-13 06:27:12.80	275.76	6.30	-51.4	-62.3	3.8	8.47e-01	0	44	104	2790260736	72	13168
2026-01-13 06:27:13.80	275.64	6.25	-51.4	-62.3	3.8	8.46e-01	0	44	104	2790260736	72	13233
2026-01-13 06:27:14.80	275.52	6.20	-51.4	-62.3	3.8	8.48e-01	0	44	104	2790260736	72	13200
2026-01-13 06:27:15.79	275.41	6.15	-51.4	-62.3	3.8	8.47e-01	0	44	104	2790260736	72	13202
2026-01-13 06:27:16.79	275.29	6.10	-51.4	-62.3	3.8	8.47e-01	0	44	104	2790260736	72	13173
2026-01-13 06:27:17.78	275.17	6.05	-51.4	-62.3	3.8	8.46e-01	0	44	104	2790260736	72	13186
2026-01-13 06:27:18.78	275.06	6.00	-51.4	-62.3	3.8	8.47e-01	0	44	104	2790260736	72	13201
2026-01-13 06:27:19.78	274.94	5.95	-51.4	-62.3	3.8	8.47e-01	0	44	104	2790260736	72	13216
2026-01-13 06:27:20.77	274.83	5.90	-51.4	-62.3	3.8	8.46e-01	0	44	104	2790260736	72	13182
2026-01-13 06:27:21.77	274.71	5.85	-51.4	-62.3	3.8	8.47e-01	0	44	104	2790260736	72	13241
2026-01-13 06:27:22.77	274.60	5.80	-51.4	-62.3	3.8	8.47e-01	0	44	104	2790260736	72	13197
2026-01-13 06:27:23.76	274.48	5.75	-51.4	-62.3	3.8	8.45e-01	0	44	104	2790260736	72	13248
2026-01-13 06:27:24.76	274.37	5.70	-51.4	-62.3	3.8	8.47e-01	0	44	104	2790260736	72	13242
2026-01-13 06:27:25.76	274.26	5.65	-51.4	-62.3	3.8	8.46e-01	0	44	104	2790260736	72	13147
2026-01-13 06:27:26.75	274.14	5.60	-51.4	-62.3	3.8	8.47e-01	0	44	104	2790260736	72	13132
2026-01-13 06:27:27.75	274.03	5.55	-51.4	-62.3	3.8	8.47e-01	0	44	104	2790260736	72	13166
2026-01-13 06:27:28.74	273.92	5.50	-51.4	-62.3	3.8	8.47e-01	0	44	104	2790260736	72	13142
2026-01-13 06:27:29.74	273.81	5.45	-51.4	-62.3	3.8	8.47e-01	0	44	104	2790260736	72	13154
2026-01-13 06:27:30.74	273.70	5.40	-51.4	-62.3	3.8	8.48e-01	0	44	104	2790260736	72	13243
2026-01-13 06:27:31.73	273.59	5.35	-51.4	-62.3	3.8	8.46e-01	0	44	104	2790260736	72	13210
2026-01-13 06:27:32.73	273.47	5.30	-51.4	-62.3	3.8	8.45e-01	0	44	104	2790260736	72	13188
2026-01-13 06:27:33.72	273.37	5.25	-51.4	-62.3	3.8	8.47e-01	0	44	104	2790260736	72	13178
2026-01-13 06:27:34.72	273.26	5.20	-51.4	-62.3	3.8	8.47e-01	0	44	104	2790260736	72	13172
2026-01-13 06:27:35.72	273.15	5.15	-51.4	-62.3	3.8	8.48e-01	0	44	104	2790260736	72	13165
2026-01-13 06:27:36.71	273.04	5.10	-51.4	-62.3	3.8	8.47e-01	0	44	104	2790260736	72	13127
2026-01-13 06:27:37.71	272.93	5.05	-51.3	-62.3	3.8	8.47e-01	0	44	104	2790260736	72	13145
2026-01-13 06:27:38.71	272.82	5.00	-51.4	-62.3	3.8	8.46e-01	0	44	104	2790260736	72	13237

#Closed at: 2026-01-13 06:27:39
#Recorded file [2790 MB]: D:/Data/31040_260113_091836.dat