passes_logs/2026/01/13/T1/T1__20260113_104214_AQUA_rec.log

#Pass ID: 20260113_104214_AQUA
#Satellite: AQUA
#Configuration: AQUA
#almurnet v.1.7.20251203
#Start time: 2026-01-13 10:42:15

#Version: 2.0.20230620
#Station: T1
#Location: 37.570604 lon 55.790049 lat
#TLE: 1 27424U 02022A   26012.29577270  .00001027  00000+0  21555-3 0  9995
#TLE: 2 27424  98.4078 338.6778 0002034  81.5885  29.6294 14.61817302260499

#Time	Az	El	Level	Level2	SNR	BER	BlckErr	Temp	State	Recorded	gain1	gain2
2026-01-13 10:42:15.98	128.20	5.12	-53.4	-73.4	3.8	7.46e-01	0	40	0	0	78	35697
2026-01-13 10:42:16.97	128.13	5.19	-53.4	-72.6	3.8	7.47e-01	0	40	104	0	77	34520
2026-01-13 10:42:17.96	128.07	5.26	-53.4	-72.4	3.8	7.44e-01	0	40	104	0	77	34067
2026-01-13 10:42:18.95	128.01	5.33	-53.4	-72.4	3.8	7.50e-01	0	40	104	0	77	33967
2026-01-13 10:42:19.95	127.94	5.40	-53.4	-72.5	3.8	7.48e-01	0	41	104	0	77	34265
2026-01-13 10:42:20.94	127.88	5.47	-53.4	-72.8	3.8	7.46e-01	0	40	104	0	77	35454
2026-01-13 10:42:21.93	127.81	5.55	-53.4	-73.0	3.8	7.48e-01	0	41	104	0	77	36276
2026-01-13 10:42:22.93	127.75	5.62	-53.4	-73.1	3.8	7.46e-01	0	41	104	0	77	36862
2026-01-13 10:42:23.92	127.68	5.69	-53.4	-73.3	3.8	7.44e-01	0	41	104	0	77	37625
2026-01-13 10:42:24.91	127.62	5.76	-53.4	-73.5	3.8	7.47e-01	0	41	104	0	77	38350
2026-01-13 10:42:25.91	127.55	5.83	-53.4	-73.6	3.8	7.50e-01	0	41	104	0	77	38728
2026-01-13 10:42:26.90	127.48	5.90	-53.4	-73.6	3.8	7.46e-01	0	41	104	0	77	38746
2026-01-13 10:42:27.89	127.42	5.97	-53.4	-73.5	3.8	7.49e-01	0	41	104	0	77	38621
2026-01-13 10:42:28.89	127.35	6.05	-53.4	-73.5	3.8	7.46e-01	0	41	104	0	77	38299
2026-01-13 10:42:29.88	127.28	6.12	-53.4	-73.4	3.8	7.46e-01	0	41	104	0	77	37849
2026-01-13 10:42:30.87	127.21	6.19	-53.4	-73.2	3.8	7.47e-01	0	41	104	0	77	37139
2026-01-13 10:42:31.86	127.14	6.26	-53.4	-72.9	3.8	7.51e-01	0	41	104	0	77	36093
2026-01-13 10:42:32.86	127.08	6.34	-53.4	-72.7	3.8	7.43e-01	0	41	104	0	77	34921
2026-01-13 10:42:33.85	127.01	6.41	-53.3	-72.3	3.8	7.45e-01	0	41	104	0	77	33515
2026-01-13 10:42:34.84	126.94	6.48	-53.4	-72.1	3.8	7.45e-01	0	41	104	0	77	32597
2026-01-13 10:42:35.84	126.87	6.56	-53.3	-71.9	3.8	7.47e-01	0	41	104	0	77	32011
2026-01-13 10:42:36.83	126.80	6.63	-53.3	-71.7	3.8	7.48e-01	0	41	104	0	77	31132
2026-01-13 10:42:37.82	126.73	6.70	-53.3	-71.8	3.8	7.43e-01	0	41	104	0	77	31451
2026-01-13 10:42:38.82	126.65	6.78	-53.4	-72.0	3.8	7.44e-01	0	41	104	0	77	32367
2026-01-13 10:42:39.81	126.58	6.85	-53.4	-72.4	3.8	7.47e-01	0	41	104	0	77	34028
2026-01-13 10:42:40.81	126.51	6.93	-53.4	-72.8	3.8	7.45e-01	0	41	104	0	77	35621
2026-01-13 10:42:41.80	126.44	7.00	-53.4	-73.0	3.8	7.43e-01	0	41	104	0	77	36201
2026-01-13 10:42:42.79	126.36	7.08	-53.3	-72.7	3.8	7.44e-01	0	41	104	0	77	34915
2026-01-13 10:42:43.79	126.29	7.15	-53.3	-71.8	3.8	7.44e-01	0	41	104	0	77	31454
2026-01-13 10:42:44.78	126.22	7.23	-53.3	-70.8	4.0	7.44e-01	0	41	104	0	77	28229
2026-01-13 10:42:45.77	126.14	7.30	-53.3	-69.8	4.2	7.33e-01	0	41	104	0	77	25226
2026-01-13 10:42:46.77	126.07	7.38	-53.3	-70.0	3.8	7.42e-01	0	41	104	0	77	25843
2026-01-13 10:42:47.76	125.99	7.46	-53.3	-70.5	4.1	7.38e-01	0	41	104	0	77	27344
2026-01-13 10:42:48.75	125.92	7.53	-53.4	-72.4	3.8	7.45e-01	0	41	104	0	77	33762
2026-01-13 10:42:49.75	125.84	7.61	-53.4	-72.7	3.8	7.45e-01	0	42	104	0	77	34979
2026-01-13 10:42:50.74	125.76	7.69	-53.2	-68.5	4.7	7.18e-01	0	41	104	0	77	21754
2026-01-13 10:42:51.73	125.69	7.76	-52.9	-64.2	7.9	6.49e-01	0	41	0	1048576	77	13151
2026-01-13 10:42:52.73	125.61	7.84	-52.4	-60.9	11.3	6.16e-01	0	42	0	2621440	76	9548
2026-01-13 10:42:53.72	125.53	7.92	-51.7	-58.1	14.1	6.08e-01	0	41	0	4718592	75	7371
2026-01-13 10:42:54.71	125.45	7.99	-50.9	-56.2	16.1	6.09e-01	0	42	0	6291456	73	6640
2026-01-13 10:42:55.71	125.37	8.07	-50.2	-54.7	17.6	6.07e-01	0	41	0	8388608	72	5869
2026-01-13 10:42:56.70	125.30	8.15	-49.7	-53.8	18.5	6.06e-01	0	41	0	10485760	71	5625
2026-01-13 10:42:57.70	125.22	8.23	-49.4	-53.2	19.1	6.07e-01	0	42	0	12058624	70	5571
2026-01-13 10:42:58.69	125.14	8.31	-49.2	-53.0	19.3	6.08e-01	0	42	0	14155776	70	5445
2026-01-13 10:42:59.68	125.06	8.38	-49.5	-53.4	19.0	6.07e-01	0	41	0	15728640	70	5659
2026-01-13 10:43:00.68	124.97	8.46	-49.9	-54.1	18.3	6.06e-01	0	42	0	17825792	70	6155
2026-01-13 10:43:01.67	124.89	8.54	-50.4	-55.0	17.4	6.07e-01	0	42	0	19398656	71	6494
2026-01-13 10:43:02.66	124.81	8.62	-51.1	-56.8	15.5	6.08e-01	0	42	0	21495808	72	7489
2026-01-13 10:43:03.65	124.73	8.70	-51.9	-59.0	13.4	6.12e-01	0	42	0	23068672	74	8621
2026-01-13 10:43:04.65	124.64	8.78	-52.6	-62.0	10.4	6.26e-01	0	42	0	25165824	75	11451
2026-01-13 10:43:05.64	124.56	8.86	-53.1	-66.1	6.4	6.81e-01	0	42	0	27262976	76	17384
2026-01-13 10:43:06.63	124.48	8.94	-53.3	-70.8	4.0	7.40e-01	0	42	104	27262976	77	28200
2026-01-13 10:43:07.63	124.39	9.02	-53.4	-72.6	3.8	7.47e-01	0	42	104	27262976	77	34692
2026-01-13 10:43:08.62	124.31	9.10	-53.0	-64.7	4.4	7.23e-01	0	42	104	27262976	77	13989
2026-01-13 10:43:09.62	124.22	9.18	-53.1	-64.5	8.2	6.46e-01	0	42	0	28311552	76	14426
2026-01-13 10:43:10.94	124.11	9.29	-53.4	-68.7	4.6	7.22e-01	0	42	104	28835840	77	22120
2026-01-13 10:43:11.70	124.04	9.35	-53.4	-69.9	4.2	7.32e-01	0	42	104	28835840	77	25313
2026-01-13 10:43:12.98	123.93	9.46	-53.4	-70.0	4.2	7.33e-01	0	42	104	28835840	77	25639
2026-01-13 10:43:13.69	123.86	9.52	-53.4	-70.3	4.2	7.36e-01	0	42	104	28835840	77	26553
2026-01-13 10:43:14.97	123.75	9.62	-53.4	-68.6	4.7	7.21e-01	0	42	104	28835840	77	21777
2026-01-13 10:43:15.68	123.69	9.68	-53.4	-68.7	4.0	7.36e-01	0	42	104	28835840	77	22168
2026-01-13 10:43:16.96	123.57	9.79	-53.2	-65.2	6.9	6.61e-01	0	42	0	29360128	77	14779
2026-01-13 10:43:17.67	123.50	9.85	-52.0	-58.7	13.4	6.09e-01	0	42	0	30932992	76	7403
2026-01-13 10:43:18.95	123.39	9.95	-52.6	-60.4	12.1	6.17e-01	0	42	0	33554432	75	9566
2026-01-13 10:43:19.70	123.32	10.02	-53.6	-69.8	4.0	7.38e-01	0	42	104	34078720	78	23850
2026-01-13 10:43:21.03	123.20	10.13	-53.8	-73.3	3.8	7.45e-01	0	42	104	34078720	78	35629
2026-01-13 10:43:21.74	123.13	10.19	-53.5	-69.1	4.6	7.22e-01	0	42	104	34078720	78	21805
2026-01-13 10:43:23.08	123.00	10.30	-53.6	-69.2	4.4	7.25e-01	0	42	104	34078720	78	22018
2026-01-13 10:43:23.80	122.94	10.36	-53.5	-69.1	4.0	7.37e-01	0	42	104	34078720	78	21885
2026-01-13 10:43:25.15	122.81	10.48	-53.6	-69.5	4.2	7.41e-01	0	42	104	34078720	78	22975
2026-01-13 10:43:25.87	122.74	10.54	-53.6	-69.3	4.5	7.25e-01	0	42	104	34078720	78	22330
2026-01-13 10:43:27.21	122.61	10.65	-53.6	-69.9	3.9	7.43e-01	0	42	104	34078720	78	23884
2026-01-13 10:43:27.92	122.54	10.72	-53.6	-69.3	3.9	7.42e-01	0	42	104	34078720	78	22426
2026-01-13 10:43:29.26	122.41	10.83	-53.7	-69.6	4.3	7.28e-01	0	42	104	34078720	78	23108
2026-01-13 10:43:29.97	122.34	10.89	-53.6	-67.7	5.2	7.04e-01	0	42	104	34078720	78	18699
2026-01-13 10:43:31.26	122.21	11.00	-53.7	-71.5	3.9	7.41e-01	0	42	104	34078720	78	28796
2026-01-13 10:43:31.97	122.14	11.07	-53.7	-69.3	3.9	7.42e-01	0	42	104	34078720	78	22453
2026-01-13 10:43:33.25	122.01	11.18	-53.6	-67.5	5.3	6.99e-01	0	42	0	34078720	78	18112
2026-01-13 10:43:33.96	121.94	11.24	-53.6	-66.8	5.8	6.85e-01	0	42	0	34603008	78	16854
2026-01-13 10:43:35.24	121.81	11.35	-53.5	-65.6	6.7	6.68e-01	0	42	0	36175872	78	14541
2026-01-13 10:43:35.95	121.74	11.42	-52.5	-59.9	13.0	6.13e-01	0	42	0	37224448	76	8539
2026-01-13 10:43:37.23	121.61	11.53	-53.4	-64.8	8.8	6.51e-01	0	42	0	39845888	77	14174
2026-01-13 10:43:37.96	121.53	11.59	-53.8	-70.1	4.3	7.30e-01	0	42	104	39845888	78	24484
2026-01-13 10:43:39.23	121.40	11.71	-51.9	-57.9	14.8	6.08e-01	0	42	0	40370176	75	7159
2026-01-13 10:43:40.09	121.31	11.78	-53.6	-68.2	5.0	7.09e-01	0	43	0	41418752	77	20825
2026-01-13 10:43:41.51	121.16	11.91	-52.4	-59.6	12.9	6.12e-01	0	42	0	42467328	76	8260
2026-01-13 10:43:42.22	121.08	11.97	-52.1	-58.7	14.0	6.09e-01	0	42	0	43515904	76	7395
2026-01-13 10:43:43.50	120.94	12.09	-51.7	-57.5	15.2	6.08e-01	0	42	0	46137344	75	6867
2026-01-13 10:43:44.21	120.87	12.15	-51.5	-57.1	15.6	6.08e-01	0	42	0	47710208	75	6529
2026-01-13 10:43:45.49	120.73	12.27	-50.5	-55.0	17.7	6.07e-01	0	42	0	49807360	73	5730
2026-01-13 10:43:46.22	120.65	12.34	-50.1	-54.2	18.4	6.07e-01	0	42	0	51380224	72	5566
2026-01-13 10:43:47.84	120.47	12.48	-49.4	-53.0	19.6	6.07e-01	0	43	0	54525952	70	5451
2026-01-13 10:43:48.41	120.41	12.54	-49.0	-52.5	20.1	6.08e-01	0	42	0	55574528	70	5101
2026-01-13 10:43:50.12	120.21	12.69	-48.4	-51.5	21.1	6.05e-01	0	42	0	58720256	68	5107
2026-01-13 10:43:50.68	120.15	12.74	-48.3	-51.3	20.4	6.07e-01	0	42	0	59768832	68	5023
2026-01-13 10:43:52.39	119.96	12.90	-48.3	-51.3	21.2	6.07e-01	0	42	0	62914560	68	5035
2026-01-13 10:43:52.96	119.89	12.95	-48.3	-51.3	21.2	6.09e-01	0	42	0	63963136	68	5028
2026-01-13 10:43:54.65	119.69	13.11	-48.2	-51.2	21.3	6.07e-01	0	42	0	67108864	68	4964
2026-01-13 10:43:55.38	119.61	13.18	-48.2	-51.2	21.2	6.08e-01	0	42	0	68157440	68	4971
2026-01-13 10:43:56.65	119.46	13.30	-48.1	-51.1	21.3	6.07e-01	0	42	0	70778880	68	4893
2026-01-13 10:43:57.59	119.35	13.39	-47.9	-50.9	21.4	6.07e-01	0	42	0	72876032	67	5047
2026-01-13 10:43:58.58	119.23	13.48	-47.9	-50.9	21.4	6.06e-01	0	42	0	74448896	67	5073
2026-01-13 10:43:59.58	119.11	13.58	-47.9	-50.8	21.4	6.08e-01	0	42	0	76546048	67	5038
2026-01-13 10:44:00.57	118.99	13.67	-47.8	-50.8	21.4	6.08e-01	0	42	0	78118912	67	5010
2026-01-13 10:44:01.57	118.87	13.77	-47.7	-50.7	21.5	6.08e-01	0	43	0	80216064	67	4961
2026-01-13 10:44:02.57	118.75	13.86	-47.8	-50.8	21.4	6.06e-01	0	42	0	81788928	67	4992
2026-01-13 10:44:03.56	118.63	13.96	-47.7	-50.7	21.5	6.05e-01	0	42	0	83886080	67	4949
2026-01-13 10:44:04.56	118.50	14.05	-47.7	-50.8	21.3	6.05e-01	0	42	0	85458944	67	4999
2026-01-13 10:44:05.55	118.38	14.15	-47.7	-50.7	21.3	6.10e-01	0	43	0	87556096	67	4973
2026-01-13 10:44:06.55	118.25	14.24	-47.7	-50.8	21.2	6.07e-01	0	42	0	89653248	67	5028
2026-01-13 10:44:07.54	118.13	14.34	-47.6	-50.7	21.3	6.06e-01	0	42	0	91226112	67	4934
2026-01-13 10:44:08.54	118.00	14.44	-47.5	-50.6	21.4	6.08e-01	0	42	0	93323264	66	5169
2026-01-13 10:44:09.53	117.87	14.53	-47.5	-50.5	21.5	6.07e-01	0	43	0	94896128	66	5135
2026-01-13 10:44:10.53	117.74	14.63	-47.5	-50.6	21.4	6.08e-01	0	43	0	96993280	66	5192
2026-01-13 10:44:11.52	117.61	14.73	-47.5	-50.6	21.4	6.07e-01	0	42	0	98566144	66	5184
2026-01-13 10:44:12.52	117.48	14.83	-47.6	-50.6	21.3	6.09e-01	0	42	0	100663296	66	5217
2026-01-13 10:44:13.51	117.35	14.92	-47.5	-50.5	21.5	6.06e-01	0	42	0	102236160	66	5115
2026-01-13 10:44:14.51	117.22	15.02	-47.5	-50.5	21.4	6.06e-01	0	42	0	104333312	66	5134
2026-01-13 10:44:15.50	117.08	15.12	-47.6	-50.7	21.3	6.07e-01	0	42	0	106430464	66	5234
2026-01-13 10:44:16.49	116.95	15.22	-47.6	-50.7	21.2	6.07e-01	0	42	0	108003328	66	5271
2026-01-13 10:44:17.49	116.81	15.32	-47.6	-50.6	21.3	6.09e-01	0	42	0	110100480	66	5200
2026-01-13 10:44:18.48	116.68	15.42	-47.4	-50.5	21.4	6.07e-01	0	42	0	111673344	66	5106
2026-01-13 10:44:19.48	116.54	15.52	-47.3	-50.3	21.6	6.08e-01	0	42	0	113770496	66	4991
2026-01-13 10:44:20.47	116.40	15.62	-47.3	-50.3	21.6	6.06e-01	0	42	0	115343360	66	4990
2026-01-13 10:44:21.47	116.26	15.72	-47.3	-50.2	21.6	6.06e-01	0	43	0	117440512	66	4973
2026-01-13 10:44:22.46	116.12	15.82	-47.2	-50.2	21.6	6.07e-01	0	42	0	119013376	66	4946
2026-01-13 10:44:23.46	115.98	15.92	-47.2	-50.2	21.6	6.06e-01	0	43	0	121110528	66	4949
2026-01-13 10:44:24.56	115.82	16.04	-47.2	-50.2	21.6	6.06e-01	0	43	0	123207680	66	4928
2026-01-13 10:44:25.41	115.70	16.12	-47.0	-50.0	21.8	6.05e-01	0	43	0	124780544	66	4819
2026-01-13 10:44:26.55	115.53	16.24	-47.0	-49.9	21.9	6.07e-01	0	42	0	126877696	65	5066
2026-01-13 10:44:27.41	115.41	16.33	-47.0	-49.9	21.8	6.07e-01	0	43	0	128450560	65	5093
2026-01-13 10:44:28.54	115.24	16.44	-46.9	-49.7	22.0	6.06e-01	0	42	0	130547712	65	4977
2026-01-13 10:44:29.40	115.11	16.53	-46.8	-49.6	22.0	6.06e-01	0	43	0	132120576	65	4919
2026-01-13 10:44:30.54	114.94	16.65	-46.9	-49.7	22.0	6.05e-01	0	43	0	134217728	65	4968
2026-01-13 10:44:31.39	114.81	16.74	-47.0	-49.9	21.8	6.06e-01	0	43	0	135790592	65	5058
2026-01-13 10:44:32.53	114.64	16.86	-47.0	-49.9	21.8	6.07e-01	0	42	0	137887744	65	5059
2026-01-13 10:44:33.38	114.51	16.95	-47.0	-49.9	21.8	6.07e-01	0	43	0	139984896	65	5050
2026-01-13 10:44:34.52	114.33	17.07	-47.1	-50.0	21.7	6.06e-01	0	43	0	142082048	65	5120
2026-01-13 10:44:35.37	114.20	17.16	-47.1	-50.0	21.7	6.09e-01	0	43	0	143654912	65	5145
2026-01-13 10:44:36.51	114.02	17.28	-47.0	-49.8	21.8	6.08e-01	0	43	0	145752064	65	5038
2026-01-13 10:44:37.36	113.89	17.37	-46.9	-49.8	21.8	6.08e-01	0	42	0	147324928	65	5012
2026-01-13 10:44:38.50	113.70	17.49	-47.1	-50.0	21.7	6.08e-01	0	43	0	149422080	65	5140
2026-01-13 10:44:39.35	113.57	17.58	-47.0	-50.0	21.7	6.07e-01	0	43	0	150994944	65	5123
2026-01-13 10:44:40.49	113.38	17.70	-47.1	-50.1	21.6	6.08e-01	0	42	0	153092096	65	5161
2026-01-13 10:44:41.34	113.25	17.79	-47.1	-50.1	21.6	6.06e-01	0	43	0	154664960	65	5171
2026-01-13 10:44:42.48	113.06	17.91	-47.0	-50.0	21.7	6.06e-01	0	43	0	156762112	65	5111
2026-01-13 10:44:43.33	112.92	18.00	-47.1	-50.0	21.7	6.06e-01	0	43	0	158334976	65	5144
2026-01-13 10:44:44.47	112.73	18.13	-47.0	-49.9	21.8	6.07e-01	0	43	0	160432128	65	5069
2026-01-13 10:44:45.32	112.59	18.22	-46.9	-49.8	21.9	6.08e-01	0	42	0	162004992	65	5008
2026-01-13 10:44:46.46	112.39	18.34	-47.0	-50.0	21.7	6.06e-01	0	43	0	164102144	65	5106
2026-01-13 10:44:47.31	112.25	18.44	-47.0	-49.9	21.7	6.08e-01	0	42	0	165675008	65	5089
2026-01-13 10:44:48.45	112.05	18.56	-47.0	-49.9	21.7	6.08e-01	0	43	0	167772160	65	5086
2026-01-13 10:44:49.30	111.91	18.65	-47.0	-49.9	21.7	6.06e-01	0	43	0	169345024	65	5088
2026-01-13 10:44:50.61	111.68	18.80	-46.9	-49.9	21.7	6.05e-01	0	43	0	171966464	65	5091
2026-01-13 10:44:51.32	111.55	18.87	-46.9	-49.9	21.8	6.07e-01	0	42	0	173539328	65	5042
2026-01-13 10:44:52.60	111.33	19.01	-47.0	-50.0	21.6	6.06e-01	0	43	0	175636480	65	5141
2026-01-13 10:44:53.34	111.19	19.10	-47.0	-50.1	21.6	6.07e-01	0	43	0	177209344	65	5165
2026-01-13 10:44:54.62	110.96	19.24	-47.0	-50.0	21.6	6.07e-01	0	43	0	179306496	65	5157
2026-01-13 10:44:55.36	110.83	19.32	-47.1	-50.1	21.5	6.06e-01	0	43	0	180879360	65	5217
2026-01-13 10:44:56.64	110.60	19.46	-47.0	-50.1	21.6	6.08e-01	0	42	0	183500800	65	5165
2026-01-13 10:44:57.35	110.47	19.54	-46.9	-49.9	21.7	6.09e-01	0	43	0	184549376	65	5073
2026-01-13 10:44:58.63	110.23	19.68	-46.9	-49.8	21.8	6.08e-01	0	43	0	187170816	65	5032
2026-01-13 10:44:59.36	110.09	19.76	-46.9	-49.8	21.8	6.05e-01	0	43	0	188219392	65	5019
2026-01-13 10:45:00.63	109.85	19.91	-46.9	-49.9	21.8	6.07e-01	0	43	0	190840832	65	5063
2026-01-13 10:45:01.49	109.69	20.00	-46.9	-49.8	21.9	6.07e-01	0	43	0	192413696	65	5004
2026-01-13 10:45:02.63	109.47	20.13	-46.9	-49.9	21.8	6.07e-01	0	43	0	194510848	65	5054
2026-01-13 10:45:03.69	109.27	20.25	-46.9	-49.9	21.8	6.09e-01	0	42	0	196608000	65	5045
2026-01-13 10:45:04.73	109.06	20.37	-46.9	-49.9	21.7	6.09e-01	0	43	0	198705152	65	5082
2026-01-13 10:45:05.68	108.88	20.48	-47.0	-50.0	21.7	6.08e-01	0	43	0	200278016	65	5141
2026-01-13 10:45:06.67	108.68	20.59	-47.1	-50.1	21.6	6.07e-01	0	43	0	201850880	65	5162
2026-01-13 10:45:07.67	108.48	20.70	-47.0	-50.0	21.6	6.08e-01	0	43	0	203948032	65	5139
2026-01-13 10:45:08.66	108.28	20.81	-47.1	-50.1	21.5	6.08e-01	0	43	0	206045184	65	5193
2026-01-13 10:45:09.66	108.08	20.93	-47.2	-50.2	21.5	6.07e-01	0	43	0	207618048	65	5258
2026-01-13 10:45:10.65	107.88	21.04	-47.2	-50.2	21.5	6.05e-01	0	43	0	209715200	65	5236
2026-01-13 10:45:11.65	107.67	21.16	-47.1	-50.1	21.5	6.09e-01	0	43	0	211288064	65	5202
2026-01-13 10:45:12.64	107.47	21.27	-47.0	-50.0	21.7	6.08e-01	0	43	0	213385216	65	5104
2026-01-13 10:45:13.64	107.26	21.38	-46.9	-49.8	21.7	6.06e-01	0	43	0	215482368	65	5039
2026-01-13 10:45:14.63	107.05	21.50	-46.8	-49.8	21.8	6.07e-01	0	43	0	217055232	65	5018
2026-01-13 10:45:15.62	106.84	21.61	-47.0	-50.0	21.6	6.06e-01	0	43	0	218628096	65	5118
2026-01-13 10:45:16.62	106.63	21.73	-47.0	-50.0	21.6	6.08e-01	0	43	0	220725248	65	5143
2026-01-13 10:45:17.61	106.41	21.84	-47.0	-50.0	21.6	6.08e-01	0	43	0	222822400	65	5146
2026-01-13 10:45:18.61	106.20	21.96	-47.1	-50.1	21.5	6.07e-01	0	43	0	224395264	65	5178
2026-01-13 10:45:19.60	105.98	22.07	-47.1	-50.1	21.6	6.08e-01	0	43	0	226492416	65	5173
2026-01-13 10:45:20.60	105.76	22.19	-47.2	-50.2	21.5	6.07e-01	0	43	0	228065280	65	5233
2026-01-13 10:45:21.59	105.54	22.30	-47.2	-50.1	21.5	6.07e-01	0	43	0	230162432	65	5213
2026-01-13 10:45:22.59	105.32	22.42	-47.2	-50.2	21.5	6.07e-01	0	43	0	232259584	65	5254
2026-01-13 10:45:23.58	105.09	22.53	-47.1	-50.1	21.6	6.05e-01	0	43	0	233832448	65	5181
2026-01-13 10:45:24.58	104.86	22.65	-47.1	-50.1	21.6	6.08e-01	0	43	0	235405312	65	5167
2026-01-13 10:45:25.57	104.64	22.77	-47.1	-50.1	21.6	6.06e-01	0	43	0	237502464	65	5188
2026-01-13 10:45:26.57	104.41	22.88	-47.2	-50.2	21.5	6.06e-01	0	43	0	239599616	65	5248
2026-01-13 10:45:27.56	104.18	23.00	-47.1	-50.1	21.6	6.07e-01	0	43	0	241172480	65	5187
2026-01-13 10:45:28.56	103.94	23.11	-47.2	-50.1	21.6	6.07e-01	0	43	0	243269632	65	5214
2026-01-13 10:45:29.55	103.71	23.23	-47.1	-50.1	21.6	6.08e-01	0	43	0	244842496	65	5167
2026-01-13 10:45:30.55	103.47	23.35	-47.2	-50.2	21.5	6.08e-01	0	43	0	246939648	65	5220
2026-01-13 10:45:31.54	103.23	23.46	-47.0	-50.0	21.7	6.05e-01	0	43	0	249036800	65	5141
2026-01-13 10:45:32.54	102.99	23.58	-46.9	-49.9	21.8	6.07e-01	0	43	0	250609664	65	5089
2026-01-13 10:45:33.53	102.75	23.69	-47.0	-50.0	21.7	6.05e-01	0	43	0	252706816	65	5131
2026-01-13 10:45:34.53	102.50	23.81	-47.1	-50.0	21.7	6.06e-01	0	43	0	254279680	65	5153
2026-01-13 10:45:35.52	102.25	23.93	-47.2	-50.1	21.6	6.09e-01	0	43	0	256376832	65	5204
2026-01-13 10:45:36.52	102.00	24.04	-47.3	-50.2	21.5	6.08e-01	0	43	0	257949696	65	5270
2026-01-13 10:45:37.51	101.75	24.16	-47.3	-50.3	21.4	6.06e-01	0	42	0	260046848	65	5310
2026-01-13 10:45:38.51	101.50	24.28	-47.3	-50.3	21.4	6.06e-01	0	43	0	261619712	65	5311
2026-01-13 10:45:39.51	101.24	24.39	-47.2	-50.2	21.6	6.07e-01	0	43	0	263716864	65	5227
2026-01-13 10:45:40.50	100.99	24.51	-47.2	-50.2	21.6	6.09e-01	0	43	0	265814016	65	5223
2026-01-13 10:45:41.50	100.73	24.63	-47.1	-50.1	21.7	6.08e-01	0	43	0	267386880	65	5162
2026-01-13 10:45:42.49	100.47	24.74	-47.0	-49.9	21.8	6.07e-01	0	43	0	269484032	65	5073
2026-01-13 10:45:43.49	100.21	24.86	-47.0	-50.0	21.8	6.07e-01	0	43	0	271056896	65	5116
2026-01-13 10:45:44.49	99.94	24.98	-47.1	-50.0	21.7	6.08e-01	0	43	0	273154048	65	5152
2026-01-13 10:45:45.48	99.67	25.09	-47.0	-50.0	21.7	6.07e-01	0	43	0	274726912	65	5139
2026-01-13 10:45:46.48	99.40	25.21	-47.0	-50.0	21.7	6.08e-01	0	43	0	276824064	65	5159
2026-01-13 10:45:47.47	99.13	25.32	-47.1	-50.1	21.7	6.08e-01	0	43	0	278396928	65	5189
2026-01-13 10:45:48.46	98.86	25.44	-47.0	-50.0	21.8	6.09e-01	0	43	0	280494080	65	5153
2026-01-13 10:45:49.46	98.59	25.55	-47.0	-50.0	21.8	6.05e-01	0	43	0	282591232	65	5123
2026-01-13 10:45:50.45	98.31	25.67	-47.0	-50.0	21.8	6.07e-01	0	43	0	284164096	65	5137
2026-01-13 10:45:51.45	98.03	25.78	-47.0	-50.0	21.8	6.07e-01	0	43	0	286261248	65	5131
2026-01-13 10:45:52.44	97.75	25.90	-47.1	-50.1	21.7	6.08e-01	0	43	0	287834112	65	5169
2026-01-13 10:45:53.44	97.47	26.01	-47.1	-50.1	21.7	6.08e-01	0	43	0	289931264	65	5211
2026-01-13 10:45:54.43	97.18	26.13	-47.1	-50.1	21.8	6.07e-01	0	43	0	291504128	65	5192
2026-01-13 10:45:55.43	96.89	26.24	-47.2	-50.2	21.7	6.08e-01	0	43	0	293601280	65	5220
2026-01-13 10:45:56.42	96.60	26.36	-47.2	-50.2	21.7	6.06e-01	0	43	0	295174144	65	5230
2026-01-13 10:45:57.42	96.31	26.47	-47.0	-49.8	22.0	6.06e-01	0	42	0	297271296	65	5036
2026-01-13 10:45:58.46	96.00	26.59	-46.9	-49.8	22.0	6.07e-01	0	42	0	299368448	65	5033
2026-01-13 10:45:59.45	95.71	26.70	-47.1	-50.0	21.9	6.06e-01	0	43	0	300941312	65	5123
2026-01-13 10:46:00.45	95.41	26.82	-47.2	-50.1	21.8	6.07e-01	0	43	0	303038464	65	5174
2026-01-13 10:46:01.44	95.11	26.93	-47.1	-50.0	21.9	6.07e-01	0	43	0	304611328	65	5124
2026-01-13 10:46:02.44	94.80	27.04	-47.1	-50.0	21.9	6.06e-01	0	43	0	306708480	65	5125
2026-01-13 10:46:03.43	94.50	27.15	-47.0	-49.9	22.0	6.06e-01	0	43	0	308805632	65	5066
2026-01-13 10:46:04.43	94.19	27.26	-47.0	-49.9	22.0	6.07e-01	0	43	0	310378496	65	5072
2026-01-13 10:46:05.42	93.88	27.37	-46.9	-49.8	22.1	6.06e-01	0	43	0	312475648	65	5021
2026-01-13 10:46:06.42	93.57	27.48	-46.9	-49.8	22.2	6.07e-01	0	43	0	314048512	65	4997
2026-01-13 10:46:07.41	93.25	27.59	-46.9	-49.8	22.2	6.08e-01	0	43	0	316145664	65	5014
2026-01-13 10:46:08.41	92.94	27.70	-46.9	-49.8	22.2	6.08e-01	0	43	0	317718528	65	5028
2026-01-13 10:46:09.41	92.61	27.81	-46.9	-49.8	22.3	6.06e-01	0	43	0	319815680	65	4999
2026-01-13 10:46:10.40	92.29	27.92	-47.0	-49.8	22.2	6.09e-01	0	43	0	321388544	65	5025
2026-01-13 10:46:11.40	91.97	28.03	-47.0	-49.8	22.2	6.05e-01	0	43	0	323485696	65	5037
2026-01-13 10:46:12.39	91.65	28.14	-47.0	-49.9	22.2	6.07e-01	0	43	0	325582848	65	5045
2026-01-13 10:46:13.39	91.32	28.25	-46.9	-49.8	22.2	6.05e-01	0	43	0	327155712	65	4997
2026-01-13 10:46:14.38	90.99	28.35	-46.9	-49.8	22.3	6.05e-01	0	43	0	329252864	65	4996
2026-01-13 10:46:15.38	90.65	28.46	-47.0	-49.9	22.2	6.05e-01	0	43	0	330825728	65	5076
2026-01-13 10:46:16.37	90.32	28.56	-47.0	-49.9	22.2	6.07e-01	0	43	0	332922880	65	5085
2026-01-13 10:46:17.43	89.96	28.67	-47.0	-49.9	22.3	6.06e-01	0	43	0	335020032	65	5042
2026-01-13 10:46:18.35	89.65	28.77	-46.9	-49.7	22.4	6.08e-01	0	43	0	336592896	65	4983
2026-01-13 10:46:19.35	89.30	28.87	-47.0	-49.8	22.3	6.07e-01	0	43	0	338165760	65	5034
2026-01-13 10:46:20.34	88.96	28.98	-47.1	-50.0	22.2	6.09e-01	0	43	0	340262912	65	5121
2026-01-13 10:46:21.34	88.61	29.08	-47.0	-50.0	22.2	6.07e-01	0	43	0	342360064	65	5111
2026-01-13 10:46:22.33	88.27	29.18	-46.8	-49.8	22.4	6.08e-01	0	43	0	343932928	65	4999
2026-01-13 10:46:23.32	87.92	29.28	-46.8	-49.7	22.5	6.08e-01	0	43	0	346030080	65	4963
2026-01-13 10:46:24.31	87.57	29.38	-46.9	-49.8	22.4	6.09e-01	0	43	0	347602944	65	4996
2026-01-13 10:46:25.31	87.21	29.48	-46.7	-49.6	22.6	6.07e-01	0	43	0	349700096	65	4893
2026-01-13 10:46:26.30	86.85	29.57	-46.9	-49.9	22.4	6.07e-01	0	43	0	351272960	65	5070
2026-01-13 10:46:27.30	86.49	29.67	-46.9	-49.8	22.4	6.09e-01	0	43	0	353370112	65	5003
2026-01-13 10:46:28.29	86.13	29.77	-46.9	-49.9	22.4	6.06e-01	0	43	0	354942976	65	5055
2026-01-13 10:46:29.29	85.76	29.86	-46.8	-49.7	22.4	6.10e-01	0	43	0	357040128	65	4981
2026-01-13 10:46:30.35	85.37	29.96	-46.8	-49.7	22.6	6.05e-01	0	43	0	359137280	65	4955
2026-01-13 10:46:31.25	85.04	30.05	-46.9	-49.7	22.5	6.08e-01	0	43	0	360710144	65	4982
2026-01-13 10:46:32.35	84.63	30.15	-46.9	-49.8	22.5	6.08e-01	0	43	0	362807296	65	4992
2026-01-13 10:46:33.30	84.27	30.24	-47.0	-50.0	22.4	6.07e-01	0	43	0	364380160	65	5108
2026-01-13 10:46:34.47	83.83	30.34	-47.0	-49.9	22.4	6.06e-01	0	43	0	366477312	65	5095
2026-01-13 10:46:35.35	83.50	30.42	-46.9	-49.8	22.5	6.08e-01	0	43	0	368574464	65	5032
2026-01-13 10:46:36.49	83.06	30.52	-46.9	-49.9	22.5	6.08e-01	0	43	0	370671616	65	5043
2026-01-13 10:46:37.42	82.71	30.60	-47.0	-49.9	22.4	6.08e-01	0	43	0	372244480	65	5086
2026-01-13 10:46:38.41	82.32	30.69	-47.0	-49.9	22.5	6.08e-01	0	43	0	374341632	65	5072
2026-01-13 10:46:39.41	81.94	30.77	-47.0	-49.9	22.5	6.05e-01	0	43	0	375914496	65	5054
2026-01-13 10:46:40.41	81.55	30.86	-47.0	-49.9	22.5	6.08e-01	0	43	0	378011648	65	5045
2026-01-13 10:46:41.40	81.16	30.94	-47.3	-50.1	22.3	6.03e-01	0	43	0	379584512	65	5186
2026-01-13 10:46:42.39	80.77	31.02	-47.1	-49.9	22.5	6.07e-01	0	43	0	381681664	65	5091
2026-01-13 10:46:43.39	80.37	31.10	-47.1	-49.9	22.5	6.08e-01	0	43	0	383254528	65	5053
2026-01-13 10:46:44.38	79.98	31.18	-47.1	-49.9	22.5	6.06e-01	0	43	0	385351680	65	5094
2026-01-13 10:46:45.38	79.58	31.26	-47.1	-49.9	22.5	6.08e-01	0	43	0	387448832	65	5089
2026-01-13 10:46:46.37	79.18	31.33	-47.3	-50.1	22.4	6.08e-01	0	43	0	389021696	65	5181
2026-01-13 10:46:47.37	78.77	31.41	-47.1	-49.9	22.5	6.06e-01	0	43	0	391118848	65	5080
2026-01-13 10:46:48.36	78.37	31.48	-47.1	-49.9	22.5	6.05e-01	0	43	0	392691712	65	5074
2026-01-13 10:46:49.36	77.96	31.55	-47.2	-50.0	22.4	6.07e-01	0	43	0	394788864	65	5118
2026-01-13 10:46:50.43	77.52	31.63	-47.2	-50.0	22.5	6.07e-01	0	43	0	396886016	65	5107
2026-01-13 10:46:51.33	77.15	31.69	-47.1	-49.9	22.6	6.06e-01	0	43	0	398458880	65	5048
2026-01-13 10:46:52.45	76.69	31.76	-47.2	-50.1	22.4	6.08e-01	0	43	0	400556032	65	5195
2026-01-13 10:46:53.30	76.34	31.82	-47.3	-50.2	22.2	6.06e-01	0	43	0	402128896	65	5264
2026-01-13 10:46:54.44	75.86	31.89	-47.2	-50.1	22.3	6.06e-01	0	43	0	404226048	65	5186
2026-01-13 10:46:55.30	75.50	31.95	-47.2	-50.1	22.3	6.05e-01	0	43	0	405798912	65	5212
2026-01-13 10:46:56.43	75.03	32.02	-47.3	-50.2	22.3	6.07e-01	0	43	0	407896064	65	5246
2026-01-13 10:46:57.29	74.66	32.07	-47.3	-50.1	22.3	6.06e-01	0	43	0	409468928	65	5214
2026-01-13 10:46:58.42	74.19	32.14	-47.3	-50.2	22.3	6.08e-01	0	43	0	411566080	65	5223
2026-01-13 10:46:59.28	73.82	32.19	-47.3	-50.2	22.4	6.07e-01	0	43	0	413138944	65	5219
2026-01-13 10:47:00.41	73.34	32.25	-47.5	-50.3	22.2	6.08e-01	0	43	0	415236096	65	5299
2026-01-13 10:47:01.27	72.97	32.29	-47.5	-50.2	22.3	6.07e-01	0	43	0	416808960	65	5264
2026-01-13 10:47:02.40	72.48	32.35	-47.6	-50.4	22.1	6.05e-01	0	43	0	418906112	65	5366
2026-01-13 10:47:03.25	72.12	32.40	-47.6	-50.4	22.1	6.06e-01	0	43	0	420478976	65	5347
2026-01-13 10:47:04.39	71.63	32.45	-47.5	-50.2	22.3	6.07e-01	0	43	0	423100416	65	5266
2026-01-13 10:47:05.24	71.26	32.49	-47.3	-50.0	22.5	6.06e-01	0	43	0	424673280	65	5133
2026-01-13 10:47:06.38	70.76	32.54	-47.4	-50.2	22.4	6.07e-01	0	43	0	426770432	65	5219
2026-01-13 10:47:07.23	70.39	32.58	-47.6	-50.4	22.2	6.08e-01	0	43	0	428343296	65	5348
2026-01-13 10:47:08.37	69.89	32.63	-47.6	-50.4	22.1	6.09e-01	0	43	0	430440448	66	5075
2026-01-13 10:47:09.23	69.52	32.66	-47.4	-50.1	22.5	6.07e-01	0	43	0	432013312	66	4886
2026-01-13 10:47:10.36	69.02	32.71	-47.5	-50.2	22.3	6.07e-01	0	43	0	434110464	66	4960
2026-01-13 10:47:11.22	68.64	32.74	-47.7	-50.5	22.1	6.07e-01	0	43	0	435683328	66	5133
2026-01-13 10:47:12.35	68.14	32.78	-47.7	-50.5	22.0	6.09e-01	0	43	0	437780480	66	5153
2026-01-13 10:47:13.21	67.76	32.80	-47.5	-50.2	22.4	6.07e-01	0	43	0	439353344	66	4946
2026-01-13 10:47:14.69	67.10	32.85	-47.5	-50.3	22.3	6.07e-01	0	43	0	441974784	66	5004
2026-01-13 10:47:15.40	66.79	32.87	-47.6	-50.4	22.2	6.07e-01	0	43	0	443547648	66	5086
2026-01-13 10:47:16.68	66.22	32.90	-47.7	-50.5	22.1	6.06e-01	0	43	0	446169088	66	5134
2026-01-13 10:47:17.41	65.89	32.92	-47.7	-50.5	22.1	6.07e-01	0	43	0	447217664	66	5158
2026-01-13 10:47:18.69	65.32	32.95	-47.5	-50.3	22.2	6.06e-01	0	43	0	449839104	66	5039
2026-01-13 10:47:19.40	65.01	32.97	-47.5	-50.4	22.2	6.08e-01	0	43	0	450887680	66	5050
2026-01-13 10:47:20.68	64.43	32.99	-47.7	-50.5	22.1	6.07e-01	0	43	0	453509120	66	5157
2026-01-13 10:47:21.39	64.12	33.00	-47.7	-50.5	22.1	6.08e-01	0	43	0	454557696	66	5157
2026-01-13 10:47:22.67	63.54	33.02	-47.8	-50.6	22.0	6.06e-01	0	43	0	457179136	66	5195
2026-01-13 10:47:23.50	63.17	33.03	-47.7	-50.5	22.1	6.07e-01	0	43	0	458752000	66	5127
2026-01-13 10:47:24.64	62.66	33.05	-47.8	-50.6	22.0	6.06e-01	0	43	0	460849152	66	5204
2026-01-13 10:47:25.67	62.19	33.05	-47.9	-50.8	21.9	6.07e-01	0	43	0	462946304	66	5322
2026-01-13 10:47:26.84	61.67	33.06	-47.8	-50.7	22.0	6.07e-01	0	43	0	465043456	66	5231
2026-01-13 10:47:27.72	61.27	33.07	-47.8	-50.6	22.0	6.08e-01	0	43	0	466616320	66	5214
2026-01-13 10:47:28.86	60.76	33.07	-47.7	-50.6	22.1	6.07e-01	0	43	0	468713472	66	5189
2026-01-13 10:47:29.77	60.35	33.07	-47.7	-50.6	22.1	6.07e-01	0	43	0	470286336	66	5162
2026-01-13 10:47:30.94	59.82	33.07	-47.8	-50.7	22.0	6.07e-01	0	43	0	472907776	66	5221
2026-01-13 10:47:31.79	59.44	33.07	-47.8	-50.6	22.0	6.09e-01	0	43	0	474480640	66	5216
2026-01-13 10:47:32.93	58.93	33.06	-47.7	-50.5	22.2	6.09e-01	0	43	0	476577792	66	5117
2026-01-13 10:47:33.78	58.55	33.06	-47.6	-50.5	22.2	6.08e-01	0	43	0	478150656	66	5106
2026-01-13 10:47:34.92	58.03	33.05	-47.8	-50.7	21.9	6.06e-01	0	43	0	480247808	66	5239
2026-01-13 10:47:35.77	57.65	33.04	-47.8	-50.8	21.9	6.05e-01	0	43	0	481820672	66	5281
2026-01-13 10:47:36.91	57.14	33.02	-47.8	-50.7	22.0	6.07e-01	0	43	0	483917824	66	5238
2026-01-13 10:47:37.76	56.76	33.01	-47.7	-50.6	22.0	6.08e-01	0	43	0	485490688	66	5182
2026-01-13 10:47:38.90	56.25	32.99	-47.9	-50.8	21.9	6.09e-01	0	43	0	487587840	66	5317
2026-01-13 10:47:39.75	55.87	32.98	-48.0	-51.0	21.7	6.06e-01	0	43	0	489160704	66	5423
2026-01-13 10:47:40.89	55.36	32.95	-47.8	-50.7	22.0	6.08e-01	0	43	0	491257856	66	5231
2026-01-13 10:47:41.74	54.98	32.93	-47.8	-50.7	22.0	6.08e-01	0	43	0	492830720	66	5231
2026-01-13 10:47:42.88	54.47	32.91	-47.7	-50.7	21.9	6.07e-01	0	43	0	494927872	66	5248
2026-01-13 10:47:43.73	54.09	32.88	-47.8	-50.8	21.9	6.08e-01	0	43	0	496500736	66	5323
2026-01-13 10:47:45.00	53.53	32.85	-47.8	-50.8	21.9	6.08e-01	0	43	0	499122176	66	5310
2026-01-13 10:47:45.77	53.19	32.83	-47.8	-50.8	21.9	6.07e-01	0	43	0	500695040	66	5286
2026-01-13 10:47:47.05	52.62	32.79	-47.8	-50.7	21.9	6.07e-01	0	43	0	502792192	66	5269
2026-01-13 10:47:48.19	52.12	32.75	-48.1	-51.0	21.6	6.06e-01	0	43	0	504889344	66	5438
2026-01-13 10:47:49.04	51.75	32.72	-47.9	-50.9	21.8	6.07e-01	0	43	0	506462208	66	5343
2026-01-13 10:47:50.18	51.24	32.67	-47.9	-50.8	21.8	6.07e-01	0	43	0	508559360	66	5307
2026-01-13 10:47:51.03	50.87	32.64	-47.9	-50.8	21.8	6.07e-01	0	43	0	510132224	66	5325
2026-01-13 10:47:52.17	50.37	32.59	-47.8	-50.7	21.9	6.06e-01	0	43	0	512753664	66	5265
2026-01-13 10:47:53.02	50.00	32.56	-47.8	-50.7	21.9	6.04e-01	0	43	0	514326528	66	5227
2026-01-13 10:47:54.16	49.51	32.51	-47.9	-50.8	21.8	6.07e-01	0	43	0	516423680	66	5332
2026-01-13 10:47:55.01	49.14	32.47	-47.8	-50.8	21.8	6.08e-01	0	43	0	517996544	66	5287
2026-01-13 10:47:56.15	48.65	32.41	-47.7	-50.6	22.0	6.07e-01	0	43	0	520093696	66	5163
2026-01-13 10:47:57.01	48.28	32.37	-47.9	-50.8	21.7	6.07e-01	0	43	0	521666560	66	5328
2026-01-13 10:47:58.14	47.79	32.31	-48.0	-50.9	21.7	6.07e-01	0	43	0	523763712	66	5372
2026-01-13 10:47:59.12	47.37	32.26	-48.0	-51.0	21.6	6.07e-01	0	43	0	525336576	66	5443
2026-01-13 10:48:00.12	46.95	32.20	-47.8	-50.7	21.8	6.07e-01	0	43	0	527433728	66	5259
2026-01-13 10:48:01.11	46.53	32.15	-47.7	-50.6	21.8	6.06e-01	0	43	0	529530880	66	5206
2026-01-13 10:48:02.11	46.10	32.09	-47.7	-50.7	21.7	6.07e-01	0	43	0	531103744	66	5263
2026-01-13 10:48:03.10	45.69	32.03	-47.8	-50.8	21.7	6.09e-01	0	43	0	533200896	66	5304
2026-01-13 10:48:04.41	45.14	31.95	-47.6	-50.6	21.9	6.06e-01	0	43	0	535298048	66	5194
2026-01-13 10:48:05.15	44.83	31.90	-47.7	-50.7	21.8	6.08e-01	0	43	0	536870912	66	5234
2026-01-13 10:48:06.75	44.16	31.80	-47.6	-50.7	21.7	6.06e-01	0	43	0	540016640	66	5259
2026-01-13 10:48:07.32	43.93	31.76	-47.6	-50.6	21.8	6.04e-01	0	43	0	541065216	66	5178
2026-01-13 10:48:09.02	43.23	31.65	-47.7	-50.7	21.7	6.07e-01	0	43	0	544210944	66	5268
2026-01-13 10:48:09.59	42.99	31.61	-48.1	-60.4	3.9	7.45e-01	0	43	104	544210944	66	16100
2026-01-13 10:48:11.30	42.30	31.48	-48.2	-60.6	3.7	7.48e-01	0	43	104	544210944	66	16389
2026-01-13 10:48:11.87	42.06	31.44	-48.1	-60.4	3.9	7.44e-01	0	43	104	544210944	66	15982
2026-01-13 10:48:13.57	41.38	31.31	-48.4	-60.8	3.8	7.45e-01	0	43	104	544210944	67	15896
2026-01-13 10:48:14.14	41.15	31.27	-51.3	-65.6	3.8	7.44e-01	0	43	104	544210944	73	19601
2026-01-13 10:48:15.87	40.46	31.14	-49.5	-62.6	3.7	7.43e-01	0	43	104	544210944	71	15554
2026-01-13 10:48:16.44	40.23	31.09	-50.7	-64.3	3.9	7.44e-01	0	43	104	544210944	71	18746
2026-01-13 10:48:18.15	39.56	30.95	-49.3	-62.2	3.7	7.50e-01	0	43	104	544210944	70	15614
2026-01-13 10:48:18.83	39.29	30.90	-49.3	-62.2	3.8	7.49e-01	0	43	104	544210944	70	15614
2026-01-13 10:48:20.25	38.74	30.78	-48.9	-61.7	3.7	7.45e-01	0	43	104	544210944	69	15589
2026-01-13 10:48:21.05	38.43	30.71	-49.0	-61.6	3.8	7.48e-01	0	43	104	544210944	69	15466
2026-01-13 10:48:22.51	37.87	30.59	-49.3	-62.0	3.5	7.59e-01	0	43	104	544210944	69	16194
2026-01-13 10:48:23.22	37.60	30.53	-51.7	-66.9	3.7	7.49e-01	0	43	104	544210944	74	21324
2026-01-13 10:48:24.50	37.11	30.41	-53.4	-73.3	3.8	7.47e-01	0	43	104	544210944	77	37712
2026-01-13 10:48:25.21	36.84	30.35	-53.1	-72.6	3.8	7.50e-01	0	43	104	544210944	77	34859
2026-01-13 10:48:26.49	36.36	30.23	-53.0	-72.8	3.8	7.47e-01	0	43	104	544210944	77	35375
2026-01-13 10:48:27.21	36.09	30.17	-53.1	-72.9	3.8	7.48e-01	0	43	104	544210944	77	35957
2026-01-13 10:48:28.50	35.61	30.05	-52.6	-72.7	3.8	7.45e-01	0	43	104	544210944	77	34913
2026-01-13 10:48:29.22	35.34	29.98	-52.0	-72.7	3.8	7.46e-01	0	43	104	544210944	76	36990
2026-01-13 10:48:30.50	34.87	29.86	-51.6	-72.6	3.8	7.48e-01	0	43	104	544210944	75	38793
2026-01-13 10:48:31.21	34.61	29.79	-51.9	-72.6	3.8	7.45e-01	0	43	104	544210944	75	38856
2026-01-13 10:48:32.49	34.15	29.67	-50.4	-64.9	3.8	7.43e-01	0	43	104	544210944	73	18068
2026-01-13 10:48:33.22	33.89	29.60	-49.8	-63.4	3.8	7.47e-01	0	43	104	544210944	70	17946
2026-01-13 10:48:34.50	33.43	29.47	-52.2	-70.0	4.0	7.40e-01	0	43	104	544210944	76	27136
2026-01-13 10:48:35.22	33.17	29.40	-48.9	-61.9	3.8	7.43e-01	0	43	104	544210944	69	16089
2026-01-13 10:48:36.50	32.72	29.28	-48.4	-61.1	3.8	7.46e-01	0	43	104	544210944	68	15563
2026-01-13 10:48:37.22	32.47	29.20	-48.5	-61.2	3.8	7.44e-01	0	43	104	544210944	68	15717
2026-01-13 10:48:38.50	32.02	29.07	-48.3	-60.8	3.8	7.44e-01	0	43	104	544210944	68	15014
2026-01-13 10:48:39.23	31.77	29.00	-50.0	-63.5	3.9	7.47e-01	0	43	104	544210944	72	16266
2026-01-13 10:48:40.50	31.33	28.87	-52.7	-70.6	3.8	7.49e-01	0	43	104	544210944	75	30913
2026-01-13 10:48:41.21	31.09	28.80	-53.0	-72.9	3.8	7.46e-01	0	43	104	544210944	76	38141
2026-01-13 10:48:42.54	30.63	28.66	-50.8	-65.4	3.7	7.45e-01	0	43	104	544210944	72	20122
2026-01-13 10:48:43.25	30.39	28.58	-52.0	-69.7	3.8	7.44e-01	0	43	104	544210944	74	29501
2026-01-13 10:48:44.62	29.94	28.44	-49.2	-62.4	3.8	7.46e-01	0	43	104	544210944	70	16094
2026-01-13 10:48:45.33	29.70	28.36	-48.9	-61.9	3.8	7.42e-01	0	43	104	544210944	69	16020
2026-01-13 10:48:46.66	29.26	28.22	-48.8	-61.8	3.8	7.45e-01	0	43	104	544210944	69	15922
2026-01-13 10:48:47.37	29.03	28.15	-48.8	-61.9	3.8	7.43e-01	0	43	104	544210944	69	16077
2026-01-13 10:48:48.71	28.59	28.00	-50.6	-65.2	3.8	7.48e-01	0	43	104	544210944	71	20799
2026-01-13 10:48:49.42	28.36	27.92	-52.0	-70.4	3.8	7.49e-01	0	43	104	544210944	74	32140
2026-01-13 10:48:50.76	27.93	27.78	-49.0	-62.4	3.8	7.44e-01	0	43	104	544210944	70	15982
2026-01-13 10:48:51.47	27.71	27.70	-51.1	-67.0	3.7	7.45e-01	0	43	104	544210944	72	24166
2026-01-13 10:48:52.81	27.28	27.55	-49.1	-62.6	3.8	7.45e-01	0	43	104	544210944	70	16337
2026-01-13 10:48:53.52	27.06	27.48	-48.7	-61.6	3.8	7.46e-01	0	43	104	544210944	69	15519
2026-01-13 10:48:54.80	26.66	27.33	-48.0	-60.5	3.8	7.44e-01	0	43	104	544210944	68	14513
2026-01-13 10:48:55.51	26.44	27.25	-48.1	-60.7	3.8	7.42e-01	0	43	104	544210944	68	14728
2026-01-13 10:48:56.79	26.05	27.11	-48.1	-60.8	3.8	7.45e-01	0	43	104	544210944	68	14991
2026-01-13 10:48:57.50	25.83	27.03	-48.1	-60.9	3.8	7.47e-01	0	43	104	544210944	67	16080
2026-01-13 10:48:58.79	25.44	26.89	-53.0	-73.3	3.8	7.45e-01	0	43	104	544210944	76	39820
2026-01-13 10:48:59.55	25.21	26.80	-53.0	-73.3	3.8	7.45e-01	0	43	104	544210944	76	39595
2026-01-13 10:49:00.83	24.83	26.66	-52.6	-72.7	3.8	7.47e-01	0	43	104	544210944	76	37184
2026-01-13 10:49:01.62	24.60	26.57	-52.7	-72.9	3.8	7.49e-01	0	43	104	544210944	76	37989
2026-01-13 10:49:03.14	24.15	26.39	-53.0	-73.2	3.8	7.42e-01	0	43	104	544210944	76	39387
2026-01-13 10:49:03.85	23.94	26.31	-53.0	-73.1	3.8	7.47e-01	0	43	104	544210944	76	38943
2026-01-13 10:49:05.13	23.57	26.17	-53.0	-72.8	3.8	7.47e-01	0	43	104	544210944	76	37501
2026-01-13 10:49:05.84	23.37	26.09	-52.9	-72.5	3.8	7.47e-01	0	43	104	544210944	76	36356
2026-01-13 10:49:07.12	23.01	25.94	-52.5	-72.2	3.8	7.43e-01	0	43	104	544210944	76	34908
2026-01-13 10:49:07.85	22.80	25.86	-52.0	-67.9	3.8	7.47e-01	0	43	104	544210944	76	21302
2026-01-13 10:49:09.13	22.44	25.71	-49.3	-62.5	3.8	7.45e-01	0	43	104	544210944	69	17125
2026-01-13 10:49:09.88	22.24	25.62	-53.1	-72.9	3.8	7.45e-01	0	43	104	544210944	76	37926
2026-01-13 10:49:11.16	21.88	25.47	-49.2	-62.4	3.8	7.44e-01	0	43	104	544210944	70	16073
2026-01-13 10:49:11.87	21.69	25.39	-48.0	-61.0	3.8	7.46e-01	0	43	104	544210944	68	15293
2026-01-13 10:49:13.15	21.34	25.24	-48.1	-61.2	3.8	7.41e-01	0	43	104	544210944	68	15702
2026-01-13 10:49:14.05	21.10	25.14	-48.1	-61.1	3.8	7.46e-01	0	43	104	544210944	68	15552
2026-01-13 10:49:15.44	20.73	24.98	-48.6	-61.8	3.8	7.45e-01	0	43	104	544210944	68	16880
2026-01-13 10:49:16.15	20.54	24.90	-49.6	-64.0	3.8	7.47e-01	0	43	104	544210944	69	20334
2026-01-13 10:49:17.43	20.20	24.75	-51.7	-73.0	3.8	7.49e-01	0	43	104	544210944	73	45655
2026-01-13 10:49:18.16	20.01	24.66	-52.0	-71.5	3.8	7.47e-01	0	43	104	544210944	74	36271
2026-01-13 10:49:19.44	19.68	24.51	-51.0	-72.4	3.8	7.42e-01	0	43	104	544210944	73	42450
2026-01-13 10:49:20.15	19.50	24.43	-51.3	-72.4	3.8	7.51e-01	0	43	104	544210944	73	42872
2026-01-13 10:49:21.79	19.08	24.24	-52.0	-71.8	3.8	7.47e-01	0	43	104	544210944	74	37716
2026-01-13 10:49:22.36	18.94	24.17	-52.3	-71.6	3.8	7.44e-01	0	43	104	544210944	75	34741
2026-01-13 10:49:24.06	18.52	23.98	-52.6	-71.2	3.8	7.44e-01	0	43	104	544210944	75	33296
2026-01-13 10:49:24.74	18.35	23.90	-52.5	-71.5	3.8	7.44e-01	0	43	104	544210944	75	34171
2026-01-13 10:49:26.16	18.00	23.73	-51.1	-67.6	3.8	7.46e-01	0	43	104	544210944	74	23218
2026-01-13 10:49:26.88	17.82	23.65	-48.8	-62.0	3.8	7.47e-01	0	43	104	544210944	69	16246
2026-01-13 10:49:28.15	17.52	23.50	-52.2	-73.1	3.8	7.46e-01	0	43	104	544210944	75	40982
2026-01-13 10:49:28.99	17.32	23.40	-49.7	-63.1	3.8	7.44e-01	0	43	104	544210944	71	16456
2026-01-13 10:49:30.13	17.05	23.27	-49.0	-61.9	3.8	7.42e-01	0	43	104	544210944	70	15188
2026-01-13 10:49:30.98	16.85	23.17	-49.0	-62.0	3.8	7.49e-01	0	43	104	544210944	69	16299
2026-01-13 10:49:32.12	16.58	23.04	-48.5	-61.6	3.8	7.48e-01	0	43	104	544210944	69	15556
2026-01-13 10:49:32.97	16.38	22.94	-48.0	-61.0	3.8	7.44e-01	0	43	104	544210944	67	16283
2026-01-13 10:49:34.11	16.12	22.81	-49.0	-63.1	3.8	7.43e-01	0	43	104	544210944	68	19519
2026-01-13 10:49:35.28	15.85	22.67	-52.0	-72.9	3.8	7.47e-01	0	43	104	544210944	74	42464
2026-01-13 10:49:36.29	15.62	22.56	-50.2	-65.5	3.8	7.47e-01	0	43	104	544210944	71	21620
2026-01-13 10:49:37.28	15.40	22.44	-51.0	-69.3	3.9	7.49e-01	0	43	104	544210944	73	30017
2026-01-13 10:49:38.51	15.13	22.30	-49.9	-64.4	3.8	7.45e-01	0	43	104	544210944	71	19022
2026-01-13 10:49:39.37	14.94	22.20	-49.5	-63.5	3.8	7.46e-01	0	43	104	544210944	71	17091
2026-01-13 10:49:40.50	14.69	22.07	-49.8	-63.7	3.8	7.41e-01	0	43	104	544210944	71	17676
2026-01-13 10:49:41.36	14.50	21.97	-49.5	-63.1	3.8	7.48e-01	0	43	104	544210944	71	16347
2026-01-13 10:49:42.49	14.26	21.84	-49.7	-63.3	3.8	7.48e-01	0	43	104	544210944	70	17792
2026-01-13 10:49:43.35	14.08	21.74	-51.7	-68.1	3.9	7.45e-01	0	43	104	544210944	74	24412
2026-01-13 10:49:44.48	13.84	21.61	-51.1	-66.7	4.0	7.42e-01	0	43	104	544210944	74	21009
2026-01-13 10:49:45.34	13.66	21.51	-50.1	-63.6	3.8	7.45e-01	0	43	104	544210944	70	18497
2026-01-13 10:49:46.47	13.42	21.38	-52.0	-68.8	4.0	7.43e-01	0	43	104	544210944	76	23617
2026-01-13 10:49:47.32	13.25	21.29	-48.4	-61.4	3.8	7.44e-01	0	43	104	544210944	68	16054
2026-01-13 10:49:48.46	13.01	21.16	-47.5	-60.5	3.8	7.44e-01	0	43	104	544210944	67	15293
2026-01-13 10:49:49.31	12.84	21.06	-47.2	-60.1	3.8	7.43e-01	0	43	104	544210944	66	15568
2026-01-13 10:49:50.45	12.61	20.93	-47.4	-60.4	3.8	7.43e-01	0	43	104	544210944	66	16020
2026-01-13 10:49:51.30	12.44	20.84	-47.5	-60.7	3.8	7.46e-01	0	43	104	544210944	66	16592
2026-01-13 10:49:52.44	12.21	20.71	-50.3	-67.0	3.8	7.48e-01	0	43	104	544210944	71	25809
2026-01-13 10:49:53.29	12.04	20.61	-51.1	-72.8	3.8	7.44e-01	0	43	104	544210944	73	44569
2026-01-13 10:49:54.43	11.82	20.48	-48.4	-61.9	3.8	7.46e-01	0	43	104	544210944	68	16983
2026-01-13 10:49:55.28	11.65	20.39	-50.5	-65.5	3.9	7.46e-01	0	43	104	544210944	72	20366
2026-01-13 10:49:56.42	11.43	20.26	-48.3	-61.4	3.8	7.46e-01	0	43	104	544210944	68	16075
2026-01-13 10:49:57.27	11.27	20.16	-48.2	-61.2	3.8	7.46e-01	0	43	104	544210944	68	15713
2026-01-13 10:49:58.41	11.05	20.04	-48.1	-61.1	3.8	7.47e-01	0	43	104	544210944	68	15497
2026-01-13 10:49:59.26	10.89	19.94	-47.8	-60.8	3.8	7.44e-01	0	43	104	544210944	67	15840
2026-01-13 10:50:00.40	10.68	19.81	-49.1	-63.0	3.8	7.44e-01	0	43	104	544210944	69	18283
2026-01-13 10:50:01.25	10.52	19.72	-49.4	-63.3	3.8	7.50e-01	0	43	104	544210944	69	18915
2026-01-13 10:50:02.39	10.31	19.59	-52.3	-72.7	3.8	7.46e-01	0	43	104	544210944	75	39575
2026-01-13 10:50:03.24	10.16	19.50	-52.0	-71.5	3.8	7.45e-01	0	43	104	544210944	75	34338
2026-01-13 10:50:04.38	9.95	19.37	-51.7	-72.5	3.8	7.51e-01	0	43	104	544210944	75	38598
2026-01-13 10:50:05.23	9.80	19.28	-51.8	-73.0	3.8	7.47e-01	0	43	104	544210944	75	40765
2026-01-13 10:50:06.37	9.59	19.15	-51.9	-73.0	3.8	7.46e-01	0	43	104	544210944	75	40584
2026-01-13 10:50:07.22	9.44	19.06	-52.0	-73.0	3.8	7.47e-01	0	43	104	544210944	75	40791
2026-01-13 10:50:08.58	9.20	18.91	-51.8	-72.5	3.8	7.46e-01	0	43	104	544210944	75	38326
2026-01-13 10:50:09.29	9.08	18.83	-51.6	-72.5	3.8	7.47e-01	0	43	104	544210944	75	38541
2026-01-13 10:50:10.57	8.86	18.69	-50.6	-67.8	3.9	7.44e-01	0	43	104	544210944	73	25042
2026-01-13 10:50:11.28	8.74	18.62	-50.1	-66.3	3.8	7.44e-01	0	43	104	544210944	72	22469
2026-01-13 10:50:12.83	8.47	18.45	-51.3	-72.2	3.7	7.48e-01	0	43	104	544210944	73	41736
2026-01-13 10:50:13.54	8.35	18.37	-49.6	-67.4	4.0	7.43e-01	0	43	104	544210944	71	26990
2026-01-13 10:50:14.82	8.14	18.24	-47.3	-60.5	3.8	7.45e-01	0	43	104	544210944	66	16238
2026-01-13 10:50:15.54	8.02	18.16	-46.9	-59.9	3.8	7.45e-01	0	43	104	544210944	65	15955
2026-01-13 10:50:16.82	7.81	18.02	-46.9	-59.9	3.8	7.43e-01	0	43	104	544210944	65	16098
2026-01-13 10:50:17.55	7.69	17.94	-46.9	-60.0	3.8	7.43e-01	0	43	104	544210944	65	16183
2026-01-13 10:50:18.83	7.48	17.81	-47.4	-61.2	3.8	7.41e-01	0	43	104	544210944	65	18688
2026-01-13 10:50:19.54	7.37	17.73	-50.3	-68.2	3.8	7.47e-01	0	43	104	544210944	71	29535
2026-01-13 10:50:20.82	7.16	17.60	-50.9	-71.1	3.9	7.48e-01	0	43	104	544210944	72	38850
2026-01-13 10:50:21.61	7.04	17.51	-50.7	-72.5	3.8	7.50e-01	0	43	104	544210944	72	45532
2026-01-13 10:50:22.81	6.85	17.39	-50.6	-70.8	3.9	7.45e-01	0	43	104	544210944	72	37561
2026-01-13 10:50:23.66	6.71	17.30	-50.7	-70.9	3.8	7.47e-01	0	43	104	544210944	72	37891
2026-01-13 10:50:24.79	6.54	17.18	-50.8	-70.7	3.9	7.48e-01	0	43	104	544210944	72	36964
2026-01-13 10:50:25.65	6.41	17.09	-50.7	-70.5	3.8	7.46e-01	0	43	104	544210944	72	36327
2026-01-13 10:50:26.79	6.23	16.97	-50.9	-70.7	3.8	7.46e-01	0	43	104	544210944	72	37205
2026-01-13 10:50:27.64	6.10	16.88	-50.8	-68.2	3.9	7.42e-01	0	43	104	544210944	72	27806
2026-01-13 10:50:28.77	5.93	16.76	-50.9	-68.9	3.8	7.47e-01	0	43	104	544210944	72	30364
2026-01-13 10:50:29.63	5.80	16.67	-48.3	-62.2	3.8	7.45e-01	0	43	104	544210944	68	17494
2026-01-13 10:50:30.76	5.64	16.56	-51.4	-71.6	3.8	7.48e-01	0	43	104	544210944	73	39118
2026-01-13 10:50:31.61	5.51	16.47	-49.3	-64.5	3.9	7.43e-01	0	43	104	544210944	70	20445
2026-01-13 10:50:32.75	5.34	16.35	-48.3	-61.6	3.8	7.44e-01	0	43	104	544210944	68	16318
2026-01-13 10:50:33.60	5.22	16.27	-48.0	-60.8	3.8	7.48e-01	0	43	104	544210944	68	15019
2026-01-13 10:50:34.74	5.06	16.15	-47.7	-60.7	3.8	7.49e-01	0	43	104	544210944	67	15673
2026-01-13 10:50:35.69	4.92	16.05	-47.7	-60.8	3.8	7.46e-01	0	43	104	544210944	67	15925
2026-01-13 10:50:36.86	4.76	15.93	-47.9	-61.0	3.8	7.46e-01	0	43	104	544210944	67	16238
2026-01-13 10:50:37.72	4.63	15.85	-52.4	-71.8	3.7	7.48e-01	0	43	104	544210944	75	35561
2026-01-13 10:50:39.02	4.45	15.72	-48.6	-62.4	3.8	7.49e-01	0	43	104	544210944	69	16965
2026-01-13 10:50:39.73	4.35	15.65	-48.2	-62.9	3.8	7.46e-01	0	43	104	544210944	67	20181
2026-01-13 10:50:41.23	4.15	15.50	-47.3	-61.3	3.8	7.41e-01	0	43	104	544210944	66	17708
2026-01-13 10:50:41.94	4.05	15.42	-47.3	-61.3	3.8	7.44e-01	0	43	104	544210944	66	17704
2026-01-13 10:50:43.22	3.88	15.30	-47.3	-60.4	3.8	7.48e-01	0	43	104	544210944	66	16078
2026-01-13 10:50:44.28	3.74	15.19	-47.3	-60.2	3.8	7.47e-01	0	43	104	544210944	66	15653
2026-01-13 10:50:45.13	3.62	15.11	-47.6	-60.5	3.8	7.47e-01	0	43	104	544210944	66	16292
2026-01-13 10:50:46.27	3.47	15.00	-48.7	-62.4	3.8	7.49e-01	0	43	104	544210944	67	19050
2026-01-13 10:50:47.12	3.36	14.91	-50.5	-72.9	3.8	7.47e-01	0	43	104	544210944	71	50443
2026-01-13 10:50:48.31	3.20	14.80	-48.5	-62.1	3.8	7.46e-01	0	43	104	544210944	69	16352
2026-01-13 10:50:49.16	3.09	14.71	-49.2	-64.4	3.8	7.45e-01	0	43	104	544210944	69	21310
2026-01-13 10:50:50.30	2.95	14.60	-48.9	-62.9	3.8	7.46e-01	0	43	104	544210944	68	19009
2026-01-13 10:50:51.15	2.84	14.52	-48.3	-62.2	3.8	7.43e-01	0	43	104	544210944	68	17493
2026-01-13 10:50:52.29	2.69	14.41	-47.7	-61.3	3.8	7.44e-01	0	43	104	544210944	67	16833
2026-01-13 10:50:53.14	2.59	14.33	-47.8	-61.0	3.8	7.45e-01	0	43	104	544210944	67	16190
2026-01-13 10:50:54.28	2.45	14.22	-48.3	-61.0	3.9	7.49e-01	0	43	104	544210944	68	15294
2026-01-13 10:50:55.13	2.34	14.14	-48.5	-61.5	3.8	7.46e-01	0	43	104	544210944	67	17214
2026-01-13 10:50:56.27	2.20	14.03	-50.9	-72.6	3.8	7.43e-01	0	43	104	544210944	72	46338
2026-01-13 10:50:57.28	2.08	13.93	-48.9	-61.9	3.8	7.48e-01	0	43	104	544210944	69	15946
2026-01-13 10:50:58.45	1.93	13.82	-48.2	-61.9	3.9	7.46e-01	0	43	104	544210944	68	17056
2026-01-13 10:50:59.33	1.83	13.74	-49.1	-62.8	3.8	7.43e-01	0	43	104	544210944	68	18903
2026-01-13 10:51:00.47	1.69	13.63	-48.4	-62.2	3.8	7.44e-01	0	43	104	544210944	68	17542
2026-01-13 10:51:01.32	1.59	13.55	-48.0	-61.9	3.8	7.44e-01	0	43	104	544210944	68	16909
2026-01-13 10:51:02.46	1.46	13.44	-47.7	-61.1	3.8	7.46e-01	0	43	104	544210944	67	16417
2026-01-13 10:51:03.31	1.36	13.36	-48.5	-61.9	3.8	7.41e-01	0	43	104	544210944	68	16946
2026-01-13 10:51:04.45	1.22	13.26	-49.3	-65.1	3.8	7.51e-01	0	43	104	544210944	69	23069
2026-01-13 10:51:05.30	1.13	13.18	-50.8	-72.7	3.8	7.46e-01	0	43	104	544210944	72	46571
2026-01-13 10:51:06.44	1.00	13.07	-48.6	-62.2	3.8	7.43e-01	0	43	104	544210944	69	16638
2026-01-13 10:51:07.29	0.90	12.99	-49.8	-63.8	3.8	7.45e-01	0	43	104	544210944	70	18821
2026-01-13 10:51:08.43	0.77	12.89	-48.9	-62.2	3.8	7.45e-01	0	43	104	544210944	69	16627
2026-01-13 10:51:09.28	0.67	12.81	-48.8	-62.0	3.8	7.43e-01	0	43	104	544210944	69	16183
2026-01-13 10:51:10.41	0.55	12.71	-48.4	-61.3	3.8	7.43e-01	0	43	104	544210944	68	15874
2026-01-13 10:51:11.27	0.45	12.63	-48.4	-61.3	3.8	7.48e-01	0	43	104	544210944	68	15907
2026-01-13 10:51:12.40	0.33	12.52	-48.3	-61.3	3.8	7.43e-01	0	43	104	544210944	68	15815
2026-01-13 10:51:13.26	0.23	12.45	-48.8	-62.1	3.8	7.46e-01	0	43	104	544210944	68	17351
2026-01-13 10:51:14.50	0.10	12.33	-52.1	-70.9	3.9	7.44e-01	0	43	104	544210944	75	31941
2026-01-13 10:51:15.35	0.01	12.26	-50.2	-64.8	3.8	7.46e-01	0	43	104	544210944	72	18844
2026-01-13 10:51:16.49	359.89	12.15	-49.9	-64.5	3.8	7.45e-01	0	43	104	544210944	71	19214
2026-01-13 10:51:17.34	359.80	12.08	-49.7	-64.0	3.8	7.43e-01	0	43	104	544210944	71	18240
2026-01-13 10:51:18.48	359.68	11.98	-49.9	-63.9	3.8	7.49e-01	0	43	104	544210944	71	18042
2026-01-13 10:51:19.33	359.59	11.90	-49.7	-63.6	3.8	7.47e-01	0	43	104	544210944	71	17423
2026-01-13 10:51:20.47	359.47	11.80	-48.9	-62.3	3.8	7.46e-01	0	43	104	544210944	69	16744
2026-01-13 10:51:21.32	359.38	11.72	-48.6	-62.0	3.8	7.46e-01	0	43	104	544210944	69	16217
2026-01-13 10:51:22.46	359.26	11.62	-49.8	-64.3	3.8	7.47e-01	0	43	104	544210944	70	20055
2026-01-13 10:51:23.31	359.18	11.55	-52.4	-72.5	3.9	7.42e-01	0	43	104	544210944	75	38652
2026-01-13 10:51:24.45	359.06	11.45	-48.1	-62.1	3.8	7.46e-01	0	43	104	544210944	68	17305
2026-01-13 10:51:25.30	358.97	11.37	-47.9	-62.6	3.8	7.43e-01	0	43	104	544210944	67	19546
2026-01-13 10:51:26.44	358.86	11.27	-47.1	-61.5	3.8	7.43e-01	0	43	104	544210944	66	18202
2026-01-13 10:51:27.29	358.78	11.20	-46.5	-61.2	3.8	7.46e-01	0	43	104	544210944	65	18553
2026-01-13 10:51:28.43	358.66	11.10	-46.2	-61.5	3.8	7.44e-01	0	43	104	544210944	64	20334
2026-01-13 10:51:29.28	358.58	11.03	-46.0	-61.2	3.8	7.47e-01	0	43	104	544210944	63	20803
2026-01-13 10:51:30.41	358.47	10.93	-46.0	-61.3	3.8	7.43e-01	0	43	104	544210944	63	21237
2026-01-13 10:51:31.26	358.39	10.86	-46.6	-62.5	3.8	7.48e-01	0	43	104	544210944	63	24236
2026-01-13 10:51:32.51	358.27	10.75	-48.9	-69.0	3.9	7.41e-01	0	43	104	544210944	70	34406
2026-01-13 10:51:33.37	358.18	10.68	-46.5	-63.5	3.9	7.45e-01	0	43	104	544210944	65	24231
2026-01-13 10:51:34.56	358.07	10.58	-47.2	-62.6	3.8	7.45e-01	0	43	104	544210944	65	21858
2026-01-13 10:51:35.42	357.99	10.50	-47.4	-62.5	3.9	7.47e-01	0	43	104	544210944	65	21571
2026-01-13 10:51:36.62	357.88	10.40	-47.8	-62.1	3.8	7.48e-01	0	43	104	544210944	66	19587
2026-01-13 10:51:37.47	357.80	10.33	-47.7	-62.0	3.8	7.45e-01	0	43	104	544210944	66	19267
2026-01-13 10:51:38.61	357.69	10.23	-47.3	-61.9	3.8	7.46e-01	0	43	104	544210944	66	19118
2026-01-13 10:51:39.46	357.62	10.16	-47.1	-61.4	3.8	7.45e-01	0	43	104	544210944	66	18087
2026-01-13 10:51:40.60	357.51	10.07	-49.5	-67.6	3.8	7.52e-01	0	43	104	544210944	69	30895
2026-01-13 10:51:41.45	357.43	10.00	-49.6	-70.3	4.0	7.46e-01	0	43	104	544210944	69	42287
2026-01-13 10:51:42.59	357.33	9.90	-46.5	-61.7	3.8	7.47e-01	0	43	104	544210944	65	19700
2026-01-13 10:51:43.44	357.26	9.83	-46.2	-62.3	3.8	7.42e-01	0	43	104	544210944	64	22291
2026-01-13 10:51:44.58	357.15	9.74	-46.0	-61.7	3.8	7.46e-01	0	43	104	544210944	64	20850
2026-01-13 10:51:45.43	357.08	9.67	-45.9	-61.6	3.8	7.45e-01	0	43	104	544210944	63	21917
2026-01-13 10:51:46.57	356.98	9.57	-45.8	-61.7	3.8	7.43e-01	0	43	104	544210944	63	22197
2026-01-13 10:51:47.42	356.90	9.50	-45.6	-61.8	3.8	7.44e-01	0	43	104	544210944	63	22364
2026-01-13 10:51:48.56	356.81	9.41	-45.5	-61.4	3.8	7.44e-01	0	43	104	544210944	63	21379
2026-01-13 10:51:49.41	356.73	9.34	-46.7	-64.0	3.8	7.46e-01	0	43	104	544210944	64	27274
2026-01-13 10:51:50.55	356.63	9.25	-48.0	-68.3	4.0	7.42e-01	0	43	104	544210944	67	37435
2026-01-13 10:51:51.40	356.56	9.18	-45.9	-63.0	3.9	7.47e-01	0	43	104	544210944	63	25569
2026-01-13 10:51:52.54	356.47	9.09	-45.2	-62.2	3.8	7.43e-01	0	43	104	544210944	62	24889
2026-01-13 10:51:53.39	356.39	9.02	-45.0	-62.2	3.8	7.44e-01	0	43	104	544210944	62	24761
2026-01-13 10:51:54.53	356.30	8.93	-48.2	-72.9	3.8	7.50e-01	0	43	104	544210944	68	60413
2026-01-13 10:51:55.38	356.23	8.86	-52.8	-73.9	3.9	7.42e-01	0	43	104	544210944	76	42684
2026-01-13 10:51:56.51	356.14	8.77	-53.5	-73.7	3.9	7.48e-01	0	43	104	544210944	77	39316
2026-01-13 10:51:57.36	356.07	8.70	-52.2	-73.7	3.8	7.43e-01	0	43	104	544210944	76	41700
2026-01-13 10:51:58.50	355.97	8.61	-52.9	-73.8	3.8	7.47e-01	0	43	104	544210944	77	39774
2026-01-13 10:51:59.35	355.90	8.54	-51.2	-73.8	3.8	7.46e-01	0	43	104	544210944	74	47207
2026-01-13 10:52:00.49	355.81	8.45	-53.9	-73.9	3.8	7.49e-01	0	43	104	544210944	78	37874
2026-01-13 10:52:01.34	355.74	8.39	-53.7	-73.9	3.8	7.44e-01	0	43	104	544210944	78	37979
2026-01-13 10:52:02.48	355.65	8.30	-53.4	-73.9	3.8	7.48e-01	0	43	104	544210944	78	38161
2026-01-13 10:52:03.33	355.59	8.23	-53.1	-73.9	3.8	7.42e-01	0	43	104	544210944	77	40365
2026-01-13 10:52:04.46	355.50	8.14	-53.9	-74.0	3.8	7.43e-01	0	43	104	544210944	78	38305
2026-01-13 10:52:05.31	355.43	8.08	-53.9	-74.0	3.8	7.46e-01	0	43	104	544210944	78	38471
2026-01-13 10:52:06.48	355.34	7.98	-53.4	-74.0	3.8	7.44e-01	0	43	104	544210944	78	38546
2026-01-13 10:52:07.33	355.27	7.92	-54.0	-74.0	3.8	7.43e-01	0	43	104	544210944	78	38579
2026-01-13 10:52:08.55	355.18	7.82	-54.2	-74.0	3.8	7.49e-01	0	43	104	544210944	78	38609
2026-01-13 10:52:09.40	355.12	7.76	-53.8	-74.0	3.8	7.44e-01	0	43	104	544210944	78	38612
2026-01-13 10:52:10.60	355.03	7.67	-54.0	-74.1	3.8	7.45e-01	0	43	104	544210944	78	38717
2026-01-13 10:52:11.45	354.96	7.60	-53.9	-74.0	3.8	7.45e-01	0	43	104	544210944	79	36507
2026-01-13 10:52:12.65	354.87	7.51	-54.2	-74.1	3.8	7.43e-01	0	43	104	544210944	79	36536
2026-01-13 10:52:13.50	354.81	7.45	-54.1	-74.1	3.8	7.44e-01	0	43	104	544210944	79	36631
2026-01-13 10:52:14.63	354.73	7.36	-54.3	-74.1	3.9	7.47e-01	0	43	104	544210944	79	36672
2026-01-13 10:52:15.49	354.66	7.30	-54.0	-74.1	3.8	7.46e-01	0	43	104	544210944	79	36740
2026-01-13 10:52:16.62	354.58	7.21	-54.1	-74.1	3.8	7.48e-01	0	43	104	544210944	79	36773
2026-01-13 10:52:17.47	354.52	7.15	-54.0	-74.1	3.8	7.47e-01	0	43	104	544210944	79	36656
2026-01-13 10:52:18.61	354.44	7.06	-54.1	-74.1	3.8	7.44e-01	0	43	104	544210944	79	36742
2026-01-13 10:52:19.46	354.37	7.00	-54.0	-74.1	3.8	7.46e-01	0	43	104	544210944	79	36743
2026-01-13 10:52:20.59	354.29	6.91	-53.9	-74.1	3.8	7.44e-01	0	43	104	544210944	79	36751
2026-01-13 10:52:21.44	354.23	6.85	-53.4	-74.1	3.7	7.47e-01	0	43	104	544210944	78	38918
2026-01-13 10:52:22.58	354.15	6.76	-53.8	-74.1	3.8	7.45e-01	0	43	104	544210944	78	38947
2026-01-13 10:52:23.43	354.09	6.70	-53.7	-74.1	3.8	7.45e-01	0	43	104	544210944	78	38888
2026-01-13 10:52:24.57	354.01	6.62	-53.7	-74.1	3.8	7.46e-01	0	43	104	544210944	78	38835
2026-01-13 10:52:25.42	353.96	6.55	-53.7	-74.1	3.8	7.50e-01	0	43	104	544210944	78	38982
2026-01-13 10:52:26.55	353.88	6.47	-53.7	-74.1	3.8	7.46e-01	0	43	104	544210944	78	38771
2026-01-13 10:52:27.41	353.82	6.41	-53.7	-74.1	3.8	7.46e-01	0	43	104	544210944	78	38914
2026-01-13 10:52:28.54	353.74	6.33	-53.7	-74.1	3.8	7.44e-01	0	43	104	544210944	78	38829
2026-01-13 10:52:29.39	353.68	6.26	-53.7	-74.1	3.8	7.45e-01	0	43	104	544210944	78	38866
2026-01-13 10:52:30.53	353.61	6.18	-53.7	-74.1	3.8	7.47e-01	0	43	104	544210944	78	39012
2026-01-13 10:52:31.38	353.55	6.12	-53.7	-74.1	3.8	7.45e-01	0	43	104	544210944	78	38952
2026-01-13 10:52:32.51	353.48	6.04	-53.7	-74.1	3.8	7.46e-01	0	43	104	544210944	78	38960
2026-01-13 10:52:33.36	353.42	5.98	-53.7	-74.1	3.8	7.48e-01	0	43	104	544210944	78	39093
2026-01-13 10:52:34.50	353.34	5.89	-53.7	-74.1	3.8	7.46e-01	0	43	104	544210944	78	38969
2026-01-13 10:52:35.35	353.29	5.83	-53.7	-74.1	3.8	7.45e-01	0	43	104	544210944	78	38974
2026-01-13 10:52:36.49	353.21	5.75	-53.7	-74.1	3.8	7.42e-01	0	43	104	544210944	78	39037
2026-01-13 10:52:37.34	353.16	5.69	-53.8	-74.1	3.8	7.43e-01	0	43	104	544210944	78	39022
2026-01-13 10:52:38.47	353.09	5.61	-53.8	-74.1	3.8	7.44e-01	0	43	104	544210944	78	39121
2026-01-13 10:52:39.33	353.03	5.55	-53.8	-74.1	3.8	7.44e-01	0	43	104	544210944	78	39019
2026-01-13 10:52:40.46	352.96	5.47	-53.7	-74.1	3.8	7.44e-01	0	43	104	544210944	78	39084
2026-01-13 10:52:41.31	352.91	5.41	-53.7	-74.1	3.8	7.46e-01	0	43	104	544210944	78	38967
2026-01-13 10:52:42.45	352.83	5.33	-53.7	-74.1	3.8	7.44e-01	0	43	104	544210944	78	39109
2026-01-13 10:52:43.30	352.78	5.27	-53.7	-74.2	3.8	7.47e-01	0	43	104	544210944	78	39293
2026-01-13 10:52:44.44	352.71	5.19	-53.8	-74.2	3.8	7.46e-01	0	43	104	544210944	78	39153
2026-01-13 10:52:45.29	352.66	5.13	-53.8	-74.2	3.8	7.46e-01	0	43	104	544210944	78	39256
2026-01-13 10:52:46.42	352.59	5.05	-53.8	-74.1	3.8	7.45e-01	0	43	104	544210944	78	39113
2026-01-13 10:52:47.27	352.54	4.99	-53.8	-74.2	3.8	7.44e-01	0	43	104	544210944	78	39199

#Closed at: 2026-01-13 10:52:48
#Recorded file [544 MB]: D:/Data/31040_260113_134215.dat