passes_logs/2026/01/13/T1/T1__20260113_161053_FENGYUN_3E_rec.log

#Pass ID: 20260113_161053_FENGYUN 3E
#Satellite: FENGYUN 3E
#Configuration: FENGYUN 3E
#almurnet v.1.7.20251203
#Start time: 2026-01-13 16:10:52

#Version: 2.0.20230620
#Station: T1
#Location: 37.570604 lon 55.790049 lat
#TLE: 1 49008U 21062A   26012.89166517 -.00000229  00000+0 -86979-4 0  9993
#TLE: 2 49008  98.7492  18.0449 0001954 141.1957 218.9360 14.19884302234542

#Time	Az	El	Level	Level2	SNR	BER	BlckErr	Temp	State	Recorded	gain1	gain2
2026-01-13 16:10:52.91	227.22	4.97	-50.4	-61.3	3.7	8.47e-01	0	41	0	0	71	12397
2026-01-13 16:10:53.90	227.33	5.02	-50.3	-61.3	3.8	8.47e-01	0	41	104	0	71	12437
2026-01-13 16:10:54.89	227.44	5.07	-50.3	-61.2	3.8	8.48e-01	0	41	104	0	71	12312
2026-01-13 16:10:55.89	227.55	5.12	-50.3	-61.2	3.8	8.47e-01	0	41	104	0	71	12365
2026-01-13 16:10:56.88	227.66	5.17	-50.3	-61.3	3.8	8.47e-01	0	41	104	0	71	12400
2026-01-13 16:10:57.88	227.77	5.22	-50.3	-61.3	3.8	8.46e-01	0	41	104	0	71	12388
2026-01-13 16:10:58.87	227.88	5.27	-50.3	-61.2	3.8	8.46e-01	0	41	104	0	71	12351
2026-01-13 16:10:59.86	227.99	5.32	-50.3	-61.2	3.8	8.47e-01	0	41	104	0	71	12315
2026-01-13 16:11:00.85	228.10	5.37	-50.3	-61.2	3.8	8.47e-01	0	42	104	0	71	12350
2026-01-13 16:11:01.85	228.21	5.42	-50.3	-61.3	3.8	8.47e-01	0	41	104	0	71	12426
2026-01-13 16:11:02.84	228.32	5.47	-50.3	-61.2	3.8	8.46e-01	0	42	104	0	71	12339
2026-01-13 16:11:03.83	228.43	5.52	-50.3	-61.2	3.8	8.47e-01	0	42	104	0	71	12349
2026-01-13 16:11:04.83	228.54	5.57	-50.3	-61.2	3.8	8.48e-01	0	42	104	0	71	12358
2026-01-13 16:11:05.82	228.65	5.62	-50.3	-61.2	3.8	8.47e-01	0	42	104	0	71	12374
2026-01-13 16:11:06.82	228.77	5.67	-50.3	-61.2	3.8	8.48e-01	0	42	104	0	71	12327
2026-01-13 16:11:07.81	228.88	5.72	-50.3	-61.2	3.8	8.46e-01	0	42	104	0	71	12315
2026-01-13 16:11:08.80	228.99	5.77	-50.3	-61.2	3.8	8.47e-01	0	42	104	0	71	12360
2026-01-13 16:11:09.80	229.11	5.82	-50.3	-61.2	3.8	8.47e-01	0	42	104	0	71	12352
2026-01-13 16:11:10.79	229.22	5.87	-50.3	-61.2	3.8	8.46e-01	0	42	104	0	71	12277
2026-01-13 16:11:11.78	229.33	5.92	-50.3	-61.1	3.8	8.45e-01	0	42	104	0	71	12202
2026-01-13 16:11:12.77	229.45	5.97	-50.3	-61.0	3.8	8.47e-01	0	42	104	0	71	12057
2026-01-13 16:11:13.77	229.57	6.02	-50.3	-61.0	3.8	8.48e-01	0	42	104	0	71	12013
2026-01-13 16:11:14.76	229.68	6.07	-50.3	-60.9	3.8	8.47e-01	0	42	104	0	71	11936
2026-01-13 16:11:15.75	229.80	6.12	-50.3	-61.0	3.8	8.47e-01	0	42	104	0	71	12013
2026-01-13 16:11:16.75	229.91	6.17	-50.3	-61.0	3.8	8.46e-01	0	42	104	0	71	11976
2026-01-13 16:11:17.74	230.03	6.22	-50.3	-61.0	3.8	8.47e-01	0	42	104	0	71	12051
2026-01-13 16:11:18.73	230.15	6.27	-50.3	-61.0	3.8	8.47e-01	0	42	104	0	71	12038
2026-01-13 16:11:19.72	230.26	6.32	-50.3	-61.0	3.8	8.47e-01	0	42	104	0	71	12094
2026-01-13 16:11:20.72	230.38	6.37	-50.3	-61.1	3.8	8.49e-01	0	42	104	0	71	12223
2026-01-13 16:11:21.71	230.50	6.42	-50.3	-61.2	3.8	8.47e-01	0	43	104	0	71	12238
2026-01-13 16:11:22.70	230.62	6.47	-50.3	-61.2	3.8	8.47e-01	0	42	104	0	71	12288
2026-01-13 16:11:23.70	230.74	6.52	-50.3	-61.2	3.8	8.47e-01	0	42	104	0	71	12325
2026-01-13 16:11:24.69	230.86	6.57	-50.3	-61.2	3.8	8.49e-01	0	43	104	0	71	12291
2026-01-13 16:11:25.68	230.98	6.62	-50.3	-61.2	3.8	8.47e-01	0	43	104	0	71	12305
2026-01-13 16:11:26.68	231.10	6.67	-50.3	-61.2	3.8	8.46e-01	0	43	104	0	71	12374
2026-01-13 16:11:27.67	231.22	6.72	-50.3	-61.2	3.8	8.47e-01	0	43	104	0	71	12268
2026-01-13 16:11:28.66	231.34	6.77	-50.3	-61.1	3.8	8.46e-01	0	43	104	0	71	12176
2026-01-13 16:11:29.66	231.46	6.82	-50.2	-60.9	3.8	8.46e-01	0	43	104	0	71	11946
2026-01-13 16:11:30.65	231.58	6.87	-50.2	-60.8	3.8	8.48e-01	0	43	104	0	71	11791
2026-01-13 16:11:31.64	231.70	6.92	-50.2	-60.8	3.8	8.48e-01	0	43	104	0	71	11795
2026-01-13 16:11:32.64	231.83	6.97	-50.2	-60.8	3.8	8.47e-01	0	43	104	0	71	11743
2026-01-13 16:11:33.63	231.95	7.02	-50.2	-60.9	3.8	8.47e-01	0	43	104	0	71	11852
2026-01-13 16:11:34.62	232.07	7.07	-50.2	-60.8	3.8	8.47e-01	0	43	104	0	71	11790
2026-01-13 16:11:35.62	232.20	7.12	-50.2	-60.8	3.8	8.46e-01	0	43	104	0	71	11704
2026-01-13 16:11:36.61	232.32	7.17	-50.2	-60.7	3.8	8.47e-01	0	43	104	0	71	11658
2026-01-13 16:11:37.60	232.45	7.22	-50.3	-60.9	3.8	8.47e-01	0	43	104	0	71	11898
2026-01-13 16:11:38.60	232.57	7.27	-50.3	-61.0	3.8	8.47e-01	0	43	104	0	71	12089
2026-01-13 16:11:39.59	232.70	7.32	-50.3	-61.1	3.8	8.46e-01	0	43	104	0	71	12184
2026-01-13 16:11:40.58	232.82	7.37	-50.3	-61.0	3.8	8.46e-01	0	43	104	0	71	11962
2026-01-13 16:11:41.58	232.95	7.42	-50.2	-60.6	3.8	8.46e-01	0	43	104	0	71	11496
2026-01-13 16:11:42.57	233.08	7.47	-50.2	-60.3	3.8	8.47e-01	0	43	104	0	71	11036
2026-01-13 16:11:43.56	233.20	7.52	-50.2	-60.0	3.8	8.48e-01	0	43	104	0	71	10778
2026-01-13 16:11:44.55	233.33	7.57	-50.2	-60.1	3.8	8.47e-01	0	43	104	0	71	10830
2026-01-13 16:11:45.55	233.46	7.62	-50.2	-60.4	3.8	8.47e-01	0	43	104	0	71	11211
2026-01-13 16:11:46.54	233.59	7.67	-50.2	-60.7	3.8	8.47e-01	0	43	104	0	71	11601
2026-01-13 16:11:47.54	233.72	7.72	-50.3	-60.9	3.8	8.47e-01	0	43	104	0	71	11874
2026-01-13 16:11:48.53	233.85	7.77	-50.2	-60.8	3.8	8.47e-01	0	43	104	0	71	11705
2026-01-13 16:11:49.52	233.98	7.82	-50.2	-60.5	3.8	8.47e-01	0	43	104	0	71	11346
2026-01-13 16:11:50.52	234.11	7.87	-50.2	-60.1	3.8	8.45e-01	0	43	104	0	71	10810
2026-01-13 16:11:51.51	234.24	7.92	-50.1	-59.7	3.8	8.47e-01	0	43	104	0	71	10335
2026-01-13 16:11:52.50	234.37	7.97	-50.1	-59.5	3.8	8.46e-01	0	43	104	0	71	10110
2026-01-13 16:11:53.50	234.50	8.02	-50.1	-59.4	3.8	8.46e-01	0	43	104	0	70	10616
2026-01-13 16:11:54.49	234.63	8.07	-50.1	-59.4	3.8	8.47e-01	0	43	104	0	70	10617
2026-01-13 16:11:55.48	234.76	8.12	-50.1	-59.3	3.8	8.47e-01	0	43	104	0	70	10444
2026-01-13 16:11:56.48	234.90	8.17	-50.0	-58.9	3.9	8.46e-01	0	43	104	0	70	9956
2026-01-13 16:11:57.47	235.03	8.22	-49.9	-58.2	4.1	8.43e-01	0	43	0	0	70	9279
2026-01-13 16:11:58.46	235.16	8.27	-49.9	-58.2	4.1	8.40e-01	0	43	0	0	70	9189
2026-01-13 16:11:59.46	235.30	8.31	-50.0	-58.9	4.0	8.46e-01	0	43	104	0	70	9945
2026-01-13 16:12:00.45	235.43	8.36	-50.2	-60.5	3.8	8.46e-01	0	43	104	0	70	11988
2026-01-13 16:12:01.44	235.57	8.41	-50.2	-60.7	3.8	8.47e-01	0	43	104	0	70	12360
2026-01-13 16:12:02.44	235.70	8.46	-49.5	-56.3	4.6	8.41e-01	0	43	0	0	69	7884
2026-01-13 16:12:03.43	235.84	8.51	-47.8	-51.7	8.1	1.11e-01	0	43	0	4194304	66	5513
2026-01-13 16:12:04.42	235.97	8.56	-46.2	-48.8	11.2	4.30e-03	0	43	0	11534336	63	4680
2026-01-13 16:12:05.42	236.11	8.61	-44.6	-46.5	13.6	1.48e-05	0	43	0	18874368	60	4259
2026-01-13 16:12:06.41	236.25	8.66	-43.4	-44.9	15.0	0.00e+00	0	43	0	25165824	57	4234
2026-01-13 16:12:07.40	236.39	8.71	-42.7	-44.2	15.8	0.00e+00	0	43	0	32505856	56	4104
2026-01-13 16:12:08.40	236.52	8.76	-42.2	-43.6	16.3	0.00e+00	0	43	0	39845888	55	4063
2026-01-13 16:12:09.39	236.66	8.81	-42.2	-43.6	16.2	0.00e+00	0	43	0	47185920	55	4079
2026-01-13 16:12:10.38	236.80	8.85	-42.6	-44.0	15.8	0.00e+00	0	43	0	54525952	55	4273
2026-01-13 16:12:11.38	236.94	8.90	-43.2	-44.7	15.1	0.00e+00	0	44	0	61865984	55	4648
2026-01-13 16:12:12.37	237.08	8.95	-44.2	-46.0	14.0	1.10e-06	0	43	0	68157440	57	4790
2026-01-13 16:12:13.36	237.22	9.00	-45.1	-47.1	12.9	2.74e-05	0	43	0	75497472	59	4834
2026-01-13 16:12:14.36	237.36	9.05	-45.9	-48.3	11.8	3.41e-04	0	43	0	82837504	61	4962
2026-01-13 16:12:15.35	237.50	9.10	-46.0	-48.4	11.6	2.12e-03	0	43	0	90177536	62	4752
2026-01-13 16:12:16.35	237.65	9.15	-45.7	-48.0	12.0	6.98e-04	0	43	0	97517568	62	4513
2026-01-13 16:12:17.42	237.80	9.20	-45.7	-48.1	11.9	2.17e-02	0	43	0	104857600	62	4578
2026-01-13 16:12:18.31	237.93	9.24	-44.0	-45.8	14.2	0.00e+00	0	43	0	111149056	57	4675
2026-01-13 16:12:19.45	238.09	9.30	-46.2	-48.8	11.1	9.17e-03	0	44	0	119537664	63	4681
2026-01-13 16:12:20.30	238.21	9.34	-43.3	-44.9	15.1	0.00e+00	0	44	0	125829120	57	4222
2026-01-13 16:12:21.44	238.38	9.39	-42.7	-44.2	15.8	0.00e+00	0	43	0	134217728	56	4121
2026-01-13 16:12:22.29	238.50	9.43	-42.1	-43.6	16.3	0.00e+00	0	43	0	140509184	54	4303
2026-01-13 16:12:23.42	238.67	9.49	-42.3	-43.8	16.1	0.00e+00	0	43	0	147849216	54	4409
2026-01-13 16:12:24.28	238.79	9.53	-42.1	-43.6	16.3	0.00e+00	0	44	0	154140672	54	4299
2026-01-13 16:12:25.42	238.96	9.59	-42.0	-43.4	16.5	0.00e+00	0	44	0	162529280	54	4217
2026-01-13 16:12:26.27	239.09	9.63	-42.2	-43.5	16.4	0.00e+00	0	43	0	168820736	54	4270
2026-01-13 16:12:27.41	239.25	9.68	-42.2	-43.5	16.4	0.00e+00	0	44	0	177209344	54	4281
2026-01-13 16:12:28.26	239.38	9.72	-41.9	-43.2	16.7	0.00e+00	0	43	0	183500800	54	4145
2026-01-13 16:12:29.40	239.55	9.78	-41.8	-43.1	16.8	0.00e+00	0	44	0	190840832	54	4078
2026-01-13 16:12:30.25	239.68	9.82	-41.8	-43.1	16.8	0.00e+00	0	43	0	197132288	54	4082
2026-01-13 16:12:31.39	239.85	9.87	-41.8	-43.1	16.8	0.00e+00	0	44	0	205520896	54	4082
2026-01-13 16:12:32.24	239.97	9.91	-41.6	-42.9	17.1	0.00e+00	0	43	0	211812352	54	3959
2026-01-13 16:12:33.38	240.15	9.97	-41.7	-43.0	17.0	0.00e+00	0	43	0	220200960	54	4005
2026-01-13 16:12:34.23	240.27	10.01	-41.6	-42.9	17.1	0.00e+00	0	44	0	226492416	54	3970
2026-01-13 16:12:35.57	240.48	10.07	-41.7	-43.0	17.0	0.00e+00	0	43	0	235929600	54	4009
2026-01-13 16:12:36.28	240.59	10.10	-41.7	-42.9	17.0	0.00e+00	0	44	0	241172480	54	3996
2026-01-13 16:12:37.56	240.78	10.16	-41.7	-43.0	16.9	0.00e+00	0	44	0	250609664	54	4028
2026-01-13 16:12:38.28	240.89	10.20	-41.6	-42.9	17.0	0.00e+00	0	44	0	255852544	54	3988
2026-01-13 16:12:39.55	241.09	10.26	-41.7	-43.0	17.0	0.00e+00	0	44	0	264241152	54	4029
2026-01-13 16:12:40.26	241.20	10.29	-41.8	-43.1	16.9	0.00e+00	0	44	0	269484032	54	4058
2026-01-13 16:12:41.54	241.39	10.35	-41.7	-43.0	16.9	0.00e+00	0	44	0	278921216	54	4041
2026-01-13 16:12:42.25	241.50	10.39	-41.7	-43.0	16.9	0.00e+00	0	44	0	284164096	54	4035
2026-01-13 16:12:43.53	241.70	10.45	-41.7	-43.0	17.0	0.00e+00	0	44	0	293601280	54	4017
2026-01-13 16:12:44.26	241.82	10.48	-41.8	-43.1	16.9	0.00e+00	0	44	0	298844160	54	4061
2026-01-13 16:12:45.54	242.02	10.54	-41.6	-42.9	17.0	0.00e+00	0	44	0	308281344	53	4235
2026-01-13 16:12:46.26	242.13	10.57	-41.6	-43.0	17.0	0.00e+00	0	44	0	312475648	53	4245
2026-01-13 16:12:47.54	242.33	10.63	-41.5	-42.9	17.1	0.00e+00	0	44	0	321912832	53	4207
2026-01-13 16:12:48.26	242.44	10.66	-41.5	-42.8	17.1	0.00e+00	0	44	0	328204288	53	4187
2026-01-13 16:12:49.58	242.65	10.73	-41.5	-42.8	17.2	0.00e+00	0	44	0	337641472	53	4148
2026-01-13 16:12:50.60	242.82	10.77	-41.5	-42.8	17.2	0.00e+00	0	44	0	343932928	53	4161
2026-01-13 16:12:51.60	242.97	10.82	-41.6	-42.8	17.1	0.00e+00	0	44	0	351272960	53	4189
2026-01-13 16:12:52.92	243.19	10.88	-41.6	-42.9	17.1	0.00e+00	0	44	0	361758720	53	4218
2026-01-13 16:12:53.66	243.30	10.91	-41.7	-42.9	17.1	0.00e+00	0	44	0	365953024	53	4214
2026-01-13 16:12:55.26	243.56	10.99	-41.5	-42.7	17.2	0.00e+00	0	44	0	377487360	53	4132
2026-01-13 16:12:56.11	243.70	11.02	-41.4	-42.7	17.3	0.00e+00	0	43	0	384827392	53	4106
2026-01-13 16:12:57.25	243.88	11.08	-41.4	-42.6	17.3	0.00e+00	0	44	0	392167424	53	4095
2026-01-13 16:12:58.11	244.02	11.11	-41.4	-42.6	17.4	0.00e+00	0	44	0	398458880	53	4062
2026-01-13 16:12:59.24	244.21	11.16	-41.2	-42.4	17.5	0.00e+00	0	44	0	406847488	53	4001
2026-01-13 16:13:00.10	244.35	11.20	-41.2	-42.5	17.5	0.00e+00	0	43	0	413138944	53	4005
2026-01-13 16:13:01.24	244.54	11.25	-41.2	-42.4	17.5	0.00e+00	0	44	0	421527552	53	3986
2026-01-13 16:13:02.09	244.68	11.29	-41.2	-42.4	17.5	0.00e+00	0	44	0	427819008	53	3985
2026-01-13 16:13:03.23	244.86	11.34	-41.2	-42.4	17.5	0.00e+00	0	44	0	435159040	53	3990
2026-01-13 16:13:04.08	245.00	11.38	-41.3	-42.4	17.5	0.00e+00	0	44	0	441450496	53	4004
2026-01-13 16:13:05.47	245.23	11.44	-41.2	-42.4	17.6	0.00e+00	0	44	0	451936256	53	3964
2026-01-13 16:13:06.18	245.35	11.47	-41.3	-42.5	17.5	0.00e+00	0	44	0	457179136	53	4037
2026-01-13 16:13:07.66	245.60	11.54	-41.1	-42.3	17.7	0.00e+00	0	44	0	467664896	53	3944
2026-01-13 16:13:08.37	245.72	11.57	-41.2	-42.5	17.5	0.00e+00	0	44	0	472907776	53	4014
2026-01-13 16:13:09.71	245.94	11.63	-41.2	-42.4	17.6	0.00e+00	0	44	0	482344960	53	3983
2026-01-13 16:13:10.42	246.06	11.66	-41.0	-42.3	17.7	0.00e+00	0	44	0	487587840	52	4154
2026-01-13 16:13:11.77	246.29	11.72	-40.9	-42.1	17.8	0.00e+00	0	44	0	497025024	52	4090
2026-01-13 16:13:12.48	246.41	11.75	-41.0	-42.2	17.8	0.00e+00	0	44	0	502267904	52	4102
2026-01-13 16:13:13.82	246.64	11.81	-41.0	-42.2	17.8	0.00e+00	0	43	0	511705088	52	4131
2026-01-13 16:13:14.53	246.76	11.84	-41.1	-42.3	17.8	0.00e+00	0	44	0	516947968	52	4149
2026-01-13 16:13:15.81	246.98	11.89	-41.0	-42.2	17.8	0.00e+00	0	44	0	526385152	52	4130
2026-01-13 16:13:16.54	247.11	11.92	-41.2	-42.4	17.6	0.00e+00	0	44	0	531628032	52	4209
2026-01-13 16:13:17.81	247.32	11.97	-41.2	-42.4	17.6	0.00e+00	0	44	0	541065216	52	4215
2026-01-13 16:13:18.54	247.45	12.01	-41.1	-42.4	17.6	0.00e+00	0	44	0	546308096	52	4197
2026-01-13 16:13:19.82	247.67	12.06	-41.1	-42.3	17.7	0.00e+00	0	44	0	555745280	52	4160
2026-01-13 16:13:20.54	247.80	12.09	-41.1	-42.3	17.7	0.00e+00	0	44	0	560988160	52	4149
2026-01-13 16:13:21.82	248.02	12.14	-40.9	-42.1	17.9	0.00e+00	0	44	0	570425344	52	4062
2026-01-13 16:13:22.55	248.15	12.17	-40.9	-42.1	17.9	0.00e+00	0	44	0	574619648	52	4066
2026-01-13 16:13:23.83	248.37	12.23	-40.9	-42.1	17.9	0.00e+00	0	44	0	584056832	52	4077
2026-01-13 16:13:24.57	248.50	12.26	-41.0	-42.1	17.9	0.00e+00	0	44	0	589299712	52	4083
2026-01-13 16:13:25.85	248.72	12.31	-41.0	-42.2	17.8	0.00e+00	0	44	0	598736896	52	4114
2026-01-13 16:13:26.56	248.85	12.34	-41.0	-42.2	17.8	0.00e+00	0	44	0	603979776	52	4120
2026-01-13 16:13:27.84	249.08	12.39	-40.9	-42.1	17.9	0.00e+00	0	44	0	613416960	52	4072
2026-01-13 16:13:28.57	249.21	12.42	-41.0	-42.1	17.9	0.00e+00	0	44	0	618659840	52	4090
2026-01-13 16:13:29.85	249.43	12.47	-40.9	-42.0	18.0	0.00e+00	0	44	0	628097024	52	4043
2026-01-13 16:13:30.59	249.56	12.50	-40.8	-41.9	18.1	0.00e+00	0	44	0	633339904	52	3995
2026-01-13 16:13:31.87	249.79	12.55	-40.7	-41.9	18.2	0.00e+00	0	44	0	642777088	52	3964
2026-01-13 16:13:32.58	249.92	12.58	-40.7	-41.9	18.1	0.00e+00	0	44	0	648019968	52	3975
2026-01-13 16:13:33.86	250.15	12.63	-40.7	-41.9	18.1	0.00e+00	0	44	0	656408576	52	3976
2026-01-13 16:13:34.58	250.28	12.66	-40.8	-41.9	18.1	0.00e+00	0	44	0	661651456	52	3995
2026-01-13 16:13:35.86	250.51	12.71	-40.6	-41.8	18.2	0.00e+00	0	44	0	671088640	52	3925
2026-01-13 16:13:36.58	250.64	12.74	-40.6	-41.8	18.3	0.00e+00	0	44	0	676331520	52	3914
2026-01-13 16:13:37.86	250.87	12.79	-40.7	-41.8	18.1	0.00e+00	0	44	0	685768704	52	3958
2026-01-13 16:13:38.58	251.00	12.82	-40.7	-41.8	18.2	0.00e+00	0	44	0	691011584	52	3946
2026-01-13 16:13:39.86	251.24	12.86	-40.6	-41.7	18.3	0.00e+00	0	44	0	700448768	52	3882
2026-01-13 16:13:40.59	251.37	12.89	-40.7	-41.8	18.3	0.00e+00	0	44	0	705691648	51	4158
2026-01-13 16:13:41.87	251.61	12.94	-40.7	-41.8	18.2	0.00e+00	0	44	0	715128832	51	4189
2026-01-13 16:13:42.58	251.74	12.97	-40.8	-41.9	18.2	0.00e+00	0	44	0	719323136	51	4216
2026-01-13 16:13:44.23	252.04	13.03	-40.8	-42.0	18.2	0.00e+00	0	44	0	731906048	51	4248
2026-01-13 16:13:44.79	252.14	13.05	-40.8	-41.9	18.2	0.00e+00	0	44	0	736100352	51	4204
2026-01-13 16:13:46.50	252.46	13.11	-40.8	-41.9	18.2	0.00e+00	0	44	0	747634688	51	4202
2026-01-13 16:13:47.07	252.57	13.13	-40.8	-41.9	18.2	0.00e+00	0	44	0	751828992	51	4210
2026-01-13 16:13:48.78	252.89	13.20	-40.9	-42.0	18.1	0.00e+00	0	44	0	764411904	51	4260
2026-01-13 16:13:49.34	252.99	13.22	-40.9	-42.0	18.1	0.00e+00	0	44	0	768606208	51	4280
2026-01-13 16:13:51.05	253.31	13.28	-40.8	-42.0	18.2	0.00e+00	0	44	0	781189120	51	4250
2026-01-13 16:13:51.61	253.42	13.30	-40.9	-42.1	18.1	0.00e+00	0	44	0	784334848	51	4302
2026-01-13 16:13:53.32	253.74	13.36	-41.0	-42.1	18.0	0.00e+00	0	44	0	796917760	51	4338
2026-01-13 16:13:53.89	253.84	13.38	-40.9	-42.1	18.1	0.00e+00	0	44	0	801112064	51	4300
2026-01-13 16:13:55.59	254.17	13.44	-40.7	-41.9	18.2	0.00e+00	0	44	0	813694976	51	4209
2026-01-13 16:13:56.17	254.28	13.46	-40.7	-41.9	18.3	0.00e+00	0	44	0	817889280	51	4213
2026-01-13 16:13:57.87	254.60	13.52	-40.7	-41.9	18.2	0.00e+00	0	44	0	830472192	51	4211
2026-01-13 16:13:58.44	254.71	13.54	-40.7	-41.9	18.2	0.00e+00	0	44	0	833617920	51	4195
2026-01-13 16:14:00.14	255.03	13.59	-40.8	-42.0	18.1	0.00e+00	0	44	0	846200832	51	4267
2026-01-13 16:14:00.71	255.14	13.61	-40.9	-42.0	18.1	0.00e+00	0	44	0	850395136	51	4289
2026-01-13 16:14:02.64	255.51	13.68	-40.8	-41.9	18.2	0.00e+00	0	44	0	864026624	51	4238
2026-01-13 16:14:03.21	255.62	13.70	-40.9	-42.1	18.0	0.00e+00	0	44	0	868220928	51	4304
2026-01-13 16:14:05.21	256.01	13.76	-40.7	-41.8	18.3	0.00e+00	0	44	0	882900992	51	4191
2026-01-13 16:14:05.78	256.12	13.78	-40.6	-41.7	18.5	0.00e+00	0	44	0	887095296	51	4103
2026-01-13 16:14:07.48	256.45	13.83	-40.6	-41.7	18.4	0.00e+00	0	44	0	899678208	51	4131
2026-01-13 16:14:08.05	256.56	13.85	-40.6	-41.7	18.4	0.00e+00	0	44	0	903872512	51	4105
2026-01-13 16:14:09.75	256.89	13.91	-40.7	-41.8	18.3	0.00e+00	0	44	0	915406848	51	4160
2026-01-13 16:14:10.32	257.01	13.92	-40.6	-41.7	18.4	0.00e+00	0	44	0	919601152	51	4117
2026-01-13 16:14:12.03	257.34	13.98	-40.7	-41.8	18.3	0.00e+00	0	44	0	932184064	51	4186
2026-01-13 16:14:12.60	257.45	13.99	-40.7	-41.8	18.3	0.00e+00	0	44	0	936378368	51	4164
2026-01-13 16:14:14.30	257.79	14.05	-40.6	-41.8	18.4	0.00e+00	0	44	0	948961280	51	4148
2026-01-13 16:14:14.90	257.91	14.06	-40.6	-41.8	18.3	0.00e+00	0	44	0	953155584	51	4150
2026-01-13 16:14:16.47	258.22	14.11	-40.5	-41.6	18.5	0.00e+00	0	44	0	964689920	51	4057
2026-01-13 16:14:17.11	258.34	14.13	-40.5	-41.7	18.5	0.00e+00	0	44	0	968884224	51	4099
2026-01-13 16:14:18.53	258.63	14.17	-40.5	-41.6	18.6	0.00e+00	0	44	0	979369984	51	4059
2026-01-13 16:14:19.24	258.77	14.19	-40.5	-41.6	18.5	0.00e+00	0	44	0	984612864	51	4086
2026-01-13 16:14:20.76	259.07	14.23	-40.6	-41.7	18.4	0.00e+00	0	44	0	995098624	51	4127
2026-01-13 16:14:21.47	259.21	14.25	-40.5	-41.6	18.6	0.00e+00	0	44	0	1000341504	51	4070
2026-01-13 16:14:22.75	259.47	14.29	-40.4	-41.5	18.6	0.00e+00	0	44	0	1009778688	51	4038
2026-01-13 16:14:23.46	259.61	14.31	-40.6	-41.7	18.5	0.00e+00	0	44	0	1015021568	51	4106
2026-01-13 16:14:24.74	259.87	14.34	-40.6	-41.8	18.4	0.00e+00	0	44	0	1024458752	51	4146
2026-01-13 16:14:25.45	260.01	14.36	-40.7	-41.8	18.3	0.00e+00	0	44	0	1028653056	51	4188
2026-01-13 16:14:26.73	260.27	14.40	-40.8	-41.9	18.2	0.00e+00	0	44	0	1038090240	51	4233
2026-01-13 16:14:27.45	260.41	14.41	-40.8	-42.0	18.2	0.00e+00	0	44	0	1043333120	51	4256
2026-01-13 16:14:28.73	260.67	14.45	-40.7	-41.8	18.3	0.00e+00	0	44	0	1052770304	51	4180
2026-01-13 16:14:29.47	260.82	14.47	-40.6	-41.7	18.4	0.00e+00	0	44	0	1058013184	51	4116
2026-01-13 16:14:30.75	261.08	14.50	-40.8	-42.0	18.2	0.00e+00	0	44	0	1067450368	51	4248
2026-01-13 16:14:31.47	261.23	14.52	-40.6	-41.7	18.4	0.00e+00	0	44	0	1072693248	51	4138
2026-01-13 16:14:32.75	261.49	14.55	-40.7	-41.8	18.3	0.00e+00	0	44	0	1082130432	51	4152
2026-01-13 16:14:33.48	261.64	14.57	-40.5	-41.5	18.6	0.00e+00	0	44	0	1087373312	51	4044
2026-01-13 16:14:34.76	261.90	14.60	-40.4	-41.4	18.7	0.00e+00	0	44	0	1095761920	51	4003
2026-01-13 16:14:35.59	262.07	14.62	-40.4	-41.4	18.7	0.00e+00	0	44	0	1102053376	51	3999
2026-01-13 16:14:37.00	262.36	14.65	-40.5	-41.6	18.6	0.00e+00	0	44	0	1112539136	51	4061
2026-01-13 16:14:37.71	262.51	14.67	-40.4	-41.5	18.6	0.00e+00	0	44	0	1117782016	51	4027
2026-01-13 16:14:39.21	262.81	14.70	-40.4	-41.6	18.6	0.00e+00	0	44	0	1128267776	51	4058
2026-01-13 16:14:39.92	262.96	14.72	-40.5	-41.6	18.6	0.00e+00	0	44	0	1133510656	51	4063
2026-01-13 16:14:41.20	263.22	14.74	-40.5	-41.6	18.5	0.00e+00	0	44	0	1142947840	51	4068
2026-01-13 16:14:41.93	263.38	14.76	-40.5	-41.6	18.5	0.00e+00	0	44	0	1148190720	51	4058
2026-01-13 16:14:43.21	263.64	14.79	-40.5	-41.6	18.5	0.00e+00	0	44	0	1157627904	51	4076
2026-01-13 16:14:43.93	263.79	14.80	-40.5	-41.6	18.5	0.00e+00	0	44	0	1162870784	51	4092
2026-01-13 16:14:45.21	264.05	14.83	-40.5	-41.6	18.5	0.00e+00	0	44	0	1171259392	51	4076
2026-01-13 16:14:45.94	264.21	14.84	-40.5	-41.5	18.6	0.00e+00	0	44	0	1176502272	51	4048
2026-01-13 16:14:47.21	264.47	14.87	-40.5	-41.6	18.5	0.00e+00	0	44	0	1185939456	51	4077
2026-01-13 16:14:47.95	264.62	14.88	-40.3	-41.4	18.7	0.00e+00	0	44	0	1191182336	51	3977
2026-01-13 16:14:49.23	264.89	14.91	-40.3	-41.4	18.7	0.00e+00	0	44	0	1200619520	51	3974
2026-01-13 16:14:49.96	265.04	14.92	-40.4	-41.5	18.6	0.00e+00	0	44	0	1205862400	51	4036
2026-01-13 16:14:51.23	265.31	14.95	-41.8	-43.1	17.2	0.00e+00	0	44	0	1215299584	52	4555
2026-01-13 16:14:51.96	265.46	14.96	-40.7	-41.8	18.5	0.00e+00	0	44	0	1220542464	51	4193
2026-01-13 16:14:53.24	265.73	14.98	-40.4	-41.5	18.7	0.00e+00	0	44	0	1229979648	51	4020
2026-01-13 16:14:54.07	265.90	15.00	-40.5	-41.5	18.6	0.00e+00	0	44	0	1236271104	51	4048
2026-01-13 16:14:55.53	266.21	15.02	-40.3	-41.3	18.8	0.00e+00	0	44	0	1246756864	51	3946
2026-01-13 16:14:56.24	266.36	15.03	-40.2	-41.3	18.8	0.00e+00	0	44	0	1250951168	51	3934
2026-01-13 16:14:57.70	266.67	15.06	-40.2	-41.3	18.8	0.00e+00	0	44	0	1261436928	51	3936
2026-01-13 16:14:58.41	266.82	15.07	-40.2	-41.3	18.8	0.00e+00	0	44	0	1266679808	51	3932
2026-01-13 16:14:59.69	267.09	15.09	-40.2	-41.3	18.8	0.00e+00	0	44	0	1276116992	51	3936
2026-01-13 16:15:00.42	267.24	15.10	-40.2	-41.3	18.8	0.00e+00	0	44	0	1281359872	51	3926
2026-01-13 16:15:01.70	267.51	15.12	-40.3	-41.3	18.8	0.00e+00	0	44	0	1290797056	51	3953
2026-01-13 16:15:02.42	267.66	15.13	-40.3	-41.3	18.8	0.00e+00	0	44	0	1296039936	51	3953
2026-01-13 16:15:03.70	267.94	15.15	-40.4	-41.5	18.6	0.00e+00	0	44	0	1305477120	51	4018
2026-01-13 16:15:04.41	268.09	15.16	-40.4	-41.5	18.6	0.00e+00	0	44	0	1310720000	51	4019
2026-01-13 16:15:05.69	268.36	15.18	-40.3	-41.4	18.7	0.00e+00	0	44	0	1319108608	51	3993
2026-01-13 16:15:06.46	268.52	15.19	-40.2	-41.2	18.9	0.00e+00	0	44	0	1325400064	51	3908
2026-01-13 16:15:07.74	268.79	15.20	-40.3	-41.4	18.7	0.00e+00	0	44	0	1334837248	51	3999
2026-01-13 16:15:08.47	268.95	15.21	-40.3	-41.4	18.7	0.00e+00	0	44	0	1340080128	51	3974
2026-01-13 16:15:09.75	269.22	15.23	-40.3	-41.4	18.7	0.00e+00	0	44	0	1348468736	51	3967
2026-01-13 16:15:10.59	269.40	15.24	-40.3	-41.4	18.8	0.00e+00	0	44	0	1354760192	51	3968
2026-01-13 16:15:11.73	269.64	15.25	-40.3	-41.4	18.7	0.00e+00	0	44	0	1363148800	51	3991
2026-01-13 16:15:12.78	269.87	15.26	-40.4	-41.5	18.6	0.00e+00	0	44	0	1370488832	51	4038
2026-01-13 16:15:13.85	270.10	15.27	-40.5	-41.6	18.5	0.00e+00	0	44	0	1378877440	51	4080
2026-01-13 16:15:14.71	270.28	15.28	-40.5	-41.6	18.6	0.00e+00	0	44	0	1384120320	51	4072
2026-01-13 16:15:15.84	270.52	15.29	-40.6	-41.7	18.5	0.00e+00	0	44	0	1392508928	51	4104
2026-01-13 16:15:16.70	270.70	15.30	-40.5	-41.6	18.6	0.00e+00	0	44	0	1398800384	51	4075
2026-01-13 16:15:17.83	270.95	15.31	-40.5	-41.6	18.5	0.00e+00	0	44	0	1407188992	51	4088
2026-01-13 16:15:18.68	271.13	15.32	-40.5	-41.6	18.6	0.00e+00	0	44	0	1413480448	51	4073
2026-01-13 16:15:19.82	271.37	15.33	-40.4	-41.4	18.7	0.00e+00	0	44	0	1421869056	51	3993
2026-01-13 16:15:20.68	271.56	15.34	-40.2	-41.3	18.8	0.00e+00	0	44	0	1428160512	51	3932
2026-01-13 16:15:21.81	271.80	15.34	-40.3	-41.3	18.8	0.00e+00	0	44	0	1435500544	51	3954
2026-01-13 16:15:22.66	271.98	15.35	-40.2	-41.2	18.9	0.00e+00	0	44	0	1441792000	51	3897
2026-01-13 16:15:23.80	272.23	15.36	-40.3	-41.3	18.8	0.00e+00	0	44	0	1450180608	51	3938
2026-01-13 16:15:24.65	272.41	15.36	-40.1	-41.2	18.9	0.00e+00	0	44	0	1456472064	51	3886
2026-01-13 16:15:25.79	272.65	15.37	-40.3	-41.4	18.8	0.00e+00	0	44	0	1464860672	51	3963
2026-01-13 16:15:26.69	272.85	15.38	-40.3	-41.4	18.8	0.00e+00	0	44	0	1471152128	51	3969
2026-01-13 16:15:27.97	273.12	15.38	-40.3	-41.4	18.7	0.00e+00	0	44	0	1480589312	51	3977
2026-01-13 16:15:28.69	273.28	15.39	-40.3	-41.4	18.8	0.00e+00	0	44	0	1485832192	51	3970
2026-01-13 16:15:29.97	273.55	15.39	-40.4	-41.5	18.7	0.00e+00	0	44	0	1495269376	51	4006
2026-01-13 16:15:30.70	273.71	15.40	-40.3	-41.4	18.8	0.00e+00	0	44	0	1500512256	51	3971
2026-01-13 16:15:32.26	274.05	15.40	-40.3	-41.3	18.8	0.00e+00	0	44	0	1512046592	51	3954
2026-01-13 16:15:32.92	274.19	15.40	-40.3	-41.4	18.8	0.00e+00	0	44	0	1516240896	51	3961
2026-01-13 16:15:34.42	274.51	15.41	-40.3	-41.4	18.7	0.00e+00	0	44	0	1526726656	51	3989
2026-01-13 16:15:35.13	274.66	15.41	-40.3	-41.3	18.8	0.00e+00	0	44	0	1531969536	51	3945
2026-01-13 16:15:36.41	274.94	15.41	-40.4	-41.5	18.7	0.00e+00	0	44	0	1541406720	51	4012
2026-01-13 16:15:37.15	275.10	15.41	-40.3	-41.3	18.8	0.00e+00	0	44	0	1546649600	51	3957
2026-01-13 16:15:38.43	275.38	15.42	-40.3	-41.4	18.8	0.00e+00	0	44	0	1556086784	51	3963
2026-01-13 16:15:39.19	275.54	15.42	-40.3	-41.4	18.7	0.00e+00	0	44	0	1561329664	51	3987
2026-01-13 16:15:40.47	275.81	15.42	-40.4	-41.4	18.7	0.00e+00	0	44	0	1570766848	51	3998
2026-01-13 16:15:41.19	275.97	15.42	-40.4	-41.4	18.7	0.00e+00	0	44	0	1576009728	51	4002
2026-01-13 16:15:42.47	276.25	15.42	-40.5	-41.6	18.5	0.00e+00	0	44	0	1585446912	51	4089
2026-01-13 16:15:43.18	276.40	15.42	-40.5	-41.6	18.5	0.00e+00	0	44	0	1590689792	51	4070
2026-01-13 16:15:44.46	276.67	15.42	-40.5	-41.6	18.6	0.00e+00	0	44	0	1600126976	51	4056
2026-01-13 16:15:45.19	276.83	15.41	-40.4	-41.5	18.7	0.00e+00	0	44	0	1604321280	51	4013
2026-01-13 16:15:46.59	277.13	15.41	-40.3	-41.4	18.7	0.00e+00	0	44	0	1614807040	51	3985
2026-01-13 16:15:47.30	277.29	15.41	-40.4	-41.5	18.7	0.00e+00	0	44	0	1620049920	51	4008
2026-01-13 16:15:48.68	277.58	15.41	-40.3	-41.4	18.8	0.00e+00	0	44	0	1629487104	51	3968
2026-01-13 16:15:49.67	277.80	15.40	-40.3	-41.4	18.8	0.00e+00	0	44	0	1636827136	51	3962
2026-01-13 16:15:50.67	278.01	15.40	-40.3	-41.3	18.8	0.00e+00	0	44	0	1644167168	51	3954
2026-01-13 16:15:51.67	278.23	15.40	-40.3	-41.4	18.8	0.00e+00	0	44	0	1651507200	51	3971
2026-01-13 16:15:52.66	278.44	15.39	-40.3	-41.4	18.7	0.00e+00	0	44	0	1658847232	51	3992
2026-01-13 16:15:53.66	278.66	15.39	-40.5	-41.6	18.5	0.00e+00	0	44	0	1666187264	51	4057
2026-01-13 16:15:54.65	278.87	15.38	-40.3	-41.4	18.7	0.00e+00	0	44	0	1672478720	51	3981
2026-01-13 16:15:55.65	279.08	15.38	-40.4	-41.5	18.7	0.00e+00	0	44	0	1679818752	51	4007
2026-01-13 16:15:56.64	279.30	15.37	-40.4	-41.5	18.6	0.00e+00	0	44	0	1687158784	51	4034
2026-01-13 16:15:57.63	279.51	15.37	-40.3	-41.4	18.8	0.00e+00	0	44	0	1694498816	51	3972
2026-01-13 16:15:58.63	279.72	15.36	-40.4	-41.5	18.6	0.00e+00	0	44	0	1701838848	51	4033
2026-01-13 16:15:59.73	279.96	15.35	-40.4	-41.5	18.6	0.00e+00	0	44	0	1710227456	51	4032
2026-01-13 16:16:00.62	280.15	15.35	-40.5	-41.6	18.6	0.00e+00	0	44	0	1716518912	51	4053
2026-01-13 16:16:01.93	280.43	15.34	-40.5	-41.6	18.6	0.00e+00	0	44	0	1725956096	51	4067
2026-01-13 16:16:02.64	280.58	15.33	-40.5	-41.6	18.6	0.00e+00	0	44	0	1731198976	51	4064
2026-01-13 16:16:04.12	280.90	15.32	-40.5	-41.6	18.5	0.00e+00	0	44	0	1741684736	51	4076
2026-01-13 16:16:04.83	281.05	15.31	-40.4	-41.5	18.6	0.00e+00	0	44	0	1746927616	51	4041
2026-01-13 16:16:06.11	281.33	15.30	-40.5	-41.5	18.6	0.00e+00	0	44	0	1755316224	51	4048
2026-01-13 16:16:07.17	281.55	15.29	-40.5	-41.6	18.5	0.00e+00	0	44	0	1763704832	51	4076
2026-01-13 16:16:08.34	281.80	15.28	-40.5	-41.6	18.5	0.00e+00	0	44	0	1772093440	51	4087
2026-01-13 16:16:09.35	282.02	15.27	-40.6	-41.7	18.4	0.00e+00	0	44	0	1779433472	51	4123
2026-01-13 16:16:10.34	282.23	15.26	-40.5	-41.6	18.5	0.00e+00	0	44	0	1786773504	51	4080
2026-01-13 16:16:11.54	282.48	15.25	-40.4	-41.5	18.7	0.00e+00	0	44	0	1795162112	51	4021
2026-01-13 16:16:12.40	282.67	15.24	-40.4	-41.5	18.6	0.00e+00	0	44	0	1801453568	51	4036
2026-01-13 16:16:13.53	282.91	15.22	-40.4	-41.5	18.7	0.00e+00	0	44	0	1809842176	51	4018
2026-01-13 16:16:14.39	283.09	15.21	-40.4	-41.5	18.7	0.00e+00	0	44	0	1815085056	51	4014
2026-01-13 16:16:15.53	283.33	15.20	-40.4	-41.5	18.7	0.00e+00	0	44	0	1823473664	51	4012
2026-01-13 16:16:16.38	283.51	15.19	-40.3	-41.4	18.7	0.00e+00	0	44	0	1829765120	51	3987
2026-01-13 16:16:17.52	283.75	15.17	-40.4	-41.5	18.6	0.00e+00	0	44	0	1838153728	51	4020
2026-01-13 16:16:18.37	283.93	15.16	-40.4	-41.5	18.6	0.00e+00	0	44	0	1844445184	51	4031
2026-01-13 16:16:19.51	284.18	15.14	-40.5	-41.5	18.6	0.00e+00	0	44	0	1852833792	51	4044
2026-01-13 16:16:20.36	284.36	15.13	-40.5	-41.6	18.6	0.00e+00	0	44	0	1858076672	51	4066
2026-01-13 16:16:21.50	284.60	15.12	-40.5	-41.6	18.6	0.00e+00	0	44	0	1866465280	51	4067
2026-01-13 16:16:22.35	284.78	15.10	-40.5	-41.6	18.5	0.00e+00	0	44	0	1872756736	51	4089
2026-01-13 16:16:23.55	285.03	15.08	-40.6	-41.7	18.4	0.00e+00	0	44	0	1881145344	51	4132
2026-01-13 16:16:24.40	285.21	15.07	-40.7	-41.8	18.3	0.00e+00	0	44	0	1887436800	51	4162
2026-01-13 16:16:25.54	285.45	15.05	-40.8	-41.9	18.2	0.00e+00	0	44	0	1895825408	51	4216
2026-01-13 16:16:26.39	285.63	15.04	-40.5	-41.6	18.6	0.00e+00	0	44	0	1902116864	51	4057
2026-01-13 16:16:27.53	285.86	15.02	-40.6	-41.7	18.4	0.00e+00	0	44	0	1910505472	51	4120
2026-01-13 16:16:28.38	286.04	15.01	-40.6	-41.7	18.4	0.00e+00	0	44	0	1916796928	51	4121
2026-01-13 16:16:29.52	286.28	14.99	-40.5	-41.6	18.5	0.00e+00	0	44	0	1925185536	51	4088
2026-01-13 16:16:30.37	286.46	14.97	-40.5	-41.6	18.5	0.00e+00	0	44	0	1931476992	51	4070
2026-01-13 16:16:31.51	286.70	14.95	-40.5	-41.6	18.5	0.00e+00	0	44	0	1938817024	51	4069
2026-01-13 16:16:32.36	286.88	14.93	-40.5	-41.6	18.5	0.00e+00	0	44	0	1945108480	51	4093
2026-01-13 16:16:33.50	287.11	14.91	-40.5	-41.6	18.5	0.00e+00	0	44	0	1953497088	51	4078
2026-01-13 16:16:34.35	287.29	14.90	-40.6	-41.7	18.4	0.00e+00	0	44	0	1959788544	51	4127
2026-01-13 16:16:35.49	287.53	14.87	-40.6	-41.7	18.4	0.00e+00	0	44	0	1968177152	51	4108
2026-01-13 16:16:36.34	287.70	14.86	-40.6	-41.7	18.4	0.00e+00	0	44	0	1974468608	51	4143
2026-01-13 16:16:37.48	287.94	14.83	-40.7	-41.8	18.4	0.00e+00	0	44	0	1981808640	51	4166
2026-01-13 16:16:38.33	288.12	14.82	-40.7	-41.9	18.3	0.00e+00	0	44	0	1988100096	51	4196
2026-01-13 16:16:39.47	288.35	14.79	-40.8	-41.9	18.3	0.00e+00	0	44	0	1996488704	51	4206
2026-01-13 16:16:40.32	288.53	14.77	-40.8	-41.9	18.3	0.00e+00	0	44	0	2002780160	51	4227
2026-01-13 16:16:41.46	288.76	14.75	-40.8	-42.0	18.2	0.00e+00	0	44	0	2011168768	51	4264
2026-01-13 16:16:42.31	288.94	14.73	-40.9	-42.0	18.2	0.00e+00	0	44	0	2016411648	51	4258
2026-01-13 16:16:43.45	289.17	14.71	-41.0	-42.2	18.0	0.00e+00	0	44	0	2024800256	51	4356
2026-01-13 16:16:44.30	289.35	14.69	-40.9	-42.0	18.1	0.00e+00	0	44	0	2031091712	51	4265
2026-01-13 16:16:45.61	289.61	14.66	-40.8	-42.0	18.2	0.00e+00	0	44	0	2040528896	51	4247
2026-01-13 16:16:46.32	289.76	14.64	-40.8	-41.9	18.2	0.00e+00	0	44	0	2045771776	51	4224
2026-01-13 16:16:47.60	290.02	14.61	-40.8	-41.9	18.2	0.00e+00	0	44	0	2055208960	51	4217
2026-01-13 16:16:48.31	290.17	14.59	-40.8	-41.9	18.2	0.00e+00	0	44	0	2060451840	51	4223
2026-01-13 16:16:49.59	290.43	14.56	-40.7	-41.8	18.3	0.00e+00	0	44	0	2069889024	51	4166
2026-01-13 16:16:50.30	290.57	14.55	-40.7	-41.8	18.4	0.00e+00	0	44	0	2075131904	51	4147
2026-01-13 16:16:51.58	290.83	14.52	-40.7	-41.8	18.4	0.00e+00	0	44	0	2083520512	51	4155
2026-01-13 16:16:52.29	290.97	14.50	-40.8	-41.9	18.3	0.00e+00	0	44	0	2088763392	51	4206
2026-01-13 16:16:53.57	291.23	14.47	-40.8	-41.9	18.3	0.00e+00	0	44	0	2098200576	51	4196
2026-01-13 16:16:54.28	291.38	14.45	-40.9	-42.0	18.1	0.00e+00	0	44	0	2103443456	51	4265
2026-01-13 16:16:55.56	291.63	14.41	-41.0	-42.1	18.0	0.00e+00	0	44	0	2112880640	51	4312
2026-01-13 16:16:56.28	291.78	14.40	-40.9	-42.0	18.1	0.00e+00	0	44	0	2118123520	51	4290
2026-01-13 16:16:57.56	292.04	14.36	-41.0	-42.1	18.0	0.00e+00	0	44	0	2126512128	51	4327
2026-01-13 16:16:58.27	292.18	14.34	-41.0	-42.1	18.0	0.00e+00	0	44	0	2132803584	51	4309
2026-01-13 16:16:59.61	292.45	14.31	-41.0	-42.2	18.0	0.00e+00	0	44	0	2142240768	51	4347
2026-01-13 16:17:00.55	292.64	14.28	-40.9	-42.1	18.1	0.00e+00	0	44	0	2148532224	51	4296
2026-01-13 16:17:01.55	292.84	14.25	-40.9	-42.0	18.1	0.00e+00	0	44	0	2155872256	51	4264
2026-01-13 16:17:02.55	293.03	14.22	-40.8	-41.9	18.2	0.00e+00	0	44	0	2163212288	51	4233
2026-01-13 16:17:03.54	293.23	14.20	-40.9	-42.1	18.1	0.00e+00	0	44	0	2170552320	51	4299
2026-01-13 16:17:04.54	293.43	14.17	-40.9	-42.0	18.1	0.00e+00	0	44	0	2177892352	51	4291
2026-01-13 16:17:05.53	293.63	14.14	-41.0	-42.1	18.0	0.00e+00	0	44	0	2185232384	51	4313
2026-01-13 16:17:06.53	293.82	14.11	-40.9	-42.1	18.0	0.00e+00	0	44	0	2191523840	51	4305
2026-01-13 16:17:07.52	294.02	14.08	-41.0	-42.2	17.9	0.00e+00	0	44	0	2198863872	51	4364
2026-01-13 16:17:08.52	294.22	14.05	-41.1	-42.3	17.9	0.00e+00	0	44	0	2206203904	51	4401
2026-01-13 16:17:09.51	294.41	14.02	-41.3	-42.4	17.7	0.00e+00	0	44	0	2213543936	51	4491
2026-01-13 16:17:10.51	294.61	13.99	-41.2	-42.3	17.8	0.00e+00	0	44	0	2220883968	51	4440
2026-01-13 16:17:11.50	294.80	13.96	-41.3	-42.5	17.5	0.00e+00	0	44	0	2227175424	52	4266
2026-01-13 16:17:12.50	295.00	13.93	-41.2	-42.4	17.6	0.00e+00	0	44	0	2234515456	52	4227
2026-01-13 16:17:13.49	295.19	13.90	-41.2	-42.4	17.6	0.00e+00	0	44	0	2241855488	52	4220
2026-01-13 16:17:14.48	295.38	13.87	-41.3	-42.5	17.6	0.00e+00	0	44	0	2249195520	52	4250
2026-01-13 16:17:15.48	295.57	13.84	-41.2	-42.4	17.6	0.00e+00	0	44	0	2256535552	52	4223
2026-01-13 16:17:16.47	295.77	13.81	-41.3	-42.4	17.6	0.00e+00	0	44	0	2263875584	52	4242
2026-01-13 16:17:17.47	295.96	13.78	-41.3	-42.5	17.5	0.00e+00	0	44	0	2271215616	52	4267
2026-01-13 16:17:18.46	296.15	13.74	-41.4	-42.6	17.5	0.00e+00	0	44	0	2277507072	52	4322
2026-01-13 16:17:19.46	296.34	13.71	-41.2	-42.4	17.7	0.00e+00	0	44	0	2284847104	52	4203
2026-01-13 16:17:20.45	296.53	13.68	-41.0	-42.1	18.0	0.00e+00	0	44	0	2292187136	52	4067
2026-01-13 16:17:21.45	296.72	13.65	-41.0	-42.2	17.9	0.00e+00	0	44	0	2299527168	52	4101
2026-01-13 16:17:22.44	296.91	13.61	-40.9	-42.0	18.0	0.00e+00	0	44	0	2306867200	52	4045
2026-01-13 16:17:23.43	297.10	13.58	-40.9	-42.0	18.0	0.00e+00	0	44	0	2314207232	52	4031
2026-01-13 16:17:24.43	297.29	13.55	-40.9	-42.1	17.9	0.00e+00	0	44	0	2321547264	52	4059
2026-01-13 16:17:25.45	297.49	13.51	-41.0	-42.2	17.9	0.00e+00	0	44	0	2328887296	52	4099
2026-01-13 16:17:26.48	297.68	13.48	-41.1	-42.3	17.8	0.00e+00	0	44	0	2336227328	52	4152
2026-01-13 16:17:27.47	297.87	13.44	-41.2	-42.3	17.7	0.00e+00	0	44	0	2343567360	52	4185
2026-01-13 16:17:28.55	298.07	13.40	-41.2	-42.4	17.7	0.00e+00	0	44	0	2350907392	52	4197
2026-01-13 16:17:29.43	298.24	13.37	-41.2	-42.3	17.7	0.00e+00	0	44	0	2357198848	52	4178
2026-01-13 16:17:30.55	298.45	13.33	-41.2	-42.4	17.6	0.00e+00	0	44	0	2365587456	52	4216
2026-01-13 16:17:31.41	298.61	13.30	-41.3	-42.5	17.5	0.00e+00	0	44	0	2371878912	52	4250
2026-01-13 16:17:32.55	298.82	13.26	-41.3	-42.5	17.6	0.00e+00	0	44	0	2379218944	52	4243
2026-01-13 16:17:33.40	298.98	13.23	-41.3	-42.5	17.5	0.00e+00	0	44	0	2386558976	52	4264
2026-01-13 16:17:34.53	299.19	13.19	-41.4	-42.6	17.4	0.00e+00	0	44	0	2393899008	52	4308
2026-01-13 16:17:35.39	299.35	13.16	-41.4	-42.6	17.4	0.00e+00	0	44	0	2400190464	52	4333
2026-01-13 16:17:36.52	299.56	13.12	-41.4	-42.6	17.4	0.00e+00	0	44	0	2408579072	52	4302
2026-01-13 16:17:37.37	299.72	13.09	-41.3	-42.5	17.5	0.00e+00	0	44	0	2414870528	52	4281
2026-01-13 16:17:38.51	299.93	13.05	-41.4	-42.6	17.4	0.00e+00	0	44	0	2423259136	52	4340
2026-01-13 16:17:39.36	300.08	13.01	-41.4	-42.6	17.4	0.00e+00	0	44	0	2429550592	52	4316
2026-01-13 16:17:40.50	300.29	12.97	-41.4	-42.6	17.4	0.00e+00	0	44	0	2436890624	52	4305
2026-01-13 16:17:41.35	300.45	12.94	-41.5	-42.7	17.4	0.00e+00	0	44	0	2443182080	52	4348
2026-01-13 16:17:42.49	300.66	12.90	-41.5	-42.7	17.3	0.00e+00	0	44	0	2451570688	52	4378
2026-01-13 16:17:43.34	300.81	12.87	-41.5	-42.7	17.3	0.00e+00	0	44	0	2457862144	52	4350
2026-01-13 16:17:44.48	301.02	12.82	-41.6	-42.8	17.2	0.00e+00	0	44	0	2466250752	52	4418
2026-01-13 16:17:45.33	301.17	12.79	-41.5	-42.7	17.3	0.00e+00	0	44	0	2472542208	52	4375
2026-01-13 16:17:46.47	301.38	12.75	-41.4	-42.6	17.4	0.00e+00	0	44	0	2479882240	52	4304
2026-01-13 16:17:47.32	301.53	12.71	-41.4	-42.5	17.5	0.00e+00	0	44	0	2486173696	52	4287
2026-01-13 16:17:48.46	301.74	12.67	-41.4	-42.6	17.4	0.00e+00	0	44	0	2494562304	52	4322
2026-01-13 16:17:49.31	301.89	12.63	-41.3	-42.5	17.5	0.00e+00	0	44	0	2500853760	52	4268
2026-01-13 16:17:50.45	302.09	12.59	-41.4	-42.6	17.4	0.00e+00	0	44	0	2509242368	52	4299
2026-01-13 16:17:51.30	302.24	12.56	-41.3	-42.5	17.5	0.00e+00	0	44	0	2515533824	52	4247
2026-01-13 16:17:52.43	302.44	12.51	-41.2	-42.4	17.6	0.00e+00	0	44	0	2522873856	52	4228
2026-01-13 16:17:53.29	302.60	12.48	-41.3	-42.5	17.5	0.00e+00	0	44	0	2529165312	52	4277
2026-01-13 16:17:54.43	302.80	12.43	-41.2	-42.4	17.5	0.00e+00	0	44	0	2537553920	52	4227
2026-01-13 16:17:55.28	302.95	12.40	-41.3	-42.5	17.4	0.00e+00	0	44	0	2543845376	52	4289
2026-01-13 16:17:56.41	303.15	12.35	-41.3	-42.5	17.4	0.00e+00	0	44	0	2552233984	52	4282
2026-01-13 16:17:57.27	303.30	12.32	-41.5	-42.7	17.3	0.00e+00	0	44	0	2558525440	52	4372
2026-01-13 16:17:58.48	303.51	12.27	-41.4	-42.6	17.4	0.00e+00	0	44	0	2566914048	52	4302
2026-01-13 16:17:59.34	303.66	12.23	-41.4	-42.6	17.4	0.00e+00	0	44	0	2573205504	52	4334
2026-01-13 16:18:00.47	303.86	12.19	-41.5	-42.8	17.2	0.00e+00	0	44	0	2581594112	52	4416
2026-01-13 16:18:01.33	304.01	12.15	-41.4	-42.7	17.3	0.00e+00	0	44	0	2587885568	52	4361
2026-01-13 16:18:02.47	304.20	12.10	-41.4	-42.6	17.4	0.00e+00	0	44	0	2596274176	52	4324
2026-01-13 16:18:03.32	304.35	12.07	-41.3	-42.6	17.4	0.00e+00	0	44	0	2601517056	52	4295
2026-01-13 16:18:04.45	304.54	12.02	-41.3	-42.5	17.5	0.00e+00	0	44	0	2609905664	52	4288
2026-01-13 16:18:05.40	304.71	11.98	-41.4	-42.6	17.4	0.00e+00	0	44	0	2617245696	52	4321
2026-01-13 16:18:06.40	304.88	11.94	-41.4	-42.6	17.4	0.00e+00	0	44	0	2623537152	52	4310
2026-01-13 16:18:07.39	305.05	11.90	-41.2	-42.4	17.6	0.00e+00	0	44	0	2630877184	52	4217
2026-01-13 16:18:08.39	305.22	11.86	-41.3	-42.4	17.5	0.00e+00	0	44	0	2638217216	52	4240
2026-01-13 16:18:09.38	305.39	11.81	-41.3	-42.5	17.5	0.00e+00	0	44	0	2645557248	52	4281
2026-01-13 16:18:10.38	305.56	11.77	-41.5	-42.7	17.3	0.00e+00	0	44	0	2652897280	52	4358
2026-01-13 16:18:11.37	305.72	11.73	-41.6	-42.8	17.2	0.00e+00	0	44	0	2660237312	52	4416
2026-01-13 16:18:12.37	305.89	11.69	-41.5	-42.8	17.2	0.00e+00	0	44	0	2667577344	52	4414
2026-01-13 16:18:13.36	306.06	11.64	-41.6	-42.9	17.1	0.00e+00	0	44	0	2674917376	52	4454
2026-01-13 16:18:14.36	306.22	11.60	-41.5	-42.8	17.1	0.00e+00	0	44	0	2682257408	52	4432
2026-01-13 16:18:15.37	306.39	11.56	-41.6	-42.9	17.1	0.00e+00	0	44	0	2688548864	52	4490
2026-01-13 16:18:16.36	306.56	11.51	-41.7	-43.1	16.9	0.00e+00	0	44	0	2695888896	52	4550
2026-01-13 16:18:17.42	306.73	11.47	-41.6	-42.9	17.1	0.00e+00	0	44	0	2703228928	52	4483
2026-01-13 16:18:18.33	306.88	11.43	-41.7	-43.0	17.0	0.00e+00	0	44	0	2710568960	52	4515
2026-01-13 16:18:19.47	307.07	11.38	-41.7	-43.0	17.0	0.00e+00	0	44	0	2718957568	52	4523
2026-01-13 16:18:20.32	307.21	11.34	-41.9	-43.2	16.8	0.00e+00	0	44	0	2724200448	53	4350
2026-01-13 16:18:21.67	307.43	11.28	-41.6	-42.8	17.2	0.00e+00	0	44	0	2734686208	53	4180
2026-01-13 16:18:22.38	307.55	11.25	-41.6	-42.9	17.1	0.00e+00	0	44	0	2739929088	53	4209
2026-01-13 16:18:23.65	307.76	11.19	-41.6	-42.8	17.1	0.00e+00	0	44	0	2749366272	53	4183
2026-01-13 16:18:24.36	307.87	11.16	-41.6	-42.9	17.1	0.00e+00	0	44	0	2753560576	53	4225
2026-01-13 16:18:25.64	308.08	11.10	-41.7	-43.0	17.0	0.00e+00	0	44	0	2762997760	53	4246
2026-01-13 16:18:26.35	308.19	11.07	-41.7	-43.0	17.0	0.00e+00	0	44	0	2768240640	53	4244
2026-01-13 16:18:27.63	308.40	11.01	-41.6	-42.9	17.0	0.00e+00	0	44	0	2777677824	53	4222
2026-01-13 16:18:28.36	308.52	10.98	-41.7	-43.0	17.0	0.00e+00	0	44	0	2782920704	53	4251
2026-01-13 16:18:29.64	308.72	10.92	-41.7	-43.0	16.9	0.00e+00	0	44	0	2791309312	53	4262
2026-01-13 16:18:30.37	308.84	10.89	-41.8	-43.1	16.8	0.00e+00	0	44	0	2797600768	53	4329
2026-01-13 16:18:31.64	309.04	10.83	-41.8	-43.1	16.9	0.00e+00	0	44	0	2805989376	53	4303
2026-01-13 16:18:32.59	309.19	10.79	-41.9	-43.1	16.8	0.00e+00	0	44	0	2813329408	53	4339
2026-01-13 16:18:33.59	309.35	10.74	-41.8	-43.1	16.8	0.00e+00	0	44	0	2820669440	53	4332
2026-01-13 16:18:34.58	309.51	10.70	-41.8	-43.1	16.9	0.00e+00	0	44	0	2828009472	53	4303
2026-01-13 16:18:35.57	309.66	10.65	-41.8	-43.1	16.8	0.00e+00	0	44	0	2834300928	53	4310
2026-01-13 16:18:36.57	309.82	10.61	-41.7	-43.0	16.9	0.00e+00	0	44	0	2841640960	53	4265
2026-01-13 16:18:37.99	310.04	10.54	-41.9	-43.2	16.7	0.00e+00	0	44	0	2852126720	53	4383
2026-01-13 16:18:38.70	310.15	10.51	-41.9	-43.2	16.7	0.00e+00	0	44	0	2857369600	53	4385
2026-01-13 16:18:39.98	310.35	10.45	-42.0	-43.3	16.6	0.00e+00	0	44	0	2866806784	53	4425
2026-01-13 16:18:40.71	310.46	10.42	-41.9	-43.2	16.7	0.00e+00	0	44	0	2872049664	53	4367
2026-01-13 16:18:41.99	310.66	10.36	-41.9	-43.2	16.7	0.00e+00	0	44	0	2881486848	53	4377
2026-01-13 16:18:42.72	310.77	10.32	-41.9	-43.3	16.7	0.00e+00	0	44	0	2886729728	53	4392
2026-01-13 16:18:43.99	310.97	10.27	-42.1	-43.4	16.5	0.00e+00	0	44	0	2895118336	53	4481
2026-01-13 16:18:44.72	311.08	10.23	-42.0	-43.4	16.5	0.00e+00	0	44	0	2900361216	53	4470
2026-01-13 16:18:46.00	311.27	10.17	-41.9	-43.2	16.7	0.00e+00	0	44	0	2909798400	53	4362
2026-01-13 16:18:46.72	311.38	10.14	-41.9	-43.3	16.6	0.00e+00	0	44	0	2915041280	53	4398
2026-01-13 16:18:48.13	311.59	10.07	-42.1	-43.4	16.5	0.00e+00	0	44	0	2925527040	53	4473
2026-01-13 16:18:48.84	311.70	10.04	-42.1	-43.5	16.4	0.00e+00	0	44	0	2930769920	53	4525
2026-01-13 16:18:50.12	311.89	9.98	-42.1	-43.5	16.4	0.00e+00	0	44	0	2940207104	53	4508
2026-01-13 16:18:50.84	312.00	9.94	-42.1	-43.5	16.4	0.00e+00	0	44	0	2944401408	53	4520
2026-01-13 16:18:52.23	312.21	9.88	-42.2	-43.6	16.4	0.00e+00	0	44	0	2954887168	53	4554
2026-01-13 16:18:52.94	312.32	9.84	-42.2	-43.6	16.3	0.00e+00	0	44	0	2960130048	53	4574
2026-01-13 16:18:54.22	312.51	9.78	-42.1	-43.4	16.5	0.00e+00	0	44	0	2969567232	53	4479
2026-01-13 16:18:54.96	312.61	9.75	-42.1	-43.4	16.5	0.00e+00	0	44	0	2974810112	53	4484
2026-01-13 16:18:56.24	312.80	9.69	-41.9	-43.3	16.6	0.00e+00	0	44	0	2984247296	53	4396
2026-01-13 16:18:56.96	312.91	9.65	-42.0	-43.3	16.5	0.00e+00	0	44	0	2989490176	53	4435
2026-01-13 16:18:58.24	313.10	9.59	-41.8	-43.1	16.8	0.00e+00	0	44	0	2997878784	53	4327
2026-01-13 16:18:58.96	313.20	9.56	-41.8	-43.1	16.8	0.00e+00	0	44	0	3004170240	53	4298
2026-01-13 16:19:00.23	313.39	9.50	-41.9	-43.2	16.7	0.00e+00	0	44	0	3012558848	53	4351
2026-01-13 16:19:00.96	313.49	9.46	-41.9	-43.3	16.6	0.00e+00	0	44	0	3017801728	53	4398
2026-01-13 16:19:02.24	313.68	9.40	-42.2	-43.5	16.4	0.00e+00	0	44	0	3027238912	53	4528
2026-01-13 16:19:02.96	313.78	9.37	-42.0	-43.3	16.5	0.00e+00	0	44	0	3032481792	53	4440
2026-01-13 16:19:04.24	313.97	9.31	-42.1	-43.4	16.5	0.00e+00	0	44	0	3041918976	53	4472
2026-01-13 16:19:04.97	314.07	9.27	-42.2	-43.6	16.3	0.00e+00	0	44	0	3047161856	53	4589
2026-01-13 16:19:06.25	314.25	9.21	-42.4	-43.8	16.0	0.00e+00	0	44	0	3055550464	54	4435
2026-01-13 16:19:07.15	314.38	9.17	-42.3	-43.8	16.1	0.00e+00	0	44	0	3062890496	54	4398
2026-01-13 16:19:08.55	314.58	9.10	-42.3	-43.8	16.1	0.00e+00	0	44	0	3073376256	54	4396
2026-01-13 16:19:09.26	314.68	9.06	-42.3	-43.7	16.2	0.00e+00	0	44	0	3077570560	54	4379
2026-01-13 16:19:10.54	314.86	9.00	-43.3	-45.0	15.0	0.00e+00	0	44	0	3087007744	55	4781
2026-01-13 16:19:11.25	314.96	8.97	-50.1	-59.9	3.8	8.47e-01	0	44	104	3089104896	69	11844
2026-01-13 16:19:12.53	315.14	8.90	-50.7	-61.6	3.8	8.47e-01	0	44	104	3089104896	70	13714
2026-01-13 16:19:13.27	315.24	8.87	-50.5	-61.7	3.8	8.47e-01	0	44	104	3089104896	70	13864
2026-01-13 16:19:14.55	315.42	8.81	-51.1	-61.9	3.8	8.49e-01	0	44	104	3089104896	71	13292
2026-01-13 16:19:15.26	315.52	8.77	-51.0	-61.9	3.8	8.47e-01	0	44	104	3089104896	71	13344
2026-01-13 16:19:16.53	315.69	8.71	-51.1	-62.0	3.8	8.46e-01	0	44	104	3089104896	71	13471
2026-01-13 16:19:17.26	315.80	8.67	-51.1	-62.0	3.8	8.47e-01	0	44	104	3089104896	71	13513
2026-01-13 16:19:18.53	315.97	8.61	-51.2	-62.0	3.8	8.47e-01	0	44	104	3089104896	71	13524
2026-01-13 16:19:19.24	316.07	8.58	-51.0	-62.0	3.8	8.47e-01	0	44	104	3089104896	71	13543
2026-01-13 16:19:20.60	316.25	8.51	-51.3	-62.0	3.8	8.48e-01	0	44	104	3089104896	71	13556
2026-01-13 16:19:21.31	316.35	8.48	-51.1	-62.1	3.8	8.47e-01	0	44	104	3089104896	72	12840
2026-01-13 16:19:22.65	316.53	8.41	-51.2	-62.0	3.8	8.47e-01	0	44	104	3089104896	72	12791
2026-01-13 16:19:23.36	316.63	8.38	-51.1	-62.0	3.8	8.47e-01	0	44	104	3089104896	72	12789
2026-01-13 16:19:24.70	316.81	8.31	-51.2	-62.0	3.8	8.46e-01	0	44	104	3089104896	72	12782
2026-01-13 16:19:25.41	316.90	8.28	-51.3	-62.1	3.8	8.47e-01	0	44	104	3089104896	72	12823
2026-01-13 16:19:26.75	317.08	8.21	-51.3	-62.1	3.8	8.47e-01	0	44	104	3089104896	72	12834
2026-01-13 16:19:27.46	317.18	8.17	-51.3	-62.1	3.8	8.47e-01	0	44	104	3089104896	72	12834
2026-01-13 16:19:28.81	317.36	8.11	-51.2	-62.1	3.8	8.47e-01	0	44	104	3089104896	72	12828
2026-01-13 16:19:29.52	317.45	8.07	-51.2	-62.0	3.8	8.47e-01	0	44	104	3089104896	72	12740
2026-01-13 16:19:30.80	317.62	8.01	-51.1	-62.0	3.8	8.47e-01	0	44	104	3089104896	72	12739
2026-01-13 16:19:31.51	317.71	7.97	-51.0	-62.0	3.8	8.46e-01	0	44	104	3089104896	72	12776
2026-01-13 16:19:32.79	317.88	7.91	-51.0	-62.0	3.8	8.46e-01	0	44	104	3089104896	72	12679
2026-01-13 16:19:33.50	317.97	7.88	-51.0	-62.0	3.8	8.49e-01	0	44	104	3089104896	72	12682
2026-01-13 16:19:34.81	318.14	7.81	-51.0	-62.0	3.8	8.46e-01	0	44	104	3089104896	72	12709
2026-01-13 16:19:35.52	318.23	7.78	-51.0	-62.0	3.8	8.48e-01	0	44	104	3089104896	72	12681
2026-01-13 16:19:36.80	318.40	7.71	-51.0	-62.0	3.8	8.46e-01	0	44	104	3089104896	72	12697
2026-01-13 16:19:37.52	318.49	7.68	-51.0	-61.9	3.8	8.46e-01	0	44	104	3089104896	72	12656
2026-01-13 16:19:38.80	318.66	7.61	-51.0	-61.9	3.8	8.46e-01	0	44	104	3089104896	72	12660
2026-01-13 16:19:39.52	318.75	7.58	-51.0	-61.9	3.8	8.47e-01	0	44	104	3089104896	72	12585
2026-01-13 16:19:40.80	318.91	7.52	-51.0	-61.9	3.8	8.47e-01	0	44	104	3089104896	72	12646
2026-01-13 16:19:41.51	319.00	7.48	-51.0	-61.9	3.8	8.47e-01	0	44	104	3089104896	72	12656
2026-01-13 16:19:42.78	319.16	7.42	-51.0	-61.9	3.8	8.46e-01	0	44	104	3089104896	72	12585
2026-01-13 16:19:43.49	319.25	7.38	-51.0	-62.0	3.8	8.47e-01	0	44	104	3089104896	72	12673
2026-01-13 16:19:44.77	319.42	7.32	-51.0	-61.9	3.8	8.47e-01	0	44	104	3089104896	72	12592
2026-01-13 16:19:45.50	319.51	7.28	-51.0	-61.9	3.8	8.46e-01	0	44	104	3089104896	72	12588
2026-01-13 16:19:46.77	319.67	7.22	-51.0	-61.9	3.8	8.46e-01	0	44	104	3089104896	72	12613
2026-01-13 16:19:47.48	319.75	7.18	-51.0	-62.0	3.8	8.46e-01	0	44	104	3089104896	72	12670
2026-01-13 16:19:48.76	319.91	7.12	-51.0	-61.9	3.8	8.46e-01	0	44	104	3089104896	72	12551
2026-01-13 16:19:49.48	320.00	7.08	-51.0	-61.9	3.8	8.46e-01	0	44	104	3089104896	72	12580
2026-01-13 16:19:50.76	320.16	7.02	-51.0	-62.0	3.8	8.48e-01	0	44	104	3089104896	72	12669
2026-01-13 16:19:51.47	320.25	6.99	-51.0	-61.9	3.8	8.46e-01	0	44	104	3089104896	72	12608
2026-01-13 16:19:52.75	320.41	6.92	-51.0	-61.9	3.8	8.48e-01	0	44	104	3089104896	72	12630
2026-01-13 16:19:53.46	320.49	6.89	-51.0	-61.9	3.8	8.48e-01	0	44	104	3089104896	72	12570
2026-01-13 16:19:54.73	320.65	6.82	-51.0	-61.9	3.8	8.47e-01	0	44	104	3089104896	72	12551
2026-01-13 16:19:55.47	320.74	6.79	-51.0	-61.9	3.8	8.47e-01	0	44	104	3089104896	72	12599
2026-01-13 16:19:56.75	320.89	6.72	-51.0	-61.9	3.8	8.46e-01	0	44	104	3089104896	72	12615
2026-01-13 16:19:57.46	320.98	6.69	-51.0	-61.9	3.8	8.46e-01	0	44	104	3089104896	72	12539
2026-01-13 16:19:58.74	321.13	6.62	-50.9	-61.9	3.8	8.47e-01	0	44	104	3089104896	72	12609
2026-01-13 16:19:59.45	321.22	6.59	-50.9	-61.9	3.8	8.45e-01	0	44	104	3089104896	72	12560
2026-01-13 16:20:00.72	321.37	6.53	-50.9	-61.7	3.8	8.46e-01	0	44	104	3089104896	72	12326
2026-01-13 16:20:01.45	321.46	6.49	-50.9	-61.8	3.8	8.46e-01	0	44	104	3089104896	72	12482
2026-01-13 16:20:02.73	321.61	6.43	-50.9	-61.8	3.8	8.45e-01	0	44	104	3089104896	72	12466
2026-01-13 16:20:03.44	321.69	6.39	-50.9	-61.8	3.8	8.47e-01	0	44	104	3089104896	72	12515
2026-01-13 16:20:04.72	321.84	6.33	-50.9	-61.8	3.8	8.46e-01	0	44	104	3089104896	72	12519
2026-01-13 16:20:05.42	321.93	6.29	-50.9	-61.9	3.8	8.46e-01	0	44	104	3089104896	72	12607
2026-01-13 16:20:06.70	322.08	6.23	-50.9	-61.8	3.8	8.47e-01	0	44	104	3089104896	72	12511
2026-01-13 16:20:07.41	322.16	6.19	-50.9	-61.8	3.8	8.45e-01	0	44	104	3089104896	72	12485
2026-01-13 16:20:08.69	322.31	6.13	-50.8	-61.8	3.8	8.47e-01	0	44	104	3089104896	72	12422
2026-01-13 16:20:09.42	322.39	6.09	-50.8	-61.7	3.8	8.46e-01	0	44	104	3089104896	72	12359
2026-01-13 16:20:10.69	322.54	6.03	-50.9	-61.9	3.8	8.46e-01	0	44	104	3089104896	72	12621
2026-01-13 16:20:11.40	322.62	5.99	-50.9	-61.8	3.8	8.47e-01	0	44	104	3089104896	72	12482
2026-01-13 16:20:12.68	322.77	5.93	-51.0	-61.9	3.8	8.47e-01	0	44	104	3089104896	72	12582
2026-01-13 16:20:13.39	322.85	5.89	-50.9	-61.9	3.8	8.47e-01	0	44	104	3089104896	72	12587
2026-01-13 16:20:14.67	323.00	5.83	-50.9	-61.9	3.8	8.48e-01	0	44	104	3089104896	72	12580
2026-01-13 16:20:15.38	323.08	5.79	-50.9	-61.9	3.8	8.47e-01	0	44	104	3089104896	72	12539
2026-01-13 16:20:16.66	323.22	5.73	-50.9	-61.9	3.8	8.46e-01	0	44	104	3089104896	72	12592
2026-01-13 16:20:17.37	323.30	5.70	-50.9	-61.9	3.8	8.48e-01	0	45	104	3089104896	72	12539
2026-01-13 16:20:18.64	323.45	5.63	-50.9	-61.9	3.8	8.48e-01	0	44	104	3089104896	72	12601
2026-01-13 16:20:19.35	323.53	5.60	-50.9	-61.9	3.8	8.47e-01	0	44	104	3089104896	72	12586
2026-01-13 16:20:20.63	323.67	5.53	-50.9	-61.8	3.8	8.46e-01	0	45	104	3089104896	72	12489
2026-01-13 16:20:21.34	323.75	5.50	-50.9	-61.8	3.8	8.47e-01	0	45	104	3089104896	72	12464
2026-01-13 16:20:22.62	323.89	5.43	-50.9	-61.8	3.8	8.47e-01	0	44	104	3089104896	72	12506
2026-01-13 16:20:23.33	323.97	5.40	-50.9	-61.9	3.8	8.46e-01	0	44	104	3089104896	72	12582
2026-01-13 16:20:24.61	324.11	5.34	-50.9	-61.9	3.8	8.47e-01	0	44	104	3089104896	72	12565
2026-01-13 16:20:25.32	324.19	5.30	-50.9	-61.9	3.8	8.48e-01	0	44	104	3089104896	72	12540
2026-01-13 16:20:26.59	324.33	5.24	-50.9	-61.9	3.8	8.46e-01	0	44	104	3089104896	72	12568
2026-01-13 16:20:27.30	324.41	5.20	-50.9	-61.9	3.8	8.47e-01	0	44	104	3089104896	72	12639
2026-01-13 16:20:28.58	324.55	5.14	-50.9	-61.8	3.8	8.47e-01	0	44	104	3089104896	72	12516
2026-01-13 16:20:29.29	324.62	5.10	-50.9	-61.8	3.8	8.46e-01	0	44	104	3089104896	72	12516
2026-01-13 16:20:30.57	324.76	5.04	-50.9	-61.9	3.8	8.47e-01	0	44	104	3089104896	72	12561
2026-01-13 16:20:31.27	324.84	5.00	-50.9	-61.9	3.8	8.48e-01	0	44	104	3089104896	72	12581

#Closed at: 2026-01-13 16:20:32
#Recorded file [3089 MB]: D:/Data/31040_260113_191052.dat