passes_logs/2026/01/13/T1/T1__20260113_093342_NOAA_21_JPSS-2_rec.log

#Pass ID: 20260113_093342_NOAA 21 (JPSS-2)
#Satellite: NOAA 21 (JPSS-2)
#Configuration: NOAA 21
#almurnet v.1.7.20251203
#Start time: 2026-01-13 09:33:43

#Version: 2.0.20230620
#Station: T1
#Location: 37.570604 lon 55.790049 lat
#TLE: 1 54234U 22150A   26012.26378519  .00000063  00000+0  50547-4 0  9993
#TLE: 2 54234  98.7495 313.1967 0000726 309.1075  51.0036 14.19534275164425

#Time	Az	El	Level	Level2	SNR	BER	BlckErr	Temp	State	Recorded	gain1	gain2
2026-01-13 09:33:43.82	148.84	5.08	-49.8	-62.8	3.8	1.49e+00	0	37	0	0	71	15865
2026-01-13 09:33:44.81	148.83	5.15	-49.8	-62.9	3.8	1.49e+00	0	37	104	0	71	15973
2026-01-13 09:33:45.80	148.81	5.23	-49.8	-62.9	3.8	1.49e+00	0	37	104	0	71	15948
2026-01-13 09:33:46.80	148.79	5.30	-49.8	-62.9	3.8	1.49e+00	0	37	104	0	71	16007
2026-01-13 09:33:47.79	148.77	5.37	-49.8	-62.8	3.8	1.49e+00	0	37	104	0	71	15911
2026-01-13 09:33:48.78	148.75	5.44	-49.8	-62.8	3.8	1.49e+00	0	37	104	0	71	15816
2026-01-13 09:33:49.77	148.73	5.51	-49.7	-62.7	3.8	1.49e+00	0	37	104	0	71	15669
2026-01-13 09:33:50.77	148.72	5.58	-49.7	-62.6	3.8	1.49e+00	0	37	104	0	71	15509
2026-01-13 09:33:51.76	148.70	5.66	-49.7	-62.4	3.8	1.49e+00	0	37	104	0	71	15207
2026-01-13 09:33:52.75	148.68	5.73	-49.7	-62.3	3.8	1.49e+00	0	37	104	0	71	14902
2026-01-13 09:33:53.75	148.66	5.80	-49.7	-62.1	3.8	1.49e+00	0	37	104	0	71	14686
2026-01-13 09:33:54.74	148.64	5.88	-49.7	-62.0	3.8	1.49e+00	0	37	104	0	71	14501
2026-01-13 09:33:55.73	148.62	5.95	-49.7	-62.0	3.8	1.49e+00	0	37	104	0	71	14424
2026-01-13 09:33:56.73	148.60	6.02	-49.7	-61.9	3.8	1.49e+00	0	37	104	0	71	14230
2026-01-13 09:33:57.72	148.58	6.10	-49.7	-61.8	3.8	1.49e+00	0	37	104	0	71	14186
2026-01-13 09:33:58.72	148.56	6.17	-49.7	-61.8	3.8	1.49e+00	0	37	104	0	71	14048
2026-01-13 09:33:59.71	148.54	6.24	-49.6	-61.6	3.8	1.49e+00	0	37	104	0	71	13786
2026-01-13 09:34:00.70	148.52	6.32	-49.6	-61.3	3.8	1.49e+00	0	37	104	0	71	13382
2026-01-13 09:34:01.70	148.50	6.39	-49.6	-60.9	3.8	1.49e+00	0	37	104	0	71	12779
2026-01-13 09:34:02.69	148.48	6.47	-49.5	-59.9	4.1	1.48e+00	0	37	104	0	71	11403
2026-01-13 09:34:03.68	148.46	6.54	-49.4	-59.3	4.2	1.47e+00	0	37	104	0	70	11174
2026-01-13 09:34:04.68	148.44	6.62	-49.3	-58.4	4.5	1.42e+00	0	38	104	0	70	10124
2026-01-13 09:34:05.67	148.42	6.69	-49.1	-57.3	5.0	9.65e-01	0	37	0	0	70	8953
2026-01-13 09:34:06.67	148.40	6.77	-49.0	-56.8	5.3	5.89e-01	0	37	0	0	70	8415
2026-01-13 09:34:07.66	148.38	6.85	-48.7	-55.8	6.0	3.60e-01	0	37	0	0	69	7929
2026-01-13 09:34:08.65	148.36	6.92	-48.5	-55.0	6.6	2.36e-01	0	37	0	0	69	7232
2026-01-13 09:34:09.64	148.34	7.00	-48.2	-54.1	7.4	1.37e-01	0	37	0	0	68	6924
2026-01-13 09:34:10.64	148.32	7.07	-48.1	-53.6	7.9	8.06e-02	0	38	0	0	68	6539
2026-01-13 09:34:11.63	148.29	7.15	-47.5	-52.5	8.8	3.92e-02	0	38	0	0	67	6104
2026-01-13 09:34:12.62	148.27	7.23	-47.2	-51.7	9.6	1.42e-02	0	38	0	0	66	5910
2026-01-13 09:34:13.62	148.25	7.30	-46.7	-50.8	10.6	5.99e-03	0	38	0	0	65	5643
2026-01-13 09:34:14.61	148.23	7.38	-46.4	-50.3	11.1	2.11e-03	0	37	0	0	64	5607
2026-01-13 09:34:15.61	148.21	7.46	-46.2	-49.8	11.6	1.06e-03	0	38	0	0	64	5323
2026-01-13 09:34:16.60	148.19	7.54	-45.8	-49.2	12.4	1.59e-04	0	38	0	0	63	5228
2026-01-13 09:34:17.59	148.16	7.62	-45.4	-48.5	13.1	4.27e-05	0	38	0	0	62	5141
2026-01-13 09:34:18.59	148.14	7.69	-45.2	-48.3	13.3	2.67e-05	0	38	0	0	62	4995
2026-01-13 09:34:19.58	148.12	7.77	-45.0	-47.9	13.6	1.29e-05	0	38	0	0	62	4807
2026-01-13 09:34:20.57	148.10	7.85	-44.7	-47.6	13.8	5.30e-06	0	38	0	0	61	4883
2026-01-13 09:34:21.57	148.07	7.93	-44.7	-47.5	14.1	7.00e-07	0	38	0	0	61	4829
2026-01-13 09:34:22.56	148.05	8.01	-44.8	-47.6	13.9	1.50e-06	0	38	0	0	61	4907
2026-01-13 09:34:23.55	148.03	8.09	-44.9	-47.8	13.7	5.30e-06	0	38	0	0	61	5006
2026-01-13 09:34:24.55	148.01	8.17	-45.0	-47.9	13.6	7.60e-06	0	38	0	0	61	5073
2026-01-13 09:34:25.54	147.98	8.25	-45.5	-48.6	12.9	2.74e-05	0	38	0	0	61	5519
2026-01-13 09:34:26.53	147.96	8.33	-45.9	-49.3	12.3	1.70e-04	0	38	0	0	62	5609
2026-01-13 09:34:27.53	147.94	8.41	-46.4	-50.2	11.3	5.86e-04	0	38	0	0	63	5897
2026-01-13 09:34:28.52	147.91	8.49	-46.9	-51.1	10.3	3.27e-03	0	38	0	0	64	6168
2026-01-13 09:34:29.51	147.89	8.57	-47.5	-52.4	9.0	1.79e-02	0	38	0	0	65	6734
2026-01-13 09:34:30.51	147.87	8.65	-48.1	-54.0	7.4	8.78e-02	0	38	0	0	66	7632
2026-01-13 09:34:31.50	147.84	8.73	-48.6	-55.9	5.8	3.31e-01	0	38	0	0	67	8999
2026-01-13 09:34:32.49	147.82	8.82	-49.2	-58.7	4.0	7.02e-01	0	38	104	0	69	11134
2026-01-13 09:34:33.48	147.79	8.90	-49.5	-60.6	3.9	1.48e+00	0	38	104	0	69	13737
2026-01-13 09:34:34.48	147.77	8.98	-49.7	-62.2	3.8	1.49e+00	0	38	104	0	70	15602
2026-01-13 09:34:35.47	147.74	9.06	-49.7	-62.1	3.8	1.49e+00	0	38	104	0	70	15561
2026-01-13 09:34:36.47	147.72	9.15	-49.0	-56.9	5.2	1.47e+00	0	38	104	0	70	8484
2026-01-13 09:34:37.46	147.70	9.23	-49.6	-61.0	3.8	6.93e-02	0	38	104	0	69	14533
2026-01-13 09:34:38.46	147.67	9.31	-49.6	-61.6	3.8	1.49e+00	0	38	104	0	70	14551
2026-01-13 09:34:39.45	147.65	9.40	-49.6	-61.5	3.8	1.49e+00	0	38	104	0	70	14483
2026-01-13 09:34:40.45	147.62	9.48	-49.6	-61.5	3.8	1.49e+00	0	38	104	0	70	14475
2026-01-13 09:34:41.44	147.59	9.57	-49.6	-62.0	3.8	1.49e+00	0	38	104	0	70	15242
2026-01-13 09:34:42.44	147.57	9.65	-49.6	-61.9	3.8	1.49e+00	0	38	104	0	70	15102
2026-01-13 09:34:43.43	147.54	9.73	-49.6	-61.8	3.8	1.49e+00	0	38	104	0	70	15051
2026-01-13 09:34:44.43	147.52	9.82	-49.6	-61.8	3.8	1.49e+00	0	38	104	0	70	15016
2026-01-13 09:34:45.42	147.49	9.91	-49.6	-61.7	3.8	1.49e+00	0	38	104	0	70	14858
2026-01-13 09:34:46.42	147.46	9.99	-49.7	-61.9	3.8	1.49e+00	0	38	104	0	70	15209
2026-01-13 09:34:47.41	147.44	10.08	-47.4	-52.0	9.6	1.32e-02	0	38	0	0	66	6103
2026-01-13 09:34:48.40	147.41	10.16	-47.4	-52.0	9.6	2.30e-02	0	38	0	0	66	6100
2026-01-13 09:34:49.40	147.38	10.25	-47.7	-52.8	8.7	4.26e-02	0	38	0	0	66	6673
2026-01-13 09:34:50.40	147.36	10.34	-47.3	-51.9	9.6	1.20e-02	0	38	0	0	66	6051
2026-01-13 09:34:51.45	147.33	10.43	-47.3	-51.8	9.8	1.15e-02	0	38	0	0	66	5988
2026-01-13 09:34:52.32	147.30	10.51	-46.6	-50.5	11.1	2.25e-03	0	38	0	0	65	5457
2026-01-13 09:34:53.68	147.27	10.63	-45.8	-49.1	12.7	1.92e-04	0	38	0	0	63	5188
2026-01-13 09:34:54.39	147.25	10.69	-45.2	-48.1	13.7	1.98e-05	0	38	0	0	62	4905
2026-01-13 09:34:55.67	147.21	10.80	-44.4	-47.0	14.8	0.00e+00	0	38	0	0	60	4844
2026-01-13 09:34:56.43	147.19	10.87	-44.1	-46.6	15.3	0.00e+00	0	38	0	0	60	4613
2026-01-13 09:34:57.71	147.15	10.99	-43.7	-46.2	15.6	0.00e+00	0	38	0	0	59	4653
2026-01-13 09:34:58.43	147.13	11.05	-43.5	-45.8	15.9	1.38e-03	0	38	0	0	59	4481
2026-01-13 09:34:59.71	147.10	11.17	-43.6	-45.9	15.9	0.00e+00	0	38	0	0	59	4538
2026-01-13 09:35:00.48	147.07	11.24	-43.6	-45.9	16.0	0.00e+00	0	38	0	0	59	4497
2026-01-13 09:35:01.76	147.04	11.35	-43.4	-45.7	16.1	0.00e+00	0	38	0	0	58	4661
2026-01-13 09:35:02.49	147.01	11.42	-43.3	-45.5	16.3	0.00e+00	0	38	0	0	58	4584
2026-01-13 09:35:03.77	146.98	11.54	-43.3	-45.6	15.5	0.00e+00	0	38	0	0	58	4611
2026-01-13 09:35:04.57	146.95	11.61	-43.3	-45.5	16.3	0.00e+00	0	38	0	0	58	4574
2026-01-13 09:35:05.71	146.92	11.72	-43.2	-45.4	16.4	0.00e+00	0	38	0	0	58	4525
2026-01-13 09:35:06.57	146.89	11.80	-43.2	-45.4	16.4	0.00e+00	0	38	0	0	58	4524
2026-01-13 09:35:07.70	146.86	11.90	-43.2	-45.4	16.4	0.00e+00	0	39	0	0	58	4542
2026-01-13 09:35:08.56	146.83	11.98	-43.1	-45.3	16.5	0.00e+00	0	39	0	0	58	4451
2026-01-13 09:35:09.69	146.80	12.09	-43.1	-45.3	16.5	4.23e-04	0	38	0	0	58	4465
2026-01-13 09:35:10.55	146.77	12.17	-43.1	-45.3	16.5	0.00e+00	0	38	0	0	58	4487
2026-01-13 09:35:11.68	146.73	12.27	-43.1	-45.3	16.5	0.00e+00	0	38	0	0	58	4486
2026-01-13 09:35:12.54	146.71	12.36	-43.1	-45.3	16.5	0.00e+00	0	38	0	0	58	4478
2026-01-13 09:35:13.68	146.67	12.46	-43.0	-45.2	16.7	0.00e+00	0	38	0	0	58	4399
2026-01-13 09:35:14.53	146.64	12.55	-43.0	-45.2	16.7	0.00e+00	0	38	0	0	57	4654
2026-01-13 09:35:15.66	146.61	12.65	-42.9	-45.1	16.7	0.00e+00	0	39	0	0	57	4635
2026-01-13 09:35:16.52	146.58	12.74	-42.8	-45.0	16.8	0.00e+00	0	39	0	0	57	4584
2026-01-13 09:35:17.65	146.54	12.85	-42.9	-45.1	16.7	0.00e+00	0	38	0	0	57	4626
2026-01-13 09:35:18.51	146.51	12.93	-42.9	-45.1	16.7	0.00e+00	0	39	0	0	57	4623
2026-01-13 09:35:19.64	146.48	13.04	-42.8	-45.0	16.8	0.00e+00	0	39	0	0	57	4593
2026-01-13 09:35:20.49	146.45	13.12	-42.8	-45.0	16.9	0.00e+00	0	38	0	0	57	4550
2026-01-13 09:35:21.63	146.41	13.23	-42.7	-44.9	17.0	0.00e+00	0	38	0	0	57	4504
2026-01-13 09:35:22.71	146.37	13.34	-42.8	-45.0	16.8	0.00e+00	0	39	0	0	57	4579
2026-01-13 09:35:23.56	146.34	13.43	-42.7	-44.8	17.0	0.00e+00	0	39	0	0	57	4490
2026-01-13 09:35:24.70	146.30	13.54	-42.6	-44.8	17.1	0.00e+00	0	38	0	0	57	4442
2026-01-13 09:35:25.79	146.27	13.65	-42.7	-44.8	17.0	0.00e+00	0	38	0	0	57	4469
2026-01-13 09:35:26.82	146.23	13.75	-42.7	-44.8	16.9	0.00e+00	0	39	0	0	57	4476
2026-01-13 09:35:27.81	146.20	13.85	-42.7	-44.8	17.1	0.00e+00	0	39	0	0	57	4458
2026-01-13 09:35:28.81	146.16	13.95	-42.7	-44.8	17.0	0.00e+00	0	39	0	0	57	4469
2026-01-13 09:35:29.80	146.13	14.05	-42.7	-44.8	17.0	0.00e+00	0	39	0	0	57	4473
2026-01-13 09:35:30.80	146.09	14.15	-42.7	-44.8	17.0	0.00e+00	0	39	0	0	57	4476
2026-01-13 09:35:31.79	146.05	14.25	-42.6	-44.6	17.2	0.00e+00	0	39	0	0	57	4385
2026-01-13 09:35:32.79	146.02	14.36	-42.6	-44.6	17.2	0.00e+00	0	39	0	0	57	4388
2026-01-13 09:35:33.78	145.98	14.46	-42.6	-44.6	17.2	0.00e+00	0	39	0	0	57	4391
2026-01-13 09:35:34.78	145.94	14.56	-42.7	-44.7	17.1	0.00e+00	0	38	0	0	57	4432
2026-01-13 09:35:35.78	145.91	14.67	-42.6	-44.7	17.2	0.00e+00	0	39	0	0	57	4403
2026-01-13 09:35:36.77	145.87	14.77	-42.6	-44.7	17.2	0.00e+00	0	39	0	0	57	4400
2026-01-13 09:35:37.77	145.83	14.87	-42.7	-44.7	17.1	0.00e+00	0	39	0	0	57	4425
2026-01-13 09:35:38.84	145.79	14.99	-42.5	-44.6	17.2	0.00e+00	0	39	0	0	57	4358
2026-01-13 09:35:39.73	145.76	15.08	-42.6	-44.6	17.2	0.00e+00	0	39	0	0	57	4379
2026-01-13 09:35:40.86	145.71	15.20	-42.6	-44.7	17.2	0.00e+00	0	39	0	0	57	4396
2026-01-13 09:35:41.79	145.68	15.30	-42.6	-44.7	17.2	0.00e+00	0	39	0	0	57	4399
2026-01-13 09:35:42.96	145.63	15.43	-42.6	-44.6	17.2	0.00e+00	0	39	0	0	57	4372
2026-01-13 09:35:43.81	145.60	15.52	-42.6	-44.6	17.2	0.00e+00	0	39	0	0	57	4374
2026-01-13 09:35:44.95	145.55	15.64	-42.5	-44.5	17.3	0.00e+00	0	39	0	0	57	4321
2026-01-13 09:35:45.80	145.52	15.73	-42.6	-44.7	17.2	0.00e+00	0	39	0	0	57	4397
2026-01-13 09:35:46.94	145.47	15.86	-42.6	-44.7	17.2	0.00e+00	0	39	0	0	57	4393
2026-01-13 09:35:47.79	145.44	15.95	-42.6	-44.6	17.2	0.00e+00	0	39	0	0	57	4372
2026-01-13 09:35:48.93	145.39	16.07	-42.6	-44.7	17.2	0.00e+00	0	39	0	0	57	4403
2026-01-13 09:35:49.79	145.35	16.17	-42.7	-44.7	17.1	0.00e+00	0	39	0	0	57	4440
2026-01-13 09:35:50.92	145.31	16.29	-42.7	-44.7	17.2	0.00e+00	0	39	0	0	57	4421
2026-01-13 09:35:51.77	145.27	16.39	-42.6	-44.7	17.2	0.00e+00	0	39	0	0	57	4399
2026-01-13 09:35:52.91	145.22	16.52	-42.6	-44.6	17.3	0.00e+00	0	39	0	0	57	4358
2026-01-13 09:35:53.76	145.19	16.61	-42.6	-44.6	17.2	0.00e+00	0	39	0	0	57	4383
2026-01-13 09:35:54.92	145.14	16.74	-42.8	-44.8	17.1	0.00e+00	0	39	0	0	57	4475
2026-01-13 09:35:55.77	145.10	16.84	-42.7	-44.8	17.1	0.00e+00	0	39	0	0	57	4470
2026-01-13 09:35:56.97	145.05	16.98	-42.7	-44.8	17.1	0.00e+00	0	39	0	0	57	4462
2026-01-13 09:35:57.83	145.01	17.07	-42.8	-44.8	17.0	0.00e+00	0	39	0	0	57	4492
2026-01-13 09:35:58.96	144.96	17.20	-42.7	-44.7	17.1	0.00e+00	0	39	0	0	57	4433
2026-01-13 09:35:59.82	144.92	17.30	-42.7	-44.8	17.1	0.00e+00	0	39	0	0	57	4453
2026-01-13 09:36:01.10	144.86	17.45	-42.7	-44.8	17.0	0.00e+00	0	39	0	0	57	4486
2026-01-13 09:36:01.82	144.83	17.54	-42.7	-44.8	17.1	0.00e+00	0	39	0	0	57	4457
2026-01-13 09:36:03.10	144.77	17.69	-42.8	-45.0	16.9	0.00e+00	0	39	0	0	57	4565
2026-01-13 09:36:03.81	144.74	17.77	-42.7	-44.8	17.1	0.00e+00	0	39	0	0	57	4485
2026-01-13 09:36:05.09	144.68	17.92	-42.8	-44.9	17.0	0.00e+00	0	39	0	0	57	4532
2026-01-13 09:36:05.82	144.64	18.01	-42.8	-44.9	17.0	0.00e+00	0	39	0	0	57	4525
2026-01-13 09:36:07.10	144.58	18.16	-42.8	-44.9	17.0	0.00e+00	0	39	0	0	57	4511
2026-01-13 09:36:07.81	144.55	18.24	-42.9	-45.0	16.9	0.00e+00	0	39	0	0	57	4580
2026-01-13 09:36:09.09	144.48	18.40	-42.9	-45.0	16.9	0.00e+00	0	39	0	0	57	4565
2026-01-13 09:36:10.02	144.44	18.51	-42.9	-45.0	16.9	0.00e+00	0	39	0	0	57	4571
2026-01-13 09:36:11.01	144.39	18.63	-42.9	-45.1	16.9	0.00e+00	0	39	0	0	57	4621
2026-01-13 09:36:12.01	144.34	18.75	-42.9	-45.1	16.8	0.00e+00	0	39	0	0	57	4635
2026-01-13 09:36:13.01	144.29	18.88	-42.9	-45.1	16.9	0.00e+00	0	39	0	0	57	4619
2026-01-13 09:36:14.01	144.24	19.00	-42.9	-45.1	16.9	0.00e+00	0	39	0	0	57	4602
2026-01-13 09:36:15.00	144.19	19.12	-42.8	-44.9	17.0	0.00e+00	0	39	0	0	57	4543
2026-01-13 09:36:16.00	144.14	19.25	-42.8	-44.9	17.1	0.00e+00	0	39	0	0	57	4515
2026-01-13 09:36:16.99	144.09	19.37	-42.8	-44.9	17.1	0.00e+00	0	39	0	0	57	4518
2026-01-13 09:36:17.99	144.03	19.50	-42.8	-44.9	17.0	0.00e+00	0	39	0	0	57	4515
2026-01-13 09:36:18.98	143.98	19.62	-42.8	-45.0	17.0	0.00e+00	0	39	0	0	57	4548
2026-01-13 09:36:19.98	143.93	19.75	-42.7	-44.8	17.2	0.00e+00	0	39	0	0	57	4446
2026-01-13 09:36:20.97	143.88	19.87	-42.6	-44.7	17.2	0.00e+00	0	39	0	0	57	4426
2026-01-13 09:36:21.97	143.82	20.00	-42.7	-44.8	17.2	0.00e+00	0	39	0	0	57	4448
2026-01-13 09:36:22.97	143.77	20.13	-42.5	-44.6	17.4	0.00e+00	0	39	0	0	57	4366
2026-01-13 09:36:23.96	143.71	20.26	-42.6	-44.6	17.3	0.00e+00	0	39	0	0	57	4387
2026-01-13 09:36:24.95	143.66	20.39	-42.6	-44.6	17.3	0.00e+00	0	39	0	0	57	4386
2026-01-13 09:36:25.95	143.60	20.52	-42.4	-44.5	17.5	0.00e+00	0	39	0	0	56	4557
2026-01-13 09:36:26.94	143.55	20.65	-42.4	-44.4	17.5	0.00e+00	0	39	0	0	56	4515
2026-01-13 09:36:27.94	143.49	20.78	-42.4	-44.4	17.5	0.00e+00	0	39	0	0	56	4542
2026-01-13 09:36:28.93	143.43	20.91	-42.3	-44.3	17.6	0.00e+00	0	39	0	0	56	4487
2026-01-13 09:36:29.93	143.37	21.04	-42.2	-44.2	17.7	0.00e+00	0	39	0	0	56	4416
2026-01-13 09:36:30.92	143.32	21.18	-42.1	-44.0	17.9	0.00e+00	0	39	0	0	56	4322
2026-01-13 09:36:31.92	143.26	21.31	-42.2	-44.1	17.8	0.00e+00	0	39	0	0	56	4381
2026-01-13 09:36:32.92	143.20	21.45	-42.0	-43.9	18.0	0.00e+00	0	39	0	0	56	4278
2026-01-13 09:36:33.91	143.14	21.58	-42.0	-43.9	18.0	0.00e+00	0	39	0	0	56	4254
2026-01-13 09:36:34.91	143.08	21.72	-41.8	-43.7	18.0	0.00e+00	0	39	0	0	55	4417
2026-01-13 09:36:35.90	143.02	21.85	-41.8	-43.7	18.0	0.00e+00	0	39	0	0	55	4400
2026-01-13 09:36:36.90	142.95	21.99	-41.8	-43.7	18.0	0.00e+00	0	39	0	0	55	4424
2026-01-13 09:36:37.89	142.89	22.13	-41.8	-43.7	18.1	0.00e+00	0	39	0	0	55	4423
2026-01-13 09:36:38.88	142.83	22.27	-41.8	-43.7	18.1	0.00e+00	0	39	0	0	55	4396
2026-01-13 09:36:39.88	142.77	22.41	-41.6	-43.5	18.3	0.00e+00	0	39	0	0	55	4308
2026-01-13 09:36:40.87	142.70	22.55	-41.5	-43.3	18.4	0.00e+00	0	39	0	0	55	4234
2026-01-13 09:36:41.87	142.64	22.69	-41.5	-43.3	18.4	0.00e+00	0	39	0	0	54	4485
2026-01-13 09:36:42.86	142.57	22.83	-41.4	-43.3	18.4	0.00e+00	0	39	0	0	54	4469
2026-01-13 09:36:43.86	142.51	22.97	-41.4	-43.2	18.5	0.00e+00	0	39	0	0	54	4424
2026-01-13 09:36:44.86	142.44	23.12	-41.4	-43.3	18.4	0.00e+00	0	39	0	0	54	4464
2026-01-13 09:36:45.85	142.37	23.26	-41.4	-43.2	18.5	0.00e+00	0	39	0	0	54	4432
2026-01-13 09:36:46.84	142.31	23.40	-41.2	-43.1	18.6	0.00e+00	0	39	0	0	54	4363
2026-01-13 09:36:47.84	142.24	23.55	-41.3	-43.2	18.6	0.00e+00	0	39	0	0	54	4400
2026-01-13 09:36:48.88	142.17	23.70	-41.2	-43.1	18.6	0.00e+00	0	39	0	0	54	4362
2026-01-13 09:36:49.84	142.10	23.85	-41.3	-43.1	18.6	0.00e+00	0	39	0	0	54	4377
2026-01-13 09:36:50.93	142.02	24.01	-41.3	-43.1	18.6	0.00e+00	0	39	0	0	54	4386
2026-01-13 09:36:51.82	141.96	24.14	-41.3	-43.2	18.6	0.00e+00	0	39	0	0	54	4395
2026-01-13 09:36:53.11	141.86	24.33	-41.4	-43.3	18.5	0.00e+00	0	39	0	0	54	4443
2026-01-13 09:36:53.83	141.81	24.44	-41.4	-43.3	18.5	0.00e+00	0	39	0	0	54	4464
2026-01-13 09:36:55.11	141.72	24.64	-41.5	-43.4	18.4	0.00e+00	0	39	0	0	54	4504
2026-01-13 09:36:56.27	141.63	24.82	-41.6	-43.4	18.4	0.00e+00	0	39	0	0	54	4525
2026-01-13 09:36:57.12	141.57	24.95	-41.7	-43.6	18.2	0.00e+00	0	39	0	0	54	4600
2026-01-13 09:36:58.26	141.48	25.12	-41.8	-43.7	18.1	0.00e+00	0	39	0	0	54	4695
2026-01-13 09:36:59.11	141.42	25.25	-41.9	-43.8	18.0	0.00e+00	0	39	0	0	54	4751
2026-01-13 09:37:00.31	141.32	25.44	-41.9	-43.8	18.0	0.00e+00	0	39	0	0	54	4732
2026-01-13 09:37:01.17	141.25	25.58	-41.9	-43.9	17.9	0.00e+00	0	39	0	0	54	4772
2026-01-13 09:37:02.31	141.16	25.76	-42.0	-43.9	17.9	0.00e+00	0	39	0	0	54	4805
2026-01-13 09:37:03.16	141.10	25.89	-42.0	-43.9	17.9	0.00e+00	0	39	0	0	54	4802
2026-01-13 09:37:04.30	141.00	26.08	-42.1	-44.0	17.8	0.00e+00	0	39	0	0	54	4861
2026-01-13 09:37:05.15	140.93	26.21	-42.2	-44.1	17.7	0.00e+00	0	39	0	0	55	4649
2026-01-13 09:37:06.29	140.84	26.40	-42.3	-44.3	17.5	0.00e+00	0	39	0	0	55	4742
2026-01-13 09:37:07.14	140.77	26.53	-42.4	-44.4	17.5	0.00e+00	0	39	0	0	55	4762
2026-01-13 09:37:08.55	140.65	26.77	-42.5	-44.6	17.3	0.00e+00	0	39	0	0	55	4884
2026-01-13 09:37:09.26	140.59	26.88	-42.6	-44.7	17.2	0.00e+00	0	39	0	0	55	4945
2026-01-13 09:37:10.74	140.46	27.13	-42.9	-45.0	17.1	0.00e+00	0	39	0	0	56	4849
2026-01-13 09:37:11.45	140.40	27.25	-43.0	-45.0	17.0	0.00e+00	0	39	0	0	56	4866
2026-01-13 09:37:12.78	140.28	27.47	-42.9	-45.0	17.1	0.00e+00	0	39	0	0	56	4839
2026-01-13 09:37:13.49	140.22	27.59	-43.0	-45.1	16.9	0.00e+00	0	39	0	0	56	4919
2026-01-13 09:37:14.86	140.10	27.82	-43.1	-45.2	16.9	0.00e+00	0	39	0	0	56	4942
2026-01-13 09:37:15.57	140.03	27.94	-43.1	-45.2	16.8	0.00e+00	0	39	0	0	56	4972
2026-01-13 09:37:16.85	139.91	28.16	-43.1	-45.2	16.9	0.00e+00	0	39	0	0	56	4935
2026-01-13 09:37:17.58	139.84	28.29	-43.2	-45.3	16.8	0.00e+00	0	39	0	0	56	4991
2026-01-13 09:37:18.86	139.72	28.51	-43.0	-45.0	17.0	0.00e+00	0	39	0	0	57	4583
2026-01-13 09:37:19.57	139.66	28.63	-42.9	-45.0	17.1	0.00e+00	0	39	0	0	57	4554
2026-01-13 09:37:20.85	139.53	28.86	-43.0	-45.1	16.9	0.00e+00	0	39	0	0	57	4635
2026-01-13 09:37:21.57	139.46	28.99	-42.9	-45.0	17.0	0.00e+00	0	39	0	0	57	4574
2026-01-13 09:37:22.85	139.33	29.21	-42.9	-45.0	17.0	0.00e+00	0	39	0	0	57	4570
2026-01-13 09:37:23.56	139.26	29.34	-42.9	-45.0	17.1	0.00e+00	0	39	0	0	57	4581
2026-01-13 09:37:24.84	139.13	29.57	-42.9	-44.9	17.1	0.00e+00	0	39	0	0	57	4543
2026-01-13 09:37:25.71	139.05	29.73	-42.8	-44.8	17.2	0.00e+00	0	39	0	0	57	4472
2026-01-13 09:37:27.11	138.90	29.98	-42.5	-44.5	17.5	0.00e+00	0	39	0	0	57	4333
2026-01-13 09:37:27.82	138.83	30.11	-42.5	-44.4	17.6	0.00e+00	0	39	0	0	56	4536
2026-01-13 09:37:29.10	138.69	30.35	-42.4	-44.4	17.6	0.00e+00	0	39	0	0	56	4514
2026-01-13 09:37:29.83	138.61	30.48	-42.4	-44.4	17.6	0.00e+00	0	39	0	0	56	4498
2026-01-13 09:37:31.11	138.47	30.72	-42.4	-44.3	17.7	0.00e+00	0	39	0	0	56	4474
2026-01-13 09:37:31.83	138.39	30.86	-42.4	-44.4	17.7	0.00e+00	0	39	0	0	56	4499
2026-01-13 09:37:33.11	138.25	31.10	-42.4	-44.3	17.7	0.00e+00	0	39	0	0	56	4486
2026-01-13 09:37:33.92	138.16	31.25	-42.5	-44.5	17.6	0.00e+00	0	39	0	0	56	4567
2026-01-13 09:37:35.06	138.03	31.47	-42.5	-44.4	17.6	0.00e+00	0	39	0	0	56	4540
2026-01-13 09:37:35.91	137.93	31.63	-42.5	-44.5	17.7	0.00e+00	0	39	0	0	56	4548
2026-01-13 09:37:37.05	137.80	31.85	-42.5	-44.5	17.6	0.00e+00	0	39	0	0	56	4585
2026-01-13 09:37:37.90	137.70	32.01	-42.6	-44.6	17.6	0.00e+00	0	39	0	0	56	4600
2026-01-13 09:37:39.04	137.56	32.24	-42.6	-44.6	17.6	0.00e+00	0	39	0	0	56	4625
2026-01-13 09:37:39.89	137.46	32.40	-42.6	-44.6	17.5	0.00e+00	0	39	0	0	56	4630
2026-01-13 09:37:41.03	137.32	32.63	-42.6	-44.7	17.5	0.00e+00	0	39	0	0	56	4656
2026-01-13 09:37:41.89	137.21	32.80	-42.6	-44.6	17.6	0.00e+00	0	39	0	0	56	4619
2026-01-13 09:37:43.10	137.06	33.04	-42.7	-44.7	17.4	0.00e+00	0	39	0	0	56	4698
2026-01-13 09:37:43.96	136.95	33.21	-42.7	-44.7	17.4	0.00e+00	0	39	0	0	56	4690
2026-01-13 09:37:45.09	136.80	33.44	-42.9	-44.9	17.3	0.00e+00	0	39	0	0	56	4782
2026-01-13 09:37:45.95	136.69	33.62	-42.9	-44.9	17.2	0.00e+00	0	39	0	0	56	4810
2026-01-13 09:37:47.08	136.54	33.85	-43.0	-45.1	17.0	0.00e+00	0	39	0	0	56	4902
2026-01-13 09:37:47.94	136.43	34.02	-43.1	-45.2	17.0	0.00e+00	0	39	0	0	56	4937
2026-01-13 09:37:49.07	136.27	34.26	-43.2	-45.3	16.9	0.00e+00	0	39	0	0	57	4731
2026-01-13 09:37:49.93	136.15	34.44	-43.4	-45.5	16.7	0.00e+00	0	39	0	0	57	4852
2026-01-13 09:37:51.06	136.00	34.67	-43.4	-45.6	16.6	0.00e+00	0	39	0	0	57	4903
2026-01-13 09:37:51.91	135.88	34.85	-43.5	-45.8	16.5	0.00e+00	0	39	0	0	57	4985
2026-01-13 09:37:53.05	135.71	35.09	-43.6	-45.8	16.4	0.00e+00	0	39	0	0	57	5032
2026-01-13 09:37:53.90	135.59	35.27	-43.8	-46.1	16.2	0.00e+00	0	39	0	0	58	4893
2026-01-13 09:37:55.04	135.42	35.52	-44.0	-46.3	16.0	0.00e+00	0	39	0	0	58	4998
2026-01-13 09:37:55.89	135.30	35.70	-44.1	-46.4	15.8	0.00e+00	0	39	0	0	58	5095
2026-01-13 09:37:57.03	135.13	35.95	-44.3	-46.7	15.6	0.00e+00	0	39	0	0	59	4931
2026-01-13 09:37:57.88	135.00	36.13	-44.4	-46.9	15.4	0.00e+00	0	39	0	0	59	5053
2026-01-13 09:37:59.08	134.81	36.39	-44.4	-46.8	15.4	0.00e+00	0	39	0	0	59	5034
2026-01-13 09:37:59.93	134.68	36.58	-44.4	-46.9	15.4	0.00e+00	0	39	0	0	59	5053
2026-01-13 09:38:01.07	134.49	36.83	-44.5	-47.0	15.3	0.00e+00	0	39	0	0	59	5125
2026-01-13 09:38:01.92	134.36	37.02	-44.6	-47.1	15.2	0.00e+00	0	39	0	0	59	5176
2026-01-13 09:38:03.06	134.17	37.28	-44.7	-47.2	15.1	7.00e-07	0	39	0	0	60	4966
2026-01-13 09:38:03.91	134.03	37.47	-44.7	-47.2	15.1	0.00e+00	0	39	0	0	60	4959
2026-01-13 09:38:05.05	133.84	37.73	-44.8	-47.3	15.0	7.00e-07	0	39	0	0	60	5028
2026-01-13 09:38:05.90	133.69	37.92	-44.9	-47.4	14.9	7.00e-07	0	39	0	0	60	5075
2026-01-13 09:38:07.03	133.50	38.18	-44.7	-47.2	15.1	0.00e+00	0	39	0	0	60	4966
2026-01-13 09:38:07.89	133.35	38.38	-44.6	-47.1	15.2	0.00e+00	0	39	0	0	60	4901
2026-01-13 09:38:09.03	133.14	38.64	-44.7	-47.3	15.1	0.00e+00	0	39	0	0	60	4996
2026-01-13 09:38:09.88	132.99	38.84	-44.6	-47.1	15.3	0.00e+00	0	39	0	0	60	4883
2026-01-13 09:38:11.02	132.78	39.11	-44.8	-47.4	14.9	0.00e+00	0	39	0	0	60	5059
2026-01-13 09:38:11.87	132.62	39.30	-44.8	-47.4	14.9	0.00e+00	0	39	0	0	60	5047
2026-01-13 09:38:13.00	132.41	39.57	-45.0	-47.7	14.7	0.00e+00	0	39	0	0	60	5235
2026-01-13 09:38:13.86	132.24	39.78	-45.1	-47.8	14.5	1.50e-06	0	39	0	0	60	5311
2026-01-13 09:38:15.00	132.02	40.05	-45.1	-47.8	14.5	7.00e-07	0	39	0	0	60	5313
2026-01-13 09:38:15.85	131.85	40.25	-45.2	-47.9	14.5	0.00e+00	0	39	0	0	60	5363
2026-01-13 09:38:16.99	131.63	40.53	-45.1	-47.8	14.5	0.00e+00	0	39	0	0	60	5323
2026-01-13 09:38:17.84	131.45	40.73	-45.0	-47.6	14.8	0.00e+00	0	39	0	0	60	5189
2026-01-13 09:38:18.98	131.22	41.01	-44.8	-47.4	15.0	7.00e-07	0	39	0	0	60	5059
2026-01-13 09:38:19.83	131.04	41.22	-44.7	-47.2	15.2	0.00e+00	0	39	0	0	60	4951
2026-01-13 09:38:20.97	130.80	41.50	-44.6	-47.0	15.3	0.00e+00	0	39	0	0	60	4861
2026-01-13 09:38:21.82	130.61	41.71	-44.5	-47.0	15.4	0.00e+00	0	39	0	0	60	4816
2026-01-13 09:38:22.96	130.36	41.99	-44.4	-46.7	15.6	0.00e+00	0	39	0	0	60	4700
2026-01-13 09:38:23.81	130.17	42.20	-44.4	-46.8	15.5	0.00e+00	0	39	0	0	60	4734
2026-01-13 09:38:24.95	129.91	42.49	-44.8	-47.3	15.0	0.00e+00	0	39	0	0	60	5019
2026-01-13 09:38:25.80	129.72	42.70	-44.8	-47.4	14.9	0.00e+00	0	39	0	0	60	5051
2026-01-13 09:38:26.94	129.45	42.99	-45.0	-47.7	14.6	0.00e+00	0	39	0	0	60	5245
2026-01-13 09:38:27.79	129.25	43.21	-45.3	-48.1	14.2	0.00e+00	0	39	0	0	61	5172
2026-01-13 09:38:29.02	128.95	43.52	-45.6	-48.5	13.8	3.00e-06	0	39	0	0	61	5424
2026-01-13 09:38:29.88	128.74	43.74	-45.8	-48.9	13.5	1.14e-05	0	39	0	0	62	5346
2026-01-13 09:38:31.01	128.46	44.03	-45.9	-48.9	13.4	1.44e-05	0	39	0	0	62	5388
2026-01-13 09:38:31.87	128.24	44.26	-45.7	-48.6	13.8	9.90e-06	0	39	0	0	62	5175
2026-01-13 09:38:33.11	127.92	44.58	-45.1	-47.7	14.6	7.00e-07	0	39	0	0	62	4682
2026-01-13 09:38:33.96	127.70	44.80	-44.6	-47.1	15.1	0.00e+00	0	39	0	0	61	4632
2026-01-13 09:38:35.10	127.40	45.10	-44.5	-46.9	15.3	0.00e+00	0	39	0	0	61	4516
2026-01-13 09:38:35.95	127.17	45.32	-44.4	-46.8	15.4	0.00e+00	0	39	0	0	60	4749
2026-01-13 09:38:37.09	126.85	45.62	-44.4	-46.8	15.5	0.00e+00	0	39	0	0	60	4724
2026-01-13 09:38:37.94	126.61	45.85	-44.6	-47.1	15.1	0.00e+00	0	39	0	0	60	4884
2026-01-13 09:38:39.08	126.29	46.15	-45.0	-47.6	14.7	0.00e+00	0	39	0	0	60	5204
2026-01-13 09:38:40.04	126.01	46.41	-45.1	-47.8	14.5	0.00e+00	0	39	0	0	60	5293
2026-01-13 09:38:41.04	125.71	46.68	-45.0	-47.6	14.7	7.00e-07	0	39	0	0	60	5192
2026-01-13 09:38:42.03	125.42	46.94	-45.0	-47.6	14.7	7.00e-07	0	39	0	0	60	5178
2026-01-13 09:38:43.03	125.11	47.21	-44.6	-47.1	15.2	0.00e+00	0	39	0	0	60	4899
2026-01-13 09:38:44.02	124.80	47.48	-44.5	-46.9	15.3	0.00e+00	0	39	0	0	60	4806
2026-01-13 09:38:45.02	124.49	47.75	-44.3	-46.7	15.7	0.00e+00	0	39	0	0	60	4667
2026-01-13 09:38:46.01	124.17	48.02	-44.0	-46.3	16.1	0.00e+00	0	39	0	0	60	4461
2026-01-13 09:38:47.01	123.84	48.29	-43.9	-46.1	16.2	0.00e+00	0	39	0	0	59	4641
2026-01-13 09:38:48.00	123.51	48.56	-44.0	-46.3	16.0	0.00e+00	0	39	0	0	59	4732
2026-01-13 09:38:49.00	123.17	48.84	-44.1	-46.5	15.8	0.00e+00	0	39	0	0	59	4829
2026-01-13 09:38:49.99	122.83	49.11	-44.3	-46.7	15.6	0.00e+00	0	39	0	0	59	4934
2026-01-13 09:38:50.99	122.47	49.38	-44.3	-46.7	15.6	0.00e+00	0	39	0	0	59	4954
2026-01-13 09:38:51.98	122.12	49.65	-44.5	-46.9	15.4	0.00e+00	0	39	0	0	59	5069
2026-01-13 09:38:53.01	121.74	49.94	-44.5	-46.9	15.4	0.00e+00	0	39	0	0	59	5063
2026-01-13 09:38:54.00	121.38	50.21	-44.3	-46.7	15.6	0.00e+00	0	39	0	0	59	4959
2026-01-13 09:38:55.00	121.00	50.49	-44.0	-46.3	16.0	0.00e+00	0	39	0	0	59	4706
2026-01-13 09:38:55.99	120.62	50.76	-43.9	-46.0	16.2	0.00e+00	0	39	0	0	59	4594
2026-01-13 09:38:56.99	120.22	51.04	-43.9	-46.1	16.2	0.00e+00	0	39	0	0	59	4608
2026-01-13 09:38:57.98	119.83	51.31	-44.0	-46.2	16.1	0.00e+00	0	39	0	0	59	4668
2026-01-13 09:38:58.98	119.42	51.59	-44.1	-46.4	15.9	0.00e+00	0	39	0	0	59	4784
2026-01-13 09:38:59.97	119.01	51.87	-43.9	-46.1	16.2	0.00e+00	0	39	0	0	59	4646
2026-01-13 09:39:00.97	118.58	52.14	-43.9	-46.2	16.2	0.00e+00	0	39	0	0	59	4661
2026-01-13 09:39:01.96	118.16	52.42	-43.8	-45.9	16.3	0.00e+00	0	39	0	0	59	4544
2026-01-13 09:39:02.95	117.72	52.69	-43.5	-45.7	16.6	0.00e+00	0	39	0	0	59	4401
2026-01-13 09:39:03.95	117.28	52.97	-43.5	-45.6	16.6	0.00e+00	0	39	0	0	58	4630
2026-01-13 09:39:04.94	116.82	53.24	-43.4	-45.5	16.7	0.00e+00	0	39	0	0	58	4572
2026-01-13 09:39:05.97	116.35	53.53	-43.1	-45.2	17.0	0.00e+00	0	39	0	0	58	4436
2026-01-13 09:39:07.00	115.86	53.81	-42.9	-44.9	17.3	0.00e+00	0	39	0	0	57	4524
2026-01-13 09:39:07.99	115.38	54.08	-42.9	-44.9	17.3	0.00e+00	0	39	0	0	57	4529
2026-01-13 09:39:08.98	114.89	54.36	-42.8	-44.8	17.3	0.00e+00	0	39	0	0	57	4485
2026-01-13 09:39:09.98	114.39	54.63	-42.8	-44.8	17.3	0.00e+00	0	39	0	0	57	4453
2026-01-13 09:39:10.97	113.88	54.90	-42.9	-45.0	17.1	0.00e+00	0	39	0	0	57	4562
2026-01-13 09:39:11.97	113.36	55.17	-43.2	-45.3	16.9	0.00e+00	0	39	0	0	57	4716
2026-01-13 09:39:12.96	112.83	55.44	-42.9	-45.0	17.2	0.00e+00	0	39	0	0	57	4557
2026-01-13 09:39:13.95	112.30	55.71	-42.9	-45.0	17.2	0.00e+00	0	39	0	0	57	4557
2026-01-13 09:39:14.95	111.74	55.98	-43.0	-45.0	17.2	0.00e+00	0	39	0	0	57	4580
2026-01-13 09:39:15.94	111.19	56.24	-42.8	-44.9	17.4	0.00e+00	0	39	0	0	57	4506
2026-01-13 09:39:16.94	110.61	56.51	-42.9	-45.0	17.2	0.00e+00	0	39	0	0	57	4559
2026-01-13 09:39:17.93	110.03	56.77	-43.0	-45.1	17.1	0.00e+00	0	39	0	0	57	4611
2026-01-13 09:39:18.93	109.44	57.03	-43.2	-45.3	17.0	0.00e+00	0	39	0	0	57	4724
2026-01-13 09:39:19.95	108.82	57.30	-42.9	-45.0	17.3	0.00e+00	0	39	0	0	57	4562
2026-01-13 09:39:20.98	108.18	57.56	-42.6	-44.6	17.7	0.00e+00	0	39	0	0	57	4356
2026-01-13 09:39:21.98	107.54	57.82	-42.4	-44.3	17.9	0.00e+00	0	39	0	0	56	4460
2026-01-13 09:39:22.97	106.91	58.07	-42.4	-44.3	17.9	0.00e+00	0	39	0	0	56	4466
2026-01-13 09:39:23.97	106.25	58.32	-42.4	-44.3	17.9	0.00e+00	0	39	0	0	56	4456
2026-01-13 09:39:24.96	105.59	58.57	-42.5	-44.5	17.7	0.00e+00	0	39	0	0	56	4552
2026-01-13 09:39:25.96	104.90	58.82	-42.5	-44.4	17.8	0.00e+00	0	39	0	0	56	4524
2026-01-13 09:39:26.95	104.22	59.06	-42.4	-44.3	17.9	0.00e+00	0	39	0	0	56	4479
2026-01-13 09:39:27.95	103.51	59.30	-42.2	-44.1	17.9	0.00e+00	0	39	0	0	56	4375
2026-01-13 09:39:28.94	102.80	59.53	-42.0	-43.8	18.1	0.00e+00	0	39	0	0	56	4238
2026-01-13 09:39:29.94	102.06	59.77	-42.1	-44.0	18.0	0.00e+00	0	39	0	0	56	4324
2026-01-13 09:39:30.93	101.32	60.00	-42.0	-43.9	18.2	0.00e+00	0	39	0	0	56	4285
2026-01-13 09:39:31.92	100.57	60.22	-41.9	-43.8	18.2	0.00e+00	0	39	0	0	55	4449
2026-01-13 09:39:32.92	99.80	60.45	-41.8	-43.7	18.3	0.00e+00	0	39	0	0	55	4392
2026-01-13 09:39:33.91	99.02	60.66	-41.7	-43.6	18.4	0.00e+00	0	39	0	0	55	4355
2026-01-13 09:39:34.91	98.22	60.88	-41.7	-43.6	18.4	0.00e+00	0	39	0	0	55	4383
2026-01-13 09:39:35.93	97.39	61.09	-41.7	-43.6	18.4	0.00e+00	0	39	0	0	55	4346
2026-01-13 09:39:36.96	96.53	61.31	-41.8	-43.8	18.2	0.00e+00	0	39	0	0	55	4443
2026-01-13 09:39:37.99	95.66	61.51	-41.7	-43.5	18.5	0.00e+00	0	39	0	0	55	4340
2026-01-13 09:39:38.98	94.82	61.71	-41.8	-43.7	18.4	0.00e+00	0	39	0	0	55	4400
2026-01-13 09:39:39.97	93.96	61.90	-42.1	-44.1	18.0	0.00e+00	0	39	0	0	55	4599
2026-01-13 09:39:40.97	93.07	62.09	-41.9	-43.8	18.2	0.00e+00	0	39	0	0	55	4478
2026-01-13 09:39:41.96	92.18	62.26	-41.7	-43.6	18.4	0.00e+00	0	39	0	0	55	4352
2026-01-13 09:39:42.96	91.27	62.44	-41.3	-43.1	18.8	0.00e+00	0	39	0	0	54	4390
2026-01-13 09:39:43.95	90.36	62.61	-41.2	-43.0	18.9	0.00e+00	0	39	0	0	54	4324
2026-01-13 09:39:44.95	89.42	62.77	-41.3	-43.1	18.8	0.00e+00	0	39	0	0	54	4350
2026-01-13 09:39:45.95	88.48	62.93	-41.2	-43.0	18.8	0.00e+00	0	39	0	0	54	4317
2026-01-13 09:39:46.94	87.52	63.08	-41.1	-42.9	18.9	0.00e+00	0	39	0	0	54	4257
2026-01-13 09:39:47.94	86.55	63.22	-41.0	-42.8	19.0	0.00e+00	0	39	0	0	53	4456
2026-01-13 09:39:48.95	85.56	63.36	-41.2	-43.0	18.9	0.00e+00	0	39	0	0	53	4581
2026-01-13 09:39:49.96	84.55	63.50	-41.2	-43.0	18.9	0.00e+00	0	39	0	0	53	4582
2026-01-13 09:39:50.98	83.53	63.62	-41.3	-43.2	18.8	0.00e+00	0	39	0	0	53	4652
2026-01-13 09:39:51.99	82.50	63.74	-41.5	-43.4	18.6	0.00e+00	0	39	0	0	53	4785
2026-01-13 09:39:52.99	81.47	63.85	-41.6	-43.4	18.6	0.00e+00	0	39	0	0	54	4527
2026-01-13 09:39:53.98	80.44	63.95	-41.0	-42.8	19.2	0.00e+00	0	39	0	0	54	4198
2026-01-13 09:39:54.98	79.40	64.05	-40.9	-42.7	19.3	0.00e+00	0	39	0	0	53	4393
2026-01-13 09:39:55.97	78.36	64.13	-40.9	-42.6	19.3	0.00e+00	0	39	0	0	53	4387
2026-01-13 09:39:56.96	77.31	64.21	-41.0	-42.7	19.1	0.00e+00	0	39	0	0	53	4439
2026-01-13 09:39:57.96	76.24	64.28	-41.1	-42.9	18.9	0.00e+00	0	39	0	0	53	4507
2026-01-13 09:39:58.95	75.17	64.34	-41.0	-42.7	19.0	0.00e+00	0	39	0	0	53	4435
2026-01-13 09:39:59.95	74.09	64.40	-41.2	-43.1	18.8	0.00e+00	0	39	0	0	53	4600
2026-01-13 09:40:00.95	73.01	64.45	-41.6	-43.4	18.3	0.00e+00	0	39	0	0	53	4803
2026-01-13 09:40:01.94	71.93	64.49	-41.8	-43.6	18.2	0.00e+00	0	39	0	0	54	4647
2026-01-13 09:40:02.94	70.84	64.52	-41.3	-43.1	18.7	0.00e+00	0	39	0	0	54	4352
2026-01-13 09:40:03.93	69.76	64.54	-41.6	-43.4	18.4	0.00e+00	0	39	0	0	54	4541
2026-01-13 09:40:04.92	68.67	64.55	-41.8	-43.7	18.3	0.00e+00	0	39	0	0	54	4654
2026-01-13 09:40:05.92	67.57	64.56	-41.7	-43.6	18.4	0.00e+00	0	39	0	0	54	4608
2026-01-13 09:40:06.98	66.41	64.55	-41.6	-43.5	18.5	0.00e+00	0	39	0	0	54	4554
2026-01-13 09:40:07.83	65.48	64.55	-41.4	-43.2	18.9	0.00e+00	0	39	0	0	54	4392
2026-01-13 09:40:08.97	64.23	64.52	-41.4	-43.2	18.7	0.00e+00	0	39	0	0	54	4404
2026-01-13 09:40:09.82	63.30	64.50	-41.4	-43.2	18.7	0.00e+00	0	39	0	0	54	4424
2026-01-13 09:40:10.96	62.06	64.46	-42.0	-43.9	18.2	0.00e+00	0	39	0	0	54	4775
2026-01-13 09:40:11.81	61.14	64.42	-42.1	-44.1	18.0	0.00e+00	0	39	0	0	54	4889
2026-01-13 09:40:12.95	59.90	64.36	-42.1	-44.0	18.0	0.00e+00	0	39	0	0	55	4577
2026-01-13 09:40:13.80	58.99	64.31	-41.9	-43.8	18.2	0.00e+00	0	39	0	0	55	4459
2026-01-13 09:40:14.93	57.78	64.23	-41.8	-43.6	18.4	0.00e+00	0	39	0	0	55	4382
2026-01-13 09:40:15.78	56.88	64.17	-41.9	-43.8	18.3	0.00e+00	0	39	0	0	55	4486
2026-01-13 09:40:16.99	55.60	64.07	-41.7	-43.5	18.5	0.00e+00	0	39	0	0	55	4324
2026-01-13 09:40:17.84	54.71	63.99	-41.7	-43.6	18.3	0.00e+00	0	39	0	0	55	4341
2026-01-13 09:40:19.02	53.48	63.87	-41.6	-43.4	18.6	0.00e+00	0	39	0	0	55	4262
2026-01-13 09:40:19.88	52.60	63.78	-41.5	-43.3	18.6	0.00e+00	0	39	0	0	54	4455
2026-01-13 09:40:21.01	51.45	63.65	-41.0	-42.8	19.1	0.00e+00	0	39	0	0	54	4204
2026-01-13 09:40:21.87	50.58	63.55	-41.2	-43.0	18.9	0.00e+00	0	39	0	0	53	4574
2026-01-13 09:40:23.11	49.34	63.39	-42.0	-43.9	18.1	0.00e+00	0	39	0	0	54	4783
2026-01-13 09:40:23.96	48.50	63.27	-42.0	-43.9	18.0	0.00e+00	0	39	0	0	55	4543
2026-01-13 09:40:25.10	47.39	63.11	-41.5	-43.3	18.6	0.00e+00	0	39	0	0	55	4220
2026-01-13 09:40:26.41	46.13	62.91	-41.5	-43.3	18.7	0.00e+00	0	39	0	0	54	4445
2026-01-13 09:40:27.30	45.29	62.77	-41.8	-43.6	18.4	0.00e+00	0	39	0	0	54	4637
2026-01-13 09:40:28.43	44.24	62.58	-41.9	-43.8	18.3	0.00e+00	0	39	0	0	54	4735
2026-01-13 09:40:29.29	43.44	62.44	-41.9	-43.7	18.3	0.00e+00	0	39	0	0	54	4698
2026-01-13 09:40:30.42	42.42	62.24	-42.1	-44.0	18.1	0.00e+00	0	39	0	0	54	4849
2026-01-13 09:40:31.28	41.65	62.08	-42.3	-44.3	17.8	0.00e+00	0	39	0	0	55	4709
2026-01-13 09:40:32.41	40.65	61.87	-42.0	-43.9	18.2	0.00e+00	0	39	0	0	55	4495
2026-01-13 09:40:33.27	39.91	61.71	-41.7	-43.5	18.6	0.00e+00	0	39	0	0	55	4319
2026-01-13 09:40:34.41	38.93	61.48	-41.6	-43.5	18.6	0.00e+00	0	39	0	0	55	4293
2026-01-13 09:40:35.26	38.22	61.31	-42.0	-43.9	18.2	0.00e+00	0	39	0	0	55	4511
2026-01-13 09:40:36.48	37.21	61.06	-41.8	-43.7	18.4	0.00e+00	0	39	0	0	55	4417
2026-01-13 09:40:37.33	36.52	60.88	-41.7	-43.6	18.5	0.00e+00	0	39	0	0	55	4352
2026-01-13 09:40:38.47	35.61	60.64	-41.5	-43.4	18.7	0.00e+00	0	39	0	0	55	4251
2026-01-13 09:40:39.32	34.95	60.45	-41.5	-43.3	18.7	0.00e+00	0	39	0	0	55	4222
2026-01-13 09:40:40.46	34.07	60.19	-42.0	-43.8	18.2	0.00e+00	0	39	0	0	55	4479
2026-01-13 09:40:41.31	33.42	60.00	-42.5	-44.5	17.6	0.00e+00	0	39	0	0	55	4824
2026-01-13 09:40:42.45	32.57	59.74	-42.4	-44.4	17.7	0.00e+00	0	39	0	0	55	4778
2026-01-13 09:40:43.30	31.95	59.54	-42.3	-44.3	17.8	0.00e+00	0	39	0	0	55	4713
2026-01-13 09:40:44.44	31.13	59.27	-42.0	-43.9	18.2	0.00e+00	0	39	0	0	55	4511
2026-01-13 09:40:45.29	30.53	59.06	-42.0	-43.9	18.1	0.00e+00	0	39	0	0	55	4500
2026-01-13 09:40:46.42	29.75	58.79	-42.4	-44.3	17.7	0.00e+00	0	39	0	0	55	4753
2026-01-13 09:40:47.28	29.17	58.58	-43.1	-45.2	17.0	0.00e+00	0	39	0	0	56	4944
2026-01-13 09:40:48.41	28.41	58.30	-43.2	-45.3	16.9	0.00e+00	0	39	0	0	57	4730
2026-01-13 09:40:49.26	27.86	58.08	-43.6	-45.8	16.4	0.00e+00	0	39	0	0	57	4991
2026-01-13 09:40:50.43	27.11	57.79	-43.0	-45.1	17.0	0.00e+00	0	39	0	0	57	4599
2026-01-13 09:40:51.29	26.56	57.57	-42.7	-44.7	17.4	0.00e+00	0	39	0	0	57	4410
2026-01-13 09:40:52.42	25.87	57.27	-42.4	-44.3	17.8	0.00e+00	0	39	0	0	56	4476
2026-01-13 09:40:53.28	25.34	57.05	-42.3	-44.3	18.0	0.00e+00	0	39	0	0	56	4455
2026-01-13 09:40:54.41	24.67	56.75	-42.8	-44.8	17.6	0.00e+00	0	39	0	0	56	4729
2026-01-13 09:40:55.26	24.18	56.53	-43.1	-45.2	17.1	0.00e+00	0	39	0	0	56	4959
2026-01-13 09:40:56.40	23.52	56.23	-43.0	-45.1	17.1	0.00e+00	0	39	0	0	57	4613
2026-01-13 09:40:57.25	23.05	56.00	-42.5	-44.4	17.7	0.00e+00	0	39	0	0	56	4503
2026-01-13 09:40:58.60	22.30	55.64	-42.2	-44.1	18.0	0.00e+00	0	39	0	0	56	4353
2026-01-13 09:40:59.31	21.92	55.45	-42.3	-44.3	17.9	0.00e+00	0	39	0	0	56	4452
2026-01-13 09:41:00.80	21.13	55.05	-42.4	-44.3	17.9	0.00e+00	0	39	0	0	56	4475
2026-01-13 09:41:01.52	20.76	54.85	-42.5	-44.4	17.9	0.00e+00	0	39	0	0	56	4500
2026-01-13 09:41:02.83	20.10	54.49	-43.3	-45.4	16.8	0.00e+00	0	39	0	0	57	4810
2026-01-13 09:41:03.54	19.75	54.30	-44.1	-46.4	15.9	0.00e+00	0	39	0	0	58	5061
2026-01-13 09:41:04.82	19.12	53.95	-44.2	-46.5	15.6	0.00e+00	0	39	0	0	59	4862
2026-01-13 09:41:05.53	18.78	53.75	-43.9	-46.1	16.0	0.00e+00	0	39	0	0	59	4618
2026-01-13 09:41:06.81	18.18	53.40	-43.5	-45.6	16.6	0.00e+00	0	39	0	0	58	4604
2026-01-13 09:41:07.52	17.85	53.21	-43.0	-45.0	17.2	0.00e+00	0	39	0	0	58	4322
2026-01-13 09:41:08.80	17.28	52.85	-43.0	-45.0	17.2	0.00e+00	0	39	0	0	57	4590
2026-01-13 09:41:09.51	16.96	52.66	-43.4	-45.5	16.8	0.00e+00	0	39	0	0	57	4827
2026-01-13 09:41:10.79	16.40	52.30	-44.3	-46.7	15.7	0.00e+00	0	39	0	0	59	4960
2026-01-13 09:41:11.56	16.08	52.09	-44.4	-46.8	15.6	0.00e+00	0	39	0	0	59	5035
2026-01-13 09:41:12.84	15.54	51.74	-44.3	-46.7	15.7	0.00e+00	0	39	0	0	59	4969
2026-01-13 09:41:13.55	15.25	51.54	-44.4	-46.8	15.5	0.00e+00	0	39	0	0	59	5040
2026-01-13 09:41:14.83	14.73	51.19	-44.2	-46.5	15.7	0.00e+00	0	39	0	0	59	4847
2026-01-13 09:41:15.70	14.39	50.95	-43.8	-46.1	16.0	0.00e+00	0	39	0	0	59	4608
2026-01-13 09:41:17.12	13.84	50.56	-43.4	-45.5	16.6	0.00e+00	0	39	0	0	58	4587
2026-01-13 09:41:17.83	13.57	50.36	-43.4	-45.5	16.7	0.00e+00	0	39	0	0	58	4596
2026-01-13 09:41:19.11	13.09	50.01	-43.9	-46.1	16.1	0.00e+00	0	39	0	0	58	4910
2026-01-13 09:41:19.82	12.83	49.81	-44.4	-46.8	15.5	0.00e+00	0	39	0	0	59	5030
2026-01-13 09:41:21.10	12.37	49.46	-45.0	-47.5	14.7	0.00e+00	0	39	0	0	60	5157
2026-01-13 09:41:21.81	12.12	49.27	-44.9	-47.4	14.7	0.00e+00	0	39	0	0	60	5075
2026-01-13 09:41:23.09	11.68	48.92	-44.8	-47.4	14.7	7.00e-07	0	39	0	0	60	5048
2026-01-13 09:41:23.88	11.41	48.70	-44.7	-47.2	14.9	0.00e+00	0	39	0	0	60	4971
2026-01-13 09:41:25.07	11.01	48.38	-45.0	-47.6	14.4	7.00e-07	0	39	0	0	60	5207
2026-01-13 09:41:25.92	10.73	48.15	-45.0	-47.7	14.5	7.00e-07	0	39	0	0	60	5223
2026-01-13 09:41:27.06	10.36	47.84	-44.4	-46.8	15.5	0.00e+00	0	39	0	0	60	4720
2026-01-13 09:41:27.91	10.09	47.61	-44.1	-46.4	16.0	0.00e+00	0	39	0	0	60	4497
2026-01-13 09:41:29.04	9.74	47.31	-44.2	-46.5	15.9	0.00e+00	0	39	0	0	60	4568
2026-01-13 09:41:29.90	9.48	47.07	-44.5	-46.9	15.5	0.00e+00	0	39	0	0	60	4807
2026-01-13 09:41:31.04	9.14	46.77	-45.2	-47.8	14.5	1.50e-06	0	39	0	0	60	5332
2026-01-13 09:41:31.89	8.88	46.54	-45.6	-48.4	14.0	2.20e-06	0	39	0	0	61	5347
2026-01-13 09:41:33.03	8.55	46.24	-45.3	-48.0	14.4	1.50e-06	0	39	0	0	61	5145
2026-01-13 09:41:33.88	8.31	46.01	-44.8	-47.3	15.0	0.00e+00	0	39	0	0	61	4742
2026-01-13 09:41:35.14	7.96	45.68	-44.7	-47.1	15.2	0.00e+00	0	39	0	0	61	4629
2026-01-13 09:41:36.31	7.63	45.37	-44.5	-46.9	15.5	0.00e+00	0	39	0	0	60	4781
2026-01-13 09:41:37.40	7.34	45.09	-44.6	-47.1	15.4	0.00e+00	0	39	0	0	60	4885
2026-01-13 09:41:38.41	7.07	44.82	-44.8	-47.2	15.2	0.00e+00	0	39	0	0	60	4974
2026-01-13 09:41:39.56	6.77	44.53	-44.8	-47.3	15.1	0.00e+00	0	39	0	0	60	5007
2026-01-13 09:41:40.42	6.55	44.30	-44.7	-47.1	15.3	0.00e+00	0	39	0	0	60	4903
2026-01-13 09:41:41.56	6.26	44.01	-44.3	-46.7	15.8	0.00e+00	0	39	0	0	60	4667
2026-01-13 09:41:42.41	6.05	43.79	-44.3	-46.6	15.8	0.00e+00	0	39	0	0	60	4628
2026-01-13 09:41:43.55	5.78	43.50	-44.6	-47.1	15.3	0.00e+00	0	39	0	0	60	4908
2026-01-13 09:41:44.40	5.57	43.29	-45.1	-47.7	14.8	0.00e+00	0	39	0	0	60	5269
2026-01-13 09:41:45.54	5.30	43.00	-45.6	-48.5	13.9	4.50e-06	0	39	0	0	61	5463
2026-01-13 09:41:46.39	5.10	42.78	-45.6	-48.5	13.9	3.80e-06	0	39	0	0	62	5133
2026-01-13 09:41:47.53	4.84	42.50	-44.9	-47.5	14.8	7.00e-07	0	39	0	0	61	4819
2026-01-13 09:41:48.38	4.65	42.29	-44.5	-46.9	15.4	0.00e+00	0	39	0	0	61	4511
2026-01-13 09:41:49.52	4.40	42.00	-44.2	-46.4	15.9	0.00e+00	0	39	0	0	60	4541
2026-01-13 09:41:50.37	4.21	41.79	-44.1	-46.3	16.0	0.00e+00	0	39	0	0	60	4469
2026-01-13 09:41:51.51	3.97	41.51	-44.1	-46.4	16.0	0.00e+00	0	39	0	0	60	4515
2026-01-13 09:41:52.37	3.79	41.30	-44.3	-46.6	15.8	0.00e+00	0	39	0	0	60	4635
2026-01-13 09:41:53.58	3.53	41.01	-44.5	-47.0	15.4	0.00e+00	0	39	0	0	60	4817
2026-01-13 09:41:54.44	3.36	40.80	-44.7	-47.2	15.1	0.00e+00	0	39	0	0	60	4941
2026-01-13 09:41:55.57	3.13	40.53	-44.6	-47.0	15.2	0.00e+00	0	39	0	0	60	4866
2026-01-13 09:41:56.42	2.96	40.32	-44.4	-46.8	15.4	0.00e+00	0	39	0	0	60	4745
2026-01-13 09:41:57.56	2.74	40.05	-44.4	-46.8	15.5	0.00e+00	0	39	0	0	60	4722
2026-01-13 09:41:58.41	2.57	39.85	-44.4	-46.8	15.6	0.00e+00	0	39	0	0	60	4708
2026-01-13 09:41:59.55	2.35	39.58	-44.6	-47.1	15.3	0.00e+00	0	39	0	0	60	4902
2026-01-13 09:42:00.40	2.19	39.38	-44.7	-47.2	15.2	0.00e+00	0	39	0	0	60	4949
2026-01-13 09:42:01.54	1.98	39.11	-44.8	-47.4	15.0	0.00e+00	0	39	0	0	60	5081
2026-01-13 09:42:02.39	1.83	38.91	-44.7	-47.2	15.2	0.00e+00	0	39	0	0	60	4932
2026-01-13 09:42:03.53	1.62	38.65	-44.4	-46.8	15.5	0.00e+00	0	39	0	0	60	4752
2026-01-13 09:42:04.39	1.47	38.45	-44.4	-46.7	15.6	0.00e+00	0	39	0	0	60	4705
2026-01-13 09:42:05.52	1.27	38.19	-44.1	-46.4	15.9	0.00e+00	0	39	0	0	60	4531
2026-01-13 09:42:06.38	1.13	38.00	-44.1	-46.4	15.9	0.00e+00	0	39	0	0	60	4544
2026-01-13 09:42:07.51	0.93	37.74	-44.1	-46.5	15.9	0.00e+00	0	39	0	0	60	4570
2026-01-13 09:42:08.36	0.79	37.55	-44.3	-46.8	15.6	0.00e+00	0	39	0	0	60	4722
2026-01-13 09:42:09.50	0.60	37.30	-44.6	-47.2	15.3	0.00e+00	0	39	0	0	60	4932
2026-01-13 09:42:10.35	0.47	37.11	-44.8	-47.4	15.1	0.00e+00	0	39	0	0	60	5066
2026-01-13 09:42:11.49	0.28	36.85	-44.8	-47.3	15.1	0.00e+00	0	39	0	0	60	5028
2026-01-13 09:42:12.34	0.15	36.67	-44.6	-47.1	15.2	0.00e+00	0	39	0	0	60	4920
2026-01-13 09:42:13.48	359.97	36.42	-44.3	-46.7	15.6	0.00e+00	0	39	0	0	60	4697
2026-01-13 09:42:14.33	359.84	36.23	-44.2	-46.6	15.7	0.00e+00	0	39	0	0	60	4602
2026-01-13 09:42:15.47	359.67	35.99	-44.0	-46.4	15.8	0.00e+00	0	39	0	0	60	4526
2026-01-13 09:42:16.37	359.53	35.79	-43.9	-46.2	16.0	0.00e+00	0	39	0	0	59	4668
2026-01-13 09:42:17.46	359.37	35.56	-43.8	-46.1	16.0	0.00e+00	0	39	0	0	59	4626
2026-01-13 09:42:18.31	359.25	35.38	-43.8	-46.1	16.0	0.00e+00	0	39	0	0	59	4631
2026-01-13 09:42:19.45	359.08	35.14	-43.9	-46.3	15.9	0.00e+00	0	39	0	0	59	4736
2026-01-13 09:42:20.30	358.96	34.96	-44.1	-46.6	15.7	0.00e+00	0	39	0	0	59	4871
2026-01-13 09:42:21.44	358.80	34.72	-44.2	-46.6	15.6	0.00e+00	0	39	0	0	59	4909
2026-01-13 09:42:22.30	358.68	34.54	-44.1	-46.4	15.8	0.00e+00	0	39	0	0	59	4798
2026-01-13 09:42:23.43	358.53	34.31	-44.0	-46.3	16.0	0.00e+00	0	39	0	0	59	4708
2026-01-13 09:42:24.28	358.41	34.13	-43.9	-46.2	16.0	0.00e+00	0	39	0	0	59	4695
2026-01-13 09:42:25.42	358.26	33.90	-44.0	-46.3	15.9	0.00e+00	0	39	0	0	59	4719
2026-01-13 09:42:26.27	358.15	33.73	-43.8	-46.1	16.0	0.00e+00	0	39	0	0	59	4647
2026-01-13 09:42:27.49	357.99	33.48	-43.7	-46.0	16.2	0.00e+00	0	39	0	0	59	4573
2026-01-13 09:42:28.34	357.88	33.31	-43.7	-45.9	16.3	0.00e+00	0	39	0	0	59	4507
2026-01-13 09:42:29.54	357.73	33.07	-43.5	-45.7	16.4	0.00e+00	0	39	0	0	59	4438
2026-01-13 09:42:30.40	357.62	32.90	-43.5	-45.7	16.5	0.00e+00	0	39	0	0	59	4393
2026-01-13 09:42:31.61	357.47	32.66	-43.3	-45.4	16.7	0.00e+00	0	39	0	0	58	4531
2026-01-13 09:42:32.47	357.37	32.49	-43.3	-45.4	16.7	0.00e+00	0	39	0	0	58	4526
2026-01-13 09:42:33.61	357.23	32.27	-43.2	-45.3	16.8	0.00e+00	0	39	0	0	58	4455
2026-01-13 09:42:34.46	357.13	32.10	-42.9	-45.0	17.0	0.00e+00	0	39	0	0	57	4550
2026-01-13 09:42:35.59	357.00	31.88	-42.7	-44.8	17.2	0.00e+00	0	39	0	0	57	4448
2026-01-13 09:42:36.45	356.90	31.72	-42.7	-44.7	17.2	0.00e+00	0	39	0	0	57	4435
2026-01-13 09:42:37.58	356.77	31.50	-42.7	-44.7	17.3	0.00e+00	0	39	0	0	57	4409
2026-01-13 09:42:38.43	356.67	31.34	-42.6	-44.6	17.4	0.00e+00	0	39	0	0	57	4349
2026-01-13 09:42:39.57	356.55	31.13	-42.5	-44.5	17.6	0.00e+00	0	39	0	0	57	4302
2026-01-13 09:42:40.42	356.45	30.97	-42.5	-44.4	17.7	0.00e+00	0	39	0	0	56	4524
2026-01-13 09:42:41.56	356.33	30.76	-42.4	-44.3	17.8	0.00e+00	0	39	0	0	56	4450
2026-01-13 09:42:42.41	356.24	30.60	-42.2	-44.1	17.9	0.00e+00	0	40	0	0	56	4382
2026-01-13 09:42:43.55	356.11	30.39	-42.2	-44.1	18.0	0.00e+00	0	39	0	0	56	4382
2026-01-13 09:42:44.40	356.02	30.23	-42.4	-44.3	17.8	0.00e+00	0	39	0	0	56	4485
2026-01-13 09:42:45.54	355.91	30.03	-42.5	-44.5	17.7	0.00e+00	0	39	0	0	56	4584
2026-01-13 09:42:46.39	355.82	29.87	-42.5	-44.5	17.7	0.00e+00	0	39	0	0	56	4597
2026-01-13 09:42:47.58	355.70	29.66	-42.7	-44.7	17.6	0.00e+00	0	39	0	0	56	4687
2026-01-13 09:42:48.43	355.61	29.51	-42.8	-44.9	17.3	0.00e+00	0	39	0	0	56	4796
2026-01-13 09:42:49.57	355.50	29.30	-42.9	-45.0	17.3	0.00e+00	0	39	0	0	56	4851
2026-01-13 09:42:50.42	355.41	29.15	-43.0	-45.1	17.2	0.00e+00	0	39	0	0	56	4907
2026-01-13 09:42:51.56	355.30	28.95	-43.1	-45.2	17.1	0.00e+00	0	39	0	0	56	4929
2026-01-13 09:42:52.41	355.22	28.80	-43.2	-45.2	17.0	0.00e+00	0	39	0	0	56	4979
2026-01-13 09:42:53.55	355.11	28.61	-43.2	-45.3	16.9	0.00e+00	0	39	0	0	57	4752
2026-01-13 09:42:54.41	355.03	28.46	-43.1	-45.2	17.0	0.00e+00	0	39	0	0	57	4676
2026-01-13 09:42:55.54	354.93	28.26	-43.1	-45.2	17.0	0.00e+00	0	39	0	0	57	4683
2026-01-13 09:42:56.40	354.85	28.12	-43.1	-45.2	17.0	0.00e+00	0	39	0	0	57	4652
2026-01-13 09:42:57.53	354.75	27.92	-43.0	-45.1	16.9	0.00e+00	0	39	0	0	57	4630
2026-01-13 09:42:58.38	354.67	27.78	-43.0	-45.1	16.9	0.00e+00	0	39	0	0	57	4621
2026-01-13 09:42:59.52	354.57	27.59	-43.0	-45.1	16.9	0.00e+00	0	39	0	0	57	4603
2026-01-13 09:43:00.37	354.49	27.45	-42.8	-44.9	17.1	0.00e+00	0	39	0	0	57	4507
2026-01-13 09:43:01.51	354.39	27.26	-42.7	-44.7	17.1	0.00e+00	0	39	0	0	57	4441
2026-01-13 09:43:02.36	354.32	27.12	-42.6	-44.7	17.2	0.00e+00	0	39	0	0	57	4424
2026-01-13 09:43:03.50	354.22	26.93	-42.4	-44.4	17.5	0.00e+00	0	39	0	0	56	4526
2026-01-13 09:43:04.35	354.15	26.79	-42.4	-44.4	17.5	0.00e+00	0	40	0	0	56	4526
2026-01-13 09:43:05.49	354.06	26.60	-42.3	-44.3	17.6	0.00e+00	0	39	0	0	56	4467
2026-01-13 09:43:06.34	353.99	26.47	-42.3	-44.3	17.5	0.00e+00	0	39	0	0	56	4481
2026-01-13 09:43:07.48	353.89	26.28	-42.2	-44.2	17.7	0.00e+00	0	39	0	0	56	4429
2026-01-13 09:43:08.33	353.83	26.15	-42.2	-44.2	17.8	0.00e+00	0	39	0	0	56	4405
2026-01-13 09:43:09.69	353.72	25.93	-42.3	-44.3	17.7	0.00e+00	0	39	0	0	56	4473
2026-01-13 09:43:10.40	353.66	25.82	-42.3	-44.3	17.8	0.00e+00	0	39	0	0	56	4482
2026-01-13 09:43:11.68	353.56	25.62	-42.1	-44.2	17.9	0.00e+00	0	39	0	0	56	4401
2026-01-13 09:43:12.41	353.51	25.50	-42.1	-44.1	18.0	0.00e+00	0	39	0	0	56	4391
2026-01-13 09:43:13.69	353.41	25.31	-42.0	-44.1	18.1	0.00e+00	0	39	0	0	56	4351
2026-01-13 09:43:14.40	353.35	25.20	-42.0	-44.1	18.1	0.00e+00	0	39	0	0	56	4355
2026-01-13 09:43:15.68	353.26	25.00	-42.0	-44.0	18.1	0.00e+00	0	39	0	0	56	4340
2026-01-13 09:43:16.52	353.19	24.87	-41.8	-43.8	18.1	0.00e+00	0	39	0	0	55	4485
2026-01-13 09:43:17.65	353.11	24.70	-41.8	-43.9	18.1	0.00e+00	0	39	0	0	55	4525
2026-01-13 09:43:18.66	353.04	24.55	-41.9	-43.9	18.1	0.00e+00	0	39	0	0	55	4531
2026-01-13 09:43:19.66	352.97	24.40	-41.9	-43.9	18.1	0.00e+00	0	39	0	0	55	4537
2026-01-13 09:43:20.65	352.90	24.25	-42.0	-44.0	18.0	0.00e+00	0	39	0	0	55	4559
2026-01-13 09:43:21.65	352.83	24.10	-42.1	-44.1	17.9	0.00e+00	0	39	0	0	55	4640
2026-01-13 09:43:22.64	352.76	23.95	-42.1	-44.1	17.9	0.00e+00	0	39	0	0	55	4624
2026-01-13 09:43:23.94	352.67	23.76	-42.1	-44.1	17.8	0.00e+00	0	39	0	0	55	4647
2026-01-13 09:43:24.68	352.62	23.65	-42.3	-44.3	17.7	0.00e+00	0	39	0	0	55	4727
2026-01-13 09:43:25.96	352.53	23.47	-42.3	-44.3	17.6	0.00e+00	0	39	0	0	55	4733
2026-01-13 09:43:26.67	352.48	23.36	-42.3	-44.4	17.6	0.00e+00	0	39	0	0	55	4764
2026-01-13 09:43:27.95	352.40	23.18	-42.3	-44.3	17.6	0.00e+00	0	39	0	0	55	4737
2026-01-13 09:43:28.67	352.35	23.08	-42.3	-44.4	17.6	0.00e+00	0	39	0	0	55	4779
2026-01-13 09:43:29.94	352.27	22.90	-42.3	-44.4	17.6	0.00e+00	0	39	0	0	55	4776
2026-01-13 09:43:30.66	352.22	22.79	-42.4	-44.5	17.5	0.00e+00	0	39	0	0	55	4825
2026-01-13 09:43:31.94	352.14	22.61	-42.3	-44.4	17.6	0.00e+00	0	39	0	0	55	4774
2026-01-13 09:43:32.65	352.09	22.51	-42.4	-44.4	17.5	0.00e+00	0	39	0	0	55	4807
2026-01-13 09:43:34.07	352.00	22.32	-42.4	-44.4	17.5	0.00e+00	0	39	0	0	55	4811
2026-01-13 09:43:34.78	351.96	22.22	-42.4	-44.4	17.6	0.00e+00	0	39	0	0	55	4780
2026-01-13 09:43:36.12	351.88	22.03	-42.4	-44.5	17.3	0.00e+00	0	39	0	0	55	4829
2026-01-13 09:43:36.84	351.83	21.93	-42.4	-44.4	17.6	0.00e+00	0	39	0	0	55	4768
2026-01-13 09:43:38.13	351.76	21.76	-42.3	-44.3	17.6	0.00e+00	0	39	0	0	55	4743
2026-01-13 09:43:38.84	351.71	21.66	-42.4	-44.4	17.6	0.00e+00	0	39	0	0	55	4774
2026-01-13 09:43:40.23	351.63	21.47	-42.4	-44.5	17.5	0.00e+00	0	39	0	0	55	4831
2026-01-13 09:43:40.94	351.59	21.38	-42.4	-44.4	17.5	0.00e+00	0	39	0	0	55	4789
2026-01-13 09:43:42.22	351.52	21.21	-42.3	-44.4	17.6	0.00e+00	0	39	0	0	55	4767
2026-01-13 09:43:43.27	351.46	21.07	-42.4	-44.4	17.5	0.00e+00	0	39	0	0	55	4803
2026-01-13 09:43:44.23	351.40	20.94	-42.4	-44.4	17.5	0.00e+00	0	39	0	0	55	4796
2026-01-13 09:43:45.22	351.35	20.81	-42.4	-44.4	17.5	0.00e+00	0	39	0	0	55	4797
2026-01-13 09:43:46.22	351.29	20.68	-42.3	-44.3	17.6	0.00e+00	0	39	0	0	55	4731
2026-01-13 09:43:47.21	351.24	20.55	-42.3	-44.3	17.6	0.00e+00	0	39	0	0	55	4752
2026-01-13 09:43:48.21	351.18	20.42	-42.4	-44.4	17.5	0.00e+00	0	39	0	0	55	4793
2026-01-13 09:43:49.20	351.13	20.29	-42.2	-44.3	17.7	0.00e+00	0	39	0	0	55	4715
2026-01-13 09:43:50.20	351.07	20.17	-42.3	-44.4	17.6	0.00e+00	0	39	0	0	55	4775
2026-01-13 09:43:51.20	351.02	20.04	-42.2	-44.3	17.6	0.00e+00	0	39	0	0	55	4724
2026-01-13 09:43:52.19	350.97	19.91	-42.2	-44.3	17.6	0.00e+00	0	39	0	0	55	4741
2026-01-13 09:43:53.27	350.91	19.78	-42.2	-44.3	17.6	0.00e+00	0	39	0	0	55	4737
2026-01-13 09:43:54.15	350.86	19.67	-42.2	-44.4	17.5	0.00e+00	0	39	0	0	55	4790
2026-01-13 09:43:55.29	350.81	19.52	-42.2	-44.4	17.5	0.00e+00	0	39	0	0	55	4780
2026-01-13 09:43:56.14	350.76	19.42	-42.3	-44.5	17.4	0.00e+00	0	40	0	0	55	4821
2026-01-13 09:43:57.28	350.70	19.27	-42.2	-44.4	17.5	0.00e+00	0	39	0	0	55	4788
2026-01-13 09:43:58.27	350.65	19.15	-42.3	-44.5	17.4	0.00e+00	0	40	0	0	55	4827
2026-01-13 09:43:59.26	350.61	19.03	-42.3	-44.5	17.4	0.00e+00	0	39	0	0	55	4867
2026-01-13 09:44:00.26	350.56	18.91	-42.4	-44.6	17.3	0.00e+00	0	39	0	0	55	4901
2026-01-13 09:44:01.26	350.51	18.79	-42.4	-44.7	17.3	0.00e+00	0	40	0	0	55	4932
2026-01-13 09:44:02.25	350.46	18.67	-42.5	-44.7	17.2	0.00e+00	0	39	0	0	55	4954
2026-01-13 09:44:03.25	350.41	18.55	-42.4	-44.6	17.3	0.00e+00	0	39	0	0	55	4916
2026-01-13 09:44:04.24	350.36	18.43	-42.6	-44.8	17.1	0.00e+00	0	39	0	0	55	5001
2026-01-13 09:44:05.24	350.32	18.31	-42.6	-44.8	17.1	0.00e+00	0	39	0	0	55	5011
2026-01-13 09:44:06.23	350.27	18.19	-42.5	-44.7	17.2	0.00e+00	0	39	0	0	55	4965
2026-01-13 09:44:07.23	350.22	18.07	-42.5	-44.8	17.2	0.00e+00	0	40	0	0	55	4985
2026-01-13 09:44:08.22	350.18	17.96	-42.6	-44.8	17.1	0.00e+00	0	39	0	0	55	5039
2026-01-13 09:44:09.28	350.13	17.83	-42.7	-44.9	17.0	0.00e+00	0	39	0	0	55	5051
2026-01-13 09:44:10.19	350.09	17.73	-43.0	-45.2	16.9	0.00e+00	0	39	0	0	56	4955
2026-01-13 09:44:11.35	350.04	17.59	-43.0	-45.2	16.9	0.00e+00	0	39	0	0	56	4946
2026-01-13 09:44:12.23	350.00	17.49	-42.9	-45.1	17.0	0.00e+00	0	40	0	0	56	4882
2026-01-13 09:44:13.37	349.95	17.36	-43.0	-45.2	16.9	0.00e+00	0	39	0	0	56	4948
2026-01-13 09:44:14.22	349.91	17.26	-43.0	-45.2	16.9	0.00e+00	0	39	0	0	56	4941
2026-01-13 09:44:15.36	349.86	17.13	-43.1	-45.3	16.8	0.00e+00	0	39	0	0	56	5015
2026-01-13 09:44:16.21	349.82	17.03	-43.0	-45.2	16.8	0.00e+00	0	40	0	0	56	4974
2026-01-13 09:44:17.35	349.77	16.91	-43.0	-45.2	16.9	0.00e+00	0	40	0	0	56	4961
2026-01-13 09:44:18.20	349.74	16.81	-43.1	-45.3	16.7	0.00e+00	0	40	0	0	56	5035
2026-01-13 09:44:19.34	349.69	16.68	-43.1	-45.3	16.8	0.00e+00	0	39	0	0	57	4721
2026-01-13 09:44:20.19	349.66	16.59	-43.0	-45.3	16.8	0.00e+00	0	39	0	0	57	4710
2026-01-13 09:44:21.33	349.61	16.46	-43.1	-45.3	16.8	0.00e+00	0	39	0	0	57	4728
2026-01-13 09:44:22.18	349.57	16.37	-43.1	-45.3	16.7	0.00e+00	0	39	0	0	57	4749
2026-01-13 09:44:23.32	349.53	16.24	-43.0	-45.3	16.8	0.00e+00	0	40	0	0	57	4734
2026-01-13 09:44:24.17	349.49	16.15	-43.1	-45.4	16.7	0.00e+00	0	40	0	0	57	4780
2026-01-13 09:44:25.30	349.45	16.02	-43.0	-45.3	16.7	0.00e+00	0	40	0	0	57	4754
2026-01-13 09:44:26.16	349.41	15.93	-43.1	-45.4	16.7	0.00e+00	0	40	0	0	57	4773
2026-01-13 09:44:27.50	349.36	15.79	-43.1	-45.5	16.6	0.00e+00	0	40	0	0	57	4825
2026-01-13 09:44:28.21	349.33	15.71	-43.1	-45.4	16.7	0.00e+00	0	40	0	0	57	4794
2026-01-13 09:44:29.49	349.28	15.57	-43.1	-45.4	16.7	0.00e+00	0	40	0	0	57	4793
2026-01-13 09:44:30.20	349.25	15.50	-43.2	-45.5	16.6	0.00e+00	0	40	0	0	57	4827
2026-01-13 09:44:31.75	349.20	15.33	-43.1	-45.4	16.7	0.00e+00	0	39	0	0	57	4804
2026-01-13 09:44:32.46	349.17	15.26	-43.2	-45.5	16.6	0.00e+00	0	40	0	0	57	4858
2026-01-13 09:44:33.77	349.12	15.12	-43.3	-45.7	16.4	0.00e+00	0	40	0	0	57	4941
2026-01-13 09:44:34.48	349.09	15.04	-43.3	-45.6	16.4	0.00e+00	0	39	0	0	57	4922
2026-01-13 09:44:35.76	349.05	14.91	-43.4	-45.7	16.4	0.00e+00	0	39	0	0	57	4962
2026-01-13 09:44:36.47	349.02	14.84	-43.3	-45.7	16.4	0.00e+00	0	40	0	0	57	4963
2026-01-13 09:44:37.75	348.97	14.70	-43.3	-45.8	16.3	0.00e+00	0	39	0	0	57	4996
2026-01-13 09:44:38.48	348.95	14.63	-43.5	-46.0	16.1	0.00e+00	0	39	0	0	57	5115
2026-01-13 09:44:39.75	348.90	14.50	-43.4	-45.9	16.2	0.00e+00	0	39	0	0	57	5095
2026-01-13 09:44:40.48	348.88	14.42	-43.4	-46.0	16.1	0.00e+00	0	40	0	0	57	5120
2026-01-13 09:44:41.76	348.83	14.29	-43.3	-46.0	16.1	0.00e+00	0	39	0	0	57	5101
2026-01-13 09:44:42.49	348.80	14.22	-43.3	-46.0	16.1	0.00e+00	0	39	0	0	57	5104
2026-01-13 09:44:43.77	348.76	14.09	-43.4	-46.1	16.0	0.00e+00	0	40	0	0	57	5194
2026-01-13 09:44:44.48	348.74	14.02	-43.3	-45.9	16.1	0.00e+00	0	40	0	0	57	5075
2026-01-13 09:44:45.76	348.69	13.89	-43.3	-46.0	16.1	0.00e+00	0	39	0	0	57	5126
2026-01-13 09:44:46.48	348.67	13.82	-43.4	-46.0	16.0	0.00e+00	0	40	0	0	57	5147
2026-01-13 09:44:47.76	348.62	13.69	-43.6	-46.2	15.8	0.00e+00	0	40	0	0	57	5270
2026-01-13 09:44:48.47	348.60	13.62	-43.6	-46.2	15.9	0.00e+00	0	39	0	0	57	5237
2026-01-13 09:44:49.75	348.56	13.49	-43.6	-46.1	16.0	0.00e+00	0	40	0	0	57	5169
2026-01-13 09:44:50.46	348.53	13.43	-43.7	-46.1	15.9	0.00e+00	0	40	0	0	57	5213
2026-01-13 09:44:51.74	348.49	13.30	-43.7	-46.1	15.9	0.00e+00	0	40	0	0	58	4925
2026-01-13 09:44:52.46	348.47	13.23	-43.6	-46.1	16.0	0.00e+00	0	40	0	0	58	4874
2026-01-13 09:44:53.74	348.43	13.11	-43.8	-46.3	15.8	0.00e+00	0	40	0	0	58	4987
2026-01-13 09:44:54.45	348.41	13.04	-43.6	-46.0	16.0	0.00e+00	0	39	0	0	58	4863
2026-01-13 09:44:55.73	348.36	12.91	-43.5	-46.0	16.0	0.00e+00	0	40	0	0	58	4854
2026-01-13 09:44:56.44	348.34	12.85	-43.4	-46.1	16.0	0.00e+00	0	40	0	0	58	4884
2026-01-13 09:44:57.72	348.30	12.72	-43.5	-46.2	15.8	0.00e+00	0	39	0	0	58	4953
2026-01-13 09:44:58.45	348.28	12.65	-43.4	-46.1	15.9	0.00e+00	0	40	0	0	58	4912
2026-01-13 09:44:59.73	348.24	12.53	-43.2	-46.1	15.9	0.00e+00	0	39	0	0	58	4911
2026-01-13 09:45:00.50	348.22	12.46	-43.2	-46.2	15.8	0.00e+00	0	40	0	0	58	4971
2026-01-13 09:45:01.78	348.18	12.34	-43.0	-46.2	15.8	0.00e+00	0	40	0	0	58	4929
2026-01-13 09:45:02.54	348.15	12.27	-42.9	-46.1	15.8	0.00e+00	0	40	0	0	57	5205
2026-01-13 09:45:03.82	348.12	12.15	-42.8	-46.0	15.9	0.00e+00	0	40	0	0	57	5154
2026-01-13 09:45:04.62	348.09	12.07	-42.8	-46.1	15.9	0.00e+00	0	40	0	0	57	5178
2026-01-13 09:45:06.03	348.05	11.94	-42.7	-46.1	15.8	0.00e+00	0	40	0	0	57	5213
2026-01-13 09:45:06.74	348.03	11.88	-42.6	-46.0	15.9	0.00e+00	0	40	0	0	57	5113
2026-01-13 09:45:08.02	347.99	11.76	-42.7	-46.1	15.8	0.00e+00	0	40	0	0	57	5217
2026-01-13 09:45:08.73	347.97	11.69	-42.7	-46.2	15.8	0.00e+00	0	40	0	0	57	5238
2026-01-13 09:45:10.01	347.94	11.58	-42.6	-46.2	15.8	0.00e+00	0	40	0	0	57	5226
2026-01-13 09:45:10.73	347.91	11.51	-42.6	-46.2	15.7	0.00e+00	0	40	0	0	57	5268
2026-01-13 09:45:12.01	347.88	11.40	-42.6	-46.1	15.7	0.00e+00	0	40	0	0	57	5214
2026-01-13 09:45:12.72	347.86	11.33	-42.6	-46.2	15.7	0.00e+00	0	40	0	0	57	5252
2026-01-13 09:45:14.00	347.82	11.22	-42.6	-46.1	15.8	0.00e+00	0	40	0	0	57	5207
2026-01-13 09:45:14.71	347.80	11.15	-42.6	-46.2	15.7	0.00e+00	0	40	0	0	57	5220
2026-01-13 09:45:16.00	347.77	11.04	-42.6	-46.2	15.7	0.00e+00	0	40	0	0	57	5232
2026-01-13 09:45:16.70	347.75	10.97	-42.6	-46.2	15.7	0.00e+00	0	40	0	0	57	5257
2026-01-13 09:45:17.98	347.71	10.86	-42.5	-46.1	15.8	0.00e+00	0	40	0	0	57	5173
2026-01-13 09:45:18.71	347.69	10.80	-42.5	-46.1	15.7	0.00e+00	0	40	0	0	57	5190
2026-01-13 09:45:20.13	347.66	10.67	-42.6	-46.2	15.6	0.00e+00	0	40	0	0	57	5255
2026-01-13 09:45:20.84	347.64	10.61	-42.5	-46.1	15.7	0.00e+00	0	40	0	0	57	5216
2026-01-13 09:45:22.18	347.60	10.49	-42.5	-46.2	15.7	0.00e+00	0	40	0	0	56	5556
2026-01-13 09:45:22.89	347.58	10.43	-42.6	-46.3	15.6	0.00e+00	0	40	0	0	56	5596
2026-01-13 09:45:24.25	347.55	10.31	-42.6	-46.2	15.7	0.00e+00	0	40	0	0	56	5536
2026-01-13 09:45:24.96	347.53	10.25	-42.6	-46.2	15.6	0.00e+00	0	40	0	0	56	5558
2026-01-13 09:45:26.27	347.50	10.14	-42.5	-46.1	15.7	0.00e+00	0	40	0	0	56	5508
2026-01-13 09:45:26.98	347.48	10.08	-42.6	-46.2	15.6	0.00e+00	0	40	0	0	56	5580
2026-01-13 09:45:28.26	347.45	9.97	-42.5	-46.2	15.7	0.00e+00	0	40	0	0	56	5530
2026-01-13 09:45:29.27	347.42	9.88	-42.5	-46.1	15.7	0.00e+00	0	40	0	0	56	5511
2026-01-13 09:45:30.55	347.39	9.77	-42.7	-46.3	15.5	0.00e+00	0	40	0	0	56	5635
2026-01-13 09:45:31.29	347.37	9.71	-42.6	-46.2	15.6	0.00e+00	0	40	0	0	56	5584
2026-01-13 09:45:32.57	347.34	9.60	-42.8	-46.4	15.4	0.00e+00	0	40	0	0	56	5694
2026-01-13 09:45:33.28	347.32	9.54	-43.0	-46.4	15.3	0.00e+00	0	40	0	0	56	5709
2026-01-13 09:45:34.56	347.29	9.43	-43.3	-46.5	15.2	0.00e+00	0	40	0	0	57	5462
2026-01-13 09:45:35.27	347.27	9.37	-43.5	-46.6	15.2	0.00e+00	0	40	0	0	57	5497
2026-01-13 09:45:36.55	347.24	9.27	-43.6	-46.7	15.1	0.00e+00	0	40	0	0	57	5551
2026-01-13 09:45:37.26	347.23	9.21	-43.7	-46.7	15.0	0.00e+00	0	40	0	0	58	5260
2026-01-13 09:45:38.54	347.20	9.10	-44.0	-47.0	14.8	0.00e+00	0	40	0	0	58	5430
2026-01-13 09:45:39.25	347.18	9.04	-43.6	-46.4	15.3	0.00e+00	0	40	0	0	58	5081
2026-01-13 09:45:40.53	347.15	8.94	-46.9	-63.1	3.8	1.49e+00	0	40	104	0	64	24535
2026-01-13 09:45:41.25	347.13	8.88	-49.3	-63.3	3.8	1.49e+00	0	40	104	0	69	18905
2026-01-13 09:45:42.57	347.10	8.77	-49.0	-63.6	3.8	1.49e+00	0	40	104	0	69	19440
2026-01-13 09:45:43.28	347.09	8.71	-50.2	-63.6	3.8	1.49e+00	0	40	104	0	71	17414
2026-01-13 09:45:44.65	347.06	8.60	-49.9	-63.7	3.8	1.49e+00	0	40	104	0	70	18643
2026-01-13 09:45:45.36	347.04	8.55	-50.3	-63.8	3.8	1.49e+00	0	40	104	0	71	17698
2026-01-13 09:45:46.70	347.01	8.44	-50.6	-63.8	3.9	1.49e+00	0	40	104	0	72	16698
2026-01-13 09:45:47.41	346.99	8.38	-50.4	-63.7	3.8	1.49e+00	0	40	104	0	72	16674
2026-01-13 09:45:48.74	346.96	8.27	-50.6	-63.8	3.8	1.49e+00	0	40	104	0	72	16736
2026-01-13 09:45:49.45	346.95	8.22	-50.7	-63.8	3.8	1.49e+00	0	40	104	0	72	16788
2026-01-13 09:45:50.82	346.92	8.11	-50.7	-63.8	3.8	1.49e+00	0	40	104	0	72	16804
2026-01-13 09:45:51.53	346.90	8.05	-50.8	-63.8	3.8	1.49e+00	0	40	104	0	72	16827
2026-01-13 09:45:52.84	346.88	7.95	-50.6	-63.8	3.8	1.49e+00	0	40	104	0	72	16830
2026-01-13 09:45:53.55	346.86	7.89	-50.8	-63.8	3.8	1.49e+00	0	40	104	0	72	16842
2026-01-13 09:45:54.83	346.83	7.79	-50.6	-63.8	3.8	1.49e+00	0	40	104	0	72	16850
2026-01-13 09:45:55.55	346.82	7.73	-50.8	-63.8	3.8	1.49e+00	0	40	104	0	72	16823
2026-01-13 09:45:56.83	346.79	7.63	-50.9	-63.8	3.8	1.49e+00	0	40	104	0	72	16879
2026-01-13 09:45:57.54	346.78	7.58	-50.8	-63.8	3.8	1.49e+00	0	40	104	0	72	16882
2026-01-13 09:45:58.83	346.75	7.48	-50.6	-63.9	3.8	1.49e+00	0	40	104	0	72	16923
2026-01-13 09:45:59.54	346.74	7.42	-50.9	-63.9	3.8	1.49e+00	0	40	104	0	72	16894
2026-01-13 09:46:00.82	346.71	7.33	-50.8	-63.9	3.8	1.49e+00	0	40	104	0	72	16909
2026-01-13 09:46:01.54	346.70	7.27	-50.9	-63.9	3.8	1.49e+00	0	40	104	0	72	16924
2026-01-13 09:46:02.82	346.67	7.17	-50.9	-63.9	3.8	1.49e+00	0	40	104	0	72	16926
2026-01-13 09:46:03.53	346.66	7.12	-50.8	-63.9	3.8	1.49e+00	0	40	104	0	72	16926
2026-01-13 09:46:04.80	346.63	7.02	-50.8	-63.9	3.8	1.49e+00	0	40	104	0	72	16898
2026-01-13 09:46:05.52	346.62	6.97	-50.8	-63.8	3.8	1.49e+00	0	40	104	0	72	16871
2026-01-13 09:46:06.79	346.59	6.87	-50.7	-63.8	3.8	1.49e+00	0	40	104	0	72	16874
2026-01-13 09:46:07.50	346.58	6.82	-50.8	-63.9	3.8	1.49e+00	0	40	104	0	72	16920
2026-01-13 09:46:08.78	346.55	6.72	-50.7	-63.8	3.8	1.49e+00	0	40	104	0	72	16779
2026-01-13 09:46:09.52	346.54	6.66	-50.7	-63.8	3.8	1.49e+00	0	40	104	0	72	16797
2026-01-13 09:46:10.80	346.51	6.57	-50.7	-63.8	3.8	1.49e+00	0	40	104	0	72	16826
2026-01-13 09:46:11.51	346.50	6.51	-50.7	-63.8	3.8	1.49e+00	0	40	104	0	72	16825
2026-01-13 09:46:12.78	346.48	6.42	-50.7	-63.8	3.8	1.49e+00	0	40	104	0	72	16755
2026-01-13 09:46:13.51	346.46	6.36	-50.7	-63.8	3.8	1.49e+00	0	40	104	0	72	16783
2026-01-13 09:46:14.78	346.44	6.27	-50.7	-63.8	3.8	1.49e+00	0	40	104	0	72	16768
2026-01-13 09:46:15.49	346.43	6.22	-50.7	-63.8	3.8	1.49e+00	0	40	104	0	72	16790
2026-01-13 09:46:16.77	346.40	6.12	-50.7	-63.8	3.8	1.49e+00	0	40	104	0	72	16784
2026-01-13 09:46:17.48	346.39	6.07	-50.7	-63.8	3.8	1.49e+00	0	40	104	0	72	16764
2026-01-13 09:46:18.76	346.37	5.98	-50.7	-63.8	3.8	1.49e+00	0	40	104	0	72	16817
2026-01-13 09:46:19.47	346.35	5.93	-50.7	-63.8	3.8	1.49e+00	0	40	104	0	72	16767
2026-01-13 09:46:20.74	346.33	5.83	-50.7	-63.8	3.8	1.49e+00	0	40	104	0	72	16777
2026-01-13 09:46:21.47	346.32	5.78	-50.7	-63.8	3.8	1.49e+00	0	40	104	0	72	16781
2026-01-13 09:46:22.75	346.29	5.69	-50.7	-63.8	3.8	1.49e+00	0	40	104	0	72	16752
2026-01-13 09:46:23.46	346.28	5.64	-50.7	-63.8	3.8	1.49e+00	0	40	104	0	72	16760
