passes_logs/2026/01/13/T1/T1__20260113_102401_NOAA_20_JPSS-1_rec.log

#Pass ID: 20260113_102401_NOAA 20 (JPSS-1)
#Satellite: NOAA 20 (JPSS-1)
#Configuration: NOAA 20
#almurnet v.1.7.20251203
#Start time: 2026-01-13 10:24:03

#Version: 2.0.20230620
#Station: T1
#Location: 37.570604 lon 55.790049 lat
#TLE: 1 43013U 17073A   26012.29914746  .00000087  00000+0  62270-4 0  9997
#TLE: 2 43013  98.7632 313.2670 0001616  43.2193 316.9110 14.19535514422351

#Time	Az	El	Level	Level2	SNR	BER	BlckErr	Temp	State	Recorded	gain1	gain2
2026-01-13 10:24:03.67	175.22	5.17	-48.6	-65.8	3.8	1.49e+00	0	40	0	0	69	25078
2026-01-13 10:24:04.66	175.24	5.24	-47.8	-65.3	3.8	1.49e+00	0	40	104	0	66	28184
2026-01-13 10:24:05.65	175.27	5.31	-47.8	-65.3	3.8	1.49e+00	0	40	104	0	66	28234
2026-01-13 10:24:06.64	175.30	5.38	-47.8	-65.3	3.8	1.49e+00	0	40	104	0	66	28351
2026-01-13 10:24:07.64	175.33	5.45	-47.8	-65.4	3.8	1.49e+00	0	40	104	0	66	28544
2026-01-13 10:24:08.63	175.36	5.52	-47.8	-65.4	3.8	1.49e+00	0	40	104	0	66	28604
2026-01-13 10:24:09.62	175.38	5.59	-47.8	-65.4	3.8	1.49e+00	0	40	104	0	66	28640
2026-01-13 10:24:10.62	175.41	5.66	-47.8	-65.4	3.8	1.49e+00	0	40	104	0	66	28632
2026-01-13 10:24:11.61	175.44	5.74	-47.8	-65.4	3.8	1.49e+00	0	40	104	0	66	28652
2026-01-13 10:24:12.60	175.47	5.81	-47.8	-65.5	3.8	1.49e+00	0	40	104	0	66	28835
2026-01-13 10:24:13.59	175.50	5.88	-47.8	-65.5	3.8	1.49e+00	0	40	104	0	66	28729
2026-01-13 10:24:14.59	175.53	5.95	-47.8	-65.4	3.8	1.49e+00	0	40	104	0	66	28663
2026-01-13 10:24:15.58	175.56	6.03	-47.8	-65.4	3.8	1.49e+00	0	40	104	0	66	28556
2026-01-13 10:24:16.57	175.59	6.10	-47.8	-65.3	3.8	1.49e+00	0	40	104	0	66	28146
2026-01-13 10:24:17.57	175.62	6.17	-47.8	-65.1	3.8	1.49e+00	0	40	104	0	66	27451
2026-01-13 10:24:18.56	175.65	6.25	-47.8	-64.8	3.8	1.49e+00	0	40	104	0	66	26685
2026-01-13 10:24:19.55	175.68	6.32	-47.8	-64.5	3.8	1.49e+00	0	40	104	0	66	25799
2026-01-13 10:24:20.55	175.71	6.39	-47.8	-64.2	3.8	1.49e+00	0	41	104	0	66	24775
2026-01-13 10:24:21.54	175.74	6.47	-47.8	-63.9	3.8	1.49e+00	0	40	104	0	66	23932
2026-01-13 10:24:22.53	175.77	6.54	-47.8	-63.7	3.8	1.49e+00	0	40	104	0	66	23556
2026-01-13 10:24:23.53	175.80	6.62	-47.8	-63.8	3.8	1.49e+00	0	41	104	0	66	23829
2026-01-13 10:24:24.52	175.83	6.69	-47.8	-63.9	3.8	1.49e+00	0	41	104	0	66	24001
2026-01-13 10:24:25.51	175.86	6.77	-47.8	-64.3	3.8	1.49e+00	0	41	104	0	66	25203
2026-01-13 10:24:26.51	175.89	6.84	-47.8	-64.9	3.8	1.49e+00	0	41	104	0	66	26949
2026-01-13 10:24:27.50	175.92	6.92	-47.8	-65.3	3.8	1.49e+00	0	41	104	0	66	28332
2026-01-13 10:24:28.50	175.95	6.99	-47.8	-65.3	3.8	1.49e+00	0	41	104	0	66	28181
2026-01-13 10:24:29.49	175.98	7.07	-47.8	-64.3	3.8	1.49e+00	0	41	104	0	66	25189
2026-01-13 10:24:30.48	176.01	7.14	-47.7	-62.4	4.1	1.48e+00	0	41	104	0	66	20085
2026-01-13 10:24:31.47	176.05	7.22	-47.6	-60.1	4.9	1.19e+00	0	41	0	1048576	66	15451
2026-01-13 10:24:32.47	176.08	7.30	-47.4	-58.0	6.3	5.14e-01	0	41	0	2097152	66	12149
2026-01-13 10:24:33.46	176.11	7.37	-47.1	-56.2	7.9	1.10e-01	0	41	0	4194304	66	9870
2026-01-13 10:24:34.46	176.14	7.45	-46.8	-54.7	9.4	2.77e-02	0	41	0	6291456	65	8777
2026-01-13 10:24:35.45	176.17	7.53	-46.5	-53.5	10.7	7.89e-03	0	41	0	8388608	65	7647
2026-01-13 10:24:36.44	176.21	7.60	-46.2	-52.4	11.8	1.64e-03	0	41	0	9437184	64	7201
2026-01-13 10:24:37.44	176.24	7.68	-46.0	-51.8	12.5	1.67e-04	0	41	0	11534336	63	7076
2026-01-13 10:24:38.43	176.27	7.76	-45.8	-51.3	13.0	4.19e-05	0	41	0	13631488	63	6704
2026-01-13 10:24:39.42	176.30	7.84	-45.6	-50.7	13.6	2.67e-05	0	41	0	15728640	63	6260
2026-01-13 10:24:40.42	176.34	7.92	-45.5	-50.6	13.7	6.10e-06	0	41	0	17825792	63	6202
2026-01-13 10:24:41.41	176.37	7.99	-45.5	-50.6	13.8	3.00e-06	0	41	0	18874368	63	6153
2026-01-13 10:24:42.40	176.40	8.07	-45.6	-50.8	13.5	4.50e-06	0	41	0	20971520	62	6708
2026-01-13 10:24:43.40	176.44	8.15	-45.7	-51.1	13.3	1.75e-05	0	41	0	23068672	62	6886
2026-01-13 10:24:44.39	176.47	8.23	-45.8	-51.3	13.0	3.05e-05	0	41	0	25165824	62	7113
2026-01-13 10:24:45.38	176.50	8.31	-46.1	-52.1	12.2	1.52e-04	0	41	0	26214400	62	7768
2026-01-13 10:24:46.38	176.54	8.39	-46.4	-52.9	11.4	4.39e-04	0	41	0	28311552	63	8056
2026-01-13 10:24:47.37	176.57	8.47	-46.6	-53.9	10.4	3.82e-03	0	41	0	30408704	63	9038
2026-01-13 10:24:48.36	176.61	8.55	-46.8	-55.0	9.1	1.37e-02	0	41	0	32505856	64	9685
2026-01-13 10:24:49.36	176.64	8.63	-47.0	-56.3	7.9	4.76e-02	0	41	0	33554432	64	11173
2026-01-13 10:24:50.35	176.67	8.71	-47.3	-58.1	6.3	1.29e-01	0	41	0	35651584	65	12967
2026-01-13 10:24:51.34	176.71	8.79	-47.5	-59.7	5.1	5.22e-01	0	41	0	37748736	65	15599
2026-01-13 10:24:52.34	176.74	8.87	-47.6	-61.1	4.5	8.85e-01	0	41	0	39845888	65	18451
2026-01-13 10:24:53.33	176.78	8.95	-47.7	-62.8	4.0	1.40e+00	0	41	0	39845888	66	21182
2026-01-13 10:24:54.32	176.81	9.04	-47.9	-62.8	3.9	1.49e+00	0	42	104	39845888	66	21209
2026-01-13 10:24:55.32	176.85	9.12	-47.9	-56.0	8.1	6.51e-02	0	41	0	40894464	67	9113
2026-01-13 10:24:56.31	176.89	9.20	-48.3	-58.0	6.5	3.00e-02	0	42	0	41943040	67	11483
2026-01-13 10:24:57.31	176.92	9.28	-47.7	-65.3	3.8	1.49e+00	0	41	104	42991616	66	28250
2026-01-13 10:24:58.30	176.96	9.37	-48.0	-56.1	8.0	7.99e-01	0	42	0	42991616	67	9248
2026-01-13 10:24:59.30	176.99	9.45	-48.1	-56.0	8.2	4.25e-02	0	42	0	45088768	67	9104
2026-01-13 10:25:00.29	177.03	9.53	-48.0	-55.6	8.6	3.25e-02	0	41	0	47185920	67	8691
2026-01-13 10:25:01.33	177.07	9.62	-48.1	-55.9	8.2	3.46e-02	0	41	0	49283072	67	9064
2026-01-13 10:25:02.36	177.11	9.71	-48.0	-55.9	8.2	3.69e-02	0	41	0	51380224	67	8997
2026-01-13 10:25:03.35	177.14	9.79	-47.6	-54.5	9.7	1.82e-02	0	41	0	52428800	67	7687
2026-01-13 10:25:04.44	177.18	9.88	-47.7	-54.3	9.8	1.08e-02	0	41	0	54525952	67	7491
2026-01-13 10:25:05.33	177.22	9.96	-47.5	-53.9	10.4	6.03e-03	0	41	0	56623104	66	7566
2026-01-13 10:25:06.47	177.26	10.06	-47.6	-54.2	10.0	6.34e-03	0	41	0	58720256	66	7867
2026-01-13 10:25:07.32	177.29	10.13	-47.2	-53.4	10.8	4.83e-03	0	42	0	59768832	66	7173
2026-01-13 10:25:08.46	177.34	10.23	-46.7	-52.3	12.0	5.54e-04	0	42	0	61865984	65	6656
2026-01-13 10:25:09.31	177.37	10.30	-46.3	-51.4	12.9	8.01e-05	0	42	0	63963136	64	6395
2026-01-13 10:25:10.45	177.41	10.40	-45.7	-50.4	14.0	8.30e-06	0	42	0	66060288	63	6030
2026-01-13 10:25:11.30	177.45	10.47	-45.6	-50.1	14.4	7.00e-07	0	42	0	68157440	63	5800
2026-01-13 10:25:12.43	177.49	10.57	-45.5	-49.8	14.7	0.00e+00	0	42	0	70254592	62	5951
2026-01-13 10:25:13.29	177.53	10.65	-45.5	-49.7	14.8	0.00e+00	0	42	0	71303168	62	5891
2026-01-13 10:25:14.42	177.57	10.75	-45.6	-49.9	14.6	0.00e+00	0	42	0	73400320	62	6025
2026-01-13 10:25:15.28	177.60	10.82	-45.7	-49.9	14.6	6.45e-04	0	42	0	75497472	62	6004
2026-01-13 10:25:16.41	177.65	10.92	-45.7	-49.8	14.6	7.00e-07	0	42	0	77594624	62	5972
2026-01-13 10:25:17.27	177.68	11.00	-45.6	-49.5	15.0	0.00e+00	0	42	0	78643200	62	5728
2026-01-13 10:25:18.40	177.73	11.10	-45.6	-49.4	15.0	1.33e-03	0	42	0	80740352	62	5694
2026-01-13 10:25:19.25	177.76	11.18	-45.6	-49.2	15.2	0.00e+00	0	42	0	82837504	62	5586
2026-01-13 10:25:20.39	177.81	11.28	-45.7	-49.2	15.2	0.00e+00	0	42	0	84934656	62	5585
2026-01-13 10:25:21.24	177.85	11.36	-45.6	-49.1	15.3	0.00e+00	0	42	0	85983232	62	5519
2026-01-13 10:25:22.38	177.89	11.46	-45.7	-49.2	15.2	0.00e+00	0	42	0	88080384	62	5589
2026-01-13 10:25:23.23	177.93	11.54	-45.7	-49.1	15.3	0.00e+00	0	42	0	90177536	62	5514
2026-01-13 10:25:24.37	177.98	11.64	-45.8	-49.2	15.3	0.00e+00	0	42	0	92274688	62	5565
2026-01-13 10:25:25.30	178.02	11.72	-45.7	-49.2	15.3	0.00e+00	0	42	0	94371840	62	5554
2026-01-13 10:25:26.47	178.07	11.83	-45.8	-49.2	15.3	0.00e+00	0	42	0	96468992	62	5569
2026-01-13 10:25:27.33	178.10	11.91	-45.8	-49.3	15.2	0.00e+00	0	42	0	97517568	62	5605
2026-01-13 10:25:28.69	178.16	12.04	-45.8	-49.2	15.3	0.00e+00	0	42	0	100663296	62	5584
2026-01-13 10:25:29.40	178.19	12.10	-45.8	-49.3	15.2	0.00e+00	0	42	0	101711872	62	5642
2026-01-13 10:25:30.68	178.25	12.22	-45.9	-49.4	15.1	0.00e+00	0	42	0	103809024	62	5671
2026-01-13 10:25:31.42	178.28	12.29	-45.8	-49.2	15.3	0.00e+00	0	42	0	105906176	62	5585
2026-01-13 10:25:32.70	178.34	12.41	-45.8	-49.3	15.2	0.00e+00	0	42	0	108003328	62	5646
2026-01-13 10:25:33.41	178.37	12.48	-45.8	-49.3	15.2	1.50e-06	0	42	0	109051904	62	5648
2026-01-13 10:25:34.69	178.42	12.60	-45.6	-49.1	15.5	0.00e+00	0	42	0	111149056	62	5476
2026-01-13 10:25:35.46	178.46	12.67	-45.7	-49.1	15.4	0.00e+00	0	42	0	113246208	62	5503
2026-01-13 10:25:36.74	178.52	12.79	-45.7	-49.2	15.4	0.00e+00	0	42	0	115343360	62	5532
2026-01-13 10:25:37.46	178.55	12.86	-45.6	-49.0	15.5	0.00e+00	0	42	0	116391936	62	5461
2026-01-13 10:25:38.74	178.61	12.99	-45.6	-49.1	15.5	0.00e+00	0	42	0	119537664	62	5483
2026-01-13 10:25:39.45	178.64	13.05	-45.6	-49.0	15.6	0.00e+00	0	42	0	120586240	62	5420
2026-01-13 10:25:40.73	178.70	13.18	-45.7	-49.1	15.5	0.00e+00	0	42	0	122683392	62	5468
2026-01-13 10:25:41.45	178.73	13.25	-45.6	-49.0	15.5	0.00e+00	0	42	0	123731968	62	5443
2026-01-13 10:25:42.72	178.79	13.37	-45.7	-49.0	15.5	0.00e+00	0	42	0	126877696	62	5461
2026-01-13 10:25:43.70	178.84	13.47	-45.7	-49.0	15.5	0.00e+00	0	42	0	127926272	62	5450
2026-01-13 10:25:44.98	178.90	13.59	-45.7	-49.0	15.6	0.00e+00	0	42	0	131072000	62	5449
2026-01-13 10:25:45.72	178.93	13.67	-45.7	-49.0	15.5	7.00e-07	0	42	0	132120576	62	5452
2026-01-13 10:25:47.00	178.99	13.79	-45.7	-49.0	15.6	0.00e+00	0	42	0	134217728	62	5451
2026-01-13 10:25:47.71	179.03	13.86	-45.6	-49.0	15.6	0.00e+00	0	42	0	136314880	62	5436
2026-01-13 10:25:48.99	179.09	13.99	-45.7	-49.1	15.5	0.00e+00	0	42	0	138412032	62	5491
2026-01-13 10:25:49.70	179.13	14.06	-45.7	-49.2	15.4	1.46e-04	0	42	0	139460608	62	5537
2026-01-13 10:25:50.99	179.19	14.19	-45.7	-49.1	15.5	0.00e+00	0	42	0	142606336	62	5475
2026-01-13 10:25:51.70	179.22	14.26	-45.7	-49.1	15.5	0.00e+00	0	42	0	143654912	62	5513
2026-01-13 10:25:52.98	179.29	14.39	-45.8	-49.2	15.4	0.00e+00	0	42	0	145752064	62	5573
2026-01-13 10:25:53.69	179.32	14.47	-45.8	-49.3	15.3	0.00e+00	0	42	0	146800640	62	5618
2026-01-13 10:25:54.97	179.39	14.60	-45.8	-49.3	15.3	0.00e+00	0	42	0	149946368	62	5622
2026-01-13 10:25:55.68	179.42	14.67	-45.8	-49.3	15.3	0.00e+00	0	42	0	150994944	62	5616
2026-01-13 10:25:56.96	179.49	14.80	-45.9	-49.4	15.2	0.00e+00	0	42	0	153092096	62	5665
2026-01-13 10:25:57.68	179.53	14.88	-46.0	-49.5	15.1	0.00e+00	0	42	0	155189248	62	5760
2026-01-13 10:25:58.96	179.59	15.01	-45.9	-49.3	15.3	0.00e+00	0	42	0	157286400	62	5628
2026-01-13 10:25:59.67	179.63	15.08	-45.9	-49.3	15.3	0.00e+00	0	42	0	158334976	62	5644
2026-01-13 10:26:01.23	179.71	15.25	-45.9	-49.3	15.3	2.22e-04	0	42	0	161480704	62	5642
2026-01-13 10:26:02.13	179.76	15.34	-45.8	-49.3	15.4	0.00e+00	0	42	0	162529280	62	5601
2026-01-13 10:26:03.22	179.82	15.46	-45.9	-49.3	15.3	0.00e+00	0	42	0	164626432	62	5650
2026-01-13 10:26:04.07	179.86	15.55	-45.9	-49.4	15.2	1.60e-05	0	42	0	166723584	62	5702
2026-01-13 10:26:05.21	179.92	15.67	-45.9	-49.4	15.3	0.00e+00	0	42	0	168820736	62	5664
2026-01-13 10:26:06.06	179.97	15.76	-45.9	-49.3	15.3	0.00e+00	0	42	0	169869312	62	5642
2026-01-13 10:26:07.20	180.03	15.88	-45.9	-49.3	15.3	0.00e+00	0	42	0	171966464	62	5608
2026-01-13 10:26:08.05	180.08	15.98	-45.9	-49.3	15.4	0.00e+00	0	42	0	174063616	62	5598
2026-01-13 10:26:09.19	180.14	16.10	-45.9	-49.2	15.4	0.00e+00	0	42	0	176160768	62	5576
2026-01-13 10:26:10.05	180.19	16.19	-45.9	-49.2	15.4	0.00e+00	0	42	0	178257920	62	5583
2026-01-13 10:26:11.18	180.25	16.32	-45.9	-49.2	15.4	0.00e+00	0	42	0	180355072	62	5580
2026-01-13 10:26:12.11	180.31	16.42	-46.0	-49.3	15.3	0.00e+00	0	42	0	181403648	62	5624
2026-01-13 10:26:13.11	180.36	16.53	-46.0	-49.3	15.3	0.00e+00	0	42	0	183500800	62	5605
2026-01-13 10:26:14.10	180.42	16.64	-45.9	-49.2	15.4	0.00e+00	0	42	0	185597952	62	5567
2026-01-13 10:26:15.43	180.50	16.79	-45.9	-49.2	15.4	4.74e-04	0	42	0	187695104	62	5583
2026-01-13 10:26:16.17	180.54	16.87	-45.9	-49.2	15.4	0.00e+00	0	42	0	189792256	62	5535
2026-01-13 10:26:17.45	180.62	17.01	-46.0	-49.2	15.4	0.00e+00	0	42	0	191889408	62	5590
2026-01-13 10:26:18.16	180.66	17.09	-46.0	-49.3	15.4	0.00e+00	0	42	0	192937984	62	5613
2026-01-13 10:26:19.44	180.73	17.24	-46.0	-49.2	15.4	0.00e+00	0	42	0	195035136	62	5589
2026-01-13 10:26:20.18	180.78	17.32	-46.0	-49.2	15.4	0.00e+00	0	42	0	197132288	62	5556
2026-01-13 10:26:21.47	180.86	17.47	-46.0	-49.3	15.4	5.56e-05	0	42	0	199229440	62	5595
2026-01-13 10:26:22.18	180.90	17.55	-46.0	-49.2	15.4	0.00e+00	0	42	0	200278016	62	5579
2026-01-13 10:26:23.46	180.98	17.70	-46.0	-49.2	15.4	0.00e+00	0	42	0	203423744	62	5586
2026-01-13 10:26:24.18	181.02	17.78	-46.0	-49.2	15.4	1.75e-04	0	42	0	204472320	62	5583
2026-01-13 10:26:25.46	181.10	17.93	-46.0	-49.2	15.5	0.00e+00	0	42	0	206569472	62	5563
2026-01-13 10:26:26.17	181.15	18.02	-46.0	-49.2	15.4	0.00e+00	0	42	0	207618048	62	5580
2026-01-13 10:26:27.45	181.23	18.17	-46.0	-49.3	15.4	0.00e+00	0	42	0	210763776	62	5629
2026-01-13 10:26:28.16	181.27	18.25	-46.0	-49.3	15.4	0.00e+00	0	42	0	211812352	62	5632
2026-01-13 10:26:29.44	181.35	18.40	-46.1	-49.4	15.2	0.00e+00	0	42	0	213909504	62	5722
2026-01-13 10:26:30.15	181.40	18.49	-46.0	-49.4	15.2	0.00e+00	0	42	0	216006656	62	5705
2026-01-13 10:26:31.43	181.48	18.64	-46.0	-49.4	15.3	0.00e+00	0	42	0	218103808	62	5702
2026-01-13 10:26:32.16	181.53	18.73	-46.0	-49.5	15.2	0.00e+00	0	42	0	219152384	62	5747
2026-01-13 10:26:33.44	181.62	18.88	-45.9	-49.4	15.3	0.00e+00	0	42	0	221249536	62	5681
2026-01-13 10:26:34.15	181.66	18.97	-45.9	-49.4	15.4	0.00e+00	0	42	0	223346688	62	5659
2026-01-13 10:26:35.71	181.77	19.16	-45.9	-49.3	15.4	9.38e-05	0	42	0	225443840	62	5630
2026-01-13 10:26:36.34	181.81	19.24	-45.9	-49.4	15.3	0.00e+00	0	42	0	227540992	62	5661
2026-01-13 10:26:37.83	181.91	19.42	-45.8	-49.3	15.4	0.00e+00	0	42	0	229638144	62	5636
2026-01-13 10:26:38.54	181.96	19.51	-45.8	-49.3	15.4	0.00e+00	0	42	0	231735296	62	5634
2026-01-13 10:26:39.82	182.05	19.67	-45.9	-49.3	15.4	0.00e+00	0	42	0	233832448	62	5646
2026-01-13 10:26:40.53	182.10	19.76	-45.9	-49.3	15.4	0.00e+00	0	42	0	234881024	62	5641
2026-01-13 10:26:41.81	182.19	19.92	-46.0	-49.4	15.3	0.00e+00	0	42	0	236978176	62	5676
2026-01-13 10:26:42.54	182.24	20.01	-46.0	-49.4	15.3	0.00e+00	0	42	0	239075328	62	5686
2026-01-13 10:26:43.82	182.33	20.17	-46.0	-49.4	15.3	0.00e+00	0	42	0	241172480	62	5682
2026-01-13 10:26:44.54	182.38	20.26	-46.1	-49.5	15.2	0.00e+00	0	42	0	242221056	62	5766
2026-01-13 10:26:45.82	182.48	20.43	-46.1	-49.5	15.2	0.00e+00	0	42	0	245366784	62	5781
2026-01-13 10:26:46.53	182.53	20.52	-46.1	-49.5	15.2	0.00e+00	0	42	0	246415360	62	5771
2026-01-13 10:26:47.81	182.62	20.68	-46.1	-49.6	15.2	0.00e+00	0	42	0	248512512	62	5819
2026-01-13 10:26:48.54	182.68	20.78	-46.1	-49.6	15.1	0.00e+00	0	42	0	249561088	62	5827
2026-01-13 10:26:49.81	182.77	20.94	-46.2	-49.7	15.1	7.00e-07	0	42	0	252706816	63	5541
2026-01-13 10:26:50.57	182.83	21.04	-46.2	-49.7	15.1	0.00e+00	0	42	0	253755392	63	5536
2026-01-13 10:26:51.86	182.93	21.21	-46.1	-49.6	15.2	0.00e+00	0	42	0	255852544	63	5482
2026-01-13 10:26:52.58	182.98	21.31	-46.1	-49.6	15.1	0.00e+00	0	42	0	257949696	63	5500
2026-01-13 10:26:53.86	183.08	21.48	-46.1	-49.6	15.2	0.00e+00	0	42	0	260046848	63	5485
2026-01-13 10:26:54.58	183.14	21.58	-46.1	-49.6	15.2	0.00e+00	0	42	0	261095424	63	5488
2026-01-13 10:26:55.86	183.24	21.75	-46.1	-49.5	15.3	0.00e+00	0	42	0	263192576	63	5418
2026-01-13 10:26:56.59	183.30	21.85	-46.1	-49.5	15.3	0.00e+00	0	42	0	265289728	63	5433
2026-01-13 10:26:57.87	183.40	22.02	-46.0	-49.3	15.4	0.00e+00	0	42	0	267386880	63	5297
2026-01-13 10:26:58.58	183.46	22.12	-46.0	-49.2	15.6	0.00e+00	0	42	0	268435456	63	5230
2026-01-13 10:26:59.86	183.56	22.29	-45.9	-49.0	15.7	0.00e+00	0	42	0	271581184	63	5159
2026-01-13 10:27:00.57	183.62	22.39	-45.9	-49.1	15.7	0.00e+00	0	42	0	272629760	63	5174
2026-01-13 10:27:01.85	183.72	22.57	-45.8	-48.9	15.9	0.00e+00	0	42	0	274726912	63	5048
2026-01-13 10:27:02.57	183.79	22.67	-45.8	-48.9	15.8	0.00e+00	0	42	0	275775488	63	5074
2026-01-13 10:27:03.85	183.89	22.85	-45.7	-48.8	16.0	0.00e+00	0	42	0	278921216	63	5008
2026-01-13 10:27:04.56	183.95	22.95	-45.7	-48.8	16.0	0.00e+00	0	42	0	279969792	63	5002
2026-01-13 10:27:05.84	184.06	23.13	-45.6	-48.7	16.1	0.00e+00	0	42	0	282066944	63	4935
2026-01-13 10:27:06.56	184.13	23.23	-45.7	-48.7	16.0	0.00e+00	0	42	0	284164096	63	4968
2026-01-13 10:27:07.84	184.24	23.41	-45.5	-48.5	16.2	0.00e+00	0	42	0	286261248	63	4868
2026-01-13 10:27:08.58	184.30	23.52	-45.5	-48.6	16.2	0.00e+00	0	42	0	287309824	63	4879
2026-01-13 10:27:09.86	184.42	23.70	-45.6	-48.7	16.1	0.00e+00	0	42	0	290455552	63	4938
2026-01-13 10:27:10.58	184.48	23.81	-45.5	-48.5	16.3	0.00e+00	0	43	0	291504128	62	5123
2026-01-13 10:27:11.85	184.59	23.99	-45.5	-48.6	16.2	0.00e+00	0	42	0	293601280	62	5170
2026-01-13 10:27:12.71	184.67	24.12	-45.3	-48.3	16.4	0.00e+00	0	42	0	295698432	62	5023
2026-01-13 10:27:14.14	184.80	24.33	-45.3	-48.3	16.4	0.00e+00	0	42	0	297795584	62	5008
2026-01-13 10:27:14.86	184.87	24.44	-45.3	-48.3	16.5	0.00e+00	0	42	0	298844160	62	4992
2026-01-13 10:27:16.14	184.99	24.63	-45.4	-48.4	16.3	0.00e+00	0	42	0	301989888	62	5074
2026-01-13 10:27:16.85	185.06	24.73	-45.4	-48.4	16.4	0.00e+00	0	42	0	303038464	62	5060
2026-01-13 10:27:18.13	185.18	24.93	-45.5	-48.4	16.3	0.00e+00	0	42	0	305135616	62	5094
2026-01-13 10:27:18.85	185.25	25.03	-45.3	-48.2	16.5	0.00e+00	0	42	0	307232768	62	4954
2026-01-13 10:27:20.13	185.38	25.23	-45.2	-48.1	16.6	0.00e+00	0	42	0	309329920	62	4921
2026-01-13 10:27:20.87	185.45	25.34	-45.3	-48.2	16.5	0.00e+00	0	42	0	310378496	62	4976
2026-01-13 10:27:22.15	185.58	25.54	-45.2	-48.1	16.7	0.00e+00	0	42	0	313524224	62	4903
2026-01-13 10:27:22.88	185.65	25.65	-45.1	-48.0	16.7	0.00e+00	0	42	0	314572800	62	4834
2026-01-13 10:27:24.15	185.78	25.85	-45.0	-47.8	16.9	0.00e+00	0	42	0	316669952	62	4755
2026-01-13 10:27:24.87	185.85	25.96	-44.9	-47.7	17.0	0.00e+00	0	42	0	317718528	61	4969
2026-01-13 10:27:26.14	185.98	26.16	-44.9	-47.6	17.1	0.00e+00	0	42	0	320864256	61	4905
2026-01-13 10:27:27.11	186.08	26.31	-44.9	-47.7	17.1	0.00e+00	0	42	0	321912832	61	4930
2026-01-13 10:27:28.10	186.19	26.47	-45.0	-47.7	17.0	0.00e+00	0	42	0	324009984	61	4946
2026-01-13 10:27:29.10	186.29	26.63	-45.0	-47.7	17.0	0.00e+00	0	42	0	326107136	61	4954
2026-01-13 10:27:30.09	186.40	26.79	-45.0	-47.7	17.0	0.00e+00	0	42	0	328204288	61	4955
2026-01-13 10:27:31.09	186.51	26.95	-45.0	-47.7	17.0	0.00e+00	0	42	0	330301440	61	4983
2026-01-13 10:27:32.08	186.62	27.11	-45.1	-47.8	16.9	0.00e+00	0	42	0	331350016	61	5041
2026-01-13 10:27:33.07	186.72	27.27	-45.2	-48.0	16.8	0.00e+00	0	42	0	333447168	61	5127
2026-01-13 10:27:34.07	186.84	27.44	-45.2	-48.0	16.8	0.00e+00	0	42	0	335544320	61	5131
2026-01-13 10:27:35.06	186.95	27.60	-45.4	-48.3	16.5	0.00e+00	0	42	0	337641472	61	5290
2026-01-13 10:27:36.06	187.06	27.76	-45.5	-48.4	16.4	0.00e+00	0	42	0	338690048	61	5385
2026-01-13 10:27:37.05	187.17	27.93	-45.6	-48.6	16.2	0.00e+00	0	42	0	340787200	61	5513
2026-01-13 10:27:38.05	187.29	28.10	-45.7	-48.7	16.1	0.00e+00	0	42	0	342884352	61	5555
2026-01-13 10:27:39.05	187.41	28.26	-45.7	-48.7	16.1	0.00e+00	0	42	0	344981504	62	5260
2026-01-13 10:27:40.04	187.52	28.43	-45.8	-48.9	15.9	0.00e+00	0	43	0	347078656	62	5368
2026-01-13 10:27:41.03	187.64	28.60	-45.9	-49.0	15.9	0.00e+00	0	42	0	348127232	62	5431
2026-01-13 10:27:42.03	187.76	28.77	-45.9	-49.0	15.8	0.00e+00	0	43	0	350224384	62	5431
2026-01-13 10:27:43.02	187.88	28.94	-46.1	-49.2	15.7	0.00e+00	0	43	0	352321536	62	5562
2026-01-13 10:27:44.01	188.01	29.11	-46.0	-49.2	15.7	0.00e+00	0	43	0	354418688	62	5554
2026-01-13 10:27:45.01	188.13	29.28	-46.1	-49.3	15.6	0.00e+00	0	43	0	355467264	62	5600
2026-01-13 10:27:46.00	188.26	29.46	-46.1	-49.3	15.5	0.00e+00	0	42	0	357564416	62	5640
2026-01-13 10:27:47.00	188.38	29.63	-46.3	-49.5	15.3	0.00e+00	0	43	0	359661568	63	5443
2026-01-13 10:27:47.99	188.51	29.81	-46.4	-49.6	15.2	0.00e+00	0	42	0	361758720	63	5515
2026-01-13 10:27:48.99	188.64	29.98	-46.4	-49.7	15.1	0.00e+00	0	42	0	363855872	63	5584
2026-01-13 10:27:49.98	188.77	30.16	-46.5	-49.8	15.0	0.00e+00	0	42	0	364904448	63	5638
2026-01-13 10:27:50.98	188.90	30.34	-46.5	-49.9	15.0	0.00e+00	0	42	0	367001600	63	5667
2026-01-13 10:27:51.97	189.04	30.52	-46.6	-50.0	14.9	7.00e-07	0	42	0	369098752	63	5739
2026-01-13 10:27:52.97	189.17	30.70	-46.6	-50.0	14.8	0.00e+00	0	43	0	371195904	64	5447
2026-01-13 10:27:53.96	189.31	30.88	-46.8	-50.3	14.5	1.50e-06	0	43	0	372244480	64	5612
2026-01-13 10:27:54.95	189.44	31.06	-47.0	-50.6	14.2	2.20e-06	0	43	0	374341632	64	5799
2026-01-13 10:27:55.95	189.58	31.25	-47.1	-50.8	14.0	3.00e-06	0	43	0	376438784	64	5931
2026-01-13 10:27:56.94	189.72	31.43	-47.2	-50.9	13.9	5.30e-06	0	42	0	378535936	64	5998
2026-01-13 10:27:57.93	189.87	31.61	-47.3	-51.1	13.7	7.60e-06	0	42	0	380633088	65	5800
2026-01-13 10:27:58.93	190.01	31.80	-47.2	-51.0	13.8	2.20e-06	0	42	0	381681664	65	5746
2026-01-13 10:27:59.92	190.16	31.99	-47.3	-51.2	13.6	5.30e-06	0	42	0	383778816	65	5873
2026-01-13 10:28:00.92	190.30	32.17	-47.5	-51.4	13.4	1.29e-05	0	42	0	385875968	65	6057
2026-01-13 10:28:01.91	190.45	32.36	-47.5	-51.6	13.2	1.37e-05	0	43	0	387973120	65	6140
2026-01-13 10:28:02.91	190.60	32.55	-47.6	-51.7	13.1	2.82e-05	0	42	0	389021696	65	6245
2026-01-13 10:28:03.94	190.76	32.75	-47.6	-51.7	13.1	3.05e-05	0	42	0	391118848	65	6245
2026-01-13 10:28:04.96	190.92	32.95	-47.6	-51.6	13.2	2.59e-05	0	42	0	393216000	65	6199
2026-01-13 10:28:05.99	191.08	33.15	-47.6	-51.6	13.2	2.36e-05	0	42	0	395313152	65	6196
2026-01-13 10:28:06.98	191.24	33.34	-47.4	-51.4	13.4	1.60e-05	0	42	0	397410304	65	5997
2026-01-13 10:28:07.98	191.40	33.54	-47.5	-51.5	13.3	1.06e-05	0	42	0	399507456	65	6097
2026-01-13 10:28:08.97	191.56	33.73	-47.4	-51.4	13.4	8.30e-06	0	42	0	400556032	65	6045
2026-01-13 10:28:09.97	191.73	33.93	-47.4	-51.5	13.3	1.67e-05	0	42	0	402653184	65	6067
2026-01-13 10:28:10.96	191.89	34.13	-47.5	-51.5	13.3	1.67e-05	0	42	0	404750336	65	6122
2026-01-13 10:28:11.96	192.06	34.33	-47.4	-51.5	13.3	2.05e-05	0	42	0	406847488	65	6062
2026-01-13 10:28:12.95	192.23	34.53	-47.4	-51.6	13.3	1.98e-05	0	43	0	407896064	65	6133
2026-01-13 10:28:13.95	192.40	34.73	-47.5	-51.6	13.2	2.05e-05	0	43	0	409993216	65	6184
2026-01-13 10:28:14.95	192.58	34.93	-47.5	-51.6	13.2	2.97e-05	0	42	0	412090368	65	6165
2026-01-13 10:28:15.94	192.75	35.13	-47.6	-51.6	13.2	2.51e-05	0	43	0	414187520	65	6172
2026-01-13 10:28:16.93	192.93	35.34	-47.6	-51.6	13.2	1.98e-05	0	43	0	416284672	65	6198
2026-01-13 10:28:17.93	193.11	35.54	-47.6	-51.7	13.1	2.44e-05	0	42	0	417333248	65	6231
2026-01-13 10:28:18.92	193.29	35.75	-47.7	-51.9	12.9	2.67e-05	0	42	0	419430400	66	6026
2026-01-13 10:28:19.92	193.48	35.96	-47.7	-51.8	13.0	4.50e-05	0	43	0	421527552	66	5986
2026-01-13 10:28:20.96	193.67	36.17	-47.7	-51.9	13.0	4.11e-05	0	43	0	423624704	66	6013
2026-01-13 10:28:21.91	193.85	36.37	-47.8	-52.0	12.9	3.50e-05	0	43	0	424673280	66	6085
2026-01-13 10:28:22.90	194.04	36.58	-47.6	-51.7	13.1	3.50e-05	0	42	0	426770432	66	5880
2026-01-13 10:28:23.90	194.24	36.80	-47.7	-51.7	13.1	2.89e-05	0	43	0	428867584	66	5902
2026-01-13 10:28:24.90	194.44	37.01	-47.5	-51.5	13.3	2.36e-05	0	42	0	430964736	66	5745
2026-01-13 10:28:25.89	194.63	37.22	-47.6	-51.5	13.3	1.75e-05	0	42	0	433061888	66	5786
2026-01-13 10:28:26.88	194.84	37.43	-47.6	-51.6	13.2	2.51e-05	0	42	0	434110464	66	5835
2026-01-13 10:28:27.88	195.04	37.65	-47.6	-51.7	13.2	1.83e-05	0	42	0	436207616	66	5859
2026-01-13 10:28:28.88	195.25	37.87	-47.6	-51.7	13.2	2.28e-05	0	42	0	438304768	66	5874
2026-01-13 10:28:29.87	195.46	38.08	-47.5	-51.5	13.3	2.67e-05	0	43	0	440401920	66	5772
2026-01-13 10:28:30.86	195.67	38.30	-47.4	-51.4	13.5	1.90e-05	0	43	0	441450496	66	5674
2026-01-13 10:28:31.86	195.89	38.52	-47.4	-51.3	13.6	6.10e-06	0	43	0	443547648	66	5605
2026-01-13 10:28:32.85	196.10	38.74	-47.3	-51.1	13.7	6.10e-06	0	43	0	445644800	66	5528
2026-01-13 10:28:33.85	196.33	38.96	-47.2	-51.1	13.8	7.00e-07	0	42	0	447741952	66	5469
2026-01-13 10:28:34.86	196.55	39.19	-47.3	-51.2	13.7	4.50e-06	0	42	0	449839104	66	5535
2026-01-13 10:28:35.88	196.79	39.42	-47.3	-51.2	13.6	1.06e-05	0	42	0	450887680	66	5561
2026-01-13 10:28:36.88	197.02	39.64	-47.4	-51.4	13.5	7.60e-06	0	43	0	452984832	66	5662
2026-01-13 10:28:37.94	197.27	39.88	-47.2	-51.0	13.9	6.80e-06	0	43	0	455081984	66	5438
2026-01-13 10:28:38.82	197.48	40.08	-47.3	-51.1	13.8	4.50e-06	0	43	0	457179136	66	5470
2026-01-13 10:28:39.96	197.75	40.34	-47.1	-50.8	14.1	3.80e-06	0	42	0	459276288	66	5303
2026-01-13 10:28:40.81	197.96	40.54	-47.1	-50.7	14.1	7.00e-07	0	43	0	460324864	66	5275
2026-01-13 10:28:41.95	198.24	40.80	-46.9	-50.5	14.4	1.50e-06	0	42	0	462422016	65	5406
2026-01-13 10:28:42.81	198.46	41.00	-46.8	-50.2	14.6	7.00e-07	0	42	0	464519168	65	5274
2026-01-13 10:28:43.94	198.75	41.26	-46.7	-50.1	14.7	0.00e+00	0	42	0	466616320	65	5216
2026-01-13 10:28:44.79	198.97	41.46	-46.6	-49.9	14.8	0.00e+00	0	42	0	467664896	65	5089
2026-01-13 10:28:45.93	199.27	41.72	-46.3	-49.5	15.3	0.00e+00	0	42	0	469762048	64	5155
2026-01-13 10:28:46.78	199.49	41.92	-46.4	-49.7	15.2	0.00e+00	0	42	0	471859200	64	5241
2026-01-13 10:28:47.92	199.80	42.19	-46.5	-49.7	15.1	7.00e-07	0	43	0	473956352	64	5271
2026-01-13 10:28:48.77	200.03	42.39	-46.6	-49.9	14.9	0.00e+00	0	43	0	475004928	64	5394
2026-01-13 10:28:49.91	200.35	42.66	-46.8	-50.3	14.5	7.00e-07	0	42	0	477102080	64	5610
2026-01-13 10:28:50.76	200.59	42.86	-46.8	-50.3	14.5	0.00e+00	0	43	0	479199232	64	5627
2026-01-13 10:28:51.90	200.92	43.13	-46.7	-50.2	14.7	7.00e-07	0	42	0	481296384	64	5577
2026-01-13 10:28:52.78	201.17	43.34	-46.7	-50.1	14.8	0.00e+00	0	42	0	483393536	64	5503
2026-01-13 10:28:54.09	201.56	43.65	-46.4	-49.7	15.1	0.00e+00	0	42	0	485490688	64	5260
2026-01-13 10:28:54.81	201.77	43.83	-46.4	-49.7	15.2	0.00e+00	0	42	0	486539264	64	5229
2026-01-13 10:28:56.09	202.16	44.13	-46.6	-49.9	14.9	0.00e+00	0	43	0	489684992	64	5371
2026-01-13 10:28:56.80	202.38	44.31	-46.8	-50.3	14.5	0.00e+00	0	42	0	490733568	64	5649
2026-01-13 10:28:58.08	202.78	44.61	-47.2	-50.9	14.0	7.00e-07	0	42	0	492830720	64	6033
2026-01-13 10:28:58.79	203.01	44.79	-47.3	-51.2	13.6	3.00e-06	0	42	0	493879296	65	5894
2026-01-13 10:29:00.07	203.42	45.10	-47.6	-51.7	13.2	1.98e-05	0	42	0	497025024	65	6221
2026-01-13 10:29:00.78	203.65	45.27	-47.5	-51.5	13.4	1.83e-05	0	42	0	498073600	65	6080
2026-01-13 10:29:02.06	204.08	45.58	-47.2	-50.9	13.9	1.06e-05	0	42	0	500170752	65	5720
2026-01-13 10:29:02.80	204.33	45.76	-47.1	-50.8	14.0	1.50e-06	0	42	0	501219328	65	5622
2026-01-13 10:29:04.08	204.77	46.08	-46.9	-50.6	14.2	7.00e-07	0	42	0	504365056	65	5486
2026-01-13 10:29:05.06	205.11	46.32	-46.9	-50.7	14.1	7.00e-07	0	43	0	506462208	65	5549
2026-01-13 10:29:06.35	205.57	46.63	-46.8	-50.6	14.3	1.50e-06	0	42	0	508559360	65	5486
2026-01-13 10:29:07.09	205.83	46.81	-47.1	-51.0	13.9	3.00e-06	0	43	0	509607936	65	5736
2026-01-13 10:29:08.37	206.30	47.13	-47.6	-51.8	13.0	2.28e-05	0	43	0	512753664	65	6344
2026-01-13 10:29:09.10	206.57	47.31	-47.9	-52.3	12.7	4.11e-05	0	42	0	513802240	66	6312
2026-01-13 10:29:10.73	207.19	47.71	-47.9	-52.2	12.7	9.46e-05	0	42	0	516947968	66	6225
2026-01-13 10:29:11.30	207.41	47.85	-47.9	-52.1	12.8	8.08e-05	0	42	0	517996544	66	6151
2026-01-13 10:29:13.00	208.08	48.27	-47.5	-51.5	13.4	1.75e-05	0	42	0	521142272	66	5749
2026-01-13 10:29:13.57	208.31	48.41	-47.5	-51.4	13.5	1.83e-05	0	43	0	522190848	66	5667
2026-01-13 10:29:15.28	209.00	48.83	-47.6	-51.6	13.3	1.29e-05	0	43	0	525336576	66	5793
2026-01-13 10:29:15.85	209.24	48.97	-47.9	-52.1	12.7	4.57e-05	0	43	0	526385152	66	6194
2026-01-13 10:29:17.55	209.95	49.39	-48.2	-52.7	12.1	2.49e-04	0	43	0	529530880	67	6221
2026-01-13 10:29:18.12	210.20	49.53	-48.3	-52.9	11.9	3.52e-04	0	43	0	530579456	67	6409
2026-01-13 10:29:19.82	210.94	49.94	-48.1	-52.5	12.3	3.21e-04	0	43	0	533725184	67	6121
2026-01-13 10:29:20.39	211.19	50.08	-47.9	-52.2	12.6	1.59e-04	0	42	0	534773760	67	5903
2026-01-13 10:29:22.10	211.97	50.50	-47.2	-50.9	13.9	1.75e-05	0	43	0	537919488	66	5387
2026-01-13 10:29:22.67	212.23	50.64	-47.0	-50.5	14.4	2.20e-06	0	43	0	538968064	65	5456
2026-01-13 10:29:24.54	213.11	51.09	-46.7	-50.2	14.7	1.50e-06	0	43	0	542113792	65	5248
2026-01-13 10:29:25.11	213.39	51.23	-46.6	-49.9	14.9	7.00e-07	0	43	0	543162368	65	5092
2026-01-13 10:29:26.82	214.22	51.64	-46.2	-49.3	15.6	0.00e+00	0	43	0	546308096	64	5010
2026-01-13 10:29:27.39	214.50	51.77	-46.1	-49.2	15.6	0.00e+00	0	43	0	547356672	64	4981
2026-01-13 10:29:29.09	215.37	52.18	-45.9	-48.9	16.1	0.00e+00	0	43	0	551550976	63	5059
2026-01-13 10:29:29.66	215.66	52.31	-45.8	-48.7	16.2	0.00e+00	0	43	0	552599552	63	4949
2026-01-13 10:29:31.37	216.56	52.72	-45.7	-48.7	16.2	0.00e+00	0	43	0	555745280	63	4930
2026-01-13 10:29:31.93	216.86	52.85	-45.7	-48.6	16.3	0.00e+00	0	43	0	556793856	63	4904
2026-01-13 10:29:33.64	217.79	53.24	-45.4	-48.2	16.7	0.00e+00	0	42	0	559939584	62	4942
2026-01-13 10:29:34.21	218.10	53.37	-45.3	-48.0	16.9	0.00e+00	0	42	0	560988160	62	4839
2026-01-13 10:29:35.92	219.07	53.77	-45.1	-47.7	17.1	0.00e+00	0	43	0	564133888	62	4694
2026-01-13 10:29:36.48	219.39	53.89	-45.2	-47.9	17.0	0.00e+00	0	42	0	565182464	62	4800
2026-01-13 10:29:38.19	220.39	54.27	-45.7	-48.5	16.4	0.00e+00	0	42	0	568328192	62	5152
2026-01-13 10:29:38.85	220.78	54.42	-45.7	-48.6	16.4	0.00e+00	0	42	0	569376768	62	5180
2026-01-13 10:29:40.27	221.64	54.73	-45.5	-48.4	16.5	0.00e+00	0	43	0	572522496	62	5062
2026-01-13 10:29:41.05	222.12	54.90	-45.2	-48.1	16.8	0.00e+00	0	43	0	573571072	62	4881
2026-01-13 10:29:42.33	222.92	55.18	-45.2	-48.0	16.9	0.00e+00	0	42	0	575668224	62	4841
2026-01-13 10:29:43.04	223.37	55.33	-45.4	-48.2	16.7	0.00e+00	0	43	0	576716800	62	4958
2026-01-13 10:29:44.31	224.18	55.59	-45.6	-48.5	16.4	0.00e+00	0	43	0	579862528	62	5148
2026-01-13 10:29:45.04	224.66	55.74	-45.8	-48.8	16.2	0.00e+00	0	43	0	580911104	62	5290
2026-01-13 10:29:46.32	225.51	56.00	-45.9	-49.0	15.9	0.00e+00	0	43	0	583008256	62	5406
2026-01-13 10:29:47.03	225.98	56.15	-46.0	-49.1	15.9	0.00e+00	0	43	0	585105408	62	5502
2026-01-13 10:29:48.31	226.86	56.40	-46.3	-49.5	15.5	0.00e+00	0	42	0	587202560	63	5441
2026-01-13 10:29:49.02	227.35	56.54	-46.5	-49.7	15.3	0.00e+00	0	42	0	588251136	63	5583
2026-01-13 10:29:50.30	228.24	56.78	-46.3	-49.4	15.5	0.00e+00	0	43	0	590348288	63	5390
2026-01-13 10:29:51.02	228.75	56.92	-46.3	-49.4	15.5	0.00e+00	0	42	0	592445440	63	5400
2026-01-13 10:29:52.30	229.67	57.15	-46.3	-49.4	15.6	0.00e+00	0	43	0	594542592	63	5373
2026-01-13 10:29:53.01	230.19	57.28	-46.2	-49.4	15.6	7.00e-07	0	43	0	595591168	63	5341
2026-01-13 10:29:54.29	231.14	57.51	-46.3	-49.5	15.4	0.00e+00	0	42	0	598736896	63	5444
2026-01-13 10:29:55.02	231.68	57.63	-46.4	-49.7	15.3	0.00e+00	0	43	0	599785472	63	5538
2026-01-13 10:29:56.30	232.65	57.85	-46.6	-49.8	15.2	0.00e+00	0	43	0	601882624	63	5638
2026-01-13 10:29:57.10	233.27	57.98	-46.6	-49.8	15.1	0.00e+00	0	42	0	603979776	63	5640
2026-01-13 10:29:58.24	234.15	58.16	-46.4	-49.5	15.4	0.00e+00	0	43	0	606076928	63	5464
2026-01-13 10:29:59.10	234.83	58.29	-46.4	-49.5	15.5	0.00e+00	0	43	0	607125504	63	5448
2026-01-13 10:30:00.59	236.01	58.52	-46.4	-49.6	15.3	7.00e-07	0	42	0	610271232	63	5515
2026-01-13 10:30:01.31	236.59	58.62	-46.6	-49.9	15.1	0.00e+00	0	43	0	611319808	63	5711
2026-01-13 10:30:02.58	237.63	58.80	-46.4	-49.7	15.2	0.00e+00	0	43	0	613416960	64	5241
2026-01-13 10:30:03.31	238.23	58.90	-46.4	-49.6	15.3	0.00e+00	0	43	0	615514112	64	5178
2026-01-13 10:30:04.59	239.29	59.06	-46.2	-49.3	15.6	0.00e+00	0	42	0	617611264	64	5026
2026-01-13 10:30:05.31	239.89	59.15	-46.2	-49.3	15.5	0.00e+00	0	43	0	618659840	64	5033
2026-01-13 10:30:06.59	240.98	59.30	-46.1	-49.1	15.9	0.00e+00	0	43	0	621805568	63	5200
2026-01-13 10:30:07.30	241.58	59.38	-46.0	-49.0	16.0	0.00e+00	0	43	0	622854144	63	5118
2026-01-13 10:30:08.58	242.69	59.52	-45.8	-48.8	16.2	0.00e+00	0	43	0	624951296	63	4988
2026-01-13 10:30:09.29	243.30	59.60	-45.9	-48.9	16.1	0.00e+00	0	43	0	625999872	63	5053
2026-01-13 10:30:10.57	244.42	59.72	-46.2	-49.2	15.8	0.00e+00	0	43	0	629145600	63	5254
2026-01-13 10:30:11.29	245.06	59.78	-46.7	-49.9	15.1	0.00e+00	0	43	0	630194176	63	5719
2026-01-13 10:30:12.57	246.19	59.89	-46.7	-50.1	14.9	0.00e+00	0	43	0	632291328	64	5479
2026-01-13 10:30:13.29	246.83	59.95	-46.3	-49.6	15.4	0.00e+00	0	42	0	634388480	64	5161
2026-01-13 10:30:14.64	248.04	60.05	-46.1	-49.1	15.8	0.00e+00	0	43	0	636485632	63	5196
2026-01-13 10:30:15.35	248.69	60.09	-46.1	-49.2	15.9	0.00e+00	0	43	0	637534208	63	5222
2026-01-13 10:30:16.63	249.85	60.17	-46.6	-49.9	15.0	0.00e+00	0	43	0	640679936	64	5387
2026-01-13 10:30:17.34	250.49	60.21	-46.8	-50.3	14.7	1.50e-06	0	43	0	641728512	64	5593
2026-01-13 10:30:18.74	251.77	60.27	-46.7	-50.0	14.9	0.00e+00	0	43	0	643825664	64	5439
2026-01-13 10:30:19.45	252.42	60.30	-46.5	-49.8	15.2	0.00e+00	0	43	0	645922816	64	5309
2026-01-13 10:30:20.73	253.60	60.34	-46.3	-49.4	15.5	0.00e+00	0	43	0	648019968	64	5065
2026-01-13 10:30:21.46	254.28	60.36	-46.6	-49.8	15.2	0.00e+00	0	42	0	649068544	64	5325
2026-01-13 10:30:22.74	255.46	60.39	-46.8	-50.2	14.8	0.00e+00	0	42	0	651165696	64	5573
2026-01-13 10:30:23.46	256.13	60.40	-46.7	-50.1	14.8	0.00e+00	0	43	0	653262848	64	5521
2026-01-13 10:30:24.74	257.31	60.41	-46.3	-49.5	15.5	0.00e+00	0	43	0	655360000	64	5103
2026-01-13 10:30:25.47	257.99	60.41	-46.3	-49.5	15.4	0.00e+00	0	43	0	656408576	64	5136
2026-01-13 10:30:26.74	259.16	60.40	-46.0	-49.1	15.8	0.00e+00	0	43	0	659554304	64	4917
2026-01-13 10:30:27.50	259.87	60.39	-45.8	-48.8	16.2	0.00e+00	0	43	0	660602880	63	4995
2026-01-13 10:30:28.78	261.05	60.36	-45.7	-48.5	16.4	0.00e+00	0	43	0	662700032	62	5155
2026-01-13 10:30:29.49	261.70	60.35	-45.8	-48.7	16.2	0.00e+00	0	43	0	664797184	62	5267
2026-01-13 10:30:30.77	262.88	60.30	-45.6	-48.5	16.5	0.00e+00	0	43	0	666894336	62	5137
2026-01-13 10:30:31.61	263.65	60.27	-45.6	-48.4	16.5	0.00e+00	0	43	0	667942912	62	5098
2026-01-13 10:30:33.07	264.99	60.20	-45.8	-48.7	16.2	0.00e+00	0	43	0	671088640	62	5271
2026-01-13 10:30:34.19	266.00	60.14	-45.6	-48.5	16.5	0.00e+00	0	43	0	673185792	62	5131
2026-01-13 10:30:35.05	266.78	60.09	-45.8	-48.8	16.2	0.00e+00	0	43	0	674234368	62	5311
2026-01-13 10:30:36.18	267.80	60.01	-46.1	-49.1	15.9	0.00e+00	0	43	0	677380096	62	5497
2026-01-13 10:30:37.03	268.56	59.95	-46.0	-49.1	16.0	0.00e+00	0	43	0	678428672	62	5477
2026-01-13 10:30:38.18	269.59	59.86	-46.2	-49.2	15.8	0.00e+00	0	43	0	680525824	63	5256
2026-01-13 10:30:39.03	270.34	59.78	-46.7	-50.1	14.9	0.00e+00	0	42	0	682622976	64	5510
2026-01-13 10:30:40.17	271.34	59.68	-47.1	-50.8	14.1	1.50e-06	0	43	0	684720128	65	5650
2026-01-13 10:30:41.02	272.08	59.60	-46.8	-50.3	14.6	7.00e-07	0	43	0	685768704	65	5305
2026-01-13 10:30:42.16	273.07	59.48	-46.8	-50.2	14.7	1.50e-06	0	43	0	687865856	65	5255
2026-01-13 10:30:43.01	273.80	59.39	-46.9	-50.3	14.6	0.00e+00	0	43	0	689963008	65	5337
2026-01-13 10:30:44.15	274.77	59.26	-47.3	-51.0	14.0	2.20e-06	0	43	0	692060160	65	5737
2026-01-13 10:30:45.13	275.60	59.14	-47.3	-51.0	14.0	1.50e-06	0	43	0	694157312	65	5745
2026-01-13 10:30:46.12	276.42	59.02	-48.3	-52.9	12.1	2.89e-05	0	43	0	695205888	67	6390
2026-01-13 10:30:47.12	277.25	58.88	-48.9	-53.9	11.1	1.31e-03	0	43	0	697303040	68	6772
2026-01-13 10:30:48.11	278.06	58.75	-48.5	-53.3	11.8	6.78e-04	0	43	0	699400192	68	6275
2026-01-13 10:30:49.11	278.87	58.61	-48.5	-53.2	11.9	2.68e-04	0	43	0	701497344	68	6268
2026-01-13 10:30:50.43	279.93	58.42	-48.7	-53.7	11.5	1.02e-03	0	43	0	703594496	68	6575
2026-01-13 10:30:51.17	280.52	58.31	-48.4	-53.0	12.0	4.98e-04	0	43	0	704643072	68	6103
2026-01-13 10:30:52.77	281.77	58.06	-48.3	-52.8	12.3	8.46e-05	0	43	0	707788800	68	5924
2026-01-13 10:30:53.34	282.21	57.96	-48.6	-53.4	11.8	2.82e-04	0	43	0	708837376	68	6362
2026-01-13 10:30:55.05	283.51	57.68	-48.0	-52.4	12.7	2.03e-04	0	43	0	711983104	68	5684
2026-01-13 10:30:55.61	283.93	57.58	-47.4	-51.4	13.5	5.41e-05	0	43	0	713031680	66	5683
2026-01-13 10:30:57.32	285.19	57.29	-46.5	-49.9	15.1	7.00e-07	0	43	0	716177408	65	5049
2026-01-13 10:30:57.89	285.61	57.18	-46.3	-49.5	15.5	0.00e+00	0	43	0	717225984	64	5108
2026-01-13 10:30:59.60	286.83	56.87	-46.9	-50.4	14.5	0.00e+00	0	43	0	720371712	64	5712
2026-01-13 10:31:00.17	287.24	56.76	-46.9	-50.5	14.5	0.00e+00	0	43	0	721420288	64	5738
2026-01-13 10:31:01.87	288.42	56.44	-45.9	-48.9	16.2	0.00e+00	0	43	0	724566016	63	5051
2026-01-13 10:31:02.44	288.81	56.32	-45.7	-48.6	16.4	0.00e+00	0	43	0	725614592	63	4874
2026-01-13 10:31:04.15	289.96	55.98	-45.5	-48.3	16.7	0.00e+00	0	43	0	728760320	62	5037
2026-01-13 10:31:04.71	290.33	55.87	-45.7	-48.6	16.4	0.00e+00	0	43	0	729808896	62	5184
2026-01-13 10:31:06.50	291.50	55.50	-44.5	-47.0	17.9	0.00e+00	0	43	0	734003200	61	4586
2026-01-13 10:31:07.07	291.86	55.38	-44.5	-47.0	17.9	0.00e+00	0	43	0	735051776	60	4829
2026-01-13 10:31:08.77	292.93	55.02	-45.1	-47.8	17.1	0.00e+00	0	43	0	738197504	60	5333
2026-01-13 10:31:09.44	293.35	54.88	-45.3	-48.1	16.8	0.00e+00	0	43	0	739246080	61	5205
2026-01-13 10:31:10.86	294.21	54.57	-44.4	-46.9	18.0	0.00e+00	0	43	0	741343232	60	4780
2026-01-13 10:31:11.65	294.69	54.40	-43.8	-46.1	18.6	0.00e+00	0	43	0	743440384	59	4614
2026-01-13 10:31:13.15	295.57	54.06	-44.0	-46.3	18.5	0.00e+00	0	43	0	746586112	59	4736
2026-01-13 10:31:13.86	295.98	53.91	-44.4	-46.8	18.0	0.00e+00	0	43	0	747634688	59	5020
2026-01-13 10:31:15.14	296.71	53.62	-44.9	-47.6	17.3	0.00e+00	0	43	0	749731840	60	5190
2026-01-13 10:31:15.85	297.11	53.45	-45.0	-47.7	17.2	0.00e+00	0	43	0	750780416	60	5278
2026-01-13 10:31:17.13	297.81	53.16	-44.5	-47.1	17.8	0.00e+00	0	43	0	753926144	60	4886
2026-01-13 10:31:17.84	298.20	53.00	-44.2	-46.7	18.1	0.00e+00	0	43	0	754974720	60	4685
2026-01-13 10:31:19.12	298.89	52.70	-43.9	-46.3	18.5	0.00e+00	0	43	0	757071872	59	4729
2026-01-13 10:31:19.83	299.26	52.53	-44.1	-46.5	18.3	0.00e+00	0	43	0	759169024	59	4850
2026-01-13 10:31:21.11	299.92	52.23	-45.2	-47.9	17.0	0.00e+00	0	43	0	761266176	61	5075
2026-01-13 10:31:22.01	300.38	52.02	-45.4	-48.2	16.7	0.00e+00	0	43	0	762314752	61	5270
2026-01-13 10:31:23.04	300.90	51.78	-44.8	-47.5	17.4	0.00e+00	0	43	0	764411904	61	4824
2026-01-13 10:31:24.03	301.39	51.54	-44.5	-47.1	17.8	0.00e+00	0	43	0	766509056	61	4627
2026-01-13 10:31:25.03	301.87	51.30	-45.4	-48.3	16.7	0.00e+00	0	43	0	768606208	61	5291
2026-01-13 10:31:26.02	302.35	51.06	-46.1	-49.3	15.7	0.00e+00	0	43	0	770703360	62	5642
2026-01-13 10:31:27.02	302.82	50.82	-46.3	-49.6	15.5	0.00e+00	0	43	0	771751936	63	5481
2026-01-13 10:31:28.01	303.28	50.58	-46.1	-49.2	15.7	0.00e+00	0	43	0	773849088	63	5250
2026-01-13 10:31:29.01	303.74	50.34	-45.9	-48.9	16.0	0.00e+00	0	43	0	775946240	63	5079
2026-01-13 10:31:30.00	304.18	50.10	-45.9	-48.9	16.0	0.00e+00	0	43	0	778043392	63	5096
2026-01-13 10:31:31.00	304.62	49.86	-46.3	-49.4	15.6	0.00e+00	0	43	0	779091968	63	5402
2026-01-13 10:31:31.99	305.05	49.62	-47.1	-50.9	14.0	1.50e-06	0	43	0	781189120	64	6029
2026-01-13 10:31:32.99	305.48	49.37	-48.4	-53.3	11.6	4.50e-05	0	43	0	783286272	67	6709
2026-01-13 10:31:33.98	305.90	49.13	-48.2	-52.9	11.9	7.07e-04	0	43	0	785383424	67	6387
2026-01-13 10:31:34.98	306.31	48.88	-47.8	-52.0	12.9	9.84e-05	0	43	0	787480576	67	5769
2026-01-13 10:31:35.97	306.72	48.64	-47.5	-51.5	13.5	2.28e-05	0	43	0	788529152	67	5422
2026-01-13 10:31:36.97	307.12	48.40	-47.6	-51.7	13.3	1.44e-05	0	43	0	790626304	66	5856
2026-01-13 10:31:37.96	307.51	48.15	-48.1	-52.6	12.4	9.00e-05	0	43	0	792723456	66	6536
2026-01-13 10:31:38.96	307.90	47.91	-48.4	-53.3	11.7	5.32e-04	0	43	0	794820608	67	6653
2026-01-13 10:31:39.95	308.28	47.67	-48.9	-54.2	10.8	1.99e-03	0	43	0	795869184	68	7004
2026-01-13 10:31:40.95	308.66	47.42	-48.8	-54.2	10.8	2.85e-03	0	43	0	797966336	68	7012
2026-01-13 10:31:41.94	309.03	47.18	-48.4	-53.3	11.7	1.23e-03	0	43	0	800063488	68	6313
2026-01-13 10:31:42.94	309.40	46.94	-47.7	-52.0	12.9	1.97e-04	0	43	0	802160640	67	5764
2026-01-13 10:31:43.93	309.75	46.69	-47.5	-51.5	13.4	3.05e-05	0	43	0	804257792	67	5413
2026-01-13 10:31:44.93	310.11	46.45	-47.4	-51.3	13.6	4.50e-06	0	43	0	805306368	66	5635
2026-01-13 10:31:45.92	310.46	46.21	-48.0	-52.3	12.6	3.43e-05	0	43	0	807403520	66	6323
2026-01-13 10:31:46.92	310.80	45.96	-48.4	-53.1	11.8	3.11e-04	0	43	0	809500672	67	6521
2026-01-13 10:31:47.92	311.14	45.72	-48.0	-52.4	12.5	2.10e-04	0	43	0	811597824	67	6010
2026-01-13 10:31:48.91	311.47	45.48	-47.4	-51.3	13.6	2.21e-05	0	43	0	813694976	66	5627
2026-01-13 10:31:49.97	311.82	45.22	-47.2	-51.1	13.9	3.80e-06	0	43	0	814743552	66	5471
2026-01-13 10:31:50.89	312.12	45.00	-47.2	-51.1	13.9	1.50e-06	0	43	0	816840704	66	5488
2026-01-13 10:31:51.88	312.44	44.76	-47.2	-51.1	13.9	3.80e-06	0	43	0	818937856	66	5472
2026-01-13 10:31:52.88	312.75	44.52	-47.2	-50.9	14.0	1.50e-06	0	43	0	821035008	66	5396
2026-01-13 10:31:53.87	313.06	44.28	-47.5	-51.7	13.3	5.30e-06	0	43	0	822083584	66	5857
2026-01-13 10:31:54.87	313.36	44.04	-48.2	-52.9	12.1	1.56e-04	0	43	0	824180736	66	6745
2026-01-13 10:31:55.86	313.66	43.81	-48.9	-54.3	10.7	1.43e-03	0	43	0	826277888	68	7095
2026-01-13 10:31:56.86	313.96	43.57	-48.5	-53.3	11.7	1.55e-03	0	43	0	828375040	68	6325
2026-01-13 10:31:57.85	314.25	43.33	-47.1	-50.8	14.1	7.32e-05	0	43	0	830472192	66	5314
2026-01-13 10:31:58.85	314.54	43.10	-46.5	-49.8	15.1	0.00e+00	0	43	0	831520768	65	5004
2026-01-13 10:31:59.84	314.82	42.86	-46.5	-49.8	15.1	0.00e+00	0	42	0	833617920	64	5316
2026-01-13 10:32:00.83	315.10	42.63	-47.2	-51.0	13.9	7.00e-07	0	43	0	835715072	64	6115
2026-01-13 10:32:01.83	315.37	42.39	-47.6	-51.9	13.0	1.44e-05	0	43	0	837812224	65	6383
2026-01-13 10:32:02.82	315.64	42.16	-47.4	-51.5	13.4	2.51e-05	0	43	0	838860800	65	6084
2026-01-13 10:32:03.81	315.91	41.93	-46.8	-50.4	14.5	2.20e-06	0	43	0	840957952	65	5402
2026-01-13 10:32:04.89	316.19	41.68	-46.7	-50.2	14.8	0.00e+00	0	43	0	843055104	65	5233
2026-01-13 10:32:05.74	316.42	41.48	-46.6	-50.0	14.9	0.00e+00	0	43	0	845152256	65	5126
2026-01-13 10:32:07.08	316.76	41.17	-47.0	-50.7	14.3	1.50e-06	0	43	0	847249408	65	5532
2026-01-13 10:32:07.80	316.94	41.01	-47.1	-50.8	14.2	2.20e-06	0	43	0	848297984	65	5614
2026-01-13 10:32:09.26	317.31	40.67	-47.1	-50.7	14.2	7.00e-07	0	43	0	851443712	65	5591
2026-01-13 10:32:09.97	317.48	40.51	-47.2	-50.9	14.1	7.00e-07	0	43	0	852492288	65	5684
2026-01-13 10:32:11.25	317.79	40.22	-47.4	-51.3	13.6	3.00e-06	0	43	0	854589440	65	5985
2026-01-13 10:32:12.00	317.97	40.05	-47.5	-51.5	13.5	6.80e-06	0	43	0	856686592	65	6077
2026-01-13 10:32:13.28	318.27	39.76	-46.8	-50.4	14.5	7.00e-07	0	43	0	858783744	65	5351
2026-01-13 10:32:14.02	318.44	39.60	-46.5	-49.9	15.0	0.00e+00	0	43	0	859832320	65	5081
2026-01-13 10:32:15.29	318.74	39.31	-45.9	-48.9	16.1	0.00e+00	0	43	0	862978048	63	5080
2026-01-13 10:32:16.01	318.90	39.15	-45.8	-48.8	16.3	0.00e+00	0	43	0	864026624	63	4993
2026-01-13 10:32:17.29	319.18	38.87	-46.3	-49.6	15.5	0.00e+00	0	43	0	866123776	63	5477
2026-01-13 10:32:18.01	319.34	38.71	-46.9	-50.5	14.5	0.00e+00	0	43	0	868220928	64	5746
2026-01-13 10:32:19.29	319.62	38.43	-47.9	-52.3	12.6	1.52e-05	0	43	0	870318080	66	6329
2026-01-13 10:32:20.10	319.79	38.25	-48.0	-52.5	12.6	9.99e-05	0	43	0	871366656	66	6425
2026-01-13 10:32:21.50	320.09	37.95	-47.5	-51.5	13.5	4.19e-05	0	43	0	874512384	66	5732
2026-01-13 10:32:22.22	320.24	37.79	-46.9	-50.5	14.5	1.50e-06	0	43	0	875560960	65	5441
2026-01-13 10:32:23.49	320.50	37.52	-46.4	-49.7	15.3	0.00e+00	0	43	0	877658112	64	5256
2026-01-13 10:32:24.22	320.65	37.36	-46.1	-49.2	15.7	0.00e+00	0	43	0	879755264	64	4981
2026-01-13 10:32:25.50	320.91	37.09	-45.8	-48.7	16.3	0.00e+00	0	43	0	881852416	63	4977
2026-01-13 10:32:26.21	321.05	36.94	-45.8	-48.8	16.3	0.00e+00	0	43	0	882900992	63	5013
2026-01-13 10:32:27.49	321.30	36.67	-46.1	-49.1	15.9	0.00e+00	0	43	0	886046720	63	5216
2026-01-13 10:32:28.20	321.43	36.52	-46.2	-49.4	15.7	0.00e+00	0	43	0	887095296	63	5360
2026-01-13 10:32:29.48	321.68	36.25	-46.3	-49.5	15.6	0.00e+00	0	43	0	889192448	63	5434
2026-01-13 10:32:30.19	321.81	36.10	-46.5	-49.9	15.2	0.00e+00	0	43	0	890241024	63	5700
2026-01-13 10:32:31.47	322.05	35.84	-46.6	-50.2	14.9	0.00e+00	0	43	0	893386752	63	5863
2026-01-13 10:32:32.19	322.18	35.69	-46.6	-50.3	14.9	0.00e+00	0	43	0	894435328	63	5944
2026-01-13 10:32:33.47	322.41	35.43	-46.5	-50.2	15.0	7.00e-07	0	43	0	896532480	63	5858
2026-01-13 10:32:34.21	322.55	35.28	-46.4	-50.0	15.1	0.00e+00	0	43	0	898629632	63	5747
2026-01-13 10:32:35.49	322.77	35.02	-45.9	-49.2	15.9	0.00e+00	0	43	0	900726784	63	5260
2026-01-13 10:32:36.21	322.90	34.87	-45.7	-48.9	16.3	0.00e+00	0	43	0	901775360	63	5051
2026-01-13 10:32:37.57	323.13	34.60	-45.9	-49.1	16.0	0.00e+00	0	43	0	904921088	63	5180
2026-01-13 10:32:38.28	323.26	34.46	-46.0	-49.2	16.0	0.00e+00	0	43	0	905969664	63	5235
2026-01-13 10:32:39.56	323.47	34.20	-46.6	-50.0	15.2	0.00e+00	0	43	0	908066816	63	5778
2026-01-13 10:32:40.27	323.59	34.06	-47.0	-50.5	14.6	0.00e+00	0	43	0	909115392	64	5786
2026-01-13 10:32:41.66	323.82	33.79	-47.5	-51.5	13.6	7.00e-07	0	43	0	912261120	65	6083
2026-01-13 10:32:42.37	323.93	33.65	-47.8	-51.9	13.2	9.90e-06	0	43	0	913309696	66	6005
2026-01-13 10:32:43.73	324.15	33.38	-47.9	-52.0	13.1	3.96e-05	0	43	0	916455424	66	6125
2026-01-13 10:32:44.44	324.26	33.25	-47.9	-52.1	13.1	3.50e-05	0	43	0	917504000	66	6152
2026-01-13 10:32:45.78	324.47	32.99	-47.7	-51.7	13.4	1.14e-05	0	43	0	919601152	66	5916
2026-01-13 10:32:46.50	324.59	32.85	-47.4	-51.3	13.9	3.80e-06	0	43	0	920649728	66	5616
2026-01-13 10:32:47.77	324.78	32.61	-47.2	-50.9	14.3	1.50e-06	0	43	0	923795456	66	5374
2026-01-13 10:32:48.53	324.90	32.46	-47.2	-50.9	14.3	1.50e-06	0	43	0	924844032	66	5362
2026-01-13 10:32:49.81	325.09	32.22	-47.0	-50.5	14.6	0.00e+00	0	43	0	926941184	66	5159
2026-01-13 10:32:50.52	325.19	32.09	-47.0	-50.5	14.6	0.00e+00	0	43	0	929038336	65	5451
2026-01-13 10:32:51.80	325.38	31.85	-47.3	-51.1	14.1	0.00e+00	0	43	0	931135488	65	5837
2026-01-13 10:32:52.51	325.48	31.72	-47.4	-51.2	14.0	7.00e-07	0	43	0	932184064	65	5874
2026-01-13 10:32:53.79	325.67	31.48	-47.6	-51.6	13.6	5.30e-06	0	43	0	935329792	65	6184
2026-01-13 10:32:54.51	325.77	31.35	-47.8	-51.9	13.4	1.52e-05	0	43	0	936378368	66	6028
2026-01-13 10:32:55.79	325.95	31.11	-47.9	-52.2	13.1	2.13e-05	0	43	0	938475520	66	6214
2026-01-13 10:32:56.57	326.05	30.97	-47.9	-52.2	13.1	2.44e-05	0	43	0	940572672	66	6205
2026-01-13 10:32:57.85	326.23	30.74	-48.0	-52.3	13.0	4.04e-05	0	43	0	942669824	66	6287
2026-01-13 10:32:58.56	326.33	30.61	-48.1	-52.5	12.8	5.26e-05	0	43	0	943718400	66	6441
2026-01-13 10:32:59.84	326.50	30.38	-48.0	-52.3	13.0	4.19e-05	0	43	0	945815552	67	5935
2026-01-13 10:33:00.70	326.61	30.23	-48.1	-52.4	12.8	3.66e-05	0	43	0	947912704	67	6061
2026-01-13 10:33:02.12	326.80	29.98	-47.9	-52.2	13.1	4.19e-05	0	43	0	950009856	67	5861
2026-01-13 10:33:02.83	326.89	29.86	-47.9	-52.1	13.2	2.89e-05	0	43	0	952107008	67	5827
2026-01-13 10:33:04.11	327.05	29.63	-47.9	-52.1	13.2	2.21e-05	0	43	0	954204160	67	5824
2026-01-13 10:33:04.83	327.14	29.51	-47.7	-51.9	13.4	2.05e-05	0	43	0	955252736	67	5690
2026-01-13 10:33:06.10	327.30	29.29	-47.6	-51.6	13.6	7.60e-06	0	43	0	958398464	67	5522
2026-01-13 10:33:06.89	327.40	29.15	-47.5	-51.6	13.7	9.10e-06	0	43	0	959447040	67	5468
2026-01-13 10:33:08.09	327.55	28.94	-47.5	-51.5	13.8	6.80e-06	0	43	0	961544192	66	5759
2026-01-13 10:33:09.09	327.67	28.77	-47.3	-51.3	13.9	1.50e-06	0	43	0	963641344	66	5653
2026-01-13 10:33:10.29	327.81	28.57	-47.2	-51.2	14.1	3.80e-06	0	43	0	965738496	66	5560
2026-01-13 10:33:11.14	327.91	28.43	-47.2	-51.1	14.2	2.20e-06	0	43	0	967835648	66	5507
2026-01-13 10:33:12.28	328.05	28.24	-47.3	-51.3	14.1	7.00e-07	0	43	0	969932800	66	5602
2026-01-13 10:33:13.13	328.15	28.10	-47.4	-51.4	14.0	2.20e-06	0	43	0	970981376	66	5684
2026-01-13 10:33:14.27	328.28	27.91	-47.4	-51.3	14.1	2.20e-06	0	43	0	973078528	66	5614
2026-01-13 10:33:15.12	328.38	27.77	-47.5	-51.4	13.9	1.50e-06	0	43	0	975175680	66	5697
2026-01-13 10:33:16.26	328.50	27.58	-47.6	-51.5	13.8	6.10e-06	0	43	0	977272832	66	5747
2026-01-13 10:33:17.11	328.60	27.44	-47.5	-51.3	14.0	2.20e-06	0	43	0	978321408	66	5651
2026-01-13 10:33:18.25	328.73	27.26	-47.7	-51.6	13.7	4.50e-06	0	43	0	980418560	66	5840
2026-01-13 10:33:19.10	328.82	27.12	-47.7	-51.6	13.7	7.60e-06	0	43	0	982515712	66	5837
2026-01-13 10:33:20.24	328.94	26.94	-47.6	-51.6	13.8	6.10e-06	0	43	0	984612864	66	5838
2026-01-13 10:33:21.09	329.04	26.80	-47.7	-51.7	13.7	8.30e-06	0	43	0	985661440	66	5903
2026-01-13 10:33:22.23	329.16	26.62	-47.4	-51.4	13.9	4.50e-06	0	43	0	987758592	66	5720
2026-01-13 10:33:23.40	329.28	26.44	-47.3	-51.3	14.0	7.00e-07	0	43	0	989855744	66	5651
2026-01-13 10:33:24.41	329.39	26.28	-47.1	-51.0	14.4	3.80e-06	0	43	0	991952896	66	5432
2026-01-13 10:33:25.56	329.50	26.10	-46.8	-50.6	14.8	0.00e+00	0	43	0	994050048	65	5500
2026-01-13 10:33:26.43	329.59	25.96	-46.8	-50.5	14.9	0.00e+00	0	43	0	996147200	65	5432
2026-01-13 10:33:27.56	329.71	25.79	-46.8	-50.4	15.1	0.00e+00	0	43	0	998244352	65	5349
2026-01-13 10:33:28.42	329.79	25.66	-46.6	-50.1	15.3	0.00e+00	0	43	0	1000341504	65	5170
2026-01-13 10:33:29.56	329.91	25.48	-46.6	-50.1	15.4	0.00e+00	0	43	0	1001390080	65	5161
2026-01-13 10:33:30.41	329.99	25.35	-46.7	-50.1	15.3	0.00e+00	0	42	0	1003487232	65	5169
2026-01-13 10:33:31.55	330.10	25.18	-46.7	-50.1	15.3	0.00e+00	0	43	0	1005584384	65	5196
2026-01-13 10:33:32.40	330.19	25.05	-46.7	-50.2	15.2	0.00e+00	0	43	0	1007681536	65	5265
2026-01-13 10:33:33.54	330.29	24.88	-46.9	-50.5	14.9	0.00e+00	0	43	0	1009778688	65	5441
2026-01-13 10:33:34.39	330.38	24.76	-46.9	-50.6	14.9	7.00e-07	0	43	0	1010827264	65	5468
2026-01-13 10:33:35.53	330.48	24.59	-47.1	-50.9	14.6	0.00e+00	0	43	0	1012924416	65	5662
2026-01-13 10:33:36.38	330.56	24.46	-47.1	-50.9	14.5	0.00e+00	0	43	0	1015021568	65	5692
2026-01-13 10:33:37.52	330.67	24.29	-47.2	-51.0	14.4	0.00e+00	0	43	0	1017118720	65	5758
2026-01-13 10:33:38.37	330.75	24.17	-47.3	-51.1	14.4	1.50e-06	0	43	0	1018167296	65	5801
2026-01-13 10:33:39.50	330.85	24.01	-47.3	-51.0	14.4	0.00e+00	0	43	0	1020264448	65	5783
2026-01-13 10:33:40.36	330.93	23.88	-47.3	-50.9	14.5	0.00e+00	0	43	0	1022361600	65	5716
2026-01-13 10:33:41.60	331.04	23.70	-47.2	-50.8	14.6	0.00e+00	0	43	0	1024458752	65	5639
2026-01-13 10:33:42.46	331.11	23.58	-47.2	-50.7	14.7	0.00e+00	0	43	0	1026555904	65	5587
2026-01-13 10:33:43.59	331.21	23.42	-47.1	-50.6	14.9	7.00e-07	0	43	0	1028653056	65	5508
2026-01-13 10:33:44.45	331.29	23.30	-47.0	-50.4	15.0	0.00e+00	0	43	0	1029701632	65	5376
2026-01-13 10:33:45.58	331.38	23.14	-46.9	-50.2	15.3	0.00e+00	0	43	0	1031798784	65	5253
2026-01-13 10:33:46.44	331.46	23.02	-46.9	-50.3	15.2	0.00e+00	0	43	0	1033895936	65	5282
2026-01-13 10:33:47.57	331.55	22.86	-46.7	-49.9	15.6	0.00e+00	0	43	0	1035993088	65	5091
2026-01-13 10:33:48.42	331.63	22.74	-46.6	-49.8	15.7	0.00e+00	0	43	0	1037041664	65	4988
2026-01-13 10:33:49.56	331.72	22.59	-46.5	-49.6	15.9	0.00e+00	0	43	0	1039138816	65	4889
2026-01-13 10:33:50.41	331.79	22.47	-46.5	-49.5	16.0	0.00e+00	0	43	0	1041235968	65	4856
2026-01-13 10:33:51.55	331.88	22.31	-46.5	-49.5	16.0	0.00e+00	0	43	0	1043333120	65	4835
2026-01-13 10:33:52.40	331.95	22.20	-46.5	-49.6	16.0	0.00e+00	0	43	0	1044381696	64	5175
2026-01-13 10:33:53.54	332.05	22.04	-46.5	-49.6	15.9	0.00e+00	0	43	0	1046478848	64	5182
2026-01-13 10:33:54.40	332.11	21.93	-46.6	-49.7	15.9	0.00e+00	0	43	0	1048576000	64	5249
2026-01-13 10:33:55.53	332.20	21.78	-46.7	-49.8	15.8	0.00e+00	0	42	0	1050673152	64	5317
2026-01-13 10:33:56.38	332.27	21.66	-46.6	-49.8	15.8	0.00e+00	0	43	0	1051721728	64	5285
2026-01-13 10:33:57.52	332.36	21.51	-46.7	-50.0	15.6	0.00e+00	0	43	0	1054867456	64	5432
2026-01-13 10:33:58.37	332.43	21.40	-46.7	-50.0	15.6	0.00e+00	0	43	0	1055916032	64	5433
2026-01-13 10:33:59.51	332.51	21.25	-46.7	-50.0	15.6	0.00e+00	0	43	0	1058013184	64	5416
2026-01-13 10:34:00.36	332.58	21.14	-46.8	-50.0	15.6	0.00e+00	0	43	0	1060110336	64	5441
2026-01-13 10:34:01.63	332.67	20.98	-46.8	-50.1	15.6	0.00e+00	0	43	0	1062207488	64	5479
2026-01-13 10:34:02.40	332.73	20.88	-46.7	-50.0	15.7	0.00e+00	0	43	0	1063256064	64	5409
2026-01-13 10:34:03.82	332.84	20.69	-46.7	-49.9	15.8	0.00e+00	0	43	0	1066401792	64	5388
2026-01-13 10:34:04.53	332.89	20.60	-46.6	-49.9	15.8	0.00e+00	0	43	0	1067450368	64	5344
2026-01-13 10:34:05.81	332.98	20.44	-46.6	-49.9	15.8	0.00e+00	0	43	0	1069547520	64	5374
2026-01-13 10:34:06.52	333.04	20.35	-46.5	-49.7	15.9	0.00e+00	0	43	0	1071644672	64	5268
2026-01-13 10:34:07.80	333.13	20.19	-46.4	-49.8	15.9	0.00e+00	0	43	0	1073741824	64	5280
2026-01-13 10:34:08.51	333.18	20.10	-46.3	-49.6	16.1	0.00e+00	0	43	0	1074790400	64	5173
2026-01-13 10:34:09.79	333.27	19.94	-46.3	-49.5	16.2	0.00e+00	0	43	0	1076887552	64	5138
2026-01-13 10:34:10.55	333.32	19.84	-46.3	-49.5	16.2	0.00e+00	0	43	0	1078984704	64	5146
2026-01-13 10:34:11.83	333.41	19.68	-46.2	-49.4	16.3	0.00e+00	0	43	0	1081081856	64	5072
2026-01-13 10:34:12.60	333.47	19.59	-46.3	-49.4	16.3	0.00e+00	0	43	0	1082130432	64	5082
2026-01-13 10:34:13.88	333.55	19.43	-46.2	-49.4	16.4	0.00e+00	0	43	0	1085276160	64	5054
2026-01-13 10:34:14.67	333.61	19.34	-46.2	-49.2	16.5	0.00e+00	0	43	0	1086324736	64	4983
2026-01-13 10:34:16.15	333.71	19.16	-46.2	-49.2	16.5	0.00e+00	0	43	0	1089470464	64	4982
2026-01-13 10:34:16.86	333.76	19.07	-46.2	-49.2	16.5	0.00e+00	0	43	0	1090519040	64	4981
2026-01-13 10:34:18.14	333.84	18.92	-46.4	-49.4	16.4	0.00e+00	0	43	0	1092616192	64	5071
2026-01-13 10:34:18.87	333.89	18.83	-46.4	-49.5	16.4	0.00e+00	0	43	0	1094713344	64	5103
2026-01-13 10:34:20.15	333.97	18.68	-46.4	-49.5	16.4	0.00e+00	0	43	0	1096810496	64	5114
2026-01-13 10:34:20.86	334.02	18.59	-46.5	-49.7	16.2	0.00e+00	0	43	0	1097859072	64	5222
2026-01-13 10:34:22.14	334.10	18.44	-46.4	-49.6	16.3	0.00e+00	0	43	0	1101004800	64	5171
2026-01-13 10:34:22.91	334.15	18.35	-46.5	-49.7	16.2	0.00e+00	0	43	0	1102053376	64	5266
2026-01-13 10:34:24.19	334.23	18.20	-46.6	-49.7	16.2	0.00e+00	0	43	0	1104150528	64	5255
2026-01-13 10:34:25.00	334.28	18.11	-46.7	-49.9	16.1	0.00e+00	0	43	0	1106247680	64	5372
2026-01-13 10:34:26.13	334.36	17.98	-46.8	-50.0	16.0	0.00e+00	0	43	0	1108344832	64	5456
2026-01-13 10:34:27.16	334.42	17.86	-46.8	-50.0	16.0	0.00e+00	0	43	0	1109393408	64	5443
2026-01-13 10:34:28.15	334.48	17.74	-47.0	-50.1	15.9	0.00e+00	0	43	0	1111490560	64	5495
2026-01-13 10:34:29.35	334.55	17.61	-47.1	-50.3	15.7	0.00e+00	0	43	0	1113587712	64	5614
2026-01-13 10:34:30.24	334.61	17.50	-47.1	-50.2	15.9	0.00e+00	0	43	0	1115684864	64	5534
2026-01-13 10:34:31.55	334.69	17.36	-47.2	-50.3	15.8	0.00e+00	0	43	0	1117782016	64	5599
2026-01-13 10:34:32.26	334.73	17.28	-47.2	-50.3	15.7	0.00e+00	0	43	0	1119879168	65	5313
2026-01-13 10:34:33.74	334.82	17.11	-47.2	-50.3	15.7	0.00e+00	0	43	0	1121976320	65	5337
2026-01-13 10:34:34.45	334.86	17.03	-47.2	-50.4	15.6	0.00e+00	0	43	0	1124073472	65	5384
2026-01-13 10:34:35.73	334.94	16.89	-46.9	-50.2	15.8	0.00e+00	0	43	0	1126170624	65	5236
2026-01-13 10:34:36.46	334.98	16.81	-46.9	-50.2	15.8	0.00e+00	0	43	0	1127219200	65	5255
2026-01-13 10:34:37.85	335.06	16.65	-46.8	-50.1	15.9	0.00e+00	0	43	0	1130364928	65	5213
2026-01-13 10:34:38.56	335.10	16.58	-46.7	-50.1	15.9	0.00e+00	0	43	0	1131413504	65	5202
2026-01-13 10:34:39.84	335.17	16.44	-46.6	-50.0	16.0	0.00e+00	0	43	0	1133510656	65	5157
2026-01-13 10:34:40.55	335.21	16.36	-46.6	-50.1	16.0	0.00e+00	0	43	0	1134559232	65	5186
2026-01-13 10:34:41.83	335.29	16.22	-46.5	-50.0	16.0	0.00e+00	0	43	0	1137704960	65	5139
2026-01-13 10:34:42.54	335.33	16.14	-46.6	-50.0	16.0	0.00e+00	0	43	0	1138753536	65	5146
2026-01-13 10:34:43.82	335.40	16.01	-46.6	-49.9	16.1	0.00e+00	0	43	0	1140850688	65	5092
2026-01-13 10:34:44.53	335.44	15.93	-46.6	-49.9	16.1	0.00e+00	0	43	0	1142947840	65	5084
2026-01-13 10:34:45.81	335.51	15.79	-46.6	-49.8	16.2	0.00e+00	0	43	0	1145044992	65	5030
2026-01-13 10:34:46.57	335.55	15.71	-46.7	-49.8	16.2	0.00e+00	0	43	0	1146093568	65	5008
2026-01-13 10:34:47.85	335.62	15.58	-46.8	-50.0	16.1	0.00e+00	0	43	0	1148190720	65	5109
2026-01-13 10:34:48.57	335.66	15.50	-46.8	-49.9	16.1	0.00e+00	0	43	0	1150287872	65	5071
2026-01-13 10:34:49.85	335.73	15.37	-46.9	-50.0	16.1	0.00e+00	0	43	0	1152385024	65	5117
2026-01-13 10:34:50.57	335.76	15.29	-46.9	-50.0	16.0	0.00e+00	0	43	0	1153433600	65	5135
2026-01-13 10:34:51.85	335.83	15.16	-46.9	-50.1	15.9	0.00e+00	0	43	0	1156579328	65	5166
2026-01-13 10:34:52.58	335.87	15.08	-47.1	-50.3	15.8	0.00e+00	0	43	0	1157627904	65	5284
2026-01-13 10:34:53.85	335.94	14.95	-47.0	-50.2	15.9	0.00e+00	0	43	0	1159725056	65	5224
2026-01-13 10:34:54.57	335.97	14.88	-47.0	-50.2	15.8	0.00e+00	0	43	0	1160773632	65	5236
2026-01-13 10:34:55.84	336.04	14.75	-47.1	-50.3	15.7	0.00e+00	0	43	0	1163919360	65	5307
2026-01-13 10:34:56.57	336.08	14.68	-47.0	-50.3	15.7	0.00e+00	0	43	0	1164967936	65	5308
2026-01-13 10:34:57.85	336.14	14.55	-47.1	-50.4	15.6	0.00e+00	0	43	0	1167065088	65	5353
2026-01-13 10:34:58.56	336.18	14.47	-47.1	-50.5	15.5	0.00e+00	0	43	0	1169162240	65	5428
2026-01-13 10:34:59.84	336.24	14.35	-47.1	-50.5	15.5	0.00e+00	0	43	0	1171259392	65	5454
2026-01-13 10:35:00.58	336.28	14.27	-47.1	-50.5	15.5	0.00e+00	0	42	0	1172307968	65	5444
2026-01-13 10:35:01.86	336.34	14.14	-47.2	-50.7	15.3	0.00e+00	0	43	0	1175453696	65	5547
2026-01-13 10:35:02.59	336.38	14.07	-47.2	-50.7	15.3	0.00e+00	0	43	0	1176502272	65	5580
2026-01-13 10:35:03.86	336.44	13.95	-47.2	-50.8	15.3	0.00e+00	0	43	0	1178599424	65	5594
2026-01-13 10:35:04.58	336.48	13.87	-47.3	-50.8	15.3	0.00e+00	0	43	0	1179648000	65	5604
2026-01-13 10:35:05.85	336.54	13.75	-47.3	-50.9	15.2	0.00e+00	0	43	0	1182793728	65	5666
2026-01-13 10:35:06.58	336.57	13.68	-47.4	-51.0	15.0	0.00e+00	0	43	0	1183842304	65	5748
2026-01-13 10:35:07.86	336.63	13.55	-47.3	-50.9	15.1	0.00e+00	0	42	0	1185939456	65	5700
2026-01-13 10:35:08.70	336.67	13.47	-47.3	-51.0	15.0	0.00e+00	0	43	0	1188036608	65	5734
2026-01-13 10:35:09.84	336.73	13.36	-47.3	-51.0	15.0	0.00e+00	0	43	0	1190133760	65	5731
2026-01-13 10:35:10.69	336.77	13.28	-47.4	-51.1	14.9	0.00e+00	0	43	0	1191182336	65	5824
2026-01-13 10:35:11.82	336.82	13.17	-47.4	-51.2	14.8	0.00e+00	0	42	0	1193279488	65	5858
2026-01-13 10:35:12.68	336.86	13.09	-47.3	-51.1	14.8	0.00e+00	0	43	0	1195376640	65	5852
2026-01-13 10:35:13.81	336.91	12.98	-47.3	-51.2	14.8	0.00e+00	0	43	0	1197473792	65	5899
2026-01-13 10:35:14.67	336.95	12.90	-47.3	-51.2	14.8	0.00e+00	0	43	0	1198522368	65	5881
2026-01-13 10:35:15.80	337.00	12.79	-47.3	-51.3	14.7	7.00e-07	0	43	0	1200619520	65	5942
2026-01-13 10:35:16.66	337.04	12.71	-47.4	-51.3	14.7	7.00e-07	0	43	0	1202716672	65	5969
2026-01-13 10:35:17.79	337.09	12.61	-47.4	-51.3	14.6	0.00e+00	0	43	0	1204813824	65	5981
2026-01-13 10:35:18.65	337.13	12.53	-47.4	-51.4	14.6	0.00e+00	0	43	0	1206910976	65	6056
2026-01-13 10:35:19.78	337.18	12.42	-47.4	-51.3	14.6	0.00e+00	0	43	0	1209008128	65	5985
2026-01-13 10:35:20.70	337.22	12.33	-47.5	-51.4	14.6	0.00e+00	0	43	0	1210056704	65	5998
2026-01-13 10:35:21.88	337.27	12.23	-47.4	-51.2	14.8	0.00e+00	0	43	0	1212153856	65	5886
2026-01-13 10:35:22.73	337.31	12.15	-47.4	-51.2	14.8	0.00e+00	0	43	0	1214251008	65	5863
2026-01-13 10:35:23.87	337.36	12.04	-47.5	-51.3	14.6	0.00e+00	0	43	0	1216348160	65	5969
2026-01-13 10:35:24.80	337.40	11.96	-47.4	-51.2	14.8	0.00e+00	0	43	0	1218445312	65	5868
2026-01-13 10:35:25.97	337.45	11.85	-47.5	-51.3	14.7	0.00e+00	0	43	0	1220542464	65	5959
2026-01-13 10:35:26.85	337.49	11.77	-47.5	-51.3	14.7	1.50e-06	0	43	0	1221591040	65	5941
2026-01-13 10:35:27.99	337.54	11.67	-47.6	-51.3	14.7	7.00e-07	0	43	0	1223688192	65	5948
2026-01-13 10:35:28.84	337.57	11.59	-47.6	-51.2	14.7	0.00e+00	0	43	0	1225785344	65	5903
2026-01-13 10:35:29.98	337.62	11.49	-47.5	-51.1	14.9	0.00e+00	0	43	0	1227882496	65	5809
2026-01-13 10:35:30.83	337.66	11.41	-47.5	-51.1	14.8	0.00e+00	0	43	0	1228931072	65	5827
2026-01-13 10:35:31.97	337.71	11.31	-47.5	-51.1	14.8	0.00e+00	0	43	0	1231028224	65	5823
2026-01-13 10:35:32.82	337.74	11.24	-47.6	-51.3	14.7	0.00e+00	0	43	0	1233125376	65	5936
2026-01-13 10:35:33.96	337.79	11.14	-47.5	-51.0	14.9	0.00e+00	0	43	0	1235222528	65	5768
2026-01-13 10:35:34.81	337.82	11.06	-47.5	-51.0	14.9	0.00e+00	0	43	0	1236271104	65	5787
2026-01-13 10:35:35.95	337.87	10.96	-47.6	-51.1	14.8	0.00e+00	0	43	0	1238368256	65	5832
2026-01-13 10:35:36.80	337.90	10.89	-47.6	-51.2	14.7	0.00e+00	0	43	0	1240465408	65	5868
2026-01-13 10:35:37.98	337.95	10.78	-47.6	-51.2	14.8	0.00e+00	0	43	0	1242562560	65	5870
2026-01-13 10:35:38.84	337.99	10.71	-47.5	-51.1	14.9	0.00e+00	0	43	0	1244659712	65	5791
2026-01-13 10:35:40.04	338.03	10.60	-47.5	-51.1	14.8	7.00e-07	0	43	0	1246756864	65	5844
2026-01-13 10:35:40.89	338.07	10.53	-47.5	-51.1	14.8	0.00e+00	0	43	0	1247805440	65	5848
