passes_logs/2026/01/13/T1/T1__20260113_231345_FENGYUN_3G_rec.log

#Pass ID: 20260113_231345_FENGYUN 3G
#Satellite: FENGYUN 3G
#Configuration: FENGYUN 3G
#almurnet v.1.7.20251203
#Start time: 2026-01-13 23:13:46

#Version: 2.0.20230620
#Station: T1
#Location: 37.570604 lon 55.790049 lat
#TLE: 1 56232U 23055A   26013.24803668  .00022566  00000+0  35531-3 0  9992
#TLE: 2 56232  49.9941  64.9712 0004217  19.4523 340.6605 15.53433909155921

#Time	Az	El	Level	Level2	SNR	BER	BlckErr	Temp	State	Recorded	gain1	gain2
2026-01-13 23:13:46.22	238.20	5.00	-50.5	-69.5	3.8	8.47e-01	0	39	0	0	73	30699
2026-01-13 23:13:47.21	238.11	5.07	-50.5	-69.5	3.8	8.39e-01	0	39	104	0	73	30724
2026-01-13 23:13:48.20	238.03	5.15	-50.5	-69.5	3.8	8.48e-01	0	39	104	0	73	30643
2026-01-13 23:13:49.20	237.94	5.22	-50.5	-69.5	3.8	8.47e-01	0	39	104	0	73	30594
2026-01-13 23:13:50.19	237.85	5.30	-50.5	-69.5	3.8	8.47e-01	0	39	104	0	73	30602
2026-01-13 23:13:51.18	237.76	5.37	-50.5	-69.5	3.8	8.46e-01	0	39	104	0	73	30575
2026-01-13 23:13:52.18	237.66	5.45	-50.5	-69.5	3.8	8.46e-01	0	39	104	0	73	30599
2026-01-13 23:13:53.17	237.57	5.52	-50.5	-69.5	3.8	8.46e-01	0	39	104	0	73	30697
2026-01-13 23:13:54.17	237.48	5.60	-50.5	-69.5	3.8	8.47e-01	0	40	104	0	73	30615
2026-01-13 23:13:55.16	237.39	5.68	-50.5	-69.5	3.8	8.47e-01	0	39	104	0	73	30667
2026-01-13 23:13:56.15	237.29	5.75	-50.5	-69.6	3.8	8.47e-01	0	39	104	0	73	30803
2026-01-13 23:13:57.14	237.20	5.83	-50.5	-69.5	3.8	8.46e-01	0	40	104	0	73	30520
2026-01-13 23:13:58.14	237.10	5.91	-50.5	-69.5	3.8	8.47e-01	0	39	104	0	73	30409
2026-01-13 23:13:59.13	237.01	5.99	-50.5	-69.4	3.8	8.47e-01	0	40	104	0	73	30209
2026-01-13 23:14:00.12	236.91	6.07	-50.5	-69.4	3.8	8.48e-01	0	40	104	0	73	30132
2026-01-13 23:14:01.12	236.81	6.14	-50.5	-69.3	3.8	8.47e-01	0	40	104	0	73	29823
2026-01-13 23:14:02.11	236.71	6.22	-50.5	-69.3	3.8	8.47e-01	0	39	104	0	73	29744
2026-01-13 23:14:03.10	236.61	6.30	-50.5	-69.3	3.8	8.46e-01	0	40	104	0	73	29712
2026-01-13 23:14:04.10	236.51	6.38	-50.5	-69.3	3.8	8.48e-01	0	40	104	0	73	29884
2026-01-13 23:14:05.09	236.41	6.46	-50.5	-69.4	3.8	8.47e-01	0	40	104	0	73	30156
2026-01-13 23:14:06.08	236.31	6.54	-50.5	-69.5	3.8	8.47e-01	0	40	104	0	73	30392
2026-01-13 23:14:07.07	236.21	6.62	-50.5	-69.5	3.8	8.47e-01	0	40	104	0	73	30507
2026-01-13 23:14:08.07	236.10	6.70	-50.5	-69.4	3.8	8.47e-01	0	40	104	0	73	30341
2026-01-13 23:14:09.06	236.00	6.78	-50.5	-69.4	3.8	8.47e-01	0	40	104	0	73	30233
2026-01-13 23:14:10.05	235.90	6.86	-50.5	-69.5	3.8	8.48e-01	0	40	104	0	73	30464
2026-01-13 23:14:11.05	235.79	6.95	-50.5	-69.5	3.8	8.47e-01	0	40	104	0	73	30545
2026-01-13 23:14:12.04	235.68	7.03	-50.5	-69.5	3.8	8.47e-01	0	40	104	0	73	30424
2026-01-13 23:14:13.03	235.58	7.11	-50.5	-69.4	3.8	8.46e-01	0	40	104	0	73	30193
2026-01-13 23:14:14.02	235.47	7.19	-50.5	-69.4	3.8	8.48e-01	0	40	104	0	73	30043
2026-01-13 23:14:15.02	235.36	7.28	-50.5	-69.3	3.8	8.48e-01	0	40	104	0	73	29958
2026-01-13 23:14:16.01	235.25	7.36	-50.5	-69.3	3.8	8.46e-01	0	40	104	0	73	29963
2026-01-13 23:14:17.00	235.14	7.44	-50.5	-69.2	3.8	8.46e-01	0	40	104	0	73	29492
2026-01-13 23:14:18.00	235.02	7.53	-50.5	-69.0	3.8	8.46e-01	0	40	104	0	73	28764
2026-01-13 23:14:18.99	234.91	7.61	-50.5	-68.5	3.8	8.46e-01	0	40	104	0	72	28784
2026-01-13 23:14:19.98	234.80	7.70	-50.5	-68.2	3.8	8.47e-01	0	40	104	0	72	27783
2026-01-13 23:14:20.98	234.68	7.78	-50.5	-68.2	3.8	8.47e-01	0	40	104	0	72	27807
2026-01-13 23:14:21.97	234.57	7.87	-50.5	-68.5	3.8	8.47e-01	0	40	104	0	72	28803
2026-01-13 23:14:22.96	234.45	7.95	-50.5	-69.0	3.8	8.46e-01	0	40	104	0	72	30650
2026-01-13 23:14:23.96	234.33	8.04	-50.5	-69.4	3.8	8.46e-01	0	40	104	0	72	31916
2026-01-13 23:14:24.95	234.21	8.12	-50.5	-69.5	3.8	8.47e-01	0	40	104	0	72	32262
2026-01-13 23:14:25.94	234.10	8.21	-50.5	-69.3	3.8	8.47e-01	0	40	104	0	72	31741
2026-01-13 23:14:26.94	233.97	8.30	-50.5	-69.1	3.8	8.47e-01	0	40	104	0	72	31054
2026-01-13 23:14:27.93	233.85	8.39	-50.5	-69.2	3.8	8.47e-01	0	40	104	0	72	31262
2026-01-13 23:14:28.92	233.73	8.47	-50.5	-68.8	3.8	8.47e-01	0	40	104	0	72	29985
2026-01-13 23:14:29.92	233.61	8.56	-50.4	-66.9	3.9	8.46e-01	0	40	104	0	72	24001
2026-01-13 23:14:30.91	233.48	8.65	-50.2	-62.4	6.0	8.46e-01	0	40	0	0	72	14252
2026-01-13 23:14:31.90	233.36	8.74	-49.8	-58.9	9.3	5.97e-01	0	41	0	0	71	10102
2026-01-13 23:14:32.90	233.23	8.83	-49.1	-56.1	12.3	2.78e-02	0	40	0	0	70	7738
2026-01-13 23:14:33.89	233.10	8.92	-48.2	-53.5	14.8	2.78e-02	0	41	0	0	68	6490
2026-01-13 23:14:34.88	232.97	9.01	-47.3	-51.8	16.4	5.26e-05	0	40	0	0	66	5974
2026-01-13 23:14:35.88	232.84	9.10	-47.2	-51.6	16.7	0.00e+00	0	41	0	0	66	5813
2026-01-13 23:14:37.05	232.69	9.21	-49.4	-56.9	11.5	0.00e+00	0	40	0	0	69	9069
2026-01-13 23:14:37.95	232.57	9.29	-46.4	-50.2	17.9	2.10e-04	0	41	0	0	64	5555
2026-01-13 23:14:39.05	232.42	9.39	-44.7	-47.6	20.5	2.74e-05	0	41	0	0	61	4889
2026-01-13 23:14:39.97	232.30	9.48	-48.2	-53.9	14.7	2.74e-05	0	41	0	0	67	7145
2026-01-13 23:14:41.15	232.13	9.59	-44.9	-48.0	20.3	0.00e+00	0	41	0	0	61	5122
2026-01-13 23:14:42.04	232.01	9.67	-44.5	-47.4	20.7	0.00e+00	0	41	0	0	61	4790
2026-01-13 23:14:43.18	231.85	9.78	-44.3	-47.1	21.1	0.00e+00	0	41	0	0	60	4915
2026-01-13 23:14:44.03	231.73	9.86	-44.1	-46.9	21.3	0.00e+00	0	41	0	0	60	4764
2026-01-13 23:14:45.16	231.57	9.96	-44.0	-46.8	21.4	0.00e+00	0	41	0	0	59	5002
2026-01-13 23:14:46.16	231.43	10.06	-43.8	-46.5	21.7	0.00e+00	0	41	0	0	59	4839
2026-01-13 23:14:47.16	231.29	10.16	-43.9	-46.6	21.6	0.00e+00	0	41	0	0	59	4913
2026-01-13 23:14:48.15	231.14	10.25	-44.0	-46.7	21.5	0.00e+00	0	41	0	0	59	4972
2026-01-13 23:14:49.15	230.99	10.35	-44.1	-46.8	21.4	0.00e+00	0	41	0	0	59	5015
2026-01-13 23:14:50.14	230.85	10.44	-43.8	-46.5	21.7	0.00e+00	0	41	0	0	59	4828
2026-01-13 23:14:51.14	230.70	10.54	-43.7	-46.3	21.9	0.00e+00	0	41	0	0	59	4738
2026-01-13 23:14:52.13	230.55	10.64	-43.8	-46.4	21.8	0.00e+00	0	41	0	0	59	4794
2026-01-13 23:14:53.12	230.40	10.74	-43.7	-46.3	21.9	0.00e+00	0	41	0	0	59	4747
2026-01-13 23:14:54.12	230.24	10.83	-43.7	-46.3	21.9	0.00e+00	0	41	0	0	59	4752
2026-01-13 23:14:55.11	230.09	10.93	-43.6	-46.2	22.0	0.00e+00	0	41	0	0	59	4668
2026-01-13 23:14:56.10	229.93	11.03	-43.8	-46.4	21.9	0.00e+00	0	41	0	0	59	4786
2026-01-13 23:14:57.13	229.77	11.13	-43.8	-46.4	21.8	0.00e+00	0	41	0	0	59	4786
2026-01-13 23:14:58.15	229.61	11.24	-43.8	-46.4	21.9	0.00e+00	0	41	0	0	59	4777
2026-01-13 23:14:59.18	229.44	11.34	-43.7	-46.3	21.9	0.00e+00	0	41	0	0	59	4759
2026-01-13 23:15:00.18	229.28	11.44	-43.6	-46.2	22.1	0.00e+00	0	41	0	0	59	4659
2026-01-13 23:15:01.17	229.12	11.54	-43.4	-46.0	22.3	0.00e+00	0	41	0	0	58	4830
2026-01-13 23:15:02.24	228.94	11.65	-43.4	-45.9	22.4	0.00e+00	0	41	0	0	58	4765
2026-01-13 23:15:03.13	228.79	11.74	-43.4	-45.9	22.4	0.00e+00	0	41	0	0	58	4794
2026-01-13 23:15:04.26	228.60	11.86	-43.4	-46.0	22.3	0.00e+00	0	41	0	0	58	4823
2026-01-13 23:15:05.12	228.46	11.95	-43.4	-45.9	22.3	0.00e+00	0	41	0	0	58	4788
2026-01-13 23:15:06.25	228.26	12.07	-43.3	-45.8	22.4	0.00e+00	0	41	0	0	58	4752
2026-01-13 23:15:07.11	228.11	12.16	-43.4	-46.0	22.4	0.00e+00	0	41	0	0	58	4819
2026-01-13 23:15:08.24	227.91	12.27	-43.5	-46.0	22.3	0.00e+00	0	41	0	0	58	4861
2026-01-13 23:15:09.10	227.76	12.36	-43.6	-46.1	22.3	0.00e+00	0	41	0	0	58	4882
2026-01-13 23:15:10.24	227.56	12.49	-43.6	-46.2	22.1	0.00e+00	0	41	0	0	58	4947
2026-01-13 23:15:11.09	227.40	12.58	-43.7	-46.3	22.1	0.00e+00	0	41	0	0	58	4989
2026-01-13 23:15:12.23	227.20	12.70	-43.5	-46.0	22.3	0.00e+00	0	41	0	0	58	4837
2026-01-13 23:15:13.08	227.04	12.79	-43.3	-45.8	22.5	0.00e+00	0	41	0	0	58	4729
2026-01-13 23:15:14.22	226.83	12.91	-43.1	-45.5	22.7	0.00e+00	0	41	0	0	58	4598
2026-01-13 23:15:15.08	226.67	13.00	-43.0	-45.4	22.8	0.00e+00	0	41	0	0	58	4523
2026-01-13 23:15:16.29	226.44	13.14	-42.8	-45.2	23.1	0.00e+00	0	41	0	0	57	4659
2026-01-13 23:15:17.15	226.28	13.23	-42.9	-45.3	23.0	0.00e+00	0	41	0	0	57	4717
2026-01-13 23:15:18.28	226.06	13.35	-42.6	-45.0	23.3	0.00e+00	0	41	0	0	57	4549
2026-01-13 23:15:19.14	225.89	13.45	-42.7	-45.0	23.2	0.00e+00	0	41	0	0	57	4587
2026-01-13 23:15:20.40	225.64	13.59	-42.8	-45.1	23.2	0.00e+00	0	41	0	0	57	4646
2026-01-13 23:15:21.19	225.49	13.68	-43.0	-45.3	23.0	0.00e+00	0	41	0	0	57	4759
2026-01-13 23:15:22.47	225.23	13.82	-43.1	-45.5	22.9	0.00e+00	0	41	0	0	57	4827
2026-01-13 23:15:23.19	225.08	13.90	-43.0	-45.3	23.0	0.00e+00	0	41	0	0	57	4742
2026-01-13 23:15:24.48	224.82	14.04	-42.8	-45.1	23.2	0.00e+00	0	41	0	0	57	4639
2026-01-13 23:15:25.19	224.67	14.12	-42.8	-45.1	23.2	0.00e+00	0	41	0	0	57	4630
2026-01-13 23:15:26.47	224.41	14.27	-42.9	-45.2	23.2	0.00e+00	0	41	0	0	57	4683
2026-01-13 23:15:27.18	224.26	14.35	-42.7	-45.1	23.3	0.00e+00	0	41	0	0	57	4601
2026-01-13 23:15:28.46	223.98	14.50	-42.8	-45.1	23.3	0.00e+00	0	41	0	0	57	4619
2026-01-13 23:15:29.19	223.83	14.58	-42.5	-44.8	23.4	0.00e+00	0	41	0	0	57	4486
2026-01-13 23:15:30.47	223.55	14.73	-42.4	-44.7	23.6	0.00e+00	0	41	0	0	56	4665
2026-01-13 23:15:31.18	223.39	14.81	-42.5	-44.8	23.5	0.00e+00	0	41	0	0	56	4726
2026-01-13 23:15:32.46	223.11	14.96	-42.6	-44.9	23.4	0.00e+00	0	41	0	0	56	4805
2026-01-13 23:15:33.20	222.94	15.04	-42.6	-44.9	23.4	0.00e+00	0	41	0	0	56	4808
2026-01-13 23:15:34.48	222.65	15.19	-42.7	-45.1	23.3	0.00e+00	0	41	0	0	56	4879
2026-01-13 23:15:35.20	222.49	15.28	-42.7	-45.0	23.4	0.00e+00	0	41	0	0	56	4859
2026-01-13 23:15:36.48	222.19	15.43	-42.5	-44.8	23.6	0.00e+00	0	41	0	0	56	4724
2026-01-13 23:15:37.21	222.02	15.52	-42.5	-44.8	23.6	0.00e+00	0	41	0	0	56	4731
2026-01-13 23:15:38.48	221.73	15.67	-42.6	-44.9	23.5	0.00e+00	0	41	0	0	56	4792
2026-01-13 23:15:39.19	221.56	15.75	-42.6	-44.9	23.5	0.00e+00	0	41	0	0	56	4784
2026-01-13 23:15:40.54	221.23	15.91	-42.3	-44.5	23.8	0.00e+00	0	41	0	0	56	4586
2026-01-13 23:15:41.25	221.06	16.00	-42.1	-44.3	23.9	0.00e+00	0	41	0	0	56	4487
2026-01-13 23:15:42.53	220.75	16.15	-42.2	-44.4	23.9	0.00e+00	0	41	0	0	56	4516
2026-01-13 23:15:43.24	220.57	16.24	-42.1	-44.3	24.0	0.00e+00	0	41	0	0	56	4475
2026-01-13 23:15:44.63	220.22	16.41	-42.3	-44.5	23.8	0.00e+00	0	41	0	0	56	4571
2026-01-13 23:15:45.34	220.04	16.49	-42.3	-44.6	23.8	0.00e+00	0	41	0	0	56	4612
2026-01-13 23:15:46.68	219.70	16.66	-42.1	-44.3	24.0	0.00e+00	0	41	0	0	56	4458
2026-01-13 23:15:47.65	219.45	16.78	-42.2	-44.4	24.0	0.00e+00	0	41	0	0	56	4527
2026-01-13 23:15:48.96	219.11	16.94	-41.8	-44.0	24.1	0.00e+00	0	41	0	0	55	4555
2026-01-13 23:15:49.70	218.91	17.03	-41.6	-43.8	24.3	0.00e+00	0	41	0	0	55	4449
2026-01-13 23:15:50.98	218.57	17.19	-41.6	-43.8	24.3	0.00e+00	0	41	0	0	55	4479
2026-01-13 23:15:51.69	218.38	17.27	-41.7	-43.8	24.3	0.00e+00	0	41	0	0	55	4486
2026-01-13 23:15:52.97	218.03	17.43	-41.7	-43.9	24.3	0.00e+00	0	41	0	0	55	4494
2026-01-13 23:15:53.69	217.83	17.52	-41.5	-43.6	24.5	0.00e+00	0	41	0	0	55	4362
2026-01-13 23:15:54.97	217.47	17.68	-41.3	-43.5	24.6	0.00e+00	0	41	0	0	54	4547
2026-01-13 23:15:55.69	217.27	17.77	-41.4	-43.6	24.5	0.00e+00	0	41	0	0	54	4611
2026-01-13 23:15:56.98	216.90	17.94	-41.7	-43.9	24.3	0.00e+00	0	41	0	0	54	4779
2026-01-13 23:15:57.69	216.70	18.03	-41.9	-44.1	24.2	0.00e+00	0	41	0	0	54	4874
2026-01-13 23:15:59.05	216.31	18.20	-42.0	-44.2	24.1	0.00e+00	0	41	0	0	54	4934
2026-01-13 23:15:59.76	216.10	18.29	-42.1	-44.3	24.0	0.00e+00	0	41	0	0	54	5002
2026-01-13 23:16:01.11	215.70	18.46	-42.0	-44.2	24.0	0.00e+00	0	41	0	0	54	4954
2026-01-13 23:16:01.82	215.48	18.55	-42.0	-44.2	24.0	0.00e+00	0	41	0	0	54	4979
2026-01-13 23:16:03.10	215.10	18.71	-41.9	-44.1	24.1	0.00e+00	0	41	0	0	54	4906
2026-01-13 23:16:04.16	214.77	18.85	-41.6	-43.8	24.3	0.00e+00	0	41	0	0	54	4734
2026-01-13 23:16:05.36	214.40	19.00	-41.4	-43.5	24.6	0.00e+00	0	41	0	0	54	4596
2026-01-13 23:16:06.34	214.09	19.13	-41.2	-43.3	24.8	0.00e+00	0	41	0	0	54	4473
2026-01-13 23:16:07.33	213.78	19.25	-41.2	-43.3	24.8	0.00e+00	0	41	0	0	54	4448
2026-01-13 23:16:08.32	213.46	19.38	-41.2	-43.3	24.8	0.00e+00	0	41	0	0	54	4473
2026-01-13 23:16:09.32	213.14	19.51	-41.2	-43.3	24.8	0.00e+00	0	41	0	0	54	4456
2026-01-13 23:16:10.32	212.81	19.64	-41.5	-43.7	24.5	0.00e+00	0	41	0	0	54	4669
2026-01-13 23:16:11.31	212.49	19.76	-41.7	-43.9	24.4	0.00e+00	0	41	0	0	54	4765
2026-01-13 23:16:12.31	212.16	19.89	-41.6	-43.8	24.4	0.00e+00	0	41	0	0	54	4708
2026-01-13 23:16:13.30	211.82	20.02	-41.7	-43.8	24.3	0.00e+00	0	41	0	0	54	4741
2026-01-13 23:16:14.29	211.49	20.15	-41.5	-43.6	24.6	0.00e+00	0	41	0	0	54	4619
2026-01-13 23:16:15.29	211.14	20.28	-41.5	-43.6	24.6	0.00e+00	0	41	0	0	54	4630
2026-01-13 23:16:16.29	210.80	20.40	-41.1	-43.2	24.9	0.00e+00	0	41	0	0	54	4410
2026-01-13 23:16:17.32	210.43	20.54	-41.0	-43.1	25.0	0.00e+00	0	41	0	0	54	4375
2026-01-13 23:16:18.35	210.07	20.67	-40.8	-42.8	25.2	0.00e+00	0	41	0	0	53	4480
2026-01-13 23:16:19.38	209.70	20.80	-40.8	-42.9	25.1	0.00e+00	0	41	0	0	53	4501
2026-01-13 23:16:20.37	209.34	20.93	-40.8	-42.9	25.1	0.00e+00	0	41	0	0	53	4508
2026-01-13 23:16:21.37	208.98	21.06	-40.9	-42.9	25.1	0.00e+00	0	41	0	0	53	4520
2026-01-13 23:16:22.36	208.61	21.18	-41.4	-43.6	24.7	0.00e+00	0	41	0	0	53	4875
2026-01-13 23:16:23.36	208.24	21.31	-41.3	-43.4	24.7	0.00e+00	0	41	0	0	53	4801
2026-01-13 23:16:24.35	207.87	21.44	-41.4	-43.5	24.7	0.00e+00	0	42	0	0	53	4839
2026-01-13 23:16:25.35	207.49	21.56	-41.5	-43.6	24.6	0.00e+00	0	41	0	0	53	4891
2026-01-13 23:16:26.34	207.11	21.69	-41.3	-43.4	24.7	0.00e+00	0	41	0	0	53	4767
2026-01-13 23:16:27.34	206.72	21.82	-41.0	-43.0	25.1	0.00e+00	0	41	0	0	53	4587
2026-01-13 23:16:28.34	206.33	21.94	-40.8	-42.9	25.1	0.00e+00	0	41	0	0	53	4509
2026-01-13 23:16:29.33	205.94	22.07	-40.5	-42.5	25.4	0.00e+00	0	41	0	0	53	4330
2026-01-13 23:16:30.33	205.54	22.19	-40.6	-42.6	25.3	0.00e+00	0	41	0	0	53	4388
2026-01-13 23:16:31.32	205.15	22.32	-40.6	-42.6	25.2	0.00e+00	0	41	0	0	53	4385
2026-01-13 23:16:32.32	204.74	22.44	-40.8	-42.8	25.1	0.00e+00	0	41	0	0	53	4477
2026-01-13 23:16:33.31	204.34	22.56	-40.9	-43.0	25.1	0.00e+00	0	41	0	0	53	4574
2026-01-13 23:16:34.31	203.92	22.69	-40.9	-43.0	25.1	0.00e+00	0	42	0	0	53	4549
2026-01-13 23:16:35.30	203.51	22.81	-40.8	-42.8	25.2	0.00e+00	0	42	0	0	53	4493
2026-01-13 23:16:36.39	203.05	22.94	-40.9	-42.9	25.1	0.00e+00	0	41	0	0	53	4537
2026-01-13 23:16:37.29	202.67	23.05	-40.9	-43.0	25.1	0.00e+00	0	41	0	0	53	4571
2026-01-13 23:16:38.51	202.14	23.20	-41.1	-43.2	24.9	0.00e+00	0	42	0	0	53	4661
2026-01-13 23:16:39.36	201.77	23.30	-41.0	-43.1	25.0	0.00e+00	0	42	0	0	53	4605
2026-01-13 23:16:40.50	201.27	23.44	-40.6	-42.6	25.3	0.00e+00	0	41	0	0	53	4368
2026-01-13 23:16:41.35	200.90	23.54	-40.4	-42.4	25.5	0.00e+00	0	42	0	0	52	4528
2026-01-13 23:16:42.49	200.39	23.67	-40.4	-42.4	25.4	0.00e+00	0	42	0	0	52	4527
2026-01-13 23:16:43.34	200.01	23.77	-40.2	-42.2	25.6	0.00e+00	0	41	0	0	52	4407
2026-01-13 23:16:44.48	199.49	23.90	-40.3	-42.3	25.5	0.00e+00	0	42	0	0	52	4457
2026-01-13 23:16:45.33	199.11	24.00	-40.2	-42.2	25.6	0.00e+00	0	41	0	0	52	4414
2026-01-13 23:16:46.46	198.59	24.13	-40.3	-42.3	25.5	0.00e+00	0	41	0	0	52	4444
2026-01-13 23:16:47.32	198.19	24.23	-40.0	-41.8	25.7	0.00e+00	0	42	0	0	51	4446
2026-01-13 23:16:48.45	197.66	24.35	-40.0	-42.0	25.8	0.00e+00	0	42	0	0	51	4558
2026-01-13 23:16:49.31	197.25	24.45	-40.2	-42.2	25.6	0.00e+00	0	41	0	0	51	4681
2026-01-13 23:16:50.44	196.71	24.57	-40.4	-42.4	25.5	0.00e+00	0	42	0	0	51	4768
2026-01-13 23:16:51.30	196.30	24.66	-40.3	-42.3	25.5	0.00e+00	0	42	0	0	51	4746
2026-01-13 23:16:52.43	195.75	24.78	-40.3	-42.3	25.6	0.00e+00	0	41	0	0	51	4719
2026-01-13 23:16:53.28	195.34	24.87	-40.4	-42.4	25.5	0.00e+00	0	41	0	0	51	4771
2026-01-13 23:16:54.52	194.73	25.00	-40.4	-42.4	25.5	0.00e+00	0	42	0	0	51	4808
2026-01-13 23:16:55.37	194.31	25.08	-40.2	-42.2	25.6	0.00e+00	0	41	0	0	51	4672
2026-01-13 23:16:56.51	193.74	25.20	-40.2	-42.2	25.6	0.00e+00	0	42	0	0	51	4673
2026-01-13 23:16:57.36	193.31	25.28	-40.3	-42.3	25.6	0.00e+00	0	41	0	0	51	4723
2026-01-13 23:16:58.50	192.74	25.39	-40.3	-42.3	25.6	0.00e+00	0	41	0	0	51	4744
2026-01-13 23:16:59.35	192.30	25.47	-40.4	-42.4	25.5	0.00e+00	0	41	0	0	51	4777
2026-01-13 23:17:00.49	191.72	25.58	-40.5	-42.5	25.4	0.00e+00	0	42	0	0	51	4855
2026-01-13 23:17:01.35	191.28	25.66	-40.4	-42.4	25.4	0.00e+00	0	42	0	0	51	4809
2026-01-13 23:17:02.48	190.69	25.76	-40.3	-42.3	25.5	0.00e+00	0	42	0	0	51	4746
2026-01-13 23:17:03.34	190.24	25.83	-40.1	-42.1	25.7	0.00e+00	0	41	0	0	51	4643
2026-01-13 23:17:04.47	189.64	25.93	-40.2	-42.2	25.7	0.00e+00	0	41	0	0	51	4667
2026-01-13 23:17:05.33	189.19	26.00	-40.2	-42.2	25.6	0.00e+00	0	41	0	0	51	4675
2026-01-13 23:17:06.46	188.59	26.10	-40.3	-42.3	25.5	0.00e+00	0	42	0	0	51	4745
2026-01-13 23:17:07.32	188.13	26.16	-40.2	-42.1	25.7	0.00e+00	0	41	0	0	51	4651
2026-01-13 23:17:08.45	187.52	26.25	-40.1	-42.1	25.7	0.00e+00	0	41	0	0	51	4622
2026-01-13 23:17:09.31	187.05	26.32	-40.0	-42.0	25.7	0.00e+00	0	41	0	0	51	4574
2026-01-13 23:17:10.47	186.42	26.40	-40.0	-41.9	25.8	0.00e+00	0	41	0	0	51	4539
2026-01-13 23:17:11.33	185.95	26.46	-39.9	-41.8	25.8	0.00e+00	0	42	0	0	51	4487
2026-01-13 23:17:12.47	185.32	26.54	-40.1	-42.1	25.5	0.00e+00	0	41	0	0	51	4636
2026-01-13 23:17:13.32	184.85	26.60	-40.0	-42.0	25.6	0.00e+00	0	42	0	0	51	4589
2026-01-13 23:17:14.46	184.22	26.67	-40.0	-42.0	25.7	0.00e+00	0	41	0	0	51	4559
2026-01-13 23:17:15.31	183.74	26.72	-39.7	-41.7	25.9	0.00e+00	0	41	0	0	51	4433
2026-01-13 23:17:16.45	183.10	26.79	-39.5	-41.5	26.0	0.00e+00	0	42	0	0	51	4317
2026-01-13 23:17:17.30	182.63	26.84	-39.5	-41.4	26.1	0.00e+00	0	41	0	0	50	4522
2026-01-13 23:17:18.44	181.98	26.90	-39.6	-41.6	26.0	0.00e+00	0	42	0	0	50	4614
2026-01-13 23:17:19.29	181.50	26.94	-39.7	-41.7	25.9	0.00e+00	0	41	0	0	50	4687
2026-01-13 23:17:20.43	180.85	27.00	-39.7	-41.6	25.9	0.00e+00	0	41	0	0	50	4642
2026-01-13 23:17:21.28	180.37	27.04	-39.5	-41.5	26.0	0.00e+00	0	41	0	0	50	4559
2026-01-13 23:17:22.42	179.71	27.09	-39.6	-41.6	25.9	0.00e+00	0	42	0	0	50	4631
2026-01-13 23:17:23.27	179.22	27.12	-39.4	-41.3	26.1	0.00e+00	0	41	0	0	50	4488
2026-01-13 23:17:24.41	178.57	27.16	-39.6	-41.5	25.9	0.00e+00	0	42	0	0	50	4598
2026-01-13 23:17:25.26	178.08	27.19	-39.5	-41.4	26.0	0.00e+00	0	41	0	0	50	4539
2026-01-13 23:17:26.40	177.42	27.23	-39.7	-41.7	25.8	0.00e+00	0	42	0	0	50	4653
2026-01-13 23:17:27.25	176.92	27.25	-39.4	-41.3	26.1	0.00e+00	0	41	0	0	50	4465
2026-01-13 23:17:28.39	176.26	27.28	-39.3	-41.3	26.1	0.00e+00	0	42	0	0	50	4445
2026-01-13 23:17:29.24	175.77	27.30	-39.5	-41.4	26.0	0.00e+00	0	41	0	0	50	4520
2026-01-13 23:17:30.38	175.10	27.33	-39.8	-41.8	25.7	0.00e+00	0	42	0	0	50	4726
2026-01-13 23:17:31.21	174.62	27.34	-39.8	-41.8	25.7	0.00e+00	0	42	0	0	50	4747
2026-01-13 23:17:32.35	173.95	27.36	-39.9	-41.8	25.7	0.00e+00	0	42	0	0	50	4749
2026-01-13 23:17:33.20	173.45	27.37	-39.7	-41.7	25.7	0.00e+00	0	41	0	0	50	4676
2026-01-13 23:17:34.53	172.68	27.38	-39.5	-41.4	25.9	0.00e+00	0	41	0	0	50	4534
2026-01-13 23:17:35.24	172.26	27.39	-39.7	-41.7	25.8	0.00e+00	0	41	0	0	50	4663
2026-01-13 23:17:36.51	171.52	27.39	-39.7	-41.7	25.8	0.00e+00	0	42	0	0	50	4663
2026-01-13 23:17:37.23	171.09	27.39	-39.6	-41.6	25.8	0.00e+00	0	42	0	0	50	4638
2026-01-13 23:17:38.77	170.19	27.38	-39.7	-41.6	25.7	0.00e+00	0	42	0	0	50	4650
2026-01-13 23:17:39.48	169.77	27.38	-39.6	-41.5	25.8	0.00e+00	0	42	0	0	50	4583
2026-01-13 23:17:40.76	169.03	27.37	-39.4	-41.3	26.0	0.00e+00	0	42	0	0	50	4493
2026-01-13 23:17:41.48	168.60	27.36	-39.3	-41.3	26.0	0.00e+00	0	42	0	0	50	4453
2026-01-13 23:17:42.75	167.86	27.34	-39.3	-41.3	26.1	0.00e+00	0	42	0	0	50	4464
2026-01-13 23:17:43.47	167.44	27.33	-39.3	-41.3	26.0	0.00e+00	0	41	0	0	50	4443
2026-01-13 23:17:44.74	166.70	27.30	-39.2	-41.1	26.1	0.00e+00	0	42	0	0	50	4368
2026-01-13 23:17:45.46	166.28	27.28	-39.1	-41.0	26.2	0.00e+00	0	42	0	0	50	4336
2026-01-13 23:17:46.74	165.54	27.25	-38.9	-40.9	26.2	0.00e+00	0	42	0	0	49	4501
2026-01-13 23:17:47.47	165.12	27.22	-39.0	-41.0	26.2	0.00e+00	0	42	0	0	49	4547
2026-01-13 23:17:48.75	164.38	27.18	-39.6	-41.6	25.8	0.00e+00	0	41	0	0	49	4898
2026-01-13 23:17:49.46	163.97	27.16	-39.6	-41.6	25.8	0.00e+00	0	41	0	0	50	4639
2026-01-13 23:17:50.74	163.23	27.11	-39.7	-41.7	25.7	0.00e+00	0	41	0	0	50	4657
2026-01-13 23:17:51.45	162.82	27.08	-39.5	-41.5	25.9	0.00e+00	0	42	0	0	50	4547
2026-01-13 23:17:52.73	162.09	27.02	-39.0	-40.9	26.2	0.00e+00	0	42	0	0	50	4281
2026-01-13 23:17:53.47	161.67	26.99	-38.9	-40.8	26.3	0.00e+00	0	42	0	0	49	4468
2026-01-13 23:17:54.75	160.94	26.93	-39.3	-41.3	26.0	0.00e+00	0	42	0	0	49	4741
2026-01-13 23:17:55.46	160.54	26.89	-39.6	-41.6	25.8	0.00e+00	0	41	0	0	49	4895
2026-01-13 23:17:56.74	159.82	26.82	-39.9	-41.9	25.6	0.00e+00	0	42	0	0	50	4777
2026-01-13 23:17:57.45	159.42	26.78	-39.8	-41.8	25.7	0.00e+00	0	42	0	0	50	4751
2026-01-13 23:17:58.73	158.70	26.70	-39.5	-41.5	25.8	0.00e+00	0	42	0	0	50	4566
2026-01-13 23:17:59.44	158.31	26.66	-39.7	-41.7	25.7	0.00e+00	0	42	0	0	50	4676
2026-01-13 23:18:00.72	157.60	26.58	-39.2	-41.1	26.1	0.00e+00	0	42	0	0	50	4383
2026-01-13 23:18:01.43	157.21	26.53	-39.3	-41.3	26.0	0.00e+00	0	42	0	0	50	4442
2026-01-13 23:18:02.73	156.49	26.44	-39.4	-41.4	25.9	0.00e+00	0	41	0	0	50	4541
2026-01-13 23:18:03.44	156.11	26.39	-39.5	-41.5	25.6	0.00e+00	0	42	0	0	50	4563
2026-01-13 23:18:04.72	155.41	26.30	-39.7	-41.7	25.7	0.00e+00	0	41	0	0	50	4694
2026-01-13 23:18:05.44	155.02	26.24	-39.7	-41.7	25.7	0.00e+00	0	42	0	0	50	4691
2026-01-13 23:18:06.72	154.33	26.14	-39.6	-41.6	25.7	0.00e+00	0	42	0	0	50	4635
2026-01-13 23:18:07.43	153.95	26.09	-40.0	-42.0	25.5	0.00e+00	0	42	0	0	50	4861
2026-01-13 23:18:08.71	153.27	25.98	-39.9	-42.0	25.5	0.00e+00	0	42	0	0	50	4827
2026-01-13 23:18:09.42	152.90	25.92	-40.0	-42.1	25.5	0.00e+00	0	42	0	0	50	4880
2026-01-13 23:18:10.70	152.23	25.81	-40.0	-42.0	25.5	0.00e+00	0	41	0	0	50	4834
2026-01-13 23:18:11.43	151.85	25.75	-39.9	-41.9	25.5	0.00e+00	0	42	0	0	50	4796
2026-01-13 23:18:12.71	151.18	25.63	-39.5	-41.5	25.8	0.00e+00	0	41	0	0	50	4562
2026-01-13 23:18:13.42	150.82	25.57	-39.4	-41.3	25.9	0.00e+00	0	42	0	0	50	4491
2026-01-13 23:18:14.70	150.16	25.45	-39.2	-41.2	26.1	0.00e+00	0	42	0	0	50	4421
2026-01-13 23:18:15.42	149.80	25.38	-39.2	-41.3	26.0	0.00e+00	0	41	0	0	50	4445
2026-01-13 23:18:16.70	149.15	25.25	-39.4	-41.4	25.9	0.00e+00	0	42	0	0	50	4545
2026-01-13 23:18:17.41	148.80	25.18	-39.7	-41.7	25.7	0.00e+00	0	42	0	0	50	4703
2026-01-13 23:18:18.69	148.16	25.05	-40.0	-42.0	25.5	0.00e+00	0	42	0	0	50	4851
2026-01-13 23:18:19.42	147.80	24.98	-40.1	-42.1	25.4	0.00e+00	0	41	0	0	50	4916
2026-01-13 23:18:20.69	147.18	24.85	-39.9	-42.0	25.5	0.00e+00	0	42	0	0	50	4838
2026-01-13 23:18:21.41	146.83	24.77	-40.1	-42.1	25.4	0.00e+00	0	42	0	0	50	4898
2026-01-13 23:18:22.68	146.22	24.64	-39.8	-41.8	25.6	0.00e+00	0	42	0	0	50	4726
2026-01-13 23:18:23.41	145.87	24.56	-39.7	-41.7	25.7	0.00e+00	0	42	0	0	50	4685
2026-01-13 23:18:24.69	145.26	24.42	-40.0	-42.1	25.4	0.00e+00	0	42	0	0	50	4872
2026-01-13 23:18:25.41	144.92	24.34	-40.1	-42.2	25.4	0.00e+00	0	42	0	0	50	4931
2026-01-13 23:18:26.69	144.32	24.20	-40.2	-42.2	25.3	0.00e+00	0	42	0	0	51	4682
2026-01-13 23:18:27.40	143.99	24.12	-40.1	-42.2	25.3	0.00e+00	0	41	0	0	51	4664
2026-01-13 23:18:28.73	143.38	23.97	-39.7	-41.7	25.7	0.00e+00	0	42	0	0	51	4423
2026-01-13 23:18:29.44	143.06	23.89	-39.6	-41.6	25.7	0.00e+00	0	42	0	0	51	4383
2026-01-13 23:18:30.72	142.48	23.74	-39.5	-41.5	25.8	0.00e+00	0	41	0	0	51	4319
2026-01-13 23:18:31.43	142.17	23.66	-39.5	-41.5	25.8	0.00e+00	0	42	0	0	51	4324
2026-01-13 23:18:32.71	141.60	23.51	-39.9	-41.9	25.5	0.00e+00	0	42	0	0	51	4537
2026-01-13 23:18:33.42	141.29	23.42	-40.1	-42.2	25.3	0.00e+00	0	42	0	0	51	4654
2026-01-13 23:18:34.70	140.73	23.27	-40.2	-42.3	25.3	0.00e+00	0	41	0	0	51	4708
2026-01-13 23:18:35.43	140.41	23.18	-40.2	-42.3	25.3	0.00e+00	0	42	0	0	51	4723
2026-01-13 23:18:36.70	139.87	23.03	-40.1	-42.1	25.3	0.00e+00	0	42	0	0	51	4651
2026-01-13 23:18:37.46	139.55	22.94	-40.1	-42.1	25.3	0.00e+00	0	42	0	0	51	4630
2026-01-13 23:18:38.74	139.01	22.78	-40.0	-42.1	25.4	0.00e+00	0	42	0	0	51	4600
2026-01-13 23:18:39.50	138.70	22.69	-40.0	-42.1	25.4	0.00e+00	0	42	0	0	51	4612
2026-01-13 23:18:40.78	138.17	22.53	-39.9	-41.9	25.5	0.00e+00	0	42	0	0	51	4519
2026-01-13 23:18:41.57	137.85	22.43	-39.8	-41.8	25.5	0.00e+00	0	41	0	0	51	4482
2026-01-13 23:18:43.05	137.25	22.25	-40.2	-42.2	25.3	0.00e+00	0	42	0	0	51	4681
2026-01-13 23:18:43.76	136.97	22.16	-40.2	-42.3	25.2	0.00e+00	0	42	0	0	51	4706
2026-01-13 23:18:45.20	136.40	21.98	-40.4	-42.4	25.1	0.00e+00	0	41	0	0	51	4796
2026-01-13 23:18:45.91	136.12	21.89	-40.6	-42.6	25.0	0.00e+00	0	42	0	0	51	4925
2026-01-13 23:18:47.19	135.62	21.73	-40.5	-42.6	25.0	0.00e+00	0	42	0	0	51	4903
2026-01-13 23:18:48.26	135.21	21.59	-40.4	-42.4	25.1	0.00e+00	0	42	0	0	51	4812
2026-01-13 23:18:49.12	134.89	21.48	-40.3	-42.3	25.2	0.00e+00	0	42	0	0	51	4735
2026-01-13 23:18:50.26	134.46	21.34	-40.3	-42.4	25.1	0.00e+00	0	42	0	0	51	4778
2026-01-13 23:18:51.11	134.14	21.23	-40.4	-42.5	25.0	0.00e+00	0	42	0	0	51	4858
2026-01-13 23:18:52.25	133.72	21.08	-40.6	-42.7	24.9	0.00e+00	0	41	0	0	51	4971
2026-01-13 23:18:53.10	133.41	20.98	-40.6	-42.7	24.9	0.00e+00	0	42	0	0	51	4974
2026-01-13 23:18:54.30	132.98	20.82	-40.7	-42.8	24.8	0.00e+00	0	42	0	0	52	4738
2026-01-13 23:18:55.15	132.67	20.71	-40.8	-42.9	24.6	0.00e+00	0	42	0	0	52	4787
2026-01-13 23:18:56.29	132.27	20.57	-40.9	-43.0	24.6	0.00e+00	0	42	0	0	52	4837
2026-01-13 23:18:57.14	131.97	20.46	-41.1	-43.3	24.4	0.00e+00	0	42	0	0	52	4994
2026-01-13 23:18:58.41	131.53	20.30	-41.0	-43.1	24.5	0.00e+00	0	42	0	0	52	4909
2026-01-13 23:18:59.12	131.29	20.20	-40.9	-43.1	24.6	0.00e+00	0	42	0	0	52	4875
2026-01-13 23:19:00.60	130.79	20.01	-40.6	-42.7	24.8	0.00e+00	0	42	0	0	52	4661
2026-01-13 23:19:01.31	130.55	19.92	-40.6	-42.6	24.9	0.00e+00	0	42	0	0	52	4649
2026-01-13 23:19:02.66	130.10	19.75	-40.5	-42.6	24.9	0.00e+00	0	42	0	0	52	4648
2026-01-13 23:19:03.37	129.87	19.66	-40.7	-42.8	24.8	0.00e+00	0	42	0	0	52	4724
2026-01-13 23:19:04.71	129.43	19.49	-41.2	-43.3	24.3	0.00e+00	0	42	0	0	52	5038
2026-01-13 23:19:05.42	129.20	19.40	-41.2	-43.4	24.3	0.00e+00	0	42	0	0	53	4783
2026-01-13 23:19:06.70	128.80	19.23	-41.0	-43.1	24.5	0.00e+00	0	42	0	0	53	4650
2026-01-13 23:19:07.41	128.57	19.14	-40.7	-42.8	24.8	0.00e+00	0	42	0	0	53	4457
2026-01-13 23:19:08.85	128.12	18.96	-40.7	-42.8	24.7	0.00e+00	0	42	0	0	53	4491
2026-01-13 23:19:09.56	127.90	18.87	-40.8	-42.9	24.7	0.00e+00	0	42	0	0	53	4513
2026-01-13 23:19:10.84	127.51	18.71	-41.0	-43.1	24.5	0.00e+00	0	42	0	0	53	4633
2026-01-13 23:19:11.56	127.30	18.61	-40.9	-43.0	24.5	0.00e+00	0	42	0	0	53	4589
2026-01-13 23:19:12.84	126.91	18.45	-40.8	-42.9	24.5	0.00e+00	0	42	0	0	53	4540
2026-01-13 23:19:13.56	126.70	18.36	-40.8	-43.0	24.6	0.00e+00	0	42	0	0	53	4550
2026-01-13 23:19:14.84	126.32	18.20	-40.8	-42.9	24.6	0.00e+00	0	42	0	0	53	4522
2026-01-13 23:19:15.55	126.12	18.11	-40.9	-43.0	24.5	0.00e+00	0	42	0	0	53	4578
2026-01-13 23:19:16.83	125.75	17.95	-41.0	-43.2	24.4	0.00e+00	0	42	0	0	53	4683
2026-01-13 23:19:17.56	125.54	17.86	-41.1	-43.3	24.3	0.00e+00	0	42	0	0	53	4739
2026-01-13 23:19:18.84	125.18	17.70	-41.3	-43.5	24.2	0.00e+00	0	42	0	0	53	4836
2026-01-13 23:19:19.55	124.99	17.61	-41.3	-43.5	24.1	0.00e+00	0	42	0	0	53	4846
2026-01-13 23:19:20.83	124.63	17.45	-41.2	-43.4	24.2	0.00e+00	0	42	0	0	53	4798
2026-01-13 23:19:21.63	124.42	17.35	-41.1	-43.3	24.4	0.00e+00	0	42	0	0	53	4706
2026-01-13 23:19:23.10	124.02	17.17	-41.2	-43.3	24.3	0.00e+00	0	42	0	0	53	4743
2026-01-13 23:19:23.81	123.83	17.08	-41.2	-43.4	24.2	0.00e+00	0	42	0	0	53	4785
2026-01-13 23:19:25.09	123.49	16.92	-41.4	-43.5	24.1	0.00e+00	0	42	0	0	53	4868
2026-01-13 23:19:25.80	123.31	16.84	-41.5	-43.7	24.0	0.00e+00	0	42	0	0	53	4937
2026-01-13 23:19:27.08	122.98	16.68	-41.5	-43.8	23.9	0.00e+00	0	42	0	0	53	5000
2026-01-13 23:19:27.79	122.80	16.59	-41.5	-43.8	23.9	0.00e+00	0	42	0	0	53	5013
2026-01-13 23:19:29.07	122.47	16.44	-41.9	-44.2	23.6	0.00e+00	0	42	0	0	54	4949
2026-01-13 23:19:29.89	122.27	16.34	-41.9	-44.2	23.6	0.00e+00	0	42	0	0	54	4932
2026-01-13 23:19:31.03	121.98	16.20	-41.9	-44.2	23.6	0.00e+00	0	42	0	0	54	4941
2026-01-13 23:19:31.88	121.77	16.10	-41.8	-44.1	23.6	0.00e+00	0	42	0	0	54	4896
2026-01-13 23:19:33.02	121.50	15.96	-41.9	-44.1	23.6	0.00e+00	0	42	0	0	54	4912
2026-01-13 23:19:33.88	121.29	15.86	-41.8	-44.0	23.7	0.00e+00	0	42	0	0	54	4864
2026-01-13 23:19:35.01	121.02	15.73	-41.7	-44.0	23.7	0.00e+00	0	41	0	0	54	4862
2026-01-13 23:19:35.87	120.82	15.62	-41.8	-44.0	23.7	0.00e+00	0	42	0	0	54	4859
2026-01-13 23:19:37.12	120.53	15.48	-41.8	-44.1	23.7	0.00e+00	0	42	0	0	54	4876
2026-01-13 23:19:37.97	120.33	15.38	-42.2	-44.5	23.4	0.00e+00	0	42	0	0	54	5112
2026-01-13 23:19:39.11	120.07	15.24	-42.3	-44.6	23.2	0.00e+00	0	42	0	0	55	4914
2026-01-13 23:19:39.96	119.88	15.14	-42.3	-44.6	23.2	0.00e+00	0	42	0	0	55	4892
2026-01-13 23:19:41.10	119.62	15.01	-42.3	-44.6	23.2	0.00e+00	0	42	0	0	55	4921
2026-01-13 23:19:41.95	119.43	14.91	-42.4	-44.7	23.1	0.00e+00	0	42	0	0	55	4959
2026-01-13 23:19:43.08	119.19	14.78	-42.3	-44.7	23.2	0.00e+00	0	42	0	0	55	4953
2026-01-13 23:19:43.94	119.00	14.68	-42.3	-44.6	23.2	0.00e+00	0	42	0	0	55	4904
2026-01-13 23:19:45.07	118.75	14.55	-42.1	-44.4	23.3	0.00e+00	0	42	0	0	55	4808
2026-01-13 23:19:45.93	118.57	14.45	-42.3	-44.6	23.2	0.00e+00	0	42	0	0	55	4904
2026-01-13 23:19:47.06	118.33	14.33	-42.3	-44.7	23.1	0.00e+00	0	42	0	0	55	4938
2026-01-13 23:19:47.91	118.15	14.23	-42.5	-44.9	23.0	0.00e+00	0	42	0	0	55	5052
2026-01-13 23:19:49.05	117.92	14.10	-42.6	-45.1	22.8	0.00e+00	0	42	0	0	55	5167
2026-01-13 23:19:49.90	117.74	14.01	-42.9	-45.3	22.7	0.00e+00	0	42	0	0	56	5039
2026-01-13 23:19:51.04	117.51	13.88	-42.9	-45.4	22.7	0.00e+00	0	42	0	0	56	5067
2026-01-13 23:19:51.89	117.34	13.78	-43.1	-45.5	22.5	0.00e+00	0	42	0	0	56	5146
2026-01-13 23:19:53.06	117.11	13.65	-43.0	-45.5	22.6	0.00e+00	0	42	0	0	56	5109
2026-01-13 23:19:53.91	116.94	13.56	-43.0	-45.5	22.5	0.00e+00	0	42	0	0	56	5132
2026-01-13 23:19:55.05	116.72	13.43	-42.8	-45.2	22.8	0.00e+00	0	42	0	0	56	4935
2026-01-13 23:19:55.91	116.55	13.34	-42.7	-45.1	22.9	0.00e+00	0	42	0	0	56	4909
2026-01-13 23:19:57.18	116.31	13.20	-42.9	-45.3	22.7	0.00e+00	0	42	0	0	56	5002
2026-01-13 23:19:57.90	116.17	13.12	-42.9	-45.3	22.7	0.00e+00	0	42	0	0	56	4988
2026-01-13 23:19:59.18	115.93	12.98	-43.0	-45.4	22.6	0.00e+00	0	42	0	0	56	5087
2026-01-13 23:19:59.89	115.80	12.91	-43.1	-45.6	22.5	0.00e+00	0	42	0	0	56	5174
2026-01-13 23:20:01.17	115.57	12.77	-43.2	-45.7	22.3	0.00e+00	0	42	0	0	57	4979
2026-01-13 23:20:01.88	115.44	12.70	-43.3	-45.8	22.3	0.00e+00	0	42	0	0	57	4984
2026-01-13 23:20:03.15	115.21	12.56	-43.4	-46.0	22.1	0.00e+00	0	42	0	0	57	5113
2026-01-13 23:20:03.99	115.06	12.47	-43.4	-45.9	22.1	0.00e+00	0	42	0	0	57	5091
2026-01-13 23:20:05.13	114.85	12.35	-43.3	-45.9	22.2	0.00e+00	0	42	0	0	57	5054
2026-01-13 23:20:05.98	114.70	12.26	-43.3	-45.8	22.2	0.00e+00	0	42	0	0	57	5041
2026-01-13 23:20:07.12	114.51	12.14	-43.4	-45.9	22.1	0.00e+00	0	42	0	0	57	5088
2026-01-13 23:20:07.97	114.36	12.05	-43.4	-46.0	22.1	0.00e+00	0	42	0	0	57	5109
2026-01-13 23:20:09.11	114.17	11.94	-43.7	-46.3	21.8	0.00e+00	0	42	0	0	58	5020
2026-01-13 23:20:09.96	114.02	11.85	-43.6	-46.2	21.9	0.00e+00	0	42	0	0	58	4936
2026-01-13 23:20:11.10	113.83	11.73	-43.6	-46.2	21.8	0.00e+00	0	42	0	0	58	4969
2026-01-13 23:20:11.95	113.69	11.65	-43.7	-46.4	21.7	0.00e+00	0	42	0	0	58	5076
2026-01-13 23:20:13.09	113.50	11.53	-43.8	-46.5	21.6	0.00e+00	0	42	0	0	58	5120
2026-01-13 23:20:14.39	113.29	11.40	-43.8	-46.4	21.7	0.00e+00	0	42	0	0	58	5100
2026-01-13 23:20:15.10	113.18	11.33	-43.8	-46.5	21.6	0.00e+00	0	42	0	0	58	5114
2026-01-13 23:20:16.38	112.97	11.20	-43.8	-46.5	21.5	0.00e+00	0	42	0	0	58	5141
2026-01-13 23:20:17.10	112.86	11.13	-43.8	-46.6	21.5	0.00e+00	0	42	0	0	58	5162
2026-01-13 23:20:18.38	112.66	11.00	-43.8	-46.5	21.6	0.00e+00	0	42	0	0	58	5103
2026-01-13 23:20:19.09	112.55	10.93	-43.8	-46.5	21.5	0.00e+00	0	42	0	0	58	5153
2026-01-13 23:20:20.45	112.34	10.79	-43.9	-46.6	21.4	0.00e+00	0	42	0	0	58	5192
2026-01-13 23:20:21.16	112.23	10.72	-43.9	-46.7	21.4	0.00e+00	0	42	0	0	58	5237
2026-01-13 23:20:22.46	112.03	10.60	-43.8	-46.5	21.5	0.00e+00	0	42	0	0	58	5154
2026-01-13 23:20:23.16	111.93	10.53	-43.8	-46.5	21.5	0.00e+00	0	42	0	0	58	5136
2026-01-13 23:20:24.52	111.73	10.40	-43.9	-46.7	21.4	0.00e+00	0	42	0	0	58	5223
2026-01-13 23:20:25.24	111.62	10.33	-44.0	-46.7	21.3	0.00e+00	0	42	0	0	58	5261
2026-01-13 23:20:26.52	111.43	10.21	-44.0	-46.8	21.2	0.00e+00	0	42	0	0	58	5281
2026-01-13 23:20:27.24	111.33	10.14	-44.0	-46.8	21.3	0.00e+00	0	42	0	0	58	5295
2026-01-13 23:20:28.52	111.15	10.01	-44.2	-47.1	21.0	0.00e+00	0	42	0	0	59	5173
2026-01-13 23:20:29.23	111.05	9.95	-44.4	-47.2	20.8	0.00e+00	0	42	0	0	59	5258
2026-01-13 23:20:30.73	110.84	9.81	-44.5	-47.4	20.6	0.00e+00	0	42	0	0	59	5393
2026-01-13 23:20:31.44	110.74	9.74	-44.6	-47.6	20.5	0.00e+00	0	42	0	0	59	5473
2026-01-13 23:20:32.72	110.56	9.62	-44.6	-47.6	20.5	0.00e+00	0	42	0	0	59	5501
2026-01-13 23:20:33.45	110.46	9.55	-44.7	-47.6	20.4	0.00e+00	0	42	0	0	59	5513
2026-01-13 23:20:34.73	110.29	9.43	-44.3	-47.2	20.7	0.00e+00	0	42	0	0	60	4970
2026-01-13 23:20:35.44	110.19	9.37	-44.2	-47.0	20.9	0.00e+00	0	42	0	0	60	4865
2026-01-13 23:20:36.72	110.02	9.25	-44.1	-46.9	21.0	0.00e+00	0	42	0	0	60	4807
2026-01-13 23:20:37.44	109.93	9.18	-44.1	-46.9	20.9	0.00e+00	0	42	0	0	60	4809
2026-01-13 23:20:38.72	109.76	9.07	-44.2	-47.0	20.8	0.00e+00	0	42	0	0	60	4855
2026-01-13 23:20:39.45	109.66	9.00	-44.4	-47.3	20.7	0.00e+00	0	42	0	0	60	5041
2026-01-13 23:20:40.73	109.50	8.89	-50.8	-69.5	3.8	2.45e-03	0	42	104	0	72	32384
2026-01-13 23:20:41.44	109.41	8.82	-50.8	-69.7	3.8	7.83e-01	0	42	104	0	72	33054
2026-01-13 23:20:42.71	109.25	8.71	-51.0	-69.8	3.8	7.83e-01	0	42	104	0	72	33431
2026-01-13 23:20:43.42	109.16	8.65	-51.0	-69.9	3.8	8.46e-01	0	42	104	0	72	33716
2026-01-13 23:20:44.70	109.00	8.53	-51.0	-69.9	3.8	8.48e-01	0	42	104	0	72	33788
2026-01-13 23:20:45.41	108.91	8.47	-51.0	-69.9	3.8	8.48e-01	0	42	104	0	72	33888
2026-01-13 23:20:46.71	108.75	8.36	-51.1	-70.0	3.8	8.47e-01	0	42	104	0	72	34107
2026-01-13 23:20:47.41	108.67	8.29	-50.9	-70.0	3.8	8.46e-01	0	42	104	0	72	34247
2026-01-13 23:20:48.76	108.51	8.18	-50.9	-70.0	3.8	8.47e-01	0	42	104	0	72	34451
2026-01-13 23:20:49.46	108.42	8.12	-50.8	-70.0	3.8	8.47e-01	0	42	104	0	72	34440
2026-01-13 23:20:50.80	108.27	8.00	-50.9	-70.1	3.8	8.48e-01	0	42	104	0	72	34491
2026-01-13 23:20:51.52	108.18	7.94	-50.9	-70.1	3.8	8.48e-01	0	42	104	0	72	34482
2026-01-13 23:20:52.79	108.03	7.83	-50.9	-70.1	3.8	8.46e-01	0	42	104	0	72	34696
2026-01-13 23:20:53.50	107.95	7.77	-51.0	-70.1	3.8	8.46e-01	0	42	104	0	72	34642
2026-01-13 23:20:54.78	107.81	7.66	-50.9	-70.1	3.8	8.47e-01	0	42	104	0	72	34672
2026-01-13 23:20:55.49	107.72	7.60	-50.9	-70.1	3.8	8.47e-01	0	42	104	0	72	34679
2026-01-13 23:20:56.77	107.58	7.49	-50.8	-70.1	3.8	8.47e-01	0	42	104	0	72	34764
2026-01-13 23:20:57.48	107.50	7.43	-50.9	-70.1	3.8	8.47e-01	0	42	104	0	72	34717
2026-01-13 23:20:58.75	107.36	7.32	-50.9	-70.1	3.8	8.47e-01	0	42	104	0	72	34675
2026-01-13 23:20:59.48	107.28	7.26	-51.0	-70.1	3.8	8.46e-01	0	42	104	0	72	34805
2026-01-13 23:21:00.76	107.14	7.16	-51.1	-70.1	3.8	8.47e-01	0	42	104	0	72	34704
2026-01-13 23:21:01.47	107.06	7.10	-51.1	-70.1	3.8	8.47e-01	0	42	104	0	72	34639
2026-01-13 23:21:02.74	106.93	6.99	-51.1	-70.1	3.8	8.47e-01	0	42	104	0	72	34548
2026-01-13 23:21:03.45	106.85	6.94	-51.0	-70.0	3.8	8.47e-01	0	42	104	0	72	34453
2026-01-13 23:21:04.73	106.72	6.83	-51.1	-70.0	3.8	8.48e-01	0	42	104	0	72	34461
2026-01-13 23:21:05.44	106.64	6.77	-51.0	-70.1	3.8	8.48e-01	0	42	104	0	72	34499
2026-01-13 23:21:06.72	106.51	6.67	-51.0	-70.1	3.8	8.46e-01	0	42	104	0	72	34549
2026-01-13 23:21:07.44	106.44	6.61	-51.0	-70.1	3.8	8.46e-01	0	42	104	0	72	34503
2026-01-13 23:21:08.72	106.31	6.51	-51.0	-70.0	3.8	8.46e-01	0	42	104	0	72	34416
2026-01-13 23:21:09.44	106.23	6.45	-51.0	-70.0	3.8	8.45e-01	0	42	104	0	72	34439
2026-01-13 23:21:10.72	106.10	6.35	-51.0	-70.0	3.8	8.47e-01	0	42	104	0	72	34378
2026-01-13 23:21:11.43	106.03	6.29	-51.0	-70.0	3.8	8.47e-01	0	42	104	0	72	34428
2026-01-13 23:21:12.71	105.91	6.19	-51.0	-70.0	3.8	8.48e-01	0	42	104	0	72	34375
2026-01-13 23:21:13.42	105.84	6.13	-51.0	-70.0	3.8	8.48e-01	0	42	104	0	72	34299
2026-01-13 23:21:14.69	105.71	6.03	-51.0	-70.1	3.8	8.47e-01	0	42	104	0	72	34499
2026-01-13 23:21:15.42	105.64	5.98	-51.0	-70.0	3.8	8.48e-01	0	42	104	0	72	34334
2026-01-13 23:21:16.69	105.52	5.88	-51.0	-70.0	3.8	8.47e-01	0	42	104	0	72	34288
2026-01-13 23:21:17.40	105.45	5.82	-51.0	-70.0	3.8	8.47e-01	0	42	104	0	72	34316
2026-01-13 23:21:18.68	105.33	5.72	-51.0	-70.0	3.8	8.46e-01	0	42	104	0	72	34234
2026-01-13 23:21:19.39	105.27	5.67	-51.0	-70.0	3.8	8.46e-01	0	42	104	0	72	34337
2026-01-13 23:21:20.67	105.15	5.57	-51.0	-70.0	3.8	8.46e-01	0	42	104	0	72	34299
2026-01-13 23:21:21.41	105.08	5.51	-51.0	-70.0	3.8	8.46e-01	0	42	104	0	72	34183
2026-01-13 23:21:22.69	104.96	5.42	-51.0	-70.0	3.8	8.48e-01	0	42	104	0	72	34124
2026-01-13 23:21:23.40	104.90	5.36	-51.0	-70.0	3.8	8.48e-01	0	42	104	0	72	34236
2026-01-13 23:21:24.69	104.78	5.26	-51.0	-70.0	3.8	8.45e-01	0	42	104	0	72	34239
2026-01-13 23:21:25.40	104.72	5.21	-51.0	-70.0	3.8	8.48e-01	0	42	104	0	72	34264
2026-01-13 23:21:26.69	104.60	5.11	-51.0	-70.0	3.8	8.47e-01	0	42	104	0	72	34197
2026-01-13 23:21:27.40	104.54	5.06	-51.0	-70.0	3.8	8.47e-01	0	42	104	0	72	34216

#Closed at: 2026-01-13 23:21:28
#Recorded file [0 MB]: D:/Data/31040_260114_021346.dat