passes_logs/2026/01/13/T1/T1__20260113_024543_AQUA_rec.log

#Pass ID: 20260113_024543_AQUA
#Satellite: AQUA
#Configuration: AQUA
#almurnet v.1.7.20251203
#Start time: 2026-01-13 02:45:43

#Version: 2.0.20230620
#Station: T1
#Location: 37.570604 lon 55.790049 lat
#TLE: 1 27424U 02022A   26012.29577270  .00001027  00000+0  21555-3 0  9995
#TLE: 2 27424  98.4078 338.6778 0002034  81.5885  29.6294 14.61817302260499

#Time	Az	El	Level	Level2	SNR	BER	BlckErr	Temp	State	Recorded	gain1	gain2
2026-01-13 02:45:43.72	4.14	5.03	-51.9	-72.3	3.8	7.45e-01	0	35	0	0	74	39998
2026-01-13 02:45:44.71	4.06	5.10	-47.5	-71.6	3.8	7.46e-01	0	35	104	0	67	54955
2026-01-13 02:45:45.71	3.97	5.16	-47.5	-71.6	3.8	7.44e-01	0	36	104	0	67	54829
2026-01-13 02:45:46.70	3.89	5.23	-47.5	-71.5	3.8	7.46e-01	0	36	104	0	67	54594
2026-01-13 02:45:47.69	3.80	5.29	-47.5	-71.5	3.8	7.44e-01	0	36	104	0	67	54279
2026-01-13 02:45:48.69	3.72	5.36	-47.5	-71.5	3.8	7.44e-01	0	36	104	0	67	54267
2026-01-13 02:45:49.68	3.63	5.42	-47.5	-71.5	3.8	7.47e-01	0	36	104	0	67	54131
2026-01-13 02:45:50.67	3.54	5.48	-47.5	-71.5	3.8	7.48e-01	0	36	104	0	67	54447
2026-01-13 02:45:51.66	3.46	5.55	-47.5	-71.5	3.8	7.49e-01	0	36	104	0	67	54215
2026-01-13 02:45:52.66	3.37	5.62	-47.5	-71.5	3.8	7.48e-01	0	36	104	0	67	54422
2026-01-13 02:45:53.65	3.28	5.68	-47.5	-71.5	3.8	7.46e-01	0	36	104	0	67	54359
2026-01-13 02:45:54.65	3.19	5.75	-47.5	-71.6	3.8	7.47e-01	0	36	104	0	66	58133
2026-01-13 02:45:55.64	3.10	5.81	-47.5	-71.7	3.8	7.45e-01	0	36	104	0	66	58685
2026-01-13 02:45:56.63	3.01	5.88	-47.5	-71.8	3.8	7.43e-01	0	36	104	0	66	59307
2026-01-13 02:45:57.63	2.92	5.94	-47.5	-71.8	3.8	7.45e-01	0	36	104	0	66	59246
2026-01-13 02:45:58.62	2.83	6.01	-47.5	-71.7	3.8	7.45e-01	0	36	104	0	66	58684
2026-01-13 02:45:59.61	2.74	6.08	-47.5	-71.5	3.8	7.49e-01	0	36	104	0	66	57777
2026-01-13 02:46:00.61	2.65	6.14	-47.5	-71.3	3.8	7.47e-01	0	36	104	0	66	56193
2026-01-13 02:46:01.60	2.55	6.21	-47.5	-71.2	3.8	7.48e-01	0	36	104	0	66	55768
2026-01-13 02:46:02.59	2.46	6.28	-47.5	-71.2	3.8	7.48e-01	0	36	104	0	66	55410
2026-01-13 02:46:03.59	2.37	6.34	-47.5	-71.2	3.8	7.47e-01	0	36	104	0	66	55858
2026-01-13 02:46:04.58	2.27	6.41	-47.5	-71.2	3.8	7.45e-01	0	37	104	0	66	55442
2026-01-13 02:46:05.57	2.18	6.48	-47.5	-71.1	3.8	7.45e-01	0	36	104	0	66	54741
2026-01-13 02:46:06.57	2.09	6.54	-47.5	-70.8	3.8	7.44e-01	0	36	104	0	66	53231
2026-01-13 02:46:07.56	1.99	6.61	-47.4	-70.3	3.8	7.46e-01	0	37	104	0	66	50192
2026-01-13 02:46:08.55	1.89	6.68	-47.4	-69.7	3.9	7.42e-01	0	36	104	0	66	46539
2026-01-13 02:46:09.55	1.80	6.75	-47.4	-69.4	3.8	7.42e-01	0	36	104	0	66	45172
2026-01-13 02:46:10.54	1.70	6.81	-47.4	-69.5	3.9	7.46e-01	0	37	104	0	66	45769
2026-01-13 02:46:11.54	1.60	6.88	-47.4	-69.6	3.9	7.43e-01	0	37	104	0	66	46024
2026-01-13 02:46:12.53	1.51	6.95	-47.4	-70.0	3.9	7.44e-01	0	37	104	0	66	48247
2026-01-13 02:46:13.52	1.41	7.02	-47.4	-70.7	3.8	7.46e-01	0	37	104	0	66	52534
2026-01-13 02:46:14.52	1.31	7.08	-47.4	-70.9	3.8	7.49e-01	0	37	104	0	66	54016
2026-01-13 02:46:15.51	1.21	7.15	-47.4	-70.7	3.8	7.44e-01	0	37	104	0	66	52610
2026-01-13 02:46:16.50	1.11	7.22	-47.4	-70.4	3.8	7.45e-01	0	37	104	0	66	50442
2026-01-13 02:46:17.50	1.01	7.29	-47.4	-70.0	3.9	7.45e-01	0	37	104	0	66	48405
2026-01-13 02:46:18.49	0.91	7.36	-47.4	-69.9	3.8	7.43e-01	0	37	104	0	66	47860
2026-01-13 02:46:19.48	0.81	7.43	-47.5	-69.8	3.9	7.46e-01	0	37	104	0	66	47534
2026-01-13 02:46:20.48	0.71	7.50	-47.5	-70.0	3.8	7.46e-01	0	37	104	0	66	48547
2026-01-13 02:46:21.47	0.60	7.56	-47.5	-69.8	3.9	7.46e-01	0	37	104	0	66	47261
2026-01-13 02:46:22.46	0.50	7.63	-47.4	-69.7	3.9	7.43e-01	0	37	104	0	66	46552
2026-01-13 02:46:23.45	0.40	7.70	-47.4	-69.6	3.8	7.45e-01	0	37	104	0	66	46488
2026-01-13 02:46:24.45	0.29	7.77	-47.5	-70.2	3.9	7.48e-01	0	37	104	0	66	49391
2026-01-13 02:46:25.44	0.19	7.84	-47.4	-71.1	3.8	7.51e-01	0	37	104	0	66	55009
2026-01-13 02:46:26.44	0.08	7.91	-47.4	-71.3	3.8	7.48e-01	0	37	104	0	66	56552
2026-01-13 02:46:27.43	359.98	7.98	-47.4	-68.9	4.1	7.42e-01	0	37	104	0	66	42717
2026-01-13 02:46:28.42	359.87	8.05	-47.4	-65.0	5.7	6.91e-01	0	37	0	0	66	27219
2026-01-13 02:46:29.42	359.76	8.12	-47.3	-62.1	8.3	6.41e-01	0	37	0	1572864	66	19409
2026-01-13 02:46:30.41	359.66	8.19	-47.1	-59.3	11.2	6.10e-01	0	37	0	3670016	66	14151
2026-01-13 02:46:31.40	359.55	8.26	-46.9	-57.9	12.6	6.07e-01	0	37	0	5242880	65	12789
2026-01-13 02:46:32.40	359.44	8.33	-46.7	-56.5	14.1	6.03e-01	0	37	0	7340032	65	10882
2026-01-13 02:46:33.39	359.33	8.40	-46.6	-55.6	15.0	6.01e-01	0	37	0	9437184	65	9760
2026-01-13 02:46:34.38	359.22	8.47	-46.4	-55.0	15.7	6.02e-01	0	37	0	11010048	64	9635
2026-01-13 02:46:35.38	359.11	8.54	-46.3	-54.5	16.1	6.03e-01	0	37	0	13107200	64	9152
2026-01-13 02:46:36.37	359.00	8.61	-46.3	-54.3	16.3	6.03e-01	0	37	0	14680064	64	8890
2026-01-13 02:46:37.36	358.89	8.68	-46.3	-54.3	16.3	6.02e-01	0	37	0	16777216	64	8934
2026-01-13 02:46:38.35	358.78	8.75	-46.2	-54.0	16.6	6.02e-01	0	37	0	18350080	64	8634
2026-01-13 02:46:39.35	358.66	8.83	-46.2	-54.3	16.4	6.03e-01	0	37	0	20447232	64	8870
2026-01-13 02:46:40.34	358.55	8.90	-46.4	-54.9	15.8	6.04e-01	0	37	0	22020096	64	9533
2026-01-13 02:46:41.33	358.44	8.97	-46.6	-55.7	15.0	6.00e-01	0	37	0	24117248	64	10452
2026-01-13 02:46:42.33	358.32	9.04	-46.9	-57.2	13.6	6.05e-01	0	37	0	26214400	64	12389
2026-01-13 02:46:43.32	358.20	9.11	-47.3	-58.1	12.4	6.05e-01	0	37	0	27787264	65	13036
2026-01-13 02:46:44.32	358.09	9.18	-46.2	-54.9	15.8	6.04e-01	0	37	0	29884416	64	9507
2026-01-13 02:46:45.31	357.97	9.26	-47.6	-63.2	7.7	6.54e-01	0	37	0	31457280	65	23522
2026-01-13 02:46:46.31	357.85	9.33	-48.4	-62.0	7.8	6.44e-01	0	37	0	33030144	67	18178
2026-01-13 02:46:47.30	357.74	9.40	-44.5	-50.2	20.2	6.03e-01	0	37	0	34603008	61	6608
2026-01-13 02:46:48.30	357.62	9.47	-44.5	-50.2	20.3	6.04e-01	0	37	0	36700160	61	6601
2026-01-13 02:46:49.29	357.50	9.54	-44.5	-50.0	20.5	6.03e-01	0	37	0	38797312	60	6809
2026-01-13 02:46:50.29	357.38	9.62	-44.6	-50.0	20.5	6.02e-01	0	37	0	40370176	60	6860
2026-01-13 02:46:51.35	357.25	9.70	-44.8	-50.1	20.5	6.01e-01	0	38	0	42467328	60	6884
2026-01-13 02:46:52.23	357.14	9.76	-44.8	-50.0	20.5	6.02e-01	0	37	0	44040192	60	6875
2026-01-13 02:46:53.37	357.00	9.84	-44.9	-50.0	20.5	6.02e-01	0	37	0	46137344	60	6873
2026-01-13 02:46:54.22	356.90	9.91	-44.9	-50.0	20.5	6.02e-01	0	37	0	47710208	60	6849
2026-01-13 02:46:55.36	356.75	9.99	-45.1	-50.2	20.4	6.04e-01	0	37	0	49807360	60	6976
2026-01-13 02:46:56.21	356.65	10.05	-45.0	-50.1	20.5	6.04e-01	0	38	0	51380224	60	6891
2026-01-13 02:46:57.35	356.50	10.14	-44.9	-50.1	20.5	6.03e-01	0	38	0	53477376	60	6932
2026-01-13 02:46:58.20	356.40	10.20	-44.9	-50.1	20.5	6.02e-01	0	37	0	55050240	60	6928
2026-01-13 02:46:59.34	356.25	10.28	-44.9	-50.0	20.5	6.04e-01	0	38	0	57671680	60	6878
2026-01-13 02:47:00.19	356.14	10.35	-44.8	-50.0	20.5	6.03e-01	0	37	0	59244544	60	6830
2026-01-13 02:47:01.33	356.00	10.43	-44.9	-50.0	20.5	6.07e-01	0	38	0	61341696	60	6846
2026-01-13 02:47:02.18	355.89	10.50	-44.9	-50.0	20.6	6.01e-01	0	38	0	62914560	60	6820
2026-01-13 02:47:03.32	355.74	10.58	-44.8	-49.9	20.6	6.02e-01	0	38	0	65011712	60	6767
2026-01-13 02:47:04.17	355.63	10.64	-44.8	-50.0	20.6	6.03e-01	0	37	0	66584576	60	6839
2026-01-13 02:47:05.31	355.48	10.73	-44.6	-50.0	20.6	6.03e-01	0	37	0	68681728	60	6802
2026-01-13 02:47:06.17	355.37	10.79	-44.5	-49.8	20.7	6.04e-01	0	38	0	70254592	60	6699
2026-01-13 02:47:07.42	355.20	10.89	-44.6	-49.7	20.8	6.00e-01	0	38	0	72351744	60	6638
2026-01-13 02:47:08.23	355.09	10.95	-44.5	-49.7	20.8	6.05e-01	0	37	0	73924608	60	6630
2026-01-13 02:47:09.37	354.94	11.03	-44.5	-49.6	21.0	6.04e-01	0	38	0	76021760	60	6529
2026-01-13 02:47:10.22	354.82	11.10	-44.6	-49.6	21.0	6.02e-01	0	38	0	77594624	60	6531
2026-01-13 02:47:11.36	354.67	11.18	-44.4	-49.5	21.0	6.02e-01	0	38	0	79691776	60	6485
2026-01-13 02:47:12.29	354.54	11.25	-44.4	-49.4	21.2	6.03e-01	0	38	0	81788928	60	6387
2026-01-13 02:47:13.46	354.38	11.34	-44.4	-49.3	21.2	6.02e-01	0	38	0	83886080	60	6311
2026-01-13 02:47:14.31	354.26	11.41	-44.4	-49.4	21.2	6.01e-01	0	38	0	85458944	60	6379
2026-01-13 02:47:15.45	354.10	11.49	-44.4	-49.4	21.2	6.02e-01	0	38	0	87556096	60	6365
2026-01-13 02:47:16.30	353.98	11.56	-44.4	-49.5	21.1	6.02e-01	0	38	0	89128960	60	6430
2026-01-13 02:47:17.44	353.82	11.64	-44.4	-49.4	21.1	6.03e-01	0	38	0	91226112	60	6417
2026-01-13 02:47:18.29	353.70	11.71	-44.3	-49.4	21.1	6.04e-01	0	38	0	92798976	60	6399
2026-01-13 02:47:19.43	353.54	11.80	-44.3	-49.5	21.1	6.05e-01	0	38	0	94896128	59	6864
2026-01-13 02:47:20.28	353.42	11.86	-44.4	-49.5	21.1	6.01e-01	0	38	0	96468992	59	6867
2026-01-13 02:47:21.42	353.26	11.95	-44.2	-49.6	21.0	6.02e-01	0	38	0	98566144	59	6950
2026-01-13 02:47:22.27	353.13	12.01	-44.0	-49.5	21.2	6.04e-01	0	38	0	100139008	59	6847
2026-01-13 02:47:23.41	352.97	12.10	-43.9	-49.5	21.2	6.00e-01	0	38	0	102760448	59	6837
2026-01-13 02:47:24.26	352.84	12.17	-43.8	-49.5	21.2	6.05e-01	0	38	0	104333312	59	6856
2026-01-13 02:47:25.40	352.67	12.25	-43.7	-49.6	21.1	6.01e-01	0	38	0	106430464	59	6922
2026-01-13 02:47:26.25	352.55	12.32	-43.7	-49.7	21.0	6.01e-01	0	38	0	108003328	59	7008
2026-01-13 02:47:27.46	352.37	12.41	-43.7	-49.6	21.1	6.02e-01	0	38	0	110100480	59	6886
2026-01-13 02:47:28.32	352.24	12.48	-43.8	-49.5	21.2	6.01e-01	0	38	0	111673344	59	6858
2026-01-13 02:47:29.50	352.06	12.57	-43.9	-49.6	21.1	6.03e-01	0	38	0	113770496	59	6904
2026-01-13 02:47:30.35	351.93	12.64	-44.1	-49.6	21.1	6.02e-01	0	38	0	115343360	59	6949
2026-01-13 02:47:31.55	351.75	12.73	-44.3	-49.5	21.2	6.01e-01	0	38	0	117964800	59	6872
2026-01-13 02:47:32.40	351.62	12.79	-44.4	-49.6	21.1	6.01e-01	0	38	0	119537664	59	6942
2026-01-13 02:47:33.60	351.43	12.89	-44.5	-49.5	21.2	6.02e-01	0	38	0	121634816	60	6423
2026-01-13 02:47:34.45	351.30	12.95	-44.9	-49.4	21.2	6.04e-01	0	38	0	123207680	60	6398
2026-01-13 02:47:35.67	351.11	13.05	-45.5	-49.5	21.2	6.01e-01	0	38	0	125829120	61	6062
2026-01-13 02:47:36.52	350.98	13.11	-45.5	-49.4	21.3	6.03e-01	0	38	0	127401984	61	5998
2026-01-13 02:47:37.66	350.80	13.20	-45.5	-49.3	21.4	6.02e-01	0	38	0	129499136	61	5967
2026-01-13 02:47:38.51	350.66	13.27	-45.7	-49.3	21.3	6.04e-01	0	38	0	131072000	62	5618
2026-01-13 02:47:39.65	350.48	13.36	-46.0	-49.2	21.4	6.02e-01	0	38	0	133169152	62	5586
2026-01-13 02:47:40.58	350.33	13.43	-46.2	-49.4	21.3	6.03e-01	0	38	0	134742016	62	5678
2026-01-13 02:47:41.75	350.14	13.52	-46.1	-49.3	21.4	6.03e-01	0	38	0	136839168	63	5281
2026-01-13 02:47:42.60	350.00	13.59	-45.9	-49.1	21.6	6.01e-01	0	38	0	138412032	63	5207
2026-01-13 02:47:43.97	349.78	13.70	-46.0	-49.4	21.4	6.03e-01	0	38	0	141033472	63	5346
2026-01-13 02:47:44.68	349.66	13.75	-45.8	-49.3	21.5	6.03e-01	0	38	0	142606336	63	5282
2026-01-13 02:47:45.96	349.45	13.85	-45.6	-49.3	21.4	6.03e-01	0	38	0	144703488	63	5318
2026-01-13 02:47:46.67	349.33	13.91	-45.5	-49.2	21.5	6.00e-01	0	38	0	146276352	63	5269
2026-01-13 02:47:47.97	349.11	14.01	-45.3	-49.1	21.6	6.02e-01	0	38	0	148373504	62	5516
2026-01-13 02:47:48.68	348.99	14.07	-45.2	-49.1	21.6	6.00e-01	0	38	0	149946368	62	5482
2026-01-13 02:47:49.96	348.77	14.17	-45.0	-49.1	21.6	6.03e-01	0	38	0	152567808	62	5502
2026-01-13 02:47:50.70	348.65	14.22	-45.0	-49.1	21.6	6.02e-01	0	38	0	153616384	62	5506
2026-01-13 02:47:51.98	348.43	14.33	-45.1	-49.1	21.6	6.03e-01	0	38	0	156237824	61	5821
2026-01-13 02:47:52.69	348.31	14.38	-45.2	-49.2	21.5	6.04e-01	0	38	0	157286400	61	5865
2026-01-13 02:47:53.96	348.08	14.48	-45.4	-49.2	21.5	6.01e-01	0	38	0	159907840	61	5857
2026-01-13 02:47:54.67	347.96	14.54	-45.4	-49.1	21.6	6.05e-01	0	38	0	160956416	61	5821
2026-01-13 02:47:56.00	347.73	14.64	-45.6	-49.1	21.6	6.02e-01	0	38	0	163577856	61	5844
2026-01-13 02:47:56.71	347.60	14.70	-45.8	-49.2	21.5	6.00e-01	0	38	0	165150720	62	5548
2026-01-13 02:47:58.05	347.36	14.80	-45.8	-49.0	21.7	6.02e-01	0	38	0	167247872	62	5462
2026-01-13 02:47:58.76	347.24	14.86	-45.8	-49.0	21.6	6.03e-01	0	38	0	168820736	62	5455
2026-01-13 02:48:00.04	347.01	14.96	-45.7	-49.0	21.8	6.03e-01	0	38	0	171442176	62	5417
2026-01-13 02:48:00.75	346.88	15.02	-45.7	-48.9	21.8	6.02e-01	0	38	0	172490752	62	5372
2026-01-13 02:48:02.13	346.63	15.13	-45.8	-49.0	21.8	6.04e-01	0	38	0	175112192	62	5430
2026-01-13 02:48:02.84	346.50	15.18	-45.8	-49.0	21.7	5.99e-01	0	38	0	176685056	62	5460
2026-01-13 02:48:04.12	346.26	15.28	-45.6	-49.0	21.7	6.02e-01	0	38	0	178782208	62	5449
2026-01-13 02:48:05.16	346.07	15.36	-45.4	-49.1	21.6	6.03e-01	0	38	0	180879360	62	5520
2026-01-13 02:48:06.12	345.89	15.44	-45.3	-49.1	21.6	6.04e-01	0	38	0	182452224	62	5524
2026-01-13 02:48:07.53	345.62	15.55	-45.3	-49.0	21.7	6.02e-01	0	38	0	185073664	62	5455
2026-01-13 02:48:08.24	345.49	15.61	-45.3	-49.0	21.8	6.04e-01	0	38	0	186646528	62	5408
2026-01-13 02:48:09.52	345.25	15.71	-45.3	-48.9	21.8	6.04e-01	0	38	0	189267968	62	5364
2026-01-13 02:48:10.24	345.11	15.76	-45.3	-48.9	21.8	6.02e-01	0	38	0	190316544	62	5350
2026-01-13 02:48:11.52	344.86	15.87	-45.3	-48.9	21.8	6.02e-01	0	38	0	192937984	62	5359
2026-01-13 02:48:12.25	344.72	15.92	-45.2	-48.8	21.8	6.02e-01	0	38	0	193986560	62	5338
2026-01-13 02:48:13.53	344.47	16.02	-45.1	-48.8	21.9	6.01e-01	0	38	0	196608000	62	5334
2026-01-13 02:48:14.24	344.34	16.08	-45.1	-48.9	21.8	6.01e-01	0	38	0	197656576	61	5708
2026-01-13 02:48:15.52	344.08	16.18	-44.9	-48.9	21.8	6.01e-01	0	38	0	200278016	61	5697
2026-01-13 02:48:16.24	343.94	16.24	-44.9	-49.0	21.8	6.02e-01	0	38	0	201850880	61	5725
2026-01-13 02:48:17.52	343.69	16.34	-44.8	-48.9	21.8	6.02e-01	0	38	0	203948032	61	5685
2026-01-13 02:48:18.23	343.55	16.39	-45.0	-49.0	21.7	6.02e-01	0	38	0	205520896	61	5773
2026-01-13 02:48:19.51	343.29	16.49	-45.1	-49.0	21.7	6.02e-01	0	38	0	207618048	61	5767
2026-01-13 02:48:20.22	343.14	16.55	-45.2	-49.1	21.7	6.01e-01	0	38	0	209190912	61	5791
2026-01-13 02:48:21.71	342.84	16.67	-45.3	-49.1	21.6	6.02e-01	0	38	0	211812352	61	5851
2026-01-13 02:48:22.43	342.69	16.72	-45.3	-49.1	21.6	6.02e-01	0	38	0	213385216	61	5850
2026-01-13 02:48:23.70	342.43	16.82	-45.4	-49.0	21.7	6.03e-01	0	38	0	215482368	61	5762
2026-01-13 02:48:24.43	342.28	16.88	-45.6	-49.0	21.8	6.02e-01	0	38	0	217055232	61	5731
2026-01-13 02:48:25.71	342.02	16.98	-45.9	-49.1	21.7	6.03e-01	0	38	0	219152384	62	5499
2026-01-13 02:48:26.42	341.87	17.03	-46.0	-49.0	21.7	6.03e-01	0	38	0	220725248	62	5461
2026-01-13 02:48:27.70	341.60	17.13	-45.9	-48.9	21.8	6.02e-01	0	38	0	222822400	62	5391
2026-01-13 02:48:28.44	341.44	17.19	-45.9	-49.0	21.8	6.02e-01	0	38	0	224395264	62	5406
2026-01-13 02:48:29.71	341.17	17.29	-46.0	-49.1	21.7	6.03e-01	0	38	0	227016704	62	5467
2026-01-13 02:48:30.46	341.01	17.35	-45.9	-49.0	21.8	6.00e-01	0	38	0	228065280	62	5403
2026-01-13 02:48:31.74	340.73	17.45	-45.9	-49.0	21.8	6.04e-01	0	38	0	230686720	62	5404
2026-01-13 02:48:32.45	340.58	17.50	-46.0	-49.0	21.8	6.03e-01	0	38	0	231735296	62	5418
2026-01-13 02:48:33.73	340.30	17.60	-46.0	-49.1	21.7	6.01e-01	0	38	0	234356736	62	5468
2026-01-13 02:48:34.44	340.15	17.65	-46.0	-49.0	21.8	6.02e-01	0	38	0	235929600	62	5433
2026-01-13 02:48:35.72	339.87	17.75	-45.9	-49.0	21.8	6.00e-01	0	38	0	238026752	62	5418
2026-01-13 02:48:36.67	339.65	17.82	-45.9	-49.1	21.8	6.03e-01	0	38	0	240123904	62	5486
2026-01-13 02:48:37.96	339.37	17.92	-45.7	-49.1	21.7	6.05e-01	0	38	0	242221056	62	5505
2026-01-13 02:48:38.67	339.21	17.98	-45.7	-49.1	21.7	6.02e-01	0	38	0	243793920	62	5495
2026-01-13 02:48:39.95	338.92	18.07	-45.9	-49.1	21.7	6.01e-01	0	38	0	245891072	62	5510
2026-01-13 02:48:40.67	338.76	18.13	-45.9	-49.1	21.7	6.05e-01	0	38	0	247463936	62	5476
2026-01-13 02:48:41.94	338.47	18.22	-46.1	-49.2	21.6	6.01e-01	0	38	0	249561088	62	5566
2026-01-13 02:48:42.67	338.30	18.28	-46.1	-49.1	21.7	6.00e-01	0	38	0	251133952	62	5521
2026-01-13 02:48:43.95	338.01	18.38	-45.6	-49.0	21.8	6.02e-01	0	38	0	253755392	62	5440
2026-01-13 02:48:44.66	337.84	18.43	-45.3	-49.1	21.8	6.01e-01	0	38	0	254803968	62	5486
2026-01-13 02:48:45.94	337.55	18.52	-45.1	-49.1	21.7	6.02e-01	0	38	0	257425408	62	5495
2026-01-13 02:48:46.65	337.38	18.58	-45.1	-49.1	21.7	6.03e-01	0	38	0	258473984	62	5485
2026-01-13 02:48:48.03	337.06	18.68	-45.4	-49.1	21.7	6.03e-01	0	38	0	261095424	62	5505
2026-01-13 02:48:48.74	336.89	18.73	-45.6	-49.1	21.7	6.01e-01	0	38	0	262668288	62	5512
2026-01-13 02:48:50.08	336.57	18.83	-45.9	-49.2	21.6	6.02e-01	0	38	0	265289728	62	5584
2026-01-13 02:48:50.79	336.40	18.88	-46.2	-49.3	21.6	6.03e-01	0	38	0	266338304	62	5627
2026-01-13 02:48:52.15	336.07	18.98	-46.2	-49.3	21.5	6.03e-01	0	38	0	268959744	63	5319
2026-01-13 02:48:52.86	335.90	19.04	-46.1	-49.3	21.5	6.03e-01	0	38	0	270532608	63	5317
2026-01-13 02:48:54.20	335.58	19.13	-45.9	-49.2	21.6	6.03e-01	0	38	0	272629760	63	5266
2026-01-13 02:48:54.91	335.40	19.18	-45.7	-49.1	21.7	6.02e-01	0	38	0	274202624	63	5197
2026-01-13 02:48:56.19	335.09	19.28	-45.7	-49.1	21.7	6.02e-01	0	38	0	276299776	63	5190
2026-01-13 02:48:56.92	334.91	19.33	-45.8	-49.1	21.7	6.00e-01	0	38	0	277872640	63	5217
2026-01-13 02:48:58.20	334.59	19.42	-45.8	-49.1	21.7	6.02e-01	0	38	0	280494080	63	5181
2026-01-13 02:48:58.92	334.41	19.47	-45.9	-49.1	21.7	6.04e-01	0	38	0	281542656	63	5177
2026-01-13 02:49:00.20	334.09	19.56	-45.9	-49.2	21.7	6.00e-01	0	38	0	284164096	63	5223
2026-01-13 02:49:00.92	333.91	19.61	-45.9	-49.2	21.6	6.04e-01	0	38	0	285212672	63	5240
2026-01-13 02:49:02.20	333.59	19.70	-45.8	-49.2	21.7	6.01e-01	0	38	0	287834112	63	5220
2026-01-13 02:49:02.94	333.40	19.76	-45.8	-49.2	21.7	6.00e-01	0	38	0	289406976	63	5232
2026-01-13 02:49:04.22	333.08	19.85	-45.8	-49.2	21.6	6.03e-01	0	38	0	291504128	63	5279
2026-01-13 02:49:05.06	332.86	19.90	-45.8	-49.3	21.5	6.03e-01	0	38	0	293076992	63	5326
2026-01-13 02:49:06.50	332.49	20.00	-45.9	-49.4	21.5	6.03e-01	0	38	0	295698432	63	5397
2026-01-13 02:49:07.21	332.31	20.05	-45.9	-49.3	21.6	6.01e-01	0	38	0	297271296	63	5306
2026-01-13 02:49:08.49	331.97	20.14	-46.0	-49.1	21.7	6.03e-01	0	38	0	299368448	63	5210
2026-01-13 02:49:09.21	331.78	20.19	-46.1	-49.3	21.6	6.03e-01	0	38	0	300941312	63	5280
2026-01-13 02:49:10.49	331.45	20.27	-46.1	-49.3	21.6	6.04e-01	0	38	0	303562752	63	5321
2026-01-13 02:49:11.20	331.26	20.32	-46.1	-49.2	21.6	6.03e-01	0	38	0	304611328	63	5277
2026-01-13 02:49:12.49	330.92	20.41	-46.2	-49.3	21.5	6.04e-01	0	38	0	307232768	63	5334
2026-01-13 02:49:13.20	330.73	20.45	-46.2	-49.3	21.6	6.03e-01	0	38	0	308281344	63	5323
2026-01-13 02:49:14.48	330.39	20.54	-46.3	-49.5	21.4	6.04e-01	0	38	0	310902784	63	5438
2026-01-13 02:49:15.20	330.19	20.58	-46.3	-49.6	21.4	6.00e-01	0	38	0	311951360	63	5478
2026-01-13 02:49:16.48	329.85	20.67	-46.1	-49.3	21.5	6.01e-01	0	38	0	314572800	63	5333
2026-01-13 02:49:17.19	329.65	20.71	-46.1	-49.3	21.7	6.01e-01	0	38	0	315621376	63	5290
2026-01-13 02:49:18.47	329.31	20.79	-46.0	-49.4	21.5	6.03e-01	0	38	0	318242816	63	5382
2026-01-13 02:49:19.18	329.11	20.84	-46.0	-49.4	21.4	6.01e-01	0	38	0	319815680	63	5401
2026-01-13 02:49:20.53	328.74	20.92	-46.1	-49.6	21.4	6.01e-01	0	38	0	321912832	63	5480
2026-01-13 02:49:21.24	328.54	20.97	-46.1	-49.5	21.4	6.04e-01	0	38	0	323485696	63	5454
2026-01-13 02:49:22.52	328.19	21.05	-46.0	-49.3	21.6	6.03e-01	0	38	0	326107136	63	5332
2026-01-13 02:49:23.24	327.99	21.09	-46.1	-49.4	21.5	6.03e-01	0	38	0	327155712	63	5390
2026-01-13 02:49:24.52	327.63	21.17	-46.1	-49.4	21.5	6.02e-01	0	38	0	329777152	63	5373
2026-01-13 02:49:25.25	327.43	21.21	-46.2	-49.4	21.5	6.04e-01	0	38	0	330825728	63	5381
2026-01-13 02:49:26.53	327.06	21.29	-46.2	-49.4	21.5	6.03e-01	0	38	0	333447168	63	5380
2026-01-13 02:49:27.25	326.86	21.33	-46.2	-49.4	21.5	6.02e-01	0	38	0	334495744	63	5366
2026-01-13 02:49:28.53	326.50	21.40	-46.4	-49.6	21.3	6.03e-01	0	38	0	337117184	63	5492
2026-01-13 02:49:29.24	326.29	21.45	-46.3	-49.6	21.4	6.00e-01	0	38	0	338690048	63	5465
2026-01-13 02:49:30.52	325.93	21.52	-46.0	-49.5	21.4	6.03e-01	0	38	0	340787200	63	5444
2026-01-13 02:49:31.23	325.72	21.56	-45.9	-49.5	21.4	6.02e-01	0	38	0	342360064	63	5419
2026-01-13 02:49:32.51	325.35	21.63	-46.0	-49.5	21.4	6.01e-01	0	38	0	344457216	63	5464
2026-01-13 02:49:33.25	325.14	21.67	-46.0	-49.6	21.4	6.03e-01	0	38	0	346030080	63	5467
2026-01-13 02:49:34.53	324.77	21.74	-46.1	-49.4	21.5	6.02e-01	0	38	0	348651520	63	5372
2026-01-13 02:49:35.24	324.56	21.78	-46.2	-49.5	21.5	6.01e-01	0	38	0	349700096	63	5422
2026-01-13 02:49:36.52	324.18	21.85	-46.1	-49.4	21.5	6.01e-01	0	38	0	352321536	63	5399
2026-01-13 02:49:37.24	323.97	21.89	-46.2	-49.5	21.5	6.00e-01	0	38	0	353370112	63	5440
2026-01-13 02:49:38.52	323.59	21.95	-46.2	-49.6	21.3	6.03e-01	0	38	0	355991552	63	5498
2026-01-13 02:49:39.26	323.37	21.99	-46.3	-49.6	21.3	6.01e-01	0	38	0	357564416	63	5518
2026-01-13 02:49:40.56	322.99	22.06	-46.2	-49.5	21.4	6.02e-01	0	38	0	359661568	63	5446
2026-01-13 02:49:41.27	322.78	22.09	-46.2	-49.5	21.5	6.03e-01	0	38	0	361234432	63	5417
2026-01-13 02:49:42.55	322.39	22.16	-46.2	-49.4	21.5	6.04e-01	0	38	0	363331584	63	5402
2026-01-13 02:49:43.27	322.18	22.19	-46.3	-49.6	21.3	6.03e-01	0	38	0	364904448	63	5516
2026-01-13 02:49:44.65	321.76	22.26	-46.3	-49.7	21.2	6.01e-01	0	38	0	367525888	63	5579
2026-01-13 02:49:45.36	321.54	22.29	-46.3	-49.7	21.2	6.01e-01	0	38	0	368574464	63	5586
2026-01-13 02:49:46.71	321.13	22.36	-46.3	-49.7	21.2	6.05e-01	0	38	0	371195904	63	5587
2026-01-13 02:49:47.43	320.91	22.39	-46.2	-49.6	21.3	6.02e-01	0	38	0	372768768	63	5526
2026-01-13 02:49:48.70	320.53	22.45	-46.2	-49.7	21.2	6.02e-01	0	38	0	374865920	63	5567
2026-01-13 02:49:49.41	320.31	22.48	-46.2	-49.8	21.2	6.03e-01	0	38	0	376438784	63	5598
2026-01-13 02:49:50.69	319.92	22.53	-46.2	-49.6	21.3	6.00e-01	0	38	0	378535936	63	5495
2026-01-13 02:49:51.41	319.69	22.56	-46.3	-49.7	21.3	6.06e-01	0	38	0	380108800	63	5560
2026-01-13 02:49:52.69	319.30	22.62	-46.3	-49.5	21.4	6.03e-01	0	38	0	382205952	63	5440
2026-01-13 02:49:53.40	319.08	22.65	-46.3	-49.6	21.4	6.02e-01	0	38	0	383778816	63	5482
2026-01-13 02:49:54.67	318.68	22.70	-46.4	-49.7	21.3	5.98e-01	0	38	0	386400256	63	5569
2026-01-13 02:49:55.40	318.46	22.73	-46.4	-49.8	21.2	6.02e-01	0	38	0	387448832	63	5609
2026-01-13 02:49:56.68	318.05	22.78	-46.4	-49.7	21.3	6.04e-01	0	38	0	390070272	63	5559
2026-01-13 02:49:57.39	317.83	22.80	-46.4	-49.7	21.2	6.02e-01	0	38	0	391118848	63	5590
2026-01-13 02:49:58.67	317.43	22.85	-46.4	-49.7	21.3	6.04e-01	0	38	0	393740288	63	5549
2026-01-13 02:49:59.38	317.21	22.88	-46.5	-49.7	21.3	6.01e-01	0	38	0	394788864	63	5576
2026-01-13 02:50:00.66	316.80	22.92	-46.5	-49.8	21.2	6.01e-01	0	38	0	397410304	63	5606
2026-01-13 02:50:01.37	316.58	22.95	-46.4	-49.6	21.4	6.05e-01	0	38	0	398983168	63	5499
2026-01-13 02:50:02.73	316.15	22.99	-46.4	-49.7	21.3	6.02e-01	0	38	0	401080320	63	5535
2026-01-13 02:50:03.44	315.92	23.02	-46.4	-49.6	21.4	6.01e-01	0	38	0	402653184	63	5476
2026-01-13 02:50:04.72	315.51	23.06	-46.5	-49.8	21.3	6.00e-01	0	38	0	405274624	63	5598
2026-01-13 02:50:05.44	315.28	23.08	-46.4	-49.6	21.4	6.03e-01	0	38	0	406323200	63	5482
2026-01-13 02:50:06.72	314.87	23.12	-46.4	-49.7	21.3	6.01e-01	0	38	0	408944640	63	5549
2026-01-13 02:50:07.45	314.64	23.14	-46.4	-49.6	21.3	6.02e-01	0	38	0	409993216	63	5514
2026-01-13 02:50:08.72	314.23	23.18	-46.5	-49.8	21.2	6.03e-01	0	38	0	412614656	63	5618
2026-01-13 02:50:09.45	313.99	23.20	-46.6	-50.0	21.0	6.03e-01	0	38	0	413663232	63	5725
2026-01-13 02:50:10.73	313.58	23.23	-46.4	-49.7	21.3	6.02e-01	0	38	0	416284672	63	5572
2026-01-13 02:50:11.44	313.35	23.25	-46.6	-50.0	21.0	6.04e-01	0	38	0	417857536	63	5782
2026-01-13 02:50:12.72	312.94	23.28	-46.4	-49.7	21.3	6.03e-01	0	38	0	419954688	63	5576
2026-01-13 02:50:13.43	312.71	23.30	-46.6	-50.0	21.0	6.03e-01	0	38	0	421527552	64	5444
2026-01-13 02:50:14.71	312.29	23.33	-46.7	-50.1	20.9	5.99e-01	0	38	0	423624704	64	5526
2026-01-13 02:50:15.43	312.06	23.34	-46.6	-49.9	21.0	6.03e-01	0	38	0	425197568	64	5394
2026-01-13 02:50:16.72	311.64	23.37	-46.6	-50.0	21.0	6.01e-01	0	38	0	427294720	64	5439
2026-01-13 02:50:17.65	311.33	23.39	-46.4	-49.7	21.2	6.03e-01	0	38	0	429391872	64	5222
2026-01-13 02:50:18.97	310.90	23.41	-46.4	-49.7	21.2	6.03e-01	0	38	0	432013312	64	5253
2026-01-13 02:50:19.68	310.67	23.43	-46.6	-50.0	21.0	6.03e-01	0	38	0	433061888	64	5418
2026-01-13 02:50:20.96	310.25	23.45	-46.0	-49.3	21.6	6.02e-01	0	38	0	435683328	64	4995
2026-01-13 02:50:21.69	310.01	23.46	-46.5	-50.0	20.9	6.00e-01	0	38	0	436731904	64	5456
2026-01-13 02:50:22.97	309.59	23.48	-46.4	-49.7	21.2	6.02e-01	0	38	0	439353344	64	5276
2026-01-13 02:50:23.70	309.35	23.49	-46.8	-50.2	20.7	6.03e-01	0	38	0	440401920	64	5592
2026-01-13 02:50:24.98	308.93	23.51	-46.7	-50.1	20.9	6.04e-01	0	38	0	443023360	64	5517
2026-01-13 02:50:25.70	308.69	23.52	-46.3	-49.5	21.3	6.04e-01	0	38	0	444071936	64	5139
2026-01-13 02:50:26.98	308.27	23.53	-46.7	-50.0	20.9	5.98e-01	0	38	0	446693376	64	5432
2026-01-13 02:50:27.70	308.03	23.54	-46.8	-50.1	20.9	6.01e-01	0	38	0	448266240	64	5486
2026-01-13 02:50:29.11	307.57	23.55	-46.8	-50.1	20.9	6.04e-01	0	38	0	450887680	64	5482
2026-01-13 02:50:29.82	307.33	23.56	-46.8	-50.1	20.8	6.02e-01	0	38	0	451936256	64	5484
2026-01-13 02:50:31.10	306.91	23.57	-46.6	-49.8	21.1	6.04e-01	0	38	0	454557696	64	5304
2026-01-13 02:50:31.81	306.67	23.57	-46.5	-49.6	21.3	6.00e-01	0	38	0	455606272	64	5205
2026-01-13 02:50:33.23	306.21	23.58	-46.5	-49.5	21.4	6.00e-01	0	38	0	458227712	64	5150
2026-01-13 02:50:33.94	305.97	23.58	-46.9	-50.2	20.8	6.02e-01	0	38	0	459800576	64	5554
2026-01-13 02:50:35.22	305.55	23.58	-46.7	-49.9	21.1	6.01e-01	0	38	0	462422016	64	5341
2026-01-13 02:50:35.93	305.31	23.59	-47.2	-50.6	20.4	6.02e-01	0	38	0	463470592	65	5502
2026-01-13 02:50:37.21	304.89	23.59	-46.8	-50.1	20.9	6.00e-01	0	38	0	466092032	65	5203
2026-01-13 02:50:37.92	304.65	23.59	-47.0	-50.3	20.6	6.03e-01	0	38	0	467140608	65	5330
2026-01-13 02:50:39.20	304.23	23.59	-46.8	-50.0	21.0	6.03e-01	0	38	0	469762048	65	5135
2026-01-13 02:50:39.94	303.98	23.58	-47.2	-50.6	20.4	6.02e-01	0	38	0	470810624	65	5499
2026-01-13 02:50:41.22	303.56	23.58	-46.9	-50.1	20.9	6.02e-01	0	38	0	473432064	65	5181
2026-01-13 02:50:41.95	303.32	23.58	-47.5	-51.1	19.8	6.04e-01	0	38	0	475004928	65	5817
2026-01-13 02:50:43.23	302.89	23.57	-47.8	-51.5	19.5	6.03e-01	0	38	0	477102080	66	5773
2026-01-13 02:50:44.11	302.60	23.57	-46.9	-50.1	20.7	6.01e-01	0	38	0	478674944	65	5195
2026-01-13 02:50:45.51	302.14	23.56	-47.7	-51.5	19.4	6.00e-01	0	38	0	481296384	66	5761
2026-01-13 02:50:46.23	301.90	23.55	-46.6	-49.8	21.1	6.02e-01	0	38	0	482869248	65	5013
2026-01-13 02:50:47.50	301.48	23.54	-47.4	-51.1	19.8	6.02e-01	0	38	0	484966400	65	5837
2026-01-13 02:50:48.21	301.25	23.53	-46.9	-50.2	20.8	6.02e-01	0	38	0	486539264	65	5232
2026-01-13 02:50:49.51	300.82	23.52	-47.9	-51.7	19.4	6.04e-01	0	38	0	489160704	66	5911
2026-01-13 02:50:50.22	300.59	23.51	-46.5	-49.6	21.1	6.04e-01	0	38	0	490209280	65	4926
2026-01-13 02:50:51.82	300.06	23.49	-46.7	-49.9	20.7	6.00e-01	0	38	0	493355008	65	5095
2026-01-13 02:50:52.39	299.87	23.48	-46.0	-49.0	21.9	6.01e-01	0	38	0	494403584	64	4816
2026-01-13 02:50:54.09	299.31	23.46	-46.5	-49.7	21.2	6.02e-01	0	38	0	497549312	65	4944
2026-01-13 02:50:54.71	299.11	23.45	-46.7	-49.9	21.0	6.01e-01	0	38	0	498597888	64	5388
2026-01-13 02:50:56.27	298.60	23.42	-46.6	-49.8	21.1	6.04e-01	0	38	0	501743616	65	4995
2026-01-13 02:50:56.90	298.39	23.41	-46.2	-49.3	21.6	6.02e-01	0	38	0	502792192	64	5003
2026-01-13 02:50:58.42	297.89	23.38	-46.2	-49.2	21.5	6.01e-01	0	38	0	505937920	64	4976
2026-01-13 02:50:59.13	297.66	23.36	-46.7	-50.0	21.0	6.04e-01	0	38	0	506986496	64	5456
2026-01-13 02:51:00.41	297.25	23.33	-46.2	-49.2	21.6	6.02e-01	0	38	0	509607936	64	4963
2026-01-13 02:51:01.12	297.01	23.32	-47.0	-50.4	20.6	6.02e-01	0	38	0	510656512	64	5694
2026-01-13 02:51:02.40	296.60	23.29	-46.7	-49.8	21.0	6.02e-01	0	38	0	513277952	65	5006
2026-01-13 02:51:03.11	296.37	23.27	-46.9	-50.1	20.8	6.00e-01	0	38	0	514326528	65	5202
2026-01-13 02:51:04.70	295.85	23.23	-47.1	-50.4	20.5	6.02e-01	0	38	0	517472256	65	5382
2026-01-13 02:51:05.29	295.66	23.22	-46.6	-49.7	21.2	6.01e-01	0	38	0	518520832	65	4927
2026-01-13 02:51:06.85	295.16	23.17	-46.8	-49.9	20.9	6.03e-01	0	38	0	521666560	65	5094
2026-01-13 02:51:07.56	294.93	23.15	-46.8	-50.0	20.9	6.01e-01	0	38	0	522715136	65	5150
2026-01-13 02:51:08.84	294.52	23.12	-46.8	-49.9	21.0	6.07e-01	0	38	0	525336576	65	5074
2026-01-13 02:51:09.55	294.29	23.09	-47.0	-50.2	20.8	6.03e-01	0	38	0	526385152	65	5235
2026-01-13 02:51:10.83	293.88	23.05	-46.9	-50.0	20.9	6.01e-01	0	38	0	529006592	65	5156
2026-01-13 02:51:11.55	293.65	23.03	-47.3	-50.7	20.3	6.03e-01	0	38	0	530055168	65	5561
2026-01-13 02:51:12.83	293.24	22.99	-47.1	-50.4	20.6	6.02e-01	0	38	0	532676608	65	5358
2026-01-13 02:51:13.58	293.00	22.96	-47.4	-50.8	20.0	6.03e-01	0	38	0	534249472	65	5628
2026-01-13 02:51:15.05	292.54	22.91	-47.2	-50.6	20.5	6.00e-01	0	38	0	536870912	65	5494
2026-01-13 02:51:15.76	292.31	22.89	-47.5	-51.0	20.0	6.01e-01	0	38	0	538443776	65	5761
2026-01-13 02:51:17.11	291.89	22.84	-47.1	-50.4	20.6	6.04e-01	0	38	0	540540928	65	5348
2026-01-13 02:51:17.82	291.66	22.81	-46.9	-50.2	20.6	6.05e-01	0	38	0	542113792	65	5276
2026-01-13 02:51:19.13	291.25	22.76	-47.1	-50.5	20.5	6.04e-01	0	38	0	544735232	65	5413
2026-01-13 02:51:19.84	291.03	22.73	-47.0	-50.3	20.7	6.04e-01	0	38	0	545783808	65	5280
2026-01-13 02:51:21.12	290.63	22.68	-47.1	-50.5	20.5	6.02e-01	0	38	0	548405248	65	5424
2026-01-13 02:51:22.16	290.31	22.64	-46.7	-49.9	21.0	6.02e-01	0	38	0	550502400	65	5081
2026-01-13 02:51:23.41	289.92	22.59	-46.9	-50.2	20.8	6.04e-01	0	38	0	552599552	65	5252
2026-01-13 02:51:24.34	289.63	22.55	-46.8	-50.0	20.8	6.01e-01	0	38	0	554172416	65	5153
2026-01-13 02:51:25.33	289.32	22.51	-46.5	-49.6	21.3	6.03e-01	0	38	0	556269568	64	5166
2026-01-13 02:51:26.33	289.02	22.46	-47.4	-50.9	20.1	6.04e-01	0	38	0	557842432	65	5711
2026-01-13 02:51:27.32	288.71	22.42	-46.9	-50.1	20.8	6.02e-01	0	38	0	559939584	65	5171
2026-01-13 02:51:28.32	288.41	22.37	-47.1	-50.4	20.6	6.01e-01	0	38	0	562036736	65	5376
2026-01-13 02:51:29.31	288.10	22.33	-46.9	-50.1	20.8	6.03e-01	0	38	0	563609600	65	5201
2026-01-13 02:51:30.30	287.80	22.28	-46.6	-49.7	21.2	6.03e-01	0	38	0	565182464	65	4961
2026-01-13 02:51:31.30	287.50	22.23	-47.1	-50.4	20.5	6.05e-01	0	38	0	567279616	65	5397
2026-01-13 02:51:32.29	287.20	22.19	-46.5	-49.6	21.3	6.04e-01	0	38	0	569376768	65	4909
2026-01-13 02:51:33.28	286.90	22.14	-47.2	-50.7	20.4	6.01e-01	0	38	0	570949632	65	5543
2026-01-13 02:51:34.28	286.60	22.09	-46.9	-50.1	20.8	6.04e-01	0	38	0	573046784	65	5161
2026-01-13 02:51:35.28	286.30	22.04	-46.9	-50.1	20.8	6.03e-01	0	38	0	574619648	65	5216
2026-01-13 02:51:36.32	285.99	21.98	-46.8	-50.1	20.7	6.05e-01	0	38	0	576716800	65	5200
2026-01-13 02:51:37.35	285.69	21.93	-46.2	-49.2	21.6	6.01e-01	0	38	0	578813952	64	4972
2026-01-13 02:51:38.34	285.39	21.88	-47.1	-50.6	20.4	6.04e-01	0	38	0	580386816	64	5837
2026-01-13 02:51:39.34	285.10	21.83	-47.0	-50.5	20.4	6.02e-01	0	38	0	582483968	65	5403
2026-01-13 02:51:40.33	284.81	21.77	-46.8	-50.0	20.9	6.03e-01	0	38	0	584056832	65	5141
2026-01-13 02:51:41.32	284.52	21.72	-47.5	-51.0	20.0	6.02e-01	0	38	0	586153984	65	5783
2026-01-13 02:51:42.32	284.23	21.66	-46.8	-50.0	20.8	6.05e-01	0	38	0	588251136	65	5116
2026-01-13 02:51:43.31	283.94	21.61	-46.7	-49.7	21.1	6.02e-01	0	38	0	589824000	65	4982
2026-01-13 02:51:44.31	283.65	21.55	-47.7	-51.3	19.7	6.04e-01	0	38	0	591921152	65	5971
2026-01-13 02:51:45.30	283.36	21.49	-47.1	-50.4	20.5	5.99e-01	0	38	0	593494016	65	5395
2026-01-13 02:51:46.29	283.08	21.44	-47.3	-50.8	20.2	6.03e-01	0	38	0	595591168	65	5638
2026-01-13 02:51:47.29	282.79	21.38	-47.9	-51.7	19.4	6.01e-01	0	38	0	597164032	66	5901
2026-01-13 02:51:48.28	282.51	21.32	-47.4	-50.9	20.1	6.04e-01	0	38	0	599261184	66	5349
2026-01-13 02:51:49.27	282.23	21.26	-47.3	-50.8	20.1	6.01e-01	0	38	0	600834048	66	5334
2026-01-13 02:51:50.27	281.95	21.20	-47.4	-51.0	20.0	6.01e-01	0	38	0	602931200	66	5403
2026-01-13 02:51:51.26	281.67	21.14	-47.3	-50.7	20.2	6.00e-01	0	38	0	605028352	66	5252
2026-01-13 02:51:52.26	281.39	21.08	-47.5	-51.0	19.9	6.01e-01	0	38	0	606601216	66	5461
2026-01-13 02:51:53.25	281.11	21.02	-47.8	-51.4	19.6	6.01e-01	0	38	0	608698368	66	5696
2026-01-13 02:51:54.25	280.83	20.96	-47.6	-51.0	20.0	6.00e-01	0	38	0	610271232	66	5447
2026-01-13 02:51:55.24	280.56	20.90	-47.6	-51.1	19.9	6.03e-01	0	38	0	612368384	66	5470
2026-01-13 02:51:56.23	280.29	20.84	-47.9	-51.6	19.4	6.01e-01	0	38	0	613941248	66	5845
2026-01-13 02:51:57.23	280.01	20.77	-47.9	-51.6	19.4	6.00e-01	0	38	0	616038400	66	5844
2026-01-13 02:51:58.22	279.74	20.71	-47.8	-51.5	19.6	6.02e-01	0	38	0	617611264	66	5725
2026-01-13 02:51:59.22	279.47	20.64	-48.0	-51.8	19.3	6.03e-01	0	38	0	619708416	66	5945
2026-01-13 02:52:00.22	279.20	20.58	-48.3	-52.3	18.8	6.04e-01	0	38	0	621805568	67	5953
2026-01-13 02:52:01.21	278.93	20.51	-47.9	-51.6	19.4	6.01e-01	0	38	0	623378432	67	5469
2026-01-13 02:52:02.21	278.66	20.45	-47.5	-51.0	20.0	6.05e-01	0	38	0	625475584	67	5153
2026-01-13 02:52:03.20	278.40	20.38	-47.6	-51.2	19.8	6.03e-01	0	38	0	627048448	66	5589
2026-01-13 02:52:04.20	278.13	20.32	-47.6	-51.3	19.7	6.00e-01	0	38	0	629145600	66	5626
2026-01-13 02:52:05.19	277.87	20.25	-47.5	-51.2	19.9	6.00e-01	0	38	0	630718464	66	5552
2026-01-13 02:52:06.19	277.60	20.18	-47.4	-51.0	20.0	6.01e-01	0	38	0	632815616	66	5423
2026-01-13 02:52:07.18	277.34	20.12	-47.4	-50.8	20.2	6.03e-01	0	38	0	634388480	66	5334
2026-01-13 02:52:08.18	277.08	20.05	-47.5	-50.9	20.1	6.04e-01	0	38	0	636485632	66	5393
2026-01-13 02:52:09.22	276.81	19.98	-47.4	-50.8	20.2	6.01e-01	0	38	0	638582784	66	5296
2026-01-13 02:52:10.18	276.56	19.91	-47.2	-50.5	20.4	6.02e-01	0	38	0	640155648	66	5128
2026-01-13 02:52:11.18	276.31	19.84	-46.8	-50.0	20.9	6.00e-01	0	38	0	642252800	65	5124
2026-01-13 02:52:12.30	276.02	19.76	-46.6	-49.8	21.1	6.03e-01	0	38	0	644349952	65	5011
2026-01-13 02:52:13.15	275.80	19.70	-46.6	-49.8	21.1	6.02e-01	0	38	0	645922816	65	5017
2026-01-13 02:52:14.29	275.51	19.62	-46.7	-50.0	20.9	6.02e-01	0	38	0	648019968	65	5132
2026-01-13 02:52:15.15	275.30	19.56	-46.8	-50.1	20.9	6.01e-01	0	38	0	649592832	65	5166
2026-01-13 02:52:16.28	275.01	19.48	-46.9	-50.2	20.8	6.02e-01	0	38	0	651689984	65	5233
2026-01-13 02:52:17.14	274.80	19.42	-46.7	-50.0	20.9	6.02e-01	0	38	0	653262848	65	5121
2026-01-13 02:52:18.27	274.52	19.34	-46.7	-50.0	20.9	6.04e-01	0	38	0	655360000	65	5149
2026-01-13 02:52:19.12	274.31	19.28	-46.7	-50.1	20.9	6.03e-01	0	38	0	656932864	65	5170
2026-01-13 02:52:20.26	274.02	19.19	-46.6	-49.9	21.0	6.03e-01	0	38	0	659030016	65	5056
2026-01-13 02:52:21.12	273.81	19.13	-46.6	-49.9	21.0	6.03e-01	0	38	0	660602880	65	5061
2026-01-13 02:52:22.25	273.54	19.05	-46.6	-49.8	21.1	6.01e-01	0	38	0	662700032	65	5038
2026-01-13 02:52:23.10	273.33	18.99	-46.7	-50.0	20.9	6.02e-01	0	38	0	664272896	65	5106
2026-01-13 02:52:24.24	273.06	18.90	-46.7	-50.0	20.9	6.01e-01	0	38	0	666370048	65	5150
2026-01-13 02:52:25.09	272.85	18.84	-46.8	-50.1	20.8	6.03e-01	0	38	0	667942912	65	5175
2026-01-13 02:52:26.23	272.58	18.76	-46.7	-49.8	21.1	6.03e-01	0	38	0	670564352	65	5033
2026-01-13 02:52:27.08	272.38	18.69	-46.6	-49.8	21.1	6.01e-01	0	38	0	672137216	65	5002
2026-01-13 02:52:28.41	272.06	18.59	-46.6	-49.8	21.1	6.02e-01	0	38	0	674234368	65	4996
2026-01-13 02:52:29.12	271.89	18.54	-46.7	-49.8	21.1	6.02e-01	0	38	0	675807232	65	5010
2026-01-13 02:52:30.40	271.60	18.44	-46.7	-49.8	21.1	6.02e-01	0	38	0	677904384	65	5008
2026-01-13 02:52:31.16	271.42	18.39	-46.7	-49.8	21.0	6.02e-01	0	38	0	679477248	65	5041
2026-01-13 02:52:32.65	271.07	18.27	-46.8	-50.0	20.8	6.03e-01	0	38	0	682098688	65	5139
2026-01-13 02:52:33.36	270.91	18.22	-46.8	-50.1	20.9	6.04e-01	0	38	0	683671552	65	5170
2026-01-13 02:52:34.64	270.62	18.12	-46.6	-49.8	21.0	6.03e-01	0	38	0	686292992	65	5041
2026-01-13 02:52:35.69	270.38	18.04	-46.5	-49.7	21.2	6.02e-01	0	38	0	687865856	65	4979
2026-01-13 02:52:36.86	270.11	17.95	-46.7	-49.9	21.0	6.00e-01	0	38	0	690487296	65	5066
2026-01-13 02:52:37.71	269.92	17.89	-46.8	-50.0	20.9	6.03e-01	0	38	0	692060160	65	5144
2026-01-13 02:52:38.85	269.67	17.80	-46.8	-50.1	20.8	6.03e-01	0	38	0	694157312	65	5180
2026-01-13 02:52:39.70	269.48	17.74	-46.8	-50.0	20.9	6.00e-01	0	38	0	695730176	65	5156
2026-01-13 02:52:40.84	269.23	17.65	-46.6	-49.8	21.1	6.03e-01	0	38	0	697827328	65	5033
2026-01-13 02:52:41.69	269.04	17.58	-46.7	-49.9	21.0	6.02e-01	0	38	0	699400192	65	5070
2026-01-13 02:52:42.83	268.79	17.49	-46.7	-50.0	20.8	6.05e-01	0	38	0	701497344	65	5155
2026-01-13 02:52:43.68	268.60	17.43	-46.7	-50.0	20.9	6.02e-01	0	38	0	703070208	65	5108
2026-01-13 02:52:44.93	268.33	17.33	-46.7	-49.9	20.9	6.06e-01	0	38	0	705167360	65	5089
2026-01-13 02:52:45.78	268.15	17.27	-46.7	-50.0	20.9	6.03e-01	0	38	0	707264512	65	5106
2026-01-13 02:52:46.92	267.91	17.18	-46.7	-50.0	20.9	6.02e-01	0	38	0	709361664	65	5134
2026-01-13 02:52:47.77	267.73	17.11	-46.7	-50.0	20.9	6.02e-01	0	38	0	710934528	65	5105
2026-01-13 02:52:48.91	267.49	17.02	-46.7	-49.9	20.9	6.05e-01	0	38	0	713031680	65	5089
2026-01-13 02:52:49.76	267.31	16.96	-46.6	-49.8	21.1	6.03e-01	0	38	0	714604544	65	4998
2026-01-13 02:52:50.90	267.07	16.87	-46.6	-49.8	21.1	6.02e-01	0	38	0	716701696	65	5001
2026-01-13 02:52:51.75	266.89	16.80	-46.7	-50.0	20.9	6.01e-01	0	38	0	718274560	65	5108
2026-01-13 02:52:52.89	266.65	16.71	-46.9	-50.2	20.7	6.03e-01	0	38	0	720371712	65	5219
2026-01-13 02:52:53.74	266.48	16.64	-46.7	-49.9	20.9	6.03e-01	0	38	0	721944576	65	5075
2026-01-13 02:52:54.88	266.25	16.55	-46.7	-49.9	21.0	6.01e-01	0	38	0	724041728	65	5071
2026-01-13 02:52:55.73	266.07	16.49	-46.6	-49.9	21.0	6.02e-01	0	38	0	725614592	65	5045
2026-01-13 02:52:56.87	265.84	16.40	-46.6	-49.8	21.1	6.02e-01	0	38	0	727711744	65	5007
2026-01-13 02:52:57.72	265.67	16.33	-46.6	-49.8	21.0	6.02e-01	0	38	0	729284608	65	5036
2026-01-13 02:52:58.86	265.44	16.24	-46.7	-50.0	20.9	6.02e-01	0	38	0	731381760	65	5117
2026-01-13 02:52:59.71	265.27	16.17	-46.7	-50.0	20.9	6.00e-01	0	38	0	732954624	65	5111
2026-01-13 02:53:00.85	265.05	16.08	-46.7	-49.9	21.0	6.05e-01	0	38	0	735051776	65	5064
2026-01-13 02:53:01.70	264.88	16.02	-46.7	-49.8	21.0	6.01e-01	0	38	0	736624640	65	5032
2026-01-13 02:53:03.00	264.63	15.91	-46.8	-50.0	20.8	6.04e-01	0	38	0	739246080	65	5134
2026-01-13 02:53:03.71	264.49	15.86	-46.8	-50.1	20.8	6.02e-01	0	38	0	740818944	65	5166
2026-01-13 02:53:04.99	264.24	15.76	-46.8	-50.1	20.8	6.03e-01	0	38	0	742916096	65	5171
2026-01-13 02:53:05.70	264.10	15.70	-46.6	-49.8	21.0	6.02e-01	0	38	0	744488960	65	5026
2026-01-13 02:53:07.23	263.81	15.58	-46.6	-49.9	20.9	6.05e-01	0	38	0	747110400	65	5077
2026-01-13 02:53:07.94	263.68	15.52	-46.5	-49.9	21.0	6.00e-01	0	38	0	748683264	65	5053
2026-01-13 02:53:09.22	263.43	15.42	-46.6	-50.0	20.8	6.01e-01	0	38	0	750780416	65	5148
2026-01-13 02:53:09.95	263.30	15.36	-46.7	-50.2	20.4	6.05e-01	0	38	0	752353280	65	5257
2026-01-13 02:53:11.23	263.06	15.26	-46.6	-50.0	20.8	6.02e-01	0	38	0	754974720	65	5108
2026-01-13 02:53:11.94	262.93	15.21	-46.5	-49.8	21.0	6.02e-01	0	38	0	756023296	64	5296
2026-01-13 02:53:13.22	262.69	15.10	-46.5	-49.8	21.0	6.01e-01	0	38	0	758644736	64	5294
2026-01-13 02:53:13.93	262.56	15.05	-46.5	-49.8	21.1	6.03e-01	0	38	0	759693312	64	5280
2026-01-13 02:53:15.21	262.33	14.95	-46.7	-50.0	20.8	6.00e-01	0	38	0	762314752	64	5445
2026-01-13 02:53:15.94	262.19	14.89	-46.7	-50.1	20.8	6.02e-01	0	38	0	763363328	64	5465
2026-01-13 02:53:17.22	261.96	14.79	-46.8	-50.1	20.7	6.02e-01	0	38	0	765984768	64	5506
2026-01-13 02:53:17.93	261.83	14.73	-46.8	-50.1	20.7	6.00e-01	0	38	0	767033344	64	5506
2026-01-13 02:53:19.21	261.61	14.63	-46.7	-50.1	20.8	5.99e-01	0	38	0	769654784	64	5467
2026-01-13 02:53:19.92	261.48	14.57	-46.7	-50.0	20.8	6.03e-01	0	38	0	771227648	64	5459
2026-01-13 02:53:21.20	261.25	14.47	-46.8	-50.1	20.7	6.02e-01	0	38	0	773324800	64	5520
2026-01-13 02:53:22.20	261.08	14.39	-46.9	-50.3	20.6	6.01e-01	0	38	0	775421952	64	5600
2026-01-13 02:53:23.19	260.91	14.31	-46.8	-50.1	20.7	6.01e-01	0	38	0	776994816	64	5522
2026-01-13 02:53:24.19	260.73	14.24	-46.7	-50.1	20.7	6.01e-01	0	38	0	779091968	64	5519
2026-01-13 02:53:25.18	260.56	14.16	-46.7	-50.2	20.7	6.02e-01	0	38	0	780664832	64	5530
2026-01-13 02:53:26.17	260.39	14.08	-46.7	-50.2	20.6	6.05e-01	0	38	0	782761984	64	5550
2026-01-13 02:53:27.17	260.22	14.00	-46.6	-50.1	20.7	6.05e-01	0	38	0	784859136	64	5485
2026-01-13 02:53:28.16	260.06	13.92	-46.5	-50.0	20.8	6.05e-01	0	38	0	786432000	64	5449
2026-01-13 02:53:29.16	259.89	13.84	-46.6	-50.1	20.7	6.02e-01	0	38	0	788529152	64	5477
2026-01-13 02:53:30.17	259.72	13.76	-46.6	-50.1	20.7	6.01e-01	0	38	0	790102016	64	5472
2026-01-13 02:53:31.17	259.55	13.68	-46.6	-50.1	20.7	6.02e-01	0	38	0	792199168	64	5489
2026-01-13 02:53:32.16	259.39	13.61	-46.7	-50.2	20.6	6.02e-01	0	38	0	793772032	64	5556
2026-01-13 02:53:33.23	259.21	13.52	-46.8	-50.3	20.5	6.01e-01	0	38	0	795869184	64	5655
2026-01-13 02:53:34.10	259.07	13.45	-46.9	-50.5	20.4	6.02e-01	0	38	0	797442048	64	5753
2026-01-13 02:53:35.24	258.88	13.37	-46.8	-50.4	20.4	6.03e-01	0	38	0	799539200	64	5670
2026-01-13 02:53:36.09	258.75	13.30	-46.8	-50.2	20.6	6.03e-01	0	38	0	801112064	64	5579
2026-01-13 02:53:37.23	258.56	13.21	-46.8	-50.2	20.6	5.99e-01	0	38	0	803209216	64	5560
2026-01-13 02:53:38.08	258.43	13.14	-46.8	-50.3	20.6	6.04e-01	0	38	0	805306368	64	5594
2026-01-13 02:53:39.22	258.25	13.05	-46.9	-50.4	20.5	6.04e-01	0	38	0	807403520	64	5667
2026-01-13 02:53:40.07	258.11	12.99	-46.9	-50.4	20.4	6.01e-01	0	38	0	808976384	64	5689
2026-01-13 02:53:41.21	257.93	12.90	-46.9	-50.4	20.4	6.03e-01	0	38	0	811073536	64	5691
2026-01-13 02:53:42.06	257.80	12.83	-46.8	-50.3	20.5	6.03e-01	0	38	0	812646400	64	5639
2026-01-13 02:53:43.20	257.62	12.74	-46.9	-50.4	20.4	6.03e-01	0	38	0	814743552	64	5703
2026-01-13 02:53:44.40	257.44	12.65	-46.9	-50.4	20.4	6.02e-01	0	38	0	816840704	64	5697
2026-01-13 02:53:45.25	257.31	12.58	-46.8	-50.4	20.4	6.01e-01	0	38	0	818413568	64	5683
2026-01-13 02:53:46.39	257.13	12.50	-46.9	-50.4	20.4	6.03e-01	0	38	0	820510720	64	5700
2026-01-13 02:53:47.24	257.00	12.43	-47.0	-50.6	20.2	6.02e-01	0	38	0	822083584	64	5796
2026-01-13 02:53:48.38	256.83	12.34	-47.0	-50.6	20.2	6.04e-01	0	38	0	824180736	64	5811
2026-01-13 02:53:49.23	256.70	12.28	-47.1	-50.7	20.1	6.01e-01	0	38	0	825753600	64	5862
2026-01-13 02:53:50.37	256.53	12.19	-47.1	-50.6	20.2	6.02e-01	0	38	0	828375040	64	5798
2026-01-13 02:53:51.22	256.41	12.12	-47.1	-50.6	20.2	6.03e-01	0	38	0	829947904	64	5813
2026-01-13 02:53:52.35	256.24	12.03	-46.8	-50.2	20.6	6.02e-01	0	38	0	831520768	64	5553
2026-01-13 02:53:53.21	256.12	11.97	-46.9	-50.2	20.5	6.00e-01	0	38	0	833617920	64	5589
2026-01-13 02:53:54.34	255.95	11.88	-46.9	-50.3	20.4	6.03e-01	0	38	0	835715072	64	5644
2026-01-13 02:53:55.20	255.83	11.82	-47.0	-50.5	20.3	6.04e-01	0	38	0	837287936	64	5744
2026-01-13 02:53:56.33	255.66	11.73	-47.0	-50.5	20.3	6.02e-01	0	38	0	839385088	64	5768
2026-01-13 02:53:57.28	255.53	11.66	-47.1	-50.7	20.1	6.02e-01	0	38	0	840957952	64	5880
2026-01-13 02:53:58.47	255.36	11.56	-47.1	-50.6	20.1	6.01e-01	0	38	0	843055104	64	5849
2026-01-13 02:53:59.32	255.24	11.50	-47.0	-50.6	20.1	6.05e-01	0	38	0	845152256	64	5817
2026-01-13 02:54:00.45	255.08	11.41	-47.0	-50.5	20.2	6.02e-01	0	38	0	846725120	64	5788
2026-01-13 02:54:01.30	254.96	11.35	-47.1	-50.6	20.1	6.02e-01	0	38	0	848822272	64	5854
2026-01-13 02:54:02.44	254.80	11.26	-47.0	-50.5	20.2	6.03e-01	0	38	0	850919424	64	5768
2026-01-13 02:54:03.29	254.68	11.20	-47.0	-50.6	20.2	6.03e-01	0	38	0	852492288	64	5811
2026-01-13 02:54:04.43	254.53	11.11	-47.1	-50.7	20.1	6.02e-01	0	38	0	854589440	64	5870
2026-01-13 02:54:05.28	254.41	11.05	-47.1	-50.7	20.0	6.05e-01	0	38	0	856162304	64	5923
2026-01-13 02:54:06.42	254.25	10.96	-47.1	-50.8	19.9	6.04e-01	0	38	0	858259456	64	5974
2026-01-13 02:54:07.27	254.14	10.90	-47.1	-50.7	20.0	6.04e-01	0	38	0	859832320	64	5884
2026-01-13 02:54:08.41	253.99	10.81	-47.1	-50.8	20.0	6.02e-01	0	38	0	861929472	64	5949
2026-01-13 02:54:09.27	253.87	10.75	-47.1	-50.7	19.9	6.00e-01	0	38	0	863502336	64	5918
2026-01-13 02:54:10.40	253.72	10.66	-47.0	-50.6	20.1	6.02e-01	0	38	0	865599488	64	5853
2026-01-13 02:54:11.25	253.61	10.60	-47.0	-50.7	20.0	6.02e-01	0	38	0	867172352	64	5875
2026-01-13 02:54:12.39	253.46	10.51	-47.1	-50.7	20.0	6.04e-01	0	38	0	869269504	64	5881
2026-01-13 02:54:13.24	253.35	10.45	-47.1	-50.7	20.0	6.00e-01	0	38	0	870842368	64	5910
2026-01-13 02:54:14.38	253.20	10.36	-47.1	-50.8	19.9	6.00e-01	0	38	0	872939520	64	5962
2026-01-13 02:54:15.23	253.09	10.30	-47.2	-50.9	19.9	6.01e-01	0	38	0	874512384	65	5664
2026-01-13 02:54:16.37	252.94	10.21	-47.2	-51.0	19.7	6.03e-01	0	38	0	877133824	65	5741
2026-01-13 02:54:17.22	252.83	10.15	-47.3	-51.0	19.7	6.02e-01	0	38	0	878706688	65	5750
2026-01-13 02:54:18.36	252.69	10.07	-47.3	-51.0	19.6	6.02e-01	0	38	0	880803840	65	5778
2026-01-13 02:54:19.21	252.58	10.00	-47.2	-51.0	19.7	6.05e-01	0	38	0	882376704	65	5729
2026-01-13 02:54:20.35	252.44	9.92	-47.3	-51.1	19.6	6.06e-01	0	38	0	884473856	65	5801
2026-01-13 02:54:21.20	252.33	9.86	-47.2	-50.9	19.7	6.01e-01	0	38	0	886046720	65	5721
2026-01-13 02:54:22.34	252.19	9.77	-47.1	-50.8	19.9	6.00e-01	0	38	0	888143872	65	5599
2026-01-13 02:54:23.19	252.08	9.71	-47.3	-51.0	19.7	6.04e-01	0	38	0	889716736	65	5739
2026-01-13 02:54:24.33	251.94	9.63	-47.2	-50.8	19.9	6.02e-01	0	38	0	891813888	65	5615
2026-01-13 02:54:25.18	251.84	9.56	-47.3	-50.9	19.8	6.03e-01	0	38	0	893386752	65	5698
2026-01-13 02:54:26.32	251.70	9.48	-47.4	-51.0	19.7	6.04e-01	0	38	0	895483904	65	5786
2026-01-13 02:54:27.17	251.60	9.42	-47.5	-51.2	19.5	6.05e-01	0	38	0	897056768	65	5864
2026-01-13 02:54:28.39	251.45	9.33	-47.6	-51.3	19.4	6.02e-01	0	38	0	899153920	65	5967
2026-01-13 02:54:29.24	251.35	9.27	-47.5	-51.3	19.4	6.03e-01	0	38	0	900726784	65	5924
2026-01-13 02:54:30.38	251.21	9.18	-47.4	-51.0	19.7	6.03e-01	0	38	0	903348224	65	5772
2026-01-13 02:54:31.23	251.11	9.12	-47.4	-51.0	19.7	6.04e-01	0	38	0	904921088	65	5763
2026-01-13 02:54:32.37	250.98	9.04	-47.5	-51.3	19.5	6.02e-01	0	38	0	907018240	65	5928
2026-01-13 02:54:33.22	250.88	8.98	-51.8	-71.7	3.4	7.43e-01	0	38	104	907542528	74	37254
2026-01-13 02:54:34.36	250.74	8.89	-52.2	-72.3	3.8	7.44e-01	0	38	104	907542528	74	39665
2026-01-13 02:54:35.21	250.65	8.83	-52.1	-72.4	3.8	7.47e-01	0	38	104	907542528	75	38188
2026-01-13 02:54:36.34	250.52	8.75	-51.8	-72.6	3.8	7.47e-01	0	38	104	907542528	75	38725
2026-01-13 02:54:37.19	250.42	8.69	-52.1	-72.6	3.8	7.47e-01	0	38	104	907542528	75	38947
2026-01-13 02:54:38.33	250.29	8.61	-52.6	-72.7	3.8	7.46e-01	0	38	104	907542528	75	39142
2026-01-13 02:54:39.18	250.19	8.55	-52.6	-72.7	3.8	7.44e-01	0	38	104	907542528	75	39299
2026-01-13 02:54:40.35	250.06	8.46	-52.6	-72.7	3.8	7.45e-01	0	38	104	907542528	75	39342
2026-01-13 02:54:41.20	249.96	8.40	-52.8	-72.8	3.8	7.48e-01	0	38	104	907542528	76	37511
2026-01-13 02:54:42.45	249.82	8.31	-52.7	-72.8	3.8	7.49e-01	0	38	104	907542528	76	37662
2026-01-13 02:54:43.30	249.73	8.25	-52.6	-72.8	3.8	7.48e-01	0	38	104	907542528	76	37591
2026-01-13 02:54:44.51	249.60	8.17	-52.5	-72.8	3.8	7.45e-01	0	38	104	907542528	76	37692
2026-01-13 02:54:45.36	249.50	8.11	-52.5	-72.8	3.8	7.46e-01	0	38	104	907542528	76	37539
2026-01-13 02:54:46.58	249.37	8.02	-52.4	-72.8	3.8	7.45e-01	0	38	104	907542528	76	37685
2026-01-13 02:54:47.43	249.28	7.96	-52.1	-72.8	3.8	7.45e-01	0	38	104	907542528	76	37656
2026-01-13 02:54:48.63	249.15	7.88	-52.3	-72.8	3.8	7.46e-01	0	38	104	907542528	76	37721
2026-01-13 02:54:49.48	249.06	7.82	-52.4	-72.8	3.8	7.43e-01	0	38	104	907542528	76	37658
2026-01-13 02:54:50.66	248.93	7.73	-52.3	-72.8	3.8	7.46e-01	0	38	104	907542528	76	37615
2026-01-13 02:54:51.52	248.84	7.67	-52.5	-72.8	3.8	7.49e-01	0	38	104	907542528	76	37418
2026-01-13 02:54:52.65	248.72	7.60	-52.6	-72.8	3.8	7.47e-01	0	38	104	907542528	76	37467
2026-01-13 02:54:53.50	248.63	7.54	-52.6	-72.8	3.8	7.45e-01	0	38	104	907542528	76	37540
2026-01-13 02:54:54.64	248.51	7.46	-52.2	-72.7	3.8	7.51e-01	0	38	104	907542528	76	37264
2026-01-13 02:54:55.49	248.42	7.40	-52.2	-72.7	3.8	7.47e-01	0	38	104	907542528	76	37275
2026-01-13 02:54:56.62	248.31	7.32	-52.2	-72.7	3.8	7.46e-01	0	38	104	907542528	76	37170
2026-01-13 02:54:57.48	248.22	7.26	-52.2	-72.7	3.8	7.47e-01	0	38	104	907542528	76	37297
2026-01-13 02:54:58.61	248.10	7.18	-52.2	-72.7	3.8	7.44e-01	0	38	104	907542528	76	37305
2026-01-13 02:54:59.46	248.02	7.12	-52.2	-72.7	3.8	7.43e-01	0	38	104	907542528	76	37197
2026-01-13 02:55:00.60	247.90	7.04	-52.2	-72.7	3.8	7.46e-01	0	38	104	907542528	76	37205
2026-01-13 02:55:01.45	247.82	6.99	-52.2	-72.7	3.8	7.46e-01	0	38	104	907542528	76	37204
2026-01-13 02:55:02.59	247.70	6.91	-52.2	-72.7	3.8	7.45e-01	0	38	104	907542528	76	37161
2026-01-13 02:55:03.44	247.62	6.85	-52.2	-72.7	3.8	7.48e-01	0	38	104	907542528	76	37144
2026-01-13 02:55:04.57	247.51	6.77	-52.2	-72.7	3.8	7.46e-01	0	38	104	907542528	76	37253
2026-01-13 02:55:05.43	247.42	6.71	-52.2	-72.7	3.8	7.49e-01	0	38	104	907542528	76	37130
2026-01-13 02:55:06.56	247.31	6.64	-52.2	-72.7	3.8	7.45e-01	0	38	104	907542528	76	37232
2026-01-13 02:55:07.41	247.23	6.58	-52.2	-72.7	3.8	7.46e-01	0	38	104	907542528	76	37205
2026-01-13 02:55:08.54	247.12	6.50	-52.2	-72.7	3.8	7.47e-01	0	38	104	907542528	76	37129
2026-01-13 02:55:09.39	247.03	6.44	-52.2	-72.7	3.8	7.47e-01	0	38	104	907542528	76	37126
2026-01-13 02:55:10.53	246.93	6.37	-52.2	-72.7	3.8	7.43e-01	0	38	104	907542528	76	37226
2026-01-13 02:55:11.38	246.84	6.31	-52.2	-72.7	3.8	7.45e-01	0	38	104	907542528	76	37259
2026-01-13 02:55:12.52	246.74	6.23	-52.2	-72.7	3.8	7.43e-01	0	38	104	907542528	76	37197
2026-01-13 02:55:13.37	246.65	6.18	-52.2	-72.7	3.8	7.46e-01	0	38	104	907542528	76	37178
2026-01-13 02:55:14.50	246.55	6.10	-52.2	-72.7	3.8	7.46e-01	0	38	104	907542528	76	37150
2026-01-13 02:55:15.36	246.47	6.04	-52.2	-72.7	3.8	7.48e-01	0	38	104	907542528	76	37168
2026-01-13 02:55:16.49	246.36	5.97	-52.2	-72.7	3.8	7.49e-01	0	38	104	907542528	76	37121
2026-01-13 02:55:17.34	246.28	5.91	-52.2	-72.7	3.8	7.44e-01	0	38	104	907542528	76	37202
2026-01-13 02:55:18.48	246.18	5.83	-52.2	-72.7	3.8	7.50e-01	0	38	104	907542528	76	37172
2026-01-13 02:55:19.33	246.10	5.78	-52.2	-72.7	3.8	7.44e-01	0	38	104	907542528	76	37087
2026-01-13 02:55:20.47	246.00	5.70	-52.2	-72.7	3.8	7.47e-01	0	38	104	907542528	76	37223
2026-01-13 02:55:21.32	245.92	5.64	-52.2	-72.7	3.8	7.46e-01	0	38	104	907542528	76	37136
2026-01-13 02:55:22.45	245.82	5.57	-52.2	-72.7	3.8	7.49e-01	0	38	104	907542528	76	37144
2026-01-13 02:55:23.30	245.74	5.51	-52.2	-72.7	3.8	7.48e-01	0	38	104	907542528	76	37224
2026-01-13 02:55:24.44	245.64	5.44	-52.2	-72.7	3.8	7.46e-01	0	38	104	907542528	76	37098
2026-01-13 02:55:25.29	245.56	5.38	-52.2	-72.7	3.8	7.46e-01	0	38	104	907542528	76	37197
2026-01-13 02:55:26.42	245.46	5.31	-52.2	-72.7	3.8	7.43e-01	0	38	104	907542528	76	37114
2026-01-13 02:55:27.28	245.39	5.25	-52.2	-72.7	3.8	7.48e-01	0	38	104	907542528	76	37066
2026-01-13 02:55:28.41	245.29	5.18	-52.2	-72.7	3.8	7.46e-01	0	38	104	907542528	76	37197
2026-01-13 02:55:29.26	245.21	5.12	-52.2	-72.7	3.8	7.45e-01	0	38	104	907542528	76	37178
2026-01-13 02:55:30.40	245.11	5.05	-52.2	-72.7	3.8	7.49e-01	0	38	104	907542528	76	37068
2026-01-13 02:55:31.25	245.04	4.99	-52.2	-72.7	3.8	7.44e-01	0	38	104	907542528	76	37038

#Closed at: 2026-01-13 02:55:32
#Recorded file [907 MB]: D:/Data/31040_260113_054543.dat