passes_logs/2026/01/13/T1/T1__20260113_120731_NOAA_20_JPSS-1_rec.log

#Pass ID: 20260113_120731_NOAA 20 (JPSS-1)
#Satellite: NOAA 20 (JPSS-1)
#Configuration: NOAA 20
#almurnet v.1.7.20251203
#Start time: 2026-01-13 12:07:32

#Version: 2.0.20230620
#Station: T1
#Location: 37.570604 lon 55.790049 lat
#TLE: 1 43013U 17073A   26012.29914746  .00000087  00000+0  62270-4 0  9997
#TLE: 2 43013  98.7632 313.2670 0001616  43.2193 316.9110 14.19535514422351

#Time	Az	El	Level	Level2	SNR	BER	BlckErr	Temp	State	Recorded	gain1	gain2
2026-01-13 12:07:32.28	236.73	5.03	-51.7	-66.9	3.8	1.49e+00	0	41	104	0	75	20244
2026-01-13 12:07:33.27	236.85	5.07	-51.7	-66.9	3.8	1.49e+00	0	41	104	0	75	20153
2026-01-13 12:07:34.27	236.97	5.11	-51.7	-66.9	3.8	1.49e+00	0	41	104	0	75	20167
2026-01-13 12:07:35.26	237.09	5.16	-51.6	-66.9	3.8	1.49e+00	0	41	104	0	75	20174
2026-01-13 12:07:36.25	237.21	5.20	-51.7	-66.9	3.8	1.49e+00	0	41	104	0	75	20127
2026-01-13 12:07:37.25	237.33	5.24	-51.6	-66.9	3.8	1.49e+00	0	41	104	0	75	20142
2026-01-13 12:07:38.24	237.45	5.29	-51.7	-66.9	3.8	1.49e+00	0	41	104	0	75	20177
2026-01-13 12:07:39.23	237.57	5.33	-51.6	-66.9	3.8	1.49e+00	0	41	104	0	75	20096
2026-01-13 12:07:40.23	237.70	5.38	-51.6	-66.8	3.8	1.49e+00	0	41	104	0	75	20016
2026-01-13 12:07:41.22	237.82	5.42	-51.7	-66.9	3.8	1.49e+00	0	42	104	0	75	20123
2026-01-13 12:07:42.21	237.94	5.46	-51.6	-66.9	3.8	1.49e+00	0	42	104	0	75	20188
2026-01-13 12:07:43.21	238.06	5.51	-51.6	-66.9	3.8	1.49e+00	0	42	104	0	75	20090
2026-01-13 12:07:44.20	238.19	5.55	-51.6	-66.9	3.8	1.49e+00	0	42	104	0	75	20193
2026-01-13 12:07:45.20	238.31	5.59	-51.7	-66.9	3.8	1.49e+00	0	42	104	0	75	20101
2026-01-13 12:07:46.19	238.43	5.64	-51.7	-66.9	3.8	1.49e+00	0	42	104	0	75	20200
2026-01-13 12:07:47.18	238.56	5.68	-51.7	-66.9	3.8	1.49e+00	0	42	104	0	75	20117
2026-01-13 12:07:48.17	238.68	5.72	-51.6	-66.9	3.8	1.49e+00	0	42	104	0	75	20196
2026-01-13 12:07:49.17	238.81	5.77	-51.6	-66.9	3.8	1.49e+00	0	42	104	0	75	20179
2026-01-13 12:07:50.16	238.93	5.81	-51.7	-66.9	3.8	1.49e+00	0	42	104	0	75	20216
2026-01-13 12:07:51.15	239.06	5.85	-51.7	-66.9	3.8	1.49e+00	0	42	104	0	75	20242
2026-01-13 12:07:52.15	239.18	5.90	-51.7	-66.9	3.8	1.49e+00	0	42	104	0	75	20172
2026-01-13 12:07:53.14	239.31	5.94	-51.7	-66.9	3.8	1.49e+00	0	42	104	0	75	20208
2026-01-13 12:07:54.13	239.44	5.98	-51.7	-66.9	3.8	1.49e+00	0	42	104	0	75	20253
2026-01-13 12:07:55.13	239.56	6.03	-51.7	-66.9	3.8	1.49e+00	0	42	104	0	75	20169
2026-01-13 12:07:56.12	239.69	6.07	-51.7	-66.9	3.8	1.49e+00	0	42	104	0	75	20234
2026-01-13 12:07:57.11	239.82	6.11	-51.7	-66.9	3.8	1.49e+00	0	42	104	0	75	20253
2026-01-13 12:07:58.10	239.95	6.16	-51.7	-66.9	3.8	1.49e+00	0	42	104	0	75	20177
2026-01-13 12:07:59.10	240.08	6.20	-51.7	-66.9	3.8	1.49e+00	0	42	104	0	75	20150
2026-01-13 12:08:00.09	240.21	6.24	-51.7	-66.9	3.8	1.49e+00	0	42	104	0	75	20289
2026-01-13 12:08:01.08	240.33	6.28	-51.7	-67.0	3.8	1.49e+00	0	42	104	0	75	20376
2026-01-13 12:08:02.08	240.46	6.33	-51.7	-66.9	3.8	1.49e+00	0	42	104	0	75	20224
2026-01-13 12:08:03.07	240.59	6.37	-51.7	-66.9	3.8	1.49e+00	0	42	104	0	75	20275
2026-01-13 12:08:04.06	240.72	6.41	-51.7	-66.9	3.8	1.49e+00	0	42	104	0	75	20261
2026-01-13 12:08:05.06	240.86	6.46	-51.7	-66.9	3.8	1.49e+00	0	42	104	0	75	20217
2026-01-13 12:08:06.05	240.99	6.50	-51.7	-67.0	3.8	1.49e+00	0	42	104	0	75	20304
2026-01-13 12:08:07.04	241.12	6.54	-51.7	-67.0	3.8	1.49e+00	0	42	104	0	75	20471
2026-01-13 12:08:08.04	241.25	6.58	-51.7	-67.0	3.8	1.49e+00	0	42	104	0	75	20486
2026-01-13 12:08:09.03	241.38	6.63	-51.7	-67.0	3.8	1.49e+00	0	42	104	0	75	20365
2026-01-13 12:08:10.02	241.51	6.67	-51.7	-66.9	3.8	1.49e+00	0	42	104	0	75	20238
2026-01-13 12:08:11.02	241.65	6.71	-51.7	-66.9	3.8	1.49e+00	0	42	104	0	75	20252
2026-01-13 12:08:12.01	241.78	6.75	-51.7	-66.9	3.8	1.49e+00	0	43	104	0	75	20109
2026-01-13 12:08:13.00	241.91	6.79	-51.7	-66.9	3.8	1.49e+00	0	43	104	0	75	20134
2026-01-13 12:08:14.00	242.05	6.84	-51.8	-66.9	3.8	1.49e+00	0	42	104	0	75	20135
2026-01-13 12:08:14.99	242.18	6.88	-51.7	-66.9	3.8	1.49e+00	0	43	104	0	75	20143
2026-01-13 12:08:15.98	242.32	6.92	-51.8	-66.9	3.8	1.49e+00	0	43	104	0	75	20204
2026-01-13 12:08:16.98	242.45	6.96	-51.8	-67.0	3.8	1.49e+00	0	43	104	0	75	20319
2026-01-13 12:08:17.97	242.59	7.00	-51.8	-67.0	3.8	1.49e+00	0	43	104	0	75	20383
2026-01-13 12:08:18.96	242.73	7.05	-51.8	-67.0	3.8	1.49e+00	0	43	104	0	75	20435
2026-01-13 12:08:19.96	242.86	7.09	-51.8	-67.0	3.8	1.49e+00	0	43	104	0	75	20456
2026-01-13 12:08:20.95	243.00	7.13	-51.8	-67.1	3.8	1.49e+00	0	43	104	0	75	20558
2026-01-13 12:08:21.94	243.14	7.17	-51.8	-67.0	3.8	1.49e+00	0	43	104	0	75	20443
2026-01-13 12:08:22.94	243.27	7.21	-51.8	-67.0	3.8	1.49e+00	0	43	104	0	75	20352
2026-01-13 12:08:23.93	243.41	7.25	-51.8	-67.0	3.8	1.49e+00	0	43	104	0	75	20372
2026-01-13 12:08:24.92	243.55	7.29	-51.8	-67.0	3.8	1.49e+00	0	43	104	0	75	20315
2026-01-13 12:08:25.92	243.69	7.34	-51.8	-66.9	3.8	1.49e+00	0	43	104	0	75	20295
2026-01-13 12:08:26.91	243.83	7.38	-51.8	-66.9	3.8	1.49e+00	0	43	104	0	75	20174
2026-01-13 12:08:27.90	243.97	7.42	-51.8	-66.8	3.8	1.49e+00	0	43	104	0	75	19984
2026-01-13 12:08:28.89	244.11	7.46	-51.8	-66.8	3.8	1.49e+00	0	43	104	0	75	19983
2026-01-13 12:08:29.89	244.25	7.50	-51.8	-66.8	3.8	1.49e+00	0	43	104	0	75	19965
2026-01-13 12:08:30.88	244.39	7.54	-51.8	-66.8	3.8	1.49e+00	0	43	104	0	75	19921
2026-01-13 12:08:31.87	244.53	7.58	-51.8	-66.8	3.8	1.49e+00	0	43	104	0	75	20070
2026-01-13 12:08:32.87	244.67	7.62	-51.8	-66.8	3.8	1.49e+00	0	43	104	0	75	19979
2026-01-13 12:08:33.86	244.81	7.66	-51.8	-66.9	3.8	1.49e+00	0	43	104	0	75	20199
2026-01-13 12:08:34.85	244.95	7.70	-51.8	-66.8	3.8	1.49e+00	0	43	104	0	75	19968
2026-01-13 12:08:35.85	245.10	7.74	-51.8	-66.9	3.8	1.49e+00	0	43	104	0	75	20153
2026-01-13 12:08:36.84	245.24	7.78	-51.8	-66.9	3.8	1.49e+00	0	43	104	0	75	20108
2026-01-13 12:08:37.83	245.38	7.82	-51.8	-66.8	3.8	1.49e+00	0	43	104	0	75	20068
2026-01-13 12:08:38.83	245.53	7.86	-51.8	-66.8	3.8	1.49e+00	0	43	104	0	75	19864
2026-01-13 12:08:39.82	245.67	7.90	-51.8	-66.6	3.8	1.49e+00	0	43	104	0	75	19587
2026-01-13 12:08:40.81	245.81	7.94	-51.8	-66.6	3.8	1.49e+00	0	43	104	0	75	19478
2026-01-13 12:08:41.81	245.96	7.98	-51.8	-66.7	3.8	1.49e+00	0	43	104	0	75	19759
2026-01-13 12:08:42.80	246.10	8.02	-51.8	-66.8	3.8	1.49e+00	0	43	104	0	75	20066
2026-01-13 12:08:43.79	246.25	8.06	-51.9	-67.0	3.8	1.49e+00	0	43	104	0	75	20464
2026-01-13 12:08:44.79	246.40	8.10	-51.9	-67.0	3.8	1.49e+00	0	43	104	0	75	20403
2026-01-13 12:08:45.78	246.54	8.14	-51.9	-66.9	3.8	1.49e+00	0	43	104	0	75	20218
2026-01-13 12:08:46.77	246.69	8.18	-51.9	-66.8	3.8	1.49e+00	0	43	104	0	75	19913
2026-01-13 12:08:47.77	246.84	8.22	-51.9	-66.7	3.8	1.49e+00	0	43	104	0	75	19647
2026-01-13 12:08:48.76	246.98	8.26	-51.9	-66.6	3.8	1.49e+00	0	43	104	0	75	19460
2026-01-13 12:08:49.75	247.13	8.30	-51.9	-66.7	3.8	1.49e+00	0	43	104	0	75	19618
2026-01-13 12:08:50.75	247.28	8.34	-51.9	-66.7	3.8	1.49e+00	0	43	104	0	75	19766
2026-01-13 12:08:51.74	247.43	8.38	-51.9	-66.7	3.8	1.49e+00	0	43	104	0	75	19726
2026-01-13 12:08:52.74	247.58	8.42	-51.9	-66.4	3.8	1.49e+00	0	43	104	0	75	18963
2026-01-13 12:08:53.73	247.73	8.45	-51.8	-65.9	3.8	1.49e+00	0	43	104	0	75	18027
2026-01-13 12:08:54.72	247.88	8.49	-51.8	-65.4	3.8	1.49e+00	0	43	104	0	75	17014
2026-01-13 12:08:55.72	248.03	8.53	-51.8	-65.5	3.8	1.49e+00	0	43	104	0	75	17141
2026-01-13 12:08:56.71	248.18	8.57	-51.9	-66.5	3.8	1.49e+00	0	43	104	0	75	19276
2026-01-13 12:08:57.70	248.33	8.61	-51.9	-66.9	3.8	1.49e+00	0	43	104	0	75	20289
2026-01-13 12:08:58.70	248.48	8.65	-51.7	-64.1	3.9	1.49e+00	0	43	104	0	75	14591
2026-01-13 12:08:59.69	248.63	8.68	-51.2	-59.8	6.1	6.17e-01	0	43	0	1048576	74	9482
2026-01-13 12:09:00.68	248.78	8.72	-50.4	-56.6	9.1	8.57e-02	0	43	0	3145728	72	7333
2026-01-13 12:09:01.68	248.93	8.76	-49.7	-54.8	11.1	8.38e-03	0	43	0	4194304	71	6318
2026-01-13 12:09:02.67	249.09	8.80	-49.0	-53.4	12.6	2.13e-04	0	43	0	6291456	70	5683
2026-01-13 12:09:03.66	249.24	8.84	-48.7	-52.8	13.2	4.27e-05	0	43	0	8388608	69	5600
2026-01-13 12:09:04.66	249.39	8.87	-48.6	-52.6	13.3	2.05e-05	0	43	0	10485760	69	5527
2026-01-13 12:09:05.65	249.55	8.91	-48.8	-53.0	12.9	1.75e-05	0	43	0	12582912	69	5764
2026-01-13 12:09:06.64	249.70	8.95	-49.2	-53.8	12.2	1.23e-04	0	43	0	13631488	69	6306
2026-01-13 12:09:07.64	249.86	8.98	-49.8	-55.0	10.9	7.87e-04	0	43	0	15728640	70	6830
2026-01-13 12:09:08.63	250.01	9.02	-50.3	-56.4	9.5	5.50e-03	0	43	0	17825792	71	7579
2026-01-13 12:09:09.62	250.17	9.06	-50.6	-57.2	8.6	2.42e-02	0	43	0	19922944	71	8344
2026-01-13 12:09:10.62	250.32	9.09	-50.4	-56.7	9.1	4.49e-02	0	43	0	20971520	72	7408
2026-01-13 12:09:11.62	250.48	9.13	-50.5	-57.0	8.8	5.24e-02	0	43	0	23068672	72	7713
2026-01-13 12:09:12.61	250.64	9.17	-49.9	-55.2	10.6	2.30e-01	0	43	0	25165824	71	6628
2026-01-13 12:09:13.69	250.81	9.21	-50.8	-58.1	7.8	5.43e-03	0	43	0	27262976	72	8696
2026-01-13 12:09:14.54	250.94	9.24	-50.3	-56.4	9.1	1.74e-01	0	43	0	28311552	72	7180
2026-01-13 12:09:15.68	251.12	9.28	-49.2	-53.8	12.2	4.97e-04	0	43	0	30408704	70	5947
2026-01-13 12:09:16.63	251.27	9.31	-49.0	-53.2	12.7	9.46e-05	0	43	0	32505856	70	5590
2026-01-13 12:09:17.62	251.43	9.35	-48.8	-52.9	13.1	3.81e-05	0	43	0	34603008	69	5683
2026-01-13 12:09:18.62	251.59	9.38	-48.8	-52.9	13.0	4.11e-05	0	44	0	36700160	69	5711
2026-01-13 12:09:19.61	251.75	9.42	-48.9	-53.0	13.0	4.73e-05	0	44	0	37748736	69	5735
2026-01-13 12:09:20.61	251.91	9.46	-48.9	-53.0	13.0	2.21e-05	0	44	0	39845888	69	5752
2026-01-13 12:09:21.60	252.07	9.49	-48.8	-53.0	13.0	4.50e-05	0	44	0	41943040	69	5730
2026-01-13 12:09:22.60	252.23	9.53	-48.7	-52.8	13.2	1.83e-05	0	43	0	44040192	69	5606
2026-01-13 12:09:23.59	252.39	9.56	-48.6	-52.6	13.4	1.29e-05	0	43	0	46137344	69	5467
2026-01-13 12:09:24.59	252.55	9.60	-48.5	-52.5	13.5	7.60e-06	0	43	0	47185920	69	5425
2026-01-13 12:09:26.03	252.79	9.65	-48.5	-52.3	13.7	8.30e-06	0	43	0	50331648	68	5640
2026-01-13 12:09:26.74	252.90	9.67	-48.5	-52.3	13.7	6.10e-06	0	44	0	51380224	68	5639
2026-01-13 12:09:28.01	253.11	9.71	-48.5	-52.4	13.6	8.30e-06	0	43	0	54525952	68	5682
2026-01-13 12:09:28.73	253.23	9.74	-48.6	-52.5	13.6	4.50e-06	0	44	0	55574528	68	5727
2026-01-13 12:09:30.01	253.44	9.78	-48.6	-52.4	13.6	7.60e-06	0	43	0	57671680	68	5707
2026-01-13 12:09:30.73	253.56	9.81	-48.6	-52.5	13.6	3.80e-06	0	43	0	58720256	68	5746
2026-01-13 12:09:32.01	253.77	9.85	-48.6	-52.5	13.5	6.80e-06	0	43	0	61865984	68	5728
2026-01-13 12:09:32.75	253.89	9.87	-48.7	-52.5	13.5	5.30e-06	0	44	0	62914560	68	5779
2026-01-13 12:09:34.03	254.10	9.92	-48.7	-52.6	13.4	9.90e-06	0	43	0	65011712	68	5853
2026-01-13 12:09:34.74	254.22	9.94	-48.7	-52.6	13.4	1.60e-05	0	44	0	67108864	68	5834
2026-01-13 12:09:36.13	254.45	9.99	-48.7	-52.6	13.5	1.83e-05	0	43	0	69206016	68	5799
2026-01-13 12:09:36.84	254.57	10.01	-48.7	-52.6	13.4	1.06e-05	0	44	0	70254592	68	5841
2026-01-13 12:09:38.15	254.79	10.05	-48.6	-52.6	13.5	1.37e-05	0	44	0	73400320	68	5822
2026-01-13 12:09:39.15	254.96	10.09	-48.6	-52.6	13.5	8.30e-06	0	44	0	74448896	68	5797
2026-01-13 12:09:40.46	255.18	10.13	-48.5	-52.5	13.6	4.50e-06	0	43	0	77594624	68	5747
2026-01-13 12:09:41.17	255.30	10.15	-48.5	-52.4	13.7	6.10e-06	0	43	0	78643200	68	5661
2026-01-13 12:09:42.45	255.51	10.19	-48.4	-52.1	14.0	7.00e-07	0	44	0	80740352	68	5511
2026-01-13 12:09:43.16	255.63	10.21	-48.4	-52.2	13.9	6.80e-06	0	43	0	82837504	68	5537
2026-01-13 12:09:44.44	255.85	10.25	-48.4	-52.2	13.9	2.20e-06	0	44	0	84934656	68	5551
2026-01-13 12:09:45.16	255.97	10.28	-48.4	-52.2	13.9	6.10e-06	0	44	0	85983232	68	5534
2026-01-13 12:09:46.44	256.19	10.32	-48.4	-52.1	14.0	1.50e-06	0	43	0	89128960	68	5519
2026-01-13 12:09:47.15	256.31	10.34	-48.4	-52.1	13.9	3.00e-06	0	43	0	90177536	68	5526
2026-01-13 12:09:48.45	256.53	10.38	-48.5	-52.3	13.8	1.50e-06	0	44	0	92274688	68	5612
2026-01-13 12:09:49.16	256.65	10.40	-48.5	-52.2	13.9	3.00e-06	0	44	0	93323264	68	5585
2026-01-13 12:09:50.44	256.87	10.44	-48.5	-52.4	13.7	3.00e-06	0	44	0	96468992	68	5659
2026-01-13 12:09:51.15	257.00	10.46	-48.6	-52.5	13.6	7.60e-06	0	43	0	97517568	68	5739
2026-01-13 12:09:52.42	257.21	10.50	-48.6	-52.6	13.5	4.50e-06	0	43	0	99614720	68	5797
2026-01-13 12:09:53.14	257.34	10.52	-48.6	-52.6	13.5	6.80e-06	0	44	0	100663296	68	5798
2026-01-13 12:09:54.42	257.56	10.56	-48.7	-52.7	13.4	1.60e-05	0	44	0	103809024	68	5876
2026-01-13 12:09:55.13	257.68	10.58	-48.7	-52.7	13.4	1.22e-05	0	44	0	104857600	68	5873
2026-01-13 12:09:56.41	257.90	10.62	-48.7	-52.7	13.4	1.14e-05	0	44	0	106954752	68	5912
2026-01-13 12:09:57.13	258.03	10.64	-48.7	-52.7	13.4	1.06e-05	0	44	0	109051904	68	5876
2026-01-13 12:09:58.71	258.30	10.69	-48.7	-52.7	13.4	9.90e-06	0	43	0	111149056	68	5873
2026-01-13 12:09:59.34	258.41	10.70	-48.7	-52.7	13.4	1.83e-05	0	43	0	113246208	68	5859
2026-01-13 12:10:00.89	258.69	10.75	-48.6	-52.5	13.7	9.90e-06	0	44	0	115343360	68	5732
2026-01-13 12:10:01.60	258.81	10.77	-48.5	-52.3	13.8	8.30e-06	0	44	0	117440512	68	5641
2026-01-13 12:10:02.89	259.04	10.80	-48.5	-52.4	13.7	5.30e-06	0	44	0	119537664	68	5719
2026-01-13 12:10:03.60	259.16	10.82	-48.6	-52.5	13.7	6.80e-06	0	44	0	120586240	68	5759
2026-01-13 12:10:04.88	259.39	10.86	-48.6	-52.6	13.6	1.52e-05	0	44	0	122683392	68	5813
2026-01-13 12:10:05.60	259.51	10.88	-48.6	-52.6	13.5	9.10e-06	0	44	0	124780544	68	5832
2026-01-13 12:10:06.87	259.74	10.91	-48.7	-52.7	13.5	1.22e-05	0	43	0	126877696	68	5866
2026-01-13 12:10:07.58	259.86	10.93	-48.6	-52.5	13.6	1.37e-05	0	43	0	127926272	68	5771
2026-01-13 12:10:08.86	260.09	10.97	-48.6	-52.6	13.6	8.30e-06	0	44	0	131072000	68	5792
2026-01-13 12:10:09.57	260.22	10.99	-48.6	-52.5	13.6	9.10e-06	0	43	0	132120576	68	5754
2026-01-13 12:10:10.85	260.45	11.02	-48.7	-52.7	13.5	1.44e-05	0	44	0	134217728	68	5865
2026-01-13 12:10:11.56	260.57	11.04	-48.7	-52.6	13.5	7.60e-06	0	44	0	135266304	68	5819
2026-01-13 12:10:12.84	260.80	11.07	-48.7	-52.7	13.4	7.60e-06	0	44	0	138412032	68	5903
2026-01-13 12:10:13.55	260.93	11.09	-48.8	-52.8	13.4	1.22e-05	0	44	0	139460608	68	5955
2026-01-13 12:10:14.83	261.16	11.12	-48.8	-52.9	13.3	1.06e-05	0	44	0	141557760	68	6009
2026-01-13 12:10:15.56	261.29	11.14	-48.9	-53.0	13.2	1.29e-05	0	44	0	143654912	68	6101
2026-01-13 12:10:16.83	261.52	11.17	-48.8	-52.9	13.3	2.13e-05	0	43	0	145752064	68	6015
2026-01-13 12:10:17.56	261.65	11.19	-48.8	-52.9	13.3	1.52e-05	0	44	0	146800640	68	6019
2026-01-13 12:10:18.84	261.88	11.22	-48.8	-52.8	13.3	1.90e-05	0	44	0	148897792	68	5990
2026-01-13 12:10:19.56	262.01	11.24	-48.8	-52.7	13.4	1.22e-05	0	44	0	150994944	68	5910
2026-01-13 12:10:20.84	262.24	11.27	-48.7	-52.6	13.6	1.44e-05	0	44	0	153092096	68	5838
2026-01-13 12:10:21.57	262.37	11.29	-48.7	-52.6	13.6	8.30e-06	0	44	0	154140672	68	5838
2026-01-13 12:10:22.84	262.61	11.32	-48.6	-52.4	13.8	3.80e-06	0	44	0	157286400	68	5698
2026-01-13 12:10:23.57	262.74	11.34	-48.5	-52.4	13.8	3.80e-06	0	44	0	158334976	68	5674
2026-01-13 12:10:24.85	262.97	11.37	-48.5	-52.4	13.7	3.00e-06	0	44	0	160432128	68	5719
2026-01-13 12:10:25.57	263.10	11.38	-48.4	-52.3	13.9	2.20e-06	0	44	0	161480704	68	5606
2026-01-13 12:10:26.85	263.34	11.41	-48.4	-52.4	13.7	1.14e-05	0	44	0	164626432	68	5691
2026-01-13 12:10:27.56	263.47	11.43	-48.3	-52.2	13.9	4.50e-06	0	44	0	165675008	68	5574
2026-01-13 12:10:28.84	263.70	11.46	-48.4	-52.2	14.0	4.50e-06	0	44	0	167772160	68	5552
2026-01-13 12:10:29.55	263.83	11.47	-48.4	-52.2	13.9	7.00e-07	0	44	0	169869312	68	5586
2026-01-13 12:10:30.83	264.07	11.50	-48.5	-52.2	13.9	3.80e-06	0	44	0	171966464	68	5586
2026-01-13 12:10:31.57	264.20	11.51	-48.5	-52.3	13.9	4.50e-06	0	43	0	173015040	68	5613
2026-01-13 12:10:32.86	264.44	11.54	-48.6	-52.4	13.8	4.50e-06	0	44	0	175112192	68	5665
2026-01-13 12:10:33.60	264.58	11.56	-48.6	-52.3	13.8	2.20e-06	0	44	0	177209344	68	5646
2026-01-13 12:10:34.88	264.81	11.58	-48.6	-52.4	13.8	4.50e-06	0	44	0	179306496	68	5697
2026-01-13 12:10:35.59	264.95	11.60	-48.6	-52.3	13.9	5.30e-06	0	44	0	180355072	68	5622
2026-01-13 12:10:36.87	265.18	11.62	-48.6	-52.3	13.9	3.00e-06	0	44	0	183500800	68	5604
2026-01-13 12:10:37.58	265.32	11.64	-48.5	-52.2	14.0	1.50e-06	0	44	0	184549376	68	5538
2026-01-13 12:10:38.86	265.55	11.66	-48.4	-52.0	14.2	2.20e-06	0	44	0	186646528	68	5440
2026-01-13 12:10:39.58	265.69	11.68	-48.3	-51.9	14.2	1.50e-06	0	44	0	188743680	68	5393
2026-01-13 12:10:40.86	265.93	11.70	-48.2	-51.7	14.4	7.00e-07	0	44	0	190840832	68	5279
2026-01-13 12:10:41.57	266.06	11.72	-48.2	-51.8	14.4	7.00e-07	0	44	0	191889408	68	5283
2026-01-13 12:10:42.85	266.30	11.74	-48.1	-51.6	14.5	0.00e+00	0	44	0	193986560	68	5184
2026-01-13 12:10:43.56	266.43	11.75	-48.1	-51.6	14.6	0.00e+00	0	44	0	196083712	68	5191
2026-01-13 12:10:44.84	266.67	11.78	-48.1	-51.6	14.5	1.50e-06	0	44	0	198180864	68	5209
2026-01-13 12:10:45.56	266.80	11.79	-48.2	-51.7	14.5	0.00e+00	0	44	0	199229440	68	5232
2026-01-13 12:10:46.84	267.04	11.81	-48.2	-51.8	14.4	7.00e-07	0	44	0	202375168	68	5315
2026-01-13 12:10:47.55	267.18	11.82	-48.3	-51.9	14.3	7.00e-07	0	44	0	203423744	68	5365
2026-01-13 12:10:48.83	267.42	11.85	-48.4	-52.1	14.1	1.50e-06	0	44	0	205520896	68	5512
2026-01-13 12:10:49.59	267.56	11.86	-48.5	-52.2	13.9	7.00e-07	0	44	0	206569472	68	5579
2026-01-13 12:10:50.87	267.80	11.88	-48.6	-52.4	13.7	7.60e-06	0	44	0	209715200	68	5719
2026-01-13 12:10:51.58	267.94	11.89	-48.6	-52.4	13.7	8.30e-06	0	44	0	210763776	68	5717
2026-01-13 12:10:53.24	268.25	11.92	-48.6	-52.5	13.7	4.50e-06	0	44	0	213909504	68	5759
2026-01-13 12:10:53.81	268.36	11.93	-48.6	-52.5	13.6	1.29e-05	0	44	0	214958080	68	5786
2026-01-13 12:10:55.52	268.68	11.95	-48.6	-52.5	13.7	9.90e-06	0	44	0	218103808	68	5729
2026-01-13 12:10:56.09	268.79	11.96	-48.5	-52.3	13.9	3.80e-06	0	44	0	219152384	68	5649
2026-01-13 12:10:57.79	269.11	11.99	-48.6	-52.4	13.7	4.50e-06	0	44	0	222298112	68	5698
2026-01-13 12:10:58.36	269.22	12.00	-48.5	-52.3	13.9	2.20e-06	0	44	0	223346688	68	5634
2026-01-13 12:11:00.06	269.54	12.02	-48.7	-52.5	13.7	6.10e-06	0	44	0	226492416	68	5743
2026-01-13 12:11:00.72	269.67	12.03	-48.7	-52.6	13.6	2.20e-06	0	44	0	227540992	68	5803
2026-01-13 12:11:02.14	269.94	12.05	-48.7	-52.6	13.6	8.30e-06	0	44	0	230686720	68	5799
2026-01-13 12:11:02.86	270.08	12.06	-48.8	-52.6	13.6	8.30e-06	0	44	0	231735296	68	5837
2026-01-13 12:11:04.13	270.32	12.07	-48.9	-52.9	13.3	1.98e-05	0	44	0	233832448	68	6046
2026-01-13 12:11:05.02	270.49	12.09	-48.9	-52.9	13.2	1.83e-05	0	44	0	235929600	68	6054
2026-01-13 12:11:06.16	270.71	12.10	-49.0	-53.1	13.1	2.28e-05	0	44	0	238026752	68	6149
2026-01-13 12:11:07.01	270.87	12.11	-49.0	-53.2	13.1	3.58e-05	0	44	0	240123904	68	6206
2026-01-13 12:11:08.15	271.09	12.12	-49.0	-53.1	13.1	3.58e-05	0	44	0	242221056	68	6184
2026-01-13 12:11:09.31	271.31	12.14	-49.0	-53.2	13.1	2.82e-05	0	44	0	244318208	68	6206
2026-01-13 12:11:10.17	271.48	12.15	-48.9	-53.0	13.2	2.82e-05	0	44	0	245366784	68	6125
2026-01-13 12:11:11.68	271.77	12.16	-49.0	-53.1	13.1	2.82e-05	0	44	0	248512512	68	6179
2026-01-13 12:11:12.39	271.90	12.17	-49.0	-53.0	13.2	3.28e-05	0	43	0	249561088	68	6130
2026-01-13 12:11:13.67	272.15	12.18	-49.0	-53.1	13.1	3.50e-05	0	44	0	251658240	68	6185
2026-01-13 12:11:14.41	272.29	12.19	-49.1	-53.2	13.0	2.44e-05	0	44	0	253755392	68	6210
2026-01-13 12:11:15.69	272.54	12.20	-48.9	-53.0	13.2	2.05e-05	0	44	0	255852544	68	6098
2026-01-13 12:11:16.42	272.68	12.21	-48.9	-53.0	13.2	2.44e-05	0	44	0	256901120	68	6092
2026-01-13 12:11:17.70	272.93	12.22	-48.8	-52.9	13.3	1.90e-05	0	44	0	260046848	68	6034
2026-01-13 12:11:18.50	273.08	12.23	-48.8	-52.9	13.3	2.51e-05	0	44	0	261095424	68	6050
2026-01-13 12:11:19.64	273.30	12.24	-48.8	-52.9	13.4	1.83e-05	0	44	0	263192576	68	5998
2026-01-13 12:11:20.49	273.46	12.25	-48.8	-52.9	13.4	1.44e-05	0	44	0	265289728	68	5996
2026-01-13 12:11:21.63	273.68	12.26	-48.9	-52.9	13.4	1.75e-05	0	44	0	267386880	68	5993
2026-01-13 12:11:22.72	273.90	12.26	-48.9	-52.9	13.4	1.52e-05	0	44	0	269484032	68	5995
2026-01-13 12:11:23.57	274.06	12.27	-48.9	-52.9	13.3	1.44e-05	0	44	0	270532608	68	6039
2026-01-13 12:11:24.71	274.28	12.28	-49.0	-53.1	13.2	2.13e-05	0	44	0	272629760	68	6135
2026-01-13 12:11:25.56	274.44	12.28	-49.0	-52.9	13.3	1.29e-05	0	44	0	274726912	68	6040
2026-01-13 12:11:26.70	274.67	12.29	-48.9	-52.9	13.4	2.13e-05	0	44	0	276824064	68	6009
2026-01-13 12:11:27.55	274.83	12.30	-48.9	-52.9	13.4	1.75e-05	0	44	0	277872640	68	6003
2026-01-13 12:11:28.69	275.05	12.30	-48.8	-52.7	13.5	9.10e-06	0	44	0	279969792	68	5886
2026-01-13 12:11:29.54	275.22	12.31	-48.8	-52.8	13.5	1.06e-05	0	44	0	282066944	68	5937
2026-01-13 12:11:30.68	275.44	12.31	-48.7	-52.7	13.5	1.14e-05	0	44	0	284164096	68	5865
2026-01-13 12:11:31.54	275.60	12.32	-48.7	-52.7	13.5	9.90e-06	0	44	0	285212672	68	5905
2026-01-13 12:11:32.67	275.82	12.32	-48.7	-52.7	13.5	1.29e-05	0	44	0	287309824	68	5905
2026-01-13 12:11:33.52	275.99	12.33	-48.7	-52.6	13.7	7.60e-06	0	44	0	289406976	68	5812
2026-01-13 12:11:34.66	276.21	12.33	-48.7	-52.6	13.7	1.22e-05	0	44	0	291504128	68	5789
2026-01-13 12:11:35.52	276.38	12.33	-48.7	-52.5	13.8	2.20e-06	0	44	0	293601280	68	5754
2026-01-13 12:11:36.65	276.60	12.34	-48.5	-52.2	14.0	5.30e-06	0	44	0	295698432	68	5579
2026-01-13 12:11:37.63	276.79	12.34	-48.5	-52.2	14.1	1.50e-06	0	44	0	296747008	68	5530
2026-01-13 12:11:38.80	277.01	12.35	-48.4	-52.1	14.1	2.20e-06	0	44	0	298844160	68	5483
2026-01-13 12:11:39.65	277.18	12.35	-48.4	-52.1	14.1	4.50e-06	0	44	0	300941312	68	5513
2026-01-13 12:11:40.99	277.44	12.35	-48.5	-52.3	13.9	5.30e-06	0	44	0	303038464	68	5634
2026-01-13 12:11:41.71	277.58	12.35	-48.5	-52.3	13.9	4.50e-06	0	44	0	305135616	68	5651
2026-01-13 12:11:42.99	277.83	12.35	-48.6	-52.5	13.8	9.10e-06	0	44	0	307232768	68	5735
2026-01-13 12:11:43.71	277.97	12.36	-48.6	-52.5	13.8	2.20e-06	0	44	0	308281344	68	5742
2026-01-13 12:11:44.99	278.22	12.36	-48.7	-52.5	13.7	7.60e-06	0	44	0	310378496	68	5763
2026-01-13 12:11:45.72	278.36	12.36	-48.6	-52.4	13.8	3.00e-06	0	44	0	312475648	68	5703
2026-01-13 12:11:47.00	278.61	12.36	-48.5	-52.3	14.0	3.80e-06	0	44	0	314572800	68	5596
2026-01-13 12:11:47.71	278.75	12.36	-48.4	-52.2	14.1	4.50e-06	0	44	0	315621376	68	5551
2026-01-13 12:11:49.00	279.00	12.36	-48.4	-52.2	14.1	2.20e-06	0	44	0	318767104	68	5543
2026-01-13 12:11:49.72	279.14	12.36	-48.4	-52.2	14.0	2.20e-06	0	44	0	319815680	68	5554
2026-01-13 12:11:51.00	279.39	12.36	-48.4	-52.2	14.0	2.20e-06	0	44	0	321912832	68	5559
2026-01-13 12:11:51.72	279.53	12.36	-48.4	-52.1	14.1	0.00e+00	0	44	0	322961408	68	5517
2026-01-13 12:11:53.00	279.77	12.35	-48.4	-52.1	14.2	1.50e-06	0	44	0	326107136	68	5467
2026-01-13 12:11:53.71	279.91	12.35	-48.3	-52.0	14.2	2.20e-06	0	44	0	327155712	68	5430
2026-01-13 12:11:55.12	280.19	12.35	-48.3	-51.9	14.3	1.50e-06	0	44	0	330301440	68	5392
2026-01-13 12:11:55.83	280.32	12.35	-48.3	-51.9	14.3	0.00e+00	0	44	0	331350016	68	5380
2026-01-13 12:11:57.11	280.57	12.35	-48.3	-52.0	14.3	7.00e-07	0	44	0	333447168	68	5418
2026-01-13 12:11:58.17	280.78	12.34	-48.3	-51.8	14.4	1.50e-06	0	44	0	335544320	68	5325
2026-01-13 12:11:59.33	281.00	12.34	-48.0	-51.4	14.8	0.00e+00	0	44	0	337641472	68	5072
2026-01-13 12:12:00.34	281.20	12.34	-47.8	-51.1	14.9	0.00e+00	0	44	0	339738624	67	5203
2026-01-13 12:12:01.34	281.39	12.33	-47.7	-50.9	15.1	0.00e+00	0	44	0	341835776	67	5087
2026-01-13 12:12:02.55	281.63	12.33	-47.7	-51.0	15.1	0.00e+00	0	44	0	343932928	67	5110
2026-01-13 12:12:03.40	281.79	12.32	-47.7	-51.0	15.1	0.00e+00	0	44	0	344981504	67	5121
2026-01-13 12:12:04.54	282.01	12.32	-47.7	-50.9	15.1	0.00e+00	0	44	0	347078656	67	5094
2026-01-13 12:12:05.39	282.18	12.31	-47.8	-51.1	15.0	0.00e+00	0	44	0	349175808	67	5168
2026-01-13 12:12:06.53	282.40	12.31	-47.8	-51.1	15.0	0.00e+00	0	44	0	351272960	67	5164
2026-01-13 12:12:07.38	282.56	12.30	-47.9	-51.3	14.8	0.00e+00	0	44	0	353370112	67	5307
2026-01-13 12:12:08.52	282.79	12.30	-47.8	-51.2	14.9	0.00e+00	0	44	0	355467264	67	5222
2026-01-13 12:12:09.37	282.95	12.29	-47.8	-51.1	14.9	0.00e+00	0	44	0	356515840	67	5209
2026-01-13 12:12:10.51	283.17	12.28	-47.7	-51.0	15.0	7.00e-07	0	44	0	358612992	67	5140
2026-01-13 12:12:11.37	283.34	12.28	-47.7	-51.0	15.0	0.00e+00	0	44	0	360710144	67	5136
2026-01-13 12:12:12.50	283.55	12.27	-47.7	-50.9	15.1	0.00e+00	0	44	0	362807296	67	5072
2026-01-13 12:12:13.35	283.72	12.26	-47.7	-51.0	15.1	7.00e-07	0	44	0	363855872	67	5106
2026-01-13 12:12:14.49	283.94	12.25	-47.6	-50.8	15.2	0.00e+00	0	44	0	365953024	67	5030
2026-01-13 12:12:15.34	284.10	12.25	-47.7	-51.0	15.1	0.00e+00	0	44	0	368050176	67	5116
2026-01-13 12:12:16.48	284.32	12.24	-47.6	-50.9	15.1	0.00e+00	0	44	0	370147328	67	5059
2026-01-13 12:12:17.34	284.49	12.23	-47.6	-50.9	15.1	0.00e+00	0	44	0	371195904	67	5089
2026-01-13 12:12:18.65	284.74	12.22	-47.6	-51.0	15.1	7.00e-07	0	44	0	374341632	67	5122
2026-01-13 12:12:19.36	284.88	12.21	-47.6	-50.9	15.1	0.00e+00	0	44	0	375390208	67	5067
2026-01-13 12:12:20.64	285.12	12.20	-47.6	-50.9	15.1	0.00e+00	0	44	0	377487360	67	5092
2026-01-13 12:12:21.35	285.26	12.19	-47.6	-50.9	15.1	0.00e+00	0	44	0	378535936	67	5068
2026-01-13 12:12:22.63	285.51	12.18	-47.6	-50.9	15.2	0.00e+00	0	44	0	381681664	67	5051
2026-01-13 12:12:23.34	285.64	12.17	-47.6	-50.9	15.1	0.00e+00	0	44	0	382730240	67	5075
2026-01-13 12:12:24.62	285.89	12.16	-47.7	-50.9	15.1	0.00e+00	0	44	0	384827392	67	5090
2026-01-13 12:12:25.50	286.06	12.15	-47.6	-50.9	15.2	0.00e+00	0	44	0	386924544	67	5047
2026-01-13 12:12:26.63	286.27	12.14	-47.6	-50.8	15.3	0.00e+00	0	44	0	389021696	67	4999
2026-01-13 12:12:27.49	286.44	12.13	-47.6	-50.8	15.2	0.00e+00	0	44	0	390070272	67	5029
2026-01-13 12:12:28.62	286.65	12.11	-47.7	-50.9	15.1	0.00e+00	0	44	0	392167424	67	5079
2026-01-13 12:12:29.71	286.86	12.10	-47.6	-50.9	15.1	0.00e+00	0	44	0	394264576	67	5067
2026-01-13 12:12:30.76	287.06	12.09	-47.7	-51.0	15.0	0.00e+00	0	44	0	396361728	67	5122
2026-01-13 12:12:31.89	287.28	12.07	-47.8	-51.0	15.0	0.00e+00	0	44	0	398458880	67	5151
2026-01-13 12:12:32.82	287.45	12.06	-47.8	-51.1	14.9	0.00e+00	0	44	0	400556032	67	5199
2026-01-13 12:12:33.82	287.65	12.05	-47.9	-51.2	14.8	0.00e+00	0	44	0	402653184	67	5247
2026-01-13 12:12:34.81	287.83	12.04	-47.9	-51.3	14.8	0.00e+00	0	44	0	404750336	67	5295
2026-01-13 12:12:35.81	288.02	12.02	-47.9	-51.2	14.8	7.00e-07	0	44	0	405798912	67	5259
2026-01-13 12:12:36.80	288.21	12.01	-47.9	-51.4	14.7	7.00e-07	0	44	0	407896064	67	5356
2026-01-13 12:12:37.80	288.40	11.99	-48.0	-51.4	14.7	0.00e+00	0	44	0	409993216	67	5355
2026-01-13 12:12:38.79	288.59	11.98	-48.0	-51.5	14.6	0.00e+00	0	44	0	412090368	67	5426
2026-01-13 12:12:39.79	288.78	11.96	-48.0	-51.4	14.6	1.50e-06	0	44	0	413138944	67	5375
2026-01-13 12:12:40.78	288.97	11.95	-48.0	-51.4	14.6	1.50e-06	0	44	0	415236096	67	5386
2026-01-13 12:12:41.77	289.15	11.93	-48.0	-51.4	14.6	7.00e-07	0	44	0	417333248	67	5399
2026-01-13 12:12:42.77	289.34	11.92	-48.1	-51.6	14.5	0.00e+00	0	44	0	419430400	67	5502
2026-01-13 12:12:43.76	289.53	11.90	-48.0	-51.4	14.6	0.00e+00	0	44	0	421527552	67	5377
2026-01-13 12:12:44.76	289.72	11.89	-48.0	-51.5	14.6	7.00e-07	0	44	0	422576128	67	5417
2026-01-13 12:12:45.80	289.91	11.87	-48.1	-51.6	14.5	7.00e-07	0	44	0	424673280	67	5466
2026-01-13 12:12:46.79	290.10	11.85	-48.0	-51.4	14.7	7.00e-07	0	44	0	426770432	67	5353
2026-01-13 12:12:47.84	290.29	11.83	-48.1	-51.5	14.5	0.00e+00	0	44	0	428867584	67	5456
2026-01-13 12:12:48.78	290.47	11.82	-48.1	-51.6	14.5	0.00e+00	0	44	0	430964736	67	5489
2026-01-13 12:12:49.95	290.69	11.80	-48.2	-51.7	14.4	1.50e-06	0	44	0	433061888	67	5554
2026-01-13 12:12:50.84	290.86	11.78	-48.2	-51.8	14.3	7.00e-07	0	44	0	434110464	67	5603
2026-01-13 12:12:51.98	291.07	11.76	-48.3	-51.9	14.1	0.00e+00	0	44	0	436207616	67	5695
2026-01-13 12:12:52.83	291.23	11.75	-48.3	-51.9	14.1	7.00e-07	0	44	0	438304768	67	5687
2026-01-13 12:12:53.97	291.44	11.73	-48.4	-52.1	13.9	1.50e-06	0	44	0	440401920	67	5833
2026-01-13 12:12:54.82	291.60	11.71	-48.4	-52.1	13.9	7.00e-07	0	44	0	441450496	67	5824
2026-01-13 12:12:55.96	291.81	11.69	-48.4	-52.0	14.0	6.10e-06	0	44	0	443547648	67	5781
2026-01-13 12:12:56.81	291.97	11.67	-48.4	-52.0	14.0	0.00e+00	0	44	0	445644800	67	5775
2026-01-13 12:12:57.95	292.18	11.65	-48.3	-51.9	14.1	1.50e-06	0	44	0	447741952	67	5683
2026-01-13 12:12:58.80	292.34	11.63	-48.3	-51.9	14.1	7.00e-07	0	44	0	448790528	67	5719
2026-01-13 12:12:59.94	292.55	11.61	-48.2	-51.7	14.3	0.00e+00	0	44	0	451936256	67	5556
2026-01-13 12:13:00.79	292.70	11.59	-48.1	-51.6	14.4	7.00e-07	0	44	0	452984832	67	5512
2026-01-13 12:13:01.93	292.91	11.57	-48.1	-51.5	14.5	7.00e-07	0	44	0	455081984	67	5463
2026-01-13 12:13:02.78	293.07	11.55	-48.0	-51.5	14.6	0.00e+00	0	44	0	457179136	67	5411
2026-01-13 12:13:03.91	293.28	11.53	-48.0	-51.4	14.6	0.00e+00	0	44	0	459276288	67	5356
2026-01-13 12:13:04.77	293.44	11.51	-48.1	-51.5	14.5	1.50e-06	0	44	0	460324864	67	5448
2026-01-13 12:13:06.08	293.68	11.48	-48.0	-51.5	14.6	1.50e-06	0	44	0	463470592	67	5417
2026-01-13 12:13:06.79	293.81	11.46	-48.1	-51.5	14.5	0.00e+00	0	44	0	464519168	67	5456
2026-01-13 12:13:08.07	294.04	11.44	-48.1	-51.5	14.5	0.00e+00	0	44	0	466616320	67	5453
2026-01-13 12:13:08.78	294.17	11.42	-48.1	-51.5	14.5	7.00e-07	0	44	0	467664896	67	5448
2026-01-13 12:13:10.06	294.40	11.39	-48.1	-51.6	14.4	7.00e-07	0	44	0	470810624	67	5494
2026-01-13 12:13:10.77	294.53	11.38	-48.1	-51.5	14.5	0.00e+00	0	44	0	471859200	67	5433
2026-01-13 12:13:12.05	294.76	11.35	-48.0	-51.4	14.6	7.00e-07	0	44	0	473956352	67	5390
2026-01-13 12:13:12.78	294.90	11.33	-48.1	-51.5	14.5	0.00e+00	0	44	0	475004928	67	5442
2026-01-13 12:13:14.06	295.13	11.30	-48.1	-51.6	14.4	7.00e-07	0	44	0	478150656	67	5511
2026-01-13 12:13:14.78	295.26	11.28	-48.2	-51.6	14.4	1.50e-06	0	44	0	479199232	67	5528
2026-01-13 12:13:16.06	295.49	11.25	-48.1	-51.6	14.4	7.00e-07	0	44	0	481296384	67	5489
2026-01-13 12:13:16.79	295.62	11.23	-48.2	-51.8	14.2	7.00e-07	0	44	0	483393536	67	5623
2026-01-13 12:13:18.07	295.85	11.20	-48.1	-51.6	14.4	7.00e-07	0	44	0	485490688	67	5517
2026-01-13 12:13:18.79	295.98	11.19	-48.1	-51.6	14.4	1.50e-06	0	44	0	486539264	67	5500
2026-01-13 12:13:20.12	296.22	11.15	-48.1	-51.6	14.5	0.00e+00	0	44	0	489684992	67	5478
2026-01-13 12:13:20.83	296.35	11.13	-48.0	-51.4	14.6	0.00e+00	0	44	0	490733568	67	5389
2026-01-13 12:13:22.15	296.58	11.10	-48.0	-51.4	14.6	7.00e-07	0	44	0	492830720	67	5384
2026-01-13 12:13:23.10	296.75	11.08	-48.0	-51.4	14.6	7.00e-07	0	44	0	494927872	67	5371
2026-01-13 12:13:24.10	296.93	11.05	-48.1	-51.6	14.5	7.00e-07	0	44	0	497025024	67	5488
2026-01-13 12:13:25.09	297.11	11.03	-48.0	-51.4	14.6	0.00e+00	0	44	0	498073600	67	5358
2026-01-13 12:13:26.09	297.28	11.00	-48.0	-51.4	14.7	7.00e-07	0	44	0	500170752	67	5344
2026-01-13 12:13:27.08	297.46	10.97	-48.0	-51.5	14.5	7.00e-07	0	44	0	502267904	67	5421
2026-01-13 12:13:28.08	297.64	10.95	-48.1	-51.5	14.5	7.00e-07	0	44	0	504365056	67	5460
2026-01-13 12:13:29.07	297.81	10.92	-48.0	-51.6	14.5	0.00e+00	0	44	0	506462208	67	5468
2026-01-13 12:13:30.07	297.99	10.89	-48.1	-51.6	14.4	7.00e-07	0	44	0	507510784	67	5511
2026-01-13 12:13:31.06	298.16	10.87	-48.1	-51.7	14.4	2.20e-06	0	44	0	509607936	67	5542
2026-01-13 12:13:32.06	298.34	10.84	-48.1	-51.7	14.3	0.00e+00	0	44	0	511705088	67	5590
2026-01-13 12:13:33.15	298.53	10.81	-48.2	-51.8	14.2	3.00e-06	0	44	0	513802240	67	5654
2026-01-13 12:13:34.00	298.68	10.78	-48.2	-51.8	14.2	7.00e-07	0	44	0	514850816	67	5626
2026-01-13 12:13:35.14	298.88	10.75	-48.3	-51.9	14.0	7.00e-07	0	44	0	516947968	67	5722
2026-01-13 12:13:36.14	299.05	10.72	-48.3	-51.9	14.1	1.50e-06	0	44	0	519045120	67	5707
2026-01-13 12:13:37.14	299.22	10.70	-48.2	-51.9	14.1	1.50e-06	0	44	0	521142272	67	5704
2026-01-13 12:13:38.13	299.40	10.67	-48.1	-51.9	14.1	1.50e-06	0	44	0	523239424	67	5663
2026-01-13 12:13:39.13	299.57	10.64	-48.2	-52.0	14.0	7.00e-07	0	44	0	525336576	67	5734
2026-01-13 12:13:40.44	299.79	10.60	-48.1	-51.8	14.1	1.50e-06	0	44	0	527433728	67	5656
2026-01-13 12:13:41.18	299.92	10.58	-48.1	-51.8	14.1	1.50e-06	0	44	0	528482304	67	5636
2026-01-13 12:13:42.46	300.14	10.54	-48.0	-51.6	14.4	1.50e-06	0	44	0	531628032	67	5488
2026-01-13 12:13:43.17	300.26	10.52	-48.1	-51.6	14.3	0.00e+00	0	44	0	532676608	67	5523
2026-01-13 12:13:44.47	300.49	10.48	-48.0	-51.5	14.4	7.00e-07	0	44	0	534773760	67	5425
2026-01-13 12:13:45.17	300.61	10.46	-48.1	-51.6	14.4	0.00e+00	0	44	0	535822336	67	5496
2026-01-13 12:13:46.45	300.83	10.42	-48.0	-51.5	14.4	0.00e+00	0	44	0	538968064	67	5462
2026-01-13 12:13:47.16	300.95	10.40	-48.2	-51.8	14.2	7.00e-07	0	44	0	540016640	67	5593
2026-01-13 12:13:48.44	301.16	10.36	-48.1	-51.7	14.2	2.20e-06	0	44	0	542113792	67	5588
2026-01-13 12:13:49.17	301.29	10.34	-48.2	-51.9	14.0	4.50e-06	0	44	0	543162368	67	5668
2026-01-13 12:13:50.46	301.51	10.30	-48.2	-51.9	14.0	1.50e-06	0	44	0	546308096	67	5715
2026-01-13 12:13:51.17	301.63	10.28	-48.3	-52.0	13.9	3.00e-06	0	44	0	547356672	67	5772
2026-01-13 12:13:52.45	301.84	10.24	-48.2	-51.9	14.0	7.00e-07	0	44	0	549453824	67	5680
2026-01-13 12:13:53.18	301.97	10.21	-48.2	-52.0	13.9	3.00e-06	0	44	0	551550976	67	5742
2026-01-13 12:13:54.46	302.18	10.17	-48.2	-51.9	14.0	1.50e-06	0	44	0	553648128	67	5689
2026-01-13 12:13:55.18	302.30	10.15	-48.3	-52.0	13.9	3.80e-06	0	44	0	554696704	67	5750
2026-01-13 12:13:56.64	302.55	10.10	-48.2	-51.9	13.9	3.00e-06	0	44	0	557842432	67	5703
2026-01-13 12:13:57.35	302.66	10.08	-48.2	-51.9	13.9	5.30e-06	0	44	0	558891008	67	5715
2026-01-13 12:13:58.63	302.88	10.04	-48.1	-51.9	14.0	3.00e-06	0	44	0	560988160	67	5682
2026-01-13 12:13:59.34	303.00	10.02	-48.2	-51.9	13.9	3.00e-06	0	44	0	563085312	67	5712
2026-01-13 12:14:00.75	303.23	9.97	-48.3	-52.1	13.8	3.00e-06	0	44	0	565182464	67	5807
2026-01-13 12:14:01.46	303.35	9.95	-48.3	-52.0	13.8	6.80e-06	0	44	0	566231040	67	5785
2026-01-13 12:14:02.81	303.57	9.90	-48.3	-52.2	13.6	7.60e-06	0	44	0	569376768	67	5882
2026-01-13 12:14:03.53	303.69	9.88	-48.4	-52.3	13.5	6.10e-06	0	44	0	570425344	67	5949
2026-01-13 12:14:04.81	303.90	9.84	-48.5	-52.5	13.4	1.29e-05	0	44	0	572522496	67	6081
2026-01-13 12:14:05.53	304.02	9.81	-48.6	-52.6	13.3	1.67e-05	0	44	0	574619648	67	6134
2026-01-13 12:14:06.81	304.23	9.77	-48.9	-53.0	13.0	1.90e-05	0	44	0	576716800	68	6119
2026-01-13 12:14:07.54	304.34	9.74	-49.0	-53.2	12.8	4.34e-05	0	44	0	577765376	68	6230
2026-01-13 12:14:08.82	304.55	9.70	-48.9	-53.1	12.9	5.18e-05	0	44	0	580911104	68	6154
2026-01-13 12:14:09.54	304.67	9.68	-49.0	-53.3	12.7	5.72e-05	0	44	0	581959680	68	6311
2026-01-13 12:14:10.82	304.88	9.63	-49.1	-53.5	12.4	1.19e-04	0	44	0	584056832	68	6470
2026-01-13 12:14:11.53	304.99	9.61	-49.2	-53.8	12.2	1.65e-04	0	44	0	586153984	69	6291
2026-01-13 12:14:12.81	305.20	9.56	-49.2	-53.9	12.1	2.55e-04	0	44	0	588251136	69	6360
2026-01-13 12:14:13.53	305.31	9.54	-49.2	-54.0	11.9	3.21e-04	0	44	0	589299712	69	6443
2026-01-13 12:14:14.81	305.52	9.49	-49.2	-54.1	11.8	4.02e-04	0	44	0	591396864	69	6506
2026-01-13 12:14:15.70	305.66	9.46	-49.1	-53.9	12.0	4.09e-04	0	44	0	593494016	69	6420
2026-01-13 12:14:16.83	305.84	9.42	-49.0	-53.9	12.0	3.06e-04	0	44	0	595591168	69	6373
2026-01-13 12:14:17.69	305.98	9.39	-48.9	-53.8	12.1	2.93e-04	0	44	0	597688320	69	6336
2026-01-13 12:14:18.82	306.16	9.35	-48.9	-53.7	12.2	2.27e-04	0	44	0	599785472	69	6251
2026-01-13 12:14:19.68	306.30	9.32	-48.8	-53.5	12.5	1.52e-04	0	44	0	600834048	69	6088
2026-01-13 12:14:20.81	306.47	9.28	-48.8	-53.5	12.4	1.07e-04	0	44	0	602931200	69	6105
2026-01-13 12:14:21.67	306.61	9.25	-48.9	-53.7	12.2	1.68e-04	0	44	0	605028352	69	6235
2026-01-13 12:14:22.80	306.79	9.21	-49.1	-53.7	12.1	2.20e-04	0	44	0	607125504	69	6262
2026-01-13 12:14:23.66	306.92	9.18	-49.1	-53.9	12.0	2.81e-04	0	44	0	608174080	69	6382
2026-01-13 12:14:24.79	307.10	9.14	-49.2	-54.1	11.8	4.26e-04	0	44	0	610271232	69	6543
2026-01-13 12:14:25.64	307.23	9.11	-49.2	-54.1	11.8	5.88e-04	0	44	0	612368384	69	6520
2026-01-13 12:14:26.78	307.41	9.06	-49.4	-54.3	11.6	5.42e-04	0	44	0	614465536	69	6648
2026-01-13 12:14:27.63	307.54	9.03	-49.4	-54.3	11.6	7.61e-04	0	44	0	615514112	69	6684
2026-01-13 12:14:28.77	307.72	8.99	-51.0	-61.6	5.4	2.21e-02	0	44	0	617611264	72	12996
2026-01-13 12:14:29.62	307.85	8.96	-52.0	-67.2	3.8	1.49e+00	0	44	104	617611264	74	22205
2026-01-13 12:14:30.76	308.03	8.92	-52.3	-67.4	3.8	1.49e+00	0	44	104	617611264	75	21430
2026-01-13 12:14:31.61	308.16	8.89	-52.3	-67.6	3.8	1.49e+00	0	44	104	617611264	75	21775
2026-01-13 12:14:32.75	308.33	8.84	-52.4	-67.6	3.8	1.49e+00	0	44	104	617611264	75	21908
2026-01-13 12:14:33.60	308.46	8.81	-52.5	-67.7	3.8	1.49e+00	0	44	104	617611264	75	22094
2026-01-13 12:14:34.73	308.64	8.77	-52.5	-67.7	3.8	1.49e+00	0	44	104	617611264	75	22153
2026-01-13 12:14:35.58	308.77	8.74	-52.5	-67.8	3.8	1.49e+00	0	44	104	617611264	75	22365
2026-01-13 12:14:36.72	308.94	8.69	-52.5	-67.7	3.8	1.49e+00	0	44	104	617611264	75	22235
2026-01-13 12:14:37.57	309.07	8.66	-52.6	-67.8	3.8	1.49e+00	0	44	104	617611264	75	22297
2026-01-13 12:14:38.70	309.24	8.62	-52.7	-67.8	3.8	1.49e+00	0	44	104	617611264	75	22370
2026-01-13 12:14:39.55	309.37	8.59	-52.7	-67.8	3.8	1.49e+00	0	44	104	617611264	76	21217
2026-01-13 12:14:40.69	309.54	8.54	-52.6	-67.8	3.8	1.49e+00	0	44	104	617611264	76	21199
2026-01-13 12:14:41.54	309.67	8.51	-52.7	-67.8	3.8	1.49e+00	0	44	104	617611264	76	21241
2026-01-13 12:14:42.68	309.84	8.47	-52.7	-67.8	3.8	1.49e+00	0	44	104	617611264	76	21230
2026-01-13 12:14:43.53	309.97	8.43	-52.6	-67.8	3.8	1.49e+00	0	44	104	617611264	76	21194
2026-01-13 12:14:44.66	310.13	8.39	-52.6	-67.8	3.8	1.49e+00	0	44	104	617611264	76	21239
2026-01-13 12:14:45.51	310.26	8.36	-52.6	-67.9	3.8	1.49e+00	0	44	104	617611264	76	21275
2026-01-13 12:14:46.65	310.43	8.31	-52.6	-67.8	3.8	1.49e+00	0	44	104	617611264	76	21193
2026-01-13 12:14:47.50	310.56	8.28	-52.6	-67.8	3.8	1.49e+00	0	44	104	617611264	76	21241
2026-01-13 12:14:48.64	310.72	8.24	-52.6	-67.8	3.8	1.49e+00	0	44	104	617611264	76	21194
2026-01-13 12:14:49.49	310.85	8.20	-52.5	-67.8	3.8	1.49e+00	0	44	104	617611264	76	21165
2026-01-13 12:14:50.63	311.02	8.16	-52.4	-67.7	3.8	1.49e+00	0	44	104	617611264	76	20997
2026-01-13 12:14:51.48	311.14	8.12	-52.4	-67.8	3.8	1.49e+00	0	44	104	617611264	76	21128
2026-01-13 12:14:52.61	311.31	8.08	-52.4	-67.8	3.8	1.49e+00	0	44	104	617611264	76	21131
2026-01-13 12:14:53.46	311.43	8.05	-52.5	-67.7	3.8	1.49e+00	0	44	104	617611264	76	21015
2026-01-13 12:14:54.60	311.59	8.00	-52.5	-67.8	3.8	1.49e+00	0	44	104	617611264	76	21054
2026-01-13 12:14:55.45	311.72	7.97	-52.4	-67.8	3.8	1.49e+00	0	44	104	617611264	76	21051
2026-01-13 12:14:56.59	311.88	7.92	-52.4	-67.8	3.8	1.49e+00	0	44	104	617611264	76	21197
2026-01-13 12:14:57.44	312.01	7.89	-52.4	-67.8	3.8	1.49e+00	0	44	104	617611264	76	21113
2026-01-13 12:14:58.57	312.17	7.84	-52.5	-67.7	3.8	1.49e+00	0	44	104	617611264	76	20988
2026-01-13 12:14:59.42	312.29	7.81	-52.5	-67.8	3.8	1.49e+00	0	44	104	617611264	76	21151
2026-01-13 12:15:00.56	312.45	7.76	-52.5	-67.8	3.8	1.49e+00	0	44	104	617611264	76	21049
2026-01-13 12:15:01.41	312.57	7.73	-52.4	-67.8	3.8	1.49e+00	0	44	104	617611264	76	21090
2026-01-13 12:15:02.55	312.74	7.68	-52.5	-67.8	3.8	1.49e+00	0	44	104	617611264	76	21135
2026-01-13 12:15:03.40	312.86	7.65	-52.5	-67.8	3.8	1.49e+00	0	44	104	617611264	76	21193
2026-01-13 12:15:04.53	313.02	7.60	-52.4	-67.7	3.8	1.49e+00	0	44	104	617611264	76	21004
2026-01-13 12:15:05.38	313.14	7.57	-52.5	-67.8	3.8	1.49e+00	0	44	104	617611264	76	21099
2026-01-13 12:15:06.52	313.30	7.52	-52.5	-67.8	3.8	1.49e+00	0	44	104	617611264	76	21099
2026-01-13 12:15:07.37	313.42	7.49	-52.5	-67.8	3.8	1.49e+00	0	44	104	617611264	76	21069
2026-01-13 12:15:08.51	313.58	7.44	-52.5	-67.8	3.8	1.49e+00	0	44	104	617611264	76	21101
2026-01-13 12:15:09.36	313.69	7.41	-52.5	-67.8	3.8	1.49e+00	0	44	104	617611264	76	21142
2026-01-13 12:15:10.49	313.85	7.36	-52.5	-67.7	3.8	1.49e+00	0	44	104	617611264	76	21002
2026-01-13 12:15:11.34	313.97	7.32	-52.4	-67.8	3.8	1.49e+00	0	44	104	617611264	76	21102
2026-01-13 12:15:12.48	314.13	7.28	-52.5	-67.8	3.8	1.49e+00	0	44	104	617611264	76	21103
2026-01-13 12:15:13.33	314.24	7.24	-52.5	-67.7	3.8	1.49e+00	0	44	104	617611264	76	21012
2026-01-13 12:15:14.47	314.40	7.20	-52.5	-67.8	3.8	1.49e+00	0	44	104	617611264	76	21093
2026-01-13 12:15:15.32	314.52	7.16	-52.5	-67.8	3.8	1.49e+00	0	44	104	617611264	76	21071
2026-01-13 12:15:16.45	314.67	7.11	-52.4	-67.8	3.8	1.49e+00	0	44	104	617611264	76	21070
2026-01-13 12:15:17.30	314.79	7.08	-52.5	-67.8	3.8	1.49e+00	0	44	104	617611264	76	21170
2026-01-13 12:15:18.44	314.94	7.03	-52.4	-67.8	3.8	1.49e+00	0	44	104	617611264	76	21052
2026-01-13 12:15:19.29	315.06	7.00	-52.4	-67.7	3.8	1.49e+00	0	44	104	617611264	76	21013
2026-01-13 12:15:20.43	315.21	6.95	-52.4	-67.8	3.8	1.49e+00	0	44	104	617611264	76	21094
2026-01-13 12:15:21.28	315.33	6.91	-52.5	-67.7	3.8	1.49e+00	0	44	104	617611264	76	21006
2026-01-13 12:15:22.41	315.48	6.87	-52.4	-67.8	3.8	1.49e+00	0	44	104	617611264	76	21070
2026-01-13 12:15:23.26	315.60	6.83	-52.4	-67.7	3.8	1.49e+00	0	44	104	617611264	76	21016
2026-01-13 12:15:24.40	315.75	6.78	-52.4	-67.7	3.8	1.49e+00	0	44	104	617611264	76	21004
2026-01-13 12:15:25.25	315.86	6.75	-52.4	-67.7	3.8	1.49e+00	0	44	104	617611264	76	20986
2026-01-13 12:15:26.38	316.01	6.70	-52.4	-67.7	3.8	1.49e+00	0	44	104	617611264	76	20956
2026-01-13 12:15:27.23	316.13	6.66	-52.4	-67.7	3.8	1.49e+00	0	44	104	617611264	76	20995
2026-01-13 12:15:28.37	316.28	6.61	-52.4	-67.7	3.8	1.49e+00	0	44	104	617611264	76	21003
2026-01-13 12:15:29.22	316.39	6.58	-52.4	-67.7	3.8	1.49e+00	0	44	104	617611264	76	20971
2026-01-13 12:15:30.35	316.54	6.53	-52.4	-67.7	3.8	1.49e+00	0	44	104	617611264	76	20990
2026-01-13 12:15:31.20	316.65	6.50	-52.4	-67.8	3.8	1.49e+00	0	44	104	617611264	76	21053
2026-01-13 12:15:32.34	316.80	6.45	-52.4	-67.7	3.8	1.49e+00	0	44	104	617611264	76	20984
2026-01-13 12:15:33.19	316.91	6.41	-52.4	-67.7	3.8	1.49e+00	0	44	104	617611264	76	20941
2026-01-13 12:15:34.33	317.06	6.36	-52.4	-67.7	3.8	1.49e+00	0	44	104	617611264	76	20955
2026-01-13 12:15:35.18	317.17	6.33	-52.4	-67.7	3.8	1.49e+00	0	44	104	617611264	76	20948
2026-01-13 12:15:36.31	317.32	6.28	-52.4	-67.7	3.8	1.49e+00	0	44	104	617611264	76	20953
2026-01-13 12:15:37.16	317.43	6.24	-52.4	-67.7	3.8	1.49e+00	0	44	104	617611264	76	20893
2026-01-13 12:15:38.30	317.57	6.19	-52.4	-67.7	3.8	1.49e+00	0	44	104	617611264	76	20887
2026-01-13 12:15:39.15	317.68	6.16	-52.4	-67.7	3.8	1.49e+00	0	44	104	617611264	76	20855
2026-01-13 12:15:40.29	317.83	6.11	-52.4	-67.7	3.8	1.49e+00	0	44	104	617611264	76	20845
2026-01-13 12:15:41.14	317.94	6.07	-52.3	-67.7	3.8	1.49e+00	0	44	104	617611264	76	20832
2026-01-13 12:15:42.27	318.08	6.02	-52.4	-67.7	3.8	1.49e+00	0	44	104	617611264	76	20827
2026-01-13 12:15:43.12	318.19	5.99	-52.3	-67.7	3.8	1.49e+00	0	44	104	617611264	76	20816
2026-01-13 12:15:44.26	318.33	5.94	-52.3	-67.7	3.8	1.49e+00	0	44	104	617611264	76	20878
2026-01-13 12:15:45.11	318.44	5.90	-52.4	-67.7	3.8	1.49e+00	0	44	104	617611264	76	20801
2026-01-13 12:15:46.25	318.58	5.85	-52.3	-67.7	3.8	1.49e+00	0	44	104	617611264	76	20837
2026-01-13 12:15:47.10	318.69	5.82	-52.3	-67.6	3.8	1.49e+00	0	44	104	617611264	76	20736
2026-01-13 12:15:48.23	318.83	5.77	-52.3	-67.7	3.8	1.49e+00	0	44	104	617611264	76	20804
2026-01-13 12:15:49.08	318.94	5.73	-52.3	-67.7	3.8	1.49e+00	0	44	104	617611264	76	20826
2026-01-13 12:15:50.22	319.08	5.68	-52.3	-67.6	3.8	1.49e+00	0	44	104	617611264	76	20637
2026-01-13 12:15:51.07	319.19	5.64	-52.3	-67.6	3.8	1.49e+00	0	44	104	617611264	76	20715
2026-01-13 12:15:52.20	319.33	5.60	-52.3	-67.6	3.8	1.49e+00	0	44	104	617611264	76	20704
2026-01-13 12:15:53.05	319.43	5.56	-52.3	-67.6	3.8	1.49e+00	0	44	104	617611264	76	20665
2026-01-13 12:15:54.19	319.57	5.51	-52.3	-67.6	3.8	1.49e+00	0	44	104	617611264	76	20644
2026-01-13 12:15:55.04	319.67	5.47	-52.3	-67.6	3.8	1.49e+00	0	44	104	617611264	76	20682
2026-01-13 12:15:56.18	319.81	5.42	-52.3	-67.6	3.8	1.49e+00	0	44	104	617611264	76	20646
2026-01-13 12:15:57.03	319.92	5.39	-52.3	-67.6	3.8	1.49e+00	0	44	104	617611264	76	20584
2026-01-13 12:15:58.16	320.06	5.34	-52.3	-67.6	3.8	1.49e+00	0	44	104	617611264	76	20564
2026-01-13 12:15:59.01	320.16	5.30	-52.3	-67.6	3.8	1.49e+00	0	44	104	617611264	76	20586
2026-01-13 12:16:00.15	320.30	5.25	-52.2	-67.6	3.8	1.49e+00	0	44	104	617611264	76	20576
2026-01-13 12:16:01.00	320.40	5.21	-52.3	-67.5	3.8	1.49e+00	0	44	104	617611264	76	20504
2026-01-13 12:16:02.13	320.54	5.16	-52.2	-67.5	3.8	1.49e+00	0	44	104	617611264	76	20530
2026-01-13 12:16:02.98	320.64	5.13	-52.2	-67.6	3.8	1.49e+00	0	44	104	617611264	76	20587
2026-01-13 12:16:04.12	320.77	5.08	-52.2	-67.5	3.8	1.49e+00	0	44	104	617611264	76	20533
2026-01-13 12:16:04.97	320.88	5.04	-52.2	-67.5	3.8	1.49e+00	0	44	104	617611264	76	20456
2026-01-13 12:16:06.11	321.01	4.99	-52.2	-67.5	3.8	1.49e+00	0	44	104	617611264	76	20467

#Closed at: 2026-01-13 12:16:06
#Recorded file [617 MB]: D:/Data/31040_260113_150732.dat