passes_logs/2026/01/13/T1/T1__20260113_223425_NOAA_20_JPSS-1_rec.log

#Pass ID: 20260113_223425_NOAA 20 (JPSS-1)
#Satellite: NOAA 20 (JPSS-1)
#Configuration: NOAA 20
#almurnet v.1.7.20251203
#Start time: 2026-01-13 22:34:26

#Version: 2.0.20230620
#Station: T1
#Location: 37.570604 lon 55.790049 lat
#TLE: 1 43013U 17073A   26013.21545503  .00000073  00000+0  55630-4 0  9998
#TLE: 2 43013  98.7633 314.1737 0001580  41.9966 318.1331 14.19535680422486

#Time	Az	El	Level	Level2	SNR	BER	BlckErr	Temp	State	Recorded	gain1	gain2
2026-01-13 22:34:26.94	25.33	5.08	-50.0	-65.5	3.8	1.49e+00	0	37	0	0	71	21732
2026-01-13 22:34:27.93	25.39	5.15	-50.0	-65.5	3.8	1.49e+00	0	37	104	0	70	23007
2026-01-13 22:34:28.92	25.46	5.21	-49.9	-65.5	3.8	1.49e+00	0	37	104	0	70	23003
2026-01-13 22:34:29.91	25.53	5.28	-50.0	-65.5	3.8	1.49e+00	0	37	104	0	70	22999
2026-01-13 22:34:30.91	25.59	5.34	-50.0	-65.5	3.8	1.49e+00	0	37	104	0	70	22978
2026-01-13 22:34:31.90	25.66	5.41	-49.9	-65.6	3.8	1.49e+00	0	37	104	0	70	23119
2026-01-13 22:34:32.89	25.72	5.47	-50.0	-65.6	3.8	1.49e+00	0	37	104	0	70	23052
2026-01-13 22:34:33.89	25.79	5.53	-49.9	-65.6	3.8	1.49e+00	0	37	104	0	70	23046
2026-01-13 22:34:34.88	25.86	5.60	-50.0	-65.6	3.8	1.49e+00	0	37	104	0	70	23058
2026-01-13 22:34:35.87	25.93	5.66	-50.0	-65.5	3.8	1.49e+00	0	37	104	0	70	22984
2026-01-13 22:34:36.87	25.99	5.73	-49.9	-65.6	3.8	1.49e+00	0	37	104	0	70	23171
2026-01-13 22:34:37.86	26.06	5.79	-50.0	-65.6	3.8	1.49e+00	0	37	104	0	70	23065
2026-01-13 22:34:38.85	26.13	5.86	-50.0	-65.6	3.8	1.49e+00	0	37	104	0	70	23071
2026-01-13 22:34:39.84	26.20	5.92	-49.9	-65.6	3.8	1.49e+00	0	37	104	0	70	23108
2026-01-13 22:34:40.84	26.27	5.99	-50.0	-65.6	3.8	1.49e+00	0	37	104	0	70	23110
2026-01-13 22:34:41.83	26.34	6.06	-50.0	-65.5	3.8	1.49e+00	0	37	104	0	70	22981
2026-01-13 22:34:42.82	26.41	6.12	-49.9	-65.6	3.8	1.49e+00	0	37	104	0	70	23091
2026-01-13 22:34:43.82	26.48	6.19	-49.9	-65.5	3.8	1.49e+00	0	37	104	0	70	22987
2026-01-13 22:34:44.81	26.55	6.25	-50.0	-65.5	3.8	1.49e+00	0	37	104	0	70	23021
2026-01-13 22:34:45.80	26.62	6.32	-49.9	-65.6	3.8	1.49e+00	0	37	104	0	70	23056
2026-01-13 22:34:46.79	26.69	6.39	-50.0	-65.6	3.8	1.49e+00	0	37	104	0	70	23095
2026-01-13 22:34:47.79	26.76	6.45	-49.9	-65.5	3.8	1.49e+00	0	38	104	0	70	22913
2026-01-13 22:34:48.78	26.83	6.52	-49.9	-65.5	3.8	1.49e+00	0	37	104	0	70	23034
2026-01-13 22:34:49.78	26.90	6.59	-50.0	-65.5	3.8	1.49e+00	0	38	104	0	70	23035
2026-01-13 22:34:50.77	26.97	6.65	-49.9	-65.5	3.8	1.49e+00	0	38	104	0	70	23042
2026-01-13 22:34:51.76	27.04	6.72	-50.0	-65.5	3.8	1.49e+00	0	38	104	0	70	22845
2026-01-13 22:34:52.76	27.12	6.79	-49.9	-65.5	3.8	1.49e+00	0	38	104	0	70	22931
2026-01-13 22:34:53.75	27.19	6.86	-49.9	-65.5	3.8	1.49e+00	0	38	104	0	70	22898
2026-01-13 22:34:54.74	27.26	6.92	-49.9	-65.5	3.8	1.49e+00	0	38	104	0	70	22854
2026-01-13 22:34:55.74	27.34	6.99	-49.9	-65.5	3.8	1.49e+00	0	38	104	0	70	22884
2026-01-13 22:34:56.73	27.41	7.06	-49.9	-65.5	3.8	1.49e+00	0	38	104	0	70	22838
2026-01-13 22:34:57.72	27.48	7.13	-49.9	-65.5	3.8	1.49e+00	0	38	104	0	70	22959
2026-01-13 22:34:58.72	27.56	7.19	-50.0	-65.6	3.8	1.49e+00	0	38	104	0	70	23050
2026-01-13 22:34:59.71	27.63	7.26	-49.9	-65.5	3.8	1.49e+00	0	38	104	0	70	22990
2026-01-13 22:35:00.70	27.71	7.33	-49.9	-65.5	3.8	1.49e+00	0	38	104	0	70	23040
2026-01-13 22:35:01.70	27.78	7.40	-49.9	-65.5	3.8	1.49e+00	0	38	104	0	70	23029
2026-01-13 22:35:02.69	27.86	7.47	-49.9	-65.5	3.8	1.49e+00	0	38	104	0	70	23023
2026-01-13 22:35:03.68	27.94	7.54	-49.9	-65.5	3.8	1.49e+00	0	38	104	0	70	22903
2026-01-13 22:35:04.67	28.01	7.61	-49.9	-65.4	3.8	1.49e+00	0	38	104	0	70	22734
2026-01-13 22:35:05.67	28.09	7.67	-49.9	-65.4	3.8	1.49e+00	0	38	104	0	70	22633
2026-01-13 22:35:06.66	28.17	7.74	-49.9	-65.3	3.8	1.49e+00	0	38	104	0	70	22458
2026-01-13 22:35:07.66	28.24	7.81	-49.9	-65.3	3.8	1.49e+00	0	38	104	0	70	22318
2026-01-13 22:35:08.65	28.32	7.88	-49.9	-65.2	3.8	1.49e+00	0	38	104	0	70	22209
2026-01-13 22:35:09.64	28.40	7.95	-49.9	-65.3	3.8	1.49e+00	0	38	104	0	70	22306
2026-01-13 22:35:10.64	28.48	8.02	-49.9	-65.2	3.8	1.49e+00	0	38	104	0	70	22259
2026-01-13 22:35:11.63	28.56	8.09	-49.9	-65.2	3.8	1.49e+00	0	38	104	0	70	22105
2026-01-13 22:35:12.62	28.64	8.16	-49.9	-65.1	3.8	1.49e+00	0	38	104	0	70	21940
2026-01-13 22:35:13.62	28.72	8.23	-49.9	-65.0	3.8	1.49e+00	0	38	104	0	70	21695
2026-01-13 22:35:14.61	28.79	8.30	-49.9	-64.9	3.8	1.49e+00	0	38	104	0	70	21498
2026-01-13 22:35:15.61	28.88	8.37	-49.9	-65.0	3.8	1.49e+00	0	38	104	0	70	21668
2026-01-13 22:35:16.60	28.96	8.44	-50.0	-65.2	3.8	1.49e+00	0	38	104	0	70	22050
2026-01-13 22:35:17.59	29.04	8.52	-49.9	-65.3	3.8	1.49e+00	0	38	104	0	70	22423
2026-01-13 22:35:18.59	29.12	8.59	-49.9	-65.4	3.8	1.49e+00	0	38	104	0	70	22676
2026-01-13 22:35:19.58	29.20	8.66	-49.9	-65.4	3.8	1.49e+00	0	38	104	0	70	22614
2026-01-13 22:35:20.57	29.28	8.73	-49.9	-65.2	3.8	1.49e+00	0	38	104	0	70	22125
2026-01-13 22:35:21.57	29.37	8.80	-49.9	-64.8	3.8	1.49e+00	0	38	104	0	70	21126
2026-01-13 22:35:22.56	29.45	8.87	-49.9	-64.4	3.8	1.49e+00	0	38	104	0	70	20252
2026-01-13 22:35:23.55	29.53	8.94	-49.9	-64.1	3.8	1.49e+00	0	38	104	0	70	19509
2026-01-13 22:35:24.55	29.61	9.02	-49.9	-63.8	3.8	1.49e+00	0	38	104	0	70	18767
2026-01-13 22:35:25.54	29.70	9.09	-49.9	-64.0	3.8	1.49e+00	0	38	104	0	70	19199
2026-01-13 22:35:26.54	29.78	9.16	-50.0	-65.4	3.8	1.49e+00	0	38	104	0	70	22717
2026-01-13 22:35:27.53	29.87	9.23	-50.0	-64.5	3.8	1.49e+00	0	38	104	0	70	20459
2026-01-13 22:35:28.56	29.96	9.31	-48.7	-56.4	8.0	3.51e-01	0	38	0	0	68	8982
2026-01-13 22:35:29.55	30.04	9.38	-48.3	-54.9	9.1	1.50e-01	0	38	0	2097152	68	7592
2026-01-13 22:35:30.55	30.13	9.45	-47.2	-52.5	11.7	5.13e-04	0	38	0	4194304	66	6427
2026-01-13 22:35:31.54	30.21	9.53	-47.1	-52.2	11.9	5.06e-04	0	38	0	6291456	66	6247
2026-01-13 22:35:32.54	30.30	9.60	-47.1	-52.2	11.8	3.60e-04	0	38	0	8388608	65	6612
2026-01-13 22:35:33.54	30.39	9.68	-47.1	-52.1	12.0	3.42e-04	0	38	0	9437184	65	6517
2026-01-13 22:35:34.53	30.48	9.75	-47.0	-51.7	12.5	2.02e-04	0	38	0	11534336	65	6214
2026-01-13 22:35:35.53	30.57	9.82	-46.9	-51.4	12.7	6.17e-05	0	38	0	13631488	65	6044
2026-01-13 22:35:36.52	30.65	9.90	-47.0	-51.6	12.6	9.38e-05	0	38	0	15728640	65	6177
2026-01-13 22:35:37.52	30.74	9.97	-46.7	-50.9	13.2	3.89e-05	0	38	0	16777216	65	5715
2026-01-13 22:35:38.51	30.83	10.05	-46.4	-50.3	13.9	6.10e-06	0	39	0	18874368	64	5626
2026-01-13 22:35:39.51	30.92	10.12	-46.2	-49.8	14.4	7.00e-07	0	38	0	20971520	64	5310
2026-01-13 22:35:40.50	31.01	10.19	-46.1	-49.7	14.6	7.00e-07	0	38	0	23068672	64	5220
2026-01-13 22:35:41.50	31.11	10.27	-46.0	-49.5	14.8	0.00e+00	0	38	0	25165824	63	5438
2026-01-13 22:35:42.50	31.20	10.35	-46.1	-49.6	14.8	0.00e+00	0	39	0	26214400	63	5465
2026-01-13 22:35:43.49	31.29	10.42	-46.0	-49.4	15.0	0.00e+00	0	39	0	28311552	63	5357
2026-01-13 22:35:44.49	31.38	10.50	-45.9	-49.3	15.1	0.00e+00	0	38	0	30408704	63	5288
2026-01-13 22:35:45.54	31.48	10.58	-45.9	-49.3	15.0	7.00e-07	0	39	0	32505856	63	5328
2026-01-13 22:35:46.41	31.56	10.64	-45.9	-49.2	15.1	0.00e+00	0	39	0	33554432	63	5272
2026-01-13 22:35:47.55	31.67	10.73	-45.9	-49.3	15.1	0.00e+00	0	39	0	35651584	63	5293
2026-01-13 22:35:48.40	31.75	10.79	-45.9	-49.3	15.0	0.00e+00	0	38	0	37748736	63	5326
2026-01-13 22:35:49.54	31.86	10.88	-45.9	-49.3	15.1	0.00e+00	0	38	0	39845888	63	5302
2026-01-13 22:35:50.39	31.94	10.95	-45.9	-49.3	15.1	0.00e+00	0	39	0	40894464	63	5293
2026-01-13 22:35:51.53	32.05	11.03	-45.8	-49.2	15.2	0.00e+00	0	39	0	42991616	63	5257
2026-01-13 22:35:52.38	32.13	11.10	-45.9	-49.3	15.1	0.00e+00	0	39	0	45088768	63	5289
2026-01-13 22:35:53.52	32.24	11.19	-45.7	-49.1	15.3	0.00e+00	0	39	0	47185920	63	5184
2026-01-13 22:35:54.37	32.32	11.25	-45.8	-49.2	15.2	0.00e+00	0	39	0	49283072	63	5220
2026-01-13 22:35:55.51	32.43	11.34	-45.7	-49.0	15.4	0.00e+00	0	39	0	51380224	63	5135
2026-01-13 22:35:56.36	32.52	11.41	-45.6	-49.0	15.4	0.00e+00	0	39	0	52428800	63	5115
2026-01-13 22:35:57.50	32.63	11.50	-45.7	-49.1	15.3	0.00e+00	0	39	0	54525952	63	5185
2026-01-13 22:35:58.35	32.71	11.56	-45.6	-48.9	15.4	0.00e+00	0	38	0	56623104	63	5091
2026-01-13 22:35:59.49	32.83	11.65	-45.6	-48.8	15.6	0.00e+00	0	39	0	58720256	63	5041
2026-01-13 22:36:00.34	32.91	11.72	-45.7	-49.0	15.4	0.00e+00	0	38	0	59768832	63	5112
2026-01-13 22:36:01.58	33.04	11.82	-45.7	-49.0	15.4	0.00e+00	0	39	0	61865984	63	5134
2026-01-13 22:36:02.43	33.13	11.88	-45.7	-49.0	15.4	0.00e+00	0	39	0	63963136	63	5120
2026-01-13 22:36:03.56	33.24	11.97	-45.6	-48.9	15.5	0.00e+00	0	39	0	66060288	63	5079
2026-01-13 22:36:04.42	33.33	12.04	-45.6	-48.9	15.5	0.00e+00	0	39	0	67108864	63	5085
2026-01-13 22:36:05.55	33.45	12.13	-45.7	-49.1	15.3	0.00e+00	0	39	0	70254592	63	5178
2026-01-13 22:36:06.41	33.53	12.20	-45.6	-48.9	15.5	0.00e+00	0	39	0	71303168	63	5074
2026-01-13 22:36:07.55	33.65	12.29	-45.7	-49.0	15.4	0.00e+00	0	39	0	73400320	63	5138
2026-01-13 22:36:08.40	33.74	12.36	-45.7	-49.0	15.4	0.00e+00	0	39	0	75497472	63	5146
2026-01-13 22:36:09.54	33.86	12.45	-45.8	-49.0	15.4	0.00e+00	0	39	0	77594624	63	5158
2026-01-13 22:36:10.39	33.95	12.52	-45.8	-49.1	15.3	0.00e+00	0	39	0	78643200	63	5185
2026-01-13 22:36:11.52	34.07	12.61	-45.9	-49.2	15.2	0.00e+00	0	39	0	80740352	63	5268
2026-01-13 22:36:12.38	34.16	12.68	-45.9	-49.1	15.3	0.00e+00	0	39	0	82837504	63	5211
2026-01-13 22:36:13.51	34.29	12.77	-45.9	-49.2	15.3	0.00e+00	0	38	0	84934656	63	5230
2026-01-13 22:36:14.37	34.38	12.84	-46.0	-49.3	15.2	0.00e+00	0	39	0	85983232	63	5303
2026-01-13 22:36:15.50	34.50	12.93	-45.9	-49.2	15.2	0.00e+00	0	39	0	88080384	63	5265
2026-01-13 22:36:16.36	34.59	13.00	-45.9	-49.2	15.2	0.00e+00	0	39	0	90177536	63	5254
2026-01-13 22:36:17.49	34.72	13.10	-45.7	-49.2	15.3	0.00e+00	0	39	0	92274688	63	5219
2026-01-13 22:36:18.34	34.81	13.16	-45.7	-49.2	15.3	0.00e+00	0	39	0	93323264	63	5231
2026-01-13 22:36:19.48	34.94	13.26	-45.7	-49.2	15.2	0.00e+00	0	39	0	95420416	63	5241
2026-01-13 22:36:20.34	35.03	13.33	-45.7	-49.2	15.2	0.00e+00	0	39	0	97517568	63	5264
2026-01-13 22:36:21.47	35.16	13.42	-45.7	-49.2	15.2	0.00e+00	0	39	0	99614720	63	5258
2026-01-13 22:36:22.33	35.26	13.49	-45.6	-49.0	15.4	0.00e+00	0	39	0	100663296	63	5144
2026-01-13 22:36:23.46	35.39	13.59	-45.6	-49.0	15.5	0.00e+00	0	39	0	103809024	63	5131
2026-01-13 22:36:24.32	35.48	13.66	-45.6	-49.0	15.5	0.00e+00	0	39	0	104857600	63	5122
2026-01-13 22:36:25.45	35.61	13.75	-45.7	-49.1	15.4	0.00e+00	0	39	0	106954752	63	5182
2026-01-13 22:36:26.30	35.71	13.82	-45.7	-49.1	15.4	0.00e+00	0	39	0	109051904	63	5160
2026-01-13 22:36:27.44	35.84	13.92	-45.8	-49.2	15.3	0.00e+00	0	39	0	111149056	63	5234
2026-01-13 22:36:28.29	35.94	13.99	-45.7	-49.1	15.4	0.00e+00	0	39	0	112197632	63	5167
2026-01-13 22:36:29.43	36.08	14.08	-45.8	-49.2	15.3	0.00e+00	0	39	0	114294784	63	5242
2026-01-13 22:36:30.29	36.18	14.16	-45.8	-49.2	15.3	0.00e+00	0	39	0	116391936	63	5227
2026-01-13 22:36:31.47	36.32	14.26	-45.7	-49.0	15.4	0.00e+00	0	39	0	118489088	63	5159
2026-01-13 22:36:32.32	36.42	14.33	-45.8	-49.1	15.3	0.00e+00	0	39	0	119537664	63	5216
2026-01-13 22:36:33.52	36.56	14.43	-45.8	-49.2	15.3	0.00e+00	0	39	0	122683392	63	5221
2026-01-13 22:36:34.37	36.66	14.50	-45.8	-49.1	15.4	0.00e+00	0	39	0	123731968	63	5195
2026-01-13 22:36:35.51	36.80	14.60	-45.8	-49.2	15.3	0.00e+00	0	39	0	125829120	63	5219
2026-01-13 22:36:36.36	36.90	14.67	-45.8	-49.1	15.4	7.00e-07	0	39	0	127926272	63	5183
2026-01-13 22:36:37.50	37.04	14.77	-45.7	-49.0	15.5	0.00e+00	0	39	0	130023424	63	5136
2026-01-13 22:36:38.36	37.15	14.84	-45.8	-49.1	15.4	0.00e+00	0	39	0	131072000	63	5181
2026-01-13 22:36:39.49	37.29	14.94	-45.6	-48.9	15.6	0.00e+00	0	39	0	133169152	63	5066
2026-01-13 22:36:40.34	37.39	15.01	-45.7	-49.0	15.5	0.00e+00	0	39	0	135266304	63	5112
2026-01-13 22:36:41.48	37.54	15.11	-45.7	-49.0	15.6	0.00e+00	0	39	0	137363456	63	5107
2026-01-13 22:36:42.33	37.64	15.18	-45.6	-48.9	15.6	0.00e+00	0	39	0	138412032	63	5079
2026-01-13 22:36:43.47	37.79	15.28	-45.7	-49.0	15.5	0.00e+00	0	39	0	140509184	63	5128
2026-01-13 22:36:44.32	37.90	15.35	-45.7	-49.0	15.5	0.00e+00	0	39	0	142606336	63	5143
2026-01-13 22:36:45.46	38.04	15.45	-45.7	-49.1	15.4	0.00e+00	0	39	0	144703488	63	5212
2026-01-13 22:36:46.31	38.15	15.53	-45.8	-49.2	15.3	0.00e+00	0	39	0	145752064	63	5264
2026-01-13 22:36:47.45	38.30	15.63	-45.7	-49.1	15.4	0.00e+00	0	39	0	147849216	63	5206
2026-01-13 22:36:48.30	38.41	15.70	-45.7	-49.1	15.4	0.00e+00	0	39	0	149946368	63	5210
2026-01-13 22:36:49.52	38.57	15.81	-45.8	-49.1	15.4	0.00e+00	0	39	0	152043520	63	5215
2026-01-13 22:36:50.37	38.68	15.88	-45.8	-49.1	15.5	0.00e+00	0	39	0	154140672	63	5163
2026-01-13 22:36:51.51	38.83	15.98	-45.7	-49.0	15.6	0.00e+00	0	39	0	156237824	63	5109
2026-01-13 22:36:52.36	38.94	16.06	-45.7	-48.9	15.6	0.00e+00	0	39	0	157286400	63	5076
2026-01-13 22:36:53.50	39.10	16.16	-45.7	-48.9	15.7	0.00e+00	0	39	0	159383552	63	5054
2026-01-13 22:36:54.35	39.21	16.23	-45.7	-48.9	15.6	0.00e+00	0	39	0	161480704	63	5071
2026-01-13 22:36:55.49	39.36	16.33	-45.6	-48.7	15.8	0.00e+00	0	39	0	163577856	63	4970
2026-01-13 22:36:56.34	39.48	16.41	-45.6	-48.7	15.9	0.00e+00	0	39	0	164626432	63	4937
2026-01-13 22:36:57.47	39.63	16.51	-45.6	-48.7	15.8	0.00e+00	0	39	0	166723584	63	4951
2026-01-13 22:36:58.32	39.75	16.59	-45.6	-48.7	15.8	0.00e+00	0	39	0	168820736	63	4968
2026-01-13 22:36:59.46	39.91	16.69	-45.6	-48.7	15.8	0.00e+00	0	39	0	170917888	63	4966
2026-01-13 22:37:00.32	40.03	16.76	-45.7	-48.8	15.8	0.00e+00	0	39	0	171966464	63	4997
2026-01-13 22:37:01.45	40.19	16.86	-45.7	-48.9	15.7	0.00e+00	0	39	0	174063616	63	5051
2026-01-13 22:37:02.31	40.31	16.94	-45.7	-48.8	15.8	0.00e+00	0	39	0	176160768	63	4999
2026-01-13 22:37:03.44	40.47	17.04	-45.7	-48.8	15.7	0.00e+00	0	39	0	178257920	63	5037
2026-01-13 22:37:04.30	40.59	17.12	-45.7	-48.8	15.8	0.00e+00	0	39	0	180355072	63	5009
2026-01-13 22:37:05.43	40.75	17.22	-45.8	-48.9	15.7	0.00e+00	0	39	0	182452224	63	5069
2026-01-13 22:37:06.29	40.88	17.30	-45.8	-49.0	15.6	0.00e+00	0	39	0	183500800	63	5111
2026-01-13 22:37:07.52	41.05	17.41	-45.7	-48.9	15.7	0.00e+00	0	39	0	185597952	63	5055
2026-01-13 22:37:08.37	41.18	17.49	-45.7	-48.8	15.7	0.00e+00	0	39	0	187695104	63	5039
2026-01-13 22:37:09.57	41.35	17.60	-45.7	-48.8	15.8	0.00e+00	0	39	0	189792256	63	4988
2026-01-13 22:37:10.43	41.48	17.68	-45.6	-48.6	15.9	0.00e+00	0	39	0	190840832	63	4921
2026-01-13 22:37:11.57	41.65	17.78	-45.5	-48.6	16.0	0.00e+00	0	39	0	193986560	63	4894
2026-01-13 22:37:12.42	41.78	17.86	-45.6	-48.7	15.9	0.00e+00	0	39	0	195035136	63	4944
2026-01-13 22:37:13.56	41.95	17.96	-45.6	-48.7	15.9	0.00e+00	0	39	0	197132288	63	4938
2026-01-13 22:37:14.41	42.08	18.04	-45.6	-48.6	16.0	0.00e+00	0	39	0	199229440	63	4904
2026-01-13 22:37:15.55	42.25	18.15	-45.6	-48.6	16.0	0.00e+00	0	39	0	201326592	63	4895
2026-01-13 22:37:16.40	42.38	18.22	-45.6	-48.6	15.9	0.00e+00	0	39	0	202375168	63	4909
2026-01-13 22:37:17.54	42.55	18.33	-45.6	-48.6	16.0	0.00e+00	0	39	0	204472320	63	4900
2026-01-13 22:37:18.39	42.69	18.41	-45.5	-48.5	16.1	0.00e+00	0	39	0	206569472	63	4826
2026-01-13 22:37:19.52	42.86	18.51	-45.4	-48.4	16.3	0.00e+00	0	39	0	208666624	62	5042
2026-01-13 22:37:20.38	43.00	18.59	-45.4	-48.3	16.3	0.00e+00	0	39	0	209715200	62	5005
2026-01-13 22:37:21.51	43.17	18.70	-45.4	-48.3	16.3	0.00e+00	0	39	0	211812352	62	5034
2026-01-13 22:37:22.37	43.31	18.78	-45.2	-48.1	16.5	0.00e+00	0	39	0	213909504	62	4902
2026-01-13 22:37:23.50	43.49	18.88	-45.2	-48.0	16.6	0.00e+00	0	39	0	216006656	62	4846
2026-01-13 22:37:24.35	43.63	18.96	-45.0	-47.9	16.7	0.00e+00	0	39	0	217055232	62	4763
2026-01-13 22:37:25.49	43.81	19.07	-45.0	-47.8	16.7	0.00e+00	0	39	0	219152384	62	4745
2026-01-13 22:37:26.35	43.95	19.15	-45.0	-47.8	16.8	0.00e+00	0	39	0	221249536	61	4992
2026-01-13 22:37:27.48	44.13	19.25	-45.0	-47.8	16.7	0.00e+00	0	39	0	223346688	61	5014
2026-01-13 22:37:28.33	44.27	19.33	-45.0	-47.8	16.8	0.00e+00	0	39	0	225443840	61	5033
2026-01-13 22:37:29.67	44.49	19.46	-45.0	-47.8	16.8	0.00e+00	0	39	0	227540992	61	5012
2026-01-13 22:37:30.38	44.61	19.53	-45.1	-47.9	16.7	0.00e+00	0	39	0	228589568	61	5079
2026-01-13 22:37:31.83	44.85	19.66	-45.0	-47.9	16.7	0.00e+00	0	39	0	231735296	61	5081
2026-01-13 22:37:32.54	44.97	19.73	-45.1	-48.0	16.6	0.00e+00	0	39	0	232783872	61	5104
2026-01-13 22:37:33.82	45.19	19.85	-45.1	-47.9	16.5	0.00e+00	0	39	0	234881024	61	5080
2026-01-13 22:37:34.55	45.32	19.92	-45.1	-48.0	16.6	0.00e+00	0	39	0	236978176	61	5128
2026-01-13 22:37:35.83	45.53	20.04	-45.0	-47.9	16.7	0.00e+00	0	39	0	239075328	61	5045
2026-01-13 22:37:36.54	45.66	20.11	-45.0	-47.9	16.7	0.00e+00	0	39	0	240123904	61	5043
2026-01-13 22:37:37.82	45.88	20.23	-45.0	-47.9	16.7	0.00e+00	0	39	0	242221056	61	5056
2026-01-13 22:37:38.53	46.00	20.30	-45.1	-47.9	16.6	0.00e+00	0	39	0	244318208	61	5092
2026-01-13 22:37:39.81	46.23	20.42	-44.9	-47.7	16.8	0.00e+00	0	39	0	246415360	61	4979
2026-01-13 22:37:40.52	46.35	20.49	-45.0	-47.9	16.7	0.00e+00	0	39	0	247463936	61	5062
2026-01-13 22:37:41.80	46.58	20.61	-45.0	-47.8	16.8	0.00e+00	0	39	0	250609664	61	5021
2026-01-13 22:37:42.51	46.71	20.68	-45.0	-47.8	16.8	0.00e+00	0	39	0	251658240	61	5033
2026-01-13 22:37:43.79	46.94	20.80	-45.0	-47.8	16.8	0.00e+00	0	39	0	253755392	61	5004
2026-01-13 22:37:44.61	47.09	20.88	-45.0	-47.8	16.7	0.00e+00	0	39	0	255852544	61	5040
2026-01-13 22:37:46.05	47.35	21.01	-45.0	-47.8	16.8	0.00e+00	0	39	0	257949696	61	4993
2026-01-13 22:37:46.76	47.48	21.08	-45.0	-47.7	16.9	0.00e+00	0	39	0	258998272	61	4981
2026-01-13 22:37:48.05	47.72	21.20	-44.9	-47.7	16.8	0.00e+00	0	39	0	262144000	61	4982
2026-01-13 22:37:48.76	47.85	21.27	-44.8	-47.6	16.9	0.00e+00	0	39	0	263192576	61	4908
2026-01-13 22:37:50.30	48.14	21.42	-44.9	-47.7	16.9	0.00e+00	0	39	0	266338304	61	4943
2026-01-13 22:37:51.01	48.27	21.49	-44.8	-47.6	17.0	0.00e+00	0	39	0	267386880	61	4897
2026-01-13 22:37:52.29	48.51	21.61	-44.9	-47.6	16.9	0.00e+00	0	39	0	269484032	61	4914
2026-01-13 22:37:53.01	48.65	21.68	-44.8	-47.6	17.0	0.00e+00	0	39	0	271581184	61	4900
2026-01-13 22:37:54.29	48.89	21.80	-44.9	-47.7	16.9	0.00e+00	0	39	0	273678336	61	4949
2026-01-13 22:37:55.02	49.03	21.87	-44.9	-47.7	16.9	0.00e+00	0	39	0	274726912	61	4934
2026-01-13 22:37:56.29	49.28	22.00	-44.7	-47.5	17.1	0.00e+00	0	39	0	277872640	61	4823
2026-01-13 22:37:57.02	49.42	22.07	-44.6	-47.3	17.3	0.00e+00	0	39	0	278921216	61	4750
2026-01-13 22:37:58.30	49.67	22.19	-44.7	-47.4	17.2	0.00e+00	0	39	0	281018368	61	4792
2026-01-13 22:37:59.01	49.81	22.26	-44.6	-47.2	17.3	0.00e+00	0	39	0	282066944	61	4695
2026-01-13 22:38:00.29	50.07	22.38	-44.5	-47.2	17.4	0.00e+00	0	39	0	285212672	61	4671
2026-01-13 22:38:01.00	50.21	22.45	-44.5	-47.2	17.4	0.00e+00	0	39	0	286261248	61	4676
2026-01-13 22:38:02.29	50.47	22.57	-44.6	-47.3	17.3	0.00e+00	0	39	0	288358400	61	4726
2026-01-13 22:38:03.00	50.61	22.64	-44.5	-47.2	17.4	0.00e+00	0	39	0	290455552	61	4660
2026-01-13 22:38:04.27	50.87	22.77	-44.5	-47.1	17.5	0.00e+00	0	39	0	292552704	60	4893
2026-01-13 22:38:04.98	51.02	22.83	-44.5	-47.1	17.5	0.00e+00	0	39	0	293601280	60	4900
2026-01-13 22:38:06.27	51.28	22.96	-44.6	-47.2	17.3	0.00e+00	0	39	0	295698432	60	4983
2026-01-13 22:38:06.99	51.43	23.03	-44.7	-47.4	17.2	0.00e+00	0	39	0	297795584	60	5060
2026-01-13 22:38:08.27	51.70	23.15	-44.7	-47.4	17.2	0.00e+00	0	39	0	299892736	60	5094
2026-01-13 22:38:08.98	51.85	23.22	-44.7	-47.4	17.2	0.00e+00	0	39	0	300941312	60	5087
2026-01-13 22:38:10.26	52.12	23.34	-44.7	-47.3	17.2	0.00e+00	0	39	0	304087040	60	5032
2026-01-13 22:38:10.97	52.27	23.41	-44.7	-47.4	17.2	0.00e+00	0	39	0	305135616	60	5066
2026-01-13 22:38:12.25	52.54	23.53	-44.7	-47.4	17.2	0.00e+00	0	39	0	307232768	60	5085
2026-01-13 22:38:12.97	52.70	23.60	-44.7	-47.4	17.1	0.00e+00	0	39	0	308281344	60	5095
2026-01-13 22:38:14.25	52.97	23.73	-44.7	-47.4	17.2	0.00e+00	0	39	0	311427072	60	5086
2026-01-13 22:38:14.97	53.13	23.80	-44.8	-47.5	17.1	0.00e+00	0	39	0	312475648	60	5147
2026-01-13 22:38:16.25	53.41	23.92	-44.8	-47.6	17.0	0.00e+00	0	39	0	314572800	60	5189
2026-01-13 22:38:16.96	53.57	23.99	-44.8	-47.5	17.1	0.00e+00	0	39	0	316669952	60	5150
2026-01-13 22:38:18.24	53.85	24.11	-44.7	-47.4	17.2	0.00e+00	0	39	0	318767104	60	5071
2026-01-13 22:38:19.19	54.06	24.20	-44.7	-47.4	17.2	0.00e+00	0	39	0	319815680	60	5061
2026-01-13 22:38:20.50	54.36	24.33	-44.7	-47.4	17.3	0.00e+00	0	39	0	322961408	60	5060
2026-01-13 22:38:21.21	54.52	24.39	-44.7	-47.4	17.2	0.00e+00	0	39	0	324009984	60	5070
2026-01-13 22:38:22.49	54.81	24.52	-44.8	-47.5	17.2	0.00e+00	0	39	0	326107136	60	5119
2026-01-13 22:38:23.20	54.97	24.58	-44.8	-47.6	17.1	0.00e+00	0	39	0	328204288	60	5166
2026-01-13 22:38:24.48	55.26	24.71	-45.0	-47.8	16.9	0.00e+00	0	39	0	330301440	60	5290
2026-01-13 22:38:25.20	55.43	24.77	-45.1	-47.9	16.7	0.00e+00	0	39	0	331350016	60	5380
2026-01-13 22:38:26.50	55.73	24.90	-45.2	-48.0	16.7	0.00e+00	0	39	0	334495744	61	5121
2026-01-13 22:38:27.21	55.90	24.97	-45.2	-48.0	16.6	0.00e+00	0	39	0	335544320	61	5140
2026-01-13 22:38:28.55	56.21	25.09	-45.3	-48.1	16.5	0.00e+00	0	39	0	337641472	61	5213
2026-01-13 22:38:29.26	56.38	25.16	-45.3	-48.2	16.5	0.00e+00	0	39	0	338690048	61	5221
2026-01-13 22:38:30.54	56.69	25.28	-45.4	-48.3	16.3	0.00e+00	0	39	0	341835776	61	5338
2026-01-13 22:38:31.26	56.86	25.35	-45.4	-48.4	16.3	0.00e+00	0	39	0	342884352	61	5348
2026-01-13 22:38:32.54	57.17	25.47	-45.5	-48.4	16.2	0.00e+00	0	39	0	344981504	61	5393
2026-01-13 22:38:33.25	57.34	25.53	-45.4	-48.4	16.3	0.00e+00	0	39	0	347078656	61	5362
2026-01-13 22:38:34.72	57.70	25.67	-45.4	-48.3	16.3	0.00e+00	0	39	0	349175808	61	5322
2026-01-13 22:38:35.43	57.87	25.74	-45.4	-48.3	16.3	0.00e+00	0	39	0	350224384	61	5331
2026-01-13 22:38:36.76	58.20	25.86	-45.6	-48.5	16.1	0.00e+00	0	39	0	353370112	61	5459
2026-01-13 22:38:37.47	58.38	25.93	-45.6	-48.6	16.1	0.00e+00	0	39	0	354418688	61	5518
2026-01-13 22:38:38.75	58.70	26.05	-45.8	-48.9	15.8	0.00e+00	0	39	0	356515840	62	5396
2026-01-13 22:38:39.46	58.88	26.11	-45.9	-49.0	15.7	0.00e+00	0	39	0	358612992	62	5452
2026-01-13 22:38:40.74	59.20	26.23	-45.8	-48.9	15.8	0.00e+00	0	39	0	360710144	62	5374
2026-01-13 22:38:41.48	59.39	26.30	-45.8	-48.9	15.8	0.00e+00	0	39	0	361758720	62	5365
2026-01-13 22:38:42.76	59.71	26.42	-45.7	-48.8	15.9	0.00e+00	0	39	0	364904448	62	5303
2026-01-13 22:38:43.49	59.90	26.48	-45.7	-48.8	15.9	0.00e+00	0	39	0	365953024	62	5309
2026-01-13 22:38:44.76	60.23	26.60	-45.7	-48.8	15.9	0.00e+00	0	39	0	368050176	62	5302
2026-01-13 22:38:45.47	60.41	26.66	-45.8	-48.9	15.8	0.00e+00	0	39	0	369098752	62	5356
2026-01-13 22:38:46.75	60.75	26.78	-46.0	-49.2	15.5	0.00e+00	0	39	0	372244480	62	5553
2026-01-13 22:38:47.46	60.94	26.84	-46.2	-49.4	15.3	0.00e+00	0	39	0	373293056	62	5688
2026-01-13 22:38:48.74	61.27	26.96	-46.4	-49.7	15.0	0.00e+00	0	39	0	375390208	63	5585
2026-01-13 22:38:49.64	61.51	27.04	-46.5	-50.0	14.7	0.00e+00	0	39	0	377487360	63	5750
2026-01-13 22:38:50.67	61.79	27.13	-46.6	-50.2	14.4	0.00e+00	0	39	0	379584512	64	5572
2026-01-13 22:38:51.67	62.06	27.22	-46.8	-50.4	14.2	0.00e+00	0	39	0	381681664	64	5703
2026-01-13 22:38:52.66	62.33	27.31	-46.8	-50.5	14.2	1.50e-06	0	39	0	382730240	64	5732
2026-01-13 22:38:54.04	62.70	27.43	-46.8	-50.4	14.2	1.50e-06	0	39	0	385875968	64	5716
2026-01-13 22:38:54.75	62.90	27.49	-46.7	-50.4	14.3	2.20e-06	0	39	0	386924544	64	5657
2026-01-13 22:38:56.03	63.25	27.60	-46.6	-50.1	14.6	7.00e-07	0	39	0	389021696	64	5498
2026-01-13 22:38:56.74	63.44	27.66	-46.5	-50.0	14.6	1.50e-06	0	39	0	391118848	64	5443
2026-01-13 22:38:58.02	63.80	27.77	-46.6	-50.1	14.5	0.00e+00	0	39	0	393216000	64	5521
2026-01-13 22:38:58.76	64.01	27.84	-46.6	-50.1	14.5	7.00e-07	0	39	0	394264576	64	5519
2026-01-13 22:39:00.04	64.37	27.94	-46.6	-50.1	14.5	1.50e-06	0	39	0	396361728	64	5526
2026-01-13 22:39:00.76	64.57	28.01	-46.6	-50.1	14.6	0.00e+00	0	39	0	398458880	64	5482
2026-01-13 22:39:02.04	64.93	28.11	-46.6	-50.1	14.5	1.50e-06	0	39	0	400556032	64	5496
2026-01-13 22:39:02.75	65.14	28.17	-46.7	-50.2	14.4	7.00e-07	0	39	0	401604608	64	5581
2026-01-13 22:39:04.03	65.50	28.28	-46.7	-50.2	14.4	7.00e-07	0	39	0	404750336	64	5571
2026-01-13 22:39:04.77	65.72	28.34	-46.7	-50.3	14.3	0.00e+00	0	39	0	405798912	64	5643
2026-01-13 22:39:06.16	66.12	28.46	-46.7	-50.4	14.3	1.50e-06	0	39	0	407896064	64	5659
2026-01-13 22:39:07.15	66.41	28.54	-46.6	-50.2	14.4	3.00e-06	0	39	0	409993216	64	5555
2026-01-13 22:39:08.46	66.79	28.64	-46.5	-49.9	14.7	7.00e-07	0	39	0	413138944	64	5373
2026-01-13 22:39:09.21	67.01	28.70	-46.4	-49.8	14.8	0.00e+00	0	39	0	414187520	64	5329
2026-01-13 22:39:10.48	67.39	28.80	-46.4	-49.7	14.9	0.00e+00	0	39	0	416284672	64	5260
2026-01-13 22:39:11.27	67.63	28.87	-46.4	-49.8	14.8	0.00e+00	0	39	0	418381824	64	5299
2026-01-13 22:39:12.44	67.98	28.96	-46.4	-49.7	14.9	0.00e+00	0	39	0	420478976	64	5276
2026-01-13 22:39:13.30	68.23	29.02	-46.4	-49.8	14.8	0.00e+00	0	39	0	421527552	64	5329
2026-01-13 22:39:14.43	68.58	29.11	-46.5	-49.9	14.7	7.00e-07	0	39	0	423624704	64	5401
2026-01-13 22:39:15.28	68.83	29.18	-46.7	-50.2	14.4	0.00e+00	0	39	0	425721856	64	5560
2026-01-13 22:39:16.42	69.18	29.26	-46.6	-50.1	14.5	0.00e+00	0	39	0	427819008	64	5526
2026-01-13 22:39:17.27	69.44	29.33	-46.6	-50.1	14.5	1.50e-06	0	39	0	428867584	64	5518
2026-01-13 22:39:18.41	69.79	29.41	-46.6	-50.0	14.6	1.50e-06	0	39	0	430964736	64	5459
2026-01-13 22:39:19.26	70.06	29.48	-46.6	-50.1	14.5	7.00e-07	0	39	0	433061888	64	5515
2026-01-13 22:39:20.40	70.41	29.56	-46.6	-50.1	14.6	0.00e+00	0	39	0	435159040	64	5473
2026-01-13 22:39:21.26	70.68	29.62	-46.6	-50.2	14.5	7.00e-07	0	39	0	436207616	64	5549
2026-01-13 22:39:22.39	71.03	29.70	-46.7	-50.3	14.4	0.00e+00	0	39	0	439353344	64	5598
2026-01-13 22:39:23.25	71.30	29.76	-46.8	-50.5	14.2	1.50e-06	0	39	0	440401920	64	5742
2026-01-13 22:39:24.39	71.66	29.85	-47.0	-50.8	13.8	7.00e-07	0	39	0	442499072	64	5979
2026-01-13 22:39:25.24	71.93	29.90	-47.3	-51.3	13.4	9.10e-06	0	39	0	444596224	65	5952
2026-01-13 22:39:26.58	72.36	30.00	-47.6	-51.9	12.7	5.11e-05	0	39	0	446693376	65	6393
2026-01-13 22:39:27.29	72.59	30.04	-47.8	-52.2	12.4	1.27e-04	0	39	0	447741952	66	6262
2026-01-13 22:39:28.57	73.00	30.13	-48.0	-52.6	12.1	2.74e-04	0	39	0	450887680	66	6506
2026-01-13 22:39:29.28	73.23	30.18	-48.1	-52.7	11.9	3.50e-04	0	39	0	451936256	66	6609
2026-01-13 22:39:30.56	73.64	30.26	-48.1	-52.8	11.8	4.76e-04	0	39	0	454033408	66	6698
2026-01-13 22:39:31.27	73.88	30.31	-48.1	-52.9	11.7	5.10e-04	0	39	0	455081984	66	6743
2026-01-13 22:39:32.55	74.29	30.39	-48.1	-53.0	11.7	7.19e-04	0	39	0	458227712	67	6430
2026-01-13 22:39:33.26	74.53	30.43	-48.1	-52.9	11.7	5.68e-04	0	39	0	459276288	67	6396
2026-01-13 22:39:34.54	74.95	30.51	-48.1	-52.8	11.8	4.55e-04	0	39	0	461373440	67	6312
2026-01-13 22:39:35.27	75.19	30.56	-48.1	-52.8	11.8	4.96e-04	0	39	0	463470592	67	6333
2026-01-13 22:39:36.57	75.62	30.64	-48.1	-53.0	11.6	5.72e-04	0	39	0	465567744	67	6463
2026-01-13 22:39:37.28	75.86	30.68	-48.2	-53.2	11.4	6.62e-04	0	39	0	466616320	67	6616
2026-01-13 22:39:38.62	76.31	30.76	-48.2	-53.3	11.3	1.44e-03	0	39	0	469762048	67	6691
2026-01-13 22:39:39.33	76.54	30.80	-48.3	-53.4	11.2	1.13e-03	0	39	0	470810624	67	6755
2026-01-13 22:39:40.67	77.00	30.87	-48.2	-53.1	11.5	1.04e-03	0	39	0	472907776	67	6523
2026-01-13 22:39:41.38	77.24	30.91	-48.1	-52.9	11.7	5.92e-04	0	39	0	473956352	67	6351
2026-01-13 22:39:42.72	77.69	30.99	-47.9	-52.5	12.1	2.77e-04	0	39	0	477102080	67	6111
2026-01-13 22:39:43.43	77.93	31.02	-47.7	-52.1	12.5	1.50e-04	0	39	0	478150656	67	5840
2026-01-13 22:39:44.78	78.39	31.09	-47.5	-51.8	12.9	5.03e-05	0	39	0	481296384	67	5600
2026-01-13 22:39:45.48	78.63	31.13	-47.6	-51.8	12.8	4.80e-05	0	39	0	482344960	67	5653
2026-01-13 22:39:46.83	79.10	31.20	-47.7	-52.1	12.5	6.48e-05	0	39	0	484442112	67	5840
2026-01-13 22:39:47.54	79.34	31.23	-47.7	-52.1	12.6	8.08e-05	0	39	0	485490688	67	5798
2026-01-13 22:39:48.82	79.78	31.30	-47.8	-52.3	12.3	1.20e-04	0	39	0	488636416	67	5980
2026-01-13 22:39:49.54	80.03	31.33	-47.8	-52.3	12.4	1.40e-04	0	39	0	489684992	67	5953
2026-01-13 22:39:50.82	80.48	31.39	-47.8	-52.3	12.3	1.55e-04	0	39	0	491782144	67	5990
2026-01-13 22:39:51.56	80.74	31.42	-47.7	-52.1	12.5	1.01e-04	0	39	0	493879296	67	5834
2026-01-13 22:39:52.84	81.18	31.48	-47.4	-51.6	13.1	4.34e-05	0	39	0	495976448	66	5799
2026-01-13 22:39:53.55	81.43	31.51	-47.3	-51.4	13.2	2.44e-05	0	39	0	497025024	66	5705
2026-01-13 22:39:54.83	81.88	31.56	-47.1	-51.3	13.5	1.06e-05	0	39	0	499122176	66	5598
2026-01-13 22:39:55.56	82.14	31.59	-47.0	-51.0	13.6	1.06e-05	0	39	0	501219328	65	5785
2026-01-13 22:39:56.84	82.59	31.64	-47.0	-51.1	13.5	9.10e-06	0	39	0	503316480	65	5835
2026-01-13 22:39:57.55	82.84	31.67	-47.0	-51.1	13.6	6.80e-06	0	39	0	504365056	65	5823
2026-01-13 22:39:58.83	83.30	31.72	-47.1	-51.3	13.4	1.29e-05	0	39	0	507510784	65	5955
2026-01-13 22:39:59.57	83.56	31.74	-47.2	-51.5	13.2	1.90e-05	0	39	0	508559360	65	6062
2026-01-13 22:40:00.85	84.02	31.79	-47.1	-51.2	13.4	1.14e-05	0	39	0	510656512	65	5894
2026-01-13 22:40:01.59	84.28	31.81	-47.1	-51.2	13.5	1.44e-05	0	39	0	512753664	65	5866
2026-01-13 22:40:03.25	84.88	31.87	-47.0	-51.1	13.6	9.90e-06	0	39	0	515899392	65	5803
2026-01-13 22:40:04.08	85.18	31.89	-46.9	-50.9	13.7	6.80e-06	0	39	0	516947968	65	5690
2026-01-13 22:40:05.22	85.59	31.93	-47.0	-51.1	13.5	3.80e-06	0	39	0	519045120	65	5854
2026-01-13 22:40:06.07	85.89	31.95	-47.2	-51.5	13.2	1.06e-05	0	39	0	521142272	65	6116
2026-01-13 22:40:07.21	86.30	31.98	-47.6	-52.2	12.5	7.62e-05	0	39	0	523239424	65	6594
2026-01-13 22:40:08.06	86.61	32.01	-47.8	-52.6	12.0	1.94e-04	0	39	0	524288000	66	6538
2026-01-13 22:40:09.20	87.02	32.03	-47.8	-52.7	11.9	3.78e-04	0	39	0	526385152	66	6630
2026-01-13 22:40:10.05	87.33	32.05	-47.7	-52.5	12.2	3.19e-04	0	39	0	528482304	66	6435
2026-01-13 22:40:11.19	87.75	32.08	-47.5	-52.1	12.5	1.60e-04	0	39	0	530579456	66	6160
2026-01-13 22:40:12.04	88.06	32.10	-47.2	-51.5	13.1	6.40e-05	0	39	0	531628032	66	5755
2026-01-13 22:40:13.18	88.47	32.12	-46.9	-50.9	13.8	1.06e-05	0	39	0	533725184	65	5691
2026-01-13 22:40:14.14	88.82	32.14	-46.8	-50.7	13.9	3.80e-06	0	39	0	535822336	65	5576
2026-01-13 22:40:15.14	89.19	32.16	-46.8	-50.7	14.0	2.20e-06	0	39	0	537919488	65	5554
2026-01-13 22:40:16.13	89.55	32.17	-47.0	-50.8	13.9	1.50e-06	0	39	0	540016640	65	5649
2026-01-13 22:40:17.13	89.91	32.19	-47.0	-50.7	13.9	3.00e-06	0	39	0	541065216	65	5590
2026-01-13 22:40:18.12	90.28	32.20	-47.1	-50.9	13.7	2.20e-06	0	39	0	543162368	65	5704
2026-01-13 22:40:19.12	90.64	32.21	-46.9	-50.7	13.9	2.20e-06	0	39	0	545259520	65	5574
2026-01-13 22:40:20.44	91.13	32.23	-46.9	-50.7	14.0	3.00e-06	0	39	0	547356672	65	5546
2026-01-13 22:40:21.18	91.40	32.23	-47.0	-50.8	13.8	2.20e-06	0	39	0	549453824	65	5650
2026-01-13 22:40:22.78	91.99	32.25	-47.1	-50.9	13.7	1.50e-06	0	39	0	551550976	65	5700
2026-01-13 22:40:23.35	92.20	32.25	-47.1	-51.0	13.7	8.30e-06	0	39	0	553648128	65	5727
2026-01-13 22:40:25.26	92.90	32.26	-47.4	-51.4	13.2	1.83e-05	0	39	0	556793856	65	6053
2026-01-13 22:40:25.83	93.11	32.26	-47.4	-51.5	13.1	2.67e-05	0	39	0	557842432	65	6111
2026-01-13 22:40:27.53	93.73	32.27	-47.5	-51.7	12.9	2.59e-05	0	39	0	560988160	65	6236
2026-01-13 22:40:28.10	93.94	32.27	-47.5	-51.8	12.8	4.04e-05	0	39	0	562036736	65	6293
2026-01-13 22:40:29.81	94.57	32.27	-47.4	-51.7	12.9	4.27e-05	0	39	0	565182464	65	6229
2026-01-13 22:40:30.38	94.78	32.26	-47.4	-51.6	13.0	3.89e-05	0	39	0	566231040	65	6175
2026-01-13 22:40:32.08	95.41	32.26	-47.1	-50.9	13.8	6.80e-06	0	39	0	569376768	65	5691
2026-01-13 22:40:32.65	95.62	32.26	-47.0	-50.8	13.9	4.50e-06	0	39	0	570425344	65	5612
2026-01-13 22:40:34.35	96.24	32.24	-46.9	-50.6	14.1	2.20e-06	0	39	0	573571072	65	5478
2026-01-13 22:40:34.92	96.45	32.24	-46.8	-50.4	14.2	1.50e-06	0	39	0	574619648	65	5395
2026-01-13 22:40:36.63	97.08	32.22	-47.2	-51.1	13.6	4.50e-06	0	39	0	577765376	65	5803
2026-01-13 22:40:37.20	97.29	32.22	-47.3	-51.3	13.3	9.10e-06	0	39	0	578813952	65	5990
2026-01-13 22:40:39.18	98.01	32.19	-47.6	-51.9	12.8	4.27e-05	0	39	0	583008256	65	6364
2026-01-13 22:40:40.11	98.35	32.18	-47.6	-51.9	12.7	6.02e-05	0	39	0	584056832	65	6374
2026-01-13 22:40:41.10	98.72	32.16	-47.6	-51.9	12.7	7.47e-05	0	39	0	586153984	65	6382
2026-01-13 22:40:42.10	99.08	32.15	-47.7	-52.0	12.7	7.17e-05	0	39	0	588251136	65	6440
2026-01-13 22:40:43.10	99.45	32.13	-47.9	-52.3	12.3	1.04e-04	0	39	0	590348288	66	6310
2026-01-13 22:40:44.15	99.83	32.11	-47.8	-52.3	12.4	2.25e-04	0	39	0	592445440	66	6288
2026-01-13 22:40:45.04	100.15	32.09	-47.8	-52.2	12.5	1.49e-04	0	39	0	593494016	66	6251
2026-01-13 22:40:46.17	100.57	32.06	-47.9	-52.5	12.1	2.15e-04	0	39	0	595591168	66	6486
2026-01-13 22:40:47.03	100.88	32.04	-48.1	-52.9	11.8	2.91e-04	0	39	0	597688320	66	6747
2026-01-13 22:40:48.16	101.29	32.02	-48.1	-53.1	11.6	7.29e-04	0	39	0	599785472	66	6882
2026-01-13 22:40:49.01	101.60	32.00	-48.2	-53.0	11.6	9.47e-04	0	39	0	600834048	67	6477
2026-01-13 22:40:50.15	102.01	31.96	-48.1	-52.9	11.7	6.77e-04	0	39	0	602931200	67	6409
2026-01-13 22:40:51.24	102.40	31.93	-48.1	-52.7	11.9	3.98e-04	0	39	0	605028352	67	6268
2026-01-13 22:40:52.09	102.71	31.91	-48.0	-52.5	12.1	2.72e-04	0	39	0	607125504	67	6120
2026-01-13 22:40:53.23	103.12	31.87	-47.9	-52.4	12.3	2.30e-04	0	39	0	609222656	67	6029
2026-01-13 22:40:54.08	103.42	31.85	-48.0	-52.6	12.0	2.20e-04	0	39	0	610271232	67	6160
2026-01-13 22:40:55.22	103.83	31.81	-48.1	-52.7	12.0	3.89e-04	0	39	0	612368384	67	6244
2026-01-13 22:40:56.41	104.26	31.77	-48.1	-53.0	11.7	5.40e-04	0	39	0	615514112	67	6421
2026-01-13 22:40:57.26	104.56	31.74	-48.2	-53.1	11.5	6.79e-04	0	39	0	616562688	67	6561
2026-01-13 22:40:58.40	104.97	31.70	-48.1	-53.0	11.6	7.16e-04	0	39	0	618659840	67	6473
2026-01-13 22:40:59.25	105.27	31.67	-48.1	-52.8	11.8	4.59e-04	0	39	0	620756992	67	6345
2026-01-13 22:41:00.37	105.67	31.62	-48.0	-52.6	12.1	3.06e-04	0	39	0	622854144	67	6146
2026-01-13 22:41:01.22	105.97	31.59	-47.9	-52.5	12.1	2.86e-04	0	39	0	623902720	67	6114
2026-01-13 22:41:02.35	106.37	31.54	-47.6	-51.9	12.7	9.76e-05	0	39	0	625999872	67	5673
2026-01-13 22:41:03.20	106.67	31.51	-47.6	-52.0	12.7	5.49e-05	0	39	0	628097024	67	5753
2026-01-13 22:41:04.40	107.09	31.45	-47.3	-51.3	13.4	2.28e-05	0	39	0	630194176	66	5605
2026-01-13 22:41:05.25	107.38	31.42	-47.1	-50.9	13.7	1.29e-05	0	39	0	631242752	66	5390
2026-01-13 22:41:06.39	107.78	31.36	-47.0	-50.7	14.0	5.30e-06	0	39	0	633339904	66	5272
2026-01-13 22:41:07.24	108.08	31.32	-46.9	-50.6	14.1	3.00e-06	0	39	0	635437056	65	5495
2026-01-13 22:41:08.51	108.52	31.26	-47.1	-51.0	13.7	5.30e-06	0	40	0	637534208	65	5731
2026-01-13 22:41:09.30	108.79	31.22	-47.1	-51.0	13.7	8.30e-06	0	39	0	639631360	65	5787
2026-01-13 22:41:10.54	109.22	31.16	-47.3	-51.2	13.4	1.14e-05	0	39	0	641728512	65	5920
2026-01-13 22:41:11.39	109.51	31.12	-47.4	-51.5	13.2	1.52e-05	0	39	0	642777088	65	6065
2026-01-13 22:41:12.53	109.90	31.06	-47.5	-51.6	13.1	4.27e-05	0	39	0	644874240	65	6182
2026-01-13 22:41:13.38	110.19	31.02	-47.4	-51.5	13.2	3.73e-05	0	39	0	646971392	65	6067
2026-01-13 22:41:14.68	110.64	30.95	-47.4	-51.5	13.2	2.21e-05	0	39	0	649068544	65	6096
2026-01-13 22:41:15.39	110.88	30.91	-47.4	-51.5	13.3	1.98e-05	0	39	0	651165696	65	6066
2026-01-13 22:41:16.67	111.31	30.83	-47.2	-51.3	13.4	1.60e-05	0	39	0	653262848	65	5966
2026-01-13 22:41:17.41	111.56	30.79	-47.1	-51.1	13.6	8.30e-06	0	39	0	654311424	65	5816
2026-01-13 22:41:18.69	111.99	30.72	-47.0	-51.1	13.6	5.30e-06	0	39	0	656408576	65	5791
2026-01-13 22:41:19.41	112.23	30.68	-46.9	-50.8	13.9	6.80e-06	0	39	0	658505728	65	5597
2026-01-13 22:41:20.69	112.66	30.60	-46.8	-50.6	14.1	2.20e-06	0	39	0	660602880	65	5500
2026-01-13 22:41:21.50	112.93	30.55	-46.9	-50.7	13.9	2.20e-06	0	39	0	662700032	65	5588
2026-01-13 22:41:22.64	113.31	30.48	-46.9	-50.7	14.0	0.00e+00	0	39	0	663748608	65	5571
2026-01-13 22:41:23.49	113.59	30.43	-47.1	-51.0	13.7	2.20e-06	0	39	0	665845760	65	5765
2026-01-13 22:41:24.62	113.96	30.35	-47.2	-51.3	13.4	1.14e-05	0	39	0	667942912	65	5951
2026-01-13 22:41:25.48	114.24	30.30	-47.4	-51.7	13.0	3.05e-05	0	39	0	670040064	65	6240
2026-01-13 22:41:26.61	114.61	30.23	-47.7	-52.3	12.4	1.04e-04	0	39	0	672137216	66	6285
2026-01-13 22:41:27.47	114.89	30.17	-47.9	-52.6	12.1	2.55e-04	0	39	0	673185792	66	6556
2026-01-13 22:41:28.60	115.25	30.09	-47.9	-52.5	12.1	3.09e-04	0	39	0	675282944	66	6486
2026-01-13 22:41:29.46	115.53	30.03	-47.8	-52.4	12.2	2.39e-04	0	39	0	677380096	66	6367
2026-01-13 22:41:30.60	115.90	29.96	-47.6	-51.8	12.9	7.09e-05	0	39	0	679477248	66	5946
2026-01-13 22:41:31.45	116.17	29.90	-47.5	-51.6	13.1	2.67e-05	0	39	0	680525824	66	5800
2026-01-13 22:41:32.59	116.53	29.82	-47.4	-51.4	13.2	2.21e-05	0	39	0	682622976	66	5694
2026-01-13 22:41:33.44	116.80	29.76	-47.4	-51.4	13.3	1.37e-05	0	39	0	684720128	66	5691
2026-01-13 22:41:34.58	117.16	29.68	-47.4	-51.4	13.3	2.28e-05	0	39	0	686817280	66	5711
2026-01-13 22:41:35.43	117.43	29.61	-47.4	-51.5	13.1	3.43e-05	0	39	0	687865856	66	5776
2026-01-13 22:41:36.57	117.78	29.53	-47.6	-51.9	12.7	3.58e-05	0	39	0	689963008	66	6035
2026-01-13 22:41:37.42	118.05	29.47	-47.7	-52.0	12.6	7.47e-05	0	39	0	692060160	66	6131
2026-01-13 22:41:38.56	118.40	29.38	-47.7	-52.1	12.6	1.01e-04	0	39	0	694157312	66	6170
2026-01-13 22:41:39.41	118.66	29.32	-47.6	-52.1	12.5	1.29e-04	0	39	0	696254464	66	6189
2026-01-13 22:41:40.55	119.01	29.23	-47.8	-52.6	12.1	2.27e-04	0	39	0	698351616	66	6499
2026-01-13 22:41:41.40	119.27	29.17	-48.0	-52.9	11.7	3.52e-04	0	39	0	699400192	66	6771
2026-01-13 22:41:42.54	119.62	29.08	-48.1	-53.1	11.6	6.49e-04	0	39	0	701497344	66	6883
2026-01-13 22:41:43.39	119.88	29.01	-48.1	-53.1	11.5	6.77e-04	0	39	0	703594496	66	6909
2026-01-13 22:41:44.53	120.22	28.92	-48.0	-52.7	11.8	6.10e-04	0	39	0	705691648	66	6630
2026-01-13 22:41:45.39	120.48	28.86	-47.8	-52.4	12.1	3.07e-04	0	39	0	706740224	66	6401
2026-01-13 22:41:46.52	120.82	28.77	-47.8	-52.2	12.4	2.30e-04	0	39	0	708837376	66	6273
2026-01-13 22:41:47.37	121.07	28.70	-47.8	-52.3	12.4	1.80e-04	0	39	0	710934528	66	6296
2026-01-13 22:41:48.51	121.41	28.61	-47.5	-51.6	12.9	7.24e-05	0	39	0	713031680	66	5846
2026-01-13 22:41:49.37	121.66	28.54	-47.2	-51.1	13.5	1.44e-05	0	39	0	714080256	66	5498
2026-01-13 22:41:50.50	121.99	28.44	-46.9	-50.7	13.9	6.10e-06	0	39	0	716177408	65	5534
2026-01-13 22:41:51.36	122.24	28.37	-46.6	-50.1	14.5	0.00e+00	0	39	0	718274560	65	5214
2026-01-13 22:41:52.49	122.57	28.28	-46.6	-50.1	14.6	7.00e-07	0	39	0	720371712	65	5162
2026-01-13 22:41:53.35	122.82	28.21	-46.6	-50.1	14.5	0.00e+00	0	39	0	721420288	65	5208
2026-01-13 22:41:54.48	123.14	28.11	-46.7	-50.4	14.3	7.00e-07	0	39	0	723517440	65	5349
2026-01-13 22:41:55.34	123.39	28.04	-46.8	-50.4	14.2	7.00e-07	0	39	0	725614592	65	5386
2026-01-13 22:41:56.47	123.71	27.94	-46.9	-50.6	14.0	1.50e-06	0	39	0	727711744	65	5491
2026-01-13 22:41:57.33	123.95	27.87	-47.0	-50.8	13.8	1.50e-06	0	39	0	729808896	65	5602
2026-01-13 22:41:58.51	124.28	27.77	-47.1	-51.0	13.6	8.30e-06	0	39	0	731906048	65	5780
2026-01-13 22:41:59.37	124.52	27.69	-47.3	-51.4	13.3	2.05e-05	0	39	0	732954624	65	6013
2026-01-13 22:42:00.58	124.86	27.59	-47.5	-51.8	12.8	4.80e-05	0	39	0	735051776	65	6280
2026-01-13 22:42:01.43	125.09	27.51	-47.7	-52.0	12.6	7.40e-05	0	39	0	737148928	65	6453
2026-01-13 22:42:02.62	125.42	27.41	-47.4	-51.5	13.1	5.34e-05	0	39	0	739246080	65	6123
2026-01-13 22:42:03.47	125.65	27.33	-47.0	-50.9	13.8	1.52e-05	0	39	0	741343232	65	5659
2026-01-13 22:42:04.61	125.96	27.23	-46.5	-50.1	14.5	1.50e-06	0	39	0	743440384	65	5175
2026-01-13 22:42:05.46	126.19	27.16	-46.4	-49.9	14.7	0.00e+00	0	39	0	744488960	64	5344
2026-01-13 22:42:06.60	126.50	27.05	-46.4	-49.8	14.8	0.00e+00	0	39	0	746586112	64	5320
2026-01-13 22:42:07.45	126.73	26.98	-46.6	-50.1	14.5	1.50e-06	0	39	0	748683264	64	5500
2026-01-13 22:42:08.58	127.03	26.88	-46.6	-50.2	14.4	7.00e-07	0	39	0	750780416	64	5580
2026-01-13 22:42:09.44	127.26	26.80	-46.7	-50.3	14.3	2.20e-06	0	39	0	751828992	64	5611
2026-01-13 22:42:10.57	127.55	26.70	-46.2	-49.5	15.1	0.00e+00	0	39	0	753926144	64	5114
2026-01-13 22:42:11.43	127.78	26.62	-45.9	-49.0	15.6	0.00e+00	0	39	0	756023296	63	5152
2026-01-13 22:42:12.57	128.07	26.51	-45.8	-48.9	15.8	0.00e+00	0	39	0	758120448	63	5071
2026-01-13 22:42:13.42	128.29	26.44	-45.9	-49.1	15.6	0.00e+00	0	39	0	759169024	63	5165
2026-01-13 22:42:14.55	128.58	26.33	-46.4	-50.0	14.7	0.00e+00	0	39	0	761266176	63	5740
2026-01-13 22:42:15.41	128.80	26.25	-46.9	-50.9	13.7	0.00e+00	0	39	0	763363328	64	6015
2026-01-13 22:42:16.61	129.11	26.14	-47.5	-52.0	12.6	5.79e-05	0	39	0	765460480	65	6476
2026-01-13 22:42:17.46	129.33	26.06	-47.5	-52.0	12.5	1.09e-04	0	39	0	767557632	65	6473
2026-01-13 22:42:18.60	129.61	25.96	-47.3	-51.5	13.1	3.35e-05	0	39	0	769654784	65	6077
2026-01-13 22:42:19.45	129.82	25.88	-47.1	-51.1	13.5	1.60e-05	0	39	0	770703360	65	5793
2026-01-13 22:42:20.59	130.11	25.77	-47.1	-51.0	13.6	8.30e-06	0	39	0	772800512	65	5726
2026-01-13 22:42:21.44	130.32	25.69	-46.8	-50.5	14.0	3.80e-06	0	39	0	774897664	65	5460
2026-01-13 22:42:22.58	130.60	25.58	-46.7	-50.3	14.3	1.50e-06	0	39	0	776994816	65	5307
2026-01-13 22:42:23.43	130.81	25.50	-46.8	-50.6	14.0	1.50e-06	0	39	0	778043392	65	5469
2026-01-13 22:42:24.57	131.08	25.39	-46.6	-50.2	14.3	3.00e-06	0	39	0	780140544	65	5265
2026-01-13 22:42:25.42	131.29	25.31	-46.3	-49.7	14.9	7.00e-07	0	39	0	782237696	64	5237
2026-01-13 22:42:26.55	131.56	25.21	-46.0	-49.2	15.4	0.00e+00	0	39	0	784334848	63	5263
2026-01-13 22:42:27.40	131.76	25.13	-46.0	-49.3	15.4	0.00e+00	0	39	0	785383424	63	5282
2026-01-13 22:42:28.54	132.03	25.02	-46.0	-49.1	15.5	0.00e+00	0	39	0	787480576	63	5218
2026-01-13 22:42:29.40	132.24	24.93	-46.2	-49.5	15.1	0.00e+00	0	39	0	789577728	63	5450
2026-01-13 22:42:30.53	132.50	24.83	-46.7	-50.3	14.4	1.50e-06	0	39	0	791674880	63	5958
2026-01-13 22:42:31.38	132.70	24.75	-46.7	-50.5	14.1	0.00e+00	0	39	0	792723456	64	5724
2026-01-13 22:42:32.57	132.97	24.63	-46.4	-49.9	14.6	7.00e-07	0	39	0	795869184	64	5390
2026-01-13 22:42:33.42	133.17	24.55	-45.5	-48.8	15.3	0.00e+00	0	39	0	796917760	63	5032
2026-01-13 22:42:34.56	133.43	24.44	-45.6	-48.6	16.0	0.00e+00	0	39	0	799014912	63	4908
2026-01-13 22:42:35.41	133.62	24.36	-45.6	-48.7	16.0	0.00e+00	0	39	0	801112064	63	4938
2026-01-13 22:42:36.55	133.88	24.25	-45.7	-48.7	15.9	0.00e+00	0	39	0	803209216	63	4982
2026-01-13 22:42:37.40	134.07	24.17	-45.9	-49.1	15.5	0.00e+00	0	39	0	804257792	63	5204
2026-01-13 22:42:38.54	134.33	24.06	-46.3	-49.7	14.9	0.00e+00	0	39	0	806354944	63	5570
2026-01-13 22:42:39.39	134.52	23.97	-46.3	-49.8	14.8	0.00e+00	0	39	0	808452096	63	5656
2026-01-13 22:42:40.53	134.77	23.86	-46.1	-49.4	15.2	0.00e+00	0	39	0	810549248	63	5387
2026-01-13 22:42:41.38	134.96	23.78	-45.8	-49.1	15.5	0.00e+00	0	39	0	811597824	63	5193
2026-01-13 22:42:42.52	135.21	23.67	-45.7	-48.9	15.8	0.00e+00	0	39	0	813694976	63	5042
2026-01-13 22:42:43.37	135.39	23.59	-45.6	-48.8	15.8	0.00e+00	0	39	0	815792128	63	4997
2026-01-13 22:42:44.51	135.64	23.48	-45.6	-48.8	15.9	0.00e+00	0	39	0	817889280	63	4991
2026-01-13 22:42:45.36	135.82	23.40	-45.9	-49.1	15.5	0.00e+00	0	39	0	818937856	63	5201
2026-01-13 22:42:46.50	136.06	23.29	-46.0	-49.3	15.4	0.00e+00	0	39	0	821035008	63	5290
2026-01-13 22:42:47.35	136.24	23.20	-46.2	-49.5	15.1	0.00e+00	0	39	0	823132160	63	5444
2026-01-13 22:42:48.49	136.48	23.09	-46.0	-49.2	15.4	0.00e+00	0	39	0	825229312	63	5268
2026-01-13 22:42:49.34	136.66	23.01	-45.8	-48.9	15.7	0.00e+00	0	39	0	827326464	63	5071
2026-01-13 22:42:50.48	136.90	22.90	-45.6	-48.6	15.9	0.00e+00	0	39	0	829423616	63	4926
2026-01-13 22:42:51.33	137.07	22.82	-45.4	-48.3	16.3	0.00e+00	0	39	0	830472192	62	5021
2026-01-13 22:42:52.47	137.31	22.71	-45.2	-48.1	16.4	0.00e+00	0	39	0	832569344	62	4923
2026-01-13 22:42:53.32	137.48	22.62	-45.2	-48.1	16.4	0.00e+00	0	39	0	834666496	62	4876
2026-01-13 22:42:54.46	137.71	22.51	-45.3	-48.3	16.3	0.00e+00	0	39	0	836763648	62	5018
2026-01-13 22:42:55.31	137.88	22.43	-45.4	-48.4	16.2	0.00e+00	0	39	0	837812224	62	5083
2026-01-13 22:42:56.45	138.11	22.32	-45.3	-48.3	16.3	0.00e+00	0	39	0	839909376	62	5025
2026-01-13 22:42:57.30	138.28	22.24	-45.3	-48.2	16.3	0.00e+00	0	39	0	842006528	62	4981
2026-01-13 22:42:58.44	138.51	22.13	-45.2	-48.0	16.5	0.00e+00	0	39	0	844103680	62	4863
2026-01-13 22:42:59.29	138.67	22.04	-45.1	-47.9	16.7	0.00e+00	0	39	0	845152256	62	4787
2026-01-13 22:43:00.43	138.90	21.93	-44.9	-47.7	16.8	0.00e+00	0	39	0	847249408	61	4963
2026-01-13 22:43:01.28	139.06	21.85	-44.7	-47.5	17.1	0.00e+00	0	39	0	849346560	61	4824
2026-01-13 22:43:02.42	139.28	21.74	-44.7	-47.4	17.2	0.00e+00	0	39	0	851443712	61	4768
2026-01-13 22:43:03.28	139.45	21.66	-44.7	-47.4	17.2	0.00e+00	0	39	0	852492288	61	4775
2026-01-13 22:43:04.41	139.66	21.55	-44.7	-47.5	17.1	0.00e+00	0	39	0	855638016	61	4829
2026-01-13 22:43:05.26	139.83	21.46	-44.8	-47.6	16.9	0.00e+00	0	39	0	856686592	61	4890
2026-01-13 22:43:06.51	140.06	21.34	-44.7	-47.5	17.0	0.00e+00	0	39	0	858783744	61	4830
2026-01-13 22:43:07.36	140.22	21.26	-44.7	-47.5	17.0	0.00e+00	0	39	0	860880896	61	4838
2026-01-13 22:43:08.50	140.43	21.15	-44.6	-47.3	17.1	0.00e+00	0	39	0	862978048	61	4755
2026-01-13 22:43:09.35	140.59	21.07	-44.6	-47.3	17.2	0.00e+00	0	39	0	864026624	61	4753
2026-01-13 22:43:10.61	140.82	20.95	-44.7	-47.5	17.0	0.00e+00	0	39	0	867172352	61	4830
2026-01-13 22:43:11.40	140.97	20.87	-44.5	-47.2	17.3	0.00e+00	0	39	0	868220928	61	4693
2026-01-13 22:43:12.68	141.20	20.75	-44.6	-47.3	17.2	0.00e+00	0	39	0	870318080	61	4730
2026-01-13 22:43:13.39	141.33	20.68	-44.6	-47.4	17.2	0.00e+00	0	39	0	872415232	61	4767
2026-01-13 22:43:14.67	141.56	20.56	-44.7	-47.4	17.1	0.00e+00	0	39	0	874512384	61	4789
2026-01-13 22:43:15.39	141.69	20.49	-44.7	-47.5	17.1	0.00e+00	0	39	0	875560960	61	4818
2026-01-13 22:43:16.67	141.91	20.37	-44.6	-47.4	17.2	0.00e+00	0	39	0	877658112	61	4761
2026-01-13 22:43:17.41	142.04	20.29	-44.6	-47.4	17.1	0.00e+00	0	39	0	879755264	61	4769
2026-01-13 22:43:18.69	142.27	20.17	-44.5	-47.2	17.3	0.00e+00	0	39	0	881852416	61	4695
2026-01-13 22:43:19.41	142.39	20.10	-44.5	-47.1	17.4	0.00e+00	0	39	0	882900992	61	4630
2026-01-13 22:43:20.69	142.62	19.98	-44.5	-47.1	17.3	0.00e+00	0	39	0	886046720	60	4923
2026-01-13 22:43:21.53	142.76	19.90	-44.4	-47.0	17.5	0.00e+00	0	39	0	887095296	60	4846
2026-01-13 22:43:22.67	142.96	19.79	-44.4	-47.0	17.5	0.00e+00	0	39	0	889192448	60	4868
2026-01-13 22:43:23.52	143.10	19.71	-44.4	-47.1	17.4	0.00e+00	0	39	0	891289600	60	4912
2026-01-13 22:43:24.66	143.29	19.60	-44.6	-47.4	17.1	0.00e+00	0	39	0	893386752	60	5072
2026-01-13 22:43:25.51	143.44	19.52	-44.9	-47.7	16.8	0.00e+00	0	39	0	894435328	60	5273
2026-01-13 22:43:26.64	143.62	19.41	-45.1	-48.0	16.5	0.00e+00	0	39	0	896532480	60	5446
2026-01-13 22:43:27.50	143.77	19.33	-45.2	-48.2	16.3	0.00e+00	0	39	0	898629632	60	5558
2026-01-13 22:43:28.63	143.95	19.23	-45.2	-48.3	16.3	0.00e+00	0	39	0	900726784	61	5291
2026-01-13 22:43:29.49	144.09	19.14	-45.3	-48.4	16.1	0.00e+00	0	39	0	901775360	61	5363
2026-01-13 22:43:30.62	144.28	19.04	-45.2	-48.4	16.1	0.00e+00	0	39	0	903872512	61	5365
2026-01-13 22:43:31.90	144.49	18.92	-45.1	-48.2	16.3	0.00e+00	0	39	0	907018240	61	5248
2026-01-13 22:43:32.65	144.61	18.85	-45.1	-48.2	16.3	0.00e+00	0	39	0	908066816	61	5239
2026-01-13 22:43:33.93	144.81	18.73	-45.3	-48.3	16.1	0.00e+00	0	39	0	910163968	61	5339
2026-01-13 22:43:34.64	144.92	18.66	-45.1	-48.1	16.4	0.00e+00	0	39	0	912261120	61	5199
2026-01-13 22:43:35.93	145.13	18.54	-45.2	-48.2	16.3	0.00e+00	0	39	0	914358272	61	5225
2026-01-13 22:43:36.65	145.24	18.47	-45.1	-48.0	16.5	0.00e+00	0	39	0	915406848	61	5141
2026-01-13 22:43:38.03	145.46	18.34	-45.2	-48.3	16.3	0.00e+00	0	39	0	918552576	61	5281
2026-01-13 22:43:38.74	145.57	18.28	-45.3	-48.4	16.2	0.00e+00	0	39	0	919601152	61	5343
2026-01-13 22:43:40.02	145.76	18.16	-45.3	-48.3	16.2	0.00e+00	0	39	0	921698304	61	5282
2026-01-13 22:43:40.74	145.87	18.09	-45.2	-48.2	16.3	0.00e+00	0	39	0	923795456	61	5253
2026-01-13 22:43:42.13	146.08	17.96	-45.2	-48.2	16.3	0.00e+00	0	39	0	925892608	61	5219
2026-01-13 22:43:42.84	146.19	17.90	-45.2	-48.1	16.3	0.00e+00	0	39	0	926941184	61	5215
2026-01-13 22:43:44.12	146.38	17.78	-45.3	-48.2	16.2	0.00e+00	0	39	0	929038336	61	5278
2026-01-13 22:43:45.18	146.54	17.68	-45.4	-48.4	16.1	0.00e+00	0	39	0	931135488	61	5370
2026-01-13 22:43:46.36	146.72	17.57	-45.5	-48.6	15.8	0.00e+00	0	39	0	934281216	61	5517
2026-01-13 22:43:47.36	146.87	17.48	-45.4	-48.5	16.0	0.00e+00	0	39	0	935329792	61	5429
2026-01-13 22:43:48.35	147.01	17.39	-45.5	-48.6	15.8	0.00e+00	0	39	0	937426944	61	5524
2026-01-13 22:43:49.34	147.16	17.30	-45.7	-48.9	15.6	0.00e+00	0	39	0	939524096	62	5374
2026-01-13 22:43:50.34	147.30	17.21	-45.7	-48.9	15.6	0.00e+00	0	39	0	941621248	62	5351
2026-01-13 22:43:51.33	147.44	17.12	-45.8	-49.0	15.6	0.00e+00	0	39	0	942669824	62	5409
2026-01-13 22:43:52.33	147.59	17.03	-45.8	-49.1	15.4	0.00e+00	0	39	0	944766976	62	5469
2026-01-13 22:43:53.32	147.73	16.94	-45.7	-48.9	15.6	0.00e+00	0	39	0	946864128	62	5382
2026-01-13 22:43:54.32	147.87	16.85	-45.8	-49.1	15.4	0.00e+00	0	39	0	948961280	62	5481
2026-01-13 22:43:55.32	148.01	16.76	-45.9	-49.2	15.3	0.00e+00	0	39	0	951058432	62	5579
2026-01-13 22:43:56.31	148.15	16.67	-45.9	-49.3	15.2	7.00e-07	0	39	0	952107008	62	5612
2026-01-13 22:43:57.30	148.29	16.58	-46.1	-49.6	14.9	0.00e+00	0	39	0	954204160	62	5830
2026-01-13 22:43:58.30	148.42	16.49	-46.2	-49.7	14.8	0.00e+00	0	39	0	956301312	62	5897
2026-01-13 22:43:59.30	148.56	16.40	-46.3	-50.0	14.5	0.00e+00	0	39	0	958398464	63	5741
2026-01-13 22:44:00.29	148.70	16.31	-46.5	-50.1	14.4	7.00e-07	0	39	0	959447040	63	5850
2026-01-13 22:44:01.36	148.84	16.21	-46.4	-50.0	14.5	0.00e+00	0	39	0	961544192	63	5766
2026-01-13 22:44:02.22	148.96	16.14	-46.4	-50.0	14.5	7.00e-07	0	39	0	963641344	63	5764
2026-01-13 22:44:03.56	149.14	16.02	-46.2	-49.6	14.8	0.00e+00	0	39	0	965738496	63	5519
2026-01-13 22:44:04.27	149.23	15.95	-46.2	-49.6	14.8	0.00e+00	0	39	0	967835648	63	5520
2026-01-13 22:44:05.74	149.43	15.82	-45.9	-49.3	15.2	0.00e+00	0	39	0	969932800	63	5305
2026-01-13 22:44:06.45	149.52	15.76	-45.8	-49.2	15.3	0.00e+00	0	39	0	970981376	63	5236
2026-01-13 22:44:07.73	149.69	15.65	-45.7	-49.1	15.3	0.00e+00	0	39	0	974127104	63	5184
2026-01-13 22:44:08.45	149.78	15.59	-45.7	-49.2	15.3	0.00e+00	0	39	0	975175680	63	5223
2026-01-13 22:44:09.73	149.95	15.47	-45.8	-49.2	15.3	0.00e+00	0	39	0	977272832	63	5242
2026-01-13 22:44:10.46	150.04	15.41	-45.7	-49.2	15.3	0.00e+00	0	39	0	979369984	63	5241
2026-01-13 22:44:11.74	150.21	15.30	-46.0	-49.5	14.9	0.00e+00	0	39	0	981467136	63	5464
2026-01-13 22:44:12.46	150.30	15.23	-46.1	-49.7	14.8	0.00e+00	0	39	0	982515712	63	5562
2026-01-13 22:44:13.74	150.46	15.12	-46.2	-49.9	14.6	7.00e-07	0	39	0	985661440	63	5667
2026-01-13 22:44:14.48	150.55	15.06	-46.4	-50.0	14.5	0.00e+00	0	39	0	986710016	63	5772
2026-01-13 22:44:15.76	150.71	14.95	-46.2	-49.8	14.6	1.50e-06	0	39	0	988807168	63	5636
2026-01-13 22:44:16.47	150.80	14.88	-46.3	-49.8	14.6	7.00e-07	0	39	0	989855744	63	5654
2026-01-13 22:44:17.75	150.96	14.77	-46.1	-49.6	14.8	0.00e+00	0	39	0	993001472	63	5527
2026-01-13 22:44:18.46	151.05	14.71	-45.9	-49.4	15.1	0.00e+00	0	39	0	994050048	63	5342
2026-01-13 22:44:19.74	151.21	14.60	-45.8	-49.2	15.2	0.00e+00	0	39	0	996147200	63	5243
2026-01-13 22:44:20.67	151.32	14.52	-45.7	-49.0	15.3	0.00e+00	0	39	0	998244352	63	5153
2026-01-13 22:44:21.95	151.47	14.41	-45.7	-49.1	15.3	0.00e+00	0	39	0	1000341504	63	5171
2026-01-13 22:44:22.68	151.56	14.35	-45.7	-49.0	15.4	0.00e+00	0	39	0	1001390080	63	5152
2026-01-13 22:44:24.27	151.75	14.22	-45.7	-49.2	15.2	0.00e+00	0	39	0	1004535808	63	5236
2026-01-13 22:44:24.84	151.82	14.17	-45.8	-49.3	15.1	0.00e+00	0	39	0	1005584384	63	5327
2026-01-13 22:44:26.72	152.04	14.01	-46.0	-49.6	14.9	0.00e+00	0	39	0	1009778688	63	5501
2026-01-13 22:44:27.29	152.11	13.96	-46.2	-49.8	14.6	0.00e+00	0	39	0	1010827264	63	5635
2026-01-13 22:44:28.99	152.31	13.82	-46.2	-49.9	14.5	1.50e-06	0	39	0	1013972992	63	5705
2026-01-13 22:44:29.56	152.37	13.77	-46.3	-50.0	14.4	7.00e-07	0	39	0	1015021568	63	5751
2026-01-13 22:44:31.27	152.57	13.62	-46.2	-49.9	14.5	2.20e-06	0	39	0	1018167296	63	5711
2026-01-13 22:44:31.84	152.63	13.58	-46.2	-49.9	14.5	1.50e-06	0	39	0	1019215872	63	5691
2026-01-13 22:44:33.55	152.83	13.43	-46.0	-49.6	14.8	1.50e-06	0	39	0	1022361600	63	5514
2026-01-13 22:44:34.11	152.89	13.39	-45.8	-49.2	15.1	0.00e+00	0	39	0	1023410176	63	5275
2026-01-13 22:44:35.80	153.08	13.25	-45.6	-49.1	15.3	0.00e+00	0	39	0	1026555904	63	5167
2026-01-13 22:44:36.37	153.15	13.20	-45.5	-48.9	15.5	0.00e+00	0	39	0	1027604480	63	5078
2026-01-13 22:44:38.06	153.33	13.06	-45.5	-48.8	15.5	0.00e+00	0	39	0	1030750208	62	5308
2026-01-13 22:44:38.63	153.40	13.01	-45.4	-48.7	15.6	0.00e+00	0	39	0	1031798784	62	5274
2026-01-13 22:44:40.34	153.58	12.87	-45.3	-48.6	15.8	0.00e+00	0	39	0	1034944512	62	5180
2026-01-13 22:44:40.91	153.65	12.82	-45.3	-48.5	15.8	0.00e+00	0	39	0	1035993088	62	5133
2026-01-13 22:44:42.61	153.83	12.69	-45.5	-48.8	15.6	0.00e+00	0	39	0	1039138816	62	5288
2026-01-13 22:44:43.55	153.93	12.61	-45.7	-49.0	15.3	7.00e-07	0	39	0	1041235968	62	5464
2026-01-13 22:44:44.54	154.04	12.53	-45.6	-49.0	15.4	0.00e+00	0	39	0	1043333120	62	5408
2026-01-13 22:44:45.54	154.14	12.45	-45.7	-49.1	15.2	0.00e+00	0	39	0	1044381696	62	5513
2026-01-13 22:44:46.53	154.25	12.37	-45.9	-49.4	15.0	0.00e+00	0	39	0	1046478848	62	5698
2026-01-13 22:44:47.53	154.35	12.29	-45.8	-49.4	14.9	0.00e+00	0	39	0	1048576000	62	5701
2026-01-13 22:44:48.52	154.46	12.21	-46.0	-49.7	14.7	0.00e+00	0	39	0	1050673152	62	5873
2026-01-13 22:44:49.52	154.56	12.12	-45.9	-49.6	14.7	0.00e+00	0	39	0	1051721728	62	5827
2026-01-13 22:44:50.51	154.66	12.05	-46.0	-49.7	14.6	7.00e-07	0	39	0	1053818880	62	5903
2026-01-13 22:44:51.51	154.77	11.96	-46.0	-49.7	14.6	0.00e+00	0	39	0	1055916032	62	5887
2026-01-13 22:44:52.50	154.87	11.89	-46.0	-49.6	14.7	1.50e-06	0	39	0	1058013184	62	5847
2026-01-13 22:44:53.50	154.97	11.81	-45.9	-49.5	14.8	0.00e+00	0	39	0	1060110336	62	5782
2026-01-13 22:44:54.49	155.07	11.73	-45.9	-49.4	14.7	0.00e+00	0	39	0	1061158912	62	5701
2026-01-13 22:44:55.49	155.17	11.65	-45.9	-49.3	15.0	0.00e+00	0	39	0	1063256064	62	5646
2026-01-13 22:44:56.48	155.27	11.57	-45.9	-49.4	14.9	0.00e+00	0	39	0	1065353216	62	5685
2026-01-13 22:44:57.48	155.37	11.49	-45.8	-49.1	15.2	7.36e-04	0	39	0	1067450368	62	5515
2026-01-13 22:44:58.47	155.47	11.41	-45.8	-49.2	15.1	0.00e+00	0	39	0	1068498944	62	5562
2026-01-13 22:44:59.46	155.57	11.33	-45.8	-49.3	15.1	7.00e-07	0	39	0	1070596096	62	5593
2026-01-13 22:45:00.46	155.66	11.26	-45.9	-49.3	15.0	1.33e-02	0	39	0	1072693248	62	5611
2026-01-13 22:45:01.45	155.76	11.18	-45.9	-49.2	15.1	7.00e-07	0	39	0	1074790400	62	5588
2026-01-13 22:45:02.49	155.86	11.10	-45.9	-49.3	15.0	0.00e+00	0	39	0	1076887552	62	5618
2026-01-13 22:45:03.45	155.95	11.02	-45.8	-49.2	15.1	0.00e+00	0	39	0	1077936128	62	5571
2026-01-13 22:45:04.51	156.06	10.94	-45.9	-49.3	15.0	0.00e+00	0	39	0	1080033280	62	5640
2026-01-13 22:45:05.38	156.14	10.87	-45.9	-49.4	14.9	0.00e+00	0	39	0	1082130432	62	5691
2026-01-13 22:45:06.71	156.27	10.77	-46.0	-49.6	14.7	7.00e-07	0	39	0	1084227584	62	5789
2026-01-13 22:45:07.42	156.33	10.71	-46.0	-49.5	14.7	0.00e+00	0	39	0	1085276160	62	5787
2026-01-13 22:45:08.70	156.45	10.61	-46.0	-49.4	14.8	1.32e-02	0	39	0	1088421888	63	5381
2026-01-13 22:45:09.42	156.52	10.56	-45.9	-49.4	14.9	6.80e-06	0	39	0	1089470464	63	5367
2026-01-13 22:45:10.70	156.64	10.46	-46.0	-49.5	14.8	0.00e+00	0	39	0	1091567616	63	5438
2026-01-13 22:45:11.43	156.71	10.40	-46.0	-49.4	14.9	0.00e+00	0	39	0	1093664768	63	5372
2026-01-13 22:45:12.71	156.83	10.31	-46.1	-49.5	14.7	0.00e+00	0	39	0	1095761920	63	5455
2026-01-13 22:45:13.42	156.89	10.25	-46.1	-49.6	14.6	7.00e-07	0	39	0	1096810496	63	5515
2026-01-13 22:45:14.70	157.01	10.16	-46.0	-49.5	14.7	0.00e+00	0	40	0	1098907648	63	5425
2026-01-13 22:45:15.41	157.08	10.10	-46.0	-49.5	14.7	0.00e+00	0	39	0	1101004800	63	5427
2026-01-13 22:45:16.69	157.19	10.00	-45.9	-49.4	14.8	0.00e+00	0	39	0	1103101952	63	5371
2026-01-13 22:45:17.42	157.26	9.95	-46.1	-49.7	14.5	9.01e-03	0	39	0	1104150528	63	5536
2026-01-13 22:45:18.73	157.37	9.85	-46.1	-49.7	14.6	7.00e-07	0	39	0	1107296256	63	5530
2026-01-13 22:45:19.44	157.44	9.80	-46.1	-49.7	14.5	7.00e-07	0	39	0	1108344832	63	5537
2026-01-13 22:45:20.71	157.55	9.70	-46.1	-49.7	14.5	1.31e-02	0	39	0	1110441984	63	5563
2026-01-13 22:45:21.44	157.62	9.65	-46.1	-49.7	14.5	7.00e-07	0	39	0	1111490560	63	5574
2026-01-13 22:45:22.72	157.73	9.55	-46.2	-49.8	14.4	7.00e-07	0	39	0	1114636288	63	5601
2026-01-13 22:45:23.46	157.79	9.50	-46.2	-49.8	14.4	2.03e-02	0	39	0	1115684864	63	5630
2026-01-13 22:45:24.74	157.90	9.40	-46.3	-50.0	14.2	7.00e-07	0	39	0	1117782016	63	5729
2026-01-13 22:45:25.45	157.97	9.35	-46.3	-50.0	14.2	1.50e-06	0	40	0	1119879168	63	5778
2026-01-13 22:45:26.72	158.08	9.25	-46.3	-50.1	14.0	1.50e-06	0	39	0	1121976320	64	5504
2026-01-13 22:45:27.48	158.14	9.20	-46.3	-50.1	14.0	1.50e-06	0	39	0	1123024896	64	5490
2026-01-13 22:45:28.76	158.25	9.10	-46.9	-50.7	9.1	3.00e-06	0	39	0	1126170624	64	5911
2026-01-13 22:45:29.54	158.32	9.05	-46.3	-50.2	13.9	3.04e-02	0	39	0	1127219200	64	5529
2026-01-13 22:45:30.81	158.42	8.95	-49.3	-57.5	7.6	1.50e-06	0	39	0	1129316352	69	9619
2026-01-13 22:45:31.54	158.48	8.90	-50.2	-65.3	3.8	1.49e+00	0	39	104	1129316352	71	21133
2026-01-13 22:45:32.82	158.59	8.81	-50.1	-65.6	3.8	1.49e+00	0	39	104	1129316352	71	21960
2026-01-13 22:45:33.53	158.65	8.75	-50.3	-65.8	3.8	1.49e+00	0	39	104	1129316352	71	22476
2026-01-13 22:45:34.80	158.76	8.66	-50.6	-65.9	3.8	1.49e+00	0	39	104	1129316352	71	22669
2026-01-13 22:45:35.51	158.82	8.61	-50.6	-65.9	3.8	1.49e+00	0	39	104	1129316352	72	21495
2026-01-13 22:45:36.79	158.92	8.52	-50.3	-66.0	3.8	1.49e+00	0	40	104	1129316352	72	21712
2026-01-13 22:45:37.50	158.98	8.47	-50.8	-66.0	3.8	1.49e+00	0	39	104	1129316352	72	21727
2026-01-13 22:45:38.82	159.09	8.37	-50.8	-66.0	3.8	1.49e+00	0	39	104	1129316352	72	21754
2026-01-13 22:45:39.53	159.14	8.32	-50.9	-66.1	3.8	1.49e+00	0	39	104	1129316352	72	21894
2026-01-13 22:45:40.87	159.25	8.22	-50.9	-66.1	3.8	1.49e+00	0	39	104	1129316352	72	21876
2026-01-13 22:45:41.58	159.31	8.17	-51.0	-66.1	3.8	1.49e+00	0	39	104	1129316352	72	21979
2026-01-13 22:45:42.86	159.41	8.08	-51.0	-66.2	3.8	1.49e+00	0	40	104	1129316352	72	22040
2026-01-13 22:45:43.57	159.47	8.03	-50.9	-66.2	3.8	1.49e+00	0	40	104	1129316352	72	22060
2026-01-13 22:45:44.85	159.57	7.94	-51.1	-66.2	3.8	1.49e+00	0	39	104	1129316352	72	22093
2026-01-13 22:45:45.56	159.62	7.89	-50.9	-66.2	3.8	1.49e+00	0	39	104	1129316352	72	22057
2026-01-13 22:45:46.84	159.72	7.80	-50.8	-66.2	3.8	1.49e+00	0	39	104	1129316352	72	22089
2026-01-13 22:45:47.56	159.78	7.75	-51.0	-66.2	3.8	1.49e+00	0	39	104	1129316352	72	22061
2026-01-13 22:45:48.84	159.88	7.66	-51.0	-66.2	3.8	1.49e+00	0	39	104	1129316352	72	22079
2026-01-13 22:45:49.55	159.93	7.61	-51.1	-66.2	3.8	1.49e+00	0	39	104	1129316352	72	22117
2026-01-13 22:45:50.87	160.04	7.51	-51.0	-66.2	3.8	1.49e+00	0	39	104	1129316352	72	22145
2026-01-13 22:45:51.58	160.09	7.47	-50.9	-66.2	3.8	1.49e+00	0	39	104	1129316352	72	22145
2026-01-13 22:45:52.86	160.19	7.38	-51.0	-66.2	3.8	1.49e+00	0	39	104	1129316352	72	22102
2026-01-13 22:45:53.57	160.24	7.33	-51.0	-66.2	3.8	1.49e+00	0	39	104	1129316352	72	22009
2026-01-13 22:45:54.84	160.34	7.24	-50.7	-66.2	3.8	1.49e+00	0	39	104	1129316352	72	22054
2026-01-13 22:45:55.55	160.39	7.19	-50.7	-66.2	3.8	1.49e+00	0	39	104	1129316352	72	22046
2026-01-13 22:45:56.83	160.49	7.10	-50.7	-66.1	3.8	1.49e+00	0	39	104	1129316352	72	21932
2026-01-13 22:45:57.54	160.54	7.05	-50.7	-66.1	3.8	1.49e+00	0	39	104	1129316352	72	21875
2026-01-13 22:45:58.82	160.63	6.96	-50.7	-66.1	3.8	1.49e+00	0	39	104	1129316352	72	21787
2026-01-13 22:45:59.53	160.69	6.91	-50.7	-66.1	3.8	1.49e+00	0	39	104	1129316352	72	21902
2026-01-13 22:46:00.81	160.78	6.82	-50.7	-66.1	3.8	1.49e+00	0	39	104	1129316352	72	21846
2026-01-13 22:46:01.52	160.83	6.78	-50.7	-66.1	3.8	1.49e+00	0	39	104	1129316352	72	21975
2026-01-13 22:46:02.79	160.93	6.69	-50.7	-66.1	3.8	1.49e+00	0	39	104	1129316352	72	21861
2026-01-13 22:46:03.52	160.98	6.64	-50.7	-66.1	3.8	1.49e+00	0	39	104	1129316352	72	21888
2026-01-13 22:46:04.80	161.07	6.55	-50.7	-66.1	3.8	1.49e+00	0	39	104	1129316352	72	21935
2026-01-13 22:46:05.52	161.12	6.50	-50.7	-66.1	3.8	1.49e+00	0	39	104	1129316352	72	21807
2026-01-13 22:46:06.80	161.21	6.42	-50.7	-66.1	3.8	1.49e+00	0	39	104	1129316352	72	21867
2026-01-13 22:46:07.52	161.27	6.37	-50.7	-66.1	3.8	1.49e+00	0	39	104	1129316352	72	21908
2026-01-13 22:46:08.80	161.36	6.28	-50.7	-66.1	3.8	1.49e+00	0	39	104	1129316352	72	21818
