passes_logs/2026/01/13/T1/T1__20260113_010753_AQUA_rec.log

#Pass ID: 20260113_010753_AQUA
#Satellite: AQUA
#Configuration: AQUA
#almurnet v.1.7.20251203
#Start time: 2026-01-13 01:07:53

#Version: 2.0.20230620
#Station: T1
#Location: 37.570604 lon 55.790049 lat
#TLE: 1 27424U 02022A   26012.29577270  .00001027  00000+0  21555-3 0  9995
#TLE: 2 27424  98.4078 338.6778 0002034  81.5885  29.6294 14.61817302260499

#Time	Az	El	Level	Level2	SNR	BER	BlckErr	Temp	State	Recorded	gain1	gain2
2026-01-13 01:07:53.20	17.92	5.00	-50.3	-71.8	3.8	7.44e-01	0	37	0	0	71	44542
2026-01-13 01:07:54.19	17.94	5.07	-50.2	-71.7	3.8	7.43e-01	0	37	104	0	71	44269
2026-01-13 01:07:55.19	17.96	5.15	-50.2	-71.6	3.8	7.44e-01	0	37	104	0	71	43617
2026-01-13 01:07:56.18	17.98	5.22	-50.2	-71.5	3.8	7.44e-01	0	37	104	0	71	43127
2026-01-13 01:07:57.17	18.00	5.29	-50.2	-71.2	3.8	7.43e-01	0	37	104	0	71	41768
2026-01-13 01:07:58.16	18.02	5.37	-50.2	-70.9	3.8	7.45e-01	0	38	104	0	71	40102
2026-01-13 01:07:59.16	18.04	5.44	-50.2	-70.3	3.8	7.48e-01	0	37	104	0	71	37729
2026-01-13 01:08:00.15	18.06	5.52	-50.2	-70.0	3.8	7.48e-01	0	37	104	0	71	36518
2026-01-13 01:08:01.14	18.08	5.59	-50.2	-69.2	3.8	7.41e-01	0	38	104	0	71	33255
2026-01-13 01:08:02.14	18.10	5.67	-50.2	-69.2	4.0	7.44e-01	0	38	104	0	71	33196
2026-01-13 01:08:03.13	18.12	5.75	-50.2	-68.3	4.2	7.35e-01	0	38	104	0	71	29940
2026-01-13 01:08:04.12	18.14	5.82	-50.2	-68.2	3.9	7.42e-01	0	38	104	0	71	29425
2026-01-13 01:08:05.12	18.16	5.90	-50.2	-67.6	4.4	7.32e-01	0	38	104	0	71	27557
2026-01-13 01:08:06.11	18.18	5.97	-50.2	-68.4	3.9	7.43e-01	0	38	104	0	71	30349
2026-01-13 01:08:07.10	18.20	6.05	-50.1	-68.4	4.1	7.42e-01	0	38	104	0	71	30263
2026-01-13 01:08:08.09	18.22	6.13	-50.1	-68.2	4.2	7.35e-01	0	38	104	0	71	29364
2026-01-13 01:08:09.09	18.24	6.21	-50.1	-68.6	4.0	7.39e-01	0	38	104	0	71	30757
2026-01-13 01:08:10.08	18.27	6.28	-50.1	-69.3	3.9	7.46e-01	0	38	104	0	71	33515
2026-01-13 01:08:11.07	18.29	6.36	-50.2	-70.1	3.8	7.43e-01	0	38	104	0	71	36551
2026-01-13 01:08:12.06	18.31	6.44	-50.2	-70.4	3.8	7.46e-01	0	38	104	0	71	38031
2026-01-13 01:08:13.06	18.33	6.52	-50.2	-70.6	3.8	7.46e-01	0	38	104	0	71	38870
2026-01-13 01:08:14.05	18.35	6.60	-50.1	-70.3	3.8	7.49e-01	0	38	104	0	71	37708
2026-01-13 01:08:15.04	18.37	6.67	-50.1	-70.0	3.8	7.49e-01	0	38	104	0	71	36148
2026-01-13 01:08:16.04	18.39	6.75	-50.1	-69.4	3.8	7.45e-01	0	38	104	0	71	33984
2026-01-13 01:08:17.03	18.41	6.83	-50.1	-69.0	4.0	7.39e-01	0	38	104	0	71	32318
2026-01-13 01:08:18.02	18.43	6.91	-50.2	-68.4	4.1	7.37e-01	0	38	104	0	71	30354
2026-01-13 01:08:19.02	18.46	6.99	-50.2	-68.4	3.9	7.39e-01	0	38	104	0	71	30105
2026-01-13 01:08:20.01	18.48	7.07	-50.2	-68.4	4.1	7.42e-01	0	38	104	0	71	30041
2026-01-13 01:08:21.00	18.50	7.15	-50.2	-67.6	4.4	7.28e-01	0	38	104	0	71	27626
2026-01-13 01:08:22.00	18.52	7.23	-50.1	-67.6	3.9	7.40e-01	0	38	104	0	71	27404
2026-01-13 01:08:22.99	18.54	7.31	-50.1	-66.6	4.8	7.19e-01	0	38	104	0	71	24528
2026-01-13 01:08:23.98	18.57	7.40	-50.0	-65.4	5.4	7.02e-01	0	39	0	0	71	21463
2026-01-13 01:08:24.97	18.59	7.48	-50.0	-64.6	6.0	6.90e-01	0	39	0	1048576	71	19474
2026-01-13 01:08:25.97	18.61	7.56	-49.9	-63.8	6.5	6.71e-01	0	39	0	3145728	71	17686
2026-01-13 01:08:26.96	18.63	7.64	-49.9	-62.9	7.4	6.57e-01	0	38	0	4718592	71	15973
2026-01-13 01:08:27.95	18.66	7.72	-49.9	-62.3	8.0	6.45e-01	0	39	0	6815744	71	15014
2026-01-13 01:08:28.95	18.68	7.81	-49.8	-61.6	8.8	6.35e-01	0	39	0	8388608	71	13821
2026-01-13 01:08:29.94	18.70	7.89	-49.8	-61.5	9.0	6.32e-01	0	39	0	10485760	71	13630
2026-01-13 01:08:30.93	18.72	7.97	-49.8	-61.7	8.8	6.33e-01	0	39	0	12058624	71	13943
2026-01-13 01:08:31.93	18.75	8.06	-49.8	-61.6	8.8	6.35e-01	0	39	0	14155776	71	13852
2026-01-13 01:08:32.92	18.77	8.14	-49.9	-61.8	8.7	6.36e-01	0	39	0	15728640	71	14120
2026-01-13 01:08:33.91	18.79	8.23	-49.9	-62.6	7.9	6.44e-01	0	39	0	17825792	71	15480
2026-01-13 01:08:34.91	18.82	8.31	-49.9	-62.8	7.7	6.50e-01	0	39	0	19398656	71	15798
2026-01-13 01:08:35.90	18.84	8.40	-50.0	-63.2	7.3	6.59e-01	0	39	0	21495808	71	16551
2026-01-13 01:08:36.89	18.86	8.48	-50.0	-63.5	7.0	6.64e-01	0	39	0	23592960	71	17105
2026-01-13 01:08:37.89	18.89	8.57	-50.0	-63.9	6.7	6.71e-01	0	39	0	25165824	71	17896
2026-01-13 01:08:38.88	18.91	8.65	-50.0	-64.2	6.3	6.78e-01	0	39	0	27262976	71	18684
2026-01-13 01:08:39.87	18.94	8.74	-50.0	-64.3	6.3	6.79e-01	0	39	0	28835840	71	18875
2026-01-13 01:08:40.87	18.96	8.83	-50.1	-65.0	5.8	6.94e-01	0	39	0	30408704	71	20475
2026-01-13 01:08:41.86	18.99	8.91	-50.1	-66.0	5.1	7.08e-01	0	39	0	30932992	71	22860
2026-01-13 01:08:42.85	19.01	9.00	-50.1	-67.3	4.0	7.39e-01	0	39	104	30932992	71	26472
2026-01-13 01:08:43.85	19.03	9.09	-50.2	-64.4	6.1	6.80e-01	0	39	0	30932992	71	19098
2026-01-13 01:08:44.84	19.06	9.18	-49.6	-64.7	6.2	6.84e-01	0	39	0	32505856	71	19653
2026-01-13 01:08:45.84	19.08	9.26	-50.1	-67.8	4.0	7.37e-01	0	39	104	33554432	71	28092
2026-01-13 01:08:46.83	19.11	9.35	-48.9	-69.2	3.9	7.44e-01	0	39	104	33554432	69	37148
2026-01-13 01:08:47.82	19.13	9.44	-48.3	-56.6	13.3	6.03e-01	0	39	104	33554432	68	9274
2026-01-13 01:08:48.82	19.16	9.53	-48.1	-55.5	15.2	6.01e-01	0	39	0	35127296	68	8120
2026-01-13 01:08:49.83	19.19	9.62	-48.1	-55.7	15.2	6.02e-01	0	39	0	36700160	68	8272
2026-01-13 01:08:50.84	19.21	9.71	-47.8	-54.7	16.0	6.01e-01	0	39	0	38797312	67	7825
2026-01-13 01:08:51.85	19.24	9.81	-47.6	-53.8	16.9	5.99e-01	0	39	0	40894464	67	7074
2026-01-13 01:08:52.88	19.26	9.90	-47.5	-53.1	17.6	6.05e-01	0	39	0	42467328	66	6903
2026-01-13 01:08:53.89	19.29	9.99	-47.5	-52.9	17.8	6.03e-01	0	39	0	44564480	66	6728
2026-01-13 01:08:54.94	19.32	10.09	-47.4	-52.8	17.8	6.03e-01	0	39	0	46661632	66	6715
2026-01-13 01:08:55.86	19.34	10.18	-47.3	-52.7	18.0	6.03e-01	0	39	0	48234496	66	6606
2026-01-13 01:08:57.00	19.37	10.28	-47.0	-52.2	18.4	6.02e-01	0	39	0	50331648	66	6216
2026-01-13 01:08:57.85	19.40	10.36	-46.8	-51.8	18.7	6.02e-01	0	39	0	51904512	65	6336
2026-01-13 01:08:58.99	19.43	10.47	-46.8	-51.7	18.9	6.03e-01	0	39	0	54001664	65	6243
2026-01-13 01:08:59.84	19.45	10.55	-46.8	-51.7	18.9	6.00e-01	0	39	0	55574528	65	6253
2026-01-13 01:09:00.98	19.48	10.66	-46.6	-51.3	19.3	6.00e-01	0	39	0	57671680	65	5931
2026-01-13 01:09:01.83	19.50	10.74	-46.4	-50.9	19.6	6.01e-01	0	39	0	59244544	64	6030
2026-01-13 01:09:02.96	19.54	10.84	-46.2	-50.5	19.9	6.05e-01	0	39	0	61341696	64	5768
2026-01-13 01:09:03.82	19.56	10.93	-46.1	-50.4	20.1	6.01e-01	0	39	0	62914560	64	5684
2026-01-13 01:09:04.95	19.59	11.04	-46.0	-50.3	20.2	6.02e-01	0	39	0	65011712	64	5603
2026-01-13 01:09:05.81	19.61	11.12	-46.0	-50.2	20.3	6.02e-01	0	39	0	66584576	64	5559
2026-01-13 01:09:06.95	19.65	11.23	-46.1	-50.2	20.3	6.02e-01	0	39	0	69206016	64	5590
2026-01-13 01:09:07.80	19.67	11.31	-46.0	-50.0	20.5	6.05e-01	0	39	0	70778880	64	5449
2026-01-13 01:09:08.97	19.70	11.43	-45.9	-50.0	20.6	6.02e-01	0	39	0	72876032	63	5756
2026-01-13 01:09:09.82	19.73	11.51	-45.9	-50.0	20.6	6.03e-01	0	39	0	74448896	63	5752
2026-01-13 01:09:10.96	19.76	11.62	-46.0	-50.1	20.6	6.02e-01	0	40	0	76546048	63	5798
2026-01-13 01:09:11.81	19.79	11.71	-46.1	-50.0	20.6	6.02e-01	0	39	0	78118912	63	5769
2026-01-13 01:09:12.95	19.82	11.82	-46.1	-50.2	20.5	5.99e-01	0	39	0	80216064	63	5856
2026-01-13 01:09:13.80	19.85	11.91	-46.0	-50.0	20.6	6.02e-01	0	39	0	81788928	63	5744
2026-01-13 01:09:14.94	19.88	12.02	-46.0	-49.9	20.7	6.01e-01	0	39	0	83886080	63	5677
2026-01-13 01:09:15.79	19.90	12.11	-46.0	-49.9	20.7	5.99e-01	0	39	0	85458944	63	5674
2026-01-13 01:09:16.93	19.94	12.22	-46.1	-50.0	20.6	6.00e-01	0	39	0	87556096	63	5749
2026-01-13 01:09:17.78	19.96	12.31	-46.1	-49.8	20.8	6.00e-01	0	39	0	89128960	63	5637
2026-01-13 01:09:18.91	20.00	12.42	-46.2	-50.0	20.6	6.01e-01	0	39	0	91750400	63	5753
2026-01-13 01:09:19.76	20.02	12.51	-46.0	-49.8	20.8	6.03e-01	0	39	0	93323264	63	5605
2026-01-13 01:09:20.90	20.06	12.63	-46.0	-49.8	20.7	6.01e-01	0	39	0	94896128	63	5642
2026-01-13 01:09:21.76	20.09	12.72	-46.0	-49.9	20.8	6.02e-01	0	39	0	96993280	63	5657
2026-01-13 01:09:22.89	20.12	12.84	-46.0	-49.9	20.7	6.03e-01	0	39	0	99090432	63	5714
2026-01-13 01:09:23.74	20.15	12.93	-46.0	-49.9	20.8	6.03e-01	0	39	0	100663296	63	5657
2026-01-13 01:09:25.01	20.19	13.06	-46.1	-50.0	20.6	6.01e-01	0	39	0	102760448	63	5772
2026-01-13 01:09:25.79	20.21	13.14	-46.0	-50.0	20.7	6.01e-01	0	39	0	104333312	63	5723
2026-01-13 01:09:27.17	20.26	13.29	-46.0	-49.9	20.7	6.03e-01	0	39	0	106954752	63	5705
2026-01-13 01:09:27.88	20.28	13.36	-45.8	-49.7	20.9	6.02e-01	0	39	0	108527616	63	5592
2026-01-13 01:09:29.24	20.33	13.51	-45.8	-49.7	21.0	6.01e-01	0	39	0	110624768	63	5554
2026-01-13 01:09:29.95	20.35	13.59	-45.8	-49.6	21.0	6.00e-01	0	40	0	112197632	63	5527
2026-01-13 01:09:31.23	20.39	13.73	-45.9	-49.7	21.0	6.02e-01	0	39	0	114294784	63	5567
2026-01-13 01:09:32.29	20.43	13.84	-45.9	-49.7	20.9	6.01e-01	0	39	0	116391936	63	5537
2026-01-13 01:09:33.17	20.46	13.94	-45.9	-49.7	21.0	6.00e-01	0	39	0	117964800	63	5531
2026-01-13 01:09:34.31	20.49	14.06	-45.8	-49.5	21.1	6.01e-01	0	39	0	120586240	63	5437
2026-01-13 01:09:35.16	20.52	14.16	-45.8	-49.6	21.0	5.99e-01	0	39	0	122159104	63	5527
2026-01-13 01:09:36.32	20.56	14.29	-45.7	-49.5	21.1	6.03e-01	0	40	0	124256256	63	5453
2026-01-13 01:09:37.17	20.59	14.38	-45.8	-49.6	21.0	6.03e-01	0	39	0	125829120	63	5513
2026-01-13 01:09:38.31	20.63	14.51	-45.7	-49.6	21.1	6.04e-01	0	39	0	127926272	63	5475
2026-01-13 01:09:39.16	20.66	14.61	-45.7	-49.6	21.1	6.01e-01	0	40	0	129499136	63	5467
2026-01-13 01:09:40.30	20.70	14.74	-45.7	-49.5	21.2	6.03e-01	0	39	0	131596288	63	5416
2026-01-13 01:09:41.17	20.73	14.84	-45.6	-49.4	21.2	6.01e-01	0	39	0	133169152	63	5394
2026-01-13 01:09:42.31	20.77	14.97	-45.5	-49.4	21.3	6.02e-01	0	40	0	135266304	63	5368
2026-01-13 01:09:43.16	20.80	15.07	-45.5	-49.4	21.3	6.02e-01	0	40	0	136839168	63	5393
2026-01-13 01:09:44.30	20.85	15.20	-45.6	-49.3	21.3	6.03e-01	0	39	0	138936320	63	5340
2026-01-13 01:09:45.15	20.88	15.30	-45.7	-49.5	21.2	6.02e-01	0	39	0	140509184	63	5418
2026-01-13 01:09:46.29	20.92	15.43	-45.7	-49.5	21.2	6.02e-01	0	40	0	142606336	63	5421
2026-01-13 01:09:47.14	20.95	15.53	-45.8	-49.4	21.3	6.00e-01	0	40	0	144179200	63	5397
2026-01-13 01:09:48.28	20.99	15.67	-45.8	-49.4	21.3	6.02e-01	0	39	0	146276352	63	5393
2026-01-13 01:09:49.13	21.02	15.77	-45.9	-49.4	21.3	5.99e-01	0	40	0	148373504	63	5385
2026-01-13 01:09:50.27	21.07	15.90	-46.0	-49.5	21.2	6.00e-01	0	39	0	150470656	63	5459
2026-01-13 01:09:51.12	21.10	16.01	-46.0	-49.4	21.3	6.03e-01	0	40	0	152043520	63	5386
2026-01-13 01:09:52.27	21.14	16.15	-45.9	-49.3	21.4	6.00e-01	0	40	0	154140672	63	5335
2026-01-13 01:09:53.13	21.18	16.25	-45.9	-49.3	21.4	6.04e-01	0	40	0	155713536	63	5324
2026-01-13 01:09:54.33	21.22	16.40	-45.9	-49.4	21.3	6.00e-01	0	40	0	157810688	63	5357
2026-01-13 01:09:55.18	21.26	16.50	-45.9	-49.3	21.4	6.02e-01	0	40	0	159383552	63	5340
2026-01-13 01:09:56.38	21.31	16.65	-45.7	-49.3	21.5	6.03e-01	0	39	0	161480704	63	5284
2026-01-13 01:09:57.23	21.34	16.76	-45.7	-49.3	21.5	6.02e-01	0	40	0	163053568	63	5280
2026-01-13 01:09:58.43	21.39	16.91	-45.7	-49.3	21.4	6.03e-01	0	40	0	165675008	63	5321
2026-01-13 01:09:59.29	21.42	17.01	-45.8	-49.4	21.4	6.04e-01	0	40	0	167247872	63	5354
2026-01-13 01:10:00.48	21.47	17.17	-45.8	-49.3	21.4	6.01e-01	0	40	0	169345024	63	5325
2026-01-13 01:10:01.33	21.51	17.27	-45.8	-49.3	21.4	6.03e-01	0	40	0	170917888	63	5322
2026-01-13 01:10:02.54	21.56	17.43	-45.9	-49.4	21.4	6.00e-01	0	40	0	173015040	63	5343
2026-01-13 01:10:03.39	21.59	17.54	-45.8	-49.3	21.4	6.02e-01	0	40	0	174587904	63	5293
2026-01-13 01:10:04.59	21.64	17.69	-45.9	-49.4	21.4	6.02e-01	0	39	0	177209344	63	5357
2026-01-13 01:10:05.44	21.68	17.80	-46.0	-49.5	21.3	6.02e-01	0	40	0	178782208	63	5429
2026-01-13 01:10:06.58	21.73	17.95	-46.0	-49.4	21.3	6.01e-01	0	39	0	180879360	63	5398
2026-01-13 01:10:07.43	21.77	18.07	-46.0	-49.4	21.4	6.02e-01	0	40	0	182452224	63	5343
2026-01-13 01:10:08.70	21.82	18.24	-46.0	-49.4	21.4	6.01e-01	0	39	0	184549376	63	5341
2026-01-13 01:10:09.47	21.86	18.34	-45.9	-49.3	21.4	6.01e-01	0	40	0	186122240	63	5294
2026-01-13 01:10:10.75	21.91	18.51	-46.0	-49.3	21.4	6.03e-01	0	40	0	188743680	63	5311
2026-01-13 01:10:11.46	21.95	18.61	-46.1	-49.4	21.4	6.01e-01	0	39	0	189792256	63	5352
2026-01-13 01:10:12.74	22.00	18.78	-46.2	-49.4	21.3	6.01e-01	0	40	0	192413696	63	5367
2026-01-13 01:10:13.48	22.04	18.88	-46.1	-49.3	21.4	6.03e-01	0	39	0	193986560	63	5338
2026-01-13 01:10:14.76	22.10	19.06	-46.1	-49.2	21.5	6.02e-01	0	40	0	196083712	63	5263
2026-01-13 01:10:15.49	22.13	19.16	-46.0	-49.2	21.5	6.02e-01	0	40	0	197656576	63	5237
2026-01-13 01:10:16.77	22.19	19.34	-46.0	-49.1	21.6	6.02e-01	0	40	0	199753728	63	5209
2026-01-13 01:10:17.59	22.23	19.45	-46.1	-49.3	21.5	6.04e-01	0	40	0	201326592	63	5294
2026-01-13 01:10:18.72	22.29	19.61	-46.1	-49.3	21.5	6.03e-01	0	40	0	203423744	63	5281
2026-01-13 01:10:19.58	22.33	19.73	-46.1	-49.2	21.5	6.01e-01	0	40	0	204996608	63	5272
2026-01-13 01:10:20.71	22.38	19.89	-46.2	-49.4	21.4	6.02e-01	0	40	0	207618048	63	5372
2026-01-13 01:10:21.57	22.42	20.02	-46.2	-49.4	21.3	6.03e-01	0	40	0	209190912	63	5387
2026-01-13 01:10:22.71	22.48	20.18	-46.2	-49.4	21.4	6.02e-01	0	40	0	210763776	63	5378
2026-01-13 01:10:23.56	22.52	20.31	-46.2	-49.4	21.4	6.03e-01	0	40	0	212860928	63	5369
2026-01-13 01:10:24.70	22.58	20.47	-46.1	-49.3	21.5	6.03e-01	0	40	0	214958080	63	5306
2026-01-13 01:10:25.55	22.62	20.60	-46.0	-49.3	21.4	6.02e-01	0	40	0	216530944	63	5311
2026-01-13 01:10:26.69	22.68	20.77	-45.8	-49.2	21.6	6.02e-01	0	40	0	218628096	63	5254
2026-01-13 01:10:27.54	22.73	20.89	-45.7	-49.2	21.6	6.01e-01	0	40	0	220200960	63	5224
2026-01-13 01:10:28.67	22.79	21.06	-45.4	-49.0	21.7	6.01e-01	0	40	0	222298112	62	5442
2026-01-13 01:10:29.53	22.83	21.19	-45.4	-49.0	21.7	6.02e-01	0	40	0	223870976	62	5446
2026-01-13 01:10:30.66	22.89	21.37	-45.6	-49.0	21.7	6.00e-01	0	40	0	225968128	62	5460
2026-01-13 01:10:31.52	22.94	21.50	-45.8	-49.1	21.7	6.02e-01	0	39	0	227540992	62	5509
2026-01-13 01:10:32.65	23.00	21.67	-46.0	-49.3	21.5	6.02e-01	0	40	0	229638144	62	5593
2026-01-13 01:10:33.50	23.05	21.80	-46.0	-49.3	21.5	6.00e-01	0	40	0	231211008	62	5616
2026-01-13 01:10:34.64	23.11	21.98	-46.1	-49.4	21.4	6.02e-01	0	40	0	233308160	62	5706
2026-01-13 01:10:35.49	23.16	22.11	-46.0	-49.4	21.4	6.01e-01	0	40	0	234881024	62	5716
2026-01-13 01:10:36.63	23.22	22.29	-45.9	-49.4	21.4	6.03e-01	0	40	0	236978176	62	5701
2026-01-13 01:10:37.48	23.27	22.43	-45.9	-49.4	21.4	6.04e-01	0	40	0	238551040	62	5664
2026-01-13 01:10:38.62	23.34	22.61	-45.9	-49.4	21.4	6.03e-01	0	40	0	241172480	62	5680
2026-01-13 01:10:39.47	23.39	22.75	-45.9	-49.4	21.4	6.03e-01	0	40	0	242745344	62	5690
2026-01-13 01:10:40.61	23.46	22.93	-45.9	-49.4	21.4	6.01e-01	0	40	0	244842496	62	5710
2026-01-13 01:10:41.46	23.51	23.07	-45.8	-49.3	21.5	6.01e-01	0	40	0	246415360	62	5606
2026-01-13 01:10:42.60	23.57	23.26	-45.9	-49.3	21.5	6.02e-01	0	39	0	248512512	62	5646
2026-01-13 01:10:43.45	23.63	23.40	-46.0	-49.4	21.4	6.01e-01	0	40	0	250085376	62	5711
2026-01-13 01:10:44.70	23.70	23.61	-46.0	-49.4	21.4	6.03e-01	0	40	0	252182528	62	5707
2026-01-13 01:10:45.55	23.76	23.75	-46.1	-49.5	21.3	6.02e-01	0	40	0	253755392	62	5769
2026-01-13 01:10:46.69	23.83	23.95	-46.2	-49.6	21.2	6.00e-01	0	40	0	255852544	63	5509
2026-01-13 01:10:47.54	23.88	24.09	-46.3	-49.6	21.2	6.02e-01	0	40	0	257425408	63	5522
2026-01-13 01:10:48.68	23.95	24.29	-46.3	-49.7	21.1	6.02e-01	0	40	0	259522560	63	5552
2026-01-13 01:10:49.53	24.01	24.43	-46.3	-49.8	21.1	6.01e-01	0	40	0	261619712	63	5621
2026-01-13 01:10:50.67	24.08	24.63	-46.2	-49.6	21.2	6.03e-01	0	40	0	263716864	63	5511
2026-01-13 01:10:51.52	24.14	24.78	-46.0	-49.4	21.4	6.00e-01	0	40	0	265289728	63	5372
2026-01-13 01:10:52.66	24.22	24.98	-46.1	-49.4	21.4	6.00e-01	0	40	0	267386880	63	5375
2026-01-13 01:10:53.72	24.29	25.17	-46.2	-49.5	21.4	6.04e-01	0	40	0	269484032	63	5416
2026-01-13 01:10:54.75	24.36	25.36	-46.3	-49.5	21.4	6.01e-01	0	40	0	271056896	63	5458
2026-01-13 01:10:55.74	24.43	25.53	-46.3	-49.4	21.4	6.02e-01	0	40	0	273154048	63	5387
2026-01-13 01:10:56.73	24.50	25.71	-46.3	-49.4	21.5	6.04e-01	0	40	0	274726912	63	5393
2026-01-13 01:10:57.73	24.57	25.90	-46.4	-49.5	21.4	6.00e-01	0	40	0	276824064	63	5428
2026-01-13 01:10:58.72	24.64	26.08	-46.4	-49.5	21.4	6.03e-01	0	40	0	278396928	63	5432
2026-01-13 01:10:59.72	24.71	26.27	-46.4	-49.5	21.4	6.01e-01	0	40	0	280494080	63	5441
2026-01-13 01:11:00.71	24.79	26.45	-46.3	-49.4	21.5	6.03e-01	0	40	0	282591232	63	5358
2026-01-13 01:11:01.71	24.86	26.64	-46.2	-49.3	21.5	6.01e-01	0	40	0	284164096	63	5317
2026-01-13 01:11:02.70	24.93	26.83	-46.3	-49.4	21.5	6.03e-01	0	39	0	286261248	63	5356
2026-01-13 01:11:03.70	25.01	27.02	-46.2	-49.3	21.6	6.04e-01	0	40	0	287834112	63	5287
2026-01-13 01:11:04.69	25.09	27.21	-46.2	-49.3	21.5	6.00e-01	0	40	0	289931264	63	5330
2026-01-13 01:11:05.69	25.16	27.40	-46.2	-49.3	21.6	6.02e-01	0	40	0	291504128	63	5295
2026-01-13 01:11:06.74	25.25	27.61	-46.3	-49.4	21.5	6.01e-01	0	40	0	293601280	63	5376
2026-01-13 01:11:07.66	25.32	27.79	-46.4	-49.5	21.4	6.01e-01	0	40	0	295174144	63	5415
2026-01-13 01:11:08.66	25.40	27.99	-46.3	-49.4	21.5	6.03e-01	0	40	0	297271296	63	5367
2026-01-13 01:11:09.65	25.48	28.19	-46.1	-49.2	21.7	6.04e-01	0	40	0	298844160	63	5233
2026-01-13 01:11:10.64	25.56	28.39	-46.0	-49.0	21.8	5.99e-01	0	39	0	300941312	63	5117
2026-01-13 01:11:11.64	25.65	28.59	-45.8	-48.8	22.0	6.03e-01	0	40	0	303038464	63	5012
2026-01-13 01:11:12.63	25.73	28.79	-45.9	-48.8	22.0	6.01e-01	0	39	0	304611328	63	5036
2026-01-13 01:11:13.63	25.82	29.00	-45.8	-48.7	22.1	6.01e-01	0	40	0	306708480	63	4947
2026-01-13 01:11:14.95	25.93	29.27	-45.9	-48.8	22.0	6.04e-01	0	40	0	308805632	63	5005
2026-01-13 01:11:15.70	26.00	29.43	-45.8	-48.8	22.0	5.98e-01	0	40	0	310378496	63	5009
2026-01-13 01:11:16.98	26.11	29.70	-45.8	-48.8	22.0	6.02e-01	0	40	0	312999936	63	5013
2026-01-13 01:11:17.68	26.18	29.85	-45.7	-48.8	22.1	6.04e-01	0	40	0	314048512	63	5000
2026-01-13 01:11:18.96	26.29	30.12	-45.6	-48.7	22.1	6.01e-01	0	40	0	316669952	63	4963
2026-01-13 01:11:19.70	26.36	30.28	-45.5	-48.8	22.1	6.00e-01	0	40	0	317718528	63	4986
2026-01-13 01:11:20.98	26.48	30.56	-45.4	-48.7	22.1	6.02e-01	0	40	0	320339968	62	5241
2026-01-13 01:11:21.69	26.55	30.72	-45.5	-48.7	22.1	6.02e-01	0	40	0	321388544	62	5272
2026-01-13 01:11:22.97	26.68	31.00	-45.6	-48.8	22.1	6.00e-01	0	40	0	324009984	62	5282
2026-01-13 01:11:23.70	26.75	31.16	-45.7	-48.9	22.0	6.03e-01	0	40	0	325582848	62	5341
2026-01-13 01:11:25.06	26.88	31.47	-45.8	-49.0	21.9	6.01e-01	0	40	0	327680000	62	5423
2026-01-13 01:11:25.77	26.96	31.63	-46.0	-49.1	21.8	5.99e-01	0	40	0	329252864	62	5479
2026-01-13 01:11:27.04	27.09	31.92	-46.1	-49.2	21.7	6.03e-01	0	40	0	331874304	62	5564
2026-01-13 01:11:27.76	27.16	32.08	-46.0	-49.0	21.8	6.02e-01	0	40	0	332922880	62	5437
2026-01-13 01:11:29.15	27.31	32.41	-45.8	-48.7	22.1	6.03e-01	0	40	0	335544320	62	5256
2026-01-13 01:11:29.86	27.38	32.57	-45.9	-48.9	22.0	6.01e-01	0	40	0	337117184	62	5357
2026-01-13 01:11:31.13	27.52	32.87	-46.1	-49.1	21.7	6.02e-01	0	40	0	339214336	62	5512
2026-01-13 01:11:32.21	27.64	33.13	-46.2	-49.2	21.7	6.01e-01	0	40	0	341311488	63	5272
2026-01-13 01:11:33.34	27.77	33.40	-46.2	-49.3	21.6	6.02e-01	0	40	0	343408640	63	5290
2026-01-13 01:11:34.20	27.86	33.61	-46.3	-49.4	21.5	6.01e-01	0	40	0	344981504	63	5390
2026-01-13 01:11:35.33	28.00	33.89	-46.2	-49.5	21.4	6.01e-01	0	40	0	347078656	63	5429
2026-01-13 01:11:36.18	28.09	34.09	-46.3	-49.6	21.3	6.01e-01	0	40	0	348651520	63	5514
2026-01-13 01:11:37.32	28.23	34.38	-46.3	-49.7	21.3	6.02e-01	0	40	0	350748672	63	5530
2026-01-13 01:11:38.18	28.33	34.59	-46.5	-49.8	21.2	6.02e-01	0	40	0	352845824	63	5617
2026-01-13 01:11:39.31	28.47	34.88	-46.6	-49.9	21.1	6.01e-01	0	40	0	354942976	63	5658
2026-01-13 01:11:40.16	28.58	35.09	-46.8	-50.1	20.9	6.01e-01	0	40	0	356515840	64	5466
2026-01-13 01:11:41.33	28.73	35.39	-46.8	-50.1	20.8	6.03e-01	0	40	0	358612992	64	5505
2026-01-13 01:11:42.18	28.84	35.61	-46.8	-50.1	20.8	6.01e-01	0	40	0	360185856	64	5474
2026-01-13 01:11:43.32	28.99	35.91	-46.6	-49.9	21.0	6.02e-01	0	40	0	362283008	64	5356
2026-01-13 01:11:44.18	29.10	36.13	-46.7	-50.0	20.9	6.00e-01	0	40	0	363855872	64	5430
2026-01-13 01:11:45.43	29.27	36.47	-47.0	-50.5	20.5	6.02e-01	0	40	0	365953024	64	5740
2026-01-13 01:11:46.28	29.39	36.69	-47.2	-50.8	20.2	6.00e-01	0	40	0	367525888	65	5635
2026-01-13 01:11:47.49	29.55	37.02	-47.2	-50.9	20.1	6.03e-01	0	40	0	370147328	65	5660
2026-01-13 01:11:48.35	29.68	37.25	-47.0	-50.7	20.3	6.02e-01	0	40	0	371720192	65	5557
2026-01-13 01:11:49.48	29.84	37.56	-47.0	-50.7	20.3	6.01e-01	0	40	0	373817344	65	5544
2026-01-13 01:11:50.33	29.96	37.79	-47.2	-50.9	20.2	6.01e-01	0	40	0	375390208	65	5657
2026-01-13 01:11:51.60	30.15	38.15	-47.4	-51.1	19.9	6.02e-01	0	40	0	377487360	65	5820
2026-01-13 01:11:52.40	30.28	38.37	-47.4	-51.1	19.9	6.01e-01	0	40	0	379060224	65	5831
2026-01-13 01:11:53.54	30.45	38.69	-47.3	-51.1	19.9	6.00e-01	0	40	0	381157376	65	5845
2026-01-13 01:11:54.39	30.59	38.94	-47.3	-51.3	19.7	6.03e-01	0	40	0	382730240	65	5966
2026-01-13 01:11:55.70	30.80	39.31	-47.2	-51.3	19.7	6.04e-01	0	40	0	385351680	65	5987
2026-01-13 01:11:56.41	30.91	39.52	-47.1	-51.2	19.9	6.01e-01	0	40	0	386924544	65	5867
2026-01-13 01:11:57.69	31.12	39.89	-47.1	-51.0	19.9	6.01e-01	0	40	0	389021696	65	5778
2026-01-13 01:11:58.40	31.25	40.10	-47.1	-50.9	20.1	6.00e-01	0	40	0	390594560	65	5671
2026-01-13 01:11:59.68	31.47	40.48	-47.0	-50.5	20.5	6.02e-01	0	40	0	392691712	65	5464
2026-01-13 01:12:00.49	31.61	40.72	-47.0	-50.4	20.6	6.03e-01	0	40	0	394264576	65	5372
2026-01-13 01:12:01.62	31.81	41.06	-47.1	-50.5	20.5	6.01e-01	0	40	0	396361728	65	5414
2026-01-13 01:12:02.47	31.96	41.32	-46.8	-50.2	20.8	6.02e-01	0	40	0	397934592	65	5244
2026-01-13 01:12:03.61	32.18	41.67	-46.4	-49.9	21.0	6.05e-01	0	40	0	400556032	64	5368
2026-01-13 01:12:04.72	32.39	42.02	-46.1	-49.7	21.2	6.02e-01	0	40	0	402128896	64	5270
2026-01-13 01:12:05.74	32.58	42.33	-46.1	-49.6	21.4	6.00e-01	0	40	0	404226048	63	5482
2026-01-13 01:12:06.74	32.78	42.65	-46.1	-49.5	21.4	5.99e-01	0	40	0	406323200	63	5452
2026-01-13 01:12:07.94	33.02	43.03	-46.1	-49.5	21.5	6.01e-01	0	40	0	408420352	63	5414
2026-01-13 01:12:08.82	33.20	43.31	-46.0	-49.2	21.7	6.02e-01	0	40	0	409993216	63	5279
2026-01-13 01:12:10.13	33.48	43.73	-46.1	-49.2	21.8	6.02e-01	0	40	0	412614656	63	5236
2026-01-13 01:12:10.84	33.63	43.96	-45.9	-49.0	22.0	6.03e-01	0	40	0	413663232	63	5108
2026-01-13 01:12:12.12	33.91	44.38	-45.9	-49.0	22.0	5.99e-01	0	40	0	416284672	63	5107
2026-01-13 01:12:12.85	34.08	44.62	-45.8	-48.9	22.1	6.01e-01	0	40	0	417333248	63	5046
2026-01-13 01:12:14.13	34.37	45.04	-45.7	-48.6	22.2	6.03e-01	0	40	0	419954688	63	4919
2026-01-13 01:12:14.85	34.54	45.28	-45.8	-48.7	22.1	6.02e-01	0	40	0	421527552	63	4968
2026-01-13 01:12:16.13	34.84	45.71	-45.8	-48.9	21.9	6.02e-01	0	40	0	423624704	63	5093
2026-01-13 01:12:16.92	35.03	45.98	-45.7	-48.9	22.0	6.00e-01	0	40	0	425197568	63	5086
2026-01-13 01:12:18.10	35.33	46.39	-45.9	-49.0	21.9	6.01e-01	0	40	0	427294720	63	5129
2026-01-13 01:12:19.13	35.59	46.74	-46.1	-49.2	21.7	6.00e-01	0	40	0	429391872	63	5244
2026-01-13 01:12:20.30	35.90	47.15	-46.0	-48.9	22.0	6.04e-01	0	40	0	431489024	63	5083
2026-01-13 01:12:21.15	36.12	47.44	-45.9	-48.7	22.2	6.01e-01	0	40	0	433061888	63	4958
2026-01-13 01:12:22.50	36.49	47.92	-45.9	-48.6	22.3	6.02e-01	0	40	0	435683328	63	4906
2026-01-13 01:12:23.21	36.69	48.17	-46.0	-48.8	22.0	6.04e-01	0	40	0	436731904	63	5018
2026-01-13 01:12:24.48	37.05	48.62	-45.9	-48.6	22.2	6.03e-01	0	40	0	439353344	63	4923
2026-01-13 01:12:25.21	37.27	48.88	-45.8	-48.6	22.2	6.00e-01	0	40	0	440926208	63	4921
2026-01-13 01:12:26.74	37.73	49.44	-45.8	-48.7	22.2	6.01e-01	0	40	0	443547648	63	4980
2026-01-13 01:12:27.45	37.95	49.70	-45.8	-48.8	22.1	6.02e-01	0	40	0	445120512	63	4999
2026-01-13 01:12:28.73	38.35	50.17	-45.7	-48.5	22.3	6.04e-01	0	40	0	447217664	63	4850
2026-01-13 01:12:29.44	38.59	50.43	-45.6	-48.3	22.5	6.03e-01	0	40	0	448790528	63	4759
2026-01-13 01:12:30.84	39.05	50.95	-45.8	-48.5	22.3	6.00e-01	0	40	0	451411968	63	4869
2026-01-13 01:12:31.56	39.30	51.21	-45.7	-48.5	22.4	6.04e-01	0	40	0	452460544	63	4826
2026-01-13 01:12:32.84	39.75	51.69	-45.8	-48.6	22.3	6.00e-01	0	40	0	455081984	63	4876
2026-01-13 01:12:33.56	40.00	51.97	-45.7	-48.5	22.3	6.03e-01	0	40	0	456654848	63	4862
2026-01-13 01:12:34.84	40.48	52.45	-45.5	-48.3	22.6	6.01e-01	0	40	0	458752000	63	4712
2026-01-13 01:12:35.55	40.75	52.72	-45.3	-48.1	22.7	6.01e-01	0	40	0	460324864	62	4896
2026-01-13 01:12:36.83	41.24	53.21	-45.7	-48.5	22.4	6.02e-01	0	40	0	462422016	62	5106
2026-01-13 01:12:37.54	41.52	53.48	-45.5	-48.3	22.6	6.02e-01	0	40	0	463994880	62	4992
2026-01-13 01:12:38.82	42.05	53.98	-45.4	-48.1	22.8	6.02e-01	0	40	0	466092032	62	4881
2026-01-13 01:12:39.54	42.35	54.26	-45.5	-48.3	22.6	6.01e-01	0	40	0	467664896	62	4990
2026-01-13 01:12:40.82	42.90	54.75	-45.9	-48.7	22.2	6.03e-01	0	40	0	470286336	62	5230
2026-01-13 01:12:41.61	43.25	55.06	-46.0	-48.8	22.0	6.02e-01	0	40	0	471334912	62	5330
2026-01-13 01:12:42.81	43.80	55.53	-45.8	-48.7	22.2	6.05e-01	0	40	0	473956352	62	5224
2026-01-13 01:12:43.66	44.20	55.87	-46.2	-49.1	21.8	6.03e-01	0	40	0	475529216	62	5523
2026-01-13 01:12:45.08	44.89	56.43	-46.1	-49.1	21.8	6.01e-01	0	40	0	478150656	63	5181
2026-01-13 01:12:45.79	45.24	56.71	-46.4	-49.4	21.6	6.04e-01	0	40	0	479199232	63	5386
2026-01-13 01:12:47.28	46.01	57.30	-46.5	-49.4	21.5	6.03e-01	0	40	0	482344960	63	5394
2026-01-13 01:12:47.99	46.39	57.58	-46.6	-49.6	21.4	5.99e-01	0	40	0	483393536	63	5488
2026-01-13 01:12:49.28	47.10	58.09	-46.9	-50.1	20.8	6.00e-01	0	40	0	486014976	64	5521
2026-01-13 01:12:49.99	47.50	58.37	-46.8	-50.0	20.9	6.01e-01	0	40	0	487063552	64	5453
2026-01-13 01:12:51.27	48.25	58.88	-47.0	-50.3	20.7	6.03e-01	0	40	0	489684992	64	5648
2026-01-13 01:12:51.98	48.67	59.17	-47.2	-50.5	20.4	6.00e-01	0	40	0	490733568	65	5444
2026-01-13 01:12:53.26	49.46	59.68	-47.7	-51.2	19.9	6.00e-01	0	40	0	493355008	66	5545
2026-01-13 01:12:53.99	49.93	59.97	-47.7	-51.1	19.9	6.04e-01	0	40	0	494927872	66	5525
2026-01-13 01:12:55.27	50.77	60.47	-47.9	-51.5	19.6	6.03e-01	0	40	0	497025024	66	5763
2026-01-13 01:12:55.98	51.25	60.75	-48.1	-51.8	19.3	6.01e-01	0	40	0	498597888	66	5981
2026-01-13 01:12:57.25	52.14	61.26	-48.1	-51.9	19.3	6.02e-01	0	40	0	500695040	66	5995
2026-01-13 01:12:57.97	52.66	61.54	-48.1	-51.8	19.2	6.01e-01	0	40	0	502267904	67	5656
2026-01-13 01:12:59.24	53.61	62.04	-48.4	-52.2	18.9	6.01e-01	0	40	0	504365056	67	5896
2026-01-13 01:12:59.97	54.17	62.32	-48.4	-52.3	18.8	5.99e-01	0	40	0	505937920	67	5964
2026-01-13 01:13:01.25	55.19	62.82	-48.2	-52.0	19.1	6.03e-01	0	40	0	508559360	67	5771
2026-01-13 01:13:02.10	55.88	63.15	-48.4	-52.5	18.6	6.02e-01	0	40	0	510132224	67	6091
2026-01-13 01:13:03.54	57.11	63.70	-48.3	-52.4	18.7	6.02e-01	0	40	0	512753664	67	6022
2026-01-13 01:13:04.25	57.74	63.96	-48.6	-52.8	18.4	6.03e-01	0	40	0	513802240	67	6305
2026-01-13 01:13:05.73	59.10	64.52	-48.6	-52.7	18.4	6.02e-01	0	40	0	516947968	67	6232
2026-01-13 01:13:06.44	59.77	64.78	-49.0	-53.5	17.8	6.01e-01	0	40	0	517996544	68	6473
2026-01-13 01:13:07.73	61.03	65.25	-48.9	-53.6	17.7	6.02e-01	0	39	0	520617984	68	6497
2026-01-13 01:13:08.44	61.75	65.51	-49.2	-54.2	17.1	6.01e-01	0	40	0	521666560	69	6623
2026-01-13 01:13:09.71	63.08	65.96	-49.5	-54.4	16.9	6.00e-01	0	40	0	524288000	69	6757
2026-01-13 01:13:10.42	63.85	66.21	-49.5	-54.4	16.9	6.01e-01	0	40	0	525336576	69	6774
2026-01-13 01:13:11.70	65.28	66.65	-49.6	-54.9	16.4	6.03e-01	0	40	0	527958016	69	7130
2026-01-13 01:13:12.43	66.12	66.89	-49.3	-54.5	16.8	6.02e-01	0	40	0	529530880	69	6809
2026-01-13 01:13:13.71	67.64	67.32	-49.5	-54.7	16.6	6.01e-01	0	40	0	531628032	69	6992
2026-01-13 01:13:14.42	68.51	67.54	-49.4	-54.3	16.9	6.03e-01	0	40	0	533200896	69	6715
2026-01-13 01:13:15.70	70.13	67.94	-49.5	-54.5	16.8	5.99e-01	0	39	0	535298048	69	6817
2026-01-13 01:13:16.41	71.05	68.16	-49.7	-54.7	16.6	6.02e-01	0	40	0	536870912	70	6573
2026-01-13 01:13:17.69	72.77	68.54	-49.4	-54.0	17.3	6.04e-01	0	40	0	538968064	70	6126
2026-01-13 01:13:18.40	73.75	68.74	-49.3	-54.2	17.0	6.01e-01	0	40	0	540540928	70	6273
2026-01-13 01:13:19.68	75.57	69.09	-49.2	-54.0	17.3	6.04e-01	0	40	0	542638080	70	6106
2026-01-13 01:13:20.40	76.62	69.28	-49.0	-53.5	17.7	6.01e-01	0	40	0	544210944	70	5772
2026-01-13 01:13:21.69	78.56	69.60	-49.4	-54.2	17.0	6.01e-01	0	40	0	546832384	69	6608
2026-01-13 01:13:22.41	79.67	69.77	-49.4	-54.1	17.2	6.04e-01	0	40	0	547880960	69	6535
2026-01-13 01:13:23.76	81.80	70.08	-49.3	-54.1	17.2	6.00e-01	0	40	0	550502400	69	6511
2026-01-13 01:13:24.46	82.94	70.22	-49.2	-53.8	17.5	6.01e-01	0	40	0	552075264	69	6288
2026-01-13 01:13:25.76	85.09	70.48	-49.2	-54.1	17.1	6.03e-01	0	40	0	554172416	69	6498
2026-01-13 01:13:26.47	86.29	70.60	-48.7	-53.5	17.8	6.01e-01	0	40	0	555745280	69	6067
2026-01-13 01:13:27.87	88.70	70.83	-48.8	-53.7	17.5	6.05e-01	0	40	0	558366720	69	6237
2026-01-13 01:13:28.58	89.94	70.94	-48.8	-53.4	17.7	6.04e-01	0	40	0	559415296	69	6057
2026-01-13 01:13:29.86	92.22	71.10	-48.5	-52.7	18.5	6.01e-01	0	40	0	562036736	69	5553
2026-01-13 01:13:30.57	93.51	71.18	-48.2	-52.1	19.1	6.02e-01	0	40	0	563085312	68	5517
2026-01-13 01:13:31.85	95.84	71.31	-48.3	-52.5	18.7	6.02e-01	0	40	0	565706752	68	5731
2026-01-13 01:13:32.56	97.15	71.36	-48.1	-52.0	19.2	6.01e-01	0	40	0	567279616	68	5459
2026-01-13 01:13:33.84	99.53	71.44	-48.4	-52.3	18.9	6.00e-01	0	40	0	569376768	68	5640
2026-01-13 01:13:34.55	100.86	71.46	-48.6	-52.6	18.7	6.02e-01	0	40	0	570949632	68	5807
2026-01-13 01:13:35.83	103.26	71.49	-48.3	-52.3	18.9	6.01e-01	0	40	0	573046784	68	5608
2026-01-13 01:13:36.56	104.64	71.50	-48.2	-52.2	19.0	6.03e-01	0	40	0	574619648	68	5574
2026-01-13 01:13:37.84	107.04	71.48	-48.7	-52.8	18.4	6.02e-01	0	40	0	576716800	68	5982
2026-01-13 01:13:38.55	108.37	71.45	-48.7	-52.7	18.5	6.03e-01	0	40	0	578289664	68	5876
2026-01-13 01:13:39.83	110.76	71.39	-48.5	-52.5	18.8	6.05e-01	0	40	0	580911104	68	5757
2026-01-13 01:13:40.67	112.31	71.33	-48.6	-52.7	18.5	6.02e-01	0	40	0	582483968	68	5899
2026-01-13 01:13:42.10	114.93	71.19	-48.6	-52.7	18.6	6.00e-01	0	40	0	585105408	68	5857
2026-01-13 01:13:42.81	116.21	71.12	-48.7	-52.8	18.5	6.03e-01	0	40	0	586153984	68	5959
2026-01-13 01:13:44.30	118.87	70.92	-48.8	-53.1	18.2	6.01e-01	0	40	0	588775424	68	6173
2026-01-13 01:13:45.01	120.11	70.82	-48.6	-52.7	18.6	6.00e-01	0	40	0	590348288	68	5857
2026-01-13 01:13:46.29	122.32	70.61	-48.4	-52.1	19.1	6.00e-01	0	40	0	592969728	68	5518
2026-01-13 01:13:47.01	123.53	70.48	-48.5	-52.2	19.0	6.05e-01	0	40	0	594018304	68	5568
2026-01-13 01:13:48.29	125.65	70.23	-48.6	-52.8	18.5	6.00e-01	0	40	0	596639744	68	5944
2026-01-13 01:13:49.01	126.82	70.08	-48.6	-52.7	18.5	6.03e-01	0	40	0	597688320	68	5911
2026-01-13 01:13:50.29	128.85	69.79	-48.4	-52.3	19.0	6.04e-01	0	40	0	600309760	68	5624
2026-01-13 01:13:51.02	129.97	69.62	-49.0	-53.3	18.1	6.01e-01	0	40	0	601882624	68	6298
2026-01-13 01:13:52.30	131.90	69.30	-49.3	-53.9	17.5	5.99e-01	0	40	0	603979776	69	6379
2026-01-13 01:13:53.01	132.94	69.11	-49.1	-53.4	17.8	5.99e-01	0	40	0	605552640	69	6034
2026-01-13 01:13:54.29	134.77	68.76	-49.2	-53.7	17.6	6.00e-01	0	40	0	607649792	69	6221
2026-01-13 01:13:55.12	135.92	68.52	-49.1	-53.4	17.8	6.01e-01	0	40	0	609222656	69	6054
2026-01-13 01:13:56.26	137.45	68.19	-49.0	-53.1	18.1	6.06e-01	0	40	0	611319808	69	5852
2026-01-13 01:13:57.30	138.80	67.87	-48.6	-52.6	18.7	6.03e-01	0	40	0	613416960	69	5469
2026-01-13 01:13:58.42	140.22	67.52	-48.6	-52.6	18.7	6.03e-01	0	40	0	615514112	69	5526
2026-01-13 01:13:59.35	141.35	67.22	-48.7	-52.8	18.5	6.02e-01	0	40	0	617086976	69	5649
2026-01-13 01:14:00.35	142.54	66.89	-48.7	-53.0	18.3	6.01e-01	0	40	0	619184128	69	5739
2026-01-13 01:14:01.55	143.91	66.48	-48.4	-52.3	18.9	6.02e-01	0	40	0	621281280	68	5604
2026-01-13 01:14:02.40	144.85	66.18	-48.7	-53.0	18.4	6.02e-01	0	40	0	622854144	68	6071
2026-01-13 01:14:03.54	146.07	65.78	-48.9	-53.4	17.9	6.02e-01	0	40	0	624951296	68	6383
2026-01-13 01:14:04.39	146.95	65.48	-48.5	-52.5	18.8	5.99e-01	0	40	0	626524160	68	5754
2026-01-13 01:14:05.53	148.10	65.07	-47.8	-51.5	19.6	6.02e-01	0	40	0	628621312	67	5412
2026-01-13 01:14:06.38	148.93	64.75	-47.9	-51.6	19.5	5.98e-01	0	40	0	630718464	67	5484
2026-01-13 01:14:07.52	150.00	64.33	-48.2	-52.2	19.0	6.03e-01	0	40	0	632815616	67	5875
2026-01-13 01:14:08.37	150.78	64.01	-47.6	-51.2	19.9	6.01e-01	0	40	0	634388480	67	5255
2026-01-13 01:14:09.51	151.78	63.58	-47.4	-51.1	20.0	6.02e-01	0	40	0	636485632	66	5519
2026-01-13 01:14:10.36	152.51	63.25	-46.9	-50.5	20.6	6.02e-01	0	40	0	638058496	65	5409
2026-01-13 01:14:11.50	153.45	62.81	-47.3	-50.9	20.2	6.02e-01	0	40	0	640155648	65	5679
2026-01-13 01:14:12.36	154.14	62.48	-47.5	-51.0	20.0	6.01e-01	0	40	0	641728512	65	5787
2026-01-13 01:14:13.49	155.02	62.03	-46.7	-49.8	21.2	6.00e-01	0	40	0	643825664	65	5020
2026-01-13 01:14:14.35	155.67	61.70	-46.8	-49.9	21.1	5.98e-01	0	40	0	645398528	65	5051
2026-01-13 01:14:15.49	156.50	61.25	-47.2	-50.5	20.5	6.02e-01	0	40	0	647495680	65	5462
2026-01-13 01:14:16.34	157.10	60.91	-47.2	-50.5	20.5	6.00e-01	0	40	0	649068544	65	5459
2026-01-13 01:14:17.47	157.87	60.46	-46.9	-50.2	20.9	6.02e-01	0	40	0	651165696	65	5222
2026-01-13 01:14:18.33	158.44	60.12	-46.8	-50.0	21.0	6.00e-01	0	40	0	652738560	65	5131
2026-01-13 01:14:19.46	159.17	59.67	-46.8	-49.9	21.1	6.01e-01	0	40	0	654835712	65	5058
2026-01-13 01:14:20.32	159.70	59.33	-47.2	-50.5	20.5	6.02e-01	0	40	0	656408576	65	5444
2026-01-13 01:14:21.46	160.39	58.87	-46.7	-49.8	21.1	6.00e-01	0	40	0	658505728	65	5033
2026-01-13 01:14:22.31	160.89	58.53	-46.7	-49.7	21.3	6.02e-01	0	40	0	660078592	65	4976
2026-01-13 01:14:23.45	161.54	58.08	-46.7	-49.7	21.3	6.02e-01	0	40	0	662175744	65	4970
2026-01-13 01:14:24.30	162.01	57.74	-46.8	-49.9	21.1	6.03e-01	0	40	0	664272896	65	5048
2026-01-13 01:14:25.44	162.62	57.29	-46.4	-49.4	21.6	6.00e-01	0	40	0	666370048	64	5045
2026-01-13 01:14:26.29	163.07	56.95	-46.4	-49.4	21.6	6.02e-01	0	40	0	667942912	64	5078
2026-01-13 01:14:27.43	163.65	56.50	-46.2	-49.1	21.8	6.02e-01	0	40	0	670040064	64	4899
2026-01-13 01:14:28.28	164.06	56.16	-46.2	-49.1	21.8	6.01e-01	0	40	0	671612928	64	4913
2026-01-13 01:14:29.51	164.65	55.67	-45.9	-48.8	22.1	6.02e-01	0	40	0	673710080	63	5009
2026-01-13 01:14:30.36	165.05	55.34	-45.8	-48.7	22.3	6.01e-01	0	40	0	675282944	63	4932
2026-01-13 01:14:31.50	165.56	54.89	-45.9	-48.9	22.1	6.03e-01	0	40	0	677380096	63	5090
2026-01-13 01:14:32.35	165.94	54.56	-45.8	-48.7	22.2	6.02e-01	0	40	0	678952960	63	4982
2026-01-13 01:14:33.61	166.48	54.07	-45.6	-48.4	22.5	6.04e-01	0	40	0	681574400	63	4799
2026-01-13 01:14:34.43	166.82	53.75	-45.6	-48.3	22.6	6.00e-01	0	40	0	683147264	63	4751
2026-01-13 01:14:35.57	167.28	53.31	-45.9	-48.7	22.3	6.03e-01	0	40	0	685244416	63	4957
2026-01-13 01:14:36.42	167.61	52.98	-45.9	-48.8	22.1	6.04e-01	0	40	0	686817280	63	5003
2026-01-13 01:14:37.56	168.05	52.54	-45.7	-48.5	22.5	6.02e-01	0	40	0	688914432	63	4833
2026-01-13 01:14:38.41	168.37	52.22	-45.8	-48.7	22.3	6.01e-01	0	40	0	690487296	63	4937
2026-01-13 01:14:39.55	168.79	51.79	-46.1	-49.1	21.9	6.04e-01	0	40	0	692584448	63	5175
2026-01-13 01:14:40.40	169.09	51.46	-46.4	-49.4	21.6	6.01e-01	0	40	0	694157312	63	5382
2026-01-13 01:14:41.54	169.48	51.04	-46.3	-49.2	21.8	6.00e-01	0	40	0	696254464	63	5253
2026-01-13 01:14:42.39	169.77	50.72	-46.2	-49.1	21.9	6.02e-01	0	40	0	697827328	63	5186
2026-01-13 01:14:43.53	170.15	50.30	-46.3	-49.2	21.8	6.01e-01	0	40	0	699924480	63	5254
2026-01-13 01:14:44.38	170.42	49.98	-46.4	-49.3	21.7	6.01e-01	0	40	0	701497344	63	5340
2026-01-13 01:14:45.51	170.78	49.57	-46.6	-49.7	21.4	6.01e-01	0	40	0	704118784	63	5531
2026-01-13 01:14:46.37	171.04	49.25	-46.7	-49.8	21.2	6.01e-01	0	40	0	705691648	63	5635
2026-01-13 01:14:47.50	171.38	48.84	-46.8	-49.9	21.1	6.05e-01	0	40	0	707264512	64	5374
2026-01-13 01:14:48.36	171.63	48.53	-46.7	-49.8	21.1	6.03e-01	0	40	0	709361664	64	5339
2026-01-13 01:14:49.49	171.96	48.13	-46.7	-49.8	21.2	6.00e-01	0	40	0	711458816	64	5290
2026-01-13 01:14:50.35	172.20	47.82	-46.6	-49.8	21.1	6.02e-01	0	40	0	713031680	64	5306
2026-01-13 01:14:51.48	172.51	47.42	-46.6	-49.8	21.2	6.04e-01	0	40	0	715128832	64	5292
2026-01-13 01:14:52.33	172.74	47.13	-46.6	-49.7	21.3	6.04e-01	0	40	0	716701696	64	5220
2026-01-13 01:14:53.47	173.03	46.73	-46.5	-49.5	21.5	6.03e-01	0	40	0	718798848	64	5122
2026-01-13 01:14:54.32	173.25	46.43	-46.3	-49.2	21.7	6.02e-01	0	40	0	720371712	64	4964
2026-01-13 01:14:55.46	173.54	46.04	-46.4	-49.4	21.5	6.00e-01	0	40	0	722468864	64	5056
2026-01-13 01:14:56.31	173.75	45.75	-46.3	-49.4	21.6	6.00e-01	0	40	0	724041728	64	5052
2026-01-13 01:14:57.45	174.02	45.37	-46.6	-49.7	21.3	6.00e-01	0	40	0	726138880	64	5229
2026-01-13 01:14:58.30	174.22	45.08	-46.6	-49.7	21.3	6.04e-01	0	40	0	727711744	64	5253
2026-01-13 01:14:59.44	174.48	44.70	-46.6	-49.6	21.3	6.03e-01	0	40	0	729808896	64	5209
2026-01-13 01:15:00.29	174.67	44.42	-46.5	-49.6	21.4	6.04e-01	0	40	0	731381760	64	5176
2026-01-13 01:15:01.43	174.93	44.04	-46.4	-49.4	21.5	6.05e-01	0	40	0	733478912	64	5061
2026-01-13 01:15:02.28	175.11	43.76	-46.3	-49.3	21.6	6.02e-01	0	40	0	735051776	64	5014
2026-01-13 01:15:03.42	175.35	43.39	-46.3	-49.3	21.6	6.03e-01	0	40	0	737673216	64	5003
2026-01-13 01:15:04.27	175.53	43.12	-46.4	-49.4	21.5	6.03e-01	0	40	0	739246080	64	5089
2026-01-13 01:15:05.41	175.76	42.76	-46.5	-49.6	21.4	6.02e-01	0	40	0	741343232	64	5169
2026-01-13 01:15:06.26	175.93	42.49	-46.6	-49.6	21.3	6.02e-01	0	40	0	742916096	64	5212
2026-01-13 01:15:07.39	176.15	42.13	-46.8	-49.9	21.1	6.01e-01	0	40	0	745013248	64	5346
2026-01-13 01:15:08.25	176.32	41.86	-47.1	-50.3	20.7	6.03e-01	0	40	0	746586112	64	5648
2026-01-13 01:15:09.38	176.53	41.51	-47.2	-50.6	20.4	6.02e-01	0	39	0	748683264	65	5503
2026-01-13 01:15:10.23	176.69	41.25	-47.1	-50.5	20.5	5.99e-01	0	40	0	750256128	65	5412
2026-01-13 01:15:11.37	176.90	40.90	-47.1	-50.5	20.5	6.02e-01	0	40	0	752353280	65	5449
2026-01-13 01:15:12.22	177.05	40.65	-47.1	-50.5	20.5	6.01e-01	0	40	0	753926144	65	5431
2026-01-13 01:15:13.36	177.25	40.31	-47.1	-50.5	20.5	5.99e-01	0	40	0	756023296	65	5451
2026-01-13 01:15:14.22	177.40	40.05	-47.0	-50.4	20.6	6.02e-01	0	40	0	757596160	65	5350
2026-01-13 01:15:15.35	177.59	39.72	-46.9	-50.2	20.8	6.00e-01	0	40	0	759693312	65	5259
2026-01-13 01:15:16.21	177.73	39.46	-47.0	-50.3	20.7	6.02e-01	0	40	0	761266176	65	5309
2026-01-13 01:15:17.34	177.91	39.13	-47.1	-50.5	20.5	6.00e-01	0	40	0	763363328	65	5422
2026-01-13 01:15:18.20	178.05	38.89	-47.0	-50.4	20.6	6.01e-01	0	40	0	764936192	65	5371
2026-01-13 01:15:19.33	178.23	38.56	-47.1	-50.5	20.5	6.02e-01	0	40	0	767033344	65	5441
2026-01-13 01:15:20.19	178.36	38.32	-47.1	-50.5	20.5	6.02e-01	0	40	0	768606208	65	5441
2026-01-13 01:15:21.32	178.53	38.00	-47.1	-50.5	20.5	6.03e-01	0	40	0	771227648	65	5439
2026-01-13 01:15:22.18	178.66	37.76	-47.0	-50.3	20.6	6.01e-01	0	40	0	772800512	65	5337
2026-01-13 01:15:23.31	178.83	37.45	-46.7	-50.0	20.9	6.01e-01	0	40	0	774897664	65	5135
2026-01-13 01:15:24.20	178.96	37.20	-46.7	-50.0	21.0	6.02e-01	0	40	0	776470528	65	5140
2026-01-13 01:15:25.51	179.14	36.85	-46.6	-49.8	21.1	6.03e-01	0	40	0	778567680	65	5030
2026-01-13 01:15:26.22	179.24	36.65	-46.6	-49.9	21.1	6.02e-01	0	40	0	780140544	65	5061
2026-01-13 01:15:27.72	179.45	36.25	-46.5	-49.7	21.2	6.04e-01	0	40	0	782761984	65	4959
2026-01-13 01:15:28.43	179.54	36.06	-46.6	-49.7	21.2	6.02e-01	0	40	0	784334848	65	4962
2026-01-13 01:15:29.71	179.71	35.73	-46.6	-49.7	21.2	6.01e-01	0	40	0	786956288	65	4945
2026-01-13 01:15:30.43	179.80	35.54	-46.4	-49.5	21.4	6.00e-01	0	40	0	788004864	64	5103
2026-01-13 01:15:31.71	179.97	35.21	-46.2	-49.2	21.7	6.00e-01	0	40	0	790626304	64	4932
2026-01-13 01:15:32.42	180.06	35.03	-46.2	-49.2	21.7	6.04e-01	0	40	0	791674880	64	4937
2026-01-13 01:15:33.70	180.22	34.70	-46.0	-48.8	22.0	6.02e-01	0	40	0	794296320	64	4758
2026-01-13 01:15:34.43	180.31	34.51	-46.1	-49.0	21.9	6.03e-01	0	40	0	795344896	63	5118
2026-01-13 01:15:35.71	180.46	34.19	-46.1	-49.0	21.9	6.02e-01	0	40	0	797966336	63	5108
2026-01-13 01:15:36.42	180.55	34.02	-46.0	-48.9	22.0	6.02e-01	0	40	0	799539200	63	5046
2026-01-13 01:15:37.70	180.69	33.70	-45.7	-48.5	22.4	6.01e-01	0	40	0	801636352	63	4829
2026-01-13 01:15:38.41	180.78	33.53	-45.6	-48.4	22.5	6.02e-01	0	40	0	803209216	63	4782
2026-01-13 01:15:39.69	180.92	33.22	-45.7	-48.5	22.4	6.02e-01	0	40	0	805306368	63	4858
2026-01-13 01:15:40.57	181.02	33.00	-45.6	-48.5	22.4	6.02e-01	0	40	0	806879232	63	4838
2026-01-13 01:15:41.71	181.15	32.73	-45.5	-48.4	22.5	6.03e-01	0	40	0	808976384	63	4774
2026-01-13 01:15:42.73	181.26	32.49	-45.6	-48.5	22.4	6.04e-01	0	40	0	811073536	63	4839
2026-01-13 01:15:43.88	181.38	32.22	-45.5	-48.4	22.4	6.02e-01	0	40	0	813170688	63	4806
2026-01-13 01:15:44.75	181.47	32.02	-45.4	-48.4	22.5	5.99e-01	0	40	0	814743552	62	5044
2026-01-13 01:15:45.89	181.59	31.75	-45.5	-48.4	22.5	6.01e-01	0	40	0	816840704	62	5077
2026-01-13 01:15:46.74	181.67	31.56	-45.5	-48.4	22.4	6.02e-01	0	40	0	818413568	62	5062
2026-01-13 01:15:48.10	181.81	31.25	-45.3	-48.1	22.6	6.03e-01	0	40	0	821035008	62	4926
2026-01-13 01:15:48.81	181.88	31.09	-45.2	-47.9	22.8	6.02e-01	0	40	0	822607872	62	4811
2026-01-13 01:15:50.29	182.03	30.76	-45.2	-47.9	22.9	6.01e-01	0	40	0	825229312	62	4783
2026-01-13 01:15:51.00	182.10	30.60	-45.2	-47.9	22.9	6.02e-01	0	40	0	826802176	62	4806
2026-01-13 01:15:52.28	182.22	30.32	-45.3	-48.1	22.6	6.04e-01	0	40	0	828899328	62	4916
2026-01-13 01:15:52.99	182.28	30.16	-45.3	-48.2	22.6	6.02e-01	0	40	0	830472192	62	4929
2026-01-13 01:15:54.27	182.40	29.89	-45.3	-48.2	22.7	6.01e-01	0	40	0	832569344	62	4928
2026-01-13 01:15:55.00	182.47	29.73	-45.4	-48.2	22.6	6.03e-01	0	40	0	834142208	62	4950
2026-01-13 01:15:56.45	182.60	29.42	-45.5	-48.4	22.5	6.03e-01	0	40	0	836763648	62	5056
2026-01-13 01:15:57.16	182.66	29.27	-45.4	-48.3	22.5	6.02e-01	0	40	0	838336512	62	4996
2026-01-13 01:15:58.52	182.78	28.99	-45.4	-48.3	22.5	6.02e-01	0	40	0	840957952	62	4994
2026-01-13 01:15:59.23	182.84	28.84	-45.5	-48.4	22.4	6.01e-01	0	40	0	842006528	62	5056
2026-01-13 01:16:00.57	182.96	28.56	-45.6	-48.5	22.4	6.03e-01	0	40	0	844627968	62	5114
2026-01-13 01:16:01.28	183.02	28.42	-45.7	-48.6	22.3	6.01e-01	0	40	0	845676544	62	5171
2026-01-13 01:16:02.66	183.13	28.14	-45.7	-48.6	22.3	6.02e-01	0	40	0	848297984	62	5187
2026-01-13 01:16:03.37	183.19	27.99	-45.7	-48.6	22.2	6.01e-01	0	40	0	849870848	62	5189
2026-01-13 01:16:04.72	183.30	27.72	-45.7	-48.7	22.1	5.99e-01	0	40	0	852492288	62	5256
2026-01-13 01:16:05.43	183.35	27.58	-45.8	-48.7	22.1	6.02e-01	0	40	0	853540864	62	5269
2026-01-13 01:16:06.77	183.46	27.32	-45.7	-48.7	22.1	6.01e-01	0	40	0	856162304	62	5278
2026-01-13 01:16:07.48	183.51	27.18	-45.8	-48.8	22.1	6.03e-01	0	40	0	857735168	62	5322
2026-01-13 01:16:08.76	183.61	26.93	-45.9	-49.0	21.9	6.00e-01	0	40	0	859832320	62	5412
2026-01-13 01:16:09.48	183.67	26.79	-45.8	-49.0	21.9	6.00e-01	0	39	0	861405184	62	5405
2026-01-13 01:16:10.76	183.76	26.55	-45.9	-49.0	21.8	6.00e-01	0	40	0	863502336	62	5461
2026-01-13 01:16:11.47	183.82	26.41	-45.9	-49.1	21.8	6.01e-01	0	40	0	865075200	62	5485
2026-01-13 01:16:12.75	183.91	26.17	-45.9	-49.1	21.7	6.03e-01	0	40	0	867172352	62	5509
2026-01-13 01:16:13.47	183.96	26.04	-46.0	-49.2	21.7	6.00e-01	0	40	0	868745216	62	5584
2026-01-13 01:16:14.75	184.05	25.80	-46.0	-49.1	21.8	6.02e-01	0	40	0	871366656	62	5508
2026-01-13 01:16:15.47	184.11	25.67	-46.0	-49.2	21.7	6.02e-01	0	40	0	872415232	62	5546
2026-01-13 01:16:16.75	184.20	25.43	-46.1	-49.3	21.7	6.02e-01	0	40	0	875036672	62	5605
2026-01-13 01:16:17.48	184.25	25.30	-46.1	-49.3	21.6	6.01e-01	0	40	0	876085248	62	5604
2026-01-13 01:16:18.76	184.33	25.07	-46.1	-49.3	21.6	5.99e-01	0	40	0	878706688	62	5603
2026-01-13 01:16:19.51	184.38	24.94	-46.1	-49.3	21.6	6.02e-01	0	40	0	880279552	62	5614
2026-01-13 01:16:20.79	184.47	24.71	-46.1	-49.3	21.6	6.02e-01	0	40	0	882376704	62	5646
2026-01-13 01:16:21.53	184.52	24.58	-46.0	-49.2	21.6	6.01e-01	0	40	0	883949568	62	5590
2026-01-13 01:16:22.81	184.60	24.35	-46.0	-49.3	21.6	6.01e-01	0	40	0	886046720	62	5610
2026-01-13 01:16:23.52	184.65	24.23	-46.0	-49.3	21.6	6.01e-01	0	40	0	887619584	62	5635
2026-01-13 01:16:24.80	184.73	24.01	-46.0	-49.4	21.5	6.04e-01	0	40	0	889716736	62	5662
2026-01-13 01:16:25.51	184.78	23.89	-46.1	-49.4	21.5	6.01e-01	0	40	0	891289600	62	5701
2026-01-13 01:16:26.80	184.86	23.67	-46.2	-49.5	21.4	6.03e-01	0	40	0	893911040	63	5453
2026-01-13 01:16:27.70	184.91	23.52	-46.2	-49.5	21.4	6.04e-01	0	40	0	895483904	63	5437
2026-01-13 01:16:29.13	185.00	23.28	-46.2	-49.6	21.3	6.03e-01	0	40	0	898105344	63	5478
2026-01-13 01:16:29.84	185.04	23.16	-46.1	-49.5	21.4	6.02e-01	0	40	0	899678208	63	5434
2026-01-13 01:16:31.32	185.13	22.91	-46.2	-49.5	21.4	6.02e-01	0	40	0	902299648	63	5457
2026-01-13 01:16:32.04	185.17	22.79	-46.2	-49.5	21.4	6.01e-01	0	40	0	903348224	63	5452
2026-01-13 01:16:33.32	185.25	22.59	-46.2	-49.6	21.3	6.01e-01	0	40	0	905969664	63	5472
2026-01-13 01:16:34.03	185.29	22.47	-46.3	-49.7	21.3	6.04e-01	0	40	0	907542528	63	5533
2026-01-13 01:16:35.31	185.36	22.27	-46.3	-49.6	21.3	6.02e-01	0	40	0	909639680	63	5527
2026-01-13 01:16:36.02	185.40	22.15	-46.2	-49.5	21.4	6.03e-01	0	40	0	911212544	63	5460
2026-01-13 01:16:37.30	185.47	21.95	-46.2	-49.5	21.4	6.04e-01	0	40	0	913309696	63	5406
2026-01-13 01:16:38.04	185.52	21.83	-46.2	-49.4	21.5	6.01e-01	0	40	0	914882560	63	5381
2026-01-13 01:16:39.32	185.59	21.63	-46.3	-49.5	21.3	5.99e-01	0	40	0	916979712	63	5459
2026-01-13 01:16:40.03	185.63	21.52	-46.2	-49.4	21.5	6.01e-01	0	40	0	918552576	63	5351
2026-01-13 01:16:41.31	185.69	21.32	-46.2	-49.4	21.5	6.01e-01	0	40	0	920649728	63	5351
2026-01-13 01:16:42.19	185.74	21.19	-46.2	-49.5	21.4	6.01e-01	0	40	0	922746880	63	5406
2026-01-13 01:16:43.61	185.82	20.97	-46.3	-49.5	21.3	6.03e-01	0	40	0	925368320	63	5452
2026-01-13 01:16:44.33	185.85	20.86	-46.2	-49.4	21.5	6.03e-01	0	40	0	926416896	63	5364
2026-01-13 01:16:45.61	185.92	20.67	-46.1	-49.4	21.5	6.03e-01	0	40	0	929038336	63	5341
2026-01-13 01:16:46.32	185.96	20.57	-46.0	-49.3	21.5	6.01e-01	0	40	0	930611200	63	5316
2026-01-13 01:16:47.60	186.02	20.38	-45.9	-49.4	21.5	6.02e-01	0	40	0	932708352	63	5349
2026-01-13 01:16:48.31	186.06	20.27	-45.9	-49.3	21.5	5.99e-01	0	40	0	934281216	63	5317
2026-01-13 01:16:49.59	186.12	20.08	-45.9	-49.4	21.4	6.03e-01	0	40	0	936378368	63	5351
2026-01-13 01:16:50.31	186.16	19.98	-45.8	-49.3	21.6	6.02e-01	0	40	0	937951232	63	5310
2026-01-13 01:16:51.60	186.22	19.79	-45.8	-49.2	21.6	5.98e-01	0	40	0	940048384	63	5268
2026-01-13 01:16:52.31	186.25	19.69	-45.8	-49.3	21.6	5.99e-01	0	40	0	941621248	63	5286
2026-01-13 01:16:53.58	186.32	19.51	-45.8	-49.2	21.6	6.02e-01	0	40	0	943718400	63	5239
2026-01-13 01:16:54.29	186.35	19.41	-45.8	-49.2	21.7	6.00e-01	0	40	0	945291264	63	5226
2026-01-13 01:16:55.60	186.41	19.22	-45.9	-49.2	21.6	6.01e-01	0	40	0	947912704	63	5274
2026-01-13 01:16:56.55	186.46	19.09	-45.8	-49.1	21.7	6.01e-01	0	40	0	949485568	63	5206
2026-01-13 01:16:57.55	186.50	18.95	-45.8	-49.1	21.7	5.99e-01	0	40	0	951582720	63	5191
2026-01-13 01:16:58.54	186.55	18.81	-45.9	-49.2	21.6	6.03e-01	0	40	0	953155584	63	5261
2026-01-13 01:16:59.53	186.59	18.68	-45.9	-49.2	21.6	6.03e-01	0	40	0	955252736	63	5255
2026-01-13 01:17:00.53	186.64	18.54	-45.9	-49.2	21.6	6.03e-01	0	40	0	956825600	63	5267
2026-01-13 01:17:01.52	186.68	18.40	-45.9	-49.2	21.6	6.02e-01	0	40	0	958922752	63	5262
2026-01-13 01:17:02.52	186.73	18.27	-45.8	-49.2	21.6	6.02e-01	0	40	0	960495616	63	5249
2026-01-13 01:17:03.52	186.77	18.13	-45.7	-49.1	21.7	6.04e-01	0	39	0	962592768	63	5192
2026-01-13 01:17:04.51	186.81	18.00	-45.6	-49.0	21.7	6.01e-01	0	40	0	964689920	63	5145
2026-01-13 01:17:05.51	186.86	17.87	-45.7	-49.1	21.7	6.02e-01	0	40	0	966262784	63	5209
2026-01-13 01:17:06.51	186.90	17.74	-45.7	-49.1	21.7	6.00e-01	0	40	0	968359936	63	5206
2026-01-13 01:17:07.50	186.94	17.61	-45.6	-49.0	21.8	6.03e-01	0	40	0	969932800	63	5140
2026-01-13 01:17:08.50	186.98	17.48	-45.6	-49.1	21.7	6.02e-01	0	40	0	972029952	63	5166
2026-01-13 01:17:09.49	187.02	17.35	-45.5	-49.0	21.7	6.03e-01	0	40	0	973602816	63	5144
2026-01-13 01:17:10.49	187.06	17.22	-45.5	-49.1	21.7	6.02e-01	0	40	0	975699968	63	5164
2026-01-13 01:17:11.48	187.11	17.09	-45.5	-49.0	21.7	6.01e-01	0	40	0	977272832	63	5159
2026-01-13 01:17:12.48	187.15	16.96	-45.5	-49.1	21.7	6.03e-01	0	40	0	979369984	63	5193
2026-01-13 01:17:13.47	187.19	16.84	-45.5	-49.1	21.7	6.00e-01	0	40	0	981467136	63	5180
2026-01-13 01:17:14.47	187.23	16.71	-45.5	-49.1	21.6	6.00e-01	0	39	0	983040000	63	5217
2026-01-13 01:17:15.46	187.27	16.59	-45.5	-49.2	21.6	6.03e-01	0	39	0	985137152	63	5246
2026-01-13 01:17:16.46	187.30	16.46	-45.6	-49.2	21.6	6.02e-01	0	40	0	986710016	63	5265
2026-01-13 01:17:17.45	187.34	16.34	-45.6	-49.2	21.5	6.05e-01	0	40	0	988807168	63	5270
2026-01-13 01:17:18.44	187.38	16.22	-45.6	-49.3	21.5	6.02e-01	0	40	0	990380032	63	5297
2026-01-13 01:17:19.47	187.42	16.09	-45.6	-49.3	21.4	6.02e-01	0	40	0	992477184	63	5334
2026-01-13 01:17:20.50	187.46	15.97	-45.6	-49.3	21.4	6.05e-01	0	40	0	994574336	63	5334
2026-01-13 01:17:21.49	187.50	15.85	-45.7	-49.4	21.4	6.01e-01	0	40	0	996147200	63	5375
2026-01-13 01:17:22.55	187.54	15.72	-45.6	-49.4	21.3	6.02e-01	0	40	0	998244352	63	5367
2026-01-13 01:17:23.45	187.57	15.61	-45.6	-49.3	21.3	6.03e-01	0	40	0	999817216	63	5338
2026-01-13 01:17:24.47	187.61	15.49	-45.6	-49.4	21.3	6.02e-01	0	39	0	1001914368	63	5389
2026-01-13 01:17:25.47	187.65	15.37	-45.5	-49.4	21.3	6.03e-01	0	40	0	1004011520	63	5354
2026-01-13 01:17:26.46	187.68	15.25	-45.5	-49.3	21.4	6.04e-01	0	40	0	1005584384	63	5340
2026-01-13 01:17:27.46	187.72	15.13	-45.5	-49.4	21.4	6.05e-01	0	40	0	1007681536	63	5347
2026-01-13 01:17:28.45	187.75	15.02	-45.4	-49.3	21.5	6.02e-01	0	40	0	1009254400	62	5597
2026-01-13 01:17:29.43	187.79	14.90	-45.6	-49.4	21.3	6.02e-01	0	40	0	1011351552	62	5696
2026-01-13 01:17:30.42	187.82	14.79	-45.6	-49.5	21.2	6.01e-01	0	40	0	1012924416	62	5737
2026-01-13 01:17:31.42	187.86	14.67	-45.5	-49.4	21.3	6.03e-01	0	40	0	1015021568	62	5664
2026-01-13 01:17:32.41	187.89	14.56	-45.4	-49.3	21.4	6.01e-01	0	40	0	1016594432	62	5599
2026-01-13 01:17:33.41	187.93	14.45	-45.4	-49.3	21.4	6.02e-01	0	40	0	1018691584	62	5619
2026-01-13 01:17:34.40	187.96	14.33	-45.5	-49.4	21.4	6.00e-01	0	40	0	1020788736	62	5658
2026-01-13 01:17:35.40	187.99	14.22	-45.5	-49.3	21.4	6.02e-01	0	39	0	1022361600	62	5616
2026-01-13 01:17:36.40	188.03	14.11	-45.4	-49.2	21.4	6.04e-01	0	40	0	1024458752	62	5587
2026-01-13 01:17:37.39	188.06	14.00	-45.4	-49.2	21.5	6.01e-01	0	40	0	1026031616	62	5571
2026-01-13 01:17:38.45	188.10	13.88	-45.5	-49.3	21.4	6.02e-01	0	40	0	1028128768	62	5611
2026-01-13 01:17:39.33	188.13	13.78	-45.5	-49.3	21.4	6.03e-01	0	40	0	1029701632	62	5615
2026-01-13 01:17:40.47	188.16	13.66	-45.6	-49.4	21.3	6.03e-01	0	40	0	1031798784	62	5699
2026-01-13 01:17:41.33	188.19	13.56	-45.5	-49.3	21.3	6.01e-01	0	40	0	1033371648	62	5638
2026-01-13 01:17:42.47	188.23	13.44	-45.5	-49.4	21.3	6.04e-01	0	40	0	1035468800	62	5668
2026-01-13 01:17:43.32	188.26	13.35	-45.5	-49.4	21.3	6.01e-01	0	40	0	1037041664	62	5659
2026-01-13 01:17:44.45	188.29	13.23	-45.5	-49.3	21.3	6.02e-01	0	40	0	1039138816	62	5631
2026-01-13 01:17:45.30	188.32	13.13	-45.5	-49.4	21.3	6.01e-01	0	40	0	1041235968	62	5670
2026-01-13 01:17:46.44	188.35	13.01	-45.5	-49.4	21.2	6.04e-01	0	40	0	1043333120	62	5702
2026-01-13 01:17:47.30	188.38	12.92	-45.6	-49.4	21.2	6.00e-01	0	40	0	1044905984	62	5720
2026-01-13 01:17:48.43	188.42	12.80	-45.5	-49.5	21.2	6.02e-01	0	39	0	1047003136	62	5728
2026-01-13 01:17:49.29	188.44	12.71	-45.6	-49.6	21.1	6.01e-01	0	40	0	1048576000	62	5807
2026-01-13 01:17:50.47	188.48	12.59	-45.5	-49.5	21.1	6.02e-01	0	39	0	1050673152	62	5762
2026-01-13 01:17:51.32	188.50	12.50	-45.6	-49.5	21.1	6.02e-01	0	39	0	1052246016	62	5763
2026-01-13 01:17:52.46	188.54	12.38	-45.5	-49.5	21.1	6.02e-01	0	40	0	1054343168	62	5774
2026-01-13 01:17:53.31	188.56	12.29	-45.5	-49.5	21.1	6.03e-01	0	40	0	1055916032	62	5753
2026-01-13 01:17:54.57	188.60	12.16	-45.5	-49.6	21.1	6.04e-01	0	40	0	1058537472	62	5815
2026-01-13 01:17:55.36	188.62	12.08	-45.5	-49.5	21.1	6.01e-01	0	40	0	1059586048	62	5784
2026-01-13 01:17:56.70	188.66	11.94	-45.5	-49.6	21.0	6.02e-01	0	40	0	1062207488	62	5850
2026-01-13 01:17:57.41	188.68	11.87	-45.5	-49.7	20.9	6.03e-01	0	40	0	1063780352	62	5887
2026-01-13 01:17:58.81	188.72	11.73	-45.6	-49.8	20.9	6.03e-01	0	40	0	1066401792	62	5932
2026-01-13 01:17:59.52	188.75	11.66	-45.6	-49.7	20.9	6.00e-01	0	40	0	1067450368	62	5918
2026-01-13 01:18:00.80	188.78	11.53	-45.6	-49.7	20.9	6.01e-01	0	40	0	1070071808	62	5911
2026-01-13 01:18:01.52	188.80	11.46	-45.6	-49.8	20.8	6.02e-01	0	40	0	1071120384	62	5972
2026-01-13 01:18:02.79	188.84	11.33	-45.6	-49.8	20.8	6.02e-01	0	40	0	1073741824	62	5945
2026-01-13 01:18:03.50	188.86	11.26	-45.7	-49.9	20.8	6.03e-01	0	40	0	1075314688	62	5998
2026-01-13 01:18:04.78	188.89	11.14	-45.6	-49.8	20.9	6.01e-01	0	40	0	1077411840	62	5946
2026-01-13 01:18:05.51	188.91	11.07	-45.6	-49.8	20.8	6.01e-01	0	40	0	1078984704	62	5969
2026-01-13 01:18:06.79	188.95	10.94	-45.6	-49.8	20.8	6.02e-01	0	40	0	1081081856	62	5961
2026-01-13 01:18:07.51	188.97	10.87	-45.7	-49.9	20.7	6.02e-01	0	40	0	1082654720	62	5995
2026-01-13 01:18:08.79	189.00	10.75	-45.7	-49.9	20.7	6.01e-01	0	40	0	1085276160	62	6015
2026-01-13 01:18:09.52	189.02	10.68	-45.7	-49.9	20.8	5.99e-01	0	40	0	1086324736	62	5995
2026-01-13 01:18:10.80	189.06	10.56	-45.8	-50.0	20.6	6.02e-01	0	40	0	1088946176	62	6078
2026-01-13 01:18:11.51	189.08	10.49	-45.8	-50.0	20.6	6.01e-01	0	40	0	1089994752	62	6080
2026-01-13 01:18:12.79	189.11	10.37	-45.8	-49.9	20.7	6.03e-01	0	40	0	1092616192	62	6033
2026-01-13 01:18:13.50	189.13	10.30	-45.9	-50.1	20.5	6.01e-01	0	40	0	1093664768	62	6143
2026-01-13 01:18:14.78	189.16	10.18	-45.8	-50.1	20.5	6.00e-01	0	40	0	1096286208	62	6147
2026-01-13 01:18:15.49	189.18	10.11	-45.8	-50.1	20.5	6.02e-01	0	40	0	1097859072	62	6169
2026-01-13 01:18:16.79	189.21	9.99	-45.9	-50.1	20.5	6.02e-01	0	39	0	1099956224	62	6186
2026-01-13 01:18:17.50	189.23	9.93	-45.9	-50.2	20.4	6.00e-01	0	40	0	1101529088	62	6206
2026-01-13 01:18:18.78	189.26	9.81	-45.9	-50.2	20.4	6.03e-01	0	40	0	1103626240	62	6219
2026-01-13 01:18:19.52	189.28	9.74	-45.9	-50.1	20.4	6.01e-01	0	40	0	1105199104	62	6190
2026-01-13 01:18:20.80	189.31	9.62	-45.9	-50.1	20.4	6.01e-01	0	40	0	1107296256	62	6192
2026-01-13 01:18:21.52	189.33	9.56	-45.9	-50.2	20.4	6.02e-01	0	40	0	1108869120	62	6243
2026-01-13 01:18:22.80	189.36	9.44	-45.9	-50.2	20.4	5.98e-01	0	40	0	1111490560	62	6227
2026-01-13 01:18:23.52	189.38	9.37	-45.9	-50.2	20.3	6.02e-01	0	40	0	1112539136	62	6264
2026-01-13 01:18:24.80	189.41	9.26	-46.0	-50.3	20.3	5.98e-01	0	39	0	1115160576	62	6275
2026-01-13 01:18:25.51	189.43	9.19	-46.0	-50.3	20.3	6.02e-01	0	40	0	1116209152	62	6290
2026-01-13 01:18:26.80	189.46	9.08	-45.9	-50.2	20.3	6.01e-01	0	40	0	1118830592	62	6267
2026-01-13 01:18:27.55	189.48	9.01	-46.2	-50.8	19.8	6.02e-01	0	40	0	1120403456	63	6340
2026-01-13 01:18:28.82	189.51	8.90	-50.8	-69.5	4.0	7.46e-01	0	40	104	1120927744	72	32196
2026-01-13 01:18:29.55	189.53	8.83	-50.6	-71.4	3.9	7.45e-01	0	40	104	1120927744	72	40278
2026-01-13 01:18:30.83	189.56	8.72	-50.8	-72.3	3.8	7.47e-01	0	40	104	1120927744	72	44453
2026-01-13 01:18:31.54	189.58	8.66	-50.9	-72.3	3.8	7.45e-01	0	40	104	1120927744	72	44854
2026-01-13 01:18:32.81	189.61	8.55	-51.5	-72.4	3.8	7.46e-01	0	40	104	1120927744	74	40415
2026-01-13 01:18:33.54	189.62	8.48	-52.4	-72.5	3.8	7.50e-01	0	40	104	1120927744	75	38382
2026-01-13 01:18:34.81	189.65	8.37	-52.2	-72.5	3.8	7.48e-01	0	40	104	1120927744	75	38382
2026-01-13 01:18:35.55	189.67	8.31	-52.3	-72.5	3.8	7.48e-01	0	40	104	1120927744	75	38508
2026-01-13 01:18:36.83	189.70	8.20	-51.9	-72.5	3.8	7.46e-01	0	40	104	1120927744	75	38528
2026-01-13 01:18:37.54	189.71	8.14	-52.4	-72.5	3.8	7.47e-01	0	40	104	1120927744	75	38616
2026-01-13 01:18:38.83	189.74	8.03	-52.6	-72.5	3.8	7.46e-01	0	40	104	1120927744	75	38632
2026-01-13 01:18:39.54	189.76	7.97	-52.3	-72.5	3.8	7.45e-01	0	40	104	1120927744	75	38610
2026-01-13 01:18:40.82	189.79	7.86	-52.4	-72.5	3.8	7.46e-01	0	40	104	1120927744	75	38503
2026-01-13 01:18:41.54	189.80	7.80	-51.9	-72.5	3.8	7.49e-01	0	40	104	1120927744	74	40951
2026-01-13 01:18:42.82	189.83	7.69	-52.5	-72.5	3.8	7.46e-01	0	40	104	1120927744	75	38522
2026-01-13 01:18:43.53	189.85	7.63	-52.3	-72.5	3.8	7.48e-01	0	40	104	1120927744	75	38541
2026-01-13 01:18:44.81	189.88	7.52	-52.3	-72.5	3.8	7.43e-01	0	40	104	1120927744	75	38558
2026-01-13 01:18:45.52	189.89	7.46	-52.6	-72.5	3.8	7.48e-01	0	40	104	1120927744	75	38538
2026-01-13 01:18:46.80	189.92	7.36	-52.5	-72.6	3.8	7.45e-01	0	40	104	1120927744	76	36538
2026-01-13 01:18:47.52	189.93	7.30	-52.5	-72.5	3.8	7.44e-01	0	40	104	1120927744	76	36520
2026-01-13 01:18:48.80	189.96	7.19	-52.2	-72.6	3.8	7.47e-01	0	39	104	1120927744	76	36572
2026-01-13 01:18:49.51	189.98	7.13	-52.3	-72.5	3.8	7.48e-01	0	40	104	1120927744	76	36493
2026-01-13 01:18:50.79	190.00	7.03	-52.4	-72.6	3.8	7.47e-01	0	40	104	1120927744	76	36567
2026-01-13 01:18:51.49	190.02	6.97	-52.3	-72.5	3.8	7.47e-01	0	40	104	1120927744	76	36514
2026-01-13 01:18:52.82	190.05	6.86	-52.1	-72.5	3.8	7.47e-01	0	40	104	1120927744	75	38418
2026-01-13 01:18:53.53	190.06	6.81	-51.7	-72.5	3.8	7.47e-01	0	40	104	1120927744	75	38429
2026-01-13 01:18:54.87	190.09	6.70	-51.9	-72.5	3.8	7.44e-01	0	40	104	1120927744	75	38264
2026-01-13 01:18:55.58	190.10	6.64	-52.0	-72.4	3.8	7.44e-01	0	40	104	1120927744	75	38240
2026-01-13 01:18:56.86	190.13	6.54	-52.0	-72.4	3.8	7.46e-01	0	40	104	1120927744	75	38226
2026-01-13 01:18:57.56	190.15	6.48	-52.0	-72.5	3.8	7.43e-01	0	40	104	1120927744	75	38264
2026-01-13 01:18:58.84	190.17	6.38	-52.0	-72.5	3.8	7.47e-01	0	40	104	1120927744	75	38261
2026-01-13 01:18:59.57	190.19	6.32	-52.0	-72.4	3.8	7.46e-01	0	40	104	1120927744	75	38204
2026-01-13 01:19:00.84	190.21	6.22	-52.0	-72.5	3.8	7.48e-01	0	40	104	1120927744	75	38265
2026-01-13 01:19:01.55	190.23	6.17	-52.0	-72.4	3.8	7.46e-01	0	40	104	1120927744	75	38239
2026-01-13 01:19:02.83	190.25	6.07	-52.0	-72.4	3.8	7.46e-01	0	40	104	1120927744	75	38198
2026-01-13 01:19:03.54	190.27	6.01	-52.0	-72.4	3.8	7.45e-01	0	39	104	1120927744	75	38142
2026-01-13 01:19:04.82	190.29	5.91	-52.0	-72.4	3.8	7.46e-01	0	40	104	1120927744	75	38193
2026-01-13 01:19:05.53	190.30	5.86	-52.0	-72.4	3.8	7.47e-01	0	40	104	1120927744	75	38217
2026-01-13 01:19:06.80	190.33	5.76	-52.0	-72.4	3.8	7.46e-01	0	40	104	1120927744	75	38192
2026-01-13 01:19:07.51	190.34	5.70	-52.0	-72.4	3.8	7.45e-01	0	40	104	1120927744	75	38179
2026-01-13 01:19:08.79	190.37	5.60	-52.0	-72.4	3.8	7.49e-01	0	40	104	1120927744	75	38243
2026-01-13 01:19:09.50	190.38	5.55	-52.0	-72.4	3.8	7.44e-01	0	40	104	1120927744	75	38190
2026-01-13 01:19:10.78	190.41	5.45	-52.0	-72.4	3.8	7.46e-01	0	40	104	1120927744	75	38104
2026-01-13 01:19:11.49	190.42	5.40	-52.0	-72.4	3.8	7.46e-01	0	40	104	1120927744	75	38152
2026-01-13 01:19:12.76	190.44	5.30	-52.0	-72.4	3.8	7.47e-01	0	40	104	1120927744	75	38188
2026-01-13 01:19:13.50	190.46	5.25	-52.0	-72.4	3.8	7.48e-01	0	39	104	1120927744	75	38227
2026-01-13 01:19:14.78	190.48	5.15	-52.0	-72.4	3.8	7.46e-01	0	40	104	1120927744	75	38144
2026-01-13 01:19:15.50	190.50	5.09	-52.0	-72.4	3.8	7.47e-01	0	40	104	1120927744	75	38131
2026-01-13 01:19:16.78	190.52	5.00	-51.9	-72.4	3.8	7.46e-01	0	40	104	1120927744	75	38158

#Closed at: 2026-01-13 01:19:17
#Recorded file [1120 MB]: D:/Data/31040_260113_040753.dat