passes_logs/2026/01/13/T1/T1__20260113_203909_KHAYYAM_rec.log

#Pass ID: 20260113_203909_KHAYYAM
#Satellite: KHAYYAM
#Configuration: KHAYYAM_480M
#almurnet v.1.7.20251203
#Start time: 2026-01-13 20:39:10

#Version: 2.0.20230620
#Station: T1
#Location: 37.570604 lon 55.790049 lat
#TLE: 1 53370U 22096A   26012.85651212  .00005351  00000+0  21920-3 0  9998
#TLE: 2 53370  97.3560 279.9057 0001312 102.4830 257.6555 15.24704528190917

#Time	Az	El	Level	Level2	SNR	BER	BlckErr	Temp	State	Recorded	gain1	gain2
2026-01-13 20:39:10.86	23.52	4.59	-49.5	-52.1	3.9	0.00e+00	0	46	0	0	70	19551
2026-01-13 20:39:11.84	23.58	4.66	-49.4	-52.0	3.9	0.00e+00	0	46	104	0	69	20432
2026-01-13 20:39:12.84	23.65	4.74	-49.4	-51.9	3.9	0.00e+00	0	46	104	0	69	20282
2026-01-13 20:39:13.83	23.72	4.81	-49.3	-51.7	3.9	0.00e+00	0	46	104	0	69	19928
2026-01-13 20:39:14.82	23.79	4.89	-49.1	-51.6	3.8	0.00e+00	0	46	104	0	69	19590
2026-01-13 20:39:15.82	23.86	4.96	-49.0	-51.5	3.8	0.00e+00	0	46	104	0	69	19345
2026-01-13 20:39:16.81	23.93	5.04	-48.9	-51.3	3.8	0.00e+00	0	46	104	0	69	19008
2026-01-13 20:39:17.80	24.00	5.11	-48.7	-51.2	3.8	0.00e+00	0	46	104	0	69	18620
2026-01-13 20:39:18.80	24.08	5.19	-48.7	-51.1	3.8	0.00e+00	0	47	104	0	69	18481
2026-01-13 20:39:19.79	24.15	5.27	-48.7	-51.1	3.7	0.00e+00	0	47	104	0	69	18458
2026-01-13 20:39:20.79	24.22	5.34	-48.7	-51.1	3.7	0.00e+00	0	47	104	0	69	18431
2026-01-13 20:39:21.78	24.29	5.42	-48.7	-51.2	3.8	0.00e+00	0	47	104	0	69	18675
2026-01-13 20:39:22.77	24.37	5.50	-48.9	-51.3	3.8	0.00e+00	0	47	104	0	69	18974
2026-01-13 20:39:23.77	24.44	5.58	-49.1	-51.5	3.8	0.00e+00	0	47	104	0	69	19378
2026-01-13 20:39:24.76	24.51	5.65	-49.2	-51.7	3.9	0.00e+00	0	47	104	0	69	19908
2026-01-13 20:39:25.75	24.59	5.73	-49.4	-51.9	3.9	0.00e+00	0	47	104	0	69	20306
2026-01-13 20:39:26.74	24.66	5.81	-49.5	-52.0	3.9	0.00e+00	0	47	104	0	69	20554
2026-01-13 20:39:27.74	24.74	5.89	-49.5	-52.0	3.9	0.00e+00	0	47	104	0	69	20615
2026-01-13 20:39:28.73	24.82	5.97	-49.5	-52.0	3.9	0.00e+00	0	47	104	0	69	20587
2026-01-13 20:39:29.72	24.89	6.05	-49.4	-52.0	3.9	0.00e+00	0	47	104	0	69	20439
2026-01-13 20:39:30.72	24.97	6.13	-49.4	-52.0	3.9	0.00e+00	0	47	104	0	69	20410
2026-01-13 20:39:31.71	25.05	6.20	-49.4	-52.0	3.9	0.00e+00	0	48	104	0	69	20441
2026-01-13 20:39:32.70	25.13	6.28	-49.5	-52.0	3.9	0.00e+00	0	48	104	0	69	20488
2026-01-13 20:39:33.70	25.21	6.37	-49.5	-52.0	3.9	0.00e+00	0	48	104	0	69	20561
2026-01-13 20:39:34.69	25.29	6.45	-49.5	-52.0	3.9	0.00e+00	0	48	104	0	69	20623
2026-01-13 20:39:35.68	25.36	6.53	-49.5	-52.0	3.9	0.00e+00	0	48	104	0	69	20620
2026-01-13 20:39:36.68	25.45	6.61	-49.5	-52.0	3.9	0.00e+00	0	48	104	0	69	20619
2026-01-13 20:39:37.67	25.53	6.69	-49.5	-52.0	3.9	0.00e+00	0	48	104	0	69	20605
2026-01-13 20:39:38.67	25.61	6.77	-49.5	-52.0	3.9	0.00e+00	0	48	104	0	69	20583
2026-01-13 20:39:39.66	25.69	6.85	-49.5	-52.0	3.9	0.00e+00	0	48	104	0	69	20582
2026-01-13 20:39:40.65	25.77	6.94	-49.5	-52.0	3.9	0.00e+00	0	48	104	0	69	20611
2026-01-13 20:39:41.65	25.86	7.02	-49.5	-52.0	3.9	0.00e+00	0	48	104	0	69	20595
2026-01-13 20:39:42.64	25.94	7.10	-49.5	-52.0	3.9	0.00e+00	0	48	104	0	69	20585
2026-01-13 20:39:43.63	26.02	7.19	-49.5	-52.0	3.9	0.00e+00	0	48	104	0	69	20622
2026-01-13 20:39:44.63	26.11	7.27	-49.5	-52.0	3.9	0.00e+00	0	48	104	0	69	20584
2026-01-13 20:39:45.62	26.20	7.35	-49.5	-52.0	3.9	0.00e+00	0	48	104	0	69	20578
2026-01-13 20:39:46.61	26.28	7.44	-49.5	-52.0	3.9	0.00e+00	0	48	104	0	69	20605
2026-01-13 20:39:47.61	26.37	7.52	-49.5	-52.0	3.9	0.00e+00	0	49	104	0	69	20619
2026-01-13 20:39:48.60	26.46	7.61	-49.5	-52.1	3.9	0.00e+00	0	49	104	0	69	20642
2026-01-13 20:39:49.59	26.54	7.69	-49.5	-52.1	3.9	0.00e+00	0	49	104	0	69	20661
2026-01-13 20:39:50.59	26.63	7.78	-49.5	-52.0	3.9	0.00e+00	0	49	104	0	69	20617
2026-01-13 20:39:51.58	26.72	7.87	-49.5	-52.0	3.9	0.00e+00	0	49	104	0	69	20594
2026-01-13 20:39:52.57	26.81	7.95	-49.5	-52.0	3.9	0.00e+00	0	49	104	0	69	20620
2026-01-13 20:39:53.57	26.90	8.04	-49.5	-52.0	3.9	0.00e+00	0	49	104	0	69	20593
2026-01-13 20:39:54.56	26.99	8.13	-49.5	-52.0	3.9	0.00e+00	0	49	104	0	69	20626
2026-01-13 20:39:55.55	27.08	8.21	-49.5	-52.0	3.9	0.00e+00	0	49	104	0	69	20605
2026-01-13 20:39:56.55	27.18	8.30	-49.5	-52.0	3.9	0.00e+00	0	49	104	0	69	20631
2026-01-13 20:39:57.54	27.27	8.39	-49.5	-52.0	3.9	0.00e+00	0	49	104	0	69	20625
2026-01-13 20:39:58.53	27.36	8.48	-49.5	-52.1	3.9	0.00e+00	0	49	104	0	69	20637
2026-01-13 20:39:59.53	27.46	8.57	-49.5	-52.1	3.9	0.00e+00	0	49	104	0	69	20675
2026-01-13 20:40:00.52	27.55	8.66	-49.5	-52.1	3.9	0.00e+00	0	49	104	0	69	20705
2026-01-13 20:40:01.51	27.65	8.75	-49.5	-52.1	3.9	0.00e+00	0	49	104	0	69	20671
2026-01-13 20:40:02.51	27.75	8.84	-49.5	-52.1	3.9	0.00e+00	0	49	104	0	69	20641
2026-01-13 20:40:03.50	27.84	8.93	-49.5	-52.0	3.9	0.00e+00	0	49	104	0	69	20630
2026-01-13 20:40:04.49	27.94	9.02	-49.5	-52.1	3.9	0.00e+00	0	49	104	0	69	20661
2026-01-13 20:40:05.48	28.04	9.11	-49.1	-51.6	3.9	0.00e+00	0	49	104	0	69	19508
2026-01-13 20:40:06.48	28.14	9.20	-49.2	-51.8	3.8	0.00e+00	0	49	104	0	69	20122
2026-01-13 20:40:07.48	28.24	9.29	-49.1	-51.5	3.8	0.00e+00	0	49	104	0	70	18379
2026-01-13 20:40:08.47	28.34	9.39	-49.3	-52.2	3.7	0.00e+00	0	49	104	0	70	19818
2026-01-13 20:40:09.46	28.44	9.48	-49.5	-52.3	3.7	0.00e+00	0	49	104	0	70	20161
2026-01-13 20:40:10.46	28.55	9.57	-49.1	-51.5	3.8	0.00e+00	0	49	104	0	70	18373
2026-01-13 20:40:11.45	28.65	9.67	-49.2	-51.7	3.8	0.00e+00	0	49	104	0	70	18765
2026-01-13 20:40:12.45	28.75	9.76	-49.4	-52.2	3.7	0.00e+00	0	49	104	0	70	19770
2026-01-13 20:40:13.44	28.86	9.85	-49.7	-52.9	3.7	0.00e+00	0	49	104	0	70	21437
2026-01-13 20:40:14.43	28.96	9.95	-50.1	-53.7	3.7	0.00e+00	0	49	104	0	70	23476
2026-01-13 20:40:15.43	29.07	10.05	-50.2	-53.9	3.7	0.00e+00	0	50	104	0	71	22761
2026-01-13 20:40:16.42	29.18	10.14	-48.9	-51.8	3.7	0.00e+00	0	50	104	0	69	19954
2026-01-13 20:40:17.42	29.29	10.24	-49.1	-51.7	3.7	0.00e+00	0	49	104	0	70	18731
2026-01-13 20:40:18.41	29.40	10.33	-48.5	-51.0	3.6	0.00e+00	0	49	104	0	67	20534
2026-01-13 20:40:19.41	29.51	10.43	-50.5	-53.5	3.8	0.00e+00	0	50	104	0	72	20404
2026-01-13 20:40:20.40	29.62	10.53	-47.5	-49.4	3.6	0.00e+00	0	49	104	0	66	18179
2026-01-13 20:40:21.39	29.73	10.63	-48.0	-50.0	3.7	0.00e+00	0	50	104	0	66	19441
2026-01-13 20:40:22.39	29.84	10.73	-49.0	-51.3	3.8	0.00e+00	0	49	104	0	68	20033
2026-01-13 20:40:23.38	29.96	10.82	-49.8	-52.3	3.9	0.00e+00	0	50	104	0	70	19972
2026-01-13 20:40:24.38	30.07	10.93	-50.1	-52.7	3.9	0.00e+00	0	50	104	0	70	20942
2026-01-13 20:40:25.37	30.19	11.02	-50.4	-53.1	3.9	0.00e+00	0	50	104	0	71	20767
2026-01-13 20:40:26.37	30.30	11.13	-52.5	-56.5	3.7	0.00e+00	0	50	104	0	75	24440
2026-01-13 20:40:27.46	30.43	11.24	-52.6	-57.1	3.7	0.00e+00	0	50	104	0	75	26118
2026-01-13 20:40:28.34	30.54	11.33	-51.7	-55.3	3.7	0.00e+00	0	50	104	0	73	23853
2026-01-13 20:40:29.48	30.67	11.44	-50.5	-53.3	3.8	0.00e+00	0	50	104	0	73	18912
2026-01-13 20:40:30.33	30.78	11.53	-50.4	-53.1	3.8	0.00e+00	0	50	104	0	72	19512
2026-01-13 20:40:31.47	30.92	11.65	-50.6	-53.3	3.8	0.00e+00	0	50	104	0	72	20118
2026-01-13 20:40:32.32	31.02	11.74	-51.1	-54.2	3.7	0.00e+00	0	50	104	0	72	22174
2026-01-13 20:40:33.46	31.16	11.86	-51.5	-54.9	3.7	0.00e+00	0	50	104	0	73	22706
2026-01-13 20:40:34.31	31.27	11.94	-51.8	-55.4	3.7	0.00e+00	0	50	104	0	74	22830
2026-01-13 20:40:35.45	31.41	12.06	-51.5	-55.1	3.7	0.00e+00	0	50	104	0	74	21948
2026-01-13 20:40:36.30	31.52	12.15	-51.7	-55.6	3.7	0.00e+00	0	50	104	0	74	23327
2026-01-13 20:40:37.44	31.67	12.28	-51.2	-54.4	3.7	0.00e+00	0	50	104	0	74	20353
2026-01-13 20:40:38.29	31.78	12.37	-51.4	-54.9	3.7	0.00e+00	0	50	104	0	74	21481
2026-01-13 20:40:39.44	31.93	12.49	-51.6	-55.3	3.7	0.00e+00	0	50	104	0	74	22582
2026-01-13 20:40:40.29	32.04	12.58	-51.7	-55.5	3.7	0.00e+00	0	50	104	0	74	23103
2026-01-13 20:40:41.43	32.19	12.71	-51.6	-55.5	3.7	0.00e+00	0	50	104	0	74	23079
2026-01-13 20:40:42.28	32.30	12.80	-51.7	-55.5	3.7	0.00e+00	0	50	104	0	74	23085
2026-01-13 20:40:43.42	32.46	12.92	-52.6	-56.9	3.7	0.00e+00	0	50	104	0	75	25600
2026-01-13 20:40:44.27	32.57	13.02	-51.5	-55.0	3.7	0.00e+00	0	50	104	0	74	21692
2026-01-13 20:40:45.61	32.76	13.16	-51.6	-55.0	3.7	0.00e+00	0	50	104	0	74	21833
2026-01-13 20:40:46.32	32.86	13.24	-51.4	-54.9	3.7	0.00e+00	0	50	104	0	74	21388
2026-01-13 20:40:47.60	33.04	13.39	-51.6	-55.0	3.7	0.00e+00	0	50	104	0	74	21716
2026-01-13 20:40:48.31	33.14	13.47	-51.6	-55.0	3.7	0.00e+00	0	50	104	0	74	21671
2026-01-13 20:40:49.60	33.32	13.61	-51.6	-55.0	3.7	0.00e+00	0	50	104	0	74	21725
2026-01-13 20:40:50.31	33.42	13.69	-51.6	-55.0	3.7	0.00e+00	0	50	104	0	74	21757
2026-01-13 20:40:51.59	33.61	13.84	-51.1	-54.1	3.7	0.00e+00	0	50	104	0	73	20696
2026-01-13 20:40:52.30	33.71	13.92	-52.3	-56.0	3.7	0.00e+00	0	50	104	0	75	23015
2026-01-13 20:40:53.57	33.90	14.07	-49.0	-51.7	3.8	0.00e+00	0	50	104	0	68	21056
2026-01-13 20:40:54.29	34.01	14.15	-49.4	-52.2	3.8	0.00e+00	0	50	104	0	69	21113
2026-01-13 20:40:55.56	34.20	14.30	-51.2	-54.9	3.7	0.00e+00	0	50	104	0	72	24220
2026-01-13 20:40:56.27	34.31	14.38	-51.1	-54.7	3.7	0.00e+00	0	50	104	0	73	22137
2026-01-13 20:40:57.55	34.50	14.53	-49.2	-51.7	3.8	0.00e+00	0	50	104	0	70	18616
2026-01-13 20:40:58.27	34.62	14.61	-47.8	-49.8	3.8	0.00e+00	0	50	104	0	67	17844
2026-01-13 20:40:59.54	34.81	14.77	-45.7	-47.4	3.6	0.00e+00	0	50	104	0	63	17028
2026-01-13 20:41:00.29	34.93	14.85	-45.4	-47.0	3.5	0.00e+00	0	50	104	0	62	17355
2026-01-13 20:41:01.55	35.13	15.01	-49.8	-52.3	3.7	0.00e+00	0	50	104	0	70	19978
2026-01-13 20:41:02.34	35.26	15.10	-50.9	-53.9	3.7	0.00e+00	0	50	104	0	72	21596
2026-01-13 20:41:03.65	35.47	15.26	-48.3	-50.3	3.6	0.00e+00	0	50	104	0	68	17903
2026-01-13 20:41:04.36	35.59	15.35	-47.7	-49.7	3.5	0.00e+00	0	50	104	0	67	17678
2026-01-13 20:41:05.64	35.80	15.50	-48.6	-50.8	3.6	0.00e+00	0	50	104	0	67	20074
2026-01-13 20:41:06.35	35.92	15.59	-49.2	-51.5	3.7	0.00e+00	0	50	104	0	68	20483
2026-01-13 20:41:07.85	36.17	15.77	-49.1	-51.3	3.8	0.00e+00	0	50	104	0	69	18949
2026-01-13 20:41:08.56	36.29	15.86	-49.0	-51.2	3.8	0.00e+00	0	50	104	0	69	18623
2026-01-13 20:41:09.84	36.51	16.02	-51.0	-54.2	3.7	0.00e+00	0	50	104	0	72	22310
2026-01-13 20:41:10.56	36.64	16.11	-50.5	-53.5	3.7	0.00e+00	0	51	104	0	73	19424
2026-01-13 20:41:11.84	36.86	16.27	-48.3	-50.5	3.7	0.00e+00	0	50	104	0	67	19320
2026-01-13 20:41:12.59	37.00	16.37	-47.8	-49.8	3.7	0.00e+00	0	50	104	0	67	17888
2026-01-13 20:41:13.86	37.22	16.53	-48.1	-50.1	3.7	0.00e+00	0	50	104	0	67	18600
2026-01-13 20:41:14.59	37.36	16.63	-48.9	-51.2	3.7	0.00e+00	0	50	104	0	68	19771
2026-01-13 20:41:15.87	37.59	16.79	-50.9	-54.0	3.7	0.00e+00	0	50	104	0	72	21692
2026-01-13 20:41:16.58	37.72	16.88	-51.6	-55.1	3.7	0.00e+00	0	50	104	0	73	23382
2026-01-13 20:41:17.86	37.96	17.05	-52.1	-56.0	3.7	0.00e+00	0	51	104	0	74	24447
2026-01-13 20:41:18.57	38.09	17.14	-51.5	-54.9	3.7	0.00e+00	0	50	104	0	74	21593
2026-01-13 20:41:19.85	38.34	17.31	-50.1	-52.4	3.9	0.00e+00	0	51	104	0	72	18040
2026-01-13 20:41:20.68	38.50	17.42	-50.5	-52.9	3.9	0.00e+00	0	50	104	0	72	19053
2026-01-13 20:41:22.10	38.77	17.61	-50.1	-52.5	3.8	0.00e+00	0	50	104	0	72	18250
2026-01-13 20:41:22.82	38.91	17.70	-50.3	-52.6	3.9	0.00e+00	0	50	104	0	72	18595
2026-01-13 20:41:24.09	39.16	17.87	-50.5	-53.0	3.9	0.00e+00	0	51	104	0	72	19431
2026-01-13 20:41:24.80	39.31	17.97	-50.8	-53.4	3.9	0.00e+00	0	51	104	0	72	20208
2026-01-13 20:41:26.08	39.57	18.14	-51.4	-54.3	3.8	0.00e+00	0	51	104	0	73	21300
2026-01-13 20:41:26.80	39.71	18.24	-52.5	-56.1	3.7	0.00e+00	0	51	104	0	75	23361
2026-01-13 20:41:28.07	39.98	18.41	-52.7	-56.6	3.7	0.00e+00	0	51	104	0	76	23211
2026-01-13 20:41:28.78	40.12	18.51	-52.0	-55.3	3.7	0.00e+00	0	51	104	0	76	20064
2026-01-13 20:41:30.06	40.39	18.69	-53.2	-57.5	3.7	0.00e+00	0	51	104	0	77	24273
2026-01-13 20:41:31.01	40.60	18.82	-51.9	-55.2	3.7	0.00e+00	0	51	104	0	75	21104
2026-01-13 20:41:32.00	40.81	18.96	-52.5	-56.2	3.7	0.00e+00	0	51	104	0	75	23454
2026-01-13 20:41:33.00	41.03	19.10	-53.0	-57.1	3.7	0.00e+00	0	51	104	0	76	24797
2026-01-13 20:41:34.00	41.25	19.24	-53.4	-57.8	3.7	0.00e+00	0	51	104	0	77	25224
2026-01-13 20:41:34.99	41.47	19.38	-53.5	-57.9	3.7	0.00e+00	0	51	104	0	77	25620
2026-01-13 20:41:35.99	41.69	19.52	-53.3	-57.5	3.7	0.00e+00	0	51	104	0	77	24463
2026-01-13 20:41:36.98	41.92	19.66	-53.5	-57.9	3.7	0.00e+00	0	51	104	0	77	25430
2026-01-13 20:41:37.97	42.14	19.80	-52.8	-56.5	3.7	0.00e+00	0	51	104	0	77	21837
2026-01-13 20:41:38.97	42.37	19.95	-52.9	-56.7	3.7	0.00e+00	0	51	104	0	77	22222
2026-01-13 20:41:39.97	42.61	20.09	-53.1	-57.0	3.7	0.00e+00	0	51	104	0	77	23002
2026-01-13 20:41:40.96	42.84	20.24	-52.9	-56.7	3.7	0.00e+00	0	51	104	0	77	22335
2026-01-13 20:41:41.96	43.08	20.38	-53.1	-57.2	3.7	0.00e+00	0	51	104	0	77	23644
2026-01-13 20:41:42.95	43.32	20.53	-52.9	-56.8	3.7	0.00e+00	0	51	104	0	77	22562
2026-01-13 20:41:43.95	43.57	20.67	-52.7	-56.5	3.7	0.00e+00	0	51	104	0	77	21701
2026-01-13 20:41:44.94	43.81	20.82	-52.8	-56.9	3.7	0.00e+00	0	51	104	0	77	22805
2026-01-13 20:41:45.94	44.06	20.97	-52.9	-57.1	3.7	0.00e+00	0	51	104	0	77	23162
2026-01-13 20:41:46.94	44.31	21.12	-52.4	-55.9	3.7	0.00e+00	0	51	104	0	76	21465
2026-01-13 20:41:47.93	44.57	21.27	-52.5	-56.2	3.7	0.00e+00	0	51	104	0	76	22235
2026-01-13 20:41:48.93	44.82	21.42	-52.6	-56.3	3.7	0.00e+00	0	51	104	0	76	22435
2026-01-13 20:41:49.92	45.08	21.56	-52.7	-56.6	3.7	0.00e+00	0	51	104	0	76	23260
2026-01-13 20:41:50.93	45.35	21.72	-52.5	-56.3	3.7	0.00e+00	0	51	104	0	76	22595
2026-01-13 20:41:51.96	45.62	21.87	-52.4	-56.1	3.7	0.00e+00	0	51	104	0	76	21957
2026-01-13 20:41:52.96	45.89	22.03	-52.2	-55.8	3.7	0.00e+00	0	51	104	0	76	21293
2026-01-13 20:41:53.95	46.16	22.18	-52.5	-56.3	3.7	0.00e+00	0	51	104	0	76	22499
2026-01-13 20:41:54.94	46.44	22.33	-53.5	-57.9	3.7	0.00e+00	0	51	104	0	77	25522
2026-01-13 20:41:55.94	46.71	22.49	-53.2	-57.5	3.7	0.00e+00	0	51	104	0	77	24396
2026-01-13 20:41:56.93	46.99	22.64	-53.5	-57.9	3.7	0.00e+00	0	51	104	0	77	25486
2026-01-13 20:41:57.93	47.28	22.79	-53.2	-57.5	3.7	0.00e+00	0	51	104	0	77	24308
2026-01-13 20:41:58.92	47.56	22.95	-53.1	-57.4	3.7	0.00e+00	0	51	104	0	77	23982
2026-01-13 20:41:59.92	47.85	23.10	-53.1	-57.3	3.7	0.00e+00	0	51	104	0	77	23851
2026-01-13 20:42:00.92	48.15	23.26	-53.1	-57.4	3.7	0.00e+00	0	51	104	0	77	24080
2026-01-13 20:42:01.91	48.44	23.42	-53.2	-57.5	3.7	0.00e+00	0	51	104	0	77	24384
2026-01-13 20:42:02.90	48.74	23.57	-53.2	-57.4	3.7	0.00e+00	0	51	104	0	77	24048
2026-01-13 20:42:03.90	49.05	23.73	-52.7	-56.4	3.7	0.00e+00	0	51	104	0	77	21589
2026-01-13 20:42:04.89	49.35	23.89	-53.2	-57.5	3.7	0.00e+00	0	51	104	0	77	24514
2026-01-13 20:42:05.94	49.68	24.06	-52.9	-56.9	3.7	0.00e+00	0	51	104	0	77	22802
2026-01-13 20:42:06.96	50.00	24.22	-53.2	-57.4	3.7	0.00e+00	0	51	104	0	77	24131
2026-01-13 20:42:07.99	50.33	24.38	-53.2	-57.3	3.7	0.00e+00	0	51	104	0	77	23942
2026-01-13 20:42:08.99	50.65	24.54	-53.3	-57.5	3.7	0.00e+00	0	51	104	0	77	24385
2026-01-13 20:42:09.98	50.97	24.70	-53.5	-57.8	3.7	0.00e+00	0	51	104	0	77	25265
2026-01-13 20:42:10.98	51.30	24.86	-53.4	-57.7	3.7	0.00e+00	0	51	104	0	77	24994
2026-01-13 20:42:11.97	51.63	25.02	-52.9	-56.9	3.7	0.00e+00	0	51	104	0	77	22821
2026-01-13 20:42:12.96	51.97	25.18	-52.9	-56.9	3.7	0.00e+00	0	51	104	0	77	22682
2026-01-13 20:42:13.96	52.31	25.35	-52.4	-56.1	3.7	0.00e+00	0	51	104	0	76	21908
2026-01-13 20:42:14.95	52.65	25.51	-53.4	-57.8	3.7	0.00e+00	0	51	104	0	77	25262
2026-01-13 20:42:15.95	53.00	25.67	-52.8	-56.7	3.7	0.00e+00	0	51	104	0	77	22356
2026-01-13 20:42:16.94	53.35	25.83	-53.3	-57.6	3.7	0.00e+00	0	51	104	0	77	24677
2026-01-13 20:42:17.94	53.71	25.99	-53.5	-58.1	3.7	0.00e+00	0	51	104	0	77	25995
2026-01-13 20:42:18.93	54.06	26.15	-53.5	-58.0	3.7	0.00e+00	0	51	104	0	77	25948
2026-01-13 20:42:19.93	54.43	26.32	-53.6	-58.1	3.7	0.00e+00	0	51	104	0	77	26055
2026-01-13 20:42:20.92	54.79	26.48	-53.7	-58.2	3.7	0.00e+00	0	51	104	0	77	26304
2026-01-13 20:42:21.92	55.17	26.64	-53.6	-57.9	3.7	0.00e+00	0	51	104	0	77	25471
2026-01-13 20:42:22.93	55.55	26.81	-53.6	-58.0	3.7	0.00e+00	0	51	104	0	77	25755
2026-01-13 20:42:23.97	55.94	26.97	-53.5	-57.7	3.7	0.00e+00	0	51	104	0	77	25008
2026-01-13 20:42:24.96	56.33	27.14	-53.7	-58.1	3.7	0.00e+00	0	51	104	0	78	24723
2026-01-13 20:42:26.01	56.74	27.31	-53.7	-58.1	3.7	0.00e+00	0	51	104	0	78	24657
2026-01-13 20:42:26.95	57.11	27.46	-53.7	-58.1	3.7	0.00e+00	0	51	104	0	78	24689
2026-01-13 20:42:27.95	57.51	27.62	-53.8	-58.2	3.7	0.00e+00	0	51	104	0	78	24891
2026-01-13 20:42:28.94	57.91	27.78	-53.5	-57.8	3.7	0.00e+00	0	51	104	0	78	23851
2026-01-13 20:42:29.93	58.31	27.94	-53.6	-57.9	3.7	0.00e+00	0	51	104	0	78	24204
2026-01-13 20:42:30.93	58.72	28.11	-53.6	-57.9	3.7	0.00e+00	0	51	104	0	78	24202
2026-01-13 20:42:31.92	59.13	28.27	-53.5	-57.6	3.7	0.00e+00	0	51	104	0	78	23363
2026-01-13 20:42:32.92	59.56	28.43	-53.5	-57.5	3.7	0.00e+00	0	51	104	0	78	23063
2026-01-13 20:42:33.91	59.98	28.59	-53.5	-57.8	3.7	0.00e+00	0	51	104	0	78	23819
2026-01-13 20:42:34.91	60.41	28.75	-53.5	-57.6	3.7	0.00e+00	0	51	104	0	78	23249
2026-01-13 20:42:35.90	60.84	28.90	-53.5	-57.8	3.7	0.00e+00	0	51	104	0	78	23820
2026-01-13 20:42:36.90	61.28	29.06	-53.4	-57.8	3.6	0.00e+00	0	51	104	0	78	23874
2026-01-13 20:42:37.89	61.72	29.22	-53.5	-57.8	3.7	0.00e+00	0	51	104	0	78	23902
2026-01-13 20:42:38.89	62.17	29.38	-53.4	-57.8	3.7	0.00e+00	0	51	104	0	78	23938
2026-01-13 20:42:39.88	62.62	29.53	-53.7	-57.9	3.7	0.00e+00	0	51	104	0	78	23999
2026-01-13 20:42:40.96	63.12	29.70	-53.9	-58.3	3.7	0.00e+00	0	51	104	0	78	25124
2026-01-13 20:42:41.83	63.52	29.84	-53.7	-58.2	3.7	0.00e+00	0	51	104	0	78	25054
2026-01-13 20:42:43.12	64.13	30.04	-53.8	-58.2	3.7	0.00e+00	0	51	104	0	78	24939
2026-01-13 20:42:44.27	64.67	30.21	-53.6	-58.1	3.7	0.00e+00	0	51	104	0	78	24607
2026-01-13 20:42:45.41	65.22	30.39	-53.6	-58.1	3.7	0.00e+00	0	51	104	0	78	24566
2026-01-13 20:42:46.26	65.63	30.51	-53.8	-58.2	3.7	0.00e+00	0	51	104	0	78	24909
2026-01-13 20:42:47.40	66.19	30.68	-53.9	-58.3	3.7	0.00e+00	0	51	104	0	78	25117
2026-01-13 20:42:48.25	66.61	30.81	-53.7	-58.1	3.7	0.00e+00	0	51	104	0	78	24630
2026-01-13 20:42:49.39	67.18	30.98	-53.7	-57.9	3.7	0.00e+00	0	51	104	0	78	24101
2026-01-13 20:42:50.24	67.61	31.10	-53.6	-57.9	3.7	0.00e+00	0	51	104	0	78	24099
2026-01-13 20:42:51.38	68.19	31.27	-53.6	-57.8	3.7	0.00e+00	0	51	104	0	78	23923
2026-01-13 20:42:52.23	68.63	31.39	-53.7	-58.1	3.7	0.00e+00	0	51	104	0	78	24626
2026-01-13 20:42:53.37	69.22	31.55	-53.9	-58.3	3.6	0.00e+00	0	51	104	0	78	25327
2026-01-13 20:42:54.22	69.67	31.67	-53.8	-58.3	3.7	0.00e+00	0	51	104	0	78	25174
2026-01-13 20:42:55.36	70.27	31.83	-53.8	-58.3	3.7	0.00e+00	0	51	104	0	78	25170
2026-01-13 20:42:56.21	70.73	31.94	-53.4	-57.8	3.7	0.00e+00	0	51	104	0	78	23767
2026-01-13 20:42:57.35	71.34	32.10	-53.7	-58.1	3.7	0.00e+00	0	51	104	0	78	24560
2026-01-13 20:42:58.20	71.81	32.21	-53.8	-58.0	3.7	0.00e+00	0	51	104	0	78	24509
2026-01-13 20:42:59.34	72.43	32.36	-53.7	-58.0	3.7	0.00e+00	0	51	104	0	78	24342
2026-01-13 20:43:00.19	72.90	32.47	-53.4	-57.8	3.7	0.00e+00	0	51	104	0	78	23775
2026-01-13 20:43:01.32	73.53	32.61	-53.3	-57.6	3.7	0.00e+00	0	51	104	0	78	23386
2026-01-13 20:43:02.17	74.01	32.71	-53.2	-57.3	3.7	0.00e+00	0	51	104	0	78	22561
2026-01-13 20:43:03.31	74.66	32.85	-53.0	-57.1	3.7	0.00e+00	0	51	104	0	78	21870
2026-01-13 20:43:04.16	75.14	32.96	-53.3	-57.7	3.7	0.00e+00	0	51	104	0	78	23482
2026-01-13 20:43:05.30	75.80	33.09	-53.2	-57.7	3.7	0.00e+00	0	51	104	0	78	23480
2026-01-13 20:43:06.15	76.29	33.19	-53.1	-57.6	3.7	0.00e+00	0	51	104	0	78	23296
2026-01-13 20:43:07.32	76.98	33.32	-53.5	-57.9	3.7	0.00e+00	0	51	104	0	78	24040
2026-01-13 20:43:08.17	77.48	33.41	-53.5	-57.9	3.7	0.00e+00	0	51	104	0	78	24204
2026-01-13 20:43:09.31	78.15	33.53	-53.5	-57.9	3.7	0.00e+00	0	51	104	0	78	24055
2026-01-13 20:43:10.16	78.66	33.62	-53.5	-57.8	3.7	0.00e+00	0	51	104	0	78	23934
2026-01-13 20:43:11.38	79.39	33.74	-53.4	-58.0	3.7	0.00e+00	0	51	104	0	78	24424
2026-01-13 20:43:12.23	79.91	33.83	-53.4	-58.1	3.7	0.00e+00	0	51	104	0	78	24627
2026-01-13 20:43:13.43	80.64	33.94	-53.0	-57.7	3.7	0.00e+00	0	51	104	0	78	23550
2026-01-13 20:43:14.28	81.16	34.02	-52.7	-57.4	3.7	0.00e+00	0	51	104	0	77	24153
2026-01-13 20:43:15.48	81.90	34.13	-52.7	-57.4	3.7	0.00e+00	0	51	104	0	77	23965
2026-01-13 20:43:16.33	82.43	34.20	-52.6	-57.4	3.7	0.00e+00	0	51	104	0	77	23995
2026-01-13 20:43:17.53	83.18	34.30	-53.0	-57.8	3.7	0.00e+00	0	51	104	0	77	25163
2026-01-13 20:43:18.39	83.72	34.36	-53.0	-57.7	3.7	0.00e+00	0	51	104	0	77	25006
2026-01-13 20:43:19.59	84.48	34.45	-52.9	-57.6	3.7	0.00e+00	0	51	104	0	77	24779
2026-01-13 20:43:20.44	85.02	34.52	-52.5	-57.5	3.7	0.00e+00	0	51	104	0	77	24320
2026-01-13 20:43:21.58	85.74	34.59	-53.0	-57.9	3.7	0.00e+00	0	51	104	0	77	25403
2026-01-13 20:43:22.43	86.29	34.65	-53.0	-57.9	3.7	0.00e+00	0	51	104	0	77	25539
2026-01-13 20:43:23.57	87.02	34.72	-52.9	-57.8	3.7	0.00e+00	0	52	104	0	77	25198
2026-01-13 20:43:24.42	87.57	34.77	-52.6	-57.5	3.7	0.00e+00	0	51	104	0	77	24405
2026-01-13 20:43:25.56	88.30	34.83	-53.2	-57.9	3.7	0.00e+00	0	51	104	0	77	25528
2026-01-13 20:43:26.41	88.86	34.87	-53.6	-58.1	3.7	0.00e+00	0	51	104	0	78	24709
2026-01-13 20:43:27.55	89.60	34.92	-53.8	-58.2	3.7	0.00e+00	0	51	104	0	78	24938
2026-01-13 20:43:28.40	90.16	34.96	-53.4	-58.1	3.7	0.00e+00	0	51	104	0	78	24674
2026-01-13 20:43:29.54	90.90	35.00	-53.2	-57.9	3.7	0.00e+00	0	52	104	0	78	24007
2026-01-13 20:43:30.39	91.46	35.03	-53.5	-57.9	3.7	0.00e+00	0	51	104	0	78	24107
2026-01-13 20:43:31.53	92.21	35.07	-53.6	-57.9	3.7	0.00e+00	0	51	104	0	78	24034
2026-01-13 20:43:32.38	92.77	35.09	-53.5	-57.8	3.7	0.00e+00	0	51	104	0	78	23906
2026-01-13 20:43:33.52	93.52	35.11	-53.2	-57.9	3.7	0.00e+00	0	51	104	0	78	24038
2026-01-13 20:43:34.37	94.09	35.13	-53.3	-57.9	3.7	0.00e+00	0	51	104	0	78	24175
2026-01-13 20:43:35.51	94.84	35.15	-53.6	-58.1	3.7	0.00e+00	0	51	104	0	78	24654
2026-01-13 20:43:36.36	95.40	35.16	-53.6	-57.9	3.7	0.00e+00	0	51	104	0	78	24176
2026-01-13 20:43:37.61	96.23	35.17	-53.7	-58.1	3.7	0.00e+00	0	51	104	0	78	24589
2026-01-13 20:43:38.46	96.80	35.17	-53.7	-58.0	3.7	0.00e+00	0	51	104	0	78	24492
2026-01-13 20:43:39.60	97.55	35.17	-53.6	-58.1	3.7	0.00e+00	0	51	104	0	78	24574
2026-01-13 20:43:40.46	98.12	35.16	-53.3	-57.7	3.7	0.00e+00	0	51	104	0	78	23571
2026-01-13 20:43:41.60	98.88	35.15	-53.6	-57.9	3.7	0.00e+00	0	51	104	0	78	24044
2026-01-13 20:43:42.45	99.44	35.14	-53.7	-58.0	3.7	0.00e+00	0	51	104	0	78	24447
2026-01-13 20:43:43.58	100.19	35.12	-53.6	-58.0	3.7	0.00e+00	0	51	104	0	78	24382
2026-01-13 20:43:44.44	100.76	35.10	-53.4	-58.0	3.7	0.00e+00	0	51	104	0	78	24296
2026-01-13 20:43:45.58	101.51	35.07	-53.0	-57.2	3.7	0.00e+00	0	51	104	0	77	23537
2026-01-13 20:43:46.43	102.07	35.04	-53.3	-57.4	3.7	0.00e+00	0	51	104	0	77	23968
2026-01-13 20:43:47.57	102.82	35.01	-53.5	-57.6	3.7	0.00e+00	0	51	104	0	77	24684
2026-01-13 20:43:48.42	103.38	34.97	-53.7	-57.9	3.7	0.00e+00	0	51	104	0	78	24241
2026-01-13 20:43:49.56	104.13	34.93	-53.6	-57.9	3.7	0.00e+00	0	51	104	0	78	24162
2026-01-13 20:43:50.41	104.68	34.89	-53.5	-57.8	3.7	0.00e+00	0	51	104	0	78	23759
2026-01-13 20:43:51.54	105.42	34.83	-53.6	-57.8	3.7	0.00e+00	0	51	104	0	78	23916
2026-01-13 20:43:52.40	105.97	34.79	-53.6	-57.8	3.7	0.00e+00	0	51	104	0	78	23765
2026-01-13 20:43:53.53	106.71	34.73	-53.3	-57.7	3.7	0.00e+00	0	51	104	0	78	23487
2026-01-13 20:43:54.39	107.26	34.67	-53.5	-57.8	3.7	0.00e+00	0	51	104	0	78	23697
2026-01-13 20:43:55.53	107.99	34.60	-53.6	-57.9	3.7	0.00e+00	0	51	104	0	78	23996
2026-01-13 20:43:56.38	108.53	34.54	-53.6	-57.8	3.7	0.00e+00	0	51	104	0	78	23935
2026-01-13 20:43:57.51	109.25	34.46	-53.6	-58.0	3.6	0.00e+00	0	51	104	0	78	24247
2026-01-13 20:43:58.37	109.80	34.40	-53.8	-58.2	3.7	0.00e+00	0	51	104	0	78	25054
2026-01-13 20:43:59.50	110.51	34.31	-53.8	-58.2	3.7	0.00e+00	0	51	104	0	78	24852
2026-01-13 20:44:00.36	111.05	34.24	-53.8	-58.2	3.7	0.00e+00	0	51	104	0	78	24875
2026-01-13 20:44:01.49	111.75	34.15	-53.0	-57.6	3.7	0.00e+00	0	51	104	0	78	23302
2026-01-13 20:44:02.35	112.29	34.07	-52.8	-57.4	3.7	0.00e+00	0	51	104	0	77	24237
2026-01-13 20:44:03.48	112.98	33.97	-53.3	-57.8	3.7	0.00e+00	0	51	104	0	77	25352
2026-01-13 20:44:04.34	113.51	33.89	-53.3	-57.9	3.7	0.00e+00	0	51	104	0	77	25411
2026-01-13 20:44:05.47	114.20	33.78	-53.2	-57.9	3.7	0.00e+00	0	51	104	0	77	25409
2026-01-13 20:44:06.32	114.71	33.70	-53.4	-57.9	3.7	0.00e+00	0	52	104	0	77	25651
2026-01-13 20:44:07.46	115.40	33.58	-53.6	-58.1	3.7	0.00e+00	0	51	104	0	77	25984
2026-01-13 20:44:08.31	115.91	33.49	-53.6	-58.1	3.7	0.00e+00	0	51	104	0	77	26023
2026-01-13 20:44:09.45	116.58	33.37	-53.8	-58.1	3.7	0.00e+00	0	51	104	0	78	24693
2026-01-13 20:44:10.30	117.09	33.27	-53.7	-58.1	3.7	0.00e+00	0	51	104	0	78	24597
2026-01-13 20:44:11.45	117.76	33.14	-53.6	-57.9	3.7	0.00e+00	0	51	104	0	78	24050
2026-01-13 20:44:12.30	118.25	33.04	-53.6	-57.9	3.7	0.00e+00	0	51	104	0	78	24041
2026-01-13 20:44:13.43	118.90	32.91	-53.4	-58.0	3.7	0.00e+00	0	52	104	0	78	24253
2026-01-13 20:44:14.29	119.39	32.80	-53.4	-58.1	3.7	0.00e+00	0	51	104	0	78	24584
2026-01-13 20:44:15.42	120.04	32.67	-53.0	-57.7	3.7	0.00e+00	0	51	104	0	78	23602
2026-01-13 20:44:16.29	120.53	32.56	-52.9	-57.7	3.7	0.00e+00	0	51	104	0	77	24874
2026-01-13 20:44:17.60	121.26	32.39	-53.3	-57.8	3.7	0.00e+00	0	51	104	0	77	25126
2026-01-13 20:44:18.31	121.65	32.30	-53.4	-57.9	3.7	0.00e+00	0	52	104	0	77	25641
2026-01-13 20:44:19.59	122.35	32.13	-53.6	-58.0	3.7	0.00e+00	0	51	104	0	77	25861
2026-01-13 20:44:20.30	122.74	32.03	-53.6	-58.0	3.7	0.00e+00	0	52	104	0	77	25884
2026-01-13 20:44:21.58	123.43	31.86	-53.5	-57.8	3.7	0.00e+00	0	51	104	0	77	25168
2026-01-13 20:44:22.29	123.80	31.76	-53.6	-57.8	3.7	0.00e+00	0	52	104	0	77	25316
2026-01-13 20:44:23.57	124.48	31.58	-53.7	-58.0	3.7	0.00e+00	0	52	104	0	78	24430
2026-01-13 20:44:24.28	124.85	31.48	-53.7	-58.0	3.7	0.00e+00	0	51	104	0	78	24473
2026-01-13 20:44:25.56	125.52	31.30	-53.7	-58.1	3.7	0.00e+00	0	51	104	0	78	24696
2026-01-13 20:44:26.27	125.88	31.19	-53.7	-58.1	3.7	0.00e+00	0	52	104	0	78	24689
2026-01-13 20:44:27.55	126.54	31.01	-53.7	-58.2	3.7	0.00e+00	0	51	104	0	78	24875
2026-01-13 20:44:28.26	126.90	30.90	-53.7	-58.2	3.7	0.00e+00	0	51	104	0	78	24822
2026-01-13 20:44:29.54	127.53	30.71	-53.7	-58.1	3.7	0.00e+00	0	51	104	0	78	24716
2026-01-13 20:44:30.28	127.90	30.60	-53.8	-58.2	3.7	0.00e+00	0	51	104	0	78	24976
2026-01-13 20:44:31.66	128.58	30.39	-53.8	-58.2	3.7	0.00e+00	0	51	104	0	78	24899
2026-01-13 20:44:32.36	128.92	30.29	-53.7	-58.1	3.7	0.00e+00	0	52	104	0	78	24754
2026-01-13 20:44:33.64	129.53	30.09	-52.9	-57.5	3.7	0.00e+00	0	51	104	0	77	24441
2026-01-13 20:44:34.69	130.03	29.93	-52.5	-57.2	3.7	0.00e+00	0	51	104	0	76	24912
2026-01-13 20:44:35.63	130.47	29.78	-52.6	-57.2	3.7	0.00e+00	0	51	104	0	76	24902
2026-01-13 20:44:37.00	131.10	29.56	-53.6	-58.0	3.7	0.00e+00	0	51	104	0	77	25791
2026-01-13 20:44:37.71	131.43	29.45	-53.6	-58.0	3.7	0.00e+00	0	51	104	0	77	25716
2026-01-13 20:44:38.99	132.01	29.25	-53.6	-57.8	3.7	0.00e+00	0	51	104	0	77	25347
2026-01-13 20:44:39.71	132.33	29.14	-53.6	-57.9	3.7	0.00e+00	0	51	104	0	77	25463
2026-01-13 20:44:40.98	132.90	28.93	-53.5	-57.7	3.7	0.00e+00	0	51	104	0	77	24997
2026-01-13 20:44:41.70	133.22	28.82	-53.5	-57.7	3.7	0.00e+00	0	51	104	0	77	24970
2026-01-13 20:44:42.97	133.77	28.61	-53.4	-57.7	3.7	0.00e+00	0	52	104	0	77	24947
2026-01-13 20:44:43.68	134.07	28.50	-53.4	-57.7	3.7	0.00e+00	0	51	104	0	77	25030
2026-01-13 20:44:44.96	134.62	28.29	-53.5	-57.8	3.7	0.00e+00	0	51	104	0	77	25201
2026-01-13 20:44:45.67	134.92	28.18	-53.3	-57.5	3.7	0.00e+00	0	51	104	0	77	24280
2026-01-13 20:44:47.12	135.52	27.94	-53.4	-57.8	3.7	0.00e+00	0	51	104	0	77	25125
2026-01-13 20:44:47.83	135.81	27.82	-53.4	-57.6	3.7	0.00e+00	0	51	104	0	77	24778
2026-01-13 20:44:49.18	136.36	27.60	-53.2	-57.6	3.7	0.00e+00	0	51	104	0	77	24806
2026-01-13 20:44:49.89	136.65	27.49	-53.2	-57.7	3.7	0.00e+00	0	52	104	0	77	24881
2026-01-13 20:44:51.23	137.18	27.27	-53.4	-57.6	3.7	0.00e+00	0	52	104	0	77	24615
2026-01-13 20:44:51.94	137.46	27.15	-53.3	-57.6	3.7	0.00e+00	0	51	104	0	77	24731
2026-01-13 20:44:53.22	137.96	26.94	-53.5	-57.6	3.7	0.00e+00	0	51	104	0	77	24796
2026-01-13 20:44:53.93	138.23	26.82	-53.5	-57.8	3.7	0.00e+00	0	51	104	0	77	25104
2026-01-13 20:44:55.21	138.71	26.61	-53.3	-57.9	3.7	0.00e+00	0	51	104	0	77	25678
2026-01-13 20:44:55.92	138.98	26.50	-53.3	-57.8	3.7	0.00e+00	0	52	104	0	77	25135
2026-01-13 20:44:57.20	139.46	26.29	-53.3	-57.9	3.7	0.00e+00	0	52	104	0	77	25571
2026-01-13 20:44:57.91	139.72	26.17	-53.3	-57.9	3.7	0.00e+00	0	52	104	0	77	25487
2026-01-13 20:44:59.19	140.18	25.96	-53.4	-57.9	3.7	0.00e+00	0	51	104	0	77	25561
2026-01-13 20:44:59.99	140.47	25.83	-53.4	-57.9	3.7	0.00e+00	0	51	104	0	77	25667
2026-01-13 20:45:01.13	140.88	25.64	-53.3	-57.8	3.7	0.00e+00	0	52	104	0	77	25181
2026-01-13 20:45:01.98	141.17	25.50	-53.2	-57.6	3.7	0.00e+00	0	51	104	0	77	24798
2026-01-13 20:45:03.12	141.57	25.32	-53.2	-57.8	3.6	0.00e+00	0	52	104	0	77	25253
2026-01-13 20:45:03.97	141.86	25.18	-53.1	-57.5	3.7	0.00e+00	0	51	104	0	77	24473
2026-01-13 20:45:05.11	142.25	24.99	-53.1	-57.8	3.7	0.00e+00	0	52	104	0	77	25217
2026-01-13 20:45:05.96	142.53	24.85	-53.0	-57.7	3.7	0.00e+00	0	51	104	0	77	24843
2026-01-13 20:45:07.10	142.91	24.67	-53.4	-57.9	3.7	0.00e+00	0	52	104	0	77	25469
2026-01-13 20:45:07.95	143.19	24.53	-53.2	-57.8	3.7	0.00e+00	0	51	104	0	77	25134
2026-01-13 20:45:09.09	143.56	24.35	-53.5	-57.9	3.7	0.00e+00	0	52	104	0	77	25677
2026-01-13 20:45:09.94	143.83	24.21	-53.5	-58.1	3.7	0.00e+00	0	51	104	0	77	26020
2026-01-13 20:45:11.08	144.20	24.03	-53.5	-58.1	3.7	0.00e+00	0	51	104	0	77	25998
2026-01-13 20:45:11.93	144.46	23.89	-53.6	-58.1	3.7	0.00e+00	0	51	104	0	77	26051
2026-01-13 20:45:13.07	144.82	23.71	-53.1	-57.8	3.7	0.00e+00	0	51	104	0	77	25220
2026-01-13 20:45:13.92	145.08	23.57	-53.0	-57.7	3.7	0.00e+00	0	51	104	0	77	25052
2026-01-13 20:45:15.06	145.42	23.39	-52.1	-57.1	3.7	0.00e+00	0	51	104	0	76	24780
2026-01-13 20:45:16.13	145.74	23.22	-52.6	-57.4	3.7	0.00e+00	0	51	104	0	76	25561
2026-01-13 20:45:17.16	146.05	23.06	-52.1	-57.1	3.7	0.00e+00	0	51	104	0	76	24704
2026-01-13 20:45:18.33	146.39	22.87	-52.2	-57.3	3.7	0.00e+00	0	51	104	0	76	25113
2026-01-13 20:45:19.23	146.65	22.73	-52.6	-57.6	3.7	0.00e+00	0	52	104	0	76	26088
2026-01-13 20:45:20.26	146.95	22.57	-53.1	-57.8	3.7	0.00e+00	0	51	104	0	76	26762
2026-01-13 20:45:21.25	147.23	22.42	-53.3	-57.9	3.7	0.00e+00	0	52	104	0	77	25589
2026-01-13 20:45:22.25	147.51	22.26	-53.5	-58.0	3.7	0.00e+00	0	51	104	0	77	25752
2026-01-13 20:45:23.24	147.78	22.11	-53.4	-57.9	3.7	0.00e+00	0	51	104	0	77	25666
2026-01-13 20:45:24.24	148.06	21.95	-53.3	-57.8	3.7	0.00e+00	0	51	104	0	77	25311
2026-01-13 20:45:25.23	148.32	21.80	-53.4	-57.9	3.7	0.00e+00	0	51	104	0	77	25582
2026-01-13 20:45:26.22	148.59	21.65	-53.3	-57.8	3.7	0.00e+00	0	51	104	0	77	25323
2026-01-13 20:45:27.22	148.85	21.50	-53.3	-57.8	3.7	0.00e+00	0	51	104	0	77	25383
2026-01-13 20:45:28.21	149.11	21.35	-53.2	-57.7	3.7	0.00e+00	0	51	104	0	77	25044
2026-01-13 20:45:29.21	149.37	21.19	-53.3	-57.9	3.7	0.00e+00	0	51	104	0	77	25450
2026-01-13 20:45:30.20	149.63	21.04	-53.3	-57.8	3.7	0.00e+00	0	51	104	0	77	25315
2026-01-13 20:45:31.20	149.88	20.89	-52.8	-57.3	3.7	0.00e+00	0	51	104	0	77	23911
2026-01-13 20:45:32.19	150.13	20.75	-53.2	-57.7	3.7	0.00e+00	0	51	104	0	77	24971
2026-01-13 20:45:33.25	150.39	20.59	-52.9	-57.4	3.7	0.00e+00	0	51	104	0	77	24138
2026-01-13 20:45:34.15	150.61	20.46	-52.9	-57.4	3.7	0.00e+00	0	51	104	0	77	24103
2026-01-13 20:45:35.26	150.88	20.29	-53.1	-57.6	3.7	0.00e+00	0	51	104	0	77	24672
2026-01-13 20:45:36.20	151.11	20.15	-53.0	-57.5	3.7	0.00e+00	0	51	104	0	77	24341
2026-01-13 20:45:37.37	151.38	19.98	-53.0	-57.5	3.7	0.00e+00	0	51	104	0	77	24329
2026-01-13 20:45:38.22	151.58	19.86	-52.9	-57.4	3.7	0.00e+00	0	51	104	0	77	24066
2026-01-13 20:45:39.59	151.90	19.66	-52.6	-57.1	3.7	0.00e+00	0	52	104	0	77	23392
2026-01-13 20:45:40.30	152.06	19.56	-52.6	-57.2	3.7	0.00e+00	0	51	104	0	77	23495
2026-01-13 20:45:41.58	152.36	19.37	-52.9	-57.4	3.7	0.00e+00	0	51	104	0	76	25536
2026-01-13 20:45:42.29	152.51	19.27	-53.0	-57.5	3.7	0.00e+00	0	51	104	0	76	25932
2026-01-13 20:45:43.86	152.86	19.05	-53.1	-57.5	3.7	0.00e+00	0	51	104	0	76	25957
2026-01-13 20:45:44.48	153.00	18.96	-52.9	-57.5	3.7	0.00e+00	0	51	104	0	76	25682
2026-01-13 20:45:46.04	153.34	18.74	-52.4	-56.9	3.7	0.00e+00	0	51	104	0	76	24099
2026-01-13 20:45:46.75	153.49	18.64	-52.2	-56.7	3.7	0.00e+00	0	51	104	0	76	23638
2026-01-13 20:45:48.03	153.76	18.46	-52.6	-57.0	3.6	0.00e+00	0	52	104	0	76	24261
2026-01-13 20:45:48.75	153.91	18.36	-52.3	-56.7	3.7	0.00e+00	0	51	104	0	76	23463
2026-01-13 20:45:50.03	154.18	18.19	-52.7	-56.9	3.7	0.00e+00	0	52	104	0	76	24173
2026-01-13 20:45:50.77	154.33	18.09	-52.9	-57.4	3.7	0.00e+00	0	51	104	0	76	25499
2026-01-13 20:45:52.05	154.59	17.91	-52.6	-57.1	3.7	0.00e+00	0	51	104	0	76	24639
2026-01-13 20:45:52.78	154.74	17.81	-52.4	-57.0	3.7	0.00e+00	0	51	104	0	76	24473
2026-01-13 20:45:54.14	155.01	17.63	-52.4	-57.1	3.7	0.00e+00	0	52	104	0	76	24626
2026-01-13 20:45:54.85	155.15	17.53	-52.4	-57.2	3.7	0.00e+00	0	51	104	0	76	24831
2026-01-13 20:45:56.13	155.40	17.36	-52.5	-57.3	3.7	0.00e+00	0	51	104	0	76	25234
2026-01-13 20:45:56.85	155.54	17.27	-52.4	-57.3	3.7	0.00e+00	0	51	104	0	76	25123
2026-01-13 20:45:58.24	155.81	17.08	-52.5	-57.1	3.7	0.00e+00	0	51	104	0	76	24803
2026-01-13 20:45:58.95	155.94	16.99	-52.2	-56.8	3.7	0.00e+00	0	51	104	0	76	23899
2026-01-13 20:46:00.23	156.18	16.82	-52.3	-57.1	3.7	0.00e+00	0	51	104	0	76	24555
2026-01-13 20:46:00.97	156.32	16.72	-51.9	-56.8	3.7	0.00e+00	0	51	104	0	75	25122
2026-01-13 20:46:02.25	156.55	16.56	-52.1	-56.7	3.7	0.00e+00	0	51	104	0	75	25088
2026-01-13 20:46:02.96	156.68	16.46	-51.9	-56.6	3.7	0.00e+00	0	51	104	0	75	24599
2026-01-13 20:46:04.24	156.91	16.30	-51.8	-56.5	3.7	0.00e+00	0	51	104	0	75	24457
2026-01-13 20:46:04.95	157.04	16.21	-52.1	-56.9	3.7	0.00e+00	0	52	104	0	75	25410
2026-01-13 20:46:06.23	157.26	16.05	-52.1	-56.9	3.6	0.00e+00	0	51	104	0	75	25405
2026-01-13 20:46:06.96	157.39	15.95	-52.6	-57.1	3.7	0.00e+00	0	52	104	0	75	26195
2026-01-13 20:46:08.24	157.61	15.79	-52.3	-56.9	3.7	0.00e+00	0	51	104	0	75	25536
2026-01-13 20:46:08.95	157.73	15.70	-52.6	-57.3	3.7	0.00e+00	0	51	104	0	75	26667
2026-01-13 20:46:10.24	157.95	15.54	-52.8	-57.3	3.7	0.00e+00	0	52	104	0	76	25291
2026-01-13 20:46:10.95	158.07	15.45	-52.8	-57.5	3.7	0.00e+00	0	51	104	0	76	25721
2026-01-13 20:46:12.23	158.29	15.30	-52.7	-57.2	3.7	0.00e+00	0	51	104	0	76	24939
2026-01-13 20:46:12.97	158.41	15.21	-52.9	-57.6	3.7	0.00e+00	0	52	104	0	76	26008
2026-01-13 20:46:14.25	158.62	15.05	-52.9	-57.6	3.7	0.00e+00	0	51	104	0	76	26058
2026-01-13 20:46:14.98	158.74	14.96	-52.9	-57.5	3.7	0.00e+00	0	51	104	0	76	25907
2026-01-13 20:46:16.26	158.94	14.81	-52.8	-57.5	3.7	0.00e+00	0	51	104	0	76	25792
2026-01-13 20:46:17.24	159.10	14.69	-52.9	-57.6	3.7	0.00e+00	0	51	104	0	76	26115
2026-01-13 20:46:18.23	159.25	14.57	-52.7	-57.4	3.7	0.00e+00	0	52	104	0	76	25514
2026-01-13 20:46:19.22	159.41	14.45	-52.8	-57.4	3.7	0.00e+00	0	51	104	0	76	25485
2026-01-13 20:46:20.22	159.56	14.33	-52.8	-57.5	3.7	0.00e+00	0	51	104	0	76	25681
2026-01-13 20:46:21.21	159.71	14.22	-53.0	-57.6	3.7	0.00e+00	0	51	104	0	76	26069
2026-01-13 20:46:22.21	159.86	14.10	-52.7	-57.4	3.7	0.00e+00	0	51	104	0	76	25611
2026-01-13 20:46:23.20	160.01	13.98	-52.9	-57.5	3.7	0.00e+00	0	52	104	0	76	25905
2026-01-13 20:46:24.20	160.16	13.87	-52.9	-57.5	3.7	0.00e+00	0	51	104	0	76	25725
2026-01-13 20:46:25.19	160.31	13.75	-52.8	-57.4	3.7	0.00e+00	0	51	104	0	76	25651
2026-01-13 20:46:26.18	160.45	13.64	-52.9	-57.5	3.7	0.00e+00	0	51	104	0	76	25883
2026-01-13 20:46:27.24	160.60	13.52	-52.6	-57.2	3.7	0.00e+00	0	52	104	0	76	25013
2026-01-13 20:46:28.16	160.74	13.41	-52.8	-57.4	3.7	0.00e+00	0	52	104	0	76	25476
2026-01-13 20:46:29.15	160.88	13.30	-52.7	-57.3	3.7	0.00e+00	0	51	104	0	76	25346
2026-01-13 20:46:30.15	161.02	13.19	-52.5	-57.1	3.7	0.00e+00	0	51	104	0	76	24578
2026-01-13 20:46:31.14	161.16	13.08	-52.5	-57.0	3.7	0.00e+00	0	52	104	0	76	24436
2026-01-13 20:46:32.14	161.30	12.96	-52.6	-57.2	3.7	0.00e+00	0	52	104	0	76	24888
2026-01-13 20:46:33.13	161.43	12.85	-52.6	-57.2	3.7	0.00e+00	0	51	104	0	76	24931
2026-01-13 20:46:34.12	161.57	12.74	-52.5	-57.0	3.7	0.00e+00	0	52	104	0	76	24405
2026-01-13 20:46:35.12	161.70	12.63	-52.0	-56.8	3.7	0.00e+00	0	52	104	0	76	23768
2026-01-13 20:46:36.54	161.89	12.48	-52.2	-56.8	3.7	0.00e+00	0	52	104	0	76	23862
2026-01-13 20:46:37.25	161.98	12.40	-52.0	-56.7	3.7	0.00e+00	0	52	104	0	76	23482
2026-01-13 20:46:38.53	162.15	12.26	-52.3	-57.1	3.7	0.00e+00	0	52	104	0	75	26074
2026-01-13 20:46:39.26	162.25	12.18	-52.7	-57.3	3.7	0.00e+00	0	52	104	0	76	25383
2026-01-13 20:46:40.53	162.41	12.05	-52.1	-56.8	3.7	0.00e+00	0	51	104	0	76	23895
2026-01-13 20:46:41.24	162.50	11.97	-52.2	-57.0	3.7	0.00e+00	0	51	104	0	76	24399
2026-01-13 20:46:42.52	162.66	11.84	-52.3	-57.0	3.7	0.00e+00	0	52	104	0	76	24457
2026-01-13 20:46:43.26	162.76	11.76	-52.3	-57.0	3.7	0.00e+00	0	52	104	0	76	24400
2026-01-13 20:46:44.54	162.91	11.62	-52.4	-57.2	3.7	0.00e+00	0	52	104	0	76	24886
2026-01-13 20:46:45.27	163.00	11.55	-52.6	-57.3	3.7	0.00e+00	0	52	104	0	76	25273
2026-01-13 20:46:46.58	163.17	11.41	-52.7	-57.2	3.7	0.00e+00	0	52	104	0	76	24828
2026-01-13 20:46:47.29	163.25	11.34	-52.2	-56.7	3.7	0.00e+00	0	51	104	0	76	23620
2026-01-13 20:46:48.57	163.41	11.20	-52.0	-56.6	3.7	0.00e+00	0	52	104	0	75	24737
2026-01-13 20:46:49.28	163.49	11.13	-52.0	-56.8	3.7	0.00e+00	0	52	104	0	75	25180
2026-01-13 20:46:50.56	163.64	11.00	-51.2	-56.1	3.7	0.00e+00	0	52	104	0	74	24564
2026-01-13 20:46:51.27	163.72	10.93	-50.9	-55.8	3.7	0.00e+00	0	52	104	0	73	25123
2026-01-13 20:46:52.55	163.87	10.80	-50.1	-55.0	3.7	0.00e+00	0	51	104	0	72	24487
2026-01-13 20:46:53.28	163.96	10.73	-49.6	-54.6	3.7	0.00e+00	0	51	104	0	70	26063
2026-01-13 20:46:54.81	164.13	10.57	-48.7	-53.9	3.7	0.00e+00	0	52	104	0	69	25430
2026-01-13 20:46:55.52	164.21	10.50	-49.8	-54.8	3.7	0.00e+00	0	52	104	0	70	26779
2026-01-13 20:46:56.80	164.36	10.37	-48.6	-53.7	3.7	0.00e+00	0	52	104	0	69	24987
2026-01-13 20:46:57.51	164.44	10.30	-48.5	-53.7	3.7	0.00e+00	0	52	104	0	69	24836
2026-01-13 20:46:58.79	164.58	10.18	-48.8	-54.0	3.7	0.00e+00	0	51	104	0	68	27297
2026-01-13 20:46:59.52	164.66	10.11	-49.2	-54.4	3.7	0.00e+00	0	52	104	0	69	27121
2026-01-13 20:47:00.80	164.80	9.98	-49.7	-54.9	3.7	0.00e+00	0	51	104	0	70	27131
2026-01-13 20:47:01.52	164.88	9.91	-50.0	-55.1	3.7	0.00e+00	0	52	104	0	70	27556
2026-01-13 20:47:02.80	165.01	9.79	-50.2	-55.3	3.7	0.00e+00	0	52	104	0	71	26682
2026-01-13 20:47:03.51	165.09	9.72	-50.3	-55.4	3.7	0.00e+00	0	52	104	0	71	26965
2026-01-13 20:47:04.79	165.22	9.60	-49.5	-54.6	3.7	0.00e+00	0	52	104	0	70	26156
2026-01-13 20:47:05.53	165.30	9.53	-49.6	-54.6	3.7	0.00e+00	0	52	104	0	70	26263
2026-01-13 20:47:06.81	165.43	9.40	-49.3	-54.5	3.7	0.00e+00	0	51	104	0	70	25928
2026-01-13 20:47:07.55	165.51	9.33	-49.4	-54.6	3.7	0.00e+00	0	51	104	0	70	26119
2026-01-13 20:47:08.83	165.64	9.21	-49.8	-55.0	3.7	0.00e+00	0	52	104	0	70	27289
2026-01-13 20:47:09.71	165.73	9.13	-50.0	-55.2	3.7	0.00e+00	0	51	104	0	70	27914
2026-01-13 20:47:11.13	165.87	9.00	-50.3	-55.3	3.7	0.00e+00	0	51	104	0	71	26760
2026-01-13 20:47:11.84	165.94	8.93	-49.1	-54.2	3.7	0.00e+00	0	52	104	
