passes_logs/2026/01/13/T1/T1__20260113_025729_FENGYUN_3E_rec.log

#Pass ID: 20260113_025729_FENGYUN 3E
#Satellite: FENGYUN 3E
#Configuration: FENGYUN 3E
#almurnet v.1.7.20251203
#Start time: 2026-01-13 02:57:29

#Version: 2.0.20230620
#Station: T1
#Location: 37.570604 lon 55.790049 lat
#TLE: 1 49008U 21062A   26012.25745337  .00000274  00000+0  14981-3 0  9997
#TLE: 2 49008  98.7491  17.4183 0001913 142.8235 217.3074 14.19885845234459

#Time	Az	El	Level	Level2	SNR	BER	BlckErr	Temp	State	Recorded	gain1	gain2
2026-01-13 02:57:29.91	24.24	5.02	-50.5	-61.5	3.8	8.47e-01	0	36	0	0	70	13438
2026-01-13 02:57:30.90	24.30	5.09	-50.5	-61.5	3.8	8.48e-01	0	36	104	0	70	13422
2026-01-13 02:57:31.90	24.36	5.15	-50.5	-61.5	3.8	8.46e-01	0	37	104	0	70	13492
2026-01-13 02:57:32.89	24.42	5.22	-50.5	-61.5	3.8	8.47e-01	0	37	104	0	70	13561
2026-01-13 02:57:33.88	24.48	5.28	-50.5	-61.5	3.8	8.46e-01	0	37	104	0	70	13550
2026-01-13 02:57:34.88	24.54	5.35	-50.5	-61.5	3.8	8.47e-01	0	37	104	0	70	13505
2026-01-13 02:57:35.87	24.60	5.41	-50.5	-61.5	3.8	8.46e-01	0	37	104	0	70	13482
2026-01-13 02:57:36.87	24.66	5.48	-50.5	-61.5	3.8	8.47e-01	0	37	104	0	70	13460
2026-01-13 02:57:37.86	24.72	5.55	-50.5	-61.5	3.8	8.46e-01	0	37	104	0	70	13446
2026-01-13 02:57:38.85	24.78	5.61	-50.5	-61.5	3.8	8.46e-01	0	37	104	0	70	13510
2026-01-13 02:57:39.84	24.85	5.68	-50.5	-61.5	3.8	8.48e-01	0	37	104	0	70	13549
2026-01-13 02:57:40.84	24.91	5.75	-50.5	-61.5	3.8	8.47e-01	0	37	104	0	70	13491
2026-01-13 02:57:41.83	24.97	5.81	-50.5	-61.5	3.8	8.47e-01	0	37	104	0	70	13437
2026-01-13 02:57:42.82	25.03	5.88	-50.5	-61.5	3.8	8.46e-01	0	37	104	0	70	13448
2026-01-13 02:57:43.82	25.10	5.95	-50.5	-61.5	3.8	8.47e-01	0	37	104	0	70	13464
2026-01-13 02:57:44.81	25.16	6.01	-50.4	-61.4	3.8	8.47e-01	0	37	104	0	70	13381
2026-01-13 02:57:45.80	25.22	6.08	-50.4	-61.4	3.8	8.47e-01	0	37	104	0	70	13393
2026-01-13 02:57:46.80	25.28	6.15	-50.4	-61.4	3.8	8.47e-01	0	37	104	0	70	13331
2026-01-13 02:57:47.79	25.35	6.21	-50.5	-61.4	3.8	8.46e-01	0	37	104	0	70	13409
2026-01-13 02:57:48.78	25.41	6.28	-50.5	-61.4	3.8	8.47e-01	0	37	104	0	70	13409
2026-01-13 02:57:49.77	25.48	6.35	-50.5	-61.5	3.8	8.47e-01	0	37	104	0	70	13535
2026-01-13 02:57:50.77	25.54	6.42	-50.5	-61.5	3.8	8.48e-01	0	37	104	0	70	13469
2026-01-13 02:57:51.76	25.61	6.49	-50.4	-61.5	3.8	8.47e-01	0	37	104	0	70	13483
2026-01-13 02:57:52.75	25.67	6.55	-50.4	-61.5	3.8	8.47e-01	0	37	104	0	70	13482
2026-01-13 02:57:53.75	25.74	6.62	-50.4	-61.5	3.8	8.45e-01	0	37	104	0	70	13436
2026-01-13 02:57:54.74	25.80	6.69	-50.4	-61.5	3.8	8.47e-01	0	37	104	0	70	13464
2026-01-13 02:57:55.73	25.87	6.76	-50.4	-61.4	3.8	8.46e-01	0	38	104	0	70	13412
2026-01-13 02:57:56.73	25.93	6.83	-50.5	-61.5	3.8	8.46e-01	0	38	104	0	70	13439
2026-01-13 02:57:57.72	26.00	6.90	-50.4	-61.4	3.8	8.47e-01	0	38	104	0	70	13375
2026-01-13 02:57:58.72	26.07	6.97	-50.4	-61.4	3.8	8.47e-01	0	37	104	0	70	13382
2026-01-13 02:57:59.71	26.13	7.04	-50.4	-61.4	3.8	8.48e-01	0	38	104	0	70	13361
2026-01-13 02:58:00.70	26.20	7.10	-50.4	-61.4	3.8	8.47e-01	0	38	104	0	70	13365
2026-01-13 02:58:01.70	26.27	7.17	-50.4	-61.4	3.8	8.46e-01	0	38	104	0	70	13325
2026-01-13 02:58:02.69	26.34	7.24	-50.4	-61.4	3.8	8.47e-01	0	38	104	0	70	13354
2026-01-13 02:58:03.68	26.41	7.31	-50.4	-61.4	3.8	8.47e-01	0	38	104	0	70	13336
2026-01-13 02:58:04.67	26.47	7.38	-50.4	-61.5	3.8	8.46e-01	0	38	104	0	70	13417
2026-01-13 02:58:05.67	26.54	7.45	-50.4	-61.3	3.8	8.47e-01	0	38	104	0	70	13135
2026-01-13 02:58:06.66	26.61	7.52	-50.4	-61.2	3.8	8.47e-01	0	38	104	0	70	12990
2026-01-13 02:58:07.66	26.68	7.60	-50.4	-61.0	3.8	8.47e-01	0	37	104	0	70	12670
2026-01-13 02:58:08.65	26.75	7.67	-50.4	-60.9	3.8	8.46e-01	0	38	104	0	70	12566
2026-01-13 02:58:09.64	26.82	7.74	-50.4	-60.8	3.8	8.46e-01	0	38	104	0	70	12425
2026-01-13 02:58:10.63	26.89	7.81	-50.3	-60.7	3.8	8.46e-01	0	38	104	0	70	12322
2026-01-13 02:58:11.63	26.96	7.88	-50.3	-60.6	3.8	8.48e-01	0	38	104	0	70	12199
2026-01-13 02:58:12.62	27.03	7.95	-50.3	-60.6	3.8	8.48e-01	0	38	104	0	70	12181
2026-01-13 02:58:13.61	27.11	8.02	-50.3	-60.5	3.8	8.46e-01	0	38	104	0	70	11995
2026-01-13 02:58:14.61	27.18	8.09	-50.3	-60.5	3.8	8.48e-01	0	38	104	0	70	11956
2026-01-13 02:58:15.60	27.25	8.17	-50.3	-60.4	3.8	8.46e-01	0	38	104	0	70	11848
2026-01-13 02:58:16.60	27.32	8.24	-50.3	-60.4	3.8	8.46e-01	0	38	104	0	70	11910
2026-01-13 02:58:17.59	27.40	8.31	-50.3	-60.5	3.8	8.47e-01	0	38	104	0	70	12034
2026-01-13 02:58:18.58	27.47	8.38	-50.4	-60.8	3.8	8.48e-01	0	38	104	0	70	12398
2026-01-13 02:58:19.58	27.54	8.46	-50.4	-61.1	3.8	8.47e-01	0	38	104	0	70	12888
2026-01-13 02:58:20.57	27.62	8.53	-50.4	-61.2	3.8	8.46e-01	0	38	104	0	70	13093
2026-01-13 02:58:21.56	27.69	8.60	-50.4	-61.3	3.8	8.47e-01	0	38	104	0	70	13172
2026-01-13 02:58:22.56	27.77	8.67	-50.4	-61.1	3.8	8.46e-01	0	38	104	0	70	12832
2026-01-13 02:58:23.55	27.84	8.75	-50.3	-60.7	3.8	8.46e-01	0	38	104	0	70	12330
2026-01-13 02:58:24.54	27.91	8.82	-50.3	-60.3	3.8	8.47e-01	0	38	104	0	70	11797
2026-01-13 02:58:25.54	27.99	8.89	-50.3	-60.1	3.8	8.46e-01	0	38	104	0	70	11486
2026-01-13 02:58:26.53	28.07	8.97	-50.3	-60.1	3.8	8.46e-01	0	38	104	0	70	11468
2026-01-13 02:58:27.52	28.14	9.04	-49.6	-56.3	4.7	8.46e-01	0	38	104	0	70	7434
2026-01-13 02:58:28.52	28.22	9.12	-50.4	-61.3	3.8	5.51e-01	0	38	104	3145728	70	13243
2026-01-13 02:58:29.51	28.30	9.19	-50.3	-60.9	3.8	8.45e-01	0	38	104	3145728	70	12604
2026-01-13 02:58:30.50	28.37	9.27	-47.0	-50.2	10.1	2.12e-03	0	38	0	6291456	63	5493
2026-01-13 02:58:31.50	28.45	9.34	-46.5	-49.4	10.8	4.95e-02	0	38	0	12582912	63	5014
2026-01-13 02:58:32.50	28.53	9.42	-45.3	-47.4	12.9	6.40e-05	0	38	0	19922944	61	4475
2026-01-13 02:58:33.49	28.61	9.49	-45.2	-47.3	13.0	4.34e-05	0	38	0	27262976	61	4413
2026-01-13 02:58:34.48	28.69	9.57	-44.9	-47.0	13.3	1.60e-05	0	38	0	34603008	60	4503
2026-01-13 02:58:35.48	28.77	9.64	-44.2	-46.0	14.3	0.00e+00	0	38	0	41943040	58	4519
2026-01-13 02:58:36.47	28.85	9.72	-43.7	-45.4	14.9	2.20e-06	0	38	0	49283072	58	4222
2026-01-13 02:58:37.47	28.93	9.79	-43.1	-44.6	15.7	0.00e+00	0	38	0	56623104	57	4092
2026-01-13 02:58:38.46	29.01	9.87	-43.1	-44.6	15.8	0.00e+00	0	38	0	62914560	56	4319
2026-01-13 02:58:39.46	29.09	9.95	-42.8	-44.3	16.2	0.00e+00	0	38	0	70254592	56	4147
2026-01-13 02:58:40.45	29.17	10.02	-42.9	-44.4	16.1	0.00e+00	0	38	0	77594624	56	4223
2026-01-13 02:58:41.44	29.25	10.10	-42.7	-44.1	16.4	0.00e+00	0	38	0	84934656	56	4074
2026-01-13 02:58:42.44	29.34	10.18	-42.2	-43.6	16.7	0.00e+00	0	38	0	92274688	55	4071
2026-01-13 02:58:43.43	29.42	10.25	-42.1	-43.5	16.8	0.00e+00	0	38	0	99614720	55	4024
2026-01-13 02:58:44.43	29.50	10.33	-42.2	-43.5	16.8	0.00e+00	0	38	0	106954752	55	4032
2026-01-13 02:58:45.42	29.58	10.41	-42.2	-43.6	16.7	0.00e+00	0	38	0	113246208	54	4294
2026-01-13 02:58:46.42	29.67	10.49	-42.0	-43.3	17.0	0.00e+00	0	38	0	120586240	54	4180
2026-01-13 02:58:47.41	29.75	10.56	-42.1	-43.4	16.9	0.00e+00	0	38	0	127926272	54	4228
2026-01-13 02:58:48.41	29.84	10.64	-42.0	-43.3	17.0	0.00e+00	0	38	0	135266304	54	4171
2026-01-13 02:58:49.40	29.92	10.72	-42.1	-43.4	16.9	0.00e+00	0	38	0	142606336	54	4225
2026-01-13 02:58:50.45	30.01	10.80	-42.1	-43.4	16.9	0.00e+00	0	38	0	149946368	54	4195
2026-01-13 02:58:51.44	30.10	10.88	-42.0	-43.2	17.1	0.00e+00	0	38	0	157286400	54	4134
2026-01-13 02:58:52.44	30.19	10.96	-41.8	-43.0	17.3	0.00e+00	0	38	0	164626432	54	4045
2026-01-13 02:58:53.43	30.27	11.04	-42.0	-43.2	17.1	0.00e+00	0	38	0	171966464	54	4135
2026-01-13 02:58:54.43	30.36	11.12	-41.8	-43.1	17.2	0.00e+00	0	38	0	178257920	54	4063
2026-01-13 02:58:55.42	30.45	11.20	-41.9	-43.2	17.2	0.00e+00	0	38	0	185597952	54	4103
2026-01-13 02:58:56.42	30.54	11.28	-41.8	-43.0	17.3	0.00e+00	0	38	0	192937984	54	4014
2026-01-13 02:58:57.41	30.62	11.36	-41.9	-43.1	17.3	0.00e+00	0	38	0	200278016	54	4070
2026-01-13 02:58:58.41	30.71	11.44	-41.8	-43.0	17.4	0.00e+00	0	38	0	207618048	54	4020
2026-01-13 02:58:59.41	30.80	11.52	-41.8	-43.0	17.3	0.00e+00	0	38	0	213909504	54	4046
2026-01-13 02:59:00.40	30.89	11.60	-41.8	-43.0	17.4	0.00e+00	0	38	0	221249536	54	4020
2026-01-13 02:59:01.40	30.99	11.68	-41.8	-43.0	17.4	0.00e+00	0	38	0	228589568	54	4022
2026-01-13 02:59:02.39	31.08	11.76	-41.8	-43.0	17.5	0.00e+00	0	38	0	235929600	54	4019
2026-01-13 02:59:03.39	31.17	11.84	-41.8	-43.0	17.4	0.00e+00	0	38	0	243269632	54	4043
2026-01-13 02:59:04.38	31.26	11.92	-41.7	-42.9	17.5	0.00e+00	0	39	0	250609664	54	3977
2026-01-13 02:59:05.38	31.35	12.00	-41.7	-42.9	17.6	0.00e+00	0	38	0	257949696	54	3968
2026-01-13 02:59:06.37	31.45	12.08	-41.7	-42.9	17.5	0.00e+00	0	38	0	265289728	54	3988
2026-01-13 02:59:07.43	31.55	12.17	-41.7	-42.9	17.5	0.00e+00	0	38	0	272629760	54	3990
2026-01-13 02:59:08.32	31.63	12.25	-41.8	-42.9	17.5	0.00e+00	0	38	0	278921216	54	3993
2026-01-13 02:59:09.45	31.74	12.34	-41.8	-42.9	17.5	0.00e+00	0	39	0	287309824	54	3997
2026-01-13 02:59:10.31	31.82	12.41	-41.6	-42.8	17.6	0.00e+00	0	38	0	293601280	53	4178
2026-01-13 02:59:11.44	31.93	12.50	-41.7	-42.9	17.5	0.00e+00	0	38	0	300941312	53	4223
2026-01-13 02:59:12.29	32.01	12.58	-41.7	-42.9	17.5	0.00e+00	0	38	0	307232768	53	4224
2026-01-13 02:59:13.43	32.12	12.67	-41.8	-43.0	17.5	0.00e+00	0	38	0	315621376	53	4274
2026-01-13 02:59:14.28	32.20	12.74	-41.7	-42.9	17.5	0.00e+00	0	38	0	321912832	53	4230
2026-01-13 02:59:15.42	32.32	12.84	-41.8	-43.0	17.4	0.00e+00	0	38	0	330301440	53	4277
2026-01-13 02:59:16.27	32.40	12.91	-41.6	-42.8	17.6	0.00e+00	0	39	0	336592896	53	4183
2026-01-13 02:59:17.41	32.51	13.01	-41.7	-42.9	17.6	0.00e+00	0	38	0	343932928	53	4215
2026-01-13 02:59:18.27	32.60	13.08	-41.7	-42.8	17.6	0.00e+00	0	39	0	351272960	53	4181
2026-01-13 02:59:19.40	32.71	13.18	-41.5	-42.7	17.7	0.00e+00	0	39	0	358612992	53	4114
2026-01-13 02:59:20.26	32.80	13.25	-41.6	-42.8	17.7	0.00e+00	0	38	0	364904448	53	4149
2026-01-13 02:59:21.39	32.91	13.34	-41.5	-42.7	17.7	0.00e+00	0	38	0	373293056	53	4121
2026-01-13 02:59:22.25	33.00	13.42	-41.5	-42.7	17.8	0.00e+00	0	38	0	379584512	53	4112
2026-01-13 02:59:23.51	33.13	13.53	-41.6	-42.7	17.7	0.00e+00	0	38	0	387973120	53	4135
2026-01-13 02:59:24.30	33.21	13.59	-41.6	-42.7	17.7	0.00e+00	0	38	0	394264576	53	4140
2026-01-13 02:59:25.50	33.34	13.70	-41.6	-42.7	17.7	0.00e+00	0	38	0	402653184	53	4136
2026-01-13 02:59:26.35	33.43	13.77	-41.6	-42.7	17.7	0.00e+00	0	38	0	408944640	53	4131
2026-01-13 02:59:27.63	33.56	13.88	-41.4	-42.5	18.0	0.00e+00	0	38	0	418381824	53	4030
2026-01-13 02:59:28.34	33.63	13.94	-41.5	-42.6	17.8	0.00e+00	0	38	0	423624704	53	4093
2026-01-13 02:59:29.62	33.77	14.06	-41.5	-42.6	17.9	0.00e+00	0	38	0	433061888	53	4083
2026-01-13 02:59:30.34	33.85	14.12	-41.4	-42.5	17.9	0.00e+00	0	38	0	438304768	53	4038
2026-01-13 02:59:31.62	33.99	14.23	-41.4	-42.5	17.9	0.00e+00	0	39	0	446693376	53	4032
2026-01-13 02:59:32.34	34.06	14.30	-41.4	-42.6	17.8	0.00e+00	0	38	0	451936256	53	4067
2026-01-13 02:59:33.62	34.20	14.41	-41.2	-42.4	18.0	0.00e+00	0	39	0	461373440	53	3973
2026-01-13 02:59:34.33	34.28	14.47	-41.2	-42.4	18.0	0.00e+00	0	38	0	466616320	53	3962
2026-01-13 02:59:35.61	34.42	14.58	-41.2	-42.3	18.0	0.00e+00	0	39	0	476053504	52	4185
2026-01-13 02:59:36.48	34.52	14.66	-41.1	-42.2	18.2	0.00e+00	0	39	0	482344960	52	4137
2026-01-13 02:59:37.61	34.64	14.76	-41.2	-42.3	18.2	0.00e+00	0	38	0	489684992	52	4160
2026-01-13 02:59:38.47	34.74	14.84	-41.0	-42.1	18.3	0.00e+00	0	38	0	497025024	52	4082
2026-01-13 02:59:39.60	34.87	14.94	-41.1	-42.2	18.3	0.00e+00	0	38	0	504365056	52	4105
2026-01-13 02:59:40.71	34.99	15.04	-41.0	-42.1	18.4	0.00e+00	0	38	0	512753664	52	4082
2026-01-13 02:59:41.73	35.11	15.13	-41.0	-42.1	18.3	0.00e+00	0	38	0	520093696	52	4084
2026-01-13 02:59:42.73	35.22	15.22	-40.8	-41.9	18.6	0.00e+00	0	38	0	527433728	52	3977
2026-01-13 02:59:43.93	35.36	15.33	-40.8	-41.9	18.5	0.00e+00	0	38	0	535822336	52	3971
2026-01-13 02:59:44.81	35.46	15.41	-40.9	-42.1	18.3	0.00e+00	0	38	0	542113792	52	4056
2026-01-13 02:59:46.12	35.62	15.53	-40.9	-42.0	18.4	0.00e+00	0	38	0	551550976	52	4024
2026-01-13 02:59:46.83	35.70	15.60	-41.0	-42.1	18.3	0.00e+00	0	38	0	556793856	52	4064
2026-01-13 02:59:48.11	35.85	15.71	-41.0	-42.0	18.4	0.00e+00	0	38	0	566231040	52	4048
2026-01-13 02:59:48.84	35.94	15.78	-40.9	-41.9	18.5	0.00e+00	0	38	0	571473920	52	3999
2026-01-13 02:59:50.12	36.09	15.90	-40.9	-41.9	18.5	0.00e+00	0	38	0	580911104	52	4002
2026-01-13 02:59:50.85	36.18	15.96	-40.9	-41.9	18.5	0.00e+00	0	38	0	586153984	52	4003
2026-01-13 02:59:52.12	36.33	16.08	-40.8	-41.9	18.6	0.00e+00	0	38	0	595591168	52	3994
2026-01-13 02:59:52.91	36.43	16.16	-40.8	-41.9	18.6	0.00e+00	0	38	0	600834048	52	3987
2026-01-13 02:59:54.08	36.57	16.26	-40.9	-42.0	18.5	0.00e+00	0	38	0	609222656	52	4028
2026-01-13 02:59:54.93	36.68	16.34	-40.8	-41.9	18.6	0.00e+00	0	38	0	615514112	52	3997
2026-01-13 02:59:56.07	36.82	16.45	-40.8	-41.9	18.5	0.00e+00	0	39	0	623902720	52	3987
2026-01-13 02:59:56.92	36.92	16.53	-40.7	-41.8	18.6	0.00e+00	0	39	0	630194176	52	3958
2026-01-13 02:59:58.06	37.07	16.64	-40.8	-41.9	18.5	0.00e+00	0	38	0	637534208	52	3975
2026-01-13 02:59:58.92	37.17	16.72	-40.8	-41.9	18.5	0.00e+00	0	38	0	643825664	52	3972
2026-01-13 03:00:00.05	37.32	16.82	-40.7	-41.8	18.6	0.00e+00	0	39	0	652214272	52	3930
2026-01-13 03:00:00.91	37.43	16.91	-40.6	-41.7	18.6	0.00e+00	0	38	0	658505728	52	3905
2026-01-13 03:00:02.04	37.57	17.01	-40.7	-41.8	18.7	0.00e+00	0	38	0	666894336	52	3916
2026-01-13 03:00:02.90	37.68	17.09	-40.6	-41.7	18.8	0.00e+00	0	38	0	673185792	51	4109
2026-01-13 03:00:04.10	37.84	17.21	-40.5	-41.6	19.0	0.00e+00	0	38	0	681574400	51	4075
2026-01-13 03:00:05.36	38.01	17.33	-40.5	-41.5	19.0	0.00e+00	0	39	0	689963008	51	4041
2026-01-13 03:00:06.35	38.14	17.42	-40.4	-41.5	19.1	0.00e+00	0	38	0	697303040	51	4010
2026-01-13 03:00:07.35	38.27	17.52	-40.3	-41.4	19.1	0.00e+00	0	39	0	704643072	51	3961
2026-01-13 03:00:08.35	38.40	17.62	-40.2	-41.2	19.2	0.00e+00	0	39	0	711983104	51	3888
2026-01-13 03:00:09.34	38.54	17.71	-40.2	-41.3	19.1	0.00e+00	0	38	0	719323136	51	3925
2026-01-13 03:00:10.34	38.67	17.81	-40.2	-41.2	19.1	0.00e+00	0	39	0	726663168	51	3891
2026-01-13 03:00:11.33	38.81	17.91	-40.1	-41.1	19.2	0.00e+00	0	39	0	734003200	51	3850
2026-01-13 03:00:12.33	38.94	18.00	-40.1	-41.1	19.2	0.00e+00	0	38	0	741343232	50	4090
2026-01-13 03:00:13.33	39.08	18.10	-40.1	-41.1	19.2	0.00e+00	0	39	0	748683264	50	4080
2026-01-13 03:00:14.32	39.22	18.20	-40.2	-41.2	19.2	0.00e+00	0	39	0	754974720	50	4129
2026-01-13 03:00:15.31	39.36	18.29	-40.2	-41.2	19.3	0.00e+00	0	38	0	762314752	50	4144
2026-01-13 03:00:16.37	39.50	18.40	-40.3	-41.3	19.3	0.00e+00	0	39	0	770703360	50	4184
2026-01-13 03:00:17.23	39.63	18.48	-40.2	-41.2	19.4	0.00e+00	0	39	0	775946240	50	4132
2026-01-13 03:00:18.36	39.79	18.60	-40.3	-41.3	19.3	0.00e+00	0	39	0	784334848	50	4170
2026-01-13 03:00:19.21	39.91	18.68	-40.3	-41.3	19.4	0.00e+00	0	39	0	790626304	50	4153
2026-01-13 03:00:20.35	40.07	18.79	-40.2	-41.2	19.4	0.00e+00	0	38	0	799014912	50	4124
2026-01-13 03:00:21.21	40.20	18.88	-40.2	-41.3	19.3	0.00e+00	0	39	0	805306368	50	4147
2026-01-13 03:00:22.34	40.36	18.99	-40.2	-41.2	19.4	0.00e+00	0	38	0	813694976	50	4138
2026-01-13 03:00:23.19	40.49	19.08	-40.2	-41.2	19.4	0.00e+00	0	38	0	818937856	50	4112
2026-01-13 03:00:24.33	40.66	19.19	-40.1	-41.1	19.5	0.00e+00	0	38	0	827326464	50	4083
2026-01-13 03:00:25.18	40.78	19.27	-40.1	-41.1	19.5	0.00e+00	0	39	0	833617920	50	4086
2026-01-13 03:00:26.32	40.95	19.39	-40.1	-41.1	19.5	0.00e+00	0	38	0	842006528	50	4076
2026-01-13 03:00:27.17	41.08	19.47	-40.1	-41.1	19.5	0.00e+00	0	39	0	848297984	50	4087
2026-01-13 03:00:28.31	41.25	19.59	-40.1	-41.1	19.6	0.00e+00	0	38	0	855638016	50	4083
2026-01-13 03:00:29.16	41.38	19.68	-40.2	-41.1	19.5	0.00e+00	0	38	0	861929472	50	4096
2026-01-13 03:00:30.30	41.56	19.79	-40.0	-40.9	19.7	0.00e+00	0	38	0	870318080	50	4002
2026-01-13 03:00:31.15	41.69	19.88	-40.0	-40.9	19.7	0.00e+00	0	38	0	876609536	50	3995
2026-01-13 03:00:32.29	41.87	19.99	-39.9	-40.9	19.8	0.00e+00	0	39	0	884998144	50	3968
2026-01-13 03:00:33.14	42.00	20.08	-39.8	-40.8	19.8	0.00e+00	0	38	0	891289600	50	3926
2026-01-13 03:00:34.28	42.18	20.20	-39.8	-40.7	19.9	0.00e+00	0	39	0	899678208	50	3899
2026-01-13 03:00:35.13	42.31	20.28	-39.8	-40.7	19.9	0.00e+00	0	38	0	905969664	50	3902
2026-01-13 03:00:36.27	42.49	20.40	-39.8	-40.7	19.9	0.00e+00	0	38	0	914358272	50	3904
2026-01-13 03:00:37.12	42.63	20.49	-39.8	-40.7	19.9	0.00e+00	0	38	0	919601152	50	3904
2026-01-13 03:00:38.26	42.82	20.61	-40.0	-40.9	19.8	0.00e+00	0	38	0	927989760	50	3989
2026-01-13 03:00:39.11	42.95	20.69	-39.9	-40.9	19.8	0.00e+00	0	39	0	934281216	50	3963
2026-01-13 03:00:40.25	43.14	20.81	-40.0	-41.0	19.7	0.00e+00	0	38	0	942669824	50	4029
2026-01-13 03:00:41.10	43.28	20.90	-40.1	-41.0	19.7	0.00e+00	0	39	0	948961280	50	4050
2026-01-13 03:00:42.24	43.47	21.02	-40.1	-41.1	19.6	0.00e+00	0	38	0	957349888	50	4073
2026-01-13 03:00:43.09	43.61	21.11	-40.1	-41.1	19.6	0.00e+00	0	39	0	962592768	50	4074
2026-01-13 03:00:44.29	43.81	21.23	-40.2	-41.1	19.6	0.00e+00	0	39	0	972029952	50	4096
2026-01-13 03:00:45.14	43.96	21.32	-40.1	-41.0	19.7	0.00e+00	0	38	0	977272832	50	4049
2026-01-13 03:00:46.37	44.17	21.45	-39.9	-40.9	19.8	0.00e+00	0	39	0	986710016	50	3979
2026-01-13 03:00:47.22	44.31	21.54	-39.9	-40.9	19.8	0.00e+00	0	39	0	993001472	50	3969
2026-01-13 03:00:48.36	44.51	21.66	-39.8	-40.8	19.9	0.00e+00	0	38	0	1001390080	50	3934
2026-01-13 03:00:49.21	44.66	21.75	-39.7	-40.6	20.0	0.00e+00	0	39	0	1006632960	50	3863
2026-01-13 03:00:50.35	44.86	21.87	-39.8	-40.7	19.9	0.00e+00	0	38	0	1015021568	50	3912
2026-01-13 03:00:51.20	45.01	21.96	-39.8	-40.7	20.0	0.00e+00	0	38	0	1021313024	50	3891
2026-01-13 03:00:52.34	45.21	22.08	-39.7	-40.7	20.0	0.00e+00	0	38	0	1029701632	50	3888
2026-01-13 03:00:53.19	45.36	22.17	-39.7	-40.7	20.0	0.00e+00	0	38	0	1035993088	50	3882
2026-01-13 03:00:54.33	45.56	22.29	-39.8	-40.7	20.0	0.00e+00	0	38	0	1044381696	50	3912
2026-01-13 03:00:55.18	45.72	22.38	-39.8	-40.7	20.0	0.00e+00	0	38	0	1050673152	50	3898
2026-01-13 03:00:56.32	45.92	22.50	-39.8	-40.8	20.0	0.00e+00	0	39	0	1059061760	50	3917
2026-01-13 03:00:57.17	46.08	22.59	-39.7	-40.7	20.1	0.00e+00	0	38	0	1064304640	50	3881
2026-01-13 03:00:58.31	46.29	22.71	-39.8	-40.8	20.0	0.00e+00	0	39	0	1072693248	50	3922
2026-01-13 03:00:59.16	46.45	22.80	-39.8	-40.7	20.0	0.00e+00	0	38	0	1078984704	50	3913
2026-01-13 03:01:00.30	46.66	22.93	-39.8	-40.7	20.1	0.00e+00	0	39	0	1087373312	50	3898
2026-01-13 03:01:01.15	46.82	23.02	-39.9	-40.9	19.9	0.00e+00	0	38	0	1093664768	50	3975
2026-01-13 03:01:02.31	47.04	23.14	-40.0	-40.9	19.9	0.00e+00	0	38	0	1102053376	50	4002
2026-01-13 03:01:03.16	47.20	23.23	-39.9	-40.9	19.9	0.00e+00	0	39	0	1107296256	50	3974
2026-01-13 03:01:04.30	47.42	23.36	-40.0	-41.0	19.8	0.00e+00	0	38	0	1115684864	50	4036
2026-01-13 03:01:05.15	47.59	23.45	-40.0	-41.0	19.9	0.00e+00	0	39	0	1121976320	50	4013
2026-01-13 03:01:06.29	47.81	23.57	-40.0	-40.9	19.9	0.00e+00	0	39	0	1130364928	50	4004
2026-01-13 03:01:07.14	47.98	23.66	-39.9	-40.8	20.0	0.00e+00	0	39	0	1136656384	50	3957
2026-01-13 03:01:08.28	48.20	23.79	-39.9	-40.8	20.0	0.00e+00	0	38	0	1145044992	50	3944
2026-01-13 03:01:09.13	48.37	23.88	-39.9	-40.9	20.0	0.00e+00	0	38	0	1151336448	50	3985
2026-01-13 03:01:10.49	48.64	24.02	-40.0	-40.9	20.0	0.00e+00	0	39	0	1160773632	50	3998
2026-01-13 03:01:11.20	48.78	24.10	-40.0	-41.0	19.9	0.00e+00	0	38	0	1166016512	50	4022
2026-01-13 03:01:12.48	49.04	24.24	-39.9	-40.9	20.0	0.00e+00	0	38	0	1175453696	50	3978
2026-01-13 03:01:13.22	49.20	24.32	-39.9	-40.9	20.0	0.00e+00	0	38	0	1180696576	50	3963
2026-01-13 03:01:14.50	49.46	24.46	-39.9	-40.9	20.1	0.00e+00	0	39	0	1190133760	50	3961
2026-01-13 03:01:15.21	49.61	24.54	-39.8	-40.8	20.1	0.00e+00	0	39	0	1194328064	50	3919
2026-01-13 03:01:16.49	49.87	24.68	-39.8	-40.8	20.1	0.00e+00	0	39	0	1203765248	50	3932
2026-01-13 03:01:17.22	50.03	24.76	-39.7	-40.6	20.3	0.00e+00	0	39	0	1209008128	50	3846
2026-01-13 03:01:18.50	50.30	24.89	-39.6	-40.5	20.4	0.00e+00	0	39	0	1218445312	49	4030
2026-01-13 03:01:19.22	50.45	24.97	-39.5	-40.4	20.4	0.00e+00	0	39	0	1223688192	49	3997
2026-01-13 03:01:20.50	50.72	25.11	-39.5	-40.5	20.5	0.00e+00	0	38	0	1233125376	49	4009
2026-01-13 03:01:21.22	50.88	25.19	-39.6	-40.6	20.3	0.00e+00	0	38	0	1238368256	49	4053
2026-01-13 03:01:22.50	51.16	25.33	-39.7	-40.6	20.3	0.00e+00	0	38	0	1247805440	49	4081
2026-01-13 03:01:23.21	51.31	25.41	-39.6	-40.6	20.4	0.00e+00	0	38	0	1251999744	49	4059
2026-01-13 03:01:24.49	51.59	25.55	-39.7	-40.7	20.3	0.00e+00	0	39	0	1261436928	49	4099
2026-01-13 03:01:25.20	51.75	25.63	-39.7	-40.6	20.3	0.00e+00	0	38	0	1266679808	49	4097
2026-01-13 03:01:26.48	52.04	25.77	-39.7	-40.7	20.3	0.00e+00	0	38	0	1276116992	49	4102
2026-01-13 03:01:27.22	52.20	25.85	-39.7	-40.6	20.3	0.00e+00	0	38	0	1281359872	49	4078
2026-01-13 03:01:28.72	52.54	26.01	-39.7	-40.6	20.3	0.00e+00	0	39	0	1292894208	49	4072
2026-01-13 03:01:29.43	52.70	26.09	-39.7	-40.7	20.3	0.00e+00	0	39	0	1297088512	49	4101
2026-01-13 03:01:30.77	53.01	26.23	-39.7	-40.6	20.3	0.00e+00	0	38	0	1307574272	49	4092
2026-01-13 03:01:31.48	53.18	26.31	-39.8	-40.7	20.3	0.00e+00	0	38	0	1312817152	49	4128
2026-01-13 03:01:32.76	53.47	26.45	-39.8	-40.8	20.3	0.00e+00	0	39	0	1321205760	49	4162
2026-01-13 03:01:33.49	53.64	26.53	-39.9	-40.8	20.2	0.00e+00	0	39	0	1326448640	49	4171
2026-01-13 03:01:34.77	53.95	26.67	-39.8	-40.7	20.3	0.00e+00	0	39	0	1335885824	49	4144
2026-01-13 03:01:35.50	54.12	26.75	-39.7	-40.7	20.3	0.00e+00	0	39	0	1341128704	49	4111
2026-01-13 03:01:36.77	54.42	26.89	-39.7	-40.7	20.3	0.00e+00	0	39	0	1350565888	49	4113
2026-01-13 03:01:37.48	54.59	26.96	-39.8	-40.7	20.3	0.00e+00	0	39	0	1355808768	49	4120
2026-01-13 03:01:38.76	54.90	27.10	-39.6	-40.6	20.4	0.00e+00	0	38	0	1364197376	49	4060
2026-01-13 03:01:39.51	55.09	27.18	-39.7	-40.6	20.4	0.00e+00	0	39	0	1370488832	49	4071
2026-01-13 03:01:40.79	55.40	27.32	-39.6	-40.5	20.5	0.00e+00	0	38	0	1379926016	49	4030
2026-01-13 03:01:41.53	55.58	27.40	-39.5	-40.4	20.6	0.00e+00	0	39	0	1385168896	49	3984
2026-01-13 03:01:42.81	55.90	27.54	-39.3	-40.2	20.7	0.00e+00	0	39	0	1393557504	49	3908
2026-01-13 03:01:43.58	56.10	27.62	-39.3	-40.2	20.7	0.00e+00	0	39	0	1399848960	49	3896
2026-01-13 03:01:45.18	56.50	27.80	-39.5	-40.4	20.6	0.00e+00	0	39	0	1411383296	49	3972
2026-01-13 03:01:45.78	56.65	27.86	-39.4	-40.3	20.7	0.00e+00	0	39	0	1415577600	49	3923
2026-01-13 03:01:47.50	57.09	28.05	-39.4	-40.3	20.7	0.00e+00	0	39	0	1428160512	49	3935
2026-01-13 03:01:48.07	57.24	28.11	-39.4	-40.3	20.7	0.00e+00	0	39	0	1432354816	49	3933
2026-01-13 03:01:49.78	57.69	28.29	-39.3	-40.2	20.8	0.00e+00	0	39	0	1444937728	49	3872
2026-01-13 03:01:50.35	57.84	28.35	-39.4	-40.3	20.7	0.00e+00	0	39	0	1448083456	49	3919
2026-01-13 03:01:52.05	58.28	28.53	-39.4	-40.3	20.7	0.00e+00	0	39	0	1460666368	49	3923
2026-01-13 03:01:52.62	58.44	28.59	-39.4	-40.4	20.7	0.00e+00	0	38	0	1464860672	49	3960
2026-01-13 03:01:54.33	58.90	28.77	-39.6	-40.5	20.5	0.00e+00	0	39	0	1477443584	49	4026
2026-01-13 03:01:54.90	59.05	28.83	-39.6	-40.6	20.5	0.00e+00	0	39	0	1481637888	49	4059
2026-01-13 03:01:56.59	59.51	29.01	-39.8	-40.7	20.3	0.00e+00	0	39	0	1493172224	49	4126
2026-01-13 03:01:57.35	59.72	29.09	-39.7	-40.7	20.4	0.00e+00	0	39	0	1499463680	49	4101
2026-01-13 03:01:58.63	60.07	29.22	-39.7	-40.6	20.4	0.00e+00	0	39	0	1507852288	49	4076
2026-01-13 03:01:59.34	60.27	29.30	-39.6	-40.5	20.5	0.00e+00	0	39	0	1513095168	49	4036
2026-01-13 03:02:00.62	60.63	29.43	-39.5	-40.4	20.6	0.00e+00	0	39	0	1522532352	49	3994
2026-01-13 03:02:01.36	60.83	29.51	-39.5	-40.4	20.6	0.00e+00	0	39	0	1527775232	49	3984
2026-01-13 03:02:02.67	61.21	29.64	-39.4	-40.3	20.6	0.00e+00	0	39	0	1537212416	49	3954
2026-01-13 03:02:03.38	61.41	29.72	-39.5	-40.4	20.6	0.00e+00	0	39	0	1542455296	49	3994
2026-01-13 03:02:04.74	61.80	29.86	-39.4	-40.3	20.6	0.00e+00	0	39	0	1551892480	49	3956
2026-01-13 03:02:05.45	62.00	29.93	-39.4	-40.3	20.7	0.00e+00	0	39	0	1557135360	49	3933
2026-01-13 03:02:06.77	62.39	30.06	-39.4	-40.3	20.7	0.00e+00	0	39	0	1567621120	49	3916
2026-01-13 03:02:07.48	62.59	30.13	-39.3	-40.2	20.7	0.00e+00	0	38	0	1571815424	49	3900
2026-01-13 03:02:08.82	62.99	30.27	-39.3	-40.2	20.7	0.00e+00	0	38	0	1582301184	49	3894
2026-01-13 03:02:09.53	63.20	30.34	-39.2	-40.1	20.8	0.00e+00	0	39	0	1587544064	49	3847
2026-01-13 03:02:10.81	63.58	30.47	-39.2	-40.1	20.8	0.00e+00	0	39	0	1595932672	49	3842
2026-01-13 03:02:11.52	63.79	30.54	-39.2	-40.1	20.9	0.00e+00	0	38	0	1601175552	49	3827
2026-01-13 03:02:12.80	64.18	30.66	-39.2	-40.1	20.8	0.00e+00	0	38	0	1610612736	49	3851
2026-01-13 03:02:13.53	64.40	30.74	-39.2	-40.1	20.9	0.00e+00	0	38	0	1615855616	49	3836
2026-01-13 03:02:14.81	64.79	30.86	-39.2	-40.1	20.8	0.00e+00	0	39	0	1625292800	49	3862
2026-01-13 03:02:15.52	65.01	30.93	-39.3	-40.2	20.8	0.00e+00	0	38	0	1630535680	49	3873
2026-01-13 03:02:16.80	65.41	31.05	-39.3	-40.2	20.7	0.00e+00	0	38	0	1638924288	49	3894
2026-01-13 03:02:17.52	65.63	31.12	-39.3	-40.3	20.7	0.00e+00	0	38	0	1645215744	49	3920
2026-01-13 03:02:18.80	66.03	31.24	-39.3	-40.2	20.8	0.00e+00	0	39	0	1653604352	49	3887
2026-01-13 03:02:19.61	66.28	31.32	-39.2	-40.1	20.8	0.00e+00	0	39	0	1659895808	49	3850
2026-01-13 03:02:21.05	66.74	31.46	-39.2	-40.1	20.8	0.00e+00	0	39	0	1670381568	49	3841
2026-01-13 03:02:21.76	66.97	31.52	-39.3	-40.2	20.7	0.00e+00	0	38	0	1675624448	49	3891
2026-01-13 03:02:23.03	67.37	31.64	-39.4	-40.4	20.6	0.00e+00	0	39	0	1684013056	49	3962
2026-01-13 03:02:23.75	67.61	31.71	-39.4	-40.3	20.6	0.00e+00	0	38	0	1689255936	49	3941
2026-01-13 03:02:25.02	68.02	31.82	-39.4	-40.3	20.7	0.00e+00	0	39	0	1698693120	49	3931
2026-01-13 03:02:25.75	68.25	31.89	-39.4	-40.3	20.7	0.00e+00	0	38	0	1703936000	49	3926
2026-01-13 03:02:27.03	68.67	32.00	-39.3	-40.3	20.6	0.00e+00	0	39	0	1713373184	49	3914
2026-01-13 03:02:27.74	68.91	32.07	-39.3	-40.3	20.7	0.00e+00	0	39	0	1718616064	49	3917
2026-01-13 03:02:29.02	69.33	32.18	-39.1	-40.0	20.9	0.00e+00	0	38	0	1728053248	49	3794
2026-01-13 03:02:29.73	69.57	32.24	-39.2	-40.1	20.8	0.00e+00	0	39	0	1733296128	49	3841
2026-01-13 03:02:31.01	70.00	32.35	-39.1	-40.0	20.9	0.00e+00	0	39	0	1741684736	48	4048
2026-01-13 03:02:31.72	70.23	32.41	-39.2	-40.1	20.8	0.00e+00	0	38	0	1746927616	48	4061
2026-01-13 03:02:33.00	70.67	32.52	-39.3	-40.2	20.7	0.00e+00	0	39	0	1756364800	48	4105
2026-01-13 03:02:33.72	70.91	32.58	-39.3	-40.2	20.7	0.00e+00	0	39	0	1761607680	48	4136
2026-01-13 03:02:35.00	71.35	32.69	-39.4	-40.4	20.6	0.00e+00	0	39	0	1771044864	48	4203
2026-01-13 03:02:35.72	71.60	32.75	-39.4	-40.3	20.6	0.00e+00	0	39	0	1776287744	48	4174
2026-01-13 03:02:37.12	72.08	32.86	-39.3	-40.2	20.7	0.00e+00	0	39	0	1786773504	48	4136
2026-01-13 03:02:37.83	72.33	32.92	-39.3	-40.2	20.7	0.00e+00	0	39	0	1790967808	48	4128
2026-01-13 03:02:39.16	72.79	33.03	-39.3	-40.2	20.7	0.00e+00	0	39	0	1800404992	48	4104
2026-01-13 03:02:39.87	73.04	33.08	-39.3	-40.2	20.7	0.00e+00	0	39	0	1805647872	48	4109
2026-01-13 03:02:41.23	73.52	33.19	-39.2	-40.0	20.8	0.00e+00	0	39	0	1816133632	48	4050
2026-01-13 03:02:41.94	73.77	33.24	-39.1	-40.0	20.9	0.00e+00	0	39	0	1821376512	48	4023
2026-01-13 03:02:43.21	74.22	33.34	-39.0	-39.9	21.0	0.00e+00	0	39	0	1829765120	48	3968
2026-01-13 03:02:43.93	74.48	33.39	-38.9	-39.8	21.1	0.00e+00	0	39	0	1835008000	48	3937
2026-01-13 03:02:45.21	74.94	33.49	-38.9	-39.8	21.0	0.00e+00	0	39	0	1844445184	48	3943
2026-01-13 03:02:45.95	75.20	33.54	-38.9	-39.8	21.0	0.00e+00	0	39	0	1849688064	48	3944
2026-01-13 03:02:47.22	75.66	33.63	-38.9	-39.8	21.0	0.00e+00	0	39	0	1859125248	48	3942
2026-01-13 03:02:47.94	75.92	33.68	-39.1	-39.9	20.9	0.00e+00	0	39	0	1864368128	48	4003
2026-01-13 03:02:49.21	76.39	33.77	-39.1	-40.0	20.8	0.00e+00	0	39	0	1872756736	48	4046
2026-01-13 03:02:49.99	76.67	33.83	-39.3	-40.2	20.7	0.00e+00	0	39	0	1879048192	48	4116
2026-01-13 03:02:51.26	77.14	33.91	-39.4	-40.3	20.6	0.00e+00	0	39	0	1888485376	48	4167
2026-01-13 03:02:51.98	77.41	33.96	-39.4	-40.4	20.5	0.00e+00	0	39	0	1893728256	48	4197
2026-01-13 03:02:53.25	77.88	34.04	-39.2	-40.1	20.7	0.00e+00	0	39	0	1902116864	48	4087
2026-01-13 03:02:53.97	78.15	34.09	-39.3	-40.2	20.7	0.00e+00	0	39	0	1908408320	48	4113
2026-01-13 03:02:55.25	78.63	34.17	-39.3	-40.2	20.7	0.00e+00	0	39	0	1916796928	48	4127
2026-01-13 03:02:55.97	78.90	34.21	-39.4	-40.3	20.6	0.00e+00	0	39	0	1922039808	48	4174
2026-01-13 03:02:57.25	79.38	34.29	-39.4	-40.3	20.6	0.00e+00	0	39	0	1931476992	48	4178
2026-01-13 03:02:57.99	79.66	34.33	-39.3	-40.2	20.6	0.00e+00	0	39	0	1936719872	48	4132
2026-01-13 03:02:59.27	80.15	34.40	-39.1	-40.1	20.8	0.00e+00	0	39	0	1946157056	48	4052
2026-01-13 03:03:00.00	80.42	34.44	-39.1	-40.0	20.9	0.00e+00	0	39	0	1951399936	48	4016
2026-01-13 03:03:01.27	80.91	34.51	-38.9	-39.7	21.1	0.00e+00	0	39	0	1960837120	48	3911
2026-01-13 03:03:02.00	81.19	34.55	-38.8	-39.7	21.1	0.00e+00	0	39	0	1966080000	48	3907
2026-01-13 03:03:03.28	81.68	34.62	-38.7	-39.6	21.2	0.00e+00	0	39	0	1975517184	48	3845
2026-01-13 03:03:04.00	81.96	34.66	-38.7	-39.6	21.2	0.00e+00	0	38	0	1979711488	48	3840
2026-01-13 03:03:05.28	82.46	34.72	-38.8	-39.6	21.1	0.00e+00	0	38	0	1989148672	48	3867
2026-01-13 03:03:05.99	82.73	34.75	-38.9	-39.8	21.0	0.00e+00	0	39	0	1994391552	48	3916
2026-01-13 03:03:07.27	83.23	34.81	-39.0	-39.9	20.9	0.00e+00	0	39	0	2003828736	48	3977
2026-01-13 03:03:07.98	83.51	34.85	-39.0	-40.0	20.8	0.00e+00	0	39	0	2009071616	48	4013
2026-01-13 03:03:09.26	84.01	34.90	-39.1	-40.1	20.8	0.00e+00	0	39	0	2018508800	48	4061
2026-01-13 03:03:09.99	84.29	34.93	-39.1	-40.0	20.8	0.00e+00	0	39	0	2023751680	48	4028
2026-01-13 03:03:11.27	84.80	34.99	-39.2	-40.1	20.8	0.00e+00	0	39	0	2033188864	48	4059
2026-01-13 03:03:12.08	85.12	35.02	-39.3	-40.3	20.6	0.00e+00	0	39	0	2038431744	48	4151
2026-01-13 03:03:13.51	85.68	35.07	-39.3	-40.2	20.7	0.00e+00	0	39	0	2048917504	48	4117
2026-01-13 03:03:14.22	85.97	35.10	-39.4	-40.3	20.5	0.00e+00	0	39	0	2054160384	48	4187
2026-01-13 03:03:15.50	86.47	35.14	-39.5	-40.4	20.4	0.00e+00	0	39	0	2063597568	48	4239
2026-01-13 03:03:16.22	86.76	35.17	-39.4	-40.3	20.5	0.00e+00	0	39	0	2068840448	48	4185
2026-01-13 03:03:17.76	87.38	35.22	-39.2	-40.2	20.7	0.00e+00	0	39	0	2079326208	48	4105
2026-01-13 03:03:18.47	87.66	35.24	-39.2	-40.1	20.7	0.00e+00	0	39	0	2084569088	48	4060
2026-01-13 03:03:19.74	88.17	35.27	-39.2	-40.1	20.7	0.00e+00	0	39	0	2094006272	48	4096
2026-01-13 03:03:20.46	88.46	35.29	-39.1	-40.0	20.8	0.00e+00	0	39	0	2099249152	48	4050
2026-01-13 03:03:21.74	88.97	35.33	-38.9	-39.8	20.9	0.00e+00	0	39	0	2108686336	48	3957
2026-01-13 03:03:22.46	89.26	35.34	-38.9	-39.8	20.9	0.00e+00	0	39	0	2112880640	48	3925
2026-01-13 03:03:23.74	89.78	35.37	-38.9	-39.8	20.9	0.00e+00	0	39	0	2122317824	48	3951
2026-01-13 03:03:24.45	90.07	35.39	-39.1	-40.0	20.8	0.00e+00	0	39	0	2127560704	48	4043
2026-01-13 03:03:25.73	90.58	35.41	-39.2	-40.1	20.7	0.00e+00	0	39	0	2136997888	48	4075
2026-01-13 03:03:26.49	90.89	35.43	-39.1	-40.0	20.8	0.00e+00	0	39	0	2142240768	48	4048
2026-01-13 03:03:27.76	91.41	35.45	-39.1	-40.0	20.8	0.00e+00	0	39	0	2151677952	48	4026
2026-01-13 03:03:28.49	91.70	35.46	-39.2	-40.1	20.7	0.00e+00	0	39	0	2156920832	48	4085
2026-01-13 03:03:29.77	92.22	35.47	-39.3	-40.2	20.6	0.00e+00	0	39	0	2166358016	48	4112
2026-01-13 03:03:30.57	92.55	35.48	-39.3	-40.2	20.6	0.00e+00	0	38	0	2171600896	48	4138
2026-01-13 03:03:31.71	93.01	35.49	-39.3	-40.3	20.6	0.00e+00	0	39	0	2179989504	48	4152
2026-01-13 03:03:32.56	93.36	35.50	-39.3	-40.2	20.6	0.00e+00	0	39	0	2186280960	48	4123
2026-01-13 03:03:33.70	93.82	35.51	-39.3	-40.2	20.6	0.00e+00	0	39	0	2194669568	48	4130
2026-01-13 03:03:34.55	94.17	35.51	-39.3	-40.2	20.6	0.00e+00	0	39	0	2200961024	48	4126
2026-01-13 03:03:35.69	94.63	35.52	-39.2	-40.1	20.7	0.00e+00	0	39	0	2209349632	48	4074
2026-01-13 03:03:36.55	94.98	35.52	-39.2	-40.1	20.7	0.00e+00	0	39	0	2214592512	48	4070
2026-01-13 03:03:37.68	95.44	35.52	-39.2	-40.2	20.7	0.00e+00	0	39	0	2222981120	48	4101
2026-01-13 03:03:38.54	95.79	35.52	-39.2	-40.1	20.7	0.00e+00	0	39	0	2229272576	48	4088
2026-01-13 03:03:39.68	96.26	35.52	-39.1	-40.0	20.8	0.00e+00	0	39	0	2237661184	48	4036
2026-01-13 03:03:40.53	96.61	35.51	-39.2	-40.1	20.7	0.00e+00	0	39	0	2243952640	48	4069
2026-01-13 03:03:41.67	97.07	35.51	-39.2	-40.1	20.7	0.00e+00	0	39	0	2252341248	48	4062
2026-01-13 03:03:42.52	97.42	35.50	-39.2	-40.1	20.7	0.00e+00	0	39	0	2258632704	48	4059
2026-01-13 03:03:43.65	97.88	35.49	-39.1	-40.0	20.7	0.00e+00	0	39	0	2265972736	48	4050
2026-01-13 03:03:44.51	98.23	35.48	-39.2	-40.1	20.7	0.00e+00	0	39	0	2272264192	48	4082
2026-01-13 03:03:45.64	98.68	35.47	-39.2	-40.1	20.7	0.00e+00	0	39	0	2280652800	48	4078
2026-01-13 03:03:46.50	99.03	35.45	-39.2	-40.1	20.7	0.00e+00	0	39	0	2286944256	48	4085
2026-01-13 03:03:47.63	99.49	35.44	-39.3	-40.2	20.7	0.00e+00	0	39	0	2295332864	48	4115
2026-01-13 03:03:48.48	99.84	35.42	-39.3	-40.2	20.6	0.00e+00	0	39	0	2301624320	48	4110
2026-01-13 03:03:49.62	100.30	35.40	-39.0	-39.9	20.9	0.00e+00	0	39	0	2310012928	48	3976
2026-01-13 03:03:50.79	100.77	35.38	-39.0	-39.9	20.8	0.00e+00	0	39	0	2318401536	48	3983
2026-01-13 03:03:51.80	101.18	35.36	-39.1	-39.9	20.8	0.00e+00	0	39	0	2324692992	48	4002
2026-01-13 03:03:52.97	101.65	35.33	-39.1	-40.0	20.7	0.00e+00	0	39	0	2334130176	48	4036
2026-01-13 03:03:53.85	102.01	35.31	-39.1	-40.0	20.7	0.00e+00	0	39	0	2340421632	48	4036
2026-01-13 03:03:54.99	102.47	35.28	-39.1	-40.0	20.8	0.00e+00	0	39	0	2347761664	48	4016
2026-01-13 03:03:55.84	102.81	35.25	-39.2	-40.1	20.7	0.00e+00	0	39	0	2354053120	48	4065
2026-01-13 03:03:56.98	103.26	35.22	-39.1	-40.0	20.8	0.00e+00	0	39	0	2362441728	48	4020
2026-01-13 03:03:57.83	103.60	35.19	-38.9	-39.8	20.9	0.00e+00	0	39	0	2368733184	48	3938
2026-01-13 03:03:58.97	104.06	35.15	-39.0	-39.8	20.9	0.00e+00	0	39	0	2377121792	48	3956
2026-01-13 03:03:59.82	104.40	35.12	-39.0	-39.9	20.9	0.00e+00	0	39	0	2383413248	48	3963
2026-01-13 03:04:00.96	104.85	35.08	-38.9	-39.8	21.0	0.00e+00	0	39	0	2390753280	48	3921
2026-01-13 03:04:01.81	105.19	35.05	-39.0	-39.9	20.9	0.00e+00	0	39	0	2397044736	48	3961
2026-01-13 03:04:02.95	105.64	35.01	-39.1	-40.0	20.7	0.00e+00	0	39	0	2405433344	48	4033
2026-01-13 03:04:03.80	105.98	34.97	-39.1	-40.0	20.7	0.00e+00	0	39	0	2411724800	48	4025
2026-01-13 03:04:04.94	106.43	34.93	-39.3	-40.2	20.6	0.00e+00	0	39	0	2420113408	48	4107
2026-01-13 03:04:05.79	106.76	34.89	-39.1	-40.0	20.8	0.00e+00	0	39	0	2426404864	48	4023
2026-01-13 03:04:07.10	107.27	34.83	-39.1	-40.0	20.8	0.00e+00	0	39	0	2435842048	48	4011
2026-01-13 03:04:07.81	107.55	34.80	-39.1	-40.0	20.8	0.00e+00	0	39	0	2441084928	48	4014
2026-01-13 03:04:09.30	108.13	34.73	-39.1	-40.0	20.8	0.00e+00	0	39	0	2451570688	48	4033
2026-01-13 03:04:10.01	108.41	34.69	-39.1	-40.0	20.8	0.00e+00	0	39	0	2456813568	48	4027
2026-01-13 03:04:11.29	108.90	34.63	-39.1	-40.0	20.7	0.00e+00	0	39	0	2466250752	48	4031
2026-01-13 03:04:12.00	109.18	34.59	-39.0	-39.9	20.8	0.00e+00	0	39	0	2471493632	48	4002
2026-01-13 03:04:13.28	109.67	34.52	-39.0	-39.9	20.9	0.00e+00	0	39	0	2479882240	48	3971
2026-01-13 03:04:14.02	109.95	34.48	-39.1	-40.0	20.7	0.00e+00	0	39	0	2486173696	48	4033
2026-01-13 03:04:15.30	110.44	34.41	-39.2	-40.2	20.6	0.00e+00	0	39	0	2494562304	48	4099
2026-01-13 03:04:16.02	110.72	34.37	-39.2	-40.1	20.6	0.00e+00	0	39	0	2499805184	48	4098
2026-01-13 03:04:17.30	111.20	34.30	-39.4	-40.3	20.5	0.00e+00	0	39	0	2509242368	48	4162
2026-01-13 03:04:18.03	111.48	34.25	-39.4	-40.3	20.4	0.00e+00	0	39	0	2514485248	48	4168
2026-01-13 03:04:19.31	111.96	34.18	-39.5	-40.4	20.4	0.00e+00	0	39	0	2523922432	48	4239
2026-01-13 03:04:20.02	112.23	34.13	-39.4	-40.3	20.4	0.00e+00	0	39	0	2529165312	48	4177
2026-01-13 03:04:21.30	112.71	34.05	-39.3	-40.2	20.6	0.00e+00	0	39	0	2538602496	48	4117
2026-01-13 03:04:22.18	113.04	34.00	-39.2	-40.1	20.7	0.00e+00	0	39	0	2544893952	48	4062
2026-01-13 03:04:23.32	113.46	33.92	-39.2	-40.1	20.6	0.00e+00	0	39	0	2553282560	48	4077
2026-01-13 03:04:24.17	113.77	33.86	-39.3	-40.2	20.5	0.00e+00	0	39	0	2558525440	48	4130
2026-01-13 03:04:25.31	114.19	33.79	-39.3	-40.2	20.5	0.00e+00	0	39	0	2566914048	48	4120
2026-01-13 03:04:26.16	114.51	33.73	-39.4	-40.3	20.5	0.00e+00	0	39	0	2573205504	48	4163
2026-01-13 03:04:27.30	114.92	33.65	-39.3	-40.2	20.6	0.00e+00	0	39	0	2581594112	48	4110
2026-01-13 03:04:28.15	115.23	33.59	-39.3	-40.2	20.6	0.00e+00	0	39	0	2587885568	48	4118
2026-01-13 03:04:29.29	115.64	33.50	-39.2	-40.2	20.6	0.00e+00	0	39	0	2596274176	48	4101
2026-01-13 03:04:30.14	115.95	33.44	-39.2	-40.1	20.6	0.00e+00	0	39	0	2601517056	48	4091
2026-01-13 03:04:31.34	116.38	33.35	-39.1	-40.0	20.7	0.00e+00	0	39	0	2610954240	48	4041
2026-01-13 03:04:32.19	116.69	33.29	-39.1	-40.0	20.7	0.00e+00	0	39	0	2617245696	48	4027
2026-01-13 03:04:33.39	117.11	33.20	-39.3	-40.2	20.6	0.00e+00	0	39	0	2625634304	48	4111
2026-01-13 03:04:34.25	117.42	33.13	-39.3	-40.2	20.5	0.00e+00	0	39	0	2631925760	48	4142
2026-01-13 03:04:35.39	117.82	33.04	-39.3	-40.2	20.6	0.00e+00	0	39	0	2640314368	48	4104
2026-01-13 03:04:36.24	118.12	32.97	-39.3	-40.3	20.4	0.00e+00	0	38	0	2645557248	48	4154
2026-01-13 03:04:37.38	118.51	32.88	-39.4	-40.3	20.4	0.00e+00	0	39	0	2653945856	48	4193
2026-01-13 03:04:38.23	118.81	32.81	-39.3	-40.2	20.6	0.00e+00	0	39	0	2660237312	48	4112
2026-01-13 03:04:39.37	119.20	32.72	-39.2	-40.2	20.6	0.00e+00	0	39	0	2668625920	48	4103
2026-01-13 03:04:40.22	119.49	32.65	-39.1	-40.0	20.7	0.00e+00	0	39	0	2674917376	48	4030
2026-01-13 03:04:41.36	119.88	32.55	-39.2	-40.1	20.6	0.00e+00	0	39	0	2683305984	48	4053
2026-01-13 03:04:42.21	120.17	32.48	-39.1	-40.0	20.7	0.00e+00	0	39	0	2688548864	48	4008
2026-01-13 03:04:43.68	120.67	32.35	-39.1	-40.0	20.7	0.00e+00	0	39	0	2700083200	48	4043
2026-01-13 03:04:44.39	120.91	32.29	-39.2	-40.1	20.6	0.00e+00	0	39	0	2705326080	48	4064
2026-01-13 03:04:45.67	121.34	32.18	-39.3	-40.2	20.5	0.00e+00	0	39	0	2713714688	48	4114
2026-01-13 03:04:46.41	121.58	32.11	-39.3	-40.2	20.3	0.00e+00	0	39	0	2718957568	48	4125
2026-01-13 03:04:47.69	122.01	32.00	-39.3	-40.2	20.5	0.00e+00	0	39	0	2728394752	48	4145
2026-01-13 03:04:48.40	122.24	31.93	-39.4	-40.4	20.4	0.00e+00	0	39	0	2733637632	48	4198
2026-01-13 03:04:49.68	122.66	31.82	-39.4	-40.3	20.4	0.00e+00	0	38	0	2743074816	48	4188
2026-01-13 03:04:50.39	122.89	31.75	-39.4	-40.3	20.4	0.00e+00	0	38	0	2748317696	48	4177
2026-01-13 03:04:51.67	123.31	31.63	-39.4	-40.3	20.4	0.00e+00	0	39	0	2757754880	48	4181
2026-01-13 03:04:52.39	123.54	31.57	-39.2	-40.2	20.5	0.00e+00	0	39	0	2762997760	48	4114
2026-01-13 03:04:53.66	123.95	31.45	-39.2	-40.1	20.6	0.00e+00	0	39	0	2771386368	48	4067
2026-01-13 03:04:54.59	124.24	31.36	-39.1	-40.1	20.6	0.00e+00	0	39	0	2778726400	48	4057
2026-01-13 03:04:55.89	124.65	31.24	-39.1	-40.0	20.6	0.00e+00	0	39	0	2788163584	48	4034
2026-01-13 03:04:56.60	124.88	31.17	-39.1	-40.0	20.6	0.00e+00	0	39	0	2793406464	48	4010
2026-01-13 03:04:58.23	125.38	31.01	-39.1	-40.0	20.6	0.00e+00	0	39	0	2804940800	48	4043
2026-01-13 03:04:58.79	125.56	30.96	-39.2	-40.1	20.6	0.00e+00	0	38	0	2809135104	48	4087
2026-01-13 03:05:00.69	126.14	30.77	-39.3	-40.2	20.5	0.00e+00	0	39	0	2822766592	48	4122
2026-01-13 03:05:01.26	126.32	30.71	-39.3	-40.2	20.4	0.00e+00	0	39	0	2826960896	48	4129
2026-01-13 03:05:02.96	126.83	30.55	-39.3	-40.3	20.4	0.00e+00	0	39	0	2838495232	48	4157
2026-01-13 03:05:03.53	127.01	30.49	-39.4	-40.4	20.3	0.00e+00	0	39	0	2842689536	48	4195
2026-01-13 03:05:05.24	127.52	30.32	-39.5	-40.5	20.2	0.00e+00	0	39	0	2855272448	48	4250
2026-01-13 03:05:05.80	127.68	30.26	-39.6	-40.6	20.2	0.00e+00	0	39	0	2859466752	48	4292
2026-01-13 03:05:07.51	128.19	30.09	-39.6	-40.6	19.9	0.00e+00	0	39	0	2872049664	48	4306
2026-01-13 03:05:08.08	128.36	30.03	-39.6	-40.5	20.1	0.00e+00	0	39	0	2876243968	48	4277
2026-01-13 03:05:09.99	128.91	29.83	-39.3	-40.2	20.4	0.00e+00	0	39	0	2889875456	48	4115
2026-01-13 03:05:10.56	129.08	29.78	-39.2	-40.1	20.5	0.00e+00	0	39	0	2894069760	48	4076
2026-01-13 03:05:12.27	129.57	29.60	-39.0	-39.9	20.7	0.00e+00	0	38	0	2906652672	48	3986
2026-01-13 03:05:12.83	129.73	29.54	-39.0	-40.0	20.6	0.00e+00	0	39	0	2909798400	48	4005
2026-01-13 03:05:14.54	130.21	29.36	-39.0	-39.9	20.7	0.00e+00	0	39	0	2922381312	48	3989
2026-01-13 03:05:15.11	130.37	29.30	-39.0	-39.9	20.7	0.00e+00	0	39	0	2926575616	48	3989
2026-01-13 03:05:16.81	130.84	29.12	-39.2	-40.2	20.4	0.00e+00	0	39	0	2939158528	48	4122
2026-01-13 03:05:17.38	131.00	29.06	-39.3	-40.3	20.3	0.00e+00	0	39	0	2943352832	48	4161
2026-01-13 03:05:19.28	131.52	28.86	-39.6	-40.6	20.1	0.00e+00	0	39	0	2956984320	48	4310
2026-01-13 03:05:19.85	131.68	28.80	-39.7	-40.7	20.0	0.00e+00	0	39	0	2961178624	48	4358
2026-01-13 03:05:21.56	132.14	28.62	-39.6	-40.6	20.1	0.00e+00	0	39	0	2972712960	48	4316
2026-01-13 03:05:22.12	132.29	28.56	-39.6	-40.6	20.1	0.00e+00	0	39	0	2976907264	48	4302
2026-01-13 03:05:23.83	132.75	28.38	-39.5	-40.4	20.2	0.00e+00	0	38	0	2989490176	48	4240
2026-01-13 03:05:24.40	132.90	28.32	-39.3	-40.2	20.4	0.00e+00	0	39	0	2993684480	48	4134
2026-01-13 03:05:26.10	133.34	28.13	-39.1	-40.0	20.6	0.00e+00	0	39	0	3006267392	48	4006
2026-01-13 03:05:26.91	133.55	28.05	-39.2	-40.1	20.5	0.00e+00	0	39	0	3011510272	48	4073
2026-01-13 03:05:28.05	133.85	27.92	-39.2	-40.1	20.4	0.00e+00	0	39	0	3019898880	48	4081
2026-01-13 03:05:28.90	134.07	27.83	-39.2	-40.1	20.4	0.00e+00	0	39	0	3026190336	48	4062
2026-01-13 03:05:30.08	134.37	27.70	-39.3	-40.2	20.4	0.00e+00	0	39	0	3034578944	48	4116
2026-01-13 03:05:30.93	134.58	27.61	-39.3	-40.2	20.4	0.00e+00	0	39	0	3040870400	48	4124
2026-01-13 03:05:32.13	134.88	27.48	-39.4	-40.4	20.2	0.00e+00	0	39	0	3049259008	48	4214
2026-01-13 03:05:32.99	135.10	27.39	-39.5	-40.4	20.2	0.00e+00	0	39	0	3055550464	48	4239
2026-01-13 03:05:34.12	135.38	27.26	-39.5	-40.4	20.2	0.00e+00	0	39	0	3063939072	48	4232
2026-01-13 03:05:34.98	135.59	27.17	-39.5	-40.4	20.2	0.00e+00	0	39	0	3070230528	48	4242
2026-01-13 03:05:36.11	135.87	27.05	-39.5	-40.4	20.1	0.00e+00	0	39	0	3077570560	48	4236
2026-01-13 03:05:36.97	136.08	26.95	-39.5	-40.4	20.1	0.00e+00	0	39	0	3084910592	48	4232
2026-01-13 03:05:38.10	136.35	26.83	-39.4	-40.3	20.2	0.00e+00	0	39	0	3092250624	48	4168
2026-01-13 03:05:39.05	136.58	26.72	-39.4	-40.3	20.3	0.00e+00	0	39	0	3099590656	48	4174
2026-01-13 03:05:40.05	136.82	26.61	-39.3	-40.3	20.3	0.00e+00	0	39	0	3106930688	48	4160
2026-01-13 03:05:41.04	137.05	26.51	-39.2	-40.1	20.4	0.00e+00	0	39	0	3114270720	48	4084
2026-01-13 03:05:42.04	137.29	26.40	-39.2	-40.1	20.5	0.00e+00	0	39	0	3120562176	48	4060
2026-01-13 03:05:43.03	137.52	26.29	-39.2	-40.2	20.4	0.00e+00	0	39	0	3127902208	48	4102
2026-01-13 03:05:44.03	137.75	26.18	-39.2	-40.1	20.4	0.00e+00	0	38	0	3135242240	48	4080
2026-01-13 03:05:45.02	137.98	26.07	-39.2	-40.2	20.4	0.00e+00	0	39	0	3142582272	48	4104
2026-01-13 03:05:46.02	138.21	25.96	-39.3	-40.2	20.3	0.00e+00	0	39	0	3149922304	48	4132
2026-01-13 03:05:47.01	138.43	25.85	-39.4	-40.4	20.2	0.00e+00	0	39	0	3156213760	48	4197
2026-01-13 03:05:48.00	138.66	25.74	-39.5	-40.4	20.1	0.00e+00	0	38	0	3163553792	48	4229
2026-01-13 03:05:49.00	138.88	25.63	-39.5	-40.5	20.1	0.00e+00	0	39	0	3170893824	48	4246
2026-01-13 03:05:50.00	139.10	25.52	-39.6	-40.6	20.0	0.00e+00	0	39	0	3178233856	48	4292
2026-01-13 03:05:50.99	139.32	25.41	-39.5	-40.5	20.1	0.00e+00	0	39	0	3185573888	48	4273
2026-01-13 03:05:51.99	139.54	25.30	-39.6	-40.5	20.1	0.00e+00	0	39	0	3192913920	48	4284
2026-01-13 03:05:52.98	139.76	25.19	-39.6	-40.6	19.9	0.00e+00	0	39	0	3200253952	48	4310
2026-01-13 03:05:53.98	139.98	25.08	-39.5	-40.5	20.1	0.00e+00	0	39	0	3207593984	48	4252
2026-01-13 03:05:54.97	140.19	24.97	-39.5	-40.4	20.1	0.00e+00	0	39	0	3214934016	48	4219
2026-01-13 03:05:55.96	140.40	24.87	-39.5	-40.4	20.2	0.00e+00	0	39	0	3221225472	48	4226
2026-01-13 03:05:56.96	140.61	24.76	-39.5	-40.4	20.1	0.00e+00	0	39	0	3228565504	48	4242
2026-01-13 03:05:57.95	140.82	24.65	-39.5	-40.5	20.1	0.00e+00	0	39	0	3235905536	48	4265
2026-01-13 03:05:58.95	141.03	24.54	-39.6	-40.5	20.1	0.00e+00	0	39	0	3243245568	48	4275
2026-01-13 03:05:59.94	141.24	24.43	-39.6	-40.6	20.0	0.00e+00	0	39	0	3250585600	48	4309
2026-01-13 03:06:00.94	141.45	24.32	-39.5	-40.5	20.0	0.00e+00	0	39	0	3257925632	48	4255
2026-01-13 03:06:01.97	141.66	24.21	-39.6	-40.6	20.0	0.00e+00	0	39	0	3265265664	48	4297
2026-01-13 03:06:02.96	141.86	24.10	-39.7	-40.6	19.9	0.00e+00	0	39	0	3271557120	48	4323
2026-01-13 03:06:03.96	142.06	23.99	-39.7	-40.6	19.9	0.00e+00	0	39	0	3278897152	48	4325
2026-01-13 03:06:04.95	142.26	23.88	-39.6	-40.6	20.0	0.00e+00	0	39	0	3286237184	48	4306
2026-01-13 03:06:05.94	142.46	23.77	-39.5	-40.5	20.1	0.00e+00	0	39	0	3293577216	48	4252
2026-01-13 03:06:06.94	142.66	23.66	-39.6	-40.6	20.0	0.00e+00	0	39	0	3300917248	48	4296
2026-01-13 03:06:07.94	142.86	23.56	-39.5	-40.4	20.1	0.00e+00	0	39	0	3308257280	48	4240
2026-01-13 03:06:08.93	143.05	23.45	-39.4	-40.4	20.2	0.00e+00	0	39	0	3315597312	48	4206
2026-01-13 03:06:09.93	143.24	23.34	-39.3	-40.3	20.3	0.00e+00	0	39	0	3321888768	48	4148
2026-01-13 03:06:10.92	143.44	23.23	-39.3	-40.3	20.3	0.00e+00	0	39	0	3329228800	48	4157
2026-01-13 03:06:11.92	143.63	23.12	-39.4	-40.3	20.2	0.00e+00	0	39	0	3336568832	48	4191
2026-01-13 03:06:12.91	143.82	23.02	-39.4	-40.3	20.2	0.00e+00	0	39	0	3343908864	48	4165
2026-01-13 03:06:13.91	144.01	22.91	-39.5	-40.4	20.1	0.00e+00	0	39	0	3351248896	48	4234
2026-01-13 03:06:14.90	144.19	22.80	-39.6	-40.5	20.0	0.00e+00	0	39	0	3358588928	48	4276
2026-01-13 03:06:15.90	144.38	22.69	-39.6	-40.6	19.9	0.00e+00	0	39	0	3364880384	48	4295
2026-01-13 03:06:16.89	144.56	22.59	-39.8	-40.7	19.9	0.00e+00	0	38	0	3372220416	48	4364
2026-01-13 03:06:17.89	144.75	22.48	-39.8	-40.7	19.8	0.00e+00	0	39	0	3379560448	49	4126
2026-01-13 03:06:18.96	144.94	22.36	-39.8	-40.8	19.8	0.00e+00	0	39	0	3386900480	49	4146
2026-01-13 03:06:19.89	145.11	22.26	-39.9	-40.8	19.8	0.00e+00	0	39	0	3394240512	49	4180
2026-01-13 03:06:20.88	145.29	22.16	-39.8	-40.8	19.8	0.00e+00	0	39	0	3401580544	49	4163
2026-01-13 03:06:21.88	145.47	22.05	-39.9	-40.9	19.7	0.00e+00	0	39	0	3408920576	49	4203
2026-01-13 03:06:22.87	145.65	21.95	-39.8	-40.8	19.8	0.00e+00	0	39	0	3416260608	49	4168
2026-01-13 03:06:23.87	145.82	21.84	-39.8	-40.7	19.8	0.00e+00	0	39	0	3423600640	49	4143
2026-01-13 03:06:24.86	146.00	21.73	-39.7	-40.7	19.9	0.00e+00	0	39	0	3429892096	49	4115
2026-01-13 03:06:25.86	146.17	21.63	-39.8	-40.7	19.8	0.00e+00	0	39	0	3437232128	49	4138
2026-01-13 03:06:26.85	146.35	21.52	-39.7	-40.7	19.9	0.00e+00	0	39	0	3444572160	49	4112
2026-01-13 03:06:27.85	146.52	21.42	-39.7	-40.6	19.9	0.00e+00	0	39	0	3451912192	49	4086
2026-01-13 03:06:28.84	146.69	21.31	-39.8	-40.8	19.8	0.00e+00	0	39	0	3459252224	49	4147
2026-01-13 03:06:29.88	146.87	21.20	-39.9	-40.9	19.7	0.00e+00	0	39	0	3466592256	49	4208
2026-01-13 03:06:30.84	147.03	21.10	-40.0	-41.0	19.6	0.00e+00	0	39	0	3472883712	49	4272
2026-01-13 03:06:31.92	147.21	20.99	-40.1	-41.1	19.5	0.00e+00	0	39	0	3481272320	49	4311
2026-01-13 03:06:32.80	147.36	20.90	-40.1	-41.1	19.5	0.00e+00	0	38	0	3487563776	49	4333
2026-01-13 03:06:34.11	147.57	20.76	-40.2	-41.2	19.4	0.00e+00	0	38	0	3497000960	49	4379
2026-01-13 03:06:34.82	147.69	20.68	-40.3	-41.3	19.3	0.00e+00	0	39	0	3502243840	50	4168
2026-01-13 03:06:36.10	147.90	20.55	-40.3	-41.3	19.3	0.00e+00	0	39	0	3511681024	50	4191
2026-01-13 03:06:36.81	148.01	20.48	-40.4	-41.4	19.3	0.00e+00	0	39	0	3515875328	50	4203
2026-01-13 03:06:38.09	148.22	20.34	-40.4	-41.4	19.2	0.00e+00	0	39	0	3525312512	50	4224
2026-01-13 03:06:38.82	148.34	20.27	-40.4	-41.4	19.2	0.00e+00	0	39	0	3530555392	50	4221
2026-01-13 03:06:40.10	148.54	20.14	-40.4	-41.4	19.2	0.00e+00	0	39	0	3539992576	50	4213
2026-01-13 03:06:40.90	148.67	20.05	-40.5	-41.5	19.2	0.00e+00	0	39	0	3546284032	50	4261
2026-01-13 03:06:42.04	148.85	19.94	-40.4	-41.4	19.2	0.00e+00	0	39	0	3553624064	50	4209
2026-01-13 03:06:42.89	148.98	19.85	-40.3	-41.3	19.2	0.00e+00	0	39	0	3559915520	50	4181
2026-01-13 03:06:44.03	149.16	19.73	-40.4	-41.4	19.3	0.00e+00	0	39	0	3568304128	50	4215
2026-01-13 03:06:44.88	149.29	19.64	-40.5	-41.5	19.2	0.00e+00	0	39	0	3574595584	50	4255
2026-01-13 03:06:46.02	149.46	19.53	-40.4	-41.4	19.3	0.00e+00	0	38	0	3582984192	50	4212
2026-01-13 03:06:46.87	149.59	19.44	-40.4	-41.5	19.2	0.00e+00	0	39	0	3589275648	50	4252
2026-01-13 03:06:48.02	149.77	19.32	-40.4	-41.4	19.2	0.00e+00	0	39	0	3597664256	50	4233
2026-01-13 03:06:48.88	149.90	19.24	-40.6	-41.6	19.1	0.00e+00	0	39	0	3603955712	50	4316
2026-01-13 03:06:50.01	150.06	19.12	-40.6	-41.6	19.0	0.00e+00	0	39	0	3611295744	50	4333
2026-01-13 03:06:50.87	150.19	19.04	-40.6	-41.6	19.0	0.00e+00	0	39	0	3617587200	50	4333
2026-01-13 03:06:52.00	150.36	18.92	-40.6	-41.7	18.9	0.00e+00	0	39	0	3625975808	50	4358
2026-01-13 03:06:52.86	150.48	18.84	-40.7	-41.7	18.9	0.00e+00	0	39	0	3632267264	50	4391
2026-01-13 03:06:53.99	150.65	18.72	-40.7	-41.7	18.9	0.00e+00	0	39	0	3640655872	50	4365
2026-01-13 03:06:54.85	150.77	18.64	-40.8	-41.8	18.8	0.00e+00	0	39	0	3646947328	51	4174
2026-01-13 03:06:55.99	150.94	18.52	-40.7	-41.7	18.9	0.00e+00	0	38	0	3654287360	51	4142
2026-01-13 03:06:56.84	151.06	18.44	-40.7	-41.7	18.9	0.00e+00	0	39	0	3660578816	51	4129
2026-01-13 03:06:57.98	151.22	18.32	-40.6	-41.7	19.0	0.00e+00	0	39	0	3668967424	51	4099
2026-01-13 03:06:58.83	151.34	18.24	-40.6	-41.7	18.9	0.00e+00	0	39	0	3675258880	51	4122
2026-01-13 03:06:59.97	151.50	18.13	-40.8	-41.8	18.8	0.00e+00	0	39	0	3683647488	51	4192
2026-01-13 03:07:00.82	151.62	18.04	-40.6	-41.7	18.9	0.00e+00	0	38	0	3689938944	51	4126
2026-01-13 03:07:01.96	151.77	17.93	-40.7	-41.7	18.9	0.00e+00	0	39	0	3697278976	51	4138
2026-01-13 03:07:02.81	151.89	17.85	-40.6	-41.6	19.0	0.00e+00	0	39	0	3703570432	51	4089
2026-01-13 03:07:04.03	152.06	17.73	-40.5	-41.6	19.0	0.00e+00	0	39	0	3713007616	51	4067
2026-01-13 03:07:04.88	152.17	17.65	-40.5	-41.6	19.0	0.00e+00	0	39	0	3719299072	51	4068
2026-01-13 03:07:06.08	152.33	17.53	-40.5	-41.5	19.1	0.00e+00	0	39	0	3727687680	51	4048
2026-01-13 03:07:06.93	152.45	17.45	-40.6	-41.6	19.0	0.00e+00	0	39	0	3733979136	51	4090
2026-01-13 03:07:08.07	152.60	17.33	-40.6	-41.6	19.0	0.00e+00	0	39	0	3742367744	51	4074
2026-01-13 03:07:08.92	152.71	17.25	-40.6	-41.6	19.0	0.00e+00	0	39	0	3748659200	51	4097
2026-01-13 03:07:10.06	152.86	17.14	-40.7	-41.8	18.9	0.00e+00	0	39	0	3755999232	51	4162
2026-01-13 03:07:10.91	152.97	17.06	-40.8	-41.9	18.8	0.00e+00	0	39	0	3762290688	51	4195
2026-01-13 03:07:12.05	153.12	16.95	-40.9	-42.0	18.6	0.00e+00	0	39	0	3770679296	51	4281
2026-01-13 03:07:12.90	153.23	16.87	-41.0	-42.1	18.6	0.00e+00	0	39	0	3776970752	51	4313
2026-01-13 03:07:14.04	153.38	16.76	-40.9	-42.1	18.5	0.00e+00	0	39	0	3785359360	52	4057
2026-01-13 03:07:14.89	153.49	16.68	-41.0	-42.1	18.4	0.00e+00	0	39	0	3791650816	52	4097
2026-01-13 03:07:16.03	153.63	16.57	-41.0	-42.1	18.5	0.00e+00	0	39	0	3800039424	52	4079
2026-01-13 03:07:16.88	153.74	16.49	-41.1	-42.2	18.4	0.00e+00	0	39	0	3805282304	52	4129
2026-01-13 03:07:18.02	153.88	16.38	-41.2	-42.3	18.4	0.00e+00	0	39	0	3813670912	52	4148
2026-01-13 03:07:18.87	153.99	16.30	-41.2	-42.3	18.2	4.81e-04	0	39	0	3819962368	52	4160
2026-01-13 03:07:20.01	154.13	16.20	-41.3	-42.4	18.2	0.00e+00	0	39	0	3828350976	52	4203
2026-01-13 03:07:20.86	154.23	16.12	-41.1	-42.2	18.4	0.00e+00	0	39	0	3834642432	52	4113
2026-01-13 03:07:22.00	154.37	16.01	-41.2	-42.3	18.3	0.00e+00	0	39	0	3841982464	52	4157
2026-01-13 03:07:22.85	154.47	15.93	-41.2	-42.3	18.3	0.00e+00	0	39	0	3848273920	52	4155
2026-01-13 03:07:23.99	154.61	15.82	-41.2	-42.3	18.3	0.00e+00	0	39	0	3856662528	52	4155
2026-01-13 03:07:24.84	154.71	15.74	-41.2	-42.3	18.3	0.00e+00	0	39	0	3862953984	52	4160
2026-01-13 03:07:26.15	154.87	15.62	-41.1	-42.2	18.3	0.00e+00	0	39	0	3872391168	52	4145
2026-01-13 03:07:26.86	154.95	15.56	-41.2	-42.3	18.3	0.00e+00	0	39	0	3877634048	52	4154
2026-01-13 03:07:28.14	155.10	15.44	-41.1	-42.3	18.3	0.00e+00	0	39	0	3887071232	52	4147
2026-01-13 03:07:28.86	155.19	15.37	-41.2	-42.4	18.2	0.00e+00	0	39	0	3892314112	52	4203
2026-01-13 03:07:30.14	155.34	15.25	-41.2	-42.3	18.3	0.00e+00	0	39	0	3901751296	52	4159
2026-01-13 03:07:30.86	155.42	15.19	-41.2	-42.3	18.2	0.00e+00	0	39	0	3905945600	52	4174
2026-01-13 03:07:32.13	155.57	15.07	-41.3	-42.5	18.2	0.00e+00	0	39	0	3915382784	52	4245
2026-01-13 03:07:32.85	155.65	15.01	-41.3	-42.5	18.1	0.00e+00	0	39	0	3920625664	52	4248
2026-01-13 03:07:34.12	155.79	14.89	-41.2	-42.3	18.2	0.00e+00	0	39	0	3930062848	52	4180
2026-01-13 03:07:35.04	155.90	14.81	-41.2	-42.3	18.2	0.00e+00	0	39	0	3936354304	52	4171
2026-01-13 03:07:36.03	156.01	14.72	-41.2	-42.3	18.2	0.00e+00	0	39	0	3943694336	52	4173
2026-01-13 03:07:37.03	156.12	14.63	-41.2	-42.4	18.2	0.00e+00	0	39	0	3951034368	52	4200
2026-01-13 03:07:38.02	156.23	14.54	-41.2	-42.3	18.3	0.00e+00	0	39	0	3958374400	52	4178
2026-01-13 03:07:39.01	156.34	14.45	-41.2	-42.4	18.2	1.20e-02	0	39	0	3965714432	52	4195
2026-01-13 03:07:40.01	156.45	14.36	-41.3	-42.4	18.1	0.00e+00	0	38	0	3972005888	52	4241
2026-01-13 03:07:41.00	156.56	14.27	-41.3	-42.5	18.1	0.00e+00	0	39	0	3979345920	52	4255
2026-01-13 03:07:42.00	156.67	14.19	-41.5	-42.6	18.0	1.18e-02	0	39	0	3986685952	52	4326
2026-01-13 03:07:42.99	156.77	14.10	-41.5	-42.7	17.9	0.00e+00	0	39	0	3994025984	52	4344
2026-01-13 03:07:43.99	156.88	14.01	-41.6	-42.7	17.9	0.00e+00	0	39	0	4001366016	52	4384
2026-01-13 03:07:44.98	156.99	13.92	-41.6	-42.7	17.9	1.08e-02	0	39	0	4008706048	53	4130
2026-01-13 03:07:45.98	157.09	13.83	-41.7	-42.8	17.7	0.00e+00	0	39	0	4016046080	53	4193
2026-01-13 03:07:46.98	157.20	13.75	-41.7	-42.8	17.8	0.00e+00	0	39	0	4023386112	53	4176
2026-01-13 03:07:47.97	157.30	13.66	-41.8	-43.0	17.6	0.00e+00	0	39	0	4029677568	53	4260
2026-01-13 03:07:48.97	157.41	13.57	-41.7	-42.9	17.7	0.00e+00	0	39	0	4037017600	53	4212
2026-01-13 03:07:49.96	157.51	13.49	-41.8	-43.0	17.6	0.00e+00	0	39	0	4044357632	53	4260
2026-01-13 03:07:50.96	157.61	13.40	-41.8	-43.0	17.6	0.00e+00	0	39	0	4051697664	54	4037
2026-01-13 03:07:51.95	157.71	13.31	-41.9	-43.0	17.6	0.00e+00	0	39	0	4059037696	54	4040
2026-01-13 03:07:52.94	157.81	13.23	-41.9	-43.0	17.5	0.00e+00	0	39	0	4066377728	54	4045
2026-01-13 03:07:53.94	157.92	13.14	-42.0	-43.2	17.4	0.00e+00	0	39	0	4072669184	54	4102
2026-01-13 03:07:54.93	158.02	13.06	-41.9	-43.1	17.5	0.00e+00	0	39	0	4080009216	54	4061
2026-01-13 03:07:55.92	158.11	12.97	-41.9	-43.0	17.5	0.00e+00	0	39	0	4087349248	54	4050
2026-01-13 03:07:56.92	158.21	12.89	-42.0	-43.1	17.5	0.00e+00	0	39	0	4094689280	54	4087
2026-01-13 03:07:57.91	158.31	12.80	-42.0	-43.1	17.5	0.00e+00	0	39	0	4102029312	54	4094
2026-01-13 03:07:58.94	158.41	12.71	-42.0	-43.1	17.5	0.00e+00	0	39	0	4109369344	54	4090
2026-01-13 03:07:59.97	158.51	12.63	-41.9	-43.0	17.5	0.00e+00	0	39	0	4116709376	54	4048
2026-01-13 03:08:01.00	158.61	12.54	-42.0	-43.2	17.4	0.00e+00	0	39	0	4124049408	54	4100
2026-01-13 03:08:01.99	158.71	12.46	-42.1	-43.3	10.1	5.70e-06	0	39	0	4131389440	54	4161
2026-01-13 03:08:02.99	158.81	12.37	-42.1	-43.3	17.3	0.00e+00	0	38	0	4138729472	54	4147
2026-01-13 03:08:03.98	158.90	12.29	-42.1	-43.3	17.2	0.00e+00	0	39	0	4146069504	54	4181
2026-01-13 03:08:04.98	159.00	12.20	-42.2	-43.4	17.2	1.45e-02	0	39	0	4152360960	54	4227
2026-01-13 03:08:05.97	159.09	12.12	-42.2	-43.4	17.2	0.00e+00	0	39	0	4159700992	54	4204
2026-01-13 03:08:06.97	159.19	12.04	-42.3	-43.5	17.1	0.00e+00	0	39	0	4167041024	54	4274
2026-01-13 03:08:07.96	159.28	11.96	-42.4	-43.6	17.0	1.50e-02	0	39	0	4174381056	55	4086
2026-01-13 03:08:08.96	159.37	11.87	-42.4	-43.6	16.9	0.00e+00	0	39	0	4181721088	55	4086
2026-01-13 03:08:09.95	159.46	11.79	-42.3	-43.5	17.0	0.00e+00	0	39	0	4189061120	55	4037
2026-01-13 03:08:10.95	159.56	11.71	-42.4	-43.7	16.9	1.55e-02	0	39	0	4195352576	55	4108
2026-01-13 03:08:11.94	159.65	11.63	-42.3	-43.6	17.0	0.00e+00	0	39	0	4202692608	55	4057
2026-01-13 03:08:12.94	159.74	11.55	-42.3	-43.6	16.9	0.00e+00	0	39	0	4210032640	55	4070
2026-01-13 03:08:13.93	159.83	11.46	-42.3	-43.6	16.9	0.00e+00	0	39	0	4217372672	55	4074
2026-01-13 03:08:14.94	159.92	11.38	-42.3	-43.6	16.9	0.00e+00	0	39	0	4224712704	55	4074
2026-01-13 03:08:15.97	160.01	11.30	-42.4	-43.6	16.9	0.00e+00	0	39	0	4232052736	55	4094
2026-01-13 03:08:16.97	160.10	11.22	-42.4	-43.7	16.8	0.00e+00	0	39	0	4239392768	55	4099
2026-01-13 03:08:17.96	160.19	11.14	-42.4	-43.6	16.8	0.00e+00	0	39	0	4246732800	55	4090
2026-01-13 03:08:18.95	160.28	11.06	-42.4	-43.7	16.8	0.00e+00	0	39	0	4254072832	55	4101
2026-01-13 03:08:19.95	160.36	10.98	-42.3	-43.6	16.9	0.00e+00	0	39	0	4260364288	55	4055
2026-01-13 03:08:20.94	160.45	10.90	-42.5	-43.7	16.8	0.00e+00	0	39	0	4267704320	55	4143
2026-01-13 03:08:21.94	160.54	10.82	-42.5	-43.7	16.8	0.00e+00	0	39	0	4275044352	55	4133
2026-01-13 03:08:22.93	160.62	10.74	-42.5	-43.7	16.8	0.00e+00	0	39	0	4282384384	55	4127
2026-01-13 03:08:23.92	160.71	10.66	-42.4	-43.7	16.8	0.00e+00	0	39	0	4289724416	55	4131
2026-01-13 03:08:24.92	160.79	10.58	-42.4	-43.7	16.8	0.00e+00	0	39	0	4297064448	55	4120
2026-01-13 03:08:25.92	160.88	10.50	-42.4	-43.7	16.8	0.00e+00	0	39	0	4304404480	55	4132
2026-01-13 03:08:26.91	160.96	10.42	-42.4	-43.7	16.7	0.00e+00	0	39	0	4310695936	55	4142
2026-01-13 03:08:27.91	161.05	10.34	-42.8	-44.1	9.6	0.00e+00	0	39	0	4318035968	55	4320
2026-01-13 03:08:28.90	161.13	10.27	-42.5	-43.8	16.6	0.00e+00	0	39	0	4325376000	55	4187
2026-01-13 03:08:29.96	161.22	10.18	-42.6	-43.9	16.6	0.00e+00	0	39	0	4332716032	55	4227
2026-01-13 03:08:30.86	161.29	10.11	-42.5	-43.8	16.6	1.16e-02	0	39	0	4339007488	55	4181
2026-01-13 03:08:31.89	161.38	10.03	-42.5	-43.8	16.6	0.00e+00	0	39	0	4347396096	55	4184
2026-01-13 03:08:32.88	161.46	9.95	-42.5	-43.8	16.6	0.00e+00	0	39	0	4354736128	55	4186
2026-01-13 03:08:33.88	161.54	9.88	-42.6	-43.9	16.6	5.54e-03	0	39	0	4361027584	55	4199
2026-01-13 03:08:34.87	161.62	9.80	-42.6	-43.9	16.6	0.00e+00	0	39	0	4368367616	55	4208
2026-01-13 03:08:35.87	161.70	9.72	-42.5	-43.8	16.6	0.00e+00	0	39	0	4375707648	55	4171
2026-01-13 03:08:36.86	161.78	9.65	-42.6	-43.9	16.6	0.00e+00	0	39	0	4383047680	55	4196
2026-01-13 03:08:37.86	161.86	9.57	-42.5	-43.8	16.6	0.00e+00	0	39	0	4390387712	55	4184
2026-01-13 03:08:38.85	161.94	9.49	-42.7	-44.0	16.4	0.00e+00	0	39	0	4397727744	55	4287
2026-01-13 03:08:39.84	162.02	9.42	-42.9	-44.3	16.1	0.00e+00	0	39	0	4404019200	55	4402
2026-01-13 03:08:40.84	162.10	9.34	-42.8	-44.1	16.3	0.00e+00	0	39	0	4411359232	55	4323
2026-01-13 03:08:41.84	162.18	9.26	-42.7	-44.0	16.3	0.00e+00	0	39	0	4418699264	55	4284
2026-01-13 03:08:42.83	162.26	9.19	-42.8	-44.1	16.2	0.00e+00	0	39	0	4426039296	55	4312
2026-01-13 03:08:43.83	162.33	9.11	-42.8	-44.2	16.2	0.00e+00	0	39	0	4433379328	55	4341
2026-01-13 03:08:44.82	162.41	9.04	-42.8	-44.2	16.2	0.00e+00	0	39	0	4440719360	55	4352
2026-01-13 03:08:45.81	162.49	8.96	-48.7	-53.0	7.9	1.56e-04	0	39	0	4448059392	66	6373
2026-01-13 03:08:46.81	162.56	8.89	-50.9	-60.5	3.8	8.47e-01	0	39	104	4448059392	71	11363
2026-01-13 03:08:47.80	162.64	8.81	-51.3	-62.0	3.8	8.47e-01	0	39	104	4448059392	72	12719
2026-01-13 03:08:48.79	162.72	8.74	-51.4	-62.3	3.8	8.47e-01	0	39	104	4448059392	72	13121
2026-01-13 03:08:49.79	162.79	8.66	-51.4	-62.3	3.8	8.45e-01	0	39	104	4448059392	72	13143
2026-01-13 03:08:50.78	162.87	8.59	-51.7	-62.4	3.8	8.47e-01	0	39	104	4448059392	72	13358
2026-01-13 03:08:51.77	162.94	8.52	-51.7	-62.5	3.8	8.48e-01	0	39	104	4448059392	72	13506
2026-01-13 03:08:52.77	163.01	8.44	-51.5	-62.5	3.8	8.47e-01	0	39	104	4448059392	72	13552
2026-01-13 03:08:53.76	163.09	8.37	-51.8	-62.6	3.8	8.47e-01	0	39	104	4448059392	73	12856
2026-01-13 03:08:54.75	163.16	8.30	-51.9	-62.6	3.8	8.47e-01	0	39	104	4448059392	73	12875
2026-01-13 03:08:55.75	163.23	8.22	-51.9	-62.6	3.8	8.47e-01	0	39	104	4448059392	73	12878
2026-01-13 03:08:56.74	163.31	8.15	-51.9	-62.7	3.8	8.47e-01	0	39	104	4448059392	73	12967
2026-01-13 03:08:57.73	163.38	8.08	-51.9	-62.7	3.8	8.47e-01	0	39	104	4448059392	73	13040
2026-01-13 03:08:58.73	163.45	8.00	-52.0	-62.7	3.8	8.46e-01	0	39	104	4448059392	73	12969
2026-01-13 03:08:59.72	163.52	7.93	-51.8	-62.7	3.8	8.47e-01	0	39	104	4448059392	73	13012
2026-01-13 03:09:00.71	163.59	7.86	-52.0	-62.7	3.8	8.47e-01	0	39	104	4448059392	73	12979
2026-01-13 03:09:01.71	163.66	7.79	-51.9	-62.8	3.8	8.47e-01	0	39	104	4448059392	73	13133
2026-01-13 03:09:02.70	163.73	7.72	-51.9	-62.7	3.8	8.45e-01	0	39	104	4448059392	73	13050
2026-01-13 03:09:03.70	163.80	7.64	-52.1	-62.7	3.8	8.48e-01	0	39	104	4448059392	73	13050
2026-01-13 03:09:04.69	163.87	7.57	-52.0	-62.7	3.8	8.47e-01	0	39	104	4448059392	73	13009
2026-01-13 03:09:05.68	163.94	7.50	-52.1	-62.7	3.8	8.47e-01	0	39	104	4448059392	73	13001
