passes_logs/2026/01/13/T1/T1__20260113_124310_FENGYUN_3D_rec.log

#Pass ID: 20260113_124310_FENGYUN 3D
#Satellite: FENGYUN 3D
#Configuration: FENGYUN 3D
#almurnet v.1.7.20251203
#Start time: 2026-01-13 12:43:11

#Version: 2.0.20230620
#Station: T1
#Location: 37.570604 lon 55.790049 lat
#TLE: 1 43010U 17072A   26012.32543542  .00000598  00000+0  30457-3 0  9997
#TLE: 2 43010  98.9935 344.1005 0002233 112.6136 247.5276 14.19696644422876

#Time	Az	El	Level	Level2	SNR	BER	BlckErr	Temp	State	Recorded	gain1	gain2
2026-01-13 12:43:11.38	183.97	5.06	-49.2	-61.8	3.8	8.46e-01	0	40	0	0	69	15824
2026-01-13 12:43:12.37	184.01	5.13	-49.2	-61.6	3.8	8.46e-01	0	40	104	0	69	15558
2026-01-13 12:43:13.36	184.06	5.20	-49.2	-61.5	3.8	8.46e-01	0	40	104	0	69	15297
2026-01-13 12:43:14.35	184.10	5.27	-49.1	-61.4	3.8	8.46e-01	0	40	104	0	69	15082
2026-01-13 12:43:15.34	184.14	5.34	-49.0	-61.3	3.8	8.47e-01	0	40	104	0	69	14952
2026-01-13 12:43:16.34	184.19	5.41	-49.2	-61.4	3.8	8.48e-01	0	40	104	0	69	15177
2026-01-13 12:43:17.33	184.23	5.47	-49.2	-61.3	3.8	8.47e-01	0	40	104	0	69	15035
2026-01-13 12:43:18.32	184.28	5.54	-49.3	-61.6	3.8	8.47e-01	0	40	104	0	69	15470
2026-01-13 12:43:19.32	184.32	5.61	-49.2	-61.8	3.8	8.47e-01	0	40	104	0	69	15784
2026-01-13 12:43:20.31	184.37	5.68	-49.2	-61.9	3.8	8.47e-01	0	40	104	0	69	16029
2026-01-13 12:43:21.30	184.41	5.75	-49.3	-61.9	3.8	8.48e-01	0	40	104	0	69	16118
2026-01-13 12:43:22.30	184.46	5.82	-49.3	-61.8	3.8	8.47e-01	0	40	104	0	69	15885
2026-01-13 12:43:23.29	184.50	5.89	-49.2	-61.8	3.8	8.47e-01	0	41	104	0	69	15795
2026-01-13 12:43:24.28	184.55	5.97	-49.2	-61.4	3.8	8.46e-01	0	40	104	0	69	15223
2026-01-13 12:43:25.28	184.60	6.04	-49.1	-61.2	3.8	8.46e-01	0	40	104	0	69	14727
2026-01-13 12:43:26.27	184.64	6.11	-49.1	-60.8	3.8	8.47e-01	0	40	104	0	69	14106
2026-01-13 12:43:27.26	184.69	6.18	-49.1	-60.2	3.9	8.46e-01	0	40	104	0	69	13236
2026-01-13 12:43:28.26	184.74	6.25	-49.1	-60.2	3.9	8.46e-01	0	40	104	0	69	13110
2026-01-13 12:43:29.25	184.78	6.32	-49.0	-59.8	4.0	8.45e-01	0	41	104	0	69	12555
2026-01-13 12:43:30.24	184.83	6.39	-49.0	-59.7	4.0	8.44e-01	0	41	104	0	69	12419
2026-01-13 12:43:31.24	184.88	6.47	-49.0	-59.3	4.1	8.45e-01	0	41	104	0	69	11853
2026-01-13 12:43:32.23	184.93	6.54	-48.9	-59.3	4.1	8.44e-01	0	41	104	0	69	11872
2026-01-13 12:43:33.22	184.97	6.61	-48.9	-58.8	4.2	8.40e-01	0	41	0	0	69	11224
2026-01-13 12:43:34.21	185.02	6.68	-49.0	-59.0	4.1	8.42e-01	0	41	0	0	69	11435
2026-01-13 12:43:35.21	185.07	6.75	-48.8	-58.4	4.3	8.37e-01	0	41	0	0	69	10738
2026-01-13 12:43:36.20	185.12	6.83	-48.9	-58.4	4.3	8.36e-01	0	41	0	0	69	10715
2026-01-13 12:43:37.20	185.17	6.90	-48.8	-58.6	4.2	8.37e-01	0	41	0	0	69	10931
2026-01-13 12:43:38.19	185.22	6.97	-49.0	-59.3	4.0	8.42e-01	0	41	0	0	69	11924
2026-01-13 12:43:39.18	185.27	7.05	-49.0	-59.7	4.0	8.45e-01	0	41	104	0	69	12500
2026-01-13 12:43:40.18	185.31	7.12	-49.2	-61.0	3.8	8.45e-01	0	41	104	0	69	14533
2026-01-13 12:43:41.17	185.36	7.20	-49.3	-62.1	3.8	8.47e-01	0	41	104	0	69	16423
2026-01-13 12:43:42.16	185.41	7.27	-49.2	-61.7	3.8	8.47e-01	0	41	104	0	69	15751
2026-01-13 12:43:43.16	185.46	7.34	-49.0	-59.4	4.0	8.45e-01	0	41	104	0	69	12078
2026-01-13 12:43:44.15	185.51	7.42	-48.4	-56.4	5.2	7.84e-01	0	41	0	0	68	8984
2026-01-13 12:43:45.14	185.57	7.49	-47.5	-53.2	7.5	2.17e-01	0	41	0	4194304	66	7025
2026-01-13 12:43:46.13	185.62	7.57	-46.5	-51.1	9.6	2.15e-02	0	41	0	9437184	65	5850
2026-01-13 12:43:47.13	185.67	7.64	-45.8	-49.6	11.2	3.17e-03	0	41	0	14680064	63	5518
2026-01-13 12:43:48.12	185.72	7.72	-44.8	-48.2	12.8	2.07e-04	0	41	0	20971520	61	5232
2026-01-13 12:43:49.11	185.77	7.79	-43.9	-46.8	14.1	9.10e-06	0	41	0	26214400	59	5033
2026-01-13 12:43:50.11	185.82	7.87	-43.3	-46.0	14.8	2.20e-06	0	41	0	31457280	58	4866
2026-01-13 12:43:51.10	185.87	7.94	-42.7	-45.2	15.6	0.00e+00	0	41	0	37748736	57	4700
2026-01-13 12:43:52.09	185.93	8.02	-42.4	-44.9	15.9	0.00e+00	0	41	0	42991616	56	4786
2026-01-13 12:43:53.09	185.98	8.10	-42.4	-44.9	16.0	0.00e+00	0	41	0	48234496	56	4769
2026-01-13 12:43:54.08	186.03	8.17	-42.3	-44.7	16.1	0.00e+00	0	41	0	53477376	56	4695
2026-01-13 12:43:55.07	186.09	8.25	-42.3	-44.8	16.0	0.00e+00	0	41	0	59768832	56	4723
2026-01-13 12:43:56.07	186.14	8.33	-42.3	-44.8	16.0	0.00e+00	0	41	0	65011712	56	4726
2026-01-13 12:43:57.06	186.19	8.40	-42.7	-45.3	15.5	0.00e+00	0	41	0	71303168	56	5009
2026-01-13 12:43:58.05	186.25	8.48	-43.3	-46.0	14.9	0.00e+00	0	41	0	76546048	57	5113
2026-01-13 12:43:59.05	186.30	8.56	-43.8	-46.6	14.3	0.00e+00	0	41	0	81788928	58	5195
2026-01-13 12:44:00.04	186.36	8.64	-44.7	-48.0	12.9	2.17e-05	0	41	0	88080384	60	5455
2026-01-13 12:44:01.03	186.41	8.72	-45.3	-49.0	12.0	2.44e-04	0	41	0	93323264	61	5729
2026-01-13 12:44:02.02	186.47	8.79	-45.4	-49.1	11.8	7.71e-04	0	41	0	98566144	61	5815
2026-01-13 12:44:03.02	186.52	8.87	-46.0	-50.0	10.0	1.90e-03	0	42	0	103809024	62	6124
2026-01-13 12:44:04.01	186.58	8.95	-46.7	-51.3	9.5	1.43e-02	0	41	0	110100480	63	6713
2026-01-13 12:44:05.00	186.63	9.03	-47.0	-52.1	8.7	3.57e-02	0	41	0	115343360	64	6906
2026-01-13 12:44:06.00	186.69	9.11	-49.1	-59.9	3.8	8.38e-01	0	41	104	118489088	68	13422
2026-01-13 12:44:06.99	186.75	9.19	-46.5	-51.0	9.8	1.72e-02	0	41	0	120586240	64	6098
2026-01-13 12:44:07.99	186.80	9.27	-48.7	-56.9	4.9	5.41e-01	0	41	0	125829120	67	10139
2026-01-13 12:44:08.98	186.86	9.35	-44.6	-47.7	13.3	1.75e-04	0	41	0	130023424	61	4955
2026-01-13 12:44:09.97	186.92	9.43	-48.0	-55.0	6.0	4.03e-02	0	41	0	136314880	66	8637
2026-01-13 12:44:10.97	186.97	9.51	-45.0	-48.2	12.7	9.25e-04	0	41	0	141557760	62	4936
2026-01-13 12:44:11.96	187.03	9.59	-44.2	-47.1	13.8	1.25e-05	0	41	0	146800640	60	4896
2026-01-13 12:44:12.96	187.09	9.67	-42.9	-45.4	15.5	0.00e+00	0	42	0	153092096	57	4800
2026-01-13 12:44:13.96	187.15	9.75	-42.5	-44.8	16.0	0.00e+00	0	41	0	158334976	56	4756
2026-01-13 12:44:14.95	187.21	9.83	-42.5	-44.9	16.0	0.00e+00	0	41	0	163577856	56	4787
2026-01-13 12:44:15.94	187.27	9.91	-42.4	-44.8	16.1	0.00e+00	0	42	0	169869312	56	4725
2026-01-13 12:44:16.94	187.33	10.00	-42.5	-44.9	16.0	0.00e+00	0	42	0	175112192	56	4778
2026-01-13 12:44:17.93	187.39	10.08	-42.4	-44.8	16.1	0.00e+00	0	42	0	181403648	56	4743
2026-01-13 12:44:18.93	187.45	10.16	-42.3	-44.6	16.3	0.00e+00	0	41	0	186646528	56	4630
2026-01-13 12:44:19.92	187.51	10.24	-41.8	-44.0	16.7	0.00e+00	0	42	0	191889408	55	4585
2026-01-13 12:44:20.92	187.57	10.33	-42.1	-44.4	16.3	0.00e+00	0	42	0	197132288	55	4793
2026-01-13 12:44:21.91	187.63	10.41	-41.9	-44.2	16.5	0.00e+00	0	41	0	203423744	55	4696
2026-01-13 12:44:22.97	187.70	10.50	-41.6	-43.8	16.9	0.00e+00	0	41	0	208666624	55	4481
2026-01-13 12:44:23.84	187.75	10.57	-41.6	-43.8	16.9	0.00e+00	0	41	0	213909504	55	4491
2026-01-13 12:44:24.97	187.82	10.67	-41.6	-43.8	16.9	0.00e+00	0	42	0	220200960	55	4461
2026-01-13 12:44:25.83	187.88	10.74	-41.8	-44.0	16.7	0.00e+00	0	42	0	225443840	55	4577
2026-01-13 12:44:26.96	187.95	10.84	-41.6	-43.8	16.9	0.00e+00	0	41	0	231735296	55	4462
2026-01-13 12:44:27.81	188.00	10.91	-41.6	-43.8	16.9	0.00e+00	0	41	0	235929600	55	4475
2026-01-13 12:44:28.95	188.07	11.01	-41.5	-43.7	17.0	0.00e+00	0	42	0	243269632	55	4440
2026-01-13 12:44:29.80	188.13	11.08	-41.7	-44.0	16.8	0.00e+00	0	42	0	247463936	55	4559
2026-01-13 12:44:30.94	188.20	11.18	-41.5	-43.8	17.0	0.00e+00	0	42	0	253755392	54	4712
2026-01-13 12:44:31.80	188.26	11.25	-41.5	-43.7	17.0	0.00e+00	0	41	0	258998272	54	4683
2026-01-13 12:44:32.93	188.33	11.35	-41.4	-43.6	17.2	0.00e+00	0	42	0	265289728	54	4634
2026-01-13 12:44:33.78	188.39	11.42	-41.5	-43.7	17.0	0.00e+00	0	41	0	269484032	54	4702
2026-01-13 12:44:34.92	188.46	11.52	-41.5	-43.7	17.0	0.00e+00	0	42	0	276824064	54	4697
2026-01-13 12:44:35.77	188.52	11.60	-41.4	-43.7	17.1	0.00e+00	0	42	0	281018368	54	4679
2026-01-13 12:44:36.91	188.60	11.70	-41.2	-43.4	17.3	0.00e+00	0	42	0	287309824	54	4541
2026-01-13 12:44:37.76	188.65	11.77	-41.2	-43.5	17.3	0.00e+00	0	42	0	292552704	54	4564
2026-01-13 12:44:39.10	188.74	11.89	-41.3	-43.5	17.2	0.00e+00	0	42	0	299892736	54	4587
2026-01-13 12:44:39.81	188.79	11.95	-41.3	-43.5	17.3	0.00e+00	0	42	0	304087040	54	4575
2026-01-13 12:44:41.09	188.88	12.06	-41.1	-43.4	17.4	0.00e+00	0	42	0	311427072	54	4501
2026-01-13 12:44:41.80	188.93	12.13	-41.1	-43.3	17.4	0.00e+00	0	42	0	315621376	54	4468
2026-01-13 12:44:43.09	189.02	12.24	-41.1	-43.3	17.5	0.00e+00	0	42	0	322961408	54	4475
2026-01-13 12:44:43.81	189.07	12.31	-41.2	-43.4	17.4	0.00e+00	0	42	0	326107136	54	4520
2026-01-13 12:44:45.09	189.16	12.42	-41.2	-43.4	17.4	0.00e+00	0	42	0	333447168	54	4515
2026-01-13 12:44:45.88	189.21	12.49	-41.1	-43.3	17.4	0.00e+00	0	42	0	337641472	54	4470
2026-01-13 12:44:47.07	189.30	12.60	-41.2	-43.4	17.3	0.00e+00	0	42	0	344981504	54	4536
2026-01-13 12:44:48.06	189.37	12.69	-41.1	-43.3	17.5	0.00e+00	0	42	0	350224384	54	4449
2026-01-13 12:44:49.05	189.44	12.78	-41.1	-43.3	17.5	0.00e+00	0	42	0	355467264	54	4464
2026-01-13 12:44:50.05	189.51	12.87	-41.0	-43.2	17.5	0.00e+00	0	42	0	361758720	54	4416
2026-01-13 12:44:51.05	189.59	12.97	-41.2	-43.4	17.4	0.00e+00	0	42	0	367001600	54	4515
2026-01-13 12:44:52.04	189.66	13.06	-41.2	-43.4	17.4	0.00e+00	0	42	0	373293056	54	4519
2026-01-13 12:44:53.04	189.73	13.15	-41.0	-43.2	17.5	0.00e+00	0	42	0	378535936	54	4434
2026-01-13 12:44:54.03	189.80	13.24	-41.1	-43.3	17.5	0.00e+00	0	42	0	383778816	54	4449
2026-01-13 12:44:55.03	189.88	13.33	-41.1	-43.3	17.5	0.00e+00	0	42	0	389021696	54	4447
2026-01-13 12:44:56.02	189.95	13.43	-41.0	-43.1	17.7	0.00e+00	0	41	0	395313152	54	4375
2026-01-13 12:44:57.02	190.03	13.52	-41.0	-43.1	17.7	0.00e+00	0	42	0	400556032	54	4379
2026-01-13 12:44:58.01	190.10	13.61	-41.0	-43.2	17.6	0.00e+00	0	42	0	405798912	54	4399
2026-01-13 12:44:59.01	190.18	13.71	-40.9	-43.0	17.8	0.00e+00	0	42	0	412090368	53	4551
2026-01-13 12:45:00.00	190.26	13.80	-40.9	-43.0	17.8	0.00e+00	0	42	0	417333248	53	4571
2026-01-13 12:45:01.00	190.33	13.90	-40.9	-43.0	17.8	0.00e+00	0	42	0	423624704	53	4551
2026-01-13 12:45:01.99	190.41	13.99	-40.9	-43.0	17.8	0.00e+00	0	42	0	428867584	53	4546
2026-01-13 12:45:02.99	190.49	14.09	-40.8	-42.9	17.9	0.00e+00	0	42	0	434110464	53	4514
2026-01-13 12:45:03.98	190.57	14.18	-40.9	-43.0	17.8	0.00e+00	0	42	0	439353344	53	4586
2026-01-13 12:45:04.97	190.64	14.28	-40.8	-42.9	17.8	0.00e+00	0	42	0	445644800	53	4543
2026-01-13 12:45:05.97	190.72	14.37	-40.7	-42.8	17.9	0.00e+00	0	42	0	450887680	53	4490
2026-01-13 12:45:06.96	190.80	14.47	-40.8	-42.9	17.9	0.00e+00	0	42	0	456130560	53	4534
2026-01-13 12:45:07.96	190.88	14.57	-40.8	-42.9	17.9	0.00e+00	0	42	0	462422016	53	4497
2026-01-13 12:45:08.95	190.96	14.66	-40.9	-43.0	17.8	0.00e+00	0	42	0	467664896	53	4573
2026-01-13 12:45:09.95	191.04	14.76	-40.8	-42.9	17.9	0.00e+00	0	42	0	473956352	53	4516
2026-01-13 12:45:10.94	191.13	14.86	-40.8	-42.9	17.9	0.00e+00	0	42	0	479199232	53	4528
2026-01-13 12:45:11.94	191.21	14.96	-40.7	-42.8	18.0	0.00e+00	0	42	0	484442112	53	4457
2026-01-13 12:45:12.93	191.29	15.05	-40.6	-42.7	18.1	0.00e+00	0	42	0	489684992	53	4403
2026-01-13 12:45:13.92	191.37	15.15	-40.5	-42.6	18.2	0.00e+00	0	42	0	495976448	53	4373
2026-01-13 12:45:14.92	191.46	15.25	-40.4	-42.4	18.4	0.00e+00	0	42	0	501219328	52	4526
2026-01-13 12:45:15.92	191.54	15.35	-40.4	-42.4	18.4	0.00e+00	0	42	0	506462208	52	4518
2026-01-13 12:45:16.91	191.63	15.45	-40.3	-42.3	18.4	0.00e+00	0	42	0	512753664	52	4489
2026-01-13 12:45:17.95	191.72	15.56	-40.2	-42.2	18.5	0.00e+00	0	42	0	517996544	52	4437
2026-01-13 12:45:18.88	191.80	15.65	-40.1	-42.1	18.7	0.00e+00	0	42	0	524288000	52	4362
2026-01-13 12:45:19.88	191.88	15.75	-40.0	-42.0	18.8	0.00e+00	0	42	0	529530880	51	4561
2026-01-13 12:45:20.87	191.97	15.85	-40.1	-42.0	18.8	0.00e+00	0	42	0	534773760	51	4598
2026-01-13 12:45:21.87	192.06	15.95	-40.1	-42.0	18.8	0.00e+00	0	42	0	540016640	51	4589
2026-01-13 12:45:22.86	192.15	16.06	-40.1	-42.0	18.8	0.00e+00	0	42	0	546308096	51	4585
2026-01-13 12:45:23.86	192.24	16.16	-40.1	-42.1	18.7	0.00e+00	0	42	0	551550976	51	4614
2026-01-13 12:45:24.85	192.32	16.26	-40.1	-42.0	18.8	0.00e+00	0	42	0	556793856	51	4584
2026-01-13 12:45:25.85	192.41	16.37	-40.1	-42.0	18.8	0.00e+00	0	42	0	563085312	51	4578
2026-01-13 12:45:26.84	192.50	16.47	-40.1	-42.1	18.7	0.00e+00	0	42	0	568328192	51	4638
2026-01-13 12:45:27.84	192.60	16.57	-40.3	-42.3	18.6	0.00e+00	0	42	0	574619648	51	4712
2026-01-13 12:45:28.83	192.69	16.68	-40.1	-42.1	18.7	0.00e+00	0	42	0	579862528	51	4629
2026-01-13 12:45:29.83	192.78	16.78	-40.1	-42.1	18.7	0.00e+00	0	42	0	585105408	51	4634
2026-01-13 12:45:30.85	192.88	16.89	-40.2	-42.2	18.7	0.00e+00	0	42	0	591396864	51	4676
2026-01-13 12:45:31.85	192.97	17.00	-40.1	-42.1	18.7	0.00e+00	0	42	0	596639744	51	4639
2026-01-13 12:45:32.84	193.06	17.10	-40.0	-42.0	18.8	0.00e+00	0	42	0	601882624	51	4555
2026-01-13 12:45:33.84	193.16	17.21	-39.9	-41.9	18.9	0.00e+00	0	42	0	608174080	51	4511
2026-01-13 12:45:34.83	193.25	17.31	-39.9	-41.8	19.0	0.00e+00	0	42	0	613416960	51	4484
2026-01-13 12:45:35.83	193.35	17.42	-39.9	-41.9	18.9	0.00e+00	0	42	0	618659840	51	4505
2026-01-13 12:45:36.82	193.45	17.53	-40.0	-42.0	18.8	0.00e+00	0	42	0	624951296	51	4558
2026-01-13 12:45:37.81	193.54	17.63	-40.0	-41.9	18.9	0.00e+00	0	42	0	630194176	51	4536
2026-01-13 12:45:38.81	193.64	17.74	-40.0	-41.9	18.9	0.00e+00	0	42	0	635437056	51	4532
2026-01-13 12:45:39.80	193.74	17.85	-39.9	-41.9	18.9	0.00e+00	0	42	0	641728512	51	4499
2026-01-13 12:45:40.80	193.84	17.96	-39.9	-41.8	19.0	0.00e+00	0	42	0	646971392	51	4493
2026-01-13 12:45:41.80	193.94	18.07	-39.9	-41.8	19.0	0.00e+00	0	42	0	652214272	51	4491
2026-01-13 12:45:42.79	194.04	18.18	-39.9	-41.8	19.0	0.00e+00	0	42	0	658505728	51	4490
2026-01-13 12:45:43.78	194.14	18.29	-39.8	-41.8	19.0	0.00e+00	0	42	0	663748608	51	4477
2026-01-13 12:45:44.78	194.25	18.40	-39.8	-41.8	19.0	0.00e+00	0	42	0	668991488	51	4477
2026-01-13 12:45:45.77	194.35	18.51	-39.7	-41.6	19.2	0.00e+00	0	42	0	675282944	51	4389
2026-01-13 12:45:46.77	194.45	18.62	-39.7	-41.6	19.2	0.00e+00	0	42	0	680525824	51	4367
2026-01-13 12:45:47.76	194.56	18.73	-39.5	-41.5	19.3	0.00e+00	0	42	0	685768704	51	4304
2026-01-13 12:45:48.76	194.66	18.85	-39.5	-41.5	19.3	0.00e+00	0	42	0	692060160	51	4301
2026-01-13 12:45:49.75	194.77	18.96	-39.6	-41.5	19.3	0.00e+00	0	42	0	697303040	51	4313
2026-01-13 12:45:50.75	194.88	19.07	-39.6	-41.6	19.2	0.00e+00	0	42	0	702545920	51	4357
2026-01-13 12:45:51.93	195.00	19.21	-39.6	-41.6	19.2	0.00e+00	0	42	0	709885952	51	4351
2026-01-13 12:45:52.81	195.10	19.31	-39.6	-41.6	19.2	0.00e+00	0	42	0	714080256	51	4364
2026-01-13 12:45:53.95	195.23	19.44	-39.7	-41.6	19.2	0.00e+00	0	42	0	721420288	51	4381
2026-01-13 12:45:54.81	195.32	19.54	-39.7	-41.6	19.2	0.00e+00	0	42	0	725614592	51	4383
2026-01-13 12:45:55.94	195.45	19.67	-39.6	-41.6	19.2	0.00e+00	0	42	0	731906048	51	4355
2026-01-13 12:45:56.80	195.54	19.77	-39.7	-41.6	19.2	0.00e+00	0	42	0	737148928	51	4377
2026-01-13 12:45:57.94	195.67	19.90	-39.5	-41.5	19.3	0.00e+00	0	42	0	743440384	51	4300
2026-01-13 12:45:58.79	195.77	20.00	-39.4	-41.3	19.4	0.00e+00	0	42	0	748683264	50	4485
2026-01-13 12:45:59.93	195.90	20.14	-39.4	-41.3	19.5	0.00e+00	0	42	0	754974720	50	4461
2026-01-13 12:46:00.78	196.00	20.24	-39.4	-41.3	19.4	0.00e+00	0	42	0	759169024	50	4490
2026-01-13 12:46:01.92	196.13	20.37	-39.3	-41.2	19.6	0.00e+00	0	42	0	765460480	50	4396
2026-01-13 12:46:02.77	196.23	20.47	-39.3	-41.2	19.5	0.00e+00	0	42	0	770703360	50	4423
2026-01-13 12:46:03.91	196.37	20.61	-39.4	-41.3	19.4	0.00e+00	0	42	0	776994816	50	4460
2026-01-13 12:46:04.76	196.47	20.71	-39.4	-41.3	19.5	0.00e+00	0	42	0	782237696	50	4465
2026-01-13 12:46:05.89	196.60	20.85	-39.3	-41.2	19.6	0.00e+00	0	42	0	788529152	50	4396
2026-01-13 12:46:06.75	196.71	20.95	-39.3	-41.2	19.6	0.00e+00	0	42	0	792723456	50	4415
2026-01-13 12:46:08.01	196.86	21.10	-39.4	-41.3	19.4	0.00e+00	0	42	0	800063488	50	4492
2026-01-13 12:46:08.80	196.96	21.20	-39.3	-41.3	19.5	0.00e+00	0	42	0	804257792	50	4445
2026-01-13 12:46:10.15	197.12	21.36	-39.3	-41.2	19.6	0.00e+00	0	42	0	811597824	50	4415
2026-01-13 12:46:10.87	197.21	21.45	-39.2	-41.1	19.6	0.00e+00	0	42	0	815792128	50	4374
2026-01-13 12:46:12.15	197.38	21.61	-39.2	-41.2	19.6	0.00e+00	0	42	0	823132160	50	4398
2026-01-13 12:46:12.87	197.47	21.70	-39.1	-41.0	19.7	0.00e+00	0	42	0	827326464	50	4340
2026-01-13 12:46:14.15	197.63	21.86	-38.9	-40.8	19.9	0.00e+00	0	42	0	834666496	49	4476
2026-01-13 12:46:14.86	197.72	21.95	-39.0	-40.8	19.9	0.00e+00	0	42	0	838860800	49	4486
2026-01-13 12:46:16.14	197.89	22.11	-38.9	-40.8	19.9	0.00e+00	0	42	0	846200832	49	4473
2026-01-13 12:46:16.85	197.98	22.20	-39.0	-40.8	19.9	0.00e+00	0	42	0	849346560	49	4484
2026-01-13 12:46:18.13	198.15	22.36	-39.0	-40.8	19.9	0.00e+00	0	42	0	856686592	49	4488
2026-01-13 12:46:18.87	198.25	22.45	-38.9	-40.8	19.9	0.00e+00	0	42	0	860880896	49	4450
2026-01-13 12:46:20.15	198.42	22.61	-38.9	-40.8	19.9	0.00e+00	0	42	0	868220928	49	4463
2026-01-13 12:46:21.00	198.53	22.72	-39.0	-40.8	19.9	0.00e+00	0	42	0	873463808	49	4476
2026-01-13 12:46:22.13	198.69	22.87	-38.9	-40.8	19.9	0.00e+00	0	42	0	879755264	49	4462
2026-01-13 12:46:22.99	198.81	22.98	-38.9	-40.8	19.9	0.00e+00	0	42	0	883949568	49	4459
2026-01-13 12:46:24.12	198.96	23.12	-38.8	-40.7	20.0	0.00e+00	0	42	0	890241024	49	4414
2026-01-13 12:46:24.98	199.08	23.23	-38.8	-40.6	20.1	0.00e+00	0	42	0	895483904	49	4385
2026-01-13 12:46:26.11	199.24	23.38	-38.9	-40.7	20.0	0.00e+00	0	42	0	901775360	49	4414
2026-01-13 12:46:26.97	199.36	23.49	-38.9	-40.8	19.6	0.00e+00	0	42	0	907018240	49	4445
2026-01-13 12:46:28.10	199.52	23.64	-38.8	-40.7	20.1	0.00e+00	0	42	0	913309696	49	4395
2026-01-13 12:46:28.96	199.65	23.75	-38.9	-40.7	20.0	0.00e+00	0	42	0	917504000	49	4431
2026-01-13 12:46:30.09	199.81	23.90	-38.9	-40.7	20.0	0.00e+00	0	42	0	924844032	49	4414
2026-01-13 12:46:30.95	199.94	24.02	-38.7	-40.5	20.2	0.00e+00	0	42	0	929038336	49	4310
2026-01-13 12:46:32.08	200.10	24.17	-38.6	-40.4	20.3	0.00e+00	0	42	0	935329792	49	4279
2026-01-13 12:46:32.94	200.23	24.28	-38.6	-40.4	20.3	0.00e+00	0	42	0	940572672	49	4283
2026-01-13 12:46:34.07	200.40	24.43	-38.5	-40.3	20.4	0.00e+00	0	42	0	946864128	49	4218
2026-01-13 12:46:34.93	200.53	24.55	-38.5	-40.3	20.4	0.00e+00	0	42	0	951058432	48	4485
2026-01-13 12:46:36.06	200.70	24.70	-38.6	-40.4	20.3	0.00e+00	0	42	0	957349888	48	4536
2026-01-13 12:46:37.23	200.88	24.86	-38.6	-40.4	20.3	0.00e+00	0	42	0	964689920	48	4543
2026-01-13 12:46:38.08	201.02	24.97	-38.5	-40.4	20.4	0.00e+00	0	42	0	968884224	48	4496
2026-01-13 12:46:39.22	201.20	25.13	-38.6	-40.4	20.3	0.00e+00	0	42	0	975175680	48	4542
2026-01-13 12:46:40.07	201.33	25.24	-38.6	-40.4	20.3	0.00e+00	0	42	0	980418560	48	4518
2026-01-13 12:46:41.21	201.51	25.40	-38.6	-40.4	20.3	0.00e+00	0	42	0	986710016	48	4518
2026-01-13 12:46:42.07	201.65	25.52	-38.6	-40.4	20.3	0.00e+00	0	42	0	991952896	48	4545
2026-01-13 12:46:43.20	201.83	25.67	-38.7	-40.5	20.2	0.00e+00	0	42	0	998244352	48	4591
2026-01-13 12:46:44.06	201.97	25.79	-38.6	-40.4	20.3	0.00e+00	0	42	0	1002438656	48	4534
2026-01-13 12:46:45.19	202.16	25.95	-38.5	-40.3	20.4	0.00e+00	0	42	0	1009778688	48	4476
2026-01-13 12:46:46.05	202.30	26.07	-38.5	-40.3	20.4	0.00e+00	0	42	0	1013972992	48	4462
2026-01-13 12:46:47.18	202.49	26.23	-38.3	-40.1	20.5	0.00e+00	0	42	0	1020264448	48	4368
2026-01-13 12:46:48.04	202.64	26.35	-38.3	-40.1	20.5	0.00e+00	0	42	0	1025507328	48	4386
2026-01-13 12:46:49.17	202.83	26.51	-38.3	-40.1	20.5	0.00e+00	0	42	0	1031798784	48	4387
2026-01-13 12:46:50.03	202.98	26.63	-38.3	-40.1	20.5	0.00e+00	0	42	0	1035993088	48	4382
2026-01-13 12:46:51.16	203.17	26.79	-38.3	-40.1	20.5	0.00e+00	0	42	0	1042284544	48	4385
2026-01-13 12:46:52.11	203.34	26.92	-38.3	-40.2	20.5	0.00e+00	0	42	0	1048576000	48	4392
2026-01-13 12:46:53.28	203.55	27.09	-38.3	-40.1	20.6	0.00e+00	0	42	0	1054867456	48	4353
2026-01-13 12:46:54.13	203.70	27.21	-38.4	-40.2	20.5	0.00e+00	0	42	0	1060110336	48	4409
2026-01-13 12:46:55.49	203.94	27.41	-38.4	-40.2	20.4	0.00e+00	0	42	0	1067450368	48	4427
2026-01-13 12:46:56.20	204.07	27.51	-38.5	-40.3	20.4	0.00e+00	0	42	0	1071644672	48	4465
2026-01-13 12:46:57.48	204.30	27.70	-38.5	-40.3	20.4	0.00e+00	0	42	0	1077936128	48	4474
2026-01-13 12:46:58.21	204.44	27.80	-38.5	-40.4	20.3	0.00e+00	0	42	0	1082130432	48	4507
2026-01-13 12:46:59.49	204.68	27.99	-38.4	-40.2	20.4	0.00e+00	0	42	0	1089470464	48	4425
2026-01-13 12:47:00.20	204.81	28.09	-38.4	-40.2	20.5	0.00e+00	0	42	0	1093664768	48	4427
2026-01-13 12:47:01.76	205.11	28.32	-38.5	-40.3	20.4	0.00e+00	0	42	0	1102053376	48	4465
2026-01-13 12:47:02.47	205.24	28.43	-38.4	-40.2	20.5	0.00e+00	0	42	0	1106247680	48	4421
2026-01-13 12:47:03.76	205.49	28.62	-38.4	-40.2	20.5	0.00e+00	0	42	0	1113587712	48	4398
2026-01-13 12:47:04.47	205.63	28.72	-38.4	-40.2	20.5	0.00e+00	0	42	0	1117782016	48	4404
2026-01-13 12:47:05.75	205.89	28.91	-38.3	-40.1	20.5	0.00e+00	0	42	0	1125122048	48	4385
2026-01-13 12:47:06.48	206.03	29.02	-38.4	-40.2	20.5	0.00e+00	0	42	0	1129316352	48	4413
2026-01-13 12:47:07.76	206.29	29.21	-38.3	-40.2	20.5	0.00e+00	0	42	0	1135607808	48	4395
2026-01-13 12:47:08.47	206.43	29.32	-38.3	-40.1	20.5	0.00e+00	0	42	0	1139802112	48	4384
2026-01-13 12:47:09.78	206.70	29.51	-38.3	-40.1	20.5	0.00e+00	0	42	0	1147142144	48	4386
2026-01-13 12:47:10.49	206.85	29.62	-38.4	-40.2	20.5	0.00e+00	0	42	0	1151336448	48	4441
2026-01-13 12:47:11.77	207.11	29.81	-38.3	-40.2	20.5	0.00e+00	0	42	0	1158676480	48	4395
2026-01-13 12:47:12.56	207.28	29.93	-38.4	-40.3	20.4	0.00e+00	0	42	0	1162870784	48	4453
2026-01-13 12:47:13.79	207.54	30.12	-38.4	-40.2	20.5	0.00e+00	0	42	0	1170210816	48	4429
2026-01-13 12:47:14.74	207.74	30.26	-38.4	-40.2	20.5	0.00e+00	0	42	0	1175453696	48	4431
2026-01-13 12:47:15.73	207.96	30.42	-38.4	-40.2	20.5	0.00e+00	0	42	0	1180696576	48	4423
2026-01-13 12:47:16.93	208.22	30.60	-38.3	-40.1	20.6	0.00e+00	0	42	0	1188036608	48	4363
2026-01-13 12:47:17.82	208.42	30.73	-38.3	-40.1	20.6	0.00e+00	0	42	0	1192230912	48	4359
2026-01-13 12:47:18.95	208.67	30.91	-38.4	-40.2	20.5	0.00e+00	0	42	0	1199570944	48	4406
2026-01-13 12:47:19.81	208.86	31.04	-38.3	-40.1	20.6	0.00e+00	0	42	0	1203765248	48	4351
2026-01-13 12:47:20.94	209.12	31.22	-38.3	-40.1	20.6	0.00e+00	0	42	0	1210056704	48	4348
2026-01-13 12:47:21.79	209.31	31.35	-38.4	-40.2	20.6	0.00e+00	0	42	0	1215299584	48	4407
2026-01-13 12:47:22.93	209.58	31.52	-38.4	-40.2	20.5	0.00e+00	0	42	0	1221591040	48	4422
2026-01-13 12:47:23.78	209.77	31.66	-38.2	-40.0	20.7	0.00e+00	0	42	0	1226833920	48	4337
2026-01-13 12:47:24.92	210.04	31.83	-38.2	-40.0	20.7	0.00e+00	0	42	0	1232076800	48	4326
2026-01-13 12:47:25.77	210.24	31.96	-38.1	-39.9	20.7	0.00e+00	0	42	0	1237319680	48	4282
2026-01-13 12:47:26.91	210.52	32.14	-38.0	-39.8	20.8	0.00e+00	0	42	0	1243611136	48	4224
2026-01-13 12:47:27.76	210.72	32.28	-38.2	-40.0	20.7	0.00e+00	0	42	0	1248854016	48	4296
2026-01-13 12:47:28.92	211.01	32.46	-38.2	-40.0	20.7	0.00e+00	0	42	0	1255145472	48	4316
2026-01-13 12:47:29.75	211.21	32.59	-38.2	-40.0	20.6	0.00e+00	0	42	0	1260388352	48	4328
2026-01-13 12:47:30.92	211.50	32.77	-38.3	-40.1	20.6	0.00e+00	0	42	0	1266679808	48	4367
2026-01-13 12:47:31.77	211.72	32.91	-38.2	-40.1	20.6	0.00e+00	0	42	0	1270874112	48	4343
2026-01-13 12:47:32.91	212.01	33.08	-38.1	-39.9	20.8	0.00e+00	0	42	0	1277165568	48	4269
2026-01-13 12:47:33.76	212.23	33.22	-38.1	-39.9	20.8	0.00e+00	0	42	0	1282408448	48	4272
2026-01-13 12:47:35.12	212.58	33.43	-38.1	-39.9	20.8	0.00e+00	0	42	0	1289748480	48	4256
2026-01-13 12:47:35.83	212.76	33.55	-38.3	-40.1	20.6	0.00e+00	0	42	0	1293942784	48	4368
2026-01-13 12:47:37.11	213.10	33.75	-38.0	-39.8	20.9	0.00e+00	0	42	0	1301282816	48	4223
2026-01-13 12:47:37.82	213.29	33.86	-37.8	-39.6	20.7	0.00e+00	0	42	0	1305477120	47	4388
2026-01-13 12:47:39.10	213.64	34.06	-37.9	-39.8	20.6	0.00e+00	0	42	0	1312817152	47	4458
2026-01-13 12:47:39.83	213.83	34.18	-38.0	-39.8	20.6	0.00e+00	0	42	0	1317011456	47	4452
2026-01-13 12:47:41.10	214.18	34.38	-37.9	-39.8	20.6	0.00e+00	0	42	0	1323302912	47	4449
2026-01-13 12:47:41.91	214.41	34.51	-37.9	-39.8	20.6	0.00e+00	0	42	0	1328545792	47	4443
2026-01-13 12:47:43.05	214.73	34.69	-37.9	-39.7	20.7	0.00e+00	0	42	0	1334837248	47	4436
2026-01-13 12:47:43.90	214.97	34.83	-37.9	-39.7	20.7	0.00e+00	0	42	0	1339031552	47	4413
2026-01-13 12:47:45.04	215.29	35.01	-37.9	-39.7	20.8	0.00e+00	0	42	0	1346371584	47	4393
2026-01-13 12:47:45.89	215.54	35.14	-37.8	-39.6	20.8	0.00e+00	0	42	0	1350565888	47	4356
2026-01-13 12:47:47.03	215.87	35.33	-37.8	-39.6	20.8	0.00e+00	0	42	0	1356857344	47	4383
2026-01-13 12:47:47.88	216.12	35.46	-38.0	-39.8	20.6	0.00e+00	0	42	0	1362100224	47	4462
2026-01-13 12:47:49.02	216.46	35.64	-38.0	-39.9	20.5	0.00e+00	0	42	0	1368391680	47	4510
2026-01-13 12:47:49.87	216.71	35.78	-38.1	-39.9	20.5	0.00e+00	0	42	0	1373634560	47	4536
2026-01-13 12:47:51.09	217.08	35.97	-38.0	-39.9	20.5	0.00e+00	0	42	0	1379926016	47	4499
2026-01-13 12:47:51.94	217.34	36.11	-38.0	-39.8	20.6	0.00e+00	0	42	0	1385168896	47	4480
2026-01-13 12:47:53.11	217.70	36.29	-38.0	-39.8	20.6	0.00e+00	0	42	0	1391460352	47	4482
2026-01-13 12:47:53.97	217.97	36.43	-38.0	-39.8	20.6	0.00e+00	0	42	0	1395654656	47	4490
2026-01-13 12:47:55.10	218.32	36.61	-37.7	-39.5	20.9	0.00e+00	0	42	0	1401946112	47	4312
2026-01-13 12:47:55.95	218.59	36.74	-37.6	-39.4	21.0	0.00e+00	0	42	0	1407188992	47	4253
2026-01-13 12:47:57.09	218.96	36.92	-37.6	-39.4	21.0	0.00e+00	0	42	0	1413480448	47	4260
2026-01-13 12:47:57.94	219.23	37.06	-37.7	-39.5	20.9	0.00e+00	0	42	0	1418723328	47	4299
2026-01-13 12:47:59.08	219.60	37.23	-37.8	-39.6	20.8	0.00e+00	0	42	0	1425014784	47	4377
2026-01-13 12:48:00.04	219.92	37.39	-37.8	-39.6	20.8	0.00e+00	0	42	0	1430257664	47	4363
2026-01-13 12:48:01.04	220.25	37.54	-37.8	-39.6	20.8	0.00e+00	0	42	0	1435500544	47	4388
2026-01-13 12:48:02.03	220.58	37.70	-37.8	-39.6	20.8	0.00e+00	0	42	0	1441792000	47	4366
2026-01-13 12:48:03.02	220.92	37.85	-37.7	-39.5	20.9	0.00e+00	0	42	0	1447034880	47	4323
2026-01-13 12:48:04.02	221.26	38.01	-37.7	-39.5	20.9	0.00e+00	0	42	0	1453326336	47	4330
2026-01-13 12:48:05.02	221.61	38.16	-37.8	-39.5	20.9	0.00e+00	0	42	0	1458569216	47	4329
2026-01-13 12:48:06.01	221.95	38.32	-37.7	-39.5	20.9	0.00e+00	0	42	0	1463812096	47	4323
2026-01-13 12:48:07.01	222.30	38.47	-37.9	-39.7	20.8	0.00e+00	0	42	0	1469054976	47	4396
2026-01-13 12:48:08.00	222.65	38.62	-37.9	-39.7	20.7	0.00e+00	0	42	0	1475346432	47	4418
2026-01-13 12:48:09.00	223.01	38.78	-37.8	-39.6	20.8	0.00e+00	0	42	0	1480589312	47	4362
2026-01-13 12:48:09.99	223.37	38.93	-37.8	-39.6	20.8	0.00e+00	0	42	0	1485832192	47	4372
2026-01-13 12:48:10.99	223.74	39.08	-38.0	-39.8	20.7	0.00e+00	0	42	0	1492123648	47	4444
2026-01-13 12:48:11.98	224.10	39.23	-37.8	-39.6	20.8	0.00e+00	0	42	0	1497366528	47	4386
2026-01-13 12:48:12.98	224.47	39.38	-37.7	-39.5	20.9	0.00e+00	0	42	0	1503657984	47	4306
2026-01-13 12:48:13.97	224.84	39.53	-37.8	-39.6	20.9	0.00e+00	0	42	0	1508900864	47	4342
2026-01-13 12:48:14.97	225.22	39.68	-37.9	-39.7	20.8	0.00e+00	0	42	0	1514143744	47	4402
2026-01-13 12:48:15.96	225.60	39.83	-38.0	-39.8	20.6	0.00e+00	0	42	0	1519386624	47	4472
2026-01-13 12:48:16.96	225.99	39.98	-37.9	-39.8	20.7	0.00e+00	0	42	0	1525678080	47	4454
2026-01-13 12:48:17.95	226.37	40.12	-37.9	-39.7	20.7	0.00e+00	0	42	0	1530920960	47	4430
2026-01-13 12:48:18.95	226.76	40.27	-37.8	-39.5	20.9	0.00e+00	0	42	0	1536163840	47	4336
2026-01-13 12:48:19.94	227.16	40.41	-37.7	-39.5	20.9	0.00e+00	0	42	0	1542455296	47	4316
2026-01-13 12:48:20.94	227.55	40.56	-37.7	-39.4	20.9	0.00e+00	0	42	0	1547698176	47	4283
2026-01-13 12:48:21.93	227.95	40.70	-37.7	-39.4	21.0	0.00e+00	0	42	0	1553989632	47	4282
2026-01-13 12:48:22.93	228.36	40.84	-37.7	-39.5	20.9	0.00e+00	0	42	0	1559232512	47	4327
2026-01-13 12:48:23.92	228.77	40.98	-37.7	-39.5	20.9	0.00e+00	0	42	0	1564475392	47	4314
2026-01-13 12:48:24.92	229.18	41.12	-37.8	-39.6	20.8	0.00e+00	0	42	0	1570766848	47	4343
2026-01-13 12:48:25.94	229.60	41.27	-37.7	-39.5	20.9	0.00e+00	0	42	0	1576009728	47	4317
2026-01-13 12:48:26.94	230.03	41.40	-37.7	-39.4	20.9	0.00e+00	0	42	0	1581252608	47	4290
2026-01-13 12:48:27.93	230.45	41.54	-37.6	-39.4	21.0	0.00e+00	0	42	0	1587544064	47	4252
2026-01-13 12:48:28.93	230.87	41.68	-37.7	-39.5	20.9	0.00e+00	0	42	0	1592786944	47	4293
2026-01-13 12:48:29.92	231.30	41.81	-37.7	-39.5	20.9	0.00e+00	0	42	0	1598029824	47	4331
2026-01-13 12:48:30.92	231.73	41.94	-37.7	-39.6	20.8	0.00e+00	0	42	0	1604321280	47	4344
2026-01-13 12:48:31.91	232.17	42.07	-37.7	-39.5	20.9	0.00e+00	0	42	0	1609564160	47	4322
2026-01-13 12:48:32.91	232.61	42.20	-37.7	-39.6	20.9	0.00e+00	0	42	0	1614807040	47	4345
2026-01-13 12:48:33.90	233.05	42.33	-37.7	-39.5	20.9	0.00e+00	0	42	0	1621098496	47	4303
2026-01-13 12:48:34.90	233.50	42.46	-37.8	-39.6	20.8	0.00e+00	0	42	0	1626341376	47	4367
2026-01-13 12:48:35.89	233.95	42.59	-38.0	-39.8	20.7	0.00e+00	0	42	0	1631584256	47	4458
2026-01-13 12:48:36.89	234.40	42.71	-38.2	-40.0	20.5	0.00e+00	0	42	0	1637875712	47	4564
2026-01-13 12:48:37.88	234.86	42.83	-38.2	-40.0	20.5	0.00e+00	0	42	0	1643118592	47	4557
2026-01-13 12:48:38.88	235.32	42.95	-38.2	-40.0	20.4	0.00e+00	0	42	0	1648361472	47	4598
2026-01-13 12:48:39.87	235.78	43.07	-38.2	-40.0	20.4	0.00e+00	0	42	0	1654652928	47	4582
2026-01-13 12:48:40.87	236.25	43.19	-38.1	-39.9	20.5	0.00e+00	0	42	0	1659895808	47	4506
2026-01-13 12:48:41.86	236.72	43.31	-38.0	-39.8	20.6	0.00e+00	0	42	0	1665138688	47	4475
2026-01-13 12:48:42.94	237.23	43.43	-38.0	-39.8	20.7	0.00e+00	0	42	0	1671430144	47	4476
2026-01-13 12:48:43.83	237.66	43.53	-38.3	-40.1	20.4	0.00e+00	0	42	0	1676673024	47	4633
2026-01-13 12:48:45.08	238.27	43.67	-38.5	-40.3	20.2	0.00e+00	0	42	0	1684013056	47	4751
2026-01-13 12:48:45.93	238.68	43.76	-38.4	-40.3	20.3	0.00e+00	0	42	0	1688207360	47	4711
2026-01-13 12:48:47.07	239.24	43.88	-38.5	-40.3	20.2	0.00e+00	0	42	0	1694498816	47	4734
2026-01-13 12:48:47.93	239.66	43.97	-38.4	-40.2	20.3	0.00e+00	0	42	0	1699741696	47	4688
2026-01-13 12:48:49.06	240.22	44.09	-38.1	-39.9	20.5	0.00e+00	0	42	0	1706033152	47	4537
2026-01-13 12:48:49.92	240.65	44.17	-37.9	-39.7	20.7	0.00e+00	0	42	0	1711276032	47	4423
2026-01-13 12:48:51.05	241.22	44.29	-37.9	-39.7	20.7	0.00e+00	0	42	0	1717567488	47	4431
2026-01-13 12:48:51.91	241.65	44.37	-37.9	-39.7	20.8	0.00e+00	0	42	0	1721761792	47	4409
2026-01-13 12:48:53.05	242.23	44.48	-38.1	-39.9	20.6	0.00e+00	0	42	0	1728053248	47	4513
2026-01-13 12:48:53.90	242.67	44.55	-38.0	-39.8	20.7	0.00e+00	0	42	0	1733296128	47	4450
2026-01-13 12:48:55.04	243.26	44.66	-38.1	-39.9	20.6	0.00e+00	0	42	0	1739587584	47	4518
2026-01-13 12:48:55.89	243.69	44.73	-38.2	-40.0	20.5	0.00e+00	0	42	0	1744830464	47	4580
2026-01-13 12:48:57.03	244.29	44.83	-38.4	-40.2	20.3	0.00e+00	0	42	0	1751121920	47	4687
2026-01-13 12:48:57.88	244.73	44.90	-38.2	-40.0	20.5	0.00e+00	0	42	0	1755316224	47	4593
2026-01-13 12:48:59.02	245.33	44.99	-38.1	-39.9	20.5	0.00e+00	0	42	0	1762656256	47	4541
2026-01-13 12:48:59.87	245.78	45.06	-38.1	-39.9	20.5	0.00e+00	0	42	0	1766850560	47	4534
2026-01-13 12:49:01.10	246.43	45.15	-38.1	-39.9	20.5	0.00e+00	0	42	0	1774190592	47	4538
2026-01-13 12:49:01.95	246.88	45.21	-38.1	-39.9	20.6	0.00e+00	0	42	0	1778384896	47	4507
2026-01-13 12:49:03.09	247.49	45.29	-38.2	-40.0	20.5	0.00e+00	0	42	0	1784676352	47	4552
2026-01-13 12:49:03.94	247.95	45.35	-38.3	-40.1	20.4	0.00e+00	0	42	0	1789919232	47	4641
2026-01-13 12:49:05.08	248.57	45.42	-38.2	-40.0	20.5	0.00e+00	0	41	0	1796210688	47	4557
2026-01-13 12:49:05.93	249.03	45.47	-38.1	-39.9	20.6	0.00e+00	0	42	0	1801453568	47	4533
2026-01-13 12:49:07.07	249.65	45.54	-38.1	-39.9	20.7	0.00e+00	0	42	0	1807745024	47	4498
2026-01-13 12:49:08.03	250.17	45.60	-37.9	-39.7	20.8	0.00e+00	0	42	0	1812987904	47	4421
2026-01-13 12:49:09.03	250.72	45.65	-37.9	-39.6	20.8	0.00e+00	0	42	0	1818230784	47	4381
2026-01-13 12:49:10.02	251.26	45.70	-37.9	-39.7	20.7	0.00e+00	0	42	0	1824522240	47	4437
2026-01-13 12:49:11.02	251.81	45.75	-38.2	-40.1	20.4	0.00e+00	0	42	0	1829765120	47	4609
2026-01-13 12:49:12.01	252.36	45.79	-38.3	-40.2	20.3	0.00e+00	0	42	0	1835008000	47	4660
2026-01-13 12:49:13.01	252.92	45.84	-38.3	-40.1	20.4	0.00e+00	0	42	0	1840250880	47	4632
2026-01-13 12:49:14.00	253.47	45.88	-38.3	-40.2	20.4	0.00e+00	0	41	0	1846542336	47	4656
2026-01-13 12:49:14.99	254.02	45.91	-38.3	-40.2	20.3	0.00e+00	0	42	0	1851785216	47	4674
2026-01-13 12:49:15.99	254.58	45.95	-38.1	-39.9	20.5	0.00e+00	0	42	0	1857028096	47	4538
2026-01-13 12:49:16.99	255.14	45.98	-38.0	-39.8	20.7	0.00e+00	0	42	0	1863319552	47	4470
2026-01-13 12:49:17.98	255.69	46.01	-38.1	-39.9	20.6	0.00e+00	0	42	0	1868562432	47	4516
2026-01-13 12:49:18.98	256.25	46.03	-38.3	-40.1	20.4	0.00e+00	0	42	0	1874853888	47	4630
2026-01-13 12:49:19.97	256.81	46.05	-38.2	-40.0	20.6	0.00e+00	0	42	0	1880096768	47	4555
2026-01-13 12:49:20.97	257.37	46.07	-38.2	-40.0	20.6	0.00e+00	0	42	0	1885339648	47	4548
2026-01-13 12:49:21.97	257.94	46.09	-38.2	-40.0	20.6	0.00e+00	0	42	0	1891631104	47	4556
2026-01-13 12:49:22.96	258.49	46.10	-38.3	-40.2	20.4	0.00e+00	0	41	0	1896873984	47	4667
2026-01-13 12:49:23.96	259.06	46.11	-38.5	-40.4	20.2	0.00e+00	0	42	0	1902116864	47	4762
2026-01-13 12:49:24.96	259.62	46.12	-38.5	-40.4	20.2	0.00e+00	0	42	0	1907359744	47	4769
2026-01-13 12:49:25.95	260.18	46.13	-38.3	-40.1	20.4	0.00e+00	0	42	0	1913651200	47	4624
2026-01-13 12:49:26.94	260.74	46.13	-38.3	-40.1	20.4	0.00e+00	0	42	0	1918894080	47	4644
2026-01-13 12:49:27.94	261.31	46.13	-38.4	-40.3	20.3	0.00e+00	0	42	0	1925185536	47	4716
2026-01-13 12:49:28.93	261.87	46.12	-38.5	-40.3	20.3	0.00e+00	0	42	0	1930428416	47	4732
2026-01-13 12:49:29.93	262.43	46.11	-38.1	-40.0	20.6	0.00e+00	0	42	0	1935671296	47	4549
2026-01-13 12:49:30.92	262.99	46.10	-38.0	-39.8	20.7	0.00e+00	0	42	0	1941962752	47	4480
2026-01-13 12:49:31.92	263.55	46.09	-38.2	-40.0	20.5	0.00e+00	0	42	0	1947205632	47	4580
2026-01-13 12:49:32.92	264.12	46.07	-38.4	-40.3	20.3	0.00e+00	0	42	0	1952448512	47	4717
2026-01-13 12:49:33.91	264.68	46.06	-38.6	-40.5	20.1	0.00e+00	0	42	0	1957691392	47	4852
2026-01-13 12:49:34.90	265.23	46.03	-38.3	-40.1	20.4	0.00e+00	0	42	0	1963982848	47	4638
2026-01-13 12:49:35.90	265.79	46.01	-38.3	-40.1	20.4	0.00e+00	0	42	0	1969225728	47	4623
2026-01-13 12:49:36.89	266.35	45.98	-38.3	-40.2	20.4	0.00e+00	0	42	0	1975517184	47	4661
2026-01-13 12:49:37.89	266.91	45.95	-38.3	-40.1	20.4	0.00e+00	0	42	0	1980760064	47	4633
2026-01-13 12:49:38.88	267.46	45.92	-38.2	-40.0	20.5	0.00e+00	0	42	0	1986002944	47	4579
2026-01-13 12:49:39.88	268.02	45.88	-38.2	-40.0	20.5	0.00e+00	0	42	0	1992294400	47	4580
2026-01-13 12:49:40.87	268.57	45.84	-38.3	-40.1	20.4	0.00e+00	0	42	0	1997537280	47	4637
2026-01-13 12:49:41.87	269.12	45.80	-38.4	-40.3	20.3	0.00e+00	0	42	0	2002780160	47	4709
2026-01-13 12:49:42.86	269.67	45.75	-38.6	-40.5	20.1	0.00e+00	0	42	0	2009071616	47	4828
2026-01-13 12:49:43.86	270.22	45.71	-38.4	-40.3	20.3	0.00e+00	0	42	0	2014314496	47	4718
2026-01-13 12:49:44.85	270.76	45.66	-38.4	-40.2	20.3	0.00e+00	0	42	0	2019557376	47	4674
2026-01-13 12:49:45.86	271.32	45.60	-38.4	-40.2	20.3	0.00e+00	0	42	0	2025848832	47	4695
2026-01-13 12:49:46.87	271.87	45.54	-38.3	-40.1	20.4	0.00e+00	0	41	0	2031091712	47	4639
2026-01-13 12:49:47.87	272.41	45.49	-38.3	-40.1	20.4	0.00e+00	0	41	0	2037383168	47	4648
2026-01-13 12:49:48.86	272.95	45.42	-38.3	-40.1	20.4	0.00e+00	0	42	0	2042626048	47	4620
2026-01-13 12:49:49.92	273.52	45.36	-38.0	-39.8	20.7	0.00e+00	0	42	0	2048917504	47	4481
2026-01-13 12:49:50.82	274.00	45.30	-37.9	-39.7	20.7	0.00e+00	0	42	0	2053111808	47	4428
2026-01-13 12:49:52.02	274.64	45.21	-38.0	-39.8	20.7	0.00e+00	0	41	0	2060451840	47	4476
2026-01-13 12:49:52.87	275.10	45.15	-38.1	-40.0	20.5	0.00e+00	0	42	0	2064646144	47	4556
2026-01-13 12:49:54.01	275.70	45.07	-38.3	-40.1	20.4	0.00e+00	0	42	0	2070937600	47	4646
2026-01-13 12:49:54.86	276.15	45.00	-38.2	-40.0	20.5	0.00e+00	0	42	0	2076180480	47	4578
2026-01-13 12:49:56.00	276.75	44.91	-38.2	-40.0	20.5	0.00e+00	0	42	0	2082471936	47	4592
2026-01-13 12:49:56.85	277.19	44.84	-38.3	-40.1	20.4	0.00e+00	0	42	0	2087714816	47	4650
2026-01-13 12:49:57.99	277.78	44.74	-38.2	-39.9	20.9	0.00e+00	0	42	0	2094006272	47	4533
2026-01-13 12:49:58.84	278.22	44.67	-38.0	-39.8	21.0	0.00e+00	0	42	0	2098200576	47	4454
2026-01-13 12:49:59.97	278.80	44.57	-38.2	-39.9	20.8	0.00e+00	0	42	0	2105540608	47	4542
2026-01-13 12:50:00.83	279.24	44.49	-38.5	-40.3	20.5	0.00e+00	0	42	0	2109734912	47	4742
2026-01-13 12:50:01.96	279.81	44.38	-38.4	-40.2	20.6	0.00e+00	0	42	0	2116026368	47	4675
2026-01-13 12:50:02.82	280.25	44.30	-38.3	-40.0	20.8	0.00e+00	0	42	0	2121269248	47	4577
2026-01-13 12:50:03.96	280.82	44.19	-38.1	-39.8	20.9	0.00e+00	0	41	0	2127560704	47	4493
2026-01-13 12:50:04.81	281.25	44.10	-38.1	-39.8	21.0	0.00e+00	0	42	0	2131755008	47	4487
2026-01-13 12:50:06.09	281.88	43.97	-38.2	-40.0	20.8	0.00e+00	0	42	0	2139095040	47	4559
2026-01-13 12:50:06.81	282.23	43.90	-38.3	-40.1	20.7	0.00e+00	0	42	0	2143289344	47	4612
2026-01-13 12:50:08.09	282.86	43.76	-38.1	-39.8	20.9	0.00e+00	0	42	0	2150629376	47	4489
2026-01-13 12:50:08.81	283.21	43.68	-38.1	-39.8	21.0	0.00e+00	0	42	0	2154823680	47	4458
2026-01-13 12:50:10.09	283.83	43.54	-38.2	-39.9	20.9	0.00e+00	0	42	0	2162163712	47	4523
2026-01-13 12:50:10.82	284.18	43.46	-38.3	-40.1	20.8	0.00e+00	0	42	0	2166358016	47	4607
2026-01-13 12:50:12.10	284.79	43.32	-38.4	-40.1	20.7	0.00e+00	0	42	0	2172649472	47	4632
2026-01-13 12:50:12.86	285.15	43.23	-38.3	-40.0	20.7	0.00e+00	0	42	0	2176843776	47	4593
2026-01-13 12:50:14.13	285.74	43.08	-38.3	-40.0	20.8	0.00e+00	0	42	0	2184183808	47	4596
2026-01-13 12:50:14.86	286.08	42.99	-38.3	-40.0	20.7	0.00e+00	0	42	0	2188378112	47	4592
2026-01-13 12:50:16.14	286.67	42.84	-38.1	-39.8	20.9	0.00e+00	0	42	0	2195718144	47	4487
2026-01-13 12:50:16.86	287.00	42.75	-38.1	-39.8	21.0	0.00e+00	0	42	0	2199912448	47	4477
2026-01-13 12:50:18.14	287.59	42.59	-38.1	-39.8	20.9	0.00e+00	0	42	0	2207252480	47	4483
2026-01-13 12:50:18.85	287.91	42.50	-38.3	-40.0	20.8	0.00e+00	0	42	0	2211446784	47	4580
2026-01-13 12:50:20.13	288.48	42.34	-38.3	-40.1	20.7	0.00e+00	0	42	0	2218786816	47	4600
2026-01-13 12:50:20.84	288.80	42.25	-38.2	-40.0	20.8	0.00e+00	0	42	0	2221932544	47	4552
2026-01-13 12:50:22.15	289.37	42.08	-38.1	-39.9	20.9	0.00e+00	0	42	0	2229272576	47	4497
2026-01-13 12:50:22.86	289.68	41.98	-38.0	-39.7	21.0	0.00e+00	0	41	0	2233466880	47	4430
2026-01-13 12:50:24.20	290.27	41.81	-38.0	-39.7	21.0	0.00e+00	0	42	0	2240806912	47	4431
2026-01-13 12:50:24.91	290.57	41.71	-38.0	-39.7	21.0	0.00e+00	0	42	0	2245001216	47	4413
2026-01-13 12:50:26.26	291.15	41.53	-38.0	-39.7	21.0	0.00e+00	0	42	0	2252341248	47	4424
2026-01-13 12:50:26.97	291.45	41.43	-38.0	-39.8	21.0	0.00e+00	0	42	0	2256535552	47	4448
2026-01-13 12:50:28.25	291.98	41.25	-38.0	-39.8	21.0	0.00e+00	0	42	0	2263875584	47	4448
2026-01-13 12:50:28.97	292.28	41.15	-37.9	-39.6	21.2	0.00e+00	0	42	0	2268069888	47	4357
2026-01-13 12:50:30.25	292.81	40.97	-37.7	-39.4	21.3	0.00e+00	0	42	0	2275409920	47	4272
2026-01-13 12:50:30.96	293.10	40.87	-37.6	-39.3	21.4	0.00e+00	0	42	0	2279604224	47	4216
2026-01-13 12:50:32.24	293.62	40.69	-37.7	-39.4	21.3	0.00e+00	0	42	0	2286944256	47	4284
2026-01-13 12:50:33.00	293.93	40.58	-37.9	-39.7	21.1	0.00e+00	0	42	0	2291138560	47	4403
2026-01-13 12:50:34.28	294.44	40.40	-38.3	-40.1	20.7	0.00e+00	0	42	0	2298478592	47	4605
2026-01-13 12:50:35.00	294.72	40.29	-38.2	-40.0	20.8	0.00e+00	0	42	0	2301624320	47	4547
2026-01-13 12:50:36.29	295.22	40.11	-38.0	-39.8	21.0	0.00e+00	0	42	0	2308964352	47	4456
2026-01-13 12:50:37.00	295.50	40.00	-37.9	-39.6	21.1	0.00e+00	0	42	0	2313158656	47	4391
2026-01-13 12:50:38.28	295.99	39.81	-37.7	-39.4	21.3	0.00e+00	0	42	0	2320498688	47	4254
2026-01-13 12:50:38.99	296.26	39.71	-37.6	-39.3	21.4	0.00e+00	0	41	0	2324692992	47	4200
2026-01-13 12:50:40.27	296.74	39.52	-37.7	-39.4	21.2	0.00e+00	0	42	0	2332033024	47	4267
2026-01-13 12:50:40.98	297.01	39.41	-37.7	-39.5	21.2	0.00e+00	0	42	0	2335178752	47	4298
2026-01-13 12:50:42.26	297.48	39.22	-37.6	-39.3	21.4	0.00e+00	0	42	0	2342518784	47	4231
2026-01-13 12:50:42.97	297.74	39.11	-37.6	-39.3	21.3	0.00e+00	0	42	0	2346713088	47	4238
2026-01-13 12:50:44.25	298.21	38.92	-37.6	-39.3	21.3	0.00e+00	0	41	0	2354053120	47	4234
2026-01-13 12:50:44.96	298.47	38.81	-37.6	-39.3	21.3	0.00e+00	0	42	0	2358247424	47	4239
2026-01-13 12:50:46.24	298.92	38.61	-37.6	-39.4	21.3	0.00e+00	0	42	0	2365587456	47	4246
2026-01-13 12:50:46.98	299.19	38.50	-37.7	-39.4	21.3	0.00e+00	0	42	0	2369781760	47	4277
2026-01-13 12:50:48.26	299.63	38.30	-37.7	-39.4	21.3	0.00e+00	0	42	0	2376073216	47	4278
2026-01-13 12:50:48.97	299.88	38.19	-37.8	-39.5	21.2	0.00e+00	0	42	0	2380267520	47	4295
2026-01-13 12:50:50.25	300.32	38.00	-37.8	-39.5	21.2	0.00e+00	0	42	0	2387607552	47	4323
2026-01-13 12:50:51.06	300.60	37.87	-37.7	-39.4	21.2	0.00e+00	0	41	0	2391801856	47	4291
2026-01-13 12:50:52.50	301.08	37.65	-37.6	-39.3	21.4	0.00e+00	0	42	0	2400190464	47	4219
2026-01-13 12:50:53.21	301.32	37.54	-37.6	-39.3	21.4	0.00e+00	0	42	0	2404384768	47	4222
2026-01-13 12:50:54.49	301.74	37.34	-37.6	-39.3	21.4	0.00e+00	0	42	0	2411724800	47	4224
2026-01-13 12:50:55.20	301.98	37.22	-37.6	-39.3	21.3	0.00e+00	0	42	0	2415919104	47	4233
2026-01-13 12:50:56.74	302.47	36.98	-37.8	-39.5	21.2	0.00e+00	0	42	0	2424307712	47	4340
2026-01-13 12:50:57.45	302.70	36.87	-37.9	-39.7	21.0	0.00e+00	0	42	0	2428502016	47	4398
2026-01-13 12:50:58.73	303.11	36.67	-37.9	-39.6	21.1	0.00e+00	0	42	0	2435842048	47	4370
2026-01-13 12:50:59.44	303.33	36.56	-37.9	-39.6	21.1	0.00e+00	0	42	0	2438987776	47	4354
2026-01-13 12:51:00.73	303.73	36.36	-37.8	-39.5	21.2	0.00e+00	0	42	0	2446327808	47	4317
2026-01-13 12:51:01.43	303.95	36.25	-37.7	-39.4	21.3	0.00e+00	0	42	0	2450522112	47	4269
2026-01-13 12:51:02.72	304.34	36.04	-37.8	-39.5	21.2	0.00e+00	0	42	0	2457862144	47	4334
2026-01-13 12:51:03.43	304.56	35.93	-37.9	-39.7	21.1	0.00e+00	0	42	0	2462056448	47	4396
2026-01-13 12:51:04.71	304.94	35.73	-38.1	-39.9	20.9	0.00e+00	0	42	0	2469396480	47	4513
2026-01-13 12:51:05.53	305.19	35.60	-38.1	-39.9	20.8	0.00e+00	0	42	0	2473590784	47	4531
2026-01-13 12:51:06.66	305.52	35.42	-38.1	-39.9	20.9	0.00e+00	0	41	0	2479882240	47	4501
2026-01-13 12:51:07.71	305.82	35.25	-38.0	-39.7	21.0	0.00e+00	0	42	0	2486173696	47	4422
2026-01-13 12:51:08.67	306.10	35.10	-37.9	-39.7	21.1	0.00e+00	0	42	0	2491416576	47	4397
2026-01-13 12:51:09.67	306.39	34.94	-37.8	-39.6	21.1	0.00e+00	0	42	0	2496659456	47	4343
2026-01-13 12:51:10.66	306.67	34.79	-37.9	-39.6	21.1	0.00e+00	0	42	0	2501902336	47	4358
2026-01-13 12:51:11.65	306.94	34.63	-37.8	-39.6	21.1	0.00e+00	0	42	0	2508193792	47	4343
2026-01-13 12:51:12.65	307.22	34.47	-37.9	-39.6	21.1	0.00e+00	0	42	0	2513436672	47	4383
2026-01-13 12:51:13.65	307.50	34.31	-37.7	-39.5	21.2	0.00e+00	0	42	0	2519728128	47	4297
2026-01-13 12:51:14.64	307.77	34.16	-37.7	-39.5	21.2	0.00e+00	0	42	0	2524971008	47	4298
2026-01-13 12:51:15.63	308.03	34.00	-37.7	-39.4	21.3	0.00e+00	0	42	0	2530213888	47	4260
2026-01-13 12:51:16.63	308.30	33.84	-37.7	-39.5	21.2	0.00e+00	0	41	0	2536505344	47	4293
2026-01-13 12:51:17.62	308.56	33.69	-37.8	-39.5	21.2	0.00e+00	0	42	0	2541748224	47	4336
2026-01-13 12:51:18.62	308.82	33.53	-37.9	-39.7	21.0	0.00e+00	0	42	0	2546991104	47	4404
2026-01-13 12:51:19.61	309.08	33.37	-38.1	-39.8	20.9	0.00e+00	0	42	0	2553282560	47	4473
2026-01-13 12:51:20.67	309.35	33.21	-38.1	-39.8	20.9	0.00e+00	0	42	0	2558525440	47	4485
2026-01-13 12:51:21.54	309.58	33.07	-38.0	-39.8	21.0	0.00e+00	0	42	0	2563768320	47	4450
2026-01-13 12:51:22.68	309.86	32.89	-38.0	-39.7	21.0	0.00e+00	0	41	0	2570059776	47	4430
2026-01-13 12:51:23.61	310.10	32.75	-37.8	-39.5	21.2	0.00e+00	0	42	0	2575302656	47	4321
2026-01-13 12:51:24.61	310.34	32.59	-37.9	-39.6	21.1	0.00e+00	0	41	0	2580545536	47	4347
2026-01-13 12:51:25.82	310.64	32.40	-37.9	-39.6	21.1	0.00e+00	0	42	0	2587885568	47	4350
2026-01-13 12:51:26.69	310.85	32.27	-37.8	-39.5	21.2	0.00e+00	0	42	0	2593128448	47	4331
2026-01-13 12:51:27.99	311.16	32.07	-37.9	-39.7	21.0	0.00e+00	0	41	0	2600468480	47	4398
2026-01-13 12:51:28.70	311.33	31.96	-38.0	-39.8	20.9	0.00e+00	0	41	0	2603614208	47	4466
2026-01-13 12:51:29.98	311.64	31.76	-38.2	-40.0	20.8	0.00e+00	0	42	0	2610954240	47	4561
2026-01-13 12:51:30.69	311.80	31.65	-38.2	-40.0	20.8	0.00e+00	0	42	0	2615148544	47	4571
2026-01-13 12:51:31.99	312.10	31.45	-38.3	-40.1	20.7	0.00e+00	0	42	0	2622488576	47	4614
2026-01-13 12:51:32.70	312.27	31.34	-38.2	-40.0	20.7	0.00e+00	0	42	0	2626682880	47	4572
2026-01-13 12:51:33.98	312.56	31.14	-38.0	-39.7	21.0	0.00e+00	0	42	0	2634022912	47	4431
2026-01-13 12:51:34.72	312.72	31.03	-38.1	-39.8	20.9	0.00e+00	0	41	0	2638217216	47	4479
2026-01-13 12:51:36.00	313.01	30.83	-38.1	-39.8	20.9	0.00e+00	0	42	0	2644508672	47	4474
2026-01-13 12:51:36.72	313.17	30.72	-38.0	-39.8	20.9	0.00e+00	0	42	0	2649751552	47	4451
2026-01-13 12:51:38.00	313.45	30.53	-38.3	-40.0	20.7	0.00e+00	0	42	0	2656043008	47	4592
2026-01-13 12:51:38.75	313.61	30.42	-38.3	-40.1	20.7	0.00e+00	0	42	0	2660237312	47	4608
2026-01-13 12:51:40.02	313.88	30.22	-38.4	-40.2	20.6	0.00e+00	0	42	0	2667577344	47	4669
2026-01-13 12:51:40.73	314.03	30.12	-38.5	-40.3	20.4	0.00e+00	0	42	0	2671771648	47	4727
2026-01-13 12:51:42.19	314.34	29.90	-38.5	-40.3	20.5	0.00e+00	0	41	0	2680160256	47	4722
2026-01-13 12:51:43.14	314.54	29.75	-38.3	-40.0	20.7	0.00e+00	0	41	0	2685403136	47	4589
2026-01-13 12:51:44.44	314.81	29.56	-38.0	-39.8	20.9	0.00e+00	0	42	0	2692743168	47	4471
2026-01-13 12:51:45.19	314.96	29.45	-38.1	-39.8	20.9	0.00e+00	0	42	0	2696937472	47	4477
2026-01-13 12:51:46.47	315.22	29.26	-37.9	-39.6	21.1	0.00e+00	0	42	0	2704277504	47	4389
2026-01-13 12:51:47.19	315.37	29.15	-37.8	-39.6	21.1	0.00e+00	0	42	0	2708471808	47	4348
2026-01-13 12:51:48.47	315.62	28.96	-37.9	-39.6	21.1	0.00e+00	0	41	0	2715811840	47	4364
2026-01-13 12:51:49.19	315.76	28.85	-37.7	-39.5	21.2	0.00e+00	0	41	0	2718957568	47	4295
2026-01-13 12:51:50.47	316.01	28.67	-37.9	-39.6	21.1	0.00e+00	0	41	0	2726297600	47	4379
2026-01-13 12:51:51.18	316.15	28.56	-37.9	-39.6	21.1	0.00e+00	0	42	0	2730491904	47	4385
2026-01-13 12:51:52.46	316.39	28.37	-38.0	-39.8	21.0	0.00e+00	0	42	0	2737831936	47	4447
2026-01-13 12:51:53.20	316.54	28.27	-38.0	-39.8	20.9	0.00e+00	0	42	0	2742026240	47	4470
2026-01-13 12:51:54.48	316.78	28.08	-38.2	-40.0	20.7	0.00e+00	0	42	0	2749366272	47	4553
2026-01-13 12:51:55.20	316.91	27.98	-38.2	-40.0	20.7	0.00e+00	0	41	0	2752512000	47	4565
2026-01-13 12:51:56.47	317.15	27.79	-38.3	-40.1	20.7	0.00e+00	0	42	0	2759852032	47	4599
2026-01-13 12:51:57.19	317.28	27.69	-38.3	-40.1	20.7	0.00e+00	0	42	0	2764046336	47	4616
2026-01-13 12:51:58.64	317.54	27.48	-38.3	-40.0	20.7	0.00e+00	0	42	0	2772434944	47	4597
2026-01-13 12:51:59.35	317.67	27.38	-38.3	-40.0	20.7	0.00e+00	0	42	0	2776629248	47	4594
2026-01-13 12:52:00.63	317.90	27.20	-38.2	-40.0	20.7	0.00e+00	0	42	0	2783969280	47	4575
2026-01-13 12:52:01.34	318.03	27.10	-38.3	-40.1	20.7	0.00e+00	0	41	0	2787115008	47	4600
2026-01-13 12:52:02.73	318.27	26.90	-38.3	-40.1	20.7	0.00e+00	0	42	0	2795503616	47	4603
2026-01-13 12:52:03.44	318.39	26.80	-38.3	-40.0	20.7	0.00e+00	0	42	0	2799697920	47	4598
2026-01-13 12:52:04.72	318.61	26.62	-38.4	-40.2	20.6	0.00e+00	0	42	0	2807037952	47	4656
2026-01-13 12:52:05.43	318.73	26.52	-38.4	-40.2	20.6	0.00e+00	0	42	0	2810183680	47	4668
2026-01-13 12:52:06.71	318.95	26.34	-38.5	-40.3	20.4	0.00e+00	0	42	0	2817523712	47	4748
2026-01-13 12:52:07.42	319.07	26.24	-38.5	-40.3	20.5	0.00e+00	0	42	0	2821718016	47	4726
2026-01-13 12:52:08.70	319.28	26.06	-38.5	-40.3	20.4	0.00e+00	0	42	0	2829058048	47	4739
2026-01-13 12:52:09.42	319.40	25.96	-38.4	-40.2	20.5	0.00e+00	0	42	0	2833252352	47	4674
2026-01-13 12:52:10.70	319.61	25.79	-38.6	-40.4	20.4	0.00e+00	0	42	0	2840592384	47	4762
2026-01-13 12:52:11.48	319.74	25.68	-38.4	-40.2	20.5	0.00e+00	0	42	0	2844786688	47	4687
2026-01-13 12:52:12.76	319.95	25.51	-38.4	-40.1	20.6	0.00e+00	0	42	0	2852126720	47	4643
2026-01-13 12:52:13.47	320.06	25.41	-38.3	-40.1	20.6	0.00e+00	0	41	0	2856321024	47	4614
2026-01-13 12:52:14.75	320.26	25.23	-38.3	-40.0	20.7	0.00e+00	0	42	0	2862612480	47	4583
2026-01-13 12:52:15.48	320.38	25.14	-38.3	-40.0	20.7	0.00e+00	0	41	0	2866806784	47	4586
2026-01-13 12:52:16.75	320.57	24.96	-38.3	-40.1	20.6	0.00e+00	0	42	0	2874146816	47	4630
2026-01-13 12:52:17.67	320.72	24.84	-38.4	-40.2	20.5	0.00e+00	0	42	0	2879389696	47	4661
2026-01-13 12:52:18.97	320.91	24.67	-38.6	-40.4	20.3	0.00e+00	0	41	0	2886729728	47	4783
2026-01-13 12:52:19.68	321.02	24.57	-38.7	-40.5	20.3	0.00e+00	0	42	0	2890924032	47	4833
2026-01-13 12:52:20.96	321.21	24.40	-38.9	-40.7	20.3	0.00e+00	0	41	0	2898264064	48	4677
2026-01-13 12:52:21.67	321.32	24.31	-38.9	-40.8	20.2	0.00e+00	0	42	0	2902458368	48	4724
2026-01-13 12:52:22.95	321.51	24.14	-39.0	-40.9	20.2	0.00e+00	0	42	0	2908749824	48	4771
2026-01-13 12:52:23.67	321.61	24.04	-39.0	-40.8	20.2	0.00e+00	0	42	0	2912944128	48	4753
2026-01-13 12:52:24.96	321.80	23.88	-39.0	-40.8	20.2	0.00e+00	0	42	0	2920284160	48	4753
2026-01-13 12:52:25.69	321.91	23.78	-39.0	-40.8	20.2	0.00e+00	0	42	0	2924478464	48	4743
2026-01-13 12:52:26.97	322.09	23.61	-38.8	-40.7	20.3	0.00e+00	0	41	0	2931818496	48	4655
2026-01-13 12:52:27.69	322.19	23.52	-38.8	-40.6	20.4	0.00e+00	0	41	0	2936012800	48	4628
2026-01-13 12:52:28.96	322.37	23.36	-38.9	-40.6	20.3	0.00e+00	0	41	0	2943352832	48	4650
2026-01-13 12:52:29.67	322.47	23.27	-38.8	-40.6	20.3	0.00e+00	0	42	0	2947547136	48	4606
2026-01-13 12:52:30.96	322.65	23.10	-38.8	-40.5	20.4	0.00e+00	0	42	0	2953838592	48	4573
2026-01-13 12:52:31.68	322.75	23.01	-38.8	-40.5	20.4	0.00e+00	0	42	0	2958032896	48	4580
2026-01-13 12:52:32.96	322.92	22.84	-38.8	-40.6	20.4	0.00e+00	0	42	0	2965372928	48	4627
2026-01-13 12:52:33.68	323.02	22.75	-38.9	-40.6	20.4	0.00e+00	0	42	0	2969567232	48	4634
2026-01-13 12:52:34.96	323.19	22.59	-39.0	-40.7	20.3	0.00e+00	0	42	0	2976907264	48	4701
2026-01-13 12:52:35.69	323.29	22.50	-39.0	-40.8	20.2	0.00e+00	0	41	0	2981101568	48	4734
2026-01-13 12:52:37.22	323.49	22.31	-39.2	-41.0	20.0	0.00e+00	0	42	0	2989490176	49	4574
2026-01-13 12:52:37.93	323.59	22.22	-39.2	-41.1	20.0	0.00e+00	0	42	0	2993684480	49	4608
2026-01-13 12:52:39.21	323.75	22.06	-39.4	-41.2	19.8	0.00e+00	0	42	0	3001024512	49	4696
2026-01-13 12:52:39.92	323.84	21.97	-39.4	-41.3	19.8	0.00e+00	0	42	0	3005218816	49	4720
2026-01-13 12:52:41.20	324.01	21.82	-39.5	-41.3	19.5	0.00e+00	0	42	0	3011510272	49	4732
2026-01-13 12:52:41.91	324.10	21.73	-39.4	-41.2	19.8	0.00e+00	0	42	0	3015704576	49	4681
2026-01-13 12:52:43.19	324.26	21.57	-39.4	-41.3	19.8	0.00e+00	0	42	0	3023044608	49	4719
2026-01-13 12:52:43.92	324.35	21.48	-39.4	-41.2	19.8	0.00e+00	0	41	0	3027238912	49	4695
2026-01-13 12:52:45.19	324.51	21.33	-39.4	-41.3	19.8	0.00e+00	0	42	0	3034578944	49	4710
2026-01-13 12:52:45.94	324.60	21.24	-39.4	-41.2	19.8	0.00e+00	0	42	0	3038773248	49	4688
2026-01-13 12:52:47.22	324.76	21.08	-39.3	-41.1	19.9	0.00e+00	0	42	0	3046113280	49	4643
2026-01-13 12:52:47.93	324.84	21.00	-39.3	-41.2	19.8	0.00e+00	0	41	0	3049259008	49	4693
2026-01-13 12:52:49.21	325.00	20.84	-39.3	-41.2	19.8	0.00e+00	0	42	0	3056599040	49	4681
2026-01-13 12:52:49.93	325.08	20.76	-39.4	-41.3	19.7	0.00e+00	0	42	0	3060793344	49	4728
2026-01-13 12:52:51.22	325.24	20.61	-39.5	-41.4	19.6	0.00e+00	0	41	0	3068133376	49	4786
2026-01-13 12:52:51.94	325.32	20.52	-39.6	-41.5	19.6	0.00e+00	0	41	0	3072327680	49	4817
2026-01-13 12:52:53.24	325.47	20.37	-39.6	-41.5	19.5	0.00e+00	0	42	0	3079667712	49	4830
2026-01-13 12:52:53.95	325.56	20.28	-39.7	-41.5	19.5	0.00e+00	0	42	0	3083862016	49	4861
2026-01-13 12:52:55.22	325.70	20.13	-39.7	-41.6	19.5	0.00e+00	0	41	0	3091202048	50	4626
2026-01-13 12:52:55.95	325.79	20.05	-39.7	-41.6	19.4	0.00e+00	0	41	0	3094347776	50	4626
2026-01-13 12:52:57.23	325.93	19.90	-39.8	-41.6	19.4	0.00e+00	0	42	0	3101687808	50	4623
2026-01-13 12:52:57.94	326.01	19.82	-39.7	-41.6	19.5	0.00e+00	0	42	0	3105882112	50	4607
2026-01-13 12:52:59.22	326.15	19.67	-39.8	-41.7	19.4	0.00e+00	0	41	0	3113222144	50	4666
2026-01-13 12:52:59.93	326.23	19.59	-39.7	-41.6	19.4	0.00e+00	0	42	0	3117416448	50	4633
2026-01-13 12:53:01.21	326.38	19.44	-39.6	-41.5	19.6	0.00e+00	0	42	0	3124756480	50	4549
2026-01-13 12:53:01.92	326.45	19.36	-39.6	-41.4	19.6	0.00e+00	0	41	0	3128950784	50	4534
2026-01-13 12:53:03.20	326.59	19.22	-39.7	-41.6	19.5	0.00e+00	0	41	0	3135242240	50	4610
2026-01-13 12:53:03.99	326.68	19.13	-39.6	-41.5	19.5	0.00e+00	0	41	0	3140485120	50	4571
2026-01-13 12:53:05.20	326.81	18.99	-39.6	-41.5	19.6	0.00e+00	0	42	0	3146776576	50	4556
2026-01-13 12:53:06.05	326.90	18.90	-39.7	-41.6	19.5	0.00e+00	0	41	0	3152019456	50	4603
2026-01-13 12:53:07.19	327.02	18.77	-39.7	-41.6	19.4	0.00e+00	0	42	0	3158310912	50	4650
2026-01-13 12:53:08.04	327.11	18.67	-39.8	-41.7	19.3	0.00e+00	0	42	0	3162505216	50	4700
2026-01-13 12:53:09.18	327.23	18.55	-39.9	-41.8	19.2	0.00e+00	0	42	0	3168796672	50	4757
2026-01-13 12:53:10.03	327.31	18.45	-39.9	-41.9	19.1	0.00e+00	0	42	0	3174039552	50	4809
2026-01-13 12:53:11.17	327.43	18.33	-40.0	-42.0	19.1	0.00e+00	0	42	0	3180331008	50	4834
2026-01-13 12:53:12.32	327.55	18.20	-40.1	-42.1	19.0	0.00e+00	0	42	0	3186622464	50	4878
2026-01-13 12:53:13.35	327.65	18.09	-40.1	-42.1	19.0	0.00e+00	0	42	0	3192913920	50	4900
2026-01-13 12:53:14.34	327.75	17.98	-40.2	-42.2	18.9	0.00e+00	0	42	0	3198156800	51	4681
2026-01-13 12:53:15.33	327.85	17.87	-40.4	-42.4	18.7	0.00e+00	0	42	0	3203399680	51	4762
2026-01-13 12:53:16.33	327.95	17.77	-40.4	-42.4	18.7	0.00e+00	0	42	0	3209691136	51	4774
2026-01-13 12:53:17.32	328.05	17.66	-40.2	-42.1	18.9	0.00e+00	0	42	0	3214934016	51	4636
2026-01-13 12:53:18.32	328.15	17.55	-40.3	-42.2	18.9	0.00e+00	0	41	0	3221225472	51	4686
2026-01-13 12:53:19.31	328.24	17.45	-40.3	-42.2	18.8	0.00e+00	0	42	0	3226468352	51	4694
2026-01-13 12:53:20.31	328.34	17.34	-40.3	-42.2	18.8	0.00e+00	0	42	0	3231711232	51	4702
2026-01-13 12:53:21.30	328.43	17.23	-40.3	-42.3	18.8	0.00e+00	0	41	0	3236954112	51	4732
2026-01-13 12:53:22.30	328.53	17.13	-40.3	-42.2	18.8	0.00e+00	0	41	0	3243245568	51	4685
2026-01-13 12:53:23.29	328.62	17.02	-40.3	-42.2	18.8	0.00e+00	0	42	0	3248488448	51	4702
2026-01-13 12:53:24.29	328.72	16.92	-40.2	-42.2	18.9	0.00e+00	0	41	0	3253731328	51	4654
2026-01-13 12:53:25.28	328.81	16.82	-40.3	-42.2	18.8	0.00e+00	0	42	0	3260022784	51	4690
2026-01-13 12:53:26.32	328.90	16.71	-40.4	-42.4	18.7	0.00e+00	0	41	0	3265265664	51	4763
2026-01-13 12:53:27.37	329.00	16.60	-40.4	-42.4	18.7	0.00e+00	0	42	0	3271557120	51	4768
2026-01-13 12:53:28.31	329.09	16.50	-40.4	-42.3	18.7	0.00e+00	0	42	0	3276800000	51	4754
2026-01-13 12:53:29.40	329.19	16.39	-40.5	-42.4	18.6	0.00e+00	0	41	0	3283091456	51	4799
2026-01-13 12:53:30.26	329.26	16.30	-40.5	-42.5	18.5	0.00e+00	0	42	0	3287285760	51	4844
2026-01-13 12:53:31.58	329.38	16.17	-40.6	-42.6	18.4	0.00e+00	0	42	0	3295674368	51	4901
2026-01-13 12:53:32.29	329.45	16.09	-40.6	-42.6	18.5	0.00e+00	0	41	0	3298820096	51	4880
2026-01-13 12:53:33.58	329.56	15.96	-40.6	-42.6	18.4	0.00e+00	0	42	0	3306160128	52	4629
2026-01-13 12:53:34.28	329.62	15.89	-40.7	-42.7	18.3	0.00e+00	0	41	0	3310354432	52	4659
2026-01-13 12:53:35.56	329.73	15.76	-40.6	-42.6	18.4	0.00e+00	0	42	0	3317694464	52	4629
2026-01-13 12:53:36.29	329.80	15.69	-40.7	-42.6	18.3	0.00e+00	0	42	0	3321888768	52	4647
2026-01-13 12:53:37.57	329.91	15.56	-40.6	-42.6	18.4	0.00e+00	0	42	0	3329228800	52	4615
2026-01-13 12:53:38.32	329.97	15.49	-40.7	-42.7	18.3	0.00e+00	0	41	0	3333423104	52	4661
2026-01-13 12:53:39.60	330.08	15.36	-40.6	-42.6	18.4	0.00e+00	0	41	0	3340763136	52	4607
2026-01-13 12:53:40.32	330.14	15.29	-40.5	-42.5	18.4	0.00e+00	0	41	0	3343908864	52	4579
2026-01-13 12:53:41.59	330.25	15.16	-40.6	-42.6	18.4	0.00e+00	0	41	0	3351248896	52	4601
2026-01-13 12:53:42.32	330.31	15.09	-40.6	-42.6	18.4	0.00e+00	0	41	0	3355443200	52	4618
2026-01-13 12:53:43.60	330.41	14.97	-40.5	-42.4	18.5	0.00e+00	0	41	0	3362783232	52	4519
2026-01-13 12:53:44.33	330.48	14.89	-40.6	-42.5	18.4	0.00e+00	0	41	0	3366977536	52	4577
2026-01-13 12:53:45.61	330.58	14.77	-40.6	-42.5	18.4	0.00e+00	0	41	0	3374317568	52	4584
2026-01-13 12:53:46.32	330.64	14.70	-40.6	-42.6	18.4	0.00e+00	0	41	0	3378511872	52	4615
2026-01-13 12:53:47.60	330.74	14.58	-40.6	-42.6	18.3	0.00e+00	0	41	0	3384803328	52	4622
2026-01-13 12:53:48.31	330.80	14.51	-40.5	-42.5	18.4	0.00e+00	0	41	0	3388997632	52	4578
2026-01-13 12:53:49.67	330.91	14.38	-40.6	-42.6	18.4	0.00e+00	0	41	0	3397386240	52	4619
2026-01-13 12:53:50.38	330.96	14.31	-40.7	-42.7	18.2	0.00e+00	0	41	0	3400531968	52	4662
2026-01-13 12:53:51.66	331.07	14.19	-40.7	-42.7	18.2	0.00e+00	0	42	0	3407872000	52	4703
2026-01-13 12:53:52.37	331.12	14.12	-40.7	-42.8	18.1	0.00e+00	0	42	0	3412066304	52	4717
2026-01-13 12:53:53.77	331.23	13.99	-40.9	-43.0	18.0	0.00e+00	0	42	0	3420454912	52	4822
2026-01-13 12:53:54.48	331.29	13.92	-40.9	-43.0	18.0	0.00e+00	0	42	0	3423600640	52	4822
2026-01-13 12:53:55.83	331.39	13.79	-41.0	-43.2	17.8	0.00e+00	0	42	0	3431989248	52	4927
2026-01-13 12:53:56.54	331.44	13.73	-41.0	-43.1	17.8	0.00e+00	0	42	0	3435134976	52	4923
2026-01-13 12:53:57.82	331.54	13.61	-41.2	-43.3	17.7	0.00e+00	0	42	0	3442475008	52	4999
2026-01-13 12:53:58.53	331.60	13.54	-41.1	-43.3	17.7	0.00e+00	0	41	0	3446669312	52	4987
2026-01-13 12:53:59.81	331.69	13.42	-41.2	-43.4	17.6	0.00e+00	0	42	0	3454009344	53	4763
2026-01-13 12:54:00.52	331.74	13.36	-41.4	-43.5	17.4	0.00e+00	0	42	0	3458203648	53	4851
2026-01-13 12:54:01.80	331.84	13.24	-41.4	-43.5	17.5	0.00e+00	0	41	0	3465543680	53	4835
2026-01-13 12:54:02.53	331.89	13.17	-41.5	-43.6	17.4	0.00e+00	0	41	0	3469737984	53	4892
2026-01-13 12:54:03.81	331.99	13.06	-41.5	-43.6	17.4	0.00e+00	0	42	0	3476029440	53	4884
2026-01-13 12:54:04.53	332.04	12.99	-41.5	-43.6	17.4	0.00e+00	0	41	0	3480223744	53	4901
2026-01-13 12:54:05.81	332.13	12.87	-41.6	-43.7	17.2	0.00e+00	0	42	0	3487563776	53	4968
2026-01-13 12:54:06.52	332.19	12.81	-41.6	-43.8	17.2	0.00e+00	0	41	0	3491758080	53	4989
2026-01-13 12:54:07.82	332.28	12.69	-41.5	-43.6	17.3	0.00e+00	0	41	0	3499098112	53	4925
2026-01-13 12:54:08.53	332.33	12.63	-41.4	-43.6	17.4	0.00e+00	0	41	0	3503292416	53	4874
2026-01-13 12:54:09.81	332.42	12.51	-41.3	-43.5	17.4	0.00e+00	0	41	0	3510632448	53	4848
2026-01-13 12:54:10.52	332.47	12.45	-41.4	-43.6	17.4	0.00e+00	0	41	0	3514826752	53	4873
2026-01-13 12:54:11.80	332.56	12.34	-41.3	-43.5	17.4	0.00e+00	0	41	0	3521118208	53	4857
2026-01-13 12:54:12.51	332.61	12.27	-41.3	-43.5	17.4	0.00e+00	0	41	0	3525312512	53	4848
2026-01-13 12:54:13.79	332.70	12.16	-41.3	-43.5	17.5	0.00e+00	0	41	0	3532652544	53	4823
2026-01-13 12:54:14.50	332.75	12.10	-41.4	-43.5	17.4	0.00e+00	0	41	0	3536846848	53	4851
2026-01-13 12:54:15.78	332.84	11.99	-41.4	-43.6	17.3	0.00e+00	0	41	0	3544186880	53	4877
2026-01-13 12:54:16.49	332.88	11.92	-41.3	-43.5	17.4	0.00e+00	0	41	0	3547332608	53	4840
2026-01-13 12:54:17.77	332.97	11.81	-41.5	-43.6	17.3	0.00e+00	0	41	0	3554672640	53	4925
2026-01-13 12:54:18.48	333.02	11.75	-41.5	-43.7	17.3	0.00e+00	0	41	0	3558866944	53	4929
2026-01-13 12:54:19.76	333.11	11.64	-41.4	-43.6	17.3	0.00e+00	0	41	0	3566206976	53	4886
2026-01-13 12:54:20.50	333.15	11.57	-41.4	-43.6	17.3	0.00e+00	0	41	0	3570401280	53	4885
2026-01-13 12:54:21.78	333.24	11.46	-41.6	-43.7	17.2	0.00e+00	0	41	0	3577741312	53	4958
2026-01-13 12:54:22.49	333.29	11.40	-41.5	-43.6	17.3	0.00e+00	0	41	0	3581935616	53	4908
2026-01-13 12:54:23.77	333.37	11.29	-41.6	-43.7	17.2	0.00e+00	0	41	0	3589275648	53	4969
2026-01-13 12:54:24.59	333.42	11.22	-41.6	-43.8	17.1	0.00e+00	0	41	0	3593469952	53	5023
2026-01-13 12:54:26.03	333.52	11.10	-41.7	-43.9	17.0	0.00e+00	0	41	0	3601858560	54	4760
2026-01-13 12:54:26.74	333.56	11.04	-41.7	-43.9	17.1	0.00e+00	0	42	0	3605004288	54	4765
2026-01-13 12:54:28.22	333.66	10.92	-41.7	-43.9	17.0	0.00e+00	0	42	0	3613392896	54	4798
2026-01-13 12:54:28.94	333.70	10.86	-41.7	-43.9	17.0	0.00e+00	0	41	0	3617587200	54	4774
2026-01-13 12:54:30.21	333.79	10.75	-41.7	-43.9	16.9	0.00e+00	0	42	0	3624927232	54	4814
2026-01-13 12:54:31.29	333.85	10.66	-41.7	-43.9	17.0	0.00e+00	0	41	0	3631218688	54	4808
2026-01-13 12:54:32.14	333.91	10.59	-41.6	-43.9	17.0	0.00e+00	0	41	0	3635412992	54	4768
2026-01-13 12:54:33.28	333.98	10.49	-41.8	-44.0	16.8	0.00e+00	0	42	0	3642753024	54	4867
2026-01-13 12:54:34.13	334.03	10.42	-41.8	-44.1	16.8	0.00e+00	0	42	0	3646947328	54	4876
2026-01-13 12:54:35.30	334.10	10.33	-41.7	-43.9	16.9	0.00e+00	0	41	0	3653238784	54	4810
2026-01-13 12:54:36.15	334.16	10.26	-41.7	-44.0	16.9	0.00e+00	0	41	0	3658481664	54	4817
