passes_logs/2026/01/13/T1/T1__20260113_214445_NOAA_21_JPSS-2_rec.log

#Pass ID: 20260113_214445_NOAA 21 (JPSS-2)
#Satellite: NOAA 21 (JPSS-2)
#Configuration: NOAA 21
#almurnet v.1.7.20251203
#Start time: 2026-01-13 21:44:45

#Version: 2.0.20230620
#Station: T1
#Location: 37.570604 lon 55.790049 lat
#TLE: 1 54234U 22150A   26013.18009385  .00000056  00000+0  47387-4 0  9997
#TLE: 2 54234  98.7496 314.1019 0000691 303.8246  56.2864 14.19534466164559

#Time	Az	El	Level	Level2	SNR	BER	BlckErr	Temp	State	Recorded	gain1	gain2
2026-01-13 21:44:45.86	35.78	5.00	-49.6	-62.9	3.8	1.49e+00	0	38	0	0	71	15969
2026-01-13 21:44:46.85	35.89	5.04	-49.6	-62.9	3.8	1.49e+00	0	38	104	0	69	17982
2026-01-13 21:44:47.84	36.00	5.09	-49.6	-62.9	3.8	1.49e+00	0	38	104	0	69	17967
2026-01-13 21:44:48.83	36.11	5.14	-49.6	-62.9	3.8	1.49e+00	0	38	104	0	69	17975
2026-01-13 21:44:49.83	36.22	5.19	-49.6	-62.9	3.8	1.49e+00	0	38	104	0	69	17909
2026-01-13 21:44:50.82	36.33	5.24	-49.6	-62.9	3.8	1.49e+00	0	38	104	0	69	17889
2026-01-13 21:44:51.81	36.44	5.29	-49.6	-62.8	3.8	1.49e+00	0	38	104	0	69	17888
2026-01-13 21:44:52.81	36.56	5.33	-49.6	-62.9	3.8	1.49e+00	0	38	104	0	69	17999
2026-01-13 21:44:53.80	36.67	5.38	-49.6	-62.8	3.8	1.49e+00	0	38	104	0	69	17880
2026-01-13 21:44:54.80	36.78	5.43	-49.6	-62.8	3.8	1.49e+00	0	38	104	0	69	17881
2026-01-13 21:44:55.79	36.89	5.48	-49.6	-62.9	3.8	1.49e+00	0	38	104	0	69	17905
2026-01-13 21:44:56.78	37.00	5.53	-49.6	-62.9	3.8	1.49e+00	0	38	104	0	69	17926
2026-01-13 21:44:57.77	37.12	5.58	-49.6	-62.9	3.8	1.49e+00	0	39	104	0	69	18006
2026-01-13 21:44:58.77	37.23	5.62	-49.6	-62.8	3.8	1.49e+00	0	39	104	0	69	17874
2026-01-13 21:44:59.76	37.34	5.67	-49.6	-62.9	3.8	1.49e+00	0	39	104	0	69	17929
2026-01-13 21:45:00.75	37.46	5.72	-49.6	-62.8	3.8	1.49e+00	0	39	104	0	69	17855
2026-01-13 21:45:01.75	37.57	5.77	-49.6	-62.9	3.8	1.49e+00	0	39	104	0	69	17937
2026-01-13 21:45:02.74	37.69	5.82	-49.6	-62.9	3.8	1.49e+00	0	39	104	0	69	17922
2026-01-13 21:45:03.73	37.80	5.86	-49.6	-62.9	3.8	1.49e+00	0	39	104	0	69	17948
2026-01-13 21:45:04.73	37.92	5.91	-49.6	-62.9	3.8	1.49e+00	0	39	104	0	69	17895
2026-01-13 21:45:05.72	38.04	5.96	-49.6	-62.9	3.8	1.49e+00	0	39	104	0	69	17940
2026-01-13 21:45:06.72	38.15	6.01	-49.6	-62.9	3.8	1.49e+00	0	39	104	0	69	17927
2026-01-13 21:45:07.71	38.27	6.06	-49.6	-62.9	3.8	1.49e+00	0	39	104	0	69	17910
2026-01-13 21:45:08.70	38.39	6.11	-49.6	-62.9	3.8	1.49e+00	0	39	104	0	69	17915
2026-01-13 21:45:09.70	38.50	6.15	-49.6	-62.9	3.8	1.49e+00	0	39	104	0	69	17968
2026-01-13 21:45:10.69	38.62	6.20	-49.6	-62.8	3.8	1.49e+00	0	39	104	0	69	17861
2026-01-13 21:45:11.68	38.74	6.25	-49.6	-62.8	3.8	1.49e+00	0	39	104	0	69	17831
2026-01-13 21:45:12.68	38.86	6.30	-49.6	-62.9	3.8	1.49e+00	0	39	104	0	69	17902
2026-01-13 21:45:13.67	38.98	6.35	-49.6	-62.9	3.8	1.49e+00	0	39	104	0	69	17890
2026-01-13 21:45:14.66	39.10	6.40	-49.6	-62.8	3.8	1.49e+00	0	39	104	0	69	17871
2026-01-13 21:45:15.66	39.22	6.44	-49.6	-62.9	3.8	1.49e+00	0	39	104	0	69	17920
2026-01-13 21:45:16.65	39.34	6.49	-49.6	-62.8	3.8	1.49e+00	0	39	104	0	69	17855
2026-01-13 21:45:17.64	39.46	6.54	-49.6	-62.8	3.8	1.49e+00	0	39	104	0	69	17837
2026-01-13 21:45:18.64	39.58	6.59	-49.6	-62.8	3.8	1.49e+00	0	39	104	0	69	17775
2026-01-13 21:45:19.63	39.70	6.64	-49.6	-62.8	3.8	1.49e+00	0	39	104	0	69	17869
2026-01-13 21:45:20.62	39.82	6.68	-49.6	-62.8	3.8	1.49e+00	0	39	104	0	69	17830
2026-01-13 21:45:21.62	39.94	6.73	-49.6	-62.8	3.8	1.49e+00	0	39	104	0	69	17870
2026-01-13 21:45:22.61	40.07	6.78	-49.6	-62.8	3.8	1.49e+00	0	39	104	0	69	17849
2026-01-13 21:45:23.60	40.19	6.83	-49.6	-62.8	3.8	1.49e+00	0	39	104	0	69	17857
2026-01-13 21:45:24.60	40.31	6.88	-49.6	-62.8	3.8	1.49e+00	0	39	104	0	69	17762
2026-01-13 21:45:25.59	40.44	6.92	-49.6	-62.8	3.8	1.49e+00	0	39	104	0	69	17800
2026-01-13 21:45:26.58	40.56	6.97	-49.6	-62.8	3.8	1.49e+00	0	39	104	0	69	17762
2026-01-13 21:45:27.58	40.69	7.02	-49.6	-62.8	3.8	1.49e+00	0	39	104	0	69	17778
2026-01-13 21:45:28.57	40.81	7.07	-49.6	-62.8	3.8	1.49e+00	0	39	104	0	69	17872
2026-01-13 21:45:29.56	40.93	7.12	-49.6	-62.9	3.8	1.49e+00	0	39	104	0	69	17966
2026-01-13 21:45:30.56	41.06	7.16	-49.6	-62.8	3.8	1.49e+00	0	39	104	0	69	17868
2026-01-13 21:45:31.55	41.19	7.21	-49.6	-62.9	3.8	1.49e+00	0	39	104	0	69	17919
2026-01-13 21:45:32.54	41.31	7.26	-49.6	-62.8	3.8	1.49e+00	0	39	104	0	69	17882
2026-01-13 21:45:33.54	41.44	7.31	-49.6	-62.8	3.8	1.49e+00	0	40	104	0	69	17855
2026-01-13 21:45:34.53	41.57	7.36	-49.6	-62.8	3.8	1.49e+00	0	40	104	0	69	17822
2026-01-13 21:45:35.52	41.69	7.40	-49.6	-62.8	3.8	1.49e+00	0	40	104	0	69	17804
2026-01-13 21:45:36.52	41.82	7.45	-49.6	-62.8	3.8	1.49e+00	0	40	104	0	69	17854
2026-01-13 21:45:37.51	41.95	7.50	-49.6	-62.8	3.8	1.49e+00	0	40	104	0	69	17798
2026-01-13 21:45:38.50	42.08	7.55	-49.6	-62.8	3.8	1.49e+00	0	39	104	0	69	17748
2026-01-13 21:45:39.50	42.21	7.59	-49.6	-62.8	3.8	1.49e+00	0	40	104	0	69	17745
2026-01-13 21:45:40.49	42.34	7.64	-49.6	-62.8	3.8	1.49e+00	0	40	104	0	69	17707
2026-01-13 21:45:41.48	42.47	7.69	-49.6	-62.7	3.8	1.49e+00	0	40	104	0	69	17579
2026-01-13 21:45:42.48	42.60	7.74	-49.6	-62.7	3.8	1.49e+00	0	40	104	0	69	17585
2026-01-13 21:45:43.47	42.73	7.78	-49.6	-62.8	3.8	1.49e+00	0	40	104	0	69	17771
2026-01-13 21:45:44.46	42.86	7.83	-49.6	-62.8	3.8	1.49e+00	0	39	104	0	69	17755
2026-01-13 21:45:45.46	42.99	7.88	-49.6	-62.8	3.8	1.49e+00	0	40	104	0	69	17862
2026-01-13 21:45:46.45	43.13	7.93	-49.6	-62.8	3.8	1.49e+00	0	40	104	0	69	17851
2026-01-13 21:45:47.44	43.26	7.97	-49.6	-62.9	3.8	1.49e+00	0	40	104	0	69	17945
2026-01-13 21:45:48.43	43.39	8.02	-49.6	-62.8	3.8	1.49e+00	0	39	104	0	69	17879
2026-01-13 21:45:49.43	43.53	8.07	-49.6	-62.9	3.8	1.49e+00	0	40	104	0	69	17890
2026-01-13 21:45:50.42	43.66	8.11	-49.6	-62.9	3.8	1.49e+00	0	40	104	0	69	17899
2026-01-13 21:45:51.41	43.79	8.16	-49.6	-62.8	3.8	1.49e+00	0	40	104	0	69	17800
2026-01-13 21:45:52.41	43.93	8.21	-49.6	-62.8	3.8	1.49e+00	0	40	104	0	69	17739
2026-01-13 21:45:53.40	44.06	8.26	-49.6	-62.8	3.8	1.49e+00	0	40	104	0	69	17735
2026-01-13 21:45:54.40	44.20	8.30	-49.6	-62.7	3.8	1.49e+00	0	40	104	0	69	17661
2026-01-13 21:45:55.39	44.33	8.35	-49.6	-62.8	3.8	1.49e+00	0	40	104	0	69	17774
2026-01-13 21:45:56.38	44.47	8.40	-49.6	-62.8	3.8	1.49e+00	0	40	104	0	69	17776
2026-01-13 21:45:57.38	44.61	8.44	-49.6	-62.8	3.8	1.49e+00	0	40	104	0	69	17749
2026-01-13 21:45:58.37	44.75	8.49	-49.6	-62.8	3.8	1.49e+00	0	40	104	0	69	17722
2026-01-13 21:45:59.36	44.88	8.54	-49.6	-62.8	3.8	1.49e+00	0	40	104	0	69	17733
2026-01-13 21:46:00.36	45.02	8.58	-49.6	-62.8	3.8	1.49e+00	0	40	104	0	69	17843
2026-01-13 21:46:01.35	45.16	8.63	-49.6	-62.8	3.8	1.49e+00	0	40	104	0	69	17836
2026-01-13 21:46:02.34	45.30	8.68	-49.6	-62.8	3.8	1.49e+00	0	40	104	0	69	17878
2026-01-13 21:46:03.34	45.44	8.72	-49.6	-62.8	3.8	1.49e+00	0	40	104	0	69	17752
2026-01-13 21:46:04.33	45.58	8.77	-49.6	-62.7	3.8	1.49e+00	0	40	104	0	69	17680
2026-01-13 21:46:05.32	45.72	8.82	-49.6	-62.6	3.8	1.49e+00	0	40	104	0	69	17467
2026-01-13 21:46:06.31	45.86	8.86	-49.5	-62.5	3.8	1.49e+00	0	40	104	0	69	17146
2026-01-13 21:46:07.31	46.00	8.91	-49.5	-62.4	3.8	1.49e+00	0	40	104	0	69	16996
2026-01-13 21:46:08.30	46.14	8.96	-49.5	-62.3	3.8	1.49e+00	0	40	104	0	69	16717
2026-01-13 21:46:09.29	46.28	9.00	-49.5	-62.3	3.8	1.49e+00	0	40	104	0	69	16885
2026-01-13 21:46:10.29	46.43	9.05	-49.5	-62.1	3.8	1.49e+00	0	40	104	0	69	16383
2026-01-13 21:46:11.28	46.57	9.09	-49.6	-62.7	3.8	1.49e+00	0	40	104	0	69	17550
2026-01-13 21:46:12.28	46.71	9.14	-49.4	-61.1	3.9	1.49e+00	0	40	104	0	69	14685
2026-01-13 21:46:13.27	46.86	9.19	-47.9	-53.5	7.9	6.34e-02	0	40	0	0	67	6852
2026-01-13 21:46:14.27	47.00	9.23	-49.0	-57.2	5.0	1.40e+00	0	40	104	0	69	9331
2026-01-13 21:46:15.26	47.14	9.28	-45.8	-49.2	12.3	3.50e-04	0	40	0	0	63	5273
2026-01-13 21:46:16.26	47.29	9.32	-45.8	-49.2	12.4	2.55e-04	0	40	0	0	63	5244
2026-01-13 21:46:17.25	47.44	9.37	-45.4	-48.6	13.0	5.64e-05	0	40	0	0	62	5190
2026-01-13 21:46:18.25	47.58	9.42	-45.2	-48.3	13.3	2.74e-05	0	40	0	0	62	5028
2026-01-13 21:46:19.24	47.73	9.46	-44.8	-47.7	13.9	6.10e-06	0	40	0	0	61	4957
2026-01-13 21:46:20.30	47.88	9.51	-45.0	-47.9	13.7	3.80e-06	0	40	0	0	61	5099
2026-01-13 21:46:21.18	48.02	9.55	-44.7	-47.5	14.1	5.30e-06	0	40	0	0	61	4833
2026-01-13 21:46:22.32	48.18	9.60	-44.3	-46.9	14.7	7.00e-07	0	40	0	0	60	4807
2026-01-13 21:46:23.17	48.31	9.64	-44.1	-46.7	15.0	0.00e+00	0	40	0	0	60	4670
2026-01-13 21:46:24.56	48.52	9.70	-44.0	-46.5	15.1	0.00e+00	0	40	0	0	59	4869
2026-01-13 21:46:25.27	48.63	9.73	-43.9	-46.4	15.3	0.00e+00	0	40	0	0	59	4766
2026-01-13 21:46:26.56	48.82	9.79	-43.7	-46.1	15.5	0.00e+00	0	40	0	0	59	4650
2026-01-13 21:46:27.27	48.93	9.83	-43.8	-46.2	15.5	0.00e+00	0	40	0	0	59	4676
2026-01-13 21:46:28.54	49.12	9.88	-43.9	-46.3	15.3	0.00e+00	0	40	0	0	59	4746
2026-01-13 21:46:29.26	49.23	9.91	-43.8	-46.2	15.4	0.00e+00	0	40	0	0	59	4696
2026-01-13 21:46:30.53	49.42	9.97	-43.8	-46.3	15.4	0.00e+00	0	40	0	0	59	4736
2026-01-13 21:46:31.25	49.53	10.00	-43.8	-46.3	15.4	0.00e+00	0	40	0	0	59	4716
2026-01-13 21:46:32.53	49.73	10.06	-43.9	-46.3	15.4	0.00e+00	0	40	0	0	59	4726
2026-01-13 21:46:33.24	49.84	10.09	-43.8	-46.2	15.4	0.00e+00	0	40	0	0	59	4688
2026-01-13 21:46:34.52	50.04	10.15	-43.8	-46.2	15.4	0.00e+00	0	40	0	0	59	4684
2026-01-13 21:46:35.24	50.15	10.18	-43.9	-46.3	15.4	0.00e+00	0	40	0	0	59	4729
2026-01-13 21:46:36.52	50.35	10.24	-43.9	-46.3	15.3	0.00e+00	0	40	0	0	59	4748
2026-01-13 21:46:37.23	50.46	10.27	-43.9	-46.4	15.3	0.00e+00	0	40	0	0	59	4761
2026-01-13 21:46:38.51	50.66	10.33	-43.9	-46.4	15.2	0.00e+00	0	40	0	0	59	4796
2026-01-13 21:46:39.22	50.77	10.36	-43.8	-46.3	15.4	0.00e+00	0	40	0	0	59	4727
2026-01-13 21:46:40.50	50.97	10.41	-43.7	-46.0	15.7	0.00e+00	0	40	0	0	59	4588
2026-01-13 21:46:41.23	51.08	10.44	-43.7	-46.1	15.6	0.00e+00	0	40	0	0	59	4601
2026-01-13 21:46:42.50	51.28	10.50	-43.8	-46.1	15.5	0.00e+00	0	40	0	0	59	4649
2026-01-13 21:46:43.22	51.40	10.53	-43.8	-46.2	15.6	0.00e+00	0	40	0	0	59	4658
2026-01-13 21:46:44.50	51.60	10.59	-43.8	-46.1	15.6	0.00e+00	0	40	0	0	59	4648
2026-01-13 21:46:45.21	51.71	10.62	-43.7	-46.0	15.7	0.00e+00	0	40	0	0	59	4589
2026-01-13 21:46:46.49	51.92	10.67	-43.5	-45.9	15.8	0.00e+00	0	40	0	0	59	4510
2026-01-13 21:46:47.20	52.03	10.70	-43.7	-46.1	15.6	0.00e+00	0	40	0	0	59	4641
2026-01-13 21:46:48.48	52.24	10.76	-43.8	-46.2	15.5	0.00e+00	0	40	0	0	59	4699
2026-01-13 21:46:49.19	52.35	10.79	-43.8	-46.2	15.6	0.00e+00	0	40	0	0	59	4655
2026-01-13 21:46:50.47	52.56	10.84	-43.5	-45.8	15.9	0.00e+00	0	40	0	0	59	4486
2026-01-13 21:46:51.18	52.67	10.87	-43.5	-45.8	15.9	0.00e+00	0	40	0	0	58	4749
2026-01-13 21:46:52.46	52.88	10.93	-43.5	-45.9	15.8	0.00e+00	0	40	0	0	58	4780
2026-01-13 21:46:53.17	53.00	10.96	-43.6	-46.0	15.8	0.00e+00	0	40	0	0	58	4816
2026-01-13 21:46:54.48	53.21	11.01	-43.5	-45.8	15.9	0.00e+00	0	40	0	0	58	4722
2026-01-13 21:46:55.20	53.33	11.04	-43.4	-45.7	16.0	0.00e+00	0	40	0	0	58	4694
2026-01-13 21:46:56.55	53.55	11.10	-43.5	-45.8	15.9	0.00e+00	0	40	0	0	58	4737
2026-01-13 21:46:57.27	53.67	11.13	-43.5	-45.8	15.9	0.00e+00	0	41	0	0	58	4744
2026-01-13 21:46:58.61	53.89	11.19	-43.6	-46.0	15.7	0.00e+00	0	40	0	0	58	4837
2026-01-13 21:46:59.32	54.01	11.21	-43.7	-46.0	15.7	0.00e+00	0	40	0	0	58	4870
2026-01-13 21:47:00.60	54.22	11.27	-43.8	-46.2	15.6	0.00e+00	0	40	0	0	58	4934
2026-01-13 21:47:01.31	54.34	11.30	-43.7	-46.0	15.7	0.00e+00	0	40	0	0	58	4862
2026-01-13 21:47:02.71	54.57	11.35	-43.7	-46.0	15.7	0.00e+00	0	40	0	0	58	4868
2026-01-13 21:47:03.43	54.69	11.38	-43.8	-46.2	15.6	0.00e+00	0	40	0	0	58	4934
2026-01-13 21:47:04.70	54.91	11.44	-43.7	-46.1	15.7	0.00e+00	0	40	0	0	58	4919
2026-01-13 21:47:05.43	55.03	11.46	-43.8	-46.2	15.6	0.00e+00	0	40	0	0	58	4959
2026-01-13 21:47:06.71	55.25	11.52	-43.7	-46.1	15.7	0.00e+00	0	40	0	0	58	4886
2026-01-13 21:47:07.45	55.37	11.55	-43.8	-46.2	15.6	0.00e+00	0	40	0	0	58	4930
2026-01-13 21:47:08.73	55.59	11.60	-43.8	-46.1	15.6	0.00e+00	0	40	0	0	58	4919
2026-01-13 21:47:09.44	55.71	11.63	-43.8	-46.2	15.6	0.00e+00	0	40	0	0	58	4948
2026-01-13 21:47:10.72	55.93	11.68	-43.7	-46.0	15.7	0.00e+00	0	40	0	0	58	4861
2026-01-13 21:47:11.43	56.05	11.71	-43.7	-46.0	15.7	0.00e+00	0	40	0	0	58	4845
2026-01-13 21:47:12.71	56.27	11.76	-43.6	-45.9	15.8	0.00e+00	0	40	0	0	58	4785
2026-01-13 21:47:13.44	56.39	11.78	-43.6	-46.0	15.8	0.00e+00	0	40	0	0	58	4815
2026-01-13 21:47:14.72	56.62	11.83	-43.6	-45.9	15.8	7.00e-07	0	40	0	0	58	4809
2026-01-13 21:47:15.43	56.74	11.86	-43.7	-46.0	15.8	0.00e+00	0	40	0	0	58	4842
2026-01-13 21:47:16.71	56.96	11.91	-43.7	-46.1	15.7	0.00e+00	0	40	0	0	58	4880
2026-01-13 21:47:17.61	57.12	11.95	-43.6	-45.9	15.9	0.00e+00	0	40	0	0	58	4767
2026-01-13 21:47:19.00	57.36	12.00	-43.5	-45.8	15.9	0.00e+00	0	40	0	0	58	4742
2026-01-13 21:47:19.71	57.48	12.03	-43.5	-45.8	15.9	0.00e+00	0	40	0	0	58	4749
2026-01-13 21:47:21.21	57.75	12.08	-43.5	-45.9	15.9	0.00e+00	0	40	0	0	58	4763
2026-01-13 21:47:21.92	57.87	12.11	-43.4	-45.7	16.0	0.00e+00	0	41	0	0	58	4694
2026-01-13 21:47:23.20	58.10	12.16	-43.4	-45.6	16.1	0.00e+00	0	40	0	0	58	4625
2026-01-13 21:47:23.91	58.22	12.18	-43.5	-45.7	16.0	0.00e+00	0	40	0	0	58	4699
2026-01-13 21:47:25.19	58.45	12.23	-43.5	-45.8	16.0	0.00e+00	0	40	0	0	58	4724
2026-01-13 21:47:25.90	58.58	12.26	-43.6	-45.9	15.8	0.00e+00	0	40	0	0	58	4772
2026-01-13 21:47:27.18	58.80	12.31	-43.5	-45.8	15.9	0.00e+00	0	40	0	0	58	4753
2026-01-13 21:47:27.91	58.93	12.33	-43.5	-45.7	16.0	0.00e+00	0	40	0	0	58	4704
2026-01-13 21:47:29.19	59.16	12.38	-43.5	-45.8	15.9	0.00e+00	0	40	0	0	58	4747
2026-01-13 21:47:29.96	59.30	12.41	-43.5	-45.8	15.9	0.00e+00	0	41	0	0	58	4746
2026-01-13 21:47:31.22	59.53	12.45	-43.5	-45.8	15.9	0.00e+00	0	40	0	0	58	4735
2026-01-13 21:47:32.03	59.67	12.48	-43.6	-45.9	15.9	0.00e+00	0	40	0	0	58	4794
2026-01-13 21:47:33.16	59.88	12.52	-43.5	-45.8	16.0	0.00e+00	0	40	0	0	58	4734
2026-01-13 21:47:34.02	60.03	12.55	-43.5	-45.8	16.0	0.00e+00	0	40	0	0	58	4717
2026-01-13 21:47:35.15	60.24	12.59	-43.5	-45.7	16.0	0.00e+00	0	40	0	0	58	4699
2026-01-13 21:47:36.01	60.39	12.62	-43.4	-45.7	16.0	0.00e+00	0	40	0	0	58	4681
2026-01-13 21:47:37.14	60.60	12.66	-43.5	-45.8	16.0	0.00e+00	0	40	0	0	58	4735
2026-01-13 21:47:38.31	60.81	12.70	-43.5	-45.8	16.0	0.00e+00	0	40	0	0	58	4734
2026-01-13 21:47:39.16	60.97	12.73	-43.5	-45.8	15.9	0.00e+00	0	40	0	0	58	4721
2026-01-13 21:47:40.30	61.18	12.77	-43.5	-45.8	16.0	0.00e+00	0	40	0	0	58	4723
2026-01-13 21:47:41.16	61.34	12.80	-43.5	-45.8	16.0	0.00e+00	0	40	0	0	58	4713
2026-01-13 21:47:42.30	61.55	12.84	-43.5	-45.8	16.0	0.00e+00	0	40	0	0	58	4751
2026-01-13 21:47:43.15	61.71	12.87	-43.6	-45.9	15.9	0.00e+00	0	40	0	0	58	4776
2026-01-13 21:47:44.28	61.92	12.90	-43.5	-45.8	16.0	0.00e+00	0	40	0	0	58	4730
2026-01-13 21:47:45.14	62.07	12.93	-43.5	-45.8	16.0	0.00e+00	0	40	0	0	58	4714
2026-01-13 21:47:46.31	62.29	12.97	-43.4	-45.7	16.1	0.00e+00	0	40	0	0	58	4669
2026-01-13 21:47:47.16	62.45	13.00	-43.5	-45.8	16.0	0.00e+00	0	40	0	0	58	4720
2026-01-13 21:47:48.36	62.68	13.04	-43.3	-45.6	16.2	0.00e+00	0	40	0	0	58	4615
2026-01-13 21:47:49.21	62.83	13.06	-43.3	-45.5	16.2	0.00e+00	0	40	0	0	58	4582
2026-01-13 21:47:50.41	63.06	13.10	-43.3	-45.6	16.2	0.00e+00	0	40	0	0	58	4617
2026-01-13 21:47:51.27	63.22	13.13	-43.5	-45.7	16.1	0.00e+00	0	40	0	0	58	4698
2026-01-13 21:47:52.47	63.45	13.17	-43.4	-45.6	16.1	0.00e+00	0	41	0	0	58	4642
2026-01-13 21:47:53.32	63.61	13.19	-43.4	-45.6	16.1	0.00e+00	0	41	0	0	58	4647
2026-01-13 21:47:54.52	63.84	13.23	-43.4	-45.7	16.1	0.00e+00	0	40	0	0	58	4659
2026-01-13 21:47:55.37	64.00	13.26	-43.4	-45.6	16.1	0.00e+00	0	40	0	0	58	4617
2026-01-13 21:47:56.57	64.23	13.29	-43.3	-45.5	16.3	0.00e+00	0	40	0	0	58	4564
2026-01-13 21:47:57.43	64.39	13.32	-43.2	-45.4	16.3	0.00e+00	0	40	0	0	58	4538
2026-01-13 21:47:58.56	64.61	13.35	-43.1	-45.3	16.5	0.00e+00	0	40	0	0	58	4447
2026-01-13 21:47:59.41	64.77	13.38	-43.1	-45.3	16.4	0.00e+00	0	40	0	0	58	4492
2026-01-13 21:48:00.55	64.99	13.41	-43.2	-45.4	16.4	0.00e+00	0	40	0	0	58	4517
2026-01-13 21:48:01.41	65.15	13.44	-43.2	-45.5	16.3	0.00e+00	0	40	0	0	58	4554
2026-01-13 21:48:02.54	65.37	13.47	-43.3	-45.5	16.3	0.00e+00	0	40	0	0	58	4576
2026-01-13 21:48:03.39	65.53	13.49	-43.3	-45.5	16.3	0.00e+00	0	40	0	0	58	4579
2026-01-13 21:48:04.53	65.75	13.53	-43.3	-45.5	16.2	0.00e+00	0	40	0	0	58	4580
2026-01-13 21:48:05.38	65.92	13.55	-43.4	-45.6	16.2	0.00e+00	0	40	0	0	58	4637
2026-01-13 21:48:06.52	66.14	13.58	-43.4	-45.7	16.1	0.00e+00	0	40	0	0	58	4675
2026-01-13 21:48:07.37	66.30	13.60	-43.4	-45.6	16.2	0.00e+00	0	40	0	0	58	4627
2026-01-13 21:48:08.51	66.53	13.64	-43.3	-45.5	16.3	0.00e+00	0	40	0	0	58	4593
2026-01-13 21:48:09.36	66.69	13.66	-43.2	-45.4	16.3	0.00e+00	0	40	0	0	58	4539
2026-01-13 21:48:10.50	66.91	13.69	-43.1	-45.3	16.5	0.00e+00	0	40	0	0	58	4458
2026-01-13 21:48:11.35	67.08	13.71	-43.1	-45.3	16.5	0.00e+00	0	40	0	0	58	4463
2026-01-13 21:48:12.55	67.32	13.74	-43.1	-45.3	16.4	0.00e+00	0	41	0	0	58	4475
2026-01-13 21:48:13.41	67.49	13.76	-43.1	-45.3	16.5	0.00e+00	0	40	0	0	58	4456
2026-01-13 21:48:14.60	67.72	13.80	-43.2	-45.4	16.4	0.00e+00	0	40	0	0	58	4514
2026-01-13 21:48:15.46	67.89	13.82	-43.2	-45.5	16.3	0.00e+00	0	40	0	0	58	4549
2026-01-13 21:48:16.60	68.11	13.85	-43.1	-45.3	16.5	0.00e+00	0	40	0	0	58	4473
2026-01-13 21:48:17.45	68.28	13.87	-43.2	-45.4	16.4	0.00e+00	0	40	0	0	58	4506
2026-01-13 21:48:18.59	68.51	13.89	-43.2	-45.4	16.4	0.00e+00	0	40	0	0	58	4532
2026-01-13 21:48:19.44	68.68	13.91	-43.1	-45.3	16.5	0.00e+00	0	40	0	0	58	4451
2026-01-13 21:48:20.58	68.90	13.94	-43.1	-45.2	16.6	0.00e+00	0	40	0	0	58	4426
2026-01-13 21:48:21.48	69.08	13.96	-43.1	-45.2	16.6	0.00e+00	0	40	0	0	58	4436
2026-01-13 21:48:22.49	69.28	13.99	-43.0	-45.1	16.7	0.00e+00	0	40	0	0	58	4372
2026-01-13 21:48:23.49	69.48	14.01	-43.0	-45.1	16.7	0.00e+00	0	41	0	0	57	4630
2026-01-13 21:48:24.48	69.68	14.03	-43.1	-45.2	16.5	0.00e+00	0	40	0	0	57	4698
2026-01-13 21:48:25.48	69.88	14.05	-43.2	-45.3	16.4	0.00e+00	0	40	0	0	57	4757
2026-01-13 21:48:26.47	70.08	14.08	-43.2	-45.5	16.3	0.00e+00	0	40	0	0	57	4821
2026-01-13 21:48:27.47	70.28	14.10	-43.3	-45.5	16.2	0.00e+00	0	40	0	0	57	4862
2026-01-13 21:48:28.47	70.48	14.12	-43.2	-45.5	16.3	0.00e+00	0	40	0	0	57	4818
2026-01-13 21:48:29.46	70.68	14.14	-43.2	-45.4	16.3	0.00e+00	0	40	0	0	57	4800
2026-01-13 21:48:30.46	70.88	14.16	-43.1	-45.3	16.5	0.00e+00	0	40	0	0	57	4713
2026-01-13 21:48:31.45	71.08	14.18	-42.9	-45.1	16.7	0.00e+00	0	40	0	0	57	4603
2026-01-13 21:48:32.45	71.28	14.20	-42.9	-45.0	16.7	0.00e+00	0	40	0	0	57	4578
2026-01-13 21:48:33.44	71.48	14.22	-42.9	-45.0	16.7	0.00e+00	0	40	0	0	57	4585
2026-01-13 21:48:34.44	71.69	14.24	-43.0	-45.1	16.6	0.00e+00	0	41	0	0	57	4635
2026-01-13 21:48:35.43	71.89	14.26	-42.9	-45.0	16.7	0.00e+00	0	40	0	0	57	4598
2026-01-13 21:48:36.43	72.09	14.28	-43.0	-45.1	16.7	0.00e+00	0	40	0	0	57	4620
2026-01-13 21:48:37.42	72.29	14.30	-42.9	-45.0	16.7	0.00e+00	0	40	0	0	57	4594
2026-01-13 21:48:38.42	72.50	14.32	-43.0	-45.2	16.6	0.00e+00	0	40	0	0	57	4653
2026-01-13 21:48:39.41	72.70	14.33	-43.0	-45.1	16.7	0.00e+00	0	40	0	0	57	4629
2026-01-13 21:48:40.41	72.90	14.35	-42.9	-45.1	16.6	0.00e+00	0	40	0	0	57	4616
2026-01-13 21:48:41.40	73.10	14.37	-43.0	-45.2	16.6	0.00e+00	0	40	0	0	57	4668
2026-01-13 21:48:42.40	73.31	14.39	-43.0	-45.2	16.6	0.00e+00	0	40	0	0	57	4673
2026-01-13 21:48:43.40	73.51	14.40	-43.0	-45.2	16.6	0.00e+00	0	41	0	0	57	4669
2026-01-13 21:48:44.39	73.72	14.42	-43.0	-45.2	16.5	0.00e+00	0	40	0	0	57	4676
2026-01-13 21:48:45.39	73.92	14.43	-43.1	-45.3	16.5	0.00e+00	0	40	0	0	57	4714
2026-01-13 21:48:46.38	74.13	14.45	-43.1	-45.3	16.4	0.00e+00	0	40	0	0	57	4732
2026-01-13 21:48:47.38	74.33	14.47	-43.1	-45.3	16.5	0.00e+00	0	40	0	0	57	4731
2026-01-13 21:48:48.37	74.54	14.48	-43.1	-45.3	16.5	0.00e+00	0	40	0	0	57	4724
2026-01-13 21:48:49.42	74.75	14.50	-43.0	-45.2	16.6	0.00e+00	0	40	0	0	57	4692
2026-01-13 21:48:50.41	74.96	14.51	-43.1	-45.3	16.5	0.00e+00	0	40	0	0	57	4711
2026-01-13 21:48:51.41	75.16	14.52	-43.1	-45.3	16.5	0.00e+00	0	41	0	0	57	4743
2026-01-13 21:48:52.40	75.37	14.54	-43.3	-45.5	16.3	0.00e+00	0	41	0	0	57	4824
2026-01-13 21:48:53.39	75.57	14.55	-43.3	-45.5	16.3	0.00e+00	0	41	0	0	57	4845
2026-01-13 21:48:54.39	75.78	14.56	-43.3	-45.5	16.3	0.00e+00	0	40	0	0	57	4862
2026-01-13 21:48:55.38	75.99	14.58	-43.3	-45.6	16.3	0.00e+00	0	40	0	0	57	4877
2026-01-13 21:48:56.38	76.19	14.59	-43.3	-45.6	16.2	0.00e+00	0	40	0	0	57	4899
2026-01-13 21:48:57.37	76.40	14.60	-43.3	-45.5	16.3	0.00e+00	0	40	0	0	57	4865
2026-01-13 21:48:58.37	76.61	14.61	-43.3	-45.5	16.3	0.00e+00	0	40	0	0	57	4829
2026-01-13 21:48:59.36	76.81	14.62	-43.3	-45.5	16.3	0.00e+00	0	41	0	0	57	4830
2026-01-13 21:49:00.36	77.02	14.63	-43.0	-45.2	16.6	0.00e+00	0	40	0	0	57	4678
2026-01-13 21:49:01.35	77.23	14.65	-43.1	-45.2	16.5	0.00e+00	0	40	0	0	57	4692
2026-01-13 21:49:02.34	77.43	14.66	-43.1	-45.3	16.5	0.00e+00	0	40	0	0	57	4747
2026-01-13 21:49:03.34	77.64	14.67	-43.1	-45.2	16.6	0.00e+00	0	40	0	0	57	4696
2026-01-13 21:49:04.33	77.85	14.67	-43.1	-45.2	16.6	0.00e+00	0	40	0	0	57	4686
2026-01-13 21:49:05.33	78.06	14.68	-43.1	-45.3	16.6	0.00e+00	0	40	0	0	57	4713
2026-01-13 21:49:06.36	78.27	14.69	-43.2	-45.4	16.4	0.00e+00	0	40	0	0	57	4778
2026-01-13 21:49:07.35	78.48	14.70	-43.2	-45.4	16.4	0.00e+00	0	40	0	0	57	4769
2026-01-13 21:49:08.41	78.70	14.71	-43.2	-45.4	16.4	0.00e+00	0	40	0	0	57	4811
2026-01-13 21:49:09.31	78.89	14.72	-43.2	-45.5	16.4	0.00e+00	0	40	0	0	57	4828
2026-01-13 21:49:10.58	79.16	14.73	-43.2	-45.5	16.4	0.00e+00	0	40	0	0	57	4818
2026-01-13 21:49:11.73	79.40	14.73	-43.3	-45.5	16.3	0.00e+00	0	40	0	0	57	4857
2026-01-13 21:49:12.87	79.64	14.74	-43.3	-45.5	16.3	0.00e+00	0	40	0	0	57	4859
2026-01-13 21:49:13.72	79.82	14.75	-43.3	-45.5	16.3	0.00e+00	0	40	0	0	57	4849
2026-01-13 21:49:14.86	80.06	14.75	-43.3	-45.6	16.2	0.00e+00	0	40	0	0	57	4906
2026-01-13 21:49:15.71	80.23	14.76	-43.3	-45.5	16.3	0.00e+00	0	40	0	0	57	4841
2026-01-13 21:49:16.85	80.47	14.77	-43.2	-45.4	16.4	0.00e+00	0	40	0	0	57	4789
2026-01-13 21:49:17.70	80.65	14.77	-43.1	-45.3	16.5	0.00e+00	0	40	0	0	57	4734
2026-01-13 21:49:18.84	80.89	14.77	-43.0	-45.2	16.6	0.00e+00	0	40	0	0	57	4696
2026-01-13 21:49:19.69	81.07	14.78	-43.0	-45.3	16.5	0.00e+00	0	40	0	0	57	4723
2026-01-13 21:49:20.95	81.34	14.78	-43.0	-45.2	16.6	0.00e+00	0	40	0	0	57	4703
2026-01-13 21:49:21.74	81.50	14.79	-43.1	-45.4	16.5	0.00e+00	0	40	0	0	57	4762
2026-01-13 21:49:22.92	81.75	14.79	-43.0	-45.2	16.6	0.00e+00	0	40	0	0	57	4680
2026-01-13 21:49:23.77	81.93	14.79	-43.0	-45.2	16.6	0.00e+00	0	40	0	0	57	4682
2026-01-13 21:49:24.90	82.17	14.79	-43.1	-45.3	16.5	0.00e+00	0	40	0	0	57	4734
2026-01-13 21:49:25.76	82.35	14.80	-43.1	-45.3	16.5	0.00e+00	0	41	0	0	57	4754
2026-01-13 21:49:26.89	82.59	14.80	-43.0	-45.1	16.7	0.00e+00	0	41	0	0	57	4649
2026-01-13 21:49:27.74	82.77	14.80	-42.9	-45.1	16.7	0.00e+00	0	40	0	0	57	4599
2026-01-13 21:49:28.88	83.01	14.80	-42.9	-45.0	16.8	0.00e+00	0	40	0	0	57	4584
2026-01-13 21:49:29.73	83.18	14.80	-42.8	-45.0	16.8	0.00e+00	0	40	0	0	57	4551
2026-01-13 21:49:30.87	83.42	14.80	-42.8	-44.9	16.8	0.00e+00	0	40	0	0	57	4532
2026-01-13 21:49:31.72	83.60	14.80	-42.7	-44.9	16.9	0.00e+00	0	40	0	0	57	4500
2026-01-13 21:49:32.86	83.84	14.80	-42.7	-44.9	16.9	0.00e+00	0	40	0	0	57	4514
2026-01-13 21:49:33.71	84.02	14.80	-42.7	-44.9	16.9	0.00e+00	0	40	0	0	57	4507
2026-01-13 21:49:34.85	84.26	14.80	-42.8	-45.0	16.8	0.00e+00	0	40	0	0	57	4581
2026-01-13 21:49:35.70	84.44	14.80	-42.8	-45.0	16.8	0.00e+00	0	40	0	0	57	4589
2026-01-13 21:49:36.91	84.70	14.79	-42.8	-45.0	16.8	0.00e+00	0	40	0	0	57	4587
2026-01-13 21:49:37.76	84.88	14.79	-43.0	-45.2	16.7	0.00e+00	0	40	0	0	57	4674
2026-01-13 21:49:38.90	85.12	14.79	-43.0	-45.2	16.6	0.00e+00	0	40	0	0	57	4684
2026-01-13 21:49:39.75	85.30	14.79	-43.0	-45.3	16.5	0.00e+00	0	40	0	0	57	4728
2026-01-13 21:49:40.99	85.56	14.78	-43.1	-45.3	16.5	0.00e+00	0	40	0	0	57	4741
2026-01-13 21:49:41.84	85.74	14.78	-43.0	-45.3	16.5	0.00e+00	0	40	0	0	57	4723
2026-01-13 21:49:43.04	85.99	14.77	-43.1	-45.3	16.5	0.00e+00	0	40	0	0	57	4736
2026-01-13 21:49:43.89	86.17	14.77	-43.1	-45.4	16.4	0.00e+00	0	40	0	0	57	4802
2026-01-13 21:49:45.03	86.41	14.76	-43.1	-45.4	16.4	0.00e+00	0	40	0	0	57	4770
2026-01-13 21:49:45.89	86.59	14.76	-43.1	-45.4	16.4	0.00e+00	0	40	0	0	57	4790
2026-01-13 21:49:47.02	86.82	14.75	-43.4	-45.7	16.1	0.00e+00	0	40	0	0	57	4935
2026-01-13 21:49:47.92	87.01	14.75	-43.1	-45.3	16.4	0.00e+00	0	40	0	0	57	4737
2026-01-13 21:49:48.96	87.23	14.74	-43.0	-45.3	16.5	0.00e+00	0	41	0	0	57	4719
2026-01-13 21:49:49.96	87.44	14.73	-43.0	-45.2	16.6	0.00e+00	0	40	0	0	57	4664
2026-01-13 21:49:50.96	87.65	14.73	-43.0	-45.1	16.6	0.00e+00	0	40	0	0	57	4648
2026-01-13 21:49:51.95	87.86	14.72	-43.0	-45.1	16.6	0.00e+00	0	40	0	0	57	4648
2026-01-13 21:49:52.94	88.07	14.71	-43.1	-45.3	16.5	0.00e+00	0	40	0	0	57	4717
2026-01-13 21:49:53.94	88.28	14.70	-43.1	-45.3	16.5	0.00e+00	0	41	0	0	57	4721
2026-01-13 21:49:54.93	88.48	14.69	-43.1	-45.3	16.5	0.00e+00	0	40	0	0	57	4740
2026-01-13 21:49:55.93	88.69	14.69	-43.2	-45.4	16.4	0.00e+00	0	40	0	0	57	4778
2026-01-13 21:49:56.92	88.90	14.68	-43.2	-45.4	16.4	0.00e+00	0	40	0	0	57	4785
2026-01-13 21:49:57.92	89.11	14.67	-43.1	-45.3	16.5	0.00e+00	0	40	0	0	57	4735
2026-01-13 21:49:58.91	89.32	14.66	-43.1	-45.3	16.5	0.00e+00	0	40	0	0	57	4729
2026-01-13 21:49:59.92	89.53	14.65	-42.9	-45.1	16.6	0.00e+00	0	40	0	0	57	4641
2026-01-13 21:50:00.95	89.74	14.64	-43.0	-45.1	16.7	0.00e+00	0	40	0	0	57	4644
2026-01-13 21:50:01.94	89.95	14.63	-42.9	-45.1	16.7	0.00e+00	0	40	0	0	57	4617
2026-01-13 21:50:02.93	90.15	14.61	-42.9	-45.1	16.7	0.00e+00	0	40	0	0	57	4612
2026-01-13 21:50:03.93	90.36	14.60	-43.0	-45.1	16.7	0.00e+00	0	40	0	0	57	4634
2026-01-13 21:50:04.93	90.57	14.59	-43.0	-45.2	16.6	0.00e+00	0	40	0	0	57	4681
2026-01-13 21:50:05.92	90.78	14.58	-43.0	-45.1	16.7	0.00e+00	0	40	0	0	57	4637
2026-01-13 21:50:06.92	90.98	14.57	-43.0	-45.1	16.7	0.00e+00	0	40	0	0	57	4644
2026-01-13 21:50:07.91	91.19	14.55	-42.9	-45.1	16.8	0.00e+00	0	40	0	0	57	4618
2026-01-13 21:50:08.90	91.40	14.54	-42.9	-45.1	16.7	0.00e+00	0	40	0	0	57	4626
2026-01-13 21:50:09.90	91.60	14.53	-43.0	-45.2	16.6	0.00e+00	0	40	0	0	57	4683
2026-01-13 21:50:10.89	91.81	14.51	-43.1	-45.3	16.5	0.00e+00	0	41	0	0	57	4752
2026-01-13 21:50:11.89	92.01	14.50	-43.1	-45.3	16.5	0.00e+00	0	41	0	0	57	4744
2026-01-13 21:50:12.88	92.22	14.48	-43.2	-45.4	16.5	0.00e+00	0	41	0	0	57	4760
2026-01-13 21:50:13.88	92.43	14.47	-43.3	-45.5	16.4	0.00e+00	0	40	0	0	57	4830
2026-01-13 21:50:14.88	92.63	14.45	-43.2	-45.4	16.4	0.00e+00	0	40	0	0	57	4804
2026-01-13 21:50:15.87	92.84	14.44	-43.2	-45.4	16.5	0.00e+00	0	40	0	0	57	4772
2026-01-13 21:50:16.91	93.05	14.42	-43.2	-45.4	16.5	0.00e+00	0	40	0	0	57	4779
2026-01-13 21:50:17.91	93.26	14.40	-43.2	-45.4	16.5	0.00e+00	0	40	0	0	57	4790
2026-01-13 21:50:18.90	93.46	14.39	-43.3	-45.5	16.4	0.00e+00	0	40	0	0	57	4817
2026-01-13 21:50:19.90	93.66	14.37	-43.1	-45.3	16.6	0.00e+00	0	40	0	0	57	4724
2026-01-13 21:50:20.89	93.87	14.35	-43.1	-45.3	16.6	0.00e+00	0	40	0	0	57	4729
2026-01-13 21:50:21.88	94.07	14.34	-43.1	-45.2	16.6	0.00e+00	0	41	0	0	57	4704
2026-01-13 21:50:22.88	94.27	14.32	-43.1	-45.2	16.6	0.00e+00	0	40	0	0	57	4690
2026-01-13 21:50:23.87	94.48	14.30	-43.1	-45.2	16.6	0.00e+00	0	40	0	0	57	4691
2026-01-13 21:50:24.87	94.68	14.28	-43.1	-45.3	16.5	0.00e+00	0	40	0	0	57	4730
2026-01-13 21:50:25.86	94.88	14.26	-43.1	-45.3	16.6	0.00e+00	0	40	0	0	57	4720
2026-01-13 21:50:26.85	95.08	14.24	-43.1	-45.3	16.6	0.00e+00	0	41	0	0	57	4720
2026-01-13 21:50:27.85	95.29	14.22	-43.2	-45.4	16.5	0.00e+00	0	41	0	0	57	4773
2026-01-13 21:50:28.84	95.49	14.20	-43.2	-45.3	16.5	0.00e+00	0	40	0	0	57	4749
2026-01-13 21:50:29.84	95.69	14.18	-43.2	-45.4	16.5	0.00e+00	0	40	0	0	57	4762
2026-01-13 21:50:30.83	95.89	14.16	-43.1	-45.3	16.6	0.00e+00	0	40	0	0	57	4722
2026-01-13 21:50:31.82	96.09	14.14	-43.0	-45.2	16.7	0.00e+00	0	41	0	0	57	4667
2026-01-13 21:50:32.82	96.29	14.12	-43.0	-45.2	16.7	0.00e+00	0	41	0	0	57	4660
2026-01-13 21:50:33.81	96.49	14.10	-43.1	-45.2	16.6	0.00e+00	0	40	0	0	57	4686
2026-01-13 21:50:34.81	96.70	14.08	-43.0	-45.2	16.7	0.00e+00	0	41	0	0	57	4670
2026-01-13 21:50:35.80	96.89	14.06	-43.0	-45.2	16.7	0.00e+00	0	40	0	0	57	4653
2026-01-13 21:50:36.80	97.10	14.03	-43.1	-45.2	16.6	0.00e+00	0	40	0	0	57	4696
2026-01-13 21:50:37.79	97.29	14.01	-43.0	-45.2	16.7	0.00e+00	0	40	0	0	57	4658
2026-01-13 21:50:38.79	97.49	13.99	-43.0	-45.2	16.7	0.00e+00	0	40	0	0	57	4660
2026-01-13 21:50:39.83	97.70	13.96	-43.1	-45.3	16.6	0.00e+00	0	41	0	0	57	4738
2026-01-13 21:50:40.82	97.90	13.94	-43.2	-45.3	16.5	0.00e+00	0	40	0	0	57	4754
2026-01-13 21:50:41.82	98.10	13.92	-43.1	-45.2	16.6	0.00e+00	0	40	0	0	57	4692
2026-01-13 21:50:42.81	98.30	13.89	-43.0	-45.2	16.6	0.00e+00	0	41	0	0	57	4660
2026-01-13 21:50:43.80	98.49	13.87	-43.1	-45.3	16.6	0.00e+00	0	41	0	0	57	4717
2026-01-13 21:50:44.80	98.69	13.84	-43.1	-45.3	16.5	0.00e+00	0	40	0	0	57	4740
2026-01-13 21:50:45.80	98.89	13.82	-43.1	-45.2	16.6	0.00e+00	0	41	0	0	57	4699
2026-01-13 21:50:46.79	99.09	13.79	-43.1	-45.3	16.5	0.00e+00	0	40	0	0	57	4746
2026-01-13 21:50:47.78	99.28	13.77	-43.2	-45.3	16.5	0.00e+00	0	40	0	0	57	4749
2026-01-13 21:50:48.78	99.48	13.74	-43.2	-45.4	16.4	0.00e+00	0	40	0	0	57	4781
2026-01-13 21:50:49.78	99.67	13.72	-43.2	-45.4	16.4	0.00e+00	0	40	0	0	57	4809
2026-01-13 21:50:50.77	99.87	13.69	-43.1	-45.3	16.5	0.00e+00	0	40	0	0	57	4737
2026-01-13 21:50:51.76	100.06	13.66	-43.2	-45.4	16.4	0.00e+00	0	40	0	0	57	4797
2026-01-13 21:50:52.76	100.26	13.64	-43.3	-45.5	16.4	0.00e+00	0	41	0	0	57	4843
2026-01-13 21:50:53.75	100.45	13.61	-43.3	-45.5	16.3	0.00e+00	0	40	0	0	57	4870
2026-01-13 21:50:54.75	100.65	13.58	-43.3	-45.5	16.4	0.00e+00	0	41	0	0	57	4833
2026-01-13 21:50:55.74	100.84	13.55	-43.3	-45.5	16.3	0.00e+00	0	40	0	0	57	4869
2026-01-13 21:50:56.74	101.03	13.53	-43.3	-45.5	16.3	0.00e+00	0	40	0	0	57	4820
2026-01-13 21:50:57.73	101.23	13.50	-43.2	-45.4	16.4	0.00e+00	0	40	0	0	57	4781
2026-01-13 21:50:58.91	101.45	13.46	-43.3	-45.5	16.3	0.00e+00	0	40	0	0	57	4846
2026-01-13 21:50:59.81	101.63	13.44	-43.2	-45.3	16.5	0.00e+00	0	41	0	0	57	4753
2026-01-13 21:51:00.92	101.84	13.41	-43.1	-45.3	16.5	0.00e+00	0	40	0	0	57	4723
2026-01-13 21:51:01.77	102.01	13.38	-43.2	-45.4	16.4	0.00e+00	0	40	0	0	57	4781
2026-01-13 21:51:02.91	102.23	13.35	-43.1	-45.3	16.5	0.00e+00	0	40	0	0	57	4716
2026-01-13 21:51:03.76	102.39	13.32	-43.2	-45.3	16.5	0.00e+00	0	41	0	0	57	4746
2026-01-13 21:51:04.89	102.60	13.29	-43.1	-45.3	16.5	0.00e+00	0	40	0	0	57	4726
2026-01-13 21:51:05.74	102.77	13.26	-43.0	-45.2	16.7	0.00e+00	0	40	0	0	57	4669
2026-01-13 21:51:06.88	102.98	13.23	-43.1	-45.3	16.5	0.00e+00	0	41	0	0	57	4745
2026-01-13 21:51:07.73	103.15	13.20	-43.2	-45.4	16.4	0.00e+00	0	40	0	0	57	4768
2026-01-13 21:51:08.87	103.36	13.16	-43.1	-45.3	16.5	0.00e+00	0	41	0	0	57	4735
2026-01-13 21:51:09.72	103.52	13.14	-43.1	-45.3	16.5	0.00e+00	0	41	0	0	57	4720
2026-01-13 21:51:10.86	103.74	13.10	-43.0	-45.2	16.6	0.00e+00	0	40	0	0	57	4677
2026-01-13 21:51:11.71	103.90	13.07	-43.0	-45.1	16.7	0.00e+00	0	40	0	0	57	4624
2026-01-13 21:51:12.99	104.14	13.03	-43.0	-45.2	16.6	0.00e+00	0	41	0	0	57	4668
2026-01-13 21:51:13.72	104.28	13.01	-43.0	-45.1	16.6	0.00e+00	0	40	0	0	57	4638
2026-01-13 21:51:15.00	104.52	12.97	-43.1	-45.3	16.4	0.00e+00	0	41	0	0	57	4739
2026-01-13 21:51:15.71	104.65	12.94	-43.1	-45.3	16.5	0.00e+00	0	40	0	0	57	4719
2026-01-13 21:51:17.26	104.94	12.89	-43.1	-45.3	16.5	0.00e+00	0	40	0	0	57	4742
2026-01-13 21:51:17.96	105.07	12.87	-43.0	-45.2	16.7	0.00e+00	0	40	0	0	57	4652
2026-01-13 21:51:19.25	105.31	12.83	-43.0	-45.1	16.7	0.00e+00	0	40	0	0	57	4638
2026-01-13 21:51:19.97	105.44	12.80	-43.1	-45.3	16.5	0.00e+00	0	41	0	0	57	4715
2026-01-13 21:51:21.25	105.68	12.76	-43.1	-45.3	16.5	0.00e+00	0	40	0	0	57	4734
2026-01-13 21:51:21.97	105.81	12.73	-43.1	-45.3	16.5	0.00e+00	0	40	0	0	57	4741
2026-01-13 21:51:23.25	106.05	12.69	-43.3	-45.5	16.4	0.00e+00	0	41	0	0	57	4815
2026-01-13 21:51:23.98	106.18	12.66	-43.2	-45.4	16.3	0.00e+00	0	40	0	0	57	4809
2026-01-13 21:51:25.26	106.42	12.62	-43.3	-45.5	16.3	0.00e+00	0	40	0	0	57	4832
2026-01-13 21:51:25.98	106.55	12.59	-43.3	-45.5	16.2	0.00e+00	0	40	0	0	57	4837
2026-01-13 21:51:27.26	106.78	12.55	-43.4	-45.6	16.1	0.00e+00	0	40	0	0	57	4896
2026-01-13 21:51:27.98	106.91	12.52	-43.3	-45.6	16.2	0.00e+00	0	40	0	0	57	4878
2026-01-13 21:51:29.25	107.14	12.48	-43.2	-45.4	16.3	0.00e+00	0	40	0	0	57	4773
2026-01-13 21:51:30.12	107.30	12.44	-43.1	-45.3	16.5	0.00e+00	0	40	0	0	57	4726
2026-01-13 21:51:31.26	107.51	12.40	-43.2	-45.4	16.4	0.00e+00	0	40	0	0	57	4774
2026-01-13 21:51:32.11	107.66	12.37	-43.2	-45.4	16.4	0.00e+00	0	40	0	0	57	4783
2026-01-13 21:51:33.25	107.87	12.33	-43.2	-45.4	16.4	0.00e+00	0	40	0	0	57	4780
2026-01-13 21:51:34.35	108.06	12.29	-43.3	-45.5	16.3	0.00e+00	0	40	0	0	57	4840
2026-01-13 21:51:35.21	108.22	12.26	-43.4	-45.6	16.2	0.00e+00	0	40	0	0	57	4918
2026-01-13 21:51:36.34	108.42	12.22	-43.5	-45.7	16.0	0.00e+00	0	40	0	0	57	4977
2026-01-13 21:51:37.20	108.57	12.18	-43.5	-45.8	16.0	0.00e+00	0	40	0	0	57	5000
2026-01-13 21:51:38.33	108.77	12.14	-43.5	-45.8	16.0	0.00e+00	0	40	0	0	57	4992
2026-01-13 21:51:39.18	108.92	12.11	-43.6	-45.9	15.9	0.00e+00	0	40	0	0	57	5044
2026-01-13 21:51:40.32	109.12	12.06	-43.5	-45.8	16.0	0.00e+00	0	40	0	0	57	5005
2026-01-13 21:51:41.17	109.27	12.03	-43.5	-45.8	15.9	0.00e+00	0	41	0	0	57	5009
2026-01-13 21:51:42.31	109.48	11.99	-43.5	-45.8	15.9	0.00e+00	0	40	0	0	57	5007
2026-01-13 21:51:43.16	109.62	11.96	-43.5	-45.9	15.8	0.00e+00	0	41	0	0	57	5043
2026-01-13 21:51:44.39	109.84	11.91	-43.4	-45.7	16.0	0.00e+00	0	40	0	0	57	4953
2026-01-13 21:51:45.25	109.99	11.87	-43.4	-45.7	16.0	0.00e+00	0	40	0	0	57	4938
2026-01-13 21:51:46.38	110.19	11.83	-43.5	-45.8	15.9	0.00e+00	0	40	0	0	57	5034
2026-01-13 21:51:47.24	110.34	11.80	-43.4	-45.7	16.0	0.00e+00	0	40	0	0	57	4959
2026-01-13 21:51:48.38	110.53	11.75	-43.4	-45.7	16.0	0.00e+00	0	40	0	0	57	4944
2026-01-13 21:51:49.23	110.68	11.72	-43.4	-45.7	16.0	0.00e+00	0	40	0	0	57	4969
2026-01-13 21:51:50.57	110.91	11.66	-43.5	-45.8	15.9	0.00e+00	0	40	0	0	57	5003
2026-01-13 21:51:51.28	111.03	11.64	-43.5	-45.9	15.9	0.00e+00	0	40	0	0	57	5054
2026-01-13 21:51:52.78	111.29	11.58	-43.6	-45.9	15.8	0.00e+00	0	41	0	0	57	5080
2026-01-13 21:51:53.49	111.41	11.55	-43.6	-45.9	15.9	0.00e+00	0	40	0	0	57	5071
2026-01-13 21:51:54.77	111.63	11.49	-43.6	-46.0	15.8	0.00e+00	0	40	0	0	58	4823
2026-01-13 21:51:55.48	111.75	11.47	-43.7	-46.0	15.7	0.00e+00	0	40	0	0	58	4861
2026-01-13 21:51:56.76	111.97	11.41	-43.7	-46.1	15.6	0.00e+00	0	40	0	0	58	4908
2026-01-13 21:51:57.48	112.09	11.38	-43.7	-46.1	15.6	0.00e+00	0	40	0	0	58	4882
2026-01-13 21:51:58.77	112.30	11.33	-43.7	-46.0	15.6	0.00e+00	0	40	0	0	58	4866
2026-01-13 21:51:59.48	112.42	11.30	-43.7	-46.1	15.6	0.00e+00	0	40	0	0	58	4906
2026-01-13 21:52:00.76	112.64	11.25	-43.8	-46.2	15.5	0.00e+00	0	41	0	0	58	4948
2026-01-13 21:52:01.48	112.76	11.22	-43.8	-46.3	15.4	0.00e+00	0	40	0	0	58	4999
2026-01-13 21:52:02.76	112.97	11.16	-43.9	-46.3	15.3	0.00e+00	0	40	0	0	58	5040
2026-01-13 21:52:03.55	113.10	11.13	-43.9	-46.3	15.4	0.00e+00	0	40	0	0	58	4998
2026-01-13 21:52:04.74	113.30	11.08	-43.8	-46.2	15.5	0.00e+00	0	41	0	0	58	4936
2026-01-13 21:52:05.73	113.46	11.04	-43.8	-46.2	15.5	0.00e+00	0	40	0	0	58	4931
2026-01-13 21:52:06.92	113.66	10.99	-43.8	-46.2	15.5	0.00e+00	0	40	0	0	58	4964
2026-01-13 21:52:07.82	113.81	10.95	-43.8	-46.2	15.5	0.00e+00	0	40	0	0	58	4949
2026-01-13 21:52:08.85	113.98	10.91	-43.9	-46.3	15.5	0.00e+00	0	40	0	0	58	4992
2026-01-13 21:52:09.84	114.14	10.86	-43.8	-46.2	15.5	0.00e+00	0	40	0	0	58	4949
2026-01-13 21:52:10.83	114.30	10.82	-43.9	-46.3	15.4	0.00e+00	0	40	0	0	58	5025
2026-01-13 21:52:11.83	114.46	10.78	-44.0	-46.4	15.3	0.00e+00	0	40	0	0	58	5076
2026-01-13 21:52:12.82	114.62	10.74	-44.0	-46.5	15.2	0.00e+00	0	40	0	0	58	5109
2026-01-13 21:52:13.82	114.78	10.69	-44.1	-46.6	15.1	0.00e+00	0	40	0	0	58	5186
2026-01-13 21:52:14.81	114.94	10.65	-44.2	-46.7	15.0	0.00e+00	0	40	0	0	59	4933
2026-01-13 21:52:15.80	115.10	10.61	-44.2	-46.7	15.0	0.00e+00	0	40	0	0	59	4931
2026-01-13 21:52:16.80	115.26	10.56	-44.1	-46.6	15.1	0.00e+00	0	40	0	0	59	4906
2026-01-13 21:52:17.82	115.42	10.52	-44.2	-46.7	15.0	0.00e+00	0	40	0	0	59	4939
2026-01-13 21:52:18.85	115.59	10.47	-44.2	-46.7	15.0	0.00e+00	0	40	0	0	59	4965
2026-01-13 21:52:19.85	115.75	10.43	-44.1	-46.7	15.0	7.00e-07	0	40	0	0	59	4934
2026-01-13 21:52:20.84	115.90	10.39	-44.1	-46.6	15.0	0.00e+00	0	40	0	0	59	4924
2026-01-13 21:52:21.84	116.06	10.34	-44.1	-46.7	15.0	7.00e-07	0	40	0	0	59	4942
2026-01-13 21:52:22.83	116.22	10.30	-44.2	-46.7	15.0	0.00e+00	0	40	0	0	59	4974
2026-01-13 21:52:23.83	116.37	10.25	-44.1	-46.6	15.0	7.00e-07	0	40	0	0	59	4917
2026-01-13 21:52:24.82	116.53	10.21	-44.1	-46.7	15.0	0.00e+00	0	40	0	0	59	4931
2026-01-13 21:52:25.81	116.68	10.16	-44.0	-46.5	15.2	0.00e+00	0	40	0	0	59	4825
2026-01-13 21:52:26.81	116.84	10.12	-44.1	-46.5	15.1	0.00e+00	0	40	0	0	59	4849
2026-01-13 21:52:27.81	116.99	10.07	-44.1	-46.6	15.1	0.00e+00	0	40	0	0	59	4876
2026-01-13 21:52:28.80	117.15	10.03	-44.3	-46.8	14.8	0.00e+00	0	40	0	0	59	5025
2026-01-13 21:52:29.79	117.30	9.99	-44.2	-46.8	14.9	0.00e+00	0	40	0	0	59	4992
2026-01-13 21:52:30.79	117.45	9.94	-44.5	-47.1	14.6	0.00e+00	0	40	0	0	59	5197
2026-01-13 21:52:31.78	117.60	9.90	-44.2	-46.8	14.9	0.00e+00	0	40	0	0	59	4998
2026-01-13 21:52:32.78	117.76	9.85	-44.1	-46.6	15.1	0.00e+00	0	40	0	0	59	4904
2026-01-13 21:52:33.78	117.91	9.80	-44.1	-46.7	14.9	0.00e+00	0	40	0	0	59	4971
2026-01-13 21:52:34.82	118.07	9.76	-44.1	-46.7	15.0	0.00e+00	0	40	0	0	59	4929
2026-01-13 21:52:35.80	118.22	9.71	-44.2	-46.8	14.8	7.00e-07	0	40	0	0	59	5014
2026-01-13 21:52:36.79	118.37	9.67	-44.2	-46.8	14.8	1.50e-06	0	40	0	0	59	5034
2026-01-13 21:52:37.79	118.52	9.62	-44.3	-47.0	14.7	0.00e+00	0	40	0	0	59	5102
2026-01-13 21:52:38.78	118.66	9.58	-44.3	-47.0	14.6	0.00e+00	0	40	0	0	59	5118
2026-01-13 21:52:39.78	118.81	9.53	-44.3	-47.0	14.6	0.00e+00	0	40	0	0	59	5134
2026-01-13 21:52:40.77	118.96	9.48	-44.4	-47.0	14.6	0.00e+00	0	40	0	0	59	5136
2026-01-13 21:52:41.77	119.11	9.44	-44.3	-46.9	14.7	0.00e+00	0	40	0	0	59	5099
2026-01-13 21:52:42.76	119.26	9.39	-44.4	-47.0	14.6	0.00e+00	0	40	0	0	59	5133
2026-01-13 21:52:43.76	119.40	9.35	-44.4	-47.0	14.6	0.00e+00	0	40	0	0	59	5155
2026-01-13 21:52:44.75	119.55	9.30	-44.3	-46.9	14.7	7.00e-07	0	40	0	0	59	5077
2026-01-13 21:52:45.75	119.70	9.25	-44.3	-46.8	14.7	7.00e-07	0	40	0	0	59	5036
2026-01-13 21:52:46.74	119.84	9.21	-44.2	-46.9	14.7	7.00e-07	0	40	0	0	59	5087
2026-01-13 21:52:47.74	119.99	9.16	-44.3	-46.9	14.6	0.00e+00	0	40	0	0	59	5099
2026-01-13 21:52:48.76	120.14	9.11	-44.4	-47.1	14.4	0.00e+00	0	40	0	0	59	5218
2026-01-13 21:52:49.76	120.28	9.07	-44.3	-46.9	14.6	0.00e+00	0	40	0	0	59	5094
2026-01-13 21:52:50.75	120.42	9.02	-44.1	-46.8	14.7	1.50e-06	0	40	0	0	59	5019
2026-01-13 21:52:51.82	120.58	8.97	-49.5	-59.1	4.6	1.93e-02	0	41	0	0	69	11552
2026-01-13 21:52:52.68	120.70	8.93	-50.2	-63.0	3.8	1.49e+00	0	40	104	0	71	16208
2026-01-13 21:52:53.81	120.86	8.88	-50.4	-63.4	3.8	1.49e+00	0	40	104	0	71	17030
2026-01-13 21:52:54.66	120.99	8.84	-50.4	-63.5	3.8	1.49e+00	0	40	104	0	71	17201
2026-01-13 21:52:55.80	121.15	8.78	-50.4	-63.6	3.8	1.49e+00	0	40	104	0	71	17291
2026-01-13 21:52:56.65	121.27	8.74	-50.5	-63.6	3.8	1.49e+00	0	40	104	0	71	17370
2026-01-13 21:52:57.79	121.43	8.69	-50.6	-63.6	3.8	1.49e+00	0	40	104	0	71	17460
2026-01-13 21:52:58.64	121.55	8.65	-50.7	-63.6	3.8	1.49e+00	0	40	104	0	71	17392
2026-01-13 21:52:59.77	121.71	8.59	-50.5	-63.7	3.8	1.49e+00	0	40	104	0	71	17522
2026-01-13 21:53:00.62	121.83	8.55	-50.6	-63.7	3.8	1.49e+00	0	40	104	0	72	16548
2026-01-13 21:53:01.76	121.99	8.50	-50.5	-63.7	3.8	1.49e+00	0	41	104	0	72	16570
2026-01-13 21:53:02.61	122.11	8.46	-50.4	-63.7	3.8	1.49e+00	0	40	104	0	72	16570
2026-01-13 21:53:03.75	122.26	8.40	-50.3	-63.7	3.8	1.49e+00	0	40	104	0	72	16507
2026-01-13 21:53:04.60	122.38	8.36	-50.3	-63.7	3.8	1.49e+00	0	41	104	0	72	16639
2026-01-13 21:53:05.73	122.54	8.31	-50.4	-63.7	3.8	1.49e+00	0	40	104	0	72	16662
2026-01-13 21:53:06.58	122.65	8.27	-50.4	-63.8	3.8	1.49e+00	0	40	104	0	72	16711
2026-01-13 21:53:07.72	122.81	8.21	-50.2	-63.7	3.8	1.49e+00	0	40	104	0	72	16669
2026-01-13 21:53:08.57	122.93	8.17	-50.3	-63.7	3.8	1.49e+00	0	40	104	0	72	16635
2026-01-13 21:53:09.71	123.08	8.12	-50.2	-63.7	3.8	1.49e+00	0	40	104	0	72	16672
2026-01-13 21:53:10.56	123.20	8.08	-50.3	-63.8	3.8	1.49e+00	0	40	104	0	72	16734
2026-01-13 21:53:11.69	123.35	8.02	-50.4	-63.8	3.8	1.49e+00	0	40	104	0	72	16696
2026-01-13 21:53:12.55	123.47	7.98	-50.5	-63.7	3.8	1.49e+00	0	40	104	0	72	16684
2026-01-13 21:53:13.68	123.62	7.93	-50.5	-63.7	3.8	1.49e+00	0	40	104	0	72	16523
2026-01-13 21:53:14.53	123.73	7.89	-50.5	-63.7	3.8	1.49e+00	0	40	104	0	72	16546
2026-01-13 21:53:15.67	123.88	7.83	-50.5	-63.7	3.8	1.49e+00	0	40	104	0	72	16538
2026-01-13 21:53:16.52	124.00	7.79	-50.5	-63.7	3.8	1.49e+00	0	40	104	0	72	16530
2026-01-13 21:53:17.65	124.15	7.74	-50.5	-63.7	3.8	1.49e+00	0	40	104	0	72	16571
2026-01-13 21:53:18.50	124.26	7.70	-50.5	-63.7	3.8	1.49e+00	0	40	104	0	72	16506
2026-01-13 21:53:19.64	124.41	7.64	-50.5	-63.6	3.8	1.49e+00	0	40	104	0	72	16488
2026-01-13 21:53:20.49	124.52	7.60	-50.5	-63.7	3.8	1.49e+00	0	40	104	0	72	16533
2026-01-13 21:53:21.63	124.67	7.54	-50.5	-63.7	3.8	1.49e+00	0	40	104	0	72	16527
2026-01-13 21:53:22.48	124.78	7.50	-50.5	-63.7	3.8	1.49e+00	0	40	104	0	72	16518
2026-01-13 21:53:23.61	124.93	7.45	-50.5	-63.7	3.8	1.49e+00	0	40	104	0	72	16537
2026-01-13 21:53:24.46	125.04	7.41	-50.5	-63.7	3.8	1.49e+00	0	40	104	0	72	16543
2026-01-13 21:53:25.60	125.19	7.35	-50.5	-63.7	3.8	1.49e+00	0	40	104	0	72	16516
2026-01-13 21:53:26.45	125.30	7.31	-50.5	-63.6	3.8	1.49e+00	0	40	104	0	72	16499
2026-01-13 21:53:27.58	125.44	7.25	-50.5	-63.6	3.8	1.49e+00	0	40	104	0	72	16469
2026-01-13 21:53:28.44	125.55	7.21	-50.5	-63.7	3.8	1.49e+00	0	41	104	0	72	16514
2026-01-13 21:53:29.57	125.70	7.16	-50.5	-63.6	3.8	1.49e+00	0	40	104	0	72	16468
2026-01-13 21:53:30.42	125.81	7.12	-50.5	-63.6	3.8	1.49e+00	0	40	104	0	72	16446
2026-01-13 21:53:31.56	125.95	7.06	-50.5	-63.6	3.8	1.49e+00	0	40	104	0	72	16467
2026-01-13 21:53:32.41	126.06	7.02	-50.5	-63.6	3.8	1.49e+00	0	40	104	0	72	16456
2026-01-13 21:53:33.54	126.20	6.96	-50.5	-63.6	3.8	1.49e+00	0	40	104	0	72	16482
2026-01-13 21:53:34.40	126.31	6.92	-50.5	-63.7	3.8	1.49e+00	0	40	104	0	72	16510
2026-01-13 21:53:35.53	126.45	6.87	-50.5	-63.6	3.8	1.49e+00	0	41	104	0	72	16471
2026-01-13 21:53:36.38	126.56	6.83	-50.5	-63.6	3.8	1.49e+00	0	40	104	0	72	16487
2026-01-13 21:53:37.52	126.70	6.77	-50.4	-63.6	3.8	1.49e+00	0	41	104	0	72	16449
2026-01-13 21:53:38.37	126.81	6.73	-50.5	-63.6	3.8	1.49e+00	0	40	104	0	72	16480
2026-01-13 21:53:39.50	126.95	6.67	-50.5	-63.6	3.8	1.49e+00	0	40	104	0	72	16433
2026-01-13 21:53:40.35	127.05	6.63	-50.5	-63.6	3.8	1.49e+00	0	41	104	0	72	16447
2026-01-13 21:53:41.49	127.19	6.58	-50.5	-63.6	3.8	1.49e+00	0	40	104	0	72	16461
2026-01-13 21:53:42.34	127.29	6.53	-50.5	-63.6	3.8	1.49e+00	0	40	104	0	72	16413
2026-01-13 21:53:43.48	127.43	6.48	-50.4	-63.6	3.8	1.49e+00	0	41	104	0	72	16448
2026-01-13 21:53:44.33	127.54	6.44	-50.5	-63.6	3.8	1.49e+00	0	40	104	0	72	16424
2026-01-13 21:53:45.46	127.67	6.38	-50.5	-63.6	3.8	1.49e+00	0	41	104	0	72	16483
2026-01-13 21:53:46.31	127.78	6.34	-50.5	-63.6	3.8	1.49e+00	0	40	104	0	72	16445
2026-01-13 21:53:47.45	127.92	6.28	-50.4	-63.6	3.8	1.49e+00	0	40	104	0	72	16474
2026-01-13 21:53:48.30	128.02	6.24	-50.4	-63.6	3.8	1.49e+00	0	40	104	0	72	16454
2026-01-13 21:53:49.44	128.15	6.19	-50.4	-63.6	3.8	1.49e+00	0	40	104	0	72	16446
2026-01-13 21:53:50.29	128.26	6.14	-50.4	-63.6	3.8	1.49e+00	0	40	104	0	72	16492
2026-01-13 21:53:51.43	128.39	6.09	-50.4	-63.6	3.8	1.49e+00	0	40	104	0	72	16452
2026-01-13 21:53:52.28	128.49	6.05	-50.5	-63.6	3.8	1.49e+00	0	41	104	0	72	16445
2026-01-13 21:53:53.41	128.63	5.99	-50.4	-63.6	3.8	1.49e+00	0	40	104	0	72	16439
2026-01-13 21:53:54.26	128.73	5.95	-50.5	-63.6	3.8	1.49e+00	0	40	104	0	72	16398
2026-01-13 21:53:55.40	128.86	5.89	-50.4	-63.6	3.8	1.49e+00	0	40	104	0	72	16358
2026-01-13 21:53:56.25	128.96	5.85	-50.4	-63.6	3.8	1.49e+00	0	40	104	0	72	16411
2026-01-13 21:53:57.39	129.09	5.79	-50.4	-63.6	3.8	1.49e+00	0	41	104	0	72	16464
2026-01-13 21:53:58.24	129.19	5.75	-50.4	-63.6	3.8	1.49e+00	0	41	104	0	72	16377
2026-01-13 21:53:59.37	129.32	5.70	-50.4	-63.6	3.8	1.49e+00	0	41	104	0	72	16455
2026-01-13 21:54:00.22	129.42	5.66	-50.4	-63.6	3.8	1.49e+00	0	41	104	0	72	16487
2026-01-13 21:54:01.36	129.55	5.60	-50.4	-63.6	3.8	1.49e+00	0	40	104	0	72	16417
2026-01-13 21:54:02.21	129.65	5.56	-50.5	-63.6	3.8	1.49e+00	0	40	104	0	72	16469
2026-01-13 21:54:03.34	129.78	5.50	-50.5	-63.6	3.8	1.49e+00	0	40	104	0	72	16483
2026-01-13 21:54:04.19	129.88	5.46	-50.4	-63.6	3.8	1.49e+00	0	40	104	0	72	16402
2026-01-13 21:54:05.33	130.01	5.40	-50.4	-63.6	3.8	1.49e+00	0	40	104	0	72	16416
2026-01-13 21:54:06.18	130.10	5.36	-50.5	-63.6	3.8	1.49e+00	0	40	104	0	72	16480
2026-01-13 21:54:07.32	130.23	5.31	-50.4	-63.6	3.8	1.49e+00	0	40	104	0	72	16466
2026-01-13 21:54:08.17	130.33	5.26	-50.4	-63.6	3.8	1.49e+00	0	40	104	0	72	16425
2026-01-13 21:54:09.30	130.46	5.21	-50.4	-63.6	3.8	1.49e+00	0	40	104	0	72	16395
2026-01-13 21:54:10.15	130.55	5.17	-50.4	-63.6	3.8	1.49e+00	0	41	104	0	72	16404
2026-01-13 21:54:11.29	130.68	5.11	-50.4	-63.6	3.8	1.49e+00	0	40	104	0	72	16415
2026-01-13 21:54:12.14	130.77	5.07	-50.4	-63.6	3.8	1.49e+00	0	40	104	0	72	16411
2026-01-13 21:54:13.28	130.90	5.01	-50.4	-63.6	3.8	1.49e+00	0	41	104	0	72	16390
2026-01-13 21:54:14.13	130.99	4.97	-50.4	-63.6	3.8	1.49e+00	0	40	104	0	72	16497

#Closed at: 2026-01-13 21:54:15
#Recorded file [0 MB]: D:/Data/31040_260114_004445.dat