passes_logs/2026/01/13/T1/T1__20260113_012343_NOAA_21_JPSS-2_rec.log

#Pass ID: 20260113_012343_NOAA 21 (JPSS-2)
#Satellite: NOAA 21 (JPSS-2)
#Configuration: NOAA 21
#almurnet v.1.7.20251203
#Start time: 2026-01-13 01:23:43

#Version: 2.0.20230620
#Station: T1
#Location: 37.570604 lon 55.790049 lat
#TLE: 1 54234U 22150A   26012.26378519  .00000063  00000+0  50547-4 0  9993
#TLE: 2 54234  98.7495 313.1967 0000726 309.1075  51.0036 14.19534275164425

#Time	Az	El	Level	Level2	SNR	BER	BlckErr	Temp	State	Recorded	gain1	gain2
2026-01-13 01:23:43.86	6.36	5.00	-50.2	-63.7	3.8	1.49e+00	0	37	0	0	71	17605
2026-01-13 01:23:44.85	6.28	5.06	-49.5	-63.2	3.8	1.49e+00	0	37	104	0	70	17662
2026-01-13 01:23:45.84	6.20	5.12	-49.5	-63.3	3.8	1.49e+00	0	37	104	0	70	17708
2026-01-13 01:23:46.84	6.11	5.18	-49.4	-63.3	3.8	1.49e+00	0	37	104	0	70	17727
2026-01-13 01:23:47.83	6.03	5.24	-49.5	-63.3	3.8	1.49e+00	0	37	104	0	70	17791
2026-01-13 01:23:48.82	5.95	5.30	-49.5	-63.3	3.8	1.49e+00	0	37	104	0	70	17799
2026-01-13 01:23:49.82	5.87	5.36	-49.5	-63.3	3.8	1.49e+00	0	37	104	0	70	17762
2026-01-13 01:23:50.81	5.79	5.42	-49.4	-63.3	3.8	1.49e+00	0	37	104	0	70	17827
2026-01-13 01:23:51.80	5.70	5.48	-49.5	-63.3	3.8	1.49e+00	0	37	104	0	70	17877
2026-01-13 01:23:52.80	5.62	5.54	-49.5	-63.3	3.8	1.49e+00	0	37	104	0	70	17760
2026-01-13 01:23:53.79	5.53	5.60	-49.5	-63.3	3.8	1.49e+00	0	38	104	0	70	17844
2026-01-13 01:23:54.78	5.45	5.66	-49.5	-63.3	3.8	1.49e+00	0	37	104	0	70	17726
2026-01-13 01:23:55.78	5.37	5.72	-49.5	-63.3	3.8	1.49e+00	0	37	104	0	70	17716
2026-01-13 01:23:56.77	5.28	5.78	-49.5	-63.2	3.8	1.49e+00	0	37	104	0	70	17641
2026-01-13 01:23:57.76	5.20	5.84	-49.5	-63.2	3.8	1.49e+00	0	37	104	0	70	17594
2026-01-13 01:23:58.76	5.11	5.90	-49.5	-63.2	3.8	1.49e+00	0	38	104	0	70	17671
2026-01-13 01:23:59.75	5.02	5.96	-49.5	-63.2	3.8	1.49e+00	0	37	104	0	70	17652
2026-01-13 01:24:00.74	4.94	6.02	-49.4	-63.3	3.8	1.49e+00	0	38	104	0	70	17716
2026-01-13 01:24:01.74	4.85	6.08	-49.4	-63.3	3.8	1.49e+00	0	38	104	0	70	17707
2026-01-13 01:24:02.73	4.76	6.15	-49.5	-63.3	3.8	1.49e+00	0	38	104	0	70	17771
2026-01-13 01:24:03.73	4.68	6.21	-49.5	-63.3	3.8	1.49e+00	0	38	104	0	70	17842
2026-01-13 01:24:04.72	4.59	6.27	-49.5	-63.3	3.8	1.49e+00	0	38	104	0	70	17803
2026-01-13 01:24:05.71	4.50	6.33	-49.5	-63.3	3.8	1.49e+00	0	38	104	0	70	17840
2026-01-13 01:24:06.71	4.41	6.39	-49.5	-63.4	3.8	1.49e+00	0	38	104	0	70	17946
2026-01-13 01:24:07.70	4.32	6.45	-49.3	-63.4	3.8	1.49e+00	0	38	104	0	70	17900
2026-01-13 01:24:08.69	4.23	6.51	-49.5	-63.3	3.8	1.49e+00	0	38	104	0	70	17865
2026-01-13 01:24:09.69	4.14	6.58	-49.5	-63.3	3.8	1.49e+00	0	38	104	0	70	17865
2026-01-13 01:24:10.68	4.05	6.64	-49.5	-63.3	3.8	1.49e+00	0	38	104	0	70	17782
2026-01-13 01:24:11.67	3.96	6.70	-49.5	-63.3	3.8	1.49e+00	0	38	104	0	70	17715
2026-01-13 01:24:12.67	3.87	6.76	-49.5	-63.2	3.8	1.49e+00	0	38	104	0	70	17635
2026-01-13 01:24:13.66	3.78	6.82	-49.5	-63.1	3.8	1.49e+00	0	38	104	0	70	17414
2026-01-13 01:24:14.65	3.69	6.88	-49.4	-63.0	3.8	1.49e+00	0	38	104	0	70	17255
2026-01-13 01:24:15.65	3.60	6.95	-49.4	-62.9	3.8	1.49e+00	0	38	104	0	70	16898
2026-01-13 01:24:16.64	3.50	7.01	-49.4	-62.7	3.8	1.49e+00	0	38	104	0	70	16564
2026-01-13 01:24:17.63	3.41	7.07	-49.4	-62.6	3.8	1.49e+00	0	38	104	0	70	16367
2026-01-13 01:24:18.63	3.32	7.13	-49.4	-62.5	3.8	1.49e+00	0	38	104	0	70	16278
2026-01-13 01:24:19.62	3.22	7.19	-49.4	-62.5	3.8	1.49e+00	0	38	104	0	70	16154
2026-01-13 01:24:20.61	3.13	7.26	-49.4	-62.5	3.8	1.49e+00	0	38	104	0	70	16162
2026-01-13 01:24:21.61	3.03	7.32	-49.4	-62.4	3.8	1.49e+00	0	38	104	0	70	15958
2026-01-13 01:24:22.60	2.94	7.38	-49.4	-62.2	3.8	1.49e+00	0	38	104	0	70	15620
2026-01-13 01:24:23.59	2.84	7.44	-49.4	-61.9	3.8	1.49e+00	0	38	104	0	70	15069
2026-01-13 01:24:24.59	2.75	7.51	-49.4	-61.9	3.8	1.49e+00	0	38	104	0	70	15067
2026-01-13 01:24:25.58	2.65	7.57	-49.3	-61.9	3.8	1.49e+00	0	38	104	0	70	15073
2026-01-13 01:24:26.57	2.55	7.63	-49.4	-62.0	3.8	1.49e+00	0	38	104	0	70	15374
2026-01-13 01:24:27.57	2.46	7.70	-49.4	-62.4	3.8	1.49e+00	0	38	104	0	70	15995
2026-01-13 01:24:28.56	2.36	7.76	-49.5	-62.9	3.8	1.49e+00	0	38	104	0	70	17004
2026-01-13 01:24:29.56	2.26	7.82	-49.4	-63.1	3.8	1.49e+00	0	38	104	0	70	17421
2026-01-13 01:24:30.55	2.16	7.89	-49.4	-62.6	3.8	1.49e+00	0	38	104	0	70	16324
2026-01-13 01:24:31.54	2.06	7.95	-49.3	-61.0	3.9	1.49e+00	0	38	104	0	70	13692
2026-01-13 01:24:32.54	1.96	8.01	-49.0	-58.5	4.6	1.46e+00	0	38	104	0	70	10258
2026-01-13 01:24:33.53	1.86	8.08	-48.7	-56.9	5.5	5.82e-01	0	39	0	0	69	9029
2026-01-13 01:24:34.52	1.76	8.14	-48.2	-54.7	7.3	1.80e-01	0	39	0	0	68	7399
2026-01-13 01:24:35.52	1.66	8.20	-47.7	-53.5	8.4	6.06e-02	0	38	0	0	67	6815
2026-01-13 01:24:36.51	1.56	8.27	-47.5	-52.9	9.0	3.28e-02	0	39	0	0	66	6725
2026-01-13 01:24:37.50	1.46	8.33	-46.9	-51.6	10.2	9.29e-03	0	38	0	0	65	6202
2026-01-13 01:24:38.50	1.36	8.39	-46.6	-51.1	10.8	2.44e-03	0	39	0	0	65	5793
2026-01-13 01:24:39.49	1.25	8.46	-46.3	-50.4	11.4	9.97e-04	0	38	0	0	64	5711
2026-01-13 01:24:40.48	1.15	8.52	-46.0	-49.6	12.4	2.10e-04	0	39	0	0	63	5525
2026-01-13 01:24:41.48	1.05	8.59	-45.8	-49.3	12.7	9.46e-05	0	38	0	0	63	5334
2026-01-13 01:24:42.47	0.94	8.65	-45.6	-49.0	13.0	3.81e-05	0	39	0	0	63	5148
2026-01-13 01:24:43.46	0.84	8.71	-45.6	-49.1	12.9	3.89e-05	0	39	0	0	62	5506
2026-01-13 01:24:44.46	0.73	8.78	-45.7	-49.2	12.9	4.34e-05	0	39	0	0	62	5539
2026-01-13 01:24:45.45	0.63	8.84	-45.9	-49.6	12.5	1.27e-04	0	39	0	0	62	5805
2026-01-13 01:24:46.45	0.52	8.91	-46.4	-50.4	11.6	3.16e-04	0	39	0	0	63	6023
2026-01-13 01:24:47.44	0.41	8.97	-46.9	-51.6	10.3	2.79e-03	0	39	0	0	64	6547
2026-01-13 01:24:48.43	0.31	9.03	-47.7	-53.6	8.2	2.99e-02	0	38	0	0	66	7357
2026-01-13 01:24:49.49	0.19	9.10	-46.8	-51.7	10.0	1.38e-01	0	39	0	0	65	6237
2026-01-13 01:24:50.39	0.10	9.16	-46.2	-50.5	11.6	6.25e-05	0	39	0	0	63	6091
2026-01-13 01:24:51.63	359.96	9.24	-48.3	-56.3	6.0	1.27e+00	0	39	0	0	68	8888
2026-01-13 01:24:52.49	359.87	9.30	-45.8	-50.2	11.6	2.64e-01	0	39	0	0	63	5903
2026-01-13 01:24:53.62	359.74	9.37	-43.8	-46.5	15.5	0.00e+00	0	39	0	0	59	4832
2026-01-13 01:24:54.48	359.65	9.43	-43.7	-46.3	15.6	0.00e+00	0	39	0	0	59	4758
2026-01-13 01:24:55.61	359.52	9.50	-43.7	-46.3	15.7	0.00e+00	0	39	0	0	59	4722
2026-01-13 01:24:56.46	359.42	9.56	-43.7	-46.3	15.6	0.00e+00	0	39	0	0	59	4739
2026-01-13 01:24:57.60	359.30	9.63	-43.8	-46.4	15.6	0.00e+00	0	39	0	0	59	4798
2026-01-13 01:24:58.55	359.19	9.69	-43.8	-46.5	15.5	0.00e+00	0	39	0	0	59	4832
2026-01-13 01:24:59.54	359.08	9.76	-43.6	-46.3	15.7	0.00e+00	0	39	0	0	59	4722
2026-01-13 01:25:00.54	358.96	9.83	-43.6	-46.4	15.7	0.00e+00	0	39	0	0	59	4765
2026-01-13 01:25:01.53	358.85	9.89	-43.7	-46.4	15.6	0.00e+00	0	39	0	0	59	4797
2026-01-13 01:25:02.53	358.73	9.96	-43.5	-46.1	15.9	0.00e+00	0	39	0	0	58	4909
2026-01-13 01:25:03.52	358.62	10.02	-43.4	-46.1	16.0	0.00e+00	0	39	0	0	58	4895
2026-01-13 01:25:04.52	358.50	10.09	-43.4	-46.1	15.9	0.00e+00	0	39	0	0	58	4890
2026-01-13 01:25:05.51	358.39	10.15	-43.5	-46.2	15.8	0.00e+00	0	39	0	0	58	4945
2026-01-13 01:25:06.50	358.27	10.22	-43.5	-46.2	15.8	0.00e+00	0	39	0	0	58	4977
2026-01-13 01:25:07.50	358.16	10.28	-43.5	-46.1	15.9	0.00e+00	0	39	0	0	58	4926
2026-01-13 01:25:08.49	358.04	10.35	-43.4	-46.2	15.9	0.00e+00	0	39	0	0	58	4940
2026-01-13 01:25:09.49	357.92	10.42	-43.4	-46.2	15.9	0.00e+00	0	39	0	0	58	4936
2026-01-13 01:25:10.49	357.80	10.48	-43.5	-46.3	15.8	0.00e+00	0	39	0	0	58	4990
2026-01-13 01:25:11.48	357.68	10.55	-43.6	-46.3	15.7	0.00e+00	0	39	0	0	58	5019
2026-01-13 01:25:12.48	357.56	10.61	-43.5	-46.3	15.8	0.00e+00	0	39	0	0	58	4990
2026-01-13 01:25:13.47	357.44	10.68	-43.5	-46.3	15.8	0.00e+00	0	39	0	0	58	4997
2026-01-13 01:25:14.47	357.32	10.75	-43.4	-46.2	15.9	0.00e+00	0	39	0	0	58	4940
2026-01-13 01:25:15.46	357.20	10.81	-43.3	-46.0	16.1	0.00e+00	0	39	0	0	58	4828
2026-01-13 01:25:16.46	357.08	10.88	-43.4	-46.1	16.0	0.00e+00	0	39	0	0	58	4906
2026-01-13 01:25:17.45	356.95	10.95	-43.2	-45.9	16.2	0.00e+00	0	39	0	0	58	4794
2026-01-13 01:25:18.45	356.83	11.01	-43.2	-45.9	16.3	0.00e+00	0	39	0	0	58	4763
2026-01-13 01:25:19.44	356.71	11.08	-43.1	-45.8	16.3	0.00e+00	0	39	0	0	58	4707
2026-01-13 01:25:20.44	356.58	11.14	-43.1	-45.7	16.4	0.00e+00	0	39	0	0	58	4682
2026-01-13 01:25:21.44	356.46	11.21	-43.0	-45.8	16.3	0.00e+00	0	39	0	0	58	4723
2026-01-13 01:25:22.43	356.33	11.28	-43.0	-45.7	16.4	0.00e+00	0	39	0	0	57	4943
2026-01-13 01:25:23.44	356.20	11.35	-43.0	-45.8	16.3	0.00e+00	0	39	0	0	57	4986
2026-01-13 01:25:24.47	356.07	11.41	-42.9	-45.8	16.3	0.00e+00	0	39	0	0	57	4998
2026-01-13 01:25:25.50	355.94	11.48	-42.9	-45.9	16.2	0.00e+00	0	39	0	0	57	5052
2026-01-13 01:25:26.49	355.81	11.55	-42.9	-45.9	16.2	0.00e+00	0	39	0	0	57	5079
2026-01-13 01:25:27.49	355.68	11.62	-42.9	-45.9	16.1	0.00e+00	0	39	0	0	57	5082
2026-01-13 01:25:28.48	355.56	11.68	-43.0	-46.0	16.1	0.00e+00	0	39	0	0	57	5134
2026-01-13 01:25:29.48	355.43	11.75	-42.7	-45.8	16.3	0.00e+00	0	39	0	0	57	5014
2026-01-13 01:25:30.47	355.30	11.82	-42.6	-45.7	16.4	0.00e+00	0	39	0	0	57	4980
2026-01-13 01:25:31.47	355.16	11.88	-42.5	-45.6	16.4	0.00e+00	0	39	0	0	57	4918
2026-01-13 01:25:32.46	355.03	11.95	-42.5	-45.6	16.5	0.00e+00	0	39	0	0	57	4911
2026-01-13 01:25:33.46	354.90	12.02	-42.5	-45.6	16.5	0.00e+00	0	39	0	0	57	4912
2026-01-13 01:25:34.45	354.77	12.09	-42.4	-45.6	16.5	0.00e+00	0	39	0	0	56	5182
2026-01-13 01:25:35.44	354.64	12.15	-42.4	-45.5	16.6	0.00e+00	0	39	0	0	56	5145
2026-01-13 01:25:36.44	354.50	12.22	-42.4	-45.6	16.5	0.00e+00	0	39	0	0	56	5202
2026-01-13 01:25:37.44	354.36	12.29	-42.4	-45.6	16.5	0.00e+00	0	39	0	0	56	5173
2026-01-13 01:25:38.43	354.23	12.35	-42.4	-45.7	16.4	0.00e+00	0	39	0	0	56	5231
2026-01-13 01:25:39.42	354.09	12.42	-42.4	-45.6	16.4	0.00e+00	0	39	0	0	56	5213
2026-01-13 01:25:40.42	353.96	12.49	-42.6	-45.8	16.3	0.00e+00	0	39	0	0	56	5318
2026-01-13 01:25:41.43	353.82	12.56	-42.7	-45.8	16.3	0.00e+00	0	39	0	0	56	5306
2026-01-13 01:25:42.45	353.68	12.63	-42.7	-45.7	16.4	0.00e+00	0	39	0	0	56	5245
2026-01-13 01:25:43.48	353.53	12.69	-42.7	-45.6	16.5	0.00e+00	0	39	0	0	56	5171
2026-01-13 01:25:44.47	353.40	12.76	-42.8	-45.7	16.4	0.00e+00	0	39	0	0	56	5251
2026-01-13 01:25:45.47	353.25	12.83	-42.8	-45.5	16.7	0.00e+00	0	39	0	0	56	5104
2026-01-13 01:25:46.46	353.11	12.90	-42.9	-45.5	16.6	0.00e+00	0	39	0	0	56	5156
2026-01-13 01:25:47.46	352.97	12.96	-43.0	-45.6	16.5	0.00e+00	0	39	0	0	56	5182
2026-01-13 01:25:48.45	352.83	13.03	-43.1	-45.6	16.6	0.00e+00	0	39	0	0	56	5171
2026-01-13 01:25:49.45	352.69	13.10	-43.0	-45.5	16.6	0.00e+00	0	39	0	0	56	5127
2026-01-13 01:25:50.44	352.55	13.17	-43.1	-45.5	16.6	0.00e+00	0	39	0	0	56	5119
2026-01-13 01:25:51.44	352.40	13.23	-43.2	-45.6	16.5	0.00e+00	0	39	0	0	56	5184
2026-01-13 01:25:52.43	352.26	13.30	-43.3	-45.7	16.4	0.00e+00	0	39	0	0	57	4964
2026-01-13 01:25:53.42	352.11	13.37	-43.4	-45.8	16.3	0.00e+00	0	39	0	0	57	5014
2026-01-13 01:25:54.42	351.97	13.43	-43.4	-45.8	16.3	0.00e+00	0	39	0	0	57	4991
2026-01-13 01:25:55.41	351.82	13.50	-43.5	-45.9	16.3	0.00e+00	0	39	0	0	57	5046
2026-01-13 01:25:56.41	351.67	13.57	-43.5	-45.8	16.3	0.00e+00	0	39	0	0	57	5040
2026-01-13 01:25:57.40	351.53	13.64	-43.4	-45.7	16.5	0.00e+00	0	39	0	0	57	4973
2026-01-13 01:25:58.40	351.38	13.70	-43.4	-45.7	16.5	0.00e+00	0	39	0	0	57	4972
2026-01-13 01:25:59.39	351.23	13.77	-43.3	-45.6	16.5	0.00e+00	0	39	0	0	57	4924
2026-01-13 01:26:00.39	351.08	13.84	-43.3	-45.6	16.6	0.00e+00	0	39	0	0	57	4926
2026-01-13 01:26:01.38	350.93	13.91	-43.2	-45.5	16.7	0.00e+00	0	39	0	0	57	4843
2026-01-13 01:26:02.46	350.76	13.98	-43.3	-45.6	16.6	0.00e+00	0	39	0	0	57	4908
2026-01-13 01:26:03.31	350.63	14.04	-43.3	-45.7	16.4	0.00e+00	0	39	0	0	57	4980
2026-01-13 01:26:04.45	350.46	14.11	-43.2	-45.6	16.5	0.00e+00	0	39	0	0	57	4919
2026-01-13 01:26:05.30	350.33	14.17	-43.3	-45.8	16.4	0.00e+00	0	39	0	0	57	4989
2026-01-13 01:26:06.44	350.15	14.25	-43.3	-45.7	16.5	0.00e+00	0	39	0	0	57	4955
2026-01-13 01:26:07.29	350.02	14.31	-43.2	-45.7	16.5	0.00e+00	0	39	0	0	57	4955
2026-01-13 01:26:08.43	349.84	14.38	-43.2	-45.7	16.5	0.00e+00	0	39	0	0	57	4953
2026-01-13 01:26:09.28	349.71	14.44	-43.2	-45.6	16.6	0.00e+00	0	39	0	0	57	4895
2026-01-13 01:26:10.42	349.53	14.52	-43.3	-45.7	16.4	0.00e+00	0	39	0	0	57	4977
2026-01-13 01:26:11.27	349.39	14.57	-43.2	-45.6	16.6	0.00e+00	0	39	0	0	57	4906
2026-01-13 01:26:12.41	349.21	14.65	-43.1	-45.4	16.7	0.00e+00	0	39	0	0	57	4805
2026-01-13 01:26:13.26	349.07	14.71	-43.2	-45.5	16.6	0.00e+00	0	39	0	0	57	4860
2026-01-13 01:26:14.48	348.88	14.79	-43.4	-45.7	16.5	0.00e+00	0	39	0	0	57	4976
2026-01-13 01:26:15.33	348.74	14.85	-43.4	-45.7	16.5	0.00e+00	0	39	0	0	57	4950
2026-01-13 01:26:16.47	348.55	14.92	-43.4	-45.8	16.4	0.00e+00	0	39	0	0	57	4992
2026-01-13 01:26:17.32	348.42	14.98	-43.4	-45.7	16.5	0.00e+00	0	39	0	0	57	4972
2026-01-13 01:26:18.46	348.23	15.06	-43.5	-45.9	16.4	0.00e+00	0	39	0	0	57	5054
2026-01-13 01:26:19.31	348.09	15.11	-43.5	-45.8	16.4	0.00e+00	0	39	0	0	57	5002
2026-01-13 01:26:20.45	347.90	15.19	-43.4	-45.7	16.5	0.00e+00	0	39	0	0	57	4981
2026-01-13 01:26:21.39	347.74	15.25	-43.4	-45.7	16.5	0.00e+00	0	39	0	0	57	4979
2026-01-13 01:26:22.39	347.58	15.32	-43.4	-45.7	16.5	0.00e+00	0	39	0	0	57	4971
2026-01-13 01:26:23.38	347.41	15.39	-43.4	-45.7	16.5	0.00e+00	0	39	0	0	57	4980
2026-01-13 01:26:24.38	347.24	15.45	-43.4	-45.8	16.4	0.00e+00	0	39	0	0	57	5000
2026-01-13 01:26:25.37	347.07	15.52	-43.4	-45.8	16.4	0.00e+00	0	39	0	0	57	5017
2026-01-13 01:26:26.36	346.91	15.59	-43.5	-45.9	16.3	0.00e+00	0	39	0	0	57	5089
2026-01-13 01:26:27.36	346.74	15.65	-43.5	-46.0	16.2	0.00e+00	0	39	0	0	57	5146
2026-01-13 01:26:28.35	346.57	15.72	-43.5	-45.9	16.3	0.00e+00	0	39	0	0	57	5098
2026-01-13 01:26:29.34	346.40	15.78	-43.4	-46.0	16.3	0.00e+00	0	39	0	0	57	5112
2026-01-13 01:26:30.34	346.22	15.85	-43.4	-45.9	16.4	0.00e+00	0	39	0	0	57	5074
2026-01-13 01:26:31.33	346.05	15.92	-43.4	-45.8	16.4	0.00e+00	0	39	0	0	57	5038
2026-01-13 01:26:32.34	345.87	15.98	-43.3	-45.7	16.5	0.00e+00	0	39	0	0	57	4954
2026-01-13 01:26:33.37	345.69	16.05	-43.1	-45.5	16.7	0.00e+00	0	39	0	0	57	4840
2026-01-13 01:26:34.37	345.52	16.12	-43.2	-45.5	16.7	0.00e+00	0	39	0	0	57	4868
2026-01-13 01:26:35.36	345.34	16.18	-43.2	-45.6	16.6	0.00e+00	0	39	0	0	57	4874
2026-01-13 01:26:36.45	345.15	16.25	-43.3	-45.7	16.5	0.00e+00	0	39	0	0	57	4978
2026-01-13 01:26:37.33	344.99	16.31	-43.2	-45.7	16.5	0.00e+00	0	39	0	0	57	4945
2026-01-13 01:26:38.47	344.79	16.39	-43.1	-45.6	16.7	0.00e+00	0	39	0	0	57	4882
2026-01-13 01:26:39.32	344.63	16.44	-43.0	-45.5	16.7	0.00e+00	0	39	0	0	57	4845
2026-01-13 01:26:40.46	344.43	16.52	-43.0	-45.5	16.8	0.00e+00	0	39	0	0	57	4850
2026-01-13 01:26:41.31	344.27	16.57	-43.0	-45.6	16.7	0.00e+00	0	40	0	0	57	4883
2026-01-13 01:26:42.45	344.06	16.64	-42.8	-45.2	17.0	0.00e+00	0	39	0	0	57	4687
2026-01-13 01:26:43.30	343.91	16.70	-42.6	-45.0	17.2	0.00e+00	0	40	0	0	57	4577
2026-01-13 01:26:44.44	343.70	16.77	-42.6	-44.9	17.3	0.00e+00	0	39	0	0	57	4523
2026-01-13 01:26:45.29	343.54	16.83	-42.7	-45.0	17.2	0.00e+00	0	39	0	0	57	4572
2026-01-13 01:26:46.43	343.33	16.90	-42.7	-45.0	17.1	0.00e+00	0	39	0	0	57	4585
2026-01-13 01:26:47.28	343.17	16.96	-42.8	-45.0	17.1	0.00e+00	0	39	0	0	57	4597
2026-01-13 01:26:48.42	342.96	17.03	-42.8	-45.1	17.1	0.00e+00	0	39	0	0	57	4632
2026-01-13 01:26:49.27	342.80	17.08	-42.9	-45.2	17.0	0.00e+00	0	39	0	0	57	4654
2026-01-13 01:26:50.40	342.58	17.16	-42.9	-45.0	17.1	0.00e+00	0	40	0	0	57	4594
2026-01-13 01:26:51.26	342.42	17.21	-43.0	-45.1	17.1	0.00e+00	0	39	0	0	57	4651
2026-01-13 01:26:52.52	342.18	17.29	-43.1	-45.2	17.0	0.00e+00	0	39	0	0	57	4668
2026-01-13 01:26:53.31	342.03	17.34	-43.0	-45.1	17.1	0.00e+00	0	39	0	0	57	4644
2026-01-13 01:26:54.65	341.77	17.43	-43.1	-45.2	17.1	0.00e+00	0	39	0	0	57	4652
2026-01-13 01:26:55.36	341.63	17.47	-43.1	-45.3	17.0	0.00e+00	0	39	0	0	57	4709
2026-01-13 01:26:56.76	341.36	17.56	-43.2	-45.3	16.9	0.00e+00	0	39	0	0	57	4748
2026-01-13 01:26:57.47	341.22	17.60	-43.3	-45.5	16.7	0.00e+00	0	39	0	0	57	4852
2026-01-13 01:26:58.75	340.97	17.68	-43.3	-45.5	16.7	0.00e+00	0	39	0	0	57	4851
2026-01-13 01:26:59.47	340.83	17.73	-43.3	-45.5	16.8	0.00e+00	0	39	0	0	57	4829
2026-01-13 01:27:00.85	340.56	17.81	-43.3	-45.4	16.8	0.00e+00	0	39	0	0	57	4806
2026-01-13 01:27:01.56	340.42	17.86	-43.3	-45.5	16.8	0.00e+00	0	39	0	0	57	4815
2026-01-13 01:27:02.84	340.16	17.94	-43.1	-45.2	17.0	0.00e+00	0	39	0	0	57	4671
2026-01-13 01:27:03.56	340.02	17.98	-43.1	-45.3	17.0	0.00e+00	0	40	0	0	57	4718
2026-01-13 01:27:04.84	339.76	18.06	-43.1	-45.4	16.9	0.00e+00	0	39	0	0	57	4765
2026-01-13 01:27:05.57	339.61	18.11	-43.1	-45.4	16.9	0.00e+00	0	39	0	0	57	4774
2026-01-13 01:27:06.84	339.36	18.18	-43.1	-45.4	16.9	0.00e+00	0	39	0	0	57	4761
2026-01-13 01:27:07.57	339.21	18.23	-43.2	-45.4	16.9	0.00e+00	0	39	0	0	57	4771
2026-01-13 01:27:08.85	338.95	18.30	-43.2	-45.3	16.9	0.00e+00	0	39	0	0	57	4745
2026-01-13 01:27:09.59	338.80	18.35	-43.1	-45.3	16.9	0.00e+00	0	40	0	0	57	4713
2026-01-13 01:27:11.14	338.48	18.44	-43.1	-45.3	17.0	0.00e+00	0	39	0	0	57	4712
2026-01-13 01:27:11.85	338.33	18.48	-43.1	-45.3	17.0	0.00e+00	0	39	0	0	57	4717
2026-01-13 01:27:13.12	338.07	18.56	-42.9	-45.2	17.0	0.00e+00	0	39	0	0	57	4670
2026-01-13 01:27:13.85	337.91	18.60	-42.8	-45.1	17.1	0.00e+00	0	39	0	0	57	4626
2026-01-13 01:27:15.26	337.62	18.69	-42.7	-45.0	17.2	0.00e+00	0	39	0	0	57	4583
2026-01-13 01:27:15.96	337.47	18.73	-42.7	-45.1	17.1	0.00e+00	0	39	0	0	57	4602
2026-01-13 01:27:17.31	337.19	18.81	-42.8	-45.1	17.1	0.00e+00	0	39	0	0	57	4618
2026-01-13 01:27:18.02	337.04	18.85	-42.8	-45.0	17.2	0.00e+00	0	39	0	0	57	4581
2026-01-13 01:27:19.30	336.76	18.92	-42.8	-45.0	17.2	0.00e+00	0	39	0	0	57	4575
2026-01-13 01:27:20.02	336.61	18.96	-42.9	-45.0	17.2	0.00e+00	0	40	0	0	57	4580
2026-01-13 01:27:21.30	336.33	19.04	-42.9	-45.0	17.2	0.00e+00	0	39	0	0	57	4569
2026-01-13 01:27:22.03	336.18	19.08	-42.9	-45.0	17.2	0.00e+00	0	39	0	0	57	4549
2026-01-13 01:27:23.31	335.90	19.15	-42.9	-45.0	17.2	0.00e+00	0	39	0	0	57	4585
2026-01-13 01:27:24.05	335.74	19.19	-42.9	-45.0	17.2	0.00e+00	0	39	0	0	57	4558
2026-01-13 01:27:25.33	335.46	19.26	-42.8	-45.0	17.2	0.00e+00	0	39	0	0	57	4560
2026-01-13 01:27:26.04	335.31	19.30	-42.8	-45.0	17.3	0.00e+00	0	40	0	0	57	4563
2026-01-13 01:27:27.32	335.03	19.37	-42.8	-45.0	17.3	0.00e+00	0	39	0	0	57	4564
2026-01-13 01:27:28.05	334.87	19.41	-42.8	-44.9	17.3	0.00e+00	0	39	0	0	57	4542
2026-01-13 01:27:29.33	334.58	19.48	-42.9	-45.0	17.2	0.00e+00	0	39	0	0	57	4576
2026-01-13 01:27:30.05	334.42	19.52	-42.9	-45.0	17.2	0.00e+00	0	39	0	0	57	4557
2026-01-13 01:27:31.33	334.14	19.59	-42.8	-44.9	17.3	0.00e+00	0	39	0	0	57	4538
2026-01-13 01:27:32.06	333.97	19.63	-42.7	-44.8	17.4	0.00e+00	0	39	0	0	57	4469
2026-01-13 01:27:33.35	333.69	19.70	-42.7	-44.8	17.4	0.00e+00	0	39	0	0	57	4459
2026-01-13 01:27:34.07	333.52	19.74	-42.6	-44.7	17.5	0.00e+00	0	39	0	0	57	4425
2026-01-13 01:27:35.42	333.22	19.81	-42.7	-44.8	17.4	0.00e+00	0	39	0	0	57	4486
2026-01-13 01:27:36.13	333.06	19.85	-42.8	-44.9	17.3	0.00e+00	0	39	0	0	57	4538
2026-01-13 01:27:37.48	332.75	19.92	-42.8	-44.9	17.3	0.00e+00	0	39	0	0	57	4532
2026-01-13 01:27:38.19	332.59	19.95	-42.7	-44.9	17.3	0.00e+00	0	39	0	0	57	4500
2026-01-13 01:27:39.47	332.30	20.02	-42.7	-44.9	17.4	0.00e+00	0	39	0	0	57	4504
2026-01-13 01:27:40.19	332.13	20.06	-42.7	-44.8	17.4	0.00e+00	0	39	0	0	57	4482
2026-01-13 01:27:41.47	331.84	20.12	-42.7	-44.8	17.4	0.00e+00	0	39	0	0	57	4473
2026-01-13 01:27:42.23	331.66	20.16	-42.7	-44.8	17.5	0.00e+00	0	40	0	0	57	4450
2026-01-13 01:27:43.63	331.33	20.23	-42.7	-44.7	17.5	0.00e+00	0	39	0	0	57	4440
2026-01-13 01:27:44.34	331.17	20.26	-42.7	-44.7	17.5	0.00e+00	0	39	0	0	57	4425
2026-01-13 01:27:45.62	330.87	20.33	-42.6	-44.7	17.5	0.00e+00	0	40	0	0	57	4406
2026-01-13 01:27:46.67	330.62	20.38	-42.7	-44.8	17.4	0.00e+00	0	40	0	0	57	4447
2026-01-13 01:27:47.91	330.33	20.44	-42.7	-44.7	17.5	0.00e+00	0	39	0	0	57	4434
2026-01-13 01:27:48.76	330.13	20.48	-42.7	-44.8	17.4	0.00e+00	0	40	0	0	57	4458
2026-01-13 01:27:49.90	329.86	20.53	-42.6	-44.6	17.6	0.00e+00	0	39	0	0	57	4379
2026-01-13 01:27:50.75	329.66	20.57	-42.5	-44.6	17.6	0.00e+00	0	39	0	0	57	4357
2026-01-13 01:27:51.89	329.39	20.62	-42.6	-44.6	17.6	0.00e+00	0	40	0	0	57	4391
2026-01-13 01:27:52.74	329.18	20.66	-42.5	-44.6	17.6	0.00e+00	0	39	0	0	57	4374
2026-01-13 01:27:53.88	328.91	20.71	-42.4	-44.5	17.7	0.00e+00	0	39	0	0	56	4595
2026-01-13 01:27:54.73	328.71	20.75	-42.5	-44.6	17.6	0.00e+00	0	39	0	0	56	4622
2026-01-13 01:27:55.87	328.43	20.80	-42.5	-44.6	17.6	0.00e+00	0	39	0	0	56	4644
2026-01-13 01:27:56.72	328.23	20.84	-42.6	-44.6	17.6	0.00e+00	0	40	0	0	56	4631
2026-01-13 01:27:57.86	327.95	20.89	-42.5	-44.5	17.7	0.00e+00	0	39	0	0	56	4572
2026-01-13 01:27:58.71	327.74	20.92	-42.4	-44.4	17.9	0.00e+00	0	40	0	0	56	4505
2026-01-13 01:28:00.00	327.43	20.98	-42.4	-44.4	17.8	0.00e+00	0	40	0	0	56	4531
2026-01-13 01:28:00.71	327.25	21.01	-42.4	-44.4	17.8	0.00e+00	0	39	0	0	56	4536
2026-01-13 01:28:01.99	326.94	21.06	-42.2	-44.1	18.1	0.00e+00	0	39	0	0	56	4375
2026-01-13 01:28:02.70	326.77	21.09	-42.1	-44.0	18.2	0.00e+00	0	40	0	0	56	4314
2026-01-13 01:28:04.26	326.38	21.15	-42.1	-44.1	18.1	0.00e+00	0	39	0	0	56	4344
2026-01-13 01:28:04.97	326.20	21.18	-42.2	-44.1	18.1	0.00e+00	0	39	0	0	56	4380
2026-01-13 01:28:06.28	325.88	21.23	-42.1	-44.1	18.1	0.00e+00	0	39	0	0	56	4373
2026-01-13 01:28:06.99	325.70	21.26	-42.1	-44.1	18.1	0.00e+00	0	39	0	0	56	4353
2026-01-13 01:28:08.27	325.38	21.31	-42.2	-44.2	18.0	0.00e+00	0	40	0	0	56	4412
2026-01-13 01:28:08.99	325.20	21.34	-42.2	-44.2	17.9	0.00e+00	0	39	0	0	56	4435
2026-01-13 01:28:10.26	324.88	21.39	-42.3	-44.4	17.8	0.00e+00	0	39	0	0	56	4498
2026-01-13 01:28:11.00	324.70	21.41	-42.4	-44.5	17.7	0.00e+00	0	39	0	0	56	4553
2026-01-13 01:28:12.28	324.38	21.46	-42.5	-44.5	17.7	0.00e+00	0	39	0	0	56	4595
2026-01-13 01:28:13.01	324.19	21.49	-42.5	-44.5	17.7	0.00e+00	0	40	0	0	56	4594
2026-01-13 01:28:14.29	323.87	21.53	-42.5	-44.5	17.8	0.00e+00	0	40	0	0	56	4550
2026-01-13 01:28:15.01	323.69	21.56	-42.4	-44.4	17.8	0.00e+00	0	39	0	0	56	4524
2026-01-13 01:28:16.29	323.36	21.60	-42.4	-44.3	17.9	0.00e+00	0	39	0	0	56	4492
2026-01-13 01:28:17.05	323.17	21.62	-42.3	-44.3	17.9	0.00e+00	0	39	0	0	56	4474
2026-01-13 01:28:18.33	322.84	21.67	-42.4	-44.4	17.8	0.00e+00	0	39	0	0	56	4537
2026-01-13 01:28:19.05	322.65	21.69	-42.4	-44.4	17.8	0.00e+00	0	39	0	0	56	4524
2026-01-13 01:28:20.33	322.33	21.73	-42.5	-44.5	17.8	0.00e+00	0	39	0	0	56	4548
2026-01-13 01:28:21.06	322.14	21.75	-42.5	-44.6	17.7	0.00e+00	0	39	0	0	56	4605
2026-01-13 01:28:22.34	321.81	21.79	-42.4	-44.4	17.8	0.00e+00	0	39	0	0	56	4544
2026-01-13 01:28:23.06	321.62	21.81	-42.5	-44.5	17.8	0.00e+00	0	39	0	0	56	4554
2026-01-13 01:28:24.36	321.29	21.85	-42.6	-44.7	17.6	0.00e+00	0	39	0	0	56	4664
2026-01-13 01:28:25.07	321.10	21.87	-42.5	-44.5	17.7	0.00e+00	0	39	0	0	56	4580
2026-01-13 01:28:26.35	320.77	21.91	-42.4	-44.5	17.8	0.00e+00	0	39	0	0	56	4554
2026-01-13 01:28:27.07	320.58	21.93	-42.4	-44.4	17.8	0.00e+00	0	39	0	0	56	4524
2026-01-13 01:28:28.35	320.25	21.96	-42.3	-44.4	17.9	0.00e+00	0	39	0	0	56	4500
2026-01-13 01:28:29.08	320.06	21.98	-42.3	-44.4	17.9	0.00e+00	0	40	0	0	56	4495
2026-01-13 01:28:30.35	319.73	22.02	-42.4	-44.4	17.8	0.00e+00	0	39	0	0	56	4520
2026-01-13 01:28:31.08	319.54	22.03	-42.4	-44.4	17.8	0.00e+00	0	40	0	0	56	4521
2026-01-13 01:28:32.36	319.20	22.07	-42.5	-44.6	17.6	0.00e+00	0	39	0	0	56	4602
2026-01-13 01:28:33.07	319.01	22.08	-42.6	-44.6	17.6	0.00e+00	0	40	0	0	56	4623
2026-01-13 01:28:34.64	318.60	22.12	-42.6	-44.6	17.6	0.00e+00	0	40	0	0	56	4631
2026-01-13 01:28:35.59	318.35	22.14	-42.6	-44.6	17.6	0.00e+00	0	40	0	0	56	4645
2026-01-13 01:28:36.96	317.99	22.17	-42.5	-44.5	17.8	0.00e+00	0	39	0	0	56	4559
2026-01-13 01:28:37.72	317.79	22.19	-42.5	-44.5	17.8	0.00e+00	0	40	0	0	56	4582
2026-01-13 01:28:39.00	317.45	22.21	-42.4	-44.4	17.8	0.00e+00	0	40	0	0	56	4528
2026-01-13 01:28:39.72	317.26	22.23	-42.4	-44.4	17.9	0.00e+00	0	40	0	0	56	4500
2026-01-13 01:28:41.00	316.92	22.25	-42.5	-44.5	17.7	0.00e+00	0	40	0	0	56	4558
2026-01-13 01:28:41.74	316.72	22.27	-42.5	-44.4	17.8	0.00e+00	0	39	0	0	56	4535
2026-01-13 01:28:43.02	316.38	22.29	-42.4	-44.4	17.8	0.00e+00	0	40	0	0	56	4500
2026-01-13 01:28:43.74	316.19	22.30	-42.4	-44.3	17.9	0.00e+00	0	39	0	0	56	4492
2026-01-13 01:28:45.02	315.85	22.32	-42.4	-44.3	17.9	0.00e+00	0	40	0	0	56	4491
2026-01-13 01:28:45.76	315.65	22.33	-42.4	-44.3	17.9	0.00e+00	0	40	0	0	56	4490
2026-01-13 01:28:47.07	315.30	22.35	-42.4	-44.4	17.8	0.00e+00	0	39	0	0	56	4500
2026-01-13 01:28:48.07	315.03	22.37	-42.5	-44.5	17.7	0.00e+00	0	40	0	0	56	4556
2026-01-13 01:28:49.38	314.68	22.39	-42.6	-44.6	17.7	0.00e+00	0	39	0	0	56	4613
2026-01-13 01:28:50.09	314.49	22.40	-42.6	-44.6	17.7	0.00e+00	0	39	0	0	56	4634
2026-01-13 01:28:51.71	314.05	22.42	-42.7	-44.7	17.6	0.00e+00	0	39	0	0	56	4675
2026-01-13 01:28:52.28	313.90	22.42	-42.6	-44.7	17.7	0.00e+00	0	39	0	0	56	4653
2026-01-13 01:28:54.19	313.39	22.44	-42.6	-44.6	17.7	0.00e+00	0	39	0	0	56	4629
2026-01-13 01:28:55.11	313.14	22.45	-42.7	-44.8	17.6	0.00e+00	0	39	0	0	56	4707
2026-01-13 01:28:56.10	312.87	22.46	-42.7	-44.7	17.6	0.00e+00	0	39	0	0	56	4674
2026-01-13 01:28:57.09	312.61	22.47	-42.6	-44.6	17.6	0.00e+00	0	39	0	0	56	4642
2026-01-13 01:28:58.09	312.34	22.48	-42.5	-44.5	17.8	0.00e+00	0	39	0	0	56	4580
2026-01-13 01:28:59.08	312.07	22.48	-42.6	-44.6	17.7	0.00e+00	0	40	0	0	56	4614
2026-01-13 01:29:00.08	311.80	22.49	-42.7	-44.6	17.6	0.00e+00	0	39	0	0	56	4651
2026-01-13 01:29:01.17	311.50	22.50	-42.4	-44.4	17.9	0.00e+00	0	39	0	0	56	4497
2026-01-13 01:29:02.02	311.27	22.50	-42.2	-44.2	18.0	0.00e+00	0	39	0	0	56	4398
2026-01-13 01:29:03.16	310.97	22.51	-42.1	-44.1	18.1	0.00e+00	0	39	0	0	56	4351
2026-01-13 01:29:04.01	310.74	22.51	-42.2	-44.1	18.1	0.00e+00	0	39	0	0	56	4351
2026-01-13 01:29:05.15	310.43	22.51	-42.2	-44.1	18.1	0.00e+00	0	39	0	0	56	4356
2026-01-13 01:29:06.00	310.20	22.51	-42.2	-44.1	18.1	0.00e+00	0	39	0	0	56	4366
2026-01-13 01:29:07.14	309.89	22.52	-42.4	-44.4	17.9	0.00e+00	0	39	0	0	56	4494
2026-01-13 01:29:08.34	309.57	22.52	-42.5	-44.5	17.8	0.00e+00	0	39	0	0	56	4565
2026-01-13 01:29:09.19	309.34	22.52	-42.6	-44.6	17.7	0.00e+00	0	39	0	0	56	4613
2026-01-13 01:29:10.33	309.03	22.52	-42.6	-44.6	17.6	0.00e+00	0	39	0	0	56	4641
2026-01-13 01:29:11.18	308.80	22.52	-42.7	-44.8	17.5	0.00e+00	0	40	0	0	56	4707
2026-01-13 01:29:12.32	308.49	22.51	-42.8	-44.8	17.4	0.00e+00	0	39	0	0	56	4737
2026-01-13 01:29:13.17	308.26	22.51	-42.7	-44.7	17.5	0.00e+00	0	39	0	0	56	4682
2026-01-13 01:29:14.30	307.95	22.51	-42.6	-44.6	17.7	0.00e+00	0	40	0	0	56	4620
2026-01-13 01:29:15.16	307.72	22.50	-42.6	-44.6	17.6	0.00e+00	0	39	0	0	56	4640
2026-01-13 01:29:16.31	307.41	22.50	-42.5	-44.5	17.8	0.00e+00	0	39	0	0	56	4554
2026-01-13 01:29:17.16	307.18	22.49	-42.4	-44.4	17.9	0.00e+00	0	40	0	0	56	4499
2026-01-13 01:29:18.30	306.87	22.49	-42.4	-44.4	17.9	0.00e+00	0	40	0	0	56	4495
2026-01-13 01:29:19.15	306.64	22.48	-42.3	-44.2	18.1	0.00e+00	0	39	0	0	56	4396
2026-01-13 01:29:20.29	306.33	22.47	-42.3	-44.2	18.0	0.00e+00	0	39	0	0	56	4394
2026-01-13 01:29:21.14	306.10	22.47	-42.3	-44.2	17.9	0.00e+00	0	39	0	0	56	4436
2026-01-13 01:29:22.28	305.80	22.46	-42.4	-44.3	17.8	0.00e+00	0	39	0	0	56	4488
2026-01-13 01:29:23.21	305.55	22.45	-42.5	-44.4	17.8	0.00e+00	0	39	0	0	56	4533
2026-01-13 01:29:24.38	305.23	22.44	-42.5	-44.4	17.8	0.00e+00	0	39	0	0	56	4521
2026-01-13 01:29:25.23	305.00	22.43	-42.5	-44.4	17.8	0.00e+00	0	39	0	0	56	4532
2026-01-13 01:29:26.37	304.70	22.41	-42.4	-44.3	17.9	0.00e+00	0	39	0	0	56	4486
2026-01-13 01:29:27.22	304.47	22.40	-42.3	-44.2	17.9	0.00e+00	0	39	0	0	56	4438
2026-01-13 01:29:28.36	304.16	22.39	-42.4	-44.4	17.8	0.00e+00	0	39	0	0	56	4516
2026-01-13 01:29:29.21	303.93	22.38	-42.5	-44.5	17.7	0.00e+00	0	40	0	0	56	4563
2026-01-13 01:29:30.68	303.54	22.36	-42.8	-44.8	17.4	0.00e+00	0	39	0	0	56	4736
2026-01-13 01:29:31.39	303.35	22.35	-42.9	-44.9	17.3	0.00e+00	0	39	0	0	56	4785
2026-01-13 01:29:32.67	303.01	22.33	-42.9	-44.9	17.3	0.00e+00	0	39	0	0	56	4809
2026-01-13 01:29:33.40	302.81	22.31	-42.8	-44.8	17.4	0.00e+00	0	39	0	0	56	4727
2026-01-13 01:29:34.68	302.47	22.29	-42.7	-44.7	17.5	0.00e+00	0	39	0	0	56	4694
2026-01-13 01:29:35.40	302.28	22.28	-42.6	-44.6	17.6	0.00e+00	0	39	0	0	56	4626
2026-01-13 01:29:36.68	301.94	22.26	-42.4	-44.4	17.8	0.00e+00	0	39	0	0	56	4518
2026-01-13 01:29:37.49	301.72	22.24	-42.5	-44.4	17.8	0.00e+00	0	39	0	0	56	4533
2026-01-13 01:29:38.62	301.42	22.22	-42.6	-44.5	17.7	0.00e+00	0	39	0	0	56	4587
2026-01-13 01:29:39.48	301.19	22.20	-42.6	-44.5	17.7	0.00e+00	0	39	0	0	56	4587
2026-01-13 01:29:40.61	300.89	22.18	-42.5	-44.5	17.8	0.00e+00	0	39	0	0	56	4559
2026-01-13 01:29:41.72	300.60	22.16	-42.3	-44.2	18.0	0.00e+00	0	39	0	0	56	4411
2026-01-13 01:29:42.57	300.37	22.14	-42.3	-44.2	17.9	0.00e+00	0	39	0	0	56	4436
2026-01-13 01:29:43.71	300.07	22.11	-42.3	-44.2	18.0	0.00e+00	0	39	0	0	56	4425
2026-01-13 01:29:44.80	299.79	22.09	-42.4	-44.4	17.8	0.00e+00	0	39	0	0	56	4512
2026-01-13 01:29:45.82	299.52	22.06	-42.4	-44.4	17.8	0.00e+00	0	39	0	0	56	4497
2026-01-13 01:29:46.82	299.25	22.04	-42.5	-44.5	17.7	0.00e+00	0	39	0	0	56	4564
2026-01-13 01:29:47.81	299.00	22.01	-42.7	-44.7	17.5	0.00e+00	0	39	0	0	56	4670
2026-01-13 01:29:48.81	298.73	21.99	-42.7	-44.7	17.4	0.00e+00	0	39	0	0	56	4703
2026-01-13 01:29:49.80	298.47	21.96	-42.7	-44.7	17.4	0.00e+00	0	39	0	0	56	4699
2026-01-13 01:29:50.80	298.21	21.93	-42.6	-44.6	17.6	0.00e+00	0	39	0	0	56	4616
2026-01-13 01:29:51.79	297.96	21.90	-42.5	-44.4	17.7	0.00e+00	0	39	0	0	56	4529
2026-01-13 01:29:52.78	297.70	21.88	-42.4	-44.3	17.8	0.00e+00	0	39	0	0	56	4476
2026-01-13 01:29:53.78	297.44	21.85	-42.3	-44.3	17.9	0.00e+00	0	39	0	0	56	4459
2026-01-13 01:29:54.77	297.18	21.82	-42.3	-44.2	17.9	0.00e+00	0	39	0	0	56	4431
2026-01-13 01:29:55.77	296.92	21.79	-42.3	-44.3	17.9	0.00e+00	0	39	0	0	56	4464
2026-01-13 01:29:56.78	296.66	21.76	-42.4	-44.4	17.8	0.00e+00	0	39	0	0	56	4512
2026-01-13 01:29:57.79	296.40	21.73	-42.4	-44.3	17.9	0.00e+00	0	39	0	0	56	4482
2026-01-13 01:29:58.78	296.15	21.69	-42.4	-44.4	17.8	0.00e+00	0	40	0	0	56	4503
2026-01-13 01:29:59.87	295.87	21.66	-42.5	-44.4	17.7	0.00e+00	0	39	0	0	56	4543
2026-01-13 01:30:00.73	295.65	21.63	-42.5	-44.5	17.7	0.00e+00	0	40	0	0	56	4565
2026-01-13 01:30:01.87	295.36	21.59	-42.5	-44.5	17.7	0.00e+00	0	39	0	0	56	4564
2026-01-13 01:30:02.72	295.14	21.56	-42.6	-44.5	17.6	0.00e+00	0	39	0	0	56	4584
2026-01-13 01:30:03.86	294.85	21.52	-42.7	-44.6	17.5	0.00e+00	0	39	0	0	56	4651
2026-01-13 01:30:04.87	294.59	21.49	-42.6	-44.6	17.6	0.00e+00	0	39	0	0	56	4623
2026-01-13 01:30:05.86	294.34	21.45	-42.7	-44.7	17.5	0.00e+00	0	40	0	0	56	4657
2026-01-13 01:30:06.85	294.09	21.42	-42.7	-44.7	17.5	0.00e+00	0	39	0	0	56	4672
2026-01-13 01:30:07.85	293.84	21.38	-42.6	-44.6	17.6	0.00e+00	0	39	0	0	56	4624
2026-01-13 01:30:08.84	293.59	21.34	-42.6	-44.5	17.7	0.00e+00	0	39	0	0	56	4584
2026-01-13 01:30:09.84	293.34	21.30	-42.7	-44.7	17.5	0.00e+00	0	39	0	0	56	4686
2026-01-13 01:30:10.83	293.09	21.27	-42.7	-44.7	17.5	0.00e+00	0	39	0	0	56	4681
2026-01-13 01:30:11.83	292.85	21.23	-42.7	-44.7	17.5	0.00e+00	0	39	0	0	56	4678
2026-01-13 01:30:12.82	292.60	21.19	-42.8	-44.8	17.4	0.00e+00	0	40	0	0	56	4724
2026-01-13 01:30:13.82	292.35	21.15	-42.7	-44.7	17.5	0.00e+00	0	39	0	0	56	4688
2026-01-13 01:30:14.81	292.11	21.11	-42.8	-44.8	17.4	0.00e+00	0	40	0	0	56	4724
2026-01-13 01:30:15.85	291.85	21.07	-42.8	-44.8	17.4	0.00e+00	0	39	0	0	56	4736
2026-01-13 01:30:16.88	291.60	21.02	-42.6	-44.6	17.6	0.00e+00	0	40	0	0	56	4628
2026-01-13 01:30:17.88	291.35	20.98	-42.7	-44.7	17.6	0.00e+00	0	39	0	0	56	4664
2026-01-13 01:30:18.87	291.11	20.94	-42.6	-44.6	17.6	0.00e+00	0	39	0	0	56	4615
2026-01-13 01:30:19.94	290.85	20.89	-42.7	-44.7	17.5	0.00e+00	0	39	0	0	56	4658
2026-01-13 01:30:20.83	290.63	20.85	-42.8	-44.8	17.4	0.00e+00	0	39	0	0	56	4718
2026-01-13 01:30:21.97	290.35	20.80	-42.6	-44.6	17.6	0.00e+00	0	39	0	0	56	4645
2026-01-13 01:30:22.82	290.15	20.77	-42.7	-44.7	17.5	0.00e+00	0	39	0	0	56	4694
2026-01-13 01:30:23.96	289.87	20.72	-42.7	-44.7	17.5	0.00e+00	0	39	0	0	56	4663
2026-01-13 01:30:24.81	289.67	20.68	-42.7	-44.6	17.5	0.00e+00	0	39	0	0	56	4651
2026-01-13 01:30:25.95	289.39	20.63	-42.7	-44.8	17.4	0.00e+00	0	40	0	0	56	4706
2026-01-13 01:30:26.80	289.19	20.59	-42.7	-44.8	17.4	0.00e+00	0	39	0	0	56	4709
2026-01-13 01:30:27.93	288.92	20.53	-42.8	-44.8	17.4	0.00e+00	0	39	0	0	56	4752
2026-01-13 01:30:28.79	288.72	20.49	-42.8	-44.8	17.4	0.00e+00	0	39	0	0	56	4717
2026-01-13 01:30:29.92	288.45	20.44	-42.5	-44.5	17.7	0.00e+00	0	39	0	0	56	4565
2026-01-13 01:30:30.78	288.24	20.40	-42.4	-44.4	17.8	0.00e+00	0	40	0	0	56	4500
2026-01-13 01:30:31.91	287.98	20.34	-42.4	-44.3	17.9	0.00e+00	0	39	0	0	56	4472
2026-01-13 01:30:32.77	287.78	20.30	-42.5	-44.4	17.8	0.00e+00	0	40	0	0	56	4534
2026-01-13 01:30:33.90	287.51	20.25	-42.6	-44.5	17.7	0.00e+00	0	39	0	0	56	4578
2026-01-13 01:30:34.75	287.31	20.20	-42.6	-44.6	17.6	0.00e+00	0	39	0	0	56	4638
2026-01-13 01:30:36.08	287.00	20.14	-42.4	-44.4	17.8	0.00e+00	0	39	0	0	56	4514
2026-01-13 01:30:36.79	286.84	20.10	-42.3	-44.2	18.0	0.00e+00	0	40	0	0	56	4399
2026-01-13 01:30:38.26	286.50	20.03	-42.1	-44.0	18.2	0.00e+00	0	39	0	0	56	4317
2026-01-13 01:30:38.97	286.34	19.99	-42.2	-44.1	18.1	0.00e+00	0	39	0	0	56	4360
2026-01-13 01:30:40.30	286.03	19.92	-42.1	-43.9	18.2	0.00e+00	0	39	0	0	56	4284
2026-01-13 01:30:41.01	285.87	19.89	-42.1	-43.9	18.2	0.00e+00	0	39	0	0	56	4280
2026-01-13 01:30:42.29	285.58	19.82	-42.2	-44.1	18.1	0.00e+00	0	39	0	0	56	4371
2026-01-13 01:30:43.01	285.41	19.78	-42.3	-44.2	18.0	0.00e+00	0	39	0	0	56	4401
2026-01-13 01:30:44.29	285.12	19.71	-42.5	-44.5	17.7	0.00e+00	0	39	0	0	56	4559
2026-01-13 01:30:45.00	284.96	19.68	-42.7	-44.7	17.6	0.00e+00	0	39	0	0	56	4655
2026-01-13 01:30:46.28	284.68	19.61	-42.8	-44.9	17.4	0.00e+00	0	39	0	0	56	4780
2026-01-13 01:30:47.01	284.51	19.57	-43.0	-45.1	17.2	0.00e+00	0	39	0	0	56	4875
2026-01-13 01:30:48.29	284.23	19.50	-43.0	-45.1	17.2	0.00e+00	0	39	0	0	56	4877
2026-01-13 01:30:49.00	284.07	19.46	-43.0	-45.1	17.2	0.00e+00	0	39	0	0	56	4891
2026-01-13 01:30:50.28	283.78	19.39	-43.1	-45.1	17.1	0.00e+00	0	39	0	0	56	4924
2026-01-13 01:30:51.12	283.60	19.34	-43.0	-45.1	17.1	0.00e+00	0	39	0	0	56	4894
2026-01-13 01:30:52.25	283.35	19.28	-43.0	-45.1	17.1	0.00e+00	0	39	0	0	56	4890
2026-01-13 01:30:53.10	283.16	19.23	-43.0	-45.1	17.1	0.00e+00	0	39	0	0	56	4904
2026-01-13 01:30:54.24	282.92	19.17	-43.0	-45.1	17.1	0.00e+00	0	39	0	0	56	4880
2026-01-13 01:30:55.09	282.73	19.12	-42.9	-45.0	17.2	0.00e+00	0	39	0	0	56	4836
2026-01-13 01:30:56.23	282.48	19.05	-42.9	-45.0	17.2	0.00e+00	0	39	0	0	56	4841
2026-01-13 01:30:57.08	282.30	19.00	-43.0	-45.0	17.1	0.00e+00	0	40	0	0	56	4869
2026-01-13 01:30:58.22	282.06	18.94	-42.8	-44.8	17.3	0.00e+00	0	39	0	0	56	4745
2026-01-13 01:30:59.08	281.87	18.89	-42.7	-44.7	17.5	0.00e+00	0	39	0	0	56	4681
2026-01-13 01:31:00.23	281.63	18.82	-42.8	-44.8	17.4	0.00e+00	0	39	0	0	56	4748
2026-01-13 01:31:01.08	281.45	18.77	-42.9	-45.0	17.2	0.00e+00	0	39	0	0	56	4819
2026-01-13 01:31:02.28	281.19	18.70	-43.0	-45.1	17.1	0.00e+00	0	39	0	0	56	4914
2026-01-13 01:31:03.13	281.01	18.65	-43.1	-45.2	17.0	0.00e+00	0	39	0	0	56	4983
2026-01-13 01:31:04.32	280.76	18.58	-43.0	-45.1	17.1	0.00e+00	0	39	0	0	56	4875
2026-01-13 01:31:05.17	280.58	18.53	-42.9	-45.0	17.2	0.00e+00	0	39	0	0	56	4835
2026-01-13 01:31:06.31	280.35	18.46	-42.7	-44.8	17.3	0.00e+00	0	40	0	0	56	4716
2026-01-13 01:31:07.16	280.17	18.41	-42.6	-44.6	17.5	0.00e+00	0	39	0	0	56	4607
2026-01-13 01:31:08.42	279.91	18.34	-42.5	-44.5	17.6	0.00e+00	0	39	0	0	56	4569
2026-01-13 01:31:09.23	279.74	18.29	-42.5	-44.5	17.6	0.00e+00	0	40	0	0	56	4580
2026-01-13 01:31:10.36	279.51	18.22	-42.4	-44.3	17.8	0.00e+00	0	39	0	0	56	4478
2026-01-13 01:31:11.21	279.34	18.17	-42.4	-44.3	17.8	0.00e+00	0	39	0	0	56	4456
2026-01-13 01:31:12.35	279.11	18.10	-42.5	-44.4	17.7	0.00e+00	0	39	0	0	56	4541
2026-01-13 01:31:13.20	278.93	18.05	-42.6	-44.5	17.6	0.00e+00	0	39	0	0	56	4590
2026-01-13 01:31:14.34	278.70	17.98	-42.6	-44.6	17.5	0.00e+00	0	40	0	0	56	4632
2026-01-13 01:31:15.19	278.53	17.92	-42.7	-44.7	17.5	0.00e+00	0	40	0	0	56	4665
2026-01-13 01:31:16.33	278.30	17.85	-42.6	-44.6	17.5	0.00e+00	0	39	0	0	56	4620
2026-01-13 01:31:17.18	278.13	17.80	-42.5	-44.5	17.6	0.00e+00	0	40	0	0	56	4564
2026-01-13 01:31:18.70	277.83	17.70	-42.5	-44.5	17.6	0.00e+00	0	39	0	0	56	4579
2026-01-13 01:31:19.41	277.69	17.66	-42.5	-44.5	17.6	0.00e+00	0	39	0	0	56	4576
2026-01-13 01:31:20.69	277.44	17.58	-42.6	-44.6	17.5	0.00e+00	0	39	0	0	56	4632
2026-01-13 01:31:21.40	277.30	17.54	-42.7	-44.7	17.4	0.00e+00	0	39	0	0	56	4704
2026-01-13 01:31:22.68	277.05	17.45	-42.8	-44.8	17.3	0.00e+00	0	39	0	0	56	4725
2026-01-13 01:31:23.40	276.91	17.41	-42.9	-44.9	17.3	0.00e+00	0	39	0	0	56	4799
2026-01-13 01:31:24.68	276.67	17.33	-43.1	-45.1	17.1	0.00e+00	0	39	0	0	56	4914
2026-01-13 01:31:25.50	276.51	17.28	-43.0	-45.1	17.1	0.00e+00	0	39	0	0	56	4899
2026-01-13 01:31:26.64	276.29	17.20	-43.1	-45.1	17.0	0.00e+00	0	40	0	0	56	4926
2026-01-13 01:31:27.72	276.08	17.13	-43.0	-45.1	17.1	0.00e+00	0	39	0	0	56	4902
2026-01-13 01:31:28.75	275.89	17.07	-42.9	-45.0	17.2	0.00e+00	0	39	0	0	56	4824
2026-01-13 01:31:29.74	275.70	17.00	-42.8	-44.8	17.3	0.00e+00	0	39	0	0	56	4756
2026-01-13 01:31:30.94	275.47	16.93	-42.6	-44.6	17.5	0.00e+00	0	39	0	0	56	4645
2026-01-13 01:31:31.83	275.31	16.87	-42.6	-44.6	17.5	0.00e+00	0	39	0	0	56	4635
2026-01-13 01:31:33.12	275.07	16.78	-42.8	-44.8	17.4	0.00e+00	0	39	0	0	56	4719
2026-01-13 01:31:33.83	274.93	16.74	-42.8	-44.8	17.4	0.00e+00	0	39	0	0	56	4736
2026-01-13 01:31:35.12	274.70	16.65	-42.9	-44.9	17.3	0.00e+00	0	39	0	0	56	4776
2026-01-13 01:31:35.83	274.57	16.61	-42.9	-45.0	17.2	0.00e+00	0	39	0	0	56	4847
2026-01-13 01:31:37.11	274.33	16.52	-43.1	-45.2	16.9	0.00e+00	0	39	0	0	56	4977
2026-01-13 01:31:37.85	274.20	16.48	-43.2	-45.3	16.8	0.00e+00	0	40	0	0	57	4754
2026-01-13 01:31:39.13	273.96	16.39	-43.3	-45.5	16.7	0.00e+00	0	39	0	0	57	4816
2026-01-13 01:31:39.89	273.83	16.34	-43.4	-45.5	16.6	0.00e+00	0	39	0	0	57	4868
2026-01-13 01:31:41.17	273.60	16.26	-43.4	-45.6	16.6	0.00e+00	0	40	0	0	57	4909
2026-01-13 01:31:41.98	273.45	16.20	-43.4	-45.7	16.5	0.00e+00	0	40	0	0	57	4928
2026-01-13 01:31:43.12	273.25	16.13	-43.5	-45.7	16.5	0.00e+00	0	40	0	0	57	4964
2026-01-13 01:31:43.97	273.10	16.07	-43.5	-45.7	16.5	0.00e+00	0	39	0	0	57	4955
2026-01-13 01:31:45.11	272.89	16.00	-43.5	-45.7	16.5	0.00e+00	0	39	0	0	57	4969
2026-01-13 01:31:45.96	272.74	15.94	-43.5	-45.7	16.5	0.00e+00	0	39	0	0	57	4953
2026-01-13 01:31:47.10	272.54	15.87	-43.5	-45.6	16.6	0.00e+00	0	39	0	0	57	4905
2026-01-13 01:31:47.95	272.40	15.81	-43.3	-45.4	16.8	0.00e+00	0	39	0	0	57	4764
2026-01-13 01:31:49.12	272.19	15.73	-42.9	-45.0	17.2	0.00e+00	0	39	0	0	57	4562
2026-01-13 01:31:49.98	272.04	15.67	-42.9	-45.0	17.2	0.00e+00	0	39	0	0	57	4563
2026-01-13 01:31:51.11	271.85	15.60	-42.9	-44.9	17.2	0.00e+00	0	39	0	0	57	4527
2026-01-13 01:31:51.96	271.70	15.54	-42.9	-45.0	17.2	0.00e+00	0	39	0	0	57	4549
2026-01-13 01:31:53.10	271.51	15.47	-42.7	-44.7	17.4	0.00e+00	0	39	0	0	57	4416
2026-01-13 01:31:53.95	271.37	15.41	-42.5	-44.5	17.6	0.00e+00	0	39	0	0	57	4329
2026-01-13 01:31:55.09	271.17	15.33	-42.6	-44.6	17.5	0.00e+00	0	39	0	0	57	4369
2026-01-13 01:31:55.94	271.03	15.28	-42.6	-44.6	17.5	0.00e+00	0	39	0	0	57	4365
2026-01-13 01:31:57.08	270.84	15.20	-42.7	-44.8	17.4	0.00e+00	0	39	0	0	57	4444
2026-01-13 01:31:57.94	270.69	15.14	-42.9	-45.0	17.1	0.00e+00	0	39	0	0	57	4561
2026-01-13 01:31:59.07	270.51	15.06	-43.1	-45.2	17.0	0.00e+00	0	40	0	0	57	4656
2026-01-13 01:31:59.92	270.37	15.01	-43.2	-45.3	16.8	0.00e+00	0	39	0	0	57	4759
2026-01-13 01:32:01.06	270.18	14.93	-43.4	-45.6	16.5	0.00e+00	0	40	0	0	57	4910
2026-01-13 01:32:02.20	269.99	14.85	-43.6	-45.8	16.4	0.00e+00	0	40	0	0	57	5013
2026-01-13 01:32:03.23	269.82	14.78	-43.5	-45.8	16.4	0.00e+00	0	39	0	0	57	5000
2026-01-13 01:32:04.39	269.64	14.71	-43.4	-45.6	16.5	0.00e+00	0	39	0	0	57	4912
2026-01-13 01:32:05.25	269.50	14.65	-43.4	-45.6	16.6	0.00e+00	0	40	0	0	57	4890
2026-01-13 01:32:06.59	269.28	14.56	-43.2	-45.4	16.8	0.00e+00	0	39	0	0	57	4768
2026-01-13 01:32:07.30	269.17	14.51	-43.2	-45.2	16.9	0.00e+00	0	39	0	0	57	4705
2026-01-13 01:32:08.58	268.97	14.42	-43.1	-45.1	17.0	0.00e+00	0	39	0	0	57	4647
2026-01-13 01:32:09.31	268.85	14.37	-42.9	-45.0	17.2	0.00e+00	0	40	0	0	57	4548
2026-01-13 01:32:10.59	268.65	14.29	-43.0	-45.0	17.1	0.00e+00	0	39	0	0	57	4595
2026-01-13 01:32:11.31	268.54	14.24	-42.9	-45.0	17.1	0.00e+00	0	39	0	0	57	4582
2026-01-13 01:32:12.59	268.34	14.15	-43.2	-45.3	16.8	0.00e+00	0	40	0	0	57	4755
2026-01-13 01:32:13.31	268.22	14.10	-43.3	-45.4	16.7	0.00e+00	0	39	0	0	57	4787
2026-01-13 01:32:14.58	268.03	14.02	-43.4	-45.5	16.5	0.00e+00	0	39	0	0	57	4863
2026-01-13 01:32:15.31	267.91	13.97	-43.4	-45.6	16.5	0.00e+00	0	40	0	0	57	4898
2026-01-13 01:32:16.59	267.72	13.88	-43.6	-45.9	16.2	0.00e+00	0	39	0	0	57	5043
2026-01-13 01:32:17.51	267.58	13.82	-43.7	-46.0	16.1	0.00e+00	0	39	0	0	58	4845
2026-01-13 01:32:18.50	267.43	13.75	-43.8	-46.1	16.1	0.00e+00	0	39	0	0	58	4876
2026-01-13 01:32:19.49	267.28	13.68	-43.8	-46.1	16.0	0.00e+00	0	40	0	0	58	4882
2026-01-13 01:32:20.49	267.13	13.61	-43.6	-45.9	16.3	0.00e+00	0	39	0	0	58	4765
2026-01-13 01:32:21.48	266.98	13.55	-43.6	-45.8	16.3	0.00e+00	0	39	0	0	58	4722
2026-01-13 01:32:22.48	266.83	13.48	-43.4	-45.6	16.6	0.00e+00	0	39	0	0	58	4604
2026-01-13 01:32:23.47	266.68	13.41	-43.3	-45.4	16.7	0.00e+00	0	40	0	0	58	4525
2026-01-13 01:32:24.47	266.54	13.34	-43.2	-45.3	16.8	0.00e+00	0	40	0	0	58	4489
2026-01-13 01:32:25.47	266.39	13.28	-43.2	-45.3	16.8	0.00e+00	0	39	0	0	58	4482
2026-01-13 01:32:26.46	266.24	13.21	-43.1	-45.2	16.9	0.00e+00	0	40	0	0	58	4401
2026-01-13 01:32:27.52	266.09	13.14	-43.1	-45.2	16.9	0.00e+00	0	39	0	0	58	4418
2026-01-13 01:32:28.42	265.96	13.08	-43.2	-45.4	16.7	0.00e+00	0	39	0	0	58	4496
2026-01-13 01:32:29.49	265.80	13.00	-43.3	-45.4	16.6	0.00e+00	0	39	0	0	58	4521
2026-01-13 01:32:30.34	265.68	12.94	-43.4	-45.6	16.4	0.00e+00	0	39	0	0	58	4612
2026-01-13 01:32:31.48	265.52	12.87	-43.5	-45.7	16.3	0.00e+00	0	39	0	0	58	4705
2026-01-13 01:32:32.34	265.40	12.81	-43.7	-46.0	16.1	0.00e+00	0	40	0	0	58	4827
2026-01-13 01:32:33.47	265.24	12.73	-43.9	-46.2	15.9	0.00e+00	0	39	0	0	58	4978
2026-01-13 01:32:34.33	265.12	12.67	-43.9	-46.2	15.9	0.00e+00	0	39	0	0	58	4952
2026-01-13 01:32:35.46	264.96	12.60	-44.0	-46.4	15.7	0.00e+00	0	39	0	0	58	5069
2026-01-13 01:32:36.32	264.84	12.54	-44.1	-46.5	15.6	0.00e+00	0	39	0	0	58	5120
2026-01-13 01:32:37.48	264.68	12.46	-44.0	-46.4	15.7	0.00e+00	0	39	0	0	58	5047
2026-01-13 01:32:38.33	264.56	12.40	-44.0	-46.4	15.7	0.00e+00	0	40	0	0	58	5069
2026-01-13 01:32:39.53	264.39	12.32	-43.9	-46.2	15.8	0.00e+00	0	39	0	0	58	4960
2026-01-13 01:32:40.39	264.27	12.26	-43.9	-46.2	15.9	0.00e+00	0	39	0	0	58	4932
2026-01-13 01:32:41.52	264.12	12.19	-43.7	-45.9	16.1	0.00e+00	0	39	0	0	58	4812
2026-01-13 01:32:42.38	264.00	12.13	-43.6	-45.9	16.1	0.00e+00	0	39	0	0	58	4785
2026-01-13 01:32:43.51	263.85	12.05	-43.5	-45.8	16.2	0.00e+00	0	39	0	0	58	4719
2026-01-13 01:32:44.37	263.74	11.99	-43.5	-45.7	16.3	0.00e+00	0	39	0	0	58	4700
2026-01-13 01:32:45.71	263.56	11.90	-43.4	-45.7	16.3	0.00e+00	0	39	0	0	58	4694
2026-01-13 01:32:46.42	263.46	11.86	-43.5	-45.9	16.1	0.00e+00	0	39	0	0	58	4771
2026-01-13 01:32:47.70	263.29	11.77	-43.5	-45.7	16.3	0.00e+00	0	39	0	0	58	4697
2026-01-13 01:32:48.41	263.20	11.72	-43.5	-45.7	16.2	0.00e+00	0	39	0	0	58	4702
2026-01-13 01:32:49.69	263.03	11.63	-43.7	-46.0	16.0	0.00e+00	0	40	0	0	58	4853
2026-01-13 01:32:50.40	262.94	11.59	-43.7	-46.1	16.0	0.00e+00	0	39	0	0	58	4874
2026-01-13 01:32:51.68	262.77	11.50	-43.9	-46.2	15.8	0.00e+00	0	40	0	0	58	4979
2026-01-13 01:32:52.50	262.66	11.45	-44.0	-46.3	15.7	0.00e+00	0	39	0	0	58	5029
2026-01-13 01:32:53.64	262.52	11.37	-44.1	-46.4	15.6	0.00e+00	0	40	0	0	58	5100
2026-01-13 01:32:54.66	262.39	11.30	-44.2	-46.6	15.4	0.00e+00	0	39	0	0	59	4922
2026-01-13 01:32:55.66	262.26	11.23	-44.1	-46.6	15.5	0.00e+00	0	39	0	0	59	4871
2026-01-13 01:32:56.84	262.11	11.15	-44.2	-46.6	15.5	0.00e+00	0	40	0	0	59	4899
2026-01-13 01:32:57.73	262.00	11.09	-44.2	-46.6	15.4	0.00e+00	0	39	0	0	59	4922
2026-01-13 01:32:58.86	261.85	11.02	-44.3	-46.8	15.2	0.00e+00	0	39	0	0	59	4997
2026-01-13 01:32:59.80	261.74	10.95	-44.3	-46.7	15.3	0.00e+00	0	40	0	0	59	4969
2026-01-13 01:33:00.98	261.59	10.88	-44.3	-46.7	15.3	0.00e+00	0	39	0	0	59	4963
2026-01-13 01:33:01.83	261.48	10.82	-44.3	-46.8	15.2	0.00e+00	0	39	0	0	59	4996
2026-01-13 01:33:02.97	261.34	10.74	-44.2	-46.6	15.3	7.00e-07	0	39	0	0	59	4903
2026-01-13 01:33:03.82	261.24	10.69	-44.2	-46.7	15.3	0.00e+00	0	39	0	0	59	4946
2026-01-13 01:33:04.96	261.10	10.61	-44.2	-46.6	15.4	0.00e+00	0	39	0	0	59	4906
2026-01-13 01:33:05.81	260.99	10.55	-44.1	-46.6	15.4	0.00e+00	0	39	0	0	59	4877
2026-01-13 01:33:06.94	260.86	10.48	-44.3	-46.8	15.2	0.00e+00	0	39	0	0	59	4995
2026-01-13 01:33:07.80	260.75	10.42	-44.3	-46.8	15.2	7.00e-07	0	39	0	0	59	5037
2026-01-13 01:33:08.93	260.62	10.35	-44.5	-47.0	15.0	0.00e+00	0	40	0	0	59	5135
2026-01-13 01:33:09.79	260.52	10.29	-44.5	-47.1	15.0	0.00e+00	0	39	0	0	59	5160
2026-01-13 01:33:10.92	260.38	10.21	-44.6	-47.3	14.7	0.00e+00	0	39	0	0	59	5290
2026-01-13 01:33:11.77	260.28	10.16	-44.7	-47.4	14.7	1.50e-06	0	39	0	0	60	5052
2026-01-13 01:33:13.00	260.13	10.08	-44.8	-47.5	14.5	1.50e-06	0	39	0	0	60	5152
2026-01-13 01:33:13.86	260.03	10.02	-44.8	-47.6	14.4	0.00e+00	0	39	0	0	60	5195
2026-01-13 01:33:15.09	259.89	9.94	-44.8	-47.6	14.4	7.00e-07	0	39	0	0	60	5177
2026-01-13 01:33:15.94	259.79	9.88	-44.7	-47.5	14.5	0.00e+00	0	39	0	0	60	5116
2026-01-13 01:33:17.12	259.66	9.80	-44.6	-47.3	14.7	0.00e+00	0	39	0	0	60	4991
2026-01-13 01:33:17.98	259.56	9.75	-44.5	-47.1	14.9	0.00e+00	0	39	0	0	60	4912
2026-01-13 01:33:19.12	259.43	9.67	-44.5	-47.1	14.9	0.00e+00	0	39	0	0	60	4891
2026-01-13 01:33:19.97	259.33	9.62	-44.4	-47.0	14.9	1.50e-06	0	39	0	0	60	4870
2026-01-13 01:33:21.10	259.20	9.54	-44.3	-46.9	15.1	0.00e+00	0	39	0	0	60	4760
2026-01-13 01:33:21.95	259.10	9.49	-44.2	-46.7	15.2	0.00e+00	0	39	0	0	60	4699
2026-01-13 01:33:23.09	258.98	9.41	-44.1	-46.6	15.4	0.00e+00	0	39	0	0	60	4631
2026-01-13 01:33:23.94	258.88	9.35	-44.2	-46.7	15.3	0.00e+00	0	39	0	0	60	4666
2026-01-13 01:33:25.08	258.75	9.28	-44.2	-46.6	15.3	0.00e+00	0	39	0	0	60	4648
2026-01-13 01:33:25.93	258.66	9.22	-44.2	-46.7	15.3	0.00e+00	0	39	0	0	60	4677
2026-01-13 01:33:27.07	258.53	9.15	-44.3	-46.9	15.1	0.00e+00	0	39	0	0	60	4773
2026-01-13 01:33:27.93	258.44	9.09	-44.4	-47.0	15.0	7.00e-07	0	39	0	0	60	4822
2026-01-13 01:33:29.06	258.31	9.02	-44.5	-47.1	14.9	0.00e+00	0	39	0	0	60	4923
2026-01-13 01:33:29.92	258.22	8.96	-49.8	-60.8	3.8	4.27e-05	0	40	104	0	70	13361
2026-01-13 01:33:31.05	258.10	8.89	-50.5	-63.6	3.8	1.49e+00	0	40	104	0	71	17411
2026-01-13 01:33:31.90	258.01	8.84	-50.6	-63.7	3.8	1.49e+00	0	40	104	0	71	17585
2026-01-13 01:33:33.04	257.88	8.76	-50.7	-63.8	3.8	1.49e+00	0	39	104	0	72	16769
2026-01-13 01:33:33.89	257.79	8.71	-50.8	-63.8	3.8	1.49e+00	0	40	104	0	72	16861
2026-01-13 01:33:35.02	257.67	8.63	-50.8	-63.9	3.8	1.49e+00	0	39	104	0	72	16987
2026-01-13 01:33:35.88	257.58	8.58	-50.9	-63.9	3.8	1.49e+00	0	39	104	0	72	16992
2026-01-13 01:33:37.01	257.46	8.50	-50.9	-64.0	3.8	1.49e+00	0	39	104	0	72	17093
2026-01-13 01:33:37.86	257.37	8.45	-51.0	-64.0	3.8	1.49e+00	0	39	104	0	72	17189
2026-01-13 01:33:39.00	257.25	8.38	-51.0	-64.0	3.8	1.49e+00	0	39	104	0	72	17215
2026-01-13 01:33:39.85	257.16	8.32	-51.0	-64.0	3.8	1.49e+00	0	39	104	0	72	17146
2026-01-13 01:33:40.98	257.05	8.25	-50.9	-64.0	3.8	1.49e+00	0	40	104	0	72	17214
2026-01-13 01:33:41.83	256.96	8.19	-51.0	-64.0	3.8	1.49e+00	0	39	104	0	72	17193
2026-01-13 01:33:42.97	256.84	8.12	-50.9	-64.0	3.8	1.49e+00	0	39	104	0	72	17192
2026-01-13 01:33:43.82	256.75	8.07	-50.8	-64.0	3.8	1.49e+00	0	40	104	0	72	17238
2026-01-13 01:33:44.96	256.64	7.99	-50.8	-64.0	3.8	1.49e+00	0	39	104	0	72	17234
2026-01-13 01:33:45.81	256.55	7.94	-50.9	-64.0	3.8	1.49e+00	0	39	104	0	72	17231
2026-01-13 01:33:46.94	256.44	7.87	-50.9	-64.0	3.8	1.49e+00	0	39	104	0	72	17253
2026-01-13 01:33:47.79	256.35	7.81	-50.9	-64.0	3.8	1.49e+00	0	40	104	0	72	17218
2026-01-13 01:33:48.93	256.24	7.74	-50.9	-64.0	3.8	1.49e+00	0	39	104	0	72	17141
2026-01-13 01:33:49.78	256.15	7.69	-50.9	-64.0	3.8	1.49e+00	0	39	104	0	72	17209
2026-01-13 01:33:50.92	256.04	7.61	-50.9	-63.9	3.8	1.49e+00	0	39	104	0	72	17078
2026-01-13 01:33:51.77	255.96	7.56	-50.8	-63.9	3.8	1.49e+00	0	39	104	0	72	17066
2026-01-13 01:33:52.90	255.84	7.49	-50.8	-64.0	3.8	1.49e+00	0	39	104	0	72	17132
2026-01-13 01:33:53.76	255.76	7.43	-50.8	-63.9	3.8	1.49e+00	0	39	104	0	72	17060
2026-01-13 01:33:54.89	255.65	7.36	-50.8	-64.0	3.8	1.49e+00	0	39	104	0	72	17116
2026-01-13 01:33:55.74	255.57	7.31	-50.8	-63.9	3.8	1.49e+00	0	39	104	0	72	17071
2026-01-13 01:33:56.87	255.46	7.24	-50.8	-63.9	3.8	1.49e+00	0	40	104	0	72	17065
2026-01-13 01:33:57.73	255.38	7.18	-50.8	-64.0	3.8	1.49e+00	0	40	104	0	72	17103
2026-01-13 01:33:58.86	255.27	7.11	-50.8	-64.0	3.8	1.49e+00	0	40	104	0	72	17108
2026-01-13 01:33:59.71	255.19	7.06	-50.8	-63.9	3.8	1.49e+00	0	39	104	0	72	17078
2026-01-13 01:34:00.85	255.08	6.99	-50.8	-63.9	3.8	1.49e+00	0	39	104	0	72	17047
2026-01-13 01:34:01.70	255.00	6.93	-50.8	-64.0	3.8	1.49e+00	0	40	104	0	72	17103
2026-01-13 01:34:02.84	254.89	6.86	-50.8	-63.9	3.8	1.49e+00	0	39	104	0	72	17062
2026-01-13 01:34:03.69	254.81	6.81	-50.8	-63.9	3.8	1.49e+00	0	39	104	0	72	17008
2026-01-13 01:34:04.82	254.71	6.74	-50.8	-63.9	3.8	1.49e+00	0	39	104	0	72	17020
2026-01-13 01:34:05.67	254.63	6.68	-50.8	-64.0	3.8	1.49e+00	0	39	104	0	72	17093
2026-01-13 01:34:06.81	254.52	6.61	-50.8	-64.0	3.8	1.49e+00	0	39	104	0	72	17089
2026-01-13 01:34:07.66	254.44	6.56	-50.8	-63.9	3.8	1.49e+00	0	39	104	0	72	17019
2026-01-13 01:34:08.80	254.34	6.49	-50.8	-63.9	3.8	1.49e+00	0	39	104	0	72	17066
2026-01-13 01:34:09.65	254.26	6.44	-50.8	-64.0	3.8	1.49e+00	0	39	104	0	72	17093
2026-01-13 01:34:10.78	254.16	6.37	-50.8	-63.9	3.8	1.49e+00	0	39	104	0	72	17076
2026-01-13 01:34:11.63	254.08	6.31	-50.8	-63.9	3.8	1.49e+00	0	39	104	0	72	17073
2026-01-13 01:34:12.77	253.98	6.24	-50.8	-63.9	3.8	1.49e+00	0	39	104	0	72	17015
2026-01-13 01:34:13.62	253.90	6.19	-50.8	-63.9	3.8	1.49e+00	0	39	104	0	72	17024
2026-01-13 01:34:14.76	253.80	6.12	-50.8	-63.9	3.8	1.49e+00	0	39	104	0	72	17065
2026-01-13 01:34:15.61	253.72	6.07	-50.8	-63.9	3.8	1.49e+00	0	39	104	0	72	17043
2026-01-13 01:34:16.74	253.62	6.00	-50.8	-64.0	3.8	1.49e+00	0	39	104	0	72	17092
2026-01-13 01:34:17.59	253.55	5.95	-50.8	-63.9	3.8	1.49e+00	0	39	104	0	72	17020
2026-01-13 01:34:18.73	253.45	5.88	-50.8	-63.9	3.8	1.49e+00	0	39	104	0	72	17024
2026-01-13 01:34:19.58	253.37	5.82	-50.8	-64.0	3.8	1.49e+00	0	39	104	0	72	17114
2026-01-13 01:34:20.72	253.27	5.75	-50.8	-63.9	3.8	1.49e+00	0	39	104	0	72	17027
2026-01-13 01:34:21.57	253.20	5.70	-50.8	-64.0	3.8	1.49e+00	0	39	104	0	72	17093
2026-01-13 01:34:22.71	253.10	5.63	-50.8	-63.9	3.8	1.49e+00	0	39	104	0	72	17038
2026-01-13 01:34:23.56	253.03	5.58	-50.8	-63.9	3.8	1.49e+00	0	39	104	0	72	17065
2026-01-13 01:34:24.70	252.93	5.51	-50.8	-63.9	3.8	1.49e+00	0	40	104	0	72	17023
2026-01-13 01:34:25.55	252.86	5.46	-50.8	-63.9	3.8	1.49e+00	0	40	104	0	72	16989
2026-01-13 01:34:26.68	252.76	5.39	-50.8	-63.9	3.8	1.49e+00	0	39	104	0	72	17024
2026-01-13 01:34:27.53	252.69	5.34	-50.8	-63.9	3.8	1.49e+00	0	40	104	0	72	17014
2026-01-13 01:34:28.67	252.60	5.27	-50.8	-63.9	3.8	1.49e+00	0	39	104	0	72	17063
2026-01-13 01:34:29.52	252.52	5.22	-50.8	-64.0	3.8	1.49e+00	0	39	104	0	72	17098
2026-01-13 01:34:30.66	252.43	5.15	-50.8	-63.9	3.8	1.49e+00	0	40	104	0	72	17012
2026-01-13 01:34:31.51	252.36	5.10	-50.8	-63.9	3.8	1.49e+00	0	40	104	0	72	17036
2026-01-13 01:34:32.64	252.27	5.03	-50.8	-63.9	3.8	1.49e+00	0	40	104	0	72	17060
2026-01-13 01:34:33.49	252.19	4.98	-50.8	-63.9	3.8	1.49e+00	0	39	104	0	72	17037

#Closed at: 2026-01-13 01:34:34
#Recorded file [0 MB]: D:/Data/31040_260113_042343.dat