passes_logs/2026/01/13/T1/T1__20260113_232414_NOAA_21_JPSS-2_rec.log

#Pass ID: 20260113_232414_NOAA 21 (JPSS-2)
#Satellite: NOAA 21 (JPSS-2)
#Configuration: NOAA 21
#almurnet v.1.7.20251203
#Start time: 2026-01-13 23:24:13

#Version: 2.0.20230620
#Station: T1
#Location: 37.570604 lon 55.790049 lat
#TLE: 1 54234U 22150A   26013.18009385  .00000056  00000+0  47387-4 0  9997
#TLE: 2 54234  98.7496 314.1019 0000691 303.8246  56.2864 14.19534466164559

#Time	Az	El	Level	Level2	SNR	BER	BlckErr	Temp	State	Recorded	gain1	gain2
2026-01-13 23:24:13.79	18.25	4.96	-49.2	-63.5	3.8	1.49e+00	0	40	0	0	68	20508
2026-01-13 23:24:14.78	18.27	5.03	-49.2	-63.4	3.8	1.49e+00	0	40	104	0	68	20298
2026-01-13 23:24:15.77	18.29	5.10	-49.2	-63.4	3.8	1.49e+00	0	40	104	0	68	20269
2026-01-13 23:24:16.76	18.31	5.17	-49.1	-63.4	3.8	1.49e+00	0	40	104	0	68	20124
2026-01-13 23:24:17.76	18.33	5.24	-49.1	-63.3	3.8	1.49e+00	0	40	104	0	68	19918
2026-01-13 23:24:18.75	18.35	5.31	-49.1	-63.2	3.8	1.49e+00	0	40	104	0	68	19617
2026-01-13 23:24:19.74	18.37	5.38	-49.1	-63.1	3.8	1.49e+00	0	40	104	0	68	19403
2026-01-13 23:24:20.74	18.39	5.45	-49.1	-62.9	3.8	1.49e+00	0	41	104	0	68	19072
2026-01-13 23:24:21.73	18.41	5.52	-49.1	-62.8	3.8	1.49e+00	0	40	104	0	68	18755
2026-01-13 23:24:22.72	18.43	5.59	-49.1	-62.6	3.8	1.49e+00	0	40	104	0	68	18368
2026-01-13 23:24:23.72	18.45	5.66	-49.1	-62.5	3.8	1.49e+00	0	40	104	0	68	18150
2026-01-13 23:24:24.71	18.47	5.74	-49.1	-62.3	3.8	1.49e+00	0	41	104	0	68	17885
2026-01-13 23:24:25.70	18.49	5.81	-49.1	-62.3	3.8	1.49e+00	0	41	104	0	68	17750
2026-01-13 23:24:26.70	18.51	5.88	-49.1	-62.1	3.8	1.49e+00	0	41	104	0	68	17359
2026-01-13 23:24:27.69	18.53	5.95	-49.1	-62.1	3.8	1.49e+00	0	41	104	0	68	17466
2026-01-13 23:24:28.69	18.55	6.03	-49.1	-62.2	3.8	1.49e+00	0	40	104	0	68	17623
2026-01-13 23:24:29.68	18.57	6.10	-49.1	-62.3	3.8	1.49e+00	0	41	104	0	68	17824
2026-01-13 23:24:30.67	18.59	6.17	-49.1	-62.5	3.8	1.49e+00	0	41	104	0	68	18182
2026-01-13 23:24:31.67	18.61	6.25	-49.1	-62.7	3.8	1.49e+00	0	41	104	0	68	18518
2026-01-13 23:24:32.66	18.63	6.32	-49.1	-62.8	3.8	1.49e+00	0	41	104	0	68	18866
2026-01-13 23:24:33.66	18.65	6.39	-49.1	-62.9	3.8	1.49e+00	0	41	104	0	68	19023
2026-01-13 23:24:34.65	18.67	6.47	-49.1	-63.0	3.8	1.49e+00	0	41	104	0	68	19257
2026-01-13 23:24:35.64	18.69	6.54	-49.1	-63.0	3.8	1.49e+00	0	41	104	0	68	19338
2026-01-13 23:24:36.63	18.71	6.61	-49.1	-62.9	3.8	1.49e+00	0	41	104	0	68	19156
2026-01-13 23:24:37.63	18.73	6.69	-49.1	-62.9	3.8	1.49e+00	0	41	104	0	68	19047
2026-01-13 23:24:38.62	18.75	6.76	-49.1	-62.7	3.8	1.49e+00	0	41	104	0	68	18721
2026-01-13 23:24:39.61	18.77	6.84	-49.1	-62.6	3.8	1.49e+00	0	41	104	0	68	18489
2026-01-13 23:24:40.61	18.80	6.91	-49.1	-62.5	3.8	1.49e+00	0	41	104	0	68	18184
2026-01-13 23:24:41.60	18.82	6.99	-49.1	-62.4	3.8	1.49e+00	0	41	104	0	68	18077
2026-01-13 23:24:42.59	18.84	7.07	-49.1	-62.4	3.8	1.49e+00	0	41	104	0	68	17940
2026-01-13 23:24:43.59	18.86	7.14	-49.1	-62.3	3.8	1.49e+00	0	41	104	0	68	17785
2026-01-13 23:24:44.58	18.88	7.22	-49.1	-62.1	3.8	1.49e+00	0	41	104	0	68	17469
2026-01-13 23:24:45.57	18.90	7.29	-49.0	-61.9	3.8	1.49e+00	0	41	104	0	68	16895
2026-01-13 23:24:46.57	18.92	7.37	-49.0	-61.2	3.9	1.48e+00	0	41	104	0	68	15745
2026-01-13 23:24:47.56	18.95	7.45	-49.0	-60.7	3.9	1.48e+00	0	41	104	0	68	14829
2026-01-13 23:24:48.55	18.97	7.52	-48.9	-60.4	3.9	1.47e+00	0	41	104	0	68	14297
2026-01-13 23:24:49.55	18.99	7.60	-48.8	-59.8	4.0	1.45e+00	0	42	104	0	68	13360
2026-01-13 23:24:50.54	19.01	7.68	-48.8	-58.6	4.7	1.21e+00	0	41	104	0	68	11677
2026-01-13 23:24:51.53	19.03	7.76	-48.7	-58.1	4.9	7.49e-01	0	41	0	0	68	10966
2026-01-13 23:24:52.53	19.06	7.83	-48.6	-57.6	5.2	6.53e-01	0	41	0	0	68	10353
2026-01-13 23:24:53.52	19.08	7.91	-48.6	-57.4	5.3	5.54e-01	0	42	0	0	68	10123
2026-01-13 23:24:54.52	19.10	7.99	-48.5	-57.2	5.5	4.97e-01	0	42	0	0	68	9912
2026-01-13 23:24:55.51	19.12	8.07	-48.5	-57.2	5.5	4.82e-01	0	42	0	0	68	9834
2026-01-13 23:24:56.50	19.15	8.15	-48.6	-57.2	5.5	4.83e-01	0	42	0	0	68	9833
2026-01-13 23:24:57.50	19.17	8.23	-48.6	-57.3	5.4	5.00e-01	0	42	0	0	68	9957
2026-01-13 23:24:58.49	19.19	8.31	-48.6	-57.5	5.3	5.28e-01	0	41	0	0	68	10185
2026-01-13 23:24:59.48	19.21	8.39	-48.6	-57.5	5.3	5.62e-01	0	42	0	0	68	10221
2026-01-13 23:25:00.48	19.24	8.47	-48.6	-57.6	5.2	5.86e-01	0	42	0	0	68	10309
2026-01-13 23:25:01.47	19.26	8.55	-48.6	-57.7	5.2	5.99e-01	0	42	0	0	68	10423
2026-01-13 23:25:02.46	19.28	8.63	-48.6	-57.7	5.1	6.24e-01	0	41	0	0	68	10488
2026-01-13 23:25:03.46	19.31	8.71	-48.7	-57.8	5.1	6.49e-01	0	42	0	0	68	10614
2026-01-13 23:25:04.45	19.33	8.79	-48.7	-58.1	5.0	7.11e-01	0	42	0	0	68	10925
2026-01-13 23:25:05.44	19.35	8.87	-48.7	-59.0	4.0	1.32e+00	0	42	104	0	68	12168
2026-01-13 23:25:06.44	19.38	8.95	-48.8	-58.8	4.6	1.09e+00	0	42	104	0	68	11891
2026-01-13 23:25:07.43	19.40	9.03	-48.9	-59.4	4.4	1.32e+00	0	42	104	0	68	12785
2026-01-13 23:25:08.42	19.42	9.11	-48.9	-59.2	4.4	1.47e+00	0	42	104	0	68	12514
2026-01-13 23:25:09.42	19.45	9.20	-48.5	-57.1	5.6	4.71e-01	0	42	0	0	68	9793
2026-01-13 23:25:10.41	19.47	9.28	-48.7	-58.6	4.8	5.60e-01	0	42	0	0	68	11595
2026-01-13 23:25:11.41	19.50	9.36	-49.0	-63.4	3.8	1.49e+00	0	42	104	0	68	20173
2026-01-13 23:25:12.40	19.52	9.45	-49.0	-61.4	3.8	1.49e+00	0	42	104	0	68	15984
2026-01-13 23:25:13.40	19.55	9.53	-46.4	-50.6	11.6	6.40e-04	0	42	0	0	64	5791
2026-01-13 23:25:14.39	19.57	9.61	-46.2	-50.1	12.1	5.22e-04	0	42	0	0	64	5506
2026-01-13 23:25:15.39	19.59	9.70	-45.6	-49.0	13.3	1.60e-05	0	42	0	0	63	5154
2026-01-13 23:25:16.38	19.62	9.78	-45.3	-48.5	13.9	6.10e-06	0	42	0	0	62	5107
2026-01-13 23:25:17.38	19.64	9.87	-45.2	-48.2	14.1	3.00e-06	0	42	0	0	62	4979
2026-01-13 23:25:18.37	19.67	9.95	-45.3	-48.4	13.9	1.50e-06	0	42	0	0	62	5089
2026-01-13 23:25:19.37	19.69	10.04	-45.2	-48.3	14.0	2.20e-06	0	42	0	0	62	5010
2026-01-13 23:25:20.43	19.72	10.13	-45.1	-48.1	14.2	7.00e-07	0	42	0	0	62	4913
2026-01-13 23:25:21.34	19.74	10.20	-44.9	-47.9	14.4	2.20e-06	0	42	0	0	61	5084
2026-01-13 23:25:22.46	19.77	10.30	-44.5	-47.4	14.9	0.00e+00	0	42	0	0	61	4771
2026-01-13 23:25:23.32	19.80	10.38	-44.3	-47.1	15.2	0.00e+00	0	42	0	0	60	4885
2026-01-13 23:25:24.45	19.82	10.47	-44.0	-46.7	15.6	0.00e+00	0	42	0	0	60	4668
2026-01-13 23:25:25.31	19.85	10.55	-43.9	-46.5	15.7	7.00e-07	0	42	0	0	59	4819
2026-01-13 23:25:26.45	19.88	10.65	-43.8	-46.3	15.9	0.00e+00	0	42	0	0	59	4747
2026-01-13 23:25:27.30	19.90	10.72	-43.9	-46.4	15.8	0.00e+00	0	42	0	0	59	4806
2026-01-13 23:25:28.44	19.93	10.83	-43.9	-46.5	15.7	0.00e+00	0	42	0	0	59	4826
2026-01-13 23:25:29.29	19.95	10.90	-43.9	-46.4	15.8	0.00e+00	0	42	0	0	59	4774
2026-01-13 23:25:30.42	19.98	11.00	-43.7	-46.2	16.0	0.00e+00	0	42	0	0	59	4688
2026-01-13 23:25:31.28	20.01	11.08	-43.8	-46.3	15.9	0.00e+00	0	42	0	0	59	4751
2026-01-13 23:25:32.41	20.04	11.18	-43.7	-46.2	16.0	0.00e+00	0	42	0	0	59	4677
2026-01-13 23:25:33.27	20.06	11.26	-43.7	-46.2	16.0	0.00e+00	0	42	0	0	59	4686
2026-01-13 23:25:34.41	20.09	11.36	-43.7	-46.2	16.0	0.00e+00	0	42	0	0	59	4683
2026-01-13 23:25:35.26	20.11	11.44	-43.7	-46.2	16.0	0.00e+00	0	42	0	0	59	4677
2026-01-13 23:25:36.40	20.15	11.54	-43.8	-46.2	16.0	0.00e+00	0	42	0	0	59	4705
2026-01-13 23:25:37.25	20.17	11.62	-43.7	-46.2	16.1	0.00e+00	0	42	0	0	59	4655
2026-01-13 23:25:38.39	20.20	11.72	-43.7	-46.1	16.2	0.00e+00	0	42	0	0	59	4605
2026-01-13 23:25:39.24	20.22	11.80	-43.6	-46.0	16.2	0.00e+00	0	42	0	0	59	4576
2026-01-13 23:25:40.38	20.26	11.90	-43.6	-46.0	16.2	0.00e+00	0	42	0	0	59	4587
2026-01-13 23:25:41.23	20.28	11.98	-43.7	-46.1	16.2	0.00e+00	0	42	0	0	59	4603
2026-01-13 23:25:42.37	20.31	12.09	-43.6	-46.0	16.3	0.00e+00	0	42	0	0	59	4558
2026-01-13 23:25:43.22	20.34	12.17	-43.5	-45.9	16.3	0.00e+00	0	42	0	0	59	4538
2026-01-13 23:25:44.36	20.37	12.28	-43.4	-45.8	16.5	0.00e+00	0	42	0	0	58	4741
2026-01-13 23:25:45.21	20.39	12.36	-43.5	-45.8	16.4	0.00e+00	0	42	0	0	58	4747
2026-01-13 23:25:46.35	20.43	12.46	-43.4	-45.8	16.5	0.00e+00	0	42	0	0	58	4711
2026-01-13 23:25:47.20	20.45	12.54	-43.4	-45.8	16.5	0.00e+00	0	42	0	0	58	4711
2026-01-13 23:25:48.40	20.49	12.66	-43.3	-45.7	16.6	0.00e+00	0	42	0	0	58	4669
2026-01-13 23:25:49.25	20.51	12.74	-43.4	-45.8	16.5	0.00e+00	0	42	0	0	58	4719
2026-01-13 23:25:50.47	20.55	12.86	-43.4	-45.7	16.6	0.00e+00	0	42	0	0	58	4703
2026-01-13 23:25:51.32	20.57	12.94	-43.3	-45.7	16.6	0.00e+00	0	42	0	0	58	4668
2026-01-13 23:25:52.52	20.61	13.05	-43.3	-45.7	16.6	0.00e+00	0	42	0	0	58	4675
2026-01-13 23:25:53.37	20.64	13.14	-43.3	-45.7	16.6	0.00e+00	0	42	0	0	58	4659
2026-01-13 23:25:54.57	20.67	13.25	-43.4	-45.7	16.6	0.00e+00	0	42	0	0	58	4700
2026-01-13 23:25:55.43	20.70	13.34	-43.5	-45.9	16.4	0.00e+00	0	42	0	0	58	4795
2026-01-13 23:25:56.63	20.74	13.45	-43.3	-45.7	16.6	0.00e+00	0	42	0	0	58	4655
2026-01-13 23:25:57.48	20.76	13.54	-43.3	-45.7	16.6	0.00e+00	0	42	0	0	58	4665
2026-01-13 23:25:58.68	20.80	13.66	-43.4	-45.8	16.6	0.00e+00	0	42	0	0	58	4724
2026-01-13 23:25:59.53	20.83	13.74	-43.4	-45.7	16.7	0.00e+00	0	42	0	0	58	4674
2026-01-13 23:26:00.67	20.86	13.85	-43.3	-45.6	16.8	0.00e+00	0	42	0	0	58	4608
2026-01-13 23:26:01.52	20.89	13.94	-43.3	-45.6	16.7	0.00e+00	0	42	0	0	58	4626
2026-01-13 23:26:02.66	20.92	14.05	-43.4	-45.7	16.6	0.00e+00	0	42	0	0	58	4672
2026-01-13 23:26:03.59	20.95	14.15	-43.4	-45.7	16.6	0.00e+00	0	42	0	0	58	4668
2026-01-13 23:26:04.74	20.99	14.27	-43.3	-45.6	16.7	0.00e+00	0	42	0	0	58	4640
2026-01-13 23:26:05.63	21.02	14.36	-43.3	-45.6	16.7	0.00e+00	0	42	0	0	58	4646
2026-01-13 23:26:06.96	21.06	14.49	-43.3	-45.6	16.8	0.00e+00	0	42	0	0	58	4618
2026-01-13 23:26:07.67	21.09	14.57	-43.4	-45.7	16.7	0.00e+00	0	42	0	0	58	4679
2026-01-13 23:26:09.15	21.14	14.72	-43.4	-45.7	16.7	0.00e+00	0	42	0	0	58	4663
2026-01-13 23:26:10.11	21.17	14.82	-43.4	-45.6	16.7	0.00e+00	0	42	0	0	58	4651
2026-01-13 23:26:11.11	21.20	14.92	-43.4	-45.6	16.7	0.00e+00	0	42	0	0	58	4650
2026-01-13 23:26:12.45	21.25	15.06	-43.4	-45.7	16.7	0.00e+00	0	42	0	0	58	4666
2026-01-13 23:26:13.19	21.27	15.14	-43.5	-45.8	16.7	0.00e+00	0	42	0	0	58	4718
2026-01-13 23:26:14.47	21.32	15.28	-43.6	-45.8	16.6	0.00e+00	0	42	0	0	58	4747
2026-01-13 23:26:15.20	21.34	15.35	-43.6	-45.8	16.6	0.00e+00	0	42	0	0	58	4737
2026-01-13 23:26:16.48	21.39	15.49	-43.6	-45.9	16.6	0.00e+00	0	42	0	0	58	4763
2026-01-13 23:26:17.19	21.41	15.57	-43.5	-45.8	16.6	0.00e+00	0	42	0	0	58	4736
2026-01-13 23:26:18.47	21.45	15.70	-43.6	-45.8	16.5	0.00e+00	0	42	0	0	58	4749
2026-01-13 23:26:19.18	21.48	15.78	-43.6	-45.8	16.6	0.00e+00	0	42	0	0	58	4740
2026-01-13 23:26:20.46	21.53	15.92	-43.7	-46.0	16.4	0.00e+00	0	42	0	0	58	4825
2026-01-13 23:26:21.18	21.55	16.00	-43.7	-46.0	16.4	0.00e+00	0	42	0	0	58	4820
2026-01-13 23:26:22.56	21.60	16.15	-43.6	-45.8	16.5	0.00e+00	0	42	0	0	58	4753
2026-01-13 23:26:23.27	21.63	16.23	-43.5	-45.8	16.6	0.00e+00	0	42	0	0	58	4738
2026-01-13 23:26:24.55	21.67	16.37	-43.5	-45.8	16.6	0.00e+00	0	42	0	0	58	4708
2026-01-13 23:26:25.26	21.70	16.45	-43.5	-45.8	16.6	0.00e+00	0	42	0	0	58	4722
2026-01-13 23:26:26.65	21.75	16.60	-43.6	-45.9	16.5	0.00e+00	0	42	0	0	58	4760
2026-01-13 23:26:27.36	21.78	16.68	-43.5	-45.8	16.6	0.00e+00	0	42	0	0	58	4719
2026-01-13 23:26:28.64	21.82	16.82	-43.5	-45.7	16.7	0.00e+00	0	42	0	0	58	4684
2026-01-13 23:26:29.71	21.86	16.95	-43.5	-45.8	16.6	0.00e+00	0	42	0	0	58	4727
2026-01-13 23:26:30.57	21.90	17.04	-43.6	-45.8	16.5	0.00e+00	0	42	0	0	58	4750
2026-01-13 23:26:31.70	21.94	17.17	-43.5	-45.7	16.7	0.00e+00	0	42	0	0	58	4696
2026-01-13 23:26:32.56	21.97	17.27	-43.5	-45.7	16.7	0.00e+00	0	42	0	0	58	4702
2026-01-13 23:26:33.69	22.02	17.40	-43.5	-45.8	16.6	0.00e+00	0	43	0	0	58	4716
2026-01-13 23:26:34.54	22.05	17.50	-43.6	-45.8	16.6	0.00e+00	0	43	0	0	58	4732
2026-01-13 23:26:35.68	22.10	17.63	-43.6	-45.9	16.5	0.00e+00	0	42	0	0	58	4772
2026-01-13 23:26:36.54	22.13	17.73	-43.5	-45.8	16.6	0.00e+00	0	42	0	0	58	4717
2026-01-13 23:26:37.67	22.17	17.86	-43.6	-45.8	16.6	0.00e+00	0	42	0	0	58	4715
2026-01-13 23:26:38.61	22.21	17.98	-43.6	-45.8	16.6	0.00e+00	0	42	0	0	58	4728
2026-01-13 23:26:39.76	22.26	18.11	-43.6	-45.8	16.6	0.00e+00	0	42	0	0	58	4733
2026-01-13 23:26:40.64	22.29	18.22	-43.6	-45.9	16.5	0.00e+00	0	42	0	0	58	4761
2026-01-13 23:26:41.78	22.34	18.35	-43.5	-45.7	16.7	0.00e+00	0	42	0	0	58	4665
2026-01-13 23:26:42.64	22.38	18.46	-43.5	-45.7	16.7	0.00e+00	0	42	0	0	58	4655
2026-01-13 23:26:43.77	22.42	18.59	-43.5	-45.6	16.7	0.00e+00	0	43	0	0	58	4642
2026-01-13 23:26:44.78	22.47	18.72	-43.4	-45.6	16.8	0.00e+00	0	42	0	0	58	4629
2026-01-13 23:26:45.95	22.52	18.86	-43.4	-45.6	16.8	0.00e+00	0	42	0	0	58	4638
2026-01-13 23:26:46.81	22.55	18.96	-43.3	-45.5	16.9	0.00e+00	0	42	0	0	58	4571
2026-01-13 23:26:47.94	22.60	19.10	-43.2	-45.4	17.0	0.00e+00	0	43	0	0	58	4514
2026-01-13 23:26:48.80	22.64	19.21	-43.3	-45.4	17.0	0.00e+00	0	42	0	0	58	4523
2026-01-13 23:26:49.94	22.69	19.35	-43.3	-45.4	17.0	0.00e+00	0	42	0	0	58	4515
2026-01-13 23:26:50.79	22.72	19.46	-43.2	-45.3	17.1	0.00e+00	0	43	0	0	58	4466
2026-01-13 23:26:51.93	22.77	19.60	-43.2	-45.3	17.1	0.00e+00	0	43	0	0	58	4484
2026-01-13 23:26:52.78	22.81	19.71	-43.2	-45.3	17.1	0.00e+00	0	42	0	0	58	4484
2026-01-13 23:26:53.91	22.86	19.85	-43.1	-45.2	17.2	0.00e+00	0	42	0	0	58	4404
2026-01-13 23:26:54.77	22.90	19.96	-43.2	-45.2	17.2	0.00e+00	0	42	0	0	58	4419
2026-01-13 23:26:55.92	22.95	20.11	-43.2	-45.2	17.2	0.00e+00	0	42	0	0	58	4424
2026-01-13 23:26:56.78	22.99	20.22	-43.2	-45.2	17.2	0.00e+00	0	43	0	0	58	4433
2026-01-13 23:26:57.91	23.05	20.37	-43.0	-45.1	17.3	0.00e+00	0	42	0	0	58	4360
2026-01-13 23:26:58.77	23.09	20.48	-42.5	-44.8	17.4	0.00e+00	0	42	0	0	57	4462
2026-01-13 23:26:59.90	23.14	20.63	-43.0	-45.1	17.3	0.00e+00	0	42	0	0	57	4619
2026-01-13 23:27:00.79	23.18	20.74	-43.0	-45.0	17.4	0.00e+00	0	42	0	0	57	4596
2026-01-13 23:27:02.10	23.24	20.92	-42.9	-45.0	17.4	0.00e+00	0	43	0	0	57	4576
2026-01-13 23:27:02.81	23.28	21.01	-42.9	-44.9	17.5	0.00e+00	0	42	0	0	57	4521
2026-01-13 23:27:04.26	23.35	21.20	-42.7	-44.7	17.7	0.00e+00	0	42	0	0	57	4424
2026-01-13 23:27:04.98	23.38	21.30	-42.7	-44.7	17.8	0.00e+00	0	42	0	0	57	4411
2026-01-13 23:27:06.25	23.44	21.47	-42.7	-44.8	17.7	0.00e+00	0	43	0	0	57	4445
2026-01-13 23:27:06.99	23.48	21.57	-42.6	-44.6	17.8	0.00e+00	0	43	0	0	57	4386
2026-01-13 23:27:08.27	23.55	21.75	-42.6	-44.6	17.8	0.00e+00	0	43	0	0	57	4389
2026-01-13 23:27:09.00	23.58	21.85	-42.6	-44.6	17.8	0.00e+00	0	42	0	0	57	4350
2026-01-13 23:27:10.28	23.65	22.02	-42.6	-44.6	17.8	0.00e+00	0	42	0	0	57	4391
2026-01-13 23:27:10.99	23.68	22.12	-42.6	-44.6	17.8	0.00e+00	0	42	0	0	57	4358
2026-01-13 23:27:12.27	23.75	22.30	-42.4	-44.3	18.0	0.00e+00	0	42	0	0	56	4490
2026-01-13 23:27:12.98	23.79	22.40	-42.4	-44.4	18.0	0.00e+00	0	43	0	0	56	4498
2026-01-13 23:27:14.26	23.85	22.58	-42.4	-44.4	18.0	0.00e+00	0	43	0	0	56	4519
2026-01-13 23:27:14.99	23.89	22.69	-42.3	-44.3	18.1	0.00e+00	0	43	0	0	56	4461
2026-01-13 23:27:16.26	23.96	22.87	-42.3	-44.2	18.2	0.00e+00	0	43	0	0	56	4425
2026-01-13 23:27:16.99	24.00	22.97	-42.3	-44.2	18.2	0.00e+00	0	43	0	0	56	4426
2026-01-13 23:27:18.27	24.07	23.16	-42.3	-44.2	18.2	0.00e+00	0	43	0	0	56	4412
2026-01-13 23:27:19.07	24.11	23.27	-42.2	-44.0	18.4	0.00e+00	0	43	0	0	56	4335
2026-01-13 23:27:20.21	24.18	23.44	-42.0	-43.9	18.5	0.00e+00	0	43	0	0	56	4270
2026-01-13 23:27:21.29	24.24	23.60	-42.0	-43.8	18.6	0.00e+00	0	43	0	0	56	4231
2026-01-13 23:27:22.31	24.29	23.75	-42.1	-43.9	18.5	0.00e+00	0	42	0	0	56	4275
2026-01-13 23:27:23.31	24.35	23.89	-42.1	-44.0	18.5	0.00e+00	0	42	0	0	56	4295
2026-01-13 23:27:24.53	24.42	24.08	-42.0	-43.8	18.6	0.00e+00	0	43	0	0	56	4234
2026-01-13 23:27:25.38	24.47	24.20	-42.0	-43.9	18.6	0.00e+00	0	42	0	0	56	4265
2026-01-13 23:27:26.52	24.54	24.38	-42.2	-44.0	18.5	0.00e+00	0	42	0	0	56	4321
2026-01-13 23:27:27.37	24.59	24.51	-42.2	-44.0	18.4	0.00e+00	0	42	0	0	56	4338
2026-01-13 23:27:28.51	24.66	24.68	-42.2	-44.0	18.5	0.00e+00	0	43	0	0	56	4324
2026-01-13 23:27:29.36	24.71	24.81	-42.2	-44.0	18.5	0.00e+00	0	42	0	0	56	4334
2026-01-13 23:27:30.50	24.78	24.99	-42.3	-44.2	18.3	0.00e+00	0	42	0	0	56	4418
2026-01-13 23:27:31.35	24.83	25.12	-42.5	-44.4	18.2	0.00e+00	0	43	0	0	56	4498
2026-01-13 23:27:32.49	24.90	25.30	-42.6	-44.5	18.1	0.00e+00	0	43	0	0	56	4558
2026-01-13 23:27:33.34	24.95	25.43	-42.6	-44.5	18.1	0.00e+00	0	43	0	0	56	4592
2026-01-13 23:27:34.48	25.02	25.61	-42.7	-44.6	18.0	0.00e+00	0	43	0	0	56	4641
2026-01-13 23:27:35.34	25.08	25.75	-42.7	-44.6	18.0	0.00e+00	0	43	0	0	56	4651
2026-01-13 23:27:36.47	25.15	25.93	-42.9	-44.9	17.8	0.00e+00	0	42	0	0	56	4764
2026-01-13 23:27:37.32	25.20	26.06	-43.0	-45.0	17.7	0.00e+00	0	43	0	0	56	4819
2026-01-13 23:27:38.46	25.28	26.25	-43.1	-45.0	17.6	0.00e+00	0	43	0	0	56	4870
2026-01-13 23:27:39.31	25.34	26.39	-43.1	-45.1	17.6	0.00e+00	0	43	0	0	56	4883
2026-01-13 23:27:40.45	25.41	26.57	-43.1	-45.1	17.6	0.00e+00	0	43	0	0	56	4887
2026-01-13 23:27:41.31	25.47	26.71	-43.1	-45.1	17.5	0.00e+00	0	42	0	0	56	4925
2026-01-13 23:27:42.44	25.55	26.90	-43.1	-45.1	17.5	0.00e+00	0	42	0	0	56	4924
2026-01-13 23:27:43.30	25.60	27.04	-43.2	-45.2	17.5	0.00e+00	0	42	0	0	57	4658
2026-01-13 23:27:44.44	25.68	27.23	-43.3	-45.4	17.3	0.00e+00	0	43	0	0	57	4773
2026-01-13 23:27:45.29	25.74	27.38	-43.4	-45.4	17.3	0.00e+00	0	42	0	0	57	4789
2026-01-13 23:27:46.43	25.82	27.57	-43.5	-45.5	17.1	0.00e+00	0	43	0	0	57	4859
2026-01-13 23:27:47.28	25.88	27.71	-43.5	-45.6	17.1	0.00e+00	0	43	0	0	57	4891
2026-01-13 23:27:48.42	25.97	27.91	-43.6	-45.7	17.0	0.00e+00	0	42	0	0	57	4947
2026-01-13 23:27:49.27	26.03	28.06	-43.7	-45.8	16.9	0.00e+00	0	42	0	0	58	4742
2026-01-13 23:27:50.41	26.11	28.25	-43.7	-45.9	16.8	0.00e+00	0	43	0	0	58	4767
2026-01-13 23:27:51.26	26.17	28.40	-43.8	-45.9	16.8	0.00e+00	0	43	0	0	58	4799
2026-01-13 23:27:52.40	26.26	28.60	-43.9	-46.1	16.6	0.00e+00	0	43	0	0	58	4892
2026-01-13 23:27:53.25	26.32	28.75	-44.0	-46.2	16.5	0.00e+00	0	43	0	0	58	4953
2026-01-13 23:27:54.39	26.41	28.96	-44.0	-46.3	16.5	0.00e+00	0	43	0	0	58	4991
2026-01-13 23:27:55.24	26.48	29.11	-44.0	-46.2	16.5	0.00e+00	0	43	0	0	58	4962
2026-01-13 23:27:56.38	26.57	29.31	-43.9	-46.2	16.5	0.00e+00	0	43	0	0	58	4933
2026-01-13 23:27:57.23	26.63	29.47	-43.9	-46.1	16.6	0.00e+00	0	43	0	0	58	4915
2026-01-13 23:27:58.57	26.74	29.71	-43.7	-45.9	16.8	0.00e+00	0	42	0	0	58	4765
2026-01-13 23:27:59.29	26.80	29.84	-43.6	-45.8	16.8	0.00e+00	0	42	0	0	58	4747
2026-01-13 23:28:00.57	26.90	30.08	-43.6	-45.8	16.9	0.00e+00	0	43	0	0	58	4731
2026-01-13 23:28:01.28	26.96	30.21	-43.5	-45.6	17.1	0.00e+00	0	43	0	0	58	4645
2026-01-13 23:28:02.56	27.07	30.45	-43.2	-45.3	17.4	0.00e+00	0	43	0	0	58	4465
2026-01-13 23:28:03.27	27.13	30.58	-43.2	-45.3	17.4	0.00e+00	0	43	0	0	58	4470
2026-01-13 23:28:04.55	27.24	30.82	-43.2	-45.2	17.5	0.00e+00	0	43	0	0	58	4427
2026-01-13 23:28:05.26	27.30	30.96	-43.2	-45.3	17.5	0.00e+00	0	42	0	0	58	4461
2026-01-13 23:28:06.54	27.41	31.20	-43.0	-45.0	17.7	0.00e+00	0	42	0	0	58	4323
2026-01-13 23:28:07.25	27.47	31.34	-43.0	-45.0	17.7	0.00e+00	0	43	0	0	58	4318
2026-01-13 23:28:08.53	27.59	31.59	-43.0	-45.0	17.7	0.00e+00	0	43	0	0	58	4327
2026-01-13 23:28:09.25	27.65	31.73	-43.0	-45.0	17.7	0.00e+00	0	43	0	0	58	4333
2026-01-13 23:28:10.53	27.77	31.98	-43.1	-45.1	17.7	0.00e+00	0	43	0	0	58	4364
2026-01-13 23:28:11.24	27.84	32.12	-43.1	-45.1	17.6	0.00e+00	0	43	0	0	58	4368
2026-01-13 23:28:12.57	27.96	32.39	-43.1	-45.1	17.7	0.00e+00	0	43	0	0	58	4378
2026-01-13 23:28:13.28	28.03	32.53	-43.3	-45.3	17.5	0.00e+00	0	43	0	0	58	4485
2026-01-13 23:28:14.56	28.15	32.78	-43.4	-45.4	17.4	0.00e+00	0	43	0	0	58	4527
2026-01-13 23:28:15.29	28.22	32.93	-43.4	-45.5	17.3	0.00e+00	0	42	0	0	58	4554
2026-01-13 23:28:16.57	28.35	33.19	-43.5	-45.6	17.2	0.00e+00	0	43	0	0	58	4615
2026-01-13 23:28:17.28	28.42	33.34	-43.6	-45.6	17.2	0.00e+00	0	43	0	0	58	4641
2026-01-13 23:28:18.56	28.55	33.60	-43.5	-45.5	17.3	0.00e+00	0	43	0	0	58	4598
2026-01-13 23:28:19.28	28.62	33.75	-43.5	-45.6	17.2	0.00e+00	0	43	0	0	58	4631
2026-01-13 23:28:20.56	28.75	34.02	-43.7	-45.8	17.1	0.00e+00	0	43	0	0	58	4709
2026-01-13 23:28:21.29	28.83	34.17	-43.8	-45.9	16.9	0.00e+00	0	43	0	0	58	4813
2026-01-13 23:28:22.84	28.99	34.50	-44.0	-46.2	16.7	0.00e+00	0	43	0	0	58	4950
2026-01-13 23:28:23.55	29.07	34.65	-44.2	-46.4	16.5	0.00e+00	0	42	0	0	58	5054
2026-01-13 23:28:24.84	29.21	34.93	-44.3	-46.5	16.3	0.00e+00	0	43	0	0	59	4860
2026-01-13 23:28:25.55	29.29	35.09	-44.4	-46.6	16.2	0.00e+00	0	43	0	0	59	4915
2026-01-13 23:28:26.83	29.43	35.36	-44.5	-46.8	16.1	0.00e+00	0	43	0	0	59	4987
2026-01-13 23:28:27.54	29.51	35.52	-44.5	-46.8	16.1	0.00e+00	0	42	0	0	59	4999
2026-01-13 23:28:28.82	29.66	35.80	-44.6	-46.9	16.0	0.00e+00	0	43	0	0	59	5066
2026-01-13 23:28:29.54	29.74	35.96	-44.6	-46.9	15.9	0.00e+00	0	43	0	0	59	5082
2026-01-13 23:28:30.83	29.89	36.25	-44.8	-47.1	15.8	0.00e+00	0	43	0	0	60	4897
2026-01-13 23:28:31.54	29.97	36.41	-44.7	-47.0	15.9	0.00e+00	0	43	0	0	60	4836
2026-01-13 23:28:32.82	30.13	36.70	-44.7	-47.0	15.9	0.00e+00	0	43	0	0	60	4833
2026-01-13 23:28:33.55	30.22	36.86	-44.7	-47.0	15.9	0.00e+00	0	43	0	0	60	4834
2026-01-13 23:28:34.83	30.38	37.16	-44.5	-46.8	16.1	0.00e+00	0	43	0	0	60	4716
2026-01-13 23:28:35.54	30.47	37.32	-44.4	-46.7	16.2	0.00e+00	0	42	0	0	60	4661
2026-01-13 23:28:36.82	30.63	37.62	-44.5	-46.7	16.2	0.00e+00	0	43	0	0	60	4700
2026-01-13 23:28:37.53	30.72	37.78	-44.5	-46.8	16.1	0.00e+00	0	43	0	0	60	4736
2026-01-13 23:28:38.80	30.89	38.08	-44.5	-46.8	16.1	0.00e+00	0	43	0	0	60	4752
2026-01-13 23:28:39.53	30.98	38.25	-44.6	-46.9	16.1	0.00e+00	0	43	0	0	60	4768
2026-01-13 23:28:40.81	31.16	38.56	-44.6	-46.9	16.0	0.00e+00	0	43	0	0	60	4805
2026-01-13 23:28:41.53	31.25	38.73	-44.7	-47.0	15.9	0.00e+00	0	43	0	0	60	4827
2026-01-13 23:28:42.81	31.43	39.04	-44.7	-47.0	15.9	0.00e+00	0	43	0	0	60	4870
2026-01-13 23:28:43.52	31.53	39.21	-44.5	-46.8	16.1	0.00e+00	0	43	0	0	60	4734
2026-01-13 23:28:44.80	31.71	39.52	-44.5	-46.7	16.1	0.00e+00	0	43	0	0	60	4705
2026-01-13 23:28:45.52	31.82	39.70	-44.4	-46.6	16.2	0.00e+00	0	43	0	0	60	4646
2026-01-13 23:28:46.80	32.01	40.02	-44.5	-46.8	16.1	0.00e+00	0	43	0	0	60	4734
2026-01-13 23:28:47.52	32.11	40.20	-44.6	-46.8	16.1	0.00e+00	0	43	0	0	60	4737
2026-01-13 23:28:48.79	32.31	40.51	-44.8	-47.1	15.7	0.00e+00	0	43	0	0	60	4922
2026-01-13 23:28:49.60	32.43	40.72	-45.0	-47.4	15.5	0.00e+00	0	43	0	0	60	5092
2026-01-13 23:28:51.07	32.66	41.09	-45.3	-47.9	15.1	0.00e+00	0	43	0	0	61	5056
2026-01-13 23:28:51.78	32.77	41.27	-45.4	-48.0	14.9	7.00e-07	0	43	0	0	61	5129
2026-01-13 23:28:53.27	33.01	41.66	-45.7	-48.4	14.5	7.00e-07	0	43	0	0	62	5088
2026-01-13 23:28:53.98	33.13	41.84	-45.7	-48.3	14.6	7.00e-07	0	43	0	0	62	5019
2026-01-13 23:28:55.26	33.34	42.17	-45.6	-48.2	14.7	7.00e-07	0	43	0	0	62	4949
2026-01-13 23:28:55.97	33.47	42.36	-45.5	-48.1	14.8	7.00e-07	0	43	0	0	62	4913
2026-01-13 23:28:57.25	33.69	42.70	-45.5	-48.1	14.8	0.00e+00	0	43	0	0	62	4893
2026-01-13 23:28:57.96	33.81	42.88	-45.5	-48.1	14.8	7.00e-07	0	43	0	0	62	4897
2026-01-13 23:28:59.24	34.04	43.23	-45.8	-48.5	14.5	0.00e+00	0	43	0	0	62	5106
2026-01-13 23:28:59.98	34.17	43.42	-46.0	-48.8	14.1	0.00e+00	0	43	0	0	62	5302
2026-01-13 23:29:01.26	34.41	43.77	-46.2	-49.1	13.9	2.20e-06	0	43	0	0	62	5479
2026-01-13 23:29:01.97	34.54	43.96	-46.1	-48.9	14.0	5.30e-06	0	43	0	0	62	5385
2026-01-13 23:29:03.25	34.78	44.31	-45.9	-48.7	14.3	7.00e-07	0	42	0	0	62	5229
2026-01-13 23:29:03.96	34.92	44.51	-45.8	-48.5	14.4	0.00e+00	0	43	0	0	62	5158
2026-01-13 23:29:05.24	35.17	44.86	-45.7	-48.4	14.6	2.20e-06	0	43	0	0	62	5071
2026-01-13 23:29:06.15	35.36	45.11	-45.5	-48.1	14.8	7.00e-07	0	42	0	0	62	4887
2026-01-13 23:29:07.15	35.56	45.39	-45.5	-48.1	14.7	0.00e+00	0	43	0	0	62	4878
2026-01-13 23:29:08.14	35.77	45.67	-45.6	-48.3	14.5	0.00e+00	0	43	0	0	62	5001
2026-01-13 23:29:09.14	35.98	45.95	-45.5	-48.1	14.7	7.00e-07	0	42	0	0	62	4882
2026-01-13 23:29:10.13	36.19	46.23	-45.4	-47.9	14.9	0.00e+00	0	43	0	0	62	4794
2026-01-13 23:29:11.13	36.41	46.52	-45.2	-47.7	15.2	0.00e+00	0	43	0	0	62	4653
2026-01-13 23:29:12.12	36.63	46.80	-45.1	-47.5	15.4	0.00e+00	0	43	0	0	62	4548
2026-01-13 23:29:13.11	36.85	47.09	-45.0	-47.4	15.4	0.00e+00	0	43	0	0	61	4794
2026-01-13 23:29:14.11	37.08	47.38	-45.0	-47.3	15.5	0.00e+00	0	43	0	0	61	4741
2026-01-13 23:29:15.15	37.33	47.68	-44.7	-46.9	16.0	0.00e+00	0	43	0	0	61	4532
2026-01-13 23:29:16.18	37.58	47.99	-44.5	-46.7	16.1	0.00e+00	0	43	0	0	61	4419
2026-01-13 23:29:17.17	37.82	48.28	-44.4	-46.6	16.3	0.00e+00	0	43	0	0	60	4640
2026-01-13 23:29:18.17	38.07	48.57	-44.2	-46.4	16.5	0.00e+00	0	43	0	0	60	4523
2026-01-13 23:29:19.25	38.34	48.90	-44.3	-46.5	16.4	0.00e+00	0	43	0	0	60	4580
2026-01-13 23:29:20.14	38.57	49.16	-44.5	-46.7	16.3	0.00e+00	0	43	0	0	60	4674
2026-01-13 23:29:21.28	38.87	49.51	-44.6	-46.9	16.1	0.00e+00	0	43	0	0	60	4799
2026-01-13 23:29:22.13	39.10	49.76	-44.9	-47.3	15.7	0.00e+00	0	43	0	0	60	4995
2026-01-13 23:29:23.49	39.47	50.18	-45.0	-47.3	15.7	0.00e+00	0	43	0	0	60	5040
2026-01-13 23:29:24.20	39.67	50.39	-44.8	-47.2	15.8	0.00e+00	0	43	0	0	60	4940
2026-01-13 23:29:25.48	40.04	50.78	-45.1	-47.5	15.5	0.00e+00	0	43	0	0	60	5121
2026-01-13 23:29:26.19	40.25	51.00	-45.2	-47.6	15.4	0.00e+00	0	43	0	0	61	4923
2026-01-13 23:29:27.47	40.63	51.40	-45.2	-47.7	15.3	0.00e+00	0	43	0	0	61	4958
2026-01-13 23:29:28.19	40.85	51.62	-45.2	-47.7	15.4	7.00e-07	0	43	0	0	61	4938
2026-01-13 23:29:29.47	41.24	52.02	-45.0	-47.4	15.6	0.00e+00	0	43	0	0	61	4775
2026-01-13 23:29:30.20	41.48	52.25	-44.7	-47.0	16.0	0.00e+00	0	43	0	0	61	4560
2026-01-13 23:29:31.48	41.89	52.65	-44.6	-46.9	16.1	0.00e+00	0	43	0	0	61	4510
2026-01-13 23:29:32.19	42.12	52.87	-44.6	-46.9	16.1	0.00e+00	0	43	0	0	61	4533
2026-01-13 23:29:33.46	42.55	53.27	-44.6	-46.9	16.1	0.00e+00	0	43	0	0	61	4536
2026-01-13 23:29:34.18	42.80	53.50	-44.6	-46.9	16.1	0.00e+00	0	43	0	0	61	4524
2026-01-13 23:29:35.46	43.25	53.91	-44.6	-46.9	16.1	0.00e+00	0	43	0	0	61	4514
2026-01-13 23:29:36.17	43.51	54.13	-44.6	-46.9	16.1	0.00e+00	0	43	0	0	61	4501
2026-01-13 23:29:37.45	43.98	54.54	-44.6	-46.9	16.0	0.00e+00	0	43	0	0	61	4531
2026-01-13 23:29:38.18	44.25	54.78	-44.5	-46.8	16.2	0.00e+00	0	43	0	0	61	4452
2026-01-13 23:29:39.45	44.74	55.18	-44.3	-46.6	16.4	0.00e+00	0	43	0	0	60	4604
2026-01-13 23:29:40.16	45.02	55.41	-44.2	-46.4	16.6	0.00e+00	0	43	0	0	60	4505
2026-01-13 23:29:41.56	45.59	55.86	-44.1	-46.3	16.7	0.00e+00	0	43	0	0	60	4485
2026-01-13 23:29:42.27	45.88	56.09	-44.0	-46.2	16.8	0.00e+00	0	43	0	0	60	4404
2026-01-13 23:29:43.61	46.45	56.53	-44.2	-46.3	16.7	0.00e+00	0	43	0	0	60	4486
2026-01-13 23:29:44.32	46.75	56.76	-44.0	-46.1	16.8	0.00e+00	0	43	0	0	59	4641
2026-01-13 23:29:45.66	47.35	57.19	-43.6	-45.6	17.3	0.00e+00	0	43	0	0	59	4380
2026-01-13 23:29:46.37	47.67	57.42	-43.5	-45.6	17.3	0.00e+00	0	43	0	0	59	4348
2026-01-13 23:29:47.71	48.29	57.85	-43.3	-45.3	17.6	0.00e+00	0	43	0	0	58	4452
2026-01-13 23:29:48.42	48.63	58.08	-43.2	-45.1	17.8	0.00e+00	0	43	0	0	58	4378
2026-01-13 23:29:49.77	49.29	58.52	-43.0	-44.9	18.0	0.00e+00	0	43	0	0	57	4495
2026-01-13 23:29:50.48	49.65	58.75	-42.9	-44.7	18.1	0.00e+00	0	43	0	0	57	4435
2026-01-13 23:29:51.76	50.31	59.17	-42.8	-44.7	18.1	0.00e+00	0	43	0	0	57	4404
2026-01-13 23:29:52.50	50.69	59.41	-42.7	-44.6	18.2	0.00e+00	0	43	0	0	57	4366
2026-01-13 23:29:53.78	51.39	59.82	-42.7	-44.6	18.2	0.00e+00	0	43	0	0	57	4376
2026-01-13 23:29:54.49	51.78	60.05	-42.6	-44.5	18.3	0.00e+00	0	42	0	0	57	4314
2026-01-13 23:29:55.77	52.50	60.46	-42.5	-44.3	18.4	0.00e+00	0	43	0	0	57	4234
2026-01-13 23:29:56.50	52.93	60.69	-42.5	-44.3	18.4	0.00e+00	0	43	0	0	56	4484
2026-01-13 23:29:57.77	53.69	61.10	-42.5	-44.4	18.3	0.00e+00	0	43	0	0	56	4502
2026-01-13 23:29:58.50	54.13	61.33	-42.5	-44.3	18.4	0.00e+00	0	43	0	0	56	4483
2026-01-13 23:29:59.78	54.94	61.74	-42.5	-44.4	18.4	0.00e+00	0	43	0	0	56	4522
2026-01-13 23:30:00.49	55.39	61.96	-42.5	-44.3	18.5	0.00e+00	0	43	0	0	56	4469
2026-01-13 23:30:01.77	56.24	62.36	-42.1	-43.9	18.9	0.00e+00	0	43	0	0	56	4251
2026-01-13 23:30:02.60	56.80	62.62	-42.2	-44.0	18.7	0.00e+00	0	43	0	0	56	4316
2026-01-13 23:30:04.04	57.81	63.07	-42.3	-44.1	18.7	0.00e+00	0	43	0	0	56	4362
2026-01-13 23:30:04.75	58.32	63.29	-42.1	-43.9	18.9	0.00e+00	0	43	0	0	56	4244
2026-01-13 23:30:06.03	59.26	63.68	-41.8	-43.5	19.1	0.00e+00	0	43	0	0	55	4320
2026-01-13 23:30:06.74	59.79	63.89	-41.6	-43.4	19.1	0.00e+00	0	43	0	0	55	4247
2026-01-13 23:30:08.02	60.79	64.28	-41.5	-43.2	19.1	0.00e+00	0	43	0	0	55	4165
2026-01-13 23:30:08.75	61.37	64.49	-41.4	-43.1	19.1	0.00e+00	0	43	0	0	54	4373
2026-01-13 23:30:10.03	62.41	64.87	-41.1	-42.8	19.5	0.00e+00	0	43	0	0	54	4200
2026-01-13 23:30:10.74	63.01	65.07	-41.0	-42.7	19.5	0.00e+00	0	43	0	0	53	4397
2026-01-13 23:30:12.02	64.11	65.44	-41.6	-43.4	18.9	0.00e+00	0	43	0	0	53	4779
2026-01-13 23:30:12.76	64.76	65.65	-41.8	-43.6	18.7	0.00e+00	0	43	0	0	54	4645
2026-01-13 23:30:14.04	65.92	66.00	-41.9	-43.7	18.7	0.00e+00	0	43	0	0	54	4704
2026-01-13 23:30:14.75	66.58	66.20	-42.1	-43.9	18.5	0.00e+00	0	43	0	0	54	4807
2026-01-13 23:30:16.03	67.79	66.54	-41.9	-43.8	18.7	0.00e+00	0	43	0	0	54	4713
2026-01-13 23:30:16.74	68.49	66.73	-42.1	-43.9	18.7	0.00e+00	0	43	0	0	54	4776
2026-01-13 23:30:18.16	69.91	67.09	-42.0	-43.8	18.8	0.00e+00	0	42	0	0	55	4454
2026-01-13 23:30:18.87	70.64	67.27	-41.8	-43.6	19.0	0.00e+00	0	43	0	0	55	4371
2026-01-13 23:30:20.23	72.07	67.60	-41.6	-43.3	19.2	0.00e+00	0	43	0	0	55	4220
2026-01-13 23:30:20.94	72.83	67.77	-41.5	-43.3	19.2	0.00e+00	0	43	0	0	55	4218
2026-01-13 23:30:22.26	74.29	68.08	-41.6	-43.4	19.1	0.00e+00	0	43	0	0	54	4526
2026-01-13 23:30:22.98	75.10	68.24	-41.6	-43.4	19.1	0.00e+00	0	43	0	0	54	4531
2026-01-13 23:30:24.25	76.57	68.51	-41.7	-43.5	19.0	0.00e+00	0	43	0	0	54	4570
2026-01-13 23:30:24.98	77.43	68.67	-41.7	-43.5	19.0	0.00e+00	0	43	0	0	54	4550
2026-01-13 23:30:26.26	78.97	68.92	-41.9	-43.8	18.7	0.00e+00	0	43	0	0	54	4708
2026-01-13 23:30:27.00	79.88	69.07	-42.1	-44.0	18.5	0.00e+00	0	43	0	0	54	4856
2026-01-13 23:30:28.28	81.48	69.30	-41.9	-43.7	18.9	0.00e+00	0	43	0	0	55	4416
2026-01-13 23:30:28.99	82.38	69.43	-41.7	-43.4	19.1	0.00e+00	0	43	0	0	55	4281
2026-01-13 23:30:30.28	84.06	69.64	-41.6	-43.4	19.0	0.00e+00	0	42	0	0	54	4532
2026-01-13 23:30:30.99	85.00	69.75	-41.6	-43.4	19.1	0.00e+00	0	43	0	0	54	4503
2026-01-13 23:30:32.27	86.72	69.94	-41.5	-43.3	19.2	0.00e+00	0	43	0	0	54	4467
2026-01-13 23:30:32.98	87.68	70.04	-41.4	-43.2	19.3	0.00e+00	0	43	0	0	54	4402
2026-01-13 23:30:34.26	89.45	70.20	-41.5	-43.3	19.1	0.00e+00	0	43	0	0	54	4464
2026-01-13 23:30:34.97	90.45	70.28	-41.5	-43.3	19.1	0.00e+00	0	43	0	0	54	4461
2026-01-13 23:30:36.25	92.26	70.41	-41.3	-43.1	19.4	0.00e+00	0	43	0	0	54	4346
2026-01-13 23:30:37.12	93.51	70.49	-41.4	-43.2	19.1	0.00e+00	0	43	0	0	54	4395
2026-01-13 23:30:38.26	95.16	70.59	-41.8	-43.6	18.6	0.00e+00	0	43	0	0	54	4642
2026-01-13 23:30:39.11	96.40	70.65	-41.8	-43.6	18.7	0.00e+00	0	43	0	0	54	4605
2026-01-13 23:30:40.25	98.07	70.71	-41.5	-43.3	19.0	0.00e+00	0	43	0	0	54	4463
2026-01-13 23:30:41.40	99.77	70.76	-41.7	-43.5	18.7	0.00e+00	0	43	0	0	54	4559
2026-01-13 23:30:42.26	101.05	70.79	-42.0	-43.8	18.5	0.00e+00	0	43	0	0	54	4740
2026-01-13 23:30:43.39	102.73	70.81	-41.9	-43.7	18.8	0.00e+00	0	43	0	0	55	4425
2026-01-13 23:30:44.25	104.01	70.82	-41.6	-43.4	19.1	0.00e+00	0	43	0	0	55	4270
2026-01-13 23:30:45.39	105.71	70.82	-41.4	-43.2	19.2	0.00e+00	0	43	0	0	54	4404
2026-01-13 23:30:46.24	106.98	70.80	-41.6	-43.4	19.0	0.00e+00	0	43	0	0	54	4502
2026-01-13 23:30:47.38	108.67	70.77	-42.0	-43.9	18.6	0.00e+00	0	43	0	0	54	4769
2026-01-13 23:30:48.23	109.93	70.74	-42.1	-44.0	18.5	0.00e+00	0	43	0	0	55	4558
2026-01-13 23:30:49.37	111.61	70.68	-42.1	-44.0	18.4	0.00e+00	0	43	0	0	55	4574
2026-01-13 23:30:50.22	112.86	70.62	-41.8	-43.7	18.7	0.00e+00	0	43	0	0	55	4392
2026-01-13 23:30:51.52	114.75	70.52	-41.4	-43.2	19.1	0.00e+00	0	43	0	0	54	4394
2026-01-13 23:30:52.23	115.77	70.46	-41.4	-43.2	19.1	0.00e+00	0	43	0	0	54	4399
2026-01-13 23:30:53.51	117.59	70.33	-41.5	-43.3	18.9	0.00e+00	0	43	0	0	54	4460
2026-01-13 23:30:54.22	118.59	70.25	-41.9	-43.8	18.5	0.00e+00	0	43	0	0	54	4719
2026-01-13 23:30:55.50	120.37	70.10	-42.1	-43.9	18.5	0.00e+00	0	43	0	0	54	4791
2026-01-13 23:30:56.23	121.38	70.00	-42.1	-43.9	18.5	0.00e+00	0	43	0	0	54	4775
2026-01-13 23:30:57.50	123.10	69.82	-42.2	-44.0	18.5	0.00e+00	0	43	0	0	55	4592
2026-01-13 23:30:58.21	124.04	69.72	-42.2	-44.0	18.5	0.00e+00	0	43	0	0	55	4590
2026-01-13 23:30:59.50	125.73	69.51	-42.2	-44.1	18.6	0.00e+00	0	43	0	0	55	4600
2026-01-13 23:31:00.21	126.65	69.39	-42.2	-44.0	18.6	0.00e+00	0	43	0	0	55	4587
2026-01-13 23:31:01.48	128.25	69.16	-41.7	-43.5	19.0	0.00e+00	0	43	0	0	55	4328
2026-01-13 23:31:02.20	129.15	69.02	-41.5	-43.2	19.3	0.00e+00	0	43	0	0	55	4175
2026-01-13 23:31:03.48	130.70	68.77	-40.9	-42.6	19.9	0.00e+00	0	43	0	0	53	4346
2026-01-13 23:31:04.20	131.56	68.62	-41.1	-42.8	19.7	0.00e+00	0	43	0	0	53	4446
2026-01-13 23:31:05.48	133.06	68.35	-41.6	-43.4	19.2	0.00e+00	0	43	0	0	53	4786
2026-01-13 23:31:06.19	133.87	68.19	-41.8	-43.6	19.0	0.00e+00	0	43	0	0	54	4625
2026-01-13 23:31:07.53	135.37	67.88	-42.0	-43.8	18.8	0.00e+00	0	43	0	0	54	4731
2026-01-13 23:31:08.25	136.15	67.71	-41.7	-43.5	19.1	0.00e+00	0	43	0	0	54	4570
2026-01-13 23:31:09.52	137.51	67.41	-41.5	-43.2	19.4	0.00e+00	0	43	0	0	54	4422
2026-01-13 23:31:10.23	138.25	67.23	-41.2	-42.8	19.7	0.00e+00	0	43	0	0	54	4241
2026-01-13 23:31:11.66	139.70	66.87	-41.7	-43.5	19.1	0.00e+00	0	43	0	0	54	4548
2026-01-13 23:31:12.37	140.40	66.68	-42.1	-43.9	18.8	0.00e+00	0	43	0	0	54	4778
2026-01-13 23:31:13.65	141.64	66.34	-42.2	-44.0	18.5	0.00e+00	0	43	0	0	55	4598
2026-01-13 23:31:14.69	142.61	66.06	-41.6	-43.4	19.1	0.00e+00	0	43	0	0	55	4270
2026-01-13 23:31:15.68	143.52	65.79	-41.3	-43.0	19.5	0.00e+00	0	43	0	0	54	4307
2026-01-13 23:31:16.68	144.41	65.50	-41.4	-43.2	19.3	0.00e+00	0	43	0	0	54	4398
2026-01-13 23:31:17.68	145.28	65.22	-41.9	-43.7	18.9	0.00e+00	0	43	0	0	54	4683
2026-01-13 23:31:18.67	146.12	64.93	-42.6	-44.5	18.2	0.00e+00	0	43	0	0	55	4838
2026-01-13 23:31:19.66	146.93	64.64	-43.0	-45.0	17.7	0.00e+00	0	43	0	0	56	4847
2026-01-13 23:31:20.66	147.74	64.35	-42.3	-44.2	18.5	0.00e+00	0	43	0	0	56	4410
2026-01-13 23:31:21.65	148.52	64.05	-41.4	-43.1	19.3	0.00e+00	0	43	0	0	54	4362
2026-01-13 23:31:22.65	149.28	63.75	-41.3	-43.1	19.4	0.00e+00	0	43	0	0	54	4341
2026-01-13 23:31:23.64	150.02	63.45	-41.9	-43.7	18.9	0.00e+00	0	43	0	0	54	4672
2026-01-13 23:31:24.64	150.75	63.14	-43.0	-45.0	17.9	0.00e+00	0	43	0	0	56	4848
2026-01-13 23:31:25.63	151.45	62.84	-44.1	-46.3	16.7	0.00e+00	0	43	0	0	58	5034
2026-01-13 23:31:26.83	152.27	62.46	-44.1	-46.3	16.4	0.00e+00	0	43	0	0	59	4713
2026-01-13 23:31:27.71	152.86	62.18	-43.2	-45.1	17.4	0.00e+00	0	43	0	0	58	4390
2026-01-13 23:31:29.03	153.73	61.77	-42.1	-43.9	18.7	0.00e+00	0	43	0	0	56	4254
2026-01-13 23:31:29.74	154.18	61.54	-41.8	-43.6	18.9	0.00e+00	0	43	0	0	55	4372
2026-01-13 23:31:31.03	154.97	61.13	-42.3	-44.2	18.5	0.00e+00	0	43	0	0	55	4660
2026-01-13 23:31:31.74	155.40	60.90	-43.3	-45.3	17.7	0.00e+00	0	43	0	0	57	4732
2026-01-13 23:31:33.02	156.16	60.49	-44.1	-46.3	16.7	0.00e+00	0	43	0	0	58	5014
2026-01-13 23:31:33.75	156.58	60.26	-43.7	-45.8	17.1	0.00e+00	0	43	0	0	58	4706
2026-01-13 23:31:35.03	157.29	59.84	-42.6	-44.5	18.1	0.00e+00	0	43	0	0	57	4310
2026-01-13 23:31:35.75	157.69	59.61	-42.1	-43.9	18.8	0.00e+00	0	43	0	0	56	4243
2026-01-13 23:31:37.03	158.37	59.20	-42.1	-43.8	18.8	0.00e+00	0	43	0	0	56	4242
2026-01-13 23:31:37.74	158.74	58.96	-42.2	-44.0	18.7	0.00e+00	0	43	0	0	56	4335
2026-01-13 23:31:39.02	159.39	58.55	-43.3	-45.3	17.7	0.00e+00	0	43	0	0	57	4729
2026-01-13 23:31:39.73	159.74	58.32	-44.2	-46.4	16.7	0.00e+00	0	43	0	0	59	4805
2026-01-13 23:31:41.03	160.37	57.89	-44.9	-47.3	15.7	0.00e+00	0	43	0	0	60	5003
2026-01-13 23:31:41.74	160.70	57.66	-44.4	-46.6	16.2	0.00e+00	0	43	0	0	60	4636
2026-01-13 23:31:43.05	161.30	57.24	-43.1	-45.1	17.4	0.00e+00	0	43	0	0	58	4342
2026-01-13 23:31:43.76	161.62	57.01	-43.0	-44.9	17.6	0.00e+00	0	43	0	0	58	4271
2026-01-13 23:31:45.04	162.19	56.59	-42.3	-44.0	18.6	0.00e+00	0	43	0	0	56	4336
2026-01-13 23:31:45.78	162.50	56.35	-42.3	-44.1	18.6	0.00e+00	0	43	0	0	56	4376
2026-01-13 23:31:47.06	163.04	55.93	-43.7	-45.8	17.1	0.00e+00	0	43	0	0	58	4722
2026-01-13 23:31:47.77	163.33	55.70	-44.7	-47.1	16.0	0.00e+00	0	43	0	0	60	4882
2026-01-13 23:31:49.24	163.92	55.23	-45.8	-48.5	14.6	7.00e-07	0	43	0	0	62	5126
2026-01-13 23:31:49.95	164.20	55.00	-45.3	-47.8	15.1	0.00e+00	0	43	0	0	62	4750
2026-01-13 23:31:51.29	164.71	54.57	-44.5	-46.8	15.9	0.00e+00	0	43	0	0	61	4475
2026-01-13 23:31:52.00	164.97	54.34	-43.9	-46.1	16.8	0.00e+00	0	43	0	0	59	4600
2026-01-13 23:31:53.28	165.44	53.93	-43.2	-45.2	17.7	0.00e+00	0	43	0	0	58	4409
2026-01-13 23:31:54.01	165.70	53.70	-43.4	-45.4	17.6	0.00e+00	0	43	0	0	58	4505
2026-01-13 23:31:55.29	166.14	53.29	-43.9	-46.0	17.1	0.00e+00	0	43	0	0	58	4822
2026-01-13 23:31:56.00	166.39	53.07	-44.4	-46.6	16.5	0.00e+00	0	43	0	0	59	4872
2026-01-13 23:31:57.28	166.81	52.66	-45.6	-48.2	14.9	0.00e+00	0	43	0	0	61	5248
2026-01-13 23:31:57.99	167.05	52.44	-45.7	-48.3	14.8	0.00e+00	0	43	0	0	62	5015
2026-01-13 23:31:59.27	167.46	52.03	-45.8	-48.4	14.8	0.00e+00	0	43	0	0	62	5058
2026-01-13 23:31:59.98	167.68	51.81	-45.8	-48.3	14.7	2.20e-06	0	43	0	0	62	5030
2026-01-13 23:32:01.26	168.07	51.41	-45.4	-47.9	15.0	0.00e+00	0	43	0	0	62	4778
2026-01-13 23:32:02.11	168.33	51.15	-45.2	-47.6	15.5	0.00e+00	0	43	0	0	62	4608
2026-01-13 23:32:03.25	168.66	50.80	-44.7	-46.9	16.2	0.00e+00	0	43	0	0	61	4544
2026-01-13 23:32:04.10	168.91	50.53	-44.6	-46.8	16.3	0.00e+00	0	43	0	0	61	4478
2026-01-13 23:32:05.23	169.23	50.19	-44.9	-47.2	16.0	0.00e+00	0	43	0	0	61	4686
2026-01-13 23:32:06.09	169.47	49.92	-45.5	-47.9	15.3	0.00e+00	0	43	0	0	61	5080
2026-01-13 23:32:07.22	169.77	49.58	-46.2	-48.9	14.4	0.00e+00	0	43	0	0	62	5359
2026-01-13 23:32:08.07	170.00	49.32	-46.3	-49.0	14.3	7.00e-07	0	43	0	0	63	5124
2026-01-13 23:32:09.21	170.30	48.98	-46.4	-49.2	14.1	1.50e-06	0	43	0	0	63	5246
2026-01-13 23:32:10.06	170.52	48.72	-46.7	-49.6	13.7	7.60e-06	0	43	0	0	64	5180
2026-01-13 23:32:11.20	170.81	48.38	-46.1	-48.8	14.4	7.00e-07	0	43	0	0	64	4717
2026-01-13 23:32:12.06	171.02	48.13	-45.5	-47.8	15.4	0.00e+00	0	43	0	0	62	4751
2026-01-13 23:32:13.19	171.29	47.79	-44.8	-47.1	15.9	0.00e+00	0	43	0	0	61	4618
2026-01-13 23:32:14.05	171.50	47.54	-45.0	-47.2	15.7	0.00e+00	0	43	0	0	61	4694
2026-01-13 23:32:15.19	171.76	47.21	-45.0	-47.3	15.8	0.00e+00	0	43	0	0	61	4727
2026-01-13 23:32:16.04	171.96	46.96	-45.1	-47.4	15.7	0.00e+00	0	43	0	0	61	4809
2026-01-13 23:32:17.17	172.21	46.63	-45.1	-47.5	15.7	0.00e+00	0	43	0	0	61	4827
2026-01-13 23:32:18.15	172.43	46.35	-45.4	-47.8	15.5	0.00e+00	0	43	0	0	61	4999
2026-01-13 23:32:19.15	172.65	46.07	-45.6	-48.1	15.2	0.00e+00	0	43	0	0	61	5190
2026-01-13 23:32:20.14	172.86	45.78	-45.8	-48.3	15.0	0.00e+00	0	43	0	0	62	5014
2026-01-13 23:32:21.14	173.07	45.50	-45.7	-48.1	15.2	0.00e+00	0	43	0	0	62	4908
2026-01-13 23:32:22.13	173.27	45.22	-45.6	-48.1	15.2	0.00e+00	0	43	0	0	62	4873
2026-01-13 23:32:23.13	173.48	44.94	-45.8	-48.3	15.0	0.00e+00	0	43	0	0	62	5022
2026-01-13 23:32:24.12	173.67	44.66	-46.4	-49.1	14.2	7.00e-07	0	43	0	0	63	5162
2026-01-13 23:32:25.12	173.87	44.39	-46.9	-49.9	13.4	1.37e-05	0	43	0	0	64	5347
2026-01-13 23:32:26.51	174.14	44.01	-46.7	-49.6	13.7	1.44e-05	0	43	0	0	64	5184
2026-01-13 23:32:27.22	174.27	43.81	-46.5	-49.3	13.9	5.30e-06	0	43	0	0	64	5006
2026-01-13 23:32:28.86	174.57	43.37	-46.0	-48.6	14.5	0.00e+00	0	43	0	0	64	4621
2026-01-13 23:32:29.43	174.68	43.21	-45.8	-48.3	14.9	7.00e-07	0	43	0	0	63	4729
2026-01-13 23:32:31.14	174.98	42.75	-45.6	-48.1	15.2	0.00e+00	0	43	0	0	63	4615
2026-01-13 23:32:31.78	175.09	42.58	-45.9	-48.4	14.9	0.00e+00	0	43	0	0	63	4785
2026-01-13 23:32:33.20	175.34	42.21	-46.0	-48.5	14.8	7.00e-07	0	43	0	0	63	4859
2026-01-13 23:32:33.92	175.46	42.02	-45.7	-48.2	15.1	0.00e+00	0	43	0	0	63	4695
2026-01-13 23:32:35.19	175.67	41.69	-45.6	-48.1	15.2	0.00e+00	0	43	0	0	63	4617
2026-01-13 23:32:35.90	175.79	41.50	-45.7	-48.1	15.2	0.00e+00	0	43	0	0	63	4636
2026-01-13 23:32:37.18	175.99	41.17	-45.5	-47.9	15.3	0.00e+00	0	43	0	0	63	4524
2026-01-13 23:32:37.91	176.11	40.99	-45.4	-47.8	15.3	0.00e+00	0	43	0	0	62	4720
2026-01-13 23:32:39.19	176.31	40.66	-45.3	-47.7	15.5	0.00e+00	0	43	0	0	62	4676
2026-01-13 23:32:40.17	176.46	40.41	-45.6	-48.0	15.2	7.00e-07	0	43	0	0	62	4859
2026-01-13 23:32:41.46	176.65	40.09	-46.0	-48.6	14.8	0.00e+00	0	43	0	0	62	5171
2026-01-13 23:32:42.21	176.77	39.90	-46.2	-48.9	14.5	1.50e-06	0	43	0	0	63	5056
2026-01-13 23:32:43.48	176.95	39.59	-46.3	-49.0	14.4	3.00e-06	0	43	0	0	63	5134
2026-01-13 23:32:44.28	177.07	39.39	-46.2	-48.8	14.6	7.00e-07	0	43	0	0	63	5034
2026-01-13 23:32:45.45	177.23	39.10	-45.9	-48.5	14.8	0.00e+00	0	43	0	0	63	4860
2026-01-13 23:32:46.30	177.35	38.89	-45.6	-48.1	15.2	0.00e+00	0	43	0	0	63	4640
2026-01-13 23:32:47.43	177.51	38.62	-45.4	-47.8	15.5	0.00e+00	0	43	0	0	62	4728
2026-01-13 23:32:48.29	177.63	38.41	-45.4	-47.8	15.6	0.00e+00	0	43	0	0	62	4708
2026-01-13 23:32:49.42	177.78	38.14	-45.2	-47.5	15.9	0.00e+00	0	43	0	0	62	4582
2026-01-13 23:32:50.28	177.89	37.94	-45.2	-47.5	15.9	0.00e+00	0	43	0	0	62	4585
2026-01-13 23:32:51.41	178.04	37.67	-44.9	-47.2	16.2	0.00e+00	0	43	0	0	61	4678
2026-01-13 23:32:52.27	178.15	37.47	-44.9	-47.2	16.1	0.00e+00	0	43	0	0	61	4699
2026-01-13 23:32:53.40	178.29	37.21	-44.9	-47.2	16.2	0.00e+00	0	43	0	0	61	4663
2026-01-13 23:32:54.26	178.40	37.01	-44.8	-47.1	16.3	0.00e+00	0	43	0	0	61	4615
2026-01-13 23:32:55.40	178.54	36.75	-44.9	-47.2	16.2	0.00e+00	0	43	0	0	61	4665
2026-01-13 23:32:56.25	178.65	36.55	-44.9	-47.2	16.1	0.00e+00	0	43	0	0	61	4682
2026-01-13 23:32:57.39	178.78	36.30	-45.0	-47.3	16.0	0.00e+00	0	43	0	0	61	4719
2026-01-13 23:32:58.24	178.88	36.10	-45.0	-47.2	16.1	0.00e+00	0	43	0	0	61	4704
2026-01-13 23:32:59.37	179.02	35.85	-44.9	-47.1	16.2	0.00e+00	0	43	0	0	61	4620
2026-01-13 23:33:00.29	179.12	35.65	-44.8	-47.0	16.3	0.00e+00	0	43	0	0	61	4553
2026-01-13 23:33:01.47	179.26	35.38	-44.7	-46.9	16.4	0.00e+00	0	43	0	0	61	4503
2026-01-13 23:33:02.34	179.35	35.19	-44.8	-47.0	16.4	0.00e+00	0	43	0	0	61	4553
2026-01-13 23:33:03.48	179.48	34.94	-44.7	-46.9	16.4	0.00e+00	0	43	0	0	61	4538
2026-01-13 23:33:04.33	179.57	34.76	-44.9	-47.1	16.2	0.00e+00	0	43	0	0	61	4627
2026-01-13 23:33:05.47	179.70	34.51	-44.9	-47.2	16.1	7.00e-07	0	43	0	0	61	4678
2026-01-13 23:33:06.32	179.79	34.33	-45.1	-47.5	15.8	0.00e+00	0	43	0	0	61	4826
2026-01-13 23:33:07.46	179.91	34.09	-45.4	-47.9	15.5	0.00e+00	0	43	0	0	61	5049
2026-01-13 23:33:08.31	180.00	33.91	-45.5	-48.0	15.4	0.00e+00	0	43	0	0	61	5109
2026-01-13 23:33:09.45	180.11	33.67	-45.5	-48.0	15.4	0.00e+00	0	43	0	0	61	5115
2026-01-13 23:33:10.30	180.20	33.49	-45.4	-47.8	15.6	0.00e+00	0	43	0	0	61	5012
2026-01-13 23:33:11.43	180.31	33.26	-45.2	-47.5	15.8	0.00e+00	0	43	0	0	61	4864
2026-01-13 23:33:12.29	180.40	33.08	-45.1	-47.4	16.0	0.00e+00	0	43	0	0	61	4780
2026-01-13 23:33:13.42	180.51	32.85	-44.9	-47.2	16.2	0.00e+00	0	43	0	0	61	4678
2026-01-13 23:33:14.28	180.59	32.67	-44.6	-46.9	16.5	0.00e+00	0	43	0	0	61	4505
2026-01-13 23:33:15.51	180.71	32.42	-44.3	-46.4	16.9	0.00e+00	0	43	0	0	60	4539
2026-01-13 23:33:16.36	180.79	32.25	-44.0	-46.2	17.1	0.00e+00	0	43	0	0	60	4398
2026-01-13 23:33:17.50	180.90	32.03	-44.0	-46.1	17.2	0.00e+00	0	43	0	0	59	4604
2026-01-13 23:33:18.35	180.97	31.86	-43.9	-45.9	17.3	0.00e+00	0	43	0	0	59	4528
2026-01-13 23:33:19.49	181.08	31.63	-43.9	-45.9	17.3	0.00e+00	0	43	0	0	59	4529
2026-01-13 23:33:20.34	181.16	31.47	-43.9	-45.9	17.3	0.00e+00	0	43	0	0	59	4526
2026-01-13 23:33:21.48	181.26	31.24	-43.9	-46.0	17.2	0.00e+00	0	43	0	0	59	4570
2026-01-13 23:33:22.33	181.33	31.08	-43.9	-46.0	17.2	0.00e+00	0	43	0	0	59	4555
2026-01-13 23:33:23.47	181.43	30.86	-43.8	-45.9	17.3	0.00e+00	0	43	0	0	59	4503
2026-01-13 23:33:24.32	181.50	30.70	-43.8	-45.9	17.3	0.00e+00	0	43	0	0	59	4509
2026-01-13 23:33:25.46	181.60	30.48	-43.7	-45.8	17.4	0.00e+00	0	43	0	0	59	4454
2026-01-13 23:33:26.31	181.67	30.32	-43.7	-45.7	17.5	0.00e+00	0	43	0	0	59	4399
2026-01-13 23:33:27.45	181.77	30.11	-43.3	-45.3	17.8	0.00e+00	0	43	0	0	58	4453
2026-01-13 23:33:28.30	181.84	29.95	-43.3	-45.2	17.9	0.00e+00	0	43	0	0	58	4425
2026-01-13 23:33:29.43	181.93	29.74	-43.2	-45.2	17.9	0.00e+00	0	43	0	0	58	4403
2026-01-13 23:33:30.29	182.00	29.58	-43.3	-45.3	17.8	0.00e+00	0	43	0	0	58	4462
2026-01-13 23:33:31.42	182.09	29.37	-43.4	-45.4	17.7	0.00e+00	0	43	0	0	58	4517
2026-01-13 23:33:32.27	182.16	29.22	-43.5	-45.5	17.6	0.00e+00	0	43	0	0	58	4570
2026-01-13 23:33:33.41	182.24	29.01	-43.6	-45.6	17.5	0.00e+00	0	43	0	0	58	4621
2026-01-13 23:33:34.27	182.31	28.86	-43.7	-45.7	17.4	0.00e+00	0	43	0	0	58	4654
2026-01-13 23:33:35.40	182.40	28.66	-43.7	-45.7	17.4	0.00e+00	0	43	0	0	58	4679
2026-01-13 23:33:36.26	182.46	28.50	-43.6	-45.6	17.5	0.00e+00	0	43	0	0	58	4634
2026-01-13 23:33:37.40	182.55	28.30	-43.6	-45.6	17.5	0.00e+00	0	43	0	0	58	4644
2026-01-13 23:33:38.25	182.61	28.15	-43.6	-45.6	17.5	0.00e+00	0	43	0	0	58	4632
2026-01-13 23:33:39.39	182.69	27.95	-43.6	-45.6	17.5	0.00e+00	0	43	0	0	58	4604
2026-01-13 23:33:40.24	182.75	27.81	-43.5	-45.5	17.6	0.00e+00	0	43	0	0	58	4591
2026-01-13 23:33:41.38	182.84	27.61	-43.6	-45.6	17.5	0.00e+00	0	43	0	0	58	4614
2026-01-13 23:33:42.23	182.90	27.46	-43.6	-45.6	17.5	0.00e+00	0	43	0	0	58	4636
2026-01-13 23:33:43.37	182.98	27.27	-43.7	-45.7	17.4	0.00e+00	0	43	0	0	58	4704
2026-01-13 23:33:44.22	183.04	27.13	-43.6	-45.7	17.4	0.00e+00	0	43	0	0	58	4661
2026-01-13 23:33:45.36	183.11	26.93	-43.7	-45.7	17.4	0.00e+00	0	43	0	0	58	4696
2026-01-13 23:33:46.21	183.17	26.79	-43.7	-45.7	17.4	0.00e+00	0	43	0	0	58	4705
2026-01-13 23:33:47.38	183.25	26.60	-43.6	-45.7	17.4	0.00e+00	0	43	0	0	58	4672
2026-01-13 23:33:48.23	183.31	26.46	-43.5	-45.6	17.5	0.00e+00	0	43	0	0	58	4610
2026-01-13 23:33:49.43	183.39	26.26	-43.5	-45.6	17.5	0.00e+00	0	43	0	0	58	4619
2026-01-13 23:33:50.28	183.44	26.12	-43.5	-45.6	17.5	0.00e+00	0	43	0	0	58	4627
2026-01-13 23:33:51.48	183.52	25.93	-43.5	-45.6	17.5	0.00e+00	0	43	0	0	58	4603
2026-01-13 23:33:52.33	183.58	25.79	-43.6	-45.6	17.5	0.00e+00	0	43	0	0	58	4625
2026-01-13 23:33:53.54	183.65	25.60	-43.6	-45.7	17.3	0.00e+00	0	43	0	0	58	4679
2026-01-13 23:33:54.39	183.71	25.46	-43.7	-45.7	17.3	0.00e+00	0	43	0	0	58	4692
2026-01-13 23:33:55.59	183.78	25.27	-43.7	-45.7	17.3	0.00e+00	0	43	0	0	58	4700
2026-01-13 23:33:56.44	183.83	25.14	-43.5	-45.6	17.5	0.00e+00	0	43	0	0	58	4613
2026-01-13 23:33:57.64	183.91	24.95	-43.5	-45.6	17.4	0.00e+00	0	43	0	0	58	4602
2026-01-13 23:33:58.50	183.96	24.81	-43.6	-45.7	17.3	0.00e+00	0	43	0	0	58	4659
2026-01-13 23:33:59.63	184.03	24.64	-43.5	-45.5	17.4	0.00e+00	0	43	0	0	58	4593
2026-01-13 23:34:00.49	184.08	24.51	-43.4	-45.5	17.5	0.00e+00	0	43	0	0	58	4560
2026-01-13 23:34:01.62	184.14	24.33	-43.5	-45.5	17.4	0.00e+00	0	43	0	0	58	4587
2026-01-13 23:34:02.51	184.20	24.20	-43.6	-45.7	17.3	0.00e+00	0	43	0	0	58	4652
2026-01-13 23:34:03.65	184.26	24.02	-43.7	-45.8	17.2	0.00e+00	0	43	0	0	58	4708
2026-01-13 23:34:04.50	184.31	23.90	-43.7	-45.8	17.1	0.00e+00	0	43	0	0	58	4756
2026-01-13 23:34:05.64	184.38	23.73	-43.8	-45.9	17.0	0.00e+00	0	43	0	0	58	4779
2026-01-13 23:34:06.49	184.42	23.60	-43.8	-46.0	17.0	0.00e+00	0	43	0	0	58	4815
2026-01-13 23:34:07.63	184.49	23.43	-43.8	-45.9	17.0	0.00e+00	0	43	0	0	58	4804
2026-01-13 23:34:08.48	184.53	23.31	-43.7	-45.8	17.2	0.00e+00	0	43	0	0	58	4718
2026-01-13 23:34:09.62	184.60	23.14	-43.6	-45.7	17.3	0.00e+00	0	43	0	0	58	4653
2026-01-13 23:34:10.47	184.64	23.01	-43.6	-45.6	17.3	0.00e+00	0	43	0	0	58	4625
2026-01-13 23:34:11.61	184.70	22.85	-43.6	-45.6	17.3	0.00e+00	0	43	0	0	58	4622
2026-01-13 23:34:12.75	184.77	22.69	-43.5	-45.5	17.3	0.00e+00	0	43	0	0	58	4598
2026-01-13 23:34:13.60	184.81	22.56	-43.5	-45.5	17.4	0.00e+00	0	43	0	0	58	4572
2026-01-13 23:34:14.74	184.87	22.40	-43.4	-45.4	17.4	0.00e+00	0	43	0	0	58	4538
2026-01-13 23:34:15.59	184.91	22.28	-43.4	-45.4	17.4	0.00e+00	0	43	0	0	58	4536
2026-01-13 23:34:16.73	184.97	22.12	-43.4	-45.4	17.4	0.00e+00	0	43	0	0	58	4510
2026-01-13 23:34:17.58	185.02	22.00	-43.2	-45.2	17.6	0.00e+00	0	43	0	0	58	4411
2026-01-13 23:34:18.72	185.07	21.84	-43.1	-45.0	17.8	0.00e+00	0	43	0	0	58	4325
2026-01-13 23:34:19.57	185.12	21.72	-43.2	-45.1	17.6	0.00e+00	0	43	0	0	58	4390
2026-01-13 23:34:20.70	185.17	21.57	-43.2	-45.1	17.7	0.00e+00	0	43	0	0	58	4373
2026-01-13 23:34:21.56	185.22	21.45	-43.2	-45.2	17.7	0.00e+00	0	43	0	0	58	4394
2026-01-13 23:34:22.69	185.27	21.30	-43.3	-45.3	17.6	0.00e+00	0	43	0	0	58	4443
2026-01-13 23:34:23.62	185.32	21.17	-43.3	-45.3	17.6	0.00e+00	0	43	0	0	58	4448
2026-01-13 23:34:24.79	185.37	21.01	-43.4	-45.3	17.6	0.00e+00	0	43	0	0	58	4487
2026-01-13 23:34:25.64	185.41	20.90	-43.4	-45.3	17.7	0.00e+00	0	43	0	0	58	4488
2026-01-13 23:34:26.99	185.48	20.72	-43.4	-45.4	17.6	0.00e+00	0	43	0	0	58	4500
2026-01-13 23:34:27.70	185.51	20.62	-43.3	-45.3	17.7	0.00e+00	0	43	0	0	58	4483
2026-01-13 23:34:29.17	185.58	20.43	-43.3	-45.3	17.7	0.00e+00	0	43	0	0	58	4490
2026-01-13 23:34:29.88	185.61	20.34	-43.3	-45.3	17.7	0.00e+00	0	43	0	0	58	4482
2026-01-13 23:34:31.22	185.67	20.16	-43.3	-45.3	17.7	0.00e+00	0	43	0	0	58	4478
2026-01-13 23:34:31.93	185.71	20.07	-43.4	-45.4	17.7	0.00e+00	0	43	0	0	58	4507
2026-01-13 23:34:33.26	185.77	19.90	-43.3	-45.3	17.7	0.00e+00	0	43	0	0	58	4458
2026-01-13 23:34:33.97	185.80	19.81	-43.3	-45.3	17.7	0.00e+00	0	43	0	0	58	4472
2026-01-13 23:34:35.30	185.86	19.63	-43.5	-45.5	17.5	0.00e+00	0	43	0	0	58	4571
2026-01-13 23:34:36.01	185.89	19.54	-43.4	-45.5	17.6	0.00e+00	0	43	0	0	58	4554
2026-01-13 23:34:37.28	185.94	19.38	-43.6	-45.6	17.5	0.00e+00	0	43	0	0	58	4625
2026-01-13 23:34:37.99	185.97	19.29	-43.6	-45.6	17.4	0.00e+00	0	43	0	0	58	4645
2026-01-13 23:34:39.27	186.03	19.13	-43.7	-45.8	17.2	0.00e+00	0	43	0	0	58	4746
2026-01-13 23:34:39.98	186.06	19.04	-43.8	-46.0	17.1	0.00e+00	0	43	0	0	58	4823
2026-01-13 23:34:41.26	186.11	18.89	-43.9	-46.1	17.0	0.00e+00	0	43	0	0	58	4900
2026-01-13 23:34:41.99	186.14	18.80	-44.0	-46.2	16.8	0.00e+00	0	43	0	0	58	4967
2026-01-13 23:34:43.27	186.20	18.64	-44.0	-46.2	16.9	0.00e+00	0	43	0	0	58	4962
2026-01-13 23:34:43.98	186.23	18.55	-44.1	-46.3	16.8	0.00e+00	0	43	0	0	58	4990
2026-01-13 23:34:45.26	186.28	18.40	-44.1	-46.4	16.7	0.00e+00	0	43	0	0	58	5073
2026-01-13 23:34:46.11	186.32	18.29	-44.1	-46.4	16.7	0.00e+00	0	43	0	0	58	5071
2026-01-13 23:34:47.25	186.36	18.15	-44.1	-46.4	16.7	0.00e+00	0	43	0	0	59	4772
2026-01-13 23:34:48.27	186.40	18.03	-44.1	-46.4	16.7	0.00e+00	0	43	0	0	59	4799
2026-01-13 23:34:49.44	186.45	17.89	-44.2	-46.6	16.5	0.00e+00	0	43	0	0	59	4872
2026-01-13 23:34:50.33	186.48	17.79	-44.2	-46.5	16.6	0.00e+00	0	43	0	0	59	4855
2026-01-13 23:34:51.47	186.53	17.65	-44.2	-46.5	16.6	0.00e+00	0	43	0	0	59	4822
2026-01-13 23:34:52.32	186.56	17.55	-44.2	-46.5	16.5	0.00e+00	0	43	0	0	59	4870
2026-01-13 23:34:53.46	186.61	17.42	-44.2	-46.5	16.5	0.00e+00	0	43	0	0	59	4863
2026-01-13 23:34:54.31	186.64	17.32	-44.2	-46.5	16.5	0.00e+00	0	43	0	0	59	4860
2026-01-13 23:34:55.45	186.68	17.19	-44.2	-46.5	16.5	0.00e+00	0	43	0	0	59	4870
2026-01-13 23:34:56.30	186.72	17.09	-44.2	-46.6	16.5	0.00e+00	0	43	0	0	59	4888
2026-01-13 23:34:57.44	186.76	16.96	-44.3	-46.7	16.3	0.00e+00	0	43	0	0	59	4976
2026-01-13 23:34:58.29	186.79	16.86	-44.3	-46.7	16.3	0.00e+00	0	43	0	0	59	4962
2026-01-13 23:34:59.43	186.83	16.73	-44.3	-46.7	16.4	0.00e+00	0	43	0	0	59	4927
2026-01-13 23:35:00.28	186.86	16.63	-44.3	-46.6	16.4	0.00e+00	0	43	0	0	59	4909
2026-01-13 23:35:01.42	186.91	16.51	-44.3	-46.7	16.3	0.00e+00	0	43	0	0	59	4977
2026-01-13 23:35:02.27	186.94	16.41	-44.3	-46.7	16.3	0.00e+00	0	43	0	0	59	4955
2026-01-13 23:35:03.53	186.98	16.27	-44.2	-46.6	16.3	0.00e+00	0	43	0	0	59	4915
2026-01-13 23:35:04.35	187.01	16.18	-44.3	-46.7	16.3	0.00e+00	0	43	0	0	59	4940
2026-01-13 23:35:05.49	187.05	16.05	-44.3	-46.7	16.2	0.00e+00	0	43	0	0	59	4981
2026-01-13 23:35:06.34	187.08	15.96	-44.3	-46.7	16.2	0.00e+00	0	43	0	0	59	4963
2026-01-13 23:35:07.48	187.12	15.83	-44.2	-46.5	16.4	0.00e+00	0	43	0	0	59	4867
2026-01-13 23:35:08.33	187.15	15.74	-44.2	-46.5	16.4	0.00e+00	0	43	0	0	59	4840
2026-01-13 23:35:09.47	187.19	15.62	-44.3	-46.6	16.3	0.00e+00	0	43	0	0	59	4912
2026-01-13 23:35:10.32	187.22	15.52	-44.2	-46.6	16.4	0.00e+00	0	43	0	0	59	4875
2026-01-13 23:35:11.46	187.26	15.40	-44.1	-46.5	16.4	0.00e+00	0	43	0	0	59	4845
2026-01-13 23:35:12.31	187.29	15.31	-44.2	-46.6	16.4	0.00e+00	0	43	0	0	59	4877
2026-01-13 23:35:13.45	187.33	15.19	-44.2	-46.5	16.4	0.00e+00	0	43	0	0	59	4868
2026-01-13 23:35:14.30	187.36	15.10	-44.2	-46.5	16.4	0.00e+00	0	43	0	0	59	4863
2026-01-13 23:35:15.44	187.39	14.97	-44.2	-46.6	16.4	0.00e+00	0	43	0	0	59	4874
2026-01-13 23:35:16.30	187.42	14.88	-44.3	-46.7	16.2	0.00e+00	0	43	0	0	59	4932
2026-01-13 23:35:17.43	187.46	14.77	-44.2	-46.6	16.3	0.00e+00	0	43	0	0	59	4898
2026-01-13 23:35:18.29	187.49	14.67	-44.3	-46.6	16.3	0.00e+00	0	43	0	0	59	4908
2026-01-13 23:35:19.45	187.53	14.55	-44.3	-46.7	16.2	0.00e+00	0	43	0	0	59	4940
2026-01-13 23:35:20.30	187.55	14.47	-44.2	-46.6	16.3	0.00e+00	0	43	0	0	59	4895
2026-01-13 23:35:21.44	187.59	14.35	-44.3	-46.7	16.2	0.00e+00	0	43	0	0	59	4927
2026-01-13 23:35:22.29	187.62	14.26	-44.3	-46.6	16.3	0.00e+00	0	43	0	0	59	4903
2026-01-13 23:35:23.43	187.65	14.14	-44.3	-46.7	16.2	0.00e+00	0	43	0	0	59	4947
2026-01-13 23:35:24.28	187.68	14.06	-44.3	-46.6	16.3	0.00e+00	0	43	0	0	59	4911
2026-01-13 23:35:25.42	187.72	13.94	-44.3	-46.6	16.2	0.00e+00	0	43	0	0	59	4917
2026-01-13 23:35:26.27	187.74	13.85	-44.3	-46.6	16.2	0.00e+00	0	43	0	0	59	4914
2026-01-13 23:35:27.41	187.78	13.74	-44.3	-46.6	16.2	0.00e+00	0	43	0	0	59	4912
2026-01-13 23:35:28.26	187.80	13.65	-44.2	-46.6	16.3	0.00e+00	0	43	0	0	59	4910
2026-01-13 23:35:29.39	187.84	13.54	-44.3	-46.6	16.2	0.00e+00	0	43	0	0	59	4925
2026-01-13 23:35:30.25	187.86	13.45	-44.3	-46.7	16.2	0.00e+00	0	43	0	0	59	4942
2026-01-13 23:35:31.39	187.90	13.34	-44.2	-46.7	16.1	0.00e+00	0	43	0	0	59	4929
2026-01-13 23:35:32.24	187.92	13.26	-44.3	-46.7	16.2	0.00e+00	0	43	0	0	59	4945
2026-01-13 23:35:33.37	187.96	13.15	-44.3	-46.7	16.1	0.00e+00	0	43	0	0	59	4954
2026-01-13 23:35:34.23	187.98	13.06	-44.3	-46.8	16.1	0.00e+00	0	43	0	0	59	4988
2026-01-13 23:35:35.36	188.02	12.95	-44.3	-46.7	16.2	0.00e+00	0	43	0	0	59	4933
2026-01-13 23:35:36.21	188.04	12.87	-44.3	-46.7	16.1	0.00e+00	0	43	0	0	59	4970
2026-01-13 23:35:37.43	188.08	12.75	-44.2	-46.6	16.2	0.00e+00	0	43	0	0	59	4921
2026-01-13 23:35:38.29	188.10	12.67	-44.3	-46.7	16.1	0.00e+00	0	43	0	0	59	4946
2026-01-13 23:35:39.42	188.14	12.56	-44.3	-46.7	16.1	0.00e+00	0	43	0	0	59	4949
2026-01-13 23:35:40.28	188.16	12.48	-44.3	-46.7	16.1	0.00e+00	0	43	0	0	59	4976
2026-01-13 23:35:41.53	188.20	12.36	-44.4	-46.8	16.0	0.00e+00	0	43	0	0	59	5007
2026-01-13 23:35:42.38	188.22	12.28	-44.3	-46.8	16.0	0.00e+00	0	43	0	0	59	5001
2026-01-13 23:35:43.58	188.25	12.16	-44.4	-46.8	16.0	0.00e+00	0	43	0	0	59	5028
2026-01-13 23:35:44.43	188.28	12.08	-44.4	-46.8	16.0	0.00e+00	0	43	0	0	59	5010
2026-01-13 23:35:45.57	188.31	11.98	-44.4	-46.9	15.9	0.00e+00	0	43	0	0	59	5056
2026-01-13 23:35:46.42	188.33	11.90	-44.3	-46.8	16.0	0.00e+00	0	43	0	0	59	5012
2026-01-13 23:35:47.70	188.37	11.78	-44.4	-46.8	16.0	0.00e+00	0	43	0	0	59	5024
2026-01-13 23:35:48.43	188.39	11.71	-44.4	-46.9	15.9	0.00e+00	0	43	0	0	59	5079
2026-01-13 23:35:49.71	188.42	11.59	-44.5	-47.0	15.9	0.00e+00	0	43	0	0	59	5110
2026-01-13 23:35:50.42	188.44	11.52	-44.4	-46.8	15.9	0.00e+00	0	43	0	0	59	5035
2026-01-13 23:35:51.70	188.48	11.41	-44.4	-46.9	15.9	0.00e+00	0	43	0	0	59	5057
2026-01-13 23:35:52.41	188.49	11.34	-44.5	-47.0	15.8	0.00e+00	0	43	0	0	59	5109
2026-01-13 23:35:53.69	188.53	11.23	-44.5	-47.0	15.8	0.00e+00	0	43	0	0	59	5103
2026-01-13 23:35:54.40	188.55	11.16	-44.5	-46.9	15.8	0.00e+00	0	43	0	0	59	5095
2026-01-13 23:35:55.68	188.58	11.04	-44.4	-46.9	15.9	0.00e+00	0	43	0	0	59	5051
2026-01-13 23:35:56.58	188.60	10.96	-44.5	-47.0	15.8	0.00e+00	0	43	0	0	59	5143
2026-01-13 23:35:57.57	188.63	10.87	-44.6	-47.1	15.7	0.00e+00	0	43	0	0	59	5161
2026-01-13 23:35:58.57	188.66	10.79	-44.5	-47.0	15.8	7.00e-07	0	43	0	0	59	5125
2026-01-13 23:35:59.56	188.68	10.70	-44.6	-47.0	15.7	0.00e+00	0	43	0	0	59	5154
2026-01-13 23:36:00.56	188.71	10.61	-44.6	-47.1	15.7	0.00e+00	0	43	0	0	59	5186
2026-01-13 23:36:01.55	188.73	10.52	-44.5	-47.0	15.7	0.00e+00	0	43	0	0	59	5142
2026-01-13 23:36:02.55	188.76	10.43	-44.6	-47.1	15.6	0.00e+00	0	43	0	0	59	5207
2026-01-13 23:36:03.54	188.78	10.35	-44.6	-47.2	15.6	0.00e+00	0	43	0	0	60	4961
2026-01-13 23:36:04.53	188.81	10.26	-44.6	-47.2	15.6	0.00e+00	0	43	0	0	60	4957
2026-01-13 23:36:05.53	188.83	10.17	-44.6	-47.2	15.6	0.00e+00	0	43	0	0	60	4957
2026-01-13 23:36:06.53	188.86	10.08	-44.7	-47.3	15.5	0.00e+00	0	43	0	0	60	4991
2026-01-13 23:36:07.52	188.88	10.00	-44.7	-47.3	15.5	0.00e+00	0	43	0	0	60	4990
2026-01-13 23:36:08.52	188.91	9.91	-44.6	-47.2	15.6	0.00e+00	0	43	0	0	60	4972
2026-01-13 23:36:09.51	188.93	9.83	-44.6	-47.2	15.6	0.00e+00	0	43	0	0	60	4957
2026-01-13 23:36:10.51	188.95	9.74	-44.7	-47.3	15.5	0.00e+00	0	43	0	0	60	4987
2026-01-13 23:36:11.50	188.98	9.66	-44.7	-47.3	15.5	0.00e+00	0	43	0	0	60	5030
2026-01-13 23:36:12.50	189.00	9.57	-44.7	-47.3	15.4	0.00e+00	0	43	0	0	60	5033
2026-01-13 23:36:13.49	189.03	9.49	-44.7	-47.3	15.5	0.00e+00	0	43	0	0	60	5018
2026-01-13 23:36:14.49	189.05	9.40	-44.7	-47.3	15.4	0.00e+00	0	43	0	0	60	5040
2026-01-13 23:36:15.48	189.07	9.32	-44.7	-47.3	15.5	0.00e+00	0	43	0	0	60	5025
2026-01-13 23:36:16.48	189.10	9.23	-44.8	-47.4	15.3	0.00e+00	0	43	0	0	60	5099
2026-01-13 23:36:17.47	189.12	9.15	-44.7	-47.4	15.4	0.00e+00	0	43	0	0	60	5057
2026-01-13 23:36:18.47	189.14	9.07	-44.7	-47.3	15.4	0.00e+00	0	43	0	0	60	5025
2026-01-13 23:36:19.46	189.17	8.99	-44.8	-47.5	15.3	0.00e+00	0	43	0	0	60	5112
2026-01-13 23:36:20.46	189.19	8.90	-50.3	-62.1	3.9	1.35e+00	0	43	104	0	71	14607
2026-01-13 23:36:21.45	189.21	8.82	-50.9	-64.3	3.8	1.49e+00	0	43	104	0	72	17791
2026-01-13 23:36:22.45	189.23	8.74	-51.0	-64.4	3.8	1.49e+00	0	43	104	0	72	18095
2026-01-13 23:36:23.44	189.26	8.66	-51.0	-64.5	3.8	1.49e+00	0	43	104	0	72	18274
2026-01-13 23:36:24.43	189.28	8.58	-51.4	-64.6	3.8	1.49e+00	0	43	104	0	73	17369
2026-01-13 23:36:25.46	189.30	8.49	-51.6	-64.6	3.8	1.49e+00	0	43	104	0	73	17406
2026-01-13 23:36:26.47	189.32	8.41	-51.6	-64.7	3.8	1.49e+00	0	43	104	0	73	17519
2026-01-13 23:36:27.48	189.35	8.33	-51.6	-64.7	3.8	1.49e+00	0	43	104	0	73	17549
2026-01-13 23:36:28.48	189.37	8.25	-51.8	-64.7	3.8	1.49e+00	0	43	104	0	74	16623
2026-01-13 23:36:29.49	189.39	8.16	-51.7	-64.7	3.8	1.49e+00	0	43	104	0	74	16662
2026-01-13 23:36:30.50	189.41	8.08	-51.7	-64.7	3.8	1.49e+00	0	43	104	0	74	16621
2026-01-13 23:36:31.49	189.44	8.00	-51.8	-64.8	3.8	1.49e+00	0	43	104	0	74	16732
2026-01-13 23:36:32.54	189.46	7.92	-51.7	-64.7	3.8	1.49e+00	0	43	104	0	74	16646
2026-01-13 23:36:33.51	189.48	7.84	-51.5	-64.8	3.8	1.49e+00	0	43	104	0	74	16732
2026-01-13 23:36:34.55	189.50	7.76	-51.8	-64.7	3.8	1.49e+00	0	43	104	0	74	16676
2026-01-13 23:36:35.56	189.52	7.68	-51.7	-64.7	3.8	1.49e+00	0	43	104	0	74	16644
2026-01-13 23:36:36.57	189.55	7.60	-51.8	-64.8	3.8	1.49e+00	0	43	104	0	74	16698
2026-01-13 23:36:37.58	189.57	7.52	-51.8	-64.7	3.8	1.49e+00	0	43	104	0	74	16647
2026-01-13 23:36:38.57	189.59	7.44	-51.8	-64.7	3.8	1.49e+00	0	43	104	0	74	16654
2026-01-13 23:36:39.57	189.61	7.37	-51.8	-64.7	3.8	1.49e+00	0	43	104	0	74	16655
2026-01-13 23:36:40.56	189.63	7.29	-51.8	-64.7	3.8	1.49e+00	0	43	104	0	74	16676
2026-01-13 23:36:41.55	189.65	7.21	-51.8	-64.7	3.8	1.49e+00	0	43	104	0	74	16669
2026-01-13 23:36:42.55	189.67	7.13	-51.8	-64.7	3.8	1.49e+00	0	43	104	0	74	16674
2026-01-13 23:36:43.54	189.69	7.06	-51.7	-64.8	3.8	1.49e+00	0	43	104	0	74	16702
2026-01-13 23:36:44.54	189.71	6.98	-51.5	-64.7	3.8	1.49e+00	0	43	104	0	74	16670
2026-01-13 23:36:45.53	189.73	6.90	-51.4	-64.7	3.8	1.49e+00	0	43	104	0	74	16629
2026-01-13 23:36:46.52	189.75	6.83	-51.5	-64.7	3.8	1.49e+00	0	43	104	0	74	16542
2026-01-13 23:36:47.52	189.77	6.75	-51.5	-64.7	3.8	1.49e+00	0	43	104	0	74	16543
2026-01-13 23:36:48.51	189.79	6.68	-51.5	-64.7	3.8	1.49e+00	0	43	104	0	74	16539
2026-01-13 23:36:49.50	189.81	6.60	-51.5	-64.7	3.8	1.49e+00	0	43	104	0	74	16516
2026-01-13 23:36:50.50	189.83	6.53	-51.5	-64.7	3.8	1.49e+00	0	43	104	0	74	16583
2026-01-13 23:36:51.49	189.85	6.45	-51.5	-64.6	3.8	1.49e+00	0	43	104	0	74	16492
2026-01-13 23:36:52.48	189.87	6.38	-51.5	-64.7	3.8	1.49e+00	0	43	104	0	74	16504
2026-01-13 23:36:53.48	189.89	6.30	-51.5	-64.6	3.8	1.49e+00	0	43	104	0	74	16501
2026-01-13 23:36:54.47	189.91	6.23	-51.5	-64.7	3.8	1.49e+00	0	43	104	0	74	16550
2026-01-13 23:36:55.47	189.93	6.15	-51.5	-64.7	3.8	1.49e+00	0	43	104	0	74	16588
2026-01-13 23:36:56.46	189.95	6.08	-51.5	-64.7	3.8	1.49e+00	0	43	104	0	74	16533
2026-01-13 23:36:57.45	189.97	6.01	-51.5	-64.7	3.8	1.49e+00	0	43	104	0	74	16512
