passes_logs/2026/01/13/T1/T1__20260113_110311_FENGYUN_3D_rec.log

#Pass ID: 20260113_110311_FENGYUN 3D
#Satellite: FENGYUN 3D
#Configuration: FENGYUN 3D
#almurnet v.1.7.20251203
#Start time: 2026-01-13 11:03:10

#Version: 2.0.20230620
#Station: T1
#Location: 37.570604 lon 55.790049 lat
#TLE: 1 43010U 17072A   26012.32543542  .00000598  00000+0  30457-3 0  9997
#TLE: 2 43010  98.9935 344.1005 0002233 112.6136 247.5276 14.19696644422876

#Time	Az	El	Level	Level2	SNR	BER	BlckErr	Temp	State	Recorded	gain1	gain2
2026-01-13 11:03:10.90	131.44	5.01	-51.8	-63.9	3.8	8.47e-01	0	40	0	0	75	14326
2026-01-13 11:03:11.89	131.40	5.08	-51.8	-64.0	3.8	8.47e-01	0	41	104	0	75	14500
2026-01-13 11:03:12.88	131.35	5.14	-51.8	-64.1	3.8	8.48e-01	0	41	104	0	75	14541
2026-01-13 11:03:13.87	131.30	5.21	-51.8	-64.1	3.8	8.47e-01	0	41	104	0	75	14601
2026-01-13 11:03:14.87	131.26	5.28	-51.8	-64.1	3.8	8.45e-01	0	41	104	0	75	14588
2026-01-13 11:03:15.86	131.21	5.35	-51.8	-64.1	3.8	8.48e-01	0	41	104	0	75	14606
2026-01-13 11:03:16.85	131.16	5.42	-51.8	-64.0	3.8	8.48e-01	0	41	104	0	75	14513
2026-01-13 11:03:17.85	131.11	5.49	-51.8	-64.0	3.8	8.46e-01	0	41	104	0	75	14435
2026-01-13 11:03:18.84	131.07	5.56	-51.8	-63.9	3.8	8.47e-01	0	41	104	0	75	14278
2026-01-13 11:03:19.83	131.02	5.63	-51.8	-63.7	3.8	8.47e-01	0	41	104	0	75	14011
2026-01-13 11:03:20.83	130.97	5.70	-51.7	-63.5	3.8	8.46e-01	0	41	104	0	75	13661
2026-01-13 11:03:21.82	130.92	5.76	-51.7	-63.2	3.8	8.47e-01	0	41	104	0	75	13176
2026-01-13 11:03:22.81	130.87	5.83	-51.7	-62.9	3.8	8.47e-01	0	41	104	0	75	12720
2026-01-13 11:03:23.81	130.82	5.90	-51.6	-62.6	3.8	8.47e-01	0	41	104	0	75	12310
2026-01-13 11:03:24.80	130.77	5.97	-51.6	-62.2	3.8	8.47e-01	0	41	104	0	75	11797
2026-01-13 11:03:25.79	130.73	6.04	-51.5	-61.9	3.9	8.46e-01	0	41	104	0	75	11289
2026-01-13 11:03:26.79	130.67	6.12	-51.5	-61.5	4.0	8.46e-01	0	41	104	0	75	10900
2026-01-13 11:03:27.78	130.63	6.19	-51.5	-61.3	3.9	8.44e-01	0	41	104	0	74	11233
2026-01-13 11:03:28.77	130.57	6.26	-51.4	-61.3	3.9	8.44e-01	0	41	104	0	74	11275
2026-01-13 11:03:29.76	130.52	6.33	-51.5	-61.2	3.9	8.43e-01	0	41	104	0	74	11149
2026-01-13 11:03:30.76	130.47	6.40	-51.5	-61.2	4.0	8.45e-01	0	41	104	0	74	11125
2026-01-13 11:03:31.75	130.42	6.47	-51.4	-61.5	3.9	8.44e-01	0	41	104	0	74	11504
2026-01-13 11:03:32.75	130.37	6.54	-51.6	-61.8	4.0	8.45e-01	0	41	104	0	74	11892
2026-01-13 11:03:33.74	130.32	6.61	-51.5	-62.3	3.8	8.46e-01	0	41	104	0	74	12579
2026-01-13 11:03:34.73	130.27	6.68	-51.6	-62.8	3.8	8.47e-01	0	42	104	0	74	13326
2026-01-13 11:03:35.73	130.21	6.76	-51.7	-63.2	3.8	8.46e-01	0	41	104	0	74	13962
2026-01-13 11:03:36.72	130.16	6.83	-51.8	-63.6	3.8	8.48e-01	0	42	104	0	74	14558
2026-01-13 11:03:37.71	130.11	6.90	-51.7	-63.8	3.8	8.47e-01	0	42	104	0	74	14919
2026-01-13 11:03:38.71	130.06	6.97	-51.8	-63.9	3.8	8.48e-01	0	42	104	0	74	15137
2026-01-13 11:03:39.70	130.00	7.05	-51.8	-64.0	3.8	8.48e-01	0	42	104	0	74	15357
2026-01-13 11:03:40.69	129.95	7.12	-51.8	-64.0	3.8	8.48e-01	0	42	104	0	74	15311
2026-01-13 11:03:41.69	129.90	7.19	-51.8	-63.9	3.8	8.47e-01	0	41	104	0	74	15082
2026-01-13 11:03:42.68	129.84	7.27	-51.7	-63.4	3.8	8.47e-01	0	42	104	0	74	14297
2026-01-13 11:03:43.67	129.79	7.34	-51.6	-62.2	3.8	8.47e-01	0	42	104	0	74	12441
2026-01-13 11:03:44.66	129.73	7.41	-51.3	-60.0	4.3	8.41e-01	0	42	104	0	74	9689
2026-01-13 11:03:45.66	129.68	7.49	-50.7	-57.8	5.4	7.81e-01	0	42	0	0	73	7947
2026-01-13 11:03:46.65	129.62	7.56	-50.0	-55.6	7.1	2.08e-01	0	42	0	4194304	72	6505
2026-01-13 11:03:47.65	129.57	7.64	-49.3	-53.8	8.9	5.26e-02	0	42	0	9437184	70	5968
2026-01-13 11:03:48.64	129.51	7.71	-48.4	-52.3	10.4	1.20e-02	0	42	0	14680064	68	5630
2026-01-13 11:03:49.63	129.45	7.78	-47.4	-50.7	11.9	8.93e-04	0	42	0	20971520	66	5261
2026-01-13 11:03:50.63	129.40	7.86	-46.6	-49.6	13.0	1.43e-04	0	42	0	26214400	65	4904
2026-01-13 11:03:51.62	129.34	7.93	-45.9	-48.7	14.0	1.25e-05	0	42	0	31457280	63	4941
2026-01-13 11:03:52.61	129.28	8.01	-45.5	-48.1	14.6	0.00e+00	0	42	0	37748736	63	4637
2026-01-13 11:03:53.61	129.23	8.08	-45.2	-47.7	15.0	0.00e+00	0	42	0	42991616	62	4681
2026-01-13 11:03:54.60	129.17	8.16	-44.9	-47.4	15.3	0.00e+00	0	42	0	49283072	61	4778
2026-01-13 11:03:55.60	129.11	8.24	-44.9	-47.3	15.3	0.00e+00	0	42	0	54525952	61	4753
2026-01-13 11:03:56.59	129.05	8.31	-45.2	-47.8	14.9	0.00e+00	0	42	0	59768832	61	4985
2026-01-13 11:03:57.58	128.99	8.39	-45.6	-48.2	14.4	0.00e+00	0	42	0	65011712	61	5279
2026-01-13 11:03:58.57	128.94	8.46	-46.2	-49.0	13.7	8.00e-06	0	42	0	71303168	62	5460
2026-01-13 11:03:59.57	128.88	8.54	-46.9	-50.1	12.5	8.01e-05	0	42	0	76546048	64	5501
2026-01-13 11:04:00.56	128.82	8.62	-47.9	-51.6	11.1	1.04e-03	0	42	0	81788928	66	5789
2026-01-13 11:04:01.55	128.76	8.69	-49.1	-53.5	9.3	1.48e-02	0	42	0	88080384	68	6428
2026-01-13 11:04:02.55	128.70	8.77	-50.1	-55.8	6.9	1.09e-01	0	42	0	93323264	70	7542
2026-01-13 11:04:03.54	128.64	8.85	-50.9	-58.4	5.0	4.91e-01	0	42	0	97517568	72	8988
2026-01-13 11:04:04.53	128.57	8.93	-51.5	-61.5	3.9	8.39e-01	0	42	104	97517568	73	12174
2026-01-13 11:04:05.53	128.51	9.01	-51.7	-63.5	3.8	8.46e-01	0	42	104	97517568	74	14404
2026-01-13 11:04:06.52	128.45	9.08	-51.3	-59.8	4.0	8.47e-01	0	42	104	97517568	74	9489
2026-01-13 11:04:07.52	128.39	9.16	-50.7	-57.5	5.8	1.20e-01	0	43	0	100663296	71	8572
2026-01-13 11:04:08.51	128.33	9.24	-51.8	-63.8	3.8	8.46e-01	0	42	104	101711872	74	15022
2026-01-13 11:04:09.51	128.26	9.32	-51.7	-62.8	3.8	8.46e-01	0	43	104	101711872	74	13409
2026-01-13 11:04:10.50	128.20	9.40	-51.6	-61.9	3.8	8.25e-01	0	43	104	101711872	74	12039
2026-01-13 11:04:11.50	128.14	9.48	-51.4	-61.8	3.8	8.47e-01	0	43	104	101711872	74	11889
2026-01-13 11:04:12.49	128.07	9.56	-51.5	-61.4	4.0	8.44e-01	0	43	104	101711872	74	11403
2026-01-13 11:04:13.49	128.01	9.64	-51.5	-61.6	4.0	8.45e-01	0	43	104	101711872	74	11556
2026-01-13 11:04:14.48	127.95	9.72	-51.5	-61.5	4.0	8.44e-01	0	42	104	101711872	74	11435
2026-01-13 11:04:15.48	127.88	9.80	-51.5	-61.4	3.8	8.43e-01	0	43	104	101711872	74	11374
2026-01-13 11:04:16.47	127.81	9.88	-51.4	-61.3	3.9	8.44e-01	0	43	104	101711872	74	11168
2026-01-13 11:04:17.50	127.75	9.96	-51.8	-64.0	3.8	8.46e-01	0	43	104	101711872	74	15307
2026-01-13 11:04:18.53	127.68	10.04	-50.0	-55.3	7.4	7.93e-01	0	43	0	101711872	72	6289
2026-01-13 11:04:19.52	127.61	10.12	-51.3	-59.5	4.8	3.43e-03	0	43	0	106954752	73	9678
2026-01-13 11:04:20.52	127.55	10.21	-51.6	-61.3	3.8	8.48e-01	0	42	104	106954752	74	11268
2026-01-13 11:04:21.51	127.48	10.29	-47.4	-50.6	12.2	1.07e-03	0	43	0	110100480	66	5185
2026-01-13 11:04:22.50	127.41	10.37	-46.0	-48.7	14.2	1.14e-05	0	43	0	116391936	63	4964
2026-01-13 11:04:23.50	127.34	10.45	-44.9	-47.3	15.6	0.00e+00	0	43	0	121634816	61	4751
2026-01-13 11:04:24.49	127.27	10.53	-44.4	-46.8	16.1	0.00e+00	0	43	0	126877696	60	4717
2026-01-13 11:04:25.49	127.21	10.62	-44.4	-46.7	16.2	0.00e+00	0	43	0	132120576	60	4682
2026-01-13 11:04:26.48	127.14	10.70	-44.3	-46.7	16.2	0.00e+00	0	43	0	138412032	60	4652
2026-01-13 11:04:27.48	127.07	10.78	-44.1	-46.4	16.4	0.00e+00	0	43	0	143654912	60	4533
2026-01-13 11:04:28.48	127.00	10.86	-44.0	-46.3	16.6	0.00e+00	0	43	0	148897792	60	4471
2026-01-13 11:04:29.47	126.93	10.95	-44.0	-46.3	16.5	0.00e+00	0	43	0	155189248	60	4480
2026-01-13 11:04:30.46	126.86	11.03	-44.0	-46.2	16.6	0.00e+00	0	43	0	160432128	59	4684
2026-01-13 11:04:31.46	126.78	11.12	-44.0	-46.3	16.6	0.00e+00	0	43	0	166723584	59	4709
2026-01-13 11:04:32.45	126.71	11.20	-43.8	-46.0	16.8	0.00e+00	0	43	0	171966464	59	4590
2026-01-13 11:04:33.45	126.64	11.28	-43.9	-46.1	16.7	0.00e+00	0	43	0	177209344	59	4611
2026-01-13 11:04:34.46	126.57	11.37	-43.8	-46.0	16.8	0.00e+00	0	43	0	183500800	59	4589
2026-01-13 11:04:35.48	126.49	11.46	-43.8	-46.0	16.8	0.00e+00	0	43	0	188743680	59	4585
2026-01-13 11:04:36.48	126.42	11.54	-43.8	-46.0	16.8	0.00e+00	0	43	0	193986560	59	4577
2026-01-13 11:04:37.47	126.34	11.63	-43.9	-46.1	16.8	0.00e+00	0	43	0	200278016	59	4603
2026-01-13 11:04:38.55	126.26	11.72	-43.8	-46.0	16.8	0.00e+00	0	43	0	206569472	59	4546
2026-01-13 11:04:39.40	126.20	11.79	-43.7	-45.9	16.9	0.00e+00	0	43	0	210763776	59	4515
2026-01-13 11:04:40.54	126.11	11.89	-43.8	-46.0	16.8	0.00e+00	0	43	0	217055232	59	4573
2026-01-13 11:04:41.39	126.05	11.97	-43.8	-46.0	16.8	0.00e+00	0	43	0	222298112	59	4576
2026-01-13 11:04:42.53	125.96	12.07	-43.8	-46.0	16.8	0.00e+00	0	43	0	228589568	59	4570
2026-01-13 11:04:43.38	125.90	12.14	-43.8	-46.0	16.8	0.00e+00	0	43	0	232783872	59	4569
2026-01-13 11:04:44.52	125.81	12.24	-43.8	-46.0	16.8	0.00e+00	0	43	0	240123904	59	4574
2026-01-13 11:04:45.37	125.74	12.31	-43.8	-46.0	16.8	0.00e+00	0	43	0	244318208	59	4583
2026-01-13 11:04:46.51	125.65	12.41	-43.8	-46.0	16.8	0.00e+00	0	43	0	250609664	59	4579
2026-01-13 11:04:47.37	125.58	12.49	-43.9	-46.1	16.8	0.00e+00	0	43	0	255852544	59	4617
2026-01-13 11:04:48.50	125.49	12.59	-43.8	-46.0	16.8	0.00e+00	0	43	0	262144000	59	4582
2026-01-13 11:04:49.35	125.43	12.67	-43.7	-45.9	16.9	0.00e+00	0	43	0	267386880	59	4516
2026-01-13 11:04:50.49	125.34	12.77	-43.8	-46.0	16.8	0.00e+00	0	43	0	272629760	59	4578
2026-01-13 11:04:51.34	125.27	12.84	-43.8	-45.9	16.9	0.00e+00	0	43	0	277872640	59	4537
2026-01-13 11:04:52.48	125.17	12.95	-43.6	-45.8	17.0	0.00e+00	0	43	0	284164096	59	4474
2026-01-13 11:04:53.33	125.10	13.02	-43.7	-45.9	16.9	0.00e+00	0	43	0	289406976	59	4523
2026-01-13 11:04:54.47	125.01	13.13	-43.6	-45.7	17.1	0.00e+00	0	43	0	295698432	59	4429
2026-01-13 11:04:55.32	124.94	13.20	-43.6	-45.7	17.1	0.00e+00	0	43	0	300941312	59	4435
2026-01-13 11:04:56.46	124.84	13.31	-43.6	-45.8	17.1	0.00e+00	0	43	0	307232768	59	4457
2026-01-13 11:04:57.31	124.77	13.38	-43.7	-45.9	17.0	0.00e+00	0	43	0	311427072	59	4497
2026-01-13 11:04:58.45	124.68	13.49	-43.6	-45.7	17.2	0.00e+00	0	43	0	317718528	59	4428
2026-01-13 11:04:59.30	124.60	13.57	-43.5	-45.6	17.2	0.00e+00	0	43	0	322961408	59	4389
2026-01-13 11:05:00.44	124.51	13.67	-43.5	-45.6	17.3	0.00e+00	0	43	0	329252864	58	4622
2026-01-13 11:05:01.29	124.43	13.75	-43.5	-45.6	17.3	0.00e+00	0	43	0	333447168	58	4621
2026-01-13 11:05:02.43	124.34	13.85	-43.4	-45.5	17.3	0.00e+00	0	43	0	340787200	58	4597
2026-01-13 11:05:03.28	124.26	13.93	-43.4	-45.5	17.3	0.00e+00	0	43	0	344981504	58	4588
2026-01-13 11:05:04.42	124.16	14.04	-43.4	-45.6	17.3	0.00e+00	0	43	0	351272960	58	4618
2026-01-13 11:05:05.27	124.09	14.12	-43.5	-45.6	17.3	0.00e+00	0	43	0	356515840	58	4625
2026-01-13 11:05:06.50	123.98	14.23	-43.5	-45.7	17.2	0.00e+00	0	43	0	363855872	58	4666
2026-01-13 11:05:07.36	123.90	14.31	-43.4	-45.5	17.4	0.00e+00	0	43	0	368050176	58	4574
2026-01-13 11:05:08.49	123.80	14.42	-43.3	-45.4	17.4	0.00e+00	0	43	0	374341632	58	4535
2026-01-13 11:05:09.35	123.72	14.50	-43.2	-45.4	17.5	0.00e+00	0	43	0	379584512	58	4496
2026-01-13 11:05:10.48	123.62	14.61	-43.2	-45.3	17.6	0.00e+00	0	43	0	385875968	58	4481
2026-01-13 11:05:11.34	123.54	14.69	-43.3	-45.4	17.5	0.00e+00	0	43	0	390070272	58	4523
2026-01-13 11:05:12.47	123.43	14.80	-43.2	-45.3	17.6	0.00e+00	0	43	0	397410304	58	4476
2026-01-13 11:05:13.32	123.35	14.88	-43.1	-45.2	17.7	0.00e+00	0	43	0	401604608	58	4401
2026-01-13 11:05:14.68	123.23	15.01	-43.0	-45.1	17.8	0.00e+00	0	43	0	408944640	58	4371
2026-01-13 11:05:15.39	123.16	15.08	-43.0	-45.1	17.8	0.00e+00	0	43	0	413138944	58	4368
2026-01-13 11:05:16.67	123.04	15.20	-43.0	-45.1	17.8	0.00e+00	0	43	0	420478976	58	4360
2026-01-13 11:05:17.40	122.97	15.27	-43.0	-45.1	17.8	0.00e+00	0	43	0	424673280	57	4617
2026-01-13 11:05:18.67	122.84	15.40	-42.9	-45.0	17.9	0.00e+00	0	43	0	432013312	57	4552
2026-01-13 11:05:19.41	122.77	15.47	-42.9	-44.9	17.9	0.00e+00	0	43	0	436207616	57	4532
2026-01-13 11:05:20.69	122.65	15.60	-42.9	-44.9	17.9	0.00e+00	0	43	0	443547648	57	4544
2026-01-13 11:05:21.40	122.58	15.67	-42.9	-44.9	17.9	0.00e+00	0	43	0	447741952	57	4537
2026-01-13 11:05:22.68	122.45	15.79	-42.9	-45.0	17.9	0.00e+00	0	43	0	454033408	57	4562
2026-01-13 11:05:23.47	122.37	15.87	-43.0	-45.1	17.8	0.00e+00	0	43	0	459276288	57	4616
2026-01-13 11:05:24.66	122.25	15.99	-43.1	-45.2	17.7	0.00e+00	0	43	0	465567744	57	4655
2026-01-13 11:05:25.69	122.15	16.09	-42.9	-44.9	17.9	0.00e+00	0	43	0	470810624	57	4519
2026-01-13 11:05:26.85	122.03	16.21	-42.8	-44.8	18.0	0.00e+00	0	43	0	478150656	57	4486
2026-01-13 11:05:27.71	121.94	16.29	-42.8	-44.9	18.0	0.00e+00	0	43	0	482344960	57	4501
2026-01-13 11:05:29.07	121.80	16.43	-42.7	-44.8	18.1	0.00e+00	0	43	0	490733568	57	4461
2026-01-13 11:05:29.77	121.73	16.50	-42.8	-44.8	18.1	0.00e+00	0	43	0	493879296	57	4465
2026-01-13 11:05:31.26	121.57	16.65	-42.8	-44.8	18.0	0.00e+00	0	43	0	502267904	57	4485
2026-01-13 11:05:31.97	121.50	16.72	-42.7	-44.7	18.1	0.00e+00	0	43	0	506462208	57	4441
2026-01-13 11:05:33.25	121.36	16.85	-42.6	-44.6	18.2	0.00e+00	0	43	0	513802240	57	4369
2026-01-13 11:05:33.97	121.29	16.93	-42.6	-44.6	18.2	0.00e+00	0	43	0	517996544	57	4372
2026-01-13 11:05:35.25	121.15	17.06	-42.5	-44.6	18.3	0.00e+00	0	43	0	525336576	57	4341
2026-01-13 11:05:35.98	121.07	17.13	-42.5	-44.5	18.4	0.00e+00	0	43	0	529530880	57	4311
2026-01-13 11:05:37.26	120.93	17.26	-42.5	-44.5	18.4	0.00e+00	0	43	0	536870912	56	4557
2026-01-13 11:05:38.00	120.85	17.34	-42.6	-44.6	18.3	0.00e+00	0	43	0	541065216	56	4606
2026-01-13 11:05:39.27	120.71	17.47	-42.4	-44.4	18.4	0.00e+00	0	43	0	547356672	56	4528
2026-01-13 11:05:39.98	120.63	17.55	-42.3	-44.3	18.6	0.00e+00	0	43	0	551550976	56	4464
2026-01-13 11:05:41.26	120.48	17.68	-42.3	-44.3	18.5	0.00e+00	0	43	0	558891008	56	4473
2026-01-13 11:05:42.00	120.40	17.76	-42.4	-44.4	18.5	0.00e+00	0	43	0	563085312	56	4521
2026-01-13 11:05:43.28	120.25	17.89	-42.2	-44.2	18.6	0.00e+00	0	43	0	570425344	56	4421
2026-01-13 11:05:44.07	120.16	17.98	-42.2	-44.2	18.6	0.00e+00	0	43	0	574619648	56	4425
2026-01-13 11:05:45.60	119.98	18.14	-42.3	-44.3	18.5	0.00e+00	0	43	0	583008256	56	4482
2026-01-13 11:05:46.31	119.90	18.21	-42.3	-44.3	18.5	0.00e+00	0	43	0	587202560	56	4490
2026-01-13 11:05:47.60	119.75	18.35	-42.3	-44.3	18.5	0.00e+00	0	43	0	594542592	56	4476
2026-01-13 11:05:48.31	119.67	18.43	-42.4	-44.4	18.5	0.00e+00	0	43	0	598736896	56	4528
2026-01-13 11:05:49.75	119.49	18.58	-42.4	-44.4	18.4	0.00e+00	0	43	0	607125504	56	4541
2026-01-13 11:05:50.71	119.38	18.69	-42.4	-44.4	18.4	0.00e+00	0	43	0	612368384	56	4542
2026-01-13 11:05:51.71	119.26	18.79	-42.3	-44.3	18.6	0.00e+00	0	43	0	617611264	56	4447
2026-01-13 11:05:52.70	119.14	18.90	-42.2	-44.2	18.7	0.00e+00	0	43	0	622854144	56	4418
2026-01-13 11:05:53.70	119.01	19.01	-42.1	-44.1	18.7	0.00e+00	0	43	0	629145600	56	4361
2026-01-13 11:05:54.70	118.89	19.12	-42.0	-44.0	18.8	0.00e+00	0	43	0	634388480	56	4305
2026-01-13 11:05:55.69	118.77	19.23	-42.1	-44.0	18.8	0.00e+00	0	43	0	639631360	56	4337
2026-01-13 11:05:56.68	118.64	19.34	-41.8	-43.7	19.0	0.00e+00	0	43	0	645922816	55	4416
2026-01-13 11:05:57.68	118.51	19.45	-41.8	-43.8	18.9	0.00e+00	0	43	0	651165696	55	4450
2026-01-13 11:05:58.76	118.38	19.56	-41.6	-43.5	19.1	0.00e+00	0	43	0	657457152	55	4330
2026-01-13 11:05:59.61	118.27	19.66	-41.6	-43.5	19.1	0.00e+00	0	43	0	661651456	55	4316
2026-01-13 11:06:00.74	118.12	19.78	-41.7	-43.6	19.1	0.00e+00	0	43	0	667942912	55	4364
2026-01-13 11:06:01.60	118.01	19.88	-41.6	-43.5	19.1	0.00e+00	0	43	0	673185792	55	4325
2026-01-13 11:06:03.07	117.81	20.04	-41.6	-43.6	19.1	0.00e+00	0	43	0	681574400	55	4354
2026-01-13 11:06:03.78	117.72	20.12	-41.7	-43.6	19.1	0.00e+00	0	43	0	685768704	55	4357
2026-01-13 11:06:05.26	117.52	20.29	-41.7	-43.6	19.0	0.00e+00	0	43	0	694157312	55	4376
2026-01-13 11:06:05.97	117.43	20.37	-41.7	-43.6	19.0	0.00e+00	0	43	0	698351616	55	4384
2026-01-13 11:06:07.25	117.25	20.52	-41.8	-43.7	18.9	0.00e+00	0	43	0	704643072	55	4428
2026-01-13 11:06:07.96	117.16	20.60	-41.8	-43.8	18.9	0.00e+00	0	43	0	708837376	55	4452
2026-01-13 11:06:09.24	116.98	20.74	-41.7	-43.7	19.0	0.00e+00	0	43	0	716177408	55	4402
2026-01-13 11:06:09.96	116.88	20.83	-41.7	-43.6	19.1	0.00e+00	0	43	0	720371712	55	4362
2026-01-13 11:06:11.24	116.70	20.97	-41.5	-43.5	19.2	0.00e+00	0	43	0	727711744	55	4308
2026-01-13 11:06:11.97	116.60	21.06	-41.3	-43.3	19.4	0.00e+00	0	43	0	731906048	54	4443
2026-01-13 11:06:13.25	116.42	21.20	-41.3	-43.2	19.5	0.00e+00	0	43	0	739246080	54	4396
2026-01-13 11:06:13.96	116.31	21.29	-41.2	-43.1	19.5	0.00e+00	0	43	0	742391808	54	4360
2026-01-13 11:06:15.23	116.13	21.43	-41.1	-43.0	19.6	0.00e+00	0	43	0	749731840	54	4334
2026-01-13 11:06:15.99	116.02	21.52	-41.2	-43.1	19.5	0.00e+00	0	43	0	753926144	54	4366
2026-01-13 11:06:17.27	115.83	21.67	-41.1	-43.0	19.6	0.00e+00	0	43	0	761266176	54	4328
2026-01-13 11:06:18.00	115.72	21.76	-41.0	-42.9	19.7	0.00e+00	0	43	0	765460480	54	4284
2026-01-13 11:06:19.28	115.53	21.91	-41.1	-42.9	19.7	0.00e+00	0	43	0	772800512	54	4281
2026-01-13 11:06:20.00	115.43	21.99	-41.1	-42.9	19.7	0.00e+00	0	43	0	776994816	54	4282
2026-01-13 11:06:21.28	115.23	22.14	-41.0	-42.8	19.7	0.00e+00	0	43	0	784334848	54	4238
2026-01-13 11:06:22.20	115.09	22.25	-41.0	-42.8	19.8	0.00e+00	0	43	0	789577728	54	4239
2026-01-13 11:06:23.19	114.94	22.37	-41.0	-42.9	19.7	0.00e+00	0	43	0	794820608	54	4269
2026-01-13 11:06:24.19	114.79	22.49	-41.0	-42.9	19.7	0.00e+00	0	43	0	800063488	54	4260
2026-01-13 11:06:25.18	114.63	22.61	-41.0	-42.9	19.8	0.00e+00	0	43	0	806354944	54	4243
2026-01-13 11:06:26.18	114.47	22.73	-40.9	-42.8	19.8	0.00e+00	0	43	0	811597824	53	4458
2026-01-13 11:06:27.18	114.32	22.85	-40.9	-42.8	19.8	0.00e+00	0	43	0	816840704	53	4469
2026-01-13 11:06:28.17	114.16	22.96	-41.0	-42.9	19.7	0.00e+00	0	43	0	823132160	53	4499
2026-01-13 11:06:29.17	114.00	23.09	-41.0	-42.9	19.7	0.00e+00	0	43	0	828375040	53	4498
2026-01-13 11:06:30.18	113.83	23.21	-40.9	-42.8	19.8	0.00e+00	0	43	0	833617920	53	4466
2026-01-13 11:06:31.18	113.67	23.33	-41.0	-42.9	19.7	0.00e+00	0	43	0	839909376	53	4505
2026-01-13 11:06:32.17	113.51	23.45	-41.0	-42.9	19.7	0.00e+00	0	43	0	845152256	53	4523
2026-01-13 11:06:33.17	113.34	23.57	-40.9	-42.8	19.8	0.00e+00	0	43	0	850395136	53	4470
2026-01-13 11:06:34.31	113.15	23.71	-40.9	-42.8	19.7	0.00e+00	0	43	0	857735168	53	4484
2026-01-13 11:06:35.16	113.01	23.81	-40.9	-42.8	19.7	0.00e+00	0	43	0	861929472	53	4476
2026-01-13 11:06:36.49	112.78	23.98	-41.1	-43.0	19.6	0.00e+00	0	43	0	869269504	53	4555
2026-01-13 11:06:37.19	112.66	24.06	-41.0	-42.9	19.6	0.00e+00	0	44	0	873463808	53	4522
2026-01-13 11:06:38.48	112.44	24.22	-41.1	-43.0	19.6	0.00e+00	0	43	0	880803840	53	4553
2026-01-13 11:06:39.22	112.31	24.32	-40.9	-42.8	19.7	0.00e+00	0	43	0	884998144	53	4492
2026-01-13 11:06:40.49	112.09	24.47	-40.9	-42.8	19.8	0.00e+00	0	43	0	892338176	53	4453
2026-01-13 11:06:41.20	111.96	24.56	-40.9	-42.8	19.8	0.00e+00	0	43	0	896532480	53	4465
2026-01-13 11:06:42.48	111.73	24.72	-41.0	-43.0	19.6	0.00e+00	0	43	0	902823936	53	4549
2026-01-13 11:06:43.21	111.60	24.81	-40.9	-42.8	19.8	0.00e+00	0	43	0	907018240	53	4443
2026-01-13 11:06:44.49	111.37	24.97	-40.9	-42.8	19.8	0.00e+00	0	43	0	914358272	53	4453
2026-01-13 11:06:45.20	111.24	25.06	-40.8	-42.7	19.9	0.00e+00	0	43	0	918552576	53	4411
2026-01-13 11:06:46.48	111.00	25.22	-40.8	-42.7	19.9	0.00e+00	0	43	0	925892608	53	4418
2026-01-13 11:06:47.19	110.87	25.31	-40.9	-42.8	19.8	0.00e+00	0	43	0	930086912	53	4457
2026-01-13 11:06:48.52	110.62	25.48	-40.7	-42.5	20.0	0.00e+00	0	43	0	937426944	53	4327
2026-01-13 11:06:49.23	110.49	25.57	-40.6	-42.5	20.0	0.00e+00	0	43	0	941621248	53	4307
2026-01-13 11:06:50.57	110.23	25.74	-40.6	-42.5	20.0	0.00e+00	0	43	0	948961280	53	4312
2026-01-13 11:06:51.28	110.10	25.83	-40.6	-42.5	20.1	0.00e+00	0	43	0	953155584	53	4293
2026-01-13 11:06:52.56	109.85	25.99	-40.5	-42.4	20.1	0.00e+00	0	43	0	959447040	53	4260
2026-01-13 11:06:53.27	109.71	26.08	-40.5	-42.4	20.1	0.00e+00	0	43	0	963641344	53	4253
2026-01-13 11:06:54.55	109.46	26.25	-40.5	-42.4	20.2	0.00e+00	0	43	0	970981376	53	4252
2026-01-13 11:06:55.27	109.31	26.34	-40.5	-42.3	20.2	0.00e+00	0	43	0	975175680	53	4241
2026-01-13 11:06:56.71	109.03	26.52	-40.7	-42.5	20.0	0.00e+00	0	43	0	983564288	53	4334
2026-01-13 11:06:57.42	108.88	26.62	-40.7	-42.6	20.0	0.00e+00	0	43	0	987758592	53	4356
2026-01-13 11:06:58.76	108.61	26.79	-40.6	-42.5	20.0	0.00e+00	0	43	0	995098624	53	4295
2026-01-13 11:06:59.47	108.46	26.88	-40.7	-42.5	20.0	0.00e+00	0	43	0	999292928	53	4325
2026-01-13 11:07:00.75	108.20	27.04	-40.5	-42.3	20.2	0.00e+00	0	43	0	1005584384	53	4228
2026-01-13 11:07:01.47	108.05	27.14	-40.5	-42.3	20.2	0.00e+00	0	43	0	1009778688	52	4474
2026-01-13 11:07:02.75	107.78	27.30	-40.5	-42.3	20.2	0.00e+00	0	43	0	1017118720	52	4478
2026-01-13 11:07:03.47	107.63	27.40	-40.5	-42.3	20.2	0.00e+00	0	43	0	1021313024	52	4476
2026-01-13 11:07:04.75	107.35	27.56	-40.5	-42.3	20.2	0.00e+00	0	43	0	1028653056	52	4483
2026-01-13 11:07:05.48	107.20	27.66	-40.5	-42.3	20.2	0.00e+00	0	44	0	1032847360	52	4478
2026-01-13 11:07:06.76	106.92	27.83	-40.4	-42.3	20.3	0.00e+00	0	43	0	1040187392	52	4454
2026-01-13 11:07:07.48	106.76	27.92	-40.4	-42.3	20.3	0.00e+00	0	43	0	1043333120	52	4459
2026-01-13 11:07:08.76	106.48	28.09	-40.6	-42.4	20.1	0.00e+00	0	43	0	1050673152	52	4543
2026-01-13 11:07:09.47	106.32	28.18	-40.6	-42.4	20.1	0.00e+00	0	43	0	1054867456	52	4541
2026-01-13 11:07:10.75	106.03	28.35	-40.7	-42.6	20.0	0.00e+00	0	43	0	1062207488	52	4616
2026-01-13 11:07:11.66	105.83	28.47	-40.6	-42.5	20.1	0.00e+00	0	43	0	1067450368	52	4572
2026-01-13 11:07:12.97	105.53	28.64	-40.4	-42.3	20.2	0.00e+00	0	43	0	1074790400	52	4455
2026-01-13 11:07:13.69	105.36	28.73	-40.4	-42.2	20.3	0.00e+00	0	43	0	1078984704	52	4440
2026-01-13 11:07:14.96	105.06	28.90	-40.3	-42.1	20.4	0.00e+00	0	43	0	1086324736	52	4366
2026-01-13 11:07:15.69	104.89	28.99	-40.2	-42.0	20.5	0.00e+00	0	43	0	1089470464	52	4316
2026-01-13 11:07:16.97	104.59	29.16	-40.2	-42.1	20.4	0.00e+00	0	43	0	1096810496	52	4342
2026-01-13 11:07:17.68	104.42	29.26	-40.2	-42.0	20.5	0.00e+00	0	44	0	1101004800	52	4334
2026-01-13 11:07:18.95	104.12	29.42	-40.2	-42.0	20.5	0.00e+00	0	43	0	1108344832	52	4297
2026-01-13 11:07:19.68	103.94	29.52	-40.2	-42.0	20.5	0.00e+00	0	43	0	1112539136	52	4334
2026-01-13 11:07:20.96	103.63	29.69	-40.3	-42.1	20.4	0.00e+00	0	43	0	1119879168	52	4361
2026-01-13 11:07:21.68	103.45	29.78	-40.3	-42.2	20.4	0.00e+00	0	43	0	1124073472	52	4399
2026-01-13 11:07:22.97	103.13	29.95	-40.3	-42.1	20.4	0.00e+00	0	43	0	1131413504	52	4370
2026-01-13 11:07:23.69	102.95	30.05	-40.3	-42.1	20.4	0.00e+00	0	43	0	1134559232	52	4372
2026-01-13 11:07:24.97	102.63	30.21	-40.3	-42.1	20.4	0.00e+00	0	43	0	1141899264	52	4378
2026-01-13 11:07:25.70	102.44	30.31	-40.2	-42.0	20.5	0.00e+00	0	43	0	1146093568	52	4320
2026-01-13 11:07:26.98	102.11	30.48	-40.1	-41.9	20.6	0.00e+00	0	43	0	1153433600	52	4262
2026-01-13 11:07:27.72	101.92	30.58	-40.1	-42.0	20.6	0.00e+00	0	43	0	1157627904	52	4294
2026-01-13 11:07:29.25	101.52	30.78	-40.1	-41.9	20.6	0.00e+00	0	43	0	1166016512	52	4267
2026-01-13 11:07:29.96	101.33	30.87	-40.2	-42.0	20.5	0.00e+00	0	43	0	1170210816	52	4314
2026-01-13 11:07:31.25	100.99	31.04	-40.2	-42.1	20.4	0.00e+00	0	43	0	1177550848	52	4346
2026-01-13 11:07:31.96	100.80	31.13	-40.2	-42.0	20.5	0.00e+00	0	43	0	1181745152	52	4329
2026-01-13 11:07:33.24	100.45	31.30	-40.2	-42.0	20.5	0.00e+00	0	43	0	1189085184	52	4330
2026-01-13 11:07:33.96	100.26	31.39	-40.2	-42.1	20.4	0.00e+00	0	43	0	1193279488	52	4342
2026-01-13 11:07:35.24	99.91	31.56	-40.1	-41.9	20.6	0.00e+00	0	43	0	1199570944	52	4261
2026-01-13 11:07:35.97	99.70	31.66	-40.1	-41.9	20.5	0.00e+00	0	43	0	1203765248	52	4272
2026-01-13 11:07:37.25	99.35	31.82	-40.2	-42.0	20.5	0.00e+00	0	43	0	1211105280	52	4304
2026-01-13 11:07:37.97	99.14	31.92	-40.1	-42.0	20.5	0.00e+00	0	43	0	1215299584	52	4297
2026-01-13 11:07:39.25	98.78	32.08	-40.2	-42.0	20.5	0.00e+00	0	43	0	1222639616	52	4307
2026-01-13 11:07:39.96	98.58	32.18	-40.1	-41.9	20.6	0.00e+00	0	43	0	1226833920	52	4267
2026-01-13 11:07:41.24	98.21	32.34	-40.1	-41.9	20.6	0.00e+00	0	43	0	1233125376	52	4291
2026-01-13 11:07:42.09	97.96	32.45	-40.0	-41.9	20.6	0.00e+00	0	43	0	1238368256	52	4249
2026-01-13 11:07:43.23	97.63	32.60	-40.0	-41.8	20.6	0.00e+00	0	43	0	1244659712	52	4228
2026-01-13 11:07:44.08	97.38	32.71	-40.0	-41.8	20.8	0.00e+00	0	43	0	1249902592	51	4458
2026-01-13 11:07:45.22	97.04	32.85	-39.9	-41.7	20.8	0.00e+00	0	43	0	1256194048	51	4396
2026-01-13 11:07:46.07	96.78	32.96	-40.0	-41.8	20.8	0.00e+00	0	44	0	1260388352	51	4454
2026-01-13 11:07:47.20	96.44	33.11	-40.0	-41.8	20.7	0.00e+00	0	43	0	1267728384	51	4463
2026-01-13 11:07:48.06	96.18	33.22	-39.8	-41.6	20.9	0.00e+00	0	43	0	1271922688	51	4376
2026-01-13 11:07:49.19	95.83	33.36	-39.9	-41.6	20.9	0.00e+00	0	43	0	1278214144	51	4369
2026-01-13 11:07:50.05	95.57	33.47	-39.9	-41.7	20.8	0.00e+00	0	43	0	1283457024	51	4405
2026-01-13 11:07:51.18	95.21	33.61	-39.9	-41.7	20.8	0.00e+00	0	43	0	1289748480	51	4400
2026-01-13 11:07:52.04	94.94	33.72	-39.9	-41.7	20.8	0.00e+00	0	43	0	1293942784	51	4437
2026-01-13 11:07:53.17	94.59	33.86	-39.9	-41.7	20.8	0.00e+00	0	43	0	1301282816	51	4410
2026-01-13 11:07:54.03	94.31	33.97	-39.8	-41.6	20.9	0.00e+00	0	44	0	1305477120	51	4361
2026-01-13 11:07:55.16	93.95	34.11	-39.8	-41.6	20.9	0.00e+00	0	43	0	1311768576	51	4377
2026-01-13 11:07:56.14	93.63	34.23	-39.9	-41.7	20.9	0.00e+00	0	44	0	1317011456	51	4408
2026-01-13 11:07:57.14	93.30	34.35	-39.9	-41.7	20.8	0.00e+00	0	43	0	1323302912	51	4422
2026-01-13 11:07:58.13	92.98	34.47	-39.8	-41.6	20.9	0.00e+00	0	44	0	1328545792	51	4363
2026-01-13 11:07:59.13	92.65	34.59	-39.9	-41.7	20.8	0.00e+00	0	44	0	1334837248	51	4417
2026-01-13 11:08:00.12	92.32	34.71	-40.1	-41.9	20.7	0.00e+00	0	43	0	1340080128	51	4517
2026-01-13 11:08:01.40	91.88	34.87	-40.3	-42.2	20.4	0.00e+00	0	43	0	1347420160	51	4667
2026-01-13 11:08:02.13	91.64	34.95	-40.4	-42.3	20.3	0.00e+00	0	43	0	1351614464	51	4726
2026-01-13 11:08:03.41	91.20	35.10	-40.4	-42.2	20.3	0.00e+00	0	43	0	1358954496	51	4684
2026-01-13 11:08:04.12	90.95	35.19	-40.4	-42.2	20.4	0.00e+00	0	43	0	1362100224	51	4673
2026-01-13 11:08:05.74	90.39	35.38	-40.2	-42.0	20.5	0.00e+00	0	43	0	1371537408	51	4584
2026-01-13 11:08:06.31	90.19	35.44	-40.0	-41.8	20.7	0.00e+00	0	43	0	1374683136	51	4490
2026-01-13 11:08:08.02	89.59	35.64	-40.1	-41.9	20.7	0.00e+00	0	44	0	1384120320	51	4514
2026-01-13 11:08:08.59	89.39	35.71	-40.1	-41.9	20.7	0.00e+00	0	43	0	1387266048	51	4519
2026-01-13 11:08:10.26	88.79	35.90	-39.9	-41.7	20.8	0.00e+00	0	43	0	1396703232	51	4421
2026-01-13 11:08:10.83	88.58	35.96	-39.8	-41.6	20.9	0.00e+00	0	43	0	1399848960	51	4357
2026-01-13 11:08:12.53	87.96	36.15	-39.8	-41.6	20.9	0.00e+00	0	44	0	1409286144	51	4364
2026-01-13 11:08:13.10	87.75	36.21	-39.9	-41.7	20.8	0.00e+00	0	43	0	1413480448	51	4437
2026-01-13 11:08:14.91	87.08	36.41	-40.1	-41.9	20.7	0.00e+00	0	43	0	1422917632	51	4509
2026-01-13 11:08:15.48	86.87	36.47	-40.0	-41.8	20.7	0.00e+00	0	43	0	1426063360	51	4485
2026-01-13 11:08:17.19	86.23	36.66	-40.0	-41.8	20.7	0.00e+00	0	43	0	1435500544	51	4472
2026-01-13 11:08:17.76	86.01	36.72	-40.0	-41.8	20.7	0.00e+00	0	43	0	1439694848	51	4466
2026-01-13 11:08:19.54	85.33	36.90	-40.0	-41.8	20.7	0.00e+00	0	43	0	1449132032	51	4485
2026-01-13 11:08:20.11	85.12	36.96	-40.0	-41.8	20.7	0.00e+00	0	43	0	1452277760	51	4477
2026-01-13 11:08:21.81	84.46	37.13	-40.2	-42.0	20.6	0.00e+00	0	43	0	1461714944	51	4560
2026-01-13 11:08:22.55	84.17	37.21	-40.3	-42.2	20.5	0.00e+00	0	43	0	1465909248	51	4656
2026-01-13 11:08:23.83	83.67	37.33	-40.3	-42.2	20.5	0.00e+00	0	43	0	1473249280	51	4654
2026-01-13 11:08:24.54	83.39	37.40	-40.2	-42.0	20.6	0.00e+00	0	43	0	1477443584	51	4582
2026-01-13 11:08:25.82	82.88	37.53	-40.0	-41.8	20.8	0.00e+00	0	43	0	1484783616	51	4471
2026-01-13 11:08:26.55	82.59	37.60	-39.8	-41.6	20.9	0.00e+00	0	43	0	1488977920	51	4385
2026-01-13 11:08:27.83	82.07	37.72	-39.7	-41.6	21.0	0.00e+00	0	43	0	1495269376	51	4342
2026-01-13 11:08:28.55	81.78	37.78	-39.8	-41.6	20.9	0.00e+00	0	43	0	1499463680	51	4375
2026-01-13 11:08:29.83	81.26	37.90	-39.8	-41.6	20.9	0.00e+00	0	43	0	1506803712	51	4377
2026-01-13 11:08:30.56	80.96	37.96	-39.9	-41.7	20.8	0.00e+00	0	43	0	1510998016	51	4414
2026-01-13 11:08:31.84	80.44	38.08	-40.0	-41.7	20.8	0.00e+00	0	43	0	1518338048	51	4438
2026-01-13 11:08:32.55	80.14	38.14	-39.9	-41.7	20.8	0.00e+00	0	43	0	1522532352	51	4419
2026-01-13 11:08:33.84	79.61	38.25	-40.0	-41.8	20.8	0.00e+00	0	43	0	1529872384	51	4470
2026-01-13 11:08:34.55	79.31	38.31	-40.0	-41.8	20.7	0.00e+00	0	43	0	1534066688	51	4482
2026-01-13 11:08:35.83	78.77	38.41	-40.0	-41.8	20.7	0.00e+00	0	43	0	1540358144	51	4486
2026-01-13 11:08:36.57	78.46	38.47	-40.1	-41.9	20.7	0.00e+00	0	43	0	1544552448	51	4504
2026-01-13 11:08:37.84	77.92	38.57	-40.0	-41.7	20.8	0.00e+00	0	43	0	1551892480	51	4440
2026-01-13 11:08:38.57	77.61	38.63	-40.0	-41.8	20.8	0.00e+00	0	43	0	1556086784	51	4484
2026-01-13 11:08:39.85	77.07	38.73	-40.0	-41.8	20.7	0.00e+00	0	43	0	1563426816	51	4484
2026-01-13 11:08:40.70	76.70	38.79	-40.0	-41.8	20.8	0.00e+00	0	43	0	1568669696	51	4465
2026-01-13 11:08:41.84	76.21	38.87	-40.0	-41.8	20.7	0.00e+00	0	43	0	1574961152	51	4482
2026-01-13 11:08:42.69	75.84	38.93	-40.0	-41.8	20.7	0.00e+00	0	44	0	1579155456	51	4477
2026-01-13 11:08:43.83	75.34	39.01	-40.2	-42.0	20.6	0.00e+00	0	43	0	1585446912	51	4581
2026-01-13 11:08:44.68	74.97	39.07	-40.2	-42.0	20.6	0.00e+00	0	43	0	1590689792	51	4585
2026-01-13 11:08:45.82	74.47	39.14	-40.1	-41.9	20.7	0.00e+00	0	43	0	1596981248	51	4530
2026-01-13 11:08:46.67	74.10	39.20	-40.2	-42.0	20.7	0.00e+00	0	43	0	1602224128	51	4549
2026-01-13 11:08:47.81	73.59	39.27	-40.0	-41.8	20.8	0.00e+00	0	43	0	1608515584	51	4445
2026-01-13 11:08:48.66	73.21	39.32	-39.9	-41.7	20.9	0.00e+00	0	43	0	1612709888	51	4418
2026-01-13 11:08:49.80	72.71	39.39	-39.9	-41.7	20.9	0.00e+00	0	44	0	1619001344	51	4421
2026-01-13 11:08:50.65	72.33	39.43	-39.9	-41.7	20.9	0.00e+00	0	43	0	1624244224	51	4415
2026-01-13 11:08:51.90	71.76	39.50	-39.8	-41.6	20.9	0.00e+00	0	43	0	1631584256	51	4370
2026-01-13 11:08:52.75	71.38	39.55	-40.1	-41.8	20.8	0.00e+00	0	43	0	1635778560	51	4490
2026-01-13 11:08:53.97	70.83	39.61	-40.2	-42.0	20.6	0.00e+00	0	43	0	1643118592	51	4589
2026-01-13 11:08:54.82	70.44	39.65	-40.2	-42.0	20.6	0.00e+00	0	43	0	1647312896	51	4569
2026-01-13 11:08:56.02	69.90	39.70	-40.2	-42.0	20.6	0.00e+00	0	43	0	1654652928	51	4572
2026-01-13 11:08:56.87	69.51	39.74	-40.2	-42.0	20.6	0.00e+00	0	43	0	1658847232	51	4588
2026-01-13 11:08:58.07	68.96	39.79	-40.3	-42.1	20.6	0.00e+00	0	43	0	1666187264	51	4637
2026-01-13 11:08:58.92	68.57	39.82	-40.2	-42.0	20.6	0.00e+00	0	44	0	1670381568	51	4583
2026-01-13 11:09:00.13	68.02	39.87	-40.0	-41.8	20.9	0.00e+00	0	43	0	1677721600	51	4443
2026-01-13 11:09:00.98	67.62	39.90	-39.9	-41.7	20.9	0.00e+00	0	43	0	1681915904	51	4396
2026-01-13 11:09:02.11	67.10	39.94	-39.9	-41.7	20.9	0.00e+00	0	43	0	1688207360	51	4407
2026-01-13 11:09:02.97	66.70	39.97	-40.0	-41.7	20.8	0.00e+00	0	43	0	1693450240	51	4437
2026-01-13 11:09:04.10	66.18	40.00	-40.2	-42.0	20.7	0.00e+00	0	43	0	1699741696	51	4559
2026-01-13 11:09:04.96	65.78	40.02	-40.1	-41.8	20.8	0.00e+00	0	43	0	1704984576	51	4492
2026-01-13 11:09:06.09	65.26	40.05	-40.1	-41.8	20.7	0.00e+00	0	43	0	1711276032	51	4483
2026-01-13 11:09:07.01	64.83	40.07	-40.1	-41.9	20.7	0.00e+00	0	43	0	1716518912	51	4545
2026-01-13 11:09:08.00	64.37	40.09	-40.1	-41.9	20.7	0.00e+00	0	43	0	1721761792	51	4510
2026-01-13 11:09:09.00	63.90	40.11	-39.9	-41.8	20.8	0.00e+00	0	43	0	1727004672	51	4443
2026-01-13 11:09:09.99	63.44	40.13	-39.9	-41.7	20.9	0.00e+00	0	43	0	1733296128	51	4422
2026-01-13 11:09:10.99	62.97	40.14	-39.9	-41.7	20.9	0.00e+00	0	43	0	1738539008	51	4423
2026-01-13 11:09:11.99	62.50	40.16	-40.0	-41.8	20.8	0.00e+00	0	44	0	1743781888	51	4469
2026-01-13 11:09:12.98	62.04	40.17	-39.9	-41.6	21.0	0.00e+00	0	43	0	1750073344	51	4382
2026-01-13 11:09:13.98	61.57	40.17	-39.7	-41.4	21.2	0.00e+00	0	43	0	1755316224	51	4267
2026-01-13 11:09:14.97	61.10	40.18	-39.8	-41.6	21.0	0.00e+00	0	43	0	1760559104	51	4381
2026-01-13 11:09:15.96	60.64	40.18	-40.0	-41.8	20.8	0.00e+00	0	43	0	1766850560	51	4462
2026-01-13 11:09:16.96	60.17	40.19	-39.9	-41.7	20.9	0.00e+00	0	43	0	1772093440	51	4431
2026-01-13 11:09:17.96	59.70	40.19	-40.0	-41.7	20.9	0.00e+00	0	43	0	1777336320	51	4430
2026-01-13 11:09:18.95	59.24	40.18	-39.8	-41.5	21.0	0.00e+00	0	43	0	1783627776	51	4334
2026-01-13 11:09:19.95	58.77	40.18	-40.0	-41.8	20.8	0.00e+00	0	43	0	1788870656	51	4475
2026-01-13 11:09:20.94	58.30	40.17	-39.9	-41.7	20.9	0.00e+00	0	43	0	1794113536	51	4394
2026-01-13 11:09:21.94	57.84	40.16	-39.9	-41.7	20.9	0.00e+00	0	44	0	1800404992	51	4413
2026-01-13 11:09:22.94	57.37	40.15	-39.9	-41.7	20.8	0.00e+00	0	43	0	1805647872	51	4425
2026-01-13 11:09:23.93	56.90	40.14	-39.9	-41.6	20.9	0.00e+00	0	43	0	1810890752	51	4387
2026-01-13 11:09:24.93	56.44	40.12	-39.8	-41.5	21.1	0.00e+00	0	43	0	1817182208	51	4327
2026-01-13 11:09:25.92	55.97	40.10	-39.7	-41.5	21.0	0.00e+00	0	43	0	1822425088	51	4322
2026-01-13 11:09:26.92	55.51	40.08	-39.8	-41.6	21.0	0.00e+00	0	44	0	1827667968	51	4356
2026-01-13 11:09:27.92	55.04	40.06	-39.8	-41.5	21.0	0.00e+00	0	44	0	1833959424	51	4326
2026-01-13 11:09:28.91	54.58	40.04	-39.8	-41.6	21.0	0.00e+00	0	44	0	1839202304	51	4343
2026-01-13 11:09:29.91	54.12	40.01	-39.8	-41.6	21.0	0.00e+00	0	43	0	1845493760	51	4353
2026-01-13 11:09:30.90	53.66	39.98	-39.9	-41.7	20.9	0.00e+00	0	43	0	1850736640	51	4431
2026-01-13 11:09:31.89	53.20	39.95	-39.8	-41.6	21.0	0.00e+00	0	43	0	1855979520	51	4353
2026-01-13 11:09:32.89	52.74	39.92	-39.8	-41.6	21.0	0.00e+00	0	43	0	1861222400	51	4365
2026-01-13 11:09:33.88	52.28	39.89	-39.8	-41.5	21.0	0.00e+00	0	43	0	1867513856	51	4340
2026-01-13 11:09:34.88	51.82	39.85	-39.7	-41.4	21.1	0.00e+00	0	43	0	1872756736	51	4290
2026-01-13 11:09:35.87	51.37	39.81	-39.8	-41.5	21.0	0.00e+00	0	43	0	1879048192	51	4337
2026-01-13 11:09:36.86	50.91	39.77	-39.7	-41.5	21.1	0.00e+00	0	43	0	1884291072	51	4306
2026-01-13 11:09:37.86	50.46	39.73	-39.7	-41.4	21.1	0.00e+00	0	43	0	1889533952	51	4267
2026-01-13 11:09:38.85	50.01	39.68	-39.8	-41.5	21.0	0.00e+00	0	44	0	1895825408	51	4331
2026-01-13 11:09:39.85	49.55	39.64	-39.9	-41.7	20.9	0.00e+00	0	44	0	1901068288	51	4417
2026-01-13 11:09:40.84	49.11	39.59	-40.1	-41.9	20.8	0.00e+00	0	43	0	1906311168	51	4495
2026-01-13 11:09:41.84	48.65	39.54	-40.1	-41.9	20.7	0.00e+00	0	43	0	1911554048	51	4524
2026-01-13 11:09:42.83	48.21	39.49	-39.9	-41.7	20.9	0.00e+00	0	44	0	1917845504	51	4416
2026-01-13 11:09:43.82	47.77	39.43	-40.1	-41.8	20.8	0.00e+00	0	44	0	1923088384	51	4485
2026-01-13 11:09:44.82	47.32	39.38	-39.9	-41.7	20.9	0.00e+00	0	43	0	1929379840	51	4404
2026-01-13 11:09:45.82	46.87	39.32	-39.9	-41.7	20.9	0.00e+00	0	43	0	1934622720	51	4426
2026-01-13 11:09:46.81	46.43	39.26	-39.7	-41.5	21.1	0.00e+00	0	43	0	1939865600	51	4311
2026-01-13 11:09:47.85	45.98	39.19	-39.4	-41.2	21.3	0.00e+00	0	43	0	1946157056	50	4406
2026-01-13 11:09:48.87	45.53	39.13	-39.4	-41.1	21.3	0.00e+00	0	43	0	1951399936	50	4389
2026-01-13 11:09:49.87	45.09	39.06	-39.4	-41.2	21.3	0.00e+00	0	44	0	1957691392	50	4413
2026-01-13 11:09:50.86	44.66	39.00	-39.6	-41.4	21.1	0.00e+00	0	43	0	1962934272	50	4534
2026-01-13 11:09:51.95	44.18	38.92	-39.7	-41.5	21.0	0.00e+00	0	43	0	1969225728	50	4573
2026-01-13 11:09:52.85	43.79	38.86	-39.8	-41.6	20.9	0.00e+00	0	43	0	1974468608	50	4629
2026-01-13 11:09:53.97	43.31	38.78	-39.9	-41.6	20.9	0.00e+00	0	44	0	1980760064	50	4648
2026-01-13 11:09:54.82	42.95	38.71	-39.9	-41.7	20.9	0.00e+00	0	44	0	1984954368	50	4664
2026-01-13 11:09:55.96	42.46	38.63	-40.0	-41.7	20.8	0.00e+00	0	44	0	1991245824	50	4697
2026-01-13 11:09:56.82	42.09	38.56	-39.9	-41.7	20.9	0.00e+00	0	44	0	1996488704	50	4677
2026-01-13 11:09:57.95	41.62	38.47	-39.7	-41.4	21.1	0.00e+00	0	43	0	2002780160	50	4539
2026-01-13 11:09:58.80	41.26	38.40	-39.6	-41.4	21.2	0.00e+00	0	44	0	2008023040	50	4498
2026-01-13 11:09:59.94	40.78	38.31	-39.5	-41.2	21.3	0.00e+00	0	43	0	2014314496	50	4423
2026-01-13 11:10:00.79	40.43	38.24	-39.4	-41.2	21.3	0.00e+00	0	44	0	2018508800	50	4407
2026-01-13 11:10:01.93	39.96	38.14	-39.6	-41.3	21.2	0.00e+00	0	44	0	2024800256	50	4481
2026-01-13 11:10:02.78	39.61	38.07	-39.5	-41.3	21.2	0.00e+00	0	43	0	2030043136	50	4463
2026-01-13 11:10:04.00	39.11	37.96	-39.6	-41.4	21.2	0.00e+00	0	43	0	2037383168	50	4499
2026-01-13 11:10:04.85	38.76	37.88	-39.5	-41.3	21.2	0.00e+00	0	44	0	2041577472	50	4447
2026-01-13 11:10:05.99	38.30	37.78	-39.6	-41.4	21.1	0.00e+00	0	43	0	2047868928	50	4519
2026-01-13 11:10:06.84	37.96	37.70	-39.7	-41.5	21.0	0.00e+00	0	44	0	2053111808	50	4579
2026-01-13 11:10:08.12	37.44	37.58	-39.8	-41.6	20.9	0.00e+00	0	44	0	2060451840	50	4636
2026-01-13 11:10:08.83	37.16	37.51	-39.8	-41.6	21.0	0.00e+00	0	44	0	2063597568	50	4609
2026-01-13 11:10:10.11	36.65	37.39	-39.8	-41.6	20.9	0.00e+00	0	44	0	2070937600	50	4637
2026-01-13 11:10:10.82	36.37	37.32	-39.9	-41.6	20.9	0.00e+00	0	44	0	2075131904	50	4646
2026-01-13 11:10:12.10	35.87	37.19	-39.7	-41.5	21.0	0.00e+00	0	43	0	2082471936	50	4560
2026-01-13 11:10:12.89	35.57	37.11	-39.6	-41.4	21.1	0.00e+00	0	43	0	2086666240	50	4519
2026-01-13 11:10:14.07	35.11	36.99	-39.5	-41.2	21.3	0.00e+00	0	43	0	2092957696	50	4424
2026-01-13 11:10:14.92	34.79	36.91	-39.5	-41.3	21.2	0.00e+00	0	43	0	2098200576	50	4452
2026-01-13 11:10:16.06	34.35	36.79	-39.6	-41.3	21.2	0.00e+00	0	43	0	2104492032	50	4490
2026-01-13 11:10:16.91	34.03	36.70	-39.6	-41.4	21.1	0.00e+00	0	43	0	2109734912	50	4505
2026-01-13 11:10:18.05	33.60	36.58	-39.7	-41.4	21.3	0.00e+00	0	43	0	2116026368	50	4530
2026-01-13 11:10:18.90	33.28	36.49	-39.9	-41.6	21.2	0.00e+00	0	43	0	2120220672	50	4616
2026-01-13 11:10:20.03	32.86	36.37	-39.9	-41.6	21.2	0.00e+00	0	44	0	2126512128	50	4634
2026-01-13 11:10:20.89	32.55	36.27	-39.8	-41.6	21.3	0.00e+00	0	43	0	2131755008	50	4608
2026-01-13 11:10:22.02	32.13	36.15	-39.9	-41.6	21.3	0.00e+00	0	43	0	2138046464	50	4618
2026-01-13 11:10:22.88	31.82	36.05	-39.9	-41.6	21.2	0.00e+00	0	44	0	2143289344	50	4651
2026-01-13 11:10:24.03	31.40	35.92	-39.9	-41.6	21.3	0.00e+00	0	43	0	2149580800	50	4614
2026-01-13 11:10:24.88	31.10	35.83	-39.8	-41.6	21.3	0.00e+00	0	43	0	2153775104	50	4600
2026-01-13 11:10:26.02	30.69	35.70	-39.8	-41.5	21.4	0.00e+00	0	43	0	2161115136	50	4548
2026-01-13 11:10:26.87	30.39	35.60	-39.9	-41.6	21.3	0.00e+00	0	43	0	2165309440	50	4599
2026-01-13 11:10:28.01	29.99	35.47	-39.9	-41.6	21.3	0.00e+00	0	43	0	2171600896	50	4610
2026-01-13 11:10:28.86	29.69	35.37	-39.9	-41.6	21.3	0.00e+00	0	44	0	2176843776	50	4618
2026-01-13 11:10:30.00	29.30	35.24	-39.9	-41.6	21.3	0.00e+00	0	43	0	2183135232	50	4614
2026-01-13 11:10:30.85	29.01	35.14	-39.9	-41.7	21.2	0.00e+00	0	43	0	2188378112	50	4653
2026-01-13 11:10:31.99	28.62	35.00	-39.8	-41.5	21.3	0.00e+00	0	44	0	2193620992	50	4548
2026-01-13 11:10:32.84	28.33	34.90	-39.9	-41.6	21.2	0.00e+00	0	43	0	2198863872	50	4621
2026-01-13 11:10:33.98	27.94	34.77	-39.8	-41.6	21.3	0.00e+00	0	44	0	2205155328	50	4607
2026-01-13 11:10:34.83	27.66	34.66	-39.7	-41.4	21.4	0.00e+00	0	43	0	2210398208	50	4543
2026-01-13 11:10:35.97	27.28	34.53	-39.7	-41.4	21.4	0.00e+00	0	43	0	2216689664	50	4505
2026-01-13 11:10:36.82	27.00	34.42	-39.6	-41.3	21.4	0.00e+00	0	43	0	2220883968	50	4488
2026-01-13 11:10:37.96	26.63	34.28	-39.8	-41.5	21.3	0.00e+00	0	43	0	2228224000	50	4566
2026-01-13 11:10:38.81	26.35	34.18	-39.8	-41.6	21.3	0.00e+00	0	43	0	2232418304	50	4606
2026-01-13 11:10:39.98	25.98	34.04	-39.7	-41.4	21.4	0.00e+00	0	43	0	2238709760	50	4538
2026-01-13 11:10:40.83	25.71	33.93	-39.8	-41.5	21.3	0.00e+00	0	43	0	2243952640	50	4560
2026-01-13 11:10:42.03	25.33	33.78	-39.7	-41.3	21.5	0.00e+00	0	44	0	2250244096	50	4490
2026-01-13 11:10:42.88	25.06	33.68	-39.7	-41.4	21.4	0.00e+00	0	43	0	2255486976	50	4526
2026-01-13 11:10:44.08	24.69	33.53	-39.8	-41.5	21.3	0.00e+00	0	44	0	2261778432	50	4592
2026-01-13 11:10:44.93	24.42	33.42	-39.8	-41.6	21.3	0.00e+00	0	43	0	2267021312	50	4599
2026-01-13 11:10:46.15	24.05	33.26	-39.8	-41.5	21.3	0.00e+00	0	43	0	2273312768	50	4583
2026-01-13 11:10:47.00	23.79	33.16	-39.8	-41.6	21.3	0.00e+00	0	44	0	2278555648	50	4604
2026-01-13 11:10:48.14	23.45	33.01	-39.9	-41.6	21.2	0.00e+00	0	44	0	2284847104	50	4624
2026-01-13 11:10:48.99	23.19	32.90	-39.8	-41.6	21.3	0.00e+00	0	44	0	2290089984	50	4616
2026-01-13 11:10:50.13	22.85	32.76	-39.9	-41.7	21.2	0.00e+00	0	43	0	2296381440	50	4656
2026-01-13 11:10:50.98	22.60	32.65	-39.8	-41.5	21.3	0.00e+00	0	43	0	2300575744	50	4593
2026-01-13 11:10:52.11	22.27	32.51	-39.8	-41.5	21.3	0.00e+00	0	43	0	2307915776	50	4585
2026-01-13 11:10:53.01	22.01	32.39	-40.0	-41.7	21.2	0.00e+00	0	43	0	2312110080	50	4663
2026-01-13 11:10:54.12	21.69	32.25	-40.0	-41.7	21.1	0.00e+00	0	43	0	2318401536	50	4704
2026-01-13 11:10:54.97	21.45	32.14	-40.0	-41.7	21.1	0.00e+00	0	44	0	2323644416	50	4698
2026-01-13 11:10:56.11	21.12	31.99	-40.0	-41.7	21.1	0.00e+00	0	43	0	2329935872	50	4680
2026-01-13 11:10:56.96	20.89	31.88	-40.0	-41.7	21.2	0.00e+00	0	44	0	2335178752	50	4676
2026-01-13 11:10:58.10	20.57	31.73	-39.9	-41.6	21.2	0.00e+00	0	44	0	2341470208	50	4645
2026-01-13 11:10:58.95	20.33	31.62	-39.9	-41.6	21.2	0.00e+00	0	43	0	2345664512	50	4639
2026-01-13 11:11:00.09	20.02	31.47	-40.0	-41.7	21.2	0.00e+00	0	44	0	2351955968	50	4684
2026-01-13 11:11:01.25	19.71	31.32	-40.1	-41.9	21.0	0.00e+00	0	44	0	2359296000	50	4768
2026-01-13 11:11:02.11	19.47	31.21	-40.1	-41.8	21.1	0.00e+00	0	44	0	2363490304	50	4731
2026-01-13 11:11:03.58	19.08	31.02	-40.1	-41.9	21.0	0.00e+00	0	43	0	2371878912	50	4763
2026-01-13 11:11:04.29	18.89	30.93	-40.3	-42.0	20.9	0.00e+00	0	44	0	2376073216	51	4575
2026-01-13 11:11:05.57	18.56	30.76	-40.4	-42.1	20.8	0.00e+00	0	43	0	2383413248	51	4637
2026-01-13 11:11:06.28	18.37	30.66	-40.4	-42.2	20.7	0.00e+00	0	44	0	2386558976	51	4673
2026-01-13 11:11:07.57	18.04	30.50	-40.5	-42.3	20.7	0.00e+00	0	44	0	2393899008	51	4736
2026-01-13 11:11:08.28	17.86	30.40	-40.5	-42.3	20.6	0.00e+00	0	44	0	2398093312	51	4737
2026-01-13 11:11:09.56	17.53	30.24	-40.5	-42.3	20.6	0.00e+00	0	44	0	2405433344	51	4721
2026-01-13 11:11:10.27	17.35	30.14	-40.5	-42.2	20.7	0.00e+00	0	44	0	2409627648	51	4691
2026-01-13 11:11:11.55	17.03	29.97	-40.4	-42.1	20.8	0.00e+00	0	43	0	2416967680	51	4650
2026-01-13 11:11:12.26	16.86	29.88	-40.4	-42.1	20.8	0.00e+00	0	44	0	2421161984	51	4651
2026-01-13 11:11:13.54	16.54	29.71	-40.4	-42.2	20.7	0.00e+00	0	44	0	2427453440	51	4664
2026-01-13 11:11:14.28	16.36	29.62	-40.4	-42.1	20.8	0.00e+00	0	44	0	2431647744	51	4625
2026-01-13 11:11:15.56	16.05	29.45	-40.4	-42.1	20.8	0.00e+00	0	44	0	2438987776	51	4626
2026-01-13 11:11:16.28	15.88	29.35	-40.4	-42.1	20.8	0.00e+00	0	44	0	2443182080	51	4628
2026-01-13 11:11:17.64	15.56	29.18	-40.3	-42.0	20.8	0.00e+00	0	44	0	2450522112	51	4591
2026-01-13 11:11:18.35	15.39	29.08	-40.3	-42.1	20.8	0.00e+00	0	44	0	2454716416	51	4599
2026-01-13 11:11:19.63	15.09	28.92	-40.2	-42.0	20.9	0.00e+00	0	43	0	2462056448	51	4562
2026-01-13 11:11:20.68	14.85	28.78	-40.2	-42.0	20.9	0.00e+00	0	44	0	2468347904	51	4565
2026-01-13 11:11:21.92	14.56	28.62	-40.3	-42.1	20.8	0.00e+00	0	44	0	2474639360	51	4616
2026-01-13 11:11:22.82	14.36	28.50	-40.3	-42.0	20.9	0.00e+00	0	43	0	2479882240	51	4596
2026-01-13 11:11:24.08	14.07	28.34	-40.5	-42.3	20.6	0.00e+00	0	44	0	2487222272	51	4726
2026-01-13 11:11:24.85	13.90	28.24	-40.5	-42.3	20.6	0.00e+00	0	43	0	2491416576	51	4734
2026-01-13 11:11:26.28	13.59	28.05	-40.6	-42.4	20.5	0.00e+00	0	44	0	2499805184	52	4521
2026-01-13 11:11:26.99	13.43	27.96	-40.7	-42.5	20.4	0.00e+00	0	43	0	2502950912	52	4550
2026-01-13 11:11:28.27	13.15	27.79	-40.6	-42.4	20.5	0.00e+00	0	44	0	2510290944	52	4513
2026-01-13 11:11:28.98	13.00	27.70	-40.5	-42.3	20.6	0.00e+00	0	43	0	2514485248	52	4449
2026-01-13 11:11:30.26	12.72	27.53	-40.5	-42.3	20.6	0.00e+00	0	43	0	2521825280	52	4467
2026-01-13 11:11:30.98	12.57	27.44	-40.5	-42.3	20.6	0.00e+00	0	44	0	2526019584	52	4452
2026-01-13 11:11:32.26	12.30	27.27	-40.5	-42.2	20.6	0.00e+00	0	43	0	2533359616	52	4426
2026-01-13 11:11:32.97	12.15	27.18	-40.5	-42.3	20.6	0.00e+00	0	43	0	2537553920	52	4443
2026-01-13 11:11:34.25	11.89	27.02	-40.5	-42.3	20.6	0.00e+00	0	43	0	2544893952	52	4444
2026-01-13 11:11:34.98	11.74	26.92	-40.5	-42.2	20.6	0.00e+00	0	43	0	2548039680	52	4427
2026-01-13 11:11:36.25	11.48	26.76	-40.5	-42.3	20.6	0.00e+00	0	44	0	2555379712	52	4466
2026-01-13 11:11:37.09	11.31	26.65	-40.6	-42.4	20.5	0.00e+00	0	43	0	2560622592	52	4527
2026-01-13 11:11:38.23	11.08	26.51	-40.7	-42.5	20.4	0.00e+00	0	43	0	2566914048	52	4556
2026-01-13 11:11:39.08	10.91	26.40	-40.8	-42.6	20.3	0.00e+00	0	43	0	2571108352	52	4612
2026-01-13 11:11:40.22	10.69	26.25	-40.8	-42.6	20.3	0.00e+00	0	43	0	2578448384	52	4630
2026-01-13 11:11:41.07	10.52	26.15	-40.9	-42.7	20.2	0.00e+00	0	43	0	2582642688	52	4670
2026-01-13 11:11:42.21	10.30	26.00	-40.9	-42.7	20.2	0.00e+00	0	43	0	2588934144	52	4691
2026-01-13 11:11:43.39	10.07	25.85	-40.9	-42.7	20.2	0.00e+00	0	43	0	2595225600	52	4667
2026-01-13 11:11:44.25	9.91	25.74	-41.0	-42.7	20.2	0.00e+00	0	43	0	2600468480	52	4695
2026-01-13 11:11:45.38	9.69	25.60	-40.8	-42.6	20.3	0.00e+00	0	43	0	2606759936	52	4602
2026-01-13 11:11:46.24	9.53	25.49	-40.8	-42.5	20.3	0.00e+00	0	43	0	2612002816	52	4590
2026-01-13 11:11:47.37	9.32	25.35	-40.8	-42.6	20.3	0.00e+00	0	44	0	2618294272	52	4636
2026-01-13 11:11:48.23	9.16	25.24	-41.0	-42.8	20.1	0.00e+00	0	43	0	2622488576	52	4726
2026-01-13 11:11:49.37	8.95	25.10	-40.9	-42.7	20.2	0.00e+00	0	43	0	2629828608	52	4652
2026-01-13 11:11:50.22	8.80	24.99	-40.9	-42.6	20.3	0.00e+00	0	44	0	2634022912	52	4642
2026-01-13 11:11:51.35	8.60	24.85	-40.9	-42.7	20.2	0.00e+00	0	43	0	2640314368	52	4663
2026-01-13 11:11:52.21	8.44	24.74	-40.9	-42.7	20.2	0.00e+00	0	43	0	2645557248	52	4682
2026-01-13 11:11:53.48	8.22	24.59	-40.8	-42.6	20.3	0.00e+00	0	44	0	2652897280	52	4629
2026-01-13 11:11:54.20	8.09	24.50	-40.8	-42.6	20.3	0.00e+00	0	43	0	2657091584	52	4606
2026-01-13 11:11:55.47	7.87	24.34	-40.9	-42.7	20.2	0.00e+00	0	43	0	2663383040	52	4658
2026-01-13 11:11:56.21	7.74	24.25	-41.0	-42.8	20.1	0.00e+00	0	43	0	2667577344	52	4726
2026-01-13 11:11:57.49	7.52	24.09	-40.8	-42.6	20.3	0.00e+00	0	43	0	2674917376	52	4632
2026-01-13 11:11:58.20	7.40	24.00	-40.8	-42.6	20.2	0.00e+00	0	43	0	2679111680	52	4632
2026-01-13 11:11:59.48	7.18	23.85	-40.9	-42.7	20.2	0.00e+00	0	43	0	2686451712	52	4657
2026-01-13 11:12:00.22	7.06	23.76	-40.8	-42.6	20.3	0.00e+00	0	43	0	2690646016	52	4618
2026-01-13 11:12:01.50	6.85	23.60	-40.9	-42.6	20.2	0.00e+00	0	44	0	2697986048	52	4639
2026-01-13 11:12:02.23	6.73	23.51	-40.8	-42.6	20.3	0.00e+00	0	43	0	2702180352	52	4604
2026-01-13 11:12:03.84	6.46	23.32	-40.8	-42.6	20.3	0.00e+00	0	44	0	2710568960	52	4610
2026-01-13 11:12:04.42	6.37	23.25	-40.9	-42.7	20.2	0.00e+00	0	43	0	2713714688	52	4673
2026-01-13 11:12:05.99	6.12	23.06	-41.0	-42.8	20.1	0.00e+00	0	44	0	2723151872	52	4726
2026-01-13 11:12:06.65	6.01	22.98	-40.9	-42.7	20.1	0.00e+00	0	43	0	2726297600	52	4702
2026-01-13 11:12:08.07	5.79	22.81	-41.0	-42.8	20.0	0.00e+00	0	44	0	2734686208	52	4743
2026-01-13 11:12:08.78	5.68	22.73	-41.0	-42.8	20.1	0.00e+00	0	43	0	2738880512	52	4746
2026-01-13 11:12:10.06	5.48	22.57	-40.9	-42.7	20.1	0.00e+00	0	44	0	2746220544	52	4703
2026-01-13 11:12:10.77	5.37	22.49	-41.0	-42.8	20.1	0.00e+00	0	43	0	2749366272	52	4724
2026-01-13 11:12:12.05	5.17	22.34	-41.0	-42.9	20.0	0.00e+00	0	44	0	2756706304	52	4762
2026-01-13 11:12:12.77	5.06	22.25	-40.9	-42.7	20.2	0.00e+00	0	44	0	2760900608	52	4683
2026-01-13 11:12:14.07	4.87	22.10	-40.9	-42.8	20.1	0.00e+00	0	44	0	2768240640	52	4714
2026-01-13 11:12:14.78	4.76	22.02	-41.0	-42.8	20.0	0.00e+00	0	43	0	2772434944	52	4756
2026-01-13 11:12:16.12	4.56	21.86	-41.0	-42.9	20.0	0.00e+00	0	44	0	2779774976	52	4771
2026-01-13 11:12:16.83	4.46	21.78	-41.1	-43.0	19.9	0.00e+00	0	44	0	2783969280	52	4822
2026-01-13 11:12:18.11	4.27	21.63	-41.2	-43.0	19.9	0.00e+00	0	44	0	2791309312	53	4594
2026-01-13 11:12:18.83	4.17	21.54	-41.1	-43.0	19.9	0.00e+00	0	43	0	2795503616	53	4554
2026-01-13 11:12:20.22	3.97	21.38	-41.2	-43.0	19.8	0.00e+00	0	43	0	2802843648	53	4597
2026-01-13 11:12:20.93	3.87	21.30	-41.3	-43.2	19.7	0.00e+00	0	43	0	2807037952	53	4660
2026-01-13 11:12:22.21	3.68	21.15	-41.3	-43.1	19.8	0.00e+00	0	43	0	2814377984	53	4639
2026-01-13 11:12:22.93	3.58	21.07	-41.3	-43.2	19.7	0.00e+00	0	43	0	2818572288	53	4686
2026-01-13 11:12:24.21	3.40	20.93	-41.4	-43.3	19.6	0.00e+00	0	44	0	2825912320	53	4731
2026-01-13 11:12:24.94	3.30	20.84	-41.4	-43.3	19.7	0.00e+00	0	44	0	2829058048	53	4718
2026-01-13 11:12:26.22	3.13	20.70	-41.3	-43.2	19.7	0.00e+00	0	43	0	2836398080	53	4677
2026-01-13 11:12:26.94	3.03	20.62	-41.4	-43.3	19.6	0.00e+00	0	44	0	2840592384	53	4720
2026-01-13 11:12:28.22	2.86	20.47	-41.5	-43.4	19.5	0.00e+00	0	43	0	2847932416	53	4775
2026-01-13 11:12:28.96	2.76	20.39	-41.4	-43.2	19.7	0.00e+00	0	43	0	2852126720	53	4705
2026-01-13 11:12:30.24	2.59	20.24	-41.3	-43.2	19.7	0.00e+00	0	44	0	2859466752	53	4659
2026-01-13 11:12:31.09	2.47	20.15	-41.3	-43.1	19.8	0.00e+00	0	43	0	2863661056	53	4619
2026-01-13 11:12:32.51	2.29	19.99	-41.3	-43.1	19.8	0.00e+00	0	44	0	2872049664	53	4633
2026-01-13 11:12:33.22	2.20	19.91	-41.3	-43.1	19.8	0.00e+00	0	44	0	2876243968	53	4640
2026-01-13 11:12:34.50	2.03	19.77	-41.3	-43.1	19.8	0.00e+00	0	43	0	2883584000	53	4613
2026-01-13 11:12:35.21	1.94	19.69	-41.3	-43.1	19.8	0.00e+00	0	44	0	2887778304	53	4646
2026-01-13 11:12:36.49	1.78	19.55	-41.5	-43.3	19.6	0.00e+00	0	44	0	2894069760	53	4741
2026-01-13 11:12:37.22	1.69	19.47	-41.5	-43.4	19.6	0.00e+00	0	44	0	2898264064	53	4765
2026-01-13 11:12:38.49	1.53	19.33	-41.7	-43.6	19.4	0.00e+00	0	44	0	2905604096	54	4621
2026-01-13 11:12:39.23	1.43	19.25	-41.7	-43.6	19.4	0.00e+00	0	44	0	2909798400	54	4621
2026-01-13 11:12:40.51	1.28	19.11	-41.8	-43.7	19.3	0.00e+00	0	43	0	2917138432	54	4685
2026-01-13 11:12:41.25	1.19	19.03	-41.9	-43.8	19.2	0.00e+00	0	44	0	2921332736	54	4724
2026-01-13 11:12:42.85	0.99	18.86	-41.9	-43.8	19.2	0.00e+00	0	44	0	2930769920	54	4728
2026-01-13 11:12:43.41	0.92	18.80	-41.9	-43.8	19.1	0.00e+00	0	44	0	2933915648	54	4748
2026-01-13 11:12:45.12	0.72	18.61	-41.8	-43.7	19.2	0.00e+00	0	43	0	2943352832	54	4672
2026-01-13 11:12:45.74	0.65	18.55	-41.8	-43.8	19.2	0.00e+00	0	43	0	2946498560	54	4706
2026-01-13 11:12:47.30	0.46	18.38	-41.9	-43.9	19.1	0.00e+00	0	44	0	2955935744	54	4770
2026-01-13 11:12:47.93	0.39	18.32	-41.9	-43.8	19.1	0.00e+00	0	43	0	2959081472	54	4733
2026-01-13 11:12:49.45	0.21	18.15	-41.9	-43.9	19.1	0.00e+00	0	44	0	2967470080	54	4764
2026-01-13 11:12:50.16	0.13	18.08	-41.9	-43.8	19.1	0.00e+00	0	43	0	2971664384	54	4756
2026-01-13 11:12:51.44	359.99	17.94	-42.0	-43.9	19.0	0.00e+00	0	44	0	2979004416	54	4814
2026-01-13 11:12:52.15	359.90	17.87	-42.1	-44.1	18.9	0.00e+00	0	44	0	2983198720	54	4880
2026-01-13 11:12:53.66	359.73	17.71	-42.1	-44.1	18.9	0.00e+00	0	43	0	2991587328	54	4882
2026-01-13 11:12:54.37	359.66	17.64	-42.2	-44.1	18.9	0.00e+00	0	44	0	2994733056	54	4906
2026-01-13 11:12:55.65	359.51	17.51	-42.2	-44.1	18.8	0.00e+00	0	44	0	3002073088	55	4639
2026-01-13 11:12:56.36	359.44	17.43	-42.2	-44.1	18.8	0.00e+00	0	43	0	3006267392	55	4647
2026-01-13 11:12:57.75	359.28	17.29	-42.3	-44.2	18.7	0.00e+00	0	43	0	3014656000	55	4704
2026-01-13 11:12:58.46	359.21	17.22	-42.4	-44.3	18.6	0.00e+00	0	43	0	3017801728	55	4756
2026-01-13 11:12:59.74	359.07	17.09	-42.4	-44.4	18.6	0.00e+00	0	43	0	3025141760	55	4777
2026-01-13 11:13:00.47	358.99	17.01	-42.4	-44.4	18.6	0.00e+00	0	44	0	3029336064	55	4762
2026-01-13 11:13:01.75	358.86	16.88	-42.4	-44.3	18.6	0.00e+00	0	44	0	3036676096	55	4747
2026-01-13 11:13:02.47	358.78	16.81	-42.4	-44.3	18.7	0.00e+00	0	43	0	3040870400	55	4748
2026-01-13 11:13:03.75	358.65	16.68	-42.6	-44.5	18.5	0.00e+00	0	44	0	3048210432	55	4849
2026-01-13 11:13:04.46	358.57	16.61	-42.5	-44.5	18.5	0.00e+00	0	43	0	3052404736	55	4819
2026-01-13 11:13:05.74	358.44	16.48	-42.4	-44.4	18.6	0.00e+00	0	44	0	3058696192	55	4761
2026-01-13 11:13:06.49	358.36	16.40	-42.4	-44.3	18.7	0.00e+00	0	43	0	3062890496	55	4720
2026-01-13 11:13:07.76	358.23	16.28	-42.5	-44.4	18.6	0.00e+00	0	43	0	3070230528	55	4779
2026-01-13 11:13:08.51	358.16	16.20	-42.4	-44.4	18.6	0.00e+00	0	44	0	3074424832	55	4771
2026-01-13 11:13:09.79	358.03	16.07	-42.4	-44.4	18.6	0.00e+00	0	44	0	3081764864	55	4777
2026-01-13 11:13:10.51	357.96	16.00	-42.4	-44.3	18.6	0.00e+00	0	44	0	3085959168	55	4759
2026-01-13 11:13:11.79	357.83	15.88	-42.4	-44.4	18.5	0.00e+00	0	44	0	3093299200	55	4813
2026-01-13 11:13:12.61	357.75	15.80	-42.4	-44.5	18.5	0.00e+00	0	43	0	3097493504	55	4827
2026-01-13 11:13:14.04	357.61	15.66	-42.5	-44.5	18.4	0.00e+00	0	44	0	3105882112	55	4853
2026-01-13 11:13:14.75	357.54	15.59	-42.5	-44.6	18.4	0.00e+00	0	43	0	3110076416	55	4872
2026-01-13 11:13:16.03	357.42	15.46	-42.6	-44.6	18.4	0.00e+00	0	44	0	3116367872	55	4891
2026-01-13 11:13:16.75	357.35	15.39	-42.5	-44.5	18.4	0.00e+00	0	44	0	3120562176	55	4868
2026-01-13 11:13:18.03	357.23	15.27	-42.7	-44.6	18.3	0.00e+00	0	44	0	3127902208	55	4918
2026-01-13 11:13:18.77	357.16	15.20	-42.6	-44.6	18.4	0.00e+00	0	43	0	3132096512	55	4883
2026-01-13 11:13:20.05	357.04	15.07	-42.9	-44.8	18.3	0.00e+00	0	44	0	3139436544	56	4753
2026-01-13 11:13:20.79	356.97	15.00	-42.8	-44.8	18.3	0.00e+00	0	44	0	3143630848	56	4735
2026-01-13 11:13:22.07	356.85	14.88	-42.9	-44.9	18.2	0.00e+00	0	44	0	3150970880	56	4802
2026-01-13 11:13:22.81	356.79	14.81	-42.9	-44.9	18.2	0.00e+00	0	44	0	3155165184	56	4814
2026-01-13 11:13:24.09	356.67	14.69	-43.1	-45.1	18.1	0.00e+00	0	43	0	3162505216	56	4889
2026-01-13 11:13:24.80	356.61	14.62	-43.1	-45.1	18.0	0.00e+00	0	44	0	3166699520	56	4925
2026-01-13 11:13:26.08	356.49	14.50	-43.1	-45.1	18.0	0.00e+00	0	44	0	3172990976	56	4896
2026-01-13 11:13:26.81	356.43	14.43	-43.2	-45.2	17.9	0.00e+00	0	43	0	3177185280	57	4688
2026-01-13 11:13:28.16	356.31	14.31	-43.2	-45.3	17.8	0.00e+00	0	44	0	3185573888	57	4723
2026-01-13 11:13:28.87	356.24	14.24	-43.3	-45.4	17.8	0.00e+00	0	43	0	3188719616	57	4769
2026-01-13 11:13:30.15	356.13	14.12	-43.3	-45.4	17.8	0.00e+00	0	44	0	3196059648	57	4766
2026-01-13 11:13:30.88	356.07	14.05	-43.3	-45.4	17.8	0.00e+00	0	44	0	3200253952	57	4769
2026-01-13 11:13:32.27	355.95	13.92	-43.4	-45.5	17.7	0.00e+00	0	44	0	3208642560	57	4840
2026-01-13 11:13:32.98	355.89	13.86	-43.4	-45.5	17.6	0.00e+00	0	44	0	3211788288	57	4847
2026-01-13 11:13:34.26	355.78	13.74	-43.3	-45.4	17.7	0.00e+00	0	44	0	3219128320	57	4797
2026-01-13 11:13:35.00	355.71	13.67	-43.1	-45.3	17.8	0.00e+00	0	43	0	3223322624	57	4726
2026-01-13 11:13:36.28	355.61	13.56	-43.2	-45.5	17.7	0.00e+00	0	44	0	3230662656	57	4828
2026-01-13 11:13:37.00	355.55	13.49	-43.2	-45.4	17.7	0.00e+00	0	44	0	3234856960	57	4812
2026-01-13 11:13:38.28	355.44	13.38	-43.3	-45.5	17.6	0.00e+00	0	44	0	3242196992	57	4832
2026-01-13 11:13:39.00	355.38	13.31	-43.2	-45.4	17.7	0.00e+00	0	43	0	3246391296	57	4801
2026-01-13 11:13:40.28	355.28	13.19	-43.2	-45.5	17.6	0.00e+00	0	44	0	3253731328	57	4838
2026-01-13 11:13:41.01	355.22	13.13	-43.3	-45.5	17.5	0.00e+00	0	44	0	3257925632	57	4864
2026-01-13 11:13:42.29	355.11	13.01	-43.3	-45.6	17.5	0.00e+00	0	44	0	3264217088	57	4875
2026-01-13 11:13:43.00	355.06	12.95	-43.2	-45.5	17.6	0.00e+00	0	43	0	3268411392	57	4848
2026-01-13 11:13:44.28	354.95	12.84	-43.2	-45.5	17.5	0.00e+00	0	43	0	3275751424	57	4861
2026-01-13 11:13:44.99	354.90	12.77	-43.2	-45.6	17.5	0.00e+00	0	43	0	3279945728	57	4884
2026-01-13 11:13:46.27	354.80	12.66	-43.0	-45.5	17.6	0.00e+00	0	44	0	3287285760	57	4852
2026-01-13 11:13:46.98	354.74	12.60	-43.0	-45.6	17.5	0.00e+00	0	43	0	3290431488	57	4901
2026-01-13 11:13:48.26	354.64	12.48	-43.0	-45.7	17.4	0.00e+00	0	43	0	3297771520	57	4938
2026-01-13 11:13:48.98	354.59	12.42	-42.9	-45.5	17.5	0.00e+00	0	44	0	3301965824	57	4850
2026-01-13 11:13:50.26	354.49	12.31	-42.9	-45.6	17.4	0.00e+00	0	43	0	3309305856	57	4917
2026-01-13 11:13:50.97	354.43	12.25	-42.9	-45.6	17.4	0.00e+00	0	43	0	3313500160	57	4924
2026-01-13 11:13:52.25	354.34	12.14	-42.9	-45.6	17.4	0.00e+00	0	43	0	3320840192	57	4904
2026-01-13 11:13:53.31	354.26	12.04	-42.9	-45.6	17.5	0.00e+00	0	44	0	3327131648	57	4883
2026-01-13 11:13:54.45	354.17	11.95	-43.0	-45.6	17.5	0.00e+00	0	44	0	3333423104	57	4898
2026-01-13 11:13:55.30	354.11	11.87	-43.1	-45.7	17.4	0.00e+00	0	44	0	3337617408	57	4957
2026-01-13 11:13:56.44	354.02	11.77	-43.2	-45.8	17.3	0.00e+00	0	44	0	3343908864	57	5037
2026-01-13 11:13:57.29	353.96	11.70	-43.2	-45.8	17.2	0.00e+00	0	43	0	3349151744	57	5036
2026-01-13 11:13:58.43	353.88	11.60	-43.4	-45.9	17.2	0.00e+00	0	44	0	3355443200	57	5085
2026-01-13 11:13:59.28	353.81	11.53	-43.4	-45.9	17.2	0.00e+00	0	43	0	3359637504	57	5042
2026-01-13 11:14:00.42	353.73	11.43	-43.5	-45.9	17.2	0.00e+00	0	44	0	3366977536	57	5084
2026-01-13 11:14:01.27	353.67	11.36	-43.4	-45.8	17.3	0.00e+00	0	44	0	3371171840	57	5028
2026-01-13 11:14:02.41	353.59	11.27	-43.5	-45.9	17.2	0.00e+00	0	44	0	3377463296	57	5075
2026-01-13 11:14:03.26	353.53	11.19	-43.5	-46.0	17.1	0.00e+00	0	44	0	3382706176	57	5154
2026-01-13 11:14:04.52	353.44	11.09	-43.4	-45.8	17.3	0.00e+00	0	43	0	3390046208	57	5011
2026-01-13 11:14:05.33	353.38	11.02	-43.4	-45.9	17.2	0.00e+00	0	44	0	3394240512	57	5067
2026-01-13 11:14:06.46	353.31	10.93	-43.4	-45.9	17.1	0.00e+00	0	44	0	3400531968	57	5099
2026-01-13 11:14:07.31	353.25	10.86	-43.5	-46.0	17.0	0.00e+00	0	44	0	3405774848	57	5136
2026-01-13 11:14:08.45	353.17	10.76	-43.5	-46.0	17.1	0.00e+00	0	44	0	3412066304	57	5128
2026-01-13 11:14:09.30	353.11	10.69	-43.5	-46.1	17.0	0.00e+00	0	44	0	3416260608	57	5168
2026-01-13 11:14:10.44	353.03	10.60	-43.7	-46.1	16.9	0.00e+00	0	44	0	3422552064	58	4922
2026-01-13 11:14:11.29	352.97	10.53	-43.8	-46.2	16.8	0.00e+00	0	44	0	3427794944	58	4978
2026-01-13 11:14:12.43	352.90	10.43	-43.7	-46.0	17.0	0.00e+00	0	44	0	3434086400	58	4869
2026-01-13 11:14:13.28	352.84	10.36	-43.8	-46.2	16.9	0.00e+00	0	44	0	3439329280	58	4943
2026-01-13 11:14:14.42	352.77	10.27	-43.8	-46.2	16.9	0.00e+00	0	43	0	3445620736	58	4950
2026-01-13 11:14:15.27	352.71	10.20	-43.9	-46.3	16.8	0.00e+00	0	43	0	3449815040	58	5018
2026-01-13 11:14:16.41	352.63	10.11	-43.8	-46.3	16.8	0.00e+00	0	44	0	3456106496	58	4986
2026-01-13 11:14:17.26	352.58	10.04	-43.7	-46.1	16.9	0.00e+00	0	44	0	3461349376	58	4915
2026-01-13 11:14:18.40	352.50	9.95	-43.7	-46.3	16.8	0.00e+00	0	44	0	3467640832	58	5006
2026-01-13 11:14:19.26	352.45	9.88	-43.7	-46.3	16.8	0.00e+00	0	44	0	3472883712	58	4985
2026-01-13 11:14:20.39	352.38	9.79	-43.8	-46.4	16.6	0.00e+00	0	43	0	3479175168	58	5069
2026-01-13 11:14:21.24	352.32	9.72	-43.7	-46.4	16.7	0.00e+00	0	44	0	3483369472	58	5048
2026-01-13 11:14:22.38	352.25	9.63	-43.3	-46.1	16.9	0.00e+00	0	44	0	3489660928	58	4876
2026-01-13 11:14:23.23	352.20	9.56	-43.3	-46.1	16.9	0.00e+00	0	44	0	3494903808	58	4900
2026-01-13 11:14:24.50	352.12	9.46	-43.3	-46.0	16.9	0.00e+00	0	44	0	3502243840	58	4863
2026-01-13 11:14:25.27	352.07	9.40	-43.4	-46.1	16.9	0.00e+00	0	44	0	3506438144	58	4883
2026-01-13 11:14:26.55	351.99	9.30	-43.5	-46.1	16.8	0.00e+00	0	44	0	3513778176	58	4922
2026-01-13 11:14:27.26	351.95	9.24	-43.5	-46.1	16.9	0.00e+00	0	43	0	3517972480	58	4907
2026-01-13 11:14:28.54	351.87	9.14	-43.8	-46.3	16.7	0.00e+00	0	44	0	3524263936	58	4990
2026-01-13 11:14:29.28	351.82	9.08	-43.7	-46.1	16.9	0.00e+00	0	44	0	3528458240	58	4893
2026-01-13 11:14:30.56	351.75	8.98	-44.2	-47.0	16.0	0.00e+00	0	44	0	3535798272	59	5123
2026-01-13 11:14:31.27	351.70	8.93	-49.9	-64.2	3.8	8.31e-01	0	44	104	3538944000	72	17526
2026-01-13 11:14:32.88	351.61	8.80	-51.8	-64.4	3.8	8.47e-01	0	44	104	3538944000	74	16049
2026-01-13 11:14:33.44	351.57	8.76	-52.3	-64.7	3.8	8.47e-01	0	44	104	3538944000	75	15637
2026-01-13 11:14:35.15	351.47	8.63	-52.4	-64.7	3.8	8.47e-01	0	44	104	3538944000	75	15643
2026-01-13 11:14:35.73	351.44	8.58	-52.2	-64.8	3.8	8.47e-01	0	44	104	3538944000	75	15847
2026-01-13 11:14:37.29	351.35	8.46	-52.8	-64.9	3.8	8.46e-01	0	44	104	3538944000	76	15194
2026-01-13 11:14:38.00	351.31	8.41	-52.8	-64.9	3.8	8.47e-01	0	44	104	3538944000	76	15180
2026-01-13 11:14:39.28	351.23	8.31	-52.6	-65.0	3.8	8.47e-01	0	44	104	3538944000	76	15252
2026-01-13 11:14:39.99	351.19	8.26	-52.5	-65.0	3.8	8.46e-01	0	44	104	3538944000	76	15243
2026-01-13 11:14:41.26	351.12	8.16	-52.8	-65.0	3.8	8.48e-01	0	44	104	3538944000	76	15294
2026-01-13 11:14:42.02	351.08	8.11	-52.8	-65.0	3.8	8.46e-01	0	44	104	3538944000	76	15323
2026-01-13 11:14:43.30	351.00	8.01	-52.8	-65.0	3.8	8.48e-01	0	44	104	3538944000	76	15379
2026-01-13 11:14:44.13	350.96	7.95	-52.9	-65.0	3.8	8.47e-01	0	44	104	3538944000	76	15391
2026-01-13 11:14:45.55	350.88	7.84	-52.8	-65.0	3.8	8.47e-01	0	44	104	3538944000	76	15358
2026-01-13 11:14:46.26	350.84	7.79	-52.9	-65.0	3.8	8.46e-01	0	44	104	3538944000	76	15364
