passes_logs/2026/01/13/T1/T1__20260113_021428_NOAA_20_JPSS-1_rec.log

#Pass ID: 20260113_021428_NOAA 20 (JPSS-1)
#Satellite: NOAA 20 (JPSS-1)
#Configuration: NOAA 20
#almurnet v.1.7.20251203
#Start time: 2026-01-13 02:14:27

#Version: 2.0.20230620
#Station: T1
#Location: 37.570604 lon 55.790049 lat
#TLE: 1 43013U 17073A   26012.29914746  .00000087  00000+0  62270-4 0  9997
#TLE: 2 43013  98.7632 313.2670 0001616  43.2193 316.9110 14.19535514422351

#Time	Az	El	Level	Level2	SNR	BER	BlckErr	Temp	State	Recorded	gain1	gain2
2026-01-13 02:14:27.78	1.38	4.99	-49.1	-66.1	3.8	1.49e+00	0	36	0	0	70	24569
2026-01-13 02:14:28.77	1.27	5.03	-50.1	-65.8	3.8	1.49e+00	0	36	104	0	70	23705
2026-01-13 02:14:29.77	1.15	5.08	-50.1	-65.8	3.8	1.49e+00	0	36	104	0	70	23740
2026-01-13 02:14:30.76	1.04	5.12	-50.1	-65.8	3.8	1.49e+00	0	36	104	0	70	23652
2026-01-13 02:14:31.75	0.92	5.17	-50.1	-65.8	3.8	1.49e+00	0	36	104	0	70	23736
2026-01-13 02:14:32.75	0.81	5.22	-50.1	-65.8	3.8	1.49e+00	0	36	104	0	70	23731
2026-01-13 02:14:33.74	0.69	5.26	-50.1	-65.8	3.8	1.49e+00	0	36	104	0	70	23703
2026-01-13 02:14:34.73	0.58	5.31	-50.1	-65.8	3.8	1.49e+00	0	36	104	0	70	23713
2026-01-13 02:14:35.73	0.46	5.35	-50.1	-65.8	3.8	1.49e+00	0	36	104	0	70	23697
2026-01-13 02:14:36.72	0.34	5.40	-50.1	-65.8	3.8	1.49e+00	0	36	104	0	70	23756
2026-01-13 02:14:37.71	0.23	5.44	-50.1	-65.8	3.8	1.49e+00	0	36	104	0	70	23724
2026-01-13 02:14:38.71	0.11	5.49	-50.1	-65.8	3.8	1.49e+00	0	36	104	0	70	23632
2026-01-13 02:14:39.70	359.99	5.53	-50.1	-65.8	3.8	1.49e+00	0	36	104	0	70	23691
2026-01-13 02:14:40.69	359.87	5.58	-50.1	-65.8	3.8	1.49e+00	0	36	104	0	70	23734
2026-01-13 02:14:41.69	359.75	5.63	-50.1	-65.8	3.8	1.49e+00	0	37	104	0	70	23716
2026-01-13 02:14:42.68	359.63	5.67	-50.1	-65.8	3.8	1.49e+00	0	36	104	0	70	23703
2026-01-13 02:14:43.68	359.51	5.72	-50.1	-65.8	3.8	1.49e+00	0	36	104	0	70	23650
2026-01-13 02:14:44.67	359.39	5.76	-50.1	-65.8	3.8	1.49e+00	0	36	104	0	70	23690
2026-01-13 02:14:45.66	359.27	5.81	-50.1	-65.8	3.8	1.49e+00	0	36	104	0	70	23645
2026-01-13 02:14:46.65	359.15	5.85	-50.1	-65.8	3.8	1.49e+00	0	36	104	0	70	23640
2026-01-13 02:14:47.65	359.03	5.90	-50.1	-65.8	3.8	1.49e+00	0	36	104	0	70	23684
2026-01-13 02:14:48.64	358.91	5.94	-50.1	-65.8	3.8	1.49e+00	0	37	104	0	70	23723
2026-01-13 02:14:49.63	358.79	5.99	-50.0	-65.8	3.8	1.49e+00	0	36	104	0	70	23648
2026-01-13 02:14:50.63	358.66	6.03	-50.0	-65.8	3.8	1.49e+00	0	37	104	0	70	23619
2026-01-13 02:14:51.62	358.54	6.08	-50.0	-65.8	3.8	1.49e+00	0	37	104	0	70	23609
2026-01-13 02:14:52.61	358.42	6.12	-50.0	-65.7	3.8	1.49e+00	0	37	104	0	70	23507
2026-01-13 02:14:53.61	358.30	6.17	-50.0	-65.8	3.8	1.49e+00	0	37	104	0	70	23592
2026-01-13 02:14:54.60	358.17	6.21	-50.0	-65.7	3.8	1.49e+00	0	37	104	0	70	23561
2026-01-13 02:14:55.59	358.05	6.26	-50.0	-65.7	3.8	1.49e+00	0	37	104	0	70	23563
2026-01-13 02:14:56.59	357.92	6.30	-50.0	-65.7	3.8	1.49e+00	0	37	104	0	70	23581
2026-01-13 02:14:57.58	357.80	6.35	-50.0	-65.8	3.8	1.49e+00	0	37	104	0	70	23608
2026-01-13 02:14:58.57	357.67	6.39	-50.0	-65.7	3.8	1.49e+00	0	37	104	0	70	23518
2026-01-13 02:14:59.57	357.55	6.44	-50.0	-65.8	3.8	1.49e+00	0	37	104	0	70	23671
2026-01-13 02:15:00.56	357.42	6.48	-50.0	-65.7	3.8	1.49e+00	0	37	104	0	70	23563
2026-01-13 02:15:01.55	357.29	6.53	-50.0	-65.8	3.8	1.49e+00	0	37	104	0	70	23609
2026-01-13 02:15:02.55	357.17	6.57	-50.0	-65.7	3.8	1.49e+00	0	37	104	0	70	23521
2026-01-13 02:15:03.54	357.04	6.62	-50.0	-65.8	3.8	1.49e+00	0	37	104	0	70	23591
2026-01-13 02:15:04.53	356.91	6.66	-50.0	-65.8	3.8	1.49e+00	0	37	104	0	70	23617
2026-01-13 02:15:05.53	356.78	6.70	-50.0	-65.7	3.8	1.49e+00	0	37	104	0	70	23574
2026-01-13 02:15:06.52	356.66	6.75	-50.0	-65.8	3.8	1.49e+00	0	37	104	0	70	23624
2026-01-13 02:15:07.51	356.53	6.79	-50.0	-65.8	3.8	1.49e+00	0	37	104	0	70	23614
2026-01-13 02:15:08.51	356.40	6.84	-50.0	-65.8	3.8	1.49e+00	0	37	104	0	70	23638
2026-01-13 02:15:09.50	356.27	6.88	-50.0	-65.8	3.8	1.49e+00	0	37	104	0	70	23632
2026-01-13 02:15:10.49	356.14	6.92	-50.0	-65.8	3.8	1.49e+00	0	37	104	0	70	23618
2026-01-13 02:15:11.48	356.01	6.97	-50.0	-65.8	3.8	1.49e+00	0	37	104	0	70	23593
2026-01-13 02:15:12.48	355.88	7.01	-50.0	-65.8	3.8	1.49e+00	0	37	104	0	70	23603
2026-01-13 02:15:13.47	355.74	7.06	-50.0	-65.7	3.8	1.49e+00	0	37	104	0	70	23561
2026-01-13 02:15:14.46	355.61	7.10	-50.0	-65.8	3.8	1.49e+00	0	37	104	0	70	23630
2026-01-13 02:15:15.46	355.48	7.14	-50.0	-65.7	3.8	1.49e+00	0	37	104	0	70	23497
2026-01-13 02:15:16.45	355.35	7.19	-50.0	-65.7	3.8	1.49e+00	0	37	104	0	70	23556
2026-01-13 02:15:17.44	355.21	7.23	-50.0	-65.7	3.8	1.49e+00	0	37	104	0	70	23446
2026-01-13 02:15:18.44	355.08	7.27	-49.8	-65.7	3.8	1.49e+00	0	37	104	0	70	23471
2026-01-13 02:15:19.43	354.95	7.32	-50.0	-65.7	3.8	1.49e+00	0	38	104	0	70	23458
2026-01-13 02:15:20.42	354.81	7.36	-50.0	-65.6	3.8	1.49e+00	0	37	104	0	70	23287
2026-01-13 02:15:21.42	354.68	7.40	-50.0	-65.6	3.8	1.49e+00	0	38	104	0	70	23246
2026-01-13 02:15:22.41	354.54	7.45	-50.0	-65.6	3.8	1.49e+00	0	38	104	0	70	23176
2026-01-13 02:15:23.40	354.41	7.49	-50.0	-65.6	3.8	1.49e+00	0	37	104	0	70	23234
2026-01-13 02:15:24.40	354.27	7.53	-50.0	-65.7	3.8	1.49e+00	0	37	104	0	70	23339
2026-01-13 02:15:25.39	354.14	7.58	-50.0	-65.7	3.8	1.49e+00	0	38	104	0	70	23418
2026-01-13 02:15:26.38	354.00	7.62	-50.0	-65.7	3.8	1.49e+00	0	38	104	0	70	23393
2026-01-13 02:15:27.38	353.86	7.66	-50.0	-65.7	3.8	1.49e+00	0	37	104	0	70	23529
2026-01-13 02:15:28.37	353.72	7.70	-50.0	-65.7	3.8	1.49e+00	0	38	104	0	70	23520
2026-01-13 02:15:29.37	353.58	7.75	-50.0	-65.7	3.8	1.49e+00	0	38	104	0	70	23500
2026-01-13 02:15:30.36	353.45	7.79	-50.0	-65.7	3.8	1.49e+00	0	38	104	0	70	23437
2026-01-13 02:15:31.35	353.31	7.83	-50.0	-65.7	3.8	1.49e+00	0	38	104	0	70	23402
2026-01-13 02:15:32.34	353.17	7.87	-50.0	-65.7	3.8	1.49e+00	0	38	104	0	70	23368
2026-01-13 02:15:33.34	353.03	7.92	-50.0	-65.7	3.8	1.49e+00	0	37	104	0	70	23451
2026-01-13 02:15:34.33	352.89	7.96	-49.9	-65.7	3.8	1.49e+00	0	38	104	0	70	23422
2026-01-13 02:15:35.32	352.75	8.00	-49.9	-65.7	3.8	1.49e+00	0	38	104	0	70	23434
2026-01-13 02:15:36.32	352.61	8.04	-50.0	-65.6	3.8	1.49e+00	0	38	104	0	70	23219
2026-01-13 02:15:37.31	352.47	8.08	-50.0	-65.6	3.8	1.49e+00	0	38	104	0	70	23150
2026-01-13 02:15:38.30	352.33	8.13	-50.0	-65.5	3.8	1.49e+00	0	38	104	0	70	22970
2026-01-13 02:15:39.30	352.18	8.17	-49.9	-65.5	3.8	1.49e+00	0	38	104	0	70	22888
2026-01-13 02:15:40.29	352.04	8.21	-49.9	-65.5	3.8	1.49e+00	0	38	104	0	70	22950
2026-01-13 02:15:41.28	351.90	8.25	-49.9	-65.6	3.8	1.49e+00	0	38	104	0	70	23165
2026-01-13 02:15:42.28	351.75	8.29	-49.9	-65.7	3.8	1.49e+00	0	38	104	0	70	23327
2026-01-13 02:15:43.27	351.61	8.33	-49.9	-65.7	3.8	1.49e+00	0	38	104	0	70	23540
2026-01-13 02:15:44.26	351.47	8.37	-49.9	-65.7	3.8	1.49e+00	0	38	104	0	70	23356
2026-01-13 02:15:45.26	351.32	8.42	-49.9	-65.4	3.8	1.49e+00	0	38	104	0	70	22776
2026-01-13 02:15:46.25	351.18	8.46	-49.9	-65.0	3.8	1.49e+00	0	38	104	0	70	21698
2026-01-13 02:15:47.24	351.03	8.50	-49.9	-64.7	3.8	1.49e+00	0	38	104	0	70	20825
2026-01-13 02:15:48.24	350.88	8.54	-49.9	-64.6	3.8	1.49e+00	0	38	104	0	70	20618
2026-01-13 02:15:49.23	350.74	8.58	-49.9	-64.5	3.8	1.49e+00	0	38	104	0	70	20374
2026-01-13 02:15:50.22	350.59	8.62	-49.8	-64.0	3.8	1.49e+00	0	38	104	0	70	19271
2026-01-13 02:15:51.22	350.44	8.66	-49.8	-62.8	4.0	1.49e+00	0	38	104	0	70	16856
2026-01-13 02:15:52.21	350.30	8.70	-49.6	-61.3	4.5	1.30e+00	0	38	0	0	70	14115
2026-01-13 02:15:53.20	350.15	8.74	-49.5	-60.0	5.1	7.96e-01	0	38	0	2097152	70	12222
2026-01-13 02:15:54.19	350.00	8.78	-49.3	-59.0	5.7	5.26e-01	0	38	0	4194304	70	10882
2026-01-13 02:15:55.19	349.85	8.82	-49.3	-58.4	6.2	3.20e-01	0	38	0	5242880	70	10119
2026-01-13 02:15:56.18	349.70	8.86	-49.1	-57.6	6.8	2.15e-01	0	38	0	7340032	69	9802
2026-01-13 02:15:57.17	349.55	8.90	-48.9	-56.9	7.5	1.31e-01	0	38	0	9437184	69	8974
2026-01-13 02:15:58.16	349.40	8.94	-48.6	-55.9	8.5	6.97e-02	0	38	0	11534336	68	8495
2026-01-13 02:15:59.16	349.25	8.98	-48.3	-54.9	9.4	1.86e-02	0	38	0	12582912	68	7609
2026-01-13 02:16:00.15	349.10	9.02	-47.7	-53.8	10.4	6.60e-03	0	38	0	14680064	67	7104
2026-01-13 02:16:01.15	348.95	9.06	-47.5	-53.5	10.8	1.96e-03	0	38	0	16777216	66	7232
2026-01-13 02:16:02.14	348.80	9.10	-47.2	-64.0	3.8	5.40e-01	0	38	104	17825792	66	24199
2026-01-13 02:16:03.14	348.65	9.13	-46.5	-50.4	13.9	2.13e-05	0	38	0	17825792	64	5718
2026-01-13 02:16:04.13	348.49	9.17	-47.0	-52.3	12.0	1.82e-04	0	38	0	19922944	64	7043
2026-01-13 02:16:05.13	348.34	9.21	-46.2	-50.0	14.3	3.80e-06	0	38	0	22020096	64	5459
2026-01-13 02:16:06.12	348.19	9.25	-46.1	-49.8	14.5	0.00e+00	0	38	0	24117248	64	5322
2026-01-13 02:16:07.16	348.03	9.29	-46.0	-49.9	14.4	0.00e+00	0	38	0	26214400	64	5367
2026-01-13 02:16:08.11	347.88	9.33	-45.9	-49.9	14.5	7.00e-07	0	38	0	27262976	63	5696
2026-01-13 02:16:09.23	347.70	9.37	-45.5	-49.7	14.6	7.00e-07	0	38	0	29360128	63	5585
2026-01-13 02:16:10.11	347.57	9.40	-45.3	-49.8	14.6	0.00e+00	0	38	0	31457280	62	5948
2026-01-13 02:16:11.25	347.39	9.45	-44.8	-49.8	14.5	0.00e+00	0	38	0	33554432	61	6315
2026-01-13 02:16:12.10	347.25	9.48	-44.4	-49.9	14.5	0.00e+00	0	38	0	34603008	60	6746
2026-01-13 02:16:13.24	347.08	9.52	-44.2	-49.9	14.5	7.00e-07	0	38	0	36700160	60	6736
2026-01-13 02:16:14.09	346.94	9.55	-44.2	-50.0	14.4	0.00e+00	0	38	0	38797312	60	6829
2026-01-13 02:16:15.23	346.76	9.60	-44.1	-49.9	14.4	7.00e-07	0	38	0	40894464	59	7169
2026-01-13 02:16:16.08	346.63	9.63	-44.0	-49.8	14.5	7.00e-07	0	38	0	41943040	59	7083
2026-01-13 02:16:17.22	346.44	9.67	-43.8	-49.7	14.6	0.00e+00	0	38	0	44040192	59	7018
2026-01-13 02:16:18.07	346.31	9.70	-43.8	-49.8	14.5	7.00e-07	0	38	0	46137344	59	7061
2026-01-13 02:16:19.20	346.13	9.74	-43.7	-49.7	14.6	0.00e+00	0	38	0	48234496	59	7011
2026-01-13 02:16:20.06	345.99	9.78	-43.8	-49.7	14.6	0.00e+00	0	38	0	50331648	59	6965
2026-01-13 02:16:21.19	345.81	9.82	-44.0	-49.7	14.6	0.00e+00	0	38	0	52428800	59	6962
2026-01-13 02:16:22.43	345.61	9.86	-44.4	-49.7	14.6	0.00e+00	0	38	0	54525952	59	6961
2026-01-13 02:16:23.28	345.47	9.89	-44.4	-49.6	14.8	0.00e+00	0	38	0	55574528	59	6886
2026-01-13 02:16:24.42	345.29	9.93	-44.8	-49.6	14.7	0.00e+00	0	38	0	57671680	60	6560
2026-01-13 02:16:25.27	345.15	9.96	-44.9	-49.6	14.8	0.00e+00	0	38	0	59768832	60	6495
2026-01-13 02:16:26.41	344.96	10.00	-45.0	-49.6	14.8	7.00e-07	0	38	0	61865984	60	6568
2026-01-13 02:16:27.26	344.83	10.03	-45.1	-49.6	14.8	7.00e-07	0	38	0	62914560	60	6563
2026-01-13 02:16:28.40	344.64	10.07	-45.1	-49.6	14.8	0.00e+00	0	38	0	66060288	60	6511
2026-01-13 02:16:29.26	344.50	10.10	-45.2	-49.5	14.9	0.00e+00	0	38	0	67108864	60	6481
2026-01-13 02:16:30.39	344.31	10.14	-45.2	-49.5	14.8	0.00e+00	0	38	0	69206016	61	6122
2026-01-13 02:16:31.25	344.17	10.17	-45.3	-49.6	14.8	0.00e+00	0	38	0	71303168	61	6196
2026-01-13 02:16:32.38	343.98	10.21	-45.5	-49.6	14.8	0.00e+00	0	38	0	73400320	61	6184
2026-01-13 02:16:33.23	343.84	10.24	-45.6	-49.7	14.7	0.00e+00	0	38	0	74448896	61	6265
2026-01-13 02:16:34.58	343.62	10.29	-45.9	-49.9	14.5	0.00e+00	0	38	0	77594624	62	6022
2026-01-13 02:16:35.29	343.50	10.31	-46.0	-49.9	14.6	0.00e+00	0	38	0	78643200	62	6018
2026-01-13 02:16:36.57	343.29	10.36	-46.1	-49.9	14.5	7.00e-07	0	38	0	80740352	62	5998
2026-01-13 02:16:37.29	343.17	10.38	-46.0	-49.9	14.6	0.00e+00	0	38	0	81788928	62	6003
2026-01-13 02:16:38.57	342.95	10.42	-45.8	-49.7	14.7	0.00e+00	0	38	0	84934656	62	5899
2026-01-13 02:16:39.29	342.83	10.45	-45.8	-49.7	14.7	0.00e+00	0	38	0	85983232	62	5905
2026-01-13 02:16:40.57	342.62	10.49	-45.9	-50.0	14.5	7.00e-07	0	38	0	88080384	62	6067
2026-01-13 02:16:41.29	342.49	10.51	-45.9	-49.9	14.5	7.00e-07	0	38	0	90177536	62	6039
2026-01-13 02:16:42.57	342.28	10.55	-46.1	-50.2	14.3	0.00e+00	0	38	0	92274688	62	6218
2026-01-13 02:16:43.28	342.16	10.58	-46.2	-50.2	14.3	1.50e-06	0	38	0	93323264	62	6220
2026-01-13 02:16:44.56	341.94	10.62	-46.2	-50.1	14.3	2.20e-06	0	38	0	95420416	63	5835
2026-01-13 02:16:45.27	341.82	10.64	-46.2	-50.1	14.4	1.50e-06	0	38	0	97517568	63	5805
2026-01-13 02:16:46.54	341.60	10.68	-46.2	-50.1	14.3	7.00e-07	0	38	0	99614720	63	5817
2026-01-13 02:16:47.27	341.48	10.71	-46.0	-50.0	14.4	0.00e+00	0	38	0	100663296	63	5753
2026-01-13 02:16:48.55	341.26	10.75	-45.8	-49.8	14.6	1.50e-06	0	38	0	103809024	63	5648
2026-01-13 02:16:49.26	341.14	10.77	-45.7	-49.8	14.6	7.00e-07	0	38	0	104857600	63	5652
2026-01-13 02:16:50.66	340.90	10.81	-45.4	-49.7	14.8	0.00e+00	0	38	0	106954752	62	5864
2026-01-13 02:16:51.38	340.77	10.83	-45.4	-49.6	14.8	0.00e+00	0	38	0	109051904	62	5826
2026-01-13 02:16:52.67	340.55	10.87	-45.4	-49.8	14.7	0.00e+00	0	38	0	111149056	62	5949
2026-01-13 02:16:53.38	340.42	10.89	-45.3	-49.8	14.7	0.00e+00	0	38	0	112197632	62	5936
2026-01-13 02:16:54.75	340.19	10.94	-45.4	-50.0	14.5	0.00e+00	0	38	0	115343360	62	6082
2026-01-13 02:16:55.46	340.06	10.96	-45.5	-50.0	14.5	1.50e-06	0	38	0	116391936	62	6087
2026-01-13 02:16:56.76	339.84	11.00	-45.5	-49.9	14.6	0.00e+00	0	38	0	118489088	62	6003
2026-01-13 02:16:57.47	339.71	11.02	-45.6	-49.9	14.6	1.50e-06	0	38	0	119537664	62	6041
2026-01-13 02:16:58.75	339.49	11.05	-45.5	-49.7	14.7	1.50e-06	0	38	0	122683392	62	5897
2026-01-13 02:16:59.47	339.36	11.07	-45.6	-49.7	14.7	7.00e-07	0	38	0	123731968	62	5913
2026-01-13 02:17:00.75	339.14	11.11	-45.6	-49.6	14.9	0.00e+00	0	38	0	125829120	62	5798
2026-01-13 02:17:01.48	339.01	11.13	-45.7	-49.6	14.9	0.00e+00	0	38	0	127926272	62	5819
2026-01-13 02:17:02.76	338.78	11.17	-45.9	-49.7	14.8	0.00e+00	0	38	0	130023424	62	5868
2026-01-13 02:17:03.48	338.65	11.19	-45.9	-49.7	14.8	0.00e+00	0	38	0	131072000	62	5873
2026-01-13 02:17:04.76	338.43	11.22	-46.1	-49.8	14.7	7.00e-07	0	38	0	134217728	62	5959
2026-01-13 02:17:05.47	338.30	11.24	-46.2	-49.9	14.5	0.00e+00	0	38	0	135266304	63	5716
2026-01-13 02:17:06.75	338.07	11.28	-46.1	-49.7	14.7	0.00e+00	0	38	0	137363456	63	5587
2026-01-13 02:17:07.61	337.92	11.30	-46.0	-49.7	14.8	7.00e-07	0	38	0	139460608	63	5535
2026-01-13 02:17:08.74	337.72	11.33	-46.0	-49.6	14.9	0.00e+00	0	39	0	141557760	63	5508
2026-01-13 02:17:09.59	337.57	11.35	-46.0	-49.7	14.8	7.00e-07	0	38	0	142606336	63	5544
2026-01-13 02:17:11.08	337.30	11.39	-46.0	-49.6	14.9	0.00e+00	0	38	0	145752064	63	5475
2026-01-13 02:17:11.79	337.17	11.41	-46.0	-49.7	14.8	7.00e-07	0	39	0	146800640	63	5563
2026-01-13 02:17:13.07	336.94	11.45	-45.9	-49.8	14.7	0.00e+00	0	38	0	148897792	63	5607
2026-01-13 02:17:13.79	336.81	11.46	-46.0	-49.9	14.5	0.00e+00	0	38	0	150994944	63	5710
2026-01-13 02:17:15.07	336.58	11.50	-45.8	-49.9	14.5	0.00e+00	0	38	0	153092096	63	5718
2026-01-13 02:17:15.80	336.45	11.52	-45.7	-49.8	14.7	0.00e+00	0	38	0	154140672	63	5616
2026-01-13 02:17:17.08	336.22	11.55	-45.6	-49.7	14.8	0.00e+00	0	38	0	157286400	63	5545
2026-01-13 02:17:17.88	336.07	11.57	-45.6	-49.7	14.8	0.00e+00	0	38	0	158334976	63	5574
2026-01-13 02:17:19.02	335.86	11.59	-45.7	-49.7	14.8	7.00e-07	0	38	0	160432128	63	5543
2026-01-13 02:17:19.87	335.71	11.61	-45.9	-49.8	14.7	0.00e+00	0	38	0	162529280	63	5607
2026-01-13 02:17:21.00	335.50	11.64	-45.9	-49.7	14.8	0.00e+00	0	38	0	164626432	63	5550
2026-01-13 02:17:21.86	335.34	11.66	-45.9	-49.6	14.8	0.00e+00	0	38	0	165675008	63	5524
2026-01-13 02:17:22.99	335.14	11.69	-46.0	-49.7	14.8	0.00e+00	0	38	0	167772160	63	5541
2026-01-13 02:17:23.84	334.98	11.71	-46.0	-49.7	14.8	0.00e+00	0	38	0	169869312	63	5558
2026-01-13 02:17:25.03	334.76	11.73	-46.0	-49.8	14.7	0.00e+00	0	38	0	171966464	63	5599
2026-01-13 02:17:25.88	334.61	11.75	-46.0	-49.8	14.7	0.00e+00	0	38	0	173015040	63	5608
2026-01-13 02:17:27.07	334.39	11.78	-46.1	-49.9	14.7	0.00e+00	0	38	0	175112192	63	5659
2026-01-13 02:17:27.92	334.23	11.80	-46.1	-49.8	14.8	1.50e-06	0	38	0	177209344	63	5613
2026-01-13 02:17:29.03	334.03	11.82	-46.1	-49.6	14.9	0.00e+00	0	38	0	179306496	63	5513
2026-01-13 02:17:29.88	333.87	11.84	-46.1	-49.7	14.8	0.00e+00	0	38	0	180355072	63	5572
2026-01-13 02:17:31.02	333.66	11.87	-46.1	-49.6	14.9	0.00e+00	0	38	0	183500800	63	5497
2026-01-13 02:17:31.87	333.50	11.88	-46.2	-49.7	14.8	0.00e+00	0	38	0	184549376	63	5586
2026-01-13 02:17:33.01	333.29	11.91	-46.2	-49.9	14.7	1.50e-06	0	38	0	186646528	63	5674
2026-01-13 02:17:33.86	333.13	11.92	-46.3	-50.0	14.5	0.00e+00	0	39	0	188743680	63	5749
2026-01-13 02:17:34.99	332.92	11.95	-46.2	-50.1	14.4	1.50e-06	0	39	0	190840832	63	5835
2026-01-13 02:17:35.85	332.76	11.96	-46.2	-50.1	14.4	2.20e-06	0	38	0	191889408	63	5848
2026-01-13 02:17:36.98	332.55	11.99	-46.2	-50.2	14.3	0.00e+00	0	38	0	193986560	63	5918
2026-01-13 02:17:37.84	332.38	12.00	-46.2	-50.3	14.3	7.00e-07	0	38	0	196083712	63	5945
2026-01-13 02:17:38.97	332.17	12.02	-46.2	-50.2	14.3	1.50e-06	0	38	0	198180864	63	5923
2026-01-13 02:17:39.83	332.01	12.04	-46.3	-50.2	14.3	1.50e-06	0	38	0	199229440	63	5881
2026-01-13 02:17:41.08	331.78	12.06	-46.6	-50.3	14.3	0.00e+00	0	38	0	202375168	63	5954
2026-01-13 02:17:41.93	331.62	12.08	-46.6	-50.4	14.2	1.50e-06	0	38	0	203423744	63	6004
2026-01-13 02:17:43.07	331.40	12.10	-46.7	-50.4	14.1	1.50e-06	0	38	0	205520896	63	6031
2026-01-13 02:17:43.92	331.24	12.11	-46.7	-50.4	14.1	7.00e-07	0	38	0	207618048	63	6058
2026-01-13 02:17:45.06	331.03	12.13	-46.6	-50.4	14.2	7.00e-07	0	39	0	209715200	63	5998
2026-01-13 02:17:45.91	330.87	12.15	-46.6	-50.5	14.1	1.50e-06	0	38	0	210763776	63	6104
2026-01-13 02:17:47.04	330.65	12.17	-46.5	-50.4	14.1	0.00e+00	0	38	0	212860928	63	6049
2026-01-13 02:17:47.90	330.49	12.18	-46.4	-50.5	14.1	1.50e-06	0	38	0	214958080	63	6064
2026-01-13 02:17:49.04	330.27	12.20	-46.4	-50.4	14.2	7.00e-07	0	39	0	217055232	63	6000
2026-01-13 02:17:50.09	330.07	12.21	-46.4	-50.4	14.2	7.00e-07	0	38	0	219152384	63	6027
2026-01-13 02:17:50.96	329.91	12.23	-46.4	-50.3	14.3	7.00e-07	0	39	0	220200960	63	5948
2026-01-13 02:17:52.10	329.69	12.24	-46.5	-50.3	14.3	2.20e-06	0	38	0	222298112	63	5931
2026-01-13 02:17:52.95	329.53	12.26	-46.6	-50.3	14.3	1.50e-06	0	38	0	224395264	63	5927
2026-01-13 02:17:54.08	329.31	12.27	-46.5	-50.1	14.5	7.00e-07	0	38	0	226492416	63	5841
2026-01-13 02:17:55.27	329.08	12.29	-46.5	-50.3	14.4	0.00e+00	0	38	0	228589568	63	5924
2026-01-13 02:17:56.29	328.89	12.30	-46.4	-50.1	14.5	1.50e-06	0	39	0	230686720	63	5836
2026-01-13 02:17:57.46	328.67	12.32	-46.3	-50.1	14.5	0.00e+00	0	38	0	232783872	63	5822
2026-01-13 02:17:58.31	328.50	12.33	-46.3	-50.1	14.5	0.00e+00	0	38	0	233832448	63	5819
2026-01-13 02:17:59.45	328.28	12.35	-46.3	-50.0	14.6	0.00e+00	0	38	0	235929600	63	5781
2026-01-13 02:18:00.30	328.12	12.36	-46.3	-50.0	14.6	0.00e+00	0	38	0	238026752	63	5773
2026-01-13 02:18:01.44	327.90	12.37	-46.3	-49.9	14.7	0.00e+00	0	38	0	240123904	63	5716
2026-01-13 02:18:02.29	327.74	12.38	-46.3	-49.9	14.7	0.00e+00	0	39	0	241172480	63	5675
2026-01-13 02:18:03.43	327.52	12.39	-46.3	-50.0	14.7	0.00e+00	0	38	0	243269632	63	5730
2026-01-13 02:18:04.28	327.36	12.40	-46.3	-49.9	14.8	0.00e+00	0	38	0	245366784	63	5679
2026-01-13 02:18:05.42	327.14	12.42	-46.3	-50.0	14.6	0.00e+00	0	38	0	247463936	63	5769
2026-01-13 02:18:06.27	326.97	12.43	-46.4	-50.1	14.6	0.00e+00	0	38	0	249561088	63	5800
2026-01-13 02:18:07.41	326.75	12.44	-46.3	-50.0	14.6	7.00e-07	0	38	0	251658240	63	5759
2026-01-13 02:18:08.26	326.59	12.45	-46.4	-50.1	14.5	0.00e+00	0	39	0	252706816	63	5814
2026-01-13 02:18:09.40	326.37	12.46	-46.3	-50.1	14.5	0.00e+00	0	38	0	254803968	63	5825
2026-01-13 02:18:10.25	326.20	12.46	-46.3	-50.1	14.5	0.00e+00	0	39	0	256901120	63	5844
2026-01-13 02:18:11.50	325.96	12.48	-46.2	-50.1	14.6	7.00e-07	0	39	0	258998272	63	5809
2026-01-13 02:18:12.35	325.80	12.48	-46.1	-50.2	14.5	0.00e+00	0	39	0	260046848	63	5856
2026-01-13 02:18:13.48	325.58	12.49	-46.2	-50.3	14.4	1.50e-06	0	38	0	262144000	63	5939
2026-01-13 02:18:14.34	325.41	12.50	-46.0	-50.0	14.6	0.00e+00	0	38	0	264241152	63	5753
2026-01-13 02:18:15.60	325.17	12.51	-46.0	-49.9	14.7	0.00e+00	0	38	0	266338304	63	5705
2026-01-13 02:18:16.39	325.01	12.52	-45.9	-49.9	14.8	0.00e+00	0	38	0	268435456	63	5661
2026-01-13 02:18:17.59	324.78	12.52	-45.9	-49.8	14.8	0.00e+00	0	39	0	270532608	63	5644
2026-01-13 02:18:18.44	324.61	12.53	-45.9	-49.8	14.9	7.00e-07	0	39	0	271581184	63	5626
2026-01-13 02:18:19.58	324.39	12.54	-45.9	-49.9	14.8	7.00e-07	0	39	0	273678336	63	5677
2026-01-13 02:18:20.43	324.23	12.54	-45.9	-49.8	14.9	0.00e+00	0	38	0	275775488	63	5611
2026-01-13 02:18:21.57	324.01	12.55	-45.8	-49.7	14.9	0.00e+00	0	39	0	277872640	63	5567
2026-01-13 02:18:22.57	323.81	12.55	-45.9	-49.7	14.9	0.00e+00	0	38	0	279969792	63	5579
2026-01-13 02:18:23.73	323.58	12.56	-45.9	-49.6	15.0	0.00e+00	0	39	0	282066944	63	5522
2026-01-13 02:18:24.62	323.41	12.57	-46.1	-49.6	15.0	0.00e+00	0	38	0	283115520	63	5521
2026-01-13 02:18:25.75	323.19	12.57	-46.1	-49.6	15.1	0.00e+00	0	38	0	285212672	63	5476
2026-01-13 02:18:26.67	323.01	12.57	-46.2	-49.6	15.1	0.00e+00	0	38	0	287309824	63	5501
2026-01-13 02:18:27.84	322.78	12.58	-46.2	-49.5	15.2	0.00e+00	0	38	0	289406976	63	5425
2026-01-13 02:18:28.69	322.62	12.58	-46.2	-49.6	15.1	0.00e+00	0	38	0	291504128	63	5488
2026-01-13 02:18:29.83	322.39	12.59	-46.1	-49.5	15.1	0.00e+00	0	38	0	293601280	63	5426
2026-01-13 02:18:30.68	322.23	12.59	-46.0	-49.3	15.3	0.00e+00	0	38	0	294649856	63	5326
2026-01-13 02:18:31.82	322.01	12.59	-46.0	-49.3	15.4	0.00e+00	0	38	0	296747008	63	5293
2026-01-13 02:18:32.67	321.84	12.59	-46.0	-49.3	15.4	0.00e+00	0	38	0	298844160	63	5291
2026-01-13 02:18:33.81	321.62	12.59	-46.1	-49.3	15.3	0.00e+00	0	38	0	300941312	63	5330
2026-01-13 02:18:34.66	321.45	12.60	-46.1	-49.4	15.3	0.00e+00	0	38	0	301989888	63	5356
2026-01-13 02:18:35.80	321.23	12.60	-46.1	-49.5	15.3	7.00e-07	0	38	0	304087040	63	5403
2026-01-13 02:18:36.65	321.06	12.60	-46.1	-49.5	15.2	0.00e+00	0	38	0	306184192	63	5403
2026-01-13 02:18:37.79	320.84	12.60	-46.0	-49.5	15.2	0.00e+00	0	38	0	308281344	63	5436
2026-01-13 02:18:38.64	320.67	12.60	-46.0	-49.5	15.1	0.00e+00	0	39	0	309329920	63	5454
2026-01-13 02:18:39.77	320.45	12.60	-46.0	-49.5	15.2	0.00e+00	0	38	0	311427072	63	5450
2026-01-13 02:18:40.63	320.29	12.60	-46.0	-49.6	15.1	0.00e+00	0	38	0	313524224	63	5484
2026-01-13 02:18:41.76	320.06	12.60	-46.1	-49.5	15.1	0.00e+00	0	38	0	315621376	63	5464
2026-01-13 02:18:42.62	319.90	12.60	-46.1	-49.5	15.2	0.00e+00	0	38	0	317718528	63	5447
2026-01-13 02:18:43.90	319.65	12.60	-46.1	-49.4	15.3	0.00e+00	0	39	0	319815680	63	5377
2026-01-13 02:18:44.62	319.51	12.59	-46.1	-49.5	15.2	0.00e+00	0	38	0	320864256	63	5416
2026-01-13 02:18:45.90	319.26	12.59	-46.2	-49.5	15.1	0.00e+00	0	38	0	322961408	63	5444
2026-01-13 02:18:46.63	319.11	12.59	-46.2	-49.6	15.1	0.00e+00	0	39	0	325058560	63	5487
2026-01-13 02:18:47.90	318.87	12.59	-46.1	-49.4	15.3	0.00e+00	0	38	0	327155712	63	5382
2026-01-13 02:18:48.66	318.72	12.58	-46.0	-49.3	15.4	0.00e+00	0	38	0	328204288	63	5316
2026-01-13 02:18:49.94	318.47	12.58	-46.0	-49.4	15.3	0.00e+00	0	38	0	331350016	63	5354
2026-01-13 02:18:50.66	318.33	12.58	-46.0	-49.4	15.3	0.00e+00	0	38	0	332398592	63	5391
2026-01-13 02:18:51.93	318.08	12.57	-45.8	-49.3	15.4	0.00e+00	0	38	0	334495744	63	5331
2026-01-13 02:18:52.66	317.94	12.57	-45.8	-49.3	15.4	0.00e+00	0	38	0	335544320	63	5296
2026-01-13 02:18:53.94	317.69	12.56	-45.9	-49.4	15.3	0.00e+00	0	38	0	338690048	63	5385
2026-01-13 02:18:54.65	317.55	12.56	-45.8	-49.4	15.2	0.00e+00	0	38	0	339738624	63	5383
2026-01-13 02:18:55.93	317.30	12.55	-45.6	-49.1	15.6	0.00e+00	0	39	0	341835776	63	5215
2026-01-13 02:18:56.66	317.16	12.55	-45.6	-49.2	15.4	0.00e+00	0	38	0	343932928	63	5253
2026-01-13 02:18:57.94	316.91	12.54	-45.6	-49.2	15.5	0.00e+00	0	38	0	346030080	63	5256
2026-01-13 02:18:58.65	316.77	12.54	-45.7	-49.3	15.3	0.00e+00	0	38	0	347078656	63	5337
2026-01-13 02:19:00.02	316.50	12.53	-45.9	-49.6	15.1	0.00e+00	0	39	0	350224384	63	5468
2026-01-13 02:19:00.73	316.37	12.52	-46.0	-49.6	15.0	7.00e-07	0	38	0	351272960	63	5515
2026-01-13 02:19:02.01	316.12	12.51	-46.1	-49.7	15.0	0.00e+00	0	39	0	353370112	63	5572
2026-01-13 02:19:02.72	315.98	12.51	-46.3	-49.8	14.9	0.00e+00	0	38	0	355467264	63	5641
2026-01-13 02:19:04.00	315.73	12.50	-46.4	-49.9	14.7	7.00e-07	0	38	0	357564416	63	5716
2026-01-13 02:19:04.73	315.59	12.49	-46.5	-50.1	14.6	7.00e-07	0	38	0	358612992	63	5839
2026-01-13 02:19:06.00	315.34	12.48	-46.6	-50.2	14.4	0.00e+00	0	38	0	360710144	64	5550
2026-01-13 02:19:06.73	315.20	12.47	-46.6	-50.2	14.4	0.00e+00	0	38	0	362807296	64	5570
2026-01-13 02:19:08.01	314.95	12.46	-46.6	-50.3	14.3	1.50e-06	0	38	0	364904448	64	5598
2026-01-13 02:19:08.75	314.81	12.46	-46.6	-50.2	14.4	0.00e+00	0	38	0	365953024	64	5563
2026-01-13 02:19:10.02	314.56	12.44	-46.6	-50.2	14.4	7.00e-07	0	38	0	369098752	64	5563
2026-01-13 02:19:10.75	314.42	12.44	-46.5	-50.1	14.5	0.00e+00	0	38	0	370147328	64	5488
2026-01-13 02:19:12.03	314.18	12.42	-46.4	-50.0	14.6	7.00e-07	0	38	0	372244480	64	5424
2026-01-13 02:19:12.75	314.04	12.41	-46.5	-50.1	14.5	0.00e+00	0	38	0	373293056	64	5469
2026-01-13 02:19:14.03	313.79	12.40	-46.4	-50.0	14.6	7.00e-07	0	39	0	376438784	64	5430
2026-01-13 02:19:14.76	313.65	12.39	-46.5	-50.0	14.5	0.00e+00	0	39	0	377487360	64	5455
2026-01-13 02:19:16.03	313.40	12.38	-46.5	-50.0	14.6	7.00e-07	0	38	0	379584512	64	5444
2026-01-13 02:19:16.76	313.26	12.37	-46.5	-50.1	14.4	7.00e-07	0	39	0	381681664	64	5521
2026-01-13 02:19:18.04	313.02	12.35	-46.4	-50.2	14.4	7.00e-07	0	38	0	383778816	64	5540
2026-01-13 02:19:18.75	312.88	12.34	-46.4	-50.2	14.4	7.00e-07	0	39	0	384827392	64	5540
2026-01-13 02:19:20.09	312.62	12.33	-46.4	-50.3	14.2	7.00e-07	0	39	0	387973120	64	5631
2026-01-13 02:19:20.81	312.49	12.32	-46.5	-50.3	14.2	1.50e-06	0	38	0	389021696	64	5652
2026-01-13 02:19:22.09	312.24	12.30	-46.4	-50.3	14.3	0.00e+00	0	38	0	391118848	64	5597
2026-01-13 02:19:22.81	312.10	12.29	-46.5	-50.3	14.3	0.00e+00	0	38	0	392167424	64	5621
2026-01-13 02:19:24.21	311.84	12.27	-46.4	-50.2	14.3	7.00e-07	0	39	0	395313152	64	5588
2026-01-13 02:19:24.93	311.70	12.26	-46.4	-50.3	14.3	7.00e-07	0	38	0	396361728	64	5598
2026-01-13 02:19:26.21	311.45	12.24	-46.5	-50.4	14.2	1.50e-06	0	39	0	398458880	64	5680
2026-01-13 02:19:26.93	311.32	12.23	-46.5	-50.4	14.2	1.50e-06	0	38	0	400556032	64	5697
2026-01-13 02:19:28.21	311.07	12.21	-46.6	-50.5	14.1	7.00e-07	0	38	0	402653184	64	5732
2026-01-13 02:19:28.95	310.93	12.20	-46.6	-50.5	14.1	3.80e-06	0	38	0	403701760	64	5727
2026-01-13 02:19:30.23	310.69	12.18	-46.7	-50.5	14.0	7.00e-07	0	39	0	406847488	64	5788
2026-01-13 02:19:30.94	310.55	12.17	-46.7	-50.6	14.0	3.80e-06	0	38	0	407896064	64	5796
2026-01-13 02:19:32.22	310.31	12.15	-46.7	-50.6	14.0	1.50e-06	0	38	0	409993216	64	5800
2026-01-13 02:19:32.96	310.17	12.13	-46.7	-50.5	14.0	7.00e-07	0	39	0	412090368	64	5773
2026-01-13 02:19:34.24	309.93	12.11	-46.7	-50.5	14.1	1.50e-06	0	39	0	414187520	64	5731
2026-01-13 02:19:35.04	309.78	12.10	-46.7	-50.5	14.1	7.00e-07	0	38	0	415236096	64	5726
2026-01-13 02:19:36.48	309.51	12.07	-46.5	-50.1	14.4	3.00e-06	0	39	0	418381824	64	5513
2026-01-13 02:19:37.19	309.37	12.06	-46.4	-50.0	14.6	0.00e+00	0	39	0	419430400	64	5409
2026-01-13 02:19:38.47	309.13	12.03	-46.4	-50.0	14.6	0.00e+00	0	39	0	421527552	64	5403
2026-01-13 02:19:39.18	309.00	12.02	-46.3	-49.8	14.7	0.00e+00	0	39	0	423624704	64	5335
2026-01-13 02:19:40.46	308.76	12.00	-46.4	-49.9	14.6	0.00e+00	0	39	0	425721856	64	5402
2026-01-13 02:19:41.26	308.61	11.98	-46.4	-49.9	14.6	7.00e-07	0	39	0	426770432	64	5396
2026-01-13 02:19:42.40	308.39	11.96	-46.5	-50.0	14.5	0.00e+00	0	38	0	428867584	64	5442
2026-01-13 02:19:43.25	308.23	11.94	-46.6	-50.2	14.4	0.00e+00	0	39	0	430964736	64	5545
2026-01-13 02:19:44.39	308.02	11.92	-46.7	-50.3	14.2	1.50e-06	0	39	0	433061888	64	5646
2026-01-13 02:19:45.24	307.86	11.90	-46.7	-50.3	14.2	7.00e-07	0	38	0	435159040	64	5656
2026-01-13 02:19:46.38	307.65	11.88	-46.7	-50.5	14.1	2.20e-06	0	38	0	437256192	64	5747
2026-01-13 02:19:47.23	307.49	11.86	-46.6	-50.4	14.2	2.20e-06	0	38	0	438304768	64	5692
2026-01-13 02:19:48.37	307.28	11.84	-46.6	-50.4	14.1	4.50e-06	0	39	0	440401920	64	5714
2026-01-13 02:19:49.22	307.12	11.82	-46.6	-50.4	14.2	1.50e-06	0	39	0	442499072	64	5693
2026-01-13 02:19:50.36	306.91	11.79	-46.6	-50.4	14.2	1.50e-06	0	38	0	444596224	64	5674
2026-01-13 02:19:51.21	306.76	11.77	-46.7	-50.5	14.1	3.80e-06	0	38	0	445644800	64	5743
2026-01-13 02:19:52.35	306.54	11.75	-46.5	-50.4	14.2	0.00e+00	0	39	0	447741952	64	5683
2026-01-13 02:19:53.20	306.39	11.73	-46.6	-50.5	14.1	0.00e+00	0	38	0	449839104	64	5727
2026-01-13 02:19:54.33	306.18	11.70	-46.6	-50.4	14.2	0.00e+00	0	38	0	451936256	64	5687
2026-01-13 02:19:55.27	306.01	11.68	-46.5	-50.3	14.3	0.00e+00	0	38	0	452984832	64	5609
2026-01-13 02:19:56.43	305.79	11.66	-46.7	-50.3	14.2	0.00e+00	0	39	0	456130560	64	5651
2026-01-13 02:19:57.29	305.64	11.64	-46.7	-50.5	14.1	2.20e-06	0	39	0	457179136	64	5739
2026-01-13 02:19:58.42	305.43	11.61	-46.7	-50.4	14.2	1.50e-06	0	39	0	459276288	64	5668
2026-01-13 02:19:59.40	305.25	11.58	-46.7	-50.4	14.1	1.50e-06	0	38	0	461373440	64	5691
2026-01-13 02:20:00.40	305.07	11.56	-46.8	-50.6	14.0	2.20e-06	0	39	0	463470592	64	5790
2026-01-13 02:20:01.39	304.89	11.54	-46.8	-50.5	14.0	1.50e-06	0	39	0	464519168	64	5764
2026-01-13 02:20:02.39	304.71	11.51	-46.8	-50.6	13.9	3.80e-06	0	39	0	466616320	64	5829
2026-01-13 02:20:03.38	304.53	11.49	-46.8	-50.6	13.9	4.50e-06	0	38	0	468713472	64	5802
2026-01-13 02:20:04.38	304.35	11.46	-46.9	-50.7	13.8	5.30e-06	0	38	0	470810624	64	5885
2026-01-13 02:20:05.37	304.17	11.43	-46.9	-50.8	13.7	3.00e-06	0	39	0	472907776	64	5968
2026-01-13 02:20:06.37	303.99	11.41	-47.0	-50.9	13.7	4.50e-06	0	39	0	473956352	64	5999
2026-01-13 02:20:07.36	303.81	11.38	-46.9	-50.9	13.7	1.44e-05	0	39	0	476053504	64	6007
2026-01-13 02:20:08.35	303.63	11.36	-46.9	-50.8	13.7	5.30e-06	0	39	0	478150656	64	5973
2026-01-13 02:20:09.35	303.45	11.33	-46.9	-50.8	13.7	7.60e-06	0	38	0	480247808	64	5929
2026-01-13 02:20:10.36	303.27	11.30	-46.8	-50.6	13.9	9.10e-06	0	39	0	481296384	64	5838
2026-01-13 02:20:11.35	303.09	11.28	-46.7	-50.4	14.1	3.00e-06	0	38	0	483393536	64	5710
2026-01-13 02:20:12.35	302.92	11.25	-46.7	-50.4	14.0	2.20e-06	0	39	0	485490688	64	5716
2026-01-13 02:20:13.44	302.72	11.22	-46.7	-50.4	14.1	3.80e-06	0	39	0	487587840	64	5699
2026-01-13 02:20:14.32	302.57	11.19	-46.8	-50.5	14.0	1.50e-06	0	39	0	489684992	64	5748
2026-01-13 02:20:15.46	302.36	11.16	-46.9	-50.6	13.8	2.20e-06	0	39	0	491782144	64	5848
2026-01-13 02:20:16.31	302.21	11.14	-46.8	-50.6	13.9	3.00e-06	0	38	0	492830720	64	5818
2026-01-13 02:20:17.67	301.97	11.10	-47.0	-50.9	13.6	6.80e-06	0	38	0	495976448	64	6026
2026-01-13 02:20:18.38	301.85	11.08	-47.0	-50.9	13.6	8.30e-06	0	38	0	497025024	64	6046
2026-01-13 02:20:19.66	301.62	11.04	-47.1	-51.0	13.5	1.22e-05	0	39	0	499122176	64	6071
2026-01-13 02:20:20.38	301.50	11.02	-47.1	-51.1	13.4	9.90e-06	0	39	0	500170752	64	6151
2026-01-13 02:20:21.66	301.27	10.98	-47.1	-51.0	13.5	1.06e-05	0	39	0	503316480	64	6102
2026-01-13 02:20:22.37	301.15	10.96	-47.1	-51.0	13.5	9.90e-06	0	39	0	504365056	64	6111
2026-01-13 02:20:23.65	300.92	10.92	-47.1	-51.0	13.6	6.80e-06	0	39	0	506462208	64	6065
2026-01-13 02:20:24.39	300.79	10.90	-47.1	-51.0	13.5	5.30e-06	0	39	0	508559360	64	6105
2026-01-13 02:20:25.67	300.57	10.86	-47.0	-50.9	13.5	6.80e-06	0	38	0	510656512	64	6053
2026-01-13 02:20:26.38	300.45	10.84	-47.0	-50.9	13.6	6.10e-06	0	39	0	511705088	64	6015
2026-01-13 02:20:27.66	300.23	10.80	-46.8	-50.6	13.9	3.80e-06	0	39	0	513802240	64	5840
2026-01-13 02:20:28.38	300.10	10.78	-46.8	-50.5	14.0	4.50e-06	0	39	0	515899392	64	5755
2026-01-13 02:20:29.66	299.88	10.74	-46.6	-50.2	14.2	7.00e-07	0	38	0	517996544	64	5583
2026-01-13 02:20:30.37	299.76	10.72	-46.6	-50.3	14.2	1.50e-06	0	39	0	519045120	64	5594
2026-01-13 02:20:31.67	299.54	10.67	-46.6	-50.3	14.1	1.50e-06	0	39	0	522190848	64	5642
2026-01-13 02:20:32.38	299.42	10.65	-46.6	-50.3	14.2	0.00e+00	0	38	0	523239424	64	5605
2026-01-13 02:20:33.66	299.20	10.61	-46.6	-50.3	14.1	4.50e-06	0	39	0	525336576	64	5649
2026-01-13 02:20:34.37	299.08	10.59	-46.7	-50.4	14.0	7.00e-07	0	39	0	526385152	64	5693
2026-01-13 02:20:35.74	298.84	10.54	-46.7	-50.4	14.0	4.50e-06	0	39	0	529530880	64	5703
2026-01-13 02:20:36.45	298.72	10.52	-46.8	-50.5	13.9	1.50e-06	0	39	0	530579456	64	5759
2026-01-13 02:20:37.73	298.51	10.48	-46.7	-50.4	14.0	5.30e-06	0	39	0	532676608	64	5711
2026-01-13 02:20:38.45	298.38	10.45	-46.7	-50.4	14.1	2.20e-06	0	39	0	534773760	64	5686
2026-01-13 02:20:39.73	298.17	10.41	-46.8	-50.6	13.8	7.00e-07	0	39	0	536870912	64	5822
2026-01-13 02:20:40.46	298.05	10.39	-46.8	-50.6	13.8	3.00e-06	0	39	0	537919488	64	5824
2026-01-13 02:20:41.74	297.83	10.34	-46.8	-50.7	13.8	5.30e-06	0	38	0	541065216	64	5863
2026-01-13 02:20:42.46	297.71	10.32	-46.8	-50.6	13.9	4.50e-06	0	39	0	542113792	64	5793
2026-01-13 02:20:43.74	297.50	10.28	-46.7	-50.4	14.1	4.50e-06	0	38	0	544210944	64	5667
2026-01-13 02:20:44.48	297.37	10.25	-46.6	-50.3	14.1	3.00e-06	0	39	0	545259520	64	5626
2026-01-13 02:20:45.76	297.16	10.21	-46.7	-50.3	14.2	3.80e-06	0	39	0	548405248	64	5631
2026-01-13 02:20:46.55	297.03	10.18	-46.7	-50.3	14.1	5.30e-06	0	38	0	549453824	64	5637
2026-01-13 02:20:47.75	296.83	10.14	-46.7	-50.4	14.0	2.20e-06	0	38	0	551550976	64	5678
2026-01-13 02:20:48.60	296.69	10.11	-46.8	-50.5	13.9	2.20e-06	0	39	0	553648128	64	5734
2026-01-13 02:20:49.74	296.50	10.07	-46.7	-50.4	14.0	5.30e-06	0	38	0	555745280	64	5712
2026-01-13 02:20:50.78	296.33	10.03	-46.8	-50.6	13.8	5.30e-06	0	39	0	557842432	64	5832
2026-01-13 02:20:51.91	296.15	9.99	-46.9	-50.7	13.7	7.60e-06	0	39	0	559939584	64	5922
2026-01-13 02:20:52.83	296.00	9.96	-46.8	-50.5	13.9	9.10e-06	0	39	0	560988160	64	5788
2026-01-13 02:20:53.83	295.84	9.92	-46.8	-50.5	13.9	3.80e-06	0	39	0	563085312	64	5781
2026-01-13 02:20:54.82	295.67	9.89	-46.8	-50.5	13.9	1.50e-06	0	39	0	565182464	64	5760
2026-01-13 02:20:55.82	295.51	9.85	-46.7	-50.4	14.0	2.20e-06	0	38	0	567279616	64	5702
2026-01-13 02:20:56.81	295.35	9.82	-46.8	-50.5	14.0	2.20e-06	0	39	0	568328192	64	5725
2026-01-13 02:20:57.80	295.19	9.78	-46.7	-50.4	13.9	3.80e-06	0	39	0	570425344	64	5721
2026-01-13 02:20:58.80	295.03	9.74	-46.7	-50.4	14.1	3.00e-06	0	39	0	572522496	64	5674
2026-01-13 02:20:59.79	294.87	9.71	-46.7	-50.4	14.0	3.00e-06	0	38	0	574619648	64	5674
2026-01-13 02:21:00.79	294.71	9.67	-46.8	-50.5	13.9	4.50e-06	0	39	0	576716800	64	5774
2026-01-13 02:21:01.78	294.55	9.63	-46.8	-50.6	13.9	2.20e-06	0	39	0	577765376	64	5789
2026-01-13 02:21:02.77	294.40	9.60	-46.8	-50.5	13.8	3.00e-06	0	39	0	579862528	64	5780
2026-01-13 02:21:03.77	294.24	9.56	-46.8	-50.6	13.8	3.80e-06	0	39	0	581959680	64	5829
2026-01-13 02:21:04.76	294.08	9.52	-46.9	-50.7	13.7	5.30e-06	0	39	0	584056832	64	5899
2026-01-13 02:21:05.83	293.91	9.48	-47.0	-50.9	13.5	5.30e-06	0	38	0	586153984	64	6032
2026-01-13 02:21:06.72	293.77	9.45	-47.0	-50.9	13.5	1.37e-05	0	39	0	587202560	64	6029
2026-01-13 02:21:08.03	293.57	9.40	-47.1	-51.2	13.2	1.67e-05	0	39	0	590348288	64	6211
2026-01-13 02:21:08.74	293.45	9.37	-47.1	-51.2	13.2	1.37e-05	0	39	0	591396864	64	6207
2026-01-13 02:21:10.24	293.22	9.31	-47.1	-51.1	13.2	2.44e-05	0	38	0	594542592	65	5849
2026-01-13 02:21:10.95	293.11	9.28	-47.1	-51.2	13.2	3.66e-05	0	38	0	595591168	65	5866
2026-01-13 02:21:12.23	292.91	9.23	-47.2	-51.2	13.1	2.51e-05	0	39	0	597688320	65	5885
2026-01-13 02:21:12.95	292.80	9.21	-47.0	-51.0	13.3	2.89e-05	0	39	0	598736896	65	5760
2026-01-13 02:21:14.24	292.60	9.16	-47.1	-51.1	13.2	1.29e-05	0	39	0	601882624	65	5850
2026-01-13 02:21:14.95	292.49	9.13	-47.1	-51.1	13.2	2.51e-05	0	38	0	602931200	65	5832
2026-01-13 02:21:16.22	292.30	9.08	-47.2	-51.2	13.1	1.29e-05	0	39	0	605028352	65	5889
2026-01-13 02:21:16.96	292.18	9.05	-47.2	-51.4	13.0	2.67e-05	0	38	0	607125504	65	6000
2026-01-13 02:21:18.24	291.99	9.00	-47.3	-51.4	12.9	3.96e-05	0	38	0	609222656	65	6049
2026-01-13 02:21:18.95	291.88	8.97	-50.6	-65.6	3.8	2.55e-04	0	39	104	610271232	71	21847
2026-01-13 02:21:20.23	291.68	8.92	-50.9	-66.1	3.8	1.49e+00	0	38	104	610271232	72	21789
2026-01-13 02:21:21.02	291.56	8.89	-51.0	-66.2	3.8	1.49e+00	0	39	104	610271232	72	22009
2026-01-13 02:21:22.22	291.38	8.84	-51.1	-66.2	3.8	1.49e+00	0	39	104	610271232	72	22247
2026-01-13 02:21:23.21	291.23	8.80	-51.1	-66.3	3.8	1.49e+00	0	39	104	610271232	72	22501
2026-01-13 02:21:24.37	291.06	8.75	-51.2	-66.4	3.8	1.49e+00	0	39	104	610271232	73	21284
2026-01-13 02:21:25.26	290.93	8.72	-51.2	-66.4	3.8	1.49e+00	0	39	104	610271232	73	21334
2026-01-13 02:21:26.56	290.73	8.67	-51.1	-66.4	3.8	1.49e+00	0	39	104	610271232	73	21428
2026-01-13 02:21:27.27	290.63	8.64	-51.2	-66.4	3.8	1.49e+00	0	39	104	610271232	73	21448
2026-01-13 02:21:28.77	290.40	8.58	-51.2	-66.4	3.8	1.49e+00	0	39	104	610271232	73	21430
2026-01-13 02:21:29.48	290.30	8.55	-51.2	-66.5	3.8	1.49e+00	0	39	104	610271232	73	21513
2026-01-13 02:21:30.81	290.10	8.49	-51.2	-66.5	3.8	1.49e+00	0	39	104	610271232	73	21572
2026-01-13 02:21:31.52	290.00	8.46	-51.2	-66.5	3.8	1.49e+00	0	39	104	610271232	73	21580
2026-01-13 02:21:32.79	289.81	8.41	-51.2	-66.5	3.8	1.49e+00	0	39	104	610271232	73	21565
2026-01-13 02:21:33.50	289.71	8.38	-51.2	-66.5	3.8	1.49e+00	0	39	104	610271232	73	21668
2026-01-13 02:21:34.78	289.52	8.33	-51.1	-66.5	3.8	1.49e+00	0	39	104	610271232	73	21583
2026-01-13 02:21:35.49	289.42	8.30	-51.2	-66.5	3.8	1.49e+00	0	39	104	610271232	73	21580
2026-01-13 02:21:36.77	289.23	8.24	-51.2	-66.4	3.8	1.49e+00	0	39	104	610271232	73	21457
2026-01-13 02:21:37.48	289.13	8.22	-51.2	-66.4	3.8	1.49e+00	0	39	104	610271232	73	21476
2026-01-13 02:21:38.76	288.94	8.16	-51.2	-66.4	3.8	1.49e+00	0	39	104	610271232	73	21425
2026-01-13 02:21:39.48	288.84	8.13	-51.2	-66.4	3.8	1.49e+00	0	39	104	610271232	73	21491
2026-01-13 02:21:40.76	288.66	8.08	-51.1	-66.4	3.8	1.49e+00	0	39	104	610271232	73	21322
2026-01-13 02:21:41.47	288.55	8.05	-51.1	-66.4	3.8	1.49e+00	0	39	104	610271232	73	21385
2026-01-13 02:21:42.75	288.37	7.99	-51.1	-66.4	3.8	1.49e+00	0	38	104	610271232	73	21366
2026-01-13 02:21:43.46	288.27	7.96	-51.1	-66.4	3.8	1.49e+00	0	38	104	610271232	73	21358
2026-01-13 02:21:44.74	288.09	7.91	-51.1	-66.4	3.8	1.49e+00	0	38	104	610271232	73	21388
2026-01-13 02:21:45.45	287.99	7.88	-51.1	-66.4	3.8	1.49e+00	0	39	104	610271232	73	21328
2026-01-13 02:21:46.72	287.81	7.82	-51.1	-66.4	3.8	1.49e+00	0	39	104	610271232	73	21367
2026-01-13 02:21:47.43	287.71	7.79	-51.1	-66.4	3.8	1.49e+00	0	39	104	610271232	73	21358
2026-01-13 02:21:48.71	287.53	7.74	-51.1	-66.4	3.8	1.49e+00	0	39	104	610271232	73	21320
2026-01-13 02:21:49.42	287.43	7.71	-51.1	-66.4	3.8	1.49e+00	0	39	104	610271232	73	21300
2026-01-13 02:21:50.70	287.25	7.65	-51.1	-66.4	3.8	1.49e+00	0	39	104	610271232	73	21284
2026-01-13 02:21:51.41	287.16	7.62	-51.1	-66.4	3.8	1.49e+00	0	39	104	610271232	73	21309
2026-01-13 02:21:52.68	286.98	7.57	-51.1	-66.4	3.8	1.49e+00	0	39	104	610271232	73	21352
2026-01-13 02:21:53.39	286.88	7.54	-51.0	-66.4	3.8	1.49e+00	0	39	104	610271232	73	21327
2026-01-13 02:21:54.67	286.71	7.48	-51.1	-66.4	3.8	1.49e+00	0	39	104	610271232	73	21298
2026-01-13 02:21:55.38	286.61	7.45	-51.1	-66.4	3.8	1.49e+00	0	39	104	610271232	73	21308
2026-01-13 02:21:56.66	286.43	7.40	-51.1	-66.4	3.8	1.49e+00	0	39	104	610271232	73	21268
2026-01-13 02:21:57.39	286.33	7.36	-51.0	-66.3	3.8	1.49e+00	0	39	104	610271232	73	21250
2026-01-13 02:21:58.66	286.16	7.31	-51.0	-66.3	3.8	1.49e+00	0	39	104	610271232	73	21211
2026-01-13 02:21:59.37	286.06	7.28	-51.0	-66.4	3.8	1.49e+00	0	38	104	610271232	73	21307
2026-01-13 02:22:00.65	285.89	7.22	-51.0	-66.3	3.8	1.49e+00	0	38	104	610271232	73	21248
2026-01-13 02:22:01.36	285.80	7.19	-51.0	-66.4	3.8	1.49e+00	0	39	104	610271232	73	21277
2026-01-13 02:22:02.63	285.63	7.13	-51.0	-66.3	3.8	1.49e+00	0	38	104	610271232	73	21221
2026-01-13 02:22:03.34	285.53	7.10	-51.0	-66.3	3.8	1.49e+00	0	39	104	610271232	73	21210
2026-01-13 02:22:04.62	285.36	7.05	-51.0	-66.4	3.8	1.49e+00	0	38	104	610271232	73	21273
2026-01-13 02:22:05.34	285.26	7.01	-51.0	-66.3	3.8	1.49e+00	0	39	104	610271232	73	21190
2026-01-13 02:22:06.62	285.09	6.96	-51.0	-66.3	3.8	1.49e+00	0	39	104	610271232	73	21210
2026-01-13 02:22:07.33	285.00	6.93	-51.0	-66.3	3.8	1.49e+00	0	38	104	610271232	73	21204
2026-01-13 02:22:08.61	284.83	6.87	-51.0	-66.3	3.8	1.49e+00	0	38	104	610271232	73	21088
2026-01-13 02:22:09.32	284.74	6.84	-51.0	-66.3	3.8	1.49e+00	0	39	104	610271232	73	21154
2026-01-13 02:22:10.60	284.57	6.78	-51.0	-66.3	3.8	1.49e+00	0	39	104	610271232	73	21175
2026-01-13 02:22:11.30	284.48	6.75	-51.0	-66.3	3.8	1.49e+00	0	38	104	610271232	73	21132
2026-01-13 02:22:12.60	284.31	6.69	-51.0	-66.3	3.8	1.49e+00	0	38	104	610271232	73	21132
2026-01-13 02:22:13.31	284.22	6.66	-51.0	-66.3	3.8	1.49e+00	0	39	104	610271232	73	21093
2026-01-13 02:22:14.59	284.05	6.60	-51.0	-66.3	3.8	1.49e+00	0	39	104	610271232	73	21110
2026-01-13 02:22:15.31	283.96	6.57	-51.0	-66.3	3.8	1.49e+00	0	39	104	610271232	73	21214
2026-01-13 02:22:16.59	283.79	6.51	-51.0	-66.3	3.8	1.49e+00	0	38	104	610271232	73	21149
2026-01-13 02:22:17.30	283.70	6.48	-51.0	-66.3	3.8	1.49e+00	0	38	104	610271232	73	21088
2026-01-13 02:22:18.57	283.54	6.42	-51.0	-66.3	3.8	1.49e+00	0	39	104	610271232	73	21092
2026-01-13 02:22:19.28	283.45	6.39	-51.0	-66.3	3.8	1.49e+00	0	38	104	610271232	73	21120
2026-01-13 02:22:20.56	283.29	6.33	-51.0	-66.3	3.8	1.49e+00	0	39	104	610271232	73	21113
2026-01-13 02:22:21.27	283.20	6.30	-51.0	-66.3	3.8	1.49e+00	0	39	104	610271232	73	21101
2026-01-13 02:22:22.54	283.04	6.25	-51.0	-66.3	3.8	1.49e+00	0	39	104	610271232	73	21121
2026-01-13 02:22:23.25	282.95	6.21	-51.0	-66.3	3.8	1.49e+00	0	39	104	610271232	73	21139
2026-01-13 02:22:24.55	282.78	6.15	-51.0	-66.3	3.8	1.49e+00	0	38	104	610271232	73	21133
2026-01-13 02:22:25.26	282.70	6.12	-51.0	-66.3	3.8	1.49e+00	0	39	104	610271232	73	21119
2026-01-13 02:22:26.53	282.54	6.06	-51.0	-66.3	3.8	1.49e+00	0	39	104	610271232	73	21108
2026-01-13 02:22:27.26	282.45	6.03	-51.0	-66.3	3.8	1.49e+00	0	39	104	610271232	73	21124
2026-01-13 02:22:28.54	282.29	5.97	-51.0	-66.3	3.8	1.49e+00	0	39	104	610271232	73	21163
2026-01-13 02:22:29.25	282.20	5.94	-51.0	-66.3	3.8	1.49e+00	0	38	104	610271232	73	21198
2026-01-13 02:22:30.52	282.04	5.88	-51.0	-66.3	3.8	1.49e+00	0	38	104	610271232	73	21089
2026-01-13 02:22:31.25	281.95	5.85	-51.0	-66.3	3.8	1.49e+00	0	39	104	610271232	73	21052
2026-01-13 02:22:32.53	281.80	5.79	-51.0	-66.3	3.8	1.49e+00	0	39	104	610271232	73	21081
2026-01-13 02:22:33.25	281.71	5.76	-51.0	-66.3	3.8	1.49e+00	0	39	104	610271232	73	21111
2026-01-13 02:22:34.53	281.55	5.70	-51.0	-66.3	3.8	1.49e+00	0	39	104	610271232	73	21044
2026-01-13 02:22:35.24	281.47	5.67	-51.0	-66.3	3.8	1.49e+00	0	39	104	610271232	73	21112
2026-01-13 02:22:36.51	281.32	5.61	-51.0	-66.3	3.8	1.49e+00	0	39	104	610271232	73	21029
2026-01-13 02:22:37.22	281.23	5.58	-51.0	-66.3	3.8	1.49e+00	0	39	104	610271232	73	21027
2026-01-13 02:22:38.50	281.08	5.52	-50.9	-66.3	3.8	1.49e+00	0	39	104	610271232	73	21099
2026-01-13 02:22:39.23	280.99	5.48	-51.0	-66.3	3.8	1.49e+00	0	39	104	610271232	73	21131
2026-01-13 02:22:40.50	280.84	5.43	-50.9	-66.3	3.8	1.49e+00	0	39	104	610271232	73	21048
2026-01-13 02:22:41.21	280.75	5.39	-51.0	-66.2	3.8	1.49e+00	0	39	104	610271232	73	21012
2026-01-13 02:22:42.49	280.60	5.33	-51.0	-66.3	3.8	1.49e+00	0	39	104	610271232	73	21046
2026-01-13 02:22:43.20	280.52	5.30	-50.9	-66.2	3.8	1.49e+00	0	39	104	610271232	73	20978
2026-01-13 02:22:44.48	280.37	5.24	-51.0	-66.3	3.8	1.49e+00	0	39	104	610271232	73	21020
2026-01-13 02:22:45.19	280.28	5.21	-51.0	-66.2	3.8	1.49e+00	0	39	104	610271232	73	21001
2026-01-13 02:22:46.47	280.13	5.15	-50.9	-66.3	3.8	1.49e+00	0	39	104	610271232	73	21025
2026-01-13 02:22:47.17	280.05	5.12	-50.9	-66.2	3.8	1.49e+00	0	39	104	610271232	73	20935
2026-01-13 02:22:48.47	279.90	5.06	-50.9	-66.3	3.8	1.49e+00	0	38	104	610271232	73	21029
2026-01-13 02:22:49.18	279.82	5.03	-50.9	-66.2	3.8	1.49e+00	0	39	104	610271232	73	21003
2026-01-13 02:22:50.45	279.67	4.97	-50.9	-66.2	3.8	1.
