passes_logs/2026/01/13/T1/T1__20260113_221359_SUOMI_NPP_rec.log

#Pass ID: 20260113_221359_SUOMI NPP
#Satellite: SUOMI NPP
#Configuration: NPP
#almurnet v.1.7.20251203
#Start time: 2026-01-13 22:14:00

#Version: 2.0.20230620
#Station: T1
#Location: 37.570604 lon 55.790049 lat
#TLE: 1 37849U 11061A   26013.27136842  .00000065  00000+0  51889-4 0  9990
#TLE: 2 37849  98.7808 315.3349 0002489  66.6776 293.4661 14.19524902736466

#Time	Az	El	Level	Level2	SNR	BER	BlckErr	Temp	State	Recorded	gain1	gain2
2026-01-13 22:14:00.34	29.99	5.05	-49.8	-65.3	3.8	1.49e+00	0	37	104	0	70	22386
2026-01-13 22:14:01.34	30.08	5.11	-49.8	-65.3	3.8	1.49e+00	0	37	104	0	70	22350
2026-01-13 22:14:02.33	30.17	5.17	-49.8	-65.3	3.8	1.49e+00	0	37	104	0	70	22368
2026-01-13 22:14:03.32	30.26	5.22	-49.8	-65.3	3.8	1.49e+00	0	37	104	0	70	22415
2026-01-13 22:14:04.31	30.35	5.28	-49.8	-65.3	3.8	1.49e+00	0	37	104	0	70	22420
2026-01-13 22:14:05.31	30.44	5.34	-49.8	-65.3	3.8	1.49e+00	0	37	104	0	70	22356
2026-01-13 22:14:06.30	30.53	5.40	-49.8	-65.3	3.8	1.49e+00	0	37	104	0	70	22318
2026-01-13 22:14:07.29	30.62	5.45	-49.8	-65.3	3.8	1.49e+00	0	37	104	0	70	22308
2026-01-13 22:14:08.28	30.71	5.51	-49.7	-65.3	3.8	1.49e+00	0	37	104	0	70	22303
2026-01-13 22:14:09.28	30.80	5.57	-49.8	-65.3	3.8	1.49e+00	0	37	104	0	70	22364
2026-01-13 22:14:10.27	30.89	5.63	-49.7	-65.3	3.8	1.49e+00	0	37	104	0	70	22278
2026-01-13 22:14:11.26	30.98	5.69	-49.7	-65.3	3.8	1.49e+00	0	37	104	0	70	22372
2026-01-13 22:14:12.26	31.07	5.74	-49.7	-65.3	3.8	1.49e+00	0	37	104	0	70	22293
2026-01-13 22:14:13.25	31.16	5.80	-49.7	-65.2	3.8	1.49e+00	0	37	104	0	70	22253
2026-01-13 22:14:14.24	31.26	5.86	-49.7	-65.3	3.8	1.49e+00	0	37	104	0	70	22322
2026-01-13 22:14:15.24	31.35	5.92	-49.7	-65.3	3.8	1.49e+00	0	37	104	0	70	22318
2026-01-13 22:14:16.23	31.44	5.98	-49.7	-65.3	3.8	1.49e+00	0	37	104	0	70	22466
2026-01-13 22:14:17.22	31.54	6.04	-49.7	-65.2	3.8	1.49e+00	0	37	104	0	70	22252
2026-01-13 22:14:18.22	31.63	6.10	-49.7	-65.2	3.8	1.49e+00	0	38	104	0	70	22241
2026-01-13 22:14:19.21	31.72	6.15	-49.7	-65.2	3.8	1.49e+00	0	38	104	0	70	22253
2026-01-13 22:14:20.20	31.82	6.21	-49.7	-65.2	3.8	1.49e+00	0	38	104	0	70	22057
2026-01-13 22:14:21.20	31.91	6.27	-49.7	-65.1	3.8	1.49e+00	0	37	104	0	70	21970
2026-01-13 22:14:22.19	32.01	6.33	-49.7	-65.1	3.8	1.49e+00	0	38	104	0	70	21911
2026-01-13 22:14:23.18	32.10	6.39	-49.7	-65.1	3.8	1.49e+00	0	38	104	0	70	21932
2026-01-13 22:14:24.17	32.20	6.45	-49.7	-65.1	3.8	1.49e+00	0	38	104	0	70	21918
2026-01-13 22:14:25.17	32.30	6.51	-49.7	-65.1	3.8	1.49e+00	0	38	104	0	70	21982
2026-01-13 22:14:26.16	32.39	6.57	-49.7	-65.1	3.8	1.49e+00	0	38	104	0	70	21895
2026-01-13 22:14:27.15	32.49	6.63	-49.7	-65.1	3.8	1.49e+00	0	38	104	0	70	21857
2026-01-13 22:14:28.14	32.59	6.68	-49.7	-65.1	3.8	1.49e+00	0	38	104	0	70	21908
2026-01-13 22:14:29.14	32.69	6.74	-49.7	-65.1	3.8	1.49e+00	0	38	104	0	70	21982
2026-01-13 22:14:30.13	32.78	6.80	-49.7	-65.2	3.8	1.49e+00	0	38	104	0	70	22037
2026-01-13 22:14:31.12	32.88	6.86	-49.7	-65.1	3.8	1.49e+00	0	38	104	0	70	21963
2026-01-13 22:14:32.12	32.98	6.92	-49.7	-65.1	3.8	1.49e+00	0	38	104	0	70	21871
2026-01-13 22:14:33.11	33.08	6.98	-49.7	-65.2	3.8	1.49e+00	0	38	104	0	70	22028
2026-01-13 22:14:34.10	33.18	7.04	-49.7	-65.2	3.8	1.49e+00	0	38	104	0	70	22102
2026-01-13 22:14:35.09	33.28	7.10	-49.7	-65.2	3.8	1.49e+00	0	38	104	0	70	22067
2026-01-13 22:14:36.09	33.38	7.16	-49.7	-65.2	3.8	1.49e+00	0	38	104	0	70	22192
2026-01-13 22:14:37.08	33.48	7.22	-49.7	-65.2	3.8	1.49e+00	0	38	104	0	70	22152
2026-01-13 22:14:38.07	33.58	7.28	-49.7	-65.1	3.8	1.49e+00	0	38	104	0	70	22003
2026-01-13 22:14:39.07	33.69	7.34	-49.7	-65.1	3.8	1.49e+00	0	38	104	0	70	21825
2026-01-13 22:14:40.06	33.79	7.40	-49.7	-65.1	3.8	1.49e+00	0	38	104	0	70	21832
2026-01-13 22:14:41.05	33.89	7.46	-49.7	-65.0	3.8	1.49e+00	0	38	104	0	70	21710
2026-01-13 22:14:42.04	33.99	7.52	-49.7	-65.1	3.8	1.49e+00	0	38	104	0	70	21793
2026-01-13 22:14:43.04	34.10	7.58	-49.7	-65.0	3.8	1.49e+00	0	38	104	0	70	21752
2026-01-13 22:14:44.03	34.20	7.64	-49.7	-65.1	3.8	1.49e+00	0	38	104	0	70	21999
2026-01-13 22:14:45.02	34.30	7.70	-49.7	-65.1	3.8	1.49e+00	0	38	104	0	70	21930
2026-01-13 22:14:46.02	34.41	7.76	-49.7	-65.1	3.8	1.49e+00	0	38	104	0	70	21909
2026-01-13 22:14:47.01	34.51	7.83	-49.7	-65.1	3.8	1.49e+00	0	38	104	0	70	22000
2026-01-13 22:14:48.00	34.62	7.89	-49.7	-65.1	3.8	1.49e+00	0	38	104	0	70	21968
2026-01-13 22:14:49.00	34.73	7.95	-49.7	-65.2	3.8	1.49e+00	0	39	104	0	70	22047
2026-01-13 22:14:49.99	34.83	8.01	-49.7	-65.2	3.8	1.49e+00	0	38	104	0	70	22129
2026-01-13 22:14:50.99	34.94	8.07	-49.7	-65.2	3.8	1.49e+00	0	38	104	0	70	22117
2026-01-13 22:14:51.98	35.05	8.13	-49.7	-65.1	3.8	1.49e+00	0	38	104	0	70	22000
2026-01-13 22:14:52.97	35.15	8.19	-49.7	-65.2	3.8	1.49e+00	0	39	104	0	70	22030
2026-01-13 22:14:53.96	35.26	8.25	-49.7	-65.1	3.8	1.49e+00	0	38	104	0	70	21999
2026-01-13 22:14:54.96	35.37	8.31	-49.7	-65.1	3.8	1.49e+00	0	38	104	0	70	21876
2026-01-13 22:14:55.95	35.48	8.37	-49.7	-65.1	3.8	1.49e+00	0	38	104	0	70	21887
2026-01-13 22:14:56.94	35.59	8.43	-49.7	-65.1	3.8	1.49e+00	0	39	104	0	70	21780
2026-01-13 22:14:57.94	35.70	8.50	-49.7	-65.0	3.8	1.49e+00	0	38	104	0	70	21738
2026-01-13 22:14:58.93	35.81	8.56	-49.7	-65.1	3.8	1.49e+00	0	39	104	0	70	21824
2026-01-13 22:14:59.92	35.92	8.62	-49.7	-65.1	3.8	1.49e+00	0	39	104	0	70	21992
2026-01-13 22:15:00.92	36.03	8.68	-49.7	-65.3	3.8	1.49e+00	0	39	104	0	70	22264
2026-01-13 22:15:01.91	36.14	8.74	-49.7	-65.3	3.8	1.49e+00	0	38	104	0	70	22301
2026-01-13 22:15:02.90	36.25	8.80	-49.7	-65.1	3.8	1.49e+00	0	39	104	0	70	21994
2026-01-13 22:15:03.90	36.37	8.87	-49.7	-65.0	3.8	1.49e+00	0	39	104	0	70	21604
2026-01-13 22:15:04.89	36.48	8.93	-49.7	-64.8	3.8	1.49e+00	0	39	104	0	70	21081
2026-01-13 22:15:05.88	36.59	8.99	-49.5	-64.6	3.8	1.49e+00	0	39	104	0	70	20747
2026-01-13 22:15:06.88	36.71	9.05	-49.5	-64.3	3.8	1.49e+00	0	39	104	0	70	19988
2026-01-13 22:15:07.87	36.82	9.11	-49.4	-64.3	3.8	1.49e+00	0	39	104	0	70	20048
2026-01-13 22:15:08.86	36.93	9.18	-49.2	-63.8	3.8	1.49e+00	0	39	104	0	70	18919
2026-01-13 22:15:09.86	37.05	9.24	-48.7	-56.8	5.8	1.47e+00	0	39	104	0	69	8887
2026-01-13 22:15:10.85	37.17	9.30	-49.4	-60.1	4.8	1.67e-01	0	39	0	1048576	69	13077
2026-01-13 22:15:11.85	37.28	9.36	-47.3	-52.8	10.8	4.94e-01	0	39	0	3145728	66	6662
2026-01-13 22:15:12.84	37.40	9.42	-47.2	-52.4	11.3	1.14e-03	0	39	0	4194304	66	6387
2026-01-13 22:15:13.84	37.52	9.49	-47.1	-52.2	11.6	8.41e-04	0	39	0	6291456	66	6218
2026-01-13 22:15:14.83	37.63	9.55	-46.8	-51.7	12.1	3.50e-04	0	39	0	8388608	65	6224
2026-01-13 22:15:15.83	37.75	9.61	-46.9	-51.7	12.1	3.06e-04	0	39	0	10485760	65	6244
2026-01-13 22:15:16.86	37.88	9.68	-46.8	-51.6	12.2	3.07e-04	0	39	0	12582912	65	6149
2026-01-13 22:15:17.85	38.00	9.74	-46.4	-50.8	13.1	6.40e-05	0	39	0	13631488	64	5947
2026-01-13 22:15:18.84	38.11	9.80	-46.2	-50.6	13.3	1.75e-05	0	39	0	15728640	64	5821
2026-01-13 22:15:19.84	38.24	9.86	-46.1	-50.4	13.4	3.20e-05	0	39	0	17825792	64	5707
2026-01-13 22:15:20.83	38.36	9.93	-46.1	-50.5	13.4	6.80e-06	0	39	0	19922944	63	6087
2026-01-13 22:15:21.83	38.48	9.99	-45.8	-50.0	13.9	9.10e-06	0	39	0	22020096	63	5749
2026-01-13 22:15:22.82	38.60	10.05	-45.6	-49.8	14.1	1.50e-06	0	39	0	23068672	63	5600
2026-01-13 22:15:23.82	38.72	10.12	-45.5	-49.7	14.2	2.20e-06	0	39	0	25165824	62	5865
2026-01-13 22:15:24.81	38.84	10.18	-45.6	-49.7	14.2	0.00e+00	0	39	0	27262976	62	5900
2026-01-13 22:15:25.81	38.97	10.24	-45.5	-49.6	14.3	0.00e+00	0	39	0	29360128	62	5832
2026-01-13 22:15:26.81	39.09	10.31	-45.6	-49.8	14.1	2.21e-05	0	39	0	30408704	62	5957
2026-01-13 22:15:27.80	39.22	10.37	-45.5	-49.6	14.4	1.50e-06	0	39	0	32505856	62	5809
2026-01-13 22:15:28.80	39.34	10.43	-45.6	-49.5	14.5	7.00e-07	0	39	0	34603008	62	5742
2026-01-13 22:15:29.79	39.47	10.49	-45.8	-49.6	14.4	7.00e-07	0	39	0	36700160	62	5837
2026-01-13 22:15:30.79	39.59	10.56	-45.8	-49.5	14.5	7.00e-07	0	39	0	38797312	62	5770
2026-01-13 22:15:31.78	39.72	10.62	-45.6	-49.2	14.8	7.00e-07	0	39	0	39845888	62	5591
2026-01-13 22:15:32.77	39.85	10.68	-45.6	-49.3	14.8	1.06e-05	0	39	0	41943040	62	5602
2026-01-13 22:15:33.85	39.98	10.75	-45.7	-49.4	14.6	0.00e+00	0	39	0	44040192	62	5689
2026-01-13 22:15:34.70	40.09	10.81	-45.6	-49.3	14.7	0.00e+00	0	39	0	46137344	62	5597
2026-01-13 22:15:36.04	40.27	10.89	-45.7	-49.3	14.8	0.00e+00	0	39	0	48234496	62	5600
2026-01-13 22:15:36.75	40.36	10.94	-45.7	-49.3	14.7	0.00e+00	0	39	0	49283072	62	5602
2026-01-13 22:15:38.24	40.55	11.03	-45.7	-49.3	14.7	8.30e-06	0	39	0	52428800	62	5628
2026-01-13 22:15:39.22	40.68	11.10	-45.7	-49.4	14.6	0.00e+00	0	39	0	54525952	62	5690
2026-01-13 22:15:40.21	40.81	11.16	-45.7	-49.3	14.7	0.00e+00	0	39	0	55574528	62	5651
2026-01-13 22:15:41.21	40.95	11.22	-45.9	-49.6	14.4	7.00e-07	0	39	0	57671680	62	5823
2026-01-13 22:15:42.20	41.08	11.29	-46.0	-49.8	14.2	0.00e+00	0	39	0	59768832	62	5945
2026-01-13 22:15:43.20	41.21	11.35	-45.9	-49.7	14.3	7.00e-07	0	39	0	61865984	62	5903
2026-01-13 22:15:44.19	41.34	11.41	-46.0	-49.7	14.3	7.00e-07	0	39	0	63963136	62	5912
2026-01-13 22:15:45.19	41.48	11.48	-46.1	-49.9	14.2	3.00e-06	0	39	0	65011712	62	6018
2026-01-13 22:15:46.18	41.61	11.54	-46.1	-49.9	14.1	1.50e-06	0	39	0	67108864	63	5712
2026-01-13 22:15:47.23	41.75	11.61	-46.1	-49.8	14.3	0.00e+00	0	39	0	69206016	63	5617
2026-01-13 22:15:48.22	41.89	11.67	-46.2	-50.0	14.1	2.20e-06	0	39	0	71303168	63	5741
2026-01-13 22:15:49.28	42.03	11.74	-46.1	-49.8	14.3	1.50e-06	0	39	0	73400320	63	5610
2026-01-13 22:15:50.13	42.15	11.80	-46.0	-49.6	14.4	1.50e-06	0	39	0	74448896	63	5507
2026-01-13 22:15:51.46	42.33	11.88	-46.0	-49.6	14.5	7.00e-07	0	39	0	77594624	63	5490
2026-01-13 22:15:52.17	42.43	11.93	-45.9	-49.5	14.5	0.00e+00	0	39	0	78643200	63	5429
2026-01-13 22:15:53.45	42.61	12.01	-46.1	-49.7	14.3	0.00e+00	0	39	0	80740352	63	5588
2026-01-13 22:15:54.17	42.71	12.06	-45.9	-49.4	14.6	1.50e-06	0	39	0	81788928	63	5398
2026-01-13 22:15:55.44	42.89	12.14	-46.0	-49.7	14.4	2.20e-06	0	39	0	84934656	63	5557
2026-01-13 22:15:56.16	42.99	12.18	-45.9	-49.5	14.6	0.00e+00	0	39	0	85983232	63	5441
2026-01-13 22:15:57.77	43.22	12.29	-45.9	-49.5	14.5	0.00e+00	0	39	0	89128960	63	5461
2026-01-13 22:15:58.34	43.30	12.32	-45.9	-49.6	14.5	0.00e+00	0	39	0	90177536	63	5465
2026-01-13 22:16:00.04	43.54	12.43	-45.8	-49.4	14.7	0.00e+00	0	39	0	93323264	63	5373
2026-01-13 22:16:00.61	43.63	12.47	-45.6	-49.1	14.9	0.00e+00	0	39	0	94371840	63	5206
2026-01-13 22:16:02.31	43.87	12.58	-45.5	-48.9	15.2	7.00e-07	0	39	0	97517568	63	5088
2026-01-13 22:16:02.88	43.95	12.62	-45.6	-49.0	15.1	0.00e+00	0	39	0	98566144	63	5118
2026-01-13 22:16:04.59	44.20	12.73	-45.4	-48.7	15.4	0.00e+00	0	39	0	101711872	62	5245
2026-01-13 22:16:05.16	44.29	12.76	-45.4	-48.7	15.4	0.00e+00	0	39	0	102760448	62	5220
2026-01-13 22:16:06.86	44.54	12.87	-45.3	-48.6	15.5	0.00e+00	0	39	0	105906176	62	5199
2026-01-13 22:16:07.43	44.62	12.91	-45.3	-48.5	15.6	0.00e+00	0	39	0	106954752	62	5137
2026-01-13 22:16:09.14	44.87	13.02	-45.3	-48.6	15.5	0.00e+00	0	39	0	110100480	62	5196
2026-01-13 22:16:09.93	44.99	13.07	-45.4	-48.7	15.4	0.00e+00	0	39	0	112197632	62	5226
2026-01-13 22:16:11.11	45.17	13.15	-45.4	-48.7	15.4	0.00e+00	0	39	0	114294784	62	5239
2026-01-13 22:16:12.28	45.35	13.22	-45.3	-48.6	15.6	0.00e+00	0	39	0	116391936	62	5160
2026-01-13 22:16:13.32	45.50	13.29	-45.4	-48.7	15.4	0.00e+00	0	39	0	118489088	62	5238
2026-01-13 22:16:14.32	45.66	13.35	-45.4	-48.8	15.3	0.00e+00	0	39	0	119537664	62	5308
2026-01-13 22:16:15.31	45.81	13.42	-45.5	-48.9	15.3	0.00e+00	0	39	0	121634816	62	5351
2026-01-13 22:16:16.30	45.96	13.48	-45.5	-48.9	15.3	0.00e+00	0	39	0	123731968	62	5352
2026-01-13 22:16:17.30	46.11	13.55	-45.6	-49.0	15.1	0.00e+00	0	39	0	125829120	62	5441
2026-01-13 22:16:18.30	46.27	13.61	-45.5	-49.0	15.1	7.00e-07	0	39	0	127926272	62	5437
2026-01-13 22:16:19.29	46.42	13.67	-45.4	-48.7	15.4	0.00e+00	0	39	0	128974848	62	5251
2026-01-13 22:16:20.28	46.58	13.74	-45.5	-48.9	15.2	0.00e+00	0	39	0	131072000	62	5359
2026-01-13 22:16:21.28	46.73	13.80	-45.5	-48.9	15.3	0.00e+00	0	39	0	133169152	62	5348
2026-01-13 22:16:22.28	46.89	13.87	-45.4	-48.8	15.4	0.00e+00	0	39	0	135266304	62	5289
2026-01-13 22:16:23.27	47.05	13.93	-45.5	-48.8	15.3	0.00e+00	0	39	0	136314880	62	5314
2026-01-13 22:16:24.27	47.21	13.99	-45.5	-48.8	15.3	0.00e+00	0	39	0	138412032	62	5327
2026-01-13 22:16:25.26	47.36	14.06	-45.6	-49.0	15.1	0.00e+00	0	39	0	140509184	62	5429
2026-01-13 22:16:26.26	47.52	14.12	-45.7	-49.2	15.0	0.00e+00	0	39	0	142606336	62	5554
2026-01-13 22:16:27.25	47.68	14.19	-45.7	-49.3	14.9	7.00e-07	0	39	0	144703488	62	5598
2026-01-13 22:16:28.24	47.84	14.25	-45.8	-49.4	14.8	7.00e-07	0	39	0	145752064	62	5672
2026-01-13 22:16:29.24	48.00	14.31	-45.9	-49.5	14.7	0.00e+00	0	39	0	147849216	62	5743
2026-01-13 22:16:30.44	48.20	14.39	-45.9	-49.5	14.6	0.00e+00	0	39	0	149946368	62	5748
2026-01-13 22:16:31.33	48.35	14.45	-45.8	-49.3	14.9	0.00e+00	0	39	0	152043520	62	5597
2026-01-13 22:16:32.47	48.53	14.52	-45.6	-49.1	15.0	0.00e+00	0	39	0	154140672	62	5496
2026-01-13 22:16:33.32	48.67	14.58	-45.5	-48.9	15.3	0.00e+00	0	39	0	155189248	62	5367
2026-01-13 22:16:34.46	48.86	14.65	-45.4	-48.7	15.4	0.00e+00	0	39	0	157286400	62	5252
2026-01-13 22:16:35.31	49.00	14.70	-45.3	-48.6	15.6	0.00e+00	0	39	0	159383552	62	5160
2026-01-13 22:16:36.45	49.19	14.77	-45.4	-48.7	15.5	0.00e+00	0	39	0	161480704	62	5224
2026-01-13 22:16:37.30	49.34	14.83	-45.3	-48.6	15.5	0.00e+00	0	39	0	162529280	62	5203
2026-01-13 22:16:38.44	49.53	14.90	-45.4	-48.8	15.4	0.00e+00	0	39	0	165675008	62	5290
2026-01-13 22:16:39.29	49.67	14.96	-45.4	-48.8	15.4	0.00e+00	0	39	0	166723584	62	5297
2026-01-13 22:16:40.43	49.87	15.03	-45.6	-49.1	15.1	0.00e+00	0	39	0	168820736	62	5475
2026-01-13 22:16:41.28	50.01	15.08	-45.6	-49.1	15.0	0.00e+00	0	39	0	170917888	62	5508
2026-01-13 22:16:42.42	50.21	15.15	-45.5	-49.0	15.2	0.00e+00	0	39	0	173015040	62	5413
2026-01-13 22:16:43.27	50.35	15.21	-45.5	-48.9	15.2	0.00e+00	0	39	0	174063616	62	5389
2026-01-13 22:16:44.41	50.55	15.28	-45.3	-48.6	15.5	0.00e+00	0	39	0	176160768	62	5198
2026-01-13 22:16:45.27	50.70	15.33	-45.3	-48.5	15.6	0.00e+00	0	39	0	178257920	62	5158
2026-01-13 22:16:46.55	50.92	15.42	-45.1	-48.3	15.8	0.00e+00	0	39	0	180355072	62	5012
2026-01-13 22:16:47.26	51.04	15.46	-45.1	-48.3	15.8	0.00e+00	0	39	0	181403648	62	5036
2026-01-13 22:16:48.73	51.30	15.55	-45.1	-48.3	15.8	0.00e+00	0	39	0	184549376	62	5006
2026-01-13 22:16:49.44	51.43	15.60	-45.1	-48.4	15.7	0.00e+00	0	39	0	185597952	62	5044
2026-01-13 22:16:50.72	51.65	15.68	-45.0	-48.2	15.9	0.00e+00	0	39	0	187695104	61	5277
2026-01-13 22:16:51.44	51.78	15.72	-44.9	-48.0	16.1	0.00e+00	0	39	0	189792256	61	5133
2026-01-13 22:16:52.72	52.01	15.80	-44.9	-48.1	16.0	0.00e+00	0	39	0	191889408	61	5207
2026-01-13 22:16:53.43	52.14	15.85	-44.9	-48.1	16.0	0.00e+00	0	39	0	192937984	61	5179
2026-01-13 22:16:54.71	52.37	15.93	-44.8	-48.0	16.1	0.00e+00	0	39	0	196083712	61	5111
2026-01-13 22:16:55.42	52.50	15.97	-44.9	-48.0	16.1	0.00e+00	0	39	0	197132288	61	5133
2026-01-13 22:16:56.70	52.73	16.05	-44.8	-47.9	16.2	0.00e+00	0	39	0	199229440	61	5049
2026-01-13 22:16:57.43	52.86	16.10	-44.9	-48.0	16.1	0.00e+00	0	39	0	201326592	61	5135
2026-01-13 22:16:58.70	53.10	16.17	-44.9	-48.1	16.0	0.00e+00	0	39	0	203423744	61	5193
2026-01-13 22:16:59.42	53.23	16.22	-45.0	-48.2	15.9	0.00e+00	0	39	0	204472320	61	5272
2026-01-13 22:17:00.70	53.46	16.30	-45.1	-48.3	15.8	0.00e+00	0	39	0	206569472	61	5310
2026-01-13 22:17:01.50	53.61	16.35	-45.0	-48.2	15.9	0.00e+00	0	39	0	208666624	61	5238
2026-01-13 22:17:02.64	53.82	16.42	-45.0	-48.2	15.9	0.00e+00	0	39	0	210763776	61	5241
2026-01-13 22:17:03.70	54.02	16.48	-45.0	-48.2	15.9	0.00e+00	0	39	0	212860928	61	5269
2026-01-13 22:17:04.74	54.22	16.55	-44.9	-48.1	16.0	0.00e+00	0	39	0	214958080	61	5209
2026-01-13 22:17:05.74	54.40	16.61	-44.9	-48.0	16.1	0.00e+00	0	39	0	216006656	61	5157
2026-01-13 22:17:06.73	54.59	16.67	-44.9	-48.0	16.1	0.00e+00	0	39	0	218103808	61	5154
2026-01-13 22:17:07.72	54.78	16.73	-44.8	-47.9	16.2	0.00e+00	0	39	0	220200960	61	5063
2026-01-13 22:17:08.72	54.97	16.79	-44.9	-48.0	16.1	0.00e+00	0	39	0	222298112	61	5156
2026-01-13 22:17:09.72	55.16	16.85	-44.9	-48.1	16.0	0.00e+00	0	39	0	223346688	61	5189
2026-01-13 22:17:10.71	55.35	16.91	-45.0	-48.1	15.9	0.00e+00	0	39	0	225443840	61	5211
2026-01-13 22:17:11.71	55.54	16.97	-45.2	-48.5	15.6	0.00e+00	0	39	0	227540992	61	5445
2026-01-13 22:17:12.70	55.74	17.03	-45.3	-48.7	15.5	7.00e-07	0	39	0	229638144	61	5537
2026-01-13 22:17:13.69	55.93	17.09	-45.3	-48.6	15.6	0.00e+00	0	39	0	231735296	61	5479
2026-01-13 22:17:14.69	56.12	17.15	-45.1	-48.3	15.8	0.00e+00	0	39	0	232783872	61	5323
2026-01-13 22:17:15.68	56.32	17.21	-45.2	-48.4	15.8	0.00e+00	0	39	0	234881024	61	5361
2026-01-13 22:17:16.68	56.51	17.27	-45.0	-48.2	16.0	0.00e+00	0	39	0	236978176	61	5223
2026-01-13 22:17:17.75	56.72	17.33	-44.9	-48.1	16.0	0.00e+00	0	39	0	239075328	61	5181
2026-01-13 22:17:18.61	56.90	17.38	-45.1	-48.2	15.9	0.00e+00	0	39	0	240123904	61	5272
2026-01-13 22:17:19.74	57.12	17.45	-45.1	-48.3	15.8	0.00e+00	0	39	0	242221056	61	5328
2026-01-13 22:17:20.60	57.29	17.50	-45.2	-48.5	15.6	0.00e+00	0	39	0	244318208	61	5428
2026-01-13 22:17:21.74	57.52	17.56	-45.4	-48.8	15.4	0.00e+00	0	39	0	246415360	61	5614
2026-01-13 22:17:22.59	57.69	17.61	-45.5	-48.9	15.3	0.00e+00	0	39	0	247463936	61	5701
2026-01-13 22:17:23.72	57.92	17.68	-45.6	-49.0	15.2	0.00e+00	0	39	0	250609664	61	5753
2026-01-13 22:17:24.58	58.09	17.73	-45.7	-49.2	15.0	0.00e+00	0	39	0	251658240	62	5569
2026-01-13 22:17:25.71	58.32	17.79	-45.7	-49.1	15.1	0.00e+00	0	39	0	253755392	62	5499
2026-01-13 22:17:26.56	58.50	17.84	-45.7	-49.2	15.1	0.00e+00	0	39	0	255852544	62	5535
2026-01-13 22:17:27.70	58.73	17.91	-45.6	-48.9	15.2	0.00e+00	0	39	0	257949696	62	5401
2026-01-13 22:17:28.55	58.90	17.95	-45.7	-49.2	15.0	0.00e+00	0	39	0	258998272	62	5552
2026-01-13 22:17:29.69	59.14	18.02	-45.8	-49.3	14.9	0.00e+00	0	39	0	261095424	62	5648
2026-01-13 22:17:30.52	59.31	18.07	-45.9	-49.4	14.8	1.06e-05	0	39	0	263192576	62	5696
2026-01-13 22:17:31.66	59.55	18.13	-46.1	-49.8	14.4	7.00e-07	0	39	0	265289728	62	5980
2026-01-13 22:17:32.51	59.73	18.18	-46.2	-50.0	14.2	0.00e+00	0	39	0	266338304	63	5741
2026-01-13 22:17:33.65	59.96	18.24	-46.2	-49.9	14.3	1.06e-05	0	39	0	268435456	63	5713
2026-01-13 22:17:34.50	60.14	18.29	-46.3	-50.1	14.2	0.00e+00	0	39	0	270532608	63	5831
2026-01-13 22:17:35.64	60.38	18.35	-46.4	-50.2	14.0	2.20e-06	0	39	0	272629760	63	5897
2026-01-13 22:17:36.49	60.56	18.40	-46.4	-50.3	14.0	1.44e-05	0	39	0	273678336	63	5962
2026-01-13 22:17:37.63	60.81	18.46	-46.6	-50.7	13.5	4.50e-06	0	39	0	275775488	63	6237
2026-01-13 22:17:38.68	61.03	18.52	-46.5	-50.5	13.7	3.00e-06	0	39	0	277872640	63	6082
2026-01-13 22:17:39.72	61.25	18.58	-46.6	-50.7	13.5	6.10e-06	0	39	0	279969792	63	6231
2026-01-13 22:17:40.86	61.50	18.64	-46.5	-50.5	13.7	6.10e-06	0	39	0	282066944	63	6116
2026-01-13 22:17:41.73	61.68	18.68	-46.5	-50.5	13.8	4.50e-06	0	39	0	284164096	63	6066
2026-01-13 22:17:42.87	61.93	18.74	-46.4	-50.3	13.9	3.00e-06	0	39	0	286261248	63	5977
2026-01-13 22:17:43.79	62.13	18.79	-46.5	-50.4	13.8	6.80e-06	0	39	0	287309824	63	6031
2026-01-13 22:17:44.95	62.38	18.85	-46.5	-50.5	13.8	3.80e-06	0	39	0	289406976	63	6077
2026-01-13 22:17:45.82	62.57	18.90	-46.6	-50.6	13.7	1.14e-05	0	39	0	291504128	63	6140
2026-01-13 22:17:46.96	62.82	18.96	-46.5	-50.5	13.6	4.50e-06	0	39	0	293601280	64	5778
2026-01-13 22:17:47.81	63.01	19.00	-46.5	-50.6	13.6	2.36e-05	0	39	0	295698432	64	5806
2026-01-13 22:17:49.19	63.31	19.08	-46.4	-50.3	13.9	3.80e-06	0	39	0	297795584	64	5642
2026-01-13 22:17:49.90	63.47	19.11	-46.3	-50.1	14.0	5.30e-06	0	39	0	298844160	64	5520
2026-01-13 22:17:51.40	63.81	19.19	-46.1	-49.8	14.4	2.20e-06	0	39	0	301989888	64	5335
2026-01-13 22:17:52.11	63.96	19.22	-46.2	-50.0	14.2	1.50e-06	0	39	0	303038464	64	5409
2026-01-13 22:17:53.40	64.25	19.29	-46.2	-50.0	14.2	0.00e+00	0	39	0	306184192	64	5447
2026-01-13 22:17:54.11	64.41	19.32	-46.1	-49.9	14.3	7.00e-07	0	39	0	307232768	64	5386
2026-01-13 22:17:55.53	64.73	19.39	-46.1	-49.8	14.4	1.50e-06	0	39	0	309329920	63	5634
2026-01-13 22:17:56.25	64.90	19.43	-46.0	-49.6	14.6	1.67e-05	0	39	0	311427072	63	5504
2026-01-13 22:17:57.53	65.19	19.49	-45.8	-49.3	14.9	0.00e+00	0	39	0	313524224	63	5297
2026-01-13 22:17:58.25	65.35	19.53	-45.6	-48.9	15.4	0.00e+00	0	39	0	314572800	63	5043
2026-01-13 22:17:59.63	65.67	19.59	-45.6	-48.8	15.4	0.00e+00	0	39	0	317718528	62	5340
2026-01-13 22:18:00.34	65.83	19.63	-45.5	-48.7	15.5	0.00e+00	0	39	0	318767104	62	5267
2026-01-13 22:18:01.69	66.14	19.69	-45.7	-49.1	15.1	3.80e-06	0	39	0	320864256	62	5519
2026-01-13 22:18:02.40	66.30	19.73	-45.8	-49.2	15.0	0.00e+00	0	39	0	322961408	62	5588
2026-01-13 22:18:03.75	66.61	19.79	-45.8	-49.2	15.1	0.00e+00	0	39	0	325058560	62	5570
2026-01-13 22:18:04.46	66.78	19.82	-45.9	-49.4	14.9	3.80e-06	0	39	0	326107136	62	5661
2026-01-13 22:18:05.74	67.08	19.88	-45.9	-49.3	14.9	0.00e+00	0	39	0	329252864	62	5650
2026-01-13 22:18:06.46	67.24	19.91	-45.5	-48.7	15.5	0.00e+00	0	39	0	330301440	62	5258
2026-01-13 22:18:07.74	67.54	19.97	-45.4	-48.6	15.6	0.00e+00	0	39	0	332398592	62	5215
2026-01-13 22:18:08.45	67.71	20.00	-45.4	-48.5	15.7	0.00e+00	0	39	0	333447168	62	5152
2026-01-13 22:18:09.74	68.01	20.06	-45.7	-49.0	15.3	0.00e+00	0	39	0	336592896	62	5418
2026-01-13 22:18:10.46	68.18	20.09	-45.8	-49.2	15.1	7.00e-07	0	39	0	337641472	62	5561
2026-01-13 22:18:11.74	68.49	20.15	-45.8	-49.2	15.2	0.00e+00	0	39	0	339738624	62	5530
2026-01-13 22:18:12.46	68.66	20.18	-45.5	-48.7	15.5	0.00e+00	0	39	0	341835776	62	5273
2026-01-13 22:18:13.74	68.96	20.23	-45.4	-48.6	15.7	0.00e+00	0	39	0	343932928	62	5183
2026-01-13 22:18:14.45	69.13	20.26	-45.2	-48.3	16.0	0.00e+00	0	39	0	344981504	62	4985
2026-01-13 22:18:15.73	69.44	20.32	-44.9	-47.9	16.3	0.00e+00	0	39	0	348127232	61	5052
2026-01-13 22:18:16.44	69.61	20.35	-44.9	-48.0	16.2	0.00e+00	0	39	0	349175808	61	5103
2026-01-13 22:18:17.72	69.92	20.40	-44.9	-47.9	16.3	0.00e+00	0	39	0	351272960	61	5062
2026-01-13 22:18:18.58	70.13	20.43	-45.0	-48.0	16.2	0.00e+00	0	39	0	353370112	61	5144
2026-01-13 22:18:20.00	70.47	20.49	-45.0	-48.1	16.2	0.00e+00	0	39	0	355467264	61	5167
2026-01-13 22:18:20.71	70.64	20.52	-45.1	-48.2	16.0	0.00e+00	0	39	0	356515840	61	5246
2026-01-13 22:18:21.99	70.95	20.57	-44.9	-47.9	16.3	0.00e+00	0	39	0	359661568	61	5084
2026-01-13 22:18:22.72	71.13	20.60	-45.0	-48.0	16.2	0.00e+00	0	39	0	360710144	61	5153
2026-01-13 22:18:24.00	71.44	20.65	-45.2	-48.3	16.0	0.00e+00	0	39	0	362807296	61	5305
2026-01-13 22:18:24.71	71.62	20.67	-45.4	-48.6	15.7	0.00e+00	0	39	0	364904448	61	5474
2026-01-13 22:18:25.99	71.93	20.72	-45.6	-48.9	15.4	0.00e+00	0	39	0	367001600	61	5682
2026-01-13 22:18:26.72	72.11	20.75	-45.5	-48.8	15.5	0.00e+00	0	39	0	368050176	61	5615
2026-01-13 22:18:28.00	72.43	20.79	-45.3	-48.5	15.8	0.00e+00	0	39	0	370147328	61	5425
2026-01-13 22:18:28.72	72.61	20.82	-45.3	-48.4	15.9	0.00e+00	0	39	0	372244480	61	5352
2026-01-13 22:18:30.00	72.92	20.87	-45.2	-48.3	16.0	0.00e+00	0	39	0	374341632	61	5321
2026-01-13 22:18:30.74	73.11	20.89	-45.2	-48.3	15.9	0.00e+00	0	39	0	375390208	61	5319
2026-01-13 22:18:32.02	73.43	20.94	-45.4	-48.5	15.7	0.00e+00	0	39	0	378535936	61	5452
2026-01-13 22:18:32.73	73.60	20.96	-45.2	-48.2	16.1	0.00e+00	0	39	0	379584512	61	5259
2026-01-13 22:18:34.01	73.92	21.00	-45.2	-48.3	16.0	0.00e+00	0	39	0	381681664	61	5285
2026-01-13 22:18:34.75	74.11	21.03	-45.0	-48.0	16.2	0.00e+00	0	39	0	383778816	61	5155
2026-01-13 22:18:36.03	74.43	21.07	-45.0	-48.0	16.3	0.00e+00	0	39	0	385875968	61	5114
2026-01-13 22:18:36.74	74.61	21.09	-45.0	-47.9	16.3	0.00e+00	0	39	0	386924544	61	5088
2026-01-13 22:18:38.22	74.98	21.14	-45.3	-48.4	15.9	0.00e+00	0	39	0	390070272	61	5370
2026-01-13 22:18:38.93	75.16	21.16	-45.5	-48.6	15.6	0.00e+00	0	39	0	391118848	61	5520
2026-01-13 22:18:40.21	75.49	21.20	-45.3	-48.4	15.8	0.00e+00	0	39	0	393216000	61	5390
2026-01-13 22:18:40.94	75.67	21.22	-45.4	-48.5	15.8	0.00e+00	0	39	0	395313152	61	5423
2026-01-13 22:18:42.22	76.00	21.26	-45.2	-48.2	16.1	0.00e+00	0	39	0	397410304	61	5279
2026-01-13 22:18:42.93	76.18	21.28	-44.9	-47.9	16.3	0.00e+00	0	39	0	398458880	61	5082
2026-01-13 22:18:44.21	76.51	21.31	-44.8	-47.8	16.4	0.00e+00	0	39	0	400556032	61	5019
2026-01-13 22:18:44.92	76.69	21.33	-44.9	-47.9	16.4	0.00e+00	0	39	0	402653184	61	5054
2026-01-13 22:18:46.20	77.02	21.37	-45.2	-48.4	15.9	0.00e+00	0	39	0	404750336	61	5347
2026-01-13 22:18:46.92	77.20	21.39	-45.5	-48.7	15.6	0.00e+00	0	39	0	405798912	61	5587
2026-01-13 22:18:48.20	77.53	21.42	-45.5	-48.8	15.5	0.00e+00	0	39	0	408944640	61	5637
2026-01-13 22:18:48.91	77.71	21.44	-45.6	-48.9	15.4	0.00e+00	0	39	0	409993216	61	5702
2026-01-13 22:18:50.19	78.04	21.47	-45.3	-48.5	15.8	0.00e+00	0	39	0	412090368	61	5411
2026-01-13 22:18:50.92	78.23	21.49	-45.2	-48.3	16.0	0.00e+00	0	39	0	413138944	61	5318
2026-01-13 22:18:52.20	78.56	21.52	-45.3	-48.5	15.9	0.00e+00	0	39	0	416284672	61	5416
2026-01-13 22:18:52.94	78.76	21.54	-45.2	-48.4	15.9	0.00e+00	0	39	0	417333248	61	5353
2026-01-13 22:18:54.22	79.09	21.57	-45.5	-48.7	15.6	0.00e+00	0	39	0	419430400	61	5579
2026-01-13 22:18:54.93	79.27	21.58	-45.7	-49.0	15.3	0.00e+00	0	40	0	421527552	61	5784
2026-01-13 22:18:56.21	79.61	21.61	-45.7	-49.0	15.3	0.00e+00	0	39	0	423624704	62	5436
2026-01-13 22:18:56.92	79.79	21.62	-45.6	-48.9	15.4	0.00e+00	0	39	0	424673280	62	5346
2026-01-13 22:18:58.20	80.12	21.65	-45.3	-48.5	15.8	0.00e+00	0	39	0	426770432	62	5140
2026-01-13 22:18:58.93	80.32	21.66	-45.4	-48.5	15.8	0.00e+00	0	39	0	428867584	62	5148
2026-01-13 22:19:00.21	80.65	21.69	-45.2	-48.4	15.9	4.50e-06	0	39	0	430964736	62	5046
2026-01-13 22:19:00.92	80.84	21.70	-45.3	-48.5	15.9	0.00e+00	0	39	0	432013312	62	5114
2026-01-13 22:19:02.20	81.17	21.73	-45.5	-48.7	15.6	0.00e+00	0	39	0	435159040	62	5255
2026-01-13 22:19:02.92	81.36	21.74	-45.6	-48.8	15.6	9.90e-06	0	39	0	436207616	62	5289
2026-01-13 22:19:04.20	81.70	21.76	-45.2	-48.3	16.1	0.00e+00	0	39	0	438304768	62	5000
2026-01-13 22:19:04.93	81.89	21.77	-45.1	-48.2	16.2	0.00e+00	0	39	0	440401920	62	4935
2026-01-13 22:19:06.21	82.23	21.79	-45.2	-48.4	16.0	0.00e+00	0	39	0	442499072	62	5044
2026-01-13 22:19:07.06	82.45	21.80	-45.2	-48.3	16.1	0.00e+00	0	39	0	443547648	62	4995
2026-01-13 22:19:08.48	82.83	21.82	-45.4	-48.5	15.8	0.00e+00	0	39	0	446693376	62	5135
2026-01-13 22:19:09.19	83.01	21.83	-45.6	-48.8	15.6	0.00e+00	0	40	0	447741952	62	5323
2026-01-13 22:19:10.47	83.35	21.85	-45.4	-48.6	15.8	0.00e+00	0	39	0	449839104	62	5187
2026-01-13 22:19:11.18	83.54	21.86	-45.4	-48.7	15.7	0.00e+00	0	39	0	451936256	62	5226
2026-01-13 22:19:12.46	83.88	21.88	-45.1	-48.3	16.0	0.00e+00	0	39	0	454033408	62	5014
2026-01-13 22:19:13.19	84.07	21.88	-45.2	-48.3	16.0	0.00e+00	0	39	0	455081984	62	5036
2026-01-13 22:19:14.47	84.41	21.90	-45.5	-48.8	15.6	0.00e+00	0	39	0	458227712	62	5307
2026-01-13 22:19:15.18	84.60	21.90	-45.8	-49.3	15.2	0.00e+00	0	40	0	459276288	62	5601
2026-01-13 22:19:16.46	84.94	21.92	-46.1	-49.8	14.6	0.00e+00	0	40	0	461373440	62	5943
2026-01-13 22:19:17.16	85.13	21.92	-46.2	-49.9	14.5	7.00e-07	0	40	0	462422016	63	5719
2026-01-13 22:19:18.45	85.47	21.93	-46.3	-50.0	14.4	0.00e+00	0	39	0	465567744	63	5738
2026-01-13 22:19:19.16	85.66	21.94	-46.2	-49.8	14.7	0.00e+00	0	39	0	466616320	63	5601
2026-01-13 22:19:20.43	86.00	21.95	-46.0	-49.6	14.9	0.00e+00	0	39	0	468713472	63	5467
2026-01-13 22:19:21.16	86.19	21.95	-45.9	-49.3	15.1	0.00e+00	0	39	0	470810624	63	5284
2026-01-13 22:19:22.44	86.53	21.96	-45.7	-49.0	15.4	0.00e+00	0	39	0	472907776	63	5152
2026-01-13 22:19:23.16	86.72	21.96	-45.6	-48.9	15.5	0.00e+00	0	39	0	473956352	63	5088
2026-01-13 22:19:24.44	87.07	21.97	-45.5	-48.9	15.6	0.00e+00	0	39	0	476053504	62	5357
2026-01-13 22:19:25.15	87.26	21.97	-45.5	-48.8	15.6	0.00e+00	0	39	0	478150656	62	5305
2026-01-13 22:19:26.64	87.65	21.98	-45.4	-48.6	15.8	0.00e+00	0	39	0	480247808	62	5190
2026-01-13 22:19:27.35	87.84	21.98	-45.4	-48.6	15.7	0.00e+00	0	39	0	482344960	62	5213
2026-01-13 22:19:28.63	88.18	21.98	-45.6	-48.9	15.5	0.00e+00	0	40	0	484442112	62	5383
2026-01-13 22:19:29.34	88.37	21.98	-45.7	-48.9	15.4	0.00e+00	0	39	0	485490688	62	5400
2026-01-13 22:19:30.74	88.75	21.98	-45.7	-49.0	15.4	1.50e-06	0	39	0	488636416	62	5457
2026-01-13 22:19:31.45	88.94	21.98	-45.7	-48.9	15.5	0.00e+00	0	40	0	489684992	62	5399
2026-01-13 22:19:32.81	89.30	21.98	-45.6	-48.8	15.6	0.00e+00	0	39	0	491782144	62	5287
2026-01-13 22:19:33.53	89.49	21.98	-45.5	-48.6	15.8	0.00e+00	0	39	0	493879296	62	5205
2026-01-13 22:19:34.80	89.83	21.98	-45.4	-48.6	15.8	0.00e+00	0	40	0	495976448	62	5164
2026-01-13 22:19:35.51	90.02	21.97	-45.5	-48.6	15.8	0.00e+00	0	39	0	497025024	62	5206
2026-01-13 22:19:36.79	90.36	21.97	-45.3	-48.4	16.0	0.00e+00	0	39	0	499122176	62	5071
2026-01-13 22:19:37.52	90.56	21.97	-45.2	-48.1	16.3	0.00e+00	0	39	0	501219328	62	4911
2026-01-13 22:19:38.80	90.90	21.96	-45.1	-48.0	16.4	0.00e+00	0	39	0	503316480	62	4828
2026-01-13 22:19:39.52	91.09	21.96	-45.1	-48.0	16.3	0.00e+00	0	39	0	504365056	62	4842
2026-01-13 22:19:40.80	91.43	21.95	-45.0	-47.9	16.5	0.00e+00	0	39	0	507510784	61	5065
2026-01-13 22:19:41.58	91.64	21.95	-45.1	-48.0	16.4	0.00e+00	0	39	0	508559360	61	5120
2026-01-13 22:19:42.85	91.98	21.94	-45.1	-48.1	16.3	0.00e+00	0	39	0	510656512	61	5174
2026-01-13 22:19:43.63	92.19	21.93	-45.2	-48.2	16.1	0.00e+00	0	39	0	512753664	61	5239
2026-01-13 22:19:45.24	92.61	21.92	-45.3	-48.4	16.0	0.00e+00	0	39	0	515899392	61	5347
2026-01-13 22:19:45.81	92.77	21.91	-45.3	-48.3	16.1	0.00e+00	0	39	0	516947968	61	5328
2026-01-13 22:19:47.51	93.22	21.90	-45.2	-48.1	16.2	0.00e+00	0	39	0	520093696	61	5201
2026-01-13 22:19:48.08	93.37	21.89	-45.2	-48.1	16.2	0.00e+00	0	39	0	521142272	61	5205
2026-01-13 22:19:49.79	93.82	21.87	-45.1	-48.0	16.3	0.00e+00	0	39	0	524288000	61	5158
2026-01-13 22:19:50.36	93.97	21.86	-45.1	-48.0	16.3	0.00e+00	0	39	0	525336576	61	5159
2026-01-13 22:19:52.06	94.42	21.84	-45.4	-48.4	15.9	0.00e+00	0	39	0	528482304	61	5388
2026-01-13 22:19:52.74	94.60	21.83	-45.5	-48.5	15.8	0.00e+00	0	39	0	529530880	61	5450
2026-01-13 22:19:54.16	94.98	21.81	-45.4	-48.4	15.9	0.00e+00	0	39	0	532676608	61	5383
2026-01-13 22:19:54.88	95.17	21.80	-45.5	-48.6	15.8	0.00e+00	0	39	0	533725184	61	5469
2026-01-13 22:19:56.15	95.50	21.78	-45.3	-48.4	16.0	0.00e+00	0	39	0	535822336	61	5350
2026-01-13 22:19:57.02	95.73	21.77	-45.2	-48.2	16.2	0.00e+00	0	39	0	537919488	61	5222
2026-01-13 22:19:58.16	96.03	21.75	-45.3	-48.3	16.0	0.00e+00	0	39	0	540016640	61	5332
2026-01-13 22:19:59.01	96.26	21.74	-45.5	-48.6	15.8	0.00e+00	0	39	0	541065216	61	5479
2026-01-13 22:20:00.15	96.56	21.72	-45.7	-48.8	15.6	0.00e+00	0	39	0	543162368	62	5320
2026-01-13 22:20:01.00	96.78	21.70	-45.7	-48.8	15.6	0.00e+00	0	39	0	545259520	62	5336
2026-01-13 22:20:02.14	97.08	21.68	-45.7	-48.8	15.5	0.00e+00	0	39	0	547356672	62	5330
2026-01-13 22:20:03.29	97.38	21.66	-45.3	-48.3	16.0	0.00e+00	0	39	0	549453824	62	5024
2026-01-13 22:20:04.32	97.65	21.64	-45.2	-48.2	16.2	0.00e+00	0	39	0	551550976	62	4946
2026-01-13 22:20:05.31	97.91	21.62	-45.1	-48.0	16.3	0.00e+00	0	39	0	553648128	62	4849
2026-01-13 22:20:06.51	98.22	21.59	-45.1	-48.0	16.3	0.00e+00	0	39	0	555745280	62	4859
2026-01-13 22:20:07.36	98.44	21.57	-45.2	-48.1	16.2	0.00e+00	0	39	0	556793856	62	4891
2026-01-13 22:20:08.50	98.74	21.55	-45.2	-48.1	16.2	0.00e+00	0	39	0	558891008	62	4923
2026-01-13 22:20:09.35	98.96	21.53	-45.2	-48.2	16.2	0.00e+00	0	39	0	560988160	62	4929
2026-01-13 22:20:10.49	99.26	21.50	-45.3	-48.3	16.1	0.00e+00	0	39	0	563085312	62	5000
2026-01-13 22:20:11.35	99.48	21.48	-45.2	-48.2	16.2	0.00e+00	0	39	0	564133888	62	4942
2026-01-13 22:20:12.48	99.77	21.45	-44.9	-47.8	16.6	0.00e+00	0	39	0	566231040	61	5006
2026-01-13 22:20:13.33	99.99	21.43	-44.8	-47.6	16.7	0.00e+00	0	39	0	568328192	61	4881
2026-01-13 22:20:14.47	100.29	21.40	-44.8	-47.6	16.7	0.00e+00	0	39	0	570425344	61	4881
2026-01-13 22:20:15.33	100.51	21.38	-44.8	-47.5	16.8	0.00e+00	0	39	0	571473920	61	4853
2026-01-13 22:20:16.46	100.80	21.35	-44.9	-47.7	16.6	0.00e+00	0	39	0	573571072	61	4946
2026-01-13 22:20:17.31	101.02	21.32	-45.0	-47.8	16.5	0.00e+00	0	39	0	575668224	61	5024
2026-01-13 22:20:18.45	101.31	21.29	-44.9	-47.7	16.6	0.00e+00	0	40	0	577765376	61	4944
2026-01-13 22:20:19.30	101.52	21.27	-44.9	-47.7	16.6	0.00e+00	0	39	0	579862528	61	4964
2026-01-13 22:20:20.44	101.82	21.23	-44.9	-47.8	16.6	0.00e+00	0	39	0	581959680	61	4986
2026-01-13 22:20:21.29	102.03	21.21	-44.8	-47.6	16.7	0.00e+00	0	39	0	583008256	61	4901
2026-01-13 22:20:22.43	102.32	21.17	-44.8	-47.6	16.7	0.00e+00	0	39	0	585105408	61	4883
2026-01-13 22:20:23.28	102.54	21.15	-44.8	-47.6	16.8	0.00e+00	0	40	0	587202560	61	4879
2026-01-13 22:20:24.42	102.83	21.11	-45.0	-47.9	16.4	0.00e+00	0	39	0	589299712	61	5073
2026-01-13 22:20:25.27	103.04	21.08	-45.1	-48.0	16.3	0.00e+00	0	39	0	590348288	61	5146
2026-01-13 22:20:26.41	103.33	21.05	-45.2	-48.2	16.1	0.00e+00	0	39	0	592445440	61	5263
2026-01-13 22:20:27.26	103.54	21.02	-45.2	-48.2	16.2	0.00e+00	0	39	0	594542592	61	5220
2026-01-13 22:20:28.40	103.83	20.98	-45.2	-48.2	16.2	0.00e+00	0	39	0	596639744	61	5227
2026-01-13 22:20:29.25	104.04	20.95	-45.1	-48.1	16.3	0.00e+00	0	39	0	597688320	61	5166
2026-01-13 22:20:30.39	104.33	20.91	-45.1	-48.0	16.4	0.00e+00	0	39	0	599785472	61	5127
2026-01-13 22:20:31.24	104.54	20.88	-44.9	-47.8	16.5	0.00e+00	0	39	0	601882624	61	5029
2026-01-13 22:20:32.38	104.82	20.84	-44.9	-47.8	16.6	0.00e+00	0	39	0	603979776	61	4998
2026-01-13 22:20:33.23	105.03	20.81	-44.8	-47.6	16.7	0.00e+00	0	39	0	605028352	61	4924
2026-01-13 22:20:34.40	105.32	20.77	-44.6	-47.3	16.9	0.00e+00	0	39	0	607125504	61	4750
2026-01-13 22:20:35.25	105.53	20.74	-44.6	-47.4	16.9	0.00e+00	0	39	0	609222656	61	4779
2026-01-13 22:20:36.39	105.82	20.70	-44.4	-47.1	17.2	0.00e+00	0	39	0	611319808	60	4899
2026-01-13 22:20:37.24	106.03	20.66	-44.4	-47.1	17.2	0.00e+00	0	40	0	613416960	60	4886
2026-01-13 22:20:38.38	106.31	20.62	-44.5	-47.3	17.0	0.00e+00	0	39	0	615514112	60	5018
2026-01-13 22:20:39.23	106.51	20.59	-44.7	-47.5	16.9	0.00e+00	0	39	0	616562688	60	5120
2026-01-13 22:20:40.56	106.84	20.54	-44.7	-47.6	16.7	0.00e+00	0	39	0	619708416	60	5172
2026-01-13 22:20:41.27	107.01	20.51	-44.9	-47.8	16.6	0.00e+00	0	39	0	620756992	60	5287
2026-01-13 22:20:42.55	107.32	20.46	-44.9	-47.8	16.6	0.00e+00	0	39	0	622854144	60	5282
2026-01-13 22:20:43.26	107.49	20.43	-44.8	-47.7	16.6	0.00e+00	0	39	0	623902720	60	5251
2026-01-13 22:20:44.54	107.80	20.38	-44.8	-47.7	16.6	0.00e+00	0	39	0	627048448	60	5238
2026-01-13 22:20:45.25	107.98	20.35	-44.9	-47.7	16.6	0.00e+00	0	39	0	628097024	60	5272
2026-01-13 22:20:46.53	108.28	20.29	-44.9	-47.7	16.6	0.00e+00	0	39	0	630194176	60	5249
2026-01-13 22:20:47.24	108.45	20.26	-44.9	-47.7	16.6	0.00e+00	0	39	0	631242752	60	5267
2026-01-13 22:20:48.52	108.76	20.21	-45.1	-48.0	16.3	0.00e+00	0	40	0	634388480	60	5434
2026-01-13 22:20:49.23	108.93	20.18	-45.2	-48.2	16.2	0.00e+00	0	40	0	635437056	61	5245
2026-01-13 22:20:50.51	109.23	20.12	-45.3	-48.4	16.0	0.00e+00	0	39	0	637534208	61	5355
2026-01-13 22:20:51.24	109.41	20.09	-45.5	-48.6	15.7	0.00e+00	0	40	0	639631360	61	5515
2026-01-13 22:20:52.52	109.71	20.03	-45.1	-48.0	16.3	0.00e+00	0	39	0	641728512	61	5151
2026-01-13 22:20:53.24	109.88	20.00	-45.1	-48.0	16.3	0.00e+00	0	40	0	642777088	61	5122
2026-01-13 22:20:54.60	110.20	19.94	-44.8	-47.6	16.7	0.00e+00	0	39	0	645922816	61	4883
2026-01-13 22:20:55.31	110.37	19.91	-44.7	-47.5	16.8	0.00e+00	0	39	0	646971392	61	4826
2026-01-13 22:20:56.59	110.67	19.85	-44.6	-47.4	16.9	0.00e+00	0	40	0	649068544	61	4791
2026-01-13 22:20:57.30	110.83	19.82	-44.7	-47.5	16.8	0.00e+00	0	39	0	650117120	61	4840
2026-01-13 22:20:58.71	111.16	19.75	-44.8	-47.6	16.7	0.00e+00	0	39	0	653262848	61	4899
2026-01-13 22:20:59.42	111.33	19.72	-44.8	-47.6	16.7	0.00e+00	0	39	0	654311424	61	4892
2026-01-13 22:21:00.70	111.62	19.66	-45.2	-48.2	16.2	0.00e+00	0	39	0	656408576	61	5220
2026-01-13 22:21:01.41	111.79	19.62	-45.5	-48.5	15.8	0.00e+00	0	39	0	658505728	61	5460
2026-01-13 22:21:02.69	112.08	19.56	-46.0	-49.3	15.1	0.00e+00	0	39	0	660602880	62	5642
2026-01-13 22:21:03.41	112.24	19.52	-46.2	-49.6	14.8	0.00e+00	0	39	0	661651456	62	5838
2026-01-13 22:21:04.69	112.54	19.46	-46.4	-50.1	14.3	7.00e-07	0	39	0	664797184	63	5795
2026-01-13 22:21:05.43	112.70	19.43	-46.4	-50.0	14.4	0.00e+00	0	39	0	665845760	63	5723
2026-01-13 22:21:06.71	113.00	19.36	-46.3	-49.8	14.6	7.00e-07	0	39	0	667942912	63	5601
2026-01-13 22:21:07.42	113.16	19.33	-46.0	-49.4	15.0	0.00e+00	0	39	0	670040064	63	5365
2026-01-13 22:21:08.70	113.44	19.26	-46.0	-49.4	15.0	0.00e+00	0	39	0	672137216	63	5351
2026-01-13 22:21:09.47	113.62	19.22	-45.9	-49.2	15.2	0.00e+00	0	39	0	673185792	63	5230
2026-01-13 22:21:10.75	113.90	19.16	-45.9	-49.2	15.2	0.00e+00	0	39	0	675282944	63	5238
2026-01-13 22:21:11.54	114.08	19.12	-45.9	-49.1	15.3	0.00e+00	0	39	0	677380096	63	5188
2026-01-13 22:21:12.74	114.35	19.06	-46.0	-49.2	15.2	0.00e+00	0	40	0	679477248	63	5263
2026-01-13 22:21:13.60	114.54	19.01	-45.8	-49.1	15.3	0.00e+00	0	39	0	681574400	63	5170
2026-01-13 22:21:14.73	114.79	18.95	-45.8	-49.0	15.3	0.00e+00	0	39	0	683671552	63	5155
2026-01-13 22:21:15.78	115.02	18.90	-46.0	-49.2	15.1	0.00e+00	0	39	0	684720128	63	5276
2026-01-13 22:21:16.92	115.27	18.84	-45.7	-48.9	15.4	0.00e+00	0	39	0	687865856	63	5074
2026-01-13 22:21:17.77	115.46	18.79	-45.7	-48.9	15.5	0.00e+00	0	39	0	688914432	63	5069
2026-01-13 22:21:18.91	115.70	18.73	-45.8	-49.1	15.3	0.00e+00	0	39	0	691011584	63	5167
2026-01-13 22:21:19.76	115.89	18.68	-45.6	-48.8	15.5	0.00e+00	0	39	0	693108736	63	5021
2026-01-13 22:21:20.90	116.14	18.62	-45.6	-48.8	15.6	0.00e+00	0	39	0	695205888	63	4995
2026-01-13 22:21:21.76	116.32	18.58	-45.5	-48.7	15.7	0.00e+00	0	39	0	696254464	63	4949
2026-01-13 22:21:22.90	116.57	18.51	-45.7	-48.9	15.5	0.00e+00	0	40	0	698351616	62	5347
2026-01-13 22:21:23.75	116.75	18.47	-45.9	-49.2	15.2	0.00e+00	0	39	0	700448768	62	5535
2026-01-13 22:21:24.89	116.99	18.40	-46.2	-49.7	14.6	0.00e+00	0	39	0	702545920	63	5590
2026-01-13 22:21:25.74	117.17	18.36	-46.4	-50.0	14.4	7.00e-07	0	39	0	703594496	63	5760
2026-01-13 22:21:26.88	117.41	18.29	-46.7	-50.6	13.7	3.80e-06	0	39	0	705691648	64	5791
2026-01-13 22:21:27.73	117.59	18.25	-46.8	-50.8	13.5	3.00e-06	0	40	0	707788800	64	5942
2026-01-13 22:21:28.87	117.83	18.18	-46.7	-50.6	13.8	4.50e-06	0	39	0	709885952	64	5799
2026-01-13 22:21:29.72	118.01	18.13	-46.6	-50.4	13.9	6.10e-06	0	39	0	710934528	64	5700
2026-01-13 22:21:31.07	118.29	18.06	-46.2	-49.6	14.6	7.00e-07	0	39	0	714080256	64	5209
2026-01-13 22:21:31.78	118.44	18.02	-46.0	-49.4	14.8	0.00e+00	0	39	0	715128832	64	5078
2026-01-13 22:21:33.06	118.71	17.94	-45.9	-49.1	15.2	0.00e+00	0	39	0	717225984	63	5210
2026-01-13 22:21:33.77	118.85	17.90	-45.9	-49.1	15.2	0.00e+00	0	39	0	719323136	63	5209
2026-01-13 22:21:35.05	119.12	17.83	-46.1	-49.5	14.9	7.00e-07	0	40	0	721420288	63	5441
2026-01-13 22:21:35.76	119.26	17.79	-46.2	-49.6	14.7	0.00e+00	0	39	0	722468864	63	5527
2026-01-13 22:21:37.04	119.52	17.71	-46.5	-50.1	14.3	1.50e-06	0	39	0	724566016	63	5837
2026-01-13 22:21:37.76	119.67	17.67	-46.4	-49.9	14.4	7.00e-07	0	39	0	726663168	63	5715
2026-01-13 22:21:39.04	119.93	17.60	-46.4	-49.9	14.4	1.50e-06	0	39	0	728760320	63	5678
2026-01-13 22:21:39.75	120.07	17.56	-46.1	-49.5	14.8	7.00e-07	0	39	0	729808896	63	5428
2026-01-13 22:21:41.03	120.33	17.48	-45.9	-49.1	15.3	0.00e+00	0	39	0	732954624	63	5181
2026-01-13 22:21:41.74	120.47	17.44	-45.9	-49.1	15.2	0.00e+00	0	39	0	734003200	63	5192
2026-01-13 22:21:43.02	120.73	17.36	-45.7	-48.8	15.5	0.00e+00	0	39	0	736100352	63	5013
2026-01-13 22:21:43.73	120.87	17.32	-45.7	-48.9	15.5	0.00e+00	0	40	0	737148928	63	5051
2026-01-13 22:21:45.01	121.12	17.25	-45.9	-49.1	15.2	0.00e+00	0	39	0	740294656	63	5191
2026-01-13 22:21:45.72	121.26	17.20	-45.8	-49.0	15.4	0.00e+00	0	39	0	741343232	63	5116
2026-01-13 22:21:47.22	121.56	17.11	-45.9	-49.3	15.0	0.00e+00	0	39	0	744488960	63	5300
2026-01-13 22:21:47.93	121.70	17.07	-45.8	-49.2	15.2	0.00e+00	0	39	0	745537536	63	5221
2026-01-13 22:21:49.21	121.95	16.99	-45.6	-48.8	15.5	0.00e+00	0	39	0	747634688	63	5017
2026-01-13 22:21:50.30	122.16	16.93	-45.4	-48.6	15.7	0.00e+00	0	39	0	749731840	62	5188
2026-01-13 22:21:51.15	122.32	16.88	-45.5	-48.7	15.6	0.00e+00	0	39	0	751828992	62	5248
2026-01-13 22:21:52.29	122.54	16.81	-45.9	-49.2	15.2	0.00e+00	0	39	0	753926144	62	5529
2026-01-13 22:21:53.14	122.71	16.75	-46.0	-49.4	15.0	0.00e+00	0	39	0	754974720	62	5658
2026-01-13 22:21:54.28	122.92	16.68	-46.0	-49.5	14.8	0.00e+00	0	39	0	757071872	62	5749
2026-01-13 22:21:55.13	123.09	16.63	-46.2	-49.6	14.7	7.00e-07	0	39	0	759169024	63	5526
2026-01-13 22:21:56.27	123.30	16.56	-46.1	-49.5	14.8	0.00e+00	0	39	0	761266176	63	5462
2026-01-13 22:21:57.12	123.46	16.51	-46.1	-49.6	14.8	7.00e-07	0	39	0	762314752	63	5470
2026-01-13 22:21:58.40	123.70	16.43	-45.7	-49.0	15.3	0.00e+00	0	39	0	765460480	63	5144
2026-01-13 22:21:59.11	123.84	16.39	-45.7	-48.9	15.4	0.00e+00	0	39	0	766509056	63	5072
2026-01-13 22:22:00.39	124.08	16.31	-45.4	-48.5	15.8	0.00e+00	0	39	0	768606208	62	5117
2026-01-13 22:22:01.10	124.21	16.26	-45.6	-48.7	15.6	0.00e+00	0	39	0	769654784	62	5237
2026-01-13 22:22:02.38	124.44	16.18	-45.6	-48.7	15.6	0.00e+00	0	39	0	772800512	62	5275
2026-01-13 22:22:03.09	124.57	16.14	-45.6	-48.7	15.6	0.00e+00	0	39	0	773849088	62	5273
2026-01-13 22:22:04.37	124.81	16.06	-46.0	-49.4	15.0	0.00e+00	0	39	0	775946240	62	5659
2026-01-13 22:22:05.10	124.94	16.01	-46.1	-49.5	14.8	0.00e+00	0	39	0	778043392	62	5747
2026-01-13 22:22:06.38	125.18	15.93	-46.3	-49.7	14.6	0.00e+00	0	39	0	780140544	63	5584
2026-01-13 22:22:07.09	125.31	15.89	-46.3	-49.9	14.4	7.00e-07	0	39	0	781189120	63	5673
2026-01-13 22:22:08.37	125.54	15.81	-46.2	-49.7	14.6	7.00e-07	0	39	0	784334848	63	5532
2026-01-13 22:22:09.08	125.66	15.76	-46.0	-49.5	14.9	0.00e+00	0	39	0	785383424	63	5405
2026-01-13 22:22:10.36	125.89	15.68	-45.9	-49.3	15.0	7.00e-07	0	39	0	787480576	63	5340
2026-01-13 22:22:11.10	126.03	15.64	-46.0	-49.4	14.9	0.00e+00	0	39	0	788529152	63	5356
2026-01-13 22:22:12.38	126.25	15.56	-46.3	-49.7	14.6	0.00e+00	0	39	0	791674880	63	5591
2026-01-13 22:22:13.09	126.38	15.51	-46.3	-49.9	14.4	7.00e-07	0	39	0	792723456	63	5661
2026-01-13 22:22:14.37	126.60	15.43	-46.4	-50.0	14.3	0.00e+00	0	39	0	794820608	63	5771
2026-01-13 22:22:15.08	126.73	15.38	-46.3	-49.9	14.4	0.00e+00	0	39	0	796917760	63	5682
2026-01-13 22:22:16.36	126.95	15.30	-46.0	-49.4	14.8	0.00e+00	0	39	0	799014912	63	5400
2026-01-13 22:22:17.09	127.08	15.26	-45.9	-49.3	14.9	0.00e+00	0	40	0	800063488	63	5339
2026-01-13 22:22:18.62	127.34	15.16	-45.5	-48.6	15.6	0.00e+00	0	39	0	803209216	62	5206
2026-01-13 22:22:19.33	127.47	15.11	-45.3	-48.4	15.9	0.00e+00	0	39	0	804257792	62	5055
2026-01-13 22:22:20.61	127.69	15.03	-45.2	-48.2	16.1	0.00e+00	0	39	0	806354944	62	4940
2026-01-13 22:22:21.68	127.87	14.96	-45.2	-48.2	16.1	0.00e+00	0	39	0	808452096	62	4951
2026-01-13 22:22:22.80	128.06	14.89	-45.4	-48.5	15.8	0.00e+00	0	39	0	810549248	62	5105
2026-01-13 22:22:23.66	128.21	14.83	-45.5	-48.6	15.7	0.00e+00	0	39	0	812646400	62	5191
2026-01-13 22:22:24.80	128.40	14.76	-45.6	-48.9	15.4	0.00e+00	0	39	0	814743552	62	5349
2026-01-13 22:22:25.65	128.54	14.71	-45.7	-49.0	15.3	0.00e+00	0	39	0	815792128	62	5406
2026-01-13 22:22:26.79	128.73	14.63	-45.6	-48.9	15.4	0.00e+00	0	39	0	817889280	62	5342
2026-01-13 22:22:27.64	128.87	14.58	-45.4	-48.5	15.7	0.00e+00	0	39	0	819986432	62	5159
2026-01-13 22:22:28.78	129.06	14.51	-45.2	-48.3	15.9	0.00e+00	0	39	0	822083584	62	5007
2026-01-13 22:22:29.63	129.20	14.45	-45.3	-48.3	15.9	0.00e+00	0	39	0	824180736	62	5033
2026-01-13 22:22:30.86	129.41	14.37	-45.0	-48.0	16.3	0.00e+00	0	39	0	826277888	62	4823
2026-01-13 22:22:31.72	129.55	14.32	-45.1	-48.1	16.1	0.00e+00	0	39	0	827326464	61	5176
2026-01-13 22:22:32.85	129.73	14.24	-45.1	-48.1	16.1	0.00e+00	0	39	0	829423616	61	5194
2026-01-13 22:22:33.71	129.87	14.19	-45.0	-48.0	16.2	0.00e+00	0	39	0	831520768	61	5111
2026-01-13 22:22:34.99	130.08	14.10	-45.4	-48.6	15.6	0.00e+00	0	39	0	833617920	61	5469
2026-01-13 22:22:35.70	130.19	14.06	-45.5	-48.6	15.6	0.00e+00	0	39	0	834666496	61	5516
2026-01-13 22:22:36.98	130.40	13.97	-45.5	-48.8	15.5	0.00e+00	0	39	0	837812224	61	5599
2026-01-13 22:22:37.70	130.51	13.93	-45.7	-48.9	15.3	0.00e+00	0	39	0	838860800	62	5392
2026-01-13 22:22:38.98	130.72	13.84	-45.7	-49.0	15.3	0.00e+00	0	39	0	840957952	62	5427
2026-01-13 22:22:39.70	130.83	13.80	-45.9	-49.2	15.0	0.00e+00	0	39	0	843055104	62	5569
2026-01-13 22:22:40.97	131.03	13.72	-45.9	-49.2	15.0	0.00e+00	0	39	0	845152256	62	5580
2026-01-13 22:22:41.70	131.14	13.67	-45.8	-49.1	15.2	0.00e+00	0	39	0	846200832	62	5500
2026-01-13 22:22:42.98	131.34	13.58	-46.0	-49.5	14.8	0.00e+00	0	39	0	848297984	62	5730
2026-01-13 22:22:43.71	131.46	13.54	-46.3	-49.9	14.4	7.00e-07	0	39	0	850395136	63	5661
2026-01-13 22:22:44.99	131.66	13.45	-46.3	-50.0	14.3	7.00e-07	0	40	0	852492288	63	5736
2026-01-13 22:22:45.71	131.77	13.41	-46.5	-50.2	14.1	1.50e-06	0	39	0	853540864	63	5877
2026-01-13 22:22:46.99	131.96	13.32	-46.6	-50.3	13.9	3.00e-06	0	39	0	856686592	63	5977
2026-01-13 22:22:47.70	132.07	13.28	-46.5	-50.3	13.9	1.50e-06	0	39	0	857735168	63	5952
2026-01-13 22:22:48.98	132.27	13.19	-46.3	-49.8	14.4	1.50e-06	0	39	0	859832320	63	5651
2026-01-13 22:22:49.72	132.38	13.15	-45.9	-49.3	14.9	7.00e-07	0	39	0	860880896	63	5334
2026-01-13 22:22:51.02	132.58	13.06	-45.9	-49.2	15.0	0.00e+00	0	39	0	864026624	63	5260
2026-01-13 22:22:51.73	132.68	13.02	-45.7	-48.9	15.3	7.00e-07	0	39	0	865075200	63	5083
2026-01-13 22:22:53.01	132.87	12.93	-45.6	-48.7	15.5	0.00e+00	0	39	0	867172352	63	4977
2026-01-13 22:22:53.72	132.98	12.89	-45.6	-48.7	15.5	0.00e+00	0	39	0	869269504	63	4957
2026-01-13 22:22:55.00	133.17	12.80	-45.6	-48.8	15.4	0.00e+00	0	39	0	871366656	62	5337
2026-01-13 22:22:55.71	133.27	12.76	-45.7	-48.9	15.3	0.00e+00	0	39	0	872415232	62	5394
2026-01-13 22:22:57.22	133.50	12.66	-46.0	-49.3	14.9	0.00e+00	0	39	0	875560960	62	5653
2026-01-13 22:22:57.93	133.60	12.61	-46.0	-49.4	14.9	0.00e+00	0	39	0	876609536	62	5665
2026-01-13 22:22:59.21	133.79	12.53	-46.1	-49.6	14.7	0.00e+00	0	39	0	878706688	62	5805
2026-01-13 22:22:59.92	133.89	12.48	-46.0	-49.5	14.7	1.50e-06	0	39	0	880803840	63	5437
2026-01-13 22:23:01.20	134.08	12.40	-46.1	-49.7	14.5	0.00e+00	0	39	0	882900992	63	5551
2026-01-13 22:23:01.93	134.18	12.35	-46.1	-49.7	14.5	0.00e+00	0	39	0	883949568	63	5547
2026-01-13 22:23:03.21	134.36	12.27	-46.1	-49.6	14.6	0.00e+00	0	39	0	887095296	63	5503
2026-01-13 22:23:03.92	134.47	12.22	-46.2	-49.7	14.4	7.00e-07	0	39	0	888143872	63	5585
2026-01-13 22:23:05.20	134.65	12.14	-46.2	-49.7	14.6	0.00e+00	0	39	0	890241024	63	5560
2026-01-13 22:23:05.93	134.75	12.09	-46.3	-49.8	14.4	1.50e-06	0	39	0	891289600	63	5656
2026-01-13 22:23:07.21	134.93	12.01	-46.4	-50.1	14.1	1.50e-06	0	39	0	894435328	63	5830
2026-01-13 22:23:08.08	135.05	11.95	-46.6	-50.5	13.7	3.80e-06	0	39	0	895483904	63	6068
2026-01-13 22:23:09.21	135.21	11.88	-46.6	-50.5	13.7	7.60e-06	0	39	0	897581056	63	6089
2026-01-13 22:23:10.06	135.33	11.82	-46.5	-50.4	13.7	6.80e-06	0	39	0	899678208	64	5713
2026-01-13 22:23:11.20	135.49	11.75	-46.7	-50.7	13.4	9.90e-06	0	39	0	901775360	64	5894
2026-01-13 22:23:12.05	135.60	11.69	-46.5	-50.4	13.7	1.44e-05	0	39	0	902823936	64	5678
2026-01-13 22:23:13.19	135.76	11.62	-46.3	-50.0	14.1	2.20e-06	0	39	0	904921088	64	5413
2026-01-13 22:23:14.04	135.88	11.56	-46.1	-49.6	14.4	1.50e-06	0	40	0	907018240	64	5218
2026-01-13 22:23:15.18	136.03	11.49	-46.0	-49.5	14.6	0.00e+00	0	39	0	909115392	63	5451
2026-01-13 22:23:16.03	136.15	11.44	-46.2	-49.7	14.5	0.00e+00	0	39	0	911212544	63	5555
2026-01-13 22:23:17.17	136.30	11.36	-46.0	-49.5	14.7	0.00e+00	0	39	0	913309696	63	5416
2026-01-13 22:23:18.02	136.41	11.31	-46.0	-49.5	14.6	0.00e+00	0	39	0	914358272	63	5441
2026-01-13 22:23:19.16	136.57	11.23	-45.7	-49.0	15.1	7.00e-07	0	39	0	916455424	63	5106
2026-01-13 22:23:20.07	136.69	11.17	-45.7	-49.0	15.1	0.00e+00	0	39	0	918552576	63	5152
2026-01-13 22:23:21.24	136.84	11.10	-45.8	-49.1	15.1	0.00e+00	0	39	0	920649728	63	5170
2026-01-13 22:23:22.12	136.96	11.04	-45.9	-49.3	14.8	0.00e+00	0	39	0	921698304	63	5329
2026-01-13 22:23:23.26	137.11	10.97	-46.2	-49.9	14.3	7.00e-07	0	39	0	923795456	63	5671
2026-01-13 22:23:24.19	137.23	10.91	-46.2	-49.9	14.3	1.50e-06	0	39	0	925892608	63	5678
2026-01-13 22:23:25.36	137.38	10.83	-46.0	-49.5	14.7	7.00e-07	0	39	0	927989760	63	5410
2026-01-13 22:23:26.21	137.49	10.78	-46.1	-49.7	14.5	0.00e+00	0	39	0	930086912	63	5546
2026-01-13 22:23:27.35	137.64	10.70	-46.1	-49.6	14.5	0.00e+00	0	39	0	932184064	63	5485
2026-01-13 22:23:28.30	137.76	10.64	-46.0	-49.4	14.7	1.50e-06	0	40	0	933232640	63	5393
2026-01-13 22:23:29.46	137.91	10.57	-46.0	-49.5	14.6	0.00e+00	0	39	0	936378368	63	5417
2026-01-13 22:23:30.32	138.02	10.51	-46.1	-49.6	14.5	0.00e+00	0	39	0	937426944	63	5522
2026-01-13 22:23:31.66	138.19	10.43	-46.1	-49.6	14.5	7.00e-07	0	39	0	939524096	63	5504
2026-01-13 22:23:32.37	138.28	10.38	-46.1	-49.6	14.5	0.00e+00	0	39	0	941621248	63	5481
2026-01-13 22:23:33.65	138.44	10.30	-46.2	-49.9	14.2	0.00e+00	0	39	0	943718400	63	5702
2026-01-13 22:23:34.37	138.53	10.25	-46.3	-50.0	14.1	1.50e-06	0	39	0	944766976	63	5763
2026-01-13 22:23:35.64	138.69	10.17	-46.7	-50.7	13.5	2.20e-06	0	39	0	947912704	63	6206
2026-01-13 22:23:36.36	138.78	10.13	-46.6	-50.6	13.4	1.75e-05	0	39	0	948961280	64	5838
2026-01-13 22:23:37.64	138.94	10.04	-46.6	-50.7	13.3	2.05e-05	0	40	0	951058432	64	5875
2026-01-13 22:23:38.35	139.03	10.00	-46.7	-50.8	13.2	1.06e-05	0	40	0	952107008	64	5969
2026-01-13 22:23:39.63	139.18	9.92	-46.6	-50.7	13.3	1.44e-05	0	39	0	955252736	64	5863
2026-01-13 22:23:40.34	139.27	9.87	-46.5	-50.4	13.5	9.90e-06	0	39	0	956301312	64	5705
2026-01-13 22:23:41.61	139.43	9.79	-46.5	-50.4	13.5	8.30e-06	0	39	0	958398464	64	5698
2026-01-13 22:23:42.33	139.51	9.75	-46.3	-50.2	13.8	6.10e-06	0	39	0	960495616	64	5529
2026-01-13 22:23:43.61	139.67	9.66	-46.3	-50.1	13.9	2.20e-06	0	40	0	962592768	64	5484
2026-01-13 22:23:44.68	139.80	9.60	-46.1	-49.8	14.2	3.00e-06	0	39	0	964689920	64	5294
2026-01-13 22:23:45.53	139.90	9.54	-46.1	-49.7	14.3	0.00e+00	0	39	0	965738496	64	5235
2026-01-13 22:23:46.67	140.03	9.47	-46.3	-50.0	14.0	2.20e-06	0	39	0	967835648	64	5450
2026-01-13 22:23:47.52	140.13	9.42	-46.1	-49.7	14.2	0.00e+00	0	39	0	969932800	64	5278
2026-01-13 22:23:48.66	140.27	9.34	-46.1	-49.7	14.2	1.50e-06	0	39	0	972029952	64	5265
2026-01-13 22:23:49.52	140.37	9.29	-46.3	-50.1	13.8	3.00e-06	0	40	0	973078528	64	5502
2026-01-13 22:23:50.65	140.50	9.22	-46.2	-50.0	13.9	3.00e-06	0	39	0	975175680	64	5446
2026-01-13 22:23:51.51	140.60	9.16	-46.2	-50.1	13.8	3.80e-06	0	39	0	977272832	64	5494
2026-01-13 22:23:52.64	140.73	9.09	-46.3	-50.3	13.5	9.90e-06	0	39	0	979369984	64	5654
2026-01-13 22:23:53.50	140.83	9.04	-46.3	-50.3	13.5	1.06e-05	0	39	0	980418560	64	5631
2026-01-13 22:23:54.63	140.96	8.97	-48.1	-53.9	10.5	3.80e-06	0	39	0	983564288	66	7596
2026-01-13 22:23:55.48	141.06	8.91	-50.3	-65.6	3.8	1.25e+00	0	39	104	983564288	71	21875
2026-01-13 22:23:56.62	141.19	8.84	-50.4	-65.7	3.8	1.49e+00	0	39	104	983564288	71	22228
2026-01-13 22:23:57.47	141.29	8.79	-50.6	-65.9	3.8	1.49e+00	0	39	104	983564288	71	22525
2026-01-13 22:23:58.61	141.42	8.72	-50.5	-65.9	3.8	1.49e+00	0	39	104	983564288	71	22648
2026-01-13 22:23:59.46	141.51	8.66	-50.6	-65.9	3.8	1.49e+00	0	39	104	983564288	72	21378
2026-01-13 22:24:00.59	141.64	8.59	-50.4	-65.9	3.8	1.49e+00	0	39	104	983564288	72	21497
2026-01-13 22:24:01.45	141.74	8.54	-50.7	-65.9	3.8	1.49e+00	0	39	104	983564288	72	21485
2026-01-13 22:24:02.58	141.86	8.47	-50.8	-66.0	3.8	1.49e+00	0	39	104	983564288	72	21683
2026-01-13 22:24:03.43	141.96	8.41	-50.8	-66.0	3.8	1.49e+00	0	39	104	983564288	72	21619
2026-01-13 22:24:04.57	142.08	8.34	-50.8	-66.0	3.8	1.49e+00	0	39	104	983564288	72	21690
2026-01-13 22:24:05.42	142.18	8.29	-50.6	-66.1	3.8	1.49e+00	0	39	104	983564288	72	21801
2026-01-13 22:24:06.55	142.30	8.22	-50.9	-66.1	3.8	1.49e+00	0	39	104	983564288	72	21769
2026-01-13 22:24:07.41	142.39	8.17	-50.8	-66.1	3.8	1.49e+00	0	39	104	983564288	72	21924
2026-01-13 22:24:08.54	142.52	8.10	-50.9	-66.1	3.8	1.49e+00	0	39	104	983564288	72	21917
2026-01-13 22:24:09.39	142.61	8.04	-50.9	-66.1	3.8	1.49e+00	0	39	104	983564288	72	21955
2026-01-13 22:24:10.55	142.73	7.97	-51.0	-66.1	3.8	1.49e+00	0	39	104	983564288	72	21898
2026-01-13 22:24:11.40	142.82	7.92	-50.8	-66.1	3.8	1.49e+00	0	39	104	983564288	72	21883
2026-01-13 22:24:12.56	142.95	7.85	-50.8	-66.1	3.8	1.49e+00	0	39	104	983564288	72	21949
2026-01-13 22:24:13.42	143.04	7.79	-50.6	-66.1	3.8	1.49e+00	0	39	104	983564288	72	21919
2026-01-13 22:24:14.58	143.16	7.72	-50.7	-66.1	3.8	1.49e+00	0	39	104	983564288	72	21806
2026-01-13 22:24:15.43	143.25	7.67	-50.7	-66.1	3.8	1.49e+00	0	39	104	983564288	72	21792
2026-01-13 22:24:16.62	143.38	7.60	-50.7	-66.1	3.8	1.49e+00	0	39	104	983564288	72	21814
2026-01-13 22:24:17.47	143.47	7.54	-50.7	-66.1	3.8	1.49e+00	0	39	104	983564288	72	21801
2026-01-13 22:24:18.60	143.58	7.47	-50.7	-66.0	3.8	1.49e+00	0	39	104	983564288	72	21711
2026-01-13 22:24:19.46	143.67	7.42	-50.7	-66.1	3.8	1.49e+00	0	39	104	983564288	72	21817
2026-01-13 22:24:20.59	143.79	7.35	-50.7	-66.1	3.8	1.49e+00	0	39	104	983564288	72	21762
2026-01-13 22:24:21.44	143.88	7.30	-50.7	-66.1	3.8	1.49e+00	0	39	104	983564288	72	21786
2026-01-13 22:24:22.58	144.00	7.23	-50.7	-66.1	3.8	1.49e+00	0	39	104	983564288	72	21765
2026-01-13 22:24:23.43	144.08	7.18	-50.7	-66.1	3.8	1.49e+00	0	40	104	983564288	72	21757
2026-01-13 22:24:24.56	144.20	7.11	-50.7	-66.0	3.8	1.49e+00	0	40	104	983564288	72	21712
2026-01-13 22:24:25.42	144.28	7.06	-50.7	-66.1	3.8	1.49e+00	0	39	104	983564288	72	21760
2026-01-13 22:24:26.55	144.40	6.99	-50.7	-66.1	3.8	1.49e+00	0	39	104	983564288	72	21778
2026-01-13 22:24:27.40	144.48	6.94	-50.7	-66.0	3.8	1.49e+00	0	39	104	983564288	72	21754
2026-01-13 22:24:28.54	144.60	6.87	-50.7	-66.1	3.8	1.49e+00	0	39	104	983564288	72	21809
2026-01-13 22:24:29.39	144.68	6.82	-50.7	-66.1	3.8	1.49e+00	0	39	104	983564288	72	21772
2026-01-13 22:24:30.53	144.80	6.75	-50.7	-66.0	3.8	1.49e+00	0	40	104	983564288	72	21752
2026-01-13 22:24:31.38	144.88	6.70	-50.7	-66.1	3.8	1.49e+00	0	39	104	983564288	72	21845
2026-01-13 22:24:32.51	144.99	6.63	-50.7	-66.0	3.8	1.49e+00	0	39	104	983564288	72	21739
2026-01-13 22:24:33.36	145.08	6.58	-50.7	-66.0	3.8	1.49e+00	0	39	104	983564288	72	21724
2026-01-13 22:24:34.50	145.19	6.51	-50.7	-66.0	3.8	1.49e+00	0	39	104	983564288	72	21695
2026-01-13 22:24:35.35	145.27	6.46	-50.7	-66.1	3.8	1.49e+00	0	39	104	983564288	72	21763
2026-01-13 22:24:36.49	145.38	6.39	-50.7	-66.1	3.8	1.49e+00	0	39	104	983564288	72	21774
2026-01-13 22:24:37.34	145.46	6.34	-50.7	-66.0	3.8	1.49e+00	0	39	104	983564288	72	21751
2026-01-13 22:24:38.47	145.57	6.27	-50.7	-66.0	3.8	1.49e+00	0	39	104	983564288	72	21726
2026-01-13 22:24:39.32	145.65	6.22	-50.7	-66.0	3.8	1.49e+00	0	39	104	983564288	72	21734
2026-01-13 22:24:40.46	145.76	6.15	-50.7	-66.0	3.8	1.49e+00	0	39	104	983564288	72	21713
2026-01-13 22:24:41.31	145.84	6.10	-50.7	-66.0	3.8	1.49e+00	0	39	104	983564288	72	21698
2026-01-13 22:24:42.45	145.95	6.03	-50.7	-66.0	3.8	1.49e+00	0	39	104	983564288	72	21651
2026-01-13 22:24:43.30	146.03	5.98	-50.7	-66.0	3.8	1.49e+00	0	39	104	983564288	72	21724
2026-01-13 22:24:44.43	146.14	5.91	-50.7	-66.0	3.8	1.49e+00	0	40	104	983564288	72	21671
2026-01-13 22:24:45.28	146.22	5.86	-50.7	-66.0	3.8	1.49e+00	0	39	104	983564288	72	21718
2026-01-13 22:24:46.42	146.32	5.79	-50.7	-66.1	3.8	1.49e+00	0	39	104	983564288	72	21818
2026-01-13 22:24:47.27	146.40	5.74	-50.7	-66.0	3.8	1.49e+00	0	39	104	983564288	72	21742
2026-01-13 22:24:48.41	146.51	5.68	-50.7	-66.1	3.8	1.49e+00	0	39	104	983564288	72	21786
2026-01-13 22:24:49.26	146.59	5.63	-50.7	-66.0	3.8	1.49e+00	0	39	104	983564288	72	21686
2026-01-13 22:24:50.39	146.69	5.56	-50.7	-66.0	3.8	1.49e+00	0	39	104	983564288	72	21606
2026-01-13 22:24:51.24	146.77	5.51	-50.7	-66.0	3.8	1.49e+00	0	39	104	983564288	72	21680
2026-01-13 22:24:52.38	146.87	5.44	-50.7	-66.0	3.8	1.49e+00	0	39	104	983564288	72	21731
2026-01-13 22:24:53.23	146.95	5.39	-50.7	-66.0	3.8	1.49e+00	0	39	104	983564288	72	21660
2026-01-13 22:24:54.37	147.05	5.32	-50.7	-66.0	3.8	1.49e+00	0	39	104	983564288	72	21694
2026-01-13 22:24:55.22	147.13	5.27	-50.7	-66.0	3.8	1.49e+00	0	39	104	983564288	72	21634
2026-01-13 22:24:56.35	147.23	5.21	-50.7	-66.0	3.8	1.49e+00	0	39	104	983564288	72	21732
2026-01-13 22:24:57.20	147.31	5.16	-50.7	-66.0	3.8	1.49e+00	0	39	104	983564288	72	21634
2026-01-13 22:24:58.34	147.41	5.09	-50.7	-66.1	3.8	1.49e+00	0	39	104	983564288	72	21767
2026-01-13 22:24:59.19	147.48	5.04	-50.7	-66.0	3.8	1.49e+00	0	39	104	983564288	72	21706
2026-01-13 22:25:00.32	147.58	4.97	-50.7	-66.0	3.8	1.49e+00	0	40	104	983564288	72	21740

#Closed at: 2026-01-13 22:25:01
#Recorded file [983 MB]: D:/Data/31040_260114_011400.dat