passes_logs/2026/01/13/T1/T1__20260113_114529_SUOMI_NPP_rec.log

#Pass ID: 20260113_114529_SUOMI NPP
#Satellite: SUOMI NPP
#Configuration: NPP
#almurnet v.1.7.20251203
#Start time: 2026-01-13 11:45:31

#Version: 2.0.20230620
#Station: T1
#Location: 37.570604 lon 55.790049 lat
#TLE: 1 37849U 11061A   26012.28456845  .00000093  00000+0  65163-4 0  9999
#TLE: 2 37849  98.7807 314.3566 0002508  68.3553 291.7890 14.19524725736322

#Time	Az	El	Level	Level2	SNR	BER	BlckErr	Temp	State	Recorded	gain1	gain2
2026-01-13 11:45:31.78	219.09	5.10	-51.6	-67.1	3.8	1.49e+00	0	41	0	0	75	20742
2026-01-13 11:45:32.77	219.19	5.16	-51.6	-67.1	3.8	1.49e+00	0	41	104	0	74	21929
2026-01-13 11:45:33.76	219.29	5.21	-51.6	-67.1	3.8	1.49e+00	0	41	104	0	74	21904
2026-01-13 11:45:34.76	219.39	5.27	-51.6	-67.1	3.8	1.49e+00	0	41	104	0	74	21884
2026-01-13 11:45:35.75	219.49	5.32	-51.6	-67.1	3.8	1.49e+00	0	41	104	0	74	21949
2026-01-13 11:45:36.74	219.59	5.38	-51.6	-67.1	3.8	1.49e+00	0	41	104	0	74	21887
2026-01-13 11:45:37.74	219.69	5.43	-51.6	-67.1	3.8	1.49e+00	0	41	104	0	74	21905
2026-01-13 11:45:38.73	219.79	5.49	-51.6	-67.1	3.8	1.49e+00	0	41	104	0	74	21914
2026-01-13 11:45:39.72	219.89	5.54	-51.6	-67.1	3.8	1.49e+00	0	41	104	0	74	21874
2026-01-13 11:45:40.72	219.99	5.60	-51.6	-67.1	3.8	1.49e+00	0	41	104	0	74	21902
2026-01-13 11:45:41.71	220.09	5.66	-51.6	-67.1	3.8	1.49e+00	0	41	104	0	74	21929
2026-01-13 11:45:42.71	220.19	5.71	-51.6	-67.1	3.8	1.49e+00	0	41	104	0	74	21854
2026-01-13 11:45:43.70	220.29	5.77	-51.6	-67.1	3.8	1.49e+00	0	41	104	0	74	21875
2026-01-13 11:45:44.69	220.39	5.82	-51.6	-67.1	3.8	1.49e+00	0	41	104	0	74	21942
2026-01-13 11:45:45.69	220.50	5.88	-51.6	-67.1	3.8	1.49e+00	0	41	104	0	74	21903
2026-01-13 11:45:46.68	220.60	5.93	-51.6	-67.2	3.8	1.49e+00	0	42	104	0	74	22076
2026-01-13 11:45:47.67	220.70	5.99	-51.6	-67.1	3.8	1.49e+00	0	41	104	0	74	21842
2026-01-13 11:45:48.67	220.81	6.04	-51.6	-67.1	3.8	1.49e+00	0	42	104	0	74	21957
2026-01-13 11:45:49.66	220.91	6.10	-51.6	-67.2	3.8	1.49e+00	0	42	104	0	74	22029
2026-01-13 11:45:50.65	221.01	6.15	-51.6	-67.1	3.8	1.49e+00	0	42	104	0	74	21986
2026-01-13 11:45:51.65	221.12	6.21	-51.6	-67.1	3.8	1.49e+00	0	42	104	0	74	21940
2026-01-13 11:45:52.64	221.23	6.27	-51.6	-67.1	3.8	1.49e+00	0	42	104	0	74	21865
2026-01-13 11:45:53.63	221.33	6.32	-51.6	-67.0	3.8	1.49e+00	0	42	104	0	74	21746
2026-01-13 11:45:54.63	221.44	6.38	-51.6	-67.0	3.8	1.49e+00	0	42	104	0	74	21710
2026-01-13 11:45:55.62	221.54	6.43	-51.6	-67.0	3.8	1.49e+00	0	42	104	0	74	21622
2026-01-13 11:45:56.61	221.65	6.49	-51.6	-67.0	3.8	1.49e+00	0	42	104	0	74	21638
2026-01-13 11:45:57.61	221.76	6.55	-51.6	-67.0	3.8	1.49e+00	0	42	104	0	74	21741
2026-01-13 11:45:58.60	221.87	6.60	-51.6	-67.0	3.8	1.49e+00	0	42	104	0	74	21740
2026-01-13 11:45:59.60	221.97	6.66	-51.6	-67.0	3.8	1.49e+00	0	42	104	0	74	21739
2026-01-13 11:46:00.59	222.08	6.71	-51.6	-67.1	3.8	1.49e+00	0	42	104	0	74	21813
2026-01-13 11:46:01.58	222.19	6.77	-51.6	-67.1	3.8	1.49e+00	0	42	104	0	74	21766
2026-01-13 11:46:02.58	222.30	6.83	-51.6	-67.1	3.8	1.49e+00	0	42	104	0	74	21863
2026-01-13 11:46:03.57	222.41	6.88	-51.6	-67.0	3.8	1.49e+00	0	42	104	0	74	21692
2026-01-13 11:46:04.56	222.52	6.94	-51.6	-67.1	3.8	1.49e+00	0	42	104	0	74	21863
2026-01-13 11:46:05.55	222.63	6.99	-51.6	-67.0	3.8	1.49e+00	0	42	104	0	74	21706
2026-01-13 11:46:06.55	222.74	7.05	-51.6	-67.1	3.8	1.49e+00	0	42	104	0	74	21809
2026-01-13 11:46:07.54	222.85	7.11	-51.6	-66.9	3.8	1.49e+00	0	42	104	0	74	21479
2026-01-13 11:46:08.53	222.96	7.16	-51.6	-66.9	3.8	1.49e+00	0	42	104	0	74	21443
2026-01-13 11:46:09.53	223.08	7.22	-51.6	-67.0	3.8	1.49e+00	0	42	104	0	74	21510
2026-01-13 11:46:10.52	223.19	7.28	-51.6	-67.0	3.8	1.49e+00	0	42	104	0	74	21514
2026-01-13 11:46:11.51	223.30	7.33	-51.6	-66.9	3.8	1.49e+00	0	43	104	0	74	21444
2026-01-13 11:46:12.51	223.42	7.39	-51.6	-66.9	3.8	1.49e+00	0	42	104	0	74	21331
2026-01-13 11:46:13.50	223.53	7.45	-51.6	-66.9	3.8	1.49e+00	0	42	104	0	74	21308
2026-01-13 11:46:14.49	223.64	7.50	-51.6	-66.8	3.8	1.49e+00	0	42	104	0	74	21156
2026-01-13 11:46:15.49	223.76	7.56	-51.6	-66.6	3.8	1.49e+00	0	42	104	0	74	20727
2026-01-13 11:46:16.48	223.87	7.61	-51.6	-66.5	3.8	1.49e+00	0	42	104	0	74	20525
2026-01-13 11:46:17.47	223.99	7.67	-51.5	-66.5	3.8	1.49e+00	0	42	104	0	74	20307
2026-01-13 11:46:18.47	224.10	7.73	-51.6	-66.3	3.8	1.49e+00	0	43	104	0	74	20012
2026-01-13 11:46:19.46	224.22	7.78	-51.5	-66.2	3.8	1.49e+00	0	42	104	0	74	19828
2026-01-13 11:46:20.45	224.34	7.84	-51.5	-66.2	3.8	1.49e+00	0	42	104	0	74	19615
2026-01-13 11:46:21.45	224.46	7.90	-51.5	-65.9	3.8	1.49e+00	0	42	104	0	74	19159
2026-01-13 11:46:22.44	224.57	7.95	-51.5	-65.8	3.8	1.49e+00	0	42	104	0	74	18755
2026-01-13 11:46:23.43	224.69	8.01	-51.5	-65.7	3.8	1.49e+00	0	43	104	0	74	18635
2026-01-13 11:46:24.43	224.81	8.07	-51.5	-65.8	3.8	1.49e+00	0	43	104	0	74	18786
2026-01-13 11:46:25.42	224.93	8.12	-51.5	-66.3	3.8	1.49e+00	0	43	104	0	74	20047
2026-01-13 11:46:26.41	225.05	8.18	-51.6	-67.0	3.8	1.49e+00	0	42	104	0	74	21755
2026-01-13 11:46:27.41	225.17	8.24	-51.5	-66.6	3.8	1.49e+00	0	42	104	0	74	20666
2026-01-13 11:46:28.40	225.29	8.30	-51.4	-63.9	4.1	1.49e+00	0	42	104	0	74	15108
2026-01-13 11:46:29.39	225.41	8.35	-51.0	-60.4	5.6	9.71e-01	0	42	0	1048576	74	10170
2026-01-13 11:46:30.39	225.53	8.41	-50.4	-57.6	8.0	1.26e-01	0	42	0	3145728	72	8269
2026-01-13 11:46:31.38	225.65	8.47	-49.8	-55.5	10.2	1.52e-02	0	43	0	4194304	71	6859
2026-01-13 11:46:32.37	225.77	8.52	-49.1	-54.0	11.8	1.67e-03	0	43	0	6291456	70	6101
2026-01-13 11:46:33.37	225.90	8.58	-48.5	-52.8	13.0	1.57e-04	0	43	0	8388608	69	5646
2026-01-13 11:46:34.36	226.02	8.64	-48.3	-52.4	13.4	9.90e-06	0	43	0	10485760	68	5706
2026-01-13 11:46:35.35	226.14	8.69	-48.2	-52.2	13.7	6.10e-06	0	43	0	11534336	68	5536
2026-01-13 11:46:36.35	226.27	8.75	-48.4	-52.5	13.4	3.80e-06	0	43	0	13631488	68	5744
2026-01-13 11:46:37.34	226.39	8.81	-48.7	-53.0	12.8	3.12e-05	0	43	0	15728640	68	6125
2026-01-13 11:46:38.33	226.52	8.86	-49.0	-53.7	12.2	1.72e-04	0	43	0	17825792	68	6576
2026-01-13 11:46:39.33	226.64	8.92	-49.4	-54.7	11.2	6.89e-04	0	42	0	19922944	69	6963
2026-01-13 11:46:40.32	226.77	8.98	-49.9	-55.8	10.1	3.19e-03	0	43	0	20971520	70	7461
2026-01-13 11:46:41.31	226.90	9.04	-50.1	-56.4	9.4	1.89e-02	0	43	0	23068672	70	8035
2026-01-13 11:46:42.31	227.02	9.09	-49.2	-53.7	12.2	3.49e-04	0	43	0	25165824	70	5889
2026-01-13 11:46:43.30	227.15	9.15	-49.4	-54.4	11.5	1.05e-04	0	43	0	27262976	69	6793
2026-01-13 11:46:44.30	227.28	9.21	-50.5	-58.2	7.5	4.91e-02	0	43	0	28311552	72	8782
2026-01-13 11:46:45.29	227.41	9.26	-49.6	-55.0	10.9	6.13e-03	0	43	0	30408704	71	6427
2026-01-13 11:46:46.29	227.54	9.32	-50.1	-55.8	10.0	6.38e-03	0	43	0	32505856	71	7108
2026-01-13 11:46:47.28	227.67	9.38	-49.4	-54.2	11.8	7.55e-04	0	43	0	34603008	70	6238
2026-01-13 11:46:48.28	227.80	9.44	-49.2	-53.7	12.2	5.33e-04	0	43	0	36700160	70	5913
2026-01-13 11:46:49.27	227.93	9.49	-48.9	-53.1	12.8	8.77e-05	0	43	0	37748736	69	5826
2026-01-13 11:46:50.27	228.06	9.55	-49.0	-53.3	12.8	4.19e-05	0	43	0	39845888	69	5939
2026-01-13 11:46:51.26	228.19	9.61	-48.8	-53.0	13.0	3.81e-05	0	43	0	41943040	69	5723
2026-01-13 11:46:52.40	228.34	9.67	-48.8	-53.1	12.9	6.25e-05	0	43	0	44040192	69	5798
2026-01-13 11:46:53.26	228.46	9.72	-48.8	-53.0	13.0	2.97e-05	0	43	0	45088768	69	5734
2026-01-13 11:46:54.58	228.63	9.80	-48.7	-52.8	13.1	2.82e-05	0	43	0	48234496	69	5621
2026-01-13 11:46:55.29	228.73	9.84	-48.6	-52.7	13.3	2.05e-05	0	43	0	49283072	69	5533
2026-01-13 11:46:56.57	228.90	9.91	-48.7	-52.7	13.2	2.67e-05	0	43	0	51380224	69	5582
2026-01-13 11:46:57.30	229.00	9.96	-48.7	-52.7	13.2	1.67e-05	0	43	0	53477376	69	5566
2026-01-13 11:46:58.58	229.17	10.03	-48.7	-52.8	13.3	1.98e-05	0	43	0	55574528	69	5598
2026-01-13 11:46:59.32	229.27	10.07	-48.7	-52.7	13.3	3.66e-05	0	43	0	56623104	69	5545
2026-01-13 11:47:00.60	229.45	10.14	-48.7	-52.6	13.3	1.83e-05	0	43	0	59768832	69	5514
2026-01-13 11:47:01.42	229.56	10.19	-48.6	-52.5	13.5	8.30e-06	0	43	0	60817408	69	5411
2026-01-13 11:47:02.55	229.72	10.26	-48.7	-52.6	13.4	1.06e-05	0	43	0	62914560	69	5490
2026-01-13 11:47:03.40	229.84	10.31	-48.7	-52.7	13.3	1.06e-05	0	43	0	65011712	69	5585
2026-01-13 11:47:04.54	229.99	10.37	-48.8	-52.8	13.2	2.82e-05	0	43	0	67108864	69	5616
2026-01-13 11:47:05.39	230.11	10.42	-48.9	-53.0	13.0	3.50e-05	0	43	0	68157440	69	5765
2026-01-13 11:47:06.53	230.27	10.49	-48.7	-52.6	13.5	1.90e-05	0	43	0	70254592	69	5473
2026-01-13 11:47:07.38	230.39	10.53	-48.5	-52.3	13.7	9.90e-06	0	43	0	72351744	68	5632
2026-01-13 11:47:08.52	230.55	10.60	-48.5	-52.2	13.8	7.60e-06	0	43	0	74448896	68	5562
2026-01-13 11:47:09.37	230.67	10.65	-48.6	-52.5	13.6	9.10e-06	0	43	0	75497472	68	5726
2026-01-13 11:47:10.51	230.84	10.71	-48.5	-52.2	13.8	6.10e-06	0	43	0	77594624	68	5580
2026-01-13 11:47:11.36	230.96	10.76	-48.3	-52.0	14.0	2.20e-06	0	43	0	79691776	68	5420
2026-01-13 11:47:12.50	231.12	10.83	-48.4	-52.1	14.0	0.00e+00	0	43	0	81788928	68	5470
2026-01-13 11:47:13.35	231.24	10.88	-48.2	-51.8	14.3	0.00e+00	0	43	0	82837504	68	5298
2026-01-13 11:47:14.48	231.41	10.94	-48.3	-51.8	14.3	2.20e-06	0	43	0	84934656	68	5316
2026-01-13 11:47:15.34	231.53	10.99	-48.4	-52.0	14.0	7.00e-07	0	43	0	87031808	68	5426
2026-01-13 11:47:16.47	231.70	11.05	-48.4	-52.0	14.0	1.50e-06	0	43	0	89128960	68	5436
2026-01-13 11:47:17.32	231.82	11.10	-48.2	-51.7	14.3	7.00e-07	0	43	0	90177536	68	5262
2026-01-13 11:47:18.46	231.99	11.17	-48.2	-51.8	14.3	1.50e-06	0	43	0	93323264	68	5285
2026-01-13 11:47:19.31	232.11	11.22	-48.1	-51.6	14.5	7.00e-07	0	43	0	94371840	68	5179
2026-01-13 11:47:20.45	232.28	11.28	-48.1	-51.7	14.4	0.00e+00	0	43	0	96468992	68	5222
2026-01-13 11:47:21.30	232.41	11.33	-48.1	-51.7	14.4	1.50e-06	0	43	0	98566144	68	5229
2026-01-13 11:47:22.44	232.58	11.39	-47.8	-51.2	14.7	7.00e-07	0	43	0	100663296	67	5256
2026-01-13 11:47:23.29	232.70	11.44	-47.7	-51.1	14.8	0.00e+00	0	43	0	101711872	67	5197
2026-01-13 11:47:24.43	232.87	11.51	-47.8	-51.3	14.7	0.00e+00	0	43	0	103809024	67	5282
2026-01-13 11:47:25.28	233.00	11.56	-47.7	-51.1	14.8	0.00e+00	0	43	0	105906176	67	5210
2026-01-13 11:47:26.42	233.17	11.62	-47.7	-51.0	14.9	0.00e+00	0	43	0	108003328	67	5151
2026-01-13 11:47:27.27	233.30	11.67	-47.7	-51.1	14.8	0.00e+00	0	43	0	109051904	67	5185
2026-01-13 11:47:28.41	233.48	11.73	-47.7	-51.1	14.8	0.00e+00	0	43	0	111149056	67	5176
2026-01-13 11:47:29.26	233.61	11.78	-47.7	-51.1	14.8	0.00e+00	0	43	0	113246208	67	5181
2026-01-13 11:47:30.38	233.78	11.85	-47.7	-51.1	14.8	0.00e+00	0	43	0	115343360	67	5199
2026-01-13 11:47:31.23	233.91	11.89	-47.9	-51.4	14.6	1.50e-06	0	43	0	116391936	67	5347
2026-01-13 11:47:32.37	234.08	11.96	-47.7	-51.2	14.7	0.00e+00	0	43	0	118489088	67	5222
2026-01-13 11:47:33.27	234.22	12.01	-47.8	-51.3	14.7	7.00e-07	0	43	0	120586240	67	5282
2026-01-13 11:47:34.47	234.41	12.08	-47.8	-51.3	14.6	0.00e+00	0	43	0	122683392	67	5308
2026-01-13 11:47:35.32	234.54	12.12	-48.0	-51.5	14.4	7.00e-07	0	43	0	124780544	67	5449
2026-01-13 11:47:36.46	234.72	12.19	-47.9	-51.5	14.5	7.00e-07	0	43	0	126877696	67	5407
2026-01-13 11:47:37.31	234.86	12.24	-48.0	-51.6	14.4	0.00e+00	0	43	0	127926272	67	5467
2026-01-13 11:47:38.45	235.04	12.30	-48.0	-51.6	14.4	0.00e+00	0	43	0	130023424	67	5469
2026-01-13 11:47:39.30	235.17	12.35	-47.9	-51.4	14.6	2.20e-06	0	43	0	132120576	67	5367
2026-01-13 11:47:40.44	235.35	12.41	-47.9	-51.4	14.5	0.00e+00	0	43	0	134217728	67	5384
2026-01-13 11:47:41.29	235.49	12.46	-47.8	-51.2	14.7	7.00e-07	0	43	0	135266304	67	5269
2026-01-13 11:47:42.43	235.67	12.52	-47.9	-51.4	14.6	0.00e+00	0	43	0	137363456	67	5356
2026-01-13 11:47:43.28	235.81	12.57	-47.8	-51.3	14.7	7.00e-07	0	43	0	139460608	67	5305
2026-01-13 11:47:44.42	235.99	12.63	-47.8	-51.2	14.7	0.00e+00	0	43	0	141557760	67	5274
2026-01-13 11:47:45.27	236.13	12.68	-47.8	-51.3	14.7	0.00e+00	0	43	0	143654912	67	5306
2026-01-13 11:47:46.41	236.32	12.74	-47.6	-51.0	15.0	7.00e-07	0	43	0	145752064	67	5132
2026-01-13 11:47:47.26	236.45	12.79	-47.9	-51.4	14.5	0.00e+00	0	43	0	146800640	67	5392
2026-01-13 11:47:48.39	236.64	12.85	-47.7	-51.2	14.8	0.00e+00	0	43	0	148897792	67	5220
2026-01-13 11:47:49.25	236.78	12.90	-47.8	-51.3	14.7	0.00e+00	0	43	0	150994944	67	5288
2026-01-13 11:47:50.51	236.99	12.97	-47.8	-51.2	14.8	0.00e+00	0	43	0	153092096	67	5222
2026-01-13 11:47:51.31	237.12	13.01	-47.8	-51.2	14.8	0.00e+00	0	43	0	154140672	67	5221
2026-01-13 11:47:52.45	237.31	13.08	-47.5	-50.6	15.3	0.00e+00	0	43	0	156237824	66	5206
2026-01-13 11:47:53.30	237.45	13.12	-47.4	-50.5	15.4	0.00e+00	0	43	0	158334976	66	5144
2026-01-13 11:47:54.60	237.67	13.19	-47.2	-50.2	15.7	0.00e+00	0	43	0	160432128	66	4972
2026-01-13 11:47:55.31	237.79	13.23	-47.2	-50.2	15.8	0.00e+00	0	43	0	161480704	66	4931
2026-01-13 11:47:56.59	238.01	13.30	-47.2	-50.2	15.8	0.00e+00	0	43	0	164626432	66	4940
2026-01-13 11:47:57.32	238.13	13.34	-47.2	-50.2	15.7	0.00e+00	0	43	0	165675008	66	4970
2026-01-13 11:47:58.60	238.35	13.41	-47.3	-50.4	15.5	0.00e+00	0	43	0	167772160	66	5078
2026-01-13 11:47:59.32	238.47	13.45	-47.3	-50.5	15.5	0.00e+00	0	43	0	169869312	66	5117
2026-01-13 11:48:00.59	238.69	13.52	-47.4	-50.6	15.4	0.00e+00	0	43	0	171966464	66	5200
2026-01-13 11:48:01.30	238.81	13.56	-47.5	-50.7	15.3	0.00e+00	0	43	0	173015040	66	5236
2026-01-13 11:48:02.58	239.03	13.63	-47.6	-50.9	15.1	0.00e+00	0	43	0	175112192	66	5386
2026-01-13 11:48:03.47	239.18	13.67	-47.7	-51.0	15.0	0.00e+00	0	43	0	177209344	66	5409
2026-01-13 11:48:04.61	239.38	13.74	-47.6	-50.8	15.1	0.00e+00	0	43	0	179306496	66	5333
2026-01-13 11:48:05.67	239.57	13.79	-47.4	-50.6	15.4	0.00e+00	0	43	0	181403648	66	5204
2026-01-13 11:48:06.71	239.75	13.85	-47.4	-50.5	15.4	0.00e+00	0	43	0	183500800	66	5157
2026-01-13 11:48:07.86	239.95	13.91	-47.3	-50.4	15.6	0.00e+00	0	43	0	185597952	66	5079
2026-01-13 11:48:08.72	240.10	13.96	-47.3	-50.4	15.6	0.00e+00	0	43	0	186646528	66	5062
2026-01-13 11:48:10.07	240.34	14.03	-47.2	-50.2	15.7	0.00e+00	0	43	0	189792256	66	4967
2026-01-13 11:48:10.78	240.47	14.06	-47.2	-50.2	15.7	0.00e+00	0	43	0	190840832	66	4980
2026-01-13 11:48:12.06	240.69	14.13	-47.2	-50.3	15.7	0.00e+00	0	43	0	192937984	66	5022
2026-01-13 11:48:12.79	240.83	14.17	-47.1	-50.2	15.8	0.00e+00	0	43	0	195035136	66	4928
2026-01-13 11:48:14.07	241.05	14.24	-47.2	-50.3	15.7	0.00e+00	0	43	0	197132288	66	4987
2026-01-13 11:48:14.78	241.18	14.27	-47.1	-50.1	15.9	0.00e+00	0	43	0	198180864	66	4906
2026-01-13 11:48:16.06	241.41	14.34	-47.3	-50.3	15.6	0.00e+00	0	43	0	201326592	66	5036
2026-01-13 11:48:16.85	241.56	14.38	-47.3	-50.4	15.6	7.00e-07	0	43	0	202375168	66	5065
2026-01-13 11:48:18.03	241.77	14.44	-47.3	-50.4	15.6	0.00e+00	0	43	0	204472320	66	5072
2026-01-13 11:48:18.88	241.93	14.49	-47.4	-50.5	15.5	0.00e+00	0	43	0	206569472	66	5149
2026-01-13 11:48:20.02	242.14	14.55	-47.5	-50.6	15.4	0.00e+00	0	43	0	208666624	66	5177
2026-01-13 11:48:20.88	242.29	14.59	-47.5	-50.7	15.3	0.00e+00	0	43	0	209715200	66	5231
2026-01-13 11:48:22.01	242.50	14.65	-47.6	-50.8	15.2	7.00e-07	0	43	0	211812352	66	5337
2026-01-13 11:48:22.87	242.66	14.69	-47.4	-50.6	15.4	0.00e+00	0	43	0	213909504	66	5171
2026-01-13 11:48:24.00	242.87	14.75	-47.5	-50.7	15.4	0.00e+00	0	43	0	216006656	66	5224
2026-01-13 11:48:24.85	243.03	14.79	-47.4	-50.5	15.5	0.00e+00	0	43	0	217055232	66	5137
2026-01-13 11:48:26.07	243.26	14.85	-47.5	-50.6	15.4	0.00e+00	0	43	0	220200960	66	5211
2026-01-13 11:48:26.92	243.42	14.90	-47.4	-50.5	15.5	0.00e+00	0	43	0	221249536	66	5141
2026-01-13 11:48:28.06	243.63	14.95	-47.5	-50.6	15.4	0.00e+00	0	43	0	223346688	66	5198
2026-01-13 11:48:28.91	243.79	14.99	-47.5	-50.6	15.4	0.00e+00	0	43	0	225443840	66	5196
2026-01-13 11:48:30.05	244.01	15.05	-47.8	-51.1	15.0	0.00e+00	0	43	0	227540992	66	5477
2026-01-13 11:48:30.90	244.17	15.09	-47.8	-51.1	14.9	0.00e+00	0	43	0	228589568	66	5525
2026-01-13 11:48:32.04	244.38	15.15	-47.8	-51.2	14.9	0.00e+00	0	43	0	230686720	66	5540
2026-01-13 11:48:32.89	244.55	15.19	-48.0	-51.4	14.7	7.00e-07	0	43	0	232783872	66	5672
2026-01-13 11:48:34.03	244.77	15.25	-47.8	-51.1	14.9	0.00e+00	0	43	0	234881024	66	5484
2026-01-13 11:48:34.88	244.93	15.29	-47.7	-51.0	15.0	1.50e-06	0	43	0	235929600	66	5423
2026-01-13 11:48:36.02	245.15	15.34	-47.7	-50.9	15.1	0.00e+00	0	43	0	238026752	66	5370
2026-01-13 11:48:36.87	245.31	15.38	-47.7	-50.9	15.1	0.00e+00	0	43	0	240123904	66	5357
2026-01-13 11:48:38.01	245.53	15.44	-47.8	-51.0	15.0	0.00e+00	0	43	0	242221056	66	5459
2026-01-13 11:48:38.86	245.70	15.48	-47.9	-51.3	14.8	0.00e+00	0	43	0	243269632	66	5607
2026-01-13 11:48:40.05	245.93	15.54	-48.0	-51.5	14.6	1.50e-06	0	43	0	245366784	66	5723
2026-01-13 11:48:40.91	246.10	15.58	-47.9	-51.3	14.7	0.00e+00	0	43	0	247463936	66	5633
2026-01-13 11:48:42.11	246.34	15.63	-48.2	-51.7	14.3	0.00e+00	0	44	0	249561088	67	5556
2026-01-13 11:48:42.96	246.50	15.67	-48.1	-51.6	14.5	0.00e+00	0	43	0	251658240	67	5506
2026-01-13 11:48:44.10	246.73	15.73	-48.0	-51.4	14.6	7.00e-07	0	43	0	253755392	67	5382
2026-01-13 11:48:44.95	246.90	15.77	-48.1	-51.5	14.5	7.00e-07	0	43	0	254803968	67	5445
2026-01-13 11:48:46.09	247.13	15.82	-48.0	-51.5	14.6	7.00e-07	0	43	0	256901120	67	5416
2026-01-13 11:48:46.97	247.30	15.86	-48.0	-51.4	14.6	0.00e+00	0	43	0	258998272	67	5372
2026-01-13 11:48:48.11	247.53	15.91	-48.0	-51.4	14.6	0.00e+00	0	43	0	261095424	67	5397
2026-01-13 11:48:49.04	247.72	15.95	-48.1	-51.6	14.5	0.00e+00	0	43	0	263192576	67	5473
2026-01-13 11:48:50.22	247.95	16.01	-48.2	-51.7	14.4	3.80e-06	0	43	0	265289728	67	5545
2026-01-13 11:48:51.10	248.13	16.05	-48.1	-51.6	14.5	1.50e-06	0	43	0	266338304	67	5469
2026-01-13 11:48:52.24	248.36	16.10	-48.0	-51.4	14.6	0.00e+00	0	43	0	268435456	67	5376
2026-01-13 11:48:53.09	248.54	16.14	-48.1	-51.6	14.5	0.00e+00	0	43	0	270532608	67	5491
2026-01-13 11:48:54.23	248.77	16.19	-47.9	-51.3	14.7	7.00e-07	0	43	0	272629760	67	5335
2026-01-13 11:48:55.08	248.94	16.22	-48.1	-51.6	14.5	1.50e-06	0	43	0	273678336	67	5520
2026-01-13 11:48:56.22	249.17	16.27	-48.2	-51.8	14.3	1.50e-06	0	43	0	275775488	67	5624
2026-01-13 11:48:57.07	249.35	16.31	-48.2	-51.8	14.3	7.00e-07	0	43	0	277872640	67	5615
2026-01-13 11:48:58.21	249.58	16.36	-48.2	-51.7	14.3	0.00e+00	0	43	0	279969792	67	5590
2026-01-13 11:48:59.06	249.76	16.40	-48.2	-51.7	14.3	7.00e-07	0	43	0	281018368	67	5582
2026-01-13 11:49:00.20	250.00	16.44	-47.9	-51.2	14.8	1.50e-06	0	43	0	283115520	67	5277
2026-01-13 11:49:01.05	250.17	16.48	-48.1	-51.5	14.6	0.00e+00	0	43	0	285212672	67	5423
2026-01-13 11:49:02.19	250.41	16.53	-48.1	-51.6	14.5	0.00e+00	0	43	0	287309824	67	5487
2026-01-13 11:49:03.40	250.66	16.58	-48.1	-51.6	14.5	0.00e+00	0	43	0	289406976	67	5504
2026-01-13 11:49:04.26	250.84	16.61	-48.4	-52.0	14.2	0.00e+00	0	43	0	291504128	67	5723
2026-01-13 11:49:05.39	251.08	16.66	-48.4	-52.1	14.0	5.30e-06	0	43	0	293601280	67	5802
2026-01-13 11:49:06.24	251.26	16.70	-48.4	-52.1	14.0	3.80e-06	0	43	0	294649856	67	5802
2026-01-13 11:49:07.38	251.50	16.74	-48.4	-52.1	14.0	1.50e-06	0	43	0	296747008	67	5838
2026-01-13 11:49:08.23	251.68	16.78	-48.4	-52.1	14.0	7.00e-07	0	43	0	298844160	67	5812
2026-01-13 11:49:09.37	251.92	16.82	-48.2	-51.7	14.3	0.00e+00	0	43	0	300941312	67	5579
2026-01-13 11:49:10.22	252.10	16.86	-48.2	-51.7	14.3	0.00e+00	0	43	0	301989888	67	5586
2026-01-13 11:49:11.36	252.35	16.90	-48.1	-51.6	14.5	1.50e-06	0	43	0	304087040	67	5481
2026-01-13 11:49:12.22	252.53	16.93	-48.0	-51.5	14.6	7.00e-07	0	43	0	306184192	67	5407
2026-01-13 11:49:13.35	252.77	16.98	-48.2	-51.8	14.3	7.00e-07	0	43	0	308281344	67	5631
2026-01-13 11:49:14.21	252.96	17.01	-48.0	-51.4	14.7	2.20e-06	0	43	0	310378496	67	5366
2026-01-13 11:49:15.34	253.20	17.05	-48.0	-51.4	14.7	0.00e+00	0	43	0	312475648	67	5359
2026-01-13 11:49:16.20	253.39	17.09	-47.9	-51.2	14.9	0.00e+00	0	43	0	313524224	67	5221
2026-01-13 11:49:17.33	253.63	17.13	-47.7	-50.9	15.1	7.00e-07	0	43	0	315621376	67	5071
2026-01-13 11:49:18.19	253.82	17.16	-47.7	-51.0	15.1	0.00e+00	0	43	0	317718528	67	5107
2026-01-13 11:49:19.32	254.06	17.20	-47.6	-50.9	15.1	0.00e+00	0	43	0	319815680	67	5065
2026-01-13 11:49:20.17	254.25	17.23	-47.7	-51.0	15.0	0.00e+00	0	43	0	320864256	67	5146
2026-01-13 11:49:21.31	254.50	17.27	-48.0	-51.5	14.5	0.00e+00	0	43	0	322961408	67	5446
2026-01-13 11:49:22.16	254.69	17.30	-48.2	-51.7	14.3	7.00e-07	0	43	0	325058560	67	5588
2026-01-13 11:49:23.30	254.94	17.34	-48.2	-51.8	14.3	0.00e+00	0	43	0	327155712	67	5603
2026-01-13 11:49:24.15	255.12	17.37	-48.0	-51.4	14.6	7.00e-07	0	43	0	328204288	67	5380
2026-01-13 11:49:25.29	255.37	17.41	-47.6	-50.8	15.2	7.00e-07	0	43	0	330301440	67	4989
2026-01-13 11:49:26.14	255.56	17.44	-47.5	-50.6	15.4	0.00e+00	0	43	0	332398592	66	5207
2026-01-13 11:49:27.38	255.84	17.48	-47.2	-50.2	15.8	0.00e+00	0	43	0	334495744	66	4956
2026-01-13 11:49:28.24	256.03	17.51	-47.3	-50.3	15.7	0.00e+00	0	43	0	336592896	66	5009
2026-01-13 11:49:29.38	256.28	17.55	-47.4	-50.5	15.6	0.00e+00	0	43	0	338690048	66	5109
2026-01-13 11:49:30.23	256.47	17.58	-47.6	-50.8	15.3	0.00e+00	0	43	0	339738624	66	5284
2026-01-13 11:49:31.36	256.72	17.61	-47.7	-51.0	15.2	0.00e+00	0	43	0	341835776	66	5422
2026-01-13 11:49:32.22	256.92	17.64	-47.6	-50.9	15.2	0.00e+00	0	44	0	343932928	66	5372
2026-01-13 11:49:33.36	257.17	17.68	-47.7	-51.0	15.0	0.00e+00	0	43	0	346030080	66	5463
2026-01-13 11:49:34.21	257.36	17.70	-47.7	-51.0	15.0	7.00e-07	0	43	0	347078656	66	5443
2026-01-13 11:49:35.35	257.62	17.74	-47.5	-50.8	15.3	7.00e-07	0	43	0	349175808	66	5283
2026-01-13 11:49:36.20	257.81	17.76	-47.6	-50.8	15.2	0.00e+00	0	43	0	351272960	66	5332
2026-01-13 11:49:37.33	258.07	17.80	-47.6	-50.9	15.1	0.00e+00	0	43	0	353370112	66	5356
2026-01-13 11:49:38.19	258.26	17.82	-47.5	-50.7	15.3	0.00e+00	0	44	0	354418688	66	5245
2026-01-13 11:49:39.32	258.52	17.86	-47.4	-50.5	15.5	0.00e+00	0	43	0	356515840	66	5152
2026-01-13 11:49:40.18	258.71	17.88	-47.3	-50.4	15.6	0.00e+00	0	43	0	358612992	66	5067
2026-01-13 11:49:41.32	258.97	17.91	-47.0	-50.0	15.9	0.00e+00	0	43	0	360710144	66	4860
2026-01-13 11:49:42.17	259.17	17.94	-47.0	-50.0	15.9	0.00e+00	0	43	0	362807296	65	5120
2026-01-13 11:49:43.31	259.43	17.97	-46.8	-49.7	16.1	0.00e+00	0	44	0	364904448	65	4977
2026-01-13 11:49:44.16	259.62	17.99	-46.7	-49.7	16.3	0.00e+00	0	44	0	365953024	65	4928
2026-01-13 11:49:45.30	259.89	18.02	-46.9	-49.9	16.0	0.00e+00	0	43	0	368050176	65	5077
2026-01-13 11:49:46.15	260.08	18.04	-47.1	-50.2	15.6	0.00e+00	0	43	0	370147328	65	5264
2026-01-13 11:49:47.39	260.37	18.08	-47.3	-50.5	15.4	0.00e+00	0	43	0	372244480	65	5439
2026-01-13 11:49:48.24	260.56	18.10	-47.2	-50.5	15.4	0.00e+00	0	43	0	373293056	65	5408
2026-01-13 11:49:49.37	260.82	18.13	-47.1	-50.4	15.4	0.00e+00	0	43	0	375390208	65	5347
2026-01-13 11:49:50.23	261.02	18.15	-47.0	-50.1	15.6	0.00e+00	0	43	0	377487360	65	5214
2026-01-13 11:49:51.37	261.29	18.18	-46.7	-49.7	15.8	0.00e+00	0	43	0	379584512	65	4975
2026-01-13 11:49:52.22	261.48	18.20	-46.6	-49.7	15.8	0.00e+00	0	43	0	381681664	65	4954
2026-01-13 11:49:53.58	261.80	18.23	-46.6	-49.6	15.8	0.00e+00	0	43	0	383778816	65	4920
2026-01-13 11:49:54.29	261.96	18.24	-46.6	-49.7	15.8	0.00e+00	0	43	0	384827392	65	4950
2026-01-13 11:49:55.57	262.26	18.27	-46.4	-49.4	16.0	0.00e+00	0	43	0	387973120	64	5078
2026-01-13 11:49:56.28	262.43	18.29	-46.3	-49.3	16.2	0.00e+00	0	43	0	389021696	64	4986
2026-01-13 11:49:57.55	262.73	18.32	-46.2	-49.1	16.3	0.00e+00	0	43	0	391118848	64	4886
2026-01-13 11:49:58.28	262.90	18.33	-46.1	-49.0	16.3	0.00e+00	0	43	0	392167424	64	4866
2026-01-13 11:49:59.56	263.20	18.36	-46.3	-49.3	16.0	0.00e+00	0	43	0	395313152	64	5021
2026-01-13 11:50:00.29	263.37	18.37	-46.4	-49.5	15.9	0.00e+00	0	43	0	396361728	64	5143
2026-01-13 11:50:01.57	263.67	18.40	-46.5	-49.6	15.8	0.00e+00	0	43	0	398458880	64	5203
2026-01-13 11:50:02.29	263.84	18.41	-46.8	-50.0	15.4	0.00e+00	0	43	0	400556032	64	5415
2026-01-13 11:50:03.57	264.14	18.44	-46.4	-49.4	15.9	0.00e+00	0	44	0	402653184	64	5084
2026-01-13 11:50:04.30	264.31	18.45	-46.3	-49.3	16.0	0.00e+00	0	43	0	403701760	64	5012
2026-01-13 11:50:05.57	264.61	18.47	-46.2	-49.1	16.2	0.00e+00	0	44	0	405798912	64	4910
2026-01-13 11:50:06.30	264.78	18.48	-46.2	-49.2	16.2	0.00e+00	0	43	0	407896064	64	4932
2026-01-13 11:50:07.58	265.09	18.51	-46.5	-49.5	15.9	0.00e+00	0	44	0	409993216	64	5150
2026-01-13 11:50:08.29	265.26	18.52	-46.7	-49.8	15.5	0.00e+00	0	43	0	411041792	64	5322
2026-01-13 11:50:09.62	265.57	18.54	-46.9	-50.2	15.1	0.00e+00	0	43	0	414187520	64	5575
2026-01-13 11:50:10.33	265.74	18.55	-47.1	-50.4	14.9	0.00e+00	0	44	0	415236096	64	5705
2026-01-13 11:50:11.61	266.04	18.57	-47.1	-50.4	14.9	0.00e+00	0	44	0	417333248	64	5716
2026-01-13 11:50:12.65	266.29	18.58	-46.9	-50.2	15.1	0.00e+00	0	43	0	419430400	64	5586
2026-01-13 11:50:13.91	266.59	18.60	-46.9	-50.2	15.1	0.00e+00	0	43	0	421527552	64	5574
2026-01-13 11:50:14.70	266.78	18.61	-46.9	-50.3	15.1	0.00e+00	0	43	0	423624704	64	5594
2026-01-13 11:50:15.92	267.07	18.63	-47.1	-50.5	14.8	0.00e+00	0	43	0	425721856	65	5422
2026-01-13 11:50:16.77	267.27	18.64	-47.1	-50.5	14.8	0.00e+00	0	44	0	426770432	65	5435
2026-01-13 11:50:17.91	267.55	18.65	-47.1	-50.5	14.8	0.00e+00	0	43	0	428867584	65	5434
2026-01-13 11:50:18.76	267.75	18.66	-47.2	-50.6	14.7	0.00e+00	0	43	0	430964736	65	5499
2026-01-13 11:50:19.90	268.02	18.68	-46.9	-50.3	15.0	0.00e+00	0	43	0	433061888	65	5282
2026-01-13 11:50:20.75	268.22	18.68	-47.1	-50.4	14.9	0.00e+00	0	44	0	435159040	65	5401
2026-01-13 11:50:21.89	268.50	18.70	-47.1	-50.5	14.7	0.00e+00	0	43	0	437256192	65	5458
2026-01-13 11:50:22.74	268.70	18.70	-47.2	-50.6	14.7	7.00e-07	0	44	0	438304768	65	5510
2026-01-13 11:50:23.88	268.98	18.72	-47.3	-50.8	14.6	0.00e+00	0	44	0	440401920	65	5609
2026-01-13 11:50:24.73	269.18	18.72	-47.5	-51.1	14.2	1.50e-06	0	44	0	442499072	65	5822
2026-01-13 11:50:26.05	269.50	18.73	-47.5	-51.1	14.2	7.00e-07	0	44	0	444596224	65	5839
2026-01-13 11:50:26.76	269.67	18.74	-47.4	-51.0	14.3	0.00e+00	0	43	0	445644800	65	5771
2026-01-13 11:50:28.25	270.02	18.75	-47.4	-51.0	14.4	0.00e+00	0	43	0	448790528	65	5730
2026-01-13 11:50:28.96	270.20	18.75	-47.3	-50.8	14.5	2.20e-06	0	43	0	449839104	65	5619
2026-01-13 11:50:30.23	270.50	18.76	-47.4	-50.9	14.4	2.20e-06	0	43	0	452984832	65	5697
2026-01-13 11:50:30.96	270.68	18.77	-47.3	-50.9	14.5	0.00e+00	0	44	0	454033408	65	5662
2026-01-13 11:50:32.24	270.98	18.77	-47.3	-50.8	14.5	7.00e-07	0	43	0	456130560	65	5637
2026-01-13 11:50:32.97	271.16	18.78	-47.4	-50.9	14.5	1.50e-06	0	43	0	457179136	65	5675
2026-01-13 11:50:34.24	271.47	18.78	-47.1	-50.4	14.9	1.50e-06	0	43	0	460324864	65	5391
2026-01-13 11:50:34.97	271.64	18.78	-47.2	-50.5	14.8	7.00e-07	0	43	0	461373440	65	5434
2026-01-13 11:50:36.25	271.95	18.79	-47.0	-50.3	15.0	0.00e+00	0	43	0	463470592	65	5301
2026-01-13 11:50:36.96	272.12	18.79	-46.9	-50.1	15.2	0.00e+00	0	43	0	464519168	65	5205
2026-01-13 11:50:38.25	272.43	18.79	-47.1	-50.4	14.9	0.00e+00	0	43	0	467664896	65	5348
2026-01-13 11:50:38.96	272.60	18.79	-47.2	-50.5	14.8	0.00e+00	0	43	0	468713472	65	5448
2026-01-13 11:50:40.24	272.91	18.80	-47.1	-50.4	15.0	7.00e-07	0	44	0	470810624	65	5377
2026-01-13 11:50:40.95	273.08	18.80	-46.9	-50.2	15.2	0.00e+00	0	44	0	472907776	65	5220
2026-01-13 11:50:42.23	273.39	18.80	-46.9	-50.2	15.1	0.00e+00	0	44	0	475004928	65	5245
2026-01-13 11:50:42.96	273.57	18.80	-46.8	-50.2	15.1	0.00e+00	0	43	0	476053504	65	5224
2026-01-13 11:50:44.24	273.88	18.80	-46.8	-50.1	15.1	0.00e+00	0	43	0	479199232	65	5208
2026-01-13 11:50:45.09	274.08	18.79	-46.9	-50.2	15.1	0.00e+00	0	43	0	480247808	65	5249
2026-01-13 11:50:46.23	274.36	18.79	-47.1	-50.5	14.9	0.00e+00	0	43	0	482344960	65	5416
2026-01-13 11:50:47.08	274.56	18.79	-47.2	-50.6	14.8	1.50e-06	0	44	0	484442112	65	5489
2026-01-13 11:50:48.21	274.83	18.79	-47.1	-50.5	14.8	0.00e+00	0	44	0	486539264	65	5431
2026-01-13 11:50:49.06	275.04	18.78	-47.1	-50.6	14.7	0.00e+00	0	43	0	487587840	65	5472
2026-01-13 11:50:50.20	275.31	18.78	-47.3	-50.7	14.6	7.00e-07	0	43	0	489684992	65	5571
2026-01-13 11:50:51.05	275.52	18.78	-47.3	-50.8	14.5	0.00e+00	0	43	0	491782144	65	5599
2026-01-13 11:50:52.19	275.79	18.77	-47.3	-50.8	14.5	0.00e+00	0	44	0	493879296	65	5623
2026-01-13 11:50:53.04	276.00	18.77	-47.4	-50.9	14.4	0.00e+00	0	44	0	494927872	65	5686
2026-01-13 11:50:54.18	276.27	18.76	-47.4	-51.0	14.3	2.20e-06	0	43	0	497025024	65	5740
2026-01-13 11:50:55.03	276.47	18.75	-47.4	-50.9	14.4	1.50e-06	0	44	0	499122176	65	5692
2026-01-13 11:50:56.17	276.75	18.75	-47.3	-50.7	14.6	0.00e+00	0	43	0	501219328	65	5571
2026-01-13 11:50:57.07	276.96	18.74	-47.2	-50.5	14.7	7.00e-07	0	44	0	503316480	65	5456
2026-01-13 11:50:58.27	277.25	18.73	-46.9	-50.2	15.1	7.00e-07	0	44	0	505413632	65	5235
2026-01-13 11:50:59.13	277.46	18.72	-46.8	-50.0	15.2	7.00e-07	0	43	0	506462208	65	5157
2026-01-13 11:51:00.26	277.73	18.71	-46.7	-49.9	15.3	7.00e-07	0	43	0	508559360	65	5095
2026-01-13 11:51:01.11	277.93	18.71	-46.9	-50.2	15.0	0.00e+00	0	44	0	510656512	65	5249
2026-01-13 11:51:02.25	278.21	18.70	-47.1	-50.5	14.8	0.00e+00	0	43	0	512753664	65	5423
2026-01-13 11:51:03.10	278.41	18.69	-47.0	-50.4	14.8	7.00e-07	0	44	0	513802240	65	5390
2026-01-13 11:51:04.24	278.68	18.68	-47.1	-50.6	14.7	7.00e-07	0	44	0	515899392	65	5476
2026-01-13 11:51:05.09	278.89	18.67	-47.1	-50.6	14.6	7.00e-07	0	44	0	517996544	65	5492
2026-01-13 11:51:06.23	279.16	18.65	-47.2	-50.7	14.6	0.00e+00	0	43	0	520093696	65	5543
2026-01-13 11:51:07.08	279.36	18.64	-47.3	-50.8	14.5	7.00e-07	0	43	0	521142272	65	5617
2026-01-13 11:51:08.22	279.63	18.63	-47.3	-50.8	14.4	0.00e+00	0	44	0	523239424	65	5656
2026-01-13 11:51:09.07	279.83	18.62	-47.5	-51.1	14.1	1.50e-06	0	44	0	525336576	65	5812
2026-01-13 11:51:10.20	280.10	18.60	-47.5	-51.2	14.0	7.00e-07	0	43	0	527433728	65	5891
2026-01-13 11:51:11.06	280.31	18.59	-47.4	-51.1	14.0	2.20e-06	0	44	0	528482304	65	5847
2026-01-13 11:51:12.20	280.58	18.57	-47.5	-51.2	14.0	3.00e-06	0	44	0	531628032	65	5898
2026-01-13 11:51:13.05	280.78	18.56	-47.4	-51.1	14.1	0.00e+00	0	43	0	532676608	65	5812
2026-01-13 11:51:14.30	281.08	18.54	-47.4	-51.1	14.1	7.00e-07	0	44	0	534773760	65	5796
2026-01-13 11:51:15.15	281.28	18.53	-47.2	-50.8	14.4	3.00e-06	0	43	0	536870912	65	5614
2026-01-13 11:51:16.28	281.55	18.51	-47.2	-50.8	14.4	1.50e-06	0	43	0	538968064	65	5612
2026-01-13 11:51:17.14	281.75	18.50	-47.1	-50.6	14.6	2.20e-06	0	44	0	540016640	65	5470
2026-01-13 11:51:18.40	282.05	18.47	-47.1	-50.6	14.6	7.00e-07	0	44	0	543162368	65	5466
2026-01-13 11:51:19.21	282.24	18.46	-47.0	-50.4	14.7	0.00e+00	0	43	0	544210944	65	5377
2026-01-13 11:51:20.34	282.50	18.44	-46.9	-50.4	14.8	0.00e+00	0	43	0	546308096	65	5358
2026-01-13 11:51:21.20	282.71	18.42	-46.7	-50.0	15.1	0.00e+00	0	44	0	548405248	65	5135
2026-01-13 11:51:22.33	282.97	18.40	-46.4	-49.5	15.6	0.00e+00	0	43	0	550502400	64	5148
2026-01-13 11:51:23.19	283.17	18.38	-46.4	-49.5	15.6	0.00e+00	0	44	0	551550976	64	5107
2026-01-13 11:51:24.53	283.49	18.36	-46.2	-49.2	15.9	0.00e+00	0	44	0	554696704	64	4960
2026-01-13 11:51:25.24	283.65	18.34	-46.1	-49.0	16.0	0.00e+00	0	43	0	555745280	64	4866
2026-01-13 11:51:26.73	284.00	18.31	-46.1	-49.0	16.0	0.00e+00	0	43	0	558891008	64	4851
2026-01-13 11:51:27.44	284.17	18.30	-46.2	-49.1	16.0	0.00e+00	0	44	0	559939584	64	4917
2026-01-13 11:51:28.72	284.46	18.27	-46.5	-49.6	15.5	0.00e+00	0	44	0	562036736	64	5190
2026-01-13 11:51:29.44	284.63	18.25	-46.6	-49.8	15.3	0.00e+00	0	44	0	563085312	64	5312
2026-01-13 11:51:30.72	284.93	18.22	-46.8	-50.2	14.9	0.00e+00	0	44	0	566231040	64	5540
2026-01-13 11:51:31.43	285.09	18.21	-46.9	-50.3	14.8	0.00e+00	0	44	0	567279616	64	5643
2026-01-13 11:51:32.71	285.39	18.18	-47.1	-50.6	14.6	0.00e+00	0	44	0	569376768	64	5793
2026-01-13 11:51:33.44	285.56	18.16	-47.1	-50.6	14.6	0.00e+00	0	44	0	571473920	64	5802
2026-01-13 11:51:34.71	285.85	18.13	-47.1	-50.6	14.6	0.00e+00	0	44	0	573571072	65	5480
2026-01-13 11:51:35.47	286.03	18.11	-47.1	-50.5	14.6	7.00e-07	0	44	0	574619648	65	5460
2026-01-13 11:51:36.75	286.32	18.08	-47.1	-50.5	14.6	0.00e+00	0	44	0	576716800	65	5433
2026-01-13 11:51:37.47	286.49	18.06	-47.1	-50.6	14.6	1.50e-06	0	44	0	578813952	65	5466
2026-01-13 11:51:38.75	286.78	18.03	-47.0	-50.4	14.8	0.00e+00	0	44	0	580911104	65	5342
2026-01-13 11:51:39.60	286.98	18.00	-46.8	-50.1	15.0	0.00e+00	0	43	0	583008256	65	5179
2026-01-13 11:51:41.01	287.30	17.96	-46.5	-49.7	15.3	0.00e+00	0	44	0	585105408	65	4967
2026-01-13 11:51:41.72	287.46	17.94	-46.6	-49.8	15.3	0.00e+00	0	44	0	586153984	65	5018
2026-01-13 11:51:43.00	287.75	17.91	-46.5	-49.6	15.4	0.00e+00	0	44	0	589299712	64	5216
2026-01-13 11:51:43.71	287.91	17.89	-46.6	-49.8	15.3	0.00e+00	0	44	0	590348288	64	5299
2026-01-13 11:51:44.99	288.20	17.85	-46.8	-50.2	14.9	0.00e+00	0	43	0	592445440	64	5554
2026-01-13 11:51:45.71	288.37	17.83	-46.8	-50.2	14.9	0.00e+00	0	43	0	593494016	64	5551
2026-01-13 11:51:46.99	288.65	17.79	-46.9	-50.4	14.7	0.00e+00	0	44	0	596639744	64	5663
2026-01-13 11:51:47.70	288.81	17.77	-46.9	-50.3	14.8	0.00e+00	0	44	0	597688320	64	5626
2026-01-13 11:51:48.99	289.10	17.73	-46.8	-50.2	14.8	0.00e+00	0	44	0	599785472	64	5582
2026-01-13 11:51:49.70	289.26	17.71	-46.9	-50.3	14.9	0.00e+00	0	44	0	601882624	64	5599
2026-01-13 11:51:50.98	289.55	17.67	-46.5	-49.7	15.4	0.00e+00	0	44	0	603979776	64	5242
2026-01-13 11:51:51.69	289.71	17.65	-46.4	-49.6	15.4	0.00e+00	0	44	0	605028352	64	5176
2026-01-13 11:51:52.97	290.00	17.61	-46.3	-49.4	15.6	7.00e-07	0	44	0	607125504	64	5051
2026-01-13 11:51:53.68	290.15	17.59	-46.3	-49.4	15.7	0.00e+00	0	44	0	609222656	64	5045
2026-01-13 11:51:54.95	290.44	17.54	-46.3	-49.4	15.7	0.00e+00	0	44	0	611319808	64	5048
2026-01-13 11:51:55.68	290.60	17.52	-46.4	-49.5	15.5	0.00e+00	0	44	0	612368384	64	5151
2026-01-13 11:51:56.96	290.88	17.48	-46.5	-49.6	15.4	0.00e+00	0	44	0	615514112	64	5203
2026-01-13 11:51:57.68	291.04	17.45	-46.4	-49.6	15.5	0.00e+00	0	44	0	616562688	64	5165
2026-01-13 11:51:58.96	291.32	17.41	-46.4	-49.5	15.5	0.00e+00	0	43	0	618659840	64	5154
2026-01-13 11:51:59.69	291.48	17.39	-46.3	-49.4	15.6	0.00e+00	0	44	0	619708416	64	5086
2026-01-13 11:52:00.97	291.76	17.34	-46.2	-49.2	15.8	0.00e+00	0	44	0	622854144	64	4934
2026-01-13 11:52:01.68	291.92	17.32	-46.0	-49.0	15.9	0.00e+00	0	44	0	623902720	64	4850
2026-01-13 11:52:02.96	292.20	17.27	-46.1	-49.1	15.9	0.00e+00	0	44	0	625999872	63	5202
2026-01-13 11:52:03.68	292.35	17.25	-46.0	-49.0	16.1	0.00e+00	0	44	0	628097024	63	5117
2026-01-13 11:52:04.96	292.63	17.20	-46.2	-49.1	16.0	0.00e+00	0	44	0	630194176	63	5213
2026-01-13 11:52:05.71	292.80	17.17	-46.2	-49.1	16.0	0.00e+00	0	44	0	631242752	63	5201
2026-01-13 11:52:06.98	293.07	17.13	-46.1	-49.1	16.0	0.00e+00	0	44	0	634388480	63	5186
2026-01-13 11:52:07.72	293.23	17.10	-46.3	-49.3	15.7	0.00e+00	0	43	0	635437056	63	5327
2026-01-13 11:52:09.00	293.51	17.05	-46.1	-49.1	16.0	0.00e+00	0	43	0	637534208	63	5185
2026-01-13 11:52:09.71	293.66	17.02	-46.2	-49.2	15.9	0.00e+00	0	44	0	638582784	63	5261
2026-01-13 11:52:10.99	293.93	16.97	-46.1	-49.0	16.0	0.00e+00	0	44	0	641728512	63	5156
2026-01-13 11:52:11.70	294.08	16.95	-46.1	-49.1	16.0	0.00e+00	0	44	0	642777088	63	5167
2026-01-13 11:52:12.98	294.36	16.90	-46.2	-49.2	15.8	0.00e+00	0	44	0	644874240	63	5278
2026-01-13 11:52:13.69	294.51	16.87	-46.2	-49.2	15.9	0.00e+00	0	44	0	645922816	63	5245
2026-01-13 11:52:14.97	294.78	16.82	-46.2	-49.3	15.8	0.00e+00	0	44	0	649068544	63	5294
2026-01-13 11:52:15.69	294.93	16.79	-46.3	-49.4	15.7	0.00e+00	0	43	0	650117120	63	5354
2026-01-13 11:52:16.97	295.20	16.74	-46.2	-49.1	15.9	0.00e+00	0	43	0	652214272	63	5205
2026-01-13 11:52:17.69	295.35	16.71	-46.2	-49.2	15.9	0.00e+00	0	44	0	654311424	63	5255
2026-01-13 11:52:18.96	295.62	16.66	-46.2	-49.1	15.9	0.00e+00	0	43	0	656408576	63	5216
2026-01-13 11:52:19.72	295.78	16.63	-46.3	-49.4	15.7	0.00e+00	0	43	0	657457152	63	5368
2026-01-13 11:52:21.00	296.04	16.58	-46.3	-49.3	15.8	0.00e+00	0	43	0	660602880	63	5332
2026-01-13 11:52:21.72	296.19	16.55	-46.4	-49.6	15.5	0.00e+00	0	44	0	661651456	63	5506
2026-01-13 11:52:23.00	296.46	16.49	-46.5	-49.6	15.5	0.00e+00	0	44	0	663748608	63	5517
2026-01-13 11:52:23.71	296.61	16.46	-46.4	-49.6	15.6	0.00e+00	0	44	0	664797184	63	5489
2026-01-13 11:52:24.99	296.87	16.41	-46.4	-49.6	15.5	0.00e+00	0	44	0	667942912	63	5479
2026-01-13 11:52:25.72	297.02	16.38	-46.4	-49.5	15.7	0.00e+00	0	44	0	668991488	63	5416
2026-01-13 11:52:27.00	297.28	16.32	-46.0	-49.0	16.1	0.00e+00	0	44	0	671088640	63	5108
2026-01-13 11:52:27.75	297.44	16.29	-46.1	-49.1	16.0	0.00e+00	0	44	0	673185792	63	5161
2026-01-13 11:52:29.03	297.70	16.24	-46.1	-49.0	16.1	0.00e+00	0	44	0	675282944	63	5156
2026-01-13 11:52:29.74	297.84	16.20	-46.1	-49.0	16.1	0.00e+00	0	44	0	676331520	63	5157
2026-01-13 11:52:31.10	298.12	16.15	-46.4	-49.5	15.6	0.00e+00	0	44	0	679477248	63	5428
2026-01-13 11:52:31.81	298.26	16.11	-46.5	-49.6	15.5	0.00e+00	0	44	0	680525824	63	5495
2026-01-13 11:52:33.09	298.52	16.06	-46.5	-49.6	15.5	0.00e+00	0	44	0	682622976	63	5487
2026-01-13 11:52:34.19	298.74	16.01	-46.5	-49.7	15.4	0.00e+00	0	44	0	684720128	63	5551
2026-01-13 11:52:35.30	298.97	15.96	-46.6	-49.8	15.4	0.00e+00	0	44	0	686817280	63	5620
2026-01-13 11:52:36.15	299.14	15.92	-46.4	-49.5	15.6	0.00e+00	0	44	0	688914432	64	5118
2026-01-13 11:52:37.29	299.36	15.87	-46.4	-49.5	15.5	0.00e+00	0	44	0	691011584	64	5139
2026-01-13 11:52:38.14	299.53	15.83	-46.4	-49.6	15.5	7.00e-07	0	44	0	692060160	64	5185
2026-01-13 11:52:39.28	299.76	15.78	-46.7	-50.0	15.0	0.00e+00	0	44	0	694157312	64	5453
2026-01-13 11:52:40.13	299.92	15.74	-46.9	-50.3	14.7	0.00e+00	0	44	0	696254464	64	5630
2026-01-13 11:52:41.27	300.15	15.68	-47.1	-50.7	14.4	0.00e+00	0	44	0	698351616	65	5537
2026-01-13 11:52:42.12	300.32	15.65	-47.3	-51.0	14.1	0.00e+00	0	44	0	699400192	65	5750
2026-01-13 11:52:43.26	300.54	15.59	-47.4	-51.0	14.0	1.50e-06	0	44	0	701497344	65	5788
2026-01-13 11:52:44.11	300.70	15.55	-47.4	-51.1	14.0	1.50e-06	0	44	0	703594496	65	5819
2026-01-13 11:52:45.25	300.93	15.50	-47.2	-50.7	14.3	3.00e-06	0	44	0	705691648	65	5583
2026-01-13 11:52:46.10	301.09	15.46	-47.0	-50.4	14.6	7.00e-07	0	44	0	706740224	65	5375
2026-01-13 11:52:47.24	301.31	15.40	-46.9	-50.2	14.8	0.00e+00	0	44	0	708837376	65	5267
2026-01-13 11:52:48.09	301.47	15.36	-46.8	-50.1	15.0	0.00e+00	0	44	0	710934528	65	5204
2026-01-13 11:52:49.23	301.69	15.31	-46.7	-50.0	15.1	0.00e+00	0	44	0	713031680	65	5106
2026-01-13 11:52:50.08	301.86	15.27	-46.7	-50.0	15.1	0.00e+00	0	44	0	715128832	65	5106
2026-01-13 11:52:51.57	302.14	15.19	-46.7	-50.0	15.0	0.00e+00	0	44	0	717225984	65	5122
2026-01-13 11:52:52.28	302.28	15.16	-46.6	-49.8	15.2	0.00e+00	0	43	0	719323136	65	5005
2026-01-13 11:52:53.74	302.55	15.09	-46.7	-50.0	15.0	0.00e+00	0	44	0	721420288	65	5135
2026-01-13 11:52:54.45	302.69	15.05	-46.7	-49.9	15.1	7.00e-07	0	44	0	722468864	65	5094
2026-01-13 11:52:55.84	302.95	14.99	-46.9	-50.3	14.8	0.00e+00	0	43	0	725614592	65	5280
2026-01-13 11:52:56.56	303.08	14.95	-46.9	-50.3	14.8	0.00e+00	0	44	0	726663168	65	5317
2026-01-13 11:52:57.84	303.32	14.89	-47.0	-50.5	14.6	7.00e-07	0	44	0	728760320	65	5405
2026-01-13 11:52:58.56	303.46	14.85	-47.1	-50.6	14.4	0.00e+00	0	44	0	730857472	65	5510
2026-01-13 11:52:59.84	303.69	14.79	-47.5	-51.3	13.8	2.20e-06	0	44	0	732954624	65	5959
2026-01-13 11:53:00.55	303.82	14.75	-47.5	-51.3	13.8	4.50e-06	0	44	0	734003200	65	5955
2026-01-13 11:53:01.83	304.06	14.69	-47.8	-51.9	13.2	4.50e-06	0	44	0	737148928	66	6025
2026-01-13 11:53:02.54	304.19	14.65	-47.9	-52.0	13.1	1.29e-05	0	44	0	738197504	66	6114
2026-01-13 11:53:03.82	304.43	14.58	-47.9	-52.1	13.0	2.74e-05	0	44	0	740294656	66	6138
2026-01-13 11:53:04.54	304.56	14.55	-47.9	-52.1	13.0	2.51e-05	0	44	0	741343232	66	6140
2026-01-13 11:53:05.81	304.79	14.48	-47.8	-51.9	13.1	1.83e-05	0	44	0	744488960	66	6061
2026-01-13 11:53:06.53	304.92	14.45	-47.6	-51.5	13.6	9.90e-06	0	44	0	745537536	66	5761
2026-01-13 11:53:07.81	305.15	14.38	-47.5	-51.2	13.9	3.00e-06	0	44	0	747634688	66	5590
2026-01-13 11:53:08.53	305.28	14.34	-47.3	-51.0	14.1	3.00e-06	0	44	0	749731840	66	5435
2026-01-13 11:53:09.81	305.51	14.28	-47.4	-51.1	14.0	0.00e+00	0	44	0	751828992	66	5510
2026-01-13 11:53:10.63	305.66	14.24	-47.3	-51.0	14.1	0.00e+00	0	43	0	752877568	66	5423
2026-01-13 11:53:12.09	305.92	14.16	-47.2	-50.9	14.2	1.50e-06	0	44	0	756023296	66	5364
2026-01-13 11:53:12.80	306.04	14.12	-47.2	-50.9	14.1	7.00e-07	0	44	0	757071872	66	5387
2026-01-13 11:53:14.28	306.30	14.04	-47.1	-50.8	14.3	1.50e-06	0	44	0	760217600	66	5295
2026-01-13 11:53:14.99	306.43	14.01	-46.9	-50.4	14.7	7.00e-07	0	44	0	761266176	65	5354
2026-01-13 11:53:16.27	306.65	13.94	-46.8	-50.4	14.7	1.50e-06	0	44	0	763363328	65	5343
2026-01-13 11:53:16.98	306.78	13.90	-46.8	-50.3	14.8	0.00e+00	0	44	0	765460480	65	5300
2026-01-13 11:53:18.26	307.00	13.84	-46.9	-50.4	14.7	1.50e-06	0	44	0	767557632	65	5355
2026-01-13 11:53:18.97	307.12	13.80	-46.9	-50.3	14.7	0.00e+00	0	44	0	768606208	65	5320
2026-01-13 11:53:20.25	307.35	13.73	-47.0	-50.6	14.4	0.00e+00	0	43	0	770703360	65	5504
2026-01-13 11:53:20.96	307.47	13.69	-47.0	-50.6	14.5	0.00e+00	0	44	0	772800512	65	5465
2026-01-13 11:53:22.24	307.69	13.62	-47.1	-50.8	14.3	7.00e-07	0	44	0	774897664	65	5614
2026-01-13 11:53:22.97	307.81	13.59	-47.1	-50.8	14.3	7.00e-07	0	44	0	775946240	65	5603
2026-01-13 11:53:24.24	308.03	13.52	-47.2	-50.8	14.2	7.00e-07	0	44	0	779091968	65	5628
2026-01-13 11:53:24.97	308.16	13.48	-47.2	-50.8	14.2	7.00e-07	0	44	0	780140544	65	5633
2026-01-13 11:53:26.25	308.37	13.41	-47.1	-50.8	14.2	1.50e-06	0	44	0	782237696	65	5650
2026-01-13 11:53:26.96	308.49	13.37	-47.1	-50.9	14.2	0.00e+00	0	44	0	783286272	65	5669
2026-01-13 11:53:28.24	308.71	13.30	-47.4	-51.2	13.8	4.50e-06	0	43	0	786432000	65	5899
2026-01-13 11:53:28.95	308.83	13.26	-47.3	-51.1	13.9	1.50e-06	0	44	0	787480576	65	5839
2026-01-13 11:53:30.23	309.04	13.19	-47.4	-51.2	13.8	7.60e-06	0	44	0	789577728	65	5868
2026-01-13 11:53:31.13	309.19	13.15	-47.3	-51.1	13.9	1.50e-06	0	44	0	791674880	65	5821
2026-01-13 11:53:32.49	309.42	13.07	-47.4	-51.2	13.8	2.20e-06	0	44	0	793772032	65	5876
2026-01-13 11:53:33.20	309.53	13.03	-47.2	-50.9	14.1	3.80e-06	0	44	0	795869184	65	5676
2026-01-13 11:53:34.48	309.74	12.96	-47.1	-50.6	14.4	7.00e-07	0	44	0	797966336	65	5504
2026-01-13 11:53:35.19	309.86	12.92	-47.2	-50.8	14.2	7.00e-07	0	44	0	799014912	65	5617
2026-01-13 11:53:36.47	310.07	12.85	-46.9	-50.5	14.5	0.00e+00	0	44	0	802160640	65	5430
2026-01-13 11:53:37.20	310.19	12.81	-47.0	-50.7	14.3	2.20e-06	0	44	0	803209216	65	5542
2026-01-13 11:53:38.48	310.40	12.74	-47.1	-50.9	14.1	1.50e-06	0	44	0	805306368	65	5657
2026-01-13 11:53:39.19	310.51	12.70	-47.1	-50.8	14.2	0.00e+00	0	44	0	806354944	65	5632
2026-01-13 11:53:40.47	310.72	12.63	-47.2	-51.1	13.9	2.20e-06	0	44	0	809500672	65	5812
2026-01-13 11:53:41.18	310.83	12.60	-47.1	-50.9	14.1	2.20e-06	0	44	0	810549248	65	5694
2026-01-13 11:53:42.52	311.05	12.52	-47.2	-51.0	14.0	2.20e-06	0	44	0	812646400	65	5764
2026-01-13 11:53:43.23	311.16	12.48	-47.1	-50.8	14.1	3.00e-06	0	44	0	814743552	65	5654
2026-01-13 11:53:44.51	311.36	12.41	-46.8	-50.5	14.5	0.00e+00	0	44	0	816840704	65	5411
2026-01-13 11:53:45.22	311.47	12.37	-46.6	-50.2	14.7	0.00e+00	0	44	0	817889280	65	5274
2026-01-13 11:53:46.50	311.68	12.30	-46.5	-50.1	14.8	0.00e+00	0	44	0	819986432	65	5210
2026-01-13 11:53:47.23	311.79	12.26	-46.6	-50.1	14.8	0.00e+00	0	44	0	822083584	65	5193
2026-01-13 11:53:48.74	312.03	12.18	-46.3	-49.7	15.2	0.00e+00	0	44	0	824180736	64	5259
2026-01-13 11:53:49.46	312.14	12.14	-46.4	-49.8	15.1	0.00e+00	0	44	0	826277888	64	5325
2026-01-13 11:53:50.73	312.34	12.07	-46.4	-49.9	15.1	0.00e+00	0	43	0	828375040	64	5344
2026-01-13 11:53:51.44	312.45	12.03	-46.3	-49.9	15.0	0.00e+00	0	44	0	829423616	64	5356
2026-01-13 11:53:52.72	312.64	11.95	-46.6	-50.2	14.7	0.00e+00	0	44	0	832569344	64	5562
2026-01-13 11:53:53.43	312.75	11.91	-46.4	-49.9	15.0	0.00e+00	0	44	0	833617920	64	5345
2026-01-13 11:53:54.71	312.95	11.84	-46.6	-50.0	14.9	0.00e+00	0	44	0	835715072	64	5428
2026-01-13 11:53:55.45	313.06	11.80	-46.7	-50.1	14.9	0.00e+00	0	44	0	836763648	64	5474
2026-01-13 11:53:56.73	313.25	11.73	-46.4	-49.7	15.2	0.00e+00	0	44	0	839909376	64	5277
2026-01-13 11:53:57.44	313.36	11.69	-46.4	-49.8	15.1	0.00e+00	0	44	0	840957952	64	5282
2026-01-13 11:53:58.72	313.55	11.62	-46.3	-49.6	15.2	0.00e+00	0	44	0	843055104	64	5208
2026-01-13 11:53:59.51	313.67	11.57	-46.2	-49.5	15.4	0.00e+00	0	44	0	845152256	64	5132
2026-01-13 11:54:00.72	313.85	11.51	-46.4	-49.7	15.2	0.00e+00	0	44	0	847249408	64	5240
2026-01-13 11:54:01.58	313.98	11.46	-46.4	-49.6	15.2	0.00e+00	0	44	0	848297984	64	5214
2026-01-13 11:54:02.71	314.15	11.39	-46.5	-49.8	15.0	0.00e+00	0	44	0	850395136	64	5338
2026-01-13 11:54:03.57	314.28	11.35	-46.6	-49.9	14.9	0.00e+00	0	44	0	852492288	64	5395
2026-01-13 11:54:04.70	314.44	11.28	-46.6	-50.0	14.9	0.00e+00	0	44	0	854589440	64	5403
2026-01-13 11:54:05.56	314.57	11.23	-46.7	-50.1	14.8	0.00e+00	0	44	0	855638016	64	5509
2026-01-13 11:54:06.69	314.73	11.17	-46.6	-50.0	14.9	7.00e-07	0	44	0	858783744	64	5425
2026-01-13 11:54:07.55	314.86	11.12	-46.4	-49.7	15.2	0.00e+00	0	44	0	859832320	64	5226
2026-01-13 11:54:08.68	315.02	11.06	-46.3	-49.6	15.2	0.00e+00	0	43	0	861929472	64	5193
2026-01-13 11:54:09.54	315.15	11.01	-46.2	-49.5	15.4	0.00e+00	0	44	0	864026624	64	5103
2026-01-13 11:54:10.68	315.31	10.94	-46.2	-49.4	15.4	0.00e+00	0	44	0	866123776	64	5070
2026-01-13 11:54:11.53	315.43	10.90	-46.1	-49.3	15.5	0.00e+00	0	44	0	867172352	64	5015
2026-01-13 11:54:12.66	315.60	10.83	-46.0	-49.1	15.7	0.00e+00	0	44	0	869269504	64	4897
2026-01-13 11:54:13.52	315.72	10.78	-46.0	-49.1	15.7	0.00e+00	0	44	0	871366656	64	4914
2026-01-13 11:54:14.65	315.88	10.72	-46.1	-49.1	15.8	0.00e+00	0	44	0	873463808	63	5186
2026-01-13 11:54:15.60	316.01	10.67	-46.1	-49.2	15.7	0.00e+00	0	44	0	874512384	63	5233
2026-01-13 11:54:16.60	316.15	10.61	-46.1	-49.3	15.6	0.00e+00	0	44	0	876609536	63	5301
2026-01-13 11:54:17.59	316.29	10.55	-46.1	-49.4	15.5	0.00e+00	0	44	0	878706688	63	5345
2026-01-13 11:54:18.58	316.43	10.50	-46.2	-49.5	15.3	0.00e+00	0	43	0	880803840	63	5454
2026-01-13 11:54:19.58	316.57	10.44	-46.1	-49.4	15.4	0.00e+00	0	44	0	882900992	63	5392
2026-01-13 11:54:20.57	316.71	10.38	-46.3	-49.8	15.1	0.00e+00	0	44	0	883949568	63	5612
2026-01-13 11:54:21.95	316.90	10.30	-46.2	-49.6	15.2	0.00e+00	0	44	0	887095296	63	5512
2026-01-13 11:54:22.66	317.00	10.26	-46.3	-49.9	15.0	0.00e+00	0	44	0	888143872	63	5664
2026-01-13 11:54:23.94	317.17	10.19	-46.2	-49.8	15.0	7.00e-07	0	44	0	890241024	63	5656
2026-01-13 11:54:24.66	317.27	10.15	-46.2	-49.8	15.1	0.00e+00	0	44	0	892338176	63	5628
2026-01-13 11:54:25.94	317.44	10.08	-46.4	-50.3	14.6	7.00e-07	0	44	0	894435328	63	5944
2026-01-13 11:54:26.65	317.54	10.04	-46.4	-50.2	14.7	7.00e-07	0	44	0	895483904	63	5873
2026-01-13 11:54:27.93	317.71	9.96	-46.6	-50.5	14.4	7.00e-07	0	44	0	898629632	63	6078
2026-01-13 11:54:28.66	317.81	9.92	-46.6	-50.6	14.3	1.50e-06	0	44	0	899678208	64	5808
2026-01-13 11:54:29.93	317.98	9.85	-46.7	-50.6	14.2	0.00e+00	0	44	0	901775360	64	5840
2026-01-13 11:54:30.64	318.08	9.81	-46.8	-50.9	13.9	7.00e-07	0	44	0	902823936	64	6005
2026-01-13 11:54:32.03	318.26	9.73	-46.6	-50.4	14.4	1.50e-06	0	44	0	905969664	64	5687
2026-01-13 11:54:32.74	318.35	9.69	-46.7	-50.5	14.3	7.00e-07	0	44	0	907018240	64	5750
2026-01-13 11:54:34.02	318.52	9.62	-46.5	-50.2	14.6	0.00e+00	0	44	0	909115392	64	5549
2026-01-13 11:54:34.73	318.62	9.58	-46.5	-50.1	14.6	7.00e-07	0	44	0	911212544	64	5495
2026-01-13 11:54:36.14	318.80	9.50	-46.3	-49.7	15.1	0.00e+00	0	44	0	913309696	64	5231
2026-01-13 11:54:36.85	318.89	9.46	-46.2	-49.5	15.2	0.00e+00	0	44	0	914358272	64	5151
2026-01-13 11:54:38.22	319.07	9.38	-46.0	-49.3	15.5	0.00e+00	0	44	0	917504000	63	5305
2026-01-13 11:54:38.93	319.16	9.34	-46.0	-49.4	15.3	0.00e+00	0	43	0	918552576	63	5379
2026-01-13 11:54:40.22	319.33	9.27	-45.9	-49.5	15.2	0.00e+00	0	44	0	921698304	63	5464
2026-01-13 11:54:40.93	319.42	9.23	-45.9	-49.6	15.2	0.00e+00	0	44	0	922746880	63	5469
2026-01-13 11:54:42.26	319.59	9.15	-46.0	-49.9	14.9	7.00e-07	0	44	0	924844032	63	5679
2026-01-13 11:54:42.97	319.68	9.11	-46.1	-50.0	14.7	0.00e+00	0	44	0	925892608	63	5782
2026-01-13 11:54:44.25	319.84	9.04	-46.3	-50.5	14.3	0.00e+00	0	44	0	929038336	63	6070
2026-01-13 11:54:44.96	319.93	9.00	-50.4	-65.6	3.8	5.42e-03	0	43	104	930086912	71	21893
2026-01-13 11:54:46.24	320.10	8.92	-50.6	-66.4	3.8	1.49e+00	0	44	104	930086912	72	22678
2026-01-13 11:54:46.95	320.18	8.88	-51.2	-66.5	3.8	1.49e+00	0	44	104	930086912	73	21520
2026-01-13 11:54:48.22	320.34	8.81	-51.2	-66.5	3.8	1.49e+00	0	44	104	930086912	73	21739
2026-01-13 11:54:48.93	320.43	8.77	-51.2	-66.6	3.8	1.49e+00	0	44	104	930086912	73	21817
2026-01-13 11:54:50.21	320.59	8.70	-51.4	-66.7	3.8	1.49e+00	0	44	104	930086912	73	22078
2026-01-13 11:54:50.94	320.68	8.66	-51.6	-66.7	3.8	1.49e+00	0	44	104	930086912	73	22099
2026-01-13 11:54:52.21	320.84	8.59	-51.4	-66.7	3.8	1.49e+00	0	44	104	930086912	73	22198
2026-01-13 11:54:53.02	320.94	8.54	-51.5	-66.7	3.8	1.49e+00	0	44	104	930086912	73	22208
2026-01-13 11:54:54.15	321.08	8.48	-51.5	-66.7	3.8	1.49e+00	0	44	104	930086912	73	22217
2026-01-13 11:54:55.19	321.20	8.42	-51.5	-66.7	3.8	1.49e+00	0	44	104	930086912	73	22208
2026-01-13 11:54:56.36	321.34	8.35	-51.6	-66.7	3.8	1.49e+00	0	44	104	930086912	73	22193
2026-01-13 11:54:57.24	321.45	8.30	-51.5	-66.7	3.8	1.49e+00	0	44	104	930086912	73	22225
2026-01-13 11:54:58.55	321.61	8.23	-51.7	-66.7	3.8	1.49e+00	0	44	104	930086912	73	22199
2026-01-13 11:54:59.26	321.69	8.19	-51.7	-66.8	3.8	1.49e+00	0	44	104	930086912	73	22270
2026-01-13 11:55:00.75	321.87	8.10	-51.6	-66.8	3.8	1.49e+00	0	44	104	930086912	73	22294
2026-01-13 11:55:01.46	321.96	8.06	-51.6	-66.7	3.8	1.49e+00	0	44	104	930086912	73	22201
2026-01-13 11:55:02.83	322.12	7.98	-51.5	-66.8	3.8	1.49e+00	0	44	104	930086912	73	22282
2026-01-13 11:55:03.54	322.20	7.94	-51.4	-66.7	3.8	1.49e+00	0	44	104	930086912	73	22045
2026-01-13 11:55:04.88	322.36	7.87	-51.4	-66.7	3.8	1.49e+00	0	44	104	930086912	73	22147
2026-01-13 11:55:05.59	322.44	7.83	-51.4	-66.7	3.8	1.49e+00	0	44	104	930086912	73	22071
2026-01-13 11:55:06.87	322.59	7.76	-51.4	-66.6	3.8	1.49e+00	0	44	104	930086912	73	21984
2026-01-13 11:55:07.59	322.68	7.72	-51.4	-66.7	3.8	1.49e+00	0	44	104	930086912	73	22013
2026-01-13 11:55:08.87	322.82	7.64	-51.3	-66.6	3.8	1.49e+00	0	44	104	930086912	73	21935
2026-01-13 11:55:09.58	322.91	7.60	-51.4	-66.6	3.8	1.49e+00	0	44	104	930086912	73	21981
2026-01-13 11:55:10.87	323.05	7.53	-51.3	-66.6	3.8	1.49e+00	0	44	104	930086912	73	21926
2026-01-13 11:55:11.58	323.14	7.49	-51.3	-66.6	3.8	1.49e+00	0	44	104	930086912	73	21936
2026-01-13 11:55:12.86	323.28	7.42	-51.3	-66.6	3.8	1.49e+00	0	44	104	930086912	73	21835
2026-01-13 11:55:13.58	323.36	7.38	-51.3	-66.6	3.8	1.49e+00	0	44	104	930086912	73	21879
2026-01-13 11:55:14.86	323.51	7.31	-51.3	-66.6	3.8	1.49e+00	0	44	104	930086912	73	21899
2026-01-13 11:55:15.57	323.59	7.27	-51.3	-66.6	3.8	1.49e+00	0	44	104	930086912	73	21925
2026-01-13 11:55:16.84	323.73	7.20	-51.3	-66.6	3.8	1.49e+00	0	44	104	930086912	73	21860
2026-01-13 11:55:17.55	323.81	7.16	-51.3	-66.6	3.8	1.49e+00	0	44	104	930086912	73	21800
2026-01-13 11:55:18.83	323.95	7.09	-51.3	-66.6	3.8	1.49e+00	0	44	104	930086912	73	21798
2026-01-13 11:55:19.54	324.03	7.05	-51.3	-66.6	3.8	1.49e+00	0	44	104	930086912	73	21815
2026-01-13 11:55:20.82	324.17	6.97	-51.3	-66.6	3.8	1.49e+00	0	44	104	930086912	73	21762
2026-01-13 11:55:21.53	324.25	6.93	-51.3	-66.5	3.8	1.49e+00	0	44	104	930086912	73	21721
2026-01-13 11:55:22.80	324.39	6.86	-51.3	-66.5	3.8	1.49e+00	0	44	104	930086912	73	21749
2026-01-13 11:55:23.51	324.47	6.82	-51.3	-66.5	3.8	1.49e+00	0	44	104	930086912	73	21731
2026-01-13 11:55:24.79	324.61	6.75	-51.3	-66.5	3.8	1.49e+00	0	44	104	930086912	73	21689
2026-01-13 11:55:25.51	324.69	6.71	-51.3	-66.5	3.8	1.49e+00	0	44	104	930086912	73	21722
2026-01-13 11:55:26.79	324.83	6.64	-51.3	-66.5	3.8	1.49e+00	0	44	104	930086912	73	21619
2026-01-13 11:55:27.50	324.90	6.60	-51.2	-66.5	3.8	1.49e+00	0	44	104	930086912	73	21697
2026-01-13 11:55:28.78	325.04	6.53	-51.3	-66.5	3.8	1.49e+00	0	44	104	930086912	73	21693
2026-01-13 11:55:29.49	325.12	6.49	-51.3	-66.5	3.8	1.49e+00	0	44	104	930086912	73	21684
2026-01-13 11:55:30.76	325.25	6.42	-51.3	-66.5	3.8	1.49e+00	0	44	104	930086912	73	21641
2026-01-13 11:55:31.47	325.33	6.38	-51.3	-66.5	3.8	1.49e+00	0	44	104	930086912	73	21606
2026-01-13 11:55:32.75	325.46	6.31	-51.2	-66.5	3.8	1.49e+00	0	44	104	930086912	73	21664
2026-01-13 11:55:33.46	325.54	6.27	-51.2	-66.5	3.8	1.49e+00	0	44	104	930086912	73	21681
2026-01-13 11:55:34.74	325.67	6.20	-51.2	-66.5	3.8	1.49e+00	0	44	104	930086912	73	21607
2026-01-13 11:55:35.45	325.75	6.16	-51.2	-66.5	3.8	1.49e+00	0	44	104	930086912	73	21687
2026-01-13 11:55:36.73	325.88	6.09	-51.2	-66.5	3.8	1.49e+00	0	44	104	930086912	73	21700
2026-01-13 11:55:37.44	325.96	6.05	-51.2	-66.5	3.8	1.49e+00	0	44	104	930086912	73	21619
2026-01-13 11:55:38.71	326.09	5.98	-51.2	-66.5	3.8	1.49e+00	0	44	104	930086912	73	21681
2026-01-13 11:55:39.42	326.16	5.94	-51.2	-66.5	3.8	1.49e+00	0	44	104	930086912	73	21648
2026-01-13 11:55:40.70	326.29	5.87	-51.2	-66.5	3.8	1.49e+00	0	44	104	930086912	73	21680
2026-01-13 11:55:41.41	326.37	5.83	-51.2	-66.5	3.8	1.49e+00	0	44	104	930086912	73	21692
2026-01-13 11:55:42.69	326.50	5.76	-51.2	-66.5	3.8	1.49e+00	0	44	104	930086912	73	21610
2026-01-13 11:55:43.43	326.57	5.72	-51.2	-66.5	3.8	1.49e+00	0	44	104	930086912	73	21613
2026-01-13 11:55:44.71	326.70	5.65	-51.2	-66.5	3.8	1.49e+00	0	44	104	930086912	73	21596
2026-01-13 11:55:45.43	326.78	5.61	-51.2	-66.5	3.8	1.49e+00	0	44	104	930086912	73	21523
2026-01-13 11:55:46.71	326.90	5.54	-51.2	-66.5	3.8	1.49e+00	0	44	104	930086912	73	21587
2026-01-13 11:55:47.42	326.98	5.50	-51.2	-66.5	3.8	1.49e+00	0	44	104	930086912	73	21536
2026-01-13 11:55:48.70	327.10	5.43	-51.2	-66.5	3.8	1.49e+00	0	44	104	930086912	73	21595
2026-01-13 11:55:49.42	327.18	5.39	-51.2	-66.5	3.8	1.49e+00	0	44	104	930086912	73	21581
2026-01-13 11:55:50.70	327.30	5.32	-51.2	-66.5	3.8	1.49e+00	0	44	104	930086912	73	21580
2026-01-13 11:55:51.41	327.37	5.28	-51.2	-66.4	3.8	1.49e+00	0	44	104	930086912	73	21446
2026-01-13 11:55:52.68	327.50	5.21	-51.2	-66.5	3.8	1.49e+00	0	44	104	930086912	73	21539
2026-01-13 11:55:53.39	327.57	5.17	-51.2	-66.5	3.8	1.49e+00	0	44	104	930086912	73	21559
2026-01-13 11:55:54.67	327.69	5.10	-51.2	-66.4	3.8	1.49e+00	0	44	104	930086912	73	21466
2026-01-13 11:55:55.39	327.76	5.07	-51.2	-66.5	3.8	1.49e+00	0	44	104	930086912	73	21551
2026-01-13 11:55:56.67	327.89	5.00	-51.2	-66.4	3.8	1.49e+00	0	44	104	930086912	73	21459

#Closed at: 2026-01-13 11:55:57
#Recorded file [930 MB]: D:/Data/31040_260113_144531.dat