passes_logs/2026/01/13/T1/T1__20260113_075549_NOAA_21_JPSS-2_rec.log

#Pass ID: 20260113_075549_NOAA 21 (JPSS-2)
#Satellite: NOAA 21 (JPSS-2)
#Configuration: NOAA 21
#almurnet v.1.7.20251203
#Start time: 2026-01-13 07:55:51

#Version: 2.0.20230620
#Station: T1
#Location: 37.570604 lon 55.790049 lat
#TLE: 1 54234U 22150A   26012.26378519  .00000063  00000+0  50547-4 0  9993
#TLE: 2 54234  98.7495 313.1967 0000726 309.1075  51.0036 14.19534275164425

#Time	Az	El	Level	Level2	SNR	BER	BlckErr	Temp	State	Recorded	gain1	gain2
2026-01-13 07:55:51.19	96.15	5.08	-49.6	-62.8	3.8	1.49e+00	0	43	0	0	71	15825
2026-01-13 07:55:52.18	96.05	5.13	-49.6	-62.7	3.8	1.49e+00	0	43	104	0	71	15753
2026-01-13 07:55:53.17	95.96	5.19	-49.6	-62.7	3.8	1.49e+00	0	43	104	0	71	15708
2026-01-13 07:55:54.17	95.86	5.24	-49.6	-62.7	3.8	1.49e+00	0	43	104	0	71	15689
2026-01-13 07:55:55.16	95.76	5.30	-49.6	-62.7	3.8	1.49e+00	0	43	104	0	71	15681
2026-01-13 07:55:56.15	95.66	5.35	-49.6	-62.7	3.8	1.49e+00	0	43	104	0	71	15677
2026-01-13 07:55:57.15	95.56	5.41	-49.6	-62.7	3.8	1.49e+00	0	43	104	0	71	15608
2026-01-13 07:55:58.14	95.46	5.46	-49.6	-62.6	3.8	1.49e+00	0	43	104	0	71	15551
2026-01-13 07:55:59.13	95.36	5.52	-49.6	-62.7	3.8	1.49e+00	0	43	104	0	71	15599
2026-01-13 07:56:00.13	95.26	5.57	-49.5	-62.7	3.8	1.49e+00	0	43	104	0	71	15608
2026-01-13 07:56:01.12	95.16	5.63	-49.5	-62.7	3.8	1.49e+00	0	43	104	0	71	15592
2026-01-13 07:56:02.11	95.06	5.68	-49.6	-62.7	3.8	1.49e+00	0	44	104	0	71	15613
2026-01-13 07:56:03.11	94.96	5.74	-49.5	-62.7	3.8	1.49e+00	0	43	104	0	71	15613
2026-01-13 07:56:04.10	94.85	5.79	-49.5	-62.7	3.8	1.49e+00	0	43	104	0	71	15614
2026-01-13 07:56:05.09	94.75	5.85	-49.6	-62.7	3.8	1.49e+00	0	43	104	0	71	15617
2026-01-13 07:56:06.08	94.65	5.90	-49.6	-62.7	3.8	1.49e+00	0	44	104	0	71	15613
2026-01-13 07:56:07.08	94.55	5.96	-49.5	-62.7	3.8	1.49e+00	0	44	104	0	71	15666
2026-01-13 07:56:08.07	94.44	6.01	-49.5	-62.7	3.8	1.49e+00	0	43	104	0	71	15621
2026-01-13 07:56:09.06	94.34	6.07	-49.5	-62.7	3.8	1.49e+00	0	44	104	0	71	15628
2026-01-13 07:56:10.06	94.23	6.12	-49.5	-62.6	3.8	1.49e+00	0	43	104	0	71	15577
2026-01-13 07:56:11.05	94.13	6.18	-49.5	-62.7	3.8	1.49e+00	0	43	104	0	71	15641
2026-01-13 07:56:12.04	94.02	6.23	-49.5	-62.6	3.8	1.49e+00	0	44	104	0	71	15566
2026-01-13 07:56:13.04	93.92	6.29	-49.5	-62.7	3.8	1.49e+00	0	43	104	0	71	15653
2026-01-13 07:56:14.03	93.81	6.34	-49.5	-62.7	3.8	1.49e+00	0	44	104	0	71	15618
2026-01-13 07:56:15.02	93.71	6.40	-49.5	-62.7	3.8	1.49e+00	0	44	104	0	71	15642
2026-01-13 07:56:16.02	93.60	6.45	-49.5	-62.6	3.8	1.49e+00	0	44	104	0	71	15491
2026-01-13 07:56:17.01	93.49	6.51	-49.5	-62.6	3.8	1.49e+00	0	44	104	0	71	15493
2026-01-13 07:56:18.00	93.38	6.57	-49.5	-62.5	3.8	1.49e+00	0	43	104	0	71	15346
2026-01-13 07:56:19.00	93.27	6.62	-49.5	-62.5	3.8	1.49e+00	0	43	104	0	71	15244
2026-01-13 07:56:19.99	93.17	6.68	-49.5	-62.4	3.8	1.49e+00	0	44	104	0	71	15098
2026-01-13 07:56:20.98	93.06	6.73	-49.5	-62.3	3.8	1.49e+00	0	44	104	0	71	15021
2026-01-13 07:56:21.98	92.95	6.79	-49.5	-62.2	3.8	1.49e+00	0	44	104	0	71	14856
2026-01-13 07:56:22.97	92.84	6.84	-49.5	-62.2	3.8	1.49e+00	0	44	104	0	71	14785
2026-01-13 07:56:23.96	92.73	6.90	-49.5	-62.1	3.8	1.49e+00	0	43	104	0	71	14699
2026-01-13 07:56:24.96	92.62	6.95	-49.5	-62.2	3.8	1.49e+00	0	44	104	0	71	14709
2026-01-13 07:56:25.95	92.51	7.01	-49.5	-62.0	3.8	1.49e+00	0	44	104	0	71	14463
2026-01-13 07:56:26.94	92.39	7.06	-49.5	-62.0	3.8	1.49e+00	0	44	104	0	71	14469
2026-01-13 07:56:27.94	92.28	7.12	-49.5	-61.9	3.8	1.49e+00	0	44	104	0	71	14280
2026-01-13 07:56:28.93	92.17	7.18	-49.5	-61.9	3.8	1.49e+00	0	44	104	0	70	15084
2026-01-13 07:56:29.92	92.06	7.23	-49.4	-61.8	3.8	1.49e+00	0	44	104	0	70	14904
2026-01-13 07:56:30.91	91.94	7.29	-49.5	-61.7	3.8	1.49e+00	0	44	104	0	70	14781
2026-01-13 07:56:31.91	91.83	7.34	-49.5	-61.7	3.8	1.49e+00	0	44	104	0	70	14844
2026-01-13 07:56:32.90	91.72	7.40	-49.5	-61.7	3.8	1.49e+00	0	44	104	0	70	14800
2026-01-13 07:56:33.90	91.60	7.45	-49.5	-61.9	3.8	1.49e+00	0	44	104	0	70	15116
2026-01-13 07:56:34.89	91.49	7.51	-49.5	-62.1	3.8	1.49e+00	0	44	104	0	70	15438
2026-01-13 07:56:35.88	91.37	7.57	-49.5	-62.4	3.8	1.49e+00	0	44	104	0	70	15989
2026-01-13 07:56:36.87	91.26	7.62	-49.5	-62.5	3.8	1.49e+00	0	44	104	0	70	16295
2026-01-13 07:56:37.87	91.14	7.68	-49.5	-62.7	3.8	1.49e+00	0	44	104	0	70	16530
2026-01-13 07:56:38.86	91.02	7.73	-49.6	-62.7	3.8	1.49e+00	0	44	104	0	70	16631
2026-01-13 07:56:39.85	90.90	7.79	-49.6	-62.7	3.8	1.49e+00	0	44	104	0	70	16680
2026-01-13 07:56:40.85	90.79	7.84	-49.6	-62.7	3.8	1.49e+00	0	44	104	0	70	16658
2026-01-13 07:56:41.84	90.67	7.90	-49.5	-62.5	3.8	1.49e+00	0	44	104	0	70	16218
2026-01-13 07:56:42.83	90.55	7.96	-49.5	-61.9	3.8	1.49e+00	0	44	104	0	70	15150
2026-01-13 07:56:43.83	90.43	8.01	-49.4	-61.1	3.8	1.49e+00	0	44	104	0	70	13858
2026-01-13 07:56:44.82	90.31	8.07	-49.3	-60.4	3.9	1.48e+00	0	44	104	0	70	12713
2026-01-13 07:56:45.82	90.19	8.12	-49.3	-59.9	4.0	1.48e+00	0	44	104	0	70	12068
2026-01-13 07:56:46.81	90.07	8.18	-49.4	-61.1	3.9	1.49e+00	0	44	104	0	70	13806
2026-01-13 07:56:47.80	89.95	8.23	-49.5	-62.3	3.8	1.49e+00	0	44	104	0	70	15878
2026-01-13 07:56:48.80	89.83	8.29	-49.5	-62.3	3.8	1.49e+00	0	44	104	0	70	15867
2026-01-13 07:56:49.79	89.71	8.35	-49.2	-59.6	3.9	1.49e+00	0	44	104	0	70	11634
2026-01-13 07:56:50.78	89.58	8.40	-48.4	-55.2	6.3	4.25e-01	0	44	0	0	68	7881
2026-01-13 07:56:51.78	89.46	8.46	-47.4	-52.4	8.8	4.78e-02	0	44	0	0	66	6417
2026-01-13 07:56:52.77	89.34	8.51	-46.5	-50.7	10.6	4.77e-03	0	44	0	0	65	5569
2026-01-13 07:56:53.76	89.21	8.57	-46.0	-49.7	11.7	1.05e-03	0	44	0	0	63	5548
2026-01-13 07:56:54.76	89.09	8.63	-45.7	-49.2	12.2	2.06e-04	0	44	0	0	63	5240
2026-01-13 07:56:55.75	88.96	8.68	-45.9	-49.4	12.0	2.08e-04	0	44	0	0	63	5374
2026-01-13 07:56:56.74	88.84	8.74	-46.4	-50.3	11.1	1.25e-03	0	44	0	0	63	5985
2026-01-13 07:56:57.74	88.71	8.79	-47.1	-51.8	9.4	7.39e-03	0	44	0	0	64	6687
2026-01-13 07:56:58.73	88.59	8.85	-48.0	-54.1	7.2	7.24e-02	0	44	0	0	66	7781
2026-01-13 07:56:59.72	88.46	8.90	-49.0	-58.4	4.0	6.02e-01	0	44	104	0	68	11343
2026-01-13 07:57:00.71	88.33	8.96	-49.4	-61.6	3.8	1.49e+00	0	44	104	0	69	15449
2026-01-13 07:57:01.71	88.20	9.02	-49.5	-62.8	3.8	1.49e+00	0	44	104	0	69	17685
2026-01-13 07:57:02.70	88.08	9.07	-48.1	-54.7	4.5	1.49e+00	0	44	104	0	68	7387
2026-01-13 07:57:03.70	87.95	9.13	-48.7	-56.2	5.6	1.11e-01	0	44	0	0	67	9358
2026-01-13 07:57:04.69	87.82	9.18	-49.5	-61.2	3.8	1.49e+00	0	44	104	0	69	14864
2026-01-13 07:57:05.69	87.69	9.24	-49.5	-61.6	3.8	1.49e+00	0	44	104	0	69	15440
2026-01-13 07:57:06.68	87.56	9.29	-49.6	-61.9	3.8	1.49e+00	0	44	104	0	69	15955
2026-01-13 07:57:07.67	87.43	9.35	-49.6	-62.5	3.8	1.49e+00	0	44	104	0	69	17214
2026-01-13 07:57:08.67	87.29	9.41	-49.0	-58.1	4.5	1.08e+00	0	44	104	0	69	10345
2026-01-13 07:57:09.66	87.16	9.46	-49.1	-58.9	4.3	1.39e+00	0	44	104	0	69	11316
2026-01-13 07:57:10.66	87.03	9.52	-49.1	-59.0	4.0	1.45e+00	0	44	104	0	69	11543
2026-01-13 07:57:11.65	86.90	9.57	-48.9	-58.2	4.0	9.47e-01	0	44	104	0	69	10433
2026-01-13 07:57:12.73	86.75	9.63	-48.9	-57.3	5.0	1.28e+00	0	44	104	0	69	9461
2026-01-13 07:57:13.61	86.63	9.68	-49.4	-62.0	3.8	1.49e+00	0	44	104	0	69	16313
2026-01-13 07:57:14.92	86.46	9.76	-46.7	-51.2	10.0	1.45e+00	0	44	104	0	65	5880
2026-01-13 07:57:15.63	86.36	9.80	-49.3	-60.3	3.9	4.70e-01	0	44	104	0	69	13359
2026-01-13 07:57:17.12	86.16	9.88	-46.5	-50.8	10.7	4.58e-02	0	44	0	0	64	5939
2026-01-13 07:57:17.83	86.06	9.92	-46.8	-51.3	10.1	5.02e-03	0	44	0	0	64	6337
2026-01-13 07:57:19.10	85.88	9.99	-46.5	-50.8	10.7	3.05e-03	0	44	0	0	64	5950
2026-01-13 07:57:19.81	85.79	10.03	-46.5	-50.8	10.8	2.33e-03	0	44	0	0	64	5924
2026-01-13 07:57:21.21	85.59	10.11	-46.2	-50.1	11.4	1.89e-03	0	44	0	0	64	5468
2026-01-13 07:57:21.92	85.49	10.15	-46.1	-49.9	11.6	7.28e-04	0	44	0	0	64	5380
2026-01-13 07:57:23.20	85.31	10.22	-46.0	-49.8	11.7	6.57e-04	0	44	0	0	64	5288
2026-01-13 07:57:23.92	85.21	10.26	-45.7	-49.1	12.5	1.97e-04	0	44	0	0	63	5207
2026-01-13 07:57:25.20	85.03	10.33	-44.8	-47.7	13.9	9.10e-06	0	44	0	0	61	4972
2026-01-13 07:57:25.91	84.93	10.37	-44.5	-47.3	14.4	1.50e-06	0	44	0	0	60	4992
2026-01-13 07:57:27.19	84.75	10.44	-44.0	-46.7	15.0	0.00e+00	0	44	0	0	60	4659
2026-01-13 07:57:27.92	84.65	10.48	-43.8	-46.4	15.2	0.00e+00	0	44	0	0	59	4778
2026-01-13 07:57:29.19	84.46	10.55	-43.4	-45.8	15.8	0.00e+00	0	44	0	0	58	4730
2026-01-13 07:57:29.91	84.36	10.59	-43.3	-45.7	15.9	0.00e+00	0	44	0	0	58	4685
2026-01-13 07:57:31.18	84.18	10.66	-43.5	-45.9	15.7	0.00e+00	0	44	0	0	58	4790
2026-01-13 07:57:31.96	84.07	10.70	-43.5	-46.0	15.6	0.00e+00	0	44	0	0	58	4817
2026-01-13 07:57:33.24	83.88	10.77	-43.6	-46.0	15.5	0.00e+00	0	44	0	0	58	4845
2026-01-13 07:57:33.96	83.77	10.81	-43.6	-46.1	15.5	0.00e+00	0	44	0	0	58	4905
2026-01-13 07:57:35.24	83.59	10.88	-43.6	-46.1	15.5	0.00e+00	0	44	0	0	58	4891
2026-01-13 07:57:35.97	83.48	10.92	-43.6	-46.1	15.5	0.00e+00	0	44	0	0	58	4871
2026-01-13 07:57:37.25	83.29	10.99	-43.9	-46.4	15.2	0.00e+00	0	44	0	0	58	5089
2026-01-13 07:57:37.96	83.19	11.03	-43.9	-46.4	15.2	0.00e+00	0	44	0	0	58	5090
2026-01-13 07:57:39.25	82.99	11.10	-43.7	-46.2	15.4	0.00e+00	0	44	0	0	58	4958
2026-01-13 07:57:39.96	82.89	11.14	-43.8	-46.3	15.3	0.00e+00	0	44	0	0	58	4999
2026-01-13 07:57:41.24	82.70	11.21	-43.8	-46.2	15.4	7.00e-07	0	44	0	0	58	4971
2026-01-13 07:57:41.95	82.59	11.25	-43.7	-46.2	15.4	0.00e+00	0	44	0	0	58	4956
2026-01-13 07:57:43.23	82.40	11.32	-43.7	-46.1	15.5	0.00e+00	0	44	0	0	58	4900
2026-01-13 07:57:43.94	82.29	11.36	-43.7	-46.2	15.4	0.00e+00	0	44	0	0	58	4927
2026-01-13 07:57:45.22	82.09	11.43	-43.6	-46.0	15.6	0.00e+00	0	44	0	0	58	4851
2026-01-13 07:57:45.95	81.98	11.47	-43.7	-46.2	15.5	0.00e+00	0	44	0	0	58	4930
2026-01-13 07:57:47.22	81.79	11.54	-43.7	-46.2	15.4	7.00e-07	0	44	0	0	58	4955
2026-01-13 07:57:47.93	81.68	11.57	-43.8	-46.3	15.3	0.00e+00	0	44	0	0	58	5011
2026-01-13 07:57:49.21	81.48	11.64	-43.8	-46.4	15.3	0.00e+00	0	44	0	0	58	5053
2026-01-13 07:57:50.06	81.35	11.69	-43.9	-46.5	15.2	0.00e+00	0	44	0	0	58	5111
2026-01-13 07:57:51.50	81.13	11.77	-43.8	-46.2	15.4	0.00e+00	0	44	0	0	58	4980
2026-01-13 07:57:52.21	81.02	11.81	-43.7	-46.1	15.6	0.00e+00	0	44	0	0	58	4897
2026-01-13 07:57:53.49	80.82	11.87	-43.5	-45.9	15.8	0.00e+00	0	44	0	0	58	4771
2026-01-13 07:57:54.20	80.70	11.91	-43.6	-46.0	15.7	0.00e+00	0	44	0	0	58	4858
2026-01-13 07:57:55.77	80.46	12.00	-43.6	-46.0	15.7	0.00e+00	0	44	0	0	58	4816
2026-01-13 07:57:56.41	80.35	12.03	-43.5	-45.9	15.8	0.00e+00	0	44	0	0	58	4764
2026-01-13 07:57:57.83	80.13	12.11	-43.4	-45.7	15.9	0.00e+00	0	44	0	0	58	4696
2026-01-13 07:57:58.54	80.01	12.14	-43.5	-45.9	15.8	0.00e+00	0	44	0	0	58	4773
2026-01-13 07:57:59.82	79.81	12.21	-43.4	-45.8	15.9	0.00e+00	0	44	0	0	58	4711
2026-01-13 07:58:00.54	79.69	12.25	-43.4	-45.7	16.0	0.00e+00	0	44	0	0	58	4657
2026-01-13 07:58:01.81	79.49	12.32	-43.3	-45.6	16.1	0.00e+00	0	44	0	0	58	4619
2026-01-13 07:58:02.53	79.37	12.35	-43.4	-45.7	16.0	0.00e+00	0	44	0	0	58	4686
2026-01-13 07:58:03.80	79.16	12.42	-43.5	-45.8	15.9	0.00e+00	0	44	0	0	58	4728
2026-01-13 07:58:04.53	79.05	12.46	-43.4	-45.7	16.0	0.00e+00	0	44	0	0	58	4672
2026-01-13 07:58:05.81	78.84	12.53	-43.2	-45.5	16.1	0.00e+00	0	44	0	0	58	4582
2026-01-13 07:58:06.52	78.72	12.56	-43.3	-45.5	16.1	0.00e+00	0	44	0	0	58	4584
2026-01-13 07:58:07.80	78.51	12.63	-43.2	-45.5	16.1	0.00e+00	0	44	0	0	58	4557
2026-01-13 07:58:08.51	78.39	12.67	-43.3	-45.6	16.0	0.00e+00	0	44	0	0	58	4605
2026-01-13 07:58:09.79	78.18	12.73	-43.5	-45.8	15.8	0.00e+00	0	44	0	0	58	4716
2026-01-13 07:58:10.66	78.03	12.78	-43.4	-45.7	15.9	0.00e+00	0	44	0	0	58	4670
2026-01-13 07:58:12.10	77.79	12.85	-43.5	-45.9	15.8	0.00e+00	0	44	0	0	58	4768
2026-01-13 07:58:13.22	77.60	12.91	-43.5	-45.8	15.9	0.00e+00	0	44	0	0	58	4729
2026-01-13 07:58:14.07	77.46	12.95	-43.4	-45.7	16.0	0.00e+00	0	44	0	0	58	4702
2026-01-13 07:58:15.21	77.27	13.01	-43.4	-45.7	16.0	0.00e+00	0	44	0	0	58	4669
2026-01-13 07:58:16.06	77.12	13.06	-43.4	-45.8	15.9	0.00e+00	0	44	0	0	58	4716
2026-01-13 07:58:17.20	76.93	13.11	-43.3	-45.6	16.1	0.00e+00	0	44	0	0	58	4623
2026-01-13 07:58:18.06	76.78	13.16	-43.3	-45.6	16.1	0.00e+00	0	44	0	0	58	4613
2026-01-13 07:58:19.30	76.57	13.22	-43.5	-45.8	15.8	0.00e+00	0	44	0	0	58	4739
2026-01-13 07:58:20.15	76.42	13.26	-43.4	-45.8	15.9	0.00e+00	0	44	0	0	58	4711
2026-01-13 07:58:21.37	76.21	13.32	-43.3	-45.6	16.1	0.00e+00	0	44	0	0	58	4626
2026-01-13 07:58:22.22	76.06	13.37	-43.4	-45.6	16.1	0.00e+00	0	44	0	0	58	4634
2026-01-13 07:58:23.42	75.85	13.43	-43.3	-45.5	16.2	0.00e+00	0	44	0	0	58	4588
2026-01-13 07:58:24.28	75.70	13.47	-43.2	-45.4	16.3	0.00e+00	0	44	0	0	58	4506
2026-01-13 07:58:25.48	75.49	13.53	-43.1	-45.3	16.4	0.00e+00	0	44	0	0	58	4462
2026-01-13 07:58:26.33	75.34	13.57	-43.2	-45.4	16.4	0.00e+00	0	44	0	0	58	4498
2026-01-13 07:58:27.47	75.14	13.63	-43.0	-45.2	16.5	0.00e+00	0	44	0	0	58	4395
2026-01-13 07:58:28.32	74.99	13.67	-43.1	-45.3	16.4	0.00e+00	0	44	0	0	58	4456
2026-01-13 07:58:29.46	74.79	13.72	-43.1	-45.3	16.4	0.00e+00	0	44	0	0	58	4458
2026-01-13 07:58:30.31	74.63	13.77	-43.1	-45.4	16.3	0.00e+00	0	44	0	0	58	4495
2026-01-13 07:58:31.45	74.43	13.82	-43.2	-45.4	16.3	0.00e+00	0	44	0	0	58	4535
2026-01-13 07:58:32.30	74.28	13.86	-43.3	-45.6	16.1	0.00e+00	0	44	0	0	58	4611
2026-01-13 07:58:33.44	74.07	13.92	-43.3	-45.5	16.2	0.00e+00	0	44	0	0	58	4584
2026-01-13 07:58:34.29	73.92	13.96	-43.2	-45.5	16.3	0.00e+00	0	44	0	0	58	4547
2026-01-13 07:58:35.43	73.71	14.01	-43.2	-45.4	16.3	0.00e+00	0	44	0	0	58	4527
2026-01-13 07:58:36.28	73.56	14.05	-43.2	-45.4	16.3	0.00e+00	0	44	0	0	58	4528
2026-01-13 07:58:37.41	73.35	14.11	-43.1	-45.3	16.4	0.00e+00	0	44	0	0	58	4479
2026-01-13 07:58:38.27	73.19	14.15	-43.1	-45.3	16.4	0.00e+00	0	44	0	0	58	4489
2026-01-13 07:58:39.40	72.98	14.20	-43.1	-45.3	16.4	0.00e+00	0	44	0	0	58	4458
2026-01-13 07:58:40.26	72.83	14.24	-43.1	-45.3	16.4	0.00e+00	0	44	0	0	58	4463
2026-01-13 07:58:41.40	72.61	14.29	-43.2	-45.4	16.3	0.00e+00	0	44	0	0	58	4529
2026-01-13 07:58:42.25	72.46	14.33	-43.2	-45.4	16.4	0.00e+00	0	44	0	0	58	4506
2026-01-13 07:58:43.38	72.25	14.38	-43.2	-45.4	16.4	0.00e+00	0	44	0	0	58	4501
2026-01-13 07:58:44.24	72.09	14.42	-43.2	-45.4	16.3	0.00e+00	0	44	0	0	58	4518
2026-01-13 07:58:45.38	71.87	14.48	-43.1	-45.3	16.4	0.00e+00	0	44	0	0	58	4485
2026-01-13 07:58:46.23	71.71	14.52	-43.3	-45.5	16.2	0.00e+00	0	44	0	0	58	4572
2026-01-13 07:58:47.37	71.50	14.57	-43.1	-45.3	16.4	0.00e+00	0	44	0	0	58	4476
2026-01-13 07:58:48.22	71.34	14.61	-43.0	-45.2	16.5	0.00e+00	0	44	0	0	58	4427
2026-01-13 07:58:49.36	71.12	14.66	-43.2	-45.4	16.3	0.00e+00	0	44	0	0	58	4544
2026-01-13 07:58:50.21	70.96	14.69	-43.1	-45.3	16.4	0.00e+00	0	44	0	0	58	4488
2026-01-13 07:58:51.35	70.74	14.74	-43.0	-45.2	16.6	0.00e+00	0	44	0	0	58	4413
2026-01-13 07:58:52.20	70.58	14.78	-42.9	-45.0	16.8	0.00e+00	0	44	0	0	57	4562
2026-01-13 07:58:53.34	70.36	14.83	-42.8	-44.9	16.8	0.00e+00	0	44	0	0	57	4544
2026-01-13 07:58:54.19	70.20	14.87	-42.8	-44.9	16.8	0.00e+00	0	44	0	0	57	4537
2026-01-13 07:58:55.33	69.98	14.92	-42.8	-44.9	16.8	0.00e+00	0	44	0	0	57	4507
2026-01-13 07:58:56.18	69.81	14.96	-42.8	-45.0	16.8	0.00e+00	0	44	0	0	57	4549
2026-01-13 07:58:57.32	69.59	15.00	-43.0	-45.1	16.6	0.00e+00	0	44	0	0	57	4631
2026-01-13 07:58:58.17	69.43	15.04	-43.1	-45.3	16.5	0.00e+00	0	44	0	0	57	4708
2026-01-13 07:58:59.32	69.20	15.09	-43.2	-45.3	16.4	0.00e+00	0	44	0	0	57	4755
2026-01-13 07:59:00.18	69.03	15.13	-43.2	-45.4	16.4	0.00e+00	0	44	0	0	57	4776
2026-01-13 07:59:01.38	68.80	15.18	-43.1	-45.2	16.5	0.00e+00	0	44	0	0	57	4700
2026-01-13 07:59:02.23	68.63	15.21	-43.0	-45.2	16.5	0.00e+00	0	44	0	0	57	4676
2026-01-13 07:59:03.37	68.40	15.26	-43.2	-45.4	16.4	0.00e+00	0	44	0	0	57	4762
2026-01-13 07:59:04.22	68.24	15.29	-43.1	-45.2	16.5	0.00e+00	0	44	0	0	57	4705
2026-01-13 07:59:05.36	68.01	15.34	-43.0	-45.2	16.5	0.00e+00	0	44	0	0	57	4681
2026-01-13 07:59:06.21	67.84	15.37	-43.1	-45.2	16.5	0.00e+00	0	44	0	0	57	4699
2026-01-13 07:59:07.35	67.61	15.42	-43.2	-45.4	16.4	0.00e+00	0	44	0	0	57	4760
2026-01-13 07:59:08.20	67.44	15.45	-43.1	-45.3	16.4	0.00e+00	0	44	0	0	57	4734
2026-01-13 07:59:09.34	67.21	15.50	-43.2	-45.4	16.3	0.00e+00	0	44	0	0	57	4797
2026-01-13 07:59:10.19	67.04	15.53	-43.2	-45.4	16.3	0.00e+00	0	44	0	0	57	4813
2026-01-13 07:59:11.33	66.81	15.58	-43.1	-45.3	16.4	0.00e+00	0	44	0	0	57	4741
2026-01-13 07:59:12.41	66.59	15.62	-43.0	-45.1	16.6	0.00e+00	0	44	0	0	57	4642
2026-01-13 07:59:13.43	66.39	15.66	-43.0	-45.2	16.5	0.00e+00	0	44	0	0	57	4698
2026-01-13 07:59:14.43	66.18	15.70	-43.1	-45.3	16.4	0.00e+00	0	44	0	0	57	4749
2026-01-13 07:59:15.42	65.98	15.73	-43.1	-45.3	16.4	0.00e+00	0	44	0	0	57	4750
2026-01-13 07:59:16.42	65.78	15.77	-43.1	-45.3	16.5	0.00e+00	0	44	0	0	57	4712
2026-01-13 07:59:17.42	65.57	15.81	-43.1	-45.2	16.6	0.00e+00	0	44	0	0	57	4679
2026-01-13 07:59:18.41	65.37	15.85	-43.1	-45.2	16.6	0.00e+00	0	44	0	0	57	4693
2026-01-13 07:59:19.41	65.16	15.88	-43.0	-45.2	16.6	0.00e+00	0	44	0	0	57	4656
2026-01-13 07:59:20.41	64.96	15.92	-43.0	-45.1	16.7	0.00e+00	0	44	0	0	57	4621
2026-01-13 07:59:21.40	64.75	15.95	-42.9	-45.1	16.7	0.00e+00	0	44	0	0	57	4603
2026-01-13 07:59:22.40	64.55	15.99	-42.9	-45.0	16.8	0.00e+00	0	44	0	0	57	4564
2026-01-13 07:59:23.39	64.34	16.02	-42.9	-45.0	16.8	0.00e+00	0	44	0	0	57	4559
2026-01-13 07:59:24.39	64.13	16.06	-42.9	-45.1	16.7	0.00e+00	0	44	0	0	57	4604
2026-01-13 07:59:25.38	63.92	16.09	-42.9	-45.0	16.8	0.00e+00	0	44	0	0	57	4557
2026-01-13 07:59:26.42	63.71	16.13	-42.8	-44.9	16.8	0.00e+00	0	44	0	0	57	4531
2026-01-13 07:59:27.47	63.49	16.16	-42.9	-45.0	16.8	0.00e+00	0	44	0	0	57	4598
2026-01-13 07:59:28.41	63.29	16.20	-42.9	-45.1	16.7	0.00e+00	0	44	0	0	57	4619
2026-01-13 07:59:29.40	63.08	16.23	-42.9	-45.0	16.8	0.00e+00	0	44	0	0	57	4598
2026-01-13 07:59:30.40	62.87	16.26	-42.8	-44.9	16.8	0.00e+00	0	44	0	0	57	4545
2026-01-13 07:59:31.40	62.66	16.29	-43.0	-45.1	16.7	0.00e+00	0	44	0	0	57	4624
2026-01-13 07:59:32.39	62.45	16.33	-43.0	-45.1	16.7	0.00e+00	0	44	0	0	57	4625
2026-01-13 07:59:33.39	62.23	16.36	-43.0	-45.2	16.6	0.00e+00	0	44	0	0	57	4683
2026-01-13 07:59:34.38	62.02	16.39	-43.1	-45.3	16.5	0.00e+00	0	44	0	0	57	4717
2026-01-13 07:59:35.38	61.81	16.42	-43.0	-45.2	16.6	0.00e+00	0	44	0	0	57	4684
2026-01-13 07:59:36.37	61.60	16.45	-43.0	-45.2	16.6	0.00e+00	0	44	0	0	57	4665
2026-01-13 07:59:37.36	61.38	16.48	-43.0	-45.2	16.6	0.00e+00	0	44	0	0	57	4668
2026-01-13 07:59:38.36	61.17	16.51	-43.1	-45.3	16.5	0.00e+00	0	44	0	0	57	4707
2026-01-13 07:59:39.35	60.96	16.54	-43.0	-45.2	16.6	0.00e+00	0	44	0	0	57	4659
2026-01-13 07:59:40.35	60.74	16.57	-42.9	-45.1	16.7	0.00e+00	0	44	0	0	57	4612
2026-01-13 07:59:41.34	60.53	16.60	-43.0	-45.1	16.7	0.00e+00	0	44	0	0	57	4640
2026-01-13 07:59:42.37	60.30	16.63	-42.9	-45.0	16.8	0.00e+00	0	44	0	0	57	4571
2026-01-13 07:59:43.39	60.08	16.66	-42.9	-45.0	16.9	0.00e+00	0	44	0	0	57	4571
2026-01-13 07:59:44.39	59.87	16.68	-42.8	-44.9	17.0	0.00e+00	0	44	0	0	57	4517
2026-01-13 07:59:45.45	59.63	16.71	-42.8	-44.9	16.9	0.00e+00	0	44	0	0	57	4528
2026-01-13 07:59:46.33	59.44	16.74	-42.8	-44.9	16.9	0.00e+00	0	44	0	0	57	4543
2026-01-13 07:59:47.47	59.19	16.77	-42.7	-44.8	17.0	0.00e+00	0	44	0	0	57	4473
2026-01-13 07:59:48.39	58.99	16.79	-42.7	-44.8	17.0	0.00e+00	0	44	0	0	57	4465
2026-01-13 07:59:49.56	58.74	16.82	-42.7	-44.8	17.0	0.00e+00	0	44	0	0	57	4472
2026-01-13 07:59:50.41	58.55	16.84	-42.7	-44.8	17.0	0.00e+00	0	44	0	0	57	4461
2026-01-13 07:59:51.55	58.30	16.87	-42.7	-44.8	17.0	0.00e+00	0	44	0	0	57	4483
2026-01-13 07:59:52.40	58.11	16.89	-42.7	-44.8	17.0	0.00e+00	0	44	0	0	57	4456
2026-01-13 07:59:53.54	57.86	16.92	-42.7	-44.7	17.1	0.00e+00	0	44	0	0	57	4428
2026-01-13 07:59:54.39	57.67	16.94	-42.7	-44.8	17.0	0.00e+00	0	44	0	0	57	4482
2026-01-13 07:59:55.53	57.42	16.97	-42.8	-44.9	16.9	0.00e+00	0	44	0	0	57	4507
2026-01-13 07:59:56.38	57.23	16.98	-42.8	-44.9	16.9	0.00e+00	0	44	0	0	57	4515
2026-01-13 07:59:57.52	56.98	17.01	-42.7	-44.7	17.1	0.00e+00	0	44	0	0	57	4428
2026-01-13 07:59:58.37	56.79	17.03	-42.7	-44.8	17.0	0.00e+00	0	44	0	0	57	4477
2026-01-13 07:59:59.51	56.53	17.05	-42.8	-44.9	16.9	0.00e+00	0	44	0	0	57	4502
2026-01-13 08:00:00.36	56.34	17.07	-42.8	-44.9	16.9	0.00e+00	0	44	0	0	57	4531
2026-01-13 08:00:01.59	56.07	17.10	-42.9	-45.1	16.7	0.00e+00	0	44	0	0	57	4613
2026-01-13 08:00:02.44	55.88	17.11	-42.9	-45.0	16.8	0.00e+00	0	44	0	0	57	4592
2026-01-13 08:00:03.58	55.62	17.14	-43.1	-45.3	16.6	0.00e+00	0	44	0	0	57	4719
2026-01-13 08:00:04.43	55.43	17.15	-43.2	-45.4	16.5	0.00e+00	0	44	0	0	57	4762
2026-01-13 08:00:05.57	55.18	17.18	-43.1	-45.2	16.6	0.00e+00	0	44	0	0	57	4691
2026-01-13 08:00:06.42	54.99	17.19	-43.0	-45.2	16.7	0.00e+00	0	44	0	0	57	4677
2026-01-13 08:00:07.56	54.73	17.21	-43.1	-45.3	16.6	0.00e+00	0	44	0	0	57	4725
2026-01-13 08:00:08.41	54.54	17.23	-43.1	-45.3	16.5	0.00e+00	0	44	0	0	57	4745
2026-01-13 08:00:09.55	54.28	17.25	-43.0	-45.2	16.6	0.00e+00	0	44	0	0	57	4678
2026-01-13 08:00:10.40	54.09	17.26	-43.0	-45.1	16.7	0.00e+00	0	44	0	0	57	4624
2026-01-13 08:00:11.54	53.83	17.28	-42.8	-44.9	16.9	0.00e+00	0	44	0	0	57	4530
2026-01-13 08:00:12.39	53.64	17.29	-42.7	-44.7	17.1	0.00e+00	0	44	0	0	57	4431
2026-01-13 08:00:13.52	53.38	17.31	-42.6	-44.7	17.1	0.00e+00	0	44	0	0	57	4399
2026-01-13 08:00:14.38	53.19	17.32	-42.6	-44.6	17.2	0.00e+00	0	44	0	0	57	4382
2026-01-13 08:00:15.52	52.93	17.34	-42.7	-44.8	17.0	0.00e+00	0	44	0	0	57	4462
2026-01-13 08:00:16.37	52.74	17.35	-42.7	-44.8	17.0	0.00e+00	0	44	0	0	57	4444
2026-01-13 08:00:17.51	52.48	17.37	-42.6	-44.7	17.1	0.00e+00	0	44	0	0	57	4423
2026-01-13 08:00:18.36	52.28	17.38	-42.7	-44.8	17.0	0.00e+00	0	44	0	0	57	4472
2026-01-13 08:00:19.50	52.02	17.39	-42.8	-45.0	16.8	0.00e+00	0	44	0	0	57	4553
2026-01-13 08:00:20.35	51.83	17.40	-42.8	-44.9	16.8	0.00e+00	0	44	0	0	57	4526
2026-01-13 08:00:21.49	51.57	17.42	-42.9	-45.0	16.8	0.00e+00	0	44	0	0	57	4571
2026-01-13 08:00:22.34	51.37	17.43	-42.9	-45.1	16.7	0.00e+00	0	44	0	0	57	4602
2026-01-13 08:00:23.48	51.11	17.44	-42.9	-45.0	16.8	0.00e+00	0	44	0	0	57	4563
2026-01-13 08:00:24.33	50.92	17.45	-42.8	-44.9	16.9	0.00e+00	0	44	0	0	57	4505
2026-01-13 08:00:25.47	50.66	17.46	-42.9	-45.0	16.8	0.00e+00	0	44	0	0	57	4571
2026-01-13 08:00:26.32	50.46	17.47	-43.0	-45.1	16.7	0.00e+00	0	44	0	0	57	4625
2026-01-13 08:00:27.46	50.20	17.48	-42.9	-45.1	16.7	0.00e+00	0	44	0	0	57	4621
2026-01-13 08:00:28.31	50.01	17.49	-43.1	-45.3	16.5	0.00e+00	0	44	0	0	57	4711
2026-01-13 08:00:29.45	49.75	17.50	-43.1	-45.3	16.5	0.00e+00	0	44	0	0	57	4739
2026-01-13 08:00:30.30	49.55	17.50	-43.2	-45.4	16.5	0.00e+00	0	44	0	0	57	4775
2026-01-13 08:00:31.44	49.29	17.51	-43.0	-45.2	16.7	0.00e+00	0	44	0	0	57	4659
2026-01-13 08:00:32.29	49.09	17.52	-42.9	-45.1	16.7	0.00e+00	0	44	0	0	57	4614
2026-01-13 08:00:33.43	48.83	17.52	-43.0	-45.2	16.7	0.00e+00	0	44	0	0	57	4654
2026-01-13 08:00:34.28	48.64	17.53	-43.0	-45.2	16.6	0.00e+00	0	44	0	0	57	4675
2026-01-13 08:00:35.42	48.37	17.53	-42.9	-45.0	16.8	0.00e+00	0	44	0	0	57	4576
2026-01-13 08:00:36.27	48.18	17.54	-42.7	-44.8	17.0	0.00e+00	0	44	0	0	57	4469
2026-01-13 08:00:37.41	47.92	17.54	-42.7	-44.8	17.0	0.00e+00	0	44	0	0	57	4475
2026-01-13 08:00:38.29	47.71	17.55	-42.7	-44.7	17.0	0.00e+00	0	44	0	0	57	4435
2026-01-13 08:00:39.60	47.41	17.55	-42.7	-44.8	17.0	0.00e+00	0	44	0	0	57	4442
2026-01-13 08:00:40.31	47.25	17.55	-42.6	-44.7	17.1	0.00e+00	0	44	0	0	57	4412
2026-01-13 08:00:41.59	46.95	17.56	-42.6	-44.7	17.1	0.00e+00	0	44	0	0	57	4394
2026-01-13 08:00:42.30	46.79	17.56	-42.6	-44.6	17.2	0.00e+00	0	44	0	0	57	4377
2026-01-13 08:00:43.58	46.50	17.56	-42.6	-44.6	17.2	0.00e+00	0	44	0	0	57	4375
2026-01-13 08:00:44.30	46.33	17.56	-42.6	-44.6	17.2	0.00e+00	0	44	0	0	57	4376
2026-01-13 08:00:45.58	46.03	17.56	-42.6	-44.7	17.1	0.00e+00	0	44	0	0	57	4425
2026-01-13 08:00:46.29	45.87	17.56	-42.7	-44.8	17.0	0.00e+00	0	44	0	0	57	4461
2026-01-13 08:00:47.56	45.58	17.56	-42.6	-44.6	17.1	0.00e+00	0	44	0	0	57	4387
2026-01-13 08:00:48.29	45.41	17.56	-42.5	-44.6	17.2	0.00e+00	0	44	0	0	57	4367
2026-01-13 08:00:49.57	45.12	17.56	-42.6	-44.7	17.1	0.00e+00	0	44	0	0	57	4411
2026-01-13 08:00:50.28	44.95	17.56	-42.7	-44.8	17.0	0.00e+00	0	44	0	0	57	4467
2026-01-13 08:00:51.56	44.66	17.55	-42.8	-44.9	16.9	0.00e+00	0	44	0	0	57	4494
2026-01-13 08:00:52.29	44.49	17.55	-42.7	-44.8	17.0	0.00e+00	0	44	0	0	57	4450
2026-01-13 08:00:53.66	44.17	17.55	-42.6	-44.6	17.1	0.00e+00	0	44	0	0	57	4389
2026-01-13 08:00:54.37	44.01	17.55	-42.6	-44.6	17.1	0.00e+00	0	44	0	0	57	4391
2026-01-13 08:00:55.65	43.72	17.54	-42.6	-44.7	17.2	0.00e+00	0	44	0	0	57	4404
2026-01-13 08:00:56.69	43.48	17.53	-42.5	-44.5	17.3	0.00e+00	0	44	0	0	57	4335
2026-01-13 08:00:57.94	43.19	17.53	-42.5	-44.5	17.3	0.00e+00	0	44	0	0	56	4577
2026-01-13 08:00:58.79	42.99	17.52	-42.6	-44.7	17.2	0.00e+00	0	44	0	0	56	4653
2026-01-13 08:00:59.93	42.73	17.52	-42.7	-44.8	17.0	0.00e+00	0	44	0	0	56	4734
2026-01-13 08:01:00.78	42.54	17.51	-42.8	-44.9	16.9	0.00e+00	0	44	0	0	56	4792
2026-01-13 08:01:01.92	42.27	17.50	-42.8	-44.9	16.9	0.00e+00	0	44	0	0	56	4782
2026-01-13 08:01:02.77	42.08	17.50	-42.7	-44.8	17.0	0.00e+00	0	44	0	0	56	4727
2026-01-13 08:01:03.91	41.82	17.49	-42.6	-44.7	17.1	0.00e+00	0	44	0	0	56	4676
2026-01-13 08:01:04.77	41.62	17.48	-42.7	-44.8	17.0	0.00e+00	0	44	0	0	56	4724
2026-01-13 08:01:05.90	41.36	17.47	-42.6	-44.7	17.1	0.00e+00	0	44	0	0	56	4679
2026-01-13 08:01:06.75	41.17	17.46	-42.7	-44.8	17.1	0.00e+00	0	44	0	0	56	4712
2026-01-13 08:01:07.89	40.91	17.45	-42.7	-44.8	17.0	0.00e+00	0	44	0	0	56	4740
2026-01-13 08:01:08.74	40.71	17.44	-42.7	-44.8	17.0	0.00e+00	0	44	0	0	56	4738
2026-01-13 08:01:09.88	40.45	17.43	-42.8	-44.9	16.9	0.00e+00	0	44	0	0	56	4801
2026-01-13 08:01:10.73	40.26	17.42	-42.9	-45.0	16.8	0.00e+00	0	44	0	0	56	4849
2026-01-13 08:01:11.87	40.00	17.40	-42.9	-45.0	16.9	0.00e+00	0	44	0	0	56	4829
2026-01-13 08:01:12.72	39.81	17.39	-42.9	-45.0	16.9	0.00e+00	0	44	0	0	56	4837
2026-01-13 08:01:13.86	39.55	17.38	-43.0	-45.1	16.7	0.00e+00	0	44	0	0	56	4907
2026-01-13 08:01:14.71	39.35	17.37	-43.0	-45.1	16.7	0.00e+00	0	44	0	0	56	4890
2026-01-13 08:01:15.85	39.09	17.35	-43.0	-45.1	16.7	0.00e+00	0	44	0	0	56	4923
2026-01-13 08:01:16.70	38.90	17.34	-43.1	-45.2	16.5	0.00e+00	0	44	0	0	56	4981
2026-01-13 08:01:17.84	38.64	17.32	-43.0	-45.2	16.6	0.00e+00	0	44	0	0	56	4968
2026-01-13 08:01:18.69	38.45	17.31	-42.9	-45.1	16.7	0.00e+00	0	44	0	0	56	4880
2026-01-13 08:01:19.83	38.19	17.29	-42.8	-44.9	16.9	0.00e+00	0	44	0	0	56	4804
2026-01-13 08:01:20.68	38.00	17.28	-42.7	-44.9	16.9	0.00e+00	0	44	0	0	56	4770
2026-01-13 08:01:21.88	37.73	17.26	-42.7	-44.9	16.9	0.00e+00	0	44	0	0	56	4773
2026-01-13 08:01:22.73	37.54	17.25	-42.7	-44.8	17.0	0.00e+00	0	44	0	0	56	4730
2026-01-13 08:01:23.91	37.27	17.23	-42.7	-44.8	17.0	0.00e+00	0	44	0	0	56	4734
2026-01-13 08:01:24.77	37.08	17.21	-42.7	-44.9	17.0	0.00e+00	0	44	0	0	56	4765
2026-01-13 08:01:25.95	36.81	17.19	-42.7	-44.9	16.9	0.00e+00	0	44	0	0	56	4764
2026-01-13 08:01:26.80	36.62	17.17	-42.8	-44.9	16.9	0.00e+00	0	44	0	0	56	4801
2026-01-13 08:01:28.04	36.34	17.15	-42.8	-44.9	16.8	0.00e+00	0	44	0	0	56	4808
2026-01-13 08:01:28.89	36.15	17.13	-42.8	-44.9	16.8	0.00e+00	0	44	0	0	56	4794
2026-01-13 08:01:30.08	35.89	17.11	-42.7	-44.9	16.9	0.00e+00	0	44	0	0	56	4762
2026-01-13 08:01:30.93	35.70	17.09	-42.8	-45.0	16.8	0.00e+00	0	44	0	0	56	4840
2026-01-13 08:01:32.13	35.43	17.07	-42.6	-44.8	17.0	0.00e+00	0	44	0	0	56	4713
2026-01-13 08:01:33.41	35.14	17.04	-42.6	-44.8	17.0	0.00e+00	0	44	0	0	56	4710
2026-01-13 08:01:34.13	34.98	17.03	-42.5	-44.7	17.1	0.00e+00	0	44	0	0	56	4679
2026-01-13 08:01:35.41	34.70	17.00	-42.6	-44.8	17.0	0.00e+00	0	44	0	0	56	4721
2026-01-13 08:01:36.12	34.54	16.98	-42.7	-44.8	17.0	0.00e+00	0	44	0	0	56	4758
2026-01-13 08:01:37.46	34.25	16.95	-42.6	-44.8	17.0	0.00e+00	0	44	0	0	56	4749
2026-01-13 08:01:38.18	34.09	16.93	-42.7	-44.9	16.9	0.00e+00	0	44	0	0	56	4800
2026-01-13 08:01:39.46	33.81	16.90	-42.5	-44.6	17.1	0.00e+00	0	44	0	0	56	4649
2026-01-13 08:01:40.17	33.65	16.89	-42.4	-44.6	17.2	0.00e+00	0	44	0	0	56	4631
2026-01-13 08:01:41.45	33.37	16.85	-42.6	-44.7	17.0	0.00e+00	0	44	0	0	56	4686
2026-01-13 08:01:42.19	33.21	16.84	-42.6	-44.7	17.0	0.00e+00	0	44	0	0	56	4680
2026-01-13 08:01:43.66	32.88	16.80	-42.7	-44.8	16.9	0.00e+00	0	44	0	0	56	4727
2026-01-13 08:01:44.37	32.73	16.78	-42.7	-44.9	16.9	0.00e+00	0	44	0	0	56	4763
2026-01-13 08:01:45.65	32.45	16.75	-42.8	-44.9	16.9	0.00e+00	0	44	0	0	56	4786
2026-01-13 08:01:46.36	32.29	16.73	-42.8	-44.9	16.8	0.00e+00	0	44	0	0	56	4808
2026-01-13 08:01:47.75	31.99	16.69	-42.6	-44.7	17.1	0.00e+00	0	44	0	0	56	4691
2026-01-13 08:01:48.46	31.84	16.67	-42.7	-44.7	17.0	0.00e+00	0	44	0	0	56	4704
2026-01-13 08:01:49.74	31.56	16.63	-42.5	-44.6	17.2	0.00e+00	0	44	0	0	56	4622
2026-01-13 08:01:50.45	31.41	16.61	-42.5	-44.6	17.2	0.00e+00	0	44	0	0	56	4612
2026-01-13 08:01:51.73	31.13	16.58	-42.5	-44.6	17.2	0.00e+00	0	44	0	0	56	4616
2026-01-13 08:01:52.46	30.97	16.56	-42.5	-44.6	17.2	0.00e+00	0	44	0	0	56	4633
2026-01-13 08:01:53.74	30.70	16.52	-42.6	-44.7	17.2	0.00e+00	0	44	0	0	56	4662
2026-01-13 08:01:54.46	30.54	16.50	-42.5	-44.6	17.2	0.00e+00	0	44	0	0	56	4614
2026-01-13 08:01:55.74	30.27	16.46	-42.6	-44.7	17.2	0.00e+00	0	44	0	0	56	4653
2026-01-13 08:01:56.45	30.12	16.44	-42.6	-44.7	17.1	0.00e+00	0	44	0	0	56	4660
2026-01-13 08:01:57.73	29.85	16.40	-42.7	-44.7	17.0	0.00e+00	0	44	0	0	56	4703
2026-01-13 08:01:58.47	29.69	16.37	-42.7	-44.8	17.0	0.00e+00	0	44	0	0	56	4725
2026-01-13 08:01:59.75	29.42	16.33	-42.7	-44.7	17.0	0.00e+00	0	44	0	0	56	4694
2026-01-13 08:02:00.52	29.25	16.31	-42.7	-44.8	17.0	0.00e+00	0	44	0	0	56	4709
2026-01-13 08:02:01.80	28.98	16.27	-42.7	-44.8	17.0	0.00e+00	0	44	0	0	56	4713
2026-01-13 08:02:02.51	28.83	16.24	-42.6	-44.7	17.1	0.00e+00	0	44	0	0	56	4683
2026-01-13 08:02:03.79	28.57	16.20	-42.6	-44.8	17.0	0.00e+00	0	44	0	0	56	4717
2026-01-13 08:02:04.60	28.40	16.17	-42.6	-44.8	17.0	0.00e+00	0	44	0	0	56	4712
2026-01-13 08:02:06.02	28.10	16.13	-42.6	-44.8	17.0	0.00e+00	0	44	0	0	56	4744
2026-01-13 08:02:06.73	27.95	16.10	-42.6	-44.9	16.9	0.00e+00	0	44	0	0	56	4802
2026-01-13 08:02:08.01	27.68	16.06	-42.7	-45.0	16.8	0.00e+00	0	44	0	0	56	4858
2026-01-13 08:02:08.72	27.54	16.03	-42.7	-45.0	16.8	0.00e+00	0	44	0	0	56	4845
2026-01-13 08:02:10.00	27.27	15.99	-42.7	-45.0	16.8	0.00e+00	0	44	0	0	56	4834
2026-01-13 08:02:10.75	27.12	15.96	-42.7	-45.0	16.8	0.00e+00	0	44	0	0	56	4840
2026-01-13 08:02:12.03	26.85	15.92	-42.5	-44.7	17.0	0.00e+00	0	44	0	0	56	4681
2026-01-13 08:02:12.76	26.70	15.89	-42.5	-44.7	17.0	0.00e+00	0	44	0	0	56	4677
2026-01-13 08:02:14.04	26.44	15.84	-42.4	-44.6	17.1	0.00e+00	0	44	0	0	56	4643
2026-01-13 08:02:14.75	26.29	15.82	-42.4	-44.6	17.1	0.00e+00	0	44	0	0	56	4649
2026-01-13 08:02:16.03	26.03	15.77	-42.4	-44.6	17.1	0.00e+00	0	44	0	0	56	4643
2026-01-13 08:02:16.76	25.88	15.74	-42.3	-44.5	17.2	0.00e+00	0	44	0	0	56	4571
2026-01-13 08:02:18.03	25.62	15.69	-42.5	-44.7	17.0	0.00e+00	0	44	0	0	56	4670
2026-01-13 08:02:18.74	25.48	15.67	-42.5	-44.7	17.1	0.00e+00	0	44	0	0	56	4659
2026-01-13 08:02:20.06	25.21	15.62	-42.7	-44.8	17.0	0.00e+00	0	44	0	0	56	4740
2026-01-13 08:02:20.77	25.07	15.59	-42.7	-44.9	16.9	0.00e+00	0	44	0	0	56	4782
2026-01-13 08:02:22.04	24.82	15.54	-42.8	-45.0	16.8	0.00e+00	0	44	0	0	56	4831
2026-01-13 08:02:22.78	24.67	15.51	-42.7	-44.9	16.9	0.00e+00	0	44	0	0	56	4790
2026-01-13 08:02:24.22	24.38	15.45	-42.8	-45.0	16.8	0.00e+00	0	44	0	0	56	4835
2026-01-13 08:02:24.93	24.24	15.42	-42.7	-44.9	16.8	0.00e+00	0	44	0	0	56	4778
2026-01-13 08:02:26.27	23.97	15.37	-42.6	-44.8	16.9	0.00e+00	0	44	0	0	56	4751
2026-01-13 08:02:26.98	23.83	15.34	-42.6	-44.7	17.0	0.00e+00	0	44	0	0	56	4696
2026-01-13 08:02:28.26	23.58	15.29	-42.5	-44.7	17.0	0.00e+00	0	44	0	0	56	4684
2026-01-13 08:02:28.99	23.43	15.26	-42.7	-44.9	16.9	0.00e+00	0	44	0	0	56	4763
2026-01-13 08:02:30.27	23.18	15.21	-42.6	-44.9	16.9	0.00e+00	0	44	0	0	56	4763
2026-01-13 08:02:31.00	23.04	15.18	-42.7	-44.9	16.8	0.00e+00	0	44	0	0	56	4802
2026-01-13 08:02:32.28	22.79	15.12	-42.8	-45.1	16.6	0.00e+00	0	44	0	0	56	4901
2026-01-13 08:02:33.01	22.65	15.09	-42.9	-45.2	16.5	0.00e+00	0	44	0	0	56	4950
2026-01-13 08:02:34.29	22.40	15.04	-43.0	-45.3	16.4	0.00e+00	0	44	0	0	56	5035
2026-01-13 08:02:35.01	22.26	15.01	-43.1	-45.4	16.3	0.00e+00	0	44	0	0	56	5058
2026-01-13 08:02:36.29	22.01	14.95	-43.0	-45.3	16.5	0.00e+00	0	44	0	0	56	5019
2026-01-13 08:02:37.02	21.87	14.92	-43.1	-45.4	16.4	0.00e+00	0	44	0	0	56	5072
2026-01-13 08:02:38.30	21.62	14.87	-42.9	-45.2	16.6	0.00e+00	0	44	0	0	56	4944
2026-01-13 08:02:39.01	21.49	14.84	-43.1	-45.4	16.4	0.00e+00	0	44	0	0	56	5081
2026-01-13 08:02:40.29	21.24	14.78	-43.0	-45.3	16.5	0.00e+00	0	44	0	0	56	4995
2026-01-13 08:02:41.11	21.09	14.74	-42.9	-45.2	16.6	0.00e+00	0	44	0	0	56	4957
2026-01-13 08:02:42.25	20.87	14.69	-42.9	-45.2	16.6	0.00e+00	0	44	0	0	56	4936
2026-01-13 08:02:43.29	20.67	14.65	-43.0	-45.4	16.4	0.00e+00	0	44	0	0	56	5075
2026-01-13 08:02:44.42	20.46	14.60	-42.9	-45.3	16.4	0.00e+00	0	44	0	0	56	5027
2026-01-13 08:02:45.34	20.29	14.55	-43.0	-45.4	16.4	0.00e+00	0	44	0	0	56	5066
2026-01-13 08:02:46.33	20.10	14.51	-43.1	-45.5	16.2	0.00e+00	0	44	0	0	56	5125
2026-01-13 08:02:47.55	19.87	14.45	-43.0	-45.3	16.4	0.00e+00	0	44	0	0	56	5028
2026-01-13 08:02:48.40	19.72	14.42	-43.0	-45.3	16.4	0.00e+00	0	44	0	0	56	5011
2026-01-13 08:02:49.54	19.50	14.36	-42.9	-45.2	16.5	0.00e+00	0	44	0	0	56	4977
2026-01-13 08:02:50.40	19.35	14.32	-42.9	-45.2	16.6	0.00e+00	0	44	0	0	56	4930
2026-01-13 08:02:51.53	19.14	14.27	-43.0	-45.2	16.5	0.00e+00	0	44	0	0	56	4964
2026-01-13 08:02:52.38	18.98	14.23	-42.9	-45.1	16.6	0.00e+00	0	44	0	0	56	4894
2026-01-13 08:02:53.52	18.77	14.18	-43.0	-45.2	16.5	0.00e+00	0	44	0	0	56	4956
2026-01-13 08:02:54.37	18.62	14.14	-43.0	-45.2	16.5	0.00e+00	0	44	0	0	56	4969
2026-01-13 08:02:55.51	18.41	14.08	-43.2	-45.4	16.4	0.00e+00	0	44	0	0	56	5050
2026-01-13 08:02:56.36	18.25	14.04	-43.2	-45.4	16.3	0.00e+00	0	44	0	0	57	4784
2026-01-13 08:02:57.50	18.05	13.99	-43.3	-45.5	16.2	0.00e+00	0	44	0	0	57	4863
2026-01-13 08:02:58.35	17.90	13.95	-43.3	-45.6	16.1	0.00e+00	0	44	0	0	57	4905
2026-01-13 08:02:59.49	17.69	13.89	-43.4	-45.7	16.1	0.00e+00	0	44	0	0	57	4940
2026-01-13 08:03:00.34	17.54	13.85	-43.4	-45.8	16.0	0.00e+00	0	44	0	0	57	4986
2026-01-13 08:03:01.48	17.33	13.80	-43.3	-45.7	16.0	0.00e+00	0	44	0	0	57	4952
2026-01-13 08:03:02.33	17.18	13.76	-43.3	-45.7	16.0	0.00e+00	0	44	0	0	57	4931
2026-01-13 08:03:03.47	16.98	13.70	-43.3	-45.7	16.1	0.00e+00	0	44	0	0	57	4931
2026-01-13 08:03:04.32	16.83	13.66	-43.3	-45.7	16.0	0.00e+00	0	44	0	0	57	4952
2026-01-13 08:03:05.65	16.60	13.60	-43.1	-45.6	16.1	0.00e+00	0	44	0	0	57	4877
2026-01-13 08:03:06.36	16.47	13.56	-43.1	-45.5	16.2	0.00e+00	0	44	0	0	57	4844
2026-01-13 08:03:07.64	16.25	13.50	-43.0	-45.5	16.2	0.00e+00	0	44	0	0	57	4855
2026-01-13 08:03:08.35	16.12	13.46	-43.0	-45.5	16.3	0.00e+00	0	44	0	0	57	4816
2026-01-13 08:03:09.63	15.90	13.40	-43.0	-45.5	16.2	0.00e+00	0	44	0	0	57	4830
2026-01-13 08:03:10.34	15.78	13.36	-43.0	-45.5	16.2	0.00e+00	0	44	0	0	57	4841
2026-01-13 08:03:11.64	15.55	13.30	-43.0	-45.6	16.1	0.00e+00	0	44	0	0	57	4886
2026-01-13 08:03:12.35	15.43	13.26	-42.9	-45.5	16.3	0.00e+00	0	44	0	0	57	4827
2026-01-13 08:03:13.63	15.21	13.20	-42.7	-45.2	16.5	0.00e+00	0	44	0	0	57	4682
2026-01-13 08:03:14.46	15.07	13.16	-42.7	-45.2	16.6	0.00e+00	0	44	0	0	57	4662
2026-01-13 08:03:15.60	14.88	13.10	-42.7	-45.2	16.5	0.00e+00	0	44	0	0	57	4673
2026-01-13 08:03:16.46	14.73	13.06	-42.9	-45.3	16.5	0.00e+00	0	44	0	0	57	4712
2026-01-13 08:03:17.59	14.54	13.00	-42.8	-45.2	16.6	0.00e+00	0	44	0	0	57	4654
2026-01-13 08:03:18.44	14.40	12.95	-42.9	-45.2	16.5	0.00e+00	0	44	0	0	57	4690
2026-01-13 08:03:19.58	14.21	12.90	-43.0	-45.2	16.5	0.00e+00	0	44	0	0	57	4701
2026-01-13 08:03:20.44	14.06	12.85	-43.0	-45.3	16.4	0.00e+00	0	44	0	0	57	4720
2026-01-13 08:03:21.57	13.87	12.79	-43.0	-45.3	16.4	0.00e+00	0	44	0	0	57	4708
2026-01-13 08:03:22.43	13.73	12.75	-43.0	-45.3	16.4	0.00e+00	0	44	0	0	57	4748
2026-01-13 08:03:23.56	13.54	12.69	-43.0	-45.3	16.3	0.00e+00	0	44	0	0	57	4752
2026-01-13 08:03:24.41	13.40	12.65	-42.9	-45.3	16.4	0.00e+00	0	44	0	0	57	4733
2026-01-13 08:03:25.55	13.22	12.59	-42.9	-45.3	16.3	0.00e+00	0	44	0	0	57	4741
2026-01-13 08:03:26.40	13.08	12.54	-43.0	-45.5	16.2	0.00e+00	0	44	0	0	57	4824
2026-01-13 08:03:27.54	12.89	12.48	-43.1	-45.6	16.1	0.00e+00	0	44	0	0	57	4872
2026-01-13 08:03:28.40	12.75	12.44	-43.1	-45.6	16.0	0.00e+00	0	44	0	0	57	4920
2026-01-13 08:03:29.53	12.57	12.38	-43.0	-45.6	16.1	0.00e+00	0	44	0	0	57	4876
2026-01-13 08:03:30.39	12.43	12.33	-43.2	-45.8	15.9	0.00e+00	0	44	0	0	57	5003
2026-01-13 08:03:31.52	12.25	12.28	-43.2	-45.9	15.8	0.00e+00	0	44	0	0	57	5079
2026-01-13 08:03:32.37	12.11	12.23	-43.2	-46.0	15.7	0.00e+00	0	44	0	0	57	5107
2026-01-13 08:03:33.51	11.93	12.17	-43.2	-46.1	15.6	0.00e+00	0	44	0	0	57	5168
2026-01-13 08:03:34.36	11.80	12.13	-43.2	-46.1	15.6	0.00e+00	0	44	0	0	57	5194
2026-01-13 08:03:35.50	11.62	12.07	-43.1	-46.0	15.7	0.00e+00	0	44	0	0	57	5145
2026-01-13 08:03:36.35	11.48	12.02	-43.2	-46.0	15.7	0.00e+00	0	44	0	0	57	5149
2026-01-13 08:03:37.49	11.30	11.96	-43.2	-46.0	15.6	0.00e+00	0	44	0	0	57	5151
2026-01-13 08:03:38.34	11.17	11.91	-43.2	-45.9	15.7	0.00e+00	0	44	0	0	57	5088
2026-01-13 08:03:39.48	10.99	11.85	-43.3	-46.0	15.6	0.00e+00	0	44	0	0	57	5159
2026-01-13 08:03:40.33	10.86	11.81	-43.4	-46.1	15.5	0.00e+00	0	44	0	0	57	5206
2026-01-13 08:03:41.47	10.68	11.75	-43.5	-46.2	15.5	0.00e+00	0	44	0	0	57	5234
2026-01-13 08:03:42.32	10.55	11.70	-43.4	-46.1	15.6	0.00e+00	0	44	0	0	57	5191
2026-01-13 08:03:43.46	10.38	11.64	-43.6	-46.3	15.4	0.00e+00	0	44	0	0	57	5281
2026-01-13 08:03:44.31	10.25	11.59	-43.6	-46.3	15.4	0.00e+00	0	44	0	0	57	5281
2026-01-13 08:03:45.45	10.07	11.53	-43.5	-46.2	15.4	0.00e+00	0	44	0	0	57	5262
2026-01-13 08:03:46.43	9.92	11.48	-43.5	-46.2	15.5	0.00e+00	0	44	0	0	57	5231
2026-01-13 08:03:47.42	9.77	11.43	-43.5	-46.2	15.4	0.00e+00	0	44	0	0	57	5260
2026-01-13 08:03:48.42	9.62	11.37	-43.5	-46.2	15.5	0.00e+00	0	44	0	0	57	5226
2026-01-13 08:03:49.41	9.47	11.32	-43.6	-46.3	15.4	0.00e+00	0	44	0	0	57	5296
2026-01-13 08:03:50.41	9.32	11.26	-43.4	-46.1	15.6	0.00e+00	0	44	0	0	57	5171
2026-01-13 08:03:51.41	9.17	11.21	-43.3	-45.9	15.7	0.00e+00	0	44	0	0	57	5083
2026-01-13 08:03:52.40	9.03	11.16	-43.4	-46.1	15.6	0.00e+00	0	44	0	0	57	5168
2026-01-13 08:03:53.40	8.88	11.10	-43.5	-46.1	15.6	0.00e+00	0	44	0	0	57	5184
2026-01-13 08:03:54.39	8.73	11.05	-43.5	-46.1	15.5	0.00e+00	0	44	0	0	57	5199
2026-01-13 08:03:55.39	8.59	10.99	-43.6	-46.3	15.3	0.00e+00	0	44	0	0	57	5336
2026-01-13 08:03:56.38	8.44	10.94	-43.6	-46.3	15.4	0.00e+00	0	44	0	0	58	5024
2026-01-13 08:03:57.38	8.29	10.88	-43.8	-46.6	15.0	0.00e+00	0	44	0	0	58	5210
2026-01-13 08:03:58.37	8.15	10.83	-43.3	-46.1	15.6	0.00e+00	0	44	0	0	58	4888
2026-01-13 08:03:59.44	8.00	10.77	-43.3	-46.1	15.6	0.00e+00	0	44	0	0	58	4888
2026-01-13 08:04:00.33	7.87	10.72	-43.2	-45.9	15.7	0.00e+00	0	44	0	0	58	4814
2026-01-13 08:04:01.47	7.70	10.66	-43.2	-45.9	15.7	0.00e+00	0	44	0	0	58	4797
2026-01-13 08:04:02.32	7.58	10.61	-43.3	-45.9	15.7	0.00e+00	0	44	0	0	58	4792
2026-01-13 08:04:03.45	7.42	10.55	-43.3	-46.0	15.7	0.00e+00	0	44	0	0	58	4815
2026-01-13 08:04:04.30	7.30	10.50	-43.3	-46.0	15.6	0.00e+00	0	44	0	0	58	4851
2026-01-13 08:04:05.44	7.14	10.44	-43.3	-46.0	15.6	7.00e-07	0	44	0	0	58	4851
2026-01-13 08:04:06.29	7.02	10.39	-43.2	-46.0	15.6	0.00e+00	0	44	0	0	58	4863
2026-01-13 08:04:07.43	6.86	10.33	-43.2	-46.0	15.6	0.00e+00	0	44	0	0	58	4855
2026-01-13 08:04:08.29	6.74	10.28	-43.2	-46.1	15.6	0.00e+00	0	44	0	0	58	4897
2026-01-13 08:04:09.42	6.58	10.22	-43.4	-46.3	15.4	0.00e+00	0	44	0	0	58	5007
2026-01-13 08:04:10.28	6.46	10.17	-43.4	-46.3	15.4	0.00e+00	0	44	0	0	58	5023
2026-01-13 08:04:11.41	6.31	10.11	-43.4	-46.4	15.3	0.00e+00	0	44	0	0	58	5045
2026-01-13 08:04:12.27	6.19	10.06	-43.4	-46.4	15.2	0.00e+00	0	44	0	0	58	5077
2026-01-13 08:04:13.41	6.03	10.00	-43.5	-46.4	15.2	0.00e+00	0	44	0	0	58	5084
2026-01-13 08:04:14.26	5.92	9.95	-43.5	-46.4	15.2	0.00e+00	0	44	0	0	58	5054
2026-01-13 08:04:15.40	5.76	9.89	-43.6	-46.4	15.2	0.00e+00	0	44	0	0	58	5077
2026-01-13 08:04:16.25	5.64	9.84	-43.6	-46.5	15.1	7.00e-07	0	44	0	0	58	5101
2026-01-13 08:04:17.61	5.46	9.77	-43.5	-46.2	15.4	0.00e+00	0	44	0	0	58	4962
2026-01-13 08:04:18.32	5.37	9.73	-43.4	-46.0	15.6	0.00e+00	0	44	0	0	58	4831
2026-01-13 08:04:19.59	5.20	9.66	-43.5	-46.1	15.5	0.00e+00	0	44	0	0	58	4909
2026-01-13 08:04:20.32	5.10	9.61	-43.7	-46.3	15.3	0.00e+00	0	44	0	0	58	5013
2026-01-13 08:04:21.60	4.93	9.54	-43.7	-46.3	15.3	0.00e+00	0	44	0	0	58	5029
2026-01-13 08:04:22.31	4.83	9.50	-43.8	-46.5	15.1	0.00e+00	0	44	0	0	58	5142
2026-01-13 08:04:23.59	4.67	9.43	-43.8	-46.4	15.2	0.00e+00	0	44	0	0	58	5083
2026-01-13 08:04:24.30	4.57	9.39	-44.0	-46.6	15.0	0.00e+00	0	44	0	0	58	5204
2026-01-13 08:04:25.58	4.41	9.32	-43.9	-46.5	15.1	0.00e+00	0	44	0	0	58	5148
2026-01-13 08:04:26.29	4.31	9.28	-44.1	-46.8	14.8	0.00e+00	0	44	0	0	58	5289
2026-01-13 08:04:27.57	4.15	9.21	-43.9	-46.5	15.0	7.00e-07	0	44	0	0	59	4856
2026-01-13 08:04:28.28	4.05	9.17	-44.1	-46.8	14.8	0.00e+00	0	44	0	0	59	4994
2026-01-13 08:04:29.56	3.89	9.10	-43.9	-46.8	14.7	0.00e+00	0	44	0	0	59	5012
2026-01-13 08:04:30.27	3.80	9.06	-43.6	-46.7	14.8	0.00e+00	0	44	0	0	59	4948
2026-01-13 08:04:31.55	3.64	8.99	-44.0	-47.2	14.4	0.00e+00	0	44	0	0	58	5529
2026-01-13 08:04:32.26	3.54	8.95	-49.4	-60.5	3.9	7.75e-01	0	44	104	0	69	13637
2026-01-13 08:04:33.53	3.38	8.88	-49.0	-63.0	3.8	1.49e+00	0	44	104	0	69	18129
2026-01-13 08:04:34.24	3.29	8.84	-49.9	-63.3	3.8	1.49e+00	0	44	104	0	70	17858
2026-01-13 08:04:35.54	3.13	8.76	-49.5	-63.4	3.8	1.49e+00	0	44	104	0	70	17982
2026-01-13 08:04:36.25	3.04	8.72	-50.2	-63.5	3.8	1.49e+00	0	44	104	0	71	17125
2026-01-13 08:04:37.52	2.88	8.65	-50.4	-63.6	3.8	1.49e+00	0	44	104	0	71	17307
2026-01-13 08:04:38.23	2.80	8.61	-50.6	-63.6	3.8	1.49e+00	0	44	104	0	71	17302
2026-01-13 08:04:39.53	2.63	8.54	-50.5	-63.6	3.8	1.49e+00	0	44	104	0	71	17410
2026-01-13 08:04:40.23	2.55	8.50	-50.3	-63.6	3.8	1.49e+00	0	44	104	0	71	17466
2026-01-13 08:04:41.56	2.38	8.43	-50.6	-63.6	3.8	1.49e+00	0	44	104	0	72	16473
2026-01-13 08:04:42.27	2.30	8.39	-50.6	-63.7	3.8	1.49e+00	0	44	104	0	72	16505
2026-01-13 08:04:43.62	2.13	8.31	-50.5	-63.6	3.8	1.49e+00	0	44	104	0	72	16469
2026-01-13 08:04:44.33	2.05	8.27	-50.6	-63.7	3.8	1.49e+00	0	44	104	0	72	16529
2026-01-13 08:04:45.71	1.88	8.19	-50.7	-63.7	3.8	1.49e+00	0	44	104	0	72	16526
2026-01-13 08:04:46.41	1.80	8.16	-50.6	-63.7	3.8	1.49e+00	0	44	104	0	72	16584
2026-01-13 08:04:47.75	1.64	8.08	-50.7	-63.7	3.8	1.49e+00	0	44	104	0	72	16545
2026-01-13 08:04:48.46	1.55	8.04	-50.6	-63.7	3.8	1.49e+00	0	44	104	0	72	16578
2026-01-13 08:04:49.81	1.39	7.97	-50.6	-63.7	3.8	1.49e+00	0	44	104	0	72	16521
2026-01-13 08:04:50.51	1.31	7.93	-50.7	-63.7	3.8	1.49e+00	0	44	104	0	72	16549
2026-01-13 08:04:51.86	1.15	7.85	-50.7	-63.7	3.8	1.49e+00	0	44	104	0	72	16612
2026-01-13 08:04:52.56	1.07	7.81	-50.7	-63.7	3.8	1.49e+00	0	44	104	0	72	16522
2026-01-13 08:04:53.86	0.91	7.74	-50.7	-63.7	3.8	1.49e+00	0	44	104	0	72	16564
2026-01-13 08:04:54.57	0.83	7.70	-50.6	-63.7	3.8	1.49e+00	0	44	104	0	72	16618
2026-01-13 08:04:55.85	0.68	7.63	-50.7	-63.7	3.8	1.49e+00	0	44	104	0	72	16626
2026-01-13 08:04:56.59	0.60	7.59	-50.7	-63.7	3.8	1.49e+00	0	44	104	0	72	16552
2026-01-13 08:04:57.86	0.45	7.52	-50.6	-63.7	3.8	1.49e+00	0	44	104	0	72	16586
2026-01-13 08:04:58.57	0.37	7.48	-50.5	-63.7	3.8	1.49e+00	0	44	104	0	72	16545
2026-01-13 08:04:59.85	0.22	7.40	-50.6	-63.7	3.8	1.49e+00	0	44	104	0	72	16545
2026-01-13 08:05:00.56	0.14	7.36	-50.5	-63.7	3.8	1.49e+00	0	44	104	0	72	16519
2026-01-13 08:05:01.84	360.00	7.29	-50.5	-63.7	3.8	1.49e+00	0	44	104	0	72	16547
2026-01-13 08:05:02.56	359.92	7.25	-50.5	-63.7	3.8	1.49e+00	0	44	104	0	72	16543
2026-01-13 08:05:03.84	359.77	7.18	-50.5	-63.7	3.8	1.49e+00	0	44	104	0	72	16510
2026-01-13 08:05:04.55	359.69	7.14	-50.5	-63.6	3.8	1.49e+00	0	44	104	0	72	16502
2026-01-13 08:05:05.82	359.55	7.07	-50.5	-63.7	3.8	1.49e+00	0	44	104	0	72	16564
2026-01-13 08:05:06.53	359.47	7.03	-50.5	-63.6	3.8	1.49e+00	0	44	104	0	72	16465
2026-01-13 08:05:07.81	359.33	6.96	-50.5	-63.6	3.8	1.49e+00	0	44	104	0	72	16480
2026-01-13 08:05:08.52	359.25	6.92	-50.5	-63.7	3.8	1.49e+00	0	44	104	0	72	16525
2026-01-13 08:05:09.80	359.11	6.85	-50.5	-63.6	3.8	1.49e+00	0	44	104	0	72	16475
2026-01-13 08:05:10.52	359.03	6.81	-50.5	-63.6	3.8	1.49e+00	0	44	104	0	72	16484
2026-01-13 08:05:11.80	358.89	6.74	-50.5	-63.6	3.8	1.49e+00	0	44	104	0	72	16480
2026-01-13 08:05:12.51	358.82	6.70	-50.5	-63.6	3.8	1.49e+00	0	44	104	0	72	16470
2026-01-13 08:05:13.79	358.68	6.63	-50.5	-63.6	3.8	1.49e+00	0	44	104	0	72	16434
2026-01-13 08:05:14.49	358.60	6.59	-50.5	-63.6	3.8	1.49e+00	0	44	104	0	72	16478
2026-01-13 08:05:15.77	358.46	6.52	-50.5	-63.6	3.8	1.49e+00	0	44	104	0	72	16477
2026-01-13 08:05:16.48	358.39	6.48	-50.5	-63.7	3.8	1.49e+00	0	44	104	0	72	16515
2026-01-13 08:05:17.76	358.25	6.41	-50.5	-63.6	3.8	1.49e+00	0	44	104	0	72	16487
2026-01-13 08:05:18.47	358.18	6.37	-50.5	-63.6	3.8	1.49e+00	0	44	104	0	72	16481
2026-01-13 08:05:19.75	358.04	6.30	-50.5	-63.6	3.8	1.49e+00	0	44	104	0	72	16484
2026-01-13 08:05:20.47	357.97	6.26	-50.5	-63.6	3.8	1.49e+00	0	44	104	0	72	16479
2026-01-13 08:05:21.75	357.83	6.18	-50.5	-63.6	3.8	1.49e+00	0	44	104	0	72	16443
2026-01-13 08:05:22.46	357.76	6.15	-50.5	-63.7	3.8	1.49e+00	0	44	104	0	72	16516
2026-01-13 08:05:23.73	357.63	6.08	-50.5	-63.6	3.8	1.49e+00	0	44	104	0	72	16501
2026-01-13 08:05:24.44	357.55	6.04	-50.5	-63.6	3.8	1.49e+00	0	44	104	0	72	16416
2026-01-13 08:05:25.74	357.42	5.96	-50.5	-63.6	3.8	1.49e+00	0	44	104	0	72	16465
2026-01-13 08:05:26.45	357.35	5.92	-50.5	-63.6	3.8	1.49e+00	0	44	104	0	72	16455
2026-01-13 08:05:27.72	357.22	5.85	-50.5	-63.6	3.8	1.49e+00	0	44	104	0	72	16456
2026-01-13 08:05:28.43	357.14	5.82	-50.5	-63.6	3.8	1.49e+00	0	44	104	0	72	16406
2026-01-13 08:05:29.71	357.01	5.74	-50.5	-63.6	3.8	1.49e+00	0	44	104	0	72	16457
2026-01-13 08:05:30.42	356.94	5.71	-50.5	-63.6	3.8	1.49e+00	0	44	104	0	72	16407
2026-01-13 08:05:31.69	356.81	5.64	-50.5	-63.6	3.8	1.49e+00	0	44	104	0	72	16470
2026-01-13 08:05:32.40	356.74	5.60	-50.5	-63.6	3.8	1.49e+00	0	44	104	0	72	16502
2026-01-13 08:05:33.68	356.61	5.53	-50.5	-63.6	3.8	1.49e+00	0	44	104	0	72	16481
2026-01-13 08:05:34.39	356.54	5.49	-50.5	-63.6	3.8	1.49e+00	0	44	104	0	72	16421
2026-01-13 08:05:35.67	356.42	5.42	-50.5	-63.6	3.8	1.49e+00	0	44	104	0	72	16421
2026-01-13 08:05:36.38	356.35	5.38	-50.5	-63.6	3.8	1.49e+00	0	44	104	0	72	16432
2026-01-13 08:05:37.66	356.22	5.31	-50.5	-63.6	3.8	1.49e+00	0	44	104	0	72	16473
2026-01-13 08:05:38.38	356.15	5.27	-50.5	-63.6	3.8	1.49e+00	0	44	104	0	72	16418
2026-01-13 08:05:39.66	356.02	5.20	-50.5	-63.6	3.8	1.49e+00	0	44	104	0	72	16405
2026-01-13 08:05:40.37	355.96	5.16	-50.5	-63.6	3.8	1.49e+00	0	44	104	0	72	16455
2026-01-13 08:05:41.64	355.83	5.09	-50.5	-63.6	3.8	1.49e+00	0	44	104	0	72	16442
2026-01-13 08:05:42.35	355.76	5.05	-50.5	-63.6	3.8	1.49e+00	0	44	104	0	72	16461
2026-01-13 08:05:43.63	355.64	4.98	-50.5	-63.6	3.8	1.49e+00	0	44	104	0	72	16422

#Closed at: 2026-01-13 08:05:44
#Recorded file [0 MB]: D:/Data/31040_260113_105551.dat