passes_logs/2026/01/13/T1/T1__20260113_003328_NOAA_20_JPSS-1_rec.log

#Pass ID: 20260113_003328_NOAA 20 (JPSS-1)
#Satellite: NOAA 20 (JPSS-1)
#Configuration: NOAA 20
#almurnet v.1.7.20251203
#Start time: 2026-01-13 00:33:30

#Version: 2.0.20230620
#Station: T1
#Location: 37.570604 lon 55.790049 lat
#TLE: 1 43013U 17073A   26012.29914746  .00000087  00000+0  62270-4 0  9997
#TLE: 2 43013  98.7632 313.2670 0001616  43.2193 316.9110 14.19535514422351

#Time	Az	El	Level	Level2	SNR	BER	BlckErr	Temp	State	Recorded	gain1	gain2
2026-01-13 00:33:30.86	10.97	5.15	-48.6	-65.6	3.8	1.49e+00	0	41	0	0	68	26062
2026-01-13 00:33:31.85	10.93	5.22	-48.5	-65.4	3.8	1.49e+00	0	41	104	0	67	26876
2026-01-13 00:33:32.84	10.89	5.29	-48.5	-65.4	3.8	1.49e+00	0	41	104	0	67	26785
2026-01-13 00:33:33.84	10.84	5.36	-48.5	-65.3	3.8	1.49e+00	0	41	104	0	67	26629
2026-01-13 00:33:34.83	10.80	5.42	-48.5	-65.3	3.8	1.49e+00	0	42	104	0	67	26468
2026-01-13 00:33:35.82	10.76	5.49	-48.5	-65.2	3.8	1.49e+00	0	41	104	0	67	26341
2026-01-13 00:33:36.82	10.72	5.56	-48.5	-65.1	3.8	1.49e+00	0	41	104	0	67	26054
2026-01-13 00:33:37.81	10.67	5.63	-48.5	-65.0	3.8	1.49e+00	0	41	104	0	67	25834
2026-01-13 00:33:38.80	10.63	5.70	-48.5	-65.0	3.8	1.49e+00	0	41	104	0	67	25733
2026-01-13 00:33:39.80	10.59	5.77	-48.5	-64.9	3.8	1.49e+00	0	42	104	0	67	25472
2026-01-13 00:33:40.79	10.54	5.84	-48.5	-64.9	3.8	1.49e+00	0	42	104	0	67	25316
2026-01-13 00:33:41.78	10.50	5.91	-48.5	-64.9	3.8	1.49e+00	0	41	104	0	67	25419
2026-01-13 00:33:42.77	10.46	5.98	-48.5	-64.8	3.8	1.49e+00	0	42	104	0	67	25125
2026-01-13 00:33:43.77	10.41	6.05	-48.5	-64.9	3.8	1.49e+00	0	42	104	0	67	25368
2026-01-13 00:33:44.76	10.37	6.12	-48.5	-64.9	3.8	1.49e+00	0	42	104	0	67	25447
2026-01-13 00:33:45.75	10.32	6.19	-48.5	-64.9	3.8	1.49e+00	0	42	104	0	67	25428
2026-01-13 00:33:46.75	10.28	6.26	-48.5	-64.8	3.8	1.49e+00	0	42	104	0	67	25094
2026-01-13 00:33:47.74	10.23	6.33	-48.5	-64.8	3.8	1.49e+00	0	42	104	0	67	25063
2026-01-13 00:33:48.73	10.19	6.40	-48.5	-64.7	3.8	1.49e+00	0	42	104	0	67	24824
2026-01-13 00:33:49.73	10.14	6.48	-48.5	-64.6	3.8	1.49e+00	0	42	104	0	67	24497
2026-01-13 00:33:50.72	10.09	6.55	-48.5	-64.4	3.8	1.49e+00	0	42	104	0	67	23983
2026-01-13 00:33:51.72	10.05	6.62	-48.5	-64.3	3.8	1.49e+00	0	42	104	0	67	23741
2026-01-13 00:33:52.71	10.00	6.69	-48.5	-64.4	3.8	1.49e+00	0	42	104	0	67	23978
2026-01-13 00:33:53.70	9.95	6.76	-48.5	-64.5	3.8	1.49e+00	0	42	104	0	67	24135
2026-01-13 00:33:54.70	9.91	6.84	-48.5	-64.7	3.8	1.49e+00	0	42	104	0	67	24821
2026-01-13 00:33:55.69	9.86	6.91	-48.5	-65.0	3.8	1.49e+00	0	42	104	0	67	25701
2026-01-13 00:33:56.68	9.81	6.98	-48.5	-65.3	3.8	1.49e+00	0	42	104	0	67	26482
2026-01-13 00:33:57.68	9.76	7.05	-48.5	-65.4	3.8	1.49e+00	0	42	104	0	67	26852
2026-01-13 00:33:58.67	9.72	7.13	-48.5	-65.2	3.8	1.49e+00	0	42	104	0	67	26382
2026-01-13 00:33:59.66	9.67	7.20	-48.5	-64.7	3.8	1.49e+00	0	42	104	0	67	24793
2026-01-13 00:34:00.66	9.62	7.27	-48.4	-63.6	3.8	1.49e+00	0	42	104	0	67	21891
2026-01-13 00:34:01.65	9.57	7.35	-48.4	-62.2	4.1	1.48e+00	0	42	104	0	67	18714
2026-01-13 00:34:02.64	9.52	7.42	-48.3	-60.8	4.5	1.34e+00	0	42	0	0	67	15889
2026-01-13 00:34:03.64	9.47	7.50	-48.2	-59.6	5.1	8.55e-01	0	42	0	2097152	67	13859
2026-01-13 00:34:04.63	9.42	7.57	-48.0	-58.2	6.1	3.96e-01	0	42	0	4194304	67	11748
2026-01-13 00:34:05.63	9.37	7.64	-47.9	-57.6	6.6	2.55e-01	0	42	0	6291456	67	10906
2026-01-13 00:34:06.62	9.32	7.72	-47.7	-56.5	7.5	1.73e-01	0	42	0	7340032	67	9710
2026-01-13 00:34:07.61	9.27	7.79	-47.6	-55.8	8.3	5.50e-02	0	42	0	9437184	67	8876
2026-01-13 00:34:08.61	9.22	7.87	-47.5	-55.2	8.8	3.30e-02	0	42	0	11534336	66	8837
2026-01-13 00:34:09.60	9.17	7.94	-47.3	-54.7	9.4	2.29e-02	0	42	0	13631488	66	8301
2026-01-13 00:34:10.59	9.12	8.02	-47.2	-54.1	10.0	1.15e-02	0	42	0	14680064	66	7749
2026-01-13 00:34:11.58	9.07	8.09	-47.1	-53.7	10.4	5.69e-03	0	42	0	16777216	66	7434
2026-01-13 00:34:12.58	9.01	8.17	-46.8	-53.1	11.0	2.21e-03	0	43	0	18874368	65	7317
2026-01-13 00:34:13.57	8.96	8.25	-46.9	-53.4	10.7	2.07e-03	0	42	0	20971520	65	7585
2026-01-13 00:34:14.56	8.91	8.32	-46.8	-53.1	11.0	2.22e-03	0	43	0	23068672	65	7321
2026-01-13 00:34:15.56	8.86	8.40	-46.7	-52.7	11.4	1.12e-03	0	42	0	24117248	65	7033
2026-01-13 00:34:16.55	8.80	8.48	-46.8	-53.0	11.2	1.32e-03	0	42	0	26214400	65	7238
2026-01-13 00:34:17.54	8.75	8.55	-46.8	-53.0	11.1	1.60e-03	0	43	0	28311552	65	7265
2026-01-13 00:34:18.54	8.70	8.63	-47.0	-53.7	10.4	3.50e-03	0	43	0	30408704	65	7840
2026-01-13 00:34:19.53	8.64	8.71	-47.1	-54.1	10.1	5.89e-03	0	43	0	31457280	65	8177
2026-01-13 00:34:20.53	8.59	8.78	-47.4	-55.1	9.0	1.42e-02	0	43	0	33554432	65	9243
2026-01-13 00:34:21.52	8.53	8.86	-47.7	-56.2	7.9	3.64e-02	0	43	0	35651584	65	10439
2026-01-13 00:34:22.51	8.48	8.94	-47.9	-57.6	6.6	1.55e-01	0	43	0	37748736	66	11588
2026-01-13 00:34:23.50	8.42	9.02	-48.1	-59.2	5.4	3.75e-01	0	43	0	39845888	66	13989
2026-01-13 00:34:24.50	8.37	9.10	-48.3	-61.1	4.4	8.08e-01	0	43	0	40894464	67	16477
2026-01-13 00:34:25.49	8.31	9.17	-48.0	-57.5	6.4	1.32e+00	0	43	0	42991616	67	10797
2026-01-13 00:34:26.49	8.25	9.25	-48.2	-58.8	6.1	1.57e-02	0	43	0	44040192	66	13292
2026-01-13 00:34:27.48	8.20	9.33	-48.5	-63.4	3.9	1.49e+00	0	43	104	45088768	67	21403
2026-01-13 00:34:28.48	8.14	9.41	-47.3	-54.5	9.3	5.20e-01	0	43	0	45088768	66	8146
2026-01-13 00:34:29.47	8.08	9.49	-46.3	-51.1	13.1	2.59e-05	0	43	0	47185920	64	6136
2026-01-13 00:34:30.47	8.02	9.57	-46.3	-50.8	13.4	1.06e-05	0	43	0	49283072	64	5961
2026-01-13 00:34:31.46	7.97	9.65	-46.2	-50.6	13.8	1.14e-05	0	43	0	51380224	64	5790
2026-01-13 00:34:32.46	7.91	9.73	-46.2	-50.5	13.7	1.37e-05	0	43	0	52428800	64	5782
2026-01-13 00:34:33.45	7.85	9.81	-46.2	-50.6	13.7	9.90e-06	0	43	0	54525952	64	5821
2026-01-13 00:34:34.45	7.79	9.89	-46.2	-50.6	13.6	9.90e-06	0	43	0	56623104	64	5805
2026-01-13 00:34:35.44	7.73	9.97	-46.1	-50.3	13.9	1.14e-05	0	43	0	58720256	64	5655
2026-01-13 00:34:36.44	7.67	10.05	-46.0	-50.3	13.9	2.20e-06	0	43	0	60817408	64	5649
2026-01-13 00:34:37.43	7.61	10.14	-46.2	-50.6	13.7	8.30e-06	0	43	0	61865984	63	6201
2026-01-13 00:34:38.43	7.55	10.22	-45.9	-50.2	14.2	3.00e-06	0	43	0	63963136	63	5869
2026-01-13 00:34:39.49	7.49	10.30	-45.8	-50.0	14.4	1.50e-06	0	43	0	66060288	63	5728
2026-01-13 00:34:40.36	7.43	10.38	-45.7	-49.8	14.6	1.50e-06	0	43	0	68157440	63	5618
2026-01-13 00:34:41.49	7.36	10.47	-45.7	-49.7	14.7	7.00e-07	0	43	0	70254592	63	5574
2026-01-13 00:34:42.35	7.31	10.54	-45.7	-49.7	14.6	0.00e+00	0	43	0	71303168	63	5550
2026-01-13 00:34:43.48	7.24	10.64	-45.6	-49.6	14.7	0.00e+00	0	43	0	73400320	63	5508
2026-01-13 00:34:44.34	7.18	10.71	-45.7	-49.8	14.6	0.00e+00	0	43	0	75497472	63	5610
2026-01-13 00:34:45.48	7.11	10.80	-45.7	-49.6	14.8	0.00e+00	0	43	0	77594624	63	5502
2026-01-13 00:34:46.33	7.06	10.87	-45.7	-49.6	14.8	0.00e+00	0	43	0	78643200	63	5499
2026-01-13 00:34:47.47	6.98	10.97	-45.7	-49.7	14.7	0.00e+00	0	43	0	80740352	63	5546
2026-01-13 00:34:48.32	6.93	11.04	-45.6	-49.6	14.8	0.00e+00	0	43	0	82837504	63	5500
2026-01-13 00:34:49.45	6.86	11.14	-45.7	-49.7	14.7	0.00e+00	0	43	0	84934656	63	5533
2026-01-13 00:34:50.31	6.80	11.21	-45.6	-49.5	14.9	0.00e+00	0	43	0	85983232	63	5426
2026-01-13 00:34:51.44	6.73	11.31	-45.6	-49.4	14.9	0.00e+00	0	43	0	88080384	63	5402
2026-01-13 00:34:52.29	6.67	11.38	-45.6	-49.4	15.0	0.00e+00	0	43	0	90177536	63	5394
2026-01-13 00:34:53.43	6.59	11.48	-45.7	-49.6	14.9	0.00e+00	0	43	0	92274688	63	5482
2026-01-13 00:34:54.29	6.54	11.55	-45.7	-49.6	14.8	0.00e+00	0	43	0	94371840	63	5474
2026-01-13 00:34:55.42	6.46	11.65	-45.6	-49.4	15.0	0.00e+00	0	43	0	96468992	63	5384
2026-01-13 00:34:56.28	6.40	11.72	-45.6	-49.4	15.0	0.00e+00	0	43	0	97517568	63	5355
2026-01-13 00:34:57.62	6.31	11.84	-45.5	-49.4	15.0	0.00e+00	0	43	0	99614720	62	5671
2026-01-13 00:34:58.33	6.26	11.90	-45.6	-49.4	15.0	0.00e+00	0	43	0	101711872	62	5691
2026-01-13 00:34:59.61	6.17	12.01	-45.5	-49.3	15.1	0.00e+00	0	43	0	103809024	62	5652
2026-01-13 00:35:00.32	6.12	12.08	-45.6	-49.4	15.0	0.00e+00	0	43	0	104857600	62	5685
2026-01-13 00:35:01.59	6.03	12.19	-45.6	-49.5	15.0	0.00e+00	0	43	0	108003328	62	5725
2026-01-13 00:35:02.30	5.98	12.25	-45.5	-49.3	15.2	0.00e+00	0	43	0	109051904	62	5595
2026-01-13 00:35:03.58	5.89	12.36	-45.6	-49.2	15.2	0.00e+00	0	43	0	111149056	62	5557
2026-01-13 00:35:04.48	5.83	12.44	-45.5	-49.0	15.4	0.00e+00	0	43	0	113246208	62	5436
2026-01-13 00:35:05.60	5.75	12.54	-45.6	-49.3	15.1	0.00e+00	0	43	0	115343360	62	5627
2026-01-13 00:35:06.66	5.67	12.64	-45.5	-49.1	15.3	0.00e+00	0	43	0	117440512	62	5522
2026-01-13 00:35:07.73	5.59	12.73	-45.5	-49.1	15.4	0.00e+00	0	43	0	119537664	62	5469
2026-01-13 00:35:08.69	5.52	12.82	-45.5	-49.0	15.4	0.00e+00	0	43	0	120586240	62	5463
2026-01-13 00:35:09.86	5.44	12.92	-45.4	-49.1	15.4	0.00e+00	0	43	0	122683392	62	5469
2026-01-13 00:35:10.75	5.37	13.01	-45.6	-49.2	15.3	0.00e+00	0	43	0	124780544	62	5542
2026-01-13 00:35:12.07	5.27	13.13	-45.5	-49.0	15.5	0.00e+00	0	43	0	126877696	62	5408
2026-01-13 00:35:12.78	5.22	13.19	-45.5	-49.0	15.5	0.00e+00	0	43	0	128974848	62	5438
2026-01-13 00:35:14.23	5.11	13.32	-45.6	-49.1	15.4	0.00e+00	0	43	0	131072000	62	5495
2026-01-13 00:35:14.94	5.06	13.39	-45.5	-49.0	15.5	0.00e+00	0	43	0	132120576	62	5431
2026-01-13 00:35:16.27	4.95	13.51	-45.4	-48.9	15.6	0.00e+00	0	43	0	135266304	62	5397
2026-01-13 00:35:16.98	4.90	13.58	-45.5	-49.0	15.5	0.00e+00	0	43	0	136314880	62	5436
2026-01-13 00:35:18.26	4.80	13.69	-45.5	-49.1	15.4	0.00e+00	0	43	0	138412032	62	5471
2026-01-13 00:35:18.97	4.74	13.76	-45.5	-49.0	15.4	0.00e+00	0	43	0	140509184	62	5453
2026-01-13 00:35:20.25	4.64	13.88	-45.6	-49.2	15.3	0.00e+00	0	43	0	142606336	62	5551
2026-01-13 00:35:20.97	4.58	13.95	-45.6	-49.0	15.5	7.00e-07	0	43	0	143654912	62	5421
2026-01-13 00:35:22.25	4.48	14.07	-45.6	-49.0	15.5	0.00e+00	0	43	0	145752064	62	5437
2026-01-13 00:35:22.96	4.42	14.13	-45.5	-48.9	15.6	0.00e+00	0	43	0	147849216	62	5385
2026-01-13 00:35:24.23	4.32	14.25	-45.5	-48.9	15.6	0.00e+00	0	43	0	149946368	62	5360
2026-01-13 00:35:24.96	4.26	14.32	-45.4	-48.8	15.7	0.00e+00	0	43	0	150994944	62	5284
2026-01-13 00:35:26.24	4.16	14.44	-45.5	-48.8	15.7	0.00e+00	0	43	0	154140672	62	5334
2026-01-13 00:35:27.07	4.09	14.52	-45.5	-48.9	15.7	0.00e+00	0	43	0	155189248	62	5355
2026-01-13 00:35:28.51	3.97	14.66	-45.5	-48.8	15.8	0.00e+00	0	43	0	158334976	62	5284
2026-01-13 00:35:29.22	3.91	14.73	-45.5	-48.9	15.7	0.00e+00	0	43	0	159383552	62	5343
2026-01-13 00:35:30.50	3.80	14.85	-45.6	-48.9	15.7	0.00e+00	0	43	0	161480704	62	5361
2026-01-13 00:35:31.22	3.74	14.92	-45.5	-48.8	15.7	0.00e+00	0	43	0	163577856	62	5328
2026-01-13 00:35:32.49	3.63	15.05	-45.5	-48.8	15.8	0.00e+00	0	43	0	165675008	62	5293
2026-01-13 00:35:33.21	3.57	15.12	-45.6	-48.8	15.7	0.00e+00	0	43	0	166723584	62	5321
2026-01-13 00:35:34.48	3.46	15.24	-45.5	-48.7	15.8	0.00e+00	0	43	0	168820736	62	5276
2026-01-13 00:35:35.19	3.40	15.31	-45.6	-48.8	15.7	0.00e+00	0	43	0	170917888	62	5316
2026-01-13 00:35:36.47	3.28	15.44	-45.6	-48.8	15.7	0.00e+00	0	43	0	173015040	62	5328
2026-01-13 00:35:37.18	3.22	15.51	-45.6	-48.9	15.6	0.00e+00	0	43	0	174063616	62	5366
2026-01-13 00:35:38.47	3.11	15.63	-45.7	-48.9	15.6	0.00e+00	0	43	0	177209344	62	5395
2026-01-13 00:35:39.18	3.04	15.70	-45.7	-49.1	15.5	0.00e+00	0	43	0	178257920	62	5473
2026-01-13 00:35:40.45	2.93	15.83	-45.6	-48.9	15.6	0.00e+00	0	43	0	180355072	62	5387
2026-01-13 00:35:41.16	2.86	15.90	-45.8	-49.1	15.5	0.00e+00	0	43	0	181403648	62	5496
2026-01-13 00:35:42.55	2.73	16.04	-45.6	-48.8	15.8	0.00e+00	0	43	0	184549376	62	5319
2026-01-13 00:35:43.27	2.67	16.11	-45.6	-48.9	15.6	0.00e+00	0	43	0	185597952	62	5394
2026-01-13 00:35:44.54	2.55	16.24	-45.6	-49.0	15.6	0.00e+00	0	43	0	187695104	62	5407
2026-01-13 00:35:45.25	2.48	16.31	-45.7	-49.1	15.5	0.00e+00	0	43	0	189792256	62	5496
2026-01-13 00:35:46.53	2.36	16.44	-45.5	-48.9	15.7	0.00e+00	0	43	0	191889408	62	5348
2026-01-13 00:35:47.24	2.29	16.52	-45.6	-49.0	15.6	0.00e+00	0	43	0	192937984	62	5417
2026-01-13 00:35:48.52	2.17	16.65	-45.7	-49.2	15.4	0.00e+00	0	43	0	196083712	62	5553
2026-01-13 00:35:49.23	2.10	16.72	-45.6	-49.1	15.5	0.00e+00	0	43	0	197132288	62	5479
2026-01-13 00:35:50.52	1.98	16.85	-45.5	-48.9	15.7	0.00e+00	0	43	0	199229440	62	5370
2026-01-13 00:35:51.24	1.91	16.93	-45.6	-49.1	15.6	0.00e+00	0	43	0	200278016	62	5472
2026-01-13 00:35:52.83	1.75	17.09	-45.5	-49.0	15.5	0.00e+00	0	43	0	203423744	62	5462
2026-01-13 00:35:53.40	1.69	17.15	-45.6	-49.1	15.6	0.00e+00	0	43	0	204472320	62	5472
2026-01-13 00:35:55.10	1.52	17.33	-45.7	-49.3	15.3	0.00e+00	0	43	0	207618048	62	5630
2026-01-13 00:35:55.67	1.47	17.39	-45.7	-49.3	15.3	0.00e+00	0	43	0	208666624	62	5611
2026-01-13 00:35:57.37	1.29	17.57	-45.8	-49.5	15.2	0.00e+00	0	43	0	211812352	62	5734
2026-01-13 00:35:57.94	1.24	17.63	-45.9	-49.6	15.0	0.00e+00	0	43	0	212860928	62	5827
2026-01-13 00:35:59.64	1.06	17.81	-45.8	-49.7	15.0	0.00e+00	0	43	0	216006656	62	5856
2026-01-13 00:36:00.21	1.00	17.87	-45.9	-49.7	15.0	0.00e+00	0	43	0	217055232	62	5859
2026-01-13 00:36:01.92	0.82	18.06	-45.9	-49.7	14.9	0.00e+00	0	43	0	220200960	62	5887
2026-01-13 00:36:02.49	0.76	18.12	-45.9	-49.6	15.0	0.00e+00	0	43	0	221249536	62	5854
2026-01-13 00:36:04.19	0.58	18.30	-46.0	-49.6	15.0	0.00e+00	0	43	0	225443840	62	5852
2026-01-13 00:36:04.76	0.52	18.36	-45.9	-49.6	15.0	0.00e+00	0	43	0	226492416	62	5816
2026-01-13 00:36:06.67	0.31	18.57	-46.0	-49.6	15.1	0.00e+00	0	43	0	229638144	62	5825
2026-01-13 00:36:07.24	0.25	18.63	-46.1	-49.7	14.9	7.00e-07	0	43	0	230686720	62	5893
2026-01-13 00:36:08.95	0.06	18.82	-46.0	-49.4	15.2	0.00e+00	0	43	0	233832448	63	5400
2026-01-13 00:36:09.51	359.99	18.88	-46.0	-49.5	15.1	0.00e+00	0	43	0	234881024	63	5429
2026-01-13 00:36:11.22	359.80	19.07	-46.1	-49.5	15.1	0.00e+00	0	43	0	238026752	63	5455
2026-01-13 00:36:11.79	359.74	19.13	-46.1	-49.5	15.1	0.00e+00	0	43	0	239075328	63	5454
2026-01-13 00:36:13.49	359.54	19.32	-46.1	-49.5	15.1	0.00e+00	0	43	0	242221056	63	5464
2026-01-13 00:36:14.06	359.47	19.39	-46.1	-49.5	15.2	0.00e+00	0	43	0	243269632	63	5427
2026-01-13 00:36:15.97	359.25	19.60	-46.2	-49.6	15.1	0.00e+00	0	43	0	247463936	63	5481
2026-01-13 00:36:16.54	359.18	19.67	-46.2	-49.6	15.1	0.00e+00	0	43	0	248512512	63	5485
2026-01-13 00:36:18.25	358.98	19.86	-46.2	-49.5	15.1	0.00e+00	0	43	0	251658240	63	5460
2026-01-13 00:36:18.82	358.91	19.92	-46.3	-49.7	15.0	0.00e+00	0	43	0	252706816	63	5543
2026-01-13 00:36:20.59	358.70	20.13	-46.2	-49.6	15.1	0.00e+00	0	43	0	255852544	63	5506
2026-01-13 00:36:21.50	358.59	20.23	-46.3	-49.7	15.0	7.00e-07	0	43	0	256901120	63	5545
2026-01-13 00:36:22.50	358.46	20.34	-46.2	-49.6	15.0	0.00e+00	0	43	0	258998272	63	5514
2026-01-13 00:36:23.50	358.34	20.46	-46.3	-49.7	15.0	0.00e+00	0	43	0	261095424	63	5572
2026-01-13 00:36:24.49	358.22	20.57	-46.3	-49.8	14.9	0.00e+00	0	43	0	263192576	63	5603
2026-01-13 00:36:25.49	358.09	20.69	-46.3	-49.8	14.9	0.00e+00	0	43	0	265289728	63	5620
2026-01-13 00:36:26.48	357.96	20.81	-46.3	-49.7	15.0	0.00e+00	0	43	0	266338304	63	5577
2026-01-13 00:36:27.48	357.84	20.92	-46.4	-49.8	14.9	0.00e+00	0	43	0	268435456	63	5650
2026-01-13 00:36:28.47	357.71	21.04	-46.4	-49.9	14.9	7.00e-07	0	43	0	270532608	63	5657
2026-01-13 00:36:29.47	357.58	21.16	-46.4	-49.8	14.9	0.00e+00	0	43	0	272629760	63	5637
2026-01-13 00:36:30.46	357.45	21.27	-46.4	-49.8	14.9	7.00e-07	0	43	0	274726912	63	5629
2026-01-13 00:36:31.46	357.32	21.39	-46.5	-49.9	14.8	7.00e-07	0	43	0	275775488	63	5704
2026-01-13 00:36:32.45	357.19	21.51	-46.4	-49.8	14.9	0.00e+00	0	43	0	277872640	63	5631
2026-01-13 00:36:33.45	357.05	21.63	-46.3	-49.7	15.0	0.00e+00	0	43	0	279969792	63	5564
2026-01-13 00:36:34.44	356.92	21.75	-46.3	-49.7	15.1	0.00e+00	0	43	0	282066944	63	5530
2026-01-13 00:36:35.44	356.78	21.87	-46.2	-49.6	15.1	0.00e+00	0	43	0	283115520	63	5486
2026-01-13 00:36:36.43	356.65	21.99	-46.2	-49.5	15.2	0.00e+00	0	43	0	285212672	63	5456
2026-01-13 00:36:37.43	356.51	22.11	-46.2	-49.5	15.2	0.00e+00	0	43	0	287309824	63	5451
2026-01-13 00:36:38.42	356.37	22.23	-46.2	-49.6	15.2	0.00e+00	0	43	0	289406976	63	5472
2026-01-13 00:36:39.42	356.23	22.35	-46.1	-49.5	15.2	0.00e+00	0	43	0	291504128	63	5455
2026-01-13 00:36:40.41	356.09	22.47	-46.3	-49.8	15.0	7.00e-07	0	43	0	292552704	63	5593
2026-01-13 00:36:41.40	355.95	22.59	-46.3	-49.9	14.8	0.00e+00	0	43	0	294649856	63	5690
2026-01-13 00:36:42.40	355.80	22.71	-46.4	-50.0	14.7	0.00e+00	0	43	0	296747008	63	5738
2026-01-13 00:36:43.39	355.66	22.84	-46.4	-50.0	14.8	0.00e+00	0	43	0	298844160	63	5731
2026-01-13 00:36:44.39	355.51	22.96	-46.3	-49.8	14.9	0.00e+00	0	43	0	299892736	63	5653
2026-01-13 00:36:45.38	355.37	23.08	-46.3	-49.9	14.8	0.00e+00	0	43	0	301989888	63	5668
2026-01-13 00:36:46.38	355.22	23.21	-46.4	-50.0	14.8	7.00e-07	0	43	0	304087040	63	5736
2026-01-13 00:36:47.37	355.07	23.33	-46.2	-49.6	15.2	0.00e+00	0	43	0	306184192	63	5486
2026-01-13 00:36:48.37	354.92	23.46	-46.2	-49.7	15.0	0.00e+00	0	43	0	308281344	63	5543
2026-01-13 00:36:49.36	354.77	23.58	-46.1	-49.5	15.3	0.00e+00	0	43	0	309329920	63	5420
2026-01-13 00:36:50.35	354.62	23.70	-46.1	-49.5	15.2	7.00e-07	0	43	0	311427072	63	5445
2026-01-13 00:36:51.35	354.46	23.83	-46.2	-49.6	15.1	0.00e+00	0	43	0	313524224	63	5522
2026-01-13 00:36:52.41	354.29	23.96	-46.2	-49.6	15.1	0.00e+00	0	43	0	315621376	63	5521
2026-01-13 00:36:53.29	354.16	24.08	-46.3	-49.8	15.0	0.00e+00	0	43	0	316669952	63	5611
2026-01-13 00:36:54.58	353.95	24.24	-46.2	-49.8	14.9	0.00e+00	0	43	0	319815680	63	5652
2026-01-13 00:36:55.29	353.84	24.33	-46.2	-49.8	15.0	0.00e+00	0	43	0	320864256	63	5629
2026-01-13 00:36:56.78	353.60	24.52	-46.1	-49.8	15.0	0.00e+00	0	43	0	324009984	63	5621
2026-01-13 00:36:57.49	353.48	24.61	-46.1	-49.8	15.0	0.00e+00	0	43	0	325058560	63	5620
2026-01-13 00:36:58.77	353.27	24.78	-46.2	-50.0	14.8	0.00e+00	0	43	0	327155712	63	5744
2026-01-13 00:36:59.49	353.15	24.87	-46.2	-50.1	14.7	0.00e+00	0	43	0	328204288	63	5805
2026-01-13 00:37:00.77	352.94	25.04	-46.1	-49.9	14.8	7.00e-07	0	43	0	331350016	63	5692
2026-01-13 00:37:01.48	352.82	25.13	-46.0	-49.7	15.0	0.00e+00	0	43	0	332398592	63	5568
2026-01-13 00:37:02.76	352.60	25.30	-46.0	-49.8	15.0	0.00e+00	0	43	0	334495744	63	5628
2026-01-13 00:37:03.52	352.47	25.40	-46.0	-49.7	15.0	7.00e-07	0	43	0	336592896	63	5583
2026-01-13 00:37:04.80	352.25	25.56	-46.0	-49.6	15.2	0.00e+00	0	43	0	338690048	63	5483
2026-01-13 00:37:05.51	352.12	25.66	-46.0	-49.5	15.2	0.00e+00	0	43	0	339738624	63	5462
2026-01-13 00:37:06.79	351.90	25.83	-46.1	-49.6	15.2	7.00e-07	0	43	0	341835776	63	5482
2026-01-13 00:37:07.50	351.77	25.92	-46.2	-49.6	15.2	0.00e+00	0	43	0	343932928	63	5482
2026-01-13 00:37:08.78	351.54	26.09	-46.1	-49.4	15.4	0.00e+00	0	43	0	346030080	63	5393
2026-01-13 00:37:09.57	351.40	26.20	-46.1	-49.5	15.3	0.00e+00	0	43	0	347078656	63	5427
2026-01-13 00:37:10.75	351.18	26.35	-46.2	-49.7	15.1	0.00e+00	0	43	0	350224384	63	5532
2026-01-13 00:37:11.60	351.03	26.47	-46.2	-49.6	15.2	0.00e+00	0	43	0	351272960	63	5497
2026-01-13 00:37:12.74	350.82	26.62	-46.2	-49.7	15.1	0.00e+00	0	43	0	353370112	63	5566
2026-01-13 00:37:13.59	350.66	26.73	-46.2	-49.7	15.1	0.00e+00	0	43	0	355467264	63	5555
2026-01-13 00:37:14.73	350.44	26.89	-46.2	-49.8	15.0	0.00e+00	0	43	0	357564416	63	5608
2026-01-13 00:37:15.58	350.28	27.00	-46.1	-49.6	15.2	0.00e+00	0	43	0	358612992	63	5478
2026-01-13 00:37:16.71	350.06	27.15	-46.2	-49.7	15.1	0.00e+00	0	43	0	360710144	63	5552
2026-01-13 00:37:17.57	349.90	27.27	-46.2	-49.7	15.1	0.00e+00	0	43	0	362807296	63	5554
2026-01-13 00:37:18.70	349.68	27.43	-46.3	-49.7	15.1	0.00e+00	0	43	0	364904448	63	5578
2026-01-13 00:37:19.55	349.51	27.54	-46.4	-49.8	15.0	7.00e-07	0	43	0	365953024	63	5633
2026-01-13 00:37:20.69	349.28	27.70	-46.4	-49.7	15.1	0.00e+00	0	43	0	368050176	63	5585
2026-01-13 00:37:21.54	349.11	27.81	-46.4	-49.7	15.1	0.00e+00	0	43	0	370147328	63	5571
2026-01-13 00:37:22.68	348.88	27.97	-46.5	-49.8	15.0	0.00e+00	0	43	0	372244480	63	5600
2026-01-13 00:37:23.64	348.69	28.10	-46.5	-49.9	14.9	0.00e+00	0	43	0	374341632	63	5687
2026-01-13 00:37:24.64	348.48	28.24	-46.6	-50.0	14.7	0.00e+00	0	43	0	375390208	64	5462
2026-01-13 00:37:25.83	348.24	28.40	-46.8	-50.3	14.4	0.00e+00	0	43	0	378535936	64	5623
2026-01-13 00:37:26.70	348.05	28.52	-46.8	-50.4	14.4	0.00e+00	0	43	0	379584512	64	5677
2026-01-13 00:37:28.00	347.78	28.70	-46.9	-50.6	14.1	1.50e-06	0	43	0	381681664	64	5850
2026-01-13 00:37:28.71	347.63	28.80	-47.0	-50.8	13.9	4.50e-06	0	43	0	383778816	64	5984
2026-01-13 00:37:30.19	347.31	29.01	-47.1	-51.1	13.6	5.30e-06	0	43	0	385875968	64	6158
2026-01-13 00:37:30.90	347.15	29.11	-47.1	-51.2	13.6	6.10e-06	0	43	0	387973120	64	6220
2026-01-13 00:37:32.21	346.87	29.29	-47.1	-51.2	13.5	9.90e-06	0	43	0	390070272	64	6230
2026-01-13 00:37:32.92	346.71	29.39	-47.1	-51.3	13.5	6.10e-06	0	43	0	391118848	64	6297
2026-01-13 00:37:34.20	346.42	29.57	-47.4	-51.8	13.0	3.20e-05	0	43	0	393216000	65	6313
2026-01-13 00:37:35.26	346.18	29.72	-47.5	-51.9	12.8	6.25e-05	0	43	0	395313152	65	6386
2026-01-13 00:37:36.43	345.92	29.88	-47.9	-52.6	12.2	1.12e-04	0	43	0	397410304	66	6499
2026-01-13 00:37:37.29	345.72	30.00	-47.9	-52.5	12.2	2.18e-04	0	43	0	399507456	66	6460
2026-01-13 00:37:38.43	345.46	30.16	-48.0	-52.7	12.0	2.62e-04	0	43	0	401604608	66	6631
2026-01-13 00:37:39.28	345.26	30.28	-48.3	-53.3	11.4	5.59e-04	0	43	0	403701760	67	6664
2026-01-13 00:37:40.42	344.99	30.44	-48.3	-53.2	11.5	7.90e-04	0	43	0	405798912	67	6623
2026-01-13 00:37:41.27	344.79	30.56	-48.4	-53.5	11.2	9.05e-04	0	43	0	406847488	67	6846
2026-01-13 00:37:42.41	344.51	30.72	-48.3	-53.3	11.5	1.23e-03	0	43	0	408944640	67	6647
2026-01-13 00:37:43.26	344.31	30.84	-48.2	-53.2	11.5	9.69e-04	0	43	0	411041792	67	6622
2026-01-13 00:37:44.40	344.03	31.00	-48.3	-53.4	11.2	1.04e-03	0	43	0	413138944	67	6799
2026-01-13 00:37:45.25	343.82	31.12	-48.1	-53.1	11.6	1.13e-03	0	43	0	414187520	67	6511
2026-01-13 00:37:46.52	343.50	31.30	-47.9	-53.0	11.8	5.71e-04	0	43	0	417333248	67	6433
2026-01-13 00:37:47.30	343.30	31.41	-47.8	-52.8	11.9	5.42e-04	0	43	0	418381824	67	6298
2026-01-13 00:37:48.52	343.00	31.59	-47.8	-52.8	11.9	2.54e-04	0	43	0	420478976	67	6294
2026-01-13 00:37:49.37	342.78	31.71	-47.7	-52.6	12.2	2.71e-04	0	43	0	422576128	67	6142
2026-01-13 00:37:50.51	342.48	31.87	-47.8	-52.7	12.1	2.72e-04	0	43	0	424673280	67	6249
2026-01-13 00:37:51.36	342.26	31.99	-47.9	-52.8	12.0	3.36e-04	0	43	0	425721856	67	6307
2026-01-13 00:37:52.49	341.97	32.15	-47.9	-52.7	12.0	3.78e-04	0	43	0	427819008	67	6206
2026-01-13 00:37:53.35	341.74	32.27	-47.8	-52.5	12.2	1.96e-04	0	43	0	429916160	67	6111
2026-01-13 00:37:54.49	341.43	32.43	-47.8	-52.6	12.2	2.18e-04	0	43	0	432013312	67	6177
2026-01-13 00:37:55.34	341.20	32.55	-47.8	-52.6	12.1	2.41e-04	0	43	0	433061888	67	6202
2026-01-13 00:37:56.48	340.89	32.72	-48.0	-52.9	11.8	3.81e-04	0	43	0	435159040	67	6394
2026-01-13 00:37:57.33	340.66	32.84	-48.1	-53.0	11.7	4.89e-04	0	43	0	437256192	67	6450
2026-01-13 00:37:58.47	340.34	33.00	-48.1	-53.1	11.7	6.02e-04	0	43	0	439353344	67	6498
2026-01-13 00:37:59.32	340.11	33.12	-48.1	-52.8	11.9	3.91e-04	0	43	0	440401920	67	6329
2026-01-13 00:38:00.46	339.79	33.28	-48.0	-52.7	12.0	2.97e-04	0	43	0	442499072	67	6252
2026-01-13 00:38:01.31	339.54	33.40	-47.9	-52.5	12.2	3.71e-04	0	43	0	444596224	67	6122
2026-01-13 00:38:02.45	339.22	33.56	-47.7	-52.3	12.5	1.36e-04	0	43	0	446693376	67	5926
2026-01-13 00:38:03.30	338.97	33.68	-47.7	-52.2	12.6	1.01e-04	0	43	0	447741952	67	5872
2026-01-13 00:38:04.44	338.64	33.84	-47.5	-51.9	12.9	6.86e-05	0	43	0	450887680	66	5999
2026-01-13 00:38:05.29	338.39	33.96	-47.4	-51.6	13.2	4.57e-05	0	43	0	451936256	66	5828
2026-01-13 00:38:06.52	338.02	34.13	-47.2	-51.3	13.4	1.29e-05	0	43	0	454033408	66	5639
2026-01-13 00:38:07.38	337.77	34.25	-47.2	-51.2	13.5	7.60e-06	0	43	0	456130560	66	5580
2026-01-13 00:38:08.58	337.40	34.42	-47.2	-51.1	13.6	1.14e-05	0	43	0	458227712	66	5513
2026-01-13 00:38:09.43	337.14	34.54	-47.1	-51.0	13.8	5.30e-06	0	43	0	459276288	66	5433
2026-01-13 00:38:10.63	336.77	34.70	-47.1	-51.1	13.7	6.10e-06	0	43	0	462422016	66	5472
2026-01-13 00:38:11.48	336.51	34.82	-47.0	-50.8	13.9	1.50e-06	0	43	0	463470592	65	5625
2026-01-13 00:38:12.62	336.15	34.98	-46.8	-50.6	14.1	3.00e-06	0	43	0	465567744	65	5500
2026-01-13 00:38:13.47	335.88	35.10	-46.7	-50.5	14.3	7.00e-07	0	43	0	467664896	65	5412
2026-01-13 00:38:14.61	335.52	35.25	-46.7	-50.4	14.3	0.00e+00	0	43	0	469762048	65	5367
2026-01-13 00:38:15.46	335.25	35.37	-46.7	-50.3	14.4	7.00e-07	0	43	0	470810624	65	5329
2026-01-13 00:38:16.60	334.88	35.53	-46.7	-50.4	14.3	7.00e-07	0	43	0	472907776	65	5361
2026-01-13 00:38:17.45	334.60	35.64	-46.7	-50.4	14.4	0.00e+00	0	43	0	475004928	65	5363
2026-01-13 00:38:18.59	334.22	35.80	-46.9	-50.6	14.1	0.00e+00	0	43	0	477102080	65	5512
2026-01-13 00:38:19.44	333.94	35.91	-47.1	-50.9	13.8	1.50e-06	0	43	0	478150656	65	5717
2026-01-13 00:38:20.58	333.56	36.06	-46.9	-50.7	14.0	1.50e-06	0	43	0	480247808	65	5559
2026-01-13 00:38:21.43	333.27	36.18	-47.0	-50.8	13.9	2.20e-06	0	43	0	482344960	65	5656
2026-01-13 00:38:22.57	332.89	36.33	-47.1	-50.9	13.9	3.80e-06	0	43	0	484442112	65	5660
2026-01-13 00:38:23.42	332.59	36.44	-47.1	-50.9	13.8	3.80e-06	0	43	0	486539264	65	5702
2026-01-13 00:38:24.56	332.20	36.59	-47.2	-51.0	13.8	5.30e-06	0	43	0	487587840	65	5741
2026-01-13 00:38:25.41	331.90	36.71	-47.2	-51.1	13.7	3.80e-06	0	43	0	489684992	65	5795
2026-01-13 00:38:26.62	331.48	36.86	-47.3	-51.3	13.5	7.60e-06	0	43	0	491782144	65	5926
2026-01-13 00:38:27.48	331.17	36.98	-47.2	-51.0	13.7	1.06e-05	0	43	0	493879296	65	5765
2026-01-13 00:38:28.61	330.77	37.12	-47.2	-51.2	13.6	7.60e-06	0	43	0	495976448	65	5860
2026-01-13 00:38:29.47	330.46	37.23	-47.3	-51.2	13.6	1.29e-05	0	43	0	497025024	65	5902
2026-01-13 00:38:30.60	330.05	37.38	-47.1	-51.0	13.8	7.60e-06	0	43	0	499122176	65	5723
2026-01-13 00:38:31.46	329.73	37.49	-47.2	-51.0	13.8	5.30e-06	0	43	0	501219328	65	5741
2026-01-13 00:38:32.59	329.31	37.63	-47.2	-51.1	13.6	7.60e-06	0	43	0	503316480	65	5822
2026-01-13 00:38:33.45	328.99	37.74	-47.4	-51.4	13.3	7.60e-06	0	43	0	504365056	65	6060
2026-01-13 00:38:34.59	328.57	37.88	-47.4	-51.7	13.1	2.51e-05	0	43	0	506462208	65	6207
2026-01-13 00:38:35.61	328.18	38.00	-47.4	-51.9	12.8	6.02e-05	0	43	0	508559360	65	6373
2026-01-13 00:38:36.76	327.74	38.15	-47.4	-52.0	12.8	4.19e-05	0	43	0	510656512	65	6442
2026-01-13 00:38:37.65	327.40	38.25	-47.3	-52.0	12.7	7.09e-05	0	43	0	512753664	65	6458
2026-01-13 00:38:38.79	326.96	38.39	-47.2	-51.7	13.1	5.64e-05	0	43	0	514850816	65	6253
2026-01-13 00:38:39.64	326.63	38.49	-47.1	-51.5	13.2	2.21e-05	0	43	0	515899392	65	6129
2026-01-13 00:38:41.01	326.09	38.65	-47.1	-51.5	13.3	2.36e-05	0	43	0	519045120	65	6107
2026-01-13 00:38:41.72	325.81	38.74	-47.3	-51.6	13.2	2.28e-05	0	43	0	520093696	65	6156
2026-01-13 00:38:43.00	325.30	38.88	-47.4	-51.7	13.1	3.50e-05	0	43	0	522190848	65	6220
2026-01-13 00:38:43.71	325.01	38.96	-47.4	-51.5	13.2	2.67e-05	0	43	0	524288000	65	6101
2026-01-13 00:38:45.25	324.39	39.14	-47.2	-51.2	13.6	9.90e-06	0	43	0	526385152	65	5885
2026-01-13 00:38:45.96	324.10	39.22	-47.2	-51.1	13.7	8.30e-06	0	43	0	528482304	65	5831
2026-01-13 00:38:47.24	323.57	39.36	-47.1	-50.9	13.9	5.30e-06	0	43	0	530579456	65	5675
2026-01-13 00:38:47.96	323.27	39.44	-46.9	-50.6	14.2	3.80e-06	0	43	0	531628032	65	5501
2026-01-13 00:38:49.24	322.74	39.57	-46.7	-50.3	14.5	0.00e+00	0	43	0	534773760	65	5288
2026-01-13 00:38:49.95	322.44	39.65	-46.6	-50.0	14.6	0.00e+00	0	43	0	535822336	65	5158
2026-01-13 00:38:51.23	321.90	39.78	-46.4	-49.9	14.9	0.00e+00	0	43	0	537919488	64	5353
2026-01-13 00:38:51.96	321.59	39.86	-46.3	-49.7	15.1	0.00e+00	0	43	0	538968064	64	5233
2026-01-13 00:38:53.24	321.04	39.99	-46.2	-49.6	15.1	0.00e+00	0	43	0	542113792	64	5188
2026-01-13 00:38:54.01	320.71	40.06	-46.2	-49.5	15.2	0.00e+00	0	43	0	543162368	64	5129
2026-01-13 00:38:55.29	320.16	40.19	-46.0	-49.2	15.6	0.00e+00	0	43	0	545259520	63	5249
2026-01-13 00:38:56.06	319.82	40.26	-45.9	-49.1	15.7	0.00e+00	0	43	0	547356672	63	5184
2026-01-13 00:38:57.64	319.13	40.41	-46.0	-49.1	15.7	0.00e+00	0	43	0	550502400	63	5215
2026-01-13 00:38:58.30	318.84	40.48	-46.0	-49.2	15.7	0.00e+00	0	43	0	551550976	63	5237
2026-01-13 00:38:59.72	318.21	40.61	-46.4	-49.8	15.0	0.00e+00	0	43	0	553648128	63	5618
2026-01-13 00:39:00.65	317.79	40.69	-46.6	-50.0	14.8	0.00e+00	0	43	0	555745280	63	5760
2026-01-13 00:39:01.96	317.20	40.80	-46.7	-50.3	14.5	0.00e+00	0	43	0	557842432	64	5600
2026-01-13 00:39:02.70	316.87	40.87	-46.8	-50.4	14.3	0.00e+00	0	43	0	559939584	64	5717
2026-01-13 00:39:03.98	316.28	40.97	-46.8	-50.4	14.4	7.00e-07	0	43	0	562036736	64	5666
2026-01-13 00:39:04.71	315.95	41.03	-46.7	-50.2	14.6	7.00e-07	0	43	0	563085312	64	5569
2026-01-13 00:39:05.99	315.36	41.13	-46.3	-49.7	15.1	0.00e+00	0	43	0	566231040	64	5237
2026-01-13 00:39:06.70	315.03	41.19	-46.1	-49.4	15.3	0.00e+00	0	43	0	567279616	64	5089
2026-01-13 00:39:07.98	314.44	41.29	-46.0	-49.2	15.6	0.00e+00	0	43	0	569376768	63	5242
2026-01-13 00:39:08.72	314.09	41.34	-45.9	-49.1	15.7	0.00e+00	0	43	0	571473920	63	5209
2026-01-13 00:39:10.00	313.49	41.43	-45.9	-49.1	15.8	0.00e+00	0	43	0	573571072	63	5179
2026-01-13 00:39:10.71	313.16	41.48	-45.9	-49.0	15.8	0.00e+00	0	43	0	574619648	63	5146
2026-01-13 00:39:12.04	312.53	41.57	-45.8	-48.9	16.0	0.00e+00	0	43	0	576716800	63	5051
2026-01-13 00:39:12.75	312.20	41.62	-45.7	-48.7	16.1	0.00e+00	0	43	0	578813952	63	4951
2026-01-13 00:39:14.03	311.59	41.70	-45.6	-48.7	16.1	0.00e+00	0	43	0	580911104	63	4933
2026-01-13 00:39:14.74	311.25	41.74	-45.7	-48.8	16.0	0.00e+00	0	43	0	581959680	63	4991
2026-01-13 00:39:16.14	310.57	41.83	-45.7	-48.8	16.0	0.00e+00	0	43	0	585105408	63	5034
2026-01-13 00:39:16.85	310.23	41.87	-45.6	-48.6	16.1	0.00e+00	0	43	0	586153984	63	4925
2026-01-13 00:39:18.18	309.59	41.94	-45.4	-48.4	16.4	0.00e+00	0	43	0	588251136	62	5064
2026-01-13 00:39:18.89	309.24	41.97	-45.6	-48.6	16.2	0.00e+00	0	43	0	590348288	62	5164
2026-01-13 00:39:20.27	308.57	42.04	-45.4	-48.3	16.4	0.00e+00	0	43	0	592445440	62	5040
2026-01-13 00:39:20.98	308.22	42.08	-45.3	-48.2	16.5	0.00e+00	0	43	0	593494016	62	4970
2026-01-13 00:39:22.33	307.56	42.14	-45.5	-48.4	16.4	0.00e+00	0	43	0	596639744	62	5062
2026-01-13 00:39:23.05	307.21	42.17	-45.5	-48.4	16.5	0.00e+00	0	43	0	597688320	62	5053
2026-01-13 00:39:24.32	306.58	42.22	-45.6	-48.6	16.2	0.00e+00	0	43	0	599785472	62	5217
2026-01-13 00:39:25.04	306.23	42.25	-45.7	-48.8	16.0	0.00e+00	0	43	0	601882624	62	5288
2026-01-13 00:39:26.32	305.59	42.29	-45.6	-48.6	16.2	0.00e+00	0	43	0	603979776	62	5196
2026-01-13 00:39:27.06	305.23	42.32	-45.6	-48.6	16.2	0.00e+00	0	43	0	605028352	62	5192
2026-01-13 00:39:28.33	304.59	42.36	-45.7	-48.7	16.2	0.00e+00	0	43	0	608174080	62	5222
2026-01-13 00:39:29.04	304.24	42.38	-45.5	-48.4	16.3	0.00e+00	0	43	0	609222656	62	5074
2026-01-13 00:39:30.32	303.60	42.41	-45.6	-48.6	16.2	0.00e+00	0	43	0	611319808	62	5189
2026-01-13 00:39:31.06	303.23	42.43	-45.8	-48.8	16.0	0.00e+00	0	43	0	612368384	62	5337
2026-01-13 00:39:32.66	302.43	42.46	-46.1	-49.2	15.6	0.00e+00	0	43	0	615514112	62	5584
2026-01-13 00:39:33.54	301.99	42.47	-46.2	-49.4	15.5	0.00e+00	0	43	0	617611264	62	5699
2026-01-13 00:39:34.68	301.42	42.49	-46.1	-49.3	15.5	0.00e+00	0	43	0	619708416	62	5596
2026-01-13 00:39:35.53	300.99	42.50	-46.0	-49.2	15.6	7.00e-07	0	43	0	620756992	62	5572
2026-01-13 00:39:36.67	300.42	42.51	-46.1	-49.3	15.5	0.00e+00	0	43	0	622854144	62	5613
2026-01-13 00:39:37.52	299.99	42.52	-46.1	-49.3	15.5	0.00e+00	0	43	0	624951296	62	5650
2026-01-13 00:39:38.66	299.42	42.53	-46.2	-49.5	15.3	0.00e+00	0	43	0	627048448	63	5449
2026-01-13 00:39:39.51	298.99	42.53	-46.4	-49.7	15.1	0.00e+00	0	43	0	629145600	63	5589
2026-01-13 00:39:40.65	298.42	42.53	-46.5	-50.0	14.8	0.00e+00	0	43	0	631242752	63	5766
2026-01-13 00:39:41.50	297.99	42.53	-46.7	-50.3	14.4	7.00e-07	0	43	0	632291328	64	5646
2026-01-13 00:39:42.64	297.41	42.52	-46.7	-50.3	14.5	0.00e+00	0	43	0	634388480	64	5622
2026-01-13 00:39:43.49	296.99	42.52	-46.7	-50.2	14.6	7.00e-07	0	43	0	636485632	64	5542
2026-01-13 00:39:44.63	296.41	42.51	-46.6	-50.1	14.7	0.00e+00	0	43	0	638582784	64	5479
2026-01-13 00:39:45.48	295.99	42.49	-46.8	-50.3	14.4	1.50e-06	0	43	0	639631360	64	5653
2026-01-13 00:39:46.62	295.41	42.48	-46.8	-50.5	14.3	0.00e+00	0	43	0	641728512	64	5736
2026-01-13 00:39:47.47	294.99	42.46	-46.7	-50.3	14.5	2.20e-06	0	43	0	643825664	64	5633
2026-01-13 00:39:48.61	294.42	42.44	-46.8	-50.5	14.2	0.00e+00	0	43	0	645922816	64	5778
2026-01-13 00:39:49.46	293.99	42.42	-46.9	-50.7	14.1	7.00e-07	0	43	0	646971392	64	5872
2026-01-13 00:39:50.60	293.42	42.39	-47.1	-51.0	13.8	6.10e-06	0	43	0	649068544	64	6070
2026-01-13 00:39:51.45	293.00	42.37	-47.4	-51.3	13.4	6.10e-06	0	43	0	651165696	65	5970
2026-01-13 00:39:52.59	292.43	42.34	-47.5	-51.6	13.2	1.67e-05	0	43	0	653262848	65	6156
2026-01-13 00:39:53.44	292.01	42.31	-47.5	-51.6	13.2	3.50e-05	0	43	0	654311424	65	6154
2026-01-13 00:39:54.64	291.41	42.27	-47.3	-51.3	13.4	1.52e-05	0	43	0	657457152	65	5957
2026-01-13 00:39:55.49	290.99	42.24	-47.2	-51.1	13.6	1.60e-05	0	43	0	658505728	65	5827
2026-01-13 00:39:56.63	290.43	42.20	-47.4	-51.4	13.3	1.14e-05	0	43	0	660602880	65	6028
2026-01-13 00:39:57.48	290.01	42.16	-47.5	-51.6	13.2	1.67e-05	0	43	0	662700032	65	6156
2026-01-13 00:39:58.62	289.45	42.11	-47.7	-52.0	12.8	6.10e-05	0	43	0	664797184	66	6094
2026-01-13 00:39:59.47	289.03	42.07	-47.9	-52.3	12.5	9.53e-05	0	43	0	665845760	66	6294
2026-01-13 00:40:00.61	288.47	42.02	-48.1	-52.8	11.9	1.96e-04	0	43	0	667942912	66	6703
2026-01-13 00:40:01.46	288.06	41.97	-48.2	-53.0	11.6	5.50e-04	0	43	0	670040064	67	6481
2026-01-13 00:40:02.60	287.51	41.91	-48.5	-53.5	11.2	1.11e-03	0	43	0	672137216	67	6852
2026-01-13 00:40:03.60	287.02	41.86	-48.4	-53.4	11.3	1.02e-03	0	43	0	674234368	67	6757
2026-01-13 00:40:04.77	286.46	41.79	-48.3	-53.1	11.6	6.77e-04	0	43	0	676331520	67	6519
2026-01-13 00:40:05.62	286.05	41.74	-48.3	-53.2	11.5	7.68e-04	0	43	0	677380096	67	6581
2026-01-13 00:40:06.98	285.40	41.66	-48.5	-53.6	11.0	1.35e-03	0	43	0	680525824	67	6951
2026-01-13 00:40:07.69	285.06	41.61	-48.5	-53.7	11.0	1.86e-03	0	43	0	681574400	67	6992
2026-01-13 00:40:09.22	284.34	41.51	-48.7	-53.9	10.9	2.39e-03	0	43	0	684720128	68	6743
2026-01-13 00:40:09.93	284.00	41.46	-48.4	-53.3	11.6	1.71e-03	0	43	0	685768704	68	6331
2026-01-13 00:40:11.28	283.37	41.36	-48.1	-52.6	12.3	2.17e-04	0	43	0	687865856	68	5819
2026-01-13 00:40:11.98	283.04	41.31	-47.8	-52.1	12.6	1.79e-04	0	43	0	689963008	67	5824
2026-01-13 00:40:13.26	282.44	41.22	-47.5	-51.6	13.1	2.82e-05	0	43	0	692060160	67	5496
2026-01-13 00:40:13.97	282.11	41.16	-47.3	-51.2	13.5	1.14e-05	0	43	0	693108736	66	5581
2026-01-13 00:40:15.25	281.52	41.06	-47.1	-50.9	13.9	6.10e-06	0	43	0	695205888	66	5354
2026-01-13 00:40:15.96	281.20	41.00	-46.8	-50.5	14.2	1.50e-06	0	43	0	697303040	65	5413
2026-01-13 00:40:17.24	280.61	40.90	-46.7	-50.3	14.5	7.00e-07	0	43	0	699400192	65	5295
2026-01-13 00:40:17.97	280.28	40.84	-46.8	-50.4	14.3	7.00e-07	0	43	0	700448768	65	5376
2026-01-13 00:40:19.25	279.70	40.73	-47.0	-50.7	14.0	1.50e-06	0	43	0	703594496	65	5558
2026-01-13 00:40:19.96	279.38	40.66	-46.8	-50.4	14.3	7.00e-07	0	43	0	704643072	65	5349
2026-01-13 00:40:21.23	278.82	40.55	-46.1	-49.3	15.4	0.00e+00	0	43	0	706740224	64	4989
2026-01-13 00:40:22.09	278.43	40.47	-45.7	-48.7	16.1	0.00e+00	0	43	0	708837376	63	4970
2026-01-13 00:40:23.52	277.80	40.34	-45.4	-48.3	16.5	0.00e+00	0	43	0	710934528	62	4992
2026-01-13 00:40:24.24	277.49	40.27	-45.4	-48.3	16.5	0.00e+00	0	43	0	713031680	62	5013
2026-01-13 00:40:25.51	276.93	40.14	-45.5	-48.3	16.4	0.00e+00	0	43	0	715128832	62	5041
2026-01-13 00:40:26.24	276.62	40.07	-45.7	-48.7	16.1	0.00e+00	0	43	0	716177408	62	5245
2026-01-13 00:40:27.52	276.06	39.94	-46.0	-49.1	15.6	0.00e+00	0	43	0	718274560	62	5518
2026-01-13 00:40:28.23	275.76	39.87	-45.9	-49.0	15.7	0.00e+00	0	43	0	720371712	62	5460
2026-01-13 00:40:29.51	275.22	39.74	-45.4	-48.4	16.4	0.00e+00	0	43	0	722468864	62	5049
2026-01-13 00:40:30.24	274.91	39.66	-45.3	-48.1	16.7	0.00e+00	0	43	0	723517440	62	4901
2026-01-13 00:40:31.52	274.37	39.52	-44.7	-47.4	17.3	0.00e+00	0	43	0	726663168	61	4801
2026-01-13 00:40:32.24	274.07	39.45	-44.7	-47.3	17.4	0.00e+00	0	43	0	727711744	61	4753
2026-01-13 00:40:33.52	273.54	39.31	-44.7	-47.3	17.4	0.00e+00	0	43	0	729808896	61	4738
2026-01-13 00:40:34.23	273.25	39.23	-44.7	-47.3	17.3	0.00e+00	0	43	0	730857472	61	4746
2026-01-13 00:40:35.51	272.72	39.09	-45.3	-48.1	16.6	0.00e+00	0	43	0	734003200	61	5218
2026-01-13 00:40:36.23	272.43	39.00	-45.4	-48.2	16.5	0.00e+00	0	43	0	735051776	61	5271
2026-01-13 00:40:37.52	271.91	38.86	-45.5	-48.4	16.3	0.00e+00	0	43	0	737148928	61	5392
2026-01-13 00:40:38.23	271.63	38.77	-45.4	-48.3	16.4	0.00e+00	0	43	0	739246080	61	5328
2026-01-13 00:40:39.51	271.12	38.62	-45.1	-48.0	16.7	0.00e+00	0	43	0	741343232	61	5110
2026-01-13 00:40:40.23	270.83	38.54	-45.0	-47.8	16.8	0.00e+00	0	43	0	742391808	61	5019
2026-01-13 00:40:41.51	270.33	38.39	-44.6	-47.2	17.4	0.00e+00	0	43	0	744488960	61	4697
2026-01-13 00:40:42.22	270.06	38.30	-44.5	-47.1	17.6	0.00e+00	0	43	0	746586112	60	4893
2026-01-13 00:40:43.72	269.48	38.12	-44.7	-47.4	17.3	0.00e+00	0	43	0	748683264	60	5063
2026-01-13 00:40:44.43	269.21	38.03	-44.8	-47.5	17.2	0.00e+00	0	43	0	750780416	60	5137
2026-01-13 00:40:45.78	268.69	37.87	-45.2	-48.0	16.7	0.00e+00	0	43	0	752877568	60	5423
2026-01-13 00:40:46.49	268.43	37.78	-45.3	-48.1	16.6	0.00e+00	0	43	0	753926144	61	5187
2026-01-13 00:40:47.76	267.95	37.62	-45.5	-48.5	16.3	0.00e+00	0	43	0	757071872	61	5418
2026-01-13 00:40:48.47	267.69	37.53	-45.4	-48.2	16.5	0.00e+00	0	43	0	758120448	61	5259
2026-01-13 00:40:49.75	267.22	37.37	-45.2	-48.0	16.7	0.00e+00	0	43	0	760217600	61	5148
2026-01-13 00:40:50.46	266.96	37.27	-45.2	-48.0	16.7	0.00e+00	0	43	0	761266176	61	5113
2026-01-13 00:40:51.74	266.49	37.11	-45.2	-48.0	16.7	0.00e+00	0	43	0	764411904	61	5131
2026-01-13 00:40:52.47	266.23	37.02	-45.0	-47.8	16.9	0.00e+00	0	43	0	765460480	61	5005
2026-01-13 00:40:53.74	265.78	36.85	-45.0	-47.7	17.0	0.00e+00	0	43	0	767557632	61	4960
2026-01-13 00:40:54.48	265.52	36.75	-45.1	-47.9	16.8	0.00e+00	0	43	0	769654784	61	5054
2026-01-13 00:40:55.76	265.07	36.58	-45.4	-48.3	16.5	0.00e+00	0	43	0	771751936	61	5295
2026-01-13 00:40:56.47	264.82	36.49	-45.5	-48.4	16.4	0.00e+00	0	43	0	772800512	61	5349
2026-01-13 00:40:57.75	264.38	36.32	-45.7	-48.7	16.0	0.00e+00	0	43	0	774897664	62	5264
2026-01-13 00:40:58.57	264.10	36.21	-45.7	-48.7	16.0	0.00e+00	0	43	0	776994816	62	5254
2026-01-13 00:40:59.71	263.71	36.06	-45.6	-48.6	16.1	0.00e+00	0	43	0	779091968	62	5212
2026-01-13 00:41:00.73	263.37	35.92	-45.4	-48.3	16.4	0.00e+00	0	43	0	781189120	62	5024
2026-01-13 00:41:01.73	263.04	35.78	-45.4	-48.3	16.4	0.00e+00	0	43	0	783286272	62	5027
2026-01-13 00:41:02.72	262.71	35.65	-45.5	-48.4	16.3	0.00e+00	0	43	0	784334848	62	5071
2026-01-13 00:41:03.72	262.38	35.51	-45.6	-48.6	16.1	0.00e+00	0	43	0	786432000	62	5173
2026-01-13 00:41:05.01	261.96	35.33	-46.0	-49.1	15.7	0.00e+00	0	43	0	788529152	62	5480
2026-01-13 00:41:05.72	261.73	35.24	-46.2	-49.4	15.3	0.00e+00	0	43	0	790626304	62	5714
2026-01-13 00:41:07.00	261.32	35.06	-46.1	-49.4	15.4	0.00e+00	0	43	0	792723456	63	5352
2026-01-13 00:41:07.71	261.10	34.96	-46.2	-49.6	15.2	0.00e+00	0	43	0	793772032	63	5496
2026-01-13 00:41:09.00	260.69	34.78	-46.1	-49.5	15.3	0.00e+00	0	43	0	796917760	63	5405
2026-01-13 00:41:09.70	260.47	34.68	-46.3	-49.7	15.1	0.00e+00	0	43	0	797966336	63	5554
2026-01-13 00:41:10.98	260.08	34.51	-46.5	-49.9	14.8	0.00e+00	0	43	0	800063488	63	5717
2026-01-13 00:41:11.69	259.86	34.41	-46.6	-50.2	14.6	0.00e+00	0	43	0	801112064	63	5867
2026-01-13 00:41:13.04	259.45	34.22	-46.7	-50.3	14.3	0.00e+00	0	43	0	804257792	64	5629
2026-01-13 00:41:13.75	259.24	34.12	-46.9	-50.6	14.1	3.00e-06	0	43	0	805306368	64	5800
2026-01-13 00:41:15.03	258.86	33.94	-46.8	-50.5	14.2	1.50e-06	0	43	0	807403520	64	5754
2026-01-13 00:41:15.77	258.64	33.83	-46.9	-50.6	14.1	2.20e-06	0	43	0	809500672	64	5821
2026-01-13 00:41:17.05	258.26	33.65	-47.0	-50.7	14.0	2.20e-06	0	43	0	811597824	64	5923
2026-01-13 00:41:17.76	258.06	33.55	-47.0	-50.8	13.9	4.50e-06	0	43	0	812646400	64	5986
2026-01-13 00:41:19.22	257.64	33.35	-47.2	-51.1	13.6	1.14e-05	0	43	0	815792128	65	5810
2026-01-13 00:41:19.93	257.43	33.24	-47.2	-51.1	13.6	1.14e-05	0	43	0	816840704	65	5854
2026-01-13 00:41:21.28	257.05	33.05	-47.2	-51.1	13.6	1.37e-05	0	43	0	819986432	65	5834
2026-01-13 00:41:21.99	256.85	32.95	-47.3	-51.2	13.4	5.30e-06	0	43	0	821035008	65	5905
2026-01-13 00:41:23.27	256.50	32.77	-47.5	-51.7	13.0	1.52e-05	0	43	0	823132160	65	6206
2026-01-13 00:41:23.99	256.30	32.67	-47.5	-51.7	13.0	2.36e-05	0	43	0	824180736	65	6268
2026-01-13 00:41:25.27	255.95	32.49	-47.8	-52.4	12.3	1.52e-04	0	43	0	827326464	66	6383
2026-01-13 00:41:25.98	255.76	32.39	-47.9	-52.5	12.2	1.98e-04	0	43	0	828375040	66	6458
2026-01-13 00:41:27.26	255.42	32.20	-47.9	-52.5	12.1	3.45e-04	0	43	0	830472192	66	6459
2026-01-13 00:41:27.99	255.22	32.10	-47.9	-52.4	12.3	2.14e-04	0	43	0	832569344	66	6406
2026-01-13 00:41:29.27	254.89	31.92	-47.6	-51.7	12.9	6.94e-05	0	43	0	834666496	66	5921
2026-01-13 00:41:29.98	254.70	31.82	-47.4	-51.5	13.2	2.51e-05	0	43	0	835715072	66	5733
2026-01-13 00:41:31.26	254.37	31.63	-47.5	-51.6	13.0	2.36e-05	0	43	0	837812224	66	5840
2026-01-13 00:41:31.99	254.18	31.53	-47.5	-51.7	13.0	2.82e-05	0	43	0	839909376	66	5906
2026-01-13 00:41:33.27	253.86	31.35	-47.9	-52.3	12.3	1.02e-04	0	43	0	842006528	66	6335
2026-01-13 00:41:34.09	253.65	31.23	-48.0	-52.6	12.1	1.98e-04	0	43	0	843055104	66	6533
2026-01-13 00:41:35.52	253.30	31.03	-47.9	-52.5	12.1	3.50e-04	0	43	0	846200832	66	6491
2026-01-13 00:41:36.23	253.12	30.93	-47.8	-52.3	12.3	2.44e-04	0	43	0	847249408	66	6331
2026-01-13 00:41:37.51	252.81	30.74	-47.7	-52.0	12.6	1.09e-04	0	43	0	850395136	66	6121
2026-01-13 00:41:38.22	252.64	30.64	-47.7	-52.0	12.7	8.46e-05	0	43	0	851443712	66	6071
2026-01-13 00:41:39.52	252.32	30.46	-47.5	-51.7	13.0	6.10e-05	0	43	0	853540864	66	5857
2026-01-13 00:41:40.23	252.15	30.36	-47.2	-51.1	13.5	2.36e-05	0	43	0	854589440	66	5506
2026-01-13 00:41:41.84	251.77	30.13	-47.2	-51.1	13.6	6.10e-06	0	42	0	857735168	66	5472
2026-01-13 00:41:42.41	251.64	30.05	-47.2	-51.1	13.6	3.80e-06	0	43	0	858783744	66	5491
2026-01-13 00:41:44.11	251.25	29.81	-47.2	-51.2	13.5	1.83e-05	0	43	0	861929472	66	5559
2026-01-13 00:41:44.74	251.10	29.72	-47.3	-51.3	13.4	9.10e-06	0	43	0	862978048	66	5593
2026-01-13 00:41:46.26	250.76	29.51	-47.0	-50.9	13.8	6.10e-06	0	43	0	866123776	66	5344
2026-01-13 00:41:46.97	250.60	29.41	-47.1	-50.9	13.8	4.50e-06	0	43	0	867172352	66	5391
2026-01-13 00:41:48.25	250.31	29.23	-46.9	-50.6	14.0	5.30e-06	0	43	0	870318080	65	5494
2026-01-13 00:41:48.99	250.15	29.13	-46.9	-50.6	14.1	2.20e-06	0	43	0	871366656	65	5465
2026-01-13 00:41:50.27	249.87	28.95	-46.7	-50.3	14.4	3.00e-06	0	43	0	873463808	65	5296
2026-01-13 00:41:51.07	249.70	28.83	-46.6	-50.0	14.6	7.00e-07	0	43	0	875560960	65	5158
2026-01-13 00:41:52.52	249.39	28.63	-46.6	-50.0	14.6	0.00e+00	0	43	0	877658112	65	5156
2026-01-13 00:41:53.23	249.24	28.53	-46.5	-49.9	14.7	0.00e+00	0	43	0	879755264	65	5082
2026-01-13 00:41:54.51	248.97	28.36	-46.6	-50.0	14.6	0.00e+00	0	43	0	881852416	65	5151
2026-01-13 00:41:55.23	248.82	28.26	-46.6	-50.1	14.5	7.00e-07	0	43	0	882900992	65	5190
2026-01-13 00:41:56.76	248.50	28.05	-46.6	-50.2	14.5	1.50e-06	0	43	0	886046720	65	5225
2026-01-13 00:41:57.47	248.35	27.95	-46.5	-50.0	14.6	0.00e+00	0	43	0	887095296	65	5153
2026-01-13 00:41:58.74	248.10	27.77	-46.5	-49.9	14.7	0.00e+00	0	43	0	889192448	65	5082
2026-01-13 00:41:59.45	247.95	27.67	-46.5	-49.9	14.7	7.00e-07	0	43	0	891289600	64	5371
2026-01-13 00:42:00.73	247.70	27.50	-46.5	-50.0	14.6	1.50e-06	0	43	0	893386752	64	5432
2026-01-13 00:42:01.44	247.56	27.40	-46.4	-49.8	14.9	0.00e+00	0	43	0	894435328	64	5305
2026-01-13 00:42:02.72	247.31	27.23	-46.3	-49.7	14.9	0.00e+00	0	43	0	897581056	64	5244
2026-01-13 00:42:03.43	247.17	27.13	-46.2	-49.5	15.2	0.00e+00	0	43	0	898629632	64	5130
2026-01-13 00:42:04.71	246.92	26.96	-46.3	-49.6	15.0	0.00e+00	0	42	0	900726784	64	5186
2026-01-13 00:42:05.53	246.76	26.85	-46.3	-49.6	15.0	0.00e+00	0	43	0	902823936	64	5208
2026-01-13 00:42:06.67	246.55	26.69	-46.2	-49.5	15.1	0.00e+00	0	43	0	904921088	64	5140
2026-01-13 00:42:07.52	246.39	26.58	-46.3	-49.6	15.0	0.00e+00	0	43	0	905969664	64	5187
2026-01-13 00:42:08.66	246.17	26.42	-46.3	-49.6	15.0	7.00e-07	0	43	0	908066816	64	5213
2026-01-13 00:42:09.51	246.02	26.31	-46.3	-49.7	14.9	0.00e+00	0	43	0	910163968	64	5261
2026-01-13 00:42:10.65	245.81	26.16	-46.3	-49.7	14.9	7.00e-07	0	43	0	912261120	64	5236
2026-01-13 00:42:11.50	245.65	26.04	-46.3	-49.6	15.0	7.00e-07	0	43	0	913309696	64	5215
2026-01-13 00:42:12.64	245.45	25.89	-46.3	-49.6	15.0	0.00e+00	0	42	0	915406848	64	5209
2026-01-13 00:42:13.49	245.30	25.78	-46.3	-49.6	15.0	0.00e+00	0	43	0	917504000	64	5193
2026-01-13 00:42:14.63	245.10	25.63	-46.3	-49.6	15.0	0.00e+00	0	43	0	919601152	64	5198
2026-01-13 00:42:15.48	244.95	25.51	-46.3	-49.7	15.0	0.00e+00	0	43	0	920649728	64	5226
2026-01-13 00:42:16.62	244.75	25.36	-46.3	-49.6	15.0	0.00e+00	0	43	0	922746880	64	5201
2026-01-13 00:42:17.47	244.60	25.25	-46.4	-49.7	14.9	7.00e-07	0	43	0	924844032	64	5277
2026-01-13 00:42:18.61	244.41	25.10	-46.4	-49.7	14.9	0.00e+00	0	43	0	926941184	64	5262
2026-01-13 00:42:19.46	244.26	24.99	-46.4	-49.7	14.9	0.00e+00	0	43	0	929038336	64	5273
2026-01-13 00:42:20.60	244.07	24.84	-46.4	-49.8	14.8	0.00e+00	0	42	0	931135488	64	5297
2026-01-13 00:42:21.45	243.93	24.73	-46.4	-49.8	14.8	0.00e+00	0	42	0	932184064	64	5297
2026-01-13 00:42:22.59	243.74	24.59	-46.3	-49.7	14.9	0.00e+00	0	43	0	934281216	64	5253
2026-01-13 00:42:23.44	243.60	24.48	-46.3	-49.6	15.0	0.00e+00	0	43	0	936378368	64	5215
2026-01-13 00:42:24.58	243.41	24.33	-46.3	-49.6	15.0	0.00e+00	0	43	0	938475520	64	5200
2026-01-13 00:42:25.43	243.28	24.22	-46.2	-49.5	15.1	0.00e+00	0	43	0	939524096	64	5106
2026-01-13 00:42:26.57	243.09	24.07	-46.2	-49.4	15.2	0.00e+00	0	43	0	941621248	64	5088
2026-01-13 00:42:27.42	242.96	23.96	-46.0	-49.3	15.3	0.00e+00	0	43	0	943718400	64	4987
2026-01-13 00:42:28.56	242.78	23.82	-46.2	-49.5	15.1	0.00e+00	0	43	0	945815552	64	5136
2026-01-13 00:42:29.41	242.64	23.71	-46.3	-49.6	15.0	0.00e+00	0	42	0	946864128	64	5183
2026-01-13 00:42:30.55	242.47	23.57	-46.3	-49.6	15.0	0.00e+00	0	42	0	948961280	64	5206
2026-01-13 00:42:31.40	242.34	23.46	-46.4	-49.8	14.8	0.00e+00	0	43	0	951058432	64	5292
2026-01-13 00:42:32.61	242.15	23.31	-46.5	-50.0	14.6	7.00e-07	0	42	0	953155584	64	5438
2026-01-13 00:42:33.47	242.02	23.20	-46.6	-50.2	14.4	7.00e-07	0	43	0	955252736	64	5546
2026-01-13 00:42:34.61	241.85	23.06	-46.7	-50.2	14.4	0.00e+00	0	43	0	957349888	64	5574
2026-01-13 00:42:35.46	241.72	22.95	-46.6	-50.1	14.5	0.00e+00	0	42	0	958398464	64	5522
2026-01-13 00:42:36.59	241.56	22.81	-46.6	-50.1	14.5	7.00e-07	0	42	0	960495616	64	5468
2026-01-13 00:42:37.44	241.43	22.71	-46.6	-50.2	14.4	0.00e+00	0	42	0	962592768	64	5544
2026-01-13 00:42:38.58	241.27	22.57	-46.5	-50.0	14.6	7.00e-07	0	43	0	964689920	64	5434
2026-01-13 00:42:39.43	241.14	22.46	-46.4	-49.8	14.8	0.00e+00	0	42	0	965738496	64	5280
2026-01-13 00:42:40.57	240.98	22.32	-46.2	-49.5	15.1	0.00e+00	0	43	0	967835648	64	5133
2026-01-13 00:42:41.42	240.86	22.22	-46.2	-49.5	15.1	0.00e+00	0	42	0	969932800	64	5143
2026-01-13 00:42:42.56	240.70	22.08	-46.2	-49.5	15.1	0.00e+00	0	42	0	972029952	64	5147
2026-01-13 00:42:43.41	240.58	21.98	-46.1	-49.4	15.2	0.00e+00	0	43	0	973078528	64	5044
2026-01-13 00:42:44.55	240.42	21.84	-46.2	-49.4	15.2	0.00e+00	0	42	0	975175680	64	5080
2026-01-13 00:42:45.40	240.31	21.73	-46.2	-49.4	15.1	0.00e+00	0	42	0	977272832	64	5094
2026-01-13 00:42:46.54	240.15	21.60	-46.3	-49.6	14.9	0.00e+00	0	43	0	979369984	64	5209
2026-01-13 00:42:47.40	240.03	21.49	-46.3	-49.7	14.9	0.00e+00	0	42	0	980418560	64	5240
2026-01-13 00:42:48.53	239.88	21.36	-46.5	-49.9	14.6	0.00e+00	0	42	0	983564288	64	5398
2026-01-13 00:42:49.38	239.77	21.26	-46.5	-49.9	14.6	0.00e+00	0	42	0	984612864	64	5390
2026-01-13 00:42:50.63	239.60	21.11	-46.5	-50.0	14.5	7.00e-07	0	42	0	986710016	64	5455
2026-01-13 00:42:51.48	239.49	21.01	-46.5	-50.0	14.5	0.00e+00	0	42	0	988807168	64	5461
2026-01-13 00:42:52.62	239.34	20.87	-46.6	-50.1	14.4	7.00e-07	0	42	0	990904320	64	5514
2026-01-13 00:42:53.47	239.23	20.77	-46.6	-50.1	14.4	0.00e+00	0	42	0	991952896	64	5509
2026-01-13 00:42:54.61	239.09	20.64	-46.6	-50.1	14.5	1.50e-06	0	42	0	994050048	64	5509
2026-01-13 00:42:55.46	238.98	20.54	-46.5	-50.0	14.6	0.00e+00	0	42	0	996147200	64	5431
2026-01-13 00:42:56.60	238.84	20.41	-46.4	-49.9	14.7	7.00e-07	0	42	0	998244352	64	5358
2026-01-13 00:42:57.45	238.73	20.31	-46.4	-49.9	14.6	7.00e-07	0	42	0	999292928	64	5372
2026-01-13 00:42:58.59	238.59	20.18	-46.4	-49.9	14.7	0.00e+00	0	42	0	1002438656	64	5345
2026-01-13 00:42:59.44	238.48	20.08	-46.3	-49.7	14.8	0.00e+00	0	42	0	1003487232	64	5270
2026-01-13 00:43:00.58	238.34	19.95	-46.3	-49.8	14.8	0.00e+00	0	43	0	1005584384	64	5298
2026-01-13 00:43:01.43	238.24	19.85	-46.3	-49.8	14.8	0.00e+00	0	43	0	1007681536	64	5289
2026-01-13 00:43:02.56	238.10	19.72	-46.3	-49.7	14.8	0.00e+00	0	42	0	1009778688	64	5245
2026-01-13 00:43:03.42	238.00	19.63	-46.3	-49.8	14.7	0.00e+00	0	43	0	1010827264	64	5303
2026-01-13 00:43:04.56	237.87	19.50	-46.2	-49.6	14.9	0.00e+00	0	42	0	1012924416	64	5204
2026-01-13 00:43:05.41	237.77	19.40	-46.2	-49.6	14.9	0.00e+00	0	42	0	1015021568	64	5205
2026-01-13 00:43:06.55	237.63	19.27	-46.3	-49.7	14.8	0.00e+00	0	42	0	1017118720	64	5241
2026-01-13 00:43:07.40	237.53	19.18	-46.2	-49.6	14.9	0.00e+00	0	42	0	1018167296	64	5204
2026-01-13 00:43:08.53	237.40	19.05	-46.4	-49.8	14.7	7.00e-07	0	42	0	1020264448	64	5328
2026-01-13 00:43:09.39	237.30	18.96	-46.4	-49.8	14.7	7.00e-07	0	42	0	1022361600	64	5327
2026-01-13 00:43:10.52	237.18	18.83	-46.4	-49.9	14.6	0.00e+00	0	42	0	1024458752	64	5397
2026-01-13 00:43:11.38	237.08	18.74	-46.4	-50.0	14.6	0.00e+00	0	42	0	1025507328	64	5406
2026-01-13 00:43:12.51	236.95	18.61	-46.5	-50.1	14.5	0.00e+00	0	42	0	1027604480	64	5471
2026-01-13 00:43:13.37	236.86	18.52	-46.6	-50.2	14.3	0.00e+00	0	42	0	1029701632	64	5560
2026-01-13 00:43:14.71	236.71	18.37	-46.5	-50.1	14.5	7.00e-07	0	42	0	1031798784	64	5481
2026-01-13 00:43:15.42	236.63	18.29	-46.5	-50.2	14.4	0.00e+00	0	42	0	1033895936	64	5541
2026-01-13 00:43:16.70	236.49	18.15	-46.4	-50.0	14.5	0.00e+00	0	42	0	1035993088	64	5431
2026-01-13 00:43:17.43	236.41	18.07	-46.3	-49.9	14.6	0.00e+00	0	42	0	1037041664	64	5364
2026-01-13 00:43:18.70	236.28	17.94	-46.3	-49.8	14.7	0.00e+00	0	42	0	1039138816	64	5328
2026-01-13 00:43:19.43	236.20	17.86	-46.3	-49.8	14.7	0.00e+00	0	42	0	1041235968	64	5321
2026-01-13 00:43:20.71	236.07	17.72	-46.3	-49.8	14.7	7.00e-07	0	42	0	1043333120	64	5326
2026-01-13 00:43:21.52	235.98	17.64	-46.2	-49.8	14.7	0.00e+00	0	42	0	1045430272	64	5286
2026-01-13 00:43:22.66	235.86	17.51	-46.3	-49.8	14.7	0.00e+00	0	42	0	1047527424	64	5330
2026-01-13 00:43:23.51	235.77	17.42	-46.4	-50.0	14.5	0.00e+00	0	43	0	1048576000	64	5424
2026-01-13 00:43:24.65	235.66	17.30	-46.2	-49.7	14.8	7.00e-07	0	43	0	1050673152	64	5260
2026-01-13 00:43:25.50	235.57	17.21	-46.2	-49.6	14.8	0.00e+00	0	42	0	1052770304	64	5207
2026-01-13 00:43:26.64	235.46	17.09	-46.2	-49.7	14.8	0.00e+00	0	43	0	1054867456	64	5225
2026-01-13 00:43:27.49	235.37	17.01	-46.2	-49.7	14.8	0.00e+00	0	42	0	1055916032	64	5261
2026-01-13 00:43:28.63	235.26	16.89	-46.2	-49.7	14.8	0.00e+00	0	42	0	1058013184	64	5263
2026-01-13 00:43:29.48	235.17	16.80	-46.2	-49.7	14.7	0.00e+00	0	42	0	1060110336	64	5255
2026-01-13 00:43:30.62	235.06	16.68	-46.3	-49.8	14.7	7.00e-07	0	43	0	1062207488	64	5310
2026-01-13 00:43:31.47	234.98	16.59	-46.2	-49.6	14.9	0.00e+00	0	42	0	1063256064	64	5195
2026-01-13 00:43:32.61	234.87	16.47	-46.2	-49.6	14.9	0.00e+00	0	42	0	1065353216	64	5193
2026-01-13 00:43:33.46	234.79	16.39	-46.1	-49.5	15.0	0.00e+00	0	42	0	1067450368	64	5129
2026-01-13 00:43:34.59	234.68	16.27	-46.1	-49.5	15.0	7.00e-07	0	42	0	1069547520	64	5121
2026-01-13 00:43:35.44	234.60	16.19	-46.1	-49.5	15.0	7.00e-07	0	42	0	1070596096	64	5137
2026-01-13 00:43:36.58	234.49	16.07	-46.2	-49.6	14.9	0.00e+00	0	42	0	1072693248	64	5177
2026-01-13 00:43:37.43	234.41	15.98	-46.2	-49.7	14.8	7.00e-07	0	42	0	1074790400	64	5226
2026-01-13 00:43:38.57	234.30	15.87	-46.2	-49.6	14.9	0.00e+00	0	42	0	1076887552	64	5194
2026-01-13 00:43:39.42	234.23	15.78	-46.2	-49.7	14.8	0.00e+00	0	42	0	1078984704	64	5240
2026-01-13 00:43:40.56	234.12	15.67	-46.4	-50.0	14.4	0.00e+00	0	42	0	1081081856	64	5459
2026-01-13 00:43:41.41	234.04	15.58	-46.5	-50.1	14.3	7.00e-07	0	42	0	1082130432	64	5500
2026-01-13 00:43:42.55	233.94	15.47	-46.6	-50.3	14.2	1.50e-06	0	42	0	1084227584	64	5595
2026-01-13 00:43:43.40	233.86	15.39	-46.6	-50.2	14.2	3.00e-06	0	42	0	1086324736	64	5568
2026-01-13 00:43:44.54	233.76	15.27	-46.6	-50.3	14.1	2.20e-06	0	42	0	1088421888	64	5643
2026-01-13 00:43:45.39	233.69	15.19	-46.7	-50.3	14.1	3.80e-06	0	43	0	1089470464	64	5648
2026-01-13 00:43:46.53	233.59	15.08	-46.6	-50.3	14.1	3.00e-06	0	42	0	1091567616	64	5635
2026-01-13 00:43:47.38	233.51	14.99	-46.7	-50.4	14.1	1.50e-06	0	42	0	1093664768	64	5691
2026-01-13 00:43:48.60	233.41	14.88	-46.7	-50.4	14.1	1.50e-06	0	42	0	1095761920	64	5657
2026-01-13 00:43:49.45	233.33	14.79	-46.7	-50.4	14.0	1.50e-06	0	42	0	1096810496	64	5687
2026-01-13 00:43:50.59	233.24	14.68	-46.5	-50.1	14.3	1.50e-06	0	42	0	1098907648	64	5480
2026-01-13 00:43:51.44	233.16	14.60	-46.5	-50.0	14.4	7.00e-07	0	42	0	1101004800	64	5457
2026-01-13 00:43:52.58	233.07	14.49	-46.5	-50.1	14.3	0.00e+00	0	42	0	1103101952	64	5525
2026-01-13 00:43:53.45	232.99	14.41	-46.5	-50.1	14.3	7.00e-07	0	43	0	1105199104	64	5491
2026-01-13 00:43:54.59	232.90	14.30	-46.4	-49.9	14.5	7.00e-07	0	42	0	1107296256	64	5374
2026-01-13 00:43:55.44	232.83	14.22	-46.5	-50.1	14.3	7.00e-07	0	42	0	1108344832	64	5500
2026-01-13 00:43:56.58	232.73	14.11	-46.5	-50.2	14.2	1.50e-06	0	42	0	1110441984	64	5544
2026-01-13 00:43:57.43	232.67	14.03	-46.5	-50.2	14.2	7.00e-07	0	42	0	1112539136	64	5561
2026-01-13 00:43:58.57	232.57	13.92	-46.6	-50.2	14.2	7.00e-07	0	42	0	1114636288	64	5587
2026-01-13 00:43:59.42	232.50	13.84	-46.5	-50.2	14.2	1.50e-06	0	42	0	1115684864	64	5570
2026-01-13 00:44:00.56	232.41	13.73	-46.7	-50.4	14.0	1.50e-06	0	42	0	1117782016	64	5706
2026-01-13 00:44:01.41	232.34	13.65	-46.7	-50.5	13.8	2.20e-06	0	42	0	1119879168	64	5778
2026-01-13 00:44:02.55	232.25	13.55	-46.8	-50.6	13.8	4.50e-06	0	42	0	1121976320	64	5825
2026-01-13 00:44:03.40	232.19	13.47	-46.9	-50.8	13.6	8.30e-06	0	42	0	1123024896	64	5980
2026-01-13 00:44:04.53	232.10	13.37	-46.9	-50.9	13.5	1.37e-05	0	42	0	1125122048	64	6027
2026-01-13 00:44:05.39	232.03	13.29	-46.9	-50.9	13.4	9.90e-06	0	42	0	1127219200	64	6057
2026-01-13 00:44:06.52	231.95	13.18	-47.0	-51.1	13.3	1.29e-05	0	42	0	1129316352	64	6152
2026-01-13 00:44:07.38	231.88	13.10	-47.1	-51.1	13.2	1.75e-05	0	42	0	1131413504	64	6196
2026-01-13 00:44:08.61	231.79	12.99	-47.0	-51.1	13.2	3.20e-05	0	42	0	1133510656	64	6166
2026-01-13 00:44:09.46	231.72	12.91	-47.1	-51.2	13.1	2.13e-05	0	42	0	1134559232	64	6252
2026-01-13 00:44:10.60	231.64	12.81	-47.1	-51.2	13.1	3.66e-05	0	42	0	1136656384	64	6246
2026-01-13 00:44:11.45	231.57	12.73	-47.1	-51.3	13.1	2.28e-05	0	42	0	1138753536	64	6278
2026-01-13 00:44:12.58	231.49	12.63	-47.1	-51.2	13.1	2.97e-05	0	42	0	1140850688	64	6251
2026-01-13 00:44:13.43	231.43	12.55	-47.0	-51.1	13.2	2.51e-05	0	42	0	1141899264	64	6168
2026-01-13 00:44:14.57	231.34	12.45	-47.0	-51.1	13.3	2.13e-05	0	42	0	1143996416	64	6150
2026-01-13 00:44:15.43	231.28	12.38	-47.0	-51.1	13.2	3.28e-05	0	42	0	1146093568	64	6163
2026-01-13 00:44:16.56	231.20	12.27	-47.1	-51.2	13.2	1.98e-05	0	42	0	1148190720	64	6213
2026-01-13 00:44:17.41	231.14	12.20	-47.1	-51.2	13.1	2.74e-05	0	42	0	1150287872	64	6237
2026-01-13 00:44:18.55	231.05	12.10	-47.1	-51.2	13.1	3.58e-05	0	42	0	1151336448	64	6261
2026-01-13 00:44:19.40	230.99	12.02	-47.1	-51.3	13.0	3.35e-05	0	42	0	1153433600	64	6279
2026-01-13 00:44:20.54	230.91	11.92	-47.2	-51.4	12.9	3.43e-05	0	42	0	1155530752	65	6002
2026-01-13 00:44:21.39	230.85	11.85	-47.1	-51.3	13.0	3.58e-05	0	42	0	1157627904	65	5930
2026-01-13 00:44:22.53	230.77	11.75	-47.2	-51.4	12.9	3.89e-05	0	43	0	1159725056	65	6004
2026-01-13 00:44:23.38	230.71	11.67	-47.2	-51.5	12.8	6.40e-05	0	42	0	1160773632	65	6080
2026-01-13 00:44:24.52	230.64	11.58	-47.3	-51.6	12.7	7.47e-05	0	42	0	1162870784	65	6153
2026-01-13 00:44:25.37	230.58	11.50	-47.3	-51.7	12.6	9.23e-05	0	42	0	1164967936	65	6239
2026-01-13 00:44:26.51	230.50	11.40	-47.3	-51.6	12.6	7.32e-05	0	42	0	1167065088	65	6169
2026-01-13 00:44:27.36	230.44	11.33	-47.4	-51.8	12.4	1.11e-04	0	42	0	1168113664	65	6309
2026-01-13 00:44:28.61	230.36	11.22	-47.4	-51.8	12.4	1.40e-04	0	42	0	1170210816	65	6325
2026-01-13 00:44:29.46	230.30	11.15	-47.4	-51.8	12.4	1.60e-04	0	42	0	1172307968	65	6329
2026-01-13 00:44:30.66	230.22	11.05	-47.4	-51.9	12.3	1.54e-04	0	42	0	1174405120	65	6394
2026-01-13 00:44:31.51	230.17	10.98	-47.4	-51.9	12.3	2.04e-04	0	42	0	1176502272	65	6417
2026-01-13 00:44:32.71	230.09	10.87	-47.4	-51.9	12.3	1.69e-04	0	42	0	1178599424	65	6397
2026-01-13 00:44:33.56	230.03	10.80	-47.5	-52.0	12.2	1.75e-04	0	42	0	1179648000	65	6453
2026-01-13 00:44:34.70	229.96	10.71	-47.4	-51.9	12.3	1.92e-04	0	42	0	1181745152	65	6404
2026-01-13 00:44:35.55	229.90	10.63	-47.4	-51.9	12.3	1.78e-04	0	42	0	1183842304	65	6400
2026-01-13 00:44:36.69	229.83	10.54	-47.4	-52.0	12.2	2.33e-04	0	42	0	1185939456	65	6455
2026-01-13 00:44:37.55	229.78	10.47	-47.3	-51.8	12.4	1.62e-04	0	42	0	1186988032	65	6288
2026-01-13 00:44:38.68	229.70	10.37	-47.3	-51.7	12.4	1.44e-04	0	42	0	1190133760	65	6247
2026-01-13 00:44:39.63	229.64	10.29	-47.3	-51.7	12.5	1.27e-04	0	42	0	1191182336	65	6218
2026-01-13 00:44:40.63	229.58	10.21	-47.2	-51.5	12.6	8.01e-05	0	42	0	1193279488	65	6120
2026-01-13 00:44:41.84	229.51	10.11	-47.2	-51.7	12.5	1.11e-04	0	42	0	1195376640	65	6209
2026-01-13 00:44:42.74	229.45	10.04	-47.2	-51.6	12.6	9.84e-05	0	42	0	1197473792	65	6172
2026-01-13 00:44:43.77	229.39	9.95	-47.2	-51.7	12.5	1.14e-04	0	42	0	1199570944	65	6207
2026-01-13 00:44:44.76	229.33	9.87	-47.2	-51.6	12.5	9.99e-05	0	42	0	1200619520	65	6197
2026-01-13 00:44:45.76	229.27	9.79	-47.3	-51.8	12.4	1.52e-04	0	42	0	1202716672	65	6279
2026-01-13 00:44:46.75	229.21	9.71	-47.3	-51.8	12.4	1.63e-04	0	42	0	1204813824	65	6285
2026-01-13 00:44:47.75	229.15	9.63	-47.3	-51.9	12.2	1.61e-04	0	42	0	1206910976	65	6375
2026-01-13 00:44:48.74	229.09	9.55	-47.4	-52.0	12.2	2.09e-04	0	42	0	1207959552	65	6426
2026-01-13 00:44:49.74	229.03	9.47	-47.3	-51.9	12.2	2.09e-04	0	42	0	1210056704	65	6387
2026-01-13 00:44:50.73	228.97	9.39	-47.3	-51.9	12.2	2.17e-04	0	42	0	1212153856	65	6371
2026-01-13 00:44:51.73	228.91	9.31	-47.4	-52.1	12.0	2.78e-04	0	42	0	1214251008	65	6562
2026-01-13 00:44:52.72	228.85	9.23	-47.4	-52.2	11.9	3.51e-04	0	42	0	1216348160	65	6577
2026-01-13 00:44:53.71	228.80	9.15	-47.4	-52.2	11.8	3.55e-04	0	42	0	1217396736	65	6618
2026-01-13 00:44:54.71	228.74	9.07	-47.5	-52.3	11.8	5.33e-04	0	42	0	1219493888	65	6647
2026-01-13 00:44:55.77	228.68	8.99	-49.5	-57.9	7.1	4.07e-04	0	42	0	1221591040	69	10111
2026-01-13 00:44:56.64	228.63	8.92	-50.5	-65.4	3.8	1.44e+00	0	42	104	1221591040	71	21441
2026-01-13 00:44:57.77	228.56	8.83	-50.7	-65.8	3.8	1.49e+00	0	42	104	1221591040	71	22492
2026-01-13 00:44:58.62	228.51	8.76	-50.6	-66.0	3.8	1.49e+00	0	42	104	1221591040	72	21523
2026-01-13 00:44:59.76	228.45	8.67	-50.8	-66.0	3.8	1.49e+00	0	42	104	1221591040	72	21745
2026-01-13 00:45:00.61	228.40	8.61	-50.9	-66.1	3.8	1.49e+00	0	42	104	1221591040	72	21810
2026-01-13 00:45:01.75	228.34	8.52	-51.0	-66.1	3.8	1.49e+00	0	42	104	1221591040	72	21988
2026-01-13 00:45:02.60	228.29	8.45	-50.9	-66.2	3.8	1.49e+00	0	42	104	1221591040	72	22059
2026-01-13 00:45:03.73	228.23	8.36	-50.9	-66.2	3.8	1.49e+00	0	42	104	1221591040	72	22058
2026-01-13 00:45:04.58	228.18	8.30	-51.0	-66.2	3.8	1.49e+00	0	42	104	1221591040	72	22102
2026-01-13 00:45:05.72	228.12	8.21	-51.1	-66.2	3.8	1.49e+00	0	42	104	1221591040	72	22135
2026-01-13 00:45:06.57	228.08	8.14	-51.0	-66.2	3.8	1.49e+00	0	42	104	1221591040	72	22154
2026-01-13 00:45:07.71	228.02	8.06	-50.9	-66.2	3.8	1.49e+00	0	42	104	1221591040	72	22110
2026-01-13 00:45:08.56	227.97	7.99	-50.9	-66.2	3.8	1.49e+00	0	42	104	1221591040	72	22057
2026-01-13 00:45:09.70	227.91	7.90	-50.8	-66.2	3.8	1.49e+00	0	42	104	1221591040	72	22140
2026-01-13 00:45:10.55	227.86	7.84	-50.8	-66.2	3.8	1.49e+00	0	42	104	1221591040	72	22143
