passes_logs/2026/01/13/T1/T1__20260113_001242_SUOMI_NPP_rec.log

#Pass ID: 20260113_001242_SUOMI NPP
#Satellite: SUOMI NPP
#Configuration: NPP
#almurnet v.1.7.20251203
#Start time: 2026-01-13 00:12:42

#Version: 2.0.20230620
#Station: T1
#Location: 37.570604 lon 55.790049 lat
#TLE: 1 37849U 11061A   26012.28456845  .00000093  00000+0  65163-4 0  9999
#TLE: 2 37849  98.7807 314.3566 0002508  68.3553 291.7890 14.19524725736322

#Time	Az	El	Level	Level2	SNR	BER	BlckErr	Temp	State	Recorded	gain1	gain2
2026-01-13 00:12:42.69	13.56	5.01	-49.4	-65.6	3.8	1.49e+00	0	41	0	0	70	23193
2026-01-13 00:12:43.68	13.54	5.08	-48.0	-65.3	3.8	1.49e+00	0	41	104	0	66	28142
2026-01-13 00:12:44.67	13.52	5.15	-48.0	-65.3	3.8	1.49e+00	0	41	104	0	66	28092
2026-01-13 00:12:45.66	13.50	5.22	-48.0	-65.3	3.8	1.49e+00	0	41	104	0	66	28065
2026-01-13 00:12:46.66	13.48	5.30	-48.0	-65.2	3.8	1.49e+00	0	41	104	0	66	27847
2026-01-13 00:12:47.65	13.46	5.37	-48.0	-65.2	3.8	1.49e+00	0	41	104	0	66	27849
2026-01-13 00:12:48.65	13.44	5.44	-48.0	-65.1	3.8	1.49e+00	0	41	104	0	66	27610
2026-01-13 00:12:49.64	13.42	5.51	-48.0	-65.0	3.8	1.49e+00	0	41	104	0	66	27382
2026-01-13 00:12:50.63	13.40	5.58	-48.0	-65.0	3.8	1.49e+00	0	41	104	0	66	27135
2026-01-13 00:12:51.63	13.37	5.65	-48.0	-64.9	3.8	1.49e+00	0	41	104	0	66	26978
2026-01-13 00:12:52.62	13.35	5.72	-48.0	-64.9	3.8	1.49e+00	0	41	104	0	66	26986
2026-01-13 00:12:53.61	13.33	5.80	-47.9	-64.8	3.8	1.49e+00	0	41	104	0	66	26723
2026-01-13 00:12:54.61	13.31	5.87	-47.9	-64.8	3.8	1.49e+00	0	41	104	0	66	26749
2026-01-13 00:12:55.60	13.29	5.94	-48.0	-64.8	3.8	1.49e+00	0	42	104	0	66	26511
2026-01-13 00:12:56.59	13.27	6.01	-48.0	-64.8	3.8	1.49e+00	0	42	104	0	66	26590
2026-01-13 00:12:57.59	13.25	6.09	-47.9	-64.7	3.8	1.49e+00	0	42	104	0	66	26285
2026-01-13 00:12:58.58	13.23	6.16	-47.9	-64.7	3.8	1.49e+00	0	42	104	0	66	26330
2026-01-13 00:12:59.57	13.20	6.23	-47.9	-64.6	3.8	1.49e+00	0	42	104	0	66	25971
2026-01-13 00:13:00.57	13.18	6.31	-47.9	-64.6	3.8	1.49e+00	0	42	104	0	66	26065
2026-01-13 00:13:01.56	13.16	6.38	-47.9	-64.5	3.8	1.49e+00	0	42	104	0	66	25688
2026-01-13 00:13:02.56	13.14	6.45	-47.9	-64.5	3.8	1.49e+00	0	42	104	0	66	25790
2026-01-13 00:13:03.55	13.12	6.53	-47.9	-64.7	3.8	1.49e+00	0	42	104	0	66	26194
2026-01-13 00:13:04.54	13.09	6.60	-47.9	-64.8	3.8	1.49e+00	0	42	104	0	66	26684
2026-01-13 00:13:05.54	13.07	6.68	-47.9	-65.0	3.8	1.49e+00	0	42	104	0	66	27147
2026-01-13 00:13:06.53	13.05	6.75	-47.9	-65.1	3.8	1.49e+00	0	42	104	0	66	27526
2026-01-13 00:13:07.53	13.02	6.83	-47.9	-65.1	3.8	1.49e+00	0	42	104	0	66	27685
2026-01-13 00:13:08.52	13.00	6.90	-47.9	-64.9	3.8	1.49e+00	0	42	104	0	66	27056
2026-01-13 00:13:09.51	12.98	6.98	-47.9	-64.5	3.8	1.49e+00	0	42	104	0	66	25765
2026-01-13 00:13:10.50	12.96	7.05	-47.9	-63.8	3.8	1.49e+00	0	42	104	0	66	23609
2026-01-13 00:13:11.50	12.93	7.13	-47.8	-62.6	3.9	1.48e+00	0	42	104	0	66	20689
2026-01-13 00:13:12.49	12.91	7.20	-47.8	-61.5	4.3	1.39e+00	0	42	0	0	66	18227
2026-01-13 00:13:13.48	12.88	7.28	-47.7	-60.1	4.8	9.92e-01	0	42	0	1048576	66	15418
2026-01-13 00:13:14.48	12.86	7.36	-47.6	-59.2	5.3	6.89e-01	0	42	0	3145728	66	13959
2026-01-13 00:13:15.47	12.84	7.43	-47.5	-58.0	6.1	4.79e-01	0	42	0	5242880	66	12229
2026-01-13 00:13:16.46	12.81	7.51	-47.4	-57.2	6.8	2.10e-01	0	42	0	6291456	66	11105
2026-01-13 00:13:17.46	12.79	7.59	-47.3	-56.6	7.4	1.38e-01	0	42	0	8388608	66	10297
2026-01-13 00:13:18.45	12.76	7.66	-47.1	-55.7	8.2	8.61e-02	0	42	0	10485760	66	9325
2026-01-13 00:13:19.44	12.74	7.74	-47.1	-55.5	8.5	4.49e-02	0	42	0	12582912	66	9075
2026-01-13 00:13:20.44	12.71	7.82	-47.0	-55.1	8.8	3.11e-02	0	42	0	13631488	66	8683
2026-01-13 00:13:21.43	12.69	7.90	-46.9	-54.5	9.4	2.04e-02	0	42	0	15728640	65	8638
2026-01-13 00:13:22.42	12.67	7.98	-46.8	-54.2	9.7	1.37e-02	0	42	0	17825792	65	8336
2026-01-13 00:13:23.42	12.64	8.05	-46.7	-54.1	9.8	1.03e-02	0	42	0	19922944	65	8241
2026-01-13 00:13:24.41	12.61	8.13	-46.7	-53.9	10.1	8.65e-03	0	42	0	22020096	65	8022
2026-01-13 00:13:25.40	12.59	8.21	-46.6	-53.6	10.3	6.11e-03	0	43	0	23068672	65	7761
2026-01-13 00:13:26.40	12.56	8.29	-46.7	-53.8	10.2	5.99e-03	0	42	0	25165824	65	7908
2026-01-13 00:13:27.39	12.54	8.37	-46.7	-53.9	10.0	6.53e-03	0	42	0	27262976	65	8049
2026-01-13 00:13:28.39	12.51	8.45	-46.7	-53.9	10.0	6.83e-03	0	42	0	29360128	65	8066
2026-01-13 00:13:29.38	12.48	8.53	-46.8	-54.4	9.6	8.59e-03	0	42	0	30408704	65	8513
2026-01-13 00:13:30.37	12.46	8.61	-46.9	-54.8	9.1	2.01e-02	0	42	0	32505856	65	8913
2026-01-13 00:13:31.37	12.43	8.69	-47.0	-55.4	8.6	3.26e-02	0	42	0	34603008	65	9515
2026-01-13 00:13:32.36	12.41	8.77	-47.2	-56.1	7.8	5.29e-02	0	43	0	36700160	65	10370
2026-01-13 00:13:33.35	12.38	8.85	-47.3	-57.0	7.0	1.07e-01	0	43	0	38797312	65	11503
2026-01-13 00:13:34.34	12.35	8.93	-47.5	-58.4	5.8	2.88e-01	0	42	0	39845888	65	13521
2026-01-13 00:13:35.34	12.32	9.02	-47.6	-59.6	5.0	5.40e-01	0	43	0	41943040	65	15580
2026-01-13 00:13:36.33	12.30	9.10	-47.8	-60.6	4.5	9.22e-01	0	43	0	44040192	66	16367
2026-01-13 00:13:37.32	12.27	9.18	-47.8	-58.2	5.9	4.82e-01	0	43	0	46137344	66	12506
2026-01-13 00:13:38.32	12.24	9.26	-47.2	-56.2	7.8	2.80e-02	0	43	0	47185920	65	10528
2026-01-13 00:13:39.31	12.21	9.34	-48.0	-64.9	3.8	1.49e+00	0	43	104	48234496	66	26782
2026-01-13 00:13:40.31	12.19	9.43	-47.9	-59.2	5.2	1.42e+00	0	43	0	48234496	67	13251
2026-01-13 00:13:41.30	12.16	9.51	-45.4	-50.6	13.6	1.06e-05	0	43	0	50331648	62	6505
2026-01-13 00:13:42.30	12.13	9.59	-45.5	-50.8	13.4	1.75e-05	0	43	0	52428800	62	6670
2026-01-13 00:13:43.29	12.10	9.68	-45.2	-49.9	14.2	3.00e-06	0	43	0	54525952	62	6060
2026-01-13 00:13:44.29	12.07	9.76	-45.0	-49.5	14.6	0.00e+00	0	43	0	55574528	62	5770
2026-01-13 00:13:45.28	12.04	9.85	-44.9	-49.2	15.0	0.00e+00	0	43	0	57671680	61	5861
2026-01-13 00:13:46.28	12.01	9.93	-44.9	-49.2	15.0	0.00e+00	0	43	0	59768832	61	5860
2026-01-13 00:13:47.34	11.98	10.02	-44.8	-49.0	15.2	0.00e+00	0	43	0	61865984	61	5723
2026-01-13 00:13:48.24	11.95	10.10	-44.9	-49.0	15.2	0.00e+00	0	43	0	62914560	61	5762
2026-01-13 00:13:49.50	11.92	10.21	-44.8	-48.9	15.3	0.00e+00	0	43	0	66060288	61	5671
2026-01-13 00:13:50.28	11.89	10.27	-44.8	-48.7	15.4	0.00e+00	0	43	0	67108864	61	5581
2026-01-13 00:13:51.47	11.86	10.38	-44.7	-48.7	15.4	0.00e+00	0	43	0	69206016	61	5562
2026-01-13 00:13:52.32	11.83	10.45	-44.7	-48.8	15.3	0.00e+00	0	43	0	71303168	61	5601
2026-01-13 00:13:53.46	11.80	10.55	-44.6	-48.6	15.6	0.00e+00	0	43	0	73400320	61	5474
2026-01-13 00:13:54.36	11.77	10.63	-44.6	-48.6	15.6	0.00e+00	0	43	0	74448896	61	5473
2026-01-13 00:13:55.40	11.74	10.72	-44.6	-48.5	15.6	0.00e+00	0	43	0	76546048	61	5440
2026-01-13 00:13:56.40	11.70	10.81	-44.6	-48.4	15.7	0.00e+00	0	43	0	78643200	61	5391
2026-01-13 00:13:57.39	11.67	10.89	-44.5	-48.4	15.8	0.00e+00	0	43	0	80740352	61	5349
2026-01-13 00:13:58.39	11.64	10.98	-44.5	-48.3	15.8	0.00e+00	0	43	0	81788928	61	5337
2026-01-13 00:13:59.38	11.61	11.07	-44.5	-48.3	15.9	0.00e+00	0	43	0	83886080	60	5603
2026-01-13 00:14:00.38	11.58	11.16	-44.5	-48.2	15.9	0.00e+00	0	43	0	85983232	60	5587
2026-01-13 00:14:01.37	11.54	11.25	-44.5	-48.3	15.8	0.00e+00	0	43	0	88080384	60	5643
2026-01-13 00:14:02.37	11.51	11.34	-44.5	-48.2	16.0	0.00e+00	0	43	0	90177536	60	5572
2026-01-13 00:14:03.36	11.48	11.43	-44.4	-48.0	16.1	0.00e+00	0	43	0	91226112	60	5442
2026-01-13 00:14:04.36	11.45	11.52	-44.5	-48.1	16.0	0.00e+00	0	43	0	93323264	60	5522
2026-01-13 00:14:05.35	11.41	11.61	-44.5	-48.1	16.0	0.00e+00	0	43	0	95420416	60	5516
2026-01-13 00:14:06.34	11.38	11.70	-44.4	-47.9	16.2	0.00e+00	0	43	0	97517568	60	5401
2026-01-13 00:14:07.34	11.34	11.79	-44.4	-48.0	16.2	0.00e+00	0	43	0	99614720	60	5419
2026-01-13 00:14:08.33	11.31	11.88	-44.4	-47.9	16.2	0.00e+00	0	43	0	100663296	60	5402
2026-01-13 00:14:09.33	11.28	11.97	-44.5	-48.1	16.1	0.00e+00	0	43	0	102760448	60	5466
2026-01-13 00:14:10.32	11.24	12.06	-44.4	-47.9	16.3	0.00e+00	0	43	0	104857600	60	5382
2026-01-13 00:14:11.31	11.21	12.16	-44.4	-47.9	16.3	0.00e+00	0	43	0	106954752	60	5343
2026-01-13 00:14:12.31	11.17	12.25	-44.2	-47.6	16.6	0.00e+00	0	43	0	108003328	60	5182
2026-01-13 00:14:13.30	11.14	12.34	-44.4	-47.8	16.4	0.00e+00	0	43	0	110100480	60	5294
2026-01-13 00:14:14.30	11.10	12.44	-44.3	-47.7	16.5	0.00e+00	0	43	0	112197632	60	5256
2026-01-13 00:14:15.29	11.07	12.53	-44.2	-47.6	16.6	0.00e+00	0	43	0	114294784	60	5188
2026-01-13 00:14:16.29	11.03	12.62	-44.2	-47.5	16.7	0.00e+00	0	43	0	115343360	60	5141
2026-01-13 00:14:17.28	10.99	12.72	-44.2	-47.5	16.7	0.00e+00	0	43	0	117440512	60	5154
2026-01-13 00:14:18.28	10.96	12.81	-44.2	-47.6	16.6	0.00e+00	0	43	0	119537664	60	5204
2026-01-13 00:14:19.33	10.92	12.91	-44.3	-47.7	16.5	0.00e+00	0	43	0	121634816	60	5233
2026-01-13 00:14:20.25	10.88	13.00	-44.2	-47.5	16.7	0.00e+00	0	43	0	123731968	60	5133
2026-01-13 00:14:21.37	10.84	13.11	-44.2	-47.6	16.6	0.00e+00	0	43	0	125829120	60	5193
2026-01-13 00:14:22.25	10.81	13.19	-44.1	-47.5	16.7	0.00e+00	0	43	0	126877696	60	5134
2026-01-13 00:14:23.39	10.77	13.31	-44.2	-47.6	16.6	0.00e+00	0	43	0	128974848	60	5193
2026-01-13 00:14:24.24	10.73	13.39	-44.3	-47.6	16.6	0.00e+00	0	43	0	131072000	60	5197
2026-01-13 00:14:25.60	10.68	13.52	-44.2	-47.5	16.7	0.00e+00	0	43	0	133169152	60	5158
2026-01-13 00:14:26.31	10.65	13.59	-44.2	-47.6	16.7	0.00e+00	0	43	0	134217728	60	5175
2026-01-13 00:14:27.59	10.60	13.72	-44.2	-47.7	16.6	0.00e+00	0	43	0	137363456	60	5234
2026-01-13 00:14:28.32	10.57	13.79	-44.3	-47.7	16.5	0.00e+00	0	43	0	138412032	60	5248
2026-01-13 00:14:29.60	10.52	13.92	-44.4	-47.9	16.4	0.00e+00	0	43	0	140509184	60	5342
2026-01-13 00:14:30.31	10.50	13.99	-44.4	-47.9	16.4	0.00e+00	0	43	0	142606336	60	5359
2026-01-13 00:14:31.59	10.44	14.12	-44.3	-47.7	16.6	0.00e+00	0	43	0	144703488	60	5232
2026-01-13 00:14:32.30	10.41	14.19	-44.3	-47.8	16.4	0.00e+00	0	43	0	145752064	60	5317
2026-01-13 00:14:33.58	10.36	14.32	-44.3	-47.8	16.5	0.00e+00	0	43	0	147849216	60	5314
2026-01-13 00:14:34.32	10.33	14.39	-44.2	-47.7	16.6	0.00e+00	0	43	0	149946368	60	5228
2026-01-13 00:14:35.60	10.28	14.52	-44.4	-47.8	16.5	0.00e+00	0	43	0	152043520	60	5309
2026-01-13 00:14:36.31	10.25	14.60	-44.2	-47.6	16.6	0.00e+00	0	43	0	153092096	60	5180
2026-01-13 00:14:37.61	10.19	14.73	-44.3	-47.8	16.5	0.00e+00	0	43	0	156237824	60	5283
2026-01-13 00:14:38.32	10.16	14.80	-44.3	-47.8	16.5	0.00e+00	0	43	0	157286400	60	5307
2026-01-13 00:14:39.60	10.11	14.93	-44.2	-47.6	16.6	0.00e+00	0	43	0	159383552	60	5213
2026-01-13 00:14:40.69	10.06	15.05	-44.2	-47.6	16.6	0.00e+00	0	43	0	161480704	60	5199
2026-01-13 00:14:41.84	10.01	15.17	-44.2	-47.6	16.7	0.00e+00	0	43	0	163577856	60	5180
2026-01-13 00:14:42.69	9.97	15.26	-44.4	-47.7	16.5	0.00e+00	0	43	0	165675008	60	5279
2026-01-13 00:14:43.83	9.92	15.38	-44.4	-47.8	16.5	0.00e+00	0	43	0	167772160	60	5300
2026-01-13 00:14:44.68	9.89	15.47	-44.5	-47.9	16.4	0.00e+00	0	43	0	168820736	60	5372
2026-01-13 00:14:45.82	9.83	15.59	-44.4	-47.8	16.5	0.00e+00	0	43	0	170917888	60	5307
2026-01-13 00:14:46.67	9.80	15.68	-44.4	-47.7	16.5	0.00e+00	0	43	0	173015040	60	5272
2026-01-13 00:14:47.81	9.74	15.80	-44.4	-47.7	16.6	0.00e+00	0	43	0	175112192	60	5231
2026-01-13 00:14:48.66	9.71	15.89	-44.3	-47.5	16.8	0.00e+00	0	43	0	176160768	60	5142
2026-01-13 00:14:49.79	9.65	16.01	-44.4	-47.6	16.7	0.00e+00	0	43	0	178257920	60	5189
2026-01-13 00:14:50.64	9.61	16.11	-44.4	-47.6	16.7	0.00e+00	0	43	0	180355072	60	5215
2026-01-13 00:14:51.78	9.56	16.23	-44.4	-47.6	16.7	0.00e+00	0	43	0	182452224	60	5197
2026-01-13 00:14:52.64	9.52	16.33	-44.3	-47.4	16.9	0.00e+00	0	43	0	183500800	60	5063
2026-01-13 00:14:53.99	9.45	16.47	-44.3	-47.5	16.8	0.00e+00	0	44	0	186646528	60	5117
2026-01-13 00:14:54.71	9.42	16.55	-44.5	-47.7	16.7	0.00e+00	0	43	0	187695104	60	5220
2026-01-13 00:14:56.18	9.35	16.72	-44.4	-47.4	16.9	0.00e+00	0	43	0	190840832	60	5093
2026-01-13 00:14:56.89	9.31	16.80	-44.5	-47.6	16.7	0.00e+00	0	43	0	191889408	60	5209
2026-01-13 00:14:58.23	9.25	16.95	-44.3	-47.4	16.9	0.00e+00	0	44	0	193986560	60	5070
2026-01-13 00:14:58.94	9.21	17.03	-44.3	-47.4	16.9	0.00e+00	0	43	0	196083712	60	5060
2026-01-13 00:15:00.22	9.15	17.17	-44.4	-47.4	16.9	0.00e+00	0	43	0	198180864	60	5082
2026-01-13 00:15:00.93	9.11	17.25	-44.3	-47.2	17.0	0.00e+00	0	43	0	199229440	60	4980
2026-01-13 00:15:02.21	9.04	17.40	-44.3	-47.4	16.9	0.00e+00	0	43	0	202375168	60	5079
2026-01-13 00:15:02.93	9.01	17.48	-44.4	-47.5	16.8	0.00e+00	0	43	0	203423744	60	5101
2026-01-13 00:15:04.21	8.94	17.63	-44.3	-47.3	17.0	0.00e+00	0	43	0	205520896	60	4997
2026-01-13 00:15:04.93	8.90	17.71	-44.4	-47.5	16.9	0.00e+00	0	43	0	206569472	60	5111
2026-01-13 00:15:06.21	8.84	17.86	-44.3	-47.4	17.0	0.00e+00	0	43	0	209715200	60	5044
2026-01-13 00:15:06.92	8.80	17.94	-44.2	-47.2	17.1	0.00e+00	0	43	0	210763776	60	4965
2026-01-13 00:15:08.20	8.73	18.09	-44.3	-47.3	17.1	0.00e+00	0	43	0	212860928	60	5005
2026-01-13 00:15:08.91	8.69	18.17	-44.2	-47.2	17.1	0.00e+00	0	43	0	214958080	60	4959
2026-01-13 00:15:10.19	8.62	18.33	-44.3	-47.3	17.0	0.00e+00	0	43	0	217055232	60	5016
2026-01-13 00:15:10.90	8.58	18.41	-44.3	-47.4	17.0	0.00e+00	0	43	0	218103808	60	5067
2026-01-13 00:15:12.23	8.51	18.57	-44.3	-47.4	17.0	0.00e+00	0	43	0	220200960	60	5048
2026-01-13 00:15:12.94	8.47	18.65	-44.4	-47.5	16.8	0.00e+00	0	43	0	222298112	60	5138
2026-01-13 00:15:14.22	8.40	18.81	-44.2	-47.3	17.0	0.00e+00	0	43	0	224395264	60	5008
2026-01-13 00:15:14.95	8.35	18.90	-44.3	-47.4	16.9	0.00e+00	0	44	0	225443840	60	5096
2026-01-13 00:15:16.22	8.28	19.05	-44.3	-47.5	16.9	0.00e+00	0	43	0	228589568	60	5131
2026-01-13 00:15:16.95	8.24	19.14	-44.3	-47.4	17.0	0.00e+00	0	43	0	229638144	60	5055
2026-01-13 00:15:18.23	8.16	19.30	-44.5	-47.7	16.6	0.00e+00	0	43	0	231735296	60	5270
2026-01-13 00:15:18.96	8.12	19.39	-44.6	-47.8	16.5	0.00e+00	0	43	0	233832448	60	5331
2026-01-13 00:15:20.24	8.04	19.55	-44.4	-47.6	16.8	0.00e+00	0	43	0	235929600	60	5191
2026-01-13 00:15:20.95	8.00	19.63	-44.6	-47.8	16.6	0.00e+00	0	43	0	236978176	60	5312
2026-01-13 00:15:22.23	7.92	19.79	-44.6	-47.8	16.6	0.00e+00	0	43	0	239075328	60	5286
2026-01-13 00:15:22.99	7.88	19.89	-44.6	-47.8	16.6	0.00e+00	0	43	0	241172480	60	5315
2026-01-13 00:15:24.27	7.80	20.05	-44.6	-47.8	16.6	0.00e+00	0	44	0	243269632	60	5308
2026-01-13 00:15:24.99	7.75	20.14	-44.6	-47.8	16.6	0.00e+00	0	44	0	244318208	60	5320
2026-01-13 00:15:26.27	7.67	20.31	-44.7	-47.8	16.6	0.00e+00	0	43	0	247463936	60	5329
2026-01-13 00:15:27.00	7.63	20.40	-44.7	-47.8	16.6	0.00e+00	0	43	0	248512512	60	5324
2026-01-13 00:15:28.27	7.55	20.56	-44.7	-47.7	16.7	0.00e+00	0	44	0	250609664	60	5259
2026-01-13 00:15:29.01	7.50	20.66	-44.7	-47.8	16.7	0.00e+00	0	43	0	252706816	60	5280
2026-01-13 00:15:30.29	7.42	20.82	-44.7	-47.6	16.8	0.00e+00	0	43	0	254803968	60	5218
2026-01-13 00:15:31.08	7.36	20.93	-44.8	-47.8	16.6	0.00e+00	0	43	0	255852544	60	5313
2026-01-13 00:15:32.55	7.27	21.12	-44.9	-47.9	16.5	0.00e+00	0	44	0	258998272	60	5360
2026-01-13 00:15:33.26	7.22	21.21	-44.6	-47.4	16.9	0.00e+00	0	44	0	260046848	60	5097
2026-01-13 00:15:34.54	7.13	21.38	-44.9	-47.8	16.7	0.00e+00	0	44	0	262144000	60	5304
2026-01-13 00:15:35.25	7.09	21.48	-44.9	-47.8	16.6	0.00e+00	0	44	0	264241152	60	5315
2026-01-13 00:15:36.53	7.00	21.65	-44.8	-47.7	16.7	0.00e+00	0	43	0	266338304	60	5278
2026-01-13 00:15:37.24	6.95	21.75	-45.0	-47.9	16.5	0.00e+00	0	44	0	267386880	60	5374
2026-01-13 00:15:38.52	6.86	21.92	-44.8	-47.7	16.7	0.00e+00	0	43	0	270532608	60	5250
2026-01-13 00:15:39.24	6.81	22.02	-45.0	-48.0	16.5	0.00e+00	0	43	0	271581184	60	5414
2026-01-13 00:15:40.52	6.72	22.19	-45.2	-48.1	16.3	0.00e+00	0	44	0	273678336	61	5218
2026-01-13 00:15:41.23	6.67	22.29	-45.0	-47.9	16.5	0.00e+00	0	43	0	274726912	61	5091
2026-01-13 00:15:42.51	6.57	22.47	-45.3	-48.3	16.2	0.00e+00	0	43	0	277872640	61	5312
2026-01-13 00:15:43.22	6.52	22.56	-45.3	-48.2	16.3	0.00e+00	0	43	0	278921216	61	5275
2026-01-13 00:15:44.50	6.43	22.74	-45.3	-48.3	16.2	0.00e+00	0	43	0	281018368	61	5285
2026-01-13 00:15:45.21	6.37	22.84	-45.1	-48.0	16.4	0.00e+00	0	43	0	282066944	61	5158
2026-01-13 00:15:46.52	6.27	23.03	-45.2	-48.1	16.4	0.00e+00	0	44	0	285212672	61	5173
2026-01-13 00:15:47.23	6.22	23.13	-45.4	-48.4	16.1	0.00e+00	0	43	0	286261248	61	5396
2026-01-13 00:15:48.51	6.12	23.31	-45.2	-48.2	16.3	0.00e+00	0	43	0	288358400	61	5244
2026-01-13 00:15:49.22	6.07	23.41	-44.9	-47.7	16.7	0.00e+00	0	44	0	290455552	61	4969
2026-01-13 00:15:50.50	5.97	23.60	-45.1	-48.0	16.5	0.00e+00	0	44	0	292552704	61	5141
2026-01-13 00:15:51.21	5.91	23.70	-45.1	-48.0	16.4	0.00e+00	0	44	0	293601280	61	5152
2026-01-13 00:15:52.49	5.81	23.88	-45.3	-48.3	16.2	0.00e+00	0	43	0	296747008	61	5292
2026-01-13 00:15:53.20	5.75	23.99	-45.5	-48.6	15.9	0.00e+00	0	44	0	297795584	61	5473
2026-01-13 00:15:54.76	5.62	24.22	-45.3	-48.2	16.3	0.00e+00	0	43	0	300941312	61	5255
2026-01-13 00:15:55.41	5.57	24.31	-45.6	-48.6	15.8	0.00e+00	0	43	0	301989888	61	5526
2026-01-13 00:15:56.83	5.45	24.52	-45.7	-48.8	15.7	0.00e+00	0	44	0	304087040	62	5327
2026-01-13 00:15:57.54	5.39	24.63	-45.8	-49.0	15.5	0.00e+00	0	44	0	306184192	62	5435
2026-01-13 00:15:58.84	5.28	24.83	-45.9	-49.1	15.5	0.00e+00	0	44	0	308281344	62	5495
2026-01-13 00:15:59.55	5.22	24.93	-45.8	-49.0	15.6	7.00e-07	0	43	0	309329920	62	5421
2026-01-13 00:16:00.83	5.11	25.13	-46.1	-49.4	15.2	0.00e+00	0	44	0	311427072	62	5689
2026-01-13 00:16:01.54	5.05	25.24	-45.9	-49.1	15.4	0.00e+00	0	43	0	313524224	62	5518
2026-01-13 00:16:02.82	4.93	25.43	-45.7	-48.8	15.8	0.00e+00	0	43	0	315621376	62	5281
2026-01-13 00:16:03.54	4.87	25.54	-45.7	-48.8	15.7	0.00e+00	0	43	0	316669952	62	5311
2026-01-13 00:16:04.82	4.75	25.74	-45.6	-48.7	15.9	0.00e+00	0	44	0	319815680	62	5220
2026-01-13 00:16:05.53	4.69	25.85	-45.6	-48.5	16.0	0.00e+00	0	43	0	320864256	62	5158
2026-01-13 00:16:06.81	4.57	26.05	-45.8	-48.9	15.7	0.00e+00	0	44	0	322961408	62	5344
2026-01-13 00:16:07.52	4.51	26.16	-45.7	-48.8	15.7	0.00e+00	0	44	0	324009984	62	5315
2026-01-13 00:16:08.80	4.39	26.37	-45.8	-48.9	15.7	0.00e+00	0	44	0	327155712	62	5348
2026-01-13 00:16:09.54	4.32	26.48	-45.8	-48.9	15.6	0.00e+00	0	43	0	328204288	62	5382
2026-01-13 00:16:10.82	4.19	26.69	-45.7	-48.8	15.8	0.00e+00	0	43	0	330301440	62	5289
2026-01-13 00:16:11.63	4.11	26.82	-46.0	-49.2	15.4	0.00e+00	0	43	0	332398592	62	5558
2026-01-13 00:16:12.76	4.00	27.00	-46.0	-49.3	15.3	0.00e+00	0	44	0	334495744	62	5602
2026-01-13 00:16:13.62	3.92	27.14	-46.2	-49.5	15.1	0.00e+00	0	43	0	335544320	63	5451
2026-01-13 00:16:14.75	3.81	27.33	-46.2	-49.5	15.1	0.00e+00	0	43	0	337641472	63	5414
2026-01-13 00:16:15.61	3.72	27.47	-46.2	-49.5	15.1	0.00e+00	0	43	0	339738624	63	5435
2026-01-13 00:16:16.74	3.60	27.66	-46.2	-49.6	15.0	0.00e+00	0	43	0	341835776	63	5466
2026-01-13 00:16:17.60	3.51	27.80	-46.3	-49.6	15.0	0.00e+00	0	43	0	342884352	63	5522
2026-01-13 00:16:18.73	3.40	27.99	-46.0	-49.2	15.4	0.00e+00	0	44	0	344981504	63	5274
2026-01-13 00:16:19.59	3.30	28.13	-45.8	-49.0	15.6	0.00e+00	0	44	0	347078656	63	5129
2026-01-13 00:16:20.72	3.18	28.32	-45.7	-48.7	15.8	0.00e+00	0	43	0	349175808	63	4970
2026-01-13 00:16:21.57	3.09	28.47	-45.7	-48.8	15.8	0.00e+00	0	43	0	350224384	63	5001
2026-01-13 00:16:22.71	2.97	28.66	-45.5	-48.4	16.1	0.00e+00	0	44	0	353370112	62	5095
2026-01-13 00:16:23.56	2.87	28.81	-45.7	-48.7	16.0	0.00e+00	0	44	0	354418688	62	5245
2026-01-13 00:16:24.70	2.75	29.00	-45.4	-48.3	16.3	0.00e+00	0	43	0	356515840	62	5008
2026-01-13 00:16:25.56	2.65	29.15	-45.5	-48.4	16.1	0.00e+00	0	43	0	358612992	62	5080
2026-01-13 00:16:26.69	2.52	29.35	-45.4	-48.4	16.1	0.00e+00	0	43	0	360710144	62	5090
2026-01-13 00:16:27.55	2.42	29.50	-45.8	-48.8	15.7	0.00e+00	0	44	0	361758720	62	5315
2026-01-13 00:16:28.68	2.29	29.70	-46.1	-49.2	15.3	0.00e+00	0	44	0	363855872	62	5567
2026-01-13 00:16:29.79	2.16	29.90	-46.2	-49.4	15.2	0.00e+00	0	43	0	365953024	63	5370
2026-01-13 00:16:30.80	2.04	30.08	-46.3	-49.6	15.0	0.00e+00	0	44	0	368050176	63	5505
2026-01-13 00:16:31.95	1.90	30.28	-46.5	-50.0	14.6	0.00e+00	0	44	0	370147328	64	5431
2026-01-13 00:16:32.83	1.79	30.44	-46.6	-50.1	14.4	2.20e-06	0	43	0	372244480	64	5505
2026-01-13 00:16:34.13	1.63	30.68	-47.0	-50.9	13.7	2.20e-06	0	43	0	374341632	64	5994
2026-01-13 00:16:34.84	1.54	30.81	-47.0	-50.9	13.7	1.50e-06	0	43	0	375390208	64	6011
2026-01-13 00:16:36.12	1.38	31.04	-47.0	-51.0	13.6	3.80e-06	0	44	0	378535936	64	6094
2026-01-13 00:16:36.83	1.29	31.18	-47.1	-51.2	13.3	1.06e-05	0	44	0	379584512	64	6259
2026-01-13 00:16:38.11	1.12	31.41	-47.3	-51.6	13.0	3.96e-05	0	43	0	381681664	65	6165
2026-01-13 00:16:38.84	1.03	31.55	-47.5	-51.9	12.7	6.79e-05	0	43	0	382730240	65	6360
2026-01-13 00:16:40.11	0.86	31.79	-47.7	-52.4	12.3	1.04e-04	0	43	0	385875968	66	6350
2026-01-13 00:16:40.83	0.76	31.92	-47.8	-52.5	12.1	2.36e-04	0	44	0	386924544	66	6456
2026-01-13 00:16:42.10	0.59	32.16	-48.0	-52.8	11.8	3.25e-04	0	44	0	389021696	66	6688
2026-01-13 00:16:43.00	0.46	32.34	-47.9	-52.6	12.0	1.31e-04	0	44	0	391118848	66	6530
2026-01-13 00:16:44.11	0.31	32.55	-47.7	-52.1	12.5	1.96e-04	0	44	0	393216000	66	6134
2026-01-13 00:16:44.96	0.19	32.71	-47.7	-52.1	12.5	1.36e-04	0	44	0	394264576	66	6160
2026-01-13 00:16:46.10	0.02	32.93	-47.6	-52.1	12.5	9.53e-05	0	44	0	396361728	66	6139
2026-01-13 00:16:47.22	359.86	33.15	-47.7	-52.2	12.4	9.53e-05	0	44	0	398458880	66	6222
2026-01-13 00:16:48.07	359.74	33.32	-47.4	-51.7	13.0	3.66e-05	0	44	0	400556032	66	5873
2026-01-13 00:16:49.57	359.51	33.61	-47.8	-52.6	12.0	1.59e-04	0	44	0	403701760	66	6513
2026-01-13 00:16:50.28	359.41	33.76	-47.8	-52.4	12.3	5.44e-04	0	43	0	404750336	66	6370
2026-01-13 00:16:51.56	359.21	34.01	-48.3	-53.3	11.2	1.07e-03	0	43	0	406847488	67	6720
2026-01-13 00:16:52.27	359.10	34.15	-48.4	-53.5	11.2	1.17e-03	0	44	0	407896064	67	6827
2026-01-13 00:16:53.55	358.90	34.41	-48.4	-53.4	11.2	8.00e-04	0	44	0	411041792	67	6738
2026-01-13 00:16:54.29	358.78	34.56	-48.3	-53.3	11.2	1.21e-03	0	43	0	412090368	67	6677
2026-01-13 00:16:55.57	358.58	34.82	-48.0	-52.8	11.6	9.63e-04	0	44	0	414187520	67	6289
2026-01-13 00:16:56.30	358.46	34.97	-48.3	-53.5	11.2	2.61e-04	0	44	0	416284672	67	6873
2026-01-13 00:16:57.58	358.25	35.24	-48.1	-53.2	11.3	1.49e-03	0	44	0	418381824	67	6633
2026-01-13 00:16:58.29	358.13	35.38	-48.0	-53.1	11.5	1.51e-03	0	44	0	419430400	67	6557
2026-01-13 00:16:59.57	357.91	35.65	-48.4	-54.2	10.3	3.29e-03	0	44	0	421527552	67	7432
2026-01-13 00:17:00.27	357.79	35.80	-48.5	-54.7	9.9	7.01e-03	0	44	0	423624704	67	7822
2026-01-13 00:17:01.62	357.56	36.08	-48.9	-55.3	9.4	4.27e-03	0	44	0	425721856	68	7924
2026-01-13 00:17:02.33	357.43	36.23	-48.7	-54.8	9.9	1.08e-02	0	43	0	426770432	68	7459
2026-01-13 00:17:03.60	357.20	36.50	-48.3	-53.4	11.2	5.44e-03	0	44	0	429916160	68	6417
2026-01-13 00:17:04.60	357.02	36.71	-47.9	-52.7	11.9	4.66e-04	0	44	0	430964736	67	6239
2026-01-13 00:17:05.88	356.79	36.99	-47.4	-51.6	13.0	5.87e-05	0	44	0	434110464	66	5806
2026-01-13 00:17:06.60	356.65	37.14	-47.0	-50.8	13.8	1.98e-05	0	44	0	435159040	66	5298
2026-01-13 00:17:08.21	356.35	37.49	-47.1	-51.1	13.5	7.60e-06	0	44	0	438304768	66	5465
2026-01-13 00:17:08.78	356.24	37.62	-47.1	-51.0	13.7	6.80e-06	0	44	0	439353344	66	5427
2026-01-13 00:17:10.69	355.86	38.04	-47.1	-51.0	13.7	2.20e-06	0	44	0	442499072	65	5732
2026-01-13 00:17:11.26	355.75	38.16	-46.9	-50.7	13.9	3.00e-06	0	44	0	443547648	65	5567
2026-01-13 00:17:12.96	355.41	38.54	-46.8	-50.5	14.2	2.20e-06	0	44	0	446693376	65	5414
2026-01-13 00:17:13.53	355.29	38.67	-46.8	-50.5	14.2	1.50e-06	0	44	0	447741952	65	5429
2026-01-13 00:17:15.24	354.93	39.05	-46.6	-50.0	14.6	7.00e-07	0	44	0	450887680	65	5138
2026-01-13 00:17:15.81	354.81	39.18	-46.6	-50.1	14.5	0.00e+00	0	44	0	451936256	65	5168
2026-01-13 00:17:17.51	354.45	39.57	-46.5	-49.9	14.7	0.00e+00	0	44	0	456130560	64	5376
2026-01-13 00:17:18.09	354.32	39.70	-46.4	-49.7	14.9	0.00e+00	0	44	0	457179136	64	5243
2026-01-13 00:17:19.74	353.95	40.08	-46.2	-49.5	15.1	7.00e-07	0	43	0	460324864	64	5136
2026-01-13 00:17:20.31	353.82	40.21	-46.6	-50.1	14.4	0.00e+00	0	44	0	461373440	64	5514
2026-01-13 00:17:22.02	353.43	40.61	-46.8	-50.5	14.1	1.50e-06	0	44	0	464519168	64	5783
2026-01-13 00:17:22.59	353.30	40.74	-47.2	-51.1	13.5	2.20e-06	0	44	0	465567744	64	6192
2026-01-13 00:17:24.29	352.89	41.13	-47.2	-51.1	13.5	3.80e-06	0	43	0	468713472	65	5803
2026-01-13 00:17:24.99	352.72	41.30	-47.0	-50.8	13.8	1.22e-05	0	44	0	469762048	65	5609
2026-01-13 00:17:26.40	352.38	41.63	-46.8	-50.4	14.2	0.00e+00	0	44	0	471859200	65	5381
2026-01-13 00:17:27.11	352.20	41.80	-46.6	-50.1	14.6	7.00e-07	0	44	0	473956352	64	5492
2026-01-13 00:17:28.38	351.88	42.10	-46.5	-49.9	14.7	0.00e+00	0	44	0	476053504	64	5352
2026-01-13 00:17:29.16	351.68	42.29	-46.5	-50.0	14.7	7.00e-07	0	44	0	477102080	64	5435
2026-01-13 00:17:30.39	351.36	42.58	-46.9	-50.6	14.1	1.50e-06	0	44	0	480247808	64	5810
2026-01-13 00:17:31.25	351.13	42.79	-46.8	-50.4	14.3	7.00e-07	0	44	0	481296384	64	5681
2026-01-13 00:17:32.38	350.82	43.06	-47.1	-50.8	13.8	3.00e-06	0	44	0	483393536	64	5987
2026-01-13 00:17:33.24	350.59	43.27	-47.3	-51.3	13.3	1.06e-05	0	44	0	485490688	65	5948
2026-01-13 00:17:34.39	350.27	43.55	-47.2	-51.2	13.5	1.29e-05	0	44	0	487587840	65	5861
2026-01-13 00:17:35.24	350.03	43.76	-47.5	-51.7	12.9	3.20e-05	0	44	0	488636416	65	6241
2026-01-13 00:17:36.38	349.70	44.03	-47.0	-50.8	13.9	7.60e-06	0	44	0	490733568	65	5616
2026-01-13 00:17:37.23	349.46	44.24	-46.9	-50.7	13.9	1.50e-06	0	44	0	492830720	65	5554
2026-01-13 00:17:38.37	349.12	44.52	-46.5	-50.1	14.5	1.50e-06	0	44	0	494927872	64	5507
2026-01-13 00:17:39.22	348.86	44.73	-46.7	-50.4	14.3	7.00e-07	0	44	0	495976448	64	5685
2026-01-13 00:17:40.56	348.46	45.06	-46.9	-50.8	13.9	2.20e-06	0	44	0	499122176	64	5935
2026-01-13 00:17:41.27	348.23	45.24	-46.4	-50.0	14.6	7.00e-07	0	44	0	500170752	64	5436
2026-01-13 00:17:42.74	347.77	45.60	-46.3	-49.7	15.0	1.50e-06	0	44	0	503316480	64	5251
2026-01-13 00:17:43.46	347.54	45.78	-46.4	-49.8	14.7	0.00e+00	0	44	0	504365056	64	5340
2026-01-13 00:17:44.73	347.13	46.10	-46.7	-50.2	14.4	1.50e-06	0	44	0	506462208	64	5577
2026-01-13 00:17:45.46	346.88	46.28	-46.8	-50.3	14.3	7.00e-07	0	44	0	508559360	64	5628
2026-01-13 00:17:46.74	346.45	46.60	-46.8	-50.4	14.3	7.00e-07	0	44	0	510656512	64	5695
2026-01-13 00:17:47.46	346.21	46.78	-46.5	-49.9	14.7	0.00e+00	0	44	0	511705088	64	5390
2026-01-13 00:17:48.74	345.76	47.11	-46.3	-49.7	15.0	0.00e+00	0	44	0	513802240	64	5249
2026-01-13 00:17:49.47	345.50	47.29	-46.2	-49.5	15.1	0.00e+00	0	44	0	515899392	64	5131
2026-01-13 00:17:50.75	345.04	47.61	-46.1	-49.4	15.2	1.50e-06	0	43	0	517996544	64	5084
2026-01-13 00:17:51.46	344.78	47.79	-46.6	-50.2	14.6	0.00e+00	0	43	0	519045120	64	5571
2026-01-13 00:17:52.74	344.31	48.11	-46.5	-50.0	14.7	7.00e-07	0	44	0	522190848	64	5435
2026-01-13 00:17:53.51	344.02	48.31	-46.2	-49.6	15.0	0.00e+00	0	44	0	523239424	64	5211
2026-01-13 00:17:54.79	343.52	48.63	-46.0	-49.2	15.5	0.00e+00	0	44	0	525336576	63	5270
2026-01-13 00:17:55.55	343.23	48.82	-45.8	-48.9	15.8	0.00e+00	0	43	0	527433728	63	5074
2026-01-13 00:17:56.83	342.72	49.15	-45.6	-48.6	16.1	0.00e+00	0	44	0	529530880	63	4920
2026-01-13 00:17:57.54	342.43	49.33	-45.9	-49.0	15.7	0.00e+00	0	44	0	530579456	63	5143
2026-01-13 00:17:58.82	341.91	49.65	-46.3	-49.6	15.2	0.00e+00	0	44	0	532676608	63	5483
2026-01-13 00:17:59.55	341.60	49.83	-46.3	-49.6	15.2	0.00e+00	0	44	0	534773760	63	5480
2026-01-13 00:18:00.83	341.06	50.16	-46.1	-49.2	15.4	0.00e+00	0	44	0	536870912	63	5261
2026-01-13 00:18:01.54	340.75	50.33	-46.2	-49.4	15.3	0.00e+00	0	44	0	537919488	63	5364
2026-01-13 00:18:02.82	340.19	50.66	-45.9	-48.9	15.7	0.00e+00	0	44	0	541065216	63	5093
2026-01-13 00:18:03.54	339.87	50.84	-45.9	-49.0	15.8	0.00e+00	0	44	0	542113792	63	5112
2026-01-13 00:18:04.82	339.29	51.16	-45.8	-49.0	15.5	0.00e+00	0	43	0	544210944	63	5104
2026-01-13 00:18:05.56	338.94	51.34	-45.8	-49.0	15.7	0.00e+00	0	43	0	545259520	63	5113
2026-01-13 00:18:06.84	338.34	51.66	-45.4	-48.5	16.2	0.00e+00	0	44	0	548405248	62	5104
2026-01-13 00:18:07.55	338.00	51.84	-45.3	-48.3	16.3	0.00e+00	0	43	0	549453824	62	4988
2026-01-13 00:18:08.83	337.38	52.15	-44.2	-46.7	17.8	0.00e+00	0	44	0	551550976	60	4692
2026-01-13 00:18:09.55	337.03	52.33	-43.9	-46.2	18.1	0.00e+00	0	44	0	553648128	59	4699
2026-01-13 00:18:10.83	336.38	52.64	-44.3	-46.7	17.7	0.00e+00	0	44	0	555745280	59	4972
2026-01-13 00:18:11.56	336.01	52.82	-44.3	-46.9	17.6	0.00e+00	0	44	0	556793856	59	5054
2026-01-13 00:18:12.84	335.35	53.13	-45.7	-48.3	16.8	0.00e+00	0	44	0	559939584	61	5290
2026-01-13 00:18:13.55	334.97	53.30	-45.3	-48.3	16.4	0.00e+00	0	44	0	560988160	61	5299
2026-01-13 00:18:14.83	334.28	53.61	-45.5	-48.5	16.2	0.00e+00	0	44	0	563085312	61	5456
2026-01-13 00:18:15.54	333.89	53.78	-45.6	-48.7	16.1	0.00e+00	0	44	0	564133888	62	5263
2026-01-13 00:18:16.81	333.19	54.08	-46.3	-49.8	14.9	0.00e+00	0	44	0	567279616	63	5640
2026-01-13 00:18:17.53	332.78	54.25	-46.5	-50.2	14.6	0.00e+00	0	44	0	568328192	63	5877
2026-01-13 00:18:18.80	332.05	54.55	-46.1	-49.5	15.2	0.00e+00	0	44	0	570425344	64	5116
2026-01-13 00:18:19.51	331.64	54.72	-46.0	-49.3	15.5	0.00e+00	0	43	0	571473920	63	5300
2026-01-13 00:18:20.79	330.88	55.01	-45.5	-48.5	16.3	0.00e+00	0	44	0	574619648	62	5126
2026-01-13 00:18:21.51	330.45	55.17	-45.0	-47.8	16.9	0.00e+00	0	44	0	575668224	62	4724
2026-01-13 00:18:22.79	329.67	55.46	-45.0	-47.7	16.9	0.00e+00	0	44	0	577765376	62	4694
2026-01-13 00:18:23.51	329.22	55.62	-45.1	-47.8	16.9	0.00e+00	0	44	0	579862528	61	5032
2026-01-13 00:18:24.79	328.41	55.91	-46.0	-49.2	15.5	0.00e+00	0	44	0	581959680	62	5544
2026-01-13 00:18:25.51	327.95	56.06	-46.2	-49.5	15.2	0.00e+00	0	44	0	583008256	63	5427
2026-01-13 00:18:26.78	327.12	56.34	-46.1	-49.3	15.4	0.00e+00	0	44	0	585105408	63	5315
2026-01-13 00:18:27.51	326.63	56.49	-45.9	-49.0	15.7	0.00e+00	0	44	0	587202560	63	5110
2026-01-13 00:18:28.79	325.77	56.76	-45.5	-48.4	16.4	0.00e+00	0	44	0	589299712	62	5068
2026-01-13 00:18:29.52	325.27	56.91	-45.6	-48.6	16.1	0.00e+00	0	44	0	590348288	62	5192
2026-01-13 00:18:30.80	324.39	57.17	-45.8	-48.8	15.8	0.00e+00	0	44	0	593494016	62	5324
2026-01-13 00:18:31.53	323.87	57.32	-45.8	-48.9	15.8	0.00e+00	0	44	0	594542592	62	5379
2026-01-13 00:18:32.80	322.97	57.57	-46.0	-49.1	15.6	0.00e+00	0	44	0	596639744	62	5501
2026-01-13 00:18:33.53	322.44	57.71	-45.9	-49.0	15.7	0.00e+00	0	44	0	598736896	63	5146
2026-01-13 00:18:34.81	321.50	57.95	-45.6	-48.6	16.2	0.00e+00	0	44	0	600834048	63	4872
2026-01-13 00:18:35.53	320.96	58.09	-45.1	-47.9	16.8	0.00e+00	0	44	0	601882624	62	4779
2026-01-13 00:18:36.81	319.99	58.32	-45.3	-48.2	16.4	0.00e+00	0	44	0	603979776	62	4974
2026-01-13 00:18:37.52	319.45	58.44	-45.3	-48.2	16.5	0.00e+00	0	44	0	606076928	62	4969
2026-01-13 00:18:38.80	318.45	58.66	-45.3	-48.3	16.4	0.00e+00	0	44	0	608174080	62	4987
2026-01-13 00:18:39.51	317.90	58.78	-45.6	-48.6	16.1	0.00e+00	0	44	0	609222656	62	5162
2026-01-13 00:18:40.79	316.88	58.99	-45.8	-48.9	15.9	0.00e+00	0	44	0	611319808	62	5344
2026-01-13 00:18:41.55	316.26	59.11	-46.1	-49.4	15.4	0.00e+00	0	43	0	613416960	62	5694
2026-01-13 00:18:42.82	315.23	59.31	-45.5	-48.4	16.2	0.00e+00	0	44	0	615514112	63	4805
2026-01-13 00:18:43.53	314.64	59.42	-45.2	-48.1	16.6	0.00e+00	0	44	0	616562688	62	4871
2026-01-13 00:18:44.81	313.57	59.60	-45.6	-48.7	16.0	0.00e+00	0	44	0	619708416	62	5252
2026-01-13 00:18:45.52	312.97	59.70	-45.8	-49.0	15.7	0.00e+00	0	44	0	620756992	62	5425
2026-01-13 00:18:46.80	311.88	59.87	-45.6	-48.5	16.2	0.00e+00	0	43	0	622854144	62	5135
2026-01-13 00:18:47.53	311.25	59.96	-45.0	-47.6	17.0	7.00e-07	0	44	0	624951296	61	4924
2026-01-13 00:18:48.81	310.14	60.12	-44.9	-47.4	17.0	0.00e+00	0	44	0	627048448	61	4811
2026-01-13 00:18:49.52	309.51	60.20	-45.5	-48.4	16.3	0.00e+00	0	44	0	628097024	61	5372
2026-01-13 00:18:50.80	308.38	60.34	-46.8	-50.6	14.2	0.00e+00	0	43	0	630194176	64	5797
2026-01-13 00:18:51.51	307.74	60.42	-46.9	-50.7	14.0	7.00e-07	0	43	0	632291328	65	5556
2026-01-13 00:18:52.79	306.59	60.54	-45.7	-48.7	16.0	0.00e+00	0	44	0	634388480	63	4950
2026-01-13 00:18:53.52	305.93	60.61	-45.4	-48.3	16.3	0.00e+00	0	43	0	635437056	62	5035
2026-01-13 00:18:54.80	304.76	60.72	-46.3	-49.6	15.3	0.00e+00	0	44	0	638582784	63	5483
2026-01-13 00:18:55.51	304.11	60.78	-46.3	-49.6	15.0	0.00e+00	0	44	0	639631360	63	5483
2026-01-13 00:18:56.79	302.92	60.87	-46.0	-49.2	15.6	0.00e+00	0	44	0	641728512	63	5221
2026-01-13 00:18:57.51	302.25	60.92	-45.8	-48.8	16.0	0.00e+00	0	43	0	642777088	63	5019
2026-01-13 00:18:58.79	301.05	60.99	-45.9	-48.9	15.8	0.00e+00	0	44	0	645922816	63	5098
2026-01-13 00:18:59.51	300.38	61.03	-46.1	-49.3	15.4	0.00e+00	0	44	0	646971392	63	5339
2026-01-13 00:19:00.79	299.17	61.09	-45.8	-48.9	15.7	0.00e+00	0	44	0	649068544	63	5084
2026-01-13 00:19:01.50	298.49	61.12	-45.7	-48.8	15.9	0.00e+00	0	44	0	650117120	63	5007
2026-01-13 00:19:02.80	297.26	61.16	-45.0	-47.8	16.8	0.00e+00	0	44	0	653262848	61	5009
2026-01-13 00:19:03.51	296.58	61.18	-45.0	-47.8	16.8	0.00e+00	0	44	0	654311424	61	5009
2026-01-13 00:19:04.79	295.36	61.20	-45.0	-47.7	16.9	0.00e+00	0	44	0	656408576	61	4966
2026-01-13 00:19:05.59	294.60	61.21	-44.6	-47.2	17.4	0.00e+00	0	44	0	658505728	61	4686
2026-01-13 00:19:06.73	293.51	61.22	-44.0	-46.5	18.0	0.00e+00	0	44	0	660602880	60	4559
2026-01-13 00:19:07.76	292.53	61.21	-43.8	-46.2	18.3	0.00e+00	0	44	0	662700032	59	4670
2026-01-13 00:19:08.92	291.42	61.20	-43.6	-46.0	18.4	0.00e+00	0	44	0	664797184	58	4836
2026-01-13 00:19:09.81	290.57	61.19	-43.8	-46.2	18.3	0.00e+00	0	44	0	665845760	58	4939
2026-01-13 00:19:10.95	289.48	61.16	-44.9	-47.6	17.1	0.00e+00	0	44	0	667942912	60	5194
2026-01-13 00:19:11.80	288.68	61.13	-44.5	-47.1	17.5	0.00e+00	0	44	0	670040064	60	4889
2026-01-13 00:19:12.93	287.61	61.09	-44.1	-46.7	17.9	0.00e+00	0	43	0	672137216	60	4673
2026-01-13 00:19:13.79	286.79	61.05	-44.0	-46.5	18.0	0.00e+00	0	43	0	673185792	59	4846
2026-01-13 00:19:14.92	285.73	60.99	-43.8	-46.2	18.2	0.00e+00	0	44	0	675282944	59	4682
2026-01-13 00:19:15.77	284.93	60.94	-43.5	-45.8	18.6	0.00e+00	0	44	0	677380096	58	4718
2026-01-13 00:19:16.91	283.87	60.87	-44.6	-47.2	17.3	0.00e+00	0	44	0	679477248	59	5269
2026-01-13 00:19:17.77	283.07	60.80	-45.0	-47.8	16.8	0.00e+00	0	44	0	681574400	60	5317
2026-01-13 00:19:18.90	282.03	60.72	-45.1	-47.9	16.7	0.00e+00	0	44	0	683671552	60	5387
2026-01-13 00:19:19.76	281.24	60.64	-45.4	-48.5	16.3	0.00e+00	0	43	0	684720128	61	5410
2026-01-13 00:19:20.97	280.14	60.53	-44.4	-46.9	17.6	0.00e+00	0	44	0	686817280	60	4783
2026-01-13 00:19:21.82	279.38	60.45	-43.7	-46.0	18.4	0.00e+00	0	44	0	688914432	59	4560
2026-01-13 00:19:23.01	278.31	60.33	-44.4	-46.9	17.6	0.00e+00	0	44	0	691011584	59	5051
2026-01-13 00:19:23.86	277.56	60.23	-45.4	-48.3	16.4	0.00e+00	0	44	0	692060160	61	5312
2026-01-13 00:19:25.00	276.55	60.10	-45.6	-48.6	16.0	0.00e+00	0	44	0	695205888	62	5187
2026-01-13 00:19:25.85	275.81	60.00	-45.8	-49.0	15.8	0.00e+00	0	44	0	696254464	62	5403
2026-01-13 00:19:27.10	274.74	59.84	-45.8	-48.9	15.9	0.00e+00	0	44	0	698351616	62	5368
2026-01-13 00:19:27.96	274.00	59.72	-45.6	-48.7	16.0	0.00e+00	0	43	0	700448768	62	5253
2026-01-13 00:19:29.09	273.05	59.56	-45.7	-48.9	15.9	0.00e+00	0	44	0	702545920	62	5343
2026-01-13 00:19:29.94	272.34	59.44	-46.6	-50.2	14.6	0.00e+00	0	44	0	703594496	63	5873
2026-01-13 00:19:31.08	271.39	59.27	-46.7	-50.5	14.2	4.50e-06	0	44	0	705691648	64	5750
2026-01-13 00:19:31.94	270.69	59.14	-46.2	-49.6	15.1	0.00e+00	0	43	0	707788800	64	5169
2026-01-13 00:19:33.07	269.78	58.96	-45.9	-49.0	15.6	0.00e+00	0	43	0	709885952	63	5114
2026-01-13 00:19:34.01	269.03	58.80	-45.9	-48.9	15.7	0.00e+00	0	43	0	711983104	63	5072
2026-01-13 00:19:35.00	268.25	58.64	-46.0	-49.1	15.8	0.00e+00	0	44	0	713031680	63	5198
2026-01-13 00:19:36.00	267.47	58.46	-45.9	-49.0	15.7	0.00e+00	0	44	0	715128832	63	5115
2026-01-13 00:19:36.99	266.72	58.29	-45.9	-49.1	15.6	0.00e+00	0	43	0	717225984	63	5169
2026-01-13 00:19:37.99	265.96	58.11	-45.2	-47.9	16.7	0.00e+00	0	43	0	719323136	62	4814
2026-01-13 00:19:38.98	265.22	57.92	-45.2	-48.0	16.7	0.00e+00	0	44	0	721420288	61	5132
2026-01-13 00:19:39.98	264.48	57.73	-45.5	-48.5	16.1	0.00e+00	0	44	0	722468864	61	5424
2026-01-13 00:19:40.97	263.76	57.54	-45.3	-48.2	16.4	0.00e+00	0	44	0	724566016	61	5237
2026-01-13 00:19:41.97	263.05	57.34	-45.4	-48.3	16.4	0.00e+00	0	43	0	726663168	61	5309
2026-01-13 00:19:42.96	262.35	57.15	-45.6	-48.6	16.1	0.00e+00	0	44	0	728760320	62	5190
2026-01-13 00:19:43.96	261.66	56.94	-45.1	-47.8	16.9	0.00e+00	0	43	0	729808896	61	5000
2026-01-13 00:19:44.95	260.98	56.74	-44.8	-47.5	17.1	0.00e+00	0	43	0	731906048	61	4821
2026-01-13 00:19:45.95	260.30	56.53	-45.4	-48.3	16.4	0.00e+00	0	43	0	734003200	61	5335
2026-01-13 00:19:46.94	259.65	56.32	-45.4	-48.4	16.3	0.00e+00	0	43	0	736100352	62	5071
2026-01-13 00:19:47.93	259.00	56.10	-45.5	-48.5	16.2	0.00e+00	0	43	0	738197504	62	5101
2026-01-13 00:19:48.93	258.36	55.88	-45.6	-48.5	16.1	0.00e+00	0	44	0	739246080	62	5137
2026-01-13 00:19:49.92	257.73	55.66	-45.4	-48.3	16.4	0.00e+00	0	44	0	741343232	62	4995
2026-01-13 00:19:50.91	257.11	55.44	-45.6	-48.5	16.2	0.00e+00	0	44	0	743440384	62	5154
2026-01-13 00:19:51.91	256.50	55.22	-46.1	-49.4	15.4	0.00e+00	0	44	0	745537536	62	5674
2026-01-13 00:19:52.90	255.90	54.99	-46.2	-49.4	15.2	0.00e+00	0	44	0	746586112	63	5383
2026-01-13 00:19:53.90	255.30	54.76	-46.0	-49.1	15.6	0.00e+00	0	44	0	748683264	63	5203
2026-01-13 00:19:54.89	254.72	54.53	-46.2	-49.3	15.3	0.00e+00	0	44	0	750780416	63	5340
2026-01-13 00:19:55.94	254.12	54.28	-45.7	-48.7	16.0	0.00e+00	0	44	0	752877568	63	4931
2026-01-13 00:19:56.90	253.58	54.06	-45.9	-48.9	15.7	0.00e+00	0	44	0	754974720	63	5089
2026-01-13 00:19:57.96	252.99	53.80	-46.6	-50.0	14.7	7.00e-07	0	44	0	756023296	63	5753
2026-01-13 00:19:58.83	252.51	53.60	-46.0	-49.2	15.4	7.00e-07	0	44	0	758120448	64	4945
2026-01-13 00:19:59.96	251.90	53.32	-45.9	-48.9	15.7	0.00e+00	0	44	0	760217600	63	5092
2026-01-13 00:20:00.82	251.45	53.11	-46.0	-49.1	15.6	0.00e+00	0	44	0	762314752	63	5189
2026-01-13 00:20:01.95	250.86	52.84	-45.7	-48.7	16.0	0.00e+00	0	44	0	764411904	63	4959
2026-01-13 00:20:02.80	250.42	52.63	-45.3	-48.2	16.4	0.00e+00	0	44	0	765460480	62	4932
2026-01-13 00:20:03.94	249.85	52.35	-44.9	-47.6	17.0	0.00e+00	0	44	0	767557632	61	4896
2026-01-13 00:20:04.79	249.43	52.14	-45.2	-48.1	16.5	0.00e+00	0	44	0	769654784	61	5177
2026-01-13 00:20:05.93	248.87	51.86	-45.8	-49.0	15.7	0.00e+00	0	44	0	771751936	62	5423
2026-01-13 00:20:06.78	248.46	51.65	-46.0	-49.2	15.6	0.00e+00	0	44	0	772800512	63	5247
2026-01-13 00:20:07.92	247.92	51.36	-45.2	-48.1	16.6	0.00e+00	0	43	0	774897664	62	4884
2026-01-13 00:20:08.77	247.53	51.15	-44.3	-46.8	17.8	0.00e+00	0	44	0	776994816	60	4749
2026-01-13 00:20:09.90	247.02	50.87	-44.7	-47.3	17.3	0.00e+00	0	44	0	779091968	60	5006
2026-01-13 00:20:10.76	246.63	50.65	-45.4	-48.3	16.4	0.00e+00	0	44	0	780140544	61	5295
2026-01-13 00:20:11.99	246.09	50.34	-46.7	-50.3	14.4	0.00e+00	0	44	0	783286272	64	5641
2026-01-13 00:20:12.84	245.72	50.12	-47.0	-50.8	13.8	2.20e-06	0	44	0	784334848	64	5978
2026-01-13 00:20:13.98	245.23	49.84	-47.3	-51.3	13.4	3.00e-06	0	44	0	786432000	65	5942
2026-01-13 00:20:14.83	244.88	49.62	-47.0	-50.8	13.9	3.00e-06	0	44	0	788529152	65	5595
2026-01-13 00:20:15.97	244.41	49.33	-46.8	-50.4	14.3	0.00e+00	0	44	0	790626304	64	5680
2026-01-13 00:20:16.82	244.06	49.12	-46.8	-50.3	14.4	7.00e-07	0	44	0	791674880	64	5601
2026-01-13 00:20:17.96	243.61	48.83	-47.4	-51.3	13.4	1.06e-05	0	43	0	793772032	65	5979
2026-01-13 00:20:18.81	243.28	48.61	-47.3	-51.3	13.3	1.06e-05	0	44	0	795869184	65	5949
2026-01-13 00:20:19.95	242.84	48.32	-48.9	-54.4	10.5	9.02e-04	0	44	0	797966336	68	7194
2026-01-13 00:20:20.80	242.51	48.11	-49.0	-54.9	9.8	7.55e-03	0	44	0	799014912	68	7566
2026-01-13 00:20:21.94	242.09	47.82	-48.6	-53.7	11.0	7.40e-03	0	44	0	801112064	69	6245
2026-01-13 00:20:22.79	241.78	47.61	-47.6	-51.9	12.8	4.39e-04	0	43	0	803209216	67	5678
2026-01-13 00:20:23.92	241.37	47.32	-47.4	-51.5	13.2	8.62e-05	0	44	0	805306368	66	5748
2026-01-13 00:20:24.77	241.06	47.11	-47.3	-51.3	13.3	2.13e-05	0	44	0	806354944	66	5647
2026-01-13 00:20:25.91	240.67	46.82	-47.2	-51.1	13.6	4.50e-06	0	44	0	808452096	66	5527
2026-01-13 00:20:26.77	240.37	46.60	-47.2	-51.2	13.4	1.22e-05	0	44	0	810549248	65	5867
2026-01-13 00:20:28.00	239.95	46.29	-47.3	-51.4	13.3	3.81e-05	0	44	0	812646400	65	5993
2026-01-13 00:20:28.85	239.67	46.08	-46.9	-50.6	13.9	2.51e-05	0	44	0	814743552	65	5466
2026-01-13 00:20:29.99	239.30	45.79	-46.8	-50.4	14.3	1.50e-06	0	43	0	816840704	65	5341
2026-01-13 00:20:30.84	239.02	45.58	-46.5	-49.9	14.8	7.00e-07	0	44	0	817889280	65	5072
2026-01-13 00:20:31.97	238.66	45.30	-46.6	-50.1	14.7	0.00e+00	0	44	0	819986432	64	5491
2026-01-13 00:20:32.83	238.40	45.09	-46.2	-49.4	15.2	0.00e+00	0	44	0	822083584	64	5082
2026-01-13 00:20:33.97	238.04	44.80	-46.9	-50.6	14.0	7.00e-07	0	44	0	824180736	64	5846
2026-01-13 00:20:34.82	237.79	44.59	-47.4	-51.5	13.1	1.90e-05	0	43	0	825229312	65	6109
2026-01-13 00:20:35.95	237.45	44.31	-47.6	-51.8	12.9	4.50e-05	0	44	0	827326464	66	5932
2026-01-13 00:20:36.81	237.20	44.10	-47.8	-52.1	12.7	4.34e-05	0	44	0	829423616	66	6169
2026-01-13 00:20:37.94	236.87	43.82	-47.3	-51.2	13.4	1.44e-05	0	44	0	831520768	66	5556
2026-01-13 00:20:38.79	236.63	43.62	-46.9	-50.4	14.2	2.20e-06	0	44	0	832569344	65	5389
2026-01-13 00:20:39.93	236.31	43.34	-46.7	-50.1	14.5	2.20e-06	0	44	0	835715072	65	5204
2026-01-13 00:20:40.78	236.07	43.13	-46.4	-49.6	15.0	0.00e+00	0	44	0	836763648	64	5197
2026-01-13 00:20:41.92	235.76	42.85	-46.8	-50.4	14.3	0.00e+00	0	44	0	838860800	64	5657
2026-01-13 00:20:42.78	235.53	42.65	-47.1	-50.8	13.8	7.00e-07	0	44	0	840957952	64	5985
2026-01-13 00:20:43.99	235.22	42.36	-46.9	-50.5	14.1	2.20e-06	0	44	0	843055104	65	5449
2026-01-13 00:20:44.85	234.99	42.15	-46.7	-50.3	14.2	7.00e-07	0	44	0	844103680	65	5289
2026-01-13 00:20:45.98	234.70	41.88	-46.3	-49.6	15.0	0.00e+00	0	44	0	846200832	64	5201
2026-01-13 00:20:46.83	234.49	41.68	-46.7	-50.1	14.5	0.00e+00	0	44	0	848297984	64	5506
2026-01-13 00:20:47.97	234.21	41.41	-46.8	-50.4	14.2	7.00e-07	0	44	0	850395136	64	5677
2026-01-13 00:20:48.82	234.00	41.21	-46.9	-50.7	13.9	7.00e-07	0	44	0	851443712	64	5863
2026-01-13 00:20:49.96	233.72	40.94	-47.1	-51.1	13.6	8.30e-06	0	44	0	853540864	65	5818
2026-01-13 00:20:50.81	233.52	40.74	-47.4	-51.8	12.8	1.98e-05	0	44	0	855638016	65	6295
2026-01-13 00:20:51.95	233.25	40.47	-47.3	-51.5	13.2	1.14e-05	0	44	0	857735168	65	6063
2026-01-13 00:20:52.80	233.06	40.27	-47.3	-51.5	13.1	5.03e-05	0	44	0	859832320	65	6078
2026-01-13 00:20:53.94	232.80	40.01	-47.7	-52.0	12.7	1.01e-04	0	44	0	861929472	66	6083
2026-01-13 00:20:54.79	232.61	39.81	-47.5	-51.6	13.0	5.87e-05	0	44	0	862978048	66	5817
2026-01-13 00:20:55.93	232.35	39.55	-47.2	-51.0	13.6	7.60e-06	0	44	0	865075200	66	5441
2026-01-13 00:20:56.78	232.17	39.36	-47.2	-51.0	13.6	4.50e-06	0	44	0	867172352	66	5436
2026-01-13 00:20:57.91	231.93	39.10	-47.4	-51.3	13.3	6.80e-06	0	44	0	869269504	66	5638
2026-01-13 00:20:58.77	231.74	38.91	-47.3	-51.1	13.5	9.10e-06	0	44	0	870318080	66	5520
2026-01-13 00:20:59.96	231.50	38.64	-47.2	-51.0	13.6	7.60e-06	0	44	0	872415232	65	5787
2026-01-13 00:21:00.81	231.32	38.45	-47.1	-50.9	13.6	1.22e-05	0	44	0	874512384	65	5665
2026-01-13 00:21:02.02	231.07	38.18	-47.3	-51.2	13.4	1.83e-05	0	44	0	876609536	66	5574
2026-01-13 00:21:02.87	230.90	37.99	-47.2	-51.0	13.6	3.00e-06	0	44	0	877658112	66	5447
2026-01-13 00:21:04.01	230.68	37.74	-47.6	-51.8	12.8	2.28e-05	0	44	0	880803840	66	5967
2026-01-13 00:21:04.86	230.51	37.55	-47.9	-52.3	12.3	4.34e-05	0	44	0	881852416	66	6288
2026-01-13 00:21:06.11	230.27	37.28	-47.5	-51.5	13.1	7.01e-05	0	44	0	883949568	66	5749
2026-01-13 00:21:06.96	230.11	37.09	-46.7	-50.2	14.4	4.50e-06	0	44	0	886046720	65	5259
2026-01-13 00:21:08.10	229.90	36.85	-46.6	-50.0	14.6	7.00e-07	0	44	0	888143872	65	5143
2026-01-13 00:21:08.95	229.74	36.66	-46.8	-50.3	14.3	0.00e+00	0	44	0	889192448	65	5322
2026-01-13 00:21:10.09	229.53	36.42	-47.0	-50.7	13.8	1.50e-06	0	44	0	891289600	65	5591
2026-01-13 00:21:11.04	229.36	36.22	-47.5	-51.6	13.0	2.36e-05	0	44	0	893386752	65	6201
2026-01-13 00:21:12.03	229.19	36.01	-48.0	-52.7	11.9	3.06e-04	0	44	0	895483904	66	6611
2026-01-13 00:21:13.03	229.01	35.79	-47.5	-51.7	12.8	8.85e-05	0	44	0	897581056	66	5913
2026-01-13 00:21:14.03	228.84	35.58	-47.2	-51.2	13.4	1.83e-05	0	44	0	899678208	66	5539
2026-01-13 00:21:15.02	228.67	35.38	-47.2	-51.1	13.5	1.37e-05	0	44	0	900726784	66	5518
2026-01-13 00:21:16.01	228.51	35.17	-47.5	-51.8	12.8	4.50e-05	0	44	0	902823936	66	5924
2026-01-13 00:21:17.01	228.34	34.96	-47.4	-51.4	13.2	1.06e-04	0	44	0	904921088	66	5696
2026-01-13 00:21:18.00	228.18	34.76	-47.4	-51.4	13.2	2.97e-05	0	44	0	907018240	66	5687
2026-01-13 00:21:18.99	228.02	34.56	-46.8	-50.4	14.3	3.80e-06	0	44	0	908066816	65	5365
2026-01-13 00:21:19.99	227.86	34.35	-46.2	-49.4	15.2	0.00e+00	0	44	0	910163968	64	5047
2026-01-13 00:21:20.99	227.70	34.15	-45.9	-49.0	15.7	0.00e+00	0	44	0	912261120	63	5104
2026-01-13 00:21:21.98	227.55	33.95	-46.2	-49.4	15.3	0.00e+00	0	43	0	914358272	63	5350
2026-01-13 00:21:22.98	227.39	33.75	-46.8	-50.5	14.1	1.50e-06	0	44	0	916455424	64	5723
2026-01-13 00:21:23.97	227.24	33.55	-47.0	-50.8	13.8	1.50e-06	0	44	0	917504000	64	5962
2026-01-13 00:21:24.97	227.09	33.35	-47.1	-50.9	13.7	6.10e-06	0	44	0	919601152	64	6058
2026-01-13 00:21:25.96	226.94	33.16	-46.8	-50.4	14.2	0.00e+00	0	44	0	921698304	64	5699
2026-01-13 00:21:26.96	226.80	32.96	-46.5	-49.9	14.6	0.00e+00	0	44	0	923795456	64	5391
2026-01-13 00:21:27.95	226.65	32.77	-46.3	-49.6	14.9	0.00e+00	0	44	0	924844032	64	5198
2026-01-13 00:21:28.94	226.51	32.58	-47.1	-51.0	13.6	0.00e+00	0	44	0	926941184	64	6082
2026-01-13 00:21:29.94	226.37	32.38	-47.7	-52.1	12.6	4.65e-05	0	44	0	929038336	65	6498
2026-01-13 00:21:30.93	226.23	32.19	-48.1	-53.0	11.6	2.01e-04	0	44	0	931135488	66	6869
2026-01-13 00:21:31.93	226.09	32.00	-47.9	-52.5	12.0	5.68e-04	0	44	0	933232640	67	6127
2026-01-13 00:21:32.92	225.96	31.81	-47.6	-51.9	12.7	6.56e-05	0	44	0	934281216	66	5995
2026-01-13 00:21:33.92	225.82	31.63	-46.7	-50.3	14.2	3.80e-06	0	44	0	936378368	65	5323
2026-01-13 00:21:34.93	225.69	31.44	-46.3	-49.7	14.8	0.00e+00	0	44	0	938475520	64	5255
2026-01-13 00:21:35.94	225.56	31.25	-46.5	-50.0	14.6	0.00e+00	0	44	0	940572672	64	5408
2026-01-13 00:21:36.93	225.43	31.06	-46.8	-50.4	14.2	7.00e-07	0	44	0	941621248	64	5677
2026-01-13 00:21:37.93	225.30	30.88	-46.9	-50.6	14.0	3.00e-06	0	44	0	943718400	64	5847
2026-01-13 00:21:38.93	225.17	30.69	-46.9	-50.6	14.0	4.50e-06	0	44	0	945815552	64	5835
2026-01-13 00:21:39.92	225.05	30.51	-46.7	-50.2	14.3	3.00e-06	0	44	0	947912704	64	5574
2026-01-13 00:21:40.92	224.92	30.33	-46.2	-49.5	14.9	0.00e+00	0	44	0	950009856	64	5136
2026-01-13 00:21:41.91	224.80	30.15	-46.3	-49.6	15.0	0.00e+00	0	44	0	951058432	63	5497
2026-01-13 00:21:42.91	224.68	29.97	-46.0	-49.2	15.4	0.00e+00	0	44	0	953155584	63	5266
2026-01-13 00:21:43.90	224.56	29.79	-46.4	-49.8	14.9	0.00e+00	0	44	0	955252736	63	5596
2026-01-13 00:21:44.89	224.45	29.62	-46.9	-50.6	13.9	1.50e-06	0	44	0	957349888	64	5824
2026-01-13 00:21:45.89	224.33	29.44	-47.3	-51.4	13.2	5.30e-06	0	44	0	958398464	65	5994
2026-01-13 00:21:46.88	224.21	29.27	-47.8	-52.3	12.3	1.10e-04	0	44	0	960495616	66	6328
2026-01-13 00:21:47.94	224.09	29.08	-47.6	-52.0	12.7	7.70e-05	0	44	0	962592768	66	6065
2026-01-13 00:21:48.84	223.99	28.92	-47.5	-51.7	12.9	3.12e-05	0	44	0	964689920	66	5875
2026-01-13 00:21:49.89	223.87	28.74	-47.0	-50.9	13.8	2.05e-05	0	44	0	966787072	66	5359
2026-01-13 00:21:50.97	223.75	28.56	-46.9	-50.7	13.9	6.10e-06	0	44	0	968884224	65	5530
2026-01-13 00:21:51.83	223.66	28.41	-46.8	-50.4	14.1	3.80e-06	0	44	0	969932800	65	5388
2026-01-13 00:21:52.97	223.53	28.21	-46.9	-50.7	13.8	3.80e-06	0	44	0	972029952	65	5563
2026-01-13 00:21:53.82	223.44	28.07	-47.0	-50.9	13.7	4.50e-06	0	44	0	974127104	65	5658
2026-01-13 00:21:54.95	223.32	27.88	-46.8	-50.5	14.1	1.50e-06	0	44	0	976224256	65	5420
2026-01-13 00:21:55.81	223.23	27.74	-46.7	-50.4	14.2	5.30e-06	0	44	0	977272832	65	5374
2026-01-13 00:21:56.94	223.11	27.55	-46.6	-50.2	14.4	0.00e+00	0	44	0	979369984	65	5219
2026-01-13 00:21:57.80	223.02	27.40	-46.5	-49.9	14.6	0.00e+00	0	44	0	981467136	64	5396
2026-01-13 00:21:58.93	222.91	27.22	-46.2	-49.5	15.1	0.00e+00	0	44	0	983564288	64	5129
2026-01-13 00:21:59.79	222.82	27.08	-46.1	-49.4	15.0	7.00e-07	0	44	0	984612864	64	5079
2026-01-13 00:22:00.99	222.70	26.88	-46.2	-49.6	15.1	0.00e+00	0	44	0	986710016	63	5468
2026-01-13 00:22:01.84	222.62	26.74	-46.3	-49.6	15.0	0.00e+00	0	44	0	988807168	63	5520
2026-01-13 00:22:02.98	222.51	26.56	-46.6	-50.2	14.4	0.00e+00	0	44	0	990904320	63	5906
2026-01-13 00:22:03.83	222.43	26.42	-46.8	-50.5	14.1	7.00e-07	0	44	0	993001472	64	5738
2026-01-13 00:22:05.09	222.31	26.22	-47.2	-51.3	13.3	4.50e-06	0	44	0	995098624	65	5940
2026-01-13 00:22:05.82	222.24	26.10	-47.2	-51.2	13.4	1.60e-05	0	44	0	996147200	65	5867
2026-01-13 00:22:07.10	222.12	25.90	-47.2	-51.3	13.3	1.75e-05	0	44	0	998244352	65	5942
2026-01-13 00:22:07.81	222.05	25.79	-47.2	-51.1	13.4	1.67e-05	0	44	0	1000341504	65	5834
2026-01-13 00:22:09.09	221.93	25.59	-47.1	-51.0	13.5	1.22e-05	0	44	0	1002438656	65	5772
2026-01-13 00:22:09.86	221.86	25.47	-47.0	-50.8	13.7	9.10e-06	0	44	0	1003487232	65	5623
2026-01-13 00:22:11.14	221.75	25.27	-47.1	-51.0	13.6	7.60e-06	0	44	0	1006632960	65	5770
2026-01-13 00:22:11.87	221.68	25.16	-47.0	-50.8	13.7	1.06e-05	0	44	0	1007681536	65	5647
2026-01-13 00:22:13.15	221.57	24.96	-47.2	-51.3	13.3	7.60e-06	0	44	0	1009778688	65	5928
2026-01-13 00:22:13.86	221.51	24.86	-47.2	-51.1	13.5	1.52e-05	0	44	0	1010827264	65	5810
2026-01-13 00:22:15.14	221.40	24.66	-47.2	-51.2	13.4	4.50e-06	0	44	0	1013972992	65	5863
2026-01-13 00:22:16.10	221.32	24.52	-47.0	-50.8	13.7	1.14e-05	0	44	0	1015021568	65	5641
2026-01-13 00:22:17.36	221.21	24.33	-46.8	-50.5	14.0	3.00e-06	0	44	0	1018167296	65	5447
2026-01-13 00:22:18.19	221.14	24.21	-46.5	-50.1	14.2	7.00e-07	0	44	0	1019215872	65	5163
2026-01-13 00:22:19.33	221.05	24.04	-46.5	-50.0	14.6	0.00e+00	0	44	0	1021313024	64	5419
2026-01-13 00:22:20.18	220.98	23.91	-46.5	-50.0	14.5	1.50e-06	0	44	0	1023410176	64	5411
2026-01-13 00:22:21.32	220.88	23.75	-46.3	-49.6	14.9	0.00e+00	0	44	0	1025507328	64	5215
2026-01-13 00:22:22.17	220.81	23.62	-46.4	-49.8	14.7	0.00e+00	0	44	0	1026555904	64	5326
2026-01-13 00:22:23.31	220.72	23.46	-46.5	-50.1	14.5	7.00e-07	0	44	0	1028653056	64	5467
2026-01-13 00:22:24.16	220.66	23.33	-46.5	-50.0	14.5	1.50e-06	0	44	0	1030750208	64	5418
2026-01-13 00:22:25.66	220.54	23.12	-46.5	-50.0	14.5	0.00e+00	0	44	0	1033895936	64	5464
2026-01-13 00:22:26.38	220.48	23.02	-46.4	-49.9	14.6	0.00e+00	0	44	0	1034944512	64	5355
2026-01-13 00:22:27.66	220.39	22.83	-46.2	-49.6	15.0	0.00e+00	0	44	0	1037041664	64	5165
2026-01-13 00:22:28.40	220.33	22.73	-46.1	-49.3	15.2	0.00e+00	0	44	0	1038090240	63	5337
2026-01-13 00:22:29.68	220.23	22.55	-46.1	-49.3	15.2	0.00e+00	0	44	0	1041235968	63	5333
2026-01-13 00:22:30.40	220.18	22.45	-45.8	-49.0	15.5	7.00e-07	0	44	0	1042284544	63	5120
2026-01-13 00:22:31.68	220.08	22.27	-45.8	-49.0	15.6	0.00e+00	0	44	0	1044381696	63	5103
2026-01-13 00:22:32.41	220.03	22.17	-45.8	-48.9	15.6	0.00e+00	0	44	0	1046478848	63	5092
2026-01-13 00:22:33.68	219.94	22.00	-45.8	-48.9	15.6	0.00e+00	0	44	0	1048576000	63	5069
2026-01-13 00:22:34.40	219.89	21.90	-45.9	-49.0	15.5	0.00e+00	0	44	0	1049624576	63	5155
2026-01-13 00:22:35.68	219.80	21.72	-45.9	-49.1	15.4	0.00e+00	0	44	0	1052770304	63	5210
2026-01-13 00:22:36.70	219.73	21.58	-46.2	-49.5	15.0	0.00e+00	0	44	0	1053818880	63	5430
2026-01-13 00:22:37.96	219.64	21.42	-46.4	-49.9	14.7	0.00e+00	0	44	0	1056964608	63	5675
2026-01-13 00:22:38.78	219.58	21.31	-46.7	-50.3	14.3	7.00e-07	0	44	0	1058013184	63	5947
2026-01-13 00:22:39.91	219.50	21.15	-46.8	-50.6	13.8	1.50e-06	0	44	0	1060110336	64	5820
2026-01-13 00:22:40.77	219.45	21.04	-46.9	-50.8	13.7	2.20e-06	0	44	0	1062207488	64	5957
2026-01-13 00:22:41.90	219.37	20.89	-47.2	-51.4	13.1	9.90e-06	0	44	0	1064304640	65	6017
2026-01-13 00:22:42.75	219.31	20.78	-47.1	-51.1	13.4	1.60e-05	0	44	0	1065353216	65	5848
2026-01-13 00:22:43.89	219.24	20.63	-47.3	-51.6	12.9	2.44e-05	0	44	0	1067450368	65	6149
2026-01-13 00:22:44.74	219.18	20.52	-47.4	-51.7	12.8	4.88e-05	0	44	0	1069547520	65	6248
2026-01-13 00:22:45.88	219.11	20.37	-47.2	-51.4	13.1	2.82e-05	0	44	0	1071644672	65	6022
2026-01-13 00:22:46.73	219.05	20.26	-47.1	-51.3	13.2	2.89e-05	0	44	0	1072693248	65	5956
2026-01-13 00:22:47.87	218.98	20.12	-47.1	-51.3	13.2	3.05e-05	0	44	0	1074790400	65	5926
2026-01-13 00:22:48.72	218.93	20.01	-47.0	-51.1	13.4	2.36e-05	0	44	0	1076887552	65	5822
2026-01-13 00:22:50.02	218.84	19.84	-46.9	-50.8	13.7	3.00e-06	0	44	0	1078984704	65	5637
2026-01-13 00:22:50.73	218.80	19.75	-47.0	-50.9	13.5	1.22e-05	0	44	0	1080033280	65	5714
2026-01-13 00:22:52.01	218.72	19.59	-46.6	-50.3	14.1	3.80e-06	0	44	0	1083179008	65	5337
2026-01-13 00:22:52.72	218.68	19.50	-46.5	-50.2	14.3	7.00e-07	0	44	0	1084227584	64	5561
2026-01-13 00:22:54.00	218.60	19.34	-46.5	-50.1	14.4	0.00e+00	0	44	0	1086324736	64	5477
2026-01-13 00:22:54.73	218.56	19.25	-46.3	-49.8	14.6	0.00e+00	0	44	0	1088421888	64	5311
2026-01-13 00:22:56.01	218.48	19.10	-46.1	-49.5	14.9	0.00e+00	0	44	0	1090519040	64	5137
2026-01-13 00:22:56.73	218.44	19.01	-46.1	-49.4	15.0	0.00e+00	0	44	0	1091567616	64	5080
2026-01-13 00:22:58.01	218.36	18.85	-45.9	-49.2	15.3	0.00e+00	0	44	0	1093664768	63	5225
2026-01-13 00:22:58.74	218.32	18.76	-45.9	-49.1	15.4	0.00e+00	0	44	0	1095761920	63	5176
2026-01-13 00:23:00.02	218.25	18.61	-45.6	-48.7	15.7	0.00e+00	0	44	0	1097859072	63	4975
2026-01-13 00:23:00.73	218.21	18.52	-45.5	-48.5	15.9	0.00e+00	0	44	0	1098907648	63	4845
2026-01-13 00:23:02.14	218.13	18.35	-45.5	-48.5	16.0	0.00e+00	0	44	0	1102053376	62	5125
2026-01-13 00:23:03.12	218.07	18.24	-45.5	-48.5	16.0	0.00e+00	0	44	0	1104150528	62	5110
2026-01-13 00:23:04.11	218.02	18.12	-45.2	-48.1	16.3	0.00e+00	0	44	0	1105199104	62	4909
2026-01-13 00:23:05.44	217.94	17.96	-45.4	-48.4	16.0	0.00e+00	0	44	0	1108344832	62	5076
2026-01-13 00:23:06.18	217.90	17.87	-45.4	-48.4	16.0	0.00e+00	0	44	0	1109393408	62	5064
2026-01-13 00:23:07.46	217.83	17.72	-45.4	-48.5	16.0	0.00e+00	0	44	0	1111490560	62	5108
2026-01-13 00:23:08.23	217.79	17.63	-45.6	-48.7	15.8	0.00e+00	0	44	0	1113587712	62	5221
2026-01-13 00:23:09.51	217.72	17.49	-45.8	-48.9	15.5	0.00e+00	0	44	0	1115684864	62	5383
2026-01-13 00:23:10.22	217.69	17.40	-45.8	-49.0	15.4	0.00e+00	0	44	0	1116733440	62	5440
2026-01-13 00:23:11.50	217.62	17.26	-45.9	-49.1	15.3	0.00e+00	0	44	0	1119879168	62	5500
2026-01-13 00:23:12.23	217.58	17.17	-46.0	-49.3	15.2	0.00e+00	0	44	0	1120927744	62	5597
2026-01-13 00:23:13.51	217.52	17.03	-46.2	-49.6	14.9	0.00e+00	0	44	0	1123024896	63	5489
2026-01-13 00:23:14.23	217.48	16.95	-46.2	-49.5	14.9	0.00e+00	0	44	0	1124073472	63	5453
2026-01-13 00:23:15.51	217.41	16.80	-46.3	-49.8	14.6	0.00e+00	0	44	0	1127219200	63	5633
2026-01-13 00:23:16.22	217.38	16.72	-46.4	-49.9	14.5	0.00e+00	0	44	0	1128267776	63	5680
2026-01-13 00:23:17.51	217.31	16.58	-46.4	-49.9	14.5	7.00e-07	0	44	0	1130364928	63	5703
2026-01-13 00:23:18.22	217.28	16.50	-46.3	-49.8	14.6	7.00e-07	0	44	0	1132462080	63	5645
2026-01-13 00:23:19.51	217.22	16.35	-46.4	-49.9	14.7	0.00e+00	0	44	0	1134559232	63	5688
2026-01-13 00:23:20.23	217.18	16.27	-46.4	-49.9	14.6	1.50e-06	0	44	0	1135607808	63	5686
2026-01-13 00:23:21.51	217.12	16.13	-46.3	-49.7	14.7	0.00e+00	0	44	0	1137704960	63	5563
2026-01-13 00:23:22.23	217.08	16.06	-46.5	-50.2	14.3	0.00e+00	0	44	0	1139802112	63	5858
2026-01-13 00:23:23.51	217.02	15.92	-46.3	-49.7	14.7	0.00e+00	0	44	0	1141899264	63	5574
2026-01-13 00:23:24.24	216.99	15.84	-46.3	-49.7	14.7	0.00e+00	0	44	0	1142947840	63	5555
2026-01-13 00:23:25.80	216.91	15.67	-46.4	-49.9	14.5	7.00e-07	0	44	0	1146093568	63	5709
2026-01-13 00:23:26.43	216.89	15.60	-46.4	-49.9	14.4	0.00e+00	0	44	0	1147142144	63	5719
2026-01-13 00:23:28.08	216.81	15.42	-46.5	-50.2	14.3	7.00e-07	0	44	0	1150287872	63	5866
2026-01-13 00:23:28.65	216.78	15.36	-46.5	-50.1	14.3	7.00e-07	0	44	0	1151336448	63	5789
2026-01-13 00:23:30.35	216.71	15.18	-46.6	-50.3	14.1	2.20e-06	0	44	0	1154482176	63	5984
2026-01-13 00:23:30.92	216.68	15.12	-46.7	-50.5	13.9	3.00e-06	0	44	0	1155530752	64	5726
2026-01-13 00:23:32.62	216.60	14.94	-46.7	-50.6	13.8	3.00e-06	0	44	0	1158676480	64	5792
2026-01-13 00:23:33.32	216.57	14.87	-46.7	-50.5	13.8	7.00e-07	0	44	0	1160773632	64	5723
2026-01-13 00:23:34.74	216.51	14.72	-46.9	-50.8	13.4	7.60e-06	0	44	0	1162870784	64	5983
2026-01-13 00:23:35.45	216.48	14.65	-46.8	-50.8	13.4	1.44e-05	0	44	0	1163919360	64	5954
2026-01-13 00:23:36.73	216.42	14.52	-47.0	-51.1	13.2	1.52e-05	0	44	0	1167065088	64	6158
2026-01-13 00:23:37.57	216.39	14.43	-47.1	-51.3	13.0	4.34e-05	0	44	0	1168113664	64	6346
2026-01-13 00:23:38.70	216.34	14.32	-47.0	-51.1	13.1	3.12e-05	0	44	0	1170210816	64	6189
2026-01-13 00:23:39.76	216.30	14.21	-47.1	-51.3	12.9	3.43e-05	0	44	0	1172307968	64	6344
2026-01-13 00:23:40.77	216.25	14.11	-47.2	-51.4	12.9	3.96e-05	0	44	0	1174405120	65	6027
2026-01-13 00:23:41.97	216.20	13.98	-47.0	-51.0	13.2	2.05e-05	0	44	0	1176502272	65	5783
2026-01-13 00:23:42.82	216.17	13.90	-46.9	-51.0	13.2	2.36e-05	0	44	0	1178599424	65	5767
2026-01-13 00:23:43.96	216.12	13.78	-46.9	-51.0	13.3	2.59e-05	0	44	0	1180696576	65	5738
2026-01-13 00:23:44.81	216.09	13.70	-46.8	-50.8	13.4	1.60e-05	0	44	0	1181745152	65	5643
2026-01-13 00:23:45.95	216.04	13.59	-46.6	-50.5	13.8	3.80e-06	0	44	0	1183842304	65	5415
2026-01-13 00:23:46.80	216.01	13.50	-46.6	-50.4	13.8	9.10e-06	0	44	0	1185939456	65	5363
2026-01-13 00:23:47.94	215.96	13.39	-46.5	-50.3	13.9	5.30e-06	0	44	0	1188036608	64	5640
2026-01-13 00:23:48.79	215.93	13.31	-46.4	-50.0	14.3	3.80e-06	0	44	0	1189085184	64	5454
2026-01-13 00:23:49.92	215.88	13.20	-46.4	-50.0	14.3	0.00e+00	0	44	0	1191182336	64	5434
2026-01-13 00:23:50.78	215.85	13.11	-46.1	-49.6	14.6	0.00e+00	0	44	0	1193279488	64	5174
2026-01-13 00:23:51.91	215.81	13.00	-46.1	-49.6	14.7	0.00e+00	0	44	0	1195376640	64	5167
2026-01-13 00:23:52.77	215.77	12.92	-46.0	-49.4	14.8	0.00e+00	0	44	0	1196425216	64	5077
2026-01-13 00:23:53.90	215.73	12.81	-46.0	-49.4	14.9	0.00e+00	0	44	0	1198522368	63	5371
2026-01-13 00:23:54.75	215.70	12.73	-46.1	-49.5	14.8	7.00e-07	0	44	0	1200619520	63	5439
2026-01-13 00:23:56.00	215.65	12.61	-45.9	-49.2	15.1	0.00e+00	0	44	0	1202716672	63	5234
2026-01-13 00:23:56.85	215.62	12.53	-46.0	-49.4	15.0	0.00e+00	0	44	0	1204813824	63	5381
2026-01-13 00:23:58.07	215.57	12.41	-45.9	-49.2	15.1	0.00e+00	0	44	0	1206910976	63	5245
2026-01-13 00:23:58.92	215.54	12.33	-45.8	-49.0	15.2	0.00e+00	0	44	0	1207959552	63	5139
2026-01-13 00:24:00.09	215.50	12.22	-46.0	-49.3	14.9	0.00e+00	0	44	0	1210056704	63	5325
2026-01-13 00:24:00.94	215.47	12.14	-45.8	-49.0	15.2	0.00e+00	0	44	0	1212153856	63	5149
2026-01-13 00:24:02.12	215.43	12.03	-45.8	-49.1	15.2	0.00e+00	0	44	0	1214251008	63	5179
2026-01-13 00:24:02.98	215.39	11.95	-46.0	-49.3	14.9	0.00e+00	0	44	0	1216348160	63	5323
2026-01-13 00:24:04.11	215.35	11.85	-45.9	-49.2	15.1	0.00e+00	0	44	0	1218445312	63	5253
2026-01-13 00:24:04.96	215.32	11.77	-46.0	-49.4	14.8	0.00e+00	0	44	0	1219493888	63	5358
2026-01-13 00:24:06.10	215.28	11.66	-46.0	-49.4	14.9	0.00e+00	0	44	0	1221591040	63	5368
2026-01-13 00:24:06.95	215.25	11.58	-46.0	-49.5	14.8	7.00e-07	0	44	0	1223688192	63	5420
2026-01-13 00:24:08.09	215.21	11.48	-46.2	-49.7	14.6	1.50e-06	0	44	0	1225785344	63	5565
2026-01-13 00:24:08.94	215.19	11.40	-46.3	-49.8	14.4	0.00e+00	0	44	0	1226833920	63	5649
2026-01-13 00:24:10.08	215.15	11.30	-46.3	-49.8	14.5	0.00e+00	0	44	0	1228931072	63	5630
2026-01-13 00:24:10.93	215.12	11.22	-46.4	-50.0	14.2	0.00e+00	0	44	0	1231028224	63	5754
2026-01-13 00:24:12.07	215.08	11.12	-46.3	-49.9	14.3	7.00e-07	0	44	0	1233125376	63	5716
2026-01-13 00:24:12.93	215.05	11.04	-46.4	-50.0	14.3	2.20e-06	0	44	0	1234173952	63	5739
2026-01-13 00:24:14.06	215.01	10.94	-46.5	-50.2	14.0	3.00e-06	0	44	0	1236271104	63	5898
2026-01-13 00:24:14.92	214.98	10.86	-46.6	-50.3	13.9	1.50e-06	0	44	0	1238368256	63	5948
2026-01-13 00:24:16.05	214.95	10.76	-46.5	-50.3	13.9	1.50e-06	0	44	0	1240465408	63	5924
2026-01-13 00:24:16.90	214.92	10.69	-46.6	-50.3	13.9	2.20e-06	0	44	0	1241513984	63	5968
2026-01-13 00:24:18.07	214.88	10.59	-46.6	-50.4	13.8	6.10e-06	0	44	0	1244659712	63	6026
2026-01-13 00:24:18.93	214.85	10.51	-46.6	-50.3	13.9	7.00e-07	0	44	0	1245708288	63	5967
2026-01-13 00:24:20.06	214.82	10.41	-46.6	-50.4	13.6	8.30e-06	0	44	0	1247805440	64	5717
2026-01-13 00:24:20.91	214.79	10.34	-46.6	-50.4	13.7	1.44e-05	0	44	0	1249902592	64	5692
