passes_logs/2026/01/13/T1/T1__20260113_100314_SUOMI_NPP_rec.log

#Pass ID: 20260113_100314_SUOMI NPP
#Satellite: SUOMI NPP
#Configuration: NPP
#almurnet v.1.7.20251203
#Start time: 2026-01-13 10:03:15

#Version: 2.0.20230620
#Station: T1
#Location: 37.570604 lon 55.790049 lat
#TLE: 1 37849U 11061A   26012.28456845  .00000093  00000+0  65163-4 0  9999
#TLE: 2 37849  98.7807 314.3566 0002508  68.3553 291.7890 14.19524725736322

#Time	Az	El	Level	Level2	SNR	BER	BlckErr	Temp	State	Recorded	gain1	gain2
2026-01-13 10:03:15.83	161.92	5.10	-49.8	-65.2	3.8	1.49e+00	0	39	0	0	71	20861
2026-01-13 10:03:16.81	161.92	5.18	-49.9	-65.3	3.8	1.49e+00	0	39	104	0	71	21098
2026-01-13 10:03:17.81	161.93	5.25	-49.9	-65.3	3.8	1.49e+00	0	39	104	0	71	21188
2026-01-13 10:03:18.80	161.93	5.32	-49.9	-65.3	3.8	1.49e+00	0	39	104	0	71	21207
2026-01-13 10:03:19.79	161.94	5.39	-49.9	-65.3	3.8	1.49e+00	0	39	104	0	71	21145
2026-01-13 10:03:20.79	161.94	5.46	-49.9	-65.3	3.8	1.49e+00	0	39	104	0	71	21133
2026-01-13 10:03:21.78	161.95	5.54	-49.8	-65.3	3.8	1.49e+00	0	39	104	0	71	21145
2026-01-13 10:03:22.77	161.95	5.61	-49.8	-65.3	3.8	1.49e+00	0	39	104	0	71	21107
2026-01-13 10:03:23.77	161.96	5.68	-49.8	-65.3	3.8	1.49e+00	0	39	104	0	71	21020
2026-01-13 10:03:24.76	161.96	5.76	-49.8	-65.2	3.8	1.49e+00	0	39	104	0	71	20858
2026-01-13 10:03:25.76	161.97	5.83	-49.8	-65.2	3.8	1.49e+00	0	39	104	0	71	20792
2026-01-13 10:03:26.75	161.97	5.90	-49.8	-65.0	3.8	1.49e+00	0	39	104	0	71	20455
2026-01-13 10:03:27.74	161.97	5.98	-49.8	-64.9	3.8	1.49e+00	0	39	104	0	71	20255
2026-01-13 10:03:28.74	161.98	6.05	-49.8	-64.8	3.8	1.49e+00	0	39	104	0	71	19988
2026-01-13 10:03:29.73	161.98	6.13	-49.8	-64.6	3.8	1.49e+00	0	39	104	0	71	19505
2026-01-13 10:03:30.72	161.99	6.20	-49.8	-64.3	3.8	1.49e+00	0	39	104	0	71	18943
2026-01-13 10:03:31.72	161.99	6.28	-49.8	-64.1	3.8	1.49e+00	0	39	104	0	71	18456
2026-01-13 10:03:32.71	162.00	6.35	-49.8	-63.9	3.8	1.49e+00	0	39	104	0	71	17924
2026-01-13 10:03:33.71	162.00	6.43	-49.7	-63.4	3.8	1.49e+00	0	39	104	0	71	17039
2026-01-13 10:03:34.70	162.01	6.50	-49.7	-62.7	4.0	1.48e+00	0	39	104	0	71	15746
2026-01-13 10:03:35.69	162.01	6.58	-49.7	-62.1	4.1	1.47e+00	0	40	104	0	71	14628
2026-01-13 10:03:36.68	162.02	6.65	-49.6	-61.6	3.9	1.40e+00	0	40	104	0	71	13815
2026-01-13 10:03:37.68	162.02	6.73	-49.5	-60.6	4.6	1.31e+00	0	39	0	0	71	12338
2026-01-13 10:03:38.67	162.03	6.81	-49.4	-59.9	4.9	8.54e-01	0	39	0	2097152	70	12040
2026-01-13 10:03:39.66	162.03	6.88	-49.4	-59.5	5.1	7.06e-01	0	40	0	4194304	70	11490
2026-01-13 10:03:40.66	162.04	6.96	-49.3	-58.9	5.5	5.63e-01	0	40	0	6291456	70	10668
2026-01-13 10:03:41.65	162.04	7.04	-49.2	-58.3	6.0	3.63e-01	0	40	0	8388608	70	9945
2026-01-13 10:03:42.64	162.05	7.11	-49.1	-57.7	6.4	3.18e-01	0	40	0	9437184	70	9313
2026-01-13 10:03:43.64	162.05	7.19	-48.9	-56.9	7.1	2.04e-01	0	40	0	11534336	69	8967
2026-01-13 10:03:44.63	162.06	7.27	-48.9	-56.8	7.2	1.32e-01	0	40	0	13631488	69	8871
2026-01-13 10:03:45.62	162.06	7.35	-48.7	-56.2	7.8	1.19e-01	0	40	0	15728640	69	8308
2026-01-13 10:03:46.62	162.07	7.42	-48.6	-55.7	8.3	6.11e-02	0	40	0	16777216	69	7813
2026-01-13 10:03:47.61	162.07	7.50	-48.5	-55.3	8.6	3.55e-02	0	40	0	18874368	69	7516
2026-01-13 10:03:48.61	162.08	7.58	-48.4	-54.8	9.1	6.18e-02	0	40	0	20971520	68	7537
2026-01-13 10:03:49.60	162.08	7.66	-48.3	-54.7	9.3	1.43e-02	0	40	0	23068672	68	7440
2026-01-13 10:03:50.59	162.09	7.74	-48.2	-54.5	9.5	1.86e-02	0	40	0	25165824	68	7210
2026-01-13 10:03:51.59	162.09	7.82	-48.2	-54.3	9.7	3.91e-02	0	40	0	26214400	68	7054
2026-01-13 10:03:52.58	162.10	7.90	-48.2	-54.2	9.7	1.18e-02	0	40	0	28311552	68	7024
2026-01-13 10:03:53.57	162.10	7.98	-48.2	-54.3	9.7	1.25e-02	0	40	0	30408704	68	7066
2026-01-13 10:03:54.57	162.11	8.06	-48.3	-54.6	9.4	1.49e-02	0	40	0	32505856	68	7290
2026-01-13 10:03:55.56	162.11	8.14	-48.5	-55.2	8.7	2.40e-02	0	40	0	33554432	68	7837
2026-01-13 10:03:56.56	162.12	8.22	-48.6	-55.4	8.5	3.86e-02	0	40	0	35651584	68	8067
2026-01-13 10:03:57.55	162.12	8.30	-48.8	-56.1	7.8	5.42e-02	0	40	0	37748736	68	8752
2026-01-13 10:03:58.54	162.13	8.38	-49.0	-57.2	6.9	1.17e-01	0	40	0	39845888	68	9849
2026-01-13 10:03:59.54	162.13	8.46	-49.2	-58.2	5.4	2.68e-01	0	40	0	41943040	69	10461
2026-01-13 10:04:00.53	162.14	8.55	-49.3	-59.1	5.4	4.64e-01	0	40	0	42991616	69	11594
2026-01-13 10:04:01.52	162.14	8.63	-49.5	-60.6	4.6	7.75e-01	0	40	0	45088768	69	13751
2026-01-13 10:04:02.52	162.15	8.71	-49.6	-62.1	3.9	1.28e+00	0	40	104	46137344	70	15432
2026-01-13 10:04:03.51	162.15	8.79	-49.8	-63.6	3.8	1.49e+00	0	40	104	46137344	70	18405
2026-01-13 10:04:04.50	162.16	8.88	-49.8	-64.5	3.8	1.49e+00	0	40	104	46137344	70	20505
2026-01-13 10:04:05.49	162.16	8.96	-49.8	-65.1	3.8	1.49e+00	0	40	104	46137344	71	20559
2026-01-13 10:04:06.49	162.17	9.04	-49.9	-65.0	3.8	1.49e+00	0	40	104	46137344	71	20489
2026-01-13 10:04:07.48	162.17	9.13	-49.7	-61.5	3.9	1.49e+00	0	40	104	46137344	71	13634
2026-01-13 10:04:08.48	162.18	9.21	-49.9	-65.0	3.8	3.89e-01	0	40	104	46137344	70	21559
2026-01-13 10:04:09.51	162.18	9.30	-49.7	-64.7	3.8	1.49e+00	0	40	104	46137344	70	21004
2026-01-13 10:04:10.50	162.19	9.38	-49.9	-65.1	3.8	1.49e+00	0	40	104	46137344	70	21968
2026-01-13 10:04:11.50	162.19	9.47	-49.9	-64.5	3.8	1.49e+00	0	40	104	46137344	71	19208
2026-01-13 10:04:12.49	162.20	9.55	-49.9	-64.4	3.8	1.49e+00	0	41	104	46137344	71	19006
2026-01-13 10:04:13.48	162.20	9.64	-49.9	-63.7	3.8	1.49e+00	0	40	104	46137344	71	17505
2026-01-13 10:04:14.48	162.21	9.72	-49.9	-64.1	3.8	1.49e+00	0	40	104	46137344	71	18319
2026-01-13 10:04:15.47	162.21	9.81	-49.9	-62.6	3.9	1.49e+00	0	40	104	46137344	71	15405
2026-01-13 10:04:16.47	162.22	9.90	-49.9	-62.4	4.1	9.84e-01	0	40	0	47185920	71	15084
2026-01-13 10:04:17.46	162.22	9.98	-50.0	-65.2	3.8	1.49e+00	0	41	104	47185920	71	20955
2026-01-13 10:04:18.46	162.23	10.07	-49.9	-64.1	3.8	1.49e+00	0	40	104	47185920	71	18423
2026-01-13 10:04:19.45	162.24	10.16	-49.9	-63.4	3.9	8.16e-02	0	41	0	47185920	70	17936
2026-01-13 10:04:20.45	162.24	10.25	-50.1	-65.2	3.8	1.49e+00	0	40	104	47185920	71	20976
2026-01-13 10:04:21.44	162.25	10.33	-48.5	-54.9	9.1	5.00e-02	0	41	0	47185920	69	7132
2026-01-13 10:04:22.44	162.25	10.42	-48.0	-53.5	10.7	7.71e-03	0	41	0	49283072	68	6459
2026-01-13 10:04:23.43	162.26	10.51	-47.7	-52.8	11.3	1.20e-03	0	41	0	51380224	67	6305
2026-01-13 10:04:24.43	162.26	10.60	-47.6	-52.5	11.5	9.12e-04	0	40	0	52428800	66	6460
2026-01-13 10:04:25.44	162.27	10.69	-47.8	-53.0	11.0	1.92e-03	0	41	0	54525952	66	6851
2026-01-13 10:04:26.46	162.27	10.78	-47.6	-52.6	11.4	1.20e-03	0	41	0	56623104	66	6544
2026-01-13 10:04:27.49	162.28	10.88	-47.5	-52.5	11.5	7.91e-04	0	41	0	58720256	66	6469
2026-01-13 10:04:28.49	162.29	10.97	-47.5	-52.6	11.5	4.58e-03	0	41	0	60817408	66	6496
2026-01-13 10:04:29.55	162.29	11.06	-47.4	-52.3	11.7	5.65e-04	0	41	0	61865984	66	6310
2026-01-13 10:04:30.40	162.30	11.14	-47.1	-51.8	12.3	4.52e-04	0	41	0	63963136	66	5942
2026-01-13 10:04:31.54	162.30	11.25	-47.2	-51.8	12.2	1.07e-03	0	41	0	66060288	66	5990
2026-01-13 10:04:32.39	162.31	11.32	-46.8	-51.2	12.9	8.54e-05	0	41	0	68157440	65	5893
2026-01-13 10:04:33.53	162.31	11.43	-46.7	-51.0	13.1	7.24e-05	0	41	0	70254592	65	5728
2026-01-13 10:04:34.38	162.32	11.51	-46.5	-50.6	13.5	2.44e-05	0	41	0	71303168	64	5803
2026-01-13 10:04:35.52	162.32	11.61	-46.6	-50.7	13.4	1.67e-05	0	41	0	73400320	64	5920
2026-01-13 10:04:36.38	162.33	11.69	-46.6	-50.7	13.4	1.75e-05	0	41	0	75497472	64	5915
2026-01-13 10:04:37.51	162.34	11.80	-46.4	-50.4	13.7	9.10e-06	0	41	0	77594624	64	5682
2026-01-13 10:04:38.37	162.34	11.88	-46.5	-50.5	13.6	6.80e-06	0	41	0	78643200	64	5775
2026-01-13 10:04:39.50	162.35	11.99	-46.4	-50.3	13.8	3.80e-06	0	41	0	80740352	64	5620
2026-01-13 10:04:40.36	162.35	12.07	-46.4	-50.3	13.8	4.50e-06	0	41	0	82837504	64	5633
2026-01-13 10:04:41.49	162.36	12.18	-46.4	-50.2	13.9	5.30e-06	0	41	0	84934656	64	5573
2026-01-13 10:04:42.35	162.36	12.26	-46.4	-50.2	13.9	4.50e-06	0	41	0	85983232	64	5547
2026-01-13 10:04:43.48	162.37	12.37	-46.4	-50.1	14.0	2.20e-06	0	41	0	88080384	64	5502
2026-01-13 10:04:44.42	162.38	12.46	-46.3	-50.0	14.1	3.80e-06	0	41	0	90177536	64	5445
2026-01-13 10:04:45.41	162.38	12.56	-46.2	-49.9	14.2	3.80e-06	0	41	0	92274688	64	5349
2026-01-13 10:04:46.40	162.39	12.65	-46.3	-50.0	14.2	7.00e-07	0	41	0	94371840	64	5418
2026-01-13 10:04:47.40	162.39	12.75	-46.2	-49.9	14.2	1.50e-06	0	41	0	95420416	64	5375
2026-01-13 10:04:48.39	162.40	12.85	-46.4	-50.2	14.0	7.00e-07	0	41	0	97517568	64	5555
2026-01-13 10:04:49.39	162.41	12.94	-46.4	-50.3	13.9	6.10e-06	0	41	0	99614720	64	5612
2026-01-13 10:04:50.38	162.41	13.04	-46.2	-49.9	14.3	3.80e-06	0	41	0	101711872	64	5352
2026-01-13 10:04:51.38	162.42	13.14	-46.3	-50.1	14.0	1.50e-06	0	41	0	102760448	64	5510
2026-01-13 10:04:52.37	162.42	13.24	-46.4	-50.2	14.0	1.50e-06	0	41	0	104857600	64	5537
2026-01-13 10:04:53.36	162.43	13.34	-46.3	-50.1	14.1	1.50e-06	0	41	0	106954752	64	5504
2026-01-13 10:04:54.36	162.44	13.44	-46.4	-50.2	14.0	1.50e-06	0	41	0	109051904	64	5554
2026-01-13 10:04:55.36	162.44	13.54	-46.5	-50.4	13.8	5.30e-06	0	41	0	111149056	64	5692
2026-01-13 10:04:56.35	162.45	13.64	-46.5	-50.3	13.9	3.80e-06	0	41	0	112197632	64	5639
2026-01-13 10:04:57.35	162.45	13.74	-46.5	-50.4	13.7	5.30e-06	0	41	0	114294784	64	5712
2026-01-13 10:04:58.34	162.46	13.84	-46.5	-50.4	13.8	2.20e-06	0	41	0	116391936	64	5659
2026-01-13 10:04:59.34	162.47	13.95	-46.4	-50.2	14.0	2.20e-06	0	41	0	118489088	64	5549
2026-01-13 10:05:00.54	162.47	14.07	-46.4	-50.2	14.0	4.50e-06	0	41	0	120586240	64	5578
2026-01-13 10:05:01.39	162.48	14.16	-46.2	-49.9	14.3	2.20e-06	0	41	0	121634816	64	5379
2026-01-13 10:05:02.53	162.49	14.28	-46.2	-49.8	14.4	1.50e-06	0	41	0	123731968	64	5312
2026-01-13 10:05:03.38	162.49	14.37	-46.1	-49.7	14.5	7.00e-07	0	41	0	125829120	64	5234
2026-01-13 10:05:04.52	162.50	14.49	-46.2	-49.8	14.5	0.00e+00	0	41	0	127926272	63	5594
2026-01-13 10:05:05.37	162.50	14.57	-45.9	-49.3	14.9	0.00e+00	0	41	0	128974848	63	5326
2026-01-13 10:05:06.51	162.51	14.70	-45.8	-49.2	15.1	0.00e+00	0	41	0	131072000	63	5239
2026-01-13 10:05:07.36	162.52	14.79	-45.8	-49.2	15.0	0.00e+00	0	41	0	133169152	63	5271
2026-01-13 10:05:08.50	162.52	14.91	-45.7	-49.0	15.2	0.00e+00	0	41	0	135266304	63	5129
2026-01-13 10:05:09.35	162.53	15.00	-45.6	-48.9	15.3	0.00e+00	0	41	0	137363456	63	5078
2026-01-13 10:05:10.49	162.54	15.12	-45.7	-49.0	15.3	0.00e+00	0	41	0	139460608	63	5129
2026-01-13 10:05:11.34	162.54	15.21	-45.7	-49.0	15.2	0.00e+00	0	41	0	140509184	63	5157
2026-01-13 10:05:12.48	162.55	15.34	-45.7	-49.0	15.3	0.00e+00	0	41	0	142606336	63	5130
2026-01-13 10:05:13.34	162.56	15.43	-45.6	-49.0	15.3	0.00e+00	0	41	0	144703488	63	5104
2026-01-13 10:05:14.57	162.56	15.57	-45.7	-49.1	15.2	0.00e+00	0	41	0	146800640	63	5171
2026-01-13 10:05:15.42	162.57	15.66	-45.8	-49.1	15.2	0.00e+00	0	41	0	147849216	63	5213
2026-01-13 10:05:16.56	162.58	15.78	-45.8	-49.1	15.2	0.00e+00	0	41	0	149946368	63	5193
2026-01-13 10:05:17.41	162.58	15.88	-45.8	-49.2	15.1	0.00e+00	0	41	0	152043520	63	5276
2026-01-13 10:05:18.55	162.59	16.01	-45.9	-49.3	15.0	0.00e+00	0	41	0	154140672	63	5315
2026-01-13 10:05:19.40	162.60	16.10	-45.8	-49.2	15.1	7.00e-07	0	41	0	156237824	63	5268
2026-01-13 10:05:20.54	162.60	16.23	-45.8	-49.2	15.1	0.00e+00	0	41	0	158334976	63	5259
2026-01-13 10:05:21.39	162.61	16.33	-45.8	-49.2	15.1	0.00e+00	0	41	0	159383552	63	5275
2026-01-13 10:05:22.52	162.62	16.45	-45.7	-49.1	15.2	0.00e+00	0	41	0	161480704	63	5209
2026-01-13 10:05:23.38	162.62	16.55	-45.7	-49.1	15.2	0.00e+00	0	41	0	163577856	63	5200
2026-01-13 10:05:24.52	162.63	16.68	-45.6	-48.8	15.5	0.00e+00	0	41	0	165675008	63	5037
2026-01-13 10:05:25.37	162.64	16.78	-45.6	-49.0	15.3	0.00e+00	0	41	0	166723584	63	5103
2026-01-13 10:05:26.50	162.64	16.91	-45.5	-48.7	15.6	0.00e+00	0	41	0	168820736	62	5234
2026-01-13 10:05:27.36	162.65	17.01	-45.4	-48.6	15.7	0.00e+00	0	41	0	170917888	62	5194
2026-01-13 10:05:28.50	162.66	17.15	-45.5	-48.7	15.6	0.00e+00	0	41	0	173015040	62	5272
2026-01-13 10:05:29.35	162.66	17.25	-45.5	-48.6	15.7	0.00e+00	0	41	0	174063616	62	5203
2026-01-13 10:05:30.50	162.67	17.38	-45.4	-48.5	15.8	0.00e+00	0	41	0	176160768	62	5129
2026-01-13 10:05:31.36	162.68	17.48	-45.3	-48.5	15.8	0.00e+00	0	41	0	178257920	62	5103
2026-01-13 10:05:32.49	162.69	17.62	-45.4	-48.5	15.9	0.00e+00	0	41	0	180355072	62	5115
2026-01-13 10:05:33.34	162.69	17.72	-45.4	-48.5	15.8	0.00e+00	0	41	0	181403648	62	5106
2026-01-13 10:05:34.70	162.70	17.88	-45.4	-48.5	15.8	0.00e+00	0	41	0	184549376	62	5146
2026-01-13 10:05:35.42	162.71	17.97	-45.5	-48.6	15.8	0.00e+00	0	41	0	185597952	62	5172
2026-01-13 10:05:36.70	162.72	18.13	-45.4	-48.5	15.8	0.00e+00	0	41	0	187695104	62	5133
2026-01-13 10:05:37.42	162.72	18.22	-45.4	-48.5	15.7	0.00e+00	0	41	0	189792256	62	5116
2026-01-13 10:05:38.70	162.73	18.37	-45.3	-48.4	15.9	0.00e+00	0	41	0	191889408	62	5076
2026-01-13 10:05:39.41	162.74	18.46	-45.3	-48.4	16.0	0.00e+00	0	41	0	192937984	62	5050
2026-01-13 10:05:40.69	162.75	18.62	-45.2	-48.1	16.2	1.73e-04	0	41	0	196083712	62	4925
2026-01-13 10:05:41.49	162.75	18.72	-45.3	-48.3	16.0	0.00e+00	0	41	0	197132288	62	5024
2026-01-13 10:05:42.66	162.76	18.87	-45.1	-48.2	16.2	0.00e+00	0	41	0	199229440	62	4928
2026-01-13 10:05:43.51	162.77	18.97	-45.2	-48.2	16.2	0.00e+00	0	41	0	201326592	62	4945
2026-01-13 10:05:44.65	162.78	19.12	-44.9	-47.8	16.5	0.00e+00	0	41	0	203423744	61	5034
2026-01-13 10:05:45.50	162.78	19.23	-44.9	-47.8	16.5	0.00e+00	0	41	0	204472320	61	5009
2026-01-13 10:05:46.64	162.79	19.37	-45.0	-48.0	16.3	0.00e+00	0	41	0	206569472	61	5114
2026-01-13 10:05:47.49	162.80	19.48	-44.9	-47.9	16.4	0.00e+00	0	41	0	208666624	61	5055
2026-01-13 10:05:48.63	162.81	19.63	-45.0	-48.0	16.3	0.00e+00	0	41	0	210763776	61	5103
2026-01-13 10:05:49.86	162.82	19.79	-45.0	-48.0	16.3	0.00e+00	0	41	0	212860928	61	5120
2026-01-13 10:05:50.71	162.82	19.90	-45.0	-47.9	16.4	0.00e+00	0	41	0	214958080	61	5077
2026-01-13 10:05:51.85	162.83	20.05	-45.1	-48.1	15.6	0.00e+00	0	41	0	217055232	61	5182
2026-01-13 10:05:52.70	162.84	20.16	-45.2	-48.2	16.1	0.00e+00	0	41	0	218103808	61	5262
2026-01-13 10:05:53.84	162.85	20.31	-45.1	-48.0	16.3	0.00e+00	0	41	0	220200960	61	5144
2026-01-13 10:05:54.70	162.85	20.43	-45.3	-48.3	11.0	0.00e+00	0	41	0	222298112	61	5287
2026-01-13 10:05:55.83	162.86	20.58	-45.1	-48.0	16.3	0.00e+00	0	41	0	224395264	61	5158
2026-01-13 10:05:56.68	162.87	20.69	-45.1	-48.1	16.3	0.00e+00	0	41	0	225443840	61	5171
2026-01-13 10:05:57.92	162.88	20.86	-45.1	-48.1	16.3	5.37e-03	0	41	0	227540992	61	5162
2026-01-13 10:05:58.77	162.89	20.98	-45.0	-47.9	16.4	0.00e+00	0	41	0	229638144	61	5072
2026-01-13 10:05:59.90	162.90	21.13	-45.2	-48.1	16.2	0.00e+00	0	41	0	231735296	61	5196
2026-01-13 10:06:00.76	162.90	21.25	-45.1	-48.0	16.3	1.44e-02	0	41	0	232783872	61	5115
2026-01-13 10:06:01.89	162.91	21.41	-45.1	-48.0	16.3	0.00e+00	0	41	0	235929600	61	5118
2026-01-13 10:06:02.74	162.92	21.53	-45.1	-48.1	16.2	0.00e+00	0	41	0	236978176	61	5184
2026-01-13 10:06:03.88	162.93	21.69	-45.1	-48.0	16.3	1.33e-02	0	41	0	239075328	61	5139
2026-01-13 10:06:04.80	162.94	21.82	-45.2	-48.2	16.2	0.00e+00	0	41	0	241172480	61	5273
2026-01-13 10:06:05.97	162.95	21.99	-45.3	-48.4	15.9	0.00e+00	0	41	0	243269632	61	5372
2026-01-13 10:06:06.82	162.95	22.11	-45.4	-48.6	15.8	0.00e+00	0	41	0	244318208	61	5466
2026-01-13 10:06:07.96	162.96	22.27	-45.5	-48.7	15.7	0.00e+00	0	41	0	246415360	61	5575
2026-01-13 10:06:08.81	162.97	22.39	-45.5	-48.7	15.7	0.00e+00	0	41	0	248512512	61	5535
2026-01-13 10:06:09.95	162.98	22.56	-45.5	-48.7	15.7	0.00e+00	0	41	0	250609664	61	5571
2026-01-13 10:06:10.80	162.99	22.68	-45.7	-49.0	15.4	0.00e+00	0	41	0	251658240	62	5424
2026-01-13 10:06:11.94	163.00	22.85	-45.7	-49.0	15.1	0.00e+00	0	41	0	254803968	62	5406
2026-01-13 10:06:12.79	163.01	22.98	-45.6	-48.8	15.7	0.00e+00	0	41	0	255852544	62	5331
2026-01-13 10:06:13.93	163.02	23.15	-45.7	-48.8	15.6	0.00e+00	0	41	0	257949696	62	5335
2026-01-13 10:06:14.78	163.02	23.27	-45.7	-48.9	15.5	0.00e+00	0	41	0	260046848	62	5390
2026-01-13 10:06:15.92	163.03	23.44	-45.8	-49.1	15.3	0.00e+00	0	41	0	262144000	62	5485
2026-01-13 10:06:16.77	163.04	23.57	-45.7	-48.9	15.5	0.00e+00	0	41	0	263192576	62	5374
2026-01-13 10:06:17.91	163.05	23.75	-45.7	-48.9	15.5	0.00e+00	0	41	0	265289728	62	5385
2026-01-13 10:06:18.76	163.06	23.88	-45.7	-49.0	15.5	0.00e+00	0	41	0	267386880	62	5439
2026-01-13 10:06:19.90	163.07	24.05	-45.8	-49.0	15.4	0.00e+00	0	41	0	269484032	62	5451
2026-01-13 10:06:20.75	163.08	24.18	-45.8	-49.0	15.3	0.00e+00	0	41	0	270532608	62	5461
2026-01-13 10:06:22.05	163.09	24.39	-45.9	-49.2	15.3	0.00e+00	0	41	0	273678336	62	5538
2026-01-13 10:06:22.76	163.10	24.50	-45.9	-49.3	15.1	0.00e+00	0	41	0	274726912	62	5634
2026-01-13 10:06:24.26	163.11	24.73	-46.2	-49.6	14.9	0.00e+00	0	42	0	277872640	62	5850
2026-01-13 10:06:24.97	163.12	24.85	-46.1	-49.5	15.0	7.00e-07	0	41	0	278921216	63	5419
2026-01-13 10:06:26.25	163.13	25.05	-46.0	-49.3	15.2	0.00e+00	0	41	0	281018368	63	5286
2026-01-13 10:06:26.96	163.14	25.16	-46.2	-49.6	14.9	7.00e-07	0	41	0	282066944	63	5482
2026-01-13 10:06:28.24	163.15	25.37	-46.0	-49.3	15.2	0.00e+00	0	41	0	285212672	63	5296
2026-01-13 10:06:28.95	163.16	25.49	-45.9	-49.2	15.3	0.00e+00	0	41	0	286261248	63	5222
2026-01-13 10:06:30.23	163.17	25.70	-46.0	-49.3	15.2	0.00e+00	0	41	0	288358400	63	5314
2026-01-13 10:06:30.96	163.18	25.82	-46.0	-49.3	15.1	0.00e+00	0	41	0	289406976	63	5315
2026-01-13 10:06:32.24	163.19	26.03	-46.0	-49.3	15.2	0.00e+00	0	41	0	292552704	63	5290
2026-01-13 10:06:32.96	163.20	26.15	-46.1	-49.4	15.0	0.00e+00	0	41	0	293601280	63	5375
2026-01-13 10:06:34.24	163.21	26.36	-46.1	-49.4	15.0	0.00e+00	0	41	0	295698432	63	5386
2026-01-13 10:06:34.95	163.22	26.48	-46.2	-49.6	14.9	0.00e+00	0	41	0	297795584	63	5465
2026-01-13 10:06:36.23	163.23	26.70	-46.3	-49.9	14.6	3.80e-06	0	41	0	299892736	63	5658
2026-01-13 10:06:36.94	163.24	26.82	-46.4	-49.9	14.5	1.22e-04	0	41	0	300941312	63	5711
2026-01-13 10:06:38.22	163.25	27.04	-46.4	-50.1	14.3	6.80e-06	0	42	0	303038464	63	5800
2026-01-13 10:06:39.17	163.26	27.21	-46.4	-50.0	14.4	3.00e-06	0	42	0	305135616	63	5780
2026-01-13 10:06:40.46	163.28	27.43	-46.3	-49.7	14.7	6.71e-05	0	41	0	307232768	63	5586
2026-01-13 10:06:41.19	163.29	27.56	-46.2	-49.5	14.9	2.05e-05	0	41	0	309329920	63	5445
2026-01-13 10:06:42.47	163.30	27.79	-45.9	-49.2	15.2	4.50e-06	0	41	0	311427072	63	5227
2026-01-13 10:06:43.29	163.31	27.93	-46.1	-49.4	15.0	1.14e-05	0	41	0	313524224	63	5383
2026-01-13 10:06:44.43	163.32	28.14	-46.1	-49.4	15.1	6.80e-06	0	41	0	315621376	63	5362
2026-01-13 10:06:45.28	163.33	28.29	-45.7	-48.9	15.5	3.16e-04	0	41	0	316669952	63	5046
2026-01-13 10:06:46.42	163.34	28.50	-46.0	-49.4	15.0	7.00e-07	0	41	0	318767104	63	5345
2026-01-13 10:06:47.27	163.35	28.65	-46.3	-49.9	14.6	2.20e-06	0	41	0	320864256	63	5666
2026-01-13 10:06:48.41	163.37	28.86	-46.2	-49.6	14.9	6.10e-06	0	42	0	322961408	63	5491
2026-01-13 10:06:49.26	163.38	29.02	-46.1	-49.5	14.9	3.80e-06	0	41	0	324009984	63	5428
2026-01-13 10:06:50.40	163.39	29.23	-46.2	-49.7	14.8	0.00e+00	0	41	0	326107136	63	5534
2026-01-13 10:06:51.25	163.40	29.39	-46.3	-49.8	14.7	0.00e+00	0	41	0	328204288	63	5600
2026-01-13 10:06:52.39	163.41	29.61	-46.3	-49.7	14.8	0.00e+00	0	42	0	330301440	63	5539
2026-01-13 10:06:53.24	163.42	29.77	-46.1	-49.4	15.1	7.00e-07	0	42	0	331350016	63	5379
2026-01-13 10:06:54.38	163.44	29.99	-46.1	-49.5	15.0	0.00e+00	0	42	0	333447168	63	5415
2026-01-13 10:06:55.26	163.45	30.16	-46.1	-49.4	15.1	0.00e+00	0	42	0	335544320	63	5377
2026-01-13 10:06:56.40	163.46	30.38	-46.1	-49.5	15.0	7.00e-07	0	41	0	337641472	63	5452
2026-01-13 10:06:57.25	163.47	30.54	-46.0	-49.2	15.2	0.00e+00	0	41	0	339738624	63	5276
2026-01-13 10:06:58.39	163.49	30.77	-46.3	-49.8	14.6	0.00e+00	0	41	0	341835776	63	5654
2026-01-13 10:06:59.42	163.50	30.97	-46.4	-49.9	14.6	0.00e+00	0	41	0	342884352	63	5707
2026-01-13 10:07:00.42	163.51	31.17	-46.4	-49.9	14.6	0.00e+00	0	42	0	344981504	63	5710
2026-01-13 10:07:01.41	163.52	31.37	-46.7	-50.5	13.9	7.00e-07	0	42	0	347078656	64	5754
2026-01-13 10:07:02.40	163.54	31.57	-46.5	-50.2	14.2	0.00e+00	0	41	0	349175808	64	5552
2026-01-13 10:07:03.40	163.55	31.77	-46.4	-50.0	14.4	7.00e-07	0	41	0	351272960	64	5426
2026-01-13 10:07:04.39	163.56	31.98	-46.5	-50.0	14.4	1.50e-06	0	42	0	352321536	64	5447
2026-01-13 10:07:05.39	163.58	32.18	-46.5	-50.0	14.4	2.20e-06	0	41	0	354418688	64	5447
2026-01-13 10:07:06.38	163.59	32.39	-46.5	-50.0	14.4	0.00e+00	0	41	0	356515840	64	5460
2026-01-13 10:07:07.38	163.60	32.60	-46.5	-50.1	14.3	3.00e-06	0	41	0	358612992	64	5510
2026-01-13 10:07:08.37	163.62	32.81	-46.7	-50.4	14.1	1.50e-06	0	41	0	359661568	64	5684
2026-01-13 10:07:09.38	163.63	33.02	-47.0	-50.9	13.5	6.80e-06	0	41	0	361758720	64	6043
2026-01-13 10:07:10.38	163.65	33.23	-47.0	-51.0	13.6	6.10e-06	0	42	0	363855872	64	6074
2026-01-13 10:07:11.44	163.66	33.46	-46.9	-50.8	13.4	1.29e-05	0	41	0	365953024	65	5594
2026-01-13 10:07:12.32	163.67	33.65	-47.2	-51.3	13.1	3.96e-05	0	42	0	367001600	65	5989
2026-01-13 10:07:13.46	163.69	33.90	-47.2	-51.3	13.2	2.05e-05	0	41	0	369098752	65	5951
2026-01-13 10:07:14.31	163.70	34.09	-46.9	-50.8	13.7	6.80e-06	0	42	0	371195904	65	5637
2026-01-13 10:07:15.45	163.72	34.34	-46.6	-50.3	14.1	7.00e-07	0	41	0	373293056	65	5313
2026-01-13 10:07:16.30	163.73	34.53	-46.2	-49.6	14.8	1.50e-06	0	41	0	375390208	64	5199
2026-01-13 10:07:17.44	163.75	34.79	-46.0	-49.3	15.2	0.00e+00	0	42	0	377487360	64	4999
2026-01-13 10:07:18.29	163.76	34.98	-46.0	-49.2	15.3	0.00e+00	0	42	0	378535936	63	5249
2026-01-13 10:07:19.43	163.78	35.24	-45.8	-48.9	15.5	0.00e+00	0	42	0	380633088	63	5093
2026-01-13 10:07:20.28	163.79	35.43	-45.7	-48.8	15.7	0.00e+00	0	42	0	382730240	63	4992
2026-01-13 10:07:21.42	163.81	35.70	-45.6	-48.7	15.9	0.00e+00	0	42	0	384827392	63	4929
2026-01-13 10:07:22.27	163.82	35.90	-45.6	-48.7	15.9	0.00e+00	0	42	0	385875968	63	4939
2026-01-13 10:07:23.41	163.84	36.16	-45.2	-48.1	16.4	0.00e+00	0	41	0	387973120	62	4910
2026-01-13 10:07:24.26	163.86	36.36	-45.2	-48.1	16.4	0.00e+00	0	42	0	390070272	62	4924
2026-01-13 10:07:25.40	163.88	36.63	-44.8	-47.6	16.8	0.00e+00	0	42	0	392167424	61	4924
2026-01-13 10:07:26.25	163.89	36.84	-45.0	-47.9	16.6	0.00e+00	0	42	0	393216000	61	5051
2026-01-13 10:07:27.50	163.91	37.14	-44.9	-47.8	16.7	0.00e+00	0	42	0	396361728	61	5010
2026-01-13 10:07:28.35	163.93	37.35	-44.9	-47.8	16.7	0.00e+00	0	41	0	397410304	61	5008
2026-01-13 10:07:29.49	163.95	37.63	-45.2	-48.2	16.3	0.00e+00	0	42	0	399507456	61	5229
2026-01-13 10:07:30.34	163.96	37.84	-44.9	-47.8	16.7	0.00e+00	0	42	0	401604608	61	4988
2026-01-13 10:07:31.48	163.98	38.12	-45.0	-47.9	16.6	0.00e+00	0	42	0	403701760	61	5063
2026-01-13 10:07:32.36	164.00	38.34	-45.1	-48.0	16.5	0.00e+00	0	42	0	404750336	61	5146
2026-01-13 10:07:33.50	164.02	38.63	-44.8	-47.6	16.9	0.00e+00	0	42	0	406847488	61	4885
2026-01-13 10:07:34.36	164.03	38.85	-44.6	-47.3	17.1	0.00e+00	0	42	0	408944640	61	4755
2026-01-13 10:07:35.49	164.06	39.14	-44.4	-47.0	17.2	0.00e+00	0	41	0	411041792	61	4591
2026-01-13 10:07:36.35	164.07	39.36	-44.5	-47.1	17.4	0.00e+00	0	41	0	412090368	60	4887
2026-01-13 10:07:37.49	164.09	39.66	-44.7	-47.3	17.1	0.00e+00	0	42	0	414187520	60	5037
2026-01-13 10:07:38.34	164.11	39.88	-44.6	-47.3	17.0	0.00e+00	0	42	0	416284672	60	5034
2026-01-13 10:07:39.47	164.13	40.18	-44.7	-47.4	17.0	0.00e+00	0	42	0	418381824	60	5084
2026-01-13 10:07:40.33	164.15	40.41	-44.7	-47.4	17.0	0.00e+00	0	41	0	419430400	60	5098
2026-01-13 10:07:41.46	164.17	40.71	-45.0	-47.8	16.7	0.00e+00	0	42	0	422576128	60	5323
2026-01-13 10:07:42.31	164.19	40.94	-44.7	-47.4	17.0	0.00e+00	0	42	0	423624704	60	5076
2026-01-13 10:07:43.45	164.21	41.25	-44.8	-47.5	16.9	0.00e+00	0	42	0	425721856	60	5139
2026-01-13 10:07:44.30	164.23	41.48	-44.9	-47.6	16.9	0.00e+00	0	41	0	427819008	60	5218
2026-01-13 10:07:45.44	164.26	41.80	-44.9	-47.7	16.8	0.00e+00	0	42	0	429916160	60	5240
2026-01-13 10:07:46.29	164.28	42.03	-44.9	-47.7	16.8	0.00e+00	0	42	0	430964736	60	5242
2026-01-13 10:07:47.50	164.30	42.37	-44.9	-47.6	16.9	0.00e+00	0	42	0	433061888	61	4917
2026-01-13 10:07:48.36	164.32	42.61	-45.0	-47.8	16.7	0.00e+00	0	42	0	435159040	61	5012
2026-01-13 10:07:49.49	164.35	42.94	-45.0	-47.7	16.8	0.00e+00	0	42	0	437256192	61	4981
2026-01-13 10:07:50.35	164.37	43.18	-45.2	-48.0	16.6	0.00e+00	0	42	0	438304768	61	5127
2026-01-13 10:07:51.61	164.40	43.55	-45.0	-47.7	16.6	0.00e+00	0	42	0	441450496	61	4978
2026-01-13 10:07:52.37	164.42	43.77	-45.1	-47.9	16.6	0.00e+00	0	42	0	442499072	61	5071
2026-01-13 10:07:53.65	164.45	44.14	-45.2	-47.9	16.6	0.00e+00	0	42	0	444596224	61	5095
2026-01-13 10:07:54.38	164.46	44.36	-45.1	-47.8	16.7	0.00e+00	0	42	0	446693376	61	5003
2026-01-13 10:07:55.66	164.50	44.74	-45.4	-48.3	16.2	0.00e+00	0	42	0	448790528	61	5313
2026-01-13 10:07:56.38	164.52	44.96	-45.8	-48.8	15.8	0.00e+00	0	42	0	449839104	62	5322
2026-01-13 10:07:57.66	164.55	45.35	-46.2	-49.4	15.2	0.00e+00	0	42	0	452984832	63	5342
2026-01-13 10:07:58.39	164.57	45.57	-46.5	-49.9	14.6	7.00e-07	0	42	0	454033408	63	5721
2026-01-13 10:07:59.67	164.60	45.96	-46.8	-50.5	13.9	3.00e-06	0	42	0	456130560	64	5788
2026-01-13 10:08:00.38	164.62	46.18	-46.6	-50.1	14.4	0.00e+00	0	42	0	457179136	64	5479
2026-01-13 10:08:01.66	164.66	46.58	-46.7	-50.3	14.2	3.80e-06	0	42	0	460324864	64	5640
2026-01-13 10:08:02.38	164.68	46.81	-46.7	-50.3	14.2	0.00e+00	0	42	0	461373440	64	5642
2026-01-13 10:08:03.66	164.71	47.21	-46.7	-50.2	14.3	7.00e-07	0	41	0	463470592	64	5549
2026-01-13 10:08:04.37	164.74	47.44	-46.7	-50.3	14.3	1.50e-06	0	42	0	465567744	64	5627
2026-01-13 10:08:05.65	164.77	47.85	-47.2	-51.2	13.3	6.80e-06	0	41	0	467664896	65	5885
2026-01-13 10:08:06.66	164.80	48.18	-47.3	-51.2	13.3	1.67e-05	0	42	0	469762048	65	5918
2026-01-13 10:08:07.97	164.85	48.61	-47.4	-51.6	13.0	3.66e-05	0	42	0	471859200	65	6133
2026-01-13 10:08:08.68	164.87	48.84	-47.3	-51.4	13.2	2.51e-05	0	41	0	472907776	65	6027
2026-01-13 10:08:10.29	164.92	49.37	-47.1	-51.1	13.4	7.60e-06	0	42	0	476053504	65	5834
2026-01-13 10:08:10.88	164.94	49.57	-46.8	-50.4	14.2	2.20e-06	0	42	0	477102080	65	5372
2026-01-13 10:08:12.44	164.99	50.10	-46.8	-50.5	14.0	3.00e-06	0	41	0	480247808	65	5444
2026-01-13 10:08:13.07	165.01	50.31	-46.5	-50.1	14.5	7.00e-07	0	42	0	481296384	65	5171
2026-01-13 10:08:14.58	165.07	50.83	-46.3	-49.7	14.8	0.00e+00	0	42	0	484442112	64	5243
2026-01-13 10:08:15.28	165.09	51.07	-46.1	-49.5	15.1	0.00e+00	0	42	0	485490688	64	5117
2026-01-13 10:08:16.57	165.14	51.52	-45.9	-49.1	15.5	0.00e+00	0	42	0	487587840	63	5176
2026-01-13 10:08:17.31	165.17	51.78	-45.7	-48.8	15.8	0.00e+00	0	41	0	489684992	63	5001
2026-01-13 10:08:18.59	165.22	52.24	-45.3	-48.1	16.4	0.00e+00	0	42	0	491782144	62	4922
2026-01-13 10:08:19.50	165.26	52.56	-45.4	-48.3	16.3	0.00e+00	0	41	0	493879296	62	4990
2026-01-13 10:08:20.50	165.30	52.92	-44.9	-47.6	16.9	0.00e+00	0	41	0	494927872	61	4891
2026-01-13 10:08:21.49	165.34	53.28	-44.7	-47.3	17.1	0.00e+00	0	42	0	497025024	61	4754
2026-01-13 10:08:22.49	165.38	53.64	-44.7	-47.3	17.1	0.00e+00	0	41	0	499122176	61	4754
2026-01-13 10:08:23.49	165.42	54.01	-44.8	-47.5	17.0	0.00e+00	0	41	0	501219328	61	4842
2026-01-13 10:08:24.48	165.47	54.37	-45.2	-48.2	16.2	0.00e+00	0	42	0	503316480	61	5234
2026-01-13 10:08:25.47	165.51	54.74	-45.7	-48.9	15.8	0.00e+00	0	42	0	504365056	61	5662
2026-01-13 10:08:26.47	165.56	55.12	-45.4	-48.5	16.1	0.00e+00	0	42	0	506462208	62	5104
2026-01-13 10:08:27.50	165.61	55.51	-45.0	-47.8	16.7	0.00e+00	0	41	0	508559360	62	4725
2026-01-13 10:08:28.49	165.66	55.88	-44.4	-47.0	17.5	0.00e+00	0	42	0	510656512	60	4856
2026-01-13 10:08:29.56	165.71	56.29	-44.2	-46.8	17.7	0.00e+00	0	42	0	512753664	60	4718
2026-01-13 10:08:30.42	165.75	56.62	-44.0	-46.4	18.0	0.00e+00	0	42	0	513802240	60	4542
2026-01-13 10:08:31.56	165.82	57.06	-44.3	-46.9	17.4	0.00e+00	0	42	0	515899392	59	5066
2026-01-13 10:08:32.41	165.86	57.40	-44.3	-46.8	17.6	0.00e+00	0	42	0	517996544	59	5002
2026-01-13 10:08:33.54	165.92	57.84	-44.6	-47.3	17.2	0.00e+00	0	42	0	520093696	60	5025
2026-01-13 10:08:34.40	165.97	58.18	-45.1	-47.9	16.7	0.00e+00	0	42	0	521142272	60	5360
2026-01-13 10:08:35.53	166.04	58.63	-45.5	-48.5	16.1	0.00e+00	0	42	0	523239424	61	5447
2026-01-13 10:08:36.39	166.09	58.98	-45.9	-49.1	15.6	0.00e+00	0	42	0	525336576	62	5497
2026-01-13 10:08:37.52	166.16	59.43	-45.6	-48.5	16.1	0.00e+00	0	42	0	527433728	62	5142
2026-01-13 10:08:38.38	166.22	59.78	-44.9	-47.7	16.9	0.00e+00	0	42	0	528482304	61	4941
2026-01-13 10:08:39.51	166.29	60.24	-44.5	-47.1	17.5	0.00e+00	0	41	0	530579456	60	4879
2026-01-13 10:08:40.37	166.35	60.60	-44.3	-46.9	17.6	0.00e+00	0	42	0	532676608	60	4790
2026-01-13 10:08:41.50	166.43	61.07	-44.0	-46.5	17.9	0.00e+00	0	42	0	534773760	60	4546
2026-01-13 10:08:42.36	166.49	61.42	-43.7	-46.1	18.2	0.00e+00	0	42	0	535822336	59	4647
2026-01-13 10:08:43.57	166.59	61.93	-43.3	-45.6	18.7	0.00e+00	0	42	0	538968064	58	4620
2026-01-13 10:08:44.42	166.65	62.29	-42.9	-45.0	19.1	0.00e+00	0	42	0	540016640	57	4598
2026-01-13 10:08:45.64	166.75	62.81	-42.7	-44.8	19.3	0.00e+00	0	42	0	542113792	57	4488
2026-01-13 10:08:46.49	166.82	63.17	-43.0	-45.2	19.0	0.00e+00	0	42	0	544210944	57	4702
2026-01-13 10:08:47.63	166.92	63.66	-43.1	-45.3	19.0	0.00e+00	0	42	0	546308096	57	4729
2026-01-13 10:08:48.48	167.00	64.03	-43.3	-45.6	18.7	0.00e+00	0	42	0	547356672	57	4908
2026-01-13 10:08:49.62	167.10	64.52	-43.6	-46.0	18.4	0.00e+00	0	42	0	549453824	57	5108
2026-01-13 10:08:50.53	167.19	64.92	-43.9	-46.4	18.1	0.00e+00	0	42	0	551550976	58	5065
2026-01-13 10:08:51.53	167.29	65.36	-44.2	-46.8	17.6	0.00e+00	0	42	0	553648128	59	5012
2026-01-13 10:08:52.52	167.39	65.80	-44.3	-46.8	17.6	0.00e+00	0	42	0	555745280	59	5013
2026-01-13 10:08:53.52	167.50	66.24	-44.4	-46.9	17.5	0.00e+00	0	42	0	556793856	59	5083
2026-01-13 10:08:54.51	167.61	66.69	-45.1	-47.9	16.7	0.00e+00	0	42	0	558891008	60	5369
2026-01-13 10:08:55.50	167.73	67.13	-45.2	-48.1	16.6	0.00e+00	0	42	0	560988160	61	5174
2026-01-13 10:08:56.50	167.85	67.58	-45.1	-47.8	16.7	0.00e+00	0	42	0	563085312	61	5036
2026-01-13 10:08:57.49	167.97	68.03	-45.6	-48.5	16.1	0.00e+00	0	42	0	565182464	61	5462
2026-01-13 10:08:58.49	168.11	68.49	-46.7	-50.4	14.2	0.00e+00	0	42	0	566231040	64	5666
2026-01-13 10:08:59.48	168.24	68.94	-48.0	-52.7	11.9	3.66e-05	0	42	0	568328192	66	6604
2026-01-13 10:09:00.48	168.39	69.40	-48.5	-53.6	10.9	1.46e-03	0	42	0	570425344	67	6941
2026-01-13 10:09:01.47	168.54	69.86	-47.6	-51.8	12.8	5.84e-04	0	42	0	572522496	67	5600
2026-01-13 10:09:02.47	168.70	70.33	-47.4	-51.5	13.1	1.08e-04	0	42	0	573571072	66	5768
2026-01-13 10:09:03.46	168.86	70.79	-47.6	-51.9	12.6	6.79e-05	0	42	0	575668224	66	6021
2026-01-13 10:09:04.46	169.04	71.26	-47.5	-51.6	13.0	9.61e-05	0	42	0	577765376	66	5830
2026-01-13 10:09:05.45	169.23	71.72	-47.5	-51.6	13.0	4.65e-05	0	42	0	579862528	66	5832
2026-01-13 10:09:06.45	169.42	72.19	-47.2	-51.0	13.7	2.67e-05	0	42	0	581959680	66	5445
2026-01-13 10:09:07.44	169.63	72.66	-46.4	-49.8	14.8	1.50e-06	0	42	0	583008256	64	5284
2026-01-13 10:09:08.43	169.84	73.14	-46.0	-49.0	15.5	0.00e+00	0	42	0	585105408	63	5136
2026-01-13 10:09:09.43	170.07	73.61	-45.3	-48.1	16.6	0.00e+00	0	42	0	587202560	62	4878
2026-01-13 10:09:10.42	170.32	74.09	-45.4	-48.2	16.4	0.00e+00	0	42	0	589299712	62	4943
2026-01-13 10:09:11.42	170.58	74.57	-45.7	-48.6	16.0	0.00e+00	0	42	0	590348288	62	5192
2026-01-13 10:09:12.41	170.86	75.05	-46.6	-50.0	14.7	0.00e+00	0	42	0	592445440	63	5748
2026-01-13 10:09:13.41	171.16	75.53	-47.2	-51.1	13.6	6.10e-06	0	42	0	594542592	65	5792
2026-01-13 10:09:14.40	171.47	76.01	-47.4	-51.4	13.1	1.22e-05	0	42	0	596639744	65	6048
2026-01-13 10:09:15.39	171.81	76.49	-47.8	-52.2	12.4	7.32e-05	0	42	0	598736896	66	6255
2026-01-13 10:09:16.39	172.18	76.98	-47.2	-51.0	13.6	2.36e-05	0	42	0	599785472	66	5461
2026-01-13 10:09:17.42	172.59	77.48	-45.6	-48.6	15.9	0.00e+00	0	42	0	601882624	63	4891
2026-01-13 10:09:18.48	173.05	78.00	-45.7	-48.6	16.0	0.00e+00	0	42	0	603979776	62	5212
2026-01-13 10:09:19.36	173.46	78.43	-46.6	-50.1	14.5	0.00e+00	0	42	0	606076928	63	5818
2026-01-13 10:09:20.49	174.04	78.99	-47.1	-51.0	13.6	2.89e-05	0	42	0	608174080	65	5743
2026-01-13 10:09:21.35	174.53	79.41	-46.7	-50.2	14.4	1.50e-06	0	42	0	609222656	65	5252
2026-01-13 10:09:22.48	175.22	79.97	-46.7	-50.2	14.3	3.80e-06	0	42	0	611319808	65	5245
2026-01-13 10:09:23.34	175.80	80.39	-46.7	-50.2	14.3	0.00e+00	0	42	0	613416960	65	5266
2026-01-13 10:09:24.47	176.66	80.94	-46.4	-49.8	14.7	0.00e+00	0	42	0	615514112	64	5320
2026-01-13 10:09:25.33	177.38	81.37	-47.6	-51.7	12.9	9.10e-06	0	42	0	616562688	65	6254
2026-01-13 10:09:26.46	178.44	81.92	-48.4	-53.4	11.2	4.97e-04	0	42	0	618659840	67	6762
2026-01-13 10:09:27.31	179.34	82.33	-48.5	-53.7	10.7	2.17e-03	0	42	0	620756992	67	7016
2026-01-13 10:09:28.45	180.72	82.89	-48.5	-53.7	10.9	3.89e-03	0	42	0	622854144	68	6606
2026-01-13 10:09:29.30	181.89	83.30	-48.0	-52.7	11.9	7.32e-04	0	42	0	623902720	67	6265
2026-01-13 10:09:30.44	183.72	83.85	-46.5	-49.9	14.6	0.00e+00	0	42	0	625999872	64	5391
2026-01-13 10:09:31.29	185.30	84.25	-46.6	-50.2	14.3	7.00e-07	0	42	0	628097024	64	5590
2026-01-13 10:09:32.59	188.20	84.86	-46.6	-50.2	14.4	7.00e-07	0	42	0	630194176	64	5546
2026-01-13 10:09:33.30	190.09	85.18	-46.7	-50.2	14.3	7.00e-07	0	42	0	632291328	64	5579
2026-01-13 10:09:34.58	194.24	85.76	-46.3	-49.5	15.2	0.00e+00	0	42	0	634388480	63	5454
2026-01-13 10:09:35.30	197.09	86.07	-46.6	-50.1	14.5	0.00e+00	0	42	0	635437056	64	5483
2026-01-13 10:09:36.58	203.40	86.59	-46.9	-50.7	13.9	3.00e-06	0	42	0	637534208	64	5906
2026-01-13 10:09:37.31	207.92	86.86	-47.9	-52.5	12.2	9.10e-06	0	42	0	639631360	66	6434
2026-01-13 10:09:38.59	217.92	87.29	-48.9	-55.4	9.2	4.38e-03	0	42	0	641728512	68	8003
2026-01-13 10:09:39.30	224.79	87.48	-48.2	-53.3	11.3	1.79e-03	0	42	0	642777088	68	6305
2026-01-13 10:09:40.58	239.58	87.71	-48.5	-53.6	11.1	8.07e-04	0	42	0	645922816	68	6507
2026-01-13 10:09:41.32	249.17	87.76	-47.7	-52.1	12.5	7.51e-04	0	42	0	646971392	67	5800
2026-01-13 10:09:42.60	265.87	87.70	-48.1	-53.0	11.5	1.50e-04	0	42	0	649068544	66	6832
2026-01-13 10:09:43.33	274.63	87.59	-47.6	-52.0	12.4	2.55e-04	0	42	0	650117120	66	6095
2026-01-13 10:09:44.61	287.60	87.27	-46.0	-49.1	15.5	0.00e+00	0	42	0	653262848	63	5206
2026-01-13 10:09:45.59	295.41	86.95	-47.2	-51.1	13.6	0.00e+00	0	42	0	655360000	65	5840
2026-01-13 10:09:46.88	303.36	86.47	-47.8	-52.2	12.4	2.27e-04	0	42	0	657457152	66	6256
2026-01-13 10:09:47.59	306.83	86.18	-47.2	-51.1	13.5	2.67e-05	0	42	0	658505728	66	5496
2026-01-13 10:09:49.22	313.05	85.47	-47.0	-50.8	13.8	1.50e-06	0	42	0	661651456	65	5630
2026-01-13 10:09:49.79	314.79	85.21	-46.7	-50.2	14.3	3.80e-06	0	42	0	662700032	65	5270
2026-01-13 10:09:51.45	318.91	84.44	-46.5	-50.0	14.7	0.00e+00	0	42	0	665845760	64	5446
2026-01-13 10:09:52.02	320.07	84.18	-46.7	-50.4	14.2	1.50e-06	0	42	0	666894336	64	5712
2026-01-13 10:09:53.72	322.96	83.36	-46.3	-49.8	14.8	0.00e+00	0	42	0	670040064	64	5292
2026-01-13 10:09:54.29	323.78	83.09	-46.4	-49.8	14.8	0.00e+00	0	42	0	671088640	64	5312
2026-01-13 10:09:56.00	325.88	82.26	-46.9	-50.6	14.0	2.20e-06	0	42	0	674234368	64	5836
2026-01-13 10:09:56.57	326.49	81.98	-47.0	-50.7	13.8	2.20e-06	0	42	0	675282944	64	5894
2026-01-13 10:09:58.27	328.06	81.15	-47.8	-52.2	12.2	8.46e-04	0	42	0	678428672	67	5916
2026-01-13 10:09:58.84	328.52	80.87	-46.4	-49.7	14.8	3.80e-06	0	42	0	679477248	64	5244
2026-01-13 10:10:00.55	329.75	80.03	-45.9	-49.0	15.6	0.00e+00	0	42	0	682622976	63	5119
2026-01-13 10:10:01.12	330.11	79.75	-45.6	-48.6	16.1	0.00e+00	0	42	0	683671552	63	4871
2026-01-13 10:10:02.82	331.09	78.92	-47.8	-52.2	12.6	1.44e-05	0	42	0	686817280	66	6262
2026-01-13 10:10:03.39	331.39	78.64	-48.4	-53.6	11.0	4.27e-04	0	42	0	687865856	67	6928
2026-01-13 10:10:05.10	332.19	77.80	-46.7	-50.2	14.4	1.50e-06	0	42	0	691011584	64	5583
2026-01-13 10:10:06.04	332.58	77.34	-47.5	-51.6	13.2	3.00e-06	0	42	0	693108736	65	6192
2026-01-13 10:10:07.04	332.97	76.85	-47.2	-51.0	13.5	9.53e-05	0	42	0	695205888	66	5458
2026-01-13 10:10:08.03	333.33	76.37	-45.9	-48.9	15.7	0.00e+00	0	42	0	697303040	63	5084
2026-01-13 10:10:09.03	333.67	75.89	-45.3	-48.2	16.5	0.00e+00	0	42	0	698351616	62	4955
2026-01-13 10:10:10.02	333.98	75.41	-46.0	-49.1	15.6	0.00e+00	0	42	0	700448768	62	5505
2026-01-13 10:10:11.02	334.27	74.92	-46.5	-49.9	14.8	0.00e+00	0	42	0	702545920	63	5673
2026-01-13 10:10:12.01	334.54	74.45	-47.5	-51.5	13.1	9.90e-06	0	42	0	704643072	65	6073
2026-01-13 10:10:13.01	334.80	73.97	-46.7	-50.2	14.5	2.82e-05	0	42	0	706740224	65	5257
2026-01-13 10:10:14.00	335.04	73.49	-46.0	-49.1	15.4	0.00e+00	0	42	0	707788800	64	4921
2026-01-13 10:10:15.00	335.27	73.02	-46.8	-50.5	14.1	0.00e+00	0	42	0	709885952	64	5776
2026-01-13 10:10:15.99	335.48	72.55	-48.1	-52.9	11.7	1.69e-04	0	42	0	711983104	67	6400
2026-01-13 10:10:16.99	335.69	72.07	-47.9	-52.4	12.2	2.27e-04	0	42	0	714080256	67	6046
2026-01-13 10:10:17.98	335.88	71.61	-47.0	-50.7	13.9	1.06e-05	0	42	0	715128832	66	5257
2026-01-13 10:10:18.97	336.06	71.14	-48.0	-52.5	12.3	6.17e-05	0	42	0	717225984	66	6470
2026-01-13 10:10:19.97	336.23	70.68	-48.9	-54.1	10.7	2.35e-03	0	42	0	719323136	68	6957
2026-01-13 10:10:20.97	336.40	70.21	-48.4	-53.2	11.4	8.87e-04	0	42	0	721420288	68	6213
2026-01-13 10:10:21.96	336.55	69.75	-48.2	-52.8	12.0	1.36e-03	0	42	0	723517440	68	5936
2026-01-13 10:10:22.95	336.70	69.30	-46.6	-50.1	14.6	1.44e-05	0	42	0	724566016	65	5193
2026-01-13 10:10:23.95	336.85	68.84	-46.0	-49.1	15.5	0.00e+00	0	42	0	726663168	63	5197
2026-01-13 10:10:25.04	337.00	68.34	-47.0	-50.8	13.8	7.00e-07	0	42	0	728760320	64	5967
2026-01-13 10:10:25.89	337.11	67.95	-47.3	-51.2	13.4	1.75e-05	0	42	0	730857472	65	5903
2026-01-13 10:10:27.03	337.25	67.44	-46.5	-49.8	14.8	7.00e-07	0	42	0	732954624	65	5028
2026-01-13 10:10:27.88	337.35	67.06	-47.4	-51.3	13.3	7.00e-07	0	42	0	734003200	65	5970
2026-01-13 10:10:29.02	337.48	66.55	-47.3	-51.3	13.2	2.59e-05	0	42	0	736100352	66	5653
2026-01-13 10:10:29.87	337.58	66.17	-46.3	-49.7	14.9	5.30e-06	0	42	0	738197504	64	5262
2026-01-13 10:10:31.01	337.70	65.66	-46.4	-50.1	14.7	0.00e+00	0	42	0	740294656	64	5468
2026-01-13 10:10:31.86	337.79	65.29	-46.1	-49.6	15.2	0.00e+00	0	42	0	741343232	64	5165
2026-01-13 10:10:32.99	337.90	64.80	-45.2	-48.0	16.6	0.00e+00	0	42	0	743440384	62	4856
2026-01-13 10:10:33.85	337.98	64.42	-44.4	-46.9	17.6	0.00e+00	0	42	0	745537536	60	4809
2026-01-13 10:10:34.98	338.08	63.93	-45.3	-48.1	16.6	0.00e+00	0	42	0	747634688	61	5195
2026-01-13 10:10:35.84	338.16	63.56	-46.2	-49.5	15.2	0.00e+00	0	42	0	748683264	63	5464
2026-01-13 10:10:36.98	338.26	63.07	-45.7	-48.8	15.8	0.00e+00	0	42	0	750780416	63	5014
2026-01-13 10:10:37.83	338.33	62.71	-44.6	-47.3	17.3	0.00e+00	0	42	0	752877568	61	4756
2026-01-13 10:10:38.96	338.42	62.23	-43.8	-46.2	18.2	0.00e+00	0	42	0	754974720	59	4687
2026-01-13 10:10:39.82	338.48	61.87	-44.1	-46.6	17.9	0.00e+00	0	42	0	756023296	59	4884
2026-01-13 10:10:40.95	338.57	61.40	-44.7	-47.3	17.3	0.00e+00	0	42	0	759169024	59	5298
2026-01-13 10:10:41.81	338.63	61.04	-46.6	-49.9	14.8	0.00e+00	0	42	0	760217600	63	5703
2026-01-13 10:10:42.95	338.71	60.57	-47.6	-51.8	12.8	7.60e-06	0	42	0	762314752	66	5949
2026-01-13 10:10:43.80	338.77	60.23	-47.7	-52.0	12.7	2.01e-04	0	42	0	764411904	66	6078
2026-01-13 10:10:44.94	338.85	59.76	-45.8	-48.9	15.8	0.00e+00	0	42	0	766509056	63	5054
2026-01-13 10:10:45.79	338.90	59.42	-45.4	-48.2	16.5	0.00e+00	0	42	0	767557632	62	4952
2026-01-13 10:10:46.92	338.97	58.96	-45.8	-48.9	15.8	0.00e+00	0	42	0	769654784	62	5356
2026-01-13 10:10:47.78	339.02	58.62	-45.6	-48.6	16.1	0.00e+00	0	42	0	771751936	62	5200
2026-01-13 10:10:48.91	339.09	58.17	-45.4	-48.3	16.4	0.00e+00	0	42	0	773849088	62	4989
2026-01-13 10:10:49.77	339.14	57.83	-46.0	-49.2	15.5	0.00e+00	0	42	0	774897664	62	5535
2026-01-13 10:10:50.91	339.20	57.39	-46.2	-49.5	15.1	0.00e+00	0	42	0	776994816	64	5131
2026-01-13 10:10:51.76	339.25	57.06	-44.9	-47.6	17.1	0.00e+00	0	42	0	779091968	61	4891
2026-01-13 10:10:52.90	339.31	56.62	-43.9	-46.3	18.3	0.00e+00	0	42	0	781189120	59	4707
2026-01-13 10:10:53.75	339.35	56.29	-44.5	-47.0	17.5	0.00e+00	0	42	0	782237696	59	5156
2026-01-13 10:10:55.08	339.42	55.78	-46.0	-49.1	15.5	0.00e+00	0	42	0	785383424	62	5526
2026-01-13 10:10:55.79	339.45	55.51	-45.4	-48.3	16.4	0.00e+00	0	42	0	786432000	62	5010
2026-01-13 10:10:57.07	339.52	55.03	-44.4	-47.1	17.5	0.00e+00	0	42	0	788529152	60	4883
2026-01-13 10:10:57.78	339.55	54.77	-44.9	-47.7	16.9	0.00e+00	0	42	0	790626304	60	5225
2026-01-13 10:10:59.06	339.61	54.30	-46.2	-49.4	15.3	0.00e+00	0	42	0	792723456	62	5712
2026-01-13 10:10:59.78	339.64	54.03	-46.4	-49.8	15.0	0.00e+00	0	42	0	793772032	63	5609
2026-01-13 10:11:01.06	339.69	53.56	-45.7	-48.7	16.0	0.00e+00	0	42	0	795869184	63	4940
2026-01-13 10:11:01.78	339.72	53.30	-45.2	-47.9	16.7	0.00e+00	0	42	0	797966336	62	4796
2026-01-13 10:11:03.05	339.78	52.85	-45.7	-48.6	16.2	0.00e+00	0	42	0	800063488	62	5214
2026-01-13 10:11:03.76	339.81	52.59	-46.1	-49.3	15.5	0.00e+00	0	42	0	801112064	63	5282
2026-01-13 10:11:05.04	339.86	52.14	-46.6	-50.2	14.5	2.20e-06	0	42	0	804257792	64	5544
2026-01-13 10:11:05.77	339.89	51.88	-47.0	-50.9	13.8	2.20e-06	0	42	0	805306368	64	6033
2026-01-13 10:11:07.05	339.93	51.43	-47.3	-51.5	13.1	3.96e-05	0	41	0	807403520	65	6110
2026-01-13 10:11:07.76	339.96	51.19	-47.5	-51.7	13.0	2.82e-05	0	42	0	808452096	65	6232
2026-01-13 10:11:09.04	340.01	50.75	-47.1	-50.9	13.7	2.21e-05	0	42	0	811597824	65	5710
2026-01-13 10:11:09.75	340.03	50.50	-46.5	-49.9	14.8	0.00e+00	0	42	0	812646400	65	5064
2026-01-13 10:11:11.03	340.08	50.07	-46.2	-49.5	15.2	0.00e+00	0	42	0	814743552	64	5115
2026-01-13 10:11:11.75	340.10	49.83	-46.0	-49.1	15.6	0.00e+00	0	42	0	816840704	63	5180
2026-01-13 10:11:13.03	340.14	49.40	-46.2	-49.4	15.3	0.00e+00	0	42	0	818937856	63	5396
2026-01-13 10:11:13.74	340.17	49.16	-46.1	-49.4	15.2	0.00e+00	0	42	0	819986432	63	5355
2026-01-13 10:11:15.02	340.21	48.74	-47.4	-51.5	13.1	4.50e-06	0	42	0	822083584	65	6123
2026-01-13 10:11:15.73	340.23	48.51	-48.0	-52.9	11.6	4.19e-05	0	42	0	824180736	66	6772
2026-01-13 10:11:17.01	340.27	48.10	-48.3	-53.5	11.1	3.04e-03	0	42	0	826277888	67	6854
2026-01-13 10:11:17.73	340.29	47.86	-47.4	-51.6	13.1	4.78e-04	0	42	0	827326464	66	5821
2026-01-13 10:11:19.01	340.33	47.45	-45.5	-48.4	16.2	0.00e+00	0	42	0	830472192	62	5084
2026-01-13 10:11:19.72	340.35	47.23	-44.8	-47.6	16.9	0.00e+00	0	42	0	831520768	61	4884
2026-01-13 10:11:21.00	340.39	46.83	-45.3	-48.2	16.4	0.00e+00	0	42	0	833617920	61	5234
2026-01-13 10:11:21.72	340.41	46.60	-45.8	-48.9	15.9	0.00e+00	0	42	0	834666496	62	5361
2026-01-13 10:11:23.00	340.45	46.20	-46.5	-49.8	14.9	0.00e+00	0	42	0	837812224	63	5653
2026-01-13 10:11:23.71	340.47	45.98	-46.2	-49.4	15.4	0.00e+00	0	42	0	838860800	63	5371
2026-01-13 10:11:25.07	340.50	45.57	-46.6	-50.2	14.5	7.00e-07	0	42	0	840957952	64	5544
2026-01-13 10:11:25.78	340.52	45.35	-46.7	-50.3	14.3	7.00e-07	0	42	0	843055104	64	5648
2026-01-13 10:11:27.13	340.56	44.95	-46.4	-49.9	14.7	0.00e+00	0	42	0	845152256	64	5346
2026-01-13 10:11:27.84	340.58	44.74	-46.4	-50.0	14.5	0.00e+00	0	42	0	846200832	64	5456
2026-01-13 10:11:29.16	340.61	44.34	-46.0	-49.3	15.3	0.00e+00	0	42	0	849346560	63	5316
2026-01-13 10:11:30.13	340.63	44.06	-45.4	-48.4	16.2	0.00e+00	0	42	0	850395136	62	5092
2026-01-13 10:11:31.12	340.66	43.77	-44.6	-47.3	17.3	0.00e+00	0	42	0	852492288	61	4719
2026-01-13 10:11:32.11	340.68	43.48	-44.3	-46.9	17.6	0.00e+00	0	42	0	854589440	60	4793
2026-01-13 10:11:33.11	340.71	43.20	-44.2	-46.7	17.8	0.00e+00	0	42	0	856686592	60	4704
2026-01-13 10:11:34.10	340.73	42.92	-44.8	-47.6	17.1	0.00e+00	0	42	0	858783744	60	5171
2026-01-13 10:11:35.10	340.75	42.63	-45.5	-48.5	16.2	0.00e+00	0	42	0	859832320	61	5408
2026-01-13 10:11:36.09	340.77	42.35	-46.8	-50.5	14.2	0.00e+00	0	42	0	861929472	64	5739
2026-01-13 10:11:37.09	340.80	42.08	-47.3	-51.4	13.3	3.00e-06	0	42	0	864026624	65	6032
2026-01-13 10:11:38.13	340.82	41.79	-47.4	-51.6	13.1	4.11e-05	0	42	0	866123776	65	6148
2026-01-13 10:11:39.14	340.84	41.51	-47.4	-51.5	13.1	8.54e-05	0	42	0	868220928	66	5785
2026-01-13 10:11:40.16	340.86	41.23	-47.2	-51.1	13.4	1.29e-05	0	42	0	869269504	66	5504
2026-01-13 10:11:41.16	340.89	40.96	-46.7	-50.3	14.3	7.00e-07	0	42	0	871366656	65	5303
2026-01-13 10:11:42.15	340.91	40.70	-46.7	-50.3	14.5	0.00e+00	0	42	0	873463808	64	5628
2026-01-13 10:11:43.15	340.93	40.43	-46.9	-50.6	14.1	1.50e-06	0	42	0	875560960	64	5805
2026-01-13 10:11:44.14	340.95	40.17	-46.6	-50.0	14.6	7.00e-07	0	42	0	877658112	64	5452
2026-01-13 10:11:45.14	340.97	39.91	-46.6	-50.1	14.6	1.50e-06	0	42	0	878706688	64	5480
2026-01-13 10:11:46.13	340.99	39.65	-46.5	-49.9	14.7	0.00e+00	0	42	0	880803840	64	5397
2026-01-13 10:11:47.35	341.01	39.33	-47.5	-51.6	13.0	1.44e-05	0	42	0	882900992	65	6175
2026-01-13 10:11:48.23	341.03	39.11	-48.1	-52.9	11.7	1.02e-04	0	42	0	884998144	66	6767
2026-01-13 10:11:49.37	341.05	38.82	-48.9	-54.9	9.8	1.61e-03	0	42	0	887095296	68	7597
2026-01-13 10:11:50.22	341.06	38.60	-49.1	-55.4	9.2	2.84e-02	0	42	0	888143872	69	7595
2026-01-13 10:11:51.36	341.09	38.32	-49.5	-56.6	8.2	5.00e-02	0	42	0	890241024	69	8676
2026-01-13 10:11:52.21	341.10	38.11	-49.9	-58.2	6.6	1.49e-01	0	42	0	892338176	70	9874
2026-01-13 10:11:53.35	341.12	37.83	-49.0	-55.2	9.3	7.96e-02	0	42	0	894435328	70	6966
2026-01-13 10:11:54.20	341.14	37.62	-48.7	-54.3	10.3	1.44e-02	0	42	0	896532480	68	7076
2026-01-13 10:11:55.34	341.16	37.34	-48.6	-54.1	10.3	1.03e-02	0	42	0	898629632	68	6911
2026-01-13 10:11:56.19	341.17	37.14	-48.6	-54.2	10.2	4.33e-03	0	42	0	899678208	68	6972
2026-01-13 10:11:57.33	341.19	36.86	-48.5	-54.0	10.5	2.96e-03	0	42	0	901775360	68	6856
2026-01-13 10:11:58.19	341.21	36.66	-48.7	-54.6	10.1	5.01e-03	0	42	0	903872512	68	7291
2026-01-13 10:11:59.32	341.23	36.39	-48.4	-53.5	11.3	2.93e-03	0	42	0	905969664	68	6430
2026-01-13 10:12:00.17	341.24	36.19	-47.5	-51.8	12.8	2.25e-04	0	42	0	907018240	67	5614
2026-01-13 10:12:01.33	341.26	35.92	-47.3	-51.3	13.3	3.35e-05	0	42	0	909115392	66	5630
2026-01-13 10:12:02.18	341.27	35.72	-47.2	-51.1	13.6	7.60e-06	0	42	0	911212544	66	5488
2026-01-13 10:12:03.38	341.29	35.45	-47.5	-51.7	12.9	2.13e-05	0	42	0	913309696	66	5894
2026-01-13 10:12:04.23	341.31	35.25	-47.5	-51.9	12.8	5.18e-05	0	42	0	914358272	66	6019
2026-01-13 10:12:05.37	341.32	35.00	-48.2	-53.3	11.4	1.03e-03	0	42	0	916455424	67	6683
2026-01-13 10:12:06.22	341.34	34.81	-48.4	-53.9	10.8	2.79e-03	0	42	0	918552576	67	7188
2026-01-13 10:12:07.36	341.36	34.55	-49.0	-55.3	9.4	9.23e-03	0	42	0	920649728	68	7949
2026-01-13 10:12:08.21	341.37	34.36	-49.5	-57.1	7.6	4.13e-02	0	42	0	922746880	69	9255
2026-01-13 10:12:09.35	341.39	34.11	-49.5	-57.3	7.4	7.99e-02	0	42	0	924844032	69	9425
2026-01-13 10:12:10.30	341.40	33.91	-49.6	-57.2	7.6	8.66e-02	0	42	0	925892608	69	9322
2026-01-13 10:12:11.48	341.42	33.65	-49.2	-55.6	9.0	4.83e-02	0	42	0	927989760	69	7750
2026-01-13 10:12:12.33	341.43	33.47	-49.3	-55.7	8.8	3.02e-02	0	42	0	930086912	69	7840
2026-01-13 10:12:13.47	341.45	33.22	-49.2	-55.4	9.2	2.12e-02	0	42	0	932184064	69	7601
2026-01-13 10:12:14.32	341.46	33.04	-49.2	-55.5	9.1	2.27e-02	0	42	0	933232640	69	7712
2026-01-13 10:12:15.46	341.48	32.80	-49.0	-55.4	9.2	2.81e-02	0	42	0	935329792	69	7590
2026-01-13 10:12:16.31	341.49	32.63	-48.5	-53.9	10.7	4.95e-03	0	42	0	937426944	69	6377
2026-01-13 10:12:17.45	341.50	32.39	-48.0	-52.9	11.8	6.23e-04	0	42	0	939524096	68	6004
2026-01-13 10:12:18.30	341.52	32.21	-47.4	-51.8	12.8	1.34e-04	0	42	0	941621248	66	5943
2026-01-13 10:12:19.44	341.53	31.98	-46.9	-50.8	13.7	6.10e-06	0	42	0	943718400	65	5634
2026-01-13 10:12:20.29	341.54	31.81	-46.5	-50.1	14.4	1.50e-06	0	42	0	944766976	65	5215
2026-01-13 10:12:21.43	341.56	31.58	-46.3	-49.9	14.7	7.00e-07	0	42	0	946864128	64	5381
2026-01-13 10:12:22.28	341.57	31.41	-46.2	-49.8	14.9	0.00e+00	0	42	0	948961280	64	5284
2026-01-13 10:12:23.42	341.58	31.18	-46.5	-50.2	14.4	0.00e+00	0	42	0	951058432	64	5588
2026-01-13 10:12:24.27	341.60	31.01	-46.8	-50.7	13.9	7.00e-07	0	42	0	952107008	64	5918
2026-01-13 10:12:25.41	341.61	30.79	-47.1	-51.3	13.4	5.30e-06	0	42	0	954204160	64	6320
2026-01-13 10:12:26.26	341.62	30.62	-47.6	-52.3	12.2	4.34e-05	0	42	0	956301312	66	6325
2026-01-13 10:12:27.48	341.64	30.38	-48.0	-53.1	11.5	5.48e-04	0	42	0	958398464	66	6944
2026-01-13 10:12:28.33	341.65	30.22	-48.2	-53.5	11.1	1.37e-03	0	42	0	960495616	67	6844
2026-01-13 10:12:29.47	341.66	30.00	-48.5	-54.1	10.5	2.46e-03	0	42	0	962592768	67	7309
2026-01-13 10:12:30.32	341.67	29.84	-48.6	-54.1	10.5	2.92e-03	0	42	0	963641344	67	7338
2026-01-13 10:12:31.46	341.69	29.63	-48.4	-53.6	11.1	2.33e-03	0	42	0	965738496	67	6941
2026-01-13 10:12:32.32	341.70	29.46	-48.2	-53.2	11.4	8.85e-04	0	42	0	967835648	67	6572
2026-01-13 10:12:33.45	341.71	29.25	-48.0	-52.7	12.0	4.04e-04	0	42	0	969932800	67	6207
2026-01-13 10:12:34.31	341.72	29.10	-47.7	-52.2	12.4	1.17e-04	0	42	0	970981376	67	5882
2026-01-13 10:12:35.44	341.74	28.89	-47.3	-51.5	13.1	3.50e-05	0	42	0	973078528	66	5750
2026-01-13 10:12:36.30	341.75	28.73	-46.9	-50.7	13.9	1.14e-05	0	42	0	975175680	65	5574
2026-01-13 10:12:37.43	341.76	28.53	-46.6	-50.2	14.4	1.50e-06	0	42	0	977272832	65	5264
2026-01-13 10:12:38.29	341.77	28.37	-46.5	-50.1	14.5	7.00e-07	0	42	0	978321408	65	5192
2026-01-13 10:12:39.43	341.78	28.17	-46.3	-49.8	14.8	0.00e+00	0	42	0	980418560	64	5297
2026-01-13 10:12:40.28	341.79	28.02	-46.0	-49.4	15.3	0.00e+00	0	42	0	982515712	63	5344
2026-01-13 10:12:41.42	341.81	27.81	-46.1	-49.5	15.2	0.00e+00	0	42	0	984612864	63	5412
2026-01-13 10:12:42.27	341.82	27.66	-46.0	-49.3	15.4	0.00e+00	0	42	0	985661440	63	5298
2026-01-13 10:12:43.41	341.83	27.47	-45.7	-48.8	15.8	0.00e+00	0	42	0	987758592	63	5029
2026-01-13 10:12:44.26	341.84	27.32	-45.8	-48.8	15.8	0.00e+00	0	42	0	989855744	63	5033
2026-01-13 10:12:45.53	341.85	27.10	-45.6	-48.6	16.0	0.00e+00	0	42	0	991952896	63	4916
2026-01-13 10:12:46.33	341.86	26.96	-45.6	-48.6	15.9	0.00e+00	0	42	0	994050048	63	4911
2026-01-13 10:12:47.47	341.87	26.77	-45.6	-48.6	16.0	0.00e+00	0	42	0	996147200	63	4923
2026-01-13 10:12:48.32	341.88	26.62	-45.4	-48.4	16.2	0.00e+00	0	42	0	997195776	62	5066
2026-01-13 10:12:49.46	341.90	26.43	-45.4	-48.4	16.3	0.00e+00	0	42	0	999292928	62	5053
2026-01-13 10:12:50.31	341.90	26.29	-45.2	-48.2	16.5	0.00e+00	0	42	0	1001390080	62	4929
2026-01-13 10:12:51.44	341.92	26.10	-45.2	-48.0	16.6	0.00e+00	0	42	0	1003487232	62	4868
2026-01-13 10:12:52.30	341.93	25.96	-45.1	-47.9	16.7	0.00e+00	0	42	0	1004535808	62	4814
2026-01-13 10:12:53.44	341.94	25.77	-45.0	-47.9	16.8	0.00e+00	0	42	0	1006632960	61	5053
2026-01-13 10:12:54.29	341.95	25.64	-44.9	-47.7	16.9	0.00e+00	0	42	0	1008730112	61	4942
2026-01-13 10:12:55.43	341.96	25.45	-45.0	-47.8	16.8	0.00e+00	0	42	0	1010827264	61	5007
2026-01-13 10:12:56.28	341.97	25.31	-45.2	-48.1	16.5	0.00e+00	0	42	0	1012924416	61	5190
2026-01-13 10:12:57.41	341.98	25.13	-45.2	-48.1	16.5	0.00e+00	0	42	0	1015021568	61	5205
2026-01-13 10:12:58.27	341.99	25.00	-45.3	-48.3	16.2	0.00e+00	0	42	0	1016070144	61	5327
2026-01-13 10:12:59.40	342.00	24.82	-45.4	-48.6	16.0	0.00e+00	0	42	0	1018167296	61	5481
2026-01-13 10:13:00.25	342.01	24.68	-45.4	-48.6	16.1	0.00e+00	0	42	0	1020264448	61	5479
2026-01-13 10:13:01.39	342.02	24.51	-45.5	-48.7	15.9	0.00e+00	0	42	0	1022361600	61	5543
2026-01-13 10:13:02.24	342.03	24.37	-45.4	-48.6	16.0	0.00e+00	0	42	0	1023410176	61	5495
2026-01-13 10:13:03.38	342.04	24.20	-45.4	-48.5	16.1	0.00e+00	0	42	0	1025507328	61	5436
2026-01-13 10:13:04.23	342.05	24.07	-45.2	-48.3	16.3	0.00e+00	0	42	0	1027604480	61	5316
2026-01-13 10:13:05.37	342.06	23.89	-45.0	-47.9	16.6	0.00e+00	0	42	0	1029701632	61	5096
2026-01-13 10:13:06.27	342.07	23.76	-44.9	-47.8	16.7	0.00e+00	0	42	0	1030750208	61	5030
2026-01-13 10:13:07.39	342.08	23.59	-44.8	-47.5	17.0	0.00e+00	0	42	0	1032847360	61	4870
2026-01-13 10:13:08.24	342.09	23.46	-44.5	-47.2	17.3	0.00e+00	0	42	0	1034944512	60	4981
2026-01-13 10:13:09.37	342.10	23.29	-44.4	-47.1	17.4	0.00e+00	0	42	0	1037041664	60	4916
2026-01-13 10:13:10.37	342.11	23.15	-44.2	-46.9	17.6	0.00e+00	0	42	0	1039138816	60	4798
2026-01-13 10:13:11.36	342.12	23.00	-44.1	-46.9	17.6	0.00e+00	0	42	0	1040187392	60	4762
2026-01-13 10:13:12.56	342.13	22.82	-44.0	-46.8	17.7	0.00e+00	0	42	0	1043333120	60	4714
2026-01-13 10:13:13.42	342.14	22.70	-44.0	-46.7	17.7	0.00e+00	0	42	0	1044381696	59	4956
2026-01-13 10:13:14.56	342.15	22.53	-44.0	-46.8	17.6	0.00e+00	0	42	0	1046478848	59	5009
2026-01-13 10:13:15.41	342.16	22.41	-44.1	-47.0	17.4	0.00e+00	0	42	0	1048576000	59	5133
2026-01-13 10:13:16.55	342.17	22.25	-44.1	-47.1	17.4	0.00e+00	0	42	0	1050673152	59	5169
2026-01-13 10:13:17.40	342.17	22.13	-44.2	-47.2	17.2	0.00e+00	0	42	0	1051721728	59	5262
2026-01-13 10:13:18.53	342.18	21.97	-44.4	-47.5	17.0	0.00e+00	0	42	0	1053818880	59	5426
2026-01-13 10:13:19.39	342.19	21.85	-44.3	-47.4	17.0	0.00e+00	0	42	0	1055916032	59	5380
2026-01-13 10:13:20.53	342.20	21.69	-44.5	-47.6	16.8	0.00e+00	0	42	0	1058013184	59	5507
2026-01-13 10:13:21.38	342.21	21.57	-44.6	-47.9	16.7	0.00e+00	0	42	0	1059061760	60	5351
2026-01-13 10:13:22.51	342.22	21.41	-44.6	-47.7	16.9	0.00e+00	0	42	0	1061158912	60	5220
2026-01-13 10:13:23.37	342.23	21.29	-44.7	-47.7	16.8	0.00e+00	0	42	0	1063256064	60	5257
2026-01-13 10:13:24.51	342.24	21.14	-45.0	-47.9	16.6	0.00e+00	0	42	0	1065353216	60	5402
2026-01-13 10:13:25.36	342.25	21.02	-45.0	-47.9	16.6	0.00e+00	0	42	0	1066401792	60	5350
2026-01-13 10:13:26.50	342.26	20.87	-45.2	-48.1	16.5	0.00e+00	0	42	0	1069547520	60	5505
2026-01-13 10:13:27.35	342.26	20.75	-45.2	-48.2	16.4	0.00e+00	0	42	0	1070596096	61	5250
2026-01-13 10:13:28.49	342.27	20.60	-45.3	-48.2	16.3	0.00e+00	0	42	0	1072693248	61	5276
2026-01-13 10:13:29.41	342.28	20.48	-45.2	-48.3	16.2	0.00e+00	0	42	0	1074790400	61	5310
2026-01-13 10:13:30.40	342.29	20.35	-45.0	-48.1	16.4	0.00e+00	0	42	0	1076887552	61	5189
2026-01-13 10:13:31.40	342.30	20.22	-45.1	-48.3	16.3	0.00e+00	0	42	0	1077936128	61	5299
2026-01-13 10:13:32.39	342.31	20.09	-45.2	-48.4	16.1	0.00e+00	0	42	0	1080033280	61	5350
2026-01-13 10:13:33.39	342.32	19.95	-45.1	-48.3	16.2	0.00e+00	0	42	0	1082130432	61	5320
2026-01-13 10:13:34.38	342.32	19.83	-45.2	-48.4	16.1	0.00e+00	0	42	0	1084227584	61	5353
2026-01-13 10:13:35.38	342.33	19.70	-45.2	-48.3	16.2	0.00e+00	0	42	0	1085276160	61	5329
2026-01-13 10:13:36.37	342.34	19.57	-45.3	-48.4	16.2	0.00e+00	0	42	0	1087373312	61	5367
2026-01-13 10:13:37.37	342.35	19.44	-45.3	-48.3	16.2	0.00e+00	0	42	0	1089470464	61	5304
2026-01-13 10:13:38.36	342.36	19.32	-45.3	-48.3	16.2	0.00e+00	0	42	0	1091567616	61	5288
2026-01-13 10:13:39.36	342.37	19.19	-45.3	-48.2	16.3	0.00e+00	0	42	0	1093664768	61	5274
2026-01-13 10:13:40.35	342.37	19.07	-45.2	-48.1	16.4	0.00e+00	0	42	0	1094713344	61	5194
2026-01-13 10:13:41.35	342.38	18.94	-45.2	-48.2	16.3	0.00e+00	0	42	0	1096810496	61	5239
2026-01-13 10:13:42.34	342.39	18.82	-45.0	-47.9	16.5	0.00e+00	0	42	0	1098907648	61	5078
2026-01-13 10:13:43.34	342.40	18.69	-45.0	-47.9	16.6	0.00e+00	0	42	0	1101004800	61	5043
2026-01-13 10:13:44.33	342.41	18.57	-45.1	-48.0	16.5	0.00e+00	0	42	0	1102053376	61	5118
2026-01-13 10:13:45.33	342.41	18.45	-44.9	-47.8	16.6	0.00e+00	0	42	0	1104150528	61	5021
2026-01-13 10:13:46.32	342.42	18.33	-45.1	-48.0	16.4	0.00e+00	0	42	0	1106247680	61	5145
2026-01-13 10:13:47.32	342.43	18.21	-44.9	-47.8	16.6	0.00e+00	0	42	0	1108344832	61	5026
2026-01-13 10:13:48.31	342.44	18.09	-44.9	-47.8	16.7	0.00e+00	0	42	0	1110441984	61	4985
2026-01-13 10:13:49.31	342.45	17.97	-45.0	-47.9	16.5	0.00e+00	0	42	0	1111490560	61	5096
2026-01-13 10:13:50.31	342.45	17.85	-45.1	-48.0	16.5	0.00e+00	0	42	0	1113587712	61	5103
2026-01-13 10:13:51.30	342.46	17.73	-45.0	-47.9	16.5	0.00e+00	0	42	0	1115684864	61	5070
2026-01-13 10:13:52.30	342.47	17.61	-45.3	-48.3	16.1	0.00e+00	0	42	0	1117782016	61	5324
2026-01-13 10:13:53.30	342.48	17.49	-45.3	-48.3	16.1	0.00e+00	0	42	0	1118830592	61	5301
2026-01-13 10:13:54.29	342.49	17.38	-45.3	-48.4	16.1	0.00e+00	0	42	0	1120927744	61	5351
2026-01-13 10:13:55.28	342.49	17.26	-45.2	-48.3	16.1	0.00e+00	0	42	0	1123024896	61	5329
2026-01-13 10:13:56.28	342.50	17.14	-45.1	-48.3	16.2	0.00e+00	0	42	0	1125122048	61	5284
2026-01-13 10:13:57.28	342.51	17.03	-45.1	-48.3	16.1	0.00e+00	0	42	0	1127219200	61	5321
2026-01-13 10:13:58.35	342.52	16.90	-45.1	-48.4	16.0	0.00e+00	0	42	0	1128267776	61	5371
2026-01-13 10:13:59.24	342.52	16.80	-45.1	-48.3	16.1	0.00e+00	0	42	0	1130364928	61	5335
2026-01-13 10:14:00.55	342.53	16.65	-45.0	-48.3	16.1	0.00e+00	0	42	0	1132462080	61	5336
2026-01-13 10:14:01.26	342.54	16.57	-44.9	-48.2	16.2	0.00e+00	0	42	0	1134559232	61	5242
2026-01-13 10:14:02.75	342.55	16.40	-45.0	-48.4	16.0	0.00e+00	0	42	0	1136656384	61	5362
2026-01-13 10:14:03.46	342.56	16.32	-44.9	-48.4	16.0	0.00e+00	0	42	0	1138753536	61	5382
2026-01-13 10:14:04.74	342.57	16.18	-45.0	-48.4	16.0	0.00e+00	0	42	0	1140850688	61	5388
2026-01-13 10:14:05.46	342.57	16.10	-44.9	-48.5	15.9	0.00e+00	0	42	0	1141899264	61	5404
2026-01-13 10:14:06.73	342.58	15.96	-45.0	-48.6	15.8	0.00e+00	0	42	0	1145044992	61	5481
2026-01-13 10:14:07.45	342.59	15.88	-44.9	-48.6	15.8	0.00e+00	0	42	0	1146093568	61	5491
2026-01-13 10:14:08.73	342.60	15.74	-45.0	-48.7	15.7	0.00e+00	0	42	0	1148190720	61	5571
2026-01-13 10:14:09.47	342.60	15.66	-45.0	-48.7	15.7	0.00e+00	0	42	0	1149239296	61	5585
2026-01-13 10:14:10.75	342.61	15.52	-45.0	-48.8	15.7	0.00e+00	0	42	0	1152385024	61	5602
2026-01-13 10:14:11.49	342.62	15.44	-45.0	-48.8	15.6	0.00e+00	0	42	0	1153433600	61	5603
2026-01-13 10:14:12.76	342.62	15.30	-44.9	-48.7	15.8	0.00e+00	0	42	0	1155530752	61	5538
2026-01-13 10:14:13.48	342.63	15.22	-45.0	-48.8	15.6	0.00e+00	0	42	0	1156579328	61	5618
2026-01-13 10:14:14.75	342.64	15.09	-45.2	-49.1	15.3	0.00e+00	0	42	0	1159725056	61	5807
2026-01-13 10:14:15.48	342.64	15.01	-45.2	-49.0	15.4	0.00e+00	0	42	0	1160773632	61	5732
2026-01-13 10:14:16.76	342.65	14.88	-45.3	-49.1	15.3	7.00e-07	0	42	0	1162870784	61	5823
2026-01-13 10:14:17.47	342.66	14.80	-45.4	-49.2	15.2	0.00e+00	0	42	0	1164967936	61	5872
2026-01-13 10:14:18.75	342.67	14.67	-45.4	-49.2	15.2	0.00e+00	0	42	0	1167065088	61	5866
2026-01-13 10:14:19.46	342.67	14.59	-45.4	-49.2	15.2	0.00e+00	0	42	0	1168113664	61	5894
2026-01-13 10:14:20.74	342.68	14.46	-45.5	-49.4	15.0	0.00e+00	0	42	0	1171259392	61	6022
2026-01-13 10:14:21.67	342.69	14.36	-45.4	-49.3	15.0	0.00e+00	0	42	0	1172307968	61	5983
2026-01-13 10:14:22.97	342.70	14.23	-45.5	-49.5	14.8	0.00e+00	0	42	0	1174405120	61	6127
2026-01-13 10:14:23.68	342.70	14.15	-45.5	-49.5	14.9	0.00e+00	0	42	0	1176502272	61	6088
2026-01-13 10:14:24.96	342.71	14.02	-45.4	-49.5	14.9	0.00e+00	0	42	0	1178599424	61	6096
2026-01-13 10:14:25.68	342.72	13.95	-45.4	-49.6	14.8	0.00e+00	0	42	0	1179648000	61	6169
2026-01-13 10:14:26.96	342.73	13.82	-45.3	-49.5	14.9	0.00e+00	0	42	0	1182793728	61	6073
2026-01-13 10:14:27.69	342.73	13.75	-45.3	-49.6	14.8	0.00e+00	0	42	0	1183842304	61	6148
2026-01-13 10:14:28.97	342.74	13.62	-45.2	-49.4	15.0	7.00e-07	0	42	0	1185939456	61	6030
2026-01-13 10:14:29.68	342.75	13.55	-45.1	-49.2	15.2	0.00e+00	0	42	0	1188036608	61	5876
2026-01-13 10:14:30.96	342.75	13.42	-45.1	-49.1	15.2	0.00e+00	0	42	0	1190133760	61	5836
2026-01-13 10:14:31.70	342.76	13.35	-45.0	-49.0	15.3	0.00e+00	0	42	0	1191182336	61	5771
2026-01-13 10:14:33.06	342.77	13.21	-45.1	-49.1	15.3	0.00e+00	0	42	0	1194328064	61	5815
2026-01-13 10:14:33.77	342.77	13.14	-45.0	-49.1	15.3	0.00e+00	0	42	0	1195376640	61	5801
2026-01-13 10:14:35.05	342.78	13.02	-44.9	-48.8	15.6	0.00e+00	0	42	0	1197473792	61	5594
2026-01-13 10:14:35.77	342.79	12.95	-45.1	-48.9	15.4	0.00e+00	0	42	0	1198522368	61	5699
2026-01-13 10:14:37.05	342.80	12.82	-45.3	-49.2	15.2	0.00e+00	0	42	0	1201668096	61	5882
2026-01-13 10:14:37.76	342.80	12.75	-45.1	-48.7	15.6	0.00e+00	0	42	0	1202716672	61	5565
2026-01-13 10:14:39.04	342.81	12.63	-45.2	-48.8	15.5	0.00e+00	0	42	0	1204813824	61	5648
2026-01-13 10:14:39.77	342.82	12.56	-45.2	-48.8	15.5	0.00e+00	0	42	0	1206910976	61	5638
2026-01-13 10:14:41.05	342.82	12.44	-45.3	-48.9	15.4	0.00e+00	0	42	0	1209008128	61	5657
2026-01-13 10:14:41.76	342.83	12.37	-45.5	-49.0	15.3	0.00e+00	0	42	0	1210056704	61	5745
2026-01-13 10:14:43.04	342.84	12.25	-45.4	-48.9	15.5	0.00e+00	0	42	0	1212153856	61	5657
2026-01-13 10:14:43.75	342.84	12.18	-45.4	-48.7	15.5	0.00e+00	0	42	0	1214251008	61	5590
2026-01-13 10:14:45.03	342.85	12.06	-45.4	-48.9	15.4	0.00e+00	0	42	0	1216348160	61	5658
2026-01-13 10:14:45.74	342.86	11.99	-45.6	-49.0	15.3	0.00e+00	0	42	0	1217396736	61	5752
