passes_logs/2026/01/13/T1/T1__20260113_084433_NOAA_20_JPSS-1_rec.log

#Pass ID: 20260113_084433_NOAA 20 (JPSS-1)
#Satellite: NOAA 20 (JPSS-1)
#Configuration: NOAA 20
#almurnet v.1.7.20251203
#Start time: 2026-01-13 08:44:35

#Version: 2.0.20230620
#Station: T1
#Location: 37.570604 lon 55.790049 lat
#TLE: 1 43013U 17073A   26012.29914746  .00000087  00000+0  62270-4 0  9997
#TLE: 2 43013  98.7632 313.2670 0001616  43.2193 316.9110 14.19535514422351

#Time	Az	El	Level	Level2	SNR	BER	BlckErr	Temp	State	Recorded	gain1	gain2
2026-01-13 08:44:35.69	122.82	5.15	-49.5	-64.8	3.8	1.49e+00	0	37	0	0	71	20062
2026-01-13 08:44:36.68	122.76	5.21	-49.5	-64.8	3.8	1.49e+00	0	38	104	0	71	19899
2026-01-13 08:44:37.67	122.70	5.28	-49.7	-64.8	3.8	1.49e+00	0	37	104	0	71	19845
2026-01-13 08:44:38.66	122.64	5.34	-49.5	-64.8	3.8	1.49e+00	0	38	104	0	71	19942
2026-01-13 08:44:39.65	122.57	5.41	-49.5	-64.8	3.8	1.49e+00	0	38	104	0	71	19971
2026-01-13 08:44:40.65	122.51	5.48	-49.7	-64.8	3.8	1.49e+00	0	38	104	0	71	20009
2026-01-13 08:44:41.64	122.45	5.54	-49.5	-64.9	3.8	1.49e+00	0	38	104	0	71	20073
2026-01-13 08:44:42.63	122.39	5.61	-49.7	-64.9	3.8	1.49e+00	0	38	104	0	71	20123
2026-01-13 08:44:43.63	122.32	5.68	-49.5	-64.9	3.8	1.49e+00	0	38	104	0	71	20183
2026-01-13 08:44:44.62	122.26	5.74	-49.7	-64.9	3.8	1.49e+00	0	38	104	0	71	20204
2026-01-13 08:44:45.61	122.20	5.81	-49.7	-64.9	3.8	1.49e+00	0	38	104	0	71	20171
2026-01-13 08:44:46.61	122.13	5.88	-49.5	-64.9	3.8	1.49e+00	0	38	104	0	71	20191
2026-01-13 08:44:47.60	122.07	5.94	-49.7	-64.9	3.8	1.49e+00	0	38	104	0	71	20124
2026-01-13 08:44:48.59	122.01	6.01	-49.7	-64.9	3.8	1.49e+00	0	38	104	0	71	20117
2026-01-13 08:44:49.59	121.94	6.08	-49.7	-64.8	3.8	1.49e+00	0	38	104	0	71	20064
2026-01-13 08:44:50.58	121.88	6.15	-49.7	-64.8	3.8	1.49e+00	0	38	104	0	71	19966
2026-01-13 08:44:51.58	121.81	6.22	-49.5	-64.8	3.8	1.49e+00	0	38	104	0	71	19863
2026-01-13 08:44:52.57	121.74	6.28	-49.7	-64.7	3.8	1.49e+00	0	38	104	0	71	19794
2026-01-13 08:44:53.56	121.68	6.35	-49.5	-64.7	3.8	1.49e+00	0	38	104	0	71	19827
2026-01-13 08:44:54.56	121.61	6.42	-49.5	-64.7	3.8	1.49e+00	0	38	104	0	71	19789
2026-01-13 08:44:55.55	121.55	6.49	-49.6	-64.7	3.8	1.49e+00	0	38	104	0	71	19676
2026-01-13 08:44:56.54	121.48	6.56	-49.5	-64.7	3.8	1.49e+00	0	38	104	0	71	19667
2026-01-13 08:44:57.54	121.41	6.63	-49.6	-64.7	3.8	1.49e+00	0	38	104	0	71	19703
2026-01-13 08:44:58.53	121.34	6.69	-49.5	-64.7	3.8	1.49e+00	0	38	104	0	71	19697
2026-01-13 08:44:59.52	121.28	6.76	-49.5	-64.7	3.8	1.49e+00	0	38	104	0	71	19787
2026-01-13 08:45:00.51	121.21	6.83	-49.6	-64.7	3.8	1.49e+00	0	38	104	0	71	19731
2026-01-13 08:45:01.51	121.14	6.90	-49.5	-64.7	3.8	1.49e+00	0	39	104	0	71	19802
2026-01-13 08:45:02.50	121.07	6.97	-49.6	-64.6	3.8	1.49e+00	0	39	104	0	71	19614
2026-01-13 08:45:03.49	121.00	7.04	-49.6	-64.5	3.8	1.49e+00	0	39	104	0	71	19365
2026-01-13 08:45:04.49	120.93	7.11	-49.5	-64.4	3.8	1.49e+00	0	38	104	0	71	19134
2026-01-13 08:45:05.48	120.86	7.18	-49.6	-64.3	3.8	1.49e+00	0	39	104	0	71	18905
2026-01-13 08:45:06.48	120.79	7.25	-49.5	-64.1	3.8	1.49e+00	0	38	104	0	71	18468
2026-01-13 08:45:07.47	120.72	7.32	-49.6	-64.1	3.8	1.49e+00	0	39	104	0	70	19556
2026-01-13 08:45:08.46	120.65	7.39	-49.5	-64.2	3.8	1.49e+00	0	39	104	0	70	19783
2026-01-13 08:45:09.46	120.58	7.46	-49.5	-64.6	3.8	1.49e+00	0	39	104	0	70	20601
2026-01-13 08:45:10.45	120.51	7.53	-49.7	-64.9	3.8	1.49e+00	0	39	104	0	70	21365
2026-01-13 08:45:11.44	120.43	7.60	-49.6	-64.5	3.8	1.49e+00	0	38	104	0	70	20519
2026-01-13 08:45:12.44	120.36	7.67	-49.4	-63.0	3.8	1.49e+00	0	39	104	0	70	17250
2026-01-13 08:45:13.43	120.29	7.74	-49.2	-60.6	4.4	1.39e+00	0	39	0	0	70	13100
2026-01-13 08:45:14.42	120.22	7.82	-48.9	-58.5	5.4	7.16e-01	0	39	0	1048576	69	10784
2026-01-13 08:45:15.42	120.14	7.89	-48.6	-56.6	7.0	3.40e-01	0	39	0	3145728	69	8708
2026-01-13 08:45:16.41	120.07	7.96	-48.3	-55.0	8.5	6.04e-02	0	38	0	5242880	68	7661
2026-01-13 08:45:17.40	119.99	8.03	-47.6	-53.5	9.9	1.55e-02	0	39	0	7340032	67	6865
2026-01-13 08:45:18.39	119.92	8.10	-47.4	-52.8	10.6	6.18e-03	0	39	0	9437184	66	6701
2026-01-13 08:45:19.39	119.84	8.17	-47.0	-52.0	11.5	2.02e-03	0	39	0	10485760	66	6114
2026-01-13 08:45:20.38	119.77	8.25	-47.0	-51.8	11.7	7.01e-04	0	39	0	12582912	66	5969
2026-01-13 08:45:21.37	119.69	8.32	-46.8	-51.5	12.0	2.88e-04	0	39	0	14680064	65	6075
2026-01-13 08:45:22.37	119.62	8.39	-46.8	-51.5	12.0	2.94e-04	0	39	0	16777216	65	6112
2026-01-13 08:45:23.36	119.54	8.46	-47.2	-52.3	11.2	9.87e-04	0	39	0	17825792	65	6647
2026-01-13 08:45:24.35	119.46	8.54	-47.6	-53.4	10.1	3.62e-03	0	39	0	19922944	65	7547
2026-01-13 08:45:25.34	119.39	8.61	-48.1	-55.1	8.3	2.16e-02	0	39	0	22020096	67	8196
2026-01-13 08:45:26.34	119.31	8.68	-48.6	-56.9	6.7	9.17e-02	0	39	0	24117248	67	10073
2026-01-13 08:45:27.33	119.23	8.76	-49.1	-59.3	5.1	5.32e-01	0	39	0	26214400	69	11865
2026-01-13 08:45:28.32	119.15	8.83	-49.3	-61.7	4.1	1.20e+00	0	39	0	27262976	69	15636
2026-01-13 08:45:29.32	119.07	8.90	-49.5	-63.9	3.8	1.49e+00	0	39	104	27262976	69	20188
2026-01-13 08:45:30.31	118.99	8.98	-49.6	-64.8	3.8	1.49e+00	0	39	104	27262976	69	22340
2026-01-13 08:45:31.31	118.91	9.05	-49.5	-64.8	3.8	1.49e+00	0	39	104	27262976	69	22482
2026-01-13 08:45:32.30	118.83	9.13	-49.1	-59.0	5.2	8.73e-01	0	39	0	27262976	69	11507
2026-01-13 08:45:33.29	118.75	9.20	-49.7	-64.1	3.8	1.36e+00	0	39	104	28311552	69	20716
2026-01-13 08:45:34.29	118.67	9.27	-49.5	-64.1	3.8	1.49e+00	0	39	104	28311552	69	20707
2026-01-13 08:45:35.28	118.59	9.35	-48.8	-57.3	6.6	1.15e-01	0	39	0	28311552	68	10027
2026-01-13 08:45:36.28	118.51	9.42	-49.7	-64.7	3.8	1.49e+00	0	39	104	29360128	70	20916
2026-01-13 08:45:37.27	118.42	9.50	-48.5	-55.4	8.1	1.45e+00	0	39	0	29360128	68	8052
2026-01-13 08:45:38.27	118.34	9.57	-47.6	-53.5	10.0	1.29e-02	0	39	0	30408704	67	6833
2026-01-13 08:45:39.26	118.26	9.65	-47.1	-52.0	11.6	1.63e-03	0	39	0	32505856	66	6129
2026-01-13 08:45:40.33	118.17	9.73	-46.6	-51.0	12.6	2.14e-04	0	39	0	34603008	65	5787
2026-01-13 08:45:41.23	118.09	9.80	-46.3	-50.3	13.4	3.89e-05	0	39	0	36700160	64	5650
2026-01-13 08:45:42.27	118.00	9.88	-46.3	-50.4	13.3	9.10e-06	0	39	0	38797312	64	5706
2026-01-13 08:45:43.27	117.92	9.96	-46.3	-50.4	13.3	1.60e-05	0	39	0	39845888	64	5694
2026-01-13 08:45:44.26	117.83	10.03	-46.3	-50.3	13.4	1.44e-05	0	39	0	41943040	64	5653
2026-01-13 08:45:45.26	117.74	10.11	-46.4	-50.4	13.4	1.83e-05	0	39	0	44040192	64	5689
2026-01-13 08:45:46.25	117.66	10.18	-46.4	-50.5	13.2	1.60e-05	0	39	0	46137344	64	5763
2026-01-13 08:45:47.25	117.57	10.26	-46.5	-50.6	13.1	3.05e-05	0	39	0	48234496	64	5821
2026-01-13 08:45:48.24	117.48	10.34	-46.5	-50.6	13.1	2.74e-05	0	39	0	49283072	64	5838
2026-01-13 08:45:49.24	117.40	10.42	-46.4	-50.4	13.3	2.44e-05	0	39	0	51380224	64	5702
2026-01-13 08:45:50.23	117.31	10.49	-46.2	-50.1	13.7	6.80e-06	0	39	0	53477376	64	5488
2026-01-13 08:45:51.23	117.22	10.57	-46.1	-49.9	13.8	3.80e-06	0	39	0	55574528	64	5385
2026-01-13 08:45:52.22	117.13	10.65	-46.1	-49.8	14.0	3.80e-06	0	39	0	56623104	64	5297
2026-01-13 08:45:53.22	117.04	10.73	-46.0	-49.8	14.0	4.50e-06	0	39	0	58720256	64	5282
2026-01-13 08:45:54.21	116.95	10.80	-46.2	-50.0	13.7	3.80e-06	0	40	0	60817408	64	5445
2026-01-13 08:45:55.21	116.86	10.88	-46.3	-50.2	13.6	8.30e-06	0	39	0	62914560	64	5561
2026-01-13 08:45:56.26	116.76	10.97	-46.3	-50.2	13.6	5.30e-06	0	40	0	65011712	64	5556
2026-01-13 08:45:57.16	116.68	11.04	-46.3	-50.2	13.7	1.29e-05	0	39	0	66060288	64	5543
2026-01-13 08:45:58.25	116.58	11.12	-46.3	-50.2	13.7	9.90e-06	0	39	0	68157440	64	5538
2026-01-13 08:45:59.19	116.49	11.20	-46.3	-50.1	13.7	5.30e-06	0	39	0	70254592	64	5497
2026-01-13 08:46:00.35	116.38	11.29	-46.2	-49.9	13.9	3.80e-06	0	40	0	72351744	64	5391
2026-01-13 08:46:01.24	116.30	11.36	-46.2	-50.0	13.8	3.80e-06	0	40	0	74448896	64	5441
2026-01-13 08:46:02.38	116.19	11.45	-46.3	-50.2	13.6	7.60e-06	0	40	0	76546048	64	5573
2026-01-13 08:46:03.23	116.11	11.52	-46.3	-50.2	13.6	1.22e-05	0	39	0	77594624	64	5567
2026-01-13 08:46:04.37	116.00	11.61	-46.4	-50.3	13.5	6.80e-06	0	39	0	79691776	64	5643
2026-01-13 08:46:05.36	115.90	11.69	-46.4	-50.3	13.5	6.80e-06	0	39	0	81788928	64	5626
2026-01-13 08:46:06.53	115.79	11.79	-46.3	-50.1	13.7	6.10e-06	0	40	0	83886080	64	5516
2026-01-13 08:46:07.38	115.70	11.85	-46.3	-50.1	13.8	6.80e-06	0	39	0	84934656	64	5483
2026-01-13 08:46:08.52	115.59	11.95	-46.3	-50.2	13.7	5.30e-06	0	39	0	88080384	64	5546
2026-01-13 08:46:09.37	115.51	12.02	-46.3	-50.1	13.8	9.90e-06	0	39	0	89128960	64	5503
2026-01-13 08:46:10.51	115.39	12.11	-46.3	-50.1	13.8	3.80e-06	0	39	0	91226112	64	5505
2026-01-13 08:46:11.36	115.31	12.18	-46.4	-50.4	13.5	3.80e-06	0	39	0	93323264	64	5672
2026-01-13 08:46:12.50	115.19	12.27	-46.3	-50.2	13.7	3.80e-06	0	39	0	95420416	64	5560
2026-01-13 08:46:13.35	115.11	12.34	-46.3	-50.1	13.8	3.00e-06	0	39	0	96468992	64	5500
2026-01-13 08:46:14.49	114.99	12.43	-46.2	-49.9	14.0	1.50e-06	0	40	0	98566144	64	5388
2026-01-13 08:46:15.34	114.90	12.50	-46.3	-50.1	13.8	3.80e-06	0	40	0	100663296	64	5504
2026-01-13 08:46:16.48	114.79	12.60	-46.2	-49.9	14.0	4.50e-06	0	40	0	102760448	64	5368
2026-01-13 08:46:17.33	114.70	12.67	-46.3	-50.1	13.8	3.00e-06	0	39	0	103809024	64	5490
2026-01-13 08:46:18.47	114.58	12.76	-46.2	-49.9	14.0	1.50e-06	0	40	0	105906176	64	5382
2026-01-13 08:46:19.32	114.49	12.83	-46.2	-49.9	14.0	2.20e-06	0	40	0	108003328	64	5364
2026-01-13 08:46:20.46	114.37	12.93	-46.3	-50.1	13.8	2.20e-06	0	40	0	110100480	64	5517
2026-01-13 08:46:21.31	114.28	13.00	-46.3	-50.1	13.8	3.00e-06	0	39	0	111149056	64	5472
2026-01-13 08:46:22.44	114.16	13.09	-46.3	-50.1	13.9	1.50e-06	0	39	0	113246208	64	5467
2026-01-13 08:46:23.36	114.06	13.17	-46.3	-50.0	13.9	2.20e-06	0	40	0	115343360	64	5462
2026-01-13 08:46:24.35	113.96	13.25	-46.2	-50.0	13.9	1.50e-06	0	40	0	117440512	64	5433
2026-01-13 08:46:25.35	113.85	13.34	-46.1	-49.8	14.1	4.50e-06	0	40	0	119537664	64	5303
2026-01-13 08:46:26.34	113.74	13.42	-46.1	-49.7	14.3	7.00e-07	0	40	0	120586240	64	5228
2026-01-13 08:46:27.34	113.63	13.51	-46.1	-49.7	14.2	1.50e-06	0	40	0	122683392	64	5272
2026-01-13 08:46:28.34	113.52	13.59	-46.1	-49.7	14.2	3.80e-06	0	39	0	124780544	64	5264
2026-01-13 08:46:29.33	113.41	13.68	-46.1	-49.8	14.1	1.50e-06	0	40	0	126877696	64	5315
2026-01-13 08:46:30.33	113.30	13.76	-46.1	-49.8	14.1	1.50e-06	0	40	0	128974848	64	5331
2026-01-13 08:46:31.32	113.19	13.85	-46.2	-50.0	13.9	2.20e-06	0	40	0	130023424	64	5425
2026-01-13 08:46:32.31	113.08	13.93	-46.2	-50.0	13.9	3.80e-06	0	40	0	132120576	64	5441
2026-01-13 08:46:33.31	112.96	14.02	-46.1	-49.9	14.0	3.00e-06	0	40	0	134217728	64	5384
2026-01-13 08:46:34.30	112.85	14.10	-46.2	-50.0	13.9	1.50e-06	0	39	0	136314880	64	5428
2026-01-13 08:46:35.30	112.73	14.19	-46.1	-49.8	14.2	4.50e-06	0	40	0	137363456	64	5282
2026-01-13 08:46:36.30	112.62	14.27	-46.1	-49.8	14.2	1.50e-06	0	40	0	139460608	64	5293
2026-01-13 08:46:37.36	112.50	14.37	-46.1	-49.9	14.1	7.00e-07	0	40	0	141557760	64	5347
2026-01-13 08:46:38.23	112.39	14.44	-46.1	-49.8	14.1	3.00e-06	0	40	0	143654912	64	5331
2026-01-13 08:46:39.58	112.23	14.56	-46.2	-49.9	14.0	4.50e-06	0	40	0	145752064	64	5381
2026-01-13 08:46:40.29	112.15	14.62	-46.1	-49.8	14.2	1.50e-06	0	40	0	146800640	64	5294
2026-01-13 08:46:41.78	111.97	14.75	-46.0	-49.7	14.2	0.00e+00	0	40	0	149946368	64	5270
2026-01-13 08:46:42.49	111.89	14.81	-46.1	-49.8	14.1	7.00e-07	0	40	0	150994944	64	5336
2026-01-13 08:46:43.77	111.73	14.92	-46.1	-49.8	14.2	2.20e-06	0	40	0	154140672	64	5298
2026-01-13 08:46:44.48	111.65	14.99	-46.2	-49.9	14.0	7.00e-07	0	40	0	155189248	64	5392
2026-01-13 08:46:45.76	111.49	15.10	-46.1	-49.8	14.2	7.00e-07	0	40	0	157286400	64	5297
2026-01-13 08:46:46.50	111.40	15.16	-46.1	-49.8	14.1	7.00e-07	0	40	0	158334976	64	5340
2026-01-13 08:46:47.78	111.24	15.28	-46.2	-49.9	14.0	3.80e-06	0	40	0	161480704	64	5381
2026-01-13 08:46:48.50	111.15	15.34	-46.0	-49.6	14.3	1.50e-06	0	40	0	162529280	64	5184
2026-01-13 08:46:49.78	110.99	15.46	-46.1	-49.7	14.4	0.00e+00	0	40	0	164626432	63	5552
2026-01-13 08:46:50.51	110.90	15.52	-46.2	-49.9	14.2	2.20e-06	0	40	0	166723584	63	5696
2026-01-13 08:46:51.79	110.74	15.63	-46.3	-50.1	14.0	7.00e-07	0	40	0	168820736	63	5798
2026-01-13 08:46:52.59	110.64	15.71	-46.3	-50.2	13.9	2.20e-06	0	40	0	169869312	63	5866
2026-01-13 08:46:53.73	110.49	15.81	-46.2	-49.8	14.2	2.20e-06	0	39	0	171966464	63	5651
2026-01-13 08:46:54.58	110.38	15.88	-46.1	-49.8	14.3	7.00e-07	0	40	0	174063616	63	5620
2026-01-13 08:46:55.72	110.23	15.99	-46.2	-49.9	14.2	0.00e+00	0	40	0	176160768	63	5662
2026-01-13 08:46:56.57	110.12	16.06	-46.2	-49.8	14.3	0.00e+00	0	40	0	177209344	63	5647
2026-01-13 08:46:57.71	109.97	16.17	-46.3	-50.0	14.1	3.80e-06	0	40	0	180355072	63	5780
2026-01-13 08:46:58.56	109.86	16.24	-46.3	-50.0	14.1	3.00e-06	0	40	0	181403648	63	5741
2026-01-13 08:46:59.70	109.71	16.35	-46.1	-49.7	14.4	7.00e-07	0	40	0	183500800	63	5573
2026-01-13 08:47:00.55	109.59	16.42	-45.9	-49.4	14.7	2.20e-06	0	40	0	185597952	63	5363
2026-01-13 08:47:01.69	109.44	16.53	-45.8	-49.2	14.9	7.00e-07	0	40	0	187695104	63	5256
2026-01-13 08:47:02.54	109.32	16.60	-45.9	-49.4	14.7	0.00e+00	0	40	0	188743680	63	5375
2026-01-13 08:47:03.68	109.17	16.71	-46.0	-49.5	14.7	0.00e+00	0	40	0	190840832	63	5409
2026-01-13 08:47:04.53	109.05	16.79	-45.9	-49.3	14.8	7.00e-07	0	40	0	192937984	63	5301
2026-01-13 08:47:05.67	108.89	16.89	-45.8	-49.1	15.0	0.00e+00	0	40	0	195035136	63	5210
2026-01-13 08:47:06.63	108.76	16.98	-45.7	-49.0	15.1	0.00e+00	0	40	0	196083712	63	5104
2026-01-13 08:47:07.63	108.62	17.07	-45.6	-48.8	15.3	0.00e+00	0	40	0	198180864	63	5040
2026-01-13 08:47:08.62	108.48	17.16	-45.6	-48.8	15.3	0.00e+00	0	40	0	200278016	63	5034
2026-01-13 08:47:09.62	108.34	17.25	-45.6	-48.8	15.3	0.00e+00	0	40	0	202375168	63	5025
2026-01-13 08:47:10.61	108.20	17.35	-45.8	-49.2	15.0	0.00e+00	0	40	0	204472320	63	5219
2026-01-13 08:47:11.61	108.06	17.44	-45.8	-49.1	15.0	0.00e+00	0	40	0	205520896	63	5207
2026-01-13 08:47:12.93	107.87	17.56	-45.7	-49.0	15.1	0.00e+00	0	40	0	208666624	63	5125
2026-01-13 08:47:13.68	107.76	17.63	-45.6	-48.9	15.2	0.00e+00	0	40	0	209715200	63	5067
2026-01-13 08:47:14.96	107.57	17.75	-45.6	-48.9	15.2	0.00e+00	0	40	0	211812352	63	5065
2026-01-13 08:47:15.68	107.46	17.82	-45.7	-49.0	15.1	0.00e+00	0	40	0	213909504	63	5140
2026-01-13 08:47:16.96	107.28	17.94	-45.7	-49.1	15.1	7.00e-07	0	40	0	216006656	63	5184
2026-01-13 08:47:17.67	107.17	18.00	-45.6	-48.9	15.2	0.00e+00	0	40	0	217055232	63	5099
2026-01-13 08:47:18.95	106.98	18.12	-45.6	-48.9	15.2	0.00e+00	0	40	0	220200960	63	5081
2026-01-13 08:47:19.68	106.87	18.19	-45.6	-48.9	15.2	0.00e+00	0	40	0	221249536	63	5079
2026-01-13 08:47:20.95	106.68	18.31	-45.6	-48.9	15.3	0.00e+00	0	40	0	223346688	63	5055
2026-01-13 08:47:21.68	106.56	18.38	-45.5	-48.7	15.5	0.00e+00	0	40	0	224395264	63	4934
2026-01-13 08:47:22.96	106.37	18.50	-45.4	-48.6	15.5	0.00e+00	0	40	0	227540992	62	5203
2026-01-13 08:47:23.68	106.26	18.57	-45.5	-48.7	15.4	0.00e+00	0	40	0	228589568	62	5247
2026-01-13 08:47:24.96	106.06	18.69	-45.5	-48.8	15.4	0.00e+00	0	40	0	230686720	62	5303
2026-01-13 08:47:25.69	105.94	18.76	-45.5	-48.8	15.4	0.00e+00	0	40	0	231735296	62	5305
2026-01-13 08:47:26.97	105.74	18.88	-45.5	-48.8	15.4	0.00e+00	0	40	0	234881024	62	5321
2026-01-13 08:47:27.69	105.63	18.95	-45.4	-48.7	15.5	0.00e+00	0	40	0	235929600	62	5219
2026-01-13 08:47:28.97	105.42	19.07	-45.5	-48.7	15.5	0.00e+00	0	40	0	238026752	62	5229
2026-01-13 08:47:29.69	105.31	19.14	-45.5	-48.7	15.4	0.00e+00	0	40	0	240123904	62	5275
2026-01-13 08:47:30.97	105.10	19.26	-45.5	-48.7	15.5	0.00e+00	0	40	0	242221056	62	5225
2026-01-13 08:47:31.68	104.98	19.33	-45.4	-48.6	15.6	0.00e+00	0	40	0	243269632	62	5190
2026-01-13 08:47:32.98	104.77	19.46	-45.5	-48.7	15.5	0.00e+00	0	40	0	246415360	62	5264
2026-01-13 08:47:33.69	104.66	19.52	-45.5	-48.7	15.5	0.00e+00	0	40	0	247463936	62	5246
2026-01-13 08:47:34.97	104.44	19.65	-45.6	-48.9	15.3	0.00e+00	0	40	0	249561088	62	5376
2026-01-13 08:47:35.68	104.32	19.72	-45.6	-48.9	15.3	0.00e+00	0	40	0	250609664	62	5349
2026-01-13 08:47:36.96	104.11	19.84	-45.6	-48.9	15.3	0.00e+00	0	40	0	253755392	62	5347
2026-01-13 08:47:37.70	103.98	19.91	-45.7	-48.9	15.3	0.00e+00	0	40	0	254803968	62	5361
2026-01-13 08:47:38.97	103.77	20.03	-45.7	-49.0	15.2	0.00e+00	0	40	0	256901120	62	5453
2026-01-13 08:47:39.70	103.64	20.10	-45.9	-49.2	15.0	0.00e+00	0	40	0	258998272	62	5578
2026-01-13 08:47:41.03	103.41	20.23	-46.0	-49.4	14.8	0.00e+00	0	40	0	261095424	62	5686
2026-01-13 08:47:41.74	103.29	20.30	-46.0	-49.4	14.8	0.00e+00	0	40	0	262144000	62	5680
2026-01-13 08:47:43.08	103.06	20.43	-45.8	-49.2	15.0	0.00e+00	0	40	0	265289728	62	5570
2026-01-13 08:47:43.79	102.93	20.50	-45.9	-49.3	14.9	7.00e-07	0	40	0	266338304	62	5620
2026-01-13 08:47:45.13	102.70	20.63	-45.9	-49.4	14.8	0.00e+00	0	40	0	268435456	62	5700
2026-01-13 08:47:45.84	102.57	20.70	-46.0	-49.5	14.7	7.00e-07	0	40	0	270532608	62	5731
2026-01-13 08:47:47.12	102.34	20.82	-46.0	-49.4	14.8	0.00e+00	0	40	0	272629760	62	5709
2026-01-13 08:47:48.20	102.15	20.93	-45.9	-49.2	15.0	0.00e+00	0	40	0	274726912	62	5577
2026-01-13 08:47:49.05	101.99	21.01	-45.9	-49.3	14.9	7.00e-07	0	40	0	275775488	62	5630
2026-01-13 08:47:50.64	101.70	21.17	-46.0	-49.5	14.8	7.00e-07	0	40	0	278921216	62	5726
2026-01-13 08:47:51.21	101.60	21.22	-46.0	-49.4	14.8	1.50e-06	0	40	0	279969792	62	5715
2026-01-13 08:47:52.92	101.28	21.39	-46.0	-49.4	14.7	1.50e-06	0	40	0	283115520	62	5710
2026-01-13 08:47:53.49	101.17	21.44	-46.0	-49.4	14.8	0.00e+00	0	40	0	284164096	62	5704
2026-01-13 08:47:55.19	100.85	21.61	-45.9	-49.3	14.9	0.00e+00	0	40	0	287309824	62	5627
2026-01-13 08:47:55.76	100.74	21.67	-45.9	-49.2	15.0	7.00e-07	0	40	0	288358400	62	5561
2026-01-13 08:47:57.46	100.42	21.83	-45.8	-49.1	15.0	0.00e+00	0	40	0	291504128	62	5526
2026-01-13 08:47:58.03	100.31	21.89	-45.8	-49.1	15.1	0.00e+00	0	40	0	292552704	62	5521
2026-01-13 08:47:59.74	99.98	22.06	-45.8	-49.1	15.1	0.00e+00	0	40	0	295698432	62	5524
2026-01-13 08:48:00.30	99.87	22.11	-45.8	-49.1	15.1	0.00e+00	0	40	0	296747008	62	5505
2026-01-13 08:48:02.07	99.52	22.28	-45.8	-49.1	15.1	0.00e+00	0	40	0	300941312	62	5474
2026-01-13 08:48:03.00	99.34	22.38	-45.7	-49.0	15.2	0.00e+00	0	40	0	301989888	62	5420
2026-01-13 08:48:04.00	99.14	22.47	-45.6	-48.8	15.4	0.00e+00	0	40	0	304087040	62	5322
2026-01-13 08:48:04.99	98.94	22.57	-45.6	-48.8	15.4	0.00e+00	0	40	0	306184192	62	5338
2026-01-13 08:48:05.99	98.74	22.67	-45.5	-48.7	15.6	0.00e+00	0	40	0	308281344	62	5235
2026-01-13 08:48:06.98	98.54	22.77	-45.6	-48.7	15.5	0.00e+00	0	40	0	309329920	62	5270
2026-01-13 08:48:07.98	98.33	22.86	-45.4	-48.5	15.7	0.00e+00	0	40	0	311427072	62	5117
2026-01-13 08:48:08.97	98.13	22.96	-45.3	-48.4	15.8	0.00e+00	0	40	0	313524224	62	5074
2026-01-13 08:48:09.97	97.92	23.06	-45.4	-48.5	15.8	0.00e+00	0	40	0	315621376	62	5102
2026-01-13 08:48:10.96	97.71	23.16	-45.3	-48.4	15.8	0.00e+00	0	40	0	316669952	62	5081
2026-01-13 08:48:11.95	97.51	23.25	-45.2	-48.3	16.0	0.00e+00	0	40	0	318767104	62	4992
2026-01-13 08:48:12.95	97.29	23.35	-45.3	-48.3	15.9	0.00e+00	0	40	0	320864256	62	5015
2026-01-13 08:48:13.94	97.08	23.45	-45.3	-48.3	15.9	0.00e+00	0	40	0	322961408	62	5028
2026-01-13 08:48:14.94	96.87	23.54	-45.2	-48.2	16.0	0.00e+00	0	40	0	325058560	62	4945
2026-01-13 08:48:15.93	96.66	23.64	-45.1	-48.0	16.2	0.00e+00	0	40	0	326107136	62	4870
2026-01-13 08:48:16.93	96.44	23.74	-45.1	-48.0	16.2	0.00e+00	0	40	0	328204288	62	4860
2026-01-13 08:48:17.92	96.22	23.84	-45.2	-48.3	15.9	0.00e+00	0	40	0	330301440	62	4997
2026-01-13 08:48:18.91	96.01	23.93	-45.3	-48.3	15.9	0.00e+00	0	40	0	332398592	62	5025
2026-01-13 08:48:19.91	95.79	24.03	-45.1	-48.1	16.1	0.00e+00	0	40	0	334495744	62	4904
2026-01-13 08:48:20.91	95.57	24.13	-45.2	-48.2	16.0	0.00e+00	0	40	0	335544320	62	4955
2026-01-13 08:48:21.90	95.34	24.22	-45.2	-48.3	16.0	0.00e+00	0	40	0	337641472	62	4995
2026-01-13 08:48:22.96	95.11	24.33	-45.2	-48.3	16.0	0.00e+00	0	40	0	339738624	62	4990
2026-01-13 08:48:23.88	94.90	24.41	-45.3	-48.4	15.9	0.00e+00	0	40	0	341835776	62	5055
2026-01-13 08:48:24.87	94.67	24.51	-45.2	-48.2	16.0	0.00e+00	0	40	0	342884352	62	4981
2026-01-13 08:48:25.86	94.45	24.61	-45.2	-48.2	16.1	0.00e+00	0	40	0	344981504	62	4934
2026-01-13 08:48:26.86	94.22	24.70	-45.2	-48.2	16.1	0.00e+00	0	40	0	347078656	62	4928
2026-01-13 08:48:27.85	93.99	24.80	-45.0	-48.0	16.3	0.00e+00	0	40	0	349175808	62	4838
2026-01-13 08:48:28.84	93.76	24.89	-45.0	-48.0	16.3	0.00e+00	0	40	0	351272960	62	4817
2026-01-13 08:48:29.84	93.52	24.99	-45.0	-47.9	16.3	0.00e+00	0	40	0	352321536	61	5086
2026-01-13 08:48:30.83	93.29	25.08	-44.9	-47.9	16.3	0.00e+00	0	40	0	354418688	61	5083
2026-01-13 08:48:31.82	93.05	25.18	-45.0	-47.9	16.3	0.00e+00	0	40	0	356515840	61	5095
2026-01-13 08:48:32.82	92.81	25.27	-44.9	-47.8	16.4	0.00e+00	0	40	0	358612992	61	5025
2026-01-13 08:48:33.83	92.57	25.37	-44.9	-47.8	16.4	0.00e+00	0	40	0	359661568	61	5021
2026-01-13 08:48:34.86	92.32	25.47	-44.9	-47.9	16.4	0.00e+00	0	40	0	361758720	61	5051
2026-01-13 08:48:35.85	92.08	25.56	-44.9	-47.8	16.4	0.00e+00	0	40	0	363855872	61	4997
2026-01-13 08:48:36.85	91.84	25.66	-44.9	-47.8	16.4	0.00e+00	0	40	0	365953024	61	5016
2026-01-13 08:48:37.84	91.59	25.75	-45.0	-47.9	16.4	0.00e+00	0	40	0	368050176	61	5052
2026-01-13 08:48:38.84	91.35	25.84	-45.0	-47.9	16.3	0.00e+00	0	40	0	369098752	61	5054
2026-01-13 08:48:39.83	91.10	25.94	-45.1	-48.1	16.1	0.00e+00	0	40	0	371195904	61	5216
2026-01-13 08:48:40.82	90.85	26.03	-45.4	-48.6	15.7	0.00e+00	0	40	0	373293056	61	5476
2026-01-13 08:48:41.82	90.60	26.12	-45.5	-48.7	15.5	0.00e+00	0	40	0	375390208	61	5586
2026-01-13 08:48:42.82	90.35	26.21	-45.5	-48.8	15.5	0.00e+00	0	40	0	376438784	61	5640
2026-01-13 08:48:43.81	90.09	26.31	-45.6	-48.9	15.3	0.00e+00	0	40	0	378535936	61	5704
2026-01-13 08:48:44.81	89.84	26.40	-45.6	-48.9	15.4	0.00e+00	0	40	0	380633088	61	5683
2026-01-13 08:48:45.80	89.58	26.49	-45.6	-48.8	15.4	0.00e+00	0	40	0	382730240	61	5650
2026-01-13 08:48:46.80	89.32	26.58	-45.6	-48.8	15.4	0.00e+00	0	40	0	384827392	61	5638
2026-01-13 08:48:47.79	89.06	26.67	-45.6	-48.8	15.4	0.00e+00	0	40	0	385875968	61	5652
2026-01-13 08:48:48.79	88.80	26.76	-45.6	-48.8	15.4	0.00e+00	0	40	0	387973120	61	5654
2026-01-13 08:48:49.83	88.53	26.86	-45.7	-49.0	15.3	0.00e+00	0	40	0	390070272	62	5450
2026-01-13 08:48:50.84	88.26	26.95	-45.8	-49.2	15.1	0.00e+00	0	40	0	392167424	62	5541
2026-01-13 08:48:51.87	87.98	27.04	-45.8	-49.2	15.0	0.00e+00	0	40	0	394264576	62	5572
2026-01-13 08:48:52.86	87.72	27.13	-45.8	-49.4	14.9	0.00e+00	0	40	0	395313152	62	5701
2026-01-13 08:48:53.86	87.45	27.22	-45.8	-49.4	14.9	0.00e+00	0	40	0	397410304	62	5696
2026-01-13 08:48:54.85	87.18	27.30	-45.8	-49.4	15.0	0.00e+00	0	40	0	399507456	62	5657
2026-01-13 08:48:55.85	86.90	27.39	-45.9	-49.4	14.9	0.00e+00	0	40	0	401604608	62	5687
2026-01-13 08:48:56.84	86.63	27.48	-45.9	-49.4	14.8	7.00e-07	0	40	0	403701760	62	5708
2026-01-13 08:48:57.84	86.36	27.57	-46.0	-49.5	14.8	0.00e+00	0	40	0	404750336	62	5761
2026-01-13 08:48:58.83	86.08	27.65	-46.1	-49.7	14.6	0.00e+00	0	40	0	406847488	62	5897
2026-01-13 08:48:59.83	85.80	27.74	-45.9	-49.5	14.7	0.00e+00	0	40	0	408944640	62	5779
2026-01-13 08:49:00.82	85.52	27.82	-45.9	-49.4	14.8	0.00e+00	0	40	0	411041792	62	5713
2026-01-13 08:49:01.81	85.25	27.91	-46.0	-49.6	14.6	0.00e+00	0	40	0	412090368	62	5853
2026-01-13 08:49:02.81	84.96	27.99	-46.2	-49.8	14.5	0.00e+00	0	40	0	414187520	62	5983
2026-01-13 08:49:03.80	84.68	28.08	-46.2	-49.9	14.4	7.00e-07	0	40	0	416284672	62	6020
2026-01-13 08:49:04.80	84.39	28.16	-46.2	-49.9	14.4	7.00e-07	0	40	0	418381824	63	5670
2026-01-13 08:49:05.79	84.11	28.24	-46.2	-50.0	14.3	0.00e+00	0	40	0	420478976	63	5751
2026-01-13 08:49:06.85	83.80	28.33	-46.1	-49.9	14.4	7.00e-07	0	40	0	421527552	63	5680
2026-01-13 08:49:07.75	83.54	28.40	-46.1	-49.8	14.5	0.00e+00	0	40	0	423624704	63	5642
2026-01-13 08:49:08.78	83.24	28.49	-46.2	-49.9	14.4	7.00e-07	0	40	0	425721856	63	5703
2026-01-13 08:49:09.77	82.95	28.57	-46.1	-49.8	14.5	7.00e-07	0	40	0	427819008	63	5625
2026-01-13 08:49:10.77	82.65	28.65	-46.1	-49.7	14.6	0.00e+00	0	40	0	428867584	63	5569
2026-01-13 08:49:11.76	82.36	28.73	-46.1	-49.7	14.6	0.00e+00	0	40	0	430964736	63	5536
2026-01-13 08:49:12.76	82.06	28.81	-46.1	-49.7	14.6	0.00e+00	0	40	0	433061888	63	5580
2026-01-13 08:49:13.75	81.76	28.88	-46.0	-49.6	14.7	0.00e+00	0	40	0	435159040	63	5511
2026-01-13 08:49:14.75	81.46	28.96	-46.0	-49.5	14.7	0.00e+00	0	40	0	437256192	63	5456
2026-01-13 08:49:15.74	81.16	29.04	-46.1	-49.7	14.6	0.00e+00	0	40	0	438304768	63	5541
2026-01-13 08:49:16.74	80.86	29.11	-46.0	-49.5	14.8	0.00e+00	0	40	0	440401920	63	5452
2026-01-13 08:49:17.73	80.55	29.19	-46.1	-49.6	14.7	0.00e+00	0	40	0	442499072	63	5489
2026-01-13 08:49:18.72	80.25	29.26	-46.1	-49.6	14.7	0.00e+00	0	40	0	444596224	63	5521
2026-01-13 08:49:19.72	79.94	29.34	-46.2	-49.8	14.5	0.00e+00	0	40	0	445644800	63	5608
2026-01-13 08:49:20.75	79.62	29.41	-46.3	-49.9	14.5	7.00e-07	0	40	0	447741952	63	5659
2026-01-13 08:49:21.77	79.30	29.49	-46.3	-49.9	14.4	0.00e+00	0	40	0	449839104	63	5698
2026-01-13 08:49:22.77	78.99	29.56	-46.3	-49.9	14.4	2.20e-06	0	40	0	451936256	63	5677
2026-01-13 08:49:23.76	78.68	29.63	-46.3	-49.9	14.4	7.00e-07	0	40	0	454033408	63	5689
2026-01-13 08:49:24.76	78.36	29.70	-46.2	-49.8	14.5	7.00e-07	0	40	0	455081984	63	5622
2026-01-13 08:49:25.75	78.05	29.77	-46.3	-49.8	14.5	7.00e-07	0	40	0	457179136	63	5637
2026-01-13 08:49:26.75	77.73	29.84	-46.3	-49.9	14.4	0.00e+00	0	40	0	459276288	63	5683
2026-01-13 08:49:27.75	77.41	29.90	-46.3	-50.0	14.4	7.00e-07	0	40	0	461373440	63	5730
2026-01-13 08:49:28.74	77.09	29.97	-46.4	-50.0	14.3	1.50e-06	0	40	0	463470592	63	5782
2026-01-13 08:49:30.00	76.69	30.05	-46.4	-50.0	14.3	7.00e-07	0	40	0	465567744	63	5787
2026-01-13 08:49:30.79	76.43	30.11	-46.4	-50.2	14.1	0.00e+00	0	40	0	466616320	63	5861
2026-01-13 08:49:31.98	76.05	30.18	-46.5	-50.2	14.1	2.20e-06	0	40	0	468713472	63	5879
2026-01-13 08:49:32.83	75.77	30.24	-46.5	-50.3	14.0	7.00e-07	0	40	0	470810624	63	5933
2026-01-13 08:49:33.97	75.39	30.31	-46.6	-50.3	14.0	4.50e-06	0	40	0	472907776	63	5965
2026-01-13 08:49:34.82	75.11	30.36	-46.7	-50.6	13.6	3.80e-06	0	40	0	473956352	64	5828
2026-01-13 08:49:35.95	74.74	30.43	-46.8	-50.7	13.6	1.06e-05	0	40	0	476053504	64	5881
2026-01-13 08:49:36.81	74.46	30.48	-46.8	-50.7	13.5	6.10e-06	0	40	0	478150656	64	5903
2026-01-13 08:49:37.94	74.08	30.55	-46.8	-50.8	13.4	9.10e-06	0	40	0	480247808	64	5992
2026-01-13 08:49:38.79	73.80	30.60	-46.7	-50.6	13.6	1.22e-05	0	40	0	482344960	64	5837
2026-01-13 08:49:39.93	73.41	30.66	-46.8	-50.7	13.6	8.30e-06	0	40	0	484442112	64	5878
2026-01-13 08:49:40.78	73.13	30.71	-46.6	-50.4	13.8	4.50e-06	0	40	0	485490688	64	5694
2026-01-13 08:49:42.00	72.72	30.77	-46.4	-50.1	14.2	1.50e-06	0	40	0	487587840	64	5489
2026-01-13 08:49:42.85	72.43	30.82	-46.4	-50.0	14.2	3.00e-06	0	40	0	489684992	64	5422
2026-01-13 08:49:43.99	72.04	30.88	-46.4	-50.0	14.2	1.50e-06	0	40	0	491782144	64	5440
2026-01-13 08:49:44.84	71.75	30.92	-46.3	-50.0	14.2	3.80e-06	0	40	0	492830720	64	5435
2026-01-13 08:49:46.10	71.32	30.99	-46.3	-49.9	14.3	2.20e-06	0	40	0	495976448	64	5380
2026-01-13 08:49:46.89	71.05	31.03	-46.3	-49.9	14.3	0.00e+00	0	40	0	497025024	64	5397
2026-01-13 08:49:48.09	70.64	31.08	-46.4	-50.1	14.2	3.00e-06	0	40	0	499122176	64	5495
2026-01-13 08:49:48.94	70.34	31.12	-46.4	-50.0	14.2	3.00e-06	0	40	0	501219328	64	5449
2026-01-13 08:49:50.08	69.95	31.18	-46.4	-50.1	14.2	7.00e-07	0	40	0	503316480	64	5472
2026-01-13 08:49:50.93	69.66	31.22	-46.3	-49.9	14.4	2.20e-06	0	40	0	504365056	64	5361
2026-01-13 08:49:52.07	69.26	31.27	-46.3	-49.9	14.4	3.00e-06	0	40	0	506462208	64	5375
2026-01-13 08:49:53.00	68.93	31.31	-46.2	-49.8	14.5	7.00e-07	0	40	0	508559360	64	5291
2026-01-13 08:49:53.99	68.59	31.35	-46.2	-49.7	14.6	0.00e+00	0	40	0	510656512	64	5223
2026-01-13 08:49:54.99	68.24	31.39	-46.3	-49.8	14.4	7.00e-07	0	40	0	512753664	64	5325
2026-01-13 08:49:55.98	67.89	31.43	-46.1	-49.6	14.6	7.00e-07	0	40	0	513802240	64	5176
2026-01-13 08:49:56.98	67.54	31.46	-46.2	-49.6	14.6	0.00e+00	0	40	0	515899392	64	5189
2026-01-13 08:49:57.97	67.19	31.50	-46.3	-49.9	14.4	0.00e+00	0	40	0	517996544	64	5344
2026-01-13 08:49:58.97	66.83	31.54	-46.3	-49.9	14.3	7.00e-07	0	40	0	520093696	64	5374
2026-01-13 08:49:59.97	66.48	31.57	-46.5	-50.1	14.1	7.00e-07	0	40	0	521142272	64	5528
2026-01-13 08:50:00.96	66.13	31.60	-46.5	-50.3	14.0	2.20e-06	0	40	0	523239424	64	5601
2026-01-13 08:50:01.95	65.77	31.64	-46.6	-50.4	13.9	6.80e-06	0	40	0	525336576	64	5690
2026-01-13 08:50:02.95	65.42	31.67	-46.6	-50.4	13.9	4.50e-06	0	40	0	527433728	64	5661
2026-01-13 08:50:03.94	65.06	31.70	-46.6	-50.3	13.9	2.20e-06	0	40	0	529530880	64	5636
2026-01-13 08:50:04.94	64.71	31.73	-46.6	-50.3	13.9	5.30e-06	0	40	0	530579456	64	5641
2026-01-13 08:50:05.93	64.35	31.75	-46.6	-50.3	13.9	6.10e-06	0	40	0	532676608	64	5647
2026-01-13 08:50:06.93	63.99	31.78	-46.6	-50.4	13.9	5.30e-06	0	40	0	534773760	64	5677
2026-01-13 08:50:07.92	63.63	31.80	-46.8	-50.6	13.6	5.30e-06	0	40	0	536870912	64	5848
2026-01-13 08:50:08.91	63.28	31.83	-46.9	-51.0	13.3	1.37e-05	0	40	0	537919488	64	6063
2026-01-13 08:50:09.91	62.92	31.85	-47.0	-51.1	13.1	2.82e-05	0	40	0	540016640	64	6192
2026-01-13 08:50:10.90	62.56	31.87	-47.0	-51.2	13.1	2.36e-05	0	40	0	542113792	64	6220
2026-01-13 08:50:11.90	62.20	31.89	-47.0	-51.0	13.2	2.36e-05	0	40	0	544210944	64	6120
2026-01-13 08:50:12.90	61.84	31.91	-47.0	-51.1	13.1	1.75e-05	0	40	0	546308096	64	6183
2026-01-13 08:50:13.89	61.48	31.93	-47.0	-51.2	13.1	2.89e-05	0	40	0	547356672	64	6223
2026-01-13 08:50:14.88	61.12	31.94	-47.0	-51.2	13.1	3.43e-05	0	40	0	549453824	64	6233
2026-01-13 08:50:15.94	60.73	31.96	-47.0	-51.0	13.2	3.73e-05	0	40	0	551550976	64	6123
2026-01-13 08:50:16.83	60.41	31.97	-47.0	-51.2	13.1	1.83e-05	0	40	0	553648128	64	6203
2026-01-13 08:50:17.96	60.00	31.98	-47.0	-51.0	13.2	2.44e-05	0	40	0	555745280	64	6126
2026-01-13 08:50:18.82	59.68	31.99	-47.0	-51.1	13.2	2.21e-05	0	40	0	556793856	64	6153
2026-01-13 08:50:19.95	59.27	32.00	-46.9	-51.0	13.2	2.28e-05	0	40	0	558891008	64	6077
2026-01-13 08:50:20.81	58.96	32.01	-47.0	-51.0	13.2	2.59e-05	0	40	0	560988160	64	6119
2026-01-13 08:50:21.94	58.55	32.02	-46.9	-50.9	13.3	2.51e-05	0	40	0	563085312	64	6044
2026-01-13 08:50:22.79	58.24	32.02	-46.9	-50.9	13.3	1.60e-05	0	40	0	564133888	64	6036
2026-01-13 08:50:23.93	57.82	32.03	-46.6	-50.4	13.9	9.10e-06	0	40	0	566231040	64	5689
2026-01-13 08:50:24.78	57.51	32.03	-46.5	-50.2	14.0	2.20e-06	0	40	0	568328192	64	5560
2026-01-13 08:50:25.92	57.09	32.03	-46.5	-50.2	14.1	3.80e-06	0	40	0	570425344	64	5531
2026-01-13 08:50:26.77	56.78	32.03	-46.5	-50.2	14.1	0.00e+00	0	40	0	571473920	64	5545
2026-01-13 08:50:27.91	56.37	32.03	-46.4	-50.1	14.2	7.00e-07	0	40	0	573571072	64	5491
2026-01-13 08:50:28.76	56.06	32.03	-46.5	-50.1	14.1	1.50e-06	0	40	0	575668224	64	5514
2026-01-13 08:50:29.90	55.64	32.02	-46.4	-50.1	14.2	7.00e-07	0	40	0	577765376	64	5493
2026-01-13 08:50:30.75	55.33	32.02	-46.6	-50.3	13.9	3.80e-06	0	40	0	578813952	64	5652
2026-01-13 08:50:31.89	54.91	32.01	-46.8	-50.6	13.6	3.00e-06	0	40	0	581959680	64	5832
2026-01-13 08:50:32.80	54.58	32.01	-46.9	-51.0	13.3	1.37e-05	0	40	0	583008256	64	6072
2026-01-13 08:50:33.97	54.16	32.00	-46.9	-50.9	13.4	1.98e-05	0	40	0	585105408	64	6053
2026-01-13 08:50:34.86	53.83	31.99	-46.8	-50.8	13.5	1.60e-05	0	40	0	587202560	64	5942
2026-01-13 08:50:35.99	53.42	31.97	-46.7	-50.6	13.7	7.60e-06	0	40	0	589299712	64	5798
2026-01-13 08:50:36.85	53.11	31.96	-46.7	-50.6	13.7	5.30e-06	0	40	0	590348288	64	5820
2026-01-13 08:50:37.99	52.69	31.95	-46.7	-50.6	13.7	4.50e-06	0	40	0	592445440	64	5810
2026-01-13 08:50:38.84	52.39	31.93	-46.8	-50.7	13.6	6.80e-06	0	40	0	594542592	64	5902
2026-01-13 08:50:39.98	51.97	31.92	-46.8	-50.8	13.4	1.37e-05	0	40	0	596639744	64	5964
2026-01-13 08:50:40.83	51.67	31.90	-46.9	-50.9	13.4	1.06e-05	0	40	0	598736896	64	6032
2026-01-13 08:50:41.97	51.25	31.88	-46.8	-50.9	13.4	1.83e-05	0	40	0	600834048	64	5993
2026-01-13 08:50:42.82	50.95	31.86	-46.8	-50.7	13.5	1.06e-05	0	40	0	601882624	64	5895
2026-01-13 08:50:43.96	50.53	31.84	-46.7	-50.6	13.7	8.30e-06	0	40	0	603979776	64	5842
2026-01-13 08:50:44.81	50.23	31.82	-46.7	-50.5	13.7	6.80e-06	0	40	0	606076928	64	5763
2026-01-13 08:50:45.99	49.80	31.79	-46.6	-50.3	14.0	7.60e-06	0	40	0	608174080	64	5623
2026-01-13 08:50:46.85	49.49	31.77	-46.4	-50.1	14.2	1.50e-06	0	40	0	609222656	64	5489
2026-01-13 08:50:47.99	49.09	31.74	-46.5	-50.2	14.1	1.50e-06	0	40	0	611319808	64	5535
2026-01-13 08:50:48.84	48.78	31.71	-46.6	-50.3	14.0	3.80e-06	0	40	0	613416960	64	5638
2026-01-13 08:50:49.98	48.37	31.68	-46.6	-50.3	13.9	2.20e-06	0	40	0	615514112	64	5625
2026-01-13 08:50:50.83	48.07	31.65	-46.7	-50.4	13.8	3.00e-06	0	40	0	616562688	64	5717
2026-01-13 08:50:51.97	47.67	31.62	-46.9	-50.8	13.4	6.80e-06	0	40	0	618659840	64	5981
2026-01-13 08:50:52.82	47.36	31.59	-46.8	-50.8	13.4	9.90e-06	0	40	0	620756992	64	5940
2026-01-13 08:50:53.96	46.96	31.55	-46.8	-50.7	13.5	6.80e-06	0	40	0	622854144	64	5898
2026-01-13 08:50:54.81	46.66	31.52	-46.7	-50.6	13.6	9.10e-06	0	40	0	623902720	64	5816
2026-01-13 08:50:55.95	46.26	31.48	-46.7	-50.5	13.7	4.50e-06	0	40	0	627048448	64	5776
2026-01-13 08:50:56.80	45.96	31.45	-46.6	-50.4	13.8	3.00e-06	0	40	0	628097024	64	5717
2026-01-13 08:50:57.93	45.56	31.40	-46.7	-50.5	13.7	3.00e-06	0	40	0	630194176	64	5787
2026-01-13 08:50:58.79	45.26	31.37	-46.7	-50.6	13.7	6.10e-06	0	40	0	632291328	64	5814
2026-01-13 08:50:59.92	44.86	31.32	-46.8	-50.8	13.4	1.83e-05	0	40	0	634388480	64	5979
2026-01-13 08:51:00.78	44.56	31.29	-46.9	-51.0	13.2	1.67e-05	0	40	0	635437056	64	6086
2026-01-13 08:51:01.98	44.15	31.23	-47.0	-51.2	13.0	3.35e-05	0	40	0	637534208	64	6236
2026-01-13 08:51:02.83	43.85	31.20	-47.0	-51.2	13.1	4.88e-05	0	40	0	639631360	64	6230
2026-01-13 08:51:04.01	43.44	31.14	-47.0	-51.2	13.0	4.27e-05	0	40	0	641728512	64	6229
2026-01-13 08:51:04.87	43.15	31.10	-47.0	-51.1	13.1	3.43e-05	0	40	0	642777088	64	6198
2026-01-13 08:51:06.00	42.76	31.05	-46.9	-50.9	13.3	2.28e-05	0	40	0	645922816	64	6039
2026-01-13 08:51:06.86	42.46	31.01	-46.8	-50.8	13.5	1.52e-05	0	40	0	646971392	64	5928
2026-01-13 08:51:08.00	42.07	30.95	-46.6	-50.4	13.8	9.10e-06	0	40	0	649068544	64	5717
2026-01-13 08:51:08.85	41.79	30.90	-46.6	-50.5	13.7	5.30e-06	0	40	0	651165696	64	5745
2026-01-13 08:51:09.99	41.40	30.85	-46.8	-50.8	13.5	9.10e-06	0	40	0	653262848	64	5973
2026-01-13 08:51:10.84	41.11	30.80	-46.9	-50.9	13.3	2.28e-05	0	40	0	654311424	64	6048
2026-01-13 08:51:11.98	40.73	30.74	-47.1	-51.3	12.9	4.34e-05	0	40	0	656408576	64	6339
2026-01-13 08:51:12.83	40.44	30.69	-47.1	-51.4	12.8	8.08e-05	0	40	0	658505728	65	5996
2026-01-13 08:51:13.97	40.06	30.63	-47.2	-51.4	12.8	5.26e-05	0	40	0	660602880	65	6047
2026-01-13 08:51:14.82	39.78	30.58	-47.2	-51.4	12.9	5.87e-05	0	40	0	661651456	65	6040
2026-01-13 08:51:15.95	39.40	30.51	-47.2	-51.4	12.9	7.01e-05	0	40	0	663748608	65	6005
2026-01-13 08:51:16.80	39.12	30.46	-47.1	-51.2	13.0	5.49e-05	0	40	0	665845760	65	5902
2026-01-13 08:51:17.94	38.74	30.40	-47.0	-51.1	13.1	4.04e-05	0	40	0	667942912	65	5836
2026-01-13 08:51:18.79	38.46	30.34	-47.1	-51.2	13.0	3.66e-05	0	40	0	668991488	65	5892
2026-01-13 08:51:19.99	38.07	30.27	-47.2	-51.5	12.7	6.48e-05	0	40	0	672137216	65	6086
2026-01-13 08:51:20.85	37.79	30.22	-47.2	-51.5	12.7	6.02e-05	0	40	0	673185792	65	6096
2026-01-13 08:51:21.98	37.42	30.14	-47.2	-51.5	12.8	6.40e-05	0	40	0	675282944	65	6073
2026-01-13 08:51:22.83	37.15	30.09	-47.0	-51.2	13.1	5.95e-05	0	40	0	677380096	65	5902
2026-01-13 08:51:24.10	36.74	30.01	-47.0	-51.0	13.2	2.74e-05	0	40	0	679477248	65	5772
2026-01-13 08:51:24.88	36.49	29.95	-46.9	-50.9	13.3	2.36e-05	0	40	0	680525824	65	5722
2026-01-13 08:51:26.08	36.10	29.87	-46.9	-50.8	13.4	2.21e-05	0	40	0	682622976	65	5632
2026-01-13 08:51:26.93	35.83	29.82	-46.9	-50.9	13.3	2.21e-05	0	40	0	684720128	65	5703
2026-01-13 08:51:28.07	35.47	29.74	-46.9	-51.0	13.3	2.51e-05	0	40	0	686817280	65	5732
2026-01-13 08:51:28.92	35.20	29.68	-47.0	-51.0	13.2	1.98e-05	0	40	0	687865856	65	5752
2026-01-13 08:51:30.06	34.85	29.60	-46.9	-50.8	13.4	1.14e-05	0	40	0	691011584	65	5643
2026-01-13 08:51:30.99	34.55	29.53	-46.9	-51.0	13.3	1.44e-05	0	40	0	692060160	65	5750
2026-01-13 08:51:31.99	34.24	29.46	-46.7	-50.6	13.6	8.30e-06	0	40	0	694157312	65	5482
2026-01-13 08:51:32.99	33.93	29.39	-46.6	-50.4	13.8	3.80e-06	0	40	0	696254464	65	5391
2026-01-13 08:51:33.98	33.63	29.31	-46.6	-50.5	13.7	1.50e-06	0	40	0	698351616	65	5447
2026-01-13 08:51:34.98	33.32	29.24	-46.6	-50.5	13.8	5.30e-06	0	40	0	699400192	65	5422
2026-01-13 08:51:35.97	33.02	29.16	-46.5	-50.4	13.8	3.00e-06	0	40	0	701497344	65	5357
2026-01-13 08:51:36.97	32.71	29.09	-46.5	-50.4	13.9	1.50e-06	0	40	0	703594496	64	5663
2026-01-13 08:51:37.96	32.42	29.01	-46.5	-50.3	13.9	3.00e-06	0	40	0	705691648	64	5638
2026-01-13 08:51:38.96	32.11	28.94	-46.6	-50.4	13.8	4.50e-06	0	40	0	706740224	64	5711
2026-01-13 08:51:39.95	31.82	28.86	-46.5	-50.4	13.8	7.00e-07	0	40	0	708837376	64	5701
2026-01-13 08:51:40.99	31.51	28.78	-46.5	-50.4	13.8	6.10e-06	0	40	0	710934528	64	5709
2026-01-13 08:51:41.96	31.22	28.70	-46.5	-50.4	13.8	7.60e-06	0	40	0	713031680	64	5697
2026-01-13 08:51:42.95	30.93	28.62	-46.5	-50.4	13.8	3.00e-06	0	40	0	715128832	64	5722
2026-01-13 08:51:43.95	30.63	28.54	-46.6	-50.5	13.7	6.80e-06	0	40	0	716177408	64	5751
2026-01-13 08:51:44.95	30.34	28.46	-46.6	-50.5	13.7	8.30e-06	0	40	0	718274560	64	5767
2026-01-13 08:51:45.94	30.05	28.38	-46.6	-50.5	13.8	5.30e-06	0	40	0	720371712	64	5748
2026-01-13 08:51:46.93	29.77	28.30	-46.5	-50.3	13.9	9.10e-06	0	40	0	722468864	64	5651
2026-01-13 08:51:47.93	29.48	28.22	-46.3	-50.1	14.1	3.80e-06	0	40	0	723517440	64	5499
2026-01-13 08:51:48.92	29.19	28.14	-46.1	-49.9	14.4	1.50e-06	0	40	0	725614592	64	5363
2026-01-13 08:51:49.92	28.91	28.05	-46.1	-49.9	14.3	7.00e-07	0	40	0	727711744	64	5363
2026-01-13 08:51:50.91	28.63	27.97	-46.0	-49.7	14.5	7.00e-07	0	40	0	729808896	64	5248
2026-01-13 08:51:51.91	28.35	27.88	-46.1	-49.7	14.6	0.00e+00	0	40	0	731906048	63	5588
2026-01-13 08:51:52.90	28.07	27.80	-46.0	-49.6	14.7	0.00e+00	0	40	0	732954624	63	5498
2026-01-13 08:51:53.90	27.79	27.71	-46.1	-49.8	14.5	0.00e+00	0	40	0	735051776	63	5631
2026-01-13 08:51:54.89	27.52	27.63	-46.3	-50.0	14.3	0.00e+00	0	40	0	737148928	63	5736
2026-01-13 08:51:55.93	27.23	27.54	-46.4	-50.1	14.2	7.00e-07	0	40	0	739246080	63	5851
2026-01-13 08:51:56.96	26.95	27.45	-46.4	-50.2	14.2	1.50e-06	0	40	0	741343232	63	5869
2026-01-13 08:51:57.95	26.68	27.36	-46.3	-50.0	14.4	1.50e-06	0	40	0	742391808	63	5746
2026-01-13 08:51:58.94	26.41	27.27	-46.2	-49.8	14.5	7.00e-07	0	40	0	744488960	63	5632
2026-01-13 08:51:59.94	26.14	27.19	-46.1	-49.6	14.7	0.00e+00	0	40	0	746586112	63	5520
2026-01-13 08:52:00.93	25.87	27.10	-46.0	-49.4	14.9	0.00e+00	0	40	0	748683264	63	5388
2026-01-13 08:52:01.93	25.61	27.01	-46.1	-49.6	14.7	0.00e+00	0	40	0	749731840	63	5527
2026-01-13 08:52:02.92	25.34	26.92	-46.1	-49.7	14.6	7.00e-07	0	40	0	751828992	63	5548
2026-01-13 08:52:03.91	25.08	26.83	-46.1	-49.6	14.7	0.00e+00	0	40	0	753926144	63	5486
2026-01-13 08:52:04.91	24.82	26.74	-46.1	-49.6	14.7	0.00e+00	0	40	0	756023296	63	5490
2026-01-13 08:52:05.90	24.56	26.65	-46.0	-49.5	14.8	0.00e+00	0	40	0	758120448	63	5417
2026-01-13 08:52:06.90	24.30	26.56	-45.7	-49.0	15.3	0.00e+00	0	40	0	759169024	63	5145
2026-01-13 08:52:07.89	24.05	26.47	-45.6	-48.8	15.5	0.00e+00	0	40	0	761266176	63	4997
2026-01-13 08:52:08.89	23.79	26.38	-45.3	-48.4	15.9	0.00e+00	0	40	0	763363328	62	5087
2026-01-13 08:52:09.89	23.54	26.29	-45.3	-48.4	15.9	0.00e+00	0	40	0	765460480	62	5054
2026-01-13 08:52:10.90	23.28	26.19	-45.3	-48.3	16.0	0.00e+00	0	40	0	767557632	62	5029
2026-01-13 08:52:11.89	23.03	26.10	-45.3	-48.3	16.0	0.00e+00	0	40	0	768606208	62	5033
2026-01-13 08:52:12.95	22.77	26.00	-45.2	-48.3	16.0	0.00e+00	0	40	0	770703360	62	5006
2026-01-13 08:52:13.85	22.54	25.92	-45.1	-48.2	16.1	0.00e+00	0	40	0	772800512	62	4931
2026-01-13 08:52:14.95	22.27	25.82	-44.9	-47.8	16.4	0.00e+00	0	40	0	774897664	61	5030
2026-01-13 08:52:15.81	22.06	25.74	-44.8	-47.7	16.6	0.00e+00	0	40	0	775946240	61	4961
2026-01-13 08:52:16.95	21.78	25.63	-44.8	-47.7	16.6	0.00e+00	0	40	0	778043392	61	4962
2026-01-13 08:52:17.80	21.57	25.55	-44.7	-47.7	16.6	0.00e+00	0	40	0	780140544	61	4943
2026-01-13 08:52:18.94	21.30	25.44	-44.6	-47.5	16.7	0.00e+00	0	40	0	782237696	61	4832
2026-01-13 08:52:19.79	21.09	25.36	-44.5	-47.3	16.9	0.00e+00	0	40	0	783286272	61	4738
2026-01-13 08:52:20.92	20.82	25.25	-44.4	-47.3	17.0	0.00e+00	0	40	0	785383424	60	4988
2026-01-13 08:52:21.78	20.62	25.17	-44.6	-47.4	16.9	0.00e+00	0	40	0	787480576	60	5079
2026-01-13 08:52:22.92	20.35	25.06	-44.4	-47.1	17.1	0.00e+00	0	40	0	789577728	60	4925
2026-01-13 08:52:23.77	20.15	24.98	-44.4	-47.2	17.0	0.00e+00	0	40	0	791674880	60	4981
2026-01-13 08:52:24.91	19.89	24.87	-44.4	-47.2	17.0	0.00e+00	0	40	0	793772032	60	4969
2026-01-13 08:52:25.76	19.69	24.79	-44.3	-47.1	17.1	0.00e+00	0	40	0	794820608	60	4900
2026-01-13 08:52:27.01	19.40	24.67	-44.3	-47.0	17.2	0.00e+00	0	40	0	796917760	60	4845
2026-01-13 08:52:27.86	19.21	24.59	-44.3	-47.0	17.2	0.00e+00	0	40	0	799014912	60	4870
2026-01-13 08:52:29.00	18.95	24.48	-44.2	-46.9	17.3	0.00e+00	0	40	0	801112064	60	4806
2026-01-13 08:52:29.85	18.76	24.40	-44.2	-47.0	17.2	0.00e+00	0	40	0	802160640	60	4830
2026-01-13 08:52:30.99	18.50	24.29	-44.0	-46.7	17.5	0.00e+00	0	40	0	805306368	60	4692
2026-01-13 08:52:31.84	18.31	24.21	-43.9	-46.6	17.6	0.00e+00	0	40	0	806354944	59	4877
2026-01-13 08:52:32.97	18.06	24.10	-43.8	-46.4	17.7	0.00e+00	0	40	0	808452096	59	4802
2026-01-13 08:52:33.83	17.87	24.01	-43.7	-46.3	17.8	0.00e+00	0	40	0	810549248	59	4729
2026-01-13 08:52:34.96	17.63	23.91	-43.7	-46.2	17.9	0.00e+00	0	40	0	812646400	59	4686
2026-01-13 08:52:35.81	17.44	23.82	-43.7	-46.2	17.9	0.00e+00	0	40	0	813694976	59	4680
2026-01-13 08:52:36.95	17.19	23.71	-43.7	-46.2	17.9	0.00e+00	0	40	0	815792128	59	4699
2026-01-13 08:52:37.80	17.01	23.63	-43.7	-46.3	17.9	0.00e+00	0	40	0	817889280	59	4715
2026-01-13 08:52:38.94	16.77	23.52	-43.8	-46.3	17.8	0.00e+00	0	40	0	819986432	59	4755
2026-01-13 08:52:39.79	16.59	23.44	-43.7	-46.3	17.8	0.00e+00	0	40	0	821035008	59	4743
2026-01-13 08:52:40.93	16.35	23.33	-43.8	-46.4	17.7	0.00e+00	0	40	0	823132160	59	4797
2026-01-13 08:52:41.78	16.17	23.24	-43.9	-46.5	17.7	0.00e+00	0	40	0	825229312	59	4842
2026-01-13 08:52:42.92	15.93	23.13	-43.9	-46.6	17.5	0.00e+00	0	40	0	827326464	59	4905
2026-01-13 08:52:43.77	15.76	23.05	-44.0	-46.7	17.5	0.00e+00	0	40	0	828375040	59	4952
2026-01-13 08:52:44.90	15.53	22.94	-44.0	-46.8	17.4	0.00e+00	0	40	0	830472192	59	4989
2026-01-13 08:52:45.76	15.35	22.85	-44.2	-46.9	17.2	0.00e+00	0	40	0	832569344	59	5094
2026-01-13 08:52:47.10	15.08	22.72	-44.3	-47.1	17.1	0.00e+00	0	40	0	834666496	59	5162
2026-01-13 08:52:47.81	14.94	22.65	-44.3	-47.0	17.2	0.00e+00	0	40	0	836763648	59	5140
2026-01-13 08:52:49.09	14.68	22.53	-44.3	-47.0	17.1	0.00e+00	0	40	0	838860800	59	5158
2026-01-13 08:52:49.82	14.53	22.46	-44.3	-47.0	17.1	0.00e+00	0	40	0	839909376	59	5158
2026-01-13 08:52:51.10	14.28	22.33	-44.3	-47.0	17.2	0.00e+00	0	40	0	842006528	59	5117
2026-01-13 08:52:51.89	14.13	22.26	-44.3	-47.0	17.2	0.00e+00	0	40	0	844103680	59	5101
2026-01-13 08:52:53.07	13.90	22.14	-44.3	-47.0	17.2	0.00e+00	0	40	0	846200832	59	5105
2026-01-13 08:52:53.93	13.73	22.06	-44.3	-47.1	17.1	0.00e+00	0	40	0	847249408	59	5161
2026-01-13 08:52:55.06	13.51	21.95	-44.5	-47.2	16.9	0.00e+00	0	40	0	850395136	59	5263
2026-01-13 08:52:55.92	13.35	21.86	-44.4	-47.2	17.0	0.00e+00	0	40	0	851443712	59	5230
2026-01-13 08:52:57.06	13.13	21.75	-44.6	-47.4	16.8	0.00e+00	0	40	0	853540864	59	5354
2026-01-13 08:52:57.91	12.97	21.67	-44.6	-47.4	16.8	0.00e+00	0	40	0	855638016	59	5361
2026-01-13 08:52:59.04	12.76	21.56	-44.6	-47.4	16.8	0.00e+00	0	40	0	857735168	59	5348
2026-01-13 08:52:59.89	12.60	21.48	-44.7	-47.5	16.7	0.00e+00	0	40	0	858783744	59	5449
2026-01-13 08:53:01.09	12.38	21.36	-44.7	-47.5	16.7	0.00e+00	0	40	0	860880896	60	5143
2026-01-13 08:53:01.95	12.22	21.28	-44.6	-47.5	16.7	0.00e+00	0	40	0	862978048	60	5113
2026-01-13 08:53:03.08	12.01	21.17	-44.8	-47.7	16.5	0.00e+00	0	40	0	865075200	60	5231
2026-01-13 08:53:03.94	11.86	21.08	-44.7	-47.6	16.6	0.00e+00	0	40	0	866123776	60	5207
2026-01-13 08:53:05.07	11.65	20.97	-44.7	-47.6	16.6	0.00e+00	0	40	0	868220928	60	5217
2026-01-13 08:53:05.93	11.50	20.89	-44.6	-47.6	16.6	0.00e+00	0	40	0	870318080	60	5183
2026-01-13 08:53:07.06	11.30	20.78	-44.8	-47.8	16.5	0.00e+00	0	40	0	872415232	60	5290
2026-01-13 08:53:08.04	11.12	20.69	-44.8	-47.7	16.5	0.00e+00	0	40	0	874512384	60	5276
2026-01-13 08:53:09.04	10.95	20.59	-44.9	-47.9	16.3	0.00e+00	0	40	0	876609536	60	5368
2026-01-13 08:53:10.03	10.77	20.49	-44.8	-47.8	16.4	0.00e+00	0	40	0	877658112	60	5299
2026-01-13 08:53:11.02	10.60	20.40	-44.8	-47.8	16.4	0.00e+00	0	40	0	879755264	60	5288
2026-01-13 08:53:12.02	10.43	20.30	-44.8	-47.8	16.4	0.00e+00	0	40	0	881852416	60	5300
2026-01-13 08:53:13.02	10.26	20.21	-44.8	-47.8	16.4	0.00e+00	0	40	0	883949568	60	5324
2026-01-13 08:53:14.01	10.09	20.11	-44.8	-47.8	16.4	0.00e+00	0	40	0	884998144	60	5294
2026-01-13 08:53:15.01	9.92	20.02	-44.8	-47.8	16.4	0.00e+00	0	40	0	887095296	60	5281
2026-01-13 08:53:16.00	9.75	19.92	-44.9	-47.8	16.3	0.00e+00	0	40	0	889192448	60	5334
2026-01-13 08:53:17.00	9.58	19.82	-44.9	-47.9	16.3	0.00e+00	0	40	0	891289600	60	5361
2026-01-13 08:53:17.99	9.42	19.73	-45.0	-48.1	16.1	0.00e+00	0	40	0	893386752	60	5473
2026-01-13 08:53:18.99	9.25	19.63	-45.0	-48.1	16.1	0.00e+00	0	40	0	894435328	60	5513
2026-01-13 08:53:19.98	9.09	19.54	-45.0	-48.2	16.0	0.00e+00	0	40	0	896532480	60	5584
2026-01-13 08:53:20.98	8.93	19.44	-45.0	-48.4	15.8	0.00e+00	0	40	0	898629632	60	5682
2026-01-13 08:53:21.97	8.77	19.35	-45.0	-48.5	15.7	0.00e+00	0	40	0	900726784	60	5734
2026-01-13 08:53:22.96	8.61	19.26	-45.0	-48.5	15.7	0.00e+00	0	40	0	901775360	60	5757
2026-01-13 08:53:23.96	8.45	19.16	-44.9	-48.5	15.7	0.00e+00	0	40	0	903872512	60	5779
2026-01-13 08:53:24.96	8.29	19.07	-45.0	-48.7	15.5	0.00e+00	0	40	0	905969664	60	5881
2026-01-13 08:53:25.95	8.13	18.97	-45.1	-48.8	15.4	0.00e+00	0	40	0	908066816	60	5941
2026-01-13 08:53:26.94	7.98	18.88	-45.2	-48.9	15.3	0.00e+00	0	40	0	910163968	61	5696
2026-01-13 08:53:27.94	7.82	18.78	-45.3	-48.9	15.3	0.00e+00	0	40	0	911212544	61	5677
2026-01-13 08:53:28.93	7.67	18.69	-45.3	-48.9	15.3	0.00e+00	0	40	0	913309696	61	5677
2026-01-13 08:53:29.96	7.51	18.59	-45.4	-49.1	15.1	0.00e+00	0	40	0	915406848	61	5831
2026-01-13 08:53:30.95	7.36	18.50	-45.5	-49.2	14.9	0.00e+00	0	40	0	917504000	61	5918
2026-01-13 08:53:31.95	7.21	18.41	-45.4	-49.2	15.0	0.00e+00	0	40	0	918552576	61	5886
2026-01-13 08:53:32.94	7.06	18.31	-45.3	-49.1	15.1	0.00e+00	0	40	0	920649728	61	5798
2026-01-13 08:53:33.94	6.91	18.22	-45.4	-49.2	15.0	0.00e+00	0	40	0	922746880	61	5863
2026-01-13 08:53:34.93	6.76	18.13	-45.4	-49.2	14.9	7.00e-07	0	40	0	924844032	61	5908
2026-01-13 08:53:35.92	6.61	18.03	-45.5	-49.1	15.1	0.00e+00	0	40	0	926941184	61	5846
2026-01-13 08:53:36.92	6.46	17.94	-45.5	-49.2	15.0	0.00e+00	0	40	0	927989760	61	5860
2026-01-13 08:53:37.91	6.32	17.85	-45.6	-49.2	14.9	0.00e+00	0	40	0	930086912	61	5918
2026-01-13 08:53:38.91	6.17	17.76	-45.7	-49.3	14.9	0.00e+00	0	40	0	932184064	61	5933
2026-01-13 08:53:39.90	6.03	17.66	-45.6	-49.3	14.9	0.00e+00	0	40	0	934281216	61	5948
2026-01-13 08:53:40.90	5.89	17.57	-45.6	-49.3	14.9	0.00e+00	0	40	0	935329792	61	5956
2026-01-13 08:53:41.89	5.74	17.48	-45.5	-49.2	15.0	7.00e-07	0	40	0	937426944	61	5893
2026-01-13 08:53:42.89	5.60	17.39	-45.6	-49.3	14.8	0.00e+00	0	40	0	939524096	61	5986
2026-01-13 08:53:43.88	5.46	17.30	-45.5	-49.2	15.0	0.00e+00	0	40	0	941621248	61	5887
2026-01-13 08:53:44.88	5.32	17.21	-45.6	-49.2	14.9	0.00e+00	0	40	0	943718400	61	5894
2026-01-13 08:53:45.93	5.18	17.11	-45.6	-49.1	15.0	0.00e+00	0	40	0	945815552	61	5846
2026-01-13 08:53:46.85	5.05	17.03	-45.6	-49.2	15.0	0.00e+00	0	40	0	946864128	61	5860
2026-01-13 08:53:47.95	4.90	16.92	-45.8	-49.2	14.9	0.00e+00	0	40	0	948961280	62	5588
2026-01-13 08:53:48.82	4.78	16.85	-45.8	-49.3	14.9	0.00e+00	0	40	0	951058432	62	5618
2026-01-13 08:53:50.12	4.60	16.73	-45.9	-49.5	14.8	0.00e+00	0	40	0	953155584	62	5725
2026-01-13 08:53:50.83	4.51	16.66	-45.9	-49.5	14.7	7.00e-07	0	40	0	954204160	62	5736
2026-01-13 08:53:52.28	4.31	16.53	-45.8	-49.6	14.7	0.00e+00	0	40	0	957349888	62	5798
2026-01-13 08:53:53.23	4.19	16.44	-45.8	-49.7	14.5	1.50e-06	0	40	0	958398464	62	5865
2026-01-13 08:53:54.22	4.05	16.36	-45.8	-49.8	14.3	1.50e-06	0	40	0	960495616	62	5978
2026-01-13 08:53:55.22	3.92	16.27	-45.7	-49.7	14.6	1.50e-06	0	40	0	962592768	62	5871
2026-01-13 08:53:56.22	3.79	16.18	-45.7	-49.8	14.4	0.00e+00	0	40	0	964689920	62	5956
2026-01-13 08:53:57.21	3.66	16.09	-45.7	-49.9	14.3	0.00e+00	0	40	0	966787072	62	6009
2026-01-13 08:53:58.21	3.53	16.00	-45.7	-49.8	14.4	0.00e+00	0	40	0	967835648	62	5959
2026-01-13 08:53:59.20	3.41	15.91	-45.8	-49.7	14.4	0.00e+00	0	40	0	969932800	62	5904
2026-01-13 08:54:00.20	3.28	15.82	-45.9	-49.7	14.5	1.50e-06	0	40	0	972029952	62	5910
2026-01-13 08:54:01.26	3.15	15.73	-45.9	-49.6	14.6	1.50e-06	0	40	0	974127104	62	5815
2026-01-13 08:54:02.12	3.04	15.65	-45.9	-49.6	14.6	0.00e+00	0	40	0	975175680	62	5803
2026-01-13 08:54:03.26	2.89	15.55	-46.0	-49.8	14.3	7.00e-07	0	40	0	977272832	62	5987
2026-01-13 08:54:04.19	2.78	15.47	-46.0	-49.9	14.3	7.00e-07	0	40	0	979369984	62	6051
2026-01-13 08:54:05.36	2.63	15.36	-45.8	-49.7	14.5	1.50e-06	0	40	0	981467136	62	5888
2026-01-13 08:54:06.25	2.52	15.28	-45.8	-49.7	14.5	1.50e-06	0	40	0	983564288	62	5888
2026-01-13 08:54:07.38	2.39	15.18	-45.8	-49.9	14.3	0.00e+00	0	40	0	985661440	62	6012
2026-01-13 08:54:08.23	2.28	15.11	-45.9	-49.9	14.3	7.00e-07	0	40	0	986710016	62	6021
2026-01-13 08:54:09.37	2.15	15.01	-45.9	-49.8	14.4	7.00e-07	0	40	0	988807168	62	5970
2026-01-13 08:54:10.23	2.04	14.93	-45.9	-49.8	14.4	7.00e-07	0	40	0	990904320	62	5965
2026-01-13 08:54:11.37	1.91	14.84	-45.9	-49.7	14.5	0.00e+00	0	40	0	993001472	62	5905
2026-01-13 08:54:12.22	1.81	14.76	-46.0	-49.7	14.5	0.00e+00	0	40	0	994050048	62	5899
2026-01-13 08:54:13.36	1.67	14.66	-46.0	-49.7	14.5	0.00e+00	0	40	0	997195776	62	5871
2026-01-13 08:54:14.21	1.57	14.59	-46.0	-49.7	14.4	7.00e-07	0	40	0	998244352	62	5909
2026-01-13 08:54:15.35	1.44	14.49	-46.0	-49.8	14.4	1.50e-06	0	40	0	1000341504	62	5926
2026-01-13 08:54:16.20	1.34	14.42	-45.9	-49.8	14.4	0.00e+00	0	40	0	1002438656	62	5988
2026-01-13 08:54:17.34	1.21	14.32	-45.9	-49.8	14.4	7.00e-07	0	40	0	1004535808	62	5976
2026-01-13 08:54:18.19	1.11	14.25	-45.9	-49.9	14.3	0.00e+00	0	40	0	1005584384	62	6034
2026-01-13 08:54:19.49	0.96	14.13	-45.9	-50.0	14.1	0.00e+00	0	40	0	1008730112	62	6128
2026-01-13 08:54:20.20	0.88	14.07	-46.0	-50.1	14.0	0.00e+00	0	40	0	1009778688	62	6184
2026-01-13 08:54:21.48	0.74	13.96	-46.1	-50.2	13.9	7.60e-06	0	40	0	1011875840	62	6265
2026-01-13 08:54:22.19	0.66	13.90	-46.1	-50.2	14.0	8.30e-06	0	40	0	1012924416	62	6244
2026-01-13 08:54:23.47	0.52	13.80	-46.3	-50.3	13.8	4.50e-06	0	40	0	1016070144	63	5983
2026-01-13 08:54:24.21	0.44	13.73	-46.2	-50.2	13.9	2.20e-06	0	40	0	1017118720	63	5873
2026-01-13 08:54:25.49	0.30	13.62	-46.3	-50.1	14.0	4.50e-06	0	40	0	1019215872	63	5851
2026-01-13 08:54:26.21	0.22	13.56	-46.3	-50.2	13.9	5.30e-06	0	40	0	1020264448	63	5918
2026-01-13 08:54:27.83	0.04	13.43	-46.3	-50.1	14.0	1.50e-06	0	40	0	1023410176	63	5837
2026-01-13 08:54:28.40	359.98	13.38	-46.2	-50.0	14.1	1.50e-06	0	40	0	1024458752	63	5768
2026-01-13 08:54:30.10	359.80	13.24	-46.2	-50.1	14.0	1.50e-06	0	40	0	1027604480	63	5810
2026-01-13 08:54:30.77	359.73	13.18	-46.2	-50.0	14.1	1.50e-06	0	40	0	1029701632	63	5769
2026-01-13 08:54:32.19	359.58	13.06	-46.2	-50.1	14.0	3.00e-06	0	40	0	1031798784	63	5815
2026-01-13 08:54:32.90	359.50	13.00	-46.1	-49.9	14.2	3.80e-06	0	39	0	1032847360	63	5712
2026-01-13 08:54:34.18	359.37	12.90	-46.2	-49.9	14.2	1.50e-06	0	40	0	1035993088	63	5702
2026-01-13 08:54:34.89	359.30	12.84	-46.3	-50.1	14.0	1.50e-06	0	40	0	1037041664	63	5844
2026-01-13 08:54:36.17	359.17	12.73	-46.4	-50.2	13.9	2.20e-06	0	40	0	1039138816	63	5888
2026-01-13 08:54:36.88	359.09	12.67	-46.3	-50.2	13.9	2.20e-06	0	40	0	1041235968	63	5878
2026-01-13 08:54:38.16	358.96	12.57	-46.2	-50.1	14.0	5.30e-06	0	40	0	1043333120	63	5833
2026-01-13 08:54:39.20	358.86	12.48	-46.1	-50.1	14.0	5.30e-06	0	40	0	1045430272	63	5821
2026-01-13 08:54:40.16	358.76	12.41	-46.0	-50.2	13.9	1.50e-06	0	40	0	1046478848	63	5863
2026-01-13 08:54:41.53	358.62	12.29	-45.9	-50.2	13.9	4.50e-06	0	40	0	1049624576	63	5859
2026-01-13 08:54:42.25	358.55	12.24	-45.8	-50.2	14.0	7.00e-07	0	40	0	1050673152	63	5858
2026-01-13 08:54:43.53	358.43	12.13	-45.8	-50.3	13.8	5.30e-06	0	40	0	1052770304	63	5941
2026-01-13 08:54:44.25	358.36	12.07	-45.8	-50.4	13.7	6.80e-06	0	40	0	1054867456	63	6001
2026-01-13 08:54:45.53	358.23	11.97	-45.6	-50.3	13.8	5.30e-06	0	40	0	1056964608	63	5968
2026-01-13 08:54:46.26	358.16	11.91	-45.5	-50.4	13.7	6.10e-06	0	40	0	1058013184	63	6033
2026-01-13 08:54:47.53	358.04	11.81	-45.3	-50.6	13.4	6.10e-06	0	40	0	1061158912	62	6550
2026-01-13 08:54:48.25	357.97	11.75	-45.3	-50.6	13.5	1.37e-05	0	40	0	1062207488	62	6548
2026-01-13 08:54:49.57	357.84	11.65	-45.0	-50.8	13.3	1.29e-05	0	40	0	1064304640	62	6668
2026-01-13 08:54:50.28	357.77	11.59	-44.9	-50.8	13.3	1.67e-05	0	40	0	1066401792	61	7059
2026-01-13 08:54:51.56	357.65	11.49	-44.8	-51.0	13.1	2.89e-05	0	40	0	1068498944	61	7216
2026-01-13 08:54:52.28	357.59	11.43	-44.8	-51.1	13.0	2.89e-05	0	40	0	1069547520	61	7309
2026-01-13 08:54:53.65	357.46	11.32	-44.8	-51.0	13.0	1.67e-05	0	40	0	1072693248	61	7284
2026-01-13 08:54:54.65	357.37	11.24	-45.0	-51.1	12.9	3.66e-05	0	40	0	1073741824	61	7319
2026-01-13 08:54:55.94	357.25	11.14	-45.4	-51.1	12.9	3.28e-05	0	40	0	1076887552	61	7336
2026-01-13 08:54:56.67	357.18	11.08	-45.5	-51.2	12.8	5.56e-05	0	40	0	1077936128	61	7420
2026-01-13 08:54:58.27	357.04	10.96	-45.8	-51.1	12.9	4.57e-05	0	40	0	1081081856	62	6933
2026-01-13 08:54:59.13	356.96	10.89	-46.0	-51.2	12.9	6.25e-05	0	40	0	1082130432	62	6992
2026-01-13 08:55:00.27	356.85	10.80	-46.1	-51.2	12.8	4.95e-05	0	40	0	1084227584	62	7008
2026-01-13 08:55:01.12	356.78	10.73	-46.1	-51.1	12.9	4.34e-05	0	40	0	1086324736	62	6958
2026-01-13 08:55:02.26	356.68	10.65	-46.0	-51.2	12.8	4.95e-05	0	40	0	1088421888	62	7015
2026-01-13 08:55:03.12	356.60	10.58	-45.8	-51.3	12.7	5.72e-05	0	40	0	1089470464	62	7081
2026-01-13 08:55:04.30	356.50	10.49	-45.6	-51.2	12.8	5.11e-05	0	40	0	1092616192	62	6987
2026-01-13 08:55:05.15	356.42	10.42	-45.5	-51.3	12.7	6.02e-05	0	40	0	1093664768	62	7099
2026-01-13 08:55:06.29	356.32	10.33	-45.6	-51.6	12.4	8.08e-05	0	40	0	1095761920	62	7345
2026-01-13 08:55:07.14	356.25	10.27	-45.6	-51.5	12.6	1.19e-04	0	40	0	1097859072	62	7213
2026-01-13 08:55:08.44	356.14	10.17	-45.5	-51.5	12.6	1.05e-04	0	40	0	1099956224	62	7207
2026-01-13 08:55:09.15	356.08	10.11	-45.5	-51.6	12.4	1.15e-04	0	40	0	1101004800	62	7314
2026-01-13 08:55:10.43	355.97	10.02	-45.5	-51.5	12.5	1.29e-04	0	40	0	1104150528	62	7235
2026-01-13 08:55:11.14	355.91	9.96	-45.3	-51.4	12.6	1.03e-04	0	40	0	1105199104	62	7177
2026-01-13 08:55:12.72	355.78	9.84	-44.9	-51.5	12.4	1.25e-04	0	40	0	1108344832	61	7706
2026-01-13 08:55:13.35	355.73	9.79	-44.9	-51.5	12.5	1.18e-04	0	40	0	1109393408	61	7674
2026-01-13 08:55:14.82	355.60	9.68	-44.4	-51.5	12.5	1.07e-04	0	40	0	1111490560	60	8095
2026-01-13 08:55:15.53	355.54	9.63	-44.3	-51.6	12.4	1.12e-04	0	40	0	1113587712	60	8228
2026-01-13 08:55:16.81	355.44	9.53	-44.1	-51.6	12.4	1.24e-04	0	40	0	1115684864	60	8183
2026-01-13 08:55:17.54	355.38	9.48	-44.1	-51.7	12.3	1.47e-04	0	40	0	1116733440	60	8286
2026-01-13 08:55:18.82	355.28	9.38	-44.2	-51.7	12.2	1.71e-04	0	40	0	1119879168	60	8305
2026-01-13 08:55:19.53	355.22	9.33	-44.3	-51.6	12.3	1.62e-04	0	40	0	1120927744	60	8245
2026-01-13 08:55:20.81	355.12	9.23	-44.6	-51.7	12.2	1.59e-04	0	40	0	1123024896	60	8308
2026-01-13 08:55:21.52	355.06	9.18	-44.8	-51.7	12.3	2.00e-04	0	40	0	1124073472	60	8282
2026-01-13 08:55:22.80	354.96	9.09	-45.3	-51.7	12.2	2.01e-04	0	40	0	1127219200	61	7890
2026-01-13 08:55:23.57	354.90	9.03	-44.9	-53.0	11.1	3.50e-04	0	40	0	1128267776	61	9143
2026-01-13 08:55:24.85	354.80	8.93	-47.0	-65.0	3.8	1.49e+00	0	40	104	1129316352	64	30624
2026-01-13 08:55:25.57	354.74	8.88	-49.9	-65.5	3.8	1.49e+00	0	40	104	1129316352	70	22904
2026-01-13 08:55:26.85	354.64	8.79	-50.0	-65.5	3.8	1.49e+00	0	40	104	1129316352	71	21618
2026-01-13 08:55:27.56	354.58	8.74	-50.0	-65.6	3.8	1.49e+00	0	40	104	1129316352	70	23274
2026-01-13 08:55:28.84	354.49	8.64	-49.9	-65.7	3.8	1.49e+00	0	40	104	1129316352	71	22044
2026-01-13 08:55:29.56	354.43	8.59	-49.8	-65.7	3.8	1.49e+00	0	40	104	1129316352	70	23465
2026-01-13 08:55:30.84	354.33	8.50	-50.3	-65.7	3.8	1.49e+00	0	40	104	1129316352	71	22123
2026-01-13 08:55:31.55	354.28	8.44	-50.5	-65.7	3.8	1.49e+00	0	40	104	1129316352	71	22228
2026-01-13 08:55:32.83	354.18	8.35	-50.6	-65.8	3.8	1.49e+00	0	40	104	1129316352	71	22278
2026-01-13 08:55:33.54	354.13	8.30	-50.4	-65.8	3.8	1.49e+00	0	40	104	1129316352	71	22362
2026-01-13 08:55:34.81	354.04	8.21	-50.5	-65.8	3.8	1.49e+00	0	40	104	1129316352	71	22405
2026-01-13 08:55:35.54	353.98	8.15	-50.6	-65.8	3.8	1.49e+00	0	40	104	1129316352	71	22467
2026-01-13 08:55:36.82	353.89	8.06	-50.6	-65.9	3.8	1.49e+00	0	40	104	1129316352	71	22547
2026-01-13 08:55:37.53	353.83	8.01	-50.7	-65.8	3.8	1.49e+00	0	40	104	1129316352	71	22470
2026-01-13 08:55:38.80	353.74	7.92	-50.6	-65.8	3.8	1.49e+00	0	40	104	1129316352	71	22519
2026-01-13 08:55:39.53	353.69	7.87	-50.6	-65.8	3.8	1.49e+00	0	40	104	1129316352	71	22491
2026-01-13 08:55:40.80	353.60	7.78	-50.6	-65.8	3.9	1.49e+00	0	40	104	1129316352	72	21206
2026-01-13 08:55:41.51	353.55	7.73	-50.6	-65.8	3.8	1.49e+00	0	40	104	1129316352	72	21105
2026-01-13 08:55:42.79	353.45	7.64	-50.5	-65.8	3.8	1.49e+00	0	40	104	1129316352	72	21202
2026-01-13 08:55:43.50	353.40	7.59	-50.6	-65.8	3.8	1.49e+00	0	40	104	1129316352	72	21127
2026-01-13 08:55:44.78	353.31	7.50	-50.6	-65.8	3.8	1.49e+00	0	40	104	1129316352	72	21201
2026-01-13 08:55:45.49	353.26	7.45	-50.6	-65.8	3.8	1.49e+00	0	40	104	1129316352	72	21179
2026-01-13 08:55:46.80	353.17	7.35	-50.7	-65.8	3.8	1.49e+00	0	40	104	1129316352	72	21252
2026-01-13 08:55:47.50	353.12	7.30	-50.6	-65.9	3.8	1.49e+00	0	40	104	1129316352	72	21265
2026-01-13 08:55:48.85	353.03	7.21	-50.6	-65.8	3.8	1.49e+00	0	40	104	1129316352	72	21228
2026-01-13 08:55:49.56	352.98	7.16	-50.7	-65.8	3.8	1.49e+00	0	40	104	1129316352	72	21104
2026-01-13 08:55:50.83	352.89	7.07	-50.6	-65.8	3.8	1.49e+00	0	40	104	1129316352	72	21164
2026-01-13 08:55:51.54	352.84	7.02	-50.6	-65.8	3.8	1.49e+00	0	40	104	1129316352	72	21175
2026-01-13 08:55:52.82	352.76	6.93	-50.5	-65.8	3.8	1.49e+00	0	40	104	1129316352	72	21184
2026-01-13 08:55:53.53	352.71	6.88	-50.5	-65.8	3.8	1.49e+00	0	40	104	1129316352	72	21232
2026-01-13 08:55:54.81	352.62	6.79	-50.5	-65.8	3.8	1.49e+00	0	40	104	1129316352	72	21135
2026-01-13 08:55:55.52	352.58	6.75	-50.5	-65.8	3.8	1.49e+00	0	40	104	1129316352	72	21133
2026-01-13 08:55:56.79	352.49	6.66	-50.5	-65.8	3.8	1.49e+00	0	40	104	1129316352	72	21141
2026-01-13 08:55:57.50	352.44	6.61	-50.5	-65.8	3.8	1.49e+00	0	40	104	1129316352	72	21065
2026-01-13 08:55:58.78	352.36	6.52	-50.4	-65.8	3.8	1.49e+00	0	40	104	1129316352	72	21038
2026-01-13 08:55:59.49	352.31	6.47	-50.5	-65.8	3.8	1.49e+00	0	40	104	1129316352	72	21091
2026-01-13 08:56:00.77	352.23	6.38	-50.4	-65.8	3.8	1.49e+00	0	40	104	1129316352	72	21052
2026-01-13 08:56:01.48	352.18	6.34	-50.4	-65.8	3.8	1.49e+00	0	40	104	1129316352	72	21127
2026-01-13 08:56:02.75	352.10	6.25	-50.4	-65.7	3.8	1.49e+00	0	40	104	1129316352	72	20937
2026-01-13 08:56:03.47	352.05	6.20	-50.4	-65.8	3.8	1.49e+00	0	40	104	1129316352	72	21036
2026-01-13 08:56:04.74	351.97	6.11	-50.4	-65.7	3.8	1.49e+00	0	40	104	1129316352	72	21016
2026-01-13 08:56:05.45	351.93	6.07	-50.5	-65.8	3.8	1.49e+00	0	40	104	1129316352	72	21071
2026-01-13 08:56:06.73	351.85	5.98	-50.5	-65.8	3.8	1.49e+00	0	40	104	1129316352	72	21033
2026-01-13 08:56:07.45	351.80	5.93	-50.4	-65.8	3.8	1.49e+00	0	40	104	1129316352	72	21027
2026-01-13 08:56:08.73	351.72	5.85	-50.4	-65.7	3.8	1.49e+00	0	40	104	1129316352	72	20966
2026-01-13 08:56:09.44	351.68	5.80	-50.4	-65.8	3.8	1.49e+00	0	40	104	1129316352	72	21034
2026-01-13 08:56:10.72	351.60	5.71	-50.4	-65.8	3.8	1.49e+00	0	40	104	1129316352	72	21021
2026-01-13 08:56:11.43	351.55	5.66	-50.4	-65.8	3.8	1.49e+00	0	40	104	1129316352	72	21062
