passes_logs/2026/01/15/R3.2S_Murmansk_2ch/R3.2S_Murmansk_2ch__20260115_233254_NOAA_20_JPSS-1_rec.log

#Pass ID: 20260115_233254_NOAA 20 (JPSS-1)
#Satellite: NOAA 20 (JPSS-1)
#Configuration: NOAA 20
#almurnet v.1.7.20251203
#Start time: 2026-01-15 23:32:53

#Version: 2.2.20231116
#Station: R3.2S_Murmansk_2ch
#Location: 33.079688 lon 68.888172 lat
#TLE: 1 43013U 17073A   26015.61195121  .00000020  00000+0  30574-4 0  9993
#TLE: 2 43013  98.7636 316.5448 0001475  38.5247 321.6034 14.19536030422828

#Time	Az	El	Level	Level2	SNR	BER	BlckErr	Temp	State	Recorded	gain1	gain2
2026-01-15 23:32:53.52	20.96	1.97	-49.9	-65.6	3.8	1.49e+00	0	31	0	0	66	21365
2026-01-15 23:32:54.53	20.99	2.03	-49.9	-65.7	3.8	1.49e+00	0	31	104	0	64	24320
2026-01-15 23:32:55.54	21.03	2.09	-49.9	-65.6	3.8	1.49e+00	0	31	104	0	64	23922
2026-01-15 23:32:56.55	21.07	2.15	-49.9	-65.5	3.8	1.49e+00	0	31	104	0	64	23626
2026-01-15 23:32:57.56	21.10	2.22	-49.9	-65.2	3.8	1.49e+00	0	31	104	0	64	22789
2026-01-15 23:32:58.57	21.14	2.28	-49.9	-65.1	3.8	1.49e+00	0	31	104	0	64	22567
2026-01-15 23:32:59.57	21.17	2.34	-49.8	-64.9	3.8	1.49e+00	0	31	104	0	64	22018
2026-01-15 23:33:00.58	21.21	2.40	-49.9	-65.0	3.8	1.49e+00	0	31	104	0	64	22459
2026-01-15 23:33:01.59	21.25	2.47	-49.8	-64.8	3.8	1.49e+00	0	32	104	0	64	21784
2026-01-15 23:33:02.60	21.28	2.53	-49.9	-65.0	3.8	1.49e+00	0	31	104	0	64	22325
2026-01-15 23:33:03.61	21.32	2.59	-49.9	-64.6	3.8	1.49e+00	0	31	104	0	64	21273
2026-01-15 23:33:04.62	21.36	2.66	-49.9	-65.0	3.8	1.49e+00	0	31	104	0	64	22502
2026-01-15 23:33:05.63	21.40	2.72	-49.8	-64.1	3.8	1.49e+00	0	32	104	0	64	20080
2026-01-15 23:33:06.64	21.43	2.78	-49.9	-64.4	3.8	1.49e+00	0	32	104	0	64	20879
2026-01-15 23:33:07.65	21.47	2.85	-49.8	-63.4	4.0	1.49e+00	0	32	104	0	64	18600
2026-01-15 23:33:08.66	21.51	2.91	-49.8	-62.9	3.9	1.45e+00	0	32	104	0	64	17662
2026-01-15 23:33:09.67	21.55	2.98	-49.8	-62.5	4.2	1.20e+00	0	31	0	0	64	16881
2026-01-15 23:33:10.67	21.58	3.04	-49.7	-61.2	4.6	1.40e+00	0	32	0	0	64	14401
2026-01-15 23:33:11.68	21.62	3.10	-49.6	-60.2	5.1	6.29e-01	0	32	0	2097152	64	12853
2026-01-15 23:33:12.69	21.66	3.17	-49.7	-61.5	4.5	5.98e-01	0	32	0	4194304	64	14901
2026-01-15 23:33:13.70	21.70	3.23	-49.6	-60.0	5.2	5.80e-01	0	32	0	6291456	64	12642
2026-01-15 23:33:14.71	21.74	3.30	-49.7	-61.2	4.7	9.55e-01	0	32	0	7340032	64	14458
2026-01-15 23:33:15.72	21.77	3.36	-49.5	-59.8	5.4	5.33e-01	0	32	0	9437184	64	12237
2026-01-15 23:33:16.73	21.81	3.43	-49.5	-59.9	5.3	6.28e-01	0	32	0	11534336	64	12464
2026-01-15 23:33:17.74	21.85	3.49	-49.5	-59.3	5.7	3.45e-01	0	32	0	13631488	64	11654
2026-01-15 23:33:18.75	21.89	3.56	-49.4	-58.6	6.2	3.50e-01	0	32	0	15728640	64	10729
2026-01-15 23:33:19.76	21.93	3.63	-49.3	-57.8	6.7	2.50e-01	0	32	0	16777216	64	9789
2026-01-15 23:33:20.76	21.97	3.69	-49.3	-57.7	6.9	9.17e-02	0	32	0	18874368	64	9675
2026-01-15 23:33:21.78	22.01	3.76	-49.1	-56.7	7.7	1.16e-01	0	32	0	20971520	64	8607
2026-01-15 23:33:22.78	22.05	3.82	-48.6	-54.7	9.5	2.28e-02	0	32	0	23068672	63	7252
2026-01-15 23:33:23.79	22.09	3.89	-48.5	-54.4	9.8	9.76e-03	0	32	0	25165824	63	6970
2026-01-15 23:33:24.80	22.13	3.96	-48.0	-52.7	11.3	6.72e-04	0	32	0	26214400	62	6122
2026-01-15 23:33:25.81	22.17	4.02	-47.8	-52.3	11.6	2.01e-04	0	32	0	28311552	62	5824
2026-01-15 23:33:26.82	22.21	4.09	-47.7	-52.3	11.7	8.77e-05	0	32	0	30408704	62	5789
2026-01-15 23:33:27.83	22.25	4.16	-47.6	-52.0	11.9	3.50e-05	0	32	0	32505856	61	5929
2026-01-15 23:33:28.84	22.29	4.22	-47.4	-51.4	12.3	3.80e-06	0	32	0	34603008	60	5906
2026-01-15 23:33:29.85	22.33	4.29	-47.3	-51.3	12.4	2.20e-06	0	32	0	35651584	60	5798
2026-01-15 23:33:30.86	22.37	4.36	-47.4	-51.4	12.3	6.80e-06	0	32	0	37748736	60	5921
2026-01-15 23:33:31.87	22.41	4.42	-47.3	-51.2	12.5	5.30e-06	0	32	0	39845888	60	5754
2026-01-15 23:33:32.88	22.45	4.49	-47.3	-51.3	12.4	1.14e-05	0	32	0	41943040	60	5804
2026-01-15 23:33:33.89	22.50	4.56	-47.8	-52.5	11.4	2.20e-06	0	32	0	44040192	60	6668
2026-01-15 23:33:34.90	22.54	4.63	-48.0	-52.8	11.2	1.07e-04	0	32	0	45088768	61	6567
2026-01-15 23:33:35.91	22.58	4.70	-47.9	-52.8	11.3	5.22e-04	0	32	0	47185920	61	6498
2026-01-15 23:33:36.91	22.62	4.76	-48.4	-54.0	10.2	3.68e-04	0	32	0	49283072	61	7530
2026-01-15 23:33:37.92	22.66	4.83	-48.9	-55.9	8.4	3.15e-02	0	32	0	51380224	63	8324
2026-01-15 23:33:38.93	22.71	4.90	-48.9	-55.9	8.5	1.49e-02	0	32	0	53477376	63	8328
2026-01-15 23:33:39.94	22.75	4.97	-49.2	-57.0	7.5	6.00e-02	0	32	0	54525952	63	9487
2026-01-15 23:33:40.95	22.79	5.04	-49.3	-57.6	7.0	8.15e-02	0	32	0	56623104	63	10126
2026-01-15 23:33:41.96	22.83	5.11	-48.3	-53.7	10.7	4.36e-03	0	32	0	58720256	63	6437
2026-01-15 23:33:42.97	22.88	5.18	-49.6	-60.9	4.7	5.47e-01	0	33	0	60817408	64	13922
2026-01-15 23:33:43.98	22.92	5.25	-49.1	-56.2	8.3	2.40e-02	0	32	0	62914560	64	8141
2026-01-15 23:33:44.99	22.96	5.32	-47.6	-51.6	12.4	7.09e-05	0	32	0	65011712	61	5718
2026-01-15 23:33:46.00	23.01	5.39	-49.7	-60.2	5.1	1.75e-01	0	32	0	66060288	64	12855
2026-01-15 23:33:47.01	23.05	5.46	-47.2	-50.9	13.0	7.51e-02	0	32	0	68157440	61	5220
2026-01-15 23:33:48.02	23.10	5.53	-47.1	-50.6	13.1	0.00e+00	0	32	0	70254592	60	5398
2026-01-15 23:33:49.03	23.14	5.60	-47.0	-50.4	13.3	7.00e-07	0	33	0	72351744	60	5265
2026-01-15 23:33:50.04	23.18	5.67	-47.3	-51.0	12.8	0.00e+00	0	33	0	74448896	60	5637
2026-01-15 23:33:51.05	23.23	5.74	-47.0	-50.5	13.3	0.00e+00	0	32	0	75497472	60	5283
2026-01-15 23:33:52.06	23.27	5.81	-47.3	-51.0	12.9	0.00e+00	0	32	0	77594624	60	5609
2026-01-15 23:33:53.07	23.32	5.88	-47.2	-50.7	13.1	1.50e-06	0	32	0	79691776	60	5457
2026-01-15 23:33:54.07	23.36	5.95	-46.8	-50.1	13.6	0.00e+00	0	32	0	81788928	60	5053
2026-01-15 23:33:55.08	23.41	6.02	-46.8	-50.0	13.6	0.00e+00	0	33	0	83886080	60	5003
2026-01-15 23:33:56.09	23.45	6.09	-47.0	-50.5	13.3	0.00e+00	0	33	0	84934656	60	5287
2026-01-15 23:33:57.10	23.50	6.17	-46.7	-49.9	13.7	0.00e+00	0	33	0	87031808	60	4972
2026-01-15 23:33:58.11	23.55	6.24	-46.7	-49.8	13.8	0.00e+00	0	33	0	89128960	60	4906
2026-01-15 23:33:59.12	23.59	6.31	-47.2	-50.6	13.5	0.00e+00	0	33	0	91226112	59	5696
2026-01-15 23:34:00.13	23.64	6.38	-47.0	-50.2	13.8	0.00e+00	0	33	0	93323264	59	5420
2026-01-15 23:34:01.14	23.68	6.45	-46.8	-50.0	14.0	0.00e+00	0	33	0	94371840	59	5291
2026-01-15 23:34:02.15	23.73	6.53	-47.0	-50.2	13.9	0.00e+00	0	33	0	96468992	59	5405
2026-01-15 23:34:03.16	23.78	6.60	-46.8	-49.8	14.1	0.00e+00	0	33	0	98566144	59	5186
2026-01-15 23:34:04.17	23.83	6.67	-47.0	-50.1	13.9	0.00e+00	0	33	0	100663296	59	5392
2026-01-15 23:34:05.18	23.87	6.75	-46.8	-49.9	14.0	0.00e+00	0	33	0	102760448	59	5257
2026-01-15 23:34:06.18	23.92	6.82	-46.9	-50.1	13.9	0.00e+00	0	33	0	103809024	59	5370
2026-01-15 23:34:07.19	23.97	6.89	-46.8	-49.9	14.1	0.00e+00	0	33	0	105906176	59	5219
2026-01-15 23:34:08.20	24.02	6.97	-46.6	-49.6	14.3	0.00e+00	0	33	0	108003328	59	5057
2026-01-15 23:34:09.21	24.06	7.04	-46.8	-49.9	14.1	0.00e+00	0	33	0	110100480	59	5234
2026-01-15 23:34:10.22	24.11	7.12	-46.8	-49.8	14.1	0.00e+00	0	33	0	112197632	59	5186
2026-01-15 23:34:11.23	24.16	7.19	-46.8	-49.8	14.2	0.00e+00	0	33	0	113246208	59	5175
2026-01-15 23:34:12.24	24.21	7.26	-46.6	-49.6	14.4	0.00e+00	0	33	0	115343360	59	5043
2026-01-15 23:34:13.25	24.26	7.34	-46.8	-49.8	14.2	0.00e+00	0	33	0	117440512	59	5216
2026-01-15 23:34:14.26	24.31	7.41	-46.7	-49.6	14.3	0.00e+00	0	33	0	119537664	59	5092
2026-01-15 23:34:15.27	24.36	7.49	-46.5	-49.4	14.4	0.00e+00	0	33	0	121634816	59	4949
2026-01-15 23:34:16.28	24.41	7.57	-46.6	-49.5	14.4	0.00e+00	0	33	0	122683392	59	5031
2026-01-15 23:34:17.29	24.46	7.64	-46.4	-49.2	14.6	0.00e+00	0	33	0	124780544	59	4836
2026-01-15 23:34:18.29	24.51	7.72	-46.5	-49.2	14.5	0.00e+00	0	33	0	126877696	59	4859
2026-01-15 23:34:19.30	24.56	7.79	-46.4	-49.2	14.5	0.00e+00	0	33	0	128974848	59	4858
2026-01-15 23:34:20.32	24.61	7.87	-46.5	-49.3	14.5	0.00e+00	0	33	0	131072000	59	4912
2026-01-15 23:34:21.33	24.66	7.95	-46.7	-49.6	14.4	0.00e+00	0	33	0	133169152	59	5063
2026-01-15 23:34:22.33	24.71	8.02	-46.5	-49.3	14.5	0.00e+00	0	33	0	134217728	59	4899
2026-01-15 23:34:23.34	24.76	8.10	-46.6	-49.4	14.5	0.00e+00	0	33	0	136314880	59	4958
2026-01-15 23:34:24.35	24.81	8.18	-46.3	-49.0	14.7	0.00e+00	0	33	0	138412032	59	4745
2026-01-15 23:34:25.36	24.87	8.25	-46.5	-49.3	14.6	0.00e+00	0	33	0	140509184	59	4871
2026-01-15 23:34:26.37	24.92	8.33	-46.4	-49.1	14.7	0.00e+00	0	33	0	142606336	59	4782
2026-01-15 23:34:27.38	24.97	8.41	-46.3	-49.0	14.7	0.00e+00	0	33	0	143654912	59	4734
2026-01-15 23:34:28.39	25.02	8.49	-46.3	-48.9	14.8	0.00e+00	0	33	0	145752064	59	4702
2026-01-15 23:34:29.40	25.08	8.57	-46.3	-49.0	14.8	0.00e+00	0	33	0	147849216	59	4732
2026-01-15 23:34:30.41	25.13	8.64	-46.2	-48.9	14.8	0.00e+00	0	33	0	149946368	59	4653
2026-01-15 23:34:31.42	25.18	8.72	-46.3	-48.9	14.8	0.00e+00	0	33	0	152043520	59	4688
2026-01-15 23:34:32.43	25.24	8.80	-46.3	-49.0	14.8	0.00e+00	0	33	0	153092096	59	4739
2026-01-15 23:34:33.44	25.29	8.88	-46.0	-48.4	15.1	0.00e+00	0	33	0	155189248	58	4704
2026-01-15 23:34:34.45	25.35	8.96	-46.3	-48.9	14.8	0.00e+00	0	33	0	157286400	58	4963
2026-01-15 23:34:35.46	25.40	9.04	-46.1	-48.7	14.9	0.00e+00	0	33	0	159383552	58	4823
2026-01-15 23:34:36.46	25.46	9.12	-46.1	-48.7	14.9	0.00e+00	0	33	0	161480704	58	4825
2026-01-15 23:34:37.47	25.51	9.20	-46.3	-48.9	14.9	0.00e+00	0	33	0	162529280	58	4945
2026-01-15 23:34:38.48	25.57	9.28	-46.1	-48.6	15.0	0.00e+00	0	33	0	164626432	58	4809
2026-01-15 23:34:39.49	25.62	9.36	-46.1	-48.6	15.0	0.00e+00	0	33	0	166723584	58	4783
2026-01-15 23:34:40.50	25.68	9.44	-46.0	-48.5	15.1	0.00e+00	0	33	0	168820736	58	4708
2026-01-15 23:34:41.51	25.73	9.52	-46.0	-48.4	15.1	0.00e+00	0	33	0	170917888	58	4687
2026-01-15 23:34:42.52	25.79	9.60	-46.1	-48.6	15.0	0.00e+00	0	33	0	171966464	58	4810
2026-01-15 23:34:43.53	25.85	9.69	-46.2	-48.7	15.0	0.00e+00	0	33	0	174063616	58	4860
2026-01-15 23:34:44.54	25.91	9.77	-45.9	-48.3	15.2	0.00e+00	0	33	0	176160768	58	4614
2026-01-15 23:34:45.55	25.96	9.85	-45.9	-48.3	15.2	0.00e+00	0	33	0	178257920	58	4629
2026-01-15 23:34:46.56	26.02	9.93	-45.9	-48.3	15.2	0.00e+00	0	33	0	180355072	58	4622
2026-01-15 23:34:47.56	26.08	10.01	-45.9	-48.3	15.2	0.00e+00	0	33	0	181403648	58	4619
2026-01-15 23:34:48.57	26.14	10.10	-45.9	-48.2	15.3	0.00e+00	0	33	0	183500800	58	4587
2026-01-15 23:34:49.58	26.20	10.18	-45.9	-48.3	15.2	0.00e+00	0	33	0	185597952	58	4633
2026-01-15 23:34:50.59	26.25	10.26	-45.8	-48.1	15.3	0.00e+00	0	33	0	187695104	58	4515
2026-01-15 23:34:51.60	26.31	10.35	-45.9	-48.2	15.3	0.00e+00	0	33	0	189792256	58	4592
2026-01-15 23:34:52.61	26.37	10.43	-45.8	-48.2	15.3	0.00e+00	0	33	0	190840832	58	4557
2026-01-15 23:34:53.62	26.43	10.52	-45.9	-48.3	15.2	0.00e+00	0	33	0	192937984	58	4624
2026-01-15 23:34:54.63	26.49	10.60	-45.8	-48.2	15.3	0.00e+00	0	33	0	195035136	58	4546
2026-01-15 23:34:55.64	26.55	10.68	-45.9	-48.2	15.3	0.00e+00	0	33	0	197132288	58	4583
2026-01-15 23:34:56.65	26.61	10.77	-45.9	-48.2	15.3	0.00e+00	0	33	0	199229440	58	4582
2026-01-15 23:34:57.66	26.68	10.85	-45.9	-48.2	15.3	0.00e+00	0	33	0	200278016	58	4593
2026-01-15 23:34:58.67	26.74	10.94	-45.9	-48.2	15.3	0.00e+00	0	33	0	202375168	58	4576
2026-01-15 23:34:59.68	26.80	11.03	-45.9	-48.3	15.3	0.00e+00	0	33	0	204472320	58	4609
2026-01-15 23:35:00.69	26.86	11.11	-45.9	-48.3	15.3	0.00e+00	0	33	0	206569472	58	4600
2026-01-15 23:35:01.70	26.92	11.20	-45.9	-48.2	15.3	0.00e+00	0	33	0	208666624	58	4598
2026-01-15 23:35:02.71	26.99	11.29	-45.9	-48.3	15.3	0.00e+00	0	33	0	209715200	58	4605
2026-01-15 23:35:03.71	27.05	11.37	-45.8	-48.2	15.4	0.00e+00	0	33	0	211812352	58	4548
2026-01-15 23:35:04.72	27.11	11.46	-45.9	-48.2	15.3	0.00e+00	0	33	0	213909504	58	4584
2026-01-15 23:35:05.73	27.18	11.55	-45.9	-48.2	15.3	0.00e+00	0	33	0	216006656	58	4581
2026-01-15 23:35:06.74	27.24	11.63	-45.8	-48.1	15.4	0.00e+00	0	33	0	218103808	58	4525
2026-01-15 23:35:07.75	27.31	11.72	-45.8	-48.2	15.4	0.00e+00	0	33	0	219152384	58	4563
2026-01-15 23:35:08.76	27.37	11.81	-45.7	-47.9	15.5	0.00e+00	0	33	0	221249536	58	4440
2026-01-15 23:35:09.77	27.44	11.90	-45.7	-47.9	15.5	0.00e+00	0	33	0	223346688	57	4689
2026-01-15 23:35:10.78	27.50	11.99	-45.7	-48.0	15.4	0.00e+00	0	33	0	225443840	57	4722
2026-01-15 23:35:11.79	27.57	12.08	-45.8	-48.1	15.4	0.00e+00	0	33	0	227540992	57	4775
2026-01-15 23:35:12.80	27.63	12.17	-45.6	-47.9	15.5	0.00e+00	0	33	0	229638144	57	4670
2026-01-15 23:35:13.81	27.70	12.26	-45.5	-47.7	15.6	0.00e+00	0	33	0	230686720	57	4585
2026-01-15 23:35:14.81	27.77	12.35	-45.5	-47.7	15.6	0.00e+00	0	33	0	232783872	57	4571
2026-01-15 23:35:15.82	27.84	12.44	-45.5	-47.6	15.7	0.00e+00	0	33	0	234881024	57	4534
2026-01-15 23:35:16.83	27.90	12.53	-45.5	-47.7	15.6	0.00e+00	0	33	0	236978176	57	4564
2026-01-15 23:35:17.84	27.97	12.62	-45.4	-47.6	15.7	0.00e+00	0	33	0	239075328	57	4520
2026-01-15 23:35:18.85	28.04	12.71	-45.4	-47.5	15.7	0.00e+00	0	33	0	240123904	57	4472
2026-01-15 23:35:19.86	28.11	12.80	-45.3	-47.5	15.7	0.00e+00	0	33	0	242221056	57	4457
2026-01-15 23:35:20.87	28.18	12.89	-45.4	-47.5	15.7	0.00e+00	0	33	0	244318208	57	4483
2026-01-15 23:35:21.88	28.25	12.98	-45.3	-47.4	15.8	0.00e+00	0	33	0	246415360	57	4412
2026-01-15 23:35:22.89	28.32	13.08	-45.4	-47.5	15.7	0.00e+00	0	33	0	248512512	57	4486
2026-01-15 23:35:23.90	28.39	13.17	-45.3	-47.3	15.9	0.00e+00	0	33	0	249561088	57	4387
2026-01-15 23:35:24.91	28.46	13.26	-45.3	-47.4	15.8	0.00e+00	0	33	0	251658240	57	4393
2026-01-15 23:35:25.92	28.53	13.36	-45.2	-47.3	15.9	0.00e+00	0	33	0	253755392	57	4346
2026-01-15 23:35:26.93	28.61	13.45	-45.2	-47.3	15.8	0.00e+00	0	33	0	255852544	56	4621
2026-01-15 23:35:27.94	28.68	13.54	-45.2	-47.2	15.9	0.00e+00	0	33	0	257949696	56	4592
2026-01-15 23:35:28.95	28.75	13.64	-45.2	-47.2	15.9	0.00e+00	0	33	0	258998272	56	4590
2026-01-15 23:35:29.96	28.83	13.73	-45.2	-47.2	15.9	0.00e+00	0	33	0	261095424	56	4594
2026-01-15 23:35:30.96	28.90	13.83	-45.1	-47.2	15.9	0.00e+00	0	33	0	263192576	56	4559
2026-01-15 23:35:31.97	28.97	13.92	-45.1	-47.1	15.9	0.00e+00	0	33	0	265289728	56	4530
2026-01-15 23:35:32.98	29.05	14.02	-45.1	-47.1	15.9	0.00e+00	0	33	0	267386880	56	4542
2026-01-15 23:35:33.99	29.12	14.12	-45.1	-47.1	15.9	0.00e+00	0	33	0	268435456	56	4534
2026-01-15 23:35:35.00	29.20	14.21	-45.1	-47.1	16.0	0.00e+00	0	33	0	270532608	56	4509
2026-01-15 23:35:36.01	29.27	14.31	-45.1	-47.1	16.0	0.00e+00	0	33	0	272629760	56	4512
2026-01-15 23:35:37.02	29.35	14.41	-45.1	-47.1	16.0	0.00e+00	0	33	0	274726912	56	4532
2026-01-15 23:35:38.03	29.43	14.50	-45.1	-47.1	16.0	0.00e+00	0	33	0	276824064	56	4509
2026-01-15 23:35:39.04	29.51	14.60	-45.0	-47.0	16.0	0.00e+00	0	33	0	277872640	56	4482
2026-01-15 23:35:40.05	29.58	14.70	-45.0	-47.0	16.0	0.00e+00	0	33	0	279969792	56	4450
2026-01-15 23:35:41.06	29.66	14.80	-45.0	-47.0	16.0	0.00e+00	0	33	0	282066944	56	4479
2026-01-15 23:35:42.07	29.74	14.90	-45.1	-47.1	15.9	0.00e+00	0	33	0	284164096	56	4529
2026-01-15 23:35:43.08	29.82	15.00	-45.1	-47.2	15.9	0.00e+00	0	33	0	286261248	56	4559
2026-01-15 23:35:44.09	29.90	15.10	-45.0	-47.0	16.0	0.00e+00	0	33	0	287309824	56	4471
2026-01-15 23:35:45.09	29.98	15.20	-45.1	-47.1	16.0	0.00e+00	0	33	0	289406976	56	4497
2026-01-15 23:35:46.10	30.06	15.30	-45.0	-47.0	15.9	0.00e+00	0	33	0	291504128	56	4490
2026-01-15 23:35:47.11	30.14	15.40	-45.0	-46.9	16.0	0.00e+00	0	33	0	293601280	56	4440
2026-01-15 23:35:48.12	30.22	15.50	-45.0	-47.0	16.0	0.00e+00	0	33	0	295698432	56	4489
2026-01-15 23:35:49.13	30.31	15.60	-45.1	-47.1	16.0	0.00e+00	0	33	0	297795584	56	4527
2026-01-15 23:35:50.14	30.39	15.70	-45.0	-47.0	16.0	0.00e+00	0	33	0	298844160	56	4457
2026-01-15 23:35:51.15	30.47	15.80	-45.0	-47.0	16.0	0.00e+00	0	33	0	300941312	56	4465
2026-01-15 23:35:52.16	30.56	15.91	-45.1	-47.1	15.9	0.00e+00	0	33	0	303038464	56	4536
2026-01-15 23:35:53.17	30.64	16.01	-45.1	-47.1	15.9	0.00e+00	0	33	0	305135616	56	4522
2026-01-15 23:35:54.18	30.73	16.11	-45.1	-47.1	15.9	0.00e+00	0	33	0	307232768	56	4526
2026-01-15 23:35:55.19	30.81	16.22	-45.1	-47.1	15.9	0.00e+00	0	33	0	308281344	56	4511
2026-01-15 23:35:56.20	30.90	16.32	-45.1	-47.1	16.0	0.00e+00	0	33	0	310378496	56	4537
2026-01-15 23:35:57.21	30.99	16.42	-45.0	-47.0	16.0	0.00e+00	0	33	0	312475648	56	4491
2026-01-15 23:35:58.22	31.07	16.53	-44.9	-46.9	16.0	0.00e+00	0	33	0	314572800	56	4392
2026-01-15 23:35:59.23	31.16	16.63	-45.0	-47.0	16.0	0.00e+00	0	33	0	316669952	56	4444
2026-01-15 23:36:00.24	31.25	16.74	-45.0	-47.0	16.0	0.00e+00	0	33	0	317718528	56	4461
2026-01-15 23:36:01.25	31.34	16.85	-44.9	-46.8	16.0	0.00e+00	0	33	0	319815680	56	4391
2026-01-15 23:36:02.25	31.43	16.95	-44.9	-46.9	16.0	0.00e+00	0	33	0	321912832	56	4417
2026-01-15 23:36:03.26	31.52	17.06	-45.1	-47.1	15.9	0.00e+00	0	33	0	324009984	56	4521
2026-01-15 23:36:04.27	31.61	17.17	-45.0	-47.0	16.0	0.00e+00	0	33	0	326107136	56	4453
2026-01-15 23:36:05.28	31.70	17.27	-45.0	-47.0	16.0	0.00e+00	0	33	0	327155712	56	4456
2026-01-15 23:36:06.29	31.79	17.38	-45.1	-47.1	15.9	0.00e+00	0	33	0	329252864	56	4539
2026-01-15 23:36:07.30	31.89	17.49	-45.1	-47.1	15.9	0.00e+00	0	33	0	331350016	56	4502
2026-01-15 23:36:08.31	31.98	17.60	-45.2	-47.2	15.9	0.00e+00	0	33	0	333447168	56	4557
2026-01-15 23:36:09.32	32.08	17.71	-45.2	-47.2	15.9	0.00e+00	0	33	0	335544320	56	4583
2026-01-15 23:36:10.33	32.17	17.82	-45.2	-47.3	15.8	0.00e+00	0	33	0	336592896	56	4613
2026-01-15 23:36:11.33	32.26	17.93	-45.4	-47.4	15.8	0.00e+00	0	33	0	338690048	56	4704
2026-01-15 23:36:12.34	32.36	18.04	-45.3	-47.4	15.8	0.00e+00	0	33	0	340787200	56	4683
2026-01-15 23:36:13.35	32.46	18.15	-45.4	-47.5	15.7	0.00e+00	0	33	0	342884352	56	4729
2026-01-15 23:36:14.36	32.56	18.26	-45.5	-47.6	15.6	0.00e+00	0	33	0	344981504	56	4808
2026-01-15 23:36:15.37	32.65	18.37	-45.5	-47.6	15.7	0.00e+00	0	33	0	346030080	56	4790
2026-01-15 23:36:16.38	32.75	18.49	-45.5	-47.6	15.7	0.00e+00	0	33	0	348127232	56	4805
2026-01-15 23:36:17.39	32.85	18.60	-45.5	-47.6	15.7	0.00e+00	0	33	0	350224384	56	4780
2026-01-15 23:36:18.40	32.95	18.71	-45.4	-47.5	15.7	0.00e+00	0	33	0	352321536	56	4746
2026-01-15 23:36:19.41	33.05	18.83	-45.4	-47.4	15.8	0.00e+00	0	33	0	354418688	56	4699
2026-01-15 23:36:20.42	33.16	18.94	-45.4	-47.5	15.8	0.00e+00	0	33	0	355467264	56	4720
2026-01-15 23:36:21.43	33.26	19.05	-45.4	-47.5	15.8	0.00e+00	0	33	0	357564416	56	4714
2026-01-15 23:36:22.43	33.36	19.17	-45.4	-47.5	15.8	0.00e+00	0	33	0	359661568	56	4710
2026-01-15 23:36:23.44	33.46	19.28	-45.4	-47.5	15.8	0.00e+00	0	33	0	361758720	56	4715
2026-01-15 23:36:24.45	33.57	19.40	-45.4	-47.4	15.8	0.00e+00	0	33	0	363855872	56	4703
2026-01-15 23:36:25.46	33.67	19.52	-45.4	-47.5	15.8	0.00e+00	0	33	0	364904448	56	4707
2026-01-15 23:36:26.47	33.78	19.63	-45.4	-47.5	15.7	0.00e+00	0	33	0	367001600	56	4725
2026-01-15 23:36:27.48	33.89	19.75	-45.4	-47.4	15.8	0.00e+00	0	33	0	369098752	56	4695
2026-01-15 23:36:28.50	34.00	19.87	-45.5	-47.6	15.7	0.00e+00	0	33	0	371195904	56	4799
2026-01-15 23:36:29.50	34.10	19.99	-45.4	-47.5	15.7	0.00e+00	0	33	0	373293056	56	4736
2026-01-15 23:36:30.51	34.21	20.10	-45.5	-47.6	15.7	0.00e+00	0	33	0	374341632	56	4797
2026-01-15 23:36:31.52	34.32	20.22	-45.5	-47.6	15.7	0.00e+00	0	33	0	376438784	56	4796
2026-01-15 23:36:32.53	34.43	20.34	-45.5	-47.6	15.7	0.00e+00	0	33	0	378535936	56	4808
2026-01-15 23:36:33.54	34.55	20.46	-45.5	-47.7	15.7	0.00e+00	0	33	0	380633088	56	4823
2026-01-15 23:36:34.54	34.66	20.58	-45.6	-47.7	15.7	0.00e+00	0	33	0	382730240	56	4837
2026-01-15 23:36:35.55	34.77	20.70	-45.4	-47.5	15.8	0.00e+00	0	33	0	383778816	56	4734
2026-01-15 23:36:36.56	34.89	20.83	-45.4	-47.4	15.8	0.00e+00	0	33	0	385875968	56	4698
2026-01-15 23:36:37.57	35.00	20.95	-45.4	-47.5	15.8	0.00e+00	0	33	0	387973120	56	4740
2026-01-15 23:36:38.58	35.12	21.07	-45.4	-47.5	15.7	0.00e+00	0	33	0	390070272	56	4745
2026-01-15 23:36:39.59	35.23	21.19	-45.3	-47.3	15.8	0.00e+00	0	33	0	392167424	56	4631
2026-01-15 23:36:40.60	35.35	21.32	-45.2	-47.2	15.9	0.00e+00	0	33	0	394264576	56	4578
2026-01-15 23:36:41.61	35.47	21.44	-45.2	-47.2	15.9	0.00e+00	0	33	0	395313152	56	4569
2026-01-15 23:36:42.62	35.59	21.56	-45.1	-47.1	15.9	0.00e+00	0	33	0	397410304	56	4537
2026-01-15 23:36:43.63	35.71	21.69	-45.1	-47.1	16.0	0.00e+00	0	33	0	399507456	56	4505
2026-01-15 23:36:44.64	35.83	21.82	-45.1	-47.1	15.9	0.00e+00	0	33	0	401604608	56	4525
2026-01-15 23:36:45.65	35.96	21.94	-45.1	-47.1	15.9	0.00e+00	0	33	0	403701760	56	4524
2026-01-15 23:36:46.66	36.08	22.07	-45.2	-47.1	15.9	0.00e+00	0	33	0	404750336	56	4540
2026-01-15 23:36:47.66	36.20	22.19	-45.1	-47.1	16.0	0.00e+00	0	33	0	406847488	56	4513
2026-01-15 23:36:48.68	36.33	22.32	-45.3	-47.3	15.9	0.00e+00	0	33	0	408944640	56	4635
2026-01-15 23:36:49.68	36.45	22.45	-45.3	-47.3	15.9	0.00e+00	0	33	0	411041792	56	4614
2026-01-15 23:36:50.69	36.58	22.58	-45.4	-47.4	15.8	0.00e+00	0	33	0	413138944	56	4674
2026-01-15 23:36:51.70	36.71	22.71	-45.5	-47.5	15.8	0.00e+00	0	33	0	414187520	56	4753
2026-01-15 23:36:52.71	36.84	22.84	-45.5	-47.5	15.8	0.00e+00	0	33	0	416284672	56	4754
2026-01-15 23:36:53.72	36.97	22.97	-45.5	-47.6	15.7	0.00e+00	0	33	0	418381824	56	4760
2026-01-15 23:36:54.73	37.10	23.10	-45.5	-47.6	15.7	0.00e+00	0	33	0	420478976	56	4792
2026-01-15 23:36:55.74	37.24	23.23	-45.6	-47.7	15.7	0.00e+00	0	33	0	422576128	56	4843
2026-01-15 23:36:56.75	37.37	23.36	-45.5	-47.6	15.7	0.00e+00	0	33	0	423624704	56	4797
2026-01-15 23:36:57.76	37.50	23.49	-45.4	-47.5	15.8	0.00e+00	0	33	0	425721856	56	4730
2026-01-15 23:36:58.77	37.64	23.62	-45.4	-47.5	15.7	0.00e+00	0	33	0	427819008	56	4715
2026-01-15 23:36:59.78	37.78	23.76	-45.3	-47.3	15.8	0.00e+00	0	33	0	429916160	56	4647
2026-01-15 23:37:00.79	37.92	23.89	-45.2	-47.2	15.9	0.00e+00	0	33	0	432013312	56	4597
2026-01-15 23:37:01.80	38.05	24.02	-45.2	-47.2	15.9	0.00e+00	0	33	0	433061888	56	4586
2026-01-15 23:37:02.80	38.19	24.16	-45.2	-47.1	15.9	0.00e+00	0	33	0	435159040	56	4529
2026-01-15 23:37:03.81	38.34	24.29	-45.0	-47.0	16.0	0.00e+00	0	33	0	437256192	56	4447
2026-01-15 23:37:04.82	38.48	24.43	-45.0	-47.0	16.0	0.00e+00	0	33	0	439353344	56	4454
2026-01-15 23:37:05.83	38.62	24.56	-45.0	-47.0	16.0	0.00e+00	0	33	0	441450496	56	4452
2026-01-15 23:37:06.84	38.77	24.70	-45.1	-47.0	16.0	0.00e+00	0	33	0	442499072	56	4479
2026-01-15 23:37:07.85	38.91	24.84	-45.1	-47.1	16.0	0.00e+00	0	33	0	444596224	56	4524
2026-01-15 23:37:08.86	39.06	24.98	-45.2	-47.2	15.9	0.00e+00	0	33	0	446693376	56	4568
2026-01-15 23:37:09.87	39.21	25.12	-45.3	-47.3	15.8	0.00e+00	0	33	0	448790528	56	4645
2026-01-15 23:37:10.88	39.36	25.25	-45.3	-47.4	15.8	0.00e+00	0	33	0	450887680	56	4653
2026-01-15 23:37:11.89	39.51	25.39	-45.5	-47.5	15.7	0.00e+00	0	33	0	451936256	56	4757
2026-01-15 23:37:12.90	39.67	25.53	-45.5	-47.6	15.7	0.00e+00	0	33	0	454033408	56	4762
2026-01-15 23:37:13.91	39.82	25.67	-45.5	-47.5	15.7	0.00e+00	0	33	0	456130560	56	4751
2026-01-15 23:37:14.92	39.98	25.81	-45.5	-47.5	15.8	0.00e+00	0	33	0	458227712	56	4738
2026-01-15 23:37:15.93	40.13	25.96	-45.4	-47.5	15.8	0.00e+00	0	33	0	460324864	56	4716
2026-01-15 23:37:16.94	40.29	26.10	-45.4	-47.4	15.8	0.00e+00	0	33	0	462422016	56	4687
2026-01-15 23:37:17.95	40.45	26.24	-45.4	-47.4	15.8	0.00e+00	0	33	0	463470592	56	4665
2026-01-15 23:37:18.95	40.61	26.38	-45.3	-47.3	15.8	0.00e+00	0	33	0	465567744	56	4645
2026-01-15 23:37:19.96	40.77	26.53	-45.4	-47.4	15.8	0.00e+00	0	33	0	467664896	56	4703
2026-01-15 23:37:20.97	40.94	26.67	-45.4	-47.5	15.8	0.00e+00	0	33	0	469762048	56	4722
2026-01-15 23:37:21.98	41.10	26.82	-45.5	-47.6	15.7	0.00e+00	0	33	0	471859200	56	4776
2026-01-15 23:37:22.99	41.27	26.96	-45.7	-47.8	15.6	0.00e+00	0	33	0	472907776	56	4899
2026-01-15 23:37:24.00	41.44	27.11	-45.8	-48.0	15.5	0.00e+00	0	33	0	475004928	56	4996
2026-01-15 23:37:25.01	41.61	27.25	-46.0	-48.3	15.4	0.00e+00	0	33	0	477102080	57	4884
2026-01-15 23:37:26.02	41.78	27.40	-46.2	-48.5	15.3	0.00e+00	0	33	0	479199232	57	4991
2026-01-15 23:37:27.03	41.95	27.55	-46.3	-48.7	15.2	0.00e+00	0	33	0	481296384	57	5115
2026-01-15 23:37:28.04	42.13	27.70	-46.3	-48.7	15.2	0.00e+00	0	33	0	482344960	57	5130
2026-01-15 23:37:29.05	42.30	27.84	-46.5	-49.0	15.1	0.00e+00	0	33	0	484442112	58	4996
2026-01-15 23:37:30.06	42.48	27.99	-46.4	-48.9	15.1	0.00e+00	0	33	0	486539264	58	4937
2026-01-15 23:37:31.07	42.66	28.14	-46.4	-48.8	15.2	0.00e+00	0	33	0	488636416	58	4875
2026-01-15 23:37:32.08	42.84	28.29	-46.4	-48.7	15.2	0.00e+00	0	33	0	490733568	58	4861
2026-01-15 23:37:33.09	43.02	28.44	-46.4	-48.7	15.2	0.00e+00	0	33	0	491782144	58	4851
2026-01-15 23:37:34.10	43.21	28.59	-46.3	-48.7	15.3	0.00e+00	0	33	0	493879296	58	4829
2026-01-15 23:37:35.11	43.39	28.75	-46.4	-48.8	15.2	0.00e+00	0	33	0	495976448	58	4882
2026-01-15 23:37:36.12	43.58	28.90	-46.5	-49.0	15.1	0.00e+00	0	33	0	498073600	58	4986
2026-01-15 23:37:37.12	43.77	29.05	-46.7	-49.2	15.0	0.00e+00	0	33	0	500170752	58	5125
2026-01-15 23:37:38.13	43.96	29.20	-46.9	-49.4	14.9	0.00e+00	0	33	0	501219328	58	5272
2026-01-15 23:37:39.14	44.15	29.36	-47.1	-49.7	14.7	0.00e+00	0	33	0	503316480	59	5154
2026-01-15 23:37:40.15	44.35	29.51	-47.0	-49.7	14.7	0.00e+00	0	33	0	505413632	59	5148
2026-01-15 23:37:41.16	44.54	29.66	-47.1	-49.7	14.7	0.00e+00	0	33	0	507510784	59	5153
2026-01-15 23:37:42.17	44.74	29.82	-47.1	-49.8	14.6	0.00e+00	0	33	0	509607936	59	5211
2026-01-15 23:37:43.18	44.94	29.97	-47.1	-49.9	14.6	0.00e+00	0	33	0	510656512	59	5224
2026-01-15 23:37:44.19	45.14	30.13	-47.1	-49.8	14.6	0.00e+00	0	33	0	512753664	59	5191
2026-01-15 23:37:45.20	45.35	30.29	-47.2	-50.0	14.5	0.00e+00	0	33	0	514850816	59	5310
2026-01-15 23:37:46.21	45.55	30.44	-47.2	-49.9	14.6	0.00e+00	0	33	0	516947968	59	5269
2026-01-15 23:37:47.21	45.76	30.60	-47.2	-50.0	14.6	0.00e+00	0	33	0	519045120	59	5281
2026-01-15 23:37:48.22	45.97	30.76	-47.1	-49.9	14.6	0.00e+00	0	33	0	520093696	59	5226
2026-01-15 23:37:49.23	46.18	30.92	-47.0	-49.7	14.7	0.00e+00	0	33	0	522190848	59	5132
2026-01-15 23:37:50.24	46.39	31.08	-46.8	-49.4	14.9	0.00e+00	0	33	0	524288000	59	4943
2026-01-15 23:37:51.25	46.61	31.23	-46.6	-49.0	15.1	0.00e+00	0	33	0	526385152	59	4732
2026-01-15 23:37:52.26	46.83	31.39	-46.3	-48.5	15.3	0.00e+00	0	33	0	528482304	59	4491
2026-01-15 23:37:53.27	47.05	31.55	-46.2	-48.4	15.4	0.00e+00	0	33	0	529530880	59	4441
2026-01-15 23:37:54.28	47.27	31.71	-46.3	-48.6	15.4	0.00e+00	0	33	0	531628032	59	4498
2026-01-15 23:37:55.29	47.50	31.88	-46.3	-48.6	15.3	0.00e+00	0	33	0	533725184	59	4519
2026-01-15 23:37:56.29	47.72	32.04	-46.4	-48.8	15.2	0.00e+00	0	33	0	535822336	59	4607
2026-01-15 23:37:57.30	47.95	32.20	-46.3	-48.7	15.3	0.00e+00	0	33	0	537919488	59	4555
2026-01-15 23:37:58.32	48.18	32.36	-46.4	-48.7	15.3	0.00e+00	0	33	0	538968064	59	4598
2026-01-15 23:37:59.32	48.41	32.52	-46.4	-48.7	15.3	0.00e+00	0	33	0	541065216	59	4589
2026-01-15 23:38:00.33	48.65	32.68	-46.1	-48.4	15.4	0.00e+00	0	33	0	543162368	58	4658
2026-01-15 23:38:01.35	48.89	32.85	-46.0	-48.1	15.6	0.00e+00	0	33	0	545259520	58	4544
2026-01-15 23:38:02.35	49.13	33.01	-45.9	-48.0	15.7	0.00e+00	0	33	0	547356672	58	4464
2026-01-15 23:38:03.36	49.37	33.18	-45.9	-48.0	15.6	0.00e+00	0	33	0	548405248	58	4482
2026-01-15 23:38:04.37	49.62	33.34	-45.9	-48.0	15.6	0.00e+00	0	33	0	550502400	58	4490
2026-01-15 23:38:05.38	49.86	33.50	-45.9	-48.0	15.6	0.00e+00	0	33	0	552599552	58	4471
2026-01-15 23:38:06.39	50.11	33.67	-46.2	-48.5	15.4	0.00e+00	0	33	0	554696704	58	4749
2026-01-15 23:38:07.40	50.37	33.83	-46.3	-48.6	15.3	0.00e+00	0	33	0	556793856	58	4783
2026-01-15 23:38:08.41	50.62	34.00	-46.4	-48.7	15.3	0.00e+00	0	33	0	558891008	58	4859
2026-01-15 23:38:09.42	50.88	34.17	-46.2	-48.5	15.4	0.00e+00	0	33	0	559939584	58	4737
2026-01-15 23:38:10.43	51.14	34.33	-46.2	-48.4	15.4	0.00e+00	0	33	0	562036736	58	4678
2026-01-15 23:38:11.44	51.40	34.50	-46.1	-48.3	15.5	0.00e+00	0	33	0	564133888	58	4599
2026-01-15 23:38:12.45	51.67	34.66	-46.1	-48.2	15.5	0.00e+00	0	33	0	566231040	58	4594
2026-01-15 23:38:13.45	51.93	34.83	-46.1	-48.4	15.5	0.00e+00	0	33	0	568328192	58	4654
2026-01-15 23:38:14.46	52.21	35.00	-46.1	-48.3	15.5	0.00e+00	0	33	0	569376768	58	4638
2026-01-15 23:38:15.47	52.48	35.16	-46.1	-48.4	15.5	0.00e+00	0	33	0	571473920	58	4653
2026-01-15 23:38:16.48	52.76	35.33	-46.2	-48.4	15.4	0.00e+00	0	33	0	573571072	58	4692
2026-01-15 23:38:17.49	53.04	35.50	-46.2	-48.5	15.4	0.00e+00	0	33	0	575668224	58	4725
2026-01-15 23:38:18.50	53.32	35.67	-46.2	-48.4	15.4	0.00e+00	0	33	0	577765376	58	4696
2026-01-15 23:38:19.51	53.60	35.83	-46.2	-48.4	15.4	0.00e+00	0	33	0	578813952	58	4701
2026-01-15 23:38:20.52	53.89	36.00	-46.2	-48.4	15.4	0.00e+00	0	33	0	580911104	58	4685
2026-01-15 23:38:21.53	54.18	36.17	-46.0	-48.1	15.6	0.00e+00	0	33	0	583008256	58	4533
2026-01-15 23:38:22.54	54.48	36.34	-45.9	-48.1	15.7	0.00e+00	0	33	0	585105408	58	4495
2026-01-15 23:38:23.55	54.77	36.51	-45.8	-47.9	15.7	0.00e+00	0	33	0	587202560	58	4436
2026-01-15 23:38:24.56	55.07	36.67	-45.5	-47.5	15.9	0.00e+00	0	33	0	588251136	57	4455
2026-01-15 23:38:25.57	55.37	36.84	-45.2	-47.1	16.0	0.00e+00	0	33	0	590348288	57	4290
2026-01-15 23:38:26.57	55.68	37.01	-45.1	-47.0	16.1	0.00e+00	0	33	0	592445440	56	4485
2026-01-15 23:38:27.58	55.99	37.18	-45.1	-47.0	16.1	0.00e+00	0	33	0	594542592	56	4458
2026-01-15 23:38:28.59	56.30	37.34	-45.4	-47.4	15.9	0.00e+00	0	33	0	596639744	56	4705
2026-01-15 23:38:29.60	56.61	37.51	-45.4	-47.4	15.9	0.00e+00	0	33	0	597688320	56	4670
2026-01-15 23:38:30.61	56.93	37.68	-45.6	-47.6	15.8	0.00e+00	0	33	0	599785472	56	4814
2026-01-15 23:38:31.62	57.25	37.85	-45.6	-47.7	15.7	0.00e+00	0	33	0	601882624	56	4851
2026-01-15 23:38:32.63	57.58	38.01	-45.8	-47.9	15.6	0.00e+00	0	33	0	603979776	56	4982
2026-01-15 23:38:33.64	57.91	38.18	-45.8	-47.9	15.6	0.00e+00	0	33	0	606076928	56	4967
2026-01-15 23:38:34.65	58.24	38.35	-45.8	-47.9	15.7	0.00e+00	0	33	0	607125504	56	4929
2026-01-15 23:38:35.66	58.58	38.51	-45.6	-47.7	15.7	0.00e+00	0	33	0	609222656	56	4826
2026-01-15 23:38:36.67	58.91	38.68	-45.6	-47.6	15.8	0.00e+00	0	33	0	611319808	56	4781
2026-01-15 23:38:37.68	59.26	38.85	-45.4	-47.3	15.9	0.00e+00	0	33	0	613416960	56	4637
2026-01-15 23:38:38.69	59.60	39.01	-45.4	-47.3	16.0	0.00e+00	0	33	0	615514112	56	4639
2026-01-15 23:38:39.70	59.95	39.18	-45.5	-47.5	15.9	0.00e+00	0	33	0	616562688	56	4719
2026-01-15 23:38:40.71	60.30	39.34	-45.8	-47.9	15.7	0.00e+00	0	33	0	618659840	56	4959
2026-01-15 23:38:41.71	60.65	39.51	-46.1	-48.4	15.5	0.00e+00	0	33	0	620756992	57	4929
2026-01-15 23:38:42.72	61.01	39.67	-46.5	-48.8	15.3	0.00e+00	0	33	0	622854144	58	4914
2026-01-15 23:38:43.73	61.38	39.84	-46.6	-49.1	15.1	0.00e+00	0	33	0	624951296	58	5045
2026-01-15 23:38:44.74	61.74	40.00	-46.3	-48.6	15.3	0.00e+00	0	33	0	627048448	58	4778
2026-01-15 23:38:45.75	62.11	40.16	-46.1	-48.4	15.5	0.00e+00	0	33	0	628097024	58	4661
2026-01-15 23:38:46.76	62.49	40.32	-45.8	-47.9	15.7	0.00e+00	0	33	0	630194176	58	4421
2026-01-15 23:38:47.77	62.87	40.49	-45.5	-47.6	15.9	0.00e+00	0	33	0	632291328	57	4498
2026-01-15 23:38:48.78	63.25	40.65	-45.5	-47.5	15.9	0.00e+00	0	33	0	634388480	57	4447
2026-01-15 23:38:49.79	63.63	40.81	-45.6	-47.6	15.8	0.00e+00	0	33	0	636485632	57	4526
2026-01-15 23:38:50.80	64.02	40.97	-45.7	-47.7	15.8	0.00e+00	0	33	0	637534208	57	4581
2026-01-15 23:38:51.81	64.42	41.12	-45.8	-47.9	15.7	0.00e+00	0	33	0	639631360	57	4672
2026-01-15 23:38:52.82	64.81	41.28	-45.7	-47.7	15.8	0.00e+00	0	33	0	641728512	57	4592
2026-01-15 23:38:53.83	65.21	41.44	-45.5	-47.5	15.9	0.00e+00	0	33	0	643825664	57	4454
2026-01-15 23:38:54.83	65.61	41.60	-45.2	-47.1	16.1	0.00e+00	0	33	0	645922816	57	4287
2026-01-15 23:38:55.84	66.02	41.75	-44.9	-46.8	16.2	0.00e+00	0	33	0	646971392	56	4348
2026-01-15 23:38:56.85	66.43	41.91	-45.0	-46.8	16.1	0.00e+00	0	33	0	649068544	56	4390
2026-01-15 23:38:57.86	66.85	42.06	-45.4	-47.3	15.9	0.00e+00	0	33	0	651165696	56	4646
2026-01-15 23:38:58.87	67.27	42.21	-45.7	-47.7	15.8	0.00e+00	0	33	0	653262848	56	4860
2026-01-15 23:38:59.88	67.69	42.36	-45.8	-47.9	15.6	0.00e+00	0	33	0	655360000	56	4982
2026-01-15 23:39:00.89	68.12	42.51	-45.7	-47.8	15.7	0.00e+00	0	33	0	656408576	56	4905
2026-01-15 23:39:01.90	68.55	42.66	-45.7	-47.8	15.8	0.00e+00	0	33	0	658505728	56	4872
2026-01-15 23:39:02.91	68.99	42.81	-45.5	-47.5	15.8	0.00e+00	0	33	0	660602880	56	4755
2026-01-15 23:39:03.92	69.43	42.96	-45.5	-47.4	15.9	0.00e+00	0	33	0	662700032	56	4697
2026-01-15 23:39:04.93	69.87	43.10	-45.9	-48.0	15.7	0.00e+00	0	33	0	664797184	56	4997
2026-01-15 23:39:05.94	70.32	43.25	-46.3	-48.5	15.4	0.00e+00	0	33	0	665845760	57	5025
2026-01-15 23:39:06.95	70.77	43.39	-46.7	-49.2	15.1	0.00e+00	0	33	0	667942912	58	5101
2026-01-15 23:39:07.96	71.23	43.53	-46.9	-49.4	15.0	0.00e+00	0	33	0	670040064	58	5247
2026-01-15 23:39:08.97	71.69	43.67	-46.7	-49.2	15.1	0.00e+00	0	33	0	672137216	58	5116
2026-01-15 23:39:09.97	72.15	43.81	-46.6	-49.0	15.1	0.00e+00	0	33	0	674234368	58	5041
2026-01-15 23:39:10.98	72.61	43.94	-46.4	-48.7	15.3	0.00e+00	0	33	0	675282944	58	4828
2026-01-15 23:39:11.99	73.09	44.08	-46.1	-48.3	15.6	0.00e+00	0	33	0	677380096	58	4621
2026-01-15 23:39:13.00	73.56	44.21	-46.4	-48.7	15.4	0.00e+00	0	33	0	679477248	58	4835
2026-01-15 23:39:14.01	74.04	44.34	-47.0	-49.6	14.9	0.00e+00	0	33	0	681574400	59	5061
2026-01-15 23:39:15.02	74.52	44.47	-47.3	-50.1	14.6	0.00e+00	0	33	0	683671552	59	5362
2026-01-15 23:39:16.03	75.01	44.60	-47.2	-49.8	14.7	0.00e+00	0	33	0	684720128	59	5210
2026-01-15 23:39:17.04	75.50	44.73	-46.7	-49.1	15.2	0.00e+00	0	33	0	686817280	59	4784
2026-01-15 23:39:18.05	76.00	44.85	-46.3	-48.5	15.5	0.00e+00	0	33	0	688914432	59	4490
2026-01-15 23:39:19.05	76.49	44.98	-46.1	-48.3	15.5	0.00e+00	0	33	0	691011584	58	4628
2026-01-15 23:39:20.06	76.99	45.10	-46.2	-48.4	15.5	0.00e+00	0	33	0	693108736	58	4655
2026-01-15 23:39:21.07	77.50	45.21	-46.3	-48.5	15.4	0.00e+00	0	33	0	695205888	58	4752
2026-01-15 23:39:22.08	78.01	45.33	-46.8	-49.2	15.0	0.00e+00	0	33	0	696254464	58	5158
2026-01-15 23:39:23.09	78.52	45.45	-47.2	-49.9	14.5	0.00e+00	0	33	0	698351616	60	4956
2026-01-15 23:39:24.10	79.04	45.56	-47.3	-50.2	14.3	0.00e+00	0	33	0	700448768	60	5107
2026-01-15 23:39:25.11	79.56	45.67	-46.9	-49.5	14.7	0.00e+00	0	33	0	702545920	60	4734
2026-01-15 23:39:26.12	80.09	45.78	-46.7	-49.2	15.1	0.00e+00	0	33	0	704643072	59	4833
2026-01-15 23:39:27.13	80.62	45.88	-46.6	-49.0	15.2	0.00e+00	0	33	0	705691648	59	4713
2026-01-15 23:39:28.14	81.15	45.98	-46.7	-49.1	15.2	0.00e+00	0	33	0	707788800	59	4773
2026-01-15 23:39:29.15	81.68	46.08	-46.5	-48.8	15.3	0.00e+00	0	33	0	709885952	59	4612
2026-01-15 23:39:30.16	82.22	46.18	-46.4	-48.6	15.4	0.00e+00	0	33	0	711983104	59	4545
2026-01-15 23:39:31.17	82.76	46.28	-46.7	-49.2	15.1	0.00e+00	0	33	0	714080256	59	4830
2026-01-15 23:39:32.18	83.31	46.37	-47.2	-50.0	14.7	0.00e+00	0	33	0	715128832	59	5283
2026-01-15 23:39:33.19	83.86	46.46	-47.2	-50.0	14.4	0.00e+00	0	33	0	717225984	60	5003
2026-01-15 23:39:34.20	84.41	46.55	-46.8	-49.3	14.8	0.00e+00	0	33	0	719323136	60	4634
2026-01-15 23:39:35.21	84.96	46.63	-46.7	-49.2	15.1	0.00e+00	0	33	0	721420288	59	4816
2026-01-15 23:39:36.22	85.52	46.72	-46.6	-49.0	15.2	0.00e+00	0	33	0	723517440	59	4729
2026-01-15 23:39:37.23	86.08	46.80	-46.3	-48.5	15.4	0.00e+00	0	33	0	724566016	59	4492
2026-01-15 23:39:38.24	86.64	46.87	-46.1	-48.3	15.5	0.00e+00	0	33	0	726663168	58	4639
2026-01-15 23:39:39.25	87.21	46.95	-46.2	-48.5	15.5	0.00e+00	0	33	0	728760320	58	4711
2026-01-15 23:39:40.25	87.77	47.02	-46.6	-49.0	15.1	0.00e+00	0	33	0	730857472	58	5034
2026-01-15 23:39:41.26	88.34	47.09	-46.8	-49.3	15.0	0.00e+00	0	33	0	732954624	58	5204
2026-01-15 23:39:42.27	88.92	47.15	-46.9	-49.4	14.9	0.00e+00	0	33	0	734003200	59	4979
2026-01-15 23:39:43.28	89.49	47.21	-47.0	-49.6	14.8	0.00e+00	0	33	0	736100352	59	5085
2026-01-15 23:39:44.29	90.07	47.27	-47.4	-50.2	14.5	0.00e+00	0	33	0	738197504	59	5415
2026-01-15 23:39:45.30	90.65	47.33	-46.8	-49.3	14.8	0.00e+00	0	33	0	740294656	60	4631
2026-01-15 23:39:46.31	91.23	47.38	-46.4	-48.7	15.3	0.00e+00	0	33	0	742391808	59	4576
2026-01-15 23:39:47.32	91.81	47.43	-45.9	-48.0	15.6	0.00e+00	0	33	0	743440384	58	4490
2026-01-15 23:39:48.33	92.40	47.48	-46.0	-48.1	15.6	0.00e+00	0	33	0	745537536	58	4543
2026-01-15 23:39:49.34	92.99	47.53	-46.7	-49.2	15.1	0.00e+00	0	33	0	747634688	58	5116
2026-01-15 23:39:50.35	93.58	47.57	-47.1	-49.7	14.8	0.00e+00	0	33	0	749731840	59	5155
2026-01-15 23:39:51.36	94.17	47.60	-47.1	-49.9	14.5	0.00e+00	0	33	0	751828992	60	4932
2026-01-15 23:39:52.37	94.76	47.64	-46.9	-49.4	14.9	0.00e+00	0	33	0	752877568	59	4961
2026-01-15 23:39:53.38	95.35	47.67	-46.2	-48.4	15.5	0.00e+00	0	33	0	754974720	59	4440
2026-01-15 23:39:54.39	95.95	47.70	-45.7	-47.8	15.8	0.00e+00	0	33	0	757071872	58	4353
2026-01-15 23:39:55.40	96.54	47.72	-45.6	-47.5	15.8	0.00e+00	0	33	0	759169024	57	4491
2026-01-15 23:39:56.40	97.13	47.74	-45.5	-47.5	15.9	0.00e+00	0	33	0	761266176	57	4467
2026-01-15 23:39:57.41	97.73	47.76	-45.9	-48.0	15.6	0.00e+00	0	33	0	762314752	57	4725
2026-01-15 23:39:58.42	98.33	47.78	-46.4	-48.6	15.4	0.00e+00	0	33	0	764411904	58	4809
2026-01-15 23:39:59.43	98.93	47.79	-46.8	-49.3	15.0	0.00e+00	0	33	0	766509056	58	5165
2026-01-15 23:40:00.44	99.52	47.80	-46.9	-49.4	15.0	0.00e+00	0	33	0	768606208	59	4967
2026-01-15 23:40:01.45	100.12	47.80	-47.0	-49.6	14.8	0.00e+00	0	33	0	770703360	59	5091
2026-01-15 23:40:02.46	100.72	47.80	-47.1	-49.7	14.8	0.00e+00	0	33	0	771751936	59	5135
2026-01-15 23:40:03.47	101.32	47.80	-47.1	-49.7	14.8	0.00e+00	0	33	0	773849088	59	5118
2026-01-15 23:40:04.48	101.92	47.80	-46.9	-49.4	15.0	0.00e+00	0	33	0	775946240	59	4951
2026-01-15 23:40:05.49	102.52	47.79	-46.5	-48.8	15.3	0.00e+00	0	33	0	778043392	59	4634
2026-01-15 23:40:06.50	103.12	47.78	-46.7	-49.2	15.1	0.00e+00	0	33	0	780140544	59	4821
2026-01-15 23:40:07.51	103.71	47.76	-46.8	-49.3	15.0	0.00e+00	0	33	0	781189120	59	4890
2026-01-15 23:40:08.52	104.31	47.74	-47.1	-49.8	14.8	0.00e+00	0	33	0	783286272	59	5176
2026-01-15 23:40:09.53	104.91	47.72	-47.2	-49.9	14.6	0.00e+00	0	33	0	785383424	59	5241
2026-01-15 23:40:10.54	105.50	47.70	-46.8	-49.4	14.8	0.00e+00	0	33	0	787480576	60	4702
2026-01-15 23:40:11.54	106.09	47.67	-47.1	-49.8	14.5	0.00e+00	0	33	0	789577728	60	4884
2026-01-15 23:40:12.55	106.69	47.64	-47.0	-49.7	14.6	0.00e+00	0	33	0	791674880	60	4863
2026-01-15 23:40:13.56	107.28	47.60	-47.0	-49.7	14.6	0.00e+00	0	33	0	792723456	60	4815
2026-01-15 23:40:14.57	107.87	47.56	-46.7	-49.2	15.1	0.00e+00	0	33	0	794820608	59	4819
2026-01-15 23:40:15.58	108.46	47.52	-46.2	-48.5	15.5	0.00e+00	0	33	0	796917760	59	4445
2026-01-15 23:40:16.59	109.05	47.48	-45.8	-47.9	15.7	0.00e+00	0	33	0	799014912	58	4433
2026-01-15 23:40:17.60	109.63	47.43	-45.9	-48.1	15.7	0.00e+00	0	33	0	801112064	58	4504
2026-01-15 23:40:18.61	110.22	47.38	-46.3	-48.6	15.4	0.00e+00	0	33	0	802160640	58	4775
2026-01-15 23:40:19.62	110.80	47.33	-46.7	-49.1	15.1	0.00e+00	0	33	0	804257792	58	5069
2026-01-15 23:40:20.63	111.38	47.27	-46.6	-49.0	15.2	0.00e+00	0	33	0	806354944	58	5001
2026-01-15 23:40:21.64	111.96	47.21	-46.7	-49.1	15.1	0.00e+00	0	33	0	808452096	58	5064
2026-01-15 23:40:22.65	112.53	47.15	-46.9	-49.4	14.9	0.00e+00	0	33	0	810549248	58	5269
2026-01-15 23:40:23.66	113.11	47.08	-47.2	-50.0	14.4	0.00e+00	0	33	0	811597824	60	4985
2026-01-15 23:40:24.67	113.68	47.01	-47.5	-50.5	14.1	0.00e+00	0	33	0	813694976	60	5324
2026-01-15 23:40:25.67	114.24	46.94	-47.2	-50.0	14.4	0.00e+00	0	33	0	815792128	60	5025
2026-01-15 23:40:26.68	114.81	46.87	-46.9	-49.5	14.7	0.00e+00	0	33	0	817889280	60	4710
2026-01-15 23:40:27.69	115.37	46.79	-46.9	-49.5	14.9	0.00e+00	0	33	0	819986432	59	4991
2026-01-15 23:40:28.70	115.93	46.71	-47.3	-50.0	14.6	0.00e+00	0	33	0	821035008	59	5290
2026-01-15 23:40:29.71	116.49	46.63	-47.5	-50.5	14.1	0.00e+00	0	33	0	823132160	60	5286
2026-01-15 23:40:30.72	117.04	46.54	-47.8	-50.9	13.9	0.00e+00	0	33	0	825229312	60	5561
2026-01-15 23:40:31.73	117.59	46.45	-47.4	-50.3	14.2	0.00e+00	0	33	0	827326464	60	5208
2026-01-15 23:40:32.74	118.14	46.36	-47.3	-50.1	14.3	0.00e+00	0	33	0	829423616	60	5062
2026-01-15 23:40:33.75	118.69	46.27	-47.3	-50.1	14.3	0.00e+00	0	33	0	830472192	60	5082
2026-01-15 23:40:34.76	119.23	46.17	-47.5	-50.4	14.1	0.00e+00	0	33	0	832569344	60	5254
2026-01-15 23:40:35.77	119.77	46.08	-47.9	-51.1	13.7	0.00e+00	0	33	0	834666496	61	5352
2026-01-15 23:40:36.78	120.30	45.97	-47.8	-50.9	13.8	0.00e+00	0	33	0	836763648	61	5257
2026-01-15 23:40:37.79	120.84	45.87	-47.2	-50.0	14.4	0.00e+00	0	33	0	838860800	61	4729
2026-01-15 23:40:38.80	121.37	45.77	-47.0	-49.6	14.6	0.00e+00	0	33	0	839909376	60	4801
2026-01-15 23:40:39.81	121.89	45.66	-47.4	-50.4	14.1	0.00e+00	0	33	0	842006528	60	5249
2026-01-15 23:40:40.82	122.41	45.55	-48.0	-51.4	13.5	0.00e+00	0	33	0	844103680	61	5560
2026-01-15 23:40:41.82	122.93	45.44	-47.4	-50.4	14.2	0.00e+00	0	33	0	846200832	61	4945
2026-01-15 23:40:42.83	123.44	45.32	-46.7	-49.1	15.1	0.00e+00	0	33	0	848297984	59	4781
2026-01-15 23:40:43.84	123.95	45.20	-46.1	-48.2	15.5	0.00e+00	0	33	0	849346560	58	4595
2026-01-15 23:40:44.85	124.46	45.09	-45.9	-48.0	15.7	0.00e+00	0	33	0	851443712	58	4455
2026-01-15 23:40:45.86	124.96	44.96	-46.0	-48.1	15.6	0.00e+00	0	33	0	853540864	58	4531
2026-01-15 23:40:46.87	125.46	44.84	-45.9	-48.0	15.7	0.00e+00	0	33	0	855638016	58	4461
2026-01-15 23:40:47.88	125.96	44.72	-45.3	-47.3	16.0	0.00e+00	0	33	0	857735168	57	4348
2026-01-15 23:40:48.89	126.45	44.59	-45.1	-47.0	16.1	0.00e+00	0	33	0	859832320	56	4462
2026-01-15 23:40:49.90	126.93	44.46	-45.2	-47.1	16.1	0.00e+00	0	33	0	860880896	56	4530
2026-01-15 23:40:50.91	127.42	44.33	-45.5	-47.6	15.9	0.00e+00	0	33	0	862978048	56	4763
2026-01-15 23:40:51.92	127.90	44.20	-45.8	-47.9	15.7	0.00e+00	0	33	0	865075200	56	4947
2026-01-15 23:40:52.92	128.37	44.06	-45.7	-47.7	15.8	0.00e+00	0	33	0	867172352	56	4867
2026-01-15 23:40:53.93	128.84	43.93	-45.2	-47.2	16.0	0.00e+00	0	33	0	869269504	56	4555
2026-01-15 23:40:54.94	129.31	43.79	-45.2	-47.1	16.1	0.00e+00	0	33	0	870318080	56	4536
2026-01-15 23:40:55.95	129.77	43.65	-45.1	-47.0	16.1	0.00e+00	0	33	0	872415232	56	4484
2026-01-15 23:40:56.96	130.23	43.51	-44.7	-46.5	16.3	0.00e+00	0	33	0	874512384	56	4228
2026-01-15 23:40:57.97	130.69	43.37	-44.3	-46.0	16.4	0.00e+00	0	33	0	876609536	55	4241
2026-01-15 23:40:58.98	131.14	43.23	-44.3	-46.0	16.4	0.00e+00	0	33	0	878706688	55	4227
2026-01-15 23:40:59.99	131.59	43.08	-44.7	-46.5	16.2	0.00e+00	0	33	0	879755264	55	4475
2026-01-15 23:41:01.00	132.04	42.94	-44.9	-46.7	16.2	0.00e+00	0	33	0	881852416	55	4588
2026-01-15 23:41:02.01	132.48	42.79	-44.5	-46.3	16.3	0.00e+00	0	33	0	883949568	55	4346
2026-01-15 23:41:03.01	132.91	42.64	-44.3	-46.0	16.5	0.00e+00	0	33	0	886046720	55	4220
2026-01-15 23:41:04.03	133.34	42.49	-44.5	-46.3	16.4	0.00e+00	0	33	0	888143872	55	4359
2026-01-15 23:41:05.04	133.77	42.34	-44.8	-46.6	16.2	0.00e+00	0	33	0	889192448	55	4534
2026-01-15 23:41:06.04	134.19	42.19	-45.0	-47.0	16.0	0.00e+00	0	33	0	891289600	55	4713
2026-01-15 23:41:07.05	134.61	42.04	-45.1	-47.0	16.1	0.00e+00	0	33	0	893386752	55	4734
2026-01-15 23:41:08.06	135.03	41.88	-44.8	-46.6	16.2	0.00e+00	0	33	0	895483904	55	4512
2026-01-15 23:41:09.07	135.44	41.73	-44.2	-45.8	16.5	0.00e+00	0	33	0	897581056	54	4388
2026-01-15 23:41:10.08	135.85	41.57	-44.4	-46.2	16.4	0.00e+00	0	33	0	898629632	54	4553
2026-01-15 23:41:11.09	136.26	41.41	-45.2	-47.2	16.0	0.00e+00	0	33	0	900726784	55	4839
2026-01-15 23:41:12.10	136.66	41.26	-46.1	-48.3	15.5	0.00e+00	0	33	0	902823936	57	4887
2026-01-15 23:41:13.11	137.05	41.10	-45.7	-47.7	15.8	0.00e+00	0	33	0	904921088	57	4574
2026-01-15 23:41:14.12	137.45	40.94	-45.1	-46.9	16.2	0.00e+00	0	33	0	907018240	56	4420
2026-01-15 23:41:15.13	137.84	40.78	-45.1	-46.9	16.2	0.00e+00	0	33	0	908066816	56	4441
2026-01-15 23:41:16.14	138.22	40.62	-45.5	-47.5	15.9	0.00e+00	0	33	0	910163968	56	4710
2026-01-15 23:41:17.15	138.60	40.46	-46.4	-48.7	15.3	0.00e+00	0	33	0	912261120	57	5135
2026-01-15 23:41:18.15	138.98	40.30	-46.9	-49.4	15.0	0.00e+00	0	33	0	914358272	58	5265
2026-01-15 23:41:19.16	139.35	40.13	-46.4	-48.7	15.3	0.00e+00	0	33	0	916455424	58	4824
2026-01-15 23:41:20.17	139.72	39.97	-45.8	-47.9	15.7	0.00e+00	0	33	0	917504000	58	4402
2026-01-15 23:41:21.18	140.09	39.81	-45.6	-47.6	15.9	0.00e+00	0	33	0	919601152	57	4521
2026-01-15 23:41:22.19	140.46	39.64	-45.9	-48.1	15.6	0.00e+00	0	33	0	921698304	57	4770
2026-01-15 23:41:23.20	140.82	39.48	-46.7	-49.2	15.0	0.00e+00	0	33	0	923795456	58	5142
2026-01-15 23:41:24.21	141.17	39.31	-47.0	-49.7	14.7	0.00e+00	0	33	0	925892608	59	5126
2026-01-15 23:41:25.22	141.52	39.14	-46.5	-48.8	15.2	0.00e+00	0	33	0	927989760	59	4648
2026-01-15 23:41:26.23	141.87	38.98	-45.6	-47.6	15.8	0.00e+00	0	33	0	929038336	57	4531
2026-01-15 23:41:27.24	142.22	38.81	-45.2	-47.1	16.0	0.00e+00	0	33	0	931135488	57	4256
2026-01-15 23:41:28.25	142.56	38.64	-45.8	-47.9	15.7	0.00e+00	0	33	0	933232640	57	4678
2026-01-15 23:41:29.26	142.90	38.48	-47.2	-50.0	14.6	0.00e+00	0	33	0	935329792	59	5287
2026-01-15 23:41:30.27	143.24	38.31	-48.0	-51.4	13.4	0.00e+00	0	33	0	936378368	61	5570
2026-01-15 23:41:31.27	143.57	38.14	-47.6	-50.7	13.8	0.00e+00	0	33	0	938475520	61	5150
2026-01-15 23:41:32.28	143.89	37.98	-46.7	-49.2	14.8	0.00e+00	0	33	0	940572672	60	4580
2026-01-15 23:41:33.29	144.22	37.81	-46.5	-48.9	15.2	0.00e+00	0	33	0	942669824	59	4687
2026-01-15 23:41:34.30	144.54	37.64	-46.5	-48.9	15.2	0.00e+00	0	33	0	944766976	59	4683
2026-01-15 23:41:35.31	144.86	37.47	-47.2	-49.9	14.6	0.00e+00	0	33	0	945815552	59	5230
2026-01-15 23:41:36.32	145.18	37.30	-47.8	-51.0	13.6	0.00e+00	0	33	0	947912704	60	5652
2026-01-15 23:41:37.33	145.49	37.13	-48.0	-51.4	13.4	0.00e+00	0	33	0	950009856	61	5588
2026-01-15 23:41:38.34	145.80	36.97	-47.5	-50.6	13.9	0.00e+00	0	33	0	952107008	61	5080
2026-01-15 23:41:39.35	146.10	36.80	-47.2	-50.0	14.4	0.00e+00	0	33	0	954204160	61	4742
2026-01-15 23:41:40.36	146.41	36.63	-47.2	-49.9	14.4	0.00e+00	0	33	0	956301312	60	4980
2026-01-15 23:41:41.37	146.71	36.46	-46.8	-49.4	14.9	0.00e+00	0	33	0	957349888	59	4935
2026-01-15 23:41:42.38	147.00	36.29	-46.7	-49.1	15.0	0.00e+00	0	33	0	959447040	59	4810
2026-01-15 23:41:43.39	147.30	36.12	-47.3	-50.2	14.2	0.00e+00	0	33	0	961544192	60	5132
2026-01-15 23:41:44.40	147.59	35.95	-47.9	-51.3	13.4	0.00e+00	0	33	0	963641344	61	5521
2026-01-15 23:41:45.41	147.88	35.79	-48.2	-51.7	13.2	7.00e-07	0	33	0	965738496	61	5763
2026-01-15 23:41:46.42	148.16	35.62	-47.3	-50.2	14.2	0.00e+00	0	33	0	966787072	61	4836
2026-01-15 23:41:47.43	148.45	35.45	-46.9	-49.5	14.9	0.00e+00	0	33	0	968884224	59	5027
2026-01-15 23:41:48.43	148.72	35.28	-46.9	-49.4	14.9	0.00e+00	0	33	0	970981376	59	4952
2026-01-15 23:41:49.44	149.00	35.11	-46.5	-48.9	15.2	0.00e+00	0	33	0	973078528	59	4693
2026-01-15 23:41:50.45	149.27	34.95	-47.0	-49.7	14.7	0.00e+00	0	33	0	975175680	59	5113
2026-01-15 23:41:51.46	149.54	34.78	-47.5	-50.6	14.0	0.00e+00	0	33	0	976224256	60	5357
2026-01-15 23:41:52.47	149.81	34.61	-48.3	-52.0	12.9	0.00e+00	0	33	0	978321408	61	5988
2026-01-15 23:41:53.48	150.08	34.44	-48.3	-52.1	12.9	0.00e+00	0	33	0	980418560	62	5679
2026-01-15 23:41:54.49	150.34	34.28	-47.4	-50.4	14.1	0.00e+00	0	33	0	982515712	61	4945
2026-01-15 23:41:55.50	150.60	34.11	-46.6	-49.0	15.1	0.00e+00	0	33	0	984612864	59	4729
2026-01-15 23:41:56.51	150.86	33.94	-45.8	-47.9	15.7	0.00e+00	0	33	0	985661440	58	4410
2026-01-15 23:41:57.52	151.12	33.78	-45.6	-47.7	15.7	0.00e+00	0	33	0	987758592	57	4568
2026-01-15 23:41:58.53	151.37	33.61	-45.7	-47.8	15.7	0.00e+00	0	33	0	989855744	57	4601
2026-01-15 23:41:59.54	151.62	33.45	-46.2	-48.5	15.3	0.00e+00	0	33	0	991952896	57	4992
2026-01-15 23:42:00.55	151.87	33.28	-47.0	-49.7	14.7	0.00e+00	0	33	0	994050048	59	5102
2026-01-15 23:42:01.56	152.11	33.12	-47.8	-51.1	13.6	0.00e+00	0	33	0	995098624	60	5698
2026-01-15 23:42:02.57	152.35	32.95	-48.3	-52.0	12.9	2.20e-06	0	33	0	997195776	61	5992
2026-01-15 23:42:03.58	152.60	32.79	-47.9	-51.3	13.4	0.00e+00	0	33	0	999292928	61	5469
2026-01-15 23:42:04.58	152.83	32.63	-47.1	-49.9	14.3	0.00e+00	0	33	0	1001390080	60	4982
2026-01-15 23:42:05.59	153.07	32.46	-46.5	-48.9	15.1	0.00e+00	0	33	0	1003487232	59	4700
2026-01-15 23:42:06.60	153.30	32.30	-46.0	-48.1	15.5	0.00e+00	0	33	0	1004535808	58	4538
2026-01-15 23:42:07.61	153.53	32.14	-46.0	-48.1	15.5	0.00e+00	0	33	0	1006632960	58	4545
2026-01-15 23:42:08.62	153.76	31.97	-46.3	-48.7	15.3	0.00e+00	0	33	0	1008730112	58	4835
2026-01-15 23:42:09.63	153.99	31.81	-46.9	-49.5	14.8	0.00e+00	0	33	0	1010827264	58	5332
2026-01-15 23:42:10.64	154.21	31.65	-47.3	-50.2	14.4	0.00e+00	0	33	0	1012924416	59	5415
2026-01-15 23:42:11.65	154.44	31.49	-47.3	-50.3	14.1	0.00e+00	0	33	0	1013972992	60	5181
2026-01-15 23:42:12.66	154.66	31.33	-47.2	-50.1	14.2	0.00e+00	0	33	0	1016070144	60	5072
2026-01-15 23:42:13.67	154.87	31.17	-46.8	-49.5	14.6	0.00e+00	0	33	0	1018167296	60	4728
2026-01-15 23:42:14.68	155.09	31.01	-46.8	-49.4	14.7	0.00e+00	0	33	0	1020264448	60	4673
2026-01-15 23:42:15.69	155.30	30.85	-46.7	-49.4	14.7	0.00e+00	0	33	0	1022361600	60	4654
2026-01-15 23:42:16.70	155.52	30.69	-46.8	-49.3	14.9	0.00e+00	0	33	0	1024458752	59	4902
2026-01-15 23:42:17.71	155.73	30.53	-46.4	-48.7	15.3	0.00e+00	0	33	0	1025507328	59	4581
2026-01-15 23:42:18.72	155.93	30.37	-46.7	-49.3	14.9	0.00e+00	0	33	0	1027604480	59	4879
2026-01-15 23:42:19.73	156.14	30.22	-47.2	-49.9	14.5	0.00e+00	0	33	0	1029701632	59	5266
2026-01-15 23:42:20.74	156.34	30.06	-47.5	-50.6	13.9	0.00e+00	0	33	0	1031798784	60	5372
2026-01-15 23:42:21.75	156.55	29.90	-47.8	-51.1	13.5	0.00e+00	0	33	0	1033895936	60	5700
2026-01-15 23:42:22.75	156.74	29.75	-47.4	-50.5	14.0	0.00e+00	0	33	0	1034944512	60	5283
2026-01-15 23:42:23.76	156.94	29.59	-47.0	-49.7	14.4	0.00e+00	0	33	0	1037041664	60	4868
2026-01-15 23:42:24.77	157.14	29.44	-46.6	-49.1	15.0	0.00e+00	0	33	0	1039138816	59	4786
2026-01-15 23:42:25.78	157.33	29.28	-46.4	-48.8	15.2	0.00e+00	0	33	0	1041235968	59	4649
2026-01-15 23:42:26.79	157.53	29.13	-46.2	-48.5	15.3	0.00e+00	0	33	0	1043333120	58	4714
2026-01-15 23:42:27.80	157.72	28.97	-45.8	-47.9	15.6	0.00e+00	0	33	0	1044381696	58	4423
2026-01-15 23:42:28.81	157.91	28.82	-45.8	-48.0	15.6	0.00e+00	0	33	0	1046478848	58	4449
2026-01-15 23:42:29.82	158.09	28.67	-45.9	-48.2	15.5	0.00e+00	0	33	0	1048576000	58	4555
2026-01-15 23:42:30.83	158.28	28.52	-46.3	-48.7	15.2	0.00e+00	0	33	0	1050673152	58	4824
2026-01-15 23:42:31.84	158.46	28.36	-46.7	-49.3	14.9	0.00e+00	0	33	0	1052770304	58	5166
2026-01-15 23:42:32.84	158.65	28.21	-47.0	-49.7	14.7	0.00e+00	0	33	0	1053818880	59	5126
2026-01-15 23:42:33.86	158.83	28.06	-47.0	-49.7	14.7	0.00e+00	0	33	0	1055916032	59	5116
2026-01-15 23:42:34.86	159.01	27.91	-47.0	-49.7	14.7	0.00e+00	0	33	0	1058013184	59	5116
2026-01-15 23:42:35.87	159.18	27.76	-46.7	-49.2	14.9	0.00e+00	0	33	0	1060110336	59	4862
2026-01-15 23:42:36.88	159.36	27.61	-46.2	-48.5	15.3	0.00e+00	0	33	0	1062207488	59	4478
2026-01-15 23:42:37.89	159.53	27.47	-46.2	-48.5	15.3	0.00e+00	0	33	0	1063256064	58	4707
2026-01-15 23:42:38.90	159.71	27.32	-45.6	-47.7	15.7	0.00e+00	0	33	0	1065353216	57	4570
2026-01-15 23:42:39.91	159.88	27.17	-45.3	-47.2	15.9	0.00e+00	0	33	0	1067450368	57	4340
2026-01-15 23:42:40.92	160.05	27.02	-45.4	-47.4	15.8	0.00e+00	0	33	0	1069547520	57	4414
2026-01-15 23:42:41.93	160.21	26.88	-45.2	-47.2	15.9	0.00e+00	0	33	0	1071644672	57	4331
2026-01-15 23:42:42.94	160.38	26.73	-45.3	-47.3	15.9	0.00e+00	0	33	0	1072693248	57	4355
2026-01-15 23:42:43.95	160.55	26.59	-45.5	-47.5	15.8	0.00e+00	0	33	0	1074790400	57	4480
2026-01-15 23:42:44.96	160.71	26.44	-45.5	-47.6	15.7	0.00e+00	0	33	0	1076887552	57	4522
2026-01-15 23:42:45.97	160.87	26.30	-45.7	-47.8	15.6	0.00e+00	0	33	0	1078984704	57	4621
2026-01-15 23:42:46.98	161.03	26.15	-45.8	-47.9	15.6	0.00e+00	0	33	0	1081081856	57	4702
2026-01-15 23:42:47.99	161.19	26.01	-45.9	-48.2	15.5	0.00e+00	0	33	0	1082130432	57	4835
2026-01-15 23:42:49.00	161.35	25.87	-46.0	-48.3	15.4	0.00e+00	0	33	0	1084227584	57	4909
2026-01-15 23:42:50.00	161.51	25.73	-46.2	-48.5	15.3	0.00e+00	0	33	0	1086324736	57	5021
2026-01-15 23:42:51.01	161.66	25.59	-46.2	-48.5	15.2	0.00e+00	0	33	0	1088421888	57	5040
2026-01-15 23:42:52.02	161.82	25.44	-46.1	-48.5	15.3	0.00e+00	0	33	0	1090519040	57	4988
2026-01-15 23:42:53.03	161.97	25.30	-46.1	-48.4	15.3	0.00e+00	0	33	0	1092616192	57	4976
2026-01-15 23:42:54.04	162.12	25.16	-46.0	-48.2	15.4	0.00e+00	0	33	0	1093664768	57	4868
2026-01-15 23:42:55.05	162.27	25.02	-45.8	-48.1	15.5	0.00e+00	0	33	0	1095761920	57	4764
2026-01-15 23:42:56.06	162.42	24.89	-45.8	-48.0	15.5	0.00e+00	0	33	0	1097859072	57	4732
2026-01-15 23:42:57.07	162.57	24.75	-45.5	-47.7	15.7	0.00e+00	0	33	0	1099956224	57	4546
2026-01-15 23:42:58.08	162.71	24.61	-45.7	-47.9	15.6	0.00e+00	0	33	0	1102053376	57	4668
2026-01-15 23:42:59.09	162.86	24.47	-45.6	-47.7	15.7	0.00e+00	0	33	0	1103101952	57	4571
2026-01-15 23:43:00.09	163.00	24.34	-45.8	-48.0	15.5	0.00e+00	0	33	0	1105199104	57	4733
2026-01-15 23:43:01.10	163.14	24.20	-46.0	-48.2	15.4	0.00e+00	0	33	0	1107296256	57	4861
2026-01-15 23:43:02.11	163.28	24.06	-46.0	-48.3	15.3	0.00e+00	0	33	0	1109393408	57	4924
2026-01-15 23:43:03.12	163.43	23.93	-46.2	-48.6	15.2	0.00e+00	0	33	0	1111490560	57	5078
2026-01-15 23:43:04.13	163.56	23.79	-46.2	-48.5	15.2	0.00e+00	0	33	0	1112539136	57	5026
2026-01-15 23:43:05.14	163.70	23.66	-46.0	-48.3	15.3	0.00e+00	0	33	0	1114636288	57	4907
2026-01-15 23:43:06.15	163.84	23.53	-46.0	-48.2	15.4	0.00e+00	0	33	0	1116733440	57	4862
2026-01-15 23:43:07.16	163.98	23.39	-45.9	-48.2	15.4	0.00e+00	0	33	0	1118830592	57	4840
2026-01-15 23:43:08.17	164.11	23.26	-45.9	-48.1	15.5	0.00e+00	0	33	0	1120927744	57	4776
2026-01-15 23:43:09.18	164.24	23.13	-45.8	-48.0	15.5	0.00e+00	0	33	0	1121976320	57	4743
2026-01-15 23:43:10.19	164.38	23.00	-45.4	-47.4	15.8	0.00e+00	0	33	0	1124073472	57	4423
2026-01-15 23:43:11.20	164.51	22.87	-45.2	-47.2	15.9	0.00e+00	0	33	0	1126170624	57	4297
2026-01-15 23:43:12.21	164.64	22.74	-45.2	-47.3	15.8	0.00e+00	0	33	0	1128267776	56	4603
2026-01-15 23:43:13.22	164.77	22.61	-45.1	-47.1	15.9	0.00e+00	0	33	0	1130364928	56	4516
2026-01-15 23:43:14.23	164.90	22.48	-45.2	-47.2	15.9	0.00e+00	0	33	0	1131413504	56	4546
2026-01-15 23:43:15.24	165.02	22.35	-45.2	-47.2	15.9	0.00e+00	0	33	0	1133510656	56	4551
2026-01-15 23:43:16.25	165.15	22.22	-45.2	-47.3	15.8	0.00e+00	0	33	0	1135607808	56	4610
2026-01-15 23:43:17.25	165.27	22.09	-45.3	-47.3	15.8	0.00e+00	0	33	0	1137704960	56	4644
2026-01-15 23:43:18.26	165.40	21.97	-45.3	-47.3	15.8	0.00e+00	0	33	0	1139802112	56	4645
2026-01-15 23:43:19.27	165.52	21.84	-45.4	-47.4	15.7	0.00e+00	0	33	0	1140850688	56	4704
2026-01-15 23:43:20.28	165.64	21.71	-45.5	-47.6	15.7	0.00e+00	0	33	0	1142947840	56	4791
2026-01-15 23:43:21.29	165.76	21.59	-45.5	-47.6	15.7	0.00e+00	0	33	0	1145044992	56	4808
2026-01-15 23:43:22.30	165.88	21.46	-45.6	-47.7	15.6	0.00e+00	0	33	0	1147142144	56	4863
2026-01-15 23:43:23.31	166.00	21.34	-45.7	-47.9	15.5	0.00e+00	0	33	0	1149239296	56	4930
2026-01-15 23:43:24.32	166.12	21.21	-45.7	-47.9	15.5	0.00e+00	0	33	0	1150287872	56	4957
2026-01-15 23:43:25.33	166.24	21.09	-45.7	-47.9	15.5	0.00e+00	0	33	0	1152385024	56	4974
2026-01-15 23:43:26.34	166.36	20.96	-45.8	-48.0	15.3	0.00e+00	0	33	0	1154482176	56	5018
2026-01-15 23:43:27.35	166.47	20.84	-45.8	-48.0	15.4	0.00e+00	0	33	0	1156579328	56	5021
2026-01-15 23:43:28.35	166.59	20.72	-45.7	-47.9	15.5	0.00e+00	0	33	0	1158676480	56	4946
2026-01-15 23:43:29.36	166.70	20.60	-45.6	-47.7	15.6	0.00e+00	0	33	0	1159725056	56	4859
2026-01-15 23:43:30.37	166.81	20.48	-45.4	-47.6	15.7	0.00e+00	0	33	0	1161822208	56	4760
2026-01-15 23:43:31.38	166.93	20.36	-45.4	-47.6	15.7	0.00e+00	0	33	0	1163919360	56	4760
2026-01-15 23:43:32.39	167.04	20.24	-45.6	-47.7	15.6	0.00e+00	0	33	0	1166016512	56	4847
2026-01-15 23:43:33.40	167.15	20.12	-45.5	-47.6	15.6	0.00e+00	0	33	0	1168113664	56	4803
2026-01-15 23:43:34.41	167.26	20.00	-45.5	-47.7	15.6	0.00e+00	0	33	0	1169162240	56	4845
2026-01-15 23:43:35.42	167.37	19.88	-45.5	-47.6	15.6	0.00e+00	0	33	0	1171259392	56	4814
2026-01-15 23:43:36.43	167.48	19.76	-45.6	-47.7	15.6	0.00e+00	0	33	0	1173356544	56	4855
2026-01-15 23:43:37.44	167.58	19.64	-45.7	-47.8	15.5	0.00e+00	0	33	0	1175453696	56	4925
2026-01-15 23:43:38.45	167.69	19.52	-45.7	-47.9	15.5	0.00e+00	0	33	0	1177550848	56	4978
2026-01-15 23:43:39.46	167.80	19.40	-45.8	-48.1	15.4	0.00e+00	0	33	0	1178599424	56	5052
2026-01-15 23:43:40.47	167.90	19.29	-45.9	-48.3	15.4	0.00e+00	0	33	0	1180696576	57	4880
2026-01-15 23:43:41.48	168.01	19.17	-46.0	-48.4	15.3	0.00e+00	0	33	0	1182793728	57	4931
2026-01-15 23:43:42.49	168.11	19.06	-46.1	-48.5	15.2	0.00e+00	0	33	0	1184890880	57	4990
2026-01-15 23:43:43.50	168.21	18.94	-46.0	-48.4	15.2	0.00e+00	0	33	0	1186988032	57	4962
2026-01-15 23:43:44.51	168.31	18.83	-46.1	-48.5	15.2	0.00e+00	0	33	0	1189085184	57	5016
2026-01-15 23:43:45.51	168.42	18.71	-46.1	-48.5	15.2	0.00e+00	0	33	0	1190133760	57	5012
2026-01-15 23:43:46.52	168.52	18.60	-46.0	-48.4	15.2	0.00e+00	0	33	0	1192230912	57	4969
2026-01-15 23:43:47.53	168.62	18.48	-46.0	-48.3	15.3	0.00e+00	0	33	0	1194328064	57	4925
2026-01-15 23:43:48.54	168.72	18.37	-45.8	-48.1	15.4	0.00e+00	0	33	0	1196425216	57	4770
2026-01-15 23:43:49.55	168.81	18.26	-45.7	-48.0	15.4	0.00e+00	0	33	0	1198522368	57	4714
2026-01-15 23:43:50.56	168.91	18.15	-45.5	-47.6	15.6	0.00e+00	0	33	0	1199570944	57	4537
2026-01-15 23:43:51.57	169.01	18.03	-45.3	-47.4	15.7	0.00e+00	0	33	0	1201668096	57	4440
2026-01-15 23:43:52.58	169.11	17.92	-45.2	-47.3	15.8	0.00e+00	0	33	0	1203765248	57	4360
2026-01-15 23:43:53.59	169.20	17.81	-45.1	-47.1	15.9	0.00e+00	0	33	0	1205862400	56	4525
2026-01-15 23:43:54.60	169.30	17.70	-45.0	-47.0	15.9	0.00e+00	0	33	0	1207959552	56	4486
2026-01-15 23:43:55.61	169.39	17.59	-45.0	-47.0	15.9	0.00e+00	0	33	0	1209008128	56	4450
2026-01-15 23:43:56.61	169.48	17.48	-45.0	-46.9	15.9	0.00e+00	0	33	0	1211105280	56	4430
2026-01-15 23:43:57.62	169.58	17.37	-45.0	-47.0	15.9	0.00e+00	0	33	0	1213202432	56	4483
2026-01-15 23:43:58.63	169.67	17.26	-45.0	-47.0	15.9	0.00e+00	0	33	0	1215299584	56	4444
2026-01-15 23:43:59.64	169.76	17.16	-45.1	-47.1	15.8	0.00e+00	0	33	0	1217396736	56	4501
2026-01-15 23:44:00.65	169.85	17.05	-45.1	-47.1	15.8	0.00e+00	0	33	0	1218445312	56	4508
2026-01-15 23:44:01.66	169.94	16.94	-45.2	-47.3	15.7	0.00e+00	0	33	0	1220542464	56	4609
2026-01-15 23:44:02.67	170.03	16.83	-45.3	-47.4	15.7	0.00e+00	0	33	0	1222639616	56	4683
2026-01-15 23:44:03.68	170.12	16.73	-45.3	-47.5	15.7	0.00e+00	0	33	0	1224736768	56	4710
2026-01-15 23:44:04.69	170.21	16.62	-45.4	-47.5	15.6	0.00e+00	0	33	0	1226833920	56	4748
2026-01-15 23:44:05.70	170.30	16.51	-45.4	-47.6	15.6	0.00e+00	0	33	0	1227882496	56	4784
2026-01-15 23:44:06.71	170.39	16.41	-45.5	-47.6	15.6	0.00e+00	0	33	0	1229979648	56	4807
2026-01-15 23:44:07.72	170.47	16.30	-45.5	-47.6	15.6	0.00e+00	0	33	0	1232076800	56	4812
2026-01-15 23:44:08.73	170.56	16.20	-45.5	-47.7	15.5	0.00e+00	0	33	0	1234173952	56	4844
2026-01-15 23:44:09.74	170.65	16.09	-45.6	-47.8	15.5	0.00e+00	0	33	0	1236271104	56	4901
2026-01-15 23:44:10.75	170.73	15.99	-45.4	-47.6	15.5	0.00e+00	0	33	0	1237319680	56	4798
2026-01-15 23:44:11.76	170.82	15.88	-45.4	-47.5	15.6	0.00e+00	0	33	0	1239416832	56	4758
2026-01-15 23:44:12.77	170.90	15.78	-45.4	-47.6	15.6	0.00e+00	0	33	0	1241513984	56	4765
2026-01-15 23:44:13.77	170.98	15.68	-45.4	-47.5	15.6	0.00e+00	0	33	0	1243611136	56	4734
2026-01-15 23:44:14.79	171.07	15.58	-45.3	-47.4	15.7	0.00e+00	0	33	0	1245708288	56	4654
2026-01-15 23:44:15.79	171.15	15.47	-45.2	-47.3	15.7	0.00e+00	0	33	0	1246756864	56	4625
2026-01-15 23:44:16.80	171.23	15.37	-45.2	-47.2	15.8	0.00e+00	0	33	0	1248854016	56	4592
2026-01-15 23:44:17.81	171.31	15.27	-45.2	-47.2	15.8	0.00e+00	0	33	0	1250951168	56	4576
2026-01-15 23:44:18.82	171.39	15.17	-45.2	-47.2	15.7	0.00e+00	0	33	0	1253048320	56	4582
2026-01-15 23:44:19.83	171.48	15.07	-45.1	-47.2	15.8	0.00e+00	0	33	0	1255145472	56	4567
2026-01-15 23:44:20.84	171.56	14.97	-45.2	-47.3	15.7	0.00e+00	0	33	0	1256194048	56	4608
2026-01-15 23:44:21.85	171.63	14.87	-45.3	-47.4	15.7	0.00e+00	0	33	0	1258291200	56	4667
2026-01-15 23:44:22.86	171.71	14.77	-45.3	-47.5	15.6	0.00e+00	0	33	0	1260388352	56	4707
2026-01-15 23:44:23.86	171.79	14.67	-45.4	-47.5	15.6	0.00e+00	0	33	0	1262485504	56	4731
2026-01-15 23:44:24.88	171.87	14.57	-45.5	-47.6	15.5	0.00e+00	0	33	0	1264582656	56	4797
2026-01-15 23:44:25.89	171.95	14.47	-45.6	-47.8	15.4	0.00e+00	0	33	0	1266679808	56	4880
2026-01-15 23:44:26.89	172.02	14.38	-45.5	-47.7	15.5	0.00e+00	0	33	0	1267728384	56	4830
2026-01-15 23:44:27.90	172.10	14.28	-45.6	-47.8	15.4	0.00e+00	0	33	0	1269825536	56	4889
2026-01-15 23:44:28.91	172.18	14.18	-45.6	-47.9	15.4	0.00e+00	0	33	0	1271922688	56	4946
