passes_logs/2026/01/15/R3.2S_Murmansk_2ch/R3.2S_Murmansk_2ch__20260115_224227_NOAA_21_JPSS-2_rec.log

#Pass ID: 20260115_224227_NOAA 21 (JPSS-2)
#Satellite: NOAA 21 (JPSS-2)
#Configuration: NOAA-21
#almurnet v.1.7.20251203
#Start time: 2026-01-15 22:42:28

#Version: 2.2.20231116
#Station: R3.2S_Murmansk_2ch
#Location: 33.079688 lon 68.888172 lat
#TLE: 1 54234U 22150A   26015.57659306  .00000014  00000+0  27538-4 0  9996
#TLE: 2 54234  98.7498 316.4693 0000634 287.4933  72.6174 14.19534738164896

#Time	Az	El	Level	Level2	SNR	BER	BlckErr	Temp	State	Recorded	gain1	gain2
2026-01-15 22:42:28.89	19.34	2.09	-49.9	-63.8	3.8	1.49e+00	0	31	104	0	64	19600
2026-01-15 22:42:30.14	19.41	2.16	-49.9	-63.8	3.8	1.49e+00	0	31	104	0	64	19601
2026-01-15 22:42:30.88	19.45	2.20	-49.9	-63.8	3.8	1.49e+00	0	31	104	0	64	19572
2026-01-15 22:42:32.18	19.53	2.28	-49.9	-63.8	3.8	1.49e+00	0	31	104	0	64	19530
2026-01-15 22:42:32.90	19.58	2.32	-49.9	-63.7	3.8	1.49e+00	0	31	104	0	64	19367
2026-01-15 22:42:34.19	19.65	2.40	-49.9	-63.8	3.9	1.49e+00	0	31	104	0	64	19515
2026-01-15 22:42:34.92	19.70	2.44	-49.9	-63.8	3.8	1.49e+00	0	31	104	0	64	19473
2026-01-15 22:42:36.21	19.78	2.51	-49.9	-63.8	3.8	1.49e+00	0	31	104	0	65	18467
2026-01-15 22:42:36.93	19.82	2.55	-49.9	-63.9	3.8	1.49e+00	0	31	104	0	65	18552
2026-01-15 22:42:38.23	19.90	2.63	-49.9	-63.8	3.8	1.49e+00	0	31	104	0	65	18493
2026-01-15 22:42:38.95	19.95	2.67	-49.9	-63.8	3.8	1.49e+00	0	31	104	0	65	18487
2026-01-15 22:42:40.25	20.03	2.75	-49.9	-63.7	3.8	1.49e+00	0	32	104	0	65	18150
2026-01-15 22:42:40.97	20.07	2.79	-49.9	-63.6	3.8	1.49e+00	0	32	104	0	65	17889
2026-01-15 22:42:42.27	20.15	2.87	-49.9	-63.3	3.8	1.49e+00	0	32	104	0	65	17381
2026-01-15 22:42:42.99	20.20	2.91	-49.9	-63.2	3.8	1.49e+00	0	31	104	0	65	17174
2026-01-15 22:42:44.29	20.28	2.99	-49.8	-62.7	3.8	1.49e+00	0	32	104	0	65	16262
2026-01-15 22:42:45.01	20.32	3.03	-49.8	-62.8	3.8	1.49e+00	0	32	104	0	65	16394
2026-01-15 22:42:46.30	20.40	3.11	-49.8	-62.6	3.8	1.49e+00	0	32	104	0	65	16113
2026-01-15 22:42:47.03	20.45	3.15	-49.9	-62.8	3.8	1.49e+00	0	32	104	0	65	16449
2026-01-15 22:42:48.32	20.53	3.23	-49.8	-62.7	3.8	1.49e+00	0	32	104	0	65	16289
2026-01-15 22:42:49.04	20.58	3.27	-49.9	-62.8	3.8	1.49e+00	0	32	104	0	65	16498
2026-01-15 22:42:50.34	20.66	3.35	-49.8	-62.5	3.9	1.49e+00	0	32	104	0	65	15793
2026-01-15 22:42:51.06	20.71	3.39	-49.8	-62.2	3.9	1.49e+00	0	32	104	0	65	15368
2026-01-15 22:42:52.36	20.79	3.47	-49.8	-61.6	4.0	1.49e+00	0	32	104	0	65	14370
2026-01-15 22:42:53.08	20.84	3.51	-49.7	-61.3	3.9	1.48e+00	0	32	104	0	65	13792
2026-01-15 22:42:54.38	20.92	3.59	-49.7	-60.4	4.2	1.46e+00	0	32	104	0	65	12471
2026-01-15 22:42:55.10	20.97	3.63	-49.6	-59.7	4.4	1.45e+00	0	32	104	0	65	11423
2026-01-15 22:42:56.40	21.06	3.71	-49.6	-59.4	4.5	1.42e+00	10	32	104	0	65	11079
2026-01-15 22:42:57.12	21.10	3.75	-49.5	-59.0	4.6	1.10e+00	2	32	104	0	65	10623
2026-01-15 22:42:58.42	21.19	3.83	-49.5	-59.0	4.6	1.20e+00	0	32	104	0	65	10606
2026-01-15 22:42:59.14	21.24	3.87	-49.6	-59.2	4.6	1.24e+00	0	32	104	0	65	10796
2026-01-15 22:43:00.44	21.32	3.95	-49.6	-59.4	4.5	1.19e+00	10	32	104	0	65	11116
2026-01-15 22:43:01.16	21.37	4.00	-49.5	-58.6	4.8	1.08e+00	0	32	104	0	65	10108
2026-01-15 22:43:02.46	21.46	4.08	-49.2	-56.7	5.9	3.70e-01	0	32	0	3145728	64	8599
2026-01-15 22:43:03.18	21.51	4.12	-48.8	-55.3	7.0	1.68e-01	0	32	0	5242880	64	7314
2026-01-15 22:43:04.48	21.60	4.20	-48.4	-53.8	8.4	3.83e-02	0	32	0	9437184	63	6495
2026-01-15 22:43:05.20	21.65	4.24	-48.0	-52.8	9.3	8.75e-03	0	32	0	11534336	62	6155
2026-01-15 22:43:06.50	21.73	4.32	-47.7	-52.0	10.1	2.93e-03	0	32	0	15728640	62	5605
2026-01-15 22:43:07.22	21.78	4.37	-47.4	-51.2	10.6	2.59e-03	0	32	0	17825792	61	5462
2026-01-15 22:43:08.51	21.87	4.45	-46.8	-50.1	11.6	1.09e-04	0	32	0	22020096	60	5063
2026-01-15 22:43:09.24	21.92	4.49	-46.4	-49.3	12.5	6.10e-06	0	32	0	24117248	59	4923
2026-01-15 22:43:10.53	22.01	4.57	-46.8	-50.0	12.0	3.58e-05	0	32	0	28311552	59	5325
2026-01-15 22:43:11.25	22.06	4.62	-46.6	-49.7	12.2	1.75e-05	0	32	0	30408704	59	5147
2026-01-15 22:43:12.55	22.15	4.70	-47.1	-50.7	11.5	5.56e-05	0	32	0	34603008	59	5728
2026-01-15 22:43:13.27	22.20	4.74	-47.1	-50.5	11.6	1.72e-04	0	32	0	36700160	59	5641
2026-01-15 22:43:14.57	22.30	4.82	-47.3	-51.1	10.8	2.68e-04	0	32	0	40894464	60	5719
2026-01-15 22:43:15.29	22.35	4.87	-47.3	-51.2	10.7	8.20e-04	0	32	0	42991616	60	5750
2026-01-15 22:43:16.59	22.44	4.95	-47.9	-52.5	9.5	3.72e-03	0	32	0	47185920	61	6342
2026-01-15 22:43:17.31	22.49	4.99	-48.1	-53.0	9.1	9.20e-03	0	32	0	49283072	61	6721
2026-01-15 22:43:18.61	22.58	5.07	-45.6	-48.0	13.5	4.42e-04	0	32	0	53477376	57	4715
2026-01-15 22:43:19.33	22.63	5.12	-47.2	-50.9	11.1	0.00e+00	0	32	0	55574528	60	5553
2026-01-15 22:43:20.62	22.73	5.20	-47.2	-50.8	11.1	6.25e-01	0	32	0	57671680	61	5218
2026-01-15 22:43:21.35	22.78	5.25	-46.0	-48.6	13.1	6.17e-05	0	32	0	59768832	58	4784
2026-01-15 22:43:22.64	22.87	5.33	-48.6	-54.0	8.5	5.34e-05	0	32	0	63963136	62	7061
2026-01-15 22:43:23.36	22.93	5.37	-47.8	-51.9	10.1	6.51e-02	0	32	0	66060288	62	5572
2026-01-15 22:43:24.66	23.02	5.46	-44.2	-46.2	14.6	0.00e+00	0	32	0	70254592	55	4309
2026-01-15 22:43:25.38	23.08	5.50	-44.4	-46.4	14.5	0.00e+00	0	32	0	72351744	55	4420
2026-01-15 22:43:26.68	23.17	5.58	-44.3	-46.3	14.6	0.00e+00	0	33	0	76546048	55	4372
2026-01-15 22:43:27.40	23.22	5.63	-44.5	-46.5	14.5	0.00e+00	0	32	0	78643200	55	4475
2026-01-15 22:43:28.70	23.32	5.71	-44.6	-46.6	14.5	0.00e+00	0	32	0	82837504	55	4514
2026-01-15 22:43:29.42	23.38	5.76	-44.7	-46.7	14.4	0.00e+00	0	32	0	84934656	55	4593
2026-01-15 22:43:30.72	23.47	5.84	-44.2	-46.1	14.8	0.00e+00	0	32	0	89128960	55	4264
2026-01-15 22:43:31.44	23.53	5.89	-44.4	-46.4	14.6	0.00e+00	0	32	0	91226112	55	4404
2026-01-15 22:43:32.74	23.63	5.97	-44.3	-46.3	14.6	0.00e+00	0	32	0	95420416	54	4630
2026-01-15 22:43:33.46	23.68	6.02	-44.4	-46.4	14.6	0.00e+00	0	32	0	97517568	54	4654
2026-01-15 22:43:34.75	23.78	6.10	-44.4	-46.4	14.6	0.00e+00	0	32	0	101711872	54	4663
2026-01-15 22:43:35.48	23.84	6.15	-44.3	-46.3	14.6	0.00e+00	0	33	0	103809024	54	4623
2026-01-15 22:43:36.77	23.93	6.23	-44.4	-46.3	14.6	0.00e+00	0	32	0	108003328	54	4637
2026-01-15 22:43:37.49	23.99	6.28	-44.2	-46.1	14.8	0.00e+00	0	32	0	110100480	54	4500
2026-01-15 22:43:38.79	24.09	6.36	-44.1	-46.0	14.8	0.00e+00	0	32	0	114294784	54	4448
2026-01-15 22:43:39.52	24.15	6.41	-44.2	-46.2	14.7	0.00e+00	0	32	0	116391936	54	4547
2026-01-15 22:43:40.81	24.25	6.49	-44.1	-46.0	14.8	0.00e+00	0	33	0	120586240	54	4461
2026-01-15 22:43:41.53	24.31	6.54	-44.4	-46.4	14.6	0.00e+00	0	32	0	122683392	54	4680
2026-01-15 22:43:42.83	24.41	6.63	-44.4	-46.4	14.6	0.00e+00	0	33	0	126877696	54	4681
2026-01-15 22:43:43.55	24.47	6.67	-44.5	-46.5	14.5	0.00e+00	0	32	0	128974848	54	4741
2026-01-15 22:43:44.85	24.57	6.76	-44.4	-46.4	14.6	0.00e+00	0	33	0	133169152	54	4659
2026-01-15 22:43:45.57	24.63	6.81	-44.5	-46.5	14.5	0.00e+00	0	32	0	135266304	54	4759
2026-01-15 22:43:46.87	24.73	6.89	-44.9	-47.0	14.2	0.00e+00	0	33	0	139460608	55	4757
2026-01-15 22:43:47.59	24.79	6.94	-44.8	-46.9	14.3	0.00e+00	0	33	0	141557760	55	4664
2026-01-15 22:43:48.89	24.90	7.03	-44.4	-46.4	14.7	0.00e+00	0	33	0	145752064	55	4412
2026-01-15 22:43:49.61	24.95	7.07	-44.3	-46.3	14.8	0.00e+00	0	33	0	147849216	54	4599
2026-01-15 22:43:50.91	25.06	7.16	-44.6	-46.6	14.6	0.00e+00	0	33	0	152043520	54	4762
2026-01-15 22:43:51.63	25.12	7.21	-44.5	-46.5	14.6	0.00e+00	0	33	0	154140672	54	4725
2026-01-15 22:43:52.93	25.23	7.30	-44.6	-46.7	14.5	0.00e+00	0	33	0	158334976	54	4815
2026-01-15 22:43:53.65	25.29	7.34	-44.4	-46.4	14.7	0.00e+00	0	33	0	160432128	54	4666
2026-01-15 22:43:54.95	25.39	7.43	-44.1	-46.0	14.9	0.00e+00	0	33	0	164626432	54	4460
2026-01-15 22:43:55.67	25.45	7.48	-44.0	-45.8	15.1	0.00e+00	0	32	0	166723584	54	4346
2026-01-15 22:43:56.96	25.56	7.57	-44.1	-45.9	15.0	0.00e+00	0	33	0	170917888	54	4409
2026-01-15 22:43:57.68	25.62	7.61	-44.3	-46.1	14.9	0.00e+00	0	33	0	173015040	54	4530
2026-01-15 22:43:58.98	25.73	7.70	-43.9	-45.7	15.1	0.00e+00	0	33	0	177209344	54	4331
2026-01-15 22:43:59.71	25.80	7.75	-44.0	-45.8	15.0	0.00e+00	0	33	0	179306496	54	4384
2026-01-15 22:44:01.00	25.91	7.84	-44.0	-45.7	15.1	0.00e+00	0	33	0	183500800	54	4340
2026-01-15 22:44:01.72	25.97	7.89	-44.2	-46.0	14.9	0.00e+00	0	33	0	185597952	54	4484
2026-01-15 22:44:03.02	26.08	7.98	-44.2	-46.0	14.9	0.00e+00	0	33	0	189792256	54	4474
2026-01-15 22:44:03.74	26.14	8.03	-44.1	-45.9	15.0	0.00e+00	0	33	0	192937984	54	4424
2026-01-15 22:44:05.04	26.26	8.11	-44.0	-45.9	15.0	0.00e+00	0	33	0	196083712	54	4392
2026-01-15 22:44:05.76	26.32	8.16	-44.0	-45.8	15.1	0.00e+00	0	33	0	198180864	54	4350
2026-01-15 22:44:07.06	26.43	8.25	-43.8	-45.5	15.2	0.00e+00	0	33	0	202375168	54	4223
2026-01-15 22:44:07.78	26.50	8.30	-43.9	-45.6	15.2	0.00e+00	0	33	0	204472320	54	4280
2026-01-15 22:44:09.08	26.61	8.39	-43.9	-45.7	15.2	0.00e+00	0	33	0	208666624	54	4294
2026-01-15 22:44:09.80	26.67	8.44	-43.7	-45.4	15.4	0.00e+00	0	33	0	211812352	54	4173
2026-01-15 22:44:11.10	26.79	8.53	-43.6	-45.4	15.3	0.00e+00	0	33	0	214958080	53	4393
2026-01-15 22:44:11.82	26.86	8.58	-43.6	-45.3	15.4	0.00e+00	0	33	0	218103808	53	4386
2026-01-15 22:44:13.11	26.97	8.67	-43.5	-45.1	15.4	0.00e+00	0	33	0	221249536	53	4282
2026-01-15 22:44:13.84	27.04	8.72	-43.5	-45.1	15.5	0.00e+00	0	33	0	223346688	53	4274
2026-01-15 22:44:15.14	27.16	8.81	-43.4	-45.1	15.5	0.00e+00	0	33	0	227540992	53	4264
2026-01-15 22:44:15.86	27.22	8.86	-43.4	-45.0	15.5	0.00e+00	0	33	0	230686720	53	4214
2026-01-15 22:44:17.16	27.34	8.95	-43.4	-45.1	15.5	0.00e+00	0	33	0	233832448	53	4264
2026-01-15 22:44:17.88	27.41	9.00	-43.5	-45.2	15.4	0.00e+00	0	33	0	236978176	53	4322
2026-01-15 22:44:19.17	27.53	9.09	-43.2	-44.8	15.6	0.00e+00	0	33	0	240123904	53	4140
2026-01-15 22:44:19.89	27.59	9.14	-43.5	-45.1	15.5	0.00e+00	0	33	0	243269632	53	4274
2026-01-15 22:44:21.19	27.72	9.24	-43.1	-44.7	15.7	0.00e+00	0	33	0	247463936	52	4316
2026-01-15 22:44:21.91	27.78	9.29	-43.4	-45.0	15.5	0.00e+00	0	33	0	249561088	52	4452
2026-01-15 22:44:23.21	27.91	9.38	-43.3	-44.9	15.6	0.00e+00	0	33	0	252706816	52	4429
2026-01-15 22:44:23.93	27.97	9.43	-43.2	-44.8	15.6	0.00e+00	0	33	0	255852544	52	4384
2026-01-15 22:44:25.23	28.10	9.52	-43.2	-44.8	15.6	0.00e+00	0	33	0	258998272	52	4354
2026-01-15 22:44:25.95	28.17	9.57	-43.2	-44.7	15.7	0.00e+00	0	33	0	262144000	52	4339
2026-01-15 22:44:27.25	28.29	9.67	-43.1	-44.6	15.7	0.00e+00	0	33	0	266338304	52	4279
2026-01-15 22:44:27.97	28.36	9.72	-43.1	-44.7	15.7	0.00e+00	0	33	0	268435456	52	4309
2026-01-15 22:44:29.27	28.49	9.81	-43.1	-44.6	15.7	0.00e+00	0	33	0	272629760	52	4280
2026-01-15 22:44:29.99	28.56	9.86	-43.1	-44.7	15.7	0.00e+00	0	33	0	274726912	52	4314
2026-01-15 22:44:31.29	28.69	9.96	-43.1	-44.6	15.8	0.00e+00	0	33	0	278921216	52	4269
2026-01-15 22:44:32.01	28.76	10.01	-43.0	-44.6	15.8	0.00e+00	0	33	0	281018368	52	4265
2026-01-15 22:44:33.31	28.89	10.10	-43.0	-44.5	15.8	0.00e+00	0	33	0	285212672	52	4219
2026-01-15 22:44:34.03	28.96	10.15	-43.1	-44.6	15.8	0.00e+00	0	33	0	287309824	52	4287
2026-01-15 22:44:35.33	29.09	10.25	-43.1	-44.7	15.7	0.00e+00	0	33	0	291504128	52	4317
2026-01-15 22:44:36.05	29.16	10.30	-42.9	-44.4	15.8	0.00e+00	0	33	0	293601280	52	4188
2026-01-15 22:44:37.35	29.29	10.39	-42.9	-44.5	15.9	0.00e+00	0	33	0	297795584	52	4200
2026-01-15 22:44:38.07	29.36	10.45	-43.0	-44.5	15.8	0.00e+00	0	33	0	299892736	52	4221
2026-01-15 22:44:39.37	29.49	10.54	-42.8	-44.2	16.0	0.00e+00	0	33	0	304087040	52	4094
2026-01-15 22:44:40.09	29.57	10.59	-42.8	-44.3	15.9	0.00e+00	0	33	0	306184192	52	4115
2026-01-15 22:44:41.39	29.70	10.69	-42.8	-44.3	15.9	0.00e+00	0	33	0	310378496	52	4109
2026-01-15 22:44:42.11	29.78	10.74	-42.7	-44.2	16.0	0.00e+00	0	33	0	312475648	52	4071
2026-01-15 22:44:43.41	29.91	10.84	-42.8	-44.2	15.9	0.00e+00	0	33	0	316669952	52	4089
2026-01-15 22:44:44.13	29.99	10.89	-42.8	-44.3	15.9	0.00e+00	0	33	0	318767104	52	4139
2026-01-15 22:44:45.43	30.12	10.99	-42.8	-44.3	15.9	0.00e+00	0	33	0	322961408	51	4357
2026-01-15 22:44:46.15	30.20	11.04	-42.9	-44.4	15.9	0.00e+00	0	33	0	325058560	51	4397
2026-01-15 22:44:47.45	30.34	11.14	-42.7	-44.2	16.0	0.00e+00	0	33	0	329252864	51	4303
2026-01-15 22:44:48.17	30.41	11.19	-42.8	-44.3	16.0	0.00e+00	0	33	0	331350016	51	4341
2026-01-15 22:44:49.47	30.55	11.29	-42.9	-44.4	15.9	0.00e+00	0	33	0	335544320	51	4425
2026-01-15 22:44:50.19	30.63	11.34	-42.7	-44.2	16.0	0.00e+00	0	33	0	337641472	51	4295
2026-01-15 22:44:51.49	30.77	11.44	-42.7	-44.1	16.0	0.00e+00	0	33	0	341835776	51	4278
2026-01-15 22:44:52.21	30.85	11.49	-42.7	-44.2	16.0	0.00e+00	0	33	0	343932928	51	4318
2026-01-15 22:44:53.51	30.99	11.59	-42.7	-44.1	16.0	0.00e+00	0	33	0	348127232	51	4280
2026-01-15 22:44:54.23	31.07	11.64	-42.7	-44.2	16.0	0.00e+00	0	33	0	350224384	51	4313
2026-01-15 22:44:55.53	31.21	11.74	-42.6	-44.0	16.1	0.00e+00	0	33	0	354418688	51	4224
2026-01-15 22:44:56.25	31.29	11.80	-42.6	-44.0	16.1	0.00e+00	0	33	0	356515840	51	4237
2026-01-15 22:44:57.55	31.43	11.89	-42.6	-44.0	16.1	0.00e+00	0	33	0	360710144	51	4230
2026-01-15 22:44:58.27	31.51	11.95	-42.6	-44.0	16.1	0.00e+00	0	33	0	362807296	51	4224
2026-01-15 22:44:59.57	31.66	12.05	-42.6	-44.1	16.1	0.00e+00	0	33	0	367001600	51	4244
2026-01-15 22:45:00.29	31.74	12.10	-42.6	-44.1	16.0	0.00e+00	0	33	0	369098752	51	4257
2026-01-15 22:45:01.59	31.89	12.20	-42.5	-44.0	16.1	0.00e+00	0	33	0	373293056	51	4194
2026-01-15 22:45:02.31	31.97	12.26	-42.6	-44.1	16.1	0.00e+00	0	33	0	375390208	51	4243
2026-01-15 22:45:03.60	32.12	12.35	-42.6	-44.0	16.1	0.00e+00	0	33	0	379584512	51	4227
2026-01-15 22:45:04.32	32.20	12.41	-42.5	-43.9	16.2	0.00e+00	0	33	0	381681664	51	4160
2026-01-15 22:45:05.62	32.35	12.51	-42.5	-43.9	16.2	0.00e+00	0	33	0	385875968	51	4159
2026-01-15 22:45:06.34	32.44	12.56	-42.5	-43.9	16.2	0.00e+00	0	33	0	387973120	51	4168
2026-01-15 22:45:07.64	32.59	12.66	-42.5	-43.9	16.2	0.00e+00	0	33	0	392167424	51	4184
2026-01-15 22:45:08.36	32.67	12.72	-42.5	-43.9	16.2	0.00e+00	0	33	0	394264576	51	4171
2026-01-15 22:45:09.66	32.83	12.82	-42.5	-43.9	16.2	0.00e+00	0	33	0	398458880	51	4177
2026-01-15 22:45:10.38	32.91	12.88	-42.6	-44.0	16.2	0.00e+00	0	33	0	400556032	51	4227
2026-01-15 22:45:11.68	33.07	12.98	-42.5	-44.0	16.1	0.00e+00	0	33	0	404750336	51	4197
2026-01-15 22:45:12.40	33.15	13.03	-42.6	-44.1	16.1	0.00e+00	0	33	0	406847488	51	4255
2026-01-15 22:45:13.70	33.31	13.13	-42.5	-43.9	16.2	0.00e+00	0	33	0	411041792	51	4185
2026-01-15 22:45:14.42	33.40	13.19	-42.5	-44.0	16.2	0.00e+00	0	33	0	413138944	51	4197
2026-01-15 22:45:15.72	33.55	13.29	-42.6	-44.0	16.1	0.00e+00	0	33	0	417333248	51	4241
2026-01-15 22:45:16.44	33.64	13.35	-42.6	-44.0	16.2	0.00e+00	0	33	0	419430400	51	4206
2026-01-15 22:45:17.74	33.80	13.45	-42.6	-44.0	16.1	0.00e+00	0	33	0	423624704	51	4221
2026-01-15 22:45:18.46	33.89	13.51	-42.6	-44.0	16.1	0.00e+00	0	33	0	425721856	51	4240
2026-01-15 22:45:19.76	34.05	13.61	-42.5	-43.9	16.2	0.00e+00	0	33	0	429916160	51	4172
2026-01-15 22:45:20.48	34.14	13.67	-42.6	-44.0	16.2	0.00e+00	0	33	0	432013312	51	4213
2026-01-15 22:45:21.78	34.30	13.77	-42.5	-43.9	16.2	0.00e+00	0	33	0	436207616	51	4184
2026-01-15 22:45:22.50	34.40	13.82	-42.6	-44.1	16.2	0.00e+00	0	33	0	438304768	51	4245
2026-01-15 22:45:23.80	34.56	13.93	-42.6	-44.1	16.2	0.00e+00	0	33	0	442499072	51	4253
2026-01-15 22:45:24.52	34.65	13.98	-42.6	-44.1	16.1	0.00e+00	0	33	0	444596224	51	4255
2026-01-15 22:45:25.81	34.82	14.09	-42.7	-44.2	16.1	0.00e+00	0	33	0	448790528	51	4311
2026-01-15 22:45:26.54	34.91	14.15	-42.7	-44.2	16.1	0.00e+00	0	33	0	450887680	51	4312
2026-01-15 22:45:27.83	35.08	14.25	-42.9	-44.4	16.0	0.00e+00	0	33	0	455081984	51	4411
2026-01-15 22:45:28.55	35.17	14.31	-42.8	-44.3	16.1	0.00e+00	0	33	0	457179136	51	4361
2026-01-15 22:45:29.85	35.34	14.41	-42.9	-44.4	16.0	0.00e+00	0	33	0	461373440	51	4419
2026-01-15 22:45:30.57	35.44	14.47	-43.0	-44.5	16.0	0.00e+00	0	33	0	463470592	51	4474
2026-01-15 22:45:31.87	35.61	14.57	-42.9	-44.4	16.0	0.00e+00	0	33	0	467664896	51	4414
2026-01-15 22:45:32.59	35.70	14.63	-42.9	-44.4	16.0	0.00e+00	0	33	0	469762048	51	4435
2026-01-15 22:45:33.89	35.88	14.73	-42.9	-44.4	16.0	0.00e+00	0	33	0	473956352	51	4403
2026-01-15 22:45:34.61	35.97	14.79	-42.9	-44.4	16.0	0.00e+00	0	33	0	476053504	51	4398
2026-01-15 22:45:35.91	36.15	14.90	-42.9	-44.4	16.0	0.00e+00	0	33	0	480247808	51	4423
2026-01-15 22:45:36.63	36.25	14.96	-42.9	-44.4	16.0	0.00e+00	0	33	0	482344960	51	4413
2026-01-15 22:45:37.93	36.42	15.06	-42.7	-44.1	16.2	0.00e+00	0	33	0	486539264	51	4274
2026-01-15 22:45:38.65	36.52	15.12	-42.7	-44.2	16.1	0.00e+00	0	33	0	488636416	51	4306
2026-01-15 22:45:39.95	36.70	15.22	-42.6	-44.0	16.2	0.00e+00	0	33	0	492830720	51	4239
2026-01-15 22:45:40.67	36.80	15.28	-42.7	-44.2	16.1	0.00e+00	0	33	0	494927872	51	4308
2026-01-15 22:45:41.97	36.98	15.39	-42.6	-44.1	16.2	0.00e+00	0	33	0	499122176	51	4246
2026-01-15 22:45:42.69	37.08	15.45	-42.7	-44.1	16.2	0.00e+00	0	33	0	501219328	51	4262
2026-01-15 22:45:43.99	37.27	15.55	-42.8	-44.2	16.1	0.00e+00	0	33	0	505413632	51	4325
2026-01-15 22:45:44.71	37.37	15.61	-42.8	-44.3	16.1	0.00e+00	0	33	0	507510784	51	4344
2026-01-15 22:45:46.01	37.55	15.72	-42.8	-44.3	16.1	0.00e+00	0	33	0	511705088	51	4354
2026-01-15 22:45:46.73	37.66	15.78	-42.9	-44.3	16.1	0.00e+00	0	33	0	513802240	51	4384
2026-01-15 22:45:48.03	37.84	15.89	-43.0	-44.4	16.0	0.00e+00	0	33	0	517996544	51	4437
2026-01-15 22:45:48.75	37.95	15.95	-42.9	-44.4	16.1	0.00e+00	0	33	0	520093696	51	4394
2026-01-15 22:45:50.04	38.14	16.05	-43.0	-44.4	16.0	0.00e+00	0	33	0	524288000	51	4437
2026-01-15 22:45:50.77	38.24	16.11	-43.0	-44.5	16.0	0.00e+00	0	33	0	526385152	51	4449
2026-01-15 22:45:52.07	38.43	16.22	-42.8	-44.2	16.1	0.00e+00	0	33	0	530579456	51	4330
2026-01-15 22:45:52.79	38.54	16.28	-42.8	-44.2	16.1	0.00e+00	0	33	0	532676608	51	4335
2026-01-15 22:45:54.08	38.73	16.39	-42.9	-44.3	16.1	0.00e+00	0	33	0	536870912	51	4371
2026-01-15 22:45:54.80	38.84	16.45	-42.9	-44.3	16.1	0.00e+00	0	33	0	538968064	51	4372
2026-01-15 22:45:56.10	39.03	16.55	-43.0	-44.5	16.0	0.00e+00	0	33	0	543162368	51	4474
2026-01-15 22:45:56.83	39.14	16.61	-43.0	-44.4	16.0	0.00e+00	0	33	0	545259520	51	4428
2026-01-15 22:45:58.12	39.34	16.72	-43.2	-44.7	15.9	0.00e+00	0	33	0	549453824	51	4577
2026-01-15 22:45:58.84	39.45	16.78	-43.3	-44.8	15.9	0.00e+00	0	33	0	552599552	51	4647
2026-01-15 22:46:00.14	39.65	16.89	-43.2	-44.8	15.9	0.00e+00	0	33	0	555745280	51	4610
2026-01-15 22:46:00.86	39.76	16.95	-43.2	-44.7	15.9	0.00e+00	0	33	0	558891008	51	4597
2026-01-15 22:46:02.16	39.96	17.06	-43.4	-44.9	15.9	0.00e+00	0	33	0	562036736	51	4694
2026-01-15 22:46:02.88	40.07	17.12	-43.3	-44.9	15.9	0.00e+00	0	33	0	564133888	51	4666
2026-01-15 22:46:04.18	40.28	17.23	-43.2	-44.7	15.9	0.00e+00	0	33	0	568328192	51	4557
2026-01-15 22:46:04.90	40.39	17.29	-43.2	-44.7	15.9	0.00e+00	0	33	0	571473920	51	4587
2026-01-15 22:46:06.20	40.60	17.40	-43.1	-44.6	16.0	0.00e+00	0	33	0	574619648	51	4516
2026-01-15 22:46:06.92	40.71	17.46	-43.1	-44.6	16.0	0.00e+00	0	33	0	577765376	51	4515
2026-01-15 22:46:08.22	40.92	17.57	-43.1	-44.5	16.0	0.00e+00	0	33	0	580911104	51	4489
2026-01-15 22:46:08.94	41.04	17.63	-43.0	-44.5	16.1	0.00e+00	0	33	0	583008256	51	4453
2026-01-15 22:46:10.24	41.25	17.74	-43.1	-44.5	16.0	0.00e+00	0	33	0	587202560	51	4491
2026-01-15 22:46:10.96	41.36	17.80	-43.0	-44.5	16.0	0.00e+00	0	33	0	590348288	51	4448
2026-01-15 22:46:12.25	41.58	17.91	-43.1	-44.6	16.0	0.00e+00	0	33	0	593494016	51	4521
2026-01-15 22:46:12.98	41.70	17.97	-43.1	-44.6	16.0	0.00e+00	0	33	0	596639744	51	4532
2026-01-15 22:46:14.27	41.91	18.08	-43.2	-44.8	15.9	0.00e+00	0	33	0	599785472	51	4607
2026-01-15 22:46:14.99	42.03	18.14	-43.1	-44.6	16.0	0.00e+00	0	33	0	602931200	51	4537
2026-01-15 22:46:16.29	42.25	18.25	-43.2	-44.7	15.9	0.00e+00	0	33	0	607125504	51	4574
2026-01-15 22:46:17.01	42.37	18.31	-43.1	-44.6	16.0	0.00e+00	0	33	0	609222656	51	4496
2026-01-15 22:46:18.31	42.59	18.42	-42.9	-44.3	16.1	0.00e+00	0	33	0	613416960	51	4372
2026-01-15 22:46:19.03	42.71	18.48	-42.8	-44.2	16.2	0.00e+00	0	33	0	615514112	51	4310
2026-01-15 22:46:20.33	42.93	18.59	-42.7	-44.1	16.2	0.00e+00	0	34	0	618659840	51	4276
2026-01-15 22:46:21.05	43.06	18.65	-42.6	-44.0	16.2	0.00e+00	0	33	0	621805568	51	4238
2026-01-15 22:46:22.35	43.28	18.76	-42.7	-44.1	16.2	0.00e+00	0	33	0	625999872	51	4261
2026-01-15 22:46:23.07	43.41	18.83	-42.6	-43.9	16.2	0.00e+00	0	33	0	628097024	51	4191
2026-01-15 22:46:24.37	43.63	18.94	-42.7	-44.1	16.2	0.00e+00	0	33	0	632291328	51	4255
2026-01-15 22:46:25.09	43.76	19.00	-42.7	-44.2	16.2	0.00e+00	0	33	0	634388480	51	4304
2026-01-15 22:46:26.39	43.99	19.11	-42.8	-44.2	16.2	0.00e+00	0	33	0	638582784	51	4316
2026-01-15 22:46:27.11	44.12	19.17	-42.8	-44.3	16.2	0.00e+00	0	33	0	640679936	51	4351
2026-01-15 22:46:28.41	44.35	19.28	-42.7	-44.2	16.2	0.00e+00	0	33	0	644874240	51	4294
2026-01-15 22:46:29.13	44.48	19.34	-42.5	-43.9	16.3	0.00e+00	0	33	0	646971392	51	4189
2026-01-15 22:46:30.43	44.72	19.45	-42.3	-43.7	16.4	0.00e+00	0	33	0	651165696	51	4055
2026-01-15 22:46:31.15	44.85	19.51	-42.3	-43.6	16.4	0.00e+00	0	33	0	653262848	51	4031
2026-01-15 22:46:32.44	45.08	19.62	-42.1	-43.5	16.5	0.00e+00	0	33	0	657457152	50	4212
2026-01-15 22:46:33.16	45.21	19.69	-42.1	-43.4	16.5	0.00e+00	0	33	0	659554304	50	4165
2026-01-15 22:46:34.46	45.45	19.80	-42.1	-43.4	16.5	0.00e+00	0	33	0	663748608	50	4165
2026-01-15 22:46:35.19	45.59	19.86	-42.2	-43.5	16.5	0.00e+00	0	33	0	665845760	50	4211
2026-01-15 22:46:36.48	45.83	19.97	-42.1	-43.5	16.5	0.00e+00	0	33	0	670040064	50	4206
2026-01-15 22:46:37.20	45.97	20.03	-42.2	-43.5	16.5	0.00e+00	0	33	0	672137216	50	4234
2026-01-15 22:46:38.50	46.21	20.14	-42.3	-43.6	16.4	0.00e+00	0	33	0	676331520	50	4289
2026-01-15 22:46:39.22	46.35	20.20	-42.3	-43.7	16.4	0.00e+00	0	33	0	678428672	50	4293
2026-01-15 22:46:40.52	46.60	20.31	-42.3	-43.6	16.4	0.00e+00	0	33	0	682622976	50	4276
2026-01-15 22:46:41.24	46.74	20.37	-42.2	-43.6	16.4	0.00e+00	0	33	0	684720128	50	4255
2026-01-15 22:46:42.54	46.99	20.49	-42.1	-43.4	16.5	0.00e+00	0	33	0	688914432	50	4192
2026-01-15 22:46:43.26	47.13	20.55	-42.1	-43.4	16.5	0.00e+00	0	33	0	691011584	50	4160
2026-01-15 22:46:44.56	47.38	20.66	-42.0	-43.3	16.5	0.00e+00	0	33	0	695205888	50	4119
2026-01-15 22:46:45.28	47.52	20.72	-42.0	-43.3	16.5	0.00e+00	0	33	0	697303040	50	4120
2026-01-15 22:46:46.58	47.78	20.83	-41.9	-43.2	16.6	0.00e+00	0	33	0	701497344	50	4056
2026-01-15 22:46:47.30	47.92	20.89	-41.8	-43.0	16.6	0.00e+00	0	33	0	703594496	50	4003
2026-01-15 22:46:48.59	48.18	21.00	-41.8	-43.1	16.6	0.00e+00	0	33	0	707788800	50	4029
2026-01-15 22:46:49.32	48.32	21.06	-41.8	-43.1	16.7	0.00e+00	0	33	0	709885952	50	4012
2026-01-15 22:46:50.61	48.58	21.17	-41.7	-43.0	16.7	0.00e+00	0	33	0	714080256	50	3987
2026-01-15 22:46:51.33	48.73	21.23	-41.6	-42.8	16.7	0.00e+00	0	33	0	716177408	49	4139
2026-01-15 22:46:52.63	48.99	21.34	-41.4	-42.7	16.7	0.00e+00	0	33	0	720371712	49	4074
2026-01-15 22:46:53.35	49.14	21.40	-41.5	-42.7	16.7	0.00e+00	0	33	0	722468864	49	4077
2026-01-15 22:46:54.65	49.41	21.51	-41.3	-42.6	16.8	0.00e+00	0	33	0	726663168	49	4027
2026-01-15 22:46:55.37	49.56	21.57	-41.3	-42.5	16.8	0.00e+00	0	33	0	728760320	49	3975
2026-01-15 22:46:56.67	49.83	21.68	-41.3	-42.6	16.8	0.00e+00	0	33	0	732954624	49	4005
2026-01-15 22:46:57.39	49.98	21.75	-41.2	-42.4	16.8	0.00e+00	0	33	0	735051776	49	3954
2026-01-15 22:46:58.69	50.25	21.85	-41.2	-42.4	16.8	0.00e+00	0	33	0	739246080	48	4183
2026-01-15 22:46:59.41	50.41	21.92	-41.2	-42.4	16.8	0.00e+00	0	33	0	741343232	48	4170
2026-01-15 22:47:00.71	50.68	22.02	-41.2	-42.4	16.8	0.00e+00	0	33	0	745537536	48	4183
2026-01-15 22:47:01.43	50.84	22.09	-41.2	-42.5	16.8	0.00e+00	0	33	0	747634688	48	4195
2026-01-15 22:47:02.73	51.12	22.19	-41.2	-42.5	16.8	0.00e+00	0	33	0	751828992	48	4210
2026-01-15 22:47:03.46	51.27	22.25	-41.3	-42.6	16.8	0.00e+00	0	33	0	753926144	48	4249
2026-01-15 22:47:04.76	51.56	22.36	-41.2	-42.5	16.8	0.00e+00	0	33	0	758120448	48	4199
2026-01-15 22:47:05.48	51.71	22.42	-41.2	-42.4	16.8	0.00e+00	0	33	0	760217600	48	4173
2026-01-15 22:47:06.78	52.00	22.53	-41.1	-42.3	16.9	0.00e+00	0	33	0	764411904	48	4125
2026-01-15 22:47:07.50	52.16	22.59	-41.1	-42.3	16.9	0.00e+00	0	33	0	766509056	48	4116
2026-01-15 22:47:08.80	52.45	22.70	-41.1	-42.3	16.9	0.00e+00	0	33	0	770703360	48	4136
2026-01-15 22:47:09.52	52.61	22.76	-41.1	-42.3	16.8	0.00e+00	0	33	0	772800512	48	4140
2026-01-15 22:47:10.82	52.90	22.87	-41.1	-42.3	16.8	0.00e+00	0	33	0	776994816	48	4144
2026-01-15 22:47:11.54	53.06	22.93	-41.2	-42.4	16.8	0.00e+00	0	33	0	779091968	48	4179
2026-01-15 22:47:12.83	53.35	23.03	-41.2	-42.5	16.8	0.00e+00	0	33	0	783286272	48	4200
2026-01-15 22:47:13.56	53.52	23.09	-41.3	-42.5	16.8	0.00e+00	0	33	0	785383424	48	4212
2026-01-15 22:47:14.85	53.81	23.20	-41.3	-42.5	16.8	0.00e+00	0	33	0	789577728	48	4236
2026-01-15 22:47:15.57	53.98	23.26	-41.3	-42.6	16.8	0.00e+00	0	33	0	791674880	48	4246
2026-01-15 22:47:16.87	54.28	23.36	-41.4	-42.6	16.8	0.00e+00	0	33	0	795869184	48	4274
2026-01-15 22:47:17.59	54.45	23.42	-41.3	-42.6	16.8	0.00e+00	0	33	0	797966336	48	4259
2026-01-15 22:47:18.89	54.75	23.52	-41.5	-42.7	16.7	0.00e+00	0	34	0	802160640	48	4330
2026-01-15 22:47:19.61	54.92	23.58	-41.5	-42.7	16.7	0.00e+00	0	33	0	804257792	48	4328
2026-01-15 22:47:20.91	55.23	23.69	-41.6	-42.8	16.7	0.00e+00	0	33	0	808452096	48	4378
2026-01-15 22:47:21.63	55.40	23.75	-41.6	-42.8	16.7	0.00e+00	0	33	0	810549248	48	4382
2026-01-15 22:47:22.93	55.71	23.85	-41.5	-42.8	16.7	0.00e+00	0	33	0	814743552	48	4350
2026-01-15 22:47:23.65	55.88	23.91	-41.5	-42.8	16.7	0.00e+00	0	34	0	816840704	48	4349
2026-01-15 22:47:24.95	56.20	24.01	-41.6	-42.9	16.7	0.00e+00	0	33	0	821035008	48	4403
2026-01-15 22:47:25.67	56.37	24.07	-41.7	-43.0	16.7	0.00e+00	0	33	0	823132160	48	4443
2026-01-15 22:47:26.97	56.69	24.17	-41.6	-42.9	16.7	0.00e+00	0	33	0	827326464	48	4437
2026-01-15 22:47:27.69	56.86	24.23	-41.8	-43.1	16.6	0.00e+00	0	34	0	829423616	48	4506
2026-01-15 22:47:28.99	57.18	24.33	-41.8	-43.1	16.6	0.00e+00	0	33	0	833617920	48	4532
2026-01-15 22:47:29.71	57.36	24.38	-41.7	-43.1	16.7	0.00e+00	0	33	0	835715072	48	4494
2026-01-15 22:47:31.01	57.68	24.48	-41.8	-43.1	16.6	0.00e+00	0	33	0	839909376	48	4527
2026-01-15 22:47:31.73	57.86	24.54	-41.7	-43.0	16.6	0.00e+00	0	33	0	842006528	48	4473
2026-01-15 22:47:33.03	58.19	24.64	-41.6	-42.9	16.7	0.00e+00	0	33	0	846200832	48	4404
2026-01-15 22:47:33.75	58.37	24.70	-41.7	-42.9	16.7	0.00e+00	0	33	0	848297984	48	4423
2026-01-15 22:47:35.05	58.70	24.79	-41.8	-43.0	16.6	0.00e+00	0	33	0	852492288	48	4491
2026-01-15 22:47:35.77	58.88	24.85	-41.9	-43.2	16.6	0.00e+00	0	33	0	854589440	48	4576
2026-01-15 22:47:37.07	59.21	24.95	-42.2	-43.5	16.5	0.00e+00	0	33	0	858783744	49	4478
2026-01-15 22:47:37.79	59.40	25.00	-42.3	-43.7	16.4	0.00e+00	0	33	0	860880896	49	4567
2026-01-15 22:47:39.09	59.73	25.10	-42.5	-43.9	16.4	0.00e+00	0	33	0	865075200	50	4401
2026-01-15 22:47:39.81	59.92	25.15	-42.6	-44.0	16.3	0.00e+00	0	33	0	867172352	50	4449
2026-01-15 22:47:41.11	60.26	25.25	-42.5	-43.8	16.4	0.00e+00	0	33	0	871366656	50	4384
2026-01-15 22:47:41.83	60.45	25.30	-42.3	-43.6	16.5	0.00e+00	0	33	0	873463808	50	4280
2026-01-15 22:47:43.13	60.79	25.40	-42.1	-43.4	16.6	0.00e+00	0	33	0	877658112	50	4151
2026-01-15 22:47:43.85	60.98	25.45	-42.1	-43.4	16.6	0.00e+00	0	33	0	879755264	50	4188
2026-01-15 22:47:45.15	61.32	25.54	-42.1	-43.4	16.5	0.00e+00	0	33	0	883949568	50	4182
2026-01-15 22:47:45.87	61.51	25.59	-42.0	-43.2	16.6	0.00e+00	0	33	0	886046720	50	4097
2026-01-15 22:47:47.17	61.86	25.69	-41.8	-43.1	16.7	0.00e+00	0	33	0	890241024	50	4040
2026-01-15 22:47:47.89	62.06	25.74	-41.9	-43.2	16.7	0.00e+00	0	33	0	892338176	50	4055
2026-01-15 22:47:49.19	62.41	25.83	-41.9	-43.2	16.6	0.00e+00	0	33	0	896532480	50	4083
2026-01-15 22:47:49.91	62.60	25.88	-42.0	-43.3	16.6	0.00e+00	0	33	0	899678208	50	4114
2026-01-15 22:47:51.21	62.96	25.97	-42.1	-43.4	16.6	0.00e+00	0	33	0	902823936	50	4173
2026-01-15 22:47:51.93	63.15	26.02	-42.0	-43.3	16.6	0.00e+00	0	33	0	904921088	50	4106
2026-01-15 22:47:53.23	63.51	26.11	-41.8	-43.1	16.7	0.00e+00	0	33	0	909115392	50	4035
2026-01-15 22:47:53.95	63.71	26.16	-41.8	-43.1	16.7	0.00e+00	0	33	0	912261120	50	4039
2026-01-15 22:47:55.25	64.07	26.25	-41.7	-42.9	16.7	0.00e+00	0	33	0	915406848	50	3953
2026-01-15 22:47:55.97	64.27	26.29	-41.8	-43.0	16.7	0.00e+00	0	33	0	918552576	49	4221
2026-01-15 22:47:57.26	64.63	26.38	-41.8	-43.1	16.7	0.00e+00	0	33	0	921698304	49	4250
2026-01-15 22:47:57.99	64.83	26.43	-41.8	-43.1	16.7	0.00e+00	0	33	0	923795456	49	4253
2026-01-15 22:47:59.28	65.20	26.51	-41.8	-43.1	16.7	0.00e+00	0	33	0	927989760	49	4257
2026-01-15 22:48:00.00	65.40	26.56	-41.8	-43.1	16.7	0.00e+00	0	33	0	931135488	49	4268
2026-01-15 22:48:01.30	65.77	26.64	-41.6	-42.9	16.7	0.00e+00	0	33	0	934281216	49	4169
2026-01-15 22:48:02.03	65.98	26.69	-41.7	-42.9	16.7	0.00e+00	0	33	0	937426944	49	4188
2026-01-15 22:48:03.32	66.35	26.77	-41.8	-43.1	16.7	0.00e+00	0	33	0	940572672	49	4266
2026-01-15 22:48:04.05	66.56	26.81	-41.7	-43.0	16.7	0.00e+00	0	33	0	943718400	49	4223
2026-01-15 22:48:05.34	66.93	26.89	-41.9	-43.1	16.6	0.00e+00	0	33	0	947912704	49	4286
2026-01-15 22:48:06.06	67.14	26.94	-41.9	-43.2	16.6	0.00e+00	0	33	0	950009856	49	4328
2026-01-15 22:48:07.36	67.52	27.02	-41.8	-43.1	16.7	0.00e+00	0	34	0	954204160	49	4275
2026-01-15 22:48:08.09	67.73	27.06	-41.8	-43.0	16.7	0.00e+00	0	33	0	956301312	49	4226
2026-01-15 22:48:09.38	68.11	27.14	-41.6	-42.9	16.7	0.00e+00	0	33	0	959447040	49	4156
2026-01-15 22:48:10.10	68.32	27.18	-41.6	-42.9	16.7	0.00e+00	0	33	0	962592768	49	4177
2026-01-15 22:48:11.40	68.70	27.25	-41.6	-42.9	16.8	0.00e+00	0	33	0	966787072	49	4153
2026-01-15 22:48:12.12	68.91	27.29	-41.7	-43.0	16.7	0.00e+00	0	33	0	968884224	49	4201
2026-01-15 22:48:13.42	69.30	27.37	-41.9	-43.2	16.7	0.00e+00	0	33	0	973078528	49	4303
2026-01-15 22:48:14.14	69.51	27.41	-42.0	-43.3	16.6	0.00e+00	0	33	0	975175680	49	4354
2026-01-15 22:48:15.44	69.90	27.48	-42.0	-43.3	16.6	0.00e+00	0	33	0	979369984	49	4383
2026-01-15 22:48:16.16	70.12	27.52	-42.1	-43.4	16.6	0.00e+00	0	33	0	981467136	49	4403
2026-01-15 22:48:17.46	70.51	27.59	-42.0	-43.3	16.6	0.00e+00	0	33	0	985661440	49	4354
2026-01-15 22:48:18.18	70.73	27.62	-41.9	-43.3	16.6	0.00e+00	0	33	0	987758592	49	4343
2026-01-15 22:48:19.48	71.12	27.69	-41.9	-43.2	16.6	0.00e+00	0	34	0	991952896	49	4307
2026-01-15 22:48:20.20	71.34	27.73	-42.1	-43.4	16.6	0.00e+00	0	33	0	994050048	49	4406
2026-01-15 22:48:21.50	71.74	27.79	-42.1	-43.4	16.6	0.00e+00	0	33	0	998244352	49	4440
2026-01-15 22:48:22.22	71.96	27.83	-42.0	-43.3	16.6	0.00e+00	0	33	0	1000341504	49	4382
2026-01-15 22:48:23.52	72.36	27.89	-42.0	-43.3	16.6	0.00e+00	0	33	0	1004535808	49	4350
2026-01-15 22:48:24.24	72.58	27.93	-42.0	-43.3	16.6	0.00e+00	0	33	0	1006632960	49	4383
2026-01-15 22:48:25.54	72.98	27.99	-42.1	-43.4	16.6	0.00e+00	0	33	0	1010827264	49	4435
2026-01-15 22:48:26.26	73.20	28.02	-42.2	-43.5	16.5	0.00e+00	0	33	0	1012924416	49	4492
2026-01-15 22:48:27.55	73.60	28.08	-42.2	-43.5	16.5	0.00e+00	0	33	0	1017118720	49	4474
2026-01-15 22:48:28.27	73.83	28.11	-42.2	-43.5	16.5	0.00e+00	0	34	0	1019215872	49	4473
2026-01-15 22:48:29.57	74.24	28.17	-42.1	-43.4	16.5	0.00e+00	0	34	0	1023410176	49	4423
2026-01-15 22:48:30.29	74.46	28.20	-42.0	-43.3	16.6	0.00e+00	0	33	0	1025507328	49	4365
2026-01-15 22:48:31.59	74.87	28.26	-41.9	-43.1	16.7	0.00e+00	0	33	0	1029701632	49	4290
2026-01-15 22:48:32.31	75.10	28.29	-41.9	-43.2	16.7	0.00e+00	0	33	0	1031798784	49	4296
2026-01-15 22:48:33.61	75.51	28.34	-41.9	-43.2	16.7	0.00e+00	0	33	0	1035993088	49	4309
2026-01-15 22:48:34.33	75.73	28.37	-41.9	-43.2	16.6	0.00e+00	0	34	0	1038090240	49	4335
2026-01-15 22:48:35.63	76.15	28.42	-42.1	-43.4	16.6	0.00e+00	0	33	0	1042284544	49	4404
2026-01-15 22:48:36.35	76.38	28.45	-42.1	-43.4	16.6	0.00e+00	0	33	0	1044381696	49	4398
2026-01-15 22:48:37.65	76.79	28.49	-42.1	-43.4	16.6	0.00e+00	0	33	0	1048576000	49	4414
2026-01-15 22:48:38.37	77.02	28.52	-42.0	-43.3	16.6	0.00e+00	0	33	0	1050673152	49	4373
2026-01-15 22:48:39.67	77.44	28.57	-42.1	-43.4	16.6	0.00e+00	0	33	0	1054867456	49	4416
2026-01-15 22:48:40.39	77.67	28.59	-42.1	-43.4	16.6	0.00e+00	0	33	0	1056964608	49	4413
2026-01-15 22:48:41.69	78.08	28.63	-42.3	-43.6	16.5	0.00e+00	0	34	0	1061158912	49	4527
2026-01-15 22:48:42.41	78.32	28.66	-42.3	-43.7	16.4	0.00e+00	0	33	0	1063256064	49	4566
2026-01-15 22:48:43.71	78.74	28.70	-42.2	-43.6	16.5	0.00e+00	0	33	0	1067450368	49	4507
2026-01-15 22:48:44.43	78.97	28.72	-42.3	-43.6	16.5	0.00e+00	0	33	0	1069547520	49	4530
2026-01-15 22:48:45.72	79.39	28.76	-42.1	-43.4	16.6	0.00e+00	0	33	0	1073741824	49	4420
2026-01-15 22:48:46.45	79.62	28.78	-42.1	-43.4	16.6	0.00e+00	0	34	0	1075838976	49	4418
2026-01-15 22:48:47.75	80.05	28.82	-42.2	-43.5	16.5	0.00e+00	0	33	0	1080033280	49	4480
2026-01-15 22:48:48.47	80.28	28.83	-42.3	-43.7	16.5	0.00e+00	0	33	0	1082130432	49	4546
2026-01-15 22:48:49.76	80.70	28.87	-42.2	-43.5	16.5	0.00e+00	0	33	0	1086324736	49	4493
2026-01-15 22:48:50.49	80.94	28.89	-42.2	-43.5	16.5	0.00e+00	0	33	0	1088421888	49	4488
2026-01-15 22:48:51.78	81.36	28.92	-42.0	-43.3	16.6	0.00e+00	0	33	0	1092616192	49	4344
2026-01-15 22:48:52.51	81.60	28.93	-41.8	-43.0	16.7	0.00e+00	0	33	0	1094713344	49	4225
2026-01-15 22:48:53.80	82.03	28.96	-41.8	-43.1	16.7	0.00e+00	0	33	0	1098907648	49	4255
2026-01-15 22:48:54.53	82.27	28.98	-42.0	-43.2	16.6	0.00e+00	0	33	0	1101004800	49	4336
2026-01-15 22:48:55.82	82.69	29.00	-42.1	-43.4	16.5	0.00e+00	0	33	0	1105199104	49	4436
2026-01-15 22:48:56.55	82.93	29.02	-42.2	-43.5	16.5	0.00e+00	0	34	0	1107296256	49	4483
2026-01-15 22:48:57.85	83.36	29.04	-42.1	-43.4	16.5	0.00e+00	0	33	0	1111490560	49	4426
2026-01-15 22:48:58.57	83.60	29.05	-42.1	-43.4	16.6	0.00e+00	0	34	0	1113587712	49	4396
2026-01-15 22:48:59.86	84.02	29.07	-42.0	-43.3	16.6	0.00e+00	0	33	0	1117782016	49	4360
2026-01-15 22:49:00.59	84.27	29.08	-42.1	-43.4	16.6	0.00e+00	0	34	0	1119879168	49	4396
2026-01-15 22:49:01.89	84.70	29.10	-42.1	-43.5	16.5	0.00e+00	0	33	0	1124073472	49	4455
2026-01-15 22:49:02.61	84.94	29.11	-42.1	-43.5	16.5	0.00e+00	0	33	0	1126170624	49	4456
2026-01-15 22:49:03.91	85.37	29.12	-42.1	-43.4	16.5	0.00e+00	0	33	0	1130364928	49	4418
2026-01-15 22:49:04.63	85.61	29.13	-42.0	-43.3	16.6	0.00e+00	0	33	0	1132462080	49	4353
2026-01-15 22:49:05.92	86.03	29.14	-42.0	-43.3	16.6	0.00e+00	0	33	0	1136656384	49	4371
2026-01-15 22:49:06.65	86.28	29.15	-42.0	-43.2	16.6	0.00e+00	0	33	0	1138753536	49	4335
2026-01-15 22:49:07.95	86.71	29.16	-42.0	-43.3	16.6	0.00e+00	0	33	0	1142947840	49	4376
2026-01-15 22:49:08.67	86.95	29.17	-41.9	-43.2	16.6	0.00e+00	0	34	0	1145044992	49	4305
2026-01-15 22:49:09.96	87.38	29.17	-41.8	-43.1	16.7	0.00e+00	0	34	0	1149239296	49	4254
2026-01-15 22:49:10.69	87.62	29.18	-41.7	-43.0	16.8	0.00e+00	0	33	0	1151336448	49	4199
2026-01-15 22:49:11.99	88.05	29.18	-41.7	-42.9	16.8	0.00e+00	0	33	0	1155530752	49	4186
2026-01-15 22:49:12.71	88.29	29.18	-41.8	-43.1	16.7	0.00e+00	0	33	0	1157627904	49	4249
2026-01-15 22:49:14.00	88.72	29.18	-42.0	-43.3	16.6	0.00e+00	0	34	0	1161822208	49	4375
2026-01-15 22:49:14.73	88.97	29.18	-42.1	-43.5	16.5	0.00e+00	0	33	0	1163919360	49	4443
2026-01-15 22:49:16.03	89.40	29.18	-42.1	-43.5	16.5	0.00e+00	0	33	0	1168113664	49	4459
2026-01-15 22:49:16.75	89.64	29.18	-42.2	-43.6	16.5	0.00e+00	0	33	0	1170210816	49	4511
2026-01-15 22:49:18.04	90.07	29.18	-42.1	-43.5	16.5	0.00e+00	0	34	0	1174405120	49	4456
2026-01-15 22:49:18.77	90.31	29.17	-42.1	-43.5	16.5	0.00e+00	0	34	0	1176502272	49	4453
2026-01-15 22:49:20.06	90.74	29.17	-42.3	-43.6	16.5	0.00e+00	0	34	0	1180696576	49	4541
2026-01-15 22:49:20.79	90.99	29.16	-42.4	-43.7	16.5	0.00e+00	0	33	0	1182793728	49	4578
2026-01-15 22:49:22.09	91.42	29.15	-42.3	-43.6	16.5	0.00e+00	0	34	0	1186988032	49	4528
2026-01-15 22:49:22.81	91.66	29.15	-42.3	-43.7	16.5	0.00e+00	0	34	0	1189085184	49	4578
2026-01-15 22:49:24.10	92.09	29.14	-42.3	-43.7	16.5	0.00e+00	0	34	0	1193279488	49	4578
2026-01-15 22:49:24.82	92.33	29.13	-42.3	-43.7	16.5	0.00e+00	0	33	0	1195376640	49	4561
2026-01-15 22:49:26.12	92.76	29.11	-42.2	-43.6	16.5	0.00e+00	0	34	0	1199570944	49	4504
2026-01-15 22:49:26.84	93.00	29.11	-42.2	-43.6	16.5	0.00e+00	0	34	0	1201668096	49	4495
2026-01-15 22:49:28.14	93.43	29.09	-42.3	-43.7	16.5	0.00e+00	0	33	0	1205862400	49	4570
2026-01-15 22:49:28.86	93.67	29.08	-42.4	-43.7	16.5	0.00e+00	0	33	0	1207959552	50	4337
2026-01-15 22:49:30.16	94.10	29.06	-42.3	-43.6	16.5	0.00e+00	0	34	0	1212153856	50	4284
2026-01-15 22:49:30.88	94.33	29.05	-42.2	-43.6	16.5	0.00e+00	0	33	0	1214251008	50	4256
2026-01-15 22:49:32.18	94.76	29.02	-42.2	-43.6	16.5	0.00e+00	0	33	0	1218445312	50	4247
2026-01-15 22:49:32.90	95.00	29.01	-42.1	-43.4	16.6	0.00e+00	0	33	0	1220542464	50	4155
2026-01-15 22:49:34.20	95.43	28.99	-42.0	-43.3	16.7	0.00e+00	0	33	0	1224736768	50	4106
2026-01-15 22:49:34.92	95.67	28.97	-42.1	-43.5	16.6	0.00e+00	0	34	0	1226833920	50	4199
2026-01-15 22:49:36.22	96.09	28.94	-42.2	-43.5	16.6	0.00e+00	0	33	0	1231028224	50	4211
2026-01-15 22:49:36.94	96.33	28.93	-42.1	-43.5	16.6	0.00e+00	0	33	0	1234173952	50	4206
2026-01-15 22:49:38.24	96.76	28.90	-42.2	-43.5	16.6	0.00e+00	0	34	0	1237319680	50	4217
2026-01-15 22:49:38.96	96.99	28.88	-42.1	-43.4	16.6	0.00e+00	0	33	0	1239416832	50	4156
2026-01-15 22:49:40.26	97.42	28.85	-42.1	-43.5	16.6	0.00e+00	0	34	0	1243611136	50	4199
2026-01-15 22:49:40.98	97.65	28.83	-42.1	-43.4	16.6	0.00e+00	0	34	0	1245708288	50	4158
2026-01-15 22:49:42.28	98.08	28.79	-42.0	-43.4	16.6	0.00e+00	0	33	0	1249902592	50	4147
2026-01-15 22:49:43.00	98.31	28.77	-42.1	-43.4	16.6	0.00e+00	0	34	0	1253048320	50	4175
2026-01-15 22:49:44.30	98.73	28.73	-42.0	-43.3	16.7	0.00e+00	0	33	0	1256194048	50	4117
2026-01-15 22:49:45.02	98.97	28.71	-42.0	-43.2	16.7	0.00e+00	0	33	0	1259339776	50	4096
2026-01-15 22:49:46.32	99.39	28.67	-42.1	-43.4	16.6	0.00e+00	0	34	0	1262485504	50	4187
2026-01-15 22:49:47.04	99.62	28.65	-42.2	-43.5	16.6	0.00e+00	0	34	0	1264582656	50	4231
2026-01-15 22:49:48.34	100.04	28.60	-42.1	-43.4	16.6	0.00e+00	0	34	0	1268776960	50	4168
2026-01-15 22:49:49.06	100.27	28.58	-42.0	-43.3	16.7	0.00e+00	0	33	0	1271922688	50	4127
2026-01-15 22:49:50.36	100.69	28.54	-41.9	-43.2	16.7	0.00e+00	0	34	0	1275068416	50	4076
2026-01-15 22:49:51.08	100.92	28.51	-41.9	-43.2	16.7	0.00e+00	0	33	0	1278214144	50	4068
2026-01-15 22:49:52.38	101.33	28.46	-41.9	-43.2	16.7	0.00e+00	0	34	0	1281359872	50	4053
2026-01-15 22:49:53.10	101.56	28.43	-41.8	-43.1	16.7	0.00e+00	0	34	0	1284505600	50	4028
2026-01-15 22:49:54.39	101.97	28.38	-42.1	-43.4	16.6	0.00e+00	0	34	0	1288699904	50	4165
2026-01-15 22:49:55.12	102.20	28.36	-42.2	-43.5	16.6	0.00e+00	0	33	0	1290797056	50	4215
2026-01-15 22:49:56.41	102.61	28.30	-42.1	-43.4	16.6	0.00e+00	0	33	0	1294991360	50	4193
2026-01-15 22:49:57.13	102.84	28.27	-42.1	-43.4	16.6	0.00e+00	0	33	0	1297088512	50	4170
2026-01-15 22:49:58.43	103.25	28.22	-42.1	-43.4	16.6	0.00e+00	0	33	0	1300234240	50	4157
2026-01-15 22:49:59.15	103.48	28.19	-42.1	-43.4	16.6	0.00e+00	0	33	0	1303379968	50	4188
2026-01-15 22:50:00.45	103.88	28.13	-42.1	-43.5	16.6	0.00e+00	0	34	0	1307574272	50	4209
2026-01-15 22:50:01.17	104.11	28.10	-42.1	-43.5	16.5	0.00e+00	0	33	0	1309671424	50	4194
2026-01-15 22:50:02.47	104.51	28.04	-42.1	-43.5	16.6	0.00e+00	0	34	0	1313865728	50	4194
2026-01-15 22:50:03.19	104.74	28.01	-42.0	-43.3	16.6	0.00e+00	0	34	0	1315962880	50	4126
2026-01-15 22:50:04.49	105.14	27.95	-42.0	-43.3	16.7	0.00e+00	0	33	0	1319108608	50	4118
2026-01-15 22:50:05.21	105.36	27.91	-42.0	-43.3	16.7	0.00e+00	0	34	0	1322254336	50	4122
2026-01-15 22:50:06.51	105.76	27.85	-41.9	-43.2	16.7	0.00e+00	0	34	0	1326448640	50	4093
2026-01-15 22:50:07.23	105.98	27.81	-41.9	-43.2	16.7	0.00e+00	0	34	0	1328545792	50	4072
2026-01-15 22:50:08.53	106.38	27.75	-42.0	-43.2	16.7	0.00e+00	0	34	0	1332740096	50	4096
2026-01-15 22:50:09.25	106.60	27.71	-41.9	-43.1	16.7	0.00e+00	0	34	0	1334837248	50	4042
2026-01-15 22:50:10.55	107.00	27.64	-41.8	-43.1	16.8	0.00e+00	0	33	0	1339031552	50	4031
2026-01-15 22:50:11.27	107.22	27.61	-41.8	-43.0	16.8	0.00e+00	0	33	0	1341128704	50	3987
2026-01-15 22:50:12.56	107.61	27.54	-41.9	-43.1	16.8	0.00e+00	0	34	0	1345323008	50	4051
2026-01-15 22:50:13.29	107.83	27.50	-41.8	-43.1	16.7	0.00e+00	0	34	0	1347420160	50	4042
2026-01-15 22:50:14.58	108.21	27.43	-41.8	-43.1	16.7	0.00e+00	0	34	0	1351614464	50	4031
2026-01-15 22:50:15.30	108.43	27.39	-41.8	-43.1	16.8	0.00e+00	0	33	0	1353711616	50	4022
2026-01-15 22:50:16.60	108.82	27.31	-41.9	-43.2	16.7	0.00e+00	0	33	0	1357905920	50	4068
2026-01-15 22:50:17.32	109.03	27.27	-41.7	-43.0	16.8	0.00e+00	0	34	0	1360003072	50	3974
2026-01-15 22:50:18.62	109.41	27.20	-41.6	-42.9	16.8	0.00e+00	0	34	0	1364197376	49	4149
2026-01-15 22:50:19.34	109.63	27.16	-41.7	-42.9	16.8	0.00e+00	0	34	0	1366294528	49	4175
2026-01-15 22:50:20.64	110.01	27.08	-41.5	-42.7	16.8	0.00e+00	0	34	0	1370488832	49	4083
2026-01-15 22:50:21.36	110.22	27.04	-41.6	-42.8	16.8	0.00e+00	0	34	0	1372585984	49	4127
2026-01-15 22:50:22.66	110.60	26.96	-41.7	-43.0	16.8	0.00e+00	0	33	0	1376780288	49	4204
2026-01-15 22:50:23.38	110.81	26.91	-41.8	-43.0	16.8	0.00e+00	0	34	0	1378877440	49	4228
2026-01-15 22:50:24.68	111.19	26.83	-41.8	-43.1	16.7	0.00e+00	0	33	0	1383071744	49	4265
2026-01-15 22:50:25.40	111.39	26.79	-41.8	-43.1	16.7	0.00e+00	0	33	0	1385168896	49	4274
2026-01-15 22:50:26.70	111.77	26.71	-41.8	-43.1	16.7	0.00e+00	0	34	0	1389363200	49	4279
2026-01-15 22:50:27.42	111.97	26.66	-41.7	-43.0	16.8	0.00e+00	0	33	0	1391460352	49	4217
2026-01-15 22:50:28.72	112.34	26.58	-41.8	-43.0	16.7	0.00e+00	0	34	0	1395654656	49	4228
2026-01-15 22:50:29.44	112.55	26.53	-41.7	-42.9	16.8	0.00e+00	0	34	0	1397751808	49	4190
2026-01-15 22:50:30.73	112.91	26.45	-41.7	-43.0	16.8	0.00e+00	0	33	0	1401946112	49	4210
2026-01-15 22:50:31.46	113.12	26.40	-41.6	-42.9	16.8	0.00e+00	0	33	0	1404043264	49	4148
2026-01-15 22:50:32.75	113.48	26.31	-41.6	-42.9	16.8	0.00e+00	0	33	0	1408237568	49	4149
2026-01-15 22:50:33.48	113.68	26.27	-41.7	-42.9	16.8	0.00e+00	0	34	0	1410334720	49	4172
2026-01-15 22:50:34.77	114.04	26.18	-41.7	-42.9	16.8	0.00e+00	0	34	0	1414529024	49	4176
2026-01-15 22:50:35.49	114.24	26.13	-41.6	-42.9	16.8	0.00e+00	0	34	0	1416626176	49	4160
2026-01-15 22:50:36.79	114.60	26.04	-41.8	-43.0	16.7	0.00e+00	0	34	0	1420820480	49	4229
2026-01-15 22:50:37.51	114.80	25.99	-41.9	-43.2	16.7	0.00e+00	0	33	0	1422917632	49	4294
2026-01-15 22:50:38.81	115.16	25.90	-42.0	-43.3	16.6	0.00e+00	0	33	0	1427111936	49	4382
2026-01-15 22:50:39.53	115.35	25.85	-42.0	-43.3	16.6	0.00e+00	0	34	0	1429209088	49	4384
2026-01-15 22:50:40.83	115.70	25.76	-42.1	-43.4	16.6	0.00e+00	0	33	0	1433403392	49	4421
2026-01-15 22:50:41.55	115.90	25.71	-42.1	-43.4	16.6	0.00e+00	0	34	0	1435500544	49	4414
2026-01-15 22:50:42.85	116.25	25.61	-41.9	-43.2	16.7	0.00e+00	0	34	0	1439694848	49	4315
2026-01-15 22:50:43.57	116.44	25.56	-41.7	-43.0	16.7	0.00e+00	0	34	0	1441792000	49	4231
2026-01-15 22:50:44.87	116.79	25.47	-41.8	-43.0	16.7	0.00e+00	0	33	0	1445986304	49	4237
2026-01-15 22:50:45.59	116.98	25.42	-41.7	-43.0	16.8	0.00e+00	0	34	0	1448083456	49	4201
2026-01-15 22:50:46.88	117.32	25.32	-41.7	-43.0	16.8	0.00e+00	0	34	0	1452277760	49	4217
2026-01-15 22:50:47.61	117.51	25.27	-41.8	-43.1	16.7	0.00e+00	0	34	0	1454374912	49	4285
2026-01-15 22:50:48.90	117.85	25.17	-42.0	-43.3	16.7	0.00e+00	0	34	0	1458569216	49	4355
2026-01-15 22:50:49.63	118.04	25.12	-42.1	-43.4	16.6	0.00e+00	0	33	0	1460666368	49	4428
2026-01-15 22:50:50.92	118.37	25.02	-42.1	-43.4	16.6	0.00e+00	0	33	0	1464860672	49	4426
2026-01-15 22:50:51.65	118.56	24.96	-42.1	-43.4	16.6	0.00e+00	0	33	0	1466957824	49	4412
2026-01-15 22:50:52.94	118.89	24.87	-41.8	-43.1	16.7	0.00e+00	0	33	0	1471152128	49	4279
2026-01-15 22:50:53.66	119.08	24.81	-41.8	-43.1	16.7	0.00e+00	0	33	0	1473249280	49	4266
2026-01-15 22:50:54.96	119.41	24.71	-41.8	-43.0	16.7	0.00e+00	0	33	0	1477443584	49	4234
2026-01-15 22:50:55.68	119.59	24.66	-41.6	-42.8	16.8	0.00e+00	0	34	0	1479540736	49	4126
2026-01-15 22:50:56.98	119.92	24.56	-41.5	-42.7	16.8	0.00e+00	0	34	0	1483735040	49	4078
2026-01-15 22:50:57.70	120.10	24.50	-41.4	-42.7	16.9	0.00e+00	0	34	0	1485832192	49	4060
2026-01-15 22:50:59.00	120.42	24.40	-41.7	-43.0	16.7	0.00e+00	0	33	0	1490026496	49	4221
2026-01-15 22:50:59.72	120.60	24.34	-41.8	-43.1	16.7	0.00e+00	0	34	0	1492123648	49	4290
2026-01-15 22:51:01.02	120.92	24.24	-41.8	-43.1	16.7	0.00e+00	0	34	0	1496317952	49	4286
2026-01-15 22:51:01.74	121.10	24.18	-41.7	-42.9	16.8	0.00e+00	0	34	0	1498415104	49	4187
2026-01-15 22:51:03.04	121.42	24.08	-41.7	-43.0	16.8	0.00e+00	0	34	0	1502609408	49	4210
2026-01-15 22:51:03.76	121.59	24.02	-41.7	-43.0	16.8	0.00e+00	0	34	0	1504706560	49	4222
2026-01-15 22:51:05.06	121.91	23.92	-41.6	-42.9	16.8	0.00e+00	0	34	0	1508900864	49	4165
2026-01-15 22:51:05.78	122.08	23.86	-41.7	-43.0	16.7	0.00e+00	0	33	0	1510998016	49	4225
2026-01-15 22:51:07.07	122.39	23.76	-41.8	-43.1	16.7	0.00e+00	0	33	0	1515192320	49	4274
2026-01-15 22:51:07.80	122.56	23.70	-41.9	-43.2	16.7	0.00e+00	0	34	0	1517289472	49	4306
2026-01-15 22:51:09.09	122.87	23.60	-41.9	-43.3	16.7	0.00e+00	0	34	0	1521483776	49	4343
2026-01-15 22:51:09.81	123.04	23.54	-42.0	-43.3	16.7	0.00e+00	0	34	0	1523580928	49	4355
2026-01-15 22:51:11.11	123.34	23.43	-42.0	-43.3	16.7	0.00e+00	0	33	0	1527775232	49	4349
2026-01-15 22:51:11.84	123.52	23.37	-42.0	-43.3	16.6	0.00e+00	0	34	0	1529872384	49	4357
2026-01-15 22:51:13.13	123.82	23.27	-42.0	-43.3	16.6	0.00e+00	0	34	0	1534066688	49	4367
2026-01-15 22:51:13.85	123.98	23.21	-42.0	-43.4	16.6	0.00e+00	0	34	0	1536163840	49	4400
2026-01-15 22:51:15.15	124.28	23.10	-42.0	-43.3	16.6	0.00e+00	0	34	0	1540358144	49	4389
2026-01-15 22:51:15.87	124.45	23.04	-41.9	-43.2	16.7	0.00e+00	0	34	0	1542455296	49	4304
2026-01-15 22:51:17.17	124.74	22.94	-41.8	-43.1	16.7	0.00e+00	0	34	0	1546649600	49	4266
2026-01-15 22:51:17.89	124.91	22.88	-41.8	-43.1	16.7	0.00e+00	0	34	0	1548746752	49	4272
2026-01-15 22:51:19.19	125.20	22.77	-41.8	-43.1	16.7	0.00e+00	0	34	0	1552941056	49	4281
2026-01-15 22:51:19.91	125.36	22.71	-41.7	-43.0	16.7	0.00e+00	0	33	0	1555038208	49	4231
2026-01-15 22:51:21.21	125.65	22.60	-41.7	-43.0	16.7	0.00e+00	0	34	0	1559232512	49	4199
2026-01-15 22:51:21.93	125.81	22.54	-41.7	-42.9	16.8	0.00e+00	0	34	0	1561329664	49	4187
2026-01-15 22:51:23.23	126.10	22.43	-41.5	-42.8	16.8	0.00e+00	0	33	0	1565523968	49	4103
2026-01-15 22:51:23.95	126.25	22.37	-41.5	-42.7	16.8	0.00e+00	0	33	0	1567621120	49	4082
2026-01-15 22:51:25.25	126.54	22.26	-41.4	-42.7	16.8	0.00e+00	0	34	0	1571815424	49	4057
2026-01-15 22:51:25.97	126.70	22.20	-41.5	-42.7	16.8	0.00e+00	0	33	0	1573912576	49	4087
2026-01-15 22:51:27.26	126.97	22.09	-41.3	-42.5	16.9	0.00e+00	0	34	0	1578106880	49	3993
2026-01-15 22:51:27.99	127.13	22.03	-41.3	-42.5	16.9	0.00e+00	0	34	0	1580204032	49	4002
2026-01-15 22:51:29.28	127.41	21.92	-41.3	-42.5	16.9	0.00e+00	0	33	0	1584398336	49	3998
2026-01-15 22:51:30.01	127.56	21.86	-41.3	-42.5	16.9	0.00e+00	0	34	0	1586495488	49	3998
2026-01-15 22:51:31.30	127.84	21.75	-41.5	-42.7	16.8	0.00e+00	0	34	0	1590689792	49	4097
2026-01-15 22:51:32.03	127.99	21.69	-41.6	-42.9	16.7	0.00e+00	0	34	0	1592786944	49	4153
2026-01-15 22:51:33.33	128.26	21.58	-41.8	-43.1	16.6	0.00e+00	0	34	0	1596981248	49	4276
2026-01-15 22:51:34.05	128.41	21.52	-41.8	-43.2	16.6	0.00e+00	0	34	0	1600126976	49	4298
2026-01-15 22:51:35.34	128.68	21.41	-41.9	-43.2	16.6	0.00e+00	0	34	0	1603272704	49	4315
2026-01-15 22:51:36.07	128.83	21.35	-41.9	-43.2	16.6	0.00e+00	0	34	0	1605369856	49	4311
2026-01-15 22:51:37.36	129.09	21.24	-42.0	-43.3	16.6	0.00e+00	0	33	0	1609564160	49	4363
2026-01-15 22:51:38.09	129.24	21.17	-42.0	-43.4	16.5	0.00e+00	0	34	0	1611661312	49	4411
2026-01-15 22:51:39.38	129.50	21.06	-41.9	-43.2	16.6	0.00e+00	0	34	0	1615855616	49	4335
2026-01-15 22:51:40.10	129.65	21.00	-41.9	-43.2	16.6	0.00e+00	0	33	0	1619001344	49	4296
2026-01-15 22:51:41.40	129.91	20.89	-41.9	-43.3	16.6	0.00e+00	0	34	0	1622147072	49	4345
2026-01-15 22:51:42.12	130.05	20.83	-41.8	-43.1	16.6	0.00e+00	0	34	0	1625292800	49	4285
2026-01-15 22:51:43.42	130.31	20.72	-41.8	-43.1	16.7	0.00e+00	0	34	0	1628438528	49	4245
2026-01-15 22:51:44.14	130.45	20.66	-41.8	-43.1	16.6	0.00e+00	0	34	0	1631584256	49	4289
2026-01-15 22:51:45.44	130.71	20.54	-41.8	-43.1	16.6	0.00e+00	0	33	0	1634729984	49	4265
2026-01-15 22:51:46.17	130.85	20.48	-41.8	-43.1	16.6	0.00e+00	0	34	0	1637875712	49	4288
2026-01-15 22:51:47.46	131.10	20.37	-41.9	-43.2	16.6	0.00e+00	0	33	0	1641021440	49	4331
2026-01-15 22:51:48.18	131.24	20.31	-41.9	-43.3	16.6	0.00e+00	0	34	0	1644167168	49	4344
2026-01-15 22:51:49.48	131.49	20.20	-42.0	-43.3	16.5	0.00e+00	0	34	0	1647312896	49	4383
2026-01-15 22:51:50.20	131.62	20.14	-42.0	-43.3	16.5	0.00e+00	0	34	0	1650458624	49	4383
2026-01-15 22:51:51.50	131.87	20.02	-42.0	-43.3	16.5	0.00e+00	0	34	0	1654652928	49	4365
2026-01-15 22:51:52.22	132.01	19.96	-41.9	-43.2	16.5	0.00e+00	0	34	0	1656750080	49	4331
2026-01-15 22:51:53.52	132.25	19.85	-41.9	-43.2	16.6	0.00e+00	0	34	0	1659895808	49	4320
2026-01-15 22:51:54.24	132.39	19.79	-42.0	-43.3	16.5	0.00e+00	0	34	0	1663041536	49	4357
2026-01-15 22:51:55.54	132.63	19.68	-41.9	-43.2	16.6	0.00e+00	0	33	0	1667235840	49	4302
2026-01-15 22:51:56.26	132.76	19.62	-41.9	-43.2	16.6	0.00e+00	0	33	0	1669332992	49	4332
2026-01-15 22:51:57.56	133.00	19.50	-41.9	-43.3	16.6	0.00e+00	0	34	0	1673527296	49	4354
2026-01-15 22:51:58.28	133.13	19.44	-42.0	-43.3	16.6	0.00e+00	0	34	0	1675624448	49	4374
2026-01-15 22:51:59.58	133.37	19.33	-42.0	-43.3	16.6	0.00e+00	0	34	0	1679818752	49	4391
2026-01-15 22:52:00.30	133.50	19.27	-42.1	-43.4	16.5	0.00e+00	0	34	0	1681915904	49	4417
2026-01-15 22:52:01.60	133.73	19.16	-42.1	-43.4	16.5	0.00e+00	0	33	0	1686110208	49	4435
2026-01-15 22:52:02.32	133.86	19.09	-42.2	-43.6	16.4	0.00e+00	0	33	0	1688207360	49	4502
2026-01-15 22:52:03.62	134.09	18.98	-42.2	-43.6	16.4	0.00e+00	0	33	0	1692401664	49	4535
2026-01-15 22:52:04.33	134.21	18.92	-42.2	-43.6	16.4	0.00e+00	0	34	0	1694498816	49	4526
2026-01-15 22:52:05.63	134.44	18.81	-42.3	-43.7	16.4	0.00e+00	0	34	0	1698693120	49	4570
2026-01-15 22:52:06.35	134.57	18.75	-42.3	-43.7	16.4	0.00e+00	0	33	0	1700790272	49	4569
2026-01-15 22:52:07.65	134.79	18.64	-42.4	-43.8	16.3	0.00e+00	0	34	0	1704984576	50	4388
2026-01-15 22:52:08.37	134.92	18.58	-42.4	-43.8	16.4	0.00e+00	0	33	0	1707081728	50	4374
2026-01-15 22:52:09.67	135.14	18.47	-42.5	-43.9	16.3	0.00e+00	0	33	0	1711276032	50	4421
2026-01-15 22:52:10.39	135.27	18.40	-42.4	-43.8	16.4	0.00e+00	0	33	0	1713373184	50	4355
2026-01-15 22:52:11.69	135.49	18.29	-42.4	-43.8	16.4	0.00e+00	0	33	0	1717567488	50	4377
2026-01-15 22:52:12.41	135.61	18.23	-42.3	-43.7	16.4	0.00e+00	0	34	0	1719664640	50	4313
2026-01-15 22:52:13.71	135.83	18.12	-42.3	-43.7	16.5	0.00e+00	0	33	0	1723858944	50	4292
2026-01-15 22:52:14.43	135.95	18.06	-42.2	-43.6	16.5	0.00e+00	0	34	0	1725956096	50	4264
2026-01-15 22:52:15.73	136.16	17.95	-42.2	-43.6	16.5	0.00e+00	0	33	0	1730150400	50	4245
2026-01-15 22:52:16.45	136.28	17.89	-42.2	-43.6	16.5	0.00e+00	0	34	0	1732247552	50	4245
2026-01-15 22:52:17.75	136.50	17.78	-42.2	-43.6	16.4	0.00e+00	0	34	0	1736441856	50	4269
2026-01-15 22:52:18.47	136.61	17.72	-42.3	-43.6	16.5	0.00e+00	0	34	0	1738539008	50	4286
2026-01-15 22:52:19.77	136.83	17.60	-42.2	-43.6	16.5	0.00e+00	0	33	0	1742733312	50	4243
2026-01-15 22:52:20.49	136.94	17.54	-42.3	-43.7	16.4	0.00e+00	0	34	0	1744830464	50	4299
2026-01-15 22:52:21.79	137.15	17.43	-42.2	-43.5	16.5	0.00e+00	0	34	0	1749024768	50	4226
2026-01-15 22:52:22.51	137.27	17.37	-42.1	-43.5	16.5	0.00e+00	0	34	0	1751121920	50	4211
2026-01-15 22:52:23.81	137.47	17.26	-42.0	-43.4	16.6	0.00e+00	0	33	0	1755316224	50	4149
2026-01-15 22:52:24.53	137.59	17.20	-42.0	-43.3	16.6	0.00e+00	0	34	0	1757413376	50	4139
2026-01-15 22:52:25.83	137.79	17.09	-42.1	-43.4	16.5	0.00e+00	0	33	0	1761607680	50	4169
2026-01-15 22:52:26.55	137.91	17.03	-41.9	-43.2	16.6	0.00e+00	0	33	0	1763704832	50	4088
2026-01-15 22:52:27.85	138.11	16.92	-42.0	-43.3	16.6	0.00e+00	0	33	0	1767899136	50	4141
2026-01-15 22:52:28.57	138.22	16.86	-42.1	-43.4	16.5	0.00e+00	0	34	0	1769996288	50	4166
2026-01-15 22:52:29.87	138.42	16.75	-42.1	-43.5	16.5	0.00e+00	0	33	0	1774190592	50	4200
2026-01-15 22:52:30.59	138.53	16.69	-42.1	-43.4	16.5	0.00e+00	0	33	0	1776287744	50	4187
2026-01-15 22:52:31.89	138.73	16.58	-42.1	-43.5	16.5	0.00e+00	0	33	0	1780482048	50	4219
2026-01-15 22:52:32.61	138.84	16.52	-42.2	-43.6	16.5	0.00e+00	0	34	0	1782579200	50	4251
2026-01-15 22:52:33.91	139.03	16.41	-42.2	-43.6	16.5	0.00e+00	0	34	0	1786773504	50	4266
2026-01-15 22:52:34.63	139.14	16.35	-42.3	-43.7	16.4	0.00e+00	0	34	0	1788870656	50	4309
2026-01-15 22:52:35.92	139.33	16.25	-42.2	-43.6	16.4	0.00e+00	0	34	0	1793064960	50	4273
2026-01-15 22:52:36.64	139.44	16.19	-42.2	-43.6	16.4	0.00e+00	0	34	0	1795162112	50	4277
2026-01-15 22:52:37.94	139.63	16.08	-42.2	-43.6	16.4	0.00e+00	0	33	0	1799356416	50	4257
2026-01-15 22:52:38.66	139.74	16.02	-42.2	-43.6	16.4	0.00e+00	0	34	0	1801453568	50	4262
2026-01-15 22:52:39.96	139.93	15.91	-42.1	-43.4	16.5	0.00e+00	0	34	0	1805647872	50	4167
2026-01-15 22:52:40.68	140.03	15.85	-42.1	-43.4	16.5	0.00e+00	0	34	0	1807745024	50	4190
2026-01-15 22:52:41.98	140.22	15.74	-42.2	-43.6	16.4	0.00e+00	0	34	0	1811939328	50	4273
2026-01-15 22:52:42.70	140.32	15.68	-42.2	-43.6	16.4	0.00e+00	0	33	0	1814036480	50	4250
2026-01-15 22:52:44.00	140.51	15.58	-42.3	-43.7	16.4	0.00e+00	0	34	0	1818230784	50	4316
2026-01-15 22:52:44.72	140.61	15.52	-42.4	-43.8	16.4	0.00e+00	0	34	0	1820327936	50	4357
2026-01-15 22:52:46.02	140.79	15.41	-42.4	-43.8	16.4	0.00e+00	0	34	0	1824522240	50	4368
2026-01-15 22:52:46.74	140.90	15.35	-42.5	-44.0	16.3	0.00e+00	0	34	0	1826619392	50	4443
2026-01-15 22:52:48.04	141.08	15.24	-42.5	-44.0	16.3	0.00e+00	0	34	0	1830813696	50	4447
2026-01-15 22:52:48.76	141.18	15.18	-42.6	-44.0	16.2	0.00e+00	0	34	0	1832910848	50	4469
2026-01-15 22:52:50.06	141.36	15.08	-42.5	-44.0	16.3	0.00e+00	0	33	0	1837105152	50	4458
2026-01-15 22:52:50.78	141.46	15.02	-42.6	-44.0	16.2	0.00e+00	0	34	0	1839202304	50	4481
2026-01-15 22:52:52.07	141.63	14.91	-42.6	-44.0	16.2	0.00e+00	0	34	0	1843396608	50	4481
2026-01-15 22:52:52.79	141.73	14.86	-42.6	-44.1	16.2	0.00e+00	0	34	0	1845493760	50	4500
2026-01-15 22:52:54.09	141.91	14.75	-42.7	-44.1	16.2	0.00e+00	0	33	0	1849688064	50	4527
2026-01-15 22:52:54.81	142.00	14.69	-42.6	-44.1	16.2	0.00e+00	0	34	0	1851785216	50	4518
2026-01-15 22:52:56.11	142.18	14.59	-42.7	-44.1	16.2	0.00e+00	0	34	0	1855979520	50	4530
2026-01-15 22:52:56.83	142.27	14.53	-42.7	-44.1	16.2	0.00e+00	0	34	0	1858076672	50	4538
2026-01-15 22:52:58.13	142.45	14.42	-42.7	-44.2	16.1	0.00e+00	0	34	0	1862270976	50	4557
2026-01-15 22:52:58.85	142.54	14.36	-42.8	-44.3	16.1	0.00e+00	0	34	0	1864368128	50	4620
2026-01-15 22:53:00.15	142.71	14.26	-42.8	-44.3	16.1	0.00e+00	0	34	0	1868562432	50	4637
2026-01-15 22:53:00.87	142.81	14.20	-42.9	-44.4	16.1	0.00e+00	0	34	0	1870659584	50	4658
2026-01-15 22:53:02.17	142.97	14.10	-43.0	-44.5	16.0	0.00e+00	0	33	0	1874853888	51	4459
2026-01-15 22:53:02.89	143.07	14.04	-42.8	-44.3	16.1	0.00e+00	0	34	0	1876951040	51	4350
2026-01-15 22:53:04.19	143.23	13.94	-42.7	-44.2	16.2	0.00e+00	0	34	0	1881145344	51	4307
2026-01-15 22:53:04.91	143.33	13.88	-42.7	-44.2	16.1	0.00e+00	0	34	0	1883242496	51	4306
2026-01-15 22:53:06.20	143.49	13.77	-42.7	-44.2	16.1	0.00e+00	0	33	0	1887436800	51	4319
2026-01-15 22:53:06.93	143.58	13.72	-42.8	-44.3	16.1	0.00e+00	0	33	0	1889533952	51	4345
2026-01-15 22:53:08.22	143.74	13.61	-42.9	-44.4	16.0	0.00e+00	0	33	0	1893728256	51	4429
2026-01-15 22:53:08.94	143.83	13.56	-43.0	-44.5	16.0	0.00e+00	0	34	0	1895825408	51	4449
2026-01-15 22:53:10.24	144.00	13.45	-43.0	-44.5	16.0	0.00e+00	0	33	0	1900019712	51	4478
2026-01-15 22:53:10.96	144.09	13.40	-43.0	-44.6	15.9	0.00e+00	0	33	0	1902116864	51	4509
2026-01-15 22:53:12.26	144.25	13.29	-43.1	-44.7	15.9	0.00e+00	0	33	0	1906311168	51	4563
2026-01-15 22:53:12.98	144.33	13.24	-43.1	-44.6	15.9	0.00e+00	0	34	0	1908408320	51	4536
2026-01-15 22:53:14.28	144.49	13.14	-43.1	-44.6	15.9	0.00e+00	0	34	0	1912602624	51	4521
2026-01-15 22:53:15.00	144.58	13.08	-43.1	-44.7	15.9	0.00e+00	0	34	0	1914699776	51	4566
2026-01-15 22:53:16.30	144.74	12.98	-43.1	-44.7	15.9	0.00e+00	0	33	0	1918894080	51	4549
2026-01-15 22:53:17.02	144.82	12.92	-42.9	-44.5	16.0	0.00e+00	0	33	0	1920991232	51	4444
2026-01-15 22:53:18.32	144.98	12.82	-42.9	-44.4	16.0	0.00e+00	0	33	0	1925185536	51	4434
2026-01-15 22:53:19.04	145.06	12.76	-42.9	-44.4	16.0	0.00e+00	0	33	0	1927282688	51	4433
2026-01-15 22:53:20.34	145.22	12.66	-43.0	-44.5	15.9	0.00e+00	0	34	0	1931476992	51	4484
2026-01-15 22:53:21.06	145.30	12.61	-43.0	-44.5	16.0	0.00e+00	0	33	0	1933574144	51	4472
2026-01-15 22:53:22.36	145.45	12.51	-43.1	-44.6	15.9	0.00e+00	0	33	0	1937768448	51	4517
2026-01-15 22:53:23.08	145.54	12.45	-42.9	-44.4	16.0	0.00e+00	0	33	0	1939865600	51	4397
2026-01-15 22:53:24.38	145.69	12.35	-42.9	-44.4	16.0	0.00e+00	0	34	0	1944059904	51	4429
2026-01-15 22:53:25.10	145.77	12.29	-42.9	-44.4	16.0	0.00e+00	0	34	0	1946157056	51	4413
2026-01-15 22:53:26.39	145.92	12.19	-43.0	-44.5	16.0	0.00e+00	0	34	0	1950351360	51	4448
2026-01-15 22:53:27.12	146.00	12.14	-43.1	-44.6	15.9	0.00e+00	0	34	0	1952448512	51	4516
2026-01-15 22:53:28.41	146.15	12.04	-43.2	-44.8	15.8	0.00e+00	0	34	0	1956642816	51	4619
2026-01-15 22:53:29.14	146.23	11.98	-43.1	-44.7	15.9	0.00e+00	0	34	0	1958739968	51	4576
2026-01-15 22:53:30.43	146.38	11.88	-43.3	-44.8	15.8	0.00e+00	0	33	0	1962934272	51	4645
2026-01-15 22:53:31.15	146.46	11.83	-43.2	-44.7	15.9	0.00e+00	0	33	0	1965031424	51	4592
2026-01-15 22:53:32.45	146.60	11.73	-43.1	-44.7	15.9	0.00e+00	0	34	0	1969225728	51	4551
2026-01-15 22:53:33.17	146.68	11.68	-43.0	-44.6	15.9	0.00e+00	0	33	0	1971322880	51	4497
2026-01-15 22:53:34.47	146.82	11.58	-43.0	-44.6	15.9	0.00e+00	0	34	0	1975517184	51	4514
2026-01-15 22:53:35.19	146.90	11.52	-43.0	-44.6	15.9	0.00e+00	0	34	0	1978662912	51	4511
2026-01-15 22:53:36.49	147.05	11.43	-43.1	-44.6	15.9	0.00e+00	0	34	0	1981808640	51	4531
2026-01-15 22:53:37.21	147.12	11.37	-43.0	-44.6	15.9	0.00e+00	0	34	0	1984954368	51	4495
2026-01-15 22:53:38.51	147.26	11.27	-43.0	-44.5	16.0	0.00e+00	0	34	0	1988100096	51	4453
2026-01-15 22:53:39.23	147.34	11.22	-43.0	-44.6	15.9	0.00e+00	0	34	0	1990197248	51	4505
2026-01-15 22:53:40.53	147.48	11.12	-43.0	-44.6	15.9	0.00e+00	0	34	0	1994391552	51	4502
2026-01-15 22:53:41.25	147.56	11.07	-43.0	-44.5	15.9	0.00e+00	0	34	0	1997537280	51	4485
2026-01-15 22:53:42.55	147.69	10.97	-43.1	-44.7	15.8	0.00e+00	0	33	0	2000683008	51	4550
2026-01-15 22:53:43.27	147.77	10.92	-43.2	-44.7	15.8	0.00e+00	0	34	0	2003828736	51	4586
2026-01-15 22:53:44.57	147.91	10.82	-43.1	-44.7	15.8	0.00e+00	0	34	0	2006974464	51	4579
2026-01-15 22:53:45.29	147.98	10.77	-43.2	-44.8	15.8	0.00e+00	0	34	0	2010120192	51	4627
2026-01-15 22:53:46.59	148.12	10.67	-43.1	-44.7	15.8	0.00e+00	0	34	0	2013265920	51	4580
2026-01-15 22:53:47.31	148.19	10.62	-43.3	-44.9	15.7	0.00e+00	0	34	0	2016411648	51	4680
2026-01-15 22:53:48.61	148.32	10.52	-43.4	-45.0	15.7	0.00e+00	0	33	0	2019557376	52	4469
2026-01-15 22:53:49.33	148.40	10.47	-43.4	-45.0	15.7	0.00e+00	0	33	0	2022703104	52	4487
2026-01-15 22:53:50.63	148.53	10.37	-43.4	-45.1	15.6	0.00e+00	0	34	0	2025848832	52	4519
2026-01-15 22:53:51.35	148.60	10.32	-43.4	-45.1	15.6	0.00e+00	0	34	0	2028994560	52	4496
2026-01-15 22:53:52.64	148.73	10.23	-43.4	-45.0	15.7	0.00e+00	0	34	0	2033188864	52	4473
2026-01-15 22:53:53.37	148.81	10.17	-43.4	-45.1	15.6	0.00e+00	0	34	0	2035286016	52	4502
2026-01-15 22:53:54.66	148.94	10.08	-43.4	-45.1	15.6	0.00e+00	0	33	0	2039480320	52	4508
2026-01-15 22:53:55.38	149.01	10.03	-43.4	-45.0	15.7	0.00e+00	0	33	0	2041577472	52	4473
2026-01-15 22:53:56.68	149.14	9.93	-43.4	-45.0	15.6	0.00e+00	0	34	0	2044723200	52	4476
2026-01-15 22:53:57.40	149.21	9.88	-43.3	-45.0	15.7	0.00e+00	0	34	0	2047868928	52	4456
2026-01-15 22:53:58.70	149.33	9.78	-43.4	-45.0	15.6	0.00e+00	0	33	0	2052063232	52	4487
2026-01-15 22:53:59.42	149.40	9.73	-43.4	-45.1	15.6	0.00e+00	0	33	0	2054160384	52	4495
2026-01-15 22:54:00.72	149.53	9.64	-43.6	-45.2	15.5	0.00e+00	0	34	0	2058354688	52	4598
2026-01-15 22:54:01.44	149.60	9.59	-43.5	-45.1	15.6	0.00e+00	0	34	0	2060451840	52	4538
2026-01-15 22:54:02.74	149.72	9.49	-43.5	-45.2	15.6	0.00e+00	0	34	0	2064646144	52	4565
2026-01-15 22:54:03.46	149.79	9.44	-43.5	-45.2	15.6	0.00e+00	0	34	0	2066743296	52	4559
