passes_logs/2026/01/15/R3.2S_Murmansk_2ch/R3.2S_Murmansk_2ch__20260115_213140_SUOMI_NPP_rec.log

#Pass ID: 20260115_213140_SUOMI NPP
#Satellite: SUOMI NPP
#Configuration: NPP
#almurnet v.1.7.20251203
#Start time: 2026-01-15 21:31:41

#Version: 2.2.20231116
#Station: R3.2S_Murmansk_2ch
#Location: 33.079688 lon 68.888172 lat
#TLE: 1 37849U 11061A   26015.59739646  .00000050  00000+0  44779-4 0  9992
#TLE: 2 37849  98.7811 317.6408 0002446  62.6499 297.4925 14.19525346736798

#Time	Az	El	Level	Level2	SNR	BER	BlckErr	Temp	State	Recorded	gain1	gain2
2026-01-15 21:31:41.88	18.60	2.08	-49.6	-65.7	3.8	1.49e+00	0	31	0	0	65	22960
2026-01-15 21:31:42.89	18.70	2.12	-49.7	-65.7	3.8	1.49e+00	0	31	104	0	64	24350
2026-01-15 21:31:43.89	18.79	2.17	-49.7	-65.7	3.8	1.49e+00	0	31	104	0	64	24285
2026-01-15 21:31:44.90	18.89	2.22	-49.7	-65.7	3.8	1.49e+00	0	31	104	0	64	24309
2026-01-15 21:31:45.91	18.98	2.26	-49.7	-65.8	3.8	1.49e+00	0	31	104	0	64	24418
2026-01-15 21:31:46.92	19.08	2.31	-49.7	-65.8	3.8	1.49e+00	0	31	104	0	64	24610
2026-01-15 21:31:47.93	19.18	2.36	-49.7	-65.8	3.8	1.49e+00	0	31	104	0	64	24567
2026-01-15 21:31:48.94	19.27	2.40	-49.7	-65.8	3.9	1.49e+00	0	31	104	0	64	24514
2026-01-15 21:31:49.95	19.37	2.45	-49.7	-65.8	3.8	1.49e+00	0	31	104	0	64	24593
2026-01-15 21:31:50.96	19.47	2.50	-49.7	-65.8	3.8	1.49e+00	0	31	104	0	64	24528
2026-01-15 21:31:51.97	19.57	2.54	-49.7	-65.8	3.8	1.49e+00	0	31	104	0	64	24512
2026-01-15 21:31:52.98	19.67	2.59	-49.7	-65.8	3.8	1.49e+00	0	31	104	0	64	24534
2026-01-15 21:31:53.99	19.76	2.64	-49.7	-65.8	3.8	1.49e+00	0	31	104	0	64	24545
2026-01-15 21:31:54.99	19.86	2.68	-49.7	-65.8	3.8	1.49e+00	0	32	104	0	64	24549
2026-01-15 21:31:56.00	19.96	2.73	-49.7	-65.8	3.8	1.49e+00	0	31	104	0	64	24528
2026-01-15 21:31:57.01	20.06	2.78	-49.7	-65.8	3.8	1.49e+00	0	31	104	0	64	24630
2026-01-15 21:31:58.02	20.16	2.83	-49.7	-65.8	3.8	1.49e+00	0	31	104	0	64	24599
2026-01-15 21:31:59.03	20.26	2.87	-49.7	-65.8	3.8	1.49e+00	0	32	104	0	64	24637
2026-01-15 21:32:00.04	20.36	2.92	-49.7	-65.8	3.8	1.49e+00	0	31	104	0	64	24600
2026-01-15 21:32:01.05	20.46	2.97	-49.7	-65.8	3.8	1.49e+00	0	31	104	0	64	24644
2026-01-15 21:32:02.06	20.56	3.01	-49.7	-65.8	3.8	1.49e+00	0	32	104	0	64	24669
2026-01-15 21:32:03.07	20.66	3.06	-49.7	-65.8	3.8	1.49e+00	0	31	104	0	64	24598
2026-01-15 21:32:04.08	20.77	3.11	-49.7	-65.8	3.8	1.49e+00	0	32	104	0	64	24579
2026-01-15 21:32:05.09	20.87	3.15	-49.7	-65.8	3.8	1.49e+00	0	32	104	0	64	24455
2026-01-15 21:32:06.10	20.97	3.20	-49.7	-65.7	3.8	1.49e+00	0	32	104	0	64	24319
2026-01-15 21:32:07.11	21.07	3.25	-49.7	-65.7	3.8	1.49e+00	0	31	104	0	64	24207
2026-01-15 21:32:08.12	21.17	3.30	-49.7	-65.7	3.8	1.49e+00	0	32	104	0	64	24333
2026-01-15 21:32:09.12	21.28	3.34	-49.7	-65.7	3.8	1.49e+00	0	32	104	0	64	24326
2026-01-15 21:32:10.13	21.38	3.39	-49.7	-65.8	3.8	1.49e+00	0	32	104	0	64	24580
2026-01-15 21:32:11.14	21.48	3.44	-49.7	-65.8	3.8	1.49e+00	0	32	104	0	64	24601
2026-01-15 21:32:12.15	21.59	3.48	-49.7	-65.8	3.8	1.49e+00	0	32	104	0	64	24555
2026-01-15 21:32:13.16	21.69	3.53	-49.7	-65.8	3.8	1.49e+00	0	32	104	0	64	24469
2026-01-15 21:32:14.17	21.80	3.58	-49.7	-65.8	3.8	1.49e+00	0	32	104	0	64	24646
2026-01-15 21:32:15.18	21.90	3.62	-49.7	-65.8	3.8	1.49e+00	0	32	104	0	64	24586
2026-01-15 21:32:16.19	22.01	3.67	-49.7	-65.8	3.8	1.49e+00	0	32	104	0	64	24553
2026-01-15 21:32:17.20	22.11	3.72	-49.7	-65.9	3.8	1.49e+00	0	32	104	0	64	24732
2026-01-15 21:32:18.20	22.22	3.77	-49.7	-65.8	3.8	1.49e+00	0	32	104	0	64	24657
2026-01-15 21:32:19.21	22.32	3.81	-49.7	-65.8	3.8	1.49e+00	0	32	104	0	64	24687
2026-01-15 21:32:20.22	22.43	3.86	-49.7	-65.7	3.8	1.49e+00	0	32	104	0	64	24321
2026-01-15 21:32:21.23	22.54	3.91	-49.7	-65.7	3.8	1.49e+00	0	32	104	0	64	24393
2026-01-15 21:32:22.24	22.64	3.95	-49.7	-65.6	3.8	1.49e+00	0	32	104	0	64	24112
2026-01-15 21:32:23.25	22.75	4.00	-49.7	-65.7	3.8	1.49e+00	0	32	104	0	64	24241
2026-01-15 21:32:24.26	22.86	4.05	-49.7	-65.7	3.8	1.49e+00	0	32	104	0	64	24255
2026-01-15 21:32:25.27	22.97	4.10	-49.7	-65.8	3.8	1.49e+00	0	32	104	0	64	24470
2026-01-15 21:32:26.28	23.08	4.14	-49.7	-65.8	3.8	1.49e+00	0	32	104	0	64	24603
2026-01-15 21:32:27.29	23.19	4.19	-49.7	-65.8	3.8	1.49e+00	0	32	104	0	64	24518
2026-01-15 21:32:28.30	23.29	4.24	-49.7	-65.5	3.8	1.49e+00	0	32	104	0	64	23774
2026-01-15 21:32:29.31	23.40	4.28	-49.7	-65.4	3.8	1.49e+00	0	32	104	0	64	23433
2026-01-15 21:32:30.32	23.51	4.33	-49.7	-65.4	3.8	1.49e+00	0	32	104	0	64	23521
2026-01-15 21:32:31.33	23.62	4.38	-49.7	-65.5	3.8	1.49e+00	0	32	104	0	64	23679
2026-01-15 21:32:32.34	23.73	4.43	-49.7	-65.6	3.8	1.49e+00	0	32	104	0	64	24098
2026-01-15 21:32:33.35	23.85	4.47	-49.7	-65.7	3.8	1.49e+00	0	32	104	0	64	24244
2026-01-15 21:32:34.36	23.96	4.52	-49.7	-65.5	3.8	1.49e+00	0	32	104	0	64	23593
2026-01-15 21:32:35.37	24.07	4.57	-49.6	-64.0	3.8	1.49e+00	0	32	104	0	64	19916
2026-01-15 21:32:36.37	24.18	4.61	-49.5	-61.3	4.5	1.37e+00	5	32	0	0	64	14616
2026-01-15 21:32:37.38	24.29	4.66	-49.3	-59.3	5.5	5.98e-01	0	32	0	2097152	64	11596
2026-01-15 21:32:38.39	24.40	4.71	-49.2	-58.3	6.2	3.90e-01	0	32	0	3145728	64	10370
2026-01-15 21:32:39.40	24.52	4.76	-49.0	-57.5	6.8	2.06e-01	0	32	0	5242880	64	9408
2026-01-15 21:32:40.41	24.63	4.80	-48.9	-56.5	7.6	9.31e-02	0	32	0	7340032	64	8450
2026-01-15 21:32:41.42	24.74	4.85	-48.8	-56.4	7.8	6.16e-02	0	32	0	9437184	64	8337
2026-01-15 21:32:42.43	24.86	4.90	-48.6	-55.3	8.9	1.53e-02	0	32	0	11534336	63	7730
2026-01-15 21:32:43.44	24.97	4.94	-48.8	-56.0	8.1	5.15e-02	0	32	0	12582912	63	8408
2026-01-15 21:32:44.45	25.09	4.99	-49.0	-57.0	7.3	5.85e-02	0	32	0	14680064	63	9443
2026-01-15 21:32:45.46	25.20	5.04	-48.8	-56.0	8.3	4.24e-02	0	32	0	16777216	63	8377
2026-01-15 21:32:46.47	25.32	5.09	-49.2	-60.0	5.1	2.25e-01	0	32	0	18874368	63	13294
2026-01-15 21:32:47.48	25.43	5.13	-48.7	-55.2	8.6	1.35e+00	0	32	0	19922944	63	7638
2026-01-15 21:32:48.49	25.55	5.18	-47.0	-50.6	12.9	5.64e-05	0	32	0	22020096	60	5381
2026-01-15 21:32:49.49	25.66	5.23	-48.5	-54.2	10.4	0.00e+00	0	32	0	24117248	62	7240
2026-01-15 21:32:50.50	25.78	5.27	-47.5	-51.6	12.2	1.59e-01	0	32	0	25165824	61	5672
2026-01-15 21:32:51.51	25.90	5.32	-46.8	-50.1	13.7	0.00e+00	0	32	0	27262976	59	5364
2026-01-15 21:32:52.52	26.02	5.37	-46.7	-49.9	13.8	0.00e+00	0	32	0	29360128	59	5244
2026-01-15 21:32:53.53	26.13	5.41	-46.4	-49.4	14.2	0.00e+00	0	32	0	31457280	59	4927
2026-01-15 21:32:54.54	26.25	5.46	-46.5	-49.6	14.1	0.00e+00	0	32	0	33554432	59	5079
2026-01-15 21:32:55.55	26.37	5.51	-46.8	-50.0	13.8	0.00e+00	0	32	0	34603008	59	5323
2026-01-15 21:32:56.56	26.49	5.55	-46.7	-49.9	13.8	0.00e+00	0	32	0	36700160	59	5226
2026-01-15 21:32:57.57	26.61	5.60	-46.6	-49.7	13.9	0.00e+00	0	32	0	38797312	59	5108
2026-01-15 21:32:58.58	26.73	5.65	-46.8	-50.0	13.8	0.00e+00	0	32	0	40894464	59	5283
2026-01-15 21:32:59.59	26.85	5.70	-46.8	-50.1	13.7	0.00e+00	0	32	0	42991616	59	5356
2026-01-15 21:33:00.60	26.97	5.74	-46.6	-49.8	13.9	0.00e+00	0	32	0	45088768	59	5165
2026-01-15 21:33:01.61	27.09	5.79	-47.0	-50.3	13.6	0.00e+00	0	32	0	46137344	59	5528
2026-01-15 21:33:02.62	27.21	5.84	-47.0	-50.4	13.6	0.00e+00	0	32	0	48234496	59	5531
2026-01-15 21:33:03.62	27.33	5.88	-46.5	-49.6	14.1	0.00e+00	0	33	0	50331648	59	5050
2026-01-15 21:33:04.64	27.46	5.93	-46.4	-49.4	14.2	0.00e+00	0	33	0	52428800	59	4932
2026-01-15 21:33:05.64	27.58	5.98	-46.3	-49.2	14.3	0.00e+00	0	32	0	54525952	59	4863
2026-01-15 21:33:06.65	27.70	6.02	-46.8	-50.0	13.8	0.00e+00	0	32	0	55574528	59	5338
2026-01-15 21:33:07.66	27.82	6.07	-46.3	-49.2	14.3	0.00e+00	0	33	0	57671680	59	4843
2026-01-15 21:33:08.67	27.95	6.12	-46.0	-48.7	14.6	0.00e+00	0	33	0	59768832	58	4826
2026-01-15 21:33:09.68	28.07	6.16	-45.9	-48.6	14.7	0.00e+00	0	33	0	61865984	58	4764
2026-01-15 21:33:10.69	28.19	6.21	-46.4	-49.3	14.3	0.00e+00	0	33	0	63963136	58	5183
2026-01-15 21:33:11.70	28.32	6.26	-45.8	-48.3	14.8	0.00e+00	0	32	0	65011712	58	4632
2026-01-15 21:33:12.71	28.44	6.30	-45.9	-48.5	14.8	0.00e+00	0	32	0	67108864	57	5028
2026-01-15 21:33:13.72	28.57	6.35	-46.0	-48.7	14.7	0.00e+00	0	33	0	69206016	57	5105
2026-01-15 21:33:14.73	28.70	6.40	-46.0	-48.7	14.6	0.00e+00	0	33	0	71303168	57	5106
2026-01-15 21:33:15.74	28.82	6.44	-45.6	-48.1	14.9	0.00e+00	0	33	0	73400320	57	4804
2026-01-15 21:33:16.74	28.95	6.49	-46.1	-48.8	14.5	0.00e+00	0	32	0	74448896	57	5216
2026-01-15 21:33:17.75	29.07	6.53	-46.1	-48.9	14.5	0.00e+00	0	33	0	76546048	57	5244
2026-01-15 21:33:18.76	29.20	6.58	-46.1	-48.8	14.6	0.00e+00	0	33	0	78643200	57	5172
2026-01-15 21:33:19.77	29.33	6.63	-46.0	-48.7	14.6	0.00e+00	0	33	0	80740352	57	5129
2026-01-15 21:33:20.78	29.46	6.67	-46.0	-48.7	14.7	0.00e+00	0	33	0	82837504	57	5125
2026-01-15 21:33:21.79	29.59	6.72	-45.9	-48.5	14.8	0.00e+00	0	33	0	83886080	57	5023
2026-01-15 21:33:22.80	29.71	6.77	-45.8	-48.3	14.9	0.00e+00	0	33	0	85983232	57	4887
2026-01-15 21:33:23.81	29.84	6.81	-45.7	-48.1	15.0	0.00e+00	0	33	0	88080384	57	4799
2026-01-15 21:33:24.82	29.97	6.86	-46.1	-48.7	14.7	0.00e+00	0	33	0	90177536	57	5154
2026-01-15 21:33:25.83	30.10	6.91	-45.6	-48.0	15.1	0.00e+00	0	32	0	92274688	57	4729
2026-01-15 21:33:26.84	30.23	6.95	-45.9	-48.5	14.8	0.00e+00	0	33	0	93323264	57	4991
2026-01-15 21:33:27.85	30.36	7.00	-46.4	-49.3	14.3	0.00e+00	0	32	0	95420416	58	5187
2026-01-15 21:33:28.86	30.50	7.04	-46.0	-48.7	14.7	0.00e+00	0	33	0	97517568	58	4822
2026-01-15 21:33:29.87	30.63	7.09	-46.0	-48.5	14.8	0.00e+00	0	33	0	99614720	58	4758
2026-01-15 21:33:30.87	30.76	7.14	-45.8	-48.3	15.0	0.00e+00	0	33	0	101711872	58	4628
2026-01-15 21:33:31.89	30.89	7.18	-46.2	-48.9	14.6	0.00e+00	0	33	0	102760448	58	4965
2026-01-15 21:33:32.90	31.03	7.23	-46.1	-48.7	14.8	0.00e+00	0	33	0	104857600	58	4839
2026-01-15 21:33:33.91	31.16	7.27	-46.0	-48.6	14.7	0.00e+00	0	33	0	106954752	58	4809
2026-01-15 21:33:34.92	31.29	7.32	-46.1	-48.8	14.7	0.00e+00	0	33	0	109051904	58	4908
2026-01-15 21:33:35.93	31.43	7.36	-46.1	-48.7	14.8	0.00e+00	0	33	0	111149056	58	4856
2026-01-15 21:33:36.93	31.56	7.41	-46.0	-48.6	14.8	0.00e+00	0	33	0	113246208	58	4799
2026-01-15 21:33:37.94	31.69	7.46	-46.1	-48.8	14.7	0.00e+00	0	33	0	114294784	58	4889
2026-01-15 21:33:38.96	31.83	7.50	-46.4	-49.1	14.6	0.00e+00	0	33	0	116391936	58	5074
2026-01-15 21:33:39.96	31.97	7.55	-46.3	-49.0	14.6	0.00e+00	0	33	0	118489088	58	5019
2026-01-15 21:33:40.97	32.10	7.59	-46.0	-48.6	14.9	0.00e+00	0	33	0	120586240	58	4774
2026-01-15 21:33:41.98	32.24	7.64	-45.9	-48.4	14.9	0.00e+00	0	33	0	122683392	58	4674
2026-01-15 21:33:42.99	32.37	7.68	-46.2	-48.9	14.7	0.00e+00	0	33	0	123731968	58	4948
2026-01-15 21:33:44.00	32.51	7.73	-46.3	-49.0	14.6	0.00e+00	0	33	0	125829120	58	5022
2026-01-15 21:33:45.01	32.65	7.77	-46.4	-49.1	14.6	0.00e+00	0	33	0	127926272	58	5081
2026-01-15 21:33:46.02	32.79	7.82	-46.4	-49.1	14.6	0.00e+00	0	33	0	130023424	58	5072
2026-01-15 21:33:47.03	32.93	7.86	-46.6	-49.4	14.4	0.00e+00	0	33	0	132120576	58	5271
2026-01-15 21:33:48.04	33.07	7.91	-46.4	-49.2	14.5	0.00e+00	0	33	0	133169152	58	5134
2026-01-15 21:33:49.05	33.21	7.95	-46.7	-49.6	14.2	0.00e+00	0	33	0	135266304	58	5400
2026-01-15 21:33:50.06	33.34	8.00	-46.4	-49.1	14.5	0.00e+00	0	33	0	137363456	58	5091
2026-01-15 21:33:51.06	33.48	8.04	-46.4	-49.1	14.6	0.00e+00	0	33	0	139460608	58	5061
2026-01-15 21:33:52.07	33.62	8.09	-46.3	-48.9	14.7	0.00e+00	0	33	0	141557760	58	4973
2026-01-15 21:33:53.08	33.77	8.13	-46.1	-48.7	14.9	0.00e+00	0	33	0	142606336	58	4842
2026-01-15 21:33:54.09	33.91	8.18	-46.2	-48.9	14.7	0.00e+00	0	33	0	144703488	58	4944
2026-01-15 21:33:55.10	34.05	8.22	-46.0	-48.6	14.9	0.00e+00	0	33	0	146800640	58	4780
2026-01-15 21:33:56.11	34.19	8.27	-46.1	-48.7	14.9	0.00e+00	0	33	0	148897792	58	4835
2026-01-15 21:33:57.12	34.33	8.31	-45.9	-48.4	15.0	0.00e+00	0	33	0	150994944	58	4668
2026-01-15 21:33:58.13	34.48	8.36	-46.0	-48.5	14.9	0.00e+00	0	33	0	152043520	58	4747
2026-01-15 21:33:59.14	34.62	8.40	-46.1	-48.6	14.9	0.00e+00	0	33	0	154140672	58	4795
2026-01-15 21:34:00.15	34.76	8.44	-46.3	-49.0	14.6	0.00e+00	0	33	0	156237824	58	5037
2026-01-15 21:34:01.15	34.91	8.49	-46.3	-48.9	14.7	0.00e+00	0	33	0	158334976	58	4950
2026-01-15 21:34:02.16	35.05	8.53	-46.0	-48.5	15.0	0.00e+00	0	33	0	160432128	58	4719
2026-01-15 21:34:03.17	35.20	8.58	-46.1	-48.7	14.8	0.00e+00	0	33	0	161480704	58	4862
2026-01-15 21:34:04.18	35.34	8.62	-46.1	-48.7	14.9	0.00e+00	0	33	0	163577856	58	4842
2026-01-15 21:34:05.19	35.49	8.66	-45.9	-48.5	15.0	0.00e+00	0	33	0	165675008	58	4706
2026-01-15 21:34:06.20	35.64	8.71	-46.0	-48.5	15.0	0.00e+00	0	33	0	167772160	58	4756
2026-01-15 21:34:07.21	35.78	8.75	-46.1	-48.7	14.9	0.00e+00	0	33	0	169869312	58	4815
2026-01-15 21:34:08.22	35.93	8.80	-46.1	-48.6	14.9	0.00e+00	0	33	0	170917888	58	4782
2026-01-15 21:34:09.23	36.08	8.84	-46.2	-48.8	14.8	0.00e+00	0	33	0	173015040	58	4898
2026-01-15 21:34:10.24	36.23	8.88	-46.1	-48.7	14.8	0.00e+00	0	33	0	175112192	58	4862
2026-01-15 21:34:11.25	36.38	8.93	-46.0	-48.5	15.0	0.00e+00	0	33	0	177209344	58	4744
2026-01-15 21:34:12.26	36.52	8.97	-46.1	-48.6	14.9	0.00e+00	0	33	0	179306496	58	4804
2026-01-15 21:34:13.27	36.67	9.01	-46.1	-48.6	14.9	0.00e+00	0	33	0	180355072	58	4791
2026-01-15 21:34:14.28	36.82	9.06	-46.3	-48.9	14.7	0.00e+00	0	33	0	182452224	58	4966
2026-01-15 21:34:15.29	36.97	9.10	-46.2	-48.8	14.8	0.00e+00	0	33	0	184549376	58	4886
2026-01-15 21:34:16.29	37.12	9.14	-46.4	-49.1	14.7	0.00e+00	0	33	0	186646528	58	5069
2026-01-15 21:34:17.30	37.27	9.18	-46.2	-48.8	14.8	0.00e+00	0	33	0	188743680	58	4925
2026-01-15 21:34:18.31	37.43	9.23	-46.2	-48.8	14.8	0.00e+00	0	33	0	189792256	58	4907
2026-01-15 21:34:19.32	37.58	9.27	-46.0	-48.4	15.0	0.00e+00	0	33	0	191889408	58	4701
2026-01-15 21:34:20.33	37.73	9.31	-46.1	-48.6	14.9	0.00e+00	0	33	0	193986560	58	4795
2026-01-15 21:34:21.34	37.88	9.35	-46.2	-48.7	14.9	0.00e+00	0	33	0	196083712	58	4866
2026-01-15 21:34:22.35	38.04	9.40	-46.1	-48.7	14.8	0.00e+00	0	33	0	198180864	58	4858
2026-01-15 21:34:23.36	38.19	9.44	-46.2	-48.8	14.8	0.00e+00	0	33	0	199229440	58	4910
2026-01-15 21:34:24.37	38.35	9.48	-46.3	-48.9	14.8	0.00e+00	0	33	0	201326592	58	4972
2026-01-15 21:34:25.38	38.50	9.52	-46.3	-48.9	14.8	0.00e+00	0	33	0	203423744	58	4943
2026-01-15 21:34:26.39	38.66	9.56	-46.4	-49.0	14.7	0.00e+00	0	33	0	205520896	58	5039
2026-01-15 21:34:27.40	38.81	9.61	-46.5	-49.2	14.6	0.00e+00	0	33	0	207618048	58	5141
2026-01-15 21:34:28.40	38.97	9.65	-46.5	-49.3	14.5	0.00e+00	0	33	0	209715200	58	5204
2026-01-15 21:34:29.41	39.12	9.69	-46.6	-49.4	14.5	0.00e+00	0	33	0	210763776	58	5235
2026-01-15 21:34:30.42	39.28	9.73	-46.6	-49.4	14.5	0.00e+00	0	33	0	212860928	58	5276
2026-01-15 21:34:31.43	39.44	9.77	-46.5	-49.3	14.6	0.00e+00	0	33	0	214958080	58	5184
2026-01-15 21:34:32.44	39.59	9.81	-46.4	-49.1	14.7	0.00e+00	0	33	0	217055232	58	5067
2026-01-15 21:34:33.45	39.75	9.85	-46.4	-49.1	14.7	0.00e+00	0	33	0	219152384	58	5060
2026-01-15 21:34:34.46	39.91	9.89	-46.4	-49.0	14.8	0.00e+00	0	33	0	220200960	58	5038
2026-01-15 21:34:35.47	40.07	9.94	-46.2	-48.7	14.9	0.00e+00	0	33	0	222298112	58	4865
2026-01-15 21:34:36.48	40.23	9.98	-46.6	-49.3	14.6	0.00e+00	0	33	0	224395264	58	5198
2026-01-15 21:34:37.49	40.39	10.02	-46.4	-49.0	14.7	0.00e+00	0	33	0	226492416	58	5032
2026-01-15 21:34:38.50	40.55	10.06	-46.5	-49.2	14.7	0.00e+00	0	33	0	228589568	58	5125
2026-01-15 21:34:39.51	40.71	10.10	-46.4	-49.1	14.7	0.00e+00	0	33	0	229638144	58	5056
2026-01-15 21:34:40.52	40.87	10.14	-46.6	-49.3	14.6	0.00e+00	0	33	0	231735296	58	5202
2026-01-15 21:34:41.53	41.03	10.18	-46.6	-49.4	14.5	0.00e+00	0	33	0	233832448	58	5261
2026-01-15 21:34:42.53	41.19	10.22	-46.7	-49.5	14.5	0.00e+00	0	33	0	235929600	58	5306
2026-01-15 21:34:43.54	41.35	10.26	-46.6	-49.4	14.6	0.00e+00	0	33	0	238026752	58	5225
2026-01-15 21:34:44.55	41.52	10.30	-46.7	-49.5	14.5	0.00e+00	0	33	0	239075328	58	5302
2026-01-15 21:34:45.56	41.68	10.34	-46.7	-49.5	14.5	0.00e+00	0	33	0	241172480	58	5280
2026-01-15 21:34:46.57	41.84	10.38	-46.7	-49.5	14.5	0.00e+00	0	33	0	243269632	58	5290
2026-01-15 21:34:47.58	42.01	10.42	-46.7	-49.6	14.4	0.00e+00	0	33	0	245366784	58	5348
2026-01-15 21:34:48.59	42.17	10.45	-46.7	-49.5	14.5	0.00e+00	0	33	0	247463936	58	5303
2026-01-15 21:34:49.60	42.34	10.49	-46.8	-49.7	14.3	0.00e+00	0	33	0	248512512	58	5446
2026-01-15 21:34:50.61	42.50	10.53	-46.9	-49.7	14.3	0.00e+00	0	33	0	250609664	58	5464
2026-01-15 21:34:51.62	42.67	10.57	-46.8	-49.6	14.4	0.00e+00	0	33	0	252706816	58	5389
2026-01-15 21:34:52.63	42.84	10.61	-46.8	-49.6	14.4	0.00e+00	0	33	0	254803968	58	5373
2026-01-15 21:34:53.64	43.00	10.65	-46.8	-49.6	14.5	0.00e+00	0	33	0	256901120	58	5371
2026-01-15 21:34:54.64	43.17	10.69	-46.8	-49.7	14.4	0.00e+00	0	33	0	257949696	58	5457
2026-01-15 21:34:55.65	43.33	10.72	-46.9	-49.9	14.3	0.00e+00	0	33	0	260046848	59	5222
2026-01-15 21:34:56.66	43.50	10.76	-46.9	-49.9	14.3	0.00e+00	0	33	0	262144000	59	5222
2026-01-15 21:34:57.67	43.67	10.80	-46.8	-49.6	14.4	0.00e+00	0	33	0	264241152	59	5058
2026-01-15 21:34:58.68	43.84	10.84	-46.8	-49.7	14.4	0.00e+00	0	33	0	266338304	59	5138
2026-01-15 21:34:59.69	44.01	10.87	-46.6	-49.3	14.6	0.00e+00	0	33	0	267386880	59	4909
2026-01-15 21:35:00.70	44.18	10.91	-46.6	-49.3	14.7	0.00e+00	0	33	0	269484032	59	4882
2026-01-15 21:35:01.71	44.35	10.95	-46.5	-49.2	14.7	0.00e+00	0	33	0	271581184	59	4858
2026-01-15 21:35:02.72	44.52	10.99	-46.6	-49.3	14.7	0.00e+00	0	33	0	273678336	59	4881
2026-01-15 21:35:03.73	44.69	11.02	-46.6	-49.3	14.7	0.00e+00	0	33	0	275775488	59	4898
2026-01-15 21:35:04.74	44.86	11.06	-46.5	-49.2	14.7	0.00e+00	0	33	0	277872640	59	4861
2026-01-15 21:35:05.75	45.03	11.10	-46.6	-49.3	14.7	0.00e+00	0	33	0	278921216	59	4901
2026-01-15 21:35:06.76	45.21	11.13	-46.7	-49.4	14.6	0.00e+00	0	33	0	281018368	59	4983
2026-01-15 21:35:07.77	45.38	11.17	-46.6	-49.4	14.6	0.00e+00	0	33	0	283115520	59	4945
2026-01-15 21:35:08.78	45.55	11.20	-46.6	-49.3	14.7	0.00e+00	0	33	0	285212672	59	4890
2026-01-15 21:35:09.79	45.72	11.24	-46.4	-49.1	14.8	0.00e+00	0	33	0	287309824	59	4766
2026-01-15 21:35:10.79	45.90	11.27	-46.6	-49.3	14.6	0.00e+00	0	33	0	288358400	59	4900
2026-01-15 21:35:11.80	46.07	11.31	-46.6	-49.3	14.7	0.00e+00	0	33	0	290455552	59	4892
2026-01-15 21:35:12.81	46.24	11.34	-46.5	-49.1	14.7	0.00e+00	0	33	0	292552704	59	4793
2026-01-15 21:35:13.82	46.42	11.38	-46.4	-49.0	14.9	0.00e+00	0	33	0	294649856	59	4716
2026-01-15 21:35:14.83	46.59	11.41	-46.2	-48.8	15.0	0.00e+00	0	33	0	296747008	59	4608
2026-01-15 21:35:15.84	46.77	11.45	-46.4	-49.0	14.8	0.00e+00	0	33	0	297795584	59	4737
2026-01-15 21:35:16.85	46.95	11.48	-46.2	-48.8	14.9	0.00e+00	0	33	0	299892736	59	4605
2026-01-15 21:35:17.86	47.12	11.52	-46.3	-48.9	14.8	0.00e+00	0	33	0	301989888	59	4702
2026-01-15 21:35:18.86	47.30	11.55	-46.4	-49.0	14.8	0.00e+00	0	33	0	304087040	59	4732
2026-01-15 21:35:19.87	47.48	11.59	-46.4	-49.1	14.8	0.00e+00	0	33	0	306184192	59	4761
2026-01-15 21:35:20.88	47.65	11.62	-46.5	-49.2	14.7	0.00e+00	0	33	0	307232768	59	4829
2026-01-15 21:35:21.89	47.83	11.65	-46.5	-49.1	14.8	0.00e+00	0	33	0	309329920	59	4796
2026-01-15 21:35:22.90	48.01	11.69	-46.6	-49.3	14.6	0.00e+00	0	33	0	311427072	59	4896
2026-01-15 21:35:23.91	48.19	11.72	-46.6	-49.4	14.6	0.00e+00	0	33	0	313524224	59	4950
2026-01-15 21:35:24.92	48.37	11.75	-46.6	-49.3	14.6	0.00e+00	0	33	0	315621376	59	4912
2026-01-15 21:35:25.93	48.55	11.78	-46.5	-49.1	14.8	0.00e+00	0	33	0	316669952	59	4802
2026-01-15 21:35:26.94	48.73	11.82	-46.6	-49.3	14.6	0.00e+00	0	33	0	318767104	59	4922
2026-01-15 21:35:27.95	48.91	11.85	-46.6	-49.3	14.7	0.00e+00	0	33	0	320864256	59	4897
2026-01-15 21:35:28.96	49.09	11.88	-46.5	-49.1	14.8	0.00e+00	0	33	0	322961408	59	4781
2026-01-15 21:35:29.97	49.27	11.91	-46.5	-49.2	14.8	0.00e+00	0	33	0	325058560	59	4820
2026-01-15 21:35:30.98	49.45	11.94	-46.6	-49.3	14.7	0.00e+00	0	33	0	326107136	59	4910
2026-01-15 21:35:31.99	49.64	11.98	-46.4	-49.0	14.9	0.00e+00	0	33	0	328204288	59	4751
2026-01-15 21:35:33.00	49.82	12.01	-46.3	-48.9	14.9	0.00e+00	0	33	0	330301440	59	4684
2026-01-15 21:35:34.01	50.00	12.04	-46.2	-48.7	15.0	0.00e+00	0	33	0	332398592	59	4598
2026-01-15 21:35:35.01	50.18	12.07	-46.2	-48.7	15.1	0.00e+00	0	33	0	334495744	58	4828
2026-01-15 21:35:36.02	50.37	12.10	-46.1	-48.6	15.1	0.00e+00	0	33	0	335544320	58	4801
2026-01-15 21:35:37.03	50.55	12.13	-46.1	-48.5	15.1	0.00e+00	0	33	0	337641472	58	4729
2026-01-15 21:35:38.04	50.73	12.16	-45.9	-48.2	15.3	0.00e+00	0	33	0	339738624	58	4571
2026-01-15 21:35:39.05	50.92	12.19	-45.6	-47.9	15.4	0.00e+00	0	33	0	341835776	57	4666
2026-01-15 21:35:40.06	51.10	12.22	-45.7	-48.1	15.3	0.00e+00	0	33	0	343932928	57	4761
2026-01-15 21:35:41.07	51.29	12.25	-45.9	-48.3	15.2	0.00e+00	0	33	0	346030080	57	4892
2026-01-15 21:35:42.08	51.47	12.28	-45.8	-48.1	15.3	0.00e+00	0	33	0	347078656	57	4802
2026-01-15 21:35:43.09	51.66	12.31	-46.0	-48.4	15.2	0.00e+00	0	33	0	349175808	57	4972
2026-01-15 21:35:44.10	51.85	12.33	-46.0	-48.5	15.2	0.00e+00	0	33	0	351272960	57	4990
2026-01-15 21:35:45.11	52.03	12.36	-46.2	-48.7	15.1	0.00e+00	0	33	0	353370112	57	5103
2026-01-15 21:35:46.12	52.22	12.39	-46.3	-48.8	15.0	0.00e+00	0	33	0	354418688	57	5183
2026-01-15 21:35:47.12	52.41	12.42	-46.3	-48.9	14.9	0.00e+00	0	33	0	356515840	57	5241
2026-01-15 21:35:48.13	52.59	12.45	-46.1	-48.6	15.1	0.00e+00	0	33	0	358612992	57	5060
2026-01-15 21:35:49.14	52.78	12.47	-46.0	-48.5	15.1	0.00e+00	0	33	0	360710144	57	4985
2026-01-15 21:35:50.15	52.97	12.50	-46.0	-48.3	15.2	0.00e+00	0	33	0	362807296	57	4926
2026-01-15 21:35:51.16	53.16	12.53	-45.6	-47.8	15.5	0.00e+00	0	33	0	363855872	57	4648
2026-01-15 21:35:52.17	53.35	12.55	-45.7	-47.9	15.4	0.00e+00	0	33	0	365953024	57	4694
2026-01-15 21:35:53.18	53.54	12.58	-45.7	-48.0	15.4	0.00e+00	0	33	0	368050176	57	4707
2026-01-15 21:35:54.19	53.73	12.61	-45.9	-48.2	15.3	0.00e+00	0	33	0	370147328	57	4864
2026-01-15 21:35:55.20	53.92	12.63	-45.9	-48.3	15.3	0.00e+00	0	33	0	372244480	57	4892
2026-01-15 21:35:56.21	54.11	12.66	-46.0	-48.5	15.2	0.00e+00	0	33	0	374341632	57	4987
2026-01-15 21:35:57.22	54.30	12.68	-45.9	-48.3	15.2	0.00e+00	0	33	0	375390208	57	4914
2026-01-15 21:35:58.22	54.49	12.71	-45.8	-48.1	15.4	0.00e+00	0	33	0	377487360	57	4776
2026-01-15 21:35:59.23	54.68	12.73	-45.6	-47.8	15.5	0.00e+00	0	33	0	379584512	57	4627
2026-01-15 21:36:00.24	54.87	12.76	-45.3	-47.5	15.7	0.00e+00	0	33	0	381681664	57	4461
2026-01-15 21:36:01.25	55.06	12.78	-45.2	-47.3	15.8	0.00e+00	0	33	0	383778816	57	4378
2026-01-15 21:36:02.26	55.26	12.81	-45.3	-47.5	15.7	0.00e+00	0	33	0	384827392	57	4445
2026-01-15 21:36:03.27	55.45	12.83	-45.5	-47.7	15.6	0.00e+00	0	33	0	386924544	57	4573
2026-01-15 21:36:04.28	55.64	12.85	-45.9	-48.2	15.3	0.00e+00	0	33	0	389021696	57	4848
2026-01-15 21:36:05.29	55.84	12.88	-46.1	-48.5	15.2	0.00e+00	0	33	0	391118848	57	5026
2026-01-15 21:36:06.30	56.03	12.90	-46.2	-48.7	15.0	0.00e+00	0	33	0	393216000	57	5153
2026-01-15 21:36:07.31	56.22	12.92	-46.3	-48.8	15.0	0.00e+00	0	33	0	394264576	57	5173
2026-01-15 21:36:08.32	56.42	12.95	-46.1	-48.5	15.1	0.00e+00	0	33	0	396361728	57	5012
2026-01-15 21:36:09.33	56.61	12.97	-45.9	-48.2	15.3	0.00e+00	0	33	0	398458880	57	4855
2026-01-15 21:36:10.34	56.81	12.99	-45.9	-48.3	15.2	0.00e+00	0	33	0	400556032	57	4897
2026-01-15 21:36:11.35	57.00	13.01	-46.1	-48.5	15.1	0.00e+00	0	33	0	402653184	57	5007
2026-01-15 21:36:12.35	57.20	13.03	-46.3	-48.8	15.0	0.00e+00	0	33	0	403701760	57	5195
2026-01-15 21:36:13.36	57.39	13.05	-46.8	-49.5	14.6	0.00e+00	0	33	0	405798912	58	5331
2026-01-15 21:36:14.37	57.59	13.07	-47.1	-50.2	14.2	0.00e+00	0	33	0	407896064	59	5408
2026-01-15 21:36:15.38	57.78	13.10	-47.3	-50.5	14.0	0.00e+00	0	33	0	409993216	59	5611
2026-01-15 21:36:16.39	57.98	13.12	-47.4	-50.5	14.0	0.00e+00	0	33	0	412090368	59	5633
2026-01-15 21:36:17.40	58.18	13.14	-47.1	-50.0	14.2	0.00e+00	0	33	0	413138944	59	5338
2026-01-15 21:36:18.41	58.37	13.16	-46.8	-49.5	14.6	0.00e+00	0	33	0	415236096	59	5018
2026-01-15 21:36:19.42	58.57	13.17	-46.5	-49.1	14.8	0.00e+00	0	33	0	417333248	59	4796
2026-01-15 21:36:20.43	58.77	13.19	-46.4	-49.0	14.9	0.00e+00	0	33	0	419430400	59	4713
2026-01-15 21:36:21.44	58.97	13.21	-46.3	-48.8	15.0	0.00e+00	0	33	0	421527552	59	4607
2026-01-15 21:36:22.45	59.16	13.23	-46.4	-49.0	14.9	0.00e+00	0	33	0	422576128	59	4721
2026-01-15 21:36:23.46	59.36	13.25	-46.6	-49.3	14.7	0.00e+00	0	33	0	424673280	59	4923
2026-01-15 21:36:24.47	59.56	13.27	-46.8	-49.7	14.5	0.00e+00	0	33	0	426770432	59	5105
2026-01-15 21:36:25.48	59.76	13.28	-46.8	-49.6	14.5	0.00e+00	0	33	0	428867584	59	5081
2026-01-15 21:36:26.48	59.96	13.30	-46.7	-49.5	14.6	0.00e+00	0	33	0	430964736	59	5003
2026-01-15 21:36:27.49	60.15	13.32	-46.7	-49.5	14.6	0.00e+00	0	33	0	432013312	59	4999
2026-01-15 21:36:28.50	60.35	13.34	-46.4	-49.0	14.9	0.00e+00	0	33	0	434110464	59	4742
2026-01-15 21:36:29.51	60.55	13.35	-46.3	-48.8	15.0	0.00e+00	0	33	0	436207616	59	4632
2026-01-15 21:36:30.51	60.75	13.37	-46.3	-48.8	15.0	0.00e+00	0	33	0	438304768	59	4648
2026-01-15 21:36:31.52	60.95	13.38	-46.3	-48.9	15.0	0.00e+00	0	33	0	440401920	59	4677
2026-01-15 21:36:32.53	61.15	13.40	-46.4	-49.0	14.9	0.00e+00	0	33	0	442499072	59	4748
2026-01-15 21:36:33.54	61.35	13.41	-46.5	-49.1	14.8	0.00e+00	0	33	0	443547648	59	4804
2026-01-15 21:36:34.55	61.55	13.43	-46.6	-49.3	14.7	0.00e+00	0	33	0	445644800	59	4887
2026-01-15 21:36:35.56	61.75	13.44	-46.5	-49.1	14.8	0.00e+00	0	33	0	447741952	59	4774
2026-01-15 21:36:36.57	61.95	13.46	-46.2	-48.7	15.1	0.00e+00	0	33	0	449839104	59	4585
2026-01-15 21:36:37.58	62.15	13.47	-46.1	-48.5	15.2	0.00e+00	0	33	0	451936256	58	4748
2026-01-15 21:36:38.59	62.36	13.48	-45.7	-47.9	15.5	0.00e+00	0	33	0	452984832	58	4437
2026-01-15 21:36:39.60	62.56	13.50	-45.7	-47.9	15.5	0.00e+00	0	33	0	455081984	57	4703
2026-01-15 21:36:40.60	62.76	13.51	-45.7	-47.9	15.5	0.00e+00	0	33	0	457179136	57	4692
2026-01-15 21:36:41.62	62.96	13.52	-45.8	-48.1	15.4	0.00e+00	0	33	0	459276288	57	4803
2026-01-15 21:36:42.63	63.16	13.54	-46.0	-48.3	15.3	0.00e+00	0	33	0	461373440	57	4924
2026-01-15 21:36:43.64	63.37	13.55	-46.1	-48.6	15.1	0.00e+00	0	33	0	462422016	57	5048
2026-01-15 21:36:44.64	63.57	13.56	-46.2	-48.7	15.1	0.00e+00	0	33	0	464519168	57	5122
2026-01-15 21:36:45.65	63.77	13.57	-45.9	-48.3	15.3	0.00e+00	0	33	0	466616320	57	4921
2026-01-15 21:36:46.66	63.97	13.58	-45.9	-48.3	15.3	0.00e+00	0	33	0	468713472	57	4873
2026-01-15 21:36:47.67	64.17	13.59	-45.6	-47.8	15.6	0.00e+00	0	33	0	470810624	57	4621
2026-01-15 21:36:48.68	64.38	13.60	-45.2	-47.3	15.9	0.00e+00	0	33	0	471859200	57	4350
2026-01-15 21:36:49.69	64.58	13.61	-45.1	-47.2	15.8	0.00e+00	0	33	0	473956352	56	4571
2026-01-15 21:36:50.70	64.78	13.62	-44.9	-47.0	15.9	0.00e+00	0	33	0	476053504	56	4447
2026-01-15 21:36:51.71	64.99	13.63	-45.0	-47.1	15.9	0.00e+00	0	33	0	478150656	56	4507
2026-01-15 21:36:52.72	65.19	13.64	-45.1	-47.2	15.8	0.00e+00	0	33	0	480247808	56	4592
2026-01-15 21:36:53.73	65.39	13.65	-45.3	-47.4	15.7	0.00e+00	0	33	0	481296384	56	4669
2026-01-15 21:36:54.74	65.60	13.66	-45.3	-47.4	15.7	0.00e+00	0	33	0	483393536	56	4705
2026-01-15 21:36:55.75	65.80	13.67	-45.4	-47.6	15.7	0.00e+00	0	33	0	485490688	56	4773
2026-01-15 21:36:56.75	66.00	13.67	-45.4	-47.6	15.6	0.00e+00	0	33	0	487587840	56	4781
2026-01-15 21:36:57.76	66.21	13.68	-45.5	-47.7	15.6	0.00e+00	0	33	0	489684992	56	4867
2026-01-15 21:36:58.77	66.41	13.69	-45.5	-47.7	15.6	0.00e+00	0	33	0	490733568	56	4862
2026-01-15 21:36:59.78	66.62	13.70	-45.7	-47.9	15.5	0.00e+00	0	33	0	492830720	56	4978
2026-01-15 21:37:00.79	66.82	13.70	-45.7	-48.0	15.5	0.00e+00	0	34	0	494927872	56	5024
2026-01-15 21:37:01.80	67.02	13.71	-45.8	-48.1	15.4	0.00e+00	0	33	0	497025024	56	5046
2026-01-15 21:37:02.81	67.23	13.71	-45.7	-47.9	15.5	0.00e+00	0	33	0	499122176	56	4980
2026-01-15 21:37:03.82	67.43	13.72	-45.6	-47.9	15.5	0.00e+00	0	33	0	500170752	56	4934
2026-01-15 21:37:04.83	67.64	13.72	-45.6	-47.8	15.5	0.00e+00	0	33	0	502267904	56	4918
2026-01-15 21:37:05.83	67.84	13.73	-45.4	-47.6	15.7	0.00e+00	0	33	0	504365056	56	4793
2026-01-15 21:37:06.84	68.05	13.73	-45.5	-47.7	15.6	0.00e+00	0	33	0	506462208	56	4866
2026-01-15 21:37:07.85	68.25	13.74	-45.6	-47.8	15.6	0.00e+00	0	33	0	508559360	56	4875
2026-01-15 21:37:08.86	68.46	13.74	-45.7	-48.0	15.5	0.00e+00	0	33	0	509607936	56	4988
2026-01-15 21:37:09.87	68.66	13.74	-45.9	-48.2	15.4	0.00e+00	0	33	0	511705088	56	5153
2026-01-15 21:37:10.88	68.87	13.75	-45.9	-48.3	15.4	0.00e+00	0	33	0	513802240	57	4879
2026-01-15 21:37:11.89	69.07	13.75	-45.8	-48.1	15.4	0.00e+00	0	33	0	515899392	57	4795
2026-01-15 21:37:12.90	69.28	13.75	-45.7	-48.0	15.5	0.00e+00	0	33	0	517996544	57	4747
2026-01-15 21:37:13.91	69.48	13.76	-45.6	-47.9	15.5	0.00e+00	0	33	0	519045120	57	4677
2026-01-15 21:37:14.92	69.69	13.76	-45.5	-47.7	15.7	0.00e+00	0	33	0	521142272	57	4585
2026-01-15 21:37:15.93	69.89	13.76	-45.6	-47.8	15.6	0.00e+00	0	33	0	523239424	57	4643
2026-01-15 21:37:16.94	70.10	13.76	-45.5	-47.8	15.6	0.00e+00	0	33	0	525336576	57	4604
2026-01-15 21:37:17.95	70.30	13.76	-45.8	-48.1	15.4	0.00e+00	0	33	0	527433728	57	4786
2026-01-15 21:37:18.96	70.51	13.76	-45.7	-48.0	15.5	0.00e+00	0	33	0	528482304	57	4732
2026-01-15 21:37:19.96	70.71	13.76	-45.8	-48.0	15.5	0.00e+00	0	33	0	530579456	57	4758
2026-01-15 21:37:20.97	70.92	13.76	-45.6	-47.9	15.6	0.00e+00	0	33	0	532676608	57	4667
2026-01-15 21:37:21.98	71.12	13.76	-45.5	-47.7	15.6	0.00e+00	0	33	0	534773760	57	4588
2026-01-15 21:37:22.99	71.33	13.76	-45.3	-47.5	15.8	0.00e+00	0	33	0	536870912	57	4449
2026-01-15 21:37:24.00	71.53	13.76	-45.3	-47.4	15.8	0.00e+00	0	33	0	538968064	57	4411
2026-01-15 21:37:25.01	71.74	13.76	-45.4	-47.6	15.8	0.00e+00	0	33	0	540016640	57	4494
2026-01-15 21:37:26.02	71.94	13.75	-45.4	-47.5	15.7	0.00e+00	0	33	0	542113792	57	4488
2026-01-15 21:37:27.03	72.15	13.75	-45.6	-47.8	15.6	0.00e+00	0	33	0	544210944	57	4620
2026-01-15 21:37:28.03	72.35	13.75	-45.5	-47.7	15.6	0.00e+00	0	33	0	546308096	57	4593
2026-01-15 21:37:29.04	72.55	13.75	-45.5	-47.7	15.7	0.00e+00	0	33	0	548405248	57	4560
2026-01-15 21:37:30.05	72.76	13.74	-45.4	-47.6	15.7	0.00e+00	0	33	0	549453824	57	4521
2026-01-15 21:37:31.06	72.96	13.74	-45.0	-47.1	16.0	0.00e+00	0	33	0	551550976	56	4498
2026-01-15 21:37:32.07	73.17	13.74	-45.0	-47.0	16.0	0.00e+00	0	33	0	553648128	56	4463
2026-01-15 21:37:33.08	73.37	13.73	-44.8	-46.8	16.1	0.00e+00	0	33	0	555745280	56	4360
2026-01-15 21:37:34.09	73.58	13.73	-44.3	-46.2	16.2	0.00e+00	0	33	0	557842432	55	4329
2026-01-15 21:37:35.10	73.78	13.72	-44.4	-46.3	16.2	0.00e+00	0	33	0	558891008	55	4374
2026-01-15 21:37:36.11	73.99	13.72	-44.6	-46.5	16.2	0.00e+00	0	33	0	560988160	55	4468
2026-01-15 21:37:37.12	74.19	13.71	-44.6	-46.5	16.1	0.00e+00	0	33	0	563085312	55	4481
2026-01-15 21:37:38.12	74.40	13.71	-44.6	-46.6	16.1	0.00e+00	0	33	0	565182464	55	4509
2026-01-15 21:37:39.13	74.60	13.70	-44.7	-46.7	16.0	0.00e+00	0	33	0	567279616	55	4560
2026-01-15 21:37:40.14	74.80	13.69	-44.7	-46.6	16.0	0.00e+00	0	34	0	568328192	55	4535
2026-01-15 21:37:41.16	75.01	13.69	-44.8	-46.8	16.0	0.00e+00	0	33	0	570425344	55	4599
2026-01-15 21:37:42.16	75.21	13.68	-44.7	-46.6	16.1	0.00e+00	0	33	0	572522496	55	4543
2026-01-15 21:37:43.17	75.42	13.67	-44.8	-46.8	15.9	0.00e+00	0	33	0	574619648	55	4611
2026-01-15 21:37:44.18	75.62	13.66	-44.9	-47.0	15.9	0.00e+00	0	33	0	576716800	55	4714
2026-01-15 21:37:45.19	75.83	13.65	-44.9	-47.0	15.9	0.00e+00	0	33	0	577765376	55	4710
2026-01-15 21:37:46.20	76.03	13.65	-45.2	-47.3	15.7	0.00e+00	0	33	0	579862528	55	4912
2026-01-15 21:37:47.21	76.23	13.64	-45.2	-47.3	15.8	0.00e+00	0	33	0	581959680	55	4909
2026-01-15 21:37:48.22	76.44	13.63	-45.2	-47.3	15.8	0.00e+00	0	33	0	584056832	55	4895
2026-01-15 21:37:49.23	76.64	13.62	-45.3	-47.5	15.7	0.00e+00	0	33	0	586153984	55	4994
2026-01-15 21:37:50.24	76.84	13.61	-45.1	-47.3	15.8	0.00e+00	0	33	0	587202560	55	4881
2026-01-15 21:37:51.25	77.05	13.60	-45.1	-47.2	15.8	0.00e+00	0	33	0	589299712	55	4824
2026-01-15 21:37:52.26	77.25	13.59	-45.0	-47.1	15.9	0.00e+00	0	33	0	591396864	55	4770
2026-01-15 21:37:53.26	77.45	13.58	-45.2	-47.3	15.8	0.00e+00	0	33	0	593494016	55	4887
2026-01-15 21:37:54.27	77.65	13.57	-45.1	-47.2	15.8	0.00e+00	0	33	0	595591168	55	4838
2026-01-15 21:37:55.28	77.86	13.55	-45.2	-47.3	15.7	0.00e+00	0	33	0	596639744	55	4917
2026-01-15 21:37:56.29	78.06	13.54	-45.3	-47.4	15.7	0.00e+00	0	33	0	598736896	55	4969
2026-01-15 21:37:57.30	78.26	13.53	-45.2	-47.4	15.7	0.00e+00	0	33	0	600834048	55	4944
2026-01-15 21:37:58.31	78.46	13.52	-45.5	-47.6	15.7	0.00e+00	0	33	0	602931200	56	4814
2026-01-15 21:37:59.32	78.67	13.51	-45.3	-47.4	15.8	0.00e+00	0	33	0	605028352	56	4701
2026-01-15 21:38:00.32	78.87	13.49	-45.3	-47.4	15.8	0.00e+00	0	33	0	607125504	56	4687
2026-01-15 21:38:01.33	79.07	13.48	-45.2	-47.2	15.9	0.00e+00	0	33	0	608174080	56	4590
2026-01-15 21:38:02.34	79.27	13.47	-45.2	-47.3	15.9	0.00e+00	0	33	0	610271232	56	4608
2026-01-15 21:38:03.35	79.47	13.45	-45.1	-47.1	15.9	0.00e+00	0	33	0	612368384	56	4536
2026-01-15 21:38:04.36	79.67	13.44	-45.1	-47.2	15.9	0.00e+00	0	33	0	614465536	56	4565
2026-01-15 21:38:05.37	79.87	13.42	-44.9	-47.0	16.0	0.00e+00	0	33	0	615514112	56	4443
2026-01-15 21:38:06.38	80.07	13.41	-44.9	-46.9	16.0	0.00e+00	0	33	0	617611264	56	4430
2026-01-15 21:38:07.39	80.27	13.39	-44.8	-46.8	16.1	0.00e+00	0	33	0	619708416	56	4363
2026-01-15 21:38:08.40	80.47	13.38	-44.6	-46.6	16.1	0.00e+00	0	33	0	621805568	55	4507
2026-01-15 21:38:09.40	80.67	13.36	-44.5	-46.4	16.1	0.00e+00	0	33	0	623902720	55	4429
2026-01-15 21:38:10.41	80.87	13.34	-44.5	-46.4	16.0	0.00e+00	0	33	0	624951296	55	4420
2026-01-15 21:38:11.42	81.07	13.33	-44.5	-46.4	16.1	0.00e+00	0	33	0	627048448	55	4427
2026-01-15 21:38:12.43	81.27	13.31	-44.5	-46.5	16.2	0.00e+00	0	33	0	629145600	55	4443
2026-01-15 21:38:13.44	81.47	13.29	-44.4	-46.3	16.2	0.00e+00	0	33	0	631242752	55	4382
2026-01-15 21:38:14.45	81.67	13.28	-44.4	-46.3	16.2	0.00e+00	0	33	0	633339904	55	4377
2026-01-15 21:38:15.46	81.87	13.26	-44.5	-46.4	16.1	0.00e+00	0	33	0	635437056	55	4430
2026-01-15 21:38:16.47	82.07	13.24	-44.4	-46.3	16.2	0.00e+00	0	33	0	636485632	55	4375
2026-01-15 21:38:17.48	82.27	13.22	-44.4	-46.3	16.2	0.00e+00	0	33	0	638582784	55	4363
2026-01-15 21:38:18.49	82.46	13.20	-44.3	-46.1	16.3	0.00e+00	0	33	0	640679936	55	4274
2026-01-15 21:38:19.50	82.66	13.18	-44.4	-46.2	16.2	0.00e+00	0	33	0	642777088	55	4337
2026-01-15 21:38:20.51	82.86	13.17	-44.4	-46.3	16.2	0.00e+00	0	33	0	644874240	55	4344
2026-01-15 21:38:21.52	83.06	13.15	-44.4	-46.3	16.2	0.00e+00	0	33	0	645922816	55	4357
2026-01-15 21:38:22.53	83.25	13.13	-44.4	-46.3	16.2	0.00e+00	0	33	0	648019968	55	4350
2026-01-15 21:38:23.54	83.45	13.11	-44.5	-46.5	16.2	0.00e+00	0	33	0	650117120	55	4448
2026-01-15 21:38:24.54	83.65	13.09	-44.6	-46.6	16.0	0.00e+00	0	33	0	652214272	55	4506
2026-01-15 21:38:25.55	83.84	13.07	-44.7	-46.6	16.1	0.00e+00	0	33	0	654311424	55	4529
2026-01-15 21:38:26.56	84.04	13.04	-44.9	-46.9	15.9	0.00e+00	0	33	0	655360000	55	4697
2026-01-15 21:38:27.57	84.23	13.02	-44.8	-46.9	15.9	0.00e+00	0	33	0	657457152	55	4652
2026-01-15 21:38:28.58	84.43	13.00	-44.9	-46.9	15.9	0.00e+00	0	33	0	659554304	55	4700
2026-01-15 21:38:29.59	84.62	12.98	-44.9	-47.0	15.9	0.00e+00	0	33	0	661651456	55	4717
2026-01-15 21:38:30.60	84.82	12.96	-44.7	-46.8	16.0	0.00e+00	0	33	0	663748608	55	4601
2026-01-15 21:38:31.61	85.01	12.94	-44.8	-46.8	15.9	0.00e+00	0	33	0	664797184	55	4619
2026-01-15 21:38:32.62	85.21	12.91	-44.6	-46.6	16.1	0.00e+00	0	33	0	666894336	55	4517
2026-01-15 21:38:33.63	85.40	12.89	-44.6	-46.6	16.0	0.00e+00	0	33	0	668991488	55	4514
2026-01-15 21:38:34.64	85.60	12.87	-44.5	-46.5	16.1	0.00e+00	0	33	0	671088640	55	4462
2026-01-15 21:38:35.64	85.79	12.84	-44.4	-46.3	16.2	0.00e+00	0	33	0	673185792	55	4343
2026-01-15 21:38:36.65	85.98	12.82	-44.4	-46.3	16.1	0.00e+00	0	34	0	674234368	55	4371
2026-01-15 21:38:37.66	86.17	12.80	-44.3	-46.1	16.2	0.00e+00	0	33	0	676331520	55	4290
2026-01-15 21:38:38.67	86.37	12.77	-44.3	-46.2	16.2	0.00e+00	0	33	0	678428672	55	4304
2026-01-15 21:38:39.68	86.56	12.75	-44.2	-46.1	16.3	0.00e+00	0	33	0	680525824	55	4249
2026-01-15 21:38:40.69	86.75	12.72	-44.1	-46.0	16.3	0.00e+00	0	33	0	682622976	54	4447
2026-01-15 21:38:41.70	86.94	12.70	-43.9	-45.7	16.5	0.00e+00	0	33	0	683671552	54	4297
2026-01-15 21:38:42.71	87.13	12.67	-43.9	-45.7	16.5	0.00e+00	0	33	0	685768704	54	4297
2026-01-15 21:38:43.72	87.33	12.65	-44.0	-45.8	16.4	0.00e+00	0	34	0	687865856	54	4360
2026-01-15 21:38:44.73	87.52	12.62	-44.0	-45.8	16.4	0.00e+00	0	33	0	689963008	54	4387
2026-01-15 21:38:45.74	87.71	12.59	-44.0	-45.8	16.4	0.00e+00	0	33	0	692060160	54	4388
2026-01-15 21:38:46.75	87.90	12.57	-44.1	-45.9	16.4	0.00e+00	0	33	0	693108736	54	4404
2026-01-15 21:38:47.76	88.09	12.54	-44.0	-45.8	16.4	0.00e+00	0	33	0	695205888	54	4356
2026-01-15 21:38:48.77	88.28	12.51	-44.0	-45.9	16.4	0.00e+00	0	33	0	697303040	54	4396
2026-01-15 21:38:49.78	88.47	12.49	-44.1	-45.9	16.4	0.00e+00	0	33	0	699400192	54	4401
2026-01-15 21:38:50.79	88.65	12.46	-44.2	-46.1	16.3	0.00e+00	0	33	0	701497344	54	4518
2026-01-15 21:38:51.79	88.84	12.43	-44.4	-46.3	16.2	0.00e+00	0	33	0	703594496	54	4608
2026-01-15 21:38:52.80	89.03	12.40	-44.4	-46.3	16.2	0.00e+00	0	33	0	704643072	54	4645
2026-01-15 21:38:53.81	89.22	12.38	-44.4	-46.4	16.2	0.00e+00	0	34	0	706740224	54	4655
2026-01-15 21:38:54.82	89.40	12.35	-44.6	-46.6	16.1	0.00e+00	0	33	0	708837376	54	4760
2026-01-15 21:38:55.83	89.59	12.32	-44.5	-46.4	16.2	0.00e+00	0	33	0	710934528	54	4685
2026-01-15 21:38:56.84	89.78	12.29	-44.3	-46.1	16.3	0.00e+00	0	33	0	713031680	54	4536
2026-01-15 21:38:57.85	89.96	12.26	-44.3	-46.2	16.2	0.00e+00	0	33	0	714080256	54	4574
2026-01-15 21:38:58.86	90.15	12.23	-44.4	-46.3	16.2	0.00e+00	0	33	0	716177408	54	4600
2026-01-15 21:38:59.87	90.34	12.20	-44.3	-46.2	16.2	0.00e+00	0	33	0	718274560	54	4585
2026-01-15 21:39:00.88	90.52	12.17	-44.5	-46.5	16.1	0.00e+00	0	34	0	720371712	54	4721
2026-01-15 21:39:01.88	90.70	12.14	-44.5	-46.5	16.1	0.00e+00	0	33	0	722468864	54	4706
2026-01-15 21:39:02.89	90.89	12.11	-44.7	-46.6	16.0	0.00e+00	0	33	0	723517440	54	4811
2026-01-15 21:39:03.90	91.07	12.08	-44.7	-46.7	16.0	0.00e+00	0	33	0	725614592	54	4825
2026-01-15 21:39:04.91	91.26	12.05	-44.7	-46.7	16.0	0.00e+00	0	33	0	727711744	54	4866
2026-01-15 21:39:05.92	91.44	12.02	-44.8	-46.8	15.9	0.00e+00	0	33	0	729808896	54	4925
2026-01-15 21:39:06.93	91.62	11.99	-44.8	-46.8	16.0	0.00e+00	0	33	0	731906048	54	4895
2026-01-15 21:39:07.94	91.81	11.96	-44.7	-46.7	16.0	0.00e+00	0	33	0	732954624	54	4832
2026-01-15 21:39:08.95	91.99	11.93	-44.7	-46.6	16.0	0.00e+00	0	33	0	735051776	54	4811
2026-01-15 21:39:09.96	92.17	11.89	-44.8	-46.9	15.9	0.00e+00	0	33	0	737148928	54	4953
2026-01-15 21:39:10.97	92.35	11.86	-44.9	-47.0	15.9	0.00e+00	0	33	0	739246080	55	4726
2026-01-15 21:39:11.97	92.53	11.83	-45.0	-47.2	15.8	0.00e+00	0	33	0	741343232	55	4818
2026-01-15 21:39:12.98	92.71	11.80	-45.3	-47.5	15.6	0.00e+00	0	33	0	742391808	55	5013
2026-01-15 21:39:13.99	92.89	11.76	-45.2	-47.3	15.7	0.00e+00	0	33	0	744488960	55	4923
2026-01-15 21:39:15.00	93.07	11.73	-45.3	-47.5	15.6	0.00e+00	0	33	0	746586112	55	5010
2026-01-15 21:39:16.01	93.25	11.70	-45.5	-47.7	15.6	0.00e+00	0	33	0	748683264	56	4837
2026-01-15 21:39:17.02	93.43	11.67	-45.5	-47.8	15.5	0.00e+00	0	34	0	750780416	56	4872
2026-01-15 21:39:18.03	93.61	11.63	-45.6	-47.9	15.5	0.00e+00	0	33	0	751828992	56	4950
2026-01-15 21:39:19.04	93.79	11.60	-45.4	-47.5	15.7	0.00e+00	0	33	0	753926144	56	4751
2026-01-15 21:39:20.05	93.97	11.56	-45.4	-47.6	15.7	0.00e+00	0	33	0	756023296	56	4804
2026-01-15 21:39:21.06	94.15	11.53	-45.3	-47.4	15.8	0.00e+00	0	33	0	758120448	56	4687
2026-01-15 21:39:22.07	94.32	11.50	-45.5	-47.7	15.6	0.00e+00	0	33	0	760217600	56	4861
2026-01-15 21:39:23.08	94.50	11.46	-45.5	-47.7	15.6	0.00e+00	0	33	0	761266176	56	4863
2026-01-15 21:39:24.09	94.68	11.43	-45.5	-47.8	15.5	0.00e+00	0	33	0	763363328	56	4896
2026-01-15 21:39:25.10	94.85	11.39	-46.0	-48.4	15.2	0.00e+00	0	33	0	765460480	57	4949
2026-01-15 21:39:26.10	95.03	11.36	-46.2	-48.7	15.0	0.00e+00	0	33	0	767557632	57	5142
2026-01-15 21:39:27.11	95.20	11.32	-46.3	-49.0	15.0	0.00e+00	0	33	0	769654784	57	5283
2026-01-15 21:39:28.12	95.38	11.29	-46.4	-49.1	14.9	0.00e+00	0	33	0	770703360	58	5051
2026-01-15 21:39:29.13	95.55	11.25	-46.5	-49.2	14.8	0.00e+00	0	33	0	772800512	58	5120
2026-01-15 21:39:30.14	95.73	11.21	-46.4	-49.1	14.8	0.00e+00	0	33	0	774897664	58	5068
2026-01-15 21:39:31.15	95.90	11.18	-46.4	-49.1	14.8	0.00e+00	0	33	0	776994816	58	5045
2026-01-15 21:39:32.16	96.07	11.14	-46.3	-48.9	15.0	0.00e+00	0	33	0	779091968	58	4941
2026-01-15 21:39:33.17	96.24	11.11	-46.4	-49.0	14.9	0.00e+00	0	33	0	780140544	58	5020
2026-01-15 21:39:34.17	96.42	11.07	-46.5	-49.2	14.8	0.00e+00	0	33	0	782237696	58	5126
2026-01-15 21:39:35.18	96.59	11.03	-46.6	-49.4	14.7	0.00e+00	0	33	0	784334848	58	5231
2026-01-15 21:39:36.19	96.76	11.00	-46.7	-49.5	14.6	0.00e+00	0	33	0	786432000	58	5295
2026-01-15 21:39:37.20	96.93	10.96	-46.9	-49.9	14.3	0.00e+00	0	33	0	788529152	59	5270
2026-01-15 21:39:38.21	97.10	10.92	-46.7	-49.5	14.6	0.00e+00	0	33	0	789577728	59	5029
2026-01-15 21:39:39.22	97.27	10.88	-46.5	-49.2	14.7	0.00e+00	0	33	0	791674880	59	4854
2026-01-15 21:39:40.23	97.44	10.85	-46.2	-48.8	15.0	0.00e+00	0	33	0	793772032	59	4612
2026-01-15 21:39:41.24	97.61	10.81	-46.1	-48.6	15.1	0.00e+00	0	33	0	795869184	58	4762
2026-01-15 21:39:42.25	97.78	10.77	-45.9	-48.3	15.2	0.00e+00	0	33	0	797966336	58	4630
2026-01-15 21:39:43.26	97.95	10.73	-45.8	-48.2	15.4	0.00e+00	0	33	0	800063488	58	4573
2026-01-15 21:39:44.27	98.12	10.70	-46.0	-48.4	15.2	0.00e+00	0	33	0	801112064	58	4701
2026-01-15 21:39:45.28	98.28	10.66	-46.1	-48.6	15.1	0.00e+00	0	34	0	803209216	58	4813
2026-01-15 21:39:46.29	98.45	10.62	-46.3	-48.9	14.9	0.00e+00	0	33	0	805306368	58	4983
2026-01-15 21:39:47.30	98.62	10.58	-46.6	-49.4	14.7	0.00e+00	0	33	0	807403520	58	5248
2026-01-15 21:39:48.31	98.79	10.54	-46.6	-49.4	14.6	0.00e+00	0	33	0	809500672	58	5266
2026-01-15 21:39:49.32	98.95	10.50	-46.7	-49.6	14.5	0.00e+00	0	33	0	810549248	58	5381
2026-01-15 21:39:50.33	99.12	10.46	-46.6	-49.4	14.6	0.00e+00	0	33	0	812646400	58	5247
2026-01-15 21:39:51.33	99.28	10.42	-46.7	-49.6	14.5	0.00e+00	0	33	0	814743552	58	5374
2026-01-15 21:39:52.34	99.45	10.38	-46.6	-49.3	14.7	0.00e+00	0	33	0	816840704	58	5208
2026-01-15 21:39:53.35	99.61	10.35	-46.7	-49.5	14.5	0.00e+00	0	33	0	818937856	58	5315
2026-01-15 21:39:54.36	99.77	10.31	-46.8	-49.7	14.4	0.00e+00	0	33	0	819986432	59	5155
2026-01-15 21:39:55.37	99.94	10.27	-46.8	-49.6	14.4	0.00e+00	0	33	0	822083584	59	5097
2026-01-15 21:39:56.38	100.10	10.23	-46.8	-49.8	14.4	0.00e+00	0	33	0	824180736	59	5174
2026-01-15 21:39:57.39	100.26	10.19	-46.8	-49.8	14.4	0.00e+00	0	33	0	826277888	59	5162
2026-01-15 21:39:58.40	100.43	10.15	-46.7	-49.6	14.5	0.00e+00	0	33	0	828375040	59	5077
2026-01-15 21:39:59.41	100.59	10.10	-46.7	-49.5	14.6	0.00e+00	0	33	0	829423616	59	5011
2026-01-15 21:40:00.42	100.75	10.06	-46.6	-49.4	14.6	0.00e+00	0	33	0	831520768	59	4955
2026-01-15 21:40:01.43	100.91	10.02	-46.6	-49.5	14.6	0.00e+00	0	33	0	833617920	59	4990
2026-01-15 21:40:02.44	101.07	9.98	-46.6	-49.4	14.6	0.00e+00	0	33	0	835715072	59	4949
2026-01-15 21:40:03.44	101.23	9.94	-46.7	-49.6	14.5	0.00e+00	0	33	0	837812224	59	5066
2026-01-15 21:40:04.45	101.39	9.90	-46.8	-49.7	14.5	0.00e+00	0	34	0	838860800	59	5103
2026-01-15 21:40:05.46	101.55	9.86	-46.9	-49.8	14.3	0.00e+00	0	33	0	840957952	59	5215
2026-01-15 21:40:06.47	101.71	9.82	-46.7	-49.6	14.5	0.00e+00	0	33	0	843055104	59	5055
2026-01-15 21:40:07.48	101.86	9.78	-46.6	-49.4	14.6	0.00e+00	0	33	0	845152256	59	4932
2026-01-15 21:40:08.49	102.02	9.74	-46.4	-49.1	14.7	0.00e+00	0	33	0	847249408	59	4813
2026-01-15 21:40:09.50	102.18	9.69	-46.3	-49.0	14.9	0.00e+00	0	33	0	848297984	59	4739
2026-01-15 21:40:10.51	102.34	9.65	-46.0	-48.5	15.2	0.00e+00	0	34	0	850395136	58	4720
2026-01-15 21:40:11.52	102.49	9.61	-45.8	-48.2	15.3	0.00e+00	0	33	0	852492288	58	4594
2026-01-15 21:40:12.52	102.65	9.57	-45.8	-48.2	15.3	0.00e+00	0	33	0	854589440	58	4589
2026-01-15 21:40:13.53	102.80	9.53	-45.8	-48.2	15.3	0.00e+00	0	33	0	856686592	58	4594
2026-01-15 21:40:14.54	102.96	9.48	-45.9	-48.3	15.3	0.00e+00	0	33	0	857735168	58	4621
2026-01-15 21:40:15.55	103.11	9.44	-45.9	-48.4	15.2	0.00e+00	0	34	0	859832320	58	4663
2026-01-15 21:40:16.56	103.27	9.40	-46.3	-48.9	14.9	0.00e+00	0	34	0	861929472	58	4943
2026-01-15 21:40:17.57	103.42	9.36	-46.3	-49.0	14.8	0.00e+00	0	34	0	864026624	58	5030
2026-01-15 21:40:18.58	103.58	9.31	-46.4	-49.1	14.7	0.00e+00	0	34	0	866123776	58	5061
2026-01-15 21:40:19.59	103.73	9.27	-46.6	-49.4	14.5	0.00e+00	0	33	0	868220928	58	5254
2026-01-15 21:40:20.60	103.88	9.23	-46.7	-49.6	14.4	0.00e+00	0	34	0	869269504	58	5374
2026-01-15 21:40:21.61	104.04	9.19	-46.9	-49.9	14.3	0.00e+00	0	33	0	871366656	58	5556
2026-01-15 21:40:22.62	104.19	9.14	-46.7	-49.6	14.5	0.00e+00	0	34	0	873463808	59	5085
2026-01-15 21:40:23.63	104.34	9.10	-46.6	-49.5	14.6	0.00e+00	0	33	0	875560960	59	5003
2026-01-15 21:40:24.64	104.49	9.06	-46.7	-49.6	14.4	0.00e+00	0	34	0	877658112	59	5077
2026-01-15 21:40:25.64	104.64	9.01	-46.5	-49.3	14.7	0.00e+00	0	33	0	878706688	59	4890
2026-01-15 21:40:26.65	104.79	8.97	-46.4	-49.2	14.7	0.00e+00	0	33	0	880803840	59	4831
2026-01-15 21:40:27.66	104.94	8.93	-46.3	-48.9	14.9	0.00e+00	0	33	0	882900992	59	4674
2026-01-15 21:40:28.67	105.09	8.88	-46.1	-48.7	15.0	0.00e+00	0	33	0	884998144	58	4853
2026-01-15 21:40:29.68	105.24	8.84	-46.2	-48.9	14.9	0.00e+00	0	34	0	887095296	58	4931
2026-01-15 21:40:30.69	105.39	8.80	-46.2	-48.9	14.9	0.00e+00	0	33	0	888143872	58	4928
2026-01-15 21:40:31.70	105.53	8.75	-46.3	-48.9	14.9	0.00e+00	0	33	0	890241024	58	4977
2026-01-15 21:40:32.71	105.68	8.71	-46.2	-48.8	14.9	0.00e+00	0	34	0	892338176	58	4876
2026-01-15 21:40:33.72	105.83	8.66	-46.1	-48.6	15.0	0.00e+00	0	34	0	894435328	58	4798
2026-01-15 21:40:34.73	105.98	8.62	-45.9	-48.3	15.2	0.00e+00	0	33	0	896532480	58	4636
2026-01-15 21:40:35.74	106.12	8.58	-45.9	-48.4	15.1	0.00e+00	0	33	0	897581056	58	4699
2026-01-15 21:40:36.75	106.27	8.53	-46.1	-48.7	15.0	0.00e+00	0	34	0	899678208	58	4845
2026-01-15 21:40:37.76	106.41	8.49	-45.9	-48.4	15.2	0.00e+00	0	34	0	901775360	58	4661
2026-01-15 21:40:38.76	106.56	8.44	-45.9	-48.4	15.2	0.00e+00	0	34	0	903872512	58	4673
2026-01-15 21:40:39.77	106.70	8.40	-46.0	-48.5	15.1	0.00e+00	0	33	0	905969664	58	4751
2026-01-15 21:40:40.78	106.85	8.35	-46.1	-48.6	15.0	0.00e+00	0	34	0	907018240	58	4809
2026-01-15 21:40:41.79	106.99	8.31	-46.0	-48.6	15.1	0.00e+00	0	34	0	909115392	58	4760
2026-01-15 21:40:42.80	107.13	8.26	-46.0	-48.5	15.1	0.00e+00	0	33	0	911212544	58	4753
2026-01-15 21:40:43.81	107.28	8.22	-46.1	-48.6	15.0	0.00e+00	0	34	0	913309696	58	4800
2026-01-15 21:40:44.82	107.42	8.17	-46.0	-48.6	15.0	0.00e+00	0	34	0	915406848	58	4780
2026-01-15 21:40:45.83	107.56	8.13	-45.9	-48.4	15.1	0.00e+00	0	33	0	916455424	58	4673
2026-01-15 21:40:46.84	107.70	8.08	-45.7	-48.0	15.3	0.00e+00	0	34	0	918552576	57	4752
2026-01-15 21:40:47.85	107.84	8.04	-45.8	-48.2	15.3	0.00e+00	0	33	0	920649728	57	4832
2026-01-15 21:40:48.86	107.98	7.99	-45.9	-48.4	15.1	0.00e+00	0	34	0	922746880	57	4960
2026-01-15 21:40:49.87	108.12	7.95	-45.6	-48.0	15.3	0.00e+00	0	34	0	924844032	57	4752
2026-01-15 21:40:50.88	108.26	7.90	-45.8	-48.3	15.2	0.00e+00	0	33	0	925892608	57	4888
2026-01-15 21:40:51.89	108.40	7.86	-45.9	-48.3	15.2	0.00e+00	0	33	0	927989760	57	4926
2026-01-15 21:40:52.90	108.54	7.81	-45.8	-48.2	15.2	0.00e+00	0	34	0	930086912	57	4847
2026-01-15 21:40:53.91	108.68	7.77	-45.7	-48.1	15.3	0.00e+00	0	34	0	932184064	57	4792
2026-01-15 21:40:54.92	108.82	7.72	-45.9	-48.4	15.2	0.00e+00	0	34	0	934281216	57	4946
2026-01-15 21:40:55.92	108.96	7.68	-45.9	-48.4	15.1	0.00e+00	0	33	0	936378368	57	4971
2026-01-15 21:40:56.93	109.09	7.63	-45.9	-48.4	15.2	0.00e+00	0	34	0	937426944	57	4930
2026-01-15 21:40:57.94	109.23	7.59	-46.1	-48.6	15.0	0.00e+00	0	33	0	939524096	57	5099
2026-01-15 21:40:58.95	109.37	7.54	-45.9	-48.4	15.1	0.00e+00	0	33	0	941621248	57	4958
2026-01-15 21:40:59.96	109.50	7.49	-45.9	-48.4	15.1	0.00e+00	0	33	0	943718400	57	4942
2026-01-15 21:41:00.97	109.64	7.45	-46.0	-48.6	15.0	0.00e+00	0	34	0	944766976	57	5062
2026-01-15 21:41:01.98	109.77	7.40	-45.9	-48.4	15.1	0.00e+00	0	33	0	946864128	57	4972
2026-01-15 21:41:02.99	109.91	7.36	-45.9	-48.4	15.1	0.00e+00	0	34	0	948961280	57	4937
2026-01-15 21:41:04.00	110.04	7.31	-46.1	-48.7	15.0	0.00e+00	0	34	0	951058432	57	5103
2026-01-15 21:41:05.01	110.18	7.26	-46.0	-48.5	15.0	0.00e+00	0	34	0	953155584	57	5034
2026-01-15 21:41:06.02	110.31	7.22	-46.1	-48.7	15.0	0.00e+00	0	34	0	954204160	57	5119
2026-01-15 21:41:07.03	110.45	7.17	-46.0	-48.6	15.0	0.00e+00	0	33	0	956301312	57	5052
2026-01-15 21:41:08.04	110.58	7.12	-45.9	-48.4	15.1	0.00e+00	0	34	0	958398464	57	4962
2026-01-15 21:41:09.05	110.71	7.08	-46.2	-48.9	14.8	0.00e+00	0	34	0	960495616	57	5249
2026-01-15 21:41:10.05	110.84	7.03	-46.0	-48.7	15.0	0.00e+00	0	34	0	962592768	57	5110
2026-01-15 21:41:11.06	110.97	6.99	-46.4	-49.2	14.6	0.00e+00	0	34	0	964689920	57	5421
2026-01-15 21:41:12.07	111.11	6.94	-46.3	-49.0	14.8	0.00e+00	0	33	0	965738496	58	4993
2026-01-15 21:41:13.08	111.24	6.89	-46.3	-49.1	14.8	0.00e+00	0	34	0	967835648	58	5057
2026-01-15 21:41:14.09	111.37	6.85	-46.0	-48.6	15.0	0.00e+00	0	33	0	969932800	58	4803
2026-01-15 21:41:15.10	111.50	6.80	-46.0	-48.5	15.1	0.00e+00	0	34	0	972029952	58	4737
2026-01-15 21:41:16.11	111.63	6.75	-45.9	-48.4	15.1	0.00e+00	0	34	0	974127104	58	4704
2026-01-15 21:41:17.12	111.76	6.71	-46.0	-48.6	15.0	0.00e+00	0	33	0	975175680	58	4801
2026-01-15 21:41:18.13	111.89	6.66	-46.0	-48.6	15.0	0.00e+00	0	34	0	977272832	58	4808
2026-01-15 21:41:19.14	112.01	6.61	-46.1	-48.8	14.9	0.00e+00	0	33	0	979369984	58	4873
2026-01-15 21:41:20.15	112.14	6.57	-46.0	-48.6	15.0	0.00e+00	0	33	0	981467136	58	4777
2026-01-15 21:41:21.16	112.27	6.52	-46.0	-48.6	15.0	0.00e+00	0	33	0	983564288	58	4800
2026-01-15 21:41:22.17	112.40	6.47	-46.4	-49.2	14.6	0.00e+00	0	34	0	984612864	58	5132
2026-01-15 21:41:23.18	112.52	6.43	-46.4	-49.2	14.6	0.00e+00	0	34	0	986710016	58	5113
2026-01-15 21:41:24.19	112.65	6.38	-46.1	-48.7	14.9	0.00e+00	0	34	0	988807168	58	4845
2026-01-15 21:41:25.20	112.78	6.33	-46.2	-49.0	14.7	0.00e+00	0	34	0	990904320	58	4998
2026-01-15 21:41:26.20	112.90	6.29	-46.6	-49.5	14.4	0.00e+00	0	34	0	993001472	58	5322
2026-01-15 21:41:27.21	113.03	6.24	-46.2	-49.0	14.7	0.00e+00	0	34	0	994050048	58	4992
2026-01-15 21:41:28.22	113.15	6.19	-46.6	-49.6	14.2	0.00e+00	0	34	0	996147200	58	5398
2026-01-15 21:41:29.23	113.28	6.15	-46.4	-49.2	14.5	0.00e+00	0	33	0	998244352	58	5157
2026-01-15 21:41:30.24	113.40	6.10	-46.4	-49.2	14.5	0.00e+00	0	34	0	1000341504	58	5151
2026-01-15 21:41:31.25	113.52	6.05	-46.3	-49.1	14.5	0.00e+00	0	34	0	1002438656	58	5089
2026-01-15 21:41:32.25	113.65	6.01	-46.5	-49.4	14.4	0.00e+00	0	34	0	1003487232	58	5273
2026-01-15 21:41:33.26	113.77	5.96	-46.1	-48.7	14.9	0.00e+00	0	33	0	1005584384	58	4859
2026-01-15 21:41:34.27	113.89	5.91	-46.3	-49.1	14.6	0.00e+00	0	34	0	1007681536	58	5055
2026-01-15 21:41:35.28	114.02	5.86	-46.2	-49.0	14.6	0.00e+00	0	34	0	1009778688	58	5030
2026-01-15 21:41:36.29	114.14	5.82	-46.2	-49.1	14.6	0.00e+00	0	34	0	1011875840	58	5051
2026-01-15 21:41:37.30	114.26	5.77	-46.3	-49.2	14.5	0.00e+00	0	33	0	1012924416	58	5130
2026-01-15 21:41:38.31	114.38	5.72	-46.3	-49.1	14.6	0.00e+00	0	34	0	1015021568	58	5071
2026-01-15 21:41:39.32	114.50	5.67	-46.3	-49.2	14.5	0.00e+00	0	34	0	1017118720	58	5108
2026-01-15 21:41:40.33	114.62	5.63	-46.3	-49.2	14.5	0.00e+00	0	33	0	1019215872	58	5135
2026-01-15 21:41:41.34	114.74	5.58	-46.4	-49.5	14.2	0.00e+00	0	34	0	1021313024	58	5287
2026-01-15 21:41:42.35	114.86	5.53	-46.3	-49.2	14.4	0.00e+00	0	33	0	1022361600	58	5115
2026-01-15 21:41:43.36	114.98	5.49	-46.0	-48.8	14.7	0.00e+00	0	34	0	1024458752	58	4873
2026-01-15 21:41:44.36	115.10	5.44	-46.4	-49.5	14.2	0.00e+00	0	33	0	1026555904	58	5284
2026-01-15 21:41:45.37	115.22	5.39	-46.1	-49.0	14.5	0.00e+00	0	34	0	1028653056	58	5017
2026-01-15 21:41:46.38	115.34	5.34	-46.1	-49.0	14.5	0.00e+00	0	34	0	1030750208	58	5020
2026-01-15 21:41:47.39	115.45	5.30	-46.2	-49.1	14.4	0.00e+00	0	34	0	1032847360	58	5087
2026-01-15 21:41:48.40	115.57	5.25	-46.2	-49.2	14.4	0.00e+00	0	34	0	1033895936	58	5124
2026-01-15 21:41:49.41	115.69	5.20	-46.5	-49.7	14.0	0.00e+00	0	34	0	1035993088	58	5445
2026-01-15 21:41:50.42	115.81	5.15	-46.4	-49.5	14.2	0.00e+00	0	33	0	1038090240	58	5282
2026-01-15 21:41:51.43	115.92	5.11	-46.5	-49.7	14.0	0.00e+00	0	34	0	1040187392	58	5451
2026-01-15 21:41:52.44	116.04	5.06	-46.7	-50.0	13.8	0.00e+00	0	34	0	1042284544	58	5644
2026-01-15 21:41:53.45	116.15	5.01	-46.9	-50.4	13.6	0.00e+00	0	34	0	1043333120	58	5877
2026-01-15 21:41:54.46	116.27	4.96	-50.3	-66.2	3.8	9.92e-01	0	34	104	1044381696	65	24158
2026-01-15 21:41:55.47	116.38	4.92	-50.7	-66.7	3.8	1.49e+00	0	34	104	1044381696	66	24289
2026-01-15 21:41:56.48	116.50	4.87	-50.9	-67.0	3.8	1.49e+00	0	34	104	1044381696	66	25182
2026-01-15 21:41:57.49	116.61	4.82	-51.1	-67.2	3.8	1.49e+00	0	34	104	1044381696	67	24231
2026-01-15 21:41:58.50	116.73	4.77	-51.2	-67.4	3.8	1.49e+00	0	34	104	1044381696	67	24708
2026-01-15 21:41:59.51	116.84	4.73	-51.4	-67.5	3.8	1.49e+00	0	34	104	1044381696	67	25244
2026-01-15 21:42:00.52	116.95	4.68	-51.6	-67.8	3.8	1.49e+00	0	34	104	1044381696	68	24549
2026-01-15 21:42:01.52	117.07	4.63	-51.6	-67.8	3.8	1.49e+00	0	34	104	1044381696	68	24676
2026-01-15 21:42:02.53	117.18	4.59	-51.7	-67.9	3.8	1.49e+00	0	34	104	1044381696	68	24833
2026-01-15 21:42:03.54	117.29	4.54	-51.7	-67.9	3.8	1.49e+00	0	34	104	1044381696	68	24923
2026-01-15 21:42:04.55	117.40	4.49	-51.8	-67.9	3.8	1.49e+00	0	34	104	1044381696	68	24967
2026-01-15 21:42:05.56	117.51	4.44	-51.8	-68.0	3.8	1.49e+00	0	34	104	1044381696	68	25139
2026-01-15 21:42:06.57	117.62	4.40	-51.8	-68.0	3.8	1.49e+00	0	34	104	1044381696	68	25195
2026-01-15 21:42:07.58	117.74	4.35	-51.8	-68.1	3.8	1.49e+00	0	34	104	1044381696	68	25276
2026-01-15 21:42:08.59	117.85	4.30	-51.9	-68.1	3.8	1.49e+00	0	34	104	1044381696	68	25284
2026-01-15 21:42:09.59	117.95	4.25	-51.9	-68.1	3.8	1.49e+00	0	34	104	1044381696	68	25432
2026-01-15 21:42:10.60	118.06	4.21	-51.9	-68.1	3.8	1.49e+00	0	34	104	1044381696	68	25463
2026-01-15 21:42:11.61	118.17	4.16	-51.9	-68.1	3.8	1.49e+00	0	34	104	1044381696	68	25493
2026-01-15 21:42:12.62	118.28	4.11	-51.9	-68.1	3.8	1.49e+00	0	34	104	1044381696	68	25479
2026-01-15 21:42:13.63	118.39	4.06	-51.9	-68.1	3.8	1.49e+00	0	34	104	1044381696	69	24061
2026-01-15 21:42:14.64	118.50	4.02	-51.9	-68.2	3.8	1.49e+00	0	34	104	1044381696	69	24142
2026-01-15 21:42:15.65	118.61	3.97	-51.9	-68.1	3.8	1.49e+00	0	34	104	1044381696	69	24112
2026-01-15 21:42:16.66	118.72	3.92	-52.0	-68.2	3.8	1.49e+00	0	34	104	1044381696	69	24189
2026-01-15 21:42:17.67	118.82	3.87	-52.0	-68.2	3.8	1.49e+00	0	34	104	1044381696	69	24244
2026-01-15 21:42:18.68	118.93	3.83	-52.0	-68.2	3.8	1.49e+00	0	33	104	1044381696	69	24326
2026-01-15 21:42:19.69	119.04	3.78	-52.0	-68.2	3.8	1.49e+00	0	34	104	1044381696	69	24285
2026-01-15 21:42:20.70	119.14	3.73	-52.0	-68.2	3.8	1.49e+00	0	34	104	1044381696	69	24360
2026-01-15 21:42:21.71	119.25	3.68	-52.0	-68.3	3.8	1.49e+00	0	34	104	1044381696	69	24412
2026-01-15 21:42:22.71	119.35	3.64	-52.0	-68.2	3.8	1.49e+00	0	34	104	1044381696	69	24370
2026-01-15 21:42:23.72	119.46	3.59	-52.0	-68.2	3.8	1.49e+00	0	34	104	1044381696	69	24360
2026-01-15 21:42:24.74	119.57	3.54	-52.0	-68.2	3.8	1.49e+00	0	34	104	1044381696	69	24269
2026-01-15 21:42:25.74	119.67	3.49	-52.0	-68.2	3.8	1.49e+00	0	34	104	1044381696	69	24279
2026-01-15 21:42:26.75	119.77	3.45	-52.0	-68.2	3.8	1.49e+00	0	34	104	1044381696	69	24306
2026-01-15 21:42:27.77	119.88	3.40	-52.0	-68.2	3.8	1.49e+00	0	34	104	1044381696	69	24290
2026-01-15 21:42:28.77	119.98	3.35	-51.9	-68.2	3.8	1.49e+00	0	34	104	1044381696	69	24269
2026-01-15 21:42:29.78	120.09	3.30	-51.9	-68.2	3.8	1.49e+00	0	34	104	1044381696	69	24211
2026-01-15 21:42:30.79	120.19	3.26	-52.0	-68.2	3.8	1.49e+00	0	34	104	1044381696	69	24179
2026-01-15 21:42:31.80	120.29	3.21	-52.0	-68.2	3.8	1.49e+00	0	34	104	1044381696	69	24252
2026-01-15 21:42:32.81	120.39	3.16	-51.9	-68.2	3.8	1.49e+00	0	34	104	1044381696	69	24193
2026-01-15 21:42:33.82	120.50	3.11	-51.9	-68.2	3.8	1.49e+00	0	34	104	1044381696	69	24207
2026-01-15 21:42:34.83	120.60	3.07	-51.9	-68.2	3.8	1.49e+00	0	34	104	1044381696	69	24192
2026-01-15 21:42:35.84	120.70	3.02	-51.9	-68.2	3.8	1.49e+00	0	34	104	1044381696	69	24226
2026-01-15 21:42:36.85	120.80	2.97	-51.9	-68.2	3.8	1.49e+00	0	34	104	1044381696	69	24150
2026-01-15 21:42:37.85	120.90	2.92	-51.9	-68.1	3.8	1.49e+00	0	34	104	1044381696	69	24128
2026-01-15 21:42:38.86	121.00	2.88	-51.9	-68.1	3.8	1.49e+00	0	34	104	1044381696	69	24094
2026-01-15 21:42:39.87	121.10	2.83	-51.9	-68.1	3.8	1.49e+00	0	34	104	1044381696	69	24094
2026-01-15 21:42:40.88	121.20	2.78	-51.9	-68.1	3.8	1.49e+00	0	34	104	1044381696	69	24102
2026-01-15 21:42:41.89	121.30	2.73	-51.9	-68.1	3.8	1.49e+00	0	34	104	1044381696	69	24081
2026-01-15 21:42:42.90	121.40	2.69	-51.9	-68.1	3.8	1.49e+00	0	34	104	1044381696	69	24062
2026-01-15 21:42:43.91	121.50	2.64	-51.9	-68.1	3.8	1.49e+00	0	34	104	1044381696	69	24118
2026-01-15 21:42:44.92	121.60	2.59	-51.9	-68.1	3.8	1.49e+00	0	34	104	1044381696	69	24077
2026-01-15 21:42:45.93	121.70	2.55	-51.9	-68.2	3.8	1.49e+00	0	34	104	1044381696	69	24151
2026-01-15 21:42:46.93	121.80	2.50	-51.9	-68.1	3.8	1.49e+00	0	34	104	1044381696	69	24078
2026-01-15 21:42:47.94	121.89	2.45	-51.9	-68.2	3.8	1.49e+00	0	34	104	1044381696	69	24151
2026-01-15 21:42:48.95	121.99	2.40	-51.9	-68.1	3.8	1.49e+00	0	34	104	1044381696	69	24048
2026-01-15 21:42:49.96	122.09	2.36	-51.9	-68.1	3.8	1.49e+00	0	34	104	1044381696	69	24129
2026-01-15 21:42:50.97	122.19	2.31	-51.9	-68.1	3.8	1.49e+00	0	34	104	1044381696	69	24079
2026-01-15 21:42:51.98	122.28	2.26	-51.9	-68.1	3.8	1.49e+00	0	34	104	1044381696	69	24028
2026-01-15 21:42:52.99	122.38	2.22	-51.9	-68.1	3.8	1.49e+00	0	34	104	1044381696	69	24068
2026-01-15 21:42:54.00	122.48	2.17	-51.9	-68.1	3.8	1.49e+00	0	34	104	1044381696	69	24075
2026-01-15 21:42:55.01	122.57	2.12	-51.9	-68.2	3.8	1.49e+00	0	34	104	1044381696	69	24137
2026-01-15 21:42:56.02	122.67	2.07	-51.9	-68.2	3.8	1.49e+00	0	34	104	1044381696	69	24152
2026-01-15 21:42:57.03	122.76	2.03	-51.9	-68.1	3.8	1.49e+00	0	34	104	1044381696	69	24102
2026-01-15 21:42:58.04	122.86	1.98	-51.9	-68.1	3.8	1.49e+00	0	34	104	1044381696	69	24089
2026-01-15 21:42:59.05	122.95	1.93	-51.9	-68.1	3.8	1.49e+00	0	34	104	1044381696	69	24094

#Closed at: 2026-01-15 21:42:59
#Recorded file [1044 MB]: D:/lorett/data/31004_260116_003141.dat