passes_logs/2026/01/15/R3.2S_Murmansk_2ch/R3.2S_Murmansk_2ch__20260115_194603_TY-39_rec.log

#Pass ID: 20260115_194603_TY-39
#Satellite: TY-39
#Configuration: TY-39
#almurnet v.1.7.20251203
#Start time: 2026-01-15 19:46:04

#Version: 2.2.20231116
#Station: R3.2S_Murmansk_2ch
#Location: 33.079688 lon 68.888172 lat
#TLE: 1 51832U 22019J   26014.95856198  .00001434  00000-0  70377-4 0  9997
#TLE: 2 51832  97.3654  81.6497 0010051  52.2384 307.9760 15.19636883214527

#Time	Az	El	Level	Level2	SNR	BER	BlckErr	Temp	State	Recorded	gain1	gain2
2026-01-15 19:46:04.99	201.18	2.09	-49.6	-52.8	3.7	0.00e+00	0	35	0	0	66	20192
2026-01-15 19:46:05.99	201.26	2.15	-49.6	-52.8	3.7	0.00e+00	0	35	104	0	66	20197
2026-01-15 19:46:07.00	201.34	2.21	-49.6	-52.8	3.7	0.00e+00	0	35	104	0	66	20295
2026-01-15 19:46:08.01	201.42	2.28	-49.6	-52.8	3.7	0.00e+00	0	35	104	0	66	20225
2026-01-15 19:46:09.02	201.50	2.34	-49.6	-52.8	3.7	0.00e+00	0	35	104	0	66	20264
2026-01-15 19:46:10.03	201.58	2.41	-49.6	-52.8	3.7	0.00e+00	0	35	104	0	66	20264
2026-01-15 19:46:11.04	201.66	2.47	-49.6	-52.8	3.7	0.00e+00	0	35	104	0	66	20214
2026-01-15 19:46:12.05	201.75	2.54	-49.6	-52.8	3.7	0.00e+00	0	35	104	0	66	20313
2026-01-15 19:46:13.05	201.83	2.61	-49.6	-52.8	3.7	0.00e+00	0	35	104	0	66	20289
2026-01-15 19:46:14.06	201.91	2.67	-49.6	-52.8	3.7	0.00e+00	0	35	104	0	66	20228
2026-01-15 19:46:15.07	202.00	2.74	-49.6	-52.8	3.7	0.00e+00	0	35	104	0	66	20303
2026-01-15 19:46:16.08	202.08	2.80	-49.6	-52.8	3.7	0.00e+00	0	36	104	0	66	20221
2026-01-15 19:46:17.09	202.17	2.87	-49.6	-52.8	3.7	0.00e+00	0	36	104	0	66	20248
2026-01-15 19:46:18.10	202.25	2.94	-49.6	-52.8	3.7	0.00e+00	0	36	104	0	66	20291
2026-01-15 19:46:19.11	202.34	3.00	-49.6	-52.8	3.7	0.00e+00	0	36	104	0	66	20243
2026-01-15 19:46:20.12	202.43	3.07	-49.6	-52.8	3.7	0.00e+00	0	36	104	0	66	20304
2026-01-15 19:46:21.13	202.51	3.14	-49.7	-52.8	3.7	0.00e+00	0	36	104	0	66	20215
2026-01-15 19:46:22.14	202.60	3.20	-49.6	-52.8	3.7	0.00e+00	0	36	104	0	66	20298
2026-01-15 19:46:23.15	202.69	3.27	-49.6	-52.8	3.7	0.00e+00	0	36	104	0	66	20287
2026-01-15 19:46:24.16	202.78	3.34	-49.7	-52.8	3.7	0.00e+00	0	36	104	0	66	20319
2026-01-15 19:46:25.17	202.87	3.41	-49.7	-52.8	3.7	0.00e+00	0	36	104	0	66	20319
2026-01-15 19:46:26.18	202.96	3.47	-49.7	-52.8	3.7	0.00e+00	0	36	104	0	66	20368
2026-01-15 19:46:27.19	203.05	3.54	-49.7	-52.8	3.7	0.00e+00	0	36	104	0	66	20323
2026-01-15 19:46:28.20	203.14	3.61	-49.7	-52.8	3.7	0.00e+00	0	36	104	0	66	20320
2026-01-15 19:46:29.21	203.23	3.68	-49.7	-52.8	3.7	0.00e+00	0	36	104	0	66	20358
2026-01-15 19:46:30.21	203.32	3.75	-49.7	-52.8	3.7	0.00e+00	0	36	104	0	66	20252
2026-01-15 19:46:31.22	203.41	3.81	-49.7	-52.8	3.7	0.00e+00	0	36	104	0	66	20379
2026-01-15 19:46:32.23	203.50	3.88	-49.7	-52.9	3.7	0.00e+00	0	36	104	0	66	20405
2026-01-15 19:46:33.24	203.60	3.95	-49.7	-52.8	3.7	0.00e+00	0	36	104	0	66	20359
2026-01-15 19:46:34.25	203.69	4.02	-49.7	-52.8	3.7	0.00e+00	0	36	104	0	66	20340
2026-01-15 19:46:35.26	203.78	4.09	-49.7	-52.8	3.7	0.00e+00	0	36	104	0	66	20351
2026-01-15 19:46:36.27	203.88	4.16	-49.7	-52.8	3.7	0.00e+00	0	36	104	0	66	20327
2026-01-15 19:46:37.28	203.97	4.23	-49.7	-52.8	3.7	0.00e+00	0	36	104	0	66	20320
2026-01-15 19:46:38.29	204.07	4.30	-49.7	-52.8	3.7	0.00e+00	0	36	104	0	66	20357
2026-01-15 19:46:39.30	204.17	4.37	-49.7	-52.8	3.7	0.00e+00	0	36	104	0	66	20350
2026-01-15 19:46:40.31	204.26	4.44	-49.7	-52.9	3.7	0.00e+00	0	36	104	0	66	20407
2026-01-15 19:46:41.32	204.36	4.51	-49.7	-52.8	3.7	0.00e+00	0	37	104	0	66	20351
2026-01-15 19:46:42.33	204.46	4.58	-49.7	-52.9	3.7	0.00e+00	0	36	104	0	66	20402
2026-01-15 19:46:43.34	204.56	4.65	-49.7	-52.8	3.7	0.00e+00	0	37	104	0	66	20357
2026-01-15 19:46:44.34	204.66	4.72	-49.7	-52.8	3.7	0.00e+00	0	37	104	0	66	20365
2026-01-15 19:46:45.35	204.76	4.80	-49.7	-52.8	3.7	0.00e+00	0	36	104	0	66	20337
2026-01-15 19:46:46.36	204.86	4.87	-49.7	-52.9	3.7	0.00e+00	0	37	104	0	66	20432
2026-01-15 19:46:47.37	204.96	4.94	-49.7	-52.8	3.7	0.00e+00	0	37	104	0	66	20365
2026-01-15 19:46:48.38	205.06	5.01	-49.7	-52.9	3.7	0.00e+00	0	37	104	0	66	20417
2026-01-15 19:46:49.39	205.16	5.08	-49.7	-52.9	3.7	0.00e+00	0	37	104	0	66	20429
2026-01-15 19:46:50.40	205.27	5.16	-49.8	-52.9	3.7	0.00e+00	0	37	104	0	66	20592
2026-01-15 19:46:51.41	205.37	5.23	-49.7	-52.9	3.7	0.00e+00	0	37	104	0	66	20502
2026-01-15 19:46:52.42	205.47	5.30	-49.7	-52.8	3.7	0.00e+00	0	37	104	0	66	20354
2026-01-15 19:46:53.43	205.58	5.37	-49.7	-52.9	3.7	0.00e+00	0	37	104	0	66	20462
2026-01-15 19:46:54.44	205.68	5.45	-49.8	-53.0	3.7	0.00e+00	0	37	104	0	66	20752
2026-01-15 19:46:55.45	205.79	5.52	-49.8	-52.9	3.7	0.00e+00	0	37	104	0	66	20577
2026-01-15 19:46:56.46	205.90	5.59	-49.7	-52.9	3.7	0.00e+00	0	37	104	0	66	20399
2026-01-15 19:46:57.47	206.00	5.67	-49.8	-53.0	3.7	0.00e+00	0	37	104	0	66	20636
2026-01-15 19:46:58.48	206.11	5.74	-49.9	-53.0	3.7	0.00e+00	0	37	104	0	66	20847
2026-01-15 19:46:59.49	206.22	5.82	-49.8	-53.0	3.7	0.00e+00	0	37	104	0	66	20689
2026-01-15 19:47:00.50	206.33	5.89	-49.8	-52.9	3.7	0.00e+00	0	37	104	0	66	20560
2026-01-15 19:47:01.51	206.44	5.96	-49.8	-53.0	3.7	0.00e+00	0	37	104	0	66	20713
2026-01-15 19:47:02.51	206.55	6.04	-49.9	-53.1	3.7	0.00e+00	0	37	104	0	66	20875
2026-01-15 19:47:03.52	206.66	6.11	-49.8	-53.0	3.7	0.00e+00	0	37	104	0	66	20725
2026-01-15 19:47:04.53	206.77	6.19	-49.8	-53.0	3.7	0.00e+00	0	37	104	0	66	20643
2026-01-15 19:47:05.54	206.89	6.26	-49.9	-53.0	3.7	0.00e+00	0	37	104	0	66	20849
2026-01-15 19:47:06.55	207.00	6.34	-49.9	-53.1	3.7	0.00e+00	0	37	104	0	66	20934
2026-01-15 19:47:07.56	207.12	6.42	-49.9	-53.0	3.7	0.00e+00	0	37	104	0	66	20824
2026-01-15 19:47:08.57	207.23	6.49	-41.3	-41.9	5.2	0.00e+00	146	37	104	0	48	16324
2026-01-15 19:47:09.58	207.35	6.57	-36.1	-36.4	12.2	1.63e-01	0	38	0	50331648	39	14590
2026-01-15 19:47:10.59	207.46	6.65	-36.8	-37.1	11.8	5.69e-04	0	38	0	125829120	40	14874
2026-01-15 19:47:11.60	207.58	6.72	-36.6	-36.9	11.9	3.46e-05	0	38	0	201326592	40	14571
2026-01-15 19:47:12.61	207.70	6.80	-36.1	-36.4	12.2	6.90e-06	0	38	0	276824064	39	14503
2026-01-15 19:47:13.62	207.82	6.88	-35.9	-36.2	12.3	6.90e-06	0	38	0	352321536	38	15114
2026-01-15 19:47:14.63	207.94	6.95	-36.0	-36.4	12.2	6.90e-06	0	38	0	427819008	38	15320
2026-01-15 19:47:15.64	208.06	7.03	-35.8	-36.2	12.3	6.90e-06	0	38	0	503316480	38	14971
2026-01-15 19:47:16.65	208.18	7.11	-35.8	-36.1	12.4	0.00e+00	0	38	0	578813952	38	14921
2026-01-15 19:47:17.66	208.30	7.19	-35.9	-36.3	12.3	0.00e+00	0	38	0	654311424	38	15141
2026-01-15 19:47:18.66	208.42	7.27	-36.1	-36.4	12.2	0.00e+00	0	38	0	729808896	38	15407
2026-01-15 19:47:19.67	208.54	7.34	-35.9	-36.2	12.4	0.00e+00	0	38	0	805306368	38	15097
2026-01-15 19:47:20.68	208.67	7.42	-35.6	-35.9	12.5	0.00e+00	0	38	0	880803840	38	14467
2026-01-15 19:47:21.69	208.79	7.50	-36.0	-36.4	12.3	0.00e+00	0	38	0	956301312	38	15311
2026-01-15 19:47:22.70	208.92	7.58	-35.6	-35.9	12.5	0.00e+00	0	38	0	1031798784	38	14509
2026-01-15 19:47:23.71	209.05	7.66	-35.9	-36.3	12.3	0.00e+00	0	38	0	1107296256	38	15130
2026-01-15 19:47:24.72	209.17	7.74	-35.8	-36.1	12.4	0.00e+00	0	38	0	1182793728	38	14823
2026-01-15 19:47:25.73	209.30	7.82	-36.0	-36.3	12.3	0.00e+00	0	38	0	1258291200	38	15196
2026-01-15 19:47:26.74	209.43	7.90	-35.6	-35.9	12.6	0.00e+00	0	38	0	1333788672	38	14469
2026-01-15 19:47:27.75	209.56	7.98	-35.7	-36.0	12.5	0.00e+00	0	38	0	1409286144	38	14707
2026-01-15 19:47:28.76	209.69	8.06	-35.6	-35.9	12.5	0.00e+00	0	38	0	1484783616	38	14569
2026-01-15 19:47:29.77	209.82	8.14	-35.7	-36.0	12.5	0.00e+00	0	38	0	1560281088	38	14653
2026-01-15 19:47:30.78	209.96	8.22	-35.9	-36.2	12.4	0.00e+00	0	38	0	1635778560	38	15110
2026-01-15 19:47:31.79	210.09	8.30	-35.7	-36.0	12.5	6.90e-06	0	38	0	1711276032	38	14776
2026-01-15 19:47:32.80	210.23	8.39	-35.5	-35.8	12.6	0.00e+00	0	38	0	1795162112	38	14395
2026-01-15 19:47:33.81	210.36	8.47	-35.5	-35.8	12.7	0.00e+00	0	38	0	1862270976	38	14301
2026-01-15 19:47:34.82	210.50	8.55	-35.4	-35.7	12.6	0.00e+00	0	39	0	1937768448	37	15059
2026-01-15 19:47:35.83	210.63	8.63	-35.4	-35.7	12.7	0.00e+00	0	39	0	2013265920	37	15024
2026-01-15 19:47:36.83	210.77	8.71	-35.3	-35.5	12.7	0.00e+00	0	39	0	2088763392	37	14770
2026-01-15 19:47:37.85	210.91	8.80	-35.1	-35.4	12.9	0.00e+00	0	39	0	2172649472	37	14497
2026-01-15 19:47:38.85	211.05	8.88	-35.2	-35.5	12.8	0.00e+00	0	39	0	2248146944	37	14760
2026-01-15 19:47:39.86	211.19	8.96	-35.3	-35.6	12.8	0.00e+00	0	39	0	2323644416	37	14863
2026-01-15 19:47:40.87	211.33	9.05	-35.4	-35.7	12.7	0.00e+00	0	39	0	2399141888	37	14998
2026-01-15 19:47:41.88	211.48	9.13	-35.3	-35.6	12.8	0.00e+00	0	39	0	2466250752	37	14797
2026-01-15 19:47:42.89	211.62	9.22	-35.4	-35.6	12.8	0.00e+00	0	39	0	2541748224	37	14943
2026-01-15 19:47:43.90	211.77	9.30	-35.4	-35.7	12.7	0.00e+00	0	39	0	2625634304	37	15075
2026-01-15 19:47:44.91	211.91	9.38	-35.3	-35.6	12.8	0.00e+00	0	39	0	2701131776	37	14818
2026-01-15 19:47:45.92	212.06	9.47	-35.2	-35.5	12.9	0.00e+00	0	39	0	2776629248	37	14642
2026-01-15 19:47:46.93	212.21	9.55	-35.3	-35.6	12.8	0.00e+00	0	39	0	2852126720	37	14792
2026-01-15 19:47:47.94	212.36	9.64	-35.1	-35.4	12.9	0.00e+00	0	39	0	2927624192	37	14569
2026-01-15 19:47:48.95	212.51	9.72	-35.0	-35.2	13.0	0.00e+00	0	39	0	3003121664	37	14266
2026-01-15 19:47:49.96	212.66	9.81	-34.9	-35.2	13.0	1.38e-05	0	39	0	3078619136	37	14253
2026-01-15 19:47:50.97	212.81	9.90	-34.8	-35.1	13.0	0.00e+00	0	39	0	3154116608	36	14932
2026-01-15 19:47:51.98	212.96	9.98	-34.9	-35.2	13.0	0.00e+00	0	39	0	3229614080	36	14969
2026-01-15 19:47:52.99	213.12	10.07	-35.0	-35.3	13.0	0.00e+00	0	39	0	3305111552	36	15149
2026-01-15 19:47:54.00	213.27	10.16	-35.0	-35.3	12.9	0.00e+00	0	39	0	3380609024	36	15216
2026-01-15 19:47:55.01	213.43	10.24	-35.1	-35.4	12.9	0.00e+00	0	39	0	3456106496	36	15372
2026-01-15 19:47:56.02	213.59	10.33	-35.2	-35.4	12.9	0.00e+00	0	39	0	3531603968	36	15468
2026-01-15 19:47:57.03	213.74	10.42	-35.0	-35.3	13.0	0.00e+00	0	39	0	3607101440	36	15194
2026-01-15 19:47:58.04	213.90	10.51	-34.9	-35.2	13.0	0.00e+00	0	39	0	3682598912	36	14991
2026-01-15 19:47:59.05	214.07	10.59	-34.9	-35.2	13.0	0.00e+00	0	39	0	3758096384	36	14998
2026-01-15 19:48:00.06	214.23	10.68	-34.9	-35.2	13.0	0.00e+00	0	39	0	3833593856	36	14995
2026-01-15 19:48:01.07	214.39	10.77	-34.9	-35.2	13.0	0.00e+00	0	39	0	3909091328	36	15071
2026-01-15 19:48:02.08	214.56	10.86	-34.7	-35.0	13.1	0.00e+00	0	39	0	3984588800	36	14721
2026-01-15 19:48:03.09	214.72	10.95	-34.8	-35.1	13.1	6.90e-06	0	39	0	4060086272	36	14818
2026-01-15 19:48:04.09	214.89	11.04	-34.8	-35.1	13.1	0.00e+00	0	39	0	4135583744	36	14894
2026-01-15 19:48:05.10	215.06	11.13	-34.7	-34.9	13.1	0.00e+00	0	39	0	4211081216	36	14582
2026-01-15 19:48:06.11	215.22	11.22	-34.8	-35.0	13.1	0.00e+00	0	39	0	4286578688	36	14747
2026-01-15 19:48:07.12	215.39	11.31	-34.6	-34.9	13.2	0.00e+00	0	39	0	4362076160	36	14503
2026-01-15 19:48:08.13	215.57	11.40	-34.6	-34.8	13.2	0.00e+00	0	39	0	4437573632	36	14423
2026-01-15 19:48:09.14	215.74	11.49	-34.6	-34.8	13.2	0.00e+00	0	39	0	4513071104	36	14428
2026-01-15 19:48:10.15	215.91	11.58	-34.5	-34.8	13.2	0.00e+00	0	39	0	4588568576	36	14323
2026-01-15 19:48:11.16	216.09	11.67	-34.5	-34.8	13.2	0.00e+00	0	39	0	4664066048	36	14317
2026-01-15 19:48:12.17	216.27	11.76	-34.5	-34.8	13.3	0.00e+00	0	39	0	4739563520	36	14359
2026-01-15 19:48:13.18	216.44	11.85	-34.4	-34.7	13.3	0.00e+00	0	39	0	4815060992	36	14193
2026-01-15 19:48:14.19	216.62	11.94	-34.5	-34.8	13.2	0.00e+00	0	39	0	4890558464	36	14334
2026-01-15 19:48:15.20	216.81	12.03	-31.8	-32.1	13.2	0.00e+00	0	39	0	4974444544	30	14946
2026-01-15 19:48:16.21	216.99	12.13	-31.8	-32.1	13.2	0.00e+00	0	39	0	5049942016	30	14792
2026-01-15 19:48:17.22	217.17	12.22	-31.8	-32.1	13.3	0.00e+00	0	39	0	5125439488	30	14785
2026-01-15 19:48:18.23	217.36	12.31	-31.7	-32.0	13.3	0.00e+00	0	39	0	5192548352	30	14724
2026-01-15 19:48:19.24	217.54	12.40	-31.8	-32.1	13.3	0.00e+00	0	39	0	5268045824	30	14799
2026-01-15 19:48:20.25	217.73	12.50	-31.7	-32.0	13.3	0.00e+00	0	40	0	5351931904	30	14680
2026-01-15 19:48:21.26	217.92	12.59	-31.6	-31.9	13.3	0.00e+00	0	39	0	5427429376	30	14552
2026-01-15 19:48:22.27	218.11	12.68	-31.7	-32.0	13.3	0.00e+00	0	40	0	5502926848	30	14632
2026-01-15 19:48:23.28	218.30	12.78	-31.7	-32.0	13.3	0.00e+00	0	40	0	5578424320	30	14727
2026-01-15 19:48:24.29	218.49	12.87	-31.6	-31.8	13.4	0.00e+00	0	39	0	5653921792	30	14411
2026-01-15 19:48:25.30	218.69	12.97	-31.5	-31.8	13.4	0.00e+00	0	40	0	5729419264	30	14320
2026-01-15 19:48:26.31	218.88	13.06	-31.6	-31.8	13.4	0.00e+00	0	40	0	5804916736	30	14433
2026-01-15 19:48:27.32	219.08	13.15	-31.5	-31.7	13.4	0.00e+00	0	39	0	5880414208	30	14242
2026-01-15 19:48:28.33	219.28	13.25	-31.4	-31.7	13.4	0.00e+00	0	39	0	5955911680	30	14166
2026-01-15 19:48:29.34	219.48	13.34	-31.5	-31.8	13.4	0.00e+00	0	40	0	6031409152	30	14276
2026-01-15 19:48:30.35	219.68	13.44	-31.4	-31.6	13.4	0.00e+00	0	40	0	6106906624	29	14945
2026-01-15 19:48:31.36	219.89	13.53	-31.3	-31.6	13.5	0.00e+00	0	40	0	6182404096	29	14808
2026-01-15 19:48:32.36	220.09	13.63	-31.3	-31.6	13.5	0.00e+00	0	40	0	6257901568	29	14881
2026-01-15 19:48:33.38	220.30	13.73	-31.3	-31.6	13.5	0.00e+00	0	40	0	6333399040	29	14863
2026-01-15 19:48:34.38	220.51	13.82	-31.3	-31.6	13.5	0.00e+00	0	40	0	6408896512	29	14786
2026-01-15 19:48:35.39	220.72	13.92	-31.2	-31.5	13.5	0.00e+00	0	40	0	6484393984	29	14633
2026-01-15 19:48:36.40	220.93	14.01	-31.1	-31.3	13.6	0.00e+00	0	40	0	6559891456	29	14421
2026-01-15 19:48:37.41	221.14	14.11	-31.2	-31.5	13.5	0.00e+00	0	40	0	6635388928	29	14608
2026-01-15 19:48:38.42	221.36	14.21	-31.1	-31.4	13.6	0.00e+00	0	40	0	6710886400	29	14441
2026-01-15 19:48:39.43	221.57	14.30	-31.0	-31.3	13.6	0.00e+00	0	40	0	6786383872	29	14366
2026-01-15 19:48:40.44	221.79	14.40	-31.0	-31.3	13.6	0.00e+00	0	40	0	6861881344	29	14332
2026-01-15 19:48:41.45	222.01	14.50	-31.1	-31.3	13.6	0.00e+00	0	40	0	6937378816	29	14408
2026-01-15 19:48:42.46	222.23	14.60	-31.2	-31.4	13.6	0.00e+00	0	40	0	7012876288	29	14553
2026-01-15 19:48:43.47	222.45	14.69	-31.0	-31.3	13.6	0.00e+00	0	40	0	7088373760	29	14291
2026-01-15 19:48:44.48	222.68	14.79	-30.8	-31.1	13.7	0.00e+00	0	40	0	7163871232	28	14876
2026-01-15 19:48:45.49	222.90	14.89	-31.0	-31.2	13.6	0.00e+00	0	40	0	7239368704	28	15098
2026-01-15 19:48:46.50	223.13	14.99	-31.0	-31.3	13.6	0.00e+00	0	40	0	7314866176	28	15140
2026-01-15 19:48:47.51	223.36	15.08	-30.8	-31.1	13.7	0.00e+00	0	40	0	7390363648	28	14825
2026-01-15 19:48:48.52	223.59	15.18	-30.8	-31.1	13.7	0.00e+00	0	40	0	7465861120	28	14862
2026-01-15 19:48:49.53	223.83	15.28	-30.8	-31.1	13.7	0.00e+00	0	40	0	7541358592	28	14818
2026-01-15 19:48:50.54	224.06	15.38	-30.8	-31.0	13.7	0.00e+00	0	40	0	7616856064	28	14747
2026-01-15 19:48:51.55	224.30	15.48	-30.8	-31.1	13.7	0.00e+00	0	40	0	7700742144	28	14822
2026-01-15 19:48:52.56	224.54	15.58	-30.7	-31.0	13.7	0.00e+00	0	40	0	7776239616	28	14673
2026-01-15 19:48:53.57	224.78	15.68	-30.6	-30.9	13.8	0.00e+00	0	40	0	7851737088	28	14550
2026-01-15 19:48:54.58	225.02	15.77	-30.7	-31.0	13.7	0.00e+00	0	40	0	7918845952	28	14670
2026-01-15 19:48:55.58	225.26	15.87	-30.5	-30.8	13.8	0.00e+00	0	40	0	7994343424	28	14392
2026-01-15 19:48:56.59	225.51	15.97	-30.6	-30.9	13.8	0.00e+00	0	40	0	8069840896	28	14496
2026-01-15 19:48:57.60	225.76	16.07	-30.7	-31.0	13.7	0.00e+00	0	40	0	8153726976	28	14647
2026-01-15 19:48:58.61	226.01	16.17	-30.7	-31.0	13.8	0.00e+00	0	40	0	8229224448	28	14714
2026-01-15 19:48:59.62	226.26	16.27	-30.5	-30.8	13.8	0.00e+00	0	40	0	8304721920	28	14348
2026-01-15 19:49:00.63	226.51	16.37	-30.4	-30.7	13.9	0.00e+00	0	40	0	8380219392	28	14211
2026-01-15 19:49:01.64	226.77	16.47	-30.5	-30.7	13.8	0.00e+00	0	40	0	8447328256	27	15063
2026-01-15 19:49:02.65	227.02	16.57	-30.5	-30.8	13.8	0.00e+00	0	40	0	8531214336	27	15175
2026-01-15 19:49:03.66	227.28	16.67	-30.4	-30.7	13.9	0.00e+00	0	40	0	8606711808	27	14997
2026-01-15 19:49:04.67	227.55	16.77	-30.4	-30.7	13.9	0.00e+00	0	40	0	8682209280	27	15008
2026-01-15 19:49:05.68	227.81	16.87	-30.5	-30.7	13.9	0.00e+00	0	40	0	8757706752	27	15087
2026-01-15 19:49:06.69	228.07	16.97	-30.3	-30.6	13.9	0.00e+00	0	40	0	8833204224	27	14873
2026-01-15 19:49:07.70	228.34	17.07	-30.2	-30.5	14.0	0.00e+00	0	40	0	8908701696	27	14679
2026-01-15 19:49:08.71	228.61	17.16	-30.3	-30.5	13.9	0.00e+00	0	40	0	8984199168	27	14750
2026-01-15 19:49:09.72	228.88	17.26	-30.2	-30.5	14.0	0.00e+00	0	40	0	9059696640	27	14717
2026-01-15 19:49:10.73	229.16	17.36	-30.2	-30.4	14.0	0.00e+00	0	40	0	9135194112	27	14582
2026-01-15 19:49:11.74	229.43	17.46	-30.2	-30.4	14.0	0.00e+00	0	40	0	9210691584	27	14579
2026-01-15 19:49:12.75	229.71	17.56	-30.1	-30.4	14.0	0.00e+00	0	40	0	9286189056	27	14522
2026-01-15 19:49:13.76	229.99	17.66	-30.0	-30.3	14.0	0.00e+00	0	40	0	9361686528	27	14367
2026-01-15 19:49:14.77	230.27	17.76	-30.0	-30.3	14.0	0.00e+00	0	40	0	9437184000	27	14354
2026-01-15 19:49:15.78	230.55	17.86	-30.1	-30.4	14.0	0.00e+00	0	40	0	9512681472	27	14494
2026-01-15 19:49:16.79	230.84	17.96	-30.1	-30.3	14.0	0.00e+00	0	40	0	9588178944	27	14403
2026-01-15 19:49:17.80	231.13	18.06	-30.0	-30.3	14.0	0.00e+00	0	40	0	9663676416	27	14378
2026-01-15 19:49:18.81	231.42	18.16	-30.0	-30.3	14.0	0.00e+00	0	40	0	9739173888	27	14322
2026-01-15 19:49:19.82	231.71	18.26	-30.0	-30.3	14.0	0.00e+00	0	40	0	9814671360	27	14310
2026-01-15 19:49:20.83	232.01	18.35	-30.0	-30.2	14.0	0.00e+00	0	40	0	9890168832	27	14243
2026-01-15 19:49:21.84	232.30	18.45	-30.0	-30.2	14.0	0.00e+00	0	40	0	9965666304	27	14243
2026-01-15 19:49:22.85	232.60	18.55	-30.0	-30.3	14.1	0.00e+00	0	40	0	10041163776	27	14291
2026-01-15 19:49:23.86	232.90	18.65	-29.9	-30.1	14.1	0.00e+00	0	40	0	10116661248	26	14885
2026-01-15 19:49:24.86	233.20	18.74	-29.9	-30.1	14.0	0.00e+00	0	40	0	10192158720	26	14939
2026-01-15 19:49:25.87	233.51	18.84	-29.9	-30.2	14.0	0.00e+00	0	40	0	10267656192	26	15008
2026-01-15 19:49:26.88	233.82	18.94	-29.9	-30.1	14.1	0.00e+00	0	40	0	10343153664	26	14872
2026-01-15 19:49:27.89	234.13	19.04	-29.7	-30.0	14.1	0.00e+00	0	40	0	10418651136	26	14625
2026-01-15 19:49:28.90	234.44	19.13	-29.6	-29.9	14.1	0.00e+00	0	40	0	10502537216	26	14517
2026-01-15 19:49:29.91	234.75	19.23	-29.7	-30.0	14.1	0.00e+00	0	40	0	10578034688	26	14668
2026-01-15 19:49:30.92	235.07	19.33	-29.6	-29.9	14.1	0.00e+00	0	40	0	10645143552	26	14497
2026-01-15 19:49:31.93	235.39	19.42	-29.8	-30.0	14.1	0.00e+00	0	40	0	10720641024	26	14690
2026-01-15 19:49:32.94	235.71	19.52	-29.7	-29.9	14.1	0.00e+00	0	40	0	10796138496	26	14529
2026-01-15 19:49:33.95	236.03	19.61	-29.7	-29.9	14.1	0.00e+00	0	40	0	10880024576	26	14587
2026-01-15 19:49:34.96	236.36	19.71	-29.6	-29.9	14.2	0.00e+00	0	40	0	10955522048	26	14484
2026-01-15 19:49:35.97	236.69	19.80	-29.6	-29.9	14.1	0.00e+00	0	40	0	11031019520	26	14509
2026-01-15 19:49:36.98	237.02	19.90	-29.6	-29.9	14.2	0.00e+00	0	40	0	11106516992	26	14480
2026-01-15 19:49:37.99	237.35	19.99	-29.5	-29.8	14.2	0.00e+00	0	40	0	11173625856	26	14337
2026-01-15 19:49:39.00	237.68	20.08	-29.4	-29.7	14.2	0.00e+00	0	40	0	11257511936	26	14163
2026-01-15 19:49:40.00	238.02	20.17	-29.5	-29.7	14.2	0.00e+00	0	40	0	11333009408	26	14273
2026-01-15 19:49:41.01	238.36	20.27	-29.5	-29.7	14.2	0.00e+00	0	40	0	11408506880	26	14251
2026-01-15 19:49:42.02	238.70	20.36	-29.5	-29.7	14.2	0.00e+00	0	40	0	11484004352	26	14244
2026-01-15 19:49:43.03	239.04	20.45	-29.4	-29.7	14.2	0.00e+00	0	40	0	11559501824	26	14151
2026-01-15 19:49:44.04	239.39	20.54	-29.5	-29.8	14.2	0.00e+00	0	40	0	11634999296	26	14296
2026-01-15 19:49:45.05	239.74	20.63	-29.4	-29.7	14.2	0.00e+00	0	40	0	11710496768	26	14175
2026-01-15 19:49:46.06	240.09	20.72	-29.3	-29.5	14.3	0.00e+00	0	40	0	11785994240	25	14729
2026-01-15 19:49:47.07	240.44	20.81	-29.2	-29.4	14.3	0.00e+00	0	40	0	11861491712	25	14606
2026-01-15 19:49:48.08	240.79	20.90	-29.2	-29.5	14.3	0.00e+00	0	40	0	11936989184	25	14702
2026-01-15 19:49:49.09	241.15	20.99	-29.3	-29.6	14.2	0.00e+00	0	40	0	12012486656	25	14855
2026-01-15 19:49:50.10	241.51	21.07	-29.2	-29.5	14.3	0.00e+00	0	40	0	12087984128	25	14663
2026-01-15 19:49:51.11	241.87	21.16	-29.2	-29.4	14.3	0.00e+00	0	40	0	12163481600	25	14513
2026-01-15 19:49:52.12	242.24	21.25	-29.3	-29.5	14.3	0.00e+00	0	40	0	12238979072	25	14739
2026-01-15 19:49:53.13	242.60	21.33	-29.3	-29.5	14.3	0.00e+00	0	40	0	12314476544	25	14720
2026-01-15 19:49:54.14	242.97	21.42	-29.1	-29.4	14.3	0.00e+00	0	40	0	12389974016	25	14468
2026-01-15 19:49:55.15	243.34	21.50	-29.1	-29.4	14.3	0.00e+00	0	40	0	12465471488	25	14465
2026-01-15 19:49:56.16	243.72	21.58	-29.1	-29.4	14.3	0.00e+00	0	40	0	12540968960	25	14475
2026-01-15 19:49:57.17	244.09	21.66	-29.0	-29.3	14.3	0.00e+00	0	40	0	12616466432	25	14360
2026-01-15 19:49:58.18	244.47	21.75	-29.1	-29.4	14.3	0.00e+00	0	40	0	12691963904	25	14531
2026-01-15 19:49:59.19	244.85	21.83	-29.0	-29.3	14.4	0.00e+00	0	40	0	12767461376	25	14300
2026-01-15 19:50:00.20	245.23	21.91	-29.0	-29.3	14.4	0.00e+00	0	40	0	12842958848	25	14345
2026-01-15 19:50:01.20	245.61	21.98	-29.0	-29.2	14.4	0.00e+00	0	41	0	12918456320	25	14193
2026-01-15 19:50:02.21	246.00	22.06	-29.0	-29.2	14.4	0.00e+00	0	40	0	12993953792	25	14207
2026-01-15 19:50:03.22	246.39	22.14	-28.9	-29.2	14.4	0.00e+00	0	40	0	13069451264	25	14130
2026-01-15 19:50:04.23	246.78	22.21	-29.0	-29.2	14.4	0.00e+00	0	40	0	13144948736	25	14262
2026-01-15 19:50:05.24	247.17	22.29	-29.0	-29.2	14.4	0.00e+00	0	40	0	13220446208	25	14265
2026-01-15 19:50:06.25	247.56	22.36	-29.0	-29.3	14.3	0.00e+00	0	40	0	13295943680	25	14320
2026-01-15 19:50:07.26	247.96	22.44	-29.0	-29.3	14.4	0.00e+00	0	40	0	13371441152	25	14312
2026-01-15 19:50:08.27	248.36	22.51	-28.9	-29.1	14.4	0.00e+00	0	40	0	13446938624	24	14880
2026-01-15 19:50:09.28	248.76	22.58	-28.8	-29.1	14.4	0.00e+00	0	40	0	13522436096	24	14843
2026-01-15 19:50:10.29	249.16	22.65	-28.8	-29.1	14.4	0.00e+00	0	40	0	13597933568	24	14783
2026-01-15 19:50:11.30	249.57	22.72	-28.7	-29.0	14.4	0.00e+00	0	40	0	13681819648	24	14685
2026-01-15 19:50:12.31	249.97	22.79	-28.7	-29.0	14.4	0.00e+00	0	40	0	13757317120	24	14671
2026-01-15 19:50:13.32	250.38	22.85	-28.8	-29.0	14.4	0.00e+00	0	40	0	13832814592	24	14731
2026-01-15 19:50:14.33	250.79	22.92	-28.8	-29.0	14.4	0.00e+00	0	40	0	13899923456	24	14732
2026-01-15 19:50:15.34	251.21	22.98	-28.8	-29.1	14.4	0.00e+00	0	40	0	13975420928	24	14833
2026-01-15 19:50:16.35	251.62	23.05	-28.9	-29.1	14.4	0.00e+00	0	40	0	14059307008	24	14927
2026-01-15 19:50:17.35	252.03	23.11	-28.7	-29.0	14.4	0.00e+00	0	40	0	14134804480	24	14658
2026-01-15 19:50:18.36	252.45	23.17	-28.7	-28.9	14.4	0.00e+00	0	40	0	14210301952	24	14554
2026-01-15 19:50:19.37	252.87	23.23	-28.7	-28.9	14.4	0.00e+00	0	40	0	14285799424	24	14591
2026-01-15 19:50:20.38	253.29	23.29	-28.7	-29.0	14.5	0.00e+00	0	40	0	14361296896	24	14623
2026-01-15 19:50:21.39	253.71	23.34	-28.7	-29.0	14.4	0.00e+00	0	40	0	14428405760	24	14676
2026-01-15 19:50:22.40	254.14	23.40	-28.8	-29.0	14.4	0.00e+00	0	40	0	14512291840	24	14702
2026-01-15 19:50:23.41	254.57	23.45	-28.9	-29.2	14.3	0.00e+00	0	40	0	14587789312	24	14952
2026-01-15 19:50:24.42	254.99	23.51	-28.8	-29.0	14.4	0.00e+00	0	40	0	14663286784	24	14760
2026-01-15 19:50:25.43	255.42	23.56	-28.8	-29.0	14.4	0.00e+00	0	40	0	14738784256	24	14718
2026-01-15 19:50:26.44	255.85	23.61	-28.8	-29.1	14.4	0.00e+00	0	40	0	14814281728	24	14807
2026-01-15 19:50:27.45	256.29	23.66	-28.9	-29.2	14.4	0.00e+00	0	40	0	14889779200	24	15013
2026-01-15 19:50:28.46	256.72	23.70	-28.7	-28.9	14.5	0.00e+00	0	40	0	14965276672	24	14537
2026-01-15 19:50:29.47	257.16	23.75	-28.7	-28.9	14.5	0.00e+00	0	40	0	15040774144	24	14550
2026-01-15 19:50:30.48	257.59	23.79	-28.6	-28.9	14.5	0.00e+00	0	40	0	15116271616	24	14494
2026-01-15 19:50:31.49	258.03	23.84	-28.6	-28.8	14.5	0.00e+00	0	40	0	15191769088	24	14438
2026-01-15 19:50:32.50	258.47	23.88	-28.7	-28.9	14.5	0.00e+00	0	40	0	15267266560	24	14581
2026-01-15 19:50:33.51	258.91	23.92	-28.6	-28.8	14.5	0.00e+00	0	40	0	15342764032	24	14406
2026-01-15 19:50:34.52	259.35	23.95	-28.6	-28.8	14.5	0.00e+00	0	40	0	15418261504	24	14399
2026-01-15 19:50:35.52	259.79	23.99	-28.6	-28.8	14.5	0.00e+00	0	40	0	15493758976	24	14401
2026-01-15 19:50:36.53	260.23	24.03	-28.5	-28.7	14.5	0.00e+00	0	40	0	15569256448	24	14195
2026-01-15 19:50:37.54	260.68	24.06	-28.6	-28.8	14.5	0.00e+00	0	40	0	15644753920	24	14390
2026-01-15 19:50:38.55	261.13	24.09	-28.5	-28.7	14.5	0.00e+00	0	40	0	15720251392	24	14226
2026-01-15 19:50:39.56	261.57	24.12	-28.5	-28.8	14.5	0.00e+00	0	40	0	15795748864	24	14291
2026-01-15 19:50:40.57	262.02	24.15	-28.4	-28.7	14.5	0.00e+00	0	40	0	15871246336	24	14154
2026-01-15 19:50:41.58	262.47	24.18	-28.5	-28.7	14.5	0.00e+00	0	40	0	15946743808	24	14226
2026-01-15 19:50:42.59	262.92	24.20	-28.6	-28.8	14.5	0.00e+00	0	40	0	16022241280	24	14371
2026-01-15 19:50:43.60	263.37	24.23	-28.5	-28.7	14.5	0.00e+00	0	40	0	16097738752	24	14258
2026-01-15 19:50:44.61	263.82	24.25	-28.5	-28.7	14.5	0.00e+00	0	40	0	16173236224	24	14233
2026-01-15 19:50:45.62	264.27	24.27	-28.5	-28.8	14.5	0.00e+00	0	40	0	16248733696	24	14311
2026-01-15 19:50:46.63	264.72	24.29	-28.5	-28.7	14.5	0.00e+00	0	40	0	16324231168	24	14217
2026-01-15 19:50:47.64	265.18	24.30	-28.5	-28.7	14.5	0.00e+00	0	40	0	16399728640	24	14240
2026-01-15 19:50:48.65	265.63	24.32	-28.4	-28.7	14.5	0.00e+00	0	41	0	16483614720	24	14159
2026-01-15 19:50:49.66	266.08	24.33	-28.5	-28.7	14.5	0.00e+00	0	41	0	16559112192	24	14202
2026-01-15 19:50:50.67	266.54	24.35	-28.5	-28.7	14.5	0.00e+00	0	40	0	16626221056	24	14195
2026-01-15 19:50:51.68	266.99	24.36	-28.5	-28.7	14.5	0.00e+00	0	40	0	16701718528	24	14217
2026-01-15 19:50:52.69	267.45	24.36	-28.4	-28.7	14.5	0.00e+00	0	40	0	16777216000	24	14179
2026-01-15 19:50:53.70	267.90	24.37	-28.5	-28.7	14.5	0.00e+00	0	40	0	16861102080	24	14233
2026-01-15 19:50:54.71	268.36	24.38	-28.5	-28.7	14.5	0.00e+00	0	40	0	16936599552	24	14265
2026-01-15 19:50:55.72	268.81	24.38	-28.5	-28.8	14.5	0.00e+00	0	40	0	17012097024	24	14334
2026-01-15 19:50:56.73	269.27	24.38	-28.5	-28.7	14.5	0.00e+00	0	40	0	17087594496	24	14196
2026-01-15 19:50:57.74	269.72	24.38	-28.6	-28.8	14.4	0.00e+00	0	41	0	17154703360	24	14398
2026-01-15 19:50:58.75	270.18	24.38	-28.6	-28.8	14.5	0.00e+00	0	40	0	17238589440	24	14365
2026-01-15 19:50:59.76	270.63	24.38	-28.5	-28.8	14.5	0.00e+00	0	40	0	17314086912	24	14321
2026-01-15 19:51:00.77	271.09	24.37	-28.5	-28.8	14.5	0.00e+00	0	40	0	17389584384	24	14281
2026-01-15 19:51:01.78	271.54	24.36	-28.6	-28.8	14.5	0.00e+00	0	40	0	17465081856	24	14401
2026-01-15 19:51:02.79	272.00	24.35	-28.7	-28.9	14.5	0.00e+00	0	40	0	17540579328	24	14579
2026-01-15 19:51:03.79	272.45	24.34	-28.7	-28.9	14.5	0.00e+00	0	40	0	17616076800	24	14516
2026-01-15 19:51:04.81	272.90	24.33	-28.6	-28.8	14.5	0.00e+00	0	40	0	17691574272	24	14368
2026-01-15 19:51:05.82	273.36	24.32	-28.6	-28.8	14.5	0.00e+00	0	40	0	17767071744	24	14395
2026-01-15 19:51:06.83	273.81	24.30	-28.6	-28.9	14.5	0.00e+00	0	40	0	17842569216	24	14442
2026-01-15 19:51:07.83	274.26	24.29	-28.6	-28.8	14.5	0.00e+00	0	40	0	17918066688	24	14437
2026-01-15 19:51:08.84	274.71	24.27	-28.7	-29.0	14.5	0.00e+00	0	40	0	17993564160	24	14624
2026-01-15 19:51:09.85	275.16	24.25	-28.7	-28.9	14.5	0.00e+00	0	40	0	18069061632	24	14574
2026-01-15 19:51:10.86	275.61	24.22	-28.7	-29.0	14.5	0.00e+00	0	40	0	18144559104	24	14610
2026-01-15 19:51:11.87	276.06	24.20	-28.7	-28.9	14.5	0.00e+00	0	40	0	18220056576	24	14523
2026-01-15 19:51:12.88	276.51	24.17	-28.7	-29.0	14.5	0.00e+00	0	40	0	18295554048	24	14646
2026-01-15 19:51:13.89	276.96	24.15	-28.8	-29.0	14.5	0.00e+00	0	40	0	18371051520	24	14738
2026-01-15 19:51:14.90	277.41	24.12	-28.7	-28.9	14.5	0.00e+00	0	40	0	18446548992	24	14563
2026-01-15 19:51:15.91	277.85	24.09	-28.7	-29.0	14.5	0.00e+00	0	41	0	18522046464	24	14678
2026-01-15 19:51:16.92	278.30	24.06	-28.7	-29.0	14.5	0.00e+00	0	40	0	18597543936	24	14628
2026-01-15 19:51:17.93	278.74	24.02	-28.7	-29.0	14.5	0.00e+00	0	40	0	18673041408	24	14680
2026-01-15 19:51:18.94	279.18	23.99	-28.7	-28.9	14.5	0.00e+00	0	40	0	18748538880	24	14583
2026-01-15 19:51:19.95	279.63	23.95	-28.8	-29.0	14.4	0.00e+00	0	40	0	18824036352	24	14726
2026-01-15 19:51:20.96	280.07	23.91	-28.8	-29.0	14.4	0.00e+00	0	41	0	18899533824	24	14753
2026-01-15 19:51:21.96	280.50	23.87	-28.8	-29.1	14.5	0.00e+00	0	41	0	18975031296	24	14807
2026-01-15 19:51:22.97	280.94	23.83	-28.8	-29.0	14.5	0.00e+00	0	40	0	19050528768	24	14737
2026-01-15 19:51:23.98	281.38	23.79	-28.8	-29.0	14.4	0.00e+00	0	40	0	19126026240	24	14764
2026-01-15 19:51:24.99	281.81	23.74	-28.9	-29.1	14.4	0.00e+00	0	41	0	19201523712	24	14910
2026-01-15 19:51:26.01	282.25	23.70	-28.9	-29.2	14.4	0.00e+00	0	40	0	19285409792	24	15023
2026-01-15 19:51:27.01	282.68	23.65	-29.0	-29.2	14.4	0.00e+00	0	40	0	19352518656	24	15026
2026-01-15 19:51:28.02	283.11	23.60	-28.8	-29.0	14.5	0.00e+00	0	40	0	19428016128	24	14751
2026-01-15 19:51:29.03	283.54	23.55	-28.9	-29.1	14.5	0.00e+00	0	41	0	19503513600	24	14863
2026-01-15 19:51:30.04	283.97	23.50	-28.9	-29.1	14.5	0.00e+00	0	40	0	19579011072	24	14943
2026-01-15 19:51:31.05	284.39	23.45	-28.8	-29.1	14.5	0.00e+00	0	40	0	19662897152	24	14810
2026-01-15 19:51:32.06	284.82	23.40	-28.9	-29.2	14.5	0.00e+00	0	41	0	19738394624	24	14989
2026-01-15 19:51:33.07	285.24	23.34	-29.0	-29.3	14.4	0.00e+00	0	40	0	19813892096	24	15136
2026-01-15 19:51:34.08	285.66	23.28	-28.9	-29.2	14.4	0.00e+00	0	40	0	19881000960	24	15059
2026-01-15 19:51:35.09	286.08	23.23	-29.0	-29.2	14.4	0.00e+00	0	40	0	19956498432	24	15090
2026-01-15 19:51:36.10	286.50	23.17	-29.1	-29.3	14.4	0.00e+00	0	40	0	20040384512	24	15205
2026-01-15 19:51:37.11	286.92	23.11	-29.0	-29.2	14.4	0.00e+00	0	40	0	20115881984	24	15093
2026-01-15 19:51:38.12	287.33	23.04	-28.9	-29.2	14.5	0.00e+00	0	41	0	20191379456	24	15018
2026-01-15 19:51:39.12	287.74	22.98	-29.0	-29.2	14.4	0.00e+00	0	40	0	20266876928	24	15099
2026-01-15 19:51:40.14	288.16	22.92	-29.0	-29.3	14.4	0.00e+00	0	41	0	20342374400	24	15166
2026-01-15 19:51:41.14	288.56	22.85	-29.1	-29.3	14.4	0.00e+00	0	40	0	20417871872	24	15239
2026-01-15 19:51:42.15	288.97	22.79	-29.0	-29.3	14.5	0.00e+00	0	41	0	20493369344	24	15134
2026-01-15 19:51:43.16	289.37	22.72	-29.2	-29.5	14.4	0.00e+00	0	40	0	20568866816	24	15488
2026-01-15 19:51:44.17	289.78	22.65	-29.1	-29.4	14.4	0.00e+00	0	40	0	20644364288	24	15322
2026-01-15 19:51:45.18	290.18	22.58	-29.2	-29.5	14.4	0.00e+00	0	41	0	20719861760	24	15516
2026-01-15 19:51:46.19	290.58	22.51	-29.1	-29.3	14.4	0.00e+00	0	40	0	20795359232	24	15275
2026-01-15 19:51:47.20	290.97	22.44	-29.2	-29.4	14.4	0.00e+00	0	40	0	20870856704	24	15417
2026-01-15 19:51:48.21	291.37	22.36	-29.3	-29.5	14.4	0.00e+00	0	41	0	20946354176	24	15579
2026-01-15 19:51:49.22	291.76	22.29	-29.1	-29.4	14.4	0.00e+00	0	41	0	21021851648	24	15357
2026-01-15 19:51:50.23	292.15	22.22	-29.2	-29.5	14.4	0.00e+00	0	40	0	21097349120	24	15488
2026-01-15 19:51:51.24	292.54	22.14	-29.3	-29.5	14.4	0.00e+00	0	41	0	21172846592	24	15616
2026-01-15 19:51:52.25	292.93	22.06	-29.2	-29.5	14.4	0.00e+00	0	41	0	21248344064	24	15555
2026-01-15 19:51:53.26	293.31	21.99	-29.3	-29.5	14.4	0.00e+00	0	40	0	21323841536	24	15635
2026-01-15 19:51:54.27	293.69	21.91	-29.3	-29.5	14.4	0.00e+00	0	40	0	21399339008	24	15620
2026-01-15 19:51:55.28	294.07	21.83	-29.3	-29.6	14.3	0.00e+00	0	41	0	21474836480	24	15691
2026-01-15 19:51:56.29	294.45	21.75	-29.4	-29.6	14.3	0.00e+00	0	41	0	21550333952	24	15796
2026-01-15 19:51:57.30	294.83	21.67	-29.3	-29.6	14.4	0.00e+00	0	40	0	21625831424	24	15680
2026-01-15 19:51:58.31	295.20	21.58	-29.4	-29.6	14.3	0.00e+00	0	41	0	21701328896	24	15823
2026-01-15 19:51:59.32	295.57	21.50	-29.4	-29.7	14.4	0.00e+00	0	41	0	21776826368	24	15863
2026-01-15 19:52:00.33	295.94	21.42	-29.6	-29.8	14.3	0.00e+00	0	41	0	21852323840	24	16156
2026-01-15 19:52:01.34	296.31	21.33	-29.4	-29.7	14.3	0.00e+00	0	41	0	21927821312	24	15913
2026-01-15 19:52:02.35	296.67	21.25	-29.5	-29.8	14.3	0.00e+00	0	40	0	22003318784	24	16123
2026-01-15 19:52:03.36	297.03	21.16	-29.6	-29.9	14.3	0.00e+00	0	41	0	22078816256	25	15324
2026-01-15 19:52:04.37	297.39	21.08	-29.5	-29.8	14.3	0.00e+00	0	41	0	22154313728	25	15201
2026-01-15 19:52:05.38	297.75	20.99	-29.6	-29.9	14.3	0.00e+00	0	41	0	22229811200	25	15388
2026-01-15 19:52:06.38	298.10	20.91	-29.7	-29.9	14.3	0.00e+00	0	41	0	22305308672	25	15471
2026-01-15 19:52:07.39	298.46	20.82	-29.7	-29.9	14.3	0.00e+00	0	40	0	22380806144	25	15447
2026-01-15 19:52:08.40	298.81	20.73	-29.6	-29.9	14.3	0.00e+00	0	41	0	22464692224	25	15302
2026-01-15 19:52:09.41	299.16	20.64	-29.7	-29.9	14.3	0.00e+00	0	41	0	22540189696	25	15444
2026-01-15 19:52:10.42	299.50	20.55	-29.7	-30.0	14.3	0.00e+00	0	40	0	22607298560	25	15499
2026-01-15 19:52:11.43	299.85	20.46	-29.7	-29.9	14.3	0.00e+00	0	41	0	22682796032	25	15422
2026-01-15 19:52:12.44	300.19	20.37	-29.7	-29.9	14.3	0.00e+00	0	41	0	22758293504	25	15451
2026-01-15 19:52:13.45	300.53	20.28	-29.8	-30.0	14.3	0.00e+00	0	41	0	22842179584	25	15583
2026-01-15 19:52:14.46	300.87	20.19	-29.8	-30.0	14.3	0.00e+00	0	41	0	22917677056	25	15618
2026-01-15 19:52:15.47	301.20	20.09	-29.8	-30.0	14.3	0.00e+00	0	41	0	22993174528	25	15621
2026-01-15 19:52:16.48	301.53	20.00	-29.8	-30.0	14.3	0.00e+00	0	41	0	23068672000	25	15642
2026-01-15 19:52:17.49	301.86	19.91	-29.8	-30.1	14.3	0.00e+00	0	40	0	23144169472	25	15743
2026-01-15 19:52:18.50	302.19	19.82	-29.9	-30.2	14.2	0.00e+00	0	41	0	23219666944	25	15889
2026-01-15 19:52:19.51	302.52	19.72	-30.0	-30.2	14.2	0.00e+00	0	41	0	23295164416	25	15950
2026-01-15 19:52:20.52	302.84	19.63	-29.9	-30.2	14.2	0.00e+00	0	41	0	23370661888	25	15860
2026-01-15 19:52:21.53	303.16	19.53	-29.9	-30.2	14.2	0.00e+00	0	41	0	23446159360	25	15924
2026-01-15 19:52:22.54	303.48	19.44	-29.9	-30.1	14.2	0.00e+00	0	41	0	23521656832	25	15800
2026-01-15 19:52:23.54	303.80	19.34	-30.0	-30.3	14.2	0.00e+00	0	41	0	23597154304	25	16017
2026-01-15 19:52:24.55	304.11	19.25	-30.0	-30.3	14.2	0.00e+00	0	41	0	23672651776	25	16104
2026-01-15 19:52:25.56	304.42	19.15	-30.1	-30.4	14.1	0.00e+00	0	41	0	23748149248	25	16264
2026-01-15 19:52:26.57	304.73	19.06	-30.2	-30.5	14.1	0.00e+00	0	41	0	23823646720	26	15474
2026-01-15 19:52:27.58	305.04	18.96	-30.1	-30.4	14.1	0.00e+00	0	41	0	23899144192	26	15351
2026-01-15 19:52:28.59	305.35	18.86	-30.1	-30.4	14.2	0.00e+00	0	41	0	23974641664	26	15333
2026-01-15 19:52:29.60	305.65	18.77	-30.2	-30.5	14.1	0.00e+00	0	41	0	24050139136	26	15532
2026-01-15 19:52:30.61	305.95	18.67	-30.1	-30.4	14.2	0.00e+00	0	41	0	24125636608	26	15398
2026-01-15 19:52:31.62	306.25	18.57	-30.2	-30.5	14.1	0.00e+00	0	41	0	24201134080	26	15503
2026-01-15 19:52:32.63	306.55	18.48	-30.3	-30.5	14.1	0.00e+00	0	41	0	24276631552	26	15648
2026-01-15 19:52:33.64	306.84	18.38	-30.3	-30.5	14.1	0.00e+00	0	41	0	24352129024	26	15607
2026-01-15 19:52:34.65	307.14	18.28	-30.4	-30.6	14.1	0.00e+00	0	41	0	24427626496	26	15830
2026-01-15 19:52:35.66	307.43	18.18	-30.4	-30.7	14.1	0.00e+00	0	41	0	24503123968	26	15923
2026-01-15 19:52:36.67	307.72	18.09	-30.6	-30.8	14.0	0.00e+00	0	41	0	24578621440	26	16170
2026-01-15 19:52:37.68	308.00	17.99	-30.5	-30.7	14.1	0.00e+00	0	41	0	24654118912	27	15112
2026-01-15 19:52:38.69	308.29	17.89	-30.5	-30.7	14.1	0.00e+00	0	41	0	24729616384	27	15105
2026-01-15 19:52:39.70	308.57	17.79	-30.6	-30.8	14.0	0.00e+00	0	41	0	24805113856	27	15250
2026-01-15 19:52:40.71	308.85	17.69	-30.4	-30.7	14.1	0.00e+00	0	41	0	24880611328	27	15020
2026-01-15 19:52:41.71	309.12	17.60	-30.6	-30.9	14.0	0.00e+00	0	41	0	24956108800	27	15328
2026-01-15 19:52:42.72	309.40	17.50	-30.6	-30.9	14.0	0.00e+00	0	41	0	25031606272	27	15345
2026-01-15 19:52:43.73	309.67	17.40	-30.6	-30.9	14.0	0.00e+00	0	41	0	25107103744	27	15357
2026-01-15 19:52:44.74	309.95	17.30	-30.6	-30.9	14.0	0.00e+00	0	41	0	25182601216	27	15369
2026-01-15 19:52:45.75	310.22	17.20	-30.7	-30.9	14.0	0.00e+00	0	41	0	25266487296	27	15442
2026-01-15 19:52:46.76	310.48	17.10	-30.6	-30.9	14.0	0.00e+00	0	41	0	25333596160	27	15378
2026-01-15 19:52:47.77	310.75	17.00	-30.7	-31.0	14.0	0.00e+00	0	41	0	25409093632	27	15496
2026-01-15 19:52:48.78	311.01	16.91	-30.8	-31.1	14.0	0.00e+00	0	41	0	25484591104	27	15698
2026-01-15 19:52:49.79	311.27	16.81	-30.8	-31.1	13.9	0.00e+00	0	41	0	25560088576	27	15741
2026-01-15 19:52:50.80	311.53	16.71	-30.7	-31.0	14.0	0.00e+00	0	41	0	25643974656	27	15540
2026-01-15 19:52:51.81	311.79	16.61	-30.8	-31.0	13.9	0.00e+00	0	41	0	25719472128	27	15617
2026-01-15 19:52:52.82	312.05	16.51	-30.8	-31.1	13.9	0.00e+00	0	41	0	25794969600	27	15755
2026-01-15 19:52:53.83	312.30	16.41	-31.0	-31.2	13.9	0.00e+00	0	41	0	25862078464	27	15989
2026-01-15 19:52:54.84	312.55	16.31	-30.8	-31.0	13.9	0.00e+00	0	41	0	25937575936	27	15635
2026-01-15 19:52:55.85	312.81	16.21	-30.8	-31.0	13.9	0.00e+00	0	41	0	26021462016	27	15641
2026-01-15 19:52:56.86	313.05	16.12	-30.9	-31.2	13.9	0.00e+00	0	41	0	26096959488	27	15882
2026-01-15 19:52:57.87	313.30	16.02	-30.9	-31.1	13.9	0.00e+00	0	41	0	26172456960	27	15832
2026-01-15 19:52:58.87	313.54	15.92	-31.0	-31.2	13.9	0.00e+00	0	41	0	26247954432	27	16001
2026-01-15 19:52:59.89	313.79	15.82	-31.0	-31.3	13.8	0.00e+00	0	41	0	26315063296	27	16020
2026-01-15 19:53:00.89	314.03	15.72	-31.0	-31.3	13.8	0.00e+00	0	41	0	26398949376	27	16144
2026-01-15 19:53:01.90	314.26	15.63	-31.0	-31.3	13.8	0.00e+00	0	41	0	26474446848	27	16113
2026-01-15 19:53:02.91	314.50	15.53	-31.0	-31.3	13.8	0.00e+00	0	41	0	26549944320	27	16028
2026-01-15 19:53:03.92	314.74	15.43	-31.1	-31.3	13.8	0.00e+00	0	41	0	26625441792	27	16164
2026-01-15 19:53:04.93	314.97	15.33	-31.0	-31.3	13.8	0.00e+00	0	41	0	26700939264	28	15245
2026-01-15 19:53:05.94	315.20	15.24	-31.0	-31.3	13.8	0.00e+00	0	41	0	26776436736	28	15195
2026-01-15 19:53:06.95	315.43	15.14	-31.1	-31.3	13.8	0.00e+00	0	41	0	26851934208	28	15266
2026-01-15 19:53:07.96	315.66	15.04	-31.1	-31.4	13.8	0.00e+00	0	41	0	26927431680	28	15368
2026-01-15 19:53:08.97	315.89	14.94	-31.2	-31.5	13.7	0.00e+00	0	41	0	27002929152	28	15614
2026-01-15 19:53:09.98	316.11	14.85	-31.2	-31.5	13.8	0.00e+00	0	41	0	27078426624	28	15558
2026-01-15 19:53:10.99	316.34	14.75	-31.2	-31.5	13.8	0.00e+00	0	41	0	27153924096	28	15536
2026-01-15 19:53:12.00	316.56	14.65	-31.2	-31.4	13.8	0.00e+00	0	41	0	27229421568	28	15470
2026-01-15 19:53:13.00	316.78	14.56	-31.2	-31.4	13.8	0.00e+00	0	41	0	27304919040	28	15469
2026-01-15 19:53:14.02	317.00	14.46	-31.2	-31.5	13.7	0.00e+00	0	41	0	27380416512	28	15579
2026-01-15 19:53:15.02	317.21	14.37	-31.3	-31.6	13.7	0.00e+00	0	41	0	27455913984	28	15767
2026-01-15 19:53:16.03	317.43	14.27	-31.3	-31.6	13.7	0.00e+00	0	41	0	27531411456	28	15730
2026-01-15 19:53:17.04	317.64	14.17	-31.3	-31.6	13.7	0.00e+00	0	41	0	27606908928	28	15784
2026-01-15 19:53:18.05	317.85	14.08	-31.5	-31.7	13.7	0.00e+00	0	41	0	27682406400	28	16009
2026-01-15 19:53:19.06	318.06	13.98	-31.4	-31.7	13.6	0.00e+00	0	41	0	27757903872	28	15896
2026-01-15 19:53:20.07	318.27	13.89	-31.4	-31.7	13.7	0.00e+00	0	41	0	27833401344	28	15896
2026-01-15 19:53:21.08	318.48	13.79	-31.5	-31.8	13.6	0.00e+00	0	41	0	27908898816	28	16044
2026-01-15 19:53:22.09	318.68	13.70	-31.5	-31.8	13.6	0.00e+00	0	41	0	27984396288	28	16032
2026-01-15 19:53:23.10	318.89	13.60	-31.5	-31.8	13.6	0.00e+00	0	41	0	28059893760	28	16111
2026-01-15 19:53:24.11	319.09	13.51	-31.6	-31.9	13.6	0.00e+00	0	41	0	28135391232	28	16272
2026-01-15 19:53:25.12	319.29	13.41	-31.7	-32.0	13.6	0.00e+00	0	41	0	28210888704	29	15504
2026-01-15 19:53:26.12	319.49	13.32	-31.7	-32.0	13.6	0.00e+00	0	41	0	28286386176	29	15481
2026-01-15 19:53:27.14	319.69	13.22	-31.7	-32.0	13.5	0.00e+00	0	41	0	28361883648	29	15594
2026-01-15 19:53:28.15	319.89	13.13	-31.7	-32.0	13.6	0.00e+00	0	41	0	28445769728	29	15590
2026-01-15 19:53:29.16	320.08	13.04	-31.8	-32.1	13.5	0.00e+00	0	41	0	28521267200	29	15683
2026-01-15 19:53:30.16	320.27	12.95	-31.8	-32.1	13.5	0.00e+00	0	41	0	28588376064	29	15671
2026-01-15 19:53:31.17	320.47	12.85	-31.7	-32.0	13.5	0.00e+00	0	41	0	28663873536	29	15534
2026-01-15 19:53:32.18	320.66	12.76	-31.8	-32.0	13.5	0.00e+00	0	41	0	28739371008	29	15627
2026-01-15 19:53:33.19	320.85	12.67	-31.8	-32.1	13.5	0.00e+00	0	41	0	28814868480	29	15710
2026-01-15 19:53:34.20	321.03	12.57	-32.0	-32.2	13.4	0.00e+00	0	41	0	28898754560	29	16013
2026-01-15 19:53:35.21	321.22	12.48	-31.8	-32.1	13.5	0.00e+00	0	41	0	28974252032	29	15778
2026-01-15 19:53:36.22	321.41	12.39	-32.0	-32.3	13.4	0.00e+00	0	41	0	29049749504	29	16037
2026-01-15 19:53:37.23	321.59	12.30	-31.8	-32.1	13.4	0.00e+00	0	41	0	29116858368	29	15711
2026-01-15 19:53:38.24	321.77	12.21	-32.0	-32.2	13.4	0.00e+00	0	41	0	29192355840	29	15969
2026-01-15 19:53:39.25	321.95	12.12	-32.0	-32.3	13.4	0.00e+00	0	41	0	29276241920	29	16076
2026-01-15 19:53:40.26	322.13	12.02	-32.1	-32.3	13.4	0.00e+00	0	41	0	29351739392	29	16175
2026-01-15 19:53:41.27	322.31	11.93	-32.2	-32.5	13.3	0.00e+00	0	41	0	29427236864	30	15564
2026-01-15 19:53:42.28	322.49	11.84	-32.0	-32.3	13.4	0.00e+00	0	41	0	29502734336	30	15202
2026-01-15 19:53:43.29	322.67	11.75	-32.2	-32.5	13.3	0.00e+00	0	41	0	29578231808	30	15585
2026-01-15 19:53:44.30	322.84	11.66	-32.3	-32.6	13.3	0.00e+00	0	41	0	29653729280	30	15741
2026-01-15 19:53:45.31	323.01	11.57	-32.3	-32.5	13.3	0.00e+00	0	41	0	29729226752	30	15605
2026-01-15 19:53:46.32	323.19	11.48	-32.3	-32.5	13.3	0.00e+00	0	41	0	29804724224	30	15646
2026-01-15 19:53:47.32	323.36	11.39	-32.4	-32.6	13.2	0.00e+00	0	41	0	29880221696	30	15832
2026-01-15 19:53:48.33	323.53	11.30	-32.4	-32.7	13.2	0.00e+00	0	41	0	29955719168	30	15977
2026-01-15 19:53:49.34	323.69	11.22	-32.4	-32.7	13.2	0.00e+00	0	41	0	30031216640	30	15864
2026-01-15 19:53:50.35	323.86	11.13	-32.4	-32.7	13.2	6.90e-06	0	41	0	30106714112	30	15857
2026-01-15 19:53:51.36	324.03	11.04	-32.3	-32.6	13.3	0.00e+00	0	41	0	30182211584	30	15690
2026-01-15 19:53:52.37	324.19	10.95	-32.4	-32.7	13.2	0.00e+00	0	41	0	30257709056	30	15879
2026-01-15 19:53:53.38	324.36	10.86	-32.3	-32.6	13.3	0.00e+00	0	41	0	30333206528	30	15780
2026-01-15 19:53:54.39	324.52	10.77	-32.4	-32.7	13.2	0.00e+00	0	41	0	30408704000	30	15885
2026-01-15 19:53:55.40	324.68	10.69	-32.5	-32.7	13.2	0.00e+00	0	41	0	30484201472	30	16001
2026-01-15 19:53:56.41	324.84	10.60	-32.6	-32.9	13.1	0.00e+00	0	41	0	30559698944	31	15363
2026-01-15 19:53:57.26	324.98	10.53	-32.6	-32.9	13.1	0.00e+00	0	41	0	30635196416	31	15411
2026-01-15 19:53:58.41	325.16	10.43	-32.5	-32.8	13.2	0.00e+00	0	41	0	30719082496	31	15210
2026-01-15 19:53:59.28	325.29	10.35	-32.6	-32.9	13.1	0.00e+00	0	41	0	30786191360	31	15385
2026-01-15 19:54:00.43	325.47	10.25	-32.6	-32.9	13.1	0.00e+00	0	41	0	30870077440	31	15340
2026-01-15 19:54:01.30	325.60	10.18	-32.7	-33.0	13.0	0.00e+00	0	41	0	30937186304	31	15506
2026-01-15 19:54:02.45	325.78	10.08	-32.8	-33.1	13.0	0.00e+00	0	41	0	31029460992	31	15727
2026-01-15 19:54:03.32	325.91	10.01	-32.9	-33.2	12.9	0.00e+00	0	41	0	31088181248	31	15951
2026-01-15 19:54:04.47	326.08	9.91	-32.8	-33.1	13.0	0.00e+00	0	41	0	31172067328	31	15755
2026-01-15 19:54:05.34	326.21	9.84	-32.7	-33.0	13.0	0.00e+00	0	41	0	31239176192	31	15508
2026-01-15 19:54:06.49	326.38	9.74	-32.7	-33.0	13.0	0.00e+00	0	41	0	31331450880	31	15604
2026-01-15 19:54:07.35	326.51	9.67	-32.8	-33.1	13.0	0.00e+00	0	41	0	31390171136	31	15697
2026-01-15 19:54:08.51	326.68	9.57	-32.8	-33.1	13.0	0.00e+00	0	41	0	31482445824	31	15781
2026-01-15 19:54:09.37	326.80	9.50	-32.7	-33.0	13.0	0.00e+00	0	41	0	31541166080	31	15521
2026-01-15 19:54:10.53	326.97	9.40	-32.9	-33.2	12.9	0.00e+00	0	41	0	31633440768	31	15955
2026-01-15 19:54:11.39	327.09	9.33	-33.0	-33.3	12.9	0.00e+00	0	41	0	31700549632	31	16039
2026-01-15 19:54:12.55	327.26	9.24	-33.0	-33.3	12.9	0.00e+00	0	41	0	31784435712	31	16060
2026-01-15 19:54:13.41	327.38	9.17	-33.0	-33.3	12.9	0.00e+00	0	41	0	31843155968	31	16186
2026-01-15 19:54:14.56	327.54	9.07	-33.1	-33.4	12.8	0.00e+00	0	41	0	31935430656	32	15390
2026-01-15 19:54:15.43	327.66	9.00	-33.1	-33.4	12.8	0.00e+00	0	41	0	31994150912	32	15380
2026-01-15 19:54:16.59	327.82	8.91	-33.0	-33.3	12.9	0.00e+00	0	41	0	32086425600	32	15182
2026-01-15 19:54:17.45	327.94	8.84	-33.1	-33.4	12.8	0.00e+00	0	41	0	32153534464	32	15448
2026-01-15 19:54:18.60	328.10	8.74	-33.3	-33.6	12.8	0.00e+00	0	41	0	32237420544	32	15681
2026-01-15 19:54:19.47	328.22	8.67	-33.1	-33.4	12.8	0.00e+00	0	41	0	32304529408	32	15344
2026-01-15 19:54:20.62	328.37	8.58	-33.3	-33.6	12.7	0.00e+00	0	41	0	32388415488	32	15733
2026-01-15 19:54:21.49	328.49	8.51	-33.3	-33.6	12.7	0.00e+00	0	41	0	32447135744	32	15788
2026-01-15 19:54:22.64	328.64	8.42	-33.5	-33.8	12.6	1.38e-05	0	41	0	32539410432	32	16119
2026-01-15 19:54:23.51	328.76	8.35	-33.5	-33.8	12.6	0.00e+00	0	41	0	32606519296	32	16129
2026-01-15 19:54:24.66	328.91	8.26	-33.5	-33.8	12.6	6.90e-06	0	41	0	32690405376	32	16052
2026-01-15 19:54:25.53	329.02	8.19	-33.3	-33.6	12.7	0.00e+00	0	41	0	32757514240	32	15823
2026-01-15 19:54:26.68	329.17	8.10	-33.6	-33.9	12.5	0.00e+00	0	41	0	32841400320	32	16344
2026-01-15 19:54:27.55	329.28	8.03	-33.4	-33.7	12.6	6.90e-06	0	41	0	32908509184	32	15934
2026-01-15 19:54:28.70	329.43	7.94	-33.7	-34.0	12.5	1.38e-05	0	41	0	32992395264	33	15570
2026-01-15 19:54:29.57	329.54	7.87	-33.9	-34.2	12.4	0.00e+00	0	41	0	33059504128	33	15844
2026-01-15 19:54:30.72	329.68	7.78	-33.9	-34.2	12.4	0.00e+00	0	41	0	33143390208	33	15853
2026-01-15 19:54:31.58	329.79	7.71	-34.2	-34.5	12.2	2.08e-05	0	41	0	33210499072	34	15630
2026-01-15 19:54:32.74	329.94	7.62	-34.2	-34.6	12.2	0.00e+00	0	41	0	33294385152	34	15688
2026-01-15 19:54:33.60	330.04	7.55	-34.6	-34.9	12.0	6.90e-06	0	41	0	33361494016	35	15368
2026-01-15 19:54:34.76	330.18	7.46	-34.7	-35.0	11.9	5.54e-05	0	41	0	33445380096	35	15559
2026-01-15 19:54:35.62	330.29	7.40	-34.3	-34.6	12.1	2.08e-05	0	41	0	33512488960	35	14944
2026-01-15 19:54:36.78	330.43	7.31	-34.2	-34.6	12.2	2.77e-05	0	41	0	33596375040	35	14777
2026-01-15 19:54:37.64	330.53	7.24	-34.2	-34.5	12.2	6.90e-06	0	41	0	33663483904	35	14674
2026-01-15 19:54:38.79	330.67	7.15	-34.1	-34.5	12.2	0.00e+00	0	41	0	33755758592	35	14609
2026-01-15 19:54:39.66	330.77	7.09	-34.1	-34.4	12.3	6.90e-06	0	41	0	33814478848	35	14546
2026-01-15 19:54:40.81	330.91	7.00	-34.0	-34.4	12.2	6.90e-06	0	41	0	33898364928	35	14473
2026-01-15 19:54:41.68	331.01	6.93	-34.3	-34.6	12.1	0.00e+00	0	41	0	33965473792	35	14883
2026-01-15 19:54:42.83	331.15	6.85	-34.1	-34.5	12.2	6.90e-06	0	41	0	34049359872	35	14649
2026-01-15 19:54:43.70	331.25	6.78	-34.3	-34.6	12.1	1.38e-05	0	41	0	34116468736	35	14888
2026-01-15 19:54:44.85	331.38	6.69	-34.1	-34.4	12.2	2.77e-05	0	41	0	34208743424	35	14606
2026-01-15 19:54:45.72	331.48	6.63	-33.9	-34.2	12.3	4.16e-05	0	41	0	34267463680	35	14219
2026-01-15 19:54:46.87	331.61	6.54	-34.0	-34.3	12.2	6.90e-06	0	41	0	34359738368	34	15159
2026-01-15 19:54:47.73	331.71	6.48	-34.3	-34.6	12.1	6.90e-06	0	41	0	34418458624	34	15766
2026-01-15 19:54:48.89	331.84	6.39	-34.1	-34.4	12.2	1.38e-05	0	41	0	34502344704	34	15468
2026-01-15 19:54:49.76	331.94	6.33	-33.9	-34.3	12.2	0.00e+00	0	41	0	34569453568	34	15122
2026-01-15 19:54:50.91	332.06	6.24	-34.0	-34.4	12.2	2.77e-05	0	41	0	34661728256	34	15307
2026-01-15 19:54:51.77	332.16	6.18	-34.4	-34.7	12.0	6.90e-06	0	41	0	34720448512	34	15973
2026-01-15 19:54:52.93	332.29	6.09	-34.5	-34.9	11.9	2.77e-05	0	41	0	34812723200	34	16249
2026-01-15 19:54:53.79	332.38	6.03	-34.4	-34.7	12.0	3.46e-05	0	41	0	34879832064	34	15905
2026-01-15 19:54:54.95	332.51	5.95	-34.7	-35.1	11.7	3.46e-05	0	41	0	34963718144	35	15680
2026-01-15 19:54:55.81	332.60	5.88	-34.4	-34.7	12.0	7.62e-05	0	41	0	35030827008	35	14995
2026-01-15 19:54:56.96	332.72	5.80	-35.0	-35.3	11.6	6.24e-05	0	41	0	35114713088	35	16101
2026-01-15 19:54:57.83	332.81	5.74	-34.2	-34.6	12.0	6.24e-05	0	41	0	35173433344	35	14782
2026-01-15 19:54:58.98	332.94	5.65	-34.6	-35.0	11.8	2.77e-05	0	41	0	35265708032	35	15503
2026-01-15 19:54:59.85	333.03	5.59	-34.5	-34.8	11.8	4.85e-05	0	41	0	35332816896	35	15194
2026-01-15 19:55:01.00	333.15	5.51	-34.5	-34.8	11.8	2.77e-05	0	41	0	35416702976	35	15249
2026-01-15 19:55:01.87	333.24	5.45	-34.2	-34.6	12.0	4.16e-05	0	41	0	35483811840	35	14801
2026-01-15 19:55:03.02	333.36	5.36	-34.7	-35.1	11.7	4.16e-05	0	41	0	35567697920	35	15715
2026-01-15 19:55:03.89	333.45	5.30	-34.9	-35.2	11.6	4.16e-05	0	41	0	35634806784	35	15968
2026-01-15 19:55:05.04	333.56	5.22	-34.9	-35.3	11.5	9.01e-05	0	41	0	35718692864	35	16033
2026-01-15 19:55:05.91	333.65	5.16	-37.3	-37.6	11.7	1.25e-04	0	41	0	35785801728	41	14835
2026-01-15 19:55:07.06	333.77	5.08	-49.9	-53.0	3.7	8.32e-05	0	41	104	35802578944	65	22042
2026-01-15 19:55:07.93	333.85	5.02	-49.8	-53.0	3.7	8.32e-05	0	40	104	35802578944	65	21888
2026-01-15 19:55:09.08	333.97	4.93	-50.3	-53.5	3.7	8.32e-05	0	40	104	35802578944	66	21868
2026-01-15 19:55:09.95	334.05	4.87	-50.6	-53.8	3.7	8.32e-05	0	40	104	35802578944	67	21402
2026-01-15 19:55:11.10	334.17	4.79	-50.9	-54.0	3.7	8.32e-05	0	40	104	35802578944	67	22018
2026-01-15 19:55:11.96	334.25	4.73	-51.0	-54.2	3.7	8.32e-05	0	40	104	35802578944	67	22382
2026-01-15 19:55:13.12	334.37	4.65	-51.2	-54.3	3.7	8.32e-05	0	40	104	35802578944	68	21474
2026-01-15 19:55:13.98	334.45	4.59	-51.2	-54.4	3.7	8.32e-05	0	40	104	35802578944	68	21653
2026-01-15 19:55:15.14	334.56	4.51	-51.3	-54.5	3.7	8.32e-05	0	40	104	35802578944	68	21984
2026-01-15 19:55:16.00	334.64	4.45	-51.4	-54.6	3.7	8.32e-05	0	40	104	35802578944	68	22119
2026-01-15 19:55:17.16	334.75	4.37	-51.5	-54.6	3.7	8.32e-05	0	40	104	35802578944	68	22259
2026-01-15 19:55:18.02	334.83	4.31	-51.5	-54.7	3.7	8.32e-05	0	40	104	35802578944	68	22452
2026-01-15 19:55:19.18	334.94	4.23	-51.6	-54.7	3.7	8.32e-05	0	40	104	35802578944	68	22562
2026-01-15 19:55:20.04	335.02	4.18	-51.6	-54.8	3.7	8.32e-05	0	40	104	35802578944	69	21361
2026-01-15 19:55:21.20	335.13	4.10	-51.6	-54.7	3.7	8.32e-05	0	40	104	35802578944	69	21265
2026-01-15 19:55:22.06	335.21	4.04	-51.6	-54.7	3.7	8.32e-05	0	40	104	35802578944	69	21336
2026-01-15 19:55:23.22	335.32	3.96	-51.6	-54.7	3.7	8.32e-05	0	40	104	35802578944	69	21348
2026-01-15 19:55:24.08	335.40	3.90	-51.6	-54.8	3.7	8.32e-05	0	40	104	35802578944	69	21423
2026-01-15 19:55:25.24	335.50	3.82	-51.6	-54.8	3.7	8.32e-05	0	40	104	35802578944	69	21377
2026-01-15 19:55:26.10	335.58	3.77	-51.6	-54.7	3.7	8.32e-05	0	40	104	35802578944	69	21302
2026-01-15 19:55:27.25	335.68	3.69	-51.6	-54.7	3.7	8.32e-05	0	40	104	35802578944	69	21254
2026-01-15 19:55:28.12	335.76	3.63	-51.6	-54.7	3.7	8.32e-05	0	40	104	35802578944	69	21291
2026-01-15 19:55:29.27	335.86	3.55	-51.6	-54.7	3.7	8.32e-05	0	40	104	35802578944	69	21235
2026-01-15 19:55:30.14	335.94	3.50	-51.6	-54.7	3.7	8.32e-05	0	40	104	35802578944	69	21228
2026-01-15 19:55:31.29	336.04	3.42	-51.5	-54.6	3.7	8.32e-05	0	40	104	35802578944	69	21100
2026-01-15 19:55:32.16	336.12	3.36	-51.5	-54.6	3.7	8.32e-05	0	40	104	35802578944	69	21041
2026-01-15 19:55:33.31	336.22	3.29	-51.5	-54.6	3.7	8.32e-05	0	40	104	35802578944	69	21008
2026-01-15 19:55:34.17	336.29	3.23	-51.5	-54.6	3.7	8.32e-05	0	40	104	35802578944	69	21045
2026-01-15 19:55:35.33	336.39	3.15	-51.5	-54.6	3.7	8.32e-05	0	40	104	35802578944	69	20944
2026-01-15 19:55:36.19	336.46	3.10	-51.5	-54.6	3.7	8.32e-05	0	40	104	35802578944	69	20968
2026-01-15 19:55:37.34	336.56	3.02	-51.4	-54.6	3.7	8.32e-05	0	40	104	35802578944	69	20959
2026-01-15 19:55:38.21	336.64	2.96	-51.4	-54.6	3.7	8.32e-05	0	40	104	35802578944	69	20883
2026-01-15 19:55:39.36	336.73	2.89	-51.4	-54.6	3.7	8.32e-05	0	40	104	35802578944	69	20893
2026-01-15 19:55:40.23	336.81	2.83	-51.4	-54.6	3.7	8.32e-05	0	40	104	35802578944	69	20882
2026-01-15 19:55:41.38	336.90	2.76	-51.4	-54.5	3.7	8.32e-05	0	40	104	35802578944	69	20847
2026-01-15 19:55:42.25	336.97	2.70	-51.4	-54.6	3.7	8.32e-05	0	40	104	35802578944	69	20944
2026-01-15 19:55:43.40	337.07	2.63	-51.4	-54.5	3.7	8.32e-05	0	40	104	35802578944	69	20800
2026-01-15 19:55:44.27	337.14	2.57	-51.4	-54.5	3.7	8.32e-05	0	40	104	35802578944	69	20821
2026-01-15 19:55:45.42	337.23	2.50	-51.4	-54.5	3.7	8.32e-05	0	40	104	35802578944	69	20843
2026-01-15 19:55:46.29	337.30	2.44	-51.4	-54.5	3.7	8.32e-05	0	40	104	35802578944	69	20777
2026-01-15 19:55:47.44	337.40	2.37	-51.4	-54.5	3.7	8.32e-05	0	40	104	35802578944	69	20762
2026-01-15 19:55:48.30	337.47	2.31	-51.4	-54.5	3.7	8.32e-05	0	40	104	35802578944	69	20777
2026-01-15 19:55:49.46	337.56	2.24	-51.4	-54.5	3.7	8.32e-05	0	40	104	35802578944	69	20777
2026-01-15 19:55:50.32	337.63	2.19	-51.4	-54.5	3.7	8.32e-05	0	40	104	35802578944	69	20783
2026-01-15 19:55:51.48	337.72	2.11	-51.4	-54.5	3.7	8.32e-05	0	40	104	35802578944	69	20800
2026-01-15 19:55:52.34	337.79	2.06	-51.4	-54.5	3.7	8.32e-05	0	40	104	35802578944	69	20751
2026-01-15 19:55:53.50	337.88	1.99	-51.4	-54.5	3.7	8.32e-05	0	40	104	35802578944	69	20770
2026-01-15 19:55:54.36	337.94	1.93	-51.4	-54.5	3.7	8.32e-05	0	40	104	35802578944	69	20768

#Closed at: 2026-01-15 19:55:55
#Recorded file [35802 MB]: D:/lorett/data/31004_260115_224604.dat