passes_logs/2026/01/15/R3.2S_Murmansk_2ch/R3.2S_Murmansk_2ch__20260115_210159_NOAA_21_JPSS-2_rec.log

#Pass ID: 20260115_210159_NOAA 21 (JPSS-2)
#Satellite: NOAA 21 (JPSS-2)
#Configuration: NOAA-21
#almurnet v.1.7.20251203
#Start time: 2026-01-15 21:01:59

#Version: 2.2.20231116
#Station: R3.2S_Murmansk_2ch
#Location: 33.079688 lon 68.888172 lat
#TLE: 1 54234U 22150A   26015.57659306  .00000014  00000+0  27538-4 0  9996
#TLE: 2 54234  98.7498 316.4693 0000634 287.4933  72.6174 14.19534738164896

#Time	Az	El	Level	Level2	SNR	BER	BlckErr	Temp	State	Recorded	gain1	gain2
2026-01-15 21:01:59.51	18.53	1.99	-49.4	-63.3	3.8	1.49e+00	0	31	0	0	65	17373
2026-01-15 21:02:00.51	18.63	2.03	-49.4	-63.3	3.8	1.49e+00	0	31	104	0	64	18369
2026-01-15 21:02:01.52	18.74	2.07	-49.4	-63.3	3.8	1.49e+00	0	31	104	0	64	18397
2026-01-15 21:02:02.53	18.85	2.11	-49.4	-63.3	3.8	1.49e+00	0	31	104	0	64	18340
2026-01-15 21:02:03.54	18.95	2.15	-49.4	-63.3	3.8	1.49e+00	0	31	104	0	64	18352
2026-01-15 21:02:04.55	19.06	2.19	-49.4	-63.3	3.8	1.49e+00	0	31	104	0	64	18373
2026-01-15 21:02:05.56	19.16	2.24	-49.4	-63.2	3.9	1.49e+00	0	31	104	0	64	18292
2026-01-15 21:02:06.56	19.27	2.28	-49.4	-63.3	3.8	1.49e+00	0	31	104	0	64	18321
2026-01-15 21:02:07.57	19.38	2.32	-49.4	-63.2	3.8	1.49e+00	0	31	104	0	64	18254
2026-01-15 21:02:08.58	19.48	2.36	-49.4	-63.3	3.8	1.49e+00	0	31	104	0	64	18442
2026-01-15 21:02:09.59	19.59	2.40	-49.4	-63.3	3.8	1.49e+00	0	31	104	0	64	18338
2026-01-15 21:02:10.60	19.70	2.44	-49.4	-63.3	3.8	1.49e+00	0	31	104	0	64	18394
2026-01-15 21:02:11.61	19.81	2.48	-49.4	-63.3	3.8	1.49e+00	0	31	104	0	64	18395
2026-01-15 21:02:12.62	19.91	2.53	-49.4	-63.3	3.8	1.49e+00	0	32	104	0	64	18349
2026-01-15 21:02:13.63	20.02	2.57	-49.4	-63.3	3.8	1.49e+00	0	31	104	0	64	18424
2026-01-15 21:02:14.64	20.13	2.61	-49.4	-63.2	3.8	1.49e+00	0	31	104	0	64	18300
2026-01-15 21:02:15.65	20.24	2.65	-49.5	-63.3	3.8	1.49e+00	0	31	104	0	64	18389
2026-01-15 21:02:16.66	20.35	2.69	-49.4	-63.2	3.8	1.49e+00	0	31	104	0	64	18202
2026-01-15 21:02:17.67	20.46	2.73	-49.4	-63.3	3.8	1.49e+00	0	32	104	0	64	18401
2026-01-15 21:02:18.68	20.57	2.77	-49.4	-63.3	3.8	1.49e+00	0	31	104	0	64	18440
2026-01-15 21:02:19.69	20.68	2.82	-49.5	-63.3	3.8	1.49e+00	0	31	104	0	64	18411
2026-01-15 21:02:20.70	20.79	2.86	-49.5	-63.4	3.8	1.49e+00	0	32	104	0	64	18565
2026-01-15 21:02:21.70	20.90	2.90	-49.5	-63.3	3.8	1.49e+00	0	32	104	0	64	18494
2026-01-15 21:02:22.71	21.01	2.94	-49.5	-63.3	3.8	1.49e+00	0	32	104	0	64	18494
2026-01-15 21:02:23.72	21.12	2.98	-49.5	-63.4	3.8	1.49e+00	0	32	104	0	64	18584
2026-01-15 21:02:24.73	21.23	3.02	-49.5	-63.4	3.8	1.49e+00	0	32	104	0	64	18561
2026-01-15 21:02:25.74	21.35	3.06	-49.5	-63.4	3.8	1.49e+00	0	32	104	0	64	18518
2026-01-15 21:02:26.75	21.46	3.10	-49.5	-63.3	3.8	1.49e+00	0	32	104	0	64	18345
2026-01-15 21:02:27.76	21.57	3.14	-49.4	-63.3	3.8	1.49e+00	0	32	104	0	64	18436
2026-01-15 21:02:28.77	21.68	3.18	-49.5	-63.3	3.8	1.49e+00	0	32	104	0	64	18505
2026-01-15 21:02:29.78	21.80	3.23	-49.5	-63.3	3.8	1.49e+00	0	32	104	0	64	18504
2026-01-15 21:02:30.79	21.91	3.27	-49.4	-63.3	3.8	1.49e+00	0	32	104	0	64	18511
2026-01-15 21:02:31.80	22.03	3.31	-49.4	-63.3	3.8	1.49e+00	0	32	104	0	64	18476
2026-01-15 21:02:32.81	22.14	3.35	-49.5	-63.4	3.8	1.49e+00	0	32	104	0	64	18549
2026-01-15 21:02:33.82	22.25	3.39	-49.5	-63.3	3.8	1.49e+00	0	32	104	0	64	18496
2026-01-15 21:02:34.83	22.37	3.43	-49.5	-63.3	3.8	1.49e+00	0	32	104	0	64	18508
2026-01-15 21:02:35.83	22.48	3.47	-49.5	-63.4	3.8	1.49e+00	0	32	104	0	64	18519
2026-01-15 21:02:36.85	22.60	3.51	-49.5	-63.3	3.8	1.49e+00	0	32	104	0	64	18486
2026-01-15 21:02:37.85	22.71	3.55	-49.5	-63.3	3.8	1.49e+00	0	32	104	0	64	18364
2026-01-15 21:02:38.86	22.83	3.59	-49.5	-63.3	3.8	1.49e+00	0	32	104	0	64	18443
2026-01-15 21:02:39.87	22.95	3.63	-49.5	-63.2	3.8	1.49e+00	0	32	104	0	64	18188
2026-01-15 21:02:40.88	23.06	3.67	-49.5	-63.2	3.8	1.49e+00	0	32	104	0	64	18207
2026-01-15 21:02:41.89	23.18	3.72	-49.5	-63.2	3.8	1.49e+00	0	32	104	0	64	18219
2026-01-15 21:02:42.90	23.30	3.76	-49.5	-63.2	3.8	1.49e+00	0	32	104	0	64	18283
2026-01-15 21:02:43.91	23.41	3.80	-49.5	-63.3	3.8	1.49e+00	0	32	104	0	64	18499
2026-01-15 21:02:44.92	23.53	3.84	-49.5	-63.4	3.8	1.49e+00	0	32	104	0	64	18583
2026-01-15 21:02:45.93	23.65	3.88	-49.5	-63.4	3.8	1.49e+00	0	32	104	0	64	18540
2026-01-15 21:02:46.94	23.77	3.92	-49.5	-63.3	3.8	1.49e+00	0	32	104	0	64	18371
2026-01-15 21:02:47.95	23.89	3.96	-49.4	-63.3	3.8	1.49e+00	0	32	104	0	64	18389
2026-01-15 21:02:48.96	24.01	4.00	-49.5	-63.3	3.8	1.49e+00	0	32	104	0	64	18484
2026-01-15 21:02:49.97	24.13	4.04	-49.5	-63.3	3.8	1.49e+00	0	32	104	0	64	18505
2026-01-15 21:02:50.98	24.25	4.08	-49.5	-63.4	3.8	1.49e+00	0	32	104	0	64	18529
2026-01-15 21:02:51.99	24.37	4.12	-49.5	-63.4	3.8	1.49e+00	0	32	104	0	64	18585
2026-01-15 21:02:52.99	24.49	4.16	-49.5	-63.3	3.8	1.49e+00	0	32	104	0	64	18462
2026-01-15 21:02:54.00	24.61	4.20	-49.5	-63.3	3.8	1.49e+00	0	32	104	0	64	18452
2026-01-15 21:02:55.01	24.73	4.24	-49.5	-63.3	3.8	1.49e+00	0	32	104	0	64	18332
2026-01-15 21:02:56.02	24.85	4.28	-49.5	-63.3	3.8	1.49e+00	0	32	104	0	64	18422
2026-01-15 21:02:57.03	24.97	4.32	-49.5	-63.4	3.8	1.49e+00	0	32	104	0	64	18521
2026-01-15 21:02:58.04	25.09	4.36	-49.5	-63.4	3.8	1.49e+00	0	32	104	0	64	18624
2026-01-15 21:02:59.05	25.21	4.40	-49.5	-63.3	3.8	1.49e+00	0	32	104	0	64	18438
2026-01-15 21:03:00.06	25.34	4.44	-49.5	-63.1	3.8	1.49e+00	0	32	104	0	64	17928
2026-01-15 21:03:01.07	25.46	4.48	-49.5	-62.9	3.8	1.49e+00	0	32	104	0	64	17679
2026-01-15 21:03:02.08	25.58	4.52	-49.4	-62.6	3.8	1.49e+00	0	32	104	0	64	17069
2026-01-15 21:03:03.09	25.71	4.56	-49.4	-62.3	3.8	1.49e+00	0	32	104	0	64	16498
2026-01-15 21:03:04.10	25.83	4.60	-49.4	-62.6	3.8	1.49e+00	0	32	104	0	64	16914
2026-01-15 21:03:05.11	25.95	4.64	-49.4	-62.8	3.8	1.49e+00	0	32	104	0	64	17359
2026-01-15 21:03:06.12	26.08	4.68	-49.4	-62.2	3.8	1.49e+00	0	32	104	0	64	16309
2026-01-15 21:03:07.13	26.20	4.72	-49.3	-60.7	3.9	1.49e+00	0	32	104	0	64	13612
2026-01-15 21:03:08.14	26.33	4.76	-49.1	-58.6	4.6	1.33e+00	0	32	104	0	64	10712
2026-01-15 21:03:09.15	26.45	4.80	-48.9	-57.1	5.4	6.07e-01	0	32	0	0	64	9032
2026-01-15 21:03:10.15	26.58	4.84	-48.7	-56.0	6.1	3.02e-01	0	32	0	3145728	63	8403
2026-01-15 21:03:11.16	26.70	4.88	-48.4	-54.6	7.2	1.36e-01	0	33	0	6291456	63	7199
2026-01-15 21:03:12.17	26.83	4.91	-47.9	-53.1	8.6	4.46e-02	0	32	0	9437184	62	6390
2026-01-15 21:03:13.18	26.96	4.95	-48.1	-53.7	8.0	4.27e-02	0	33	0	12582912	62	6820
2026-01-15 21:03:14.19	27.09	4.99	-48.0	-53.5	8.1	3.84e-02	0	33	0	15728640	62	6723
2026-01-15 21:03:15.20	27.21	5.03	-48.1	-53.7	8.1	4.18e-02	0	32	0	18874368	62	6806
2026-01-15 21:03:16.21	27.34	5.07	-47.5	-51.7	10.0	3.94e-03	0	32	0	22020096	61	5786
2026-01-15 21:03:17.21	27.47	5.11	-49.0	-60.1	3.9	1.48e+00	0	33	104	24117248	63	13563
2026-01-15 21:03:18.23	27.60	5.15	-46.5	-49.4	12.5	2.59e-05	0	33	0	26214400	59	4982
2026-01-15 21:03:19.23	27.72	5.19	-44.7	-46.8	14.4	0.00e+00	0	33	0	29360128	56	4363
2026-01-15 21:03:20.24	27.85	5.23	-48.7	-54.8	7.5	1.06e-02	0	33	0	32505856	62	7768
2026-01-15 21:03:21.25	27.98	5.27	-45.0	-47.2	14.1	0.00e+00	0	32	0	34603008	56	4551
2026-01-15 21:03:22.26	28.11	5.30	-45.3	-47.6	13.9	0.00e+00	0	32	0	38797312	56	4763
2026-01-15 21:03:23.27	28.24	5.34	-44.3	-46.2	14.7	0.00e+00	0	32	0	41943040	55	4333
2026-01-15 21:03:24.28	28.37	5.38	-44.2	-46.1	14.7	0.00e+00	0	33	0	45088768	54	4535
2026-01-15 21:03:25.28	28.50	5.42	-44.7	-46.8	14.3	0.00e+00	0	33	0	48234496	54	4889
2026-01-15 21:03:26.29	28.63	5.46	-44.9	-47.1	14.1	0.00e+00	0	33	0	51380224	55	4763
2026-01-15 21:03:27.30	28.76	5.50	-44.8	-47.0	14.2	0.00e+00	0	32	0	54525952	55	4744
2026-01-15 21:03:28.31	28.90	5.53	-44.4	-46.4	14.5	0.00e+00	0	33	0	57671680	55	4431
2026-01-15 21:03:29.32	29.03	5.57	-44.6	-46.7	14.4	0.00e+00	0	32	0	60817408	55	4566
2026-01-15 21:03:30.33	29.16	5.61	-44.9	-47.0	14.2	0.00e+00	0	33	0	63963136	55	4729
2026-01-15 21:03:31.34	29.29	5.65	-44.7	-46.8	14.4	0.00e+00	0	33	0	67108864	55	4611
2026-01-15 21:03:32.35	29.43	5.69	-44.5	-46.6	14.5	0.00e+00	0	32	0	70254592	55	4500
2026-01-15 21:03:33.36	29.56	5.73	-44.8	-47.0	14.2	0.00e+00	0	33	0	73400320	55	4715
2026-01-15 21:03:34.37	29.69	5.76	-44.3	-46.3	14.7	0.00e+00	0	32	0	76546048	55	4361
2026-01-15 21:03:35.38	29.83	5.80	-44.6	-46.6	14.5	0.00e+00	0	33	0	79691776	55	4535
2026-01-15 21:03:36.39	29.96	5.84	-44.6	-46.6	14.5	0.00e+00	0	33	0	82837504	55	4529
2026-01-15 21:03:37.40	30.10	5.88	-44.5	-46.5	14.6	0.00e+00	0	33	0	85983232	55	4458
2026-01-15 21:03:38.40	30.23	5.91	-44.5	-46.6	14.5	0.00e+00	0	33	0	89128960	55	4505
2026-01-15 21:03:39.42	30.37	5.95	-44.4	-46.4	14.6	0.00e+00	0	33	0	92274688	55	4426
2026-01-15 21:03:40.42	30.50	5.99	-44.7	-46.7	14.5	0.00e+00	0	33	0	95420416	55	4588
2026-01-15 21:03:41.43	30.64	6.03	-44.6	-46.6	14.5	0.00e+00	0	33	0	98566144	55	4534
2026-01-15 21:03:42.44	30.77	6.06	-44.5	-46.5	14.6	0.00e+00	0	33	0	101711872	55	4490
2026-01-15 21:03:43.45	30.91	6.10	-44.5	-46.4	14.7	0.00e+00	0	32	0	104857600	55	4435
2026-01-15 21:03:44.46	31.05	6.14	-44.5	-46.6	14.6	0.00e+00	0	32	0	108003328	55	4500
2026-01-15 21:03:45.47	31.19	6.18	-44.6	-46.7	14.5	0.00e+00	0	33	0	111149056	55	4554
2026-01-15 21:03:46.48	31.32	6.21	-44.2	-46.1	14.8	0.00e+00	0	33	0	114294784	55	4265
2026-01-15 21:03:47.49	31.46	6.25	-44.2	-46.1	14.9	0.00e+00	0	33	0	117440512	54	4510
2026-01-15 21:03:48.50	31.60	6.29	-44.3	-46.2	14.8	0.00e+00	0	33	0	120586240	54	4573
2026-01-15 21:03:49.51	31.74	6.32	-44.1	-46.0	15.0	0.00e+00	0	33	0	123731968	54	4449
2026-01-15 21:03:50.52	31.88	6.36	-44.3	-46.2	14.8	0.00e+00	0	33	0	126877696	54	4574
2026-01-15 21:03:51.53	32.02	6.40	-44.2	-46.1	14.9	0.00e+00	0	32	0	130023424	54	4511
2026-01-15 21:03:52.54	32.16	6.43	-44.6	-46.7	14.5	0.00e+00	0	33	0	133169152	54	4822
2026-01-15 21:03:53.55	32.30	6.47	-44.6	-46.6	14.5	0.00e+00	0	33	0	136314880	54	4796
2026-01-15 21:03:54.56	32.44	6.50	-44.2	-46.1	14.9	0.00e+00	0	33	0	139460608	54	4532
2026-01-15 21:03:55.57	32.58	6.54	-44.2	-46.1	14.9	0.00e+00	0	33	0	142606336	54	4501
2026-01-15 21:03:56.58	32.72	6.58	-44.0	-45.9	15.0	0.00e+00	0	33	0	145752064	54	4406
2026-01-15 21:03:57.59	32.86	6.61	-44.2	-46.0	14.9	0.00e+00	0	33	0	148897792	54	4485
2026-01-15 21:03:58.59	33.00	6.65	-44.2	-46.1	14.9	0.00e+00	0	33	0	152043520	54	4510
2026-01-15 21:03:59.60	33.14	6.68	-44.0	-45.9	15.0	0.00e+00	0	33	0	155189248	54	4399
2026-01-15 21:04:00.61	33.28	6.72	-44.3	-46.2	14.9	0.00e+00	0	33	0	158334976	54	4564
2026-01-15 21:04:01.62	33.43	6.76	-43.9	-45.7	15.1	0.00e+00	0	33	0	161480704	54	4305
2026-01-15 21:04:02.63	33.57	6.79	-44.0	-45.8	15.0	0.00e+00	0	33	0	164626432	54	4377
2026-01-15 21:04:03.64	33.71	6.83	-44.2	-46.0	14.9	0.00e+00	0	33	0	167772160	54	4484
2026-01-15 21:04:04.65	33.86	6.86	-44.0	-45.8	15.1	0.00e+00	0	33	0	170917888	54	4344
2026-01-15 21:04:05.66	34.00	6.90	-44.0	-45.8	15.0	0.00e+00	0	33	0	174063616	54	4367
2026-01-15 21:04:06.67	34.15	6.93	-43.9	-45.7	15.1	0.00e+00	0	33	0	177209344	54	4330
2026-01-15 21:04:07.68	34.29	6.97	-44.2	-46.1	14.9	0.00e+00	0	33	0	180355072	54	4522
2026-01-15 21:04:08.69	34.44	7.00	-44.0	-45.8	15.0	0.00e+00	0	33	0	183500800	54	4390
2026-01-15 21:04:09.70	34.58	7.04	-44.1	-45.9	15.0	0.00e+00	0	33	0	186646528	54	4437
2026-01-15 21:04:10.71	34.73	7.07	-43.7	-45.5	15.3	0.00e+00	0	33	0	189792256	54	4215
2026-01-15 21:04:11.72	34.87	7.11	-43.9	-45.7	15.2	0.00e+00	0	33	0	192937984	54	4333
2026-01-15 21:04:12.73	35.02	7.14	-44.0	-45.8	15.1	0.00e+00	0	33	0	196083712	54	4374
2026-01-15 21:04:13.74	35.17	7.18	-44.0	-45.7	15.1	0.00e+00	0	33	0	199229440	54	4337
2026-01-15 21:04:14.75	35.31	7.21	-44.0	-45.8	15.1	0.00e+00	0	33	0	202375168	54	4350
2026-01-15 21:04:15.76	35.46	7.24	-44.2	-46.0	15.0	0.00e+00	0	33	0	205520896	54	4477
2026-01-15 21:04:16.77	35.61	7.28	-44.1	-46.0	15.0	0.00e+00	0	33	0	208666624	54	4464
2026-01-15 21:04:17.78	35.76	7.31	-44.1	-45.9	15.0	0.00e+00	0	33	0	211812352	54	4431
2026-01-15 21:04:18.78	35.90	7.35	-44.0	-45.8	15.1	0.00e+00	0	33	0	214958080	54	4364
2026-01-15 21:04:19.79	36.05	7.38	-44.1	-45.9	15.0	0.00e+00	0	33	0	218103808	54	4426
2026-01-15 21:04:20.80	36.20	7.41	-44.0	-45.8	15.1	0.00e+00	0	33	0	221249536	54	4385
2026-01-15 21:04:21.81	36.35	7.45	-44.2	-46.1	15.0	0.00e+00	0	33	0	224395264	54	4509
2026-01-15 21:04:22.82	36.50	7.48	-43.9	-45.7	15.2	0.00e+00	0	33	0	227540992	54	4323
2026-01-15 21:04:23.83	36.65	7.51	-43.9	-45.7	15.2	0.00e+00	0	33	0	230686720	54	4327
2026-01-15 21:04:24.84	36.80	7.55	-44.1	-45.9	15.1	0.00e+00	0	33	0	233832448	54	4415
2026-01-15 21:04:25.85	36.95	7.58	-44.0	-45.8	15.2	0.00e+00	0	33	0	236978176	54	4376
2026-01-15 21:04:26.86	37.10	7.61	-44.0	-45.8	15.1	0.00e+00	0	33	0	240123904	54	4355
2026-01-15 21:04:27.87	37.26	7.64	-43.9	-45.7	15.2	0.00e+00	0	33	0	243269632	54	4308
2026-01-15 21:04:28.88	37.41	7.68	-44.0	-45.8	15.2	0.00e+00	0	33	0	246415360	54	4367
2026-01-15 21:04:29.89	37.56	7.71	-43.9	-45.7	15.2	0.00e+00	0	33	0	249561088	54	4320
2026-01-15 21:04:30.90	37.71	7.74	-43.9	-45.7	15.2	0.00e+00	0	33	0	252706816	54	4316
2026-01-15 21:04:31.91	37.86	7.77	-44.1	-45.9	15.1	0.00e+00	0	33	0	255852544	54	4405
2026-01-15 21:04:32.92	38.02	7.81	-43.9	-45.7	15.2	0.00e+00	0	33	0	258998272	54	4325
2026-01-15 21:04:33.93	38.17	7.84	-43.8	-45.6	15.2	0.00e+00	0	33	0	262144000	54	4261
2026-01-15 21:04:34.94	38.32	7.87	-43.8	-45.6	15.2	0.00e+00	0	33	0	265289728	54	4252
2026-01-15 21:04:35.95	38.48	7.90	-44.1	-45.9	15.1	0.00e+00	0	33	0	268435456	54	4416
2026-01-15 21:04:36.96	38.63	7.93	-44.2	-46.0	15.0	0.00e+00	0	33	0	271581184	54	4477
2026-01-15 21:04:37.97	38.79	7.96	-44.0	-45.8	15.1	0.00e+00	0	33	0	274726912	54	4373
2026-01-15 21:04:38.98	38.94	8.00	-44.0	-45.8	15.2	0.00e+00	0	33	0	277872640	54	4367
2026-01-15 21:04:39.99	39.10	8.03	-43.8	-45.5	15.4	0.00e+00	0	33	0	281018368	54	4217
2026-01-15 21:04:41.00	39.25	8.06	-43.6	-45.3	15.4	0.00e+00	0	33	0	284164096	53	4376
2026-01-15 21:04:42.01	39.41	8.09	-43.8	-45.5	15.3	0.00e+00	0	33	0	287309824	53	4485
2026-01-15 21:04:43.02	39.57	8.12	-43.7	-45.4	15.4	0.00e+00	0	33	0	290455552	53	4399
2026-01-15 21:04:44.03	39.72	8.15	-43.7	-45.4	15.4	0.00e+00	0	33	0	293601280	53	4425
2026-01-15 21:04:45.04	39.88	8.18	-43.7	-45.4	15.4	0.00e+00	0	33	0	296747008	53	4394
2026-01-15 21:04:46.05	40.04	8.21	-43.8	-45.6	15.3	0.00e+00	0	33	0	299892736	53	4495
2026-01-15 21:04:47.06	40.19	8.24	-43.8	-45.6	15.3	0.00e+00	0	33	0	303038464	53	4523
2026-01-15 21:04:48.07	40.35	8.27	-43.8	-45.5	15.3	0.00e+00	0	33	0	306184192	53	4488
2026-01-15 21:04:49.08	40.51	8.30	-43.9	-45.7	15.2	0.00e+00	0	33	0	309329920	53	4574
2026-01-15 21:04:50.09	40.67	8.33	-44.0	-45.7	15.2	0.00e+00	0	33	0	312475648	53	4594
2026-01-15 21:04:51.10	40.83	8.36	-44.1	-45.9	15.1	0.00e+00	0	33	0	315621376	53	4688
2026-01-15 21:04:52.11	40.99	8.39	-44.1	-45.9	15.1	0.00e+00	0	33	0	318767104	53	4685
2026-01-15 21:04:53.12	41.15	8.42	-43.9	-45.7	15.2	0.00e+00	0	33	0	321912832	53	4552
2026-01-15 21:04:54.13	41.31	8.45	-43.9	-45.6	15.2	0.00e+00	0	33	0	325058560	53	4539
2026-01-15 21:04:55.14	41.47	8.48	-43.9	-45.6	15.3	0.00e+00	0	33	0	328204288	53	4545
2026-01-15 21:04:56.15	41.63	8.50	-43.8	-45.6	15.3	0.00e+00	0	33	0	331350016	53	4518
2026-01-15 21:04:57.16	41.79	8.53	-43.9	-45.7	15.2	0.00e+00	0	33	0	334495744	53	4566
2026-01-15 21:04:58.17	41.95	8.56	-43.7	-45.4	15.4	0.00e+00	0	33	0	337641472	53	4409
2026-01-15 21:04:59.18	42.11	8.59	-43.7	-45.4	15.4	0.00e+00	0	33	0	340787200	53	4420
2026-01-15 21:05:00.19	42.27	8.62	-43.5	-45.1	15.5	0.00e+00	0	33	0	343932928	53	4289
2026-01-15 21:05:01.20	42.43	8.65	-43.5	-45.2	15.5	0.00e+00	0	33	0	347078656	53	4318
2026-01-15 21:05:02.21	42.60	8.67	-43.6	-45.3	15.5	0.00e+00	0	33	0	350224384	53	4373
2026-01-15 21:05:03.22	42.76	8.70	-43.6	-45.3	15.5	0.00e+00	0	33	0	353370112	53	4351
2026-01-15 21:05:04.23	42.92	8.73	-43.6	-45.2	15.5	0.00e+00	0	33	0	356515840	53	4328
2026-01-15 21:05:05.24	43.08	8.76	-43.7	-45.4	15.4	0.00e+00	0	33	0	359661568	53	4402
2026-01-15 21:05:06.25	43.25	8.78	-43.8	-45.5	15.3	0.00e+00	0	33	0	362807296	53	4467
2026-01-15 21:05:07.26	43.41	8.81	-43.8	-45.5	15.4	0.00e+00	0	33	0	365953024	53	4465
2026-01-15 21:05:08.27	43.57	8.84	-43.7	-45.4	15.4	0.00e+00	0	33	0	370147328	53	4439
2026-01-15 21:05:09.28	43.74	8.86	-43.8	-45.6	15.3	0.00e+00	0	33	0	373293056	53	4500
2026-01-15 21:05:10.28	43.90	8.89	-43.9	-45.6	15.3	0.00e+00	0	33	0	375390208	53	4527
2026-01-15 21:05:11.29	44.07	8.92	-43.8	-45.5	15.3	0.00e+00	0	33	0	378535936	53	4485
2026-01-15 21:05:12.30	44.23	8.94	-43.8	-45.6	15.3	0.00e+00	0	33	0	381681664	53	4502
2026-01-15 21:05:13.31	44.40	8.97	-43.7	-45.5	15.4	0.00e+00	0	33	0	385875968	53	4445
2026-01-15 21:05:14.32	44.56	8.99	-43.9	-45.7	15.3	0.00e+00	0	33	0	389021696	53	4556
2026-01-15 21:05:15.33	44.73	9.02	-43.9	-45.6	15.3	0.00e+00	0	33	0	392167424	53	4543
2026-01-15 21:05:16.34	44.89	9.04	-43.7	-45.5	15.4	0.00e+00	0	33	0	395313152	53	4446
2026-01-15 21:05:17.35	45.06	9.07	-43.8	-45.6	15.3	0.00e+00	0	33	0	398458880	53	4495
2026-01-15 21:05:18.36	45.23	9.09	-43.7	-45.3	15.5	0.00e+00	0	33	0	401604608	53	4383
2026-01-15 21:05:19.37	45.40	9.12	-43.5	-45.2	15.5	0.00e+00	0	33	0	404750336	53	4302
2026-01-15 21:05:20.38	45.56	9.14	-43.8	-45.5	15.4	0.00e+00	0	33	0	407896064	53	4454
2026-01-15 21:05:21.39	45.73	9.17	-43.7	-45.4	15.5	0.00e+00	0	33	0	411041792	53	4392
2026-01-15 21:05:22.40	45.90	9.19	-43.7	-45.4	15.4	0.00e+00	0	33	0	414187520	53	4408
2026-01-15 21:05:23.41	46.07	9.22	-43.6	-45.3	15.5	0.00e+00	0	33	0	417333248	53	4347
2026-01-15 21:05:24.42	46.23	9.24	-43.6	-45.2	15.6	0.00e+00	0	33	0	420478976	53	4319
2026-01-15 21:05:25.43	46.40	9.26	-43.6	-45.3	15.5	0.00e+00	0	33	0	423624704	53	4343
2026-01-15 21:05:26.44	46.57	9.29	-43.7	-45.4	15.5	0.00e+00	0	33	0	426770432	53	4408
2026-01-15 21:05:27.45	46.74	9.31	-43.8	-45.5	15.4	0.00e+00	0	33	0	429916160	53	4458
2026-01-15 21:05:28.46	46.91	9.33	-43.8	-45.5	15.4	0.00e+00	0	33	0	433061888	53	4463
2026-01-15 21:05:29.47	47.08	9.36	-44.0	-45.8	15.2	0.00e+00	0	33	0	436207616	53	4603
2026-01-15 21:05:30.48	47.25	9.38	-44.0	-45.8	15.2	0.00e+00	0	33	0	439353344	53	4627
2026-01-15 21:05:31.48	47.42	9.40	-43.9	-45.7	15.3	0.00e+00	0	33	0	442499072	53	4576
2026-01-15 21:05:32.49	47.59	9.42	-43.9	-45.6	15.3	0.00e+00	0	33	0	445644800	53	4524
2026-01-15 21:05:33.50	47.76	9.45	-43.7	-45.4	15.4	0.00e+00	0	33	0	448790528	53	4407
2026-01-15 21:05:34.51	47.93	9.47	-43.7	-45.4	15.5	0.00e+00	0	33	0	451936256	53	4393
2026-01-15 21:05:35.52	48.10	9.49	-43.8	-45.5	15.4	0.00e+00	0	33	0	455081984	53	4457
2026-01-15 21:05:36.53	48.27	9.51	-44.0	-45.7	15.3	0.00e+00	0	33	0	458227712	53	4584
2026-01-15 21:05:37.54	48.45	9.53	-43.7	-45.4	15.5	0.00e+00	0	33	0	461373440	53	4405
2026-01-15 21:05:38.55	48.62	9.55	-43.4	-45.1	15.6	0.00e+00	0	33	0	464519168	53	4248
2026-01-15 21:05:39.56	48.79	9.57	-43.4	-45.1	15.6	0.00e+00	0	33	0	467664896	53	4252
2026-01-15 21:05:40.57	48.96	9.59	-43.4	-45.0	15.6	0.00e+00	0	33	0	470810624	53	4204
2026-01-15 21:05:41.58	49.14	9.61	-43.5	-45.2	15.6	0.00e+00	0	33	0	473956352	53	4299
2026-01-15 21:05:42.59	49.31	9.63	-43.8	-45.5	15.4	0.00e+00	0	33	0	477102080	53	4479
2026-01-15 21:05:43.60	49.48	9.65	-43.7	-45.4	15.5	0.00e+00	0	33	0	480247808	53	4408
2026-01-15 21:05:44.61	49.66	9.67	-43.8	-45.5	15.4	0.00e+00	0	33	0	483393536	53	4467
2026-01-15 21:05:45.62	49.83	9.69	-43.9	-45.6	15.4	0.00e+00	0	33	0	486539264	53	4521
2026-01-15 21:05:46.63	50.00	9.71	-43.9	-45.6	15.3	0.00e+00	0	33	0	489684992	53	4533
2026-01-15 21:05:47.64	50.18	9.73	-43.9	-45.7	15.3	0.00e+00	0	33	0	492830720	53	4546
2026-01-15 21:05:48.65	50.35	9.75	-43.8	-45.6	15.4	0.00e+00	0	33	0	495976448	53	4496
2026-01-15 21:05:49.66	50.53	9.77	-43.9	-45.7	15.3	0.00e+00	0	33	0	499122176	53	4547
2026-01-15 21:05:50.67	50.70	9.79	-43.6	-45.3	15.5	0.00e+00	0	33	0	502267904	53	4383
2026-01-15 21:05:51.67	50.87	9.81	-43.6	-45.3	15.6	0.00e+00	0	33	0	505413632	53	4357
2026-01-15 21:05:52.68	51.05	9.83	-43.6	-45.3	15.5	0.00e+00	0	33	0	508559360	53	4375
2026-01-15 21:05:53.69	51.22	9.84	-43.8	-45.4	15.4	0.00e+00	0	33	0	511705088	53	4441
2026-01-15 21:05:54.70	51.40	9.86	-43.7	-45.4	15.5	0.00e+00	0	33	0	514850816	53	4400
2026-01-15 21:05:55.71	51.58	9.88	-43.6	-45.2	15.6	0.00e+00	0	33	0	517996544	53	4322
2026-01-15 21:05:56.72	51.75	9.90	-43.7	-45.4	15.5	0.00e+00	0	33	0	521142272	53	4413
2026-01-15 21:05:57.73	51.93	9.91	-43.6	-45.3	15.5	0.00e+00	0	33	0	524288000	53	4364
2026-01-15 21:05:58.74	52.10	9.93	-43.6	-45.3	15.6	0.00e+00	0	33	0	527433728	53	4342
2026-01-15 21:05:59.75	52.28	9.95	-43.5	-45.2	15.6	0.00e+00	0	33	0	530579456	53	4313
2026-01-15 21:06:00.76	52.46	9.96	-43.5	-45.1	15.6	0.00e+00	0	33	0	533725184	53	4256
2026-01-15 21:06:01.77	52.64	9.98	-43.4	-45.0	15.7	0.00e+00	0	33	0	536870912	53	4205
2026-01-15 21:06:02.77	52.81	9.99	-43.4	-45.1	15.6	0.00e+00	0	33	0	540016640	53	4248
2026-01-15 21:06:03.78	52.99	10.01	-43.5	-45.1	15.6	0.00e+00	0	33	0	543162368	53	4278
2026-01-15 21:06:04.80	53.17	10.02	-43.5	-45.1	15.6	0.00e+00	0	33	0	546308096	53	4253
2026-01-15 21:06:05.80	53.34	10.04	-43.5	-45.2	15.6	0.00e+00	0	33	0	549453824	53	4303
2026-01-15 21:06:06.81	53.52	10.05	-43.5	-45.1	15.6	0.00e+00	0	33	0	552599552	53	4267
2026-01-15 21:06:07.82	53.70	10.07	-43.6	-45.2	15.6	0.00e+00	0	33	0	555745280	53	4318
2026-01-15 21:06:08.83	53.88	10.08	-43.7	-45.3	15.5	0.00e+00	0	33	0	558891008	53	4379
2026-01-15 21:06:09.84	54.06	10.10	-43.7	-45.4	15.4	0.00e+00	0	33	0	562036736	53	4436
2026-01-15 21:06:10.85	54.23	10.11	-43.8	-45.5	15.4	0.00e+00	0	33	0	565182464	53	4468
2026-01-15 21:06:11.86	54.41	10.13	-43.7	-45.4	15.5	0.00e+00	0	33	0	568328192	53	4430
2026-01-15 21:06:12.87	54.59	10.14	-43.7	-45.4	15.5	0.00e+00	0	33	0	571473920	53	4429
2026-01-15 21:06:13.88	54.77	10.15	-43.6	-45.3	15.5	0.00e+00	0	33	0	574619648	53	4360
2026-01-15 21:06:14.89	54.95	10.17	-43.5	-45.2	15.6	0.00e+00	0	33	0	577765376	53	4298
2026-01-15 21:06:15.90	55.13	10.18	-43.5	-45.1	15.6	0.00e+00	0	33	0	580911104	53	4290
2026-01-15 21:06:16.91	55.31	10.19	-43.5	-45.2	15.6	0.00e+00	0	33	0	584056832	53	4309
2026-01-15 21:06:17.92	55.49	10.20	-43.7	-45.4	15.5	0.00e+00	0	33	0	587202560	53	4395
2026-01-15 21:06:18.93	55.67	10.22	-43.7	-45.4	15.5	0.00e+00	0	33	0	590348288	53	4400
2026-01-15 21:06:19.93	55.85	10.23	-43.6	-45.3	15.6	0.00e+00	0	33	0	593494016	53	4342
2026-01-15 21:06:20.94	56.03	10.24	-43.6	-45.3	15.5	0.00e+00	0	33	0	596639744	53	4363
2026-01-15 21:06:21.95	56.21	10.25	-43.6	-45.3	15.6	0.00e+00	0	33	0	599785472	53	4377
2026-01-15 21:06:22.96	56.39	10.26	-43.7	-45.4	15.5	0.00e+00	0	33	0	602931200	53	4428
2026-01-15 21:06:23.97	56.57	10.27	-43.6	-45.3	15.5	0.00e+00	0	33	0	606076928	53	4374
2026-01-15 21:06:24.98	56.75	10.28	-43.7	-45.3	15.5	0.00e+00	0	33	0	609222656	53	4391
2026-01-15 21:06:25.99	56.93	10.29	-43.7	-45.4	15.5	0.00e+00	0	33	0	612368384	53	4398
2026-01-15 21:06:27.00	57.11	10.30	-43.7	-45.3	15.5	0.00e+00	0	33	0	615514112	53	4383
2026-01-15 21:06:28.01	57.29	10.31	-43.5	-45.1	15.6	0.00e+00	0	33	0	618659840	53	4278
2026-01-15 21:06:29.02	57.47	10.32	-43.5	-45.1	15.6	0.00e+00	0	33	0	621805568	53	4288
2026-01-15 21:06:30.03	57.66	10.33	-43.5	-45.1	15.7	0.00e+00	0	33	0	624951296	53	4288
2026-01-15 21:06:31.04	57.84	10.34	-43.5	-45.1	15.7	0.00e+00	0	33	0	628097024	53	4283
2026-01-15 21:06:32.05	58.02	10.35	-43.5	-45.1	15.6	0.00e+00	0	33	0	631242752	53	4290
2026-01-15 21:06:33.06	58.20	10.36	-43.5	-45.2	15.6	0.00e+00	0	33	0	634388480	53	4293
2026-01-15 21:06:34.07	58.38	10.37	-43.3	-44.9	15.7	0.00e+00	0	33	0	637534208	53	4193
2026-01-15 21:06:35.08	58.56	10.38	-43.4	-45.0	15.7	0.00e+00	0	33	0	640679936	53	4200
2026-01-15 21:06:36.09	58.75	10.38	-43.5	-45.1	15.7	0.00e+00	0	33	0	643825664	53	4274
2026-01-15 21:06:37.09	58.93	10.39	-43.6	-45.2	15.6	0.00e+00	0	33	0	646971392	53	4330
2026-01-15 21:06:38.11	59.11	10.40	-43.4	-45.0	15.7	0.00e+00	0	33	0	650117120	53	4234
2026-01-15 21:06:39.11	59.29	10.41	-43.2	-44.7	15.8	0.00e+00	0	33	0	653262848	52	4330
2026-01-15 21:06:40.12	59.47	10.41	-43.2	-44.8	15.8	0.00e+00	0	33	0	656408576	52	4364
2026-01-15 21:06:41.13	59.66	10.42	-43.3	-44.9	15.7	0.00e+00	0	33	0	659554304	52	4403
2026-01-15 21:06:42.14	59.84	10.43	-43.2	-44.8	15.8	0.00e+00	0	33	0	662700032	52	4363
2026-01-15 21:06:43.15	60.02	10.43	-43.2	-44.8	15.8	0.00e+00	0	33	0	665845760	52	4351
2026-01-15 21:06:44.16	60.20	10.44	-43.3	-44.9	15.8	0.00e+00	0	33	0	668991488	52	4397
2026-01-15 21:06:45.17	60.39	10.44	-43.2	-44.8	15.8	0.00e+00	0	33	0	672137216	52	4375
2026-01-15 21:06:46.18	60.57	10.45	-43.3	-44.9	15.8	0.00e+00	0	33	0	675282944	52	4436
2026-01-15 21:06:47.19	60.75	10.45	-43.4	-45.0	15.7	0.00e+00	0	33	0	678428672	52	4452
2026-01-15 21:06:48.20	60.93	10.46	-43.3	-44.9	15.8	0.00e+00	0	33	0	681574400	52	4415
2026-01-15 21:06:49.21	61.12	10.46	-43.5	-45.1	15.6	0.00e+00	0	33	0	684720128	52	4514
2026-01-15 21:06:50.22	61.30	10.47	-43.4	-45.0	15.6	0.00e+00	0	33	0	687865856	52	4479
2026-01-15 21:06:51.23	61.48	10.47	-43.6	-45.2	15.5	0.00e+00	0	33	0	691011584	52	4579
2026-01-15 21:06:52.24	61.67	10.48	-43.5	-45.2	15.6	0.00e+00	0	33	0	694157312	52	4556
2026-01-15 21:06:53.25	61.85	10.48	-43.4	-45.0	15.7	0.00e+00	0	33	0	697303040	52	4463
2026-01-15 21:06:54.25	62.03	10.48	-43.4	-45.0	15.7	0.00e+00	0	33	0	700448768	52	4459
2026-01-15 21:06:55.26	62.21	10.49	-43.3	-44.9	15.7	0.00e+00	0	33	0	703594496	52	4440
2026-01-15 21:06:56.27	62.40	10.49	-43.4	-45.1	15.7	0.00e+00	0	33	0	706740224	52	4499
2026-01-15 21:06:57.28	62.58	10.49	-43.4	-45.1	15.7	0.00e+00	0	33	0	709885952	52	4508
2026-01-15 21:06:58.29	62.76	10.49	-43.5	-45.1	15.7	0.00e+00	0	33	0	713031680	52	4515
2026-01-15 21:06:59.30	62.95	10.50	-43.5	-45.1	15.6	0.00e+00	0	33	0	716177408	52	4524
2026-01-15 21:07:00.31	63.13	10.50	-43.4	-45.0	15.7	0.00e+00	0	33	0	719323136	52	4465
2026-01-15 21:07:01.32	63.31	10.50	-43.4	-45.0	15.7	0.00e+00	0	33	0	722468864	52	4449
2026-01-15 21:07:02.33	63.50	10.50	-43.4	-45.0	15.7	0.00e+00	0	33	0	725614592	52	4472
2026-01-15 21:07:03.34	63.68	10.50	-43.4	-45.1	15.7	0.00e+00	0	33	0	728760320	52	4494
2026-01-15 21:07:04.35	63.87	10.50	-43.4	-45.0	15.7	0.00e+00	0	33	0	731906048	52	4487
2026-01-15 21:07:05.36	64.05	10.50	-43.4	-45.1	15.7	0.00e+00	0	33	0	736100352	52	4509
2026-01-15 21:07:06.37	64.23	10.50	-43.4	-45.0	15.7	0.00e+00	0	33	0	738197504	52	4484
2026-01-15 21:07:07.38	64.42	10.50	-43.2	-44.8	15.8	0.00e+00	0	33	0	741343232	52	4376
2026-01-15 21:07:08.39	64.60	10.50	-43.3	-44.9	15.7	0.00e+00	0	33	0	744488960	52	4419
2026-01-15 21:07:09.40	64.78	10.50	-43.4	-45.0	15.7	0.00e+00	0	33	0	747634688	52	4458
2026-01-15 21:07:10.41	64.97	10.50	-43.4	-45.0	15.7	0.00e+00	0	33	0	751828992	52	4462
2026-01-15 21:07:11.42	65.15	10.50	-43.2	-44.7	15.8	0.00e+00	0	33	0	754974720	52	4338
2026-01-15 21:07:12.43	65.33	10.50	-43.2	-44.8	15.8	0.00e+00	0	33	0	758120448	52	4375
2026-01-15 21:07:13.44	65.52	10.50	-43.2	-44.8	15.8	0.00e+00	0	33	0	761266176	52	4358
2026-01-15 21:07:14.45	65.70	10.50	-43.2	-44.8	15.8	0.00e+00	0	33	0	763363328	52	4377
2026-01-15 21:07:15.46	65.88	10.49	-43.3	-44.9	15.7	0.00e+00	0	33	0	767557632	52	4406
2026-01-15 21:07:16.47	66.07	10.49	-43.3	-44.8	15.7	0.00e+00	0	33	0	770703360	52	4382
2026-01-15 21:07:17.48	66.25	10.49	-43.2	-44.8	15.8	0.00e+00	0	33	0	773849088	52	4351
2026-01-15 21:07:18.49	66.43	10.49	-43.2	-44.8	15.8	0.00e+00	0	33	0	776994816	52	4362
2026-01-15 21:07:19.50	66.62	10.48	-43.2	-44.8	15.8	0.00e+00	0	33	0	780140544	52	4350
2026-01-15 21:07:20.51	66.80	10.48	-43.3	-44.9	15.7	0.00e+00	0	33	0	783286272	52	4415
2026-01-15 21:07:21.52	66.98	10.48	-43.4	-45.1	15.7	0.00e+00	0	33	0	786432000	52	4495
2026-01-15 21:07:22.53	67.17	10.47	-43.6	-45.2	15.6	0.00e+00	0	33	0	789577728	52	4585
2026-01-15 21:07:23.54	67.35	10.47	-43.4	-45.1	15.6	0.00e+00	0	33	0	792723456	52	4505
2026-01-15 21:07:24.55	67.53	10.46	-43.4	-45.1	15.7	0.00e+00	0	33	0	795869184	52	4499
2026-01-15 21:07:25.56	67.72	10.46	-43.4	-45.1	15.7	0.00e+00	0	33	0	799014912	52	4494
2026-01-15 21:07:26.57	67.90	10.45	-43.4	-45.0	15.7	0.00e+00	0	33	0	802160640	52	4472
2026-01-15 21:07:27.58	68.08	10.45	-43.4	-45.1	15.7	0.00e+00	0	33	0	805306368	52	4501
2026-01-15 21:07:28.59	68.27	10.44	-43.4	-45.0	15.7	0.00e+00	0	33	0	808452096	52	4464
2026-01-15 21:07:29.60	68.45	10.44	-43.4	-45.0	15.7	0.00e+00	0	33	0	811597824	52	4485
2026-01-15 21:07:30.61	68.63	10.43	-43.4	-45.0	15.7	0.00e+00	0	33	0	814743552	52	4469
2026-01-15 21:07:31.62	68.81	10.42	-43.4	-45.0	15.7	0.00e+00	0	33	0	817889280	52	4455
2026-01-15 21:07:32.63	69.00	10.42	-43.3	-44.9	15.8	0.00e+00	0	33	0	821035008	52	4436
2026-01-15 21:07:33.64	69.18	10.41	-43.3	-44.9	15.8	0.00e+00	0	33	0	824180736	52	4423
2026-01-15 21:07:34.65	69.36	10.40	-43.5	-45.1	15.7	0.00e+00	0	33	0	827326464	52	4509
2026-01-15 21:07:35.66	69.54	10.40	-43.4	-45.0	15.7	0.00e+00	0	33	0	830472192	52	4484
2026-01-15 21:07:36.67	69.73	10.39	-43.4	-45.0	15.7	0.00e+00	0	33	0	833617920	52	4481
2026-01-15 21:07:37.68	69.91	10.38	-43.4	-45.1	15.7	0.00e+00	0	33	0	836763648	52	4499
2026-01-15 21:07:38.69	70.09	10.37	-43.5	-45.1	15.7	0.00e+00	0	33	0	839909376	52	4519
2026-01-15 21:07:39.70	70.27	10.37	-43.5	-45.1	15.7	0.00e+00	0	33	0	843055104	52	4512
2026-01-15 21:07:40.71	70.45	10.36	-43.4	-45.0	15.7	0.00e+00	0	33	0	846200832	52	4467
2026-01-15 21:07:41.72	70.64	10.35	-43.4	-45.1	15.7	0.00e+00	0	33	0	849346560	52	4503
2026-01-15 21:07:42.73	70.82	10.34	-43.3	-44.9	15.8	0.00e+00	0	33	0	852492288	52	4421
2026-01-15 21:07:43.74	71.00	10.33	-43.3	-44.8	15.8	0.00e+00	0	33	0	855638016	52	4388
2026-01-15 21:07:44.75	71.18	10.32	-43.4	-45.0	15.7	0.00e+00	0	33	0	858783744	52	4470
2026-01-15 21:07:45.76	71.36	10.31	-43.4	-45.0	15.7	0.00e+00	0	33	0	861929472	52	4468
2026-01-15 21:07:46.77	71.54	10.30	-43.3	-44.9	15.8	0.00e+00	0	33	0	865075200	52	4398
2026-01-15 21:07:47.78	71.72	10.29	-43.3	-44.9	15.8	0.00e+00	0	33	0	868220928	52	4434
2026-01-15 21:07:48.79	71.91	10.28	-43.4	-45.0	15.7	0.00e+00	0	33	0	871366656	52	4447
2026-01-15 21:07:49.80	72.09	10.27	-43.3	-45.0	15.7	0.00e+00	0	33	0	874512384	52	4443
2026-01-15 21:07:50.81	72.27	10.26	-43.3	-44.9	15.7	0.00e+00	0	33	0	877658112	52	4431
2026-01-15 21:07:51.82	72.45	10.25	-43.4	-45.0	15.7	0.00e+00	0	33	0	880803840	52	4462
2026-01-15 21:07:52.83	72.63	10.24	-43.5	-45.1	15.6	0.00e+00	0	33	0	883949568	52	4537
2026-01-15 21:07:53.84	72.81	10.23	-43.6	-45.2	15.6	0.00e+00	0	33	0	887095296	52	4590
2026-01-15 21:07:54.85	72.99	10.21	-43.7	-45.4	15.5	0.00e+00	0	33	0	890241024	52	4660
2026-01-15 21:07:55.86	73.17	10.20	-43.6	-45.3	15.6	0.00e+00	0	33	0	893386752	52	4604
2026-01-15 21:07:56.86	73.35	10.19	-43.5	-45.2	15.6	0.00e+00	0	33	0	896532480	52	4566
2026-01-15 21:07:57.88	73.53	10.18	-43.5	-45.1	15.6	0.00e+00	0	33	0	899678208	52	4543
2026-01-15 21:07:58.89	73.71	10.16	-43.6	-45.2	15.6	0.00e+00	0	33	0	902823936	52	4593
2026-01-15 21:07:59.90	73.89	10.15	-43.6	-45.3	15.6	0.00e+00	0	33	0	905969664	52	4606
2026-01-15 21:08:00.90	74.07	10.14	-43.7	-45.3	15.5	0.00e+00	0	33	0	909115392	52	4650
2026-01-15 21:08:01.92	74.25	10.12	-43.7	-45.3	15.5	0.00e+00	0	33	0	912261120	52	4648
2026-01-15 21:08:02.92	74.42	10.11	-43.4	-45.1	15.6	0.00e+00	0	33	0	915406848	52	4511
2026-01-15 21:08:03.93	74.60	10.10	-43.6	-45.3	15.6	0.00e+00	0	33	0	918552576	52	4629
2026-01-15 21:08:04.94	74.78	10.08	-43.7	-45.4	15.5	0.00e+00	0	33	0	921698304	52	4680
2026-01-15 21:08:05.95	74.96	10.07	-43.6	-45.3	15.5	0.00e+00	0	33	0	924844032	52	4622
2026-01-15 21:08:06.96	75.14	10.05	-43.6	-45.3	15.5	0.00e+00	0	33	0	927989760	52	4624
2026-01-15 21:08:07.97	75.32	10.04	-43.7	-45.4	15.5	0.00e+00	0	33	0	931135488	52	4656
2026-01-15 21:08:08.98	75.50	10.02	-43.7	-45.4	15.5	0.00e+00	0	33	0	934281216	52	4655
2026-01-15 21:08:09.98	75.67	10.01	-43.8	-45.5	15.4	0.00e+00	0	33	0	937426944	52	4723
2026-01-15 21:08:10.99	75.85	9.99	-43.5	-45.1	15.6	0.00e+00	0	33	0	940572672	52	4532
2026-01-15 21:08:12.00	76.03	9.97	-43.5	-45.1	15.6	0.00e+00	0	33	0	943718400	52	4521
2026-01-15 21:08:13.01	76.20	9.96	-43.5	-45.1	15.6	0.00e+00	0	34	0	946864128	52	4537
2026-01-15 21:08:14.02	76.38	9.94	-43.6	-45.3	15.6	0.00e+00	0	33	0	950009856	52	4622
2026-01-15 21:08:15.03	76.56	9.93	-43.6	-45.2	15.6	0.00e+00	0	33	0	953155584	52	4591
2026-01-15 21:08:16.04	76.73	9.91	-43.5	-45.1	15.7	0.00e+00	0	33	0	956301312	52	4523
2026-01-15 21:08:17.05	76.91	9.89	-43.5	-45.2	15.6	0.00e+00	0	33	0	959447040	52	4572
2026-01-15 21:08:18.06	77.09	9.87	-43.5	-45.2	15.6	0.00e+00	0	34	0	962592768	52	4562
2026-01-15 21:08:19.07	77.26	9.86	-43.6	-45.3	15.6	0.00e+00	0	34	0	965738496	52	4618
2026-01-15 21:08:20.08	77.44	9.84	-43.7	-45.3	15.5	0.00e+00	0	33	0	968884224	52	4650
2026-01-15 21:08:21.09	77.62	9.82	-43.5	-45.2	15.6	0.00e+00	0	34	0	972029952	52	4561
2026-01-15 21:08:22.10	77.79	9.80	-43.5	-45.2	15.6	0.00e+00	0	33	0	975175680	52	4560
2026-01-15 21:08:23.11	77.97	9.78	-43.6	-45.2	15.6	0.00e+00	0	33	0	978321408	52	4583
2026-01-15 21:08:24.12	78.14	9.77	-43.5	-45.1	15.6	0.00e+00	0	33	0	981467136	52	4540
2026-01-15 21:08:25.13	78.32	9.75	-43.5	-45.2	15.6	0.00e+00	0	33	0	984612864	52	4564
2026-01-15 21:08:26.14	78.49	9.73	-43.3	-45.0	15.7	0.00e+00	0	33	0	987758592	52	4442
2026-01-15 21:08:27.15	78.67	9.71	-43.4	-45.0	15.7	0.00e+00	0	33	0	990904320	52	4451
2026-01-15 21:08:28.16	78.84	9.69	-43.4	-45.0	15.7	0.00e+00	0	33	0	994050048	52	4471
2026-01-15 21:08:29.17	79.01	9.67	-43.4	-45.1	15.7	0.00e+00	0	33	0	997195776	52	4497
2026-01-15 21:08:30.17	79.19	9.65	-43.5	-45.1	15.6	0.00e+00	0	33	0	1000341504	52	4544
2026-01-15 21:08:31.18	79.36	9.63	-43.3	-44.9	15.8	0.00e+00	0	33	0	1003487232	52	4406
2026-01-15 21:08:32.19	79.53	9.61	-43.3	-44.9	15.7	0.00e+00	0	33	0	1006632960	52	4439
2026-01-15 21:08:33.20	79.71	9.59	-43.3	-44.9	15.8	0.00e+00	0	33	0	1009778688	52	4399
2026-01-15 21:08:34.21	79.88	9.57	-43.3	-44.8	15.8	0.00e+00	0	34	0	1012924416	52	4385
2026-01-15 21:08:35.22	80.05	9.55	-43.3	-44.9	15.7	0.00e+00	0	33	0	1016070144	52	4437
2026-01-15 21:08:36.23	80.22	9.53	-43.4	-45.0	15.7	0.00e+00	0	33	0	1019215872	52	4485
2026-01-15 21:08:37.24	80.40	9.50	-43.5	-45.2	15.6	0.00e+00	0	33	0	1022361600	52	4557
2026-01-15 21:08:38.25	80.57	9.48	-43.5	-45.1	15.6	0.00e+00	0	33	0	1025507328	52	4545
2026-01-15 21:08:39.26	80.74	9.46	-43.4	-45.0	15.7	0.00e+00	0	34	0	1028653056	52	4465
2026-01-15 21:08:40.27	80.91	9.44	-43.3	-44.9	15.8	0.00e+00	0	33	0	1031798784	52	4438
2026-01-15 21:08:41.28	81.08	9.42	-43.5	-45.2	15.7	0.00e+00	0	34	0	1034944512	52	4552
2026-01-15 21:08:42.29	81.25	9.39	-43.6	-45.2	15.6	0.00e+00	0	33	0	1038090240	52	4583
2026-01-15 21:08:43.30	81.42	9.37	-43.5	-45.2	15.6	0.00e+00	0	33	0	1041235968	52	4546
2026-01-15 21:08:44.31	81.59	9.35	-43.5	-45.1	15.7	0.00e+00	0	33	0	1044381696	52	4519
2026-01-15 21:08:45.32	81.76	9.33	-43.4	-45.0	15.7	0.00e+00	0	33	0	1047527424	52	4488
2026-01-15 21:08:46.33	81.93	9.30	-43.4	-45.1	15.6	0.00e+00	0	33	0	1050673152	52	4511
2026-01-15 21:08:47.34	82.10	9.28	-43.5	-45.1	15.6	0.00e+00	0	33	0	1053818880	52	4530
2026-01-15 21:08:48.35	82.27	9.26	-43.2	-44.8	15.8	0.00e+00	0	33	0	1056964608	52	4377
2026-01-15 21:08:49.35	82.44	9.23	-43.3	-44.9	15.7	0.00e+00	0	34	0	1060110336	52	4428
2026-01-15 21:08:50.36	82.61	9.21	-43.5	-45.2	15.6	0.00e+00	0	34	0	1063256064	52	4550
2026-01-15 21:08:51.37	82.78	9.18	-43.5	-45.2	15.6	0.00e+00	0	33	0	1066401792	52	4546
2026-01-15 21:08:52.38	82.95	9.16	-43.5	-45.1	15.7	0.00e+00	0	33	0	1069547520	52	4531
2026-01-15 21:08:53.39	83.11	9.13	-43.4	-45.1	15.7	0.00e+00	0	33	0	1072693248	52	4500
2026-01-15 21:08:54.40	83.28	9.11	-43.5	-45.1	15.7	0.00e+00	0	33	0	1075838976	52	4521
2026-01-15 21:08:55.41	83.45	9.09	-43.5	-45.2	15.6	0.00e+00	0	33	0	1078984704	52	4562
2026-01-15 21:08:56.42	83.62	9.06	-43.6	-45.3	15.6	0.00e+00	0	33	0	1082130432	52	4603
2026-01-15 21:08:57.43	83.78	9.03	-43.4	-45.1	15.7	0.00e+00	0	33	0	1085276160	52	4510
2026-01-15 21:08:58.44	83.95	9.01	-43.5	-45.1	15.6	0.00e+00	0	33	0	1088421888	52	4542
2026-01-15 21:08:59.45	84.12	8.98	-43.5	-45.2	15.6	0.00e+00	0	33	0	1091567616	52	4558
2026-01-15 21:09:00.46	84.28	8.96	-43.6	-45.2	15.6	0.00e+00	0	34	0	1095761920	52	4584
2026-01-15 21:09:01.47	84.45	8.93	-43.7	-45.4	15.6	0.00e+00	0	34	0	1098907648	52	4665
2026-01-15 21:09:02.48	84.61	8.91	-43.6	-45.3	15.6	0.00e+00	0	34	0	1101004800	52	4606
2026-01-15 21:09:03.49	84.78	8.88	-43.6	-45.2	15.6	0.00e+00	0	33	0	1104150528	52	4597
2026-01-15 21:09:04.49	84.94	8.85	-43.6	-45.3	15.5	0.00e+00	0	33	0	1107296256	52	4642
2026-01-15 21:09:05.50	85.11	8.83	-43.6	-45.3	15.6	0.00e+00	0	33	0	1110441984	52	4629
2026-01-15 21:09:06.51	85.27	8.80	-43.7	-45.4	15.5	0.00e+00	0	33	0	1114636288	52	4656
2026-01-15 21:09:07.52	85.44	8.77	-43.4	-45.1	15.7	0.00e+00	0	33	0	1117782016	52	4498
2026-01-15 21:09:08.53	85.60	8.74	-43.4	-45.1	15.7	0.00e+00	0	33	0	1120927744	52	4510
2026-01-15 21:09:09.54	85.76	8.72	-43.6	-45.3	15.6	0.00e+00	0	34	0	1124073472	52	4630
2026-01-15 21:09:10.55	85.93	8.69	-43.8	-45.5	15.5	0.00e+00	0	33	0	1126170624	52	4740
2026-01-15 21:09:11.56	86.09	8.66	-43.7	-45.4	15.5	0.00e+00	0	33	0	1130364928	52	4690
2026-01-15 21:09:12.57	86.25	8.63	-43.7	-45.4	15.5	0.00e+00	0	33	0	1133510656	52	4699
2026-01-15 21:09:13.58	86.41	8.61	-43.5	-45.2	15.6	0.00e+00	0	33	0	1136656384	52	4554
2026-01-15 21:09:14.59	86.58	8.58	-43.5	-45.1	15.7	0.00e+00	0	33	0	1139802112	52	4521
2026-01-15 21:09:15.60	86.74	8.55	-43.5	-45.1	15.6	0.00e+00	0	33	0	1142947840	52	4540
2026-01-15 21:09:16.61	86.90	8.52	-43.7	-45.4	15.5	0.00e+00	0	34	0	1146093568	52	4686
2026-01-15 21:09:17.62	87.06	8.49	-43.6	-45.3	15.5	0.00e+00	0	33	0	1149239296	52	4618
2026-01-15 21:09:18.63	87.22	8.46	-43.5	-45.2	15.6	0.00e+00	0	34	0	1152385024	52	4565
2026-01-15 21:09:19.64	87.38	8.43	-43.4	-45.1	15.6	0.00e+00	0	33	0	1155530752	52	4508
2026-01-15 21:09:20.65	87.54	8.40	-43.5	-45.2	15.6	0.00e+00	0	34	0	1158676480	52	4548
2026-01-15 21:09:21.66	87.70	8.38	-43.5	-45.1	15.6	0.00e+00	0	33	0	1161822208	52	4535
2026-01-15 21:09:22.67	87.86	8.35	-43.6	-45.3	15.5	0.00e+00	0	33	0	1164967936	52	4635
2026-01-15 21:09:23.68	88.02	8.32	-43.6	-45.3	15.5	0.00e+00	0	34	0	1168113664	52	4648
2026-01-15 21:09:24.69	88.18	8.29	-43.6	-45.3	15.5	0.00e+00	0	33	0	1171259392	52	4637
2026-01-15 21:09:25.69	88.34	8.26	-43.6	-45.2	15.6	0.00e+00	0	33	0	1174405120	52	4591
2026-01-15 21:09:26.70	88.50	8.23	-43.7	-45.4	15.5	0.00e+00	0	33	0	1177550848	52	4675
2026-01-15 21:09:27.71	88.65	8.20	-43.7	-45.5	15.4	0.00e+00	0	33	0	1180696576	52	4722
2026-01-15 21:09:28.72	88.81	8.17	-43.8	-45.6	15.4	0.00e+00	0	34	0	1183842304	52	4782
2026-01-15 21:09:29.73	88.97	8.13	-43.8	-45.5	15.4	0.00e+00	0	33	0	1186988032	52	4741
2026-01-15 21:09:30.74	89.13	8.10	-43.9	-45.6	15.3	0.00e+00	0	33	0	1190133760	52	4790
2026-01-15 21:09:31.75	89.28	8.07	-43.9	-45.7	15.3	0.00e+00	0	33	0	1193279488	53	4566
2026-01-15 21:09:32.76	89.44	8.04	-43.9	-45.7	15.3	0.00e+00	0	34	0	1196425216	53	4566
2026-01-15 21:09:33.77	89.60	8.01	-43.7	-45.5	15.4	0.00e+00	0	34	0	1199570944	53	4457
2026-01-15 21:09:34.78	89.75	7.98	-43.7	-45.5	15.4	0.00e+00	0	34	0	1202716672	53	4459
2026-01-15 21:09:35.79	89.91	7.95	-43.8	-45.6	15.4	0.00e+00	0	34	0	1205862400	53	4498
2026-01-15 21:09:36.80	90.06	7.92	-43.8	-45.5	15.4	0.00e+00	0	33	0	1209008128	53	4467
2026-01-15 21:09:37.81	90.22	7.88	-43.9	-45.6	15.3	0.00e+00	0	34	0	1212153856	53	4542
2026-01-15 21:09:38.82	90.37	7.85	-43.8	-45.6	15.4	0.00e+00	0	34	0	1215299584	53	4510
2026-01-15 21:09:39.83	90.52	7.82	-43.9	-45.7	15.3	0.00e+00	0	34	0	1218445312	53	4594
2026-01-15 21:09:40.84	90.68	7.79	-43.8	-45.5	15.4	0.00e+00	0	33	0	1221591040	53	4471
2026-01-15 21:09:41.85	90.83	7.76	-43.6	-45.3	15.6	0.00e+00	0	34	0	1224736768	53	4363
2026-01-15 21:09:42.86	90.99	7.72	-43.7	-45.4	15.4	0.00e+00	0	33	0	1227882496	53	4441
2026-01-15 21:09:43.86	91.14	7.69	-43.8	-45.5	15.4	0.00e+00	0	33	0	1231028224	53	4462
2026-01-15 21:09:44.87	91.29	7.66	-43.8	-45.5	15.4	0.00e+00	0	33	0	1234173952	53	4458
2026-01-15 21:09:45.88	91.44	7.63	-43.9	-45.7	15.3	0.00e+00	0	33	0	1237319680	53	4567
2026-01-15 21:09:46.89	91.59	7.59	-43.8	-45.6	15.3	0.00e+00	0	33	0	1240465408	53	4524
2026-01-15 21:09:47.90	91.75	7.56	-44.0	-45.8	15.2	0.00e+00	0	34	0	1243611136	53	4623
2026-01-15 21:09:48.91	91.90	7.53	-44.0	-45.8	15.2	0.00e+00	0	34	0	1246756864	53	4639
2026-01-15 21:09:49.92	92.05	7.49	-44.3	-46.2	15.0	0.00e+00	0	33	0	1249902592	53	4863
2026-01-15 21:09:50.93	92.20	7.46	-44.1	-45.9	15.1	0.00e+00	0	33	0	1253048320	53	4700
2026-01-15 21:09:51.94	92.35	7.43	-44.1	-45.9	15.2	0.00e+00	0	33	0	1256194048	53	4693
2026-01-15 21:09:52.95	92.50	7.39	-44.2	-46.1	15.0	0.00e+00	0	34	0	1259339776	53	4800
2026-01-15 21:09:53.96	92.65	7.36	-44.3	-46.2	15.0	0.00e+00	0	33	0	1262485504	53	4828
2026-01-15 21:09:54.97	92.80	7.32	-44.1	-45.9	15.2	0.00e+00	0	33	0	1265631232	53	4685
2026-01-15 21:09:55.98	92.95	7.29	-44.0	-45.9	15.2	0.00e+00	0	33	0	1268776960	53	4661
2026-01-15 21:09:56.99	93.09	7.26	-44.2	-46.0	15.1	0.00e+00	0	33	0	1271922688	53	4755
2026-01-15 21:09:58.00	93.24	7.22	-44.2	-46.1	15.0	0.00e+00	0	34	0	1275068416	53	4809
2026-01-15 21:09:59.00	93.39	7.19	-44.1	-46.0	15.1	0.00e+00	0	34	0	1278214144	53	4713
2026-01-15 21:10:00.01	93.54	7.15	-43.9	-45.7	15.2	0.00e+00	0	34	0	1281359872	53	4595
2026-01-15 21:10:01.02	93.68	7.12	-44.0	-45.9	15.2	0.00e+00	0	33	0	1284505600	53	4659
2026-01-15 21:10:02.03	93.83	7.08	-44.1	-45.9	15.1	0.00e+00	0	34	0	1287651328	53	4698
2026-01-15 21:10:03.04	93.98	7.05	-43.9	-45.7	15.2	0.00e+00	0	33	0	1290797056	53	4582
2026-01-15 21:10:04.05	94.12	7.01	-44.0	-45.9	15.1	0.00e+00	0	33	0	1293942784	53	4658
2026-01-15 21:10:05.06	94.27	6.98	-44.0	-45.8	15.2	0.00e+00	0	34	0	1297088512	53	4632
2026-01-15 21:10:06.07	94.41	6.94	-44.1	-46.0	15.1	0.00e+00	0	33	0	1300234240	53	4729
2026-01-15 21:10:07.08	94.56	6.91	-44.2	-46.1	15.0	0.00e+00	0	33	0	1303379968	53	4792
2026-01-15 21:10:08.09	94.70	6.87	-44.2	-46.1	15.0	0.00e+00	0	34	0	1306525696	53	4795
2026-01-15 21:10:09.10	94.85	6.84	-44.6	-46.7	14.7	0.00e+00	0	34	0	1309671424	54	4817
2026-01-15 21:10:10.11	94.99	6.80	-44.3	-46.2	15.0	0.00e+00	0	33	0	1312817152	54	4550
2026-01-15 21:10:11.12	95.14	6.77	-44.5	-46.5	14.8	0.00e+00	0	33	0	1315962880	54	4717
2026-01-15 21:10:12.13	95.28	6.73	-44.5	-46.5	14.8	0.00e+00	0	33	0	1319108608	54	4710
2026-01-15 21:10:13.14	95.42	6.70	-44.3	-46.2	15.0	0.00e+00	0	33	0	1322254336	54	4555
2026-01-15 21:10:14.15	95.57	6.66	-44.2	-46.1	15.0	0.00e+00	0	34	0	1325400064	54	4523
2026-01-15 21:10:15.16	95.71	6.62	-44.1	-46.0	15.0	0.00e+00	0	33	0	1328545792	54	4477
2026-01-15 21:10:16.17	95.85	6.59	-44.1	-45.9	15.1	0.00e+00	0	33	0	1331691520	54	4414
2026-01-15 21:10:17.18	95.99	6.55	-44.3	-46.2	14.9	0.00e+00	0	33	0	1334837248	54	4597
2026-01-15 21:10:18.19	96.14	6.51	-44.5	-46.5	14.8	0.00e+00	0	34	0	1337982976	54	4716
2026-01-15 21:10:19.20	96.28	6.48	-44.2	-46.1	15.0	0.00e+00	0	34	0	1341128704	54	4518
2026-01-15 21:10:20.21	96.42	6.44	-44.1	-45.9	15.1	0.00e+00	0	33	0	1344274432	54	4440
2026-01-15 21:10:21.22	96.56	6.40	-44.1	-45.9	15.1	0.00e+00	0	33	0	1347420160	54	4434
2026-01-15 21:10:22.23	96.70	6.37	-44.2	-46.1	15.0	0.00e+00	0	34	0	1350565888	54	4526
2026-01-15 21:10:23.24	96.84	6.33	-44.2	-46.1	15.0	0.00e+00	0	33	0	1353711616	54	4495
2026-01-15 21:10:24.25	96.98	6.29	-44.4	-46.4	14.8	0.00e+00	0	33	0	1356857344	54	4662
2026-01-15 21:10:25.26	97.12	6.26	-44.3	-46.2	14.9	0.00e+00	0	33	0	1360003072	54	4586
2026-01-15 21:10:26.27	97.26	6.22	-44.1	-46.0	15.1	0.00e+00	0	34	0	1363148800	54	4472
2026-01-15 21:10:27.28	97.39	6.18	-44.4	-46.4	14.8	0.00e+00	0	34	0	1366294528	54	4679
2026-01-15 21:10:28.29	97.53	6.15	-44.6	-46.6	14.7	0.00e+00	0	34	0	1369440256	54	4780
2026-01-15 21:10:29.30	97.67	6.11	-44.3	-46.3	14.9	0.00e+00	0	33	0	1372585984	54	4605
2026-01-15 21:10:30.31	97.81	6.07	-44.4	-46.4	14.8	0.00e+00	0	33	0	1375731712	54	4655
2026-01-15 21:10:31.32	97.94	6.03	-44.3	-46.3	14.9	0.00e+00	0	34	0	1378877440	54	4622
2026-01-15 21:10:32.33	98.08	6.00	-44.1	-46.0	15.0	0.00e+00	0	33	0	1382023168	54	4482
2026-01-15 21:10:33.34	98.22	5.96	-44.4	-46.4	14.8	0.00e+00	0	34	0	1385168896	54	4655
2026-01-15 21:10:34.35	98.35	5.92	-44.3	-46.3	14.9	0.00e+00	0	34	0	1388314624	54	4609
2026-01-15 21:10:35.36	98.49	5.88	-44.2	-46.1	15.0	0.00e+00	0	34	0	1391460352	54	4534
2026-01-15 21:10:36.37	98.62	5.84	-44.3	-46.3	14.9	0.00e+00	0	34	0	1394606080	54	4600
2026-01-15 21:10:37.38	98.76	5.81	-44.5	-46.5	14.7	0.00e+00	0	33	0	1397751808	54	4743
2026-01-15 21:10:38.39	98.89	5.77	-44.1	-46.0	15.1	0.00e+00	0	34	0	1400897536	54	4448
2026-01-15 21:10:39.40	99.03	5.73	-44.9	-47.0	14.4	0.00e+00	0	33	0	1404043264	54	5009
2026-01-15 21:10:40.41	99.16	5.69	-44.9	-47.0	14.4	0.00e+00	0	33	0	1407188992	54	5030
2026-01-15 21:10:41.42	99.30	5.65	-44.4	-46.3	14.8	0.00e+00	0	34	0	1410334720	54	4643
2026-01-15 21:10:42.43	99.43	5.61	-44.3	-46.2	14.9	0.00e+00	0	33	0	1413480448	54	4576
2026-01-15 21:10:43.44	99.56	5.58	-44.6	-46.6	14.6	0.00e+00	0	34	0	1416626176	54	4785
2026-01-15 21:10:44.45	99.70	5.54	-44.2	-46.2	14.9	0.00e+00	0	33	0	1419771904	54	4555
2026-01-15 21:10:45.46	99.83	5.50	-44.0	-45.9	15.1	0.00e+00	0	34	0	1422917632	54	4409
2026-01-15 21:10:46.47	99.96	5.46	-44.7	-46.8	14.5	0.00e+00	0	34	0	1426063360	54	4890
2026-01-15 21:10:47.48	100.09	5.42	-44.8	-46.9	14.4	0.00e+00	0	34	0	1429209088	55	4672
2026-01-15 21:10:48.49	100.22	5.38	-44.7	-46.8	14.5	0.00e+00	0	34	0	1432354816	55	4630
2026-01-15 21:10:49.50	100.35	5.34	-45.0	-47.2	14.2	0.00e+00	0	33	0	1435500544	55	4823
2026-01-15 21:10:50.51	100.48	5.31	-45.1	-47.3	14.2	0.00e+00	0	33	0	1438646272	55	4884
2026-01-15 21:10:51.52	100.62	5.27	-44.7	-46.8	14.5	0.00e+00	0	33	0	1441792000	55	4616
2026-01-15 21:10:52.53	100.75	5.23	-44.7	-46.9	14.4	0.00e+00	0	33	0	1444937728	55	4656
2026-01-15 21:10:53.54	100.88	5.19	-44.8	-47.0	14.4	0.00e+00	0	33	0	1448083456	55	4709
2026-01-15 21:10:54.55	101.00	5.15	-44.9	-47.1	14.3	0.00e+00	0	33	0	1451229184	55	4789
2026-01-15 21:10:55.56	101.13	5.11	-44.2	-46.2	14.9	0.00e+00	0	33	0	1454374912	55	4303
2026-01-15 21:10:56.56	101.26	5.07	-44.1	-46.1	14.9	0.00e+00	0	34	0	1458569216	54	4518
2026-01-15 21:10:57.57	101.39	5.03	-43.8	-45.7	15.1	0.00e+00	0	33	0	1461714944	54	4306
2026-01-15 21:10:58.58	101.52	4.99	-45.4	-47.8	13.9	0.00e+00	0	33	0	1463812096	55	5173
2026-01-15 21:10:59.59	101.65	4.95	-50.4	-64.3	3.8	1.49e+00	0	34	104	1465909248	65	19406
2026-01-15 21:11:00.60	101.77	4.91	-50.6	-64.6	3.8	1.49e+00	0	34	104	1465909248	66	19036
2026-01-15 21:11:01.61	101.90	4.87	-50.9	-64.8	3.8	1.49e+00	0	34	104	1465909248	66	19494
2026-01-15 21:11:02.62	102.03	4.83	-51.0	-65.0	3.8	1.49e+00	0	34	104	1465909248	67	18755
2026-01-15 21:11:03.63	102.15	4.79	-51.1	-65.1	3.8	1.49e+00	0	34	104	1465909248	67	18955
2026-01-15 21:11:04.64	102.28	4.75	-51.2	-65.2	3.8	1.49e+00	0	34	104	1465909248	67	19266
2026-01-15 21:11:05.65	102.40	4.71	-51.3	-65.3	3.8	1.49e+00	0	34	104	1465909248	67	19523
2026-01-15 21:11:06.66	102.53	4.67	-51.6	-65.5	3.8	1.49e+00	0	34	104	1465909248	68	18934
2026-01-15 21:11:07.67	102.66	4.63	-51.6	-65.6	3.8	1.49e+00	0	34	104	1465909248	68	19121
2026-01-15 21:11:08.68	102.78	4.59	-51.7	-65.7	3.8	1.49e+00	0	34	104	1465909248	68	19185
2026-01-15 21:11:09.68	102.90	4.55	-51.7	-65.7	3.8	1.49e+00	0	34	104	1465909248	68	19294
2026-01-15 21:11:10.69	103.03	4.51	-51.8	-65.8	3.8	1.49e+00	0	34	104	1465909248	68	19478
2026-01-15 21:11:11.70	103.15	4.47	-51.8	-65.8	3.8	1.49e+00	0	34	104	1465909248	68	19422
2026-01-15 21:11:12.71	103.27	4.43	-51.8	-65.8	3.8	1.49e+00	0	34	104	1465909248	68	19552
2026-01-15 21:11:13.72	103.40	4.39	-51.8	-65.8	3.8	1.49e+00	0	34	104	1465909248	68	19581
2026-01-15 21:11:14.73	103.52	4.35	-51.9	-65.9	3.8	1.49e+00	0	34	104	1465909248	68	19624
2026-01-15 21:11:15.74	103.64	4.31	-51.9	-65.9	3.8	1.49e+00	0	34	104	1465909248	68	19658
2026-01-15 21:11:16.75	103.77	4.27	-51.9	-65.9	3.8	1.49e+00	0	34	104	1465909248	68	19741
2026-01-15 21:11:17.76	103.89	4.23	-51.9	-65.9	3.8	1.49e+00	0	34	104	1465909248	69	18612
2026-01-15 21:11:18.77	104.01	4.19	-51.9	-65.9	3.8	1.49e+00	0	34	104	1465909248	69	18669
2026-01-15 21:11:19.78	104.13	4.15	-51.9	-65.9	3.8	1.49e+00	0	34	104	1465909248	69	18710
2026-01-15 21:11:20.79	104.25	4.11	-51.9	-66.0	3.8	1.49e+00	0	34	104	1465909248	69	18755
2026-01-15 21:11:21.80	104.37	4.07	-52.0	-66.0	3.8	1.49e+00	0	34	104	1465909248	69	18788
2026-01-15 21:11:22.81	104.49	4.03	-52.0	-66.0	3.8	1.49e+00	0	34	104	1465909248	69	18773
2026-01-15 21:11:23.82	104.61	3.99	-52.0	-66.0	3.8	1.49e+00	0	34	104	1465909248	69	18765
2026-01-15 21:11:24.82	104.73	3.95	-52.0	-66.0	3.8	1.49e+00	0	34	104	1465909248	69	18758
2026-01-15 21:11:25.84	104.85	3.91	-52.0	-66.0	3.8	1.49e+00	0	34	104	1465909248	69	18816
2026-01-15 21:11:26.85	104.97	3.87	-52.0	-66.0	3.8	1.49e+00	0	34	104	1465909248	69	18827
2026-01-15 21:11:27.85	105.09	3.83	-52.0	-66.0	3.8	1.49e+00	0	34	104	1465909248	69	18788
2026-01-15 21:11:28.86	105.21	3.79	-51.9	-65.9	3.8	1.49e+00	0	34	104	1465909248	69	18688
2026-01-15 21:11:29.87	105.32	3.74	-51.9	-65.9	3.8	1.49e+00	0	34	104	1465909248	69	18680
2026-01-15 21:11:30.88	105.44	3.70	-51.9	-65.9	3.8	1.49e+00	0	34	104	1465909248	69	18658
2026-01-15 21:11:31.89	105.56	3.66	-51.9	-65.9	3.8	1.49e+00	0	34	104	1465909248	69	18677
2026-01-15 21:11:32.90	105.68	3.62	-51.9	-65.9	3.8	1.49e+00	0	34	104	1465909248	69	18617
2026-01-15 21:11:33.91	105.79	3.58	-51.9	-65.9	3.8	1.49e+00	0	34	104	1465909248	69	18663
2026-01-15 21:11:34.92	105.91	3.54	-51.9	-65.9	3.8	1.49e+00	0	34	104	1465909248	69	18578
2026-01-15 21:11:35.93	106.03	3.50	-51.9	-65.9	3.8	1.49e+00	0	34	104	1465909248	69	18621
2026-01-15 21:11:36.94	106.14	3.46	-51.9	-65.9	3.8	1.49e+00	0	34	104	1465909248	69	18642
2026-01-15 21:11:37.95	106.26	3.42	-51.9	-65.9	3.8	1.49e+00	0	34	104	1465909248	69	18557
2026-01-15 21:11:38.96	106.37	3.38	-51.9	-65.9	3.8	1.49e+00	0	34	104	1465909248	69	18568
2026-01-15 21:11:39.97	106.49	3.33	-51.9	-65.9	3.8	1.49e+00	0	34	104	1465909248	69	18596
2026-01-15 21:11:40.98	106.60	3.29	-51.9	-65.9	3.8	1.49e+00	0	34	104	1465909248	69	18561
2026-01-15 21:11:41.98	106.71	3.25	-51.9	-65.9	3.8	1.49e+00	0	34	104	1465909248	69	18596
2026-01-15 21:11:43.00	106.83	3.21	-51.8	-65.9	3.8	1.49e+00	0	34	104	1465909248	69	18558
2026-01-15 21:11:44.00	106.94	3.17	-51.9	-65.9	3.8	1.49e+00	0	34	104	1465909248	69	18562
2026-01-15 21:11:45.01	107.06	3.13	-51.9	-65.9	3.8	1.49e+00	0	34	104	1465909248	69	18519
2026-01-15 21:11:46.02	107.17	3.09	-51.9	-65.9	3.8	1.49e+00	0	34	104	1465909248	69	18544
2026-01-15 21:11:47.03	107.28	3.05	-51.9	-65.9	3.8	1.49e+00	0	34	104	1465909248	69	18522
2026-01-15 21:11:48.04	107.39	3.00	-51.9	-65.9	3.8	1.49e+00	0	34	104	1465909248	69	18598
2026-01-15 21:11:49.05	107.51	2.96	-51.9	-65.9	3.8	1.49e+00	0	34	104	1465909248	69	18570
2026-01-15 21:11:50.06	107.62	2.92	-51.8	-65.9	3.8	1.49e+00	0	34	104	1465909248	69	18545
2026-01-15 21:11:51.07	107.73	2.88	-51.8	-65.9	3.8	1.49e+00	0	34	104	1465909248	69	18520
2026-01-15 21:11:52.08	107.84	2.84	-51.9	-65.9	3.8	1.49e+00	0	34	104	1465909248	69	18552
2026-01-15 21:11:53.09	107.95	2.80	-51.8	-65.9	3.8	1.49e+00	0	34	104	1465909248	69	18542
2026-01-15 21:11:54.10	108.06	2.75	-51.8	-65.8	3.8	1.49e+00	0	34	104	1465909248	69	18504
2026-01-15 21:11:55.11	108.17	2.71	-51.8	-65.8	3.8	1.49e+00	0	34	104	1465909248	69	18511
2026-01-15 21:11:56.12	108.28	2.67	-51.8	-65.9	3.8	1.49e+00	0	34	104	1465909248	69	18551
2026-01-15 21:11:57.13	108.39	2.63	-51.8	-65.8	3.8	1.49e+00	0	34	104	1465909248	69	18508
2026-01-15 21:11:58.14	108.50	2.59	-51.8	-65.8	3.8	1.49e+00	0	34	104	1465909248	69	18478
2026-01-15 21:11:59.14	108.61	2.55	-51.8	-65.8	3.8	1.49e+00	0	34	104	1465909248	69	18500
2026-01-15 21:12:00.15	108.72	2.50	-51.8	-65.8	3.8	1.49e+00	0	34	104	1465909248	69	18508
2026-01-15 21:12:01.16	108.83	2.46	-51.8	-65.8	3.8	1.49e+00	0	34	104	1465909248	69	18474
2026-01-15 21:12:02.17	108.94	2.42	-51.8	-65.9	3.8	1.49e+00	0	34	104	1465909248	69	18541
2026-01-15 21:12:03.18	109.05	2.38	-51.8	-65.9	3.8	1.49e+00	0	34	104	1465909248	69	18557
2026-01-15 21:12:04.19	109.15	2.34	-51.8	-65.8	3.8	1.49e+00	0	34	104	1465909248	69	18485
2026-01-15 21:12:05.20	109.26	2.30	-51.8	-65.8	3.8	1.49e+00	0	34	104	1465909248	69	18484
2026-01-15 21:12:06.21	109.37	2.25	-51.8	-65.8	3.8	1.49e+00	0	34	104	1465909248	69	18480
2026-01-15 21:12:07.22	109.47	2.21	-51.8	-65.9	3.8	1.49e+00	0	34	104	1465909248	69	18569
2026-01-15 21:12:08.23	109.58	2.17	-51.8	-65.8	3.8	1.49e+00	0	34	104	1465909248	69	18491
2026-01-15 21:12:09.23	109.69	2.13	-51.8	-65.8	3.8	1.49e+00	0	34	104	1465909248	69	18432
2026-01-15 21:12:10.24	109.79	2.09	-51.8	-65.8	3.8	1.49e+00	0	34	104	1465909248	69	18514
2026-01-15 21:12:11.25	109.90	2.04	-51.8	-65.8	3.8	1.49e+00	0	34	104	1465909248	69	18440
2026-01-15 21:12:12.26	110.00	2.00	-51.8	-65.8	3.8	1.49e+00	0	34	104	1465909248	69	18484
2026-01-15 21:12:13.27	110.11	1.96	-51.8	-65.8	3.8	1.49e+00	0	34	104	1465909248	69	18513

#Closed at: 2026-01-15 21:12:14
#Recorded file [1465 MB]: D:/lorett/data/31004_260116_000159.dat