passes_logs/2025/01/02/X_MFTI_02/X_MFTI_02__20250102_075311_TERRA_rec.log

#Pass ID: 20250102_075311_TERRA
#Satellite: TERRA
#Configuration: TERRA
#Start time: 2025-01-02 07:53:07

#Version: 1.5.20200625
#Station: X_MFTI_02
#Location: 37.5186 lon 55.9291 lat
#TLE: 1 25994U 99068A   23362.45014226  .00000817  00000+0  18168-3 0  9993
#TLE: 2 25994  98.0729  65.8244 0002317 146.5078 343.6211 14.59509299278111

#Time	Az	El	Level	Level2	SNR	BER	Gain	Gain2
2025-01-02 07:53:07.83	25.75	68.39	-76.3	-96.2	3.2	14923355	99	35755
2025-01-02 07:53:08.04	25.81	68.50	-76.2	-96.2	3.3	14902305	99	36043
2025-01-02 07:53:08.26	25.87	68.62	-76.2	-96.2	3.3	14902305	99	35854
2025-01-02 07:53:08.47	25.93	68.74	-76.2	-96.2	3.2	14899742	99	35881
2025-01-02 07:53:08.69	25.99	68.86	-76.2	-96.2	3.2	14899742	99	35897
2025-01-02 07:53:08.90	26.05	68.97	-76.2	-96.2	3.1	14908805	99	35954
2025-01-02 07:53:09.12	26.11	69.09	-76.2	-96.3	3.3	14908805	99	36237
2025-01-02 07:53:09.33	26.18	69.20	-76.3	-96.4	3.2	14908805	99	36484
2025-01-02 07:53:09.54	26.24	69.32	-76.2	-96.3	3.3	14914428	99	36287
2025-01-02 07:53:09.75	26.30	69.43	-76.2	-96.3	3.3	14914428	99	36203
2025-01-02 07:53:09.97	26.37	69.55	-76.2	-96.2	3.3	14908103	99	35909
2025-01-02 07:53:10.18	26.43	69.67	-76.2	-96.2	3.3	14908103	99	36066
2025-01-02 07:53:10.40	26.50	69.79	-76.2	-96.3	3.3	14912757	99	36084
2025-01-02 07:53:10.61	26.57	69.90	-76.2	-96.3	3.4	14912757	99	36086
2025-01-02 07:53:10.83	26.64	70.02	-76.3	-96.3	3.3	14912757	99	36121
2025-01-02 07:53:11.04	26.71	70.14	-76.2	-96.2	3.3	14872680	99	36011
2025-01-02 07:53:11.26	26.78	70.26	-76.2	-96.3	3.3	14872680	99	36072
2025-01-02 07:53:11.47	26.85	70.37	-76.2	-96.3	3.3	14899162	99	36151
2025-01-02 07:53:11.67	26.92	70.48	-76.3	-96.3	3.3	14899162	99	36318
2025-01-02 07:53:11.89	26.99	70.60	-76.2	-96.3	3.2	14903915	99	36121
2025-01-02 07:53:12.10	27.07	70.72	-76.2	-96.3	3.3	14903915	99	36034
2025-01-02 07:53:12.32	27.14	70.84	-76.2	-96.2	3.3	14903915	99	36041
2025-01-02 07:53:12.53	27.22	70.96	-76.2	-96.3	3.3	14883018	99	36254
2025-01-02 07:53:12.75	27.30	71.08	-76.1	-96.1	3.3	14883018	99	35977
2025-01-02 07:53:12.96	27.38	71.19	-76.2	-96.3	3.3	14892250	99	36231
2025-01-02 07:53:13.18	27.46	71.32	-76.2	-96.3	3.2	14892250	99	36167
2025-01-02 07:53:13.39	27.54	71.43	-76.2	-96.3	3.3	14900215	99	36302
2025-01-02 07:53:13.61	27.62	71.55	-76.2	-96.4	3.2	14900215	99	36791
2025-01-02 07:53:13.81	27.70	71.67	-76.2	-96.4	3.2	14900215	99	36587
2025-01-02 07:53:14.03	27.78	71.79	-76.2	-96.4	3.3	14886878	99	36690
2025-01-02 07:53:14.24	27.87	71.90	-76.2	-96.4	3.3	14886878	99	36618
2025-01-02 07:53:14.45	27.95	72.02	-76.4	-96.8	3.1	14890220	99	38090
2025-01-02 07:53:14.67	28.04	72.14	-76.2	-96.2	3.2	14890220	99	35995
2025-01-02 07:53:14.88	28.13	72.26	-76.2	-96.2	3.2	14905540	99	35859
2025-01-02 07:53:15.10	28.22	72.38	-76.2	-96.1	3.4	14905540	99	35601
2025-01-02 07:53:15.32	28.31	72.51	-76.2	-96.2	3.3	14905540	99	36019
2025-01-02 07:53:15.53	28.40	72.62	-76.2	-96.4	3.3	14895629	99	36512
2025-01-02 07:53:15.75	28.50	72.75	-76.2	-96.4	3.2	14895629	99	36558
2025-01-02 07:53:15.96	28.59	72.86	-76.2	-96.3	3.3	14873886	99	36317
2025-01-02 07:53:16.18	28.69	72.99	-76.4	-97.3	3.1	14873886	99	39852
2025-01-02 07:53:16.39	28.79	73.10	-76.2	-96.1	3.3	14916976	99	35630
2025-01-02 07:53:16.61	28.89	73.23	-76.2	-96.2	3.2	14916976	99	35985
2025-01-02 07:53:16.82	28.99	73.34	-76.2	-96.2	3.3	14916976	99	36106
2025-01-02 07:53:17.02	29.08	73.46	-76.2	-96.2	3.3	14898864	99	35899
2025-01-02 07:53:17.24	29.19	73.58	-76.2	-96.2	3.3	14898864	99	36061
2025-01-02 07:53:17.44	29.29	73.69	-76.2	-96.3	3.3	14869644	99	36235
2025-01-02 07:53:17.64	29.39	73.81	-76.2	-96.2	3.3	14869644	99	36118
2025-01-02 07:53:17.85	29.50	73.92	-76.4	-97.5	3.2	14909149	99	40746
2025-01-02 07:53:18.07	29.61	74.05	-76.2	-96.3	3.3	14909149	99	36190
2025-01-02 07:53:18.28	29.72	74.17	-76.2	-96.3	3.2	14909149	99	36114
2025-01-02 07:53:18.50	29.84	74.29	-76.2	-96.3	3.3	14899497	99	36141
2025-01-02 07:53:18.71	29.95	74.41	-76.2	-96.3	3.3	14899497	99	36180
2025-01-02 07:53:18.92	30.06	74.53	-76.2	-96.2	3.2	14859222	99	35965
2025-01-02 07:53:19.12	30.18	74.64	-76.2	-96.2	3.3	14859222	99	35954
2025-01-02 07:53:19.33	30.29	74.76	-76.2	-96.2	3.2	14915206	99	36010
2025-01-02 07:53:19.55	30.42	74.88	-76.2	-96.4	3.7	14915206	99	36794
2025-01-02 07:53:19.76	30.54	75.00	-76.2	-96.2	3.0	14915206	99	36057
2025-01-02 07:53:19.98	30.67	75.13	-76.2	-96.3	3.3	14905487	99	36193
2025-01-02 07:53:20.19	30.80	75.24	-76.3	-96.4	3.4	14905487	99	36639
2025-01-02 07:53:20.41	30.94	75.37	-76.3	-96.3	3.2	14873641	99	36310
2025-01-02 07:53:20.62	31.07	75.49	-76.2	-96.3	3.2	14873641	99	36292
2025-01-02 07:53:20.84	31.21	75.61	-76.2	-96.3	3.3	14892318	99	36216
2025-01-02 07:53:21.04	31.34	75.72	-76.2	-96.3	3.3	14892318	99	36157
2025-01-02 07:53:21.25	31.48	75.84	-76.2	-96.3	3.3	14892318	99	36276
2025-01-02 07:53:21.47	31.62	75.97	-76.2	-96.4	3.3	14903739	99	36544
2025-01-02 07:53:21.68	31.77	76.09	-76.3	-96.4	3.3	14903739	99	36547
2025-01-02 07:53:21.90	31.92	76.21	-76.2	-96.4	3.3	14867019	99	36517
2025-01-02 07:53:22.11	32.07	76.33	-76.2	-96.3	3.3	14867019	99	36189
2025-01-02 07:53:22.33	32.23	76.46	-76.2	-96.3	3.2	14867019	99	36142
2025-01-02 07:53:22.54	32.38	76.57	-76.2	-96.2	3.2	14906784	99	35934
2025-01-02 07:53:22.76	32.55	76.70	-76.2	-96.2	3.2	14906784	99	35907
2025-01-02 07:53:22.96	32.70	76.81	-76.2	-96.4	3.2	14913406	99	36604
2025-01-02 07:53:23.18	32.87	76.94	-76.3	-96.4	3.3	14913406	99	36682
2025-01-02 07:53:23.39	33.04	77.06	-76.2	-96.4	3.4	14871749	99	36636
2025-01-02 07:53:23.61	33.21	77.18	-76.3	-96.4	3.2	14871749	99	36555
2025-01-02 07:53:23.82	33.39	77.30	-76.2	-96.3	3.2	14871749	99	36055
2025-01-02 07:53:24.04	33.57	77.42	-76.2	-96.3	3.3	14905601	99	36118
2025-01-02 07:53:24.25	33.75	77.54	-76.2	-96.2	3.2	14905601	99	35819
2025-01-02 07:53:24.47	33.94	77.67	-76.3	-96.3	3.3	14908157	99	36329
2025-01-02 07:53:24.68	34.13	77.79	-76.3	-96.4	3.3	14908157	99	36453
2025-01-02 07:53:24.90	34.33	77.91	-76.2	-96.4	3.3	14871109	99	36548
2025-01-02 07:53:25.11	34.52	78.03	-76.2	-96.2	3.3	14871109	99	36070
2025-01-02 07:53:25.33	34.73	78.15	-76.2	-96.3	3.3	14871109	99	36401
2025-01-02 07:53:25.54	34.94	78.27	-76.3	-96.3	3.3	14890838	99	36212
2025-01-02 07:53:25.76	35.15	78.40	-76.3	-96.3	3.2	14890838	99	36168
2025-01-02 07:53:25.97	35.37	78.52	-76.3	-96.2	3.2	14905075	99	35827
2025-01-02 07:53:26.19	35.59	78.64	-76.3	-96.4	3.3	14905075	99	36428
2025-01-02 07:53:26.39	35.80	78.75	-76.3	-96.3	3.3	14899841	99	36265
2025-01-02 07:53:26.60	36.03	78.87	-76.3	-96.3	3.3	14899841	99	36075
2025-01-02 07:53:26.82	36.27	79.00	-76.3	-96.4	3.3	14899841	99	36312
2025-01-02 07:53:27.03	36.51	79.11	-76.3	-96.4	3.3	14907447	99	36363
2025-01-02 07:53:27.25	36.76	79.24	-76.3	-96.4	3.3	14907447	99	36625
2025-01-02 07:53:27.46	37.01	79.36	-76.3	-96.3	3.3	14902359	99	36244
2025-01-02 07:53:27.68	37.27	79.48	-76.2	-96.4	3.3	14902359	99	36469
2025-01-02 07:53:27.89	37.53	79.60	-76.4	-97.0	3.2	14885040	99	38353
2025-01-02 07:53:28.11	37.81	79.72	-76.3	-96.4	3.3	14885040	99	36592
2025-01-02 07:53:28.31	38.07	79.83	-76.3	-96.4	3.3	14885040	99	36349
2025-01-02 07:53:28.53	38.36	79.95	-76.2	-96.3	3.3	14888801	99	36408
2025-01-02 07:53:28.74	38.64	80.07	-76.3	-96.4	3.3	14888801	99	36354
2025-01-02 07:53:28.96	38.95	80.19	-76.2	-96.2	3.2	14909454	99	36102
2025-01-02 07:53:29.17	39.25	80.31	-76.3	-96.4	3.3	14909454	99	36433
2025-01-02 07:53:29.39	39.57	80.43	-76.2	-96.3	3.3	14894828	99	36193
2025-01-02 07:53:29.60	39.89	80.55	-76.4	-97.6	3.1	14894828	99	40931
2025-01-02 07:53:29.82	40.22	80.67	-76.3	-96.3	3.3	14894828	99	36192
2025-01-02 07:53:30.03	40.55	80.79	-76.2	-96.3	3.2	14898941	99	36090
2025-01-02 07:53:30.23	40.88	80.90	-76.2	-96.3	3.2	14898941	99	36064
2025-01-02 07:53:30.45	41.24	81.02	-76.2	-96.3	3.2	14907264	99	36060
2025-01-02 07:53:30.66	41.60	81.13	-76.3	-96.4	3.3	14907264	99	36281
2025-01-02 07:53:30.88	41.98	81.25	-76.2	-96.3	3.3	14919273	99	36222
2025-01-02 07:53:31.09	42.36	81.37	-76.3	-96.3	3.2	14919273	99	36229
2025-01-02 07:53:31.31	42.77	81.49	-76.4	-97.3	3.3	14919273	99	40260
2025-01-02 07:53:31.51	43.15	81.60	-76.2	-96.3	3.2	14893005	99	36169
2025-01-02 07:53:31.73	43.58	81.71	-76.2	-96.3	3.3	14893005	99	36310
2025-01-02 07:53:31.94	44.00	81.83	-76.2	-96.3	3.3	14903480	99	36215
2025-01-02 07:53:32.15	44.43	81.94	-76.3	-96.2	3.5	14903480	99	35758
2025-01-02 07:53:32.37	44.90	82.06	-76.3	-96.3	3.3	14908615	99	36228
2025-01-02 07:53:32.59	45.38	82.17	-76.2	-96.3	3.4	14908615	99	36302
2025-01-02 07:53:32.80	45.85	82.29	-76.3	-96.3	3.3	14908615	99	36225
2025-01-02 07:53:33.01	46.34	82.40	-76.3	-96.4	3.4	14912178	99	36513
2025-01-02 07:53:33.23	46.87	82.51	-76.2	-96.3	3.3	14912178	99	36181
2025-01-02 07:53:33.43	47.36	82.62	-76.2	-96.2	3.3	14903305	99	36178
2025-01-02 07:53:33.65	47.92	82.73	-76.2	-96.2	3.3	14903305	99	35958
2025-01-02 07:53:33.86	48.47	82.84	-76.2	-96.3	3.2	14903564	99	36071
2025-01-02 07:53:34.08	49.06	82.95	-76.2	-96.3	3.2	14903564	99	36278
2025-01-02 07:53:34.29	49.65	83.06	-76.3	-96.3	3.3	14903564	99	36170
2025-01-02 07:53:34.51	50.28	83.17	-76.3	-96.3	3.2	14905746	99	36145
2025-01-02 07:53:34.72	50.90	83.28	-76.2	-96.3	3.3	14905746	99	36084
2025-01-02 07:53:34.94	51.58	83.39	-76.2	-96.2	3.3	14908081	99	35930
2025-01-02 07:53:35.15	52.24	83.49	-76.2	-96.2	3.3	14908081	99	35904
2025-01-02 07:53:35.37	52.96	83.60	-76.3	-96.3	3.3	14905838	99	36282
2025-01-02 07:53:35.57	53.64	83.70	-76.3	-96.3	3.3	14905838	99	36249
2025-01-02 07:53:35.77	54.34	83.79	-76.2	-96.3	3.3	14905838	99	36273
2025-01-02 07:53:35.97	55.06	83.89	-76.2	-96.3	3.3	14863494	99	36184
2025-01-02 07:53:36.18	55.84	83.99	-76.2	-96.3	3.3	14863494	99	36327
2025-01-02 07:53:36.40	56.69	84.09	-76.3	-96.4	3.3	14916389	99	36358
2025-01-02 07:53:36.61	57.52	84.19	-76.2	-96.3	3.3	14916389	99	36276
2025-01-02 07:53:36.83	58.43	84.29	-76.3	-96.3	3.5	14916389	99	35875
2025-01-02 07:53:37.04	59.32	84.39	-76.2	-96.4	3.5	14903350	99	36446
2025-01-02 07:53:37.26	60.29	84.48	-76.2	-96.3	3.3	14903350	99	36336
2025-01-02 07:53:37.48	61.30	84.58	-76.2	-96.3	3.2	14874023	99	36217
2025-01-02 07:53:37.69	62.29	84.67	-76.3	-96.3	3.2	14874023	99	36067
2025-01-02 07:53:37.91	63.37	84.76	-76.2	-96.3	3.3	14903076	99	36060
2025-01-02 07:53:38.12	64.43	84.85	-76.2	-96.3	3.3	14903076	99	36006
2025-01-02 07:53:38.34	65.59	84.94	-76.3	-96.2	3.2	14895179	99	35861
2025-01-02 07:53:38.55	66.73	85.02	-76.2	-96.3	3.3	14895179	99	36153
2025-01-02 07:53:38.77	67.96	85.10	-76.2	-96.3	3.3	14895179	99	36020
2025-01-02 07:53:38.98	69.18	85.18	-76.3	-96.3	3.3	14913055	99	35978
2025-01-02 07:53:39.18	70.38	85.26	-76.3	-96.3	3.3	14913055	99	36005
2025-01-02 07:53:39.40	71.74	85.33	-76.2	-96.3	3.3	14896705	99	36012
2025-01-02 07:53:39.61	73.08	85.41	-76.2	-96.3	3.2	14896705	99	36133
2025-01-02 07:53:39.83	74.52	85.48	-76.3	-96.3	3.2	14896705	99	36344
2025-01-02 07:53:40.03	75.88	85.54	-76.2	-96.3	3.3	14900039	99	36428
2025-01-02 07:53:40.25	77.42	85.61	-76.3	-96.3	3.2	14900039	99	36257
2025-01-02 07:53:40.46	78.93	85.67	-76.3	-96.4	3.2	14905113	99	36410
2025-01-02 07:53:40.68	80.56	85.73	-76.2	-96.2	3.2	14905113	99	35925
2025-01-02 07:53:40.89	82.15	85.78	-76.3	-96.4	3.3	14911293	99	36395
2025-01-02 07:53:41.11	83.87	85.83	-76.2	-96.4	3.2	14911293	99	36460
2025-01-02 07:53:41.31	85.46	85.88	-76.3	-96.4	3.3	14911293	99	36423
2025-01-02 07:53:41.52	87.18	85.92	-76.2	-96.3	3.3	14913116	99	36200
2025-01-02 07:53:41.74	89.01	85.96	-76.2	-96.4	3.4	14913116	99	36481
2025-01-02 07:53:41.94	90.70	86.00	-76.3	-96.4	3.4	14878341	99	36436
2025-01-02 07:53:42.15	92.52	86.03	-76.2	-96.3	3.3	14878341	99	36185
2025-01-02 07:53:42.37	94.44	86.06	-76.2	-96.2	3.3	14887771	99	36036
2025-01-02 07:53:42.58	96.31	86.08	-76.3	-96.3	3.3	14887771	99	36140
2025-01-02 07:53:42.80	98.29	86.11	-76.3	-96.3	3.2	14887771	99	36150
2025-01-02 07:53:43.01	100.19	86.12	-76.3	-96.3	3.2	14894813	99	35970
2025-01-02 07:53:43.23	102.20	86.13	-76.2	-96.4	3.2	14894813	99	36422
2025-01-02 07:53:43.43	104.03	86.14	-76.3	-96.3	3.2	14897438	99	36301
2025-01-02 07:53:43.63	105.87	86.14	-76.2	-96.3	3.3	14897438	99	36044
2025-01-02 07:53:43.85	107.90	86.14	-76.3	-96.3	3.2	14902359	99	36098
2025-01-02 07:53:44.06	109.82	86.13	-76.3	-96.3	3.2	14902359	99	36201
2025-01-02 07:53:44.28	111.83	86.12	-76.3	-96.3	3.2	14902359	99	36341
2025-01-02 07:53:44.48	113.64	86.11	-76.2	-96.3	3.3	14913002	99	36169
2025-01-02 07:53:44.69	115.53	86.09	-76.3	-96.6	3.1	14913002	99	37620
2025-01-02 07:53:44.91	117.49	86.06	-76.3	-96.4	3.3	14903038	99	36526
2025-01-02 07:53:45.12	119.33	86.03	-76.3	-96.4	3.2	14903038	99	36404
2025-01-02 07:53:45.34	121.23	86.00	-76.3	-96.3	3.3	14909477	99	36013
2025-01-02 07:53:45.55	123.01	85.96	-76.2	-96.3	3.2	14909477	99	36322
2025-01-02 07:53:45.77	124.84	85.92	-76.3	-96.4	3.3	14909477	99	36455
2025-01-02 07:53:45.98	126.56	85.88	-76.3	-96.3	3.2	14901893	99	36023
2025-01-02 07:53:46.20	128.31	85.83	-76.3	-96.4	3.3	14901893	99	36397
2025-01-02 07:53:46.41	129.94	85.78	-76.5	-97.5	3.1	14895256	99	40494
2025-01-02 07:53:46.63	131.61	85.72	-76.3	-96.4	3.2	14895256	99	36371
2025-01-02 07:53:46.84	133.16	85.66	-76.3	-96.4	3.3	14883438	99	36686
2025-01-02 07:53:47.06	134.74	85.60	-76.2	-96.4	3.3	14883438	99	36431
2025-01-02 07:53:47.27	136.20	85.54	-76.3	-96.3	3.2	14883438	99	36278
2025-01-02 07:53:47.49	137.69	85.47	-76.2	-96.2	3.3	14900039	99	35924
2025-01-02 07:53:47.70	139.07	85.40	-76.3	-96.3	3.3	14900039	99	36155
2025-01-02 07:53:47.92	140.47	85.32	-76.3	-96.3	3.3	14895172	99	36198
2025-01-02 07:53:48.12	141.70	85.25	-76.5	-97.6	3.2	14895172	99	40855
2025-01-02 07:53:48.34	143.02	85.17	-76.2	-96.4	3.2	14883384	99	36731
2025-01-02 07:53:48.55	144.23	85.09	-76.3	-96.3	3.3	14883384	99	36142
2025-01-02 07:53:48.77	145.46	85.01	-76.3	-96.3	3.2	14883384	99	35946
2025-01-02 07:53:48.98	146.59	84.92	-76.3	-96.4	3.2	14906997	99	36350
2025-01-02 07:53:49.20	147.74	84.83	-76.3	-96.3	3.0	14906997	99	36188
2025-01-02 07:53:49.41	148.80	84.75	-76.3	-96.4	3.2	14902214	99	36531
2025-01-02 07:53:49.63	149.87	84.65	-76.3	-96.4	3.3	14902214	99	36366
2025-01-02 07:53:49.84	150.86	84.56	-76.2	-96.2	3.3	14912940	99	35996
2025-01-02 07:53:50.06	151.86	84.47	-76.3	-96.4	3.3	14912940	99	36403
2025-01-02 07:53:50.26	152.74	84.38	-76.3	-96.4	3.2	14912940	99	36376
2025-01-02 07:53:50.47	153.63	84.28	-76.3	-96.4	3.3	14904510	99	36439
2025-01-02 07:53:50.69	154.53	84.18	-76.3	-96.4	3.2	14904510	99	36448
2025-01-02 07:53:50.89	155.33	84.09	-76.3	-96.4	3.3	14909675	99	36266
2025-01-02 07:53:51.09	156.10	84.00	-76.3	-96.4	3.3	14909675	99	36252
2025-01-02 07:53:51.31	156.92	83.89	-76.3	-96.3	3.2	14909675	99	36246
2025-01-02 07:53:51.52	157.68	83.79	-76.3	-96.4	3.3	14869392	99	36584
2025-01-02 07:53:51.74	158.44	83.69	-76.3	-96.4	3.2	14869392	99	36448
2025-01-02 07:53:51.95	159.15	83.58	-76.3	-96.4	3.3	14898979	99	36555
2025-01-02 07:53:52.17	159.87	83.47	-76.3	-96.4	3.3	14898979	99	36322
2025-01-02 07:53:52.38	160.53	83.37	-76.3	-96.4	3.5	14904464	99	36228
2025-01-02 07:53:52.60	161.20	83.26	-76.3	-96.4	3.3	14904464	99	36557
2025-01-02 07:53:52.81	161.82	83.15	-76.3	-96.4	3.4	14904464	99	36645
2025-01-02 07:53:53.03	162.45	83.04	-76.3	-96.4	3.2	14873085	99	36604
2025-01-02 07:53:53.24	163.03	82.93	-76.3	-96.4	3.3	14873085	99	36434
2025-01-02 07:53:53.46	163.63	82.82	-76.3	-96.4	3.3	14894447	99	36380
2025-01-02 07:53:53.67	164.17	82.71	-76.3	-96.4	3.2	14894447	99	36337
2025-01-02 07:53:53.89	164.73	82.60	-76.3	-96.5	3.2	14900939	99	36836
2025-01-02 07:53:54.09	165.22	82.49	-76.3	-96.5	3.2	14900939	99	36850
2025-01-02 07:53:54.29	165.69	82.39	-76.3	-96.5	3.3	14901405	99	36725
2025-01-02 07:53:54.50	166.18	82.28	-76.3	-96.4	3.3	14901405	99	36205
2025-01-02 07:53:54.72	166.68	82.16	-76.3	-96.4	3.3	14901405	99	36215
2025-01-02 07:53:54.93	167.13	82.05	-76.3	-96.4	3.2	14910865	99	36368
2025-01-02 07:53:55.13	167.56	81.94	-76.3	-96.4	3.3	14910865	99	36470
2025-01-02 07:53:55.35	168.01	81.82	-76.3	-96.5	3.2	14906112	99	36680
2025-01-02 07:53:55.57	168.45	81.70	-76.3	-96.5	3.3	14906112	99	36714
2025-01-02 07:53:55.78	168.86	81.59	-76.3	-96.4	3.4	14888580	99	36359
2025-01-02 07:53:56.00	169.28	81.47	-76.3	-96.3	3.3	14888580	99	36099
2025-01-02 07:53:56.20	169.65	81.36	-76.2	-96.2	3.3	14888580	99	35905
2025-01-02 07:53:56.41	170.03	81.25	-76.3	-96.3	3.3	14894966	99	36188
2025-01-02 07:53:56.63	170.41	81.13	-76.3	-96.3	3.3	14894966	99	36155
2025-01-02 07:53:56.84	170.77	81.01	-76.3	-96.4	3.2	14902084	99	36509
2025-01-02 07:53:57.06	171.13	80.89	-76.1	-96.2	3.3	14902084	99	36156
2025-01-02 07:53:57.27	171.47	80.78	-76.3	-96.4	3.3	14902084	99	36396
2025-01-02 07:53:57.49	171.82	80.65	-76.3	-96.4	3.3	14909645	99	36491
2025-01-02 07:53:57.70	172.14	80.54	-76.3	-96.4	3.2	14909645	99	36583
2025-01-02 07:53:57.92	172.47	80.42	-76.3	-96.3	3.2	14910987	99	36046
2025-01-02 07:53:58.13	172.78	80.30	-76.4	-96.7	3.1	14910987	99	37159
2025-01-02 07:53:58.33	173.06	80.19	-76.2	-96.1	3.2	14899009	99	35243
2025-01-02 07:53:58.55	173.37	80.07	-76.2	-96.5	3.3	14899009	99	37236
2025-01-02 07:53:58.76	173.65	79.95	-76.3	-96.6	3.4	14899009	99	37201
2025-01-02 07:53:58.98	173.94	79.83	-76.3	-96.4	3.3	14905189	99	36424
2025-01-02 07:53:59.18	174.20	79.71	-76.2	-96.1	3.3	14905189	99	35243
2025-01-02 07:53:59.40	174.48	79.59	-76.3	-96.5	3.3	14884323	99	37005
2025-01-02 07:53:59.61	174.74	79.47	-76.3	-96.6	3.3	14884323	99	37348
2025-01-02 07:53:59.83	175.00	79.35	-76.3	-96.4	3.2	14916259	99	36538
2025-01-02 07:54:00.03	175.24	79.24	-76.3	-96.4	3.3	14916259	99	36512
2025-01-02 07:54:00.23	175.47	79.12	-76.3	-96.5	3.3	14916259	99	36824
2025-01-02 07:54:00.44	175.71	79.01	-76.3	-96.4	3.2	14900451	99	36411
2025-01-02 07:54:00.66	175.95	78.88	-76.3	-96.4	3.2	14900451	99	36481
2025-01-02 07:54:00.87	176.17	78.76	-76.3	-96.3	3.3	14915618	99	36158
2025-01-02 07:54:01.09	176.41	78.64	-76.2	-96.4	3.3	14915618	99	36430
2025-01-02 07:54:01.29	176.61	78.53	-76.2	-96.3	3.3	14910690	99	36242
2025-01-02 07:54:01.50	176.83	78.41	-76.3	-96.7	3.1	14910690	99	37468
2025-01-02 07:54:01.72	177.04	78.28	-76.3	-96.4	3.2	14910690	99	36387
2025-01-02 07:54:01.93	177.25	78.16	-76.3	-96.3	3.2	14899505	99	36221
2025-01-02 07:54:02.15	177.46	78.04	-76.3	-96.4	3.3	14899505	99	36273
2025-01-02 07:54:02.36	177.65	77.92	-76.3	-96.4	3.3	14902786	99	36525
2025-01-02 07:54:02.58	177.85	77.80	-76.2	-96.4	3.3	14902786	99	36578
2025-01-02 07:54:02.80	178.05	77.67	-76.3	-96.4	3.3	14905967	99	36462
2025-01-02 07:54:03.01	178.23	77.55	-76.3	-96.4	3.3	14905967	99	36527
2025-01-02 07:54:03.23	178.42	77.43	-76.5	-97.3	3.2	14905967	99	39418
2025-01-02 07:54:03.44	178.60	77.31	-76.3	-96.4	3.3	14905738	99	36365
2025-01-02 07:54:03.66	178.78	77.18	-76.3	-96.5	3.4	14905738	99	36760
2025-01-02 07:54:03.87	178.95	77.06	-76.3	-96.4	3.3	14872901	99	36525
2025-01-02 07:54:04.09	179.12	76.94	-76.3	-96.4	3.3	14872901	99	36416
2025-01-02 07:54:04.30	179.29	76.82	-76.3	-96.3	3.2	14896850	99	36211
2025-01-02 07:54:04.52	179.46	76.69	-76.2	-96.3	3.3	14896850	99	36183
2025-01-02 07:54:04.73	179.61	76.58	-76.3	-96.4	3.3	14896850	99	36534
2025-01-02 07:54:04.95	179.77	76.45	-76.3	-96.4	3.3	14902732	99	36662
2025-01-02 07:54:05.16	179.93	76.33	-76.3	-96.4	3.3	14902732	99	36606
2025-01-02 07:54:05.38	180.08	76.21	-76.2	-96.4	3.3	14876930	99	36565
2025-01-02 07:54:05.59	180.23	76.09	-76.2	-96.4	3.3	14876930	99	36532
2025-01-02 07:54:05.81	180.38	75.96	-76.2	-96.4	3.3	14910743	99	36509
2025-01-02 07:54:06.03	180.53	75.84	-76.2	-96.3	3.3	14910743	99	36194
2025-01-02 07:54:06.24	180.66	75.72	-76.3	-96.3	3.3	14910743	99	35911
2025-01-02 07:54:06.44	180.79	75.61	-76.3	-96.4	3.4	14895553	99	36459
2025-01-02 07:54:06.66	180.93	75.48	-76.3	-96.5	3.3	14895553	99	36598
2025-01-02 07:54:06.87	181.07	75.36	-76.3	-96.4	3.3	14872077	99	36514
2025-01-02 07:54:07.09	181.20	75.24	-76.3	-96.4	3.2	14872077	99	36525
2025-01-02 07:54:07.30	181.33	75.12	-76.3	-96.4	3.2	14890327	99	36487
2025-01-02 07:54:07.52	181.46	74.99	-76.2	-96.4	3.2	14890327	99	36517
2025-01-02 07:54:07.73	181.58	74.87	-76.2	-96.3	3.2	14890327	99	36268
2025-01-02 07:54:07.95	181.71	74.75	-76.3	-96.4	3.4	14902137	99	36352
2025-01-02 07:54:08.16	181.83	74.63	-76.2	-96.3	3.6	14902137	99	36245
2025-01-02 07:54:08.38	181.95	74.51	-76.3	-96.3	3.3	14881607	99	36261
2025-01-02 07:54:08.59	182.07	74.39	-76.2	-96.3	3.3	14881607	99	36325
2025-01-02 07:54:08.81	182.18	74.26	-76.3	-96.4	3.3	14902397	99	36484
2025-01-02 07:54:09.02	182.30	74.15	-76.2	-96.4	3.3	14902397	99	36480
2025-01-02 07:54:09.24	182.41	74.02	-76.2	-96.3	3.2	14902397	99	36417
2025-01-02 07:54:09.46	182.52	73.90	-76.3	-96.4	3.3	14900146	99	36454
2025-01-02 07:54:09.67	182.63	73.78	-76.3	-96.4	3.3	14900146	99	36481
2025-01-02 07:54:09.89	182.74	73.66	-76.4	-96.7	3.3	14877227	99	37251
2025-01-02 07:54:10.10	182.84	73.54	-76.3	-96.3	3.3	14877227	99	36272
2025-01-02 07:54:10.32	182.95	73.41	-76.3	-96.4	3.3	14885345	99	36363
2025-01-02 07:54:10.53	183.05	73.30	-76.3	-96.4	3.3	14885345	99	36397
2025-01-02 07:54:10.75	183.15	73.17	-76.3	-96.4	3.2	14885345	99	36439
2025-01-02 07:54:10.96	183.25	73.05	-76.3	-96.5	3.2	14908409	99	36941
2025-01-02 07:54:11.18	183.35	72.93	-76.3	-96.4	3.3	14908409	99	36574
2025-01-02 07:54:11.39	183.44	72.81	-76.3	-96.4	3.3	14894477	99	36648
2025-01-02 07:54:11.61	183.54	72.69	-76.5	-97.3	3.1	14894477	99	39337
2025-01-02 07:54:11.82	183.63	72.57	-76.3	-96.4	3.2	14905586	99	36527
2025-01-02 07:54:12.04	183.73	72.45	-76.3	-96.4	3.3	14905586	99	36341
2025-01-02 07:54:12.25	183.81	72.33	-76.3	-96.3	3.2	14905586	99	36036
2025-01-02 07:54:12.47	183.91	72.21	-76.3	-96.3	3.5	14906761	99	35822
2025-01-02 07:54:12.68	183.99	72.09	-76.3	-96.3	3.3	14906761	99	36014
2025-01-02 07:54:12.90	184.08	71.97	-76.3	-96.3	3.3	14886756	99	36190
2025-01-02 07:54:13.12	184.17	71.85	-76.3	-96.3	3.2	14886756	99	36156
2025-01-02 07:54:13.33	184.25	71.73	-76.3	-96.3	3.3	14881866	99	36104
2025-01-02 07:54:13.53	184.33	71.62	-76.2	-96.2	3.3	14881866	99	36201
2025-01-02 07:54:13.73	184.41	71.51	-76.3	-96.4	3.2	14881866	99	36443
2025-01-02 07:54:13.95	184.49	71.39	-76.3	-96.3	3.3	14894561	99	36243
2025-01-02 07:54:14.16	184.57	71.27	-76.3	-96.4	3.4	14894561	99	36326
2025-01-02 07:54:14.38	184.65	71.15	-76.3	-96.4	3.3	14886924	99	36336
2025-01-02 07:54:14.59	184.73	71.03	-76.3	-96.3	3.3	14886924	99	36165
2025-01-02 07:54:14.81	184.81	70.91	-76.3	-96.3	3.2	14887474	99	36105
2025-01-02 07:54:15.02	184.88	70.79	-76.3	-96.9	3.2	14887474	99	38652
2025-01-02 07:54:15.24	184.96	70.67	-76.3	-96.5	3.2	14887474	99	36727
2025-01-02 07:54:15.45	185.03	70.56	-76.3	-96.3	3.3	14900871	99	36017
2025-01-02 07:54:15.67	185.11	70.43	-76.3	-96.3	3.3	14900871	99	36072
2025-01-02 07:54:15.88	185.18	70.32	-76.3	-96.3	3.3	14903976	99	36170
2025-01-02 07:54:16.08	185.24	70.21	-76.3	-96.3	3.3	14903976	99	36161
2025-01-02 07:54:16.30	185.32	70.09	-76.3	-96.2	3.3	14885025	99	35913

#Closed at: 2025-01-02 07:54:16