passes_logs/2026/01/28/PlanumMoscow/PlanumMoscow__20260128_084720_METOP-C_rec.log

#Pass ID: 20260128_084720_METOP-C
#Satellite: METOP-C
#Configuration: METOP-C
#Start time: 2026-01-28 08:47:25.964177

#LorettStation: 1.0.0 05.05.2024
#Station: PlanumMoscow
#Location: 37.6253844 lon 55.6713361 lat
#TLE: 1 43689U 18087A   25293.88981035  .00000265  00000+0  14109-3 0  9997
#TLE: 2 43689  98.7006 352.4487 0002041 122.1097 238.0279 14.21482740360838

#Time	Az	El	Level	SNR
2026-01-28 08:51:04.375625	347.6	24.7	-61.9	0.0
2026-01-28 08:51:05.498383	347.4	24.8	-62.8	0.0
2026-01-28 08:51:06.620140	347.1	25.0	-63.3	0.0
2026-01-28 08:51:07.742393	346.9	25.1	-62.4	0.0
2026-01-28 08:51:08.864647	346.7	25.2	-62.6	0.0
2026-01-28 08:51:09.986900	346.5	25.4	-63.5	0.0
2026-01-28 08:51:11.109154	346.2	25.5	-63.6	0.0
2026-01-28 08:51:12.231407	346.0	25.6	-64.1	0.0
2026-01-28 08:51:13.353660	345.8	25.8	-63.6	0.0
2026-01-28 08:51:14.475417	345.5	25.9	-63.1	0.0
2026-01-28 08:51:15.597175	345.3	26.0	-63.3	0.0
2026-01-28 08:51:16.719428	345.0	26.2	-63.3	0.0
2026-01-28 08:51:17.841682	344.8	26.3	-65.2	0.0
2026-01-28 08:51:18.963935	344.6	26.4	-64.6	0.0
2026-01-28 08:51:20.086189	344.3	26.6	-63.8	0.0
2026-01-28 08:51:21.208442	344.1	26.7	-64.7	0.0
2026-01-28 08:51:22.329705	343.8	26.8	-65.1	0.0
2026-01-28 08:51:23.451958	343.6	27.0	-65.3	0.0
2026-01-28 08:51:24.574212	343.3	27.1	-65.3	0.0
2026-01-28 08:51:25.696465	343.0	27.2	-65.4	0.0
2026-01-28 08:51:26.818719	342.8	27.4	-65.4	0.0
2026-01-28 08:51:27.940477	342.5	27.5	-65.9	0.0
2026-01-28 08:51:29.062234	342.3	27.6	-65.5	0.0
2026-01-28 08:51:30.184488	342.0	27.8	-65.9	0.0
2026-01-28 08:51:31.308750	341.7	27.9	-65.5	0.0
2026-01-28 08:51:32.431004	341.4	28.0	-66.1	0.0
2026-01-28 08:51:33.553257	341.2	28.2	-65.3	0.0
2026-01-28 08:51:34.675015	340.9	28.3	-65.0	0.0
2026-01-28 08:51:35.796772	340.6	28.4	-65.1	0.0
2026-01-28 08:51:36.919026	340.3	28.6	-65.3	0.0
2026-01-28 08:51:38.040784	340.1	28.7	-65.7	0.0
2026-01-28 08:51:39.162541	339.8	28.8	-65.9	0.0
2026-01-28 08:51:40.284794	339.5	28.9	-65.9	0.0
2026-01-28 08:51:41.407048	339.2	29.1	-65.5	0.0
2026-01-28 08:51:42.529301	338.9	29.2	-65.5	0.0
2026-01-28 08:51:43.651555	338.6	29.3	-64.6	0.0
2026-01-28 08:51:44.773808	338.3	29.5	-64.9	0.0
2026-01-28 08:51:45.896062	338.0	29.6	-64.0	0.0
2026-01-28 08:51:47.018315	337.7	29.7	-64.7	0.0
2026-01-28 08:51:48.140569	337.4	29.9	-65.8	0.0
2026-01-28 08:51:49.262822	337.1	30.0	-65.3	0.0
2026-01-28 08:51:50.385075	336.8	30.1	-64.9	0.0
2026-01-28 08:51:51.507329	336.5	30.2	-65.5	0.0
2026-01-28 08:51:52.629086	336.1	30.4	-65.5	0.0
2026-01-28 08:51:53.751339	335.8	30.5	-65.6	0.0
2026-01-28 08:51:54.872601	335.5	30.6	-65.4	0.0
2026-01-28 08:51:55.994855	335.2	30.8	-65.4	0.0
2026-01-28 08:51:57.117108	334.9	30.9	-63.8	0.0
2026-01-28 08:51:58.239362	334.5	31.0	-64.8	0.0
2026-01-28 08:51:59.361615	334.2	31.1	-65.5	0.0
2026-01-28 08:52:00.483869	333.9	31.3	-64.5	0.0
2026-01-28 08:52:01.606122	333.5	31.4	-63.5	0.0
2026-01-28 08:52:02.727880	333.2	31.5	-65.2	0.0
2026-01-28 08:52:03.851134	332.9	31.6	-64.7	0.0
2026-01-28 08:52:04.973388	332.5	31.8	-65.0	0.0
2026-01-28 08:52:06.095641	332.2	31.9	-64.6	0.0
2026-01-28 08:52:07.217894	331.8	32.0	-65.5	0.0
2026-01-28 08:52:08.340148	331.5	32.1	-65.6	0.0
2026-01-28 08:52:09.461905	331.1	32.2	-65.5	0.0
2026-01-28 08:52:10.584158	330.8	32.4	-65.2	0.0
2026-01-28 08:52:11.709412	330.4	32.5	-65.3	0.0
2026-01-28 08:52:12.831666	330.0	32.6	-66.8	0.0
2026-01-28 08:52:13.953423	329.7	32.7	-65.8	0.0
2026-01-28 08:52:15.075677	329.3	32.8	-66.1	0.0
2026-01-28 08:52:16.197930	328.9	32.9	-65.8	0.0
2026-01-28 08:52:17.320183	328.6	33.1	-66.3	0.0
2026-01-28 08:52:18.442437	328.2	33.2	-65.4	0.0
2026-01-28 08:52:19.563700	327.8	33.3	-65.7	0.0
2026-01-28 08:52:20.685954	327.4	33.4	-65.8	0.0
2026-01-28 08:52:21.808207	327.0	33.5	-65.4	0.0
2026-01-28 08:52:22.930460	326.7	33.6	-66.0	0.0
2026-01-28 08:52:24.052714	326.3	33.7	-66.2	0.0
2026-01-28 08:52:25.174471	325.9	33.8	-66.1	0.0
2026-01-28 08:52:26.296724	325.5	33.9	-65.8	0.0
2026-01-28 08:52:27.417535	325.1	34.0	-67.0	0.0
2026-01-28 08:52:28.539788	324.7	34.1	-66.0	0.0
2026-01-28 08:52:29.661553	324.3	34.2	-65.7	0.0
2026-01-28 08:52:30.783310	323.9	34.3	-65.9	0.0
2026-01-28 08:52:31.905563	323.5	34.4	-66.5	0.0
2026-01-28 08:52:33.027368	323.1	34.5	-65.6	0.0
2026-01-28 08:52:34.149622	322.7	34.6	-66.2	0.0
2026-01-28 08:52:35.271875	322.2	34.7	-65.6	0.0
2026-01-28 08:52:36.392641	321.8	34.8	-65.8	0.0
2026-01-28 08:52:37.514894	321.4	34.9	-66.1	0.0
2026-01-28 08:52:38.636690	321.0	35.0	-66.3	0.0
2026-01-28 08:52:39.758944	320.6	35.1	-66.2	0.0
2026-01-28 08:52:40.881206	320.1	35.2	-66.0	0.0
2026-01-28 08:52:42.003459	319.7	35.3	-64.7	0.0
2026-01-28 08:52:43.125713	319.3	35.4	-64.6	0.0
2026-01-28 08:52:44.247005	318.8	35.4	-65.5	0.0
2026-01-28 08:52:45.369258	318.4	35.5	-65.7	0.0
2026-01-28 08:52:46.491047	318.0	35.6	-64.6	0.0
2026-01-28 08:52:47.613301	317.5	35.7	-65.4	0.0
2026-01-28 08:52:48.735554	317.1	35.8	-65.2	0.0
2026-01-28 08:52:49.857808	316.6	35.8	-65.5	0.0
2026-01-28 08:52:50.979565	316.2	35.9	-65.4	0.0
2026-01-28 08:52:52.101827	315.8	36.0	-65.6	0.0
2026-01-28 08:52:53.223585	315.3	36.0	-65.4	0.0
2026-01-28 08:52:54.345838	314.9	36.1	-65.3	0.0
2026-01-28 08:52:55.467129	314.4	36.2	-65.3	0.0
2026-01-28 08:52:56.589382	313.9	36.2	-65.1	0.0
2026-01-28 08:52:57.710676	313.5	36.3	-65.7	0.0
2026-01-28 08:52:58.832930	313.0	36.4	-65.7	0.0
2026-01-28 08:52:59.955191	312.6	36.4	-65.9	0.0
2026-01-28 08:53:01.077482	312.1	36.5	-65.3	0.0
2026-01-28 08:53:02.199240	311.6	36.5	-64.8	0.0
2026-01-28 08:53:03.321501	311.2	36.6	-64.3	0.0
2026-01-28 08:53:04.443755	310.7	36.6	-64.3	0.0
2026-01-28 08:53:05.566008	310.2	36.7	-65.6	0.0
2026-01-28 08:53:06.687814	309.8	36.7	-64.8	0.0
2026-01-28 08:53:07.812068	309.3	36.8	-64.7	0.0
2026-01-28 08:53:08.933834	308.8	36.8	-64.1	0.0
2026-01-28 08:53:10.056087	308.4	36.8	-64.8	0.0
2026-01-28 08:53:11.177845	307.9	36.9	-65.1	0.0
2026-01-28 08:53:12.300134	307.4	36.9	-65.3	0.0
2026-01-28 08:53:13.422388	306.9	36.9	-65.0	0.0
2026-01-28 08:53:14.544651	306.5	37.0	-64.0	0.0
2026-01-28 08:53:15.666904	306.0	37.0	-64.6	0.0
2026-01-28 08:53:16.787695	305.5	37.0	-65.5	0.0
2026-01-28 08:53:17.909458	305.0	37.0	-65.7	0.0
2026-01-28 08:53:19.031711	304.5	37.1	-64.6	0.0
2026-01-28 08:53:20.153965	304.1	37.1	-65.2	0.0
2026-01-28 08:53:21.276226	303.6	37.1	-64.4	0.0
2026-01-28 08:53:22.399013	303.1	37.1	-64.5	0.0
2026-01-28 08:53:23.521266	302.6	37.1	-65.3	0.0
2026-01-28 08:53:24.643520	302.1	37.1	-64.3	0.0
2026-01-28 08:53:25.766781	301.7	37.1	-64.9	0.0
2026-01-28 08:53:26.889035	301.2	37.1	-64.8	0.0
2026-01-28 08:53:28.011288	300.7	37.1	-65.0	0.0
2026-01-28 08:53:29.133579	300.2	37.1	-65.0	0.0
2026-01-28 08:53:30.255833	299.7	37.1	-64.6	0.0
2026-01-28 08:53:31.378097	299.2	37.1	-63.9	0.0
2026-01-28 08:53:32.500351	298.8	37.1	-63.4	0.0
2026-01-28 08:53:33.622613	298.3	37.1	-65.7	0.0
2026-01-28 08:53:34.746906	297.8	37.1	-64.6	0.0
2026-01-28 08:53:35.869160	297.3	37.1	-64.7	0.0
2026-01-28 08:53:36.990421	296.8	37.1	-65.1	0.0
2026-01-28 08:53:38.111712	296.4	37.1	-64.2	0.0
2026-01-28 08:53:39.233966	295.9	37.0	-64.9	0.0
2026-01-28 08:53:40.356219	295.4	37.0	-64.3	0.0
2026-01-28 08:53:41.478473	294.9	37.0	-65.0	0.0
2026-01-28 08:53:42.600276	294.4	37.0	-64.2	0.0
2026-01-28 08:53:43.722529	294.0	36.9	-65.6	0.0
2026-01-28 08:53:44.844792	293.5	36.9	-64.9	0.0
2026-01-28 08:53:45.966580	293.0	36.9	-63.9	0.0
2026-01-28 08:53:47.088833	292.5	36.8	-63.9	0.0
2026-01-28 08:53:48.211087	292.1	36.8	-64.5	0.0
2026-01-28 08:53:49.334341	291.6	36.8	-64.4	0.0
2026-01-28 08:53:50.455611	291.1	36.7	-64.7	0.0
2026-01-28 08:53:51.589907	290.6	36.7	-66.3	0.0
2026-01-28 08:53:52.715161	290.2	36.6	-64.4	0.0
2026-01-28 08:53:53.837428	289.7	36.6	-64.0	0.0
2026-01-28 08:53:54.960218	289.2	36.5	-64.9	0.0
2026-01-28 08:53:56.081975	288.8	36.5	-64.5	0.0
2026-01-28 08:53:57.204229	288.3	36.4	-64.3	0.0
2026-01-28 08:53:58.326490	287.8	36.4	-65.3	0.0
2026-01-28 08:53:59.448743	287.4	36.3	-64.3	0.0
2026-01-28 08:54:00.570533	286.9	36.2	-63.7	0.0
2026-01-28 08:54:01.692787	286.5	36.2	-64.1	0.0
2026-01-28 08:54:02.816544	286.0	36.1	-64.5	0.0
2026-01-28 08:54:03.937806	285.6	36.0	-62.6	0.0
2026-01-28 08:54:05.060067	285.1	36.0	-63.8	0.0
2026-01-28 08:54:06.182321	284.7	35.9	-65.0	0.0
2026-01-28 08:54:07.303634	284.2	35.8	-65.2	0.0
2026-01-28 08:54:08.427395	283.8	35.7	-63.9	0.0
2026-01-28 08:54:09.549648	283.3	35.7	-62.7	0.0
2026-01-28 08:54:10.671902	282.9	35.6	-61.9	0.0
2026-01-28 08:54:11.795163	282.5	35.5	-62.7	0.0
2026-01-28 08:54:12.916463	282.0	35.4	-62.6	0.0
2026-01-28 08:54:14.038717	281.6	35.4	-64.7	0.0
2026-01-28 08:54:15.160978	281.2	35.3	-63.5	0.0
2026-01-28 08:54:16.282737	280.7	35.2	-63.6	0.0
2026-01-28 08:54:17.407533	280.3	35.1	-62.2	0.0
2026-01-28 08:54:18.529290	279.9	35.0	-61.1	0.0
2026-01-28 08:54:19.650056	279.5	34.9	-63.5	0.0
2026-01-28 08:54:20.772317	279.0	34.8	-61.5	0.0
2026-01-28 08:54:21.894114	278.6	34.7	-60.6	0.0
2026-01-28 08:54:23.015871	278.2	34.6	-62.1	0.0
2026-01-28 08:54:24.138125	277.8	34.5	-62.5	0.0
2026-01-28 08:54:25.259387	277.4	34.4	-61.7	0.0
2026-01-28 08:54:26.381649	277.0	34.3	-61.5	0.0
2026-01-28 08:54:27.503437	276.6	34.2	-61.9	0.0
2026-01-28 08:54:28.625690	276.2	34.1	-61.4	0.0
2026-01-28 08:54:29.747952	275.8	34.0	-61.1	0.0
2026-01-28 08:54:30.870206	275.4	33.9	-59.8	0.0
2026-01-28 08:54:31.992459	275.0	33.8	-60.7	0.0
2026-01-28 08:54:33.114254	274.6	33.7	-60.2	0.0
2026-01-28 08:54:34.236011	274.2	33.6	-62.4	0.0
2026-01-28 08:54:35.357798	273.8	33.5	-63.6	0.0
2026-01-28 08:54:36.480052	273.4	33.4	-62.7	0.0
2026-01-28 08:54:37.602305	273.0	33.3	-61.8	0.0
2026-01-28 08:54:38.724595	272.7	33.2	-62.0	0.0
2026-01-28 08:54:39.846849	272.3	33.0	-62.2	0.0
2026-01-28 08:54:40.969103	271.9	32.9	-60.9	0.0
2026-01-28 08:54:42.090371	271.5	32.8	-60.7	0.0
2026-01-28 08:54:43.212158	271.2	32.7	-62.1	0.0
2026-01-28 08:54:44.334412	270.8	32.6	-62.5	0.0
2026-01-28 08:54:45.456665	270.4	32.5	-60.6	0.0
2026-01-28 08:54:46.578919	270.1	32.3	-60.4	0.0
2026-01-28 08:54:47.701172	269.7	32.2	-62.4	0.0
2026-01-28 08:54:48.823426	269.4	32.1	-61.3	0.0
2026-01-28 08:54:49.945679	269.0	32.0	-61.8	0.0
2026-01-28 08:54:51.070933	268.7	31.9	-62.3	0.0
2026-01-28 08:54:52.193186	268.3	31.7	-59.0	0.0
2026-01-28 08:54:53.315440	268.0	31.6	-62.3	0.0
2026-01-28 08:54:54.437197	267.6	31.5	-61.5	0.0
2026-01-28 08:54:55.558955	267.3	31.4	-60.6	0.0
2026-01-28 08:54:56.681208	266.9	31.2	-60.4	0.0
2026-01-28 08:54:57.802966	266.6	31.1	-61.6	0.0
2026-01-28 08:54:58.928220	266.3	31.0	-61.0	0.0
2026-01-28 08:55:00.050474	265.9	30.9	-61.4	0.0
2026-01-28 08:55:01.169726	265.6	30.7	-60.4	0.0
2026-01-28 08:55:02.288979	265.3	30.6	-61.3	0.0
2026-01-28 08:55:03.408231	265.0	30.5	-61.8	0.0
2026-01-28 08:55:04.527484	264.7	30.4	-62.1	0.0
2026-01-28 08:55:05.647737	264.3	30.2	-60.1	0.0
2026-01-28 08:55:06.767495	264.0	30.1	-60.3	0.0
2026-01-28 08:55:07.886748	263.7	30.0	-59.5	0.0
2026-01-28 08:55:09.007505	263.4	29.8	-60.0	0.0
2026-01-28 08:55:10.128758	263.1	29.7	-60.6	0.0
2026-01-28 08:55:11.250012	262.8	29.6	-60.8	0.0
2026-01-28 08:55:12.368769	262.5	29.4	-62.0	0.0
2026-01-28 08:55:13.491023	262.2	29.3	-62.6	0.0
2026-01-28 08:55:14.609275	261.9	29.2	-59.5	0.0
2026-01-28 08:55:15.730538	261.6	29.0	-59.8	0.0
2026-01-28 08:55:16.849791	261.3	28.9	-60.0	0.0
2026-01-28 08:55:17.971043	261.0	28.8	-60.6	0.0
2026-01-28 08:55:19.091297	260.7	28.7	-59.7	0.0
2026-01-28 08:55:20.211550	260.5	28.5	-60.9	0.0
2026-01-28 08:55:21.331803	260.2	28.4	-61.5	0.0
2026-01-28 08:55:22.453056	259.9	28.3	-60.5	0.0
2026-01-28 08:55:23.572813	259.6	28.1	-60.9	0.0
2026-01-28 08:55:24.693066	259.3	28.0	-61.1	0.0
2026-01-28 08:55:25.811318	259.1	27.9	-61.2	0.0
2026-01-28 08:55:26.932571	258.8	27.7	-61.0	0.0
2026-01-28 08:55:28.053825	258.5	27.6	-60.4	0.0
2026-01-28 08:55:29.175078	258.3	27.5	-61.4	0.0
2026-01-28 08:55:30.295331	258.0	27.3	-60.6	0.0
2026-01-28 08:55:31.417584	257.7	27.2	-61.2	0.0
2026-01-28 08:55:32.540342	257.5	27.1	-60.4	0.0
2026-01-28 08:55:33.662596	257.2	26.9	-60.1	0.0
2026-01-28 08:55:34.784849	257.0	26.8	-60.1	0.0
2026-01-28 08:55:35.905607	256.7	26.7	-61.3	0.0
2026-01-28 08:55:37.026904	256.5	26.5	-60.9	0.0
2026-01-28 08:55:38.149157	256.2	26.4	-60.9	0.0
2026-01-28 08:55:39.270410	256.0	26.3	-60.3	0.0
2026-01-28 08:55:40.392664	255.7	26.1	-60.2	0.0
2026-01-28 08:55:41.511916	255.5	26.0	-60.3	0.0
2026-01-28 08:55:42.630169	255.2	25.9	-59.7	0.0
2026-01-28 08:55:43.751926	255.0	25.7	-59.7	0.0
2026-01-28 08:55:44.872179	254.8	25.6	-59.3	0.0
2026-01-28 08:55:45.993432	254.5	25.5	-61.2	0.0
2026-01-28 08:55:47.115686	254.3	25.3	-60.1	0.0
2026-01-28 08:55:48.238939	254.1	25.2	-60.8	0.0
2026-01-28 08:55:49.361193	253.8	25.1	-60.7	0.0
2026-01-28 08:55:50.482446	253.6	24.9	-60.3	0.0
2026-01-28 08:55:51.604699	253.4	24.8	-60.9	0.0
2026-01-28 08:55:52.724953	253.2	24.7	-61.3	0.0
2026-01-28 08:55:53.844205	253.0	24.5	-60.8	0.0
2026-01-28 08:55:54.964962	252.7	24.4	-60.8	0.0
2026-01-28 08:55:56.085216	252.5	24.3	-61.0	0.0
2026-01-28 08:55:57.206468	252.3	24.1	-60.9	0.0
2026-01-28 08:55:58.325721	252.1	24.0	-60.8	0.0
2026-01-28 08:55:59.444477	251.9	23.9	-60.4	0.0
2026-01-28 08:56:00.562730	251.7	23.8	-61.3	0.0
2026-01-28 08:56:01.684984	251.5	23.6	-60.9	0.0
2026-01-28 08:56:02.806237	251.3	23.5	-60.2	0.0
2026-01-28 08:56:03.928490	251.0	23.4	-60.9	0.0
2026-01-28 08:56:05.049752	250.8	23.2	-60.9	0.0
2026-01-28 08:56:06.172006	250.6	23.1	-59.7	0.0
2026-01-28 08:56:07.291258	250.4	23.0	-60.3	0.0
2026-01-28 08:56:08.413512	250.2	22.9	-59.8	0.0
2026-01-28 08:56:09.535765	250.0	22.7	-60.9	0.0
2026-01-28 08:56:10.658018	249.9	22.6	-60.4	0.0
2026-01-28 08:56:11.781272	249.7	22.5	-61.5	0.0
2026-01-28 08:56:12.906031	249.5	22.3	-61.8	0.0
2026-01-28 08:56:14.028284	249.3	22.2	-61.0	0.0
2026-01-28 08:56:15.150541	249.1	22.1	-61.1	0.0
2026-01-28 08:56:16.268790	248.9	22.0	-60.7	0.0
2026-01-28 08:56:17.389043	248.7	21.8	-60.5	0.0
2026-01-28 08:56:18.511296	248.5	21.7	-60.8	0.0
2026-01-28 08:56:19.633054	248.3	21.6	-61.1	0.0
2026-01-28 08:56:20.754813	248.2	21.5	-61.3	0.0
2026-01-28 08:56:21.879572	248.0	21.3	-60.6	0.0
2026-01-28 08:56:23.001825	247.8	21.2	-60.9	0.0
2026-01-28 08:56:24.124079	247.6	21.1	-59.8	0.0
2026-01-28 08:56:25.246332	247.5	21.0	-59.8	0.0
2026-01-28 08:56:26.367585	247.3	20.8	-60.3	0.0
2026-01-28 08:56:27.489839	247.1	20.7	-60.3	0.0
2026-01-28 08:56:28.612092	246.9	20.6	-60.5	0.0
2026-01-28 08:56:29.736850	246.8	20.5	-60.4	0.0
2026-01-28 08:56:30.859103	246.6	20.3	-61.2	0.0
2026-01-28 08:56:31.981358	246.4	20.2	-61.4	0.0
2026-01-28 08:56:33.102610	246.3	20.1	-60.9	0.0
2026-01-28 08:56:34.224864	246.1	20.0	-61.6	0.0
2026-01-28 08:56:35.346116	245.9	19.9	-61.7	0.0
2026-01-28 08:56:36.467370	245.8	19.7	-61.2	0.0
2026-01-28 08:56:37.589623	245.6	19.6	-61.1	0.0
2026-01-28 08:56:38.713877	245.5	19.5	-61.6	0.0
2026-01-28 08:56:39.836131	245.3	19.4	-62.0	0.0
2026-01-28 08:56:40.958384	245.1	19.3	-60.8	0.0
2026-01-28 08:56:42.080638	245.0	19.1	-61.4	0.0
2026-01-28 08:56:43.200890	244.8	19.0	-60.2	0.0
2026-01-28 08:56:44.322152	244.7	18.9	-61.6	0.0
2026-01-28 08:56:45.444406	244.5	18.8	-62.6	0.0
2026-01-28 08:56:46.566659	244.4	18.7	-62.5	0.0
2026-01-28 08:56:47.688912	244.2	18.6	-63.2	0.0
2026-01-28 08:56:48.811166	244.1	18.4	-62.7	0.0
2026-01-28 08:56:49.933421	243.9	18.3	-61.6	0.0
2026-01-28 08:56:51.052681	243.8	18.2	-62.8	0.0
2026-01-28 08:56:52.174934	243.6	18.1	-61.9	0.0
2026-01-28 08:56:53.296692	243.5	18.0	-61.7	0.0
2026-01-28 08:56:54.418945	243.4	17.9	-61.9	0.0
2026-01-28 08:56:55.542199	243.2	17.7	-63.1	0.0
2026-01-28 08:56:56.664452	243.1	17.6	-62.8	0.0
2026-01-28 08:56:57.783705	242.9	17.5	-59.6	0.0
2026-01-28 08:56:58.905959	242.8	17.4	-63.4	0.0
2026-01-28 08:57:00.028212	242.7	17.3	-60.6	0.0
2026-01-28 08:57:01.148969	242.5	17.2	-63.3	0.0
2026-01-28 08:57:02.271223	242.4	17.1	-62.9	0.0
2026-01-28 08:57:03.395476	242.3	17.0	-63.5	0.0
2026-01-28 08:57:04.517730	242.1	16.8	-62.9	0.0
2026-01-28 08:57:05.639984	242.0	16.7	-62.7	0.0
2026-01-28 08:57:06.762237	241.9	16.6	-62.4	0.0
2026-01-28 08:57:07.884491	241.7	16.5	-62.6	0.0
2026-01-28 08:57:09.005752	241.6	16.4	-62.4	0.0
2026-01-28 08:57:10.132007	241.5	16.3	-62.3	0.0
2026-01-28 08:57:11.254260	241.3	16.2	-63.2	0.0
2026-01-28 08:57:12.376514	241.2	16.1	-63.4	0.0
2026-01-28 08:57:13.498767	241.1	16.0	-62.7	0.0
2026-01-28 08:57:14.621021	241.0	15.9	-62.2	0.0
2026-01-28 08:57:15.743274	240.8	15.7	-62.8	0.0
2026-01-28 08:57:16.865527	240.7	15.6	-62.9	0.0
2026-01-28 08:57:17.989781	240.6	15.5	-63.5	0.0
2026-01-28 08:57:19.111539	240.5	15.4	-62.8	0.0
2026-01-28 08:57:20.233792	240.4	15.3	-62.4	0.0
2026-01-28 08:57:21.356046	240.2	15.2	-62.7	0.0
2026-01-28 08:57:22.478299	240.1	15.1	-62.3	0.0
2026-01-28 08:57:23.600553	240.0	15.0	-63.0	0.0
2026-01-28 08:57:24.721815	239.9	14.9	-62.4	0.0
2026-01-28 08:57:25.844068	239.8	14.8	-63.0	0.0
2026-01-28 08:57:26.966322	239.7	14.7	-60.3	0.0
2026-01-28 08:57:28.087575	239.5	14.6	-63.1	0.0
2026-01-28 08:57:29.207828	239.4	14.5	-62.4	0.0
2026-01-28 08:57:30.330081	239.3	14.4	-62.2	0.0
2026-01-28 08:57:31.447334	239.2	14.3	-63.1	0.0
2026-01-28 08:57:32.566586	239.1	14.2	-63.1	0.0
2026-01-28 08:57:33.684343	239.0	14.1	-63.0	0.0
2026-01-28 08:57:34.803596	238.9	14.0	-63.2	0.0
2026-01-28 08:57:35.921849	238.8	13.9	-62.9	0.0
2026-01-28 08:57:37.042102	238.7	13.8	-63.1	0.0
2026-01-28 08:57:38.162355	238.6	13.7	-62.9	0.0
2026-01-28 08:57:39.283608	238.5	13.6	-63.5	0.0
2026-01-28 08:57:40.404861	238.3	13.5	-62.3	0.0
2026-01-28 08:57:41.526114	238.2	13.4	-63.4	0.0
2026-01-28 08:57:42.647872	238.1	13.3	-63.0	0.0
2026-01-28 08:57:43.770125	238.0	13.2	-63.4	0.0
2026-01-28 08:57:44.892379	237.9	13.1	-63.5	0.0
2026-01-28 08:57:46.012136	237.8	13.0	-64.2	0.0
2026-01-28 08:57:47.134389	237.7	12.9	-64.3	0.0
2026-01-28 08:57:48.254642	237.6	12.8	-64.3	0.0
2026-01-28 08:57:49.376896	237.5	12.7	-64.0	0.0
2026-01-28 08:57:50.499149	237.4	12.6	-63.6	0.0
2026-01-28 08:57:51.621402	237.3	12.5	-64.2	0.6
2026-01-28 08:57:52.743656	237.2	12.4	-63.8	0.0
2026-01-28 08:57:53.864909	237.1	12.3	-63.3	0.0
2026-01-28 08:57:54.987162	237.0	12.2	-63.4	0.0
2026-01-28 08:57:56.108920	236.9	12.1	-63.8	0.0
2026-01-28 08:57:57.230684	236.8	12.0	-64.2	0.9
2026-01-28 08:57:58.352937	236.8	11.9	-64.1	0.0
2026-01-28 08:57:59.475191	236.7	11.8	-63.4	0.0
2026-01-28 08:58:00.595443	236.6	11.7	-64.6	0.5
2026-01-28 08:58:01.716697	236.5	11.6	-64.1	0.0
2026-01-28 08:58:02.838950	236.4	11.5	-64.1	0.8
2026-01-28 08:58:03.961204	236.3	11.4	-64.1	0.0
2026-01-28 08:58:05.081466	236.2	11.3	-63.9	0.0
2026-01-28 08:58:06.200222	236.1	11.2	-63.9	1.7
2026-01-28 08:58:07.321979	236.0	11.1	-64.4	1.3
2026-01-28 08:58:08.441232	235.9	11.0	-64.3	0.4
2026-01-28 08:58:09.558989	235.8	10.9	-64.2	1.2
2026-01-28 08:58:10.678249	235.8	10.8	-64.1	1.1
2026-01-28 08:58:11.796502	235.7	10.8	-64.3	2.2
2026-01-28 08:58:12.915754	235.6	10.7	-64.5	2.3
2026-01-28 08:58:14.034511	235.5	10.6	-64.5	3.1
2026-01-28 08:58:15.155764	235.4	10.5	-63.9	0.0
2026-01-28 08:58:16.273017	235.3	10.4	-63.7	0.2
2026-01-28 08:58:17.394270	235.2	10.3	-64.2	1.4
2026-01-28 08:58:18.515532	235.2	10.2	-64.6	2.9
2026-01-28 08:58:19.632288	235.1	10.1	-64.5	1.6
2026-01-28 08:58:20.751045	235.0	10.0	-64.4	3.2
2026-01-28 08:58:21.871298	234.9	9.9	-64.6	1.6
2026-01-28 08:58:22.996056	234.8	9.8	-64.3	1.8
2026-01-28 08:58:24.115309	234.7	9.8	-64.2	2.4
2026-01-28 08:58:25.233561	234.7	9.7	-64.7	2.2
2026-01-28 08:58:26.353815	234.6	9.6	-64.7	3.6
2026-01-28 08:58:27.475068	234.5	9.5	-63.2	0.0
2026-01-28 08:58:28.594321	234.4	9.4	-64.5	2.6
2026-01-28 08:58:29.714573	234.3	9.3	-64.4	3.0
2026-01-28 08:58:30.836331	234.3	9.2	-64.4	2.8
2026-01-28 08:58:31.956593	234.2	9.1	-64.4	4.0
2026-01-28 08:58:33.078847	234.1	9.1	-64.7	3.9
2026-01-28 08:58:34.200604	234.0	9.0	-64.4	3.4
2026-01-28 08:58:35.319865	234.0	8.9	-64.2	1.6
2026-01-28 08:58:36.440128	233.9	8.8	-64.7	3.2
2026-01-28 08:58:37.562381	233.8	8.7	-65.0	3.7
2026-01-28 08:58:38.684635	233.7	8.6	-64.6	3.7
2026-01-28 08:58:39.806393	233.7	8.5	-64.7	3.1
2026-01-28 08:58:40.926655	233.6	8.5	-65.0	2.9
2026-01-28 08:58:42.047916	233.5	8.4	-64.6	3.9
2026-01-28 08:58:43.169170	233.4	8.3	-65.0	4.2
2026-01-28 08:58:44.290423	233.4	8.2	-64.8	0.8
2026-01-28 08:58:45.410676	233.3	8.1	-64.7	2.8
2026-01-28 08:58:46.531929	233.2	8.0	-64.7	3.1
2026-01-28 08:58:47.650182	233.2	7.9	-65.0	3.4
2026-01-28 08:58:48.771435	233.1	7.9	-65.0	3.9
2026-01-28 08:58:49.890191	233.0	7.8	-65.2	4.1
2026-01-28 08:58:51.010444	232.9	7.7	-64.6	3.1
2026-01-28 08:58:52.127706	232.9	7.6	-64.6	1.0
2026-01-28 08:58:53.246959	232.8	7.5	-64.9	3.4
2026-01-28 08:58:54.365716	232.7	7.4	-64.9	3.9
2026-01-28 08:58:55.485472	232.7	7.4	-65.3	4.0
2026-01-28 08:58:56.603734	232.6	7.3	-64.8	3.7
2026-01-28 08:58:57.721491	232.5	7.2	-64.9	4.2
2026-01-28 08:58:58.839752	232.5	7.1	-65.1	2.8
2026-01-28 08:58:59.959508	232.4	7.0	-64.9	3.9
2026-01-28 08:59:01.078761	232.3	7.0	-64.9	3.9
2026-01-28 08:59:02.194021	232.3	6.9	-64.7	3.4
2026-01-28 08:59:03.313274	232.2	6.8	-64.8	2.9
2026-01-28 08:59:04.431537	232.1	6.7	-65.3	3.3
2026-01-28 08:59:05.550797	232.1	6.6	-65.1	3.2
2026-01-28 08:59:06.673050	232.0	6.6	-64.9	3.6
2026-01-28 08:59:07.789303	231.9	6.5	-65.2	3.9
2026-01-28 08:59:08.909606	231.9	6.4	-65.3	3.6
2026-01-28 08:59:10.028866	231.8	6.3	-65.2	3.9
2026-01-28 08:59:11.148128	231.7	6.2	-65.2	2.0
2026-01-28 08:59:12.265884	231.7	6.2	-65.3	2.8
2026-01-28 08:59:13.385137	231.6	6.1	-65.4	3.4
2026-01-28 08:59:14.506894	231.6	6.0	-63.5	2.7
2026-01-28 08:59:15.626155	231.5	5.9	-59.4	0.0
2026-01-28 08:59:16.745418	231.4	5.8	-60.1	0.0
2026-01-28 08:59:17.864671	231.4	5.8	-61.6	0.0
2026-01-28 08:59:18.982923	231.3	5.7	-63.4	0.0
2026-01-28 08:59:20.102680	231.3	5.6	-62.6	0.0
2026-01-28 08:59:21.221933	231.2	5.5	-64.9	0.0
2026-01-28 08:59:22.341690	231.1	5.5	-66.2	0.0
2026-01-28 08:59:23.462448	231.1	5.4	-69.6	0.0
2026-01-28 08:59:24.583709	231.0	5.3	-70.9	0.0
2026-01-28 08:59:25.705467	231.0	5.2	-71.7	0.0
2026-01-28 08:59:26.825728	230.9	5.2	-71.1	0.0
2026-01-28 08:59:27.946982	230.8	5.1	-71.3	0.0
2026-01-28 08:59:29.070236	230.8	5.0	-71.8	0.0
#Closed at: 2026-01-28 08:47:20.964990