passes_logs/2026/01/09/R2.0S_Moscow/R2.0S_Moscow__20260109_225822_NOAA_21_JPSS-2_rec.log

#Pass ID: 20260109_225822_NOAA 21 (JPSS-2)
#Satellite: NOAA 21 (JPSS-2)
#Configuration: NOAA-21
#almurnet v.1.7.20251203
#Start time: 2026-01-09 22:58:23

#Version: 2.2.20231116
#Station: R2.0S_Moscow
#Location: 37.707566 lon 55.798166 lat
#TLE: 1 54234U 22150A   26009.23291724  .00000115  00000+0  75298-4 0  9996
#TLE: 2 54234  98.7494 310.2026 0000856 324.9272  35.1848 14.19533567163994

#Time	Az	El	Level	Level2	SNR	BER	BlckErr	Temp	State	Recorded	gain1	gain2
2026-01-09 22:58:23.42	19.66	2.07	-41.0	-53.9	3.8	1.49e+00	0	47	0	0	54	15096
2026-01-09 22:58:24.43	19.70	2.13	-41.0	-53.9	3.8	1.49e+00	0	47	104	0	53	15972
2026-01-09 22:58:25.44	19.73	2.20	-41.0	-53.8	3.8	1.49e+00	0	47	104	0	53	15927
2026-01-09 22:58:26.44	19.77	2.26	-41.0	-53.9	3.8	1.49e+00	0	47	104	0	53	15955
2026-01-09 22:58:27.45	19.81	2.32	-41.0	-53.8	3.8	1.49e+00	0	47	104	0	53	15912
2026-01-09 22:58:28.46	19.84	2.38	-41.0	-53.8	3.8	1.49e+00	0	47	104	0	53	15894
2026-01-09 22:58:29.47	19.88	2.45	-41.0	-53.8	3.8	1.49e+00	0	47	104	0	53	15939
2026-01-09 22:58:30.48	19.91	2.51	-41.0	-53.8	3.8	1.49e+00	0	48	104	0	53	15870
2026-01-09 22:58:31.48	19.95	2.57	-41.0	-53.9	3.8	1.49e+00	0	48	104	0	53	15977
2026-01-09 22:58:32.49	19.99	2.64	-41.0	-53.8	3.8	1.49e+00	0	48	104	0	53	15904
2026-01-09 22:58:33.50	20.02	2.70	-41.0	-53.9	3.8	1.49e+00	0	48	104	0	53	15988
2026-01-09 22:58:34.51	20.06	2.76	-41.0	-53.9	3.8	1.49e+00	0	48	104	0	53	15964
2026-01-09 22:58:35.52	20.10	2.83	-41.0	-53.9	3.8	1.49e+00	0	48	104	0	53	15981
2026-01-09 22:58:36.53	20.13	2.89	-41.0	-53.8	3.8	1.49e+00	0	48	104	0	53	15903
2026-01-09 22:58:37.54	20.17	2.96	-41.0	-53.8	3.8	1.49e+00	0	48	104	0	53	15908
2026-01-09 22:58:38.55	20.21	3.02	-41.0	-53.8	3.8	1.49e+00	0	48	104	0	53	15936
2026-01-09 22:58:39.56	20.25	3.09	-41.0	-53.9	3.8	1.49e+00	0	48	104	0	53	16006
2026-01-09 22:58:40.56	20.28	3.15	-41.0	-53.8	3.8	1.49e+00	0	48	104	0	53	15936
2026-01-09 22:58:41.58	20.32	3.21	-41.0	-53.9	3.8	1.49e+00	0	48	104	0	53	15965
2026-01-09 22:58:42.59	20.36	3.28	-41.0	-53.8	3.8	1.49e+00	0	48	104	0	53	15942
2026-01-09 22:58:43.60	20.40	3.34	-41.0	-53.9	3.8	1.49e+00	0	48	104	0	53	15945
2026-01-09 22:58:44.61	20.43	3.41	-41.0	-53.8	3.8	1.49e+00	0	48	104	0	53	15925
2026-01-09 22:58:45.62	20.47	3.48	-41.0	-53.8	3.8	1.49e+00	0	49	104	0	53	15933
2026-01-09 22:58:46.62	20.51	3.54	-41.0	-53.8	3.8	1.49e+00	0	49	104	0	53	15922
2026-01-09 22:58:47.63	20.55	3.61	-41.0	-53.8	3.8	1.49e+00	0	49	104	0	53	15891
2026-01-09 22:58:48.64	20.59	3.67	-41.0	-53.8	3.8	1.49e+00	0	49	104	0	53	15929
2026-01-09 22:58:49.65	20.63	3.74	-40.9	-53.8	3.8	1.49e+00	0	49	104	0	53	15923
2026-01-09 22:58:50.66	20.67	3.80	-41.0	-53.8	3.8	1.49e+00	0	49	104	0	53	15896
2026-01-09 22:58:51.67	20.71	3.87	-41.0	-53.9	3.8	1.49e+00	0	49	104	0	53	15986
2026-01-09 22:58:52.68	20.74	3.94	-41.0	-53.9	3.8	1.49e+00	0	49	104	0	53	15954
2026-01-09 22:58:53.69	20.78	4.00	-41.0	-53.9	3.8	1.49e+00	0	49	104	0	53	15972
2026-01-09 22:58:54.70	20.82	4.07	-41.0	-53.8	3.8	1.49e+00	0	49	104	0	53	15901
2026-01-09 22:58:55.70	20.86	4.14	-41.0	-53.8	3.8	1.49e+00	0	50	104	0	53	15918
2026-01-09 22:58:56.71	20.90	4.20	-41.0	-53.9	3.8	1.49e+00	0	49	104	0	53	15951
2026-01-09 22:58:57.72	20.94	4.27	-41.0	-53.8	3.8	1.49e+00	0	50	104	0	53	15938
2026-01-09 22:58:58.73	20.98	4.34	-41.0	-53.9	3.8	1.49e+00	0	49	104	0	53	15951
2026-01-09 22:58:59.74	21.02	4.40	-41.0	-53.8	3.8	1.49e+00	0	50	104	0	53	15907
2026-01-09 22:59:00.74	21.06	4.47	-41.0	-53.8	3.8	1.49e+00	0	50	104	0	53	15880
2026-01-09 22:59:01.75	21.11	4.54	-41.0	-53.8	3.8	1.49e+00	0	50	104	0	53	15875
2026-01-09 22:59:02.76	21.15	4.61	-41.0	-53.8	3.8	1.49e+00	0	50	104	0	53	15906
2026-01-09 22:59:03.78	21.19	4.68	-41.0	-53.8	3.8	1.49e+00	0	50	104	0	53	15926
2026-01-09 22:59:04.79	21.23	4.74	-41.0	-53.8	3.8	1.49e+00	0	50	104	0	53	15914
2026-01-09 22:59:05.80	21.27	4.81	-41.0	-53.8	3.8	1.49e+00	0	50	104	0	53	15933
2026-01-09 22:59:06.80	21.31	4.88	-41.0	-53.8	3.8	1.49e+00	0	50	104	0	53	15893
2026-01-09 22:59:07.82	21.35	4.95	-41.0	-53.8	3.8	1.49e+00	0	50	104	0	53	15928
2026-01-09 22:59:08.82	21.40	5.02	-41.0	-53.9	3.8	1.49e+00	0	50	104	0	53	15947
2026-01-09 22:59:09.83	21.44	5.09	-41.0	-53.8	3.8	1.49e+00	0	50	104	0	53	15923
2026-01-09 22:59:10.84	21.48	5.16	-41.0	-53.9	3.8	1.49e+00	0	50	104	0	53	15954
2026-01-09 22:59:11.85	21.52	5.23	-41.0	-53.8	3.8	1.49e+00	0	50	104	0	53	15894
2026-01-09 22:59:12.86	21.57	5.30	-41.0	-53.9	3.8	1.49e+00	0	50	104	0	53	15944
2026-01-09 22:59:13.88	21.61	5.37	-41.0	-53.8	3.8	1.49e+00	0	50	104	0	53	15913
2026-01-09 22:59:14.88	21.65	5.43	-41.0	-53.8	3.8	1.49e+00	0	50	104	0	53	15923
2026-01-09 22:59:15.89	21.70	5.50	-41.0	-53.8	3.8	1.49e+00	0	50	104	0	53	15916
2026-01-09 22:59:16.90	21.74	5.58	-41.0	-53.8	3.8	1.49e+00	0	50	104	0	53	15917
2026-01-09 22:59:17.91	21.78	5.65	-41.0	-53.8	3.8	1.49e+00	0	51	104	0	53	15877
2026-01-09 22:59:18.92	21.83	5.72	-41.0	-53.8	3.8	1.49e+00	0	50	104	0	53	15928
2026-01-09 22:59:19.93	21.87	5.79	-41.0	-53.9	3.8	1.49e+00	0	50	104	0	53	15948
2026-01-09 22:59:20.94	21.92	5.86	-41.0	-53.8	3.8	1.49e+00	0	51	104	0	53	15906
2026-01-09 22:59:21.95	21.96	5.93	-41.0	-53.8	3.8	1.49e+00	0	51	104	0	53	15892
2026-01-09 22:59:22.95	22.00	6.00	-41.0	-53.8	3.8	1.49e+00	0	51	104	0	53	15896
2026-01-09 22:59:23.96	22.05	6.07	-41.0	-53.8	3.8	1.49e+00	0	51	104	0	53	15888
2026-01-09 22:59:24.97	22.09	6.14	-41.0	-53.8	3.8	1.49e+00	0	51	104	0	53	15885
2026-01-09 22:59:25.98	22.14	6.22	-41.0	-53.8	3.8	1.49e+00	0	51	104	0	53	15901
2026-01-09 22:59:26.99	22.18	6.29	-41.0	-53.8	3.8	1.49e+00	0	51	104	0	53	15888
2026-01-09 22:59:27.99	22.23	6.36	-41.0	-53.8	3.8	1.49e+00	0	51	104	0	53	15910
2026-01-09 22:59:29.00	22.28	6.43	-41.0	-53.8	3.8	1.49e+00	0	51	104	0	53	15903
2026-01-09 22:59:30.01	22.32	6.50	-41.0	-53.8	3.8	1.49e+00	0	51	104	0	53	15925
2026-01-09 22:59:31.02	22.37	6.58	-41.0	-53.8	3.8	1.49e+00	0	51	104	0	53	15894
2026-01-09 22:59:32.03	22.41	6.65	-41.0	-53.8	3.8	1.49e+00	0	51	104	0	53	15763
2026-01-09 22:59:33.04	22.46	6.72	-41.0	-53.7	3.8	1.49e+00	0	51	104	0	53	15614
2026-01-09 22:59:34.04	22.51	6.80	-41.0	-53.6	3.8	1.49e+00	0	52	104	0	53	15426
2026-01-09 22:59:35.05	22.55	6.87	-41.0	-53.4	3.8	1.49e+00	0	51	104	0	53	15207
2026-01-09 22:59:36.06	22.60	6.94	-41.0	-53.4	3.8	1.49e+00	0	52	104	0	53	15075
2026-01-09 22:59:37.07	22.65	7.02	-41.0	-53.2	3.8	1.49e+00	0	51	104	0	53	14831
2026-01-09 22:59:38.08	22.70	7.09	-41.0	-53.1	3.8	1.49e+00	0	51	104	0	53	14648
2026-01-09 22:59:39.09	22.75	7.17	-40.9	-53.0	3.8	1.49e+00	0	51	104	0	53	14428
2026-01-09 22:59:40.10	22.79	7.24	-40.9	-52.7	3.8	1.49e+00	0	51	104	0	53	13985
2026-01-09 22:59:41.11	22.84	7.32	-40.9	-52.6	3.8	1.49e+00	0	51	104	0	53	13859
2026-01-09 22:59:42.12	22.89	7.39	-40.9	-52.7	3.8	1.49e+00	0	52	104	0	53	13942
2026-01-09 22:59:43.13	22.94	7.47	-40.9	-52.6	3.8	1.49e+00	0	52	104	0	53	13760
2026-01-09 22:59:44.14	22.99	7.54	-40.9	-52.4	3.8	1.49e+00	0	52	104	0	53	13441
2026-01-09 22:59:45.15	23.04	7.62	-40.8	-51.7	3.8	1.49e+00	0	52	104	0	53	12438
2026-01-09 22:59:46.16	23.09	7.69	-40.7	-50.3	4.2	1.47e+00	0	52	104	0	53	10543
2026-01-09 22:59:47.17	23.14	7.77	-40.6	-50.0	4.0	1.28e+00	2	52	104	0	53	10210
2026-01-09 22:59:48.17	23.19	7.85	-40.5	-49.1	4.6	1.18e+00	0	52	104	0	53	9248
2026-01-09 22:59:49.18	23.24	7.92	-40.5	-49.6	4.0	1.20e+00	0	52	104	0	53	9796
2026-01-09 22:59:50.19	23.29	8.00	-40.3	-48.0	5.1	7.23e-01	0	52	0	0	52	8648
2026-01-09 22:59:51.20	23.34	8.08	-40.1	-46.8	5.9	4.79e-01	0	52	0	3145728	52	7496
2026-01-09 22:59:52.21	23.39	8.15	-39.3	-43.1	10.4	5.26e-03	0	52	0	6291456	50	5490
2026-01-09 22:59:53.22	23.44	8.23	-40.2	-48.6	4.1	1.08e+00	0	52	104	9437184	51	9761
2026-01-09 22:59:54.23	23.49	8.31	-41.0	-46.0	8.1	1.05e-01	0	52	0	10485760	53	6434
2026-01-09 22:59:55.23	23.54	8.38	-39.0	-41.6	12.9	2.36e-04	0	52	0	13631488	50	4646
2026-01-09 22:59:56.24	23.60	8.46	-40.7	-50.0	4.2	1.43e+00	0	52	104	15728640	52	10838
2026-01-09 22:59:57.25	23.65	8.54	-39.4	-42.5	11.8	8.17e-04	0	52	0	17825792	50	5137
2026-01-09 22:59:58.26	23.70	8.62	-39.8	-43.0	11.4	8.40e-04	0	52	0	20971520	50	5421
2026-01-09 22:59:59.27	23.75	8.70	-39.9	-43.1	11.4	1.10e-03	0	52	0	24117248	50	5474
2026-01-09 23:00:00.27	23.81	8.78	-39.5	-42.3	12.3	2.08e-04	0	52	0	27262976	50	5025
2026-01-09 23:00:01.28	23.86	8.86	-39.4	-42.0	12.7	7.09e-05	0	52	0	30408704	50	4866
2026-01-09 23:00:02.29	23.91	8.94	-39.6	-42.4	12.4	1.27e-04	0	52	0	33554432	50	5060
2026-01-09 23:00:03.29	23.97	9.01	-39.6	-42.3	12.5	1.46e-04	0	52	0	36700160	50	5030
2026-01-09 23:00:04.30	24.02	9.09	-39.2	-41.7	13.1	3.96e-05	0	52	0	39845888	50	4676
2026-01-09 23:00:05.31	24.07	9.17	-39.2	-41.7	13.2	2.44e-05	0	52	0	42991616	50	4656
2026-01-09 23:00:06.32	24.13	9.25	-39.3	-41.8	13.1	4.42e-05	0	52	0	46137344	50	4748
2026-01-09 23:00:07.32	24.18	9.33	-39.2	-41.6	13.2	1.37e-05	0	52	0	49283072	50	4649
2026-01-09 23:00:08.33	24.24	9.42	-39.1	-41.5	13.4	1.67e-05	0	53	0	52428800	50	4583
2026-01-09 23:00:09.34	24.29	9.50	-39.3	-41.7	13.2	2.13e-05	0	53	0	55574528	50	4702
2026-01-09 23:00:10.35	24.35	9.58	-39.3	-41.7	13.3	1.37e-05	0	53	0	58720256	50	4680
2026-01-09 23:00:11.36	24.41	9.66	-39.1	-41.4	13.5	8.30e-06	0	53	0	61865984	50	4544
2026-01-09 23:00:12.37	24.46	9.74	-39.3	-41.7	13.3	1.44e-05	0	53	0	65011712	50	4698
2026-01-09 23:00:13.38	24.52	9.82	-39.1	-41.5	13.6	1.22e-05	0	53	0	68157440	50	4548
2026-01-09 23:00:14.39	24.58	9.91	-39.2	-41.5	13.5	6.80e-06	0	53	0	71303168	50	4585
2026-01-09 23:00:15.40	24.63	9.99	-39.1	-41.4	13.7	1.60e-05	0	53	0	74448896	50	4504
2026-01-09 23:00:16.40	24.69	10.07	-39.0	-41.2	13.8	1.50e-06	0	53	0	77594624	49	4700
2026-01-09 23:00:17.42	24.75	10.15	-38.9	-41.2	13.9	1.50e-06	0	53	0	80740352	49	4658
2026-01-09 23:00:18.42	24.81	10.24	-39.0	-41.2	13.9	5.30e-06	0	53	0	83886080	49	4684
2026-01-09 23:00:19.43	24.86	10.32	-38.8	-41.0	14.1	7.00e-07	0	53	0	87031808	49	4575
2026-01-09 23:00:20.44	24.92	10.40	-38.9	-41.1	14.1	3.00e-06	0	53	0	90177536	49	4600
2026-01-09 23:00:21.44	24.98	10.49	-38.8	-40.9	14.2	7.00e-07	0	53	0	93323264	49	4526
2026-01-09 23:00:22.45	25.04	10.57	-38.8	-40.9	14.2	1.50e-06	0	53	0	96468992	49	4524
2026-01-09 23:00:23.46	25.10	10.66	-38.8	-41.0	14.2	7.00e-07	0	53	0	99614720	49	4567
2026-01-09 23:00:24.46	25.16	10.74	-38.7	-40.8	14.3	7.00e-07	0	53	0	102760448	49	4481
2026-01-09 23:00:25.47	25.22	10.83	-38.8	-40.9	14.2	0.00e+00	0	53	0	105906176	49	4533
2026-01-09 23:00:26.48	25.28	10.91	-38.6	-40.7	14.5	7.00e-07	0	53	0	109051904	49	4419
2026-01-09 23:00:27.48	25.34	11.00	-38.6	-40.7	14.5	0.00e+00	0	53	0	112197632	49	4405
2026-01-09 23:00:28.49	25.40	11.08	-38.6	-40.6	14.6	7.00e-07	0	53	0	115343360	48	4644
2026-01-09 23:00:29.50	25.46	11.17	-38.6	-40.7	14.6	7.00e-07	0	53	0	118489088	48	4679
2026-01-09 23:00:30.50	25.53	11.25	-38.6	-40.6	14.7	0.00e+00	0	53	0	121634816	48	4613
2026-01-09 23:00:31.51	25.59	11.34	-38.5	-40.5	14.7	0.00e+00	0	53	0	124780544	48	4587
2026-01-09 23:00:32.52	25.65	11.43	-38.5	-40.5	14.8	7.00e-07	0	53	0	127926272	48	4568
2026-01-09 23:00:33.52	25.71	11.52	-38.5	-40.5	14.8	0.00e+00	0	53	0	131072000	48	4597
2026-01-09 23:00:34.53	25.78	11.60	-38.4	-40.3	15.0	0.00e+00	0	53	0	134217728	48	4473
2026-01-09 23:00:35.54	25.84	11.69	-38.4	-40.4	14.9	0.00e+00	0	53	0	137363456	48	4497
2026-01-09 23:00:36.54	25.90	11.78	-38.4	-40.4	14.9	0.00e+00	0	53	0	140509184	48	4513
2026-01-09 23:00:37.55	25.97	11.87	-38.3	-40.2	15.1	0.00e+00	0	54	0	143654912	48	4411
2026-01-09 23:00:38.56	26.03	11.96	-38.3	-40.3	15.1	0.00e+00	0	53	0	146800640	48	4454
2026-01-09 23:00:39.56	26.10	12.04	-38.4	-40.3	15.0	0.00e+00	0	53	0	149946368	48	4469
2026-01-09 23:00:40.57	26.16	12.13	-38.3	-40.3	15.0	0.00e+00	0	53	0	153092096	48	4456
2026-01-09 23:00:41.58	26.23	12.22	-38.2	-40.1	15.2	0.00e+00	0	53	0	156237824	48	4382
2026-01-09 23:00:42.58	26.29	12.31	-38.3	-40.2	15.1	0.00e+00	0	53	0	159383552	48	4415
2026-01-09 23:00:43.59	26.36	12.40	-38.2	-40.1	15.2	0.00e+00	0	54	0	162529280	48	4378
2026-01-09 23:00:44.60	26.43	12.49	-38.2	-40.1	15.3	0.00e+00	0	54	0	165675008	48	4354
2026-01-09 23:00:45.61	26.49	12.59	-38.3	-40.2	15.1	0.00e+00	0	53	0	168820736	48	4421
2026-01-09 23:00:46.61	26.56	12.68	-38.3	-40.2	15.1	0.00e+00	0	54	0	171966464	48	4423
2026-01-09 23:00:47.62	26.63	12.77	-38.2	-40.1	15.2	0.00e+00	0	53	0	175112192	48	4367
2026-01-09 23:00:48.63	26.70	12.86	-38.3	-40.2	15.1	0.00e+00	0	53	0	178257920	48	4433
2026-01-09 23:00:49.63	26.77	12.95	-38.3	-40.2	15.1	7.00e-07	0	54	0	181403648	48	4439
2026-01-09 23:00:50.64	26.84	13.04	-38.2	-40.1	15.2	0.00e+00	0	54	0	184549376	48	4382
2026-01-09 23:00:51.64	26.91	13.13	-38.2	-40.1	15.3	0.00e+00	0	54	0	187695104	48	4374
2026-01-09 23:00:52.65	26.98	13.23	-38.1	-40.0	15.4	0.00e+00	0	54	0	190840832	48	4312
2026-01-09 23:00:53.66	27.05	13.32	-38.2	-40.1	15.3	0.00e+00	0	54	0	193986560	48	4347
2026-01-09 23:00:54.66	27.12	13.41	-38.2	-40.1	15.3	0.00e+00	0	54	0	197132288	48	4366
2026-01-09 23:00:55.67	27.19	13.51	-38.2	-40.0	15.4	0.00e+00	0	54	0	200278016	48	4331
2026-01-09 23:00:56.68	27.26	13.60	-38.2	-40.0	15.4	0.00e+00	0	54	0	203423744	48	4313
2026-01-09 23:00:57.69	27.33	13.70	-38.2	-40.1	15.4	0.00e+00	0	54	0	206569472	48	4352
2026-01-09 23:00:58.69	27.40	13.79	-38.1	-39.9	15.5	0.00e+00	0	54	0	209715200	48	4288
2026-01-09 23:00:59.70	27.48	13.89	-38.1	-40.0	15.5	0.00e+00	0	54	0	212860928	48	4304
2026-01-09 23:01:00.71	27.55	13.98	-38.2	-40.0	15.5	0.00e+00	0	54	0	216006656	48	4316
2026-01-09 23:01:01.71	27.62	14.08	-38.2	-40.0	15.5	0.00e+00	0	54	0	219152384	48	4322
2026-01-09 23:01:02.72	27.70	14.18	-38.2	-40.0	15.5	0.00e+00	0	54	0	222298112	48	4319
2026-01-09 23:01:03.73	27.77	14.27	-38.2	-40.1	15.4	0.00e+00	0	54	0	225443840	48	4343
2026-01-09 23:01:04.74	27.85	14.37	-38.1	-39.9	15.5	0.00e+00	0	54	0	228589568	48	4291
2026-01-09 23:01:05.75	27.93	14.47	-38.2	-40.0	15.5	0.00e+00	0	54	0	231735296	48	4331
2026-01-09 23:01:06.76	28.00	14.56	-38.1	-39.9	15.6	0.00e+00	0	54	0	234881024	48	4288
2026-01-09 23:01:07.77	28.08	14.66	-38.1	-40.0	15.5	0.00e+00	0	54	0	238026752	48	4304
2026-01-09 23:01:08.77	28.16	14.76	-38.2	-40.0	15.5	0.00e+00	0	54	0	241172480	48	4306
2026-01-09 23:01:09.78	28.23	14.86	-38.2	-40.0	15.5	0.00e+00	0	54	0	244318208	48	4336
2026-01-09 23:01:10.79	28.31	14.96	-38.2	-40.0	15.5	0.00e+00	0	54	0	247463936	48	4335
2026-01-09 23:01:11.79	28.39	15.06	-38.2	-40.0	15.5	0.00e+00	0	54	0	250609664	48	4328
2026-01-09 23:01:12.80	28.47	15.16	-38.2	-40.0	15.5	0.00e+00	0	54	0	253755392	48	4336
2026-01-09 23:01:13.81	28.55	15.26	-38.3	-40.1	15.5	0.00e+00	0	54	0	256901120	48	4364
2026-01-09 23:01:14.82	28.63	15.36	-38.2	-40.1	15.5	0.00e+00	0	54	0	260046848	48	4349
2026-01-09 23:01:15.82	28.71	15.46	-38.3	-40.2	15.4	0.00e+00	0	54	0	263192576	48	4392
2026-01-09 23:01:16.83	28.79	15.56	-38.3	-40.2	15.4	7.00e-07	0	54	0	266338304	48	4405
2026-01-09 23:01:17.83	28.87	15.66	-38.4	-40.2	15.3	0.00e+00	0	54	0	269484032	48	4431
2026-01-09 23:01:18.84	28.95	15.76	-38.4	-40.3	15.3	0.00e+00	0	54	0	272629760	48	4457
2026-01-09 23:01:19.85	29.04	15.87	-38.4	-40.3	15.3	0.00e+00	0	54	0	275775488	48	4478
2026-01-09 23:01:20.86	29.12	15.97	-38.4	-40.3	15.2	0.00e+00	0	54	0	278921216	48	4492
2026-01-09 23:01:21.86	29.20	16.07	-38.5	-40.5	15.1	0.00e+00	0	54	0	282066944	48	4546
2026-01-09 23:01:22.87	29.29	16.18	-38.5	-40.4	15.1	0.00e+00	0	54	0	285212672	48	4541
2026-01-09 23:01:23.88	29.37	16.28	-38.6	-40.6	15.0	0.00e+00	0	54	0	288358400	48	4615
2026-01-09 23:01:24.89	29.46	16.38	-38.6	-40.5	15.0	0.00e+00	0	54	0	291504128	48	4585
2026-01-09 23:01:25.90	29.55	16.49	-38.6	-40.6	15.0	0.00e+00	0	54	0	294649856	48	4619
2026-01-09 23:01:26.90	29.63	16.59	-38.6	-40.5	15.1	0.00e+00	0	54	0	297795584	48	4574
2026-01-09 23:01:27.91	29.72	16.70	-38.6	-40.5	15.1	0.00e+00	0	54	0	300941312	48	4563
2026-01-09 23:01:28.91	29.81	16.80	-38.6	-40.5	15.0	0.00e+00	0	54	0	304087040	48	4577
2026-01-09 23:01:29.92	29.89	16.91	-38.7	-40.7	14.9	0.00e+00	0	54	0	307232768	48	4660
2026-01-09 23:01:30.92	29.98	17.02	-38.7	-40.6	14.9	7.00e-07	0	54	0	310378496	48	4643
2026-01-09 23:01:31.93	30.07	17.12	-38.7	-40.6	15.0	0.00e+00	0	54	0	313524224	48	4637
2026-01-09 23:01:32.94	30.16	17.23	-38.6	-40.5	15.1	0.00e+00	0	54	0	316669952	48	4577
2026-01-09 23:01:33.94	30.25	17.34	-38.4	-40.3	15.3	0.00e+00	0	54	0	319815680	48	4488
2026-01-09 23:01:34.95	30.34	17.45	-38.4	-40.3	15.3	0.00e+00	0	54	0	322961408	48	4478
2026-01-09 23:01:35.96	30.44	17.56	-38.5	-40.3	15.3	0.00e+00	0	55	0	326107136	48	4492
2026-01-09 23:01:36.97	30.53	17.67	-38.5	-40.3	15.3	0.00e+00	0	54	0	329252864	48	4484
2026-01-09 23:01:37.97	30.62	17.77	-38.5	-40.4	15.2	0.00e+00	0	54	0	332398592	48	4536
2026-01-09 23:01:38.98	30.72	17.89	-38.5	-40.4	15.3	0.00e+00	0	54	0	335544320	48	4515
2026-01-09 23:01:39.99	30.81	18.00	-38.6	-40.5	15.1	0.00e+00	0	54	0	338690048	48	4594
2026-01-09 23:01:40.99	30.91	18.11	-38.5	-40.4	15.2	0.00e+00	0	54	0	341835776	48	4535
2026-01-09 23:01:42.00	31.00	18.22	-38.5	-40.4	15.3	0.00e+00	0	54	0	344981504	48	4509
2026-01-09 23:01:43.00	31.10	18.33	-38.5	-40.3	15.3	0.00e+00	0	55	0	348127232	48	4490
2026-01-09 23:01:44.01	31.20	18.44	-38.5	-40.4	15.3	0.00e+00	0	54	0	351272960	48	4504
2026-01-09 23:01:45.02	31.29	18.55	-38.4	-40.3	15.4	0.00e+00	0	54	0	354418688	48	4474
2026-01-09 23:01:46.02	31.39	18.67	-38.4	-40.2	15.5	0.00e+00	0	54	0	357564416	48	4420
2026-01-09 23:01:47.03	31.49	18.78	-38.4	-40.2	15.5	0.00e+00	0	54	0	360710144	48	4409
2026-01-09 23:01:48.03	31.59	18.89	-38.3	-40.1	15.6	0.00e+00	0	55	0	363855872	48	4391
2026-01-09 23:01:49.04	31.69	19.01	-38.2	-40.0	15.7	0.00e+00	0	55	0	367001600	48	4323
2026-01-09 23:01:50.05	31.79	19.12	-38.2	-40.0	15.8	0.00e+00	0	55	0	370147328	48	4292
2026-01-09 23:01:51.06	31.90	19.24	-38.1	-39.8	15.9	0.00e+00	0	55	0	373293056	48	4227
2026-01-09 23:01:52.06	32.00	19.35	-38.1	-39.8	15.9	0.00e+00	0	54	0	376438784	48	4222
2026-01-09 23:01:53.07	32.10	19.47	-38.0	-39.7	16.0	0.00e+00	0	54	0	379584512	48	4174
2026-01-09 23:01:54.07	32.21	19.59	-38.0	-39.7	16.0	0.00e+00	0	55	0	382730240	48	4184
2026-01-09 23:01:55.08	32.31	19.70	-37.9	-39.6	16.0	0.00e+00	0	55	0	385875968	47	4354
2026-01-09 23:01:56.09	32.42	19.82	-37.8	-39.6	16.1	0.00e+00	0	55	0	389021696	47	4346
2026-01-09 23:01:57.10	32.53	19.94	-37.8	-39.5	16.2	0.00e+00	0	55	0	392167424	47	4311
2026-01-09 23:01:58.10	32.63	20.06	-37.8	-39.5	16.1	0.00e+00	0	55	0	395313152	47	4329
2026-01-09 23:01:59.11	32.74	20.18	-37.7	-39.4	16.2	0.00e+00	0	55	0	398458880	47	4263
2026-01-09 23:02:00.12	32.85	20.30	-37.7	-39.4	16.3	0.00e+00	0	55	0	401604608	47	4247
2026-01-09 23:02:01.13	32.96	20.42	-37.6	-39.3	16.4	0.00e+00	0	55	0	404750336	47	4201
2026-01-09 23:02:02.14	33.07	20.54	-37.6	-39.3	16.3	0.00e+00	0	55	0	407896064	47	4210
2026-01-09 23:02:03.15	33.18	20.66	-37.5	-39.2	16.4	0.00e+00	0	55	0	411041792	47	4157
2026-01-09 23:02:04.16	33.30	20.78	-37.5	-39.1	16.5	0.00e+00	0	55	0	414187520	47	4136
2026-01-09 23:02:05.17	33.41	20.90	-37.5	-39.1	16.5	0.00e+00	0	55	0	417333248	46	4369
2026-01-09 23:02:06.18	33.53	21.02	-37.5	-39.1	16.5	0.00e+00	0	55	0	420478976	46	4365
2026-01-09 23:02:07.19	33.64	21.15	-37.4	-39.1	16.6	0.00e+00	0	55	0	423624704	46	4346
2026-01-09 23:02:08.20	33.76	21.27	-37.4	-39.0	16.6	0.00e+00	0	55	0	426770432	46	4323
2026-01-09 23:02:09.20	33.87	21.39	-37.3	-38.9	16.7	0.00e+00	0	55	0	429916160	46	4255
2026-01-09 23:02:10.21	33.99	21.52	-37.2	-38.8	16.8	0.00e+00	0	55	0	433061888	46	4217
2026-01-09 23:02:11.22	34.11	21.64	-37.3	-38.9	16.8	0.00e+00	0	55	0	436207616	46	4249
2026-01-09 23:02:12.23	34.23	21.77	-37.2	-38.8	16.8	0.00e+00	0	55	0	439353344	46	4226
2026-01-09 23:02:13.23	34.35	21.89	-37.3	-38.9	16.7	0.00e+00	0	55	0	442499072	46	4263
2026-01-09 23:02:14.24	34.47	22.02	-37.4	-39.0	16.7	0.00e+00	0	55	0	445644800	46	4294
2026-01-09 23:02:15.25	34.60	22.15	-37.3	-38.8	16.8	0.00e+00	0	55	0	448790528	46	4241
2026-01-09 23:02:16.26	34.72	22.28	-37.3	-38.8	16.8	0.00e+00	0	55	0	451936256	46	4234
2026-01-09 23:02:17.27	34.84	22.40	-37.2	-38.8	16.9	0.00e+00	0	55	0	455081984	46	4201
2026-01-09 23:02:18.28	34.97	22.53	-37.2	-38.7	16.9	0.00e+00	0	55	0	458227712	46	4193
2026-01-09 23:02:19.29	35.10	22.66	-37.1	-38.7	16.9	0.00e+00	0	55	0	461373440	46	4158
2026-01-09 23:02:20.30	35.22	22.79	-37.1	-38.6	17.1	0.00e+00	0	55	0	464519168	46	4123
2026-01-09 23:02:21.30	35.35	22.92	-37.1	-38.6	17.1	0.00e+00	0	55	0	467664896	46	4106
2026-01-09 23:02:22.31	35.48	23.05	-37.1	-38.6	17.1	0.00e+00	0	55	0	470810624	46	4107
2026-01-09 23:02:23.32	35.61	23.18	-37.1	-38.6	17.1	0.00e+00	0	55	0	473956352	46	4112
2026-01-09 23:02:24.32	35.74	23.31	-37.0	-38.5	17.2	0.00e+00	0	55	0	477102080	46	4080
2026-01-09 23:02:25.34	35.88	23.45	-37.0	-38.5	17.2	0.00e+00	0	55	0	480247808	45	4315
2026-01-09 23:02:26.34	36.01	23.58	-37.0	-38.5	17.2	0.00e+00	0	55	0	483393536	45	4293
2026-01-09 23:02:27.35	36.15	23.71	-36.9	-38.4	17.2	0.00e+00	0	55	0	486539264	45	4284
2026-01-09 23:02:28.36	36.28	23.84	-36.9	-38.4	17.3	0.00e+00	0	55	0	489684992	45	4274
2026-01-09 23:02:29.37	36.42	23.98	-36.9	-38.4	17.2	0.00e+00	0	55	0	492830720	45	4286
2026-01-09 23:02:30.38	36.56	24.11	-37.0	-38.5	17.2	0.00e+00	0	55	0	495976448	45	4300
2026-01-09 23:02:31.39	36.70	24.25	-37.0	-38.5	17.2	0.00e+00	0	55	0	499122176	45	4315
2026-01-09 23:02:32.40	36.84	24.39	-37.0	-38.5	17.2	0.00e+00	0	55	0	502267904	45	4334
2026-01-09 23:02:33.41	36.98	24.52	-37.1	-38.6	17.2	0.00e+00	0	55	0	505413632	45	4364
2026-01-09 23:02:34.42	37.13	24.66	-37.1	-38.6	17.1	0.00e+00	0	55	0	508559360	45	4372
2026-01-09 23:02:35.43	37.27	24.80	-37.1	-38.6	17.1	0.00e+00	0	55	0	511705088	45	4388
2026-01-09 23:02:36.44	37.42	24.94	-37.1	-38.7	17.1	0.00e+00	0	55	0	514850816	45	4402
2026-01-09 23:02:37.44	37.56	25.07	-37.2	-38.7	17.0	0.00e+00	0	55	0	517996544	45	4413
2026-01-09 23:02:38.45	37.71	25.21	-37.2	-38.7	17.0	0.00e+00	0	55	0	521142272	45	4426
2026-01-09 23:02:39.46	37.86	25.35	-37.3	-38.8	16.9	0.00e+00	0	55	0	524288000	45	4480
2026-01-09 23:02:40.47	38.01	25.49	-37.3	-38.9	16.9	0.00e+00	0	55	0	527433728	45	4501
2026-01-09 23:02:41.49	38.17	25.63	-37.5	-39.1	16.7	0.00e+00	0	55	0	530579456	45	4601
2026-01-09 23:02:42.49	38.32	25.77	-37.4	-39.0	16.8	0.00e+00	0	55	0	533725184	45	4577
2026-01-09 23:02:43.50	38.47	25.92	-37.5	-39.1	16.7	0.00e+00	0	55	0	536870912	45	4647
2026-01-09 23:02:44.51	38.63	26.06	-37.5	-39.2	16.6	0.00e+00	0	55	0	540016640	45	4653
2026-01-09 23:02:45.52	38.79	26.20	-37.5	-39.1	16.7	0.00e+00	0	55	0	543162368	45	4641
2026-01-09 23:02:46.53	38.95	26.35	-37.6	-39.2	16.6	0.00e+00	0	55	0	546308096	45	4670
2026-01-09 23:02:47.53	39.11	26.49	-37.6	-39.2	16.6	0.00e+00	0	55	0	549453824	45	4660
2026-01-09 23:02:48.54	39.27	26.63	-37.6	-39.2	16.5	0.00e+00	0	55	0	552599552	45	4701
2026-01-09 23:02:49.55	39.43	26.78	-37.7	-39.3	16.5	0.00e+00	0	55	0	555745280	45	4727
2026-01-09 23:02:50.56	39.60	26.92	-37.6	-39.2	16.5	0.00e+00	0	55	0	558891008	45	4693
2026-01-09 23:02:51.56	39.76	27.07	-37.7	-39.3	16.4	0.00e+00	0	55	0	562036736	45	4740
2026-01-09 23:02:52.57	39.93	27.22	-37.8	-39.4	16.3	0.00e+00	0	55	0	565182464	46	4536
2026-01-09 23:02:53.57	40.10	27.36	-37.7	-39.4	16.4	0.00e+00	0	55	0	568328192	46	4505
2026-01-09 23:02:54.58	40.27	27.51	-37.8	-39.4	16.3	0.00e+00	0	55	0	571473920	46	4538
2026-01-09 23:02:55.59	40.44	27.66	-37.8	-39.4	16.3	0.00e+00	0	55	0	574619648	46	4545
2026-01-09 23:02:56.59	40.61	27.81	-37.8	-39.5	16.3	0.00e+00	0	55	0	577765376	46	4559
2026-01-09 23:02:57.60	40.79	27.96	-37.8	-39.4	16.4	0.00e+00	0	55	0	580911104	46	4538
2026-01-09 23:02:58.61	40.96	28.11	-37.8	-39.5	16.3	0.00e+00	0	55	0	584056832	46	4557
2026-01-09 23:02:59.61	41.14	28.26	-37.8	-39.5	16.4	0.00e+00	0	55	0	587202560	46	4553
2026-01-09 23:03:00.62	41.32	28.41	-37.9	-39.5	16.3	0.00e+00	0	55	0	590348288	46	4588
2026-01-09 23:03:01.62	41.50	28.56	-37.9	-39.5	16.3	0.00e+00	0	55	0	593494016	46	4576
2026-01-09 23:03:02.63	41.69	28.71	-37.9	-39.5	16.3	0.00e+00	0	55	0	596639744	46	4584
2026-01-09 23:03:03.63	41.87	28.86	-37.9	-39.5	16.3	0.00e+00	0	55	0	599785472	46	4597
2026-01-09 23:03:04.64	42.06	29.01	-37.9	-39.5	16.3	0.00e+00	0	55	0	602931200	46	4583
2026-01-09 23:03:05.65	42.25	29.17	-37.8	-39.4	16.4	0.00e+00	0	55	0	606076928	46	4529
2026-01-09 23:03:06.65	42.44	29.32	-37.8	-39.5	16.3	0.00e+00	0	55	0	609222656	46	4573
2026-01-09 23:03:07.66	42.63	29.47	-37.9	-39.6	16.3	0.00e+00	0	55	0	612368384	46	4599
2026-01-09 23:03:08.67	42.82	29.63	-37.7	-39.4	16.5	0.00e+00	0	55	0	615514112	46	4501
2026-01-09 23:03:09.67	43.02	29.78	-37.7	-39.3	16.5	0.00e+00	0	55	0	618659840	46	4472
2026-01-09 23:03:10.68	43.21	29.94	-37.7	-39.3	16.5	0.00e+00	0	55	0	621805568	46	4492
2026-01-09 23:03:11.69	43.41	30.10	-37.7	-39.3	16.5	0.00e+00	0	55	0	624951296	46	4469
2026-01-09 23:03:12.70	43.62	30.25	-37.7	-39.3	16.6	0.00e+00	0	56	0	628097024	46	4448
2026-01-09 23:03:13.70	43.82	30.41	-37.6	-39.2	16.6	0.00e+00	0	55	0	631242752	46	4427
2026-01-09 23:03:14.71	44.02	30.57	-37.6	-39.2	16.6	0.00e+00	0	55	0	634388480	46	4421
2026-01-09 23:03:15.72	44.23	30.73	-37.6	-39.2	16.6	0.00e+00	0	55	0	637534208	46	4422
2026-01-09 23:03:16.73	44.44	30.89	-37.5	-39.1	16.8	0.00e+00	0	55	0	640679936	46	4355
2026-01-09 23:03:17.73	44.65	31.05	-37.5	-39.1	16.8	0.00e+00	0	55	0	643825664	46	4349
2026-01-09 23:03:18.74	44.86	31.21	-37.5	-39.1	16.7	0.00e+00	0	55	0	646971392	46	4378
2026-01-09 23:03:19.75	45.08	31.37	-37.5	-39.1	16.8	0.00e+00	0	55	0	650117120	46	4346
2026-01-09 23:03:20.76	45.30	31.53	-37.6	-39.2	16.6	0.00e+00	0	55	0	653262848	46	4417
2026-01-09 23:03:21.76	45.52	31.69	-37.6	-39.2	16.6	0.00e+00	0	55	0	656408576	46	4432
2026-01-09 23:03:22.77	45.74	31.85	-37.7	-39.3	16.6	0.00e+00	0	55	0	659554304	46	4452
2026-01-09 23:03:23.78	45.96	32.01	-37.7	-39.3	16.5	0.00e+00	0	55	0	662700032	46	4492
2026-01-09 23:03:24.78	46.19	32.17	-37.9	-39.5	16.3	0.00e+00	0	55	0	665845760	46	4585
2026-01-09 23:03:25.79	46.42	32.34	-38.0	-39.7	16.2	0.00e+00	0	55	0	668991488	46	4662
2026-01-09 23:03:26.80	46.65	32.50	-38.1	-39.8	16.1	0.00e+00	0	56	0	672137216	46	4707
2026-01-09 23:03:27.80	46.88	32.66	-38.2	-39.9	16.0	0.00e+00	0	55	0	675282944	46	4778
2026-01-09 23:03:28.81	47.11	32.83	-38.2	-39.9	15.9	0.00e+00	0	56	0	678428672	46	4812
2026-01-09 23:03:29.82	47.35	32.99	-38.2	-39.9	16.0	0.00e+00	0	55	0	681574400	47	4513
2026-01-09 23:03:30.82	47.59	33.15	-38.2	-39.9	15.9	0.00e+00	0	56	0	684720128	47	4535
2026-01-09 23:03:31.83	47.83	33.32	-38.3	-40.0	15.9	0.00e+00	0	56	0	687865856	47	4578
2026-01-09 23:03:32.84	48.08	33.49	-38.4	-40.1	15.8	0.00e+00	0	56	0	691011584	47	4640
2026-01-09 23:03:33.84	48.32	33.65	-38.5	-40.2	15.6	0.00e+00	0	55	0	694157312	47	4702
2026-01-09 23:03:34.85	48.58	33.82	-38.6	-40.4	15.5	0.00e+00	0	55	0	697303040	47	4773
2026-01-09 23:03:35.86	48.83	33.98	-38.4	-40.2	15.6	0.00e+00	0	56	0	700448768	47	4702
2026-01-09 23:03:36.87	49.08	34.15	-38.4	-40.2	15.7	0.00e+00	0	56	0	703594496	47	4691
2026-01-09 23:03:37.87	49.34	34.32	-38.4	-40.2	15.7	0.00e+00	0	55	0	706740224	47	4680
2026-01-09 23:03:38.88	49.60	34.48	-38.4	-40.2	15.7	0.00e+00	0	55	0	709885952	47	4667
2026-01-09 23:03:39.89	49.86	34.65	-38.5	-40.3	15.6	0.00e+00	0	56	0	713031680	47	4718
2026-01-09 23:03:40.89	50.13	34.82	-38.5	-40.3	15.6	0.00e+00	0	56	0	716177408	47	4741
2026-01-09 23:03:41.90	50.39	34.99	-38.6	-40.4	15.5	0.00e+00	0	56	0	719323136	47	4794
2026-01-09 23:03:42.91	50.67	35.16	-38.7	-40.6	15.3	0.00e+00	0	56	0	722468864	47	4883
2026-01-09 23:03:43.92	50.94	35.32	-38.8	-40.6	15.4	0.00e+00	0	56	0	725614592	48	4638
2026-01-09 23:03:44.92	51.21	35.49	-38.8	-40.6	15.4	0.00e+00	0	56	0	728760320	48	4628
2026-01-09 23:03:45.93	51.49	35.66	-38.9	-40.7	15.3	0.00e+00	0	55	0	731906048	48	4690
2026-01-09 23:03:46.94	51.78	35.83	-39.0	-40.9	15.2	0.00e+00	0	55	0	735051776	48	4764
2026-01-09 23:03:47.94	52.06	36.00	-39.2	-41.1	14.9	0.00e+00	0	56	0	738197504	48	4904
2026-01-09 23:03:48.95	52.35	36.17	-39.3	-41.3	14.7	0.00e+00	0	56	0	741343232	49	4745
2026-01-09 23:03:49.96	52.64	36.34	-39.4	-41.5	14.6	0.00e+00	0	56	0	744488960	49	4816
2026-01-09 23:03:50.96	52.93	36.50	-39.4	-41.5	14.6	0.00e+00	0	56	0	747634688	49	4817
2026-01-09 23:03:51.97	53.23	36.67	-39.4	-41.4	14.6	1.50e-06	0	56	0	750780416	49	4803
2026-01-09 23:03:52.98	53.53	36.84	-39.4	-41.4	14.6	0.00e+00	0	55	0	753926144	49	4790
2026-01-09 23:03:53.99	53.83	37.01	-39.4	-41.4	14.6	7.00e-07	0	55	0	757071872	49	4783
2026-01-09 23:03:55.00	54.14	37.18	-39.4	-41.4	14.6	0.00e+00	0	56	0	760217600	49	4788
2026-01-09 23:03:56.01	54.45	37.35	-39.5	-41.5	14.5	7.00e-07	0	56	0	763363328	49	4833
2026-01-09 23:03:57.02	54.76	37.52	-39.5	-41.5	14.5	2.20e-06	0	56	0	767557632	49	4859
2026-01-09 23:03:58.03	55.08	37.69	-39.6	-41.7	14.2	7.00e-07	0	56	0	770703360	49	4983
2026-01-09 23:03:59.04	55.40	37.86	-39.7	-41.9	14.2	3.80e-06	0	56	0	772800512	50	4763
2026-01-09 23:04:00.04	55.72	38.03	-39.8	-41.9	14.2	1.50e-06	0	56	0	775946240	50	4805
2026-01-09 23:04:01.05	56.04	38.20	-39.7	-41.8	14.2	2.20e-06	0	56	0	779091968	50	4736
2026-01-09 23:04:02.06	56.37	38.37	-39.7	-41.8	14.2	7.00e-07	0	56	0	782237696	50	4755
2026-01-09 23:04:03.07	56.71	38.54	-39.6	-41.7	14.3	3.00e-06	0	56	0	786432000	50	4684
2026-01-09 23:04:04.08	57.04	38.71	-39.5	-41.6	14.5	0.00e+00	0	56	0	789577728	50	4631
2026-01-09 23:04:05.09	57.38	38.87	-39.5	-41.6	14.5	0.00e+00	0	56	0	792723456	50	4619
2026-01-09 23:04:06.10	57.73	39.04	-39.4	-41.4	14.7	0.00e+00	0	55	0	795869184	50	4506
2026-01-09 23:04:07.11	58.07	39.21	-39.4	-41.4	14.7	7.00e-07	0	56	0	797966336	50	4502
2026-01-09 23:04:08.12	58.42	39.38	-39.3	-41.3	14.8	0.00e+00	0	56	0	802160640	50	4473
2026-01-09 23:04:09.12	58.78	39.54	-39.4	-41.4	14.7	0.00e+00	0	56	0	805306368	50	4518
2026-01-09 23:04:10.13	59.13	39.71	-39.3	-41.3	14.8	7.00e-07	0	56	0	808452096	50	4466
2026-01-09 23:04:11.13	59.49	39.87	-39.4	-41.4	14.7	7.00e-07	0	56	0	811597824	50	4541
2026-01-09 23:04:12.14	59.86	40.04	-39.4	-41.4	14.7	7.00e-07	0	56	0	814743552	50	4524
2026-01-09 23:04:13.15	60.22	40.21	-39.5	-41.5	14.6	0.00e+00	0	56	0	817889280	50	4571
2026-01-09 23:04:14.15	60.59	40.37	-39.5	-41.6	14.5	0.00e+00	0	56	0	819986432	50	4611
2026-01-09 23:04:15.16	60.97	40.53	-39.4	-41.5	14.7	7.00e-07	0	56	0	823132160	50	4559
2026-01-09 23:04:16.17	61.35	40.70	-39.6	-41.6	14.5	7.00e-07	0	56	0	827326464	50	4632
2026-01-09 23:04:17.17	61.73	40.86	-39.7	-41.8	14.4	1.50e-06	0	56	0	830472192	50	4726
2026-01-09 23:04:18.18	62.12	41.02	-40.0	-42.2	13.9	2.20e-06	0	56	0	833617920	50	4969
2026-01-09 23:04:19.19	62.51	41.18	-40.1	-42.4	13.7	5.30e-06	0	56	0	836763648	50	5057
2026-01-09 23:04:20.20	62.90	41.34	-40.2	-42.5	13.6	1.37e-05	0	56	0	839909376	51	4853
2026-01-09 23:04:21.20	63.30	41.50	-40.1	-42.3	13.8	6.10e-06	0	56	0	843055104	51	4733
2026-01-09 23:04:22.21	63.70	41.66	-40.2	-42.5	13.6	4.50e-06	0	56	0	845152256	51	4854
2026-01-09 23:04:23.22	64.11	41.82	-40.2	-42.6	13.6	6.10e-06	0	56	0	849346560	51	4903
2026-01-09 23:04:24.23	64.52	41.97	-40.2	-42.5	13.6	8.30e-06	0	56	0	852492288	51	4862
2026-01-09 23:04:25.23	64.93	42.13	-40.0	-42.2	13.9	3.80e-06	0	56	0	855638016	51	4681
2026-01-09 23:04:26.24	65.35	42.29	-39.9	-42.0	14.1	3.80e-06	0	56	0	858783744	51	4583
2026-01-09 23:04:27.25	65.77	42.44	-39.9	-42.1	14.1	5.30e-06	0	56	0	861929472	51	4619
2026-01-09 23:04:28.25	66.19	42.59	-39.8	-41.9	14.2	2.20e-06	0	56	0	865075200	51	4520
2026-01-09 23:04:29.26	66.63	42.74	-39.9	-42.1	14.1	0.00e+00	0	56	0	867172352	51	4608
2026-01-09 23:04:30.27	67.06	42.89	-39.7	-41.8	14.3	0.00e+00	0	56	0	871366656	51	4447
2026-01-09 23:04:31.28	67.50	43.04	-39.7	-41.9	14.2	7.00e-07	0	56	0	874512384	51	4496
2026-01-09 23:04:32.28	67.94	43.19	-39.6	-41.7	14.4	7.00e-07	0	56	0	877658112	51	4399
2026-01-09 23:04:33.29	68.38	43.34	-39.6	-41.6	14.5	0.00e+00	0	56	0	880803840	51	4375
2026-01-09 23:04:34.30	68.84	43.48	-39.6	-41.6	14.5	7.00e-07	0	56	0	883949568	50	4625
2026-01-09 23:04:35.30	69.29	43.63	-39.5	-41.5	14.7	0.00e+00	0	56	0	887095296	50	4556
2026-01-09 23:04:36.31	69.75	43.77	-39.5	-41.6	14.6	0.00e+00	0	56	0	890241024	50	4603
2026-01-09 23:04:37.31	70.21	43.91	-39.6	-41.6	14.5	0.00e+00	0	56	0	892338176	50	4637
2026-01-09 23:04:38.32	70.67	44.05	-39.9	-42.0	14.0	2.20e-06	0	56	0	896532480	50	4862
2026-01-09 23:04:39.33	71.14	44.19	-39.9	-42.1	14.0	3.80e-06	0	56	0	899678208	50	4898
2026-01-09 23:04:40.33	71.61	44.32	-40.0	-42.3	13.8	5.30e-06	0	56	0	902823936	50	5007
2026-01-09 23:04:41.34	72.09	44.46	-39.9	-42.0	14.1	1.50e-06	0	56	0	905969664	50	4853
2026-01-09 23:04:42.35	72.58	44.59	-39.7	-41.8	14.3	7.00e-07	0	56	0	909115392	50	4716
2026-01-09 23:04:43.35	73.06	44.72	-39.6	-41.6	14.5	0.00e+00	0	56	0	912261120	50	4635
2026-01-09 23:04:44.36	73.55	44.85	-39.8	-41.9	14.2	0.00e+00	0	56	0	914358272	50	4784
2026-01-09 23:04:45.36	74.04	44.98	-40.0	-42.3	13.8	7.00e-07	0	56	0	917504000	50	5012
2026-01-09 23:04:46.37	74.54	45.11	-39.8	-41.9	14.2	1.50e-06	0	56	0	921698304	50	4767
2026-01-09 23:04:47.38	75.05	45.23	-39.9	-42.0	14.1	3.00e-06	0	56	0	924844032	50	4864
2026-01-09 23:04:48.39	75.55	45.35	-39.9	-42.1	14.1	3.80e-06	0	56	0	927989760	50	4876
2026-01-09 23:04:49.40	76.06	45.47	-39.9	-42.1	14.1	1.50e-06	0	56	0	931135488	50	4900
2026-01-09 23:04:50.41	76.58	45.59	-39.9	-42.1	14.1	1.50e-06	0	56	0	934281216	50	4897
2026-01-09 23:04:51.41	77.09	45.71	-39.9	-42.1	14.1	3.00e-06	0	56	0	937426944	50	4911
2026-01-09 23:04:52.42	77.62	45.82	-39.9	-42.1	14.1	2.20e-06	0	56	0	940572672	50	4891
2026-01-09 23:04:53.43	78.14	45.93	-39.9	-42.0	14.1	2.20e-06	0	56	0	943718400	50	4846
2026-01-09 23:04:54.44	78.67	46.04	-40.1	-42.3	13.9	3.00e-06	0	56	0	946864128	50	5017
2026-01-09 23:04:55.45	79.21	46.15	-39.9	-42.1	14.0	2.20e-06	0	56	0	950009856	50	4901
2026-01-09 23:04:56.46	79.74	46.25	-39.8	-41.9	14.2	7.00e-07	0	56	0	953155584	50	4801
2026-01-09 23:04:57.46	80.28	46.35	-39.6	-41.7	14.5	1.50e-06	0	56	0	956301312	50	4652
2026-01-09 23:04:58.47	80.82	46.45	-39.6	-41.6	14.6	7.00e-07	0	56	0	959447040	50	4634
2026-01-09 23:04:59.48	81.37	46.55	-39.7	-41.7	14.5	0.00e+00	0	56	0	962592768	50	4695
2026-01-09 23:05:00.49	81.92	46.64	-39.7	-41.8	14.4	0.00e+00	0	56	0	965738496	50	4736
2026-01-09 23:05:01.50	82.47	46.73	-39.9	-42.1	14.1	1.50e-06	0	56	0	968884224	50	4912
2026-01-09 23:05:02.51	83.03	46.82	-39.8	-41.9	14.3	0.00e+00	0	56	0	972029952	50	4776
2026-01-09 23:05:03.52	83.59	46.91	-39.8	-42.0	14.2	1.50e-06	0	56	0	975175680	50	4821
2026-01-09 23:05:04.53	84.16	46.99	-39.7	-41.8	14.3	7.00e-07	0	56	0	978321408	50	4741
2026-01-09 23:05:05.54	84.72	47.07	-39.7	-41.8	14.3	0.00e+00	0	56	0	981467136	50	4724
2026-01-09 23:05:06.54	85.29	47.15	-39.7	-41.9	14.2	7.00e-07	0	56	0	984612864	50	4765
2026-01-09 23:05:07.55	85.86	47.22	-39.6	-41.6	14.5	0.00e+00	0	56	0	987758592	50	4650
2026-01-09 23:05:08.56	86.43	47.29	-39.6	-41.6	14.5	0.00e+00	0	56	0	990904320	50	4647
2026-01-09 23:05:09.57	87.01	47.36	-39.6	-41.6	14.4	7.00e-07	0	56	0	994050048	50	4635
2026-01-09 23:05:10.57	87.58	47.43	-39.7	-41.7	14.4	0.00e+00	0	56	0	997195776	50	4696
2026-01-09 23:05:11.58	88.17	47.49	-39.6	-41.6	14.5	7.00e-07	0	56	0	1000341504	50	4635
2026-01-09 23:05:12.59	88.75	47.55	-39.5	-41.5	14.7	0.00e+00	0	56	0	1003487232	50	4560
2026-01-09 23:05:13.60	89.34	47.61	-39.4	-41.4	14.8	7.00e-07	0	56	0	1006632960	50	4526
2026-01-09 23:05:14.61	89.92	47.66	-39.3	-41.3	14.8	7.00e-07	0	56	0	1009778688	50	4456
2026-01-09 23:05:15.62	90.52	47.71	-39.7	-41.8	14.4	7.00e-07	0	56	0	1012924416	50	4718
2026-01-09 23:05:16.62	91.10	47.76	-39.9	-42.0	14.1	7.00e-07	0	56	0	1016070144	50	4870
2026-01-09 23:05:17.63	91.70	47.80	-39.8	-41.9	14.2	7.00e-07	0	56	0	1019215872	50	4814
2026-01-09 23:05:18.64	92.29	47.84	-39.6	-41.7	14.5	7.00e-07	0	56	0	1022361600	50	4674
2026-01-09 23:05:19.65	92.89	47.88	-39.4	-41.3	14.8	0.00e+00	0	56	0	1025507328	50	4487
2026-01-09 23:05:20.66	93.49	47.91	-39.3	-41.2	14.9	0.00e+00	0	56	0	1028653056	50	4424
2026-01-09 23:05:21.67	94.09	47.94	-39.5	-41.5	14.7	0.00e+00	0	56	0	1031798784	50	4551
2026-01-09 23:05:22.68	94.69	47.97	-39.5	-41.5	14.6	7.00e-07	0	56	0	1034944512	50	4570
2026-01-09 23:05:23.69	95.29	47.99	-39.7	-41.8	14.3	7.00e-07	0	56	0	1038090240	50	4723
2026-01-09 23:05:24.70	95.89	48.02	-39.9	-42.0	14.2	3.80e-06	0	56	0	1041235968	50	4841
2026-01-09 23:05:25.70	96.49	48.03	-39.7	-41.8	14.4	2.20e-06	0	56	0	1044381696	50	4722
2026-01-09 23:05:26.71	97.10	48.05	-39.6	-41.6	14.6	0.00e+00	0	56	0	1047527424	50	4645
2026-01-09 23:05:27.72	97.70	48.06	-39.5	-41.5	14.6	0.00e+00	0	56	0	1050673152	50	4548
2026-01-09 23:05:28.73	98.31	48.06	-39.5	-41.5	14.6	0.00e+00	0	56	0	1053818880	50	4585
2026-01-09 23:05:29.73	98.91	48.07	-39.6	-41.6	14.5	0.00e+00	0	56	0	1056964608	50	4628
2026-01-09 23:05:30.74	99.51	48.07	-39.5	-41.6	14.7	7.00e-07	0	56	0	1060110336	50	4601
2026-01-09 23:05:31.75	100.12	48.07	-39.5	-41.5	14.6	7.00e-07	0	56	0	1063256064	50	4582
2026-01-09 23:05:32.76	100.72	48.06	-39.7	-41.8	14.3	7.00e-07	0	56	0	1066401792	50	4753
2026-01-09 23:05:33.76	101.32	48.05	-39.8	-41.9	14.1	7.00e-07	0	56	0	1069547520	50	4804
2026-01-09 23:05:34.76	101.92	48.04	-39.8	-41.9	14.2	2.20e-06	0	56	0	1072693248	50	4786
2026-01-09 23:05:35.77	102.52	48.02	-39.7	-41.8	14.3	1.50e-06	0	56	0	1075838976	50	4753
2026-01-09 23:05:36.78	103.13	48.00	-39.7	-41.8	14.4	1.50e-06	0	56	0	1078984704	50	4711
2026-01-09 23:05:37.78	103.72	47.98	-39.8	-42.0	14.2	0.00e+00	0	56	0	1082130432	50	4836
2026-01-09 23:05:38.79	104.33	47.95	-40.0	-42.3	13.9	2.20e-06	0	56	0	1085276160	50	4984
2026-01-09 23:05:39.80	104.93	47.92	-40.2	-42.5	13.6	3.00e-06	0	56	0	1088421888	51	4834
2026-01-09 23:05:40.81	105.53	47.89	-40.3	-42.7	13.4	9.90e-06	0	56	0	1091567616	51	4932
2026-01-09 23:05:41.82	106.12	47.85	-40.4	-42.9	13.3	1.52e-05	0	56	0	1094713344	51	5063
2026-01-09 23:05:42.82	106.71	47.81	-40.0	-42.2	13.9	1.14e-05	0	56	0	1097859072	51	4687
2026-01-09 23:05:43.83	107.31	47.77	-39.8	-41.9	14.2	1.50e-06	0	56	0	1101004800	51	4532
2026-01-09 23:05:44.83	107.90	47.73	-39.8	-42.0	14.2	3.00e-06	0	56	0	1104150528	51	4550
2026-01-09 23:05:45.84	108.49	47.68	-39.9	-42.1	14.0	3.80e-06	0	56	0	1107296256	51	4633
2026-01-09 23:05:46.85	109.08	47.62	-40.1	-42.4	13.8	5.30e-06	0	56	0	1110441984	51	4765
2026-01-09 23:05:47.85	109.66	47.57	-40.1	-42.3	13.8	2.20e-06	0	56	0	1113587712	51	4738
2026-01-09 23:05:48.86	110.25	47.51	-40.1	-42.4	13.7	7.60e-06	0	56	0	1116733440	51	4792
2026-01-09 23:05:49.87	110.83	47.45	-40.1	-42.3	13.8	6.10e-06	0	56	0	1119879168	51	4741
2026-01-09 23:05:50.88	111.41	47.38	-39.9	-42.0	14.1	3.00e-06	0	56	0	1123024896	51	4591
2026-01-09 23:05:51.89	111.99	47.32	-39.5	-41.5	14.7	0.00e+00	0	56	0	1126170624	50	4547
2026-01-09 23:05:52.90	112.57	47.25	-39.5	-41.6	14.6	0.00e+00	0	56	0	1129316352	50	4608
2026-01-09 23:05:53.91	113.14	47.17	-39.9	-42.1	14.0	1.50e-06	0	56	0	1132462080	50	4905
2026-01-09 23:05:54.92	113.71	47.10	-39.7	-41.7	14.4	3.00e-06	0	56	0	1135607808	50	4691
2026-01-09 23:05:55.93	114.28	47.02	-40.0	-42.2	13.9	1.50e-06	0	56	0	1138753536	50	4959
2026-01-09 23:05:56.94	114.84	46.93	-39.8	-41.9	14.2	0.00e+00	0	56	0	1141899264	50	4786
2026-01-09 23:05:57.95	115.41	46.85	-39.5	-41.5	14.6	0.00e+00	0	56	0	1145044992	50	4580
2026-01-09 23:05:58.96	115.97	46.76	-39.4	-41.3	14.7	7.00e-07	0	56	0	1148190720	50	4483
2026-01-09 23:05:59.97	116.52	46.67	-39.5	-41.5	14.7	0.00e+00	0	56	0	1151336448	50	4548
2026-01-09 23:06:00.98	117.08	46.58	-39.7	-41.8	14.4	7.00e-07	0	56	0	1154482176	50	4731
2026-01-09 23:06:01.99	117.62	46.48	-40.0	-42.2	14.0	1.50e-06	0	56	0	1157627904	50	4935
2026-01-09 23:06:03.00	118.17	46.38	-40.2	-42.4	13.7	5.30e-06	0	56	0	1160773632	50	5099
2026-01-09 23:06:04.00	118.71	46.28	-40.2	-42.5	13.5	5.30e-06	0	56	0	1163919360	51	4839
2026-01-09 23:06:05.01	119.25	46.18	-39.8	-42.0	14.1	2.20e-06	0	56	0	1167065088	51	4565
2026-01-09 23:06:06.02	119.78	46.07	-39.4	-41.4	14.7	0.00e+00	0	56	0	1170210816	50	4526
2026-01-09 23:06:07.03	120.32	45.96	-39.2	-41.1	15.0	0.00e+00	0	56	0	1173356544	50	4342
2026-01-09 23:06:08.05	120.85	45.85	-39.1	-40.9	15.1	0.00e+00	0	56	0	1176502272	50	4289
2026-01-09 23:06:09.06	121.37	45.74	-39.1	-40.9	15.2	0.00e+00	0	56	0	1179648000	50	4291
2026-01-09 23:06:10.06	121.89	45.62	-39.2	-41.1	15.1	0.00e+00	0	56	0	1182793728	50	4358
2026-01-09 23:06:11.07	122.41	45.51	-39.2	-41.1	15.0	0.00e+00	0	56	0	1185939456	50	4386
2026-01-09 23:06:12.08	122.92	45.39	-39.2	-41.1	15.0	7.00e-07	0	56	0	1189085184	50	4344
2026-01-09 23:06:13.09	123.43	45.26	-38.9	-40.7	15.3	0.00e+00	0	56	0	1192230912	49	4433
2026-01-09 23:06:14.10	123.94	45.14	-38.8	-40.6	15.5	0.00e+00	0	56	0	1195376640	49	4369
2026-01-09 23:06:15.11	124.44	45.02	-39.0	-40.8	15.2	0.00e+00	0	56	0	1198522368	49	4493
2026-01-09 23:06:16.12	124.94	44.89	-39.3	-41.3	14.9	0.00e+00	0	56	0	1201668096	49	4724
2026-01-09 23:06:17.13	125.43	44.76	-39.5	-41.5	14.6	1.50e-06	0	56	0	1204813824	49	4862
2026-01-09 23:06:18.14	125.92	44.63	-39.5	-41.5	14.6	1.50e-06	0	56	0	1207959552	49	4845
2026-01-09 23:06:19.15	126.41	44.49	-39.4	-41.4	14.6	7.00e-07	0	56	0	1211105280	49	4814
2026-01-09 23:06:20.16	126.89	44.36	-39.6	-41.6	14.5	0.00e+00	0	56	0	1214251008	49	4909
2026-01-09 23:06:21.16	127.36	44.22	-39.5	-41.5	14.5	0.00e+00	0	56	0	1217396736	49	4869
2026-01-09 23:06:22.17	127.84	44.08	-39.5	-41.5	14.6	0.00e+00	0	56	0	1220542464	49	4860
2026-01-09 23:06:23.18	128.31	43.94	-39.8	-41.8	14.3	0.00e+00	0	56	0	1223688192	50	4757
2026-01-09 23:06:24.19	128.77	43.80	-40.2	-42.4	13.7	3.00e-06	0	56	0	1226833920	50	5072
2026-01-09 23:06:25.20	129.23	43.66	-40.5	-42.9	13.3	1.83e-05	0	56	0	1229979648	51	5053
2026-01-09 23:06:26.21	129.69	43.51	-40.4	-42.7	13.4	1.60e-05	0	56	0	1233125376	51	4973
2026-01-09 23:06:27.22	130.14	43.37	-40.4	-42.7	13.4	1.67e-05	0	56	0	1236271104	51	4972
2026-01-09 23:06:28.22	130.59	43.22	-40.4	-42.8	13.3	2.13e-05	0	56	0	1239416832	51	4989
2026-01-09 23:06:29.23	131.03	43.07	-40.3	-42.7	13.4	1.52e-05	0	56	0	1242562560	51	4944
2026-01-09 23:06:30.24	131.48	42.92	-40.3	-42.6	13.5	1.22e-05	0	56	0	1245708288	51	4924
2026-01-09 23:06:31.24	131.91	42.77	-40.2	-42.5	13.6	3.00e-06	0	56	0	1248854016	51	4835
2026-01-09 23:06:32.25	132.34	42.62	-40.1	-42.3	13.8	7.00e-07	0	56	0	1251999744	51	4743
2026-01-09 23:06:33.25	132.77	42.47	-40.1	-42.4	13.7	7.00e-07	0	56	0	1255145472	51	4776
2026-01-09 23:06:34.26	133.19	42.31	-40.1	-42.3	13.7	6.10e-06	0	56	0	1258291200	51	4752
2026-01-09 23:06:35.27	133.61	42.16	-40.0	-42.1	14.0	3.00e-06	0	56	0	1261436928	51	4651
2026-01-09 23:06:36.28	134.03	42.00	-39.8	-41.9	14.3	1.50e-06	0	56	0	1264582656	51	4494
2026-01-09 23:06:37.28	134.44	41.84	-39.5	-41.6	14.5	0.00e+00	0	56	0	1267728384	51	4353
2026-01-09 23:06:38.29	134.85	41.68	-39.6	-41.7	14.4	7.00e-07	0	56	0	1270874112	51	4403
2026-01-09 23:06:39.30	135.25	41.52	-39.4	-41.4	14.7	0.00e+00	0	56	0	1274019840	50	4538
2026-01-09 23:06:40.31	135.65	41.36	-39.3	-41.2	14.9	7.00e-07	0	56	0	1277165568	50	4425
2026-01-09 23:06:41.31	136.05	41.20	-39.2	-41.0	15.1	0.00e+00	0	56	0	1280311296	50	4339
2026-01-09 23:06:42.32	136.44	41.04	-39.2	-41.1	15.0	0.00e+00	0	56	0	1283457024	50	4369
2026-01-09 23:06:43.33	136.83	40.88	-39.4	-41.4	14.7	7.00e-07	0	56	0	1286602752	50	4495
2026-01-09 23:06:44.34	137.22	40.72	-39.4	-41.3	14.8	0.00e+00	0	56	0	1289748480	50	4475
2026-01-09 23:06:45.34	137.60	40.55	-39.4	-41.3	14.8	0.00e+00	0	56	0	1292894208	50	4475
2026-01-09 23:06:46.35	137.97	40.39	-39.5	-41.5	14.6	7.00e-07	0	56	0	1296039936	50	4585
2026-01-09 23:06:47.37	138.35	40.22	-39.5	-41.5	14.5	0.00e+00	0	56	0	1299185664	50	4595
2026-01-09 23:06:48.37	138.72	40.06	-39.7	-41.8	14.3	7.00e-07	0	56	0	1302331392	50	4753
2026-01-09 23:06:49.38	139.09	39.89	-39.9	-42.1	14.1	3.80e-06	0	56	0	1305477120	50	4906
2026-01-09 23:06:50.39	139.45	39.72	-39.9	-42.0	14.1	3.80e-06	0	56	0	1308622848	50	4869
2026-01-09 23:06:51.39	139.80	39.56	-40.1	-42.4	13.7	7.60e-06	0	56	0	1311768576	50	5089
2026-01-09 23:06:52.40	140.16	39.39	-40.4	-42.8	13.3	1.52e-05	0	56	0	1314914304	51	5028
2026-01-09 23:06:53.41	140.51	39.22	-40.4	-42.8	13.3	1.44e-05	0	56	0	1318060032	51	5004
2026-01-09 23:06:54.43	140.87	39.05	-40.1	-42.4	13.7	6.10e-06	0	56	0	1321205760	51	4778
2026-01-09 23:06:55.43	141.21	38.88	-39.8	-41.9	14.2	7.00e-07	0	56	0	1324351488	51	4511
2026-01-09 23:06:56.44	141.55	38.71	-39.4	-41.4	14.7	7.00e-07	0	56	0	1327497216	50	4508
2026-01-09 23:06:57.45	141.89	38.55	-39.2	-41.2	14.9	0.00e+00	0	56	0	1330642944	50	4393
2026-01-09 23:06:58.46	142.22	38.38	-39.4	-41.3	14.7	0.00e+00	0	56	0	1333788672	50	4488
2026-01-09 23:06:59.47	142.55	38.21	-39.4	-41.4	14.7	0.00e+00	0	56	0	1336934400	50	4541
2026-01-09 23:07:00.48	142.88	38.04	-39.3	-41.2	14.9	0.00e+00	0	56	0	1340080128	50	4435
2026-01-09 23:07:01.49	143.21	37.86	-39.1	-41.0	15.1	7.00e-07	0	56	0	1343225856	50	4329
2026-01-09 23:07:02.50	143.53	37.69	-39.1	-41.0	15.1	0.00e+00	0	56	0	1346371584	50	4315
2026-01-09 23:07:03.50	143.84	37.53	-38.9	-40.8	15.3	0.00e+00	0	56	0	1349517312	49	4460
2026-01-09 23:07:04.51	144.16	37.35	-39.1	-41.0	15.1	0.00e+00	0	56	0	1352663040	49	4554
2026-01-09 23:07:05.52	144.47	37.18	-38.8	-40.7	15.4	0.00e+00	0	57	0	1355808768	49	4407
2026-01-09 23:07:06.53	144.78	37.01	-38.8	-40.6	15.5	0.00e+00	0	56	0	1358954496	49	4374
2026-01-09 23:07:07.54	145.08	36.84	-38.8	-40.6	15.5	0.00e+00	0	56	0	1362100224	49	4361
2026-01-09 23:07:08.55	145.38	36.67	-38.8	-40.6	15.5	0.00e+00	0	56	0	1365245952	49	4357
2026-01-09 23:07:09.56	145.68	36.50	-38.9	-40.7	15.4	0.00e+00	0	56	0	1368391680	49	4441
2026-01-09 23:07:10.56	145.98	36.33	-39.1	-40.9	15.1	0.00e+00	0	56	0	1371537408	49	4543
2026-01-09 23:07:11.57	146.27	36.16	-39.2	-41.2	14.9	0.00e+00	0	56	0	1374683136	49	4682
2026-01-09 23:07:12.58	146.56	35.99	-39.4	-41.4	14.7	7.00e-07	0	56	0	1377828864	49	4782
2026-01-09 23:07:13.57	146.84	35.82	-39.4	-41.5	14.6	1.50e-06	0	56	0	1380974592	49	4836
2026-01-09 23:07:14.58	147.12	35.65	-39.4	-41.4	14.7	2.20e-06	0	56	0	1384120320	49	4785
2026-01-09 23:07:15.59	147.41	35.48	-39.4	-41.4	14.7	0.00e+00	0	56	0	1387266048	49	4793
2026-01-09 23:07:16.60	147.68	35.31	-39.0	-41.0	15.1	0.00e+00	0	56	0	1390411776	49	4557
2026-01-09 23:07:17.60	147.96	35.14	-38.9	-40.8	15.3	0.00e+00	0	56	0	1393557504	49	4453
2026-01-09 23:07:18.61	148.23	34.98	-38.8	-40.6	15.4	0.00e+00	0	56	0	1396703232	49	4389
2026-01-09 23:07:19.62	148.50	34.81	-38.8	-40.6	15.4	0.00e+00	0	56	0	1399848960	49	4390
2026-01-09 23:07:20.63	148.77	34.64	-38.9	-40.8	15.3	7.00e-07	0	56	0	1402994688	49	4471
2026-01-09 23:07:21.63	149.03	34.47	-39.1	-41.0	15.1	0.00e+00	0	56	0	1406140416	49	4558
2026-01-09 23:07:22.64	149.29	34.30	-39.0	-40.9	15.2	0.00e+00	0	56	0	1409286144	49	4526
2026-01-09 23:07:23.65	149.55	34.13	-39.0	-40.9	15.2	0.00e+00	0	56	0	1412431872	49	4498
2026-01-09 23:07:24.66	149.81	33.96	-38.9	-40.8	15.3	0.00e+00	0	56	0	1415577600	49	4476
2026-01-09 23:07:25.66	150.06	33.80	-38.8	-40.6	15.5	0.00e+00	0	56	0	1418723328	49	4360
2026-01-09 23:07:26.67	150.31	33.63	-38.7	-40.5	15.6	0.00e+00	0	56	0	1421869056	49	4330
2026-01-09 23:07:27.68	150.56	33.46	-38.6	-40.3	15.7	0.00e+00	0	56	0	1425014784	49	4238
2026-01-09 23:07:28.69	150.80	33.30	-38.7	-40.4	15.6	0.00e+00	0	57	0	1428160512	49	4288
2026-01-09 23:07:29.70	151.05	33.13	-38.7	-40.5	15.6	0.00e+00	0	57	0	1431306240	49	4299
2026-01-09 23:07:30.71	151.29	32.96	-38.6	-40.4	15.7	0.00e+00	0	56	0	1434451968	49	4251
2026-01-09 23:07:31.72	151.53	32.80	-38.5	-40.2	15.8	0.00e+00	0	56	0	1437597696	48	4426
2026-01-09 23:07:32.73	151.77	32.63	-38.5	-40.2	15.8	0.00e+00	0	56	0	1440743424	48	4414
2026-01-09 23:07:33.74	152.00	32.47	-38.3	-40.0	16.0	0.00e+00	0	56	0	1443889152	48	4327
2026-01-09 23:07:34.75	152.23	32.30	-38.2	-39.8	16.1	0.00e+00	0	56	0	1447034880	48	4233
2026-01-09 23:07:35.76	152.46	32.14	-38.2	-39.8	16.1	0.00e+00	0	56	0	1450180608	48	4238
2026-01-09 23:07:36.77	152.69	31.97	-38.2	-39.9	16.0	0.00e+00	0	57	0	1453326336	48	4276
2026-01-09 23:07:37.77	152.91	31.81	-38.2	-39.9	16.1	0.00e+00	0	56	0	1456472064	48	4261
2026-01-09 23:07:38.78	153.14	31.65	-38.0	-39.7	16.3	0.00e+00	0	56	0	1459617792	48	4168
2026-01-09 23:07:39.79	153.36	31.49	-37.9	-39.5	16.4	0.00e+00	0	56	0	1462763520	47	4316
2026-01-09 23:07:40.80	153.58	31.32	-37.7	-39.4	16.5	0.00e+00	0	56	0	1465909248	47	4245
2026-01-09 23:07:41.81	153.79	31.16	-37.8	-39.4	16.5	0.00e+00	0	56	0	1469054976	47	4245
2026-01-09 23:07:42.82	154.01	31.00	-37.6	-39.2	16.6	0.00e+00	0	56	0	1472200704	47	4162
2026-01-09 23:07:43.83	154.22	30.84	-37.5	-39.1	16.7	0.00e+00	0	57	0	1475346432	47	4120
2026-01-09 23:07:44.84	154.43	30.68	-37.6	-39.2	16.7	0.00e+00	0	57	0	1478492160	47	4161
2026-01-09 23:07:45.85	154.64	30.52	-37.6	-39.2	16.7	0.00e+00	0	56	0	1481637888	47	4157
2026-01-09 23:07:46.85	154.84	30.36	-37.6	-39.1	16.7	0.00e+00	0	56	0	1484783616	47	4131
2026-01-09 23:07:47.86	155.05	30.20	-37.6	-39.2	16.7	0.00e+00	0	56	0	1488977920	47	4179
2026-01-09 23:07:48.87	155.25	30.04	-37.7	-39.3	16.6	0.00e+00	0	56	0	1491075072	47	4211
2026-01-09 23:07:49.88	155.45	29.89	-37.7	-39.4	16.5	0.00e+00	0	56	0	1494220800	47	4247
2026-01-09 23:07:50.89	155.65	29.73	-37.5	-39.1	16.8	0.00e+00	0	56	0	1497366528	47	4137
2026-01-09 23:07:51.90	155.85	29.57	-37.6	-39.1	16.8	0.00e+00	0	56	0	1500512256	47	4134
2026-01-09 23:07:52.91	156.04	29.42	-37.6	-39.2	16.7	0.00e+00	0	57	0	1504706560	47	4159
2026-01-09 23:07:53.92	156.23	29.26	-37.5	-39.0	16.8	0.00e+00	0	56	0	1507852288	47	4094
2026-01-09 23:07:54.93	156.43	29.10	-37.4	-38.9	17.0	0.00e+00	0	56	0	1510998016	46	4272
2026-01-09 23:07:55.93	156.61	28.95	-37.4	-38.9	17.0	0.00e+00	0	56	0	1514143744	46	4266
2026-01-09 23:07:56.94	156.80	28.80	-37.5	-39.1	16.8	0.00e+00	0	56	0	1516240896	46	4341
2026-01-09 23:07:57.95	156.99	28.64	-37.5	-39.0	16.9	0.00e+00	0	57	0	1519386624	46	4320
2026-01-09 23:07:58.96	157.17	28.49	-37.4	-39.0	16.9	0.00e+00	0	56	0	1523580928	46	4312
2026-01-09 23:07:59.96	157.35	28.34	-37.5	-39.1	16.8	0.00e+00	0	56	0	1526726656	46	4371
2026-01-09 23:08:00.97	157.53	28.19	-37.6	-39.2	16.6	0.00e+00	0	56	0	1529872384	46	4438
2026-01-09 23:08:01.98	157.71	28.03	-37.7	-39.4	16.5	0.00e+00	0	56	0	1533018112	46	4499
2026-01-09 23:08:02.98	157.89	27.89	-37.7	-39.3	16.5	0.00e+00	0	56	0	1536163840	46	4482
2026-01-09 23:08:03.99	158.06	27.73	-37.6	-39.2	16.7	0.00e+00	0	57	0	1538260992	46	4412
2026-01-09 23:08:05.00	158.24	27.58	-37.6	-39.2	16.7	0.00e+00	0	56	0	1541406720	46	4422
2026-01-09 23:08:06.00	158.41	27.44	-37.6	-39.2	16.6	0.00e+00	0	56	0	1545601024	46	4430
2026-01-09 23:08:07.01	158.58	27.29	-37.4	-38.9	16.9	0.00e+00	0	56	0	1548746752	46	4270
2026-01-09 23:08:08.02	158.75	27.14	-37.2	-38.7	17.0	0.00e+00	0	56	0	1551892480	46	4191
2026-01-09 23:08:09.03	158.92	26.99	-37.2	-38.7	17.1	0.00e+00	0	56	0	1555038208	46	4188
2026-01-09 23:08:10.03	159.08	26.85	-37.3	-38.8	17.0	0.00e+00	0	56	0	1558183936	46	4230
2026-01-09 23:08:11.04	159.25	26.70	-37.3	-38.8	17.0	0.00e+00	0	56	0	1561329664	46	4226
2026-01-09 23:08:12.05	159.41	26.55	-37.4	-38.9	16.9	0.00e+00	0	56	0	1563426816	46	4280
2026-01-09 23:08:13.06	159.57	26.41	-37.3	-38.9	16.9	0.00e+00	0	56	0	1567621120	46	4247
2026-01-09 23:08:14.07	159.73	26.26	-37.3	-38.8	17.0	0.00e+00	0	56	0	1570766848	46	4206
2026-01-09 23:08:15.08	159.89	26.12	-37.3	-38.8	17.0	0.00e+00	0	56	0	1573912576	46	4215
2026-01-09 23:08:16.09	160.05	25.97	-37.2	-38.7	17.1	0.00e+00	0	57	0	1577058304	46	4184
2026-01-09 23:08:17.10	160.21	25.83	-37.2	-38.7	17.1	0.00e+00	0	56	0	1580204032	46	4146
2026-01-09 23:08:18.11	160.36	25.69	-37.1	-38.6	17.2	0.00e+00	0	56	0	1583349760	46	4119
2026-01-09 23:08:19.12	160.52	25.54	-37.1	-38.6	17.2	0.00e+00	0	56	0	1586495488	46	4134
2026-01-09 23:08:20.12	160.67	25.40	-37.1	-38.6	17.1	0.00e+00	0	56	0	1589641216	46	4138
2026-01-09 23:08:21.13	160.82	25.26	-37.1	-38.6	17.2	0.00e+00	0	56	0	1592786944	46	4106
2026-01-09 23:08:22.14	160.97	25.12	-37.2	-38.7	17.1	0.00e+00	0	57	0	1595932672	46	4175
2026-01-09 23:08:23.15	161.12	24.98	-37.3	-38.8	17.0	0.00e+00	0	56	0	1599078400	46	4213
2026-01-09 23:08:24.15	161.26	24.84	-37.3	-38.9	16.9	0.00e+00	0	56	0	1602224128	46	4248
2026-01-09 23:08:25.16	161.41	24.70	-37.4	-38.9	16.8	0.00e+00	0	56	0	1605369856	46	4288
2026-01-09 23:08:26.17	161.55	24.56	-37.4	-39.0	16.8	0.00e+00	0	56	0	1608515584	46	4315
2026-01-09 23:08:27.18	161.70	24.43	-37.4	-39.0	16.8	0.00e+00	0	56	0	1611661312	46	4319
2026-01-09 23:08:28.19	161.84	24.29	-37.4	-39.0	16.8	0.00e+00	0	56	0	1614807040	46	4295
2026-01-09 23:08:29.20	161.98	24.15	-37.4	-39.0	16.8	0.00e+00	0	56	0	1617952768	46	4297
2026-01-09 23:08:30.21	162.12	24.02	-37.5	-39.1	16.7	0.00e+00	0	56	0	1621098496	46	4354
2026-01-09 23:08:31.21	162.26	23.88	-37.6	-39.2	16.6	0.00e+00	0	56	0	1624244224	46	4418
2026-01-09 23:08:32.22	162.40	23.75	-37.7	-39.3	16.5	0.00e+00	0	57	0	1627389952	46	4465
2026-01-09 23:08:33.23	162.53	23.61	-37.8	-39.4	16.4	0.00e+00	0	56	0	1630535680	46	4535
2026-01-09 23:08:34.24	162.67	23.48	-37.8	-39.5	16.3	0.00e+00	0	57	0	1633681408	46	4571
2026-01-09 23:08:35.24	162.80	23.34	-37.9	-39.6	16.1	0.00e+00	0	56	0	1636827136	46	4635
2026-01-09 23:08:36.25	162.93	23.21	-37.9	-39.6	16.2	0.00e+00	0	56	0	1639972864	46	4610
2026-01-09 23:08:37.26	163.07	23.08	-38.0	-39.7	16.0	0.00e+00	0	56	0	1643118592	46	4682
2026-01-09 23:08:38.26	163.20	22.95	-38.1	-39.8	15.9	0.00e+00	0	56	0	1646264320	46	4755
2026-01-09 23:08:39.27	163.33	22.82	-37.9	-39.7	16.1	0.00e+00	0	56	0	1649410048	46	4658
2026-01-09 23:08:40.28	163.46	22.68	-37.9	-39.6	16.2	0.00e+00	0	56	0	1652555776	46	4622
2026-01-09 23:08:41.29	163.58	22.55	-37.8	-39.4	16.3	0.00e+00	0	57	0	1655701504	46	4535
2026-01-09 23:08:42.30	163.71	22.42	-37.8	-39.4	16.3	0.00e+00	0	56	0	1658847232	46	4534
2026-01-09 23:08:43.31	163.84	22.29	-37.7	-39.4	16.3	0.00e+00	0	56	0	1661992960	46	4521
2026-01-09 23:08:44.32	163.96	22.17	-37.6	-39.3	16.4	0.00e+00	0	56	0	1665138688	46	4460
2026-01-09 23:08:45.33	164.08	22.04	-37.6	-39.3	16.4	0.00e+00	0	56	0	1668284416	46	4444
2026-01-09 23:08:46.34	164.21	21.91	-37.5	-39.1	16.6	0.00e+00	0	56	0	1671430144	46	4378
2026-01-09 23:08:47.35	164.33	21.78	-37.4	-39.0	16.7	0.00e+00	0	57	0	1674575872	46	4317
2026-01-09 23:08:48.36	164.45	21.65	-37.5	-39.1	16.6	0.00e+00	0	56	0	1677721600	46	4367
2026-01-09 23:08:49.37	164.57	21.53	-37.5	-39.1	16.6	0.00e+00	0	56	0	1680867328	46	4363
2026-01-09 23:08:50.38	164.69	21.40	-37.5	-39.1	16.5	0.00e+00	0	56	0	1684013056	46	4381
2026-01-09 23:08:51.39	164.81	21.28	-37.6	-39.2	16.5	0.00e+00	0	56	0	1687158784	46	4407
2026-01-09 23:08:52.40	164.92	21.15	-37.6	-39.3	16.5	0.00e+00	0	56	0	1690304512	46	4443
2026-01-09 23:08:53.40	165.04	21.03	-37.6	-39.3	16.4	0.00e+00	0	56	0	1693450240	46	4452
2026-01-09 23:08:54.41	165.15	20.90	-37.6	-39.3	16.4	0.00e+00	0	57	0	1696595968	46	4448
2026-01-09 23:08:55.42	165.27	20.78	-37.6	-39.3	16.4	0.00e+00	0	56	0	1699741696	46	4452
2026-01-09 23:08:56.43	165.38	20.66	-37.7	-39.4	16.4	0.00e+00	0	56	0	1702887424	46	4503
2026-01-09 23:08:57.44	165.49	20.54	-37.6	-39.2	16.5	0.00e+00	0	56	0	1706033152	46	4434
2026-01-09 23:08:58.45	165.61	20.41	-37.6	-39.2	16.5	0.00e+00	0	56	0	1709178880	46	4413
2026-01-09 23:08:59.46	165.72	20.29	-37.6	-39.2	16.5	0.00e+00	0	56	0	1712324608	46	4433
2026-01-09 23:09:00.47	165.83	20.17	-37.6	-39.3	16.4	0.00e+00	0	56	0	1715470336	46	4455
2026-01-09 23:09:01.48	165.94	20.05	-37.7	-39.4	16.3	0.00e+00	0	56	0	1718616064	46	4523
2026-01-09 23:09:02.48	166.04	19.93	-37.8	-39.5	16.2	0.00e+00	0	56	0	1721761792	46	4588
2026-01-09 23:09:03.49	166.15	19.81	-37.9	-39.6	16.1	0.00e+00	0	56	0	1724907520	46	4619
2026-01-09 23:09:04.50	166.26	19.69	-38.0	-39.7	16.0	0.00e+00	0	56	0	1728053248	46	4674
2026-01-09 23:09:05.51	166.37	19.57	-38.1	-39.8	15.8	0.00e+00	0	56	0	1731198976	46	4747
2026-01-09 23:09:06.52	166.47	19.46	-37.9	-39.7	16.0	0.00e+00	0	56	0	1734344704	46	4656
2026-01-09 23:09:07.53	166.57	19.34	-37.8	-39.5	16.2	0.00e+00	0	56	0	1737490432	46	4550
2026-01-09 23:09:08.54	166.68	19.22	-37.8	-39.6	16.1	0.00e+00	0	56	0	1740636160	46	4605
2026-01-09 23:09:09.55	166.78	19.10	-37.7	-39.4	16.2	0.00e+00	0	56	0	1743781888	46	4513
2026-01-09 23:09:10.56	166.88	18.99	-37.6	-39.3	16.3	0.00e+00	0	56	0	1746927616	46	4459
2026-01-09 23:09:11.57	166.99	18.87	-37.7	-39.3	16.2	0.00e+00	0	56	0	1750073344	46	4492
2026-01-09 23:09:12.58	167.09	18.76	-37.7	-39.4	16.2	0.00e+00	0	56	0	1753219072	46	4502
2026-01-09 23:09:13.59	167.19	18.64	-37.7	-39.3	16.2	0.00e+00	0	56	0	1756364800	46	4483
2026-01-09 23:09:14.60	167.29	18.53	-37.6	-39.3	16.3	0.00e+00	0	56	0	1759510528	46	4470
2026-01-09 23:09:15.61	167.38	18.41	-37.7	-39.4	16.2	0.00e+00	0	56	0	1762656256	46	4500
2026-01-09 23:09:16.62	167.48	18.30	-37.6	-39.3	16.3	0.00e+00	0	56	0	1765801984	46	4444
2026-01-09 23:09:17.63	167.58	18.19	-37.6	-39.3	16.3	0.00e+00	0	56	0	1768947712	46	4447
2026-01-09 23:09:18.64	167.67	18.07	-37.6	-39.2	16.4	0.00e+00	0	56	0	1772093440	46	4431
2026-01-09 23:09:19.64	167.77	17.96	-37.7	-39.3	16.3	0.00e+00	0	56	0	1775239168	46	4484
2026-01-09 23:09:20.66	167.87	17.85	-37.6	-39.3	16.3	0.00e+00	0	56	0	1778384896	46	4447
2026-01-09 23:09:21.66	167.96	17.74	-37.6	-39.2	16.4	0.00e+00	0	56	0	1781530624	46	4428
2026-01-09 23:09:22.67	168.05	17.63	-37.6	-39.3	16.3	0.00e+00	0	56	0	1784676352	46	4461
2026-01-09 23:09:23.68	168.15	17.52	-37.5	-39.2	16.5	0.00e+00	0	56	0	1787822080	46	4394
2026-01-09 23:09:24.69	168.24	17.41	-37.5	-39.2	16.4	0.00e+00	0	56	0	1790967808	46	4400
2026-01-09 23:09:25.69	168.33	17.30	-37.5	-39.1	16.5	0.00e+00	0	56	0	1794113536	46	4366
2026-01-09 23:09:26.70	168.42	17.19	-37.6	-39.2	16.4	0.00e+00	0	56	0	1797259264	46	4419
2026-01-09 23:09:27.71	168.51	17.08	-37.5	-39.1	16.5	0.00e+00	0	56	0	1800404992	46	4369
2026-01-09 23:09:28.72	168.60	16.97	-37.5	-39.1	16.5	0.00e+00	0	56	0	1803550720	46	4388
2026-01-09 23:09:29.73	168.69	16.87	-37.6	-39.3	16.3	0.00e+00	0	56	0	1806696448	46	4454
2026-01-09 23:09:30.74	168.78	16.76	-37.6	-39.2	16.3	0.00e+00	0	56	0	1809842176	46	4434
2026-01-09 23:09:31.75	168.87	16.65	-37.7	-39.4	16.2	0.00e+00	0	56	0	1812987904	46	4513
2026-01-09 23:09:32.76	168.95	16.54	-37.8	-39.5	16.1	0.00e+00	0	57	0	1816133632	46	4578
2026-01-09 23:09:33.77	169.04	16.44	-37.8	-39.5	16.1	0.00e+00	0	56	0	1819279360	46	4586
2026-01-09 23:09:34.78	169.13	16.33	-37.9	-39.7	15.9	0.00e+00	0	56	0	1822425088	46	4673
2026-01-09 23:09:35.79	169.21	16.23	-38.0	-39.8	15.7	0.00e+00	0	56	0	1825570816	46	4748
2026-01-09 23:09:36.80	169.30	16.12	-38.1	-39.9	15.7	0.00e+00	0	57	0	1828716544	46	4771
2026-01-09 23:09:37.81	169.38	16.02	-38.1	-39.9	15.6	0.00e+00	0	56	0	1831862272	46	4774
2026-01-09 23:09:38.81	169.47	15.91	-38.1	-40.0	15.6	0.00e+00	0	56	0	1835008000	46	4823
2026-01-09 23:09:39.82	169.55	15.81	-38.2	-40.1	15.4	0.00e+00	0	56	0	1838153728	46	4879
2026-01-09 23:09:40.83	169.63	15.71	-38.2	-40.1	15.4	7.00e-07	0	56	0	1841299456	47	4615
2026-01-09 23:09:41.84	169.72	15.60	-38.2	-40.1	15.4	7.00e-07	0	56	0	1844445184	47	4617
2026-01-09 23:09:42.84	169.80	15.50	-38.4	-40.3	15.2	0.00e+00	0	57	0	1847590912	47	4710
2026-01-09 23:09:43.85	169.88	15.40	-38.3	-40.2	15.3	0.00e+00	0	56	0	1850736640	47	4665
2026-01-09 23:09:44.86	169.96	15.30	-38.2	-40.1	15.3	0.00e+00	0	56	0	1853882368	47	4642
2026-01-09 23:09:45.87	170.04	15.19	-38.3	-40.2	15.2	0.00e+00	0	56	0	1857028096	47	4682
2026-01-09 23:09:46.88	170.12	15.09	-38.2	-40.0	15.4	0.00e+00	0	56	0	1860173824	47	4596
2026-01-09 23:09:47.88	170.20	14.99	-38.3	-40.2	15.2	0.00e+00	0	56	0	1863319552	47	4690
2026-01-09 23:09:48.89	170.28	14.89	-38.3	-40.2	15.2	0.00e+00	0	56	0	1866465280	47	4680
2026-01-09 23:09:49.90	170.35	14.79	-38.3	-40.2	15.2	7.00e-07	0	57	0	1869611008	47	4705
2026-01-09 23:09:50.90	170.43	14.69	-38.3	-40.2	15.2	0.00e+00	0	57	0	1872756736	47	4685
2026-01-09 23:09:51.91	170.51	14.59	-38.3	-40.3	15.1	0.00e+00	0	56	0	1875902464	47	4719
2026-01-09 23:09:52.92	170.58	14.49	-38.3	-40.3	15.1	0.00e+00	0	57	0	1879048192	47	4717
2026-01-09 23:09:53.93	170.66	14.40	-38.4	-40.3	15.1	0.00e+00	0	56	0	1882193920	47	4727
2026-01-09 23:09:54.94	170.74	14.30	-38.4	-40.3	15.1	0.00e+00	0	56	0	1885339648	47	4744
2026-01-09 23:09:55.95	170.81	14.20	-38.4	-40.3	15.0	0.00e+00	0	56	0	1888485376	47	4759
2026-01-09 23:09:56.96	170.89	14.10	-38.4	-40.4	15.0	0.00e+00	0	56	0	1891631104	47	4789
2026-01-09 23:09:57.97	170.96	14.00	-38.5	-40.4	14.9	0.00e+00	0	57	0	1894776832	47	4808
2026-01-09 23:09:58.97	171.03	13.91	-38.5	-40.5	14.9	0.00e+00	0	57	0	1897922560	47	4831
2026-01-09 23:09:59.99	171.11	13.81	-38.4	-40.3	15.0	0.00e+00	0	56	0	1901068288	47	4752
2026-01-09 23:10:01.00	171.18	13.71	-38.4	-40.3	15.0	0.00e+00	0	56	0	1904214016	47	4750
