passes_logs/2026/01/09/R2.0S_Moscow/R2.0S_Moscow__20260109_081915_NOAA_20_JPSS-1_rec.log

#Pass ID: 20260109_081915_NOAA 20 (JPSS-1)
#Satellite: NOAA 20 (JPSS-1)
#Configuration: NOAA 20
#almurnet v.1.7.20251203
#Start time: 2026-01-09 08:19:17

#Version: 2.2.20231116
#Station: R2.0S_Moscow
#Location: 37.707566 lon 55.798166 lat
#TLE: 1 43013U 17073A   26008.42245989  .00000120  00000+0  77990-4 0  9996
#TLE: 2 43013  98.7631 309.4315 0001737  48.7960 311.3365 14.19534455421802

#Time	Az	El	Level	Level2	SNR	BER	BlckErr	Temp	State	Recorded	gain1	gain2
2026-01-09 08:19:17.02	113.63	2.08	-42.1	-55.9	4.0	1.50e+00	0	48	0	0	55	18095
2026-01-09 08:19:18.02	113.56	2.13	-41.2	-55.8	3.8	1.50e+00	0	48	104	0	55	17832
2026-01-09 08:19:19.03	113.50	2.19	-41.9	-55.3	3.9	1.50e+00	0	48	104	0	54	17828
2026-01-09 08:19:20.04	113.43	2.25	-41.8	-53.9	4.3	1.50e+00	0	48	104	0	53	16000
2026-01-09 08:19:21.05	113.36	2.31	-42.1	-56.1	3.9	1.50e+00	0	48	104	0	55	18423
2026-01-09 08:19:22.06	113.30	2.37	-42.5	-55.5	4.0	1.49e+00	0	48	104	0	54	18169
2026-01-09 08:19:23.07	113.23	2.42	-41.5	-55.7	3.8	1.49e+00	0	48	104	0	54	18642
2026-01-09 08:19:24.08	113.16	2.48	-41.5	-55.4	4.1	1.50e+00	0	48	104	0	53	19077
2026-01-09 08:19:25.09	113.10	2.54	-42.2	-56.1	3.9	1.49e+00	0	48	104	0	55	18493
2026-01-09 08:19:26.10	113.03	2.60	-41.6	-55.6	4.1	1.49e+00	0	48	104	0	55	17301
2026-01-09 08:19:27.11	112.96	2.66	-41.3	-55.7	4.0	1.49e+00	0	48	104	0	54	18613
2026-01-09 08:19:28.13	112.89	2.72	-39.3	-55.1	3.8	1.50e+00	0	48	104	0	55	16430
2026-01-09 08:19:29.14	112.82	2.77	-41.1	-55.6	4.1	1.50e+00	0	49	104	0	55	17340
2026-01-09 08:19:30.15	112.75	2.83	-42.1	-55.6	4.0	1.50e+00	0	49	104	0	55	17294
2026-01-09 08:19:31.16	112.69	2.89	-42.2	-55.9	3.8	1.50e+00	0	48	104	0	55	18000
2026-01-09 08:19:32.17	112.62	2.95	-41.4	-55.8	4.0	1.50e+00	0	49	104	0	55	17747
2026-01-09 08:19:33.18	112.55	3.01	-42.2	-55.8	3.9	1.49e+00	0	49	104	0	55	17759
2026-01-09 08:19:34.19	112.48	3.07	-40.7	-54.7	4.0	1.50e+00	0	49	104	0	53	17594
2026-01-09 08:19:35.20	112.41	3.13	-41.2	-55.2	4.0	1.50e+00	0	49	104	0	54	17548
2026-01-09 08:19:36.21	112.34	3.19	-41.8	-55.1	4.0	1.50e+00	0	49	104	0	53	18444
2026-01-09 08:19:37.22	112.27	3.24	-41.9	-55.8	4.0	1.50e+00	0	49	104	0	54	18732
2026-01-09 08:19:38.23	112.20	3.30	-41.4	-54.3	4.1	1.50e+00	0	49	104	0	53	16799
2026-01-09 08:19:39.24	112.12	3.36	-41.7	-55.9	3.9	1.50e+00	0	49	104	0	55	18034
2026-01-09 08:19:40.25	112.05	3.42	-42.0	-55.4	3.9	1.50e+00	0	49	104	0	54	17920
2026-01-09 08:19:41.26	111.98	3.48	-41.8	-54.6	4.1	1.49e+00	0	49	104	0	54	16503
2026-01-09 08:19:42.27	111.91	3.54	-41.1	-55.4	3.9	1.49e+00	0	49	104	0	55	16898
2026-01-09 08:19:43.28	111.84	3.60	-40.8	-54.4	4.0	1.50e+00	0	49	104	0	52	18091
2026-01-09 08:19:44.29	111.76	3.66	-42.2	-55.0	4.1	1.50e+00	0	49	104	0	54	17150
2026-01-09 08:19:45.30	111.69	3.72	-42.0	-55.9	3.8	1.50e+00	0	49	104	0	54	19061
2026-01-09 08:19:46.31	111.62	3.78	-42.3	-55.4	4.2	1.50e+00	0	49	104	0	55	16966
2026-01-09 08:19:47.33	111.54	3.84	-39.9	-54.7	4.0	1.50e+00	0	50	104	0	53	17520
2026-01-09 08:19:48.33	111.47	3.90	-40.5	-54.7	4.2	1.50e+00	0	50	104	0	52	18526
2026-01-09 08:19:49.34	111.39	3.96	-41.5	-54.3	3.8	1.50e+00	0	50	104	0	48	22382
2026-01-09 08:19:50.35	111.32	4.02	-40.5	-55.1	4.0	1.50e+00	0	50	104	0	53	18493
2026-01-09 08:19:51.36	111.25	4.08	-38.2	-54.8	3.9	1.50e+00	0	50	104	0	49	22347
2026-01-09 08:19:52.38	111.17	4.14	-39.4	-55.3	4.0	1.50e+00	0	50	104	0	49	23587
2026-01-09 08:19:53.38	111.09	4.20	-38.7	-53.8	4.0	1.50e+00	0	50	104	0	46	23751
2026-01-09 08:19:54.40	111.02	4.26	-37.9	-55.3	3.9	1.50e+00	0	50	104	0	47	26576
2026-01-09 08:19:55.41	110.94	4.32	-37.9	-55.0	4.0	1.50e+00	0	50	104	0	47	25574
2026-01-09 08:19:56.42	110.86	4.39	-37.8	-55.4	4.0	1.50e+00	0	50	104	0	46	28556
2026-01-09 08:19:57.43	110.79	4.45	-37.9	-55.5	3.9	1.50e+00	0	50	104	0	46	28705
2026-01-09 08:19:58.43	110.71	4.51	-38.4	-55.4	3.9	1.50e+00	0	50	104	0	47	27052
2026-01-09 08:19:59.44	110.63	4.57	-38.0	-55.6	3.9	1.50e+00	0	50	104	0	47	27614
2026-01-09 08:20:00.46	110.56	4.63	-39.0	-55.5	3.9	1.50e+00	0	50	104	0	48	25845
2026-01-09 08:20:01.47	110.48	4.69	-38.8	-55.6	3.9	1.50e+00	0	50	104	0	49	24643
2026-01-09 08:20:02.48	110.40	4.75	-39.0	-54.7	4.1	1.50e+00	0	51	104	0	48	23549
2026-01-09 08:20:03.49	110.32	4.81	-39.4	-55.3	4.1	1.50e+00	0	50	104	0	50	22292
2026-01-09 08:20:04.50	110.24	4.88	-40.0	-55.6	4.2	1.50e+00	0	50	104	0	50	23276
2026-01-09 08:20:05.51	110.16	4.94	-40.2	-55.4	4.1	1.50e+00	0	50	104	0	51	21262
2026-01-09 08:20:06.52	110.08	5.00	-40.6	-55.2	3.9	1.50e+00	0	51	104	0	51	20960
2026-01-09 08:20:07.53	110.00	5.06	-40.7	-55.6	4.1	1.50e+00	0	51	104	0	52	20550
2026-01-09 08:20:08.54	109.92	5.12	-41.4	-55.8	4.0	1.50e+00	0	50	104	0	53	19921
2026-01-09 08:20:09.54	109.84	5.18	-36.5	-54.4	3.9	1.50e+00	0	51	104	0	52	18041
2026-01-09 08:20:10.55	109.76	5.25	-41.0	-55.5	3.8	1.50e+00	0	51	104	0	53	19272
2026-01-09 08:20:11.57	109.68	5.31	-41.5	-55.7	4.1	1.50e+00	0	51	104	0	53	19792
2026-01-09 08:20:12.58	109.59	5.37	-40.3	-51.9	4.0	1.50e+00	0	51	104	0	51	14259
2026-01-09 08:20:13.59	109.51	5.43	-40.7	-55.8	4.0	1.50e+00	0	51	104	0	53	19970
2026-01-09 08:20:14.60	109.43	5.50	-41.4	-54.6	3.7	1.50e+00	0	51	104	0	53	17434
2026-01-09 08:20:15.61	109.35	5.56	-41.0	-55.1	4.1	1.50e+00	0	51	104	0	52	19442
2026-01-09 08:20:16.62	109.26	5.62	-42.0	-55.8	4.0	1.49e+00	0	51	104	0	53	19900
2026-01-09 08:20:17.63	109.18	5.68	-40.6	-54.7	4.0	1.50e+00	0	51	104	0	54	16643
2026-01-09 08:20:18.64	109.09	5.75	-42.0	-55.7	3.9	1.50e+00	0	51	104	0	55	17513
2026-01-09 08:20:19.65	109.01	5.81	-42.1	-53.9	4.1	1.50e+00	0	52	104	0	54	15104
2026-01-09 08:20:20.66	108.92	5.87	-41.7	-55.7	4.0	1.50e+00	0	51	104	0	55	17612
2026-01-09 08:20:21.67	108.84	5.94	-41.7	-55.9	3.9	1.49e+00	0	52	104	0	55	17997
2026-01-09 08:20:22.68	108.75	6.00	-42.0	-54.9	4.1	1.50e+00	0	51	104	0	54	17055
2026-01-09 08:20:23.69	108.67	6.06	-41.7	-55.5	4.1	1.50e+00	0	51	104	0	54	18195
2026-01-09 08:20:24.70	108.58	6.13	-38.8	-54.4	3.9	1.50e+00	0	52	104	0	54	15980
2026-01-09 08:20:25.71	108.49	6.19	-42.4	-55.1	4.0	1.50e+00	0	52	104	0	54	17453
2026-01-09 08:20:26.72	108.41	6.25	-41.0	-55.5	4.0	1.50e+00	0	52	104	0	54	18260
2026-01-09 08:20:27.73	108.32	6.32	-42.2	-55.9	4.0	1.50e+00	0	52	104	0	54	19085
2026-01-09 08:20:28.74	108.23	6.38	-41.5	-55.8	4.0	1.50e+00	0	52	104	0	54	18791
2026-01-09 08:20:29.75	108.14	6.44	-41.3	-55.7	4.0	1.49e+00	0	52	104	0	54	18671
2026-01-09 08:20:30.76	108.05	6.51	-40.9	-55.2	3.9	1.49e+00	0	52	104	0	55	16555
2026-01-09 08:20:31.77	107.96	6.57	-41.0	-55.4	4.0	1.50e+00	0	52	104	0	54	18008
2026-01-09 08:20:32.78	107.87	6.64	-40.0	-53.0	4.2	1.50e+00	0	52	104	0	51	16183
2026-01-09 08:20:33.79	107.78	6.70	-41.9	-55.8	4.0	1.50e+00	0	52	104	0	54	18935
2026-01-09 08:20:34.80	107.69	6.76	-41.7	-55.6	4.0	1.50e+00	0	52	104	0	55	17341
2026-01-09 08:20:35.81	107.60	6.83	-41.5	-55.5	4.1	1.50e+00	0	52	104	0	54	18125
2026-01-09 08:20:36.82	107.51	6.89	-41.4	-55.5	4.0	1.50e+00	0	52	104	0	54	18239
2026-01-09 08:20:37.84	107.42	6.96	-41.8	-55.2	4.0	1.50e+00	0	52	104	0	53	18606
2026-01-09 08:20:38.85	107.33	7.02	-41.8	-55.3	4.0	1.50e+00	0	52	104	0	54	17743
2026-01-09 08:20:39.86	107.23	7.09	-40.8	-55.8	3.9	1.49e+00	0	52	104	0	54	18931
2026-01-09 08:20:40.87	107.14	7.15	-41.9	-55.4	4.0	1.50e+00	0	52	104	0	54	17966
2026-01-09 08:20:41.88	107.05	7.22	-40.0	-54.9	3.9	1.50e+00	0	52	104	0	55	16017
2026-01-09 08:20:42.89	106.95	7.28	-41.2	-55.1	4.0	1.49e+00	0	52	104	0	54	17372
2026-01-09 08:20:43.90	106.86	7.35	-42.1	-54.4	4.2	1.50e+00	0	52	104	0	54	15981
2026-01-09 08:20:44.91	106.76	7.41	-41.4	-53.2	4.1	1.50e+00	0	52	104	0	53	14744
2026-01-09 08:20:45.92	106.67	7.48	-39.6	-53.3	3.9	1.49e+00	0	52	0	0	53	14883
2026-01-09 08:20:46.93	106.57	7.54	-41.8	-52.8	4.0	1.48e+00	0	52	104	0	54	13354
2026-01-09 08:20:47.94	106.48	7.61	-35.3	-48.9	4.3	1.48e+00	0	52	104	0	49	11375
2026-01-09 08:20:48.95	106.38	7.68	-40.5	-50.7	4.9	9.14e-01	51	53	0	0	53	11030
2026-01-09 08:20:49.96	106.28	7.74	-40.1	-49.5	5.3	6.92e-01	41	53	0	2097152	52	10263
2026-01-09 08:20:50.97	106.19	7.81	-41.2	-48.7	6.1	5.65e-01	15	52	0	4194304	53	8773
2026-01-09 08:20:51.98	106.09	7.87	-40.7	-47.8	7.0	2.75e-01	2	53	0	5242880	52	8448
2026-01-09 08:20:52.99	105.99	7.94	-40.4	-46.9	7.5	2.02e-01	3	53	0	7340032	52	7591
2026-01-09 08:20:54.00	105.89	8.01	-39.8	-46.0	8.2	1.49e-01	2	53	0	9437184	51	7272
2026-01-09 08:20:55.01	105.79	8.07	-38.9	-52.3	4.1	6.38e-01	0	53	104	10485760	46	20031
2026-01-09 08:20:56.02	105.69	8.14	-40.2	-51.2	4.1	1.48e+00	0	53	104	10485760	50	14035
2026-01-09 08:20:57.02	105.59	8.20	-37.3	-48.4	4.1	5.88e-01	5	53	104	10485760	42	16077
2026-01-09 08:20:58.03	105.49	8.27	-40.9	-52.1	4.1	1.48e+00	0	53	104	10485760	53	13012
2026-01-09 08:20:59.04	105.39	8.34	-39.2	-45.7	8.7	4.61e-01	1	53	0	10485760	50	7403
2026-01-09 08:21:00.05	105.29	8.40	-40.0	-45.2	7.7	1.44e-01	3	53	0	12582912	50	6980
2026-01-09 08:21:01.06	105.19	8.47	-39.7	-44.9	9.0	3.29e-01	2	53	0	14680064	49	7184
2026-01-09 08:21:02.07	105.08	8.54	-40.2	-45.1	8.9	1.28e-01	2	53	0	15728640	51	6502
2026-01-09 08:21:03.08	104.98	8.60	-39.9	-45.0	9.3	8.10e-02	0	53	0	17825792	51	6454
2026-01-09 08:21:04.09	104.88	8.67	-39.8	-44.9	9.1	1.39e-01	0	53	0	19922944	50	6767
2026-01-09 08:21:05.10	104.77	8.74	-38.3	-44.2	8.2	1.89e-01	17	53	0	22020096	49	6575
2026-01-09 08:21:06.11	104.67	8.80	-40.0	-45.0	8.5	2.94e-01	7	53	0	24117248	49	7272
2026-01-09 08:21:07.12	104.56	8.87	-39.9	-45.3	8.3	2.33e-01	1	53	0	25165824	50	7056
2026-01-09 08:21:08.13	104.46	8.94	-39.4	-45.2	8.1	1.86e-01	7	53	0	27262976	50	7032
2026-01-09 08:21:09.14	104.35	9.01	-39.9	-45.4	8.2	2.29e-01	4	53	0	29360128	50	7133
2026-01-09 08:21:10.15	104.25	9.07	-38.3	-45.1	7.8	2.44e-01	7	53	0	31457280	50	6936
2026-01-09 08:21:11.16	104.14	9.14	-39.6	-45.0	7.8	2.46e-01	9	53	0	33554432	50	6868
2026-01-09 08:21:12.17	104.03	9.21	-38.8	-45.1	8.0	1.95e-01	2	53	0	34603008	50	6931
2026-01-09 08:21:13.18	103.92	9.28	-37.7	-44.6	8.0	2.34e-01	8	53	0	36700160	49	6908
2026-01-09 08:21:14.19	103.82	9.35	-37.9	-44.9	7.5	2.69e-01	21	53	0	38797312	46	8479
2026-01-09 08:21:15.20	103.71	9.41	-38.7	-45.0	7.6	2.99e-01	15	54	0	39845888	49	7280
2026-01-09 08:21:16.21	103.60	9.48	-38.9	-44.9	7.6	2.76e-01	9	53	0	41943040	46	8483
2026-01-09 08:21:17.22	103.49	9.55	-39.1	-45.2	7.7	3.24e-01	10	53	0	44040192	49	7385
2026-01-09 08:21:18.23	103.38	9.62	-36.2	-44.2	5.2	3.34e-01	21	53	0	45088768	42	9881
2026-01-09 08:21:19.24	103.27	9.69	-39.0	-45.0	7.6	3.84e-01	11	53	0	47185920	49	7235
2026-01-09 08:21:20.25	103.15	9.75	-38.7	-44.9	7.5	2.80e-01	18	54	0	49283072	48	7572
2026-01-09 08:21:21.26	103.04	9.82	-37.7	-44.4	7.2	4.21e-01	18	53	0	50331648	47	7617
2026-01-09 08:21:22.27	102.93	9.89	-36.3	-44.3	7.4	5.37e-01	23	54	0	52428800	47	7495
2026-01-09 08:21:23.28	102.82	9.96	-37.7	-44.7	7.2	3.08e-01	26	53	0	54525952	48	7384
2026-01-09 08:21:24.28	102.70	10.03	-36.3	-44.5	7.3	3.57e-01	36	53	0	56623104	46	8128
2026-01-09 08:21:25.29	102.59	10.10	-33.5	-44.0	7.3	3.79e-01	26	54	0	57671680	46	7698
2026-01-09 08:21:26.30	102.47	10.17	-36.0	-44.0	7.4	3.87e-01	22	54	0	59768832	45	8113
2026-01-09 08:21:27.31	102.36	10.24	-37.2	-44.2	7.1	3.93e-01	46	54	0	61865984	44	8794
2026-01-09 08:21:28.32	102.24	10.30	-36.2	-44.3	7.3	4.48e-01	46	54	0	63963136	45	8417
2026-01-09 08:21:29.33	102.13	10.37	-34.9	-43.2	7.0	4.90e-01	45	53	0	65011712	42	8846
2026-01-09 08:21:30.34	102.01	10.44	-36.5	-43.7	6.8	6.70e-01	67	54	0	66060288	41	9843
2026-01-09 08:21:31.35	101.89	10.51	-35.1	-43.8	6.5	7.26e-01	57	54	0	68157440	41	10053
2026-01-09 08:21:32.36	101.77	10.58	-35.4	-44.2	7.0	5.17e-01	79	54	0	69206016	43	9289
2026-01-09 08:21:33.37	101.65	10.65	-34.7	-43.1	6.9	5.89e-01	75	54	0	71303168	41	9250
2026-01-09 08:21:34.38	101.54	10.72	-28.1	-41.2	5.0	1.03e+00	0	54	104	72351744	37	9316
2026-01-09 08:21:35.39	101.42	10.79	-34.1	-43.0	5.1	1.41e+00	0	54	104	72351744	40	9715
2026-01-09 08:21:36.40	101.29	10.86	-34.5	-43.7	6.5	5.86e-01	91	54	0	73400320	40	10514
2026-01-09 08:21:37.41	101.17	10.93	-32.5	-42.7	4.5	7.58e-01	0	54	104	74448896	32	14806
2026-01-09 08:21:38.42	101.05	11.00	-31.5	-44.2	4.5	1.42e+00	0	54	104	74448896	36	14033
2026-01-09 08:21:39.43	100.93	11.07	-34.0	-45.1	4.8	1.39e+00	0	54	104	74448896	38	13817
2026-01-09 08:21:40.43	100.81	11.14	-32.7	-44.5	4.8	1.38e+00	0	54	104	74448896	38	12816
2026-01-09 08:21:41.45	100.68	11.21	-33.6	-44.1	4.9	1.40e+00	0	54	104	74448896	37	13104
2026-01-09 08:21:42.45	100.56	11.28	-34.0	-44.7	4.8	1.35e+00	0	54	104	74448896	38	13258
2026-01-09 08:21:43.46	100.44	11.35	-24.3	-38.7	4.7	1.40e+00	0	54	104	74448896	34	8294
2026-01-09 08:21:44.47	100.31	11.42	-30.4	-43.5	4.8	1.39e+00	0	54	104	74448896	33	15384
2026-01-09 08:21:45.48	100.18	11.49	-31.4	-42.6	4.9	1.30e+00	0	54	104	74448896	38	10399
2026-01-09 08:21:46.49	100.06	11.56	-32.9	-42.4	5.2	9.74e-01	0	54	104	74448896	40	9068
2026-01-09 08:21:47.50	99.93	11.63	-32.3	-42.3	5.1	1.30e+00	0	54	104	74448896	38	10049
2026-01-09 08:21:48.51	99.80	11.70	-32.4	-42.8	6.8	7.43e-01	65	54	0	74448896	40	9418
2026-01-09 08:21:49.52	99.67	11.77	-33.4	-42.6	6.7	5.42e-01	86	54	0	76546048	36	11564
2026-01-09 08:21:50.53	99.55	11.84	-33.8	-42.8	7.1	5.26e-01	58	54	0	77594624	40	9488
2026-01-09 08:21:51.54	99.42	11.91	-32.8	-43.1	7.3	4.52e-01	57	54	0	79691776	39	10345
2026-01-09 08:21:52.55	99.29	11.98	-34.6	-43.7	7.1	5.18e-01	75	54	0	81788928	42	9361
2026-01-09 08:21:53.56	99.15	12.05	-26.0	-40.0	6.1	4.68e-01	35	54	0	82837504	38	7660
2026-01-09 08:21:54.57	99.02	12.12	-36.0	-42.6	7.0	6.51e-01	32	54	0	83886080	41	8735
2026-01-09 08:21:55.58	98.89	12.20	-35.9	-43.2	8.0	3.55e-01	24	54	0	85983232	44	7873
2026-01-09 08:21:56.59	98.76	12.27	-37.2	-43.2	8.1	2.91e-01	19	54	0	88080384	46	7007
2026-01-09 08:21:57.60	98.62	12.34	-36.2	-43.4	8.6	2.87e-01	15	54	0	90177536	45	7592
2026-01-09 08:21:58.61	98.49	12.41	-37.1	-43.5	8.8	3.05e-01	12	55	0	91226112	46	7217
2026-01-09 08:21:59.61	98.36	12.48	-37.0	-43.1	8.5	3.13e-01	11	54	0	93323264	45	7311
2026-01-09 08:22:00.62	98.22	12.55	-37.7	-42.9	9.0	2.14e-01	7	54	0	95420416	45	7198
2026-01-09 08:22:01.63	98.09	12.62	-37.2	-43.1	9.5	1.83e-01	3	54	0	97517568	47	6517
2026-01-09 08:22:02.64	97.95	12.69	-37.7	-43.1	9.0	1.38e-01	6	55	0	99614720	46	6898
2026-01-09 08:22:03.65	97.81	12.76	-38.4	-43.4	10.1	1.11e-01	3	54	0	100663296	49	6017
2026-01-09 08:22:04.66	97.67	12.84	-35.3	-43.3	9.8	1.20e-01	4	54	0	102760448	48	6330
2026-01-09 08:22:05.67	97.53	12.91	-39.3	-44.1	9.9	9.19e-02	2	54	0	104857600	50	6187
2026-01-09 08:22:06.68	97.39	12.98	-39.2	-44.4	10.2	6.36e-02	0	54	0	106954752	49	6769
2026-01-09 08:22:07.69	97.25	13.05	-38.7	-44.4	10.1	4.09e-02	0	54	0	109051904	49	6754
2026-01-09 08:22:08.70	97.11	13.12	-40.4	-44.7	11.1	2.89e-02	0	54	0	110100480	51	6255
2026-01-09 08:22:09.71	96.97	13.19	-40.5	-45.0	10.7	2.23e-02	0	54	0	112197632	52	6070
2026-01-09 08:22:10.72	96.83	13.26	-41.0	-45.4	10.8	1.31e-02	0	55	0	114294784	52	6385
2026-01-09 08:22:11.73	96.69	13.34	-41.0	-45.6	10.7	9.01e-03	0	55	0	116391936	52	6533
2026-01-09 08:22:12.74	96.54	13.41	-40.5	-45.7	10.5	4.86e-03	0	55	0	118489088	52	6627
2026-01-09 08:22:13.75	96.40	13.48	-40.6	-45.6	10.9	2.70e-03	0	55	0	119537664	52	6546
2026-01-09 08:22:14.76	96.25	13.55	-40.9	-45.6	10.8	2.68e-03	0	55	0	121634816	52	6499
2026-01-09 08:22:15.77	96.11	13.62	-41.2	-45.8	10.8	2.65e-03	0	55	0	123731968	53	6299
2026-01-09 08:22:16.78	95.96	13.69	-41.4	-46.0	10.5	3.76e-03	0	55	0	125829120	53	6489
2026-01-09 08:22:17.79	95.81	13.77	-41.3	-45.8	10.8	3.01e-03	0	55	0	127926272	53	6324
2026-01-09 08:22:18.79	95.67	13.84	-41.1	-45.3	11.5	1.57e-03	0	55	0	128974848	53	5924
2026-01-09 08:22:19.80	95.52	13.91	-40.8	-44.6	12.2	3.93e-04	0	55	0	131072000	53	5514
2026-01-09 08:22:20.82	95.37	13.98	-40.7	-44.4	12.5	1.21e-04	0	55	0	133169152	53	5375
2026-01-09 08:22:21.83	95.22	14.05	-40.8	-44.4	12.6	7.85e-05	0	54	0	135266304	53	5369
2026-01-09 08:22:22.84	95.07	14.13	-40.5	-44.0	13.0	7.17e-05	0	55	0	137363456	53	5115
2026-01-09 08:22:23.85	94.91	14.20	-40.4	-43.8	13.2	2.21e-05	0	55	0	138412032	52	5319
2026-01-09 08:22:24.86	94.76	14.27	-40.6	-44.0	12.9	5.26e-05	0	55	0	140509184	52	5454
2026-01-09 08:22:25.87	94.61	14.34	-40.7	-44.2	12.8	5.87e-05	0	55	0	142606336	52	5549
2026-01-09 08:22:26.88	94.45	14.41	-40.6	-44.1	12.8	6.25e-05	0	55	0	144703488	52	5510
2026-01-09 08:22:27.89	94.30	14.49	-40.7	-44.3	12.7	3.50e-05	0	55	0	146800640	52	5633
2026-01-09 08:22:28.90	94.14	14.56	-40.7	-44.3	12.7	7.93e-05	0	55	0	148897792	52	5623
2026-01-09 08:22:29.91	93.99	14.63	-40.8	-44.5	12.5	9.61e-05	0	55	0	149946368	52	5748
2026-01-09 08:22:30.91	93.83	14.70	-40.8	-44.4	12.6	9.91e-05	0	55	0	152043520	52	5704
2026-01-09 08:22:31.92	93.68	14.77	-40.7	-44.3	12.7	7.78e-05	0	55	0	154140672	52	5628
2026-01-09 08:22:32.93	93.52	14.84	-40.7	-44.3	12.7	8.39e-05	0	55	0	156237824	52	5616
2026-01-09 08:22:33.94	93.36	14.92	-40.8	-44.4	12.6	1.07e-04	0	55	0	158334976	52	5695
2026-01-09 08:22:34.95	93.20	14.99	-40.8	-44.6	12.4	1.08e-04	0	55	0	159383552	52	5793
2026-01-09 08:22:35.96	93.04	15.06	-40.8	-44.5	12.5	9.76e-05	0	55	0	161480704	52	5744
2026-01-09 08:22:36.97	92.88	15.13	-40.8	-44.4	12.7	8.69e-05	0	55	0	163577856	52	5662
2026-01-09 08:22:37.98	92.71	15.20	-40.7	-44.2	12.8	8.69e-05	0	55	0	165675008	52	5580
2026-01-09 08:22:38.99	92.55	15.28	-40.6	-44.3	12.7	6.40e-05	0	55	0	167772160	52	5594
2026-01-09 08:22:40.00	92.39	15.35	-40.2	-44.3	12.7	8.01e-05	0	55	0	168820736	52	5616
2026-01-09 08:22:41.00	92.22	15.42	-40.5	-44.2	12.8	6.25e-05	0	55	0	170917888	51	5919
2026-01-09 08:22:42.01	92.06	15.49	-40.7	-44.3	12.7	9.46e-05	0	55	0	173015040	52	5615
2026-01-09 08:22:43.02	91.89	15.56	-40.7	-44.2	12.8	6.94e-05	0	55	0	175112192	52	5572
2026-01-09 08:22:44.03	91.72	15.63	-40.7	-44.2	12.8	5.95e-05	0	55	0	177209344	52	5588
2026-01-09 08:22:45.04	91.56	15.71	-40.8	-44.4	12.6	1.07e-04	0	55	0	178257920	52	5690
2026-01-09 08:22:46.05	91.39	15.78	-40.9	-44.7	12.3	1.62e-04	0	55	0	180355072	52	5890
2026-01-09 08:22:47.06	91.22	15.85	-41.0	-44.8	12.2	1.59e-04	0	55	0	182452224	52	5963
2026-01-09 08:22:48.07	91.05	15.92	-41.0	-44.8	12.2	2.25e-04	0	55	0	184549376	52	5969
2026-01-09 08:22:49.08	90.87	15.99	-41.1	-45.0	12.0	2.72e-04	0	55	0	186646528	52	6062
2026-01-09 08:22:50.09	90.70	16.06	-41.0	-44.9	12.1	2.61e-04	0	55	0	187695104	52	5999
2026-01-09 08:22:51.10	90.53	16.14	-40.9	-44.7	12.3	2.57e-04	0	55	0	189792256	52	5889
2026-01-09 08:22:52.11	90.36	16.21	-41.1	-45.0	11.9	2.73e-04	0	55	0	191889408	52	6126
2026-01-09 08:22:53.12	90.18	16.28	-41.0	-45.0	11.8	4.52e-04	0	55	0	193986560	52	6131
2026-01-09 08:22:54.13	90.01	16.35	-41.0	-44.9	12.0	2.82e-04	0	55	0	196083712	52	6014
2026-01-09 08:22:55.14	89.83	16.42	-40.9	-44.8	12.0	3.13e-04	0	55	0	197132288	52	5936
2026-01-09 08:22:56.15	89.65	16.49	-40.9	-44.8	11.9	3.71e-04	0	55	0	199229440	52	5992
2026-01-09 08:22:57.16	89.47	16.56	-40.9	-45.0	11.8	5.40e-04	0	55	0	201326592	52	6070
2026-01-09 08:22:58.17	89.30	16.63	-40.9	-45.1	11.7	4.64e-04	0	55	0	203423744	52	6137
2026-01-09 08:22:59.17	89.12	16.70	-40.9	-45.0	11.6	6.61e-04	0	55	0	205520896	52	6109
2026-01-09 08:23:00.18	88.94	16.77	-40.7	-44.8	11.6	7.27e-04	0	55	0	206569472	52	5980
2026-01-09 08:23:01.19	88.76	16.84	-40.7	-44.8	11.6	6.35e-04	0	55	0	208666624	52	5971
2026-01-09 08:23:02.20	88.57	16.92	-40.8	-45.1	11.3	1.15e-03	0	55	0	210763776	52	6137
2026-01-09 08:23:03.21	88.39	16.99	-40.7	-45.0	11.2	1.24e-03	0	55	0	212860928	52	6107
2026-01-09 08:23:04.22	88.21	17.06	-40.6	-45.0	11.1	1.23e-03	0	55	0	214958080	52	6068
2026-01-09 08:23:05.23	88.02	17.13	-40.5	-45.0	11.0	1.68e-03	0	55	0	217055232	52	6108
2026-01-09 08:23:06.24	87.84	17.20	-40.5	-45.0	10.9	2.29e-03	0	55	0	218103808	52	6120
2026-01-09 08:23:07.25	87.65	17.27	-40.5	-45.1	10.8	2.61e-03	0	55	0	220200960	52	6144
2026-01-09 08:23:08.26	87.46	17.34	-40.4	-45.1	10.7	2.65e-03	0	55	0	222298112	52	6171
2026-01-09 08:23:09.27	87.27	17.41	-40.4	-45.2	10.6	3.23e-03	0	55	0	224395264	52	6214
2026-01-09 08:23:10.28	87.08	17.48	-40.4	-45.0	10.6	3.33e-03	0	55	0	226492416	52	6113
2026-01-09 08:23:11.29	86.89	17.55	-40.3	-44.9	10.7	3.19e-03	0	55	0	227540992	52	6043
2026-01-09 08:23:12.29	86.70	17.61	-40.3	-45.0	10.7	2.78e-03	0	55	0	229638144	52	6100
2026-01-09 08:23:13.30	86.51	17.68	-40.3	-44.9	10.7	2.69e-03	0	55	0	231735296	52	6045
2026-01-09 08:23:14.31	86.32	17.75	-40.3	-44.8	10.9	2.41e-03	0	55	0	233832448	52	5947
2026-01-09 08:23:15.32	86.13	17.82	-40.2	-44.6	11.0	1.70e-03	0	55	0	235929600	52	5853
2026-01-09 08:23:16.33	85.93	17.89	-40.2	-44.5	11.1	1.62e-03	0	55	0	236978176	52	5769
2026-01-09 08:23:17.34	85.74	17.96	-40.0	-44.3	11.3	1.14e-03	0	55	0	239075328	52	5645
2026-01-09 08:23:18.35	85.54	18.03	-40.0	-44.3	11.4	9.63e-04	0	55	0	241172480	51	5930
2026-01-09 08:23:19.36	85.34	18.10	-40.0	-44.3	11.3	1.08e-03	0	55	0	243269632	51	5977
2026-01-09 08:23:20.37	85.15	18.17	-40.1	-44.5	11.2	1.22e-03	0	55	0	245366784	51	6090
2026-01-09 08:23:21.38	84.95	18.23	-40.0	-44.1	11.6	1.09e-03	0	56	0	246415360	51	5851
2026-01-09 08:23:22.39	84.75	18.30	-40.0	-44.0	11.9	5.42e-04	0	55	0	248512512	51	5749
2026-01-09 08:23:23.40	84.55	18.37	-39.9	-43.7	12.3	2.78e-04	0	55	0	250609664	51	5570
2026-01-09 08:23:24.41	84.34	18.44	-39.7	-43.2	12.9	9.30e-05	0	55	0	252706816	51	5270
2026-01-09 08:23:25.42	84.14	18.50	-39.6	-42.9	13.3	2.51e-05	0	55	0	254803968	51	5088
2026-01-09 08:23:26.43	83.94	18.57	-39.6	-42.8	13.5	1.52e-05	0	55	0	255852544	51	5034
2026-01-09 08:23:27.44	83.73	18.64	-39.6	-42.8	13.8	7.60e-06	0	55	0	257949696	51	4985
2026-01-09 08:23:28.45	83.53	18.71	-39.6	-42.7	13.9	3.80e-06	0	56	0	260046848	51	4975
2026-01-09 08:23:29.46	83.32	18.77	-39.6	-42.6	14.1	1.50e-06	0	56	0	262144000	51	4892
2026-01-09 08:23:30.47	83.11	18.84	-39.5	-42.5	14.2	3.00e-06	0	56	0	264241152	51	4840
2026-01-09 08:23:31.48	82.91	18.90	-39.6	-42.5	14.3	3.00e-06	0	55	0	265289728	51	4852
2026-01-09 08:23:32.49	82.70	18.97	-39.6	-42.5	14.2	7.00e-07	0	55	0	267386880	51	4854
2026-01-09 08:23:33.49	82.49	19.04	-39.6	-42.5	14.2	1.50e-06	0	55	0	269484032	51	4860
2026-01-09 08:23:34.50	82.28	19.10	-39.5	-42.5	14.2	7.00e-07	0	55	0	271581184	51	4858
2026-01-09 08:23:35.51	82.07	19.17	-39.5	-42.4	14.2	3.00e-06	0	55	0	273678336	50	5080
2026-01-09 08:23:36.52	81.85	19.23	-39.4	-42.4	14.2	7.00e-07	0	56	0	274726912	50	5051
2026-01-09 08:23:37.53	81.64	19.30	-39.4	-42.4	14.1	7.00e-07	0	55	0	276824064	50	5088
2026-01-09 08:23:38.54	81.43	19.36	-39.5	-42.6	13.8	6.10e-06	0	56	0	278921216	50	5173
2026-01-09 08:23:39.55	81.21	19.43	-39.4	-42.5	13.8	6.10e-06	0	55	0	281018368	50	5151
2026-01-09 08:23:40.56	80.99	19.49	-39.4	-42.6	13.7	3.80e-06	0	55	0	283115520	50	5183
2026-01-09 08:23:41.57	80.78	19.55	-39.4	-42.7	13.5	9.90e-06	0	55	0	284164096	50	5239
2026-01-09 08:23:42.58	80.56	19.62	-39.4	-42.6	13.5	1.44e-05	0	55	0	286261248	50	5218
2026-01-09 08:23:43.58	80.34	19.68	-39.4	-42.6	13.6	6.10e-06	0	55	0	288358400	50	5214
2026-01-09 08:23:44.59	80.12	19.74	-39.4	-42.7	13.6	6.10e-06	0	55	0	290455552	50	5223
2026-01-09 08:23:45.60	79.90	19.81	-39.4	-42.6	13.5	4.50e-06	0	56	0	292552704	50	5213
2026-01-09 08:23:46.61	79.68	19.87	-39.4	-42.7	13.4	1.37e-05	0	56	0	293601280	50	5251
2026-01-09 08:23:47.62	79.46	19.93	-39.5	-42.8	13.4	1.29e-05	0	55	0	295698432	50	5290
2026-01-09 08:23:48.63	79.23	19.99	-39.5	-42.8	13.5	6.80e-06	0	56	0	297795584	50	5303
2026-01-09 08:23:49.64	79.01	20.05	-39.6	-42.7	13.7	3.80e-06	0	55	0	299892736	50	5257
2026-01-09 08:23:50.65	78.78	20.11	-39.7	-42.9	13.7	7.60e-06	0	56	0	301989888	50	5357
2026-01-09 08:23:51.66	78.56	20.18	-39.6	-42.8	13.7	4.50e-06	0	56	0	303038464	50	5304
2026-01-09 08:23:52.67	78.33	20.24	-39.6	-42.7	14.0	5.30e-06	0	56	0	305135616	50	5227
2026-01-09 08:23:53.68	78.10	20.30	-39.6	-42.7	14.0	5.30e-06	0	56	0	307232768	50	5240
2026-01-09 08:23:54.69	77.87	20.36	-39.6	-42.7	14.0	2.20e-06	0	56	0	309329920	50	5234
2026-01-09 08:23:55.70	77.64	20.42	-39.8	-42.9	13.9	3.80e-06	0	56	0	311427072	50	5346
2026-01-09 08:23:56.71	77.41	20.47	-39.8	-42.8	14.0	3.80e-06	0	56	0	313524224	50	5326
2026-01-09 08:23:57.72	77.18	20.53	-39.6	-42.6	14.1	0.00e+00	0	56	0	314572800	50	5214
2026-01-09 08:23:58.73	76.95	20.59	-39.5	-42.4	14.4	1.50e-06	0	55	0	316669952	50	5092
2026-01-09 08:23:59.74	76.72	20.65	-39.4	-42.3	14.6	0.00e+00	0	55	0	318767104	50	4994
2026-01-09 08:24:00.75	76.48	20.71	-39.5	-42.3	14.6	0.00e+00	0	56	0	320864256	50	5016
2026-01-09 08:24:01.75	76.25	20.76	-39.5	-42.3	14.7	0.00e+00	0	56	0	322961408	50	4985
2026-01-09 08:24:02.76	76.01	20.82	-39.5	-42.2	14.8	0.00e+00	0	56	0	324009984	50	4951
2026-01-09 08:24:03.77	75.78	20.88	-39.4	-42.1	14.9	0.00e+00	0	55	0	326107136	50	4913
2026-01-09 08:24:04.78	75.54	20.93	-39.3	-41.9	15.1	0.00e+00	0	56	0	328204288	50	4790
2026-01-09 08:24:05.79	75.30	20.99	-39.3	-41.9	15.1	0.00e+00	0	56	0	330301440	50	4797
2026-01-09 08:24:06.80	75.06	21.05	-39.2	-41.8	15.2	7.00e-07	0	55	0	332398592	50	4749
2026-01-09 08:24:07.81	74.82	21.10	-39.2	-41.7	15.3	0.00e+00	0	56	0	333447168	50	4679
2026-01-09 08:24:08.82	74.58	21.16	-39.1	-41.5	15.6	0.00e+00	0	56	0	335544320	50	4591
2026-01-09 08:24:09.83	74.34	21.21	-39.0	-41.5	15.7	0.00e+00	0	55	0	337641472	50	4559
2026-01-09 08:24:10.84	74.09	21.26	-39.1	-41.6	15.6	0.00e+00	0	56	0	339738624	50	4607
2026-01-09 08:24:11.85	73.85	21.32	-39.2	-41.6	15.5	0.00e+00	0	55	0	341835776	50	4635
2026-01-09 08:24:12.86	73.61	21.37	-39.2	-41.7	15.5	0.00e+00	0	56	0	342884352	50	4659
2026-01-09 08:24:13.87	73.36	21.42	-39.1	-41.5	15.6	0.00e+00	0	56	0	344981504	50	4582
2026-01-09 08:24:14.88	73.11	21.47	-39.1	-41.6	15.6	0.00e+00	0	55	0	347078656	50	4602
2026-01-09 08:24:15.88	72.87	21.52	-39.1	-41.5	15.6	0.00e+00	0	56	0	349175808	50	4591
2026-01-09 08:24:16.89	72.62	21.58	-39.0	-41.4	15.7	0.00e+00	0	56	0	351272960	50	4533
2026-01-09 08:24:17.90	72.37	21.63	-38.9	-41.3	15.8	0.00e+00	0	56	0	352321536	49	4717
2026-01-09 08:24:18.91	72.12	21.68	-38.9	-41.3	15.9	0.00e+00	0	56	0	354418688	49	4710
2026-01-09 08:24:19.92	71.87	21.73	-38.8	-41.2	15.9	0.00e+00	0	56	0	356515840	49	4666
2026-01-09 08:24:20.93	71.62	21.78	-38.9	-41.2	15.9	0.00e+00	0	56	0	358612992	49	4691
2026-01-09 08:24:21.94	71.37	21.82	-38.8	-41.2	16.0	0.00e+00	0	56	0	360710144	49	4667
2026-01-09 08:24:22.95	71.12	21.87	-38.8	-41.1	16.2	0.00e+00	0	56	0	361758720	49	4623
2026-01-09 08:24:23.96	70.86	21.92	-38.8	-41.0	16.3	0.00e+00	0	56	0	363855872	49	4588
2026-01-09 08:24:24.97	70.61	21.97	-38.8	-41.0	16.4	0.00e+00	0	56	0	365953024	49	4568
2026-01-09 08:24:25.98	70.35	22.01	-38.8	-41.0	16.5	0.00e+00	0	56	0	368050176	49	4562
2026-01-09 08:24:26.99	70.10	22.06	-38.7	-40.9	16.6	0.00e+00	0	56	0	370147328	49	4518
2026-01-09 08:24:28.00	69.84	22.11	-38.8	-41.0	16.6	0.00e+00	0	56	0	371195904	49	4550
2026-01-09 08:24:29.01	69.58	22.15	-38.9	-41.1	16.5	0.00e+00	0	56	0	373293056	49	4613
2026-01-09 08:24:30.02	69.33	22.19	-39.0	-41.2	16.3	0.00e+00	0	56	0	375390208	49	4699
2026-01-09 08:24:31.03	69.07	22.24	-39.0	-41.3	16.3	0.00e+00	0	56	0	377487360	49	4729
2026-01-09 08:24:32.04	68.81	22.28	-39.0	-41.2	16.3	0.00e+00	0	56	0	379584512	49	4700
2026-01-09 08:24:33.05	68.55	22.32	-39.0	-41.2	16.4	0.00e+00	0	56	0	381681664	49	4676
2026-01-09 08:24:34.06	68.29	22.37	-39.0	-41.2	16.3	0.00e+00	0	56	0	382730240	49	4698
2026-01-09 08:24:35.07	68.03	22.41	-39.1	-41.3	16.3	0.00e+00	0	56	0	384827392	49	4721
2026-01-09 08:24:36.08	67.76	22.45	-39.0	-41.2	16.4	0.00e+00	0	56	0	386924544	49	4683
2026-01-09 08:24:37.08	67.50	22.49	-39.0	-41.2	16.4	0.00e+00	0	56	0	389021696	49	4671
2026-01-09 08:24:38.09	67.24	22.53	-39.0	-41.2	16.4	0.00e+00	0	56	0	391118848	49	4672
2026-01-09 08:24:39.10	66.97	22.57	-39.2	-41.5	16.1	0.00e+00	0	56	0	392167424	49	4839
2026-01-09 08:24:40.11	66.71	22.61	-39.3	-41.7	15.9	0.00e+00	0	56	0	394264576	49	4964
2026-01-09 08:24:41.12	66.44	22.65	-39.5	-41.9	15.7	0.00e+00	0	56	0	396361728	49	5095
2026-01-09 08:24:42.13	66.18	22.68	-39.6	-42.1	15.4	0.00e+00	0	56	0	398458880	49	5214
2026-01-09 08:24:43.14	65.91	22.72	-39.8	-42.4	15.2	0.00e+00	0	56	0	400556032	50	5076
2026-01-09 08:24:44.15	65.64	22.76	-39.9	-42.5	15.1	0.00e+00	0	56	0	401604608	50	5158
2026-01-09 08:24:45.16	65.38	22.79	-39.9	-42.5	15.1	0.00e+00	0	56	0	403701760	50	5150
2026-01-09 08:24:46.17	65.11	22.83	-39.8	-42.4	15.2	0.00e+00	0	56	0	405798912	50	5083
2026-01-09 08:24:47.18	64.84	22.86	-39.9	-42.4	15.2	0.00e+00	0	56	0	407896064	50	5095
2026-01-09 08:24:48.19	64.57	22.90	-40.0	-42.6	15.0	0.00e+00	0	56	0	409993216	50	5206
2026-01-09 08:24:49.20	64.30	22.93	-40.0	-42.7	14.9	0.00e+00	0	56	0	411041792	50	5272
2026-01-09 08:24:50.21	64.02	22.96	-40.1	-42.9	14.8	0.00e+00	0	56	0	413138944	50	5356
2026-01-09 08:24:51.21	63.76	22.99	-40.0	-42.7	14.9	0.00e+00	0	56	0	415236096	50	5251
2026-01-09 08:24:52.22	63.48	23.03	-40.1	-42.7	14.9	0.00e+00	0	56	0	417333248	50	5265
2026-01-09 08:24:53.23	63.21	23.06	-40.1	-42.8	14.9	0.00e+00	0	56	0	419430400	50	5292
2026-01-09 08:24:54.24	62.94	23.09	-40.1	-42.9	14.8	0.00e+00	0	56	0	420478976	50	5355
2026-01-09 08:24:55.25	62.66	23.12	-40.2	-42.9	14.7	0.00e+00	0	56	0	422576128	50	5370
2026-01-09 08:24:56.26	62.39	23.14	-40.2	-43.0	14.7	0.00e+00	0	56	0	424673280	50	5432
2026-01-09 08:24:57.27	62.11	23.17	-40.3	-43.1	14.5	0.00e+00	0	56	0	426770432	51	5207
2026-01-09 08:24:58.28	61.84	23.20	-40.4	-43.2	14.4	1.50e-06	0	56	0	428867584	51	5279
2026-01-09 08:24:59.29	61.56	23.23	-40.5	-43.4	14.2	0.00e+00	0	56	0	429916160	51	5387
2026-01-09 08:25:00.30	61.29	23.25	-40.5	-43.4	14.2	7.00e-07	0	56	0	432013312	51	5379
2026-01-09 08:25:01.31	61.01	23.28	-40.5	-43.4	14.2	1.50e-06	0	56	0	434110464	51	5372
2026-01-09 08:25:02.32	60.73	23.30	-40.4	-43.4	14.3	0.00e+00	0	56	0	436207616	51	5343
2026-01-09 08:25:03.33	60.46	23.32	-40.4	-43.3	14.3	3.80e-06	0	56	0	438304768	51	5328
2026-01-09 08:25:04.33	60.18	23.35	-40.5	-43.4	14.3	7.00e-07	0	56	0	439353344	51	5378
2026-01-09 08:25:05.34	59.90	23.37	-40.4	-43.3	14.3	0.00e+00	0	56	0	441450496	51	5335
2026-01-09 08:25:06.35	59.62	23.39	-40.4	-43.3	14.3	1.50e-06	0	56	0	443547648	51	5317
2026-01-09 08:25:07.36	59.34	23.41	-40.5	-43.5	14.2	0.00e+00	0	56	0	445644800	51	5415
2026-01-09 08:25:08.37	59.06	23.43	-40.5	-43.4	14.3	1.50e-06	0	56	0	447741952	51	5381
2026-01-09 08:25:09.38	58.78	23.45	-40.5	-43.4	14.3	1.50e-06	0	56	0	449839104	51	5355
2026-01-09 08:25:10.39	58.50	23.47	-40.4	-43.3	14.5	0.00e+00	0	56	0	450887680	51	5288
2026-01-09 08:25:11.40	58.22	23.49	-40.3	-43.1	14.6	7.00e-07	0	56	0	452984832	51	5189
2026-01-09 08:25:12.41	57.94	23.51	-40.3	-43.1	14.7	0.00e+00	0	56	0	455081984	51	5191
2026-01-09 08:25:13.41	57.66	23.52	-40.4	-43.3	14.5	7.00e-07	0	56	0	457179136	51	5303
2026-01-09 08:25:14.42	57.38	23.54	-40.6	-43.5	14.2	0.00e+00	0	56	0	459276288	51	5447
2026-01-09 08:25:15.43	57.10	23.55	-40.6	-43.6	14.1	2.20e-06	0	56	0	460324864	51	5503
2026-01-09 08:25:16.44	56.82	23.57	-40.5	-43.4	14.3	7.00e-07	0	56	0	462422016	51	5399
2026-01-09 08:25:17.45	56.54	23.58	-40.3	-43.0	14.7	0.00e+00	0	56	0	464519168	51	5155
2026-01-09 08:25:18.46	56.25	23.59	-40.2	-42.9	14.8	0.00e+00	0	56	0	466616320	51	5086
2026-01-09 08:25:19.47	55.97	23.61	-40.2	-43.0	14.8	0.00e+00	0	56	0	468713472	51	5117
2026-01-09 08:25:20.48	55.69	23.62	-40.4	-43.1	14.6	0.00e+00	0	56	0	469762048	51	5210
2026-01-09 08:25:21.49	55.41	23.63	-40.4	-43.2	14.6	7.00e-07	0	56	0	471859200	51	5222
2026-01-09 08:25:22.50	55.12	23.64	-40.3	-43.0	14.8	0.00e+00	0	56	0	473956352	51	5140
2026-01-09 08:25:23.51	54.84	23.65	-40.2	-42.9	14.8	0.00e+00	0	56	0	476053504	51	5090
2026-01-09 08:25:24.51	54.56	23.66	-40.2	-42.9	14.9	0.00e+00	0	56	0	478150656	51	5067
2026-01-09 08:25:25.52	54.28	23.66	-40.2	-42.9	14.9	0.00e+00	0	56	0	479199232	51	5073
2026-01-09 08:25:26.53	53.99	23.67	-40.3	-43.1	14.7	0.00e+00	0	56	0	481296384	51	5175
2026-01-09 08:25:27.54	53.71	23.68	-40.2	-43.0	14.8	0.00e+00	0	56	0	483393536	51	5141
2026-01-09 08:25:28.55	53.42	23.68	-40.2	-42.9	14.9	0.00e+00	0	56	0	485490688	51	5056
2026-01-09 08:25:29.56	53.14	23.69	-40.0	-42.7	15.1	0.00e+00	0	56	0	487587840	51	4940
2026-01-09 08:25:30.57	52.85	23.69	-40.1	-42.7	15.1	0.00e+00	0	56	0	488636416	51	4941
2026-01-09 08:25:31.58	52.57	23.69	-39.9	-42.5	15.3	7.00e-07	0	56	0	490733568	51	4839
2026-01-09 08:25:32.59	52.29	23.70	-39.9	-42.4	15.3	0.00e+00	0	56	0	492830720	51	4814
2026-01-09 08:25:33.60	52.00	23.70	-39.8	-42.3	15.5	0.00e+00	0	56	0	494927872	51	4741
2026-01-09 08:25:34.61	51.72	23.70	-39.7	-42.2	15.6	0.00e+00	0	56	0	497025024	51	4682
2026-01-09 08:25:35.62	51.43	23.70	-39.7	-42.1	15.7	0.00e+00	0	56	0	498073600	51	4642
2026-01-09 08:25:36.62	51.15	23.70	-39.7	-42.1	15.7	0.00e+00	0	56	0	500170752	51	4620
2026-01-09 08:25:37.63	50.87	23.70	-39.7	-42.1	15.7	0.00e+00	0	56	0	502267904	51	4649
2026-01-09 08:25:38.64	50.58	23.70	-39.6	-42.0	15.8	0.00e+00	0	56	0	504365056	51	4590
2026-01-09 08:25:39.65	50.30	23.69	-39.6	-41.9	15.9	0.00e+00	0	56	0	506462208	51	4526
2026-01-09 08:25:40.66	50.01	23.69	-39.4	-41.7	16.1	0.00e+00	0	56	0	507510784	50	4702
2026-01-09 08:25:41.67	49.73	23.68	-39.4	-41.7	16.1	0.00e+00	0	56	0	509607936	50	4661
2026-01-09 08:25:42.68	49.45	23.68	-39.2	-41.5	16.3	0.00e+00	0	56	0	511705088	50	4552
2026-01-09 08:25:43.69	49.16	23.67	-39.3	-41.5	16.4	0.00e+00	0	56	0	513802240	50	4563
2026-01-09 08:25:44.70	48.88	23.67	-39.3	-41.5	16.3	0.00e+00	0	56	0	515899392	50	4575
2026-01-09 08:25:45.71	48.60	23.66	-39.2	-41.4	16.5	0.00e+00	0	56	0	516947968	50	4508
2026-01-09 08:25:46.72	48.31	23.65	-39.0	-41.2	16.7	0.00e+00	0	56	0	519045120	50	4399
2026-01-09 08:25:47.73	48.03	23.64	-38.9	-41.0	16.8	0.00e+00	0	56	0	521142272	49	4580
2026-01-09 08:25:48.74	47.75	23.63	-38.9	-40.9	16.9	0.00e+00	0	56	0	523239424	49	4541
2026-01-09 08:25:49.75	47.46	23.62	-38.9	-41.0	16.9	0.00e+00	0	57	0	525336576	49	4548
2026-01-09 08:25:50.76	47.18	23.61	-38.8	-40.9	16.9	0.00e+00	0	56	0	526385152	49	4509
2026-01-09 08:25:51.76	46.90	23.60	-38.8	-40.8	17.0	0.00e+00	0	56	0	528482304	49	4487
2026-01-09 08:25:52.77	46.62	23.58	-38.6	-40.6	17.2	0.00e+00	0	56	0	530579456	49	4363
2026-01-09 08:25:53.78	46.34	23.57	-38.4	-40.4	17.4	0.00e+00	0	56	0	532676608	48	4512
2026-01-09 08:25:54.79	46.05	23.56	-38.4	-40.3	17.5	0.00e+00	0	56	0	534773760	48	4491
2026-01-09 08:25:55.80	45.77	23.54	-38.5	-40.4	17.4	0.00e+00	0	56	0	535822336	48	4543
2026-01-09 08:25:56.81	45.49	23.53	-38.6	-40.6	17.2	0.00e+00	0	56	0	537919488	48	4611
2026-01-09 08:25:57.82	45.21	23.51	-38.5	-40.5	17.3	0.00e+00	0	56	0	540016640	48	4563
2026-01-09 08:25:58.83	44.93	23.49	-38.5	-40.4	17.4	0.00e+00	0	56	0	542113792	48	4534
2026-01-09 08:25:59.84	44.65	23.48	-38.3	-40.2	17.6	0.00e+00	0	56	0	544210944	48	4431
2026-01-09 08:26:00.84	44.37	23.46	-38.2	-40.1	17.7	0.00e+00	0	56	0	546308096	48	4382
2026-01-09 08:26:01.85	44.09	23.44	-38.2	-40.1	17.7	0.00e+00	0	56	0	547356672	48	4380
2026-01-09 08:26:02.86	43.81	23.42	-38.4	-40.3	17.5	0.00e+00	0	56	0	549453824	48	4461
2026-01-09 08:26:03.87	43.53	23.40	-38.5	-40.5	17.3	0.00e+00	0	56	0	551550976	48	4572
2026-01-09 08:26:04.88	43.26	23.37	-38.6	-40.6	17.2	0.00e+00	0	57	0	553648128	48	4607
2026-01-09 08:26:05.89	42.98	23.35	-38.6	-40.6	17.2	0.00e+00	0	56	0	555745280	48	4621
2026-01-09 08:26:06.90	42.70	23.33	-38.6	-40.7	17.1	0.00e+00	0	56	0	556793856	48	4654
2026-01-09 08:26:07.91	42.42	23.31	-38.6	-40.7	17.1	0.00e+00	0	56	0	558891008	48	4654
2026-01-09 08:26:08.92	42.15	23.28	-38.6	-40.7	17.1	0.00e+00	0	56	0	560988160	48	4659
2026-01-09 08:26:09.93	41.87	23.26	-38.7	-40.8	17.0	0.00e+00	0	56	0	563085312	48	4708
2026-01-09 08:26:10.94	41.59	23.23	-38.7	-40.7	17.0	0.00e+00	0	56	0	565182464	48	4689
2026-01-09 08:26:11.95	41.32	23.20	-38.7	-40.8	17.0	0.00e+00	0	56	0	566231040	48	4721
2026-01-09 08:26:12.96	41.04	23.18	-38.8	-40.9	16.9	0.00e+00	0	56	0	568328192	48	4784
2026-01-09 08:26:13.97	40.77	23.15	-38.9	-41.1	16.7	0.00e+00	0	56	0	570425344	48	4872
2026-01-09 08:26:14.98	40.49	23.12	-39.0	-41.2	16.6	0.00e+00	0	56	0	572522496	48	4953
2026-01-09 08:26:15.99	40.22	23.09	-39.1	-41.3	16.5	0.00e+00	0	56	0	574619648	48	4998
2026-01-09 08:26:17.00	39.95	23.06	-39.1	-41.4	16.4	0.00e+00	0	56	0	575668224	48	5042
2026-01-09 08:26:18.01	39.68	23.03	-39.2	-41.4	16.3	0.00e+00	0	56	0	577765376	48	5100
2026-01-09 08:26:19.01	39.41	23.00	-39.3	-41.5	16.2	0.00e+00	0	56	0	579862528	49	4860
2026-01-09 08:26:20.02	39.14	22.97	-39.4	-41.8	16.0	0.00e+00	0	56	0	581959680	49	4985
2026-01-09 08:26:21.03	38.86	22.94	-39.5	-41.9	15.9	0.00e+00	0	56	0	584056832	49	5068
2026-01-09 08:26:22.04	38.59	22.90	-39.6	-42.0	15.8	0.00e+00	0	56	0	585105408	49	5116
2026-01-09 08:26:23.05	38.32	22.87	-39.6	-41.9	15.9	0.00e+00	0	56	0	587202560	49	5093
2026-01-09 08:26:24.06	38.06	22.84	-39.5	-41.9	15.9	0.00e+00	0	56	0	589299712	49	5078
2026-01-09 08:26:25.07	37.79	22.80	-39.6	-42.0	15.8	0.00e+00	0	56	0	591396864	49	5102
2026-01-09 08:26:26.08	37.52	22.77	-39.6	-42.0	15.9	0.00e+00	0	56	0	593494016	49	5110
2026-01-09 08:26:27.09	37.25	22.73	-39.6	-42.0	15.8	0.00e+00	0	56	0	594542592	49	5130
2026-01-09 08:26:28.10	36.99	22.69	-39.6	-42.0	15.8	0.00e+00	0	56	0	596639744	49	5123
2026-01-09 08:26:29.11	36.72	22.66	-39.7	-42.1	15.7	0.00e+00	0	56	0	598736896	49	5203
2026-01-09 08:26:30.12	36.46	22.62	-39.8	-42.2	15.6	0.00e+00	0	56	0	600834048	50	4969
2026-01-09 08:26:31.13	36.19	22.58	-39.9	-42.3	15.5	0.00e+00	0	56	0	602931200	50	5041
2026-01-09 08:26:32.14	35.93	22.54	-39.9	-42.4	15.4	0.00e+00	0	56	0	603979776	50	5096
2026-01-09 08:26:33.15	35.66	22.50	-40.0	-42.5	15.3	0.00e+00	0	56	0	606076928	50	5157
2026-01-09 08:26:34.16	35.40	22.46	-40.0	-42.5	15.3	0.00e+00	0	56	0	608174080	50	5158
2026-01-09 08:26:35.16	35.14	22.42	-40.0	-42.6	15.2	0.00e+00	0	56	0	610271232	50	5183
2026-01-09 08:26:36.17	34.88	22.38	-40.0	-42.6	15.3	0.00e+00	0	56	0	612368384	50	5171
2026-01-09 08:26:37.18	34.62	22.34	-40.0	-42.5	15.2	0.00e+00	0	56	0	614465536	50	5158
2026-01-09 08:26:38.19	34.36	22.29	-40.0	-42.6	15.2	0.00e+00	0	56	0	615514112	50	5193
2026-01-09 08:26:39.20	34.10	22.25	-40.0	-42.7	15.2	0.00e+00	0	56	0	617611264	50	5219
2026-01-09 08:26:40.21	33.84	22.21	-40.1	-42.7	15.1	7.00e-07	0	56	0	619708416	50	5239
2026-01-09 08:26:41.22	33.59	22.16	-40.2	-42.8	15.0	0.00e+00	0	56	0	621805568	50	5314
2026-01-09 08:26:42.23	33.33	22.12	-40.2	-42.9	15.0	0.00e+00	0	56	0	623902720	50	5351
2026-01-09 08:26:43.24	33.07	22.07	-40.2	-42.9	14.9	0.00e+00	0	56	0	624951296	51	5070
2026-01-09 08:26:44.25	32.82	22.03	-40.2	-42.9	15.0	0.00e+00	0	57	0	627048448	51	5043
2026-01-09 08:26:45.26	32.56	21.98	-40.2	-42.8	15.0	0.00e+00	0	56	0	629145600	51	5032
2026-01-09 08:26:46.27	32.31	21.93	-40.2	-42.9	14.9	0.00e+00	0	56	0	631242752	51	5076
2026-01-09 08:26:47.28	32.06	21.89	-40.2	-42.8	15.0	0.00e+00	0	56	0	633339904	51	5038
2026-01-09 08:26:48.29	31.81	21.84	-40.2	-42.9	14.9	0.00e+00	0	56	0	634388480	51	5085
2026-01-09 08:26:49.30	31.55	21.79	-40.2	-42.9	14.9	1.50e-06	0	56	0	636485632	51	5075
2026-01-09 08:26:50.31	31.30	21.74	-40.2	-42.9	15.0	0.00e+00	0	56	0	638582784	51	5047
2026-01-09 08:26:51.32	31.05	21.69	-40.2	-42.9	15.0	0.00e+00	0	56	0	640679936	51	5042
2026-01-09 08:26:52.33	30.80	21.64	-40.1	-42.7	15.1	7.00e-07	0	56	0	642777088	51	4967
2026-01-09 08:26:53.34	30.56	21.59	-40.2	-42.8	15.0	0.00e+00	0	56	0	643825664	51	5031
2026-01-09 08:26:54.35	30.31	21.54	-40.3	-43.0	14.8	0.00e+00	0	56	0	645922816	51	5139
2026-01-09 08:26:55.36	30.06	21.49	-40.4	-43.2	14.6	0.00e+00	0	56	0	648019968	51	5269
2026-01-09 08:26:56.37	29.82	21.44	-40.4	-43.2	14.6	7.00e-07	0	57	0	650117120	51	5257
2026-01-09 08:26:57.38	29.57	21.39	-40.5	-43.3	14.5	0.00e+00	0	56	0	652214272	51	5293
2026-01-09 08:26:58.39	29.33	21.33	-40.3	-43.0	14.8	7.00e-07	0	56	0	653262848	51	5116
2026-01-09 08:26:59.40	29.09	21.28	-40.2	-42.8	15.0	0.00e+00	0	56	0	655360000	51	5013
2026-01-09 08:27:00.41	28.84	21.23	-40.2	-42.8	15.0	0.00e+00	0	56	0	657457152	51	5006
2026-01-09 08:27:01.41	28.60	21.17	-40.2	-42.9	15.0	7.00e-07	0	56	0	659554304	51	5053
2026-01-09 08:27:02.42	28.36	21.12	-40.2	-42.9	14.9	0.00e+00	0	56	0	661651456	51	5075
2026-01-09 08:27:03.43	28.12	21.06	-40.2	-42.9	15.0	7.00e-07	0	56	0	662700032	51	5077
2026-01-09 08:27:04.44	27.89	21.01	-40.2	-42.9	14.9	7.00e-07	0	56	0	664797184	51	5075
2026-01-09 08:27:05.45	27.65	20.95	-40.3	-42.9	14.9	0.00e+00	0	56	0	666894336	51	5098
2026-01-09 08:27:06.46	27.41	20.90	-40.2	-42.9	15.0	7.00e-07	0	56	0	668991488	51	5043
2026-01-09 08:27:07.47	27.17	20.84	-40.1	-42.8	15.1	7.00e-07	0	56	0	671088640	51	5000
2026-01-09 08:27:08.48	26.94	20.78	-40.1	-42.7	15.1	0.00e+00	0	56	0	672137216	51	4961
2026-01-09 08:27:09.49	26.70	20.73	-40.1	-42.7	15.1	0.00e+00	0	56	0	674234368	51	4976
2026-01-09 08:27:10.49	26.47	20.67	-40.0	-42.6	15.2	0.00e+00	0	56	0	676331520	51	4914
2026-01-09 08:27:11.51	26.24	20.61	-40.0	-42.5	15.3	0.00e+00	0	56	0	678428672	51	4845
2026-01-09 08:27:12.52	26.01	20.55	-39.9	-42.5	15.4	7.00e-07	0	56	0	680525824	51	4819
2026-01-09 08:27:13.53	25.78	20.49	-39.9	-42.4	15.4	0.00e+00	0	56	0	682622976	51	4803
2026-01-09 08:27:14.54	25.55	20.44	-39.9	-42.4	15.4	0.00e+00	0	56	0	683671552	51	4772
2026-01-09 08:27:15.55	25.32	20.38	-39.9	-42.4	15.4	0.00e+00	0	56	0	685768704	51	4772
2026-01-09 08:27:16.56	25.09	20.32	-39.9	-42.4	15.4	0.00e+00	0	56	0	687865856	51	4773
2026-01-09 08:27:17.56	24.86	20.26	-39.8	-42.3	15.5	0.00e+00	0	56	0	689963008	51	4746
2026-01-09 08:27:18.58	24.64	20.20	-39.8	-42.3	15.5	0.00e+00	0	56	0	692060160	51	4722
2026-01-09 08:27:19.58	24.41	20.14	-39.9	-42.4	15.4	0.00e+00	0	56	0	693108736	51	4773
2026-01-09 08:27:20.59	24.19	20.08	-39.8	-42.3	15.5	0.00e+00	0	56	0	695205888	51	4729
2026-01-09 08:27:21.60	23.96	20.01	-39.8	-42.3	15.5	0.00e+00	0	57	0	697303040	51	4746
2026-01-09 08:27:22.61	23.74	19.95	-39.8	-42.3	15.5	0.00e+00	0	56	0	699400192	51	4726
2026-01-09 08:27:23.62	23.52	19.89	-39.9	-42.4	15.4	0.00e+00	0	56	0	701497344	51	4763
2026-01-09 08:27:24.63	23.30	19.83	-39.9	-42.5	15.3	0.00e+00	0	56	0	702545920	51	4833
2026-01-09 08:27:25.64	23.08	19.77	-39.9	-42.4	15.4	0.00e+00	0	57	0	704643072	51	4794
2026-01-09 08:27:26.65	22.86	19.70	-39.9	-42.5	15.3	0.00e+00	0	56	0	706740224	51	4854
2026-01-09 08:27:27.66	22.64	19.64	-39.9	-42.4	15.4	0.00e+00	0	56	0	708837376	51	4781
2026-01-09 08:27:28.67	22.42	19.58	-39.8	-42.3	15.5	0.00e+00	0	56	0	710934528	51	4725
2026-01-09 08:27:29.68	22.21	19.51	-39.9	-42.4	15.4	0.00e+00	0	56	0	711983104	51	4775
2026-01-09 08:27:30.69	21.99	19.45	-39.8	-42.4	15.5	0.00e+00	0	57	0	714080256	51	4760
2026-01-09 08:27:31.70	21.78	19.39	-39.8	-42.4	15.4	0.00e+00	0	56	0	716177408	51	4771
2026-01-09 08:27:32.71	21.56	19.32	-39.9	-42.4	15.3	0.00e+00	0	56	0	718274560	51	4800
2026-01-09 08:27:33.72	21.35	19.26	-39.9	-42.4	15.3	0.00e+00	0	56	0	720371712	51	4803
2026-01-09 08:27:34.73	21.14	19.19	-39.8	-42.4	15.4	0.00e+00	0	56	0	721420288	51	4775
2026-01-09 08:27:35.74	20.93	19.13	-39.9	-42.5	15.3	0.00e+00	0	56	0	723517440	51	4820
2026-01-09 08:27:36.74	20.72	19.06	-40.0	-42.6	15.2	0.00e+00	0	56	0	725614592	51	4907
2026-01-09 08:27:37.75	20.51	19.00	-40.1	-42.7	15.1	0.00e+00	0	56	0	727711744	51	4956
2026-01-09 08:27:38.76	20.30	18.93	-39.9	-42.5	15.2	0.00e+00	0	57	0	729808896	51	4865
2026-01-09 08:27:39.77	20.10	18.87	-40.0	-42.6	15.2	0.00e+00	0	56	0	730857472	51	4871
2026-01-09 08:27:40.78	19.89	18.80	-40.0	-42.6	15.1	0.00e+00	0	56	0	732954624	51	4901
2026-01-09 08:27:41.79	19.68	18.73	-40.0	-42.7	15.1	0.00e+00	0	56	0	735051776	51	4945
2026-01-09 08:27:42.80	19.48	18.67	-39.9	-42.5	15.2	0.00e+00	0	57	0	737148928	51	4834
2026-01-09 08:27:43.81	19.28	18.60	-39.9	-42.5	15.3	0.00e+00	0	56	0	739246080	51	4827
2026-01-09 08:27:44.82	19.07	18.53	-40.0	-42.6	15.2	0.00e+00	0	56	0	740294656	51	4881
2026-01-09 08:27:45.83	18.87	18.47	-40.0	-42.6	15.2	0.00e+00	0	56	0	742391808	51	4889
2026-01-09 08:27:46.84	18.67	18.40	-39.9	-42.5	15.3	0.00e+00	0	56	0	744488960	51	4824
2026-01-09 08:27:47.85	18.47	18.33	-39.8	-42.4	15.4	0.00e+00	0	57	0	746586112	51	4767
2026-01-09 08:27:48.86	18.27	18.26	-39.8	-42.4	15.4	0.00e+00	0	57	0	748683264	51	4764
2026-01-09 08:27:49.87	18.07	18.20	-39.8	-42.4	15.3	0.00e+00	0	56	0	750780416	51	4786
2026-01-09 08:27:50.88	17.88	18.13	-39.8	-42.4	15.3	0.00e+00	0	56	0	751828992	51	4780
2026-01-09 08:27:51.89	17.68	18.06	-39.8	-42.3	15.4	0.00e+00	0	56	0	753926144	51	4737
2026-01-09 08:27:52.90	17.48	17.99	-39.8	-42.3	15.4	0.00e+00	0	56	0	756023296	51	4723
2026-01-09 08:27:53.91	17.29	17.92	-39.7	-42.2	15.6	0.00e+00	0	56	0	758120448	51	4660
2026-01-09 08:27:54.91	17.10	17.86	-39.7	-42.2	15.4	0.00e+00	0	56	0	759169024	51	4704
2026-01-09 08:27:55.92	16.91	17.79	-39.8	-42.3	15.4	0.00e+00	0	56	0	761266176	51	4718
2026-01-09 08:27:56.93	16.71	17.72	-39.7	-42.2	15.5	0.00e+00	0	56	0	763363328	51	4660
2026-01-09 08:27:57.94	16.52	17.65	-39.6	-42.0	15.7	0.00e+00	0	57	0	765460480	51	4569
2026-01-09 08:27:58.95	16.33	17.58	-39.6	-42.0	15.7	0.00e+00	0	56	0	767557632	51	4576
2026-01-09 08:27:59.96	16.14	17.51	-39.5	-41.9	15.8	0.00e+00	0	57	0	768606208	51	4510
2026-01-09 08:28:00.97	15.96	17.44	-39.4	-41.8	15.9	0.00e+00	0	57	0	770703360	50	4727
2026-01-09 08:28:01.98	15.77	17.37	-39.4	-41.7	16.0	0.00e+00	0	56	0	772800512	50	4660
2026-01-09 08:28:02.99	15.58	17.30	-39.3	-41.7	16.0	0.00e+00	0	56	0	774897664	50	4656
2026-01-09 08:28:04.00	15.40	17.23	-39.4	-41.7	15.9	0.00e+00	0	56	0	776994816	50	4698
2026-01-09 08:28:05.01	15.21	17.16	-39.4	-41.8	15.9	0.00e+00	0	56	0	779091968	50	4722
2026-01-09 08:28:06.02	15.03	17.09	-39.5	-41.9	15.8	0.00e+00	0	56	0	780140544	50	4776
2026-01-09 08:28:07.03	14.84	17.02	-39.6	-42.0	15.6	0.00e+00	0	56	0	782237696	50	4864
2026-01-09 08:28:08.04	14.66	16.95	-39.5	-41.9	15.8	0.00e+00	0	56	0	784334848	50	4769
2026-01-09 08:28:09.05	14.48	16.88	-39.4	-41.8	15.9	0.00e+00	0	56	0	786432000	50	4734
2026-01-09 08:28:10.06	14.30	16.81	-39.4	-41.8	15.9	0.00e+00	0	56	0	788529152	50	4729
2026-01-09 08:28:11.07	14.12	16.74	-39.4	-41.8	15.9	0.00e+00	0	56	0	789577728	50	4720
2026-01-09 08:28:12.08	13.94	16.67	-39.3	-41.7	16.0	0.00e+00	0	57	0	791674880	50	4663
2026-01-09 08:28:13.09	13.76	16.60	-39.2	-41.5	16.1	0.00e+00	0	57	0	793772032	50	4576
2026-01-09 08:28:14.10	13.59	16.53	-39.3	-41.6	16.1	0.00e+00	0	56	0	795869184	50	4611
2026-01-09 08:28:15.11	13.41	16.46	-39.2	-41.5	16.1	0.00e+00	0	56	0	797966336	50	4589
2026-01-09 08:28:16.12	13.23	16.39	-39.2	-41.4	16.2	0.00e+00	0	56	0	799014912	50	4531
2026-01-09 08:28:17.13	13.06	16.32	-39.1	-41.4	16.2	0.00e+00	0	57	0	801112064	50	4519
2026-01-09 08:28:18.14	12.89	16.25	-39.1	-41.3	16.4	0.00e+00	0	56	0	803209216	50	4466
2026-01-09 08:28:19.15	12.71	16.17	-39.1	-41.4	16.3	0.00e+00	0	56	0	805306368	50	4517
2026-01-09 08:28:20.16	12.54	16.10	-39.2	-41.5	16.1	0.00e+00	0	57	0	807403520	50	4575
2026-01-09 08:28:21.17	12.37	16.03	-39.3	-41.7	15.9	0.00e+00	0	56	0	808452096	50	4671
2026-01-09 08:28:22.18	12.20	15.96	-39.4	-41.8	15.8	0.00e+00	0	56	0	810549248	50	4730
2026-01-09 08:28:23.19	12.03	15.89	-39.5	-41.9	15.6	0.00e+00	0	57	0	812646400	50	4814
2026-01-09 08:28:24.20	11.86	15.82	-39.4	-41.8	15.7	0.00e+00	0	56	0	814743552	50	4732
2026-01-09 08:28:25.21	11.69	15.75	-39.5	-42.0	15.6	0.00e+00	0	56	0	816840704	50	4818
2026-01-09 08:28:26.21	11.53	15.68	-39.2	-41.6	16.0	0.00e+00	0	56	0	817889280	50	4617
2026-01-09 08:28:27.22	11.36	15.61	-39.1	-41.4	16.2	0.00e+00	0	56	0	819986432	50	4511
2026-01-09 08:28:28.23	11.20	15.53	-39.0	-41.3	16.3	0.00e+00	0	56	0	822083584	50	4463
2026-01-09 08:28:29.24	11.03	15.46	-39.1	-41.4	16.2	0.00e+00	0	56	0	824180736	50	4501
2026-01-09 08:28:30.25	10.87	15.39	-39.1	-41.4	16.2	0.00e+00	0	56	0	826277888	50	4520
2026-01-09 08:28:31.26	10.70	15.32	-39.0	-41.3	16.2	0.00e+00	0	56	0	827326464	50	4477
2026-01-09 08:28:32.27	10.54	15.25	-39.2	-41.5	16.0	0.00e+00	0	57	0	829423616	50	4575
2026-01-09 08:28:33.28	10.38	15.18	-39.3	-41.6	15.9	0.00e+00	0	56	0	831520768	50	4648
2026-01-09 08:28:34.29	10.22	15.11	-39.2	-41.6	15.9	0.00e+00	0	56	0	833617920	50	4612
2026-01-09 08:28:35.30	10.06	15.03	-39.2	-41.5	15.9	0.00e+00	0	56	0	835715072	50	4597
2026-01-09 08:28:36.31	9.90	14.96	-39.3	-41.7	15.8	0.00e+00	0	56	0	836763648	50	4680
2026-01-09 08:28:37.32	9.74	14.89	-39.3	-41.7	15.7	0.00e+00	0	56	0	838860800	50	4701
2026-01-09 08:28:38.33	9.58	14.82	-39.3	-41.7	15.7	0.00e+00	0	56	0	840957952	50	4704
2026-01-09 08:28:39.34	9.43	14.75	-39.4	-41.8	15.5	0.00e+00	0	56	0	843055104	50	4751
2026-01-09 08:28:40.35	9.27	14.68	-39.5	-42.0	15.4	0.00e+00	0	57	0	845152256	50	4831
2026-01-09 08:28:41.35	9.12	14.60	-39.6	-42.2	15.2	0.00e+00	0	57	0	847249408	50	4927
2026-01-09 08:28:42.36	8.96	14.53	-39.6	-42.2	15.1	7.00e-07	0	57	0	848297984	50	4962
2026-01-09 08:28:43.37	8.81	14.46	-39.7	-42.3	15.0	0.00e+00	0	56	0	850395136	50	5020
2026-01-09 08:28:44.38	8.66	14.39	-39.8	-42.5	14.8	0.00e+00	0	57	0	852492288	50	5127
2026-01-09 08:28:45.39	8.50	14.32	-39.9	-42.7	14.6	7.00e-07	0	56	0	854589440	50	5222
2026-01-09 08:28:46.40	8.35	14.25	-39.8	-42.6	14.6	0.00e+00	0	56	0	856686592	50	5198
2026-01-09 08:28:47.41	8.20	14.17	-39.8	-42.6	14.6	7.00e-07	0	57	0	857735168	50	5188
2026-01-09 08:28:48.42	8.05	14.10	-39.8	-42.6	14.5	0.00e+00	0	56	0	859832320	50	5217
2026-01-09 08:28:49.43	7.90	14.03	-39.8	-42.6	14.6	0.00e+00	0	56	0	861929472	50	5162
2026-01-09 08:28:50.44	7.75	13.96	-39.7	-42.5	14.7	7.00e-07	0	57	0	864026624	50	5111
2026-01-09 08:28:51.45	7.61	13.89	-39.5	-42.3	14.9	0.00e+00	0	56	0	866123776	50	4987
2026-01-09 08:28:52.46	7.46	13.82	-39.5	-42.3	14.9	0.00e+00	0	57	0	867172352	50	4984
2026-01-09 08:28:53.47	7.31	13.75	-39.6	-42.4	14.7	0.00e+00	0	56	0	869269504	50	5072
2026-01-09 08:28:54.48	7.17	13.67	-39.6	-42.4	14.6	0.00e+00	0	56	0	871366656	50	5089
2026-01-09 08:28:55.49	7.02	13.60	-39.6	-42.4	14.6	0.00e+00	0	57	0	873463808	50	5090
2026-01-09 08:28:56.50	6.88	13.53	-39.7	-42.6	14.4	7.00e-07	0	56	0	875560960	50	5172
2026-01-09 08:28:57.51	6.73	13.46	-39.7	-42.6	14.3	1.50e-06	0	57	0	876609536	50	5200
2026-01-09 08:28:58.52	6.59	13.39	-39.8	-42.9	14.0	1.50e-06	0	56	0	878706688	50	5351
2026-01-09 08:28:59.53	6.45	13.32	-39.9	-43.1	13.7	3.00e-06	0	56	0	880803840	50	5500
2026-01-09 08:29:00.54	6.31	13.25	-40.0	-43.2	13.6	7.60e-06	0	56	0	882900992	50	5582
2026-01-09 08:29:01.55	6.17	13.17	-40.0	-43.2	13.5	1.06e-05	0	57	0	884998144	50	5591
2026-01-09 08:29:02.56	6.03	13.10	-39.9	-43.1	13.6	6.80e-06	0	56	0	886046720	50	5507
2026-01-09 08:29:03.57	5.89	13.03	-39.8	-43.0	13.7	6.10e-06	0	57	0	888143872	50	5424
2026-01-09 08:29:04.58	5.75	12.96	-39.7	-43.0	13.6	6.10e-06	0	57	0	890241024	50	5426
2026-01-09 08:29:05.59	5.61	12.89	-39.7	-43.1	13.5	9.90e-06	0	56	0	892338176	50	5469
2026-01-09 08:29:06.59	5.48	12.82	-39.5	-42.7	13.8	2.20e-06	0	56	0	894435328	50	5230
2026-01-09 08:29:07.60	5.34	12.75	-39.1	-42.1	14.4	1.50e-06	0	57	0	895483904	50	4871
2026-01-09 08:29:08.61	5.20	12.68	-39.0	-41.9	14.5	7.00e-07	0	57	0	897581056	50	4792
2026-01-09 08:29:09.62	5.07	12.61	-39.1	-42.2	14.1	7.00e-07	0	56	0	899678208	50	4933
2026-01-09 08:29:10.63	4.93	12.54	-39.4	-43.0	13.0	1.37e-05	0	56	0	901775360	50	5406
2026-01-09 08:29:11.64	4.80	12.46	-39.9	-44.3	11.5	2.05e-04	0	57	0	903872512	50	6283
2026-01-09 08:29:12.65	4.67	12.39	-40.5	-46.1	9.3	3.31e-03	0	57	0	904921088	51	7288
2026-01-09 08:29:13.66	4.53	12.32	-40.7	-48.1	6.9	9.80e-02	0	57	0	907018240	52	8683
2026-01-09 08:29:14.67	4.40	12.25	-40.8	-50.3	5.1	3.97e-01	0	57	0	909115392	52	11204
2026-01-09 08:29:15.68	4.27	12.18	-40.8	-52.3	4.2	9.46e-01	0	56	0	911212544	52	14062
2026-01-09 08:29:16.69	4.14	12.11	-40.6	-53.8	3.8	1.49e+00	0	56	104	911212544	52	16754
2026-01-09 08:29:17.70	4.01	12.04	-40.4	-54.6	3.8	1.49e+00	0	56	104	911212544	52	18411
2026-01-09 08:29:18.71	3.88	11.97	-40.2	-54.8	3.8	1.49e+00	0	56	104	911212544	52	18865
2026-01-09 08:29:19.71	3.75	11.90	-40.0	-54.8	3.8	1.49e+00	0	56	104	911212544	52	18779
2026-01-09 08:29:20.72	3.63	11.83	-39.9	-54.8	3.8	1.49e+00	0	56	104	911212544	51	19869
2026-01-09 08:29:21.73	3.50	11.76	-39.9	-54.7	3.8	1.49e+00	0	56	104	911212544	51	19678
2026-01-09 08:29:22.74	3.37	11.69	-39.7	-54.3	3.8	1.49e+00	0	56	104	911212544	51	18901
2026-01-09 08:29:23.75	3.25	11.62	-39.7	-54.6	3.8	1.49e+00	0	56	104	911212544	51	19540
2026-01-09 08:29:24.76	3.12	11.55	-39.7	-54.4	3.8	1.49e+00	0	57	104	911212544	51	19006
2026-01-09 08:29:25.77	2.99	11.48	-39.8	-54.6	3.8	1.49e+00	0	56	104	911212544	51	19526
2026-01-09 08:29:26.79	2.87	11.41	-39.7	-54.3	3.8	1.49e+00	0	57	104	911212544	51	18922
2026-01-09 08:29:27.79	2.75	11.34	-39.6	-54.3	3.8	1.49e+00	0	57	104	911212544	51	18790
2026-01-09 08:29:28.80	2.62	11.27	-39.7	-54.4	3.8	1.49e+00	0	57	104	911212544	51	19071
2026-01-09 08:29:29.81	2.50	11.20	-39.6	-54.3	3.8	1.49e+00	0	57	104	911212544	51	18733
2026-01-09 08:29:30.82	2.38	11.13	-39.7	-54.3	3.8	1.49e+00	0	57	104	911212544	51	18938
2026-01-09 08:29:31.83	2.26	11.06	-39.7	-54.5	3.8	1.49e+00	0	56	104	911212544	51	19178
2026-01-09 08:29:32.84	2.14	10.99	-39.7	-54.3	3.8	1.49e+00	0	57	104	911212544	51	18895
2026-01-09 08:29:33.85	2.02	10.92	-39.7	-54.4	3.8	1.49e+00	0	57	104	911212544	51	19010
2026-01-09 08:29:34.86	1.90	10.85	-39.7	-54.3	3.8	1.49e+00	0	57	104	911212544	51	18897
2026-01-09 08:29:35.87	1.78	10.78	-39.6	-54.3	3.8	1.49e+00	0	57	104	911212544	51	18822
2026-01-09 08:29:36.88	1.66	10.71	-39.6	-54.2	3.8	1.49e+00	0	57	104	911212544	51	18726
2026-01-09 08:29:37.89	1.54	10.64	-39.6	-54.3	3.8	1.49e+00	0	57	104	911212544	51	18810
2026-01-09 08:29:38.90	1.42	10.57	-39.6	-54.3	3.8	1.49e+00	0	57	104	911212544	51	18761
2026-01-09 08:29:39.91	1.31	10.51	-39.7	-54.4	3.8	1.49e+00	0	57	104	911212544	51	18991
2026-01-09 08:29:40.92	1.19	10.44	-39.5	-54.3	3.8	1.49e+00	0	57	104	911212544	51	18741
2026-01-09 08:29:41.93	1.08	10.37	-39.7	-54.4	3.8	1.49e+00	0	57	104	911212544	50	20174
2026-01-09 08:29:42.94	0.96	10.30	-39.4	-54.3	3.8	1.49e+00	0	57	104	911212544	50	19942
2026-01-09 08:29:43.95	0.85	10.23	-39.3	-54.3	3.8	1.49e+00	0	57	104	911212544	50	19963
2026-01-09 08:29:44.96	0.73	10.16	-39.7	-54.3	3.8	1.49e+00	0	57	104	911212544	50	19903
2026-01-09 08:29:45.96	0.62	10.09	-39.2	-54.3	3.8	1.49e+00	0	57	104	911212544	50	19965
2026-01-09 08:29:46.97	0.51	10.03	-39.6	-54.3	3.8	1.49e+00	0	57	104	911212544	50	19884
2026-01-09 08:29:47.98	0.39	9.96	-39.4	-54.3	3.8	1.49e+00	0	57	104	911212544	50	19911
2026-01-09 08:29:48.99	0.28	9.89	-39.3	-54.3	3.8	1.49e+00	0	57	104	911212544	50	20062
2026-01-09 08:29:50.00	0.17	9.82	-39.3	-54.3	3.8	1.49e+00	0	57	104	911212544	50	19848
2026-01-09 08:29:51.01	0.06	9.75	-39.3	-54.4	3.8	1.49e+00	0	57	104	911212544	50	20125
2026-01-09 08:29:52.02	359.95	9.68	-39.0	-54.3	3.8	1.49e+00	0	57	104	911212544	50	19864
2026-01-09 08:29:53.03	359.84	9.62	-39.4	-54.3	3.8	1.49e+00	0	56	104	911212544	50	19907
2026-01-09 08:29:54.04	359.73	9.55	-38.9	-54.2	3.8	1.49e+00	0	57	104	911212544	49	20873
2026-01-09 08:29:55.05	359.62	9.48	-39.3	-54.3	3.8	1.49e+00	0	57	104	911212544	49	21026
2026-01-09 08:29:56.06	359.52	9.41	-39.2	-54.2	3.8	1.49e+00	0	57	104	911212544	49	20835
2026-01-09 08:29:57.07	359.41	9.35	-39.2	-54.3	3.8	1.49e+00	0	57	104	911212544	49	21103
2026-01-09 08:29:58.08	359.30	9.28	-39.1	-54.2	3.8	1.49e+00	0	57	104	911212544	49	20874
2026-01-09 08:29:59.09	359.20	9.21	-39.2	-54.2	3.8	1.49e+00	0	57	104	911212544	49	21006
2026-01-09 08:30:00.09	359.09	9.14	-38.4	-54.1	3.8	1.49e+00	0	56	104	911212544	48	21944
2026-01-09 08:30:01.10	358.98	9.08	-39.1	-54.3	3.8	1.49e+00	0	57	104	911212544	48	22287
2026-01-09 08:30:02.11	358.88	9.01	-38.2	-54.1	3.8	1.49e+00	0	57	104	911212544	48	21810
2026-01-09 08:30:03.12	358.78	8.94	-39.0	-54.2	3.8	1.49e+00	0	57	104	911212544	48	22154
2026-01-09 08:30:04.13	358.67	8.87	-38.5	-54.2	3.8	1.49e+00	0	56	104	911212544	48	22076
2026-01-09 08:30:05.14	358.57	8.81	-38.7	-54.1	3.8	1.49e+00	0	57	104	911212544	48	21981
2026-01-09 08:30:06.15	358.46	8.74	-38.4	-54.2	3.8	1.49e+00	0	57	104	911212544	48	22110
2026-01-09 08:30:07.16	358.36	8.67	-38.5	-54.1	3.8	1.49e+00	0	57	104	911212544	48	21939
2026-01-09 08:30:08.17	358.26	8.61	-38.1	-54.0	3.8	1.49e+00	0	57	104	911212544	48	21717
2026-01-09 08:30:09.18	358.16	8.54	-38.7	-54.1	3.8	1.49e+00	0	57	104	911212544	48	21973
2026-01-09 08:30:10.19	358.06	8.47	-38.3	-54.0	3.8	1.49e+00	0	57	104	911212544	48	21644
2026-01-09 08:30:11.20	357.96	8.41	-38.5	-54.1	3.8	1.49e+00	0	57	104	911212544	48	21918
2026-01-09 08:30:12.21	357.86	8.34	-38.2	-54.2	3.8	1.49e+00	0	57	104	911212544	48	22012
2026-01-09 08:30:13.22	357.76	8.28	-38.4	-54.1	3.8	1.49e+00	0	57	104	911212544	48	21799
2026-01-09 08:30:14.23	357.66	8.21	-38.5	-54.1	3.8	1.49e+00	0	57	104	911212544	48	21941
2026-01-09 08:30:15.24	357.56	8.14	-38.6	-54.0	3.8	1.49e+00	0	57	104	911212544	48	21749
2026-01-09 08:30:16.25	357.46	8.08	-39.0	-54.0	3.8	1.49e+00	0	57	104	911212544	48	21712
2026-01-09 08:30:17.26	357.36	8.01	-38.1	-54.1	3.8	1.49e+00	0	57	104	911212544	48	21810
2026-01-09 08:30:18.27	357.27	7.95	-39.7	-54.5	3.8	1.49e+00	0	57	104	911212544	49	21636
2026-01-09 08:30:19.28	357.17	7.88	-44.3	-58.6	3.8	1.49e+00	0	57	104	911212544	59	19567
2026-01-09 08:30:20.29	357.07	7.81	-44.7	-59.0	3.8	1.49e+00	0	57	104	911212544	59	20458
2026-01-09 08:30:21.30	356.98	7.75	-44.8	-59.4	3.8	1.49e+00	0	57	104	911212544	60	20088
2026-01-09 08:30:22.31	356.88	7.68	-44.9	-59.4	3.8	1.49e+00	0	57	104	911212544	60	20257
2026-01-09 08:30:23.32	356.79	7.62	-45.0	-59.6	3.8	1.49e+00	0	57	104	911212544	60	20546
2026-01-09 08:30:24.33	356.69	7.55	-45.0	-59.5	3.8	1.49e+00	0	56	104	911212544	60	20538
2026-01-09 08:30:25.34	356.60	7.49	-45.0	-59.6	3.8	1.49e+00	0	57	104	911212544	60	20559
2026-01-09 08:30:26.36	356.50	7.42	-45.0	-59.5	3.8	1.49e+00	0	57	104	911212544	60	20520
2026-01-09 08:30:27.37	356.41	7.36	-45.0	-59.5	3.8	1.49e+00	0	57	104	911212544	60	20441
2026-01-09 08:30:28.38	356.32	7.29	-44.9	-59.4	3.8	1.49e+00	0	57	104	911212544	60	20290
2026-01-09 08:30:29.39	356.22	7.23	-44.9	-59.4	3.8	1.49e+00	0	57	104	911212544	60	20083
2026-01-09 08:30:30.40	356.13	7.16	-44.9	-59.3	3.8	1.49e+00	0	57	104	911212544	60	20052
2026-01-09 08:30:31.41	356.04	7.10	-44.8	-59.3	3.8	1.49e+00	0	57	104	911212544	60	19923
2026-01-09 08:30:32.42	355.95	7.03	-44.8	-59.2	3.8	1.49e+00	0	57	104	911212544	60	19832
2026-01-09 08:30:33.43	355.86	6.97	-44.8	-59.2	3.8	1.49e+00	0	57	104	911212544	60	19818
2026-01-09 08:30:34.44	355.77	6.90	-44.8	-59.2	3.8	1.49e+00	0	57	104	911212544	60	19732
2026-01-09 08:30:35.45	355.68	6.84	-44.8	-59.2	3.8	1.49e+00	0	57	104	911212544	60	19772
2026-01-09 08:30:36.46	355.59	6.78	-44.8	-59.2	3.8	1.49e+00	0	57	104	911212544	60	19775
2026-01-09 08:30:37.47	355.50	6.71	-44.8	-59.2	3.8	1.49e+00	0	57	104	911212544	60	19702
2026-01-09 08:30:38.48	355.41	6.65	-44.8	-59.2	3.8	1.49e+00	0	57	104	911212544	60	19731
2026-01-09 08:30:39.49	355.32	6.58	-44.8	-59.2	3.8	1.49e+00	0	57	104	911212544	60	19748
2026-01-09 08:30:40.50	355.23	6.52	-44.8	-59.2	3.8	1.49e+00	0	57	104	911212544	60	19723
2026-01-09 08:30:41.51	355.15	6.46	-44.8	-59.2	3.8	1.49e+00	0	57	104	911212544	60	19684
2026-01-09 08:30:42.52	355.06	6.39	-44.7	-59.2	3.8	1.49e+00	0	57	104	911212544	60	19686
2026-01-09 08:30:43.53	354.97	6.33	-44.7	-59.2	3.8	1.49e+00	0	57	104	911212544	60	19687
2026-01-09 08:30:44.55	354.89	6.27	-44.7	-59.2	3.8	1.49e+00	0	57	104	911212544	60	19666
2026-01-09 08:30:45.55	354.80	6.20	-44.7	-59.2	3.8	1.49e+00	0	57	104	911212544	60	19676
2026-01-09 08:30:46.56	354.72	6.14	-44.7	-59.2	3.8	1.49e+00	0	57	104	911212544	60	19716
2026-01-09 08:30:47.58	354.63	6.08	-44.7	-59.1	3.8	1.49e+00	0	57	104	911212544	60	19587
2026-01-09 08:30:48.59	354.55	6.01	-44.7	-59.2	3.8	1.49e+00	0	57	104	911212544	60	19698
2026-01-09 08:30:49.59	354.46	5.95	-44.7	-59.2	3.8	1.49e+00	0	57	104	911212544	60	19634
2026-01-09 08:30:50.60	354.38	5.89	-44.7	-59.2	3.8	1.49e+00	0	57	104	911212544	60	19679
2026-01-09 08:30:51.62	354.29	5.83	-44.7	-59.2	3.8	1.49e+00	0	57	104	911212544	60	19649
2026-01-09 08:30:52.63	354.21	5.76	-44.7	-59.2	3.8	1.49e+00	0	57	104	911212544	60	19640
2026-01-09 08:30:53.63	354.13	5.70	-44.7	-59.2	3.8	1.49e+00	0	57	104	911212544	60	19617
2026-01-09 08:30:54.65	354.04	5.64	-44.7	-59.2	3.8	1.49e+00	0	57	104	911212544	60	19644
2026-01-09 08:30:55.66	353.96	5.57	-44.7	-59.2	3.8	1.49e+00	0	57	104	911212544	60	19654
2026-01-09 08:30:56.67	353.88	5.51	-44.7	-59.1	3.8	1.49e+00	0	57	104	911212544	60	19614
2026-01-09 08:30:57.68	353.80	5.45	-44.7	-59.2	3.8	1.49e+00	0	57	104	911212544	60	19682
2026-01-09 08:30:58.69	353.72	5.39	-44.7	-59.2	3.8	1.49e+00	0	57	104	911212544	60	19635
2026-01-09 08:30:59.70	353.64	5.33	-44.7	-59.1	3.8	1.49e+00	0	57	104	911212544	60	19575
