passes_logs/2026/01/09/R2.0S_Moscow/R2.0S_Moscow__20260109_114008_NOAA_20_JPSS-1_rec.log

#Pass ID: 20260109_114008_NOAA 20 (JPSS-1)
#Satellite: NOAA 20 (JPSS-1)
#Configuration: NOAA 20
#almurnet v.1.7.20251203
#Start time: 2026-01-09 11:40:07

#Version: 2.2.20231116
#Station: R2.0S_Moscow
#Location: 37.707566 lon 55.798166 lat
#TLE: 1 43013U 17073A   26008.42245989  .00000120  00000+0  77990-4 0  9996
#TLE: 2 43013  98.7631 309.4315 0001737  48.7960 311.3365 14.19534455421802

#Time	Az	El	Level	Level2	SNR	BER	BlckErr	Temp	State	Recorded	gain1	gain2
2026-01-09 11:40:07.85	214.24	1.98	-44.0	-58.4	3.8	1.49e+00	0	50	0	0	59	19009
2026-01-09 11:40:08.86	214.32	2.03	-44.0	-58.3	3.8	1.49e+00	0	50	104	0	59	18914
2026-01-09 11:40:09.87	214.40	2.08	-43.9	-58.4	3.8	1.49e+00	0	50	104	0	59	19005
2026-01-09 11:40:10.88	214.48	2.14	-44.0	-58.4	3.8	1.49e+00	0	50	104	0	59	18996
2026-01-09 11:40:11.89	214.57	2.19	-43.9	-58.4	3.8	1.49e+00	0	50	104	0	59	18949
2026-01-09 11:40:12.90	214.65	2.24	-43.9	-58.4	3.8	1.49e+00	0	50	104	0	59	19005
2026-01-09 11:40:13.91	214.73	2.30	-44.0	-58.3	3.8	1.49e+00	0	50	104	0	59	18921
2026-01-09 11:40:14.92	214.81	2.35	-43.9	-58.3	3.8	1.49e+00	0	50	104	0	59	18925
2026-01-09 11:40:15.93	214.90	2.40	-43.9	-58.3	3.8	1.49e+00	0	50	104	0	59	18904
2026-01-09 11:40:16.94	214.98	2.45	-44.0	-58.3	3.8	1.49e+00	0	51	104	0	59	18902
2026-01-09 11:40:17.95	215.07	2.51	-43.9	-58.3	3.8	1.49e+00	0	50	104	0	59	18891
2026-01-09 11:40:18.96	215.15	2.56	-43.9	-58.3	3.8	1.49e+00	0	50	104	0	59	18897
2026-01-09 11:40:19.98	215.24	2.61	-43.9	-58.4	3.8	1.49e+00	0	50	104	0	59	18980
2026-01-09 11:40:20.99	215.32	2.67	-43.9	-58.3	3.8	1.49e+00	0	51	104	0	59	18864
2026-01-09 11:40:22.00	215.41	2.72	-43.9	-58.3	3.8	1.49e+00	0	50	104	0	59	18878
2026-01-09 11:40:23.01	215.49	2.78	-43.9	-58.3	3.8	1.49e+00	0	51	104	0	59	18936
2026-01-09 11:40:24.02	215.58	2.83	-43.9	-58.3	3.8	1.49e+00	0	51	104	0	59	18898
2026-01-09 11:40:25.03	215.66	2.88	-43.9	-58.3	3.8	1.49e+00	0	51	104	0	59	18873
2026-01-09 11:40:26.04	215.75	2.94	-43.9	-58.3	3.8	1.49e+00	0	51	104	0	59	18899
2026-01-09 11:40:27.05	215.84	2.99	-43.9	-58.3	3.8	1.49e+00	0	51	104	0	59	18927
2026-01-09 11:40:28.06	215.92	3.04	-43.9	-58.3	3.8	1.49e+00	0	51	104	0	59	18913
2026-01-09 11:40:29.07	216.01	3.10	-43.9	-58.3	3.8	1.49e+00	0	51	104	0	59	18896
2026-01-09 11:40:30.08	216.10	3.15	-43.9	-58.3	3.8	1.49e+00	0	51	104	0	59	18927
2026-01-09 11:40:31.09	216.18	3.20	-43.9	-58.4	3.8	1.49e+00	0	51	104	0	59	18951
2026-01-09 11:40:32.10	216.27	3.26	-43.9	-58.3	3.8	1.49e+00	0	51	104	0	59	18942
2026-01-09 11:40:33.11	216.36	3.31	-43.9	-58.4	3.8	1.49e+00	0	51	104	0	59	18949
2026-01-09 11:40:34.12	216.45	3.37	-43.9	-58.3	3.8	1.49e+00	0	51	104	0	59	18882
2026-01-09 11:40:35.13	216.54	3.42	-43.9	-58.3	3.8	1.49e+00	0	51	104	0	59	18845
2026-01-09 11:40:36.14	216.63	3.47	-43.9	-58.4	3.8	1.49e+00	0	51	104	0	59	18957
2026-01-09 11:40:37.15	216.72	3.53	-43.9	-58.3	3.8	1.49e+00	0	51	104	0	59	18898
2026-01-09 11:40:38.16	216.81	3.58	-43.9	-58.3	3.8	1.49e+00	0	51	104	0	59	18904
2026-01-09 11:40:39.18	216.90	3.64	-43.9	-58.3	3.8	1.49e+00	0	52	104	0	59	18873
2026-01-09 11:40:40.19	216.99	3.69	-43.9	-58.3	3.8	1.49e+00	0	52	104	0	59	18901
2026-01-09 11:40:41.20	217.08	3.75	-43.9	-58.3	3.8	1.49e+00	0	52	104	0	59	18861
2026-01-09 11:40:42.21	217.17	3.80	-43.9	-58.3	3.8	1.49e+00	0	52	104	0	59	18862
2026-01-09 11:40:43.22	217.26	3.86	-43.9	-58.3	3.8	1.49e+00	0	52	104	0	59	18914
2026-01-09 11:40:44.23	217.36	3.91	-43.9	-58.3	3.8	1.49e+00	0	52	104	0	59	18902
2026-01-09 11:40:45.24	217.45	3.97	-43.9	-58.3	3.8	1.49e+00	0	52	104	0	59	18923
2026-01-09 11:40:46.25	217.54	4.02	-43.9	-58.3	3.8	1.49e+00	0	52	104	0	59	18897
2026-01-09 11:40:47.26	217.63	4.07	-43.9	-58.3	3.8	1.49e+00	0	52	104	0	59	18890
2026-01-09 11:40:48.27	217.73	4.13	-43.9	-58.3	3.8	1.49e+00	0	52	104	0	59	18880
2026-01-09 11:40:49.28	217.82	4.18	-43.9	-58.3	3.8	1.49e+00	0	52	104	0	59	18931
2026-01-09 11:40:50.29	217.92	4.24	-43.9	-58.3	3.8	1.49e+00	0	52	104	0	59	18888
2026-01-09 11:40:51.30	218.01	4.29	-43.9	-58.3	3.8	1.49e+00	0	52	104	0	59	18896
2026-01-09 11:40:52.31	218.10	4.35	-43.9	-58.3	3.8	1.49e+00	0	52	104	0	59	18900
2026-01-09 11:40:53.32	218.20	4.40	-43.9	-58.3	3.8	1.49e+00	0	52	104	0	59	18899
2026-01-09 11:40:54.33	218.29	4.46	-43.9	-58.3	3.8	1.49e+00	0	52	104	0	59	18850
2026-01-09 11:40:55.34	218.39	4.51	-43.9	-58.3	3.8	1.49e+00	0	52	104	0	59	18886
2026-01-09 11:40:56.36	218.49	4.57	-43.9	-58.3	3.8	1.49e+00	0	52	104	0	59	18812
2026-01-09 11:40:57.37	218.58	4.62	-43.9	-58.3	3.8	1.49e+00	0	52	104	0	59	18840
2026-01-09 11:40:58.38	218.68	4.68	-43.9	-58.3	3.8	1.49e+00	0	52	104	0	59	18818
2026-01-09 11:40:59.39	218.78	4.74	-43.9	-58.3	3.8	1.49e+00	0	52	104	0	59	18818
2026-01-09 11:41:00.40	218.88	4.79	-43.9	-58.3	3.8	1.49e+00	0	52	104	0	59	18774
2026-01-09 11:41:01.41	218.97	4.85	-43.9	-58.3	3.8	1.49e+00	0	53	104	0	59	18815
2026-01-09 11:41:02.42	219.07	4.90	-43.9	-58.3	3.8	1.49e+00	0	53	104	0	59	18836
2026-01-09 11:41:03.43	219.17	4.96	-43.9	-58.3	3.8	1.49e+00	0	53	104	0	59	18857
2026-01-09 11:41:04.44	219.27	5.01	-43.9	-58.3	3.8	1.49e+00	0	53	104	0	59	18838
2026-01-09 11:41:05.45	219.37	5.07	-43.9	-58.3	3.8	1.49e+00	0	53	104	0	59	18758
2026-01-09 11:41:06.46	219.47	5.12	-43.9	-58.3	3.8	1.49e+00	0	53	104	0	59	18765
2026-01-09 11:41:07.47	219.57	5.18	-43.9	-58.2	3.8	1.49e+00	0	53	104	0	59	18667
2026-01-09 11:41:08.48	219.67	5.23	-43.9	-58.2	3.8	1.49e+00	0	53	104	0	59	18608
2026-01-09 11:41:09.49	219.77	5.29	-43.9	-58.2	3.8	1.49e+00	0	53	104	0	59	18556
2026-01-09 11:41:10.50	219.87	5.35	-43.9	-58.2	3.8	1.49e+00	0	53	104	0	59	18627
2026-01-09 11:41:11.51	219.97	5.40	-43.9	-58.2	3.8	1.49e+00	0	53	104	0	59	18534
2026-01-09 11:41:12.52	220.07	5.46	-43.9	-58.2	3.8	1.49e+00	0	53	104	0	59	18587
2026-01-09 11:41:13.53	220.18	5.51	-43.9	-58.2	3.8	1.49e+00	0	53	104	0	59	18705
2026-01-09 11:41:14.54	220.28	5.57	-43.9	-58.3	3.8	1.49e+00	0	53	104	0	59	18781
2026-01-09 11:41:15.55	220.38	5.63	-43.9	-58.3	3.8	1.49e+00	0	53	104	0	59	18789
2026-01-09 11:41:16.56	220.48	5.68	-43.9	-58.3	3.8	1.49e+00	0	53	104	0	59	18856
2026-01-09 11:41:17.57	220.59	5.74	-43.9	-58.3	3.8	1.49e+00	0	53	104	0	59	18838
2026-01-09 11:41:18.58	220.69	5.79	-43.9	-58.3	3.8	1.49e+00	0	53	104	0	59	18803
2026-01-09 11:41:19.59	220.80	5.85	-43.9	-58.2	3.8	1.49e+00	0	53	104	0	59	18691
2026-01-09 11:41:20.60	220.90	5.91	-43.9	-58.2	3.8	1.49e+00	0	53	104	0	59	18708
2026-01-09 11:41:21.61	221.01	5.96	-43.9	-58.2	3.8	1.49e+00	0	53	104	0	59	18666
2026-01-09 11:41:22.62	221.11	6.02	-43.9	-58.2	3.8	1.49e+00	0	53	104	0	59	18670
2026-01-09 11:41:23.63	221.22	6.08	-43.9	-58.3	3.8	1.49e+00	0	53	104	0	59	18735
2026-01-09 11:41:24.64	221.33	6.13	-43.9	-58.2	3.8	1.49e+00	0	53	104	0	59	18711
2026-01-09 11:41:25.65	221.43	6.19	-43.9	-58.3	3.8	1.49e+00	0	53	104	0	59	18781
2026-01-09 11:41:26.66	221.54	6.24	-43.9	-58.3	3.8	1.49e+00	0	54	104	0	59	18823
2026-01-09 11:41:27.67	221.65	6.30	-43.9	-58.3	3.8	1.49e+00	0	53	104	0	59	18831
2026-01-09 11:41:28.68	221.76	6.36	-43.9	-58.3	3.8	1.49e+00	0	54	104	0	59	18788
2026-01-09 11:41:29.69	221.86	6.41	-43.9	-58.3	3.8	1.49e+00	0	54	104	0	59	18779
2026-01-09 11:41:30.71	221.97	6.47	-43.9	-58.3	3.8	1.49e+00	0	54	104	0	59	18850
2026-01-09 11:41:31.72	222.08	6.53	-43.9	-58.3	3.8	1.49e+00	0	54	104	0	59	18845
2026-01-09 11:41:32.73	222.19	6.58	-43.9	-58.3	3.8	1.49e+00	0	53	104	0	59	18748
2026-01-09 11:41:33.74	222.30	6.64	-43.9	-58.3	3.8	1.49e+00	0	54	104	0	59	18737
2026-01-09 11:41:34.75	222.41	6.70	-43.9	-58.2	3.8	1.49e+00	0	54	104	0	59	18605
2026-01-09 11:41:35.76	222.52	6.76	-43.9	-58.1	3.8	1.49e+00	0	54	104	0	59	18513
2026-01-09 11:41:36.77	222.64	6.81	-43.9	-58.1	3.8	1.49e+00	0	54	104	0	59	18438
2026-01-09 11:41:37.78	222.75	6.87	-43.9	-58.0	3.8	1.49e+00	0	54	104	0	59	18275
2026-01-09 11:41:38.79	222.86	6.93	-43.9	-58.0	3.8	1.49e+00	0	54	104	0	59	18190
2026-01-09 11:41:39.80	222.97	6.98	-43.9	-57.9	3.8	1.49e+00	0	54	104	0	59	17991
2026-01-09 11:41:40.81	223.09	7.04	-43.9	-57.9	3.8	1.49e+00	0	54	104	0	59	17964
2026-01-09 11:41:41.82	223.20	7.10	-43.9	-57.8	3.8	1.49e+00	0	54	104	0	59	17880
2026-01-09 11:41:42.83	223.31	7.15	-43.9	-57.8	3.8	1.49e+00	0	54	104	0	59	17684
2026-01-09 11:41:43.84	223.43	7.21	-43.9	-57.7	3.8	1.49e+00	0	54	104	0	59	17518
2026-01-09 11:41:44.85	223.54	7.27	-43.9	-57.5	3.8	1.49e+00	0	54	104	0	59	17142
2026-01-09 11:41:45.86	223.66	7.32	-43.9	-57.1	3.8	1.49e+00	0	54	104	0	59	16474
2026-01-09 11:41:46.87	223.77	7.38	-43.8	-56.8	3.8	1.49e+00	0	54	104	0	59	15816
2026-01-09 11:41:47.88	223.89	7.44	-43.8	-56.3	3.8	1.49e+00	0	54	104	0	59	14918
2026-01-09 11:41:48.89	224.01	7.50	-43.7	-55.6	3.9	1.48e+00	0	54	104	0	59	13780
2026-01-09 11:41:49.90	224.12	7.55	-43.7	-54.6	4.2	1.40e+00	0	54	0	0	59	12285
2026-01-09 11:41:50.91	224.24	7.61	-43.6	-53.5	4.7	1.16e+00	0	54	0	1048576	59	10857
2026-01-09 11:41:51.92	224.36	7.67	-43.4	-52.4	5.2	7.87e-01	0	54	0	3145728	58	10170
2026-01-09 11:41:52.94	224.48	7.73	-43.2	-51.4	5.9	4.14e-01	0	54	0	4194304	58	8996
2026-01-09 11:41:53.95	224.60	7.78	-43.1	-50.4	6.7	2.54e-01	0	54	0	6291456	58	8024
2026-01-09 11:41:54.96	224.72	7.84	-42.8	-49.4	7.6	1.45e-01	0	54	0	8388608	57	7628
2026-01-09 11:41:55.97	224.84	7.90	-42.6	-48.8	8.2	6.34e-02	0	54	0	10485760	57	7050
2026-01-09 11:41:56.98	224.96	7.96	-42.4	-48.1	8.9	3.62e-02	0	54	0	12582912	56	6939
2026-01-09 11:41:57.99	225.08	8.01	-42.3	-47.7	9.3	2.28e-02	0	54	0	13631488	56	6643
2026-01-09 11:41:59.00	225.20	8.07	-44.4	-58.7	3.8	1.49e+00	0	54	104	15728640	59	19649
2026-01-09 11:42:00.01	225.32	8.13	-43.5	-53.3	4.7	1.08e+00	0	54	0	15728640	57	11878
2026-01-09 11:42:01.01	225.44	8.19	-41.7	-46.1	11.1	2.35e-01	0	54	0	16777216	54	6135
2026-01-09 11:42:02.02	225.56	8.24	-43.4	-51.6	5.9	1.61e-02	0	54	0	18874368	57	9720
2026-01-09 11:42:03.03	225.69	8.30	-41.3	-45.4	11.7	4.14e-04	0	55	0	20971520	53	6016
2026-01-09 11:42:04.04	225.81	8.36	-41.0	-44.6	12.5	2.37e-04	0	54	0	23068672	53	5508
2026-01-09 11:42:05.05	225.93	8.42	-40.8	-44.4	12.8	8.62e-05	0	54	0	25165824	53	5342
2026-01-09 11:42:06.06	226.06	8.47	-40.9	-44.4	12.7	6.25e-05	0	54	0	26214400	53	5352
2026-01-09 11:42:07.07	226.18	8.53	-40.8	-44.3	12.8	6.48e-05	0	54	0	28311552	53	5326
2026-01-09 11:42:08.08	226.31	8.59	-40.8	-44.3	12.8	5.95e-05	0	54	0	30408704	53	5312
2026-01-09 11:42:09.09	226.43	8.65	-40.8	-44.3	12.8	6.71e-05	0	55	0	32505856	53	5336
2026-01-09 11:42:10.10	226.56	8.70	-40.8	-44.3	12.9	5.79e-05	0	54	0	34603008	53	5311
2026-01-09 11:42:11.11	226.69	8.76	-40.8	-44.3	12.8	6.48e-05	0	54	0	35651584	53	5295
2026-01-09 11:42:12.12	226.81	8.82	-40.8	-44.3	12.9	4.42e-05	0	54	0	37748736	53	5298
2026-01-09 11:42:13.13	226.94	8.88	-40.8	-44.3	12.9	7.40e-05	0	54	0	39845888	53	5290
2026-01-09 11:42:14.14	227.07	8.93	-40.7	-44.1	13.1	3.81e-05	0	55	0	41943040	53	5200
2026-01-09 11:42:15.14	227.20	8.99	-40.7	-44.0	13.2	2.44e-05	0	54	0	44040192	53	5133
2026-01-09 11:42:16.15	227.33	9.05	-40.6	-44.0	13.2	1.83e-05	0	55	0	45088768	53	5116
2026-01-09 11:42:17.16	227.46	9.11	-40.6	-43.9	13.3	1.37e-05	0	55	0	47185920	53	5053
2026-01-09 11:42:18.18	227.59	9.17	-40.6	-43.8	13.4	1.52e-05	0	55	0	49283072	53	5024
2026-01-09 11:42:19.18	227.72	9.22	-40.5	-43.8	13.5	1.60e-05	0	55	0	51380224	53	4993
2026-01-09 11:42:20.19	227.85	9.28	-40.5	-43.8	13.4	1.67e-05	0	55	0	53477376	53	4991
2026-01-09 11:42:21.20	227.98	9.34	-40.5	-43.8	13.4	9.90e-06	0	55	0	54525952	53	5003
2026-01-09 11:42:22.21	228.11	9.40	-40.6	-43.8	13.4	9.90e-06	0	55	0	56623104	53	5023
2026-01-09 11:42:23.22	228.24	9.45	-40.6	-43.9	13.4	9.10e-06	0	55	0	58720256	53	5047
2026-01-09 11:42:24.23	228.38	9.51	-40.5	-43.8	13.4	9.10e-06	0	55	0	60817408	53	5005
2026-01-09 11:42:25.24	228.51	9.57	-40.5	-43.7	13.5	6.80e-06	0	55	0	62914560	53	4969
2026-01-09 11:42:26.25	228.65	9.63	-40.5	-43.8	13.5	1.22e-05	0	55	0	65011712	53	4986
2026-01-09 11:42:27.26	228.78	9.68	-40.5	-43.7	13.5	8.30e-06	0	55	0	66060288	53	4982
2026-01-09 11:42:28.27	228.92	9.74	-40.5	-43.7	13.5	3.80e-06	0	55	0	68157440	53	4971
2026-01-09 11:42:29.28	229.05	9.80	-40.5	-43.7	13.5	9.90e-06	0	55	0	70254592	53	4976
2026-01-09 11:42:30.29	229.19	9.86	-40.6	-43.8	13.5	1.37e-05	0	55	0	72351744	53	4999
2026-01-09 11:42:31.30	229.33	9.92	-40.5	-43.8	13.5	1.22e-05	0	55	0	74448896	53	4984
2026-01-09 11:42:32.31	229.46	9.97	-40.6	-43.8	13.4	9.90e-06	0	55	0	75497472	53	5034
2026-01-09 11:42:33.32	229.60	10.03	-40.6	-43.8	13.4	1.14e-05	0	55	0	77594624	53	5040
2026-01-09 11:42:34.33	229.74	10.09	-40.6	-43.9	13.4	9.10e-06	0	55	0	79691776	53	5066
2026-01-09 11:42:35.33	229.88	10.15	-40.7	-44.0	13.3	1.44e-05	0	55	0	81788928	53	5126
2026-01-09 11:42:36.34	230.02	10.20	-40.7	-43.9	13.4	1.75e-05	0	55	0	82837504	53	5072
2026-01-09 11:42:37.35	230.16	10.26	-40.6	-43.9	13.4	1.67e-05	0	55	0	84934656	53	5054
2026-01-09 11:42:38.36	230.30	10.32	-40.6	-43.9	13.4	1.60e-05	0	55	0	87031808	53	5053
2026-01-09 11:42:39.37	230.44	10.38	-40.7	-43.9	13.4	6.80e-06	0	55	0	89128960	53	5083
2026-01-09 11:42:40.38	230.58	10.43	-40.6	-43.9	13.5	9.90e-06	0	55	0	91226112	53	5051
2026-01-09 11:42:41.39	230.72	10.49	-40.6	-43.7	13.6	9.90e-06	0	55	0	93323264	53	4979
2026-01-09 11:42:42.40	230.86	10.55	-40.6	-43.9	13.4	1.44e-05	0	55	0	94371840	53	5047
2026-01-09 11:42:43.41	231.01	10.61	-40.6	-43.7	13.6	8.30e-06	0	55	0	96468992	53	4977
2026-01-09 11:42:44.42	231.15	10.66	-40.5	-43.7	13.6	9.90e-06	0	55	0	98566144	53	4945
2026-01-09 11:42:45.43	231.30	10.72	-40.5	-43.7	13.6	6.80e-06	0	55	0	100663296	53	4953
2026-01-09 11:42:46.44	231.44	10.78	-40.6	-43.7	13.6	7.60e-06	0	55	0	102760448	53	4976
2026-01-09 11:42:47.45	231.59	10.84	-40.6	-43.8	13.5	9.90e-06	0	55	0	103809024	53	5023
2026-01-09 11:42:48.46	231.73	10.89	-40.6	-43.8	13.5	9.90e-06	0	55	0	105906176	53	5035
2026-01-09 11:42:49.47	231.88	10.95	-40.7	-43.9	13.4	1.22e-05	0	55	0	108003328	53	5091
2026-01-09 11:42:50.48	232.03	11.01	-40.6	-43.9	13.5	1.29e-05	0	55	0	110100480	53	5057
2026-01-09 11:42:51.49	232.17	11.07	-40.6	-43.9	13.5	1.22e-05	0	55	0	112197632	53	5054
2026-01-09 11:42:52.50	232.32	11.12	-40.6	-43.9	13.5	6.10e-06	0	55	0	113246208	53	5046
2026-01-09 11:42:53.51	232.47	11.18	-40.6	-43.8	13.6	1.37e-05	0	55	0	115343360	53	5016
2026-01-09 11:42:54.52	232.62	11.24	-40.6	-43.7	13.7	6.80e-06	0	55	0	117440512	53	4963
2026-01-09 11:42:55.53	232.77	11.30	-40.5	-43.6	13.7	3.00e-06	0	55	0	119537664	53	4916
2026-01-09 11:42:56.54	232.92	11.35	-40.5	-43.5	13.8	3.00e-06	0	55	0	121634816	52	5146
2026-01-09 11:42:57.55	233.07	11.41	-40.4	-43.5	13.9	2.20e-06	0	55	0	122683392	52	5108
2026-01-09 11:42:58.56	233.22	11.47	-40.4	-43.4	14.0	3.00e-06	0	55	0	124780544	52	5077
2026-01-09 11:42:59.57	233.38	11.52	-40.4	-43.4	14.0	7.00e-07	0	55	0	126877696	52	5080
2026-01-09 11:43:00.58	233.53	11.58	-40.5	-43.5	13.9	8.30e-06	0	55	0	128974848	52	5132
2026-01-09 11:43:01.59	233.68	11.64	-40.4	-43.5	13.9	3.00e-06	0	55	0	131072000	52	5127
2026-01-09 11:43:02.60	233.84	11.69	-40.5	-43.5	13.8	2.20e-06	0	55	0	133169152	52	5150
2026-01-09 11:43:03.61	233.99	11.75	-40.5	-43.5	13.9	3.80e-06	0	55	0	134217728	52	5131
2026-01-09 11:43:04.62	234.14	11.81	-40.4	-43.4	13.9	6.10e-06	0	55	0	136314880	52	5094
2026-01-09 11:43:05.63	234.30	11.86	-40.4	-43.5	13.9	4.50e-06	0	55	0	138412032	52	5114
2026-01-09 11:43:06.64	234.46	11.92	-40.4	-43.5	14.0	3.80e-06	0	55	0	140509184	52	5109
2026-01-09 11:43:07.65	234.61	11.98	-40.4	-43.4	14.0	3.80e-06	0	55	0	142606336	52	5072
2026-01-09 11:43:08.66	234.77	12.03	-40.4	-43.4	14.0	2.20e-06	0	56	0	143654912	52	5070
2026-01-09 11:43:09.66	234.93	12.09	-40.4	-43.4	14.0	3.00e-06	0	55	0	145752064	52	5064
2026-01-09 11:43:10.67	235.09	12.15	-40.4	-43.4	14.0	2.20e-06	0	55	0	147849216	52	5072
2026-01-09 11:43:11.68	235.25	12.20	-40.4	-43.4	14.0	1.50e-06	0	55	0	149946368	52	5083
2026-01-09 11:43:12.69	235.40	12.26	-40.4	-43.5	13.9	3.80e-06	0	55	0	150994944	52	5115
2026-01-09 11:43:13.70	235.57	12.32	-40.4	-43.4	14.0	3.80e-06	0	55	0	153092096	52	5099
2026-01-09 11:43:14.71	235.73	12.37	-40.4	-43.4	14.0	1.50e-06	0	55	0	155189248	52	5089
2026-01-09 11:43:15.72	235.89	12.43	-40.4	-43.3	14.1	6.10e-06	0	55	0	157286400	52	5033
2026-01-09 11:43:16.73	236.05	12.48	-40.3	-43.1	14.3	0.00e+00	0	55	0	159383552	52	4925
2026-01-09 11:43:17.74	236.21	12.54	-40.2	-43.0	14.4	7.00e-07	0	55	0	161480704	52	4863
2026-01-09 11:43:18.75	236.38	12.59	-40.2	-43.0	14.4	7.00e-07	0	56	0	162529280	52	4852
2026-01-09 11:43:19.76	236.54	12.65	-40.2	-43.0	14.5	7.00e-07	0	55	0	164626432	52	4849
2026-01-09 11:43:20.77	236.70	12.71	-40.1	-42.9	14.5	0.00e+00	0	55	0	166723584	52	4807
2026-01-09 11:43:21.78	236.87	12.76	-40.2	-43.0	14.5	0.00e+00	0	55	0	168820736	52	4830
2026-01-09 11:43:22.79	237.04	12.82	-40.1	-42.9	14.6	0.00e+00	0	55	0	170917888	52	4801
2026-01-09 11:43:23.80	237.20	12.87	-40.1	-42.9	14.6	0.00e+00	0	56	0	171966464	52	4785
2026-01-09 11:43:24.81	237.37	12.93	-40.1	-42.8	14.6	7.00e-07	0	55	0	174063616	52	4753
2026-01-09 11:43:25.82	237.54	12.98	-40.0	-42.8	14.7	0.00e+00	0	56	0	176160768	52	4716
2026-01-09 11:43:26.83	237.70	13.04	-40.0	-42.8	14.7	0.00e+00	0	55	0	178257920	52	4725
2026-01-09 11:43:27.83	237.87	13.09	-40.0	-42.7	14.8	0.00e+00	0	56	0	180355072	52	4692
2026-01-09 11:43:28.84	238.04	13.15	-40.0	-42.6	14.9	0.00e+00	0	56	0	181403648	51	4917
2026-01-09 11:43:29.85	238.21	13.20	-40.0	-42.6	14.9	7.00e-07	0	56	0	183500800	51	4915
2026-01-09 11:43:30.86	238.38	13.26	-39.9	-42.6	15.0	0.00e+00	0	55	0	185597952	51	4873
2026-01-09 11:43:31.87	238.55	13.31	-39.9	-42.5	15.1	7.00e-07	0	56	0	187695104	51	4824
2026-01-09 11:43:32.88	238.72	13.37	-39.9	-42.5	15.1	0.00e+00	0	56	0	189792256	51	4845
2026-01-09 11:43:33.89	238.90	13.42	-39.9	-42.5	15.0	0.00e+00	0	56	0	190840832	51	4867
2026-01-09 11:43:34.90	239.07	13.47	-39.9	-42.5	15.1	0.00e+00	0	56	0	192937984	51	4856
2026-01-09 11:43:35.91	239.24	13.53	-39.9	-42.6	15.0	0.00e+00	0	56	0	195035136	51	4876
2026-01-09 11:43:36.91	239.42	13.58	-39.9	-42.5	15.1	0.00e+00	0	56	0	197132288	51	4818
2026-01-09 11:43:37.92	239.59	13.63	-39.9	-42.5	15.1	0.00e+00	0	56	0	199229440	51	4821
2026-01-09 11:43:38.93	239.77	13.69	-39.8	-42.4	15.2	0.00e+00	0	56	0	200278016	51	4767
2026-01-09 11:43:39.94	239.94	13.74	-39.8	-42.4	15.2	7.00e-07	0	56	0	202375168	51	4769
2026-01-09 11:43:40.95	240.12	13.80	-39.8	-42.4	15.3	0.00e+00	0	56	0	204472320	51	4763
2026-01-09 11:43:41.96	240.30	13.85	-39.8	-42.3	15.3	0.00e+00	0	56	0	206569472	51	4745
2026-01-09 11:43:42.97	240.47	13.90	-39.7	-42.2	15.4	0.00e+00	0	56	0	208666624	51	4656
2026-01-09 11:43:43.98	240.65	13.95	-39.6	-42.1	15.5	0.00e+00	0	56	0	209715200	51	4609
2026-01-09 11:43:44.99	240.83	14.01	-39.6	-42.0	15.6	0.00e+00	0	56	0	211812352	51	4566
2026-01-09 11:43:45.99	241.01	14.06	-39.6	-42.1	15.6	0.00e+00	0	56	0	213909504	51	4604
2026-01-09 11:43:47.00	241.19	14.11	-39.6	-42.0	15.5	0.00e+00	0	56	0	216006656	51	4597
2026-01-09 11:43:48.01	241.37	14.16	-39.6	-42.1	15.5	0.00e+00	0	56	0	218103808	51	4621
2026-01-09 11:43:49.02	241.55	14.22	-39.7	-42.1	15.5	0.00e+00	0	56	0	219152384	51	4646
2026-01-09 11:43:50.03	241.74	14.27	-39.7	-42.2	15.4	0.00e+00	0	56	0	221249536	51	4698
2026-01-09 11:43:51.04	241.92	14.32	-39.7	-42.2	15.4	0.00e+00	0	56	0	223346688	51	4705
2026-01-09 11:43:52.05	242.10	14.37	-39.7	-42.2	15.4	0.00e+00	0	56	0	225443840	51	4700
2026-01-09 11:43:53.06	242.29	14.42	-39.7	-42.2	15.4	0.00e+00	0	56	0	227540992	51	4677
2026-01-09 11:43:54.07	242.47	14.48	-39.7	-42.2	15.5	0.00e+00	0	56	0	229638144	51	4662
2026-01-09 11:43:55.08	242.66	14.53	-39.6	-42.1	15.6	0.00e+00	0	56	0	230686720	51	4609
2026-01-09 11:43:56.09	242.84	14.58	-39.5	-41.9	15.7	0.00e+00	0	56	0	232783872	51	4531
2026-01-09 11:43:57.10	243.03	14.63	-39.6	-42.0	15.7	0.00e+00	0	56	0	234881024	51	4563
2026-01-09 11:43:58.11	243.22	14.68	-39.6	-42.0	15.6	0.00e+00	0	56	0	236978176	51	4591
2026-01-09 11:43:59.11	243.40	14.73	-39.7	-42.2	15.5	0.00e+00	0	56	0	239075328	51	4667
2026-01-09 11:44:00.12	243.59	14.78	-39.8	-42.3	15.4	0.00e+00	0	56	0	240123904	51	4720
2026-01-09 11:44:01.13	243.78	14.83	-39.8	-42.4	15.2	0.00e+00	0	56	0	242221056	51	4776
2026-01-09 11:44:02.14	243.97	14.88	-39.9	-42.4	15.2	0.00e+00	0	56	0	244318208	51	4810
2026-01-09 11:44:03.15	244.16	14.93	-39.9	-42.6	15.1	0.00e+00	0	56	0	246415360	51	4875
2026-01-09 11:44:04.16	244.35	14.98	-40.0	-42.6	15.1	0.00e+00	0	56	0	248512512	51	4883
2026-01-09 11:44:05.17	244.54	15.03	-40.0	-42.6	15.1	0.00e+00	0	56	0	249561088	51	4887
2026-01-09 11:44:06.18	244.74	15.08	-40.0	-42.5	15.1	0.00e+00	0	56	0	251658240	51	4868
2026-01-09 11:44:07.19	244.93	15.13	-40.0	-42.5	15.1	0.00e+00	0	56	0	253755392	51	4870
2026-01-09 11:44:08.20	245.12	15.18	-39.9	-42.5	15.1	0.00e+00	0	56	0	255852544	51	4861
2026-01-09 11:44:09.21	245.32	15.23	-40.0	-42.6	15.0	0.00e+00	0	56	0	257949696	51	4910
2026-01-09 11:44:10.22	245.51	15.27	-40.0	-42.7	15.0	0.00e+00	0	56	0	258998272	51	4949
2026-01-09 11:44:11.23	245.71	15.32	-40.2	-42.9	14.8	1.50e-06	0	56	0	261095424	51	5063
2026-01-09 11:44:12.24	245.90	15.37	-40.2	-43.0	14.7	1.50e-06	0	56	0	263192576	51	5101
2026-01-09 11:44:13.24	246.10	15.42	-40.3	-43.1	14.6	0.00e+00	0	56	0	265289728	51	5176
2026-01-09 11:44:14.25	246.29	15.47	-40.3	-43.2	14.5	0.00e+00	0	56	0	267386880	51	5227
2026-01-09 11:44:15.26	246.49	15.51	-40.3	-43.2	14.5	0.00e+00	0	56	0	268435456	51	5229
2026-01-09 11:44:16.27	246.69	15.56	-40.4	-43.2	14.4	7.00e-07	0	56	0	270532608	51	5259
2026-01-09 11:44:17.28	246.89	15.61	-40.4	-43.3	14.4	2.20e-06	0	56	0	272629760	51	5310
2026-01-09 11:44:18.29	247.09	15.65	-40.4	-43.3	14.3	0.00e+00	0	56	0	274726912	51	5311
2026-01-09 11:44:19.30	247.29	15.70	-40.5	-43.4	14.2	1.50e-06	0	56	0	276824064	51	5370
2026-01-09 11:44:20.31	247.49	15.75	-40.5	-43.4	14.2	0.00e+00	0	56	0	277872640	51	5374
2026-01-09 11:44:21.32	247.69	15.79	-40.5	-43.4	14.3	1.50e-06	0	56	0	279969792	51	5363
2026-01-09 11:44:22.33	247.89	15.84	-40.5	-43.4	14.3	1.50e-06	0	56	0	282066944	51	5368
2026-01-09 11:44:23.34	248.10	15.88	-40.5	-43.4	14.2	7.00e-07	0	56	0	284164096	51	5387
2026-01-09 11:44:24.35	248.30	15.93	-40.6	-43.5	14.1	0.00e+00	0	56	0	286261248	51	5446
2026-01-09 11:44:25.36	248.50	15.97	-40.6	-43.5	14.1	7.00e-07	0	56	0	287309824	51	5464
2026-01-09 11:44:26.37	248.71	16.02	-40.7	-43.7	14.0	0.00e+00	0	56	0	289406976	51	5580
2026-01-09 11:44:27.38	248.91	16.06	-40.6	-43.7	13.9	3.80e-06	0	56	0	291504128	52	5249
2026-01-09 11:44:28.39	249.12	16.11	-40.6	-43.7	13.9	3.00e-06	0	56	0	293601280	52	5240
2026-01-09 11:44:29.40	249.32	16.15	-40.7	-43.7	13.9	2.20e-06	0	56	0	295698432	52	5279
2026-01-09 11:44:30.41	249.53	16.19	-40.7	-43.8	13.8	1.50e-06	0	56	0	297795584	52	5295
2026-01-09 11:44:31.41	249.73	16.24	-40.7	-43.8	13.8	1.50e-06	0	56	0	298844160	52	5289
2026-01-09 11:44:32.42	249.94	16.28	-40.7	-43.8	13.7	4.50e-06	0	56	0	300941312	52	5322
2026-01-09 11:44:33.43	250.15	16.32	-40.7	-43.8	13.8	7.60e-06	0	56	0	303038464	52	5330
2026-01-09 11:44:34.44	250.36	16.36	-40.8	-43.9	13.6	5.30e-06	0	56	0	305135616	52	5398
2026-01-09 11:44:35.45	250.57	16.41	-40.9	-44.1	13.5	6.80e-06	0	56	0	307232768	52	5497
2026-01-09 11:44:36.46	250.78	16.45	-41.0	-44.2	13.3	1.90e-05	0	56	0	308281344	52	5588
2026-01-09 11:44:37.47	250.99	16.49	-41.0	-44.4	13.2	2.13e-05	0	56	0	310378496	52	5692
2026-01-09 11:44:38.48	251.20	16.53	-41.1	-44.4	13.1	2.59e-05	0	56	0	312475648	52	5711
2026-01-09 11:44:39.49	251.41	16.57	-41.1	-44.5	13.1	2.74e-05	0	56	0	314572800	52	5752
2026-01-09 11:44:40.50	251.63	16.61	-41.1	-44.5	13.1	3.50e-05	0	56	0	316669952	52	5748
2026-01-09 11:44:41.51	251.84	16.65	-41.1	-44.5	13.1	3.12e-05	0	56	0	317718528	52	5751
2026-01-09 11:44:42.52	252.05	16.69	-41.0	-44.3	13.2	2.67e-05	0	56	0	319815680	52	5655
2026-01-09 11:44:43.53	252.27	16.73	-40.8	-44.0	13.6	1.52e-05	0	56	0	321912832	52	5453
2026-01-09 11:44:44.54	252.48	16.77	-40.8	-44.0	13.6	1.14e-05	0	56	0	324009984	52	5419
2026-01-09 11:44:45.55	252.70	16.81	-40.8	-44.0	13.6	9.90e-06	0	56	0	326107136	52	5424
2026-01-09 11:44:46.56	252.91	16.85	-40.8	-43.9	13.7	8.30e-06	0	56	0	327155712	52	5370
2026-01-09 11:44:47.57	253.13	16.89	-40.7	-43.7	13.8	6.10e-06	0	56	0	329252864	52	5277
2026-01-09 11:44:48.58	253.34	16.93	-40.7	-43.7	13.9	6.10e-06	0	56	0	331350016	52	5244
2026-01-09 11:44:49.59	253.56	16.96	-40.7	-43.7	13.8	1.50e-06	0	56	0	333447168	52	5278
2026-01-09 11:44:50.59	253.78	17.00	-40.7	-43.8	13.8	6.80e-06	0	56	0	335544320	52	5286
2026-01-09 11:44:51.60	254.00	17.04	-40.7	-43.8	13.9	3.80e-06	0	56	0	336592896	52	5283
2026-01-09 11:44:52.61	254.21	17.08	-40.7	-43.8	13.8	4.50e-06	0	56	0	338690048	52	5300
2026-01-09 11:44:53.62	254.43	17.11	-40.7	-43.8	13.8	4.50e-06	0	56	0	340787200	52	5281
2026-01-09 11:44:54.63	254.65	17.15	-40.6	-43.6	14.0	1.50e-06	0	56	0	342884352	52	5168
2026-01-09 11:44:55.64	254.87	17.18	-40.4	-43.4	14.3	0.00e+00	0	56	0	344981504	52	5047
2026-01-09 11:44:56.65	255.09	17.22	-40.4	-43.2	14.4	1.50e-06	0	56	0	346030080	52	4960
2026-01-09 11:44:57.66	255.32	17.25	-40.3	-43.1	14.6	7.00e-07	0	56	0	348127232	52	4872
2026-01-09 11:44:58.67	255.54	17.29	-40.2	-43.0	14.7	0.00e+00	0	56	0	350224384	52	4817
2026-01-09 11:44:59.68	255.76	17.32	-40.1	-42.8	14.8	0.00e+00	0	56	0	352321536	52	4740
2026-01-09 11:45:00.69	255.98	17.36	-40.1	-42.8	14.8	7.00e-07	0	56	0	354418688	52	4738
2026-01-09 11:45:01.70	256.21	17.39	-40.1	-42.8	14.8	1.50e-06	0	56	0	355467264	52	4748
2026-01-09 11:45:02.71	256.43	17.42	-40.1	-42.8	14.8	0.00e+00	0	56	0	357564416	52	4739
2026-01-09 11:45:03.72	256.65	17.46	-40.1	-42.8	14.8	0.00e+00	0	56	0	359661568	52	4737
2026-01-09 11:45:04.73	256.88	17.49	-40.1	-42.8	14.8	0.00e+00	0	56	0	361758720	52	4727
2026-01-09 11:45:05.74	257.10	17.52	-40.1	-42.7	14.9	0.00e+00	0	56	0	363855872	52	4690
2026-01-09 11:45:06.74	257.33	17.55	-40.1	-42.8	14.8	0.00e+00	0	56	0	365953024	52	4719
2026-01-09 11:45:07.75	257.55	17.58	-40.1	-42.8	14.8	0.00e+00	0	56	0	367001600	52	4716
2026-01-09 11:45:08.76	257.78	17.61	-40.0	-42.7	14.9	7.00e-07	0	56	0	369098752	52	4668
2026-01-09 11:45:09.77	258.01	17.64	-40.0	-42.6	15.0	0.00e+00	0	56	0	371195904	52	4647
2026-01-09 11:45:10.78	258.23	17.67	-40.1	-42.7	14.9	7.00e-07	0	56	0	373293056	52	4690
2026-01-09 11:45:11.79	258.46	17.70	-40.1	-42.7	14.9	7.00e-07	0	56	0	375390208	52	4702
2026-01-09 11:45:12.80	258.69	17.73	-40.1	-42.8	14.8	0.00e+00	0	56	0	376438784	52	4750
2026-01-09 11:45:13.81	258.92	17.76	-40.2	-42.9	14.7	0.00e+00	0	56	0	378535936	52	4806
2026-01-09 11:45:14.82	259.15	17.79	-40.3	-43.0	14.6	7.00e-07	0	56	0	380633088	52	4870
2026-01-09 11:45:15.83	259.38	17.82	-40.3	-43.1	14.6	0.00e+00	0	56	0	382730240	52	4893
2026-01-09 11:45:16.84	259.61	17.85	-40.3	-43.1	14.5	7.00e-07	0	56	0	383778816	52	4924
2026-01-09 11:45:17.85	259.84	17.87	-40.3	-43.1	14.5	0.00e+00	0	56	0	385875968	52	4907
2026-01-09 11:45:18.86	260.07	17.90	-40.3	-43.2	14.5	0.00e+00	0	56	0	387973120	52	4941
2026-01-09 11:45:19.87	260.30	17.93	-40.3	-43.1	14.5	7.00e-07	0	56	0	390070272	52	4915
2026-01-09 11:45:20.88	260.53	17.95	-40.3	-43.1	14.6	7.00e-07	0	56	0	392167424	52	4873
2026-01-09 11:45:21.89	260.76	17.98	-40.2	-43.0	14.6	0.00e+00	0	56	0	394264576	52	4838
2026-01-09 11:45:22.89	260.99	18.00	-40.2	-42.9	14.7	0.00e+00	0	56	0	395313152	52	4808
2026-01-09 11:45:23.90	261.23	18.03	-40.2	-42.9	14.7	0.00e+00	0	56	0	397410304	52	4774
2026-01-09 11:45:24.91	261.46	18.05	-40.1	-42.8	14.8	0.00e+00	0	56	0	399507456	52	4758
2026-01-09 11:45:25.92	261.69	18.08	-40.1	-42.8	14.7	0.00e+00	0	56	0	401604608	52	4758
2026-01-09 11:45:26.93	261.93	18.10	-40.2	-42.9	14.7	1.50e-06	0	56	0	403701760	52	4790
2026-01-09 11:45:27.94	262.16	18.12	-40.3	-43.0	14.6	7.00e-07	0	56	0	404750336	52	4863
2026-01-09 11:45:28.95	262.39	18.14	-40.3	-43.1	14.6	0.00e+00	0	56	0	406847488	52	4875
2026-01-09 11:45:29.96	262.63	18.17	-40.3	-43.1	14.5	0.00e+00	0	56	0	408944640	52	4904
2026-01-09 11:45:30.97	262.86	18.19	-40.3	-43.2	14.5	7.00e-07	0	56	0	411041792	52	4938
2026-01-09 11:45:31.98	263.10	18.21	-40.3	-43.2	14.5	7.00e-07	0	56	0	413138944	52	4932
2026-01-09 11:45:32.99	263.34	18.23	-40.3	-43.0	14.6	0.00e+00	0	56	0	414187520	52	4858
2026-01-09 11:45:33.99	263.57	18.25	-40.2	-43.0	14.7	0.00e+00	0	56	0	416284672	52	4825
2026-01-09 11:45:35.00	263.80	18.27	-40.3	-43.1	14.6	7.00e-07	0	56	0	418381824	52	4873
2026-01-09 11:45:36.01	264.04	18.29	-40.2	-43.0	14.7	0.00e+00	0	56	0	420478976	52	4822
2026-01-09 11:45:37.02	264.28	18.31	-40.2	-43.0	14.7	0.00e+00	0	56	0	422576128	52	4816
2026-01-09 11:45:38.03	264.52	18.33	-40.3	-43.0	14.6	0.00e+00	0	56	0	423624704	52	4863
2026-01-09 11:45:39.04	264.75	18.34	-40.2	-43.0	14.6	1.50e-06	0	56	0	425721856	52	4852
2026-01-09 11:45:40.05	264.99	18.36	-40.2	-43.0	14.7	0.00e+00	0	56	0	427819008	52	4827
2026-01-09 11:45:41.06	265.23	18.38	-40.2	-43.0	14.6	0.00e+00	0	56	0	429916160	52	4824
2026-01-09 11:45:42.07	265.47	18.39	-40.2	-42.9	14.7	0.00e+00	0	56	0	432013312	52	4814
2026-01-09 11:45:43.08	265.70	18.41	-40.2	-42.9	14.7	0.00e+00	0	56	0	433061888	52	4787
2026-01-09 11:45:44.09	265.94	18.43	-40.1	-42.8	14.8	7.00e-07	0	56	0	435159040	52	4752
2026-01-09 11:45:45.10	266.18	18.44	-40.1	-42.8	14.8	0.00e+00	0	56	0	437256192	52	4757
2026-01-09 11:45:46.11	266.42	18.46	-40.1	-42.8	14.8	0.00e+00	0	56	0	439353344	52	4750
2026-01-09 11:45:47.11	266.66	18.47	-40.2	-42.9	14.8	0.00e+00	0	57	0	441450496	52	4770
2026-01-09 11:45:48.13	266.90	18.48	-40.3	-43.1	14.6	7.00e-07	0	56	0	442499072	52	4878
2026-01-09 11:45:49.13	267.14	18.50	-40.3	-43.2	14.5	2.20e-06	0	56	0	444596224	52	4945
2026-01-09 11:45:50.14	267.38	18.51	-40.4	-43.2	14.4	7.00e-07	0	56	0	446693376	52	4953
2026-01-09 11:45:51.15	267.62	18.52	-40.4	-43.3	14.4	0.00e+00	0	56	0	448790528	52	5001
2026-01-09 11:45:52.16	267.86	18.53	-40.4	-43.2	14.4	0.00e+00	0	56	0	450887680	52	4960
2026-01-09 11:45:53.17	268.10	18.54	-40.3	-43.1	14.5	7.00e-07	0	56	0	451936256	52	4895
2026-01-09 11:45:54.18	268.34	18.56	-40.3	-43.1	14.6	0.00e+00	0	56	0	454033408	52	4871
2026-01-09 11:45:55.19	268.58	18.57	-40.3	-43.0	14.6	7.00e-07	0	56	0	456130560	52	4853
2026-01-09 11:45:56.20	268.82	18.58	-40.3	-43.2	14.5	0.00e+00	0	56	0	458227712	52	4929
2026-01-09 11:45:57.21	269.06	18.58	-40.3	-43.1	14.6	1.50e-06	0	56	0	460324864	52	4878
2026-01-09 11:45:58.22	269.30	18.59	-40.3	-43.1	14.5	7.00e-07	0	56	0	462422016	52	4914
2026-01-09 11:45:59.23	269.54	18.60	-40.4	-43.3	14.4	7.00e-07	0	56	0	463470592	52	4988
2026-01-09 11:46:00.24	269.79	18.61	-40.4	-43.4	14.3	1.50e-06	0	57	0	465567744	52	5043
2026-01-09 11:46:01.25	270.03	18.62	-40.5	-43.5	14.1	7.00e-07	0	56	0	467664896	52	5140
2026-01-09 11:46:02.26	270.27	18.62	-40.6	-43.6	14.1	7.00e-07	0	57	0	469762048	52	5167
2026-01-09 11:46:03.27	270.51	18.63	-40.7	-43.8	13.9	2.20e-06	0	57	0	471859200	52	5298
2026-01-09 11:46:04.28	270.75	18.64	-40.7	-43.8	13.8	3.80e-06	0	56	0	472907776	52	5288
2026-01-09 11:46:05.29	270.99	18.64	-40.6	-43.6	14.0	2.20e-06	0	56	0	475004928	52	5204
2026-01-09 11:46:06.30	271.24	18.65	-40.5	-43.5	14.2	5.30e-06	0	56	0	477102080	52	5115
2026-01-09 11:46:07.31	271.48	18.65	-40.4	-43.3	14.3	2.20e-06	0	57	0	479199232	52	5013
2026-01-09 11:46:08.31	271.72	18.65	-40.3	-43.2	14.5	0.00e+00	0	57	0	481296384	52	4939
2026-01-09 11:46:09.32	271.96	18.66	-40.3	-43.0	14.6	0.00e+00	0	56	0	482344960	52	4869
2026-01-09 11:46:10.33	272.20	18.66	-40.2	-43.0	14.6	0.00e+00	0	56	0	484442112	52	4829
2026-01-09 11:46:11.34	272.44	18.66	-40.3	-43.1	14.6	0.00e+00	0	57	0	486539264	52	4876
2026-01-09 11:46:12.35	272.69	18.67	-40.3	-43.2	14.5	0.00e+00	0	57	0	488636416	52	4927
2026-01-09 11:46:13.36	272.93	18.67	-40.4	-43.3	14.4	7.00e-07	0	57	0	490733568	52	4991
2026-01-09 11:46:14.37	273.17	18.67	-40.6	-43.5	14.1	1.50e-06	0	57	0	491782144	52	5155
2026-01-09 11:46:15.38	273.41	18.67	-40.6	-43.6	14.0	1.50e-06	0	57	0	493879296	52	5195
2026-01-09 11:46:16.39	273.66	18.67	-40.8	-43.9	13.8	6.10e-06	0	57	0	495976448	52	5353
2026-01-09 11:46:17.40	273.90	18.67	-40.7	-43.8	13.8	4.50e-06	0	57	0	498073600	52	5305
2026-01-09 11:46:18.41	274.14	18.67	-40.7	-43.8	13.9	2.20e-06	0	57	0	500170752	52	5295
2026-01-09 11:46:19.42	274.38	18.66	-40.6	-43.6	14.0	1.50e-06	0	57	0	501219328	52	5211
2026-01-09 11:46:20.43	274.63	18.66	-40.5	-43.5	14.2	3.80e-06	0	57	0	503316480	52	5119
2026-01-09 11:46:21.44	274.87	18.66	-40.5	-43.4	14.3	1.50e-06	0	57	0	505413632	52	5055
2026-01-09 11:46:22.45	275.11	18.66	-40.5	-43.4	14.2	1.50e-06	0	56	0	507510784	52	5075
2026-01-09 11:46:23.46	275.35	18.65	-40.5	-43.4	14.2	2.20e-06	0	57	0	509607936	52	5091
2026-01-09 11:46:24.47	275.59	18.65	-40.5	-43.5	14.1	3.00e-06	0	56	0	510656512	52	5148
2026-01-09 11:46:25.48	275.84	18.64	-40.5	-43.5	14.1	3.00e-06	0	57	0	512753664	52	5136
2026-01-09 11:46:26.49	276.08	18.64	-40.5	-43.5	14.1	4.50e-06	0	56	0	514850816	52	5111
2026-01-09 11:46:27.49	276.32	18.63	-40.5	-43.4	14.2	7.00e-07	0	56	0	516947968	52	5064
2026-01-09 11:46:28.50	276.56	18.63	-40.4	-43.3	14.3	7.00e-07	0	56	0	519045120	52	4999
2026-01-09 11:46:29.51	276.80	18.62	-40.5	-43.4	14.2	1.50e-06	0	56	0	520093696	52	5059
2026-01-09 11:46:30.52	277.04	18.61	-40.4	-43.3	14.3	0.00e+00	0	56	0	522190848	52	5040
2026-01-09 11:46:31.53	277.28	18.61	-40.4	-43.4	14.3	7.00e-07	0	57	0	524288000	52	5044
2026-01-09 11:46:32.54	277.52	18.60	-40.4	-43.3	14.3	1.50e-06	0	56	0	526385152	52	5014
2026-01-09 11:46:33.55	277.76	18.59	-40.3	-43.2	14.4	1.50e-06	0	56	0	528482304	52	4945
2026-01-09 11:46:34.56	278.01	18.58	-40.3	-43.2	14.4	2.20e-06	0	57	0	530579456	52	4944
2026-01-09 11:46:35.57	278.25	18.57	-40.3	-43.1	14.5	0.00e+00	0	56	0	531628032	52	4908
2026-01-09 11:46:36.58	278.49	18.56	-40.2	-43.0	14.6	7.00e-07	0	57	0	533725184	52	4870
2026-01-09 11:46:37.59	278.73	18.55	-40.3	-43.1	14.5	7.00e-07	0	57	0	535822336	52	4922
2026-01-09 11:46:38.60	278.97	18.54	-40.3	-43.1	14.5	0.00e+00	0	57	0	537919488	52	4913
2026-01-09 11:46:39.61	279.21	18.53	-40.3	-43.1	14.5	1.50e-06	0	57	0	540016640	52	4914
2026-01-09 11:46:40.62	279.45	18.52	-40.3	-43.1	14.5	0.00e+00	0	57	0	541065216	52	4886
2026-01-09 11:46:41.62	279.69	18.50	-40.3	-43.1	14.5	0.00e+00	0	56	0	543162368	52	4889
2026-01-09 11:46:42.64	279.93	18.49	-40.3	-43.1	14.5	7.00e-07	0	57	0	545259520	52	4888
2026-01-09 11:46:43.64	280.16	18.48	-40.3	-43.1	14.5	0.00e+00	0	57	0	547356672	52	4880
2026-01-09 11:46:44.66	280.41	18.46	-40.3	-43.1	14.5	0.00e+00	0	57	0	549453824	52	4889
2026-01-09 11:46:45.66	280.64	18.45	-40.4	-43.3	14.3	7.00e-07	0	57	0	550502400	52	4999
2026-01-09 11:46:46.68	280.88	18.44	-40.4	-43.3	14.3	1.50e-06	0	56	0	552599552	52	4999
2026-01-09 11:46:47.69	281.12	18.42	-40.5	-43.4	14.2	0.00e+00	0	57	0	554696704	52	5087
2026-01-09 11:46:48.69	281.36	18.40	-40.5	-43.5	14.1	1.50e-06	0	56	0	556793856	52	5122
2026-01-09 11:46:49.70	281.59	18.39	-40.5	-43.5	14.1	7.00e-07	0	57	0	558891008	52	5125
2026-01-09 11:46:50.71	281.83	18.37	-40.4	-43.4	14.2	2.20e-06	0	57	0	559939584	52	5047
2026-01-09 11:46:51.72	282.07	18.35	-40.3	-43.2	14.4	0.00e+00	0	56	0	562036736	52	4955
2026-01-09 11:46:52.73	282.31	18.34	-40.3	-43.1	14.5	2.20e-06	0	57	0	564133888	52	4904
2026-01-09 11:46:53.74	282.54	18.32	-40.1	-42.8	14.8	0.00e+00	0	57	0	566231040	52	4748
2026-01-09 11:46:54.75	282.78	18.30	-40.0	-42.7	14.9	0.00e+00	0	57	0	568328192	52	4685
2026-01-09 11:46:55.76	283.02	18.28	-40.0	-42.7	15.0	0.00e+00	0	57	0	569376768	51	4945
2026-01-09 11:46:56.77	283.25	18.26	-40.1	-42.7	15.0	0.00e+00	0	57	0	571473920	51	4950
2026-01-09 11:46:57.78	283.49	18.24	-40.1	-42.7	15.0	0.00e+00	0	56	0	573571072	51	4961
2026-01-09 11:46:58.79	283.72	18.22	-40.1	-42.8	14.9	0.00e+00	0	56	0	575668224	51	5000
2026-01-09 11:46:59.80	283.96	18.20	-40.2	-42.9	14.8	7.00e-07	0	57	0	577765376	51	5094
2026-01-09 11:47:00.80	284.19	18.18	-40.2	-42.9	14.8	0.00e+00	0	57	0	578813952	51	5061
2026-01-09 11:47:01.81	284.43	18.16	-40.1	-42.8	14.8	0.00e+00	0	57	0	580911104	51	5034
2026-01-09 11:47:02.82	284.66	18.14	-40.2	-42.9	14.8	0.00e+00	0	57	0	583008256	51	5062
2026-01-09 11:47:03.83	284.89	18.11	-40.2	-42.9	14.8	0.00e+00	0	57	0	585105408	51	5060
2026-01-09 11:47:04.84	285.13	18.09	-40.2	-42.9	14.8	0.00e+00	0	56	0	587202560	51	5043
2026-01-09 11:47:05.85	285.36	18.07	-40.2	-42.9	14.8	0.00e+00	0	56	0	588251136	51	5046
2026-01-09 11:47:06.86	285.59	18.04	-40.1	-42.7	14.9	0.00e+00	0	57	0	590348288	51	4976
2026-01-09 11:47:07.87	285.82	18.02	-40.0	-42.6	15.0	0.00e+00	0	57	0	592445440	51	4919
2026-01-09 11:47:08.88	286.06	17.99	-40.0	-42.5	15.1	0.00e+00	0	57	0	594542592	51	4868
2026-01-09 11:47:09.89	286.29	17.97	-39.9	-42.4	15.3	7.00e-07	0	56	0	596639744	51	4789
2026-01-09 11:47:10.90	286.52	17.94	-39.7	-42.2	15.5	0.00e+00	0	57	0	598736896	51	4677
2026-01-09 11:47:11.91	286.75	17.92	-39.7	-42.2	15.5	0.00e+00	0	56	0	599785472	51	4665
2026-01-09 11:47:12.92	286.98	17.89	-39.7	-42.2	15.5	0.00e+00	0	57	0	601882624	51	4657
2026-01-09 11:47:13.93	287.21	17.86	-39.7	-42.1	15.5	0.00e+00	0	56	0	603979776	51	4644
2026-01-09 11:47:14.94	287.44	17.84	-39.7	-42.1	15.6	0.00e+00	0	57	0	606076928	51	4636
2026-01-09 11:47:15.95	287.67	17.81	-39.7	-42.1	15.6	0.00e+00	0	57	0	608174080	51	4634
2026-01-09 11:47:16.96	287.90	17.78	-39.6	-42.1	15.6	0.00e+00	0	57	0	609222656	51	4615
2026-01-09 11:47:17.97	288.13	17.75	-39.6	-42.1	15.6	0.00e+00	0	57	0	611319808	51	4618
2026-01-09 11:47:18.98	288.35	17.72	-39.7	-42.2	15.5	0.00e+00	0	57	0	613416960	51	4669
2026-01-09 11:47:19.99	288.58	17.70	-39.7	-42.2	15.4	0.00e+00	0	57	0	615514112	51	4699
2026-01-09 11:47:21.00	288.81	17.67	-39.8	-42.4	15.3	0.00e+00	0	57	0	617611264	51	4773
2026-01-09 11:47:22.01	289.03	17.64	-39.9	-42.4	15.2	0.00e+00	0	56	0	618659840	51	4802
2026-01-09 11:47:23.02	289.26	17.60	-39.9	-42.5	15.1	0.00e+00	0	57	0	620756992	51	4844
2026-01-09 11:47:24.03	289.49	17.57	-39.9	-42.5	15.2	0.00e+00	0	57	0	622854144	51	4827
2026-01-09 11:47:25.04	289.71	17.54	-39.9	-42.6	15.1	0.00e+00	0	57	0	624951296	51	4874
2026-01-09 11:47:26.05	289.94	17.51	-39.9	-42.5	15.1	0.00e+00	0	57	0	627048448	51	4852
2026-01-09 11:47:27.06	290.16	17.48	-39.9	-42.4	15.2	0.00e+00	0	57	0	628097024	51	4794
2026-01-09 11:47:28.07	290.38	17.45	-39.8	-42.3	15.3	0.00e+00	0	57	0	630194176	51	4737
2026-01-09 11:47:29.08	290.61	17.41	-39.8	-42.3	15.4	0.00e+00	0	56	0	632291328	51	4725
2026-01-09 11:47:30.09	290.83	17.38	-39.7	-42.2	15.5	0.00e+00	0	57	0	634388480	51	4670
2026-01-09 11:47:31.10	291.05	17.35	-39.6	-42.0	15.6	0.00e+00	0	57	0	636485632	51	4584
2026-01-09 11:47:32.11	291.27	17.31	-39.6	-42.0	15.7	0.00e+00	0	57	0	637534208	51	4567
2026-01-09 11:47:33.12	291.49	17.28	-39.5	-41.9	15.8	0.00e+00	0	57	0	639631360	51	4508
2026-01-09 11:47:34.13	291.72	17.25	-39.4	-41.7	15.9	0.00e+00	0	56	0	641728512	50	4684
2026-01-09 11:47:35.13	291.93	17.21	-39.3	-41.6	16.0	0.00e+00	0	57	0	643825664	50	4645
2026-01-09 11:47:36.14	292.15	17.18	-39.3	-41.6	16.1	0.00e+00	0	56	0	645922816	50	4600
2026-01-09 11:47:37.15	292.37	17.14	-39.2	-41.4	16.2	0.00e+00	0	56	0	646971392	50	4543
2026-01-09 11:47:38.16	292.59	17.10	-39.2	-41.4	16.1	0.00e+00	0	57	0	649068544	50	4544
2026-01-09 11:47:39.17	292.81	17.07	-39.2	-41.5	16.1	0.00e+00	0	57	0	651165696	50	4572
2026-01-09 11:47:40.18	293.03	17.03	-39.3	-41.6	16.1	0.00e+00	0	57	0	653262848	50	4621
2026-01-09 11:47:41.19	293.25	16.99	-39.4	-41.7	15.9	0.00e+00	0	57	0	655360000	50	4696
2026-01-09 11:47:42.21	293.46	16.96	-39.4	-41.8	15.9	0.00e+00	0	56	0	656408576	50	4727
2026-01-09 11:47:43.21	293.68	16.92	-39.4	-41.8	15.8	0.00e+00	0	57	0	658505728	50	4743
2026-01-09 11:47:44.22	293.89	16.88	-39.4	-41.8	15.8	0.00e+00	0	57	0	660602880	50	4747
2026-01-09 11:47:45.23	294.11	16.84	-39.4	-41.7	15.9	0.00e+00	0	57	0	662700032	50	4690
2026-01-09 11:47:46.24	294.32	16.80	-39.4	-41.7	15.9	0.00e+00	0	57	0	664797184	50	4698
2026-01-09 11:47:47.25	294.54	16.77	-39.3	-41.6	16.0	0.00e+00	0	57	0	666894336	50	4617
2026-01-09 11:47:48.26	294.75	16.73	-39.2	-41.5	16.2	0.00e+00	0	57	0	667942912	50	4556
2026-01-09 11:47:49.27	294.96	16.69	-39.1	-41.4	16.3	0.00e+00	0	57	0	670040064	50	4523
2026-01-09 11:47:50.28	295.18	16.65	-39.1	-41.3	16.3	0.00e+00	0	57	0	672137216	50	4492
2026-01-09 11:47:51.29	295.39	16.61	-39.1	-41.3	16.4	0.00e+00	0	57	0	674234368	50	4466
2026-01-09 11:47:52.30	295.60	16.57	-39.0	-41.1	16.5	0.00e+00	0	57	0	676331520	49	4647
2026-01-09 11:47:53.31	295.81	16.53	-38.9	-41.1	16.5	0.00e+00	0	57	0	677380096	49	4624
2026-01-09 11:47:54.32	296.02	16.48	-38.9	-41.1	16.5	0.00e+00	0	56	0	679477248	49	4600
2026-01-09 11:47:55.33	296.23	16.44	-39.0	-41.2	16.4	0.00e+00	0	57	0	681574400	49	4690
2026-01-09 11:47:56.34	296.44	16.40	-39.1	-41.4	16.2	0.00e+00	0	57	0	683671552	49	4764
2026-01-09 11:47:57.34	296.65	16.36	-39.3	-41.6	16.0	0.00e+00	0	57	0	685768704	49	4913
2026-01-09 11:47:58.35	296.85	16.32	-39.4	-41.8	15.8	0.00e+00	0	57	0	686817280	49	5015
2026-01-09 11:47:59.36	297.06	16.27	-39.5	-41.9	15.7	0.00e+00	0	57	0	688914432	49	5067
2026-01-09 11:48:00.37	297.27	16.23	-39.4	-41.9	15.7	0.00e+00	0	57	0	691011584	49	5048
2026-01-09 11:48:01.38	297.47	16.19	-39.4	-41.8	15.8	0.00e+00	0	57	0	693108736	49	5027
2026-01-09 11:48:02.39	297.68	16.15	-39.4	-41.7	15.9	0.00e+00	0	57	0	695205888	49	4982
2026-01-09 11:48:03.40	297.88	16.10	-39.3	-41.7	15.9	0.00e+00	0	57	0	696254464	49	4945
2026-01-09 11:48:04.41	298.09	16.06	-39.3	-41.7	15.9	0.00e+00	0	57	0	698351616	49	4967
2026-01-09 11:48:05.42	298.29	16.01	-39.4	-41.7	15.9	0.00e+00	0	57	0	700448768	49	4959
2026-01-09 11:48:06.43	298.50	15.97	-39.3	-41.7	15.9	0.00e+00	0	57	0	702545920	49	4944
2026-01-09 11:48:07.44	298.70	15.93	-39.4	-41.7	15.9	0.00e+00	0	57	0	704643072	49	4971
2026-01-09 11:48:08.45	298.90	15.88	-39.3	-41.7	15.9	0.00e+00	0	57	0	705691648	49	4949
2026-01-09 11:48:09.46	299.10	15.84	-39.3	-41.6	16.0	0.00e+00	0	57	0	707788800	49	4915
2026-01-09 11:48:10.46	299.30	15.79	-39.3	-41.6	16.0	0.00e+00	0	57	0	709885952	49	4879
2026-01-09 11:48:11.48	299.50	15.74	-39.3	-41.6	16.0	0.00e+00	0	57	0	711983104	49	4887
2026-01-09 11:48:12.49	299.70	15.70	-39.4	-41.8	15.8	0.00e+00	0	57	0	714080256	49	4984
2026-01-09 11:48:13.50	299.90	15.65	-39.5	-42.0	15.6	0.00e+00	0	57	0	715128832	49	5103
2026-01-09 11:48:14.50	300.10	15.61	-39.8	-42.3	15.3	0.00e+00	0	57	0	717225984	50	5032
2026-01-09 11:48:15.51	300.30	15.56	-40.0	-42.6	15.0	0.00e+00	0	57	0	719323136	50	5208
2026-01-09 11:48:16.52	300.49	15.51	-40.2	-43.0	14.6	0.00e+00	0	57	0	721420288	50	5413
2026-01-09 11:48:17.53	300.69	15.47	-40.3	-43.2	14.3	0.00e+00	0	57	0	723517440	51	5261
2026-01-09 11:48:18.54	300.88	15.42	-40.5	-43.4	14.1	7.00e-07	0	57	0	724566016	51	5384
2026-01-09 11:48:19.55	301.08	15.37	-40.5	-43.6	14.0	1.50e-06	0	57	0	726663168	51	5465
2026-01-09 11:48:20.56	301.28	15.32	-40.6	-43.7	13.9	5.30e-06	0	57	0	728760320	51	5535
2026-01-09 11:48:21.57	301.47	15.28	-40.6	-43.7	13.9	4.50e-06	0	57	0	730857472	51	5558
2026-01-09 11:48:22.58	301.66	15.23	-40.7	-43.8	13.8	3.80e-06	0	57	0	732954624	51	5616
2026-01-09 11:48:23.59	301.86	15.18	-40.6	-43.7	13.8	8.30e-06	0	57	0	734003200	52	5258
2026-01-09 11:48:24.60	302.05	15.13	-40.6	-43.7	13.7	4.50e-06	0	57	0	736100352	52	5275
2026-01-09 11:48:25.61	302.24	15.08	-40.6	-43.8	13.7	6.10e-06	0	57	0	738197504	52	5284
2026-01-09 11:48:26.62	302.43	15.03	-40.6	-43.6	13.8	2.20e-06	0	57	0	740294656	52	5215
2026-01-09 11:48:27.63	302.62	14.98	-40.5	-43.6	13.9	4.50e-06	0	57	0	742391808	52	5160
2026-01-09 11:48:28.64	302.81	14.94	-40.4	-43.4	14.1	1.50e-06	0	57	0	743440384	52	5074
2026-01-09 11:48:29.65	303.00	14.89	-40.4	-43.3	14.1	7.00e-07	0	57	0	745537536	52	5036
2026-01-09 11:48:30.66	303.19	14.84	-40.3	-43.2	14.3	1.50e-06	0	57	0	747634688	52	4965
2026-01-09 11:48:31.67	303.38	14.79	-40.3	-43.2	14.3	3.00e-06	0	57	0	749731840	52	4928
2026-01-09 11:48:32.68	303.56	14.74	-40.3	-43.3	14.2	7.00e-07	0	57	0	751828992	52	4999
2026-01-09 11:48:33.69	303.75	14.69	-40.4	-43.3	14.1	0.00e+00	0	57	0	752877568	52	5030
2026-01-09 11:48:34.70	303.94	14.64	-40.5	-43.5	13.9	3.80e-06	0	57	0	754974720	52	5147
2026-01-09 11:48:35.70	304.12	14.59	-40.5	-43.6	13.9	2.20e-06	0	57	0	757071872	52	5187
2026-01-09 11:48:36.71	304.31	14.53	-40.6	-43.7	13.7	4.50e-06	0	57	0	759169024	52	5259
2026-01-09 11:48:37.72	304.49	14.48	-40.7	-43.8	13.6	3.00e-06	0	57	0	761266176	52	5321
2026-01-09 11:48:38.73	304.67	14.43	-40.7	-43.9	13.5	5.30e-06	0	57	0	763363328	52	5376
2026-01-09 11:48:39.74	304.86	14.38	-40.8	-44.0	13.4	1.29e-05	0	57	0	764411904	52	5441
2026-01-09 11:48:40.75	305.04	14.33	-40.8	-44.0	13.4	1.52e-05	0	57	0	766509056	52	5457
2026-01-09 11:48:41.76	305.22	14.28	-40.8	-44.1	13.3	2.13e-05	0	57	0	768606208	52	5505
2026-01-09 11:48:42.77	305.40	14.23	-40.9	-44.2	13.3	2.05e-05	0	57	0	770703360	52	5545
2026-01-09 11:48:43.78	305.58	14.18	-40.9	-44.3	13.1	1.37e-05	0	57	0	772800512	52	5615
2026-01-09 11:48:44.79	305.76	14.12	-41.0	-44.4	13.0	3.35e-05	0	57	0	773849088	52	5698
2026-01-09 11:48:45.80	305.94	14.07	-41.0	-44.4	13.1	3.66e-05	0	57	0	775946240	52	5660
2026-01-09 11:48:46.81	306.12	14.02	-40.9	-44.3	13.1	3.05e-05	0	57	0	778043392	52	5637
2026-01-09 11:48:47.82	306.30	13.97	-40.8	-44.1	13.2	2.51e-05	0	57	0	780140544	52	5523
2026-01-09 11:48:48.83	306.48	13.91	-40.8	-44.0	13.4	1.83e-05	0	57	0	782237696	52	5452
2026-01-09 11:48:49.84	306.65	13.86	-40.7	-43.9	13.6	9.10e-06	0	57	0	783286272	52	5357
2026-01-09 11:48:50.85	306.83	13.81	-40.7	-43.8	13.6	6.80e-06	0	57	0	785383424	52	5331
2026-01-09 11:48:51.86	307.01	13.76	-40.7	-43.8	13.6	6.80e-06	0	57	0	787480576	52	5335
2026-01-09 11:48:52.87	307.18	13.70	-40.6	-43.8	13.6	8.30e-06	0	57	0	789577728	52	5308
2026-01-09 11:48:53.87	307.35	13.65	-40.7	-43.8	13.6	9.10e-06	0	57	0	791674880	52	5338
2026-01-09 11:48:54.88	307.53	13.60	-40.6	-43.8	13.7	9.10e-06	0	57	0	792723456	52	5281
2026-01-09 11:48:55.89	307.70	13.54	-40.6	-43.7	13.7	4.50e-06	0	57	0	794820608	52	5253
2026-01-09 11:48:56.90	307.87	13.49	-40.5	-43.6	13.9	6.10e-06	0	57	0	796917760	52	5175
2026-01-09 11:48:57.91	308.05	13.44	-40.4	-43.4	14.0	3.00e-06	0	57	0	799014912	52	5063
2026-01-09 11:48:58.92	308.22	13.38	-40.3	-43.2	14.2	1.50e-06	0	57	0	801112064	52	4976
2026-01-09 11:48:59.93	308.39	13.33	-40.2	-43.0	14.5	2.20e-06	0	57	0	802160640	52	4835
2026-01-09 11:49:00.94	308.56	13.27	-40.1	-42.9	14.5	7.00e-07	0	57	0	804257792	52	4798
2026-01-09 11:49:01.95	308.73	13.22	-40.1	-42.9	14.6	0.00e+00	0	57	0	806354944	52	4773
2026-01-09 11:49:02.96	308.90	13.17	-40.0	-42.8	14.6	0.00e+00	0	57	0	808452096	52	4741
2026-01-09 11:49:03.97	309.07	13.11	-40.1	-42.9	14.5	0.00e+00	0	57	0	810549248	52	4780
2026-01-09 11:49:04.98	309.23	13.06	-40.1	-42.9	14.6	0.00e+00	0	57	0	811597824	52	4767
2026-01-09 11:49:05.99	309.40	13.00	-40.2	-43.0	14.4	0.00e+00	0	57	0	813694976	52	4850
2026-01-09 11:49:07.00	309.57	12.95	-40.2	-43.1	14.3	7.00e-07	0	57	0	815792128	52	4886
2026-01-09 11:49:08.01	309.73	12.89	-40.2	-43.1	14.3	7.00e-07	0	57	0	817889280	52	4908
2026-01-09 11:49:09.02	309.90	12.84	-40.4	-43.4	14.0	3.00e-06	0	57	0	819986432	52	5086
2026-01-09 11:49:10.03	310.06	12.78	-40.4	-43.4	14.0	3.00e-06	0	57	0	821035008	52	5091
2026-01-09 11:49:11.04	310.23	12.73	-40.6	-43.8	13.6	3.00e-06	0	57	0	823132160	52	5289
2026-01-09 11:49:12.04	310.39	12.67	-40.8	-44.0	13.4	7.60e-06	0	57	0	825229312	52	5462
2026-01-09 11:49:13.05	310.55	12.62	-40.8	-44.1	13.3	1.67e-05	0	57	0	827326464	52	5507
2026-01-09 11:49:14.06	310.71	12.56	-40.8	-44.1	13.2	2.13e-05	0	57	0	829423616	52	5502
2026-01-09 11:49:15.07	310.88	12.51	-40.8	-44.1	13.3	2.28e-05	0	57	0	831520768	52	5520
2026-01-09 11:49:16.08	311.04	12.45	-40.7	-44.0	13.3	1.83e-05	0	57	0	832569344	52	5444
2026-01-09 11:49:17.09	311.20	12.40	-40.6	-43.8	13.6	9.90e-06	0	57	0	834666496	52	5290
2026-01-09 11:49:18.10	311.36	12.34	-40.4	-43.5	13.9	7.00e-07	0	57	0	836763648	52	5106
2026-01-09 11:49:19.11	311.52	12.29	-40.2	-43.1	14.3	1.50e-06	0	57	0	838860800	52	4884
2026-01-09 11:49:20.12	311.68	12.23	-40.0	-42.8	14.6	1.50e-06	0	57	0	840957952	52	4741
2026-01-09 11:49:21.13	311.84	12.18	-40.0	-42.7	14.7	1.50e-06	0	57	0	842006528	51	4973
2026-01-09 11:49:22.14	311.99	12.12	-39.9	-42.6	14.9	0.00e+00	0	57	0	844103680	51	4877
2026-01-09 11:49:23.15	312.15	12.06	-39.8	-42.5	14.9	0.00e+00	0	57	0	846200832	51	4835
2026-01-09 11:49:24.15	312.31	12.01	-39.9	-42.6	14.9	0.00e+00	0	57	0	848297984	51	4889
2026-01-09 11:49:25.16	312.46	11.95	-39.9	-42.6	14.8	0.00e+00	0	57	0	850395136	51	4917
2026-01-09 11:49:26.17	312.62	11.90	-40.0	-42.8	14.6	0.00e+00	0	57	0	851443712	51	5005
2026-01-09 11:49:27.19	312.77	11.84	-40.1	-42.9	14.5	2.20e-06	0	57	0	853540864	51	5046
2026-01-09 11:49:28.20	312.93	11.78	-40.0	-42.8	14.5	8.30e-06	0	57	0	855638016	51	5022
2026-01-09 11:49:29.20	313.08	11.73	-40.1	-43.0	14.5	2.20e-06	0	57	0	857735168	51	5108
2026-01-09 11:49:30.21	313.23	11.67	-40.1	-42.9	14.5	0.00e+00	0	57	0	859832320	51	5090
2026-01-09 11:49:31.22	313.39	11.62	-40.1	-42.9	14.5	7.00e-07	0	57	0	860880896	51	5079
2026-01-09 11:49:32.23	313.54	11.56	-40.1	-42.8	14.6	0.00e+00	0	57	0	862978048	51	5033
2026-01-09 11:49:33.24	313.69	11.50	-40.1	-42.9	14.6	7.00e-07	0	57	0	865075200	51	5056
2026-01-09 11:49:34.25	313.84	11.45	-40.1	-42.9	14.5	1.50e-06	0	57	0	867172352	51	5085
2026-01-09 11:49:35.26	313.99	11.39	-40.2	-43.0	14.4	7.00e-07	0	57	0	869269504	51	5137
2026-01-09 11:49:36.27	314.14	11.33	-40.2	-43.1	14.3	1.50e-06	0	57	0	870318080	51	5186
2026-01-09 11:49:37.28	314.29	11.28	-40.3	-43.2	14.2	7.00e-07	0	57	0	872415232	51	5238
2026-01-09 11:49:38.29	314.44	11.22	-40.3	-43.2	14.2	1.50e-06	0	57	0	874512384	51	5236
2026-01-09 11:49:39.30	314.59	11.16	-40.3	-43.3	14.1	5.30e-06	0	57	0	876609536	51	5289
2026-01-09 11:49:40.31	314.73	11.11	-40.2	-43.1	14.3	2.20e-06	0	57	0	878706688	51	5218
2026-01-09 11:49:41.32	314.88	11.05	-40.2	-43.0	14.4	7.00e-07	0	57	0	879755264	51	5136
2026-01-09 11:49:42.32	315.02	10.99	-40.2	-43.0	14.4	7.00e-07	0	57	0	881852416	51	5137
2026-01-09 11:49:43.34	315.17	10.94	-40.0	-42.7	14.7	7.00e-07	0	57	0	883949568	51	4973
2026-01-09 11:49:44.34	315.32	10.88	-39.9	-42.7	14.8	0.00e+00	0	57	0	886046720	51	4929
2026-01-09 11:49:45.35	315.46	10.82	-39.9	-42.5	14.9	0.00e+00	0	57	0	888143872	51	4866
2026-01-09 11:49:46.36	315.60	10.77	-39.9	-42.6	14.8	0.00e+00	0	57	0	889192448	51	4904
2026-01-09 11:49:47.37	315.75	10.71	-39.9	-42.7	14.8	0.00e+00	0	57	0	891289600	51	4940
2026-01-09 11:49:48.38	315.89	10.65	-40.1	-42.9	14.5	1.50e-06	0	57	0	893386752	51	5051
2026-01-09 11:49:49.39	316.03	10.60	-40.2	-43.0	14.4	0.00e+00	0	57	0	895483904	51	5148
2026-01-09 11:49:50.40	316.18	10.54	-40.3	-43.3	14.1	7.00e-07	0	57	0	897581056	51	5289
2026-01-09 11:49:51.41	316.32	10.48	-40.3	-43.4	14.0	7.00e-07	0	57	0	899678208	51	5346
2026-01-09 11:49:52.42	316.46	10.43	-40.4	-43.4	14.0	2.20e-06	0	57	0	900726784	51	5372
2026-01-09 11:49:53.43	316.60	10.37	-40.3	-43.3	14.0	3.80e-06	0	57	0	902823936	51	5336
2026-01-09 11:49:54.44	316.74	10.31	-40.3	-43.3	14.0	2.20e-06	0	57	0	904921088	51	5335
2026-01-09 11:49:55.45	316.88	10.25	-40.2	-43.2	14.2	3.00e-06	0	57	0	907018240	51	5225
2026-01-09 11:49:56.45	317.02	10.20	-40.2	-43.1	14.2	2.20e-06	0	57	0	909115392	51	5198
2026-01-09 11:49:57.46	317.15	10.14	-40.2	-43.0	14.3	1.50e-06	0	57	0	910163968	51	5157
2026-01-09 11:49:58.47	317.29	10.08	-40.1	-43.0	14.4	0.00e+00	0	57	0	912261120	51	5108
2026-01-09 11:49:59.48	317.43	10.03	-40.1	-43.0	14.3	7.00e-07	0	57	0	914358272	51	5140
2026-01-09 11:50:00.49	317.57	9.97	-40.2	-43.1	14.2	1.50e-06	0	57	0	916455424	51	5198
2026-01-09 11:50:01.50	317.70	9.91	-40.2	-43.2	14.2	1.50e-06	0	57	0	918552576	51	5241
2026-01-09 11:50:02.51	317.84	9.86	-40.3	-43.4	13.9	0.00e+00	0	57	0	919601152	51	5365
2026-01-09 11:50:03.52	317.97	9.80	-40.4	-43.6	13.8	2.20e-06	0	57	0	921698304	51	5472
2026-01-09 11:50:04.53	318.11	9.74	-40.6	-43.7	13.6	8.30e-06	0	57	0	923795456	51	5583
2026-01-09 11:50:05.54	318.24	9.68	-40.6	-43.9	13.4	8.30e-06	0	57	0	925892608	51	5691
2026-01-09 11:50:06.55	318.38	9.63	-40.6	-43.9	13.4	6.10e-06	0	57	0	927989760	51	5681
2026-01-09 11:50:07.56	318.51	9.57	-40.6	-43.9	13.4	1.37e-05	0	57	0	929038336	51	5673
2026-01-09 11:50:08.57	318.64	9.51	-40.5	-43.6	13.7	1.52e-05	0	57	0	931135488	51	5469
2026-01-09 11:50:09.58	318.77	9.46	-40.3	-43.4	13.9	5.30e-06	0	57	0	933232640	51	5365
2026-01-09 11:50:10.59	318.91	9.40	-40.3	-43.3	13.9	5.30e-06	0	57	0	935329792	51	5333
2026-01-09 11:50:11.60	319.04	9.34	-40.2	-43.2	14.0	5.30e-06	0	57	0	937426944	51	5253
2026-01-09 11:50:12.61	319.17	9.28	-40.2	-43.2	14.1	1.50e-06	0	57	0	938475520	51	5252
2026-01-09 11:50:13.61	319.30	9.23	-40.2	-43.2	14.1	2.20e-06	0	57	0	940572672	51	5243
2026-01-09 11:50:14.62	319.43	9.17	-40.2	-43.2	14.1	3.00e-06	0	57	0	942669824	51	5255
2026-01-09 11:50:15.63	319.56	9.11	-40.3	-43.4	13.9	3.00e-06	0	57	0	944766976	51	5347
2026-01-09 11:50:16.64	319.68	9.06	-40.4	-43.4	13.8	6.10e-06	0	57	0	946864128	51	5385
2026-01-09 11:50:17.65	319.81	9.00	-40.5	-43.7	13.6	5.30e-06	0	57	0	947912704	51	5542
2026-01-09 11:50:18.66	319.94	8.94	-40.6	-43.8	13.4	1.06e-05	0	57	0	950009856	51	5601
2026-01-09 11:50:19.67	320.07	8.89	-40.5	-43.8	13.5	7.60e-06	0	57	0	952107008	51	5607
2026-01-09 11:50:20.68	320.20	8.83	-40.6	-43.8	13.3	1.14e-05	0	57	0	954204160	51	5652
2026-01-09 11:50:21.69	320.32	8.77	-40.6	-43.9	13.3	1.83e-05	0	57	0	956301312	51	5686
2026-01-09 11:50:22.70	320.45	8.71	-40.6	-43.9	13.3	1.98e-05	0	57	0	957349888	51	5668
2026-01-09 11:50:23.71	320.57	8.66	-40.6	-43.9	13.3	1.22e-05	0	57	0	959447040	51	5692
2026-01-09 11:50:24.72	320.70	8.60	-40.6	-43.9	13.3	1.29e-05	0	57	0	961544192	51	5693
2026-01-09 11:50:25.73	320.82	8.54	-40.6	-43.9	13.3	1.52e-05	0	57	0	963641344	51	5684
2026-01-09 11:50:26.74	320.95	8.49	-40.6	-43.8	13.4	1.44e-05	0	57	0	965738496	51	5624
2026-01-09 11:50:27.75	321.07	8.43	-40.6	-43.9	13.3	1.67e-05	0	57	0	967835648	51	5699
2026-01-09 11:50:28.76	321.19	8.37	-40.7	-44.0	13.2	2.05e-05	0	57	0	968884224	51	5758
2026-01-09 11:50:29.77	321.32	8.32	-40.7	-44.1	13.1	2.36e-05	0	57	0	970981376	51	5801
2026-01-09 11:50:30.77	321.44	8.26	-40.7	-44.2	12.9	3.73e-05	0	57	0	973078528	52	5533
2026-01-09 11:50:31.78	321.56	8.20	-40.7	-44.3	12.8	5.95e-05	0	57	0	975175680	52	5600
2026-01-09 11:50:32.79	321.68	8.15	-40.8	-44.4	12.6	1.17e-04	0	57	0	977272832	52	5707
2026-01-09 11:50:33.80	321.80	8.09	-40.9	-44.6	12.4	2.12e-04	0	57	0	978321408	52	5793
2026-01-09 11:50:34.81	321.92	8.03	-40.9	-44.6	12.2	5.19e-04	0	57	0	980418560	52	5824
2026-01-09 11:50:35.82	322.04	7.98	-44.0	-57.3	3.8	4.06e-03	0	57	104	982515712	58	17849
2026-01-09 11:50:36.83	322.16	7.92	-44.2	-58.5	3.8	1.49e+00	0	57	104	982515712	59	19310
2026-01-09 11:50:37.84	322.28	7.86	-44.4	-58.9	3.8	1.49e+00	0	57	104	982515712	59	20108
2026-01-09 11:50:38.85	322.40	7.81	-44.5	-58.9	3.8	1.49e+00	0	57	104	982515712	59	20231
2026-01-09 11:50:39.86	322.52	7.75	-44.7	-59.2	3.8	1.49e+00	0	57	104	982515712	60	19828
2026-01-09 11:50:40.87	322.63	7.69	-44.9	-59.5	3.8	1.49e+00	0	57	104	982515712	60	20305
2026-01-09 11:50:41.88	322.75	7.64	-45.0	-59.5	3.8	1.49e+00	0	57	104	982515712	60	20388
2026-01-09 11:50:42.89	322.87	7.58	-45.0	-59.5	3.8	1.49e+00	0	57	104	982515712	60	20337
2026-01-09 11:50:43.90	322.98	7.52	-45.0	-59.5	3.8	1.49e+00	0	57	104	982515712	60	20466
2026-01-09 11:50:44.91	323.10	7.47	-45.0	-59.5	3.8	1.49e+00	0	57	104	982515712	60	20331
2026-01-09 11:50:45.92	323.22	7.41	-44.9	-59.4	3.8	1.49e+00	0	57	104	982515712	60	20200
2026-01-09 11:50:46.93	323.33	7.35	-44.9	-59.4	3.8	1.49e+00	0	57	104	982515712	60	20187
2026-01-09 11:50:47.94	323.44	7.30	-44.9	-59.4	3.8	1.49e+00	0	57	104	982515712	60	20143
2026-01-09 11:50:48.95	323.56	7.24	-44.9	-59.4	3.8	1.49e+00	0	57	104	982515712	60	20139
2026-01-09 11:50:49.96	323.67	7.18	-44.9	-59.4	3.8	1.49e+00	0	57	104	982515712	60	20138
2026-01-09 11:50:50.97	323.79	7.13	-44.9	-59.3	3.8	1.49e+00	0	57	104	982515712	60	20002
2026-01-09 11:50:51.98	323.90	7.07	-44.9	-59.3	3.8	1.49e+00	0	57	104	982515712	60	19925
2026-01-09 11:50:52.99	324.01	7.01	-44.8	-59.3	3.8	1.49e+00	0	57	104	982515712	60	19909
2026-01-09 11:50:54.00	324.12	6.96	-44.9	-59.3	3.8	1.49e+00	0	57	104	982515712	60	19960
2026-01-09 11:50:55.01	324.24	6.90	-44.9	-59.3	3.8	1.49e+00	0	57	104	982515712	60	19923
2026-01-09 11:50:56.02	324.35	6.85	-44.9	-59.3	3.8	1.49e+00	0	57	104	982515712	60	19965
2026-01-09 11:50:57.03	324.46	6.79	-44.9	-59.3	3.8	1.49e+00	0	57	104	982515712	60	19924
2026-01-09 11:50:58.04	324.57	6.73	-44.9	-59.3	3.8	1.49e+00	0	57	104	982515712	60	19980
2026-01-09 11:50:59.05	324.68	6.68	-44.9	-59.3	3.8	1.49e+00	0	57	104	982515712	60	19967
2026-01-09 11:51:00.06	324.79	6.62	-44.9	-59.3	3.8	1.49e+00	0	57	104	982515712	60	20037
2026-01-09 11:51:01.07	324.90	6.57	-44.9	-59.3	3.8	1.49e+00	0	57	104	982515712	60	19980
2026-01-09 11:51:02.08	325.01	6.51	-44.9	-59.4	3.8	1.49e+00	0	57	104	982515712	60	20103
2026-01-09 11:51:03.09	325.11	6.45	-44.9	-59.3	3.8	1.49e+00	0	57	104	982515712	60	20046
2026-01-09 11:51:04.10	325.22	6.40	-44.9	-59.3	3.8	1.49e+00	0	57	104	982515712	60	19965
2026-01-09 11:51:05.11	325.33	6.34	-44.9	-59.3	3.8	1.49e+00	0	57	104	982515712	60	19992
2026-01-09 11:51:06.12	325.44	6.29	-44.9	-59.3	3.8	1.49e+00	0	57	104	982515712	60	20027
2026-01-09 11:51:07.13	325.54	6.23	-44.9	-59.3	3.8	1.49e+00	0	57	104	982515712	60	19942
2026-01-09 11:51:08.14	325.65	6.18	-44.9	-59.3	3.8	1.49e+00	0	57	104	982515712	60	19978
2026-01-09 11:51:09.15	325.76	6.12	-44.9	-59.3	3.8	1.49e+00	0	57	104	982515712	60	20044
2026-01-09 11:51:10.16	325.86	6.06	-44.9	-59.4	3.8	1.49e+00	0	57	104	982515712	60	20092
2026-01-09 11:51:11.17	325.97	6.01	-44.9	-59.3	3.8	1.49e+00	0	57	104	982515712	60	19975
2026-01-09 11:51:12.18	326.07	5.95	-44.9	-59.3	3.8	1.49e+00	0	57	104	982515712	60	20031
2026-01-09 11:51:13.19	326.18	5.90	-44.9	-59.3	3.8	1.49e+00	0	57	104	982515712	60	19974
2026-01-09 11:51:14.20	326.28	5.84	-44.9	-59.3	3.8	1.49e+00	0	57	104	982515712	60	19966
2026-01-09 11:51:15.21	326.39	5.79	-44.9	-59.3	3.8	1.49e+00	0	57	104	982515712	60	19979
2026-01-09 11:51:16.22	326.49	5.73	-44.9	-59.3	3.8	1.49e+00	0	57	104	982515712	60	20019
2026-01-09 11:51:17.23	326.59	5.68	-44.9	-59.3	3.8	1.49e+00	0	57	104	982515712	60	20005
2026-01-09 11:51:18.24	326.69	5.62	-44.8	-59.3	3.8	1.49e+00	0	57	104	982515712	60	20004
2026-01-09 11:51:19.25	326.80	5.56	-44.9	-59.3	3.8	1.49e+00	0	57	104	982515712	60	19920
2026-01-09 11:51:20.26	326.90	5.51	-44.9	-59.3	3.8	1.49e+00	0	57	104	982515712	60	19947
2026-01-09 11:51:21.27	327.00	5.45	-44.9	-59.3	3.8	1.49e+00	0	57	104	982515712	60	19930
2026-01-09 11:51:22.28	327.10	5.40	-44.8	-59.3	3.8	1.49e+00	0	57	104	982515712	60	19991
2026-01-09 11:51:23.29	327.20	5.34	-44.8	-59.3	3.8	1.49e+00	0	57	104	982515712	60	19972
2026-01-09 11:51:24.30	327.30	5.29	-44.8	-59.3	3.8	1.49e+00	0	57	104	982515712	60	19984
2026-01-09 11:51:25.31	327.40	5.23	-44.8	-59.3	3.8	1.49e+00	0	57	104	982515712	60	20069
2026-01-09 11:51:26.32	327.50	5.18	-44.8	-59.3	3.8	1.49e+00	0	57	104	982515712	60	19880
2026-01-09 11:51:27.33	327.60	5.12	-44.8	-59.3	3.8	1.49e+00	0	57	104	982515712	60	19899
2026-01-09 11:51:28.34	327.70	5.07	-44.8	-59.3	3.8	1.49e+00	0	57	104	982515712	60	19945
2026-01-09 11:51:29.35	327.80	5.01	-44.9	-59.3	3.8	1.49e+00	0	57	104	982515712	60	19959
2026-01-09 11:51:30.36	327.90	4.96	-44.9	-59.3	3.8	1.49e+00	0	57	104	982515712	60	19907
2026-01-09 11:51:31.37	328.00	4.91	-44.8	-59.3	3.8	1.49e+00	0	57	104	982515712	60	19880
2026-01-09 11:51:32.38	328.09	4.85	-44.8	-59.3	3.8	1.49e+00	0	57	104	982515712	60	19942
2026-01-09 11:51:33.39	328.19	4.80	-44.9	-59.3	3.8	1.49e+00	0	57	104	982515712	60	19917
2026-01-09 11:51:34.40	328.29	4.74	-44.9	-59.3	3.8	1.49e+00	0	57	104	982515712	60	19918
2026-01-09 11:51:35.41	328.39	4.69	-44.8	-59.3	3.8	1.49e+00	0	57	104	982515712	60	19915
2026-01-09 11:51:36.42	328.48	4.63	-44.8	-59.3	3.8	1.49e+00	0	57	104	982515712	60	19956
2026-01-09 11:51:37.43	328.58	4.58	-44.8	-59.3	3.8	1.49e+00	0	57	104	982515712	60	19956
2026-01-09 11:51:38.45	328.67	4.52	-44.8	-59.2	3.8	1.49e+00	0	57	104	982515712	60	19781
2026-01-09 11:51:39.45	328.77	4.47	-44.8	-59.3	3.8	1.49e+00	0	57	104	982515712	60	19866
2026-01-09 11:51:40.47	328.86	4.41	-44.8	-59.3	3.8	1.49e+00	0	57	104	982515712	60	19866
2026-01-09 11:51:41.47	328.96	4.36	-44.8	-59.3	3.8	1.49e+00	0	57	104	982515712	60	19891
2026-01-09 11:51:42.48	329.05	4.31	-44.8	-59.3	3.8	1.49e+00	0	57	104	982515712	60	19899
2026-01-09 11:51:43.50	329.15	4.25	-44.8	-59.2	3.8	1.49e+00	0	57	104	982515712	60	19784
2026-01-09 11:51:44.51	329.24	4.20	-44.8	-59.3	3.8	1.49e+00	0	57	104	982515712	60	19851
2026-01-09 11:51:45.52	329.33	4.14	-44.6	-59.2	3.8	1.49e+00	0	57	104	982515712	60	19758
2026-01-09 11:51:46.53	329.43	4.09	-44.8	-59.3	3.8	1.49e+00	0	57	104	982515712	60	19891
