passes_logs/2026/01/09/R2.0S_Moscow/R2.0S_Moscow__20260109_055346_FENGYUN_3E_rec.log

#Pass ID: 20260109_055346_FENGYUN 3E
#Satellite: FENGYUN 3E
#Configuration: FENGYUN 3E
#almurnet v.1.7.20251203
#Start time: 2026-01-09 05:53:47

#Version: 2.2.20231116
#Station: R2.0S_Moscow
#Location: 37.707566 lon 55.798166 lat
#TLE: 1 49008U 21062A   26008.52265380 -.00000112  00000+0 -32190-4 0  9993
#TLE: 2 49008  98.7483  13.7266 0001697 149.3310 210.7966 14.19883994233927

#Time	Az	El	Level	Level2	SNR	BER	BlckErr	Temp	State	Recorded	gain1	gain2
2026-01-09 05:53:47.99	9.33	2.07	-39.3	-50.8	3.8	8.46e-01	0	47	0	0	49	13287
2026-01-09 05:53:49.00	9.25	2.12	-39.3	-50.8	3.8	8.47e-01	0	47	104	0	48	14135
2026-01-09 05:53:50.01	9.18	2.18	-39.3	-50.7	3.8	8.47e-01	0	47	104	0	48	14035
2026-01-09 05:53:51.02	9.10	2.23	-39.3	-50.8	3.8	8.45e-01	0	48	104	0	48	14125
2026-01-09 05:53:52.03	9.03	2.28	-39.3	-50.8	3.8	8.46e-01	0	48	104	0	48	14133
2026-01-09 05:53:53.04	8.95	2.34	-39.3	-50.8	3.8	8.47e-01	0	48	104	0	48	14122
2026-01-09 05:53:54.05	8.87	2.39	-39.3	-50.8	3.8	8.46e-01	0	48	104	0	48	14135
2026-01-09 05:53:55.07	8.79	2.45	-39.3	-50.8	3.8	8.45e-01	0	48	104	0	48	14118
2026-01-09 05:53:56.07	8.72	2.50	-39.3	-50.8	3.8	8.47e-01	0	48	104	0	48	14184
2026-01-09 05:53:57.08	8.64	2.56	-39.3	-50.8	3.8	8.45e-01	0	48	104	0	48	14110
2026-01-09 05:53:58.10	8.56	2.61	-39.3	-50.8	3.8	8.45e-01	0	48	104	0	48	14164
2026-01-09 05:53:59.11	8.48	2.67	-39.3	-50.8	3.8	8.47e-01	0	48	104	0	48	14108
2026-01-09 05:54:00.11	8.41	2.72	-39.3	-50.8	3.8	8.46e-01	0	48	104	0	48	14096
2026-01-09 05:54:01.12	8.33	2.78	-39.3	-50.8	3.8	8.47e-01	0	48	104	0	48	14129
2026-01-09 05:54:02.13	8.25	2.83	-39.3	-50.8	3.8	8.46e-01	0	48	104	0	48	14096
2026-01-09 05:54:03.14	8.17	2.89	-39.3	-50.8	3.8	8.46e-01	0	48	104	0	48	14092
2026-01-09 05:54:04.15	8.09	2.94	-39.3	-50.8	3.8	8.47e-01	0	49	104	0	48	14121
2026-01-09 05:54:05.17	8.01	3.00	-39.3	-50.8	3.8	8.47e-01	0	49	104	0	48	14104
2026-01-09 05:54:06.18	7.93	3.05	-39.3	-50.8	3.8	8.46e-01	0	49	104	0	48	14090
2026-01-09 05:54:07.19	7.85	3.11	-39.3	-50.8	3.8	8.46e-01	0	49	104	0	48	14060
2026-01-09 05:54:08.20	7.77	3.16	-39.3	-50.8	3.8	8.45e-01	0	49	104	0	48	14134
2026-01-09 05:54:09.21	7.68	3.22	-39.3	-50.8	3.8	8.46e-01	0	49	104	0	48	14115
2026-01-09 05:54:10.22	7.60	3.27	-39.3	-50.8	3.8	8.47e-01	0	49	104	0	48	14078
2026-01-09 05:54:11.23	7.52	3.33	-39.3	-50.8	3.8	8.48e-01	0	49	104	0	48	14098
2026-01-09 05:54:12.24	7.44	3.38	-39.3	-50.8	3.8	8.47e-01	0	49	104	0	48	14110
2026-01-09 05:54:13.25	7.36	3.44	-39.3	-50.8	3.8	8.45e-01	0	49	104	0	48	14078
2026-01-09 05:54:14.26	7.27	3.50	-39.3	-50.8	3.8	8.47e-01	0	49	104	0	48	14049
2026-01-09 05:54:15.27	7.19	3.55	-39.3	-50.8	3.8	8.46e-01	0	49	104	0	48	14109
2026-01-09 05:54:16.28	7.11	3.61	-39.3	-50.8	3.8	8.46e-01	0	49	104	0	48	14097
2026-01-09 05:54:17.29	7.02	3.66	-39.3	-50.8	3.8	8.48e-01	0	49	104	0	48	14130
2026-01-09 05:54:18.30	6.94	3.72	-39.3	-50.8	3.8	8.46e-01	0	50	104	0	48	14088
2026-01-09 05:54:19.31	6.85	3.77	-39.3	-50.8	3.8	8.46e-01	0	50	104	0	48	14073
2026-01-09 05:54:20.32	6.77	3.83	-39.3	-50.8	3.8	8.47e-01	0	50	104	0	48	14172
2026-01-09 05:54:21.33	6.68	3.89	-39.3	-50.8	3.8	8.47e-01	0	50	104	0	48	14082
2026-01-09 05:54:22.34	6.60	3.94	-39.3	-50.8	3.8	8.46e-01	0	50	104	0	48	14120
2026-01-09 05:54:23.35	6.51	4.00	-39.3	-50.8	3.8	8.46e-01	0	50	104	0	48	14117
2026-01-09 05:54:24.36	6.42	4.05	-39.3	-50.8	3.8	8.46e-01	0	50	104	0	48	14123
2026-01-09 05:54:25.37	6.34	4.11	-39.3	-50.8	3.8	8.46e-01	0	50	104	0	48	14095
2026-01-09 05:54:26.38	6.25	4.17	-39.3	-50.8	3.8	8.46e-01	0	50	104	0	48	14093
2026-01-09 05:54:27.39	6.16	4.22	-39.3	-50.8	3.8	8.46e-01	0	50	104	0	48	14122
2026-01-09 05:54:28.40	6.07	4.28	-39.3	-50.8	3.8	8.45e-01	0	50	104	0	48	14081
2026-01-09 05:54:29.41	5.99	4.34	-39.3	-50.8	3.8	8.45e-01	0	50	104	0	48	14060
2026-01-09 05:54:30.42	5.90	4.39	-39.3	-50.8	3.8	8.45e-01	0	50	104	0	48	14066
2026-01-09 05:54:31.43	5.81	4.45	-39.3	-50.8	3.8	8.45e-01	0	50	104	0	48	14112
2026-01-09 05:54:32.44	5.72	4.50	-39.3	-50.8	3.8	8.47e-01	0	50	104	0	48	14115
2026-01-09 05:54:33.45	5.63	4.56	-39.3	-50.8	3.8	8.46e-01	0	51	104	0	48	14059
2026-01-09 05:54:34.47	5.54	4.62	-39.3	-50.8	3.8	8.46e-01	0	50	104	0	48	14083
2026-01-09 05:54:35.48	5.45	4.68	-39.3	-50.8	3.8	8.46e-01	0	50	104	0	48	14069
2026-01-09 05:54:36.49	5.36	4.73	-39.3	-50.8	3.8	8.46e-01	0	51	104	0	48	14058
2026-01-09 05:54:37.50	5.27	4.79	-39.3	-50.8	3.8	8.45e-01	0	51	104	0	48	14064
2026-01-09 05:54:38.51	5.18	4.85	-39.3	-50.8	3.8	8.46e-01	0	51	104	0	48	14055
2026-01-09 05:54:39.52	5.08	4.90	-39.3	-50.8	3.8	8.47e-01	0	51	104	0	48	14060
2026-01-09 05:54:40.53	4.99	4.96	-39.3	-50.7	3.8	8.45e-01	0	51	104	0	48	14033
2026-01-09 05:54:41.54	4.90	5.02	-39.3	-50.8	3.8	8.47e-01	0	51	104	0	48	14059
2026-01-09 05:54:42.55	4.81	5.07	-39.3	-50.8	3.8	8.47e-01	0	51	104	0	48	14070
2026-01-09 05:54:43.56	4.71	5.13	-39.3	-50.7	3.8	8.46e-01	0	51	104	0	48	14016
2026-01-09 05:54:44.57	4.62	5.19	-39.3	-50.7	3.8	8.46e-01	0	51	104	0	48	14041
2026-01-09 05:54:45.58	4.53	5.25	-39.3	-50.7	3.8	8.45e-01	0	51	104	0	48	14046
2026-01-09 05:54:46.59	4.43	5.30	-39.3	-50.7	3.8	8.46e-01	0	51	104	0	48	14003
2026-01-09 05:54:47.60	4.34	5.36	-39.3	-50.7	3.8	8.46e-01	0	51	104	0	48	14028
2026-01-09 05:54:48.61	4.24	5.42	-39.3	-50.7	3.8	8.47e-01	0	51	104	0	48	14044
2026-01-09 05:54:49.62	4.15	5.47	-39.3	-50.8	3.8	8.47e-01	0	51	104	0	48	14053
2026-01-09 05:54:50.63	4.05	5.53	-39.3	-50.8	3.8	8.46e-01	0	51	104	0	48	14055
2026-01-09 05:54:51.64	3.95	5.59	-39.3	-50.7	3.8	8.47e-01	0	51	104	0	48	14016
2026-01-09 05:54:52.65	3.86	5.65	-39.3	-50.8	3.8	8.46e-01	0	51	104	0	48	14065
2026-01-09 05:54:53.66	3.76	5.71	-39.3	-50.8	3.8	8.46e-01	0	52	104	0	48	14075
2026-01-09 05:54:54.67	3.66	5.76	-39.3	-50.8	3.8	8.47e-01	0	51	104	0	48	14051
2026-01-09 05:54:55.68	3.56	5.82	-39.3	-50.8	3.8	8.46e-01	0	52	104	0	48	14086
2026-01-09 05:54:56.69	3.47	5.88	-39.3	-50.8	3.8	8.46e-01	0	52	104	0	48	14083
2026-01-09 05:54:57.70	3.37	5.94	-39.3	-50.7	3.8	8.46e-01	0	52	104	0	48	14018
2026-01-09 05:54:58.71	3.27	5.99	-39.3	-50.8	3.8	8.45e-01	0	52	104	0	48	14065
2026-01-09 05:54:59.72	3.17	6.05	-39.3	-50.8	3.8	8.46e-01	0	52	104	0	48	14067
2026-01-09 05:55:00.73	3.07	6.11	-39.3	-50.8	3.8	8.46e-01	0	52	104	0	48	14081
2026-01-09 05:55:01.74	2.97	6.17	-39.3	-50.8	3.8	8.46e-01	0	52	104	0	48	14056
2026-01-09 05:55:02.75	2.87	6.23	-39.3	-50.7	3.8	8.47e-01	0	52	104	0	48	14045
2026-01-09 05:55:03.76	2.77	6.28	-39.3	-50.8	3.8	8.45e-01	0	52	104	0	48	14059
2026-01-09 05:55:04.77	2.66	6.34	-39.3	-50.8	3.8	8.45e-01	0	52	104	0	48	14063
2026-01-09 05:55:05.78	2.56	6.40	-39.3	-50.8	3.8	8.46e-01	0	52	104	0	48	14078
2026-01-09 05:55:06.79	2.46	6.46	-39.3	-50.8	3.8	8.47e-01	0	52	104	0	48	14074
2026-01-09 05:55:07.80	2.36	6.52	-39.3	-50.8	3.8	8.46e-01	0	52	104	0	48	14113
2026-01-09 05:55:08.82	2.25	6.58	-39.3	-50.8	3.8	8.46e-01	0	52	104	0	48	14104
2026-01-09 05:55:09.83	2.15	6.63	-39.3	-50.8	3.8	8.46e-01	0	52	104	0	48	14076
2026-01-09 05:55:10.84	2.04	6.69	-39.3	-50.8	3.8	8.46e-01	0	52	104	0	48	14053
2026-01-09 05:55:11.85	1.94	6.75	-39.3	-50.8	3.8	8.46e-01	0	52	104	0	48	14063
2026-01-09 05:55:12.86	1.83	6.81	-39.3	-50.8	3.8	8.46e-01	0	52	104	0	48	14059
2026-01-09 05:55:13.87	1.73	6.87	-39.3	-50.8	3.8	8.46e-01	0	53	104	0	48	14098
2026-01-09 05:55:14.88	1.62	6.93	-39.3	-50.8	3.8	8.46e-01	0	52	104	0	48	14090
2026-01-09 05:55:15.89	1.52	6.98	-39.3	-50.8	3.8	8.46e-01	0	52	104	0	48	14047
2026-01-09 05:55:16.90	1.41	7.04	-39.3	-50.8	3.8	8.45e-01	0	52	104	0	48	14059
2026-01-09 05:55:17.91	1.30	7.10	-39.3	-50.7	3.8	8.47e-01	0	53	104	0	48	14030
2026-01-09 05:55:18.92	1.19	7.16	-39.3	-50.8	3.8	8.47e-01	0	53	104	0	48	14067
2026-01-09 05:55:19.93	1.09	7.22	-39.3	-50.8	3.8	8.46e-01	0	53	104	0	48	14079
2026-01-09 05:55:20.94	0.98	7.28	-39.3	-50.8	3.8	8.46e-01	0	53	104	0	48	14098
2026-01-09 05:55:21.95	0.87	7.34	-39.3	-50.8	3.8	8.45e-01	0	53	104	0	48	14048
2026-01-09 05:55:22.96	0.76	7.40	-39.3	-50.7	3.8	8.47e-01	0	53	104	0	48	14033
2026-01-09 05:55:23.97	0.65	7.46	-39.3	-50.8	3.8	8.45e-01	0	53	104	0	48	14071
2026-01-09 05:55:24.98	0.54	7.51	-39.3	-50.7	3.8	8.47e-01	0	53	104	0	48	14044
2026-01-09 05:55:25.99	0.43	7.57	-39.3	-50.8	3.8	8.45e-01	0	53	104	0	48	14102
2026-01-09 05:55:27.00	0.32	7.63	-39.3	-50.8	3.8	8.46e-01	0	53	104	0	48	14089
2026-01-09 05:55:28.01	0.20	7.69	-39.3	-50.8	3.8	8.47e-01	0	53	104	0	48	14064
2026-01-09 05:55:29.02	0.09	7.75	-39.3	-50.8	3.8	8.46e-01	0	53	104	0	48	14110
2026-01-09 05:55:30.03	359.98	7.81	-39.3	-50.8	3.8	8.48e-01	0	53	104	0	48	14096
2026-01-09 05:55:31.04	359.86	7.87	-39.3	-50.8	3.8	8.45e-01	0	53	104	0	48	14078
2026-01-09 05:55:32.05	359.75	7.93	-39.3	-50.8	3.8	8.46e-01	0	53	104	0	48	14075
2026-01-09 05:55:33.06	359.64	7.99	-39.3	-50.8	3.8	8.47e-01	0	53	104	0	48	14082
2026-01-09 05:55:34.07	359.52	8.05	-39.3	-50.8	3.8	8.47e-01	0	53	104	0	48	14101
2026-01-09 05:55:35.08	359.41	8.11	-39.0	-50.7	3.8	8.45e-01	0	53	104	0	48	13995
2026-01-09 05:55:36.09	359.29	8.16	-38.8	-50.7	3.8	8.46e-01	0	53	104	0	48	13992
2026-01-09 05:55:37.10	359.17	8.22	-39.4	-50.8	3.8	8.46e-01	0	53	104	0	48	14203
2026-01-09 05:55:38.11	359.06	8.28	-39.3	-50.9	3.8	8.47e-01	0	53	104	0	48	14282
2026-01-09 05:55:39.12	358.94	8.34	-38.8	-50.7	3.8	8.46e-01	0	53	104	0	48	14001
2026-01-09 05:55:40.13	358.82	8.40	-39.2	-50.8	3.8	8.46e-01	0	53	104	0	48	14147
2026-01-09 05:55:41.14	358.70	8.46	-38.6	-50.7	3.8	8.45e-01	0	53	104	0	48	14003
2026-01-09 05:55:42.15	358.59	8.52	-38.3	-50.6	3.8	8.46e-01	0	53	104	0	47	14586
2026-01-09 05:55:43.16	358.47	8.58	-39.1	-50.6	3.8	8.47e-01	0	54	104	0	47	14618
2026-01-09 05:55:44.17	358.35	8.64	-38.4	-50.6	3.8	8.46e-01	0	54	104	0	47	14603
2026-01-09 05:55:45.18	358.23	8.70	-38.9	-50.5	3.8	8.46e-01	0	54	104	0	47	14540
2026-01-09 05:55:46.19	358.11	8.76	-38.7	-50.6	3.8	8.47e-01	0	53	104	0	47	14625
2026-01-09 05:55:47.20	357.98	8.82	-38.1	-50.5	3.8	8.47e-01	0	53	104	0	46	15289
2026-01-09 05:55:48.21	357.86	8.88	-38.5	-50.6	3.8	8.45e-01	0	54	104	0	46	15517
2026-01-09 05:55:49.22	357.74	8.94	-38.3	-50.5	3.8	8.45e-01	0	54	104	0	46	15267
2026-01-09 05:55:50.23	357.62	9.00	-38.8	-50.6	3.8	8.47e-01	0	54	104	0	47	14557
2026-01-09 05:55:51.23	357.50	9.06	-38.2	-50.5	3.8	8.46e-01	0	54	104	0	47	14503
2026-01-09 05:55:52.24	357.37	9.12	-38.8	-50.5	3.8	8.46e-01	0	54	104	0	47	14530
2026-01-09 05:55:53.25	357.25	9.17	-38.3	-50.6	3.8	8.47e-01	0	54	104	0	47	14577
2026-01-09 05:55:54.27	357.12	9.23	-38.3	-50.6	3.8	8.45e-01	0	54	104	0	47	14577
2026-01-09 05:55:55.28	357.00	9.29	-39.0	-50.5	3.8	8.47e-01	0	54	104	0	47	14484
2026-01-09 05:55:56.28	356.87	9.35	-38.3	-50.5	3.8	8.47e-01	0	54	104	0	47	14488
2026-01-09 05:55:57.29	356.75	9.41	-39.4	-50.7	3.8	8.45e-01	0	54	104	0	48	14044
2026-01-09 05:55:58.30	356.62	9.47	-39.2	-50.7	3.8	8.46e-01	0	54	104	0	48	14046
2026-01-09 05:55:59.31	356.49	9.53	-39.0	-50.7	3.8	8.47e-01	0	54	104	0	48	14017
2026-01-09 05:56:00.32	356.36	9.59	-39.4	-50.8	3.8	8.45e-01	0	54	104	0	48	14048
2026-01-09 05:56:01.33	356.23	9.65	-38.7	-50.7	3.8	8.46e-01	0	54	104	0	48	13954
2026-01-09 05:56:02.34	356.11	9.71	-38.8	-50.7	3.8	8.45e-01	0	54	104	0	48	13972
2026-01-09 05:56:03.35	355.98	9.77	-39.7	-50.9	3.8	8.47e-01	0	54	104	0	49	13474
2026-01-09 05:56:04.36	355.85	9.83	-39.1	-50.7	3.8	8.46e-01	0	54	104	0	49	13209
2026-01-09 05:56:05.37	355.71	9.89	-39.9	-50.9	3.8	8.47e-01	0	54	104	0	49	13496
2026-01-09 05:56:06.38	355.58	9.95	-39.8	-50.9	3.8	8.47e-01	0	54	104	0	49	13415
2026-01-09 05:56:07.39	355.45	10.01	-39.5	-50.8	3.8	8.45e-01	0	54	104	0	49	13298
2026-01-09 05:56:08.40	355.32	10.07	-39.8	-50.9	3.8	8.46e-01	0	54	104	0	49	13456
2026-01-09 05:56:09.41	355.19	10.13	-39.4	-50.7	3.8	8.45e-01	0	54	104	0	49	13250
2026-01-09 05:56:10.41	355.05	10.19	-39.8	-50.8	3.8	8.46e-01	0	54	104	0	49	13400
2026-01-09 05:56:11.42	354.92	10.25	-39.9	-50.8	3.8	8.46e-01	0	54	104	0	49	13341
2026-01-09 05:56:12.43	354.79	10.31	-39.8	-50.9	3.8	8.46e-01	0	54	104	0	49	13450
2026-01-09 05:56:13.44	354.65	10.37	-39.9	-50.9	3.8	8.47e-01	0	54	104	0	49	13417
2026-01-09 05:56:14.45	354.51	10.43	-39.9	-50.9	3.8	8.46e-01	0	54	104	0	49	13479
2026-01-09 05:56:15.46	354.38	10.49	-39.9	-50.9	3.8	8.46e-01	0	54	104	0	49	13433
2026-01-09 05:56:16.47	354.24	10.55	-40.0	-50.9	3.8	8.46e-01	0	54	104	0	49	13527
2026-01-09 05:56:17.48	354.10	10.61	-39.9	-50.9	3.8	8.47e-01	0	54	104	0	49	13491
2026-01-09 05:56:18.49	353.97	10.67	-39.9	-50.9	3.8	8.46e-01	0	54	104	0	49	13484
2026-01-09 05:56:19.50	353.83	10.72	-40.0	-50.9	3.8	8.46e-01	0	55	104	0	49	13546
2026-01-09 05:56:20.51	353.69	10.78	-39.9	-50.9	3.8	8.46e-01	0	54	104	0	49	13542
2026-01-09 05:56:21.52	353.55	10.84	-40.3	-51.2	3.8	8.46e-01	0	54	104	0	50	13236
2026-01-09 05:56:22.53	353.41	10.90	-40.0	-51.0	3.8	8.46e-01	0	54	104	0	50	12905
2026-01-09 05:56:23.54	353.27	10.96	-40.0	-51.0	3.8	8.46e-01	0	54	104	0	50	12946
2026-01-09 05:56:24.55	353.12	11.02	-40.0	-51.1	3.8	8.46e-01	0	54	104	0	50	13050
2026-01-09 05:56:25.56	352.98	11.08	-39.8	-51.0	3.8	8.46e-01	0	54	104	0	50	12923
2026-01-09 05:56:26.57	352.84	11.14	-40.1	-51.2	3.8	8.47e-01	0	54	104	0	49	13950
2026-01-09 05:56:27.58	352.70	11.20	-40.1	-51.3	3.8	8.46e-01	0	54	104	0	50	13275
2026-01-09 05:56:28.59	352.55	11.26	-40.2	-51.3	3.8	8.47e-01	0	55	104	0	50	13293
2026-01-09 05:56:29.60	352.41	11.32	-40.3	-51.2	3.8	8.47e-01	0	54	104	0	50	13236
2026-01-09 05:56:30.61	352.26	11.38	-40.2	-51.4	3.8	8.46e-01	0	54	104	0	50	13529
2026-01-09 05:56:31.62	352.12	11.44	-40.4	-51.5	3.8	8.45e-01	0	55	104	0	50	13590
2026-01-09 05:56:32.63	351.97	11.50	-40.3	-51.5	3.8	8.47e-01	0	55	104	0	50	13620
2026-01-09 05:56:33.64	351.82	11.56	-40.6	-51.8	3.8	8.44e-01	0	54	104	0	50	14136
2026-01-09 05:56:34.64	351.68	11.61	-40.2	-51.2	3.8	8.46e-01	0	55	104	0	50	13247
2026-01-09 05:56:35.66	351.53	11.67	-40.6	-51.6	3.8	8.46e-01	0	55	104	0	50	13807
2026-01-09 05:56:36.67	351.38	11.73	-40.3	-51.3	3.8	8.47e-01	0	55	104	0	50	13280
2026-01-09 05:56:37.68	351.23	11.79	-40.7	-51.7	3.8	8.47e-01	0	55	104	0	50	13976
2026-01-09 05:56:38.69	351.08	11.85	-40.5	-51.5	3.8	8.46e-01	0	55	104	0	51	12909
2026-01-09 05:56:39.70	350.93	11.91	-41.0	-52.0	3.8	8.46e-01	0	55	104	0	51	13592
2026-01-09 05:56:40.71	350.78	11.97	-40.7	-51.6	3.8	8.46e-01	0	55	104	0	51	13099
2026-01-09 05:56:41.72	350.63	12.03	-40.8	-51.7	3.8	8.45e-01	0	55	104	0	51	13190
2026-01-09 05:56:42.73	350.47	12.09	-40.7	-51.8	3.8	8.46e-01	0	55	104	0	51	13269
2026-01-09 05:56:43.74	350.32	12.14	-40.4	-51.4	3.8	8.46e-01	0	55	104	0	51	12803
2026-01-09 05:56:44.75	350.17	12.20	-40.4	-51.4	3.8	8.47e-01	0	55	104	0	51	12752
2026-01-09 05:56:45.75	350.01	12.26	-40.5	-51.4	3.8	8.47e-01	0	55	104	0	51	12791
2026-01-09 05:56:46.76	349.86	12.32	-40.6	-51.5	3.8	8.46e-01	0	55	104	0	51	12853
2026-01-09 05:56:47.78	349.70	12.38	-40.6	-51.5	3.8	8.46e-01	0	55	104	0	51	12884
2026-01-09 05:56:48.79	349.55	12.44	-40.3	-51.5	3.8	8.46e-01	0	55	104	0	51	12866
2026-01-09 05:56:49.79	349.39	12.49	-40.6	-51.8	3.8	8.46e-01	0	55	104	0	51	13407
2026-01-09 05:56:50.80	349.23	12.55	-40.5	-51.6	3.8	8.47e-01	0	55	104	0	51	13032
2026-01-09 05:56:51.81	349.07	12.61	-40.8	-51.9	3.8	8.46e-01	0	55	104	0	51	13560
2026-01-09 05:56:52.82	348.92	12.67	-40.4	-51.5	3.8	8.47e-01	0	55	104	0	51	12933
2026-01-09 05:56:53.83	348.76	12.73	-40.6	-51.8	3.8	8.47e-01	0	55	104	0	51	13412
2026-01-09 05:56:54.84	348.60	12.78	-40.9	-51.9	3.8	8.45e-01	0	55	104	0	51	13551
2026-01-09 05:56:55.85	348.44	12.84	-41.0	-52.1	3.8	8.46e-01	0	55	104	0	51	13843
2026-01-09 05:56:56.86	348.27	12.90	-41.0	-52.0	3.8	8.46e-01	0	55	104	0	51	13607
2026-01-09 05:56:57.87	348.11	12.96	-41.1	-52.2	3.8	8.45e-01	0	55	104	0	51	13944
2026-01-09 05:56:58.88	347.95	13.01	-40.8	-51.9	3.8	8.46e-01	0	55	104	0	52	12775
2026-01-09 05:56:59.89	347.79	13.07	-41.1	-52.2	3.8	8.45e-01	0	55	104	0	52	13226
2026-01-09 05:57:00.90	347.62	13.13	-41.0	-52.0	3.8	8.46e-01	0	55	104	0	52	12902
2026-01-09 05:57:01.91	347.46	13.19	-41.2	-52.2	3.8	8.46e-01	0	55	104	0	52	13191
2026-01-09 05:57:02.92	347.29	13.24	-40.9	-52.1	3.8	8.47e-01	0	55	104	0	52	12979
2026-01-09 05:57:03.92	347.13	13.30	-41.2	-52.2	3.8	8.45e-01	0	55	104	0	52	13231
2026-01-09 05:57:04.93	346.96	13.36	-41.0	-52.1	3.8	8.46e-01	0	55	104	0	52	12988
2026-01-09 05:57:05.94	346.79	13.41	-41.2	-52.0	3.8	8.45e-01	0	55	104	0	52	12881
2026-01-09 05:57:06.96	346.62	13.47	-41.0	-52.2	3.8	8.47e-01	0	55	104	0	52	13135
2026-01-09 05:57:07.96	346.46	13.53	-41.0	-51.9	3.8	8.46e-01	0	55	104	0	52	12705
2026-01-09 05:57:08.97	346.29	13.58	-41.1	-52.2	3.8	8.45e-01	0	55	104	0	52	13111
2026-01-09 05:57:09.98	346.12	13.64	-41.3	-52.3	3.8	8.46e-01	0	55	104	0	52	13364
2026-01-09 05:57:10.99	345.95	13.69	-40.8	-51.8	3.8	8.47e-01	0	55	104	0	52	12542
2026-01-09 05:57:12.00	345.78	13.75	-41.2	-52.1	3.8	8.46e-01	0	55	104	0	52	13099
2026-01-09 05:57:13.01	345.61	13.81	-40.5	-51.5	3.8	8.46e-01	0	55	104	0	52	12234
2026-01-09 05:57:14.02	345.43	13.86	-40.6	-51.6	3.8	8.46e-01	0	55	104	0	52	12323
2026-01-09 05:57:15.03	345.26	13.92	-40.8	-51.8	3.8	8.45e-01	0	55	104	0	52	12573
2026-01-09 05:57:16.04	345.09	13.97	-40.6	-51.5	3.8	8.46e-01	0	55	104	0	51	12880
2026-01-09 05:57:17.05	344.91	14.03	-40.6	-51.6	3.8	8.45e-01	0	55	104	0	51	12997
2026-01-09 05:57:18.06	344.74	14.08	-40.7	-51.6	3.8	8.46e-01	0	55	104	0	51	13098
2026-01-09 05:57:19.07	344.56	14.14	-40.8	-51.8	3.8	8.47e-01	0	55	104	0	51	13323
2026-01-09 05:57:20.08	344.38	14.19	-40.8	-51.7	3.8	8.45e-01	0	55	104	0	51	13152
2026-01-09 05:57:21.09	344.21	14.25	-40.4	-51.7	3.8	8.47e-01	0	55	104	0	51	13135
2026-01-09 05:57:22.09	344.03	14.30	-40.7	-51.9	3.8	8.47e-01	0	55	104	0	51	13513
2026-01-09 05:57:23.10	343.85	14.36	-40.8	-51.7	3.8	8.46e-01	0	55	104	0	51	13234
2026-01-09 05:57:24.11	343.67	14.41	-40.5	-51.9	3.8	8.46e-01	0	55	104	0	51	13421
2026-01-09 05:57:25.12	343.49	14.47	-40.7	-51.6	3.8	8.45e-01	0	55	104	0	51	13031
2026-01-09 05:57:26.13	343.31	14.52	-40.5	-51.7	3.8	8.45e-01	0	55	104	0	51	13227
2026-01-09 05:57:27.14	343.13	14.57	-40.7	-51.8	3.8	8.45e-01	0	56	104	0	51	13380
2026-01-09 05:57:28.15	342.95	14.63	-40.7	-51.7	3.8	8.47e-01	0	56	104	0	51	13242
2026-01-09 05:57:29.16	342.77	14.68	-40.4	-51.7	3.8	8.46e-01	0	55	104	0	51	13150
2026-01-09 05:57:30.17	342.58	14.73	-40.7	-51.7	3.8	8.47e-01	0	55	104	0	51	13169
2026-01-09 05:57:31.18	342.40	14.79	-40.9	-51.8	3.8	8.46e-01	0	56	104	0	51	13354
2026-01-09 05:57:32.19	342.22	14.84	-40.9	-51.8	3.8	8.46e-01	0	56	104	0	51	13358
2026-01-09 05:57:33.20	342.03	14.89	-40.7	-51.6	3.8	8.47e-01	0	56	104	0	51	13090
2026-01-09 05:57:34.21	341.84	14.95	-40.4	-51.3	3.8	8.47e-01	0	56	104	0	51	12659
2026-01-09 05:57:35.22	341.66	15.00	-40.7	-51.7	3.8	8.46e-01	0	56	104	0	51	13176
2026-01-09 05:57:36.23	341.47	15.05	-40.4	-51.3	3.8	8.45e-01	0	56	104	0	51	12565
2026-01-09 05:57:37.24	341.28	15.10	-40.7	-51.6	3.8	8.46e-01	0	56	104	0	51	13007
2026-01-09 05:57:38.25	341.09	15.15	-40.5	-51.4	3.8	8.46e-01	0	56	104	0	51	12683
2026-01-09 05:57:39.26	340.91	15.21	-40.2	-51.4	3.8	8.46e-01	0	55	104	0	51	12724
2026-01-09 05:57:40.27	340.72	15.26	-40.4	-51.4	3.8	8.46e-01	0	56	104	0	51	12705
2026-01-09 05:57:41.28	340.53	15.31	-40.4	-51.4	3.8	8.45e-01	0	56	104	0	51	12679
2026-01-09 05:57:42.30	340.33	15.36	-40.3	-50.7	3.8	8.46e-01	0	56	104	0	51	11811
2026-01-09 05:57:43.31	340.14	15.41	-40.4	-51.3	3.8	8.46e-01	0	56	104	0	51	12521
2026-01-09 05:57:44.32	339.95	15.46	-40.6	-47.9	4.0	8.42e-01	0	56	104	0	51	8470
2026-01-09 05:57:45.32	339.76	15.51	-40.4	-46.4	5.1	7.78e-01	0	56	0	0	51	7179
2026-01-09 05:57:46.33	339.56	15.56	-40.0	-44.7	6.6	2.63e-01	0	56	0	4194304	51	5896
2026-01-09 05:57:47.34	339.37	15.61	-39.3	-42.9	8.6	6.54e-02	0	56	0	11534336	49	5374
2026-01-09 05:57:48.35	339.17	15.66	-38.2	-40.9	10.8	7.49e-03	0	56	0	18874368	47	4762
2026-01-09 05:57:49.36	338.98	15.71	-37.1	-39.2	12.9	1.36e-04	0	56	0	25165824	45	4404
2026-01-09 05:57:50.37	338.78	15.76	-35.9	-37.7	14.6	4.50e-06	0	56	0	32505856	42	4394
2026-01-09 05:57:51.38	338.58	15.81	-35.2	-36.7	15.8	0.00e+00	0	56	0	40894464	41	4166
2026-01-09 05:57:52.39	338.39	15.86	-35.0	-36.4	16.2	0.00e+00	0	56	0	47185920	40	4284
2026-01-09 05:57:53.40	338.19	15.91	-35.1	-36.5	16.4	0.00e+00	0	56	0	54525952	40	4337
2026-01-09 05:57:54.41	337.99	15.95	-35.7	-37.2	15.9	0.00e+00	0	56	0	61865984	41	4398
2026-01-09 05:57:55.42	337.79	16.00	-36.0	-37.6	15.6	0.00e+00	0	56	0	69206016	41	4605
2026-01-09 05:57:56.43	337.59	16.05	-35.7	-37.1	16.3	0.00e+00	0	56	0	76546048	41	4370
2026-01-09 05:57:57.44	337.39	16.10	-35.4	-36.7	16.8	0.00e+00	0	56	0	83886080	41	4169
2026-01-09 05:57:58.44	337.19	16.14	-34.9	-36.2	17.5	0.00e+00	0	56	0	91226112	40	4164
2026-01-09 05:57:59.45	336.98	16.19	-35.0	-36.3	17.5	0.00e+00	0	56	0	98566144	40	4198
2026-01-09 05:58:00.46	336.78	16.24	-35.0	-36.3	17.6	0.00e+00	0	56	0	105906176	40	4203
2026-01-09 05:58:01.47	336.58	16.28	-34.6	-35.7	18.2	0.00e+00	0	56	0	113246208	40	3953
2026-01-09 05:58:02.48	336.37	16.33	-34.8	-36.0	18.0	0.00e+00	0	56	0	120586240	40	4079
2026-01-09 05:58:03.49	336.17	16.37	-34.9	-36.1	17.9	0.00e+00	0	56	0	127926272	40	4115
2026-01-09 05:58:04.50	335.96	16.42	-34.9	-36.1	17.9	0.00e+00	0	56	0	135266304	40	4124
2026-01-09 05:58:05.51	335.76	16.47	-34.8	-36.0	18.1	0.00e+00	0	56	0	142606336	40	4066
2026-01-09 05:58:06.52	335.55	16.51	-34.8	-36.0	18.0	0.00e+00	0	56	0	149946368	40	4081
2026-01-09 05:58:07.53	335.34	16.55	-34.7	-35.9	18.2	0.00e+00	0	56	0	157286400	40	4034
2026-01-09 05:58:08.54	335.14	16.60	-34.8	-36.0	18.1	0.00e+00	0	56	0	164626432	40	4072
2026-01-09 05:58:09.55	334.93	16.64	-34.7	-35.8	18.2	0.00e+00	0	56	0	171966464	40	3999
2026-01-09 05:58:10.56	334.72	16.69	-34.7	-35.9	18.2	0.00e+00	0	56	0	178257920	40	4025
2026-01-09 05:58:11.57	334.51	16.73	-34.8	-36.0	18.1	0.00e+00	0	56	0	185597952	40	4078
2026-01-09 05:58:12.58	334.30	16.77	-34.8	-36.0	18.1	0.00e+00	0	56	0	192937984	40	4075
2026-01-09 05:58:13.59	334.09	16.82	-34.6	-35.8	18.3	0.00e+00	0	56	0	200278016	40	3984
2026-01-09 05:58:14.60	333.87	16.86	-34.6	-35.8	18.3	0.00e+00	0	56	0	207618048	40	3969
2026-01-09 05:58:15.61	333.66	16.90	-34.7	-35.8	18.3	0.00e+00	0	56	0	214958080	40	3994
2026-01-09 05:58:16.61	333.45	16.94	-34.7	-35.8	18.3	0.00e+00	0	56	0	222298112	40	3997
2026-01-09 05:58:17.62	333.24	16.98	-34.6	-35.8	18.4	0.00e+00	0	56	0	229638144	40	3968
2026-01-09 05:58:18.63	333.02	17.02	-34.5	-35.7	18.5	0.00e+00	0	56	0	236978176	39	4157
2026-01-09 05:58:19.64	332.81	17.06	-34.5	-35.6	18.6	0.00e+00	0	56	0	244318208	39	4125
2026-01-09 05:58:20.65	332.59	17.10	-34.4	-35.5	18.7	0.00e+00	0	56	0	251658240	39	4083
2026-01-09 05:58:21.66	332.38	17.14	-34.4	-35.5	18.7	0.00e+00	0	56	0	258998272	39	4070
2026-01-09 05:58:22.67	332.16	17.18	-34.2	-35.3	18.9	0.00e+00	0	56	0	266338304	39	4004
2026-01-09 05:58:23.68	331.94	17.22	-34.2	-35.3	18.9	0.00e+00	0	56	0	273678336	39	3965
2026-01-09 05:58:24.69	331.73	17.26	-34.1	-35.2	19.0	0.00e+00	0	56	0	281018368	39	3923
2026-01-09 05:58:25.70	331.51	17.30	-34.1	-35.2	19.0	0.00e+00	0	56	0	288358400	39	3938
2026-01-09 05:58:26.71	331.29	17.34	-34.0	-35.1	19.1	0.00e+00	0	56	0	295698432	39	3891
2026-01-09 05:58:27.72	331.07	17.38	-34.1	-35.2	19.0	0.00e+00	0	56	0	301989888	39	3948
2026-01-09 05:58:28.73	330.85	17.41	-34.2	-35.3	19.0	0.00e+00	0	56	0	309329920	39	3971
2026-01-09 05:58:29.74	330.63	17.45	-34.2	-35.3	19.0	0.00e+00	0	56	0	317718528	39	3968
2026-01-09 05:58:30.75	330.41	17.49	-34.2	-35.3	19.0	0.00e+00	0	56	0	324009984	39	3969
2026-01-09 05:58:31.76	330.19	17.52	-34.2	-35.3	18.9	0.00e+00	0	56	0	331350016	39	3977
2026-01-09 05:58:32.77	329.96	17.56	-34.2	-35.3	18.9	0.00e+00	0	56	0	338690048	39	3991
2026-01-09 05:58:33.78	329.74	17.60	-34.3	-35.4	18.9	0.00e+00	0	56	0	346030080	39	4016
2026-01-09 05:58:34.79	329.52	17.63	-34.3	-35.4	18.9	0.00e+00	0	56	0	353370112	39	4015
2026-01-09 05:58:35.80	329.29	17.67	-34.3	-35.4	18.8	0.00e+00	0	56	0	360710144	39	4035
2026-01-09 05:58:36.81	329.07	17.70	-34.2	-35.3	18.9	0.00e+00	0	56	0	368050176	39	3984
2026-01-09 05:58:37.82	328.85	17.73	-34.2	-35.3	19.0	0.00e+00	0	56	0	375390208	39	3970
2026-01-09 05:58:38.83	328.62	17.77	-34.2	-35.3	19.0	0.00e+00	0	56	0	382730240	39	3980
2026-01-09 05:58:39.84	328.39	17.80	-34.2	-35.3	19.0	0.00e+00	0	56	0	390070272	39	3986
2026-01-09 05:58:40.85	328.17	17.83	-34.1	-35.2	19.1	0.00e+00	0	56	0	397410304	39	3945
2026-01-09 05:58:41.86	327.94	17.87	-34.2	-35.3	19.0	0.00e+00	0	56	0	404750336	39	3960
2026-01-09 05:58:42.87	327.71	17.90	-34.1	-35.2	19.0	0.00e+00	0	56	0	412090368	39	3940
2026-01-09 05:58:43.88	327.49	17.93	-34.1	-35.2	19.0	0.00e+00	0	56	0	419430400	39	3949
2026-01-09 05:58:44.89	327.26	17.96	-34.1	-35.2	19.0	0.00e+00	0	56	0	426770432	39	3948
2026-01-09 05:58:45.90	327.03	17.99	-34.1	-35.2	19.1	0.00e+00	0	56	0	434110464	39	3933
2026-01-09 05:58:46.91	326.80	18.02	-34.2	-35.3	18.9	0.00e+00	0	56	0	441450496	39	3991
2026-01-09 05:58:47.92	326.57	18.05	-34.1	-35.2	19.0	0.00e+00	0	56	0	448790528	39	3946
2026-01-09 05:58:48.93	326.34	18.08	-34.2	-35.3	19.0	0.00e+00	0	56	0	456130560	39	3961
2026-01-09 05:58:49.94	326.11	18.11	-34.1	-35.2	19.1	0.00e+00	0	56	0	463470592	39	3936
2026-01-09 05:58:50.95	325.88	18.14	-34.2	-35.2	19.0	0.00e+00	0	56	0	470810624	39	3958
2026-01-09 05:58:51.96	325.65	18.17	-34.1	-35.2	19.0	0.00e+00	0	56	0	477102080	39	3950
2026-01-09 05:58:52.97	325.42	18.19	-34.2	-35.3	19.0	0.00e+00	0	56	0	484442112	39	3975
2026-01-09 05:58:53.99	325.18	18.22	-34.2	-35.3	19.0	0.00e+00	0	56	0	492830720	39	3964
2026-01-09 05:58:54.99	324.95	18.25	-34.2	-35.3	19.0	0.00e+00	0	56	0	499122176	39	3962
2026-01-09 05:58:56.00	324.72	18.27	-34.2	-35.3	19.0	0.00e+00	0	56	0	506462208	39	3980
2026-01-09 05:58:57.01	324.48	18.30	-34.2	-35.3	19.0	0.00e+00	0	56	0	513802240	39	3983
2026-01-09 05:58:58.02	324.25	18.32	-34.2	-35.3	19.0	0.00e+00	0	56	0	521142272	39	3993
2026-01-09 05:58:59.03	324.02	18.35	-34.2	-35.3	19.0	0.00e+00	0	56	0	528482304	39	3965
2026-01-09 05:59:00.04	323.78	18.37	-34.2	-35.2	19.0	0.00e+00	0	56	0	535822336	39	3958
2026-01-09 05:59:01.05	323.55	18.40	-34.2	-35.3	19.0	0.00e+00	0	56	0	543162368	39	3963
2026-01-09 05:59:02.06	323.31	18.42	-34.0	-35.1	19.2	0.00e+00	0	56	0	550502400	39	3896
2026-01-09 05:59:03.07	323.08	18.44	-34.0	-35.0	19.2	0.00e+00	0	56	0	557842432	39	3867
2026-01-09 05:59:04.08	322.84	18.46	-33.8	-34.9	19.4	0.00e+00	0	56	0	565182464	38	4031
2026-01-09 05:59:05.08	322.61	18.49	-33.8	-34.8	19.5	0.00e+00	0	56	0	572522496	38	3983
2026-01-09 05:59:06.09	322.37	18.51	-33.7	-34.7	19.6	0.00e+00	0	56	0	579862528	38	3938
2026-01-09 05:59:07.10	322.13	18.53	-33.8	-34.9	19.4	0.00e+00	0	57	0	587202560	38	4019
2026-01-09 05:59:08.11	321.89	18.55	-33.8	-34.8	19.5	0.00e+00	0	56	0	594542592	38	3982
2026-01-09 05:59:09.12	321.66	18.57	-33.8	-34.9	19.4	0.00e+00	0	56	0	601882624	38	4022
2026-01-09 05:59:10.13	321.42	18.59	-33.8	-34.9	19.4	0.00e+00	0	56	0	609222656	38	4024
2026-01-09 05:59:11.14	321.18	18.61	-33.8	-34.9	19.5	0.00e+00	0	56	0	616562688	38	4007
2026-01-09 05:59:12.15	320.94	18.63	-33.9	-34.9	19.4	0.00e+00	0	56	0	622854144	38	4035
2026-01-09 05:59:13.16	320.70	18.64	-33.9	-34.9	19.4	0.00e+00	0	56	0	630194176	38	4038
2026-01-09 05:59:14.17	320.46	18.66	-33.9	-35.0	19.3	0.00e+00	0	56	0	637534208	38	4070
2026-01-09 05:59:15.18	320.22	18.68	-33.9	-35.0	19.3	0.00e+00	0	56	0	644874240	38	4063
2026-01-09 05:59:16.19	319.98	18.69	-33.9	-34.9	19.4	0.00e+00	0	56	0	652214272	38	4038
2026-01-09 05:59:17.20	319.74	18.71	-33.9	-35.0	19.3	0.00e+00	0	56	0	659554304	38	4057
2026-01-09 05:59:18.21	319.50	18.73	-33.8	-34.9	19.4	0.00e+00	0	56	0	666894336	38	4015
2026-01-09 05:59:19.22	319.26	18.74	-33.9	-34.9	19.4	0.00e+00	0	56	0	674234368	38	4042
2026-01-09 05:59:20.23	319.02	18.75	-33.9	-34.9	19.4	0.00e+00	0	56	0	681574400	38	4045
2026-01-09 05:59:21.24	318.78	18.77	-33.9	-35.0	19.4	0.00e+00	0	56	0	688914432	38	4053
2026-01-09 05:59:22.25	318.54	18.78	-33.9	-34.9	19.4	0.00e+00	0	56	0	696254464	38	4038
2026-01-09 05:59:23.25	318.30	18.79	-33.9	-35.0	19.3	0.00e+00	0	56	0	703594496	38	4063
2026-01-09 05:59:24.26	318.06	18.81	-33.9	-35.0	19.3	0.00e+00	0	56	0	710934528	38	4058
2026-01-09 05:59:25.27	317.81	18.82	-33.9	-35.0	19.4	0.00e+00	0	56	0	718274560	38	4052
2026-01-09 05:59:26.28	317.57	18.83	-34.0	-35.0	19.3	0.00e+00	0	56	0	725614592	38	4095
2026-01-09 05:59:27.29	317.33	18.84	-33.9	-35.0	19.3	0.00e+00	0	56	0	732954624	38	4072
2026-01-09 05:59:28.31	317.09	18.85	-33.9	-35.0	19.3	0.00e+00	0	56	0	740294656	38	4067
2026-01-09 05:59:29.32	316.84	18.86	-33.9	-34.9	19.4	0.00e+00	0	56	0	747634688	38	4049
2026-01-09 05:59:30.32	316.60	18.87	-33.9	-35.0	19.4	0.00e+00	0	56	0	753926144	38	4057
2026-01-09 05:59:31.33	316.36	18.88	-33.8	-34.9	19.5	0.00e+00	0	56	0	762314752	38	4005
2026-01-09 05:59:32.34	316.12	18.89	-33.8	-34.8	19.5	0.00e+00	0	56	0	769654784	38	3985
2026-01-09 05:59:33.35	315.87	18.89	-33.7	-34.7	19.5	0.00e+00	0	56	0	775946240	38	3955
2026-01-09 05:59:34.36	315.63	18.90	-33.7	-34.8	19.5	0.00e+00	0	56	0	783286272	38	3964
2026-01-09 05:59:35.37	315.39	18.91	-33.7	-34.8	19.5	0.00e+00	0	56	0	790626304	38	3964
2026-01-09 05:59:36.38	315.14	18.91	-33.5	-34.5	19.8	0.00e+00	0	56	0	797966336	38	3864
2026-01-09 05:59:37.39	314.90	18.92	-33.6	-34.6	19.7	0.00e+00	0	56	0	805306368	38	3889
2026-01-09 05:59:38.40	314.66	18.92	-33.6	-34.7	19.7	0.00e+00	0	56	0	812646400	38	3915
2026-01-09 05:59:39.41	314.41	18.93	-33.6	-34.6	19.7	0.00e+00	0	56	0	819986432	38	3892
2026-01-09 05:59:40.42	314.17	18.93	-33.5	-34.5	19.8	0.00e+00	0	56	0	827326464	38	3846
2026-01-09 05:59:41.43	313.92	18.93	-33.6	-34.6	19.7	0.00e+00	0	56	0	834666496	38	3901
2026-01-09 05:59:42.44	313.68	18.94	-33.6	-34.6	19.7	0.00e+00	0	56	0	842006528	38	3897
2026-01-09 05:59:43.45	313.44	18.94	-33.6	-34.7	19.6	0.00e+00	0	56	0	849346560	38	3929
2026-01-09 05:59:44.46	313.19	18.94	-33.7	-34.7	19.6	0.00e+00	0	56	0	856686592	38	3947
2026-01-09 05:59:45.47	312.95	18.94	-33.6	-34.7	19.6	0.00e+00	0	56	0	864026624	38	3921
2026-01-09 05:59:46.48	312.70	18.94	-33.6	-34.7	19.6	0.00e+00	0	56	0	871366656	38	3928
2026-01-09 05:59:47.49	312.46	18.94	-33.6	-34.7	19.6	0.00e+00	0	56	0	878706688	38	3929
2026-01-09 05:59:48.50	312.21	18.94	-33.6	-34.6	19.7	0.00e+00	0	56	0	886046720	38	3890
2026-01-09 05:59:49.52	311.97	18.94	-33.6	-34.6	19.7	0.00e+00	0	56	0	893386752	38	3892
2026-01-09 05:59:50.52	311.73	18.94	-33.6	-34.7	19.7	0.00e+00	0	56	0	900726784	38	3914
2026-01-09 05:59:51.53	311.48	18.94	-33.6	-34.7	19.6	0.00e+00	0	56	0	908066816	38	3928
2026-01-09 05:59:52.54	311.24	18.93	-33.7	-34.7	19.6	0.00e+00	0	56	0	915406848	38	3952
2026-01-09 05:59:53.56	310.99	18.93	-33.7	-34.8	19.5	0.00e+00	0	56	0	922746880	38	3971
2026-01-09 05:59:54.57	310.75	18.93	-33.7	-34.8	19.5	0.00e+00	0	56	0	929038336	38	3979
2026-01-09 05:59:55.57	310.51	18.92	-33.8	-34.8	19.5	0.00e+00	0	56	0	936378368	38	3979
2026-01-09 05:59:56.58	310.26	18.92	-33.7	-34.8	19.5	0.00e+00	0	56	0	943718400	38	3977
2026-01-09 05:59:57.59	310.02	18.91	-33.8	-34.8	19.5	0.00e+00	0	56	0	951058432	38	3991
2026-01-09 05:59:58.60	309.77	18.91	-33.7	-34.8	19.6	0.00e+00	0	56	0	958398464	38	3959
2026-01-09 05:59:59.61	309.53	18.90	-33.6	-34.7	19.6	0.00e+00	0	56	0	965738496	38	3932
2026-01-09 06:00:00.62	309.29	18.89	-33.6	-34.6	19.7	0.00e+00	0	56	0	973078528	38	3912
2026-01-09 06:00:01.63	309.04	18.89	-33.7	-34.7	19.6	0.00e+00	0	56	0	980418560	38	3934
2026-01-09 06:00:02.64	308.80	18.88	-33.7	-34.7	19.6	0.00e+00	0	57	0	987758592	38	3952
2026-01-09 06:00:03.65	308.56	18.87	-33.8	-34.8	19.5	0.00e+00	0	56	0	995098624	38	3986
2026-01-09 06:00:04.66	308.31	18.86	-33.7	-34.8	19.5	0.00e+00	0	56	0	1002438656	38	3965
2026-01-09 06:00:05.67	308.07	18.85	-33.8	-34.8	19.5	0.00e+00	0	56	0	1009778688	38	3987
2026-01-09 06:00:06.68	307.83	18.84	-33.7	-34.8	19.5	0.00e+00	0	57	0	1017118720	38	3974
2026-01-09 06:00:07.69	307.59	18.83	-33.7	-34.7	19.6	0.00e+00	0	57	0	1024458752	38	3928
2026-01-09 06:00:08.70	307.34	18.82	-33.6	-34.6	19.7	0.00e+00	0	56	0	1031798784	38	3898
2026-01-09 06:00:09.71	307.10	18.81	-33.6	-34.6	19.7	0.00e+00	0	56	0	1039138816	38	3898
2026-01-09 06:00:10.72	306.86	18.79	-33.6	-34.6	19.7	0.00e+00	0	57	0	1046478848	38	3893
2026-01-09 06:00:11.73	306.62	18.78	-33.5	-34.6	19.7	0.00e+00	0	57	0	1053818880	38	3879
2026-01-09 06:00:12.74	306.38	18.77	-33.6	-34.7	19.6	0.00e+00	0	56	0	1061158912	38	3922
2026-01-09 06:00:13.75	306.14	18.75	-33.6	-34.7	19.6	0.00e+00	0	56	0	1068498944	38	3924
2026-01-09 06:00:14.76	305.89	18.74	-33.7	-34.8	19.5	0.00e+00	0	56	0	1074790400	38	3964
2026-01-09 06:00:15.77	305.65	18.72	-33.7	-34.8	19.5	0.00e+00	0	56	0	1082130432	38	3977
2026-01-09 06:00:16.78	305.41	18.71	-33.8	-34.9	19.4	0.00e+00	0	56	0	1089470464	38	4005
2026-01-09 06:00:17.79	305.17	18.69	-33.8	-34.9	19.4	0.00e+00	0	56	0	1096810496	38	4006
2026-01-09 06:00:18.80	304.93	18.68	-33.7	-34.7	19.6	0.00e+00	0	57	0	1104150528	38	3957
2026-01-09 06:00:19.81	304.69	18.66	-33.6	-34.7	19.6	0.00e+00	0	57	0	1111490560	38	3919
2026-01-09 06:00:20.82	304.45	18.64	-33.5	-34.6	19.7	0.00e+00	0	56	0	1118830592	38	3885
2026-01-09 06:00:21.83	304.21	18.62	-33.5	-34.5	19.7	0.00e+00	0	56	0	1126170624	38	3858
2026-01-09 06:00:22.84	303.97	18.61	-33.5	-34.6	19.7	0.00e+00	0	56	0	1133510656	37	4112
2026-01-09 06:00:23.85	303.74	18.59	-33.6	-34.6	19.6	0.00e+00	0	57	0	1140850688	37	4136
2026-01-09 06:00:24.86	303.50	18.57	-33.6	-34.7	19.6	0.00e+00	0	56	0	1148190720	37	4157
2026-01-09 06:00:25.87	303.26	18.55	-33.7	-34.8	19.5	0.00e+00	0	56	0	1155530752	37	4196
2026-01-09 06:00:26.88	303.02	18.53	-33.7	-34.8	19.4	0.00e+00	0	56	0	1162870784	37	4217
2026-01-09 06:00:27.89	302.78	18.51	-33.8	-34.8	19.4	0.00e+00	0	56	0	1170210816	37	4226
2026-01-09 06:00:28.90	302.55	18.48	-33.8	-34.8	19.4	0.00e+00	0	57	0	1177550848	37	4227
2026-01-09 06:00:29.91	302.31	18.46	-33.7	-34.8	19.5	0.00e+00	0	57	0	1184890880	37	4200
2026-01-09 06:00:30.92	302.07	18.44	-33.6	-34.7	19.5	0.00e+00	0	56	0	1192230912	37	4167
2026-01-09 06:00:31.93	301.84	18.42	-33.6	-34.7	19.6	0.00e+00	0	57	0	1199570944	37	4155
2026-01-09 06:00:32.94	301.60	18.39	-33.6	-34.6	19.6	0.00e+00	0	57	0	1206910976	37	4134
2026-01-09 06:00:33.95	301.36	18.37	-33.6	-34.7	19.6	0.00e+00	0	56	0	1214251008	37	4153
2026-01-09 06:00:34.96	301.13	18.35	-33.6	-34.7	19.5	0.00e+00	0	56	0	1221591040	37	4162
2026-01-09 06:00:35.97	300.89	18.32	-33.7	-34.7	19.5	0.00e+00	0	56	0	1227882496	37	4182
2026-01-09 06:00:36.98	300.66	18.30	-33.7	-34.8	19.5	0.00e+00	0	57	0	1235222528	37	4195
2026-01-09 06:00:37.99	300.43	18.27	-33.8	-34.8	19.4	0.00e+00	0	57	0	1243611136	37	4232
2026-01-09 06:00:39.00	300.19	18.24	-33.8	-34.8	19.4	0.00e+00	0	57	0	1249902592	37	4232
2026-01-09 06:00:40.01	299.96	18.22	-33.8	-34.9	19.4	0.00e+00	0	57	0	1257242624	37	4248
2026-01-09 06:00:41.02	299.73	18.19	-33.8	-34.8	19.4	0.00e+00	0	57	0	1264582656	37	4231
2026-01-09 06:00:42.03	299.49	18.16	-33.8	-34.9	19.4	0.00e+00	0	57	0	1271922688	37	4245
2026-01-09 06:00:43.03	299.27	18.13	-33.8	-34.8	19.4	0.00e+00	0	57	0	1279262720	37	4242
2026-01-09 06:00:44.04	299.03	18.11	-33.7	-34.8	19.4	0.00e+00	0	57	0	1286602752	37	4225
2026-01-09 06:00:45.05	298.80	18.08	-33.7	-34.8	19.4	0.00e+00	0	57	0	1293942784	37	4205
2026-01-09 06:00:46.06	298.57	18.05	-33.7	-34.7	19.5	0.00e+00	0	57	0	1301282816	37	4186
2026-01-09 06:00:47.07	298.34	18.02	-33.7	-34.7	19.5	0.00e+00	0	57	0	1308622848	37	4173
2026-01-09 06:00:48.08	298.11	17.99	-33.7	-34.7	19.4	0.00e+00	0	57	0	1315962880	37	4188
2026-01-09 06:00:49.09	297.88	17.96	-33.8	-34.8	19.4	0.00e+00	0	57	0	1323302912	37	4220
2026-01-09 06:00:50.10	297.65	17.93	-33.8	-34.9	19.3	0.00e+00	0	56	0	1330642944	37	4260
2026-01-09 06:00:51.11	297.43	17.89	-33.9	-35.0	19.2	0.00e+00	0	57	0	1337982976	37	4309
2026-01-09 06:00:52.12	297.20	17.86	-33.9	-35.0	19.2	0.00e+00	0	57	0	1345323008	37	4310
2026-01-09 06:00:53.13	296.97	17.83	-33.9	-34.9	19.3	0.00e+00	0	56	0	1351614464	37	4279
2026-01-09 06:00:54.14	296.74	17.80	-33.8	-34.8	19.4	0.00e+00	0	56	0	1360003072	37	4240
2026-01-09 06:00:55.15	296.52	17.76	-33.8	-34.9	19.3	0.00e+00	0	57	0	1367343104	37	4247
2026-01-09 06:00:56.16	296.29	17.73	-33.7	-34.8	19.4	0.00e+00	0	57	0	1373634560	37	4215
2026-01-09 06:00:57.17	296.07	17.70	-33.8	-34.9	19.3	0.00e+00	0	57	0	1380974592	37	4245
2026-01-09 06:00:58.18	295.84	17.66	-33.9	-34.9	19.2	0.00e+00	0	57	0	1388314624	37	4290
2026-01-09 06:00:59.19	295.62	17.63	-34.0	-35.0	19.1	0.00e+00	0	57	0	1395654656	37	4337
2026-01-09 06:01:00.20	295.39	17.59	-34.1	-35.2	19.0	0.00e+00	0	57	0	1402994688	37	4433
2026-01-09 06:01:01.20	295.17	17.56	-34.2	-35.3	18.9	0.00e+00	0	57	0	1410334720	37	4469
2026-01-09 06:01:02.21	294.95	17.52	-34.3	-35.4	18.8	0.00e+00	0	57	0	1417674752	38	4263
2026-01-09 06:01:03.22	294.73	17.48	-34.3	-35.4	18.8	0.00e+00	0	57	0	1425014784	38	4275
2026-01-09 06:01:04.23	294.51	17.45	-34.4	-35.5	18.7	0.00e+00	0	57	0	1432354816	38	4313
2026-01-09 06:01:05.24	294.28	17.41	-34.3	-35.5	18.7	0.00e+00	0	57	0	1439694848	38	4299
2026-01-09 06:01:06.25	294.06	17.37	-34.3	-35.4	18.8	0.00e+00	0	57	0	1447034880	38	4249
2026-01-09 06:01:07.26	293.84	17.33	-34.2	-35.3	18.9	0.00e+00	0	57	0	1454374912	38	4196
2026-01-09 06:01:08.27	293.62	17.30	-34.2	-35.3	18.9	0.00e+00	0	57	0	1461714944	38	4206
2026-01-09 06:01:09.28	293.41	17.26	-34.1	-35.2	19.0	0.00e+00	0	57	0	1469054976	38	4172
2026-01-09 06:01:10.29	293.19	17.22	-34.1	-35.2	18.9	0.00e+00	0	57	0	1476395008	38	4189
2026-01-09 06:01:11.30	292.97	17.18	-34.2	-35.3	18.9	0.00e+00	0	57	0	1483735040	38	4198
2026-01-09 06:01:12.31	292.75	17.14	-34.2	-35.3	18.9	0.00e+00	0	57	0	1491075072	38	4218
2026-01-09 06:01:13.32	292.54	17.10	-34.3	-35.4	18.8	0.00e+00	0	57	0	1498415104	38	4262
2026-01-09 06:01:14.33	292.32	17.06	-34.4	-35.5	18.7	0.00e+00	0	57	0	1505755136	38	4316
2026-01-09 06:01:15.34	292.10	17.02	-34.4	-35.6	18.6	0.00e+00	0	57	0	1513095168	38	4359
2026-01-09 06:01:16.35	291.89	16.98	-34.5	-35.6	18.6	0.00e+00	0	57	0	1520435200	38	4361
2026-01-09 06:01:17.36	291.68	16.93	-34.5	-35.6	18.6	0.00e+00	0	57	0	1526726656	38	4383
2026-01-09 06:01:18.37	291.46	16.89	-34.5	-35.6	18.6	0.00e+00	0	57	0	1534066688	38	4357
2026-01-09 06:01:19.38	291.25	16.85	-34.4	-35.6	18.6	0.00e+00	0	56	0	1542455296	38	4364
2026-01-09 06:01:20.39	291.04	16.81	-34.5	-35.6	18.6	0.00e+00	0	57	0	1548746752	38	4371
2026-01-09 06:01:21.40	290.82	16.77	-34.4	-35.5	18.6	0.00e+00	0	56	0	1556086784	38	4332
2026-01-09 06:01:22.41	290.61	16.72	-34.4	-35.5	18.6	0.00e+00	0	57	0	1563426816	38	4325
2026-01-09 06:01:23.42	290.40	16.68	-34.3	-35.5	18.7	0.00e+00	0	56	0	1570766848	38	4295
2026-01-09 06:01:24.43	290.19	16.63	-34.4	-35.5	18.6	0.00e+00	0	57	0	1578106880	38	4319
2026-01-09 06:01:25.44	289.98	16.59	-34.4	-35.5	18.6	0.00e+00	0	57	0	1585446912	38	4319
2026-01-09 06:01:26.45	289.77	16.55	-34.3	-35.5	18.7	0.00e+00	0	57	0	1592786944	38	4296
2026-01-09 06:01:27.46	289.57	16.50	-34.3	-35.4	18.7	0.00e+00	0	57	0	1600126976	38	4286
2026-01-09 06:01:28.47	289.36	16.46	-34.4	-35.5	18.6	0.00e+00	0	57	0	1607467008	38	4319
2026-01-09 06:01:29.48	289.15	16.41	-34.4	-35.5	18.6	0.00e+00	0	57	0	1614807040	38	4309
2026-01-09 06:01:30.49	288.94	16.37	-34.4	-35.6	18.6	0.00e+00	0	57	0	1622147072	38	4347
2026-01-09 06:01:31.51	288.74	16.32	-34.5	-35.6	18.5	0.00e+00	0	57	0	1629487104	38	4375
2026-01-09 06:01:32.51	288.53	16.27	-34.5	-35.6	18.4	0.00e+00	0	57	0	1636827136	38	4378
2026-01-09 06:01:33.52	288.33	16.23	-34.5	-35.6	18.5	0.00e+00	0	57	0	1644167168	38	4374
2026-01-09 06:01:34.53	288.13	16.18	-34.5	-35.7	18.4	0.00e+00	0	57	0	1651507200	38	4412
2026-01-09 06:01:35.54	287.92	16.13	-34.4	-35.6	18.5	0.00e+00	0	57	0	1658847232	38	4350
2026-01-09 06:01:36.55	287.72	16.09	-34.5	-35.6	18.5	0.00e+00	0	57	0	1666187264	38	4379
2026-01-09 06:01:37.56	287.52	16.04	-34.5	-35.6	18.5	0.00e+00	0	57	0	1672478720	38	4377
2026-01-09 06:01:38.57	287.32	15.99	-34.5	-35.6	18.4	0.00e+00	0	57	0	1679818752	38	4386
2026-01-09 06:01:39.58	287.12	15.94	-34.4	-35.6	18.5	0.00e+00	0	57	0	1688207360	38	4347
2026-01-09 06:01:40.59	286.92	15.89	-34.4	-35.6	18.5	0.00e+00	0	57	0	1694498816	38	4342
2026-01-09 06:01:41.60	286.72	15.85	-34.4	-35.5	18.5	0.00e+00	0	57	0	1701838848	38	4334
2026-01-09 06:01:42.61	286.52	15.80	-34.4	-35.5	18.5	0.00e+00	0	57	0	1709178880	38	4340
2026-01-09 06:01:43.62	286.32	15.75	-34.4	-35.6	18.5	0.00e+00	0	57	0	1716518912	38	4359
2026-01-09 06:01:44.63	286.12	15.70	-34.5	-35.6	18.4	0.00e+00	0	57	0	1723858944	38	4377
2026-01-09 06:01:45.64	285.93	15.65	-34.5	-35.7	18.4	0.00e+00	0	57	0	1731198976	38	4413
2026-01-09 06:01:46.65	285.73	15.60	-34.5	-35.7	18.3	0.00e+00	0	57	0	1738539008	38	4403
2026-01-09 06:01:47.66	285.54	15.55	-34.5	-35.7	18.4	0.00e+00	0	57	0	1745879040	38	4395
2026-01-09 06:01:48.67	285.34	15.50	-34.5	-35.6	18.4	0.00e+00	0	57	0	1753219072	38	4375
2026-01-09 06:01:49.68	285.15	15.45	-34.5	-35.6	18.4	0.00e+00	0	56	0	1760559104	38	4371
2026-01-09 06:01:50.69	284.95	15.40	-34.5	-35.7	18.4	0.00e+00	0	57	0	1767899136	38	4393
2026-01-09 06:01:51.70	284.76	15.35	-34.5	-35.6	18.4	0.00e+00	0	57	0	1775239168	38	4366
2026-01-09 06:01:52.71	284.57	15.30	-34.5	-35.6	18.4	0.00e+00	0	57	0	1782579200	38	4369
2026-01-09 06:01:53.72	284.38	15.24	-34.5	-35.6	18.4	0.00e+00	0	57	0	1789919232	38	4376
2026-01-09 06:01:54.73	284.19	15.19	-34.5	-35.7	18.4	0.00e+00	0	57	0	1797259264	38	4395
2026-01-09 06:01:55.74	284.00	15.14	-34.5	-35.7	18.4	0.00e+00	0	57	0	1804599296	38	4393
2026-01-09 06:01:56.75	283.81	15.09	-34.6	-35.7	18.3	0.00e+00	0	57	0	1811939328	38	4438
2026-01-09 06:01:57.75	283.62	15.04	-34.6	-35.8	18.2	0.00e+00	0	57	0	1819279360	38	4475
2026-01-09 06:01:58.76	283.43	14.98	-34.6	-35.8	18.2	0.00e+00	0	57	0	1825570816	38	4460
2026-01-09 06:01:59.77	283.24	14.93	-34.7	-35.9	18.1	0.00e+00	0	57	0	1832910848	39	4257
2026-01-09 06:02:00.78	283.06	14.88	-34.8	-36.0	18.0	0.00e+00	0	57	0	1841299456	39	4326
2026-01-09 06:02:01.79	282.87	14.83	-34.9	-36.1	18.0	0.00e+00	0	57	0	1847590912	39	4343
2026-01-09 06:02:02.80	282.69	14.77	-35.0	-36.2	17.8	0.00e+00	0	57	0	1854930944	39	4411
2026-01-09 06:02:03.81	282.50	14.72	-35.0	-36.2	17.8	0.00e+00	0	57	0	1862270976	39	4416
2026-01-09 06:02:04.82	282.32	14.67	-35.0	-36.2	17.8	0.00e+00	0	57	0	1869611008	39	4406
2026-01-09 06:02:05.83	282.13	14.61	-35.1	-36.3	17.7	0.00e+00	0	57	0	1876951040	39	4484
2026-01-09 06:02:06.84	281.95	14.56	-35.0	-36.3	17.7	0.00e+00	0	57	0	1884291072	39	4450
2026-01-09 06:02:07.85	281.77	14.50	-35.0	-36.2	17.8	0.00e+00	0	57	0	1891631104	39	4407
2026-01-09 06:02:08.86	281.59	14.45	-34.9	-36.1	17.9	0.00e+00	0	57	0	1898971136	39	4381
2026-01-09 06:02:09.87	281.41	14.40	-34.9	-36.1	17.9	0.00e+00	0	57	0	1906311168	39	4360
2026-01-09 06:02:10.88	281.23	14.34	-34.8	-36.0	18.0	0.00e+00	0	57	0	1913651200	39	4312
2026-01-09 06:02:11.89	281.05	14.29	-34.8	-36.0	17.9	0.00e+00	0	57	0	1920991232	39	4319
2026-01-09 06:02:12.90	280.87	14.23	-34.9	-36.1	17.9	0.00e+00	0	57	0	1928331264	39	4366
2026-01-09 06:02:13.92	280.69	14.18	-35.0	-36.2	17.8	0.00e+00	0	57	0	1935671296	39	4398
2026-01-09 06:02:14.93	280.51	14.12	-35.0	-36.2	17.8	0.00e+00	0	57	0	1943011328	39	4405
2026-01-09 06:02:15.94	280.34	14.07	-35.0	-36.3	17.7	0.00e+00	0	57	0	1950351360	39	4448
2026-01-09 06:02:16.95	280.16	14.01	-35.1	-36.4	17.6	0.00e+00	0	57	0	1957691392	39	4508
2026-01-09 06:02:17.96	279.98	13.95	-35.1	-36.4	17.6	0.00e+00	0	57	0	1965031424	39	4511
2026-01-09 06:02:18.97	279.81	13.90	-35.2	-36.4	17.4	0.00e+00	0	57	0	1971322880	40	4289
2026-01-09 06:02:19.98	279.64	13.84	-35.2	-36.4	17.4	0.00e+00	0	57	0	1978662912	40	4283
2026-01-09 06:02:20.99	279.46	13.79	-35.2	-36.4	17.5	0.00e+00	0	57	0	1987051520	40	4269
2026-01-09 06:02:22.00	279.29	13.73	-35.2	-36.5	17.4	0.00e+00	0	57	0	1993342976	40	4306
2026-01-09 06:02:23.01	279.12	13.67	-35.2	-36.4	17.4	0.00e+00	0	57	0	2000683008	40	4285
2026-01-09 06:02:24.02	278.95	13.62	-35.1	-36.3	17.6	0.00e+00	0	57	0	2008023040	40	4223
2026-01-09 06:02:25.03	278.77	13.56	-35.0	-36.2	17.6	0.00e+00	0	57	0	2015363072	40	4192
2026-01-09 06:02:26.04	278.60	13.50	-35.0	-36.2	17.7	0.00e+00	0	57	0	2022703104	40	4157
2026-01-09 06:02:27.05	278.44	13.45	-34.9	-36.1	17.8	0.00e+00	0	57	0	2030043136	40	4107
2026-01-09 06:02:28.06	278.27	13.39	-34.9	-36.1	17.8	0.00e+00	0	57	0	2037383168	40	4118
2026-01-09 06:02:29.07	278.10	13.33	-35.0	-36.2	17.6	0.00e+00	0	57	0	2044723200	40	4169
2026-01-09 06:02:30.08	277.93	13.28	-35.1	-36.3	17.5	0.00e+00	0	57	0	2052063232	40	4210
2026-01-09 06:02:31.09	277.76	13.22	-35.0	-36.2	17.6	0.00e+00	0	57	0	2059403264	40	4189
2026-01-09 06:02:32.09	277.60	13.16	-35.1	-36.3	17.5	0.00e+00	0	57	0	2066743296	40	4239
2026-01-09 06:02:33.10	277.43	13.11	-35.1	-36.3	17.5	0.00e+00	0	57	0	2074083328	40	4219
2026-01-09 06:02:34.11	277.27	13.05	-35.0	-36.2	17.6	0.00e+00	0	57	0	2081423360	40	4175
2026-01-09 06:02:35.12	277.10	12.99	-35.1	-36.4	17.5	0.00e+00	0	57	0	2088763392	40	4249
2026-01-09 06:02:36.13	276.94	12.93	-35.2	-36.5	17.3	0.00e+00	0	57	0	2096103424	40	4316
2026-01-09 06:02:37.14	276.78	12.87	-35.3	-36.5	17.3	0.00e+00	0	57	0	2103443456	40	4338
2026-01-09 06:02:38.15	276.62	12.82	-35.2	-36.5	17.3	0.00e+00	0	57	0	2110783488	40	4307
2026-01-09 06:02:39.16	276.45	12.76	-35.2	-36.4	17.4	0.00e+00	0	57	0	2118123520	40	4280
2026-01-09 06:02:40.17	276.29	12.70	-35.1	-36.3	17.5	0.00e+00	0	57	0	2124414976	40	4227
2026-01-09 06:02:41.18	276.13	12.64	-35.2	-36.5	17.4	0.00e+00	0	57	0	2131755008	40	4303
2026-01-09 06:02:42.19	275.97	12.58	-35.1	-36.4	17.4	0.00e+00	0	57	0	2140143616	40	4253
2026-01-09 06:02:43.20	275.81	12.53	-35.1	-36.3	17.5	0.00e+00	0	57	0	2146435072	40	4237
2026-01-09 06:02:44.21	275.66	12.47	-35.1	-36.4	17.5	0.00e+00	0	57	0	2153775104	40	4246
2026-01-09 06:02:45.22	275.50	12.41	-35.1	-36.4	17.4	0.00e+00	0	57	0	2161115136	40	4271
2026-01-09 06:02:46.22	275.34	12.35	-35.1	-36.4	17.4	0.00e+00	0	57	0	2168455168	40	4243
2026-01-09 06:02:47.23	275.19	12.29	-35.2	-36.4	17.4	0.00e+00	0	57	0	2175795200	40	4283
2026-01-09 06:02:48.24	275.03	12.23	-35.2	-36.5	17.3	0.00e+00	0	57	0	2183135232	40	4321
2026-01-09 06:02:49.25	274.87	12.18	-35.2	-36.4	17.3	0.00e+00	0	57	0	2190475264	40	4279
2026-01-09 06:02:50.26	274.72	12.12	-35.3	-36.6	17.2	0.00e+00	0	57	0	2197815296	40	4346
2026-01-09 06:02:51.27	274.57	12.06	-35.3	-36.6	17.2	0.00e+00	0	57	0	2205155328	40	4359
2026-01-09 06:02:52.28	274.41	12.00	-35.3	-36.6	17.1	0.00e+00	0	57	0	2212495360	40	4386
2026-01-09 06:02:53.29	274.26	11.94	-35.2	-36.5	17.2	0.00e+00	0	57	0	2219835392	40	4312
2026-01-09 06:02:54.29	274.11	11.88	-35.3	-36.5	17.2	0.00e+00	0	57	0	2227175424	40	4338
2026-01-09 06:02:55.31	273.96	11.82	-35.3	-36.6	17.1	0.00e+00	0	57	0	2234515456	40	4358
2026-01-09 06:02:56.31	273.81	11.76	-35.4	-36.7	17.0	0.00e+00	0	57	0	2241855488	40	4435
2026-01-09 06:02:57.32	273.66	11.70	-35.5	-36.9	16.8	0.00e+00	0	57	0	2248146944	40	4501
2026-01-09 06:02:58.33	273.51	11.65	-35.5	-36.8	16.8	0.00e+00	0	57	0	2256535552	40	4482
2026-01-09 06:02:59.34	273.36	11.59	-35.6	-36.9	16.8	0.00e+00	0	57	0	2263875584	40	4516
2026-01-09 06:03:00.35	273.21	11.53	-35.6	-36.9	16.7	0.00e+00	0	57	0	2270167040	40	4545
2026-01-09 06:03:01.36	273.06	11.47	-35.6	-37.0	16.7	0.00e+00	0	57	0	2277507072	40	4554
2026-01-09 06:03:02.37	272.91	11.41	-35.7	-37.1	16.6	0.00e+00	0	57	0	2284847104	40	4618
2026-01-09 06:03:03.39	272.76	11.35	-35.7	-37.1	16.5	0.00e+00	0	57	0	2292187136	41	4353
2026-01-09 06:03:04.39	272.62	11.29	-35.6	-37.0	16.6	0.00e+00	0	57	0	2299527168	41	4319
2026-01-09 06:03:05.40	272.47	11.23	-35.6	-37.0	16.6	0.00e+00	0	57	0	2306867200	41	4326
2026-01-09 06:03:06.41	272.33	11.17	-35.6	-37.0	16.6	0.00e+00	0	57	0	2314207232	41	4306
2026-01-09 06:03:07.42	272.18	11.11	-35.5	-36.8	16.8	0.00e+00	0	57	0	2321547264	41	4225
2026-01-09 06:03:08.43	272.04	11.05	-35.4	-36.7	16.8	0.00e+00	0	57	0	2328887296	41	4190
2026-01-09 06:03:09.44	271.90	10.99	-35.4	-36.8	16.8	0.00e+00	0	57	0	2336227328	41	4202
2026-01-09 06:03:10.45	271.76	10.93	-35.4	-36.7	16.8	0.00e+00	0	57	0	2343567360	41	4177
2026-01-09 06:03:11.46	271.61	10.87	-35.3	-36.6	17.0	0.00e+00	0	57	0	2350907392	41	4112
2026-01-09 06:03:12.47	271.47	10.81	-35.3	-36.7	16.9	0.00e+00	0	57	0	2358247424	41	4151
2026-01-09 06:03:13.48	271.33	10.75	-35.5	-36.8	16.7	0.00e+00	0	57	0	2365587456	41	4222
2026-01-09 06:03:14.48	271.19	10.69	-35.6	-37.0	16.5	0.00e+00	0	57	0	2372927488	41	4295
2026-01-09 06:03:15.49	271.05	10.63	-35.6	-37.0	16.5	0.00e+00	0	57	0	2380267520	41	4314
2026-01-09 06:03:16.50	270.91	10.57	-35.8	-37.2	16.3	0.00e+00	0	57	0	2387607552	41	4411
2026-01-09 06:03:17.51	270.78	10.51	-35.9	-37.3	16.1	0.00e+00	0	57	0	2394947584	41	4488
2026-01-09 06:03:18.52	270.64	10.45	-36.0	-37.4	16.0	0.00e+00	0	57	0	2401239040	41	4527
2026-01-09 06:03:19.53	270.50	10.39	-35.9	-37.4	16.0	0.00e+00	0	57	0	2409627648	41	4503
2026-01-09 06:03:20.54	270.36	10.33	-35.9	-37.3	16.1	0.00e+00	0	57	0	2416967680	41	4462
2026-01-09 06:03:21.55	270.23	10.27	-35.9	-37.3	16.1	0.00e+00	0	57	0	2423259136	41	4464
2026-01-09 06:03:22.56	270.09	10.21	-35.9	-37.3	16.1	0.00e+00	0	57	0	2430599168	41	4485
2026-01-09 06:03:23.57	269.96	10.15	-35.9	-37.3	16.1	0.00e+00	0	57	0	2437939200	41	4493
2026-01-09 06:03:24.58	269.82	10.10	-36.0	-37.5	15.9	0.00e+00	0	57	0	2445279232	41	4552
2026-01-09 06:03:25.59	269.69	10.04	-36.0	-37.5	15.9	0.00e+00	0	57	0	2452619264	41	4583
2026-01-09 06:03:26.60	269.55	9.98	-36.1	-37.6	15.8	0.00e+00	0	57	0	2459959296	41	4620
2026-01-09 06:03:27.61	269.42	9.92	-35.9	-37.4	16.0	0.00e+00	0	57	0	2467299328	41	4518
2026-01-09 06:03:28.62	269.29	9.86	-36.0	-37.5	15.9	0.00e+00	0	57	0	2474639360	41	4557
2026-01-09 06:03:29.63	269.16	9.80	-36.1	-37.6	15.7	0.00e+00	0	57	0	2481979392	41	4626
2026-01-09 06:03:30.64	269.03	9.74	-36.2	-37.7	15.6	0.00e+00	0	57	0	2489319424	41	4658
2026-01-09 06:03:31.64	268.90	9.68	-36.1	-37.6	15.6	0.00e+00	0	57	0	2496659456	42	4381
2026-01-09 06:03:32.65	268.77	9.62	-36.2	-37.8	15.4	0.00e+00	0	57	0	2503999488	42	4457
2026-01-09 06:03:33.66	268.64	9.56	-36.3	-37.9	15.2	0.00e+00	0	57	0	2511339520	42	4514
2026-01-09 06:03:34.67	268.51	9.50	-36.4	-38.1	15.0	0.00e+00	0	57	0	2518679552	42	4605
2026-01-09 06:03:35.68	268.38	9.44	-36.5	-38.2	14.8	0.00e+00	0	57	0	2526019584	42	4668
2026-01-09 06:03:36.69	268.25	9.38	-36.6	-38.2	14.8	0.00e+00	0	57	0	2533359616	42	4695
2026-01-09 06:03:37.71	268.12	9.32	-36.7	-38.3	14.7	0.00e+00	0	57	0	2540699648	42	4759
2026-01-09 06:03:38.71	268.00	9.26	-36.8	-38.5	14.6	0.00e+00	0	57	0	2546991104	43	4565
2026-01-09 06:03:39.72	267.87	9.20	-36.8	-38.6	14.4	2.20e-06	0	57	0	2554331136	43	4614
2026-01-09 06:03:40.73	267.74	9.14	-36.9	-38.7	14.1	2.20e-06	0	57	0	2562719744	43	4690
2026-01-09 06:03:41.74	267.62	9.08	-37.1	-39.0	13.8	2.20e-06	0	57	0	2569011200	43	4826
2026-01-09 06:03:42.75	267.49	9.02	-37.4	-39.4	13.6	5.70e-06	0	57	0	2576351232	44	4763
2026-01-09 06:03:43.76	267.37	8.96	-37.4	-39.4	13.5	9.10e-06	0	57	0	2583691264	44	4767
2026-01-09 06:03:44.77	267.25	8.90	-37.7	-39.8	13.0	3.31e-05	0	57	0	2591031296	45	4724
2026-01-09 06:03:45.78	267.12	8.84	-37.9	-40.0	12.7	7.09e-05	0	57	0	2598371328	45	4864
2026-01-09 06:03:46.79	267.00	8.78	-38.1	-40.3	12.4	1.74e-04	0	57	0	2605711360	45	5007
2026-01-09 06:03:47.80	266.88	8.72	-38.2	-40.5	12.1	2.45e-04	0	57	0	2613051392	46	4870
2026-01-09 06:03:48.80	266.76	8.66	-38.3	-40.7	11.9	4.99e-04	0	57	0	2620391424	46	4945
2026-01-09 06:03:49.81	266.64	8.60	-38.4	-40.8	11.6	6.35e-04	0	57	0	2627731456	46	5040
2026-01-09 06:03:50.82	266.52	8.54	-38.5	-41.0	11.4	1.05e-03	0	57	0	2635071488	46	5131
2026-01-09 06:03:51.83	266.40	8.48	-38.6	-41.2	11.3	1.49e-03	0	57	0	2642411520	46	5222
2026-01-09 06:03:52.84	266.28	8.42	-38.7	-41.3	11.0	1.61e-03	0	57	0	2649751552	46	5313
2026-01-09 06:03:53.86	266.16	8.36	-38.8	-41.6	10.6	3.67e-03	0	57	0	2657091584	47	5183
2026-01-09 06:03:54.87	266.04	8.30	-39.0	-42.0	10.1	6.06e-03	0	57	0	2664431616	47	5407
2026-01-09 06:03:55.87	265.92	8.24	-39.1	-42.2	9.7	1.23e-02	0	57	0	2671771648	47	5582
2026-01-09 06:03:56.88	265.80	8.18	-39.2	-42.4	9.5	1.42e-02	0	57	0	2679111680	47	5705
2026-01-09 06:03:57.89	265.68	8.12	-39.5	-42.9	9.0	2.27e-02	0	57	0	2686451712	48	5705
2026-01-09 06:03:58.90	265.57	8.06	-39.6	-43.2	8.6	3.61e-02	0	57	0	2693791744	48	5898
2026-01-09 06:03:59.92	265.45	8.00	-44.3	-54.6	3.8	3.39e-01	0	57	104	2697986048	58	12351
2026-01-09 06:04:00.93	265.33	7.94	-44.8	-55.7	3.8	8.47e-01	0	57	104	2697986048	59	13123
2026-01-09 06:04:01.94	265.22	7.89	-44.9	-55.9	3.8	8.46e-01	0	57	104	2697986048	59	13423
2026-01-09 06:04:02.95	265.10	7.83	-45.1	-56.0	3.8	8.46e-01	0	57	104	2697986048	59	13598
2026-01-09 06:04:03.96	264.99	7.77	-45.2	-56.1	3.8	8.47e-01	0	57	104	2697986048	59	13758
2026-01-09 06:04:04.97	264.88	7.71	-45.2	-56.4	3.8	8.45e-01	0	57	104	2697986048	60	13416
2026-01-09 06:04:05.98	264.76	7.65	-45.2	-56.4	3.8	8.46e-01	0	57	104	2697986048	60	13479
2026-01-09 06:04:06.99	264.65	7.59	-45.2	-56.4	3.8	8.48e-01	0	57	104	2697986048	60	13543
2026-01-09 06:04:08.00	264.54	7.53	-45.3	-56.5	3.8	8.46e-01	0	57	104	2697986048	60	13591
2026-01-09 06:04:09.01	264.43	7.47	-45.3	-56.4	3.8	8.46e-01	0	57	104	2697986048	60	13521
2026-01-09 06:04:10.02	264.31	7.41	-45.2	-56.4	3.8	8.46e-01	0	57	104	2697986048	60	13485
2026-01-09 06:04:11.03	264.20	7.35	-45.2	-56.4	3.8	8.46e-01	0	57	104	2697986048	60	13458
2026-01-09 06:04:12.04	264.09	7.29	-45.2	-56.3	3.8	8.45e-01	0	57	104	2697986048	60	13410
2026-01-09 06:04:13.05	263.98	7.23	-45.2	-56.3	3.8	8.46e-01	0	57	104	2697986048	60	13393
2026-01-09 06:04:14.06	263.87	7.17	-45.1	-56.3	3.8	8.46e-01	0	57	104	2697986048	60	13323
2026-01-09 06:04:15.07	263.76	7.12	-45.1	-56.3	3.8	8.46e-01	0	57	104	2697986048	60	13308
2026-01-09 06:04:16.08	263.65	7.06	-45.2	-56.3	3.8	8.46e-01	0	57	104	2697986048	60	13361
2026-01-09 06:04:17.09	263.55	7.00	-45.1	-56.2	3.8	8.46e-01	0	57	104	2697986048	60	13241
2026-01-09 06:04:18.10	263.44	6.94	-45.1	-56.2	3.8	8.46e-01	0	57	104	2697986048	60	13155
2026-01-09 06:04:19.11	263.33	6.88	-45.1	-56.3	3.8	8.46e-01	0	57	104	2697986048	60	13303
2026-01-09 06:04:20.12	263.22	6.82	-45.1	-56.2	3.8	8.46e-01	0	57	104	2697986048	60	13235
2026-01-09 06:04:21.13	263.12	6.76	-45.1	-56.3	3.8	8.46e-01	0	57	104	2697986048	60	13322
2026-01-09 06:04:22.14	263.01	6.70	-45.1	-56.3	3.8	8.46e-01	0	57	104	2697986048	60	13268
2026-01-09 06:04:23.15	262.90	6.65	-44.1	-54.9	4.1	8.47e-01	0	57	104	2697986048	59	12014
2026-01-09 06:04:24.16	262.80	6.59	-44.1	-54.9	4.1	8.33e-01	0	57	104	2697986048	58	12729
2026-01-09 06:04:25.17	262.69	6.53	-44.4	-54.9	4.0	8.36e-01	0	57	104	2697986048	58	12779
2026-01-09 06:04:26.18	262.59	6.47	-44.7	-55.2	3.9	8.36e-01	0	57	104	2697986048	58	13215
2026-01-09 06:04:27.20	262.49	6.41	-44.8	-55.5	3.9	8.40e-01	0	57	104	2697986048	59	12883
2026-01-09 06:04:28.21	262.38	6.35	-44.9	-55.5	3.8	8.40e-01	0	57	104	2697986048	59	12958
2026-01-09 06:04:29.21	262.28	6.29	-45.0	-55.6	3.8	8.42e-01	0	57	104	2697986048	59	13057
2026-01-09 06:04:30.22	262.18	6.24	-45.1	-55.6	3.8	8.42e-01	0	57	104	2697986048	59	13060
2026-01-09 06:04:31.23	262.07	6.18	-45.2	-56.1	3.8	8.46e-01	0	57	104	2697986048	59	13737
2026-01-09 06:04:32.25	261.97	6.12	-45.2	-56.0	3.8	8.46e-01	0	57	104	2697986048	59	13718
2026-01-09 06:04:33.26	261.87	6.06	-45.2	-56.0	3.8	8.45e-01	0	57	104	2697986048	59	13630
2026-01-09 06:04:34.27	261.77	6.00	-45.2	-56.0	3.8	8.47e-01	0	57	104	2697986048	59	13686
2026-01-09 06:04:35.28	261.67	5.94	-45.2	-56.0	3.8	8.46e-01	0	57	104	2697986048	59	13696
2026-01-09 06:04:36.29	261.57	5.89	-45.2	-56.0	3.8	8.45e-01	0	57	104	2697986048	59	13625
2026-01-09 06:04:37.30	261.47	5.83	-45.2	-56.0	3.8	8.46e-01	0	57	104	2697986048	59	13697
2026-01-09 06:04:38.31	261.37	5.77	-45.1	-56.0	3.8	8.48e-01	0	57	104	2697986048	59	13654
2026-01-09 06:04:39.32	261.27	5.71	-45.2	-56.0	3.8	8.47e-01	0	57	104	2697986048	59	13675
2026-01-09 06:04:40.33	261.17	5.66	-45.2	-56.0	3.8	8.46e-01	0	57	104	2697986048	59	13686
2026-01-09 06:04:41.34	261.07	5.60	-45.2	-56.0	3.8	8.45e-01	0	57	104	2697986048	59	13663
2026-01-09 06:04:42.35	260.98	5.54	-45.2	-56.0	3.8	8.47e-01	0	57	104	2697986048	59	13669
2026-01-09 06:04:43.36	260.88	5.48	-45.2	-56.0	3.8	8.45e-01	0	57	104	2697986048	59	13650
2026-01-09 06:04:44.38	260.78	5.42	-45.2	-56.0	3.8	8.46e-01	0	57	104	2697986048	59	13671
2026-01-09 06:04:45.39	260.68	5.37	-45.2	-56.0	3.8	8.46e-01	0	57	104	2697986048	59	13674
2026-01-09 06:04:46.40	260.59	5.31	-45.2	-56.0	3.8	8.47e-01	0	57	104	2697986048	59	13673
2026-01-09 06:04:47.41	260.49	5.25	-45.2	-56.0	3.8	8.45e-01	0	57	104	2697986048	59	13613
2026-01-09 06:04:48.42	260.40	5.19	-45.2	-56.0	3.8	8.46e-01	0	57	104	2697986048	59	13658
2026-01-09 06:04:49.43	260.30	5.14	-45.2	-56.0	3.8	8.45e-01	0	57	104	2697986048	59	13701
2026-01-09 06:04:50.44	260.21	5.08	-45.2	-56.0	3.8	8.47e-01	0	57	104	2697986048	59	13602
2026-01-09 06:04:51.45	260.11	5.02	-45.2	-56.0	3.8	8.46e-01	0	57	104	2697986048	59	13623
2026-01-09 06:04:52.46	260.02	4.96	-45.2	-56.0	3.8	8.47e-01	0	57	104	2697986048	59	13636
2026-01-09 06:04:53.47	259.92	4.91	-45.2	-56.0	3.8	8.47e-01	0	57	104	2697986048	59	13583
2026-01-09 06:04:54.48	259.83	4.85	-45.2	-56.0	3.8	8.46e-01	0	57	104	2697986048	59	13650
2026-01-09 06:04:55.49	259.74	4.79	-45.0	-55.9	3.8	8.45e-01	0	57	104	2697986048	59	13476
2026-01-09 06:04:56.50	259.65	4.74	-45.2	-56.0	3.8	8.45e-01	0	57	104	2697986048	59	13678
2026-01-09 06:04:57.51	259.55	4.68	-45.2	-56.0	3.8	8.47e-01	0	57	104	2697986048	59	13669
2026-01-09 06:04:58.52	259.46	4.62	-45.2	-56.0	3.8	8.47e-01	0	57	104	2697986048	59	13649
2026-01-09 06:04:59.53	259.37	4.57	-45.2	-56.0	3.8	8.47e-01	0	57	104	2697986048	59	13627
2026-01-09 06:05:00.54	259.28	4.51	-45.2	-56.0	3.8	8.46e-01	0	57	104	2697986048	59	13683
2026-01-09 06:05:01.55	259.19	4.45	-45.2	-56.0	3.8	8.47e-01	0	57	104	2697986048	59	13607
2026-01-09 06:05:02.56	259.10	4.39	-45.1	-56.0	3.8	8.46e-01	0	57	104	2697986048	59	13630
2026-01-09 06:05:03.57	259.01	4.34	-45.1	-55.9	3.8	8.46e-01	0	57	104	2697986048	59	13432
2026-01-09 06:05:04.58	258.92	4.28	-45.2	-56.0	3.8	8.46e-01	0	57	104	2697986048	59	13642
2026-01-09 06:05:05.59	258.83	4.22	-45.1	-56.0	3.8	8.47e-01	0	57	104	2697986048	59	13650
2026-01-09 06:05:06.60	258.74	4.17	-45.2	-56.0	3.8	8.47e-01	0	57	104	2697986048	59	13671
2026-01-09 06:05:07.61	258.65	4.11	-45.2	-56.0	3.8	8.46e-01	0	57	104	2697986048	59	13623
2026-01-09 06:05:08.62	258.56	4.06	-45.1	-56.0	3.8	8.46e-01	0	57	104	2697986048	59	13619
2026-01-09 06:05:09.63	258.48	4.00	-45.2	-56.0	3.8	8.47e-01	0	57	104	2697986048	59	13631
2026-01-09 06:05:10.65	258.39	3.94	-45.2	-56.0	3.8	8.46e-01	0	57	104	2697986048	59	13633
2026-01-09 06:05:11.66	258.30	3.89	-45.2	-56.0	3.8	8.47e-01	0	57	104	2697986048	59	13688
2026-01-09 06:05:12.67	258.21	3.83	-45.2	-56.0	3.8	8.44e-01	0	57	104	2697986048	59	13631
2026-01-09 06:05:13.68	258.13	3.77	-45.2	-56.0	3.8	8.45e-01	0	57	104	2697986048	59	13642
2026-01-09 06:05:14.69	258.04	3.72	-45.2	-56.0	3.8	8.46e-01	0	57	104	2697986048	59	13645
2026-01-09 06:05:15.70	257.96	3.66	-45.2	-56.0	3.8	8.48e-01	0	57	104	2697986048	59	13692
2026-01-09 06:05:16.71	257.87	3.61	-45.2	-56.0	3.8	8.46e-01	0	57	104	2697986048	59	13715
2026-01-09 06:05:17.72	257.79	3.55	-45.2	-56.0	3.8	8.46e-01	0	57	104	2697986048	59	13600
2026-01-09 06:05:18.73	257.70	3.49	-45.1	-56.0	3.8	8.48e-01	0	57	104	2697986048	59	13595
2026-01-09 06:05:19.74	257.62	3.44	-45.2	-56.0	3.8	8.47e-01	0	57	104	2697986048	59	13661
2026-01-09 06:05:20.75	257.53	3.38	-45.2	-55.9	3.8	8.46e-01	0	57	104	2697986048	59	13568
2026-01-09 06:05:21.76	257.45	3.33	-45.2	-56.0	3.8	8.47e-01	0	58	104	2697986048	59	13647
2026-01-09 06:05:22.77	257.36	3.27	-45.2	-56.0	3.8	8.46e-01	0	57	104	2697986048	59	13614
2026-01-09 06:05:23.78	257.28	3.22	-45.2	-56.0	3.8	8.45e-01	0	57	104	2697986048	59	13715
2026-01-09 06:05:24.79	257.20	3.16	-45.2	-56.0	3.8	8.46e-01	0	57	104	2697986048	59	13604
2026-01-09 06:05:25.80	257.12	3.10	-45.2	-56.0	3.8	8.45e-01	0	57	104	2697986048	59	13716
2026-01-09 06:05:26.81	257.03	3.05	-45.2	-56.0	3.8	8.47e-01	0	57	104	2697986048	59	13676
2026-01-09 06:05:27.82	256.95	2.99	-45.0	-55.9	3.8	8.46e-01	0	57	104	2697986048	59	13508
2026-01-09 06:05:28.83	256.87	2.94	-45.1	-56.0	3.8	8.47e-01	0	57	104	2697986048	59	13656
2026-01-09 06:05:29.84	256.79	2.88	-45.2	-56.0	3.8	8.45e-01	0	57	104	2697986048	59	13629
2026-01-09 06:05:30.85	256.71	2.83	-44.9	-55.8	3.8	8.46e-01	0	57	104	2697986048	59	13320
2026-01-09 06:05:31.86	256.63	2.77	-45.1	-56.0	3.8	8.47e-01	0	57	104	2697986048	59	13620
2026-01-09 06:05:32.87	256.55	2.72	-45.1	-55.8	3.8	8.46e-01	0	57	104	2697986048	59	13318
2026-01-09 06:05:33.88	256.47	2.66	-45.2	-56.0	3.8	8.47e-01	0	57	104	2697986048	59	13629
