passes_logs/2026/01/09/R2.0S_Moscow/R2.0S_Moscow__20260109_111835_SUOMI_NPP_rec.log

#Pass ID: 20260109_111835_SUOMI NPP
#Satellite: SUOMI NPP
#Configuration: NPP
#almurnet v.1.7.20251203
#Start time: 2026-01-09 11:18:37

#Version: 2.2.20231116
#Station: R2.0S_Moscow
#Location: 37.707566 lon 55.798166 lat
#TLE: 1 37849U 11061A   26008.05542337  .00000108  00000+0  71976-4 0  9997
#TLE: 2 37849  98.7805 310.1641 0002540  75.6410 284.5048 14.19523335735721

#Time	Az	El	Level	Level2	SNR	BER	BlckErr	Temp	State	Recorded	gain1	gain2
2026-01-09 11:18:37.16	200.31	2.11	-43.8	-58.1	3.8	1.49e+00	0	47	0	0	59	18477
2026-01-09 11:18:38.18	200.37	2.17	-43.8	-58.1	3.8	1.49e+00	0	47	104	0	59	18376
2026-01-09 11:18:39.19	200.43	2.23	-43.8	-58.1	3.8	1.49e+00	0	47	104	0	59	18372
2026-01-09 11:18:40.20	200.50	2.29	-43.8	-58.1	3.8	1.49e+00	0	47	104	0	59	18417
2026-01-09 11:18:41.21	200.56	2.35	-43.8	-58.1	3.8	1.49e+00	0	47	104	0	59	18381
2026-01-09 11:18:42.22	200.62	2.40	-43.8	-58.1	3.8	1.49e+00	0	47	104	0	59	18330
2026-01-09 11:18:43.23	200.69	2.46	-43.8	-58.1	3.8	1.49e+00	0	48	104	0	59	18410
2026-01-09 11:18:44.24	200.75	2.52	-43.8	-58.1	3.8	1.49e+00	0	47	104	0	59	18386
2026-01-09 11:18:45.25	200.82	2.58	-43.8	-58.1	3.8	1.49e+00	0	48	104	0	59	18384
2026-01-09 11:18:46.27	200.88	2.64	-43.8	-58.1	3.8	1.49e+00	0	48	104	0	59	18404
2026-01-09 11:18:47.28	200.95	2.70	-43.8	-58.1	3.8	1.49e+00	0	48	104	0	59	18331
2026-01-09 11:18:48.29	201.01	2.76	-43.8	-58.1	3.8	1.49e+00	0	48	104	0	59	18346
2026-01-09 11:18:49.30	201.08	2.82	-43.8	-58.1	3.8	1.49e+00	0	48	104	0	59	18347
2026-01-09 11:18:50.31	201.15	2.88	-43.8	-58.1	3.8	1.49e+00	0	48	104	0	59	18434
2026-01-09 11:18:51.32	201.21	2.94	-43.8	-58.1	3.8	1.49e+00	0	48	104	0	59	18350
2026-01-09 11:18:52.33	201.28	3.00	-43.8	-58.1	3.8	1.49e+00	0	48	104	0	59	18350
2026-01-09 11:18:53.34	201.35	3.06	-43.8	-58.1	3.8	1.49e+00	0	48	104	0	59	18434
2026-01-09 11:18:54.35	201.41	3.12	-43.8	-58.1	3.8	1.49e+00	0	48	104	0	59	18380
2026-01-09 11:18:55.36	201.48	3.18	-43.8	-58.1	3.8	1.49e+00	0	48	104	0	59	18407
2026-01-09 11:18:56.37	201.55	3.24	-43.8	-58.1	3.8	1.49e+00	0	49	104	0	59	18372
2026-01-09 11:18:57.38	201.61	3.30	-43.8	-58.1	3.8	1.49e+00	0	49	104	0	59	18379
2026-01-09 11:18:58.39	201.68	3.36	-43.8	-58.1	3.8	1.49e+00	0	49	104	0	59	18343
2026-01-09 11:18:59.40	201.75	3.42	-43.8	-58.1	3.8	1.49e+00	0	49	104	0	59	18407
2026-01-09 11:19:00.41	201.82	3.48	-43.8	-58.1	3.8	1.49e+00	0	49	104	0	59	18385
2026-01-09 11:19:01.42	201.89	3.54	-43.7	-58.1	3.8	1.49e+00	0	49	104	0	59	18445
2026-01-09 11:19:02.43	201.96	3.60	-43.8	-58.1	3.8	1.49e+00	0	49	104	0	59	18367
2026-01-09 11:19:03.44	202.03	3.66	-43.8	-58.1	3.8	1.49e+00	0	49	104	0	59	18314
2026-01-09 11:19:04.45	202.10	3.72	-43.8	-58.1	3.8	1.49e+00	0	49	104	0	59	18361
2026-01-09 11:19:05.46	202.17	3.78	-43.8	-58.1	3.8	1.49e+00	0	49	104	0	59	18384
2026-01-09 11:19:06.47	202.24	3.84	-43.8	-58.1	3.8	1.49e+00	0	49	104	0	59	18370
2026-01-09 11:19:07.48	202.31	3.90	-43.8	-58.1	3.8	1.49e+00	0	49	104	0	59	18368
2026-01-09 11:19:08.49	202.38	3.97	-43.7	-58.0	3.8	1.49e+00	0	49	104	0	59	18274
2026-01-09 11:19:09.50	202.45	4.03	-43.8	-58.1	3.8	1.49e+00	0	49	104	0	59	18390
2026-01-09 11:19:10.51	202.52	4.09	-43.8	-58.1	3.8	1.49e+00	0	49	104	0	59	18345
2026-01-09 11:19:11.53	202.59	4.15	-43.7	-58.1	3.8	1.49e+00	0	49	104	0	59	18332
2026-01-09 11:19:12.54	202.66	4.21	-43.8	-58.1	3.8	1.49e+00	0	49	104	0	59	18367
2026-01-09 11:19:13.55	202.74	4.28	-43.7	-58.1	3.8	1.49e+00	0	50	104	0	59	18342
2026-01-09 11:19:14.56	202.81	4.34	-43.7	-58.0	3.8	1.49e+00	0	49	104	0	59	18282
2026-01-09 11:19:15.57	202.88	4.40	-43.8	-58.1	3.8	1.49e+00	0	49	104	0	59	18352
2026-01-09 11:19:16.58	202.96	4.46	-43.8	-58.1	3.8	1.49e+00	0	50	104	0	59	18353
2026-01-09 11:19:17.59	203.03	4.52	-43.8	-58.1	3.8	1.49e+00	0	50	104	0	59	18379
2026-01-09 11:19:18.60	203.10	4.59	-43.7	-58.1	3.8	1.49e+00	0	50	104	0	59	18333
2026-01-09 11:19:19.61	203.18	4.65	-43.8	-58.1	3.8	1.49e+00	0	50	104	0	59	18367
2026-01-09 11:19:20.62	203.25	4.71	-43.7	-58.1	3.8	1.49e+00	0	50	104	0	59	18349
2026-01-09 11:19:21.63	203.33	4.77	-43.7	-58.1	3.8	1.49e+00	0	50	104	0	59	18338
2026-01-09 11:19:22.64	203.40	4.84	-43.7	-58.1	3.8	1.49e+00	0	50	104	0	59	18351
2026-01-09 11:19:23.65	203.48	4.90	-43.7	-58.0	3.8	1.49e+00	0	50	104	0	59	18297
2026-01-09 11:19:24.66	203.55	4.96	-43.8	-58.1	3.8	1.49e+00	0	50	104	0	59	18353
2026-01-09 11:19:25.67	203.63	5.03	-43.7	-58.1	3.8	1.49e+00	0	50	104	0	59	18349
2026-01-09 11:19:26.68	203.70	5.09	-43.7	-58.1	3.8	1.49e+00	0	50	104	0	59	18361
2026-01-09 11:19:27.70	203.78	5.15	-43.7	-58.1	3.8	1.49e+00	0	50	104	0	59	18323
2026-01-09 11:19:28.71	203.86	5.22	-43.7	-58.1	3.8	1.49e+00	0	50	104	0	59	18385
2026-01-09 11:19:29.72	203.93	5.28	-43.7	-58.1	3.8	1.49e+00	0	50	104	0	59	18442
2026-01-09 11:19:30.73	204.01	5.34	-43.7	-58.0	3.8	1.49e+00	0	50	104	0	59	18294
2026-01-09 11:19:31.74	204.09	5.41	-43.7	-58.0	3.8	1.49e+00	0	51	104	0	59	18279
2026-01-09 11:19:32.75	204.17	5.47	-43.7	-58.0	3.8	1.49e+00	0	51	104	0	59	18281
2026-01-09 11:19:33.76	204.25	5.53	-43.7	-58.0	3.8	1.49e+00	0	51	104	0	59	18279
2026-01-09 11:19:34.77	204.32	5.60	-43.8	-58.0	3.8	1.49e+00	0	51	104	0	59	18272
2026-01-09 11:19:35.78	204.40	5.66	-43.7	-58.0	3.8	1.49e+00	0	51	104	0	59	18237
2026-01-09 11:19:36.79	204.48	5.73	-43.7	-58.1	3.8	1.49e+00	0	51	104	0	59	18343
2026-01-09 11:19:37.80	204.56	5.79	-43.7	-58.0	3.8	1.49e+00	0	51	104	0	59	18250
2026-01-09 11:19:38.81	204.64	5.86	-43.7	-58.1	3.8	1.49e+00	0	51	104	0	59	18331
2026-01-09 11:19:39.82	204.72	5.92	-43.7	-58.1	3.8	1.49e+00	0	51	104	0	59	18337
2026-01-09 11:19:40.83	204.80	5.99	-43.8	-58.1	3.8	1.49e+00	0	51	104	0	59	18346
2026-01-09 11:19:41.84	204.89	6.05	-43.8	-58.0	3.8	1.49e+00	0	51	104	0	59	18244
2026-01-09 11:19:42.85	204.97	6.12	-43.8	-58.0	3.8	1.49e+00	0	51	104	0	59	18244
2026-01-09 11:19:43.86	205.05	6.18	-43.7	-58.0	3.8	1.49e+00	0	51	104	0	59	18114
2026-01-09 11:19:44.87	205.13	6.25	-43.7	-57.9	3.8	1.49e+00	0	51	104	0	59	18034
2026-01-09 11:19:45.88	205.21	6.31	-43.8	-57.9	3.8	1.49e+00	0	51	104	0	59	18022
2026-01-09 11:19:46.89	205.30	6.38	-43.7	-57.8	3.8	1.49e+00	0	51	104	0	59	17724
2026-01-09 11:19:47.90	205.38	6.44	-43.7	-57.7	3.8	1.49e+00	0	51	104	0	59	17579
2026-01-09 11:19:48.91	205.46	6.51	-43.7	-57.7	3.8	1.49e+00	0	51	104	0	59	17567
2026-01-09 11:19:49.93	205.55	6.58	-43.7	-57.6	3.8	1.49e+00	0	51	104	0	59	17368
2026-01-09 11:19:50.94	205.63	6.64	-43.7	-57.5	3.8	1.49e+00	0	52	104	0	59	17243
2026-01-09 11:19:51.95	205.72	6.71	-43.7	-57.5	3.8	1.49e+00	0	51	104	0	59	17159
2026-01-09 11:19:52.96	205.80	6.77	-43.7	-57.4	3.8	1.49e+00	0	52	104	0	59	16991
2026-01-09 11:19:53.97	205.89	6.84	-43.7	-57.3	3.8	1.49e+00	0	52	104	0	59	16795
2026-01-09 11:19:54.98	205.97	6.91	-43.7	-57.3	3.8	1.49e+00	0	52	104	0	59	16697
2026-01-09 11:19:55.99	206.06	6.97	-43.7	-57.1	3.8	1.49e+00	0	51	104	0	59	16473
2026-01-09 11:19:57.00	206.15	7.04	-43.7	-56.9	3.8	1.49e+00	0	52	104	0	59	16056
2026-01-09 11:19:58.01	206.23	7.11	-43.7	-56.6	3.8	1.49e+00	0	52	104	0	59	15576
2026-01-09 11:19:59.02	206.32	7.17	-43.6	-56.2	3.8	1.49e+00	0	52	104	0	59	14781
2026-01-09 11:20:00.03	206.41	7.24	-43.6	-55.8	3.8	1.49e+00	0	52	104	0	59	14047
2026-01-09 11:20:01.04	206.50	7.31	-43.5	-54.7	4.1	1.46e+00	0	52	0	0	59	12473
2026-01-09 11:20:02.05	206.58	7.38	-43.4	-53.8	4.4	1.36e+00	0	52	0	0	58	11944
2026-01-09 11:20:03.06	206.67	7.44	-43.3	-52.7	4.9	8.64e-01	0	52	0	2097152	58	10431
2026-01-09 11:20:04.07	206.76	7.51	-43.1	-51.6	5.6	5.84e-01	0	52	0	4194304	58	9185
2026-01-09 11:20:05.08	206.85	7.58	-42.9	-50.5	6.4	3.71e-01	0	52	0	6291456	57	8575
2026-01-09 11:20:06.09	206.94	7.65	-42.7	-49.5	7.3	1.45e-01	0	52	0	7340032	57	7651
2026-01-09 11:20:07.10	207.03	7.71	-42.5	-48.6	8.1	8.32e-02	0	52	0	9437184	56	7330
2026-01-09 11:20:08.11	207.12	7.78	-42.2	-47.8	9.0	4.65e-02	0	52	0	11534336	56	6648
2026-01-09 11:20:09.12	207.22	7.85	-42.0	-47.1	9.6	1.42e-02	0	52	0	13631488	56	6181
2026-01-09 11:20:10.13	207.31	7.92	-41.6	-46.4	10.2	6.46e-03	0	52	0	15728640	55	6026
2026-01-09 11:20:11.14	207.40	7.99	-41.4	-45.8	10.9	3.70e-03	0	52	0	16777216	54	5948
2026-01-09 11:20:12.16	207.49	8.06	-41.3	-45.6	11.1	2.01e-03	0	52	0	18874368	54	5799
2026-01-09 11:20:13.16	207.59	8.12	-41.2	-45.3	11.5	7.06e-04	0	52	0	20971520	54	5633
2026-01-09 11:20:14.17	207.68	8.19	-43.2	-52.2	5.2	2.84e-01	0	52	0	23068672	56	11097
2026-01-09 11:20:15.19	207.77	8.26	-41.2	-45.2	11.8	2.97e-04	0	52	0	25165824	53	5866
2026-01-09 11:20:16.19	207.87	8.33	-42.8	-49.3	7.7	9.74e-02	0	52	0	26214400	56	7912
2026-01-09 11:20:17.20	207.96	8.40	-41.0	-44.8	11.9	4.80e-05	0	52	0	28311552	52	5987
2026-01-09 11:20:18.21	208.06	8.47	-40.3	-43.5	13.3	2.44e-05	0	52	0	30408704	52	5157
2026-01-09 11:20:19.23	208.15	8.54	-40.3	-43.5	13.3	1.14e-05	0	53	0	32505856	52	5135
2026-01-09 11:20:20.23	208.25	8.61	-40.2	-43.4	13.5	1.14e-05	0	53	0	34603008	52	5069
2026-01-09 11:20:21.24	208.34	8.68	-40.2	-43.4	13.5	1.22e-05	0	52	0	35651584	52	5053
2026-01-09 11:20:22.25	208.44	8.75	-40.2	-43.4	13.5	1.37e-05	0	53	0	37748736	52	5094
2026-01-09 11:20:23.26	208.54	8.82	-40.2	-43.3	13.7	6.80e-06	0	53	0	39845888	52	5016
2026-01-09 11:20:24.27	208.64	8.89	-40.3	-43.5	13.5	9.90e-06	0	53	0	41943040	52	5144
2026-01-09 11:20:25.28	208.74	8.96	-40.3	-43.4	13.7	1.22e-05	0	53	0	44040192	52	5069
2026-01-09 11:20:26.29	208.83	9.03	-40.3	-43.4	13.7	9.90e-06	0	53	0	45088768	52	5073
2026-01-09 11:20:27.30	208.93	9.10	-40.4	-43.7	13.4	6.80e-06	0	53	0	47185920	52	5222
2026-01-09 11:20:28.31	209.03	9.17	-40.2	-43.3	13.8	7.60e-06	0	53	0	49283072	52	5015
2026-01-09 11:20:29.32	209.13	9.24	-40.1	-43.2	13.9	3.00e-06	0	53	0	51380224	52	4955
2026-01-09 11:20:30.33	209.23	9.31	-40.2	-43.3	13.8	2.20e-06	0	53	0	53477376	52	5015
2026-01-09 11:20:31.34	209.33	9.38	-40.1	-43.2	13.9	2.20e-06	0	53	0	54525952	52	4950
2026-01-09 11:20:32.35	209.44	9.45	-40.1	-43.1	14.1	8.30e-06	0	53	0	56623104	51	5170
2026-01-09 11:20:33.35	209.54	9.52	-40.1	-43.1	14.0	0.00e+00	0	53	0	58720256	51	5204
2026-01-09 11:20:34.37	209.64	9.59	-40.1	-43.0	14.1	2.20e-06	0	53	0	60817408	51	5142
2026-01-09 11:20:35.37	209.74	9.66	-40.0	-42.9	14.3	2.20e-06	0	53	0	62914560	51	5078
2026-01-09 11:20:36.38	209.85	9.74	-40.0	-42.9	14.3	1.50e-06	0	53	0	65011712	51	5062
2026-01-09 11:20:37.40	209.95	9.81	-39.9	-42.7	14.5	0.00e+00	0	53	0	66060288	51	4976
2026-01-09 11:20:38.40	210.05	9.88	-40.0	-42.9	14.4	0.00e+00	0	53	0	68157440	51	5061
2026-01-09 11:20:39.41	210.16	9.95	-40.0	-42.9	14.3	7.00e-07	0	53	0	70254592	51	5077
2026-01-09 11:20:40.42	210.26	10.02	-40.0	-42.8	14.5	0.00e+00	0	53	0	72351744	51	5011
2026-01-09 11:20:41.43	210.37	10.10	-40.1	-42.9	14.4	7.00e-07	0	53	0	74448896	51	5068
2026-01-09 11:20:42.44	210.48	10.17	-40.3	-43.3	14.0	7.00e-07	0	53	0	75497472	51	5285
2026-01-09 11:20:43.45	210.58	10.24	-40.2	-43.1	14.2	2.20e-06	0	53	0	77594624	51	5193
2026-01-09 11:20:44.46	210.69	10.31	-40.3	-43.2	14.1	1.50e-06	0	53	0	79691776	51	5268
2026-01-09 11:20:45.47	210.80	10.39	-40.4	-43.4	13.9	7.00e-07	0	53	0	81788928	51	5367
2026-01-09 11:20:46.48	210.91	10.46	-40.3	-43.2	14.1	7.00e-07	0	53	0	83886080	51	5258
2026-01-09 11:20:47.49	211.02	10.53	-40.3	-43.3	14.0	7.00e-07	0	53	0	84934656	51	5321
2026-01-09 11:20:48.50	211.13	10.60	-40.4	-43.5	13.9	4.50e-06	0	53	0	87031808	51	5416
2026-01-09 11:20:49.51	211.24	10.68	-40.4	-43.4	13.9	4.50e-06	0	54	0	89128960	51	5385
2026-01-09 11:20:50.51	211.35	10.75	-40.4	-43.4	14.0	3.80e-06	0	53	0	91226112	51	5382
2026-01-09 11:20:51.52	211.46	10.82	-40.3	-43.3	14.1	3.00e-06	0	54	0	93323264	51	5327
2026-01-09 11:20:52.53	211.57	10.90	-40.4	-43.4	14.0	7.00e-07	0	53	0	94371840	51	5351
2026-01-09 11:20:53.54	211.68	10.97	-40.4	-43.3	14.1	7.00e-07	0	53	0	96468992	51	5326
2026-01-09 11:20:54.55	211.79	11.04	-40.3	-43.2	14.2	1.50e-06	0	54	0	98566144	51	5237
2026-01-09 11:20:55.56	211.91	11.12	-40.1	-42.9	14.5	0.00e+00	0	53	0	100663296	51	5073
2026-01-09 11:20:56.57	212.02	11.19	-39.9	-42.6	14.8	7.00e-07	0	53	0	102760448	51	4879
2026-01-09 11:20:57.58	212.14	11.27	-39.9	-42.6	14.9	0.00e+00	0	53	0	103809024	51	4876
2026-01-09 11:20:58.59	212.25	11.34	-39.8	-42.5	14.9	0.00e+00	0	54	0	105906176	51	4821
2026-01-09 11:20:59.60	212.37	11.42	-39.8	-42.5	14.9	0.00e+00	0	54	0	108003328	51	4840
2026-01-09 11:21:00.61	212.48	11.49	-39.8	-42.4	15.0	0.00e+00	0	54	0	110100480	51	4778
2026-01-09 11:21:01.62	212.60	11.56	-39.7	-42.2	15.1	0.00e+00	0	54	0	112197632	51	4703
2026-01-09 11:21:02.63	212.72	11.64	-39.8	-42.4	15.0	0.00e+00	0	54	0	113246208	51	4781
2026-01-09 11:21:03.64	212.83	11.71	-39.9	-42.5	14.9	0.00e+00	0	54	0	115343360	51	4867
2026-01-09 11:21:04.65	212.95	11.79	-39.9	-42.6	14.9	0.00e+00	0	54	0	117440512	51	4871
2026-01-09 11:21:05.65	213.07	11.86	-39.9	-42.5	14.9	0.00e+00	0	54	0	119537664	51	4858
2026-01-09 11:21:06.66	213.19	11.94	-40.1	-42.8	14.6	0.00e+00	0	54	0	121634816	51	5017
2026-01-09 11:21:07.67	213.31	12.01	-40.1	-42.9	14.6	0.00e+00	0	54	0	122683392	51	5052
2026-01-09 11:21:08.68	213.43	12.09	-40.0	-42.7	14.7	0.00e+00	0	54	0	124780544	51	4983
2026-01-09 11:21:09.69	213.55	12.17	-40.3	-43.1	14.3	7.00e-07	0	54	0	126877696	51	5200
2026-01-09 11:21:10.70	213.67	12.24	-40.2	-43.0	14.4	0.00e+00	0	54	0	128974848	51	5149
2026-01-09 11:21:11.71	213.80	12.32	-40.2	-43.0	14.5	7.00e-07	0	54	0	131072000	51	5107
2026-01-09 11:21:12.72	213.92	12.39	-40.3	-43.2	14.3	1.50e-06	0	54	0	133169152	51	5246
2026-01-09 11:21:13.73	214.04	12.47	-40.3	-43.2	14.2	0.00e+00	0	54	0	134217728	51	5258
2026-01-09 11:21:14.74	214.17	12.55	-40.3	-43.1	14.3	7.00e-07	0	54	0	136314880	51	5214
2026-01-09 11:21:15.75	214.29	12.62	-40.3	-43.2	14.3	7.00e-07	0	54	0	138412032	51	5255
2026-01-09 11:21:16.76	214.42	12.70	-40.4	-43.3	14.2	7.00e-07	0	54	0	140509184	51	5292
2026-01-09 11:21:17.77	214.55	12.78	-40.2	-43.1	14.4	1.50e-06	0	54	0	142606336	51	5161
2026-01-09 11:21:18.78	214.67	12.85	-40.2	-43.1	14.4	7.00e-07	0	54	0	143654912	51	5168
2026-01-09 11:21:19.79	214.80	12.93	-40.2	-43.0	14.5	7.00e-07	0	54	0	145752064	51	5151
2026-01-09 11:21:20.80	214.93	13.01	-40.1	-42.9	14.6	0.00e+00	0	54	0	147849216	51	5080
2026-01-09 11:21:21.80	215.06	13.08	-40.1	-42.9	14.6	2.20e-06	0	54	0	149946368	51	5064
2026-01-09 11:21:22.81	215.19	13.16	-40.2	-43.1	14.5	0.00e+00	0	54	0	152043520	51	5166
2026-01-09 11:21:23.82	215.32	13.24	-40.2	-43.1	14.4	7.00e-07	0	54	0	153092096	51	5179
2026-01-09 11:21:24.83	215.45	13.31	-40.3	-43.1	14.4	0.00e+00	0	54	0	155189248	51	5204
2026-01-09 11:21:25.84	215.58	13.39	-40.3	-43.1	14.4	0.00e+00	0	54	0	157286400	51	5211
2026-01-09 11:21:26.85	215.71	13.47	-40.2	-43.0	14.5	1.50e-06	0	54	0	159383552	51	5133
2026-01-09 11:21:27.86	215.84	13.55	-40.2	-43.0	14.6	0.00e+00	0	54	0	161480704	51	5104
2026-01-09 11:21:28.87	215.98	13.62	-40.2	-42.9	14.6	1.50e-06	0	54	0	162529280	51	5082
2026-01-09 11:21:29.88	216.11	13.70	-40.2	-42.9	14.6	0.00e+00	0	54	0	164626432	51	5095
2026-01-09 11:21:30.89	216.25	13.78	-40.2	-43.0	14.5	0.00e+00	0	54	0	166723584	51	5140
2026-01-09 11:21:31.90	216.38	13.86	-40.2	-43.0	14.6	0.00e+00	0	54	0	168820736	51	5112
2026-01-09 11:21:32.90	216.52	13.94	-40.2	-42.9	14.6	1.50e-06	0	54	0	170917888	51	5077
2026-01-09 11:21:33.91	216.65	14.01	-40.1	-42.8	14.8	7.00e-07	0	54	0	171966464	51	5018
2026-01-09 11:21:34.92	216.79	14.09	-40.1	-42.8	14.8	0.00e+00	0	54	0	174063616	51	4991
2026-01-09 11:21:35.93	216.93	14.17	-40.0	-42.6	14.9	7.00e-07	0	54	0	176160768	51	4921
2026-01-09 11:21:36.94	217.07	14.25	-40.0	-42.6	14.9	0.00e+00	0	54	0	178257920	51	4909
2026-01-09 11:21:37.95	217.21	14.33	-39.8	-42.3	15.2	0.00e+00	0	54	0	180355072	51	4748
2026-01-09 11:21:38.97	217.35	14.41	-39.7	-42.2	15.3	0.00e+00	0	54	0	181403648	51	4699
2026-01-09 11:21:39.97	217.49	14.49	-39.7	-42.2	15.4	0.00e+00	0	55	0	183500800	51	4684
2026-01-09 11:21:40.98	217.63	14.57	-39.7	-42.2	15.4	0.00e+00	0	54	0	185597952	51	4697
2026-01-09 11:21:41.99	217.78	14.64	-39.7	-42.2	15.5	0.00e+00	0	54	0	187695104	51	4665
2026-01-09 11:21:43.00	217.92	14.72	-39.7	-42.2	15.4	0.00e+00	0	54	0	189792256	51	4679
2026-01-09 11:21:44.01	218.06	14.80	-39.8	-42.3	15.2	0.00e+00	0	54	0	190840832	51	4752
2026-01-09 11:21:45.02	218.21	14.88	-39.9	-42.5	15.1	0.00e+00	0	55	0	192937984	51	4834
2026-01-09 11:21:46.03	218.36	14.96	-39.8	-42.4	15.2	0.00e+00	0	54	0	195035136	51	4794
2026-01-09 11:21:47.04	218.50	15.04	-40.1	-42.8	14.8	0.00e+00	0	54	0	197132288	51	5012
2026-01-09 11:21:48.05	218.65	15.12	-40.1	-42.8	14.9	7.00e-07	0	54	0	199229440	51	5000
2026-01-09 11:21:49.06	218.80	15.20	-40.0	-42.6	15.0	0.00e+00	0	55	0	200278016	51	4916
2026-01-09 11:21:50.06	218.94	15.28	-40.1	-42.8	14.8	0.00e+00	0	54	0	202375168	51	5020
2026-01-09 11:21:51.07	219.09	15.36	-40.2	-43.0	14.7	0.00e+00	0	54	0	204472320	51	5106
2026-01-09 11:21:52.08	219.24	15.44	-40.0	-42.7	15.0	0.00e+00	0	54	0	206569472	51	4959
2026-01-09 11:21:53.09	219.40	15.52	-40.0	-42.7	15.0	0.00e+00	0	54	0	208666624	51	4935
2026-01-09 11:21:54.10	219.55	15.60	-40.1	-42.7	14.9	0.00e+00	0	55	0	209715200	51	4956
2026-01-09 11:21:55.11	219.70	15.68	-40.0	-42.6	15.0	0.00e+00	0	55	0	211812352	51	4906
2026-01-09 11:21:56.12	219.85	15.76	-40.1	-42.7	15.0	0.00e+00	0	54	0	213909504	51	4961
2026-01-09 11:21:57.13	220.01	15.84	-40.1	-42.7	15.0	0.00e+00	0	55	0	216006656	51	4954
2026-01-09 11:21:58.14	220.16	15.92	-40.0	-42.6	15.0	0.00e+00	0	55	0	218103808	51	4915
2026-01-09 11:21:59.15	220.32	16.00	-40.0	-42.6	15.1	0.00e+00	0	55	0	219152384	51	4914
2026-01-09 11:22:00.16	220.48	16.08	-39.9	-42.4	15.2	0.00e+00	0	55	0	221249536	51	4814
2026-01-09 11:22:01.17	220.63	16.16	-39.8	-42.4	15.3	0.00e+00	0	55	0	223346688	51	4770
2026-01-09 11:22:02.18	220.79	16.24	-40.0	-42.6	15.1	0.00e+00	0	55	0	225443840	51	4888
2026-01-09 11:22:03.19	220.95	16.33	-39.8	-42.4	15.3	0.00e+00	0	55	0	227540992	51	4772
2026-01-09 11:22:04.20	221.11	16.41	-39.7	-42.2	15.5	0.00e+00	0	55	0	229638144	51	4655
2026-01-09 11:22:05.21	221.27	16.49	-39.8	-42.2	15.4	0.00e+00	0	55	0	230686720	51	4697
2026-01-09 11:22:06.22	221.43	16.57	-39.8	-42.3	15.5	0.00e+00	0	55	0	232783872	51	4706
2026-01-09 11:22:07.23	221.60	16.65	-39.8	-42.2	15.5	0.00e+00	0	55	0	234881024	51	4700
2026-01-09 11:22:08.23	221.76	16.73	-39.8	-42.2	15.5	0.00e+00	0	55	0	236978176	51	4696
2026-01-09 11:22:09.24	221.92	16.81	-39.7	-42.1	15.6	0.00e+00	0	55	0	239075328	51	4623
2026-01-09 11:22:10.25	222.09	16.89	-39.5	-41.9	15.9	0.00e+00	0	55	0	240123904	51	4500
2026-01-09 11:22:11.26	222.25	16.97	-39.4	-41.7	16.0	0.00e+00	0	55	0	242221056	50	4685
2026-01-09 11:22:12.27	222.42	17.05	-39.4	-41.8	15.9	0.00e+00	0	55	0	244318208	50	4731
2026-01-09 11:22:13.28	222.59	17.14	-39.6	-41.9	15.8	0.00e+00	0	55	0	246415360	50	4799
2026-01-09 11:22:14.29	222.76	17.22	-39.4	-41.7	16.0	0.00e+00	0	55	0	248512512	50	4701
2026-01-09 11:22:15.30	222.93	17.30	-39.4	-41.7	16.0	0.00e+00	0	55	0	249561088	50	4668
2026-01-09 11:22:16.31	223.10	17.38	-39.4	-41.6	16.1	0.00e+00	0	55	0	251658240	50	4647
2026-01-09 11:22:17.31	223.27	17.46	-39.4	-41.7	16.0	0.00e+00	0	55	0	253755392	50	4664
2026-01-09 11:22:18.33	223.44	17.54	-39.3	-41.6	16.1	0.00e+00	0	55	0	255852544	50	4633
2026-01-09 11:22:19.34	223.62	17.62	-39.6	-42.0	15.8	0.00e+00	0	55	0	257949696	50	4835
2026-01-09 11:22:20.35	223.79	17.70	-39.6	-41.9	15.8	0.00e+00	0	55	0	258998272	50	4807
2026-01-09 11:22:21.35	223.96	17.79	-39.5	-41.8	16.0	0.00e+00	0	55	0	261095424	50	4738
2026-01-09 11:22:22.36	224.14	17.87	-39.6	-41.9	15.8	0.00e+00	0	55	0	263192576	50	4814
2026-01-09 11:22:23.37	224.32	17.95	-39.6	-41.9	15.8	0.00e+00	0	55	0	265289728	50	4810
2026-01-09 11:22:24.38	224.49	18.03	-39.6	-42.0	15.7	0.00e+00	0	55	0	267386880	50	4858
2026-01-09 11:22:25.39	224.67	18.11	-39.7	-42.1	15.6	0.00e+00	0	55	0	268435456	50	4911
2026-01-09 11:22:26.40	224.85	18.19	-39.6	-42.0	15.7	0.00e+00	0	55	0	270532608	50	4842
2026-01-09 11:22:27.41	225.03	18.27	-39.5	-41.8	15.9	0.00e+00	0	55	0	272629760	50	4755
2026-01-09 11:22:28.42	225.21	18.36	-39.5	-41.8	15.9	0.00e+00	0	55	0	274726912	50	4755
2026-01-09 11:22:29.43	225.40	18.44	-39.4	-41.7	16.1	0.00e+00	0	55	0	276824064	50	4663
2026-01-09 11:22:30.44	225.58	18.52	-39.3	-41.5	16.2	0.00e+00	0	55	0	277872640	50	4598
2026-01-09 11:22:31.45	225.76	18.60	-39.3	-41.5	16.2	0.00e+00	0	55	0	279969792	50	4592
2026-01-09 11:22:32.46	225.95	18.68	-39.4	-41.7	16.1	0.00e+00	0	55	0	282066944	50	4659
2026-01-09 11:22:33.47	226.14	18.76	-39.2	-41.4	16.3	0.00e+00	0	55	0	284164096	50	4521
2026-01-09 11:22:34.48	226.32	18.84	-39.3	-41.5	16.2	0.00e+00	0	55	0	286261248	50	4574
2026-01-09 11:22:35.48	226.51	18.93	-39.2	-41.4	16.4	0.00e+00	0	55	0	287309824	50	4497
2026-01-09 11:22:36.49	226.70	19.01	-39.1	-41.3	16.5	0.00e+00	0	55	0	289406976	50	4445
2026-01-09 11:22:37.50	226.89	19.09	-38.9	-41.0	16.7	0.00e+00	0	55	0	291504128	49	4588
2026-01-09 11:22:38.51	227.08	19.17	-38.9	-41.0	16.7	0.00e+00	0	55	0	293601280	49	4592
2026-01-09 11:22:39.52	227.27	19.25	-39.0	-41.2	16.6	0.00e+00	0	55	0	295698432	49	4665
2026-01-09 11:22:40.53	227.47	19.33	-39.0	-41.1	16.6	0.00e+00	0	55	0	297795584	49	4638
2026-01-09 11:22:41.54	227.66	19.41	-39.2	-41.4	16.4	0.00e+00	0	55	0	298844160	49	4799
2026-01-09 11:22:42.55	227.86	19.49	-39.2	-41.4	16.4	0.00e+00	0	55	0	300941312	49	4788
2026-01-09 11:22:43.56	228.05	19.57	-39.3	-41.5	16.2	0.00e+00	0	55	0	303038464	49	4859
2026-01-09 11:22:44.56	228.25	19.65	-39.2	-41.4	16.3	0.00e+00	0	55	0	305135616	49	4802
2026-01-09 11:22:45.57	228.45	19.74	-39.2	-41.3	16.4	0.00e+00	0	55	0	307232768	49	4753
2026-01-09 11:22:46.58	228.64	19.82	-39.1	-41.2	16.5	0.00e+00	0	55	0	308281344	49	4698
2026-01-09 11:22:47.59	228.84	19.90	-38.9	-41.0	16.7	0.00e+00	0	55	0	310378496	49	4590
2026-01-09 11:22:48.60	229.05	19.98	-39.0	-41.1	16.6	0.00e+00	0	55	0	312475648	49	4646
2026-01-09 11:22:49.61	229.25	20.06	-38.9	-41.0	16.7	0.00e+00	0	55	0	314572800	49	4592
2026-01-09 11:22:50.62	229.45	20.14	-39.3	-41.5	16.3	0.00e+00	0	55	0	316669952	49	4858
2026-01-09 11:22:51.63	229.66	20.22	-39.2	-41.3	16.4	0.00e+00	0	55	0	317718528	49	4759
2026-01-09 11:22:52.64	229.86	20.30	-39.2	-41.4	16.4	0.00e+00	0	55	0	319815680	49	4779
2026-01-09 11:22:53.64	230.07	20.38	-39.2	-41.4	16.4	0.00e+00	0	55	0	321912832	49	4775
2026-01-09 11:22:54.65	230.27	20.46	-39.2	-41.4	16.4	0.00e+00	0	55	0	324009984	49	4768
2026-01-09 11:22:55.66	230.48	20.54	-39.0	-41.2	16.6	0.00e+00	0	55	0	326107136	49	4655
2026-01-09 11:22:56.67	230.69	20.62	-39.0	-41.1	16.6	0.00e+00	0	55	0	327155712	49	4647
2026-01-09 11:22:57.68	230.90	20.70	-39.1	-41.3	16.4	0.00e+00	0	55	0	329252864	49	4749
2026-01-09 11:22:58.69	231.12	20.78	-39.2	-41.4	16.4	0.00e+00	0	55	0	331350016	49	4785
2026-01-09 11:22:59.70	231.33	20.86	-39.4	-41.7	16.2	0.00e+00	0	55	0	333447168	49	4944
2026-01-09 11:23:00.71	231.54	20.94	-39.4	-41.7	16.1	0.00e+00	0	56	0	335544320	49	4966
2026-01-09 11:23:01.72	231.76	21.01	-39.3	-41.6	16.2	0.00e+00	0	55	0	336592896	49	4885
2026-01-09 11:23:02.73	231.97	21.09	-39.3	-41.6	16.2	0.00e+00	0	55	0	338690048	49	4895
2026-01-09 11:23:03.74	232.19	21.17	-39.1	-41.3	16.5	0.00e+00	0	55	0	340787200	49	4714
2026-01-09 11:23:04.75	232.41	21.25	-39.0	-41.1	16.7	0.00e+00	0	55	0	342884352	49	4619
2026-01-09 11:23:05.76	232.63	21.33	-39.1	-41.4	16.4	0.00e+00	0	55	0	344981504	49	4760
2026-01-09 11:23:06.77	232.85	21.41	-39.1	-41.2	16.5	0.00e+00	0	55	0	346030080	49	4680
2026-01-09 11:23:07.78	233.07	21.49	-39.2	-41.4	16.4	0.00e+00	0	55	0	348127232	49	4764
2026-01-09 11:23:08.79	233.29	21.56	-39.1	-41.2	16.5	0.00e+00	0	55	0	350224384	49	4697
2026-01-09 11:23:09.80	233.52	21.64	-39.2	-41.4	16.4	0.00e+00	0	55	0	352321536	49	4782
2026-01-09 11:23:10.81	233.74	21.72	-39.2	-41.4	16.4	0.00e+00	0	55	0	354418688	49	4788
2026-01-09 11:23:11.82	233.97	21.80	-39.2	-41.4	16.4	0.00e+00	0	55	0	355467264	49	4769
2026-01-09 11:23:12.82	234.19	21.87	-39.2	-41.4	16.4	0.00e+00	0	56	0	357564416	49	4786
2026-01-09 11:23:13.83	234.42	21.95	-39.1	-41.3	16.5	0.00e+00	0	55	0	359661568	49	4718
2026-01-09 11:23:14.84	234.65	22.02	-39.2	-41.4	16.4	0.00e+00	0	56	0	361758720	49	4795
2026-01-09 11:23:15.85	234.88	22.10	-39.1	-41.3	16.5	0.00e+00	0	55	0	363855872	49	4708
2026-01-09 11:23:16.86	235.11	22.18	-39.2	-41.4	16.4	0.00e+00	0	55	0	364904448	49	4796
2026-01-09 11:23:17.87	235.34	22.25	-39.1	-41.2	16.6	0.00e+00	0	55	0	367001600	49	4700
2026-01-09 11:23:18.88	235.58	22.33	-39.2	-41.4	16.4	0.00e+00	0	55	0	369098752	49	4776
2026-01-09 11:23:19.89	235.81	22.40	-39.3	-41.5	16.3	0.00e+00	0	55	0	371195904	49	4825
2026-01-09 11:23:20.90	236.05	22.48	-39.1	-41.2	16.5	0.00e+00	0	55	0	373293056	49	4704
2026-01-09 11:23:21.91	236.28	22.55	-39.2	-41.3	16.5	0.00e+00	0	56	0	374341632	49	4757
2026-01-09 11:23:22.92	236.52	22.63	-39.2	-41.4	16.4	0.00e+00	0	56	0	376438784	49	4795
2026-01-09 11:23:23.93	236.76	22.70	-39.1	-41.3	16.5	0.00e+00	0	55	0	378535936	49	4720
2026-01-09 11:23:24.94	237.00	22.78	-39.1	-41.2	16.6	0.00e+00	0	56	0	380633088	49	4694
2026-01-09 11:23:25.94	237.24	22.85	-38.9	-41.0	16.8	0.00e+00	0	55	0	382730240	49	4563
2026-01-09 11:23:26.95	237.48	22.92	-39.0	-41.1	16.7	0.00e+00	0	56	0	383778816	49	4608
2026-01-09 11:23:27.96	237.73	23.00	-39.0	-41.0	16.7	0.00e+00	0	56	0	385875968	49	4596
2026-01-09 11:23:28.97	237.97	23.07	-38.9	-41.0	16.8	0.00e+00	0	55	0	387973120	49	4551
2026-01-09 11:23:29.98	238.22	23.14	-39.0	-41.2	16.6	0.00e+00	0	56	0	390070272	49	4659
2026-01-09 11:23:30.99	238.47	23.21	-39.2	-41.3	16.5	0.00e+00	0	56	0	392167424	49	4748
2026-01-09 11:23:32.00	238.71	23.28	-39.3	-41.5	16.3	0.00e+00	0	55	0	394264576	49	4836
2026-01-09 11:23:33.01	238.96	23.36	-39.4	-41.7	16.1	0.00e+00	0	56	0	395313152	49	4975
2026-01-09 11:23:34.02	239.21	23.43	-39.6	-41.9	15.9	0.00e+00	0	56	0	397410304	49	5058
2026-01-09 11:23:35.03	239.46	23.50	-39.5	-41.8	16.0	0.00e+00	0	56	0	399507456	49	5015
2026-01-09 11:23:36.04	239.72	23.57	-39.5	-41.8	16.1	0.00e+00	0	56	0	401604608	49	4988
2026-01-09 11:23:37.05	239.97	23.64	-39.3	-41.6	16.2	0.00e+00	0	55	0	403701760	49	4900
2026-01-09 11:23:38.05	240.22	23.71	-39.3	-41.6	16.3	0.00e+00	0	56	0	404750336	49	4876
2026-01-09 11:23:39.07	240.48	23.78	-39.3	-41.5	16.4	0.00e+00	0	56	0	406847488	49	4824
2026-01-09 11:23:40.07	240.74	23.84	-39.3	-41.5	16.3	0.00e+00	0	56	0	408944640	49	4836
2026-01-09 11:23:41.08	240.99	23.91	-39.2	-41.4	16.4	0.00e+00	0	56	0	411041792	49	4763
2026-01-09 11:23:42.09	241.25	23.98	-39.0	-41.1	16.7	0.00e+00	0	56	0	413138944	49	4602
2026-01-09 11:23:43.10	241.51	24.05	-38.8	-40.9	17.0	0.00e+00	0	56	0	414187520	49	4502
2026-01-09 11:23:44.11	241.77	24.11	-38.8	-40.9	16.9	0.00e+00	0	56	0	416284672	49	4504
2026-01-09 11:23:45.12	242.04	24.18	-39.1	-41.2	16.6	0.00e+00	0	56	0	418381824	49	4679
2026-01-09 11:23:46.13	242.30	24.25	-39.3	-41.4	16.3	0.00e+00	0	56	0	420478976	49	4814
2026-01-09 11:23:47.14	242.56	24.31	-39.7	-42.0	15.8	0.00e+00	0	56	0	422576128	49	5151
2026-01-09 11:23:48.15	242.83	24.38	-39.8	-42.2	15.7	0.00e+00	0	56	0	423624704	50	4954
2026-01-09 11:23:49.16	243.10	24.44	-39.4	-41.7	16.1	0.00e+00	0	56	0	425721856	50	4673
2026-01-09 11:23:50.17	243.36	24.51	-39.1	-41.2	16.6	0.00e+00	0	55	0	427819008	50	4395
2026-01-09 11:23:51.18	243.63	24.57	-39.0	-41.0	16.8	0.00e+00	0	56	0	429916160	49	4580
2026-01-09 11:23:52.19	243.90	24.63	-38.8	-40.9	16.9	0.00e+00	0	56	0	432013312	49	4509
2026-01-09 11:23:53.20	244.17	24.69	-39.1	-41.3	16.5	0.00e+00	0	55	0	433061888	49	4718
2026-01-09 11:23:54.21	244.45	24.76	-39.4	-41.7	16.2	0.00e+00	0	56	0	435159040	49	4931
2026-01-09 11:23:55.22	244.72	24.82	-40.1	-42.6	15.2	0.00e+00	0	55	0	437256192	50	5196
2026-01-09 11:23:56.23	244.99	24.88	-40.2	-42.8	15.0	0.00e+00	0	56	0	439353344	51	5016
2026-01-09 11:23:57.23	245.27	24.94	-40.4	-43.2	14.7	7.00e-07	0	56	0	441450496	51	5222
2026-01-09 11:23:58.24	245.54	25.00	-40.3	-43.0	14.8	1.50e-06	0	56	0	442499072	51	5126
2026-01-09 11:23:59.25	245.82	25.06	-40.3	-43.0	14.9	0.00e+00	0	56	0	444596224	51	5116
2026-01-09 11:24:00.26	246.10	25.12	-40.4	-43.1	14.8	7.00e-07	0	56	0	446693376	51	5160
2026-01-09 11:24:01.27	246.38	25.18	-40.4	-43.2	14.7	7.00e-07	0	56	0	448790528	51	5235
2026-01-09 11:24:02.28	246.66	25.23	-40.2	-42.9	15.0	7.00e-07	0	56	0	450887680	51	5047
2026-01-09 11:24:03.29	246.94	25.29	-40.2	-42.8	15.0	0.00e+00	0	56	0	451936256	51	5017
2026-01-09 11:24:04.30	247.22	25.35	-40.0	-42.5	15.3	0.00e+00	0	56	0	454033408	51	4825
2026-01-09 11:24:05.31	247.50	25.40	-40.0	-42.5	15.4	0.00e+00	0	56	0	456130560	51	4816
2026-01-09 11:24:06.32	247.79	25.46	-40.0	-42.6	15.3	0.00e+00	0	55	0	458227712	51	4871
2026-01-09 11:24:07.33	248.07	25.51	-40.3	-42.9	14.9	0.00e+00	0	56	0	460324864	51	5072
2026-01-09 11:24:08.34	248.36	25.57	-40.7	-43.6	14.3	0.00e+00	0	56	0	462422016	51	5477
2026-01-09 11:24:09.35	248.64	25.62	-40.9	-44.0	13.8	2.20e-06	0	56	0	463470592	52	5456
2026-01-09 11:24:10.36	248.93	25.67	-41.1	-44.3	13.4	9.90e-06	0	56	0	465567744	52	5650
2026-01-09 11:24:11.37	249.22	25.72	-41.1	-44.4	13.3	1.06e-05	0	56	0	467664896	52	5716
2026-01-09 11:24:12.37	249.51	25.78	-41.2	-44.5	13.3	1.37e-05	0	56	0	469762048	52	5737
2026-01-09 11:24:13.39	249.80	25.83	-41.1	-44.4	13.3	1.52e-05	0	56	0	471859200	52	5698
2026-01-09 11:24:14.39	250.09	25.88	-41.1	-44.4	13.4	1.75e-05	0	56	0	472907776	53	5368
2026-01-09 11:24:15.40	250.38	25.93	-40.8	-43.8	14.0	6.10e-06	0	56	0	475004928	53	5031
2026-01-09 11:24:16.41	250.68	25.97	-41.0	-44.1	13.7	4.50e-06	0	56	0	477102080	53	5181
2026-01-09 11:24:17.42	250.97	26.02	-41.0	-44.1	13.7	7.00e-07	0	56	0	479199232	53	5191
2026-01-09 11:24:18.43	251.27	26.07	-41.2	-44.6	13.2	7.60e-06	0	56	0	481296384	53	5486
2026-01-09 11:24:19.44	251.56	26.12	-41.5	-45.1	12.7	5.03e-05	0	56	0	482344960	53	5824
2026-01-09 11:24:20.45	251.86	26.16	-41.6	-45.3	12.5	1.17e-04	0	56	0	484442112	53	5924
2026-01-09 11:24:21.46	252.16	26.21	-41.6	-45.2	12.6	8.92e-05	0	56	0	486539264	53	5871
2026-01-09 11:24:22.47	252.45	26.25	-41.2	-44.5	13.2	3.12e-05	0	56	0	488636416	53	5448
2026-01-09 11:24:23.48	252.75	26.30	-40.8	-43.8	13.9	4.50e-06	0	56	0	490733568	53	5020
2026-01-09 11:24:24.49	253.05	26.34	-40.6	-43.5	14.2	1.50e-06	0	56	0	491782144	53	4859
2026-01-09 11:24:25.50	253.35	26.38	-40.7	-43.6	14.1	1.50e-06	0	56	0	493879296	53	4901
2026-01-09 11:24:26.51	253.66	26.42	-41.0	-44.1	13.6	5.30e-06	0	56	0	495976448	53	5214
2026-01-09 11:24:27.52	253.96	26.46	-41.2	-44.6	13.2	2.59e-05	0	56	0	498073600	53	5491
2026-01-09 11:24:28.53	254.26	26.50	-41.2	-44.5	13.2	2.28e-05	0	56	0	500170752	53	5428
2026-01-09 11:24:29.54	254.56	26.54	-41.1	-44.2	13.4	2.36e-05	0	56	0	501219328	53	5275
2026-01-09 11:24:30.55	254.87	26.58	-41.0	-44.1	13.6	6.10e-06	0	56	0	503316480	53	5191
2026-01-09 11:24:31.56	255.17	26.62	-41.2	-44.4	13.4	1.67e-05	0	56	0	505413632	53	5391
2026-01-09 11:24:32.56	255.48	26.65	-41.6	-45.2	12.5	5.79e-05	0	56	0	507510784	53	5921
2026-01-09 11:24:33.57	255.78	26.69	-41.8	-45.6	12.1	2.60e-04	0	56	0	509607936	54	5832
2026-01-09 11:24:34.58	256.09	26.72	-41.8	-45.5	12.2	3.04e-04	0	56	0	510656512	54	5775
2026-01-09 11:24:35.59	256.40	26.76	-41.6	-45.2	12.5	1.56e-04	0	56	0	512753664	54	5548
2026-01-09 11:24:36.60	256.71	26.79	-41.4	-44.8	13.0	5.95e-05	0	56	0	514850816	54	5311
2026-01-09 11:24:37.61	257.02	26.82	-41.6	-45.2	12.5	8.85e-05	0	56	0	516947968	54	5561
2026-01-09 11:24:38.62	257.33	26.86	-42.0	-45.9	11.8	2.77e-04	0	56	0	519045120	54	6042
2026-01-09 11:24:39.63	257.64	26.89	-42.2	-46.6	11.1	1.00e-03	0	56	0	520093696	55	6157
2026-01-09 11:24:40.64	257.95	26.92	-42.2	-46.4	11.3	2.33e-03	0	56	0	522190848	55	6032
2026-01-09 11:24:41.65	258.26	26.95	-41.9	-45.8	11.9	1.28e-03	0	56	0	524288000	55	5593
2026-01-09 11:24:42.66	258.57	26.97	-41.6	-45.2	12.6	9.23e-05	0	56	0	526385152	55	5228
2026-01-09 11:24:43.67	258.88	27.00	-41.3	-44.7	13.1	4.95e-05	0	56	0	528482304	54	5245
2026-01-09 11:24:44.68	259.20	27.03	-41.2	-44.5	13.3	1.83e-05	0	56	0	530579456	54	5122
2026-01-09 11:24:45.69	259.51	27.05	-41.2	-44.5	13.3	1.75e-05	0	56	0	531628032	54	5134
2026-01-09 11:24:46.70	259.82	27.08	-41.2	-44.6	13.2	2.59e-05	0	56	0	533725184	54	5169
2026-01-09 11:24:47.71	260.14	27.10	-41.4	-44.8	13.0	2.82e-05	0	56	0	535822336	54	5330
2026-01-09 11:24:48.72	260.45	27.12	-41.6	-45.1	12.7	6.33e-05	0	56	0	537919488	54	5517
2026-01-09 11:24:49.73	260.77	27.15	-41.8	-45.6	12.1	1.78e-04	0	56	0	540016640	54	5800
2026-01-09 11:24:50.74	261.08	27.17	-42.0	-45.9	11.8	3.49e-04	0	56	0	541065216	54	6033
2026-01-09 11:24:51.75	261.40	27.19	-42.1	-46.3	11.5	6.47e-04	0	56	0	543162368	54	6282
2026-01-09 11:24:52.76	261.72	27.21	-42.1	-46.3	11.5	8.89e-04	0	56	0	545259520	54	6296
2026-01-09 11:24:53.77	262.03	27.23	-42.1	-46.2	11.5	8.35e-04	0	56	0	547356672	54	6263
2026-01-09 11:24:54.78	262.35	27.24	-42.0	-45.9	11.8	5.68e-04	0	56	0	549453824	54	6041
2026-01-09 11:24:55.79	262.67	27.26	-41.9	-45.8	12.0	3.18e-04	0	56	0	550502400	54	5971
2026-01-09 11:24:56.80	262.99	27.28	-41.6	-45.2	12.6	1.54e-04	0	56	0	552599552	54	5545
2026-01-09 11:24:57.80	263.30	27.29	-41.5	-45.1	12.7	1.01e-04	0	56	0	554696704	54	5465
2026-01-09 11:24:58.81	263.62	27.30	-41.6	-45.2	12.6	8.46e-05	0	56	0	556793856	54	5530
2026-01-09 11:24:59.82	263.94	27.32	-41.5	-45.0	12.7	5.41e-05	0	56	0	558891008	54	5450
2026-01-09 11:25:00.83	264.26	27.33	-41.8	-45.5	12.3	9.46e-05	0	56	0	559939584	54	5777
2026-01-09 11:25:01.84	264.58	27.34	-41.8	-45.7	12.1	2.67e-04	0	56	0	562036736	54	5875
2026-01-09 11:25:02.85	264.90	27.35	-41.8	-45.6	12.1	2.08e-04	0	56	0	564133888	54	5837
2026-01-09 11:25:03.86	265.22	27.36	-41.6	-45.2	12.5	1.17e-04	0	56	0	566231040	54	5556
2026-01-09 11:25:04.87	265.54	27.37	-41.4	-44.8	13.0	5.03e-05	0	56	0	568328192	54	5300
2026-01-09 11:25:05.88	265.86	27.37	-41.0	-44.1	13.7	6.80e-06	0	56	0	569376768	53	5176
2026-01-09 11:25:06.89	266.18	27.38	-41.0	-44.1	13.8	3.00e-06	0	56	0	571473920	53	5169
2026-01-09 11:25:07.89	266.49	27.39	-41.0	-44.1	13.7	3.00e-06	0	56	0	573571072	53	5183
2026-01-09 11:25:08.90	266.81	27.39	-41.1	-44.3	13.5	1.06e-05	0	56	0	575668224	53	5327
2026-01-09 11:25:09.91	267.13	27.39	-41.0	-44.2	13.6	1.14e-05	0	56	0	577765376	53	5245
2026-01-09 11:25:10.92	267.45	27.40	-41.0	-44.0	13.8	4.50e-06	0	56	0	578813952	53	5145
2026-01-09 11:25:11.93	267.77	27.40	-40.8	-43.8	14.1	5.30e-06	0	56	0	580911104	53	4990
2026-01-09 11:25:12.94	268.09	27.40	-40.9	-43.9	13.8	3.80e-06	0	56	0	583008256	53	5090
2026-01-09 11:25:13.95	268.41	27.40	-41.1	-44.3	13.5	6.10e-06	0	56	0	585105408	53	5309
2026-01-09 11:25:14.95	268.73	27.40	-41.5	-45.0	12.8	4.50e-05	0	56	0	587202560	53	5772
2026-01-09 11:25:15.96	269.05	27.40	-41.8	-45.5	12.3	1.03e-04	0	56	0	588251136	54	5770
2026-01-09 11:25:16.97	269.37	27.39	-41.6	-45.2	12.6	8.08e-05	0	56	0	590348288	54	5549
2026-01-09 11:25:17.98	269.69	27.39	-41.5	-45.0	12.8	6.17e-05	0	56	0	592445440	54	5425
2026-01-09 11:25:18.99	270.01	27.38	-41.6	-45.2	12.6	6.33e-05	0	56	0	594542592	54	5571
2026-01-09 11:25:20.00	270.33	27.38	-41.8	-45.6	12.2	1.66e-04	0	56	0	596639744	54	5813
2026-01-09 11:25:21.01	270.65	27.37	-41.9	-45.8	11.9	3.60e-04	0	56	0	597688320	54	5983
2026-01-09 11:25:22.02	270.97	27.36	-41.9	-45.8	12.0	3.74e-04	0	56	0	599785472	54	5941
2026-01-09 11:25:23.03	271.29	27.35	-41.6	-45.2	12.6	1.98e-04	0	56	0	601882624	54	5556
2026-01-09 11:25:24.04	271.61	27.34	-41.3	-44.6	13.1	1.20e-04	0	56	0	603979776	54	5218
2026-01-09 11:25:25.05	271.93	27.33	-41.1	-44.3	13.5	1.37e-05	0	56	0	606076928	54	5011
2026-01-09 11:25:26.06	272.25	27.32	-40.9	-43.9	13.9	3.00e-06	0	56	0	607125504	53	5081
2026-01-09 11:25:27.07	272.57	27.31	-40.6	-43.5	14.3	2.20e-06	0	56	0	609222656	53	4838
2026-01-09 11:25:28.08	272.88	27.30	-40.6	-43.4	14.4	2.20e-06	0	56	0	611319808	53	4780
2026-01-09 11:25:29.09	273.20	27.28	-40.5	-43.2	14.6	0.00e+00	0	56	0	613416960	52	4959
2026-01-09 11:25:30.10	273.52	27.27	-40.3	-42.9	14.9	7.00e-07	0	56	0	615514112	52	4803
2026-01-09 11:25:31.10	273.83	27.25	-40.4	-43.1	14.7	0.00e+00	0	56	0	616562688	52	4887
2026-01-09 11:25:32.11	274.15	27.23	-40.5	-43.3	14.5	7.00e-07	0	56	0	618659840	52	5029
2026-01-09 11:25:33.12	274.47	27.22	-40.7	-43.6	14.1	2.20e-06	0	56	0	620756992	52	5215
2026-01-09 11:25:34.13	274.78	27.20	-41.1	-44.2	13.5	9.10e-06	0	56	0	622854144	52	5590
2026-01-09 11:25:35.14	275.10	27.18	-41.3	-44.6	13.1	1.29e-05	0	56	0	624951296	53	5515
2026-01-09 11:25:36.15	275.42	27.16	-41.6	-45.1	12.6	4.42e-05	0	56	0	627048448	53	5853
2026-01-09 11:25:37.16	275.73	27.14	-41.3	-44.7	13.1	6.56e-05	0	56	0	628097024	53	5554
2026-01-09 11:25:38.17	276.05	27.11	-41.2	-44.4	13.4	1.75e-05	0	56	0	630194176	53	5377
2026-01-09 11:25:39.18	276.36	27.09	-41.0	-44.0	13.7	9.10e-06	0	56	0	632291328	53	5135
2026-01-09 11:25:40.19	276.67	27.06	-40.9	-43.8	14.0	3.00e-06	0	56	0	634388480	53	5029
2026-01-09 11:25:41.20	276.99	27.04	-40.9	-43.8	14.0	3.80e-06	0	56	0	636485632	53	5032
2026-01-09 11:25:42.21	277.30	27.01	-40.8	-43.7	14.1	1.50e-06	0	56	0	637534208	53	4978
2026-01-09 11:25:43.22	277.61	26.99	-40.7	-43.7	14.1	1.50e-06	0	56	0	639631360	53	4952
2026-01-09 11:25:44.23	277.92	26.96	-40.6	-43.4	14.4	2.20e-06	0	56	0	641728512	53	4776
2026-01-09 11:25:45.24	278.24	26.93	-40.5	-43.3	14.5	7.00e-07	0	56	0	643825664	52	5011
2026-01-09 11:25:46.24	278.54	26.90	-40.4	-43.1	14.7	0.00e+00	0	56	0	645922816	52	4878
2026-01-09 11:25:47.26	278.86	26.87	-40.3	-43.0	14.8	0.00e+00	0	56	0	646971392	52	4835
2026-01-09 11:25:48.26	279.16	26.84	-40.3	-43.0	14.8	0.00e+00	0	56	0	649068544	52	4820
2026-01-09 11:25:49.27	279.47	26.81	-40.4	-43.2	14.7	0.00e+00	0	56	0	651165696	52	4927
2026-01-09 11:25:50.28	279.78	26.77	-40.5	-43.3	14.6	0.00e+00	0	56	0	653262848	52	4989
2026-01-09 11:25:51.29	280.09	26.74	-40.5	-43.3	14.5	7.00e-07	0	56	0	655360000	52	5028
2026-01-09 11:25:52.30	280.39	26.71	-40.4	-43.2	14.6	7.00e-07	0	56	0	656408576	52	4955
2026-01-09 11:25:53.31	280.70	26.67	-40.1	-42.7	15.1	0.00e+00	0	56	0	658505728	52	4694
2026-01-09 11:25:54.33	281.01	26.63	-40.0	-42.5	15.4	0.00e+00	0	56	0	660602880	51	4840
2026-01-09 11:25:55.33	281.31	26.60	-39.7	-42.0	15.8	0.00e+00	0	56	0	662700032	51	4595
2026-01-09 11:25:56.34	281.62	26.56	-40.0	-42.4	15.4	0.00e+00	0	56	0	664797184	51	4805
2026-01-09 11:25:57.35	281.92	26.52	-40.2	-42.8	15.1	0.00e+00	0	56	0	665845760	51	5010
2026-01-09 11:25:58.36	282.22	26.48	-40.5	-43.3	14.6	0.00e+00	0	56	0	667942912	51	5319
2026-01-09 11:25:59.37	282.52	26.44	-40.8	-43.7	14.1	7.00e-07	0	56	0	670040064	52	5259
2026-01-09 11:26:00.39	282.83	26.40	-40.9	-43.9	13.9	6.80e-06	0	56	0	672137216	52	5380
2026-01-09 11:26:01.39	283.12	26.36	-41.0	-44.1	13.7	6.80e-06	0	56	0	674234368	52	5485
2026-01-09 11:26:02.40	283.42	26.32	-41.0	-44.1	13.7	6.80e-06	0	56	0	675282944	52	5476
2026-01-09 11:26:03.41	283.72	26.27	-40.7	-43.6	14.1	7.00e-07	0	56	0	677380096	52	5197
2026-01-09 11:26:04.42	284.02	26.23	-40.4	-43.1	14.7	0.00e+00	0	56	0	679477248	52	4908
2026-01-09 11:26:05.43	284.32	26.19	-40.2	-42.8	15.0	0.00e+00	0	56	0	681574400	52	4718
2026-01-09 11:26:06.44	284.61	26.14	-39.9	-42.3	15.6	0.00e+00	0	56	0	683671552	51	4723
2026-01-09 11:26:07.45	284.91	26.09	-39.6	-41.9	15.9	0.00e+00	0	56	0	684720128	51	4509
2026-01-09 11:26:08.46	285.21	26.05	-39.1	-41.2	16.6	0.00e+00	0	56	0	686817280	50	4416
2026-01-09 11:26:09.47	285.50	26.00	-38.7	-40.7	17.2	0.00e+00	0	56	0	688914432	49	4392
2026-01-09 11:26:10.47	285.79	25.95	-38.6	-40.5	17.2	0.00e+00	0	56	0	691011584	49	4339
2026-01-09 11:26:11.48	286.08	25.90	-38.8	-40.8	17.0	0.00e+00	0	56	0	693108736	49	4451
2026-01-09 11:26:12.49	286.37	25.85	-38.9	-41.0	16.7	0.00e+00	0	56	0	695205888	49	4577
2026-01-09 11:26:13.50	286.66	25.80	-39.3	-41.6	16.3	0.00e+00	0	56	0	696254464	49	4882
2026-01-09 11:26:14.51	286.95	25.75	-39.8	-42.2	15.7	0.00e+00	0	56	0	698351616	50	4937
2026-01-09 11:26:15.52	287.24	25.70	-39.9	-42.3	15.5	0.00e+00	0	56	0	700448768	50	5016
2026-01-09 11:26:16.53	287.53	25.65	-39.7	-42.0	15.8	0.00e+00	0	56	0	702545920	50	4867
2026-01-09 11:26:17.54	287.81	25.60	-39.2	-41.3	16.5	0.00e+00	0	56	0	704643072	50	4476
2026-01-09 11:26:18.55	288.10	25.54	-38.7	-40.7	17.0	0.00e+00	0	56	0	705691648	49	4435
2026-01-09 11:26:19.56	288.38	25.49	-38.5	-40.5	17.3	0.00e+00	0	56	0	707788800	49	4314
2026-01-09 11:26:20.57	288.67	25.43	-38.7	-40.7	17.1	0.00e+00	0	56	0	709885952	49	4412
2026-01-09 11:26:21.58	288.95	25.38	-38.7	-40.8	17.0	0.00e+00	0	56	0	711983104	49	4459
2026-01-09 11:26:22.59	289.23	25.32	-38.6	-40.6	17.1	0.00e+00	0	56	0	714080256	49	4378
2026-01-09 11:26:23.60	289.51	25.27	-38.3	-40.2	17.5	0.00e+00	0	56	0	715128832	48	4438
2026-01-09 11:26:24.61	289.79	25.21	-38.2	-40.1	17.7	0.00e+00	0	56	0	717225984	48	4371
2026-01-09 11:26:25.62	290.07	25.15	-38.1	-39.9	17.8	0.00e+00	0	56	0	719323136	48	4267
2026-01-09 11:26:26.63	290.35	25.09	-37.8	-39.6	18.0	0.00e+00	0	56	0	721420288	47	4352
2026-01-09 11:26:27.64	290.63	25.04	-37.8	-39.6	18.0	0.00e+00	0	56	0	723517440	47	4387
2026-01-09 11:26:28.64	290.90	24.98	-38.1	-40.0	17.7	0.00e+00	0	56	0	724566016	47	4567
2026-01-09 11:26:29.65	291.17	24.92	-38.3	-40.2	17.5	0.00e+00	0	56	0	726663168	47	4689
2026-01-09 11:26:30.66	291.45	24.86	-38.7	-40.7	17.0	0.00e+00	0	56	0	728760320	47	4980
2026-01-09 11:26:31.67	291.72	24.80	-39.0	-41.1	16.7	0.00e+00	0	56	0	730857472	48	4904
2026-01-09 11:26:32.68	291.99	24.73	-38.9	-41.0	16.8	0.00e+00	0	56	0	732954624	48	4839
2026-01-09 11:26:33.69	292.26	24.67	-38.7	-40.7	17.1	0.00e+00	0	56	0	734003200	48	4696
2026-01-09 11:26:34.70	292.53	24.61	-38.6	-40.6	17.1	0.00e+00	0	56	0	736100352	48	4634
2026-01-09 11:26:35.71	292.80	24.55	-38.5	-40.5	17.3	0.00e+00	0	56	0	738197504	48	4578
2026-01-09 11:26:36.72	293.07	24.48	-38.4	-40.3	17.4	0.00e+00	0	56	0	740294656	48	4481
2026-01-09 11:26:37.73	293.33	24.42	-38.3	-40.2	17.6	0.00e+00	0	56	0	742391808	48	4394
2026-01-09 11:26:38.74	293.60	24.35	-38.3	-40.2	17.6	0.00e+00	0	56	0	743440384	48	4412
2026-01-09 11:26:39.75	293.86	24.29	-38.3	-40.2	17.6	0.00e+00	0	56	0	745537536	48	4394
2026-01-09 11:26:40.76	294.12	24.22	-38.2	-40.1	17.7	0.00e+00	0	56	0	747634688	48	4350
2026-01-09 11:26:41.77	294.39	24.16	-38.3	-40.2	17.5	0.00e+00	0	56	0	749731840	48	4437
2026-01-09 11:26:42.77	294.64	24.09	-38.5	-40.4	17.3	0.00e+00	0	56	0	751828992	48	4524
2026-01-09 11:26:43.78	294.90	24.03	-38.4	-40.3	17.4	0.00e+00	0	56	0	752877568	48	4482
2026-01-09 11:26:44.79	295.16	23.96	-38.3	-40.2	17.5	0.00e+00	0	56	0	754974720	48	4435
2026-01-09 11:26:45.80	295.42	23.89	-38.3	-40.1	17.6	0.00e+00	0	57	0	757071872	48	4385
2026-01-09 11:26:46.81	295.68	23.82	-38.2	-40.1	17.6	0.00e+00	0	56	0	759169024	48	4372
2026-01-09 11:26:47.82	295.93	23.76	-38.4	-40.3	17.5	0.00e+00	0	56	0	761266176	48	4460
2026-01-09 11:26:48.83	296.19	23.69	-38.6	-40.5	17.2	0.00e+00	0	56	0	763363328	48	4587
2026-01-09 11:26:49.84	296.44	23.62	-38.7	-40.8	17.0	0.00e+00	0	56	0	764411904	48	4722
2026-01-09 11:26:50.85	296.69	23.55	-38.8	-40.9	16.9	0.00e+00	0	56	0	766509056	48	4800
2026-01-09 11:26:51.86	296.94	23.48	-38.9	-41.0	16.8	0.00e+00	0	56	0	768606208	48	4831
2026-01-09 11:26:52.87	297.19	23.41	-38.9	-41.0	16.8	0.00e+00	0	56	0	770703360	48	4857
2026-01-09 11:26:53.88	297.44	23.34	-38.8	-40.8	17.0	0.00e+00	0	56	0	772800512	48	4737
2026-01-09 11:26:54.89	297.69	23.27	-38.6	-40.6	17.2	0.00e+00	0	56	0	773849088	48	4601
2026-01-09 11:26:55.90	297.94	23.19	-38.7	-40.7	17.1	0.00e+00	0	56	0	775946240	48	4653
2026-01-09 11:26:56.91	298.18	23.12	-38.7	-40.7	17.1	0.00e+00	0	56	0	778043392	48	4661
2026-01-09 11:26:57.92	298.43	23.05	-38.9	-41.0	16.7	0.00e+00	0	56	0	780140544	48	4857
2026-01-09 11:26:58.92	298.67	22.98	-39.3	-41.6	16.2	0.00e+00	0	56	0	782237696	49	4889
2026-01-09 11:26:59.93	298.91	22.91	-39.7	-42.1	15.7	0.00e+00	0	56	0	783286272	49	5195
2026-01-09 11:27:00.94	299.15	22.83	-40.0	-42.5	15.3	0.00e+00	0	56	0	785383424	50	5133
2026-01-09 11:27:01.95	299.39	22.76	-39.8	-42.2	15.6	0.00e+00	0	56	0	787480576	50	4973
2026-01-09 11:27:02.96	299.63	22.69	-39.8	-42.3	15.5	0.00e+00	0	56	0	789577728	50	5027
2026-01-09 11:27:03.97	299.87	22.61	-39.7	-42.1	15.7	0.00e+00	0	56	0	791674880	50	4908
2026-01-09 11:27:04.98	300.10	22.54	-39.3	-41.6	16.2	0.00e+00	0	56	0	792723456	50	4599
2026-01-09 11:27:05.99	300.34	22.47	-39.3	-41.5	16.2	0.00e+00	0	57	0	794820608	50	4588
2026-01-09 11:27:07.00	300.57	22.39	-39.3	-41.5	16.2	0.00e+00	0	56	0	796917760	50	4583
2026-01-09 11:27:08.01	300.81	22.32	-39.4	-41.7	16.1	0.00e+00	0	56	0	799014912	50	4682
2026-01-09 11:27:09.02	301.04	22.24	-39.5	-41.9	15.9	0.00e+00	0	56	0	801112064	50	4769
2026-01-09 11:27:10.03	301.27	22.17	-39.6	-41.9	15.8	0.00e+00	0	56	0	802160640	50	4801
2026-01-09 11:27:11.04	301.50	22.09	-39.4	-41.6	16.1	0.00e+00	0	56	0	804257792	50	4646
2026-01-09 11:27:12.05	301.73	22.01	-39.0	-41.2	16.6	0.00e+00	0	56	0	806354944	50	4420
2026-01-09 11:27:13.05	301.95	21.94	-38.7	-40.7	17.0	0.00e+00	0	56	0	808452096	49	4436
2026-01-09 11:27:14.06	302.18	21.86	-38.6	-40.5	17.2	0.00e+00	0	56	0	810549248	49	4335
2026-01-09 11:27:15.07	302.41	21.79	-38.7	-40.8	16.9	0.00e+00	0	56	0	811597824	49	4444
2026-01-09 11:27:16.08	302.63	21.71	-38.7	-40.8	17.0	0.00e+00	0	57	0	813694976	49	4445
2026-01-09 11:27:17.09	302.85	21.63	-39.1	-41.2	16.5	0.00e+00	0	56	0	815792128	49	4693
2026-01-09 11:27:18.10	303.08	21.56	-39.4	-41.7	16.1	0.00e+00	0	56	0	817889280	49	4932
2026-01-09 11:27:19.11	303.30	21.48	-39.4	-41.6	16.1	0.00e+00	0	57	0	819986432	49	4923
2026-01-09 11:27:20.12	303.52	21.40	-39.4	-41.7	16.0	0.00e+00	0	56	0	821035008	49	4972
2026-01-09 11:27:21.13	303.74	21.32	-39.6	-41.9	15.8	0.00e+00	0	56	0	823132160	49	5077
2026-01-09 11:27:22.14	303.95	21.24	-39.6	-41.9	15.8	0.00e+00	0	56	0	825229312	49	5077
2026-01-09 11:27:23.15	304.17	21.17	-39.6	-42.0	15.7	0.00e+00	0	56	0	827326464	49	5139
2026-01-09 11:27:24.16	304.39	21.09	-39.7	-42.0	15.7	0.00e+00	0	56	0	829423616	50	4870
2026-01-09 11:27:25.17	304.60	21.01	-39.6	-42.0	15.7	0.00e+00	0	56	0	831520768	50	4839
2026-01-09 11:27:26.18	304.82	20.93	-39.6	-41.9	15.8	0.00e+00	0	56	0	832569344	50	4814
2026-01-09 11:27:27.19	305.03	20.85	-39.4	-41.7	16.0	0.00e+00	0	56	0	834666496	50	4657
2026-01-09 11:27:28.20	305.24	20.77	-39.1	-41.3	16.4	0.00e+00	0	56	0	836763648	50	4474
2026-01-09 11:27:29.20	305.45	20.70	-39.1	-41.3	16.4	0.00e+00	0	56	0	838860800	49	4750
2026-01-09 11:27:30.21	305.66	20.62	-39.1	-41.3	16.4	0.00e+00	0	56	0	840957952	49	4733
2026-01-09 11:27:31.22	305.87	20.54	-39.2	-41.4	16.2	0.00e+00	0	56	0	842006528	49	4806
2026-01-09 11:27:32.23	306.07	20.46	-39.6	-42.0	15.7	0.00e+00	0	56	0	844103680	49	5139
2026-01-09 11:27:33.24	306.28	20.38	-39.8	-42.3	15.4	0.00e+00	0	56	0	846200832	50	5007
2026-01-09 11:27:34.25	306.48	20.30	-40.1	-42.7	15.0	0.00e+00	0	57	0	848297984	50	5267
2026-01-09 11:27:35.26	306.69	20.22	-40.3	-43.0	14.7	7.00e-07	0	56	0	849346560	51	5133
2026-01-09 11:27:36.27	306.89	20.14	-39.9	-42.5	15.2	0.00e+00	0	56	0	851443712	51	4857
2026-01-09 11:27:37.28	307.09	20.06	-39.6	-42.0	15.7	0.00e+00	0	56	0	853540864	51	4558
2026-01-09 11:27:38.29	307.30	19.98	-39.2	-41.4	16.3	0.00e+00	0	56	0	855638016	50	4537
2026-01-09 11:27:39.29	307.49	19.90	-38.9	-41.0	16.7	0.00e+00	0	56	0	857735168	49	4553
2026-01-09 11:27:40.30	307.69	19.82	-38.7	-40.7	17.0	0.00e+00	0	56	0	859832320	49	4412
2026-01-09 11:27:41.31	307.89	19.74	-38.6	-40.6	17.1	0.00e+00	0	56	0	860880896	49	4356
2026-01-09 11:27:42.32	308.09	19.66	-38.7	-40.8	16.9	0.00e+00	0	56	0	862978048	49	4457
2026-01-09 11:27:43.33	308.28	19.58	-39.2	-41.4	16.3	0.00e+00	0	56	0	865075200	49	4784
2026-01-09 11:27:44.34	308.48	19.50	-39.5	-41.9	15.8	0.00e+00	0	56	0	867172352	49	5056
2026-01-09 11:27:45.35	308.67	19.42	-39.9	-42.4	15.3	0.00e+00	0	56	0	869269504	50	5064
2026-01-09 11:27:46.36	308.87	19.34	-40.0	-42.5	15.2	0.00e+00	0	56	0	870318080	50	5156
2026-01-09 11:27:47.37	309.06	19.26	-39.9	-42.5	15.2	0.00e+00	0	56	0	872415232	50	5101
2026-01-09 11:27:48.38	309.25	19.18	-39.5	-41.9	15.8	0.00e+00	0	56	0	874512384	50	4797
2026-01-09 11:27:49.39	309.44	19.10	-39.6	-41.9	15.7	0.00e+00	0	56	0	876609536	50	4807
2026-01-09 11:27:50.39	309.63	19.02	-39.5	-41.8	15.9	0.00e+00	0	56	0	878706688	50	4753
2026-01-09 11:27:51.40	309.81	18.94	-39.5	-41.8	15.9	0.00e+00	0	56	0	879755264	50	4734
2026-01-09 11:27:52.41	310.00	18.86	-39.8	-42.3	15.4	0.00e+00	0	56	0	881852416	50	4993
2026-01-09 11:27:53.42	310.19	18.78	-39.7	-42.1	15.5	0.00e+00	0	56	0	883949568	50	4920
2026-01-09 11:27:54.43	310.37	18.70	-39.7	-42.1	15.6	0.00e+00	0	56	0	886046720	50	4908
2026-01-09 11:27:55.44	310.56	18.62	-39.6	-42.1	15.5	0.00e+00	0	56	0	888143872	50	4888
2026-01-09 11:27:56.45	310.74	18.54	-39.4	-41.7	16.0	0.00e+00	0	56	0	889192448	50	4664
2026-01-09 11:27:57.46	310.92	18.45	-39.3	-41.6	16.1	0.00e+00	0	56	0	891289600	50	4600
2026-01-09 11:27:58.47	311.10	18.37	-39.0	-41.2	16.4	0.00e+00	0	56	0	893386752	50	4412
2026-01-09 11:27:59.47	311.28	18.29	-38.9	-41.0	16.6	0.00e+00	0	56	0	895483904	49	4593
2026-01-09 11:28:00.48	311.46	18.21	-39.1	-41.3	16.4	0.00e+00	0	56	0	897581056	49	4720
2026-01-09 11:28:01.49	311.64	18.13	-39.3	-41.6	16.1	0.00e+00	0	56	0	898629632	49	4879
2026-01-09 11:28:02.50	311.82	18.05	-39.4	-41.8	15.9	0.00e+00	0	56	0	900726784	49	4987
2026-01-09 11:28:03.51	312.00	17.97	-39.6	-42.0	15.6	0.00e+00	0	56	0	902823936	49	5149
2026-01-09 11:28:04.52	312.17	17.89	-39.6	-42.0	15.6	0.00e+00	0	56	0	904921088	50	4862
2026-01-09 11:28:05.53	312.35	17.81	-39.4	-41.7	15.9	0.00e+00	0	56	0	907018240	50	4682
2026-01-09 11:28:06.54	312.52	17.73	-39.2	-41.5	16.2	0.00e+00	0	57	0	908066816	50	4551
2026-01-09 11:28:07.55	312.69	17.65	-39.1	-41.2	16.4	0.00e+00	0	56	0	910163968	50	4440
2026-01-09 11:28:08.56	312.87	17.57	-38.8	-41.0	16.6	0.00e+00	0	57	0	912261120	49	4550
2026-01-09 11:28:09.57	313.04	17.49	-39.0	-41.1	16.5	0.00e+00	0	56	0	914358272	49	4630
2026-01-09 11:28:10.57	313.21	17.41	-38.9	-41.1	16.5	0.00e+00	0	56	0	916455424	49	4602
2026-01-09 11:28:11.59	313.38	17.32	-39.1	-41.4	16.2	0.00e+00	0	57	0	917504000	49	4763
2026-01-09 11:28:12.60	313.55	17.24	-39.6	-42.0	15.6	0.00e+00	0	57	0	919601152	49	5148
2026-01-09 11:28:13.61	313.71	17.16	-39.7	-42.3	15.3	0.00e+00	0	56	0	921698304	50	4988
2026-01-09 11:28:14.62	313.88	17.08	-39.9	-42.4	15.2	0.00e+00	0	56	0	923795456	50	5100
2026-01-09 11:28:15.63	314.05	17.00	-39.8	-42.4	15.3	0.00e+00	0	56	0	925892608	50	5066
2026-01-09 11:28:16.63	314.21	16.92	-39.7	-42.2	15.4	0.00e+00	0	56	0	927989760	50	4971
2026-01-09 11:28:17.64	314.38	16.84	-39.6	-42.0	15.6	0.00e+00	0	57	0	929038336	50	4823
2026-01-09 11:28:18.65	314.54	16.76	-39.3	-41.6	15.9	0.00e+00	0	56	0	931135488	50	4645
2026-01-09 11:28:19.66	314.70	16.68	-39.1	-41.3	16.3	0.00e+00	0	57	0	933232640	50	4469
2026-01-09 11:28:20.67	314.86	16.60	-39.2	-41.4	16.1	0.00e+00	0	56	0	935329792	50	4541
2026-01-09 11:28:21.68	315.02	16.52	-39.2	-41.5	16.1	0.00e+00	0	57	0	937426944	50	4577
2026-01-09 11:28:22.69	315.18	16.44	-39.3	-41.6	16.0	0.00e+00	0	56	0	938475520	50	4623
2026-01-09 11:28:23.70	315.34	16.36	-39.5	-41.9	15.7	0.00e+00	0	57	0	940572672	50	4761
2026-01-09 11:28:24.71	315.50	16.28	-39.5	-41.9	15.6	0.00e+00	0	56	0	942669824	50	4809
2026-01-09 11:28:25.72	315.66	16.20	-39.6	-42.0	15.6	0.00e+00	0	56	0	944766976	50	4818
2026-01-09 11:28:26.73	315.82	16.12	-39.4	-41.7	15.9	0.00e+00	0	56	0	946864128	50	4660
2026-01-09 11:28:27.74	315.97	16.04	-39.2	-41.5	16.1	0.00e+00	0	57	0	947912704	50	4548
2026-01-09 11:28:28.75	316.13	15.96	-39.0	-41.2	16.4	0.00e+00	0	56	0	950009856	50	4406
2026-01-09 11:28:29.76	316.28	15.88	-39.0	-41.2	16.4	0.00e+00	0	56	0	952107008	49	4679
2026-01-09 11:28:30.77	316.44	15.80	-39.0	-41.2	16.3	0.00e+00	0	57	0	954204160	49	4704
2026-01-09 11:28:31.78	316.59	15.72	-39.2	-41.4	16.1	0.00e+00	0	56	0	956301312	49	4812
2026-01-09 11:28:32.79	316.74	15.64	-39.5	-41.9	15.6	0.00e+00	0	56	0	957349888	49	5075
2026-01-09 11:28:33.80	316.89	15.56	-39.8	-42.3	15.2	0.00e+00	0	56	0	959447040	50	5035
2026-01-09 11:28:34.80	317.04	15.49	-40.1	-42.9	14.7	0.00e+00	0	57	0	961544192	50	5348
2026-01-09 11:28:35.81	317.19	15.41	-40.4	-43.3	14.3	0.00e+00	0	57	0	963641344	51	5314
2026-01-09 11:28:36.82	317.34	15.33	-40.5	-43.5	14.0	1.50e-06	0	56	0	965738496	51	5458
2026-01-09 11:28:37.83	317.49	15.25	-40.6	-43.6	14.0	7.00e-07	0	56	0	966787072	51	5480
2026-01-09 11:28:38.84	317.64	15.17	-40.7	-43.8	13.8	6.10e-06	0	56	0	968884224	51	5624
2026-01-09 11:28:39.85	317.78	15.09	-40.6	-43.6	13.9	1.50e-06	0	56	0	970981376	51	5510
2026-01-09 11:28:40.86	317.93	15.01	-40.5	-43.5	14.1	1.50e-06	0	57	0	973078528	51	5407
2026-01-09 11:28:41.87	318.07	14.93	-40.2	-43.0	14.5	1.50e-06	0	56	0	975175680	51	5147
2026-01-09 11:28:42.88	318.22	14.85	-40.1	-42.9	14.7	0.00e+00	0	57	0	976224256	51	5045
2026-01-09 11:28:43.89	318.36	14.78	-40.0	-42.7	14.9	0.00e+00	0	57	0	978321408	51	4928
2026-01-09 11:28:44.90	318.51	14.70	-39.8	-42.4	15.1	0.00e+00	0	56	0	980418560	51	4796
2026-01-09 11:28:45.91	318.65	14.62	-39.6	-42.1	15.4	0.00e+00	0	57	0	982515712	51	4645
2026-01-09 11:28:46.92	318.79	14.54	-39.6	-42.0	15.5	0.00e+00	0	57	0	984612864	51	4577
2026-01-09 11:28:47.93	318.93	14.46	-39.4	-41.8	15.7	0.00e+00	0	57	0	985661440	50	4759
2026-01-09 11:28:48.93	319.07	14.38	-39.4	-41.8	15.8	0.00e+00	0	57	0	987758592	50	4706
2026-01-09 11:28:49.94	319.21	14.31	-39.3	-41.6	15.9	0.00e+00	0	56	0	989855744	50	4604
2026-01-09 11:28:50.95	319.35	14.23	-39.1	-41.4	16.1	0.00e+00	0	56	0	991952896	50	4516
2026-01-09 11:28:51.96	319.48	14.15	-39.0	-41.2	16.3	0.00e+00	0	56	0	994050048	49	4670
2026-01-09 11:28:52.97	319.62	14.07	-39.0	-41.2	16.3	0.00e+00	0	56	0	995098624	49	4655
2026-01-09 11:28:53.98	319.76	14.00	-39.0	-41.2	16.3	0.00e+00	0	56	0	997195776	49	4667
2026-01-09 11:28:54.99	319.89	13.92	-39.2	-41.5	16.0	0.00e+00	0	56	0	999292928	49	4842
2026-01-09 11:28:56.00	320.03	13.84	-39.1	-41.3	16.1	0.00e+00	0	57	0	1001390080	49	4751
2026-01-09 11:28:57.01	320.16	13.76	-39.4	-41.7	15.8	0.00e+00	0	56	0	1003487232	49	4966
2026-01-09 11:28:58.02	320.30	13.69	-39.5	-42.0	15.5	0.00e+00	0	56	0	1005584384	49	5106
2026-01-09 11:28:59.03	320.43	13.61	-39.8	-42.3	15.2	0.00e+00	0	56	0	1006632960	50	5024
2026-01-09 11:29:00.04	320.56	13.53	-40.0	-42.7	14.8	0.00e+00	0	56	0	1008730112	50	5227
2026-01-09 11:29:01.05	320.70	13.46	-40.2	-43.0	14.5	7.00e-07	0	57	0	1010827264	50	5439
2026-01-09 11:29:02.06	320.83	13.38	-40.3	-43.2	14.3	7.00e-07	0	56	0	1012924416	51	5264
2026-01-09 11:29:03.07	320.96	13.30	-40.5	-43.5	14.0	2.20e-06	0	56	0	1015021568	51	5403
2026-01-09 11:29:04.08	321.09	13.23	-40.4	-43.3	14.2	1.50e-06	0	56	0	1016070144	51	5305
2026-01-09 11:29:05.09	321.22	13.15	-40.4	-43.4	14.1	0.00e+00	0	56	0	1018167296	51	5357
2026-01-09 11:29:06.09	321.34	13.07	-40.4	-43.4	14.1	3.00e-06	0	56	0	1020264448	51	5352
2026-01-09 11:29:07.10	321.47	13.00	-40.3	-43.1	14.3	7.00e-07	0	57	0	1022361600	51	5218
2026-01-09 11:29:08.11	321.60	12.92	-40.3	-43.2	14.3	7.00e-07	0	57	0	1023410176	51	5246
2026-01-09 11:29:09.12	321.73	12.85	-40.2	-43.0	14.4	0.00e+00	0	57	0	1025507328	51	5131
2026-01-09 11:29:10.13	321.85	12.77	-39.9	-42.6	14.8	0.00e+00	0	57	0	1027604480	51	4915
2026-01-09 11:29:11.14	321.98	12.69	-39.9	-42.5	14.9	0.00e+00	0	57	0	1029701632	51	4865
2026-01-09 11:29:12.15	322.10	12.62	-39.9	-42.5	14.9	0.00e+00	0	56	0	1031798784	51	4850
2026-01-09 11:29:13.16	322.23	12.54	-39.8	-42.5	14.9	0.00e+00	0	57	0	1033895936	51	4829
2026-01-09 11:29:14.17	322.35	12.47	-39.8	-42.5	15.0	0.00e+00	0	57	0	1034944512	51	4825
2026-01-09 11:29:15.18	322.47	12.39	-39.8	-42.4	15.0	0.00e+00	0	56	0	1037041664	51	4769
2026-01-09 11:29:16.19	322.60	12.32	-39.9	-42.6	14.9	0.00e+00	0	57	0	1039138816	51	4875
2026-01-09 11:29:17.20	322.72	12.24	-39.9	-42.6	14.8	0.00e+00	0	57	0	1041235968	51	4881
2026-01-09 11:29:18.21	322.84	12.17	-39.8	-42.5	14.9	0.00e+00	0	56	0	1043333120	51	4831
2026-01-09 11:29:19.22	322.96	12.09	-40.0	-42.7	14.7	0.00e+00	0	57	0	1044381696	51	4976
2026-01-09 11:29:20.23	323.08	12.02	-39.9	-42.6	14.8	0.00e+00	0	56	0	1046478848	51	4890
2026-01-09 11:29:21.24	323.20	11.94	-39.9	-42.7	14.7	1.50e-06	0	57	0	1048576000	51	4930
2026-01-09 11:29:22.25	323.32	11.87	-40.0	-42.7	14.7	0.00e+00	0	57	0	1050673152	51	4969
2026-01-09 11:29:23.26	323.44	11.79	-39.8	-42.4	14.9	0.00e+00	0	57	0	1052770304	51	4812
2026-01-09 11:29:24.27	323.55	11.72	-39.9	-42.6	14.8	0.00e+00	0	57	0	1053818880	51	4908
2026-01-09 11:29:25.28	323.67	11.65	-39.9	-42.6	14.8	0.00e+00	0	57	0	1055916032	51	4889
2026-01-09 11:29:26.29	323.79	11.57	-39.9	-42.5	14.8	0.00e+00	0	57	0	1058013184	51	4859
2026-01-09 11:29:27.29	323.90	11.50	-40.0	-42.8	14.6	0.00e+00	0	57	0	1060110336	51	4996
2026-01-09 11:29:28.30	324.02	11.43	-40.0	-42.7	14.7	0.00e+00	0	56	0	1062207488	51	4947
2026-01-09 11:29:29.31	324.13	11.35	-40.1	-42.9	14.4	7.00e-07	0	57	0	1063256064	51	5093
2026-01-09 11:29:30.32	324.25	11.28	-40.3	-43.2	14.2	1.50e-06	0	57	0	1065353216	51	5259
2026-01-09 11:29:31.33	324.36	11.21	-40.3	-43.3	14.1	4.50e-06	0	57	0	1067450368	51	5309
2026-01-09 11:29:32.34	324.47	11.13	-40.5	-43.6	13.8	6.80e-06	0	56	0	1069547520	51	5498
2026-01-09 11:29:33.35	324.59	11.06	-40.6	-43.7	13.6	4.50e-06	0	56	0	1071644672	51	5565
2026-01-09 11:29:34.36	324.70	10.99	-40.6	-43.8	13.6	7.60e-06	0	56	0	1072693248	51	5593
2026-01-09 11:29:35.37	324.81	10.91	-40.7	-43.9	13.3	2.36e-05	0	56	0	1074790400	52	5401
2026-01-09 11:29:36.38	324.92	10.84	-40.7	-44.1	13.2	2.05e-05	0	57	0	1076887552	52	5477
2026-01-09 11:29:37.39	325.03	10.77	-40.8	-44.2	13.0	2.51e-05	0	57	0	1078984704	52	5574
2026-01-09 11:29:38.40	325.14	10.70	-40.9	-44.3	13.0	4.57e-05	0	57	0	1081081856	52	5622
2026-01-09 11:29:39.41	325.25	10.62	-40.9	-44.3	13.0	3.12e-05	0	57	0	1082130432	52	5626
2026-01-09 11:29:40.41	325.36	10.55	-41.0	-44.5	12.6	6.40e-05	0	57	0	1084227584	52	5787
2026-01-09 11:29:41.42	325.47	10.48	-40.9	-44.4	12.8	6.33e-05	0	57	0	1086324736	52	5700
2026-01-09 11:29:42.44	325.58	10.41	-40.9	-44.4	12.8	3.81e-05	0	57	0	1088421888	52	5690
2026-01-09 11:29:43.45	325.68	10.33	-40.9	-44.4	12.9	5.87e-05	0	57	0	1090519040	52	5674
2026-01-09 11:29:44.45	325.79	10.26	-40.7	-44.1	13.1	4.88e-05	0	57	0	1091567616	52	5495
2026-01-09 11:29:45.46	325.90	10.19	-40.7	-44.0	13.2	2.59e-05	0	57	0	1093664768	52	5426
2026-01-09 11:29:46.47	326.00	10.12	-40.6	-43.9	13.2	1.90e-05	0	56	0	1095761920	52	5397
2026-01-09 11:29:47.48	326.11	10.05	-40.6	-43.8	13.4	1.44e-05	0	57	0	1097859072	52	5309
2026-01-09 11:29:48.49	326.21	9.98	-40.6	-43.8	13.3	1.67e-05	0	57	0	1099956224	52	5324
2026-01-09 11:29:49.50	326.32	9.91	-40.5	-43.8	13.4	1.60e-05	0	57	0	1102053376	52	5305
2026-01-09 11:29:50.51	326.42	9.84	-40.6	-43.9	13.3	1.14e-05	0	57	0	1103101952	52	5352
2026-01-09 11:29:51.52	326.53	9.77	-40.4	-43.5	13.6	8.30e-06	0	57	0	1105199104	52	5157
2026-01-09 11:29:52.53	326.63	9.69	-40.3	-43.3	13.8	6.80e-06	0	57	0	1107296256	52	5029
2026-01-09 11:29:53.54	326.73	9.62	-40.4	-43.5	13.6	4.50e-06	0	57	0	1109393408	52	5156
2026-01-09 11:29:54.55	326.83	9.55	-40.3	-43.4	13.7	3.80e-06	0	56	0	1111490560	52	5085
2026-01-09 11:29:55.56	326.94	9.48	-40.3	-43.5	13.7	6.10e-06	0	57	0	1112539136	52	5108
2026-01-09 11:29:56.57	327.04	9.41	-40.3	-43.3	13.8	3.00e-06	0	57	0	1114636288	52	5022
2026-01-09 11:29:57.58	327.14	9.34	-40.1	-43.0	14.1	2.20e-06	0	57	0	1116733440	52	4839
2026-01-09 11:29:58.59	327.24	9.27	-40.0	-43.0	14.1	1.50e-06	0	57	0	1118830592	52	4837
2026-01-09 11:29:59.60	327.34	9.20	-40.0	-42.9	14.3	1.50e-06	0	57	0	1120927744	51	5086
2026-01-09 11:30:00.61	327.44	9.13	-40.0	-42.8	14.4	7.00e-07	0	57	0	1121976320	51	5015
2026-01-09 11:30:01.62	327.54	9.06	-40.1	-43.1	14.1	3.00e-06	0	57	0	1124073472	51	5181
2026-01-09 11:30:02.62	327.63	8.99	-40.1	-43.0	14.1	2.20e-06	0	57	0	1126170624	51	5157
2026-01-09 11:30:03.63	327.73	8.93	-40.2	-43.1	14.1	7.00e-07	0	57	0	1128267776	51	5199
2026-01-09 11:30:04.64	327.83	8.86	-40.2	-43.1	14.0	4.50e-06	0	57	0	1130364928	51	5218
2026-01-09 11:30:05.65	327.93	8.79	-40.2	-43.2	13.9	0.00e+00	0	57	0	1131413504	51	5250
2026-01-09 11:30:06.66	328.02	8.72	-40.3	-43.4	13.8	5.30e-06	0	57	0	1133510656	51	5357
2026-01-09 11:30:07.67	328.12	8.65	-40.4	-43.5	13.6	5.30e-06	0	56	0	1135607808	51	5448
2026-01-09 11:30:08.68	328.21	8.58	-40.6	-43.9	13.3	1.52e-05	0	57	0	1137704960	51	5688
2026-01-09 11:30:09.69	328.31	8.51	-40.6	-44.0	13.0	2.59e-05	0	57	0	1139802112	52	5424
2026-01-09 11:30:10.70	328.41	8.44	-40.8	-44.4	12.7	6.33e-05	0	56	0	1140850688	52	5669
2026-01-09 11:30:11.71	328.50	8.38	-40.9	-44.6	12.4	1.48e-04	0	57	0	1142947840	52	5837
2026-01-09 11:30:12.73	328.59	8.31	-40.9	-44.5	12.4	1.84e-04	0	57	0	1145044992	52	5785
2026-01-09 11:30:13.73	328.69	8.24	-41.1	-44.9	12.1	2.90e-04	0	56	0	1147142144	52	6033
