passes_logs/2026/01/09/R2.0S_Moscow/R2.0S_Moscow__20260109_094810_AQUA_rec.log

#Pass ID: 20260109_094810_AQUA
#Satellite: AQUA
#Configuration: AQUA
#almurnet v.1.7.20251203
#Start time: 2026-01-09 09:51:52

#Version: 2.2.20231116
#Station: R2.0S_Moscow
#Location: 37.707566 lon 55.798166 lat
#TLE: 1 27424U 02022A   26004.96787593  .00001598  00000+0  32997-3 0  9996
#TLE: 2 27424  98.4069 331.2279 0002002  90.2377   0.6092 14.61798176259425

#Time	Az	El	Level	Level2	SNR	BER	BlckErr	Temp	State	Recorded	gain1	gain2
2026-01-09 09:51:52.57	69.55	13.88	-44.7	-59.2	3.8	1.49e+00	0	56	0	0	60	19677
2026-01-09 09:51:53.57	69.33	13.92	-45.6	-64.0	3.8	7.44e-01	0	56	104	0	62	30586
2026-01-09 09:51:54.58	69.10	13.96	-45.9	-64.7	3.8	7.46e-01	0	56	104	0	62	32999
2026-01-09 09:51:55.59	68.88	14.00	-46.1	-64.8	3.8	7.46e-01	0	56	104	0	62	33332
2026-01-09 09:51:56.60	68.65	14.04	-46.1	-64.8	3.8	7.44e-01	0	57	104	0	62	33354
2026-01-09 09:51:57.62	68.42	14.08	-46.1	-64.8	3.8	7.47e-01	0	56	104	0	62	33342
2026-01-09 09:51:58.63	68.20	14.11	-46.0	-64.7	3.8	7.47e-01	0	57	104	0	62	33110
2026-01-09 09:51:59.64	67.97	14.15	-45.9	-64.5	3.8	7.47e-01	0	57	104	0	62	32402
2026-01-09 09:52:00.65	67.74	14.19	-45.6	-64.3	3.8	7.48e-01	0	56	104	0	62	31520
2026-01-09 09:52:01.66	67.51	14.23	-45.5	-64.1	3.8	7.42e-01	0	57	104	0	62	30902
2026-01-09 09:52:02.67	67.28	14.26	-45.3	-63.7	3.8	7.50e-01	0	57	104	0	62	29473
2026-01-09 09:52:03.68	67.05	14.30	-45.2	-63.8	3.8	7.47e-01	0	57	104	0	62	29977
2026-01-09 09:52:04.69	66.82	14.33	-45.1	-63.8	3.8	7.44e-01	0	56	104	0	62	30016
2026-01-09 09:52:05.70	66.59	14.37	-45.2	-63.8	3.8	7.44e-01	0	56	104	0	62	29948
2026-01-09 09:52:06.71	66.35	14.40	-45.2	-63.7	3.8	7.47e-01	0	56	104	0	62	29670
2026-01-09 09:52:07.72	66.12	14.44	-45.1	-63.6	3.8	7.48e-01	0	56	104	0	62	29237
2026-01-09 09:52:08.73	65.89	14.47	-45.1	-63.5	3.8	7.47e-01	0	56	104	0	62	28791
2026-01-09 09:52:09.74	65.65	14.51	-45.1	-63.4	3.8	7.49e-01	0	57	104	0	62	28664
2026-01-09 09:52:10.76	65.42	14.54	-45.2	-63.6	3.8	7.44e-01	0	57	104	0	62	29221
2026-01-09 09:52:11.77	65.18	14.57	-45.1	-63.7	3.8	7.42e-01	0	57	104	0	62	29355
2026-01-09 09:52:12.78	64.95	14.61	-45.1	-63.7	3.8	7.45e-01	0	57	104	0	62	29566
2026-01-09 09:52:13.79	64.71	14.64	-45.1	-63.8	3.8	7.45e-01	0	56	104	0	62	29814
2026-01-09 09:52:14.80	64.47	14.67	-45.2	-63.8	3.8	7.44e-01	0	57	104	0	62	29928
2026-01-09 09:52:15.81	64.24	14.70	-45.1	-63.6	3.8	7.43e-01	0	57	104	0	62	29209
2026-01-09 09:52:16.82	64.00	14.73	-45.1	-63.3	3.8	7.47e-01	0	56	104	0	62	28270
2026-01-09 09:52:17.84	63.76	14.76	-45.1	-63.0	3.8	7.46e-01	0	56	104	0	62	27302
2026-01-09 09:52:18.85	63.52	14.79	-45.1	-62.8	3.8	7.45e-01	0	56	104	0	62	26740
2026-01-09 09:52:19.86	63.28	14.82	-45.1	-62.9	3.8	7.47e-01	0	56	104	0	62	27017
2026-01-09 09:52:20.87	63.04	14.85	-45.1	-63.2	3.8	7.43e-01	0	57	104	0	62	27772
2026-01-09 09:52:21.88	62.80	14.88	-45.1	-63.4	3.8	7.46e-01	0	57	104	0	62	28508
2026-01-09 09:52:22.89	62.56	14.91	-45.1	-63.4	3.8	7.43e-01	0	57	104	0	62	28448
2026-01-09 09:52:23.90	62.32	14.94	-45.1	-63.5	3.8	7.46e-01	0	57	104	0	62	28704
2026-01-09 09:52:24.91	62.07	14.97	-45.1	-63.7	3.8	7.45e-01	0	56	104	0	62	29374
2026-01-09 09:52:25.92	61.83	14.99	-45.1	-63.6	3.8	7.42e-01	0	56	104	0	62	29307
2026-01-09 09:52:26.93	61.59	15.02	-45.1	-63.2	3.8	7.47e-01	0	56	104	0	62	27864
2026-01-09 09:52:27.94	61.35	15.05	-45.1	-62.8	3.8	7.48e-01	0	56	104	0	62	26465
2026-01-09 09:52:28.95	61.10	15.07	-45.1	-62.7	3.8	7.47e-01	0	56	104	0	62	26330
2026-01-09 09:52:29.97	60.86	15.10	-45.1	-63.0	3.8	7.43e-01	0	56	104	0	62	27273
2026-01-09 09:52:30.98	60.61	15.12	-45.1	-63.4	3.8	7.45e-01	0	57	104	0	62	28378
2026-01-09 09:52:31.98	60.37	15.15	-45.1	-63.6	3.8	7.43e-01	0	56	104	0	62	29035
2026-01-09 09:52:32.99	60.12	15.17	-45.1	-63.5	3.8	7.46e-01	0	57	104	0	62	28902
2026-01-09 09:52:34.01	59.88	15.19	-45.1	-63.4	3.8	7.42e-01	0	57	104	0	62	28354
2026-01-09 09:52:35.01	59.63	15.22	-45.1	-62.8	3.8	7.49e-01	0	56	104	0	62	26572
2026-01-09 09:52:36.03	59.38	15.24	-45.1	-61.8	3.8	7.46e-01	0	56	104	0	62	23622
2026-01-09 09:52:37.04	59.14	15.26	-45.1	-60.6	4.0	7.34e-01	0	57	104	0	62	20680
2026-01-09 09:52:38.05	58.89	15.28	-45.0	-59.9	4.3	7.28e-01	0	56	104	0	61	20111
2026-01-09 09:52:39.06	58.64	15.30	-45.0	-59.7	4.1	7.26e-01	0	57	104	0	61	19643
2026-01-09 09:52:40.07	58.39	15.32	-44.9	-58.4	4.9	7.10e-01	5	57	104	0	61	16897
2026-01-09 09:52:41.08	58.14	15.34	-44.8	-56.4	6.2	6.80e-01	92	57	0	524288	61	13426
2026-01-09 09:52:42.09	57.89	15.36	-44.5	-54.1	8.3	6.42e-01	37	57	0	2097152	61	10334
2026-01-09 09:52:43.10	57.65	15.38	-44.0	-51.2	11.3	6.16e-01	0	57	0	4194304	60	7854
2026-01-09 09:52:44.11	57.40	15.40	-43.4	-48.6	14.5	6.05e-01	0	57	0	5767168	58	6497
2026-01-09 09:52:45.12	57.15	15.42	-42.3	-46.1	16.9	6.05e-01	0	57	0	7864320	56	5522
2026-01-09 09:52:46.13	56.90	15.43	-41.1	-44.2	18.9	6.04e-01	0	57	0	9961472	54	4930
2026-01-09 09:52:47.14	56.65	15.45	-45.4	-63.3	3.8	7.48e-01	0	57	104	10485760	61	29938
2026-01-09 09:52:48.15	56.39	15.47	-43.6	-48.9	14.2	6.07e-01	0	56	0	10485760	59	6365
2026-01-09 09:52:49.16	56.14	15.48	-44.4	-52.1	10.4	6.19e-01	0	57	0	12582912	59	9255
2026-01-09 09:52:50.17	55.89	15.50	-44.2	-51.3	11.5	6.14e-01	0	57	0	14680064	59	8438
2026-01-09 09:52:51.18	55.64	15.51	-40.3	-43.0	20.0	6.04e-01	0	56	0	16252928	52	4847
2026-01-09 09:52:52.19	55.39	15.53	-40.3	-42.9	20.1	6.07e-01	0	56	0	18350080	52	4806
2026-01-09 09:52:53.20	55.14	15.54	-40.2	-42.9	20.1	6.05e-01	0	57	0	19922944	52	4775
2026-01-09 09:52:54.21	54.88	15.56	-40.3	-42.9	20.1	6.04e-01	0	57	0	22020096	52	4787
2026-01-09 09:52:55.22	54.63	15.57	-40.2	-42.8	20.2	6.07e-01	0	57	0	23592960	52	4727
2026-01-09 09:52:56.23	54.38	15.58	-40.2	-42.8	20.2	6.05e-01	0	57	0	25690112	52	4752
2026-01-09 09:52:57.24	54.13	15.59	-40.3	-43.0	20.1	6.06e-01	0	57	0	27787264	52	4826
2026-01-09 09:52:58.25	53.87	15.60	-40.1	-42.6	20.4	6.05e-01	0	57	0	29360128	52	4633
2026-01-09 09:52:59.26	53.62	15.61	-40.0	-42.5	20.7	6.07e-01	0	57	0	31457280	51	4834
2026-01-09 09:53:00.27	53.37	15.62	-40.0	-42.5	20.7	6.07e-01	0	57	0	33554432	51	4815
2026-01-09 09:53:01.28	53.11	15.63	-40.0	-42.4	20.7	6.08e-01	0	57	0	35127296	51	4798
2026-01-09 09:53:02.29	52.86	15.64	-39.9	-42.4	20.7	6.08e-01	0	57	0	37224448	51	4775
2026-01-09 09:53:03.30	52.60	15.65	-39.9	-42.4	20.8	6.06e-01	0	57	0	38797312	51	4774
2026-01-09 09:53:04.31	52.35	15.66	-40.0	-42.4	20.7	6.05e-01	0	57	0	40894464	51	4803
2026-01-09 09:53:05.32	52.10	15.67	-39.9	-42.3	20.8	6.04e-01	0	57	0	42991616	51	4729
2026-01-09 09:53:06.33	51.84	15.67	-39.8	-42.2	20.9	6.07e-01	0	57	0	44564480	51	4701
2026-01-09 09:53:07.34	51.59	15.68	-39.9	-42.3	20.9	6.05e-01	0	57	0	46661632	51	4730
2026-01-09 09:53:08.35	51.33	15.69	-39.8	-42.2	20.9	6.06e-01	0	57	0	48234496	51	4703
2026-01-09 09:53:09.36	51.08	15.69	-39.9	-42.4	20.8	6.05e-01	0	57	0	50331648	51	4765
2026-01-09 09:53:10.37	50.82	15.70	-40.0	-42.4	20.7	6.06e-01	0	57	0	52428800	51	4792
2026-01-09 09:53:11.38	50.57	15.70	-39.9	-42.4	20.8	6.05e-01	0	57	0	54001664	51	4771
2026-01-09 09:53:12.39	50.31	15.70	-39.8	-42.2	20.9	6.07e-01	0	57	0	56098816	51	4698
2026-01-09 09:53:13.40	50.06	15.71	-39.7	-42.1	21.1	6.05e-01	0	57	0	57671680	51	4608
2026-01-09 09:53:14.41	49.80	15.71	-39.8	-42.1	21.0	6.05e-01	0	57	0	59768832	51	4643
2026-01-09 09:53:15.42	49.55	15.71	-39.9	-42.3	20.9	6.05e-01	0	57	0	61865984	51	4727
2026-01-09 09:53:16.43	49.29	15.71	-40.0	-42.4	20.7	6.06e-01	0	56	0	63438848	51	4811
2026-01-09 09:53:17.44	49.04	15.71	-39.9	-42.3	20.8	6.08e-01	0	57	0	65536000	51	4755
2026-01-09 09:53:18.44	48.78	15.71	-39.9	-42.3	20.8	6.07e-01	0	57	0	67633152	51	4743
2026-01-09 09:53:19.45	48.53	15.71	-39.8	-42.2	20.9	6.07e-01	0	57	0	69206016	51	4705
2026-01-09 09:53:20.46	48.27	15.71	-39.8	-42.2	21.0	6.08e-01	0	57	0	71303168	51	4675
2026-01-09 09:53:21.47	48.02	15.71	-39.8	-42.2	20.9	6.08e-01	0	57	0	72876032	51	4703
2026-01-09 09:53:22.48	47.76	15.71	-39.9	-42.3	20.8	6.07e-01	0	57	0	74973184	51	4734
2026-01-09 09:53:23.49	47.51	15.71	-39.8	-42.3	20.9	6.05e-01	0	57	0	77070336	51	4710
2026-01-09 09:53:24.50	47.25	15.71	-39.8	-42.3	20.9	6.03e-01	0	57	0	78643200	51	4708
2026-01-09 09:53:25.51	47.00	15.70	-39.8	-42.3	20.9	6.06e-01	0	57	0	80740352	51	4707
2026-01-09 09:53:26.52	46.74	15.70	-39.9	-42.3	20.9	6.06e-01	0	57	0	82313216	51	4722
2026-01-09 09:53:27.53	46.49	15.69	-39.9	-42.3	20.8	6.07e-01	0	57	0	84410368	51	4757
2026-01-09 09:53:28.54	46.23	15.69	-39.9	-42.3	20.8	6.05e-01	0	56	0	86507520	51	4751
2026-01-09 09:53:29.55	45.98	15.68	-39.9	-42.3	20.9	6.08e-01	0	57	0	88080384	51	4713
2026-01-09 09:53:30.56	45.72	15.68	-39.8	-42.3	20.9	6.08e-01	0	57	0	90177536	51	4708
2026-01-09 09:53:31.57	45.47	15.67	-39.8	-42.2	20.9	6.06e-01	0	57	0	91750400	51	4688
2026-01-09 09:53:32.58	45.22	15.66	-40.2	-52.2	3.8	7.44e-01	0	56	104	93323264	51	14867
2026-01-09 09:53:33.58	44.96	15.66	-40.2	-52.0	3.9	7.39e-01	0	57	104	93323264	51	14439
2026-01-09 09:53:34.59	44.71	15.65	-40.1	-52.1	3.8	7.46e-01	0	57	104	93323264	51	14542
2026-01-09 09:53:35.60	44.46	15.64	-40.2	-52.0	3.9	7.42e-01	0	57	104	93323264	51	14409
2026-01-09 09:53:36.61	44.20	15.63	-40.3	-52.3	3.8	7.48e-01	0	57	104	93323264	51	15020
2026-01-09 09:53:37.62	43.95	15.62	-41.8	-54.8	3.7	7.44e-01	0	57	104	93323264	54	16717
2026-01-09 09:53:38.63	43.70	15.61	-42.4	-55.5	3.8	7.43e-01	0	57	104	93323264	56	16279
2026-01-09 09:53:39.64	43.44	15.60	-41.8	-54.8	3.7	7.47e-01	0	57	104	93323264	54	16736
2026-01-09 09:53:40.65	43.19	15.59	-41.3	-53.8	3.8	7.44e-01	0	57	104	93323264	54	14980
2026-01-09 09:53:41.66	42.94	15.58	-40.5	-52.6	3.8	7.43e-01	0	57	104	93323264	52	14691
2026-01-09 09:53:42.67	42.69	15.56	-40.3	-52.3	3.7	7.52e-01	0	57	104	93323264	52	14157
2026-01-09 09:53:43.67	42.44	15.55	-41.4	-53.8	4.2	7.35e-01	0	57	104	93323264	53	15870
2026-01-09 09:53:44.69	42.18	15.54	-40.1	-51.9	3.7	7.48e-01	0	57	104	93323264	52	13566
2026-01-09 09:53:45.70	41.93	15.52	-43.3	-57.2	4.0	7.40e-01	0	57	104	93323264	57	18661
2026-01-09 09:53:46.71	41.68	15.51	-41.9	-54.5	3.7	7.45e-01	0	57	104	93323264	55	15334
2026-01-09 09:53:47.72	41.43	15.49	-42.2	-55.0	3.8	7.46e-01	0	57	104	93323264	54	17095
2026-01-09 09:53:48.73	41.18	15.48	-40.7	-52.8	3.8	7.43e-01	0	57	104	93323264	53	14185
2026-01-09 09:53:49.74	40.93	15.46	-40.1	-52.0	3.8	7.43e-01	0	57	104	93323264	52	13632
2026-01-09 09:53:50.75	40.68	15.44	-40.0	-51.9	3.8	7.45e-01	0	57	104	93323264	52	13481
2026-01-09 09:53:51.75	40.43	15.43	-41.7	-54.3	3.8	7.49e-01	0	57	104	93323264	53	16832
2026-01-09 09:53:52.76	40.18	15.41	-43.2	-57.0	3.8	7.44e-01	0	57	104	93323264	56	19250
2026-01-09 09:53:53.77	39.93	15.39	-43.8	-58.6	3.8	7.47e-01	0	57	104	93323264	58	20683
2026-01-09 09:53:54.78	39.68	15.37	-44.2	-59.8	3.8	7.44e-01	0	57	104	93323264	60	21053
2026-01-09 09:53:55.79	39.43	15.35	-40.2	-52.2	3.8	7.46e-01	0	57	104	93323264	52	13887
2026-01-09 09:53:56.80	39.18	15.33	-40.4	-52.5	3.8	7.45e-01	0	57	104	93323264	52	14431
2026-01-09 09:53:57.81	38.94	15.31	-40.1	-52.0	3.8	7.49e-01	0	57	104	93323264	52	13639
2026-01-09 09:53:58.82	38.69	15.29	-40.1	-52.0	3.8	7.47e-01	0	57	104	93323264	52	13594
2026-01-09 09:53:59.83	38.44	15.27	-40.0	-51.9	3.8	7.45e-01	0	57	104	93323264	52	13420
2026-01-09 09:54:00.83	38.20	15.25	-40.3	-52.3	3.8	7.42e-01	0	57	104	93323264	51	14886
2026-01-09 09:54:01.84	37.95	15.23	-44.0	-59.0	3.8	7.47e-01	0	57	104	93323264	58	21530
2026-01-09 09:54:02.85	37.70	15.21	-42.5	-55.7	3.8	7.44e-01	0	57	104	93323264	56	16688
2026-01-09 09:54:03.86	37.46	15.18	-44.0	-58.8	3.8	7.43e-01	0	57	104	93323264	58	21034
2026-01-09 09:54:04.87	37.21	15.16	-40.5	-52.6	3.8	7.48e-01	0	57	104	93323264	53	13818
2026-01-09 09:54:05.88	36.97	15.14	-40.4	-52.5	3.8	7.42e-01	0	57	104	93323264	52	14435
2026-01-09 09:54:06.89	36.72	15.11	-40.3	-52.3	3.8	7.44e-01	0	57	104	93323264	52	14090
2026-01-09 09:54:07.90	36.48	15.09	-41.9	-54.7	3.8	7.43e-01	0	57	104	93323264	54	16559
2026-01-09 09:54:08.91	36.24	15.06	-40.2	-52.2	3.8	7.43e-01	0	57	104	93323264	52	13924
2026-01-09 09:54:09.92	35.99	15.04	-44.3	-59.8	3.8	7.47e-01	0	57	104	93323264	59	22444
2026-01-09 09:54:10.93	35.75	15.01	-42.5	-55.6	3.8	7.44e-01	0	57	104	93323264	55	17472
2026-01-09 09:54:11.94	35.51	14.98	-44.1	-59.0	3.8	7.42e-01	0	57	104	93323264	58	21721
2026-01-09 09:54:12.95	35.27	14.96	-40.2	-52.3	3.8	7.50e-01	0	57	104	93323264	52	14070
2026-01-09 09:54:13.96	35.03	14.93	-40.1	-52.0	3.8	7.45e-01	0	57	104	93323264	52	13690
2026-01-09 09:54:14.96	34.79	14.90	-40.1	-52.0	3.8	7.46e-01	0	57	104	93323264	52	13622
2026-01-09 09:54:15.97	34.55	14.87	-42.7	-56.2	3.8	7.47e-01	0	57	104	93323264	55	18567
2026-01-09 09:54:16.98	34.31	14.84	-40.3	-52.4	3.8	7.47e-01	0	57	104	93323264	52	14373
2026-01-09 09:54:17.99	34.07	14.81	-44.5	-60.4	3.8	7.47e-01	0	57	104	93323264	59	24128
2026-01-09 09:54:19.00	33.83	14.78	-42.5	-55.8	3.8	7.46e-01	0	57	104	93323264	55	17796
2026-01-09 09:54:20.01	33.59	14.75	-44.1	-59.3	3.8	7.46e-01	0	57	104	93323264	58	22404
2026-01-09 09:54:21.02	33.36	14.72	-40.2	-52.2	3.8	7.45e-01	0	57	104	93323264	52	13943
2026-01-09 09:54:22.03	33.12	14.69	-40.2	-52.2	3.8	7.46e-01	0	57	104	93323264	52	14031
2026-01-09 09:54:23.04	32.88	14.66	-40.2	-52.3	3.8	7.45e-01	0	57	104	93323264	52	14127
2026-01-09 09:54:24.05	32.65	14.63	-41.6	-54.4	3.9	7.41e-01	0	57	104	93323264	54	16033
2026-01-09 09:54:25.06	32.41	14.60	-40.4	-52.6	3.8	7.44e-01	0	57	104	93323264	52	14566
2026-01-09 09:54:26.07	32.18	14.56	-44.4	-60.3	3.8	7.44e-01	0	57	104	93323264	59	23852
2026-01-09 09:54:27.08	31.94	14.53	-42.6	-55.8	3.8	7.44e-01	0	57	104	93323264	56	16865
2026-01-09 09:54:28.09	31.71	14.50	-44.4	-60.2	3.8	7.46e-01	0	57	104	93323264	59	23381
2026-01-09 09:54:29.10	31.48	14.46	-40.3	-52.3	3.8	7.42e-01	0	57	104	93323264	52	14140
2026-01-09 09:54:30.11	31.24	14.43	-40.4	-52.6	3.8	7.45e-01	0	57	104	93323264	52	14563
2026-01-09 09:54:31.12	31.01	14.39	-40.4	-52.5	3.8	7.43e-01	0	57	104	93323264	52	14525
2026-01-09 09:54:32.13	30.78	14.36	-43.4	-57.6	3.8	7.41e-01	0	57	104	93323264	57	19437
2026-01-09 09:54:33.14	30.55	14.32	-42.5	-55.8	3.8	7.44e-01	0	57	104	93323264	56	16825
2026-01-09 09:54:34.15	30.32	14.29	-44.5	-61.2	3.8	7.50e-01	0	57	104	93323264	60	24750
2026-01-09 09:54:35.16	30.09	14.25	-44.0	-59.5	3.8	7.45e-01	0	57	104	93323264	60	20333
2026-01-09 09:54:36.17	29.86	14.21	-40.3	-52.4	3.8	7.44e-01	0	57	104	93323264	52	14327
2026-01-09 09:54:37.18	29.63	14.18	-40.2	-52.2	3.8	7.46e-01	0	57	104	93323264	52	13908
2026-01-09 09:54:38.19	29.41	14.14	-40.2	-52.2	3.8	7.45e-01	0	57	104	93323264	52	13944
2026-01-09 09:54:39.20	29.18	14.10	-40.2	-52.3	3.8	7.47e-01	0	57	104	93323264	52	14105
2026-01-09 09:54:40.21	28.95	14.06	-40.4	-52.6	3.8	7.44e-01	0	57	104	93323264	52	14640
2026-01-09 09:54:41.22	28.73	14.03	-40.3	-52.4	3.8	7.44e-01	0	57	104	93323264	52	14323
2026-01-09 09:54:42.23	28.50	13.99	-43.9	-58.8	3.8	7.46e-01	0	57	104	93323264	59	20037
2026-01-09 09:54:43.24	28.28	13.95	-41.3	-53.8	3.8	7.47e-01	0	57	104	93323264	54	14946
2026-01-09 09:54:44.25	28.05	13.91	-43.9	-58.9	3.9	7.44e-01	0	57	104	93323264	58	21370
2026-01-09 09:54:45.26	27.83	13.87	-40.4	-52.4	3.8	7.42e-01	0	57	104	93323264	52	14260
2026-01-09 09:54:46.27	27.61	13.83	-40.2	-52.1	3.8	7.46e-01	0	57	104	93323264	52	13883
2026-01-09 09:54:47.28	27.39	13.79	-40.1	-52.0	3.8	7.45e-01	0	57	104	93323264	52	13704
2026-01-09 09:54:48.29	27.16	13.75	-41.3	-53.9	3.9	7.46e-01	0	57	104	93323264	54	15162
2026-01-09 09:54:49.30	26.94	13.71	-40.4	-52.5	3.8	7.44e-01	0	57	104	93323264	52	14539
2026-01-09 09:54:50.30	26.73	13.66	-43.6	-58.2	3.8	7.42e-01	0	57	104	93323264	59	18654
2026-01-09 09:54:51.31	26.51	13.62	-40.8	-53.1	3.8	7.48e-01	0	57	104	93323264	53	14571
2026-01-09 09:54:52.32	26.29	13.58	-43.7	-58.4	3.8	7.42e-01	0	57	104	93323264	58	20153
2026-01-09 09:54:53.33	26.07	13.54	-40.2	-52.3	3.8	7.44e-01	0	57	104	93323264	52	14050
2026-01-09 09:54:54.34	25.85	13.50	-40.2	-52.3	3.8	7.44e-01	0	57	104	93323264	52	14069
2026-01-09 09:54:55.35	25.64	13.45	-40.2	-52.3	3.8	7.46e-01	0	57	104	93323264	52	14159
2026-01-09 09:54:56.36	25.42	13.41	-40.7	-53.0	3.9	7.46e-01	0	57	104	93323264	53	14448
2026-01-09 09:54:57.37	25.21	13.37	-40.4	-52.5	3.8	7.43e-01	0	57	104	93323264	52	14530
2026-01-09 09:54:58.38	24.99	13.32	-43.1	-57.0	3.8	7.44e-01	0	57	104	93323264	58	17201
2026-01-09 09:54:59.39	24.78	13.28	-40.1	-52.3	3.9	7.46e-01	0	57	104	93323264	52	14177
2026-01-09 09:55:00.40	24.57	13.23	-43.5	-58.1	3.8	7.45e-01	0	57	104	93323264	58	19556
2026-01-09 09:55:01.40	24.35	13.19	-40.4	-52.7	3.8	7.44e-01	0	57	104	93323264	52	14715
2026-01-09 09:55:02.41	24.14	13.14	-40.2	-52.2	3.8	7.46e-01	0	57	104	93323264	52	14038
2026-01-09 09:55:03.42	23.93	13.10	-40.0	-52.0	3.8	7.46e-01	0	57	104	93323264	52	13706
2026-01-09 09:55:04.43	23.72	13.05	-40.3	-52.4	3.9	7.46e-01	0	57	104	93323264	52	14367
2026-01-09 09:55:05.44	23.51	13.01	-40.9	-53.1	3.8	7.44e-01	0	57	104	93323264	52	15497
2026-01-09 09:55:06.45	23.30	12.96	-42.8	-56.4	3.9	7.46e-01	0	57	104	93323264	57	17055
2026-01-09 09:55:07.46	23.10	12.92	-40.1	-52.2	3.8	7.47e-01	0	57	104	93323264	52	13947
2026-01-09 09:55:08.47	22.89	12.87	-43.2	-57.4	3.9	7.41e-01	0	57	104	93323264	58	18025
2026-01-09 09:55:09.48	22.68	12.82	-40.4	-52.5	3.8	7.49e-01	0	57	104	93323264	52	14485
2026-01-09 09:55:10.49	22.48	12.78	-40.4	-52.6	3.8	7.43e-01	0	57	104	93323264	52	14662
2026-01-09 09:55:11.50	22.27	12.73	-40.1	-52.2	3.8	7.42e-01	0	57	104	93323264	52	13904
2026-01-09 09:55:12.51	22.07	12.68	-40.1	-52.1	3.8	7.42e-01	0	57	104	93323264	52	13793
2026-01-09 09:55:13.52	21.86	12.63	-41.3	-54.1	3.8	7.47e-01	0	57	104	93323264	53	16464
2026-01-09 09:55:14.53	21.66	12.58	-41.7	-54.6	3.9	7.44e-01	0	57	104	93323264	55	15473
2026-01-09 09:55:15.54	21.46	12.54	-40.9	-53.2	3.8	7.44e-01	0	57	104	93323264	52	15642
2026-01-09 09:55:16.55	21.26	12.49	-42.5	-56.1	3.9	7.42e-01	0	57	104	93323264	57	16377
2026-01-09 09:55:17.56	21.06	12.44	-40.3	-52.5	3.8	7.43e-01	0	57	104	93323264	52	14484
2026-01-09 09:55:18.56	20.86	12.39	-40.2	-52.2	3.8	7.44e-01	0	57	104	93323264	52	13920
2026-01-09 09:55:19.57	20.66	12.34	-41.6	-54.4	3.8	7.44e-01	0	57	104	93323264	53	16938
2026-01-09 09:55:20.58	20.46	12.29	-40.5	-52.7	3.9	7.40e-01	0	57	104	93323264	53	13992
2026-01-09 09:55:21.59	20.26	12.24	-42.6	-56.2	3.7	7.46e-01	0	57	104	93323264	55	18637
2026-01-09 09:55:22.60	20.06	12.19	-44.3	-60.7	3.9	7.43e-01	0	57	104	93323264	59	24968
2026-01-09 09:55:23.61	19.87	12.14	-41.4	-54.0	3.9	7.45e-01	0	57	104	93323264	54	15335
2026-01-09 09:55:24.62	19.67	12.09	-40.5	-52.9	3.8	7.47e-01	0	57	104	93323264	52	15076
2026-01-09 09:55:25.63	19.48	12.04	-40.5	-52.7	3.8	7.45e-01	0	57	104	93323264	52	14805
2026-01-09 09:55:26.64	19.28	11.99	-40.4	-52.6	3.8	7.44e-01	0	57	104	93323264	52	14583
2026-01-09 09:55:27.65	19.09	11.94	-40.4	-52.7	3.8	7.44e-01	0	57	104	93323264	52	14723
2026-01-09 09:55:28.66	18.90	11.89	-40.5	-52.8	3.8	7.49e-01	0	57	104	93323264	52	15043
2026-01-09 09:55:29.67	18.70	11.84	-43.1	-57.1	3.8	7.48e-01	0	57	104	93323264	56	19477
2026-01-09 09:55:30.68	18.51	11.79	-41.2	-53.7	3.8	7.45e-01	0	57	104	93323264	54	14751
2026-01-09 09:55:31.69	18.32	11.74	-42.7	-56.4	3.8	7.49e-01	0	57	104	93323264	55	19158
2026-01-09 09:55:32.70	18.13	11.69	-41.4	-54.3	3.9	7.43e-01	0	57	104	93323264	55	14930
2026-01-09 09:55:33.71	17.94	11.63	-40.6	-52.9	3.8	7.44e-01	0	57	104	93323264	53	14253
2026-01-09 09:55:34.71	17.76	11.58	-40.4	-52.6	3.8	7.46e-01	0	57	104	93323264	52	14555
2026-01-09 09:55:35.73	17.57	11.53	-42.9	-57.1	3.8	7.47e-01	0	57	104	93323264	56	19505
2026-01-09 09:55:36.73	17.38	11.48	-41.3	-54.0	3.8	7.46e-01	0	57	104	93323264	53	16312
2026-01-09 09:55:37.74	17.20	11.43	-44.1	-60.1	3.7	7.46e-01	0	57	104	93323264	58	24612
2026-01-09 09:55:38.75	17.01	11.37	-44.0	-59.8	3.8	7.44e-01	0	57	104	93323264	59	22360
2026-01-09 09:55:39.76	16.83	11.32	-40.3	-52.5	3.8	7.45e-01	0	57	104	93323264	52	14431
2026-01-09 09:55:40.77	16.64	11.27	-40.5	-52.8	3.8	7.45e-01	0	57	104	93323264	52	14881
2026-01-09 09:55:41.78	16.46	11.22	-40.3	-52.5	3.8	7.43e-01	0	57	104	93323264	52	14384
2026-01-09 09:55:42.79	16.28	11.16	-40.3	-52.5	3.8	7.45e-01	0	57	104	93323264	52	14515
2026-01-09 09:55:43.80	16.09	11.11	-40.3	-52.5	3.8	7.42e-01	0	57	104	93323264	52	14492
2026-01-09 09:55:44.81	15.91	11.06	-40.7	-53.2	3.8	7.46e-01	0	57	104	93323264	52	15647
2026-01-09 09:55:45.82	15.73	11.00	-44.0	-59.7	3.7	7.45e-01	0	57	104	93323264	58	23418
2026-01-09 09:55:46.82	15.55	10.95	-41.4	-54.1	3.8	7.46e-01	0	57	104	93323264	54	15566
2026-01-09 09:55:47.83	15.37	10.90	-43.9	-59.4	3.7	7.44e-01	0	57	104	93323264	58	22768
2026-01-09 09:55:48.84	15.20	10.84	-41.0	-53.6	3.9	7.43e-01	0	57	104	93323264	54	14669
2026-01-09 09:55:49.85	15.02	10.79	-40.8	-53.2	3.8	7.43e-01	0	57	104	93323264	53	14768
2026-01-09 09:55:50.86	14.84	10.73	-40.8	-53.2	3.8	7.43e-01	0	57	104	93323264	53	14828
2026-01-09 09:55:51.87	14.67	10.68	-41.1	-53.7	3.8	7.44e-01	0	57	104	93323264	52	16646
2026-01-09 09:55:52.89	14.49	10.62	-42.1	-55.3	3.8	7.49e-01	0	57	104	93323264	54	17841
2026-01-09 09:55:53.89	14.32	10.57	-44.4	-61.8	3.8	7.43e-01	0	57	104	93323264	59	28082
2026-01-09 09:55:54.90	14.14	10.52	-43.8	-59.7	3.8	7.47e-01	0	57	104	93323264	59	22248
2026-01-09 09:55:55.91	13.97	10.46	-40.4	-52.6	3.8	7.43e-01	0	57	104	93323264	52	14625
2026-01-09 09:55:56.92	13.80	10.41	-40.7	-53.1	3.8	7.44e-01	0	57	104	93323264	52	15572
2026-01-09 09:55:57.93	13.62	10.35	-40.3	-52.6	3.8	7.46e-01	0	57	104	93323264	52	14567
2026-01-09 09:55:58.94	13.45	10.30	-40.4	-52.7	3.8	7.42e-01	0	57	104	93323264	52	14856
2026-01-09 09:55:59.95	13.28	10.24	-40.2	-52.5	3.8	7.44e-01	0	57	104	93323264	52	14478
2026-01-09 09:56:00.96	13.11	10.19	-40.9	-53.6	3.8	7.46e-01	0	57	104	93323264	52	16346
2026-01-09 09:56:01.97	12.94	10.13	-43.6	-60.3	3.8	7.45e-01	0	57	104	93323264	57	26701
2026-01-09 09:56:02.98	12.78	10.08	-41.5	-54.6	3.8	7.46e-01	0	57	104	93323264	53	17289
2026-01-09 09:56:03.98	12.61	10.02	-43.8	-60.2	3.9	7.46e-01	0	57	104	93323264	58	24807
2026-01-09 09:56:04.99	12.44	9.97	-40.7	-53.2	3.9	7.47e-01	0	57	104	93323264	53	14775
2026-01-09 09:56:06.00	12.28	9.91	-40.6	-53.1	3.8	7.44e-01	0	57	104	93323264	53	14550
2026-01-09 09:56:07.01	12.11	9.85	-40.3	-52.8	3.8	7.41e-01	0	57	104	93323264	52	14900
2026-01-09 09:56:08.02	11.95	9.80	-41.1	-54.5	3.8	7.47e-01	0	57	104	93323264	52	18204
2026-01-09 09:56:09.03	11.78	9.74	-40.7	-54.3	3.8	7.45e-01	0	57	104	93323264	52	17832
2026-01-09 09:56:10.04	11.62	9.69	-42.5	-60.3	3.8	7.45e-01	0	57	104	93323264	55	29891
2026-01-09 09:56:11.05	11.46	9.63	-40.4	-57.8	3.8	7.44e-01	0	57	104	93323264	52	26595
2026-01-09 09:56:12.06	11.29	9.58	-40.8	-54.0	3.8	7.46e-01	0	57	104	93323264	52	17147
2026-01-09 09:56:13.07	11.13	9.52	-41.4	-55.3	3.8	7.45e-01	0	57	104	93323264	53	18751
2026-01-09 09:56:14.08	10.97	9.46	-41.3	-56.5	3.8	7.42e-01	0	57	104	93323264	53	21578
2026-01-09 09:56:15.09	10.81	9.41	-41.4	-57.7	3.8	7.46e-01	0	57	104	93323264	53	24737
2026-01-09 09:56:16.10	10.65	9.35	-41.4	-58.7	3.8	7.45e-01	0	57	104	93323264	53	27732
2026-01-09 09:56:17.11	10.49	9.29	-41.2	-59.4	3.8	7.44e-01	0	57	104	93323264	53	30104
2026-01-09 09:56:18.12	10.34	9.24	-40.3	-59.4	3.8	7.48e-01	0	57	104	93323264	52	32146
2026-01-09 09:56:19.13	10.18	9.18	-40.4	-59.5	3.8	7.43e-01	0	57	104	93323264	52	32500
2026-01-09 09:56:20.14	10.02	9.13	-40.3	-59.5	3.8	7.47e-01	0	57	104	93323264	52	32404
2026-01-09 09:56:21.15	9.87	9.07	-40.4	-59.5	3.8	7.46e-01	0	57	104	93323264	52	32273
2026-01-09 09:56:22.16	9.71	9.01	-40.2	-59.5	3.8	7.45e-01	0	57	104	93323264	52	32506
2026-01-09 09:56:23.17	9.56	8.96	-40.4	-59.5	3.8	7.47e-01	0	57	104	93323264	52	32229
2026-01-09 09:56:24.18	9.40	8.90	-40.4	-59.4	3.8	7.45e-01	0	57	104	93323264	52	32130
2026-01-09 09:56:25.19	9.25	8.84	-40.4	-59.4	3.8	7.46e-01	0	57	104	93323264	52	32128
2026-01-09 09:56:26.20	9.10	8.79	-40.3	-59.4	3.8	7.47e-01	0	57	104	93323264	52	32097
2026-01-09 09:56:27.21	8.95	8.73	-40.4	-59.4	3.8	7.46e-01	0	57	104	93323264	52	31945
2026-01-09 09:56:28.21	8.80	8.67	-40.3	-59.4	3.8	7.45e-01	0	57	104	93323264	52	32104
2026-01-09 09:56:29.22	8.64	8.62	-40.4	-59.4	3.8	7.46e-01	0	57	104	93323264	52	32059
2026-01-09 09:56:30.23	8.49	8.56	-40.3	-59.3	3.8	7.46e-01	0	57	104	93323264	52	31746
2026-01-09 09:56:31.25	8.34	8.50	-40.3	-59.3	3.8	7.46e-01	0	57	104	93323264	52	31789
2026-01-09 09:56:32.26	8.20	8.44	-40.4	-59.4	3.8	7.44e-01	0	57	104	93323264	52	32128
2026-01-09 09:56:33.27	8.05	8.39	-40.3	-59.3	3.8	7.45e-01	0	57	104	93323264	52	31570
2026-01-09 09:56:34.28	7.90	8.33	-40.4	-59.4	3.8	7.45e-01	0	57	104	93323264	52	32025
2026-01-09 09:56:35.29	7.75	8.27	-40.3	-59.4	3.8	7.44e-01	0	57	104	93323264	52	31819
2026-01-09 09:56:36.30	7.61	8.22	-40.3	-59.3	3.8	7.43e-01	0	57	104	93323264	52	31525
2026-01-09 09:56:37.30	7.46	8.16	-40.3	-59.3	3.8	7.43e-01	0	57	104	93323264	52	31567
2026-01-09 09:56:38.31	7.32	8.10	-40.2	-59.2	3.8	7.45e-01	0	57	104	93323264	52	31314
2026-01-09 09:56:39.32	7.17	8.05	-40.3	-59.2	3.8	7.46e-01	0	57	104	93323264	52	31435
2026-01-09 09:56:40.33	7.03	7.99	-40.3	-59.3	3.8	7.46e-01	0	57	104	93323264	52	31771
2026-01-09 09:56:41.34	6.89	7.93	-43.6	-62.5	3.8	7.42e-01	0	57	104	93323264	57	34205
2026-01-09 09:56:42.35	6.75	7.87	-45.1	-63.9	3.8	7.52e-01	0	57	104	93323264	60	33770
2026-01-09 09:56:43.36	6.60	7.82	-45.6	-64.2	3.8	7.47e-01	0	57	104	93323264	61	33303
2026-01-09 09:56:44.37	6.46	7.76	-45.8	-64.5	3.8	7.47e-01	0	57	104	93323264	62	32190
2026-01-09 09:56:45.38	6.32	7.70	-46.0	-64.6	3.8	7.45e-01	0	57	104	93323264	62	32841
2026-01-09 09:56:46.39	6.18	7.65	-46.0	-64.7	3.8	7.47e-01	0	58	104	93323264	62	33109
2026-01-09 09:56:47.40	6.04	7.59	-46.1	-64.8	3.8	7.45e-01	0	57	104	93323264	62	33330
2026-01-09 09:56:48.41	5.90	7.53	-46.1	-64.8	3.8	7.43e-01	0	57	104	93323264	62	33424
2026-01-09 09:56:49.42	5.77	7.47	-46.1	-64.8	3.8	7.45e-01	0	57	104	93323264	62	33366
2026-01-09 09:56:50.43	5.63	7.42	-46.1	-64.7	3.8	7.44e-01	0	57	104	93323264	62	33208
2026-01-09 09:56:51.44	5.49	7.36	-46.0	-64.6	3.8	7.45e-01	0	57	104	93323264	62	32785
2026-01-09 09:56:52.45	5.36	7.30	-45.9	-64.5	3.8	7.43e-01	0	57	104	93323264	62	32496
2026-01-09 09:56:53.46	5.22	7.24	-45.8	-64.5	3.8	7.45e-01	0	57	104	93323264	62	32369
2026-01-09 09:56:54.47	5.08	7.19	-45.8	-64.4	3.8	7.46e-01	0	57	104	93323264	62	32159
2026-01-09 09:56:55.48	4.95	7.13	-45.8	-64.4	3.8	7.45e-01	0	57	104	93323264	62	32131
2026-01-09 09:56:56.49	4.82	7.07	-45.8	-64.4	3.8	7.44e-01	0	57	104	93323264	62	32115
2026-01-09 09:56:57.51	4.68	7.02	-45.8	-64.4	3.8	7.43e-01	0	58	104	93323264	62	32039
2026-01-09 09:56:58.52	4.55	6.96	-45.8	-64.4	3.8	7.43e-01	0	57	104	93323264	62	32081
2026-01-09 09:56:59.53	4.42	6.90	-45.8	-64.4	3.8	7.43e-01	0	57	104	93323264	62	32037
2026-01-09 09:57:00.54	4.29	6.84	-45.8	-64.4	3.8	7.44e-01	0	57	104	93323264	62	32042
2026-01-09 09:57:01.55	4.15	6.79	-45.8	-64.4	3.8	7.46e-01	0	57	104	93323264	62	32004
2026-01-09 09:57:02.56	4.02	6.73	-45.8	-64.4	3.8	7.47e-01	0	58	104	93323264	62	32080
2026-01-09 09:57:03.57	3.89	6.67	-45.6	-64.4	3.8	7.48e-01	0	57	104	93323264	62	32033
2026-01-09 09:57:04.58	3.77	6.62	-45.8	-64.4	3.8	7.45e-01	0	57	104	93323264	62	32062
2026-01-09 09:57:05.59	3.64	6.56	-45.8	-64.4	3.8	7.43e-01	0	57	104	93323264	62	32071
2026-01-09 09:57:06.60	3.51	6.50	-45.7	-64.4	3.8	7.47e-01	0	57	104	93323264	62	32019
2026-01-09 09:57:07.61	3.38	6.44	-45.8	-64.4	3.8	7.47e-01	0	57	104	93323264	62	32028
2026-01-09 09:57:08.62	3.25	6.39	-45.7	-64.4	3.8	7.48e-01	0	57	104	93323264	62	32017
2026-01-09 09:57:09.63	3.13	6.33	-45.8	-64.4	3.8	7.45e-01	0	57	104	93323264	62	32017
2026-01-09 09:57:10.64	3.00	6.27	-45.8	-64.4	3.8	7.45e-01	0	57	104	93323264	62	32003
2026-01-09 09:57:11.65	2.88	6.22	-45.8	-64.4	3.8	7.46e-01	0	57	104	93323264	62	32007
2026-01-09 09:57:12.66	2.75	6.16	-45.7	-64.4	3.8	7.41e-01	0	58	104	93323264	62	32023
2026-01-09 09:57:13.67	2.63	6.10	-45.8	-64.4	3.8	7.47e-01	0	57	104	93323264	62	31937
2026-01-09 09:57:14.68	2.50	6.04	-45.8	-64.4	3.8	7.45e-01	0	57	104	93323264	62	32054
2026-01-09 09:57:15.69	2.38	5.99	-45.8	-64.4	3.8	7.42e-01	0	57	104	93323264	62	31969
2026-01-09 09:57:16.70	2.26	5.93	-45.7	-64.4	3.8	7.45e-01	0	57	104	93323264	62	31999
2026-01-09 09:57:17.71	2.14	5.87	-45.8	-64.4	3.8	7.48e-01	0	57	104	93323264	62	31913
2026-01-09 09:57:18.72	2.01	5.82	-45.7	-64.4	3.8	7.47e-01	0	57	104	93323264	62	31978
2026-01-09 09:57:19.73	1.89	5.76	-45.7	-64.4	3.8	7.42e-01	0	57	104	93323264	62	31966
2026-01-09 09:57:20.74	1.77	5.70	-45.7	-64.4	3.8	7.44e-01	0	57	104	93323264	62	31998
2026-01-09 09:57:21.75	1.65	5.65	-45.7	-64.4	3.8	7.42e-01	0	57	104	93323264	62	31970
2026-01-09 09:57:22.76	1.53	5.59	-45.7	-64.4	3.8	7.47e-01	0	58	104	93323264	62	31949
2026-01-09 09:57:23.78	1.41	5.53	-45.7	-64.4	3.8	7.44e-01	0	58	104	93323264	62	31993
2026-01-09 09:57:24.79	1.30	5.47	-45.7	-64.4	3.8	7.46e-01	0	57	104	93323264	62	32001
2026-01-09 09:57:25.80	1.18	5.42	-45.7	-64.4	3.8	7.44e-01	0	57	104	93323264	62	31938
2026-01-09 09:57:26.81	1.06	5.36	-45.7	-64.4	3.8	7.48e-01	0	57	104	93323264	62	31920
2026-01-09 09:57:27.82	0.94	5.30	-45.7	-64.4	3.8	7.45e-01	0	57	104	93323264	62	31958
2026-01-09 09:57:28.83	0.83	5.25	-45.7	-64.4	3.8	7.45e-01	0	57	104	93323264	62	31969
2026-01-09 09:57:29.84	0.71	5.19	-45.7	-64.4	3.8	7.45e-01	0	58	104	93323264	62	31944
2026-01-09 09:57:30.85	0.60	5.14	-45.7	-64.4	3.8	7.47e-01	0	58	104	93323264	62	31964
2026-01-09 09:57:31.86	0.48	5.08	-45.7	-64.4	3.8	7.42e-01	0	58	104	93323264	62	31979
2026-01-09 09:57:32.87	0.37	5.02	-45.7	-64.4	3.8	7.43e-01	0	57	104	93323264	62	31989
2026-01-09 09:57:33.88	0.25	4.97	-45.8	-64.4	3.8	7.46e-01	0	58	104	93323264	62	31991
2026-01-09 09:57:34.89	0.14	4.91	-45.7	-64.4	3.8	7.48e-01	0	57	104	93323264	62	31965
2026-01-09 09:57:35.90	0.03	4.85	-45.7	-64.4	3.8	7.44e-01	0	58	104	93323264	62	31918
2026-01-09 09:57:36.91	359.91	4.80	-45.7	-64.4	3.8	7.43e-01	0	57	104	93323264	62	31964
2026-01-09 09:57:37.92	359.80	4.74	-45.7	-64.4	3.8	7.44e-01	0	58	104	93323264	62	31962
2026-01-09 09:57:38.93	359.69	4.68	-45.7	-64.4	3.8	7.46e-01	0	57	104	93323264	62	31894
2026-01-09 09:57:39.94	359.58	4.63	-45.7	-64.4	3.8	7.46e-01	0	58	104	93323264	62	32028
2026-01-09 09:57:40.95	359.47	4.57	-45.7	-64.4	3.8	7.46e-01	0	57	104	93323264	62	31927
2026-01-09 09:57:41.96	359.36	4.52	-45.7	-64.4	3.8	7.43e-01	0	57	104	93323264	62	31975
2026-01-09 09:57:42.97	359.25	4.46	-45.7	-64.4	3.8	7.44e-01	0	57	104	93323264	62	31989
2026-01-09 09:57:43.98	359.14	4.40	-45.7	-64.4	3.8	7.46e-01	0	58	104	93323264	62	31926
2026-01-09 09:57:44.99	359.03	4.35	-45.7	-64.4	3.8	7.45e-01	0	57	104	93323264	62	31876
2026-01-09 09:57:46.00	358.93	4.29	-45.7	-64.4	3.8	7.48e-01	0	57	104	93323264	62	31914
2026-01-09 09:57:47.02	358.82	4.23	-45.7	-64.4	3.8	7.47e-01	0	57	104	93323264	62	31872
2026-01-09 09:57:48.03	358.71	4.18	-45.7	-64.4	3.8	7.47e-01	0	57	104	93323264	62	31933
2026-01-09 09:57:49.04	358.60	4.12	-45.7	-64.4	3.8	7.47e-01	0	58	104	93323264	62	31862
2026-01-09 09:57:50.05	358.50	4.07	-45.7	-64.4	3.8	7.45e-01	0	57	104	93323264	62	31894
2026-01-09 09:57:51.06	358.39	4.01	-45.7	-64.4	3.8	7.44e-01	0	57	104	93323264	62	31877
2026-01-09 09:57:52.07	358.29	3.96	-45.7	-64.4	3.8	7.45e-01	0	57	104	93323264	62	31826
2026-01-09 09:57:53.08	358.18	3.90	-45.7	-64.4	3.8	7.46e-01	0	57	104	93323264	62	31952
2026-01-09 09:57:54.09	358.08	3.84	-45.7	-64.4	3.8	7.44e-01	0	57	104	93323264	62	31840
2026-01-09 09:57:55.10	357.97	3.79	-45.7	-64.4	3.8	7.46e-01	0	57	104	93323264	62	31911
2026-01-09 09:57:56.11	357.87	3.73	-45.7	-64.4	3.8	7.48e-01	0	57	104	93323264	62	31887
2026-01-09 09:57:57.12	357.77	3.68	-45.7	-64.4	3.8	7.46e-01	0	58	104	93323264	62	31914
2026-01-09 09:57:58.13	357.66	3.62	-45.7	-64.4	3.8	7.46e-01	0	58	104	93323264	62	31920
2026-01-09 09:57:59.14	357.56	3.57	-45.7	-64.4	3.8	7.42e-01	0	57	104	93323264	62	31951
2026-01-09 09:58:00.15	357.46	3.51	-45.7	-64.4	3.8	7.45e-01	0	57	104	93323264	62	31937
2026-01-09 09:58:01.16	357.36	3.46	-45.7	-64.4	3.8	7.46e-01	0	58	104	93323264	62	31885
2026-01-09 09:58:02.17	357.26	3.40	-45.7	-64.4	3.8	7.46e-01	0	58	104	93323264	62	31856
2026-01-09 09:58:03.18	357.16	3.34	-45.7	-64.4	3.8	7.44e-01	0	57	104	93323264	62	31837
2026-01-09 09:58:04.19	357.06	3.29	-45.7	-64.4	3.8	7.44e-01	0	58	104	93323264	62	31916
2026-01-09 09:58:05.20	356.96	3.23	-45.7	-64.4	3.8	7.43e-01	0	57	104	93323264	62	31911
2026-01-09 09:58:06.21	356.86	3.18	-45.7	-64.4	3.8	7.46e-01	0	57	104	93323264	62	31923
2026-01-09 09:58:07.22	356.76	3.12	-45.7	-64.4	3.8	7.45e-01	0	57	104	93323264	62	31828
2026-01-09 09:58:08.23	356.66	3.07	-45.7	-64.4	3.8	7.47e-01	0	57	104	93323264	62	31877
2026-01-09 09:58:09.24	356.57	3.01	-45.7	-64.4	3.8	7.47e-01	0	58	104	93323264	62	31884
2026-01-09 09:58:10.25	356.47	2.96	-45.7	-64.4	3.8	7.44e-01	0	58	104	93323264	62	31883
2026-01-09 09:58:11.26	356.37	2.90	-45.7	-64.4	3.8	7.44e-01	0	58	104	93323264	62	31924
2026-01-09 09:58:12.27	356.27	2.85	-45.7	-64.4	3.8	7.46e-01	0	58	104	93323264	62	31928
2026-01-09 09:58:13.28	356.18	2.79	-45.7	-64.4	3.8	7.44e-01	0	58	104	93323264	62	31917
2026-01-09 09:58:14.29	356.08	2.74	-45.7	-64.4	3.8	7.42e-01	0	57	104	93323264	62	31921
2026-01-09 09:58:15.30	355.99	2.68	-45.7	-64.4	3.8	7.44e-01	0	58	104	93323264	62	31887
2026-01-09 09:58:16.31	355.89	2.63	-45.7	-64.4	3.8	7.43e-01	0	57	104	93323264	62	31903
2026-01-09 09:58:17.32	355.80	2.58	-45.7	-64.4	3.8	7.47e-01	0	57	104	93323264	62	31889
2026-01-09 09:58:18.33	355.70	2.52	-45.7	-64.4	3.8	7.43e-01	0	58	104	93323264	62	31927
2026-01-09 09:58:19.34	355.61	2.47	-45.7	-64.4	3.8	7.45e-01	0	57	104	93323264	62	31869
2026-01-09 09:58:20.35	355.52	2.41	-45.7	-64.4	3.8	7.45e-01	0	57	104	93323264	62	31890
2026-01-09 09:58:21.36	355.42	2.36	-45.7	-64.4	3.8	7.45e-01	0	58	104	93323264	62	31853
2026-01-09 09:58:22.37	355.33	2.30	-45.7	-64.4	3.8	7.46e-01	0	57	104	93323264	62	31839
2026-01-09 09:58:23.38	355.24	2.25	-45.7	-64.4	3.8	7.44e-01	0	58	104	93323264	62	31889
2026-01-09 09:58:24.39	355.15	2.19	-45.7	-64.4	3.8	7.44e-01	0	58	104	93323264	62	31891
2026-01-09 09:58:25.40	355.06	2.14	-45.7	-64.4	3.8	7.44e-01	0	58	104	93323264	62	31884
2026-01-09 09:58:26.41	354.96	2.09	-45.7	-64.4	3.8	7.50e-01	0	57	104	93323264	62	31838
2026-01-09 09:58:27.42	354.87	2.03	-45.7	-64.4	3.8	7.44e-01	0	58	104	93323264	62	31842
2026-01-09 09:58:28.43	354.78	1.98	-45.7	-64.3	3.8	7.47e-01	0	57	104	93323264	62	31807
2026-01-09 09:58:29.44	354.69	1.92	-45.7	-64.4	3.8	7.43e-01	0	58	104	93323264	62	31901

#Closed at: 2026-01-09 09:58:29
#Recorded file [93 MB]: D:/lorett/data/31039_260109_125152.dat