passes_logs/2026/01/09/R2.0S_Moscow/R2.0S_Moscow__20260109_234841_NOAA_20_JPSS-1_rec.log

#Pass ID: 20260109_234841_NOAA 20 (JPSS-1)
#Satellite: NOAA 20 (JPSS-1)
#Configuration: NOAA 20
#almurnet v.1.7.20251203
#Start time: 2026-01-09 23:48:41

#Version: 2.2.20231116
#Station: R2.0S_Moscow
#Location: 37.707566 lon 55.798166 lat
#TLE: 1 43013U 17073A   26009.26828276  .00000112  00000+0  74203-4 0  9990
#TLE: 2 43013  98.7631 310.2683 0001700  47.4387 312.6933 14.19534764421920

#Time	Az	El	Level	Level2	SNR	BER	BlckErr	Temp	State	Recorded	gain1	gain2
2026-01-09 23:48:41.78	15.55	2.04	-43.0	-57.6	3.8	1.49e+00	0	48	0	0	57	19432
2026-01-09 23:48:42.78	15.55	2.10	-42.9	-57.6	3.8	1.49e+00	0	48	104	0	57	19418
2026-01-09 23:48:43.79	15.55	2.17	-42.9	-57.5	3.8	1.49e+00	0	48	104	0	57	19370
2026-01-09 23:48:44.80	15.54	2.23	-42.9	-57.6	3.8	1.49e+00	0	48	104	0	57	19401
2026-01-09 23:48:45.81	15.54	2.30	-42.9	-57.6	3.8	1.49e+00	0	48	104	0	57	19426
2026-01-09 23:48:46.82	15.54	2.36	-42.9	-57.5	3.8	1.49e+00	0	48	104	0	57	19382
2026-01-09 23:48:47.83	15.54	2.43	-42.9	-57.6	3.8	1.49e+00	0	48	104	0	57	19406
2026-01-09 23:48:48.83	15.53	2.49	-42.9	-57.6	3.8	1.49e+00	0	48	104	0	57	19420
2026-01-09 23:48:49.84	15.53	2.56	-42.9	-57.6	3.8	1.49e+00	0	48	104	0	57	19392
2026-01-09 23:48:50.85	15.53	2.62	-42.9	-57.5	3.8	1.49e+00	0	48	104	0	57	19362
2026-01-09 23:48:51.86	15.53	2.69	-42.9	-57.5	3.8	1.49e+00	0	48	104	0	57	19373
2026-01-09 23:48:52.87	15.52	2.75	-42.9	-57.6	3.8	1.49e+00	0	48	104	0	57	19390
2026-01-09 23:48:53.88	15.52	2.82	-42.9	-57.6	3.8	1.49e+00	0	49	104	0	57	19413
2026-01-09 23:48:54.88	15.52	2.89	-42.9	-57.5	3.8	1.49e+00	0	48	104	0	57	19340
2026-01-09 23:48:55.90	15.52	2.95	-42.9	-57.5	3.8	1.49e+00	0	48	104	0	57	19358
2026-01-09 23:48:56.91	15.51	3.02	-42.9	-57.6	3.8	1.49e+00	0	49	104	0	57	19391
2026-01-09 23:48:57.92	15.51	3.09	-42.9	-57.5	3.8	1.49e+00	0	49	104	0	57	19322
2026-01-09 23:48:58.93	15.51	3.15	-42.9	-57.5	3.8	1.49e+00	0	49	104	0	57	19368
2026-01-09 23:48:59.94	15.50	3.22	-42.9	-57.6	3.8	1.49e+00	0	49	104	0	57	19402
2026-01-09 23:49:00.94	15.50	3.29	-42.9	-57.5	3.8	1.49e+00	0	49	104	0	57	19339
2026-01-09 23:49:01.95	15.50	3.36	-42.9	-57.6	3.8	1.49e+00	0	49	104	0	57	19404
2026-01-09 23:49:02.96	15.50	3.42	-42.9	-57.5	3.8	1.49e+00	0	49	104	0	57	19369
2026-01-09 23:49:03.97	15.49	3.49	-42.9	-57.5	3.8	1.49e+00	0	49	104	0	57	19320
2026-01-09 23:49:04.98	15.49	3.56	-42.9	-57.5	3.8	1.49e+00	0	49	104	0	57	19372
2026-01-09 23:49:05.99	15.49	3.63	-42.9	-57.6	3.8	1.49e+00	0	49	104	0	57	19393
2026-01-09 23:49:07.00	15.48	3.70	-42.9	-57.5	3.8	1.49e+00	0	49	104	0	57	19378
2026-01-09 23:49:08.01	15.48	3.76	-42.9	-57.5	3.8	1.49e+00	0	49	104	0	57	19307
2026-01-09 23:49:09.02	15.48	3.83	-42.9	-57.5	3.8	1.49e+00	0	49	104	0	57	19336
2026-01-09 23:49:10.02	15.47	3.90	-42.9	-57.5	3.8	1.49e+00	0	49	104	0	57	19357
2026-01-09 23:49:11.04	15.47	3.97	-42.9	-57.5	3.8	1.49e+00	0	49	104	0	57	19368
2026-01-09 23:49:12.05	15.47	4.04	-42.9	-57.5	3.8	1.49e+00	0	50	104	0	57	19301
2026-01-09 23:49:13.05	15.46	4.11	-42.9	-57.5	3.8	1.49e+00	0	49	104	0	57	19381
2026-01-09 23:49:14.06	15.46	4.18	-42.9	-57.5	3.8	1.49e+00	0	49	104	0	57	19337
2026-01-09 23:49:15.07	15.46	4.25	-42.9	-57.5	3.8	1.49e+00	0	50	104	0	57	19363
2026-01-09 23:49:16.08	15.45	4.32	-42.9	-57.5	3.8	1.49e+00	0	50	104	0	57	19342
2026-01-09 23:49:17.09	15.45	4.39	-42.9	-57.5	3.8	1.49e+00	0	50	104	0	57	19332
2026-01-09 23:49:18.10	15.45	4.46	-42.9	-57.5	3.8	1.49e+00	0	50	104	0	57	19294
2026-01-09 23:49:19.10	15.44	4.53	-42.9	-57.5	3.8	1.49e+00	0	50	104	0	57	19350
2026-01-09 23:49:20.11	15.44	4.60	-42.9	-57.5	3.8	1.49e+00	0	50	104	0	57	19330
2026-01-09 23:49:21.12	15.44	4.67	-42.9	-57.5	3.8	1.49e+00	0	50	104	0	57	19329
2026-01-09 23:49:22.13	15.43	4.74	-42.9	-57.5	3.8	1.49e+00	0	50	104	0	57	19340
2026-01-09 23:49:23.14	15.43	4.81	-42.9	-57.5	3.8	1.49e+00	0	50	104	0	57	19354
2026-01-09 23:49:24.14	15.42	4.88	-42.9	-57.5	3.8	1.49e+00	0	50	104	0	57	19303
2026-01-09 23:49:25.15	15.42	4.95	-42.9	-57.5	3.8	1.49e+00	0	50	104	0	57	19281
2026-01-09 23:49:26.16	15.42	5.03	-42.9	-57.5	3.8	1.49e+00	0	50	104	0	57	19343
2026-01-09 23:49:27.17	15.41	5.10	-42.9	-57.5	3.8	1.49e+00	0	51	104	0	57	19360
2026-01-09 23:49:28.18	15.41	5.17	-42.9	-57.5	3.8	1.49e+00	0	51	104	0	57	19255
2026-01-09 23:49:29.18	15.41	5.24	-42.9	-57.5	3.8	1.49e+00	0	50	104	0	57	19314
2026-01-09 23:49:30.19	15.40	5.31	-42.9	-57.5	3.8	1.49e+00	0	51	104	0	57	19334
2026-01-09 23:49:31.20	15.40	5.39	-42.9	-57.5	3.8	1.49e+00	0	51	104	0	57	19279
2026-01-09 23:49:32.20	15.39	5.46	-42.9	-57.5	3.8	1.49e+00	0	51	104	0	57	19285
2026-01-09 23:49:33.21	15.39	5.53	-42.9	-57.5	3.8	1.49e+00	0	51	104	0	57	19324
2026-01-09 23:49:34.22	15.39	5.60	-42.9	-57.5	3.8	1.49e+00	0	51	104	0	57	19303
2026-01-09 23:49:35.23	15.38	5.68	-42.9	-57.5	3.8	1.49e+00	0	51	104	0	57	19252
2026-01-09 23:49:36.24	15.38	5.75	-42.9	-57.5	3.8	1.49e+00	0	51	104	0	57	19228
2026-01-09 23:49:37.25	15.37	5.83	-42.9	-57.5	3.8	1.49e+00	0	51	104	0	57	19254
2026-01-09 23:49:38.25	15.37	5.90	-42.9	-57.5	3.8	1.49e+00	0	51	104	0	57	19344
2026-01-09 23:49:39.26	15.36	5.97	-42.9	-57.5	3.8	1.49e+00	0	51	104	0	57	19296
2026-01-09 23:49:40.27	15.36	6.05	-42.9	-57.5	3.8	1.49e+00	0	51	104	0	57	19231
2026-01-09 23:49:41.28	15.35	6.12	-42.9	-57.4	3.8	1.49e+00	0	51	104	0	57	19108
2026-01-09 23:49:42.29	15.35	6.20	-42.9	-57.4	3.8	1.49e+00	0	51	104	0	57	19045
2026-01-09 23:49:43.30	15.35	6.27	-42.9	-57.4	3.8	1.49e+00	0	51	104	0	57	19010
2026-01-09 23:49:44.31	15.34	6.35	-42.9	-57.4	3.8	1.49e+00	0	51	104	0	57	19060
2026-01-09 23:49:45.32	15.34	6.42	-42.9	-57.4	3.8	1.49e+00	0	51	104	0	57	18969
2026-01-09 23:49:46.33	15.33	6.50	-42.9	-57.3	3.8	1.49e+00	0	51	104	0	57	18857
2026-01-09 23:49:47.34	15.33	6.58	-42.9	-57.2	3.8	1.49e+00	0	51	104	0	57	18591
2026-01-09 23:49:48.35	15.32	6.65	-42.9	-56.9	3.8	1.49e+00	0	52	104	0	57	17980
2026-01-09 23:49:49.36	15.32	6.73	-42.9	-56.7	3.8	1.49e+00	0	51	104	0	57	17507
2026-01-09 23:49:50.37	15.31	6.81	-42.8	-56.3	3.8	1.49e+00	0	52	104	0	57	16699
2026-01-09 23:49:51.38	15.31	6.88	-42.8	-55.8	3.8	1.49e+00	0	52	104	0	57	15898
2026-01-09 23:49:52.39	15.30	6.96	-42.7	-54.8	4.0	1.49e+00	0	52	104	0	57	14169
2026-01-09 23:49:53.40	15.30	7.04	-42.7	-54.0	4.2	1.45e+00	0	52	0	0	57	12836
2026-01-09 23:49:54.41	15.29	7.12	-42.6	-52.8	4.6	1.32e+00	0	52	0	0	57	11237
2026-01-09 23:49:55.42	15.29	7.19	-42.4	-51.4	5.3	7.20e-01	0	52	0	2097152	56	10122
2026-01-09 23:49:56.43	15.28	7.27	-42.2	-50.3	6.1	4.14e-01	0	52	0	4194304	56	8914
2026-01-09 23:49:57.43	15.28	7.35	-41.8	-48.7	7.3	2.09e-01	0	52	0	6291456	55	7881
2026-01-09 23:49:58.44	15.27	7.43	-41.6	-48.1	7.9	9.17e-02	0	52	0	8388608	55	7305
2026-01-09 23:49:59.45	15.27	7.51	-41.4	-47.4	8.6	4.55e-02	0	52	0	9437184	54	7202
2026-01-09 23:50:00.46	15.26	7.59	-41.4	-47.3	8.7	3.42e-02	0	52	0	11534336	54	7106
2026-01-09 23:50:01.47	15.26	7.67	-41.5	-47.5	8.5	3.91e-02	0	52	0	13631488	54	7287
2026-01-09 23:50:02.47	15.25	7.75	-41.6	-47.9	8.1	4.33e-02	0	52	0	15728640	54	7614
2026-01-09 23:50:03.48	15.24	7.83	-41.6	-48.3	7.8	7.71e-02	0	52	0	17825792	54	7936
2026-01-09 23:50:04.49	15.24	7.91	-41.7	-48.5	7.5	1.08e-01	0	52	0	19922944	54	8133
2026-01-09 23:50:05.50	15.23	7.99	-41.7	-48.3	7.7	9.09e-02	0	52	0	20971520	54	7952
2026-01-09 23:50:06.50	15.23	8.07	-41.9	-49.0	7.3	6.47e-02	0	52	0	23068672	54	8597
2026-01-09 23:50:07.51	15.22	8.15	-42.5	-52.2	4.9	3.58e-01	0	52	0	25165824	55	11788
2026-01-09 23:50:08.51	15.22	8.23	-42.0	-49.3	6.6	1.35e+00	0	52	104	25165824	55	8447
2026-01-09 23:50:09.52	15.21	8.31	-41.8	-47.5	9.0	6.91e-02	0	52	0	26214400	55	6816
2026-01-09 23:50:10.53	15.20	8.39	-41.8	-47.7	8.9	1.57e-01	0	52	0	28311552	55	7025
2026-01-09 23:50:11.53	15.20	8.47	-42.3	-51.3	5.1	1.41e+00	0	52	104	28311552	55	10621
2026-01-09 23:50:12.54	15.19	8.55	-41.7	-47.5	8.9	3.57e-02	0	52	0	29360128	55	6863
2026-01-09 23:50:13.55	15.19	8.64	-41.6	-47.2	9.2	2.93e-02	0	53	0	31457280	55	6617
2026-01-09 23:50:14.55	15.18	8.72	-41.8	-47.6	8.8	2.08e-02	0	53	0	33554432	55	6903
2026-01-09 23:50:15.56	15.17	8.80	-41.7	-47.4	9.0	3.25e-02	0	53	0	35651584	55	6779
2026-01-09 23:50:16.57	15.17	8.89	-41.6	-47.0	9.4	2.13e-02	0	53	0	36700160	55	6483
2026-01-09 23:50:17.57	15.16	8.97	-41.6	-46.9	9.6	1.26e-02	0	53	0	38797312	55	6406
2026-01-09 23:50:18.58	15.15	9.05	-41.5	-46.8	9.8	9.94e-03	0	53	0	40894464	55	6275
2026-01-09 23:50:19.59	15.15	9.14	-41.5	-46.7	9.9	9.09e-03	0	53	0	42991616	55	6212
2026-01-09 23:50:20.59	15.14	9.22	-41.6	-46.9	9.7	9.58e-03	0	53	0	45088768	55	6396
2026-01-09 23:50:21.60	15.14	9.30	-41.6	-46.7	9.9	9.97e-03	0	53	0	46137344	55	6235
2026-01-09 23:50:22.61	15.13	9.39	-41.6	-46.6	10.0	7.03e-03	0	53	0	48234496	55	6200
2026-01-09 23:50:23.61	15.12	9.47	-41.6	-46.6	10.0	8.41e-03	0	53	0	50331648	55	6194
2026-01-09 23:50:24.61	15.12	9.56	-41.6	-46.6	10.1	5.89e-03	0	53	0	52428800	55	6193
2026-01-09 23:50:25.62	15.11	9.64	-41.6	-46.5	10.2	9.31e-03	0	53	0	54525952	55	6089
2026-01-09 23:50:26.63	15.10	9.73	-41.7	-46.9	9.9	5.89e-03	0	53	0	55574528	55	6366
2026-01-09 23:50:27.64	15.09	9.82	-41.6	-46.4	10.3	6.59e-03	0	53	0	57671680	55	6049
2026-01-09 23:50:28.64	15.09	9.90	-41.7	-46.6	10.2	5.03e-03	0	53	0	59768832	55	6151
2026-01-09 23:50:29.65	15.08	9.99	-41.6	-46.3	10.5	5.32e-03	0	53	0	61865984	55	5958
2026-01-09 23:50:30.65	15.07	10.08	-41.6	-46.3	10.6	4.76e-03	0	53	0	63963136	55	5925
2026-01-09 23:50:31.66	15.07	10.17	-41.6	-46.5	10.4	4.36e-03	0	53	0	65011712	55	6069
2026-01-09 23:50:32.67	15.06	10.25	-41.6	-46.3	10.6	3.65e-03	0	53	0	67108864	55	5945
2026-01-09 23:50:33.67	15.05	10.34	-41.6	-46.3	10.6	4.15e-03	0	53	0	69206016	55	5946
2026-01-09 23:50:34.68	15.04	10.43	-41.5	-46.2	10.7	3.54e-03	0	53	0	71303168	55	5909
2026-01-09 23:50:35.69	15.04	10.52	-41.5	-46.2	10.7	3.06e-03	0	53	0	73400320	55	5875
2026-01-09 23:50:36.69	15.03	10.61	-41.5	-46.1	10.8	3.04e-03	0	53	0	74448896	55	5818
2026-01-09 23:50:37.70	15.02	10.70	-41.5	-46.1	10.8	2.92e-03	0	53	0	76546048	55	5823
2026-01-09 23:50:38.71	15.01	10.79	-41.6	-46.2	10.7	3.07e-03	0	53	0	78643200	55	5905
2026-01-09 23:50:39.71	15.01	10.88	-41.6	-46.3	10.7	2.64e-03	0	53	0	80740352	55	5934
2026-01-09 23:50:40.72	15.00	10.97	-41.6	-46.1	10.9	3.21e-03	0	53	0	82837504	55	5840
2026-01-09 23:50:41.73	14.99	11.06	-41.6	-46.2	10.8	2.40e-03	0	53	0	83886080	55	5917
2026-01-09 23:50:42.74	14.98	11.15	-41.5	-46.0	11.0	2.70e-03	0	53	0	85983232	55	5787
2026-01-09 23:50:43.74	14.97	11.24	-41.6	-46.1	11.0	1.78e-03	0	53	0	88080384	55	5804
2026-01-09 23:50:44.75	14.97	11.33	-41.6	-46.1	10.9	2.04e-03	0	53	0	90177536	55	5848
2026-01-09 23:50:45.76	14.96	11.42	-41.5	-46.0	11.1	1.71e-03	0	53	0	92274688	55	5737
2026-01-09 23:50:46.77	14.95	11.52	-41.5	-46.0	11.1	1.81e-03	0	53	0	93323264	55	5727
2026-01-09 23:50:47.78	14.94	11.61	-41.6	-46.1	11.0	1.57e-03	0	53	0	95420416	55	5818
2026-01-09 23:50:48.79	14.93	11.70	-41.6	-46.1	11.0	1.92e-03	0	53	0	97517568	55	5809
2026-01-09 23:50:49.79	14.92	11.80	-41.6	-46.2	10.9	2.02e-03	0	54	0	99614720	55	5885
2026-01-09 23:50:50.80	14.91	11.89	-41.6	-46.1	11.0	2.34e-03	0	54	0	101711872	55	5813
2026-01-09 23:50:51.81	14.91	11.98	-41.7	-46.3	10.8	2.18e-03	0	53	0	102760448	55	5944
2026-01-09 23:50:52.81	14.90	12.08	-41.6	-46.1	11.0	1.93e-03	0	54	0	104857600	55	5831
2026-01-09 23:50:53.83	14.89	12.17	-41.6	-46.0	11.1	1.81e-03	0	54	0	106954752	55	5733
2026-01-09 23:50:54.83	14.88	12.27	-41.6	-46.0	11.1	1.95e-03	0	54	0	109051904	55	5788
2026-01-09 23:50:55.84	14.87	12.37	-41.5	-45.9	11.2	1.21e-03	0	54	0	111149056	55	5703
2026-01-09 23:50:56.85	14.86	12.46	-41.5	-45.8	11.3	1.49e-03	0	54	0	112197632	55	5633
2026-01-09 23:50:57.86	14.85	12.56	-41.5	-45.7	11.4	9.47e-04	0	54	0	114294784	54	5921
2026-01-09 23:50:58.87	14.84	12.66	-41.5	-45.8	11.4	1.13e-03	0	54	0	116391936	54	5924
2026-01-09 23:50:59.88	14.83	12.75	-41.4	-45.7	11.5	9.58e-04	0	54	0	118489088	54	5857
2026-01-09 23:51:00.89	14.82	12.85	-41.4	-45.7	11.5	6.97e-04	0	54	0	120586240	54	5858
2026-01-09 23:51:01.90	14.81	12.95	-41.4	-45.6	11.7	6.58e-04	0	54	0	122683392	54	5791
2026-01-09 23:51:02.90	14.80	13.05	-41.3	-45.4	11.8	5.67e-04	0	54	0	123731968	54	5691
2026-01-09 23:51:03.91	14.79	13.15	-41.4	-45.5	11.7	5.21e-04	0	54	0	125829120	54	5777
2026-01-09 23:51:04.92	14.78	13.25	-41.3	-45.3	12.0	3.60e-04	0	54	0	127926272	54	5630
2026-01-09 23:51:05.93	14.77	13.35	-41.4	-45.4	11.9	3.63e-04	0	54	0	130023424	54	5717
2026-01-09 23:51:06.93	14.76	13.44	-41.4	-45.5	11.8	4.00e-04	0	54	0	132120576	54	5748
2026-01-09 23:51:07.94	14.75	13.55	-41.4	-45.4	11.9	3.96e-04	0	54	0	133169152	54	5685
2026-01-09 23:51:08.95	14.74	13.65	-41.4	-45.4	11.9	3.00e-04	0	54	0	135266304	54	5688
2026-01-09 23:51:09.96	14.73	13.75	-41.4	-45.3	12.1	2.94e-04	0	54	0	137363456	54	5606
2026-01-09 23:51:10.96	14.72	13.85	-41.2	-45.0	12.5	2.25e-04	0	54	0	139460608	54	5405
2026-01-09 23:51:11.97	14.71	13.95	-41.3	-45.2	12.2	1.70e-04	0	54	0	140509184	54	5566
2026-01-09 23:51:12.97	14.70	14.05	-41.3	-45.1	12.4	1.79e-04	0	54	0	142606336	54	5465
2026-01-09 23:51:13.98	14.69	14.16	-41.3	-45.1	12.4	1.41e-04	0	54	0	144703488	54	5473
2026-01-09 23:51:14.99	14.68	14.26	-41.3	-45.0	12.4	1.04e-04	0	54	0	146800640	54	5458
2026-01-09 23:51:16.00	14.67	14.36	-41.3	-45.0	12.4	1.63e-04	0	54	0	148897792	54	5462
2026-01-09 23:51:17.00	14.66	14.47	-41.2	-44.9	12.5	1.68e-04	0	54	0	150994944	54	5400
2026-01-09 23:51:18.01	14.65	14.57	-41.3	-45.0	12.4	1.56e-04	0	54	0	152043520	54	5464
2026-01-09 23:51:19.02	14.64	14.68	-41.3	-45.0	12.4	1.23e-04	0	54	0	154140672	54	5452
2026-01-09 23:51:20.03	14.62	14.78	-41.2	-44.9	12.6	1.17e-04	0	54	0	156237824	54	5378
2026-01-09 23:51:21.03	14.61	14.89	-41.3	-45.0	12.4	9.99e-05	0	54	0	158334976	54	5435
2026-01-09 23:51:22.04	14.60	15.00	-41.2	-44.9	12.6	1.04e-04	0	54	0	160432128	54	5372
2026-01-09 23:51:23.05	14.59	15.10	-41.2	-44.9	12.6	9.23e-05	0	54	0	161480704	54	5384
2026-01-09 23:51:24.05	14.58	15.21	-41.2	-44.9	12.6	9.76e-05	0	54	0	163577856	54	5377
2026-01-09 23:51:25.06	14.57	15.32	-41.2	-44.9	12.6	8.92e-05	0	54	0	165675008	54	5359
2026-01-09 23:51:26.07	14.55	15.43	-41.2	-44.8	12.7	8.39e-05	0	54	0	167772160	54	5337
2026-01-09 23:51:27.07	14.54	15.54	-41.2	-44.8	12.7	8.85e-05	0	54	0	169869312	54	5338
2026-01-09 23:51:28.08	14.53	15.65	-41.2	-44.8	12.7	8.85e-05	0	54	0	170917888	54	5318
2026-01-09 23:51:29.09	14.52	15.76	-41.1	-44.7	12.9	6.71e-05	0	54	0	173015040	54	5230
2026-01-09 23:51:30.10	14.50	15.87	-41.2	-44.8	12.8	6.56e-05	0	54	0	175112192	54	5283
2026-01-09 23:51:31.10	14.49	15.98	-41.1	-44.7	12.8	5.56e-05	0	54	0	177209344	54	5248
2026-01-09 23:51:32.11	14.48	16.09	-41.2	-44.7	12.9	6.17e-05	0	54	0	179306496	54	5273
2026-01-09 23:51:33.13	14.46	16.20	-41.1	-44.6	12.9	5.18e-05	0	54	0	180355072	54	5210
2026-01-09 23:51:34.13	14.45	16.31	-41.1	-44.6	12.9	4.27e-05	0	54	0	182452224	54	5218
2026-01-09 23:51:35.14	14.44	16.43	-41.1	-44.6	13.0	3.20e-05	0	54	0	184549376	54	5211
2026-01-09 23:51:36.15	14.43	16.54	-41.1	-44.6	13.1	3.66e-05	0	54	0	186646528	54	5162
2026-01-09 23:51:37.16	14.41	16.66	-41.1	-44.6	13.1	2.97e-05	0	55	0	188743680	54	5170
2026-01-09 23:51:38.17	14.40	16.77	-41.1	-44.5	13.2	3.28e-05	0	54	0	189792256	54	5119
2026-01-09 23:51:39.17	14.38	16.89	-41.1	-44.5	13.2	2.89e-05	0	54	0	191889408	54	5105
2026-01-09 23:51:40.18	14.37	17.00	-41.0	-44.4	13.3	1.60e-05	0	55	0	193986560	54	5058
2026-01-09 23:51:41.19	14.36	17.12	-41.0	-44.4	13.3	9.90e-06	0	54	0	196083712	54	5052
2026-01-09 23:51:42.20	14.34	17.24	-41.0	-44.3	13.4	9.90e-06	0	55	0	198180864	53	5302
2026-01-09 23:51:43.21	14.33	17.35	-41.0	-44.4	13.2	1.67e-05	0	54	0	199229440	53	5376
2026-01-09 23:51:44.21	14.31	17.47	-40.9	-44.2	13.5	9.10e-06	0	55	0	201326592	53	5255
2026-01-09 23:51:45.22	14.30	17.59	-40.9	-44.1	13.6	1.14e-05	0	54	0	203423744	53	5210
2026-01-09 23:51:46.22	14.28	17.71	-40.8	-44.1	13.6	6.10e-06	0	55	0	205520896	53	5164
2026-01-09 23:51:47.23	14.27	17.83	-40.8	-44.0	13.7	8.30e-06	0	54	0	207618048	53	5138
2026-01-09 23:51:48.24	14.25	17.95	-40.8	-44.0	13.7	4.50e-06	0	55	0	208666624	53	5114
2026-01-09 23:51:49.25	14.24	18.07	-40.8	-44.0	13.7	7.60e-06	0	54	0	210763776	53	5151
2026-01-09 23:51:50.25	14.22	18.19	-40.8	-43.9	13.8	6.80e-06	0	55	0	212860928	53	5080
2026-01-09 23:51:51.26	14.21	18.31	-40.8	-43.9	13.8	3.80e-06	0	55	0	214958080	53	5088
2026-01-09 23:51:52.26	14.19	18.43	-40.8	-43.9	13.8	3.80e-06	0	55	0	217055232	53	5077
2026-01-09 23:51:53.27	14.18	18.56	-40.7	-43.7	14.0	1.50e-06	0	55	0	218103808	53	4983
2026-01-09 23:51:54.28	14.16	18.68	-40.7	-43.8	14.0	5.30e-06	0	55	0	220200960	53	4995
2026-01-09 23:51:55.29	14.14	18.81	-40.7	-43.7	14.0	7.00e-07	0	55	0	222298112	53	4979
2026-01-09 23:51:56.30	14.13	18.93	-40.7	-43.7	14.1	7.00e-07	0	54	0	224395264	53	4970
2026-01-09 23:51:57.31	14.11	19.06	-40.7	-43.8	14.0	7.00e-07	0	54	0	226492416	53	4998
2026-01-09 23:51:58.32	14.10	19.18	-40.7	-43.7	14.1	2.20e-06	0	55	0	227540992	53	4962
2026-01-09 23:51:59.32	14.08	19.31	-40.7	-43.7	14.1	3.00e-06	0	55	0	229638144	53	4973
2026-01-09 23:52:00.33	14.06	19.44	-40.7	-43.7	14.1	0.00e+00	0	55	0	231735296	53	4944
2026-01-09 23:52:01.33	14.04	19.57	-40.7	-43.7	14.1	2.20e-06	0	55	0	233832448	53	4954
2026-01-09 23:52:02.34	14.03	19.70	-40.6	-43.6	14.2	0.00e+00	0	55	0	235929600	53	4914
2026-01-09 23:52:03.35	14.01	19.83	-40.6	-43.5	14.3	7.00e-07	0	55	0	236978176	53	4866
2026-01-09 23:52:04.35	13.99	19.96	-40.6	-43.6	14.3	1.50e-06	0	55	0	239075328	53	4884
2026-01-09 23:52:05.36	13.97	20.09	-40.6	-43.5	14.3	0.00e+00	0	55	0	241172480	53	4861
2026-01-09 23:52:06.37	13.96	20.22	-40.6	-43.6	14.3	7.00e-07	0	55	0	243269632	53	4878
2026-01-09 23:52:07.37	13.94	20.35	-40.6	-43.5	14.3	7.00e-07	0	55	0	245366784	53	4864
2026-01-09 23:52:08.38	13.92	20.48	-40.6	-43.6	14.3	7.00e-07	0	55	0	246415360	53	4878
2026-01-09 23:52:09.39	13.90	20.62	-40.6	-43.6	14.3	0.00e+00	0	55	0	248512512	53	4871
2026-01-09 23:52:10.40	13.88	20.75	-40.6	-43.5	14.4	7.00e-07	0	55	0	250609664	53	4864
2026-01-09 23:52:11.40	13.86	20.89	-40.6	-43.5	14.4	1.50e-06	0	55	0	252706816	53	4827
2026-01-09 23:52:12.41	13.84	21.02	-40.6	-43.5	14.4	0.00e+00	0	55	0	254803968	53	4835
2026-01-09 23:52:13.42	13.82	21.16	-40.6	-43.6	14.3	2.20e-06	0	55	0	255852544	53	4877
2026-01-09 23:52:14.43	13.80	21.30	-40.6	-43.5	14.4	1.50e-06	0	55	0	257949696	53	4866
2026-01-09 23:52:15.43	13.78	21.44	-40.6	-43.5	14.4	0.00e+00	0	55	0	260046848	53	4837
2026-01-09 23:52:16.44	13.76	21.58	-40.6	-43.5	14.4	0.00e+00	0	55	0	262144000	53	4861
2026-01-09 23:52:17.45	13.74	21.72	-40.6	-43.6	14.4	7.00e-07	0	55	0	264241152	53	4881
2026-01-09 23:52:18.46	13.72	21.86	-40.6	-43.5	14.4	7.00e-07	0	55	0	265289728	53	4859
2026-01-09 23:52:19.47	13.70	22.00	-40.6	-43.4	14.5	0.00e+00	0	55	0	267386880	53	4805
2026-01-09 23:52:20.48	13.68	22.14	-40.6	-43.5	14.4	0.00e+00	0	55	0	269484032	53	4853
2026-01-09 23:52:21.49	13.66	22.28	-40.6	-43.5	14.5	1.50e-06	0	55	0	271581184	53	4828
2026-01-09 23:52:22.49	13.64	22.43	-40.5	-43.4	14.5	0.00e+00	0	55	0	273678336	53	4798
2026-01-09 23:52:23.50	13.62	22.57	-40.6	-43.5	14.5	0.00e+00	0	55	0	274726912	53	4815
2026-01-09 23:52:24.51	13.60	22.72	-40.5	-43.4	14.5	0.00e+00	0	55	0	276824064	53	4767
2026-01-09 23:52:25.52	13.57	22.86	-40.5	-43.4	14.6	7.00e-07	0	55	0	278921216	53	4766
2026-01-09 23:52:26.52	13.55	23.01	-40.5	-43.3	14.7	0.00e+00	0	55	0	281018368	53	4735
2026-01-09 23:52:27.53	13.53	23.16	-40.5	-43.3	14.7	0.00e+00	0	55	0	283115520	52	5032
2026-01-09 23:52:28.53	13.51	23.31	-40.5	-43.3	14.7	7.00e-07	0	55	0	284164096	52	5017
2026-01-09 23:52:29.54	13.48	23.46	-40.4	-43.2	14.8	0.00e+00	0	55	0	286261248	52	4940
2026-01-09 23:52:30.55	13.46	23.61	-40.4	-43.2	14.8	0.00e+00	0	55	0	288358400	52	4937
2026-01-09 23:52:31.56	13.44	23.76	-40.4	-43.2	14.9	0.00e+00	0	55	0	290455552	52	4928
2026-01-09 23:52:32.56	13.41	23.91	-40.3	-43.0	15.0	0.00e+00	0	55	0	292552704	52	4868
2026-01-09 23:52:33.57	13.39	24.06	-40.4	-43.1	14.9	0.00e+00	0	55	0	293601280	52	4922
2026-01-09 23:52:34.58	13.36	24.22	-40.4	-43.2	14.9	0.00e+00	0	55	0	295698432	52	4931
2026-01-09 23:52:35.59	13.34	24.37	-40.4	-43.1	14.9	0.00e+00	0	55	0	297795584	52	4906
2026-01-09 23:52:36.60	13.31	24.53	-40.4	-43.2	14.8	0.00e+00	0	55	0	299892736	52	4949
2026-01-09 23:52:37.61	13.29	24.69	-40.4	-43.1	14.9	0.00e+00	0	55	0	301989888	52	4908
2026-01-09 23:52:38.62	13.26	24.84	-40.4	-43.1	14.9	0.00e+00	0	55	0	303038464	52	4897
2026-01-09 23:52:39.62	13.24	25.00	-40.4	-43.1	15.0	0.00e+00	0	55	0	305135616	52	4889
2026-01-09 23:52:40.63	13.21	25.16	-40.3	-43.0	15.1	0.00e+00	0	55	0	307232768	52	4831
2026-01-09 23:52:41.64	13.18	25.32	-40.4	-43.1	14.9	0.00e+00	0	55	0	309329920	52	4904
2026-01-09 23:52:42.64	13.16	25.48	-40.4	-43.1	14.9	0.00e+00	0	55	0	311427072	52	4922
2026-01-09 23:52:43.65	13.13	25.65	-40.5	-43.2	14.8	0.00e+00	0	55	0	312475648	52	4951
2026-01-09 23:52:44.66	13.10	25.81	-40.5	-43.3	14.8	0.00e+00	0	55	0	314572800	52	4987
2026-01-09 23:52:45.66	13.07	25.97	-40.6	-43.4	14.6	0.00e+00	0	55	0	316669952	52	5062
2026-01-09 23:52:46.67	13.05	26.14	-40.6	-43.4	14.7	0.00e+00	0	55	0	318767104	52	5050
2026-01-09 23:52:47.68	13.02	26.31	-40.6	-43.4	14.6	1.50e-06	0	55	0	320864256	52	5083
2026-01-09 23:52:48.68	12.99	26.47	-40.6	-43.4	14.7	0.00e+00	0	55	0	321912832	52	5060
2026-01-09 23:52:49.69	12.96	26.64	-40.7	-43.6	14.5	0.00e+00	0	55	0	324009984	52	5179
2026-01-09 23:52:50.70	12.93	26.81	-40.7	-43.6	14.5	7.00e-07	0	55	0	326107136	52	5213
2026-01-09 23:52:51.71	12.90	26.98	-40.8	-43.7	14.4	0.00e+00	0	55	0	328204288	52	5248
2026-01-09 23:52:52.72	12.87	27.16	-40.9	-43.9	14.1	0.00e+00	0	55	0	330301440	52	5397
2026-01-09 23:52:53.73	12.84	27.33	-41.0	-44.1	14.0	7.00e-07	0	55	0	332398592	52	5480
2026-01-09 23:52:54.73	12.81	27.50	-41.1	-44.3	13.8	3.80e-06	0	55	0	333447168	52	5610
2026-01-09 23:52:55.74	12.78	27.68	-41.2	-44.3	13.7	1.50e-06	0	55	0	335544320	52	5652
2026-01-09 23:52:56.75	12.74	27.85	-41.2	-44.3	13.7	5.30e-06	0	55	0	337641472	53	5329
2026-01-09 23:52:57.76	12.71	28.03	-41.3	-44.6	13.5	9.10e-06	0	55	0	339738624	53	5495
2026-01-09 23:52:58.76	12.68	28.21	-41.4	-44.7	13.3	1.52e-05	0	55	0	340787200	53	5560
2026-01-09 23:52:59.77	12.65	28.39	-41.5	-44.9	13.2	3.20e-05	0	55	0	342884352	53	5678
2026-01-09 23:53:00.78	12.61	28.57	-41.6	-45.1	12.9	3.35e-05	0	56	0	344981504	53	5850
2026-01-09 23:53:01.79	12.58	28.75	-41.8	-45.6	12.5	7.93e-05	0	55	0	347078656	54	5813
2026-01-09 23:53:02.80	12.54	28.94	-41.9	-45.7	12.3	1.48e-04	0	55	0	349175808	54	5909
2026-01-09 23:53:03.81	12.51	29.12	-42.0	-45.8	12.2	1.77e-04	0	55	0	351272960	54	5980
2026-01-09 23:53:04.82	12.47	29.31	-42.0	-46.0	12.1	3.11e-04	0	55	0	352321536	54	6094
2026-01-09 23:53:05.82	12.44	29.49	-42.1	-46.1	11.9	3.85e-04	0	55	0	354418688	54	6191
2026-01-09 23:53:06.83	12.40	29.68	-42.2	-46.2	11.8	4.62e-04	0	55	0	356515840	54	6272
2026-01-09 23:53:07.84	12.37	29.87	-42.2	-46.3	11.8	4.52e-04	0	56	0	358612992	54	6293
2026-01-09 23:53:08.85	12.33	30.06	-42.2	-46.3	11.7	6.17e-04	0	55	0	360710144	55	5990
2026-01-09 23:53:09.85	12.29	30.25	-42.3	-46.5	11.6	6.72e-04	0	55	0	361758720	55	6077
2026-01-09 23:53:10.86	12.25	30.45	-42.3	-46.5	11.5	7.08e-04	0	55	0	363855872	55	6106
2026-01-09 23:53:11.87	12.22	30.64	-42.3	-46.5	11.6	7.56e-04	0	56	0	365953024	55	6082
2026-01-09 23:53:12.87	12.18	30.83	-42.3	-46.5	11.6	8.67e-04	0	55	0	368050176	55	6090
2026-01-09 23:53:13.88	12.14	31.03	-42.3	-46.4	11.7	7.52e-04	0	55	0	370147328	55	6003
2026-01-09 23:53:14.89	12.10	31.23	-42.3	-46.4	11.6	5.26e-04	0	56	0	371195904	55	6059
2026-01-09 23:53:15.90	12.06	31.43	-42.3	-46.5	11.6	7.07e-04	0	56	0	373293056	55	6066
2026-01-09 23:53:16.90	12.02	31.63	-42.3	-46.5	11.6	6.38e-04	0	55	0	375390208	55	6083
2026-01-09 23:53:17.91	11.97	31.83	-42.4	-46.6	11.5	7.37e-04	0	55	0	377487360	55	6162
2026-01-09 23:53:18.92	11.93	32.04	-42.4	-46.6	11.4	8.89e-04	0	55	0	379584512	55	6185
2026-01-09 23:53:19.92	11.89	32.24	-42.4	-46.7	11.4	1.15e-03	0	56	0	380633088	55	6237
2026-01-09 23:53:20.93	11.85	32.45	-42.5	-46.8	11.2	1.15e-03	0	56	0	382730240	55	6340
2026-01-09 23:53:21.94	11.80	32.66	-42.4	-46.8	11.3	1.33e-03	0	56	0	384827392	55	6286
2026-01-09 23:53:22.94	11.76	32.86	-42.5	-46.9	11.2	1.19e-03	0	56	0	386924544	55	6366
2026-01-09 23:53:23.95	11.71	33.08	-42.4	-46.8	11.3	1.28e-03	0	55	0	389021696	55	6288
2026-01-09 23:53:24.96	11.67	33.29	-42.3	-46.5	11.6	8.09e-04	0	56	0	390070272	55	6090
2026-01-09 23:53:25.96	11.62	33.50	-42.3	-46.5	11.6	6.31e-04	0	56	0	392167424	55	6081
2026-01-09 23:53:26.97	11.57	33.72	-42.2	-46.2	11.8	3.81e-04	0	56	0	394264576	55	5914
2026-01-09 23:53:27.98	11.52	33.93	-42.0	-45.9	12.2	3.16e-04	0	56	0	396361728	55	5701
2026-01-09 23:53:28.99	11.47	34.15	-41.9	-45.7	12.4	1.46e-04	0	56	0	398458880	55	5552
2026-01-09 23:53:30.00	11.43	34.37	-41.9	-45.6	12.6	1.03e-04	0	56	0	399507456	55	5470
2026-01-09 23:53:31.01	11.38	34.59	-41.7	-45.2	12.9	7.17e-05	0	56	0	401604608	55	5259
2026-01-09 23:53:32.02	11.32	34.82	-41.5	-44.9	13.3	2.59e-05	0	55	0	403701760	55	5056
2026-01-09 23:53:33.02	11.27	35.04	-41.4	-44.6	13.6	1.44e-05	0	56	0	405798912	54	5196
2026-01-09 23:53:34.03	11.22	35.27	-41.2	-44.4	13.9	6.80e-06	0	56	0	407896064	54	5045
2026-01-09 23:53:35.04	11.17	35.50	-41.1	-44.2	14.0	2.20e-06	0	56	0	408944640	54	4959
2026-01-09 23:53:36.04	11.11	35.72	-41.0	-43.9	14.3	2.20e-06	0	56	0	411041792	54	4814
2026-01-09 23:53:37.05	11.06	35.95	-40.7	-43.5	14.7	0.00e+00	0	56	0	413138944	53	4845
2026-01-09 23:53:38.05	11.00	36.19	-40.5	-43.2	15.0	7.00e-07	0	55	0	415236096	53	4698
2026-01-09 23:53:39.06	10.95	36.42	-40.4	-43.1	15.2	0.00e+00	0	56	0	417333248	52	4879
2026-01-09 23:53:40.06	10.89	36.65	-40.3	-42.9	15.4	0.00e+00	0	56	0	418381824	52	4763
2026-01-09 23:53:41.07	10.83	36.89	-40.2	-42.8	15.5	0.00e+00	0	55	0	420478976	52	4716
2026-01-09 23:53:42.08	10.77	37.13	-40.2	-42.7	15.6	0.00e+00	0	56	0	422576128	52	4658
2026-01-09 23:53:43.09	10.71	37.37	-40.1	-42.6	15.6	0.00e+00	0	56	0	424673280	52	4638
2026-01-09 23:53:44.09	10.65	37.61	-40.1	-42.5	15.7	0.00e+00	0	56	0	426770432	52	4590
2026-01-09 23:53:45.10	10.59	37.86	-40.0	-42.4	15.8	0.00e+00	0	56	0	427819008	52	4544
2026-01-09 23:53:46.11	10.53	38.11	-40.1	-42.5	15.8	0.00e+00	0	56	0	429916160	51	4842
2026-01-09 23:53:47.12	10.46	38.35	-40.1	-42.5	15.8	0.00e+00	0	56	0	432013312	51	4850
2026-01-09 23:53:48.13	10.40	38.61	-40.2	-42.7	15.7	0.00e+00	0	56	0	434110464	51	4929
2026-01-09 23:53:49.14	10.33	38.86	-40.3	-42.8	15.6	0.00e+00	0	56	0	436207616	51	5008
2026-01-09 23:53:50.15	10.26	39.11	-40.3	-42.9	15.5	0.00e+00	0	56	0	437256192	51	5050
2026-01-09 23:53:51.15	10.20	39.36	-40.4	-42.9	15.5	0.00e+00	0	56	0	439353344	51	5086
2026-01-09 23:53:52.16	10.13	39.62	-40.5	-43.1	15.3	0.00e+00	0	56	0	441450496	51	5168
2026-01-09 23:53:53.17	10.06	39.88	-40.6	-43.3	15.1	0.00e+00	0	56	0	443547648	51	5312
2026-01-09 23:53:54.18	9.98	40.14	-40.7	-43.4	14.9	0.00e+00	0	56	0	445644800	52	5069
2026-01-09 23:53:55.18	9.91	40.40	-40.8	-43.6	14.7	0.00e+00	0	56	0	446693376	52	5185
2026-01-09 23:53:56.19	9.84	40.67	-40.9	-43.7	14.5	0.00e+00	0	56	0	448790528	52	5252
2026-01-09 23:53:57.20	9.76	40.94	-41.0	-44.0	14.3	7.00e-07	0	56	0	450887680	52	5430
2026-01-09 23:53:58.21	9.68	41.21	-41.1	-44.1	14.1	2.20e-06	0	56	0	452984832	52	5524
2026-01-09 23:53:59.21	9.61	41.47	-41.2	-44.3	14.0	3.00e-06	0	56	0	455081984	52	5596
2026-01-09 23:54:00.22	9.53	41.75	-41.2	-44.3	14.0	3.00e-06	0	56	0	456130560	52	5632
2026-01-09 23:54:01.23	9.45	42.02	-41.2	-44.4	13.9	4.50e-06	0	56	0	458227712	53	5347
2026-01-09 23:54:02.24	9.36	42.30	-41.2	-44.4	13.9	3.80e-06	0	56	0	460324864	53	5349
2026-01-09 23:54:03.25	9.28	42.58	-41.2	-44.3	13.9	0.00e+00	0	56	0	462422016	53	5320
2026-01-09 23:54:04.25	9.19	42.86	-41.2	-44.3	14.0	3.80e-06	0	56	0	464519168	53	5309
2026-01-09 23:54:05.26	9.11	43.14	-41.1	-44.1	14.2	2.20e-06	0	56	0	465567744	53	5169
2026-01-09 23:54:06.27	9.02	43.42	-41.1	-44.1	14.2	7.00e-07	0	56	0	467664896	53	5196
2026-01-09 23:54:07.27	8.93	43.71	-41.3	-44.4	13.9	3.80e-06	0	56	0	469762048	53	5390
2026-01-09 23:54:08.28	8.84	44.00	-41.4	-44.7	13.6	3.80e-06	0	56	0	471859200	53	5531
2026-01-09 23:54:09.29	8.74	44.29	-41.4	-44.7	13.6	9.90e-06	0	56	0	473956352	53	5574
2026-01-09 23:54:10.30	8.65	44.58	-41.5	-44.9	13.4	1.83e-05	0	56	0	475004928	53	5667
2026-01-09 23:54:11.30	8.55	44.88	-41.6	-45.0	13.2	2.74e-05	0	56	0	477102080	53	5756
2026-01-09 23:54:12.31	8.45	45.17	-41.8	-45.3	13.0	3.50e-05	0	56	0	479199232	54	5597
2026-01-09 23:54:13.32	8.35	45.47	-42.0	-45.8	12.5	8.62e-05	0	56	0	481296384	54	5929
2026-01-09 23:54:14.32	8.25	45.77	-42.2	-46.0	12.2	1.01e-04	0	56	0	483393536	54	6125
2026-01-09 23:54:15.33	8.14	46.08	-42.3	-46.4	11.8	3.55e-04	0	56	0	484442112	55	6028
2026-01-09 23:54:16.34	8.03	46.38	-42.5	-46.7	11.5	6.96e-04	0	56	0	486539264	55	6267
2026-01-09 23:54:17.34	7.92	46.69	-42.7	-47.1	11.2	1.27e-03	0	56	0	488636416	55	6542
2026-01-09 23:54:18.35	7.81	47.00	-42.7	-47.3	10.9	1.88e-03	0	56	0	490733568	55	6649
2026-01-09 23:54:19.36	7.70	47.31	-42.9	-47.5	10.8	1.95e-03	0	56	0	492830720	56	6487
2026-01-09 23:54:20.36	7.58	47.62	-42.8	-47.3	11.1	1.64e-03	0	56	0	493879296	56	6316
2026-01-09 23:54:21.37	7.46	47.94	-42.8	-47.3	11.0	1.82e-03	0	56	0	495976448	56	6343
2026-01-09 23:54:22.38	7.34	48.26	-42.9	-47.4	11.0	2.66e-03	0	56	0	498073600	56	6416
2026-01-09 23:54:23.38	7.22	48.58	-42.8	-47.2	11.2	1.91e-03	0	56	0	500170752	56	6259
2026-01-09 23:54:24.39	7.09	48.90	-42.7	-47.0	11.4	1.28e-03	0	56	0	502267904	56	6124
2026-01-09 23:54:25.40	6.96	49.23	-42.5	-46.6	11.9	5.33e-04	0	56	0	503316480	56	5799
2026-01-09 23:54:26.41	6.82	49.56	-42.3	-46.1	12.3	2.74e-04	0	56	0	505413632	56	5515
2026-01-09 23:54:27.42	6.69	49.89	-42.1	-45.7	12.7	1.24e-04	0	56	0	507510784	56	5243
2026-01-09 23:54:28.43	6.55	50.22	-41.6	-45.0	13.3	3.35e-05	0	56	0	509607936	55	5110
2026-01-09 23:54:29.44	6.41	50.56	-41.2	-44.3	14.1	3.00e-06	0	56	0	511705088	54	4995
2026-01-09 23:54:30.45	6.26	50.89	-41.0	-43.9	14.4	3.00e-06	0	56	0	512753664	54	4778
2026-01-09 23:54:31.46	6.11	51.23	-40.7	-43.5	14.8	0.00e+00	0	56	0	514850816	53	4835
2026-01-09 23:54:32.46	5.96	51.57	-40.5	-43.1	15.2	0.00e+00	0	56	0	516947968	53	4645
2026-01-09 23:54:33.47	5.81	51.92	-40.3	-42.8	15.6	0.00e+00	0	56	0	519045120	52	4738
2026-01-09 23:54:34.47	5.65	52.26	-40.3	-42.9	15.5	0.00e+00	0	56	0	521142272	52	4783
2026-01-09 23:54:35.48	5.48	52.61	-40.3	-42.9	15.5	0.00e+00	0	56	0	522190848	52	4764
2026-01-09 23:54:36.49	5.32	52.96	-40.2	-42.7	15.7	0.00e+00	0	56	0	524288000	52	4687
2026-01-09 23:54:37.50	5.14	53.31	-40.3	-42.8	15.6	0.00e+00	0	56	0	526385152	52	4710
2026-01-09 23:54:38.50	4.97	53.66	-40.3	-42.8	15.6	0.00e+00	0	56	0	528482304	52	4715
2026-01-09 23:54:39.51	4.79	54.02	-40.2	-42.7	15.6	0.00e+00	0	56	0	530579456	52	4687
2026-01-09 23:54:40.52	4.60	54.38	-40.2	-42.6	15.7	0.00e+00	0	56	0	531628032	52	4644
2026-01-09 23:54:41.53	4.41	54.74	-40.2	-42.7	15.7	0.00e+00	0	56	0	533725184	52	4676
2026-01-09 23:54:42.53	4.22	55.10	-40.3	-42.8	15.5	0.00e+00	0	56	0	535822336	52	4757
2026-01-09 23:54:43.54	4.02	55.47	-40.7	-43.4	15.0	0.00e+00	0	56	0	537919488	52	5090
2026-01-09 23:54:44.55	3.82	55.84	-41.0	-43.9	14.5	0.00e+00	0	56	0	540016640	52	5399
2026-01-09 23:54:45.55	3.61	56.20	-41.3	-44.5	13.9	2.20e-06	0	56	0	541065216	53	5409
2026-01-09 23:54:46.56	3.39	56.58	-41.7	-45.2	13.1	8.30e-06	0	56	0	543162368	54	5592
2026-01-09 23:54:47.56	3.17	56.95	-42.2	-46.1	12.1	6.94e-05	0	56	0	545259520	55	5848
2026-01-09 23:54:48.57	2.94	57.33	-42.6	-46.9	11.3	1.04e-03	0	56	0	547356672	55	6368
2026-01-09 23:54:49.58	2.70	57.70	-42.6	-47.0	11.2	1.63e-03	0	56	0	549453824	55	6451
2026-01-09 23:54:50.59	2.46	58.09	-42.6	-47.1	11.2	1.43e-03	0	56	0	550502400	55	6497
2026-01-09 23:54:51.59	2.21	58.46	-42.6	-47.1	11.1	1.60e-03	0	56	0	552599552	55	6498
2026-01-09 23:54:52.60	1.96	58.85	-42.9	-47.5	10.9	1.72e-03	0	56	0	554696704	56	6433
2026-01-09 23:54:53.60	1.69	59.23	-42.8	-47.3	11.1	2.31e-03	0	56	0	556793856	56	6298
2026-01-09 23:54:54.61	1.42	59.62	-42.5	-46.6	11.7	1.27e-03	0	56	0	558891008	56	5838
2026-01-09 23:54:55.62	1.14	60.01	-42.0	-45.6	12.9	1.51e-04	0	56	0	559939584	56	5167
2026-01-09 23:54:56.62	0.85	60.40	-41.1	-44.1	14.2	9.90e-06	0	56	0	562036736	54	4923
2026-01-09 23:54:57.63	0.55	60.79	-40.9	-43.7	14.7	0.00e+00	0	56	0	564133888	53	4963
2026-01-09 23:54:58.63	0.25	61.19	-40.6	-43.3	15.1	0.00e+00	0	56	0	566231040	53	4728
2026-01-09 23:54:59.64	359.93	61.58	-40.6	-43.3	15.0	0.00e+00	0	56	0	568328192	53	4749
2026-01-09 23:55:00.64	359.60	61.98	-40.3	-42.9	15.5	0.00e+00	0	56	0	569376768	52	4794
2026-01-09 23:55:01.65	359.26	62.38	-40.4	-43.1	15.4	0.00e+00	0	56	0	571473920	52	4874
2026-01-09 23:55:02.66	358.91	62.78	-40.3	-42.9	15.5	7.00e-07	0	56	0	573571072	52	4776
2026-01-09 23:55:03.67	358.55	63.18	-40.0	-42.4	16.0	0.00e+00	0	56	0	575668224	52	4506
2026-01-09 23:55:04.68	358.17	63.59	-40.0	-42.3	16.2	0.00e+00	0	56	0	577765376	51	4739
2026-01-09 23:55:05.69	357.78	63.99	-40.1	-42.5	16.0	0.00e+00	0	56	0	578813952	51	4819
2026-01-09 23:55:06.69	357.38	64.40	-40.2	-42.7	15.8	0.00e+00	0	56	0	580911104	51	4937
2026-01-09 23:55:07.70	356.96	64.80	-40.3	-42.8	15.7	0.00e+00	0	56	0	583008256	51	4993
2026-01-09 23:55:08.71	356.53	65.21	-40.5	-43.0	15.4	0.00e+00	0	56	0	585105408	51	5158
2026-01-09 23:55:09.71	356.08	65.62	-40.6	-43.3	15.2	0.00e+00	0	56	0	587202560	51	5324
2026-01-09 23:55:10.72	355.62	66.03	-40.7	-43.5	14.9	2.20e-06	0	56	0	589299712	52	5128
2026-01-09 23:55:11.73	355.13	66.44	-41.1	-44.0	14.4	7.00e-07	0	56	0	590348288	52	5461
2026-01-09 23:55:12.73	354.63	66.85	-41.3	-44.4	13.9	3.80e-06	0	56	0	592445440	53	5371
2026-01-09 23:55:13.74	354.11	67.26	-41.3	-44.5	13.8	2.20e-06	0	56	0	594542592	53	5450
2026-01-09 23:55:14.75	353.56	67.67	-41.3	-44.4	13.9	3.00e-06	0	56	0	596639744	53	5382
2026-01-09 23:55:15.76	352.99	68.08	-41.4	-44.6	13.7	6.10e-06	0	56	0	597688320	53	5518
2026-01-09 23:55:16.76	352.40	68.49	-41.3	-44.5	13.9	6.10e-06	0	56	0	599785472	53	5445
2026-01-09 23:55:17.77	351.79	68.90	-41.2	-44.3	14.1	7.00e-07	0	56	0	601882624	53	5307
2026-01-09 23:55:18.78	351.14	69.31	-41.1	-44.2	14.2	0.00e+00	0	56	0	603979776	53	5260
2026-01-09 23:55:19.78	350.48	69.72	-41.0	-44.0	14.4	0.00e+00	0	56	0	606076928	53	5104
2026-01-09 23:55:20.79	349.77	70.13	-40.8	-43.6	14.8	0.00e+00	0	56	0	607125504	53	4890
2026-01-09 23:55:21.80	349.04	70.54	-40.8	-43.6	14.7	7.00e-07	0	56	0	609222656	53	4885
2026-01-09 23:55:22.80	348.28	70.94	-41.1	-44.2	14.1	0.00e+00	0	56	0	611319808	53	5246
2026-01-09 23:55:23.81	347.48	71.35	-41.0	-44.1	14.3	1.50e-06	0	56	0	613416960	53	5167
2026-01-09 23:55:24.81	346.65	71.74	-40.4	-43.0	15.3	0.00e+00	0	56	0	615514112	52	4831
2026-01-09 23:55:25.82	345.77	72.14	-40.2	-42.7	15.6	0.00e+00	0	56	0	617611264	52	4698
2026-01-09 23:55:26.83	344.84	72.54	-40.7	-43.5	14.8	0.00e+00	0	56	0	618659840	52	5139
2026-01-09 23:55:27.84	343.87	72.94	-41.1	-44.2	14.2	2.20e-06	0	56	0	620756992	52	5534
2026-01-09 23:55:28.84	342.87	73.32	-41.3	-44.6	13.7	6.10e-06	0	56	0	622854144	53	5478
2026-01-09 23:55:29.85	341.80	73.71	-41.9	-45.7	12.6	1.83e-05	0	56	0	624951296	54	5866
2026-01-09 23:55:30.85	340.69	74.09	-42.4	-46.6	11.6	1.61e-04	0	56	0	625999872	55	6187
2026-01-09 23:55:31.86	339.51	74.47	-42.2	-46.3	12.0	9.86e-04	0	56	0	628097024	55	5958
2026-01-09 23:55:32.87	338.27	74.84	-42.0	-45.8	12.4	2.83e-04	0	56	0	630194176	55	5640
2026-01-09 23:55:33.88	336.96	75.21	-41.9	-45.6	12.7	8.39e-05	0	56	0	632291328	55	5476
2026-01-09 23:55:34.89	335.59	75.57	-41.7	-45.3	13.0	4.50e-05	0	56	0	634388480	55	5298
2026-01-09 23:55:35.89	334.16	75.91	-41.8	-45.3	13.0	2.74e-05	0	56	0	635437056	55	5327
2026-01-09 23:55:36.90	332.64	76.26	-41.9	-45.5	12.7	5.79e-05	0	56	0	637534208	55	5462
2026-01-09 23:55:37.91	331.04	76.59	-41.9	-45.5	12.7	8.92e-05	0	56	0	639631360	55	5448
2026-01-09 23:55:38.91	329.37	76.91	-41.7	-45.1	13.1	5.18e-05	0	56	0	641728512	55	5211
2026-01-09 23:55:39.92	327.61	77.23	-41.5	-44.8	13.5	9.90e-06	0	56	0	643825664	54	5325
2026-01-09 23:55:40.93	325.75	77.53	-41.6	-45.1	13.2	1.44e-05	0	56	0	645922816	54	5509
2026-01-09 23:55:41.93	323.81	77.81	-41.7	-45.3	13.0	3.73e-05	0	56	0	646971392	54	5597
2026-01-09 23:55:42.94	321.77	78.09	-41.3	-44.5	13.8	2.21e-05	0	56	0	649068544	54	5124
2026-01-09 23:55:43.95	319.62	78.35	-40.9	-43.9	14.4	7.00e-07	0	56	0	651165696	53	5061
2026-01-09 23:55:44.96	317.38	78.59	-41.1	-44.2	14.0	7.00e-07	0	56	0	653262848	53	5272
2026-01-09 23:55:45.96	315.07	78.82	-41.3	-44.6	13.7	3.80e-06	0	56	0	654311424	53	5486
2026-01-09 23:55:46.97	312.64	79.02	-41.3	-44.5	13.9	3.80e-06	0	56	0	656408576	53	5431
2026-01-09 23:55:47.98	310.12	79.21	-41.3	-44.6	13.6	6.10e-06	0	56	0	658505728	53	5481
2026-01-09 23:55:48.98	307.54	79.38	-41.0	-44.0	14.3	3.00e-06	0	56	0	660602880	53	5119
2026-01-09 23:55:49.99	304.85	79.52	-40.9	-43.8	14.5	0.00e+00	0	56	0	662700032	53	5021
2026-01-09 23:55:51.00	302.10	79.64	-41.4	-44.7	13.7	3.80e-06	0	56	0	663748608	53	5546
2026-01-09 23:55:52.00	299.31	79.74	-41.5	-45.0	13.2	3.12e-05	0	56	0	665845760	53	5748
2026-01-09 23:55:53.01	296.44	79.81	-41.2	-44.4	13.9	7.60e-06	0	56	0	667942912	53	5401
2026-01-09 23:55:54.02	293.55	79.86	-41.0	-44.1	14.3	2.20e-06	0	56	0	670040064	53	5167
2026-01-09 23:55:55.02	290.66	79.88	-40.9	-43.9	14.4	2.20e-06	0	56	0	672137216	53	5094
2026-01-09 23:55:56.03	287.73	79.88	-40.6	-43.4	14.9	0.00e+00	0	56	0	674234368	53	4797
2026-01-09 23:55:57.04	284.82	79.85	-40.4	-43.1	15.2	0.00e+00	0	56	0	675282944	52	4909
2026-01-09 23:55:58.04	281.96	79.79	-40.1	-42.6	15.7	0.00e+00	0	56	0	677380096	52	4639
2026-01-09 23:55:59.05	279.11	79.71	-40.1	-42.5	15.8	0.00e+00	0	56	0	679477248	51	4864
2026-01-09 23:56:00.06	276.31	79.61	-40.1	-42.6	15.9	0.00e+00	0	56	0	681574400	51	4893
2026-01-09 23:56:01.06	273.60	79.48	-40.1	-42.6	15.8	0.00e+00	0	56	0	682622976	51	4875
2026-01-09 23:56:02.07	270.93	79.33	-40.2	-42.7	15.7	0.00e+00	0	56	0	684720128	51	4953
2026-01-09 23:56:03.08	268.35	79.15	-40.7	-43.5	14.8	0.00e+00	0	56	0	686817280	52	5150
2026-01-09 23:56:04.09	265.86	78.96	-41.1	-44.2	14.1	2.20e-06	0	56	0	688914432	52	5532
2026-01-09 23:56:05.09	263.48	78.75	-40.9	-43.8	14.5	1.50e-06	0	56	0	691011584	52	5315
2026-01-09 23:56:06.10	261.17	78.52	-41.3	-44.5	13.7	2.20e-06	0	56	0	692060160	53	5463
2026-01-09 23:56:07.11	258.96	78.27	-41.4	-44.8	13.5	1.29e-05	0	56	0	694157312	53	5620
2026-01-09 23:56:08.11	256.87	78.01	-42.0	-45.8	12.5	7.55e-05	0	56	0	696254464	54	5948
2026-01-09 23:56:09.12	254.85	77.73	-42.6	-47.2	11.0	5.56e-04	0	56	0	698351616	55	6596
2026-01-09 23:56:10.13	252.93	77.43	-43.1	-48.0	10.2	3.44e-03	0	56	0	700448768	56	6874
2026-01-09 23:56:11.14	251.10	77.13	-43.3	-48.6	9.7	1.05e-02	0	56	0	702545920	57	6934
2026-01-09 23:56:12.15	249.35	76.81	-43.5	-49.4	8.9	2.26e-02	0	56	0	703594496	57	7550
2026-01-09 23:56:13.16	247.70	76.48	-43.5	-49.3	8.9	3.54e-02	0	56	0	705691648	57	7503
2026-01-09 23:56:14.16	246.14	76.15	-43.1	-48.2	10.0	9.45e-03	0	56	0	707788800	57	6616
2026-01-09 23:56:15.17	244.64	75.80	-42.9	-47.8	10.4	5.13e-03	0	56	0	709885952	57	6301
2026-01-09 23:56:16.18	243.22	75.44	-43.1	-48.2	9.9	5.16e-03	0	56	0	711983104	57	6639
2026-01-09 23:56:17.18	241.88	75.09	-43.1	-48.2	10.1	7.26e-03	0	56	0	713031680	57	6579
2026-01-09 23:56:18.19	240.60	74.72	-42.6	-46.9	11.3	2.28e-03	0	56	0	715128832	57	5720
2026-01-09 23:56:19.20	239.38	74.34	-42.2	-46.1	12.2	3.39e-04	0	56	0	717225984	56	5510
2026-01-09 23:56:20.21	238.21	73.96	-41.5	-44.9	13.3	5.34e-05	0	56	0	719323136	55	5096
2026-01-09 23:56:21.22	237.11	73.58	-41.5	-44.9	13.4	1.14e-05	0	56	0	720371712	54	5356
2026-01-09 23:56:22.22	236.07	73.19	-41.2	-44.3	14.0	7.60e-06	0	56	0	722468864	54	4990
2026-01-09 23:56:23.23	235.07	72.80	-40.5	-43.2	15.1	0.00e+00	0	56	0	724566016	52	4966
2026-01-09 23:56:24.24	234.11	72.40	-40.2	-42.8	15.5	0.00e+00	0	56	0	726663168	52	4724
2026-01-09 23:56:25.24	233.21	72.01	-40.2	-42.8	15.6	0.00e+00	0	56	0	728760320	52	4710
2026-01-09 23:56:26.25	232.34	71.61	-40.3	-42.9	15.4	0.00e+00	0	56	0	730857472	52	4781
2026-01-09 23:56:27.26	231.52	71.20	-40.6	-43.3	15.0	7.00e-07	0	56	0	731906048	52	5038
2026-01-09 23:56:28.26	230.73	70.80	-40.8	-43.6	14.7	7.00e-07	0	56	0	734003200	52	5208
2026-01-09 23:56:29.27	229.97	70.39	-41.1	-44.1	14.2	7.00e-07	0	56	0	736100352	52	5503
2026-01-09 23:56:30.28	229.25	69.98	-41.4	-44.7	13.6	6.80e-06	0	56	0	738197504	53	5535
2026-01-09 23:56:31.29	228.56	69.57	-41.6	-45.1	13.1	2.67e-05	0	56	0	740294656	53	5852
2026-01-09 23:56:32.30	227.90	69.16	-41.4	-44.7	13.5	1.83e-05	0	56	0	741343232	53	5588
2026-01-09 23:56:33.31	227.26	68.75	-41.4	-44.7	13.6	1.37e-05	0	56	0	743440384	53	5531
2026-01-09 23:56:34.32	226.65	68.34	-41.7	-45.2	13.1	1.29e-05	0	56	0	745537536	53	5869
2026-01-09 23:56:35.32	226.07	67.93	-42.3	-46.5	11.8	1.72e-04	0	56	0	747634688	55	6076
2026-01-09 23:56:36.33	225.51	67.51	-42.9	-47.6	10.7	1.62e-03	0	56	0	749731840	56	6552
2026-01-09 23:56:37.34	224.97	67.10	-42.9	-47.6	10.7	3.42e-03	0	56	0	750780416	56	6542
2026-01-09 23:56:38.34	224.46	66.69	-42.8	-47.3	11.0	2.53e-03	0	56	0	752877568	56	6306
2026-01-09 23:56:39.35	223.96	66.28	-42.6	-47.0	11.4	1.27e-03	0	56	0	754974720	56	6114
2026-01-09 23:56:40.36	223.48	65.87	-42.0	-45.7	12.7	1.49e-04	0	56	0	757071872	56	5235
2026-01-09 23:56:41.37	223.02	65.46	-41.1	-44.2	14.0	1.60e-05	0	56	0	759169024	54	4949
2026-01-09 23:56:42.37	222.58	65.05	-40.7	-43.5	14.8	1.50e-06	0	56	0	760217600	53	4817
2026-01-09 23:56:43.39	222.14	64.64	-40.2	-42.6	15.6	0.00e+00	0	56	0	762314752	52	4649
2026-01-09 23:56:44.40	221.73	64.23	-39.9	-42.3	16.1	0.00e+00	0	56	0	764411904	51	4740
2026-01-09 23:56:45.41	221.33	63.82	-39.6	-41.9	16.5	0.00e+00	0	56	0	766509056	51	4498
2026-01-09 23:56:46.41	220.95	63.42	-39.8	-42.2	16.2	0.00e+00	0	56	0	768606208	51	4660
2026-01-09 23:56:47.42	220.58	63.01	-39.9	-42.3	16.1	0.00e+00	0	56	0	769654784	51	4731
2026-01-09 23:56:48.43	220.22	62.61	-39.8	-42.2	16.2	0.00e+00	0	56	0	771751936	51	4653
2026-01-09 23:56:49.44	219.87	62.21	-40.0	-42.4	16.0	0.00e+00	0	56	0	773849088	51	4806
2026-01-09 23:56:50.45	219.53	61.81	-40.5	-43.2	15.2	0.00e+00	0	56	0	775946240	51	5252
2026-01-09 23:56:51.46	219.21	61.41	-40.9	-43.8	14.5	0.00e+00	0	56	0	778043392	52	5338
2026-01-09 23:56:52.47	218.89	61.01	-41.1	-44.1	14.2	2.20e-06	0	56	0	779091968	52	5495
2026-01-09 23:56:53.48	218.59	60.61	-41.5	-44.8	13.5	3.80e-06	0	56	0	781189120	53	5649
2026-01-09 23:56:54.49	218.29	60.22	-41.9	-45.5	12.8	5.26e-05	0	56	0	783286272	54	5768
2026-01-09 23:56:55.50	218.00	59.83	-42.1	-46.0	12.2	1.67e-04	0	56	0	785383424	54	6124
2026-01-09 23:56:56.50	217.73	59.44	-42.0	-45.8	12.5	1.50e-04	0	56	0	787480576	54	5967
2026-01-09 23:56:57.51	217.46	59.05	-42.1	-45.9	12.4	1.37e-04	0	56	0	788529152	54	6024
2026-01-09 23:56:58.52	217.20	58.66	-42.4	-46.6	11.5	3.77e-04	0	56	0	790626304	55	6177
2026-01-09 23:56:59.53	216.94	58.28	-43.0	-47.7	10.6	1.45e-03	0	56	0	792723456	56	6630
2026-01-09 23:57:00.54	216.69	57.89	-43.3	-48.6	9.7	9.50e-03	0	56	0	794820608	57	6920
2026-01-09 23:57:01.55	216.45	57.51	-43.5	-49.2	9.1	1.92e-02	0	56	0	796917760	57	7431
2026-01-09 23:57:02.56	216.22	57.13	-43.4	-48.8	9.5	2.48e-02	0	56	0	797966336	57	7070
2026-01-09 23:57:03.57	215.99	56.76	-43.0	-47.8	10.5	6.62e-03	0	56	0	800063488	57	6299
2026-01-09 23:57:04.58	215.77	56.38	-42.3	-46.2	12.1	8.73e-04	0	56	0	802160640	56	5581
2026-01-09 23:57:05.59	215.56	56.01	-41.6	-45.0	13.3	6.71e-05	0	56	0	804257792	55	5126
2026-01-09 23:57:06.60	215.35	55.64	-41.4	-44.6	13.7	7.60e-06	0	56	0	806354944	54	5207
2026-01-09 23:57:07.61	215.14	55.27	-41.0	-44.0	14.4	3.00e-06	0	56	0	807403520	54	4829
2026-01-09 23:57:08.62	214.95	54.90	-40.9	-43.7	14.6	0.00e+00	0	56	0	809500672	53	4971
2026-01-09 23:57:09.63	214.75	54.54	-40.5	-43.2	15.1	0.00e+00	0	56	0	811597824	53	4680
2026-01-09 23:57:10.63	214.57	54.18	-40.1	-42.5	15.8	0.00e+00	0	56	0	813694976	52	4591
2026-01-09 23:57:11.64	214.38	53.82	-40.2	-42.7	15.7	0.00e+00	0	56	0	815792128	52	4658
2026-01-09 23:57:12.65	214.20	53.46	-40.4	-43.0	15.3	0.00e+00	0	56	0	816840704	52	4831
2026-01-09 23:57:13.66	214.03	53.11	-40.3	-42.9	15.4	0.00e+00	0	56	0	818937856	52	4801
2026-01-09 23:57:14.67	213.86	52.75	-40.4	-43.0	15.3	0.00e+00	0	56	0	821035008	52	4831
2026-01-09 23:57:15.67	213.69	52.41	-40.5	-43.2	15.2	0.00e+00	0	56	0	823132160	52	4952
2026-01-09 23:57:16.68	213.53	52.06	-40.8	-43.6	14.7	0.00e+00	0	56	0	825229312	52	5200
2026-01-09 23:57:17.69	213.37	51.71	-40.8	-43.7	14.6	0.00e+00	0	56	0	827326464	52	5220
2026-01-09 23:57:18.69	213.22	51.37	-40.7	-43.5	14.8	1.50e-06	0	56	0	828375040	52	5123
2026-01-09 23:57:19.70	213.07	51.03	-40.7	-43.5	14.8	7.00e-07	0	56	0	830472192	52	5121
2026-01-09 23:57:20.71	212.92	50.69	-41.1	-44.1	14.2	7.00e-07	0	56	0	832569344	52	5489
2026-01-09 23:57:21.72	212.78	50.35	-41.5	-44.8	13.5	4.50e-06	0	56	0	834666496	53	5616
2026-01-09 23:57:22.73	212.64	50.02	-42.0	-45.8	12.5	6.25e-05	0	56	0	836763648	54	5975
2026-01-09 23:57:23.73	212.50	49.69	-42.5	-46.7	11.5	3.33e-04	0	56	0	837812224	55	6273
2026-01-09 23:57:24.74	212.36	49.36	-43.1	-48.1	10.2	2.46e-03	0	56	0	839909376	56	6927
2026-01-09 23:57:25.75	212.23	49.03	-43.2	-48.3	10.0	7.82e-03	0	57	0	842006528	57	6703
2026-01-09 23:57:26.75	212.10	48.70	-43.0	-47.9	10.4	5.61e-03	0	56	0	844103680	57	6378
2026-01-09 23:57:27.76	211.98	48.38	-42.8	-47.3	11.0	2.36e-03	0	56	0	845152256	57	5929
2026-01-09 23:57:28.77	211.85	48.06	-42.7	-47.1	11.3	1.49e-03	0	56	0	847249408	57	5798
2026-01-09 23:57:29.78	211.73	47.74	-42.3	-46.3	12.1	5.26e-04	0	56	0	849346560	56	5628
2026-01-09 23:57:30.78	211.61	47.42	-42.3	-46.1	12.3	1.94e-04	0	56	0	851443712	56	5517
2026-01-09 23:57:31.79	211.50	47.11	-42.4	-46.3	12.1	2.13e-04	0	56	0	853540864	56	5656
2026-01-09 23:57:32.80	211.38	46.80	-42.7	-47.1	11.3	9.97e-04	0	56	0	855638016	56	6153
2026-01-09 23:57:33.80	211.27	46.49	-42.8	-47.3	11.0	2.22e-03	0	56	0	856686592	56	6324
2026-01-09 23:57:34.81	211.16	46.18	-42.8	-47.4	10.9	1.97e-03	0	56	0	858783744	56	6367
2026-01-09 23:57:35.82	211.06	45.87	-42.7	-47.2	11.2	2.02e-03	0	56	0	860880896	56	6216
2026-01-09 23:57:36.83	210.95	45.57	-42.6	-47.0	11.4	1.24e-03	0	56	0	862978048	56	6080
2026-01-09 23:57:37.83	210.85	45.27	-42.6	-46.9	11.4	1.39e-03	0	56	0	865075200	56	6009
2026-01-09 23:57:38.85	210.75	44.97	-42.6	-46.9	11.4	1.01e-03	0	57	0	866123776	56	5998
2026-01-09 23:57:39.86	210.65	44.67	-42.6	-46.8	11.5	1.06e-03	0	56	0	868220928	56	5976
2026-01-09 23:57:40.86	210.55	44.38	-42.5	-46.8	11.6	6.78e-04	0	56	0	870318080	56	5936
2026-01-09 23:57:41.87	210.46	44.08	-42.7	-47.0	11.3	8.41e-04	0	56	0	872415232	56	6107
2026-01-09 23:57:42.88	210.36	43.79	-42.6	-46.9	11.4	8.39e-04	0	57	0	874512384	56	6058
2026-01-09 23:57:43.88	210.27	43.50	-42.6	-46.9	11.4	1.10e-03	0	57	0	875560960	56	6053
2026-01-09 23:57:44.89	210.18	43.22	-42.5	-46.7	11.6	9.46e-04	0	56	0	877658112	56	5892
2026-01-09 23:57:45.90	210.09	42.93	-42.5	-46.7	11.6	7.01e-04	0	57	0	879755264	56	5911
2026-01-09 23:57:46.91	210.01	42.65	-42.6	-46.9	11.5	7.79e-04	0	56	0	881852416	56	6056
2026-01-09 23:57:47.91	209.92	42.37	-42.6	-47.0	11.3	9.31e-04	0	56	0	883949568	56	6099
2026-01-09 23:57:48.92	209.84	42.09	-42.6	-46.9	11.4	8.48e-04	0	56	0	884998144	56	6004
2026-01-09 23:57:49.93	209.75	41.81	-42.7	-47.1	11.2	1.07e-03	0	56	0	887095296	56	6193
2026-01-09 23:57:50.94	209.67	41.54	-42.7	-47.2	11.1	1.53e-03	0	56	0	889192448	56	6241
2026-01-09 23:57:51.95	209.59	41.27	-42.8	-47.4	10.9	1.83e-03	0	56	0	891289600	56	6392
2026-01-09 23:57:52.95	209.52	41.00	-42.9	-47.5	10.7	2.79e-03	0	57	0	893386752	56	6451
2026-01-09 23:57:53.96	209.44	40.73	-43.0	-47.8	10.4	3.75e-03	0	57	0	894435328	56	6723
2026-01-09 23:57:54.97	209.36	40.46	-42.9	-47.5	10.7	4.39e-03	0	57	0	896532480	56	6481
2026-01-09 23:57:55.97	209.29	40.20	-42.9	-47.6	10.7	2.58e-03	0	57	0	898629632	56	6523
2026-01-09 23:57:56.98	209.22	39.94	-42.9	-47.5	10.8	2.46e-03	0	57	0	900726784	56	6457
2026-01-09 23:57:57.99	209.15	39.67	-42.8	-47.3	11.0	2.27e-03	0	56	0	902823936	56	6301
2026-01-09 23:57:58.99	209.08	39.42	-42.7	-47.1	11.2	1.69e-03	0	57	0	903872512	56	6133
2026-01-09 23:58:00.00	209.01	39.16	-42.6	-47.0	11.4	1.20e-03	0	56	0	905969664	56	6064
2026-01-09 23:58:01.01	208.94	38.90	-42.5	-46.7	11.6	1.12e-03	0	57	0	908066816	56	5878
2026-01-09 23:58:02.02	208.87	38.65	-42.3	-46.2	12.1	4.85e-04	0	56	0	910163968	56	5588
2026-01-09 23:58:03.03	208.80	38.40	-42.2	-46.0	12.3	1.81e-04	0	56	0	912261120	56	5454
2026-01-09 23:58:04.03	208.74	38.15	-42.1	-45.8	12.6	1.44e-04	0	57	0	913309696	56	5289
2026-01-09 23:58:05.04	208.68	37.90	-42.1	-45.7	12.6	1.16e-04	0	56	0	915406848	56	5279
2026-01-09 23:58:06.05	208.61	37.65	-42.1	-45.8	12.5	9.61e-05	0	56	0	917504000	56	5324
2026-01-09 23:58:07.05	208.55	37.41	-42.1	-45.8	12.6	9.76e-05	0	56	0	919601152	56	5287
2026-01-09 23:58:08.05	208.49	37.17	-42.0	-45.7	12.7	9.23e-05	0	56	0	921698304	56	5237
2026-01-09 23:58:09.06	208.43	36.93	-42.1	-45.7	12.6	7.09e-05	0	57	0	922746880	56	5259
2026-01-09 23:58:10.07	208.37	36.69	-42.0	-45.7	12.6	9.68e-05	0	57	0	924844032	56	5262
2026-01-09 23:58:11.07	208.31	36.45	-42.1	-45.9	12.5	1.04e-04	0	57	0	926941184	56	5342
2026-01-09 23:58:12.08	208.26	36.22	-42.2	-46.1	12.2	2.27e-04	0	56	0	929038336	56	5493
2026-01-09 23:58:13.09	208.20	35.98	-42.3	-46.3	12.0	2.72e-04	0	56	0	931135488	56	5653
2026-01-09 23:58:14.09	208.14	35.75	-42.5	-46.7	11.6	4.58e-04	0	56	0	932184064	56	5858
2026-01-09 23:58:15.11	208.09	35.52	-42.5	-46.7	11.6	6.37e-04	0	56	0	934281216	56	5872
2026-01-09 23:58:16.11	208.03	35.29	-42.5	-46.6	11.7	7.07e-04	0	57	0	936378368	56	5843
2026-01-09 23:58:17.12	207.98	35.06	-42.4	-46.4	11.9	5.60e-04	0	57	0	938475520	56	5670
2026-01-09 23:58:18.13	207.93	34.83	-42.3	-46.3	12.0	3.56e-04	0	57	0	940572672	56	5614
2026-01-09 23:58:19.14	207.88	34.61	-42.2	-46.0	12.3	1.88e-04	0	56	0	941621248	56	5424
2026-01-09 23:58:20.15	207.83	34.39	-42.1	-45.9	12.4	1.42e-04	0	57	0	943718400	56	5358
2026-01-09 23:58:21.16	207.78	34.16	-42.0	-45.7	12.6	9.30e-05	0	56	0	945815552	56	5272
2026-01-09 23:58:22.17	207.73	33.94	-41.8	-45.5	12.7	7.17e-05	0	56	0	947912704	55	5408
2026-01-09 23:58:23.17	207.68	33.73	-41.8	-45.4	12.7	6.94e-05	0	56	0	950009856	55	5365
2026-01-09 23:58:24.18	207.63	33.51	-41.8	-45.5	12.7	8.01e-05	0	56	0	951058432	55	5410
2026-01-09 23:58:25.19	207.58	33.29	-41.9	-45.6	12.6	9.15e-05	0	56	0	953155584	55	5501
2026-01-09 23:58:26.20	207.53	33.08	-42.0	-45.7	12.4	1.26e-04	0	56	0	955252736	55	5581
2026-01-09 23:58:27.20	207.49	32.87	-42.0	-45.9	12.2	1.79e-04	0	56	0	957349888	55	5678
2026-01-09 23:58:28.21	207.44	32.66	-42.1	-46.0	12.1	2.27e-04	0	57	0	959447040	55	5758
2026-01-09 23:58:29.22	207.40	32.45	-42.2	-46.2	11.9	3.68e-04	0	57	0	960495616	55	5902
2026-01-09 23:58:30.22	207.35	32.24	-42.3	-46.4	11.7	4.90e-04	0	56	0	962592768	55	6047
2026-01-09 23:58:31.23	207.31	32.03	-42.4	-46.6	11.5	6.31e-04	0	56	0	964689920	55	6175
2026-01-09 23:58:32.23	207.27	31.83	-42.4	-46.6	11.4	9.08e-04	0	57	0	966787072	55	6163
2026-01-09 23:58:33.24	207.22	31.63	-42.4	-46.7	11.4	8.93e-04	0	56	0	968884224	55	6240
2026-01-09 23:58:34.25	207.18	31.42	-42.5	-46.8	11.2	1.17e-03	0	57	0	969932800	55	6343
2026-01-09 23:58:35.25	207.14	31.22	-42.4	-46.7	11.3	1.26e-03	0	56	0	972029952	55	6257
2026-01-09 23:58:36.26	207.10	31.02	-42.4	-46.8	11.3	1.36e-03	0	57	0	974127104	55	6283
2026-01-09 23:58:37.27	207.06	30.82	-42.4	-46.6	11.4	9.92e-04	0	57	0	976224256	55	6167
2026-01-09 23:58:38.27	207.02	30.63	-42.3	-46.6	11.5	9.16e-04	0	57	0	978321408	55	6145
2026-01-09 23:58:39.28	206.98	30.43	-42.3	-46.4	11.7	7.05e-04	0	57	0	979369984	55	6027
2026-01-09 23:58:40.28	206.94	30.24	-42.3	-46.4	11.7	5.73e-04	0	57	0	981467136	55	6011
2026-01-09 23:58:41.29	206.90	30.05	-42.2	-46.4	11.7	5.35e-04	0	57	0	983564288	55	5998
2026-01-09 23:58:42.30	206.87	29.85	-42.2	-46.2	11.9	4.16e-04	0	57	0	985661440	55	5884
2026-01-09 23:58:43.30	206.83	29.66	-42.2	-46.3	11.8	4.48e-04	0	56	0	987758592	55	5961
2026-01-09 23:58:44.31	206.79	29.47	-42.2	-46.3	11.8	5.20e-04	0	56	0	988807168	55	5971
2026-01-09 23:58:45.32	206.76	29.29	-42.1	-46.1	11.9	4.04e-04	0	57	0	990904320	55	5855
2026-01-09 23:58:46.33	206.72	29.10	-42.1	-46.0	12.0	3.18e-04	0	57	0	993001472	55	5769
2026-01-09 23:58:47.33	206.68	28.91	-42.1	-46.0	12.0	2.91e-04	0	57	0	995098624	55	5755
2026-01-09 23:58:48.34	206.65	28.73	-41.9	-45.8	12.3	1.88e-04	0	57	0	997195776	55	5597
2026-01-09 23:58:49.35	206.61	28.55	-41.8	-45.6	12.5	1.11e-04	0	57	0	998244352	55	5466
2026-01-09 23:58:50.36	206.58	28.36	-41.8	-45.5	12.6	1.16e-04	0	57	0	1000341504	55	5430
2026-01-09 23:58:51.37	206.55	28.18	-41.8	-45.4	12.7	9.30e-05	0	57	0	1002438656	55	5393
2026-01-09 23:58:52.37	206.51	28.00	-41.8	-45.5	12.6	7.55e-05	0	57	0	1004535808	55	5406
2026-01-09 23:58:53.38	206.48	27.82	-41.8	-45.4	12.6	9.68e-05	0	57	0	1006632960	55	5402
2026-01-09 23:58:54.39	206.45	27.65	-41.8	-45.4	12.6	8.69e-05	0	57	0	1007681536	55	5384
2026-01-09 23:58:55.39	206.42	27.47	-41.7	-45.4	12.7	6.02e-05	0	57	0	1009778688	55	5357
2026-01-09 23:58:56.40	206.38	27.30	-41.8	-45.4	12.6	7.40e-05	0	57	0	1011875840	55	5379
2026-01-09 23:58:57.41	206.35	27.12	-41.7	-45.3	12.7	7.01e-05	0	57	0	1013972992	55	5327
2026-01-09 23:58:58.42	206.32	26.95	-41.7	-45.3	12.8	5.72e-05	0	57	0	1016070144	55	5308
2026-01-09 23:58:59.43	206.29	26.78	-41.7	-45.3	12.7	8.69e-05	0	57	0	1017118720	55	5331
2026-01-09 23:59:00.43	206.26	26.61	-41.7	-45.4	12.7	7.09e-05	0	56	0	1019215872	55	5345
2026-01-09 23:59:01.44	206.23	26.44	-41.7	-45.4	12.7	8.01e-05	0	56	0	1021313024	55	5369
2026-01-09 23:59:02.45	206.20	26.27	-41.8	-45.6	12.5	1.02e-04	0	56	0	1023410176	55	5476
2026-01-09 23:59:03.46	206.17	26.10	-41.8	-45.6	12.5	9.15e-05	0	56	0	1025507328	55	5466
2026-01-09 23:59:04.47	206.14	25.93	-41.8	-45.5	12.6	1.11e-04	0	56	0	1026555904	55	5427
2026-01-09 23:59:05.48	206.11	25.77	-41.7	-45.4	12.7	9.00e-05	0	57	0	1028653056	55	5345
2026-01-09 23:59:06.49	206.09	25.60	-41.7	-45.3	12.8	6.48e-05	0	56	0	1030750208	55	5287
2026-01-09 23:59:07.50	206.06	25.44	-41.5	-45.0	13.0	4.80e-05	0	56	0	1032847360	55	5149
2026-01-09 23:59:08.51	206.03	25.27	-41.5	-45.0	13.1	3.89e-05	0	57	0	1034944512	55	5106
2026-01-09 23:59:09.52	206.00	25.11	-41.4	-44.8	13.3	2.13e-05	0	56	0	1035993088	54	5302
2026-01-09 23:59:10.53	205.98	24.95	-41.2	-44.5	13.6	7.60e-06	0	57	0	1038090240	54	5119
2026-01-09 23:59:11.53	205.95	24.79	-41.2	-44.4	13.7	7.60e-06	0	57	0	1040187392	54	5100
2026-01-09 23:59:12.54	205.92	24.63	-41.1	-44.2	13.9	4.50e-06	0	56	0	1042284544	54	4959
2026-01-09 23:59:13.55	205.90	24.48	-41.0	-44.1	14.0	1.50e-06	0	56	0	1044381696	54	4905
2026-01-09 23:59:14.55	205.87	24.32	-41.0	-44.0	14.1	2.20e-06	0	56	0	1045430272	53	5123
2026-01-09 23:59:15.56	205.84	24.16	-40.8	-43.8	14.2	7.00e-07	0	57	0	1047527424	53	5021
2026-01-09 23:59:16.56	205.82	24.01	-40.8	-43.8	14.3	7.00e-07	0	56	0	1049624576	53	5018
2026-01-09 23:59:17.57	205.79	23.85	-40.8	-43.8	14.3	3.00e-06	0	57	0	1051721728	53	4986
2026-01-09 23:59:18.57	205.77	23.70	-40.8	-43.7	14.4	0.00e+00	0	57	0	1053818880	53	4969
2026-01-09 23:59:19.58	205.75	23.55	-40.8	-43.7	14.3	7.00e-07	0	56	0	1054867456	53	4964
2026-01-09 23:59:20.58	205.72	23.40	-40.8	-43.7	14.3	0.00e+00	0	56	0	1056964608	53	4980
2026-01-09 23:59:21.59	205.70	23.25	-40.8	-43.7	14.3	1.50e-06	0	56	0	1059061760	53	4983
2026-01-09 23:59:22.60	205.67	23.10	-40.8	-43.7	14.3	0.00e+00	0	56	0	1061158912	53	4982
2026-01-09 23:59:23.60	205.65	22.95	-40.9	-43.9	14.2	7.00e-07	0	56	0	1063256064	53	5047
2026-01-09 23:59:24.61	205.63	22.80	-40.9	-43.9	14.2	0.00e+00	0	56	0	1064304640	53	5061
2026-01-09 23:59:25.62	205.60	22.66	-41.0	-44.0	14.0	1.50e-06	0	57	0	1066401792	53	5147
2026-01-09 23:59:26.62	205.58	22.51	-40.9	-44.0	14.1	3.80e-06	0	57	0	1068498944	53	5108
2026-01-09 23:59:27.63	205.56	22.36	-40.9	-44.0	14.1	7.00e-07	0	56	0	1070596096	53	5113
2026-01-09 23:59:28.64	205.54	22.22	-41.0	-44.0	14.0	3.00e-06	0	57	0	1072693248	53	5156
2026-01-09 23:59:29.65	205.51	22.08	-41.0	-44.1	14.0	1.50e-06	0	57	0	1073741824	53	5172
2026-01-09 23:59:30.65	205.49	21.93	-41.0	-44.1	14.0	3.80e-06	0	57	0	1075838976	53	5168
2026-01-09 23:59:31.66	205.47	21.79	-41.0	-44.1	13.9	3.00e-06	0	57	0	1077936128	53	5183
2026-01-09 23:59:32.67	205.45	21.65	-41.0	-44.2	13.8	3.00e-06	0	56	0	1080033280	53	5236
2026-01-09 23:59:33.67	205.43	21.51	-41.0	-44.1	13.9	2.20e-06	0	57	0	1082130432	53	5185
2026-01-09 23:59:34.68	205.41	21.37	-41.0	-44.1	13.9	4.50e-06	0	56	0	1083179008	53	5202
2026-01-09 23:59:35.69	205.39	21.23	-41.1	-44.3	13.8	6.10e-06	0	56	0	1085276160	53	5281
2026-01-09 23:59:36.70	205.37	21.09	-41.1	-44.3	13.7	3.80e-06	0	56	0	1087373312	53	5293
2026-01-09 23:59:37.70	205.35	20.95	-41.2	-44.4	13.6	9.90e-06	0	57	0	1089470464	53	5366
2026-01-09 23:59:38.71	205.33	20.82	-41.2	-44.5	13.5	1.37e-05	0	57	0	1091567616	53	5409
2026-01-09 23:59:39.72	205.31	20.68	-41.2	-44.4	13.6	8.30e-06	0	56	0	1092616192	53	5372
2026-01-09 23:59:40.72	205.29	20.55	-41.2	-44.5	13.4	7.60e-06	0	57	0	1094713344	53	5457
2026-01-09 23:59:41.73	205.27	20.41	-41.2	-44.5	13.5	2.05e-05	0	56	0	1096810496	53	5444
2026-01-09 23:59:42.74	205.25	20.28	-41.3	-44.6	13.3	1.75e-05	0	56	0	1098907648	53	5520
2026-01-09 23:59:43.74	205.23	20.14	-41.3	-44.7	13.3	1.37e-05	0	56	0	1101004800	53	5568
2026-01-09 23:59:44.75	205.21	20.01	-41.3	-44.7	13.2	1.75e-05	0	56	0	1102053376	53	5577
2026-01-09 23:59:45.76	205.19	19.88	-41.3	-44.7	13.3	2.05e-05	0	57	0	1104150528	53	5546
2026-01-09 23:59:46.76	205.17	19.75	-41.4	-44.8	13.2	1.67e-05	0	57	0	1106247680	53	5598
2026-01-09 23:59:47.77	205.15	19.62	-41.3	-44.7	13.2	2.05e-05	0	56	0	1108344832	53	5576
2026-01-09 23:59:48.78	205.14	19.49	-41.4	-44.8	13.1	2.44e-05	0	56	0	1110441984	53	5640
2026-01-09 23:59:49.79	205.12	19.36	-41.4	-44.8	13.1	2.05e-05	0	56	0	1111490560	53	5653
2026-01-09 23:59:50.79	205.10	19.23	-41.4	-44.8	13.0	3.20e-05	0	56	0	1113587712	53	5653
2026-01-09 23:59:51.80	205.08	19.10	-41.4	-44.9	13.0	3.20e-05	0	56	0	1115684864	53	5676
2026-01-09 23:59:52.81	205.07	18.98	-41.4	-45.0	12.9	3.96e-05	0	57	0	1117782016	53	5732
2026-01-09 23:59:53.82	205.05	18.85	-41.4	-44.9	13.0	4.42e-05	0	57	0	1119879168	53	5716
2026-01-09 23:59:54.82	205.03	18.72	-41.4	-44.9	13.0	4.04e-05	0	57	0	1121976320	53	5706
2026-01-09 23:59:55.83	205.01	18.60	-41.5	-45.0	12.9	4.57e-05	0	56	0	1123024896	53	5778
2026-01-09 23:59:56.84	205.00	18.47	-41.4	-44.9	13.0	5.49e-05	0	57	0	1125122048	53	5704
2026-01-09 23:59:57.85	204.98	18.35	-41.5	-45.1	12.8	6.17e-05	0	57	0	1127219200	53	5828
2026-01-09 23:59:58.85	204.96	18.23	-41.5	-45.0	12.8	5.11e-05	0	57	0	1129316352	53	5775
2026-01-09 23:59:59.86	204.95	18.10	-41.5	-45.1	12.8	5.26e-05	0	57	0	1130364928	53	5797
2026-01-10 00:00:00.87	204.93	17.98	-41.5	-45.2	12.7	8.62e-05	0	56	0	1132462080	53	5872
2026-01-10 00:00:01.88	204.92	17.86	-41.5	-45.1	12.7	7.78e-05	0	57	0	1134559232	53	5846
2026-01-10 00:00:02.88	204.90	17.74	-41.6	-45.2	12.7	7.24e-05	0	57	0	1136656384	53	5887
2026-01-10 00:00:03.89	204.88	17.62	-41.5	-45.2	12.7	8.85e-05	0	56	0	1138753536	53	5861
2026-01-10 00:00:04.89	204.87	17.50	-41.5	-45.1	12.7	6.63e-05	0	57	0	1139802112	53	5832
2026-01-10 00:00:05.90	204.85	17.38	-41.6	-45.3	12.6	8.46e-05	0	57	0	1141899264	53	5926
2026-01-10 00:00:06.91	204.84	17.26	-41.6	-45.3	12.5	1.05e-04	0	56	0	1143996416	53	5991
2026-01-10 00:00:07.92	204.82	17.14	-41.6	-45.3	12.6	9.99e-05	0	57	0	1146093568	53	5938
2026-01-10 00:00:08.92	204.81	17.03	-41.6	-45.3	12.5	1.23e-04	0	57	0	1148190720	53	5992
2026-01-10 00:00:09.93	204.79	16.91	-41.6	-45.4	12.4	1.06e-04	0	57	0	1150287872	53	6003
2026-01-10 00:00:10.93	204.78	16.79	-41.6	-45.4	12.5	1.25e-04	0	56	0	1151336448	53	5997
2026-01-10 00:00:11.94	204.76	16.68	-41.6	-45.4	12.4	1.72e-04	0	57	0	1153433600	53	6048
2026-01-10 00:00:12.95	204.75	16.56	-41.7	-45.5	12.3	1.69e-04	0	56	0	1155530752	53	6100
2026-01-10 00:00:13.96	204.73	16.45	-41.7	-45.5	12.2	1.81e-04	0	57	0	1157627904	53	6125
2026-01-10 00:00:14.97	204.72	16.33	-41.7	-45.5	12.2	1.91e-04	0	57	0	1158676480	53	6123
2026-01-10 00:00:15.98	204.71	16.22	-41.8	-45.7	12.1	2.50e-04	0	57	0	1160773632	54	5889
2026-01-10 00:00:16.98	204.69	16.11	-41.8	-45.7	12.1	2.45e-04	0	57	0	1162870784	54	5860
2026-01-10 00:00:17.99	204.68	15.99	-41.8	-45.7	12.1	3.13e-04	0	57	0	1164967936	54	5896
2026-01-10 00:00:19.00	204.66	15.88	-41.8	-45.7	12.0	3.22e-04	0	57	0	1167065088	54	5893
2026-01-10 00:00:20.01	204.65	15.77	-41.8	-45.8	11.9	3.55e-04	0	57	0	1168113664	54	5948
2026-01-10 00:00:21.01	204.64	15.66	-41.8	-45.9	11.9	4.00e-04	0	57	0	1170210816	54	6000
