passes_logs/2026/01/09/R2.0S_Moscow/R2.0S_Moscow__20260109_014809_NOAA_20_JPSS-1_rec.log

#Pass ID: 20260109_014809_NOAA 20 (JPSS-1)
#Satellite: NOAA 20 (JPSS-1)
#Configuration: NOAA 20
#almurnet v.1.7.20251203
#Start time: 2026-01-09 01:48:09

#Version: 2.2.20231116
#Station: R2.0S_Moscow
#Location: 37.707566 lon 55.798166 lat
#TLE: 1 43013U 17073A   26008.42245989  .00000120  00000+0  77990-4 0  9996
#TLE: 2 43013  98.7631 309.4315 0001737  48.7960 311.3365 14.19534455421802

#Time	Az	El	Level	Level2	SNR	BER	BlckErr	Temp	State	Recorded	gain1	gain2
2026-01-09 01:48:09.24	8.99	2.00	-37.7	-54.0	3.8	1.49e+00	0	47	0	0	47	22796
2026-01-09 01:48:10.25	8.91	2.06	-37.7	-53.9	3.8	1.49e+00	0	47	104	0	45	25485
2026-01-09 01:48:11.26	8.83	2.11	-37.7	-53.9	3.8	1.49e+00	0	47	104	0	46	24122
2026-01-09 01:48:12.27	8.75	2.16	-37.7	-53.9	3.8	1.49e+00	0	47	104	0	46	24091
2026-01-09 01:48:13.28	8.67	2.21	-37.7	-54.0	3.8	1.49e+00	0	48	104	0	46	24134
2026-01-09 01:48:14.29	8.59	2.27	-37.6	-54.0	3.8	1.49e+00	0	48	104	0	46	24142
2026-01-09 01:48:15.30	8.50	2.32	-37.8	-54.0	3.8	1.49e+00	0	48	104	0	46	24136
2026-01-09 01:48:16.31	8.42	2.37	-37.7	-53.9	3.8	1.49e+00	0	48	104	0	46	24125
2026-01-09 01:48:17.32	8.34	2.42	-37.7	-54.0	3.8	1.49e+00	0	48	104	0	46	24159
2026-01-09 01:48:18.33	8.25	2.47	-37.7	-54.0	3.8	1.49e+00	0	48	104	0	46	24169
2026-01-09 01:48:19.35	8.17	2.53	-37.8	-53.9	3.8	1.49e+00	0	48	104	0	46	24064
2026-01-09 01:48:20.36	8.09	2.58	-37.7	-53.9	3.8	1.49e+00	0	48	104	0	46	24099
2026-01-09 01:48:21.37	8.00	2.63	-37.6	-53.9	3.8	1.49e+00	0	48	104	0	46	24058
2026-01-09 01:48:22.38	7.92	2.69	-37.7	-53.9	3.8	1.49e+00	0	48	104	0	46	24107
2026-01-09 01:48:23.39	7.83	2.74	-37.7	-54.0	3.8	1.49e+00	0	48	104	0	46	24155
2026-01-09 01:48:24.40	7.75	2.79	-37.7	-53.9	3.8	1.49e+00	0	48	104	0	46	24085
2026-01-09 01:48:25.41	7.66	2.84	-37.7	-53.9	3.8	1.49e+00	0	48	104	0	46	24071
2026-01-09 01:48:26.42	7.57	2.90	-37.7	-54.0	3.8	1.49e+00	0	49	104	0	46	24161
2026-01-09 01:48:27.43	7.49	2.95	-37.7	-53.9	3.8	1.49e+00	0	49	104	0	46	24095
2026-01-09 01:48:28.45	7.40	3.00	-37.7	-53.9	3.8	1.49e+00	0	49	104	0	46	24104
2026-01-09 01:48:29.46	7.31	3.06	-37.6	-53.9	3.8	1.49e+00	0	49	104	0	46	24060
2026-01-09 01:48:30.47	7.23	3.11	-37.6	-53.9	3.8	1.49e+00	0	49	104	0	46	24086
2026-01-09 01:48:31.48	7.14	3.16	-37.6	-54.0	3.8	1.49e+00	0	49	104	0	46	24142
2026-01-09 01:48:32.49	7.05	3.21	-37.7	-53.9	3.8	1.49e+00	0	49	104	0	46	24108
2026-01-09 01:48:33.50	6.96	3.27	-37.6	-53.9	3.8	1.49e+00	0	49	104	0	46	24052
2026-01-09 01:48:34.51	6.87	3.32	-37.7	-53.9	3.8	1.49e+00	0	49	104	0	46	24054
2026-01-09 01:48:35.52	6.79	3.37	-37.7	-53.9	3.8	1.49e+00	0	49	104	0	46	24088
2026-01-09 01:48:36.53	6.70	3.43	-37.7	-53.9	3.8	1.49e+00	0	49	104	0	46	24018
2026-01-09 01:48:37.54	6.61	3.48	-37.6	-53.9	3.8	1.49e+00	0	49	104	0	46	24029
2026-01-09 01:48:38.55	6.52	3.53	-37.7	-53.9	3.8	1.49e+00	0	49	104	0	46	24006
2026-01-09 01:48:39.56	6.43	3.59	-37.7	-53.9	3.8	1.49e+00	0	49	104	0	46	24030
2026-01-09 01:48:40.57	6.34	3.64	-37.7	-53.9	3.8	1.49e+00	0	49	104	0	46	24048
2026-01-09 01:48:41.58	6.24	3.69	-37.7	-53.9	3.8	1.49e+00	0	50	104	0	46	24076
2026-01-09 01:48:42.59	6.15	3.75	-37.7	-53.9	3.8	1.49e+00	0	50	104	0	46	24122
2026-01-09 01:48:43.61	6.06	3.80	-37.7	-53.9	3.8	1.49e+00	0	50	104	0	46	24052
2026-01-09 01:48:44.62	5.97	3.85	-37.7	-53.9	3.8	1.49e+00	0	50	104	0	46	24055
2026-01-09 01:48:45.63	5.88	3.91	-37.6	-53.9	3.8	1.49e+00	0	50	104	0	46	24054
2026-01-09 01:48:46.64	5.78	3.96	-37.7	-53.9	3.8	1.49e+00	0	50	104	0	46	24022
2026-01-09 01:48:47.65	5.69	4.01	-37.6	-53.9	3.8	1.49e+00	0	50	104	0	46	24022
2026-01-09 01:48:48.66	5.60	4.07	-37.6	-53.9	3.8	1.49e+00	0	50	104	0	46	24013
2026-01-09 01:48:49.67	5.50	4.12	-37.7	-53.9	3.8	1.49e+00	0	50	104	0	46	24005
2026-01-09 01:48:50.68	5.41	4.18	-37.6	-53.9	3.8	1.49e+00	0	50	104	0	46	24002
2026-01-09 01:48:51.69	5.31	4.23	-37.7	-53.9	3.8	1.49e+00	0	50	104	0	46	23987
2026-01-09 01:48:52.70	5.22	4.28	-37.6	-53.9	3.8	1.49e+00	0	50	104	0	46	23971
2026-01-09 01:48:53.71	5.12	4.34	-37.7	-53.9	3.8	1.49e+00	0	50	104	0	46	23998
2026-01-09 01:48:54.72	5.03	4.39	-37.7	-53.9	3.8	1.49e+00	0	50	104	0	46	23991
2026-01-09 01:48:55.73	4.93	4.44	-37.6	-53.9	3.8	1.49e+00	0	50	104	0	46	23939
2026-01-09 01:48:56.74	4.84	4.50	-37.6	-53.9	3.8	1.49e+00	0	50	104	0	46	23987
2026-01-09 01:48:57.75	4.74	4.55	-37.7	-53.9	3.8	1.49e+00	0	50	104	0	46	24054
2026-01-09 01:48:58.76	4.64	4.61	-37.6	-53.9	3.8	1.49e+00	0	50	104	0	46	24001
2026-01-09 01:48:59.77	4.54	4.66	-37.7	-53.9	3.8	1.49e+00	0	51	104	0	46	23982
2026-01-09 01:49:00.78	4.45	4.71	-37.7	-53.9	3.8	1.49e+00	0	51	104	0	46	23956
2026-01-09 01:49:01.79	4.35	4.77	-37.6	-53.9	3.8	1.49e+00	0	51	104	0	46	23974
2026-01-09 01:49:02.80	4.25	4.82	-37.7	-53.9	3.8	1.49e+00	0	51	104	0	46	24016
2026-01-09 01:49:03.81	4.15	4.88	-37.6	-53.9	3.8	1.49e+00	0	51	104	0	46	24020
2026-01-09 01:49:04.82	4.05	4.93	-37.7	-53.9	3.8	1.49e+00	0	51	104	0	46	23967
2026-01-09 01:49:05.84	3.95	4.99	-37.7	-53.9	3.8	1.49e+00	0	51	104	0	46	24091
2026-01-09 01:49:06.85	3.85	5.04	-37.7	-53.9	3.8	1.49e+00	0	51	104	0	46	23980
2026-01-09 01:49:07.86	3.75	5.09	-37.7	-53.9	3.8	1.49e+00	0	51	104	0	46	23983
2026-01-09 01:49:08.87	3.65	5.15	-37.7	-53.9	3.8	1.49e+00	0	51	104	0	46	23984
2026-01-09 01:49:09.88	3.55	5.20	-37.7	-53.9	3.8	1.49e+00	0	51	104	0	46	24005
2026-01-09 01:49:10.89	3.45	5.26	-37.6	-53.9	3.8	1.49e+00	0	51	104	0	46	23972
2026-01-09 01:49:11.90	3.34	5.31	-37.6	-53.9	3.8	1.49e+00	0	51	104	0	46	23993
2026-01-09 01:49:12.91	3.24	5.36	-37.7	-53.9	3.8	1.49e+00	0	51	104	0	46	23957
2026-01-09 01:49:13.92	3.14	5.42	-37.7	-53.9	3.8	1.49e+00	0	51	104	0	46	24042
2026-01-09 01:49:14.93	3.04	5.47	-37.7	-53.9	3.8	1.49e+00	0	51	104	0	46	24006
2026-01-09 01:49:15.94	2.93	5.53	-37.6	-53.9	3.8	1.49e+00	0	51	104	0	46	23916
2026-01-09 01:49:16.95	2.83	5.58	-37.7	-53.9	3.8	1.49e+00	0	51	104	0	46	24055
2026-01-09 01:49:17.96	2.72	5.64	-37.7	-53.9	3.8	1.49e+00	0	51	104	0	46	24032
2026-01-09 01:49:18.98	2.62	5.69	-37.7	-53.9	3.8	1.49e+00	0	52	104	0	46	24008
2026-01-09 01:49:19.99	2.51	5.75	-37.6	-53.9	3.8	1.49e+00	0	51	104	0	46	24024
2026-01-09 01:49:21.00	2.41	5.80	-37.6	-53.9	3.8	1.49e+00	0	52	104	0	46	23964
2026-01-09 01:49:22.01	2.30	5.86	-37.7	-53.9	3.8	1.49e+00	0	52	104	0	46	23971
2026-01-09 01:49:23.02	2.19	5.91	-37.6	-53.9	3.8	1.49e+00	0	52	104	0	46	23970
2026-01-09 01:49:24.03	2.09	5.96	-37.7	-53.9	3.8	1.49e+00	0	52	104	0	46	23996
2026-01-09 01:49:25.04	1.98	6.02	-37.7	-53.9	3.8	1.49e+00	0	52	104	0	46	23976
2026-01-09 01:49:26.05	1.87	6.07	-37.7	-53.9	3.8	1.49e+00	0	52	104	0	46	23948
2026-01-09 01:49:27.06	1.76	6.13	-37.7	-53.9	3.8	1.49e+00	0	52	104	0	46	24045
2026-01-09 01:49:28.07	1.66	6.18	-37.6	-53.9	3.8	1.49e+00	0	52	104	0	46	23982
2026-01-09 01:49:29.08	1.55	6.24	-37.7	-53.9	3.8	1.49e+00	0	52	104	0	46	23960
2026-01-09 01:49:30.09	1.44	6.29	-37.7	-53.9	3.8	1.49e+00	0	52	104	0	46	24041
2026-01-09 01:49:31.10	1.33	6.35	-37.7	-53.9	3.8	1.49e+00	0	52	104	0	46	23993
2026-01-09 01:49:32.11	1.22	6.40	-37.7	-53.9	3.8	1.49e+00	0	52	104	0	46	24012
2026-01-09 01:49:33.12	1.11	6.46	-37.6	-53.9	3.8	1.49e+00	0	52	104	0	46	23972
2026-01-09 01:49:34.13	0.99	6.51	-37.7	-53.9	3.8	1.49e+00	0	52	104	0	46	24060
2026-01-09 01:49:35.14	0.88	6.57	-37.7	-53.9	3.8	1.49e+00	0	52	104	0	46	24001
2026-01-09 01:49:36.15	0.77	6.62	-37.6	-53.9	3.8	1.49e+00	0	52	104	0	46	23941
2026-01-09 01:49:37.16	0.66	6.68	-37.6	-53.9	3.8	1.49e+00	0	52	104	0	46	23958
2026-01-09 01:49:38.18	0.54	6.73	-37.7	-53.9	3.8	1.49e+00	0	52	104	0	46	23996
2026-01-09 01:49:39.19	0.43	6.79	-37.7	-53.9	3.8	1.49e+00	0	52	104	0	46	24003
2026-01-09 01:49:40.20	0.32	6.84	-37.6	-53.9	3.8	1.49e+00	0	52	104	0	46	23917
2026-01-09 01:49:41.21	0.20	6.89	-37.6	-53.9	3.8	1.49e+00	0	52	104	0	46	23961
2026-01-09 01:49:42.22	0.09	6.95	-37.6	-53.9	3.8	1.49e+00	0	52	104	0	46	23929
2026-01-09 01:49:43.23	359.97	7.00	-37.6	-53.9	3.8	1.49e+00	0	52	104	0	46	23952
2026-01-09 01:49:44.24	359.86	7.06	-37.7	-53.9	3.8	1.49e+00	0	52	104	0	46	23934
2026-01-09 01:49:45.25	359.74	7.11	-37.7	-53.9	3.8	1.49e+00	0	52	104	0	46	24006
2026-01-09 01:49:46.26	359.63	7.17	-37.6	-53.9	3.8	1.49e+00	0	53	104	0	46	23926
2026-01-09 01:49:47.27	359.51	7.22	-37.6	-53.9	3.8	1.49e+00	0	53	104	0	46	24020
2026-01-09 01:49:48.28	359.39	7.28	-37.7	-53.9	3.8	1.49e+00	0	53	104	0	46	23945
2026-01-09 01:49:49.29	359.27	7.33	-37.7	-53.9	3.8	1.49e+00	0	53	104	0	46	23974
2026-01-09 01:49:50.30	359.16	7.39	-37.6	-53.9	3.8	1.49e+00	0	53	104	0	46	23931
2026-01-09 01:49:51.31	359.04	7.44	-37.7	-53.9	3.8	1.49e+00	0	52	104	0	46	23949
2026-01-09 01:49:52.32	358.92	7.50	-37.7	-53.9	3.8	1.49e+00	0	53	104	0	46	23951
2026-01-09 01:49:53.33	358.80	7.55	-37.7	-53.9	3.8	1.49e+00	0	53	104	0	46	23955
2026-01-09 01:49:54.34	358.68	7.61	-37.7	-53.9	3.8	1.49e+00	0	53	104	0	46	23972
2026-01-09 01:49:55.35	358.56	7.66	-37.7	-53.9	3.8	1.49e+00	0	53	104	0	46	23986
2026-01-09 01:49:56.36	358.44	7.72	-37.6	-53.9	3.8	1.49e+00	0	53	104	0	46	23964
2026-01-09 01:49:57.37	358.31	7.77	-37.7	-53.9	3.8	1.49e+00	0	53	104	0	46	23992
2026-01-09 01:49:58.38	358.19	7.83	-37.6	-53.9	3.8	1.49e+00	0	53	104	0	46	23954
2026-01-09 01:49:59.39	358.07	7.88	-37.7	-53.9	3.8	1.49e+00	0	53	104	0	46	24034
2026-01-09 01:50:00.40	357.95	7.94	-37.7	-53.9	3.8	1.49e+00	0	53	104	0	46	23958
2026-01-09 01:50:01.41	357.82	7.99	-37.7	-53.9	3.8	1.49e+00	0	53	104	0	46	23985
2026-01-09 01:50:02.42	357.70	8.05	-37.8	-53.9	3.8	1.49e+00	0	53	104	0	46	23980
2026-01-09 01:50:03.43	357.58	8.10	-38.1	-53.9	3.8	1.49e+00	0	53	104	0	47	22716
2026-01-09 01:50:04.44	357.45	8.16	-37.9	-54.0	3.8	1.49e+00	0	53	104	0	47	22823
2026-01-09 01:50:05.45	357.32	8.21	-38.7	-54.0	3.8	1.49e+00	0	53	104	0	48	21583
2026-01-09 01:50:06.46	357.20	8.27	-38.5	-54.1	3.8	1.49e+00	0	53	104	0	48	21811
2026-01-09 01:50:07.47	357.07	8.32	-38.1	-54.0	3.8	1.49e+00	0	53	104	0	47	22833
2026-01-09 01:50:08.48	356.95	8.37	-38.8	-54.1	3.8	1.49e+00	0	53	104	0	49	20593
2026-01-09 01:50:09.49	356.82	8.43	-38.3	-54.1	3.8	1.49e+00	0	53	104	0	48	21824
2026-01-09 01:50:10.50	356.69	8.48	-38.9	-54.1	3.8	1.49e+00	0	53	104	0	48	21805
2026-01-09 01:50:11.51	356.56	8.54	-39.1	-54.1	3.8	1.49e+00	0	53	104	0	48	21960
2026-01-09 01:50:12.52	356.43	8.59	-39.2	-54.1	3.9	1.49e+00	0	53	104	0	49	20679
2026-01-09 01:50:13.53	356.30	8.65	-39.6	-54.2	3.8	1.49e+00	0	53	104	0	49	21014
2026-01-09 01:50:14.54	356.17	8.70	-39.5	-54.2	3.8	1.49e+00	0	53	104	0	49	20972
2026-01-09 01:50:15.55	356.04	8.76	-39.5	-54.2	3.8	1.49e+00	0	53	104	0	49	20995
2026-01-09 01:50:16.56	355.91	8.81	-39.5	-54.3	3.8	1.49e+00	0	54	104	0	49	21080
2026-01-09 01:50:17.57	355.78	8.87	-39.1	-54.1	3.8	1.49e+00	0	54	104	0	49	20745
2026-01-09 01:50:18.58	355.65	8.92	-39.6	-54.3	3.8	1.49e+00	0	54	104	0	49	21144
2026-01-09 01:50:19.58	355.52	8.98	-39.5	-54.3	3.8	1.49e+00	0	54	104	0	49	21129
2026-01-09 01:50:20.59	355.39	9.03	-39.6	-54.4	3.8	1.49e+00	0	53	104	0	49	21313
2026-01-09 01:50:21.60	355.25	9.08	-39.7	-54.4	3.8	1.49e+00	0	54	104	0	50	20192
2026-01-09 01:50:22.61	355.12	9.14	-39.5	-54.3	3.8	1.49e+00	0	53	104	0	50	20058
2026-01-09 01:50:23.62	354.99	9.19	-39.6	-54.3	3.8	1.49e+00	0	54	104	0	50	20019
2026-01-09 01:50:24.63	354.85	9.25	-39.6	-54.3	3.8	1.49e+00	0	54	104	0	50	20041
2026-01-09 01:50:25.64	354.71	9.30	-39.4	-54.3	3.8	1.49e+00	0	54	104	0	50	19867
2026-01-09 01:50:26.65	354.58	9.36	-39.8	-54.4	3.8	1.49e+00	0	54	104	0	50	20163
2026-01-09 01:50:27.66	354.44	9.41	-39.6	-54.3	3.8	1.49e+00	0	54	104	0	50	19917
2026-01-09 01:50:28.67	354.31	9.46	-39.8	-54.4	3.8	1.49e+00	0	54	104	0	50	20184
2026-01-09 01:50:29.68	354.17	9.52	-39.8	-54.5	3.8	1.49e+00	0	54	104	0	50	20311
2026-01-09 01:50:30.68	354.03	9.57	-39.7	-54.3	3.8	1.49e+00	0	54	104	0	50	20014
2026-01-09 01:50:31.69	353.89	9.63	-39.8	-54.4	3.8	1.49e+00	0	54	104	0	50	20241
2026-01-09 01:50:32.70	353.75	9.68	-39.7	-54.4	3.8	1.49e+00	0	54	104	0	50	20081
2026-01-09 01:50:33.71	353.61	9.73	-39.7	-54.4	3.8	1.49e+00	0	54	104	0	50	20147
2026-01-09 01:50:34.72	353.47	9.79	-39.9	-54.5	3.8	1.49e+00	0	54	104	0	50	20498
2026-01-09 01:50:35.74	353.33	9.84	-39.8	-54.5	3.8	1.49e+00	0	54	104	0	50	20355
2026-01-09 01:50:36.75	353.19	9.90	-40.0	-54.6	3.8	1.49e+00	0	54	104	0	50	20704
2026-01-09 01:50:37.75	353.05	9.95	-40.2	-54.9	3.8	1.49e+00	0	54	104	0	51	20203
2026-01-09 01:50:38.76	352.91	10.00	-39.9	-54.5	3.8	1.49e+00	0	54	104	0	51	19356
2026-01-09 01:50:39.77	352.77	10.06	-40.2	-54.9	3.8	1.49e+00	0	54	104	0	51	20151
2026-01-09 01:50:40.78	352.62	10.11	-40.0	-54.7	3.8	1.49e+00	0	54	104	0	51	19615
2026-01-09 01:50:41.79	352.48	10.16	-39.8	-54.6	3.8	1.49e+00	0	54	104	0	51	19594
2026-01-09 01:50:42.80	352.33	10.22	-40.2	-54.8	3.8	1.49e+00	0	54	104	0	51	20006
2026-01-09 01:50:43.81	352.19	10.27	-39.8	-54.7	3.8	1.49e+00	0	54	104	0	51	19713
2026-01-09 01:50:44.82	352.04	10.32	-40.1	-54.8	3.8	1.49e+00	0	54	104	0	51	19879
2026-01-09 01:50:45.83	351.90	10.38	-40.1	-54.8	3.8	1.49e+00	0	54	104	0	51	19909
2026-01-09 01:50:46.84	351.75	10.43	-40.2	-54.9	3.8	1.49e+00	0	54	104	0	51	20105
2026-01-09 01:50:47.85	351.60	10.48	-40.1	-54.7	3.8	1.49e+00	0	54	104	0	51	19832
2026-01-09 01:50:48.86	351.46	10.54	-40.1	-54.8	3.8	1.49e+00	0	54	104	0	51	19996
2026-01-09 01:50:49.87	351.31	10.59	-40.0	-54.7	3.8	1.49e+00	0	54	104	0	51	19796
2026-01-09 01:50:50.87	351.16	10.64	-40.4	-55.0	3.8	1.49e+00	0	54	104	0	51	20461
2026-01-09 01:50:51.88	351.01	10.69	-40.1	-54.8	3.8	1.49e+00	0	54	104	0	51	19961
2026-01-09 01:50:52.89	350.86	10.75	-40.6	-55.2	3.8	1.49e+00	0	54	104	0	51	20819
2026-01-09 01:50:53.90	350.71	10.80	-40.1	-54.7	3.8	1.49e+00	0	54	104	0	51	19803
2026-01-09 01:50:54.91	350.56	10.85	-40.1	-54.7	3.8	1.49e+00	0	54	104	0	51	19766
2026-01-09 01:50:55.92	350.41	10.91	-40.2	-54.8	3.8	1.49e+00	0	54	104	0	51	19909
2026-01-09 01:50:56.93	350.26	10.96	-40.1	-54.8	3.8	1.49e+00	0	54	104	0	51	19916
2026-01-09 01:50:57.94	350.11	11.01	-40.6	-55.2	3.8	1.49e+00	0	54	104	0	51	20920
2026-01-09 01:50:58.95	349.95	11.06	-40.3	-54.9	3.8	1.49e+00	0	54	104	0	51	20110
2026-01-09 01:50:59.96	349.80	11.11	-40.4	-55.1	3.8	1.49e+00	0	54	104	0	51	20551
2026-01-09 01:51:00.97	349.64	11.17	-40.2	-54.8	3.8	1.49e+00	0	54	104	0	51	19936
2026-01-09 01:51:01.98	349.49	11.22	-40.6	-55.2	3.8	1.49e+00	0	54	104	0	51	21001
2026-01-09 01:51:02.99	349.33	11.27	-40.1	-54.8	3.8	1.49e+00	0	54	104	0	51	19860
2026-01-09 01:51:04.00	349.18	11.32	-40.7	-55.4	3.8	1.49e+00	0	54	104	0	51	21369
2026-01-09 01:51:05.00	349.02	11.37	-40.2	-54.8	3.8	1.49e+00	0	54	104	0	51	19905
2026-01-09 01:51:06.01	348.87	11.43	-40.2	-55.0	3.8	1.49e+00	0	54	104	0	51	20324
2026-01-09 01:51:07.02	348.71	11.48	-40.3	-54.9	3.8	1.49e+00	0	54	104	0	51	20179
2026-01-09 01:51:08.03	348.55	11.53	-40.3	-54.8	3.8	1.49e+00	0	54	104	0	51	20040
2026-01-09 01:51:09.04	348.39	11.58	-40.4	-55.0	3.8	1.49e+00	0	54	104	0	51	20445
2026-01-09 01:51:10.05	348.23	11.63	-40.5	-55.1	3.8	1.49e+00	0	54	104	0	51	20666
2026-01-09 01:51:11.06	348.07	11.68	-40.4	-55.2	3.8	1.49e+00	0	54	104	0	51	20992
2026-01-09 01:51:12.07	347.91	11.73	-40.6	-55.3	3.8	1.49e+00	0	55	104	0	51	21109
2026-01-09 01:51:13.08	347.75	11.78	-40.7	-55.3	3.8	1.49e+00	0	55	104	0	52	20016
2026-01-09 01:51:14.09	347.59	11.83	-40.8	-55.4	3.8	1.49e+00	0	55	104	0	52	20198
2026-01-09 01:51:15.10	347.43	11.89	-40.7	-55.3	3.8	1.49e+00	0	55	104	0	52	19923
2026-01-09 01:51:16.11	347.26	11.94	-40.7	-55.4	3.8	1.49e+00	0	55	104	0	52	20290
2026-01-09 01:51:17.12	347.10	11.99	-40.7	-55.3	3.8	1.49e+00	0	55	104	0	52	20037
2026-01-09 01:51:18.13	346.94	12.04	-40.7	-55.3	3.8	1.49e+00	0	55	104	0	52	19950
2026-01-09 01:51:19.14	346.77	12.09	-40.7	-55.3	3.8	1.49e+00	0	55	104	0	52	20008
2026-01-09 01:51:20.14	346.61	12.14	-40.4	-55.2	3.8	1.49e+00	0	55	104	0	52	19665
2026-01-09 01:51:21.15	346.44	12.19	-40.7	-55.3	3.8	1.49e+00	0	55	104	0	52	20038
2026-01-09 01:51:22.17	346.27	12.24	-40.8	-55.5	3.8	1.49e+00	0	55	104	0	52	20449
2026-01-09 01:51:23.17	346.11	12.29	-40.5	-55.1	3.8	1.49e+00	0	55	104	0	52	19550
2026-01-09 01:51:24.18	345.94	12.34	-40.7	-55.4	3.8	1.49e+00	0	55	104	0	52	20178
2026-01-09 01:51:25.19	345.77	12.38	-40.3	-55.0	3.8	1.49e+00	0	54	104	0	52	19187
2026-01-09 01:51:26.20	345.61	12.43	-40.1	-54.8	3.8	1.49e+00	0	55	104	0	52	18857
2026-01-09 01:51:27.21	345.44	12.48	-40.5	-55.2	3.8	1.49e+00	0	55	104	0	52	19763
2026-01-09 01:51:28.22	345.27	12.53	-40.2	-54.9	3.8	1.49e+00	0	55	104	0	52	19010
2026-01-09 01:51:29.23	345.10	12.58	-40.3	-55.0	3.8	1.49e+00	0	55	104	0	52	19357
2026-01-09 01:51:30.24	344.93	12.63	-40.3	-55.0	3.8	1.49e+00	0	55	104	0	52	19249
2026-01-09 01:51:31.25	344.75	12.68	-40.4	-55.0	3.8	1.49e+00	0	55	104	0	52	19351
2026-01-09 01:51:32.26	344.58	12.73	-40.5	-55.1	3.8	1.49e+00	0	55	104	0	52	19480
2026-01-09 01:51:33.26	344.41	12.77	-40.6	-55.2	3.8	1.49e+00	0	55	104	0	52	19736
2026-01-09 01:51:34.27	344.24	12.82	-40.3	-54.9	3.8	1.49e+00	0	55	104	0	52	19044
2026-01-09 01:51:35.29	344.06	12.87	-40.2	-54.9	3.8	1.49e+00	0	55	104	0	52	19008
2026-01-09 01:51:36.30	343.89	12.92	-40.2	-54.9	3.8	1.49e+00	0	55	104	0	52	18951
2026-01-09 01:51:37.31	343.71	12.96	-40.3	-55.0	3.8	1.49e+00	0	55	104	0	52	19208
2026-01-09 01:51:38.32	343.54	13.01	-40.4	-55.1	3.8	1.49e+00	0	55	104	0	52	19397
2026-01-09 01:51:39.33	343.36	13.06	-40.2	-54.8	3.8	1.49e+00	0	55	104	0	52	18885
2026-01-09 01:51:40.34	343.19	13.11	-40.3	-55.0	3.8	1.49e+00	0	55	104	0	52	19206
2026-01-09 01:51:41.35	343.01	13.15	-40.3	-54.9	3.8	1.49e+00	0	55	104	0	52	19033
2026-01-09 01:51:42.36	342.83	13.20	-40.3	-55.0	3.8	1.49e+00	0	55	104	0	52	19248
2026-01-09 01:51:43.37	342.65	13.25	-40.2	-54.9	3.8	1.49e+00	0	55	104	0	52	18963
2026-01-09 01:51:44.37	342.48	13.29	-40.2	-55.0	3.8	1.49e+00	0	55	104	0	51	20366
2026-01-09 01:51:45.38	342.30	13.34	-40.4	-55.0	3.8	1.49e+00	0	55	104	0	51	20377
2026-01-09 01:51:46.39	342.12	13.38	-40.5	-55.1	3.8	1.49e+00	0	55	104	0	51	20745
2026-01-09 01:51:47.40	341.94	13.43	-39.9	-54.8	3.8	1.49e+00	0	55	104	0	51	20055
2026-01-09 01:51:48.41	341.76	13.47	-40.1	-54.9	3.8	1.49e+00	0	55	104	0	51	20222
2026-01-09 01:51:49.42	341.57	13.52	-39.9	-54.7	3.8	1.49e+00	0	55	104	0	51	19702
2026-01-09 01:51:50.43	341.39	13.56	-39.7	-54.7	3.8	1.49e+00	0	55	104	0	51	19760
2026-01-09 01:51:51.44	341.21	13.61	-39.8	-54.7	3.8	1.49e+00	0	55	104	0	51	19765
2026-01-09 01:51:52.45	341.03	13.65	-39.7	-54.7	3.8	1.49e+00	0	55	104	0	51	19817
2026-01-09 01:51:53.46	340.84	13.70	-39.8	-54.8	3.8	1.49e+00	0	55	104	0	51	19891
2026-01-09 01:51:54.47	340.66	13.74	-39.9	-54.8	3.8	1.49e+00	0	55	104	0	51	20071
2026-01-09 01:51:55.48	340.47	13.79	-39.9	-54.7	3.8	1.49e+00	0	55	104	0	51	19811
2026-01-09 01:51:56.49	340.29	13.83	-40.1	-54.8	3.8	1.49e+00	0	55	104	0	51	20064
2026-01-09 01:51:57.50	340.10	13.87	-40.3	-54.5	3.8	1.49e+00	0	55	104	0	51	19334
2026-01-09 01:51:58.51	339.91	13.92	-40.3	-54.2	3.8	1.48e+00	0	55	104	0	52	17574
2026-01-09 01:51:59.52	339.73	13.96	-40.3	-54.3	3.8	1.49e+00	0	55	104	0	51	18740
2026-01-09 01:52:00.53	339.54	14.00	-41.0	-50.0	5.4	6.37e-01	0	55	0	0	52	10875
2026-01-09 01:52:01.54	339.35	14.04	-41.0	-48.5	6.7	2.86e-01	0	55	0	2097152	52	9103
2026-01-09 01:52:02.55	339.16	14.09	-40.7	-46.8	8.5	9.28e-02	0	55	0	4194304	52	7534
2026-01-09 01:52:03.56	338.97	14.13	-40.3	-45.3	10.3	2.20e-02	0	55	0	5242880	52	6346
2026-01-09 01:52:04.57	338.78	14.17	-40.0	-44.2	11.6	1.34e-03	0	55	0	7340032	52	5583
2026-01-09 01:52:05.57	338.59	14.21	-39.8	-43.6	12.5	2.21e-04	0	55	0	9437184	51	5501
2026-01-09 01:52:06.58	338.40	14.25	-39.8	-43.4	12.9	7.40e-05	0	55	0	11534336	51	5382
2026-01-09 01:52:07.59	338.21	14.30	-40.0	-43.7	12.8	5.11e-05	0	55	0	12582912	51	5532
2026-01-09 01:52:08.60	338.02	14.34	-40.2	-44.1	12.4	9.53e-05	0	55	0	14680064	51	5833
2026-01-09 01:52:09.61	337.83	14.38	-40.3	-44.1	12.4	1.45e-04	0	55	0	16777216	51	5855
2026-01-09 01:52:10.62	337.63	14.42	-40.4	-44.2	12.4	1.30e-04	0	55	0	18874368	51	5890
2026-01-09 01:52:11.63	337.44	14.46	-40.4	-44.0	12.6	1.25e-04	0	55	0	20971520	51	5774
2026-01-09 01:52:12.64	337.24	14.50	-40.1	-43.4	13.4	3.50e-05	0	55	0	22020096	51	5373
2026-01-09 01:52:13.65	337.05	14.54	-40.3	-43.5	13.4	1.06e-05	0	55	0	24117248	51	5464
2026-01-09 01:52:14.66	336.85	14.58	-40.6	-44.1	13.0	3.05e-05	0	55	0	26214400	51	5790
2026-01-09 01:52:15.67	336.66	14.61	-40.4	-43.6	13.5	2.05e-05	0	55	0	28311552	51	5479
2026-01-09 01:52:16.68	336.46	14.65	-40.4	-43.5	13.6	6.80e-06	0	55	0	30408704	51	5443
2026-01-09 01:52:17.69	336.27	14.69	-40.4	-43.5	13.6	7.60e-06	0	55	0	32505856	51	5434
2026-01-09 01:52:18.69	336.07	14.73	-40.2	-43.2	14.1	5.30e-06	0	55	0	33554432	51	5244
2026-01-09 01:52:19.70	335.87	14.77	-40.1	-43.1	14.2	1.50e-06	0	55	0	35651584	51	5173
2026-01-09 01:52:20.71	335.67	14.81	-40.1	-43.0	14.2	2.20e-06	0	55	0	37748736	51	5146
2026-01-09 01:52:21.72	335.47	14.84	-40.1	-42.9	14.3	1.50e-06	0	55	0	39845888	51	5095
2026-01-09 01:52:22.73	335.28	14.88	-40.1	-42.9	14.4	0.00e+00	0	55	0	41943040	51	5084
2026-01-09 01:52:23.74	335.08	14.92	-40.0	-42.8	14.5	1.50e-06	0	55	0	42991616	51	5040
2026-01-09 01:52:24.75	334.87	14.95	-40.0	-42.9	14.5	0.00e+00	0	55	0	45088768	51	5048
2026-01-09 01:52:25.76	334.67	14.99	-40.1	-42.9	14.4	0.00e+00	0	55	0	47185920	51	5083
2026-01-09 01:52:26.77	334.47	15.03	-39.9	-42.7	14.7	0.00e+00	0	55	0	49283072	51	4939
2026-01-09 01:52:27.78	334.27	15.06	-39.9	-42.6	14.7	7.00e-07	0	55	0	51380224	51	4896
2026-01-09 01:52:28.79	334.07	15.10	-39.9	-42.6	14.8	0.00e+00	0	55	0	52428800	51	4898
2026-01-09 01:52:29.80	333.86	15.13	-39.8	-42.5	14.9	0.00e+00	0	55	0	54525952	51	4825
2026-01-09 01:52:30.81	333.66	15.17	-39.7	-42.3	15.0	0.00e+00	0	55	0	56623104	51	4759
2026-01-09 01:52:31.82	333.46	15.20	-39.6	-42.2	15.2	0.00e+00	0	55	0	58720256	51	4681
2026-01-09 01:52:32.82	333.25	15.23	-39.7	-42.3	15.1	0.00e+00	0	55	0	60817408	51	4728
2026-01-09 01:52:33.83	333.05	15.27	-39.7	-42.3	15.1	0.00e+00	0	55	0	61865984	51	4759
2026-01-09 01:52:34.84	332.84	15.30	-39.7	-42.3	15.1	0.00e+00	0	55	0	63963136	51	4754
2026-01-09 01:52:35.85	332.64	15.33	-39.7	-42.4	15.0	0.00e+00	0	55	0	66060288	51	4773
2026-01-09 01:52:36.86	332.43	15.37	-39.8	-42.4	15.0	0.00e+00	0	55	0	68157440	51	4783
2026-01-09 01:52:37.87	332.23	15.40	-39.7	-42.3	15.1	0.00e+00	0	55	0	70254592	51	4752
2026-01-09 01:52:38.88	332.02	15.43	-39.7	-42.3	15.1	0.00e+00	0	55	0	71303168	51	4747
2026-01-09 01:52:39.89	331.81	15.46	-39.6	-42.2	15.2	7.00e-07	0	56	0	73400320	51	4680
2026-01-09 01:52:40.90	331.60	15.49	-39.6	-42.1	15.3	0.00e+00	0	55	0	75497472	51	4625
2026-01-09 01:52:41.91	331.39	15.53	-39.5	-42.0	15.5	0.00e+00	0	56	0	77594624	51	4574
2026-01-09 01:52:42.92	331.19	15.56	-39.5	-42.0	15.5	0.00e+00	0	55	0	79691776	51	4571
2026-01-09 01:52:43.93	330.98	15.59	-39.6	-42.1	15.4	0.00e+00	0	55	0	80740352	51	4617
2026-01-09 01:52:44.94	330.77	15.62	-39.6	-42.2	15.3	0.00e+00	0	55	0	82837504	51	4656
2026-01-09 01:52:45.95	330.56	15.65	-39.7	-42.2	15.2	0.00e+00	0	55	0	84934656	51	4698
2026-01-09 01:52:46.96	330.35	15.68	-39.7	-42.2	15.2	0.00e+00	0	55	0	87031808	51	4693
2026-01-09 01:52:47.97	330.13	15.70	-39.7	-42.2	15.2	0.00e+00	0	56	0	89128960	51	4694
2026-01-09 01:52:48.98	329.92	15.73	-39.6	-42.2	15.3	0.00e+00	0	55	0	90177536	51	4655
2026-01-09 01:52:49.98	329.71	15.76	-39.6	-42.1	15.4	0.00e+00	0	55	0	92274688	51	4644
2026-01-09 01:52:50.99	329.50	15.79	-39.6	-42.2	15.3	0.00e+00	0	55	0	94371840	51	4679
2026-01-09 01:52:52.00	329.29	15.82	-39.7	-42.3	15.2	0.00e+00	0	56	0	96468992	51	4744
2026-01-09 01:52:53.01	329.07	15.84	-39.8	-42.5	15.1	0.00e+00	0	56	0	98566144	51	4819
2026-01-09 01:52:54.02	328.86	15.87	-39.8	-42.4	15.1	7.00e-07	0	56	0	100663296	51	4797
2026-01-09 01:52:55.03	328.65	15.90	-39.9	-42.5	15.0	0.00e+00	0	55	0	101711872	51	4847
2026-01-09 01:52:56.04	328.43	15.92	-39.9	-42.6	15.0	0.00e+00	0	56	0	103809024	51	4876
2026-01-09 01:52:57.05	328.22	15.95	-39.9	-42.5	15.0	0.00e+00	0	55	0	105906176	51	4838
2026-01-09 01:52:58.06	328.00	15.97	-39.8	-42.5	15.0	7.00e-07	0	56	0	108003328	51	4834
2026-01-09 01:52:59.07	327.79	16.00	-39.8	-42.5	15.0	0.00e+00	0	55	0	110100480	51	4835
2026-01-09 01:53:00.08	327.57	16.02	-39.8	-42.5	15.1	0.00e+00	0	55	0	111149056	51	4819
2026-01-09 01:53:01.08	327.36	16.05	-39.8	-42.5	15.1	0.00e+00	0	55	0	113246208	51	4823
2026-01-09 01:53:02.09	327.14	16.07	-39.8	-42.4	15.1	0.00e+00	0	56	0	115343360	51	4783
2026-01-09 01:53:03.10	326.93	16.09	-39.9	-42.5	15.1	0.00e+00	0	56	0	117440512	51	4840
2026-01-09 01:53:04.11	326.71	16.12	-39.9	-42.5	14.9	0.00e+00	0	56	0	119537664	51	4843
2026-01-09 01:53:05.12	326.49	16.14	-39.9	-42.6	14.9	0.00e+00	0	56	0	120586240	51	4902
2026-01-09 01:53:06.13	326.27	16.16	-40.0	-42.7	14.8	0.00e+00	0	56	0	122683392	51	4935
2026-01-09 01:53:07.14	326.05	16.18	-39.9	-42.5	14.9	0.00e+00	0	56	0	124780544	51	4864
2026-01-09 01:53:08.15	325.84	16.20	-39.9	-42.6	14.9	0.00e+00	0	56	0	126877696	51	4915
2026-01-09 01:53:09.16	325.62	16.23	-40.0	-42.7	14.8	0.00e+00	0	56	0	128974848	51	4939
2026-01-09 01:53:10.17	325.40	16.25	-40.0	-42.7	14.8	0.00e+00	0	56	0	130023424	51	4962
2026-01-09 01:53:11.18	325.18	16.27	-40.0	-42.7	14.8	0.00e+00	0	56	0	132120576	51	4980
2026-01-09 01:53:12.19	324.96	16.29	-40.1	-42.8	14.6	7.00e-07	0	56	0	134217728	51	5040
2026-01-09 01:53:13.20	324.74	16.30	-40.2	-42.9	14.5	7.00e-07	0	56	0	136314880	51	5089
2026-01-09 01:53:14.21	324.52	16.32	-40.2	-43.0	14.4	7.00e-07	0	56	0	138412032	51	5147
2026-01-09 01:53:15.22	324.30	16.34	-40.3	-43.2	14.3	0.00e+00	0	56	0	139460608	51	5275
2026-01-09 01:53:16.23	324.08	16.36	-40.3	-43.2	14.2	2.20e-06	0	56	0	141557760	51	5257
2026-01-09 01:53:17.24	323.86	16.38	-40.3	-43.2	14.3	0.00e+00	0	56	0	143654912	51	5263
2026-01-09 01:53:18.25	323.64	16.40	-40.4	-43.3	14.2	1.50e-06	0	56	0	145752064	51	5318
2026-01-09 01:53:19.26	323.41	16.41	-40.3	-43.2	14.3	0.00e+00	0	56	0	147849216	51	5236
2026-01-09 01:53:20.27	323.19	16.43	-40.1	-42.9	14.5	7.00e-07	0	56	0	148897792	51	5087
2026-01-09 01:53:21.27	322.97	16.44	-40.1	-42.9	14.6	0.00e+00	0	56	0	150994944	51	5058
2026-01-09 01:53:22.28	322.75	16.46	-40.0	-42.7	14.8	7.00e-07	0	56	0	153092096	51	4954
2026-01-09 01:53:23.29	322.53	16.47	-39.9	-42.6	14.9	0.00e+00	0	56	0	155189248	51	4891
2026-01-09 01:53:24.30	322.30	16.49	-40.0	-42.6	14.9	0.00e+00	0	56	0	157286400	51	4911
2026-01-09 01:53:25.31	322.08	16.50	-39.9	-42.6	14.9	7.00e-07	0	56	0	158334976	51	4884
2026-01-09 01:53:26.32	321.86	16.52	-40.0	-42.7	14.8	0.00e+00	0	56	0	160432128	51	4933
2026-01-09 01:53:27.33	321.63	16.53	-40.0	-42.7	14.8	0.00e+00	0	56	0	162529280	51	4969
2026-01-09 01:53:28.34	321.41	16.54	-40.1	-42.8	14.7	1.50e-06	0	56	0	164626432	51	5010
2026-01-09 01:53:29.35	321.19	16.56	-40.1	-42.8	14.7	0.00e+00	0	56	0	166723584	51	5041
2026-01-09 01:53:30.36	320.96	16.57	-40.2	-43.0	14.5	0.00e+00	0	56	0	168820736	51	5117
2026-01-09 01:53:31.37	320.74	16.58	-40.3	-43.2	14.3	7.00e-07	0	56	0	169869312	51	5253
2026-01-09 01:53:32.38	320.51	16.59	-40.3	-43.2	14.3	0.00e+00	0	56	0	171966464	51	5260
2026-01-09 01:53:33.39	320.29	16.60	-40.3	-43.2	14.2	7.00e-07	0	56	0	174063616	51	5267
2026-01-09 01:53:34.40	320.07	16.61	-40.3	-43.2	14.3	1.50e-06	0	56	0	176160768	51	5234
2026-01-09 01:53:35.41	319.84	16.62	-40.3	-43.2	14.2	1.50e-06	0	56	0	178257920	51	5276
2026-01-09 01:53:36.42	319.62	16.63	-40.4	-43.3	14.2	1.50e-06	0	56	0	179306496	51	5310
2026-01-09 01:53:37.43	319.39	16.64	-40.4	-43.3	14.2	7.00e-07	0	56	0	181403648	51	5321
2026-01-09 01:53:38.44	319.16	16.65	-40.4	-43.4	14.1	3.00e-06	0	56	0	183500800	51	5346
2026-01-09 01:53:39.44	318.94	16.66	-40.4	-43.3	14.2	3.00e-06	0	56	0	185597952	51	5335
2026-01-09 01:53:40.45	318.72	16.66	-40.5	-43.4	14.1	1.50e-06	0	56	0	187695104	51	5383
2026-01-09 01:53:41.46	318.49	16.67	-40.4	-43.4	14.1	1.50e-06	0	56	0	188743680	51	5392
2026-01-09 01:53:42.47	318.26	16.68	-40.5	-43.4	14.0	1.50e-06	0	56	0	190840832	51	5401
2026-01-09 01:53:43.48	318.04	16.68	-40.5	-43.5	14.0	7.00e-07	0	56	0	192937984	51	5444
2026-01-09 01:53:44.49	317.81	16.69	-40.5	-43.5	14.0	1.50e-06	0	56	0	195035136	51	5439
2026-01-09 01:53:45.50	317.59	16.69	-40.5	-43.5	14.0	1.50e-06	0	56	0	197132288	51	5432
2026-01-09 01:53:46.51	317.36	16.70	-40.4	-43.4	14.1	0.00e+00	0	56	0	198180864	51	5381
2026-01-09 01:53:47.52	317.13	16.70	-40.3	-43.2	14.3	7.00e-07	0	56	0	200278016	51	5266
2026-01-09 01:53:48.53	316.91	16.71	-40.3	-43.1	14.4	7.00e-07	0	56	0	202375168	51	5198
2026-01-09 01:53:49.54	316.68	16.71	-40.2	-43.0	14.5	7.00e-07	0	56	0	204472320	51	5146
2026-01-09 01:53:50.55	316.46	16.71	-40.2	-43.1	14.4	0.00e+00	0	56	0	206569472	51	5176
2026-01-09 01:53:51.56	316.23	16.72	-40.3	-43.1	14.4	0.00e+00	0	56	0	207618048	51	5203
2026-01-09 01:53:52.57	316.00	16.72	-40.3	-43.1	14.4	3.00e-06	0	56	0	209715200	51	5208
2026-01-09 01:53:53.58	315.78	16.72	-40.3	-43.2	14.3	0.00e+00	0	56	0	211812352	51	5247
2026-01-09 01:53:54.58	315.55	16.72	-40.3	-43.2	14.3	1.50e-06	0	56	0	213909504	51	5265
2026-01-09 01:53:55.59	315.33	16.72	-40.4	-43.3	14.2	3.80e-06	0	56	0	216006656	51	5304
2026-01-09 01:53:56.60	315.10	16.72	-40.4	-43.4	14.1	1.50e-06	0	56	0	217055232	51	5365
2026-01-09 01:53:57.61	314.87	16.72	-40.4	-43.4	14.1	1.50e-06	0	56	0	219152384	51	5348
2026-01-09 01:53:58.62	314.65	16.72	-40.4	-43.3	14.3	7.00e-07	0	56	0	221249536	51	5294
2026-01-09 01:53:59.63	314.42	16.72	-40.3	-43.2	14.3	7.00e-07	0	56	0	223346688	51	5260
2026-01-09 01:54:00.64	314.19	16.72	-40.4	-43.3	14.2	7.00e-07	0	56	0	225443840	51	5314
2026-01-09 01:54:01.65	313.97	16.72	-40.5	-43.4	14.1	2.20e-06	0	56	0	226492416	51	5376
2026-01-09 01:54:02.66	313.74	16.72	-40.5	-43.5	14.0	1.50e-06	0	56	0	228589568	51	5440
2026-01-09 01:54:03.66	313.52	16.71	-40.6	-43.6	13.9	1.50e-06	0	56	0	230686720	51	5505
2026-01-09 01:54:04.67	313.29	16.71	-40.6	-43.7	13.8	1.50e-06	0	56	0	232783872	51	5566
2026-01-09 01:54:05.68	313.06	16.71	-40.6	-43.6	13.9	6.80e-06	0	56	0	234881024	51	5501
2026-01-09 01:54:06.69	312.84	16.70	-40.5	-43.5	14.0	3.00e-06	0	56	0	235929600	51	5456
2026-01-09 01:54:07.70	312.61	16.70	-40.5	-43.5	14.0	7.00e-07	0	56	0	238026752	51	5413
2026-01-09 01:54:08.72	312.38	16.69	-40.3	-43.2	14.3	7.00e-07	0	56	0	240123904	51	5256
2026-01-09 01:54:09.73	312.16	16.69	-40.3	-43.1	14.4	7.00e-07	0	56	0	242221056	51	5208
2026-01-09 01:54:10.74	311.93	16.68	-40.3	-43.1	14.3	7.00e-07	0	56	0	244318208	51	5187
2026-01-09 01:54:11.74	311.71	16.67	-40.3	-43.2	14.3	1.50e-06	0	56	0	245366784	51	5272
2026-01-09 01:54:12.75	311.48	16.67	-40.3	-43.2	14.4	7.00e-07	0	56	0	247463936	51	5220
2026-01-09 01:54:13.76	311.25	16.66	-40.4	-43.3	14.2	0.00e+00	0	56	0	249561088	51	5306
2026-01-09 01:54:14.77	311.03	16.65	-40.4	-43.4	14.1	3.00e-06	0	56	0	251658240	51	5365
2026-01-09 01:54:15.78	310.80	16.64	-40.4	-43.3	14.2	1.50e-06	0	56	0	253755392	51	5300
2026-01-09 01:54:16.79	310.58	16.63	-40.3	-43.2	14.4	0.00e+00	0	56	0	254803968	51	5225
2026-01-09 01:54:17.80	310.35	16.63	-40.3	-43.2	14.4	7.00e-07	0	56	0	256901120	51	5220
2026-01-09 01:54:18.81	310.13	16.62	-40.3	-43.2	14.3	0.00e+00	0	56	0	258998272	51	5231
2026-01-09 01:54:19.82	309.90	16.61	-40.2	-43.0	14.5	0.00e+00	0	56	0	261095424	51	5139
2026-01-09 01:54:20.83	309.68	16.60	-40.2	-43.0	14.5	7.00e-07	0	56	0	263192576	51	5120
2026-01-09 01:54:21.83	309.46	16.58	-40.2	-43.0	14.5	7.00e-07	0	56	0	265289728	51	5138
2026-01-09 01:54:22.84	309.23	16.57	-40.2	-43.0	14.5	7.00e-07	0	56	0	266338304	51	5122
2026-01-09 01:54:23.85	309.01	16.56	-40.2	-43.1	14.4	7.00e-07	0	56	0	268435456	51	5167
2026-01-09 01:54:24.86	308.78	16.55	-40.3	-43.1	14.4	1.50e-06	0	56	0	270532608	51	5198
2026-01-09 01:54:25.87	308.56	16.54	-40.3	-43.1	14.3	7.00e-07	0	56	0	272629760	51	5206
2026-01-09 01:54:26.88	308.33	16.52	-40.2	-43.1	14.4	1.50e-06	0	56	0	274726912	51	5184
2026-01-09 01:54:27.89	308.11	16.51	-40.3	-43.2	14.3	1.50e-06	0	56	0	275775488	51	5244
2026-01-09 01:54:28.90	307.89	16.50	-40.2	-43.1	14.4	2.20e-06	0	56	0	277872640	51	5167
2026-01-09 01:54:29.91	307.66	16.48	-40.2	-43.0	14.5	0.00e+00	0	56	0	279969792	51	5135
2026-01-09 01:54:30.92	307.44	16.47	-40.2	-43.1	14.4	7.00e-07	0	56	0	282066944	51	5175
2026-01-09 01:54:31.93	307.22	16.45	-40.3	-43.2	14.2	7.00e-07	0	56	0	284164096	51	5273
2026-01-09 01:54:32.94	307.00	16.44	-40.2	-43.1	14.4	3.00e-06	0	56	0	285212672	51	5192
2026-01-09 01:54:33.95	306.77	16.42	-40.2	-43.0	14.4	0.00e+00	0	56	0	287309824	51	5148
2026-01-09 01:54:34.96	306.55	16.40	-40.1	-42.9	14.6	0.00e+00	0	56	0	289406976	51	5093
2026-01-09 01:54:35.97	306.33	16.39	-40.1	-42.8	14.7	0.00e+00	0	56	0	291504128	51	5010
2026-01-09 01:54:36.98	306.11	16.37	-40.0	-42.7	14.8	0.00e+00	0	56	0	293601280	51	4974
2026-01-09 01:54:37.99	305.89	16.35	-40.0	-42.7	14.8	0.00e+00	0	56	0	294649856	51	4933
2026-01-09 01:54:38.99	305.67	16.33	-39.9	-42.5	14.9	7.00e-07	0	56	0	296747008	51	4855
2026-01-09 01:54:40.00	305.45	16.31	-39.8	-42.5	15.0	0.00e+00	0	56	0	298844160	51	4822
2026-01-09 01:54:41.01	305.23	16.29	-39.8	-42.5	15.0	0.00e+00	0	56	0	300941312	51	4825
2026-01-09 01:54:42.02	305.01	16.27	-39.8	-42.4	15.0	0.00e+00	0	56	0	303038464	51	4811
2026-01-09 01:54:43.03	304.79	16.25	-39.8	-42.4	15.1	7.00e-07	0	56	0	304087040	51	4780
2026-01-09 01:54:44.04	304.57	16.23	-39.8	-42.5	15.0	0.00e+00	0	56	0	306184192	51	4830
2026-01-09 01:54:45.05	304.35	16.21	-39.8	-42.4	15.0	0.00e+00	0	56	0	308281344	51	4792
2026-01-09 01:54:46.06	304.13	16.19	-39.8	-42.5	15.0	0.00e+00	0	56	0	310378496	51	4831
2026-01-09 01:54:47.07	303.91	16.17	-39.8	-42.4	15.1	0.00e+00	0	56	0	312475648	51	4765
2026-01-09 01:54:48.08	303.69	16.15	-39.8	-42.4	15.1	7.00e-07	0	56	0	313524224	51	4770
2026-01-09 01:54:49.09	303.48	16.13	-39.7	-42.3	15.2	0.00e+00	0	56	0	315621376	51	4734
2026-01-09 01:54:50.10	303.26	16.10	-39.7	-42.2	15.2	0.00e+00	0	56	0	317718528	51	4700
2026-01-09 01:54:51.11	303.04	16.08	-39.7	-42.3	15.1	0.00e+00	0	56	0	319815680	51	4727
2026-01-09 01:54:52.12	302.82	16.06	-39.8	-42.4	15.1	0.00e+00	0	56	0	321912832	51	4781
2026-01-09 01:54:53.13	302.61	16.03	-39.8	-42.4	15.0	0.00e+00	0	56	0	322961408	51	4793
2026-01-09 01:54:54.13	302.39	16.01	-39.9	-42.5	14.9	0.00e+00	0	56	0	325058560	51	4846
2026-01-09 01:54:55.14	302.18	15.98	-39.8	-42.5	15.0	0.00e+00	0	56	0	327155712	51	4832
2026-01-09 01:54:56.15	301.96	15.96	-39.8	-42.5	14.9	0.00e+00	0	56	0	329252864	51	4830
2026-01-09 01:54:57.16	301.75	15.93	-39.8	-42.4	15.0	0.00e+00	0	56	0	331350016	51	4794
2026-01-09 01:54:58.17	301.53	15.91	-39.8	-42.4	15.0	7.00e-07	0	56	0	333447168	51	4809
2026-01-09 01:54:59.18	301.32	15.88	-39.9	-42.5	14.9	0.00e+00	0	56	0	334495744	51	4845
2026-01-09 01:55:00.19	301.10	15.86	-39.9	-42.6	14.8	0.00e+00	0	56	0	336592896	51	4912
2026-01-09 01:55:01.20	300.89	15.83	-40.0	-42.7	14.7	0.00e+00	0	56	0	338690048	51	4958
2026-01-09 01:55:02.21	300.68	15.80	-40.0	-42.8	14.6	7.00e-07	0	56	0	340787200	51	5004
2026-01-09 01:55:03.22	300.46	15.77	-40.0	-42.8	14.6	0.00e+00	0	56	0	342884352	51	5030
2026-01-09 01:55:04.23	300.25	15.74	-40.1	-42.9	14.6	7.00e-07	0	56	0	343932928	51	5081
2026-01-09 01:55:05.23	300.04	15.72	-40.1	-42.9	14.5	0.00e+00	0	56	0	346030080	51	5068
2026-01-09 01:55:06.24	299.83	15.69	-40.1	-42.9	14.5	7.00e-07	0	56	0	348127232	51	5043
2026-01-09 01:55:07.25	299.62	15.66	-40.1	-42.9	14.5	0.00e+00	0	56	0	350224384	51	5073
2026-01-09 01:55:08.26	299.41	15.63	-40.1	-42.9	14.5	0.00e+00	0	56	0	352321536	51	5057
2026-01-09 01:55:09.27	299.20	15.60	-40.1	-42.9	14.5	2.20e-06	0	56	0	353370112	51	5063
2026-01-09 01:55:10.28	298.99	15.57	-40.0	-42.8	14.6	0.00e+00	0	56	0	355467264	51	5023
2026-01-09 01:55:11.29	298.78	15.54	-40.0	-42.8	14.5	1.50e-06	0	56	0	357564416	51	5041
2026-01-09 01:55:12.30	298.57	15.51	-40.0	-42.8	14.6	0.00e+00	0	56	0	359661568	51	5026
2026-01-09 01:55:13.31	298.36	15.48	-40.1	-42.9	14.4	2.20e-06	0	56	0	361758720	51	5091
2026-01-09 01:55:14.32	298.15	15.44	-40.1	-42.9	14.4	0.00e+00	0	56	0	362807296	51	5096
2026-01-09 01:55:15.33	297.94	15.41	-40.1	-42.9	14.4	7.00e-07	0	56	0	364904448	51	5080
2026-01-09 01:55:16.34	297.73	15.38	-40.1	-43.0	14.3	7.00e-07	0	56	0	367001600	51	5124
2026-01-09 01:55:17.35	297.53	15.35	-40.2	-43.1	14.3	7.00e-07	0	56	0	369098752	51	5182
2026-01-09 01:55:18.36	297.32	15.31	-40.2	-43.1	14.2	7.00e-07	0	56	0	371195904	51	5207
2026-01-09 01:55:19.37	297.11	15.28	-40.3	-43.3	14.1	7.00e-07	0	56	0	372244480	51	5302
2026-01-09 01:55:20.38	296.91	15.25	-40.4	-43.4	14.0	5.30e-06	0	56	0	374341632	51	5363
2026-01-09 01:55:21.39	296.70	15.21	-40.4	-43.4	14.0	1.50e-06	0	56	0	376438784	51	5344
2026-01-09 01:55:22.40	296.50	15.18	-40.4	-43.4	13.9	3.00e-06	0	56	0	378535936	51	5387
2026-01-09 01:55:23.40	296.30	15.15	-40.4	-43.4	13.9	3.80e-06	0	56	0	380633088	51	5355
2026-01-09 01:55:24.41	296.09	15.11	-40.3	-43.2	14.1	3.00e-06	0	56	0	381681664	51	5265
2026-01-09 01:55:25.42	295.89	15.08	-40.2	-43.1	14.2	7.00e-07	0	56	0	383778816	51	5205
2026-01-09 01:55:26.43	295.69	15.04	-40.1	-42.9	14.4	7.00e-07	0	56	0	385875968	51	5071
2026-01-09 01:55:27.44	295.48	15.00	-40.0	-42.8	14.5	0.00e+00	0	56	0	387973120	51	5034
2026-01-09 01:55:28.45	295.28	14.97	-40.0	-42.7	14.5	0.00e+00	0	56	0	390070272	51	4973
2026-01-09 01:55:29.46	295.08	14.93	-39.9	-42.7	14.6	0.00e+00	0	56	0	391118848	51	4950
2026-01-09 01:55:30.47	294.88	14.89	-39.9	-42.6	14.6	7.00e-07	0	56	0	393216000	51	4919
2026-01-09 01:55:31.48	294.68	14.86	-39.9	-42.6	14.6	7.00e-07	0	56	0	395313152	51	4920
2026-01-09 01:55:32.49	294.48	14.82	-39.9	-42.7	14.6	0.00e+00	0	56	0	397410304	51	4944
2026-01-09 01:55:33.50	294.28	14.78	-40.0	-42.8	14.5	0.00e+00	0	56	0	399507456	51	5019
2026-01-09 01:55:34.51	294.08	14.74	-40.0	-42.8	14.4	7.00e-07	0	56	0	401604608	51	5035
2026-01-09 01:55:35.52	293.88	14.71	-40.1	-42.9	14.3	2.20e-06	0	56	0	402653184	51	5091
2026-01-09 01:55:36.53	293.69	14.67	-40.1	-43.1	14.2	7.00e-07	0	56	0	404750336	51	5161
2026-01-09 01:55:37.54	293.49	14.63	-40.1	-43.1	14.2	7.00e-07	0	56	0	406847488	51	5168
2026-01-09 01:55:38.55	293.29	14.59	-40.0	-42.8	14.4	7.00e-07	0	56	0	408944640	51	5041
2026-01-09 01:55:39.56	293.10	14.55	-39.9	-42.7	14.5	0.00e+00	0	56	0	411041792	51	4944
2026-01-09 01:55:40.57	292.90	14.51	-39.8	-42.6	14.6	0.00e+00	0	56	0	412090368	51	4894
2026-01-09 01:55:41.57	292.71	14.47	-39.8	-42.5	14.7	0.00e+00	0	56	0	414187520	51	4867
2026-01-09 01:55:42.58	292.51	14.43	-39.8	-42.5	14.7	7.00e-07	0	56	0	416284672	51	4840
2026-01-09 01:55:43.59	292.32	14.39	-39.7	-42.5	14.7	0.00e+00	0	56	0	418381824	51	4826
2026-01-09 01:55:44.60	292.13	14.35	-39.8	-42.5	14.7	0.00e+00	0	56	0	420478976	51	4855
2026-01-09 01:55:45.61	291.93	14.31	-39.8	-42.6	14.6	7.00e-07	0	56	0	421527552	51	4872
2026-01-09 01:55:46.62	291.74	14.27	-39.9	-42.6	14.5	7.00e-07	0	56	0	423624704	51	4920
2026-01-09 01:55:47.63	291.55	14.23	-39.9	-42.7	14.5	0.00e+00	0	56	0	425721856	51	4931
2026-01-09 01:55:48.64	291.36	14.19	-39.9	-42.6	14.5	0.00e+00	0	56	0	427819008	51	4921
2026-01-09 01:55:49.65	291.17	14.14	-39.9	-42.7	14.4	0.00e+00	0	56	0	429916160	51	4974
2026-01-09 01:55:50.66	290.97	14.10	-39.9	-42.8	14.4	7.00e-07	0	56	0	430964736	51	5002
2026-01-09 01:55:51.67	290.79	14.06	-40.0	-42.9	14.2	0.00e+00	0	56	0	433061888	51	5098
2026-01-09 01:55:52.68	290.60	14.02	-39.9	-42.8	14.3	1.50e-06	0	56	0	435159040	51	5011
2026-01-09 01:55:53.69	290.41	13.97	-39.9	-42.7	14.5	1.50e-06	0	56	0	437256192	51	4959
2026-01-09 01:55:54.70	290.22	13.93	-39.8	-42.6	14.5	1.50e-06	0	56	0	439353344	51	4910
2026-01-09 01:55:55.71	290.03	13.89	-39.8	-42.6	14.4	7.00e-07	0	56	0	440401920	51	4916
2026-01-09 01:55:56.72	289.84	13.84	-39.8	-42.6	14.5	0.00e+00	0	56	0	442499072	51	4897
2026-01-09 01:55:57.73	289.66	13.80	-39.8	-42.6	14.5	0.00e+00	0	56	0	444596224	51	4871
2026-01-09 01:55:58.74	289.47	13.76	-39.8	-42.6	14.4	7.00e-07	0	56	0	446693376	51	4898
2026-01-09 01:55:59.74	289.29	13.71	-39.8	-42.6	14.4	7.00e-07	0	56	0	448790528	51	4905
2026-01-09 01:56:00.75	289.10	13.67	-39.8	-42.6	14.4	0.00e+00	0	56	0	449839104	51	4917
2026-01-09 01:56:01.76	288.92	13.62	-39.8	-42.6	14.4	7.00e-07	0	56	0	451936256	51	4919
2026-01-09 01:56:02.78	288.73	13.58	-39.9	-42.7	14.3	7.00e-07	0	56	0	454033408	51	4969
2026-01-09 01:56:03.78	288.55	13.53	-39.9	-42.8	14.1	3.00e-06	0	56	0	456130560	51	5039
2026-01-09 01:56:04.80	288.37	13.49	-40.0	-43.0	14.0	1.50e-06	0	56	0	458227712	51	5105
2026-01-09 01:56:05.80	288.19	13.44	-40.1	-43.1	13.8	3.00e-06	0	56	0	459276288	51	5215
2026-01-09 01:56:06.81	288.01	13.40	-40.1	-43.2	13.8	3.80e-06	0	56	0	461373440	51	5242
2026-01-09 01:56:07.82	287.83	13.35	-40.1	-43.3	13.7	3.00e-06	0	56	0	463470592	51	5280
2026-01-09 01:56:08.83	287.64	13.31	-40.2	-43.4	13.5	9.10e-06	0	56	0	465567744	51	5354
2026-01-09 01:56:09.84	287.46	13.26	-40.2	-43.4	13.5	6.10e-06	0	56	0	467664896	51	5400
2026-01-09 01:56:10.85	287.29	13.21	-40.2	-43.4	13.4	1.60e-05	0	56	0	469762048	51	5394
2026-01-09 01:56:11.86	287.11	13.17	-40.3	-43.5	13.4	1.22e-05	0	56	0	470810624	51	5439
2026-01-09 01:56:12.87	286.93	13.12	-40.3	-43.6	13.3	1.06e-05	0	56	0	472907776	51	5496
2026-01-09 01:56:13.88	286.75	13.07	-40.4	-43.8	13.1	1.75e-05	0	56	0	475004928	51	5600
2026-01-09 01:56:14.89	286.57	13.03	-40.5	-43.9	13.0	2.89e-05	0	56	0	477102080	51	5701
2026-01-09 01:56:15.90	286.40	12.98	-40.6	-44.1	12.8	5.49e-05	0	56	0	478150656	51	5794
2026-01-09 01:56:16.91	286.22	12.93	-40.6	-44.2	12.7	6.71e-05	0	56	0	480247808	51	5868
2026-01-09 01:56:17.92	286.05	12.88	-40.7	-44.4	12.5	1.03e-04	0	56	0	482344960	51	5994
2026-01-09 01:56:18.92	285.87	12.84	-40.7	-44.5	12.4	1.50e-04	0	56	0	484442112	52	5738
2026-01-09 01:56:19.93	285.70	12.79	-40.8	-44.6	12.2	1.92e-04	0	56	0	486539264	52	5833
2026-01-09 01:56:20.94	285.53	12.74	-40.9	-44.7	12.1	2.66e-04	0	56	0	487587840	52	5912
2026-01-09 01:56:21.95	285.35	12.69	-40.9	-44.8	12.0	3.07e-04	0	56	0	489684992	52	5953
2026-01-09 01:56:22.96	285.18	12.64	-41.0	-45.0	11.8	3.60e-04	0	56	0	491782144	52	6081
2026-01-09 01:56:23.97	285.01	12.59	-40.9	-44.9	11.9	4.32e-04	0	56	0	493879296	52	5994
2026-01-09 01:56:24.98	284.84	12.55	-40.9	-44.8	12.0	2.88e-04	0	56	0	495976448	52	5950
2026-01-09 01:56:25.99	284.67	12.50	-40.9	-44.8	12.0	3.11e-04	0	56	0	498073600	52	5969
2026-01-09 01:56:27.00	284.50	12.45	-40.9	-44.9	11.9	3.91e-04	0	56	0	499122176	52	6039
2026-01-09 01:56:28.01	284.33	12.40	-41.0	-45.1	11.7	4.93e-04	0	56	0	501219328	52	6143
2026-01-09 01:56:29.02	284.16	12.35	-41.1	-45.2	11.6	6.61e-04	0	56	0	503316480	52	6223
2026-01-09 01:56:30.03	283.99	12.30	-41.1	-45.2	11.5	7.77e-04	0	56	0	505413632	52	6267
2026-01-09 01:56:31.04	283.82	12.25	-41.2	-45.5	11.3	1.02e-03	0	56	0	507510784	52	6421
2026-01-09 01:56:32.05	283.66	12.20	-41.2	-45.5	11.2	1.24e-03	0	56	0	508559360	52	6450
2026-01-09 01:56:33.06	283.49	12.15	-41.2	-45.5	11.2	1.39e-03	0	56	0	510656512	53	6099
2026-01-09 01:56:34.07	283.32	12.10	-41.1	-45.3	11.5	1.00e-03	0	56	0	512753664	53	5932
2026-01-09 01:56:35.08	283.16	12.05	-41.0	-45.0	11.6	7.72e-04	0	56	0	514850816	53	5786
2026-01-09 01:56:36.08	282.99	12.00	-40.9	-44.9	11.8	5.62e-04	0	56	0	516947968	53	5694
2026-01-09 01:56:37.09	282.83	11.95	-40.9	-44.9	11.9	4.00e-04	0	56	0	517996544	53	5675
2026-01-09 01:56:38.10	282.67	11.90	-40.9	-44.8	11.9	4.07e-04	0	56	0	520093696	53	5644
2026-01-09 01:56:39.11	282.50	11.85	-40.9	-44.9	11.9	3.86e-04	0	56	0	522190848	53	5665
2026-01-09 01:56:40.13	282.34	11.80	-41.0	-45.0	11.8	4.08e-04	0	56	0	524288000	53	5726
2026-01-09 01:56:41.13	282.18	11.75	-41.0	-45.0	11.7	5.76e-04	0	56	0	526385152	53	5774
2026-01-09 01:56:42.14	282.02	11.70	-41.1	-45.3	11.5	7.09e-04	0	56	0	527433728	53	5933
2026-01-09 01:56:43.15	281.86	11.64	-41.2	-45.5	11.3	8.83e-04	0	56	0	529530880	53	6064
2026-01-09 01:56:44.16	281.69	11.59	-41.2	-45.5	11.3	1.26e-03	0	56	0	531628032	53	6074
2026-01-09 01:56:45.17	281.53	11.54	-41.3	-45.5	11.2	1.42e-03	0	56	0	533725184	53	6121
2026-01-09 01:56:46.18	281.38	11.49	-41.3	-45.6	11.0	1.63e-03	0	56	0	535822336	53	6200
2026-01-09 01:56:47.19	281.22	11.44	-41.3	-45.6	11.1	1.73e-03	0	56	0	536870912	53	6190
2026-01-09 01:56:48.20	281.06	11.39	-41.3	-45.6	11.1	1.84e-03	0	56	0	538968064	53	6167
2026-01-09 01:56:49.21	280.90	11.34	-41.3	-45.6	11.1	1.77e-03	0	56	0	541065216	53	6170
2026-01-09 01:56:50.22	280.74	11.28	-41.2	-45.5	11.2	1.56e-03	0	56	0	543162368	53	6116
2026-01-09 01:56:51.23	280.59	11.23	-41.2	-45.5	11.3	1.31e-03	0	56	0	545259520	53	6069
2026-01-09 01:56:52.24	280.43	11.18	-41.2	-45.4	11.3	1.15e-03	0	56	0	546308096	53	6041
2026-01-09 01:56:53.25	280.28	11.13	-41.2	-45.4	11.3	1.25e-03	0	56	0	548405248	53	6012
2026-01-09 01:56:54.26	280.12	11.07	-41.2	-45.4	11.2	1.49e-03	0	56	0	550502400	53	6056
2026-01-09 01:56:55.27	279.97	11.02	-41.1	-45.4	11.3	1.20e-03	0	56	0	552599552	53	6013
2026-01-09 01:56:56.27	279.82	10.97	-41.2	-45.5	11.1	1.29e-03	0	56	0	554696704	53	6080
2026-01-09 01:56:57.28	279.66	10.92	-41.2	-45.6	11.0	1.83e-03	0	56	0	555745280	53	6135
2026-01-09 01:56:58.29	279.51	10.87	-41.2	-45.6	10.9	2.08e-03	0	56	0	557842432	53	6191
2026-01-09 01:56:59.30	279.36	10.81	-41.3	-45.8	10.8	2.44e-03	0	56	0	559939584	53	6277
2026-01-09 01:57:00.31	279.21	10.76	-41.3	-45.8	10.8	2.55e-03	0	56	0	562036736	53	6300
2026-01-09 01:57:01.32	279.06	10.71	-41.3	-45.9	10.7	3.02e-03	0	56	0	564133888	53	6356
2026-01-09 01:57:02.33	278.90	10.65	-41.3	-45.8	10.7	2.91e-03	0	56	0	566231040	53	6291
2026-01-09 01:57:03.34	278.75	10.60	-41.2	-45.7	10.7	2.88e-03	0	56	0	567279616	53	6238
2026-01-09 01:57:04.35	278.61	10.55	-41.2	-45.8	10.7	3.20e-03	0	56	0	569376768	53	6277
2026-01-09 01:57:05.36	278.46	10.49	-41.2	-45.8	10.5	3.42e-03	0	56	0	571473920	53	6341
2026-01-09 01:57:06.37	278.31	10.44	-41.2	-45.9	10.5	4.01e-03	0	56	0	573571072	53	6378
2026-01-09 01:57:07.38	278.16	10.39	-41.2	-46.0	10.3	4.33e-03	0	56	0	575668224	53	6454
2026-01-09 01:57:08.39	278.01	10.33	-41.2	-46.1	10.0	6.31e-03	0	56	0	576716800	53	6570
2026-01-09 01:57:09.39	277.87	10.28	-41.2	-46.2	10.0	7.45e-03	0	56	0	578813952	53	6592
2026-01-09 01:57:10.40	277.72	10.23	-41.3	-46.4	9.7	9.36e-03	0	56	0	580911104	53	6767
2026-01-09 01:57:11.41	277.58	10.17	-41.3	-46.4	9.7	1.06e-02	0	56	0	583008256	53	6752
2026-01-09 01:57:12.42	277.43	10.12	-41.3	-46.5	9.6	1.14e-02	0	56	0	585105408	53	6825
2026-01-09 01:57:13.43	277.29	10.07	-41.3	-46.5	9.5	1.45e-02	0	56	0	586153984	53	6862
2026-01-09 01:57:14.44	277.14	10.01	-41.3	-46.6	9.4	1.56e-02	0	56	0	588251136	53	6954
2026-01-09 01:57:15.45	277.00	9.96	-41.3	-46.7	9.2	1.86e-02	0	56	0	590348288	53	7016
2026-01-09 01:57:16.46	276.86	9.91	-41.2	-46.9	8.9	2.53e-02	0	56	0	592445440	53	7152
2026-01-09 01:57:17.47	276.72	9.85	-41.2	-47.1	8.5	3.36e-02	0	56	0	594542592	53	7339
2026-01-09 01:57:18.48	276.57	9.80	-41.2	-47.3	8.2	4.46e-02	0	56	0	595591168	53	7519
2026-01-09 01:57:19.49	276.43	9.74	-41.1	-47.5	7.9	6.87e-02	0	56	0	597688320	53	7715
2026-01-09 01:57:20.50	276.29	9.69	-41.1	-47.8	7.6	8.79e-02	0	57	0	599785472	53	7910
2026-01-09 01:57:21.51	276.15	9.64	-41.1	-47.9	7.3	1.13e-01	0	56	0	601882624	53	8067
2026-01-09 01:57:22.52	276.01	9.58	-41.1	-48.3	6.9	1.61e-01	0	56	0	603979776	53	8456
2026-01-09 01:57:23.53	275.87	9.53	-41.1	-48.7	6.5	2.07e-01	0	56	0	605028352	53	8786
2026-01-09 01:57:24.54	275.74	9.47	-41.0	-49.0	6.1	2.62e-01	0	56	0	607125504	53	9070
2026-01-09 01:57:25.55	275.60	9.42	-41.0	-49.3	5.8	3.30e-01	0	56	0	609222656	53	9490
2026-01-09 01:57:26.56	275.46	9.36	-40.9	-49.8	5.4	4.69e-01	0	56	0	611319808	53	9964
2026-01-09 01:57:27.56	275.32	9.31	-40.9	-50.1	5.1	5.80e-01	0	56	0	613416960	53	10403
2026-01-09 01:57:28.57	275.19	9.26	-40.9	-50.6	4.8	6.95e-01	0	56	0	614465536	53	10972
2026-01-09 01:57:29.58	275.05	9.20	-40.8	-50.9	4.7	9.13e-01	0	56	0	616562688	53	11297
2026-01-09 01:57:30.59	274.92	9.15	-40.8	-51.2	4.5	9.69e-01	10	56	0	618659840	53	11766
2026-01-09 01:57:31.60	274.78	9.09	-40.7	-51.6	4.3	1.26e+00	0	56	0	620756992	53	12321
2026-01-09 01:57:32.61	274.65	9.04	-40.6	-51.9	4.2	1.38e+00	0	57	0	620756992	53	12779
2026-01-09 01:57:33.62	274.51	8.98	-40.6	-52.2	4.1	1.41e+00	0	56	0	620756992	53	13169
2026-01-09 01:57:34.63	274.38	8.93	-40.5	-52.6	3.8	1.44e+00	0	56	104	620756992	53	13782
2026-01-09 01:57:35.64	274.25	8.87	-40.5	-52.8	3.9	1.47e+00	0	56	104	620756992	53	14050
2026-01-09 01:57:36.64	274.12	8.82	-40.5	-52.9	3.8	1.48e+00	0	56	104	620756992	52	15121
2026-01-09 01:57:37.65	273.98	8.77	-40.5	-53.1	3.8	1.48e+00	0	57	104	620756992	52	15460
2026-01-09 01:57:38.66	273.85	8.71	-40.4	-53.3	3.8	1.48e+00	0	56	104	620756992	52	15782
2026-01-09 01:57:39.67	273.72	8.66	-40.3	-53.4	3.8	1.49e+00	0	56	104	620756992	52	15972
2026-01-09 01:57:40.68	273.59	8.60	-40.3	-53.5	3.8	1.49e+00	0	56	104	620756992	52	16217
2026-01-09 01:57:41.69	273.46	8.55	-40.3	-53.6	3.8	1.49e+00	0	56	104	620756992	52	16488
2026-01-09 01:57:42.70	273.33	8.49	-40.2	-53.8	3.8	1.49e+00	0	57	104	620756992	52	16754
2026-01-09 01:57:43.71	273.20	8.44	-40.2	-53.8	3.8	1.49e+00	0	57	104	620756992	52	16875
2026-01-09 01:57:44.72	273.07	8.38	-40.2	-54.0	3.8	1.49e+00	0	57	104	620756992	52	17100
2026-01-09 01:57:45.73	272.95	8.33	-40.2	-54.1	3.8	1.49e+00	0	56	104	620756992	52	17407
2026-01-09 01:57:46.74	272.82	8.27	-40.1	-54.2	3.8	1.49e+00	0	57	104	620756992	52	17573
2026-01-09 01:57:47.75	272.69	8.22	-40.1	-54.3	3.8	1.49e+00	0	57	104	620756992	52	17721
2026-01-09 01:57:48.76	272.57	8.16	-40.4	-54.1	3.8	1.49e+00	0	57	104	620756992	52	17299
2026-01-09 01:57:49.77	272.44	8.11	-39.6	-54.1	3.8	1.49e+00	0	56	104	620756992	51	18407
2026-01-09 01:57:50.78	272.31	8.05	-39.7	-54.1	3.8	1.49e+00	0	57	104	620756992	51	18313
2026-01-09 01:57:51.79	272.19	8.00	-42.3	-56.7	3.9	1.49e+00	0	56	104	620756992	55	19733
2026-01-09 01:57:52.80	272.06	7.94	-44.3	-58.6	3.8	1.49e+00	0	57	104	620756992	59	19525
2026-01-09 01:57:53.81	271.94	7.89	-44.5	-58.9	3.8	1.49e+00	0	57	104	620756992	59	20131
2026-01-09 01:57:54.82	271.82	7.83	-44.7	-59.0	3.8	1.49e+00	0	57	104	620756992	59	20502
2026-01-09 01:57:55.83	271.69	7.78	-44.7	-59.2	3.8	1.49e+00	0	56	104	620756992	60	19817
2026-01-09 01:57:56.84	271.57	7.72	-44.8	-59.3	3.8	1.49e+00	0	57	104	620756992	60	19986
2026-01-09 01:57:57.85	271.45	7.67	-44.8	-59.4	3.8	1.49e+00	0	56	104	620756992	60	20097
2026-01-09 01:57:58.86	271.33	7.61	-44.9	-59.4	3.8	1.49e+00	0	56	104	620756992	60	20122
2026-01-09 01:57:59.87	271.21	7.56	-44.9	-59.4	3.8	1.49e+00	0	56	104	620756992	60	20229
2026-01-09 01:58:00.88	271.09	7.50	-44.9	-59.4	3.8	1.49e+00	0	56	104	620756992	60	20195
2026-01-09 01:58:01.89	270.96	7.45	-44.9	-59.4	3.8	1.49e+00	0	57	104	620756992	60	20166
2026-01-09 01:58:02.90	270.84	7.39	-44.8	-59.3	3.8	1.49e+00	0	56	104	620756992	60	20040
2026-01-09 01:58:03.91	270.73	7.34	-44.8	-59.3	3.8	1.49e+00	0	57	104	620756992	60	19955
2026-01-09 01:58:04.92	270.61	7.28	-44.8	-59.3	3.8	1.49e+00	0	57	104	620756992	60	19994
2026-01-09 01:58:05.93	270.49	7.23	-44.8	-59.3	3.8	1.49e+00	0	56	104	620756992	60	19884
2026-01-09 01:58:06.94	270.37	7.17	-44.8	-59.3	3.8	1.49e+00	0	57	104	620756992	60	19938
2026-01-09 01:58:07.95	270.25	7.12	-44.8	-59.3	3.8	1.49e+00	0	57	104	620756992	60	19940
2026-01-09 01:58:08.96	270.14	7.06	-44.8	-59.3	3.8	1.49e+00	0	57	104	620756992	60	19899
2026-01-09 01:58:09.97	270.02	7.01	-44.8	-59.3	3.8	1.49e+00	0	57	104	620756992	60	19864
2026-01-09 01:58:10.99	269.90	6.95	-44.8	-59.3	3.8	1.49e+00	0	57	104	620756992	60	19897
2026-01-09 01:58:12.00	269.79	6.90	-44.7	-59.2	3.8	1.49e+00	0	57	104	620756992	60	19796
2026-01-09 01:58:13.01	269.67	6.84	-44.7	-59.3	3.8	1.49e+00	0	57	104	620756992	60	19849
2026-01-09 01:58:14.02	269.56	6.79	-44.7	-59.2	3.8	1.49e+00	0	57	104	620756992	60	19774
2026-01-09 01:58:15.03	269.44	6.73	-44.7	-59.2	3.8	1.49e+00	0	57	104	620756992	60	19750
2026-01-09 01:58:16.04	269.33	6.68	-44.7	-59.2	3.8	1.49e+00	0	57	104	620756992	60	19767
2026-01-09 01:58:17.05	269.21	6.62	-44.7	-59.2	3.8	1.49e+00	0	57	104	620756992	60	19755
2026-01-09 01:58:18.06	269.10	6.57	-44.7	-59.2	3.8	1.49e+00	0	57	104	620756992	60	19737
2026-01-09 01:58:19.07	268.99	6.51	-44.7	-59.2	3.8	1.49e+00	0	57	104	620756992	60	19771
2026-01-09 01:58:20.08	268.88	6.46	-44.7	-59.2	3.8	1.49e+00	0	57	104	620756992	60	19788
2026-01-09 01:58:21.09	268.76	6.40	-44.7	-59.2	3.8	1.49e+00	0	57	104	620756992	60	19719
2026-01-09 01:58:22.10	268.65	6.35	-44.7	-59.2	3.8	1.49e+00	0	57	104	620756992	60	19787
2026-01-09 01:58:23.11	268.54	6.29	-44.7	-59.2	3.8	1.49e+00	0	57	104	620756992	60	19721
2026-01-09 01:58:24.12	268.43	6.24	-44.7	-59.2	3.8	1.49e+00	0	57	104	620756992	60	19749
2026-01-09 01:58:25.13	268.32	6.18	-44.7	-59.2	3.8	1.49e+00	0	56	104	620756992	60	19797
2026-01-09 01:58:26.14	268.21	6.13	-44.7	-59.2	3.8	1.49e+00	0	57	104	620756992	60	19740
2026-01-09 01:58:27.15	268.10	6.08	-44.7	-59.2	3.8	1.49e+00	0	57	104	620756992	60	19712
2026-01-09 01:58:28.16	267.99	6.02	-44.7	-59.2	3.8	1.49e+00	0	57	104	620756992	60	19738
2026-01-09 01:58:29.17	267.88	5.97	-44.7	-59.2	3.8	1.49e+00	0	57	104	620756992	60	19721
2026-01-09 01:58:30.18	267.78	5.91	-44.7	-59.2	3.8	1.49e+00	0	57	104	620756992	60	19674
2026-01-09 01:58:31.20	267.67	5.86	-44.7	-59.2	3.8	1.49e+00	0	57	104	620756992	60	19644
2026-01-09 01:58:32.21	267.56	5.80	-44.7	-59.2	3.8	1.49e+00	0	57	104	620756992	60	19720
2026-01-09 01:58:33.22	267.45	5.75	-44.7	-59.2	3.8	1.49e+00	0	57	104	620756992	60	19703
2026-01-09 01:58:34.23	267.35	5.69	-44.7	-59.2	3.8	1.49e+00	0	57	104	620756992	60	19684
2026-01-09 01:58:35.24	267.24	5.64	-44.7	-59.2	3.8	1.49e+00	0	57	104	620756992	60	19720
2026-01-09 01:58:36.25	267.13	5.58	-44.7	-59.2	3.8	1.49e+00	0	57	104	620756992	60	19730
2026-01-09 01:58:37.26	267.03	5.53	-44.7	-59.2	3.8	1.49e+00	0	57	104	620756992	60	19774
2026-01-09 01:58:38.27	266.92	5.47	-44.7	-59.2	3.8	1.49e+00	0	57	104	620756992	60	19746
2026-01-09 01:58:39.28	266.82	5.42	-44.7	-59.2	3.8	1.49e+00	0	57	104	620756992	60	19760
2026-01-09 01:58:40.29	266.72	5.36	-44.7	-59.2	3.8	1.49e+00	0	57	104	620756992	60	19712
2026-01-09 01:58:41.30	266.61	5.31	-44.7	-59.2	3.8	1.49e+00	0	57	104	620756992	60	19669
2026-01-09 01:58:42.31	266.51	5.26	-44.7	-59.2	3.8	1.49e+00	0	57	104	620756992	60	19726
2026-01-09 01:58:43.32	266.41	5.20	-44.7	-59.2	3.8	1.49e+00	0	57	104	620756992	60	19743
2026-01-09 01:58:44.33	266.30	5.15	-44.7	-59.2	3.8	1.49e+00	0	57	104	620756992	60	19713
2026-01-09 01:58:45.34	266.20	5.09	-44.7	-59.2	3.8	1.49e+00	0	57	104	620756992	60	19743
2026-01-09 01:58:46.35	266.10	5.04	-44.7	-59.2	3.8	1.49e+00	0	57	104	620756992	60	19689
2026-01-09 01:58:47.36	266.00	4.98	-44.7	-59.2	3.8	1.49e+00	0	57	104	620756992	60	19740
2026-01-09 01:58:48.37	265.90	4.93	-44.7	-59.2	3.8	1.49e+00	0	57	104	620756992	60	19750
2026-01-09 01:58:49.38	265.80	4.88	-44.7	-59.2	3.8	1.49e+00	0	57	104	620756992	60	19721
2026-01-09 01:58:50.40	265.70	4.82	-44.7	-59.2	3.8	1.49e+00	0	57	104	620756992	60	19752
2026-01-09 01:58:51.40	265.60	4.77	-44.7	-59.2	3.8	1.49e+00	0	57	104	620756992	60	19761
2026-01-09 01:58:52.41	265.50	4.71	-44.7	-59.2	3.8	1.49e+00	0	57	104	620756992	60	19712
2026-01-09 01:58:53.43	265.40	4.66	-44.7	-59.2	3.8	1.49e+00	0	57	104	620756992	60	19685
2026-01-09 01:58:54.43	265.30	4.61	-44.7	-59.2	3.8	1.49e+00	0	56	104	620756992	60	19730
2026-01-09 01:58:55.44	265.20	4.55	-44.7	-59.2	3.8	1.49e+00	0	57	104	620756992	60	19777
2026-01-09 01:58:56.45	265.11	4.50	-44.7	-59.2	3.8	1.49e+00	0	57	104	620756992	60	19793
2026-01-09 01:58:57.46	265.01	4.44	-44.7	-59.2	3.8	1.49e+00	0	57	104	620756992	60	19704
2026-01-09 01:58:58.47	264.91	4.39	-44.7	-59.2	3.8	1.49e+00	0	57	104	620756992	60	19673
2026-01-09 01:58:59.48	264.81	4.34	-44.7	-59.2	3.8	1.49e+00	0	57	104	620756992	60	19686
2026-01-09 01:59:00.49	264.72	4.28	-44.7	-59.2	3.8	1.49e+00	0	57	104	620756992	60	19731
2026-01-09 01:59:01.50	264.62	4.23	-44.7	-59.2	3.8	1.49e+00	0	57	104	620756992	60	19693
2026-01-09 01:59:02.51	264.53	4.17	-44.7	-59.2	3.8	1.49e+00	0	57	104	620756992	60	19710
2026-01-09 01:59:03.52	264.43	4.12	-44.7	-59.2	3.8	1.49e+00	0	57	104	620756992	60	19737
2026-01-09 01:59:04.53	264.34	4.07	-44.7	-59.2	3.8	1.49e+00	0	57	104	620756992	60	19716
2026-01-09 01:59:05.54	264.24	4.01	-44.7	-59.2	3.8	1.49e+00	0	57	104	620756992	60	19745
2026-01-09 01:59:06.55	264.15	3.96	-44.7	-59.2	3.8	1.49e+00	0	57	104	620756992	60	19695
2026-01-09 01:59:07.57	264.05	3.90	-44.7	-59.2	3.8	1.49e+00	0	57	104	620756992	60	19682
2026-01-09 01:59:08.58	263.96	3.85	-44.7	-59.2	3.8	1.49e+00	0	57	104	620756992	60	19718
2026-01-09 01:59:09.59	263.86	3.80	-44.7	-59.2	3.8	1.49e+00	0	57	104	620756992	60	19718
2026-01-09 01:59:10.60	263.77	3.74	-44.7	-59.2	3.8	1.49e+00	0	57	104	620756992	60	19743
2026-01-09 01:59:11.61	263.68	3.69	-44.7	-59.2	3.8	1.49e+00	0	57	104	620756992	60	19754
2026-01-09 01:59:12.62	263.59	3.64	-44.7	-59.2	3.8	1.49e+00	0	57	104	620756992	60	19692
2026-01-09 01:59:13.63	263.50	3.58	-44.7	-59.2	3.8	1.49e+00	0	57	104	620756992	60	19708
2026-01-09 01:59:14.64	263.40	3.53	-44.7	-59.2	3.8	1.49e+00	0	57	104	620756992	60	19665
2026-01-09 01:59:15.65	263.31	3.48	-44.7	-59.2	3.8	1.49e+00	0	57	104	620756992	60	19730
2026-01-09 01:59:16.66	263.22	3.42	-44.7	-59.2	3.8	1.49e+00	0	57	104	620756992	60	19721
2026-01-09 01:59:17.67	263.13	3.37	-44.7	-59.2	3.8	1.49e+00	0	57	104	620756992	60	19691
2026-01-09 01:59:18.68	263.04	3.32	-44.7	-59.2	3.8	1.49e+00	0	57	104	620756992	60	19718
2026-01-09 01:59:19.69	262.95	3.26	-44.7	-59.2	3.8	1.49e+00	0	56	104	620756992	60	19718
2026-01-09 01:59:20.70	262.86	3.21	-44.7	-59.2	3.8	1.49e+00	0	57	104	620756992	60	19738
2026-01-09 01:59:21.71	262.77	3.16	-44.7	-59.2	3.8	1.49e+00	0	57	104	620756992	60	19746
2026-01-09 01:59:22.72	262.68	3.10	-44.7	-59.2	3.8	1.49e+00	0	57	104	620756992	60	19678
2026-01-09 01:59:23.73	262.60	3.05	-44.7	-59.2	3.8	1.49e+00	0	57	104	620756992	60	19710
2026-01-09 01:59:24.74	262.51	3.00	-44.7	-59.2	3.8	1.49e+00	0	57	104	620756992	60	19745
2026-01-09 01:59:25.75	262.42	2.95	-44.7	-59.2	3.8	1.49e+00	0	57	104	620756992	60	19653
2026-01-09 01:59:26.76	262.33	2.89	-44.7	-59.2	3.8	1.49e+00	0	57	104	620756992	60	19692
2026-01-09 01:59:27.77	262.25	2.84	-44.7	-59.2	3.8	1.49e+00	0	57	104	620756992	60	19716
2026-01-09 01:59:28.79	262.16	2.79	-44.7	-59.2	3.8	1.49e+00	0	57	104	620756992	60	19701
2026-01-09 01:59:29.80	262.07	2.73	-44.7	-59.2	3.8	1.49e+00	0	57	104	620756992	60	19669
2026-01-09 01:59:30.81	261.99	2.68	-44.7	-59.2	3.8	1.49e+00	0	57	104	620756992	60	19686
2026-01-09 01:59:31.82	261.90	2.63	-44.7	-59.2	3.8	1.49e+00	0	57	104	620756992	60	19698
2026-01-09 01:59:32.83	261.81	2.58	-44.7	-59.2	3.8	1.49e+00	0	57	104	620756992	60	19689
2026-01-09 01:59:33.84	261.73	2.52	-44.7	-59.2	3.8	1.49e+00	0	57	104	620756992	60	19686
2026-01-09 01:59:34.85	261.64	2.47	-44.7	-59.2	3.8	1.49e+00	0	57	104	620756992	60	19647
2026-01-09 01:59:35.86	261.56	2.42	-44.7	-59.2	3.8	1.49e+00	0	57	104	620756992	60	19686
2026-01-09 01:59:36.87	261.47	2.36	-44.7	-59.2	3.8	1.49e+00	0	57	104	620756992	60	19747
2026-01-09 01:59:37.88	261.39	2.31	-44.7	-59.2	3.8	1.49e+00	0	57	104	620756992	60	19653
2026-01-09 01:59:38.89	261.31	2.26	-44.7	-59.2	3.8	1.49e+00	0	57	104	620756992	60	19730
2026-01-09 01:59:39.90	261.22	2.21	-44.7	-59.2	3.8	1.49e+00	0	57	104	620756992	60	19708
2026-01-09 01:59:40.91	261.14	2.16	-44.7	-59.2	3.8	1.49e+00	0	57	104	620756992	60	19650
2026-01-09 01:59:41.92	261.06	2.10	-44.7	-59.2	3.8	1.49e+00	0	57	104	620756992	60	19648
2026-01-09 01:59:42.93	260.98	2.05	-44.7	-59.2	3.8	1.49e+00	0	57	104	620756992	60	19711
2026-01-09 01:59:43.94	260.89	2.00	-44.7	-59.2	3.8	1.49e+00	0	57	104	620756992	60	19651

#Closed at: 2026-01-09 01:59:44
#Recorded file [620 MB]: D:/lorett/data/31039_260109_044809.dat