passes_logs/2026/01/09/R2.0S_Moscow/R2.0S_Moscow__20260109_095803_NOAA_20_JPSS-1_rec.log

#Pass ID: 20260109_095803_NOAA 20 (JPSS-1)
#Satellite: NOAA 20 (JPSS-1)
#Configuration: NOAA 20
#almurnet v.1.7.20251203
#Start time: 2026-01-09 09:58:36

#Version: 2.2.20231116
#Station: R2.0S_Moscow
#Location: 37.707566 lon 55.798166 lat
#TLE: 1 43013U 17073A   26008.42245989  .00000120  00000+0  77990-4 0  9996
#TLE: 2 43013  98.7631 309.4315 0001737  48.7960 311.3365 14.19534455421802

#Time	Az	El	Level	Level2	SNR	BER	BlckErr	Temp	State	Recorded	gain1	gain2
2026-01-09 09:58:36.88	162.15	4.26	-45.7	-64.4	3.8	7.42e-01	0	57	0	0	62	31836
2026-01-09 09:58:37.89	162.15	4.33	-45.2	-59.7	3.8	1.49e+00	0	57	104	0	62	18641
2026-01-09 09:58:38.90	162.16	4.40	-45.2	-59.7	3.8	1.49e+00	0	57	104	0	62	18686
2026-01-09 09:58:39.91	162.16	4.47	-45.2	-59.7	3.8	1.49e+00	0	58	104	0	62	18624
2026-01-09 09:58:40.92	162.17	4.54	-45.1	-59.7	3.8	1.49e+00	0	57	104	0	62	18602
2026-01-09 09:58:41.93	162.17	4.61	-45.1	-59.6	3.8	1.49e+00	0	57	104	0	62	18427
2026-01-09 09:58:42.95	162.18	4.69	-45.0	-59.5	3.8	1.49e+00	0	57	104	0	61	19388
2026-01-09 09:58:43.96	162.18	4.76	-44.9	-59.5	3.8	1.49e+00	0	57	104	0	61	19244
2026-01-09 09:58:44.96	162.19	4.83	-44.8	-59.4	3.8	1.49e+00	0	57	104	0	61	18952
2026-01-09 09:58:45.97	162.19	4.90	-44.6	-59.2	3.8	1.49e+00	0	57	104	0	61	18686
2026-01-09 09:58:46.98	162.20	4.97	-44.4	-59.0	3.8	1.49e+00	0	57	104	0	60	19325
2026-01-09 09:58:47.99	162.20	5.05	-44.1	-58.5	3.8	1.49e+00	0	57	104	0	60	18102
2026-01-09 09:58:49.01	162.21	5.12	-44.0	-58.5	3.8	1.49e+00	0	57	104	0	60	18283
2026-01-09 09:58:50.01	162.21	5.19	-44.1	-58.4	3.8	1.49e+00	0	57	104	0	59	19041
2026-01-09 09:58:51.02	162.22	5.26	-44.1	-58.4	3.8	1.49e+00	0	57	104	0	59	19041
2026-01-09 09:58:52.03	162.22	5.34	-44.1	-58.3	3.8	1.49e+00	0	57	104	0	59	18938
2026-01-09 09:58:53.04	162.23	5.41	-44.1	-58.3	3.8	1.49e+00	0	57	104	0	59	18945
2026-01-09 09:58:54.05	162.23	5.49	-44.1	-58.3	3.8	1.49e+00	0	57	104	0	59	18933
2026-01-09 09:58:55.06	162.24	5.56	-44.1	-58.4	3.8	1.49e+00	0	57	104	0	59	18951
2026-01-09 09:58:56.08	162.24	5.63	-44.1	-58.4	3.8	1.49e+00	0	58	104	0	59	18972
2026-01-09 09:58:57.09	162.25	5.71	-44.1	-58.3	3.8	1.49e+00	0	57	104	0	59	18829
2026-01-09 09:58:58.10	162.25	5.78	-44.1	-58.3	3.8	1.49e+00	0	57	104	0	59	18915
2026-01-09 09:58:59.11	162.26	5.86	-44.1	-58.4	3.8	1.49e+00	0	57	104	0	59	19018
2026-01-09 09:59:00.12	162.26	5.93	-44.1	-58.4	3.8	1.49e+00	0	57	104	0	59	19002
2026-01-09 09:59:01.13	162.27	6.01	-44.1	-58.4	3.8	1.49e+00	0	58	104	0	59	19138
2026-01-09 09:59:02.14	162.27	6.08	-44.1	-58.5	3.8	1.49e+00	0	57	104	0	59	19176
2026-01-09 09:59:03.15	162.28	6.16	-44.1	-58.5	3.8	1.49e+00	0	57	104	0	59	19206
2026-01-09 09:59:04.16	162.28	6.24	-44.1	-58.5	3.8	1.49e+00	0	57	104	0	59	19188
2026-01-09 09:59:05.17	162.29	6.31	-44.1	-58.4	3.8	1.49e+00	0	57	104	0	59	19130
2026-01-09 09:59:06.18	162.29	6.39	-44.1	-58.3	3.8	1.49e+00	0	57	104	0	59	18799
2026-01-09 09:59:07.19	162.30	6.46	-44.1	-58.2	3.8	1.49e+00	0	57	104	0	59	18585
2026-01-09 09:59:08.20	162.31	6.54	-44.1	-58.0	3.8	1.49e+00	0	57	104	0	59	18195
2026-01-09 09:59:09.21	162.31	6.62	-44.1	-57.6	3.8	1.49e+00	0	57	104	0	59	17411
2026-01-09 09:59:10.23	162.32	6.70	-44.1	-57.4	3.8	1.49e+00	0	57	104	0	59	17026
2026-01-09 09:59:11.24	162.32	6.77	-44.0	-57.1	3.8	1.49e+00	0	57	104	0	59	16449
2026-01-09 09:59:12.24	162.33	6.85	-44.0	-56.8	3.8	1.49e+00	0	57	104	0	59	15772
2026-01-09 09:59:13.25	162.33	6.93	-44.0	-56.5	3.8	1.49e+00	0	57	104	0	59	15363
2026-01-09 09:59:14.26	162.34	7.01	-44.0	-56.3	3.8	1.49e+00	0	57	104	0	59	14942
2026-01-09 09:59:15.27	162.34	7.09	-43.9	-56.0	3.9	1.48e+00	0	57	104	0	59	14465
2026-01-09 09:59:16.28	162.35	7.16	-43.9	-55.7	4.0	1.47e+00	0	57	104	0	59	13897
2026-01-09 09:59:17.29	162.35	7.24	-43.9	-55.6	3.9	1.45e+00	0	57	104	0	59	13751
2026-01-09 09:59:18.30	162.36	7.32	-43.9	-55.0	4.2	1.42e+00	0	57	0	0	59	12889
2026-01-09 09:59:19.31	162.36	7.40	-43.8	-54.8	4.2	1.40e+00	0	57	0	0	59	12553
2026-01-09 09:59:20.32	162.37	7.48	-43.8	-54.4	4.3	1.33e+00	91	57	0	0	59	11956
2026-01-09 09:59:21.33	162.38	7.56	-43.8	-53.9	4.5	1.07e+00	2	57	0	2097152	59	11411
2026-01-09 09:59:22.34	162.38	7.64	-43.7	-53.3	4.8	8.95e-01	0	57	0	4194304	59	10536
2026-01-09 09:59:23.35	162.39	7.72	-43.6	-52.6	5.2	6.37e-01	0	57	0	5242880	59	9739
2026-01-09 09:59:24.37	162.39	7.80	-43.5	-51.8	5.7	4.65e-01	0	57	0	7340032	58	9394
2026-01-09 09:59:25.38	162.40	7.88	-43.3	-50.9	6.4	3.26e-01	0	57	0	9437184	58	8506
2026-01-09 09:59:26.39	162.40	7.97	-43.2	-50.2	7.0	1.67e-01	0	57	0	11534336	58	7861
2026-01-09 09:59:27.40	162.41	8.05	-43.0	-49.5	7.7	1.14e-01	0	57	0	13631488	58	7238
2026-01-09 09:59:28.41	162.42	8.13	-42.8	-48.8	8.4	6.38e-02	0	57	0	14680064	57	7054
2026-01-09 09:59:29.42	162.42	8.21	-42.6	-48.2	8.9	3.86e-02	0	57	0	16777216	57	6613
2026-01-09 09:59:30.43	162.43	8.29	-42.4	-47.6	9.6	1.63e-02	0	57	0	18874368	56	6518
2026-01-09 09:59:31.44	162.43	8.38	-42.7	-48.6	8.6	9.07e-03	0	57	0	20971520	56	7311
2026-01-09 09:59:32.45	162.44	8.46	-43.2	-50.3	6.7	8.04e-01	0	57	0	23068672	58	7956
2026-01-09 09:59:33.46	162.44	8.54	-42.3	-47.3	9.7	9.18e-02	0	57	0	24117248	56	6307
2026-01-09 09:59:34.47	162.45	8.63	-43.6	-51.8	5.9	1.47e-01	0	57	0	26214400	57	10055
2026-01-09 09:59:35.48	162.46	8.71	-42.6	-48.1	8.7	1.39e+00	0	57	0	27262976	57	6561
2026-01-09 09:59:36.49	162.46	8.79	-42.0	-47.0	10.0	1.10e-02	0	57	0	29360128	55	6467
2026-01-09 09:59:37.50	162.47	8.88	-41.8	-46.4	10.7	3.73e-03	0	57	0	31457280	55	6003
2026-01-09 09:59:38.51	162.47	8.96	-41.8	-46.3	10.6	3.42e-03	0	57	0	33554432	55	5984
2026-01-09 09:59:39.51	162.48	9.05	-41.7	-46.3	10.8	2.93e-03	0	57	0	34603008	55	5938
2026-01-09 09:59:40.52	162.48	9.13	-41.7	-46.1	11.0	2.40e-03	0	57	0	36700160	55	5829
2026-01-09 09:59:41.53	162.49	9.22	-41.7	-46.1	11.0	1.95e-03	0	57	0	38797312	55	5823
2026-01-09 09:59:42.54	162.50	9.30	-41.7	-46.2	10.9	1.88e-03	0	57	0	40894464	55	5857
2026-01-09 09:59:43.55	162.50	9.39	-41.7	-46.1	11.0	1.95e-03	0	57	0	42991616	55	5847
2026-01-09 09:59:44.56	162.51	9.47	-41.6	-45.8	11.3	1.64e-03	0	57	0	44040192	55	5639
2026-01-09 09:59:45.57	162.51	9.56	-41.6	-45.8	11.3	1.03e-03	0	57	0	46137344	55	5615
2026-01-09 09:59:46.57	162.52	9.65	-41.5	-45.6	11.5	8.06e-04	0	57	0	48234496	55	5515
2026-01-09 09:59:47.58	162.53	9.73	-41.4	-45.3	11.9	5.50e-04	0	57	0	50331648	54	5639
2026-01-09 09:59:48.59	162.53	9.82	-41.4	-45.4	11.8	4.65e-04	0	57	0	52428800	54	5667
2026-01-09 09:59:49.60	162.54	9.91	-41.4	-45.3	11.9	3.38e-04	0	57	0	53477376	54	5626
2026-01-09 09:59:50.61	162.54	10.00	-41.4	-45.3	11.9	3.23e-04	0	57	0	55574528	54	5616
2026-01-09 09:59:51.62	162.55	10.09	-41.3	-45.1	12.1	2.78e-04	0	57	0	57671680	54	5527
2026-01-09 09:59:52.63	162.56	10.17	-41.3	-45.1	12.1	3.05e-04	0	57	0	59768832	54	5521
2026-01-09 09:59:53.64	162.56	10.26	-41.3	-45.2	12.1	3.07e-04	0	57	0	61865984	54	5547
2026-01-09 09:59:54.65	162.57	10.35	-41.3	-45.1	12.1	2.61e-04	0	57	0	63963136	54	5511
2026-01-09 09:59:55.66	162.58	10.44	-41.2	-45.0	12.3	2.23e-04	0	57	0	65011712	54	5419
2026-01-09 09:59:56.67	162.58	10.53	-41.2	-44.9	12.4	1.75e-04	0	57	0	67108864	54	5401
2026-01-09 09:59:57.68	162.59	10.62	-41.2	-44.9	12.4	1.88e-04	0	57	0	69206016	54	5379
2026-01-09 09:59:58.69	162.59	10.71	-41.2	-44.9	12.4	1.56e-04	0	57	0	71303168	54	5402
2026-01-09 09:59:59.69	162.60	10.80	-41.2	-44.9	12.4	1.48e-04	0	57	0	73400320	54	5367
2026-01-09 10:00:00.70	162.61	10.90	-41.2	-44.8	12.5	1.36e-04	0	57	0	74448896	54	5308
2026-01-09 10:00:01.71	162.61	10.99	-41.2	-44.8	12.6	1.36e-04	0	57	0	76546048	54	5304
2026-01-09 10:00:02.72	162.62	11.08	-41.2	-44.8	12.5	1.27e-04	0	57	0	78643200	54	5318
2026-01-09 10:00:03.73	162.63	11.17	-41.2	-44.8	12.6	8.77e-05	0	57	0	80740352	54	5297
2026-01-09 10:00:04.74	162.63	11.26	-41.1	-44.7	12.6	9.91e-05	0	57	0	82837504	54	5265
2026-01-09 10:00:05.75	162.64	11.36	-41.1	-44.7	12.7	8.62e-05	0	57	0	83886080	54	5239
2026-01-09 10:00:06.76	162.64	11.45	-41.1	-44.7	12.7	7.47e-05	0	57	0	85983232	54	5232
2026-01-09 10:00:07.77	162.65	11.55	-41.1	-44.7	12.7	9.15e-05	0	57	0	88080384	54	5224
2026-01-09 10:00:08.78	162.66	11.64	-41.0	-44.5	12.9	6.86e-05	0	57	0	90177536	54	5145
2026-01-09 10:00:09.79	162.66	11.73	-41.1	-44.6	12.9	5.34e-05	0	57	0	92274688	54	5170
2026-01-09 10:00:10.80	162.67	11.83	-41.0	-44.5	12.9	5.56e-05	0	57	0	93323264	54	5135
2026-01-09 10:00:11.81	162.68	11.92	-41.1	-44.6	12.8	3.81e-05	0	57	0	95420416	54	5182
2026-01-09 10:00:12.82	162.68	12.02	-41.0	-44.5	12.9	3.66e-05	0	57	0	97517568	54	5115
2026-01-09 10:00:13.83	162.69	12.12	-41.0	-44.4	13.1	4.11e-05	0	57	0	99614720	54	5046
2026-01-09 10:00:14.84	162.70	12.21	-41.0	-44.4	13.0	3.81e-05	0	57	0	101711872	53	5344
2026-01-09 10:00:15.85	162.70	12.31	-41.0	-44.4	13.1	2.97e-05	0	57	0	102760448	53	5342
2026-01-09 10:00:16.86	162.71	12.41	-40.9	-44.3	13.2	3.58e-05	0	57	0	104857600	53	5286
2026-01-09 10:00:17.87	162.72	12.50	-41.0	-44.3	13.1	3.05e-05	0	57	0	106954752	53	5339
2026-01-09 10:00:18.87	162.72	12.60	-41.0	-44.4	13.1	2.74e-05	0	57	0	109051904	53	5343
2026-01-09 10:00:19.88	162.73	12.70	-41.0	-44.3	13.2	2.97e-05	0	57	0	111149056	53	5317
2026-01-09 10:00:20.89	162.74	12.80	-40.9	-44.2	13.2	1.75e-05	0	57	0	112197632	53	5272
2026-01-09 10:00:21.90	162.74	12.90	-40.9	-44.2	13.2	1.60e-05	0	57	0	114294784	53	5269
2026-01-09 10:00:22.91	162.75	13.00	-40.9	-44.3	13.2	1.98e-05	0	57	0	116391936	53	5281
2026-01-09 10:00:23.92	162.76	13.10	-40.9	-44.3	13.2	1.98e-05	0	57	0	118489088	53	5309
2026-01-09 10:00:24.93	162.76	13.20	-40.9	-44.2	13.3	1.52e-05	0	57	0	120586240	53	5252
2026-01-09 10:00:25.94	162.77	13.30	-40.9	-44.2	13.3	2.67e-05	0	57	0	121634816	53	5263
2026-01-09 10:00:26.95	162.78	13.40	-40.9	-44.2	13.3	2.05e-05	0	57	0	123731968	53	5230
2026-01-09 10:00:27.97	162.78	13.50	-40.9	-44.2	13.3	1.37e-05	0	57	0	125829120	53	5238
2026-01-09 10:00:28.97	162.79	13.60	-40.9	-44.2	13.4	1.22e-05	0	57	0	127926272	53	5235
2026-01-09 10:00:29.98	162.80	13.71	-40.9	-44.1	13.4	1.22e-05	0	57	0	130023424	53	5203
2026-01-09 10:00:30.99	162.81	13.81	-40.8	-44.1	13.5	1.67e-05	0	57	0	132120576	53	5179
2026-01-09 10:00:32.00	162.81	13.91	-40.9	-44.2	13.4	1.06e-05	0	57	0	133169152	53	5228
2026-01-09 10:00:33.01	162.82	14.02	-40.9	-44.1	13.4	1.60e-05	0	57	0	135266304	53	5198
2026-01-09 10:00:34.02	162.83	14.12	-40.8	-44.1	13.5	1.60e-05	0	57	0	137363456	53	5176
2026-01-09 10:00:35.03	162.83	14.23	-40.8	-44.1	13.5	1.60e-05	0	57	0	139460608	53	5173
2026-01-09 10:00:36.04	162.84	14.33	-40.8	-44.0	13.6	7.60e-06	0	57	0	141557760	53	5130
2026-01-09 10:00:37.05	162.85	14.44	-40.8	-43.9	13.7	6.80e-06	0	57	0	142606336	53	5097
2026-01-09 10:00:38.06	162.86	14.54	-40.7	-43.9	13.7	6.80e-06	0	57	0	144703488	53	5082
2026-01-09 10:00:39.07	162.86	14.65	-40.8	-43.9	13.7	8.30e-06	0	57	0	146800640	53	5076
2026-01-09 10:00:40.08	162.87	14.76	-40.8	-43.9	13.7	3.80e-06	0	57	0	148897792	53	5097
2026-01-09 10:00:41.09	162.88	14.86	-40.7	-43.9	13.7	3.00e-06	0	57	0	150994944	53	5056
2026-01-09 10:00:42.10	162.89	14.97	-40.7	-43.8	13.8	7.60e-06	0	57	0	152043520	53	5005
2026-01-09 10:00:43.11	162.89	15.08	-40.7	-43.8	13.9	3.80e-06	0	57	0	154140672	53	4995
2026-01-09 10:00:44.12	162.90	15.19	-40.7	-43.7	13.9	2.20e-06	0	57	0	156237824	53	4979
2026-01-09 10:00:45.13	162.91	15.30	-40.7	-43.7	13.9	7.00e-07	0	57	0	158334976	53	4964
2026-01-09 10:00:46.14	162.92	15.41	-40.6	-43.6	14.0	2.20e-06	0	57	0	160432128	53	4917
2026-01-09 10:00:47.15	162.92	15.52	-40.6	-43.6	14.1	3.00e-06	0	57	0	161480704	53	4887
2026-01-09 10:00:48.16	162.93	15.63	-40.6	-43.7	14.0	1.50e-06	0	57	0	163577856	53	4930
2026-01-09 10:00:49.17	162.94	15.74	-40.6	-43.6	14.1	1.50e-06	0	57	0	165675008	53	4907
2026-01-09 10:00:50.18	162.95	15.85	-40.6	-43.6	14.1	2.20e-06	0	57	0	167772160	53	4888
2026-01-09 10:00:51.19	162.95	15.97	-40.6	-43.5	14.1	7.00e-07	0	57	0	169869312	53	4861
2026-01-09 10:00:52.20	162.96	16.08	-40.6	-43.5	14.2	3.00e-06	0	57	0	170917888	53	4844
2026-01-09 10:00:53.21	162.97	16.19	-40.5	-43.4	14.3	7.00e-07	0	57	0	173015040	53	4789
2026-01-09 10:00:54.21	162.98	16.31	-40.5	-43.4	14.3	7.00e-07	0	57	0	175112192	52	5053
2026-01-09 10:00:55.23	162.98	16.42	-40.5	-43.4	14.3	7.00e-07	0	57	0	177209344	52	5054
2026-01-09 10:00:56.24	162.99	16.54	-40.5	-43.4	14.4	0.00e+00	0	57	0	179306496	52	5046
2026-01-09 10:00:57.24	163.00	16.65	-40.4	-43.3	14.4	7.00e-07	0	57	0	180355072	52	5005
2026-01-09 10:00:58.25	163.01	16.77	-40.4	-43.2	14.5	7.00e-07	0	57	0	182452224	52	4953
2026-01-09 10:00:59.26	163.02	16.88	-40.4	-43.2	14.5	7.00e-07	0	57	0	184549376	52	4957
2026-01-09 10:01:00.27	163.02	17.00	-40.3	-43.1	14.6	0.00e+00	0	58	0	186646528	52	4897
2026-01-09 10:01:01.28	163.03	17.12	-40.3	-43.1	14.7	1.50e-06	0	57	0	188743680	52	4876
2026-01-09 10:01:02.29	163.04	17.24	-40.2	-43.0	14.7	0.00e+00	0	57	0	189792256	52	4837
2026-01-09 10:01:03.30	163.05	17.36	-40.2	-42.9	14.8	0.00e+00	0	57	0	191889408	52	4813
2026-01-09 10:01:04.31	163.06	17.48	-40.2	-42.9	14.8	7.00e-07	0	57	0	193986560	52	4812
2026-01-09 10:01:05.32	163.07	17.60	-40.2	-42.9	14.9	0.00e+00	0	57	0	196083712	52	4761
2026-01-09 10:01:06.33	163.07	17.72	-40.2	-42.8	14.9	0.00e+00	0	57	0	198180864	52	4757
2026-01-09 10:01:07.34	163.08	17.84	-40.2	-42.9	14.9	0.00e+00	0	57	0	200278016	52	4766
2026-01-09 10:01:08.35	163.09	17.96	-40.1	-42.8	15.0	0.00e+00	0	57	0	201326592	52	4725
2026-01-09 10:01:09.36	163.10	18.09	-40.1	-42.7	15.1	0.00e+00	0	57	0	203423744	52	4675
2026-01-09 10:01:10.37	163.11	18.21	-40.0	-42.6	15.2	0.00e+00	0	57	0	205520896	52	4607
2026-01-09 10:01:11.37	163.12	18.33	-40.0	-42.6	15.3	0.00e+00	0	57	0	207618048	51	4891
2026-01-09 10:01:12.38	163.12	18.46	-40.1	-42.6	15.2	0.00e+00	0	57	0	209715200	51	4916
2026-01-09 10:01:13.40	163.13	18.58	-40.0	-42.6	15.3	0.00e+00	0	57	0	210763776	51	4897
2026-01-09 10:01:14.41	163.14	18.71	-40.0	-42.6	15.3	0.00e+00	0	57	0	212860928	51	4887
2026-01-09 10:01:15.42	163.15	18.83	-40.0	-42.5	15.3	0.00e+00	0	57	0	214958080	51	4866
2026-01-09 10:01:16.42	163.16	18.96	-40.0	-42.6	15.3	0.00e+00	0	57	0	217055232	51	4879
2026-01-09 10:01:17.43	163.17	19.09	-40.0	-42.5	15.3	0.00e+00	0	57	0	219152384	51	4869
2026-01-09 10:01:18.44	163.18	19.22	-40.0	-42.5	15.4	0.00e+00	0	57	0	220200960	51	4844
2026-01-09 10:01:19.45	163.19	19.35	-40.0	-42.5	15.4	0.00e+00	0	57	0	222298112	51	4860
2026-01-09 10:01:20.46	163.19	19.48	-40.0	-42.6	15.3	0.00e+00	0	57	0	224395264	51	4891
2026-01-09 10:01:21.47	163.20	19.61	-40.0	-42.5	15.4	0.00e+00	0	57	0	226492416	51	4847
2026-01-09 10:01:22.48	163.21	19.74	-40.0	-42.5	15.4	0.00e+00	0	57	0	228589568	51	4854
2026-01-09 10:01:23.49	163.22	19.87	-40.0	-42.5	15.4	0.00e+00	0	57	0	229638144	51	4865
2026-01-09 10:01:24.50	163.23	20.00	-40.0	-42.6	15.4	0.00e+00	0	57	0	231735296	51	4873
2026-01-09 10:01:25.51	163.24	20.14	-40.1	-42.7	15.3	0.00e+00	0	57	0	233832448	51	4939
2026-01-09 10:01:26.52	163.25	20.27	-40.0	-42.5	15.4	0.00e+00	0	57	0	235929600	51	4863
2026-01-09 10:01:27.53	163.26	20.40	-39.9	-42.4	15.5	0.00e+00	0	57	0	238026752	51	4797
2026-01-09 10:01:28.54	163.27	20.54	-39.9	-42.4	15.5	0.00e+00	0	57	0	239075328	51	4795
2026-01-09 10:01:29.55	163.28	20.68	-39.8	-42.3	15.6	0.00e+00	0	57	0	241172480	51	4735
2026-01-09 10:01:30.56	163.29	20.81	-39.8	-42.3	15.7	0.00e+00	0	57	0	243269632	51	4714
2026-01-09 10:01:31.57	163.30	20.95	-39.8	-42.3	15.7	0.00e+00	0	57	0	245366784	51	4724
2026-01-09 10:01:32.58	163.31	21.09	-39.8	-42.3	15.7	0.00e+00	0	57	0	247463936	51	4722
2026-01-09 10:01:33.59	163.32	21.23	-39.8	-42.3	15.7	0.00e+00	0	57	0	248512512	51	4708
2026-01-09 10:01:34.60	163.32	21.37	-39.8	-42.3	15.7	0.00e+00	0	57	0	250609664	51	4710
2026-01-09 10:01:35.61	163.33	21.51	-39.8	-42.2	15.8	0.00e+00	0	57	0	252706816	51	4680
2026-01-09 10:01:36.62	163.34	21.65	-39.9	-42.4	15.6	0.00e+00	0	57	0	254803968	51	4761
2026-01-09 10:01:37.63	163.35	21.79	-39.8	-42.2	15.7	0.00e+00	0	57	0	256901120	51	4682
2026-01-09 10:01:38.64	163.36	21.94	-39.8	-42.2	15.8	0.00e+00	0	57	0	257949696	51	4684
2026-01-09 10:01:39.65	163.37	22.08	-39.8	-42.3	15.7	0.00e+00	0	57	0	260046848	51	4714
2026-01-09 10:01:40.66	163.38	22.22	-39.8	-42.2	15.7	0.00e+00	0	57	0	262144000	51	4701
2026-01-09 10:01:41.66	163.39	22.37	-39.8	-42.2	15.7	0.00e+00	0	57	0	264241152	51	4697
2026-01-09 10:01:42.67	163.40	22.52	-39.8	-42.2	15.8	0.00e+00	0	57	0	266338304	51	4673
2026-01-09 10:01:43.68	163.42	22.66	-39.8	-42.2	15.8	0.00e+00	0	57	0	268435456	51	4663
2026-01-09 10:01:44.69	163.43	22.81	-39.9	-42.3	15.7	0.00e+00	0	57	0	269484032	51	4726
2026-01-09 10:01:45.70	163.44	22.96	-39.8	-42.2	15.8	0.00e+00	0	57	0	271581184	51	4673
2026-01-09 10:01:46.71	163.45	23.11	-39.8	-42.2	15.8	0.00e+00	0	57	0	273678336	51	4672
2026-01-09 10:01:47.72	163.46	23.26	-39.9	-42.3	15.7	0.00e+00	0	57	0	275775488	51	4717
2026-01-09 10:01:48.73	163.47	23.41	-39.8	-42.2	15.8	0.00e+00	0	57	0	277872640	51	4688
2026-01-09 10:01:49.74	163.48	23.56	-39.8	-42.2	15.8	0.00e+00	0	57	0	278921216	51	4670
2026-01-09 10:01:50.75	163.49	23.72	-39.8	-42.2	15.8	0.00e+00	0	57	0	281018368	51	4685
2026-01-09 10:01:51.76	163.50	23.87	-39.8	-42.2	15.8	0.00e+00	0	57	0	283115520	51	4676
2026-01-09 10:01:52.77	163.51	24.03	-39.8	-42.2	15.8	0.00e+00	0	57	0	285212672	51	4683
2026-01-09 10:01:53.78	163.52	24.18	-39.8	-42.2	15.9	0.00e+00	0	57	0	287309824	51	4652
2026-01-09 10:01:54.78	163.53	24.34	-39.7	-42.1	15.9	0.00e+00	0	57	0	288358400	51	4621
2026-01-09 10:01:55.79	163.54	24.50	-39.8	-42.2	15.8	0.00e+00	0	57	0	290455552	51	4658
2026-01-09 10:01:56.80	163.56	24.66	-39.8	-42.1	15.9	0.00e+00	0	57	0	292552704	51	4651
2026-01-09 10:01:57.81	163.57	24.82	-39.8	-42.1	15.9	0.00e+00	0	57	0	294649856	51	4630
2026-01-09 10:01:58.82	163.58	24.98	-39.8	-42.2	15.9	0.00e+00	0	57	0	296747008	51	4655
2026-01-09 10:01:59.83	163.59	25.14	-39.8	-42.2	15.8	0.00e+00	0	57	0	297795584	51	4676
2026-01-09 10:02:00.84	163.60	25.30	-39.8	-42.2	15.8	0.00e+00	0	57	0	299892736	51	4678
2026-01-09 10:02:01.85	163.61	25.47	-39.9	-42.3	15.7	0.00e+00	0	57	0	301989888	51	4735
2026-01-09 10:02:02.86	163.63	25.63	-39.9	-42.3	15.8	0.00e+00	0	57	0	304087040	51	4713
2026-01-09 10:02:03.87	163.64	25.80	-40.0	-42.5	15.5	0.00e+00	0	57	0	306184192	51	4840
2026-01-09 10:02:04.88	163.65	25.96	-40.1	-42.6	15.4	0.00e+00	0	57	0	307232768	51	4898
2026-01-09 10:02:05.89	163.66	26.13	-40.1	-42.6	15.5	0.00e+00	0	57	0	309329920	51	4883
2026-01-09 10:02:06.90	163.67	26.30	-40.2	-42.7	15.3	0.00e+00	0	57	0	311427072	51	4962
2026-01-09 10:02:07.91	163.69	26.47	-40.3	-42.9	15.2	0.00e+00	0	57	0	313524224	51	5052
2026-01-09 10:02:08.91	163.70	26.64	-40.3	-42.9	15.2	0.00e+00	0	57	0	315621376	51	5061
2026-01-09 10:02:09.93	163.71	26.82	-40.4	-43.1	15.0	0.00e+00	0	57	0	316669952	51	5170
2026-01-09 10:02:10.94	163.72	26.99	-40.5	-43.2	14.8	0.00e+00	0	57	0	318767104	51	5253
2026-01-09 10:02:11.95	163.74	27.16	-40.6	-43.3	14.7	0.00e+00	0	57	0	320864256	51	5340
2026-01-09 10:02:12.95	163.75	27.34	-40.7	-43.5	14.5	0.00e+00	0	57	0	322961408	51	5439
2026-01-09 10:02:13.96	163.76	27.52	-40.7	-43.6	14.4	0.00e+00	0	57	0	325058560	52	5171
2026-01-09 10:02:14.97	163.77	27.69	-40.8	-43.7	14.2	0.00e+00	0	57	0	326107136	52	5259
2026-01-09 10:02:15.98	163.79	27.87	-40.9	-43.8	14.1	3.00e-06	0	57	0	328204288	52	5340
2026-01-09 10:02:16.99	163.80	28.05	-41.0	-44.0	14.0	2.20e-06	0	57	0	330301440	52	5432
2026-01-09 10:02:18.00	163.81	28.23	-41.1	-44.2	13.8	3.00e-06	0	57	0	332398592	52	5547
2026-01-09 10:02:19.01	163.83	28.42	-41.2	-44.3	13.6	6.10e-06	0	57	0	334495744	52	5649
2026-01-09 10:02:20.02	163.84	28.60	-41.2	-44.5	13.5	8.30e-06	0	57	0	335544320	53	5404
2026-01-09 10:02:21.03	163.85	28.79	-41.3	-44.6	13.3	1.14e-05	0	57	0	337641472	53	5515
2026-01-09 10:02:22.04	163.87	28.97	-41.5	-44.9	13.0	2.51e-05	0	57	0	339738624	53	5688
2026-01-09 10:02:23.05	163.88	29.16	-41.5	-45.0	12.9	3.43e-05	0	57	0	341835776	53	5771
2026-01-09 10:02:24.06	163.90	29.35	-41.6	-45.2	12.8	5.18e-05	0	57	0	343932928	53	5871
2026-01-09 10:02:25.06	163.91	29.54	-41.8	-45.4	12.5	8.54e-05	0	57	0	344981504	54	5708
2026-01-09 10:02:26.07	163.92	29.73	-41.9	-45.6	12.4	1.38e-04	0	57	0	347078656	54	5814
2026-01-09 10:02:27.08	163.94	29.92	-41.9	-45.8	12.2	1.98e-04	0	57	0	349175808	54	5938
2026-01-09 10:02:28.09	163.95	30.12	-42.0	-45.8	12.1	2.72e-04	0	57	0	351272960	54	5942
2026-01-09 10:02:29.10	163.97	30.31	-42.0	-45.9	12.0	2.91e-04	0	57	0	353370112	54	6049
2026-01-09 10:02:30.11	163.98	30.51	-42.1	-46.1	11.8	4.23e-04	0	57	0	354418688	54	6172
2026-01-09 10:02:31.12	164.00	30.71	-42.1	-46.0	11.9	3.99e-04	0	57	0	356515840	54	6099
2026-01-09 10:02:32.12	164.01	30.90	-42.0	-45.9	12.0	3.27e-04	0	57	0	358612992	54	6027
2026-01-09 10:02:33.13	164.03	31.10	-42.0	-45.8	12.1	4.12e-04	0	57	0	360710144	54	5986
2026-01-09 10:02:34.14	164.04	31.31	-41.9	-45.6	12.3	2.30e-04	0	57	0	362807296	54	5849
2026-01-09 10:02:35.15	164.06	31.51	-41.8	-45.5	12.5	1.43e-04	0	57	0	364904448	54	5736
2026-01-09 10:02:36.16	164.08	31.72	-41.6	-45.0	12.9	6.94e-05	0	57	0	365953024	54	5457
2026-01-09 10:02:37.17	164.09	31.92	-41.6	-45.0	13.0	6.40e-05	0	57	0	368050176	54	5445
2026-01-09 10:02:38.18	164.11	32.13	-41.5	-44.9	13.1	3.66e-05	0	57	0	370147328	54	5348
2026-01-09 10:02:39.19	164.12	32.34	-41.5	-44.8	13.2	1.67e-05	0	57	0	372244480	54	5321
2026-01-09 10:02:40.20	164.14	32.55	-41.4	-44.6	13.4	2.44e-05	0	57	0	374341632	54	5213
2026-01-09 10:02:41.21	164.16	32.76	-41.4	-44.7	13.3	2.74e-05	0	57	0	375390208	54	5268
2026-01-09 10:02:42.22	164.17	32.98	-41.4	-44.7	13.3	1.90e-05	0	57	0	377487360	54	5229
2026-01-09 10:02:43.23	164.19	33.19	-41.4	-44.7	13.3	1.67e-05	0	57	0	379584512	54	5239
2026-01-09 10:02:44.24	164.21	33.41	-41.3	-44.5	13.5	1.60e-05	0	57	0	381681664	54	5117
2026-01-09 10:02:45.25	164.23	33.63	-41.2	-44.3	13.7	6.80e-06	0	57	0	383778816	54	5008
2026-01-09 10:02:46.26	164.24	33.85	-41.0	-44.0	14.0	2.20e-06	0	57	0	384827392	54	4859
2026-01-09 10:02:47.27	164.26	34.07	-40.9	-43.9	14.1	1.50e-06	0	57	0	386924544	53	5082
2026-01-09 10:02:48.28	164.28	34.29	-40.8	-43.6	14.4	0.00e+00	0	57	0	389021696	53	4909
2026-01-09 10:02:49.28	164.30	34.51	-40.5	-43.3	14.8	7.00e-07	0	57	0	391118848	53	4715
2026-01-09 10:02:50.29	164.32	34.74	-40.3	-42.9	15.2	0.00e+00	0	57	0	393216000	52	4765
2026-01-09 10:02:51.30	164.33	34.97	-40.1	-42.6	15.5	0.00e+00	0	57	0	394264576	52	4614
2026-01-09 10:02:52.31	164.35	35.20	-39.9	-42.2	15.9	0.00e+00	0	57	0	396361728	51	4686
2026-01-09 10:02:53.32	164.37	35.43	-39.7	-42.0	16.1	0.00e+00	0	57	0	398458880	51	4551
2026-01-09 10:02:54.33	164.39	35.66	-39.6	-41.8	16.3	0.00e+00	0	57	0	400556032	51	4478
2026-01-09 10:02:55.34	164.41	35.90	-39.5	-41.7	16.4	0.00e+00	0	57	0	402653184	51	4425
2026-01-09 10:02:56.35	164.43	36.13	-39.5	-41.7	16.4	0.00e+00	0	57	0	403701760	50	4696
2026-01-09 10:02:57.36	164.45	36.37	-39.5	-41.6	16.5	0.00e+00	0	57	0	405798912	50	4648
2026-01-09 10:02:58.37	164.47	36.61	-39.5	-41.7	16.5	0.00e+00	0	57	0	407896064	50	4670
2026-01-09 10:02:59.38	164.49	36.85	-39.4	-41.6	16.5	0.00e+00	0	57	0	409993216	50	4630
2026-01-09 10:03:00.39	164.51	37.10	-39.5	-41.7	16.5	0.00e+00	0	57	0	412090368	50	4676
2026-01-09 10:03:01.40	164.53	37.34	-39.5	-41.7	16.4	0.00e+00	0	57	0	413138944	50	4676
2026-01-09 10:03:02.41	164.55	37.59	-39.3	-41.5	16.7	0.00e+00	0	57	0	415236096	50	4561
2026-01-09 10:03:03.41	164.57	37.84	-39.3	-41.4	16.7	0.00e+00	0	57	0	417333248	50	4535
2026-01-09 10:03:04.42	164.60	38.09	-39.1	-41.2	16.9	0.00e+00	0	57	0	419430400	50	4419
2026-01-09 10:03:05.43	164.62	38.34	-39.1	-41.2	16.9	0.00e+00	0	57	0	421527552	50	4419
2026-01-09 10:03:06.44	164.64	38.60	-39.1	-41.2	17.0	0.00e+00	0	57	0	422576128	50	4403
2026-01-09 10:03:07.45	164.66	38.85	-39.1	-41.2	17.0	0.00e+00	0	57	0	424673280	50	4398
2026-01-09 10:03:08.46	164.69	39.11	-39.0	-41.0	17.1	0.00e+00	0	57	0	426770432	50	4335
2026-01-09 10:03:09.47	164.71	39.37	-39.0	-41.1	17.1	0.00e+00	0	57	0	428867584	50	4352
2026-01-09 10:03:10.48	164.73	39.63	-39.0	-41.0	17.1	0.00e+00	0	57	0	430964736	49	4595
2026-01-09 10:03:11.49	164.76	39.90	-38.9	-41.0	17.2	0.00e+00	0	57	0	433061888	49	4547
2026-01-09 10:03:12.50	164.78	40.16	-39.0	-41.0	17.1	0.00e+00	0	57	0	434110464	49	4591
2026-01-09 10:03:13.51	164.81	40.43	-39.1	-41.2	17.0	0.00e+00	0	57	0	436207616	49	4656
2026-01-09 10:03:14.52	164.83	40.70	-39.1	-41.2	16.9	0.00e+00	0	57	0	438304768	49	4679
2026-01-09 10:03:15.53	164.86	40.98	-39.2	-41.3	16.8	0.00e+00	0	57	0	440401920	49	4738
2026-01-09 10:03:16.53	164.88	41.25	-39.1	-41.2	17.0	0.00e+00	0	57	0	442499072	49	4677
2026-01-09 10:03:17.54	164.91	41.52	-39.1	-41.1	17.0	0.00e+00	0	57	0	443547648	49	4646
2026-01-09 10:03:18.55	164.93	41.80	-39.1	-41.2	17.0	0.00e+00	0	57	0	445644800	49	4657
2026-01-09 10:03:19.56	164.96	42.08	-39.1	-41.2	17.0	0.00e+00	0	57	0	447741952	49	4654
2026-01-09 10:03:20.57	164.99	42.37	-39.1	-41.1	17.0	0.00e+00	0	57	0	449839104	49	4634
2026-01-09 10:03:21.58	165.02	42.65	-39.1	-41.2	17.0	0.00e+00	0	57	0	451936256	49	4671
2026-01-09 10:03:22.59	165.05	42.94	-39.1	-41.2	17.0	0.00e+00	0	57	0	452984832	49	4671
2026-01-09 10:03:23.60	165.07	43.23	-39.2	-41.3	16.8	0.00e+00	0	57	0	455081984	49	4737
2026-01-09 10:03:24.61	165.10	43.52	-39.4	-41.5	16.6	0.00e+00	0	57	0	457179136	49	4870
2026-01-09 10:03:25.62	165.13	43.82	-39.6	-41.9	16.3	0.00e+00	0	57	0	459276288	49	5055
2026-01-09 10:03:26.63	165.16	44.11	-40.0	-42.3	15.8	0.00e+00	0	57	0	461373440	50	5041
2026-01-09 10:03:27.64	165.19	44.41	-40.3	-42.9	15.3	0.00e+00	0	57	0	462422016	51	5070
2026-01-09 10:03:28.65	165.22	44.71	-40.6	-43.3	14.9	0.00e+00	0	57	0	464519168	51	5295
2026-01-09 10:03:29.66	165.26	45.01	-40.8	-43.6	14.4	0.00e+00	0	57	0	466616320	52	5217
2026-01-09 10:03:30.66	165.29	45.32	-40.9	-43.8	14.3	1.50e-06	0	57	0	468713472	52	5317
2026-01-09 10:03:31.67	165.32	45.62	-41.0	-44.0	14.0	3.00e-06	0	57	0	470810624	52	5459
2026-01-09 10:03:32.69	165.35	45.94	-41.1	-44.2	13.9	5.30e-06	0	57	0	471859200	53	5254
2026-01-09 10:03:33.69	165.39	46.25	-41.2	-44.3	13.7	6.10e-06	0	57	0	473956352	53	5304
2026-01-09 10:03:34.70	165.42	46.56	-41.3	-44.4	13.6	5.30e-06	0	57	0	476053504	53	5390
2026-01-09 10:03:35.71	165.46	46.88	-41.4	-44.8	13.3	1.22e-05	0	57	0	478150656	53	5597
2026-01-09 10:03:36.72	165.49	47.20	-41.7	-45.2	12.8	3.05e-05	0	57	0	480247808	54	5570
2026-01-09 10:03:37.73	165.53	47.52	-41.6	-45.1	12.9	6.33e-05	0	57	0	481296384	54	5500
2026-01-09 10:03:38.74	165.57	47.85	-41.6	-45.1	12.9	5.72e-05	0	57	0	483393536	54	5512
2026-01-09 10:03:39.75	165.61	48.17	-41.6	-45.0	13.1	4.42e-05	0	57	0	485490688	54	5444
2026-01-09 10:03:40.76	165.64	48.50	-41.4	-44.6	13.4	1.90e-05	0	57	0	487587840	54	5195
2026-01-09 10:03:41.77	165.68	48.83	-41.3	-44.5	13.5	6.80e-06	0	57	0	489684992	54	5155
2026-01-09 10:03:42.78	165.72	49.17	-41.3	-44.6	13.5	3.80e-06	0	57	0	490733568	54	5162
2026-01-09 10:03:43.79	165.76	49.51	-41.5	-44.8	13.2	1.37e-05	0	57	0	492830720	54	5291
2026-01-09 10:03:44.80	165.81	49.85	-41.5	-44.8	13.2	2.51e-05	0	57	0	494927872	54	5305
2026-01-09 10:03:45.81	165.85	50.19	-41.5	-44.8	13.3	2.28e-05	0	57	0	497025024	54	5280
2026-01-09 10:03:46.82	165.89	50.53	-41.3	-44.4	13.7	6.80e-06	0	57	0	499122176	54	5064
2026-01-09 10:03:47.83	165.94	50.88	-40.8	-43.6	14.4	2.20e-06	0	57	0	501219328	53	4892
2026-01-09 10:03:48.84	165.98	51.23	-40.2	-42.7	15.3	0.00e+00	0	57	0	502267904	52	4671
2026-01-09 10:03:49.85	166.03	51.58	-39.8	-42.0	16.1	0.00e+00	0	57	0	504365056	51	4591
2026-01-09 10:03:50.86	166.08	51.94	-39.5	-41.7	16.5	0.00e+00	0	57	0	506462208	50	4678
2026-01-09 10:03:51.87	166.13	52.29	-39.1	-41.1	17.0	0.00e+00	0	57	0	508559360	50	4383
2026-01-09 10:03:52.88	166.18	52.65	-38.7	-40.6	17.6	0.00e+00	0	57	0	510656512	49	4349
2026-01-09 10:03:53.89	166.23	53.02	-38.3	-40.1	18.0	0.00e+00	0	57	0	511705088	48	4377
2026-01-09 10:03:54.90	166.28	53.38	-38.5	-40.3	17.8	0.00e+00	0	57	0	513802240	48	4478
2026-01-09 10:03:55.91	166.33	53.75	-38.5	-40.4	17.8	0.00e+00	0	57	0	515899392	48	4494
2026-01-09 10:03:56.92	166.39	54.12	-38.5	-40.4	17.7	0.00e+00	0	57	0	517996544	48	4521
2026-01-09 10:03:57.92	166.44	54.49	-38.6	-40.5	17.6	0.00e+00	0	57	0	520093696	48	4581
2026-01-09 10:03:58.93	166.50	54.87	-38.8	-40.8	17.4	0.00e+00	0	57	0	521142272	48	4722
2026-01-09 10:03:59.94	166.56	55.24	-39.1	-41.2	16.9	0.00e+00	0	57	0	523239424	48	4962
2026-01-09 10:04:00.95	166.62	55.63	-39.3	-41.4	16.8	0.00e+00	0	57	0	525336576	49	4763
2026-01-09 10:04:01.96	166.68	56.01	-39.4	-41.5	16.6	0.00e+00	0	57	0	527433728	49	4857
2026-01-09 10:04:02.97	166.74	56.40	-39.7	-41.9	16.2	0.00e+00	0	57	0	529530880	49	5098
2026-01-09 10:04:03.98	166.81	56.79	-40.0	-42.4	15.7	7.00e-07	0	57	0	530579456	50	5063
2026-01-09 10:04:04.99	166.88	57.18	-40.2	-42.7	15.4	0.00e+00	0	57	0	532676608	50	5275
2026-01-09 10:04:06.01	166.95	57.58	-40.3	-42.9	15.2	0.00e+00	0	57	0	534773760	51	5068
2026-01-09 10:04:07.01	167.02	57.97	-40.3	-42.9	15.2	7.00e-07	0	57	0	536870912	51	5063
2026-01-09 10:04:08.02	167.09	58.37	-40.3	-42.8	15.4	0.00e+00	0	57	0	538968064	51	4996
2026-01-09 10:04:09.03	167.16	58.77	-40.3	-42.9	15.3	0.00e+00	0	57	0	540016640	51	5059
2026-01-09 10:04:10.05	167.24	59.18	-40.3	-42.9	15.2	0.00e+00	0	57	0	542113792	51	5068
2026-01-09 10:04:11.06	167.32	59.59	-40.1	-42.6	15.5	0.00e+00	0	57	0	544210944	51	4876
2026-01-09 10:04:12.07	167.40	60.00	-39.5	-41.7	16.5	0.00e+00	0	57	0	546308096	50	4655
2026-01-09 10:04:13.08	167.49	60.41	-39.0	-41.0	17.1	0.00e+00	0	57	0	548405248	50	4321
2026-01-09 10:04:14.09	167.58	60.83	-38.8	-40.7	17.3	0.00e+00	0	57	0	549453824	49	4432
2026-01-09 10:04:15.09	167.66	61.25	-38.6	-40.5	17.6	0.00e+00	0	57	0	551550976	49	4319
2026-01-09 10:04:16.10	167.76	61.67	-38.5	-40.4	17.7	0.00e+00	0	57	0	553648128	49	4250
2026-01-09 10:04:17.11	167.85	62.09	-38.3	-40.1	18.0	0.00e+00	0	57	0	555745280	48	4386
2026-01-09 10:04:18.12	167.95	62.52	-38.1	-39.8	18.2	0.00e+00	0	57	0	557842432	48	4241
2026-01-09 10:04:19.13	168.06	62.95	-37.8	-39.6	18.4	0.00e+00	0	57	0	558891008	47	4361
2026-01-09 10:04:20.14	168.16	63.38	-37.7	-39.4	18.6	0.00e+00	0	57	0	560988160	47	4254
2026-01-09 10:04:21.15	168.27	63.81	-38.1	-39.9	18.1	0.00e+00	0	57	0	563085312	47	4513
2026-01-09 10:04:22.16	168.39	64.25	-38.6	-40.6	17.4	0.00e+00	0	57	0	565182464	47	4875
2026-01-09 10:04:23.17	168.51	64.69	-39.3	-41.4	16.7	0.00e+00	0	57	0	567279616	49	4803
2026-01-09 10:04:24.18	168.63	65.13	-39.8	-42.2	15.9	0.00e+00	0	57	0	569376768	50	4960
2026-01-09 10:04:25.18	168.76	65.57	-40.1	-42.6	15.5	0.00e+00	0	57	0	570425344	50	5191
2026-01-09 10:04:26.19	168.89	66.01	-40.4	-43.0	15.1	0.00e+00	0	57	0	572522496	51	5126
2026-01-09 10:04:27.20	169.03	66.46	-40.3	-42.9	15.2	0.00e+00	0	57	0	574619648	51	5092
2026-01-09 10:04:28.21	169.17	66.91	-40.4	-43.0	15.2	0.00e+00	0	57	0	576716800	51	5110
2026-01-09 10:04:29.22	169.32	67.37	-40.3	-42.9	15.2	0.00e+00	0	57	0	577765376	51	5056
2026-01-09 10:04:30.23	169.48	67.82	-40.5	-43.1	14.9	0.00e+00	0	57	0	579862528	51	5210
2026-01-09 10:04:31.24	169.64	68.28	-40.9	-43.8	14.2	7.00e-07	0	57	0	581959680	52	5307
2026-01-09 10:04:32.25	169.82	68.74	-41.2	-44.3	13.6	6.80e-06	0	57	0	584056832	53	5317
2026-01-09 10:04:33.26	170.00	69.20	-41.0	-44.1	13.9	1.22e-05	0	57	0	586153984	53	5180
2026-01-09 10:04:34.27	170.18	69.67	-40.7	-43.6	14.5	7.00e-07	0	57	0	587202560	53	4872
2026-01-09 10:04:35.28	170.38	70.13	-40.2	-42.8	15.2	0.00e+00	0	57	0	589299712	52	4725
2026-01-09 10:04:36.29	170.59	70.60	-40.0	-42.4	15.6	0.00e+00	0	57	0	591396864	51	4803
2026-01-09 10:04:37.30	170.81	71.07	-39.9	-42.2	15.8	0.00e+00	0	57	0	593494016	51	4700
2026-01-09 10:04:38.31	171.04	71.55	-40.4	-43.1	15.0	0.00e+00	0	57	0	595591168	51	5182
2026-01-09 10:04:39.32	171.28	72.02	-40.9	-43.9	14.0	1.50e-06	0	57	0	597688320	52	5401
2026-01-09 10:04:40.33	171.54	72.50	-41.1	-44.2	13.7	5.30e-06	0	57	0	598736896	52	5531
2026-01-09 10:04:41.34	171.81	72.97	-40.8	-43.7	14.3	7.00e-07	0	57	0	600834048	52	5251
2026-01-09 10:04:42.35	172.10	73.45	-40.7	-43.5	14.3	1.50e-06	0	57	0	602931200	52	5158
2026-01-09 10:04:43.35	172.40	73.93	-40.9	-43.9	14.1	0.00e+00	0	57	0	605028352	52	5351
2026-01-09 10:04:44.36	172.73	74.41	-41.3	-44.6	13.3	6.10e-06	0	57	0	607125504	53	5466
2026-01-09 10:04:45.37	173.07	74.89	-41.5	-45.0	12.8	4.65e-05	0	57	0	608174080	53	5737
2026-01-09 10:04:46.38	173.44	75.38	-41.3	-44.6	13.2	3.20e-05	0	57	0	610271232	53	5508
2026-01-09 10:04:47.39	173.84	75.87	-40.9	-43.9	13.9	7.60e-06	0	57	0	612368384	53	5090
2026-01-09 10:04:48.40	174.26	76.35	-40.8	-43.8	14.1	3.00e-06	0	57	0	614465536	53	5011
2026-01-09 10:04:49.41	174.72	76.84	-40.6	-43.4	14.4	7.00e-07	0	57	0	616562688	53	4803
2026-01-09 10:04:50.42	175.22	77.33	-40.5	-43.3	14.6	0.00e+00	0	57	0	617611264	53	4729
2026-01-09 10:04:51.43	175.75	77.82	-40.6	-43.3	14.6	0.00e+00	0	57	0	619708416	52	5035
2026-01-09 10:04:52.44	176.33	78.31	-40.3	-42.9	14.9	0.00e+00	0	57	0	621805568	52	4810
2026-01-09 10:04:53.45	176.96	78.80	-40.0	-42.4	15.6	0.00e+00	0	57	0	623902720	51	4793
2026-01-09 10:04:54.46	177.65	79.29	-39.8	-42.1	15.9	0.00e+00	0	57	0	625999872	51	4635
2026-01-09 10:04:55.47	178.41	79.78	-39.6	-41.9	16.1	0.00e+00	0	57	0	627048448	51	4530
2026-01-09 10:04:56.48	179.24	80.26	-39.6	-42.0	16.0	0.00e+00	0	57	0	629145600	51	4564
2026-01-09 10:04:57.49	180.17	80.75	-39.6	-41.9	16.1	0.00e+00	0	57	0	631242752	51	4504
2026-01-09 10:04:58.50	181.19	81.24	-40.0	-42.4	15.5	0.00e+00	0	57	0	633339904	51	4784
2026-01-09 10:04:59.51	182.34	81.72	-41.0	-44.1	13.7	7.00e-07	0	57	0	635437056	52	5507
2026-01-09 10:05:00.51	183.62	82.20	-42.2	-46.4	11.3	1.03e-04	0	57	0	636485632	54	6387
2026-01-09 10:05:01.52	185.08	82.67	-42.1	-46.1	11.6	1.85e-03	0	57	0	638582784	55	5854
2026-01-09 10:05:02.53	186.74	83.15	-41.4	-44.8	13.0	1.25e-04	0	57	0	640679936	54	5284
2026-01-09 10:05:03.54	188.65	83.62	-41.1	-44.2	13.6	1.44e-05	0	57	0	642777088	54	4970
2026-01-09 10:05:04.55	190.87	84.08	-40.4	-43.1	14.6	7.00e-07	0	57	0	644874240	52	4923
2026-01-09 10:05:05.57	193.48	84.53	-40.1	-42.6	15.2	0.00e+00	0	57	0	645922816	52	4616
2026-01-09 10:05:06.58	196.52	84.97	-40.3	-42.9	14.9	0.00e+00	0	57	0	648019968	52	4784
2026-01-09 10:05:07.58	200.09	85.38	-40.0	-42.5	15.4	0.00e+00	0	57	0	650117120	51	4845
2026-01-09 10:05:08.59	204.41	85.79	-39.9	-42.3	15.6	0.00e+00	0	57	0	652214272	51	4716
2026-01-09 10:05:09.60	209.59	86.16	-40.3	-43.0	14.9	0.00e+00	0	57	0	654311424	51	5106
2026-01-09 10:05:10.61	215.83	86.49	-40.4	-43.1	14.8	0.00e+00	0	57	0	655360000	51	5217
2026-01-09 10:05:11.62	223.26	86.78	-40.7	-43.6	14.2	1.50e-06	0	57	0	657457152	52	5193
2026-01-09 10:05:12.63	231.96	87.00	-41.0	-44.0	13.7	3.80e-06	0	57	0	659554304	52	5459
2026-01-09 10:05:13.64	241.78	87.14	-40.8	-43.7	14.1	6.10e-06	0	57	0	661651456	53	4940
2026-01-09 10:05:14.65	252.27	87.19	-40.5	-43.2	14.5	0.00e+00	0	57	0	663748608	53	4698
2026-01-09 10:05:15.66	262.80	87.15	-40.4	-43.2	14.6	7.00e-07	0	57	0	665845760	52	4933
2026-01-09 10:05:16.67	272.68	87.01	-40.6	-43.5	14.3	1.50e-06	0	57	0	666894336	52	5134
2026-01-09 10:05:17.68	281.46	86.79	-40.6	-43.5	14.3	1.50e-06	0	57	0	668991488	52	5102
2026-01-09 10:05:18.69	288.99	86.51	-41.0	-44.1	13.6	2.20e-06	0	57	0	671088640	52	5504
2026-01-09 10:05:19.70	295.30	86.18	-41.0	-44.0	13.8	1.14e-05	0	57	0	673185792	53	5141
2026-01-09 10:05:20.71	300.56	85.81	-40.5	-43.2	14.6	7.00e-07	0	57	0	675282944	52	4940
2026-01-09 10:05:21.72	304.93	85.42	-40.4	-43.2	14.6	7.00e-07	0	57	0	676331520	52	4954
2026-01-09 10:05:22.73	308.58	85.00	-40.0	-42.4	15.3	0.00e+00	0	57	0	678428672	52	4541
2026-01-09 10:05:23.74	311.66	84.56	-39.7	-42.1	15.8	0.00e+00	0	57	0	680525824	51	4626
2026-01-09 10:05:24.75	314.27	84.11	-40.2	-42.8	15.2	0.00e+00	0	57	0	682622976	51	5006
2026-01-09 10:05:25.75	316.48	83.66	-41.2	-44.5	13.4	3.80e-06	0	57	0	684720128	52	5757
2026-01-09 10:05:26.76	318.42	83.19	-41.8	-45.6	12.2	5.49e-05	0	57	0	685768704	54	5804
2026-01-09 10:05:27.77	320.10	82.72	-42.3	-46.6	11.2	1.31e-03	0	57	0	687865856	55	6154
2026-01-09 10:05:28.78	321.57	82.24	-42.1	-46.2	11.6	1.10e-03	0	57	0	689963008	55	5894
2026-01-09 10:05:29.79	322.88	81.76	-41.7	-45.3	12.4	4.17e-04	0	57	0	692060160	55	5295
2026-01-09 10:05:30.80	324.04	81.28	-41.0	-44.1	13.7	2.28e-05	0	57	0	694157312	54	4923
2026-01-09 10:05:31.81	325.07	80.79	-40.3	-43.0	14.8	0.00e+00	0	57	0	695205888	52	4825
2026-01-09 10:05:32.82	326.00	80.30	-40.0	-42.4	15.5	0.00e+00	0	57	0	697303040	51	4804
2026-01-09 10:05:33.83	326.84	79.82	-39.6	-41.8	16.1	0.00e+00	0	57	0	699400192	51	4483
2026-01-09 10:05:34.84	327.60	79.33	-39.9	-42.3	15.6	0.00e+00	0	57	0	701497344	51	4738
2026-01-09 10:05:35.85	328.30	78.84	-40.8	-43.7	14.1	0.00e+00	0	57	0	703594496	52	5271
2026-01-09 10:05:36.86	328.93	78.35	-40.9	-43.9	13.8	1.06e-05	0	57	0	704643072	52	5378
2026-01-09 10:05:37.87	329.52	77.86	-41.3	-44.6	13.2	1.50e-06	0	57	0	706740224	53	5510
2026-01-09 10:05:38.88	330.05	77.37	-42.8	-47.6	10.2	6.99e-04	0	57	0	708837376	55	6936
2026-01-09 10:05:39.89	330.55	76.88	-43.4	-49.2	8.6	2.39e-02	0	57	0	710934528	57	7423
2026-01-09 10:05:40.90	331.01	76.40	-42.9	-47.8	10.0	1.36e-02	0	57	0	713031680	57	6302
2026-01-09 10:05:41.91	331.44	75.91	-42.4	-46.6	11.2	1.68e-03	0	57	0	714080256	56	5850
2026-01-09 10:05:42.91	331.83	75.43	-42.0	-45.9	11.9	4.86e-04	0	57	0	716177408	55	5700
2026-01-09 10:05:43.92	332.20	74.95	-42.9	-47.7	10.1	2.87e-03	0	57	0	718274560	56	6642
2026-01-09 10:05:44.93	332.55	74.46	-42.9	-47.9	10.0	9.49e-03	0	57	0	720371712	56	6734
2026-01-09 10:05:45.94	332.88	73.98	-41.6	-45.0	12.7	1.73e-03	0	57	0	722468864	55	5150
2026-01-09 10:05:46.95	333.19	73.50	-40.4	-43.1	14.8	0.00e+00	0	57	0	723517440	52	4916
2026-01-09 10:05:47.96	333.48	73.02	-40.3	-42.9	15.0	0.00e+00	0	57	0	725614592	52	4781
2026-01-09 10:05:48.97	333.75	72.55	-40.4	-43.1	14.8	7.00e-07	0	57	0	727711744	52	4918
2026-01-09 10:05:49.98	334.01	72.07	-40.0	-42.5	15.4	0.00e+00	0	57	0	729808896	51	4834
2026-01-09 10:05:50.99	334.25	71.60	-39.7	-42.0	16.0	1.37e-05	0	57	0	731906048	50	4840
2026-01-09 10:05:52.00	334.48	71.13	-39.7	-42.0	16.1	0.00e+00	0	57	0	734003200	50	4815
2026-01-09 10:05:53.01	334.70	70.66	-40.0	-42.5	15.5	0.00e+00	0	57	0	735051776	50	5101
2026-01-09 10:05:54.02	334.91	70.19	-40.9	-44.0	13.9	7.00e-07	0	57	0	737148928	52	5403
2026-01-09 10:05:55.03	335.11	69.73	-40.9	-44.0	13.8	1.14e-05	0	57	0	739246080	53	5108
2026-01-09 10:05:56.04	335.30	69.26	-40.0	-42.4	15.6	7.00e-07	0	57	0	741343232	51	4806
2026-01-09 10:05:57.04	335.48	68.81	-40.3	-42.9	15.2	7.00e-07	0	57	0	743440384	51	5052
2026-01-09 10:05:58.05	335.65	68.35	-41.9	-45.7	12.2	1.67e-05	0	57	0	744488960	54	5889
2026-01-09 10:05:59.06	335.81	67.89	-43.0	-47.9	10.0	3.03e-03	0	57	0	746586112	56	6751
2026-01-09 10:06:00.07	335.97	67.43	-42.4	-46.4	11.4	1.65e-03	0	57	0	748683264	56	5705
2026-01-09 10:06:01.08	336.12	66.98	-41.7	-45.3	12.5	1.35e-04	0	57	0	750780416	55	5312
2026-01-09 10:06:02.09	336.27	66.53	-41.3	-44.4	13.5	3.05e-05	0	57	0	752877568	54	5085
2026-01-09 10:06:03.10	336.41	66.08	-41.2	-44.4	13.5	9.90e-06	0	57	0	753926144	53	5380
2026-01-09 10:06:04.11	336.54	65.64	-41.9	-45.7	12.2	8.54e-05	0	57	0	756023296	54	5878
2026-01-09 10:06:05.12	336.67	65.20	-41.8	-45.5	12.4	3.42e-04	0	57	0	758120448	54	5739
2026-01-09 10:06:06.13	336.79	64.76	-40.1	-42.6	15.3	0.00e+00	0	57	0	760217600	52	4614
2026-01-09 10:06:07.14	336.91	64.32	-39.4	-41.5	16.5	0.00e+00	0	57	0	762314752	50	4588
2026-01-09 10:06:08.15	337.03	63.88	-39.0	-41.0	17.1	0.00e+00	0	57	0	763363328	49	4551
2026-01-09 10:06:09.16	337.14	63.45	-38.8	-40.7	17.3	0.00e+00	0	57	0	765460480	49	4425
2026-01-09 10:06:10.17	337.25	63.02	-38.7	-40.6	17.4	0.00e+00	0	57	0	767557632	49	4387
2026-01-09 10:06:11.17	337.35	62.59	-39.0	-41.0	17.1	0.00e+00	0	57	0	769654784	49	4582
2026-01-09 10:06:12.18	337.45	62.17	-38.8	-40.8	17.3	0.00e+00	0	57	0	771751936	49	4443
2026-01-09 10:06:13.19	337.54	61.75	-38.7	-40.6	17.4	0.00e+00	0	57	0	772800512	49	4378
2026-01-09 10:06:14.20	337.64	61.33	-39.0	-41.0	17.1	0.00e+00	0	57	0	774897664	49	4583
2026-01-09 10:06:15.21	337.73	60.91	-40.1	-42.5	15.5	0.00e+00	0	57	0	776994816	50	5153
2026-01-09 10:06:16.22	337.82	60.49	-41.3	-44.6	13.4	8.30e-06	0	57	0	779091968	53	5502
2026-01-09 10:06:17.23	337.90	60.08	-41.5	-44.9	13.0	9.00e-05	0	57	0	781189120	54	5380
2026-01-09 10:06:18.24	337.98	59.67	-41.0	-44.0	14.0	1.22e-05	0	57	0	782237696	54	4857
2026-01-09 10:06:19.25	338.06	59.26	-40.9	-43.8	14.2	4.50e-06	0	57	0	784334848	53	5023
2026-01-09 10:06:20.26	338.14	58.86	-41.5	-44.7	13.2	1.37e-05	0	57	0	786432000	53	5592
2026-01-09 10:06:21.27	338.22	58.46	-41.9	-45.6	12.3	7.09e-05	0	57	0	788529152	54	5825
2026-01-09 10:06:22.28	338.29	58.06	-41.9	-45.6	12.4	2.02e-04	0	57	0	790626304	54	5836
2026-01-09 10:06:23.29	338.36	57.66	-42.1	-46.1	11.9	2.92e-04	0	57	0	791674880	54	6134
2026-01-09 10:06:24.30	338.43	57.27	-42.2	-46.2	11.7	6.48e-04	0	57	0	793772032	55	5899
2026-01-09 10:06:25.31	338.50	56.88	-41.5	-44.8	13.1	2.66e-04	0	57	0	795869184	55	5035
2026-01-09 10:06:26.32	338.56	56.49	-40.9	-43.7	14.2	3.80e-06	0	57	0	797966336	53	4978
2026-01-09 10:06:27.33	338.63	56.11	-40.7	-43.4	14.5	0.00e+00	0	57	0	800063488	53	4806
2026-01-09 10:06:28.34	338.69	55.72	-40.7	-43.4	14.6	7.00e-07	0	57	0	802160640	53	4808
2026-01-09 10:06:29.34	338.75	55.35	-40.6	-43.3	14.7	7.00e-07	0	57	0	803209216	53	4759
2026-01-09 10:06:30.35	338.81	54.97	-40.1	-42.6	15.4	0.00e+00	0	57	0	805306368	52	4635
2026-01-09 10:06:31.36	338.87	54.59	-40.0	-42.4	15.7	0.00e+00	0	57	0	807403520	51	4812
2026-01-09 10:06:32.37	338.92	54.22	-40.3	-42.8	15.4	0.00e+00	0	57	0	809500672	51	4992
2026-01-09 10:06:33.38	338.98	53.85	-40.4	-42.9	15.2	0.00e+00	0	57	0	811597824	51	5088
2026-01-09 10:06:34.39	339.03	53.48	-40.0	-42.4	15.7	0.00e+00	0	57	0	812646400	51	4777
2026-01-09 10:06:35.40	339.08	53.12	-39.5	-41.7	16.4	0.00e+00	0	57	0	814743552	51	4401
2026-01-09 10:06:36.41	339.14	52.76	-39.5	-41.6	16.5	0.00e+00	0	57	0	816840704	50	4627
2026-01-09 10:06:37.42	339.19	52.40	-40.0	-42.3	15.9	0.00e+00	0	57	0	818937856	50	5003
2026-01-09 10:06:38.42	339.23	52.05	-40.8	-43.6	14.4	0.00e+00	0	57	0	821035008	52	5198
2026-01-09 10:06:39.43	339.28	51.69	-41.8	-45.4	12.5	4.65e-05	0	57	0	822083584	54	5713
2026-01-09 10:06:40.44	339.33	51.34	-42.3	-46.5	11.5	4.39e-04	0	57	0	824180736	55	6071
2026-01-09 10:06:41.45	339.37	50.99	-42.7	-47.3	10.7	1.64e-03	0	57	0	826277888	55	6653
2026-01-09 10:06:42.46	339.42	50.65	-43.1	-48.0	10.0	6.26e-03	0	57	0	828375040	56	6832
2026-01-09 10:06:43.47	339.46	50.30	-43.1	-48.1	9.9	7.54e-03	0	57	0	830472192	56	6956
2026-01-09 10:06:44.48	339.51	49.96	-42.8	-47.3	10.7	7.34e-03	0	57	0	831520768	56	6325
2026-01-09 10:06:45.49	339.55	49.62	-42.5	-46.6	11.4	1.12e-03	0	57	0	833617920	56	5812
2026-01-09 10:06:46.50	339.59	49.29	-42.4	-46.4	11.7	5.60e-04	0	57	0	835715072	56	5700
2026-01-09 10:06:47.51	339.63	48.95	-43.1	-48.0	10.1	1.85e-03	0	57	0	837812224	56	6828
2026-01-09 10:06:48.52	339.67	48.62	-44.2	-51.9	6.2	3.82e-02	0	57	0	839909376	58	9601
2026-01-09 10:06:49.53	339.71	48.29	-44.2	-52.5	5.7	5.28e-01	0	57	0	840957952	59	9645
2026-01-09 10:06:50.54	339.75	47.97	-43.2	-48.5	9.3	1.45e-01	0	57	0	843055104	58	6437
2026-01-09 10:06:51.55	339.79	47.64	-41.5	-44.9	12.9	2.82e-03	0	57	0	845152256	55	5069
2026-01-09 10:06:52.56	339.82	47.32	-40.5	-43.2	14.7	0.00e+00	0	57	0	847249408	53	4694
2026-01-09 10:06:53.57	339.86	47.00	-40.0	-42.4	15.7	0.00e+00	0	57	0	849346560	51	4766
2026-01-09 10:06:54.58	339.89	46.69	-40.0	-42.3	15.8	0.00e+00	0	57	0	850395136	51	4753
2026-01-09 10:06:55.59	339.93	46.37	-40.0	-42.4	15.7	0.00e+00	0	57	0	852492288	51	4797
2026-01-09 10:06:56.59	339.96	46.07	-40.6	-43.3	14.8	0.00e+00	0	57	0	854589440	51	5304
2026-01-09 10:06:57.60	340.00	45.76	-40.8	-43.7	14.3	1.50e-06	0	57	0	856686592	52	5258
2026-01-09 10:06:58.61	340.03	45.45	-41.1	-44.1	13.9	0.00e+00	0	57	0	858783744	52	5512
2026-01-09 10:06:59.62	340.06	45.14	-41.1	-44.2	13.7	5.30e-06	0	57	0	859832320	52	5577
2026-01-09 10:07:00.63	340.09	44.84	-41.0	-44.1	13.9	1.22e-05	0	57	0	861929472	52	5495
2026-01-09 10:07:01.64	340.13	44.54	-40.4	-43.1	14.9	0.00e+00	0	57	0	864026624	52	4908
2026-01-09 10:07:02.65	340.16	44.24	-39.8	-42.2	15.9	0.00e+00	0	57	0	866123776	51	4658
2026-01-09 10:07:03.66	340.19	43.95	-39.4	-41.5	16.5	0.00e+00	0	57	0	868220928	50	4576
2026-01-09 10:07:04.67	340.22	43.66	-39.2	-41.2	16.8	0.00e+00	0	57	0	869269504	50	4421
2026-01-09 10:07:05.68	340.25	43.37	-38.8	-40.7	17.3	0.00e+00	0	57	0	871366656	49	4434
2026-01-09 10:07:06.69	340.28	43.08	-38.7	-40.6	17.4	0.00e+00	0	57	0	873463808	49	4390
2026-01-09 10:07:07.70	340.30	42.79	-39.3	-41.4	16.7	0.00e+00	0	57	0	875560960	49	4801
2026-01-09 10:07:08.71	340.33	42.51	-40.1	-42.5	15.5	0.00e+00	0	57	0	877658112	50	5138
2026-01-09 10:07:09.72	340.36	42.22	-40.9	-43.9	14.1	0.00e+00	0	57	0	878706688	52	5367
2026-01-09 10:07:10.72	340.39	41.95	-41.6	-45.1	12.8	2.21e-05	0	57	0	880803840	53	5834
2026-01-09 10:07:11.73	340.41	41.67	-41.9	-45.6	12.3	1.69e-04	0	57	0	882900992	54	5835
2026-01-09 10:07:12.74	340.44	41.39	-41.3	-44.6	13.4	5.49e-05	0	57	0	884998144	54	5162
2026-01-09 10:07:13.74	340.47	41.12	-40.7	-43.5	14.5	1.50e-06	0	57	0	887095296	53	4848
2026-01-09 10:07:14.76	340.49	40.85	-40.3	-42.8	15.2	7.00e-07	0	57	0	888143872	52	4753
2026-01-09 10:07:15.77	340.52	40.58	-40.0	-42.4	15.7	0.00e+00	0	57	0	890241024	51	4793
2026-01-09 10:07:16.78	340.54	40.31	-39.8	-42.1	16.0	0.00e+00	0	57	0	892338176	51	4604
2026-01-09 10:07:17.79	340.57	40.04	-39.9	-42.2	15.9	0.00e+00	0	57	0	894435328	51	4680
2026-01-09 10:07:18.80	340.59	39.78	-40.0	-42.4	15.7	0.00e+00	0	57	0	896532480	51	4780
2026-01-09 10:07:19.81	340.62	39.52	-40.6	-43.2	14.8	0.00e+00	0	57	0	898629632	51	5275
2026-01-09 10:07:20.81	340.64	39.26	-41.2	-44.4	13.6	7.00e-07	0	57	0	899678208	53	5376
2026-01-09 10:07:21.82	340.66	39.00	-41.9	-45.7	12.1	8.01e-05	0	57	0	901775360	54	5923
2026-01-09 10:07:22.83	340.69	38.75	-42.5	-47.0	10.9	9.73e-04	0	57	0	903872512	55	6455
2026-01-09 10:07:23.84	340.71	38.49	-43.1	-48.3	9.6	5.12e-03	0	57	0	905969664	56	7096
2026-01-09 10:07:24.85	340.73	38.24	-43.3	-49.0	9.0	2.47e-02	0	57	0	908066816	57	7223
2026-01-09 10:07:25.86	340.75	37.99	-43.2	-48.4	9.5	2.28e-02	0	57	0	909115392	57	6770
2026-01-09 10:07:26.87	340.78	37.74	-42.9	-47.8	10.2	1.11e-02	0	56	0	911212544	57	6300
2026-01-09 10:07:27.88	340.80	37.50	-42.6	-46.9	11.0	2.52e-03	0	57	0	913309696	57	5699
2026-01-09 10:07:28.89	340.82	37.25	-42.3	-46.3	11.7	7.57e-04	0	57	0	915406848	56	5633
2026-01-09 10:07:29.90	340.84	37.01	-42.0	-45.8	12.3	4.32e-04	0	57	0	917504000	56	5289
2026-01-09 10:07:30.90	340.86	36.77	-41.5	-44.9	13.0	9.46e-05	0	57	0	918552576	55	5094
2026-01-09 10:07:31.91	340.88	36.53	-41.5	-44.8	13.1	2.67e-05	0	57	0	920649728	54	5295
2026-01-09 10:07:32.92	340.90	36.29	-41.3	-44.5	13.4	2.89e-05	0	57	0	922746880	54	5144
2026-01-09 10:07:33.93	340.92	36.06	-41.3	-44.5	13.4	1.67e-05	0	57	0	924844032	54	5156
2026-01-09 10:07:34.94	340.94	35.82	-41.3	-44.5	13.4	1.98e-05	0	57	0	926941184	54	5121
2026-01-09 10:07:35.95	340.96	35.59	-41.4	-44.7	13.3	1.29e-05	0	57	0	927989760	54	5224
2026-01-09 10:07:36.96	340.98	35.36	-41.6	-45.1	12.7	4.19e-05	0	57	0	930086912	54	5514
2026-01-09 10:07:37.97	341.00	35.13	-42.0	-45.9	11.9	2.09e-04	0	57	0	932184064	54	6053
2026-01-09 10:07:38.98	341.02	34.90	-42.4	-46.8	11.1	1.15e-03	0	57	0	934281216	55	6276
2026-01-09 10:07:39.99	341.04	34.68	-43.1	-48.3	9.7	5.00e-03	0	57	0	936378368	56	7048
2026-01-09 10:07:40.99	341.06	34.46	-43.5	-49.5	8.4	3.89e-02	0	57	0	937426944	57	7696
2026-01-09 10:07:42.00	341.08	34.23	-43.7	-50.3	7.6	7.82e-02	0	57	0	939524096	57	8429
2026-01-09 10:07:43.02	341.09	34.01	-43.8	-50.7	7.2	1.12e-01	0	57	0	941621248	58	8291
2026-01-09 10:07:44.03	341.11	33.79	-43.8	-50.6	7.3	1.26e-01	0	57	0	943718400	58	8213
2026-01-09 10:07:45.04	341.13	33.57	-43.7	-50.1	7.8	9.18e-02	0	57	0	945815552	58	7720
2026-01-09 10:07:46.04	341.15	33.36	-43.5	-49.6	8.2	6.63e-02	0	57	0	946864128	58	7338
2026-01-09 10:07:47.06	341.16	33.14	-43.4	-49.0	8.7	4.36e-02	0	57	0	948961280	58	6872
2026-01-09 10:07:48.06	341.18	32.93	-42.9	-47.8	10.0	1.27e-02	0	57	0	951058432	57	6347
2026-01-09 10:07:49.07	341.20	32.72	-42.6	-47.0	11.0	3.79e-03	0	57	0	953155584	57	5737
2026-01-09 10:07:50.08	341.22	32.51	-42.3	-46.5	11.5	1.51e-03	0	57	0	955252736	56	5750
2026-01-09 10:07:51.09	341.23	32.30	-42.2	-46.0	12.0	3.94e-04	0	57	0	956301312	56	5462
2026-01-09 10:07:52.10	341.25	32.09	-42.1	-46.0	12.0	3.08e-04	0	57	0	958398464	56	5415
2026-01-09 10:07:53.11	341.27	31.89	-42.1	-45.9	12.1	3.00e-04	0	57	0	960495616	56	5355
2026-01-09 10:07:54.12	341.28	31.68	-42.1	-46.0	11.9	3.16e-04	0	57	0	962592768	56	5454
2026-01-09 10:07:55.13	341.30	31.48	-42.2	-46.2	11.8	4.48e-04	0	57	0	964689920	56	5542
2026-01-09 10:07:56.14	341.31	31.28	-42.2	-46.3	11.7	4.94e-04	0	57	0	966787072	56	5595
2026-01-09 10:07:57.15	341.33	31.08	-42.3	-46.3	11.6	7.21e-04	0	57	0	967835648	56	5645
2026-01-09 10:07:58.15	341.35	30.88	-42.3	-46.3	11.7	6.29e-04	0	57	0	969932800	56	5628
2026-01-09 10:07:59.16	341.36	30.68	-42.3	-46.3	11.6	5.48e-04	0	57	0	972029952	56	5624
2026-01-09 10:08:00.17	341.38	30.49	-42.3	-46.3	11.7	6.24e-04	0	57	0	974127104	56	5630
2026-01-09 10:08:01.18	341.39	30.29	-42.2	-46.2	11.7	5.94e-04	0	57	0	976224256	56	5591
2026-01-09 10:08:02.19	341.41	30.10	-42.2	-46.1	11.8	5.37e-04	0	57	0	977272832	56	5512
2026-01-09 10:08:03.20	341.42	29.91	-42.0	-45.9	12.1	4.55e-04	0	57	0	979369984	56	5376
2026-01-09 10:08:04.21	341.44	29.71	-42.0	-45.9	12.0	3.20e-04	0	57	0	981467136	56	5362
2026-01-09 10:08:05.22	341.45	29.52	-41.8	-45.5	12.3	2.35e-04	0	57	0	983564288	55	5426
2026-01-09 10:08:06.23	341.47	29.34	-41.8	-45.5	12.2	1.95e-04	0	57	0	985661440	55	5432
2026-01-09 10:08:07.24	341.48	29.15	-41.7	-45.3	12.4	1.44e-04	0	57	0	986710016	55	5321
2026-01-09 10:08:08.25	341.50	28.96	-41.6	-45.2	12.6	9.76e-05	0	57	0	988807168	55	5239
2026-01-09 10:08:09.26	341.51	28.78	-41.5	-45.0	12.8	8.23e-05	0	57	0	990904320	55	5117
2026-01-09 10:08:10.27	341.52	28.60	-41.3	-44.6	13.1	2.36e-05	0	57	0	993001472	54	5217
2026-01-09 10:08:11.28	341.54	28.41	-41.2	-44.4	13.3	2.21e-05	0	57	0	995098624	54	5098
2026-01-09 10:08:12.29	341.55	28.23	-41.1	-44.2	13.6	9.90e-06	0	57	0	996147200	54	4960
2026-01-09 10:08:13.30	341.57	28.05	-40.9	-43.9	13.8	5.30e-06	0	57	0	998244352	53	5097
2026-01-09 10:08:14.31	341.58	27.87	-40.6	-43.5	14.2	7.00e-07	0	57	0	1000341504	53	4854
2026-01-09 10:08:15.32	341.59	27.70	-40.6	-43.4	14.3	7.00e-07	0	57	0	1002438656	53	4803
2026-01-09 10:08:16.32	341.61	27.52	-40.4	-43.2	14.6	0.00e+00	0	57	0	1004535808	52	4969
2026-01-09 10:08:17.33	341.62	27.35	-40.3	-43.0	14.8	0.00e+00	0	57	0	1005584384	52	4839
2026-01-09 10:08:18.34	341.63	27.17	-40.2	-42.9	14.9	0.00e+00	0	57	0	1007681536	52	4799
2026-01-09 10:08:19.35	341.65	27.00	-40.1	-42.7	15.1	0.00e+00	0	57	0	1009778688	52	4683
2026-01-09 10:08:20.36	341.66	26.83	-40.1	-42.7	15.1	0.00e+00	0	57	0	1011875840	52	4685
2026-01-09 10:08:21.37	341.67	26.66	-40.1	-42.8	15.0	0.00e+00	0	57	0	1013972992	52	4713
2026-01-09 10:08:22.38	341.68	26.49	-40.1	-42.8	15.0	0.00e+00	0	57	0	1015021568	52	4713
2026-01-09 10:08:23.39	341.70	26.32	-40.2	-42.9	14.9	7.00e-07	0	57	0	1017118720	52	4795
2026-01-09 10:08:24.40	341.71	26.15	-40.3	-43.0	14.8	0.00e+00	0	57	0	1019215872	52	4825
2026-01-09 10:08:25.41	341.72	25.98	-40.3	-43.1	14.7	0.00e+00	0	57	0	1021313024	52	4872
2026-01-09 10:08:26.42	341.74	25.82	-40.3	-43.1	14.6	7.00e-07	0	57	0	1023410176	52	4916
2026-01-09 10:08:27.43	341.75	25.65	-40.3	-43.1	14.6	0.00e+00	0	57	0	1024458752	52	4917
2026-01-09 10:08:28.44	341.76	25.49	-40.3	-43.1	14.6	0.00e+00	0	57	0	1026555904	52	4877
2026-01-09 10:08:29.45	341.77	25.33	-40.2	-43.0	14.7	7.00e-07	0	57	0	1028653056	52	4819
2026-01-09 10:08:30.46	341.78	25.16	-40.2	-42.9	14.8	0.00e+00	0	57	0	1030750208	52	4791
2026-01-09 10:08:31.47	341.80	25.00	-40.1	-42.7	15.0	0.00e+00	0	57	0	1032847360	52	4682
2026-01-09 10:08:32.48	341.81	24.84	-40.0	-42.6	15.1	0.00e+00	0	57	0	1034944512	52	4617
2026-01-09 10:08:33.48	341.82	24.69	-40.0	-42.5	15.2	0.00e+00	0	57	0	1035993088	51	4862
2026-01-09 10:08:34.49	341.83	24.53	-39.9	-42.4	15.4	0.00e+00	0	57	0	1038090240	51	4786
2026-01-09 10:08:35.50	341.84	24.37	-39.7	-42.1	15.6	0.00e+00	0	57	0	1040187392	51	4651
2026-01-09 10:08:36.51	341.86	24.22	-39.6	-42.0	15.7	0.00e+00	0	57	0	1042284544	51	4560
2026-01-09 10:08:37.52	341.87	24.06	-39.5	-41.8	16.0	0.00e+00	0	57	0	1044381696	50	4712
2026-01-09 10:08:38.53	341.88	23.91	-39.4	-41.7	16.0	0.00e+00	0	57	0	1045430272	50	4701
2026-01-09 10:08:39.54	341.89	23.75	-39.4	-41.7	16.0	0.00e+00	0	57	0	1047527424	50	4661
2026-01-09 10:08:40.55	341.90	23.60	-39.3	-41.5	16.2	0.00e+00	0	57	0	1049624576	50	4578
2026-01-09 10:08:41.56	341.91	23.45	-39.3	-41.5	16.2	0.00e+00	0	57	0	1051721728	50	4567
2026-01-09 10:08:42.57	341.92	23.30	-39.3	-41.5	16.1	0.00e+00	0	57	0	1053818880	50	4597
2026-01-09 10:08:43.58	341.94	23.15	-39.1	-41.4	16.3	0.00e+00	0	57	0	1054867456	50	4494
2026-01-09 10:08:44.59	341.95	23.00	-39.0	-41.2	16.3	0.00e+00	0	56	0	1056964608	50	4438
2026-01-09 10:08:45.60	341.96	22.86	-39.0	-41.3	16.3	0.00e+00	0	57	0	1059061760	50	4451
2026-01-09 10:08:46.61	341.97	22.71	-39.1	-41.4	16.1	0.00e+00	0	57	0	1061158912	50	4512
2026-01-09 10:08:47.62	341.98	22.56	-39.1	-41.5	16.0	0.00e+00	0	57	0	1063256064	50	4553
2026-01-09 10:08:48.63	341.99	22.42	-39.0	-41.3	16.1	0.00e+00	0	57	0	1064304640	50	4491
2026-01-09 10:08:49.64	342.00	22.27	-39.1	-41.4	16.0	0.00e+00	0	57	0	1066401792	50	4529
2026-01-09 10:08:50.65	342.01	22.13	-39.1	-41.4	16.0	0.00e+00	0	57	0	1068498944	50	4521
2026-01-09 10:08:51.66	342.02	21.99	-38.8	-41.1	16.2	0.00e+00	0	57	0	1070596096	49	4634
2026-01-09 10:08:52.67	342.03	21.84	-38.8	-41.1	16.1	0.00e+00	0	57	0	1072693248	49	4616
2026-01-09 10:08:53.68	342.04	21.70	-38.8	-41.2	15.9	0.00e+00	0	57	0	1073741824	49	4656
2026-01-09 10:08:54.69	342.05	21.56	-39.1	-41.7	15.2	0.00e+00	0	57	0	1075838976	49	4966
2026-01-09 10:08:55.70	342.06	21.42	-39.5	-42.6	14.1	7.00e-07	0	57	0	1077936128	49	5483
2026-01-09 10:08:56.71	342.07	21.28	-40.0	-43.6	12.7	1.67e-05	0	57	0	1080033280	50	5840
2026-01-09 10:08:57.71	342.08	21.15	-40.4	-44.9	10.9	3.97e-04	0	57	0	1082130432	51	6392
2026-01-09 10:08:58.72	342.10	21.01	-40.6	-46.0	9.4	1.08e-02	0	57	0	1083179008	51	7269
2026-01-09 10:08:59.73	342.11	20.87	-40.7	-47.2	7.8	4.56e-02	0	57	0	1085276160	51	8360
2026-01-09 10:09:00.74	342.12	20.74	-40.6	-48.2	6.6	1.40e-01	0	57	0	1087373312	52	8780
2026-01-09 10:09:01.75	342.13	20.60	-40.5	-49.4	5.4	3.15e-01	0	57	0	1089470464	52	10108
2026-01-09 10:09:02.76	342.14	20.47	-40.5	-50.4	4.8	7.31e-01	0	57	0	1091567616	52	11294
2026-01-09 10:09:03.77	342.15	20.33	-40.4	-51.6	4.2	1.14e+00	0	57	0	1092616192	52	12979
2026-01-09 10:09:04.78	342.16	20.20	-40.3	-52.5	4.0	1.43e+00	0	57	104	1092616192	52	14413
2026-01-09 10:09:05.79	342.17	20.07	-40.3	-53.5	3.8	1.49e+00	0	57	104	1092616192	52	16153
2026-01-09 10:09:06.80	342.18	19.94	-40.2	-54.0	3.8	1.49e+00	0	57	104	1092616192	52	17259
2026-01-09 10:09:07.81	342.18	19.81	-40.1	-54.4	3.8	1.49e+00	0	57	104	1092616192	52	18081
2026-01-09 10:09:08.82	342.19	19.68	-40.1	-54.7	3.8	1.49e+00	0	57	104	1092616192	52	18577
2026-01-09 10:09:09.83	342.20	19.55	-40.1	-54.8	3.8	1.49e+00	0	57	104	1092616192	52	18822
2026-01-09 10:09:10.84	342.21	19.42	-39.7	-54.8	3.8	1.49e+00	0	57	104	1092616192	51	20025
2026-01-09 10:09:11.84	342.22	19.29	-40.2	-54.8	3.8	1.49e+00	0	57	104	1092616192	51	19973
2026-01-09 10:09:12.85	342.23	19.16	-40.5	-55.2	3.8	1.49e+00	0	57	104	1092616192	51	20881
2026-01-09 10:09:13.86	342.24	19.04	-40.1	-54.8	3.8	1.49e+00	0	57	104	1092616192	51	20058
2026-01-09 10:09:14.87	342.25	18.91	-40.5	-55.2	3.8	1.49e+00	0	57	104	1092616192	51	20844
2026-01-09 10:09:15.88	342.26	18.78	-40.2	-54.8	3.8	1.49e+00	0	57	104	1092616192	51	19947
2026-01-09 10:09:16.89	342.27	18.66	-40.1	-54.8	3.8	1.49e+00	0	57	104	1092616192	51	20020
2026-01-09 10:09:17.90	342.28	18.54	-40.1	-55.0	3.8	1.49e+00	0	57	104	1092616192	51	20481
2026-01-09 10:09:18.91	342.29	18.41	-40.2	-54.9	3.8	1.49e+00	0	57	104	1092616192	51	20086
2026-01-09 10:09:19.92	342.30	18.29	-40.1	-55.1	3.8	1.49e+00	0	57	104	1092616192	51	20542
2026-01-09 10:09:20.93	342.31	18.17	-40.5	-55.1	3.8	1.49e+00	0	57	104	1092616192	51	20602
2026-01-09 10:09:21.94	342.32	18.04	-40.3	-54.9	3.8	1.49e+00	0	57	104	1092616192	51	20171
2026-01-09 10:09:22.95	342.33	17.92	-40.5	-55.1	3.8	1.49e+00	0	57	104	1092616192	51	20579
2026-01-09 10:09:23.96	342.34	17.80	-40.3	-55.0	3.8	1.49e+00	0	57	104	1092616192	51	20412
2026-01-09 10:09:24.97	342.34	17.68	-40.2	-54.7	3.8	1.49e+00	0	57	104	1092616192	51	19822
2026-01-09 10:09:25.98	342.35	17.56	-40.2	-55.1	3.8	1.49e+00	0	57	104	1092616192	51	20562
2026-01-09 10:09:26.98	342.36	17.45	-40.2	-54.8	3.8	1.49e+00	0	57	104	1092616192	51	19921
2026-01-09 10:09:27.99	342.37	17.33	-40.2	-55.0	3.8	1.49e+00	0	57	104	1092616192	51	20440
2026-01-09 10:09:29.00	342.38	17.21	-40.7	-55.2	3.8	1.49e+00	0	57	104	1092616192	51	20926
2026-01-09 10:09:30.01	342.39	17.09	-40.5	-55.2	3.8	1.49e+00	0	57	104	1092616192	51	20793
2026-01-09 10:09:31.02	342.40	16.98	-40.7	-55.2	3.8	1.49e+00	0	57	104	1092616192	51	20963
2026-01-09 10:09:32.03	342.41	16.86	-40.5	-55.1	3.8	1.49e+00	0	57	104	1092616192	51	20765
2026-01-09 10:09:33.04	342.42	16.74	-40.3	-54.8	3.8	1.49e+00	0	57	104	1092616192	51	20038
2026-01-09 10:09:34.05	342.42	16.63	-40.5	-55.0	3.8	1.49e+00	0	57	104	1092616192	51	20467
2026-01-09 10:09:35.06	342.43	16.51	-40.3	-54.9	3.8	1.49e+00	0	57	104	1092616192	51	20084
2026-01-09 10:09:36.07	342.44	16.40	-40.6	-55.1	3.8	1.49e+00	0	57	104	1092616192	51	20546
2026-01-09 10:09:37.07	342.45	16.29	-40.5	-55.1	3.8	1.49e+00	0	57	104	1092616192	51	20712
2026-01-09 10:09:38.08	342.46	16.18	-40.5	-55.1	3.8	1.49e+00	0	57	104	1092616192	51	20589
2026-01-09 10:09:39.09	342.47	16.06	-40.4	-55.1	3.8	1.49e+00	0	57	104	1092616192	51	20640
2026-01-09 10:09:40.10	342.48	15.95	-40.5	-55.1	3.8	1.49e+00	0	57	104	1092616192	51	20569
2026-01-09 10:09:41.11	342.48	15.84	-40.3	-54.8	3.8	1.49e+00	0	57	104	1092616192	51	20040
2026-01-09 10:09:42.12	342.49	15.73	-40.4	-55.1	3.8	1.49e+00	0	57	104	1092616192	51	20636
2026-01-09 10:09:43.13	342.50	15.62	-40.3	-54.8	3.8	1.49e+00	0	57	104	1092616192	51	20052
2026-01-09 10:09:44.14	342.51	15.51	-40.2	-55.0	3.8	1.49e+00	0	57	104	1092616192	51	20436
2026-01-09 10:09:45.15	342.52	15.40	-40.5	-55.2	3.8	1.49e+00	0	57	104	1092616192	51	20843
2026-01-09 10:09:46.16	342.53	15.29	-40.7	-55.2	3.8	1.49e+00	0	57	104	1092616192	51	20877
2026-01-09 10:09:47.17	342.53	15.18	-40.6	-55.2	3.8	1.49e+00	0	57	104	1092616192	51	20864
2026-01-09 10:09:48.18	342.54	15.08	-40.7	-55.2	3.8	1.49e+00	0	57	104	1092616192	51	20938
2026-01-09 10:09:49.18	342.55	14.97	-40.4	-54.9	3.8	1.49e+00	0	57	104	1092616192	51	20236
2026-01-09 10:09:50.19	342.56	14.86	-40.0	-55.0	3.8	1.49e+00	0	57	104	1092616192	51	20479
2026-01-09 10:09:51.20	342.57	14.76	-40.4	-54.9	3.8	1.49e+00	0	57	104	1092616192	51	20257
2026-01-09 10:09:52.21	342.57	14.65	-40.0	-55.1	3.8	1.49e+00	0	57	104	1092616192	51	20540
2026-01-09 10:09:53.22	342.58	14.54	-40.6	-55.1	3.8	1.49e+00	0	57	104	1092616192	51	20741
2026-01-09 10:09:54.23	342.59	14.44	-40.4	-55.1	3.8	1.49e+00	0	57	104	1092616192	51	20617
2026-01-09 10:09:55.24	342.60	14.33	-40.5	-55.1	3.8	1.49e+00	0	57	104	1092616192	51	20580
2026-01-09 10:09:56.25	342.61	14.23	-40.4	-55.1	3.8	1.49e+00	0	57	104	1092616192	51	20597
2026-01-09 10:09:57.26	342.61	14.13	-40.5	-55.1	3.8	1.49e+00	0	57	104	1092616192	51	20539
2026-01-09 10:09:58.27	342.62	14.02	-40.3	-55.1	3.8	1.49e+00	0	57	104	1092616192	51	20606
2026-01-09 10:09:59.28	342.63	13.92	-40.5	-55.1	3.8	1.49e+00	0	57	104	1092616192	51	20602
2026-01-09 10:10:00.29	342.64	13.82	-40.4	-55.0	3.8	1.49e+00	0	57	104	1092616192	51	20387
2026-01-09 10:10:01.30	342.65	13.72	-40.4	-55.0	3.8	1.49e+00	0	57	104	1092616192	51	20366
2026-01-09 10:10:02.31	342.65	13.62	-40.6	-55.2	3.8	1.49e+00	0	57	104	1092616192	51	20875
2026-01-09 10:10:03.32	342.66	13.51	-40.4	-55.0	3.8	1.49e+00	0	57	104	1092616192	51	20384
2026-01-09 10:10:04.33	342.67	13.41	-40.7	-55.2	3.8	1.49e+00	0	57	104	1092616192	51	20867
2026-01-09 10:10:05.34	342.68	13.31	-40.3	-55.0	3.8	1.49e+00	0	57	104	1092616192	51	20386
2026-01-09 10:10:06.35	342.69	13.21	-40.4	-54.9	3.8	1.49e+00	0	57	104	1092616192	51	20260
2026-01-09 10:10:07.36	342.69	13.11	-40.3	-55.0	3.8	1.49e+00	0	57	104	1092616192	51	20310
2026-01-09 10:10:08.37	342.70	13.02	-40.4	-54.9	3.8	1.49e+00	0	57	104	1092616192	51	20283
