passes_logs/2026/01/09/R2.0S_Moscow/R2.0S_Moscow__20260109_220837_NOAA_20_JPSS-1_rec.log

#Pass ID: 20260109_220837_NOAA 20 (JPSS-1)
#Satellite: NOAA 20 (JPSS-1)
#Configuration: NOAA 20
#almurnet v.1.7.20251203
#Start time: 2026-01-09 22:08:39

#Version: 2.2.20231116
#Station: R2.0S_Moscow
#Location: 37.707566 lon 55.798166 lat
#TLE: 1 43013U 17073A   26009.26828276  .00000112  00000+0  74203-4 0  9990
#TLE: 2 43013  98.7631 310.2683 0001700  47.4387 312.6933 14.19534764421920

#Time	Az	El	Level	Level2	SNR	BER	BlckErr	Temp	State	Recorded	gain1	gain2
2026-01-09 22:08:39.54	25.60	2.10	-42.2	-57.2	3.8	1.49e+00	0	46	0	0	56	19648
2026-01-09 22:08:40.55	25.67	2.16	-42.1	-57.0	3.8	1.49e+00	0	47	104	0	55	20407
2026-01-09 22:08:41.56	25.74	2.21	-42.1	-57.0	3.8	1.49e+00	0	47	104	0	55	20432
2026-01-09 22:08:42.57	25.82	2.27	-42.1	-57.0	3.8	1.49e+00	0	47	104	0	55	20326
2026-01-09 22:08:43.57	25.89	2.32	-42.1	-57.0	3.8	1.49e+00	0	47	104	0	55	20418
2026-01-09 22:08:44.58	25.97	2.38	-42.1	-57.0	3.8	1.49e+00	0	47	104	0	55	20415
2026-01-09 22:08:45.60	26.04	2.43	-42.1	-57.0	3.8	1.49e+00	0	47	104	0	55	20431
2026-01-09 22:08:46.61	26.12	2.49	-42.1	-57.0	3.8	1.49e+00	0	47	104	0	55	20343
2026-01-09 22:08:47.62	26.19	2.54	-42.1	-57.0	3.8	1.49e+00	0	47	104	0	55	20415
2026-01-09 22:08:48.63	26.27	2.60	-42.1	-57.0	3.8	1.49e+00	0	47	104	0	55	20438
2026-01-09 22:08:49.63	26.34	2.65	-42.1	-57.0	3.8	1.49e+00	0	47	104	0	55	20354
2026-01-09 22:08:50.64	26.42	2.71	-42.0	-57.0	3.8	1.49e+00	0	48	104	0	55	20398
2026-01-09 22:08:51.65	26.50	2.76	-42.1	-57.0	3.8	1.49e+00	0	48	104	0	55	20376
2026-01-09 22:08:52.66	26.57	2.82	-42.1	-57.0	3.8	1.49e+00	0	48	104	0	55	20426
2026-01-09 22:08:53.67	26.65	2.87	-42.1	-57.0	3.8	1.49e+00	0	48	104	0	55	20419
2026-01-09 22:08:54.68	26.73	2.93	-42.1	-57.0	3.8	1.49e+00	0	48	104	0	55	20373
2026-01-09 22:08:55.69	26.80	2.99	-42.1	-57.0	3.8	1.49e+00	0	48	104	0	55	20324
2026-01-09 22:08:56.70	26.88	3.04	-42.1	-57.0	3.8	1.49e+00	0	48	104	0	55	20395
2026-01-09 22:08:57.71	26.96	3.10	-42.1	-57.0	3.8	1.49e+00	0	48	104	0	55	20376
2026-01-09 22:08:58.71	27.04	3.15	-42.1	-57.0	3.8	1.49e+00	0	48	104	0	55	20395
2026-01-09 22:08:59.72	27.12	3.21	-42.1	-57.0	3.8	1.49e+00	0	48	104	0	55	20423
2026-01-09 22:09:00.73	27.19	3.26	-42.1	-57.0	3.8	1.49e+00	0	48	104	0	55	20368
2026-01-09 22:09:01.74	27.27	3.32	-42.1	-57.0	3.8	1.49e+00	0	48	104	0	55	20413
2026-01-09 22:09:02.75	27.35	3.38	-42.0	-57.0	3.8	1.49e+00	0	48	104	0	55	20385
2026-01-09 22:09:03.76	27.43	3.43	-42.1	-57.0	3.8	1.49e+00	0	48	104	0	55	20384
2026-01-09 22:09:04.77	27.51	3.49	-42.1	-57.0	3.8	1.49e+00	0	48	104	0	55	20361
2026-01-09 22:09:05.79	27.59	3.55	-42.1	-57.0	3.8	1.49e+00	0	49	104	0	55	20366
2026-01-09 22:09:06.79	27.67	3.60	-42.1	-57.0	3.8	1.49e+00	0	49	104	0	55	20382
2026-01-09 22:09:07.80	27.75	3.66	-42.1	-57.0	3.8	1.49e+00	0	49	104	0	55	20382
2026-01-09 22:09:08.81	27.84	3.72	-42.1	-57.0	3.8	1.49e+00	0	49	104	0	55	20386
2026-01-09 22:09:09.82	27.92	3.77	-42.1	-57.0	3.8	1.49e+00	0	49	104	0	55	20390
2026-01-09 22:09:10.83	28.00	3.83	-42.1	-57.0	3.8	1.49e+00	0	49	104	0	55	20369
2026-01-09 22:09:11.84	28.08	3.89	-42.1	-57.0	3.8	1.49e+00	0	49	104	0	55	20383
2026-01-09 22:09:12.85	28.16	3.94	-42.1	-57.0	3.8	1.49e+00	0	49	104	0	55	20336
2026-01-09 22:09:13.86	28.25	4.00	-42.1	-57.0	3.8	1.49e+00	0	49	104	0	55	20377
2026-01-09 22:09:14.87	28.33	4.06	-42.1	-57.0	3.8	1.49e+00	0	49	104	0	55	20321
2026-01-09 22:09:15.87	28.41	4.12	-42.1	-57.0	3.8	1.49e+00	0	49	104	0	55	20443
2026-01-09 22:09:16.89	28.50	4.17	-42.1	-57.0	3.8	1.49e+00	0	49	104	0	55	20366
2026-01-09 22:09:17.89	28.58	4.23	-42.1	-57.0	3.8	1.49e+00	0	49	104	0	55	20369
2026-01-09 22:09:18.90	28.66	4.29	-42.1	-57.0	3.8	1.49e+00	0	49	104	0	55	20388
2026-01-09 22:09:19.91	28.75	4.35	-42.1	-57.0	3.8	1.49e+00	0	49	104	0	55	20386
2026-01-09 22:09:20.92	28.83	4.40	-42.1	-56.9	3.8	1.49e+00	0	49	104	0	55	20303
2026-01-09 22:09:21.93	28.92	4.46	-42.1	-57.0	3.8	1.49e+00	0	50	104	0	55	20361
2026-01-09 22:09:22.94	29.00	4.52	-42.1	-57.0	3.8	1.49e+00	0	50	104	0	55	20350
2026-01-09 22:09:23.95	29.09	4.58	-42.0	-57.0	3.8	1.49e+00	0	50	104	0	55	20386
2026-01-09 22:09:24.96	29.17	4.64	-42.1	-57.0	3.8	1.49e+00	0	50	104	0	55	20346
2026-01-09 22:09:25.97	29.26	4.69	-42.1	-57.0	3.8	1.49e+00	0	50	104	0	55	20332
2026-01-09 22:09:26.97	29.35	4.75	-42.1	-57.0	3.8	1.49e+00	0	50	104	0	55	20392
2026-01-09 22:09:27.98	29.43	4.81	-42.1	-57.0	3.8	1.49e+00	0	50	104	0	55	20377
2026-01-09 22:09:28.99	29.52	4.87	-42.1	-57.0	3.8	1.49e+00	0	50	104	0	55	20404
2026-01-09 22:09:30.00	29.61	4.93	-42.1	-57.0	3.8	1.49e+00	0	50	104	0	55	20363
2026-01-09 22:09:31.01	29.70	4.98	-42.1	-57.0	3.8	1.49e+00	0	50	104	0	55	20404
2026-01-09 22:09:32.02	29.78	5.04	-42.1	-57.0	3.8	1.49e+00	0	50	104	0	55	20331
2026-01-09 22:09:33.03	29.87	5.10	-42.1	-57.0	3.8	1.49e+00	0	50	104	0	55	20368
2026-01-09 22:09:34.04	29.96	5.16	-42.1	-57.0	3.8	1.49e+00	0	50	104	0	55	20355
2026-01-09 22:09:35.05	30.05	5.22	-42.1	-57.0	3.8	1.49e+00	0	50	104	0	55	20346
2026-01-09 22:09:36.06	30.14	5.28	-42.1	-57.0	3.8	1.49e+00	0	50	104	0	55	20454
2026-01-09 22:09:37.07	30.23	5.34	-42.1	-57.0	3.8	1.49e+00	0	50	104	0	55	20313
2026-01-09 22:09:38.08	30.32	5.40	-42.0	-57.0	3.8	1.49e+00	0	50	104	0	55	20378
2026-01-09 22:09:39.09	30.41	5.45	-42.1	-57.0	3.8	1.49e+00	0	51	104	0	55	20380
2026-01-09 22:09:40.10	30.50	5.51	-42.1	-57.0	3.8	1.49e+00	0	50	104	0	55	20360
2026-01-09 22:09:41.11	30.60	5.57	-42.1	-57.0	3.8	1.49e+00	0	50	104	0	55	20367
2026-01-09 22:09:42.11	30.69	5.63	-42.1	-56.9	3.8	1.49e+00	0	51	104	0	55	20293
2026-01-09 22:09:43.12	30.78	5.69	-42.0	-57.0	3.8	1.49e+00	0	50	104	0	55	20398
2026-01-09 22:09:44.13	30.87	5.75	-42.1	-57.0	3.8	1.49e+00	0	51	104	0	55	20389
2026-01-09 22:09:45.14	30.96	5.81	-42.0	-57.0	3.8	1.49e+00	0	50	104	0	55	20380
2026-01-09 22:09:46.15	31.06	5.87	-42.1	-56.9	3.8	1.49e+00	0	51	104	0	55	20292
2026-01-09 22:09:47.16	31.15	5.93	-42.1	-57.0	3.8	1.49e+00	0	51	104	0	55	20373
2026-01-09 22:09:48.17	31.25	5.99	-42.1	-57.0	3.8	1.49e+00	0	51	104	0	55	20398
2026-01-09 22:09:49.18	31.34	6.05	-42.1	-57.0	3.8	1.49e+00	0	51	104	0	55	20366
2026-01-09 22:09:50.19	31.43	6.11	-42.1	-57.0	3.8	1.49e+00	0	51	104	0	55	20332
2026-01-09 22:09:51.20	31.53	6.17	-42.1	-57.0	3.8	1.49e+00	0	51	104	0	55	20371
2026-01-09 22:09:52.21	31.62	6.23	-42.1	-56.9	3.8	1.49e+00	0	51	104	0	55	20274
2026-01-09 22:09:53.22	31.72	6.29	-42.1	-57.0	3.8	1.49e+00	0	51	104	0	55	20318
2026-01-09 22:09:54.23	31.82	6.35	-42.1	-57.0	3.8	1.49e+00	0	51	104	0	55	20320
2026-01-09 22:09:55.24	31.91	6.41	-42.1	-56.9	3.8	1.49e+00	0	51	104	0	55	20233
2026-01-09 22:09:56.25	32.01	6.47	-42.1	-57.0	3.8	1.49e+00	0	51	104	0	55	20305
2026-01-09 22:09:57.26	32.11	6.53	-42.1	-56.9	3.8	1.49e+00	0	51	104	0	55	20255
2026-01-09 22:09:58.26	32.20	6.59	-42.1	-57.0	3.8	1.49e+00	0	51	104	0	55	20359
2026-01-09 22:09:59.27	32.30	6.65	-42.1	-57.0	3.8	1.49e+00	0	51	104	0	55	20392
2026-01-09 22:10:00.28	32.40	6.71	-42.1	-57.0	3.8	1.49e+00	0	51	104	0	55	20372
2026-01-09 22:10:01.29	32.50	6.77	-42.1	-57.0	3.8	1.49e+00	0	51	104	0	55	20342
2026-01-09 22:10:02.30	32.60	6.83	-42.1	-57.0	3.8	1.49e+00	0	51	104	0	55	20304
2026-01-09 22:10:03.31	32.70	6.89	-42.1	-56.9	3.8	1.49e+00	0	51	104	0	55	20199
2026-01-09 22:10:04.32	32.80	6.95	-42.1	-57.0	3.8	1.49e+00	0	51	104	0	55	20319
2026-01-09 22:10:05.33	32.90	7.01	-42.1	-56.6	3.8	1.49e+00	0	51	104	0	55	19603
2026-01-09 22:10:06.33	33.00	7.07	-42.1	-56.3	3.8	1.49e+00	0	52	104	0	55	18843
2026-01-09 22:10:07.34	33.10	7.14	-42.0	-55.5	3.8	1.49e+00	0	52	104	0	55	17276
2026-01-09 22:10:08.35	33.20	7.20	-41.9	-54.4	3.9	1.49e+00	0	51	104	0	55	15133
2026-01-09 22:10:09.36	33.30	7.26	-41.8	-52.6	4.5	1.32e+00	27	52	0	0	55	12302
2026-01-09 22:10:10.37	33.41	7.32	-41.7	-51.3	5.0	8.77e-01	0	52	0	2097152	55	10644
2026-01-09 22:10:11.38	33.51	7.38	-41.3	-49.2	6.5	4.51e-01	0	52	0	4194304	54	8835
2026-01-09 22:10:12.39	33.61	7.44	-40.7	-46.6	9.0	4.81e-02	0	52	0	5242880	53	6958
2026-01-09 22:10:13.39	33.72	7.50	-40.3	-45.4	10.3	1.11e-02	0	52	0	7340032	52	6393
2026-01-09 22:10:14.40	33.82	7.57	-40.0	-44.7	11.1	3.61e-03	0	52	0	9437184	52	5895
2026-01-09 22:10:15.41	33.92	7.63	-40.1	-44.7	11.2	1.20e-03	0	52	0	11534336	51	6234
2026-01-09 22:10:16.42	34.03	7.69	-40.2	-45.0	10.8	1.91e-03	0	52	0	13631488	51	6482
2026-01-09 22:10:17.43	34.14	7.75	-40.4	-45.6	10.2	3.23e-03	0	52	0	14680064	51	6945
2026-01-09 22:10:18.44	34.24	7.81	-40.8	-47.2	8.5	2.96e-02	0	52	0	16777216	52	7856
2026-01-09 22:10:19.44	34.35	7.87	-40.9	-47.3	8.3	4.90e-02	0	52	0	18874368	52	7981
2026-01-09 22:10:20.45	34.45	7.94	-40.5	-46.1	9.6	2.59e-02	0	52	0	20971520	52	6951
2026-01-09 22:10:21.46	34.56	8.00	-40.3	-45.5	10.2	7.67e-03	0	52	0	23068672	52	6458
2026-01-09 22:10:22.46	34.67	8.06	-40.4	-45.6	10.2	7.77e-03	0	52	0	24117248	52	6549
2026-01-09 22:10:23.47	34.77	8.12	-40.3	-46.8	8.6	3.42e-03	0	52	0	26214400	52	7474
2026-01-09 22:10:24.48	34.88	8.18	-40.3	-46.7	8.4	7.04e-01	0	52	0	28311552	52	7377
2026-01-09 22:10:25.48	34.99	8.25	-41.6	-47.3	9.2	1.06e-01	0	52	0	30408704	55	6715
2026-01-09 22:10:26.49	35.10	8.31	-40.9	-46.4	10.2	8.54e-04	0	52	0	32505856	53	6775
2026-01-09 22:10:27.50	35.21	8.37	-41.6	-49.1	6.8	1.22e+00	0	52	0	33554432	55	8239
2026-01-09 22:10:28.50	35.32	8.43	-40.7	-45.2	11.4	9.15e-04	0	52	0	35651584	53	5869
2026-01-09 22:10:29.51	35.43	8.50	-40.9	-45.3	11.3	1.15e-03	0	52	0	36700160	53	5970
2026-01-09 22:10:30.51	35.54	8.56	-41.0	-45.5	11.2	1.30e-03	0	52	0	38797312	53	6082
2026-01-09 22:10:31.52	35.65	8.62	-40.9	-45.4	11.3	1.48e-03	0	52	0	40894464	53	5998
2026-01-09 22:10:32.52	35.76	8.68	-41.0	-45.6	11.1	1.07e-03	0	52	0	42991616	53	6145
2026-01-09 22:10:33.53	35.88	8.75	-41.1	-45.6	11.0	1.95e-03	0	53	0	45088768	53	6198
2026-01-09 22:10:34.54	35.99	8.81	-41.1	-45.6	11.2	1.77e-03	0	52	0	47185920	53	6165
2026-01-09 22:10:35.55	36.10	8.87	-41.0	-45.4	11.5	7.69e-04	0	52	0	48234496	53	5998
2026-01-09 22:10:36.56	36.22	8.94	-40.9	-45.0	11.9	5.41e-04	0	52	0	50331648	53	5738
2026-01-09 22:10:37.56	36.33	9.00	-40.9	-45.0	11.8	3.70e-04	0	52	0	52428800	53	5781
2026-01-09 22:10:38.57	36.44	9.06	-41.0	-45.2	11.7	5.10e-04	0	52	0	54525952	53	5879
2026-01-09 22:10:39.57	36.56	9.12	-40.8	-44.8	12.1	3.38e-04	0	52	0	55574528	53	5622
2026-01-09 22:10:40.58	36.67	9.19	-40.7	-44.5	12.4	1.97e-04	0	53	0	57671680	53	5446
2026-01-09 22:10:41.59	36.79	9.25	-40.8	-44.8	12.2	2.27e-04	0	53	0	59768832	53	5600
2026-01-09 22:10:42.59	36.91	9.31	-40.8	-44.7	12.3	1.93e-04	0	53	0	61865984	53	5587
2026-01-09 22:10:43.60	37.02	9.38	-40.8	-44.7	12.3	1.77e-04	0	53	0	63963136	53	5566
2026-01-09 22:10:44.61	37.14	9.44	-40.9	-44.8	12.2	2.10e-04	0	53	0	65011712	53	5645
2026-01-09 22:10:45.62	37.26	9.51	-41.0	-44.9	12.2	1.92e-04	0	53	0	67108864	53	5659
2026-01-09 22:10:46.62	37.38	9.57	-41.0	-44.9	12.2	1.76e-04	0	53	0	69206016	53	5709
2026-01-09 22:10:47.63	37.50	9.63	-41.1	-45.0	12.1	2.39e-04	0	53	0	71303168	53	5785
2026-01-09 22:10:48.64	37.62	9.70	-40.9	-44.7	12.5	1.30e-04	0	53	0	73400320	53	5555
2026-01-09 22:10:49.64	37.74	9.76	-40.9	-44.7	12.5	1.56e-04	0	53	0	75497472	53	5553
2026-01-09 22:10:50.65	37.86	9.82	-40.9	-44.5	12.7	1.19e-04	0	53	0	76546048	53	5460
2026-01-09 22:10:51.66	37.98	9.89	-40.7	-44.3	13.0	4.34e-05	0	53	0	78643200	53	5287
2026-01-09 22:10:52.67	38.10	9.95	-40.7	-44.3	13.0	5.56e-05	0	53	0	80740352	53	5288
2026-01-09 22:10:53.67	38.22	10.02	-40.7	-44.3	13.0	4.19e-05	0	53	0	82837504	53	5282
2026-01-09 22:10:54.68	38.34	10.08	-40.7	-44.2	13.1	2.97e-05	0	53	0	83886080	53	5256
2026-01-09 22:10:55.69	38.47	10.14	-40.8	-44.3	13.0	4.73e-05	0	53	0	85983232	53	5301
2026-01-09 22:10:56.70	38.59	10.21	-40.8	-44.3	13.0	2.59e-05	0	53	0	88080384	53	5331
2026-01-09 22:10:57.71	38.72	10.27	-40.7	-44.2	13.1	4.27e-05	0	53	0	90177536	53	5255
2026-01-09 22:10:58.71	38.84	10.34	-40.8	-44.2	13.1	3.35e-05	0	53	0	92274688	53	5253
2026-01-09 22:10:59.72	38.96	10.40	-40.7	-44.1	13.2	2.36e-05	0	53	0	93323264	53	5191
2026-01-09 22:11:00.73	39.09	10.47	-40.7	-44.2	13.1	2.89e-05	0	53	0	95420416	53	5244
2026-01-09 22:11:01.74	39.22	10.53	-40.7	-44.1	13.2	1.83e-05	0	53	0	97517568	53	5197
2026-01-09 22:11:02.74	39.34	10.59	-40.7	-44.0	13.4	1.83e-05	0	53	0	99614720	53	5139
2026-01-09 22:11:03.75	39.47	10.66	-40.7	-44.0	13.4	1.52e-05	0	53	0	101711872	53	5147
2026-01-09 22:11:04.76	39.60	10.72	-40.7	-44.1	13.3	1.75e-05	0	53	0	103809024	53	5183
2026-01-09 22:11:05.76	39.73	10.79	-40.7	-44.0	13.4	1.67e-05	0	53	0	104857600	53	5111
2026-01-09 22:11:06.78	39.86	10.85	-40.7	-44.0	13.4	9.10e-06	0	53	0	106954752	53	5140
2026-01-09 22:11:07.79	39.99	10.92	-40.6	-43.9	13.5	9.90e-06	0	53	0	109051904	53	5069
2026-01-09 22:11:08.79	40.12	10.98	-40.7	-44.0	13.4	1.98e-05	0	53	0	111149056	53	5156
2026-01-09 22:11:09.80	40.25	11.05	-40.7	-44.1	13.4	2.21e-05	0	53	0	113246208	53	5178
2026-01-09 22:11:10.81	40.38	11.11	-40.8	-44.1	13.3	2.51e-05	0	53	0	114294784	53	5218
2026-01-09 22:11:11.82	40.51	11.18	-40.8	-44.2	13.2	1.98e-05	0	53	0	116391936	53	5250
2026-01-09 22:11:12.82	40.64	11.24	-40.8	-44.1	13.3	2.82e-05	0	54	0	118489088	53	5218
2026-01-09 22:11:13.83	40.78	11.31	-40.8	-44.2	13.3	2.74e-05	0	54	0	120586240	53	5244
2026-01-09 22:11:14.84	40.91	11.37	-40.8	-44.1	13.4	1.90e-05	0	53	0	122683392	53	5193
2026-01-09 22:11:15.84	41.04	11.44	-40.8	-44.2	13.3	3.28e-05	0	53	0	123731968	53	5236
2026-01-09 22:11:16.85	41.18	11.50	-40.8	-44.2	13.3	1.60e-05	0	53	0	125829120	53	5250
2026-01-09 22:11:17.86	41.31	11.57	-40.8	-44.2	13.3	1.67e-05	0	53	0	127926272	53	5224
2026-01-09 22:11:18.86	41.45	11.63	-40.7	-44.0	13.5	1.75e-05	0	53	0	130023424	53	5144
2026-01-09 22:11:19.87	41.58	11.70	-40.8	-44.1	13.4	1.98e-05	0	53	0	132120576	53	5173
2026-01-09 22:11:20.88	41.72	11.76	-40.7	-44.0	13.5	1.37e-05	0	53	0	133169152	53	5130
2026-01-09 22:11:21.89	41.86	11.83	-40.9	-44.2	13.3	1.44e-05	0	53	0	135266304	53	5265
2026-01-09 22:11:22.89	42.00	11.89	-40.7	-44.0	13.5	2.05e-05	0	53	0	137363456	53	5143
2026-01-09 22:11:23.90	42.14	11.96	-40.7	-44.0	13.6	6.10e-06	0	54	0	139460608	53	5109
2026-01-09 22:11:24.91	42.27	12.02	-40.8	-44.0	13.5	3.80e-06	0	54	0	141557760	53	5153
2026-01-09 22:11:25.91	42.41	12.09	-40.6	-43.8	13.7	8.30e-06	0	54	0	142606336	53	5036
2026-01-09 22:11:26.92	42.55	12.15	-40.7	-43.9	13.7	9.10e-06	0	54	0	144703488	53	5056
2026-01-09 22:11:27.93	42.70	12.22	-40.7	-43.9	13.6	1.22e-05	0	54	0	146800640	53	5086
2026-01-09 22:11:28.94	42.84	12.29	-40.7	-44.0	13.6	6.10e-06	0	54	0	148897792	53	5119
2026-01-09 22:11:29.95	42.98	12.35	-40.8	-44.1	13.5	1.22e-05	0	54	0	150994944	53	5173
2026-01-09 22:11:30.96	43.12	12.42	-40.7	-44.0	13.6	1.29e-05	0	54	0	152043520	53	5135
2026-01-09 22:11:31.97	43.27	12.48	-40.8	-44.1	13.5	9.10e-06	0	54	0	154140672	53	5169
2026-01-09 22:11:32.98	43.41	12.55	-40.7	-43.9	13.6	2.20e-06	0	54	0	156237824	53	5092
2026-01-09 22:11:33.99	43.56	12.61	-40.8	-44.1	13.5	4.50e-06	0	54	0	158334976	53	5166
2026-01-09 22:11:34.99	43.70	12.68	-40.6	-43.8	13.8	5.30e-06	0	54	0	160432128	53	5005
2026-01-09 22:11:36.00	43.85	12.74	-40.6	-43.8	13.8	6.80e-06	0	54	0	161480704	53	4993
2026-01-09 22:11:37.00	43.99	12.81	-40.5	-43.6	14.0	1.50e-06	0	54	0	163577856	53	4883
2026-01-09 22:11:38.01	44.14	12.88	-40.5	-43.6	14.1	3.00e-06	0	54	0	165675008	52	5166
2026-01-09 22:11:39.02	44.29	12.94	-40.5	-43.5	14.1	3.00e-06	0	54	0	167772160	52	5125
2026-01-09 22:11:40.02	44.44	13.01	-40.4	-43.4	14.2	7.00e-07	0	54	0	169869312	52	5080
2026-01-09 22:11:41.03	44.59	13.07	-40.4	-43.5	14.1	7.00e-07	0	54	0	170917888	52	5108
2026-01-09 22:11:42.04	44.74	13.14	-40.5	-43.5	14.1	2.20e-06	0	54	0	173015040	52	5129
2026-01-09 22:11:43.04	44.89	13.20	-40.4	-43.4	14.2	7.00e-07	0	54	0	175112192	52	5093
2026-01-09 22:11:44.05	45.04	13.27	-40.5	-43.5	14.1	1.50e-06	0	54	0	177209344	52	5156
2026-01-09 22:11:45.06	45.19	13.33	-40.5	-43.6	14.0	0.00e+00	0	54	0	179306496	52	5205
2026-01-09 22:11:46.06	45.34	13.40	-40.5	-43.5	14.1	1.50e-06	0	54	0	180355072	52	5127
2026-01-09 22:11:47.07	45.50	13.47	-40.5	-43.5	14.1	3.80e-06	0	54	0	182452224	52	5133
2026-01-09 22:11:48.08	45.65	13.53	-40.5	-43.6	14.0	0.00e+00	0	54	0	184549376	52	5182
2026-01-09 22:11:49.08	45.80	13.60	-40.5	-43.6	14.0	3.80e-06	0	54	0	186646528	52	5207
2026-01-09 22:11:50.09	45.96	13.66	-40.5	-43.5	14.1	3.00e-06	0	54	0	188743680	52	5155
2026-01-09 22:11:51.10	46.11	13.73	-40.5	-43.5	14.1	0.00e+00	0	54	0	189792256	52	5129
2026-01-09 22:11:52.11	46.27	13.79	-40.6	-43.6	14.0	1.50e-06	0	54	0	191889408	52	5214
2026-01-09 22:11:53.12	46.43	13.86	-40.6	-43.7	14.0	3.00e-06	0	54	0	193986560	52	5232
2026-01-09 22:11:54.13	46.59	13.92	-40.6	-43.7	14.0	3.80e-06	0	54	0	196083712	52	5231
2026-01-09 22:11:55.14	46.75	13.99	-40.7	-43.8	13.8	2.20e-06	0	54	0	198180864	52	5320
2026-01-09 22:11:56.14	46.90	14.06	-40.7	-43.8	13.8	2.20e-06	0	54	0	199229440	52	5315
2026-01-09 22:11:57.15	47.06	14.12	-40.7	-43.9	13.8	2.20e-06	0	54	0	201326592	52	5348
2026-01-09 22:11:58.16	47.23	14.19	-40.7	-43.8	13.8	2.20e-06	0	54	0	203423744	52	5336
2026-01-09 22:11:59.16	47.39	14.25	-40.7	-43.8	13.8	6.10e-06	0	54	0	205520896	52	5319
2026-01-09 22:12:00.16	47.55	14.32	-40.6	-43.7	13.9	1.50e-06	0	54	0	207618048	52	5258
2026-01-09 22:12:01.16	47.71	14.38	-40.6	-43.8	13.9	3.00e-06	0	54	0	208666624	52	5288
2026-01-09 22:12:02.16	47.87	14.45	-40.6	-43.7	14.0	7.60e-06	0	54	0	210763776	52	5249
2026-01-09 22:12:03.17	48.03	14.51	-40.6	-43.7	14.0	3.00e-06	0	54	0	212860928	52	5224
2026-01-09 22:12:04.18	48.20	14.58	-40.6	-43.6	14.1	7.00e-07	0	54	0	214958080	52	5202
2026-01-09 22:12:05.18	48.36	14.64	-40.5	-43.5	14.2	1.50e-06	0	54	0	217055232	52	5133
2026-01-09 22:12:06.19	48.53	14.71	-40.5	-43.5	14.2	7.00e-07	0	54	0	218103808	52	5110
2026-01-09 22:12:07.20	48.70	14.77	-40.5	-43.5	14.2	0.00e+00	0	54	0	220200960	52	5132
2026-01-09 22:12:08.20	48.86	14.84	-40.5	-43.6	14.2	7.00e-07	0	54	0	222298112	52	5178
2026-01-09 22:12:09.21	49.03	14.90	-40.5	-43.5	14.2	2.20e-06	0	54	0	224395264	52	5101
2026-01-09 22:12:10.22	49.20	14.97	-40.4	-43.3	14.4	1.50e-06	0	54	0	226492416	52	5021
2026-01-09 22:12:11.23	49.37	15.03	-40.3	-43.2	14.5	7.00e-07	0	54	0	227540992	52	4960
2026-01-09 22:12:12.24	49.54	15.10	-40.2	-43.1	14.7	0.00e+00	0	54	0	229638144	52	4875
2026-01-09 22:12:13.25	49.71	15.16	-40.2	-43.0	14.8	0.00e+00	0	54	0	231735296	52	4819
2026-01-09 22:12:14.26	49.89	15.23	-40.1	-42.9	14.9	0.00e+00	0	54	0	233832448	52	4779
2026-01-09 22:12:15.27	50.06	15.29	-40.2	-43.0	14.8	0.00e+00	0	54	0	235929600	52	4833
2026-01-09 22:12:16.27	50.23	15.36	-40.0	-42.7	15.0	0.00e+00	0	54	0	236978176	52	4690
2026-01-09 22:12:17.28	50.41	15.42	-40.0	-42.7	15.1	0.00e+00	0	55	0	239075328	51	4955
2026-01-09 22:12:18.29	50.58	15.48	-40.0	-42.6	15.2	0.00e+00	0	54	0	241172480	51	4904
2026-01-09 22:12:19.29	50.76	15.55	-39.9	-42.5	15.3	0.00e+00	0	54	0	243269632	51	4863
2026-01-09 22:12:20.30	50.93	15.61	-39.9	-42.6	15.3	7.00e-07	0	54	0	245366784	51	4873
2026-01-09 22:12:21.31	51.11	15.68	-39.9	-42.5	15.3	0.00e+00	0	54	0	246415360	51	4841
2026-01-09 22:12:22.31	51.29	15.74	-39.9	-42.5	15.3	0.00e+00	0	54	0	248512512	51	4863
2026-01-09 22:12:23.32	51.47	15.80	-39.9	-42.4	15.4	0.00e+00	0	54	0	250609664	51	4803
2026-01-09 22:12:24.33	51.64	15.87	-39.8	-42.4	15.5	0.00e+00	0	55	0	252706816	51	4779
2026-01-09 22:12:25.34	51.83	15.93	-39.8	-42.3	15.6	0.00e+00	0	54	0	254803968	51	4717
2026-01-09 22:12:26.34	52.00	16.00	-39.8	-42.3	15.5	0.00e+00	0	54	0	255852544	51	4755
2026-01-09 22:12:27.35	52.19	16.06	-39.7	-42.2	15.7	0.00e+00	0	54	0	257949696	51	4670
2026-01-09 22:12:28.36	52.37	16.12	-39.7	-42.2	15.7	0.00e+00	0	54	0	260046848	51	4653
2026-01-09 22:12:29.37	52.55	16.19	-39.7	-42.1	15.7	0.00e+00	0	54	0	262144000	51	4651
2026-01-09 22:12:30.38	52.74	16.25	-39.8	-42.2	15.6	0.00e+00	0	54	0	264241152	51	4699
2026-01-09 22:12:31.39	52.92	16.31	-39.7	-42.2	15.6	0.00e+00	0	54	0	265289728	51	4689
2026-01-09 22:12:32.40	53.11	16.38	-39.8	-42.3	15.5	0.00e+00	0	54	0	267386880	51	4739
2026-01-09 22:12:33.41	53.29	16.44	-39.8	-42.3	15.5	0.00e+00	0	55	0	269484032	51	4754
2026-01-09 22:12:34.42	53.48	16.50	-39.8	-42.4	15.5	0.00e+00	0	55	0	271581184	51	4763
2026-01-09 22:12:35.42	53.67	16.56	-39.8	-42.3	15.5	0.00e+00	0	55	0	273678336	51	4743
2026-01-09 22:12:36.43	53.86	16.63	-39.8	-42.3	15.6	0.00e+00	0	55	0	274726912	51	4723
2026-01-09 22:12:37.44	54.05	16.69	-39.7	-42.2	15.6	0.00e+00	0	55	0	276824064	51	4689
2026-01-09 22:12:38.45	54.24	16.75	-39.7	-42.3	15.5	0.00e+00	0	54	0	278921216	51	4714
2026-01-09 22:12:39.46	54.43	16.82	-39.8	-42.3	15.5	0.00e+00	0	55	0	281018368	51	4724
2026-01-09 22:12:40.46	54.62	16.88	-39.8	-42.3	15.6	0.00e+00	0	55	0	283115520	51	4720
2026-01-09 22:12:41.47	54.81	16.94	-39.8	-42.3	15.5	0.00e+00	0	55	0	284164096	51	4758
2026-01-09 22:12:42.48	55.00	17.00	-39.9	-42.4	15.4	0.00e+00	0	55	0	286261248	51	4814
2026-01-09 22:12:43.49	55.20	17.06	-40.0	-42.7	15.2	0.00e+00	0	55	0	288358400	51	4932
2026-01-09 22:12:44.50	55.39	17.12	-40.1	-42.7	15.1	0.00e+00	0	55	0	290455552	51	4975
2026-01-09 22:12:45.50	55.59	17.18	-40.2	-42.9	14.9	0.00e+00	0	55	0	292552704	51	5075
2026-01-09 22:12:46.51	55.78	17.25	-40.2	-42.9	15.0	0.00e+00	0	55	0	293601280	51	5057
2026-01-09 22:12:47.52	55.98	17.31	-40.2	-43.0	14.8	0.00e+00	0	55	0	295698432	51	5111
2026-01-09 22:12:48.52	56.18	17.37	-40.2	-42.9	14.9	0.00e+00	0	55	0	297795584	51	5087
2026-01-09 22:12:49.53	56.38	17.43	-40.1	-42.8	15.0	0.00e+00	0	55	0	299892736	51	5024
2026-01-09 22:12:50.54	56.57	17.49	-40.1	-42.8	15.0	0.00e+00	0	55	0	301989888	51	5033
2026-01-09 22:12:51.54	56.77	17.55	-40.1	-42.8	15.0	0.00e+00	0	55	0	303038464	51	5033
2026-01-09 22:12:52.55	56.97	17.61	-40.1	-42.8	15.1	0.00e+00	0	55	0	305135616	51	5004
2026-01-09 22:12:53.55	57.17	17.67	-40.2	-43.0	14.9	0.00e+00	0	55	0	307232768	51	5112
2026-01-09 22:12:54.56	57.38	17.73	-40.1	-42.8	15.0	0.00e+00	0	55	0	309329920	51	5037
2026-01-09 22:12:55.57	57.58	17.79	-40.2	-43.0	14.9	0.00e+00	0	55	0	311427072	51	5107
2026-01-09 22:12:56.57	57.78	17.85	-40.3	-43.1	14.7	0.00e+00	0	55	0	312475648	51	5215
2026-01-09 22:12:57.58	57.99	17.91	-40.4	-43.2	14.7	0.00e+00	0	55	0	314572800	51	5247
2026-01-09 22:12:58.59	58.19	17.96	-40.4	-43.3	14.6	7.00e-07	0	55	0	316669952	51	5287
2026-01-09 22:12:59.59	58.40	18.02	-40.4	-43.3	14.6	7.00e-07	0	55	0	318767104	51	5307
2026-01-09 22:13:00.60	58.61	18.08	-40.5	-43.3	14.5	7.00e-07	0	55	0	320864256	51	5320
2026-01-09 22:13:01.61	58.81	18.14	-40.5	-43.3	14.5	7.00e-07	0	55	0	321912832	51	5325
2026-01-09 22:13:02.62	59.02	18.20	-40.5	-43.4	14.5	0.00e+00	0	55	0	324009984	51	5362
2026-01-09 22:13:03.62	59.23	18.25	-40.5	-43.3	14.5	7.00e-07	0	55	0	326107136	51	5337
2026-01-09 22:13:04.63	59.44	18.31	-40.6	-43.5	14.4	0.00e+00	0	55	0	328204288	51	5428
2026-01-09 22:13:05.63	59.65	18.37	-40.7	-43.7	14.2	7.00e-07	0	55	0	330301440	51	5558
2026-01-09 22:13:06.64	59.86	18.43	-40.7	-43.7	14.1	7.00e-07	0	55	0	331350016	52	5265
2026-01-09 22:13:07.65	60.08	18.48	-40.8	-43.9	13.9	3.80e-06	0	55	0	333447168	52	5358
2026-01-09 22:13:08.66	60.29	18.54	-40.8	-43.9	13.9	7.00e-07	0	55	0	335544320	52	5388
2026-01-09 22:13:09.67	60.50	18.60	-40.9	-44.1	13.7	4.50e-06	0	55	0	337641472	52	5481
2026-01-09 22:13:10.68	60.72	18.65	-40.9	-44.1	13.7	4.50e-06	0	55	0	339738624	52	5487
2026-01-09 22:13:11.69	60.94	18.71	-40.9	-44.2	13.6	9.10e-06	0	55	0	341835776	52	5541
2026-01-09 22:13:12.69	61.15	18.76	-40.9	-44.2	13.6	7.60e-06	0	55	0	342884352	52	5547
2026-01-09 22:13:13.70	61.37	18.82	-41.0	-44.3	13.5	1.37e-05	0	55	0	344981504	52	5601
2026-01-09 22:13:14.71	61.59	18.87	-41.0	-44.2	13.5	9.10e-06	0	55	0	347078656	52	5581
2026-01-09 22:13:15.72	61.81	18.93	-41.1	-44.4	13.3	1.22e-05	0	55	0	349175808	52	5714
2026-01-09 22:13:16.73	62.03	18.98	-41.1	-44.5	13.3	1.60e-05	0	55	0	350224384	52	5748
2026-01-09 22:13:17.74	62.25	19.04	-41.1	-44.5	13.2	1.98e-05	0	55	0	352321536	52	5776
2026-01-09 22:13:18.75	62.47	19.09	-41.1	-44.5	13.2	2.74e-05	0	55	0	354418688	52	5772
2026-01-09 22:13:19.76	62.69	19.14	-41.2	-44.7	13.1	3.35e-05	0	55	0	356515840	53	5560
2026-01-09 22:13:20.76	62.91	19.20	-41.2	-44.7	13.0	3.66e-05	0	55	0	358612992	53	5567
2026-01-09 22:13:21.77	63.14	19.25	-41.2	-44.6	13.1	3.20e-05	0	55	0	359661568	53	5475
2026-01-09 22:13:22.78	63.36	19.30	-41.1	-44.5	13.2	2.74e-05	0	55	0	361758720	53	5431
2026-01-09 22:13:23.79	63.59	19.36	-41.0	-44.4	13.4	1.37e-05	0	55	0	363855872	53	5349
2026-01-09 22:13:24.80	63.81	19.41	-40.8	-44.0	13.7	7.60e-06	0	55	0	365953024	53	5117
2026-01-09 22:13:25.80	64.04	19.46	-40.8	-44.0	13.8	2.20e-06	0	55	0	368050176	53	5122
2026-01-09 22:13:26.81	64.26	19.51	-40.7	-43.9	13.9	5.30e-06	0	55	0	370147328	53	5042
2026-01-09 22:13:27.82	64.49	19.56	-40.8	-43.8	13.9	6.10e-06	0	55	0	371195904	53	5038
2026-01-09 22:13:28.82	64.72	19.61	-40.8	-43.9	13.9	1.50e-06	0	55	0	373293056	53	5054
2026-01-09 22:13:29.83	64.95	19.66	-40.8	-43.9	13.8	4.50e-06	0	55	0	375390208	53	5092
2026-01-09 22:13:30.84	65.18	19.71	-40.8	-44.0	13.7	7.60e-06	0	55	0	377487360	53	5127
2026-01-09 22:13:31.85	65.41	19.76	-40.9	-44.1	13.7	1.14e-05	0	55	0	379584512	53	5168
2026-01-09 22:13:32.86	65.64	19.81	-40.9	-44.2	13.5	8.30e-06	0	55	0	380633088	53	5244
2026-01-09 22:13:33.86	65.87	19.86	-40.9	-44.0	13.7	8.30e-06	0	55	0	382730240	53	5157
2026-01-09 22:13:34.86	66.10	19.91	-40.9	-44.1	13.7	9.10e-06	0	55	0	384827392	53	5177
2026-01-09 22:13:35.87	66.34	19.96	-40.8	-44.0	13.7	6.80e-06	0	55	0	386924544	53	5119
2026-01-09 22:13:36.88	66.57	20.00	-40.8	-44.0	13.8	6.10e-06	0	55	0	387973120	53	5130
2026-01-09 22:13:37.89	66.81	20.05	-40.8	-43.9	13.8	3.80e-06	0	55	0	390070272	53	5059
2026-01-09 22:13:38.90	67.04	20.10	-40.7	-43.9	13.9	3.00e-06	0	55	0	392167424	53	5045
2026-01-09 22:13:39.91	67.28	20.14	-40.7	-43.8	13.9	3.80e-06	0	55	0	394264576	53	5031
2026-01-09 22:13:40.91	67.52	20.19	-40.7	-43.7	14.0	0.00e+00	0	55	0	396361728	53	4974
2026-01-09 22:13:41.92	67.76	20.24	-40.7	-43.8	13.9	7.00e-07	0	55	0	398458880	53	5014
2026-01-09 22:13:42.92	67.99	20.28	-40.7	-43.9	13.8	5.30e-06	0	56	0	399507456	53	5049
2026-01-09 22:13:43.93	68.23	20.33	-40.7	-43.8	13.8	3.80e-06	0	55	0	401604608	53	5039
2026-01-09 22:13:44.94	68.47	20.37	-40.7	-43.9	13.8	9.10e-06	0	55	0	403701760	53	5045
2026-01-09 22:13:45.95	68.71	20.41	-40.7	-43.9	13.8	3.80e-06	0	55	0	405798912	53	5064
2026-01-09 22:13:46.96	68.96	20.46	-40.8	-44.1	13.5	6.80e-06	0	55	0	407896064	53	5165
2026-01-09 22:13:47.97	69.20	20.50	-40.8	-44.1	13.5	9.90e-06	0	55	0	408944640	53	5186
2026-01-09 22:13:48.98	69.44	20.54	-40.8	-44.1	13.5	1.29e-05	0	55	0	411041792	53	5175
2026-01-09 22:13:49.99	69.69	20.59	-40.8	-44.1	13.5	1.22e-05	0	55	0	413138944	53	5165
2026-01-09 22:13:51.00	69.93	20.63	-40.7	-44.0	13.5	7.60e-06	0	55	0	415236096	53	5139
2026-01-09 22:13:52.00	70.17	20.67	-40.6	-43.8	13.7	3.80e-06	0	55	0	417333248	53	5013
2026-01-09 22:13:53.01	70.42	20.71	-40.5	-43.7	13.6	9.10e-06	0	55	0	418381824	53	4971
2026-01-09 22:13:54.02	70.67	20.75	-40.4	-43.7	13.6	6.80e-06	0	55	0	420478976	52	5243
2026-01-09 22:13:55.03	70.91	20.79	-40.5	-43.8	13.4	9.90e-06	0	56	0	422576128	52	5293
2026-01-09 22:13:56.04	71.16	20.83	-40.3	-43.6	13.4	9.10e-06	0	55	0	424673280	52	5214
2026-01-09 22:13:57.05	71.41	20.87	-40.3	-43.6	13.3	9.90e-06	0	55	0	426770432	52	5184
2026-01-09 22:13:58.05	71.66	20.91	-40.3	-43.6	13.3	2.13e-05	0	55	0	427819008	52	5217
2026-01-09 22:13:59.06	71.91	20.95	-40.3	-43.7	13.1	3.12e-05	0	55	0	429916160	52	5262
2026-01-09 22:14:00.07	72.16	20.99	-40.3	-43.8	13.0	2.89e-05	0	56	0	432013312	52	5292
2026-01-09 22:14:01.07	72.40	21.02	-40.3	-43.9	12.9	3.89e-05	0	56	0	434110464	52	5347
2026-01-09 22:14:02.07	72.65	21.06	-40.3	-43.7	13.1	4.42e-05	0	55	0	436207616	52	5270
2026-01-09 22:14:03.08	72.91	21.10	-40.3	-43.7	13.2	2.05e-05	0	55	0	437256192	52	5255
2026-01-09 22:14:04.09	73.16	21.13	-40.3	-43.5	13.6	1.22e-05	0	56	0	439353344	52	5143
2026-01-09 22:14:05.09	73.41	21.17	-40.2	-43.4	13.8	7.60e-06	0	55	0	441450496	52	5071
2026-01-09 22:14:06.10	73.66	21.20	-40.3	-43.4	13.9	3.00e-06	0	55	0	443547648	52	5049
2026-01-09 22:14:07.11	73.92	21.24	-40.2	-43.4	14.0	3.00e-06	0	55	0	445644800	52	5042
2026-01-09 22:14:08.11	74.17	21.27	-40.2	-43.3	14.0	3.80e-06	0	55	0	446693376	52	5018
2026-01-09 22:14:09.12	74.43	21.30	-40.2	-43.2	14.1	3.00e-06	0	55	0	448790528	52	4971
2026-01-09 22:14:10.13	74.68	21.34	-40.2	-43.2	14.1	0.00e+00	0	56	0	450887680	52	4975
2026-01-09 22:14:11.13	74.94	21.37	-40.2	-43.3	14.1	7.00e-07	0	55	0	452984832	52	5003
2026-01-09 22:14:12.14	75.19	21.40	-40.3	-43.3	14.1	1.50e-06	0	56	0	455081984	52	5024
2026-01-09 22:14:13.15	75.45	21.43	-40.3	-43.4	14.1	3.80e-06	0	55	0	456130560	52	5049
2026-01-09 22:14:14.15	75.71	21.46	-40.4	-43.4	14.0	1.50e-06	0	55	0	458227712	52	5099
2026-01-09 22:14:15.16	75.96	21.49	-40.4	-43.5	14.0	3.00e-06	0	56	0	460324864	52	5112
2026-01-09 22:14:16.17	76.22	21.52	-40.4	-43.4	14.0	3.80e-06	0	56	0	462422016	52	5072
2026-01-09 22:14:17.17	76.48	21.55	-40.4	-43.4	14.0	3.00e-06	0	56	0	464519168	52	5089
2026-01-09 22:14:18.18	76.74	21.58	-40.5	-43.5	13.9	3.00e-06	0	55	0	465567744	52	5150
2026-01-09 22:14:19.19	77.00	21.60	-40.5	-43.7	13.8	3.00e-06	0	56	0	467664896	52	5250
2026-01-09 22:14:20.19	77.26	21.63	-40.6	-43.8	13.7	4.50e-06	0	56	0	469762048	52	5295
2026-01-09 22:14:21.20	77.52	21.66	-40.7	-43.9	13.5	6.80e-06	0	56	0	471859200	52	5390
2026-01-09 22:14:22.21	77.78	21.68	-40.8	-44.1	13.4	1.14e-05	0	56	0	473956352	52	5497
2026-01-09 22:14:23.21	78.04	21.71	-40.8	-44.1	13.4	9.90e-06	0	56	0	475004928	52	5483
2026-01-09 22:14:24.22	78.31	21.74	-40.8	-44.1	13.5	1.06e-05	0	56	0	477102080	52	5468
2026-01-09 22:14:25.23	78.57	21.76	-40.8	-44.2	13.4	1.29e-05	0	56	0	479199232	52	5531
2026-01-09 22:14:26.24	78.83	21.78	-40.8	-44.1	13.4	9.10e-06	0	56	0	481296384	52	5509
2026-01-09 22:14:27.24	79.09	21.81	-40.8	-44.1	13.5	1.52e-05	0	55	0	483393536	52	5489
2026-01-09 22:14:28.25	79.36	21.83	-40.7	-43.9	13.7	6.10e-06	0	56	0	484442112	52	5386
2026-01-09 22:14:29.26	79.62	21.85	-40.6	-43.7	13.9	3.00e-06	0	56	0	486539264	52	5256
2026-01-09 22:14:30.27	79.89	21.87	-40.4	-43.4	14.1	3.80e-06	0	55	0	488636416	52	5090
2026-01-09 22:14:31.28	80.15	21.89	-40.3	-43.2	14.4	1.50e-06	0	56	0	490733568	52	4953
2026-01-09 22:14:32.29	80.42	21.91	-40.3	-43.1	14.5	0.00e+00	0	55	0	492830720	52	4906
2026-01-09 22:14:33.30	80.69	21.93	-40.3	-43.1	14.5	0.00e+00	0	55	0	493879296	52	4920
2026-01-09 22:14:34.31	80.95	21.95	-40.5	-43.4	14.2	0.00e+00	0	56	0	495976448	52	5085
2026-01-09 22:14:35.31	81.22	21.97	-40.6	-43.6	14.1	7.00e-07	0	56	0	498073600	52	5185
2026-01-09 22:14:36.33	81.49	21.99	-40.7	-43.8	13.9	7.00e-07	0	56	0	500170752	52	5303
2026-01-09 22:14:37.33	81.75	22.01	-40.8	-44.0	13.7	4.50e-06	0	56	0	502267904	52	5411
2026-01-09 22:14:38.34	82.02	22.02	-40.8	-43.9	13.7	5.30e-06	0	55	0	503316480	52	5396
2026-01-09 22:14:39.35	82.29	22.04	-40.7	-43.9	13.7	4.50e-06	0	56	0	505413632	52	5387
2026-01-09 22:14:40.36	82.55	22.05	-40.7	-43.8	13.8	3.00e-06	0	56	0	507510784	52	5332
2026-01-09 22:14:41.37	82.82	22.07	-40.6	-43.8	13.8	3.00e-06	0	56	0	509607936	52	5282
2026-01-09 22:14:42.38	83.09	22.08	-40.5	-43.6	13.9	2.20e-06	0	56	0	511705088	52	5174
2026-01-09 22:14:43.39	83.36	22.10	-40.3	-43.4	14.1	1.50e-06	0	56	0	512753664	52	5058
2026-01-09 22:14:44.39	83.63	22.11	-40.3	-43.3	14.0	7.00e-07	0	56	0	514850816	52	5022
2026-01-09 22:14:45.41	83.90	22.12	-40.2	-43.3	14.0	2.20e-06	0	56	0	516947968	52	4993
2026-01-09 22:14:46.41	84.17	22.13	-40.3	-43.4	13.9	7.00e-07	0	56	0	519045120	52	5072
2026-01-09 22:14:47.42	84.44	22.14	-40.4	-43.7	13.5	8.30e-06	0	55	0	521142272	52	5266
2026-01-09 22:14:48.43	84.71	22.15	-40.5	-43.9	13.2	1.06e-05	0	56	0	522190848	52	5396
2026-01-09 22:14:49.43	84.97	22.16	-40.6	-44.1	13.0	2.97e-05	0	55	0	524288000	52	5478
2026-01-09 22:14:50.44	85.24	22.17	-40.6	-44.0	13.2	2.21e-05	0	56	0	526385152	52	5411
2026-01-09 22:14:51.45	85.52	22.18	-40.6	-43.9	13.3	1.98e-05	0	56	0	528482304	52	5378
2026-01-09 22:14:52.45	85.78	22.19	-40.5	-43.8	13.4	1.67e-05	0	56	0	530579456	52	5340
2026-01-09 22:14:53.46	86.05	22.20	-40.4	-43.5	13.8	6.10e-06	0	56	0	531628032	52	5153
2026-01-09 22:14:54.46	86.32	22.20	-40.4	-43.5	13.8	5.30e-06	0	56	0	533725184	52	5130
2026-01-09 22:14:55.47	86.59	22.21	-40.3	-43.3	14.0	4.50e-06	0	56	0	535822336	52	5028
2026-01-09 22:14:56.48	86.86	22.21	-40.2	-43.2	14.1	1.50e-06	0	55	0	537919488	52	4972
2026-01-09 22:14:57.49	87.14	22.22	-40.1	-43.1	14.2	1.50e-06	0	56	0	540016640	52	4908
2026-01-09 22:14:58.49	87.40	22.22	-40.1	-43.0	14.3	1.50e-06	0	56	0	541065216	52	4867
2026-01-09 22:14:59.49	87.67	22.23	-40.3	-43.3	14.1	7.00e-07	0	56	0	543162368	52	5017
2026-01-09 22:15:00.50	87.94	22.23	-40.4	-43.6	13.9	3.80e-06	0	56	0	545259520	52	5165
2026-01-09 22:15:01.51	88.22	22.23	-40.5	-43.7	13.7	4.50e-06	0	56	0	547356672	52	5257
2026-01-09 22:15:02.51	88.49	22.23	-40.6	-43.9	13.6	1.14e-05	0	56	0	549453824	52	5354
2026-01-09 22:15:03.52	88.76	22.23	-40.7	-43.9	13.6	6.10e-06	0	56	0	550502400	52	5382
2026-01-09 22:15:04.53	89.03	22.23	-40.7	-43.9	13.6	9.90e-06	0	56	0	552599552	52	5368
2026-01-09 22:15:05.54	89.30	22.23	-40.7	-44.0	13.6	6.10e-06	0	56	0	554696704	52	5412
2026-01-09 22:15:06.55	89.57	22.23	-40.7	-44.0	13.6	1.22e-05	0	56	0	556793856	52	5419
2026-01-09 22:15:07.55	89.84	22.23	-40.7	-43.9	13.7	1.14e-05	0	55	0	558891008	52	5381
2026-01-09 22:15:08.56	90.11	22.23	-40.7	-43.8	13.8	4.50e-06	0	56	0	559939584	52	5321
2026-01-09 22:15:09.57	90.38	22.22	-40.6	-43.7	13.9	3.00e-06	0	56	0	562036736	52	5269
2026-01-09 22:15:10.58	90.66	22.22	-40.5	-43.5	14.1	2.20e-06	0	55	0	564133888	52	5146
2026-01-09 22:15:11.59	90.93	22.21	-40.4	-43.3	14.4	1.50e-06	0	56	0	566231040	52	5037
2026-01-09 22:15:12.60	91.20	22.21	-40.4	-43.3	14.5	7.00e-07	0	56	0	568328192	52	4996
2026-01-09 22:15:13.60	91.47	22.20	-40.3	-43.2	14.6	0.00e+00	0	56	0	569376768	52	4948
2026-01-09 22:15:14.61	91.74	22.20	-40.3	-43.1	14.6	0.00e+00	0	56	0	571473920	52	4917
2026-01-09 22:15:15.62	92.01	22.19	-40.3	-43.2	14.6	7.00e-07	0	56	0	573571072	52	4940
2026-01-09 22:15:16.63	92.28	22.18	-40.4	-43.3	14.5	0.00e+00	0	56	0	575668224	52	5013
2026-01-09 22:15:17.64	92.55	22.17	-40.6	-43.6	14.1	0.00e+00	0	56	0	577765376	52	5211
2026-01-09 22:15:18.65	92.82	22.16	-40.8	-43.9	13.8	1.50e-06	0	56	0	579862528	52	5402
2026-01-09 22:15:19.65	93.09	22.15	-40.8	-44.0	13.7	4.50e-06	0	56	0	580911104	52	5452
2026-01-09 22:15:20.66	93.36	22.14	-40.8	-43.9	13.8	5.30e-06	0	56	0	583008256	52	5397
2026-01-09 22:15:21.67	93.63	22.13	-40.6	-43.7	14.1	3.80e-06	0	56	0	585105408	52	5234
2026-01-09 22:15:22.68	93.90	22.12	-40.6	-43.6	14.2	7.00e-07	0	56	0	587202560	52	5178
2026-01-09 22:15:23.68	94.17	22.11	-40.4	-43.3	14.4	1.50e-06	0	56	0	588251136	52	5041
2026-01-09 22:15:24.69	94.44	22.10	-40.4	-43.3	14.4	0.00e+00	0	56	0	590348288	52	5036
2026-01-09 22:15:25.69	94.70	22.08	-40.4	-43.3	14.5	7.00e-07	0	56	0	592445440	52	5012
2026-01-09 22:15:26.70	94.97	22.07	-40.3	-43.2	14.6	7.00e-07	0	56	0	594542592	52	4941
2026-01-09 22:15:27.71	95.24	22.05	-40.2	-43.0	14.7	7.00e-07	0	56	0	596639744	52	4857
2026-01-09 22:15:28.71	95.51	22.04	-40.1	-42.9	15.0	7.00e-07	0	56	0	597688320	52	4760
2026-01-09 22:15:29.72	95.77	22.02	-40.0	-42.7	15.1	0.00e+00	0	56	0	599785472	52	4677
2026-01-09 22:15:30.73	96.04	22.01	-40.1	-42.7	15.2	0.00e+00	0	56	0	601882624	51	4976
2026-01-09 22:15:31.73	96.31	21.99	-40.2	-42.9	15.0	0.00e+00	0	56	0	603979776	51	5043
2026-01-09 22:15:32.74	96.58	21.97	-40.3	-43.0	14.8	7.00e-07	0	56	0	606076928	51	5127
2026-01-09 22:15:33.75	96.84	21.95	-40.3	-43.0	14.9	0.00e+00	0	56	0	608174080	51	5119
2026-01-09 22:15:34.75	97.11	21.93	-40.2	-42.9	15.0	0.00e+00	0	56	0	609222656	51	5055
2026-01-09 22:15:35.76	97.37	21.91	-40.2	-42.9	15.0	0.00e+00	0	56	0	611319808	51	5045
2026-01-09 22:15:36.77	97.64	21.89	-40.0	-42.6	15.3	0.00e+00	0	56	0	613416960	51	4906
2026-01-09 22:15:37.78	97.91	21.87	-40.0	-42.6	15.3	0.00e+00	0	56	0	615514112	51	4899
2026-01-09 22:15:38.79	98.17	21.85	-40.0	-42.6	15.3	0.00e+00	0	56	0	617611264	51	4898
2026-01-09 22:15:39.80	98.44	21.83	-40.0	-42.5	15.3	0.00e+00	0	56	0	618659840	51	4861
2026-01-09 22:15:40.80	98.70	21.81	-40.1	-42.7	15.1	0.00e+00	0	56	0	620756992	51	4979
2026-01-09 22:15:41.81	98.96	21.78	-40.3	-43.0	14.9	0.00e+00	0	56	0	622854144	51	5119
2026-01-09 22:15:42.82	99.23	21.76	-40.3	-43.1	14.8	0.00e+00	0	56	0	624951296	51	5175
2026-01-09 22:15:43.83	99.49	21.74	-40.4	-43.2	14.7	7.00e-07	0	56	0	625999872	51	5248
2026-01-09 22:15:44.84	99.75	21.71	-40.3	-43.1	14.7	0.00e+00	0	56	0	628097024	51	5208
2026-01-09 22:15:45.84	100.01	21.69	-40.3	-43.0	14.9	0.00e+00	0	56	0	630194176	51	5136
2026-01-09 22:15:46.85	100.28	21.66	-40.2	-42.9	15.0	7.00e-07	0	56	0	632291328	51	5086
2026-01-09 22:15:47.86	100.54	21.63	-40.0	-42.6	15.2	7.00e-07	0	56	0	634388480	51	4911
2026-01-09 22:15:48.87	100.80	21.60	-39.9	-42.4	15.5	0.00e+00	0	56	0	636485632	51	4810
2026-01-09 22:15:49.88	101.06	21.58	-39.8	-42.3	15.6	0.00e+00	0	56	0	637534208	51	4742
2026-01-09 22:15:50.89	101.32	21.55	-39.8	-42.3	15.6	0.00e+00	0	56	0	639631360	51	4745
2026-01-09 22:15:51.90	101.58	21.52	-39.7	-42.1	15.8	0.00e+00	0	56	0	641728512	51	4617
2026-01-09 22:15:52.90	101.84	21.49	-39.5	-41.9	16.0	0.00e+00	0	56	0	643825664	51	4504
2026-01-09 22:15:53.91	102.10	21.46	-39.4	-41.7	16.2	0.00e+00	0	56	0	645922816	50	4674
2026-01-09 22:15:54.92	102.36	21.43	-39.3	-41.6	16.3	0.00e+00	0	56	0	646971392	50	4610
2026-01-09 22:15:55.92	102.61	21.40	-39.4	-41.7	16.2	0.00e+00	0	56	0	649068544	50	4672
2026-01-09 22:15:56.93	102.87	21.37	-39.6	-41.9	16.0	0.00e+00	0	56	0	651165696	50	4811
2026-01-09 22:15:57.94	103.13	21.33	-39.8	-42.2	15.7	0.00e+00	0	56	0	653262848	50	4976
2026-01-09 22:15:58.95	103.38	21.30	-39.8	-42.3	15.6	0.00e+00	0	56	0	655360000	50	5029
2026-01-09 22:15:59.96	103.64	21.27	-39.9	-42.4	15.5	0.00e+00	0	56	0	656408576	50	5089
2026-01-09 22:16:00.96	103.89	21.23	-39.8	-42.3	15.6	0.00e+00	0	56	0	658505728	50	5027
2026-01-09 22:16:01.97	104.15	21.20	-39.8	-42.3	15.7	0.00e+00	0	56	0	660602880	50	4984
2026-01-09 22:16:02.98	104.40	21.16	-39.7	-42.2	15.7	0.00e+00	0	56	0	662700032	50	4942
2026-01-09 22:16:03.98	104.65	21.13	-39.8	-42.2	15.7	0.00e+00	0	56	0	664797184	50	4968
2026-01-09 22:16:04.99	104.91	21.09	-39.7	-42.2	15.7	0.00e+00	0	56	0	665845760	50	4958
2026-01-09 22:16:06.00	105.16	21.06	-39.6	-41.9	16.0	0.00e+00	0	56	0	667942912	50	4803
2026-01-09 22:16:07.01	105.41	21.02	-39.4	-41.8	16.2	0.00e+00	0	56	0	670040064	50	4714
2026-01-09 22:16:08.01	105.66	20.98	-39.4	-41.7	16.3	0.00e+00	0	56	0	672137216	50	4656
2026-01-09 22:16:09.02	105.91	20.94	-39.1	-41.3	16.6	0.00e+00	0	56	0	674234368	50	4493
2026-01-09 22:16:10.03	106.16	20.91	-39.1	-41.3	16.6	0.00e+00	0	56	0	675282944	50	4448
2026-01-09 22:16:11.03	106.41	20.87	-38.9	-41.1	16.8	0.00e+00	0	56	0	677380096	49	4599
2026-01-09 22:16:12.04	106.66	20.83	-38.9	-41.1	16.8	0.00e+00	0	56	0	679477248	49	4614
2026-01-09 22:16:13.05	106.91	20.79	-38.9	-41.1	16.8	0.00e+00	0	56	0	681574400	49	4622
2026-01-09 22:16:14.05	107.15	20.75	-39.0	-41.2	16.7	0.00e+00	0	56	0	683671552	49	4669
2026-01-09 22:16:15.06	107.40	20.71	-39.2	-41.4	16.5	0.00e+00	0	56	0	684720128	49	4773
2026-01-09 22:16:16.07	107.65	20.67	-39.2	-41.4	16.5	0.00e+00	0	56	0	686817280	49	4802
2026-01-09 22:16:17.08	107.89	20.62	-39.2	-41.5	16.4	0.00e+00	0	56	0	688914432	49	4842
2026-01-09 22:16:18.08	108.14	20.58	-39.4	-41.7	16.2	0.00e+00	0	56	0	691011584	49	4967
2026-01-09 22:16:19.09	108.38	20.54	-39.5	-41.9	16.0	0.00e+00	0	56	0	693108736	49	5061
2026-01-09 22:16:20.10	108.63	20.50	-39.6	-42.1	15.8	0.00e+00	0	56	0	694157312	49	5164
2026-01-09 22:16:21.10	108.87	20.45	-39.8	-42.4	15.6	0.00e+00	0	56	0	696254464	50	5043
2026-01-09 22:16:22.11	109.11	20.41	-39.9	-42.5	15.4	0.00e+00	0	56	0	698351616	50	5128
2026-01-09 22:16:23.11	109.35	20.37	-39.9	-42.5	15.4	0.00e+00	0	56	0	700448768	50	5140
2026-01-09 22:16:24.12	109.59	20.32	-39.9	-42.5	15.5	0.00e+00	0	56	0	702545920	50	5105
2026-01-09 22:16:25.13	109.83	20.28	-39.8	-42.2	15.7	0.00e+00	0	56	0	703594496	50	4965
2026-01-09 22:16:26.13	110.07	20.23	-39.6	-42.1	15.9	0.00e+00	0	56	0	705691648	50	4876
2026-01-09 22:16:27.15	110.31	20.18	-39.6	-42.0	16.0	0.00e+00	0	56	0	707788800	50	4815
2026-01-09 22:16:28.16	110.55	20.14	-39.6	-42.0	16.0	0.00e+00	0	56	0	709885952	50	4834
2026-01-09 22:16:29.17	110.79	20.09	-39.5	-41.9	16.1	0.00e+00	0	56	0	711983104	50	4761
2026-01-09 22:16:30.18	111.03	20.04	-39.4	-41.7	16.2	0.00e+00	0	56	0	713031680	50	4679
2026-01-09 22:16:31.18	111.26	20.00	-39.3	-41.6	16.3	0.00e+00	0	56	0	715128832	50	4624
2026-01-09 22:16:32.19	111.50	19.95	-39.3	-41.6	16.3	0.00e+00	0	56	0	717225984	50	4607
2026-01-09 22:16:33.20	111.73	19.90	-39.5	-41.8	16.1	0.00e+00	0	56	0	719323136	50	4742
2026-01-09 22:16:34.21	111.96	19.85	-39.7	-42.1	15.9	0.00e+00	0	56	0	721420288	50	4875
2026-01-09 22:16:35.22	112.20	19.80	-39.9	-42.5	15.5	0.00e+00	0	56	0	722468864	50	5112
2026-01-09 22:16:36.23	112.43	19.75	-40.2	-42.9	15.0	0.00e+00	0	56	0	724566016	50	5387
2026-01-09 22:16:37.24	112.66	19.70	-40.5	-43.3	14.6	0.00e+00	0	56	0	726663168	51	5318
2026-01-09 22:16:38.24	112.89	19.65	-40.6	-43.5	14.4	7.00e-07	0	56	0	728760320	51	5422
2026-01-09 22:16:39.25	113.12	19.60	-40.6	-43.6	14.2	1.50e-06	0	56	0	730857472	51	5510
2026-01-09 22:16:40.26	113.35	19.55	-40.7	-43.7	14.2	1.50e-06	0	56	0	731906048	51	5554
2026-01-09 22:16:41.27	113.58	19.50	-40.7	-43.7	14.2	7.00e-07	0	56	0	734003200	51	5543
2026-01-09 22:16:42.27	113.81	19.45	-40.6	-43.6	14.2	7.00e-07	0	56	0	736100352	52	5195
2026-01-09 22:16:43.28	114.04	19.39	-40.6	-43.6	14.1	1.50e-06	0	56	0	738197504	52	5215
2026-01-09 22:16:44.29	114.26	19.34	-40.5	-43.5	14.3	1.50e-06	0	56	0	740294656	52	5130
2026-01-09 22:16:45.29	114.49	19.29	-40.5	-43.5	14.3	0.00e+00	0	56	0	741343232	52	5110
2026-01-09 22:16:46.30	114.71	19.24	-40.4	-43.2	14.6	7.00e-07	0	56	0	743440384	52	4967
2026-01-09 22:16:47.31	114.94	19.18	-40.2	-43.0	14.7	4.50e-06	0	56	0	745537536	52	4866
2026-01-09 22:16:48.32	115.16	19.13	-40.1	-42.9	14.9	0.00e+00	0	56	0	747634688	52	4761
2026-01-09 22:16:49.32	115.38	19.08	-40.1	-42.8	14.9	0.00e+00	0	56	0	749731840	52	4749
2026-01-09 22:16:50.33	115.60	19.02	-40.1	-42.8	15.0	0.00e+00	0	56	0	750780416	52	4723
2026-01-09 22:16:51.34	115.83	18.97	-40.1	-42.8	14.9	0.00e+00	0	56	0	752877568	52	4754
2026-01-09 22:16:52.34	116.04	18.91	-40.2	-43.0	14.8	0.00e+00	0	56	0	754974720	52	4834
2026-01-09 22:16:53.35	116.26	18.86	-40.2	-43.0	14.7	0.00e+00	0	56	0	757071872	52	4868
2026-01-09 22:16:54.36	116.48	18.80	-40.4	-43.4	14.4	0.00e+00	0	56	0	759169024	52	5050
2026-01-09 22:16:55.36	116.70	18.75	-40.5	-43.5	14.3	1.50e-06	0	56	0	760217600	52	5125
2026-01-09 22:16:56.37	116.92	18.69	-40.5	-43.5	14.2	7.00e-07	0	56	0	762314752	52	5140
2026-01-09 22:16:57.38	117.13	18.64	-40.6	-43.6	14.1	3.00e-06	0	56	0	764411904	52	5199
2026-01-09 22:16:58.38	117.35	18.58	-40.7	-43.8	14.0	3.00e-06	0	56	0	766509056	52	5290
2026-01-09 22:16:59.39	117.56	18.52	-40.6	-43.7	14.0	2.20e-06	0	56	0	768606208	52	5264
2026-01-09 22:17:00.40	117.78	18.47	-40.6	-43.7	14.0	1.50e-06	0	56	0	769654784	52	5255
2026-01-09 22:17:01.41	117.99	18.41	-40.6	-43.7	14.1	2.20e-06	0	56	0	771751936	52	5220
2026-01-09 22:17:02.41	118.20	18.35	-40.4	-43.3	14.5	7.00e-07	0	56	0	773849088	52	5001
2026-01-09 22:17:03.42	118.42	18.29	-40.2	-43.0	14.8	0.00e+00	0	56	0	775946240	52	4829
2026-01-09 22:17:04.43	118.63	18.24	-40.0	-42.7	15.0	0.00e+00	0	56	0	778043392	52	4696
2026-01-09 22:17:05.44	118.84	18.18	-40.0	-42.7	15.1	0.00e+00	0	56	0	779091968	51	4947
2026-01-09 22:17:06.44	119.05	18.12	-40.0	-42.7	15.1	0.00e+00	0	56	0	781189120	51	4970
2026-01-09 22:17:07.45	119.25	18.06	-40.2	-42.9	14.9	0.00e+00	0	56	0	783286272	51	5061
2026-01-09 22:17:08.46	119.46	18.00	-40.2	-43.0	14.8	0.00e+00	0	56	0	785383424	51	5123
2026-01-09 22:17:09.47	119.67	17.94	-40.3	-43.1	14.7	0.00e+00	0	56	0	787480576	51	5186
2026-01-09 22:17:10.48	119.88	17.88	-40.3	-43.1	14.7	0.00e+00	0	56	0	788529152	51	5207
2026-01-09 22:17:11.48	120.08	17.82	-40.2	-43.0	14.7	7.00e-07	0	56	0	790626304	51	5146
2026-01-09 22:17:12.50	120.29	17.76	-40.2	-42.9	14.8	0.00e+00	0	56	0	792723456	51	5088
2026-01-09 22:17:13.51	120.49	17.70	-40.2	-42.9	14.8	1.50e-06	0	56	0	794820608	51	5090
2026-01-09 22:17:14.51	120.69	17.64	-40.1	-42.9	14.9	7.00e-07	0	56	0	796917760	51	5056
2026-01-09 22:17:15.52	120.90	17.58	-40.2	-43.0	14.8	0.00e+00	0	56	0	797966336	51	5129
2026-01-09 22:17:16.53	121.10	17.52	-40.4	-43.2	14.5	7.00e-07	0	56	0	800063488	51	5274
2026-01-09 22:17:17.54	121.30	17.46	-40.4	-43.4	14.3	0.00e+00	0	56	0	802160640	51	5389
2026-01-09 22:17:18.55	121.50	17.40	-40.6	-43.6	14.2	1.50e-06	0	56	0	804257792	51	5486
2026-01-09 22:17:19.55	121.70	17.34	-40.5	-43.5	14.2	2.20e-06	0	56	0	806354944	51	5459
2026-01-09 22:17:20.56	121.90	17.28	-40.5	-43.6	14.2	1.52e-05	0	56	0	807403520	51	5478
2026-01-09 22:17:21.57	122.10	17.22	-40.5	-43.6	14.1	4.50e-06	0	56	0	809500672	51	5501
2026-01-09 22:17:22.58	122.29	17.15	-40.4	-43.4	14.3	3.28e-05	0	56	0	811597824	51	5372
2026-01-09 22:17:23.59	122.49	17.09	-40.5	-43.5	14.2	1.60e-05	0	56	0	813694976	51	5434
2026-01-09 22:17:24.60	122.68	17.03	-40.2	-43.6	14.2	6.86e-05	0	56	0	815792128	51	5470
2026-01-09 22:17:25.61	122.88	16.97	-40.6	-43.7	14.0	1.98e-05	0	56	0	817889280	51	5567
2026-01-09 22:17:26.62	123.07	16.91	-40.6	-43.7	13.9	3.72e-04	0	56	0	818937856	51	5553
2026-01-09 22:17:27.63	123.27	16.84	-40.3	-43.6	14.0	3.24e-04	0	56	0	821035008	51	5471
2026-01-09 22:17:28.63	123.46	16.78	-40.3	-43.3	14.2	4.92e-04	0	56	0	823132160	51	5322
2026-01-09 22:17:29.64	123.65	16.72	-40.2	-43.1	14.6	1.95e-04	0	56	0	825229312	51	5179
2026-01-09 22:17:30.65	123.84	16.66	-40.0	-42.7	14.9	1.35e-04	0	56	0	827326464	50	5262
2026-01-09 22:17:31.66	124.03	16.59	-39.9	-42.7	14.9	5.06e-04	0	56	0	828375040	50	5244
2026-01-09 22:17:32.67	124.22	16.53	-40.0	-42.8	14.0	3.38e-04	0	56	0	830472192	50	5316
2026-01-09 22:17:33.68	124.41	16.47	-40.1	-43.0	14.6	2.42e-03	0	56	0	832569344	50	5417
2026-01-09 22:17:34.69	124.60	16.40	-40.3	-43.2	14.2	9.55e-04	0	56	0	834666496	51	5273
2026-01-09 22:17:35.69	124.78	16.34	-40.6	-43.7	13.8	5.11e-04	0	56	0	836763648	51	5558
2026-01-09 22:17:36.70	124.97	16.28	-40.6	-43.9	13.6	2.83e-03	0	56	0	837812224	51	5663
2026-01-09 22:17:37.71	125.15	16.21	-40.5	-43.9	13.5	1.61e-03	0	56	0	839909376	52	5397
2026-01-09 22:17:38.71	125.34	16.15	-40.6	-43.7	13.8	2.80e-03	0	56	0	842006528	51	5571
2026-01-09 22:17:39.72	125.52	16.08	-40.4	-43.5	14.0	6.06e-04	0	56	0	844103680	51	5406
2026-01-09 22:17:40.73	125.71	16.02	-40.2	-43.1	14.4	4.94e-04	0	56	0	846200832	50	5483
2026-01-09 22:17:41.74	125.89	15.96	-37.9	-42.9	14.0	1.41e-03	0	56	0	847249408	49	5696
2026-01-09 22:17:42.74	126.07	15.89	-38.6	-43.0	13.9	8.61e-04	0	56	0	849346560	49	5779
2026-01-09 22:17:43.75	126.25	15.83	-37.5	-42.9	10.8	1.10e-02	0	56	0	851443712	45	7147
2026-01-09 22:17:44.75	126.43	15.76	-40.1	-43.4	13.8	3.96e-02	0	56	0	853540864	51	5369
2026-01-09 22:17:45.76	126.61	15.70	-40.3	-43.6	13.1	7.42e-04	0	56	0	855638016	51	5520
2026-01-09 22:17:46.77	126.79	15.63	-40.5	-43.8	13.4	4.47e-02	0	56	0	856686592	51	5629
2026-01-09 22:17:47.78	126.96	15.57	-40.5	-43.6	13.9	1.94e-03	0	56	0	858783744	51	5519
2026-01-09 22:17:48.78	127.14	15.50	-40.2	-43.4	13.8	2.72e-03	0	56	0	860880896	51	5349
2026-01-09 22:17:49.79	127.32	15.44	-40.2	-43.1	13.0	1.91e-03	0	56	0	862978048	50	5511
2026-01-09 22:17:50.80	127.49	15.37	-40.0	-42.9	14.2	7.09e-03	0	56	0	865075200	50	5366
2026-01-09 22:17:51.81	127.67	15.31	-37.6	-42.8	10.8	3.98e-02	0	56	0	866123776	49	5621
2026-01-09 22:17:52.81	127.84	15.24	-39.5	-42.7	13.6	3.19e-02	2	56	0	868220928	49	5549
2026-01-09 22:17:53.82	128.01	15.18	-32.6	-41.7	6.9	4.21e-01	31	56	0	870318080	36	10485
2026-01-09 22:17:54.83	128.19	15.11	-36.7	-42.6	8.4	6.41e-02	3	56	0	872415232	42	8205
2026-01-09 22:17:55.84	128.36	15.05	-39.5	-43.7	11.6	1.28e-01	2	56	0	874512384	49	6243
2026-01-09 22:17:56.84	128.53	14.98	-40.5	-43.9	12.5	1.83e-01	0	56	0	875560960	50	6060
2026-01-09 22:17:57.85	128.70	14.92	-38.3	-43.8	9.6	5.69e-02	23	56	0	877658112	48	6691
2026-01-09 22:17:58.85	128.87	14.85	-38.1	-43.5	11.0	5.53e-02	7	56	0	879755264	48	6489
2026-01-09 22:17:59.86	129.04	14.79	-39.1	-43.6	10.7	4.04e-02	4	56	0	881852416	48	6533
2026-01-09 22:18:00.87	129.20	14.72	-39.6	-43.4	12.5	4.15e-02	2	56	0	882900992	50	5699
2026-01-09 22:18:01.88	129.37	14.65	-39.6	-43.2	13.0	1.16e-01	0	56	0	884998144	50	5584
2026-01-09 22:18:02.89	129.54	14.59	-35.7	-42.4	9.6	8.41e-02	7	56	0	887095296	45	6770
2026-01-09 22:18:03.90	129.71	14.52	-39.7	-43.3	12.8	4.99e-02	0	56	0	889192448	50	5646
2026-01-09 22:18:04.91	129.87	14.46	-25.3	-39.0	4.7	1.29e-01	0	56	0	890241024	23	16180
2026-01-09 22:18:05.91	130.03	14.39	-39.5	-43.9	11.3	1.36e+00	5	56	0	891289600	50	6003
2026-01-09 22:18:06.92	130.20	14.33	-38.0	-43.7	11.6	5.80e-02	3	56	0	893386752	50	5911
2026-01-09 22:18:07.93	130.36	14.26	-38.6	-43.9	11.4	7.87e-02	2	56	0	894435328	50	6060
2026-01-09 22:18:08.93	130.52	14.19	-39.1	-43.7	10.7	2.09e-01	4	56	0	896532480	48	6587
2026-01-09 22:18:09.94	130.69	14.13	-36.3	-43.5	10.6	2.39e-01	8	56	0	898629632	47	6869
2026-01-09 22:18:10.95	130.85	14.06	-38.0	-43.8	8.8	1.50e-01	5	56	0	900726784	45	7945
2026-01-09 22:18:11.95	131.01	14.00	-37.4	-43.2	11.3	1.50e-01	11	56	0	902823936	48	6224
2026-01-09 22:18:12.96	131.17	13.93	-38.9	-43.1	11.3	7.71e-02	6	56	0	903872512	47	6543
2026-01-09 22:18:13.97	131.33	13.86	-24.7	-37.7	4.1	2.92e-01	0	56	104	905969664	20	16613
2026-01-09 22:18:14.98	131.48	13.80	-36.4	-43.1	10.7	3.20e-01	4	56	0	905969664	46	6918
2026-01-09 22:18:15.99	131.64	13.73	-37.7	-43.3	10.1	3.26e-01	10	56	0	908066816	46	7072
2026-01-09 22:18:17.00	131.80	13.66	-38.9	-43.7	10.3	1.47e-01	7	56	0	909115392	47	6981
2026-01-09 22:18:18.00	131.95	13.60	-39.2	-44.0	10.4	1.12e-01	4	56	0	909115392	49	6480
2026-01-09 22:18:19.01	132.11	13.53	-34.5	-43.1	8.4	1.13e-01	13	56	0	909115392	45	7344
2026-01-09 22:18:20.01	132.26	13.47	-39.6	-44.5	9.2	1.41e-01	6	56	0	909115392	47	7711
2026-01-09 22:18:21.02	132.42	13.40	-39.6	-44.1	11.0	2.14e-01	3	56	0	911212544	49	6506
2026-01-09 22:18:22.03	132.57	13.33	-39.8	-44.0	11.4	8.57e-02	2	56	0	913309696	49	6465
2026-01-09 22:18:23.04	132.73	13.27	-25.3	-39.3	4.3	8.35e-01	0	56	104	914358272	23	16741
2026-01-09 22:18:24.05	132.88	13.20	-38.2	-43.5	9.8	7.13e-01	9	56	0	914358272	48	6448
2026-01-09 22:18:25.06	133.03	13.13	-37.7	-43.4	10.7	1.03e-01	3	56	0	916455424	47	6736
2026-01-09 22:18:26.07	133.18	13.07	-37.2	-43.6	10.5	1.38e-01	8	56	0	917504000	48	6557
2026-01-09 22:18:27.07	133.33	13.00	-30.1	-42.0	7.5	4.68e-01	14	56	0	919601152	46	6070
2026-01-09 22:18:28.08	133.48	12.94	-33.1	-42.7	6.0	3.54e-01	6	56	0	920649728	42	8360
2026-01-09 22:18:29.09	133.63	12.87	-38.6	-44.2	10.3	1.50e-01	9	56	0	922746880	49	6573
2026-01-09 22:18:30.09	133.78	12.80	-39.6	-44.5	10.9	8.62e-02	7	56	0	923795456	48	7275
2026-01-09 22:18:31.10	133.92	12.74	-37.9	-44.3	10.7	6.58e-02	8	56	0	925892608	50	6313
2026-01-09 22:18:32.11	134.07	12.67	-36.3	-44.2	9.8	5.44e-02	3	56	0	927989760	47	7407
2026-01-09 22:18:33.12	134.22	12.60	-27.8	-40.4	5.1	5.82e-01	0	56	0	929038336	25	17013
2026-01-09 22:18:34.13	134.36	12.54	-40.1	-44.1	5.6	5.09e-01	14	56	104	930086912	50	6162
2026-01-09 22:18:35.14	134.51	12.47	-37.3	-44.1	11.4	1.75e-01	5	56	0	931135488	48	6909
2026-01-09 22:18:36.14	134.65	12.41	-38.6	-44.4	10.7	6.75e-02	4	56	0	933232640	49	6743
2026-01-09 22:18:37.15	134.80	12.34	-37.8	-44.1	11.0	2.65e-02	5	56	0	934281216	46	7743
2026-01-09 22:18:38.16	134.94	12.27	-39.1	-44.1	10.6	3.35e-01	5	56	0	936378368	48	6938
2026-01-09 22:18:39.16	135.08	12.21	-38.2	-44.3	12.2	6.21e-02	0	56	0	938475520	50	6299
2026-01-09 22:18:40.17	135.23	12.14	-40.4	-44.4	11.2	1.00e-01	1	56	0	940572672	51	6002
2026-01-09 22:18:41.18	135.37	12.08	-40.6	-44.6	11.8	1.59e-02	0	56	0	941621248	52	5841
2026-01-09 22:18:42.18	135.51	12.01	-36.3	-44.6	11.1	3.45e-02	0	56	0	943718400	44	9233
2026-01-09 22:18:43.19	135.65	11.94	-40.9	-44.7	11.9	1.67e-02	0	56	0	945815552	52	5913
2026-01-09 22:18:44.19	135.79	11.88	-34.2	-43.8	6.8	3.21e-02	4	56	0	947912704	40	10646
2026-01-09 22:18:45.20	135.92	11.81	-40.7	-44.7	11.6	2.77e-01	0	56	0	950009856	51	6269
2026-01-09 22:18:46.21	136.06	11.75	-40.5	-44.6	11.9	5.60e-02	0	56	0	951058432	52	5852
2026-01-09 22:18:47.22	136.20	11.68	-40.4	-44.4	12.5	1.07e-02	0	56	0	953155584	51	5999
2026-01-09 22:18:48.23	136.34	11.61	-40.2	-44.1	12.5	1.86e-02	0	56	0	955252736	51	5796
2026-01-09 22:18:49.24	136.48	11.55	-40.5	-44.2	12.3	2.44e-03	0	56	0	957349888	51	5886
2026-01-09 22:18:50.25	136.61	11.48	-39.0	-44.1	12.0	5.24e-03	0	56	0	959447040	49	6525
2026-01-09 22:18:51.25	136.75	11.42	-40.3	-43.8	13.0	8.67e-02	0	56	0	960495616	51	5593
2026-01-09 22:18:52.27	136.88	11.35	-40.4	-44.0	12.8	1.88e-02	0	56	0	962592768	50	6064
2026-01-09 22:18:53.27	137.02	11.29	-40.4	-44.1	12.2	3.02e-03	0	56	0	964689920	51	5797
2026-01-09 22:18:54.28	137.15	11.22	-40.2	-43.9	12.8	8.95e-03	0	57	0	966787072	51	5687
2026-01-09 22:18:55.29	137.28	11.15	-40.2	-43.9	12.9	3.59e-04	0	57	0	968884224	51	5693
2026-01-09 22:18:56.30	137.42	11.09	-39.6	-44.1	12.6	9.54e-04	0	56	0	969932800	51	5797
2026-01-09 22:18:57.31	137.55	11.02	-40.8	-44.9	11.6	1.02e-03	0	56	0	972029952	52	6055
2026-01-09 22:18:58.32	137.68	10.96	-40.5	-44.5	12.1	7.05e-03	0	56	0	974127104	52	5728
2026-01-09 22:18:59.33	137.81	10.89	-40.0	-43.6	13.0	1.37e-04	0	56	0	976224256	52	5217
2026-01-09 22:19:00.34	137.94	10.83	-40.3	-44.0	12.7	1.24e-03	0	56	0	978321408	51	5728
2026-01-09 22:19:01.35	138.07	10.76	-40.8	-45.2	11.3	7.03e-04	0	56	0	979369984	52	6224
2026-01-09 22:19:02.36	138.20	10.69	-41.1	-46.1	10.2	4.67e-03	0	56	0	981467136	52	6955
2026-01-09 22:19:03.36	138.33	10.63	-41.1	-46.6	9.4	9.82e-03	0	57	0	983564288	53	6946
2026-01-09 22:19:04.37	138.46	10.56	-41.5	-47.8	8.4	4.01e-02	0	57	0	985661440	53	7937
2026-01-09 22:19:05.38	138.58	10.50	-41.8	-48.2	7.9	8.54e-02	0	56	0	987758592	54	7872
2026-01-09 22:19:06.39	138.71	10.43	-41.8	-48.4	7.7	7.08e-02	0	56	0	988807168	54	8026
2026-01-09 22:19:07.40	138.84	10.37	-42.1	-49.7	6.6	1.46e-01	0	56	0	990904320	54	9320
2026-01-09 22:19:08.40	138.96	10.30	-41.8	-48.6	7.5	1.34e-01	0	56	0	993001472	54	8183
2026-01-09 22:19:09.41	139.09	10.24	-41.7	-48.3	7.7	8.35e-02	0	56	0	995098624	54	7962
2026-01-09 22:19:10.42	139.21	10.17	-41.8	-48.2	7.9	9.27e-02	0	57	0	997195776	54	7866
2026-01-09 22:19:11.43	139.34	10.11	-41.4	-46.8	9.3	5.60e-02	0	57	0	998244352	54	6707
2026-01-09 22:19:12.44	139.46	10.04	-40.8	-45.1	11.1	4.08e-03	0	56	0	1000341504	53	5841
2026-01-09 22:19:13.44	139.58	9.98	-40.1	-43.8	12.7	1.81e-04	0	56	0	1002438656	52	5295
2026-01-09 22:19:14.45	139.71	9.91	-40.7	-44.8	11.7	3.36e-04	0	57	0	1004535808	52	5981
2026-01-09 22:19:15.46	139.83	9.85	-41.4	-46.3	10.2	4.80e-03	0	56	0	1006632960	53	6664
2026-01-09 22:19:16.46	139.95	9.79	-40.8	-44.7	12.0	1.26e-03	0	56	0	1007681536	53	5563
2026-01-09 22:19:17.47	140.07	9.72	-41.0	-45.1	11.8	2.21e-04	0	56	0	1009778688	53	5823
2026-01-09 22:19:18.47	140.19	9.66	-41.1	-45.3	11.6	1.20e-03	0	57	0	1011875840	53	5925
2026-01-09 22:19:19.48	140.31	9.59	-40.9	-44.8	12.2	2.10e-04	0	57	0	1013972992	53	5647
2026-01-09 22:19:20.49	140.43	9.53	-41.1	-45.2	11.8	4.79e-04	0	57	0	1016070144	53	5878
2026-01-09 22:19:21.50	140.55	9.46	-41.2	-45.3	11.8	5.09e-04	0	56	0	1017118720	53	5924
2026-01-09 22:19:22.50	140.67	9.40	-41.2	-45.2	11.8	3.71e-04	0	56	0	1019215872	53	5903
2026-01-09 22:19:23.51	140.78	9.33	-41.3	-45.7	11.3	7.22e-04	0	56	0	1021313024	53	6205
2026-01-09 22:19:24.52	140.90	9.27	-41.3	-45.6	11.3	1.20e-03	0	56	0	1023410176	53	6188
2026-01-09 22:19:25.53	141.02	9.21	-41.3	-45.6	11.4	8.73e-04	0	57	0	1025507328	53	6139
2026-01-09 22:19:26.53	141.14	9.14	-41.4	-45.9	11.1	1.22e-03	0	56	0	1026555904	53	6350
2026-01-09 22:19:27.54	141.25	9.08	-41.4	-45.8	11.1	1.54e-03	0	57	0	1028653056	53	6323
2026-01-09 22:19:28.55	141.37	9.01	-41.5	-46.2	10.7	2.20e-03	0	56	0	1030750208	53	6579
2026-01-09 22:19:29.55	141.48	8.95	-41.4	-46.0	10.9	2.55e-03	0	56	0	1032847360	53	6442
2026-01-09 22:19:30.56	141.60	8.89	-41.4	-46.0	11.0	1.89e-03	0	56	0	1034944512	53	6423
2026-01-09 22:19:31.57	141.71	8.82	-41.5	-46.2	10.7	3.42e-03	0	57	0	1035993088	53	6614
2026-01-09 22:19:32.57	141.82	8.76	-41.7	-46.5	10.4	3.73e-03	0	56	0	1038090240	53	6853
2026-01-09 22:19:33.58	141.94	8.70	-41.6	-46.5	10.5	3.70e-03	0	56	0	1040187392	53	6813
2026-01-09 22:19:34.59	142.05	8.63	-41.7	-46.5	10.4	4.54e-03	0	57	0	1042284544	53	6853
2026-01-09 22:19:35.59	142.16	8.57	-41.6	-46.4	10.4	5.28e-03	0	56	0	1044381696	53	6799
2026-01-09 22:19:36.60	142.27	8.51	-41.7	-46.7	10.1	5.31e-03	0	57	0	1045430272	53	6992
2026-01-09 22:19:37.61	142.38	8.44	-41.5	-46.3	10.5	6.06e-03	0	57	0	1047527424	53	6684
2026-01-09 22:19:38.62	142.49	8.38	-41.5	-46.2	10.6	3.30e-03	0	57	0	1049624576	53	6646
2026-01-09 22:19:39.62	142.60	8.32	-41.7	-46.6	10.1	4.76e-03	0	57	0	1051721728	53	6949
2026-01-09 22:19:40.63	142.71	8.25	-41.5	-46.3	10.5	4.35e-03	0	56	0	1053818880	53	6723
2026-01-09 22:19:41.63	142.82	8.19	-41.6	-46.5	10.2	3.73e-03	0	56	0	1054867456	53	6877
2026-01-09 22:19:42.65	142.93	8.13	-41.6	-46.4	10.4	6.78e-03	0	56	0	1056964608	54	6398
2026-01-09 22:19:43.66	143.04	8.06	-41.5	-46.3	10.5	3.39e-03	0	57	0	1059061760	54	6307
2026-01-09 22:19:44.66	143.15	8.00	-43.6	-54.9	4.4	1.73e-01	37	57	0	1061158912	57	14241
2026-01-09 22:19:45.66	143.26	7.94	-44.2	-58.7	3.8	1.49e+00	0	56	104	1061158912	58	20800
2026-01-09 22:19:46.67	143.36	7.88	-44.6	-59.1	3.8	1.49e+00	0	57	104	1061158912	59	20652
2026-01-09 22:19:47.68	143.47	7.81	-44.8	-59.5	3.8	1.49e+00	0	57	104	1061158912	60	20323
2026-01-09 22:19:48.69	143.58	7.75	-44.9	-59.6	3.8	1.49e+00	0	56	104	1061158912	60	20711
2026-01-09 22:19:49.70	143.68	7.69	-45.1	-59.8	3.8	1.49e+00	0	56	104	1061158912	60	21098
2026-01-09 22:19:50.71	143.79	7.63	-45.1	-59.8	3.8	1.49e+00	0	56	104	1061158912	60	21197
2026-01-09 22:19:51.72	143.89	7.56	-45.2	-59.9	3.8	1.49e+00	0	57	104	1061158912	60	21325
2026-01-09 22:19:52.73	144.00	7.50	-45.2	-59.9	3.8	1.49e+00	0	56	104	1061158912	60	21375
2026-01-09 22:19:53.73	144.10	7.44	-45.2	-59.8	3.8	1.49e+00	0	56	104	1061158912	60	21256
2026-01-09 22:19:54.74	144.20	7.38	-45.1	-59.8	3.8	1.49e+00	0	56	104	1061158912	60	21057
2026-01-09 22:19:55.75	144.31	7.32	-45.1	-59.7	3.8	1.49e+00	0	56	104	1061158912	60	20784
2026-01-09 22:19:56.76	144.41	7.25	-45.0	-59.6	3.8	1.49e+00	0	56	104	1061158912	60	20611
2026-01-09 22:19:57.77	144.51	7.19	-45.0	-59.5	3.8	1.49e+00	0	57	104	1061158912	60	20469
2026-01-09 22:19:58.78	144.62	7.13	-45.0	-59.5	3.8	1.49e+00	0	56	104	1061158912	60	20506
2026-01-09 22:19:59.78	144.72	7.07	-44.9	-59.5	3.8	1.49e+00	0	56	104	1061158912	60	20349
2026-01-09 22:20:00.79	144.82	7.01	-44.9	-59.5	3.8	1.49e+00	0	57	104	1061158912	60	20352
2026-01-09 22:20:01.80	144.92	6.94	-44.9	-59.5	3.8	1.49e+00	0	56	104	1061158912	60	20346
2026-01-09 22:20:02.81	145.02	6.88	-44.9	-59.5	3.8	1.49e+00	0	57	104	1061158912	60	20400
2026-01-09 22:20:03.82	145.12	6.82	-44.9	-59.5	3.8	1.49e+00	0	56	104	1061158912	60	20322
2026-01-09 22:20:04.83	145.22	6.76	-44.9	-59.4	3.8	1.49e+00	0	57	104	1061158912	60	20240
2026-01-09 22:20:05.83	145.32	6.70	-44.9	-59.4	3.8	1.49e+00	0	57	104	1061158912	60	20276
2026-01-09 22:20:06.84	145.42	6.64	-44.9	-59.4	3.8	1.49e+00	0	57	104	1061158912	60	20245
2026-01-09 22:20:07.84	145.51	6.58	-44.9	-59.5	3.8	1.49e+00	0	56	104	1061158912	60	20360
2026-01-09 22:20:08.85	145.61	6.52	-44.9	-59.4	3.8	1.49e+00	0	56	104	1061158912	60	20266
2026-01-09 22:20:09.86	145.71	6.45	-44.9	-59.5	3.8	1.49e+00	0	57	104	1061158912	60	20317
2026-01-09 22:20:10.87	145.81	6.39	-44.9	-59.4	3.8	1.49e+00	0	56	104	1061158912	60	20269
2026-01-09 22:20:11.88	145.90	6.33	-44.9	-59.5	3.8	1.49e+00	0	56	104	1061158912	60	20327
2026-01-09 22:20:12.88	146.00	6.27	-44.9	-59.4	3.8	1.49e+00	0	56	104	1061158912	60	20251
2026-01-09 22:20:13.89	146.10	6.21	-44.9	-59.4	3.8	1.49e+00	0	57	104	1061158912	60	20241
2026-01-09 22:20:14.90	146.19	6.15	-44.9	-59.4	3.8	1.49e+00	0	56	104	1061158912	60	20189
2026-01-09 22:20:15.91	146.29	6.09	-44.9	-59.4	3.8	1.49e+00	0	57	104	1061158912	60	20200
2026-01-09 22:20:16.92	146.38	6.03	-44.9	-59.4	3.8	1.49e+00	0	57	104	1061158912	60	20236
2026-01-09 22:20:17.92	146.47	5.97	-44.8	-59.4	3.8	1.49e+00	0	57	104	1061158912	60	20223
2026-01-09 22:20:18.93	146.57	5.91	-44.9	-59.4	3.8	1.49e+00	0	57	104	1061158912	60	20186
2026-01-09 22:20:19.94	146.66	5.85	-44.9	-59.4	3.8	1.49e+00	0	56	104	1061158912	60	20187
