passes_logs/2026/01/09/R2.0S_Moscow/R2.0S_Moscow__20260109_140336_FENGYUN_3E_rec.log

#Pass ID: 20260109_140336_FENGYUN 3E
#Satellite: FENGYUN 3E
#Configuration: FENGYUN 3E
#almurnet v.1.7.20251203
#Start time: 2026-01-09 14:03:37

#Version: 2.2.20231116
#Station: R2.0S_Moscow
#Location: 37.707566 lon 55.798166 lat
#TLE: 1 49008U 21062A   26008.59312205 -.00000223  00000+0 -84486-4 0  9997
#TLE: 2 49008  98.7483  13.7961 0001692 149.3118 210.8157 14.19883502233939

#Time	Az	El	Level	Level2	SNR	BER	BlckErr	Temp	State	Recorded	gain1	gain2
2026-01-09 14:03:37.72	156.52	2.05	-44.3	-55.3	3.8	8.46e-01	0	47	0	0	59	12537
2026-01-09 14:03:38.72	156.52	2.12	-44.3	-55.3	3.8	8.45e-01	0	47	104	0	59	12549
2026-01-09 14:03:39.73	156.51	2.18	-44.3	-55.3	3.8	8.47e-01	0	47	104	0	59	12590
2026-01-09 14:03:40.73	156.51	2.25	-44.3	-55.2	3.8	8.47e-01	0	47	104	0	59	12500
2026-01-09 14:03:41.74	156.51	2.31	-44.3	-55.2	3.8	8.46e-01	0	48	104	0	59	12514
2026-01-09 14:03:42.75	156.50	2.38	-44.3	-55.3	3.8	8.47e-01	0	48	104	0	59	12539
2026-01-09 14:03:43.76	156.50	2.44	-44.3	-55.3	3.8	8.46e-01	0	48	104	0	59	12548
2026-01-09 14:03:44.77	156.49	2.51	-44.3	-55.3	3.8	8.46e-01	0	48	104	0	59	12575
2026-01-09 14:03:45.78	156.49	2.57	-44.3	-55.3	3.8	8.46e-01	0	48	104	0	59	12546
2026-01-09 14:03:46.79	156.48	2.64	-44.2	-55.3	3.8	8.47e-01	0	48	104	0	59	12535
2026-01-09 14:03:47.80	156.48	2.71	-44.3	-55.3	3.8	8.46e-01	0	48	104	0	59	12540
2026-01-09 14:03:48.81	156.48	2.77	-44.3	-55.2	3.8	8.48e-01	0	48	104	0	59	12464
2026-01-09 14:03:49.83	156.47	2.84	-44.2	-55.2	3.8	8.46e-01	0	48	104	0	59	12514
2026-01-09 14:03:50.84	156.47	2.91	-44.2	-55.3	3.8	8.46e-01	0	48	104	0	59	12534
2026-01-09 14:03:51.85	156.46	2.98	-44.2	-55.2	3.8	8.46e-01	0	48	104	0	59	12489
2026-01-09 14:03:52.86	156.46	3.04	-44.2	-55.2	3.8	8.46e-01	0	48	104	0	59	12498
2026-01-09 14:03:53.87	156.45	3.11	-44.2	-55.2	3.8	8.47e-01	0	48	104	0	59	12506
2026-01-09 14:03:54.88	156.45	3.18	-44.2	-55.2	3.8	8.45e-01	0	48	104	0	59	12490
2026-01-09 14:03:55.89	156.45	3.25	-44.2	-55.2	3.8	8.46e-01	0	49	104	0	59	12492
2026-01-09 14:03:56.90	156.44	3.31	-44.3	-55.3	3.8	8.45e-01	0	49	104	0	59	12553
2026-01-09 14:03:57.91	156.44	3.38	-44.2	-55.2	3.8	8.46e-01	0	49	104	0	59	12447
2026-01-09 14:03:58.92	156.43	3.45	-44.2	-55.2	3.8	8.47e-01	0	49	104	0	59	12467
2026-01-09 14:03:59.93	156.43	3.52	-44.2	-55.2	3.8	8.47e-01	0	49	104	0	59	12494
2026-01-09 14:04:00.94	156.42	3.59	-44.2	-55.2	3.8	8.46e-01	0	49	104	0	59	12491
2026-01-09 14:04:01.95	156.42	3.66	-44.2	-55.2	3.8	8.47e-01	0	49	104	0	59	12447
2026-01-09 14:04:02.96	156.41	3.73	-44.2	-55.2	3.8	8.45e-01	0	49	104	0	59	12467
2026-01-09 14:04:03.97	156.41	3.80	-44.2	-55.2	3.8	8.46e-01	0	49	104	0	59	12488
2026-01-09 14:04:04.98	156.40	3.86	-44.2	-55.2	3.8	8.46e-01	0	49	104	0	59	12494
2026-01-09 14:04:05.99	156.40	3.93	-44.2	-55.2	3.8	8.47e-01	0	49	104	0	59	12498
2026-01-09 14:04:07.00	156.39	4.00	-44.2	-55.2	3.8	8.45e-01	0	49	104	0	59	12457
2026-01-09 14:04:08.01	156.39	4.07	-44.2	-55.2	3.8	8.45e-01	0	49	104	0	59	12489
2026-01-09 14:04:09.02	156.39	4.14	-44.2	-55.2	3.8	8.46e-01	0	49	104	0	59	12481
2026-01-09 14:04:10.03	156.38	4.21	-44.2	-55.2	3.8	8.46e-01	0	49	104	0	59	12463
2026-01-09 14:04:11.04	156.38	4.28	-44.2	-55.2	3.8	8.48e-01	0	50	104	0	59	12414
2026-01-09 14:04:12.05	156.37	4.36	-44.2	-55.2	3.8	8.46e-01	0	49	104	0	59	12467
2026-01-09 14:04:13.06	156.37	4.43	-44.2	-55.2	3.8	8.45e-01	0	50	104	0	59	12465
2026-01-09 14:04:14.07	156.36	4.50	-44.2	-55.2	3.8	8.46e-01	0	50	104	0	59	12499
2026-01-09 14:04:15.08	156.36	4.57	-44.2	-55.2	3.8	8.46e-01	0	50	104	0	59	12498
2026-01-09 14:04:16.09	156.35	4.64	-44.2	-55.2	3.8	8.46e-01	0	50	104	0	59	12518
2026-01-09 14:04:17.10	156.35	4.71	-44.2	-55.2	3.8	8.46e-01	0	50	104	0	59	12472
2026-01-09 14:04:18.11	156.34	4.78	-44.2	-55.2	3.8	8.46e-01	0	50	104	0	59	12463
2026-01-09 14:04:19.12	156.33	4.86	-44.2	-55.2	3.8	8.46e-01	0	50	104	0	59	12478
2026-01-09 14:04:20.13	156.33	4.93	-44.2	-55.2	3.8	8.46e-01	0	50	104	0	59	12489
2026-01-09 14:04:21.14	156.32	5.00	-44.2	-55.2	3.8	8.46e-01	0	50	104	0	59	12482
2026-01-09 14:04:22.15	156.32	5.07	-44.2	-55.2	3.8	8.46e-01	0	50	104	0	59	12454
2026-01-09 14:04:23.16	156.31	5.15	-44.2	-55.2	3.8	8.46e-01	0	50	104	0	59	12417
2026-01-09 14:04:24.17	156.31	5.22	-44.2	-55.2	3.8	8.46e-01	0	50	104	0	59	12389
2026-01-09 14:04:25.18	156.30	5.29	-44.2	-55.1	3.8	8.45e-01	0	50	104	0	59	12295
2026-01-09 14:04:26.19	156.30	5.36	-44.2	-55.0	3.8	8.45e-01	0	51	104	0	59	12199
2026-01-09 14:04:27.20	156.29	5.44	-44.2	-54.9	3.8	8.47e-01	0	50	104	0	59	12048
2026-01-09 14:04:28.21	156.29	5.51	-44.2	-54.7	3.8	8.46e-01	0	51	104	0	59	11814
2026-01-09 14:04:29.21	156.28	5.59	-44.1	-54.6	3.8	8.46e-01	0	51	104	0	59	11635
2026-01-09 14:04:30.22	156.27	5.66	-44.1	-54.3	3.8	8.46e-01	0	51	104	0	59	11254
2026-01-09 14:04:31.23	156.27	5.73	-44.1	-54.0	3.8	8.46e-01	0	51	104	0	59	10879
2026-01-09 14:04:32.24	156.26	5.81	-44.0	-53.6	3.8	8.46e-01	0	51	104	0	59	10345
2026-01-09 14:04:33.25	156.26	5.88	-44.0	-53.3	3.8	8.45e-01	0	51	104	0	58	10651
2026-01-09 14:04:34.26	156.25	5.96	-43.9	-52.8	4.0	8.43e-01	0	51	104	0	58	9973
2026-01-09 14:04:35.27	156.25	6.03	-43.9	-52.6	4.0	8.44e-01	0	51	104	0	58	9758
2026-01-09 14:04:36.28	156.24	6.11	-43.8	-52.2	4.1	8.43e-01	0	51	104	0	58	9368
2026-01-09 14:04:37.29	156.23	6.18	-43.8	-52.1	4.1	8.41e-01	0	51	0	0	58	9215
2026-01-09 14:04:38.29	156.23	6.26	-43.8	-52.4	3.9	8.41e-01	0	51	104	0	58	9532
2026-01-09 14:04:39.31	156.22	6.34	-43.7	-51.9	4.1	8.40e-01	0	51	104	0	58	8983
2026-01-09 14:04:40.32	156.22	6.41	-43.6	-51.4	4.3	8.36e-01	0	51	0	0	58	8510
2026-01-09 14:04:41.33	156.21	6.49	-43.4	-50.5	4.6	8.21e-01	0	51	0	0	57	8167
2026-01-09 14:04:42.33	156.20	6.57	-43.2	-49.8	4.9	7.92e-01	0	51	0	0	57	7521
2026-01-09 14:04:43.35	156.20	6.64	-43.1	-49.7	5.0	7.78e-01	0	51	0	0	57	7421
2026-01-09 14:04:44.36	156.19	6.72	-43.0	-49.4	5.2	7.65e-01	0	51	0	0	57	7176
2026-01-09 14:04:45.37	156.18	6.80	-42.8	-48.8	5.5	6.90e-01	0	51	0	0	56	7114
2026-01-09 14:04:46.38	156.18	6.88	-42.7	-48.4	5.8	4.53e-01	0	52	0	2097152	56	6738
2026-01-09 14:04:47.39	156.17	6.95	-42.6	-48.3	5.9	3.70e-01	0	51	0	9437184	56	6675
2026-01-09 14:04:48.40	156.17	7.03	-42.3	-47.6	6.3	3.02e-01	0	52	0	16777216	55	6568
2026-01-09 14:04:49.41	156.16	7.11	-42.1	-47.3	6.6	2.51e-01	0	52	0	24117248	55	6282
2026-01-09 14:04:50.42	156.15	7.19	-41.9	-46.7	7.1	1.72e-01	0	52	0	31457280	54	6249
2026-01-09 14:04:51.43	156.15	7.27	-41.6	-46.2	7.6	1.25e-01	0	52	0	38797312	54	5873
2026-01-09 14:04:52.44	156.14	7.35	-41.3	-45.5	8.2	6.80e-02	0	52	0	46137344	53	5752
2026-01-09 14:04:53.45	156.13	7.43	-41.0	-45.0	8.7	3.73e-02	0	52	0	53477376	53	5415
2026-01-09 14:04:54.46	156.13	7.51	-40.6	-44.2	9.5	1.49e-02	0	52	0	60817408	52	5249
2026-01-09 14:04:55.47	156.12	7.59	-40.1	-43.4	10.4	4.47e-03	0	52	0	68157440	51	5048
2026-01-09 14:04:56.48	156.11	7.67	-39.6	-42.6	11.2	1.57e-03	0	52	0	75497472	50	4917
2026-01-09 14:04:57.49	156.10	7.75	-39.2	-42.0	11.9	5.60e-04	0	52	0	82837504	49	4829
2026-01-09 14:04:58.51	156.10	7.83	-38.6	-41.3	12.6	2.09e-04	0	52	0	90177536	48	4725
2026-01-09 14:04:59.52	156.09	7.91	-37.9	-40.4	13.3	2.97e-05	0	52	0	97517568	46	4791
2026-01-09 14:05:00.53	156.08	7.99	-37.6	-40.0	13.7	1.14e-05	0	52	0	104857600	46	4580
2026-01-09 14:05:01.54	156.08	8.07	-37.9	-40.4	13.4	1.02e-05	0	52	0	112197632	45	5046
2026-01-09 14:05:02.55	156.07	8.15	-41.1	-45.0	9.1	7.15e-04	0	52	0	118489088	51	6076
2026-01-09 14:05:03.55	156.06	8.24	-37.3	-39.5	14.1	1.09e-02	0	52	0	125829120	45	4587
2026-01-09 14:05:04.56	156.05	8.32	-36.0	-38.1	15.3	0.00e+00	0	52	0	133169152	42	4609
2026-01-09 14:05:05.57	156.05	8.40	-36.2	-38.3	15.3	0.00e+00	0	52	0	140509184	42	4738
2026-01-09 14:05:06.58	156.04	8.48	-37.1	-39.4	14.2	4.68e-04	0	52	0	147849216	45	4505
2026-01-09 14:05:07.59	156.03	8.57	-35.6	-37.7	15.7	0.00e+00	0	52	0	155189248	42	4411
2026-01-09 14:05:08.60	156.02	8.65	-35.7	-37.7	15.7	0.00e+00	0	52	0	162529280	41	4691
2026-01-09 14:05:09.61	156.02	8.73	-35.5	-37.5	15.9	0.00e+00	0	53	0	169869312	41	4598
2026-01-09 14:05:10.62	156.01	8.82	-35.7	-37.7	15.7	0.00e+00	0	53	0	177209344	41	4684
2026-01-09 14:05:11.63	156.00	8.90	-35.4	-37.4	16.1	0.00e+00	0	53	0	184549376	41	4505
2026-01-09 14:05:12.64	155.99	8.99	-35.4	-37.4	16.0	0.00e+00	0	53	0	191889408	41	4545
2026-01-09 14:05:13.65	155.99	9.07	-35.6	-37.6	15.9	0.00e+00	0	53	0	199229440	41	4634
2026-01-09 14:05:14.66	155.98	9.16	-35.3	-37.3	16.2	0.00e+00	0	53	0	206569472	41	4465
2026-01-09 14:05:15.67	155.97	9.24	-35.4	-37.4	16.0	0.00e+00	0	53	0	213909504	41	4534
2026-01-09 14:05:16.68	155.96	9.33	-35.4	-37.4	16.1	0.00e+00	0	53	0	221249536	41	4497
2026-01-09 14:05:17.69	155.95	9.41	-35.4	-37.3	16.2	0.00e+00	0	53	0	228589568	41	4484
2026-01-09 14:05:18.70	155.95	9.50	-35.2	-37.2	16.3	0.00e+00	0	53	0	235929600	41	4412
2026-01-09 14:05:19.71	155.94	9.59	-35.3	-37.2	16.3	0.00e+00	0	53	0	243269632	41	4421
2026-01-09 14:05:20.71	155.93	9.67	-35.3	-37.2	16.3	0.00e+00	0	53	0	249561088	41	4424
2026-01-09 14:05:21.72	155.92	9.76	-35.2	-37.2	16.3	0.00e+00	0	53	0	257949696	41	4427
2026-01-09 14:05:22.73	155.91	9.85	-35.2	-37.1	16.4	0.00e+00	0	53	0	265289728	41	4359
2026-01-09 14:05:23.74	155.90	9.93	-35.1	-37.0	16.6	0.00e+00	0	53	0	271581184	41	4300
2026-01-09 14:05:24.75	155.90	10.02	-35.2	-37.1	16.4	0.00e+00	0	53	0	278921216	41	4385
2026-01-09 14:05:25.76	155.89	10.11	-35.1	-37.0	16.6	0.00e+00	0	53	0	286261248	41	4321
2026-01-09 14:05:26.77	155.88	10.20	-35.0	-36.9	16.6	0.00e+00	0	53	0	293601280	41	4286
2026-01-09 14:05:27.78	155.87	10.29	-35.1	-37.0	16.5	0.00e+00	0	53	0	300941312	41	4313
2026-01-09 14:05:28.79	155.86	10.38	-35.1	-37.0	16.5	0.00e+00	0	53	0	308281344	41	4336
2026-01-09 14:05:29.80	155.85	10.47	-35.0	-36.9	16.7	0.00e+00	0	53	0	315621376	40	4494
2026-01-09 14:05:30.81	155.84	10.56	-35.1	-37.0	16.6	0.00e+00	0	53	0	322961408	40	4592
2026-01-09 14:05:31.82	155.83	10.65	-35.0	-36.9	16.7	0.00e+00	0	53	0	330301440	40	4516
2026-01-09 14:05:32.83	155.83	10.74	-35.0	-36.9	16.7	0.00e+00	0	53	0	337641472	40	4545
2026-01-09 14:05:33.84	155.82	10.83	-35.0	-36.9	16.7	0.00e+00	0	53	0	344981504	40	4505
2026-01-09 14:05:34.85	155.81	10.92	-35.0	-36.8	16.8	0.00e+00	0	53	0	352321536	40	4492
2026-01-09 14:05:35.86	155.80	11.01	-35.2	-37.1	16.6	0.00e+00	0	53	0	359661568	40	4614
2026-01-09 14:05:36.87	155.79	11.11	-35.0	-36.9	16.8	0.00e+00	0	53	0	367001600	40	4505
2026-01-09 14:05:37.88	155.78	11.20	-35.2	-37.1	16.6	0.00e+00	0	53	0	374341632	40	4624
2026-01-09 14:05:38.89	155.77	11.29	-35.0	-36.9	16.8	0.00e+00	0	53	0	381681664	40	4523
2026-01-09 14:05:39.89	155.76	11.38	-34.9	-36.8	16.9	0.00e+00	0	53	0	389021696	40	4446
2026-01-09 14:05:40.90	155.75	11.48	-35.0	-36.8	16.8	0.00e+00	0	53	0	395313152	40	4484
2026-01-09 14:05:41.91	155.74	11.57	-35.1	-37.0	16.7	0.00e+00	0	53	0	402653184	40	4551
2026-01-09 14:05:42.92	155.73	11.66	-34.9	-36.8	16.9	0.00e+00	0	53	0	411041792	40	4452
2026-01-09 14:05:43.93	155.72	11.76	-34.9	-36.8	16.9	0.00e+00	0	53	0	417333248	40	4448
2026-01-09 14:05:44.94	155.71	11.85	-34.8	-36.6	17.1	0.00e+00	0	54	0	424673280	40	4373
2026-01-09 14:05:45.95	155.70	11.95	-34.9	-36.8	16.9	0.00e+00	0	54	0	432013312	40	4476
2026-01-09 14:05:46.96	155.69	12.04	-34.9	-36.8	16.9	0.00e+00	0	54	0	439353344	40	4467
2026-01-09 14:05:47.98	155.68	12.14	-34.7	-36.6	17.1	0.00e+00	0	54	0	446693376	40	4347
2026-01-09 14:05:48.99	155.67	12.24	-34.8	-36.6	17.0	0.00e+00	0	54	0	454033408	40	4391
2026-01-09 14:05:50.00	155.66	12.33	-34.8	-36.7	17.0	0.00e+00	0	54	0	461373440	40	4401
2026-01-09 14:05:51.01	155.65	12.43	-34.8	-36.7	17.0	0.00e+00	0	54	0	468713472	40	4414
2026-01-09 14:05:52.02	155.64	12.53	-34.7	-36.5	17.2	0.00e+00	0	54	0	476053504	40	4326
2026-01-09 14:05:53.03	155.63	12.63	-34.8	-36.7	17.1	0.00e+00	0	54	0	483393536	40	4407
2026-01-09 14:05:54.03	155.62	12.72	-34.8	-36.6	17.1	0.00e+00	0	54	0	490733568	40	4370
2026-01-09 14:05:55.04	155.61	12.82	-34.8	-36.6	17.1	0.00e+00	0	54	0	498073600	40	4388
2026-01-09 14:05:56.05	155.59	12.92	-34.8	-36.6	17.1	0.00e+00	0	54	0	505413632	40	4373
2026-01-09 14:05:57.06	155.58	13.02	-34.7	-36.5	17.2	0.00e+00	0	54	0	512753664	40	4305
2026-01-09 14:05:58.07	155.57	13.12	-34.9	-36.7	17.0	0.00e+00	0	54	0	520093696	40	4427
2026-01-09 14:05:59.08	155.56	13.22	-34.8	-36.6	17.1	0.00e+00	0	54	0	527433728	40	4378
2026-01-09 14:06:00.09	155.55	13.32	-34.8	-36.7	17.1	0.00e+00	0	54	0	534773760	40	4394
2026-01-09 14:06:01.10	155.54	13.42	-34.7	-36.5	17.3	0.00e+00	0	54	0	542113792	40	4313
2026-01-09 14:06:02.11	155.53	13.53	-34.7	-36.5	17.3	0.00e+00	0	54	0	548405248	40	4315
2026-01-09 14:06:03.12	155.51	13.63	-34.5	-36.3	17.4	0.00e+00	0	54	0	556793856	40	4237
2026-01-09 14:06:04.13	155.50	13.73	-34.6	-36.4	17.3	0.00e+00	0	54	0	564133888	40	4279
2026-01-09 14:06:05.14	155.49	13.83	-34.6	-36.4	17.4	0.00e+00	0	54	0	570425344	40	4265
2026-01-09 14:06:06.15	155.48	13.94	-34.6	-36.5	17.3	0.00e+00	0	54	0	577765376	40	4293
2026-01-09 14:06:07.16	155.47	14.04	-34.6	-36.4	17.5	0.00e+00	0	54	0	585105408	40	4247
2026-01-09 14:06:08.17	155.46	14.14	-34.5	-36.3	17.5	0.00e+00	0	54	0	592445440	40	4214
2026-01-09 14:06:09.18	155.44	14.25	-34.6	-36.4	17.4	0.00e+00	0	54	0	599785472	40	4267
2026-01-09 14:06:10.19	155.43	14.35	-34.6	-36.4	17.4	0.00e+00	0	54	0	607125504	40	4260
2026-01-09 14:06:11.20	155.42	14.46	-34.6	-36.4	17.4	0.00e+00	0	54	0	614465536	40	4243
2026-01-09 14:06:12.20	155.41	14.57	-34.7	-36.5	17.4	0.00e+00	0	54	0	621805568	39	4568
2026-01-09 14:06:13.21	155.39	14.67	-34.6	-36.4	17.5	0.00e+00	0	54	0	629145600	39	4531
2026-01-09 14:06:14.22	155.38	14.78	-34.6	-36.3	17.6	0.00e+00	0	54	0	636485632	39	4493
2026-01-09 14:06:15.23	155.37	14.89	-34.5	-36.3	17.6	0.00e+00	0	54	0	643825664	39	4460
2026-01-09 14:06:16.24	155.35	14.99	-34.5	-36.3	17.6	0.00e+00	0	54	0	651165696	39	4474
2026-01-09 14:06:17.25	155.34	15.10	-34.5	-36.3	17.6	0.00e+00	0	54	0	658505728	39	4461
2026-01-09 14:06:18.26	155.33	15.21	-34.5	-36.3	17.7	0.00e+00	0	55	0	665845760	39	4451
2026-01-09 14:06:19.27	155.31	15.32	-34.5	-36.2	17.7	0.00e+00	0	54	0	673185792	39	4413
2026-01-09 14:06:20.28	155.30	15.43	-34.5	-36.2	17.7	0.00e+00	0	55	0	680525824	39	4423
2026-01-09 14:06:21.29	155.29	15.54	-34.4	-36.1	17.8	0.00e+00	0	54	0	687865856	39	4374
2026-01-09 14:06:22.30	155.27	15.65	-34.4	-36.2	17.8	0.00e+00	0	54	0	695205888	39	4410
2026-01-09 14:06:23.31	155.26	15.76	-34.2	-35.9	18.0	0.00e+00	0	54	0	701497344	39	4271
2026-01-09 14:06:24.32	155.25	15.88	-34.4	-36.1	17.8	0.00e+00	0	54	0	709885952	39	4376
2026-01-09 14:06:25.33	155.23	15.99	-34.4	-36.1	17.8	0.00e+00	0	54	0	716177408	39	4391
2026-01-09 14:06:26.34	155.22	16.10	-34.3	-36.0	17.9	0.00e+00	0	54	0	723517440	39	4311
2026-01-09 14:06:27.35	155.20	16.21	-34.2	-35.9	18.0	0.00e+00	0	55	0	730857472	39	4275
2026-01-09 14:06:28.36	155.19	16.33	-34.1	-35.8	18.2	0.00e+00	0	54	0	738197504	39	4207
2026-01-09 14:06:29.37	155.17	16.44	-34.2	-35.9	18.0	0.00e+00	0	54	0	745537536	39	4285
2026-01-09 14:06:30.38	155.16	16.56	-34.2	-35.9	18.1	0.00e+00	0	55	0	752877568	39	4271
2026-01-09 14:06:31.39	155.14	16.67	-34.2	-35.8	18.1	0.00e+00	0	54	0	760217600	39	4240
2026-01-09 14:06:32.40	155.13	16.79	-34.1	-35.7	18.3	0.00e+00	0	54	0	767557632	39	4181
2026-01-09 14:06:33.41	155.11	16.91	-34.0	-35.7	18.2	0.00e+00	0	55	0	774897664	38	4423
2026-01-09 14:06:34.42	155.10	17.02	-34.0	-35.6	18.4	0.00e+00	0	55	0	782237696	38	4369
2026-01-09 14:06:35.43	155.08	17.14	-33.9	-35.5	18.5	0.00e+00	0	55	0	789577728	38	4299
2026-01-09 14:06:36.44	155.07	17.26	-33.9	-35.5	18.5	0.00e+00	0	55	0	796917760	38	4323
2026-01-09 14:06:37.45	155.05	17.38	-33.9	-35.5	18.5	0.00e+00	0	55	0	804257792	38	4329
2026-01-09 14:06:38.46	155.04	17.50	-33.8	-35.4	18.6	0.00e+00	0	55	0	811597824	38	4285
2026-01-09 14:06:39.46	155.02	17.62	-33.8	-35.4	18.6	0.00e+00	0	54	0	818937856	38	4253
2026-01-09 14:06:40.48	155.00	17.74	-33.7	-35.2	18.7	0.00e+00	0	55	0	826277888	38	4192
2026-01-09 14:06:41.49	154.99	17.86	-33.7	-35.3	18.7	0.00e+00	0	55	0	833617920	38	4199
2026-01-09 14:06:42.50	154.97	17.98	-33.6	-35.2	18.8	0.00e+00	0	55	0	840957952	38	4177
2026-01-09 14:06:43.51	154.95	18.10	-33.6	-35.2	18.8	0.00e+00	0	55	0	847249408	38	4157
2026-01-09 14:06:44.52	154.94	18.23	-33.5	-35.0	19.0	0.00e+00	0	55	0	854589440	37	4332
2026-01-09 14:06:45.53	154.92	18.35	-33.5	-35.0	19.0	0.00e+00	0	55	0	862978048	37	4336
2026-01-09 14:06:46.54	154.90	18.48	-33.5	-35.0	19.0	0.00e+00	0	55	0	869269504	37	4335
2026-01-09 14:06:47.55	154.89	18.60	-33.4	-34.9	19.0	0.00e+00	0	55	0	876609536	37	4285
2026-01-09 14:06:48.56	154.87	18.73	-33.4	-35.0	19.0	0.00e+00	0	55	0	883949568	37	4297
2026-01-09 14:06:49.57	154.85	18.85	-33.3	-34.9	19.1	0.00e+00	0	55	0	891289600	37	4252
2026-01-09 14:06:50.58	154.83	18.98	-33.3	-34.9	19.1	0.00e+00	0	55	0	898629632	37	4257
2026-01-09 14:06:51.59	154.82	19.11	-33.4	-34.9	19.1	0.00e+00	0	55	0	905969664	37	4269
2026-01-09 14:06:52.59	154.80	19.23	-33.3	-34.9	19.1	0.00e+00	0	55	0	913309696	37	4248
2026-01-09 14:06:53.60	154.78	19.36	-33.3	-34.8	19.1	0.00e+00	0	55	0	920649728	37	4242
2026-01-09 14:06:54.61	154.76	19.49	-33.4	-35.0	19.0	0.00e+00	0	55	0	927989760	37	4297
2026-01-09 14:06:55.62	154.74	19.62	-33.4	-34.9	19.1	0.00e+00	0	55	0	935329792	37	4279
2026-01-09 14:06:56.63	154.72	19.75	-33.3	-34.8	19.2	0.00e+00	0	55	0	942669824	37	4227
2026-01-09 14:06:57.64	154.70	19.88	-33.3	-34.9	19.1	0.00e+00	0	55	0	950009856	37	4246
2026-01-09 14:06:58.65	154.68	20.02	-33.3	-34.8	19.2	0.00e+00	0	55	0	957349888	37	4230
2026-01-09 14:06:59.66	154.67	20.15	-33.4	-35.0	19.0	0.00e+00	0	55	0	964689920	37	4302
2026-01-09 14:07:00.67	154.65	20.28	-33.4	-35.0	19.0	0.00e+00	0	55	0	972029952	37	4314
2026-01-09 14:07:01.67	154.63	20.42	-33.4	-34.9	19.1	0.00e+00	0	55	0	979369984	37	4282
2026-01-09 14:07:02.69	154.61	20.55	-33.4	-34.9	19.0	0.00e+00	0	55	0	986710016	37	4287
2026-01-09 14:07:03.69	154.59	20.69	-33.3	-34.9	19.1	0.00e+00	0	55	0	994050048	37	4257
2026-01-09 14:07:04.70	154.57	20.82	-33.2	-34.8	19.2	0.00e+00	0	55	0	1000341504	37	4211
2026-01-09 14:07:05.71	154.54	20.96	-33.3	-34.8	19.2	0.00e+00	0	55	0	1007681536	37	4228
2026-01-09 14:07:06.72	154.52	21.10	-33.3	-34.9	19.0	0.00e+00	0	55	0	1016070144	37	4273
2026-01-09 14:07:07.73	154.50	21.24	-33.4	-35.0	19.0	0.00e+00	0	55	0	1022361600	37	4301
2026-01-09 14:07:08.74	154.48	21.38	-33.4	-34.9	19.0	0.00e+00	0	56	0	1029701632	37	4289
2026-01-09 14:07:09.75	154.46	21.52	-33.3	-34.9	19.0	0.00e+00	0	55	0	1037041664	37	4288
2026-01-09 14:07:10.76	154.44	21.66	-33.4	-35.0	19.0	0.00e+00	0	55	0	1044381696	37	4305
2026-01-09 14:07:11.77	154.42	21.80	-33.3	-34.9	19.1	0.00e+00	0	55	0	1051721728	37	4253
2026-01-09 14:07:12.78	154.39	21.94	-33.3	-34.9	19.0	0.00e+00	0	55	0	1059061760	37	4285
2026-01-09 14:07:13.78	154.37	22.09	-33.3	-34.9	19.1	0.00e+00	0	55	0	1066401792	37	4266
2026-01-09 14:07:14.79	154.35	22.23	-33.3	-34.9	19.0	0.00e+00	0	55	0	1073741824	37	4279
2026-01-09 14:07:15.80	154.33	22.38	-33.1	-34.8	19.2	0.00e+00	0	55	0	1081081856	37	4205
2026-01-09 14:07:16.81	154.30	22.52	-33.2	-34.9	19.0	0.00e+00	0	55	0	1088421888	37	4264
2026-01-09 14:07:17.81	154.28	22.67	-33.3	-34.9	19.0	0.00e+00	0	55	0	1095761920	37	4273
2026-01-09 14:07:18.82	154.26	22.81	-33.2	-34.9	19.1	0.00e+00	0	55	0	1103101952	37	4263
2026-01-09 14:07:19.83	154.23	22.96	-33.2	-34.8	19.1	0.00e+00	0	55	0	1110441984	37	4225
2026-01-09 14:07:20.84	154.21	23.11	-33.1	-34.7	19.2	0.00e+00	0	55	0	1117782016	37	4190
2026-01-09 14:07:21.85	154.18	23.26	-33.1	-34.8	19.2	0.00e+00	0	55	0	1124073472	37	4204
2026-01-09 14:07:22.86	154.16	23.41	-33.0	-34.7	19.2	0.00e+00	0	55	0	1132462080	37	4148
2026-01-09 14:07:23.87	154.14	23.57	-33.0	-34.7	19.2	0.00e+00	0	55	0	1139802112	36	4394
2026-01-09 14:07:24.88	154.11	23.72	-33.0	-34.7	19.3	0.00e+00	0	55	0	1146093568	36	4412
2026-01-09 14:07:25.89	154.08	23.87	-33.0	-34.7	19.2	0.00e+00	0	55	0	1153433600	36	4405
2026-01-09 14:07:26.90	154.06	24.03	-33.0	-34.6	19.3	0.00e+00	0	55	0	1160773632	36	4378
2026-01-09 14:07:27.91	154.03	24.18	-32.9	-34.5	19.4	0.00e+00	0	55	0	1168113664	36	4326
2026-01-09 14:07:28.92	154.01	24.34	-32.8	-34.4	19.4	0.00e+00	0	55	0	1175453696	36	4287
2026-01-09 14:07:29.93	153.98	24.50	-32.8	-34.5	19.5	0.00e+00	0	55	0	1182793728	36	4292
2026-01-09 14:07:30.94	153.95	24.65	-32.8	-34.4	19.5	0.00e+00	0	55	0	1190133760	36	4261
2026-01-09 14:07:31.95	153.93	24.81	-32.8	-34.4	19.5	0.00e+00	0	55	0	1197473792	36	4258
2026-01-09 14:07:32.96	153.90	24.97	-32.7	-34.3	19.6	0.00e+00	0	55	0	1204813824	36	4238
2026-01-09 14:07:33.97	153.87	25.14	-32.7	-34.3	19.6	0.00e+00	0	55	0	1212153856	36	4206
2026-01-09 14:07:34.98	153.84	25.30	-32.6	-34.2	19.7	0.00e+00	0	56	0	1219493888	36	4164
2026-01-09 14:07:35.98	153.81	25.46	-32.6	-34.3	19.6	0.00e+00	0	55	0	1226833920	36	4194
2026-01-09 14:07:36.99	153.79	25.62	-32.6	-34.2	19.7	0.00e+00	0	55	0	1234173952	36	4150
2026-01-09 14:07:38.00	153.76	25.79	-32.6	-34.2	19.7	0.00e+00	0	55	0	1241513984	36	4152
2026-01-09 14:07:39.01	153.73	25.96	-32.5	-34.1	19.7	0.00e+00	0	56	0	1248854016	36	4136
2026-01-09 14:07:40.02	153.70	26.12	-31.8	-33.5	19.5	0.00e+00	0	55	0	1256194048	34	4307
2026-01-09 14:07:41.03	153.67	26.29	-31.7	-33.4	19.6	0.00e+00	0	56	0	1263534080	34	4254
2026-01-09 14:07:42.04	153.64	26.46	-31.7	-33.3	19.6	0.00e+00	0	56	0	1270874112	34	4240
2026-01-09 14:07:43.05	153.61	26.63	-31.8	-33.4	19.6	0.00e+00	0	55	0	1277165568	34	4280
2026-01-09 14:07:44.06	153.58	26.80	-31.8	-33.4	19.5	0.00e+00	0	55	0	1285554176	34	4272
2026-01-09 14:07:45.07	153.54	26.97	-31.7	-33.4	19.6	0.00e+00	0	56	0	1292894208	34	4261
2026-01-09 14:07:46.08	153.51	27.15	-31.8	-33.4	19.5	0.00e+00	0	55	0	1299185664	34	4287
2026-01-09 14:07:47.09	153.48	27.32	-31.6	-33.3	19.7	0.00e+00	0	55	0	1306525696	34	4218
2026-01-09 14:07:48.10	153.45	27.50	-31.7	-33.4	19.6	0.00e+00	0	56	0	1313865728	34	4275
2026-01-09 14:07:49.11	153.41	27.68	-31.7	-33.4	19.6	0.00e+00	0	55	0	1321205760	34	4259
2026-01-09 14:07:50.12	153.38	27.85	-31.7	-33.3	19.6	0.00e+00	0	56	0	1328545792	34	4232
2026-01-09 14:07:51.13	153.35	28.03	-31.7	-33.4	19.6	0.00e+00	0	56	0	1335885824	34	4247
2026-01-09 14:07:52.14	153.31	28.21	-31.7	-33.3	19.6	0.00e+00	0	56	0	1343225856	34	4237
2026-01-09 14:07:53.15	153.28	28.40	-31.7	-33.4	19.6	0.00e+00	0	56	0	1350565888	34	4258
2026-01-09 14:07:54.15	153.24	28.58	-31.7	-33.3	19.7	0.00e+00	0	56	0	1357905920	34	4241
2026-01-09 14:07:55.16	153.21	28.76	-31.7	-33.3	19.7	0.00e+00	0	56	0	1365245952	34	4239
2026-01-09 14:07:56.17	153.17	28.95	-31.7	-33.3	19.8	0.00e+00	0	56	0	1372585984	34	4218
2026-01-09 14:07:57.18	153.13	29.13	-31.6	-33.3	19.8	0.00e+00	0	56	0	1379926016	34	4204
2026-01-09 14:07:58.19	153.10	29.32	-31.5	-33.1	20.0	0.00e+00	0	56	0	1387266048	34	4107
2026-01-09 14:07:59.20	153.06	29.51	-31.5	-33.1	19.9	0.00e+00	0	56	0	1394606080	34	4130
2026-01-09 14:08:00.21	153.02	29.70	-31.5	-33.1	20.0	0.00e+00	0	55	0	1401946112	34	4107
2026-01-09 14:08:01.22	152.98	29.89	-31.5	-33.1	20.0	0.00e+00	0	56	0	1409286144	33	4342
2026-01-09 14:08:02.23	152.94	30.08	-31.4	-33.0	20.1	0.00e+00	0	56	0	1416626176	33	4298
2026-01-09 14:08:03.24	152.91	30.28	-31.5	-33.1	20.0	0.00e+00	0	56	0	1422917632	33	4343
2026-01-09 14:08:04.25	152.87	30.47	-31.5	-33.1	19.9	0.00e+00	0	56	0	1430257664	33	4364
2026-01-09 14:08:05.26	152.83	30.67	-31.6	-33.1	19.9	0.00e+00	0	56	0	1438646272	33	4368
2026-01-09 14:08:06.27	152.78	30.87	-31.7	-33.2	19.9	0.00e+00	0	56	0	1444937728	33	4419
2026-01-09 14:08:07.28	152.74	31.07	-31.7	-33.3	19.8	0.00e+00	0	56	0	1452277760	33	4482
2026-01-09 14:08:08.29	152.70	31.27	-31.7	-33.3	19.8	0.00e+00	0	56	0	1459617792	33	4474
2026-01-09 14:08:09.30	152.66	31.47	-31.8	-33.3	19.8	0.00e+00	0	56	0	1466957824	33	4487
2026-01-09 14:08:10.30	152.62	31.67	-31.8	-33.3	19.7	0.00e+00	0	56	0	1474297856	33	4492
2026-01-09 14:08:11.32	152.57	31.88	-31.8	-33.4	19.7	0.00e+00	0	56	0	1481637888	33	4526
2026-01-09 14:08:12.33	152.53	32.08	-31.8	-33.4	19.6	0.00e+00	0	56	0	1488977920	33	4531
2026-01-09 14:08:13.34	152.48	32.29	-31.8	-33.3	19.7	0.00e+00	0	56	0	1496317952	33	4491
2026-01-09 14:08:14.35	152.44	32.50	-31.8	-33.4	19.7	0.00e+00	0	56	0	1503657984	33	4497
2026-01-09 14:08:15.35	152.39	32.71	-31.9	-33.5	19.6	0.00e+00	0	56	0	1510998016	33	4566
2026-01-09 14:08:16.37	152.34	32.92	-31.8	-33.4	19.7	0.00e+00	0	56	0	1518338048	33	4517
2026-01-09 14:08:17.38	152.30	33.13	-31.9	-33.5	19.6	0.00e+00	0	56	0	1525678080	33	4565
2026-01-09 14:08:18.39	152.25	33.35	-31.7	-33.3	19.8	0.00e+00	0	56	0	1533018112	33	4456
2026-01-09 14:08:19.39	152.20	33.56	-31.7	-33.4	19.7	0.00e+00	0	56	0	1540358144	33	4508
2026-01-09 14:08:20.40	152.15	33.78	-31.7	-33.3	19.7	0.00e+00	0	56	0	1547698176	33	4492
2026-01-09 14:08:21.41	152.10	34.00	-31.8	-33.4	19.6	0.00e+00	0	56	0	1555038208	33	4541
2026-01-09 14:08:22.42	152.05	34.22	-31.7	-33.4	19.7	0.00e+00	0	56	0	1562378240	33	4503
2026-01-09 14:08:23.43	152.00	34.44	-31.7	-33.3	19.7	0.00e+00	0	56	0	1569718272	33	4477
2026-01-09 14:08:24.44	151.94	34.67	-31.7	-33.4	19.7	0.00e+00	0	56	0	1576009728	33	4496
2026-01-09 14:08:25.45	151.89	34.89	-31.7	-33.3	19.8	0.00e+00	0	56	0	1583349760	33	4465
2026-01-09 14:08:26.46	151.84	35.12	-31.6	-33.2	19.8	0.00e+00	0	56	0	1591738368	33	4433
2026-01-09 14:08:27.47	151.78	35.35	-31.7	-33.4	19.7	0.00e+00	0	56	0	1598029824	33	4494
2026-01-09 14:08:28.48	151.73	35.58	-31.6	-33.3	19.8	0.00e+00	0	56	0	1605369856	33	4457
2026-01-09 14:08:29.48	151.67	35.81	-31.7	-33.3	19.8	0.00e+00	0	56	0	1612709888	33	4483
2026-01-09 14:08:30.49	151.61	36.04	-31.8	-33.5	19.6	0.00e+00	0	56	0	1620049920	33	4563
2026-01-09 14:08:31.51	151.56	36.28	-31.8	-33.5	19.6	0.00e+00	0	56	0	1627389952	33	4566
2026-01-09 14:08:32.51	151.50	36.52	-31.8	-33.5	19.7	0.00e+00	0	56	0	1634729984	33	4546
2026-01-09 14:08:33.53	151.44	36.76	-31.9	-33.5	19.6	0.00e+00	0	56	0	1642070016	33	4598
2026-01-09 14:08:34.54	151.38	37.00	-32.0	-33.7	19.5	0.00e+00	0	56	0	1649410048	33	4670
2026-01-09 14:08:35.55	151.31	37.24	-32.0	-33.7	19.5	0.00e+00	0	56	0	1656750080	33	4672
2026-01-09 14:08:36.56	151.25	37.48	-32.1	-33.8	19.5	0.00e+00	0	56	0	1664090112	33	4718
2026-01-09 14:08:37.56	151.19	37.73	-32.0	-33.7	19.5	0.00e+00	0	56	0	1671430144	33	4663
2026-01-09 14:08:38.57	151.12	37.97	-32.0	-33.7	19.5	0.00e+00	0	56	0	1678770176	33	4699
2026-01-09 14:08:39.58	151.06	38.22	-32.0	-33.6	19.6	0.00e+00	0	56	0	1686110208	33	4635
2026-01-09 14:08:40.59	150.99	38.47	-32.0	-33.7	19.6	0.00e+00	0	56	0	1693450240	33	4684
2026-01-09 14:08:41.60	150.92	38.73	-32.0	-33.7	19.6	0.00e+00	0	56	0	1699741696	33	4662
2026-01-09 14:08:42.61	150.85	38.98	-32.0	-33.7	19.6	0.00e+00	0	56	0	1708130304	33	4661
2026-01-09 14:08:43.62	150.78	39.24	-32.0	-33.7	19.6	0.00e+00	0	56	0	1715470336	33	4674
2026-01-09 14:08:44.63	150.71	39.50	-32.1	-33.7	19.5	0.00e+00	0	56	0	1721761792	33	4701
2026-01-09 14:08:45.64	150.64	39.76	-32.0	-33.6	19.7	0.00e+00	0	56	0	1729101824	33	4644
2026-01-09 14:08:46.65	150.56	40.02	-32.1	-33.8	19.5	0.00e+00	0	56	0	1736441856	33	4733
2026-01-09 14:08:47.66	150.49	40.28	-32.0	-33.6	19.6	0.00e+00	0	56	0	1743781888	33	4609
2026-01-09 14:08:48.66	150.41	40.55	-32.1	-33.7	19.6	0.00e+00	0	56	0	1751121920	33	4678
2026-01-09 14:08:49.68	150.34	40.82	-31.9	-33.4	19.8	0.00e+00	0	56	0	1758461952	33	4544
2026-01-09 14:08:50.69	150.26	41.09	-32.0	-33.6	19.6	0.00e+00	0	56	0	1765801984	33	4615
2026-01-09 14:08:51.70	150.18	41.36	-32.1	-33.7	19.5	0.00e+00	0	56	0	1773142016	33	4682
2026-01-09 14:08:52.71	150.09	41.63	-31.9	-33.4	19.8	0.00e+00	0	56	0	1780482048	33	4531
2026-01-09 14:08:53.72	150.01	41.91	-32.5	-33.4	20.7	0.00e+00	0	56	0	1787822080	34	4274
2026-01-09 14:08:54.72	149.93	42.19	-32.4	-33.4	20.8	0.00e+00	0	56	0	1795162112	34	4243
2026-01-09 14:08:55.73	149.84	42.47	-32.5	-33.4	20.6	0.00e+00	0	56	0	1802502144	34	4288
2026-01-09 14:08:56.74	149.75	42.75	-32.5	-33.4	20.7	0.00e+00	0	56	0	1809842176	34	4279
2026-01-09 14:08:57.76	149.66	43.03	-32.6	-33.5	20.6	0.00e+00	0	56	0	1817182208	34	4336
2026-01-09 14:08:58.76	149.57	43.32	-32.7	-33.7	20.5	0.00e+00	0	56	0	1824522240	34	4395
2026-01-09 14:08:59.78	149.48	43.61	-32.7	-33.7	20.4	0.00e+00	0	56	0	1831862272	35	4175
2026-01-09 14:09:00.79	149.38	43.90	-33.1	-34.1	20.1	0.00e+00	0	56	0	1839202304	35	4356
2026-01-09 14:09:01.80	149.29	44.19	-33.1	-34.2	20.0	0.00e+00	0	56	0	1846542336	35	4393
2026-01-09 14:09:02.80	149.19	44.48	-33.9	-34.9	20.1	0.00e+00	0	56	0	1852833792	37	4278
2026-01-09 14:09:03.81	149.09	44.78	-34.1	-35.1	19.9	0.00e+00	0	56	0	1861222400	37	4372
2026-01-09 14:09:04.83	148.99	45.08	-34.1	-35.1	19.9	0.00e+00	0	56	0	1868562432	37	4384
2026-01-09 14:09:05.83	148.88	45.38	-34.1	-35.2	19.9	0.00e+00	0	56	0	1874853888	38	4152
2026-01-09 14:09:06.84	148.78	45.68	-34.0	-35.1	19.9	0.00e+00	0	56	0	1882193920	38	4109
2026-01-09 14:09:07.85	148.67	45.99	-33.8	-34.8	20.2	0.00e+00	0	56	0	1889533952	38	3998
2026-01-09 14:09:08.86	148.56	46.29	-33.9	-34.9	20.1	0.00e+00	0	56	0	1896873984	38	4027
2026-01-09 14:09:09.87	148.45	46.60	-33.8	-34.8	20.2	0.00e+00	0	56	0	1904214016	38	3996
2026-01-09 14:09:10.88	148.33	46.91	-33.9	-35.0	20.1	0.00e+00	0	56	0	1911554048	38	4057
2026-01-09 14:09:11.89	148.21	47.23	-33.8	-34.9	20.2	0.00e+00	0	56	0	1918894080	38	4013
2026-01-09 14:09:12.91	148.09	47.55	-34.1	-35.1	19.9	0.00e+00	0	56	0	1926234112	38	4137
2026-01-09 14:09:13.91	147.97	47.86	-34.3	-35.4	19.7	0.00e+00	0	56	0	1933574144	38	4243
2026-01-09 14:09:14.92	147.85	48.18	-34.3	-35.3	19.7	0.00e+00	0	56	0	1940914176	38	4226
2026-01-09 14:09:15.94	147.72	48.51	-34.7	-35.8	19.2	0.00e+00	0	56	0	1948254208	39	4212
2026-01-09 14:09:16.95	147.59	48.83	-34.6	-35.6	19.3	0.00e+00	0	56	0	1955594240	39	4145
2026-01-09 14:09:17.95	147.45	49.16	-34.6	-35.7	19.3	0.00e+00	0	56	0	1962934272	39	4188
2026-01-09 14:09:18.96	147.32	49.49	-34.6	-35.7	19.3	0.00e+00	0	56	0	1970274304	39	4166
2026-01-09 14:09:19.97	147.18	49.82	-34.5	-35.5	19.5	0.00e+00	0	56	0	1977614336	39	4084
2026-01-09 14:09:20.99	147.04	50.16	-34.5	-35.5	19.5	0.00e+00	0	56	0	1984954368	39	4097
2026-01-09 14:09:21.99	146.89	50.49	-34.5	-35.5	19.5	0.00e+00	0	56	0	1992294400	39	4090
2026-01-09 14:09:23.01	146.74	50.83	-34.5	-35.5	19.5	0.00e+00	0	57	0	1999634432	39	4089
2026-01-09 14:09:24.02	146.59	51.17	-34.4	-35.4	19.6	0.00e+00	0	56	0	2006974464	39	4051
2026-01-09 14:09:25.03	146.43	51.52	-34.3	-35.4	19.7	0.00e+00	0	56	0	2014314496	39	4010
2026-01-09 14:09:26.03	146.27	51.86	-34.3	-35.4	19.7	0.00e+00	0	56	0	2021654528	39	4011
2026-01-09 14:09:27.04	146.11	52.20	-34.5	-35.6	19.4	0.00e+00	0	56	0	2027945984	39	4118
2026-01-09 14:09:28.05	145.94	52.55	-34.5	-35.6	19.5	0.00e+00	0	56	0	2035286016	39	4103
2026-01-09 14:09:29.06	145.77	52.91	-34.8	-35.9	19.2	0.00e+00	0	56	0	2042626048	39	4272
2026-01-09 14:09:30.07	145.59	53.26	-34.9	-36.0	19.0	0.00e+00	0	56	0	2049966080	39	4314
2026-01-09 14:09:31.08	145.41	53.62	-34.7	-35.8	19.2	0.00e+00	0	56	0	2057306112	39	4232
2026-01-09 14:09:32.09	145.23	53.98	-34.7	-35.8	19.2	0.00e+00	0	56	0	2064646144	39	4236
2026-01-09 14:09:33.10	145.04	54.34	-34.5	-35.6	19.4	0.00e+00	0	56	0	2071986176	39	4109
2026-01-09 14:09:34.11	144.85	54.70	-34.4	-35.4	19.6	0.00e+00	0	56	0	2079326208	39	4039
2026-01-09 14:09:35.12	144.65	55.06	-34.2	-35.2	19.8	0.00e+00	0	57	0	2086666240	39	3942
2026-01-09 14:09:36.13	144.44	55.43	-34.2	-35.3	19.7	0.00e+00	0	56	0	2094006272	39	3974
2026-01-09 14:09:37.14	144.23	55.80	-34.7	-35.8	19.2	0.00e+00	0	56	0	2101346304	39	4205
2026-01-09 14:09:38.15	144.01	56.17	-34.8	-35.9	19.1	0.00e+00	0	56	0	2108686336	39	4276
2026-01-09 14:09:39.16	143.79	56.55	-35.2	-36.4	18.7	0.00e+00	0	56	0	2116026368	39	4499
2026-01-09 14:09:40.17	143.56	56.92	-34.9	-36.0	18.9	0.00e+00	0	56	0	2123366400	40	4084
2026-01-09 14:09:41.18	143.33	57.30	-34.7	-35.7	19.2	0.00e+00	0	56	0	2130706432	40	3953
2026-01-09 14:09:42.18	143.09	57.68	-34.2	-35.2	19.8	0.00e+00	0	57	0	2138046464	39	3958
2026-01-09 14:09:43.19	142.84	58.06	-34.3	-35.3	19.6	0.00e+00	0	56	0	2145386496	39	4003
2026-01-09 14:09:44.20	142.59	58.44	-34.5	-35.6	19.4	0.00e+00	0	56	0	2151677952	39	4102
2026-01-09 14:09:45.21	142.32	58.83	-34.4	-35.5	19.5	0.00e+00	0	56	0	2160066560	39	4072
2026-01-09 14:09:46.22	142.05	59.21	-34.6	-35.7	19.4	0.00e+00	0	57	0	2167406592	39	4147
2026-01-09 14:09:47.23	141.77	59.60	-34.8	-35.9	19.1	0.00e+00	0	57	0	2173698048	39	4267
2026-01-09 14:09:48.24	141.48	59.99	-35.3	-36.5	18.5	0.00e+00	0	56	0	2181038080	40	4308
2026-01-09 14:09:49.25	141.19	60.39	-34.4	-35.4	19.6	0.00e+00	0	57	0	2188378112	38	4284
2026-01-09 14:09:50.26	140.88	60.78	-34.1	-35.2	19.8	0.00e+00	0	57	0	2195718144	38	4146
2026-01-09 14:09:51.27	140.56	61.18	-34.2	-35.2	19.8	0.00e+00	0	56	0	2203058176	38	4186
2026-01-09 14:09:52.28	140.24	61.58	-34.2	-35.3	19.7	0.00e+00	0	56	0	2210398208	38	4195
2026-01-09 14:09:53.29	139.90	61.98	-33.7	-34.8	20.1	0.00e+00	0	56	0	2217738240	38	3964
2026-01-09 14:09:54.30	139.55	62.38	-33.8	-34.9	20.1	0.00e+00	0	56	0	2225078272	38	4015
2026-01-09 14:09:55.31	139.19	62.78	-33.6	-34.6	20.3	0.00e+00	0	56	0	2232418304	38	3903
2026-01-09 14:09:56.32	138.82	63.18	-33.6	-34.6	20.3	0.00e+00	0	56	0	2239758336	37	4141
2026-01-09 14:09:57.32	138.44	63.58	-33.7	-34.8	20.2	0.00e+00	0	56	0	2247098368	37	4200
2026-01-09 14:09:58.33	138.04	63.99	-33.9	-35.0	19.9	0.00e+00	0	56	0	2254438400	37	4309
2026-01-09 14:09:59.35	137.62	64.40	-33.4	-34.4	20.5	0.00e+00	0	56	0	2261778432	37	4029
2026-01-09 14:10:00.35	137.19	64.80	-32.8	-33.8	21.1	0.00e+00	0	57	0	2269118464	36	3974
2026-01-09 14:10:01.36	136.75	65.21	-32.6	-33.5	21.3	0.00e+00	0	56	0	2276458496	36	3862
2026-01-09 14:10:02.37	136.29	65.62	-32.7	-33.7	21.2	0.00e+00	0	56	0	2283798528	36	3930
2026-01-09 14:10:03.38	135.81	66.03	-32.9	-33.9	21.0	0.00e+00	0	56	0	2291138560	36	4008
2026-01-09 14:10:04.39	135.31	66.44	-32.6	-33.6	20.5	0.00e+00	0	56	0	2298478592	35	4120
2026-01-09 14:10:05.40	134.79	66.86	-32.6	-33.6	20.5	0.00e+00	0	57	0	2304770048	35	4107
2026-01-09 14:10:06.41	134.25	67.27	-32.3	-33.2	20.8	0.00e+00	0	56	0	2313158656	35	3957
2026-01-09 14:10:07.42	133.69	67.68	-32.0	-33.0	21.1	0.00e+00	0	56	0	2320498688	35	3833
2026-01-09 14:10:08.43	133.11	68.09	-32.1	-33.1	20.7	0.00e+00	0	56	0	2326790144	34	4108
2026-01-09 14:10:09.44	132.51	68.50	-32.2	-33.1	20.8	0.00e+00	0	56	0	2334130176	34	4134
2026-01-09 14:10:10.45	131.87	68.91	-32.4	-33.3	20.7	0.00e+00	0	57	0	2341470208	34	4233
2026-01-09 14:10:11.46	131.21	69.32	-32.5	-33.5	20.5	0.00e+00	0	57	0	2348810240	34	4328
2026-01-09 14:10:12.47	130.52	69.73	-32.8	-33.9	20.2	0.00e+00	0	56	0	2356150272	35	4246
2026-01-09 14:10:13.48	129.80	70.14	-33.1	-34.1	19.9	0.00e+00	0	56	0	2363490304	35	4364
2026-01-09 14:10:14.48	129.06	70.54	-33.7	-34.7	20.1	0.00e+00	0	56	0	2370830336	37	4167
2026-01-09 14:10:15.49	128.27	70.95	-33.5	-34.5	20.3	0.00e+00	0	57	0	2378170368	37	4096
2026-01-09 14:10:16.50	127.45	71.35	-33.3	-34.3	20.4	0.00e+00	0	56	0	2385510400	37	3992
2026-01-09 14:10:17.51	126.59	71.75	-33.2	-34.2	20.6	0.00e+00	0	57	0	2392850432	37	3921
2026-01-09 14:10:18.52	125.69	72.15	-33.2	-34.2	20.5	0.00e+00	0	57	0	2400190464	37	3924
2026-01-09 14:10:19.53	124.74	72.54	-33.2	-34.2	20.6	0.00e+00	0	57	0	2407530496	37	3925
2026-01-09 14:10:20.54	123.75	72.93	-33.2	-34.2	20.6	0.00e+00	0	56	0	2414870528	37	3934
2026-01-09 14:10:21.55	122.71	73.32	-33.0	-34.0	20.8	0.00e+00	0	56	0	2422210560	37	3828
2026-01-09 14:10:22.56	121.62	73.70	-32.8	-33.7	21.1	0.00e+00	0	56	0	2429550592	36	3948
2026-01-09 14:10:23.57	120.48	74.08	-32.9	-33.9	20.9	0.00e+00	0	56	0	2436890624	36	4012
2026-01-09 14:10:24.58	119.27	74.46	-33.2	-34.2	20.6	0.00e+00	0	56	0	2444230656	36	4181
2026-01-09 14:10:25.59	118.00	74.82	-33.0	-34.0	20.8	0.00e+00	0	57	0	2450522112	36	4083
2026-01-09 14:10:26.60	116.67	75.19	-32.7	-33.7	21.1	0.00e+00	0	56	0	2457862144	36	3946
2026-01-09 14:10:27.61	115.27	75.54	-31.7	-32.7	21.3	0.00e+00	0	56	0	2466250752	34	3922
2026-01-09 14:10:28.62	113.80	75.89	-31.4	-32.3	21.6	0.00e+00	0	56	0	2472542208	33	3963
2026-01-09 14:10:29.63	112.25	76.22	-31.4	-32.4	21.2	0.00e+00	0	57	0	2479882240	33	4005
2026-01-09 14:10:30.64	110.63	76.55	-31.6	-32.5	21.4	0.00e+00	0	56	0	2487222272	33	4097
2026-01-09 14:10:31.65	108.92	76.87	-31.7	-32.6	21.3	0.00e+00	0	57	0	2494562304	33	4122
2026-01-09 14:10:32.66	107.12	77.17	-31.7	-32.6	21.3	0.00e+00	0	56	0	2501902336	33	4134
2026-01-09 14:10:33.67	105.24	77.47	-31.5	-32.4	21.5	0.00e+00	0	57	0	2509242368	33	4044
2026-01-09 14:10:34.67	103.29	77.75	-31.2	-32.1	21.7	0.00e+00	0	56	0	2516582400	33	3906
2026-01-09 14:10:35.69	101.20	78.02	-31.0	-31.9	22.0	0.00e+00	0	57	0	2523922432	32	4022
2026-01-09 14:10:36.70	99.04	78.27	-31.0	-32.0	21.9	0.00e+00	0	57	0	2531262464	32	4057
2026-01-09 14:10:37.71	96.78	78.50	-31.3	-32.2	21.7	0.00e+00	0	57	0	2538602496	32	4184
2026-01-09 14:10:38.72	94.44	78.72	-31.1	-32.0	21.9	0.00e+00	0	57	0	2545942528	32	4066
2026-01-09 14:10:39.73	92.00	78.91	-30.9	-31.8	22.0	0.00e+00	0	56	0	2553282560	32	3979
2026-01-09 14:10:40.73	89.51	79.09	-30.9	-31.8	22.1	0.00e+00	0	57	0	2560622592	32	3961
2026-01-09 14:10:41.74	86.91	79.24	-31.1	-32.1	21.8	0.00e+00	0	57	0	2567962624	32	4100
2026-01-09 14:10:42.75	84.24	79.38	-31.3	-32.2	21.6	0.00e+00	0	57	0	2575302656	32	4185
2026-01-09 14:10:43.76	81.50	79.49	-31.4	-32.3	21.6	0.00e+00	0	57	0	2582642688	32	4217
2026-01-09 14:10:44.77	78.72	79.57	-31.1	-32.0	21.8	0.00e+00	0	56	0	2589982720	32	4084
2026-01-09 14:10:45.78	75.89	79.63	-31.1	-32.1	21.8	0.00e+00	0	57	0	2597322752	32	4099
2026-01-09 14:10:46.79	73.03	79.67	-30.9	-31.8	22.0	0.00e+00	0	57	0	2603614208	32	4002
2026-01-09 14:10:47.80	70.17	79.68	-31.0	-31.9	21.9	0.00e+00	0	57	0	2610954240	32	4043
2026-01-09 14:10:48.81	67.30	79.67	-31.1	-32.0	21.9	0.00e+00	0	57	0	2619342848	32	4070
2026-01-09 14:10:49.82	64.45	79.63	-31.3	-32.2	21.7	0.00e+00	0	57	0	2625634304	32	4169
2026-01-09 14:10:50.83	61.62	79.56	-31.4	-32.4	21.5	0.00e+00	0	57	0	2632974336	32	4259
2026-01-09 14:10:51.84	58.84	79.47	-31.2	-32.1	21.8	0.00e+00	0	57	0	2640314368	32	4120
2026-01-09 14:10:52.85	56.12	79.36	-30.9	-31.8	22.1	0.00e+00	0	56	0	2647654400	32	3982
2026-01-09 14:10:53.86	53.46	79.22	-30.8	-31.7	22.2	0.00e+00	0	57	0	2654994432	32	3940
2026-01-09 14:10:54.86	50.89	79.07	-31.0	-31.9	21.9	0.00e+00	0	57	0	2662334464	32	4050
2026-01-09 14:10:55.87	48.38	78.89	-31.0	-31.9	21.8	0.00e+00	0	57	0	2669674496	32	4017
2026-01-09 14:10:56.88	45.96	78.69	-30.8	-31.7	22.1	0.00e+00	0	56	0	2677014528	32	3918
2026-01-09 14:10:57.89	43.63	78.47	-30.8	-31.7	22.1	0.00e+00	0	57	0	2684354560	32	3953
2026-01-09 14:10:58.90	41.39	78.24	-31.0	-31.9	21.9	0.00e+00	0	56	0	2691694592	32	4051
2026-01-09 14:10:59.91	39.24	77.98	-31.3	-32.3	21.7	0.00e+00	0	57	0	2699034624	32	4197
2026-01-09 14:11:00.92	37.19	77.72	-31.3	-32.2	21.7	0.00e+00	0	57	0	2706374656	32	4171
2026-01-09 14:11:01.93	35.22	77.43	-31.3	-32.2	21.7	0.00e+00	0	57	0	2713714688	32	4158
2026-01-09 14:11:02.94	33.35	77.14	-31.2	-32.1	21.8	0.00e+00	0	57	0	2721054720	32	4111
2026-01-09 14:11:03.94	31.59	76.83	-31.2	-32.1	21.9	0.00e+00	0	57	0	2727346176	32	4104
2026-01-09 14:11:04.95	29.89	76.52	-31.2	-32.1	21.8	0.00e+00	0	57	0	2734686208	32	4143
2026-01-09 14:11:05.96	28.27	76.19	-31.3	-32.2	21.7	0.00e+00	0	57	0	2743074816	32	4162
2026-01-09 14:11:06.97	26.73	75.85	-31.5	-32.5	21.5	0.00e+00	0	57	0	2749366272	32	4304
2026-01-09 14:11:07.98	25.27	75.50	-31.8	-32.7	21.2	0.00e+00	0	57	0	2756706304	33	4178
2026-01-09 14:11:08.99	23.88	75.15	-32.1	-33.1	20.9	0.00e+00	0	57	0	2764046336	33	4364
2026-01-09 14:11:10.00	22.56	74.79	-32.1	-33.1	20.8	0.00e+00	0	57	0	2771386368	34	4123
2026-01-09 14:11:11.01	21.30	74.42	-32.2	-33.2	20.8	0.00e+00	0	57	0	2778726400	34	4167
2026-01-09 14:11:12.02	20.10	74.04	-32.4	-33.4	20.6	0.00e+00	0	57	0	2786066432	34	4272
2026-01-09 14:11:13.03	18.97	73.67	-32.6	-33.6	20.4	0.00e+00	0	57	0	2793406464	34	4373
2026-01-09 14:11:14.03	17.89	73.29	-32.7	-33.7	20.3	0.00e+00	0	57	0	2800746496	35	4152
2026-01-09 14:11:15.04	16.86	72.90	-32.6	-33.6	20.3	0.00e+00	0	57	0	2808086528	35	4104
2026-01-09 14:11:16.06	15.86	72.50	-32.6	-33.6	20.4	0.00e+00	0	57	0	2815426560	35	4123
2026-01-09 14:11:17.06	14.93	72.11	-32.8	-33.9	20.2	0.00e+00	0	57	0	2822766592	35	4244
2026-01-09 14:11:18.08	14.03	71.71	-32.9	-33.9	20.1	0.00e+00	0	57	0	2830106624	35	4285
2026-01-09 14:11:19.09	13.17	71.31	-33.1	-34.1	19.9	0.00e+00	0	57	0	2837446656	35	4380
2026-01-09 14:11:20.10	12.36	70.91	-32.8	-33.9	20.2	0.00e+00	0	57	0	2844786688	35	4249
2026-01-09 14:11:21.11	11.57	70.50	-32.6	-33.6	20.4	0.00e+00	0	57	0	2852126720	35	4123
2026-01-09 14:11:22.12	10.83	70.10	-32.4	-33.3	20.6	0.00e+00	0	57	0	2859466752	35	3999
2026-01-09 14:11:23.13	10.11	69.69	-32.0	-33.0	21.0	0.00e+00	0	57	0	2866806784	35	3836
2026-01-09 14:11:24.14	9.43	69.28	-32.2	-33.1	20.8	0.00e+00	0	57	0	2874146816	35	3891
2026-01-09 14:11:25.15	8.77	68.87	-32.4	-33.4	20.6	0.00e+00	0	57	0	2880438272	35	4025
2026-01-09 14:11:26.16	8.14	68.46	-32.5	-33.5	20.5	0.00e+00	0	57	0	2888826880	35	4077
2026-01-09 14:11:27.17	7.54	68.05	-32.3	-33.2	20.8	0.00e+00	0	57	0	2896166912	35	3955
2026-01-09 14:11:28.18	6.96	67.64	-31.8	-32.7	21.3	0.00e+00	0	57	0	2902458368	34	3934
2026-01-09 14:11:29.19	6.40	67.23	-31.7	-32.6	21.4	0.00e+00	0	57	0	2909798400	34	3883
2026-01-09 14:11:30.19	5.87	66.83	-31.9	-32.8	21.2	0.00e+00	0	57	0	2917138432	34	4003
2026-01-09 14:11:31.20	5.36	66.42	-32.3	-33.3	20.7	0.00e+00	0	57	0	2924478464	34	4207
2026-01-09 14:11:32.22	4.86	66.00	-32.7	-33.7	20.3	0.00e+00	0	57	0	2931818496	35	4180
2026-01-09 14:11:33.22	4.39	65.60	-32.6	-33.6	20.3	0.00e+00	0	57	0	2939158528	35	4141
2026-01-09 14:11:34.23	3.93	65.19	-32.6	-33.6	20.4	9.10e-06	0	57	0	2946498560	35	4138
2026-01-09 14:11:35.24	3.49	64.78	-32.6	-33.6	20.5	0.00e+00	0	57	0	2953838592	35	4121
2026-01-09 14:11:36.25	3.06	64.37	-32.8	-33.8	20.2	0.00e+00	0	57	0	2961178624	35	4239
2026-01-09 14:11:37.26	2.65	63.97	-33.1	-34.1	19.9	0.00e+00	0	57	0	2968518656	35	4356
2026-01-09 14:11:38.27	2.25	63.56	-34.1	-35.1	19.8	0.00e+00	0	57	0	2975858688	37	4367
2026-01-09 14:11:39.28	1.87	63.16	-34.2	-35.3	19.7	0.00e+00	0	57	0	2983198720	37	4461
2026-01-09 14:11:40.29	1.49	62.76	-34.4	-35.5	19.5	3.40e-06	0	57	0	2990538752	38	4318
2026-01-09 14:11:41.30	1.14	62.36	-34.5	-35.5	19.3	0.00e+00	0	57	0	2997878784	38	4339
2026-01-09 14:11:42.31	0.79	61.96	-34.6	-35.7	19.3	0.00e+00	0	57	0	3005218816	38	4417
2026-01-09 14:11:43.32	0.45	61.56	-34.7	-35.8	19.1	2.20e-06	0	57	0	3012558848	38	4446
2026-01-09 14:11:44.33	0.13	61.16	-34.6	-35.7	19.3	0.00e+00	0	57	0	3019898880	38	4399
2026-01-09 14:11:45.34	359.81	60.77	-34.5	-35.5	19.3	0.00e+00	0	56	0	3026190336	38	4336
2026-01-09 14:11:46.35	359.51	60.37	-34.4	-35.4	19.5	0.00e+00	0	56	0	3033530368	38	4282
2026-01-09 14:11:47.36	359.21	59.98	-34.6	-35.7	19.3	0.00e+00	0	57	0	3041918976	38	4401
2026-01-09 14:11:48.37	358.93	59.59	-34.6	-35.7	19.1	0.00e+00	0	57	0	3048210432	39	4180
2026-01-09 14:11:49.38	358.65	59.20	-34.9	-36.1	18.9	0.00e+00	0	57	0	3055550464	39	4350
2026-01-09 14:11:50.39	358.38	58.82	-34.8	-35.9	18.9	0.00e+00	0	57	0	3062890496	39	4263
2026-01-09 14:11:51.40	358.12	58.43	-34.6	-35.7	19.2	0.00e+00	0	57	0	3070230528	39	4189
2026-01-09 14:11:52.41	357.86	58.05	-34.7	-35.8	19.1	0.00e+00	0	57	0	3077570560	39	4201
2026-01-09 14:11:53.42	357.61	57.67	-34.7	-35.8	19.1	0.00e+00	0	57	0	3084910592	39	4221
2026-01-09 14:11:54.43	357.37	57.29	-34.8	-35.9	19.1	0.00e+00	0	57	0	3092250624	39	4256
2026-01-09 14:11:55.44	357.14	56.92	-34.6	-35.7	19.1	0.00e+00	0	57	0	3099590656	39	4180
2026-01-09 14:11:56.45	356.91	56.54	-34.7	-35.8	19.2	0.00e+00	0	57	0	3106930688	39	4212
2026-01-09 14:11:57.46	356.69	56.17	-34.7	-35.8	19.2	0.00e+00	0	57	0	3114270720	39	4218
2026-01-09 14:11:58.47	356.48	55.80	-34.8	-35.9	19.0	0.00e+00	0	57	0	3121610752	39	4283
2026-01-09 14:11:59.48	356.27	55.43	-34.9	-36.0	18.9	1.10e-06	0	57	0	3128950784	39	4306
2026-01-09 14:12:00.47	356.07	55.07	-34.9	-36.0	18.9	0.00e+00	0	57	0	3136290816	39	4297
2026-01-09 14:12:01.48	355.87	54.71	-34.7	-35.8	19.2	0.00e+00	0	57	0	3143630848	39	4196
2026-01-09 14:12:02.49	355.68	54.35	-34.5	-35.6	19.3	0.00e+00	0	57	0	3150970880	39	4133
2026-01-09 14:12:03.50	355.49	53.99	-34.5	-35.5	19.4	0.00e+00	0	57	0	3157262336	39	4090
2026-01-09 14:12:04.51	355.30	53.63	-34.3	-35.4	19.4	0.00e+00	0	57	0	3165650944	39	4042
2026-01-09 14:12:05.52	355.12	53.27	-34.5	-35.6	19.4	0.00e+00	0	57	0	3172990976	39	4110
2026-01-09 14:12:06.53	354.95	52.92	-34.6	-35.6	19.3	0.00e+00	0	57	0	3179282432	39	4143
2026-01-09 14:12:07.54	354.78	52.57	-34.7	-35.8	19.0	0.00e+00	0	57	0	3186622464	39	4217
2026-01-09 14:12:08.55	354.61	52.22	-34.8	-36.0	19.0	0.00e+00	0	57	0	3193962496	39	4298
2026-01-09 14:12:09.55	354.45	51.88	-34.8	-35.9	18.9	0.00e+00	0	57	0	3201302528	39	4278
2026-01-09 14:12:10.56	354.29	51.54	-35.0	-36.1	18.9	0.00e+00	0	57	0	3208642560	39	4363
2026-01-09 14:12:11.57	354.13	51.19	-34.7	-35.8	19.0	0.00e+00	0	57	0	3215982592	39	4232
2026-01-09 14:12:12.59	353.98	50.85	-34.5	-35.6	19.2	0.00e+00	0	57	0	3223322624	39	4107
2026-01-09 14:12:13.59	353.83	50.52	-34.4	-35.4	19.5	0.00e+00	0	57	0	3230662656	39	4031
2026-01-09 14:12:14.60	353.69	50.18	-34.4	-35.5	18.5	0.00e+00	0	57	0	3238002688	39	4072
2026-01-09 14:12:15.61	353.55	49.85	-34.3	-35.3	19.6	0.00e+00	0	57	0	3245342720	39	3985
2026-01-09 14:12:16.62	353.41	49.52	-34.2	-35.3	19.5	0.00e+00	0	57	0	3252682752	39	3967
2026-01-09 14:12:17.63	353.27	49.19	-34.3	-35.3	19.5	0.00e+00	0	57	0	3260022784	39	4004
2026-01-09 14:12:18.64	353.14	48.87	-34.4	-35.4	19.5	0.00e+00	0	57	0	3267362816	39	4036
2026-01-09 14:12:19.65	353.01	48.54	-34.4	-35.5	19.4	0.00e+00	0	57	0	3274702848	39	4057
2026-01-09 14:12:20.66	352.88	48.22	-34.4	-35.5	19.5	0.00e+00	0	57	0	3282042880	39	4060
2026-01-09 14:12:21.67	352.76	47.90	-34.3	-35.4	19.5	0.00e+00	0	57	0	3289382912	39	4022
2026-01-09 14:12:22.68	352.64	47.58	-34.1	-35.2	19.6	0.00e+00	0	57	0	3296722944	39	3932
2026-01-09 14:12:23.69	352.52	47.27	-34.0	-35.0	19.9	0.00e+00	0	57	0	3303014400	38	4087
2026-01-09 14:12:24.70	352.40	46.96	-33.8	-34.8	19.8	0.00e+00	0	57	0	3310354432	38	3977
2026-01-09 14:12:25.71	352.29	46.65	-33.6	-34.6	20.3	0.00e+00	0	57	0	3318743040	37	4111
2026-01-09 14:12:26.72	352.18	46.34	-33.4	-34.4	20.4	0.00e+00	0	57	0	3325034496	37	4041
2026-01-09 14:12:27.73	352.07	46.03	-33.4	-34.4	20.4	0.00e+00	0	57	0	3332374528	37	4028
2026-01-09 14:12:28.74	351.96	45.73	-33.4	-34.3	20.5	0.00e+00	0	57	0	3339714560	37	4001
2026-01-09 14:12:29.75	351.85	45.43	-33.4	-34.4	20.4	0.00e+00	0	57	0	3347054592	37	4019
2026-01-09 14:12:30.75	351.75	45.13	-33.3	-34.3	20.4	0.00e+00	0	57	0	3354394624	37	3989
2026-01-09 14:12:31.76	351.65	44.83	-33.3	-34.3	20.6	0.00e+00	0	57	0	3361734656	37	3965
2026-01-09 14:12:32.77	351.55	44.54	-33.2	-34.2	20.5	0.00e+00	0	57	0	3369074688	37	3922
2026-01-09 14:12:33.78	351.45	44.24	-33.1	-34.1	20.7	0.00e+00	0	57	0	3376414720	37	3885
2026-01-09 14:12:34.79	351.35	43.95	-32.9	-33.9	20.9	0.00e+00	0	57	0	3383754752	36	4028
2026-01-09 14:12:35.80	351.26	43.66	-32.8	-33.7	21.0	0.00e+00	0	57	0	3391094784	36	3931
2026-01-09 14:12:36.81	351.17	43.38	-32.7	-33.7	21.0	0.00e+00	0	57	0	3398434816	36	3926
2026-01-09 14:12:37.82	351.08	43.09	-32.7	-33.7	21.0	0.00e+00	0	57	0	3405774848	36	3915
2026-01-09 14:12:38.83	350.99	42.81	-32.8	-33.8	20.9	0.00e+00	0	57	0	3413114880	36	3970
2026-01-09 14:12:39.84	350.90	42.53	-32.9	-33.8	21.0	0.00e+00	0	57	0	3420454912	36	3990
2026-01-09 14:12:40.85	350.82	42.25	-32.9	-33.9	20.8	0.00e+00	0	57	0	3427794944	36	4031
2026-01-09 14:12:41.86	350.73	41.97	-33.1	-34.1	20.8	0.00e+00	0	57	0	3435134976	36	4113
2026-01-09 14:12:42.87	350.65	41.70	-33.2	-34.2	20.6	0.00e+00	0	57	0	3442475008	36	4174
2026-01-09 14:12:43.88	350.57	41.43	-33.4	-34.3	20.4	0.00e+00	0	57	0	3449815040	36	4240
2026-01-09 14:12:44.89	350.49	41.15	-33.5	-34.5	20.4	0.00e+00	0	57	0	3456106496	36	4309
2026-01-09 14:12:45.90	350.41	40.89	-33.6	-34.6	19.9	0.00e+00	0	57	0	3463446528	36	4372
2026-01-09 14:12:46.91	350.33	40.62	-33.8	-34.8	20.0	0.00e+00	0	57	0	3471835136	37	4222
2026-01-09 14:12:47.92	350.26	40.35	-33.8	-34.8	19.9	0.00e+00	0	57	0	3478126592	37	4229
2026-01-09 14:12:48.93	350.18	40.09	-33.9	-34.9	19.9	0.00e+00	0	57	0	3485466624	37	4264
2026-01-09 14:12:49.94	350.11	39.83	-33.9	-34.9	19.9	0.00e+00	0	57	0	3492806656	37	4283
2026-01-09 14:12:50.95	350.04	39.57	-33.8	-34.9	19.9	0.00e+00	0	57	0	3500146688	37	4249
2026-01-09 14:12:51.96	349.96	39.31	-33.7	-34.7	20.1	0.00e+00	0	57	0	3507486720	37	4191
2026-01-09 14:12:52.97	349.89	39.06	-33.6	-34.6	20.1	0.00e+00	0	57	0	3514826752	37	4141
2026-01-09 14:12:53.98	349.83	38.80	-33.5	-34.5	20.3	0.00e+00	0	57	0	3522166784	37	4088
2026-01-09 14:12:54.99	349.76	38.55	-33.5	-34.5	20.3	0.00e+00	0	57	0	3529506816	37	4086
2026-01-09 14:12:56.00	349.69	38.30	-33.5	-34.5	20.3	0.00e+00	0	57	0	3536846848	37	4058
2026-01-09 14:12:57.01	349.63	38.05	-33.5	-34.6	20.2	0.00e+00	0	57	0	3544186880	37	4099
2026-01-09 14:12:58.02	349.56	37.81	-33.5	-34.5	20.3	0.00e+00	0	57	0	3551526912	37	4083
2026-01-09 14:12:59.03	349.50	37.56	-33.4	-34.5	20.3	0.00e+00	0	57	0	3558866944	37	4055
2026-01-09 14:13:00.04	349.44	37.32	-33.4	-34.4	20.4	0.00e+00	0	57	0	3566206976	37	4035
2026-01-09 14:13:01.05	349.38	37.08	-33.3	-34.3	20.5	0.00e+00	0	57	0	3573547008	37	3982
2026-01-09 14:13:02.06	349.32	36.84	-33.2	-34.2	20.6	0.00e+00	0	57	0	3580887040	37	3940
2026-01-09 14:13:03.07	349.26	36.60	-33.1	-34.1	20.7	0.00e+00	0	57	0	3588227072	37	3894
2026-01-09 14:13:04.08	349.20	36.36	-33.1	-34.1	20.7	0.00e+00	0	57	0	3595567104	37	3873
2026-01-09 14:13:05.08	349.14	36.13	-33.0	-34.0	20.8	0.00e+00	0	57	0	3601858560	36	4059
2026-01-09 14:13:06.09	349.08	35.90	-32.8	-33.8	20.4	0.00e+00	0	57	0	3609198592	36	3978
2026-01-09 14:13:07.10	349.03	35.67	-32.8	-33.8	20.9	0.00e+00	0	57	0	3616538624	36	3983
2026-01-09 14:13:08.11	348.97	35.44	-32.8	-33.8	21.0	0.00e+00	0	57	0	3623878656	36	3964
2026-01-09 14:13:09.12	348.92	35.21	-32.7	-33.7	21.1	0.00e+00	0	57	0	3631218688	36	3918
2026-01-09 14:13:10.13	348.86	34.98	-32.6	-33.6	21.1	0.00e+00	0	57	0	3638558720	36	3884
2026-01-09 14:13:11.14	348.81	34.76	-32.6	-33.6	21.1	0.00e+00	0	57	0	3645898752	36	3880
2026-01-09 14:13:12.15	348.76	34.54	-32.6	-33.5	21.2	0.00e+00	0	57	0	3653238784	36	3839
2026-01-09 14:13:13.16	348.71	34.31	-32.5	-33.5	21.2	0.00e+00	0	57	0	3660578816	36	3836
2026-01-09 14:13:14.17	348.66	34.09	-32.5	-33.5	21.2	0.00e+00	0	57	0	3667918848	36	3829
2026-01-09 14:13:15.18	348.61	33.88	-32.5	-33.5	21.2	0.00e+00	0	57	0	3675258880	36	3831
2026-01-09 14:13:16.19	348.56	33.66	-32.6	-33.5	21.2	0.00e+00	0	57	0	3682598912	36	3845
2026-01-09 14:13:17.20	348.51	33.44	-32.6	-33.5	21.1	0.00e+00	0	57	0	3689938944	36	3863
2026-01-09 14:13:18.21	348.46	33.23	-32.7	-33.6	21.0	0.00e+00	0	57	0	3697278976	36	3902
2026-01-09 14:13:19.22	348.42	33.02	-32.7	-33.7	21.0	0.00e+00	0	57	0	3704619008	36	3935
2026-01-09 14:13:20.23	348.37	32.81	-32.8	-33.8	20.9	0.00e+00	0	57	0	3711959040	36	3968
2026-01-09 14:13:21.24	348.33	32.60	-32.9	-33.9	20.8	0.00e+00	0	57	0	3719299072	36	4009
2026-01-09 14:13:22.24	348.28	32.39	-32.9	-33.9	20.8	0.00e+00	0	57	0	3726639104	36	4035
2026-01-09 14:13:23.25	348.24	32.18	-33.0	-34.0	20.8	0.00e+00	0	57	0	3732930560	36	4056
2026-01-09 14:13:24.26	348.19	31.98	-33.1	-34.1	20.7	0.00e+00	0	57	0	3741319168	36	4104
2026-01-09 14:13:25.27	348.15	31.77	-33.2	-34.1	20.6	0.00e+00	0	57	0	3748659200	36	4144
2026-01-09 14:13:26.28	348.11	31.57	-33.2	-34.2	20.5	0.00e+00	0	57	0	3754950656	36	4164
2026-01-09 14:13:27.29	348.06	31.37	-33.2	-34.2	20.5	0.00e+00	0	57	0	3762290688	36	4181
2026-01-09 14:13:28.31	348.02	31.17	-33.3	-34.3	20.4	0.00e+00	0	57	0	3770679296	36	4222
2026-01-09 14:13:29.31	347.98	30.97	-33.3	-34.3	20.4	0.00e+00	0	57	0	3776970752	36	4196
2026-01-09 14:13:30.32	347.94	30.77	-33.3	-34.3	20.3	0.00e+00	0	57	0	3784310784	36	4209
2026-01-09 14:13:31.33	347.90	30.58	-33.3	-34.3	20.4	0.00e+00	0	57	0	3791650816	36	4214
2026-01-09 14:13:32.34	347.86	30.38	-33.3	-34.3	20.4	0.00e+00	0	57	0	3798990848	36	4206
2026-01-09 14:13:33.35	347.82	30.19	-33.3	-34.3	20.3	0.00e+00	0	57	0	3806330880	36	4210
2026-01-09 14:13:34.36	347.79	30.00	-33.2	-34.3	20.4	0.00e+00	0	57	0	3813670912	36	4195
2026-01-09 14:13:35.37	347.75	29.81	-33.2	-34.2	20.4	0.00e+00	0	57	0	3821010944	36	4180
2026-01-09 14:13:36.38	347.71	29.62	-33.2	-34.2	20.4	0.00e+00	0	57	0	3828350976	36	4184
2026-01-09 14:13:37.39	347.67	29.43	-33.2	-34.2	20.4	0.00e+00	0	57	0	3835691008	36	4171
2026-01-09 14:13:38.40	347.64	29.24	-33.2	-34.2	20.5	0.00e+00	0	57	0	3843031040	36	4156
2026-01-09 14:13:39.41	347.60	29.06	-33.2	-34.2	20.4	0.00e+00	0	57	0	3850371072	36	4158
2026-01-09 14:13:40.41	347.57	28.88	-33.2	-34.2	20.5	0.00e+00	0	57	0	3857711104	36	4151
2026-01-09 14:13:41.42	347.53	28.69	-33.2	-34.1	20.5	0.00e+00	0	57	0	3865051136	36	4143
2026-01-09 14:13:42.43	347.50	28.51	-33.2	-34.2	20.5	0.00e+00	0	57	0	3872391168	36	4158
2026-01-09 14:13:43.44	347.46	28.33	-33.2	-34.2	20.4	0.00e+00	0	57	0	3878682624	36	4148
2026-01-09 14:13:44.45	347.43	28.15	-33.2	-34.2	20.5	0.00e+00	0	57	0	3886022656	36	4148
2026-01-09 14:13:45.46	347.40	27.97	-33.2	-34.2	20.4	0.00e+00	0	57	0	3894411264	36	4175
2026-01-09 14:13:46.47	347.36	27.79	-33.2	-34.2	20.2	0.00e+00	0	57	0	3900702720	36	4161
2026-01-09 14:13:47.48	347.33	27.62	-33.3	-34.2	20.4	0.00e+00	0	57	0	3908042752	36	4192
2026-01-09 14:13:48.49	347.30	27.44	-33.3	-34.2	20.4	0.00e+00	0	57	0	3915382784	36	4192
2026-01-09 14:13:49.51	347.27	27.27	-33.3	-34.3	20.3	0.00e+00	0	57	0	3922722816	36	4213
2026-01-09 14:13:50.51	347.24	27.09	-33.3	-34.4	20.3	0.00e+00	0	57	0	3930062848	36	4244
2026-01-09 14:13:51.52	347.20	26.92	-33.4	-34.4	20.2	0.00e+00	0	57	0	3937402880	36	4252
2026-01-09 14:13:52.53	347.17	26.75	-33.4	-34.4	20.2	0.00e+00	0	57	0	3944742912	36	4261
2026-01-09 14:13:53.54	347.14	26.58	-33.4	-34.5	20.1	0.00e+00	0	57	0	3952082944	36	4294
2026-01-09 14:13:54.55	347.11	26.41	-33.5	-34.5	20.1	0.00e+00	0	57	0	3959422976	36	4306
2026-01-09 14:13:55.56	347.08	26.24	-33.5	-34.5	20.1	0.00e+00	0	57	0	3966763008	36	4315
2026-01-09 14:13:56.57	347.06	26.08	-33.5	-34.5	20.1	0.00e+00	0	57	0	3974103040	36	4332
2026-01-09 14:13:57.58	347.03	25.91	-33.5	-34.5	20.1	0.00e+00	0	57	0	3981443072	36	4325
2026-01-09 14:13:58.59	347.00	25.75	-33.4	-34.5	20.0	0.00e+00	0	57	0	3988783104	36	4304
2026-01-09 14:13:59.60	346.97	25.58	-33.5	-34.5	20.1	0.00e+00	0	57	0	3996123136	36	4330
2026-01-09 14:14:00.60	346.94	25.42	-33.5	-34.5	20.1	0.00e+00	0	57	0	4003463168	36	4311
2026-01-09 14:14:01.61	346.91	25.26	-33.5	-34.5	20.1	0.00e+00	0	57	0	4010803200	36	4302
2026-01-09 14:14:02.62	346.89	25.10	-33.4	-34.5	20.1	0.00e+00	0	57	0	4018143232	36	4299
2026-01-09 14:14:03.63	346.86	24.94	-33.4	-34.5	20.1	0.00e+00	0	57	0	4025483264	36	4292
2026-01-09 14:14:04.64	346.83	24.78	-33.4	-34.4	20.1	0.00e+00	0	57	0	4031774720	36	4291
2026-01-09 14:14:05.65	346.81	24.62	-33.5	-34.5	20.1	0.00e+00	0	57	0	4039114752	36	4305
2026-01-09 14:14:06.65	346.78	24.47	-33.4	-34.5	20.1	0.00e+00	0	57	0	4046454784	36	4301
2026-01-09 14:14:07.66	346.76	24.31	-33.5	-34.6	19.9	0.00e+00	0	57	0	4053794816	36	4342
2026-01-09 14:14:08.67	346.73	24.16	-33.5	-34.5	19.7	0.00e+00	0	57	0	4061134848	36	4314
2026-01-09 14:14:09.69	346.71	24.00	-33.4	-34.4	20.0	0.00e+00	0	57	0	4068474880	36	4287
2026-01-09 14:14:10.69	346.68	23.85	-33.5	-34.5	19.9	0.00e+00	0	57	0	4075814912	36	4308
2026-01-09 14:14:11.71	346.66	23.70	-33.4	-34.4	20.0	0.00e+00	0	57	0	4083154944	36	4282
2026-01-09 14:14:12.71	346.63	23.55	-33.4	-34.5	19.8	0.00e+00	0	57	0	4090494976	36	4303
2026-01-09 14:14:13.72	346.61	23.40	-33.6	-34.6	19.7	0.00e+00	0	57	0	4097835008	36	4367
2026-01-09 14:14:14.73	346.59	23.25	-33.6	-34.6	19.7	0.00e+00	0	57	0	4105175040	36	4386
2026-01-09 14:14:15.74	346.56	23.10	-33.6	-34.6	19.7	0.00e+00	0	57	0	4112515072	36	4370
2026-01-09 14:14:16.76	346.54	22.95	-33.6	-34.7	19.6	0.00e+00	0	57	0	4119855104	36	4398
2026-01-09 14:14:17.77	346.52	22.80	-33.5	-34.5	19.6	0.00e+00	0	57	0	4127195136	36	4338
2026-01-09 14:14:18.78	346.49	22.65	-33.5	-34.5	19.6	0.00e+00	0	57	0	4134535168	36	4334
2026-01-09 14:14:19.79	346.47	22.51	-33.4	-34.4	19.7	0.00e+00	0	57	0	4141875200	36	4282
2026-01-09 14:14:20.80	346.45	22.36	-33.3	-34.3	19.7	0.00e+00	0	57	0	4149215232	36	4242
2026-01-09 14:14:21.81	346.43	22.22	-33.3	-34.4	19.6	0.00e+00	0	57	0	4156555264	36	4247
2026-01-09 14:14:22.82	346.40	22.08	-33.5	-34.6	19.3	0.00e+00	0	57	0	4163895296	36	4345
2026-01-09 14:14:23.82	346.38	21.94	-33.8	-34.9	18.7	0.00e+00	0	57	0	4171235328	37	4277
2026-01-09 14:14:24.83	346.36	21.80	-34.5	-35.7	17.7	0.00e+00	0	57	0	4177526784	38	4402
2026-01-09 14:14:25.84	346.34	21.65	-35.2	-36.6	16.5	0.00e+00	0	57	0	4184866816	39	4599
2026-01-09 14:14:26.85	346.32	21.51	-36.1	-37.8	14.8	0.00e+00	0	57	0	4192206848	41	4722
2026-01-09 14:14:27.86	346.30	21.38	-37.2	-39.3	12.8	2.40e-05	0	57	0	4199546880	43	5026
2026-01-09 14:14:28.87	346.28	21.24	-38.4	-41.3	10.5	2.59e-03	0	57	0	4206886912	46	5286
2026-01-09 14:14:29.88	346.26	21.10	-39.4	-43.2	8.3	3.60e-02	0	57	0	4214226944	48	5896
2026-01-09 14:14:30.89	346.24	20.96	-40.1	-45.3	6.1	2.05e-01	0	57	0	4221566976	49	7069
2026-01-09 14:14:31.90	346.22	20.83	-40.5	-47.1	4.8	7.84e-01	0	57	0	4224712704	50	8242
2026-01-09 14:14:32.91	346.20	20.69	-40.7	-49.0	4.0	8.36e-01	0	57	0	4224712704	50	10270
2026-01-09 14:14:33.92	346.18	20.56	-40.7	-50.2	3.8	8.46e-01	0	57	104	4224712704	50	11734
2026-01-09 14:14:34.93	346.16	20.42	-40.7	-50.9	3.8	8.46e-01	0	57	104	4224712704	50	12692
2026-01-09 14:14:35.94	346.14	20.29	-40.6	-51.1	3.8	8.46e-01	0	57	104	4224712704	50	13105
2026-01-09 14:14:36.95	346.12	20.16	-40.6	-51.2	3.8	8.46e-01	0	57	104	4224712704	50	13238
2026-01-09 14:14:37.96	346.11	20.02	-40.6	-51.3	3.8	8.46e-01	0	57	104	4224712704	50	13326
2026-01-09 14:14:38.97	346.09	19.89	-40.6	-51.4	3.8	8.45e-01	0	57	104	4224712704	50	13484
2026-01-09 14:14:39.98	346.07	19.76	-40.8	-51.9	3.8	8.46e-01	0	57	104	4224712704	51	13507
2026-01-09 14:14:40.99	346.05	19.63	-40.6	-51.5	3.8	8.46e-01	0	57	104	4224712704	51	12856
2026-01-09 14:14:42.00	346.03	19.50	-40.7	-51.7	3.8	8.46e-01	0	57	104	4224712704	51	13162
2026-01-09 14:14:43.01	346.02	19.38	-40.6	-51.5	3.8	8.47e-01	0	57	104	4224712704	51	12858
2026-01-09 14:14:44.02	346.00	19.25	-40.9	-51.8	3.8	8.46e-01	0	57	104	4224712704	51	13331
2026-01-09 14:14:45.03	345.98	19.12	-41.0	-52.4	3.8	8.46e-01	0	57	104	4224712704	52	13455
2026-01-09 14:14:46.04	345.96	18.99	-40.6	-51.5	3.8	8.46e-01	0	57	104	4224712704	52	12129
2026-01-09 14:14:47.04	345.95	18.87	-40.6	-51.5	3.8	8.47e-01	0	57	104	4224712704	52	12129
2026-01-09 14:14:48.06	345.93	18.74	-40.5	-51.4	3.8	8.46e-01	0	57	104	4224712704	52	12053
2026-01-09 14:14:49.06	345.91	18.62	-40.5	-51.5	3.8	8.46e-01	0	57	104	4224712704	52	12111
2026-01-09 14:14:50.07	345.90	18.50	-40.5	-51.5	3.8	8.47e-01	0	57	104	4224712704	52	12193
2026-01-09 14:14:51.08	345.88	18.37	-40.5	-51.5	3.8	8.47e-01	0	57	104	4224712704	52	12132
2026-01-09 14:14:52.09	345.87	18.25	-41.0	-52.2	3.8	8.46e-01	0	57	104	4224712704	52	13211
2026-01-09 14:14:53.10	345.85	18.13	-40.6	-51.5	3.8	8.46e-01	0	57	104	4224712704	52	12211
2026-01-09 14:14:54.11	345.83	18.01	-41.2	-52.2	3.8	8.44e-01	0	57	104	4224712704	52	13129
2026-01-09 14:14:55.12	345.82	17.88	-40.8	-52.0	3.8	8.45e-01	0	57	104	4224712704	52	12944
2026-01-09 14:14:56.13	345.80	17.76	-40.8	-52.1	3.8	8.45e-01	0	57	104	4224712704	52	12979
2026-01-09 14:14:57.14	345.79	17.64	-40.9	-52.1	3.8	8.46e-01	0	57	104	4224712704	52	13106
2026-01-09 14:14:58.15	345.77	17.53	-41.5	-52.6	3.8	8.45e-01	0	57	104	4224712704	52	13832
2026-01-09 14:14:59.16	345.76	17.41	-41.8	-52.9	3.8	8.46e-01	0	57	104	4224712704	53	13449
2026-01-09 14:15:00.17	345.74	17.29	-40.3	-51.9	3.8	8.46e-01	0	57	104	4224712704	51	13476
2026-01-09 14:15:01.18	345.73	17.17	-40.6	-51.9	3.8	8.46e-01	0	57	104	4224712704	51	13563
2026-01-09 14:15:02.19	345.71	17.05	-40.6	-52.1	3.8	8.46e-01	0	57	104	4224712704	51	13765
2026-01-09 14:15:03.20	345.70	16.94	-40.3	-51.8	3.8	8.45e-01	0	57	104	4224712704	51	13310
2026-01-09 14:15:04.21	345.69	16.82	-40.4	-51.8	3.8	8.46e-01	0	57	104	4224712704	51	13310
2026-01-09 14:15:05.22	345.67	16.71	-40.4	-51.8	3.8	8.46e-01	0	57	104	4224712704	51	13288
2026-01-09 14:15:06.23	345.66	16.59	-40.7	-51.9	3.8	8.46e-01	0	57	104	4224712704	51	13500
2026-01-09 14:15:07.24	345.64	16.48	-40.6	-51.9	3.8	8.45e-01	0	57	104	4224712704	51	13443
2026-01-09 14:15:08.25	345.63	16.36	-41.4	-52.8	3.8	8.45e-01	0	57	104	4224712704	52	14082
