passes_logs/2026/01/09/R2.0S_Moscow/R2.0S_Moscow__20260109_103826_FENGYUN_3D_rec.log

#Pass ID: 20260109_103826_FENGYUN 3D
#Satellite: FENGYUN 3D
#Configuration: FENGYUN 3D
#almurnet v.1.7.20251203
#Start time: 2026-01-09 10:38:26

#Version: 2.2.20231116
#Station: R2.0S_Moscow
#Location: 37.707566 lon 55.798166 lat
#TLE: 1 43010U 17072A   26008.51967461  .00000013  00000+0  27718-4 0  9992
#TLE: 2 43010  98.9935 340.2353 0002115 119.1573 240.9815 14.19693759422336

#Time	Az	El	Level	Level2	SNR	BER	BlckErr	Temp	State	Recorded	gain1	gain2
2026-01-09 10:38:26.11	122.15	2.01	-16.3	-30.8	4.0	8.32e-01	0	47	0	0	9	14154
2026-01-09 10:38:27.11	122.09	2.07	-18.0	-28.6	3.8	8.18e-01	0	47	104	0	4	14665
2026-01-09 10:38:28.13	122.04	2.13	-15.8	-26.6	3.7	8.28e-01	0	47	104	0	3	12351
2026-01-09 10:38:29.14	121.99	2.19	-16.0	-27.3	3.9	8.30e-01	0	47	0	0	6	11263
2026-01-09 10:38:30.15	121.93	2.25	-19.8	-33.7	4.1	8.29e-01	0	47	104	0	11	17530
2026-01-09 10:38:31.16	121.88	2.31	-16.6	-26.7	3.9	8.28e-01	0	47	104	0	4	11812
2026-01-09 10:38:32.17	121.82	2.37	-20.4	-31.1	3.7	8.28e-01	0	47	104	0	9	14684
2026-01-09 10:38:33.18	121.77	2.43	-21.2	-34.4	3.8	8.14e-01	0	47	104	0	9	21295
2026-01-09 10:38:34.19	121.71	2.49	-20.8	-35.1	3.7	8.16e-01	0	47	104	0	11	20651
2026-01-09 10:38:35.20	121.66	2.55	-17.5	-28.4	3.7	8.22e-01	0	48	104	0	3	15200
2026-01-09 10:38:36.21	121.60	2.61	-15.4	-30.7	3.6	8.15e-01	0	48	104	0	9	13981
2026-01-09 10:38:37.22	121.55	2.67	-17.8	-31.7	3.9	8.24e-01	0	48	104	0	10	14776
2026-01-09 10:38:38.23	121.49	2.73	-19.0	-31.2	3.9	8.29e-01	0	48	104	0	10	14033
2026-01-09 10:38:39.24	121.43	2.80	-20.4	-34.9	3.9	8.26e-01	0	48	104	0	11	20101
2026-01-09 10:38:40.25	121.38	2.86	-14.4	-27.5	3.8	8.27e-01	0	48	104	0	1	15397
2026-01-09 10:38:41.27	121.32	2.92	-14.6	-27.9	3.8	8.35e-01	0	48	104	0	3	14252
2026-01-09 10:38:42.27	121.26	2.98	-17.1	-29.8	3.9	8.21e-01	0	48	104	0	6	14921
2026-01-09 10:38:43.28	121.21	3.04	-15.0	-27.5	3.8	8.44e-01	0	49	104	0	1	15302
2026-01-09 10:38:44.30	121.15	3.11	-18.6	-31.2	3.9	8.22e-01	0	48	104	0	6	17506
2026-01-09 10:38:45.31	121.09	3.17	-18.3	-29.2	3.7	8.35e-01	0	48	104	0	3	16635
2026-01-09 10:38:46.32	121.03	3.23	-19.3	-31.8	4.0	8.30e-01	0	49	104	0	7	17826
2026-01-09 10:38:47.33	120.97	3.29	-18.2	-29.1	3.9	8.26e-01	0	48	104	0	8	12301
2026-01-09 10:38:48.34	120.92	3.35	-19.4	-33.1	3.9	8.27e-01	0	49	104	0	9	18353
2026-01-09 10:38:49.35	120.86	3.42	-21.2	-33.6	3.8	8.30e-01	0	49	104	0	8	20563
2026-01-09 10:38:50.36	120.80	3.48	-17.7	-31.2	4.1	8.18e-01	0	49	104	0	9	14790
2026-01-09 10:38:51.37	120.74	3.54	-16.9	-29.5	3.5	8.22e-01	0	49	104	0	6	14427
2026-01-09 10:38:52.38	120.68	3.60	-15.1	-26.4	3.6	8.24e-01	0	49	104	0	0	14251
2026-01-09 10:38:53.39	120.62	3.67	-19.0	-31.3	3.8	8.18e-01	0	49	104	0	8	15789
2026-01-09 10:38:54.40	120.56	3.73	-16.0	-24.6	3.8	8.21e-01	0	49	0	0	6	8199
2026-01-09 10:38:55.41	120.50	3.79	-17.7	-29.7	3.7	8.17e-01	0	49	104	0	5	15655
2026-01-09 10:38:56.42	120.44	3.86	-16.9	-30.1	3.8	8.23e-01	0	49	104	0	6	15520
2026-01-09 10:38:57.43	120.38	3.92	-16.1	-27.4	3.8	8.25e-01	0	49	104	0	7	10706
2026-01-09 10:38:58.45	120.32	3.98	-21.0	-33.8	3.6	8.08e-01	0	49	104	0	8	21202
2026-01-09 10:38:59.46	120.25	4.05	-22.1	-34.5	4.0	8.13e-01	0	49	104	0	13	17255
2026-01-09 10:39:00.47	120.19	4.11	-18.5	-31.4	3.7	8.21e-01	0	49	104	0	9	15184
2026-01-09 10:39:01.48	120.13	4.17	-22.0	-35.6	4.1	7.88e-01	0	49	104	0	14	18384
2026-01-09 10:39:02.48	120.07	4.24	-19.6	-32.6	4.2	7.99e-01	0	49	104	0	11	15473
2026-01-09 10:39:03.50	120.01	4.30	-21.2	-35.5	4.2	8.05e-01	0	50	104	0	14	18200
2026-01-09 10:39:04.51	119.94	4.37	-20.9	-34.1	3.7	8.08e-01	0	50	104	0	11	18307
2026-01-09 10:39:05.52	119.88	4.43	-15.3	-27.9	3.7	8.03e-01	0	50	104	0	13	8036
2026-01-09 10:39:06.53	119.82	4.50	-18.1	-29.6	4.1	8.07e-01	0	50	104	0	14	9241
2026-01-09 10:39:07.54	119.75	4.56	-21.3	-36.0	4.1	8.12e-01	0	50	104	0	13	20433
2026-01-09 10:39:08.55	119.69	4.62	-20.4	-34.6	4.1	8.09e-01	0	50	104	0	14	16414
2026-01-09 10:39:09.56	119.62	4.69	-21.7	-34.9	4.1	8.17e-01	0	50	104	0	11	20075
2026-01-09 10:39:10.57	119.56	4.75	-17.9	-28.7	3.6	8.19e-01	0	50	0	0	6	13236
2026-01-09 10:39:11.58	119.49	4.82	-21.5	-34.9	3.9	8.05e-01	0	50	104	0	12	19138
2026-01-09 10:39:12.59	119.43	4.88	-20.9	-34.7	3.8	8.05e-01	0	50	0	0	12	18543
2026-01-09 10:39:13.60	119.36	4.95	-19.9	-33.1	3.9	8.03e-01	0	50	104	0	13	14622
2026-01-09 10:39:14.61	119.30	5.02	-19.5	-31.4	3.9	8.22e-01	0	50	104	0	7	16897
2026-01-09 10:39:15.62	119.23	5.08	-21.2	-35.0	3.8	8.11e-01	0	50	104	0	13	18235
2026-01-09 10:39:16.63	119.17	5.15	-16.6	-27.9	3.7	8.18e-01	0	50	104	0	8	10701
2026-01-09 10:39:17.64	119.10	5.21	-21.4	-36.1	3.8	7.94e-01	0	50	104	0	15	18308
2026-01-09 10:39:18.65	119.03	5.28	-20.8	-33.8	3.9	8.06e-01	0	50	104	0	14	14990
2026-01-09 10:39:19.66	118.96	5.34	-21.7	-35.5	4.0	8.05e-01	0	51	104	0	14	18181
2026-01-09 10:39:20.67	118.90	5.41	-20.7	-32.4	3.9	8.08e-01	0	51	104	0	10	15990
2026-01-09 10:39:21.69	118.83	5.48	-21.5	-35.0	4.6	8.03e-01	0	51	104	0	12	19176
2026-01-09 10:39:22.70	118.76	5.54	-21.2	-34.9	4.1	8.14e-01	0	51	104	0	14	17016
2026-01-09 10:39:23.71	118.69	5.61	-21.0	-33.6	3.4	8.15e-01	0	51	104	0	8	20687
2026-01-09 10:39:24.72	118.62	5.68	-21.6	-33.3	4.0	8.15e-01	0	51	104	0	15	13267
2026-01-09 10:39:25.73	118.55	5.74	-18.1	-30.2	3.9	8.03e-01	0	51	104	0	15	9333
2026-01-09 10:39:26.74	118.48	5.81	-19.3	-31.3	4.0	8.11e-01	0	51	104	0	11	13373
2026-01-09 10:39:27.75	118.41	5.88	-21.7	-36.5	3.9	7.87e-01	0	51	0	0	14	20388
2026-01-09 10:39:28.76	118.34	5.94	-21.4	-34.4	3.9	8.13e-01	0	51	104	0	13	16974
2026-01-09 10:39:29.77	118.27	6.01	-19.2	-32.0	3.7	8.13e-01	0	51	104	0	9	16264
2026-01-09 10:39:30.78	118.20	6.08	-18.4	-31.3	3.9	8.17e-01	0	51	104	0	10	14083
2026-01-09 10:39:31.79	118.13	6.15	-20.2	-32.2	3.9	8.15e-01	0	51	104	0	13	13148
2026-01-09 10:39:32.80	118.06	6.22	-20.4	-32.2	3.9	8.17e-01	0	51	104	0	14	12393
2026-01-09 10:39:33.81	117.99	6.28	-22.0	-35.9	3.9	8.10e-01	0	51	104	0	14	18981
2026-01-09 10:39:34.83	117.91	6.35	-21.7	-35.5	4.1	8.21e-01	0	51	104	0	13	19262
2026-01-09 10:39:35.83	117.84	6.42	-18.6	-31.1	3.9	8.07e-01	0	51	104	0	13	11612
2026-01-09 10:39:36.85	117.77	6.49	-20.9	-35.5	3.9	8.13e-01	0	51	104	0	12	20398
2026-01-09 10:39:37.86	117.69	6.56	-20.5	-34.4	4.1	8.18e-01	0	52	104	0	13	17037
2026-01-09 10:39:38.87	117.62	6.63	-20.4	-32.6	3.8	8.23e-01	0	52	104	0	11	15525
2026-01-09 10:39:39.88	117.55	6.69	-21.0	-33.7	4.0	8.08e-01	0	52	104	0	13	15617
2026-01-09 10:39:40.89	117.47	6.76	-21.1	-34.6	4.0	8.03e-01	0	52	104	0	14	16324
2026-01-09 10:39:41.90	117.40	6.83	-20.2	-33.5	3.8	8.09e-01	0	52	104	0	13	15275
2026-01-09 10:39:42.91	117.32	6.90	-20.1	-32.3	3.7	8.20e-01	0	52	104	0	8	17874
2026-01-09 10:39:43.92	117.25	6.97	-21.1	-35.5	4.1	8.15e-01	0	52	104	0	13	19299
2026-01-09 10:39:44.93	117.17	7.04	-19.4	-31.1	3.6	8.20e-01	0	52	104	0	9	14629
2026-01-09 10:39:45.94	117.09	7.11	-20.8	-34.7	3.8	8.12e-01	0	52	104	0	11	19658
2026-01-09 10:39:46.95	117.02	7.18	-21.2	-33.8	3.7	8.23e-01	0	52	104	0	10	18783
2026-01-09 10:39:47.96	116.94	7.25	-21.4	-34.9	3.7	8.09e-01	0	52	104	0	9	22536
2026-01-09 10:39:48.97	116.86	7.32	-19.4	-31.2	3.7	8.16e-01	0	52	0	0	10	14032
2026-01-09 10:39:49.98	116.78	7.39	-20.8	-34.0	3.9	8.11e-01	0	52	104	0	13	16135
2026-01-09 10:39:50.99	116.71	7.46	-20.6	-33.1	3.9	8.21e-01	0	52	104	0	8	19498
2026-01-09 10:39:52.00	116.63	7.53	-21.6	-34.2	4.0	8.12e-01	0	52	104	0	14	15635
2026-01-09 10:39:53.01	116.55	7.60	-21.7	-35.7	4.2	8.18e-01	0	52	104	0	15	17682
2026-01-09 10:39:54.02	116.47	7.67	-16.5	-26.8	3.6	8.15e-01	0	52	104	0	8	9427
2026-01-09 10:39:55.03	116.39	7.74	-18.3	-27.6	3.7	8.19e-01	0	52	104	0	8	10325
2026-01-09 10:39:56.04	116.31	7.81	-21.1	-34.4	4.1	8.19e-01	0	52	0	0	12	17944
2026-01-09 10:39:57.05	116.23	7.88	-21.3	-35.7	4.8	8.22e-01	0	52	104	0	11	22150
2026-01-09 10:39:58.06	116.15	7.95	-20.0	-32.3	4.2	8.25e-01	0	52	0	0	11	14982
2026-01-09 10:39:59.08	116.06	8.03	-17.2	-30.7	4.3	8.29e-01	0	52	104	0	8	14877
2026-01-09 10:40:00.09	115.98	8.10	-35.5	-51.3	4.3	8.37e-01	0	52	104	0	36	31630
2026-01-09 10:40:01.10	115.90	8.17	-20.4	-32.8	4.0	8.36e-01	0	52	104	0	12	14904
2026-01-09 10:40:02.11	115.82	8.24	-20.9	-32.2	3.9	8.26e-01	0	52	104	0	9	16535
2026-01-09 10:40:03.12	115.73	8.31	-23.5	-36.8	4.2	8.21e-01	0	52	0	0	17	17852
2026-01-09 10:40:04.13	115.65	8.39	-20.5	-28.8	3.9	8.31e-01	0	52	104	0	9	11181
2026-01-09 10:40:05.14	115.57	8.46	-22.6	-34.7	4.6	8.30e-01	0	52	104	0	15	15651
2026-01-09 10:40:06.15	115.48	8.53	-20.8	-33.4	4.6	8.27e-01	0	53	104	0	14	14317
2026-01-09 10:40:07.16	115.40	8.60	-21.6	-34.6	4.6	8.29e-01	0	53	104	0	15	15402
2026-01-09 10:40:08.16	115.31	8.68	-20.0	-30.9	4.3	8.24e-01	0	53	0	0	12	12076
2026-01-09 10:40:09.17	115.23	8.75	-23.0	-35.1	5.0	8.24e-01	0	53	104	0	16	15410
2026-01-09 10:40:10.18	115.14	8.82	-19.3	-33.3	4.6	8.25e-01	0	53	104	0	15	13308
2026-01-09 10:40:11.19	115.06	8.89	-19.3	-31.6	4.4	8.29e-01	0	52	104	0	15	10936
2026-01-09 10:40:12.20	114.97	8.97	-21.7	-34.1	4.4	8.26e-01	0	53	0	0	17	13008
2026-01-09 10:40:13.21	114.88	9.04	-21.8	-34.0	4.2	8.24e-01	0	52	104	0	9	20341
2026-01-09 10:40:14.22	114.79	9.11	-22.0	-31.2	4.4	8.29e-01	0	53	104	0	15	10451
2026-01-09 10:40:15.23	114.70	9.19	-22.2	-34.7	4.4	8.26e-01	0	53	104	0	16	14863
2026-01-09 10:40:16.24	114.62	9.26	-22.8	-35.5	4.7	8.27e-01	0	53	104	0	18	14405
2026-01-09 10:40:17.25	114.53	9.34	-23.7	-35.5	4.8	8.30e-01	0	53	104	0	18	14505
2026-01-09 10:40:18.26	114.44	9.41	-22.3	-33.8	4.4	8.29e-01	0	53	104	0	16	13293
2026-01-09 10:40:19.27	114.35	9.49	-23.0	-34.1	4.6	8.26e-01	0	53	104	0	18	12315
2026-01-09 10:40:20.28	114.26	9.56	-23.7	-35.3	4.3	8.30e-01	0	53	104	0	18	14169
2026-01-09 10:40:21.29	114.16	9.63	-22.9	-34.1	3.9	8.29e-01	0	53	104	0	13	16479
2026-01-09 10:40:22.30	114.07	9.71	-24.8	-38.4	4.5	8.31e-01	0	53	0	0	20	18003
2026-01-09 10:40:23.31	113.98	9.78	-24.0	-35.1	4.0	8.24e-01	0	53	104	0	17	14578
2026-01-09 10:40:24.32	113.89	9.86	-24.4	-34.7	3.7	8.20e-01	0	53	0	0	12	18591
2026-01-09 10:40:25.32	113.80	9.93	-25.4	-39.3	4.8	8.28e-01	0	53	104	0	22	17824
2026-01-09 10:40:26.33	113.70	10.01	-26.4	-39.2	4.5	8.28e-01	0	53	104	0	20	19627
2026-01-09 10:40:27.34	113.61	10.09	-25.4	-36.3	4.0	8.28e-01	0	53	104	0	20	14055
2026-01-09 10:40:28.35	113.51	10.16	-32.3	-45.0	4.6	8.33e-01	0	53	104	0	32	19194
2026-01-09 10:40:29.36	113.42	10.24	-31.4	-40.2	5.2	8.26e-01	0	53	104	0	32	11117
2026-01-09 10:40:30.37	113.32	10.31	-24.1	-35.5	4.5	8.24e-01	0	53	104	0	20	12904
2026-01-09 10:40:31.38	113.23	10.39	-28.4	-37.0	7.6	5.79e-01	0	53	0	0	29	9151
2026-01-09 10:40:32.39	113.13	10.47	-30.3	-37.0	8.7	5.60e-01	0	53	0	0	31	8108
2026-01-09 10:40:33.40	113.03	10.54	-29.1	-36.7	9.0	5.41e-01	0	53	0	1048576	30	8360
2026-01-09 10:40:34.41	112.93	10.62	-30.5	-37.6	7.5	4.59e-01	0	53	0	4194304	32	8201
2026-01-09 10:40:35.42	112.84	10.70	-30.6	-37.7	9.2	4.78e-01	0	53	0	5242880	32	8273
2026-01-09 10:40:36.43	112.74	10.77	-30.7	-37.3	8.9	3.93e-01	0	53	0	8388608	32	7982
2026-01-09 10:40:37.44	112.64	10.85	-30.2	-37.5	9.2	3.87e-01	0	53	0	11534336	31	8583
2026-01-09 10:40:38.45	112.54	10.93	-27.8	-36.5	6.7	3.64e-01	0	53	0	15728640	28	9103
2026-01-09 10:40:39.45	112.44	11.00	-23.4	-36.3	9.1	3.46e-01	0	53	0	19922944	25	10641
2026-01-09 10:40:40.46	112.34	11.08	-30.6	-37.2	8.6	2.83e-01	0	54	0	24117248	30	8862
2026-01-09 10:40:41.47	112.24	11.16	-30.9	-37.6	10.3	2.42e-01	0	54	0	28311552	33	7795
2026-01-09 10:40:42.48	112.13	11.24	-31.7	-37.5	11.2	1.86e-01	0	54	0	33554432	31	8577
2026-01-09 10:40:43.49	112.03	11.32	-28.8	-37.2	8.8	9.81e-02	0	54	0	38797312	32	7851
2026-01-09 10:40:44.50	111.93	11.39	-33.8	-38.5	12.3	9.67e-02	0	54	0	44040192	37	6844
2026-01-09 10:40:45.51	111.83	11.47	-34.1	-38.4	12.9	8.75e-02	0	54	0	49283072	38	6357
2026-01-09 10:40:46.52	111.72	11.55	-33.2	-38.0	13.7	5.58e-02	0	54	0	54525952	38	6118
2026-01-09 10:40:47.53	111.62	11.63	-34.2	-38.1	13.7	3.75e-02	0	54	0	60817408	39	5814
2026-01-09 10:40:48.54	111.51	11.71	-34.3	-38.0	14.2	3.26e-02	0	53	0	66060288	39	5752
2026-01-09 10:40:49.55	111.40	11.79	-34.4	-38.0	14.4	8.20e-02	0	54	0	71303168	39	5750
2026-01-09 10:40:50.56	111.30	11.87	-32.9	-37.8	13.4	2.12e-02	0	54	0	76546048	38	5929
2026-01-09 10:40:51.57	111.19	11.95	-34.9	-37.7	15.1	7.55e-02	0	54	0	82837504	40	5243
2026-01-09 10:40:52.58	111.08	12.03	-35.0	-37.7	15.1	1.16e-02	0	54	0	88080384	40	5271
2026-01-09 10:40:53.59	110.97	12.11	-35.0	-37.8	15.0	9.28e-03	0	54	0	93323264	41	5007
2026-01-09 10:40:54.60	110.87	12.19	-35.5	-37.8	15.6	5.81e-03	0	54	0	99614720	41	4988
2026-01-09 10:40:55.61	110.76	12.27	-35.5	-37.6	15.6	4.35e-03	0	54	0	104857600	41	4895
2026-01-09 10:40:56.62	110.65	12.35	-35.4	-37.6	15.7	1.57e-03	0	54	0	111149056	41	4923
2026-01-09 10:40:57.64	110.53	12.43	-35.7	-37.7	16.0	9.21e-04	0	54	0	116391936	42	4659
2026-01-09 10:40:58.64	110.42	12.51	-35.8	-37.7	15.9	3.13e-04	0	54	0	121634816	42	4677
2026-01-09 10:40:59.65	110.31	12.59	-35.9	-37.7	16.1	1.19e-04	0	54	0	127926272	42	4666
2026-01-09 10:41:00.66	110.20	12.67	-35.9	-37.6	16.2	1.43e-04	0	54	0	133169152	42	4599
2026-01-09 10:41:01.67	110.09	12.75	-35.8	-37.5	16.3	5.30e-04	0	54	0	139460608	42	4575
2026-01-09 10:41:02.68	109.97	12.83	-35.7	-37.4	16.5	1.60e-05	0	54	0	144703488	42	4505
2026-01-09 10:41:03.69	109.86	12.91	-35.3	-37.3	16.5	4.50e-06	0	54	0	150994944	42	4449
2026-01-09 10:41:04.70	109.74	12.99	-35.5	-37.2	16.7	1.10e-06	0	54	0	156237824	42	4411
2026-01-09 10:41:05.71	109.63	13.08	-35.6	-37.2	16.7	1.10e-06	0	54	0	161480704	42	4424
2026-01-09 10:41:06.72	109.51	13.16	-35.5	-37.2	16.8	1.10e-06	0	54	0	167772160	42	4394
2026-01-09 10:41:07.73	109.39	13.24	-35.5	-37.1	16.7	1.10e-06	0	54	0	173015040	42	4366
2026-01-09 10:41:08.73	109.28	13.32	-35.5	-37.2	16.7	1.02e-05	0	54	0	179306496	42	4400
2026-01-09 10:41:09.74	109.16	13.40	-35.5	-37.1	16.6	6.80e-06	0	54	0	184549376	42	4379
2026-01-09 10:41:10.75	109.04	13.49	-35.4	-37.1	16.8	1.14e-05	0	54	0	189792256	42	4343
2026-01-09 10:41:11.76	108.92	13.57	-35.4	-37.1	16.7	4.80e-05	0	54	0	196083712	41	4619
2026-01-09 10:41:12.77	108.80	13.65	-35.4	-37.1	16.6	1.37e-05	0	54	0	201326592	41	4612
2026-01-09 10:41:13.78	108.68	13.73	-35.3	-37.0	16.6	9.10e-06	0	54	0	207618048	41	4588
2026-01-09 10:41:14.79	108.55	13.82	-35.3	-37.0	16.3	2.74e-05	0	54	0	212860928	41	4581
2026-01-09 10:41:15.80	108.43	13.90	-35.4	-37.0	16.8	3.20e-05	0	54	0	218103808	41	4588
2026-01-09 10:41:16.81	108.31	13.98	-35.3	-37.0	16.9	5.70e-06	0	54	0	224395264	41	4550
2026-01-09 10:41:17.82	108.18	14.07	-35.3	-36.9	16.9	3.40e-06	0	54	0	229638144	41	4539
2026-01-09 10:41:18.83	108.06	14.15	-35.2	-36.8	17.1	0.00e+00	0	54	0	235929600	41	4476
2026-01-09 10:41:19.84	107.93	14.24	-35.2	-36.8	17.1	1.10e-06	0	54	0	241172480	41	4467
2026-01-09 10:41:20.85	107.81	14.32	-35.2	-36.7	17.1	2.20e-06	0	54	0	247463936	41	4440
2026-01-09 10:41:21.86	107.68	14.40	-35.2	-36.7	17.1	5.70e-06	0	55	0	252706816	41	4433
2026-01-09 10:41:22.86	107.55	14.49	-35.1	-36.7	17.1	5.70e-06	0	54	0	258998272	41	4393
2026-01-09 10:41:23.88	107.43	14.57	-35.1	-36.7	17.2	9.10e-06	0	54	0	264241152	41	4416
2026-01-09 10:41:24.89	107.30	14.66	-35.1	-36.7	17.3	2.20e-06	0	55	0	269484032	41	4393
2026-01-09 10:41:25.89	107.17	14.74	-35.0	-36.6	17.3	0.00e+00	0	55	0	275775488	41	4357
2026-01-09 10:41:26.90	107.04	14.83	-35.0	-36.6	17.4	0.00e+00	0	55	0	281018368	41	4354
2026-01-09 10:41:27.91	106.91	14.91	-35.0	-36.5	17.4	3.40e-06	0	54	0	286261248	41	4317
2026-01-09 10:41:28.92	106.77	15.00	-34.9	-36.4	17.5	0.00e+00	0	54	0	292552704	41	4281
2026-01-09 10:41:29.93	106.64	15.08	-34.9	-36.4	17.6	0.00e+00	0	54	0	297795584	41	4245
2026-01-09 10:41:30.94	106.51	15.17	-34.8	-36.3	17.7	0.00e+00	0	55	0	304087040	41	4228
2026-01-09 10:41:31.95	106.37	15.25	-34.8	-36.3	17.6	0.00e+00	0	55	0	309329920	41	4228
2026-01-09 10:41:32.96	106.24	15.34	-34.8	-36.3	17.6	8.00e-06	0	54	0	314572800	41	4238
2026-01-09 10:41:33.97	106.10	15.42	-34.8	-36.3	17.6	0.00e+00	0	54	0	320864256	41	4232
2026-01-09 10:41:34.98	105.96	15.51	-34.8	-36.3	17.6	0.00e+00	0	55	0	326107136	41	4227
2026-01-09 10:41:35.98	105.83	15.59	-34.8	-36.3	17.5	0.00e+00	0	55	0	332398592	41	4230
2026-01-09 10:41:36.99	105.69	15.68	-34.8	-36.3	17.5	0.00e+00	0	55	0	337641472	41	4225
2026-01-09 10:41:38.01	105.55	15.77	-34.8	-36.3	17.6	0.00e+00	0	54	0	343932928	41	4225
2026-01-09 10:41:39.02	105.41	15.86	-34.8	-36.3	17.7	1.10e-06	0	54	0	349175808	41	4202
2026-01-09 10:41:40.03	105.27	15.94	-34.7	-36.3	17.7	0.00e+00	0	55	0	355467264	41	4204
2026-01-09 10:41:41.04	105.13	16.03	-34.7	-36.2	17.7	0.00e+00	0	55	0	360710144	41	4171
2026-01-09 10:41:42.05	104.98	16.12	-34.7	-36.2	17.8	0.00e+00	0	55	0	365953024	41	4151
2026-01-09 10:41:43.05	104.84	16.20	-34.6	-36.1	17.9	0.00e+00	0	55	0	372244480	41	4128
2026-01-09 10:41:44.06	104.70	16.29	-34.6	-36.1	17.8	0.00e+00	0	55	0	377487360	41	4141
2026-01-09 10:41:45.07	104.55	16.38	-34.6	-36.0	17.9	0.00e+00	0	55	0	383778816	41	4089
2026-01-09 10:41:46.08	104.41	16.46	-34.7	-36.1	17.9	0.00e+00	0	55	0	389021696	41	4134
2026-01-09 10:41:47.09	104.26	16.55	-34.6	-36.1	18.0	0.00e+00	0	55	0	394264576	41	4102
2026-01-09 10:41:48.10	104.11	16.64	-34.6	-36.1	18.0	0.00e+00	0	55	0	400556032	41	4101
2026-01-09 10:41:49.11	103.96	16.73	-34.7	-36.1	17.9	0.00e+00	0	55	0	405798912	41	4134
2026-01-09 10:41:50.12	103.81	16.81	-34.6	-36.1	17.8	0.00e+00	0	55	0	412090368	41	4108
2026-01-09 10:41:51.13	103.66	16.90	-34.6	-36.1	17.9	0.00e+00	0	55	0	417333248	41	4106
2026-01-09 10:41:52.14	103.51	16.99	-34.6	-36.0	18.0	0.00e+00	0	55	0	422576128	41	4098
2026-01-09 10:41:53.15	103.36	17.08	-34.5	-36.1	17.9	0.00e+00	0	55	0	428867584	40	4352
2026-01-09 10:41:54.16	103.21	17.17	-34.6	-36.1	17.9	0.00e+00	0	55	0	434110464	40	4354
2026-01-09 10:41:55.17	103.05	17.26	-34.5	-36.0	17.9	0.00e+00	0	55	0	440401920	40	4327
2026-01-09 10:41:56.18	102.90	17.34	-34.5	-36.0	17.9	0.00e+00	0	55	0	445644800	40	4304
2026-01-09 10:41:57.19	102.74	17.43	-34.4	-35.9	17.8	0.00e+00	0	55	0	451936256	40	4264
2026-01-09 10:41:58.20	102.59	17.52	-34.4	-35.8	18.2	0.00e+00	0	55	0	457179136	40	4208
2026-01-09 10:41:59.21	102.43	17.61	-34.3	-35.8	18.0	1.10e-06	0	55	0	462422016	40	4197
2026-01-09 10:42:00.22	102.27	17.70	-34.3	-35.7	18.3	0.00e+00	0	55	0	468713472	40	4163
2026-01-09 10:42:01.23	102.11	17.79	-34.2	-35.6	18.4	0.00e+00	0	55	0	473956352	40	4136
2026-01-09 10:42:02.24	101.95	17.88	-34.2	-35.5	18.5	0.00e+00	0	55	0	480247808	40	4090
2026-01-09 10:42:03.25	101.79	17.97	-34.1	-35.5	18.5	0.00e+00	0	55	0	485490688	40	4086
2026-01-09 10:42:04.26	101.62	18.06	-34.2	-35.6	18.5	0.00e+00	0	55	0	490733568	40	4107
2026-01-09 10:42:05.27	101.46	18.15	-34.2	-35.6	18.5	0.00e+00	0	55	0	497025024	40	4137
2026-01-09 10:42:06.27	101.30	18.24	-34.3	-35.7	18.4	0.00e+00	0	55	0	502267904	40	4153
2026-01-09 10:42:07.28	101.13	18.32	-34.3	-35.7	18.4	0.00e+00	0	55	0	508559360	40	4157
2026-01-09 10:42:08.29	100.97	18.41	-34.3	-35.7	18.4	0.00e+00	0	55	0	513802240	40	4156
2026-01-09 10:42:09.30	100.80	18.50	-34.2	-35.7	18.4	0.00e+00	0	55	0	519045120	40	4146
2026-01-09 10:42:10.31	100.63	18.59	-34.2	-35.6	18.5	0.00e+00	0	55	0	525336576	40	4121
2026-01-09 10:42:11.32	100.46	18.68	-34.2	-35.6	18.5	0.00e+00	0	55	0	530579456	40	4103
2026-01-09 10:42:12.33	100.29	18.77	-34.1	-35.5	18.5	0.00e+00	0	55	0	536870912	40	4087
2026-01-09 10:42:13.34	100.12	18.86	-34.0	-35.4	18.7	0.00e+00	0	55	0	542113792	40	4014
2026-01-09 10:42:14.35	99.95	18.95	-34.0	-35.4	18.8	0.00e+00	0	55	0	548405248	39	4256
2026-01-09 10:42:15.36	99.77	19.04	-34.0	-35.3	18.8	0.00e+00	0	55	0	553648128	39	4223
2026-01-09 10:42:16.37	99.60	19.13	-33.9	-35.3	18.9	0.00e+00	0	55	0	559939584	39	4203
2026-01-09 10:42:17.38	99.42	19.22	-33.9	-35.2	18.9	0.00e+00	0	55	0	565182464	39	4181
2026-01-09 10:42:18.38	99.25	19.31	-33.9	-35.3	18.8	0.00e+00	0	55	0	570425344	39	4220
2026-01-09 10:42:19.39	99.07	19.40	-34.0	-35.4	18.8	0.00e+00	0	55	0	576716800	39	4252
2026-01-09 10:42:20.41	98.89	19.50	-34.1	-35.5	18.6	0.00e+00	0	55	0	581959680	39	4326
2026-01-09 10:42:21.42	98.71	19.59	-34.2	-35.6	18.6	0.00e+00	0	55	0	588251136	39	4350
2026-01-09 10:42:22.43	98.53	19.68	-34.2	-35.6	18.5	0.00e+00	0	55	0	593494016	39	4364
2026-01-09 10:42:23.44	98.35	19.77	-34.2	-35.5	18.6	0.00e+00	0	55	0	598736896	39	4338
2026-01-09 10:42:24.44	98.17	19.86	-34.1	-35.5	18.6	0.00e+00	0	55	0	605028352	39	4335
2026-01-09 10:42:25.46	97.98	19.95	-34.1	-35.5	18.6	0.00e+00	0	55	0	610271232	39	4327
2026-01-09 10:42:26.47	97.80	20.04	-34.1	-35.5	18.6	0.00e+00	0	55	0	616562688	39	4338
2026-01-09 10:42:27.48	97.61	20.13	-34.1	-35.5	18.7	0.00e+00	0	55	0	621805568	39	4303
2026-01-09 10:42:28.49	97.42	20.22	-34.1	-35.5	18.7	0.00e+00	0	55	0	627048448	39	4305
2026-01-09 10:42:29.50	97.23	20.31	-34.0	-35.4	18.7	0.00e+00	0	55	0	633339904	39	4279
2026-01-09 10:42:30.51	97.04	20.40	-34.1	-35.5	18.6	0.00e+00	0	55	0	638582784	39	4299
2026-01-09 10:42:31.52	96.85	20.49	-34.1	-35.6	18.6	0.00e+00	0	55	0	644874240	39	4345
2026-01-09 10:42:32.53	96.66	20.58	-34.1	-35.5	18.7	0.00e+00	0	55	0	650117120	39	4303
2026-01-09 10:42:33.53	96.47	20.67	-34.0	-35.4	18.7	0.00e+00	0	56	0	656408576	39	4267
2026-01-09 10:42:34.54	96.28	20.76	-33.9	-35.3	18.8	0.00e+00	0	56	0	661651456	39	4231
2026-01-09 10:42:35.55	96.08	20.85	-34.0	-35.4	18.7	0.00e+00	0	55	0	666894336	39	4261
2026-01-09 10:42:36.56	95.88	20.94	-34.0	-35.4	18.7	0.00e+00	0	55	0	673185792	39	4280
2026-01-09 10:42:37.57	95.69	21.03	-34.0	-35.4	18.7	0.00e+00	0	56	0	678428672	39	4283
2026-01-09 10:42:38.58	95.49	21.12	-34.0	-35.4	18.7	0.00e+00	0	56	0	684720128	39	4244
2026-01-09 10:42:39.59	95.29	21.21	-33.8	-35.2	18.9	0.00e+00	0	56	0	689963008	39	4176
2026-01-09 10:42:40.60	95.09	21.30	-33.8	-35.1	19.0	0.00e+00	0	56	0	695205888	39	4123
2026-01-09 10:42:41.61	94.88	21.39	-33.7	-35.0	19.0	0.00e+00	0	56	0	701497344	39	4089
2026-01-09 10:42:42.62	94.68	21.48	-33.7	-35.0	19.0	0.00e+00	0	56	0	706740224	39	4086
2026-01-09 10:42:43.63	94.48	21.57	-33.6	-35.0	19.0	0.00e+00	0	56	0	713031680	39	4076
2026-01-09 10:42:44.64	94.27	21.66	-33.6	-35.0	19.1	0.00e+00	0	55	0	718274560	39	4067
2026-01-09 10:42:45.65	94.06	21.75	-33.6	-35.0	19.1	0.00e+00	0	55	0	723517440	39	4061
2026-01-09 10:42:46.66	93.85	21.84	-33.7	-35.0	19.0	0.00e+00	0	56	0	729808896	39	4083
2026-01-09 10:42:47.67	93.64	21.93	-33.6	-34.9	19.1	0.00e+00	0	56	0	735051776	39	4046
2026-01-09 10:42:48.68	93.43	22.02	-33.5	-34.9	19.1	0.00e+00	0	56	0	741343232	39	4014
2026-01-09 10:42:49.69	93.22	22.11	-33.5	-34.8	19.2	0.00e+00	0	56	0	746586112	38	4215
2026-01-09 10:42:50.70	93.01	22.20	-33.5	-34.8	19.2	0.00e+00	0	56	0	752877568	38	4214
2026-01-09 10:42:51.71	92.79	22.29	-33.4	-34.8	19.2	0.00e+00	0	56	0	758120448	38	4194
2026-01-09 10:42:52.71	92.58	22.38	-33.5	-34.8	19.2	0.00e+00	0	56	0	764411904	38	4212
2026-01-09 10:42:53.72	92.36	22.47	-33.4	-34.8	19.2	0.00e+00	0	56	0	769654784	38	4195
2026-01-09 10:42:54.73	92.14	22.56	-33.4	-34.8	19.2	0.00e+00	0	56	0	774897664	38	4200
2026-01-09 10:42:55.74	91.92	22.65	-33.5	-34.8	19.2	0.00e+00	0	55	0	781189120	38	4224
2026-01-09 10:42:56.75	91.70	22.74	-33.5	-34.9	19.1	0.00e+00	0	56	0	786432000	38	4257
2026-01-09 10:42:57.76	91.48	22.82	-33.6	-34.9	19.0	0.00e+00	0	56	0	791674880	38	4284
2026-01-09 10:42:58.77	91.26	22.91	-33.6	-35.0	19.0	0.00e+00	0	56	0	797966336	38	4302
2026-01-09 10:42:59.78	91.03	23.00	-33.6	-34.9	19.0	0.00e+00	0	56	0	803209216	38	4284
2026-01-09 10:43:00.79	90.81	23.09	-33.6	-35.0	19.0	0.00e+00	0	55	0	809500672	38	4305
2026-01-09 10:43:01.80	90.58	23.18	-33.6	-35.0	19.0	0.00e+00	0	56	0	814743552	38	4301
2026-01-09 10:43:02.81	90.35	23.26	-33.6	-34.9	19.1	0.00e+00	0	56	0	819986432	38	4276
2026-01-09 10:43:03.82	90.12	23.35	-33.5	-34.8	19.1	0.00e+00	0	56	0	826277888	38	4234
2026-01-09 10:43:04.83	89.89	23.44	-33.4	-34.7	19.2	0.00e+00	0	56	0	831520768	38	4185
2026-01-09 10:43:05.84	89.66	23.53	-33.4	-34.7	19.3	0.00e+00	0	56	0	837812224	38	4185
2026-01-09 10:43:06.85	89.42	23.61	-33.4	-34.7	19.3	0.00e+00	0	56	0	843055104	38	4175
2026-01-09 10:43:07.86	89.19	23.70	-33.4	-34.7	19.3	0.00e+00	0	56	0	849346560	38	4169
2026-01-09 10:43:08.87	88.95	23.79	-33.4	-34.8	19.2	0.00e+00	0	56	0	854589440	38	4210
2026-01-09 10:43:09.88	88.72	23.87	-33.5	-34.9	19.1	0.00e+00	0	56	0	860880896	38	4246
2026-01-09 10:43:10.89	88.48	23.96	-33.6	-35.0	19.1	0.00e+00	0	56	0	866123776	38	4294
2026-01-09 10:43:11.90	88.24	24.04	-33.6	-34.9	19.1	0.00e+00	0	56	0	871366656	38	4290
2026-01-09 10:43:12.91	88.00	24.13	-33.6	-34.9	19.1	0.00e+00	0	56	0	877658112	38	4283
2026-01-09 10:43:13.92	87.75	24.21	-33.5	-34.8	19.2	0.00e+00	0	56	0	882900992	38	4221
2026-01-09 10:43:14.93	87.51	24.30	-33.4	-34.7	19.3	0.00e+00	0	56	0	889192448	38	4174
2026-01-09 10:43:15.94	87.26	24.38	-33.3	-34.7	19.4	0.00e+00	0	56	0	894435328	38	4149
2026-01-09 10:43:16.94	87.02	24.47	-33.3	-34.7	19.4	0.00e+00	0	56	0	899678208	38	4155
2026-01-09 10:43:17.95	86.77	24.55	-33.3	-34.6	19.4	0.00e+00	0	56	0	905969664	38	4140
2026-01-09 10:43:18.96	86.52	24.63	-33.3	-34.6	19.4	0.00e+00	0	56	0	911212544	38	4141
2026-01-09 10:43:19.97	86.27	24.72	-33.3	-34.7	19.4	0.00e+00	0	56	0	917504000	38	4153
2026-01-09 10:43:20.98	86.02	24.80	-33.3	-34.6	19.5	0.00e+00	0	56	0	922746880	38	4100
2026-01-09 10:43:21.99	85.76	24.88	-33.2	-34.5	19.5	0.00e+00	0	56	0	927989760	38	4090
2026-01-09 10:43:23.00	85.51	24.96	-33.2	-34.5	19.5	0.00e+00	0	56	0	934281216	38	4093
2026-01-09 10:43:24.01	85.25	25.05	-33.2	-34.6	19.5	0.00e+00	0	56	0	939524096	38	4105
2026-01-09 10:43:25.02	85.00	25.13	-33.2	-34.5	19.5	0.00e+00	0	56	0	945815552	38	4078
2026-01-09 10:43:26.03	84.74	25.21	-33.1	-34.4	19.7	0.00e+00	0	56	0	951058432	38	4040
2026-01-09 10:43:27.04	84.48	25.29	-33.1	-34.3	19.7	0.00e+00	0	56	0	957349888	38	3999
2026-01-09 10:43:28.05	84.22	25.37	-33.1	-34.3	19.7	0.00e+00	0	56	0	962592768	38	3996
2026-01-09 10:43:29.06	83.95	25.45	-33.1	-34.4	19.7	0.00e+00	0	56	0	967835648	38	4014
2026-01-09 10:43:30.07	83.69	25.53	-33.1	-34.4	19.7	0.00e+00	0	56	0	974127104	38	4021
2026-01-09 10:43:31.08	83.42	25.61	-33.1	-34.4	19.7	0.00e+00	0	56	0	979369984	38	4019
2026-01-09 10:43:32.09	83.16	25.69	-33.1	-34.4	19.7	0.00e+00	0	56	0	985661440	38	4022
2026-01-09 10:43:33.10	82.89	25.76	-33.1	-34.4	19.7	0.00e+00	0	56	0	990904320	38	4032
2026-01-09 10:43:34.11	82.62	25.84	-33.1	-34.5	19.6	0.00e+00	0	56	0	996147200	38	4052
2026-01-09 10:43:35.12	82.35	25.92	-33.1	-34.4	19.6	0.00e+00	0	56	0	1002438656	38	4041
2026-01-09 10:43:36.13	82.08	26.00	-33.1	-34.4	19.7	0.00e+00	0	56	0	1007681536	38	4011
2026-01-09 10:43:37.14	81.80	26.07	-33.0	-34.3	19.7	0.00e+00	0	56	0	1013972992	38	3990
2026-01-09 10:43:38.14	81.53	26.15	-33.0	-34.3	19.8	0.00e+00	0	56	0	1019215872	38	3964
2026-01-09 10:43:39.16	81.25	26.22	-33.0	-34.3	19.7	0.00e+00	0	56	0	1024458752	38	3990
2026-01-09 10:43:40.17	80.97	26.30	-33.0	-34.3	19.8	0.00e+00	0	56	0	1030750208	38	3976
2026-01-09 10:43:41.18	80.70	26.37	-33.0	-34.3	19.7	0.00e+00	0	56	0	1035993088	38	3995
2026-01-09 10:43:42.19	80.42	26.44	-33.1	-34.4	19.6	0.00e+00	0	56	0	1042284544	38	4020
2026-01-09 10:43:43.20	80.13	26.52	-33.2	-34.5	19.5	0.00e+00	0	56	0	1047527424	38	4085
2026-01-09 10:43:44.21	79.85	26.59	-33.3	-34.6	19.4	0.00e+00	0	56	0	1053818880	38	4128
2026-01-09 10:43:45.22	79.57	26.66	-33.3	-34.6	19.5	0.00e+00	0	56	0	1059061760	38	4124
2026-01-09 10:43:46.22	79.29	26.73	-33.1	-34.4	19.6	0.00e+00	0	56	0	1065353216	38	4037
2026-01-09 10:43:47.23	79.00	26.80	-33.0	-34.3	19.8	0.00e+00	0	56	0	1070596096	38	3962
2026-01-09 10:43:48.24	78.71	26.87	-32.9	-34.1	19.9	0.00e+00	0	56	0	1075838976	37	4130
2026-01-09 10:43:49.25	78.42	26.94	-32.9	-34.2	19.9	0.00e+00	0	56	0	1082130432	37	4160
2026-01-09 10:43:50.26	78.13	27.01	-33.0	-34.2	19.8	0.00e+00	0	56	0	1087373312	37	4192
2026-01-09 10:43:51.27	77.84	27.08	-33.0	-34.3	19.8	0.00e+00	0	56	0	1093664768	37	4196
2026-01-09 10:43:52.28	77.55	27.15	-33.0	-34.2	19.8	0.00e+00	0	56	0	1098907648	37	4185
2026-01-09 10:43:53.29	77.25	27.21	-32.9	-34.2	19.9	0.00e+00	0	56	0	1104150528	37	4177
2026-01-09 10:43:54.30	76.96	27.28	-33.0	-34.2	19.9	0.00e+00	0	56	0	1110441984	37	4183
2026-01-09 10:43:55.31	76.66	27.34	-32.9	-34.2	19.9	0.00e+00	0	56	0	1115684864	37	4168
2026-01-09 10:43:56.32	76.37	27.41	-32.8	-34.0	20.1	0.00e+00	0	56	0	1121976320	37	4084
2026-01-09 10:43:57.33	76.07	27.47	-32.7	-33.9	20.1	0.00e+00	0	56	0	1127219200	37	4049
2026-01-09 10:43:58.34	75.77	27.54	-32.7	-33.9	20.1	0.00e+00	0	56	0	1132462080	37	4043
2026-01-09 10:43:59.34	75.47	27.60	-32.7	-34.0	20.1	0.00e+00	0	56	0	1138753536	37	4077
2026-01-09 10:44:00.35	75.17	27.66	-32.8	-34.0	20.1	0.00e+00	0	56	0	1143996416	37	4080
2026-01-09 10:44:01.36	74.86	27.72	-32.7	-34.0	20.1	0.00e+00	0	56	0	1150287872	37	4062
2026-01-09 10:44:02.37	74.56	27.78	-32.7	-34.0	20.1	0.00e+00	0	56	0	1155530752	37	4052
2026-01-09 10:44:03.38	74.25	27.84	-32.6	-33.9	20.2	0.00e+00	0	56	0	1161822208	37	4016
2026-01-09 10:44:04.39	73.95	27.90	-32.5	-33.8	20.3	0.00e+00	0	56	0	1167065088	37	3971
2026-01-09 10:44:05.40	73.64	27.96	-32.6	-33.8	20.3	0.00e+00	0	56	0	1172307968	37	3994
2026-01-09 10:44:06.41	73.33	28.01	-32.6	-33.9	20.3	0.00e+00	0	56	0	1178599424	37	4013
2026-01-09 10:44:07.42	73.02	28.07	-32.6	-33.9	20.3	0.00e+00	0	56	0	1183842304	37	4022
2026-01-09 10:44:08.43	72.71	28.13	-32.6	-33.9	20.3	0.00e+00	0	56	0	1190133760	37	4022
2026-01-09 10:44:09.44	72.39	28.18	-32.6	-33.9	20.3	0.00e+00	0	56	0	1195376640	37	4020
2026-01-09 10:44:10.45	72.08	28.23	-32.6	-33.8	20.3	0.00e+00	0	56	0	1200619520	37	4003
2026-01-09 10:44:11.46	71.77	28.29	-32.6	-33.8	20.3	0.00e+00	0	56	0	1206910976	37	3988
2026-01-09 10:44:12.47	71.45	28.34	-32.5	-33.7	20.4	0.00e+00	0	56	0	1212153856	37	3948
2026-01-09 10:44:13.48	71.13	28.39	-32.4	-33.6	20.6	0.00e+00	0	56	0	1218445312	36	4109
2026-01-09 10:44:14.49	70.82	28.44	-32.4	-33.6	20.6	0.00e+00	0	56	0	1223688192	36	4105
2026-01-09 10:44:15.50	70.50	28.49	-32.5	-33.7	20.4	0.00e+00	0	56	0	1228931072	36	4179
2026-01-09 10:44:16.51	70.18	28.54	-32.5	-33.8	20.3	0.00e+00	0	56	0	1235222528	36	4199
2026-01-09 10:44:17.52	69.86	28.59	-32.5	-33.8	20.4	0.00e+00	0	56	0	1240465408	36	4197
2026-01-09 10:44:18.52	69.54	28.63	-32.5	-33.7	20.4	0.00e+00	0	56	0	1246756864	36	4180
2026-01-09 10:44:19.53	69.22	28.68	-32.4	-33.6	20.5	0.00e+00	0	56	0	1251999744	36	4130
2026-01-09 10:44:20.54	68.89	28.72	-32.3	-33.5	20.6	0.00e+00	0	56	0	1258291200	36	4085
2026-01-09 10:44:21.56	68.57	28.77	-32.4	-33.6	20.6	0.00e+00	0	56	0	1263534080	36	4106
2026-01-09 10:44:22.57	68.24	28.81	-32.5	-33.7	20.5	0.00e+00	0	56	0	1269825536	36	4175
2026-01-09 10:44:23.58	67.92	28.85	-32.5	-33.7	20.4	0.00e+00	0	56	0	1275068416	36	4187
2026-01-09 10:44:24.59	67.59	28.89	-32.4	-33.6	20.5	0.00e+00	0	56	0	1280311296	36	4125
2026-01-09 10:44:25.60	67.26	28.93	-32.3	-33.5	20.6	0.00e+00	0	56	0	1286602752	36	4084
2026-01-09 10:44:26.61	66.93	28.97	-32.4	-33.6	20.6	0.00e+00	0	56	0	1291845632	36	4111
2026-01-09 10:44:27.62	66.60	29.01	-32.6	-33.8	20.4	0.00e+00	0	56	0	1298137088	36	4212
2026-01-09 10:44:28.63	66.27	29.05	-32.6	-33.8	20.3	0.00e+00	0	56	0	1303379968	36	4241
2026-01-09 10:44:29.64	65.94	29.08	-32.6	-33.8	20.4	0.00e+00	0	56	0	1308622848	36	4220
2026-01-09 10:44:30.65	65.61	29.12	-32.4	-33.7	20.5	0.00e+00	0	56	0	1314914304	36	4152
2026-01-09 10:44:31.66	65.28	29.15	-32.3	-33.5	20.6	0.00e+00	0	56	0	1320157184	36	4088
2026-01-09 10:44:32.67	64.95	29.19	-32.2	-33.4	20.8	0.00e+00	0	56	0	1326448640	36	4024
2026-01-09 10:44:33.67	64.62	29.22	-32.2	-33.4	20.7	0.00e+00	0	56	0	1331691520	36	4033
2026-01-09 10:44:34.68	64.28	29.25	-32.4	-33.6	20.6	0.00e+00	0	56	0	1336934400	36	4099
2026-01-09 10:44:35.69	63.95	29.28	-32.5	-33.7	20.5	0.00e+00	0	56	0	1343225856	36	4156
2026-01-09 10:44:36.70	63.61	29.31	-32.5	-33.7	20.5	0.00e+00	0	56	0	1348468736	36	4157
2026-01-09 10:44:37.71	63.28	29.33	-32.3	-33.5	20.7	0.00e+00	0	56	0	1354760192	36	4089
2026-01-09 10:44:38.72	62.94	29.36	-32.2	-33.4	20.8	0.00e+00	0	56	0	1360003072	36	4011
2026-01-09 10:44:39.73	62.60	29.39	-32.1	-33.2	20.9	0.00e+00	0	56	0	1366294528	36	3948
2026-01-09 10:44:40.74	62.27	29.41	-32.1	-33.2	20.9	0.00e+00	0	56	0	1371537408	36	3956
2026-01-09 10:44:41.75	61.93	29.43	-32.1	-33.3	20.9	0.00e+00	0	56	0	1376780288	36	3971
2026-01-09 10:44:42.76	61.59	29.46	-32.2	-33.4	20.8	0.00e+00	0	56	0	1383071744	36	4017
2026-01-09 10:44:43.76	61.25	29.48	-32.2	-33.4	20.7	0.00e+00	0	56	0	1388314624	36	4050
2026-01-09 10:44:44.77	60.92	29.50	-32.4	-33.6	20.6	0.00e+00	0	56	0	1394606080	36	4115
2026-01-09 10:44:45.78	60.58	29.52	-32.3	-33.6	20.6	0.00e+00	0	56	0	1399848960	36	4111
2026-01-09 10:44:46.79	60.24	29.53	-32.2	-33.4	20.7	0.00e+00	0	56	0	1405091840	36	4033
2026-01-09 10:44:47.80	59.89	29.55	-32.1	-33.3	20.8	0.00e+00	0	56	0	1411383296	36	3982
2026-01-09 10:44:48.81	59.55	29.57	-32.1	-33.3	20.9	0.00e+00	0	56	0	1416626176	36	3971
2026-01-09 10:44:49.82	59.21	29.58	-32.2	-33.4	20.8	0.00e+00	0	56	0	1422917632	36	4038
2026-01-09 10:44:50.83	58.87	29.59	-32.3	-33.5	20.7	0.00e+00	0	56	0	1428160512	36	4077
2026-01-09 10:44:51.84	58.53	29.61	-32.2	-33.4	20.8	0.00e+00	0	56	0	1433403392	36	4031
2026-01-09 10:44:52.85	58.19	29.62	-32.0	-33.2	21.0	0.00e+00	0	56	0	1439694848	36	3934
2026-01-09 10:44:53.86	57.85	29.63	-31.3	-32.5	20.9	0.00e+00	0	56	0	1444937728	34	4086
2026-01-09 10:44:54.87	57.50	29.64	-31.4	-32.6	20.9	0.00e+00	0	56	0	1451229184	34	4105
2026-01-09 10:44:55.88	57.16	29.64	-31.4	-32.6	20.8	0.00e+00	0	56	0	1456472064	34	4112
2026-01-09 10:44:56.89	56.82	29.65	-31.4	-32.6	20.8	0.00e+00	0	56	0	1462763520	34	4105
2026-01-09 10:44:57.90	56.48	29.65	-31.4	-32.6	20.8	0.00e+00	0	56	0	1468006400	34	4122
2026-01-09 10:44:58.91	56.13	29.66	-31.5	-32.7	20.7	0.00e+00	0	56	0	1473249280	34	4159
2026-01-09 10:44:59.92	55.79	29.66	-31.6	-32.8	20.6	0.00e+00	0	56	0	1479540736	34	4207
2026-01-09 10:45:00.93	55.45	29.66	-31.6	-32.8	20.6	0.00e+00	0	56	0	1484783616	34	4230
2026-01-09 10:45:01.94	55.10	29.66	-31.6	-32.8	20.6	0.00e+00	0	56	0	1491075072	34	4211
2026-01-09 10:45:02.95	54.76	29.66	-31.6	-32.8	20.7	0.00e+00	0	56	0	1496317952	34	4201
2026-01-09 10:45:03.96	54.42	29.66	-31.5	-32.7	20.7	0.00e+00	0	56	0	1501560832	34	4191
2026-01-09 10:45:04.97	54.07	29.66	-31.5	-32.7	20.8	0.00e+00	0	56	0	1507852288	34	4164
2026-01-09 10:45:05.98	53.73	29.66	-31.5	-32.7	20.7	0.00e+00	0	56	0	1513095168	34	4167
2026-01-09 10:45:06.99	53.39	29.65	-31.6	-32.8	20.7	0.00e+00	0	56	0	1519386624	34	4212
2026-01-09 10:45:08.00	53.05	29.64	-31.6	-32.8	20.6	0.00e+00	0	56	0	1524629504	34	4230
2026-01-09 10:45:09.01	52.70	29.64	-31.6	-32.8	20.7	0.00e+00	0	56	0	1529872384	34	4218
2026-01-09 10:45:10.02	52.36	29.63	-31.6	-32.8	20.6	0.00e+00	0	56	0	1536163840	34	4214
2026-01-09 10:45:11.03	52.02	29.62	-31.6	-32.8	20.7	0.00e+00	0	56	0	1541406720	34	4209
2026-01-09 10:45:12.04	51.68	29.61	-31.6	-32.8	20.7	0.00e+00	0	56	0	1547698176	34	4195
2026-01-09 10:45:13.05	51.34	29.60	-31.6	-32.8	20.6	0.00e+00	0	56	0	1552941056	34	4230
2026-01-09 10:45:14.06	50.99	29.58	-31.7	-33.0	20.5	0.00e+00	0	56	0	1559232512	34	4298
2026-01-09 10:45:15.07	50.65	29.57	-31.8	-33.1	20.3	0.00e+00	0	56	0	1564475392	34	4356
2026-01-09 10:45:16.08	50.31	29.55	-31.8	-33.1	20.4	0.00e+00	0	56	0	1570766848	34	4342
2026-01-09 10:45:17.08	49.98	29.54	-31.8	-33.0	20.4	0.00e+00	0	56	0	1576009728	34	4316
2026-01-09 10:45:18.09	49.64	29.52	-31.6	-32.9	20.5	0.00e+00	0	56	0	1581252608	34	4249
2026-01-09 10:45:19.10	49.30	29.50	-31.5	-32.7	20.7	0.00e+00	0	56	0	1587544064	34	4176
2026-01-09 10:45:20.11	48.96	29.48	-31.4	-32.6	20.9	0.00e+00	0	56	0	1592786944	34	4110
2026-01-09 10:45:21.12	48.62	29.46	-31.3	-32.5	20.9	0.00e+00	0	56	0	1599078400	34	4088
2026-01-09 10:45:22.13	48.28	29.44	-31.4	-32.6	20.8	0.00e+00	0	56	0	1604321280	34	4127
2026-01-09 10:45:23.14	47.94	29.42	-31.5	-32.7	20.8	0.00e+00	0	56	0	1609564160	34	4159
2026-01-09 10:45:24.15	47.61	29.39	-31.5	-32.7	20.7	0.00e+00	0	56	0	1615855616	34	4190
2026-01-09 10:45:25.16	47.27	29.37	-31.6	-32.8	20.6	0.00e+00	0	56	0	1621098496	34	4225
2026-01-09 10:45:26.17	46.93	29.34	-31.6	-32.8	20.6	0.00e+00	0	56	0	1627389952	34	4240
2026-01-09 10:45:27.18	46.60	29.31	-31.7	-32.9	20.5	0.00e+00	0	56	0	1632632832	34	4273
2026-01-09 10:45:28.19	46.26	29.28	-31.8	-33.0	20.5	0.00e+00	0	56	0	1637875712	34	4320
2026-01-09 10:45:29.20	45.93	29.25	-31.8	-33.1	20.4	0.00e+00	0	56	0	1644167168	34	4347
2026-01-09 10:45:30.20	45.60	29.22	-31.8	-33.0	20.4	0.00e+00	0	56	0	1649410048	34	4337
2026-01-09 10:45:31.21	45.26	29.19	-31.9	-33.0	21.1	0.00e+00	0	56	0	1655701504	34	4301
2026-01-09 10:45:32.22	44.93	29.16	-31.9	-32.9	21.2	0.00e+00	0	56	0	1660944384	34	4287
2026-01-09 10:45:33.23	44.60	29.13	-32.0	-33.1	21.1	0.00e+00	0	56	0	1667235840	34	4343
2026-01-09 10:45:34.24	44.27	29.09	-32.1	-33.2	21.0	0.00e+00	0	56	0	1672478720	34	4417
2026-01-09 10:45:35.25	43.94	29.06	-32.2	-33.2	20.9	0.00e+00	0	56	0	1677721600	34	4437
2026-01-09 10:45:36.26	43.61	29.02	-32.1	-33.2	20.9	0.00e+00	0	56	0	1684013056	34	4429
2026-01-09 10:45:37.27	43.28	28.98	-32.1	-33.2	20.9	0.00e+00	0	56	0	1689255936	34	4415
2026-01-09 10:45:38.28	42.95	28.94	-32.1	-33.2	21.0	0.00e+00	0	56	0	1695547392	34	4405
2026-01-09 10:45:39.29	42.62	28.90	-32.1	-33.2	20.9	0.00e+00	0	56	0	1700790272	34	4415
2026-01-09 10:45:40.30	42.30	28.86	-32.1	-33.2	20.9	0.00e+00	0	56	0	1706033152	34	4419
2026-01-09 10:45:41.31	41.97	28.82	-32.2	-33.3	20.8	0.00e+00	0	56	0	1712324608	35	4218
2026-01-09 10:45:42.32	41.65	28.78	-32.3	-33.4	20.8	0.00e+00	0	56	0	1717567488	35	4255
2026-01-09 10:45:43.33	41.32	28.73	-32.3	-33.4	20.8	0.00e+00	0	56	0	1723858944	35	4254
2026-01-09 10:45:44.34	41.00	28.69	-32.2	-33.3	20.9	0.00e+00	0	56	0	1729101824	35	4218
2026-01-09 10:45:45.35	40.68	28.64	-32.1	-33.2	20.9	0.00e+00	0	56	0	1734344704	35	4184
2026-01-09 10:45:46.36	40.36	28.60	-32.1	-33.2	20.9	0.00e+00	0	56	0	1740636160	35	4170
2026-01-09 10:45:47.37	40.04	28.55	-32.1	-33.1	21.0	0.00e+00	0	56	0	1745879040	35	4142
2026-01-09 10:45:48.38	39.72	28.50	-32.0	-33.1	21.1	0.00e+00	0	56	0	1752170496	35	4118
2026-01-09 10:45:49.39	39.40	28.45	-31.9	-33.0	21.1	0.00e+00	0	56	0	1757413376	35	4075
2026-01-09 10:45:50.40	39.08	28.40	-31.8	-32.9	21.2	0.00e+00	0	56	0	1763704832	35	4024
2026-01-09 10:45:51.41	38.77	28.35	-31.9	-32.9	21.2	0.00e+00	0	56	0	1768947712	35	4049
2026-01-09 10:45:52.42	38.45	28.30	-32.0	-33.1	21.1	0.00e+00	0	56	0	1775239168	35	4126
2026-01-09 10:45:53.43	38.14	28.25	-32.1	-33.2	20.9	0.00e+00	0	56	0	1780482048	35	4179
2026-01-09 10:45:54.44	37.82	28.19	-32.2	-33.2	20.9	0.00e+00	0	56	0	1785724928	35	4191
2026-01-09 10:45:55.45	37.51	28.14	-32.1	-33.2	21.0	0.00e+00	0	56	0	1792016384	35	4164
2026-01-09 10:45:56.46	37.20	28.08	-32.0	-33.1	21.1	0.00e+00	0	56	0	1797259264	35	4114
2026-01-09 10:45:57.47	36.89	28.03	-32.0	-33.1	21.1	0.00e+00	0	56	0	1803550720	35	4108
2026-01-09 10:45:58.48	36.58	27.97	-32.1	-33.2	21.0	0.00e+00	0	56	0	1808793600	35	4155
2026-01-09 10:45:59.49	36.28	27.91	-32.2	-33.3	20.9	0.00e+00	0	56	0	1814036480	35	4199
2026-01-09 10:46:00.49	35.97	27.86	-32.2	-33.2	20.9	0.00e+00	0	56	0	1820327936	35	4190
2026-01-09 10:46:01.50	35.67	27.80	-32.1	-33.1	21.0	0.00e+00	0	56	0	1825570816	35	4137
2026-01-09 10:46:02.51	35.36	27.74	-31.9	-33.0	21.1	0.00e+00	0	56	0	1830813696	35	4083
2026-01-09 10:46:03.52	35.06	27.68	-31.9	-33.0	21.1	0.00e+00	0	56	0	1837105152	35	4062
2026-01-09 10:46:04.53	34.76	27.62	-31.9	-33.0	21.2	0.00e+00	0	56	0	1842348032	35	4053
2026-01-09 10:46:05.54	34.46	27.55	-31.9	-32.9	21.2	0.00e+00	0	56	0	1848639488	35	4049
2026-01-09 10:46:06.55	34.16	27.49	-32.0	-33.1	21.1	0.00e+00	0	56	0	1853882368	35	4100
2026-01-09 10:46:07.56	33.86	27.43	-32.1	-33.1	21.0	0.00e+00	0	56	0	1860173824	35	4142
2026-01-09 10:46:08.57	33.56	27.36	-32.1	-33.2	21.0	0.00e+00	0	56	0	1865416704	35	4157
2026-01-09 10:46:09.58	33.27	27.30	-32.1	-33.2	20.9	0.00e+00	0	56	0	1871708160	35	4182
2026-01-09 10:46:10.59	32.97	27.23	-32.2	-33.3	20.9	0.00e+00	0	56	0	1876951040	35	4205
2026-01-09 10:46:11.60	32.68	27.16	-32.2	-33.3	20.8	0.00e+00	0	56	0	1882193920	35	4221
2026-01-09 10:46:12.61	32.39	27.10	-32.1	-33.2	20.9	0.00e+00	0	56	0	1888485376	35	4169
2026-01-09 10:46:13.62	32.10	27.03	-32.0	-33.1	21.0	0.00e+00	0	56	0	1893728256	35	4108
2026-01-09 10:46:14.63	31.81	26.96	-32.0	-33.1	21.0	0.00e+00	0	56	0	1900019712	35	4108
2026-01-09 10:46:15.64	31.52	26.89	-32.0	-33.1	21.0	0.00e+00	0	56	0	1905262592	35	4104
2026-01-09 10:46:16.65	31.23	26.82	-32.1	-33.2	21.0	0.00e+00	0	56	0	1910505472	35	4161
2026-01-09 10:46:17.66	30.95	26.75	-32.2	-33.3	20.9	0.00e+00	0	56	0	1916796928	35	4202
2026-01-09 10:46:18.67	30.66	26.68	-32.3	-33.4	20.8	0.00e+00	0	56	0	1922039808	35	4253
2026-01-09 10:46:19.68	30.38	26.61	-32.3	-33.4	20.8	0.00e+00	0	57	0	1928331264	35	4256
2026-01-09 10:46:20.69	30.10	26.54	-32.3	-33.4	20.7	0.00e+00	0	56	0	1933574144	35	4261
2026-01-09 10:46:21.70	29.82	26.47	-32.3	-33.4	20.7	0.00e+00	0	56	0	1938817024	35	4273
2026-01-09 10:46:22.71	29.54	26.39	-32.4	-33.4	20.7	0.00e+00	0	56	0	1945108480	35	4289
2026-01-09 10:46:23.72	29.26	26.32	-32.4	-33.5	20.6	0.00e+00	0	56	0	1950351360	35	4332
2026-01-09 10:46:24.73	28.98	26.24	-32.4	-33.5	20.6	0.00e+00	0	56	0	1956642816	35	4336
2026-01-09 10:46:25.74	28.71	26.17	-32.5	-33.6	20.6	0.00e+00	0	56	0	1961885696	35	4357
2026-01-09 10:46:26.75	28.43	26.09	-32.5	-33.6	20.5	0.00e+00	0	56	0	1968177152	35	4366
2026-01-09 10:46:27.76	28.16	26.02	-32.4	-33.5	20.6	0.00e+00	0	56	0	1973420032	35	4337
2026-01-09 10:46:28.77	27.89	25.94	-32.3	-33.4	20.7	0.00e+00	0	56	0	1979711488	35	4289
2026-01-09 10:46:29.78	27.62	25.87	-32.2	-33.3	20.8	0.00e+00	0	56	0	1984954368	35	4225
2026-01-09 10:46:30.79	27.35	25.79	-32.1	-33.2	20.9	0.00e+00	0	56	0	1990197248	35	4146
2026-01-09 10:46:31.80	27.08	25.71	-32.1	-33.1	21.0	0.00e+00	0	56	0	1996488704	35	4140
2026-01-09 10:46:32.81	26.81	25.63	-32.2	-33.3	20.8	0.00e+00	0	56	0	2001731584	35	4204
2026-01-09 10:46:33.82	26.55	25.55	-32.3	-33.4	20.7	0.00e+00	0	56	0	2008023040	35	4290
2026-01-09 10:46:34.83	26.29	25.48	-32.5	-33.6	20.5	0.00e+00	0	56	0	2013265920	35	4367
2026-01-09 10:46:35.84	26.02	25.40	-32.4	-33.6	20.5	0.00e+00	0	56	0	2018508800	35	4350
2026-01-09 10:46:36.85	25.76	25.32	-32.4	-33.5	20.6	0.00e+00	0	56	0	2024800256	35	4306
2026-01-09 10:46:37.86	25.50	25.24	-32.3	-33.4	20.7	0.00e+00	0	56	0	2030043136	35	4247
2026-01-09 10:46:38.87	25.25	25.16	-32.3	-33.3	20.8	0.00e+00	0	57	0	2036334592	35	4236
2026-01-09 10:46:39.88	24.99	25.07	-32.3	-33.3	20.7	0.00e+00	0	56	0	2041577472	35	4238
2026-01-09 10:46:40.88	24.74	24.99	-32.3	-33.4	20.7	0.00e+00	0	56	0	2046820352	35	4255
2026-01-09 10:46:41.89	24.48	24.91	-32.3	-33.4	20.7	0.00e+00	0	56	0	2053111808	35	4281
2026-01-09 10:46:42.90	24.23	24.83	-32.4	-33.5	20.6	0.00e+00	0	56	0	2058354688	35	4320
2026-01-09 10:46:43.91	23.98	24.75	-32.5	-33.6	20.5	0.00e+00	0	56	0	2064646144	35	4354
2026-01-09 10:46:44.92	23.73	24.66	-32.5	-33.7	20.5	0.00e+00	0	56	0	2069889024	35	4393
2026-01-09 10:46:45.93	23.48	24.58	-32.5	-33.7	20.4	0.00e+00	0	56	0	2076180480	35	4398
2026-01-09 10:46:46.94	23.23	24.50	-32.5	-33.6	20.4	0.00e+00	0	56	0	2081423360	35	4384
2026-01-09 10:46:47.95	22.98	24.41	-32.4	-33.6	20.5	0.00e+00	0	57	0	2086666240	35	4348
2026-01-09 10:46:48.96	22.74	24.33	-32.4	-33.5	20.5	0.00e+00	0	57	0	2092957696	35	4331
2026-01-09 10:46:49.97	22.50	24.25	-32.4	-33.5	20.6	0.00e+00	0	56	0	2098200576	35	4320
2026-01-09 10:46:50.98	22.25	24.16	-32.4	-33.6	20.5	0.00e+00	0	56	0	2104492032	35	4341
2026-01-09 10:46:51.99	22.01	24.08	-32.5	-33.6	20.4	0.00e+00	0	56	0	2109734912	35	4379
2026-01-09 10:46:52.99	21.78	23.99	-32.6	-33.7	20.3	0.00e+00	0	56	0	2114977792	35	4433
2026-01-09 10:46:54.00	21.54	23.91	-32.7	-33.8	20.3	0.00e+00	0	56	0	2121269248	35	4461
2026-01-09 10:46:55.01	21.30	23.82	-32.7	-33.8	20.2	0.00e+00	0	57	0	2126512128	35	4483
2026-01-09 10:46:56.02	21.06	23.73	-33.4	-34.5	20.3	0.00e+00	0	56	0	2132803584	37	4325
2026-01-09 10:46:57.03	20.83	23.65	-33.4	-34.5	20.3	0.00e+00	0	56	0	2138046464	37	4338
2026-01-09 10:46:58.04	20.60	23.56	-33.4	-34.5	20.3	0.00e+00	0	56	0	2143289344	37	4312
2026-01-09 10:46:59.05	20.37	23.48	-33.3	-34.5	20.3	0.00e+00	0	56	0	2149580800	37	4297
2026-01-09 10:47:00.06	20.14	23.39	-33.3	-34.4	20.3	0.00e+00	0	57	0	2154823680	37	4287
2026-01-09 10:47:01.07	19.91	23.30	-33.4	-34.6	20.2	0.00e+00	0	56	0	2161115136	37	4346
2026-01-09 10:47:02.08	19.68	23.21	-33.5	-34.7	20.1	0.00e+00	0	56	0	2166358016	37	4407
2026-01-09 10:47:03.09	19.45	23.13	-33.7	-34.8	19.9	0.00e+00	0	56	0	2172649472	37	4474
2026-01-09 10:47:04.10	19.23	23.04	-33.7	-34.8	19.9	0.00e+00	0	56	0	2177892352	37	4475
2026-01-09 10:47:05.11	19.00	22.95	-33.6	-34.8	20.0	0.00e+00	0	56	0	2183135232	37	4461
2026-01-09 10:47:06.12	18.78	22.86	-33.6	-34.7	20.1	0.00e+00	0	56	0	2189426688	37	4426
2026-01-09 10:47:07.13	18.56	22.77	-33.6	-34.7	20.1	0.00e+00	0	56	0	2194669568	37	4411
2026-01-09 10:47:08.14	18.34	22.69	-33.6	-34.8	20.0	0.00e+00	0	57	0	2200961024	37	4447
2026-01-09 10:47:09.15	18.12	22.60	-33.6	-34.8	20.0	0.00e+00	0	56	0	2206203904	37	4468
2026-01-09 10:47:10.16	17.90	22.51	-33.7	-34.8	19.9	0.00e+00	0	56	0	2211446784	37	4486
2026-01-09 10:47:11.17	17.69	22.42	-33.6	-34.8	20.0	0.00e+00	0	56	0	2217738240	37	4460
2026-01-09 10:47:12.18	17.47	22.33	-33.6	-34.7	20.1	0.00e+00	0	56	0	2222981120	37	4414
2026-01-09 10:47:13.19	17.26	22.24	-33.6	-34.7	20.0	0.00e+00	0	56	0	2229272576	37	4439
2026-01-09 10:47:14.20	17.04	22.15	-33.6	-34.8	20.0	0.00e+00	0	57	0	2234515456	37	4458
2026-01-09 10:47:15.21	16.83	22.06	-33.7	-34.9	19.9	0.00e+00	0	56	0	2239758336	38	4264
2026-01-09 10:47:16.22	16.62	21.98	-33.8	-34.9	19.8	0.00e+00	0	56	0	2246049792	38	4284
2026-01-09 10:47:17.23	16.41	21.89	-33.8	-34.9	19.8	0.00e+00	0	56	0	2251292672	38	4271
2026-01-09 10:47:18.24	16.21	21.80	-33.7	-34.9	19.9	0.00e+00	0	57	0	2257584128	38	4254
2026-01-09 10:47:19.25	16.00	21.71	-33.7	-34.8	19.9	0.00e+00	0	56	0	2262827008	38	4214
2026-01-09 10:47:20.26	15.79	21.62	-33.6	-34.8	20.0	0.00e+00	0	57	0	2269118464	38	4203
2026-01-09 10:47:21.27	15.59	21.53	-33.7	-34.8	19.9	0.00e+00	0	56	0	2274361344	38	4225
2026-01-09 10:47:22.28	15.39	21.44	-33.7	-34.9	19.9	0.00e+00	0	57	0	2280652800	38	4246
2026-01-09 10:47:23.29	15.19	21.35	-33.7	-34.9	19.9	0.00e+00	0	57	0	2285895680	38	4261
2026-01-09 10:47:24.30	14.98	21.26	-33.7	-34.9	19.8	0.00e+00	0	56	0	2291138560	38	4272
2026-01-09 10:47:25.31	14.79	21.17	-33.7	-34.9	19.8	0.00e+00	0	56	0	2297430016	38	4261
2026-01-09 10:47:26.31	14.59	21.08	-33.7	-34.9	19.9	0.00e+00	0	56	0	2302672896	38	4250
2026-01-09 10:47:27.33	14.39	20.99	-33.7	-34.9	19.8	0.00e+00	0	56	0	2308964352	38	4265
2026-01-09 10:47:28.34	14.19	20.90	-33.8	-35.0	19.8	0.00e+00	0	56	0	2314207232	38	4296
2026-01-09 10:47:29.35	14.00	20.81	-33.8	-35.0	19.7	0.00e+00	0	57	0	2319450112	38	4317
2026-01-09 10:47:30.36	13.81	20.72	-33.9	-35.0	19.7	0.00e+00	0	57	0	2325741568	38	4323
2026-01-09 10:47:31.37	13.61	20.63	-33.8	-35.0	19.7	0.00e+00	0	57	0	2330984448	38	4320
2026-01-09 10:47:32.37	13.42	20.54	-33.8	-35.0	19.8	0.00e+00	0	57	0	2337275904	38	4296
2026-01-09 10:47:33.38	13.23	20.45	-33.8	-35.0	19.8	0.00e+00	0	56	0	2342518784	38	4296
2026-01-09 10:47:34.39	13.05	20.36	-33.8	-34.9	19.8	0.00e+00	0	57	0	2347761664	38	4282
2026-01-09 10:47:35.40	12.86	20.27	-33.8	-34.9	19.8	0.00e+00	0	57	0	2354053120	38	4288
2026-01-09 10:47:36.41	12.67	20.18	-33.8	-35.0	19.8	0.00e+00	0	57	0	2359296000	38	4303
2026-01-09 10:47:37.42	12.49	20.09	-33.8	-35.0	19.7	0.00e+00	0	57	0	2365587456	38	4328
2026-01-09 10:47:38.43	12.30	20.00	-33.9	-35.0	19.7	0.00e+00	0	56	0	2370830336	38	4335
2026-01-09 10:47:39.44	12.12	19.91	-33.9	-35.0	19.7	0.00e+00	0	57	0	2377121792	38	4330
2026-01-09 10:47:40.45	11.94	19.82	-33.8	-35.0	19.7	0.00e+00	0	56	0	2382364672	38	4329
2026-01-09 10:47:41.45	11.76	19.73	-33.8	-35.0	19.7	0.00e+00	0	57	0	2387607552	38	4302
2026-01-09 10:47:42.46	11.58	19.64	-33.8	-35.0	19.7	0.00e+00	0	56	0	2393899008	38	4315
2026-01-09 10:47:43.47	11.40	19.55	-33.9	-35.0	19.7	0.00e+00	0	57	0	2399141888	38	4332
2026-01-09 10:47:44.48	11.22	19.46	-33.9	-35.1	19.6	0.00e+00	0	57	0	2405433344	38	4381
2026-01-09 10:47:45.49	11.04	19.37	-34.0	-35.2	19.5	0.00e+00	0	57	0	2410676224	38	4427
2026-01-09 10:47:46.50	10.87	19.28	-34.1	-35.3	19.4	0.00e+00	0	57	0	2415919104	38	4479
2026-01-09 10:47:47.51	10.69	19.19	-34.2	-35.4	19.3	0.00e+00	0	57	0	2422210560	38	4536
2026-01-09 10:47:48.52	10.52	19.10	-34.3	-35.5	19.2	0.00e+00	0	57	0	2427453440	39	4311
2026-01-09 10:47:49.53	10.34	19.01	-34.3	-35.5	19.2	0.00e+00	0	57	0	2433744896	39	4321
2026-01-09 10:47:50.53	10.17	18.92	-34.3	-35.6	19.1	0.00e+00	0	57	0	2438987776	39	4349
2026-01-09 10:47:51.55	10.00	18.83	-34.3	-35.6	19.1	0.00e+00	0	56	0	2444230656	39	4350
2026-01-09 10:47:52.55	9.83	18.74	-34.3	-35.5	19.1	0.00e+00	0	56	0	2450522112	39	4340
2026-01-09 10:47:53.56	9.67	18.65	-34.3	-35.5	19.2	0.00e+00	0	57	0	2455764992	39	4310
2026-01-09 10:47:54.57	9.50	18.56	-34.3	-35.5	19.2	0.00e+00	0	56	0	2462056448	39	4320
2026-01-09 10:47:55.58	9.33	18.47	-34.3	-35.5	19.1	0.00e+00	0	57	0	2467299328	39	4337
2026-01-09 10:47:56.59	9.17	18.38	-34.4	-35.6	19.0	0.00e+00	0	57	0	2473590784	39	4375
2026-01-09 10:47:57.60	9.00	18.29	-34.4	-35.7	19.0	0.00e+00	0	57	0	2478833664	39	4398
2026-01-09 10:47:58.61	8.84	18.20	-34.5	-35.7	18.9	0.00e+00	0	57	0	2484076544	39	4425
2026-01-09 10:47:59.62	8.67	18.11	-34.5	-35.7	18.9	0.00e+00	0	57	0	2490368000	39	4435
2026-01-09 10:48:00.63	8.51	18.03	-34.5	-35.8	18.9	0.00e+00	0	57	0	2495610880	39	4449
2026-01-09 10:48:01.64	8.35	17.94	-34.5	-35.7	18.9	0.00e+00	0	57	0	2501902336	39	4428
2026-01-09 10:48:02.65	8.19	17.85	-34.5	-35.8	18.9	0.00e+00	0	57	0	2507145216	39	4442
2026-01-09 10:48:03.66	8.03	17.76	-34.5	-35.8	18.8	0.00e+00	0	56	0	2512388096	39	4455
2026-01-09 10:48:04.67	7.88	17.67	-34.6	-35.8	18.8	0.00e+00	0	56	0	2518679552	39	4467
2026-01-09 10:48:05.68	7.72	17.58	-34.6	-35.9	18.7	0.00e+00	0	56	0	2523922432	39	4495
2026-01-09 10:48:06.69	7.56	17.49	-34.7	-35.9	18.7	0.00e+00	0	57	0	2530213888	39	4533
2026-01-09 10:48:07.69	7.41	17.41	-34.7	-36.0	18.6	0.00e+00	0	57	0	2535456768	39	4560
2026-01-09 10:48:08.70	7.26	17.32	-34.7	-36.0	18.6	0.00e+00	0	57	0	2540699648	39	4581
2026-01-09 10:48:09.71	7.10	17.23	-34.7	-36.0	18.6	0.00e+00	0	57	0	2546991104	39	4556
2026-01-09 10:48:10.72	6.95	17.14	-34.6	-35.9	18.6	0.00e+00	0	57	0	2552233984	39	4529
2026-01-09 10:48:11.73	6.80	17.05	-34.6	-35.9	18.6	0.00e+00	0	57	0	2558525440	39	4503
2026-01-09 10:48:12.74	6.65	16.97	-34.6	-35.8	18.7	0.00e+00	0	57	0	2563768320	39	4488
2026-01-09 10:48:13.75	6.50	16.88	-34.5	-35.8	18.7	0.00e+00	0	57	0	2570059776	39	4465
2026-01-09 10:48:14.76	6.35	16.79	-34.6	-35.8	18.7	0.00e+00	0	57	0	2575302656	39	4489
2026-01-09 10:48:15.77	6.20	16.70	-34.6	-35.9	18.6	0.00e+00	0	57	0	2581594112	39	4514
2026-01-09 10:48:16.79	6.05	16.61	-34.7	-36.0	18.5	0.00e+00	0	57	0	2586836992	39	4556
2026-01-09 10:48:17.80	5.91	16.53	-34.7	-36.0	18.4	0.00e+00	0	56	0	2592079872	40	4325
2026-01-09 10:48:18.81	5.76	16.44	-34.8	-36.1	18.3	0.00e+00	0	57	0	2598371328	40	4377
2026-01-09 10:48:19.81	5.62	16.35	-34.9	-36.2	18.2	0.00e+00	0	57	0	2603614208	40	4421
2026-01-09 10:48:20.82	5.48	16.27	-34.9	-36.2	18.2	0.00e+00	0	56	0	2609905664	40	4424
2026-01-09 10:48:21.83	5.33	16.18	-34.8	-36.1	18.2	0.00e+00	0	57	0	2615148544	40	4387
2026-01-09 10:48:22.85	5.19	16.09	-34.8	-36.1	18.2	0.00e+00	0	56	0	2620391424	40	4366
2026-01-09 10:48:23.85	5.05	16.01	-34.8	-36.1	18.2	0.00e+00	0	56	0	2626682880	40	4373
2026-01-09 10:48:24.86	4.91	15.92	-34.9	-36.2	18.2	0.00e+00	0	56	0	2631925760	40	4396
2026-01-09 10:48:25.87	4.77	15.83	-34.9	-36.2	18.1	0.00e+00	0	56	0	2638217216	40	4426
2026-01-09 10:48:26.88	4.63	15.75	-35.0	-36.3	18.0	0.00e+00	0	57	0	2643460096	40	4480
2026-01-09 10:48:27.89	4.49	15.66	-35.1	-36.4	17.8	0.00e+00	0	57	0	2648702976	40	4541
2026-01-09 10:48:28.90	4.36	15.58	-35.2	-36.6	17.7	0.00e+00	0	57	0	2654994432	40	4600
2026-01-09 10:48:29.91	4.22	15.49	-35.3	-36.7	17.6	0.00e+00	0	56	0	2660237312	41	4396
2026-01-09 10:48:30.92	4.09	15.40	-35.2	-36.6	17.6	0.00e+00	0	57	0	2666528768	41	4353
2026-01-09 10:48:31.93	3.95	15.32	-35.2	-36.7	17.5	0.00e+00	0	57	0	2671771648	41	4393
2026-01-09 10:48:32.94	3.82	15.23	-35.3	-36.7	17.5	0.00e+00	0	57	0	2678063104	41	4414
2026-01-09 10:48:33.95	3.69	15.15	-35.1	-36.5	17.6	0.00e+00	0	57	0	2683305984	41	4323
2026-01-09 10:48:34.96	3.55	15.06	-34.9	-36.3	17.8	0.00e+00	0	57	0	2688548864	41	4229
2026-01-09 10:48:35.97	3.42	14.98	-35.2	-36.6	17.5	0.00e+00	0	57	0	2694840320	41	4368
2026-01-09 10:48:36.98	3.29	14.89	-35.3	-36.7	17.4	0.00e+00	0	57	0	2700083200	41	4409
2026-01-09 10:48:37.99	3.16	14.81	-35.2	-36.6	17.4	0.00e+00	0	57	0	2706374656	41	4376
2026-01-09 10:48:39.00	3.03	14.72	-35.1	-36.6	17.4	0.00e+00	0	57	0	2711617536	41	4343
2026-01-09 10:48:40.01	2.90	14.64	-35.2	-36.6	17.3	0.00e+00	0	57	0	2716860416	41	4382
2026-01-09 10:48:41.02	2.78	14.56	-35.2	-36.6	17.3	0.00e+00	0	57	0	2723151872	41	4372
2026-01-09 10:48:42.03	2.65	14.47	-35.2	-36.6	17.3	0.00e+00	0	57	0	2728394752	41	4389
2026-01-09 10:48:43.04	2.52	14.39	-35.3	-36.8	17.1	0.00e+00	0	57	0	2734686208	41	4466
2026-01-09 10:48:44.05	2.40	14.30	-35.4	-36.9	17.0	0.00e+00	0	57	0	2739929088	41	4503
2026-01-09 10:48:45.06	2.27	14.22	-35.3	-36.8	17.0	0.00e+00	0	57	0	2745171968	41	4460
2026-01-09 10:48:46.07	2.15	14.14	-35.1	-36.5	17.3	0.00e+00	0	57	0	2751463424	41	4325
2026-01-09 10:48:47.08	2.03	14.05	-35.0	-36.5	17.3	0.00e+00	0	57	0	2756706304	41	4305
2026-01-09 10:48:48.09	1.90	13.97	-35.0	-36.5	17.1	0.00e+00	0	56	0	2762997760	41	4331
2026-01-09 10:48:49.10	1.78	13.89	-35.2	-36.7	16.8	0.00e+00	0	57	0	2768240640	41	4425
2026-01-09 10:48:50.10	1.66	13.81	-35.5	-37.1	16.4	0.00e+00	0	57	0	2774532096	41	4600
2026-01-09 10:48:51.11	1.54	13.72	-35.7	-37.4	15.9	0.00e+00	0	57	0	2779774976	41	4770
2026-01-09 10:48:52.12	1.42	13.64	-36.1	-37.9	15.2	0.00e+00	0	57	0	2786066432	42	4790
2026-01-09 10:48:53.13	1.30	13.56	-36.5	-38.5	14.4	0.00e+00	0	57	0	2791309312	43	4819
2026-01-09 10:48:54.14	1.18	13.48	-37.2	-39.5	13.4	6.80e-06	0	57	0	2796552192	45	4846
2026-01-09 10:48:55.15	1.07	13.39	-37.9	-40.5	12.1	2.60e-04	0	57	0	2802843648	46	5159
2026-01-09 10:48:56.16	0.95	13.31	-38.4	-41.5	10.9	1.62e-03	0	57	0	2808086528	47	5418
2026-01-09 10:48:57.17	0.83	13.23	-38.9	-42.5	9.6	1.11e-02	0	57	0	2814377984	48	5753
2026-01-09 10:48:58.18	0.72	13.15	-39.1	-43.2	8.7	2.99e-02	0	56	0	2819620864	48	6212
2026-01-09 10:48:59.18	0.60	13.07	-39.3	-43.9	7.7	8.15e-02	0	57	0	2824863744	49	6358
2026-01-09 10:49:00.19	0.49	12.99	-39.3	-44.4	7.1	1.45e-01	0	57	0	2831155200	49	6729
2026-01-09 10:49:01.20	0.38	12.91	-39.5	-45.4	6.1	3.06e-01	0	57	0	2836398080	49	7544
2026-01-09 10:49:02.22	0.26	12.82	-39.7	-46.7	5.1	7.19e-01	0	57	0	2839543808	49	8763
2026-01-09 10:49:03.23	0.15	12.74	-39.8	-48.2	4.3	8.28e-01	0	57	0	2839543808	50	9896
2026-01-09 10:49:04.24	0.04	12.66	-39.9	-49.6	3.9	8.43e-01	0	57	104	2839543808	50	11571
2026-01-09 10:49:05.25	359.93	12.58	-39.8	-49.9	3.8	8.46e-01	0	57	104	2839543808	50	11981
2026-01-09 10:49:06.25	359.82	12.50	-39.8	-50.1	3.8	8.45e-01	0	57	104	2839543808	50	12288
2026-01-09 10:49:07.26	359.71	12.42	-39.8	-50.6	3.8	8.47e-01	0	57	104	2839543808	50	12978
2026-01-09 10:49:08.27	359.60	12.34	-39.8	-51.1	3.8	8.45e-01	0	57	104	2839543808	50	13863
2026-01-09 10:49:09.28	359.49	12.26	-39.8	-51.3	3.8	8.46e-01	0	57	104	2839543808	50	14108
2026-01-09 10:49:10.29	359.38	12.18	-39.9	-51.1	3.8	8.46e-01	0	57	104	2839543808	50	13880
2026-01-09 10:49:11.30	359.27	12.10	-39.9	-51.3	3.8	8.47e-01	0	57	104	2839543808	50	14106
2026-01-09 10:49:12.31	359.17	12.02	-39.6	-51.4	3.8	8.46e-01	0	57	104	2839543808	50	14361
2026-01-09 10:49:13.32	359.06	11.95	-39.3	-51.2	3.8	8.46e-01	0	57	104	2839543808	50	14004
2026-01-09 10:49:14.33	358.95	11.87	-39.4	-51.3	3.8	8.46e-01	0	57	104	2839543808	50	14118
2026-01-09 10:49:15.34	358.85	11.79	-39.4	-51.3	3.8	8.46e-01	0	57	104	2839543808	50	14103
2026-01-09 10:49:16.35	358.74	11.71	-39.4	-51.3	3.8	8.47e-01	0	57	104	2839543808	50	14078
2026-01-09 10:49:17.36	358.64	11.63	-39.4	-51.3	3.8	8.46e-01	0	57	104	2839543808	50	14152
2026-01-09 10:49:18.37	358.54	11.55	-39.4	-51.3	3.8	8.45e-01	0	57	104	2839543808	50	14189
2026-01-09 10:49:19.38	358.43	11.47	-39.4	-51.3	3.8	8.47e-01	0	57	104	2839543808	50	14061
2026-01-09 10:49:20.38	358.33	11.40	-39.4	-51.3	3.8	8.46e-01	0	57	104	2839543808	50	14141
2026-01-09 10:49:21.39	358.23	11.32	-39.0	-51.2	3.8	8.46e-01	0	57	104	2839543808	50	14010
2026-01-09 10:49:22.40	358.13	11.24	-39.0	-51.2	3.8	8.46e-01	0	57	104	2839543808	49	14771
2026-01-09 10:49:23.41	358.03	11.16	-39.4	-51.3	3.8	8.46e-01	0	57	104	2839543808	49	14907
2026-01-09 10:49:24.42	357.93	11.09	-38.9	-51.2	3.8	8.46e-01	0	57	104	2839543808	48	15607
2026-01-09 10:49:25.43	357.83	11.01	-39.4	-51.3	3.8	8.46e-01	0	57	104	2839543808	49	14911
2026-01-09 10:49:26.44	357.73	10.93	-39.2	-51.2	3.8	8.45e-01	0	57	104	2839543808	49	14837
2026-01-09 10:49:27.45	357.63	10.85	-38.6	-51.2	3.8	8.47e-01	0	57	104	2839543808	48	15688
2026-01-09 10:49:28.46	357.53	10.78	-38.9	-51.2	3.8	8.46e-01	0	57	104	2839543808	49	14782
2026-01-09 10:49:29.47	357.44	10.70	-38.0	-51.1	3.8	8.46e-01	0	57	104	2839543808	47	16353
2026-01-09 10:49:30.48	357.34	10.62	-38.1	-51.0	3.8	8.46e-01	0	57	104	2839543808	47	16262
2026-01-09 10:49:31.48	357.24	10.55	-38.4	-51.1	3.8	8.45e-01	0	57	104	2839543808	48	15494
2026-01-09 10:49:32.49	357.15	10.47	-38.1	-51.1	3.8	8.47e-01	0	57	104	2839543808	48	15425
2026-01-09 10:49:33.51	357.05	10.39	-38.9	-51.1	3.8	8.46e-01	0	57	104	2839543808	48	15543
2026-01-09 10:49:34.51	356.96	10.32	-38.3	-51.1	3.8	8.46e-01	0	57	104	2839543808	48	15550
2026-01-09 10:49:35.52	356.86	10.24	-38.2	-51.1	3.8	8.46e-01	0	57	104	2839543808	48	15512
2026-01-09 10:49:36.53	356.77	10.17	-38.3	-51.1	3.8	8.46e-01	0	57	104	2839543808	48	15530
2026-01-09 10:49:37.54	356.68	10.09	-39.0	-51.2	3.8	8.45e-01	0	57	104	2839543808	48	15638
2026-01-09 10:49:38.55	356.58	10.02	-38.5	-51.1	3.8	8.45e-01	0	57	104	2839543808	49	14642
2026-01-09 10:49:39.56	356.49	9.94	-38.7	-51.1	3.8	8.46e-01	0	57	104	2839543808	48	15505
2026-01-09 10:49:40.57	356.40	9.87	-38.6	-51.1	3.8	8.45e-01	0	57	104	2839543808	49	14655
2026-01-09 10:49:41.58	356.31	9.79	-38.7	-51.1	3.8	8.46e-01	0	57	104	2839543808	48	15538
2026-01-09 10:49:42.59	356.22	9.72	-39.1	-51.2	3.8	8.47e-01	0	57	104	2839543808	48	15678
2026-01-09 10:49:43.60	356.13	9.64	-39.2	-51.2	3.8	8.46e-01	0	57	104	2839543808	49	14772
2026-01-09 10:49:44.61	356.04	9.57	-39.3	-51.2	3.8	8.47e-01	0	57	104	2839543808	49	14872
2026-01-09 10:49:45.62	355.95	9.49	-39.7	-51.5	3.8	8.47e-01	0	57	104	2839543808	49	15257
2026-01-09 10:49:46.63	355.86	9.42	-39.3	-51.2	3.8	8.46e-01	0	57	104	2839543808	50	14029
2026-01-09 10:49:47.64	355.77	9.35	-39.6	-51.4	3.8	8.46e-01	0	57	104	2839543808	49	15095
2026-01-09 10:49:48.65	355.68	9.27	-39.4	-51.3	3.8	8.46e-01	0	57	104	2839543808	50	14105
2026-01-09 10:49:49.66	355.60	9.20	-39.4	-51.2	3.8	8.46e-01	0	57	104	2839543808	49	14821
2026-01-09 10:49:50.67	355.51	9.13	-39.7	-51.5	3.8	8.46e-01	0	57	104	2839543808	49	15275
2026-01-09 10:49:51.68	355.42	9.05	-39.7	-51.4	3.8	8.46e-01	0	57	104	2839543808	50	14219
2026-01-09 10:49:52.68	355.34	8.98	-39.8	-51.5	3.8	8.47e-01	0	57	104	2839543808	50	14454
2026-01-09 10:49:53.69	355.25	8.91	-39.8	-51.5	3.8	8.47e-01	0	57	104	2839543808	50	14381
2026-01-09 10:49:54.70	355.17	8.83	-39.7	-51.5	3.8	8.45e-01	0	57	104	2839543808	50	14408
2026-01-09 10:49:55.71	355.08	8.76	-39.9	-51.5	3.8	8.47e-01	0	57	104	2839543808	50	14437
2026-01-09 10:49:56.72	355.00	8.69	-39.8	-51.5	3.8	8.46e-01	0	57	104	2839543808	50	14429
2026-01-09 10:49:57.73	354.91	8.62	-39.8	-51.4	3.8	8.46e-01	0	57	104	2839543808	50	14268
2026-01-09 10:49:58.74	354.83	8.54	-39.7	-51.4	3.8	8.46e-01	0	57	104	2839543808	50	14254
2026-01-09 10:49:59.75	354.75	8.47	-39.9	-51.6	3.8	8.46e-01	0	57	104	2839543808	50	14566
2026-01-09 10:50:00.76	354.66	8.40	-39.7	-51.4	3.8	8.47e-01	0	57	104	2839543808	50	14221
2026-01-09 10:50:01.77	354.58	8.33	-39.8	-51.4	3.8	8.46e-01	0	57	104	2839543808	50	14246
2026-01-09 10:50:02.77	354.50	8.26	-39.9	-51.5	3.8	8.47e-01	0	57	104	2839543808	50	14489
2026-01-09 10:50:03.78	354.42	8.19	-39.8	-51.4	3.8	8.45e-01	0	57	104	2839543808	50	14259
2026-01-09 10:50:04.79	354.34	8.11	-39.8	-51.5	3.8	8.46e-01	0	57	104	2839543808	50	14394
2026-01-09 10:50:05.80	354.26	8.04	-40.0	-51.6	3.8	8.46e-01	0	57	104	2839543808	50	14636
2026-01-09 10:50:06.81	354.18	7.97	-39.7	-51.4	3.8	8.46e-01	0	57	104	2839543808	50	14226
