passes_logs/2026/01/09/R2.0S_Moscow/R2.0S_Moscow__20260109_041311_FENGYUN_3E_rec.log

#Pass ID: 20260109_041311_FENGYUN 3E
#Satellite: FENGYUN 3E
#Configuration: FENGYUN 3E
#almurnet v.1.7.20251203
#Start time: 2026-01-09 04:13:12

#Version: 2.2.20231116
#Station: R2.0S_Moscow
#Location: 37.707566 lon 55.798166 lat
#TLE: 1 49008U 21062A   26008.52265380 -.00000112  00000+0 -32190-4 0  9993
#TLE: 2 49008  98.7483  13.7266 0001697 149.3310 210.7966 14.19883994233927

#Time	Az	El	Level	Level2	SNR	BER	BlckErr	Temp	State	Recorded	gain1	gain2
2026-01-09 04:13:12.04	14.97	2.06	-43.6	-54.7	3.8	8.45e-01	0	47	0	0	58	12465
2026-01-09 04:13:13.04	14.96	2.12	-43.6	-54.7	3.8	8.47e-01	0	48	104	0	58	12424
2026-01-09 04:13:14.06	14.96	2.19	-43.6	-54.7	3.8	8.48e-01	0	48	104	0	58	12432
2026-01-09 04:13:15.07	14.95	2.25	-43.6	-54.7	3.8	8.45e-01	0	48	104	0	58	12469
2026-01-09 04:13:16.08	14.94	2.32	-43.6	-54.7	3.8	8.46e-01	0	48	104	0	58	12502
2026-01-09 04:13:17.09	14.93	2.38	-43.6	-54.7	3.8	8.46e-01	0	48	104	0	58	12476
2026-01-09 04:13:18.10	14.92	2.45	-43.5	-54.7	3.8	8.45e-01	0	48	104	0	58	12458
2026-01-09 04:13:19.11	14.91	2.51	-43.5	-54.7	3.8	8.46e-01	0	48	104	0	58	12459
2026-01-09 04:13:20.12	14.91	2.58	-43.5	-54.7	3.8	8.46e-01	0	48	104	0	58	12442
2026-01-09 04:13:21.13	14.90	2.64	-43.6	-54.7	3.8	8.46e-01	0	49	104	0	58	12491
2026-01-09 04:13:22.14	14.89	2.71	-43.5	-54.7	3.8	8.47e-01	0	49	104	0	58	12441
2026-01-09 04:13:23.15	14.88	2.78	-43.5	-54.7	3.8	8.46e-01	0	49	104	0	58	12455
2026-01-09 04:13:24.16	14.87	2.84	-43.6	-54.7	3.8	8.47e-01	0	48	104	0	58	12449
2026-01-09 04:13:25.17	14.86	2.91	-43.6	-54.7	3.8	8.46e-01	0	49	104	0	58	12463
2026-01-09 04:13:26.18	14.85	2.98	-43.5	-54.7	3.8	8.46e-01	0	49	104	0	58	12386
2026-01-09 04:13:27.19	14.84	3.04	-43.6	-54.7	3.8	8.47e-01	0	49	104	0	58	12398
2026-01-09 04:13:28.21	14.84	3.11	-43.5	-54.7	3.8	8.46e-01	0	49	104	0	58	12398
2026-01-09 04:13:29.22	14.83	3.18	-43.5	-54.7	3.8	8.47e-01	0	49	104	0	58	12431
2026-01-09 04:13:30.23	14.82	3.24	-43.6	-54.7	3.8	8.46e-01	0	49	104	0	58	12429
2026-01-09 04:13:31.24	14.81	3.31	-43.6	-54.7	3.8	8.46e-01	0	49	104	0	58	12461
2026-01-09 04:13:32.25	14.80	3.38	-43.6	-54.7	3.8	8.45e-01	0	49	104	0	58	12452
2026-01-09 04:13:33.26	14.79	3.45	-43.5	-54.6	3.8	8.47e-01	0	49	104	0	58	12356
2026-01-09 04:13:34.27	14.78	3.51	-43.6	-54.7	3.8	8.46e-01	0	49	104	0	58	12451
2026-01-09 04:13:35.28	14.77	3.58	-43.6	-54.7	3.8	8.46e-01	0	49	104	0	58	12418
2026-01-09 04:13:36.29	14.76	3.65	-43.5	-54.7	3.8	8.47e-01	0	49	104	0	58	12433
2026-01-09 04:13:37.30	14.75	3.72	-43.5	-54.7	3.8	8.46e-01	0	49	104	0	58	12401
2026-01-09 04:13:38.31	14.74	3.79	-43.6	-54.7	3.8	8.45e-01	0	50	104	0	58	12471
2026-01-09 04:13:39.32	14.73	3.85	-43.6	-54.7	3.8	8.47e-01	0	50	104	0	58	12449
2026-01-09 04:13:40.33	14.72	3.92	-43.5	-54.7	3.8	8.45e-01	0	50	104	0	58	12449
2026-01-09 04:13:41.34	14.71	3.99	-43.5	-54.6	3.8	8.46e-01	0	50	104	0	58	12365
2026-01-09 04:13:42.35	14.70	4.06	-43.6	-54.7	3.8	8.46e-01	0	50	104	0	58	12478
2026-01-09 04:13:43.36	14.69	4.13	-43.6	-54.7	3.8	8.47e-01	0	50	104	0	58	12489
2026-01-09 04:13:44.37	14.68	4.20	-43.5	-54.7	3.8	8.46e-01	0	50	104	0	58	12394
2026-01-09 04:13:45.38	14.67	4.27	-43.5	-54.7	3.8	8.46e-01	0	50	104	0	58	12416
2026-01-09 04:13:46.39	14.66	4.34	-43.6	-54.7	3.8	8.45e-01	0	50	104	0	58	12449
2026-01-09 04:13:47.40	14.65	4.41	-43.5	-54.7	3.8	8.45e-01	0	50	104	0	58	12438
2026-01-09 04:13:48.41	14.64	4.48	-43.6	-54.7	3.8	8.46e-01	0	50	104	0	58	12434
2026-01-09 04:13:49.42	14.63	4.55	-43.5	-54.7	3.8	8.46e-01	0	50	104	0	58	12429
2026-01-09 04:13:50.43	14.62	4.62	-43.5	-54.7	3.8	8.46e-01	0	50	104	0	58	12435
2026-01-09 04:13:51.44	14.61	4.69	-43.5	-54.6	3.8	8.46e-01	0	50	104	0	58	12363
2026-01-09 04:13:52.45	14.60	4.76	-43.5	-54.6	3.8	8.46e-01	0	51	104	0	58	12334
2026-01-09 04:13:53.47	14.59	4.83	-43.5	-54.5	3.8	8.46e-01	0	51	104	0	58	12230
2026-01-09 04:13:54.48	14.58	4.91	-43.5	-54.5	3.8	8.47e-01	0	51	104	0	58	12225
2026-01-09 04:13:55.48	14.57	4.98	-43.5	-54.6	3.8	8.48e-01	0	51	104	0	58	12321
2026-01-09 04:13:56.49	14.56	5.05	-43.5	-54.4	3.8	8.47e-01	0	51	104	0	58	12021
2026-01-09 04:13:57.50	14.55	5.12	-43.5	-54.3	3.8	8.46e-01	0	51	104	0	58	11878
2026-01-09 04:13:58.52	14.53	5.19	-43.5	-54.5	3.8	8.47e-01	0	51	104	0	58	12176
2026-01-09 04:13:59.52	14.52	5.26	-43.5	-54.5	3.8	8.46e-01	0	51	104	0	58	12205
2026-01-09 04:14:00.53	14.51	5.34	-43.4	-53.9	3.8	8.48e-01	0	51	104	0	57	11982
2026-01-09 04:14:01.54	14.50	5.41	-43.4	-53.8	3.8	8.46e-01	0	51	104	0	57	11875
2026-01-09 04:14:02.55	14.49	5.48	-43.5	-54.3	3.8	8.48e-01	0	51	104	0	57	12574
2026-01-09 04:14:03.56	14.48	5.55	-43.5	-54.5	3.8	8.46e-01	0	51	104	0	57	12949
2026-01-09 04:14:04.57	14.47	5.63	-43.5	-54.0	3.8	8.46e-01	0	51	104	0	57	12199
2026-01-09 04:14:05.58	14.46	5.70	-43.4	-53.4	3.8	8.46e-01	0	51	104	0	57	11381
2026-01-09 04:14:06.59	14.44	5.78	-43.3	-53.0	3.8	8.45e-01	0	51	104	0	57	10869
2026-01-09 04:14:07.60	14.43	5.85	-43.4	-53.4	3.8	8.46e-01	0	51	104	0	57	11308
2026-01-09 04:14:08.61	14.42	5.92	-43.5	-53.9	3.8	8.44e-01	0	51	104	0	57	12088
2026-01-09 04:14:09.62	14.41	6.00	-43.5	-54.3	3.8	8.45e-01	0	51	104	0	57	12655
2026-01-09 04:14:10.63	14.40	6.07	-43.5	-54.6	3.8	8.45e-01	0	52	104	0	57	13029
2026-01-09 04:14:11.65	14.38	6.15	-43.5	-54.4	3.8	8.47e-01	0	52	104	0	57	12806
2026-01-09 04:14:12.66	14.37	6.22	-43.4	-53.6	3.8	8.46e-01	0	52	104	0	57	11556
2026-01-09 04:14:13.67	14.36	6.30	-43.3	-52.4	3.8	8.46e-01	0	52	104	0	57	10166
2026-01-09 04:14:14.68	14.35	6.37	-43.0	-51.0	4.2	8.38e-01	0	52	0	0	57	8569
2026-01-09 04:14:15.69	14.34	6.45	-42.7	-49.5	4.8	8.09e-01	0	52	0	0	56	7650
2026-01-09 04:14:16.70	14.32	6.52	-42.1	-47.7	5.8	7.14e-01	0	52	0	0	55	6633
2026-01-09 04:14:17.71	14.31	6.60	-41.7	-46.6	6.7	2.31e-01	0	52	0	7340032	54	6152
2026-01-09 04:14:18.72	14.30	6.68	-41.3	-45.4	7.8	1.15e-01	0	52	0	14680064	53	5683
2026-01-09 04:14:19.73	14.28	6.75	-40.8	-44.5	8.7	4.01e-02	0	52	0	22020096	52	5446
2026-01-09 04:14:20.74	14.27	6.83	-40.4	-43.7	9.7	1.68e-02	0	52	0	29360128	51	5237
2026-01-09 04:14:21.75	14.26	6.91	-39.8	-42.6	10.7	3.54e-03	0	52	0	36700160	50	4903
2026-01-09 04:14:22.76	14.25	6.98	-39.2	-41.7	11.7	6.55e-04	0	52	0	44040192	49	4689
2026-01-09 04:14:23.77	14.23	7.06	-38.5	-40.6	12.9	9.15e-05	0	52	0	51380224	48	4379
2026-01-09 04:14:24.78	14.22	7.14	-37.8	-39.8	13.6	1.02e-05	0	52	0	57671680	46	4466
2026-01-09 04:14:25.79	14.21	7.22	-37.3	-39.2	14.2	2.20e-06	0	52	0	65011712	45	4396
2026-01-09 04:14:26.80	14.19	7.29	-37.0	-38.8	14.6	1.10e-06	0	52	0	73400320	44	4446
2026-01-09 04:14:27.81	14.18	7.37	-37.0	-38.7	14.7	0.00e+00	0	52	0	79691776	44	4407
2026-01-09 04:14:28.82	14.17	7.45	-37.3	-39.2	14.2	1.10e-06	0	52	0	87031808	44	4656
2026-01-09 04:14:29.83	14.15	7.53	-37.6	-39.6	13.8	4.50e-06	0	53	0	94371840	44	4882
2026-01-09 04:14:30.84	14.14	7.61	-37.6	-39.5	13.9	5.70e-06	0	53	0	101711872	44	4850
2026-01-09 04:14:31.85	14.12	7.69	-37.3	-39.1	14.3	1.10e-06	0	53	0	109051904	44	4608
2026-01-09 04:14:32.86	14.11	7.77	-37.5	-39.3	14.1	1.10e-06	0	53	0	116391936	44	4746
2026-01-09 04:14:33.87	14.10	7.85	-38.2	-40.4	13.0	3.20e-05	0	53	0	123731968	45	5063
2026-01-09 04:14:34.88	14.08	7.93	-38.5	-40.8	12.6	1.07e-04	0	53	0	131072000	46	5018
2026-01-09 04:14:35.90	14.07	8.01	-38.4	-40.6	12.8	7.09e-05	0	53	0	138412032	46	4895
2026-01-09 04:14:36.91	14.05	8.09	-36.9	-38.6	15.1	2.20e-06	0	53	0	145752064	44	4356
2026-01-09 04:14:37.92	14.04	8.17	-37.8	-39.7	14.1	0.00e+00	0	53	0	153092096	45	4657
2026-01-09 04:14:38.93	14.02	8.25	-42.4	-52.0	3.8	1.00e-01	0	53	104	159383552	54	11517
2026-01-09 04:14:39.93	14.01	8.33	-37.0	-38.6	15.1	1.10e-06	0	53	0	162529280	44	4389
2026-01-09 04:14:40.94	13.99	8.41	-40.6	-43.9	9.5	2.92e-04	0	53	0	168820736	50	5673
2026-01-09 04:14:41.95	13.98	8.50	-36.5	-38.0	15.7	0.00e+00	0	53	0	177209344	44	4098
2026-01-09 04:14:42.96	13.96	8.58	-36.2	-37.7	15.9	0.00e+00	0	53	0	184549376	43	4178
2026-01-09 04:14:43.97	13.95	8.66	-36.1	-37.6	16.1	0.00e+00	0	53	0	190840832	42	4347
2026-01-09 04:14:44.98	13.93	8.74	-36.2	-37.7	15.9	0.00e+00	0	53	0	198180864	42	4417
2026-01-09 04:14:45.99	13.92	8.83	-36.2	-37.6	16.0	0.00e+00	0	53	0	205520896	42	4388
2026-01-09 04:14:47.00	13.90	8.91	-36.0	-37.4	16.3	0.00e+00	0	53	0	212860928	42	4279
2026-01-09 04:14:48.01	13.89	8.99	-36.0	-37.4	16.2	0.00e+00	0	53	0	220200960	42	4291
2026-01-09 04:14:49.01	13.87	9.07	-36.0	-37.5	16.3	0.00e+00	0	53	0	227540992	42	4296
2026-01-09 04:14:50.02	13.86	9.16	-36.1	-37.5	16.2	0.00e+00	0	53	0	234881024	42	4337
2026-01-09 04:14:51.03	13.84	9.24	-36.1	-37.5	16.2	0.00e+00	0	54	0	242221056	42	4318
2026-01-09 04:14:52.04	13.82	9.33	-36.0	-37.5	16.3	0.00e+00	0	53	0	249561088	42	4292
2026-01-09 04:14:53.05	13.81	9.41	-36.1	-37.5	16.2	0.00e+00	0	53	0	256901120	42	4325
2026-01-09 04:14:54.06	13.79	9.50	-36.0	-37.5	16.3	0.00e+00	0	53	0	264241152	42	4296
2026-01-09 04:14:55.07	13.78	9.58	-36.1	-37.6	16.2	0.00e+00	0	53	0	271581184	42	4344
2026-01-09 04:14:56.08	13.76	9.67	-36.1	-37.5	16.3	0.00e+00	0	53	0	278921216	42	4305
2026-01-09 04:14:57.09	13.74	9.75	-36.0	-37.4	16.4	0.00e+00	0	54	0	286261248	42	4253
2026-01-09 04:14:58.10	13.73	9.84	-35.9	-37.3	16.5	0.00e+00	0	53	0	293601280	42	4208
2026-01-09 04:14:59.11	13.71	9.93	-36.0	-37.4	16.4	0.00e+00	0	54	0	300941312	42	4283
2026-01-09 04:15:00.12	13.69	10.01	-35.9	-37.3	16.4	0.00e+00	0	54	0	308281344	42	4238
2026-01-09 04:15:01.13	13.67	10.10	-35.9	-37.3	16.5	0.00e+00	0	54	0	314572800	42	4221
2026-01-09 04:15:02.14	13.66	10.19	-35.9	-37.3	16.4	0.00e+00	0	54	0	321912832	42	4240
2026-01-09 04:15:03.15	13.64	10.28	-35.8	-37.2	16.6	0.00e+00	0	54	0	330301440	42	4152
2026-01-09 04:15:04.16	13.62	10.37	-35.9	-37.3	16.6	0.00e+00	0	54	0	336592896	42	4216
2026-01-09 04:15:05.17	13.60	10.45	-35.8	-37.2	16.6	0.00e+00	0	54	0	343932928	42	4165
2026-01-09 04:15:06.18	13.59	10.54	-35.8	-37.2	16.6	0.00e+00	0	54	0	351272960	42	4174
2026-01-09 04:15:07.19	13.57	10.63	-35.8	-37.2	16.7	0.00e+00	0	54	0	358612992	42	4146
2026-01-09 04:15:08.19	13.55	10.72	-35.9	-37.3	16.5	0.00e+00	0	54	0	365953024	42	4219
2026-01-09 04:15:09.20	13.53	10.81	-35.8	-37.1	16.7	0.00e+00	0	54	0	373293056	42	4140
2026-01-09 04:15:10.21	13.51	10.90	-35.8	-37.1	16.8	0.00e+00	0	54	0	380633088	42	4142
2026-01-09 04:15:11.22	13.50	10.99	-35.9	-37.2	16.7	0.00e+00	0	54	0	387973120	42	4173
2026-01-09 04:15:12.23	13.48	11.08	-35.7	-37.1	16.9	0.00e+00	0	54	0	395313152	42	4101
2026-01-09 04:15:13.24	13.46	11.17	-35.8	-37.1	16.8	0.00e+00	0	54	0	402653184	42	4126
2026-01-09 04:15:14.25	13.44	11.26	-35.7	-37.0	16.9	0.00e+00	0	54	0	409993216	42	4083
2026-01-09 04:15:15.26	13.42	11.36	-35.8	-37.2	16.8	0.00e+00	0	54	0	417333248	42	4156
2026-01-09 04:15:16.27	13.40	11.45	-35.7	-37.0	16.9	0.00e+00	0	54	0	424673280	42	4094
2026-01-09 04:15:17.28	13.38	11.54	-35.7	-37.0	17.0	0.00e+00	0	54	0	432013312	42	4070
2026-01-09 04:15:18.29	13.36	11.63	-35.6	-36.9	17.0	0.00e+00	0	54	0	439353344	42	4037
2026-01-09 04:15:19.30	13.34	11.73	-35.8	-37.1	16.8	0.00e+00	0	54	0	446693376	42	4128
2026-01-09 04:15:20.31	13.32	11.82	-35.6	-36.9	17.0	0.00e+00	0	54	0	454033408	42	4031
2026-01-09 04:15:21.32	13.30	11.91	-35.5	-36.9	17.0	0.00e+00	0	54	0	461373440	41	4247
2026-01-09 04:15:22.33	13.28	12.01	-35.4	-36.8	17.1	0.00e+00	0	54	0	467664896	41	4195
2026-01-09 04:15:23.34	13.26	12.10	-35.5	-36.8	17.1	0.00e+00	0	54	0	475004928	41	4214
2026-01-09 04:15:24.34	13.24	12.20	-35.5	-36.8	17.1	0.00e+00	0	54	0	483393536	41	4210
2026-01-09 04:15:25.35	13.22	12.29	-35.3	-36.6	17.3	0.00e+00	0	54	0	489684992	41	4120
2026-01-09 04:15:26.36	13.20	12.39	-35.3	-36.6	17.3	0.00e+00	0	54	0	497025024	41	4128
2026-01-09 04:15:27.37	13.18	12.48	-35.3	-36.6	17.3	0.00e+00	0	54	0	504365056	41	4116
2026-01-09 04:15:28.38	13.16	12.58	-35.3	-36.6	17.3	0.00e+00	0	54	0	511705088	41	4107
2026-01-09 04:15:29.39	13.14	12.68	-35.2	-36.5	17.5	0.00e+00	0	54	0	519045120	41	4061
2026-01-09 04:15:30.40	13.12	12.77	-35.2	-36.5	17.5	0.00e+00	0	54	0	526385152	41	4070
2026-01-09 04:15:31.41	13.09	12.87	-35.2	-36.4	17.6	0.00e+00	0	54	0	533725184	41	4046
2026-01-09 04:15:32.42	13.07	12.97	-35.3	-36.5	17.5	0.00e+00	0	54	0	541065216	41	4083
2026-01-09 04:15:33.43	13.05	13.07	-35.2	-36.5	17.6	0.00e+00	0	55	0	548405248	41	4063
2026-01-09 04:15:34.44	13.03	13.17	-35.0	-36.3	17.8	0.00e+00	0	54	0	555745280	41	3966
2026-01-09 04:15:35.45	13.01	13.26	-35.2	-36.5	17.6	0.00e+00	0	54	0	563085312	41	4060
2026-01-09 04:15:36.46	12.98	13.36	-35.2	-36.5	17.6	0.00e+00	0	54	0	570425344	41	4056
2026-01-09 04:15:37.47	12.96	13.46	-35.2	-36.5	17.6	0.00e+00	0	55	0	577765376	41	4057
2026-01-09 04:15:38.48	12.94	13.56	-35.2	-36.5	17.7	0.00e+00	0	55	0	585105408	41	4060
2026-01-09 04:15:39.49	12.92	13.67	-35.1	-36.3	17.9	0.00e+00	0	54	0	592445440	41	3975
2026-01-09 04:15:40.50	12.89	13.77	-35.0	-36.2	17.9	0.00e+00	0	54	0	599785472	41	3958
2026-01-09 04:15:41.51	12.87	13.87	-35.1	-36.3	17.9	0.00e+00	0	55	0	607125504	41	3993
2026-01-09 04:15:42.52	12.85	13.97	-35.1	-36.3	17.8	0.00e+00	0	55	0	614465536	41	3986
2026-01-09 04:15:43.53	12.82	14.07	-35.0	-36.2	17.9	0.00e+00	0	55	0	620756992	40	4186
2026-01-09 04:15:44.54	12.80	14.18	-35.0	-36.2	18.0	0.00e+00	0	55	0	628097024	40	4180
2026-01-09 04:15:45.55	12.77	14.28	-34.9	-36.1	18.1	0.00e+00	0	54	0	636485632	40	4111
2026-01-09 04:15:46.56	12.75	14.38	-35.1	-36.4	17.8	0.00e+00	0	55	0	642777088	40	4248
2026-01-09 04:15:47.57	12.73	14.49	-35.0	-36.2	18.0	0.00e+00	0	55	0	650117120	40	4169
2026-01-09 04:15:48.57	12.70	14.59	-34.9	-36.1	18.0	0.00e+00	0	55	0	657457152	40	4140
2026-01-09 04:15:49.58	12.68	14.70	-35.0	-36.1	18.0	0.00e+00	0	55	0	664797184	40	4144
2026-01-09 04:15:50.59	12.65	14.80	-35.1	-36.3	17.9	0.00e+00	0	55	0	672137216	40	4195
2026-01-09 04:15:51.60	12.63	14.91	-34.9	-36.0	18.2	0.00e+00	0	55	0	679477248	40	4089
2026-01-09 04:15:52.61	12.60	15.01	-34.8	-36.0	18.2	0.00e+00	0	55	0	686817280	40	4065
2026-01-09 04:15:53.62	12.57	15.12	-34.8	-36.0	18.2	0.00e+00	0	55	0	694157312	40	4085
2026-01-09 04:15:54.63	12.55	15.23	-34.7	-35.9	18.3	0.00e+00	0	55	0	701497344	40	4026
2026-01-09 04:15:55.64	12.52	15.34	-34.9	-36.1	18.2	0.00e+00	0	55	0	708837376	40	4100
2026-01-09 04:15:56.65	12.50	15.44	-34.8	-35.9	18.3	0.00e+00	0	55	0	716177408	40	4039
2026-01-09 04:15:57.66	12.47	15.55	-34.6	-35.8	18.5	0.00e+00	0	55	0	723517440	40	3973
2026-01-09 04:15:58.67	12.44	15.66	-34.7	-35.8	18.4	0.00e+00	0	55	0	730857472	40	3993
2026-01-09 04:15:59.68	12.41	15.77	-34.6	-35.8	18.5	0.00e+00	0	55	0	738197504	40	3970
2026-01-09 04:16:00.69	12.39	15.88	-34.5	-35.6	18.7	0.00e+00	0	55	0	744488960	40	3892
2026-01-09 04:16:01.70	12.36	15.99	-34.7	-35.8	18.6	0.00e+00	0	55	0	752877568	39	4227
2026-01-09 04:16:02.71	12.33	16.10	-34.5	-35.6	18.8	0.00e+00	0	55	0	760217600	39	4141
2026-01-09 04:16:03.72	12.30	16.22	-34.5	-35.6	18.8	0.00e+00	0	55	0	766509056	39	4129
2026-01-09 04:16:04.73	12.28	16.33	-34.5	-35.6	18.8	0.00e+00	0	55	0	773849088	39	4120
2026-01-09 04:16:05.74	12.25	16.44	-34.4	-35.5	18.9	0.00e+00	0	55	0	781189120	39	4059
2026-01-09 04:16:06.75	12.22	16.55	-34.5	-35.6	18.8	0.00e+00	0	55	0	788529152	39	4119
2026-01-09 04:16:07.75	12.19	16.67	-34.3	-35.4	19.0	0.00e+00	0	55	0	795869184	39	4013
2026-01-09 04:16:08.76	12.16	16.78	-34.3	-35.4	19.0	0.00e+00	0	55	0	803209216	39	4012
2026-01-09 04:16:09.77	12.13	16.90	-34.3	-35.4	19.1	0.00e+00	0	55	0	810549248	39	4008
2026-01-09 04:16:10.78	12.10	17.01	-34.2	-35.2	19.2	0.00e+00	0	55	0	817889280	39	3954
2026-01-09 04:16:11.79	12.07	17.13	-34.1	-35.2	19.2	0.00e+00	0	55	0	825229312	39	3948
2026-01-09 04:16:12.80	12.04	17.24	-34.2	-35.3	19.2	0.00e+00	0	55	0	832569344	39	3968
2026-01-09 04:16:13.81	12.01	17.36	-34.2	-35.3	19.1	0.00e+00	0	55	0	839909376	39	3993
2026-01-09 04:16:14.82	11.98	17.48	-34.1	-35.2	19.2	0.00e+00	0	55	0	847249408	39	3943
2026-01-09 04:16:15.83	11.95	17.60	-34.1	-35.2	19.3	0.00e+00	0	55	0	854589440	39	3922
2026-01-09 04:16:16.83	11.92	17.71	-34.2	-35.3	19.2	0.00e+00	0	55	0	861929472	39	3981
2026-01-09 04:16:17.85	11.89	17.83	-34.1	-35.1	19.3	0.00e+00	0	55	0	869269504	39	3899
2026-01-09 04:16:18.86	11.85	17.95	-34.1	-35.2	19.3	0.00e+00	0	55	0	876609536	39	3932
2026-01-09 04:16:19.86	11.82	18.07	-34.1	-35.2	19.3	0.00e+00	0	55	0	883949568	39	3920
2026-01-09 04:16:20.88	11.79	18.19	-34.1	-35.2	19.3	0.00e+00	0	55	0	891289600	39	3923
2026-01-09 04:16:21.88	11.76	18.32	-34.0	-35.0	19.4	0.00e+00	0	55	0	897581056	38	4094
2026-01-09 04:16:22.89	11.72	18.44	-33.9	-35.0	19.5	0.00e+00	0	55	0	905969664	38	4067
2026-01-09 04:16:23.90	11.69	18.56	-34.0	-35.0	19.5	0.00e+00	0	55	0	913309696	38	4086
2026-01-09 04:16:24.91	11.66	18.68	-33.9	-35.0	19.5	0.00e+00	0	56	0	919601152	38	4074
2026-01-09 04:16:25.92	11.62	18.81	-33.9	-35.0	19.5	0.00e+00	0	56	0	926941184	38	4054
2026-01-09 04:16:26.93	11.59	18.93	-33.8	-34.8	19.7	0.00e+00	0	56	0	934281216	38	4004
2026-01-09 04:16:27.94	11.55	19.06	-34.0	-35.1	19.4	0.00e+00	0	55	0	941621248	38	4103
2026-01-09 04:16:28.95	11.52	19.18	-33.9	-34.9	19.6	0.00e+00	0	55	0	948961280	38	4038
2026-01-09 04:16:29.96	11.48	19.31	-33.8	-34.9	19.6	0.00e+00	0	55	0	956301312	38	4008
2026-01-09 04:16:30.97	11.45	19.44	-33.8	-34.8	19.7	0.00e+00	0	55	0	963641344	38	3997
2026-01-09 04:16:31.98	11.41	19.56	-33.8	-34.9	19.7	0.00e+00	0	56	0	970981376	38	4014
2026-01-09 04:16:32.99	11.38	19.69	-33.8	-34.8	19.7	0.00e+00	0	56	0	978321408	38	3992
2026-01-09 04:16:34.00	11.34	19.82	-33.8	-34.9	19.7	0.00e+00	0	55	0	985661440	38	4012
2026-01-09 04:16:35.01	11.30	19.95	-33.8	-34.8	19.7	0.00e+00	0	56	0	993001472	38	3975
2026-01-09 04:16:36.02	11.27	20.08	-33.8	-34.8	19.7	0.00e+00	0	55	0	1000341504	38	3988
2026-01-09 04:16:37.03	11.23	20.21	-33.8	-34.9	19.7	0.00e+00	0	56	0	1007681536	38	4011
2026-01-09 04:16:38.04	11.19	20.35	-33.9	-34.9	19.6	0.00e+00	0	55	0	1015021568	38	4046
2026-01-09 04:16:39.04	11.15	20.48	-33.7	-34.8	19.8	0.00e+00	0	55	0	1022361600	38	3965
2026-01-09 04:16:40.05	11.11	20.61	-33.6	-34.7	19.9	0.00e+00	0	55	0	1029701632	38	3915
2026-01-09 04:16:41.06	11.07	20.74	-33.7	-34.7	19.8	0.00e+00	0	56	0	1037041664	38	3941
2026-01-09 04:16:42.07	11.03	20.88	-33.7	-34.7	19.9	0.00e+00	0	55	0	1043333120	38	3937
2026-01-09 04:16:43.08	10.99	21.01	-33.6	-34.6	19.9	0.00e+00	0	55	0	1050673152	38	3897
2026-01-09 04:16:44.09	10.95	21.15	-33.7	-34.7	19.8	0.00e+00	0	55	0	1058013184	38	3942
2026-01-09 04:16:45.10	10.91	21.29	-33.7	-34.8	19.8	0.00e+00	0	55	0	1065353216	38	3959
2026-01-09 04:16:46.11	10.87	21.42	-33.7	-34.7	19.9	0.00e+00	0	56	0	1072693248	38	3930
2026-01-09 04:16:47.12	10.83	21.56	-33.7	-34.7	19.8	0.00e+00	0	56	0	1080033280	38	3953
2026-01-09 04:16:48.13	10.79	21.70	-33.7	-34.7	19.8	0.00e+00	0	56	0	1087373312	38	3951
2026-01-09 04:16:49.14	10.75	21.84	-33.7	-34.7	19.9	0.00e+00	0	56	0	1094713344	38	3926
2026-01-09 04:16:50.15	10.70	21.98	-33.6	-34.7	19.9	0.00e+00	0	56	0	1102053376	38	3923
2026-01-09 04:16:51.16	10.66	22.12	-33.8	-34.8	19.8	0.00e+00	0	56	0	1109393408	38	3976
2026-01-09 04:16:52.17	10.62	22.26	-33.7	-34.7	19.9	0.00e+00	0	56	0	1116733440	38	3934
2026-01-09 04:16:53.18	10.57	22.41	-33.7	-34.7	19.8	0.00e+00	0	56	0	1124073472	38	3942
2026-01-09 04:16:54.19	10.53	22.55	-33.7	-34.7	19.9	0.00e+00	0	56	0	1131413504	38	3935
2026-01-09 04:16:55.20	10.48	22.69	-33.6	-34.6	20.0	0.00e+00	0	56	0	1138753536	38	3898
2026-01-09 04:16:56.21	10.44	22.84	-33.6	-34.6	19.9	0.00e+00	0	56	0	1146093568	38	3910
2026-01-09 04:16:57.22	10.39	22.98	-33.6	-34.6	20.0	0.00e+00	0	56	0	1153433600	38	3900
2026-01-09 04:16:58.23	10.35	23.13	-33.5	-34.5	20.1	0.00e+00	0	56	0	1160773632	38	3865
2026-01-09 04:16:59.23	10.30	23.28	-33.5	-34.5	20.0	0.00e+00	0	56	0	1168113664	37	4096
2026-01-09 04:17:00.24	10.25	23.43	-33.6	-34.6	20.0	0.00e+00	0	56	0	1174405120	37	4112
2026-01-09 04:17:01.25	10.21	23.57	-33.6	-34.6	20.0	0.00e+00	0	56	0	1182793728	37	4132
2026-01-09 04:17:02.26	10.16	23.72	-33.6	-34.6	20.0	0.00e+00	0	56	0	1190133760	37	4116
2026-01-09 04:17:03.27	10.11	23.88	-33.6	-34.6	19.9	0.00e+00	0	56	0	1196425216	37	4145
2026-01-09 04:17:04.28	10.06	24.03	-33.7	-34.7	19.9	0.00e+00	0	56	0	1203765248	37	4161
2026-01-09 04:17:05.29	10.01	24.18	-33.6	-34.6	19.9	0.00e+00	0	56	0	1212153856	37	4144
2026-01-09 04:17:06.30	9.96	24.33	-33.5	-34.6	20.0	0.00e+00	0	56	0	1218445312	37	4104
2026-01-09 04:17:07.31	9.91	24.49	-33.5	-34.6	20.0	0.00e+00	0	56	0	1225785344	37	4100
2026-01-09 04:17:08.32	9.86	24.64	-33.5	-34.5	20.1	0.00e+00	0	56	0	1233125376	37	4067
2026-01-09 04:17:09.33	9.81	24.80	-33.4	-34.4	20.2	0.00e+00	0	56	0	1240465408	37	4043
2026-01-09 04:17:10.34	9.75	24.96	-33.5	-34.5	20.1	0.00e+00	0	56	0	1247805440	37	4080
2026-01-09 04:17:11.35	9.70	25.11	-33.4	-34.4	20.2	0.00e+00	0	56	0	1255145472	37	4043
2026-01-09 04:17:12.36	9.65	25.27	-33.4	-34.4	20.2	0.00e+00	0	56	0	1262485504	37	4006
2026-01-09 04:17:13.37	9.59	25.43	-33.3	-34.3	20.3	0.00e+00	0	56	0	1269825536	37	3985
2026-01-09 04:17:14.38	9.54	25.59	-33.4	-34.4	20.2	0.00e+00	0	56	0	1277165568	37	4027
2026-01-09 04:17:15.39	9.48	25.76	-33.3	-34.3	20.3	0.00e+00	0	56	0	1284505600	37	3968
2026-01-09 04:17:16.40	9.43	25.92	-33.2	-34.2	20.4	0.00e+00	0	56	0	1291845632	37	3939
2026-01-09 04:17:17.40	9.37	26.08	-33.2	-34.1	20.4	0.00e+00	0	56	0	1299185664	37	3908
2026-01-09 04:17:18.41	9.32	26.24	-33.2	-34.2	20.4	0.00e+00	0	56	0	1306525696	37	3932
2026-01-09 04:17:19.42	9.26	26.41	-33.1	-34.1	20.5	0.00e+00	0	56	0	1313865728	37	3889
2026-01-09 04:17:20.43	9.20	26.58	-33.1	-34.1	20.5	0.00e+00	0	56	0	1320157184	37	3891
2026-01-09 04:17:21.44	9.14	26.74	-33.1	-34.1	20.6	0.00e+00	0	56	0	1327497216	37	3872
2026-01-09 04:17:22.45	9.08	26.91	-33.1	-34.1	20.5	0.00e+00	0	56	0	1335885824	37	3892
2026-01-09 04:17:23.46	9.02	27.08	-33.0	-34.0	20.7	0.00e+00	0	56	0	1342177280	36	4063
2026-01-09 04:17:24.47	8.96	27.25	-33.0	-34.0	20.6	0.00e+00	0	56	0	1349517312	36	4069
2026-01-09 04:17:25.48	8.90	27.42	-33.0	-34.0	20.6	0.00e+00	0	56	0	1356857344	36	4070
2026-01-09 04:17:26.49	8.83	27.60	-32.9	-33.8	20.8	0.00e+00	0	56	0	1364197376	36	4002
2026-01-09 04:17:27.50	8.77	27.77	-32.9	-33.9	20.7	0.00e+00	0	56	0	1371537408	36	4023
2026-01-09 04:17:28.51	8.71	27.95	-32.8	-33.8	20.8	0.00e+00	0	56	0	1378877440	36	3986
2026-01-09 04:17:29.52	8.64	28.12	-32.9	-33.9	20.7	0.00e+00	0	56	0	1386217472	36	4024
2026-01-09 04:17:30.53	8.58	28.30	-32.8	-33.7	20.9	0.00e+00	0	56	0	1393557504	36	3947
2026-01-09 04:17:31.54	8.51	28.48	-32.8	-33.8	20.9	0.00e+00	0	56	0	1400897536	36	3959
2026-01-09 04:17:32.55	8.44	28.66	-32.7	-33.7	20.9	0.00e+00	0	56	0	1408237568	36	3932
2026-01-09 04:17:33.56	8.38	28.84	-32.7	-33.7	20.9	0.00e+00	0	56	0	1415577600	36	3927
2026-01-09 04:17:34.57	8.31	29.02	-32.7	-33.7	20.9	0.00e+00	0	56	0	1422917632	36	3920
2026-01-09 04:17:35.57	8.24	29.20	-32.7	-33.6	21.0	0.00e+00	0	56	0	1430257664	36	3897
2026-01-09 04:17:36.58	8.17	29.38	-32.8	-33.7	20.9	0.00e+00	0	56	0	1437597696	36	3950
2026-01-09 04:17:37.59	8.10	29.57	-32.7	-33.7	21.0	0.00e+00	0	56	0	1444937728	36	3917
2026-01-09 04:17:38.60	8.03	29.75	-32.6	-33.6	21.0	0.00e+00	0	56	0	1452277760	36	3889
2026-01-09 04:17:39.61	7.95	29.94	-32.7	-33.7	21.0	0.00e+00	0	56	0	1459617792	36	3926
2026-01-09 04:17:40.62	7.88	30.13	-32.7	-33.7	21.0	0.00e+00	0	56	0	1466957824	36	3925
2026-01-09 04:17:41.63	7.80	30.32	-32.7	-33.6	21.0	0.00e+00	0	56	0	1473249280	36	3893
2026-01-09 04:17:42.64	7.73	30.51	-32.7	-33.7	21.0	0.00e+00	0	56	0	1480589312	36	3922
2026-01-09 04:17:43.65	7.65	30.70	-32.8	-33.7	20.9	0.00e+00	0	56	0	1488977920	36	3943
2026-01-09 04:17:44.66	7.58	30.89	-32.8	-33.7	20.9	0.00e+00	0	56	0	1495269376	36	3944
2026-01-09 04:17:45.67	7.50	31.09	-32.7	-33.6	21.0	0.00e+00	0	56	0	1502609408	36	3907
2026-01-09 04:17:46.68	7.42	31.28	-32.8	-33.8	20.9	0.00e+00	0	56	0	1509949440	36	3968
2026-01-09 04:17:47.69	7.34	31.48	-32.8	-33.8	20.9	0.00e+00	0	56	0	1517289472	36	3963
2026-01-09 04:17:48.70	7.26	31.68	-32.8	-33.8	20.9	0.00e+00	0	56	0	1524629504	36	3973
2026-01-09 04:17:49.71	7.17	31.88	-32.9	-33.9	20.8	0.00e+00	0	56	0	1531969536	36	4025
2026-01-09 04:17:50.72	7.09	32.08	-33.0	-34.0	20.7	0.00e+00	0	56	0	1539309568	36	4073
2026-01-09 04:17:51.73	7.00	32.28	-33.0	-34.0	20.7	0.00e+00	0	56	0	1546649600	36	4073
2026-01-09 04:17:52.74	6.92	32.49	-33.0	-34.0	20.7	0.00e+00	0	56	0	1553989632	36	4059
2026-01-09 04:17:53.75	6.83	32.69	-33.0	-34.0	20.7	0.00e+00	0	56	0	1561329664	36	4062
2026-01-09 04:17:54.76	6.74	32.90	-32.9	-33.9	20.8	0.00e+00	0	56	0	1568669696	36	4043
2026-01-09 04:17:55.77	6.65	33.10	-32.9	-33.9	20.8	0.00e+00	0	56	0	1576009728	36	4034
2026-01-09 04:17:56.78	6.56	33.31	-32.8	-33.8	20.9	0.00e+00	0	56	0	1583349760	36	3971
2026-01-09 04:17:57.79	6.47	33.52	-33.0	-34.0	20.7	0.00e+00	0	56	0	1590689792	36	4066
2026-01-09 04:17:58.80	6.38	33.73	-32.8	-33.8	20.9	0.00e+00	0	56	0	1598029824	36	3975
2026-01-09 04:17:59.81	6.28	33.95	-32.8	-33.7	21.0	0.00e+00	0	56	0	1605369856	36	3956
2026-01-09 04:18:00.82	6.19	34.16	-32.7	-33.7	21.0	0.00e+00	0	56	0	1612709888	36	3927
2026-01-09 04:18:01.83	6.09	34.38	-32.8	-33.7	21.0	0.00e+00	0	56	0	1619001344	36	3946
2026-01-09 04:18:02.84	5.99	34.59	-32.7	-33.7	21.0	0.00e+00	0	56	0	1626341376	36	3928
2026-01-09 04:18:03.85	5.89	34.81	-32.6	-33.5	21.1	0.00e+00	0	56	0	1634729984	36	3866
2026-01-09 04:18:04.86	5.79	35.03	-32.6	-33.5	21.2	0.00e+00	0	56	0	1641021440	36	3854
2026-01-09 04:18:05.87	5.69	35.25	-32.6	-33.5	21.2	0.00e+00	0	56	0	1648361472	36	3845
2026-01-09 04:18:06.88	5.59	35.48	-32.6	-33.5	21.1	0.00e+00	0	56	0	1655701504	36	3864
2026-01-09 04:18:07.88	5.48	35.70	-32.6	-33.6	21.1	0.00e+00	0	56	0	1663041536	36	3889
2026-01-09 04:18:08.89	5.38	35.93	-32.7	-33.7	21.0	0.00e+00	0	56	0	1670381568	36	3934
2026-01-09 04:18:09.91	5.27	36.15	-32.8	-33.8	20.9	0.00e+00	0	56	0	1677721600	36	3966
2026-01-09 04:18:10.91	5.16	36.38	-32.8	-33.8	20.9	0.00e+00	0	56	0	1685061632	36	3974
2026-01-09 04:18:11.93	5.05	36.61	-32.8	-33.7	21.0	0.00e+00	0	56	0	1692401664	36	3947
2026-01-09 04:18:12.94	4.93	36.85	-32.9	-33.9	20.8	0.00e+00	0	56	0	1699741696	36	4020
2026-01-09 04:18:13.95	4.82	37.08	-32.9	-33.9	20.8	0.00e+00	0	56	0	1707081728	36	4019
2026-01-09 04:18:14.96	4.70	37.31	-32.9	-33.8	20.9	0.00e+00	0	56	0	1714421760	36	3997
2026-01-09 04:18:15.96	4.58	37.55	-33.0	-33.9	20.8	0.00e+00	0	56	0	1721761792	36	4051
2026-01-09 04:18:16.97	4.46	37.79	-33.2	-34.1	20.6	0.00e+00	0	56	0	1729101824	36	4141
2026-01-09 04:18:17.98	4.34	38.03	-33.1	-34.1	20.7	0.00e+00	0	56	0	1736441856	36	4104
2026-01-09 04:18:18.99	4.22	38.27	-33.2	-34.2	20.5	0.00e+00	0	57	0	1743781888	36	4167
2026-01-09 04:18:20.00	4.09	38.51	-33.2	-34.2	20.6	0.00e+00	0	56	0	1751121920	36	4149
2026-01-09 04:18:21.01	3.96	38.75	-33.1	-34.1	20.6	0.00e+00	0	56	0	1758461952	36	4135
2026-01-09 04:18:22.02	3.83	39.00	-33.1	-34.1	20.6	0.00e+00	0	57	0	1765801984	36	4129
2026-01-09 04:18:23.03	3.70	39.25	-33.2	-34.2	20.6	0.00e+00	0	56	0	1772093440	36	4146
2026-01-09 04:18:24.04	3.57	39.50	-33.1	-34.1	20.7	0.00e+00	0	56	0	1779433472	36	4119
2026-01-09 04:18:25.05	3.43	39.75	-32.9	-33.9	20.8	0.00e+00	0	57	0	1787822080	36	4016
2026-01-09 04:18:26.06	3.29	40.00	-33.0	-34.0	20.7	1.10e-06	0	57	0	1794113536	36	4070
2026-01-09 04:18:27.06	3.16	40.25	-33.1	-34.0	20.7	0.00e+00	0	56	0	1801453568	36	4093
2026-01-09 04:18:28.08	3.01	40.51	-33.1	-34.1	20.6	0.00e+00	0	56	0	1808793600	36	4138
2026-01-09 04:18:29.08	2.87	40.76	-33.0	-34.0	20.8	0.00e+00	0	57	0	1816133632	36	4074
2026-01-09 04:18:30.09	2.72	41.02	-33.0	-34.0	20.7	0.00e+00	0	56	0	1823473664	36	4087
2026-01-09 04:18:31.10	2.57	41.28	-33.0	-33.9	20.8	0.00e+00	0	56	0	1830813696	36	4044
2026-01-09 04:18:32.11	2.42	41.54	-33.1	-34.0	20.7	0.00e+00	0	56	0	1838153728	36	4089
2026-01-09 04:18:33.12	2.26	41.81	-33.0	-34.0	20.7	0.00e+00	0	57	0	1845493760	36	4074
2026-01-09 04:18:34.13	2.11	42.07	-33.1	-34.1	20.7	0.00e+00	0	57	0	1852833792	36	4111
2026-01-09 04:18:35.14	1.95	42.34	-33.1	-34.1	20.7	0.00e+00	0	56	0	1860173824	36	4109
2026-01-09 04:18:36.15	1.78	42.61	-33.1	-34.0	20.7	0.00e+00	0	56	0	1867513856	36	4082
2026-01-09 04:18:37.16	1.62	42.88	-33.0	-33.9	20.8	0.00e+00	0	57	0	1874853888	36	4050
2026-01-09 04:18:38.17	1.45	43.15	-33.0	-34.0	20.7	0.00e+00	0	56	0	1882193920	36	4066
2026-01-09 04:18:39.18	1.28	43.43	-33.1	-34.0	20.7	0.00e+00	0	56	0	1889533952	36	4089
2026-01-09 04:18:40.19	1.10	43.70	-33.0	-34.0	20.7	0.00e+00	0	57	0	1896873984	36	4080
2026-01-09 04:18:41.20	0.93	43.98	-33.0	-33.9	20.8	0.00e+00	0	57	0	1904214016	36	4050
2026-01-09 04:18:42.20	0.75	44.25	-32.9	-33.8	20.9	0.00e+00	0	56	0	1911554048	36	3991
2026-01-09 04:18:43.21	0.56	44.53	-32.9	-33.9	20.9	0.00e+00	0	56	0	1918894080	36	4005
2026-01-09 04:18:44.22	0.38	44.82	-33.2	-34.2	20.5	0.00e+00	0	57	0	1925185536	36	4169
2026-01-09 04:18:45.23	0.18	45.10	-33.0	-34.0	20.8	0.00e+00	0	56	0	1932525568	36	4065
2026-01-09 04:18:46.24	359.99	45.39	-33.1	-34.1	20.7	0.00e+00	0	56	0	1939865600	36	4114
2026-01-09 04:18:47.25	359.79	45.67	-33.5	-34.4	20.3	0.00e+00	0	56	0	1947205632	36	4286
2026-01-09 04:18:48.26	359.59	45.96	-33.7	-34.7	20.1	0.00e+00	0	57	0	1954545664	36	4407
2026-01-09 04:18:49.27	359.39	46.25	-34.1	-35.1	19.7	0.00e+00	0	56	0	1961885696	37	4389
2026-01-09 04:18:50.28	359.18	46.55	-34.2	-35.2	19.6	0.00e+00	0	57	0	1969225728	37	4419
2026-01-09 04:18:51.29	358.96	46.84	-34.1	-35.2	19.6	0.00e+00	0	57	0	1976565760	37	4393
2026-01-09 04:18:52.30	358.75	47.13	-34.0	-35.1	18.7	0.00e+00	0	57	0	1983905792	37	4380
2026-01-09 04:18:53.31	358.52	47.43	-34.0	-35.1	18.8	0.00e+00	0	57	0	1991245824	37	4359
2026-01-09 04:18:54.32	358.30	47.73	-33.7	-34.8	19.0	0.00e+00	0	57	0	1998585856	37	4220
2026-01-09 04:18:55.33	358.07	48.03	-33.8	-34.9	19.1	0.00e+00	0	57	0	2005925888	37	4257
2026-01-09 04:18:56.34	357.83	48.33	-33.8	-34.8	19.1	0.00e+00	0	57	0	2013265920	37	4217
2026-01-09 04:18:57.35	357.59	48.64	-33.9	-35.0	19.0	0.00e+00	0	57	0	2020605952	37	4331
2026-01-09 04:18:58.36	357.35	48.94	-34.0	-35.1	18.9	0.00e+00	0	57	0	2027945984	37	4386
2026-01-09 04:18:59.37	357.10	49.25	-34.2	-35.3	18.9	0.00e+00	0	57	0	2035286016	38	4199
2026-01-09 04:19:00.38	356.84	49.56	-34.1	-35.2	18.9	0.00e+00	0	57	0	2042626048	38	4173
2026-01-09 04:19:01.39	356.58	49.87	-34.3	-35.4	18.8	0.00e+00	0	57	0	2048917504	38	4256
2026-01-09 04:19:02.40	356.32	50.18	-34.4	-35.5	18.8	0.00e+00	0	57	0	2057306112	38	4299
2026-01-09 04:19:03.41	356.05	50.49	-34.4	-35.5	18.8	0.00e+00	0	57	0	2064646144	38	4326
2026-01-09 04:19:04.42	355.77	50.80	-34.6	-35.8	18.5	0.00e+00	0	57	0	2070937600	39	4202
2026-01-09 04:19:05.43	355.49	51.12	-34.5	-35.6	18.8	0.00e+00	0	57	0	2078277632	39	4138
2026-01-09 04:19:06.44	355.20	51.44	-34.7	-35.9	18.5	0.00e+00	0	57	0	2085617664	39	4250
2026-01-09 04:19:07.45	354.90	51.75	-34.7	-35.8	19.0	0.00e+00	0	57	0	2092957696	39	4222
2026-01-09 04:19:08.45	354.60	52.07	-34.4	-35.4	19.4	0.00e+00	0	57	0	2100297728	39	4035
2026-01-09 04:19:09.46	354.29	52.39	-34.2	-35.2	19.6	0.00e+00	0	57	0	2107637760	39	3929
2026-01-09 04:19:10.47	353.98	52.71	-33.9	-34.9	19.8	0.00e+00	0	57	0	2114977792	38	4050
2026-01-09 04:19:11.48	353.66	53.04	-34.1	-35.2	19.7	0.00e+00	0	57	0	2122317824	38	4162
2026-01-09 04:19:12.49	353.33	53.36	-34.3	-35.3	19.5	0.00e+00	0	57	0	2129657856	38	4236
2026-01-09 04:19:13.50	352.99	53.69	-34.5	-35.6	19.3	0.00e+00	0	57	0	2136997888	38	4361
2026-01-09 04:19:14.51	352.64	54.01	-34.7	-35.8	19.1	0.00e+00	0	57	0	2144337920	38	4472
2026-01-09 04:19:15.52	352.29	54.34	-33.6	-34.5	20.2	0.00e+00	0	57	0	2151677952	38	3858
2026-01-09 04:19:16.53	351.93	54.67	-34.5	-35.6	19.3	0.00e+00	0	57	0	2159017984	39	4112
2026-01-09 04:19:17.54	351.56	55.00	-34.6	-35.7	19.1	0.00e+00	0	57	0	2166358016	39	4185
2026-01-09 04:19:18.55	351.18	55.33	-34.5	-35.6	19.3	0.00e+00	0	57	0	2173698048	39	4114
2026-01-09 04:19:19.56	350.79	55.66	-34.5	-35.5	19.3	0.00e+00	0	57	0	2181038080	39	4092
2026-01-09 04:19:20.57	350.40	55.99	-34.5	-35.5	19.4	0.00e+00	0	57	0	2188378112	39	4089
2026-01-09 04:19:21.58	349.99	56.32	-34.7	-35.7	19.1	0.00e+00	0	57	0	2195718144	39	4188
2026-01-09 04:19:22.59	349.58	56.66	-34.7	-35.7	19.1	0.00e+00	0	57	0	2203058176	39	4187
2026-01-09 04:19:23.61	349.14	56.99	-34.9	-36.0	18.9	0.00e+00	0	57	0	2210398208	39	4292
2026-01-09 04:19:24.61	348.71	57.32	-34.8	-35.9	18.9	0.00e+00	0	57	0	2217738240	39	4278
2026-01-09 04:19:25.62	348.26	57.66	-34.8	-35.9	19.0	0.00e+00	0	57	0	2224029696	39	4258
2026-01-09 04:19:26.63	347.80	57.99	-34.6	-35.7	19.2	0.00e+00	0	57	0	2231369728	39	4170
2026-01-09 04:19:27.64	347.33	58.33	-34.6	-35.7	19.2	0.00e+00	0	57	0	2238709760	39	4149
2026-01-09 04:19:28.65	346.85	58.66	-34.5	-35.6	19.3	0.00e+00	0	57	0	2246049792	39	4109
2026-01-09 04:19:29.66	346.35	59.00	-34.2	-35.2	19.6	0.00e+00	0	57	0	2253389824	39	3948
2026-01-09 04:19:30.67	345.84	59.33	-34.1	-35.1	19.8	0.00e+00	0	57	0	2260729856	38	4117
2026-01-09 04:19:31.68	345.32	59.66	-34.3	-35.4	19.5	0.00e+00	0	57	0	2268069888	38	4243
2026-01-09 04:19:32.69	344.79	60.00	-34.3	-35.4	19.5	1.10e-06	0	57	0	2275409920	38	4255
2026-01-09 04:19:33.70	344.24	60.33	-34.1	-35.2	19.7	0.00e+00	0	57	0	2282749952	38	4162
2026-01-09 04:19:34.71	343.67	60.66	-34.1	-35.1	19.7	0.00e+00	0	57	0	2290089984	38	4117
2026-01-09 04:19:35.72	343.09	60.99	-33.8	-34.8	19.7	0.00e+00	0	57	0	2297430016	38	3978
2026-01-09 04:19:36.73	342.50	61.32	-33.6	-34.6	20.0	0.00e+00	0	57	0	2304770048	37	4131
2026-01-09 04:19:37.74	341.89	61.65	-33.7	-34.7	20.1	0.00e+00	0	57	0	2312110080	37	4181
2026-01-09 04:19:38.75	341.26	61.98	-33.6	-34.6	20.2	1.83e-04	0	57	0	2319450112	37	4122
2026-01-09 04:19:39.76	340.61	62.31	-33.6	-34.6	20.3	0.00e+00	0	57	0	2326790144	37	4100
2026-01-09 04:19:40.77	339.95	62.63	-33.4	-34.4	20.4	0.00e+00	0	57	0	2334130176	37	4024
2026-01-09 04:19:41.78	339.27	62.96	-33.2	-34.2	20.5	0.00e+00	0	57	0	2341470208	37	3943
2026-01-09 04:19:42.78	338.58	63.27	-33.3	-34.3	20.4	0.00e+00	0	57	0	2347761664	37	3997
2026-01-09 04:19:43.79	337.86	63.59	-33.2	-34.2	20.5	0.00e+00	0	57	0	2355101696	37	3926
2026-01-09 04:19:44.80	337.12	63.91	-33.3	-34.3	20.3	5.49e-05	0	57	0	2363490304	37	3991
2026-01-09 04:19:45.81	336.36	64.22	-33.6	-34.6	20.1	0.00e+00	0	57	0	2369781760	37	4134
2026-01-09 04:19:46.82	335.58	64.54	-33.5	-34.5	20.2	0.00e+00	0	57	0	2377121792	37	4083
2026-01-09 04:19:47.83	334.78	64.84	-33.2	-34.2	20.5	0.00e+00	0	57	0	2384461824	37	3926
2026-01-09 04:19:48.84	333.96	65.15	-33.0	-34.0	20.7	0.00e+00	0	57	0	2391801856	37	3857
2026-01-09 04:19:49.85	333.11	65.45	-32.9	-33.8	20.9	0.00e+00	0	57	0	2399141888	36	3997
2026-01-09 04:19:50.86	332.24	65.75	-32.6	-33.6	21.1	0.00e+00	0	57	0	2406481920	36	3880
2026-01-09 04:19:51.87	331.35	66.04	-31.4	-32.3	21.5	0.00e+00	0	57	0	2413821952	33	3999
2026-01-09 04:19:52.88	330.43	66.33	-31.8	-32.8	21.1	0.00e+00	0	57	0	2421161984	33	4205
2026-01-09 04:19:53.89	329.49	66.61	-32.0	-32.9	20.9	0.00e+00	0	57	0	2428502016	33	4279
2026-01-09 04:19:54.90	328.52	66.89	-32.0	-32.9	20.9	0.00e+00	0	57	0	2435842048	33	4278
2026-01-09 04:19:55.91	327.53	67.17	-31.9	-32.9	21.0	0.00e+00	0	57	0	2443182080	33	4257
2026-01-09 04:19:56.92	326.51	67.43	-32.2	-33.1	20.8	0.00e+00	0	57	0	2450522112	34	4142
2026-01-09 04:19:57.93	325.46	67.70	-32.0	-33.0	20.9	0.00e+00	0	57	0	2457862144	34	4075
2026-01-09 04:19:58.94	324.39	67.95	-32.1	-33.1	20.8	0.00e+00	0	57	0	2465202176	34	4103
2026-01-09 04:19:59.95	323.29	68.20	-32.1	-33.1	20.8	0.00e+00	0	57	0	2472542208	34	4108
2026-01-09 04:20:00.95	322.17	68.44	-32.5	-33.4	20.5	0.00e+00	0	57	0	2479882240	34	4289
2026-01-09 04:20:01.96	321.01	68.68	-32.3	-33.3	20.4	0.00e+00	0	57	0	2487222272	34	4206
2026-01-09 04:20:02.97	319.83	68.91	-32.4	-33.4	20.5	0.00e+00	0	57	0	2494562304	34	4283
2026-01-09 04:20:03.98	318.62	69.12	-32.2	-33.2	20.7	0.00e+00	0	57	0	2500853760	34	4154
2026-01-09 04:20:04.99	317.38	69.34	-31.9	-32.8	20.8	0.00e+00	0	57	0	2508193792	34	3989
2026-01-09 04:20:06.00	316.12	69.54	-32.2	-33.1	20.7	0.00e+00	0	57	0	2516582400	34	4136
2026-01-09 04:20:07.01	314.83	69.73	-32.5	-33.5	20.4	0.00e+00	0	57	0	2522873856	34	4298
2026-01-09 04:20:08.02	313.51	69.92	-32.4	-33.4	20.5	0.00e+00	0	57	0	2530213888	34	4277
2026-01-09 04:20:09.03	312.17	70.09	-32.2	-33.2	20.6	0.00e+00	0	57	0	2537553920	34	4179
2026-01-09 04:20:10.04	310.80	70.25	-31.9	-32.9	20.9	0.00e+00	0	57	0	2544893952	34	4019
2026-01-09 04:20:11.05	309.41	70.41	-32.0	-33.0	20.9	0.00e+00	0	57	0	2552233984	34	4052
2026-01-09 04:20:12.06	307.99	70.55	-32.2	-33.2	20.7	0.00e+00	0	57	0	2559574016	34	4160
2026-01-09 04:20:13.07	306.56	70.68	-32.5	-33.5	20.4	0.00e+00	0	57	0	2566914048	34	4304
2026-01-09 04:20:14.08	305.10	70.80	-32.9	-34.0	19.9	0.00e+00	0	57	0	2574254080	35	4298
2026-01-09 04:20:15.09	303.63	70.91	-32.8	-33.8	20.1	1.60e-05	0	57	0	2581594112	35	4202
2026-01-09 04:20:16.10	302.14	71.01	-32.4	-33.3	20.5	0.00e+00	0	57	0	2588934144	35	3986
2026-01-09 04:20:17.11	300.63	71.09	-32.2	-33.1	20.6	0.00e+00	0	57	0	2596274176	35	3910
2026-01-09 04:20:18.12	299.11	71.16	-32.1	-33.0	20.8	0.00e+00	0	57	0	2603614208	35	3855
2026-01-09 04:20:19.13	297.58	71.22	-32.1	-33.0	20.8	0.00e+00	0	57	0	2610954240	34	4086
2026-01-09 04:20:20.14	296.04	71.27	-32.2	-33.2	20.7	0.00e+00	0	57	0	2618294272	34	4152
2026-01-09 04:20:21.15	294.49	71.30	-32.4	-33.4	20.4	0.00e+00	0	57	0	2625634304	34	4259
2026-01-09 04:20:22.16	292.94	71.32	-32.4	-33.4	20.4	0.00e+00	0	57	0	2632974336	34	4279
2026-01-09 04:20:23.17	291.38	71.33	-32.3	-33.3	20.5	0.00e+00	0	57	0	2640314368	34	4219
2026-01-09 04:20:24.18	289.82	71.33	-32.2	-33.2	20.7	0.00e+00	0	57	0	2646605824	34	4150
2026-01-09 04:20:25.19	288.27	71.31	-32.2	-33.1	20.7	0.00e+00	0	57	0	2653945856	34	4141
2026-01-09 04:20:26.20	286.72	71.28	-32.4	-33.3	20.5	0.00e+00	0	57	0	2662334464	34	4240
2026-01-09 04:20:27.21	285.18	71.23	-32.7	-33.7	20.1	0.00e+00	0	57	0	2668625920	35	4183
2026-01-09 04:20:28.22	283.65	71.18	-32.7	-33.8	20.1	0.00e+00	0	57	0	2675965952	35	4195
2026-01-09 04:20:29.23	282.12	71.11	-32.4	-33.4	20.5	0.00e+00	0	57	0	2683305984	35	4011
2026-01-09 04:20:30.23	280.63	71.03	-32.2	-33.1	20.7	0.00e+00	0	57	0	2690646016	35	3901
2026-01-09 04:20:31.25	279.12	70.93	-32.3	-33.2	20.6	0.00e+00	0	57	0	2697986048	35	3954
2026-01-09 04:20:32.26	277.64	70.82	-32.4	-33.4	20.5	0.00e+00	0	57	0	2705326080	35	4021
2026-01-09 04:20:33.27	276.18	70.71	-32.4	-33.4	20.4	0.00e+00	0	57	0	2712666112	35	4039
2026-01-09 04:20:34.28	274.74	70.58	-32.5	-33.5	20.3	0.00e+00	0	57	0	2720006144	35	4073
2026-01-09 04:20:35.29	273.32	70.44	-32.6	-33.5	20.3	0.00e+00	0	57	0	2727346176	35	4097
2026-01-09 04:20:36.30	271.92	70.28	-32.8	-33.8	20.1	0.00e+00	0	57	0	2734686208	35	4201
2026-01-09 04:20:37.31	270.55	70.12	-32.5	-33.5	20.3	0.00e+00	0	57	0	2742026240	35	4062
2026-01-09 04:20:38.32	269.20	69.95	-32.3	-33.2	20.6	0.00e+00	0	57	0	2749366272	35	3957
2026-01-09 04:20:39.33	267.88	69.77	-32.5	-33.5	20.4	0.00e+00	0	57	0	2756706304	35	4054
2026-01-09 04:20:40.34	266.58	69.58	-32.5	-33.5	20.4	0.00e+00	0	57	0	2764046336	35	4065
2026-01-09 04:20:41.35	265.31	69.37	-32.5	-33.5	20.4	0.00e+00	0	57	0	2771386368	35	4061
2026-01-09 04:20:42.36	264.06	69.16	-32.5	-33.4	20.4	0.00e+00	0	57	0	2778726400	35	4046
2026-01-09 04:20:43.37	262.85	68.95	-32.5	-33.5	20.4	0.00e+00	0	57	0	2786066432	35	4067
2026-01-09 04:20:44.38	261.66	68.72	-32.5	-33.5	20.2	0.00e+00	0	57	0	2793406464	35	4067
2026-01-09 04:20:45.39	260.49	68.49	-32.7	-33.7	20.2	0.00e+00	0	57	0	2799697920	35	4186
2026-01-09 04:20:46.40	259.36	68.24	-32.5	-33.5	20.4	0.00e+00	0	57	0	2808086528	35	4071
2026-01-09 04:20:47.41	258.25	67.99	-32.3	-33.3	20.5	0.00e+00	0	57	0	2815426560	35	3978
2026-01-09 04:20:48.41	257.18	67.74	-32.3	-33.3	20.5	1.10e-06	0	57	0	2821718016	35	3959
2026-01-09 04:20:49.42	256.13	67.48	-32.4	-33.4	20.5	0.00e+00	0	57	0	2829058048	35	4039
2026-01-09 04:20:50.43	255.10	67.21	-32.4	-33.4	20.4	0.00e+00	0	57	0	2836398080	35	4032
2026-01-09 04:20:51.44	254.10	66.94	-32.3	-33.3	20.5	0.00e+00	0	57	0	2843738112	35	3991
2026-01-09 04:20:52.45	253.13	66.66	-32.3	-33.3	20.6	0.00e+00	0	57	0	2851078144	35	3961
2026-01-09 04:20:53.46	252.18	66.38	-32.2	-33.2	20.7	0.00e+00	0	57	0	2858418176	35	3922
2026-01-09 04:20:54.47	251.26	66.09	-32.2	-33.2	20.6	0.00e+00	0	57	0	2865758208	35	3914
2026-01-09 04:20:55.48	250.36	65.79	-32.1	-33.0	20.9	0.00e+00	0	57	0	2873098240	35	3841
2026-01-09 04:20:56.49	249.48	65.50	-32.1	-33.1	20.8	0.00e+00	0	57	0	2880438272	35	3879
2026-01-09 04:20:57.50	248.63	65.20	-32.2	-33.1	20.7	0.00e+00	0	57	0	2887778304	35	3911
2026-01-09 04:20:58.51	247.80	64.89	-32.4	-33.4	20.5	0.00e+00	0	57	0	2895118336	35	4011
2026-01-09 04:20:59.52	247.00	64.58	-32.3	-33.3	20.6	0.00e+00	0	57	0	2902458368	35	3982
2026-01-09 04:21:00.53	246.21	64.27	-32.2	-33.2	20.7	0.00e+00	0	57	0	2909798400	35	3937
2026-01-09 04:21:01.54	245.45	63.96	-32.2	-33.1	20.8	0.00e+00	0	57	0	2917138432	35	3900
2026-01-09 04:21:02.55	244.70	63.64	-32.3	-33.3	20.6	0.00e+00	0	57	0	2924478464	35	3974
2026-01-09 04:21:03.56	243.98	63.32	-32.5	-33.5	20.4	0.00e+00	0	57	0	2931818496	35	4079
2026-01-09 04:21:04.57	243.28	63.00	-32.6	-33.5	20.4	0.00e+00	0	57	0	2939158528	35	4096
2026-01-09 04:21:05.58	242.59	62.68	-32.8	-33.8	20.2	0.00e+00	0	57	0	2945449984	35	4198
2026-01-09 04:21:06.58	241.93	62.35	-33.0	-34.0	19.9	0.00e+00	0	57	0	2952790016	35	4331
2026-01-09 04:21:07.59	241.28	62.03	-33.9	-34.9	19.9	0.00e+00	0	57	0	2961178624	37	4283
2026-01-09 04:21:08.60	240.65	61.70	-33.7	-34.7	19.9	1.10e-06	0	57	0	2967470080	37	4190
2026-01-09 04:21:09.61	240.04	61.37	-33.6	-34.6	20.2	0.00e+00	0	57	0	2974810112	37	4123
2026-01-09 04:21:10.62	239.44	61.04	-33.5	-34.5	20.2	0.00e+00	0	57	0	2982150144	37	4094
2026-01-09 04:21:11.63	238.85	60.70	-33.7	-34.7	20.1	0.00e+00	0	57	0	2989490176	37	4167
2026-01-09 04:21:12.64	238.29	60.37	-34.0	-35.1	19.7	0.00e+00	0	57	0	2996830208	37	4349
2026-01-09 04:21:13.65	237.73	60.04	-34.3	-35.4	19.4	0.00e+00	0	57	0	3004170240	38	4270
2026-01-09 04:21:14.66	237.19	59.70	-34.3	-35.3	19.4	0.00e+00	0	57	0	3011510272	38	4235
2026-01-09 04:21:15.67	236.67	59.37	-34.2	-35.2	19.5	0.00e+00	0	57	0	3018850304	38	4187
2026-01-09 04:21:16.68	236.16	59.03	-33.9	-34.9	19.9	0.00e+00	0	57	0	3026190336	38	4011
2026-01-09 04:21:17.69	235.66	58.70	-34.2	-35.2	19.6	0.00e+00	0	57	0	3033530368	38	4183
2026-01-09 04:21:18.70	235.17	58.36	-34.7	-35.8	19.0	0.00e+00	0	57	0	3040870400	39	4226
2026-01-09 04:21:19.71	234.70	58.03	-34.8	-36.0	18.8	0.00e+00	0	57	0	3048210432	39	4307
2026-01-09 04:21:20.72	234.23	57.69	-34.6	-35.8	19.1	0.00e+00	0	57	0	3055550464	39	4200
2026-01-09 04:21:21.73	233.78	57.35	-34.3	-35.3	19.5	0.00e+00	0	57	0	3062890496	39	4004
2026-01-09 04:21:22.74	233.34	57.02	-34.0	-35.0	19.7	0.00e+00	0	57	0	3070230528	39	3846
2026-01-09 04:21:23.74	232.92	56.69	-33.8	-34.8	20.0	0.00e+00	0	57	0	3077570560	38	4004
2026-01-09 04:21:24.75	232.50	56.35	-34.0	-35.0	19.8	0.00e+00	0	57	0	3084910592	38	4068
2026-01-09 04:21:25.76	232.09	56.02	-34.2	-35.2	19.6	0.00e+00	0	57	0	3092250624	38	4172
2026-01-09 04:21:26.77	231.69	55.69	-34.1	-35.1	19.7	0.00e+00	0	57	0	3098542080	38	4138
2026-01-09 04:21:27.78	231.30	55.36	-34.1	-35.1	19.6	0.00e+00	0	57	0	3105882112	38	4122
2026-01-09 04:21:28.79	230.92	55.02	-33.8	-34.8	20.0	0.00e+00	0	57	0	3113222144	38	3985
2026-01-09 04:21:29.80	230.55	54.69	-33.7	-34.7	20.1	0.00e+00	0	57	0	3120562176	38	3949
2026-01-09 04:21:30.81	230.18	54.36	-33.8	-34.9	19.9	0.00e+00	0	57	0	3127902208	38	4005
2026-01-09 04:21:31.82	229.83	54.03	-34.0	-35.1	19.7	0.00e+00	0	57	0	3135242240	38	4112
2026-01-09 04:21:32.83	229.48	53.71	-34.3	-35.4	19.4	0.00e+00	0	58	0	3142582272	38	4275
2026-01-09 04:21:33.84	229.14	53.38	-34.3	-35.4	19.4	0.00e+00	0	57	0	3149922304	38	4262
2026-01-09 04:21:34.85	228.81	53.05	-34.3	-35.3	19.5	0.00e+00	0	57	0	3157262336	38	4232
2026-01-09 04:21:35.86	228.49	52.73	-34.0	-35.0	19.8	0.00e+00	0	57	0	3164602368	38	4077
2026-01-09 04:21:36.87	228.17	52.41	-33.8	-34.8	20.0	0.00e+00	0	57	0	3171942400	38	3971
2026-01-09 04:21:37.88	227.86	52.08	-33.7	-34.6	20.1	0.00e+00	0	57	0	3179282432	38	3913
2026-01-09 04:21:38.89	227.55	51.76	-33.7	-34.7	20.1	0.00e+00	0	57	0	3186622464	38	3922
2026-01-09 04:21:39.90	227.26	51.44	-33.9	-34.9	19.9	0.00e+00	0	57	0	3193962496	38	4032
2026-01-09 04:21:40.91	226.97	51.12	-34.0	-35.1	19.7	0.00e+00	0	57	0	3201302528	38	4105
2026-01-09 04:21:41.92	226.68	50.81	-34.0	-35.0	19.6	0.00e+00	0	57	0	3208642560	38	4094
2026-01-09 04:21:42.93	226.40	50.49	-33.7	-34.7	20.1	0.00e+00	0	57	0	3215982592	38	3927
2026-01-09 04:21:43.94	226.13	50.18	-33.4	-34.4	20.3	0.00e+00	0	57	0	3222274048	37	4017
2026-01-09 04:21:44.95	225.86	49.87	-33.3	-34.2	20.5	0.00e+00	0	57	0	3230662656	37	3953
2026-01-09 04:21:45.96	225.60	49.55	-33.5	-34.5	20.3	0.00e+00	0	57	0	3238002688	37	4077
2026-01-09 04:21:46.96	225.35	49.25	-33.8	-34.9	19.8	0.00e+00	0	57	0	3244294144	37	4264
2026-01-09 04:21:47.97	225.10	48.94	-33.9	-34.9	19.8	0.00e+00	0	57	0	3251634176	37	4286
2026-01-09 04:21:48.98	224.85	48.63	-33.8	-34.8	19.9	0.00e+00	0	57	0	3258974208	37	4239
2026-01-09 04:21:49.99	224.61	48.33	-33.7	-34.7	20.1	0.00e+00	0	57	0	3266314240	37	4172
2026-01-09 04:21:51.00	224.37	48.02	-33.5	-34.5	20.2	0.00e+00	0	57	0	3273654272	37	4091
2026-01-09 04:21:52.01	224.14	47.72	-33.4	-34.3	20.0	0.00e+00	0	57	0	3280994304	37	3992
2026-01-09 04:21:53.02	223.91	47.42	-33.4	-34.4	20.3	0.00e+00	0	57	0	3288334336	37	4039
2026-01-09 04:21:54.03	223.69	47.12	-33.4	-34.4	20.3	0.00e+00	0	57	0	3295674368	37	4018
2026-01-09 04:21:55.04	223.47	46.83	-33.3	-34.3	20.4	0.00e+00	0	57	0	3303014400	37	3984
2026-01-09 04:21:56.05	223.26	46.53	-33.2	-34.2	20.5	0.00e+00	0	57	0	3310354432	37	3934
2026-01-09 04:21:57.06	223.05	46.24	-33.2	-34.1	20.6	0.00e+00	0	57	0	3317694464	37	3905
2026-01-09 04:21:58.07	222.84	45.95	-33.2	-34.2	20.6	0.00e+00	0	57	0	3325034496	37	3923
2026-01-09 04:21:59.08	222.64	45.66	-33.3	-34.3	20.4	0.00e+00	0	57	0	3332374528	37	3984
2026-01-09 04:22:00.09	222.44	45.37	-33.4	-34.4	20.3	0.00e+00	0	57	0	3339714560	37	4026
2026-01-09 04:22:01.10	222.24	45.08	-33.5	-34.5	20.3	0.00e+00	0	57	0	3347054592	37	4059
2026-01-09 04:22:02.11	222.05	44.79	-33.4	-34.4	20.4	0.00e+00	0	57	0	3354394624	37	4024
2026-01-09 04:22:03.12	221.86	44.51	-33.1	-34.1	20.6	0.00e+00	0	57	0	3361734656	37	3903
2026-01-09 04:22:04.13	221.68	44.23	-32.8	-33.8	20.9	0.00e+00	0	57	0	3369074688	36	3980
2026-01-09 04:22:05.14	221.49	43.95	-32.6	-33.5	21.2	0.00e+00	0	57	0	3375366144	36	3856
2026-01-09 04:22:06.15	221.31	43.67	-31.8	-32.7	21.1	0.00e+00	0	57	0	3383754752	34	3936
2026-01-09 04:22:07.15	221.14	43.39	-31.9	-32.9	21.0	0.00e+00	0	57	0	3391094784	34	4005
2026-01-09 04:22:08.16	220.97	43.12	-32.0	-33.0	20.9	0.00e+00	0	57	0	3397386240	34	4057
2026-01-09 04:22:09.17	220.80	42.85	-32.2	-33.2	20.7	0.00e+00	0	57	0	3404726272	34	4163
2026-01-09 04:22:10.18	220.63	42.57	-32.3	-33.3	20.5	0.00e+00	0	57	0	3412066304	34	4211
2026-01-09 04:22:11.19	220.47	42.30	-32.3	-33.2	20.6	0.00e+00	0	57	0	3419406336	34	4191
2026-01-09 04:22:12.20	220.31	42.04	-32.1	-33.0	20.8	0.00e+00	0	57	0	3426746368	34	4096
2026-01-09 04:22:13.21	220.15	41.77	-32.0	-32.9	20.6	0.00e+00	0	57	0	3434086400	34	4042
2026-01-09 04:22:14.22	219.99	41.50	-31.9	-32.8	21.1	0.00e+00	0	57	0	3441426432	34	3987
2026-01-09 04:22:15.23	219.84	41.24	-31.8	-32.8	21.1	0.00e+00	0	57	0	3448766464	34	3968
2026-01-09 04:22:16.23	219.69	40.98	-31.9	-32.8	21.1	0.00e+00	0	57	0	3456106496	34	3976
2026-01-09 04:22:17.24	219.54	40.72	-31.9	-32.8	21.1	0.00e+00	0	58	0	3463446528	34	3995
2026-01-09 04:22:18.25	219.40	40.46	-31.9	-32.9	21.0	0.00e+00	0	57	0	3470786560	34	4007
2026-01-09 04:22:19.26	219.25	40.21	-32.0	-32.9	21.0	0.00e+00	0	57	0	3478126592	34	4029
2026-01-09 04:22:20.27	219.11	39.95	-32.0	-32.9	21.0	0.00e+00	0	57	0	3485466624	34	4027
2026-01-09 04:22:21.28	218.97	39.70	-32.0	-32.9	21.0	0.00e+00	0	57	0	3492806656	34	4025
2026-01-09 04:22:22.29	218.84	39.44	-31.9	-32.9	21.0	0.00e+00	0	57	0	3499098112	34	4013
2026-01-09 04:22:23.30	218.70	39.19	-31.9	-32.8	21.0	0.00e+00	0	57	0	3507486720	34	3998
2026-01-09 04:22:24.31	218.57	38.95	-32.0	-32.9	20.8	0.00e+00	0	57	0	3514826752	34	4036
2026-01-09 04:22:25.32	218.44	38.70	-32.0	-32.9	20.9	0.00e+00	0	57	0	3521118208	34	4048
2026-01-09 04:22:26.33	218.31	38.45	-32.0	-32.9	21.0	0.00e+00	0	57	0	3528458240	34	4029
2026-01-09 04:22:27.34	218.18	38.21	-32.1	-33.0	20.9	0.00e+00	0	57	0	3535798272	34	4083
2026-01-09 04:22:28.35	218.06	37.97	-32.1	-33.0	20.9	0.00e+00	0	58	0	3543138304	34	4081
2026-01-09 04:22:29.36	217.94	37.73	-32.1	-33.1	20.8	0.00e+00	0	57	0	3550478336	34	4112
2026-01-09 04:22:30.37	217.81	37.49	-32.1	-33.1	20.8	0.00e+00	0	57	0	3557818368	34	4107
2026-01-09 04:22:31.38	217.70	37.25	-32.0	-33.0	20.9	0.00e+00	0	57	0	3565158400	34	4076
2026-01-09 04:22:32.39	217.58	37.01	-32.0	-32.9	21.0	0.00e+00	0	57	0	3572498432	34	4036
2026-01-09 04:22:33.40	217.46	36.78	-31.9	-32.8	20.6	0.00e+00	0	57	0	3579838464	34	3980
2026-01-09 04:22:34.40	217.35	36.55	-31.8	-32.8	21.1	0.00e+00	0	57	0	3587178496	34	3969
2026-01-09 04:22:35.41	217.24	36.32	-31.7	-32.6	21.3	0.00e+00	0	57	0	3594518528	34	3883
2026-01-09 04:22:36.42	217.13	36.09	-31.5	-32.4	21.4	0.00e+00	0	57	0	3601858560	34	3817
2026-01-09 04:22:37.43	217.02	35.86	-31.4	-32.4	21.4	0.00e+00	0	57	0	3609198592	33	4010
2026-01-09 04:22:38.44	216.91	35.63	-31.4	-32.4	21.5	0.00e+00	0	57	0	3616538624	33	4012
2026-01-09 04:22:39.45	216.80	35.41	-31.5	-32.4	21.4	0.00e+00	0	57	0	3623878656	33	4040
2026-01-09 04:22:40.46	216.70	35.18	-31.6	-32.5	21.4	0.00e+00	0	57	0	3631218688	33	4072
2026-01-09 04:22:41.47	216.60	34.96	-31.6	-32.6	21.3	0.00e+00	0	57	0	3638558720	33	4114
2026-01-09 04:22:42.48	216.49	34.74	-31.8	-32.7	21.2	0.00e+00	0	57	0	3645898752	33	4169
2026-01-09 04:22:43.49	216.39	34.52	-31.8	-32.7	21.1	0.00e+00	0	57	0	3652190208	33	4180
2026-01-09 04:22:44.50	216.29	34.30	-31.9	-32.8	21.1	0.00e+00	0	57	0	3660578816	33	4228
2026-01-09 04:22:45.51	216.20	34.08	-31.9	-32.8	21.1	0.00e+00	0	58	0	3667918848	33	4233
2026-01-09 04:22:46.52	216.10	33.87	-31.8	-32.8	21.1	0.00e+00	0	57	0	3674210304	33	4198
2026-01-09 04:22:47.53	216.01	33.65	-31.8	-32.7	21.2	0.00e+00	0	57	0	3681550336	33	4181
2026-01-09 04:22:48.54	215.91	33.44	-31.7	-32.7	21.1	0.00e+00	0	57	0	3688890368	33	4161
2026-01-09 04:22:49.55	215.82	33.23	-31.7	-32.6	21.2	0.00e+00	0	57	0	3696230400	33	4120
2026-01-09 04:22:50.56	215.73	33.02	-31.5	-32.5	21.4	0.00e+00	0	57	0	3703570432	33	4059
2026-01-09 04:22:51.57	215.64	32.81	-31.5	-32.4	21.4	0.00e+00	0	57	0	3710910464	33	4045
2026-01-09 04:22:52.57	215.55	32.61	-31.6	-32.5	21.4	0.00e+00	0	57	0	3718250496	33	4072
2026-01-09 04:22:53.58	215.46	32.40	-31.5	-32.4	21.4	0.00e+00	0	57	0	3725590528	33	4033
2026-01-09 04:22:54.59	215.38	32.20	-31.5	-32.4	21.4	0.00e+00	0	57	0	3732930560	33	4048
2026-01-09 04:22:55.60	215.29	31.99	-31.5	-32.5	21.4	0.00e+00	0	57	0	3740270592	33	4054
2026-01-09 04:22:56.61	215.21	31.79	-31.5	-32.5	21.3	0.00e+00	0	57	0	3747610624	33	4066
2026-01-09 04:22:57.62	215.12	31.59	-31.5	-32.5	21.4	0.00e+00	0	58	0	3754950656	33	4063
2026-01-09 04:22:58.63	215.04	31.39	-31.5	-32.5	21.4	0.00e+00	0	57	0	3762290688	33	4068
2026-01-09 04:22:59.64	214.96	31.19	-31.5	-32.4	21.4	0.00e+00	0	57	0	3769630720	33	4049
2026-01-09 04:23:00.65	214.88	31.00	-31.5	-32.4	21.4	0.00e+00	0	57	0	3776970752	33	4041
2026-01-09 04:23:01.65	214.80	30.80	-31.4	-32.4	21.4	0.00e+00	0	57	0	3784310784	33	4020
2026-01-09 04:23:02.66	214.72	30.61	-31.4	-32.4	21.5	0.00e+00	0	57	0	3791650816	33	4019
2026-01-09 04:23:03.67	214.65	30.42	-31.4	-32.4	21.5	0.00e+00	0	57	0	3797942272	33	4010
2026-01-09 04:23:04.68	214.57	30.22	-31.4	-32.3	21.3	0.00e+00	0	57	0	3805282304	33	3988
2026-01-09 04:23:05.70	214.49	30.03	-31.4	-32.3	21.5	0.00e+00	0	57	0	3813670912	33	3996
2026-01-09 04:23:06.71	214.42	29.84	-31.5	-32.4	21.5	0.00e+00	0	57	0	3821010944	33	4017
2026-01-09 04:23:07.72	214.34	29.65	-31.5	-32.4	21.4	0.00e+00	0	57	0	3827302400	33	4028
2026-01-09 04:23:08.73	214.27	29.47	-31.5	-32.4	21.3	0.00e+00	0	57	0	3834642432	33	4039
2026-01-09 04:23:09.74	214.20	29.28	-31.5	-32.4	21.4	0.00e+00	0	57	0	3841982464	33	4028
2026-01-09 04:23:10.75	214.13	29.10	-31.5	-32.4	21.4	0.00e+00	0	57	0	3849322496	33	4031
2026-01-09 04:23:11.76	214.06	28.91	-31.5	-32.4	21.4	0.00e+00	0	57	0	3856662528	33	4042
2026-01-09 04:23:12.77	213.99	28.73	-31.5	-32.5	21.3	0.00e+00	0	57	0	3864002560	33	4066
2026-01-09 04:23:13.78	213.92	28.55	-31.6	-32.6	21.0	0.00e+00	0	57	0	3871342592	33	4100
2026-01-09 04:23:14.79	213.85	28.37	-31.6	-32.5	21.3	0.00e+00	0	57	0	3878682624	33	4094
2026-01-09 04:23:15.80	213.79	28.19	-31.6	-32.6	21.3	0.00e+00	0	57	0	3886022656	33	4100
2026-01-09 04:23:16.80	213.72	28.02	-31.6	-32.5	21.3	0.00e+00	0	57	0	3893362688	33	4097
2026-01-09 04:23:17.82	213.66	27.84	-31.7	-32.6	21.1	0.00e+00	0	57	0	3900702720	33	4130
2026-01-09 04:23:18.83	213.59	27.66	-31.7	-32.7	21.1	0.00e+00	0	57	0	3908042752	33	4163
2026-01-09 04:23:19.84	213.53	27.49	-31.8	-32.7	21.1	0.00e+00	0	57	0	3915382784	33	4193
2026-01-09 04:23:20.84	213.46	27.31	-31.8	-32.8	21.0	0.00e+00	0	57	0	3922722816	33	4211
2026-01-09 04:23:21.85	213.40	27.14	-32.0	-32.9	20.9	0.00e+00	0	57	0	3930062848	33	4274
2026-01-09 04:23:22.86	213.34	26.97	-32.0	-32.9	20.9	0.00e+00	0	57	0	3937402880	33	4277
2026-01-09 04:23:23.87	213.28	26.80	-32.0	-33.0	20.8	0.00e+00	0	57	0	3944742912	33	4312
2026-01-09 04:23:24.88	213.22	26.63	-32.0	-33.0	20.8	0.00e+00	0	57	0	3951034368	33	4310
2026-01-09 04:23:25.89	213.16	26.46	-32.1	-33.0	20.8	0.00e+00	0	57	0	3958374400	33	4337
2026-01-09 04:23:26.90	213.10	26.30	-32.1	-33.1	20.8	0.00e+00	0	57	0	3966763008	33	4346
2026-01-09 04:23:27.91	213.04	26.13	-32.1	-33.0	20.8	0.00e+00	0	57	0	3973054464	33	4333
2026-01-09 04:23:28.92	212.98	25.96	-32.0	-33.0	20.7	0.00e+00	0	57	0	3980394496	33	4315
2026-01-09 04:23:29.93	212.93	25.80	-32.1	-33.0	20.8	0.00e+00	0	57	0	3987734528	33	4340
2026-01-09 04:23:30.94	212.87	25.64	-32.0	-33.0	20.8	0.00e+00	0	57	0	3995074560	33	4294
2026-01-09 04:23:31.95	212.81	25.47	-32.0	-32.9	20.8	0.00e+00	0	57	0	4002414592	33	4288
2026-01-09 04:23:32.96	212.76	25.31	-32.0	-33.0	20.8	0.00e+00	0	57	0	4009754624	33	4292
2026-01-09 04:23:33.97	212.70	25.15	-31.9	-32.9	20.9	0.00e+00	0	57	0	4017094656	33	4264
2026-01-09 04:23:34.98	212.65	24.99	-31.9	-32.8	20.9	0.00e+00	0	57	0	4024434688	33	4237
2026-01-09 04:23:35.99	212.59	24.83	-31.9	-32.9	20.8	0.00e+00	0	57	0	4031774720	33	4246
2026-01-09 04:23:37.00	212.54	24.68	-31.9	-32.9	20.9	0.00e+00	0	57	0	4039114752	33	4251
2026-01-09 04:23:38.01	212.49	24.52	-31.9	-32.9	20.9	0.00e+00	0	57	0	4046454784	33	4248
2026-01-09 04:23:39.02	212.44	24.36	-31.9	-32.9	20.9	0.00e+00	0	57	0	4053794816	33	4262
2026-01-09 04:23:40.03	212.39	24.21	-32.0	-32.9	20.8	0.00e+00	0	57	0	4061134848	33	4283
2026-01-09 04:23:41.04	212.33	24.05	-31.9	-32.9	20.9	0.00e+00	0	57	0	4068474880	33	4258
2026-01-09 04:23:42.06	212.28	23.90	-32.0	-33.0	20.8	0.00e+00	0	57	0	4075814912	33	4300
2026-01-09 04:23:43.07	212.23	23.75	-32.0	-33.0	20.8	0.00e+00	0	57	0	4083154944	33	4298
2026-01-09 04:23:44.08	212.18	23.59	-32.0	-33.0	20.8	0.00e+00	0	57	0	4090494976	33	4308
2026-01-09 04:23:45.09	212.14	23.44	-32.1	-33.1	20.7	0.00e+00	0	57	0	4097835008	33	4348
2026-01-09 04:23:46.10	212.09	23.29	-32.2	-33.1	20.7	0.00e+00	0	57	0	4105175040	33	4376
2026-01-09 04:23:47.11	212.04	23.15	-32.2	-33.1	20.6	0.00e+00	0	57	0	4112515072	33	4389
2026-01-09 04:23:48.11	211.99	23.00	-32.2	-33.2	20.6	0.00e+00	0	57	0	4119855104	33	4395
2026-01-09 04:23:49.12	211.95	22.85	-32.2	-33.2	20.6	0.00e+00	0	57	0	4126146560	33	4392
2026-01-09 04:23:50.13	211.90	22.70	-32.3	-33.2	20.6	0.00e+00	0	57	0	4133486592	34	4181
2026-01-09 04:23:51.14	211.85	22.56	-32.3	-33.2	20.5	0.00e+00	0	57	0	4140826624	34	4187
2026-01-09 04:23:52.15	211.81	22.41	-32.2	-33.2	20.6	0.00e+00	0	57	0	4148166656	34	4176
2026-01-09 04:23:53.16	211.76	22.27	-32.3	-33.3	20.5	0.00e+00	0	57	0	4155506688	34	4212
2026-01-09 04:23:54.17	211.72	22.13	-32.3	-33.3	20.5	0.00e+00	0	57	0	4162846720	34	4199
2026-01-09 04:23:55.18	211.67	21.98	-32.3	-33.3	20.5	0.00e+00	0	57	0	4170186752	34	4214
2026-01-09 04:23:56.19	211.63	21.84	-32.3	-33.3	20.5	0.00e+00	0	57	0	4177526784	34	4233
2026-01-09 04:23:57.20	211.59	21.70	-32.3	-33.3	20.5	0.00e+00	0	57	0	4184866816	34	4208
2026-01-09 04:23:58.21	211.54	21.56	-32.4	-33.3	20.4	0.00e+00	0	57	0	4192206848	34	4237
2026-01-09 04:23:59.22	211.50	21.42	-32.3	-33.3	20.5	0.00e+00	0	57	0	4199546880	34	4203
2026-01-09 04:24:00.23	211.46	21.28	-32.3	-33.3	20.4	0.00e+00	0	57	0	4206886912	34	4226
2026-01-09 04:24:01.24	211.42	21.15	-32.4	-33.4	20.4	0.00e+00	0	57	0	4214226944	34	4253
2026-01-09 04:24:02.24	211.38	21.01	-32.4	-33.4	20.3	0.00e+00	0	57	0	4221566976	34	4275
2026-01-09 04:24:03.25	211.33	20.87	-32.5	-33.5	20.3	0.00e+00	0	57	0	4228907008	34	4296
2026-01-09 04:24:04.26	211.29	20.74	-32.5	-33.5	20.3	0.00e+00	0	57	0	4236247040	34	4310
2026-01-09 04:24:05.27	211.25	20.60	-32.5	-33.5	20.3	0.00e+00	0	57	0	4243587072	34	4315
2026-01-09 04:24:06.28	211.21	20.47	-32.5	-33.5	20.2	0.00e+00	0	57	0	4249878528	34	4314
2026-01-09 04:24:07.29	211.17	20.33	-32.6	-33.6	20.0	0.00e+00	0	57	0	4257218560	34	4352
2026-01-09 04:24:08.30	211.14	20.20	-32.6	-33.6	20.1	0.00e+00	0	57	0	4265607168	34	4391
2026-01-09 04:24:09.31	211.10	20.07	-32.7	-33.8	20.0	0.00e+00	0	57	0	4271898624	35	4194
2026-01-09 04:24:10.32	211.06	19.94	-32.8	-33.8	19.9	0.00e+00	0	57	0	4279238656	35	4229
2026-01-09 04:24:11.33	211.02	19.81	-32.9	-33.9	19.8	0.00e+00	0	57	0	4286578688	35	4266
2026-01-09 04:24:12.34	210.98	19.68	-32.9	-33.9	19.8	0.00e+00	0	57	0	4293918720	35	4290
2026-01-09 04:24:13.35	210.95	19.55	-33.0	-34.0	19.7	0.00e+00	0	57	0	4301258752	35	4330
2026-01-09 04:24:14.36	210.91	19.42	-33.0	-34.1	19.7	0.00e+00	0	57	0	4308598784	35	4347
2026-01-09 04:24:15.37	210.87	19.29	-33.1	-34.2	19.5	0.00e+00	0	57	0	4315938816	35	4418
2026-01-09 04:24:16.37	210.84	19.16	-33.2	-34.2	19.5	0.00e+00	0	57	0	4323278848	35	4420
2026-01-09 04:24:17.38	210.80	19.04	-33.9	-35.0	19.6	0.00e+00	0	57	0	4330618880	37	4317
2026-01-09 04:24:18.39	210.76	18.91	-33.9	-35.0	19.5	0.00e+00	0	57	0	4337958912	37	4310
2026-01-09 04:24:19.40	210.73	18.78	-34.0	-35.0	19.5	0.00e+00	0	57	0	4345298944	37	4339
2026-01-09 04:24:20.41	210.69	18.66	-34.1	-35.1	19.4	0.00e+00	0	57	0	4352638976	37	4378
2026-01-09 04:24:21.42	210.66	18.53	-34.1	-35.1	19.4	0.00e+00	0	57	0	4359979008	37	4382
2026-01-09 04:24:22.43	210.62	18.41	-34.1	-35.2	19.3	0.00e+00	0	57	0	4367319040	37	4419
2026-01-09 04:24:23.44	210.59	18.29	-34.1	-35.2	19.4	0.00e+00	0	57	0	4374659072	37	4410
2026-01-09 04:24:24.45	210.56	18.16	-34.1	-35.2	19.4	0.00e+00	0	57	0	4381999104	37	4392
2026-01-09 04:24:25.45	210.52	18.04	-34.2	-35.3	19.3	0.00e+00	0	57	0	4389339136	37	4446
2026-01-09 04:24:26.47	210.49	17.92	-34.1	-35.2	19.3	0.00e+00	0	57	0	4396679168	37	4431
2026-01-09 04:24:27.48	210.46	17.80	-34.1	-35.2	19.3	0.00e+00	0	57	0	4402970624	37	4406
2026-01-09 04:24:28.49	210.42	17.68	-34.1	-35.2	19.3	0.00e+00	0	57	0	4410310656	37	4403
2026-01-09 04:24:29.50	210.39	17.56	-34.1	-35.2	19.3	0.00e+00	0	57	0	4418699264	37	4421
2026-01-09 04:24:30.51	210.36	17.44	-34.1	-35.2	19.3	0.00e+00	0	58	0	4424990720	37	4398
2026-01-09 04:24:31.52	210.33	17.32	-34.1	-35.2	19.3	0.00e+00	0	57	0	4432330752	37	4417
2026-01-09 04:24:32.53	210.30	17.20	-34.1	-35.2	19.3	0.00e+00	0	57	0	4439670784	37	4397
2026-01-09 04:24:33.54	210.26	17.09	-34.0	-35.1	19.4	0.00e+00	0	57	0	4447010816	37	4363
2026-01-09 04:24:34.55	210.23	16.97	-34.1	-35.1	19.2	0.00e+00	0	58	0	4454350848	37	4391
2026-01-09 04:24:35.56	210.20	16.85	-34.1	-35.1	19.3	0.00e+00	0	57	0	4461690880	37	4374
2026-01-09 04:24:36.57	210.17	16.74	-34.0	-35.1	19.3	0.00e+00	0	57	0	4469030912	37	4371
2026-01-09 04:24:37.58	210.14	16.62	-34.0	-35.1	19.3	0.00e+00	0	57	0	4476370944	37	4362
2026-01-09 04:24:38.59	210.11	16.51	-34.0	-35.1	19.3	0.00e+00	0	57	0	4483710976	37	4365
2026-01-09 04:24:39.60	210.08	16.39	-34.0	-35.1	19.3	0.00e+00	0	57	0	4491051008	37	4364
2026-01-09 04:24:40.61	210.05	16.28	-34.0	-35.1	19.3	0.00e+00	0	57	0	4498391040	37	4353
2026-01-09 04:24:41.62	210.02	16.17	-34.0	-35.1	19.3	0.00e+00	0	57	0	4505731072	37	4367
2026-01-09 04:24:42.62	209.99	16.06	-34.0	-35.1	19.3	0.00e+00	0	57	0	4513071104	37	4351
2026-01-09 04:24:43.63	209.96	15.94	-34.1	-35.2	19.3	0.00e+00	0	57	0	4520411136	37	4395
2026-01-09 04:24:44.64	209.94	15.83	-34.1	-35.1	19.3	0.00e+00	0	57	0	4526702592	37	4387
2026-01-09 04:24:45.65	209.91	15.72	-34.1	-35.2	19.2	0.00e+00	0	57	0	4535091200	37	4419
2026-01-09 04:24:46.66	209.88	15.61	-34.1	-35.2	19.2	0.00e+00	0	57	0	4542431232	37	4404
