passes_logs/2026/01/09/R2.0S_Moscow/R2.0S_Moscow__20260109_075920_SUOMI_NPP_rec.log

#Pass ID: 20260109_075920_SUOMI NPP
#Satellite: SUOMI NPP
#Configuration: NPP
#almurnet v.1.7.20251203
#Start time: 2026-01-09 07:59:21

#Version: 2.2.20231116
#Station: R2.0S_Moscow
#Location: 37.707566 lon 55.798166 lat
#TLE: 1 37849U 11061A   26008.05542337  .00000108  00000+0  71976-4 0  9997
#TLE: 2 37849  98.7805 310.1641 0002540  75.6410 284.5048 14.19523335735721

#Time	Az	El	Level	Level2	SNR	BER	BlckErr	Temp	State	Recorded	gain1	gain2
2026-01-09 07:59:21.15	101.44	2.03	-39.9	-54.5	3.8	1.49e+00	0	47	0	0	51	19309
2026-01-09 07:59:22.15	101.36	2.08	-39.9	-54.5	3.8	1.49e+00	0	47	104	0	51	19340
2026-01-09 07:59:23.16	101.28	2.14	-39.9	-54.5	3.8	1.49e+00	0	47	104	0	51	19332
2026-01-09 07:59:24.17	101.20	2.19	-39.9	-54.5	3.8	1.49e+00	0	47	104	0	51	19353
2026-01-09 07:59:25.18	101.12	2.24	-39.9	-54.5	3.8	1.49e+00	0	47	104	0	51	19313
2026-01-09 07:59:26.19	101.04	2.30	-39.9	-54.5	3.8	1.49e+00	0	47	104	0	51	19299
2026-01-09 07:59:27.20	100.96	2.35	-39.9	-54.5	3.8	1.49e+00	0	47	104	0	51	19332
2026-01-09 07:59:28.21	100.88	2.40	-39.9	-54.5	3.8	1.49e+00	0	47	104	0	51	19290
2026-01-09 07:59:29.22	100.79	2.46	-39.9	-54.5	3.8	1.49e+00	0	48	104	0	51	19366
2026-01-09 07:59:30.23	100.71	2.51	-39.9	-54.5	3.8	1.49e+00	0	47	104	0	51	19293
2026-01-09 07:59:31.24	100.63	2.56	-39.9	-54.5	3.8	1.49e+00	0	47	104	0	51	19336
2026-01-09 07:59:32.25	100.55	2.62	-39.9	-54.5	3.8	1.49e+00	0	48	104	0	51	19313
2026-01-09 07:59:33.26	100.46	2.67	-39.9	-54.5	3.8	1.49e+00	0	48	104	0	51	19330
2026-01-09 07:59:34.28	100.38	2.73	-39.9	-54.5	3.8	1.49e+00	0	48	104	0	51	19318
2026-01-09 07:59:35.29	100.30	2.78	-39.9	-54.5	3.8	1.49e+00	0	48	104	0	51	19267
2026-01-09 07:59:36.29	100.21	2.83	-39.9	-54.5	3.8	1.49e+00	0	48	104	0	51	19280
2026-01-09 07:59:37.31	100.13	2.89	-39.9	-54.5	3.8	1.49e+00	0	48	104	0	51	19275
2026-01-09 07:59:38.32	100.04	2.94	-39.9	-54.5	3.8	1.49e+00	0	48	104	0	51	19278
2026-01-09 07:59:39.33	99.96	3.00	-39.9	-54.5	3.8	1.49e+00	0	48	104	0	51	19337
2026-01-09 07:59:40.34	99.87	3.05	-39.9	-54.5	3.8	1.49e+00	0	48	104	0	51	19287
2026-01-09 07:59:41.35	99.79	3.10	-39.9	-54.5	3.8	1.49e+00	0	48	104	0	51	19327
2026-01-09 07:59:42.36	99.70	3.16	-39.9	-54.5	3.8	1.49e+00	0	48	104	0	51	19284
2026-01-09 07:59:43.37	99.61	3.21	-39.9	-54.5	3.8	1.49e+00	0	48	104	0	51	19289
2026-01-09 07:59:44.38	99.53	3.27	-39.9	-54.5	3.8	1.49e+00	0	48	104	0	51	19299
2026-01-09 07:59:45.39	99.44	3.32	-39.9	-54.5	3.8	1.49e+00	0	48	104	0	51	19260
2026-01-09 07:59:46.40	99.35	3.37	-39.9	-54.5	3.8	1.49e+00	0	48	104	0	51	19317
2026-01-09 07:59:47.41	99.26	3.43	-39.9	-54.5	3.8	1.49e+00	0	49	104	0	51	19334
2026-01-09 07:59:48.42	99.18	3.48	-39.9	-54.5	3.8	1.49e+00	0	49	104	0	51	19292
2026-01-09 07:59:49.43	99.09	3.54	-39.9	-54.5	3.8	1.49e+00	0	49	104	0	51	19283
2026-01-09 07:59:50.44	99.00	3.59	-39.9	-54.5	3.8	1.49e+00	0	49	104	0	51	19290
2026-01-09 07:59:51.45	98.91	3.65	-39.9	-54.5	3.8	1.49e+00	0	49	104	0	51	19329
2026-01-09 07:59:52.46	98.82	3.70	-39.9	-54.5	3.8	1.49e+00	0	49	104	0	51	19265
2026-01-09 07:59:53.47	98.73	3.76	-39.9	-54.5	3.8	1.49e+00	0	49	104	0	51	19291
2026-01-09 07:59:54.48	98.64	3.81	-39.9	-54.5	3.8	1.49e+00	0	49	104	0	51	19279
2026-01-09 07:59:55.49	98.55	3.87	-39.9	-54.5	3.8	1.49e+00	0	49	104	0	51	19329
2026-01-09 07:59:56.51	98.46	3.92	-39.9	-54.5	3.8	1.49e+00	0	49	104	0	51	19278
2026-01-09 07:59:57.52	98.37	3.98	-39.9	-54.5	3.8	1.49e+00	0	49	104	0	51	19260
2026-01-09 07:59:58.53	98.28	4.03	-39.9	-54.5	3.8	1.49e+00	0	49	104	0	51	19250
2026-01-09 07:59:59.54	98.19	4.09	-39.9	-54.5	3.8	1.49e+00	0	49	104	0	51	19277
2026-01-09 08:00:00.55	98.09	4.14	-39.9	-54.5	3.8	1.49e+00	0	49	104	0	51	19243
2026-01-09 08:00:01.56	98.00	4.20	-39.9	-54.5	3.8	1.49e+00	0	49	104	0	51	19214
2026-01-09 08:00:02.57	97.91	4.25	-39.9	-54.5	3.8	1.49e+00	0	50	104	0	51	19260
2026-01-09 08:00:03.58	97.81	4.31	-39.9	-54.5	3.8	1.49e+00	0	49	104	0	51	19262
2026-01-09 08:00:04.59	97.72	4.36	-39.9	-54.5	3.8	1.49e+00	0	50	104	0	51	19317
2026-01-09 08:00:05.60	97.63	4.42	-39.9	-54.5	3.8	1.49e+00	0	50	104	0	51	19275
2026-01-09 08:00:06.61	97.53	4.47	-39.8	-54.5	3.8	1.49e+00	0	50	104	0	51	19268
2026-01-09 08:00:07.62	97.44	4.53	-39.9	-54.5	3.8	1.49e+00	0	50	104	0	51	19246
2026-01-09 08:00:08.64	97.34	4.58	-39.9	-54.5	3.8	1.49e+00	0	50	104	0	51	19231
2026-01-09 08:00:09.65	97.25	4.64	-39.9	-54.5	3.8	1.49e+00	0	50	104	0	51	19306
2026-01-09 08:00:10.66	97.15	4.69	-39.9	-54.5	3.8	1.49e+00	0	50	104	0	51	19219
2026-01-09 08:00:11.67	97.06	4.75	-39.9	-54.5	3.8	1.49e+00	0	50	104	0	51	19274
2026-01-09 08:00:12.68	96.96	4.80	-39.9	-54.5	3.8	1.49e+00	0	50	104	0	51	19236
2026-01-09 08:00:13.69	96.86	4.86	-39.9	-54.5	3.8	1.49e+00	0	50	104	0	51	19284
2026-01-09 08:00:14.70	96.76	4.92	-39.9	-54.5	3.8	1.49e+00	0	50	104	0	51	19257
2026-01-09 08:00:15.71	96.67	4.97	-39.9	-54.5	3.8	1.49e+00	0	50	104	0	51	19229
2026-01-09 08:00:16.72	96.57	5.03	-39.9	-54.5	3.8	1.49e+00	0	50	104	0	51	19283
2026-01-09 08:00:17.73	96.47	5.08	-39.9	-54.5	3.8	1.49e+00	0	50	104	0	51	19316
2026-01-09 08:00:18.74	96.37	5.14	-39.9	-54.5	3.8	1.49e+00	0	50	104	0	51	19243
2026-01-09 08:00:19.75	96.27	5.19	-39.9	-54.5	3.8	1.49e+00	0	50	104	0	51	19229
2026-01-09 08:00:20.76	96.17	5.25	-39.9	-54.5	3.8	1.49e+00	0	51	104	0	51	19301
2026-01-09 08:00:21.77	96.07	5.31	-39.9	-54.5	3.8	1.49e+00	0	51	104	0	51	19250
2026-01-09 08:00:22.78	95.97	5.36	-39.9	-54.5	3.8	1.49e+00	0	51	104	0	51	19256
2026-01-09 08:00:23.79	95.87	5.42	-39.8	-54.5	3.8	1.49e+00	0	51	104	0	51	19250
2026-01-09 08:00:24.80	95.77	5.47	-39.9	-54.5	3.8	1.49e+00	0	50	104	0	51	19295
2026-01-09 08:00:25.81	95.67	5.53	-39.9	-54.5	3.8	1.49e+00	0	51	104	0	51	19287
2026-01-09 08:00:26.82	95.57	5.59	-39.9	-54.5	3.8	1.49e+00	0	51	104	0	51	19213
2026-01-09 08:00:27.83	95.46	5.64	-39.9	-54.5	3.8	1.49e+00	0	51	104	0	51	19265
2026-01-09 08:00:28.84	95.36	5.70	-39.9	-54.5	3.8	1.49e+00	0	51	104	0	51	19279
2026-01-09 08:00:29.85	95.26	5.75	-39.9	-54.5	3.8	1.49e+00	0	51	104	0	51	19342
2026-01-09 08:00:30.86	95.16	5.81	-39.9	-54.5	3.8	1.49e+00	0	51	104	0	51	19286
2026-01-09 08:00:31.87	95.05	5.87	-39.9	-54.5	3.8	1.49e+00	0	51	104	0	51	19289
2026-01-09 08:00:32.88	94.95	5.92	-39.9	-54.5	3.8	1.49e+00	0	51	104	0	51	19267
2026-01-09 08:00:33.89	94.84	5.98	-39.9	-54.5	3.8	1.49e+00	0	51	104	0	51	19259
2026-01-09 08:00:34.90	94.74	6.04	-39.9	-54.5	3.8	1.49e+00	0	51	104	0	51	19312
2026-01-09 08:00:35.91	94.63	6.09	-39.9	-54.5	3.8	1.49e+00	0	51	104	0	51	19243
2026-01-09 08:00:36.93	94.52	6.15	-39.9	-54.5	3.8	1.49e+00	0	51	104	0	51	19309
2026-01-09 08:00:37.94	94.42	6.20	-39.9	-54.5	3.8	1.49e+00	0	51	104	0	51	19241
2026-01-09 08:00:38.95	94.31	6.26	-39.9	-54.5	3.8	1.49e+00	0	51	104	0	51	19276
2026-01-09 08:00:39.96	94.20	6.32	-39.9	-54.5	3.8	1.49e+00	0	51	104	0	51	19255
2026-01-09 08:00:40.97	94.10	6.37	-39.9	-54.5	3.8	1.49e+00	0	51	104	0	51	19224
2026-01-09 08:00:41.98	93.99	6.43	-39.8	-54.5	3.8	1.49e+00	0	52	104	0	51	19274
2026-01-09 08:00:42.99	93.88	6.49	-39.8	-54.5	3.8	1.49e+00	0	51	104	0	51	19211
2026-01-09 08:00:44.00	93.77	6.54	-39.8	-54.5	3.8	1.49e+00	0	51	104	0	51	19249
2026-01-09 08:00:45.01	93.66	6.60	-39.9	-54.5	3.8	1.49e+00	0	52	104	0	51	19250
2026-01-09 08:00:46.02	93.55	6.66	-39.9	-54.5	3.8	1.49e+00	0	52	104	0	51	19246
2026-01-09 08:00:47.04	93.44	6.71	-39.9	-54.5	3.8	1.49e+00	0	51	104	0	51	19199
2026-01-09 08:00:48.05	93.33	6.77	-39.9	-54.5	3.8	1.49e+00	0	52	104	0	51	19277
2026-01-09 08:00:49.06	93.22	6.83	-39.9	-54.5	3.8	1.49e+00	0	52	104	0	51	19344
2026-01-09 08:00:50.07	93.11	6.88	-39.9	-54.5	3.8	1.49e+00	0	52	104	0	51	19246
2026-01-09 08:00:51.08	92.99	6.94	-39.9	-54.5	3.8	1.49e+00	0	52	104	0	51	19232
2026-01-09 08:00:52.09	92.88	7.00	-39.9	-54.5	3.8	1.49e+00	0	52	104	0	51	19232
2026-01-09 08:00:53.10	92.77	7.05	-39.9	-54.5	3.8	1.49e+00	0	52	104	0	51	19200
2026-01-09 08:00:54.11	92.65	7.11	-39.8	-54.5	3.8	1.49e+00	0	52	104	0	51	19179
2026-01-09 08:00:55.12	92.54	7.17	-39.9	-54.5	3.8	1.49e+00	0	52	104	0	51	19179
2026-01-09 08:00:56.13	92.43	7.22	-39.8	-54.4	3.8	1.49e+00	0	52	104	0	51	19120
2026-01-09 08:00:57.14	92.31	7.28	-39.8	-54.4	3.8	1.49e+00	0	52	104	0	51	19147
2026-01-09 08:00:58.16	92.19	7.34	-39.9	-54.4	3.8	1.49e+00	0	52	104	0	51	19117
2026-01-09 08:00:59.17	92.08	7.40	-39.8	-54.4	3.8	1.49e+00	0	52	104	0	51	19138
2026-01-09 08:01:00.18	91.96	7.45	-39.9	-54.5	3.8	1.49e+00	0	52	104	0	51	19198
2026-01-09 08:01:01.19	91.85	7.51	-39.8	-54.5	3.8	1.49e+00	0	52	104	0	51	19217
2026-01-09 08:01:02.20	91.73	7.57	-39.9	-54.5	3.8	1.49e+00	0	52	104	0	51	19202
2026-01-09 08:01:03.21	91.61	7.62	-39.9	-54.5	3.8	1.49e+00	0	52	104	0	51	19181
2026-01-09 08:01:04.22	91.49	7.68	-39.9	-54.5	3.8	1.49e+00	0	52	104	0	51	19191
2026-01-09 08:01:05.23	91.37	7.74	-39.9	-54.4	3.8	1.49e+00	0	52	104	0	51	19137
2026-01-09 08:01:06.24	91.26	7.79	-39.8	-54.4	3.8	1.49e+00	0	52	104	0	51	19112
2026-01-09 08:01:07.25	91.14	7.85	-39.8	-54.3	3.8	1.49e+00	0	52	104	0	51	18851
2026-01-09 08:01:08.26	91.02	7.91	-39.8	-53.8	3.8	1.49e+00	0	52	104	0	51	17777
2026-01-09 08:01:09.27	90.90	7.97	-39.8	-53.0	3.8	1.49e+00	0	52	104	0	51	16183
2026-01-09 08:01:10.28	90.77	8.02	-39.8	-52.2	3.8	1.48e+00	0	52	104	0	51	14791
2026-01-09 08:01:11.29	90.65	8.08	-40.6	-55.0	3.8	1.49e+00	0	52	104	0	51	20511
2026-01-09 08:01:12.30	90.53	8.14	-39.8	-54.0	3.8	1.49e+00	0	53	104	0	51	18174
2026-01-09 08:01:13.31	90.41	8.19	-39.8	-53.5	3.8	1.49e+00	0	53	104	0	51	17127
2026-01-09 08:01:14.32	90.29	8.25	-39.9	-53.7	3.8	1.49e+00	0	52	104	0	51	17494
2026-01-09 08:01:15.33	90.16	8.31	-39.8	-54.3	3.8	1.49e+00	0	53	104	0	51	18881
2026-01-09 08:01:16.34	90.04	8.37	-39.9	-54.1	3.8	1.49e+00	0	53	104	0	51	18474
2026-01-09 08:01:17.35	89.91	8.42	-39.9	-54.4	3.8	1.49e+00	0	53	104	0	51	19007
2026-01-09 08:01:18.36	89.79	8.48	-39.8	-54.5	3.8	1.49e+00	0	53	104	0	51	19271
2026-01-09 08:01:19.37	89.66	8.54	-39.7	-54.5	3.8	1.49e+00	0	53	104	0	51	19325
2026-01-09 08:01:20.38	89.54	8.59	-40.1	-54.9	3.8	1.49e+00	0	53	104	0	51	20231
2026-01-09 08:01:21.39	89.41	8.65	-39.7	-54.6	3.8	1.49e+00	0	53	104	0	51	19416
2026-01-09 08:01:22.40	89.29	8.71	-39.9	-54.9	3.8	1.49e+00	0	53	104	0	51	20157
2026-01-09 08:01:23.41	89.16	8.76	-39.7	-54.8	3.8	1.49e+00	0	53	104	0	51	19994
2026-01-09 08:01:24.41	89.03	8.82	-40.0	-54.9	3.8	1.49e+00	0	53	104	0	51	20110
2026-01-09 08:01:25.42	88.90	8.88	-39.9	-54.9	3.8	1.49e+00	0	53	104	0	51	20179
2026-01-09 08:01:26.43	88.77	8.94	-40.2	-54.9	3.8	1.49e+00	0	53	104	0	51	20271
2026-01-09 08:01:27.44	88.65	8.99	-39.8	-54.6	3.8	1.49e+00	0	53	104	0	51	19459
2026-01-09 08:01:28.45	88.52	9.05	-39.9	-54.6	3.8	1.49e+00	0	53	104	0	51	19414
2026-01-09 08:01:29.46	88.38	9.11	-40.0	-54.6	3.8	1.49e+00	0	53	104	0	51	19498
2026-01-09 08:01:30.47	88.25	9.16	-40.0	-54.6	3.8	1.49e+00	0	53	104	0	51	19569
2026-01-09 08:01:31.48	88.12	9.22	-40.0	-54.6	3.8	1.49e+00	0	53	104	0	51	19601
2026-01-09 08:01:32.49	87.99	9.28	-40.1	-54.8	3.8	1.49e+00	0	53	104	0	51	19897
2026-01-09 08:01:33.50	87.86	9.33	-40.2	-54.8	3.8	1.49e+00	0	53	104	0	51	20042
2026-01-09 08:01:34.51	87.72	9.39	-40.2	-54.8	3.8	1.49e+00	0	53	104	0	51	19975
2026-01-09 08:01:35.52	87.59	9.45	-40.2	-54.8	3.8	1.49e+00	0	53	104	0	51	19978
2026-01-09 08:01:36.53	87.46	9.50	-40.1	-54.8	3.8	1.49e+00	0	53	104	0	51	19940
2026-01-09 08:01:37.54	87.32	9.56	-40.2	-54.8	3.8	1.49e+00	0	53	104	0	51	19985
2026-01-09 08:01:38.55	87.19	9.62	-40.2	-54.9	3.8	1.49e+00	0	53	104	0	51	20108
2026-01-09 08:01:39.56	87.05	9.68	-40.2	-54.9	3.8	1.49e+00	0	53	104	0	51	20172
2026-01-09 08:01:40.57	86.92	9.73	-40.2	-54.9	3.8	1.49e+00	0	53	104	0	51	20129
2026-01-09 08:01:41.58	86.78	9.79	-40.0	-54.8	3.8	1.49e+00	0	53	104	0	51	20027
2026-01-09 08:01:42.59	86.64	9.85	-40.2	-54.9	3.8	1.49e+00	0	54	104	0	51	20105
2026-01-09 08:01:43.60	86.50	9.90	-40.1	-54.8	3.8	1.49e+00	0	53	104	0	51	20022
2026-01-09 08:01:44.60	86.37	9.96	-40.1	-54.8	3.8	1.49e+00	0	53	104	0	51	20018
2026-01-09 08:01:45.61	86.23	10.02	-40.2	-54.8	3.8	1.49e+00	0	53	104	0	51	20007
2026-01-09 08:01:46.62	86.09	10.07	-40.0	-54.7	3.8	1.49e+00	0	53	104	0	51	19828
2026-01-09 08:01:47.63	85.95	10.13	-40.1	-54.7	3.8	1.49e+00	0	53	104	0	51	19728
2026-01-09 08:01:48.64	85.81	10.19	-39.9	-54.6	3.8	1.49e+00	0	53	104	0	51	19541
2026-01-09 08:01:49.65	85.67	10.24	-39.8	-54.5	3.8	1.49e+00	0	53	104	0	51	19217
2026-01-09 08:01:50.66	85.52	10.30	-40.0	-54.6	3.8	1.49e+00	0	53	104	0	51	19595
2026-01-09 08:01:51.67	85.38	10.35	-39.9	-54.5	3.8	1.49e+00	0	53	104	0	51	19334
2026-01-09 08:01:52.67	85.24	10.41	-39.9	-54.5	3.8	1.49e+00	0	54	104	0	51	19375
2026-01-09 08:01:53.68	85.10	10.47	-39.9	-54.5	3.8	1.49e+00	0	53	104	0	51	19350
2026-01-09 08:01:54.69	84.95	10.52	-39.8	-54.4	3.8	1.49e+00	0	53	104	0	51	19141
2026-01-09 08:01:55.70	84.81	10.58	-39.9	-54.5	3.8	1.49e+00	0	54	104	0	50	20509
2026-01-09 08:01:56.71	84.66	10.64	-39.8	-54.4	3.8	1.49e+00	0	54	104	0	50	20241
2026-01-09 08:01:57.72	84.52	10.69	-39.9	-54.5	3.8	1.49e+00	0	53	104	0	50	20488
2026-01-09 08:01:58.73	84.37	10.75	-39.8	-54.5	3.8	1.49e+00	0	54	104	0	50	20410
2026-01-09 08:01:59.74	84.23	10.80	-39.9	-54.5	3.8	1.49e+00	0	54	104	0	50	20469
2026-01-09 08:02:00.75	84.08	10.86	-39.8	-54.5	3.8	1.49e+00	0	54	104	0	50	20442
2026-01-09 08:02:01.76	83.93	10.92	-40.0	-54.6	3.8	1.49e+00	0	54	104	0	50	20647
2026-01-09 08:02:02.77	83.78	10.97	-39.8	-54.5	3.8	1.49e+00	0	54	104	0	50	20382
2026-01-09 08:02:03.78	83.63	11.03	-40.0	-54.6	3.8	1.49e+00	0	54	104	0	50	20630
2026-01-09 08:02:04.79	83.48	11.08	-39.8	-54.5	3.8	1.49e+00	0	54	104	0	50	20339
2026-01-09 08:02:05.80	83.33	11.14	-40.0	-54.5	3.8	1.49e+00	0	54	104	0	50	20509
2026-01-09 08:02:06.81	83.18	11.19	-39.9	-54.5	3.8	1.49e+00	0	54	104	0	50	20515
2026-01-09 08:02:07.82	83.03	11.25	-40.0	-54.6	3.8	1.49e+00	0	54	104	0	50	20642
2026-01-09 08:02:08.83	82.88	11.31	-39.9	-54.5	3.8	1.49e+00	0	54	104	0	50	20431
2026-01-09 08:02:09.83	82.73	11.36	-40.0	-54.7	3.8	1.49e+00	0	54	104	0	50	20809
2026-01-09 08:02:10.84	82.58	11.42	-39.9	-54.5	3.8	1.49e+00	0	54	104	0	50	20327
2026-01-09 08:02:11.85	82.42	11.47	-40.1	-54.7	3.8	1.49e+00	0	54	104	0	50	20857
2026-01-09 08:02:12.86	82.27	11.53	-39.9	-54.5	3.8	1.49e+00	0	54	104	0	50	20337
2026-01-09 08:02:13.87	82.11	11.58	-40.0	-54.6	3.8	1.49e+00	0	54	104	0	50	20658
2026-01-09 08:02:14.88	81.96	11.64	-40.0	-54.6	3.8	1.49e+00	0	54	104	0	50	20647
2026-01-09 08:02:15.89	81.80	11.69	-40.0	-54.6	3.8	1.49e+00	0	54	104	0	50	20683
2026-01-09 08:02:16.90	81.64	11.75	-40.0	-54.6	3.8	1.49e+00	0	54	104	0	50	20666
2026-01-09 08:02:17.91	81.49	11.80	-40.1	-54.7	3.8	1.49e+00	0	54	104	0	50	20939
2026-01-09 08:02:18.92	81.33	11.86	-39.9	-54.6	3.8	1.49e+00	0	54	104	0	50	20552
2026-01-09 08:02:19.93	81.17	11.91	-40.1	-54.7	3.8	1.49e+00	0	54	104	0	50	20911
2026-01-09 08:02:20.94	81.01	11.97	-40.0	-54.5	3.8	1.49e+00	0	54	104	0	50	20504
2026-01-09 08:02:21.95	80.85	12.02	-39.9	-54.7	3.8	1.49e+00	0	54	104	0	50	20857
2026-01-09 08:02:22.96	80.69	12.07	-40.0	-54.6	3.8	1.49e+00	0	54	104	0	50	20705
2026-01-09 08:02:23.97	80.53	12.13	-40.0	-54.7	3.8	1.49e+00	0	54	104	0	50	20918
2026-01-09 08:02:24.98	80.37	12.18	-40.0	-54.6	3.8	1.49e+00	0	54	104	0	50	20742
2026-01-09 08:02:25.99	80.21	12.24	-40.3	-54.8	3.8	1.49e+00	0	54	104	0	51	20069
2026-01-09 08:02:27.00	80.05	12.29	-40.0	-54.6	3.8	1.49e+00	0	54	104	0	51	19491
2026-01-09 08:02:28.01	79.88	12.34	-40.3	-54.9	3.8	1.49e+00	0	54	104	0	51	20261
2026-01-09 08:02:29.02	79.72	12.40	-40.0	-54.6	3.8	1.49e+00	0	54	104	0	51	19591
2026-01-09 08:02:30.03	79.55	12.45	-40.3	-54.9	3.8	1.49e+00	0	54	104	0	51	20181
2026-01-09 08:02:31.04	79.39	12.51	-40.0	-54.7	3.8	1.49e+00	0	54	104	0	51	19640
2026-01-09 08:02:32.05	79.22	12.56	-40.4	-54.9	3.8	1.49e+00	0	54	104	0	51	20260
2026-01-09 08:02:33.06	79.06	12.61	-40.0	-54.7	3.8	1.49e+00	0	54	104	0	51	19721
2026-01-09 08:02:34.07	78.89	12.67	-40.7	-55.3	3.8	1.49e+00	0	54	104	0	51	21057
2026-01-09 08:02:35.08	78.72	12.72	-40.2	-54.9	3.8	1.49e+00	0	54	104	0	51	20113
2026-01-09 08:02:36.09	78.56	12.77	-40.7	-55.2	3.8	1.49e+00	0	54	104	0	52	19817
2026-01-09 08:02:37.10	78.39	12.82	-40.2	-54.8	3.8	1.49e+00	0	54	104	0	52	18915
2026-01-09 08:02:38.11	78.22	12.88	-40.4	-55.0	3.8	1.49e+00	0	54	104	0	52	19273
2026-01-09 08:02:39.12	78.05	12.93	-40.2	-54.8	3.8	1.49e+00	0	54	104	0	52	18864
2026-01-09 08:02:40.13	77.88	12.98	-40.4	-55.1	3.8	1.49e+00	0	54	104	0	52	19514
2026-01-09 08:02:41.14	77.71	13.03	-40.3	-54.9	3.8	1.49e+00	0	54	104	0	52	18954
2026-01-09 08:02:42.15	77.53	13.09	-40.8	-55.0	3.8	1.49e+00	0	54	104	0	52	19203
2026-01-09 08:02:43.16	77.36	13.14	-40.5	-55.1	3.8	1.49e+00	0	54	104	0	52	19403
2026-01-09 08:02:44.17	77.19	13.19	-40.7	-54.8	3.8	1.49e+00	0	54	104	0	52	18840
2026-01-09 08:02:45.18	77.02	13.24	-40.7	-55.2	3.8	1.49e+00	0	54	104	0	52	19726
2026-01-09 08:02:46.19	76.84	13.29	-40.8	-55.4	3.8	1.49e+00	0	54	104	0	52	20142
2026-01-09 08:02:47.20	76.67	13.34	-40.4	-54.9	3.8	1.49e+00	0	54	104	0	52	19087
2026-01-09 08:02:48.21	76.49	13.40	-40.9	-55.4	3.8	1.49e+00	0	55	104	0	52	20256
2026-01-09 08:02:49.22	76.32	13.45	-40.5	-54.9	3.8	1.49e+00	0	55	104	0	52	18966
2026-01-09 08:02:50.23	76.14	13.50	-40.8	-54.7	3.8	1.49e+00	0	54	104	0	52	18680
2026-01-09 08:02:51.24	75.96	13.55	-41.0	-55.5	3.8	1.49e+00	0	54	104	0	52	20531
2026-01-09 08:02:52.25	75.78	13.60	-40.9	-54.4	3.8	1.49e+00	0	54	104	0	52	17985
2026-01-09 08:02:53.26	75.61	13.65	-40.9	-54.5	3.8	1.49e+00	0	54	104	0	52	18281
2026-01-09 08:02:54.27	75.43	13.70	-40.9	-54.4	3.8	1.49e+00	0	54	104	0	52	17911
2026-01-09 08:02:55.28	75.25	13.75	-40.9	-54.0	3.8	1.49e+00	0	55	104	0	52	17273
2026-01-09 08:02:56.29	75.07	13.80	-40.9	-53.5	3.8	1.49e+00	0	55	104	0	52	16296
2026-01-09 08:02:57.30	74.89	13.85	-40.9	-53.3	3.8	1.48e+00	0	54	104	0	52	15927
2026-01-09 08:02:58.31	74.70	13.90	-40.8	-52.3	4.1	1.46e+00	0	55	0	0	52	14049
2026-01-09 08:02:59.32	74.52	13.95	-40.8	-52.4	4.1	1.41e+00	0	55	0	0	52	14290
2026-01-09 08:03:00.33	74.34	14.00	-40.8	-51.3	4.4	1.36e+00	0	55	0	0	52	12545
2026-01-09 08:03:01.34	74.16	14.05	-40.7	-50.4	4.9	8.95e-01	0	55	0	2097152	52	11355
2026-01-09 08:03:02.35	73.97	14.09	-40.7	-50.9	4.6	9.12e-01	0	55	0	3145728	52	12081
2026-01-09 08:03:03.36	73.79	14.14	-40.7	-50.8	4.6	9.59e-01	0	55	0	5242880	52	11890
2026-01-09 08:03:04.37	73.60	14.19	-40.6	-49.9	5.1	7.82e-01	0	55	0	7340032	52	10759
2026-01-09 08:03:05.38	73.42	14.24	-40.4	-49.2	5.5	5.81e-01	0	55	0	9437184	52	9849
2026-01-09 08:03:06.39	73.23	14.29	-40.3	-48.6	5.9	3.98e-01	0	55	0	11534336	52	9261
2026-01-09 08:03:07.40	73.04	14.33	-40.2	-48.5	5.9	3.35e-01	0	55	0	12582912	52	9146
2026-01-09 08:03:08.41	72.86	14.38	-40.2	-48.6	5.8	3.68e-01	0	55	0	14680064	52	9246
2026-01-09 08:03:09.42	72.67	14.43	-40.1	-48.1	6.1	3.20e-01	0	55	0	16777216	52	8731
2026-01-09 08:03:10.43	72.48	14.48	-40.0	-47.7	6.5	2.37e-01	0	55	0	18874368	51	8766
2026-01-09 08:03:11.44	72.29	14.52	-40.0	-47.7	6.5	2.27e-01	0	55	0	20971520	51	8786
2026-01-09 08:03:12.45	72.10	14.57	-39.9	-47.5	6.6	2.32e-01	0	55	0	22020096	51	8586
2026-01-09 08:03:13.46	71.91	14.62	-39.7	-46.7	7.3	1.52e-01	0	55	0	24117248	51	7888
2026-01-09 08:03:14.47	71.72	14.66	-39.8	-46.9	7.1	1.30e-01	0	55	0	26214400	51	8032
2026-01-09 08:03:15.47	71.53	14.71	-39.9	-47.3	6.8	1.68e-01	0	55	0	28311552	51	8418
2026-01-09 08:03:16.48	71.34	14.75	-40.0	-47.6	6.6	2.18e-01	0	55	0	30408704	51	8718
2026-01-09 08:03:17.49	71.14	14.80	-40.1	-47.7	6.6	2.15e-01	0	55	0	31457280	51	8777
2026-01-09 08:03:18.50	70.95	14.84	-40.0	-47.0	7.3	1.32e-01	0	55	0	33554432	51	8171
2026-01-09 08:03:19.51	70.75	14.89	-40.0	-46.7	7.7	1.05e-01	0	55	0	35651584	51	7883
2026-01-09 08:03:20.52	70.56	14.93	-40.0	-46.6	7.9	8.49e-02	0	55	0	37748736	51	7720
2026-01-09 08:03:21.53	70.36	14.98	-39.9	-46.1	8.5	5.34e-02	0	55	0	39845888	51	7292
2026-01-09 08:03:22.54	70.17	15.02	-40.0	-46.0	8.6	4.01e-02	0	55	0	40894464	51	7279
2026-01-09 08:03:23.55	69.97	15.07	-40.1	-46.1	8.6	3.85e-02	0	55	0	42991616	51	7359
2026-01-09 08:03:24.56	69.78	15.11	-39.9	-45.2	9.7	2.50e-02	0	55	0	45088768	51	6609
2026-01-09 08:03:25.57	69.58	15.15	-39.7	-44.5	10.6	4.58e-03	0	55	0	47185920	51	6083
2026-01-09 08:03:26.58	69.38	15.20	-39.6	-44.2	11.0	2.49e-03	0	55	0	49283072	51	5878
2026-01-09 08:03:27.59	69.18	15.24	-39.6	-44.0	11.3	1.70e-03	0	55	0	50331648	51	5740
2026-01-09 08:03:28.60	68.98	15.28	-39.5	-43.7	11.6	7.09e-04	0	55	0	52428800	51	5583
2026-01-09 08:03:29.61	68.78	15.33	-39.6	-43.7	11.8	5.30e-04	0	55	0	54525952	51	5572
2026-01-09 08:03:30.62	68.58	15.37	-39.7	-43.7	11.9	4.49e-04	0	55	0	56623104	51	5579
2026-01-09 08:03:31.63	68.38	15.41	-39.7	-43.6	12.2	1.85e-04	0	55	0	58720256	51	5488
2026-01-09 08:03:32.64	68.18	15.45	-39.7	-43.5	12.5	1.23e-04	0	55	0	59768832	51	5420
2026-01-09 08:03:33.64	67.98	15.49	-39.7	-43.4	12.7	8.08e-05	0	55	0	61865984	51	5398
2026-01-09 08:03:34.65	67.78	15.53	-39.8	-43.5	12.7	8.39e-05	0	55	0	63963136	51	5443
2026-01-09 08:03:35.66	67.57	15.57	-39.8	-43.4	12.9	7.01e-05	0	55	0	66060288	51	5371
2026-01-09 08:03:36.67	67.37	15.61	-39.9	-43.5	13.0	4.88e-05	0	55	0	68157440	51	5431
2026-01-09 08:03:37.68	67.16	15.65	-39.9	-43.3	13.3	2.13e-05	0	55	0	70254592	51	5316
2026-01-09 08:03:38.69	66.96	15.69	-39.8	-43.2	13.5	6.80e-06	0	55	0	71303168	51	5238
2026-01-09 08:03:39.70	66.75	15.73	-39.9	-43.2	13.6	6.80e-06	0	55	0	73400320	51	5242
2026-01-09 08:03:40.71	66.55	15.77	-39.6	-42.7	14.1	4.50e-06	0	55	0	75497472	51	4964
2026-01-09 08:03:41.72	66.34	15.81	-39.3	-42.3	14.5	0.00e+00	0	55	0	77594624	50	4998
2026-01-09 08:03:42.72	66.14	15.85	-39.3	-42.3	14.6	7.00e-07	0	55	0	79691776	50	4990
2026-01-09 08:03:43.74	65.93	15.89	-39.4	-42.4	14.4	0.00e+00	0	55	0	80740352	50	5074
2026-01-09 08:03:44.75	65.72	15.92	-39.2	-42.0	14.8	0.00e+00	0	55	0	82837504	50	4863
2026-01-09 08:03:45.76	65.51	15.96	-39.0	-41.7	15.2	0.00e+00	0	55	0	84934656	50	4681
2026-01-09 08:03:46.76	65.30	16.00	-38.9	-41.5	15.5	0.00e+00	0	55	0	87031808	49	4831
2026-01-09 08:03:47.77	65.09	16.04	-38.7	-41.2	15.8	0.00e+00	0	55	0	89128960	49	4689
2026-01-09 08:03:48.78	64.88	16.07	-38.7	-41.1	16.0	0.00e+00	0	55	0	90177536	49	4604
2026-01-09 08:03:49.79	64.67	16.11	-38.6	-40.9	16.1	0.00e+00	0	55	0	92274688	49	4542
2026-01-09 08:03:50.80	64.46	16.14	-38.5	-40.8	16.3	0.00e+00	0	55	0	94371840	48	4729
2026-01-09 08:03:51.81	64.25	16.18	-38.7	-41.0	16.0	0.00e+00	0	55	0	96468992	48	4850
2026-01-09 08:03:52.82	64.04	16.22	-38.8	-41.2	15.9	0.00e+00	0	55	0	98566144	48	4951
2026-01-09 08:03:53.83	63.82	16.25	-38.8	-41.3	15.9	0.00e+00	0	55	0	99614720	48	4990
2026-01-09 08:03:54.84	63.61	16.28	-38.9	-41.4	15.8	0.00e+00	0	55	0	101711872	48	5054
2026-01-09 08:03:55.85	63.40	16.32	-39.0	-41.5	15.7	0.00e+00	0	55	0	103809024	48	5109
2026-01-09 08:03:56.86	63.18	16.35	-39.0	-41.5	15.7	0.00e+00	0	55	0	105906176	48	5141
2026-01-09 08:03:57.87	62.97	16.39	-39.2	-41.8	15.4	0.00e+00	0	55	0	108003328	48	5285
2026-01-09 08:03:58.88	62.75	16.42	-39.2	-41.8	15.4	0.00e+00	0	55	0	109051904	49	5022
2026-01-09 08:03:59.89	62.54	16.45	-39.3	-42.0	15.2	0.00e+00	0	55	0	111149056	49	5101
2026-01-09 08:04:00.90	62.32	16.48	-39.3	-42.0	15.2	0.00e+00	0	55	0	113246208	49	5101
2026-01-09 08:04:01.91	62.10	16.52	-39.3	-42.0	15.2	0.00e+00	0	56	0	115343360	49	5119
2026-01-09 08:04:02.92	61.89	16.55	-39.4	-42.1	15.1	0.00e+00	0	55	0	117440512	49	5202
2026-01-09 08:04:03.92	61.67	16.58	-39.6	-42.3	14.9	0.00e+00	0	55	0	118489088	49	5327
2026-01-09 08:04:04.93	61.45	16.61	-39.7	-42.6	14.7	0.00e+00	0	55	0	120586240	49	5495
2026-01-09 08:04:05.94	61.23	16.64	-39.7	-42.5	14.7	0.00e+00	0	55	0	122683392	50	5159
2026-01-09 08:04:06.95	61.02	16.67	-39.7	-42.5	14.8	0.00e+00	0	55	0	124780544	50	5144
2026-01-09 08:04:07.96	60.80	16.70	-39.8	-42.8	14.5	0.00e+00	0	55	0	126877696	50	5293
2026-01-09 08:04:08.97	60.58	16.73	-39.8	-42.8	14.4	0.00e+00	0	55	0	127926272	50	5309
2026-01-09 08:04:09.98	60.36	16.76	-39.8	-42.8	14.5	7.00e-07	0	55	0	130023424	50	5297
2026-01-09 08:04:10.99	60.14	16.79	-39.8	-42.7	14.5	7.00e-07	0	55	0	132120576	50	5275
2026-01-09 08:04:12.00	59.91	16.81	-39.8	-42.8	14.4	0.00e+00	0	55	0	134217728	50	5306
2026-01-09 08:04:13.01	59.69	16.84	-39.8	-42.7	14.5	7.00e-07	0	56	0	136314880	50	5248
2026-01-09 08:04:14.02	59.47	16.87	-39.9	-42.9	14.4	0.00e+00	0	55	0	138412032	50	5356
2026-01-09 08:04:15.03	59.25	16.90	-39.9	-42.9	14.3	7.00e-07	0	55	0	139460608	50	5371
2026-01-09 08:04:16.04	59.03	16.92	-39.9	-42.8	14.5	7.00e-07	0	55	0	141557760	50	5314
2026-01-09 08:04:17.05	58.80	16.95	-39.7	-42.5	14.7	7.00e-07	0	55	0	143654912	50	5145
2026-01-09 08:04:18.06	58.58	16.97	-39.5	-42.1	15.1	0.00e+00	0	55	0	145752064	50	4923
2026-01-09 08:04:19.07	58.36	17.00	-39.4	-42.1	15.2	0.00e+00	0	56	0	147849216	50	4886
2026-01-09 08:04:20.08	58.13	17.02	-39.3	-42.0	15.3	0.00e+00	0	55	0	148897792	50	4834
2026-01-09 08:04:21.09	57.91	17.05	-39.4	-42.1	15.2	0.00e+00	0	56	0	150994944	50	4907
2026-01-09 08:04:22.10	57.68	17.07	-39.4	-42.0	15.2	0.00e+00	0	55	0	153092096	50	4845
2026-01-09 08:04:23.11	57.46	17.10	-39.3	-42.0	15.3	0.00e+00	0	55	0	155189248	50	4818
2026-01-09 08:04:24.12	57.23	17.12	-39.3	-41.9	15.3	0.00e+00	0	56	0	157286400	50	4800
2026-01-09 08:04:25.13	57.01	17.14	-39.3	-41.9	15.4	0.00e+00	0	55	0	158334976	50	4785
2026-01-09 08:04:26.14	56.78	17.16	-39.2	-41.7	15.5	0.00e+00	0	55	0	160432128	50	4695
2026-01-09 08:04:27.15	56.55	17.19	-39.1	-41.7	15.6	0.00e+00	0	56	0	162529280	50	4665
2026-01-09 08:04:28.16	56.33	17.21	-39.2	-41.8	15.4	0.00e+00	0	55	0	164626432	50	4746
2026-01-09 08:04:29.17	56.10	17.23	-39.2	-41.8	15.4	0.00e+00	0	56	0	166723584	50	4735
2026-01-09 08:04:30.18	55.87	17.25	-39.3	-42.0	15.3	0.00e+00	0	56	0	167772160	50	4825
2026-01-09 08:04:31.19	55.64	17.27	-39.4	-42.2	15.1	0.00e+00	0	56	0	169869312	50	4942
2026-01-09 08:04:32.20	55.42	17.29	-39.5	-42.2	15.0	0.00e+00	0	55	0	171966464	50	4980
2026-01-09 08:04:33.20	55.19	17.31	-39.6	-42.5	14.8	0.00e+00	0	56	0	174063616	50	5115
2026-01-09 08:04:34.21	54.96	17.32	-39.8	-42.8	14.5	7.00e-07	0	55	0	176160768	50	5297
2026-01-09 08:04:35.22	54.73	17.34	-40.0	-43.2	14.1	3.80e-06	0	56	0	177209344	50	5580
2026-01-09 08:04:36.23	54.50	17.36	-40.2	-43.6	13.7	2.20e-06	0	56	0	179306496	50	5793
2026-01-09 08:04:37.24	54.27	17.38	-40.2	-43.7	13.6	9.90e-06	0	55	0	181403648	51	5544
2026-01-09 08:04:38.25	54.04	17.39	-40.3	-43.7	13.5	1.44e-05	0	55	0	183500800	51	5591
2026-01-09 08:04:39.26	53.81	17.41	-40.2	-43.6	13.6	1.06e-05	0	56	0	185597952	51	5526
2026-01-09 08:04:40.27	53.58	17.43	-40.2	-43.7	13.7	4.50e-06	0	56	0	186646528	51	5529
2026-01-09 08:04:41.28	53.35	17.44	-40.2	-43.6	13.6	6.80e-06	0	56	0	188743680	51	5516
2026-01-09 08:04:42.29	53.12	17.46	-40.2	-43.5	13.7	6.10e-06	0	56	0	190840832	51	5428
2026-01-09 08:04:43.29	52.89	17.47	-40.1	-43.4	13.8	4.50e-06	0	56	0	192937984	51	5389
2026-01-09 08:04:44.30	52.66	17.49	-40.1	-43.3	13.9	3.80e-06	0	56	0	195035136	51	5321
2026-01-09 08:04:45.31	52.43	17.50	-40.0	-43.2	14.1	3.00e-06	0	56	0	196083712	51	5232
2026-01-09 08:04:46.32	52.20	17.51	-39.8	-42.8	14.4	3.80e-06	0	56	0	198180864	51	5021
2026-01-09 08:04:47.33	51.97	17.53	-39.7	-42.6	14.6	0.00e+00	0	56	0	200278016	51	4921
2026-01-09 08:04:48.34	51.74	17.54	-39.6	-42.6	14.7	0.00e+00	0	56	0	202375168	51	4879
2026-01-09 08:04:49.35	51.50	17.55	-39.7	-42.7	14.6	0.00e+00	0	56	0	204472320	51	4948
2026-01-09 08:04:50.36	51.27	17.56	-39.9	-43.0	14.3	0.00e+00	0	56	0	206569472	51	5121
2026-01-09 08:04:51.37	51.04	17.57	-39.8	-42.8	14.5	7.00e-07	0	56	0	207618048	51	4992
2026-01-09 08:04:52.38	50.81	17.58	-39.6	-42.5	14.9	0.00e+00	0	56	0	209715200	51	4817
2026-01-09 08:04:53.39	50.57	17.59	-39.4	-42.2	15.1	0.00e+00	0	56	0	211812352	50	4930
2026-01-09 08:04:54.40	50.34	17.60	-39.4	-42.1	15.2	0.00e+00	0	56	0	213909504	50	4887
2026-01-09 08:04:55.41	50.11	17.61	-39.3	-42.0	15.3	0.00e+00	0	56	0	216006656	50	4847
2026-01-09 08:04:56.42	49.87	17.62	-39.4	-42.1	15.2	0.00e+00	0	56	0	217055232	50	4903
2026-01-09 08:04:57.43	49.64	17.63	-39.4	-42.2	15.2	0.00e+00	0	56	0	219152384	50	4941
2026-01-09 08:04:58.44	49.41	17.63	-39.5	-42.3	15.1	0.00e+00	0	56	0	221249536	50	4985
2026-01-09 08:04:59.45	49.17	17.64	-39.6	-42.4	15.0	0.00e+00	0	56	0	223346688	50	5054
2026-01-09 08:05:00.45	48.94	17.65	-39.7	-42.6	14.8	0.00e+00	0	56	0	225443840	50	5160
2026-01-09 08:05:01.46	48.71	17.65	-39.8	-42.7	14.6	7.00e-07	0	56	0	226492416	50	5268
2026-01-09 08:05:02.47	48.48	17.66	-39.9	-42.9	14.4	0.00e+00	0	56	0	228589568	50	5399
2026-01-09 08:05:03.48	48.24	17.66	-40.0	-43.0	14.2	0.00e+00	0	56	0	230686720	50	5441
2026-01-09 08:05:04.49	48.01	17.67	-40.0	-43.1	14.3	7.00e-07	0	56	0	232783872	50	5492
2026-01-09 08:05:05.51	47.77	17.67	-40.0	-43.1	14.3	3.00e-06	0	56	0	234881024	50	5465
2026-01-09 08:05:06.52	47.54	17.67	-39.9	-42.9	14.4	0.00e+00	0	56	0	235929600	50	5376
2026-01-09 08:05:07.53	47.30	17.68	-39.8	-42.7	14.6	0.00e+00	0	56	0	238026752	50	5263
2026-01-09 08:05:08.54	47.07	17.68	-39.7	-42.6	14.8	0.00e+00	0	56	0	240123904	50	5194
2026-01-09 08:05:09.55	46.84	17.68	-39.6	-42.5	14.9	0.00e+00	0	56	0	242221056	50	5116
2026-01-09 08:05:10.56	46.60	17.68	-39.5	-42.3	15.1	0.00e+00	0	56	0	244318208	50	5013
2026-01-09 08:05:11.57	46.37	17.68	-39.5	-42.2	15.1	0.00e+00	0	56	0	245366784	50	4964
2026-01-09 08:05:12.58	46.13	17.68	-39.6	-42.4	14.9	0.00e+00	0	56	0	247463936	50	5085
2026-01-09 08:05:13.59	45.90	17.68	-39.7	-42.6	14.8	0.00e+00	0	56	0	249561088	50	5174
2026-01-09 08:05:14.60	45.66	17.68	-39.9	-42.9	14.4	7.00e-07	0	56	0	251658240	50	5379
2026-01-09 08:05:15.61	45.43	17.68	-40.1	-43.3	14.1	2.20e-06	0	56	0	253755392	50	5615
2026-01-09 08:05:16.61	45.20	17.68	-40.3	-43.6	13.7	2.20e-06	0	56	0	254803968	51	5517
2026-01-09 08:05:17.62	44.96	17.68	-40.3	-43.6	13.8	5.30e-06	0	56	0	256901120	51	5479
2026-01-09 08:05:18.63	44.73	17.68	-40.4	-43.9	13.5	6.80e-06	0	56	0	258998272	51	5693
2026-01-09 08:05:19.64	44.50	17.67	-40.3	-43.6	13.6	6.80e-06	0	56	0	261095424	51	5526
2026-01-09 08:05:20.65	44.26	17.67	-40.3	-43.7	13.6	1.22e-05	0	56	0	263192576	51	5582
2026-01-09 08:05:21.66	44.03	17.67	-40.2	-43.6	13.8	9.10e-06	0	56	0	264241152	51	5480
2026-01-09 08:05:22.67	43.79	17.66	-40.1	-43.4	13.9	1.50e-06	0	56	0	266338304	51	5346
2026-01-09 08:05:23.68	43.56	17.66	-39.9	-43.0	14.3	2.20e-06	0	56	0	268435456	51	5109
2026-01-09 08:05:24.69	43.33	17.65	-39.7	-42.6	14.7	0.00e+00	0	56	0	270532608	51	4920
2026-01-09 08:05:25.70	43.09	17.65	-39.6	-42.5	14.8	7.00e-07	0	56	0	272629760	51	4865
2026-01-09 08:05:26.71	42.86	17.64	-39.4	-42.2	15.1	0.00e+00	0	56	0	273678336	50	4961
2026-01-09 08:05:27.72	42.63	17.63	-39.6	-42.4	14.9	0.00e+00	0	56	0	275775488	50	5093
2026-01-09 08:05:28.73	42.39	17.63	-39.5	-42.3	15.0	0.00e+00	0	56	0	277872640	50	5019
2026-01-09 08:05:29.74	42.16	17.62	-39.5	-42.3	15.1	0.00e+00	0	56	0	279969792	50	5004
2026-01-09 08:05:30.75	41.93	17.61	-39.5	-42.2	15.1	0.00e+00	0	56	0	282066944	50	4968
2026-01-09 08:05:31.76	41.69	17.60	-39.4	-42.2	15.2	0.00e+00	0	56	0	284164096	50	4936
2026-01-09 08:05:32.76	41.46	17.59	-39.4	-42.1	15.2	0.00e+00	0	56	0	285212672	50	4895
2026-01-09 08:05:33.78	41.23	17.58	-39.3	-41.9	15.5	0.00e+00	0	56	0	287309824	50	4805
2026-01-09 08:05:34.78	41.00	17.57	-39.3	-41.9	15.5	0.00e+00	0	56	0	289406976	50	4794
2026-01-09 08:05:35.79	40.77	17.56	-39.5	-42.2	15.2	0.00e+00	0	56	0	291504128	50	4948
2026-01-09 08:05:36.80	40.53	17.55	-39.4	-42.1	15.3	0.00e+00	0	56	0	293601280	50	4875
2026-01-09 08:05:37.81	40.30	17.54	-39.3	-41.9	15.5	0.00e+00	0	56	0	294649856	50	4804
2026-01-09 08:05:38.82	40.07	17.53	-39.3	-41.8	15.6	0.00e+00	0	56	0	296747008	50	4758
2026-01-09 08:05:39.83	39.84	17.51	-39.1	-41.6	15.8	0.00e+00	0	56	0	298844160	50	4599
2026-01-09 08:05:40.84	39.61	17.50	-38.8	-41.2	16.1	0.00e+00	0	56	0	300941312	49	4682
2026-01-09 08:05:41.85	39.38	17.49	-38.8	-41.1	16.2	0.00e+00	0	56	0	301989888	49	4648
2026-01-09 08:05:42.86	39.15	17.47	-38.6	-40.9	16.5	0.00e+00	0	56	0	304087040	49	4523
2026-01-09 08:05:43.86	38.92	17.46	-38.7	-40.9	16.4	0.00e+00	0	56	0	306184192	49	4545
2026-01-09 08:05:44.87	38.69	17.44	-38.7	-41.0	16.4	0.00e+00	0	56	0	308281344	49	4583
2026-01-09 08:05:45.88	38.46	17.43	-38.8	-41.2	16.3	0.00e+00	0	56	0	310378496	49	4660
2026-01-09 08:05:46.89	38.23	17.41	-38.8	-41.2	16.2	0.00e+00	0	56	0	312475648	49	4675
2026-01-09 08:05:47.90	38.00	17.40	-38.9	-41.2	16.2	0.00e+00	0	56	0	313524224	49	4692
2026-01-09 08:05:48.91	37.77	17.38	-39.0	-41.3	16.0	0.00e+00	0	56	0	315621376	49	4758
2026-01-09 08:05:49.92	37.54	17.36	-39.0	-41.4	16.0	0.00e+00	0	56	0	317718528	49	4797
2026-01-09 08:05:50.93	37.31	17.34	-39.1	-41.5	16.0	0.00e+00	0	56	0	319815680	49	4821
2026-01-09 08:05:51.94	37.08	17.33	-39.1	-41.6	15.8	0.00e+00	0	56	0	321912832	49	4916
2026-01-09 08:05:52.95	36.85	17.31	-39.3	-41.8	15.6	0.00e+00	0	56	0	322961408	49	5037
2026-01-09 08:05:53.96	36.62	17.29	-39.3	-41.9	15.6	0.00e+00	0	56	0	325058560	49	5048
2026-01-09 08:05:54.97	36.40	17.27	-39.5	-42.2	15.3	0.00e+00	0	56	0	327155712	49	5244
2026-01-09 08:05:55.98	36.17	17.25	-39.5	-42.2	15.2	0.00e+00	0	56	0	329252864	49	5240
2026-01-09 08:05:56.99	35.94	17.23	-39.4	-42.1	15.3	0.00e+00	0	56	0	331350016	49	5179
2026-01-09 08:05:58.00	35.72	17.21	-39.4	-42.1	15.3	0.00e+00	0	56	0	332398592	49	5187
2026-01-09 08:05:59.01	35.49	17.19	-39.5	-42.2	15.2	0.00e+00	0	56	0	334495744	49	5253
2026-01-09 08:06:00.02	35.26	17.16	-39.5	-42.2	15.3	0.00e+00	0	56	0	336592896	49	5220
2026-01-09 08:06:01.03	35.04	17.14	-39.6	-42.3	15.1	0.00e+00	0	56	0	338690048	49	5333
2026-01-09 08:06:02.03	34.81	17.12	-39.5	-42.3	15.2	0.00e+00	0	56	0	340787200	49	5290
2026-01-09 08:06:03.04	34.59	17.10	-39.5	-42.2	15.2	0.00e+00	0	56	0	341835776	49	5253
2026-01-09 08:06:04.05	34.36	17.07	-39.6	-42.3	15.1	0.00e+00	0	56	0	343932928	49	5328
2026-01-09 08:06:05.06	34.14	17.05	-39.8	-42.7	14.7	7.00e-07	0	56	0	346030080	50	5253
2026-01-09 08:06:06.07	33.91	17.02	-39.8	-42.6	14.8	0.00e+00	0	56	0	348127232	50	5210
2026-01-09 08:06:07.08	33.69	17.00	-39.7	-42.5	14.9	0.00e+00	0	56	0	350224384	50	5145
2026-01-09 08:06:08.09	33.47	16.97	-39.8	-42.6	14.7	7.00e-07	0	56	0	351272960	50	5214
2026-01-09 08:06:09.10	33.25	16.95	-39.9	-42.7	14.7	0.00e+00	0	56	0	353370112	50	5256
2026-01-09 08:06:10.11	33.02	16.92	-39.8	-42.6	14.8	7.00e-07	0	56	0	355467264	50	5199
2026-01-09 08:06:11.12	32.80	16.90	-39.8	-42.7	14.7	0.00e+00	0	56	0	357564416	50	5230
2026-01-09 08:06:12.13	32.58	16.87	-39.9	-42.8	14.6	0.00e+00	0	56	0	359661568	50	5334
2026-01-09 08:06:13.14	32.36	16.84	-39.7	-42.5	14.9	0.00e+00	0	56	0	360710144	50	5136
2026-01-09 08:06:14.15	32.14	16.82	-39.9	-42.8	14.6	0.00e+00	0	56	0	362807296	50	5315
2026-01-09 08:06:15.16	31.92	16.79	-39.8	-42.7	14.6	0.00e+00	0	56	0	364904448	50	5252
2026-01-09 08:06:16.17	31.70	16.76	-39.8	-42.7	14.7	0.00e+00	0	56	0	367001600	50	5244
2026-01-09 08:06:17.17	31.48	16.73	-39.7	-42.6	14.8	0.00e+00	0	56	0	369098752	50	5175
2026-01-09 08:06:18.19	31.26	16.70	-39.9	-42.8	14.6	0.00e+00	0	56	0	370147328	50	5326
2026-01-09 08:06:19.19	31.04	16.67	-40.0	-43.0	14.4	7.00e-07	0	56	0	372244480	50	5419
2026-01-09 08:06:20.20	30.82	16.64	-40.1	-43.2	14.2	3.00e-06	0	56	0	374341632	50	5548
2026-01-09 08:06:21.21	30.60	16.61	-40.3	-43.5	13.9	1.50e-06	0	56	0	376438784	51	5442
2026-01-09 08:06:22.22	30.39	16.58	-40.3	-43.5	13.9	3.00e-06	0	56	0	378535936	51	5440
2026-01-09 08:06:23.23	30.17	16.55	-40.4	-43.6	13.7	4.50e-06	0	56	0	380633088	51	5519
2026-01-09 08:06:24.24	29.95	16.52	-40.3	-43.6	13.8	3.00e-06	0	56	0	381681664	51	5480
2026-01-09 08:06:25.25	29.74	16.49	-40.4	-43.7	13.7	3.80e-06	0	56	0	383778816	51	5576
2026-01-09 08:06:26.26	29.52	16.45	-40.3	-43.4	14.0	6.80e-06	0	56	0	385875968	51	5398
2026-01-09 08:06:27.27	29.31	16.42	-40.1	-43.2	14.1	1.50e-06	0	56	0	387973120	51	5262
2026-01-09 08:06:28.28	29.09	16.39	-40.1	-43.1	14.3	7.00e-07	0	56	0	390070272	51	5204
2026-01-09 08:06:29.29	28.88	16.36	-40.0	-42.9	14.4	2.20e-06	0	56	0	391118848	51	5093
2026-01-09 08:06:30.30	28.66	16.32	-39.8	-42.7	14.7	7.00e-07	0	56	0	393216000	51	4938
2026-01-09 08:06:31.31	28.45	16.29	-39.8	-42.6	14.8	0.00e+00	0	56	0	395313152	51	4912
2026-01-09 08:06:32.32	28.24	16.25	-39.8	-42.7	14.7	0.00e+00	0	56	0	397410304	51	4954
2026-01-09 08:06:33.33	28.03	16.22	-39.7	-42.5	14.9	0.00e+00	0	56	0	399507456	51	4850
2026-01-09 08:06:34.34	27.81	16.18	-39.8	-42.8	14.6	7.00e-07	0	56	0	400556032	51	4992
2026-01-09 08:06:35.35	27.60	16.15	-39.8	-42.7	14.7	0.00e+00	0	56	0	402653184	51	4934
2026-01-09 08:06:36.36	27.39	16.11	-39.7	-42.6	14.8	1.50e-06	0	56	0	404750336	51	4907
2026-01-09 08:06:37.37	27.18	16.08	-39.6	-42.5	14.9	7.00e-07	0	56	0	406847488	51	4819
2026-01-09 08:06:38.38	26.97	16.04	-39.5	-42.2	15.2	0.00e+00	0	56	0	408944640	50	4964
2026-01-09 08:06:39.39	26.76	16.00	-39.4	-42.1	15.3	0.00e+00	0	56	0	409993216	50	4884
2026-01-09 08:06:40.40	26.55	15.97	-39.3	-41.9	15.5	0.00e+00	0	56	0	412090368	50	4761
2026-01-09 08:06:41.41	26.35	15.93	-39.3	-41.9	15.4	0.00e+00	0	56	0	414187520	50	4786
2026-01-09 08:06:42.42	26.14	15.89	-39.2	-41.7	15.6	0.00e+00	0	56	0	416284672	50	4697
2026-01-09 08:06:43.43	25.93	15.85	-39.2	-41.8	15.6	0.00e+00	0	56	0	418381824	50	4709
2026-01-09 08:06:44.44	25.73	15.81	-39.1	-41.6	15.7	0.00e+00	0	56	0	419430400	50	4612
2026-01-09 08:06:45.45	25.52	15.77	-39.1	-41.6	15.6	0.00e+00	0	56	0	421527552	50	4629
2026-01-09 08:06:46.46	25.31	15.74	-39.1	-41.7	15.7	0.00e+00	0	56	0	423624704	50	4653
2026-01-09 08:06:47.47	25.11	15.70	-39.2	-41.8	15.4	0.00e+00	0	56	0	425721856	50	4747
2026-01-09 08:06:48.48	24.90	15.66	-39.5	-42.2	15.1	0.00e+00	0	56	0	427819008	50	4976
2026-01-09 08:06:49.49	24.70	15.62	-39.7	-42.7	14.7	0.00e+00	0	56	0	428867584	50	5219
2026-01-09 08:06:50.50	24.50	15.58	-40.0	-43.2	14.1	3.80e-06	0	56	0	430964736	50	5537
2026-01-09 08:06:51.51	24.30	15.54	-40.2	-43.6	13.7	3.80e-06	0	56	0	433061888	51	5485
2026-01-09 08:06:52.51	24.10	15.50	-40.4	-43.9	13.4	4.50e-06	0	56	0	435159040	51	5660
2026-01-09 08:06:53.52	23.89	15.45	-40.4	-43.8	13.4	1.22e-05	0	56	0	437256192	51	5648
2026-01-09 08:06:54.53	23.69	15.41	-40.3	-43.8	13.5	1.75e-05	0	56	0	438304768	51	5593
2026-01-09 08:06:55.54	23.49	15.37	-40.2	-43.5	13.7	1.06e-05	0	56	0	440401920	51	5430
2026-01-09 08:06:56.55	23.29	15.33	-40.2	-43.5	13.7	6.10e-06	0	56	0	442499072	51	5463
2026-01-09 08:06:57.56	23.09	15.29	-40.2	-43.5	13.7	3.80e-06	0	56	0	444596224	51	5452
2026-01-09 08:06:58.57	22.90	15.24	-40.2	-43.5	13.8	3.80e-06	0	56	0	446693376	51	5432
2026-01-09 08:06:59.58	22.70	15.20	-40.1	-43.4	13.8	3.00e-06	0	56	0	448790528	51	5380
2026-01-09 08:07:00.59	22.50	15.16	-40.1	-43.4	13.9	7.00e-07	0	56	0	449839104	51	5342
2026-01-09 08:07:01.60	22.30	15.12	-40.3	-43.7	13.6	6.80e-06	0	56	0	451936256	51	5540
2026-01-09 08:07:02.60	22.11	15.07	-40.3	-43.6	13.6	8.30e-06	0	56	0	454033408	51	5515
2026-01-09 08:07:03.61	21.91	15.03	-40.3	-43.8	13.4	3.00e-06	0	56	0	456130560	51	5612
2026-01-09 08:07:04.62	21.72	14.98	-40.3	-43.8	13.4	1.06e-05	0	56	0	458227712	51	5619
2026-01-09 08:07:05.63	21.52	14.94	-40.3	-43.7	13.6	1.37e-05	0	56	0	459276288	51	5547
2026-01-09 08:07:06.64	21.33	14.90	-40.2	-43.5	13.7	6.10e-06	0	56	0	461373440	51	5428
2026-01-09 08:07:07.65	21.14	14.85	-40.2	-43.5	13.7	2.20e-06	0	56	0	463470592	51	5442
2026-01-09 08:07:08.66	20.94	14.81	-40.0	-43.2	14.0	1.50e-06	0	56	0	465567744	51	5236
2026-01-09 08:07:09.67	20.75	14.76	-39.9	-43.0	14.2	3.00e-06	0	56	0	467664896	51	5119
2026-01-09 08:07:10.68	20.56	14.71	-39.8	-42.9	14.3	7.00e-07	0	56	0	468713472	51	5071
2026-01-09 08:07:11.69	20.37	14.67	-39.9	-43.0	14.2	2.20e-06	0	56	0	470810624	51	5133
2026-01-09 08:07:12.69	20.18	14.62	-39.7	-42.7	14.5	0.00e+00	0	56	0	472907776	51	4955
2026-01-09 08:07:13.69	19.99	14.58	-39.6	-42.6	14.6	1.50e-06	0	56	0	475004928	51	4906
2026-01-09 08:07:14.70	19.80	14.53	-39.6	-42.5	14.7	7.00e-07	0	56	0	477102080	51	4830
2026-01-09 08:07:15.71	19.61	14.48	-39.6	-42.5	14.7	0.00e+00	0	56	0	478150656	51	4836
2026-01-09 08:07:16.72	19.43	14.44	-39.7	-42.6	14.5	1.50e-06	0	56	0	480247808	51	4921
2026-01-09 08:07:17.73	19.24	14.39	-39.7	-42.7	14.4	1.50e-06	0	56	0	482344960	51	4981
2026-01-09 08:07:18.74	19.05	14.34	-39.9	-43.1	14.0	1.50e-06	0	56	0	484442112	51	5203
2026-01-09 08:07:19.75	18.87	14.30	-40.0	-43.3	13.8	2.20e-06	0	56	0	486539264	51	5312
2026-01-09 08:07:20.76	18.68	14.25	-40.1	-43.5	13.6	3.00e-06	0	56	0	487587840	51	5415
2026-01-09 08:07:21.77	18.49	14.20	-40.1	-43.5	13.6	1.14e-05	0	56	0	489684992	51	5413
2026-01-09 08:07:22.78	18.31	14.15	-40.0	-43.2	13.9	1.50e-06	0	56	0	491782144	51	5237
2026-01-09 08:07:23.79	18.13	14.10	-39.9	-43.0	14.1	1.50e-06	0	56	0	493879296	51	5136
2026-01-09 08:07:24.79	17.95	14.05	-39.7	-42.7	14.4	1.50e-06	0	56	0	495976448	51	4937
2026-01-09 08:07:25.81	17.76	14.01	-39.7	-42.7	14.5	0.00e+00	0	56	0	497025024	51	4933
2026-01-09 08:07:26.82	17.58	13.96	-39.6	-42.5	14.6	0.00e+00	0	56	0	499122176	51	4869
2026-01-09 08:07:27.82	17.40	13.91	-39.8	-42.9	14.2	0.00e+00	0	56	0	501219328	51	5085
2026-01-09 08:07:28.83	17.22	13.86	-39.8	-42.9	14.2	0.00e+00	0	56	0	503316480	51	5051
2026-01-09 08:07:29.84	17.04	13.81	-39.9	-43.0	14.1	1.50e-06	0	56	0	505413632	51	5127
2026-01-09 08:07:30.85	16.86	13.76	-40.1	-43.4	13.8	1.50e-06	0	56	0	506462208	51	5347
2026-01-09 08:07:31.86	16.68	13.71	-40.4	-43.9	13.2	6.10e-06	0	56	0	508559360	51	5680
2026-01-09 08:07:32.87	16.50	13.66	-40.7	-44.5	12.6	5.95e-05	0	56	0	510656512	51	6103
2026-01-09 08:07:33.88	16.33	13.61	-40.9	-45.0	12.0	1.98e-04	0	56	0	512753664	52	6109
2026-01-09 08:07:34.89	16.15	13.56	-41.2	-45.8	11.2	7.57e-04	0	56	0	514850816	52	6663
2026-01-09 08:07:35.90	15.97	13.51	-41.3	-46.1	10.8	1.85e-03	0	56	0	516947968	53	6535
2026-01-09 08:07:36.91	15.80	13.46	-41.5	-46.5	10.4	4.00e-03	0	56	0	517996544	53	6831
2026-01-09 08:07:37.92	15.62	13.41	-41.4	-46.2	10.7	3.85e-03	0	56	0	520093696	53	6642
2026-01-09 08:07:38.93	15.45	13.36	-41.4	-46.3	10.6	3.38e-03	0	56	0	522190848	53	6660
2026-01-09 08:07:39.94	15.27	13.30	-41.1	-45.6	11.3	1.35e-03	0	56	0	524288000	53	6173
2026-01-09 08:07:40.95	15.10	13.25	-41.2	-45.7	11.3	8.25e-04	0	56	0	526385152	53	6212
2026-01-09 08:07:41.95	14.93	13.20	-41.0	-45.2	11.7	5.27e-04	0	56	0	527433728	53	5907
2026-01-09 08:07:42.96	14.76	13.15	-40.9	-45.0	12.0	3.49e-04	0	56	0	529530880	53	5755
2026-01-09 08:07:43.97	14.58	13.10	-40.8	-44.9	12.1	3.78e-04	0	56	0	531628032	53	5681
2026-01-09 08:07:44.98	14.41	13.05	-40.8	-44.9	12.1	2.75e-04	0	56	0	533725184	53	5667
2026-01-09 08:07:45.99	14.24	12.99	-40.8	-44.8	12.1	2.66e-04	0	56	0	535822336	53	5618
2026-01-09 08:07:47.00	14.07	12.94	-40.7	-44.6	12.4	1.30e-04	0	56	0	536870912	53	5496
2026-01-09 08:07:48.01	13.90	12.89	-40.5	-44.3	12.6	1.46e-04	0	56	0	538968064	53	5308
2026-01-09 08:07:49.02	13.74	12.84	-40.2	-43.7	13.2	4.50e-05	0	56	0	541065216	52	5257
2026-01-09 08:07:50.03	13.57	12.79	-40.1	-43.6	13.4	2.51e-05	0	56	0	543162368	52	5166
2026-01-09 08:07:51.04	13.40	12.73	-40.2	-43.7	13.2	1.60e-05	0	56	0	545259520	52	5263
2026-01-09 08:07:52.05	13.23	12.68	-40.3	-43.9	13.0	4.73e-05	0	56	0	546308096	52	5349
2026-01-09 08:07:53.06	13.07	12.63	-40.4	-44.2	12.7	4.57e-05	0	56	0	548405248	52	5566
2026-01-09 08:07:54.07	12.90	12.57	-40.5	-44.4	12.5	1.14e-04	0	56	0	550502400	52	5689
2026-01-09 08:07:55.07	12.74	12.52	-40.6	-44.4	12.4	1.83e-04	0	56	0	552599552	52	5713
2026-01-09 08:07:56.08	12.58	12.47	-40.6	-44.5	12.3	1.60e-04	0	56	0	554696704	52	5756
2026-01-09 08:07:57.09	12.41	12.41	-40.5	-44.4	12.4	1.20e-04	0	56	0	555745280	52	5680
2026-01-09 08:07:58.10	12.25	12.36	-40.4	-44.2	12.5	1.28e-04	0	56	0	557842432	52	5577
2026-01-09 08:07:59.11	12.09	12.31	-40.3	-43.9	12.8	5.64e-05	0	56	0	559939584	52	5378
2026-01-09 08:08:00.12	11.93	12.25	-40.1	-43.6	13.1	4.11e-05	0	56	0	562036736	52	5212
2026-01-09 08:08:01.13	11.76	12.20	-40.0	-43.4	13.3	1.83e-05	0	56	0	564133888	51	5399
2026-01-09 08:08:02.14	11.60	12.15	-39.9	-43.3	13.4	1.14e-05	0	56	0	565182464	51	5289
2026-01-09 08:08:03.15	11.44	12.09	-40.0	-43.5	13.2	1.29e-05	0	56	0	567279616	51	5429
2026-01-09 08:08:04.16	11.29	12.04	-40.0	-43.5	13.2	2.05e-05	0	56	0	569376768	51	5423
2026-01-09 08:08:05.17	11.13	11.98	-39.8	-43.3	13.3	1.98e-05	0	56	0	571473920	51	5318
2026-01-09 08:08:06.18	10.97	11.93	-39.9	-43.5	13.1	2.82e-05	0	56	0	573571072	51	5404
2026-01-09 08:08:07.19	10.81	11.87	-39.9	-43.5	12.9	4.27e-05	0	56	0	574619648	51	5462
2026-01-09 08:08:08.20	10.65	11.82	-40.0	-43.9	12.5	1.12e-04	0	56	0	576716800	51	5664
2026-01-09 08:08:09.21	10.50	11.76	-40.2	-44.4	11.8	2.78e-04	0	56	0	578813952	51	6026
2026-01-09 08:08:10.22	10.34	11.71	-40.4	-45.0	11.0	9.53e-04	0	57	0	580911104	51	6441
2026-01-09 08:08:11.23	10.19	11.66	-40.6	-45.5	10.3	2.50e-03	0	56	0	583008256	51	6866
2026-01-09 08:08:12.24	10.03	11.60	-40.5	-45.8	9.9	7.51e-03	0	56	0	584056832	51	7087
2026-01-09 08:08:13.24	9.88	11.55	-40.7	-46.5	9.0	1.78e-02	0	57	0	586153984	51	7645
2026-01-09 08:08:14.25	9.73	11.49	-40.7	-46.8	8.5	3.88e-02	0	56	0	588251136	51	7934
2026-01-09 08:08:15.26	9.57	11.44	-40.6	-46.9	8.3	4.63e-02	0	57	0	590348288	51	8064
2026-01-09 08:08:16.27	9.42	11.38	-40.6	-47.5	7.6	7.98e-02	0	56	0	592445440	51	8581
2026-01-09 08:08:17.28	9.27	11.33	-40.6	-48.1	6.8	1.28e-01	0	56	0	593494016	51	9236
2026-01-09 08:08:18.29	9.12	11.27	-40.6	-49.0	6.0	2.94e-01	0	56	0	595591168	51	10185
2026-01-09 08:08:19.30	8.97	11.21	-40.6	-49.6	5.4	4.18e-01	0	56	0	597688320	51	10941
2026-01-09 08:08:20.31	8.82	11.16	-40.6	-50.4	4.9	6.24e-01	0	56	0	599785472	51	11961
2026-01-09 08:08:21.32	8.67	11.10	-40.5	-50.9	4.5	9.48e-01	0	56	0	601882624	51	12679
2026-01-09 08:08:22.33	8.52	11.05	-40.4	-51.3	4.3	1.17e+00	0	56	0	602931200	51	13283
2026-01-09 08:08:23.34	8.37	10.99	-40.3	-52.1	4.1	1.38e+00	0	56	0	602931200	51	14685
2026-01-09 08:08:24.35	8.22	10.94	-40.3	-52.5	3.9	1.48e+00	0	56	104	602931200	51	15312
2026-01-09 08:08:25.36	8.08	10.88	-40.2	-52.3	4.0	1.48e+00	0	56	104	602931200	51	15031
2026-01-09 08:08:26.36	7.93	10.83	-40.2	-52.4	3.9	1.48e+00	0	56	104	602931200	51	15156
2026-01-09 08:08:27.37	7.79	10.77	-40.1	-52.4	4.0	1.48e+00	0	56	104	602931200	51	15110
2026-01-09 08:08:28.38	7.64	10.71	-40.0	-52.7	3.9	1.48e+00	0	56	104	602931200	51	15752
2026-01-09 08:08:29.39	7.50	10.66	-40.0	-53.6	3.8	1.49e+00	0	56	104	602931200	51	17370
2026-01-09 08:08:30.40	7.35	10.60	-40.0	-54.0	3.8	1.49e+00	0	56	104	602931200	51	18234
2026-01-09 08:08:31.41	7.21	10.55	-40.0	-54.3	3.8	1.49e+00	0	57	104	602931200	51	18944
2026-01-09 08:08:32.42	7.07	10.49	-39.9	-54.4	3.8	1.49e+00	0	56	104	602931200	51	19154
2026-01-09 08:08:33.43	6.92	10.43	-39.7	-54.3	3.8	1.49e+00	0	56	104	602931200	51	18896
2026-01-09 08:08:34.44	6.78	10.38	-39.7	-54.4	3.8	1.49e+00	0	56	104	602931200	51	18984
2026-01-09 08:08:35.45	6.64	10.32	-39.8	-54.4	3.8	1.49e+00	0	56	104	602931200	51	19057
2026-01-09 08:08:36.46	6.50	10.26	-39.5	-54.1	3.8	1.49e+00	0	57	104	602931200	51	18364
2026-01-09 08:08:37.47	6.36	10.21	-39.5	-54.0	3.8	1.49e+00	0	56	104	602931200	50	19389
2026-01-09 08:08:38.48	6.22	10.15	-39.4	-54.1	3.8	1.49e+00	0	56	104	602931200	50	19402
2026-01-09 08:08:39.49	6.08	10.10	-39.4	-54.1	3.8	1.49e+00	0	56	104	602931200	50	19405
2026-01-09 08:08:40.50	5.94	10.04	-39.4	-54.0	3.8	1.49e+00	0	56	104	602931200	50	19370
2026-01-09 08:08:41.51	5.80	9.98	-39.5	-54.2	3.8	1.49e+00	0	56	104	602931200	50	19639
2026-01-09 08:08:42.52	5.67	9.93	-39.6	-54.3	3.8	1.49e+00	0	56	104	602931200	50	19843
2026-01-09 08:08:43.53	5.53	9.87	-39.5	-54.1	3.8	1.49e+00	0	56	104	602931200	50	19548
2026-01-09 08:08:44.54	5.39	9.81	-39.5	-54.1	3.8	1.49e+00	0	56	104	602931200	50	19564
2026-01-09 08:08:45.55	5.26	9.76	-39.5	-54.1	3.8	1.49e+00	0	56	104	602931200	50	19539
2026-01-09 08:08:46.56	5.12	9.70	-39.6	-54.3	3.8	1.49e+00	0	56	104	602931200	50	19954
2026-01-09 08:08:47.57	4.99	9.64	-39.5	-54.1	3.8	1.49e+00	0	57	104	602931200	50	19545
2026-01-09 08:08:48.57	4.86	9.59	-39.6	-54.2	3.8	1.49e+00	0	56	104	602931200	50	19752
2026-01-09 08:08:49.58	4.72	9.53	-39.6	-54.2	3.8	1.49e+00	0	57	104	602931200	50	19713
2026-01-09 08:08:50.59	4.59	9.47	-39.5	-54.2	3.8	1.49e+00	0	57	104	602931200	50	19661
2026-01-09 08:08:51.60	4.46	9.42	-39.6	-54.2	3.8	1.49e+00	0	57	104	602931200	50	19735
2026-01-09 08:08:52.61	4.32	9.36	-39.5	-54.2	3.8	1.49e+00	0	57	104	602931200	50	19661
2026-01-09 08:08:53.62	4.19	9.30	-39.5	-54.2	3.8	1.49e+00	0	56	104	602931200	50	19634
2026-01-09 08:08:54.63	4.06	9.25	-39.6	-54.3	3.8	1.49e+00	0	56	104	602931200	50	19918
2026-01-09 08:08:55.64	3.93	9.19	-39.5	-54.2	3.8	1.49e+00	0	57	104	602931200	50	19674
2026-01-09 08:08:56.65	3.80	9.13	-39.6	-54.2	3.8	1.49e+00	0	57	104	602931200	50	19702
2026-01-09 08:08:57.66	3.67	9.08	-39.5	-54.2	3.8	1.49e+00	0	57	104	602931200	50	19681
2026-01-09 08:08:58.67	3.54	9.02	-39.5	-54.2	3.8	1.49e+00	0	56	104	602931200	50	19647
2026-01-09 08:08:59.68	3.41	8.96	-39.5	-54.1	3.8	1.49e+00	0	56	104	602931200	50	19544
2026-01-09 08:09:00.69	3.29	8.91	-39.6	-54.2	3.8	1.49e+00	0	57	104	602931200	50	19705
2026-01-09 08:09:01.70	3.16	8.85	-39.5	-54.1	3.8	1.49e+00	0	57	104	602931200	50	19463
2026-01-09 08:09:02.71	3.03	8.79	-39.6	-54.2	3.8	1.49e+00	0	56	104	602931200	50	19741
2026-01-09 08:09:03.72	2.91	8.73	-39.5	-54.2	3.8	1.49e+00	0	57	104	602931200	50	19676
2026-01-09 08:09:04.73	2.78	8.68	-39.6	-54.3	3.8	1.49e+00	0	56	104	602931200	50	19868
2026-01-09 08:09:05.74	2.65	8.62	-39.5	-54.2	3.8	1.49e+00	0	56	104	602931200	50	19738
2026-01-09 08:09:06.74	2.53	8.56	-39.3	-54.2	3.8	1.49e+00	0	57	104	602931200	50	19757
2026-01-09 08:09:07.75	2.41	8.51	-39.6	-54.2	3.8	1.49e+00	0	57	104	602931200	50	19799
2026-01-09 08:09:08.76	2.28	8.45	-39.2	-54.2	3.8	1.49e+00	0	57	104	602931200	50	19616
2026-01-09 08:09:09.77	2.16	8.39	-39.5	-54.2	3.8	1.49e+00	0	57	104	602931200	50	19770
2026-01-09 08:09:10.78	2.04	8.34	-39.5	-54.2	3.8	1.49e+00	0	57	104	602931200	50	19817
2026-01-09 08:09:11.79	1.91	8.28	-39.3	-54.3	3.8	1.49e+00	0	56	104	602931200	50	19886
2026-01-09 08:09:12.80	1.79	8.22	-39.3	-54.2	3.8	1.49e+00	0	56	104	602931200	50	19749
2026-01-09 08:09:13.80	1.67	8.17	-39.3	-54.2	3.8	1.49e+00	0	56	104	602931200	50	19818
2026-01-09 08:09:14.81	1.55	8.11	-39.4	-54.2	3.8	1.49e+00	0	56	104	602931200	50	19629
2026-01-09 08:09:15.82	1.43	8.05	-39.3	-54.2	3.8	1.49e+00	0	56	104	602931200	50	19668
2026-01-09 08:09:16.84	1.31	8.00	-39.6	-54.2	3.8	1.49e+00	0	57	104	602931200	50	19783
2026-01-09 08:09:17.85	1.19	7.94	-43.8	-58.3	3.8	1.49e+00	0	57	104	602931200	58	19900
2026-01-09 08:09:18.86	1.07	7.88	-44.6	-59.0	3.8	1.49e+00	0	57	104	602931200	59	20399
2026-01-09 08:09:19.87	0.95	7.83	-44.7	-59.3	3.8	1.49e+00	0	57	104	602931200	60	19975
2026-01-09 08:09:20.88	0.83	7.77	-44.8	-59.4	3.8	1.49e+00	0	56	104	602931200	60	20197
2026-01-09 08:09:21.89	0.72	7.71	-44.9	-59.5	3.8	1.49e+00	0	56	104	602931200	60	20463
2026-01-09 08:09:22.90	0.60	7.65	-45.0	-59.6	3.8	1.49e+00	0	57	104	602931200	60	20630
2026-01-09 08:09:23.91	0.48	7.60	-45.0	-59.6	3.8	1.49e+00	0	57	104	602931200	60	20586
2026-01-09 08:09:24.92	0.37	7.54	-45.0	-59.5	3.8	1.49e+00	0	56	104	602931200	60	20524
2026-01-09 08:09:25.93	0.25	7.48	-45.0	-59.5	3.8	1.49e+00	0	56	104	602931200	60	20398
2026-01-09 08:09:26.94	0.14	7.43	-44.8	-59.4	3.8	1.49e+00	0	57	104	602931200	60	20177
2026-01-09 08:09:27.95	0.02	7.37	-44.9	-59.3	3.8	1.49e+00	0	57	104	602931200	60	20043
2026-01-09 08:09:28.96	359.91	7.31	-44.8	-59.3	3.8	1.49e+00	0	57	104	602931200	60	19977
2026-01-09 08:09:29.97	359.79	7.26	-44.8	-59.2	3.8	1.49e+00	0	57	104	602931200	60	19813
2026-01-09 08:09:30.98	359.68	7.20	-44.8	-59.2	3.8	1.49e+00	0	57	104	602931200	60	19799
2026-01-09 08:09:31.99	359.57	7.14	-44.8	-59.2	3.8	1.49e+00	0	57	104	602931200	60	19700
2026-01-09 08:09:33.00	359.45	7.09	-44.8	-59.2	3.8	1.49e+00	0	57	104	602931200	60	19797
2026-01-09 08:09:34.01	359.34	7.03	-44.7	-59.2	3.8	1.49e+00	0	57	104	602931200	60	19748
2026-01-09 08:09:35.02	359.23	6.97	-44.7	-59.2	3.8	1.49e+00	0	57	104	602931200	60	19702
2026-01-09 08:09:36.03	359.12	6.92	-44.7	-59.2	3.8	1.49e+00	0	57	104	602931200	60	19720
2026-01-09 08:09:37.04	359.01	6.86	-44.7	-59.2	3.8	1.49e+00	0	57	104	602931200	60	19696
2026-01-09 08:09:38.04	358.90	6.81	-44.8	-59.2	3.8	1.49e+00	0	57	104	602931200	60	19758
2026-01-09 08:09:39.05	358.79	6.75	-44.7	-59.2	3.8	1.49e+00	0	57	104	602931200	60	19635
2026-01-09 08:09:40.06	358.68	6.69	-44.7	-59.2	3.8	1.49e+00	0	57	104	602931200	60	19634
2026-01-09 08:09:41.07	358.57	6.64	-44.7	-59.2	3.8	1.49e+00	0	57	104	602931200	60	19676
2026-01-09 08:09:42.08	358.46	6.58	-44.7	-59.2	3.8	1.49e+00	0	57	104	602931200	60	19663
2026-01-09 08:09:43.09	358.35	6.52	-44.7	-59.2	3.8	1.49e+00	0	57	104	602931200	60	19629
2026-01-09 08:09:44.10	358.25	6.47	-44.7	-59.2	3.8	1.49e+00	0	56	104	602931200	60	19688
2026-01-09 08:09:45.11	358.14	6.41	-44.7	-59.2	3.8	1.49e+00	0	57	104	602931200	60	19639
2026-01-09 08:09:46.12	358.03	6.35	-44.7	-59.2	3.8	1.49e+00	0	57	104	602931200	60	19652
2026-01-09 08:09:47.14	357.93	6.30	-44.7	-59.2	3.8	1.49e+00	0	57	104	602931200	60	19718
2026-01-09 08:09:48.15	357.82	6.24	-44.7	-59.2	3.8	1.49e+00	0	57	104	602931200	60	19633
2026-01-09 08:09:49.16	357.71	6.18	-44.7	-59.2	3.8	1.49e+00	0	57	104	602931200	60	19634
2026-01-09 08:09:50.17	357.61	6.13	-44.7	-59.2	3.8	1.49e+00	0	57	104	602931200	60	19650
2026-01-09 08:09:51.18	357.50	6.07	-44.7	-59.1	3.8	1.49e+00	0	57	104	602931200	60	19613
2026-01-09 08:09:52.19	357.40	6.02	-44.7	-59.2	3.8	1.49e+00	0	57	104	602931200	60	19646
2026-01-09 08:09:53.20	357.30	5.96	-44.7	-59.2	3.8	1.49e+00	0	56	104	602931200	60	19689
2026-01-09 08:09:54.21	357.19	5.90	-44.7	-59.2	3.8	1.49e+00	0	57	104	602931200	60	19642
2026-01-09 08:09:55.22	357.09	5.85	-44.7	-59.1	3.8	1.49e+00	0	56	104	602931200	60	19605
2026-01-09 08:09:56.23	356.99	5.79	-44.7	-59.1	3.8	1.49e+00	0	57	104	602931200	60	19565
2026-01-09 08:09:57.24	356.88	5.74	-44.7	-59.2	3.8	1.49e+00	0	57	104	602931200	60	19637
2026-01-09 08:09:58.25	356.78	5.68	-44.7	-59.2	3.8	1.49e+00	0	57	104	602931200	60	19638
2026-01-09 08:09:59.26	356.68	5.62	-44.7	-59.2	3.8	1.49e+00	0	57	104	602931200	60	19639
2026-01-09 08:10:00.27	356.58	5.57	-44.7	-59.1	3.8	1.49e+00	0	57	104	602931200	60	19587
2026-01-09 08:10:01.28	356.48	5.51	-44.6	-59.2	3.8	1.49e+00	0	57	104	602931200	60	19635
2026-01-09 08:10:02.29	356.38	5.46	-44.7	-59.2	3.8	1.49e+00	0	57	104	602931200	60	19641
2026-01-09 08:10:03.30	356.28	5.40	-44.7	-59.2	3.8	1.49e+00	0	57	104	602931200	60	19634
2026-01-09 08:10:04.31	356.18	5.35	-44.7	-59.1	3.8	1.49e+00	0	57	104	602931200	60	19585
2026-01-09 08:10:05.32	356.08	5.29	-44.7	-59.1	3.8	1.49e+00	0	57	104	602931200	60	19608
2026-01-09 08:10:06.33	355.98	5.23	-44.7	-59.1	3.8	1.49e+00	0	57	104	602931200	60	19590
2026-01-09 08:10:07.34	355.89	5.18	-44.7	-59.1	3.8	1.49e+00	0	57	104	602931200	60	19603
2026-01-09 08:10:08.35	355.79	5.12	-44.7	-59.2	3.8	1.49e+00	0	57	104	602931200	60	19618
2026-01-09 08:10:09.36	355.69	5.07	-44.7	-59.2	3.8	1.49e+00	0	57	104	602931200	60	19649
2026-01-09 08:10:10.37	355.59	5.01	-44.7	-59.2	3.8	1.49e+00	0	57	104	602931200	60	19649
2026-01-09 08:10:11.38	355.50	4.96	-44.7	-59.2	3.8	1.49e+00	0	57	104	602931200	60	19622
2026-01-09 08:10:12.39	355.40	4.90	-44.7	-59.1	3.8	1.49e+00	0	57	104	602931200	60	19588
2026-01-09 08:10:13.40	355.30	4.85	-44.7	-59.1	3.8	1.49e+00	0	57	104	602931200	60	19599
2026-01-09 08:10:14.41	355.21	4.79	-44.7	-59.1	3.8	1.49e+00	0	57	104	602931200	60	19603
2026-01-09 08:10:15.42	355.11	4.73	-44.7	-59.1	3.8	1.49e+00	0	57	104	602931200	60	19601
2026-01-09 08:10:16.43	355.02	4.68	-44.7	-59.1	3.8	1.49e+00	0	57	104	602931200	60	19612
2026-01-09 08:10:17.44	354.92	4.62	-44.7	-59.1	3.8	1.49e+00	0	57	104	602931200	60	19607
2026-01-09 08:10:18.46	354.83	4.57	-44.7	-59.1	3.8	1.49e+00	0	56	104	602931200	60	19592
2026-01-09 08:10:19.47	354.74	4.51	-44.7	-59.2	3.8	1.49e+00	0	57	104	602931200	60	19639
2026-01-09 08:10:20.48	354.64	4.46	-44.7	-59.2	3.8	1.49e+00	0	57	104	602931200	60	19619
2026-01-09 08:10:21.49	354.55	4.40	-44.7	-59.1	3.8	1.49e+00	0	57	104	602931200	60	19576
2026-01-09 08:10:22.50	354.46	4.35	-44.7	-59.1	3.8	1.49e+00	0	57	104	602931200	60	19547
2026-01-09 08:10:23.51	354.36	4.29	-44.7	-59.2	3.8	1.49e+00	0	57	104	602931200	60	19630
2026-01-09 08:10:24.52	354.27	4.24	-44.7	-59.2	3.8	1.49e+00	0	57	104	602931200	60	19658
2026-01-09 08:10:25.53	354.18	4.18	-44.7	-59.1	3.8	1.49e+00	0	57	104	602931200	60	19605
2026-01-09 08:10:26.54	354.09	4.13	-44.7	-59.2	3.8	1.49e+00	0	57	104	602931200	60	19645
2026-01-09 08:10:27.55	354.00	4.07	-44.7	-59.1	3.8	1.49e+00	0	57	104	602931200	60	19608
2026-01-09 08:10:28.56	353.91	4.02	-44.7	-59.1	3.8	1.49e+00	0	57	104	602931200	60	19576
2026-01-09 08:10:29.58	353.82	3.96	-44.7	-59.1	3.8	1.49e+00	0	57	104	602931200	60	19564
2026-01-09 08:10:30.59	353.73	3.91	-44.7	-59.2	3.8	1.49e+00	0	57	104	602931200	60	19649
2026-01-09 08:10:31.60	353.64	3.85	-44.7	-59.1	3.8	1.49e+00	0	56	104	602931200	60	19591
2026-01-09 08:10:32.61	353.55	3.80	-44.7	-59.1	3.8	1.49e+00	0	57	104	602931200	60	19566
2026-01-09 08:10:33.62	353.46	3.74	-44.6	-59.1	3.8	1.49e+00	0	57	104	602931200	60	19560
2026-01-09 08:10:34.63	353.37	3.69	-44.7	-59.1	3.8	1.49e+00	0	57	104	602931200	60	19533
2026-01-09 08:10:35.64	353.29	3.64	-44.7	-59.2	3.8	1.49e+00	0	57	104	602931200	60	19648
2026-01-09 08:10:36.65	353.20	3.58	-44.7	-59.2	3.8	1.49e+00	0	57	104	602931200	60	19638
2026-01-09 08:10:37.66	353.11	3.53	-44.7	-59.1	3.8	1.49e+00	0	57	104	602931200	60	19601
2026-01-09 08:10:38.67	353.02	3.47	-44.7	-59.2	3.8	1.49e+00	0	57	104	602931200	60	19629
2026-01-09 08:10:39.68	352.94	3.42	-44.7	-59.2	3.8	1.49e+00	0	57	104	602931200	60	19624
2026-01-09 08:10:40.69	352.85	3.36	-44.6	-59.1	3.8	1.49e+00	0	57	104	602931200	60	19554
2026-01-09 08:10:41.70	352.76	3.31	-44.7	-59.1	3.8	1.49e+00	0	57	104	602931200	60	19569
2026-01-09 08:10:42.71	352.68	3.26	-44.7	-59.2	3.8	1.49e+00	0	57	104	602931200	60	19648
2026-01-09 08:10:43.72	352.59	3.20	-44.7	-59.1	3.8	1.49e+00	0	57	104	602931200	60	19577
2026-01-09 08:10:44.73	352.51	3.15	-44.7	-59.1	3.8	1.49e+00	0	57	104	602931200	60	19565
2026-01-09 08:10:45.74	352.42	3.09	-44.7	-59.1	3.8	1.49e+00	0	57	104	602931200	60	19528
2026-01-09 08:10:46.75	352.34	3.04	-44.7	-59.1	3.8	1.49e+00	0	57	104	602931200	60	19601
2026-01-09 08:10:47.77	352.25	2.98	-44.7	-59.2	3.8	1.49e+00	0	57	104	602931200	60	19618
2026-01-09 08:10:48.78	352.17	2.93	-44.7	-59.1	3.8	1.49e+00	0	57	104	602931200	60	19560
2026-01-09 08:10:49.79	352.09	2.88	-44.7	-59.2	3.8	1.49e+00	0	57	104	602931200	60	19627
2026-01-09 08:10:50.80	352.00	2.82	-44.7	-59.1	3.8	1.49e+00	0	57	104	602931200	60	19608
2026-01-09 08:10:51.81	351.92	2.77	-44.7	-59.2	3.8	1.49e+00	0	57	104	602931200	60	19642
2026-01-09 08:10:52.82	351.84	2.72	-44.7	-59.1	3.8	1.49e+00	0	57	104	602931200	60	19554
2026-01-09 08:10:53.83	351.76	2.66	-44.7	-59.2	3.8	1.49e+00	0	57	104	602931200	60	19660
2026-01-09 08:10:54.84	351.68	2.61	-44.7	-59.1	3.8	1.49e+00	0	57	104	602931200	60	19608
2026-01-09 08:10:55.85	351.59	2.56	-44.7	-59.2	3.8	1.49e+00	0	57	104	602931200	60	19621
2026-01-09 08:10:56.86	351.51	2.50	-44.6	-59.1	3.8	1.49e+00	0	57	104	602931200	60	19612
2026-01-09 08:10:57.87	351.43	2.45	-44.7	-59.1	3.8	1.49e+00	0	57	104	602931200	60	19609
2026-01-09 08:10:58.88	351.35	2.39	-44.7	-59.1	3.8	1.49e+00	0	57	104	602931200	60	19600
2026-01-09 08:10:59.89	351.27	2.34	-44.7	-59.1	3.8	1.49e+00	0	57	104	602931200	60	19548
2026-01-09 08:11:00.90	351.19	2.29	-44.7	-59.2	3.8	1.49e+00	0	57	104	602931200	60	19624
2026-01-09 08:11:01.91	351.11	2.23	-44.7	-59.1	3.8	1.49e+00	0	57	104	602931200	60	19610
2026-01-09 08:11:02.92	351.03	2.18	-44.7	-59.2	3.8	1.49e+00	0	57	104	602931200	60	19641
2026-01-09 08:11:03.93	350.95	2.13	-44.7	-59.1	3.8	1.49e+00	0	57	104	602931200	60	19595
2026-01-09 08:11:04.94	350.87	2.08	-44.7	-59.1	3.8	1.49e+00	0	57	104	602931200	60	19534
2026-01-09 08:11:05.95	350.80	2.02	-44.7	-59.1	3.8	1.49e+00	0	57	104	602931200	60	19572
2026-01-09 08:11:06.96	350.72	1.97	-44.7	-59.1	3.8	1.49e+00	0	57	104	602931200	60	19553
2026-01-09 08:11:07.97	350.64	1.92	-44.7	-59.1	3.8	1.49e+00	0	57	104	602931200	60	19588

#Closed at: 2026-01-09 08:11:08
#Recorded file [602 MB]: D:/lorett/data/31039_260109_105920.dat