passes_logs/2026/01/09/R2.0S_Moscow/R2.0S_Moscow__20260109_012719_SUOMI_NPP_rec.log

#Pass ID: 20260109_012719_SUOMI NPP
#Satellite: SUOMI NPP
#Configuration: NPP
#almurnet v.1.7.20251203
#Start time: 2026-01-09 01:27:21

#Version: 2.2.20231116
#Station: R2.0S_Moscow
#Location: 37.707566 lon 55.798166 lat
#TLE: 1 37849U 11061A   26008.05542337  .00000108  00000+0  71976-4 0  9997
#TLE: 2 37849  98.7805 310.1641 0002540  75.6410 284.5048 14.19523335735721

#Time	Az	El	Level	Level2	SNR	BER	BlckErr	Temp	State	Recorded	gain1	gain2
2026-01-09 01:27:21.51	10.01	2.13	-39.3	-54.2	3.8	1.49e+00	0	47	0	0	50	19735
2026-01-09 01:27:22.51	9.94	2.19	-39.4	-54.2	3.8	1.49e+00	0	47	104	0	49	20966
2026-01-09 01:27:23.52	9.87	2.24	-39.3	-54.2	3.8	1.49e+00	0	47	104	0	49	20932
2026-01-09 01:27:24.53	9.80	2.30	-39.4	-54.2	3.8	1.49e+00	0	47	104	0	49	20870
2026-01-09 01:27:25.54	9.74	2.36	-39.3	-54.2	3.8	1.49e+00	0	48	104	0	49	20892
2026-01-09 01:27:26.55	9.67	2.41	-39.3	-54.2	3.8	1.49e+00	0	48	104	0	49	20918
2026-01-09 01:27:27.56	9.60	2.47	-39.3	-54.2	3.8	1.49e+00	0	48	104	0	49	20891
2026-01-09 01:27:28.57	9.53	2.53	-39.4	-54.2	3.8	1.49e+00	0	48	104	0	49	20891
2026-01-09 01:27:29.59	9.46	2.58	-39.3	-54.2	3.8	1.49e+00	0	48	104	0	49	20879
2026-01-09 01:27:30.60	9.39	2.64	-39.3	-54.2	3.8	1.49e+00	0	48	104	0	49	20843
2026-01-09 01:27:31.61	9.32	2.70	-39.3	-54.2	3.8	1.49e+00	0	48	104	0	49	20926
2026-01-09 01:27:32.62	9.25	2.76	-39.3	-54.2	3.8	1.49e+00	0	48	104	0	49	20872
2026-01-09 01:27:33.63	9.18	2.81	-39.3	-54.2	3.8	1.49e+00	0	48	104	0	49	20860
2026-01-09 01:27:34.64	9.11	2.87	-39.3	-54.2	3.8	1.49e+00	0	48	104	0	49	20880
2026-01-09 01:27:35.65	9.04	2.93	-39.3	-54.2	3.8	1.49e+00	0	48	104	0	49	20922
2026-01-09 01:27:36.66	8.97	2.99	-39.3	-54.2	3.8	1.49e+00	0	48	104	0	49	20805
2026-01-09 01:27:37.67	8.90	3.05	-39.3	-54.2	3.8	1.49e+00	0	49	104	0	49	20909
2026-01-09 01:27:38.68	8.83	3.10	-39.3	-54.2	3.8	1.49e+00	0	49	104	0	49	20872
2026-01-09 01:27:39.69	8.76	3.16	-39.3	-54.2	3.8	1.49e+00	0	49	104	0	49	20894
2026-01-09 01:27:40.70	8.68	3.22	-39.3	-54.2	3.8	1.49e+00	0	49	104	0	49	20863
2026-01-09 01:27:41.71	8.61	3.28	-39.3	-54.2	3.8	1.49e+00	0	49	104	0	49	20834
2026-01-09 01:27:42.72	8.54	3.34	-39.3	-54.2	3.8	1.49e+00	0	49	104	0	49	20828
2026-01-09 01:27:43.74	8.46	3.39	-39.3	-54.2	3.8	1.49e+00	0	49	104	0	49	20890
2026-01-09 01:27:44.75	8.39	3.45	-39.3	-54.2	3.8	1.49e+00	0	49	104	0	49	20801
2026-01-09 01:27:45.76	8.32	3.51	-39.3	-54.1	3.8	1.49e+00	0	49	104	0	49	20758
2026-01-09 01:27:46.77	8.24	3.57	-39.3	-54.2	3.8	1.49e+00	0	49	104	0	49	20784
2026-01-09 01:27:47.78	8.17	3.63	-39.3	-54.1	3.8	1.49e+00	0	49	104	0	49	20747
2026-01-09 01:27:48.79	8.09	3.69	-39.3	-54.2	3.8	1.49e+00	0	49	104	0	49	20813
2026-01-09 01:27:49.80	8.02	3.75	-39.3	-54.2	3.8	1.49e+00	0	49	104	0	49	20781
2026-01-09 01:27:50.81	7.94	3.80	-39.3	-54.2	3.8	1.49e+00	0	49	104	0	49	20792
2026-01-09 01:27:51.82	7.87	3.86	-39.3	-54.2	3.8	1.49e+00	0	49	104	0	49	20784
2026-01-09 01:27:52.83	7.79	3.92	-39.3	-54.2	3.8	1.49e+00	0	49	104	0	49	20814
2026-01-09 01:27:53.85	7.72	3.98	-39.3	-54.1	3.8	1.49e+00	0	50	104	0	49	20767
2026-01-09 01:27:54.86	7.64	4.04	-39.3	-54.2	3.8	1.49e+00	0	50	104	0	49	20801
2026-01-09 01:27:55.87	7.56	4.10	-39.3	-54.2	3.8	1.49e+00	0	50	104	0	49	20800
2026-01-09 01:27:56.88	7.48	4.16	-39.3	-54.2	3.8	1.49e+00	0	49	104	0	49	20816
2026-01-09 01:27:57.89	7.41	4.22	-39.3	-54.2	3.8	1.49e+00	0	50	104	0	49	20829
2026-01-09 01:27:58.89	7.33	4.28	-39.3	-54.1	3.8	1.49e+00	0	50	104	0	49	20770
2026-01-09 01:27:59.91	7.25	4.34	-39.3	-54.1	3.8	1.49e+00	0	50	104	0	49	20768
2026-01-09 01:28:00.92	7.17	4.40	-39.3	-54.1	3.8	1.49e+00	0	50	104	0	49	20740
2026-01-09 01:28:01.93	7.09	4.46	-39.3	-54.2	3.8	1.49e+00	0	50	104	0	49	20780
2026-01-09 01:28:02.94	7.01	4.52	-39.3	-54.1	3.8	1.49e+00	0	50	104	0	49	20756
2026-01-09 01:28:03.95	6.93	4.58	-39.3	-54.1	3.8	1.49e+00	0	50	104	0	49	20761
2026-01-09 01:28:04.96	6.85	4.64	-39.3	-54.2	3.8	1.49e+00	0	50	104	0	49	20815
2026-01-09 01:28:05.97	6.77	4.70	-39.3	-54.2	3.8	1.49e+00	0	50	104	0	49	20787
2026-01-09 01:28:06.98	6.69	4.76	-39.3	-54.2	3.8	1.49e+00	0	50	104	0	49	20796
2026-01-09 01:28:07.99	6.61	4.82	-39.3	-54.2	3.8	1.49e+00	0	50	104	0	49	20783
2026-01-09 01:28:09.00	6.53	4.88	-39.3	-54.2	3.8	1.49e+00	0	50	104	0	49	20780
2026-01-09 01:28:10.01	6.45	4.94	-39.3	-54.2	3.8	1.49e+00	0	50	104	0	49	20837
2026-01-09 01:28:11.02	6.37	5.00	-39.3	-54.2	3.8	1.49e+00	0	50	104	0	49	20843
2026-01-09 01:28:12.03	6.29	5.06	-39.3	-54.2	3.8	1.49e+00	0	50	104	0	49	20790
2026-01-09 01:28:13.05	6.20	5.12	-39.3	-54.1	3.8	1.49e+00	0	50	104	0	49	20751
2026-01-09 01:28:14.06	6.12	5.18	-39.3	-54.1	3.8	1.49e+00	0	51	104	0	49	20749
2026-01-09 01:28:15.07	6.04	5.24	-39.3	-54.1	3.8	1.49e+00	0	50	104	0	49	20758
2026-01-09 01:28:16.08	5.95	5.30	-39.3	-54.1	3.8	1.49e+00	0	51	104	0	49	20775
2026-01-09 01:28:17.09	5.87	5.36	-39.3	-54.2	3.8	1.49e+00	0	51	104	0	49	20800
2026-01-09 01:28:18.10	5.78	5.43	-39.3	-54.2	3.8	1.49e+00	0	51	104	0	49	20797
2026-01-09 01:28:19.11	5.70	5.49	-39.3	-54.1	3.8	1.49e+00	0	51	104	0	49	20725
2026-01-09 01:28:20.12	5.61	5.55	-39.3	-54.2	3.8	1.49e+00	0	51	104	0	49	20783
2026-01-09 01:28:21.13	5.53	5.61	-39.3	-54.1	3.8	1.49e+00	0	51	104	0	49	20755
2026-01-09 01:28:22.14	5.44	5.67	-39.3	-54.2	3.8	1.49e+00	0	51	104	0	49	20789
2026-01-09 01:28:23.15	5.35	5.73	-39.3	-54.2	3.8	1.49e+00	0	51	104	0	49	20824
2026-01-09 01:28:24.16	5.27	5.79	-39.3	-54.2	3.8	1.49e+00	0	51	104	0	49	20796
2026-01-09 01:28:25.17	5.18	5.85	-39.3	-54.2	3.8	1.49e+00	0	51	104	0	49	20781
2026-01-09 01:28:26.18	5.09	5.92	-39.3	-54.1	3.8	1.49e+00	0	51	104	0	49	20770
2026-01-09 01:28:27.20	5.00	5.98	-39.3	-54.2	3.8	1.49e+00	0	51	104	0	49	20797
2026-01-09 01:28:28.21	4.92	6.04	-39.3	-54.2	3.8	1.49e+00	0	51	104	0	49	20845
2026-01-09 01:28:29.22	4.83	6.10	-39.3	-54.1	3.8	1.49e+00	0	51	104	0	49	20739
2026-01-09 01:28:30.23	4.74	6.16	-39.3	-54.2	3.8	1.49e+00	0	51	104	0	49	20797
2026-01-09 01:28:31.24	4.65	6.23	-39.3	-54.2	3.8	1.49e+00	0	51	104	0	49	20830
2026-01-09 01:28:32.25	4.56	6.29	-39.3	-54.2	3.8	1.49e+00	0	51	104	0	49	20791
2026-01-09 01:28:33.26	4.47	6.35	-39.3	-54.2	3.8	1.49e+00	0	51	104	0	49	20782
2026-01-09 01:28:34.27	4.38	6.41	-39.3	-54.1	3.8	1.49e+00	0	52	104	0	49	20743
2026-01-09 01:28:35.28	4.29	6.48	-39.3	-54.1	3.8	1.49e+00	0	52	104	0	49	20774
2026-01-09 01:28:36.29	4.19	6.54	-39.3	-54.1	3.8	1.49e+00	0	51	104	0	49	20735
2026-01-09 01:28:37.30	4.10	6.60	-39.3	-54.1	3.8	1.49e+00	0	52	104	0	49	20715
2026-01-09 01:28:38.31	4.01	6.66	-39.3	-54.1	3.8	1.49e+00	0	52	104	0	49	20745
2026-01-09 01:28:39.32	3.92	6.73	-39.3	-54.1	3.8	1.49e+00	0	52	104	0	49	20720
2026-01-09 01:28:40.33	3.82	6.79	-39.3	-54.2	3.8	1.49e+00	0	52	104	0	49	20817
2026-01-09 01:28:41.34	3.73	6.85	-39.3	-54.1	3.8	1.49e+00	0	52	104	0	49	20749
2026-01-09 01:28:42.35	3.64	6.91	-39.3	-54.1	3.8	1.49e+00	0	52	104	0	49	20765
2026-01-09 01:28:43.36	3.54	6.98	-39.3	-54.1	3.8	1.49e+00	0	52	104	0	49	20731
2026-01-09 01:28:44.37	3.45	7.04	-39.3	-54.2	3.8	1.49e+00	0	52	104	0	49	20786
2026-01-09 01:28:45.38	3.35	7.10	-39.3	-54.2	3.8	1.49e+00	0	52	104	0	49	20783
2026-01-09 01:28:46.40	3.25	7.17	-39.3	-54.1	3.8	1.49e+00	0	52	104	0	49	20749
2026-01-09 01:28:47.41	3.16	7.23	-39.3	-54.1	3.8	1.49e+00	0	52	104	0	49	20772
2026-01-09 01:28:48.42	3.06	7.29	-39.3	-54.1	3.8	1.49e+00	0	52	104	0	49	20715
2026-01-09 01:28:49.43	2.96	7.36	-39.3	-54.2	3.8	1.49e+00	0	52	104	0	49	20783
2026-01-09 01:28:50.44	2.87	7.42	-39.3	-54.2	3.8	1.49e+00	0	52	104	0	49	20780
2026-01-09 01:28:51.45	2.77	7.49	-39.3	-54.1	3.8	1.49e+00	0	52	104	0	49	20771
2026-01-09 01:28:52.46	2.67	7.55	-39.3	-54.1	3.8	1.49e+00	0	52	104	0	49	20759
2026-01-09 01:28:53.47	2.57	7.61	-39.3	-54.1	3.8	1.49e+00	0	52	104	0	49	20716
2026-01-09 01:28:54.48	2.47	7.68	-39.3	-54.1	3.8	1.49e+00	0	52	104	0	49	20716
2026-01-09 01:28:55.49	2.37	7.74	-39.3	-54.1	3.8	1.49e+00	0	53	104	0	49	20767
2026-01-09 01:28:56.50	2.27	7.81	-39.3	-54.2	3.8	1.49e+00	0	53	104	0	49	20785
2026-01-09 01:28:57.51	2.17	7.87	-39.3	-54.2	3.8	1.49e+00	0	52	104	0	49	20779
2026-01-09 01:28:58.52	2.07	7.93	-39.3	-54.1	3.8	1.49e+00	0	52	104	0	49	20690
2026-01-09 01:28:59.53	1.97	8.00	-39.3	-54.1	3.8	1.49e+00	0	53	104	0	49	20717
2026-01-09 01:29:00.54	1.87	8.06	-39.3	-54.2	3.8	1.49e+00	0	53	104	0	49	20783
2026-01-09 01:29:01.55	1.76	8.13	-39.3	-54.2	3.8	1.49e+00	0	53	104	0	49	20782
2026-01-09 01:29:02.56	1.66	8.19	-39.3	-54.2	3.8	1.49e+00	0	52	104	0	49	20822
2026-01-09 01:29:03.57	1.56	8.26	-39.3	-54.1	3.8	1.49e+00	0	53	104	0	49	20700
2026-01-09 01:29:04.58	1.45	8.32	-39.3	-54.2	3.8	1.49e+00	0	53	104	0	49	20853
2026-01-09 01:29:05.59	1.35	8.39	-39.3	-54.2	3.8	1.49e+00	0	52	104	0	49	20805
2026-01-09 01:29:06.60	1.24	8.45	-39.3	-54.2	3.8	1.49e+00	0	53	104	0	49	20853
2026-01-09 01:29:07.61	1.14	8.51	-39.4	-54.2	3.8	1.49e+00	0	53	104	0	49	20963
2026-01-09 01:29:08.62	1.03	8.58	-39.3	-54.1	3.8	1.49e+00	0	53	104	0	49	20758
2026-01-09 01:29:09.63	0.93	8.64	-39.2	-54.2	3.8	1.49e+00	0	53	104	0	49	20875
2026-01-09 01:29:10.64	0.82	8.71	-39.2	-54.2	3.8	1.49e+00	0	53	104	0	49	20802
2026-01-09 01:29:11.65	0.71	8.78	-39.1	-54.3	3.8	1.49e+00	0	53	104	0	49	21027
2026-01-09 01:29:12.66	0.60	8.84	-39.2	-54.2	3.8	1.49e+00	0	53	104	0	49	20920
2026-01-09 01:29:13.67	0.50	8.91	-39.1	-54.3	3.8	1.49e+00	0	53	104	0	49	21118
2026-01-09 01:29:14.67	0.39	8.97	-39.2	-54.2	3.8	1.49e+00	0	53	104	0	49	21000
2026-01-09 01:29:15.69	0.28	9.04	-39.4	-54.2	3.8	1.49e+00	0	53	104	0	49	20958
2026-01-09 01:29:16.70	0.17	9.10	-39.0	-54.3	3.8	1.49e+00	0	53	104	0	49	21031
2026-01-09 01:29:17.71	0.06	9.17	-39.2	-54.3	3.8	1.49e+00	0	53	104	0	49	21073
2026-01-09 01:29:18.72	359.95	9.23	-39.0	-54.3	3.8	1.49e+00	0	53	104	0	49	21076
2026-01-09 01:29:19.73	359.83	9.30	-39.0	-54.2	3.8	1.49e+00	0	53	104	0	49	20869
2026-01-09 01:29:20.74	359.72	9.36	-39.1	-54.3	3.8	1.49e+00	0	53	104	0	49	21108
2026-01-09 01:29:21.75	359.61	9.43	-39.0	-54.2	3.8	1.49e+00	0	53	104	0	49	20923
2026-01-09 01:29:22.76	359.50	9.50	-39.0	-54.3	3.8	1.49e+00	0	53	104	0	49	21101
2026-01-09 01:29:23.76	359.38	9.56	-39.2	-54.2	3.8	1.49e+00	0	53	104	0	49	20869
2026-01-09 01:29:24.77	359.27	9.63	-39.0	-54.2	3.8	1.49e+00	0	53	104	0	49	20866
2026-01-09 01:29:25.78	359.16	9.69	-39.1	-54.2	3.8	1.49e+00	0	53	104	0	49	20778
2026-01-09 01:29:26.79	359.04	9.76	-39.0	-54.1	3.8	1.49e+00	0	54	104	0	49	20738
2026-01-09 01:29:27.80	358.92	9.83	-39.0	-54.1	3.8	1.49e+00	0	54	104	0	49	20759
2026-01-09 01:29:28.81	358.81	9.89	-39.0	-54.2	3.8	1.49e+00	0	53	104	0	49	20886
2026-01-09 01:29:29.82	358.69	9.96	-39.0	-54.2	3.8	1.49e+00	0	53	104	0	49	20812
2026-01-09 01:29:30.83	358.57	10.03	-39.0	-54.2	3.8	1.49e+00	0	53	104	0	49	20820
2026-01-09 01:29:31.84	358.46	10.09	-39.3	-54.2	3.8	1.49e+00	0	53	104	0	49	20896
2026-01-09 01:29:32.85	358.34	10.16	-38.7	-54.1	3.8	1.49e+00	0	53	104	0	49	20692
2026-01-09 01:29:33.86	358.22	10.23	-39.4	-54.2	3.8	1.49e+00	0	54	104	0	49	20968
2026-01-09 01:29:34.87	358.10	10.29	-38.6	-54.1	3.8	1.49e+00	0	54	104	0	49	20619
2026-01-09 01:29:35.88	357.98	10.36	-39.0	-54.2	3.8	1.49e+00	0	54	104	0	49	20853
2026-01-09 01:29:36.89	357.86	10.43	-39.0	-54.2	3.8	1.49e+00	0	54	104	0	49	20835
2026-01-09 01:29:37.89	357.74	10.49	-39.0	-54.2	3.8	1.49e+00	0	54	104	0	49	20849
2026-01-09 01:29:38.90	357.62	10.56	-39.0	-54.2	3.8	1.49e+00	0	54	104	0	49	20809
2026-01-09 01:29:39.91	357.49	10.63	-39.5	-54.3	3.8	1.49e+00	0	54	104	0	49	21175
2026-01-09 01:29:40.92	357.37	10.69	-38.7	-54.1	3.8	1.49e+00	0	54	104	0	49	20573
2026-01-09 01:29:41.93	357.25	10.76	-39.5	-54.3	3.8	1.49e+00	0	54	104	0	49	21152
2026-01-09 01:29:42.94	357.12	10.83	-38.5	-54.0	3.8	1.49e+00	0	54	104	0	48	21706
2026-01-09 01:29:43.95	357.00	10.89	-39.3	-54.2	3.9	1.49e+00	0	54	104	0	49	20953
2026-01-09 01:29:44.96	356.87	10.96	-39.0	-54.2	3.8	1.49e+00	0	54	104	0	49	20946
2026-01-09 01:29:45.97	356.75	11.03	-39.5	-54.3	3.8	1.49e+00	0	54	104	0	49	21184
2026-01-09 01:29:46.98	356.62	11.10	-39.0	-54.2	3.8	1.49e+00	0	54	104	0	49	20870
2026-01-09 01:29:47.99	356.49	11.16	-39.7	-54.5	3.8	1.49e+00	0	54	104	0	49	21646
2026-01-09 01:29:49.00	356.37	11.23	-38.6	-54.1	3.8	1.49e+00	0	54	104	0	49	20606
2026-01-09 01:29:50.01	356.24	11.30	-39.8	-54.3	3.8	1.49e+00	0	54	104	0	50	19962
2026-01-09 01:29:51.02	356.11	11.37	-38.8	-54.1	3.8	1.49e+00	0	54	104	0	49	20661
2026-01-09 01:29:52.03	355.98	11.43	-39.7	-54.5	3.8	1.49e+00	0	54	104	0	49	21603
2026-01-09 01:29:53.04	355.85	11.50	-39.2	-54.2	3.8	1.49e+00	0	54	104	0	49	20881
2026-01-09 01:29:54.05	355.72	11.57	-39.7	-54.6	3.8	1.49e+00	0	54	104	0	50	20590
2026-01-09 01:29:55.05	355.59	11.64	-39.4	-54.3	3.8	1.49e+00	0	54	104	0	50	19900
2026-01-09 01:29:56.06	355.46	11.70	-40.0	-54.9	3.8	1.49e+00	0	54	104	0	50	21275
2026-01-09 01:29:57.07	355.32	11.77	-39.6	-54.3	3.8	1.49e+00	0	54	104	0	50	19907
2026-01-09 01:29:58.08	355.19	11.84	-39.6	-54.3	3.8	1.49e+00	0	54	104	0	50	19886
2026-01-09 01:29:59.09	355.06	11.91	-39.6	-54.3	3.8	1.49e+00	0	54	104	0	50	19845
2026-01-09 01:30:00.10	354.92	11.97	-39.7	-54.3	3.8	1.49e+00	0	54	104	0	50	19905
2026-01-09 01:30:01.11	354.79	12.04	-39.7	-54.3	3.8	1.49e+00	0	54	104	0	50	19996
2026-01-09 01:30:02.12	354.65	12.11	-39.6	-54.3	3.8	1.49e+00	0	54	104	0	50	19976
2026-01-09 01:30:03.13	354.51	12.18	-39.9	-54.6	3.8	1.49e+00	0	54	104	0	50	20734
2026-01-09 01:30:04.14	354.38	12.25	-39.6	-54.7	3.8	1.49e+00	0	54	104	0	50	20815
2026-01-09 01:30:05.15	354.24	12.31	-39.8	-54.5	3.8	1.49e+00	0	54	104	0	50	20525
2026-01-09 01:30:06.16	354.10	12.38	-39.6	-54.7	3.8	1.49e+00	0	54	104	0	50	20907
2026-01-09 01:30:07.17	353.96	12.45	-39.9	-54.6	3.8	1.49e+00	0	54	104	0	50	20652
2026-01-09 01:30:08.17	353.82	12.52	-39.9	-54.6	3.8	1.49e+00	0	54	104	0	50	20682
2026-01-09 01:30:09.18	353.68	12.59	-39.2	-54.5	3.8	1.49e+00	0	54	104	0	50	20356
2026-01-09 01:30:10.19	353.54	12.65	-39.9	-54.6	3.8	1.49e+00	0	54	104	0	50	20718
2026-01-09 01:30:11.20	353.40	12.72	-39.1	-54.7	3.8	1.49e+00	0	54	104	0	50	20835
2026-01-09 01:30:12.21	353.26	12.79	-40.2	-54.9	3.8	1.49e+00	0	54	104	0	51	20204
2026-01-09 01:30:13.22	353.12	12.86	-39.7	-54.7	3.8	1.49e+00	0	54	104	0	51	19637
2026-01-09 01:30:14.23	352.97	12.93	-40.4	-54.9	3.8	1.49e+00	0	54	104	0	51	20267
2026-01-09 01:30:15.24	352.83	12.99	-39.7	-54.7	3.8	1.49e+00	0	54	104	0	51	19683
2026-01-09 01:30:16.25	352.68	13.06	-40.3	-54.9	3.8	1.49e+00	0	54	104	0	51	20275
2026-01-09 01:30:17.26	352.54	13.13	-40.1	-55.1	3.8	1.49e+00	0	55	104	0	51	20646
2026-01-09 01:30:18.27	352.39	13.20	-40.5	-55.1	3.8	1.49e+00	0	54	104	0	51	20659
2026-01-09 01:30:19.28	352.24	13.27	-40.4	-55.0	3.8	1.49e+00	0	54	104	0	51	20422
2026-01-09 01:30:20.29	352.09	13.34	-40.2	-54.9	3.8	1.49e+00	0	54	104	0	51	20255
2026-01-09 01:30:21.30	351.95	13.40	-40.3	-54.9	3.8	1.49e+00	0	54	104	0	51	20301
2026-01-09 01:30:22.31	351.80	13.47	-40.3	-55.0	3.8	1.49e+00	0	54	104	0	51	20348
2026-01-09 01:30:23.32	351.65	13.54	-40.4	-55.0	3.8	1.49e+00	0	54	104	0	51	20411
2026-01-09 01:30:24.33	351.50	13.61	-40.3	-55.0	3.8	1.49e+00	0	54	104	0	51	20372
2026-01-09 01:30:25.34	351.34	13.68	-40.2	-54.9	3.8	1.49e+00	0	54	104	0	51	20117
2026-01-09 01:30:26.35	351.19	13.75	-40.3	-55.0	3.8	1.49e+00	0	54	104	0	51	20414
2026-01-09 01:30:27.36	351.04	13.81	-40.3	-55.0	3.8	1.49e+00	0	55	104	0	51	20450
2026-01-09 01:30:28.37	350.89	13.88	-40.6	-55.4	3.8	1.49e+00	0	55	104	0	51	21267
2026-01-09 01:30:29.38	350.73	13.95	-40.4	-55.1	3.8	1.49e+00	0	54	104	0	51	20640
2026-01-09 01:30:30.39	350.58	14.02	-40.4	-55.3	3.8	1.49e+00	0	54	104	0	51	21044
2026-01-09 01:30:31.39	350.42	14.09	-40.5	-55.2	3.8	1.49e+00	0	55	104	0	51	20796
2026-01-09 01:30:32.40	350.27	14.15	-40.4	-55.1	3.8	1.49e+00	0	55	104	0	51	20676
2026-01-09 01:30:33.41	350.11	14.22	-40.3	-55.2	3.8	1.49e+00	0	54	104	0	51	20834
2026-01-09 01:30:34.42	349.95	14.29	-40.1	-55.0	3.8	1.49e+00	0	55	104	0	51	20407
2026-01-09 01:30:35.43	349.79	14.36	-40.2	-55.2	3.8	1.49e+00	0	55	104	0	51	20787
2026-01-09 01:30:36.44	349.63	14.43	-40.1	-55.1	3.8	1.49e+00	0	55	104	0	51	20743
2026-01-09 01:30:37.45	349.47	14.49	-40.0	-55.1	3.8	1.49e+00	0	55	104	0	51	20557
2026-01-09 01:30:38.46	349.31	14.56	-40.2	-55.2	3.8	1.49e+00	0	55	104	0	52	19770
2026-01-09 01:30:39.47	349.15	14.63	-39.9	-55.0	3.8	1.49e+00	0	55	104	0	51	20411
2026-01-09 01:30:40.48	348.99	14.70	-40.4	-55.4	3.8	1.49e+00	0	55	104	0	51	21364
2026-01-09 01:30:41.49	348.82	14.76	-40.6	-55.5	3.8	1.49e+00	0	55	104	0	52	20384
2026-01-09 01:30:42.50	348.66	14.83	-40.7	-55.5	3.8	1.49e+00	0	55	104	0	52	20425
2026-01-09 01:30:43.51	348.50	14.90	-41.0	-55.6	3.8	1.49e+00	0	55	104	0	52	20757
2026-01-09 01:30:44.52	348.33	14.97	-41.0	-55.7	3.8	1.49e+00	0	55	104	0	52	20798
2026-01-09 01:30:45.53	348.16	15.03	-41.1	-55.7	3.8	1.49e+00	0	55	104	0	52	20831
2026-01-09 01:30:46.54	348.00	15.10	-41.1	-55.8	3.8	1.49e+00	0	55	104	0	53	19880
2026-01-09 01:30:47.54	347.83	15.17	-41.1	-55.7	3.8	1.49e+00	0	55	104	0	53	19756
2026-01-09 01:30:48.55	347.66	15.24	-41.2	-55.8	3.8	1.49e+00	0	55	104	0	53	20010
2026-01-09 01:30:49.56	347.49	15.30	-41.2	-55.9	3.8	1.49e+00	0	55	104	0	53	20107
2026-01-09 01:30:50.57	347.32	15.37	-41.2	-56.0	3.8	1.49e+00	0	55	104	0	53	20336
2026-01-09 01:30:51.58	347.15	15.44	-41.2	-56.0	3.8	1.49e+00	0	55	104	0	53	20398
2026-01-09 01:30:52.59	346.98	15.51	-41.4	-56.1	3.8	1.49e+00	0	55	104	0	53	20622
2026-01-09 01:30:53.60	346.81	15.57	-41.3	-56.1	3.8	1.49e+00	0	55	104	0	53	20599
2026-01-09 01:30:54.61	346.63	15.64	-41.4	-56.1	3.8	1.49e+00	0	55	104	0	53	20706
2026-01-09 01:30:55.61	346.46	15.71	-41.4	-56.0	3.8	1.49e+00	0	55	104	0	53	20430
2026-01-09 01:30:56.63	346.29	15.77	-41.2	-55.8	3.8	1.49e+00	0	55	104	0	53	19971
2026-01-09 01:30:57.64	346.11	15.84	-41.2	-55.7	3.8	1.49e+00	0	55	104	0	53	19780
2026-01-09 01:30:58.65	345.93	15.91	-40.9	-55.5	3.8	1.49e+00	0	55	104	0	53	19280
2026-01-09 01:30:59.65	345.76	15.97	-40.3	-55.2	3.8	1.49e+00	0	55	104	0	52	19666
2026-01-09 01:31:00.66	345.58	16.04	-41.0	-55.5	3.8	1.49e+00	0	55	104	0	52	20497
2026-01-09 01:31:01.67	345.40	16.10	-40.5	-55.2	3.8	1.49e+00	0	55	104	0	53	18584
2026-01-09 01:31:02.68	345.22	16.17	-40.2	-55.0	3.8	1.49e+00	0	55	104	0	52	19359
2026-01-09 01:31:03.69	345.04	16.24	-40.3	-55.1	3.8	1.49e+00	0	55	104	0	52	19524
2026-01-09 01:31:04.70	344.86	16.30	-40.4	-55.0	3.8	1.49e+00	0	55	104	0	52	19364
2026-01-09 01:31:05.71	344.68	16.37	-40.3	-55.0	3.8	1.49e+00	0	55	104	0	52	19233
2026-01-09 01:31:06.72	344.49	16.43	-40.2	-55.1	3.8	1.49e+00	0	55	104	0	52	19517
2026-01-09 01:31:07.73	344.31	16.50	-40.5	-55.1	3.8	1.49e+00	0	55	104	0	52	19478
2026-01-09 01:31:08.74	344.13	16.57	-40.7	-55.3	3.8	1.49e+00	0	55	104	0	52	19962
2026-01-09 01:31:09.75	343.94	16.63	-40.4	-55.1	3.8	1.49e+00	0	55	104	0	52	19493
2026-01-09 01:31:10.76	343.76	16.70	-40.5	-55.1	3.8	1.49e+00	0	55	104	0	52	19490
2026-01-09 01:31:11.77	343.57	16.76	-40.0	-55.0	3.8	1.49e+00	0	55	104	0	52	19248
2026-01-09 01:31:12.77	343.38	16.83	-40.5	-55.1	3.8	1.49e+00	0	55	104	0	51	20680
2026-01-09 01:31:13.78	343.19	16.89	-40.1	-55.1	3.8	1.49e+00	0	55	104	0	51	20631
2026-01-09 01:31:14.79	343.00	16.95	-40.1	-55.0	3.8	1.49e+00	0	55	104	0	51	20413
2026-01-09 01:31:15.80	342.81	17.02	-39.8	-55.0	3.8	1.49e+00	0	55	104	0	51	20518
2026-01-09 01:31:16.81	342.62	17.08	-40.5	-55.2	3.8	1.49e+00	0	55	104	0	51	20880
2026-01-09 01:31:17.82	342.43	17.15	-40.0	-55.2	3.8	1.49e+00	0	55	104	0	51	20842
2026-01-09 01:31:18.83	342.24	17.21	-40.4	-55.1	3.8	1.49e+00	0	55	104	0	51	20559
2026-01-09 01:31:19.84	342.04	17.28	-40.0	-54.8	3.8	1.49e+00	0	55	104	0	51	19895
2026-01-09 01:31:20.85	341.85	17.34	-40.1	-55.1	3.8	1.49e+00	0	55	104	0	51	20688
2026-01-09 01:31:21.86	341.65	17.40	-40.1	-54.8	3.8	1.49e+00	0	55	104	0	51	20053
2026-01-09 01:31:22.87	341.46	17.47	-40.2	-55.1	3.8	1.49e+00	0	55	104	0	51	20542
2026-01-09 01:31:23.88	341.26	17.53	-40.0	-54.9	3.8	1.49e+00	0	55	104	0	51	20290
2026-01-09 01:31:24.89	341.06	17.59	-40.1	-54.8	3.8	1.49e+00	0	55	104	0	51	19998
2026-01-09 01:31:25.90	340.86	17.65	-40.1	-55.0	3.8	1.49e+00	0	55	104	0	51	20304
2026-01-09 01:31:26.91	340.67	17.72	-40.0	-54.8	3.8	1.49e+00	0	55	104	0	51	20037
2026-01-09 01:31:27.92	340.47	17.78	-40.6	-54.8	3.8	1.49e+00	0	55	104	0	51	20007
2026-01-09 01:31:28.93	340.26	17.84	-40.1	-54.8	3.8	1.49e+00	0	55	104	0	51	19956
2026-01-09 01:31:29.94	340.06	17.90	-40.8	-53.8	3.8	1.49e+00	0	56	104	0	52	16797
2026-01-09 01:31:30.95	339.86	17.97	-40.2	-54.8	3.8	1.49e+00	0	55	104	0	52	18789
2026-01-09 01:31:31.96	339.66	18.03	-41.1	-53.3	3.9	1.49e+00	0	55	104	0	52	15933
2026-01-09 01:31:32.97	339.45	18.09	-42.0	-53.6	4.1	7.61e-01	0	55	0	1048576	54	14608
2026-01-09 01:31:33.98	339.25	18.15	-40.7	-47.1	8.2	4.22e-01	0	55	0	2097152	53	7332
2026-01-09 01:31:34.99	339.04	18.21	-40.5	-45.3	10.6	1.41e-02	0	55	0	4194304	53	5980
2026-01-09 01:31:36.00	338.83	18.27	-40.1	-44.0	12.3	3.30e-04	0	55	0	5242880	51	5775
2026-01-09 01:31:37.01	338.62	18.33	-39.8	-43.4	13.1	5.34e-05	0	56	0	7340032	51	5347
2026-01-09 01:31:38.02	338.42	18.39	-39.6	-43.0	13.6	2.28e-05	0	55	0	9437184	51	5157
2026-01-09 01:31:39.03	338.21	18.45	-39.5	-42.8	13.9	7.60e-06	0	55	0	11534336	51	5041
2026-01-09 01:31:40.03	338.00	18.51	-39.4	-42.7	14.1	2.20e-06	0	55	0	13631488	50	5224
2026-01-09 01:31:41.05	337.78	18.57	-39.5	-42.7	14.2	1.50e-06	0	55	0	14680064	50	5241
2026-01-09 01:31:42.06	337.57	18.63	-39.6	-42.7	14.3	2.20e-06	0	56	0	16777216	50	5232
2026-01-09 01:31:43.07	337.36	18.69	-39.6	-42.5	14.5	0.00e+00	0	55	0	18874368	50	5149
2026-01-09 01:31:44.07	337.15	18.75	-39.3	-42.0	15.1	0.00e+00	0	55	0	20971520	50	4870
2026-01-09 01:31:45.08	336.93	18.80	-39.3	-42.0	15.2	0.00e+00	0	55	0	23068672	50	4833
2026-01-09 01:31:46.09	336.72	18.86	-39.4	-42.2	15.0	0.00e+00	0	56	0	25165824	50	4958
2026-01-09 01:31:47.10	336.50	18.92	-39.5	-42.3	14.9	1.50e-06	0	55	0	26214400	50	4996
2026-01-09 01:31:48.11	336.28	18.98	-39.6	-42.5	14.7	0.00e+00	0	55	0	28311552	50	5149
2026-01-09 01:31:49.12	336.07	19.03	-39.7	-42.7	14.5	0.00e+00	0	55	0	30408704	50	5237
2026-01-09 01:31:50.13	335.85	19.09	-39.9	-42.9	14.4	0.00e+00	0	55	0	32505856	50	5363
2026-01-09 01:31:51.14	335.63	19.15	-39.8	-42.7	14.6	7.00e-07	0	55	0	34603008	50	5273
2026-01-09 01:31:52.15	335.41	19.20	-39.6	-42.5	14.8	0.00e+00	0	55	0	35651584	50	5123
2026-01-09 01:31:53.16	335.19	19.26	-39.5	-42.4	14.9	7.00e-07	0	55	0	37748736	50	5044
2026-01-09 01:31:54.17	334.96	19.32	-39.5	-42.3	15.0	0.00e+00	0	55	0	39845888	50	4986
2026-01-09 01:31:55.18	334.74	19.37	-39.5	-42.4	15.0	0.00e+00	0	55	0	41943040	50	5052
2026-01-09 01:31:56.19	334.52	19.43	-39.5	-42.2	15.2	0.00e+00	0	56	0	44040192	50	4968
2026-01-09 01:31:57.20	334.29	19.48	-39.5	-42.3	15.1	0.00e+00	0	56	0	45088768	50	5022
2026-01-09 01:31:58.20	334.07	19.53	-39.4	-42.2	15.0	0.00e+00	0	55	0	47185920	50	4944
2026-01-09 01:31:59.21	333.84	19.59	-39.5	-42.2	15.2	0.00e+00	0	55	0	49283072	50	4973
2026-01-09 01:32:00.22	333.62	19.64	-39.5	-42.3	15.1	0.00e+00	0	55	0	51380224	50	5003
2026-01-09 01:32:01.23	333.39	19.69	-39.5	-42.2	15.3	0.00e+00	0	56	0	53477376	50	4939
2026-01-09 01:32:02.24	333.16	19.75	-39.4	-42.1	15.3	0.00e+00	0	56	0	54525952	50	4874
2026-01-09 01:32:03.25	332.93	19.80	-39.3	-41.9	15.6	0.00e+00	0	55	0	56623104	50	4766
2026-01-09 01:32:04.26	332.70	19.85	-39.3	-41.8	15.6	0.00e+00	0	55	0	58720256	50	4736
2026-01-09 01:32:05.27	332.47	19.90	-39.2	-41.7	15.7	0.00e+00	0	55	0	60817408	50	4697
2026-01-09 01:32:06.28	332.24	19.95	-39.4	-42.0	15.5	0.00e+00	0	55	0	62914560	50	4846
2026-01-09 01:32:07.29	332.01	20.01	-39.5	-42.1	15.4	0.00e+00	0	56	0	63963136	50	4905
2026-01-09 01:32:08.30	331.77	20.06	-39.5	-42.1	15.4	0.00e+00	0	55	0	66060288	50	4919
2026-01-09 01:32:09.31	331.54	20.11	-39.5	-42.2	15.2	0.00e+00	0	56	0	68157440	50	4980
2026-01-09 01:32:10.32	331.30	20.16	-39.5	-42.1	15.4	0.00e+00	0	56	0	70254592	50	4908
2026-01-09 01:32:11.33	331.07	20.20	-39.3	-41.9	15.6	0.00e+00	0	56	0	72351744	50	4795
2026-01-09 01:32:12.34	330.83	20.25	-39.1	-41.5	16.0	0.00e+00	0	56	0	73400320	50	4570
2026-01-09 01:32:13.35	330.60	20.30	-38.9	-41.2	16.2	0.00e+00	0	56	0	75497472	49	4689
2026-01-09 01:32:14.36	330.36	20.35	-38.7	-41.0	16.4	0.00e+00	0	55	0	77594624	49	4566
2026-01-09 01:32:15.37	330.12	20.40	-38.7	-41.0	16.5	0.00e+00	0	55	0	79691776	49	4551
2026-01-09 01:32:16.38	329.88	20.44	-38.8	-41.0	16.5	0.00e+00	0	56	0	81788928	49	4593
2026-01-09 01:32:17.39	329.64	20.49	-38.8	-41.2	16.3	0.00e+00	0	55	0	82837504	49	4657
2026-01-09 01:32:18.40	329.40	20.54	-38.9	-41.3	16.2	0.00e+00	0	56	0	84934656	49	4727
2026-01-09 01:32:19.41	329.16	20.58	-39.1	-41.5	16.0	0.00e+00	0	56	0	87031808	49	4842
2026-01-09 01:32:20.42	328.92	20.63	-39.0	-41.4	16.1	0.00e+00	0	56	0	89128960	49	4780
2026-01-09 01:32:21.43	328.67	20.67	-38.9	-41.2	16.3	0.00e+00	0	56	0	91226112	49	4685
2026-01-09 01:32:22.44	328.43	20.72	-38.9	-41.2	16.3	0.00e+00	0	56	0	92274688	49	4696
2026-01-09 01:32:23.44	328.19	20.76	-39.0	-41.3	16.2	0.00e+00	0	56	0	94371840	49	4731
2026-01-09 01:32:24.45	327.94	20.81	-38.9	-41.2	16.4	0.00e+00	0	56	0	96468992	49	4661
2026-01-09 01:32:25.46	327.70	20.85	-39.0	-41.4	16.1	0.00e+00	0	56	0	98566144	49	4766
2026-01-09 01:32:26.47	327.45	20.89	-39.2	-41.6	15.9	0.00e+00	0	56	0	100663296	49	4884
2026-01-09 01:32:27.48	327.20	20.93	-39.3	-41.8	15.7	0.00e+00	0	56	0	102760448	49	5003
2026-01-09 01:32:28.49	326.95	20.97	-39.4	-41.9	15.7	0.00e+00	0	56	0	103809024	49	5065
2026-01-09 01:32:29.50	326.70	21.02	-39.4	-42.0	15.6	0.00e+00	0	56	0	105906176	49	5102
2026-01-09 01:32:30.51	326.46	21.06	-39.4	-42.0	15.5	0.00e+00	0	56	0	108003328	49	5125
2026-01-09 01:32:31.52	326.21	21.10	-39.4	-41.9	15.6	0.00e+00	0	56	0	110100480	49	5082
2026-01-09 01:32:32.53	325.96	21.14	-39.1	-41.5	16.1	0.00e+00	0	56	0	112197632	49	4825
2026-01-09 01:32:33.54	325.70	21.17	-38.9	-41.2	16.3	0.00e+00	0	55	0	113246208	49	4699
2026-01-09 01:32:34.55	325.45	21.21	-39.0	-41.3	16.2	0.00e+00	0	56	0	115343360	49	4743
2026-01-09 01:32:35.56	325.20	21.25	-38.8	-41.1	16.3	0.00e+00	0	56	0	117440512	49	4644
2026-01-09 01:32:36.56	324.95	21.29	-38.9	-41.2	16.3	0.00e+00	0	56	0	119537664	49	4691
2026-01-09 01:32:37.57	324.70	21.33	-38.9	-41.2	16.2	0.00e+00	0	56	0	121634816	49	4689
2026-01-09 01:32:38.58	324.44	21.36	-39.0	-41.4	16.2	0.00e+00	0	56	0	122683392	49	4768
2026-01-09 01:32:39.59	324.19	21.40	-39.0	-41.3	16.2	0.00e+00	0	56	0	124780544	49	4714
2026-01-09 01:32:40.60	323.93	21.43	-39.0	-41.4	16.1	0.00e+00	0	56	0	126877696	49	4780
2026-01-09 01:32:41.61	323.67	21.47	-38.9	-41.2	16.3	0.00e+00	0	56	0	128974848	49	4695
2026-01-09 01:32:42.62	323.42	21.50	-38.8	-41.1	16.5	0.00e+00	0	56	0	131072000	49	4599
2026-01-09 01:32:43.63	323.16	21.53	-38.5	-40.6	16.9	0.00e+00	0	56	0	132120576	49	4343
2026-01-09 01:32:44.64	322.90	21.57	-38.5	-40.6	16.9	0.00e+00	0	56	0	134217728	48	4630
2026-01-09 01:32:45.65	322.64	21.60	-38.6	-40.8	16.8	0.00e+00	0	56	0	136314880	48	4712
2026-01-09 01:32:46.66	322.38	21.63	-38.9	-41.2	16.3	0.00e+00	0	56	0	138412032	48	4949
2026-01-09 01:32:47.67	322.13	21.66	-39.5	-42.0	15.5	0.00e+00	0	56	0	140509184	49	5132
2026-01-09 01:32:48.68	321.87	21.69	-39.5	-42.1	15.5	0.00e+00	0	56	0	141557760	49	5163
2026-01-09 01:32:49.69	321.60	21.72	-39.8	-42.6	15.0	0.00e+00	0	56	0	143654912	50	5174
2026-01-09 01:32:50.69	321.35	21.75	-40.0	-42.8	14.7	0.00e+00	0	56	0	145752064	50	5333
2026-01-09 01:32:51.70	321.08	21.78	-40.1	-43.0	14.5	7.00e-07	0	56	0	147849216	50	5437
2026-01-09 01:32:52.71	320.82	21.81	-40.2	-43.1	14.4	0.00e+00	0	56	0	149946368	50	5519
2026-01-09 01:32:53.72	320.56	21.84	-40.2	-43.1	14.4	7.00e-07	0	56	0	150994944	50	5516
2026-01-09 01:32:54.73	320.30	21.86	-40.2	-43.2	14.4	0.00e+00	0	56	0	153092096	50	5529
2026-01-09 01:32:55.74	320.03	21.89	-40.2	-43.1	14.5	7.00e-07	0	56	0	155189248	51	5184
2026-01-09 01:32:56.75	319.77	21.92	-40.2	-43.2	14.2	2.20e-06	0	56	0	157286400	51	5279
2026-01-09 01:32:57.76	319.51	21.94	-40.3	-43.5	14.1	2.20e-06	0	56	0	159383552	51	5408
2026-01-09 01:32:58.77	319.24	21.97	-40.4	-43.6	13.9	3.80e-06	0	56	0	160432128	51	5487
2026-01-09 01:32:59.78	318.98	21.99	-40.4	-43.5	14.0	3.80e-06	0	56	0	162529280	51	5441
2026-01-09 01:33:00.79	318.71	22.01	-40.3	-43.3	14.2	2.20e-06	0	56	0	164626432	51	5324
2026-01-09 01:33:01.79	318.45	22.04	-40.0	-42.9	14.6	0.00e+00	0	56	0	166723584	51	5096
2026-01-09 01:33:02.81	318.18	22.06	-39.9	-42.7	14.8	0.00e+00	0	56	0	168820736	51	4968
2026-01-09 01:33:03.81	317.91	22.08	-39.7	-42.4	15.1	0.00e+00	0	56	0	170917888	51	4766
2026-01-09 01:33:04.82	317.65	22.10	-39.7	-42.5	15.1	0.00e+00	0	56	0	171966464	51	4821
2026-01-09 01:33:05.83	317.38	22.12	-39.6	-42.4	15.1	0.00e+00	0	56	0	174063616	51	4766
2026-01-09 01:33:06.84	317.11	22.14	-39.7	-42.5	15.0	0.00e+00	0	56	0	176160768	51	4829
2026-01-09 01:33:07.86	316.84	22.16	-39.9	-42.7	14.8	0.00e+00	0	56	0	178257920	51	4956
2026-01-09 01:33:08.86	316.57	22.18	-40.1	-43.0	14.6	0.00e+00	0	56	0	180355072	51	5151
2026-01-09 01:33:09.87	316.31	22.19	-40.2	-43.2	14.3	3.00e-06	0	56	0	181403648	51	5265
2026-01-09 01:33:10.88	316.04	22.21	-40.3	-43.4	14.1	0.00e+00	0	56	0	183500800	51	5377
2026-01-09 01:33:11.89	315.77	22.23	-40.4	-43.5	13.9	2.20e-06	0	56	0	185597952	51	5459
2026-01-09 01:33:12.90	315.50	22.24	-40.1	-43.1	14.3	1.50e-06	0	56	0	187695104	51	5199
2026-01-09 01:33:13.91	315.23	22.26	-39.9	-42.7	14.8	0.00e+00	0	56	0	189792256	51	4955
2026-01-09 01:33:14.92	314.96	22.27	-39.9	-42.7	14.9	0.00e+00	0	56	0	190840832	51	4948
2026-01-09 01:33:15.93	314.69	22.29	-39.9	-42.8	14.7	0.00e+00	0	56	0	192937984	51	4995
2026-01-09 01:33:16.94	314.42	22.30	-40.1	-43.0	14.4	0.00e+00	0	56	0	195035136	51	5138
2026-01-09 01:33:17.95	314.14	22.31	-40.1	-43.1	14.4	0.00e+00	0	56	0	197132288	51	5183
2026-01-09 01:33:18.96	313.87	22.32	-40.3	-43.4	14.1	7.00e-07	0	56	0	199229440	51	5359
2026-01-09 01:33:19.97	313.60	22.33	-40.4	-43.6	13.9	2.20e-06	0	56	0	200278016	51	5496
2026-01-09 01:33:20.98	313.33	22.34	-40.4	-43.5	14.0	2.20e-06	0	56	0	202375168	51	5460
2026-01-09 01:33:21.98	313.06	22.35	-40.3	-43.5	14.0	1.50e-06	0	56	0	204472320	51	5421
2026-01-09 01:33:23.00	312.79	22.36	-40.3	-43.4	14.0	3.00e-06	0	56	0	206569472	51	5362
2026-01-09 01:33:24.01	312.51	22.37	-40.4	-43.7	13.8	5.30e-06	0	56	0	208666624	51	5540
2026-01-09 01:33:25.02	312.24	22.38	-40.6	-43.9	13.6	3.80e-06	0	56	0	209715200	51	5714
2026-01-09 01:33:26.02	311.97	22.38	-40.6	-44.0	13.5	9.10e-06	0	56	0	211812352	51	5778
2026-01-09 01:33:27.03	311.70	22.39	-40.6	-44.0	13.5	1.60e-05	0	56	0	213909504	51	5751
2026-01-09 01:33:28.04	311.43	22.39	-40.6	-44.0	13.4	2.36e-05	0	56	0	216006656	52	5459
2026-01-09 01:33:29.05	311.16	22.40	-40.7	-44.4	13.0	2.82e-05	0	56	0	218103808	52	5669
2026-01-09 01:33:30.06	310.88	22.40	-40.8	-44.5	12.8	4.73e-05	0	56	0	219152384	52	5766
2026-01-09 01:33:31.07	310.61	22.40	-41.0	-44.8	12.6	3.73e-05	0	56	0	221249536	52	5961
2026-01-09 01:33:32.08	310.34	22.41	-40.9	-44.7	12.7	8.08e-05	0	56	0	223346688	52	5886
2026-01-09 01:33:33.09	310.06	22.41	-40.7	-44.3	13.0	5.41e-05	0	56	0	225443840	52	5652
2026-01-09 01:33:34.10	309.79	22.41	-40.6	-44.2	13.2	3.73e-05	0	56	0	227540992	52	5539
2026-01-09 01:33:35.11	309.52	22.41	-40.6	-44.1	13.2	1.90e-05	0	56	0	228589568	52	5513
2026-01-09 01:33:36.12	309.25	22.41	-40.4	-43.8	13.5	1.67e-05	0	56	0	230686720	52	5288
2026-01-09 01:33:37.13	308.97	22.41	-40.2	-43.4	13.9	3.80e-06	0	56	0	232783872	52	5063
2026-01-09 01:33:38.14	308.70	22.41	-40.0	-43.0	14.3	0.00e+00	0	56	0	234881024	51	5152
2026-01-09 01:33:39.15	308.43	22.41	-39.8	-42.7	14.7	0.00e+00	0	56	0	236978176	51	4962
2026-01-09 01:33:40.16	308.15	22.40	-39.7	-42.5	14.9	0.00e+00	0	56	0	238026752	51	4839
2026-01-09 01:33:41.16	307.88	22.40	-39.6	-42.3	15.1	0.00e+00	0	56	0	240123904	51	4739
2026-01-09 01:33:42.17	307.61	22.39	-39.6	-42.4	15.1	0.00e+00	0	56	0	242221056	51	4799
2026-01-09 01:33:43.18	307.34	22.39	-39.6	-42.3	15.1	0.00e+00	0	56	0	244318208	51	4744
2026-01-09 01:33:44.19	307.07	22.38	-39.6	-42.4	15.0	0.00e+00	0	56	0	246415360	50	5073
2026-01-09 01:33:45.20	306.79	22.38	-39.6	-42.3	15.1	0.00e+00	0	56	0	247463936	50	5030
2026-01-09 01:33:46.21	306.52	22.37	-39.5	-42.3	15.2	0.00e+00	0	56	0	249561088	50	5000
2026-01-09 01:33:47.22	306.25	22.36	-39.7	-42.5	14.9	0.00e+00	0	56	0	251658240	50	5155
2026-01-09 01:33:48.23	305.98	22.35	-40.0	-43.1	14.4	0.00e+00	0	56	0	253755392	50	5490
2026-01-09 01:33:49.24	305.70	22.34	-40.1	-43.2	14.3	0.00e+00	0	56	0	255852544	50	5574
2026-01-09 01:33:50.25	305.43	22.33	-40.3	-43.5	14.0	2.20e-06	0	56	0	256901120	51	5411
2026-01-09 01:33:51.26	305.16	22.32	-40.3	-43.4	14.0	3.80e-06	0	56	0	258998272	51	5392
2026-01-09 01:33:52.27	304.89	22.31	-40.2	-43.3	14.2	3.00e-06	0	56	0	261095424	51	5299
2026-01-09 01:33:53.28	304.62	22.30	-40.1	-43.2	14.3	1.50e-06	0	56	0	263192576	51	5259
2026-01-09 01:33:54.29	304.35	22.29	-39.9	-42.9	14.6	0.00e+00	0	56	0	265289728	51	5070
2026-01-09 01:33:55.30	304.08	22.27	-39.7	-42.5	14.9	7.00e-07	0	56	0	267386880	51	4864
2026-01-09 01:33:56.31	303.81	22.26	-39.5	-42.2	15.2	0.00e+00	0	56	0	268435456	51	4685
2026-01-09 01:33:57.32	303.54	22.24	-39.4	-42.0	15.5	0.00e+00	0	56	0	270532608	50	4821
2026-01-09 01:33:58.32	303.27	22.23	-39.3	-41.8	15.7	0.00e+00	0	56	0	272629760	50	4749
2026-01-09 01:33:59.33	303.00	22.21	-39.3	-41.8	15.7	0.00e+00	0	56	0	274726912	50	4759
2026-01-09 01:34:00.34	302.73	22.20	-39.4	-41.9	15.6	0.00e+00	0	56	0	276824064	50	4812
2026-01-09 01:34:01.35	302.46	22.18	-39.5	-42.1	15.3	0.00e+00	0	56	0	277872640	50	4925
2026-01-09 01:34:02.36	302.19	22.16	-39.3	-41.8	15.7	0.00e+00	0	56	0	279969792	50	4731
2026-01-09 01:34:03.37	301.92	22.14	-39.4	-42.0	15.5	0.00e+00	0	56	0	282066944	50	4842
2026-01-09 01:34:04.38	301.66	22.12	-39.3	-41.7	15.8	0.00e+00	0	56	0	284164096	50	4697
2026-01-09 01:34:05.39	301.39	22.10	-39.3	-41.8	15.7	0.00e+00	0	56	0	286261248	50	4718
2026-01-09 01:34:06.40	301.12	22.08	-39.2	-41.7	15.8	0.00e+00	0	56	0	287309824	50	4686
2026-01-09 01:34:07.41	300.85	22.06	-39.4	-41.9	15.6	0.00e+00	0	56	0	289406976	50	4802
2026-01-09 01:34:08.42	300.59	22.04	-39.4	-41.9	15.6	0.00e+00	0	56	0	291504128	50	4800
2026-01-09 01:34:09.43	300.32	22.02	-39.3	-41.8	15.6	0.00e+00	0	56	0	293601280	50	4745
2026-01-09 01:34:10.43	300.06	21.99	-39.3	-41.7	15.8	0.00e+00	0	56	0	295698432	50	4688
2026-01-09 01:34:11.44	299.79	21.97	-39.1	-41.5	16.0	0.00e+00	0	56	0	296747008	50	4583
2026-01-09 01:34:12.45	299.53	21.95	-39.0	-41.3	16.2	0.00e+00	0	56	0	298844160	50	4453
2026-01-09 01:34:13.46	299.26	21.92	-38.9	-41.1	16.4	0.00e+00	0	56	0	300941312	49	4639
2026-01-09 01:34:14.47	299.00	21.89	-38.9	-41.1	16.4	0.00e+00	0	56	0	303038464	49	4645
2026-01-09 01:34:15.48	298.73	21.87	-38.8	-41.0	16.5	0.00e+00	0	56	0	305135616	49	4564
2026-01-09 01:34:16.49	298.47	21.84	-38.7	-40.9	16.6	0.00e+00	0	56	0	306184192	49	4501
2026-01-09 01:34:17.50	298.21	21.81	-38.8	-41.0	16.5	0.00e+00	0	56	0	308281344	49	4569
2026-01-09 01:34:18.51	297.94	21.79	-38.9	-41.2	16.3	0.00e+00	0	56	0	310378496	49	4698
2026-01-09 01:34:19.52	297.68	21.76	-38.9	-41.2	16.3	0.00e+00	0	56	0	312475648	49	4692
2026-01-09 01:34:20.53	297.42	21.73	-38.9	-41.2	16.3	0.00e+00	0	56	0	314572800	49	4679
2026-01-09 01:34:21.54	297.16	21.70	-39.0	-41.3	16.2	0.00e+00	0	56	0	315621376	49	4719
2026-01-09 01:34:22.55	296.90	21.67	-38.9	-41.1	16.3	0.00e+00	0	56	0	317718528	49	4650
2026-01-09 01:34:23.56	296.64	21.64	-38.8	-41.0	16.4	0.00e+00	0	56	0	319815680	49	4598
2026-01-09 01:34:24.57	296.38	21.60	-38.8	-41.1	16.4	0.00e+00	0	56	0	321912832	49	4611
2026-01-09 01:34:25.58	296.12	21.57	-38.8	-41.0	16.4	0.00e+00	0	56	0	324009984	49	4588
2026-01-09 01:34:26.59	295.86	21.54	-38.7	-40.9	16.5	0.00e+00	0	56	0	325058560	49	4535
2026-01-09 01:34:27.60	295.60	21.50	-38.7	-40.8	16.6	0.00e+00	0	56	0	327155712	49	4492
2026-01-09 01:34:28.60	295.35	21.47	-38.6	-40.8	16.7	0.00e+00	0	56	0	329252864	49	4453
2026-01-09 01:34:29.61	295.09	21.44	-38.7	-40.9	16.6	0.00e+00	0	56	0	331350016	49	4497
2026-01-09 01:34:30.62	294.84	21.40	-38.7	-40.9	16.5	0.00e+00	0	56	0	333447168	49	4534
2026-01-09 01:34:31.63	294.58	21.37	-39.1	-41.6	16.0	0.00e+00	0	56	0	335544320	49	4873
2026-01-09 01:34:32.64	294.32	21.33	-39.1	-41.6	15.9	0.00e+00	0	56	0	336592896	49	4885
2026-01-09 01:34:33.65	294.07	21.29	-39.4	-42.0	15.5	0.00e+00	0	56	0	338690048	49	5139
2026-01-09 01:34:34.66	293.82	21.25	-39.8	-42.6	14.8	0.00e+00	0	56	0	340787200	50	5199
2026-01-09 01:34:35.67	293.56	21.22	-39.9	-42.6	14.9	1.50e-06	0	56	0	342884352	50	5215
2026-01-09 01:34:36.68	293.31	21.18	-39.8	-42.6	15.0	0.00e+00	0	56	0	344981504	50	5160
2026-01-09 01:34:37.69	293.06	21.14	-39.7	-42.3	15.2	0.00e+00	0	56	0	346030080	50	5020
2026-01-09 01:34:38.69	292.81	21.10	-39.6	-42.2	15.3	0.00e+00	0	56	0	348127232	50	4956
2026-01-09 01:34:39.70	292.56	21.06	-39.4	-41.9	15.6	0.00e+00	0	56	0	350224384	50	4804
2026-01-09 01:34:40.71	292.31	21.02	-39.4	-42.0	15.5	0.00e+00	0	56	0	352321536	50	4816
2026-01-09 01:34:41.72	292.06	20.98	-39.5	-42.2	15.4	0.00e+00	0	56	0	354418688	50	4928
2026-01-09 01:34:42.73	291.81	20.94	-39.8	-42.6	14.9	0.00e+00	0	56	0	355467264	50	5205
2026-01-09 01:34:43.74	291.56	20.89	-39.8	-42.6	14.9	0.00e+00	0	56	0	357564416	50	5178
2026-01-09 01:34:44.75	291.32	20.85	-40.1	-42.9	14.6	0.00e+00	0	56	0	359661568	50	5402
2026-01-09 01:34:45.76	291.07	20.81	-40.2	-43.2	14.3	7.00e-07	0	56	0	361758720	51	5251
2026-01-09 01:34:46.77	290.82	20.77	-40.3	-43.3	14.2	1.50e-06	0	56	0	363855872	51	5337
2026-01-09 01:34:47.78	290.58	20.72	-40.4	-43.6	13.9	3.00e-06	0	56	0	364904448	51	5485
2026-01-09 01:34:48.78	290.34	20.68	-40.5	-43.8	13.7	2.20e-06	0	56	0	367001600	51	5605
2026-01-09 01:34:49.79	290.09	20.63	-40.5	-43.7	13.8	1.50e-06	0	56	0	369098752	51	5546
2026-01-09 01:34:50.80	289.85	20.59	-40.4	-43.6	13.8	3.00e-06	0	56	0	371195904	51	5523
2026-01-09 01:34:51.81	289.61	20.54	-40.3	-43.4	14.1	1.50e-06	0	56	0	373293056	51	5375
2026-01-09 01:34:52.82	289.37	20.49	-40.3	-43.3	14.2	1.50e-06	0	56	0	374341632	51	5305
2026-01-09 01:34:53.83	289.13	20.45	-40.1	-43.0	14.5	7.00e-07	0	56	0	376438784	51	5139
2026-01-09 01:34:54.84	288.89	20.40	-40.2	-43.1	14.4	0.00e+00	0	56	0	378535936	51	5191
2026-01-09 01:34:55.85	288.65	20.35	-40.1	-43.0	14.6	0.00e+00	0	56	0	380633088	51	5101
2026-01-09 01:34:56.86	288.41	20.31	-40.0	-42.9	14.5	2.20e-06	0	56	0	382730240	51	5088
2026-01-09 01:34:57.87	288.17	20.26	-40.1	-43.1	14.4	1.50e-06	0	56	0	383778816	51	5185
2026-01-09 01:34:58.88	287.93	20.21	-40.2	-43.3	14.2	7.00e-07	0	56	0	385875968	51	5309
2026-01-09 01:34:59.89	287.70	20.16	-40.3	-43.4	14.0	2.20e-06	0	56	0	387973120	51	5386
2026-01-09 01:35:00.89	287.46	20.11	-40.1	-43.2	14.2	0.00e+00	0	56	0	390070272	51	5240
2026-01-09 01:35:01.90	287.23	20.06	-40.1	-43.0	14.4	7.00e-07	0	56	0	392167424	51	5158
2026-01-09 01:35:02.91	286.99	20.01	-39.9	-42.7	14.7	0.00e+00	0	56	0	393216000	51	4974
2026-01-09 01:35:03.93	286.76	19.96	-39.8	-42.5	14.9	0.00e+00	0	56	0	395313152	51	4860
2026-01-09 01:35:04.93	286.53	19.91	-39.8	-42.6	14.9	0.00e+00	0	56	0	397410304	51	4877
2026-01-09 01:35:05.94	286.30	19.85	-39.5	-42.1	15.3	0.00e+00	0	56	0	399507456	50	4899
2026-01-09 01:35:06.95	286.07	19.80	-39.4	-42.0	15.4	0.00e+00	0	56	0	401604608	50	4855
2026-01-09 01:35:07.96	285.83	19.75	-39.3	-41.9	15.5	0.00e+00	0	56	0	403701760	50	4772
2026-01-09 01:35:08.97	285.61	19.70	-39.3	-41.9	15.6	0.00e+00	0	56	0	404750336	50	4775
2026-01-09 01:35:09.98	285.38	19.64	-39.3	-41.8	15.6	0.00e+00	0	56	0	406847488	50	4753
2026-01-09 01:35:10.99	285.15	19.59	-39.3	-41.8	15.7	0.00e+00	0	56	0	408944640	50	4732
2026-01-09 01:35:12.00	284.92	19.54	-39.5	-42.1	15.4	0.00e+00	0	56	0	411041792	50	4900
2026-01-09 01:35:13.01	284.70	19.48	-39.6	-42.2	15.2	0.00e+00	0	56	0	413138944	50	4964
2026-01-09 01:35:14.02	284.47	19.43	-39.7	-42.4	15.0	0.00e+00	0	56	0	414187520	50	5093
2026-01-09 01:35:15.03	284.25	19.37	-39.9	-42.8	14.6	0.00e+00	0	56	0	416284672	50	5307
2026-01-09 01:35:16.04	284.02	19.32	-40.2	-43.4	14.1	7.00e-07	0	56	0	418381824	50	5659
2026-01-09 01:35:17.05	283.80	19.26	-40.3	-43.5	13.9	3.80e-06	0	56	0	420478976	51	5423
2026-01-09 01:35:18.06	283.58	19.21	-40.7	-44.3	13.0	2.13e-05	0	56	0	421527552	52	5649
2026-01-09 01:35:19.06	283.36	19.15	-40.7	-44.3	13.0	4.95e-05	0	56	0	423624704	52	5642
2026-01-09 01:35:20.07	283.14	19.09	-40.6	-44.1	13.2	2.51e-05	0	56	0	425721856	52	5488
2026-01-09 01:35:21.08	282.92	19.04	-40.5	-43.8	13.5	1.06e-05	0	56	0	427819008	52	5320
2026-01-09 01:35:22.09	282.70	18.98	-40.4	-43.8	13.5	4.50e-06	0	56	0	429916160	52	5290
2026-01-09 01:35:23.10	282.48	18.92	-40.6	-44.1	13.2	2.05e-05	0	56	0	432013312	52	5514
2026-01-09 01:35:24.11	282.26	18.86	-40.7	-44.4	12.8	5.64e-05	0	56	0	433061888	52	5707
2026-01-09 01:35:25.12	282.05	18.81	-41.0	-45.1	12.1	1.39e-04	0	56	0	435159040	52	6180
2026-01-09 01:35:26.13	281.83	18.75	-41.2	-45.5	11.7	3.25e-04	0	56	0	437256192	53	6103
2026-01-09 01:35:27.14	281.62	18.69	-41.4	-45.9	11.3	9.78e-04	0	56	0	439353344	53	6398
2026-01-09 01:35:28.15	281.40	18.63	-41.5	-46.1	11.2	1.15e-03	0	56	0	441450496	53	6499
2026-01-09 01:35:29.16	281.19	18.57	-41.4	-45.9	11.3	1.00e-03	0	56	0	442499072	53	6402
2026-01-09 01:35:30.17	280.98	18.51	-41.2	-45.4	11.8	5.58e-04	0	56	0	444596224	53	6022
2026-01-09 01:35:31.18	280.77	18.45	-40.8	-44.7	12.6	1.39e-04	0	56	0	446693376	53	5544
2026-01-09 01:35:32.19	280.56	18.39	-40.5	-44.1	13.1	6.48e-05	0	56	0	448790528	53	5195
2026-01-09 01:35:33.19	280.35	18.33	-40.2	-43.5	13.8	1.60e-05	0	56	0	450887680	52	5111
2026-01-09 01:35:34.20	280.14	18.27	-39.8	-42.8	14.5	1.50e-06	0	57	0	451936256	51	5020
2026-01-09 01:35:35.21	279.93	18.21	-39.8	-42.7	14.7	0.00e+00	0	56	0	454033408	51	4927
2026-01-09 01:35:36.22	279.73	18.15	-39.7	-42.5	14.9	0.00e+00	0	56	0	456130560	51	4843
2026-01-09 01:35:37.23	279.52	18.09	-39.5	-42.3	15.1	0.00e+00	0	56	0	458227712	51	4720
2026-01-09 01:35:38.24	279.31	18.03	-39.6	-42.4	15.0	0.00e+00	0	56	0	460324864	51	4791
2026-01-09 01:35:39.25	279.11	17.96	-39.5	-42.2	15.2	0.00e+00	0	56	0	461373440	50	4956
2026-01-09 01:35:40.26	278.90	17.90	-39.6	-42.4	14.9	0.00e+00	0	56	0	463470592	50	5060
2026-01-09 01:35:41.27	278.70	17.84	-39.6	-42.4	14.9	0.00e+00	0	56	0	465567744	50	5078
2026-01-09 01:35:42.28	278.50	17.78	-39.8	-42.7	14.5	0.00e+00	0	56	0	467664896	50	5278
2026-01-09 01:35:43.29	278.30	17.72	-40.0	-43.1	14.2	6.10e-06	0	57	0	469762048	50	5506
2026-01-09 01:35:44.29	278.10	17.65	-39.9	-42.9	14.4	3.00e-06	0	56	0	470810624	50	5347
2026-01-09 01:35:45.30	277.90	17.59	-39.8	-42.7	14.6	7.00e-07	0	56	0	472907776	50	5261
2026-01-09 01:35:46.31	277.70	17.53	-39.7	-42.6	14.7	7.00e-07	0	56	0	475004928	50	5182
2026-01-09 01:35:47.33	277.50	17.46	-39.5	-42.2	15.1	0.00e+00	0	56	0	477102080	50	4948
2026-01-09 01:35:48.34	277.30	17.40	-39.3	-41.9	15.4	0.00e+00	0	56	0	479199232	50	4805
2026-01-09 01:35:49.35	277.11	17.34	-39.3	-41.9	15.4	0.00e+00	0	56	0	480247808	50	4779
2026-01-09 01:35:50.36	276.91	17.27	-39.3	-41.9	15.4	0.00e+00	0	56	0	482344960	50	4795
2026-01-09 01:35:51.36	276.72	17.21	-39.5	-42.2	15.0	0.00e+00	0	56	0	484442112	50	4977
2026-01-09 01:35:52.37	276.53	17.15	-39.8	-42.8	14.5	7.00e-07	0	56	0	486539264	50	5299
2026-01-09 01:35:53.38	276.33	17.08	-40.1	-43.3	14.0	0.00e+00	0	56	0	488636416	50	5602
2026-01-09 01:35:54.39	276.14	17.02	-40.3	-43.6	13.7	7.60e-06	0	56	0	489684992	51	5476
2026-01-09 01:35:55.40	275.95	16.95	-40.5	-44.0	13.3	9.90e-06	0	56	0	491782144	51	5772
2026-01-09 01:35:56.41	275.76	16.89	-40.6	-44.3	12.8	5.03e-05	0	56	0	493879296	52	5656
2026-01-09 01:35:57.42	275.57	16.82	-40.7	-44.5	12.7	4.27e-05	0	56	0	495976448	52	5757
2026-01-09 01:35:58.43	275.38	16.76	-40.6	-44.2	12.9	6.63e-05	0	56	0	498073600	52	5586
2026-01-09 01:35:59.44	275.19	16.69	-40.4	-43.9	13.3	2.44e-05	0	56	0	500170752	52	5387
2026-01-09 01:36:00.44	275.01	16.63	-40.4	-43.8	13.4	3.50e-05	0	56	0	501219328	52	5306
2026-01-09 01:36:01.45	274.82	16.56	-40.2	-43.5	13.7	9.90e-06	0	56	0	503316480	52	5115
2026-01-09 01:36:02.46	274.64	16.50	-40.2	-43.5	13.6	2.20e-06	0	56	0	505413632	52	5140
2026-01-09 01:36:03.47	274.45	16.43	-40.1	-43.4	13.8	4.50e-06	0	56	0	507510784	52	5086
2026-01-09 01:36:04.48	274.27	16.36	-40.0	-43.1	14.0	0.00e+00	0	56	0	509607936	52	4915
2026-01-09 01:36:05.49	274.08	16.30	-39.9	-43.0	14.2	2.20e-06	0	56	0	510656512	51	5133
2026-01-09 01:36:06.50	273.90	16.23	-40.0	-43.2	14.1	2.20e-06	0	56	0	512753664	51	5219
2026-01-09 01:36:07.51	273.72	16.17	-39.9	-42.8	14.4	7.00e-07	0	56	0	514850816	51	5037
2026-01-09 01:36:08.52	273.54	16.10	-39.9	-42.9	14.4	7.00e-07	0	56	0	516947968	51	5097
2026-01-09 01:36:09.53	273.36	16.03	-39.9	-42.9	14.4	0.00e+00	0	57	0	519045120	51	5060
2026-01-09 01:36:10.54	273.18	15.97	-39.9	-42.9	14.3	7.00e-07	0	56	0	520093696	51	5100
2026-01-09 01:36:11.55	273.00	15.90	-40.0	-43.1	14.1	0.00e+00	0	56	0	522190848	51	5207
2026-01-09 01:36:12.56	272.82	15.83	-40.2	-43.4	13.9	1.50e-06	0	56	0	524288000	51	5382
2026-01-09 01:36:13.57	272.65	15.77	-40.4	-43.7	13.5	9.90e-06	0	56	0	526385152	51	5591
2026-01-09 01:36:14.58	272.47	15.70	-40.5	-44.0	13.2	9.90e-06	0	56	0	528482304	51	5768
2026-01-09 01:36:15.59	272.30	15.63	-40.6	-44.2	13.0	2.51e-05	0	56	0	529530880	51	5874
2026-01-09 01:36:16.60	272.12	15.56	-40.5	-44.0	13.2	3.66e-05	0	56	0	531628032	51	5777
2026-01-09 01:36:17.61	271.95	15.50	-40.4	-43.8	13.4	1.98e-05	0	56	0	533725184	51	5654
2026-01-09 01:36:18.61	271.78	15.43	-40.3	-43.6	13.6	3.80e-06	0	56	0	535822336	51	5492
2026-01-09 01:36:19.62	271.61	15.36	-40.2	-43.4	13.9	5.30e-06	0	56	0	537919488	51	5341
2026-01-09 01:36:20.63	271.43	15.30	-40.0	-43.1	14.1	5.30e-06	0	56	0	538968064	51	5189
2026-01-09 01:36:21.64	271.26	15.23	-40.0	-43.0	14.2	7.00e-07	0	57	0	541065216	51	5158
2026-01-09 01:36:22.65	271.09	15.16	-40.0	-43.1	14.2	7.00e-07	0	56	0	543162368	51	5174
2026-01-09 01:36:23.66	270.93	15.09	-40.0	-43.0	14.2	1.50e-06	0	56	0	545259520	51	5147
2026-01-09 01:36:24.67	270.76	15.02	-40.3	-43.3	14.0	3.00e-06	0	56	0	547356672	51	5293
2026-01-09 01:36:25.68	270.59	14.96	-40.3	-43.4	13.9	6.10e-06	0	56	0	548405248	51	5356
2026-01-09 01:36:26.69	270.42	14.89	-40.5	-43.7	13.6	1.50e-06	0	56	0	550502400	51	5529
2026-01-09 01:36:27.69	270.26	14.82	-40.5	-43.6	13.6	9.90e-06	0	56	0	552599552	51	5523
2026-01-09 01:36:28.70	270.10	14.75	-40.6	-43.7	13.6	6.80e-06	0	56	0	554696704	51	5567
2026-01-09 01:36:29.72	269.93	14.69	-40.6	-43.8	13.5	9.90e-06	0	56	0	556793856	51	5607
2026-01-09 01:36:30.73	269.77	14.62	-40.5	-43.6	13.7	1.44e-05	0	56	0	557842432	51	5517
2026-01-09 01:36:31.73	269.60	14.55	-40.4	-43.5	13.8	7.60e-06	0	56	0	559939584	51	5411
2026-01-09 01:36:32.74	269.44	14.48	-40.2	-43.1	14.1	2.20e-06	0	56	0	562036736	51	5217
2026-01-09 01:36:33.75	269.28	14.41	-40.1	-42.9	14.4	0.00e+00	0	56	0	564133888	51	5076
2026-01-09 01:36:34.76	269.12	14.35	-39.9	-42.7	14.6	0.00e+00	0	56	0	566231040	51	4933
2026-01-09 01:36:35.77	268.96	14.28	-39.8	-42.5	14.8	0.00e+00	0	56	0	568328192	51	4848
2026-01-09 01:36:36.78	268.80	14.21	-39.8	-42.5	14.8	0.00e+00	0	56	0	569376768	51	4829
2026-01-09 01:36:37.79	268.64	14.14	-39.9	-42.7	14.7	0.00e+00	0	56	0	571473920	51	4927
2026-01-09 01:36:38.80	268.49	14.07	-39.9	-42.7	14.6	0.00e+00	0	56	0	573571072	51	4935
2026-01-09 01:36:39.81	268.33	14.00	-39.8	-42.5	14.7	0.00e+00	0	56	0	575668224	51	4831
2026-01-09 01:36:40.82	268.17	13.94	-39.7	-42.4	14.9	0.00e+00	0	56	0	577765376	51	4764
2026-01-09 01:36:41.83	268.02	13.87	-39.7	-42.3	15.0	0.00e+00	0	56	0	578813952	51	4728
2026-01-09 01:36:42.84	267.86	13.80	-39.4	-41.9	15.4	0.00e+00	0	56	0	580911104	50	4775
2026-01-09 01:36:43.85	267.71	13.73	-39.2	-41.6	15.7	0.00e+00	0	56	0	583008256	50	4600
2026-01-09 01:36:44.86	267.56	13.66	-39.0	-41.3	15.9	0.00e+00	0	56	0	585105408	50	4486
2026-01-09 01:36:45.86	267.41	13.59	-39.0	-41.2	16.0	0.00e+00	0	56	0	587202560	50	4441
2026-01-09 01:36:46.87	267.25	13.53	-39.0	-41.3	16.0	0.00e+00	0	56	0	588251136	49	4715
2026-01-09 01:36:47.88	267.10	13.46	-39.1	-41.5	15.8	0.00e+00	0	56	0	590348288	49	4819
2026-01-09 01:36:48.89	266.95	13.39	-39.1	-41.5	15.7	0.00e+00	0	56	0	592445440	49	4843
2026-01-09 01:36:49.90	266.80	13.32	-39.2	-41.5	15.7	0.00e+00	0	56	0	594542592	49	4870
2026-01-09 01:36:50.91	266.65	13.25	-39.3	-41.8	15.4	0.00e+00	0	56	0	596639744	49	5000
2026-01-09 01:36:51.92	266.51	13.18	-39.5	-42.0	15.2	0.00e+00	0	56	0	597688320	49	5135
2026-01-09 01:36:52.93	266.36	13.12	-39.6	-42.2	15.1	0.00e+00	0	56	0	599785472	49	5222
2026-01-09 01:36:53.94	266.21	13.05	-39.8	-42.5	14.8	0.00e+00	0	56	0	601882624	50	5131
2026-01-09 01:36:54.95	266.07	12.98	-39.9	-42.7	14.5	2.20e-06	0	56	0	603979776	50	5271
2026-01-09 01:36:55.96	265.92	12.91	-40.0	-42.8	14.5	0.00e+00	0	56	0	606076928	50	5304
2026-01-09 01:36:56.96	265.78	12.84	-40.0	-42.8	14.5	0.00e+00	0	56	0	607125504	50	5306
2026-01-09 01:36:57.98	265.63	12.77	-39.9	-42.7	14.6	7.00e-07	0	56	0	609222656	50	5231
2026-01-09 01:36:58.98	265.49	12.71	-39.8	-42.6	14.6	0.00e+00	0	56	0	611319808	50	5183
2026-01-09 01:37:00.00	265.34	12.64	-39.7	-42.3	14.9	7.00e-07	0	56	0	613416960	50	5019
2026-01-09 01:37:01.01	265.20	12.57	-39.5	-42.1	15.1	0.00e+00	0	56	0	615514112	50	4908
2026-01-09 01:37:02.02	265.06	12.50	-39.3	-41.7	15.4	0.00e+00	0	56	0	616562688	50	4698
2026-01-09 01:37:03.02	264.92	12.43	-39.3	-41.7	15.5	0.00e+00	0	56	0	618659840	50	4688
2026-01-09 01:37:04.03	264.78	12.36	-39.2	-41.7	15.5	0.00e+00	0	56	0	620756992	50	4669
2026-01-09 01:37:05.04	264.64	12.30	-39.2	-41.6	15.6	0.00e+00	0	56	0	622854144	50	4625
2026-01-09 01:37:06.05	264.50	12.23	-39.2	-41.6	15.5	0.00e+00	0	56	0	624951296	50	4648
2026-01-09 01:37:07.06	264.37	12.16	-39.3	-41.8	15.3	0.00e+00	0	56	0	625999872	50	4759
2026-01-09 01:37:08.07	264.23	12.09	-39.5	-42.0	15.1	0.00e+00	0	57	0	628097024	50	4867
2026-01-09 01:37:09.08	264.09	12.02	-39.7	-42.3	14.9	0.00e+00	0	56	0	630194176	50	5023
2026-01-09 01:37:10.09	263.95	11.96	-39.8	-42.6	14.6	0.00e+00	0	56	0	632291328	50	5163
2026-01-09 01:37:11.10	263.82	11.89	-39.9	-42.8	14.4	1.50e-06	0	56	0	634388480	50	5295
2026-01-09 01:37:12.11	263.68	11.82	-40.0	-42.8	14.3	0.00e+00	0	56	0	636485632	50	5315
2026-01-09 01:37:13.11	263.55	11.75	-40.1	-43.1	14.1	2.20e-06	0	56	0	637534208	50	5493
2026-01-09 01:37:14.12	263.42	11.68	-40.3	-43.3	13.8	3.80e-06	0	56	0	639631360	51	5313
2026-01-09 01:37:15.12	263.29	11.62	-40.3	-43.4	13.7	5.30e-06	0	57	0	641728512	51	5400
2026-01-09 01:37:16.13	263.15	11.55	-40.3	-43.5	13.6	6.80e-06	0	57	0	643825664	51	5432
2026-01-09 01:37:17.14	263.02	11.48	-40.4	-43.5	13.6	1.22e-05	0	56	0	644874240	51	5456
2026-01-09 01:37:18.15	262.89	11.41	-40.3	-43.5	13.6	7.60e-06	0	56	0	646971392	51	5427
2026-01-09 01:37:19.16	262.76	11.35	-40.3	-43.5	13.7	5.30e-06	0	56	0	649068544	51	5408
2026-01-09 01:37:20.17	262.63	11.28	-40.3	-43.5	13.6	8.30e-06	0	56	0	651165696	51	5441
2026-01-09 01:37:21.18	262.50	11.21	-40.0	-43.0	14.1	7.00e-07	0	56	0	653262848	51	5125
2026-01-09 01:37:22.19	262.37	11.14	-39.9	-42.8	14.3	0.00e+00	0	56	0	654311424	51	5003
2026-01-09 01:37:23.20	262.24	11.07	-39.8	-42.6	14.5	1.50e-06	0	56	0	656408576	51	4889
2026-01-09 01:37:24.21	262.12	11.01	-39.6	-42.2	14.9	7.00e-07	0	57	0	658505728	51	4668
2026-01-09 01:37:25.22	261.99	10.94	-39.4	-42.0	15.1	0.00e+00	0	56	0	660602880	50	4845
2026-01-09 01:37:26.23	261.86	10.87	-39.4	-42.0	15.1	0.00e+00	0	57	0	662700032	50	4819
2026-01-09 01:37:27.24	261.74	10.80	-39.3	-41.8	15.3	0.00e+00	0	57	0	664797184	50	4749
2026-01-09 01:37:28.24	261.61	10.74	-39.3	-41.8	15.3	0.00e+00	0	56	0	665845760	50	4713
2026-01-09 01:37:29.25	261.49	10.67	-39.5	-42.1	15.0	0.00e+00	0	56	0	667942912	50	4910
2026-01-09 01:37:30.26	261.36	10.60	-39.6	-42.3	14.8	7.00e-07	0	56	0	670040064	50	5028
2026-01-09 01:37:31.27	261.24	10.54	-39.9	-42.7	14.4	0.00e+00	0	56	0	672137216	50	5258
2026-01-09 01:37:32.28	261.12	10.47	-40.1	-43.1	13.9	3.00e-06	0	57	0	674234368	50	5516
2026-01-09 01:37:33.29	260.99	10.40	-40.3	-43.4	13.7	2.20e-06	0	56	0	675282944	51	5349
2026-01-09 01:37:34.30	260.87	10.34	-40.4	-43.6	13.4	1.83e-05	0	56	0	677380096	51	5499
2026-01-09 01:37:35.31	260.75	10.27	-40.5	-43.8	13.2	2.36e-05	0	56	0	679477248	51	5607
2026-01-09 01:37:36.32	260.63	10.20	-40.5	-43.8	13.2	1.75e-05	0	57	0	681574400	51	5648
2026-01-09 01:37:37.33	260.51	10.13	-40.5	-43.9	13.2	2.97e-05	0	56	0	683671552	51	5662
2026-01-09 01:37:38.34	260.39	10.07	-40.6	-43.9	13.1	2.59e-05	0	57	0	684720128	51	5716
2026-01-09 01:37:39.35	260.27	10.00	-40.2	-43.4	13.7	2.28e-05	0	56	0	686817280	51	5345
2026-01-09 01:37:40.36	260.15	9.93	-40.2	-43.2	13.8	3.80e-06	0	56	0	688914432	51	5277
2026-01-09 01:37:41.37	260.04	9.87	-40.2	-43.2	13.8	7.60e-06	0	56	0	691011584	51	5279
2026-01-09 01:37:42.38	259.92	9.80	-40.1	-43.2	13.9	7.00e-07	0	57	0	693108736	51	5220
2026-01-09 01:37:43.39	259.80	9.73	-40.1	-43.2	13.8	4.50e-06	0	56	0	694157312	51	5235
2026-01-09 01:37:44.40	259.69	9.67	-40.2	-43.3	13.7	6.80e-06	0	56	0	696254464	51	5312
2026-01-09 01:37:45.41	259.57	9.60	-40.3	-43.4	13.6	6.80e-06	0	56	0	698351616	51	5379
2026-01-09 01:37:46.42	259.46	9.54	-40.2	-43.4	13.7	6.80e-06	0	57	0	700448768	51	5349
2026-01-09 01:37:47.43	259.34	9.47	-40.3	-43.5	13.5	1.52e-05	0	57	0	702545920	51	5450
2026-01-09 01:37:48.44	259.23	9.40	-40.4	-43.7	13.3	1.67e-05	0	56	0	703594496	51	5572
2026-01-09 01:37:49.45	259.11	9.34	-40.3	-43.6	13.5	1.83e-05	0	57	0	705691648	51	5477
2026-01-09 01:37:50.46	259.00	9.27	-40.5	-43.8	13.1	1.67e-05	0	56	0	707788800	51	5651
2026-01-09 01:37:51.47	258.89	9.21	-40.5	-43.8	13.1	2.28e-05	0	56	0	709885952	51	5645
2026-01-09 01:37:52.47	258.78	9.14	-40.5	-43.9	13.1	1.83e-05	0	56	0	711983104	51	5688
2026-01-09 01:37:53.48	258.66	9.07	-40.6	-43.9	13.0	3.28e-05	0	57	0	713031680	51	5720
2026-01-09 01:37:54.49	258.55	9.01	-40.6	-44.0	13.0	3.81e-05	0	56	0	715128832	51	5725
2026-01-09 01:37:55.51	258.44	8.94	-40.5	-43.9	12.9	6.33e-05	0	57	0	717225984	52	5402
2026-01-09 01:37:56.51	258.33	8.88	-40.7	-44.2	12.7	5.49e-05	0	57	0	719323136	52	5559
2026-01-09 01:37:57.52	258.22	8.81	-40.8	-44.4	12.5	9.00e-05	0	57	0	721420288	52	5668
2026-01-09 01:37:58.53	258.12	8.75	-40.7	-44.2	12.6	7.09e-05	0	57	0	722468864	52	5586
2026-01-09 01:37:59.54	258.01	8.68	-40.8	-44.5	12.4	9.91e-05	0	56	0	724566016	52	5745
2026-01-09 01:38:00.55	257.90	8.62	-40.8	-44.5	12.4	1.43e-04	0	56	0	726663168	52	5740
2026-01-09 01:38:01.56	257.79	8.55	-40.8	-44.5	12.4	1.30e-04	0	56	0	728760320	52	5741
2026-01-09 01:38:02.57	257.68	8.49	-40.8	-44.5	12.3	1.23e-04	0	57	0	730857472	52	5782
2026-01-09 01:38:03.58	257.58	8.42	-40.8	-44.5	12.4	1.46e-04	0	56	0	732954624	52	5732
2026-01-09 01:38:04.59	257.47	8.36	-40.7	-44.3	12.6	1.28e-04	0	56	0	734003200	52	5596
2026-01-09 01:38:05.60	257.37	8.29	-40.7	-44.2	12.6	7.55e-05	0	56	0	736100352	52	5564
2026-01-09 01:38:06.61	257.26	8.23	-40.7	-44.3	12.5	9.99e-05	0	56	0	738197504	52	5631
2026-01-09 01:38:07.62	257.16	8.16	-40.5	-43.9	12.9	7.78e-05	0	56	0	740294656	52	5368
2026-01-09 01:38:08.63	257.05	8.10	-40.6	-44.2	12.6	4.19e-05	0	56	0	742391808	52	5569
2026-01-09 01:38:09.64	256.95	8.03	-40.7	-44.4	12.5	1.16e-04	0	56	0	743440384	52	5664
2026-01-09 01:38:10.65	256.85	7.97	-43.8	-55.5	4.0	2.78e-04	0	57	0	745537536	58	14410
2026-01-09 01:38:11.66	256.74	7.90	-44.3	-58.6	3.8	1.49e+00	0	57	104	745537536	59	19545
2026-01-09 01:38:12.67	256.64	7.84	-44.5	-58.8	3.8	1.49e+00	0	56	104	745537536	59	20020
2026-01-09 01:38:13.68	256.54	7.77	-44.7	-59.0	3.8	1.49e+00	0	57	104	745537536	59	20435
2026-01-09 01:38:14.69	256.44	7.71	-44.7	-59.2	3.8	1.49e+00	0	57	104	745537536	60	19750
2026-01-09 01:38:15.70	256.34	7.64	-44.8	-59.3	3.8	1.49e+00	0	56	104	745537536	60	19903
2026-01-09 01:38:16.71	256.24	7.58	-44.8	-59.3	3.8	1.49e+00	0	57	104	745537536	60	20030
2026-01-09 01:38:17.72	256.14	7.52	-44.8	-59.3	3.8	1.49e+00	0	57	104	745537536	60	20037
2026-01-09 01:38:18.73	256.04	7.45	-44.9	-59.4	3.8	1.49e+00	0	56	104	745537536	60	20142
2026-01-09 01:38:19.74	255.94	7.39	-44.9	-59.4	3.8	1.49e+00	0	57	104	745537536	60	20139
2026-01-09 01:38:20.75	255.84	7.33	-44.9	-59.4	3.8	1.49e+00	0	57	104	745537536	60	20131
2026-01-09 01:38:21.76	255.74	7.26	-44.8	-59.3	3.8	1.49e+00	0	56	104	745537536	60	19922
2026-01-09 01:38:22.77	255.64	7.20	-44.8	-59.3	3.8	1.49e+00	0	56	104	745537536	60	19909
2026-01-09 01:38:23.78	255.55	7.13	-44.8	-59.3	3.8	1.49e+00	0	56	104	745537536	60	19912
2026-01-09 01:38:24.79	255.45	7.07	-44.8	-59.3	3.8	1.49e+00	0	57	104	745537536	60	19880
2026-01-09 01:38:25.80	255.35	7.01	-44.8	-59.3	3.8	1.49e+00	0	57	104	745537536	60	19858
2026-01-09 01:38:26.81	255.26	6.94	-44.8	-59.3	3.8	1.49e+00	0	56	104	745537536	60	19883
2026-01-09 01:38:27.82	255.16	6.88	-44.8	-59.2	3.8	1.49e+00	0	56	104	745537536	60	19804
2026-01-09 01:38:28.83	255.07	6.82	-44.8	-59.2	3.8	1.49e+00	0	56	104	745537536	60	19838
2026-01-09 01:38:29.84	254.97	6.75	-44.8	-59.2	3.8	1.49e+00	0	57	104	745537536	60	19781
2026-01-09 01:38:30.85	254.88	6.69	-44.7	-59.2	3.8	1.49e+00	0	57	104	745537536	60	19769
2026-01-09 01:38:31.86	254.78	6.63	-44.8	-59.2	3.8	1.49e+00	0	57	104	745537536	60	19743
2026-01-09 01:38:32.87	254.69	6.57	-44.8	-59.2	3.8	1.49e+00	0	57	104	745537536	60	19807
2026-01-09 01:38:33.88	254.60	6.50	-44.8	-59.2	3.8	1.49e+00	0	57	104	745537536	60	19820
2026-01-09 01:38:34.89	254.50	6.44	-44.7	-59.2	3.8	1.49e+00	0	56	104	745537536	60	19799
2026-01-09 01:38:35.91	254.41	6.38	-44.7	-59.2	3.8	1.49e+00	0	57	104	745537536	60	19803
2026-01-09 01:38:36.92	254.32	6.32	-44.7	-59.2	3.8	1.49e+00	0	57	104	745537536	60	19836
2026-01-09 01:38:37.93	254.23	6.25	-44.8	-59.2	3.8	1.49e+00	0	57	104	745537536	60	19752
2026-01-09 01:38:38.94	254.14	6.19	-44.7	-59.2	3.8	1.49e+00	0	57	104	745537536	60	19779
2026-01-09 01:38:39.95	254.04	6.13	-44.7	-59.2	3.8	1.49e+00	0	57	104	745537536	60	19756
2026-01-09 01:38:40.96	253.95	6.07	-44.7	-59.2	3.8	1.49e+00	0	57	104	745537536	60	19802
2026-01-09 01:38:41.97	253.86	6.00	-44.7	-59.2	3.8	1.49e+00	0	57	104	745537536	60	19779
2026-01-09 01:38:42.98	253.78	5.94	-44.7	-59.2	3.8	1.49e+00	0	57	104	745537536	60	19696
2026-01-09 01:38:43.99	253.69	5.88	-44.7	-59.2	3.8	1.49e+00	0	56	104	745537536	60	19783
2026-01-09 01:38:45.00	253.60	5.82	-44.7	-59.2	3.8	1.49e+00	0	56	104	745537536	60	19756
2026-01-09 01:38:46.01	253.51	5.76	-44.7	-59.2	3.8	1.49e+00	0	57	104	745537536	60	19728
2026-01-09 01:38:47.02	253.42	5.69	-44.7	-59.2	3.8	1.49e+00	0	57	104	745537536	60	19739
2026-01-09 01:38:48.04	253.33	5.63	-44.7	-59.2	3.8	1.49e+00	0	57	104	745537536	60	19794
2026-01-09 01:38:49.05	253.25	5.57	-44.7	-59.2	3.8	1.49e+00	0	56	104	745537536	60	19781
2026-01-09 01:38:50.06	253.16	5.51	-44.7	-59.2	3.8	1.49e+00	0	56	104	745537536	60	19781
2026-01-09 01:38:51.07	253.07	5.45	-44.7	-59.2	3.8	1.49e+00	0	56	104	745537536	60	19759
2026-01-09 01:38:52.08	252.99	5.39	-44.7	-59.2	3.8	1.49e+00	0	57	104	745537536	60	19770
2026-01-09 01:38:53.09	252.90	5.33	-44.7	-59.2	3.8	1.49e+00	0	56	104	745537536	60	19763
2026-01-09 01:38:54.10	252.82	5.26	-44.7	-59.2	3.8	1.49e+00	0	57	104	745537536	60	19756
2026-01-09 01:38:55.11	252.73	5.20	-44.7	-59.2	3.8	1.49e+00	0	56	104	745537536	60	19744
2026-01-09 01:38:56.12	252.65	5.14	-44.7	-59.2	3.8	1.49e+00	0	56	104	745537536	60	19723
2026-01-09 01:38:57.13	252.56	5.08	-44.7	-59.2	3.8	1.49e+00	0	57	104	745537536	60	19731
2026-01-09 01:38:58.14	252.48	5.02	-44.7	-59.2	3.8	1.49e+00	0	57	104	745537536	60	19695
2026-01-09 01:38:59.15	252.39	4.96	-44.7	-59.2	3.8	1.49e+00	0	56	104	745537536	60	19731
2026-01-09 01:39:00.16	252.31	4.90	-44.7	-59.2	3.8	1.49e+00	0	56	104	745537536	60	19721
2026-01-09 01:39:01.17	252.23	4.84	-44.7	-59.2	3.8	1.49e+00	0	57	104	745537536	60	19754
2026-01-09 01:39:02.18	252.15	4.78	-44.7	-59.2	3.8	1.49e+00	0	57	104	745537536	60	19764
2026-01-09 01:39:03.19	252.06	4.72	-44.7	-59.2	3.8	1.49e+00	0	56	104	745537536	60	19741
2026-01-09 01:39:04.21	251.98	4.66	-44.7	-59.2	3.8	1.49e+00	0	56	104	745537536	60	19704
2026-01-09 01:39:05.22	251.90	4.60	-44.7	-59.2	3.8	1.49e+00	0	56	104	745537536	60	19786
2026-01-09 01:39:06.23	251.82	4.54	-44.7	-59.2	3.8	1.49e+00	0	57	104	745537536	60	19694
2026-01-09 01:39:07.24	251.74	4.48	-44.7	-59.2	3.8	1.49e+00	0	57	104	745537536	60	19722
2026-01-09 01:39:08.25	251.66	4.42	-44.7	-59.2	3.8	1.49e+00	0	56	104	745537536	60	19703
2026-01-09 01:39:09.26	251.58	4.36	-44.7	-59.2	3.8	1.49e+00	0	56	104	745537536	60	19715
2026-01-09 01:39:10.27	251.50	4.30	-44.7	-59.2	3.8	1.49e+00	0	56	104	745537536	60	19700
2026-01-09 01:39:11.28	251.42	4.24	-44.7	-59.2	3.8	1.49e+00	0	56	104	745537536	60	19723
2026-01-09 01:39:12.29	251.34	4.18	-44.7	-59.2	3.8	1.49e+00	0	57	104	745537536	60	19693
2026-01-09 01:39:13.30	251.26	4.12	-44.7	-59.2	3.8	1.49e+00	0	57	104	745537536	60	19680
