passes_logs/2026/01/09/R2.0S_Moscow/R2.0S_Moscow__20260109_154514_FENGYUN_3E_rec.log

#Pass ID: 20260109_154514_FENGYUN 3E
#Satellite: FENGYUN 3E
#Configuration: FENGYUN 3E
#almurnet v.1.7.20251203
#Start time: 2026-01-09 15:45:14

#Version: 2.2.20231116
#Station: R2.0S_Moscow
#Location: 37.707566 lon 55.798166 lat
#TLE: 1 49008U 21062A   26008.59312205 -.00000223  00000+0 -84486-4 0  9997
#TLE: 2 49008  98.7483  13.7961 0001692 149.3118 210.8157 14.19883502233939

#Time	Az	El	Level	Level2	SNR	BER	BlckErr	Temp	State	Recorded	gain1	gain2
2026-01-09 15:45:14.87	207.80	2.02	-43.9	-54.9	3.8	8.45e-01	0	47	0	0	58	12784
2026-01-09 15:45:15.89	207.88	2.08	-43.9	-55.0	3.8	8.47e-01	0	47	104	0	58	12844
2026-01-09 15:45:16.90	207.95	2.13	-43.9	-55.0	3.8	8.46e-01	0	47	104	0	58	12837
2026-01-09 15:45:17.91	208.02	2.19	-43.9	-55.0	3.8	8.46e-01	0	47	104	0	58	12817
2026-01-09 15:45:18.92	208.10	2.24	-43.9	-55.0	3.8	8.46e-01	0	47	104	0	58	12813
2026-01-09 15:45:19.93	208.17	2.30	-43.9	-55.0	3.8	8.45e-01	0	47	104	0	58	12834
2026-01-09 15:45:20.94	208.25	2.35	-43.9	-55.0	3.8	8.46e-01	0	47	104	0	58	12865
2026-01-09 15:45:21.95	208.32	2.41	-43.9	-55.0	3.8	8.47e-01	0	47	104	0	58	12845
2026-01-09 15:45:22.96	208.40	2.47	-43.9	-54.9	3.8	8.47e-01	0	47	104	0	58	12801
2026-01-09 15:45:23.97	208.47	2.52	-43.9	-54.9	3.8	8.47e-01	0	47	104	0	58	12784
2026-01-09 15:45:24.99	208.55	2.58	-43.9	-54.9	3.8	8.46e-01	0	47	104	0	58	12800
2026-01-09 15:45:26.00	208.62	2.63	-43.9	-54.9	3.8	8.46e-01	0	47	104	0	58	12790
2026-01-09 15:45:27.01	208.70	2.69	-43.9	-55.0	3.8	8.46e-01	0	47	104	0	58	12826
2026-01-09 15:45:28.02	208.78	2.75	-43.9	-55.0	3.8	8.46e-01	0	48	104	0	58	12828
2026-01-09 15:45:29.03	208.85	2.80	-43.9	-54.9	3.8	8.46e-01	0	48	104	0	58	12791
2026-01-09 15:45:30.04	208.93	2.86	-43.9	-54.9	3.8	8.46e-01	0	48	104	0	58	12792
2026-01-09 15:45:31.05	209.01	2.92	-43.9	-55.0	3.8	8.47e-01	0	48	104	0	58	12819
2026-01-09 15:45:32.06	209.08	2.97	-43.9	-55.0	3.8	8.46e-01	0	48	104	0	58	12813
2026-01-09 15:45:33.07	209.16	3.03	-43.9	-54.9	3.8	8.46e-01	0	48	104	0	58	12761
2026-01-09 15:45:34.08	209.24	3.09	-43.9	-54.9	3.8	8.46e-01	0	48	104	0	58	12767
2026-01-09 15:45:35.09	209.32	3.14	-43.9	-54.9	3.8	8.46e-01	0	48	104	0	58	12797
2026-01-09 15:45:36.11	209.40	3.20	-43.9	-55.0	3.8	8.46e-01	0	48	104	0	58	12835
2026-01-09 15:45:37.12	209.48	3.26	-43.9	-54.9	3.8	8.47e-01	0	48	104	0	58	12800
2026-01-09 15:45:38.13	209.55	3.31	-43.9	-54.9	3.8	8.47e-01	0	48	104	0	58	12800
2026-01-09 15:45:39.14	209.63	3.37	-43.9	-54.9	3.8	8.46e-01	0	48	104	0	58	12786
2026-01-09 15:45:40.15	209.71	3.43	-43.9	-54.9	3.8	8.45e-01	0	48	104	0	58	12788
2026-01-09 15:45:41.16	209.79	3.49	-43.9	-54.9	3.8	8.46e-01	0	48	104	0	58	12790
2026-01-09 15:45:42.17	209.87	3.54	-43.9	-54.9	3.8	8.46e-01	0	49	104	0	58	12759
2026-01-09 15:45:43.18	209.95	3.60	-43.9	-54.9	3.8	8.47e-01	0	49	104	0	58	12775
2026-01-09 15:45:44.19	210.04	3.66	-43.9	-55.0	3.8	8.46e-01	0	49	104	0	58	12855
2026-01-09 15:45:45.20	210.12	3.72	-43.9	-55.0	3.8	8.46e-01	0	49	104	0	58	12813
2026-01-09 15:45:46.21	210.20	3.77	-43.9	-54.9	3.8	8.47e-01	0	49	104	0	58	12775
2026-01-09 15:45:47.23	210.28	3.83	-43.9	-54.9	3.8	8.46e-01	0	49	104	0	58	12742
2026-01-09 15:45:48.24	210.36	3.89	-43.9	-55.0	3.8	8.46e-01	0	49	104	0	58	12817
2026-01-09 15:45:49.25	210.45	3.95	-43.9	-54.9	3.8	8.46e-01	0	49	104	0	58	12745
2026-01-09 15:45:50.26	210.53	4.01	-43.9	-54.9	3.8	8.45e-01	0	49	104	0	57	13510
2026-01-09 15:45:51.27	210.61	4.06	-43.9	-54.9	3.8	8.45e-01	0	49	104	0	57	13565
2026-01-09 15:45:52.28	210.69	4.12	-43.9	-54.9	3.8	8.45e-01	0	49	104	0	57	13533
2026-01-09 15:45:53.29	210.78	4.18	-43.9	-54.9	3.8	8.46e-01	0	49	104	0	57	13528
2026-01-09 15:45:54.30	210.86	4.24	-43.9	-54.9	3.8	8.46e-01	0	49	104	0	57	13530
2026-01-09 15:45:55.31	210.95	4.30	-43.9	-54.9	3.8	8.46e-01	0	50	104	0	57	13516
2026-01-09 15:45:56.33	211.03	4.36	-43.9	-54.9	3.8	8.47e-01	0	50	104	0	57	13530
2026-01-09 15:45:57.34	211.12	4.41	-43.9	-54.9	3.8	8.46e-01	0	49	104	0	57	13493
2026-01-09 15:45:58.35	211.20	4.47	-43.9	-54.9	3.8	8.46e-01	0	50	104	0	57	13459
2026-01-09 15:45:59.36	211.29	4.53	-43.9	-54.9	3.8	8.46e-01	0	50	104	0	57	13428
2026-01-09 15:46:00.37	211.37	4.59	-43.9	-54.9	3.8	8.46e-01	0	50	104	0	57	13443
2026-01-09 15:46:01.38	211.46	4.65	-43.9	-54.9	3.8	8.47e-01	0	50	104	0	57	13470
2026-01-09 15:46:02.38	211.55	4.71	-43.9	-54.8	3.8	8.47e-01	0	50	104	0	57	13341
2026-01-09 15:46:03.39	211.63	4.77	-43.9	-54.8	3.8	8.46e-01	0	50	104	0	57	13294
2026-01-09 15:46:04.40	211.72	4.83	-43.9	-54.7	3.8	8.46e-01	0	50	104	0	57	13121
2026-01-09 15:46:05.42	211.81	4.89	-43.8	-54.7	3.8	8.47e-01	0	50	104	0	57	13171
2026-01-09 15:46:06.43	211.90	4.94	-43.8	-54.7	3.8	8.46e-01	0	50	104	0	57	13231
2026-01-09 15:46:07.44	211.99	5.00	-43.9	-54.8	3.8	8.47e-01	0	50	104	0	57	13301
2026-01-09 15:46:08.45	212.07	5.06	-43.9	-54.8	3.8	8.46e-01	0	50	104	0	57	13321
2026-01-09 15:46:09.46	212.16	5.12	-43.9	-54.8	3.8	8.46e-01	0	50	104	0	57	13296
2026-01-09 15:46:10.47	212.25	5.18	-43.8	-54.8	3.8	8.47e-01	0	50	104	0	57	13402
2026-01-09 15:46:11.48	212.34	5.24	-43.9	-54.9	3.8	8.47e-01	0	51	104	0	57	13434
2026-01-09 15:46:12.49	212.43	5.30	-43.9	-54.9	3.8	8.46e-01	0	50	104	0	57	13486
2026-01-09 15:46:13.50	212.52	5.36	-43.9	-54.9	3.8	8.45e-01	0	51	104	0	57	13527
2026-01-09 15:46:14.51	212.61	5.42	-43.9	-54.9	3.8	8.46e-01	0	51	104	0	57	13458
2026-01-09 15:46:15.52	212.70	5.48	-43.9	-54.8	3.8	8.47e-01	0	51	104	0	57	13403
2026-01-09 15:46:16.54	212.80	5.54	-43.9	-54.8	3.8	8.45e-01	0	50	104	0	57	13409
2026-01-09 15:46:17.55	212.89	5.60	-43.9	-54.8	3.8	8.45e-01	0	51	104	0	57	13400
2026-01-09 15:46:18.55	212.98	5.66	-43.9	-54.9	3.8	8.47e-01	0	51	104	0	57	13430
2026-01-09 15:46:19.57	213.07	5.72	-43.9	-54.8	3.8	8.46e-01	0	51	104	0	57	13348
2026-01-09 15:46:20.58	213.17	5.78	-43.9	-54.9	3.8	8.45e-01	0	51	104	0	57	13424
2026-01-09 15:46:21.59	213.26	5.84	-43.8	-54.8	3.8	8.46e-01	0	51	104	0	57	13311
2026-01-09 15:46:22.60	213.35	5.90	-43.9	-54.8	3.8	8.46e-01	0	51	104	0	57	13336
2026-01-09 15:46:23.61	213.45	5.96	-43.9	-54.8	3.8	8.46e-01	0	51	104	0	57	13323
2026-01-09 15:46:24.62	213.54	6.02	-43.8	-54.8	3.8	8.47e-01	0	51	104	0	57	13336
2026-01-09 15:46:25.63	213.64	6.08	-43.8	-54.8	3.8	8.46e-01	0	51	104	0	57	13271
2026-01-09 15:46:26.64	213.73	6.15	-43.9	-54.8	3.8	8.46e-01	0	51	104	0	57	13316
2026-01-09 15:46:27.66	213.83	6.21	-43.9	-54.7	3.8	8.48e-01	0	51	104	0	57	13199
2026-01-09 15:46:28.67	213.93	6.27	-43.8	-54.7	3.8	8.46e-01	0	51	104	0	57	13135
2026-01-09 15:46:29.68	214.02	6.33	-43.8	-54.6	3.8	8.46e-01	0	51	104	0	57	13053
2026-01-09 15:46:30.69	214.12	6.39	-43.8	-54.6	3.8	8.46e-01	0	51	104	0	57	13095
2026-01-09 15:46:31.70	214.22	6.45	-43.8	-54.6	3.8	8.47e-01	0	51	104	0	57	13075
2026-01-09 15:46:32.71	214.31	6.51	-43.8	-54.6	3.8	8.46e-01	0	52	104	0	57	13001
2026-01-09 15:46:33.72	214.41	6.57	-43.8	-54.5	3.8	8.45e-01	0	51	104	0	57	12948
2026-01-09 15:46:34.73	214.51	6.63	-43.8	-54.4	3.8	8.45e-01	0	52	104	0	57	12790
2026-01-09 15:46:35.75	214.61	6.70	-43.8	-54.5	3.8	8.46e-01	0	51	104	0	57	12899
2026-01-09 15:46:36.76	214.71	6.76	-43.8	-54.6	3.8	8.46e-01	0	52	104	0	57	13090
2026-01-09 15:46:37.77	214.81	6.82	-43.8	-54.7	3.8	8.46e-01	0	52	104	0	57	13114
2026-01-09 15:46:38.78	214.91	6.88	-43.8	-54.7	3.8	8.47e-01	0	52	104	0	57	13190
2026-01-09 15:46:39.79	215.01	6.94	-43.9	-54.8	3.8	8.46e-01	0	52	104	0	57	13261
2026-01-09 15:46:40.80	215.11	7.00	-43.9	-54.8	3.8	8.45e-01	0	52	104	0	57	13297
2026-01-09 15:46:41.81	215.21	7.07	-43.9	-54.8	3.8	8.46e-01	0	52	104	0	57	13313
2026-01-09 15:46:42.82	215.31	7.13	-43.8	-54.5	3.8	8.47e-01	0	52	104	0	57	12922
2026-01-09 15:46:43.83	215.41	7.19	-43.8	-54.2	3.8	8.47e-01	0	52	104	0	57	12426
2026-01-09 15:46:44.84	215.52	7.25	-43.7	-53.8	3.8	8.46e-01	0	52	104	0	57	11935
2026-01-09 15:46:45.85	215.62	7.31	-43.6	-52.8	3.9	8.46e-01	0	52	104	0	57	10566
2026-01-09 15:46:46.87	215.72	7.38	-43.5	-51.9	3.9	8.44e-01	0	52	104	0	57	9520
2026-01-09 15:46:47.88	215.83	7.44	-43.2	-50.6	4.4	8.31e-01	0	52	0	0	57	8216
2026-01-09 15:46:48.89	215.93	7.50	-42.9	-49.0	5.2	7.70e-01	0	52	0	0	56	7258
2026-01-09 15:46:49.90	216.04	7.57	-42.5	-47.7	6.1	4.09e-01	0	52	0	2097152	56	6246
2026-01-09 15:46:50.91	216.14	7.63	-41.9	-46.3	7.1	1.57e-01	0	52	0	9437184	54	5963
2026-01-09 15:46:51.92	216.25	7.69	-41.2	-44.8	8.6	4.73e-02	0	52	0	16777216	53	5311
2026-01-09 15:46:52.93	216.35	7.75	-40.6	-43.7	9.8	1.14e-02	0	52	0	24117248	52	4979
2026-01-09 15:46:53.94	216.46	7.82	-40.2	-43.0	10.6	4.31e-03	0	52	0	31457280	51	4822
2026-01-09 15:46:54.95	216.57	7.88	-39.4	-41.9	11.8	8.00e-04	0	52	0	38797312	49	4761
2026-01-09 15:46:55.96	216.67	7.94	-39.2	-41.5	12.2	2.97e-04	0	52	0	46137344	49	4581
2026-01-09 15:46:56.97	216.78	8.00	-38.9	-41.1	12.6	1.70e-04	0	52	0	53477376	48	4635
2026-01-09 15:46:57.98	216.89	8.07	-44.4	-55.4	3.8	8.46e-01	0	53	104	57671680	58	13510
2026-01-09 15:46:58.99	217.00	8.13	-41.9	-46.7	6.8	6.02e-03	0	53	0	59768832	53	6589
2026-01-09 15:47:00.00	217.11	8.19	-38.2	-40.1	13.7	1.10e-06	0	52	0	66060288	46	4650
2026-01-09 15:47:01.01	217.22	8.26	-42.1	-46.8	6.9	6.71e-02	0	52	0	73400320	53	6661
2026-01-09 15:47:02.02	217.33	8.32	-37.1	-38.8	15.0	0.00e+00	0	53	0	80740352	44	4447
2026-01-09 15:47:03.03	217.44	8.38	-37.1	-38.7	15.0	0.00e+00	0	52	0	88080384	44	4430
2026-01-09 15:47:04.04	217.55	8.45	-37.1	-38.7	15.1	0.00e+00	0	53	0	95420416	44	4421
2026-01-09 15:47:05.05	217.66	8.51	-37.0	-38.6	15.1	0.00e+00	0	53	0	102760448	44	4390
2026-01-09 15:47:06.06	217.77	8.57	-37.0	-38.6	15.2	0.00e+00	0	53	0	110100480	44	4373
2026-01-09 15:47:07.07	217.88	8.64	-37.0	-38.6	15.2	0.00e+00	0	53	0	117440512	44	4360
2026-01-09 15:47:08.09	218.00	8.70	-36.8	-38.4	15.5	0.00e+00	0	53	0	124780544	44	4254
2026-01-09 15:47:09.09	218.11	8.77	-36.9	-38.4	15.4	0.00e+00	0	53	0	132120576	44	4275
2026-01-09 15:47:10.11	218.23	8.83	-37.0	-38.6	15.3	0.00e+00	0	53	0	139460608	44	4357
2026-01-09 15:47:11.12	218.34	8.89	-36.9	-38.5	15.3	0.00e+00	0	53	0	146800640	44	4327
2026-01-09 15:47:12.13	218.45	8.96	-36.6	-38.1	15.8	0.00e+00	0	53	0	154140672	44	4103
2026-01-09 15:47:13.14	218.57	9.02	-36.6	-38.0	15.8	0.00e+00	0	53	0	161480704	44	4096
2026-01-09 15:47:14.15	218.69	9.09	-36.5	-38.0	15.7	0.00e+00	0	53	0	168820736	43	4327
2026-01-09 15:47:15.16	218.80	9.15	-36.4	-37.9	15.8	0.00e+00	0	53	0	176160768	43	4253
2026-01-09 15:47:16.17	218.92	9.21	-36.4	-37.9	15.8	0.00e+00	0	53	0	183500800	43	4271
2026-01-09 15:47:17.18	219.04	9.28	-36.5	-38.0	15.7	0.00e+00	0	53	0	190840832	43	4307
2026-01-09 15:47:18.20	219.15	9.34	-36.3	-37.7	16.0	0.00e+00	0	53	0	198180864	43	4193
2026-01-09 15:47:19.21	219.27	9.41	-36.3	-37.7	16.0	0.00e+00	0	53	0	205520896	43	4182
2026-01-09 15:47:20.22	219.39	9.47	-36.4	-37.9	15.9	0.00e+00	0	53	0	211812352	43	4251
2026-01-09 15:47:21.23	219.51	9.54	-36.3	-37.8	16.0	0.00e+00	0	53	0	220200960	43	4214
2026-01-09 15:47:22.24	219.63	9.60	-36.5	-38.0	15.7	0.00e+00	0	53	0	227540992	43	4332
2026-01-09 15:47:23.25	219.75	9.67	-36.5	-38.0	15.8	0.00e+00	0	53	0	233832448	43	4308
2026-01-09 15:47:24.26	219.87	9.73	-36.6	-38.1	15.7	0.00e+00	0	53	0	241172480	43	4351
2026-01-09 15:47:25.27	219.99	9.80	-36.5	-38.1	15.8	0.00e+00	0	53	0	248512512	43	4342
2026-01-09 15:47:26.28	220.11	9.86	-36.5	-38.0	15.8	0.00e+00	0	53	0	255852544	43	4299
2026-01-09 15:47:27.29	220.24	9.93	-36.5	-37.9	15.9	0.00e+00	0	53	0	263192576	43	4286
2026-01-09 15:47:28.31	220.36	9.99	-36.5	-38.1	15.8	0.00e+00	0	53	0	270532608	43	4342
2026-01-09 15:47:29.32	220.48	10.06	-36.5	-38.0	15.8	0.00e+00	0	53	0	277872640	43	4324
2026-01-09 15:47:30.33	220.61	10.12	-36.4	-37.9	15.9	0.00e+00	0	53	0	285212672	43	4275
2026-01-09 15:47:31.34	220.73	10.19	-36.5	-38.1	15.8	0.00e+00	0	53	0	292552704	43	4346
2026-01-09 15:47:32.35	220.86	10.25	-36.5	-38.0	15.9	0.00e+00	0	53	0	299892736	43	4304
2026-01-09 15:47:33.36	220.98	10.32	-36.4	-37.9	16.0	0.00e+00	0	54	0	307232768	43	4244
2026-01-09 15:47:34.37	221.11	10.38	-36.4	-37.9	15.9	0.00e+00	0	54	0	314572800	43	4276
2026-01-09 15:47:35.39	221.24	10.45	-36.4	-37.9	16.0	0.00e+00	0	54	0	321912832	43	4255
2026-01-09 15:47:36.40	221.36	10.51	-36.3	-37.8	16.1	0.00e+00	0	53	0	329252864	43	4206
2026-01-09 15:47:37.41	221.49	10.58	-36.2	-37.7	16.2	0.00e+00	0	54	0	336592896	43	4168
2026-01-09 15:47:38.42	221.62	10.65	-36.3	-37.7	16.2	0.00e+00	0	54	0	343932928	43	4178
2026-01-09 15:47:39.43	221.75	10.71	-36.3	-37.7	16.2	0.00e+00	0	54	0	351272960	43	4174
2026-01-09 15:47:40.44	221.88	10.78	-36.4	-37.8	16.1	0.00e+00	0	54	0	358612992	43	4227
2026-01-09 15:47:41.45	222.01	10.84	-36.2	-37.7	16.2	0.00e+00	0	54	0	365953024	43	4146
2026-01-09 15:47:42.46	222.14	10.91	-36.3	-37.7	16.2	0.00e+00	0	54	0	373293056	43	4186
2026-01-09 15:47:43.48	222.27	10.97	-36.1	-37.5	16.4	0.00e+00	0	54	0	380633088	43	4087
2026-01-09 15:47:44.49	222.40	11.04	-36.2	-37.6	16.4	0.00e+00	0	54	0	387973120	43	4110
2026-01-09 15:47:45.50	222.54	11.11	-36.2	-37.6	16.4	0.00e+00	0	54	0	395313152	43	4119
2026-01-09 15:47:46.51	222.67	11.17	-36.1	-37.5	16.4	0.00e+00	0	54	0	402653184	43	4077
2026-01-09 15:47:47.52	222.80	11.24	-36.2	-37.6	16.3	0.00e+00	0	54	0	408944640	43	4127
2026-01-09 15:47:48.53	222.94	11.30	-36.2	-37.6	16.4	0.00e+00	0	54	0	417333248	43	4108
2026-01-09 15:47:49.54	223.07	11.37	-36.2	-37.6	16.3	0.00e+00	0	54	0	424673280	43	4140
2026-01-09 15:47:50.55	223.21	11.44	-36.2	-37.7	16.3	0.00e+00	0	54	0	430964736	43	4149
2026-01-09 15:47:51.56	223.34	11.50	-36.3	-37.7	16.2	0.00e+00	0	54	0	438304768	43	4175
2026-01-09 15:47:52.57	223.48	11.57	-36.3	-37.8	16.2	0.00e+00	0	54	0	446693376	43	4212
2026-01-09 15:47:53.58	223.61	11.63	-36.3	-37.7	16.2	0.00e+00	0	54	0	452984832	43	4189
2026-01-09 15:47:54.59	223.75	11.70	-36.3	-37.8	16.2	0.00e+00	0	54	0	460324864	43	4207
2026-01-09 15:47:55.61	223.89	11.77	-36.1	-37.5	16.5	0.00e+00	0	54	0	467664896	43	4052
2026-01-09 15:47:56.62	224.03	11.83	-36.1	-37.4	16.5	0.00e+00	0	54	0	475004928	43	4041
2026-01-09 15:47:57.63	224.17	11.90	-35.8	-37.1	16.9	0.00e+00	0	54	0	482344960	42	4131
2026-01-09 15:47:58.64	224.31	11.97	-36.0	-37.3	16.7	0.00e+00	0	54	0	489684992	42	4233
2026-01-09 15:47:59.65	224.45	12.03	-35.9	-37.3	16.7	0.00e+00	0	54	0	497025024	42	4206
2026-01-09 15:48:00.66	224.59	12.10	-35.9	-37.3	16.7	0.00e+00	0	54	0	504365056	42	4206
2026-01-09 15:48:01.67	224.73	12.17	-36.0	-37.4	16.6	0.00e+00	0	54	0	511705088	42	4267
2026-01-09 15:48:02.68	224.88	12.23	-36.1	-37.4	16.6	0.00e+00	0	54	0	519045120	42	4279
2026-01-09 15:48:03.69	225.02	12.30	-36.0	-37.4	16.7	0.00e+00	0	54	0	526385152	42	4259
2026-01-09 15:48:04.70	225.16	12.36	-36.0	-37.4	16.7	0.00e+00	0	54	0	533725184	42	4264
2026-01-09 15:48:05.71	225.31	12.43	-35.9	-37.2	16.8	0.00e+00	0	54	0	541065216	42	4175
2026-01-09 15:48:06.72	225.45	12.50	-35.8	-37.1	17.0	0.00e+00	0	54	0	548405248	42	4116
2026-01-09 15:48:07.73	225.60	12.56	-35.8	-37.1	16.9	0.00e+00	0	54	0	555745280	42	4142
2026-01-09 15:48:08.74	225.74	12.63	-35.7	-37.0	17.1	0.00e+00	0	54	0	563085312	42	4063
2026-01-09 15:48:09.75	225.89	12.70	-35.7	-37.0	17.1	0.00e+00	0	54	0	570425344	42	4081
2026-01-09 15:48:10.77	226.04	12.76	-35.6	-36.8	17.2	0.00e+00	0	54	0	576716800	42	3999
2026-01-09 15:48:11.78	226.19	12.83	-35.6	-36.8	17.2	0.00e+00	0	54	0	585105408	42	3998
2026-01-09 15:48:12.79	226.34	12.90	-35.5	-36.8	17.3	0.00e+00	0	54	0	592445440	41	4203
2026-01-09 15:48:13.80	226.49	12.96	-35.5	-36.8	17.2	0.00e+00	0	54	0	598736896	41	4217
2026-01-09 15:48:14.81	226.64	13.03	-35.6	-36.8	17.2	0.00e+00	0	54	0	606076928	41	4237
2026-01-09 15:48:15.82	226.79	13.10	-35.5	-36.8	17.3	0.00e+00	0	54	0	613416960	41	4229
2026-01-09 15:48:16.83	226.94	13.16	-35.5	-36.8	17.3	0.00e+00	0	54	0	620756992	41	4242
2026-01-09 15:48:17.84	227.09	13.23	-35.6	-36.9	17.3	0.00e+00	0	54	0	628097024	41	4244
2026-01-09 15:48:18.85	227.24	13.30	-35.4	-36.7	17.4	0.00e+00	0	54	0	635437056	41	4169
2026-01-09 15:48:19.86	227.40	13.36	-35.5	-36.8	17.4	0.00e+00	0	54	0	642777088	41	4194
2026-01-09 15:48:20.88	227.55	13.43	-35.4	-36.6	17.5	0.00e+00	0	54	0	650117120	41	4129
2026-01-09 15:48:21.89	227.71	13.50	-35.2	-36.5	17.6	0.00e+00	0	54	0	657457152	41	4052
2026-01-09 15:48:22.90	227.86	13.56	-35.2	-36.4	17.7	0.00e+00	0	54	0	664797184	41	4038
2026-01-09 15:48:23.91	228.02	13.63	-35.2	-36.4	17.7	0.00e+00	0	54	0	672137216	41	4042
2026-01-09 15:48:24.92	228.18	13.70	-35.1	-36.4	17.7	0.00e+00	0	54	0	679477248	41	4013
2026-01-09 15:48:25.93	228.33	13.76	-35.2	-36.4	17.7	0.00e+00	0	54	0	686817280	41	4044
2026-01-09 15:48:26.94	228.49	13.83	-35.1	-36.3	17.8	0.00e+00	0	55	0	694157312	41	3976
2026-01-09 15:48:27.95	228.65	13.90	-35.2	-36.5	17.7	0.00e+00	0	54	0	701497344	41	4052
2026-01-09 15:48:28.96	228.81	13.96	-35.4	-36.6	17.5	0.00e+00	0	54	0	708837376	41	4137
2026-01-09 15:48:29.97	228.97	14.03	-35.4	-36.7	17.4	0.00e+00	0	54	0	716177408	41	4173
2026-01-09 15:48:30.98	229.13	14.09	-35.4	-36.7	17.5	0.00e+00	0	55	0	723517440	41	4167
2026-01-09 15:48:31.99	229.29	14.16	-35.3	-36.6	17.6	0.00e+00	0	55	0	730857472	41	4117
2026-01-09 15:48:33.01	229.46	14.23	-35.4	-36.7	17.5	0.00e+00	0	55	0	738197504	41	4153
2026-01-09 15:48:34.01	229.62	14.29	-35.5	-36.8	17.4	0.00e+00	0	55	0	745537536	41	4208
2026-01-09 15:48:35.03	229.78	14.36	-35.3	-36.6	17.6	0.00e+00	0	55	0	752877568	41	4128
2026-01-09 15:48:36.04	229.95	14.43	-35.4	-36.6	17.6	0.00e+00	0	55	0	760217600	41	4134
2026-01-09 15:48:37.05	230.11	14.49	-35.2	-36.5	17.7	0.00e+00	0	55	0	767557632	41	4063
2026-01-09 15:48:38.06	230.28	14.56	-35.1	-36.3	17.9	0.00e+00	0	55	0	773849088	41	3988
2026-01-09 15:48:39.07	230.45	14.63	-35.1	-36.4	17.8	0.00e+00	0	55	0	781189120	41	4009
2026-01-09 15:48:40.08	230.61	14.69	-35.1	-36.3	17.9	0.00e+00	0	55	0	789577728	41	3977
2026-01-09 15:48:41.09	230.78	14.76	-35.0	-36.2	18.0	0.00e+00	0	55	0	795869184	41	3947
2026-01-09 15:48:42.10	230.95	14.82	-35.0	-36.2	18.0	0.00e+00	0	55	0	803209216	40	4160
2026-01-09 15:48:43.11	231.12	14.89	-35.0	-36.2	18.0	0.00e+00	0	55	0	810549248	40	4150
2026-01-09 15:48:44.12	231.29	14.95	-35.0	-36.2	17.9	0.00e+00	0	55	0	817889280	40	4189
2026-01-09 15:48:45.14	231.46	15.02	-35.0	-36.2	18.0	0.00e+00	0	55	0	825229312	40	4183
2026-01-09 15:48:46.15	231.64	15.09	-34.9	-36.1	18.0	0.00e+00	0	55	0	832569344	40	4144
2026-01-09 15:48:47.16	231.81	15.15	-35.0	-36.2	18.0	0.00e+00	0	55	0	839909376	40	4180
2026-01-09 15:48:48.17	231.98	15.22	-35.0	-36.2	18.0	0.00e+00	0	55	0	847249408	40	4150
2026-01-09 15:48:49.18	232.16	15.28	-34.8	-36.0	18.1	0.00e+00	0	55	0	854589440	40	4090
2026-01-09 15:48:50.19	232.33	15.35	-34.9	-36.1	18.1	0.00e+00	0	55	0	861929472	40	4116
2026-01-09 15:48:51.20	232.51	15.41	-34.8	-36.0	18.2	0.00e+00	0	55	0	869269504	40	4065
2026-01-09 15:48:52.21	232.68	15.48	-34.9	-36.1	18.1	0.00e+00	0	55	0	876609536	40	4123
2026-01-09 15:48:53.22	232.86	15.54	-34.9	-36.1	18.1	0.00e+00	0	55	0	883949568	40	4144
2026-01-09 15:48:54.23	233.04	15.61	-34.9	-36.1	18.1	0.00e+00	0	55	0	891289600	40	4113
2026-01-09 15:48:55.24	233.21	15.68	-34.8	-36.0	18.2	0.00e+00	0	55	0	898629632	40	4072
2026-01-09 15:48:56.26	233.40	15.74	-34.8	-36.0	18.2	0.00e+00	0	55	0	905969664	40	4062
2026-01-09 15:48:57.27	233.58	15.81	-34.8	-35.9	18.3	0.00e+00	0	55	0	913309696	40	4045
2026-01-09 15:48:58.28	233.76	15.87	-34.6	-35.8	18.4	0.00e+00	0	55	0	920649728	40	3965
2026-01-09 15:48:59.29	233.94	15.94	-34.7	-35.8	18.4	0.00e+00	0	55	0	927989760	40	3995
2026-01-09 15:49:00.30	234.12	16.00	-34.7	-35.9	18.3	0.00e+00	0	55	0	935329792	40	4037
2026-01-09 15:49:01.31	234.30	16.06	-34.7	-35.9	18.3	0.00e+00	0	55	0	941621248	40	4021
2026-01-09 15:49:02.32	234.49	16.13	-34.7	-35.8	18.4	0.00e+00	0	55	0	948961280	40	4003
2026-01-09 15:49:03.33	234.67	16.19	-34.7	-35.8	18.4	0.00e+00	0	55	0	957349888	40	3994
2026-01-09 15:49:04.34	234.86	16.26	-34.7	-35.9	18.4	0.00e+00	0	55	0	963641344	40	4012
2026-01-09 15:49:05.35	235.04	16.32	-34.6	-35.8	18.4	0.00e+00	0	55	0	970981376	40	3981
2026-01-09 15:49:06.36	235.23	16.38	-34.7	-35.9	18.4	0.00e+00	0	55	0	978321408	40	4013
2026-01-09 15:49:07.37	235.42	16.45	-34.6	-35.8	18.5	0.00e+00	0	55	0	985661440	40	3965
2026-01-09 15:49:08.38	235.61	16.51	-34.6	-35.8	18.4	0.00e+00	0	55	0	993001472	40	3977
2026-01-09 15:49:09.40	235.80	16.58	-34.6	-35.7	18.6	0.00e+00	0	55	0	1000341504	39	4171
2026-01-09 15:49:10.41	235.99	16.64	-34.6	-35.7	18.5	0.00e+00	0	55	0	1007681536	39	4191
2026-01-09 15:49:11.42	236.18	16.70	-34.5	-35.6	18.7	0.00e+00	0	55	0	1015021568	39	4128
2026-01-09 15:49:12.43	236.37	16.77	-34.6	-35.7	18.6	0.00e+00	0	55	0	1022361600	39	4180
2026-01-09 15:49:13.44	236.56	16.83	-34.5	-35.7	18.6	0.00e+00	0	55	0	1029701632	39	4148
2026-01-09 15:49:14.45	236.76	16.89	-34.5	-35.6	18.7	0.00e+00	0	55	0	1037041664	39	4116
2026-01-09 15:49:15.46	236.95	16.95	-34.6	-35.7	18.6	0.00e+00	0	55	0	1044381696	39	4154
2026-01-09 15:49:16.47	237.14	17.02	-34.5	-35.6	18.7	0.00e+00	0	55	0	1051721728	39	4117
2026-01-09 15:49:17.48	237.34	17.08	-34.5	-35.6	18.7	0.00e+00	0	55	0	1059061760	39	4122
2026-01-09 15:49:18.49	237.54	17.14	-34.4	-35.5	18.8	0.00e+00	0	55	0	1066401792	39	4075
2026-01-09 15:49:19.50	237.73	17.20	-34.5	-35.6	18.7	0.00e+00	0	55	0	1073741824	39	4135
2026-01-09 15:49:20.51	237.93	17.27	-34.5	-35.6	18.7	0.00e+00	0	55	0	1081081856	39	4124
2026-01-09 15:49:21.52	238.13	17.33	-34.5	-35.6	18.7	0.00e+00	0	55	0	1088421888	39	4130
2026-01-09 15:49:22.53	238.33	17.39	-34.5	-35.6	18.7	0.00e+00	0	55	0	1095761920	39	4130
2026-01-09 15:49:23.54	238.53	17.45	-34.5	-35.6	18.7	0.00e+00	0	55	0	1103101952	39	4124
2026-01-09 15:49:24.55	238.73	17.51	-34.5	-35.7	18.6	0.00e+00	0	55	0	1110441984	39	4156
2026-01-09 15:49:25.56	238.93	17.57	-34.5	-35.6	18.7	0.00e+00	0	55	0	1116733440	39	4113
2026-01-09 15:49:26.58	239.14	17.63	-34.5	-35.7	18.6	0.00e+00	0	55	0	1125122048	39	4154
2026-01-09 15:49:27.59	239.34	17.69	-34.5	-35.6	18.7	0.00e+00	0	55	0	1132462080	39	4112
2026-01-09 15:49:28.60	239.54	17.75	-34.4	-35.6	18.7	0.00e+00	0	55	0	1138753536	39	4110
2026-01-09 15:49:29.61	239.75	17.81	-34.5	-35.7	18.7	0.00e+00	0	55	0	1146093568	39	4149
2026-01-09 15:49:30.62	239.95	17.87	-34.5	-35.6	18.7	0.00e+00	0	55	0	1154482176	39	4135
2026-01-09 15:49:31.63	240.16	17.93	-34.4	-35.5	18.8	0.00e+00	0	55	0	1160773632	39	4073
2026-01-09 15:49:32.64	240.37	17.99	-34.4	-35.5	18.8	0.00e+00	0	55	0	1168113664	39	4064
2026-01-09 15:49:33.66	240.58	18.05	-34.4	-35.5	18.9	0.00e+00	0	55	0	1175453696	39	4053
2026-01-09 15:49:34.67	240.79	18.11	-34.3	-35.3	19.0	0.00e+00	0	55	0	1182793728	39	3999
2026-01-09 15:49:35.68	241.00	18.17	-34.2	-35.3	19.0	0.00e+00	0	55	0	1190133760	39	4004
2026-01-09 15:49:36.69	241.21	18.23	-34.2	-35.3	19.0	0.00e+00	0	55	0	1197473792	39	3988
2026-01-09 15:49:37.70	241.42	18.29	-34.1	-35.2	19.1	0.00e+00	0	55	0	1204813824	39	3951
2026-01-09 15:49:38.71	241.63	18.35	-34.3	-35.4	18.9	0.00e+00	0	55	0	1212153856	39	4016
2026-01-09 15:49:39.72	241.84	18.40	-34.2	-35.3	19.0	0.00e+00	0	55	0	1219493888	39	3979
2026-01-09 15:49:40.74	242.06	18.46	-34.2	-35.3	19.0	0.00e+00	0	55	0	1226833920	39	4003
2026-01-09 15:49:41.75	242.27	18.52	-34.3	-35.4	18.9	0.00e+00	0	55	0	1234173952	39	4045
2026-01-09 15:49:42.76	242.49	18.58	-34.2	-35.3	19.0	0.00e+00	0	55	0	1241513984	39	3975
2026-01-09 15:49:43.77	242.71	18.63	-34.2	-35.3	19.0	0.00e+00	0	55	0	1248854016	39	3976
2026-01-09 15:49:44.78	242.92	18.69	-34.2	-35.3	19.0	0.00e+00	0	55	0	1256194048	39	4003
2026-01-09 15:49:45.79	243.14	18.75	-34.3	-35.4	18.9	0.00e+00	0	55	0	1263534080	39	4014
2026-01-09 15:49:46.80	243.36	18.80	-34.3	-35.4	18.9	0.00e+00	0	55	0	1270874112	39	4019
2026-01-09 15:49:47.81	243.58	18.86	-34.3	-35.4	18.9	0.00e+00	0	55	0	1278214144	39	4048
2026-01-09 15:49:48.82	243.80	18.91	-34.3	-35.4	18.9	0.00e+00	0	55	0	1284505600	39	4028
2026-01-09 15:49:49.83	244.02	18.97	-34.3	-35.4	18.9	0.00e+00	0	55	0	1292894208	39	4043
2026-01-09 15:49:50.84	244.24	19.03	-34.3	-35.4	18.9	0.00e+00	0	55	0	1300234240	39	4018
2026-01-09 15:49:51.85	244.46	19.08	-34.2	-35.3	19.0	0.00e+00	0	55	0	1306525696	39	3965
2026-01-09 15:49:52.86	244.69	19.13	-34.1	-35.2	19.1	0.00e+00	0	55	0	1313865728	39	3925
2026-01-09 15:49:53.88	244.91	19.19	-34.2	-35.3	19.0	0.00e+00	0	55	0	1322254336	39	3964
2026-01-09 15:49:54.89	245.14	19.24	-34.2	-35.3	19.0	0.00e+00	0	55	0	1328545792	39	3970
2026-01-09 15:49:55.90	245.36	19.30	-34.3	-35.3	19.0	0.00e+00	0	55	0	1335885824	39	4002
2026-01-09 15:49:56.91	245.59	19.35	-34.3	-35.4	18.9	0.00e+00	0	55	0	1343225856	39	4034
2026-01-09 15:49:57.92	245.82	19.40	-34.3	-35.4	18.9	0.00e+00	0	56	0	1350565888	39	4027
2026-01-09 15:49:58.93	246.04	19.45	-34.4	-35.5	18.9	0.00e+00	0	55	0	1357905920	39	4075
2026-01-09 15:49:59.94	246.27	19.51	-34.3	-35.4	18.9	0.00e+00	0	55	0	1365245952	39	4044
2026-01-09 15:50:00.95	246.50	19.56	-34.3	-35.4	18.9	0.00e+00	0	55	0	1372585984	39	4047
2026-01-09 15:50:01.96	246.73	19.61	-34.1	-35.2	19.1	0.00e+00	0	55	0	1379926016	39	3952
2026-01-09 15:50:02.97	246.96	19.66	-34.1	-35.2	19.1	0.00e+00	0	55	0	1387266048	39	3938
2026-01-09 15:50:03.99	247.20	19.71	-34.1	-35.1	19.2	0.00e+00	0	55	0	1394606080	39	3906
2026-01-09 15:50:05.00	247.43	19.76	-33.9	-35.0	19.4	0.00e+00	0	56	0	1401946112	38	4053
2026-01-09 15:50:06.01	247.66	19.81	-33.8	-34.9	19.4	0.00e+00	0	55	0	1409286144	38	4024
2026-01-09 15:50:07.02	247.89	19.86	-33.8	-34.9	19.5	0.00e+00	0	56	0	1416626176	38	4011
2026-01-09 15:50:08.03	248.13	19.91	-33.8	-34.8	19.5	0.00e+00	0	55	0	1423966208	38	4001
2026-01-09 15:50:09.04	248.36	19.96	-33.9	-35.0	19.4	0.00e+00	0	56	0	1431306240	38	4057
2026-01-09 15:50:10.05	248.60	20.01	-33.9	-34.9	19.4	0.00e+00	0	55	0	1438646272	38	4031
2026-01-09 15:50:11.06	248.84	20.06	-33.9	-34.9	19.4	0.00e+00	0	56	0	1445986304	38	4031
2026-01-09 15:50:12.07	249.07	20.10	-33.8	-34.9	19.5	0.00e+00	0	55	0	1453326336	38	4011
2026-01-09 15:50:13.08	249.31	20.15	-33.8	-34.9	19.5	0.00e+00	0	55	0	1460666368	38	4026
2026-01-09 15:50:14.09	249.55	20.20	-33.9	-35.0	19.4	0.00e+00	0	55	0	1468006400	38	4088
2026-01-09 15:50:15.10	249.79	20.24	-33.9	-34.9	19.4	0.00e+00	0	56	0	1475346432	38	4050
2026-01-09 15:50:16.12	250.03	20.29	-34.0	-35.0	19.3	0.00e+00	0	55	0	1481637888	38	4089
2026-01-09 15:50:17.13	250.27	20.34	-34.1	-35.2	19.2	0.00e+00	0	56	0	1490026496	38	4152
2026-01-09 15:50:18.14	250.51	20.38	-34.0	-35.1	19.3	0.00e+00	0	56	0	1497366528	38	4118
2026-01-09 15:50:19.15	250.76	20.43	-34.1	-35.2	19.2	0.00e+00	0	55	0	1503657984	38	4179
2026-01-09 15:50:20.16	251.00	20.47	-34.0	-35.1	19.3	0.00e+00	0	55	0	1510998016	38	4114
2026-01-09 15:50:21.17	251.24	20.51	-34.0	-35.1	19.3	0.00e+00	0	55	0	1518338048	38	4115
2026-01-09 15:50:22.18	251.49	20.56	-34.0	-35.1	19.3	0.00e+00	0	56	0	1525678080	38	4122
2026-01-09 15:50:23.19	251.73	20.60	-34.1	-35.1	19.2	0.00e+00	0	56	0	1533018112	38	4143
2026-01-09 15:50:24.20	251.98	20.64	-34.1	-35.1	19.2	0.00e+00	0	55	0	1540358144	38	4144
2026-01-09 15:50:25.21	252.22	20.68	-34.2	-35.3	19.1	0.00e+00	0	56	0	1547698176	38	4202
2026-01-09 15:50:26.22	252.47	20.73	-34.2	-35.3	19.1	0.00e+00	0	56	0	1555038208	38	4207
2026-01-09 15:50:27.23	252.72	20.77	-34.1	-35.2	19.2	0.00e+00	0	56	0	1562378240	38	4154
2026-01-09 15:50:28.24	252.97	20.81	-34.2	-35.3	19.1	0.00e+00	0	56	0	1569718272	38	4208
2026-01-09 15:50:29.25	253.22	20.85	-34.1	-35.2	19.2	0.00e+00	0	55	0	1577058304	38	4148
2026-01-09 15:50:30.26	253.47	20.89	-34.0	-35.1	19.3	0.00e+00	0	56	0	1584398336	38	4126
2026-01-09 15:50:31.28	253.72	20.93	-34.0	-35.1	19.3	0.00e+00	0	56	0	1591738368	38	4101
2026-01-09 15:50:32.29	253.97	20.97	-34.0	-35.1	19.3	0.00e+00	0	56	0	1599078400	38	4108
2026-01-09 15:50:33.30	254.22	21.01	-34.0	-35.1	19.3	0.00e+00	0	56	0	1606418432	38	4119
2026-01-09 15:50:34.31	254.47	21.04	-34.0	-35.1	19.3	0.00e+00	0	56	0	1613758464	38	4128
2026-01-09 15:50:35.32	254.72	21.08	-34.0	-35.1	19.3	0.00e+00	0	56	0	1621098496	38	4113
2026-01-09 15:50:36.33	254.98	21.12	-34.0	-35.1	19.3	0.00e+00	0	56	0	1628438528	38	4110
2026-01-09 15:50:37.34	255.23	21.15	-34.0	-35.1	19.3	0.00e+00	0	56	0	1635778560	38	4103
2026-01-09 15:50:38.35	255.49	21.19	-33.9	-35.0	19.4	0.00e+00	0	56	0	1643118592	38	4074
2026-01-09 15:50:39.36	255.74	21.22	-33.9	-35.0	19.4	0.00e+00	0	56	0	1649410048	38	4061
2026-01-09 15:50:40.38	256.00	21.26	-33.8	-34.9	19.5	0.00e+00	0	56	0	1657798656	38	4025
2026-01-09 15:50:41.39	256.25	21.29	-33.8	-34.8	19.5	0.00e+00	0	56	0	1665138688	38	4003
2026-01-09 15:50:42.40	256.51	21.33	-33.9	-34.9	19.5	0.00e+00	0	56	0	1671430144	38	4044
2026-01-09 15:50:43.41	256.77	21.36	-33.8	-34.8	19.5	0.00e+00	0	56	0	1678770176	38	4001
2026-01-09 15:50:44.42	257.03	21.39	-33.7	-34.8	19.6	0.00e+00	0	56	0	1686110208	38	3969
2026-01-09 15:50:45.43	257.28	21.43	-33.7	-34.8	19.6	0.00e+00	0	56	0	1693450240	38	3964
2026-01-09 15:50:46.44	257.54	21.46	-33.7	-34.8	19.6	0.00e+00	0	56	0	1700790272	38	3974
2026-01-09 15:50:47.45	257.80	21.49	-33.8	-34.8	19.6	0.00e+00	0	56	0	1708130304	38	3988
2026-01-09 15:50:48.46	258.06	21.52	-33.7	-34.8	19.6	0.00e+00	0	56	0	1715470336	38	3974
2026-01-09 15:50:49.48	258.32	21.55	-33.7	-34.8	19.6	0.00e+00	0	56	0	1722810368	38	3978
2026-01-09 15:50:50.49	258.58	21.58	-33.7	-34.8	19.6	0.00e+00	0	56	0	1730150400	38	3979
2026-01-09 15:50:51.50	258.85	21.61	-33.7	-34.8	19.6	0.00e+00	0	56	0	1737490432	38	3973
2026-01-09 15:50:52.51	259.11	21.63	-33.7	-34.7	19.7	0.00e+00	0	56	0	1744830464	38	3949
2026-01-09 15:50:53.52	259.37	21.66	-33.7	-34.7	19.6	0.00e+00	0	56	0	1752170496	38	3942
2026-01-09 15:50:54.53	259.63	21.69	-33.6	-34.6	19.8	0.00e+00	0	56	0	1759510528	38	3898
2026-01-09 15:50:55.54	259.89	21.72	-33.5	-34.5	19.9	0.00e+00	0	56	0	1766850560	38	3842
2026-01-09 15:50:56.55	260.16	21.74	-33.5	-34.6	19.8	0.00e+00	0	56	0	1774190592	37	4104
2026-01-09 15:50:57.56	260.42	21.77	-33.6	-34.6	19.7	0.00e+00	0	56	0	1781530624	37	4138
2026-01-09 15:50:58.57	260.69	21.79	-33.6	-34.7	19.7	0.00e+00	0	56	0	1788870656	37	4166
2026-01-09 15:50:59.58	260.95	21.82	-33.7	-34.8	19.6	0.00e+00	0	56	0	1796210688	37	4207
2026-01-09 15:51:00.59	261.22	21.84	-33.8	-34.9	19.5	0.00e+00	0	56	0	1803550720	37	4261
2026-01-09 15:51:01.60	261.48	21.86	-33.9	-34.9	19.5	0.00e+00	0	56	0	1810890752	37	4289
2026-01-09 15:51:02.61	261.75	21.88	-33.9	-34.9	19.5	0.00e+00	0	56	0	1818230784	37	4271
2026-01-09 15:51:03.63	262.01	21.91	-33.7	-34.7	19.6	0.00e+00	0	56	0	1825570816	37	4190
2026-01-09 15:51:04.64	262.28	21.93	-33.5	-34.5	19.8	0.00e+00	0	56	0	1832910848	37	4093
2026-01-09 15:51:05.65	262.55	21.95	-33.5	-34.5	19.9	0.00e+00	0	56	0	1840250880	37	4097
2026-01-09 15:51:06.66	262.82	21.97	-33.6	-34.6	19.7	0.00e+00	0	56	0	1846542336	37	4133
2026-01-09 15:51:07.67	263.08	21.99	-33.6	-34.6	19.8	0.00e+00	0	56	0	1853882368	37	4123
2026-01-09 15:51:08.68	263.35	22.01	-33.7	-34.8	19.7	0.00e+00	0	56	0	1862270976	37	4196
2026-01-09 15:51:09.69	263.62	22.02	-33.8	-34.9	19.6	0.00e+00	0	56	0	1868562432	37	4249
2026-01-09 15:51:10.70	263.89	22.04	-33.8	-34.8	19.6	0.00e+00	0	56	0	1875902464	37	4229
2026-01-09 15:51:11.71	264.16	22.06	-33.8	-34.9	19.5	0.00e+00	0	56	0	1883242496	37	4263
2026-01-09 15:51:12.73	264.43	22.07	-33.8	-34.8	19.6	0.00e+00	0	56	0	1890582528	37	4233
2026-01-09 15:51:13.74	264.70	22.09	-33.7	-34.7	19.7	0.00e+00	0	56	0	1897922560	37	4182
2026-01-09 15:51:14.75	264.97	22.10	-33.7	-34.8	19.6	0.00e+00	0	56	0	1905262592	37	4217
2026-01-09 15:51:15.76	265.24	22.12	-33.7	-34.8	19.6	0.00e+00	0	56	0	1912602624	37	4214
2026-01-09 15:51:16.77	265.51	22.13	-33.8	-34.9	19.6	0.00e+00	0	56	0	1919942656	37	4249
2026-01-09 15:51:17.78	265.78	22.15	-33.8	-34.8	19.6	0.00e+00	0	56	0	1927282688	37	4228
2026-01-09 15:51:18.79	266.05	22.16	-33.8	-34.8	19.6	0.00e+00	0	56	0	1934622720	37	4226
2026-01-09 15:51:19.80	266.32	22.17	-33.8	-34.9	19.5	0.00e+00	0	56	0	1941962752	37	4259
2026-01-09 15:51:20.81	266.59	22.18	-33.9	-34.9	19.5	0.00e+00	0	56	0	1949302784	37	4272
2026-01-09 15:51:21.82	266.86	22.19	-33.8	-34.9	19.5	0.00e+00	0	56	0	1956642816	37	4273
2026-01-09 15:51:22.83	267.13	22.20	-33.9	-34.9	19.5	0.00e+00	0	56	0	1963982848	37	4286
2026-01-09 15:51:23.84	267.40	22.21	-33.9	-35.0	19.4	0.00e+00	0	56	0	1971322880	37	4300
2026-01-09 15:51:24.85	267.67	22.22	-33.9	-34.9	19.5	0.00e+00	0	56	0	1978662912	37	4277
2026-01-09 15:51:25.87	267.95	22.23	-33.8	-34.9	19.5	0.00e+00	0	56	0	1986002944	37	4267
2026-01-09 15:51:26.88	268.22	22.23	-33.8	-34.9	19.5	0.00e+00	0	56	0	1993342976	37	4258
2026-01-09 15:51:27.89	268.49	22.24	-33.8	-34.8	19.6	0.00e+00	0	56	0	2000683008	37	4226
2026-01-09 15:51:28.90	268.76	22.25	-33.7	-34.7	19.7	0.00e+00	0	56	0	2008023040	37	4172
2026-01-09 15:51:29.91	269.03	22.25	-33.7	-34.7	19.7	0.00e+00	0	56	0	2014314496	37	4173
2026-01-09 15:51:30.92	269.30	22.26	-33.6	-34.6	19.8	0.00e+00	0	56	0	2021654528	37	4135
2026-01-09 15:51:31.93	269.58	22.26	-33.6	-34.6	19.8	0.00e+00	0	56	0	2030043136	37	4134
2026-01-09 15:51:32.94	269.85	22.26	-33.6	-34.7	19.7	0.00e+00	0	56	0	2036334592	37	4157
2026-01-09 15:51:33.95	270.12	22.27	-33.7	-34.7	19.7	0.00e+00	0	56	0	2043674624	37	4175
2026-01-09 15:51:34.96	270.39	22.27	-33.7	-34.7	19.7	0.00e+00	0	56	0	2051014656	37	4175
2026-01-09 15:51:35.97	270.66	22.27	-33.7	-34.7	19.7	0.00e+00	0	56	0	2058354688	37	4169
2026-01-09 15:51:36.98	270.94	22.27	-33.6	-34.7	19.7	0.00e+00	0	56	0	2065694720	37	4161
2026-01-09 15:51:38.00	271.21	22.27	-33.7	-34.8	19.6	0.00e+00	0	56	0	2073034752	37	4216
2026-01-09 15:51:39.01	271.48	22.27	-33.6	-34.7	19.7	0.00e+00	0	56	0	2080374784	37	4148
2026-01-09 15:51:40.02	271.76	22.27	-33.6	-34.6	19.7	0.00e+00	0	56	0	2087714816	37	4144
2026-01-09 15:51:41.03	272.03	22.27	-33.6	-34.7	19.7	0.00e+00	0	56	0	2095054848	37	4153
2026-01-09 15:51:42.04	272.30	22.26	-33.7	-34.8	19.6	0.00e+00	0	56	0	2102394880	37	4215
2026-01-09 15:51:43.05	272.57	22.26	-33.8	-34.9	19.4	0.00e+00	0	56	0	2109734912	37	4266
2026-01-09 15:51:44.06	272.84	22.26	-33.8	-34.9	19.5	0.00e+00	0	56	0	2117074944	37	4254
2026-01-09 15:51:45.07	273.12	22.25	-33.9	-34.9	19.5	0.00e+00	0	56	0	2124414976	37	4283
2026-01-09 15:51:46.08	273.39	22.25	-33.9	-34.9	19.5	0.00e+00	0	56	0	2131755008	37	4276
2026-01-09 15:51:47.09	273.66	22.24	-34.0	-35.1	19.3	0.00e+00	0	56	0	2139095040	37	4341
2026-01-09 15:51:48.10	273.93	22.23	-33.9	-35.0	19.4	0.00e+00	0	56	0	2146435072	37	4323
2026-01-09 15:51:49.12	274.21	22.23	-34.0	-35.1	19.3	0.00e+00	0	56	0	2153775104	37	4351
2026-01-09 15:51:50.13	274.48	22.22	-34.0	-35.0	19.4	0.00e+00	0	56	0	2161115136	37	4332
2026-01-09 15:51:51.14	274.75	22.21	-34.0	-35.1	19.3	0.00e+00	0	56	0	2168455168	37	4361
2026-01-09 15:51:52.15	275.02	22.20	-34.0	-35.1	19.3	0.00e+00	0	56	0	2175795200	37	4359
2026-01-09 15:51:53.16	275.29	22.19	-34.1	-35.1	19.3	0.00e+00	0	56	0	2183135232	37	4384
2026-01-09 15:51:54.17	275.56	22.18	-34.1	-35.1	19.3	0.00e+00	0	56	0	2189426688	37	4387
2026-01-09 15:51:55.18	275.83	22.17	-33.9	-35.0	19.4	0.00e+00	0	56	0	2197815296	37	4311
2026-01-09 15:51:56.19	276.10	22.16	-33.9	-34.9	19.5	0.00e+00	0	56	0	2205155328	37	4283
2026-01-09 15:51:57.20	276.37	22.15	-33.8	-34.9	19.5	0.00e+00	0	56	0	2211446784	37	4245
2026-01-09 15:51:58.22	276.64	22.13	-33.8	-34.8	19.6	0.00e+00	0	56	0	2218786816	37	4223
2026-01-09 15:51:59.23	276.91	22.12	-33.7	-34.8	19.6	0.00e+00	0	56	0	2227175424	37	4198
2026-01-09 15:52:00.24	277.18	22.11	-33.8	-34.8	19.6	0.00e+00	0	56	0	2233466880	37	4223
2026-01-09 15:52:01.25	277.45	22.09	-33.8	-34.8	19.6	0.00e+00	0	56	0	2240806912	37	4231
2026-01-09 15:52:02.26	277.72	22.08	-33.8	-34.8	19.6	0.00e+00	0	56	0	2248146944	37	4237
2026-01-09 15:52:03.27	277.99	22.06	-33.8	-34.8	19.6	0.00e+00	0	56	0	2255486976	37	4240
2026-01-09 15:52:04.28	278.26	22.04	-33.7	-34.8	19.6	0.00e+00	0	56	0	2262827008	37	4222
2026-01-09 15:52:05.30	278.53	22.03	-33.7	-34.7	19.7	0.00e+00	0	56	0	2270167040	37	4164
2026-01-09 15:52:06.31	278.80	22.01	-33.5	-34.6	19.8	0.00e+00	0	56	0	2277507072	37	4114
2026-01-09 15:52:07.32	279.06	21.99	-33.6	-34.6	19.8	0.00e+00	0	56	0	2284847104	37	4131
2026-01-09 15:52:08.33	279.33	21.97	-33.6	-34.6	19.8	0.00e+00	0	56	0	2292187136	37	4120
2026-01-09 15:52:09.34	279.60	21.95	-33.6	-34.6	19.8	0.00e+00	0	56	0	2299527168	37	4130
2026-01-09 15:52:10.35	279.86	21.93	-33.7	-34.8	19.6	0.00e+00	0	56	0	2306867200	37	4203
2026-01-09 15:52:11.36	280.13	21.91	-33.8	-34.8	19.6	0.00e+00	0	56	0	2314207232	37	4235
2026-01-09 15:52:12.37	280.40	21.89	-33.8	-34.9	19.5	0.00e+00	0	56	0	2321547264	37	4250
2026-01-09 15:52:13.38	280.66	21.86	-33.8	-34.8	19.5	0.00e+00	0	56	0	2328887296	37	4241
2026-01-09 15:52:14.39	280.93	21.84	-33.8	-34.8	19.5	0.00e+00	0	56	0	2336227328	37	4235
2026-01-09 15:52:15.40	281.19	21.82	-33.8	-34.9	19.5	0.00e+00	0	56	0	2343567360	37	4243
2026-01-09 15:52:16.42	281.46	21.79	-33.8	-34.8	19.6	0.00e+00	0	56	0	2350907392	37	4235
2026-01-09 15:52:17.43	281.72	21.77	-33.8	-34.9	19.5	0.00e+00	0	56	0	2358247424	37	4247
2026-01-09 15:52:18.43	281.98	21.75	-33.8	-34.9	19.5	0.00e+00	0	56	0	2365587456	37	4259
2026-01-09 15:52:19.45	282.25	21.72	-33.9	-34.9	19.5	0.00e+00	0	56	0	2372927488	37	4284
2026-01-09 15:52:20.46	282.51	21.69	-33.9	-35.0	19.4	0.00e+00	0	56	0	2379218944	37	4327
2026-01-09 15:52:21.47	282.77	21.67	-34.0	-35.0	19.4	0.00e+00	0	56	0	2386558976	37	4340
2026-01-09 15:52:22.48	283.03	21.64	-34.0	-35.1	19.4	0.00e+00	0	56	0	2394947584	37	4348
2026-01-09 15:52:23.49	283.29	21.61	-33.9	-35.0	19.4	0.00e+00	0	56	0	2401239040	37	4310
2026-01-09 15:52:24.50	283.55	21.58	-33.9	-35.0	19.5	0.00e+00	0	56	0	2408579072	37	4296
2026-01-09 15:52:25.51	283.81	21.55	-33.8	-34.8	19.5	0.00e+00	0	56	0	2415919104	37	4234
2026-01-09 15:52:26.52	284.07	21.52	-33.8	-34.8	19.6	0.00e+00	0	56	0	2423259136	37	4221
2026-01-09 15:52:27.53	284.33	21.49	-33.8	-34.8	19.6	0.00e+00	0	56	0	2430599168	37	4214
2026-01-09 15:52:28.54	284.59	21.46	-33.8	-34.9	19.5	0.00e+00	0	56	0	2437939200	37	4248
2026-01-09 15:52:29.55	284.85	21.43	-33.9	-35.0	19.4	0.00e+00	0	56	0	2445279232	37	4292
2026-01-09 15:52:30.56	285.11	21.40	-33.9	-35.0	19.4	0.00e+00	0	56	0	2452619264	37	4292
2026-01-09 15:52:31.57	285.36	21.37	-34.0	-35.1	19.3	0.00e+00	0	56	0	2459959296	37	4349
2026-01-09 15:52:32.58	285.62	21.33	-34.0	-35.1	19.4	0.00e+00	0	56	0	2467299328	37	4345
2026-01-09 15:52:33.59	285.88	21.30	-34.1	-35.1	19.3	0.00e+00	0	56	0	2474639360	37	4389
2026-01-09 15:52:34.60	286.13	21.27	-33.9	-35.0	19.4	0.00e+00	0	56	0	2481979392	37	4320
2026-01-09 15:52:35.61	286.39	21.23	-33.9	-35.0	19.5	0.00e+00	0	56	0	2489319424	37	4296
2026-01-09 15:52:36.62	286.64	21.20	-33.8	-34.9	19.5	0.00e+00	0	56	0	2496659456	37	4261
2026-01-09 15:52:37.63	286.89	21.16	-33.8	-34.9	19.5	0.00e+00	0	56	0	2503999488	37	4253
2026-01-09 15:52:38.64	287.15	21.12	-33.8	-34.8	19.5	0.00e+00	0	56	0	2511339520	37	4237
2026-01-09 15:52:39.65	287.40	21.09	-33.8	-34.8	19.6	0.00e+00	0	56	0	2518679552	37	4229
2026-01-09 15:52:40.66	287.65	21.05	-33.9	-34.9	19.5	0.00e+00	0	56	0	2526019584	37	4277
2026-01-09 15:52:41.67	287.90	21.01	-33.9	-35.0	19.4	0.00e+00	0	56	0	2533359616	37	4314
2026-01-09 15:52:42.68	288.15	20.98	-34.0	-35.1	19.3	0.00e+00	0	56	0	2540699648	37	4351
2026-01-09 15:52:43.69	288.40	20.94	-34.1	-35.2	19.3	0.00e+00	0	56	0	2548039680	37	4396
2026-01-09 15:52:44.70	288.65	20.90	-34.1	-35.2	19.2	0.00e+00	0	56	0	2554331136	37	4416
2026-01-09 15:52:45.71	288.90	20.86	-34.1	-35.2	19.2	0.00e+00	0	56	0	2561671168	37	4410
2026-01-09 15:52:46.72	289.15	20.82	-34.2	-35.3	19.0	0.00e+00	0	56	0	2570059776	38	4221
2026-01-09 15:52:47.74	289.40	20.78	-34.2	-35.2	19.2	0.00e+00	0	56	0	2576351232	38	4192
2026-01-09 15:52:48.74	289.64	20.74	-34.2	-35.3	19.2	0.00e+00	0	56	0	2583691264	38	4204
2026-01-09 15:52:49.75	289.89	20.70	-34.2	-35.3	19.2	0.00e+00	0	56	0	2591031296	38	4208
2026-01-09 15:52:50.76	290.14	20.65	-34.2	-35.3	19.1	0.00e+00	0	56	0	2598371328	38	4218
2026-01-09 15:52:51.77	290.38	20.61	-34.1	-35.2	19.2	0.00e+00	0	56	0	2605711360	38	4165
2026-01-09 15:52:52.78	290.63	20.57	-34.1	-35.2	19.2	0.00e+00	0	56	0	2613051392	38	4176
2026-01-09 15:52:53.79	290.87	20.53	-34.1	-35.2	19.2	0.00e+00	0	56	0	2620391424	38	4158
2026-01-09 15:52:54.80	291.11	20.48	-34.1	-35.1	19.3	0.00e+00	0	56	0	2627731456	38	4131
2026-01-09 15:52:55.81	291.35	20.44	-34.0	-35.1	19.3	0.00e+00	0	56	0	2635071488	38	4121
2026-01-09 15:52:56.82	291.60	20.39	-34.1	-35.2	19.0	0.00e+00	0	56	0	2642411520	38	4176
2026-01-09 15:52:57.84	291.84	20.35	-34.1	-35.2	19.2	0.00e+00	0	56	0	2649751552	38	4182
2026-01-09 15:52:58.85	292.08	20.30	-34.1	-35.2	19.2	0.00e+00	0	56	0	2657091584	38	4180
2026-01-09 15:52:59.85	292.32	20.26	-34.1	-35.2	19.2	0.00e+00	0	56	0	2664431616	38	4146
2026-01-09 15:53:00.86	292.56	20.21	-34.2	-35.3	19.1	0.00e+00	0	56	0	2671771648	38	4198
2026-01-09 15:53:01.87	292.79	20.17	-34.2	-35.3	19.0	0.00e+00	0	56	0	2678063104	38	4238
2026-01-09 15:53:02.88	293.03	20.12	-34.3	-35.4	19.0	0.00e+00	0	56	0	2686451712	38	4250
2026-01-09 15:53:03.89	293.27	20.07	-34.3	-35.4	19.0	0.00e+00	0	56	0	2693791744	38	4258
2026-01-09 15:53:04.90	293.50	20.02	-34.3	-35.4	18.9	0.00e+00	0	56	0	2700083200	38	4290
2026-01-09 15:53:05.91	293.74	19.98	-34.4	-35.5	18.9	0.00e+00	0	56	0	2707423232	38	4323
2026-01-09 15:53:06.92	293.97	19.93	-34.3	-35.4	19.0	0.00e+00	0	56	0	2714763264	38	4259
2026-01-09 15:53:07.93	294.21	19.88	-34.2	-35.3	19.0	0.00e+00	0	56	0	2722103296	38	4239
2026-01-09 15:53:08.94	294.44	19.83	-34.2	-35.3	19.0	0.00e+00	0	56	0	2729443328	38	4237
2026-01-09 15:53:09.95	294.67	19.78	-34.3	-35.4	18.9	0.00e+00	0	56	0	2736783360	38	4283
2026-01-09 15:53:10.96	294.90	19.73	-34.3	-35.4	18.9	0.00e+00	0	56	0	2744123392	38	4266
2026-01-09 15:53:11.97	295.13	19.68	-34.4	-35.5	18.8	0.00e+00	0	56	0	2751463424	38	4311
2026-01-09 15:53:12.98	295.36	19.63	-34.4	-35.6	18.8	0.00e+00	0	56	0	2758803456	38	4342
2026-01-09 15:53:13.99	295.59	19.58	-34.4	-35.6	18.8	0.00e+00	0	56	0	2766143488	38	4341
2026-01-09 15:53:15.00	295.82	19.53	-34.5	-35.6	18.7	0.00e+00	0	56	0	2773483520	38	4363
2026-01-09 15:53:16.01	296.05	19.47	-34.4	-35.5	18.8	0.00e+00	0	56	0	2780823552	38	4333
2026-01-09 15:53:17.02	296.28	19.42	-34.4	-35.5	18.8	0.00e+00	0	56	0	2788163584	38	4330
2026-01-09 15:53:18.03	296.50	19.37	-34.2	-35.4	19.0	0.00e+00	0	56	0	2795503616	38	4244
2026-01-09 15:53:19.04	296.73	19.32	-34.2	-35.3	19.0	0.00e+00	0	56	0	2802843648	38	4203
2026-01-09 15:53:20.05	296.95	19.26	-34.2	-35.3	19.0	0.00e+00	0	56	0	2810183680	38	4205
2026-01-09 15:53:21.06	297.18	19.21	-34.2	-35.3	19.0	0.00e+00	0	56	0	2817523712	38	4225
2026-01-09 15:53:22.07	297.40	19.16	-34.2	-35.3	19.0	0.00e+00	0	56	0	2824863744	38	4234
2026-01-09 15:53:23.08	297.62	19.10	-34.3	-35.4	18.8	0.00e+00	0	56	0	2832203776	38	4257
2026-01-09 15:53:24.09	297.84	19.05	-34.3	-35.4	18.9	0.00e+00	0	56	0	2839543808	38	4277
2026-01-09 15:53:25.10	298.06	19.00	-34.4	-35.5	18.8	0.00e+00	0	56	0	2846883840	38	4325
2026-01-09 15:53:26.11	298.28	18.94	-34.5	-35.7	18.7	0.00e+00	0	56	0	2853175296	38	4398
2026-01-09 15:53:27.12	298.50	18.89	-34.6	-35.7	18.6	0.00e+00	0	56	0	2861563904	38	4437
2026-01-09 15:53:28.13	298.72	18.83	-34.7	-35.8	18.5	0.00e+00	0	56	0	2868903936	39	4218
2026-01-09 15:53:29.14	298.94	18.77	-34.8	-35.9	18.4	0.00e+00	0	56	0	2875195392	39	4280
2026-01-09 15:53:30.15	299.16	18.72	-34.8	-36.0	18.4	0.00e+00	0	56	0	2882535424	39	4293
2026-01-09 15:53:31.17	299.38	18.66	-34.8	-35.9	18.4	0.00e+00	0	56	0	2889875456	39	4282
2026-01-09 15:53:32.17	299.59	18.61	-34.7	-35.9	18.4	0.00e+00	0	56	0	2897215488	39	4261
2026-01-09 15:53:33.19	299.81	18.55	-34.8	-35.9	18.4	0.00e+00	0	57	0	2904555520	39	4285
2026-01-09 15:53:34.20	300.02	18.49	-34.7	-35.8	18.5	0.00e+00	0	56	0	2911895552	39	4232
2026-01-09 15:53:35.21	300.23	18.43	-34.6	-35.8	18.6	0.00e+00	0	56	0	2919235584	39	4195
2026-01-09 15:53:36.22	300.44	18.38	-34.6	-35.7	18.6	0.00e+00	0	56	0	2926575616	39	4180
2026-01-09 15:53:37.23	300.66	18.32	-34.6	-35.8	18.6	0.00e+00	0	56	0	2933915648	39	4198
2026-01-09 15:53:38.24	300.87	18.26	-34.6	-35.7	18.5	0.00e+00	0	56	0	2941255680	39	4191
2026-01-09 15:53:39.25	301.08	18.20	-34.7	-35.8	18.5	0.00e+00	0	56	0	2948595712	39	4221
2026-01-09 15:53:40.27	301.29	18.14	-34.7	-35.8	18.5	0.00e+00	0	56	0	2955935744	39	4233
2026-01-09 15:53:41.28	301.50	18.09	-34.7	-35.9	18.4	0.00e+00	0	56	0	2963275776	39	4260
2026-01-09 15:53:42.29	301.70	18.03	-34.7	-35.9	18.4	0.00e+00	0	56	0	2970615808	39	4263
2026-01-09 15:53:43.30	301.91	17.97	-34.7	-35.8	18.5	0.00e+00	0	56	0	2977955840	39	4238
2026-01-09 15:53:44.31	302.12	17.91	-34.6	-35.8	18.5	0.00e+00	0	56	0	2985295872	39	4201
2026-01-09 15:53:45.32	302.32	17.85	-34.6	-35.8	18.5	0.00e+00	0	56	0	2992635904	39	4217
2026-01-09 15:53:46.33	302.53	17.79	-34.6	-35.8	18.5	0.00e+00	0	56	0	2999975936	39	4204
2026-01-09 15:53:47.34	302.73	17.73	-34.6	-35.8	18.5	0.00e+00	0	56	0	3007315968	39	4196
2026-01-09 15:53:48.35	302.93	17.67	-34.7	-35.8	18.5	0.00e+00	0	57	0	3014656000	39	4219
2026-01-09 15:53:49.36	303.13	17.61	-34.6	-35.8	18.5	0.00e+00	0	56	0	3020947456	39	4202
2026-01-09 15:53:50.38	303.34	17.55	-34.7	-35.8	18.4	0.00e+00	0	56	0	3029336064	39	4235
2026-01-09 15:53:51.39	303.54	17.49	-34.8	-36.0	18.3	0.00e+00	0	57	0	3036676096	39	4317
2026-01-09 15:53:52.40	303.74	17.43	-34.8	-36.0	18.4	0.00e+00	0	56	0	3042967552	39	4293
2026-01-09 15:53:53.41	303.94	17.37	-34.8	-36.0	18.3	0.00e+00	0	56	0	3050307584	39	4302
2026-01-09 15:53:54.42	304.13	17.31	-34.9	-36.1	18.2	0.00e+00	0	56	0	3057647616	39	4377
2026-01-09 15:53:55.43	304.33	17.24	-35.0	-36.1	18.2	0.00e+00	0	56	0	3064987648	39	4386
2026-01-09 15:53:56.44	304.53	17.18	-34.9	-36.1	18.2	0.00e+00	0	56	0	3072327680	39	4354
2026-01-09 15:53:57.45	304.72	17.12	-35.0	-36.2	18.1	0.00e+00	0	56	0	3079667712	39	4419
2026-01-09 15:53:58.46	304.92	17.06	-35.0	-36.2	18.1	0.00e+00	0	56	0	3087007744	39	4439
2026-01-09 15:53:59.47	305.11	17.00	-35.1	-36.3	18.0	0.00e+00	0	57	0	3094347776	39	4455
2026-01-09 15:54:00.48	305.31	16.93	-35.0	-36.2	18.1	0.00e+00	0	57	0	3101687808	39	4401
2026-01-09 15:54:01.49	305.50	16.87	-35.0	-36.2	18.1	0.00e+00	0	56	0	3109027840	39	4394
2026-01-09 15:54:02.50	305.69	16.81	-35.0	-36.1	18.1	0.00e+00	0	56	0	3116367872	39	4382
2026-01-09 15:54:03.51	305.88	16.75	-34.9	-36.1	18.2	0.00e+00	0	56	0	3123707904	39	4369
2026-01-09 15:54:04.52	306.07	16.69	-34.9	-36.1	18.2	0.00e+00	0	56	0	3131047936	39	4386
2026-01-09 15:54:05.54	306.26	16.62	-34.9	-36.1	18.1	0.00e+00	0	56	0	3138387968	39	4381
2026-01-09 15:54:06.55	306.45	16.56	-35.0	-36.2	18.1	0.00e+00	0	56	0	3145728000	39	4399
2026-01-09 15:54:07.56	306.64	16.50	-34.9	-36.0	18.2	0.00e+00	0	56	0	3153068032	39	4334
2026-01-09 15:54:08.57	306.83	16.43	-34.9	-36.0	18.2	0.00e+00	0	57	0	3160408064	39	4322
2026-01-09 15:54:09.58	307.01	16.37	-34.9	-36.0	18.2	0.00e+00	0	57	0	3167748096	39	4322
2026-01-09 15:54:10.59	307.20	16.31	-34.9	-36.1	18.1	0.00e+00	0	56	0	3175088128	39	4348
2026-01-09 15:54:11.60	307.38	16.24	-35.0	-36.1	18.1	0.00e+00	0	56	0	3182428160	39	4391
2026-01-09 15:54:12.61	307.57	16.18	-35.0	-36.2	18.0	0.00e+00	0	56	0	3189768192	39	4433
2026-01-09 15:54:13.62	307.75	16.11	-35.1	-36.3	18.0	0.00e+00	0	56	0	3196059648	39	4442
2026-01-09 15:54:14.63	307.93	16.05	-35.2	-36.4	17.8	0.00e+00	0	56	0	3204448256	40	4274
2026-01-09 15:54:15.64	308.11	15.99	-35.2	-36.5	17.7	0.00e+00	0	56	0	3211788288	40	4300
2026-01-09 15:54:16.65	308.29	15.92	-35.2	-36.4	17.7	0.00e+00	0	56	0	3218079744	40	4284
2026-01-09 15:54:17.66	308.48	15.86	-35.2	-36.4	17.7	0.00e+00	0	56	0	3225419776	40	4279
2026-01-09 15:54:18.67	308.65	15.79	-35.2	-36.5	17.7	0.00e+00	0	56	0	3233808384	40	4313
2026-01-09 15:54:19.68	308.83	15.73	-35.2	-36.4	17.7	0.00e+00	0	56	0	3240099840	40	4282
2026-01-09 15:54:20.69	309.01	15.67	-35.2	-36.4	17.8	0.00e+00	0	56	0	3247439872	40	4276
2026-01-09 15:54:21.70	309.19	15.60	-35.2	-36.4	17.7	0.00e+00	0	57	0	3254779904	40	4266
2026-01-09 15:54:22.71	309.37	15.54	-35.2	-36.4	17.7	0.00e+00	0	56	0	3262119936	40	4288
2026-01-09 15:54:23.73	309.54	15.47	-35.3	-36.6	17.6	0.00e+00	0	56	0	3269459968	40	4343
2026-01-09 15:54:24.73	309.72	15.41	-35.3	-36.6	17.5	0.00e+00	0	56	0	3276800000	40	4370
2026-01-09 15:54:25.75	309.89	15.34	-35.3	-36.6	17.6	0.00e+00	0	56	0	3284140032	40	4373
2026-01-09 15:54:26.76	310.07	15.28	-35.4	-36.6	17.5	0.00e+00	0	57	0	3291480064	40	4375
2026-01-09 15:54:27.77	310.24	15.21	-35.3	-36.5	17.6	0.00e+00	0	56	0	3298820096	40	4328
2026-01-09 15:54:28.78	310.41	15.15	-35.3	-36.6	17.6	0.00e+00	0	56	0	3306160128	40	4349
2026-01-09 15:54:29.79	310.58	15.08	-35.1	-36.4	17.8	0.00e+00	0	56	0	3313500160	40	4256
2026-01-09 15:54:30.80	310.75	15.02	-35.1	-36.4	17.8	0.00e+00	0	56	0	3320840192	40	4244
2026-01-09 15:54:31.81	310.92	14.95	-35.2	-36.4	17.7	0.00e+00	0	56	0	3328180224	40	4285
2026-01-09 15:54:32.82	311.09	14.89	-35.2	-36.4	17.7	0.00e+00	0	56	0	3335520256	40	4282
2026-01-09 15:54:33.83	311.26	14.82	-35.2	-36.5	17.6	0.00e+00	0	56	0	3342860288	40	4308
2026-01-09 15:54:34.84	311.43	14.76	-35.2	-36.5	17.6	0.00e+00	0	56	0	3350200320	40	4303
2026-01-09 15:54:35.85	311.59	14.69	-35.3	-36.6	17.5	0.00e+00	0	56	0	3357540352	40	4351
2026-01-09 15:54:36.86	311.76	14.62	-35.4	-36.7	17.4	0.00e+00	0	56	0	3363831808	40	4407
2026-01-09 15:54:37.87	311.93	14.56	-35.5	-36.8	17.3	0.00e+00	0	56	0	3371171840	40	4479
2026-01-09 15:54:38.88	312.09	14.49	-35.5	-36.8	17.3	0.00e+00	0	57	0	3379560448	40	4476
2026-01-09 15:54:39.89	312.26	14.43	-35.6	-36.9	17.1	0.00e+00	0	56	0	3385851904	40	4545
2026-01-09 15:54:40.91	312.42	14.36	-35.8	-37.1	17.0	0.00e+00	0	56	0	3393191936	41	4369
2026-01-09 15:54:41.92	312.58	14.30	-35.8	-37.1	16.9	0.00e+00	0	56	0	3400531968	41	4386
2026-01-09 15:54:42.93	312.75	14.23	-35.8	-37.1	17.0	0.00e+00	0	56	0	3407872000	41	4363
2026-01-09 15:54:43.94	312.91	14.16	-35.8	-37.1	16.9	0.00e+00	0	56	0	3415212032	41	4385
2026-01-09 15:54:44.95	313.07	14.10	-35.8	-37.1	17.0	0.00e+00	0	56	0	3422552064	41	4355
2026-01-09 15:54:45.96	313.23	14.03	-35.7	-37.0	17.1	0.00e+00	0	56	0	3429892096	41	4295
2026-01-09 15:54:46.97	313.39	13.97	-35.6	-36.9	17.2	0.00e+00	0	57	0	3437232128	41	4262
2026-01-09 15:54:47.98	313.55	13.90	-35.5	-36.8	17.3	0.00e+00	0	56	0	3444572160	41	4205
2026-01-09 15:54:48.99	313.70	13.84	-35.3	-36.6	17.4	0.00e+00	0	56	0	3451912192	41	4120
2026-01-09 15:54:50.00	313.86	13.77	-35.3	-36.5	17.6	0.00e+00	0	57	0	3459252224	41	4075
2026-01-09 15:54:51.01	314.02	13.70	-35.2	-36.5	17.6	0.00e+00	0	56	0	3466592256	41	4056
2026-01-09 15:54:52.02	314.17	13.64	-35.2	-36.4	17.6	0.00e+00	0	57	0	3473932288	41	4037
2026-01-09 15:54:53.03	314.33	13.57	-35.1	-36.3	17.7	0.00e+00	0	56	0	3481272320	41	4001
2026-01-09 15:54:54.04	314.48	13.51	-35.1	-36.4	17.6	0.00e+00	0	56	0	3488612352	41	4018
2026-01-09 15:54:55.05	314.64	13.44	-35.2	-36.4	17.6	0.00e+00	0	57	0	3495952384	41	4024
2026-01-09 15:54:56.06	314.79	13.37	-35.2	-36.5	17.5	0.00e+00	0	57	0	3503292416	41	4057
2026-01-09 15:54:57.07	314.94	13.31	-35.3	-36.6	17.4	0.00e+00	0	56	0	3510632448	41	4108
2026-01-09 15:54:58.08	315.09	13.24	-35.4	-36.6	17.4	0.00e+00	0	57	0	3517972480	41	4140
2026-01-09 15:54:59.09	315.25	13.18	-35.4	-36.6	17.4	0.00e+00	0	56	0	3525312512	41	4130
2026-01-09 15:55:00.11	315.40	13.11	-35.4	-36.7	17.3	0.00e+00	0	56	0	3532652544	41	4160
2026-01-09 15:55:01.11	315.55	13.04	-35.5	-36.8	17.2	0.00e+00	0	57	0	3538944000	41	4206
2026-01-09 15:55:02.12	315.69	12.98	-35.6	-36.9	17.1	0.00e+00	0	57	0	3547332608	41	4280
2026-01-09 15:55:03.14	315.84	12.91	-35.7	-37.0	17.0	0.00e+00	0	57	0	3554672640	41	4304
2026-01-09 15:55:04.14	315.99	12.85	-35.7	-37.1	16.9	0.00e+00	0	57	0	3560964096	41	4343
2026-01-09 15:55:05.15	316.14	12.78	-35.9	-37.2	16.8	0.00e+00	0	57	0	3568304128	41	4430
2026-01-09 15:55:06.16	316.29	12.72	-35.9	-37.3	16.7	0.00e+00	0	56	0	3575644160	41	4446
2026-01-09 15:55:07.18	316.43	12.65	-36.1	-37.5	16.5	0.00e+00	0	57	0	3582984192	41	4547
2026-01-09 15:55:08.19	316.58	12.58	-36.1	-37.6	16.4	0.00e+00	0	57	0	3590324224	41	4599
2026-01-09 15:55:09.20	316.72	12.52	-36.0	-37.4	16.6	0.00e+00	0	57	0	3597664256	41	4497
2026-01-09 15:55:10.21	316.87	12.45	-36.1	-37.5	16.5	0.00e+00	0	56	0	3605004288	41	4566
2026-01-09 15:55:11.22	317.01	12.39	-36.0	-37.4	16.6	0.00e+00	0	57	0	3612344320	41	4519
2026-01-09 15:55:12.23	317.15	12.32	-36.0	-37.4	16.5	0.00e+00	0	57	0	3619684352	41	4495
2026-01-09 15:55:13.24	317.30	12.25	-36.0	-37.4	16.6	0.00e+00	0	56	0	3627024384	41	4497
2026-01-09 15:55:14.25	317.44	12.19	-35.9	-37.3	16.7	0.00e+00	0	57	0	3634364416	41	4442
2026-01-09 15:55:15.26	317.58	12.12	-35.8	-37.2	16.8	0.00e+00	0	56	0	3641704448	41	4397
2026-01-09 15:55:16.27	317.72	12.06	-35.8	-37.1	16.9	0.00e+00	0	57	0	3649044480	41	4364
2026-01-09 15:55:17.28	317.86	11.99	-35.7	-37.1	16.9	0.00e+00	0	57	0	3656384512	41	4357
2026-01-09 15:55:18.29	318.00	11.93	-35.8	-37.1	16.8	0.00e+00	0	57	0	3663724544	41	4381
2026-01-09 15:55:19.30	318.14	11.86	-35.8	-37.1	16.8	0.00e+00	0	57	0	3671064576	41	4383
2026-01-09 15:55:20.32	318.28	11.79	-35.9	-37.2	16.7	0.00e+00	0	57	0	3678404608	41	4439
2026-01-09 15:55:21.33	318.41	11.73	-35.8	-37.2	16.7	0.00e+00	0	56	0	3685744640	41	4400
2026-01-09 15:55:22.33	318.55	11.66	-35.9	-37.2	16.7	0.00e+00	0	57	0	3693084672	41	4435
2026-01-09 15:55:23.35	318.69	11.60	-35.9	-37.3	16.6	0.00e+00	0	57	0	3700424704	41	4468
2026-01-09 15:55:24.36	318.82	11.53	-35.9	-37.3	16.6	0.00e+00	0	57	0	3706716160	41	4453
2026-01-09 15:55:25.37	318.96	11.47	-36.0	-37.4	16.5	0.00e+00	0	57	0	3714056192	41	4531
2026-01-09 15:55:26.38	319.09	11.40	-36.1	-37.6	16.3	0.00e+00	0	57	0	3722444800	41	4605
2026-01-09 15:55:27.39	319.23	11.34	-36.2	-37.7	16.2	0.00e+00	0	57	0	3728736256	42	4393
2026-01-09 15:55:28.40	319.36	11.27	-36.3	-37.7	16.2	0.00e+00	0	57	0	3736076288	42	4435
2026-01-09 15:55:29.41	319.49	11.21	-36.4	-37.9	16.0	0.00e+00	0	56	0	3743416320	42	4520
2026-01-09 15:55:30.42	319.63	11.14	-36.5	-37.9	16.0	0.00e+00	0	57	0	3750756352	42	4537
2026-01-09 15:55:31.43	319.76	11.08	-36.4	-37.9	16.0	0.00e+00	0	57	0	3758096384	42	4517
2026-01-09 15:55:32.44	319.89	11.01	-36.4	-37.9	16.0	0.00e+00	0	57	0	3765436416	42	4508
2026-01-09 15:55:33.46	320.02	10.94	-36.5	-38.0	15.9	0.00e+00	0	57	0	3772776448	42	4576
2026-01-09 15:55:34.47	320.15	10.88	-36.5	-37.9	15.9	0.00e+00	0	56	0	3780116480	42	4540
2026-01-09 15:55:35.48	320.28	10.81	-36.4	-37.9	15.9	1.10e-06	0	56	0	3787456512	42	4522
2026-01-09 15:55:36.49	320.41	10.75	-36.4	-37.9	16.0	0.00e+00	0	57	0	3794796544	42	4514
2026-01-09 15:55:37.50	320.54	10.68	-36.3	-37.8	16.1	0.00e+00	0	56	0	3802136576	42	4465
2026-01-09 15:55:38.51	320.66	10.62	-36.3	-37.8	16.1	0.00e+00	0	56	0	3809476608	42	4456
2026-01-09 15:55:39.52	320.79	10.55	-36.4	-37.9	16.0	0.00e+00	0	56	0	3816816640	42	4504
2026-01-09 15:55:40.53	320.92	10.49	-36.4	-37.9	16.0	0.00e+00	0	56	0	3824156672	42	4507
2026-01-09 15:55:41.54	321.04	10.43	-36.5	-38.0	15.9	0.00e+00	0	56	0	3831496704	42	4548
2026-01-09 15:55:42.55	321.17	10.36	-36.3	-37.8	15.9	0.00e+00	0	57	0	3838836736	42	4473
2026-01-09 15:55:43.56	321.30	10.30	-36.3	-37.8	16.1	0.00e+00	0	56	0	3846176768	42	4446
2026-01-09 15:55:44.57	321.42	10.23	-36.3	-37.7	16.1	0.00e+00	0	57	0	3853516800	42	4426
2026-01-09 15:55:45.58	321.54	10.17	-36.4	-37.9	15.9	0.00e+00	0	56	0	3860856832	42	4502
2026-01-09 15:55:46.59	321.67	10.10	-36.4	-37.9	15.9	0.00e+00	0	57	0	3868196864	42	4508
2026-01-09 15:55:47.60	321.79	10.04	-36.4	-37.8	15.9	0.00e+00	0	56	0	3875536896	42	4493
2026-01-09 15:55:48.61	321.91	9.97	-36.3	-37.7	16.0	0.00e+00	0	56	0	3881828352	42	4438
2026-01-09 15:55:49.63	322.04	9.91	-36.3	-37.8	16.0	0.00e+00	0	57	0	3890216960	42	4483
2026-01-09 15:55:50.64	322.16	9.84	-36.3	-37.8	16.0	0.00e+00	0	56	0	3897556992	42	4443
2026-01-09 15:55:51.65	322.28	9.78	-36.3	-37.8	16.0	0.00e+00	0	57	0	3903848448	42	4467
2026-01-09 15:55:52.66	322.40	9.72	-36.3	-37.8	16.0	0.00e+00	0	56	0	3911188480	42	4446
2026-01-09 15:55:53.67	322.52	9.65	-36.4	-37.8	15.9	0.00e+00	0	56	0	3918528512	42	4476
2026-01-09 15:55:54.68	322.64	9.59	-36.3	-37.8	15.9	0.00e+00	0	56	0	3925868544	42	4473
2026-01-09 15:55:55.69	322.76	9.52	-36.4	-37.8	15.9	0.00e+00	0	57	0	3933208576	42	4480
2026-01-09 15:55:56.70	322.88	9.46	-36.3	-37.8	16.0	0.00e+00	0	56	0	3940548608	42	4467
2026-01-09 15:55:57.71	322.99	9.40	-36.5	-38.0	15.8	0.00e+00	0	57	0	3947888640	42	4555
2026-01-09 15:55:58.72	323.11	9.33	-36.5	-38.0	15.7	0.00e+00	0	56	0	3955228672	42	4582
2026-01-09 15:55:59.73	323.23	9.27	-36.5	-38.0	15.7	0.00e+00	0	57	0	3962568704	42	4556
2026-01-09 15:56:00.74	323.34	9.21	-36.7	-38.2	15.5	0.00e+00	0	57	0	3969908736	42	4700
2026-01-09 15:56:01.75	323.46	9.14	-36.8	-38.4	15.3	0.00e+00	0	57	0	3977248768	43	4538
2026-01-09 15:56:02.76	323.58	9.08	-36.8	-38.4	15.3	0.00e+00	0	56	0	3984588800	43	4507
2026-01-09 15:56:03.77	323.69	9.02	-36.8	-38.4	15.3	0.00e+00	0	57	0	3991928832	43	4501
2026-01-09 15:56:04.78	323.81	8.95	-36.7	-38.3	15.4	0.00e+00	0	56	0	3999268864	43	4458
2026-01-09 15:56:05.79	323.92	8.89	-36.7	-38.3	15.4	0.00e+00	0	57	0	4006608896	43	4465
2026-01-09 15:56:06.80	324.03	8.83	-36.7	-38.3	15.3	1.10e-06	0	57	0	4013948928	43	4470
2026-01-09 15:56:07.81	324.15	8.76	-36.8	-38.3	15.3	0.00e+00	0	56	0	4021288960	43	4486
2026-01-09 15:56:08.82	324.26	8.70	-37.0	-38.7	14.9	0.00e+00	0	57	0	4028628992	43	4674
2026-01-09 15:56:09.83	324.37	8.64	-37.1	-38.8	14.9	0.00e+00	0	57	0	4035969024	43	4721
2026-01-09 15:56:10.85	324.48	8.57	-37.1	-38.8	14.8	0.00e+00	0	57	0	4043309056	43	4712
2026-01-09 15:56:11.86	324.59	8.51	-37.4	-39.1	14.7	1.10e-06	0	57	0	4049600512	44	4604
2026-01-09 15:56:12.87	324.71	8.45	-37.4	-39.1	14.7	0.00e+00	0	57	0	4056940544	44	4612
2026-01-09 15:56:13.88	324.82	8.38	-37.4	-39.1	14.7	2.20e-06	0	57	0	4065329152	44	4607
2026-01-09 15:56:14.89	324.93	8.32	-37.2	-38.9	14.9	0.00e+00	0	56	0	4071620608	44	4504
2026-01-09 15:56:15.90	325.04	8.26	-37.1	-38.7	15.0	0.00e+00	0	57	0	4078960640	44	4409
2026-01-09 15:56:16.91	325.14	8.20	-37.1	-38.7	15.0	0.00e+00	0	57	0	4086300672	44	4410
2026-01-09 15:56:17.92	325.25	8.13	-37.0	-38.6	15.1	0.00e+00	0	56	0	4093640704	44	4360
2026-01-09 15:56:18.93	325.36	8.07	-37.1	-38.7	15.0	0.00e+00	0	57	0	4100980736	44	4417
2026-01-09 15:56:19.94	325.47	8.01	-37.3	-39.0	14.8	0.00e+00	0	56	0	4108320768	44	4549
2026-01-09 15:56:20.95	325.58	7.95	-43.7	-52.0	3.9	5.51e-01	0	56	104	4113563648	57	9652
2026-01-09 15:56:21.96	325.68	7.89	-44.5	-55.5	3.8	8.46e-01	0	57	104	4113563648	58	13664
2026-01-09 15:56:22.97	325.79	7.82	-44.8	-55.8	3.8	8.47e-01	0	57	104	4113563648	59	13291
2026-01-09 15:56:23.98	325.89	7.76	-45.0	-56.0	3.8	8.46e-01	0	57	104	4113563648	59	13590
2026-01-09 15:56:24.99	326.00	7.70	-45.1	-56.1	3.8	8.46e-01	0	57	104	4113563648	59	13876
2026-01-09 15:56:26.00	326.11	7.64	-45.2	-56.4	3.8	8.47e-01	0	57	104	4113563648	60	13545
2026-01-09 15:56:27.01	326.21	7.58	-45.2	-56.5	3.8	8.46e-01	0	57	104	4113563648	60	13664
2026-01-09 15:56:28.02	326.31	7.51	-45.2	-56.6	3.8	8.45e-01	0	57	104	4113563648	60	13735
2026-01-09 15:56:29.04	326.42	7.45	-45.2	-56.5	3.8	8.45e-01	0	57	104	4113563648	60	13714
2026-01-09 15:56:30.04	326.52	7.39	-45.2	-56.5	3.8	8.47e-01	0	57	104	4113563648	60	13725
2026-01-09 15:56:31.06	326.62	7.33	-45.1	-56.5	3.8	8.47e-01	0	57	104	4113563648	60	13657
2026-01-09 15:56:32.07	326.73	7.27	-45.1	-56.5	3.8	8.47e-01	0	57	104	4113563648	60	13579
2026-01-09 15:56:33.08	326.83	7.21	-45.1	-56.5	3.8	8.47e-01	0	57	104	4113563648	60	13572
2026-01-09 15:56:34.09	326.93	7.14	-45.1	-56.4	3.8	8.45e-01	0	57	104	4113563648	60	13534
2026-01-09 15:56:35.10	327.03	7.08	-45.1	-56.5	3.8	8.46e-01	0	57	104	4113563648	60	13575
2026-01-09 15:56:36.11	327.13	7.02	-45.1	-56.4	3.8	8.46e-01	0	57	104	4113563648	60	13569
2026-01-09 15:56:37.12	327.23	6.96	-45.1	-56.4	3.8	8.47e-01	0	57	104	4113563648	60	13531
2026-01-09 15:56:38.13	327.33	6.90	-45.1	-56.4	3.8	8.46e-01	0	57	104	4113563648	60	13473
2026-01-09 15:56:39.14	327.43	6.84	-45.1	-56.4	3.8	8.46e-01	0	57	104	4113563648	60	13497
2026-01-09 15:56:40.15	327.53	6.78	-45.1	-56.4	3.8	8.47e-01	0	57	104	4113563648	60	13522
2026-01-09 15:56:41.16	327.63	6.72	-45.1	-56.5	3.8	8.46e-01	0	57	104	4113563648	60	13574
2026-01-09 15:56:42.17	327.73	6.66	-45.1	-56.4	3.8	8.45e-01	0	57	104	4113563648	60	13534
2026-01-09 15:56:43.18	327.83	6.60	-45.1	-56.4	3.8	8.45e-01	0	57	104	4113563648	60	13533
2026-01-09 15:56:44.19	327.93	6.54	-45.1	-56.4	3.8	8.46e-01	0	57	104	4113563648	60	13469
2026-01-09 15:56:45.20	328.02	6.48	-45.1	-56.4	3.8	8.45e-01	0	57	104	4113563648	60	13535
2026-01-09 15:56:46.21	328.12	6.41	-45.0	-56.4	3.8	8.46e-01	0	57	104	4113563648	60	13522
2026-01-09 15:56:47.22	328.22	6.35	-45.1	-56.4	3.8	8.46e-01	0	57	104	4113563648	60	13471
2026-01-09 15:56:48.23	328.31	6.29	-45.1	-56.4	3.8	8.46e-01	0	57	104	4113563648	60	13536
