passes_logs/2026/01/09/R2.0S_Moscow/R2.0S_Moscow__20260109_005737_NOAA_21_JPSS-2_rec.log

#Pass ID: 20260109_005737_NOAA 21 (JPSS-2)
#Satellite: NOAA 21 (JPSS-2)
#Configuration: NOAA-21
#almurnet v.1.7.20251203
#Start time: 2026-01-09 01:01:00

#Version: 2.2.20231116
#Station: R2.0S_Moscow
#Location: 37.707566 lon 55.798166 lat
#TLE: 1 54234U 22150A   26008.45757862  .00000119  00000+0  77172-4 0  9996
#TLE: 2 54234  98.7494 309.4367 0000894 328.2777  31.8345 14.19533328163889

#Time	Az	El	Level	Level2	SNR	BER	BlckErr	Temp	State	Recorded	gain1	gain2
2026-01-09 01:01:00.44	353.97	16.70	-44.7	-56.2	3.8	8.45e-01	0	56	0	0	60	14042
2026-01-09 01:01:01.43	353.83	16.79	-44.9	-57.2	3.8	1.49e+00	0	57	104	0	61	14829
2026-01-09 01:01:02.44	353.69	16.88	-45.0	-57.2	3.8	1.49e+00	0	57	104	0	61	14862
2026-01-09 01:01:03.46	353.54	16.97	-45.0	-57.3	3.8	1.49e+00	0	57	104	0	61	14935
2026-01-09 01:01:04.47	353.39	17.06	-45.0	-57.2	3.8	1.49e+00	0	57	104	0	61	14837
2026-01-09 01:01:05.48	353.25	17.15	-44.9	-57.2	3.8	1.49e+00	0	57	104	0	61	14839
2026-01-09 01:01:06.49	353.10	17.24	-44.9	-57.2	3.8	1.49e+00	0	57	104	0	61	14745
2026-01-09 01:01:07.50	352.95	17.33	-44.8	-57.1	3.8	1.49e+00	0	57	104	0	61	14676
2026-01-09 01:01:08.51	352.80	17.42	-44.7	-57.0	3.8	1.49e+00	0	57	104	0	61	14441
2026-01-09 01:01:09.52	352.65	17.51	-43.9	-56.2	3.8	1.49e+00	0	57	104	0	59	14800
2026-01-09 01:01:10.53	352.49	17.60	-41.5	-54.0	3.8	1.49e+00	0	57	104	0	55	14486
2026-01-09 01:01:11.54	352.34	17.69	-41.5	-54.0	3.8	1.49e+00	0	57	104	0	55	14485
2026-01-09 01:01:12.55	352.19	17.78	-41.5	-54.0	3.8	1.49e+00	0	57	104	0	55	14462
2026-01-09 01:01:13.56	352.03	17.87	-41.5	-54.0	3.8	1.49e+00	0	57	104	0	55	14403
2026-01-09 01:01:14.57	351.87	17.96	-41.5	-54.0	3.8	1.49e+00	0	57	104	0	55	14468
2026-01-09 01:01:15.58	351.72	18.05	-41.5	-54.0	3.8	1.49e+00	0	57	104	0	55	14440
2026-01-09 01:01:16.59	351.56	18.14	-41.5	-54.0	3.8	1.49e+00	0	57	104	0	55	14410
2026-01-09 01:01:17.60	351.40	18.23	-41.5	-54.0	3.8	1.49e+00	0	57	104	0	55	14436
2026-01-09 01:01:18.61	351.24	18.32	-41.5	-54.0	3.8	1.49e+00	0	57	104	0	55	14462
2026-01-09 01:01:19.62	351.08	18.41	-41.5	-54.0	3.8	1.49e+00	0	57	104	0	55	14416
2026-01-09 01:01:20.63	350.92	18.50	-41.5	-54.0	3.8	1.49e+00	0	57	104	0	55	14436
2026-01-09 01:01:21.64	350.75	18.59	-41.5	-54.0	3.8	1.49e+00	0	57	104	0	55	14427
2026-01-09 01:01:22.65	350.59	18.68	-41.5	-54.0	3.8	1.49e+00	0	57	104	0	55	14434
2026-01-09 01:01:23.66	350.43	18.77	-41.5	-54.0	3.8	1.49e+00	0	57	104	0	55	14415
2026-01-09 01:01:24.68	350.26	18.87	-41.5	-54.0	3.8	1.49e+00	0	57	104	0	55	14431
2026-01-09 01:01:25.69	350.09	18.96	-41.5	-54.0	3.8	1.49e+00	0	57	104	0	55	14437
2026-01-09 01:01:26.70	349.92	19.05	-41.5	-54.0	3.8	1.49e+00	0	57	104	0	55	14425
2026-01-09 01:01:27.71	349.75	19.14	-41.5	-54.0	3.8	1.49e+00	0	57	104	0	55	14416
2026-01-09 01:01:28.72	349.58	19.23	-41.5	-54.0	3.8	1.49e+00	0	57	104	0	55	14382
2026-01-09 01:01:29.73	349.41	19.32	-41.5	-54.0	3.8	1.49e+00	0	57	104	0	55	14398
2026-01-09 01:01:30.74	349.24	19.42	-41.5	-54.0	3.8	1.49e+00	0	57	104	0	55	14418
2026-01-09 01:01:31.75	349.07	19.51	-41.5	-54.0	3.8	1.49e+00	0	57	104	0	55	14427
2026-01-09 01:01:32.76	348.89	19.60	-41.5	-54.0	3.8	1.49e+00	0	57	104	0	55	14376
2026-01-09 01:01:33.77	348.72	19.69	-41.5	-54.0	3.8	1.49e+00	0	57	104	0	55	14391
2026-01-09 01:01:34.78	348.54	19.78	-41.5	-54.0	3.8	1.49e+00	0	57	104	0	55	14394
2026-01-09 01:01:35.79	348.37	19.88	-41.5	-53.9	3.8	1.49e+00	0	57	104	0	55	14316
2026-01-09 01:01:36.80	348.19	19.97	-41.5	-53.9	3.8	1.49e+00	0	57	104	0	55	14291
2026-01-09 01:01:37.81	348.01	20.06	-41.5	-53.9	3.8	1.49e+00	0	57	104	0	55	14341
2026-01-09 01:01:38.82	347.83	20.15	-41.5	-53.9	3.8	1.49e+00	0	57	104	0	55	14361
2026-01-09 01:01:39.84	347.64	20.25	-41.5	-53.9	3.8	1.49e+00	0	57	104	0	55	14350
2026-01-09 01:01:40.85	347.46	20.34	-41.5	-53.8	3.8	1.49e+00	0	57	104	0	55	14134
2026-01-09 01:01:41.85	347.28	20.43	-41.5	-53.6	3.8	1.49e+00	0	57	104	0	54	14627
2026-01-09 01:01:42.87	347.09	20.52	-41.5	-53.6	3.8	1.49e+00	0	57	104	0	54	14663
2026-01-09 01:01:43.88	346.90	20.62	-41.5	-53.9	3.8	1.49e+00	0	57	104	0	54	15052
2026-01-09 01:01:44.89	346.72	20.71	-41.5	-54.0	3.8	1.49e+00	0	57	104	0	54	15231
2026-01-09 01:01:45.90	346.53	20.80	-41.5	-53.9	3.8	1.49e+00	0	57	104	0	54	15115
2026-01-09 01:01:46.91	346.34	20.89	-41.4	-53.2	3.8	1.49e+00	0	57	104	0	54	14018
2026-01-09 01:01:47.92	346.15	20.98	-41.2	-51.6	3.9	1.49e+00	0	57	104	0	54	11556
2026-01-09 01:01:48.93	345.95	21.08	-40.8	-48.7	4.8	1.14e+00	1	57	104	0	53	8861
2026-01-09 01:01:49.94	345.76	21.17	-40.3	-46.4	6.4	3.70e-01	0	57	0	2097152	52	7133
2026-01-09 01:01:50.95	345.57	21.26	-39.6	-44.2	8.5	7.14e-02	0	57	0	5242880	51	5904
2026-01-09 01:01:51.96	345.37	21.35	-38.9	-42.6	10.1	9.17e-03	0	57	0	8388608	49	5492
2026-01-09 01:01:52.97	345.17	21.45	-38.5	-41.9	11.0	2.21e-03	0	57	0	11534336	49	5055
2026-01-09 01:01:53.98	344.98	21.54	-38.4	-41.7	11.1	1.63e-03	0	57	0	14680064	48	5253
2026-01-09 01:01:54.99	344.78	21.63	-36.9	-38.8	15.3	1.50e-06	0	57	0	17825792	45	4479
2026-01-09 01:01:56.00	344.58	21.72	-39.3	-42.0	12.5	1.50e-06	0	57	0	20971520	49	5120
2026-01-09 01:01:57.01	344.38	21.82	-39.3	-44.6	7.3	1.66e-02	0	57	0	24117248	49	6881
2026-01-09 01:01:58.02	344.17	21.91	-37.4	-39.4	15.0	3.00e-06	0	57	0	27262976	46	4513
2026-01-09 01:01:59.03	343.97	22.00	-40.6	-46.4	6.8	4.08e-02	0	57	0	30408704	51	7605
2026-01-09 01:02:00.03	343.76	22.09	-37.1	-39.0	15.2	0.00e+00	0	57	0	33554432	46	4326
2026-01-09 01:02:01.04	343.56	22.18	-37.1	-38.9	15.5	0.00e+00	0	57	0	36700160	45	4528
2026-01-09 01:02:02.05	343.35	22.27	-37.3	-39.2	15.2	0.00e+00	0	57	0	39845888	45	4702
2026-01-09 01:02:03.06	343.14	22.37	-37.5	-39.5	15.1	0.00e+00	0	57	0	42991616	45	4822
2026-01-09 01:02:04.07	342.93	22.46	-37.6	-39.6	15.1	0.00e+00	0	57	0	46137344	45	4886
2026-01-09 01:02:05.08	342.72	22.55	-37.4	-39.3	15.4	0.00e+00	0	57	0	49283072	45	4748
2026-01-09 01:02:06.09	342.51	22.64	-37.2	-39.0	15.8	0.00e+00	0	57	0	52428800	45	4546
2026-01-09 01:02:07.10	342.29	22.73	-37.1	-38.8	16.1	0.00e+00	0	57	0	55574528	45	4455
2026-01-09 01:02:08.11	342.08	22.82	-37.0	-38.6	16.4	0.00e+00	0	57	0	58720256	45	4365
2026-01-09 01:02:09.12	341.86	22.92	-36.9	-38.5	16.6	0.00e+00	0	57	0	61865984	45	4307
2026-01-09 01:02:10.13	341.64	23.01	-36.8	-38.4	16.6	0.00e+00	0	57	0	65011712	45	4280
2026-01-09 01:02:11.14	341.42	23.10	-37.0	-38.6	16.5	0.00e+00	0	57	0	68157440	45	4379
2026-01-09 01:02:12.15	341.20	23.19	-37.2	-38.9	16.3	0.00e+00	0	57	0	71303168	45	4499
2026-01-09 01:02:13.16	340.98	23.28	-37.3	-38.9	16.3	0.00e+00	0	57	0	74448896	45	4533
2026-01-09 01:02:14.17	340.76	23.37	-37.2	-38.8	16.5	0.00e+00	0	57	0	77594624	45	4487
2026-01-09 01:02:15.18	340.53	23.46	-37.1	-38.7	16.6	0.00e+00	0	57	0	80740352	45	4439
2026-01-09 01:02:16.19	340.31	23.55	-37.1	-38.7	16.6	0.00e+00	0	57	0	83886080	45	4419
2026-01-09 01:02:17.20	340.08	23.64	-37.0	-38.6	16.8	0.00e+00	0	57	0	87031808	45	4342
2026-01-09 01:02:18.21	339.85	23.73	-37.0	-38.5	16.8	0.00e+00	0	57	0	90177536	45	4333
2026-01-09 01:02:19.22	339.62	23.82	-36.8	-38.4	17.0	0.00e+00	0	57	0	93323264	45	4257
2026-01-09 01:02:20.23	339.39	23.91	-36.9	-38.4	17.0	0.00e+00	0	57	0	96468992	45	4260
2026-01-09 01:02:21.24	339.16	24.00	-36.9	-38.4	17.0	0.00e+00	0	57	0	99614720	45	4286
2026-01-09 01:02:22.25	338.92	24.09	-36.9	-38.5	16.9	0.00e+00	0	57	0	102760448	45	4310
2026-01-09 01:02:23.26	338.69	24.18	-37.0	-38.6	16.8	0.00e+00	0	57	0	105906176	45	4341
2026-01-09 01:02:24.27	338.45	24.27	-36.9	-38.5	16.9	0.00e+00	0	57	0	109051904	45	4311
2026-01-09 01:02:25.28	338.21	24.35	-36.9	-38.4	17.0	0.00e+00	0	57	0	112197632	45	4273
2026-01-09 01:02:26.28	337.98	24.44	-36.9	-38.4	17.0	0.00e+00	0	57	0	115343360	45	4276
2026-01-09 01:02:27.29	337.74	24.53	-37.0	-38.5	16.9	0.00e+00	0	57	0	118489088	45	4321
2026-01-09 01:02:28.31	337.49	24.62	-37.1	-38.7	16.8	0.00e+00	0	57	0	121634816	45	4399
2026-01-09 01:02:29.31	337.25	24.70	-37.2	-38.8	16.7	0.00e+00	0	57	0	124780544	45	4459
2026-01-09 01:02:30.32	337.01	24.79	-37.3	-38.9	16.6	0.00e+00	0	57	0	127926272	45	4514
2026-01-09 01:02:31.33	336.76	24.88	-37.4	-39.0	16.5	0.00e+00	0	57	0	131072000	45	4583
2026-01-09 01:02:32.35	336.51	24.97	-37.4	-39.1	16.4	0.00e+00	0	57	0	134217728	45	4601
2026-01-09 01:02:33.36	336.26	25.05	-37.4	-39.0	16.5	0.00e+00	0	57	0	137363456	45	4559
2026-01-09 01:02:34.37	336.01	25.14	-37.3	-38.9	16.5	0.00e+00	0	57	0	140509184	45	4531
2026-01-09 01:02:35.38	335.76	25.22	-37.4	-39.0	16.5	0.00e+00	0	57	0	143654912	45	4592
2026-01-09 01:02:36.38	335.51	25.31	-37.5	-39.1	16.4	0.00e+00	0	57	0	146800640	45	4620
2026-01-09 01:02:37.39	335.26	25.39	-37.5	-39.1	16.4	0.00e+00	0	57	0	149946368	45	4637
2026-01-09 01:02:38.40	335.00	25.48	-37.5	-39.1	16.4	0.00e+00	0	57	0	153092096	45	4635
2026-01-09 01:02:39.41	334.74	25.56	-37.4	-39.1	16.4	0.00e+00	0	57	0	156237824	45	4602
2026-01-09 01:02:40.42	334.48	25.65	-37.4	-39.0	16.5	0.00e+00	0	57	0	159383552	45	4583
2026-01-09 01:02:41.42	334.23	25.73	-37.3	-38.9	16.6	0.00e+00	0	57	0	162529280	45	4535
2026-01-09 01:02:42.43	333.97	25.81	-37.2	-38.8	16.7	0.00e+00	0	57	0	165675008	45	4462
2026-01-09 01:02:43.44	333.70	25.89	-37.2	-38.8	16.7	0.00e+00	0	57	0	168820736	45	4467
2026-01-09 01:02:44.45	333.44	25.98	-37.4	-39.0	16.5	0.00e+00	0	57	0	171966464	45	4578
2026-01-09 01:02:45.46	333.17	26.06	-37.4	-39.1	16.4	0.00e+00	0	57	0	175112192	45	4611
2026-01-09 01:02:46.47	332.91	26.14	-37.5	-39.1	16.4	0.00e+00	0	57	0	178257920	45	4616
2026-01-09 01:02:47.48	332.64	26.22	-37.4	-39.0	16.5	0.00e+00	0	57	0	181403648	45	4593
2026-01-09 01:02:48.49	332.37	26.30	-37.4	-39.0	16.5	0.00e+00	0	57	0	185597952	45	4568
2026-01-09 01:02:49.50	332.10	26.38	-37.5	-39.1	16.4	0.00e+00	0	57	0	187695104	45	4622
2026-01-09 01:02:50.51	331.83	26.46	-37.4	-39.0	16.5	0.00e+00	0	57	0	190840832	45	4565
2026-01-09 01:02:51.52	331.55	26.54	-37.4	-39.0	16.5	0.00e+00	0	57	0	193986560	45	4582
2026-01-09 01:02:52.53	331.28	26.62	-37.3	-38.9	16.5	0.00e+00	0	57	0	197132288	45	4539
2026-01-09 01:02:53.54	331.00	26.70	-37.4	-39.1	16.4	0.00e+00	0	57	0	201326592	45	4613
2026-01-09 01:02:54.55	330.72	26.77	-37.5	-39.2	16.3	0.00e+00	0	57	0	204472320	45	4671
2026-01-09 01:02:55.56	330.44	26.85	-37.5	-39.2	16.4	0.00e+00	0	57	0	207618048	45	4656
2026-01-09 01:02:56.57	330.16	26.93	-37.4	-39.0	16.5	0.00e+00	0	57	0	209715200	45	4595
2026-01-09 01:02:57.58	329.88	27.00	-37.4	-39.0	16.5	0.00e+00	0	57	0	212860928	45	4584
2026-01-09 01:02:58.59	329.60	27.08	-37.4	-39.1	16.4	0.00e+00	0	57	0	217055232	45	4606
2026-01-09 01:02:59.60	329.31	27.15	-37.4	-39.0	16.5	0.00e+00	0	57	0	220200960	45	4585
2026-01-09 01:03:00.61	329.03	27.23	-37.4	-39.0	16.5	0.00e+00	0	57	0	223346688	45	4573
2026-01-09 01:03:01.62	328.74	27.30	-37.5	-39.1	16.4	0.00e+00	0	57	0	226492416	45	4645
2026-01-09 01:03:02.63	328.45	27.37	-37.4	-39.0	16.5	0.00e+00	0	57	0	229638144	45	4554
2026-01-09 01:03:03.64	328.16	27.45	-37.3	-38.8	16.7	0.00e+00	0	57	0	232783872	45	4490
2026-01-09 01:03:04.65	327.87	27.52	-37.3	-38.8	16.7	0.00e+00	0	57	0	235929600	45	4492
2026-01-09 01:03:05.66	327.58	27.59	-37.2	-38.8	16.7	0.00e+00	0	57	0	239075328	45	4471
2026-01-09 01:03:06.67	327.28	27.66	-37.4	-39.0	16.5	0.00e+00	0	57	0	242221056	45	4570
2026-01-09 01:03:07.68	326.99	27.73	-37.4	-39.1	16.4	0.00e+00	0	57	0	245366784	45	4599
2026-01-09 01:03:08.69	326.69	27.80	-37.6	-39.3	16.2	0.00e+00	0	57	0	248512512	45	4710
2026-01-09 01:03:09.70	326.39	27.87	-37.6	-39.3	16.2	0.00e+00	0	57	0	251658240	45	4730
2026-01-09 01:03:10.71	326.09	27.93	-37.6	-39.3	16.2	0.00e+00	0	57	0	254803968	45	4711
2026-01-09 01:03:11.72	325.79	28.00	-37.5	-39.1	16.4	0.00e+00	0	57	0	257949696	45	4636
2026-01-09 01:03:12.73	325.49	28.07	-37.5	-39.1	16.4	0.00e+00	0	57	0	261095424	45	4642
2026-01-09 01:03:13.73	325.19	28.13	-37.6	-39.3	16.2	0.00e+00	0	57	0	264241152	45	4730
2026-01-09 01:03:14.75	324.88	28.20	-37.7	-39.4	16.0	0.00e+00	0	57	0	267386880	46	4539
2026-01-09 01:03:15.75	324.58	28.26	-37.9	-39.6	15.9	0.00e+00	0	57	0	270532608	46	4611
2026-01-09 01:03:16.76	324.27	28.33	-37.7	-39.4	16.1	0.00e+00	0	57	0	273678336	46	4537
2026-01-09 01:03:17.77	323.97	28.39	-37.4	-39.0	16.5	0.00e+00	0	57	0	276824064	46	4332
2026-01-09 01:03:18.78	323.66	28.45	-37.3	-38.9	16.6	0.00e+00	0	57	0	279969792	46	4277
2026-01-09 01:03:19.79	323.35	28.51	-37.3	-38.9	16.6	0.00e+00	0	57	0	283115520	46	4258
2026-01-09 01:03:20.80	323.04	28.57	-37.3	-38.9	16.6	0.00e+00	0	57	0	286261248	46	4269
2026-01-09 01:03:21.81	322.72	28.63	-37.5	-39.1	16.4	0.00e+00	0	57	0	289406976	46	4354
2026-01-09 01:03:22.82	322.41	28.69	-37.5	-39.2	16.3	0.00e+00	0	57	0	292552704	46	4409
2026-01-09 01:03:23.82	322.10	28.75	-37.7	-39.4	16.2	0.00e+00	0	57	0	295698432	46	4498
2026-01-09 01:03:24.83	321.78	28.80	-37.6	-39.3	16.3	0.00e+00	0	57	0	298844160	46	4444
2026-01-09 01:03:25.84	321.46	28.86	-37.6	-39.3	16.3	0.00e+00	0	57	0	301989888	46	4443
2026-01-09 01:03:26.85	321.14	28.91	-37.6	-39.2	16.3	0.00e+00	0	57	0	305135616	46	4434
2026-01-09 01:03:27.86	320.83	28.97	-37.7	-39.4	16.1	0.00e+00	0	57	0	308281344	46	4542
2026-01-09 01:03:28.87	320.50	29.02	-37.7	-39.4	16.1	0.00e+00	0	57	0	311427072	46	4536
2026-01-09 01:03:29.88	320.18	29.07	-37.8	-39.5	16.1	0.00e+00	0	57	0	314572800	46	4555
2026-01-09 01:03:30.90	319.86	29.13	-37.8	-39.5	16.0	0.00e+00	0	57	0	317718528	46	4597
2026-01-09 01:03:31.91	319.53	29.18	-37.8	-39.5	16.0	0.00e+00	0	57	0	320864256	46	4559
2026-01-09 01:03:32.91	319.21	29.23	-37.8	-39.5	16.0	0.00e+00	0	57	0	324009984	46	4584
2026-01-09 01:03:33.92	318.89	29.28	-37.9	-39.6	15.9	0.00e+00	0	57	0	327155712	46	4605
2026-01-09 01:03:34.94	318.56	29.32	-37.8	-39.5	16.1	0.00e+00	0	57	0	330301440	46	4557
2026-01-09 01:03:35.95	318.23	29.37	-37.9	-39.6	15.9	0.00e+00	0	57	0	333447168	46	4643
2026-01-09 01:03:36.96	317.90	29.42	-37.9	-39.6	15.9	0.00e+00	0	57	0	336592896	46	4634
2026-01-09 01:03:37.96	317.57	29.46	-37.9	-39.7	15.9	0.00e+00	0	57	0	339738624	46	4653
2026-01-09 01:03:38.97	317.24	29.50	-38.0	-39.7	15.8	0.00e+00	0	57	0	342884352	46	4695
2026-01-09 01:03:39.98	316.91	29.55	-37.9	-39.7	15.9	0.00e+00	0	57	0	346030080	46	4652
2026-01-09 01:03:40.99	316.58	29.59	-37.8	-39.5	16.0	0.00e+00	0	57	0	349175808	46	4581
2026-01-09 01:03:42.00	316.25	29.63	-37.8	-39.5	16.0	0.00e+00	0	57	0	352321536	46	4597
2026-01-09 01:03:43.01	315.91	29.67	-37.8	-39.5	16.0	0.00e+00	0	57	0	355467264	46	4590
2026-01-09 01:03:44.02	315.58	29.71	-37.8	-39.5	16.1	0.00e+00	0	57	0	358612992	46	4564
2026-01-09 01:03:45.03	315.24	29.75	-37.7	-39.4	16.2	0.00e+00	0	57	0	361758720	46	4499
2026-01-09 01:03:46.04	314.90	29.78	-37.7	-39.4	16.2	0.00e+00	0	57	0	364904448	46	4498
2026-01-09 01:03:47.05	314.57	29.82	-37.6	-39.3	16.3	0.00e+00	0	57	0	368050176	46	4446
2026-01-09 01:03:48.06	314.23	29.85	-37.7	-39.4	16.1	0.00e+00	0	57	0	371195904	46	4500
2026-01-09 01:03:49.07	313.89	29.89	-37.8	-39.4	16.1	0.00e+00	0	57	0	374341632	46	4538
2026-01-09 01:03:50.07	313.55	29.92	-37.7	-39.4	16.1	0.00e+00	0	57	0	377487360	46	4523
2026-01-09 01:03:51.08	313.21	29.95	-37.7	-39.4	16.1	0.00e+00	0	57	0	380633088	46	4525
2026-01-09 01:03:52.09	312.87	29.98	-37.7	-39.4	16.2	0.00e+00	0	57	0	383778816	46	4499
2026-01-09 01:03:53.10	312.53	30.01	-37.5	-39.2	16.4	0.00e+00	0	57	0	386924544	46	4400
2026-01-09 01:03:54.11	312.19	30.04	-37.4	-39.0	16.5	0.00e+00	0	57	0	390070272	46	4334
2026-01-09 01:03:55.12	311.85	30.06	-37.5	-39.2	16.3	0.00e+00	0	57	0	393216000	46	4414
2026-01-09 01:03:56.13	311.50	30.09	-37.5	-39.2	16.3	0.00e+00	0	57	0	396361728	46	4408
2026-01-09 01:03:57.14	311.16	30.11	-37.5	-39.2	16.3	0.00e+00	0	57	0	399507456	46	4413
2026-01-09 01:03:58.15	310.81	30.14	-37.6	-39.3	16.3	0.00e+00	0	57	0	402653184	46	4447
2026-01-09 01:03:59.16	310.47	30.16	-37.6	-39.2	16.3	0.00e+00	0	57	0	405798912	46	4416
2026-01-09 01:04:00.16	310.13	30.18	-37.6	-39.2	16.3	0.00e+00	0	57	0	408944640	46	4415
2026-01-09 01:04:01.17	309.78	30.20	-37.7	-39.4	16.1	0.00e+00	0	57	0	412090368	46	4514
2026-01-09 01:04:02.18	309.44	30.22	-37.8	-39.6	15.9	0.00e+00	0	57	0	415236096	46	4608
2026-01-09 01:04:03.19	309.09	30.24	-37.9	-39.7	15.8	0.00e+00	0	57	0	418381824	46	4673
2026-01-09 01:04:04.20	308.74	30.25	-37.6	-39.3	16.3	0.00e+00	0	57	0	421527552	46	4455
2026-01-09 01:04:05.21	308.40	30.27	-37.5	-39.1	16.4	0.00e+00	0	57	0	424673280	46	4385
2026-01-09 01:04:06.22	308.05	30.28	-37.6	-39.2	16.3	0.00e+00	0	57	0	427819008	46	4424
2026-01-09 01:04:07.23	307.70	30.30	-37.7	-39.3	16.2	0.00e+00	0	57	0	430964736	46	4490
2026-01-09 01:04:08.24	307.35	30.31	-37.6	-39.3	16.2	0.00e+00	0	57	0	434110464	46	4473
2026-01-09 01:04:09.25	307.00	30.32	-37.7	-39.4	16.1	0.00e+00	0	57	0	437256192	46	4525
2026-01-09 01:04:10.25	306.66	30.33	-37.8	-39.5	16.0	0.00e+00	0	57	0	440401920	46	4568
2026-01-09 01:04:11.26	306.31	30.34	-37.8	-39.5	16.0	0.00e+00	0	57	0	443547648	46	4592
2026-01-09 01:04:12.27	305.96	30.34	-37.8	-39.5	16.0	0.00e+00	0	57	0	446693376	46	4573
2026-01-09 01:04:13.28	305.61	30.35	-37.8	-39.5	16.1	0.00e+00	0	57	0	449839104	46	4551
2026-01-09 01:04:14.29	305.26	30.35	-37.6	-39.2	16.3	0.00e+00	0	57	0	452984832	46	4439
2026-01-09 01:04:15.30	304.91	30.36	-37.4	-39.0	16.5	0.00e+00	0	57	0	456130560	46	4325
2026-01-09 01:04:16.31	304.56	30.36	-37.4	-39.0	16.5	0.00e+00	0	57	0	459276288	46	4316
2026-01-09 01:04:17.32	304.21	30.36	-37.4	-39.0	16.5	0.00e+00	0	57	0	462422016	46	4320
2026-01-09 01:04:18.33	303.86	30.36	-37.4	-39.0	16.5	0.00e+00	0	57	0	465567744	46	4304
2026-01-09 01:04:19.34	303.51	30.36	-37.5	-39.1	16.4	0.00e+00	0	57	0	468713472	46	4372
2026-01-09 01:04:20.35	303.17	30.36	-37.3	-38.9	16.6	0.00e+00	0	57	0	471859200	46	4253
2026-01-09 01:04:21.36	302.82	30.35	-37.2	-38.7	16.7	0.00e+00	0	57	0	475004928	46	4181
2026-01-09 01:04:22.37	302.47	30.35	-37.2	-38.7	16.7	0.00e+00	0	57	0	478150656	46	4191
2026-01-09 01:04:23.38	302.12	30.34	-37.2	-38.8	16.7	0.00e+00	0	57	0	481296384	46	4220
2026-01-09 01:04:24.39	301.77	30.33	-37.4	-39.0	16.5	0.00e+00	0	57	0	484442112	46	4320
2026-01-09 01:04:25.40	301.42	30.33	-37.4	-39.1	16.5	0.00e+00	0	57	0	487587840	46	4346
2026-01-09 01:04:26.40	301.07	30.32	-37.5	-39.2	16.3	0.00e+00	0	57	0	490733568	46	4396
2026-01-09 01:04:27.41	300.73	30.31	-37.5	-39.2	16.3	0.00e+00	0	57	0	493879296	46	4392
2026-01-09 01:04:28.42	300.38	30.29	-37.7	-39.3	16.2	0.00e+00	0	57	0	497025024	46	4480
2026-01-09 01:04:29.43	300.03	30.28	-37.7	-39.4	16.1	0.00e+00	0	57	0	500170752	46	4506
2026-01-09 01:04:30.44	299.68	30.27	-37.7	-39.4	16.2	0.00e+00	0	57	0	503316480	46	4499
2026-01-09 01:04:31.45	299.33	30.25	-37.6	-39.3	16.2	0.00e+00	0	57	0	506462208	46	4475
2026-01-09 01:04:32.46	298.99	30.23	-37.6	-39.3	16.3	0.00e+00	0	57	0	509607936	46	4446
2026-01-09 01:04:33.47	298.64	30.22	-37.7	-39.3	16.2	0.00e+00	0	57	0	512753664	46	4482
2026-01-09 01:04:34.48	298.29	30.20	-37.8	-39.5	16.0	0.00e+00	0	57	0	515899392	46	4546
2026-01-09 01:04:35.49	297.95	30.18	-38.0	-39.8	15.7	0.00e+00	0	57	0	519045120	46	4726
2026-01-09 01:04:36.50	297.60	30.15	-38.0	-39.7	15.8	0.00e+00	0	57	0	522190848	46	4703
2026-01-09 01:04:37.51	297.26	30.13	-37.9	-39.7	15.8	0.00e+00	0	57	0	525336576	46	4654
2026-01-09 01:04:38.52	296.91	30.11	-37.9	-39.6	15.9	0.00e+00	0	57	0	528482304	46	4637
2026-01-09 01:04:39.53	296.57	30.08	-37.9	-39.6	15.9	0.00e+00	0	57	0	531628032	46	4625
2026-01-09 01:04:40.54	296.23	30.06	-37.7	-39.4	16.1	0.00e+00	0	57	0	534773760	46	4505
2026-01-09 01:04:41.55	295.88	30.03	-37.7	-39.4	16.1	0.00e+00	0	57	0	537919488	46	4524
2026-01-09 01:04:42.56	295.54	30.00	-37.5	-39.2	16.3	0.00e+00	0	57	0	541065216	46	4406
2026-01-09 01:04:43.57	295.20	29.97	-37.4	-39.0	16.5	0.00e+00	0	57	0	544210944	46	4332
2026-01-09 01:04:44.58	294.86	29.94	-37.4	-39.0	16.5	0.00e+00	0	57	0	547356672	46	4326
2026-01-09 01:04:45.59	294.52	29.91	-37.5	-39.1	16.4	0.00e+00	0	57	0	550502400	46	4372
2026-01-09 01:04:46.59	294.18	29.88	-37.5	-39.2	16.3	0.00e+00	0	57	0	553648128	46	4418
2026-01-09 01:04:47.60	293.84	29.84	-37.6	-39.2	16.3	0.00e+00	0	57	0	556793856	46	4431
2026-01-09 01:04:48.61	293.50	29.81	-37.6	-39.3	16.2	0.00e+00	0	57	0	559939584	46	4464
2026-01-09 01:04:49.62	293.17	29.77	-37.7	-39.4	16.1	0.00e+00	0	57	0	563085312	46	4500
2026-01-09 01:04:50.63	292.83	29.74	-37.6	-39.3	16.2	0.00e+00	0	57	0	566231040	46	4463
2026-01-09 01:04:51.64	292.49	29.70	-37.6	-39.3	16.2	0.00e+00	0	57	0	570425344	46	4474
2026-01-09 01:04:52.65	292.16	29.66	-37.6	-39.3	16.2	0.00e+00	0	57	0	572522496	46	4482
2026-01-09 01:04:53.66	291.82	29.62	-37.7	-39.3	16.1	0.00e+00	0	57	0	575668224	46	4489
2026-01-09 01:04:54.67	291.49	29.58	-37.5	-39.2	16.3	0.00e+00	0	57	0	578813952	46	4403
2026-01-09 01:04:55.68	291.16	29.54	-37.5	-39.2	16.3	0.00e+00	0	57	0	581959680	46	4397
2026-01-09 01:04:56.69	290.82	29.49	-37.4	-39.0	16.5	0.00e+00	0	57	0	586153984	46	4309
2026-01-09 01:04:57.70	290.49	29.45	-37.4	-39.0	16.4	0.00e+00	0	57	0	589299712	46	4336
2026-01-09 01:04:58.71	290.16	29.40	-37.4	-39.1	16.4	0.00e+00	0	57	0	592445440	46	4341
2026-01-09 01:04:59.71	289.84	29.36	-37.4	-39.0	16.5	0.00e+00	0	57	0	595591168	46	4320
2026-01-09 01:05:00.72	289.51	29.31	-37.5	-39.2	16.3	0.00e+00	0	57	0	597688320	46	4398
2026-01-09 01:05:01.73	289.18	29.26	-37.5	-39.1	16.4	0.00e+00	0	57	0	600834048	46	4371
2026-01-09 01:05:02.74	288.86	29.21	-37.3	-38.9	16.6	0.00e+00	0	57	0	605028352	46	4278
2026-01-09 01:05:03.75	288.53	29.16	-37.4	-39.0	16.5	0.00e+00	0	57	0	608174080	46	4322
2026-01-09 01:05:04.76	288.21	29.11	-37.5	-39.1	16.3	0.00e+00	0	57	0	611319808	46	4382
2026-01-09 01:05:05.77	287.88	29.06	-37.7	-39.4	16.1	0.00e+00	0	57	0	614465536	46	4524
2026-01-09 01:05:06.78	287.56	29.01	-37.8	-39.5	16.0	0.00e+00	0	57	0	617611264	46	4593
2026-01-09 01:05:07.78	287.24	28.96	-37.8	-39.5	16.0	0.00e+00	0	57	0	619708416	46	4548
2026-01-09 01:05:08.79	286.92	28.90	-37.7	-39.4	16.1	0.00e+00	0	57	0	623902720	46	4504
2026-01-09 01:05:09.80	286.60	28.85	-37.7	-39.4	16.0	0.00e+00	0	57	0	627048448	46	4534
2026-01-09 01:05:10.81	286.29	28.79	-37.5	-39.2	16.3	0.00e+00	0	57	0	630194176	46	4411
2026-01-09 01:05:11.82	285.97	28.73	-37.4	-39.0	16.5	0.00e+00	0	57	0	633339904	46	4313
2026-01-09 01:05:12.83	285.65	28.67	-37.4	-39.1	16.4	0.00e+00	0	57	0	636485632	46	4347
2026-01-09 01:05:13.84	285.34	28.61	-37.5	-39.1	16.3	0.00e+00	0	57	0	639631360	46	4383
2026-01-09 01:05:14.85	285.03	28.56	-37.4	-39.0	16.4	0.00e+00	0	57	0	642777088	46	4337
2026-01-09 01:05:15.86	284.71	28.49	-37.3	-38.9	16.6	0.00e+00	0	57	0	645922816	46	4251
2026-01-09 01:05:16.87	284.40	28.43	-37.2	-38.8	16.6	0.00e+00	0	57	0	649068544	46	4221
2026-01-09 01:05:17.88	284.09	28.37	-37.3	-38.8	16.6	0.00e+00	0	57	0	652214272	46	4238
2026-01-09 01:05:18.89	283.78	28.31	-37.4	-39.1	16.4	0.00e+00	0	57	0	655360000	46	4343
2026-01-09 01:05:19.90	283.48	28.24	-37.5	-39.1	16.3	0.00e+00	0	57	0	658505728	46	4381
2026-01-09 01:05:20.91	283.17	28.18	-37.5	-39.2	16.2	0.00e+00	0	57	0	661651456	46	4398
2026-01-09 01:05:21.92	282.87	28.11	-37.6	-39.2	16.2	0.00e+00	0	57	0	664797184	46	4429
2026-01-09 01:05:22.92	282.57	28.05	-37.5	-39.1	16.3	0.00e+00	0	57	0	667942912	46	4373
2026-01-09 01:05:23.93	282.26	27.98	-37.5	-39.1	16.3	0.00e+00	0	57	0	671088640	46	4372
2026-01-09 01:05:24.95	281.96	27.91	-37.5	-39.1	16.3	0.00e+00	0	57	0	674234368	46	4380
2026-01-09 01:05:25.95	281.66	27.85	-37.6	-39.2	16.2	0.00e+00	0	57	0	677380096	46	4429
2026-01-09 01:05:26.96	281.36	27.78	-37.7	-39.4	16.1	0.00e+00	0	57	0	680525824	46	4523
2026-01-09 01:05:27.97	281.07	27.71	-37.8	-39.6	15.9	0.00e+00	0	57	0	683671552	46	4608
2026-01-09 01:05:28.98	280.77	27.64	-37.8	-39.6	15.9	0.00e+00	0	57	0	686817280	46	4620
2026-01-09 01:05:29.99	280.48	27.57	-37.9	-39.6	15.8	0.00e+00	0	57	0	689963008	46	4642
2026-01-09 01:05:31.00	280.18	27.50	-37.7	-39.4	16.0	0.00e+00	0	57	0	693108736	46	4535
2026-01-09 01:05:32.01	279.89	27.42	-37.3	-38.9	16.5	0.00e+00	0	57	0	696254464	46	4269
2026-01-09 01:05:33.02	279.60	27.35	-37.0	-38.5	16.9	0.00e+00	0	57	0	699400192	46	4096
2026-01-09 01:05:34.03	279.31	27.28	-36.8	-38.3	17.1	0.00e+00	0	57	0	702545920	45	4238
2026-01-09 01:05:35.04	279.02	27.20	-36.9	-38.5	17.0	0.00e+00	0	57	0	705691648	45	4292
2026-01-09 01:05:36.05	278.74	27.13	-37.0	-38.5	16.9	0.00e+00	0	57	0	708837376	45	4340
2026-01-09 01:05:37.06	278.45	27.05	-37.3	-38.9	16.5	0.00e+00	0	57	0	711983104	45	4541
2026-01-09 01:05:38.07	278.17	26.98	-37.7	-39.4	16.1	0.00e+00	0	57	0	715128832	45	4776
2026-01-09 01:05:39.07	277.89	26.90	-38.0	-39.8	15.7	0.00e+00	0	57	0	718274560	46	4716
2026-01-09 01:05:40.08	277.61	26.83	-38.1	-40.0	15.5	0.00e+00	0	57	0	721420288	46	4821
2026-01-09 01:05:41.09	277.33	26.75	-38.0	-39.7	15.7	0.00e+00	0	57	0	724566016	46	4693
2026-01-09 01:05:42.10	277.05	26.67	-37.6	-39.3	16.1	0.00e+00	0	57	0	727711744	46	4488
2026-01-09 01:05:43.11	276.77	26.59	-37.4	-39.0	16.4	0.00e+00	0	57	0	730857472	46	4306
2026-01-09 01:05:44.12	276.49	26.51	-37.1	-38.6	16.8	0.00e+00	0	57	0	734003200	46	4143
2026-01-09 01:05:45.13	276.22	26.43	-36.9	-38.4	17.0	0.00e+00	0	57	0	737148928	45	4248
2026-01-09 01:05:46.14	275.95	26.35	-36.8	-38.3	17.1	0.00e+00	0	57	0	740294656	45	4201
2026-01-09 01:05:47.15	275.68	26.27	-36.9	-38.4	17.0	0.00e+00	0	57	0	743440384	45	4272
2026-01-09 01:05:48.16	275.41	26.19	-37.1	-38.7	16.7	0.00e+00	0	57	0	746586112	45	4409
2026-01-09 01:05:49.17	275.14	26.11	-37.3	-38.9	16.5	0.00e+00	0	57	0	749731840	45	4524
2026-01-09 01:05:50.18	274.87	26.03	-37.5	-39.2	16.2	0.00e+00	0	57	0	752877568	45	4653
2026-01-09 01:05:51.19	274.60	25.95	-37.3	-38.9	16.3	0.00e+00	0	58	0	756023296	45	4526
2026-01-09 01:05:52.20	274.34	25.86	-37.1	-38.7	16.5	0.00e+00	0	57	0	759169024	45	4417
2026-01-09 01:05:53.21	274.07	25.78	-37.0	-38.6	16.6	0.00e+00	0	57	0	762314752	45	4356
2026-01-09 01:05:54.22	273.81	25.70	-37.1	-38.6	16.6	0.00e+00	0	57	0	765460480	45	4383
2026-01-09 01:05:55.23	273.55	25.61	-37.1	-38.7	16.6	0.00e+00	0	57	0	768606208	45	4413
2026-01-09 01:05:56.24	273.29	25.53	-37.2	-38.8	16.5	0.00e+00	0	57	0	771751936	45	4460
2026-01-09 01:05:57.25	273.03	25.44	-37.3	-39.0	16.4	0.00e+00	0	57	0	774897664	45	4555
2026-01-09 01:05:58.26	272.78	25.36	-37.4	-39.1	16.3	0.00e+00	0	57	0	778043392	45	4616
2026-01-09 01:05:59.27	272.52	25.27	-37.4	-39.1	16.3	0.00e+00	0	57	0	781189120	45	4612
2026-01-09 01:06:00.27	272.27	25.19	-37.2	-38.9	16.5	0.00e+00	0	57	0	784334848	45	4501
2026-01-09 01:06:01.29	272.02	25.10	-36.9	-38.4	16.9	0.00e+00	0	57	0	787480576	45	4265
2026-01-09 01:06:02.30	271.77	25.02	-36.6	-38.1	17.2	0.00e+00	0	57	0	790626304	45	4107
2026-01-09 01:06:03.31	271.52	24.93	-36.4	-37.9	17.4	0.00e+00	0	57	0	793772032	44	4252
2026-01-09 01:06:04.32	271.27	24.84	-36.4	-37.8	17.5	0.00e+00	0	57	0	796917760	44	4232
2026-01-09 01:06:05.32	271.02	24.76	-36.4	-37.8	17.5	0.00e+00	0	57	0	800063488	44	4229
2026-01-09 01:06:06.33	270.78	24.67	-36.5	-37.9	17.4	0.00e+00	0	57	0	803209216	44	4267
2026-01-09 01:06:07.34	270.53	24.58	-36.7	-38.2	17.1	0.00e+00	0	57	0	806354944	44	4411
2026-01-09 01:06:08.35	270.29	24.49	-36.9	-38.5	16.9	0.00e+00	0	57	0	809500672	44	4558
2026-01-09 01:06:09.36	270.05	24.40	-37.1	-38.7	16.7	0.00e+00	0	57	0	812646400	44	4693
2026-01-09 01:06:10.37	269.81	24.32	-37.2	-38.8	16.6	0.00e+00	0	57	0	815792128	44	4746
2026-01-09 01:06:11.38	269.57	24.23	-37.2	-38.9	16.5	0.00e+00	0	57	0	818937856	45	4502
2026-01-09 01:06:12.39	269.33	24.14	-37.3	-39.0	16.4	0.00e+00	0	57	0	822083584	45	4548
2026-01-09 01:06:13.40	269.10	24.05	-37.2	-38.8	16.6	0.00e+00	0	58	0	825229312	45	4454
2026-01-09 01:06:14.40	268.87	23.96	-37.0	-38.6	16.7	0.00e+00	0	57	0	828375040	45	4370
2026-01-09 01:06:15.41	268.63	23.87	-36.9	-38.5	16.9	0.00e+00	0	57	0	831520768	45	4293
2026-01-09 01:06:16.42	268.40	23.78	-36.8	-38.3	17.0	0.00e+00	0	57	0	834666496	45	4218
2026-01-09 01:06:17.43	268.17	23.69	-36.8	-38.3	17.1	0.00e+00	0	57	0	837812224	45	4214
2026-01-09 01:06:18.44	267.94	23.60	-36.7	-38.2	17.1	0.00e+00	0	57	0	840957952	45	4159
2026-01-09 01:06:19.45	267.71	23.51	-36.7	-38.2	17.1	0.00e+00	0	57	0	844103680	45	4188
2026-01-09 01:06:20.46	267.49	23.42	-36.8	-38.3	17.0	0.00e+00	0	57	0	847249408	45	4221
2026-01-09 01:06:21.47	267.26	23.33	-36.9	-38.5	16.8	0.00e+00	0	57	0	850395136	45	4307
2026-01-09 01:06:22.48	267.04	23.24	-37.3	-38.9	16.4	0.00e+00	0	57	0	853540864	45	4507
2026-01-09 01:06:23.49	266.82	23.15	-37.6	-39.3	16.1	0.00e+00	0	57	0	856686592	45	4718
2026-01-09 01:06:24.50	266.59	23.05	-37.8	-39.6	15.8	0.00e+00	0	57	0	859832320	46	4602
2026-01-09 01:06:25.50	266.38	22.96	-37.6	-39.3	16.0	0.00e+00	0	57	0	862978048	46	4470
2026-01-09 01:06:26.51	266.16	22.87	-37.4	-39.1	16.3	0.00e+00	0	57	0	866123776	46	4354
2026-01-09 01:06:27.52	265.94	22.78	-37.3	-39.0	16.4	0.00e+00	0	57	0	869269504	46	4294
2026-01-09 01:06:28.53	265.72	22.69	-37.3	-38.9	16.5	0.00e+00	0	57	0	872415232	46	4246
2026-01-09 01:06:29.54	265.51	22.60	-37.2	-38.8	16.6	0.00e+00	0	57	0	875560960	46	4211
2026-01-09 01:06:30.55	265.29	22.51	-37.2	-38.8	16.6	0.00e+00	0	57	0	878706688	46	4197
2026-01-09 01:06:31.56	265.08	22.41	-36.9	-38.5	16.8	0.00e+00	0	57	0	881852416	45	4304
2026-01-09 01:06:32.57	264.87	22.32	-36.7	-38.2	17.1	0.00e+00	0	57	0	884998144	45	4185
2026-01-09 01:06:33.58	264.66	22.23	-36.7	-38.2	17.1	0.00e+00	0	57	0	888143872	45	4154
2026-01-09 01:06:34.58	264.45	22.14	-36.7	-38.2	17.1	0.00e+00	0	57	0	891289600	45	4188
2026-01-09 01:06:35.59	264.25	22.05	-36.8	-38.3	17.0	0.00e+00	0	57	0	894435328	45	4241
2026-01-09 01:06:36.60	264.04	21.95	-37.0	-38.5	16.8	0.00e+00	0	57	0	897581056	45	4312
2026-01-09 01:06:37.61	263.84	21.86	-37.2	-38.7	16.6	0.00e+00	0	57	0	900726784	45	4437
2026-01-09 01:06:38.62	263.63	21.77	-37.3	-39.0	16.4	0.00e+00	0	57	0	903872512	45	4560
2026-01-09 01:06:39.63	263.43	21.67	-37.3	-38.9	16.4	0.00e+00	0	57	0	907018240	45	4531
2026-01-09 01:06:40.64	263.23	21.58	-37.1	-38.7	16.6	0.00e+00	0	57	0	910163968	45	4405
2026-01-09 01:06:41.65	263.03	21.49	-36.8	-38.3	17.0	0.00e+00	0	57	0	913309696	45	4228
2026-01-09 01:06:42.65	262.83	21.40	-36.7	-38.1	17.1	0.00e+00	0	57	0	916455424	45	4139
2026-01-09 01:06:43.67	262.63	21.30	-36.7	-38.2	17.1	0.00e+00	0	57	0	919601152	45	4160
2026-01-09 01:06:44.67	262.44	21.21	-36.8	-38.3	16.9	0.00e+00	0	57	0	922746880	45	4225
2026-01-09 01:06:45.68	262.24	21.12	-37.1	-38.7	16.6	0.00e+00	0	57	0	925892608	45	4392
2026-01-09 01:06:46.69	262.05	21.03	-37.4	-39.0	16.2	0.00e+00	0	57	0	929038336	45	4587
2026-01-09 01:06:47.70	261.86	20.93	-37.6	-39.4	15.9	0.00e+00	0	57	0	932184064	45	4775
2026-01-09 01:06:48.71	261.66	20.84	-37.8	-39.6	15.7	0.00e+00	0	57	0	935329792	46	4639
2026-01-09 01:06:49.72	261.47	20.75	-37.8	-39.5	15.8	0.00e+00	0	57	0	938475520	46	4576
2026-01-09 01:06:50.73	261.28	20.66	-37.6	-39.3	16.0	0.00e+00	0	57	0	941621248	46	4478
2026-01-09 01:06:51.74	261.10	20.56	-37.5	-39.2	16.2	0.00e+00	0	58	0	944766976	46	4395
2026-01-09 01:06:52.75	260.91	20.47	-37.2	-38.8	16.5	0.00e+00	0	57	0	947912704	46	4210
2026-01-09 01:06:53.76	260.72	20.38	-37.0	-38.5	16.7	0.00e+00	0	57	0	951058432	46	4097
2026-01-09 01:06:54.76	260.54	20.29	-36.9	-38.5	16.8	0.00e+00	0	57	0	954204160	45	4294
2026-01-09 01:06:55.77	260.35	20.19	-37.1	-38.6	16.6	0.00e+00	0	57	0	957349888	45	4390
2026-01-09 01:06:56.78	260.17	20.10	-37.4	-39.0	16.2	0.00e+00	0	57	0	960495616	45	4582
2026-01-09 01:06:57.79	259.99	20.01	-37.6	-39.3	16.0	0.00e+00	0	57	0	963641344	45	4728
2026-01-09 01:06:58.80	259.81	19.91	-37.7	-39.4	15.9	0.00e+00	0	57	0	966787072	45	4799
2026-01-09 01:06:59.81	259.63	19.82	-37.6	-39.3	16.0	0.00e+00	0	57	0	969932800	45	4721
2026-01-09 01:07:00.82	259.45	19.73	-37.4	-39.1	16.1	0.00e+00	0	57	0	973078528	45	4627
2026-01-09 01:07:01.83	259.28	19.64	-37.2	-38.7	16.5	0.00e+00	0	57	0	976224256	45	4441
2026-01-09 01:07:02.84	259.10	19.55	-36.9	-38.5	16.8	0.00e+00	0	57	0	980418560	45	4301
2026-01-09 01:07:03.85	258.92	19.45	-36.8	-38.3	17.0	0.00e+00	0	57	0	982515712	45	4200
2026-01-09 01:07:04.86	258.75	19.36	-36.8	-38.3	17.0	0.00e+00	0	57	0	985661440	45	4216
2026-01-09 01:07:05.87	258.58	19.27	-37.0	-38.6	16.7	0.00e+00	0	57	0	988807168	45	4361
2026-01-09 01:07:06.88	258.41	19.18	-37.3	-38.9	16.3	0.00e+00	0	57	0	991952896	45	4543
2026-01-09 01:07:07.89	258.23	19.08	-37.5	-39.2	16.0	0.00e+00	0	57	0	996147200	45	4699
2026-01-09 01:07:08.90	258.06	18.99	-37.8	-39.6	15.7	0.00e+00	0	57	0	999292928	46	4618
2026-01-09 01:07:09.91	257.90	18.90	-38.0	-39.8	15.5	0.00e+00	0	57	0	1002438656	46	4750
2026-01-09 01:07:10.92	257.73	18.81	-38.0	-39.8	15.5	0.00e+00	0	57	0	1005584384	46	4751
2026-01-09 01:07:11.92	257.56	18.72	-37.7	-39.5	15.8	0.00e+00	0	57	0	1007681536	46	4564
2026-01-09 01:07:12.93	257.40	18.63	-37.6	-39.3	16.0	0.00e+00	0	57	0	1010827264	46	4456
2026-01-09 01:07:13.93	257.23	18.54	-37.5	-39.2	16.0	0.00e+00	0	57	0	1015021568	46	4427
2026-01-09 01:07:14.94	257.07	18.44	-37.4	-39.0	16.2	0.00e+00	0	57	0	1018167296	46	4329
2026-01-09 01:07:15.95	256.91	18.35	-37.2	-38.8	16.4	0.00e+00	0	57	0	1021313024	46	4225
2026-01-09 01:07:16.96	256.75	18.26	-37.3	-38.9	16.4	0.00e+00	0	57	0	1024458752	46	4254
2026-01-09 01:07:17.97	256.59	18.17	-37.3	-39.0	16.3	0.00e+00	0	57	0	1027604480	46	4308
2026-01-09 01:07:18.98	256.43	18.08	-37.5	-39.2	16.1	0.00e+00	0	57	0	1030750208	46	4398
2026-01-09 01:07:19.99	256.27	17.99	-37.7	-39.4	15.9	0.00e+00	0	57	0	1033895936	46	4522
2026-01-09 01:07:20.99	256.11	17.90	-37.8	-39.6	15.7	0.00e+00	0	57	0	1037041664	46	4617
2026-01-09 01:07:22.01	255.95	17.81	-37.9	-39.8	15.5	0.00e+00	0	57	0	1040187392	46	4716
2026-01-09 01:07:23.01	255.80	17.72	-38.0	-39.9	15.4	0.00e+00	0	57	0	1043333120	46	4770
2026-01-09 01:07:24.02	255.64	17.63	-38.1	-39.9	15.3	0.00e+00	0	57	0	1046478848	46	4789
2026-01-09 01:07:25.03	255.49	17.54	-38.0	-39.9	15.3	0.00e+00	0	57	0	1049624576	46	4787
2026-01-09 01:07:26.04	255.33	17.45	-38.1	-40.0	15.2	0.00e+00	0	57	0	1052770304	46	4839
2026-01-09 01:07:27.05	255.18	17.36	-37.8	-39.6	15.6	0.00e+00	0	57	0	1055916032	46	4624
2026-01-09 01:07:28.06	255.03	17.27	-37.6	-39.4	15.8	0.00e+00	0	58	0	1059061760	46	4503
2026-01-09 01:07:29.07	254.88	17.18	-37.5	-39.2	16.0	0.00e+00	0	58	0	1062207488	46	4406
2026-01-09 01:07:30.08	254.73	17.09	-37.5	-39.2	16.0	0.00e+00	0	58	0	1065353216	46	4403
2026-01-09 01:07:31.09	254.58	17.00	-37.5	-39.2	16.0	0.00e+00	0	57	0	1068498944	46	4425
2026-01-09 01:07:32.10	254.43	16.91	-37.6	-39.3	15.9	0.00e+00	0	57	0	1071644672	46	4465
2026-01-09 01:07:33.11	254.29	16.82	-37.6	-39.3	15.9	0.00e+00	0	57	0	1074790400	46	4477
2026-01-09 01:07:34.12	254.14	16.73	-37.5	-39.2	16.0	0.00e+00	0	57	0	1077936128	46	4420
2026-01-09 01:07:35.12	254.00	16.64	-37.5	-39.2	16.0	0.00e+00	0	57	0	1081081856	46	4404
2026-01-09 01:07:36.13	253.85	16.55	-37.6	-39.4	15.8	0.00e+00	0	57	0	1084227584	46	4494
2026-01-09 01:07:37.14	253.71	16.46	-37.6	-39.4	15.8	0.00e+00	0	58	0	1087373312	46	4519
2026-01-09 01:07:38.15	253.57	16.37	-37.7	-39.4	15.7	0.00e+00	0	57	0	1090519040	46	4542
2026-01-09 01:07:39.16	253.43	16.29	-37.8	-39.6	15.6	0.00e+00	0	57	0	1093664768	46	4627
2026-01-09 01:07:40.17	253.29	16.20	-38.0	-39.8	15.4	0.00e+00	0	58	0	1096810496	46	4733
2026-01-09 01:07:41.18	253.15	16.11	-37.9	-39.8	15.4	0.00e+00	0	58	0	1099956224	46	4718
2026-01-09 01:07:42.19	253.01	16.02	-37.9	-39.7	15.5	0.00e+00	0	57	0	1103101952	46	4673
2026-01-09 01:07:43.20	252.87	15.93	-37.9	-39.7	15.5	0.00e+00	0	57	0	1106247680	46	4677
2026-01-09 01:07:44.21	252.73	15.84	-37.9	-39.7	15.5	0.00e+00	0	57	0	1109393408	46	4688
2026-01-09 01:07:45.22	252.59	15.76	-37.9	-39.7	15.5	0.00e+00	0	57	0	1112539136	46	4660
2026-01-09 01:07:46.22	252.46	15.67	-37.5	-39.2	16.0	0.00e+00	0	57	0	1115684864	46	4403
2026-01-09 01:07:47.23	252.32	15.58	-37.3	-38.9	16.2	0.00e+00	0	57	0	1118830592	46	4270
2026-01-09 01:07:48.24	252.19	15.50	-37.2	-38.8	16.4	0.00e+00	0	57	0	1121976320	46	4204
2026-01-09 01:07:49.25	252.06	15.41	-37.2	-38.8	16.4	0.00e+00	0	57	0	1125122048	46	4205
2026-01-09 01:07:50.26	251.92	15.32	-37.2	-38.9	16.3	0.00e+00	0	57	0	1128267776	46	4247
2026-01-09 01:07:51.27	251.79	15.23	-37.4	-39.1	16.1	0.00e+00	0	58	0	1131413504	46	4362
2026-01-09 01:07:52.28	251.66	15.15	-37.5	-39.3	15.9	0.00e+00	0	57	0	1134559232	46	4445
2026-01-09 01:07:53.29	251.53	15.06	-37.6	-39.4	15.8	0.00e+00	0	57	0	1137704960	46	4497
2026-01-09 01:07:54.30	251.40	14.98	-37.8	-39.6	15.6	0.00e+00	0	57	0	1140850688	46	4609
2026-01-09 01:07:55.31	251.27	14.89	-37.9	-39.7	15.5	0.00e+00	0	57	0	1143996416	46	4677
2026-01-09 01:07:56.32	251.14	14.80	-37.9	-39.8	15.4	0.00e+00	0	58	0	1147142144	46	4722
2026-01-09 01:07:57.33	251.02	14.72	-38.0	-39.8	15.3	0.00e+00	0	57	0	1150287872	46	4752
2026-01-09 01:07:58.34	250.89	14.63	-38.0	-39.8	15.3	0.00e+00	0	58	0	1153433600	46	4751
2026-01-09 01:07:59.35	250.76	14.55	-37.9	-39.7	15.4	0.00e+00	0	57	0	1156579328	46	4680
2026-01-09 01:08:00.36	250.64	14.46	-37.9	-39.7	15.5	0.00e+00	0	57	0	1159725056	46	4660
2026-01-09 01:08:01.37	250.51	14.38	-37.7	-39.5	15.6	0.00e+00	0	58	0	1162870784	46	4574
2026-01-09 01:08:02.37	250.39	14.29	-37.6	-39.3	15.8	0.00e+00	0	57	0	1166016512	46	4487
2026-01-09 01:08:03.38	250.27	14.21	-37.4	-39.1	16.0	0.00e+00	0	58	0	1169162240	46	4360
2026-01-09 01:08:04.39	250.15	14.12	-37.4	-39.1	16.0	0.00e+00	0	57	0	1172307968	46	4343
2026-01-09 01:08:05.40	250.02	14.04	-37.3	-39.0	16.1	0.00e+00	0	58	0	1175453696	46	4312
2026-01-09 01:08:06.40	249.90	13.95	-37.2	-38.8	16.3	0.00e+00	0	58	0	1178599424	46	4215
2026-01-09 01:08:07.41	249.78	13.87	-37.2	-38.9	16.2	0.00e+00	0	57	0	1181745152	46	4261
2026-01-09 01:08:08.42	249.66	13.79	-37.3	-39.0	16.2	0.00e+00	0	57	0	1184890880	46	4295
2026-01-09 01:08:09.43	249.55	13.70	-37.4	-39.1	16.0	0.00e+00	0	57	0	1188036608	46	4349
2026-01-09 01:08:10.44	249.43	13.62	-37.4	-39.1	16.0	0.00e+00	0	58	0	1191182336	46	4377
2026-01-09 01:08:11.45	249.31	13.53	-37.6	-39.3	15.8	0.00e+00	0	57	0	1194328064	46	4484
2026-01-09 01:08:12.46	249.19	13.45	-37.6	-39.4	15.7	0.00e+00	0	57	0	1197473792	46	4498
2026-01-09 01:08:13.47	249.08	13.37	-37.7	-39.5	15.6	0.00e+00	0	58	0	1200619520	46	4594
2026-01-09 01:08:14.48	248.96	13.29	-37.9	-39.7	15.4	0.00e+00	0	58	0	1203765248	46	4672
2026-01-09 01:08:15.49	248.85	13.20	-38.0	-39.8	15.2	0.00e+00	0	58	0	1206910976	46	4749
2026-01-09 01:08:16.50	248.73	13.12	-38.0	-39.9	15.2	0.00e+00	0	57	0	1210056704	46	4805
2026-01-09 01:08:17.51	248.62	13.04	-38.2	-40.1	15.0	0.00e+00	0	57	0	1213202432	46	4909
2026-01-09 01:08:18.52	248.51	12.95	-38.2	-40.2	14.9	0.00e+00	0	58	0	1216348160	47	4663
2026-01-09 01:08:19.52	248.40	12.87	-38.2	-40.2	14.9	0.00e+00	0	57	0	1219493888	47	4681
2026-01-09 01:08:20.53	248.28	12.79	-38.1	-40.0	15.1	0.00e+00	0	57	0	1222639616	47	4575
2026-01-09 01:08:21.54	248.17	12.71	-38.1	-40.0	15.1	0.00e+00	0	57	0	1225785344	47	4564
2026-01-09 01:08:22.55	248.06	12.63	-38.0	-39.9	15.2	0.00e+00	0	57	0	1228931072	47	4514
2026-01-09 01:08:23.56	247.95	12.55	-38.0	-39.9	15.1	0.00e+00	0	57	0	1232076800	47	4533
2026-01-09 01:08:24.57	247.84	12.46	-37.9	-39.7	15.3	0.00e+00	0	57	0	1235222528	47	4419
2026-01-09 01:08:25.58	247.74	12.38	-37.8	-39.6	15.5	0.00e+00	0	58	0	1238368256	47	4343
2026-01-09 01:08:26.59	247.63	12.30	-37.7	-39.5	15.5	0.00e+00	0	57	0	1241513984	47	4311
2026-01-09 01:08:27.60	247.52	12.22	-37.7	-39.5	15.5	0.00e+00	0	58	0	1244659712	47	4313
2026-01-09 01:08:28.61	247.41	12.14	-37.6	-39.3	15.7	0.00e+00	0	58	0	1247805440	47	4221
2026-01-09 01:08:29.62	247.31	12.06	-37.6	-39.4	15.6	0.00e+00	0	58	0	1250951168	47	4259
2026-01-09 01:08:30.63	247.20	11.98	-37.6	-39.3	15.7	0.00e+00	0	57	0	1254096896	47	4239
2026-01-09 01:08:31.64	247.10	11.90	-37.7	-39.4	15.6	0.00e+00	0	57	0	1257242624	47	4279
2026-01-09 01:08:32.65	246.99	11.82	-37.7	-39.5	15.5	0.00e+00	0	57	0	1260388352	47	4339
2026-01-09 01:08:33.66	246.89	11.74	-37.9	-39.7	15.3	0.00e+00	0	57	0	1263534080	47	4418
2026-01-09 01:08:34.67	246.79	11.66	-37.9	-39.8	15.2	0.00e+00	0	57	0	1266679808	47	4474
2026-01-09 01:08:35.68	246.68	11.58	-38.1	-40.0	15.0	0.00e+00	0	58	0	1269825536	47	4582
2026-01-09 01:08:36.69	246.58	11.50	-38.3	-40.2	14.8	0.00e+00	0	57	0	1272971264	47	4696
2026-01-09 01:08:37.69	246.48	11.42	-38.3	-40.4	14.6	1.50e-06	0	57	0	1276116992	47	4772
2026-01-09 01:08:38.70	246.38	11.34	-38.5	-40.5	14.5	7.00e-07	0	57	0	1279262720	47	4866
2026-01-09 01:08:39.71	246.28	11.27	-38.6	-40.7	14.3	7.00e-07	0	57	0	1282408448	47	4929
2026-01-09 01:08:40.72	246.18	11.19	-38.6	-40.7	14.3	7.00e-07	0	58	0	1285554176	47	4949
2026-01-09 01:08:41.73	246.08	11.11	-38.6	-40.8	14.2	7.00e-07	0	58	0	1288699904	47	4993
2026-01-09 01:08:42.74	245.98	11.03	-38.6	-40.8	14.2	0.00e+00	0	58	0	1291845632	47	4991
2026-01-09 01:08:43.75	245.88	10.95	-38.7	-40.8	14.1	1.50e-06	0	57	0	1294991360	47	5015
2026-01-09 01:08:44.76	245.79	10.87	-38.6	-40.8	14.2	1.50e-06	0	58	0	1298137088	47	4989
2026-01-09 01:08:45.77	245.69	10.80	-38.9	-41.0	14.0	1.50e-06	0	58	0	1301282816	48	4844
2026-01-09 01:08:46.78	245.59	10.72	-38.6	-40.7	14.3	2.20e-06	0	57	0	1304428544	48	4678
2026-01-09 01:08:47.79	245.50	10.64	-38.5	-40.5	14.5	0.00e+00	0	57	0	1307574272	48	4570
2026-01-09 01:08:48.80	245.40	10.56	-38.4	-40.4	14.6	0.00e+00	0	58	0	1310720000	48	4533
2026-01-09 01:08:49.81	245.30	10.49	-38.4	-40.4	14.6	0.00e+00	0	57	0	1313865728	48	4522
2026-01-09 01:08:50.82	245.21	10.41	-38.4	-40.4	14.6	0.00e+00	0	57	0	1317011456	48	4522
2026-01-09 01:08:51.83	245.12	10.33	-38.4	-40.3	14.7	1.50e-06	0	58	0	1320157184	48	4482
2026-01-09 01:08:52.84	245.02	10.26	-38.4	-40.4	14.6	0.00e+00	0	57	0	1323302912	48	4507
2026-01-09 01:08:53.85	244.93	10.18	-38.5	-40.5	14.5	1.50e-06	0	57	0	1326448640	48	4592
2026-01-09 01:08:54.85	244.84	10.10	-38.4	-40.4	14.6	0.00e+00	0	58	0	1329594368	48	4535
2026-01-09 01:08:55.86	244.75	10.03	-38.5	-40.5	14.5	0.00e+00	0	57	0	1332740096	48	4574
2026-01-09 01:08:56.87	244.65	9.95	-38.5	-40.5	14.4	1.50e-06	0	58	0	1335885824	48	4587
2026-01-09 01:08:57.88	244.56	9.88	-38.6	-40.6	14.3	3.00e-06	0	58	0	1339031552	48	4639
2026-01-09 01:08:58.89	244.47	9.80	-38.7	-40.8	14.1	0.00e+00	0	57	0	1342177280	48	4724
2026-01-09 01:08:59.90	244.38	9.72	-38.7	-40.8	14.1	7.00e-07	0	57	0	1345323008	48	4744
2026-01-09 01:09:00.91	244.29	9.65	-38.8	-41.0	14.0	3.80e-06	0	57	0	1348468736	48	4829
2026-01-09 01:09:01.92	244.20	9.57	-38.8	-41.1	13.9	1.50e-06	0	58	0	1351614464	48	4873
2026-01-09 01:09:02.93	244.11	9.50	-38.9	-41.1	13.8	5.30e-06	0	57	0	1354760192	48	4905
2026-01-09 01:09:03.94	244.03	9.42	-39.0	-41.3	13.7	6.80e-06	0	58	0	1357905920	48	5005
2026-01-09 01:09:04.95	243.94	9.35	-39.1	-41.4	13.5	1.44e-05	0	58	0	1361051648	48	5066
2026-01-09 01:09:05.96	243.85	9.27	-39.1	-41.4	13.6	6.80e-06	0	57	0	1364197376	48	5047
2026-01-09 01:09:06.96	243.77	9.20	-39.1	-41.5	13.4	1.60e-05	0	57	0	1367343104	48	5131
2026-01-09 01:09:07.97	243.68	9.13	-39.1	-41.4	13.6	1.29e-05	0	57	0	1370488832	48	5043
2026-01-09 01:09:08.98	243.59	9.05	-39.1	-41.5	13.5	1.14e-05	0	57	0	1373634560	48	5111
2026-01-09 01:09:09.99	243.51	8.98	-39.2	-41.6	13.3	1.75e-05	0	57	0	1376780288	49	4878
2026-01-09 01:09:11.00	243.42	8.90	-39.2	-41.6	13.3	2.21e-05	0	58	0	1379926016	49	4897
2026-01-09 01:09:12.01	243.34	8.83	-39.2	-41.5	13.3	2.05e-05	0	57	0	1383071744	49	4856
2026-01-09 01:09:13.02	243.25	8.76	-39.1	-41.4	13.5	1.44e-05	0	57	0	1386217472	49	4783
2026-01-09 01:09:14.03	243.17	8.68	-39.1	-41.4	13.4	2.05e-05	0	58	0	1390411776	49	4800
2026-01-09 01:09:15.04	243.09	8.61	-39.0	-41.4	13.5	1.75e-05	0	57	0	1392508928	49	4777
2026-01-09 01:09:16.05	243.00	8.54	-39.0	-41.3	13.6	8.30e-06	0	58	0	1395654656	49	4729
2026-01-09 01:09:17.06	242.92	8.46	-39.1	-41.4	13.5	9.90e-06	0	58	0	1398800384	49	4770
2026-01-09 01:09:18.07	242.84	8.39	-39.0	-41.3	13.5	1.14e-05	0	57	0	1401946112	49	4734
2026-01-09 01:09:19.08	242.76	8.32	-38.9	-41.3	13.6	6.80e-06	0	58	0	1405091840	49	4706
2026-01-09 01:09:20.08	242.68	8.25	-39.0	-41.4	13.4	1.06e-05	0	58	0	1409286144	49	4781
2026-01-09 01:09:21.09	242.60	8.17	-39.1	-41.4	13.4	9.10e-06	0	58	0	1412431872	49	4809
2026-01-09 01:09:22.10	242.52	8.10	-39.1	-41.4	13.3	1.44e-05	0	58	0	1415577600	49	4810
2026-01-09 01:09:23.11	242.44	8.03	-39.1	-41.4	13.4	5.30e-06	0	58	0	1417674752	49	4784
2026-01-09 01:09:24.12	242.36	7.96	-44.2	-55.9	3.8	1.49e+00	0	58	104	1419771904	58	15204
2026-01-09 01:09:25.13	242.28	7.89	-44.5	-56.6	3.8	1.49e+00	0	58	104	1419771904	59	15425
2026-01-09 01:09:26.14	242.20	7.82	-44.7	-56.8	3.8	1.49e+00	0	58	104	1419771904	59	15817
2026-01-09 01:09:27.15	242.12	7.74	-44.7	-57.0	3.8	1.49e+00	0	58	104	1419771904	60	15270
2026-01-09 01:09:28.16	242.04	7.67	-44.8	-57.0	3.8	1.49e+00	0	58	104	1419771904	60	15383
2026-01-09 01:09:29.17	241.96	7.60	-44.8	-57.1	3.8	1.49e+00	0	58	104	1419771904	60	15544
2026-01-09 01:09:30.18	241.89	7.53	-44.9	-57.1	3.8	1.49e+00	0	58	104	1419771904	60	15579
2026-01-09 01:09:31.19	241.81	7.46	-44.9	-57.2	3.8	1.49e+00	0	58	104	1419771904	60	15592
2026-01-09 01:09:32.20	241.73	7.39	-44.9	-57.2	3.8	1.49e+00	0	58	104	1419771904	60	15658
2026-01-09 01:09:33.21	241.66	7.32	-44.9	-57.2	3.8	1.49e+00	0	58	104	1419771904	60	15662
2026-01-09 01:09:34.22	241.58	7.25	-44.9	-57.1	3.8	1.49e+00	0	58	104	1419771904	60	15558
2026-01-09 01:09:35.24	241.51	7.18	-44.8	-57.1	3.8	1.49e+00	0	58	104	1419771904	60	15543
2026-01-09 01:09:36.24	241.43	7.11	-44.8	-57.1	3.8	1.49e+00	0	58	104	1419771904	60	15441
2026-01-09 01:09:37.26	241.36	7.04	-44.8	-57.1	3.8	1.49e+00	0	58	104	1419771904	60	15456
2026-01-09 01:09:38.27	241.28	6.97	-44.8	-57.1	3.8	1.49e+00	0	58	104	1419771904	60	15470
2026-01-09 01:09:39.28	241.21	6.90	-44.8	-57.1	3.8	1.49e+00	0	58	104	1419771904	60	15491
2026-01-09 01:09:40.29	241.13	6.83	-44.8	-57.1	3.8	1.49e+00	0	58	104	1419771904	60	15416
2026-01-09 01:09:41.30	241.06	6.76	-44.8	-57.0	3.8	1.49e+00	0	58	104	1419771904	60	15367
2026-01-09 01:09:42.31	240.99	6.69	-44.8	-57.1	3.8	1.49e+00	0	58	104	1419771904	60	15413
2026-01-09 01:09:43.32	240.92	6.62	-44.8	-57.0	3.8	1.49e+00	0	58	104	1419771904	60	15367
2026-01-09 01:09:44.33	240.84	6.55	-44.8	-57.0	3.8	1.49e+00	0	58	104	1419771904	60	15343
2026-01-09 01:09:45.33	240.77	6.48	-44.8	-57.0	3.8	1.49e+00	0	58	104	1419771904	60	15352
2026-01-09 01:09:46.35	240.70	6.42	-44.8	-57.0	3.8	1.49e+00	0	58	104	1419771904	60	15347
2026-01-09 01:09:47.35	240.63	6.35	-44.7	-57.0	3.8	1.49e+00	0	58	104	1419771904	60	15374
2026-01-09 01:09:48.36	240.56	6.28	-44.7	-57.0	3.8	1.49e+00	0	58	104	1419771904	60	15346
2026-01-09 01:09:49.37	240.49	6.21	-44.8	-57.0	3.8	1.49e+00	0	58	104	1419771904	60	15365
2026-01-09 01:09:50.38	240.42	6.14	-44.8	-57.0	3.8	1.49e+00	0	58	104	1419771904	60	15394
2026-01-09 01:09:51.39	240.35	6.08	-44.8	-57.0	3.8	1.49e+00	0	58	104	1419771904	60	15363
2026-01-09 01:09:52.40	240.28	6.01	-44.8	-57.0	3.8	1.49e+00	0	58	104	1419771904	60	15297
2026-01-09 01:09:53.41	240.21	5.94	-44.8	-57.0	3.8	1.49e+00	0	58	104	1419771904	60	15322
2026-01-09 01:09:54.42	240.14	5.87	-44.7	-57.0	3.8	1.49e+00	0	58	104	1419771904	60	15369
2026-01-09 01:09:55.43	240.07	5.80	-44.8	-57.0	3.8	1.49e+00	0	58	104	1419771904	60	15340
2026-01-09 01:09:56.44	240.01	5.74	-44.7	-57.0	3.8	1.49e+00	0	58	104	1419771904	60	15387
2026-01-09 01:09:57.45	239.94	5.67	-44.8	-57.0	3.8	1.49e+00	0	58	104	1419771904	60	15327
2026-01-09 01:09:58.46	239.87	5.60	-44.7	-57.0	3.8	1.49e+00	0	58	104	1419771904	60	15355
2026-01-09 01:09:59.47	239.80	5.54	-44.8	-57.0	3.8	1.49e+00	0	58	104	1419771904	60	15375
2026-01-09 01:10:00.48	239.74	5.47	-44.7	-57.0	3.8	1.49e+00	0	58	104	1419771904	60	15324
2026-01-09 01:10:01.49	239.67	5.40	-44.8	-57.0	3.8	1.49e+00	0	58	104	1419771904	60	15346
2026-01-09 01:10:02.49	239.61	5.34	-44.7	-57.0	3.8	1.49e+00	0	58	104	1419771904	60	15293
2026-01-09 01:10:03.50	239.54	5.27	-44.8	-57.0	3.8	1.49e+00	0	58	104	1419771904	60	15351
2026-01-09 01:10:04.51	239.47	5.21	-44.7	-57.0	3.8	1.49e+00	0	58	104	1419771904	60	15314
2026-01-09 01:10:05.52	239.41	5.14	-44.7	-57.0	3.8	1.49e+00	0	58	104	1419771904	60	15292
2026-01-09 01:10:06.53	239.34	5.07	-44.7	-57.0	3.8	1.49e+00	0	58	104	1419771904	60	15364
2026-01-09 01:10:07.54	239.28	5.01	-44.7	-57.0	3.8	1.49e+00	0	58	104	1419771904	60	15351
2026-01-09 01:10:08.55	239.22	4.94	-44.7	-57.0	3.8	1.49e+00	0	58	104	1419771904	60	15328
2026-01-09 01:10:09.56	239.15	4.88	-44.7	-57.0	3.8	1.49e+00	0	58	104	1419771904	60	15340
2026-01-09 01:10:10.57	239.09	4.81	-44.7	-57.0	3.8	1.49e+00	0	58	104	1419771904	60	15339
2026-01-09 01:10:11.58	239.02	4.75	-44.7	-57.0	3.8	1.49e+00	0	58	104	1419771904	60	15354
2026-01-09 01:10:12.59	238.96	4.68	-44.7	-57.0	3.8	1.49e+00	0	58	104	1419771904	60	15334
2026-01-09 01:10:13.60	238.90	4.62	-44.7	-57.0	3.8	1.49e+00	0	58	104	1419771904	60	15385
2026-01-09 01:10:14.60	238.84	4.55	-44.7	-57.0	3.8	1.49e+00	0	58	104	1419771904	60	15318
2026-01-09 01:10:15.62	238.77	4.49	-44.7	-57.0	3.8	1.49e+00	0	58	104	1419771904	60	15264
2026-01-09 01:10:16.62	238.71	4.42	-44.7	-57.0	3.8	1.49e+00	0	58	104	1419771904	60	15326
2026-01-09 01:10:17.63	238.65	4.36	-44.7	-57.0	3.8	1.49e+00	0	58	104	1419771904	60	15323
2026-01-09 01:10:18.64	238.59	4.29	-44.7	-57.0	3.8	1.49e+00	0	58	104	1419771904	60	15314
2026-01-09 01:10:19.65	238.53	4.23	-44.7	-57.0	3.8	1.49e+00	0	58	104	1419771904	60	15334
2026-01-09 01:10:20.66	238.47	4.16	-44.7	-57.0	3.8	1.49e+00	0	58	104	1419771904	60	15319
2026-01-09 01:10:21.68	238.41	4.10	-44.7	-57.0	3.8	1.49e+00	0	58	104	1419771904	60	15336
2026-01-09 01:10:22.69	238.35	4.04	-44.7	-57.0	3.8	1.49e+00	0	58	104	1419771904	60	15291
2026-01-09 01:10:23.70	238.29	3.97	-44.7	-57.0	3.8	1.49e+00	0	58	104	1419771904	60	15375
2026-01-09 01:10:24.71	238.23	3.91	-44.7	-57.0	3.8	1.49e+00	0	58	104	1419771904	60	15297
2026-01-09 01:10:25.72	238.17	3.84	-44.7	-57.0	3.8	1.49e+00	0	58	104	1419771904	60	15352
2026-01-09 01:10:26.73	238.11	3.78	-44.7	-57.0	3.8	1.49e+00	0	58	104	1419771904	60	15357
2026-01-09 01:10:27.74	238.05	3.72	-44.7	-57.0	3.8	1.49e+00	0	58	104	1419771904	60	15276
2026-01-09 01:10:28.75	237.99	3.65	-44.7	-57.0	3.8	1.49e+00	0	58	104	1419771904	60	15276
2026-01-09 01:10:29.76	237.93	3.59	-44.7	-57.0	3.8	1.49e+00	0	58	104	1419771904	60	15284
2026-01-09 01:10:30.77	237.87	3.53	-44.7	-57.0	3.8	1.49e+00	0	58	104	1419771904	60	15284
2026-01-09 01:10:31.78	237.82	3.47	-44.7	-57.0	3.8	1.49e+00	0	58	104	1419771904	60	15318
2026-01-09 01:10:32.79	237.76	3.40	-44.7	-57.0	3.8	1.49e+00	0	58	104	1419771904	60	15299
2026-01-09 01:10:33.80	237.70	3.34	-44.7	-57.0	3.8	1.49e+00	0	58	104	1419771904	60	15283
2026-01-09 01:10:34.81	237.64	3.28	-44.7	-57.0	3.8	1.49e+00	0	58	104	1419771904	60	15300
2026-01-09 01:10:35.83	237.59	3.21	-44.7	-57.0	3.8	1.49e+00	0	58	104	1419771904	60	15283
2026-01-09 01:10:36.84	237.53	3.15	-44.7	-57.0	3.8	1.49e+00	0	58	104	1419771904	60	15277
2026-01-09 01:10:37.85	237.47	3.09	-44.7	-57.0	3.8	1.49e+00	0	58	104	1419771904	60	15305
2026-01-09 01:10:38.85	237.42	3.03	-44.7	-57.0	3.8	1.49e+00	0	58	104	1419771904	60	15299
2026-01-09 01:10:39.86	237.36	2.97	-44.7	-57.0	3.8	1.49e+00	0	58	104	1419771904	60	15318
2026-01-09 01:10:40.87	237.31	2.91	-44.7	-57.0	3.8	1.49e+00	0	58	104	1419771904	60	15309
2026-01-09 01:10:41.88	237.25	2.84	-44.7	-57.0	3.8	1.49e+00	0	58	104	1419771904	60	15343
2026-01-09 01:10:42.89	237.20	2.78	-44.7	-57.0	3.8	1.49e+00	0	58	104	1419771904	60	15307
2026-01-09 01:10:43.90	237.14	2.72	-44.7	-57.0	3.8	1.49e+00	0	58	104	1419771904	60	15312
2026-01-09 01:10:44.91	237.09	2.66	-44.7	-57.0	3.8	1.49e+00	0	58	104	1419771904	60	15319
2026-01-09 01:10:45.92	237.03	2.60	-44.7	-57.0	3.8	1.49e+00	0	58	104	1419771904	60	15311
2026-01-09 01:10:46.93	236.98	2.54	-44.7	-57.0	3.8	1.49e+00	0	58	104	1419771904	60	15311
2026-01-09 01:10:47.94	236.92	2.48	-44.7	-57.0	3.8	1.49e+00	0	58	104	1419771904	60	15334
2026-01-09 01:10:48.95	236.87	2.41	-44.7	-57.0	3.8	1.49e+00	0	58	104	1419771904	60	15307
2026-01-09 01:10:49.96	236.82	2.35	-44.7	-57.0	3.8	1.49e+00	0	58	104	1419771904	60	15307
2026-01-09 01:10:50.98	236.76	2.29	-44.7	-57.0	3.8	1.49e+00	0	58	104	1419771904	60	15300
2026-01-09 01:10:51.99	236.71	2.23	-44.7	-57.0	3.8	1.49e+00	0	58	104	1419771904	60	15294
2026-01-09 01:10:53.00	236.66	2.17	-44.7	-57.0	3.8	1.49e+00	0	58	104	1419771904	60	15309
2026-01-09 01:10:54.00	236.60	2.11	-44.7	-57.0	3.8	1.49e+00	0	58	104	1419771904	60	15288
2026-01-09 01:10:55.02	236.55	2.05	-44.7	-57.0	3.8	1.49e+00	0	58	104	1419771904	60	15274
2026-01-09 01:10:56.02	236.50	1.99	-44.7	-57.0	3.8	1.49e+00	0	58	104	1419771904	60	15306

#Closed at: 2026-01-09 01:10:56
#Recorded file [1419 MB]: D:/lorett/data/31039_260109_040100.dat