passes_logs/2026/01/09/R2.0S_Moscow/R2.0S_Moscow__20260109_033045_FENGYUN_3G_rec.log

#Pass ID: 20260109_033045_FENGYUN 3G
#Satellite: FENGYUN 3G
#Configuration: FENGYUN 3G
#almurnet v.1.7.20251203
#Start time: 2026-01-09 03:30:45

#Version: 2.2.20231116
#Station: R2.0S_Moscow
#Location: 37.707566 lon 55.798166 lat
#TLE: 1 56232U 23055A   26008.48762740  .00031983  00000+0  50485-3 0  9995
#TLE: 2 56232  49.9936  89.5247 0004286 357.0620   3.0321 15.53163078155186

#Time	Az	El	Level	Level2	SNR	BER	BlckErr	Temp	State	Recorded	gain1	gain2
2026-01-09 03:30:45.12	263.60	1.97	-44.0	-62.2	3.8	8.46e-01	0	47	0	0	59	29572
2026-01-09 03:30:46.12	263.51	2.03	-44.0	-62.2	3.8	8.45e-01	0	47	104	0	59	29515
2026-01-09 03:30:47.13	263.43	2.09	-44.0	-62.2	3.8	8.46e-01	0	47	104	0	59	29525
2026-01-09 03:30:48.14	263.34	2.16	-44.0	-62.2	3.8	8.45e-01	0	47	104	0	59	29472
2026-01-09 03:30:49.15	263.26	2.22	-44.0	-62.2	3.8	8.45e-01	0	48	104	0	59	29532
2026-01-09 03:30:50.16	263.17	2.28	-44.0	-62.2	3.8	8.46e-01	0	48	104	0	59	29459
2026-01-09 03:30:51.17	263.08	2.35	-44.0	-62.2	3.8	8.47e-01	0	47	104	0	59	29496
2026-01-09 03:30:52.18	262.99	2.41	-44.0	-62.2	3.8	8.47e-01	0	48	104	0	59	29396
2026-01-09 03:30:53.19	262.91	2.47	-44.0	-62.2	3.8	8.45e-01	0	48	104	0	59	29491
2026-01-09 03:30:54.20	262.82	2.54	-44.0	-62.2	3.8	8.47e-01	0	48	104	0	59	29505
2026-01-09 03:30:55.22	262.73	2.60	-44.0	-62.2	3.8	8.47e-01	0	48	104	0	59	29460
2026-01-09 03:30:56.23	262.64	2.67	-44.0	-62.2	3.8	8.45e-01	0	48	104	0	59	29473
2026-01-09 03:30:57.24	262.54	2.73	-44.0	-62.2	3.8	8.46e-01	0	48	104	0	59	29395
2026-01-09 03:30:58.25	262.45	2.80	-44.0	-62.2	3.8	8.46e-01	0	48	104	0	59	29440
2026-01-09 03:30:59.26	262.36	2.86	-44.0	-62.2	3.8	8.47e-01	0	48	104	0	59	29456
2026-01-09 03:31:00.27	262.27	2.93	-44.0	-62.2	3.8	8.45e-01	0	48	104	0	59	29470
2026-01-09 03:31:01.28	262.18	2.99	-44.0	-62.2	3.8	8.46e-01	0	48	104	0	59	29407
2026-01-09 03:31:02.29	262.08	3.06	-44.0	-62.2	3.8	8.46e-01	0	49	104	0	59	29416
2026-01-09 03:31:03.30	261.99	3.12	-44.0	-62.2	3.8	8.46e-01	0	48	104	0	59	29441
2026-01-09 03:31:04.31	261.89	3.19	-44.0	-62.2	3.8	8.46e-01	0	48	104	0	59	29359
2026-01-09 03:31:05.32	261.80	3.25	-44.0	-62.1	3.8	8.46e-01	0	49	104	0	59	29300
2026-01-09 03:31:06.33	261.70	3.32	-44.0	-62.1	3.8	8.46e-01	0	49	104	0	59	29321
2026-01-09 03:31:07.34	261.60	3.39	-44.0	-62.1	3.8	8.46e-01	0	49	104	0	59	29194
2026-01-09 03:31:08.35	261.51	3.45	-44.0	-62.1	3.8	8.46e-01	0	49	104	0	59	29156
2026-01-09 03:31:09.36	261.41	3.52	-44.0	-62.1	3.8	8.47e-01	0	49	104	0	59	29186
2026-01-09 03:31:10.37	261.31	3.59	-44.0	-62.1	3.8	8.46e-01	0	49	104	0	59	29223
2026-01-09 03:31:11.38	261.21	3.65	-44.0	-62.1	3.8	8.47e-01	0	49	104	0	59	29268
2026-01-09 03:31:12.39	261.11	3.72	-44.0	-62.1	3.8	8.47e-01	0	49	104	0	59	29212
2026-01-09 03:31:13.40	261.01	3.79	-44.0	-62.1	3.8	8.46e-01	0	49	104	0	59	29344
2026-01-09 03:31:14.41	260.91	3.86	-44.0	-62.2	3.8	8.45e-01	0	49	104	0	59	29552
2026-01-09 03:31:15.42	260.80	3.92	-44.0	-62.2	3.8	8.45e-01	0	49	104	0	59	29468
2026-01-09 03:31:16.43	260.70	3.99	-44.0	-62.2	3.8	8.46e-01	0	50	104	0	59	29443
2026-01-09 03:31:17.44	260.60	4.06	-44.0	-62.2	3.8	8.45e-01	0	49	104	0	59	29420
2026-01-09 03:31:18.45	260.49	4.13	-44.0	-62.2	3.8	8.45e-01	0	49	104	0	59	29388
2026-01-09 03:31:19.46	260.39	4.20	-44.0	-62.2	3.8	8.48e-01	0	50	104	0	59	29446
2026-01-09 03:31:20.47	260.28	4.27	-44.0	-62.2	3.8	8.46e-01	0	49	104	0	59	29394
2026-01-09 03:31:21.48	260.18	4.33	-44.0	-62.2	3.8	8.46e-01	0	50	104	0	59	29362
2026-01-09 03:31:22.49	260.07	4.40	-44.0	-62.1	3.8	8.46e-01	0	50	104	0	59	29332
2026-01-09 03:31:23.50	259.96	4.47	-44.0	-62.0	3.8	8.47e-01	0	50	104	0	59	29010
2026-01-09 03:31:24.51	259.85	4.54	-44.0	-61.9	3.8	8.46e-01	0	50	104	0	59	28603
2026-01-09 03:31:25.52	259.74	4.61	-44.0	-61.8	3.8	8.46e-01	0	50	104	0	59	28161
2026-01-09 03:31:26.53	259.63	4.68	-44.0	-61.7	3.8	8.46e-01	0	50	104	0	59	27950
2026-01-09 03:31:27.54	259.52	4.75	-44.0	-61.8	3.8	8.46e-01	0	50	104	0	59	28133
2026-01-09 03:31:28.55	259.41	4.82	-44.0	-61.8	3.8	8.46e-01	0	50	104	0	59	28217
2026-01-09 03:31:29.56	259.30	4.89	-44.0	-61.8	3.8	8.47e-01	0	50	104	0	59	28339
2026-01-09 03:31:30.58	259.18	4.96	-44.0	-62.0	3.8	8.48e-01	0	50	104	0	59	28785
2026-01-09 03:31:31.59	259.07	5.04	-44.0	-62.1	3.8	8.48e-01	0	50	104	0	59	29025
2026-01-09 03:31:32.60	258.95	5.11	-44.0	-62.1	3.8	8.46e-01	0	50	104	0	59	29180
2026-01-09 03:31:33.60	258.84	5.18	-44.0	-62.2	3.8	8.45e-01	0	50	104	0	59	29384
2026-01-09 03:31:34.62	258.72	5.25	-44.0	-62.2	3.8	8.45e-01	0	50	104	0	59	29459
2026-01-09 03:31:35.63	258.60	5.32	-44.0	-62.1	3.8	8.46e-01	0	50	104	0	59	29297
2026-01-09 03:31:36.63	258.49	5.39	-44.0	-62.1	3.8	8.46e-01	0	51	104	0	59	29272
2026-01-09 03:31:37.64	258.37	5.47	-44.0	-62.0	3.8	8.46e-01	0	50	104	0	59	28988
2026-01-09 03:31:38.65	258.25	5.54	-44.0	-62.0	3.8	8.46e-01	0	51	104	0	59	28681
2026-01-09 03:31:39.66	258.13	5.61	-44.0	-61.9	3.8	8.46e-01	0	51	104	0	59	28363
2026-01-09 03:31:40.67	258.01	5.68	-44.0	-61.7	3.8	8.46e-01	0	50	104	0	59	28019
2026-01-09 03:31:41.68	257.88	5.76	-44.0	-61.8	3.8	8.46e-01	0	51	104	0	59	28102
2026-01-09 03:31:42.69	257.76	5.83	-44.0	-61.9	3.8	8.47e-01	0	51	104	0	59	28584
2026-01-09 03:31:43.70	257.64	5.90	-44.0	-61.9	3.8	8.45e-01	0	51	104	0	59	28580
2026-01-09 03:31:44.71	257.51	5.98	-44.0	-61.8	3.8	8.45e-01	0	51	104	0	59	28050
2026-01-09 03:31:45.72	257.38	6.05	-44.0	-61.2	3.8	8.47e-01	0	51	104	0	59	26235
2026-01-09 03:31:46.73	257.26	6.12	-44.0	-60.4	3.8	8.46e-01	0	51	104	0	59	23864
2026-01-09 03:31:47.74	257.13	6.20	-43.9	-59.1	4.1	8.46e-01	0	51	104	0	59	20749
2026-01-09 03:31:48.75	257.00	6.27	-43.9	-57.8	4.5	8.45e-01	0	51	0	0	59	17713
2026-01-09 03:31:49.76	256.87	6.35	-43.8	-56.6	5.0	8.28e-01	0	51	0	0	59	15539
2026-01-09 03:31:50.77	256.74	6.42	-43.7	-55.6	5.6	7.54e-01	0	51	0	0	59	13881
2026-01-09 03:31:51.79	256.61	6.50	-43.7	-55.1	6.0	7.54e-01	0	51	0	524288	59	12977
2026-01-09 03:31:52.79	256.48	6.57	-43.6	-54.4	6.5	4.49e-01	0	51	0	1572864	59	12071
2026-01-09 03:31:53.80	256.34	6.65	-43.6	-53.8	7.0	2.23e-01	0	51	0	2621440	59	11283
2026-01-09 03:31:54.81	256.21	6.73	-43.5	-53.7	7.2	2.23e-01	0	51	0	3670016	59	11080
2026-01-09 03:31:55.82	256.07	6.80	-43.6	-54.0	6.9	1.61e-01	0	51	0	5242880	59	11534
2026-01-09 03:31:56.84	255.93	6.88	-43.6	-54.4	6.6	1.86e-01	0	51	0	6291456	59	11990
2026-01-09 03:31:57.85	255.80	6.96	-43.7	-55.6	5.6	1.86e-01	0	51	0	7340032	59	13877
2026-01-09 03:31:58.86	255.66	7.03	-43.9	-57.9	4.4	3.46e-01	0	51	0	7340032	59	17991
2026-01-09 03:31:59.87	255.52	7.11	-44.0	-60.6	3.8	8.00e-01	0	52	104	7340032	59	24462
2026-01-09 03:32:00.88	255.38	7.19	-43.9	-59.1	3.9	8.00e-01	0	51	104	7340032	59	20565
2026-01-09 03:32:01.89	255.24	7.26	-43.6	-54.2	6.6	8.45e-01	0	52	0	7340032	59	11743
2026-01-09 03:32:02.90	255.09	7.34	-43.0	-50.4	10.4	4.82e-01	0	52	0	8388608	58	8026
2026-01-09 03:32:03.91	254.95	7.42	-42.2	-47.9	13.1	7.74e-03	0	52	0	9437184	56	6732
2026-01-09 03:32:04.92	254.81	7.50	-41.1	-45.3	15.5	7.74e-03	0	52	0	11010048	54	5645
2026-01-09 03:32:05.93	254.66	7.58	-40.2	-43.7	17.3	9.10e-06	0	52	0	12058624	52	5237
2026-01-09 03:32:06.94	254.51	7.66	-39.7	-42.8	18.2	0.00e+00	0	52	0	13107200	51	5021
2026-01-09 03:32:07.95	254.36	7.73	-39.4	-42.3	18.8	0.00e+00	0	52	0	14155776	50	5006
2026-01-09 03:32:08.96	254.21	7.81	-39.3	-42.1	19.0	0.00e+00	0	52	0	15204352	50	4904
2026-01-09 03:32:09.97	254.06	7.89	-39.4	-42.3	18.7	0.00e+00	0	52	0	16252928	50	5014
2026-01-09 03:32:10.98	253.91	7.97	-39.7	-42.8	18.2	0.00e+00	0	52	0	17825792	50	5333
2026-01-09 03:32:11.99	253.76	8.05	-40.2	-43.5	17.6	0.00e+00	0	52	0	18874368	50	5779
2026-01-09 03:32:13.00	253.61	8.13	-40.6	-44.3	16.7	0.00e+00	0	52	0	19922944	52	5632
2026-01-09 03:32:14.01	253.45	8.21	-39.2	-42.0	19.2	0.00e+00	0	52	0	20971520	49	5142
2026-01-09 03:32:15.02	253.29	8.29	-43.0	-50.6	10.6	0.00e+00	0	52	0	22020096	56	9219
2026-01-09 03:32:16.03	253.14	8.37	-40.8	-44.6	16.7	1.18e-03	0	52	0	23068672	52	5852
2026-01-09 03:32:17.04	252.98	8.45	-43.7	-56.4	5.6	4.89e-03	0	52	0	24117248	58	16100
2026-01-09 03:32:18.04	252.82	8.54	-39.1	-41.9	19.2	4.89e-03	0	52	0	25165824	50	4768
2026-01-09 03:32:19.05	252.66	8.62	-39.2	-41.9	19.2	1.05e-01	0	52	0	26738688	49	5096
2026-01-09 03:32:20.06	252.50	8.70	-38.9	-41.6	19.6	0.00e+00	0	52	0	27787264	49	4883
2026-01-09 03:32:21.07	252.33	8.78	-38.9	-41.5	19.7	0.00e+00	0	52	0	28835840	49	4832
2026-01-09 03:32:22.08	252.17	8.86	-38.7	-41.2	20.0	0.00e+00	0	52	0	29884416	49	4666
2026-01-09 03:32:23.09	252.00	8.94	-38.6	-41.2	20.0	0.00e+00	0	52	0	30932992	49	4658
2026-01-09 03:32:24.11	251.83	9.03	-38.7	-41.3	19.9	0.00e+00	0	52	0	31981568	49	4714
2026-01-09 03:32:25.11	251.66	9.11	-38.6	-41.2	20.0	0.00e+00	0	52	0	33554432	49	4657
2026-01-09 03:32:26.12	251.49	9.19	-38.5	-40.9	20.3	0.00e+00	0	53	0	34603008	48	4795
2026-01-09 03:32:27.13	251.32	9.28	-38.3	-40.7	20.5	0.00e+00	0	53	0	35651584	48	4678
2026-01-09 03:32:28.14	251.15	9.36	-38.3	-40.7	20.6	0.00e+00	0	53	0	36700160	48	4671
2026-01-09 03:32:29.15	250.98	9.44	-38.2	-40.6	20.7	0.00e+00	0	53	0	37748736	48	4611
2026-01-09 03:32:30.16	250.80	9.53	-38.2	-40.5	20.8	0.00e+00	0	53	0	38797312	48	4550
2026-01-09 03:32:31.17	250.62	9.61	-38.2	-40.5	20.8	0.00e+00	0	53	0	40370176	48	4566
2026-01-09 03:32:32.18	250.45	9.70	-38.1	-40.4	20.8	0.00e+00	0	52	0	41418752	48	4533
2026-01-09 03:32:33.19	250.27	9.78	-38.1	-40.3	20.9	0.00e+00	0	53	0	42467328	48	4489
2026-01-09 03:32:34.20	250.08	9.86	-38.2	-40.5	20.8	0.00e+00	0	53	0	43515904	48	4579
2026-01-09 03:32:35.21	249.90	9.95	-38.2	-40.5	20.8	0.00e+00	0	53	0	44564480	48	4577
2026-01-09 03:32:36.22	249.72	10.04	-38.3	-40.6	20.7	0.00e+00	0	53	0	45613056	48	4619
2026-01-09 03:32:37.23	249.53	10.12	-38.3	-40.6	20.7	0.00e+00	0	53	0	47185920	48	4639
2026-01-09 03:32:38.24	249.35	10.21	-38.3	-40.6	20.7	0.00e+00	0	53	0	48234496	48	4614
2026-01-09 03:32:39.24	249.16	10.29	-38.2	-40.5	20.8	0.00e+00	0	53	0	49283072	48	4575
2026-01-09 03:32:40.25	248.97	10.38	-38.0	-40.3	21.0	0.00e+00	0	53	0	50331648	48	4463
2026-01-09 03:32:41.26	248.78	10.46	-38.0	-40.3	21.0	0.00e+00	0	53	0	51380224	48	4449
2026-01-09 03:32:42.27	248.58	10.55	-38.0	-40.3	21.1	0.00e+00	0	53	0	52428800	48	4458
2026-01-09 03:32:43.28	248.39	10.64	-37.8	-40.0	21.2	0.00e+00	0	53	0	54001664	47	4593
2026-01-09 03:32:44.29	248.19	10.72	-37.6	-39.7	21.5	0.00e+00	0	53	0	55050240	47	4439
2026-01-09 03:32:45.30	248.00	10.81	-37.5	-39.5	21.7	0.00e+00	0	53	0	56098816	46	4598
2026-01-09 03:32:46.31	247.80	10.90	-37.6	-39.7	21.6	0.00e+00	0	53	0	57147392	46	4670
2026-01-09 03:32:47.32	247.60	10.99	-37.5	-39.6	21.7	0.00e+00	0	53	0	58195968	46	4647
2026-01-09 03:32:48.33	247.39	11.07	-37.7	-39.9	21.5	0.00e+00	0	53	0	59244544	46	4765
2026-01-09 03:32:49.34	247.19	11.16	-37.7	-39.9	21.5	0.00e+00	0	53	0	60817408	46	4773
2026-01-09 03:32:50.35	246.98	11.25	-37.7	-39.9	21.4	0.00e+00	0	53	0	61865984	46	4782
2026-01-09 03:32:51.36	246.78	11.34	-37.7	-39.8	21.5	0.00e+00	0	53	0	62914560	46	4759
2026-01-09 03:32:52.37	246.57	11.43	-37.8	-40.0	21.4	0.00e+00	0	53	0	63963136	46	4837
2026-01-09 03:32:53.38	246.36	11.51	-37.7	-39.9	21.5	0.00e+00	0	53	0	65011712	46	4784
2026-01-09 03:32:54.39	246.14	11.60	-37.6	-39.7	21.6	0.00e+00	0	53	0	66060288	46	4694
2026-01-09 03:32:55.40	245.93	11.69	-37.5	-39.6	21.7	0.00e+00	0	53	0	67633152	46	4636
2026-01-09 03:32:56.41	245.71	11.78	-37.3	-39.4	21.9	0.00e+00	0	53	0	68681728	46	4527
2026-01-09 03:32:57.42	245.50	11.87	-37.3	-39.3	22.0	0.00e+00	0	53	0	69730304	46	4463
2026-01-09 03:32:58.43	245.28	11.96	-37.2	-39.2	22.2	0.00e+00	0	53	0	70778880	46	4400
2026-01-09 03:32:59.44	245.06	12.05	-37.2	-39.3	22.1	0.00e+00	0	53	0	71827456	46	4450
2026-01-09 03:33:00.45	244.83	12.14	-37.2	-39.2	22.1	0.00e+00	0	53	0	72876032	46	4431
2026-01-09 03:33:01.46	244.61	12.23	-37.4	-39.5	21.9	0.00e+00	0	53	0	74448896	46	4577
2026-01-09 03:33:02.47	244.38	12.32	-37.5	-39.6	21.8	0.00e+00	0	54	0	75497472	46	4601
2026-01-09 03:33:03.48	244.15	12.41	-37.5	-39.6	21.8	0.00e+00	0	53	0	76546048	46	4622
2026-01-09 03:33:04.49	243.92	12.50	-37.4	-39.5	21.9	0.00e+00	0	53	0	77594624	46	4565
2026-01-09 03:33:05.50	243.69	12.59	-37.2	-39.2	22.1	0.00e+00	0	53	0	78643200	46	4441
2026-01-09 03:33:06.51	243.46	12.68	-37.2	-39.2	22.2	0.00e+00	0	54	0	79691776	46	4414
2026-01-09 03:33:07.52	243.22	12.77	-37.1	-39.0	22.4	0.00e+00	0	53	0	81264640	46	4337
2026-01-09 03:33:08.53	242.98	12.86	-36.8	-38.8	22.6	0.00e+00	0	54	0	82313216	45	4445
2026-01-09 03:33:09.54	242.74	12.95	-36.7	-38.5	22.8	0.00e+00	0	54	0	83361792	45	4340
2026-01-09 03:33:10.55	242.50	13.04	-36.6	-38.4	22.9	0.00e+00	0	53	0	84410368	45	4272
2026-01-09 03:33:11.56	242.26	13.14	-36.7	-38.5	22.9	0.00e+00	0	53	0	85458944	45	4339
2026-01-09 03:33:12.57	242.01	13.23	-36.7	-38.6	22.8	0.00e+00	0	54	0	86507520	45	4384
2026-01-09 03:33:13.58	241.76	13.32	-37.0	-38.9	22.5	0.00e+00	0	53	0	88080384	45	4540
2026-01-09 03:33:14.59	241.51	13.41	-37.0	-39.0	22.5	0.00e+00	0	53	0	89128960	45	4552
2026-01-09 03:33:15.60	241.26	13.50	-37.0	-39.0	22.4	0.00e+00	0	53	0	90177536	45	4559
2026-01-09 03:33:16.61	241.01	13.59	-37.0	-38.9	22.5	0.00e+00	0	54	0	91226112	45	4526
2026-01-09 03:33:17.61	240.76	13.68	-37.0	-38.9	22.5	0.00e+00	0	54	0	92274688	45	4520
2026-01-09 03:33:18.62	240.50	13.77	-36.8	-38.6	22.8	0.00e+00	0	54	0	93323264	45	4389
2026-01-09 03:33:19.63	240.24	13.87	-36.6	-38.5	22.9	0.00e+00	0	54	0	94896128	45	4315
2026-01-09 03:33:20.64	239.98	13.96	-36.5	-38.4	23.0	0.00e+00	0	54	0	95944704	45	4260
2026-01-09 03:33:21.65	239.71	14.05	-36.3	-38.1	23.3	0.00e+00	0	54	0	96993280	44	4361
2026-01-09 03:33:22.66	239.45	14.14	-36.1	-37.9	23.5	0.00e+00	0	54	0	98041856	44	4274
2026-01-09 03:33:23.67	239.18	14.23	-36.4	-38.2	23.3	0.00e+00	0	54	0	99090432	44	4410
2026-01-09 03:33:24.68	238.91	14.32	-36.5	-38.4	23.1	0.00e+00	0	54	0	100139008	44	4495
2026-01-09 03:33:25.69	238.64	14.42	-36.7	-38.5	22.9	0.00e+00	0	54	0	101711872	44	4594
2026-01-09 03:33:26.70	238.36	14.51	-36.8	-38.7	22.7	0.00e+00	0	54	0	102760448	44	4688
2026-01-09 03:33:27.71	238.08	14.60	-36.9	-38.8	22.6	0.00e+00	0	54	0	103809024	44	4754
2026-01-09 03:33:28.72	237.80	14.69	-36.8	-38.7	22.7	0.00e+00	0	54	0	104857600	44	4702
2026-01-09 03:33:29.73	237.52	14.78	-36.6	-38.5	23.0	0.00e+00	0	54	0	105906176	44	4574
2026-01-09 03:33:30.74	237.24	14.87	-36.3	-38.1	23.3	0.00e+00	0	54	0	106954752	44	4371
2026-01-09 03:33:31.75	236.95	14.96	-36.2	-37.9	23.5	0.00e+00	0	54	0	108527616	44	4289
2026-01-09 03:33:32.76	236.67	15.06	-35.8	-37.5	23.8	0.00e+00	0	54	0	109576192	43	4319
2026-01-09 03:33:33.77	236.38	15.15	-35.7	-37.4	23.9	0.00e+00	0	54	0	110624768	43	4260
2026-01-09 03:33:34.77	236.09	15.24	-35.7	-37.4	23.9	0.00e+00	0	54	0	111673344	43	4277
2026-01-09 03:33:35.78	235.79	15.33	-35.8	-37.5	23.8	0.00e+00	0	54	0	112721920	43	4318
2026-01-09 03:33:36.79	235.49	15.42	-35.8	-37.6	23.7	0.00e+00	0	54	0	113770496	43	4344
2026-01-09 03:33:37.80	235.20	15.51	-35.9	-37.7	23.6	0.00e+00	0	54	0	115343360	43	4403
2026-01-09 03:33:38.81	234.89	15.60	-36.2	-37.9	23.4	0.00e+00	0	54	0	116391936	43	4540
2026-01-09 03:33:39.82	234.59	15.69	-36.2	-38.0	23.3	0.00e+00	0	54	0	117440512	43	4589
2026-01-09 03:33:40.83	234.28	15.78	-36.2	-38.0	23.4	0.00e+00	0	54	0	118489088	43	4551
2026-01-09 03:33:41.84	233.98	15.87	-36.2	-38.0	23.3	0.00e+00	0	54	0	119537664	43	4592
2026-01-09 03:33:42.85	233.66	15.96	-36.2	-38.0	23.4	0.00e+00	0	54	0	120586240	43	4563
2026-01-09 03:33:43.86	233.35	16.05	-36.2	-38.0	23.4	0.00e+00	0	54	0	122159104	43	4572
2026-01-09 03:33:44.87	233.04	16.14	-35.9	-37.6	23.7	0.00e+00	0	54	0	123207680	43	4358
2026-01-09 03:33:45.88	232.72	16.23	-35.7	-37.4	23.9	0.00e+00	0	54	0	124256256	43	4286
2026-01-09 03:33:46.89	232.40	16.31	-35.5	-37.1	24.2	0.00e+00	0	54	0	125304832	42	4389
2026-01-09 03:33:47.90	232.07	16.40	-35.3	-36.9	24.4	0.00e+00	0	54	0	126353408	42	4285
2026-01-09 03:33:48.90	231.75	16.49	-35.1	-36.8	24.5	0.00e+00	0	54	0	127401984	42	4207
2026-01-09 03:33:49.92	231.42	16.58	-35.3	-37.0	24.3	0.00e+00	0	54	0	128974848	42	4308
2026-01-09 03:33:50.93	231.09	16.67	-35.5	-37.2	24.2	0.00e+00	0	54	0	130023424	42	4399
2026-01-09 03:33:51.94	230.76	16.75	-35.6	-37.3	24.0	0.00e+00	0	54	0	131072000	42	4481
2026-01-09 03:33:52.94	230.43	16.84	-35.8	-37.6	23.8	0.00e+00	0	54	0	132120576	42	4604
2026-01-09 03:33:53.95	230.09	16.92	-36.0	-37.8	23.6	0.00e+00	0	54	0	133169152	42	4707
2026-01-09 03:33:54.96	229.75	17.01	-36.1	-37.8	23.5	0.00e+00	0	54	0	134217728	42	4746
2026-01-09 03:33:55.97	229.41	17.09	-36.0	-37.8	23.6	0.00e+00	0	54	0	135790592	42	4729
2026-01-09 03:33:56.98	229.07	17.18	-35.9	-37.6	23.8	0.00e+00	0	54	0	136839168	42	4631
2026-01-09 03:33:57.99	228.72	17.26	-35.9	-37.6	23.8	0.00e+00	0	54	0	137887744	42	4612
2026-01-09 03:33:59.00	228.37	17.35	-35.7	-37.4	23.9	0.00e+00	0	54	0	138936320	42	4534
2026-01-09 03:34:00.01	228.02	17.43	-35.4	-37.1	24.2	0.00e+00	0	54	0	139984896	42	4365
2026-01-09 03:34:01.02	227.66	17.51	-35.2	-36.8	24.5	0.00e+00	0	54	0	141033472	42	4211
2026-01-09 03:34:02.03	227.31	17.60	-35.1	-36.7	24.7	0.00e+00	0	54	0	142606336	42	4151
2026-01-09 03:34:03.04	226.95	17.68	-34.7	-36.2	25.1	0.00e+00	0	54	0	143654912	41	4189
2026-01-09 03:34:04.05	226.59	17.76	-34.6	-36.1	25.2	0.00e+00	0	54	0	144703488	41	4132
2026-01-09 03:34:05.06	226.22	17.84	-34.6	-36.1	25.2	0.00e+00	0	55	0	145752064	41	4120
2026-01-09 03:34:06.06	225.86	17.92	-34.7	-36.3	25.0	0.00e+00	0	54	0	146800640	41	4205
2026-01-09 03:34:07.07	225.49	18.00	-34.9	-36.5	24.9	0.00e+00	0	55	0	147849216	41	4297
2026-01-09 03:34:08.08	225.12	18.08	-35.0	-36.6	24.6	0.00e+00	0	54	0	149422080	41	4364
2026-01-09 03:34:09.09	224.75	18.15	-35.2	-36.8	24.6	0.00e+00	0	55	0	150470656	41	4453
2026-01-09 03:34:10.10	224.37	18.23	-35.3	-36.9	24.4	0.00e+00	0	55	0	151519232	41	4544
2026-01-09 03:34:11.11	224.00	18.31	-35.4	-37.0	24.3	0.00e+00	0	55	0	152567808	41	4591
2026-01-09 03:34:12.12	223.62	18.38	-35.5	-37.2	24.2	0.00e+00	0	55	0	153616384	41	4666
2026-01-09 03:34:13.13	223.23	18.46	-35.6	-37.3	24.1	0.00e+00	0	54	0	154664960	41	4732
2026-01-09 03:34:14.14	222.85	18.53	-35.7	-37.4	24.0	0.00e+00	0	55	0	156237824	41	4772
2026-01-09 03:34:15.15	222.46	18.60	-35.6	-37.3	24.1	0.00e+00	0	54	0	157286400	41	4719
2026-01-09 03:34:16.16	222.07	18.68	-35.8	-37.5	24.0	0.00e+00	0	55	0	158334976	42	4557
2026-01-09 03:34:17.17	221.68	18.75	-35.7	-37.4	24.1	0.00e+00	0	55	0	159383552	42	4507
2026-01-09 03:34:18.18	221.29	18.82	-35.6	-37.3	24.1	0.00e+00	0	55	0	160432128	42	4469
2026-01-09 03:34:19.18	220.90	18.89	-35.7	-37.4	24.0	0.00e+00	0	55	0	161480704	42	4521
2026-01-09 03:34:20.19	220.50	18.96	-35.6	-37.3	24.1	0.00e+00	0	55	0	163053568	42	4466
2026-01-09 03:34:21.20	220.10	19.03	-35.5	-37.1	24.3	0.00e+00	0	55	0	164102144	42	4377
2026-01-09 03:34:22.21	219.69	19.09	-35.4	-37.0	24.4	0.00e+00	0	55	0	165150720	42	4316
2026-01-09 03:34:23.22	219.29	19.16	-34.9	-36.4	24.9	0.00e+00	0	55	0	166199296	41	4284
2026-01-09 03:34:24.23	218.88	19.22	-35.0	-36.6	24.8	0.00e+00	0	55	0	167247872	41	4376
2026-01-09 03:34:25.24	218.47	19.29	-35.2	-36.8	24.7	0.00e+00	0	54	0	168296448	41	4451
2026-01-09 03:34:26.25	218.06	19.35	-35.3	-36.9	24.6	0.00e+00	0	54	0	169869312	41	4506
2026-01-09 03:34:27.26	217.65	19.41	-35.3	-36.9	24.5	0.00e+00	0	55	0	170917888	41	4519
2026-01-09 03:34:28.27	217.24	19.47	-35.2	-36.8	24.7	0.00e+00	0	55	0	171966464	41	4474
2026-01-09 03:34:29.28	216.82	19.53	-34.9	-36.5	24.9	0.00e+00	0	55	0	173015040	41	4326
2026-01-09 03:34:30.29	216.40	19.59	-34.6	-36.2	25.2	0.00e+00	0	55	0	174063616	41	4161
2026-01-09 03:34:31.30	215.98	19.65	-34.6	-36.1	25.3	0.00e+00	0	55	0	175112192	41	4125
2026-01-09 03:34:32.31	215.56	19.70	-34.9	-36.5	24.9	0.00e+00	0	55	0	176685056	41	4323
2026-01-09 03:34:33.32	215.13	19.76	-35.1	-36.7	24.7	0.00e+00	0	55	0	177733632	41	4423
2026-01-09 03:34:34.33	214.70	19.81	-35.2	-36.8	24.7	0.00e+00	0	55	0	178782208	41	4456
2026-01-09 03:34:35.34	214.28	19.86	-34.9	-36.5	24.9	0.00e+00	0	55	0	179830784	41	4313
2026-01-09 03:34:36.35	213.85	19.91	-34.8	-36.4	25.0	0.00e+00	0	55	0	180879360	41	4265
2026-01-09 03:34:37.35	213.42	19.96	-35.1	-36.7	24.8	0.00e+00	0	55	0	181927936	41	4401
2026-01-09 03:34:38.36	212.99	20.01	-35.2	-36.8	24.5	0.00e+00	0	55	0	183500800	41	4480
2026-01-09 03:34:39.37	212.55	20.06	-35.4	-37.0	24.4	0.00e+00	0	55	0	184549376	41	4581
2026-01-09 03:34:40.38	212.11	20.10	-35.1	-36.7	24.7	0.00e+00	0	55	0	185597952	41	4416
2026-01-09 03:34:41.39	211.68	20.15	-35.1	-36.7	24.8	0.00e+00	0	55	0	186646528	41	4394
2026-01-09 03:34:42.40	211.24	20.19	-35.3	-36.9	24.6	0.00e+00	0	55	0	187695104	41	4515
2026-01-09 03:34:43.41	210.79	20.23	-35.2	-36.9	24.6	0.00e+00	0	55	0	188743680	41	4497
2026-01-09 03:34:44.42	210.35	20.27	-35.2	-36.9	24.6	0.00e+00	0	55	0	189792256	41	4496
2026-01-09 03:34:45.43	209.91	20.31	-35.2	-36.9	24.6	0.00e+00	0	55	0	191365120	41	4504
2026-01-09 03:34:46.44	209.46	20.35	-35.2	-36.8	24.6	0.00e+00	0	55	0	192413696	41	4457
2026-01-09 03:34:47.45	209.02	20.38	-35.2	-36.8	24.7	0.00e+00	0	55	0	193462272	41	4451
2026-01-09 03:34:48.46	208.57	20.42	-35.6	-37.3	24.2	0.00e+00	0	55	0	194510848	41	4723
2026-01-09 03:34:49.47	208.12	20.45	-35.8	-37.4	23.9	0.00e+00	0	55	0	195559424	42	4543
2026-01-09 03:34:50.48	207.67	20.48	-35.5	-37.2	24.3	0.00e+00	0	55	0	197132288	42	4399
2026-01-09 03:34:51.49	207.22	20.51	-35.3	-36.9	24.5	0.00e+00	0	55	0	198180864	42	4274
2026-01-09 03:34:52.50	206.77	20.54	-35.5	-37.1	24.4	0.00e+00	0	55	0	199229440	42	4370
2026-01-09 03:34:53.51	206.31	20.57	-35.5	-37.2	24.3	0.00e+00	0	55	0	200278016	42	4408
2026-01-09 03:34:54.51	205.86	20.59	-35.4	-37.1	24.4	0.00e+00	0	55	0	201326592	42	4344
2026-01-09 03:34:55.52	205.41	20.61	-35.4	-37.1	24.4	0.00e+00	0	55	0	202375168	42	4347
2026-01-09 03:34:56.53	204.95	20.63	-35.5	-37.1	24.4	0.00e+00	0	55	0	203948032	42	4369
2026-01-09 03:34:57.54	204.50	20.66	-35.6	-37.2	24.3	0.00e+00	0	55	0	204996608	42	4427
2026-01-09 03:34:58.55	204.04	20.67	-35.5	-37.1	24.3	0.00e+00	0	55	0	206045184	42	4383
2026-01-09 03:34:59.56	203.58	20.69	-35.2	-36.8	24.7	0.00e+00	0	55	0	207093760	42	4195
2026-01-09 03:35:00.57	203.12	20.71	-34.9	-36.4	25.0	0.00e+00	0	55	0	208142336	41	4290
2026-01-09 03:35:01.58	202.67	20.72	-34.7	-36.3	25.1	0.00e+00	0	55	0	209190912	41	4201
2026-01-09 03:35:02.59	202.21	20.73	-34.5	-36.1	25.3	0.00e+00	0	55	0	210763776	41	4106
2026-01-09 03:35:03.59	201.75	20.74	-34.4	-35.8	25.5	0.00e+00	0	55	0	211812352	40	4240
2026-01-09 03:35:04.60	201.29	20.75	-34.1	-35.6	25.7	0.00e+00	0	55	0	212860928	40	4137
2026-01-09 03:35:05.61	200.83	20.76	-34.3	-35.8	25.5	0.00e+00	0	55	0	213909504	40	4221
2026-01-09 03:35:06.62	200.37	20.76	-34.4	-35.9	25.5	0.00e+00	0	55	0	214958080	40	4263
2026-01-09 03:35:07.63	199.91	20.77	-34.3	-35.8	25.6	0.00e+00	0	55	0	216006656	40	4211
2026-01-09 03:35:08.64	199.45	20.77	-34.0	-35.5	25.8	0.00e+00	0	55	0	217579520	40	4064
2026-01-09 03:35:09.65	198.99	20.77	-34.2	-35.7	25.7	0.00e+00	0	55	0	218628096	40	4163
2026-01-09 03:35:10.66	198.53	20.77	-34.4	-35.9	25.5	0.00e+00	0	55	0	219676672	40	4246
2026-01-09 03:35:11.67	198.07	20.76	-34.5	-36.1	25.3	0.00e+00	0	55	0	220725248	40	4351
2026-01-09 03:35:12.68	197.61	20.76	-34.6	-36.1	25.3	0.00e+00	0	55	0	221773824	40	4363
2026-01-09 03:35:13.69	197.15	20.75	-34.7	-36.3	25.1	0.00e+00	0	55	0	222822400	40	4466
2026-01-09 03:35:14.70	196.69	20.75	-34.8	-36.3	25.1	0.00e+00	0	55	0	224395264	40	4470
2026-01-09 03:35:15.71	196.23	20.74	-34.8	-36.4	25.0	0.00e+00	0	55	0	225443840	40	4498
2026-01-09 03:35:16.72	195.77	20.73	-34.6	-36.1	25.3	0.00e+00	0	55	0	226492416	40	4371
2026-01-09 03:35:17.73	195.31	20.71	-34.7	-36.3	25.1	0.00e+00	0	55	0	227540992	40	4456
2026-01-09 03:35:18.74	194.85	20.70	-34.5	-36.1	25.3	0.00e+00	0	55	0	228589568	40	4344
2026-01-09 03:35:19.75	194.39	20.68	-34.4	-35.9	25.5	0.00e+00	0	55	0	229638144	40	4262
2026-01-09 03:35:20.76	193.93	20.66	-34.3	-35.8	25.5	0.00e+00	0	55	0	230686720	40	4231
2026-01-09 03:35:21.76	193.48	20.64	-34.4	-35.9	25.5	0.00e+00	0	55	0	232259584	40	4272
2026-01-09 03:35:22.77	193.02	20.62	-34.3	-35.8	25.6	0.00e+00	0	55	0	233308160	40	4239
2026-01-09 03:35:23.78	192.57	20.60	-34.5	-36.1	25.3	0.00e+00	0	55	0	234356736	40	4349
2026-01-09 03:35:24.80	192.11	20.58	-34.8	-36.4	25.0	0.00e+00	0	55	0	235405312	40	4520
2026-01-09 03:35:25.80	191.66	20.55	-35.1	-36.7	24.8	0.00e+00	0	55	0	236453888	40	4652
2026-01-09 03:35:26.82	191.20	20.52	-35.0	-36.6	24.8	0.00e+00	0	55	0	237502464	40	4622
2026-01-09 03:35:27.83	190.75	20.49	-35.2	-36.8	24.6	0.00e+00	0	55	0	239075328	40	4733
2026-01-09 03:35:28.84	190.30	20.46	-35.1	-36.7	24.7	0.00e+00	0	56	0	240123904	41	4404
2026-01-09 03:35:29.85	189.85	20.43	-35.0	-36.6	24.8	0.00e+00	0	55	0	241172480	41	4345
2026-01-09 03:35:30.86	189.40	20.40	-34.9	-36.5	25.0	0.00e+00	0	55	0	242221056	41	4300
2026-01-09 03:35:31.87	188.96	20.36	-35.0	-36.6	24.8	0.00e+00	0	55	0	243269632	41	4380
2026-01-09 03:35:32.88	188.51	20.33	-35.2	-36.8	24.6	0.00e+00	0	55	0	244842496	41	4447
2026-01-09 03:35:33.89	188.07	20.29	-35.2	-36.9	24.5	0.00e+00	0	55	0	245891072	41	4500
2026-01-09 03:35:34.90	187.62	20.25	-35.6	-37.3	24.1	0.00e+00	0	55	0	246939648	41	4740
2026-01-09 03:35:35.91	187.18	20.21	-35.7	-37.4	24.0	0.00e+00	0	55	0	247988224	42	4522
2026-01-09 03:35:36.91	186.75	20.17	-35.6	-37.3	24.2	0.00e+00	0	55	0	249036800	42	4461
2026-01-09 03:35:37.92	186.31	20.12	-35.2	-36.9	24.5	0.00e+00	0	55	0	250085376	42	4245
2026-01-09 03:35:38.93	185.87	20.08	-34.9	-36.5	24.9	0.00e+00	0	55	0	251658240	41	4301
2026-01-09 03:35:39.94	185.43	20.03	-34.8	-36.3	25.0	0.00e+00	0	55	0	252706816	41	4232
2026-01-09 03:35:40.95	185.00	19.99	-34.8	-36.4	25.0	0.00e+00	0	55	0	253755392	41	4245
2026-01-09 03:35:41.96	184.57	19.94	-35.1	-36.7	24.7	0.00e+00	0	55	0	254803968	41	4435
2026-01-09 03:35:42.97	184.14	19.89	-34.9	-36.5	24.8	0.00e+00	0	55	0	255852544	41	4339
2026-01-09 03:35:43.98	183.71	19.83	-34.9	-36.5	24.9	0.00e+00	0	55	0	256901120	41	4311
2026-01-09 03:35:44.99	183.28	19.78	-34.9	-36.5	24.8	0.00e+00	0	55	0	258473984	41	4334
2026-01-09 03:35:46.00	182.85	19.73	-34.8	-36.4	25.0	0.00e+00	0	55	0	259522560	41	4254
2026-01-09 03:35:47.01	182.43	19.67	-34.9	-36.4	24.9	0.00e+00	0	55	0	260571136	41	4287
2026-01-09 03:35:48.01	182.01	19.62	-35.0	-36.5	24.8	0.00e+00	0	55	0	261619712	41	4340
2026-01-09 03:35:49.02	181.59	19.56	-35.0	-36.6	24.7	0.00e+00	0	55	0	262668288	41	4364
2026-01-09 03:35:50.03	181.17	19.50	-35.0	-36.6	24.8	0.00e+00	0	56	0	263716864	41	4345
2026-01-09 03:35:51.04	180.76	19.44	-34.7	-36.2	25.1	0.00e+00	0	55	0	265289728	41	4185
2026-01-09 03:35:52.05	180.34	19.38	-34.8	-36.3	25.0	0.00e+00	0	55	0	266338304	41	4240
2026-01-09 03:35:53.06	179.93	19.32	-34.8	-36.4	24.9	0.00e+00	0	56	0	267386880	41	4251
2026-01-09 03:35:54.07	179.52	19.25	-35.1	-36.7	24.7	0.00e+00	0	55	0	268435456	41	4403
2026-01-09 03:35:55.08	179.11	19.19	-35.2	-36.8	24.5	0.00e+00	0	56	0	269484032	41	4473
2026-01-09 03:35:56.09	178.71	19.12	-35.2	-36.8	24.5	0.00e+00	0	55	0	270532608	41	4480
2026-01-09 03:35:57.10	178.30	19.06	-35.1	-36.7	24.6	0.00e+00	0	56	0	271581184	41	4439
2026-01-09 03:35:58.11	177.90	18.99	-35.3	-37.0	24.4	0.00e+00	0	55	0	273154048	41	4558
2026-01-09 03:35:59.12	177.50	18.92	-35.4	-37.0	24.3	0.00e+00	0	55	0	274202624	41	4584
2026-01-09 03:36:00.13	177.10	18.85	-35.3	-36.9	24.4	0.00e+00	0	56	0	275251200	41	4529
2026-01-09 03:36:01.14	176.71	18.78	-35.4	-37.1	24.3	0.00e+00	0	56	0	276299776	41	4617
2026-01-09 03:36:02.15	176.32	18.71	-35.2	-36.8	24.5	0.00e+00	0	55	0	277348352	41	4455
2026-01-09 03:36:03.16	175.93	18.64	-35.1	-36.7	24.6	0.00e+00	0	55	0	278396928	41	4415
2026-01-09 03:36:04.17	175.54	18.56	-35.1	-36.7	24.7	0.00e+00	0	55	0	279969792	41	4408
2026-01-09 03:36:05.17	175.16	18.49	-35.1	-36.7	24.6	0.00e+00	0	55	0	281018368	41	4441
2026-01-09 03:36:06.18	174.77	18.42	-35.3	-36.9	24.4	0.00e+00	0	56	0	282066944	41	4533
2026-01-09 03:36:07.19	174.39	18.34	-35.2	-36.8	24.5	0.00e+00	0	55	0	283115520	41	4464
2026-01-09 03:36:08.20	174.01	18.27	-35.1	-36.7	24.7	0.00e+00	0	55	0	284164096	41	4399
2026-01-09 03:36:09.21	173.63	18.19	-34.7	-36.3	25.0	0.00e+00	0	56	0	285212672	41	4205
2026-01-09 03:36:10.22	173.26	18.11	-34.7	-36.2	25.2	0.00e+00	0	56	0	286785536	41	4183
2026-01-09 03:36:11.23	172.89	18.03	-34.7	-36.2	25.1	0.00e+00	0	56	0	287834112	41	4179
2026-01-09 03:36:12.24	172.52	17.95	-34.8	-36.3	25.0	0.00e+00	0	56	0	288882688	41	4229
2026-01-09 03:36:13.25	172.15	17.87	-35.0	-36.6	24.8	0.00e+00	0	56	0	289931264	41	4354
2026-01-09 03:36:14.26	171.79	17.79	-35.4	-37.0	24.4	0.00e+00	0	56	0	290979840	41	4571
2026-01-09 03:36:15.27	171.42	17.71	-35.5	-37.2	24.2	0.00e+00	0	55	0	292028416	41	4653
2026-01-09 03:36:16.28	171.06	17.63	-35.7	-37.4	24.0	0.00e+00	0	55	0	293601280	41	4771
2026-01-09 03:36:17.29	170.71	17.55	-35.6	-37.3	24.1	0.00e+00	0	56	0	294649856	41	4733
2026-01-09 03:36:18.30	170.35	17.47	-35.5	-37.1	24.2	0.00e+00	0	55	0	295698432	41	4630
2026-01-09 03:36:19.31	170.00	17.38	-35.2	-36.8	24.5	0.00e+00	0	55	0	296747008	41	4457
2026-01-09 03:36:20.32	169.65	17.30	-35.2	-36.8	24.6	0.00e+00	0	55	0	297795584	41	4481
2026-01-09 03:36:21.33	169.30	17.22	-35.4	-37.1	24.3	0.00e+00	0	55	0	299368448	41	4620
2026-01-09 03:36:22.34	168.95	17.13	-35.5	-37.1	24.2	0.00e+00	0	55	0	300417024	41	4649
2026-01-09 03:36:23.34	168.61	17.05	-35.7	-37.4	24.1	0.00e+00	0	56	0	301465600	42	4516
2026-01-09 03:36:24.35	168.27	16.96	-35.8	-37.5	24.0	0.00e+00	0	55	0	302514176	42	4580
2026-01-09 03:36:25.36	167.93	16.88	-35.9	-37.6	23.9	0.00e+00	0	55	0	303562752	42	4644
2026-01-09 03:36:26.38	167.59	16.79	-35.8	-37.6	23.9	0.00e+00	0	55	0	304611328	42	4608
2026-01-09 03:36:27.38	167.26	16.70	-35.8	-37.6	23.9	0.00e+00	0	56	0	305659904	42	4607
2026-01-09 03:36:28.39	166.93	16.62	-35.8	-37.5	24.0	0.00e+00	0	56	0	307232768	42	4573
2026-01-09 03:36:29.40	166.60	16.53	-35.7	-37.4	24.1	0.00e+00	0	55	0	308281344	42	4506
2026-01-09 03:36:30.41	166.28	16.44	-35.7	-37.4	24.1	0.00e+00	0	56	0	309329920	42	4496
2026-01-09 03:36:31.42	165.95	16.35	-35.5	-37.2	24.2	0.00e+00	0	55	0	310378496	42	4425
2026-01-09 03:36:32.43	165.63	16.26	-35.6	-37.3	24.1	0.00e+00	0	55	0	311427072	42	4477
2026-01-09 03:36:33.44	165.31	16.18	-35.7	-37.4	24.1	0.00e+00	0	56	0	312475648	42	4526
2026-01-09 03:36:34.45	165.00	16.09	-36.0	-37.7	23.8	0.00e+00	0	56	0	314048512	42	4682
2026-01-09 03:36:35.46	164.68	16.00	-36.1	-37.8	23.7	0.00e+00	0	56	0	315097088	42	4733
2026-01-09 03:36:36.47	164.37	15.91	-36.3	-38.1	23.4	0.00e+00	0	56	0	316145664	43	4615
2026-01-09 03:36:37.47	164.06	15.82	-36.4	-38.2	23.2	0.00e+00	0	55	0	317194240	43	4663
2026-01-09 03:36:38.48	163.75	15.73	-36.2	-38.0	23.4	0.00e+00	0	55	0	318242816	43	4567
2026-01-09 03:36:39.49	163.45	15.64	-36.2	-37.9	23.4	0.00e+00	0	56	0	319291392	43	4539
2026-01-09 03:36:40.50	163.15	15.55	-36.1	-37.8	23.5	0.00e+00	0	56	0	320864256	43	4485
2026-01-09 03:36:41.51	162.85	15.46	-36.1	-37.9	23.5	0.00e+00	0	56	0	321912832	43	4507
2026-01-09 03:36:42.52	162.55	15.37	-36.1	-37.9	23.5	0.00e+00	0	56	0	322961408	43	4533
2026-01-09 03:36:43.53	162.25	15.28	-36.1	-37.9	23.5	0.00e+00	0	56	0	324009984	43	4524
2026-01-09 03:36:44.54	161.96	15.19	-36.3	-38.1	23.3	0.00e+00	0	56	0	325058560	43	4633
2026-01-09 03:36:45.55	161.67	15.09	-36.2	-38.0	23.4	0.00e+00	0	56	0	326107136	43	4566
2026-01-09 03:36:46.56	161.38	15.00	-36.2	-38.0	23.3	0.00e+00	0	56	0	327680000	43	4577
2026-01-09 03:36:47.57	161.09	14.91	-36.3	-38.1	23.3	0.00e+00	0	56	0	328728576	43	4608
2026-01-09 03:36:48.58	160.80	14.82	-36.4	-38.2	23.1	0.00e+00	0	56	0	329777152	43	4700
2026-01-09 03:36:49.59	160.52	14.73	-36.6	-38.5	23.0	0.00e+00	0	56	0	330825728	43	4845
2026-01-09 03:36:50.60	160.24	14.64	-36.9	-38.8	22.8	0.00e+00	0	56	0	331874304	44	4725
2026-01-09 03:36:51.60	159.97	14.55	-36.9	-38.8	22.8	0.00e+00	0	56	0	332922880	44	4732
2026-01-09 03:36:52.61	159.69	14.46	-36.9	-38.8	22.8	0.00e+00	0	56	0	334495744	44	4711
2026-01-09 03:36:53.62	159.42	14.36	-36.9	-38.8	22.8	0.00e+00	0	56	0	335544320	44	4723
2026-01-09 03:36:54.63	159.14	14.27	-36.9	-38.8	22.8	0.00e+00	0	56	0	336592896	44	4733
2026-01-09 03:36:55.64	158.88	14.18	-37.0	-39.0	22.6	0.00e+00	0	56	0	337641472	44	4830
2026-01-09 03:36:56.65	158.61	14.09	-37.2	-39.2	22.3	0.00e+00	0	56	0	338690048	45	4689
2026-01-09 03:36:57.66	158.34	14.00	-37.6	-39.7	21.9	0.00e+00	0	56	0	339738624	45	4940
2026-01-09 03:36:58.67	158.08	13.91	-37.5	-39.6	21.9	0.00e+00	0	56	0	341311488	45	4871
2026-01-09 03:36:59.68	157.82	13.81	-37.4	-39.5	22.1	0.00e+00	0	56	0	342360064	45	4833
2026-01-09 03:37:00.69	157.56	13.72	-37.2	-39.2	22.3	0.00e+00	0	56	0	343408640	45	4681
2026-01-09 03:37:01.70	157.30	13.63	-37.2	-39.2	22.3	0.00e+00	0	56	0	344457216	45	4656
2026-01-09 03:37:02.71	157.05	13.54	-37.0	-38.9	22.6	0.00e+00	0	56	0	345505792	45	4512
2026-01-09 03:37:03.72	156.79	13.45	-36.9	-38.9	22.6	0.00e+00	0	56	0	346554368	45	4510
2026-01-09 03:37:04.73	156.54	13.36	-37.0	-39.0	22.5	0.00e+00	0	56	0	348127232	45	4553
2026-01-09 03:37:05.74	156.30	13.26	-37.2	-39.2	22.2	0.00e+00	0	56	0	349175808	45	4687
2026-01-09 03:37:06.75	156.05	13.17	-37.2	-39.2	22.2	0.00e+00	0	56	0	350224384	45	4699
2026-01-09 03:37:07.75	155.81	13.08	-37.3	-39.3	22.1	0.00e+00	0	56	0	351272960	45	4759
2026-01-09 03:37:08.76	155.56	12.99	-37.3	-39.4	22.0	0.00e+00	0	56	0	352321536	45	4793
2026-01-09 03:37:09.77	155.32	12.90	-37.5	-39.6	21.8	0.00e+00	0	56	0	353370112	45	4915
2026-01-09 03:37:10.78	155.08	12.81	-37.3	-39.3	22.1	0.00e+00	0	56	0	354942976	45	4735
2026-01-09 03:37:11.79	154.85	12.72	-37.3	-39.4	22.0	0.00e+00	0	56	0	355991552	45	4787
2026-01-09 03:37:12.80	154.61	12.63	-37.3	-39.4	22.0	0.00e+00	0	56	0	357040128	45	4776
2026-01-09 03:37:13.80	154.38	12.54	-37.4	-39.5	21.9	0.00e+00	0	56	0	358088704	45	4832
2026-01-09 03:37:14.81	154.15	12.45	-37.5	-39.5	21.9	0.00e+00	0	56	0	359137280	45	4870
2026-01-09 03:37:15.82	153.92	12.36	-37.5	-39.7	21.7	0.00e+00	0	56	0	360185856	45	4934
2026-01-09 03:37:16.83	153.69	12.27	-37.4	-39.5	21.8	0.00e+00	0	56	0	361758720	45	4861
2026-01-09 03:37:17.84	153.46	12.18	-37.4	-39.5	21.8	0.00e+00	0	56	0	362807296	45	4856
2026-01-09 03:37:18.85	153.24	12.09	-37.5	-39.5	21.8	0.00e+00	0	56	0	363855872	45	4870
2026-01-09 03:37:19.86	153.02	12.00	-37.6	-39.7	21.7	0.00e+00	0	56	0	364904448	45	4963
2026-01-09 03:37:20.87	152.80	11.91	-37.6	-39.7	21.6	0.00e+00	0	56	0	365953024	45	4955
2026-01-09 03:37:21.88	152.58	11.82	-37.7	-39.9	21.4	0.00e+00	0	56	0	367001600	45	5076
2026-01-09 03:37:22.89	152.36	11.73	-37.7	-39.9	21.4	0.00e+00	0	56	0	368574464	46	4811
2026-01-09 03:37:23.89	152.15	11.64	-37.8	-40.0	21.4	0.00e+00	0	56	0	369623040	46	4825
2026-01-09 03:37:24.90	151.94	11.55	-37.8	-40.0	21.3	0.00e+00	0	56	0	370671616	46	4857
2026-01-09 03:37:25.91	151.72	11.46	-37.7	-39.9	21.4	0.00e+00	0	56	0	371720192	46	4792
2026-01-09 03:37:26.92	151.51	11.38	-37.7	-39.9	21.4	0.00e+00	0	56	0	372768768	46	4805
2026-01-09 03:37:27.93	151.30	11.29	-37.6	-39.8	21.5	0.00e+00	0	56	0	373817344	46	4706
2026-01-09 03:37:28.94	151.10	11.20	-37.6	-39.8	21.5	0.00e+00	0	56	0	375390208	46	4739
2026-01-09 03:37:29.95	150.89	11.11	-37.6	-39.7	21.6	0.00e+00	0	56	0	376438784	46	4690
2026-01-09 03:37:30.96	150.69	11.02	-37.7	-39.8	21.5	0.00e+00	0	56	0	377487360	46	4759
2026-01-09 03:37:31.97	150.49	10.94	-37.8	-40.1	21.3	0.00e+00	0	56	0	378535936	46	4880
2026-01-09 03:37:32.98	150.29	10.85	-37.9	-40.1	21.2	0.00e+00	0	56	0	379584512	46	4901
2026-01-09 03:37:33.99	150.09	10.76	-38.0	-40.3	21.0	0.00e+00	0	56	0	380633088	46	4986
2026-01-09 03:37:35.00	149.89	10.67	-38.0	-40.3	20.9	0.00e+00	0	56	0	382205952	46	5022
2026-01-09 03:37:36.01	149.70	10.59	-38.1	-40.5	20.8	0.00e+00	0	56	0	383254528	46	5127
2026-01-09 03:37:37.02	149.50	10.50	-38.3	-40.7	20.6	0.00e+00	0	56	0	384303104	47	4933
2026-01-09 03:37:38.03	149.31	10.41	-38.4	-40.8	20.4	0.00e+00	0	56	0	385351680	47	5012
2026-01-09 03:37:39.04	149.12	10.33	-38.5	-41.0	20.2	0.00e+00	0	56	0	386400256	47	5117
2026-01-09 03:37:40.05	148.93	10.24	-38.6	-41.1	20.1	0.00e+00	0	56	0	387448832	47	5172
2026-01-09 03:37:41.06	148.74	10.16	-38.5	-41.0	20.2	0.00e+00	0	56	0	389021696	47	5103
2026-01-09 03:37:42.07	148.55	10.07	-38.2	-40.6	20.5	0.00e+00	0	56	0	390070272	47	4915
2026-01-09 03:37:43.08	148.37	9.98	-38.2	-40.5	20.6	0.00e+00	0	56	0	391118848	47	4867
2026-01-09 03:37:44.09	148.19	9.90	-38.1	-40.5	20.7	0.00e+00	0	56	0	392167424	47	4820
2026-01-09 03:37:45.10	148.00	9.81	-38.2	-40.5	20.7	0.00e+00	0	56	0	393216000	47	4861
2026-01-09 03:37:46.11	147.82	9.73	-38.2	-40.7	20.5	0.00e+00	0	56	0	394264576	47	4930
2026-01-09 03:37:47.12	147.64	9.64	-38.3	-40.8	20.3	0.00e+00	0	56	0	395837440	47	5016
2026-01-09 03:37:48.13	147.47	9.56	-38.5	-41.0	20.1	0.00e+00	0	56	0	396886016	47	5155
2026-01-09 03:37:49.13	147.29	9.48	-38.5	-41.1	20.0	0.00e+00	0	56	0	397934592	47	5203
2026-01-09 03:37:50.14	147.12	9.39	-38.6	-41.2	19.9	0.00e+00	0	56	0	398983168	47	5239
2026-01-09 03:37:51.15	146.94	9.31	-38.6	-41.2	19.8	0.00e+00	0	56	0	400031744	47	5269
2026-01-09 03:37:52.16	146.77	9.23	-38.5	-41.1	19.9	0.00e+00	0	56	0	401080320	47	5183
2026-01-09 03:37:53.17	146.60	9.14	-38.5	-41.1	19.9	0.00e+00	0	56	0	402653184	47	5168
2026-01-09 03:37:54.18	146.43	9.06	-38.3	-40.8	20.1	0.00e+00	0	56	0	403701760	47	5038
2026-01-09 03:37:55.19	146.26	8.98	-38.3	-40.8	20.1	0.00e+00	0	56	0	404750336	47	5039
2026-01-09 03:37:56.20	146.09	8.90	-38.2	-40.8	20.1	0.00e+00	0	56	0	405798912	47	4999
2026-01-09 03:37:57.21	145.93	8.81	-38.4	-40.9	19.8	0.00e+00	0	56	0	406847488	47	5097
2026-01-09 03:37:58.22	145.76	8.73	-38.5	-41.1	19.8	0.00e+00	0	56	0	407896064	47	5204
2026-01-09 03:37:59.23	145.60	8.65	-38.6	-41.3	19.6	0.00e+00	0	56	0	409468928	47	5316
2026-01-09 03:38:00.23	145.44	8.57	-38.4	-41.0	19.9	0.00e+00	0	56	0	410517504	47	5142
2026-01-09 03:38:01.25	145.28	8.49	-38.6	-41.2	19.6	0.00e+00	0	56	0	411566080	47	5261
2026-01-09 03:38:02.26	145.12	8.41	-38.7	-41.4	19.5	0.00e+00	0	56	0	412614656	47	5371
2026-01-09 03:38:03.27	144.96	8.32	-38.7	-41.4	19.5	0.00e+00	0	56	0	413663232	48	5064
2026-01-09 03:38:04.27	144.80	8.24	-38.8	-41.5	19.4	0.00e+00	0	56	0	414711808	48	5133
2026-01-09 03:38:05.28	144.65	8.16	-38.8	-41.5	19.4	0.00e+00	0	56	0	416284672	48	5150
2026-01-09 03:38:06.29	144.49	8.08	-38.9	-41.6	19.3	0.00e+00	0	56	0	417333248	48	5202
2026-01-09 03:38:07.30	144.34	8.00	-39.0	-41.8	19.2	0.00e+00	0	56	0	418381824	48	5286
2026-01-09 03:38:08.31	144.19	7.92	-44.1	-62.3	3.7	8.38e-02	0	56	104	418906112	58	31480
2026-01-09 03:38:09.32	144.03	7.84	-44.6	-62.5	3.8	8.38e-02	0	56	104	418906112	59	30481
2026-01-09 03:38:10.33	143.88	7.77	-44.8	-62.9	3.8	8.46e-01	0	56	104	418906112	60	30177
2026-01-09 03:38:11.34	143.73	7.69	-45.0	-63.2	3.8	8.46e-01	0	56	104	418906112	60	31252
2026-01-09 03:38:12.35	143.59	7.61	-45.1	-63.4	3.8	8.46e-01	0	56	104	418906112	60	31908
2026-01-09 03:38:13.36	143.44	7.53	-45.2	-63.4	3.8	8.46e-01	0	56	104	418906112	60	32094
2026-01-09 03:38:14.37	143.29	7.45	-45.2	-63.5	3.8	8.46e-01	0	56	104	418906112	61	30582
2026-01-09 03:38:15.38	143.15	7.37	-45.2	-63.5	3.8	8.47e-01	0	56	104	418906112	61	30650
2026-01-09 03:38:16.39	143.01	7.29	-45.2	-63.5	3.8	8.47e-01	0	56	104	418906112	61	30653
2026-01-09 03:38:17.40	142.86	7.22	-45.2	-63.5	3.8	8.46e-01	0	56	104	418906112	61	30458
2026-01-09 03:38:18.41	142.72	7.14	-45.1	-63.4	3.8	8.46e-01	0	56	104	418906112	61	30122
2026-01-09 03:38:19.42	142.58	7.06	-45.0	-63.3	3.8	8.46e-01	0	56	104	418906112	61	29949
2026-01-09 03:38:20.43	142.44	6.99	-45.0	-63.3	3.8	8.46e-01	0	56	104	418906112	61	29919
2026-01-09 03:38:21.44	142.30	6.91	-45.0	-63.3	3.8	8.47e-01	0	56	104	418906112	61	29832
2026-01-09 03:38:22.45	142.17	6.83	-44.9	-63.3	3.8	8.47e-01	0	56	104	418906112	61	29752
2026-01-09 03:38:23.46	142.03	6.76	-44.9	-63.2	3.8	8.46e-01	0	56	104	418906112	61	29599
2026-01-09 03:38:24.47	141.89	6.68	-44.9	-63.3	3.8	8.47e-01	0	56	104	418906112	61	29696
2026-01-09 03:38:25.48	141.76	6.60	-44.9	-63.2	3.8	8.46e-01	0	56	104	418906112	61	29671
2026-01-09 03:38:26.49	141.63	6.53	-44.9	-63.2	3.8	8.46e-01	0	56	104	418906112	61	29686
2026-01-09 03:38:27.50	141.49	6.45	-44.9	-63.3	3.8	8.47e-01	0	56	104	418906112	61	29688
2026-01-09 03:38:28.51	141.36	6.38	-44.9	-63.2	3.8	8.46e-01	0	56	104	418906112	61	29653
2026-01-09 03:38:29.52	141.23	6.30	-44.9	-63.2	3.8	8.46e-01	0	56	104	418906112	61	29580
2026-01-09 03:38:30.53	141.10	6.23	-44.9	-63.2	3.8	8.46e-01	0	56	104	418906112	61	29634
2026-01-09 03:38:31.54	140.97	6.15	-44.9	-63.2	3.8	8.45e-01	0	56	104	418906112	61	29663
2026-01-09 03:38:32.55	140.85	6.08	-44.9	-63.3	3.8	8.45e-01	0	56	104	418906112	61	29703
2026-01-09 03:38:33.56	140.72	6.00	-44.9	-63.3	3.8	8.46e-01	0	56	104	418906112	61	29691
2026-01-09 03:38:34.58	140.59	5.93	-44.9	-63.2	3.8	8.46e-01	0	56	104	418906112	61	29631
2026-01-09 03:38:35.58	140.47	5.86	-44.9	-63.3	3.8	8.45e-01	0	56	104	418906112	61	29695
2026-01-09 03:38:36.59	140.35	5.78	-44.9	-63.2	3.8	8.45e-01	0	56	104	418906112	61	29605
2026-01-09 03:38:37.60	140.22	5.71	-44.9	-63.2	3.8	8.45e-01	0	56	104	418906112	61	29672
2026-01-09 03:38:38.62	140.10	5.64	-44.9	-63.2	3.8	8.46e-01	0	56	104	418906112	61	29663
2026-01-09 03:38:39.63	139.98	5.56	-44.9	-63.2	3.8	8.46e-01	0	56	104	418906112	61	29638
2026-01-09 03:38:40.64	139.86	5.49	-44.9	-63.2	3.8	8.46e-01	0	56	104	418906112	61	29633
2026-01-09 03:38:41.65	139.74	5.42	-44.9	-63.2	3.8	8.46e-01	0	56	104	418906112	61	29609
2026-01-09 03:38:42.65	139.62	5.35	-44.9	-63.2	3.8	8.46e-01	0	56	104	418906112	61	29576
2026-01-09 03:38:43.67	139.50	5.28	-44.9	-63.2	3.8	8.46e-01	0	56	104	418906112	61	29626
2026-01-09 03:38:44.68	139.38	5.20	-44.9	-63.3	3.8	8.46e-01	0	56	104	418906112	61	29689
2026-01-09 03:38:45.69	139.27	5.13	-44.9	-63.2	3.8	8.46e-01	0	56	104	418906112	61	29671
2026-01-09 03:38:46.70	139.15	5.06	-44.9	-63.2	3.8	8.46e-01	0	56	104	418906112	61	29619
2026-01-09 03:38:47.71	139.04	4.99	-44.9	-63.2	3.8	8.47e-01	0	56	104	418906112	61	29617
2026-01-09 03:38:48.71	138.92	4.92	-44.9	-63.3	3.8	8.45e-01	0	56	104	418906112	61	29700
2026-01-09 03:38:49.73	138.81	4.85	-44.9	-63.3	3.8	8.45e-01	0	56	104	418906112	61	29693
2026-01-09 03:38:50.73	138.70	4.78	-44.9	-63.2	3.8	8.46e-01	0	56	104	418906112	61	29623
2026-01-09 03:38:51.74	138.59	4.71	-44.9	-63.2	3.8	8.46e-01	0	56	104	418906112	61	29616
2026-01-09 03:38:52.75	138.47	4.64	-44.9	-63.3	3.8	8.46e-01	0	56	104	418906112	61	29715
2026-01-09 03:38:53.76	138.36	4.57	-44.9	-63.2	3.8	8.46e-01	0	56	104	418906112	61	29546
2026-01-09 03:38:54.77	138.26	4.50	-44.9	-63.2	3.8	8.46e-01	0	56	104	418906112	61	29571
2026-01-09 03:38:55.78	138.15	4.43	-44.9	-63.2	3.8	8.46e-01	0	57	104	418906112	61	29641
2026-01-09 03:38:56.79	138.04	4.36	-44.9	-63.2	3.8	8.46e-01	0	56	104	418906112	61	29664
2026-01-09 03:38:57.80	137.93	4.29	-44.9	-63.2	3.8	8.47e-01	0	56	104	418906112	61	29644
2026-01-09 03:38:58.81	137.82	4.22	-44.9	-63.2	3.8	8.47e-01	0	56	104	418906112	61	29645
2026-01-09 03:38:59.82	137.72	4.15	-44.9	-63.2	3.8	8.45e-01	0	56	104	418906112	61	29632
2026-01-09 03:39:00.84	137.61	4.08	-44.9	-63.2	3.8	8.45e-01	0	56	104	418906112	61	29654
2026-01-09 03:39:01.85	137.51	4.02	-44.9	-63.2	3.8	8.45e-01	0	56	104	418906112	61	29589
2026-01-09 03:39:02.86	137.41	3.95	-44.9	-63.2	3.8	8.45e-01	0	56	104	418906112	61	29592
2026-01-09 03:39:03.87	137.30	3.88	-44.9	-63.2	3.8	8.47e-01	0	56	104	418906112	61	29605
2026-01-09 03:39:04.88	137.20	3.81	-44.9	-63.2	3.8	8.47e-01	0	56	104	418906112	61	29626
2026-01-09 03:39:05.89	137.10	3.74	-44.9	-63.2	3.8	8.47e-01	0	56	104	418906112	61	29619
2026-01-09 03:39:06.90	137.00	3.68	-44.9	-63.2	3.8	8.46e-01	0	56	104	418906112	61	29670
2026-01-09 03:39:07.91	136.90	3.61	-44.9	-63.2	3.8	8.46e-01	0	56	104	418906112	61	29655
2026-01-09 03:39:08.92	136.80	3.54	-44.9	-63.3	3.8	8.46e-01	0	56	104	418906112	61	29710
2026-01-09 03:39:09.93	136.70	3.48	-44.9	-63.2	3.8	8.46e-01	0	56	104	418906112	61	29580
2026-01-09 03:39:10.94	136.60	3.41	-44.9	-63.2	3.8	8.46e-01	0	56	104	418906112	61	29569
2026-01-09 03:39:11.95	136.50	3.34	-44.9	-63.2	3.8	8.46e-01	0	56	104	418906112	61	29654
2026-01-09 03:39:12.96	136.41	3.28	-44.9	-63.2	3.8	8.46e-01	0	57	104	418906112	61	29590
2026-01-09 03:39:13.97	136.31	3.21	-44.9	-63.2	3.8	8.46e-01	0	56	104	418906112	61	29644
2026-01-09 03:39:14.98	136.21	3.14	-44.9	-63.2	3.8	8.45e-01	0	56	104	418906112	61	29658
2026-01-09 03:39:15.99	136.12	3.08	-44.9	-63.2	3.8	8.45e-01	0	56	104	418906112	61	29596
2026-01-09 03:39:17.00	136.02	3.01	-44.9	-63.2	3.8	8.47e-01	0	56	104	418906112	61	29627
2026-01-09 03:39:18.01	135.93	2.95	-44.9	-63.2	3.8	8.46e-01	0	56	104	418906112	61	29662
2026-01-09 03:39:19.01	135.84	2.88	-44.9	-63.2	3.8	8.46e-01	0	56	104	418906112	61	29548
2026-01-09 03:39:20.02	135.75	2.82	-44.9	-63.2	3.8	8.46e-01	0	56	104	418906112	61	29603
2026-01-09 03:39:21.03	135.65	2.75	-44.9	-63.2	3.8	8.46e-01	0	56	104	418906112	61	29611
2026-01-09 03:39:22.04	135.56	2.69	-44.9	-63.2	3.8	8.46e-01	0	57	104	418906112	61	29564
2026-01-09 03:39:23.06	135.47	2.62	-44.9	-63.2	3.8	8.46e-01	0	56	104	418906112	61	29668
2026-01-09 03:39:24.07	135.38	2.56	-44.9	-63.2	3.8	8.45e-01	0	56	104	418906112	61	29644
2026-01-09 03:39:25.08	135.29	2.50	-44.9	-63.2	3.8	8.45e-01	0	57	104	418906112	61	29588
2026-01-09 03:39:26.09	135.20	2.43	-44.9	-63.2	3.8	8.47e-01	0	56	104	418906112	61	29519
2026-01-09 03:39:27.10	135.11	2.37	-44.9	-63.2	3.8	8.45e-01	0	56	104	418906112	61	29625
2026-01-09 03:39:28.11	135.02	2.30	-44.9	-63.2	3.8	8.46e-01	0	56	104	418906112	61	29674
2026-01-09 03:39:29.12	134.94	2.24	-44.9	-63.2	3.8	8.46e-01	0	56	104	418906112	61	29609
2026-01-09 03:39:30.13	134.85	2.18	-44.9	-63.2	3.8	8.47e-01	0	56	104	418906112	61	29601
2026-01-09 03:39:31.14	134.76	2.11	-44.9	-63.2	3.8	8.45e-01	0	56	104	418906112	61	29608
2026-01-09 03:39:32.15	134.68	2.05	-44.9	-63.2	3.8	8.45e-01	0	57	104	418906112	61	29597
2026-01-09 03:39:33.16	134.59	1.99	-44.9	-63.2	3.8	8.46e-01	0	56	104	418906112	61	29619
2026-01-09 03:39:34.17	134.51	1.92	-44.9	-63.2	3.8	8.47e-01	0	56	104	418906112	61	29583

#Closed at: 2026-01-09 03:39:34
#Recorded file [418 MB]: D:/lorett/data/31039_260109_063044.dat