passes_logs/2026/01/09/R2.0S_Moscow/R2.0S_Moscow__20260109_000730_NOAA_20_JPSS-1_rec.log

#Pass ID: 20260109_000730_NOAA 20 (JPSS-1)
#Satellite: NOAA 20 (JPSS-1)
#Configuration: NOAA 20
#almurnet v.1.7.20251203
#Start time: 2026-01-09 00:07:30

#Version: 2.2.20231116
#Station: R2.0S_Moscow
#Location: 37.707566 lon 55.798166 lat
#TLE: 1 43013U 17073A   26008.42245989  .00000120  00000+0  77990-4 0  9996
#TLE: 2 43013  98.7631 309.4315 0001737  48.7960 311.3365 14.19534455421802

#Time	Az	El	Level	Level2	SNR	BER	BlckErr	Temp	State	Recorded	gain1	gain2
2026-01-09 00:07:30.70	14.28	2.00	-42.9	-57.4	3.8	1.49e+00	0	48	0	0	57	19023
2026-01-09 00:07:31.71	14.26	2.07	-42.8	-57.4	3.8	1.49e+00	0	48	104	0	57	19014
2026-01-09 00:07:32.73	14.25	2.13	-42.8	-57.4	3.8	1.49e+00	0	48	104	0	57	18981
2026-01-09 00:07:33.74	14.23	2.19	-42.8	-57.4	3.8	1.49e+00	0	49	104	0	57	18978
2026-01-09 00:07:34.75	14.21	2.26	-42.8	-57.4	3.8	1.49e+00	0	49	104	0	57	18963
2026-01-09 00:07:35.76	14.20	2.32	-42.8	-57.4	3.8	1.49e+00	0	49	104	0	57	18966
2026-01-09 00:07:36.77	14.18	2.39	-42.8	-57.4	3.8	1.49e+00	0	49	104	0	57	18965
2026-01-09 00:07:37.77	14.16	2.45	-42.8	-57.4	3.8	1.49e+00	0	49	104	0	57	18971
2026-01-09 00:07:38.79	14.15	2.52	-42.8	-57.4	3.8	1.49e+00	0	49	104	0	57	18981
2026-01-09 00:07:39.80	14.13	2.58	-42.8	-57.4	3.8	1.49e+00	0	49	104	0	57	18976
2026-01-09 00:07:40.81	14.11	2.65	-42.8	-57.4	3.8	1.49e+00	0	49	104	0	57	18989
2026-01-09 00:07:41.82	14.10	2.71	-42.8	-57.3	3.8	1.49e+00	0	49	104	0	57	18946
2026-01-09 00:07:42.83	14.08	2.78	-42.8	-57.3	3.8	1.49e+00	0	49	104	0	57	18945
2026-01-09 00:07:43.84	14.06	2.85	-42.8	-57.4	3.8	1.49e+00	0	49	104	0	57	18955
2026-01-09 00:07:44.85	14.04	2.91	-42.8	-57.4	3.8	1.49e+00	0	49	104	0	57	18960
2026-01-09 00:07:45.86	14.03	2.98	-42.8	-57.3	3.8	1.49e+00	0	49	104	0	57	18904
2026-01-09 00:07:46.87	14.01	3.04	-42.8	-57.3	3.8	1.49e+00	0	49	104	0	57	18928
2026-01-09 00:07:47.88	13.99	3.11	-42.8	-57.3	3.8	1.49e+00	0	50	104	0	57	18901
2026-01-09 00:07:48.89	13.97	3.18	-42.8	-57.3	3.8	1.49e+00	0	49	104	0	57	18922
2026-01-09 00:07:49.90	13.96	3.24	-42.8	-57.3	3.8	1.49e+00	0	50	104	0	57	18815
2026-01-09 00:07:50.91	13.94	3.31	-42.8	-57.3	3.8	1.49e+00	0	50	104	0	57	18751
2026-01-09 00:07:51.92	13.92	3.38	-42.8	-57.2	3.8	1.49e+00	0	50	104	0	57	18702
2026-01-09 00:07:52.93	13.90	3.44	-42.8	-57.2	3.8	1.49e+00	0	50	104	0	57	18569
2026-01-09 00:07:53.94	13.88	3.51	-42.8	-57.1	3.8	1.49e+00	0	50	104	0	57	18462
2026-01-09 00:07:54.95	13.87	3.58	-42.8	-57.1	3.8	1.49e+00	0	50	104	0	57	18383
2026-01-09 00:07:55.96	13.85	3.65	-42.8	-57.0	3.8	1.49e+00	0	50	104	0	57	18282
2026-01-09 00:07:56.97	13.83	3.72	-42.8	-57.0	3.8	1.49e+00	0	50	104	0	57	18293
2026-01-09 00:07:57.98	13.81	3.78	-42.9	-57.1	3.8	1.49e+00	0	50	104	0	57	18505
2026-01-09 00:07:58.99	13.79	3.85	-42.8	-57.1	3.8	1.49e+00	0	50	104	0	57	18492
2026-01-09 00:08:00.00	13.77	3.92	-42.8	-57.2	3.8	1.49e+00	0	50	104	0	57	18543
2026-01-09 00:08:01.01	13.75	3.99	-42.8	-57.1	3.8	1.49e+00	0	50	104	0	57	18453
2026-01-09 00:08:02.03	13.74	4.06	-42.8	-57.1	3.8	1.49e+00	0	50	104	0	57	18437
2026-01-09 00:08:03.04	13.72	4.13	-42.8	-57.1	3.8	1.49e+00	0	50	104	0	57	18348
2026-01-09 00:08:04.05	13.70	4.20	-42.8	-57.1	3.8	1.49e+00	0	50	104	0	57	18480
2026-01-09 00:08:05.06	13.68	4.26	-42.8	-57.2	3.8	1.49e+00	0	50	104	0	57	18604
2026-01-09 00:08:06.07	13.66	4.33	-42.8	-57.2	3.8	1.49e+00	0	51	104	0	57	18563
2026-01-09 00:08:07.08	13.64	4.40	-42.8	-57.1	3.8	1.49e+00	0	50	104	0	57	18488
2026-01-09 00:08:08.09	13.62	4.47	-42.8	-57.1	3.8	1.49e+00	0	51	104	0	57	18511
2026-01-09 00:08:09.10	13.60	4.54	-42.8	-57.1	3.8	1.49e+00	0	51	104	0	57	18504
2026-01-09 00:08:10.11	13.58	4.61	-42.8	-57.2	3.8	1.49e+00	0	51	104	0	57	18529
2026-01-09 00:08:11.12	13.56	4.68	-42.8	-57.1	3.8	1.49e+00	0	51	104	0	57	18364
2026-01-09 00:08:12.14	13.54	4.75	-42.8	-57.0	3.8	1.49e+00	0	51	104	0	57	18213
2026-01-09 00:08:13.15	13.52	4.83	-42.8	-56.9	3.8	1.49e+00	0	51	104	0	57	18012
2026-01-09 00:08:14.16	13.50	4.90	-42.8	-56.8	3.8	1.49e+00	0	51	104	0	57	17838
2026-01-09 00:08:15.17	13.48	4.97	-42.8	-56.7	3.8	1.49e+00	0	51	104	0	57	17648
2026-01-09 00:08:16.18	13.46	5.04	-42.8	-56.5	3.8	1.49e+00	0	51	104	0	57	17235
2026-01-09 00:08:17.19	13.44	5.11	-42.8	-56.4	3.8	1.49e+00	0	51	104	0	57	17003
2026-01-09 00:08:18.20	13.42	5.18	-42.8	-56.2	3.8	1.49e+00	0	51	104	0	57	16527
2026-01-09 00:08:19.21	13.39	5.25	-42.7	-55.9	3.8	1.49e+00	0	51	104	0	57	16022
2026-01-09 00:08:20.22	13.37	5.32	-42.7	-55.6	3.8	1.49e+00	0	51	104	0	57	15413
2026-01-09 00:08:21.23	13.35	5.40	-42.7	-55.3	3.8	1.49e+00	0	51	104	0	57	14996
2026-01-09 00:08:22.24	13.33	5.47	-42.7	-55.1	3.8	1.49e+00	0	51	104	0	57	14584
2026-01-09 00:08:23.25	13.31	5.54	-42.7	-55.0	3.8	1.48e+00	0	51	104	0	57	14508
2026-01-09 00:08:24.26	13.29	5.61	-42.7	-55.0	3.8	1.48e+00	0	51	104	0	57	14444
2026-01-09 00:08:25.27	13.27	5.69	-42.7	-55.0	3.8	1.48e+00	0	52	104	0	57	14524
2026-01-09 00:08:26.28	13.24	5.76	-42.7	-55.1	3.9	1.48e+00	0	51	104	0	57	14633
2026-01-09 00:08:27.29	13.22	5.83	-42.7	-55.3	3.8	1.48e+00	0	52	104	0	57	14940
2026-01-09 00:08:28.30	13.20	5.91	-42.7	-55.5	3.9	1.49e+00	0	52	104	0	57	15251
2026-01-09 00:08:29.31	13.18	5.98	-42.7	-55.8	3.8	1.49e+00	0	51	104	0	57	15783
2026-01-09 00:08:30.32	13.16	6.05	-42.7	-55.9	3.8	1.49e+00	0	52	104	0	57	16105
2026-01-09 00:08:31.33	13.13	6.13	-42.8	-56.1	3.8	1.49e+00	0	52	104	0	57	16500
2026-01-09 00:08:32.34	13.11	6.20	-42.8	-56.1	3.8	1.49e+00	0	52	104	0	57	16486
2026-01-09 00:08:33.36	13.09	6.28	-42.7	-55.8	3.8	1.49e+00	0	52	104	0	57	15768
2026-01-09 00:08:34.36	13.06	6.35	-42.7	-55.3	3.8	1.49e+00	0	52	104	0	57	15034
2026-01-09 00:08:35.37	13.04	6.43	-42.6	-54.4	4.0	1.48e+00	0	52	104	0	57	13562
2026-01-09 00:08:36.38	13.02	6.50	-42.6	-53.3	4.3	1.46e+00	33	52	0	0	57	11924
2026-01-09 00:08:37.39	12.99	6.58	-42.5	-52.3	4.7	1.01e+00	0	52	0	1048576	56	11271
2026-01-09 00:08:38.41	12.97	6.65	-42.3	-51.3	5.3	6.84e-01	0	52	0	3145728	56	10024
2026-01-09 00:08:39.42	12.95	6.73	-42.2	-50.4	5.9	4.81e-01	0	52	0	5242880	56	9020
2026-01-09 00:08:40.43	12.92	6.81	-42.0	-49.4	6.7	2.32e-01	0	52	0	7340032	56	8069
2026-01-09 00:08:41.44	12.90	6.88	-41.6	-48.5	7.4	1.42e-01	0	52	0	8388608	55	7647
2026-01-09 00:08:42.45	12.88	6.96	-41.4	-47.6	8.2	8.61e-02	0	52	0	10485760	54	7334
2026-01-09 00:08:43.46	12.85	7.04	-41.2	-46.9	9.0	3.01e-02	0	52	0	12582912	54	6760
2026-01-09 00:08:44.47	12.83	7.11	-41.0	-46.4	9.5	2.20e-02	0	52	0	14680064	54	6390
2026-01-09 00:08:45.48	12.80	7.19	-40.9	-45.9	10.0	1.02e-02	0	52	0	16777216	53	6420
2026-01-09 00:08:46.49	12.78	7.27	-40.7	-45.5	10.5	4.57e-03	0	52	0	17825792	53	6079
2026-01-09 00:08:47.50	12.75	7.34	-40.6	-45.3	10.7	3.36e-03	0	52	0	19922944	53	5928
2026-01-09 00:08:48.51	12.73	7.42	-40.6	-45.2	10.7	3.16e-03	0	53	0	22020096	53	5889
2026-01-09 00:08:49.52	12.70	7.50	-40.6	-45.2	10.8	2.72e-03	0	52	0	24117248	53	5872
2026-01-09 00:08:50.53	12.68	7.58	-40.5	-45.1	10.9	2.56e-03	0	53	0	26214400	53	5806
2026-01-09 00:08:51.54	12.65	7.66	-40.5	-45.2	10.8	2.68e-03	0	53	0	28311552	53	5883
2026-01-09 00:08:52.55	12.63	7.74	-40.6	-45.4	10.5	3.59e-03	0	53	0	29360128	53	6022
2026-01-09 00:08:53.56	12.60	7.81	-40.8	-45.7	10.2	5.27e-03	0	53	0	31457280	53	6273
2026-01-09 00:08:54.57	12.57	7.89	-41.0	-46.2	9.7	7.86e-03	0	53	0	33554432	53	6641
2026-01-09 00:08:55.58	12.55	7.97	-41.1	-46.6	9.2	1.47e-02	0	53	0	35651584	53	6959
2026-01-09 00:08:56.59	12.52	8.05	-40.3	-44.3	11.8	1.67e-02	0	53	0	37748736	52	5641
2026-01-09 00:08:57.60	12.49	8.13	-40.9	-45.8	10.4	5.91e-04	0	53	0	38797312	52	6679
2026-01-09 00:08:58.61	12.47	8.21	-41.9	-49.3	7.0	1.37e-02	0	53	0	40894464	54	8936
2026-01-09 00:08:59.62	12.44	8.29	-40.9	-45.6	10.2	1.45e+00	1	53	104	40894464	54	5839
2026-01-09 00:09:00.63	12.41	8.37	-41.2	-47.1	9.0	2.39e-04	0	53	0	41943040	52	7734
2026-01-09 00:09:01.64	12.39	8.46	-40.6	-45.2	10.6	4.68e-01	0	53	0	44040192	53	5878
2026-01-09 00:09:02.65	12.36	8.54	-40.2	-44.0	12.4	1.33e-04	0	53	0	46137344	52	5412
2026-01-09 00:09:03.66	12.33	8.62	-40.1	-43.9	12.5	1.32e-04	0	53	0	47185920	52	5369
2026-01-09 00:09:04.67	12.30	8.70	-40.1	-43.9	12.5	1.79e-04	0	53	0	49283072	52	5341
2026-01-09 00:09:05.68	12.28	8.78	-40.2	-44.0	12.4	1.65e-04	0	53	0	51380224	52	5440
2026-01-09 00:09:06.69	12.25	8.86	-40.1	-43.7	12.6	8.62e-05	0	53	0	53477376	52	5269
2026-01-09 00:09:07.70	12.22	8.95	-40.1	-43.8	12.6	8.69e-05	0	53	0	55574528	52	5301
2026-01-09 00:09:08.71	12.19	9.03	-40.0	-43.6	12.8	5.41e-05	0	53	0	56623104	51	5475
2026-01-09 00:09:09.72	12.16	9.11	-40.0	-43.5	12.9	6.10e-05	0	53	0	58720256	51	5435
2026-01-09 00:09:10.73	12.13	9.20	-39.9	-43.4	13.0	3.58e-05	0	53	0	60817408	51	5372
2026-01-09 00:09:11.74	12.11	9.28	-39.9	-43.3	13.0	3.28e-05	0	53	0	62914560	51	5339
2026-01-09 00:09:12.75	12.08	9.36	-39.9	-43.4	13.0	5.11e-05	0	53	0	65011712	51	5387
2026-01-09 00:09:13.76	12.05	9.45	-39.9	-43.4	13.0	2.82e-05	0	53	0	66060288	51	5379
2026-01-09 00:09:14.77	12.02	9.53	-39.9	-43.4	13.1	3.81e-05	0	53	0	68157440	51	5350
2026-01-09 00:09:15.78	11.99	9.62	-39.8	-43.3	13.1	2.21e-05	0	53	0	70254592	51	5280
2026-01-09 00:09:16.79	11.96	9.70	-39.9	-43.4	13.0	2.82e-05	0	53	0	72351744	51	5378
2026-01-09 00:09:17.80	11.93	9.79	-39.8	-43.2	13.2	2.36e-05	0	53	0	74448896	51	5263
2026-01-09 00:09:18.81	11.90	9.87	-39.9	-43.3	13.1	2.89e-05	0	54	0	75497472	51	5332
2026-01-09 00:09:19.81	11.87	9.96	-39.8	-43.2	13.3	1.98e-05	0	53	0	77594624	51	5236
2026-01-09 00:09:20.82	11.84	10.04	-39.8	-43.3	13.2	2.97e-05	0	53	0	79691776	51	5284
2026-01-09 00:09:21.83	11.80	10.13	-39.8	-43.2	13.3	1.75e-05	0	53	0	81788928	51	5268
2026-01-09 00:09:22.84	11.77	10.22	-39.7	-43.1	13.4	1.29e-05	0	53	0	83886080	51	5177
2026-01-09 00:09:23.85	11.74	10.30	-39.8	-43.2	13.3	2.05e-05	0	53	0	84934656	51	5267
2026-01-09 00:09:24.86	11.71	10.39	-39.6	-42.9	13.7	6.80e-06	0	54	0	87031808	51	5043
2026-01-09 00:09:25.87	11.68	10.48	-39.7	-43.0	13.5	1.22e-05	0	54	0	89128960	51	5121
2026-01-09 00:09:26.88	11.65	10.57	-39.5	-42.6	13.9	8.30e-06	0	53	0	91226112	51	4921
2026-01-09 00:09:27.89	11.61	10.65	-39.6	-42.8	13.7	4.50e-06	0	54	0	93323264	51	5022
2026-01-09 00:09:28.90	11.58	10.74	-39.6	-42.8	13.7	2.20e-06	0	54	0	95420416	51	4989
2026-01-09 00:09:29.91	11.55	10.83	-39.6	-42.9	13.6	6.10e-06	0	54	0	96468992	51	5073
2026-01-09 00:09:30.92	11.52	10.92	-39.7	-42.9	13.5	1.44e-05	0	54	0	98566144	51	5090
2026-01-09 00:09:31.93	11.48	11.01	-39.7	-43.0	13.5	1.14e-05	0	54	0	100663296	51	5136
2026-01-09 00:09:32.94	11.45	11.10	-39.6	-42.9	13.5	7.60e-06	0	54	0	102760448	51	5073
2026-01-09 00:09:33.95	11.42	11.19	-39.7	-43.0	13.5	6.10e-06	0	54	0	103809024	51	5121
2026-01-09 00:09:34.96	11.38	11.28	-39.5	-42.8	13.6	6.10e-06	0	54	0	105906176	51	4990
2026-01-09 00:09:35.97	11.35	11.37	-39.5	-42.7	13.6	1.29e-05	0	54	0	108003328	50	5261
2026-01-09 00:09:36.98	11.31	11.46	-39.5	-42.8	13.5	7.60e-06	0	54	0	110100480	50	5293
2026-01-09 00:09:37.99	11.28	11.55	-39.5	-42.8	13.5	1.14e-05	0	54	0	112197632	50	5319
2026-01-09 00:09:39.00	11.24	11.65	-39.4	-42.7	13.7	1.22e-05	0	54	0	113246208	50	5223
2026-01-09 00:09:40.01	11.21	11.74	-39.4	-42.6	13.9	4.50e-06	0	54	0	115343360	50	5166
2026-01-09 00:09:41.02	11.17	11.83	-39.4	-42.4	14.1	1.50e-06	0	54	0	117440512	50	5097
2026-01-09 00:09:42.03	11.14	11.92	-39.3	-42.4	14.2	1.50e-06	0	54	0	119537664	50	5045
2026-01-09 00:09:43.04	11.10	12.02	-39.4	-42.4	14.1	5.30e-06	0	54	0	121634816	50	5091
2026-01-09 00:09:44.04	11.07	12.11	-39.4	-42.4	14.2	7.00e-07	0	54	0	123731968	50	5092
2026-01-09 00:09:45.05	11.03	12.20	-39.4	-42.4	14.3	7.00e-07	0	54	0	124780544	50	5079
2026-01-09 00:09:46.06	10.99	12.30	-39.5	-42.5	14.2	7.00e-07	0	54	0	126877696	50	5112
2026-01-09 00:09:47.07	10.96	12.39	-39.5	-42.5	14.3	1.50e-06	0	54	0	128974848	50	5123
2026-01-09 00:09:48.08	10.92	12.49	-39.5	-42.5	14.4	2.20e-06	0	54	0	131072000	50	5111
2026-01-09 00:09:49.09	10.88	12.58	-39.5	-42.4	14.5	1.50e-06	0	54	0	133169152	50	5064
2026-01-09 00:09:50.10	10.85	12.68	-39.6	-42.5	14.5	7.00e-07	0	54	0	134217728	50	5107
2026-01-09 00:09:51.11	10.81	12.77	-39.7	-42.6	14.4	0.00e+00	0	54	0	136314880	50	5175
2026-01-09 00:09:52.12	10.77	12.87	-39.7	-42.5	14.5	7.00e-07	0	55	0	138412032	50	5158
2026-01-09 00:09:53.13	10.73	12.97	-39.5	-42.3	14.8	7.00e-07	0	55	0	140509184	50	4994
2026-01-09 00:09:54.14	10.69	13.06	-39.4	-42.2	14.9	0.00e+00	0	54	0	142606336	50	4950
2026-01-09 00:09:55.14	10.65	13.16	-39.4	-42.1	15.0	0.00e+00	0	54	0	143654912	50	4899
2026-01-09 00:09:56.16	10.61	13.26	-39.4	-42.1	15.0	0.00e+00	0	55	0	145752064	50	4915
2026-01-09 00:09:57.16	10.58	13.35	-39.5	-42.1	15.1	0.00e+00	0	54	0	147849216	50	4922
2026-01-09 00:09:58.17	10.54	13.45	-39.6	-42.3	14.9	0.00e+00	0	54	0	149946368	50	4991
2026-01-09 00:09:59.18	10.50	13.55	-39.5	-42.2	15.1	0.00e+00	0	54	0	152043520	50	4929
2026-01-09 00:10:00.19	10.46	13.65	-39.4	-42.0	15.3	0.00e+00	0	54	0	153092096	50	4827
2026-01-09 00:10:01.20	10.41	13.75	-39.4	-42.0	15.3	0.00e+00	0	55	0	155189248	50	4818
2026-01-09 00:10:02.21	10.37	13.85	-39.4	-42.0	15.3	7.00e-07	0	54	0	157286400	50	4815
2026-01-09 00:10:03.22	10.33	13.95	-39.4	-42.0	15.3	7.00e-07	0	54	0	159383552	50	4839
2026-01-09 00:10:04.23	10.29	14.05	-39.4	-42.0	15.4	0.00e+00	0	55	0	161480704	50	4826
2026-01-09 00:10:05.24	10.25	14.15	-39.3	-41.9	15.4	0.00e+00	0	54	0	162529280	50	4767
2026-01-09 00:10:06.25	10.21	14.26	-39.4	-41.9	15.5	0.00e+00	0	54	0	164626432	50	4782
2026-01-09 00:10:07.26	10.16	14.36	-39.3	-41.8	15.5	0.00e+00	0	54	0	166723584	50	4753
2026-01-09 00:10:08.27	10.12	14.46	-39.3	-41.8	15.6	0.00e+00	0	55	0	168820736	50	4734
2026-01-09 00:10:09.28	10.08	14.56	-39.3	-41.8	15.6	0.00e+00	0	55	0	170917888	50	4718
2026-01-09 00:10:10.29	10.03	14.67	-39.4	-41.8	15.6	0.00e+00	0	55	0	171966464	50	4747
2026-01-09 00:10:11.30	9.99	14.77	-39.3	-41.8	15.6	0.00e+00	0	54	0	174063616	50	4727
2026-01-09 00:10:12.31	9.95	14.87	-39.4	-41.8	15.7	0.00e+00	0	55	0	176160768	50	4737
2026-01-09 00:10:13.32	9.90	14.98	-39.4	-41.8	15.7	0.00e+00	0	54	0	178257920	50	4750
2026-01-09 00:10:14.33	9.86	15.08	-39.3	-41.8	15.7	0.00e+00	0	55	0	180355072	50	4715
2026-01-09 00:10:15.34	9.81	15.19	-39.4	-41.8	15.7	0.00e+00	0	55	0	181403648	50	4723
2026-01-09 00:10:16.34	9.77	15.29	-39.3	-41.7	15.8	0.00e+00	0	55	0	183500800	50	4676
2026-01-09 00:10:17.35	9.72	15.40	-39.3	-41.7	15.8	0.00e+00	0	55	0	185597952	50	4672
2026-01-09 00:10:18.36	9.67	15.51	-39.3	-41.7	15.8	0.00e+00	0	55	0	187695104	50	4663
2026-01-09 00:10:19.37	9.63	15.62	-39.3	-41.7	15.8	0.00e+00	0	55	0	189792256	50	4682
2026-01-09 00:10:20.38	9.58	15.72	-39.3	-41.6	15.9	0.00e+00	0	55	0	191889408	50	4648
2026-01-09 00:10:21.39	9.53	15.83	-39.4	-41.8	15.8	0.00e+00	0	55	0	192937984	50	4707
2026-01-09 00:10:22.40	9.48	15.94	-39.3	-41.7	15.9	0.00e+00	0	55	0	195035136	50	4658
2026-01-09 00:10:23.41	9.44	16.05	-39.3	-41.7	15.8	0.00e+00	0	55	0	197132288	50	4690
2026-01-09 00:10:24.42	9.39	16.16	-39.3	-41.7	15.8	0.00e+00	0	55	0	199229440	50	4700
2026-01-09 00:10:25.43	9.34	16.27	-39.4	-41.8	15.8	0.00e+00	0	55	0	201326592	50	4719
2026-01-09 00:10:26.44	9.29	16.38	-39.4	-41.8	15.8	0.00e+00	0	55	0	202375168	50	4717
2026-01-09 00:10:27.45	9.24	16.49	-39.4	-41.7	15.8	0.00e+00	0	55	0	204472320	50	4704
2026-01-09 00:10:28.46	9.19	16.60	-39.3	-41.7	15.9	0.00e+00	0	55	0	206569472	50	4668
2026-01-09 00:10:29.47	9.14	16.71	-39.3	-41.7	15.9	0.00e+00	0	55	0	208666624	50	4690
2026-01-09 00:10:30.48	9.09	16.83	-39.4	-41.7	15.9	0.00e+00	0	55	0	210763776	50	4698
2026-01-09 00:10:31.49	9.04	16.94	-39.3	-41.7	15.9	0.00e+00	0	55	0	211812352	50	4683
2026-01-09 00:10:32.50	8.99	17.05	-39.3	-41.6	16.1	0.00e+00	0	55	0	213909504	50	4622
2026-01-09 00:10:33.51	8.93	17.17	-39.3	-41.6	16.0	0.00e+00	0	55	0	216006656	50	4651
2026-01-09 00:10:34.52	8.88	17.28	-39.3	-41.6	16.1	0.00e+00	0	55	0	218103808	50	4633
2026-01-09 00:10:35.53	8.83	17.40	-39.3	-41.6	16.1	0.00e+00	0	55	0	220200960	50	4631
2026-01-09 00:10:36.54	8.77	17.51	-39.2	-41.5	16.2	0.00e+00	0	55	0	221249536	50	4574
2026-01-09 00:10:37.54	8.72	17.63	-39.2	-41.6	16.2	0.00e+00	0	55	0	223346688	50	4599
2026-01-09 00:10:38.55	8.67	17.74	-39.2	-41.5	16.2	0.00e+00	0	55	0	225443840	50	4556
2026-01-09 00:10:39.56	8.61	17.86	-39.3	-41.6	16.2	0.00e+00	0	55	0	227540992	50	4604
2026-01-09 00:10:40.57	8.56	17.98	-39.2	-41.4	16.3	0.00e+00	0	55	0	229638144	50	4533
2026-01-09 00:10:41.58	8.50	18.10	-39.3	-41.6	16.2	0.00e+00	0	55	0	230686720	50	4614
2026-01-09 00:10:42.59	8.44	18.21	-39.2	-41.5	16.2	0.00e+00	0	55	0	232783872	50	4570
2026-01-09 00:10:43.60	8.39	18.33	-39.2	-41.5	16.2	0.00e+00	0	55	0	234881024	50	4577
2026-01-09 00:10:44.61	8.33	18.45	-39.2	-41.5	16.2	0.00e+00	0	55	0	236978176	50	4586
2026-01-09 00:10:45.62	8.27	18.57	-39.2	-41.5	16.3	0.00e+00	0	55	0	239075328	50	4554
2026-01-09 00:10:46.63	8.22	18.69	-39.2	-41.5	16.2	0.00e+00	0	55	0	240123904	50	4568
2026-01-09 00:10:47.64	8.16	18.82	-39.3	-41.6	16.2	0.00e+00	0	55	0	242221056	50	4602
2026-01-09 00:10:48.65	8.10	18.94	-39.2	-41.5	16.3	0.00e+00	0	55	0	244318208	50	4554
2026-01-09 00:10:49.66	8.04	19.06	-39.3	-41.6	16.2	0.00e+00	0	55	0	246415360	50	4623
2026-01-09 00:10:50.67	7.98	19.18	-39.3	-41.6	16.2	0.00e+00	0	55	0	248512512	50	4638
2026-01-09 00:10:51.67	7.92	19.31	-39.3	-41.6	16.2	0.00e+00	0	55	0	249561088	50	4614
2026-01-09 00:10:52.68	7.86	19.43	-39.3	-41.6	16.2	0.00e+00	0	55	0	251658240	50	4602
2026-01-09 00:10:53.69	7.80	19.56	-39.3	-41.6	16.2	0.00e+00	0	55	0	253755392	50	4615
2026-01-09 00:10:54.70	7.73	19.68	-39.3	-41.7	16.1	0.00e+00	0	55	0	255852544	50	4660
2026-01-09 00:10:55.71	7.67	19.81	-39.4	-41.7	16.0	0.00e+00	0	55	0	257949696	50	4697
2026-01-09 00:10:56.72	7.61	19.93	-39.3	-41.7	16.1	0.00e+00	0	55	0	260046848	50	4652
2026-01-09 00:10:57.73	7.54	20.06	-39.4	-41.7	16.1	0.00e+00	0	55	0	261095424	50	4688
2026-01-09 00:10:58.74	7.48	20.19	-39.4	-41.7	16.0	0.00e+00	0	55	0	263192576	50	4697
2026-01-09 00:10:59.75	7.41	20.32	-39.4	-41.8	16.0	0.00e+00	0	55	0	265289728	50	4731
2026-01-09 00:11:00.76	7.35	20.45	-39.4	-41.7	16.1	0.00e+00	0	55	0	267386880	50	4704
2026-01-09 00:11:01.77	7.28	20.58	-39.4	-41.7	16.1	0.00e+00	0	55	0	269484032	50	4670
2026-01-09 00:11:02.78	7.22	20.71	-39.4	-41.7	16.1	0.00e+00	0	55	0	270532608	50	4679
2026-01-09 00:11:03.79	7.15	20.84	-39.4	-41.8	16.1	0.00e+00	0	55	0	272629760	50	4717
2026-01-09 00:11:04.79	7.08	20.97	-39.3	-41.6	16.2	0.00e+00	0	55	0	274726912	50	4649
2026-01-09 00:11:05.80	7.01	21.10	-39.4	-41.6	16.2	0.00e+00	0	55	0	276824064	50	4646
2026-01-09 00:11:06.81	6.94	21.23	-39.3	-41.6	16.2	0.00e+00	0	55	0	278921216	50	4640
2026-01-09 00:11:07.82	6.87	21.37	-39.3	-41.6	16.2	0.00e+00	0	55	0	279969792	50	4614
2026-01-09 00:11:08.83	6.80	21.50	-39.4	-41.7	16.1	0.00e+00	0	55	0	282066944	50	4682
2026-01-09 00:11:09.84	6.73	21.64	-39.3	-41.6	16.2	0.00e+00	0	55	0	284164096	50	4611
2026-01-09 00:11:10.85	6.66	21.77	-39.4	-41.7	16.1	0.00e+00	0	55	0	286261248	50	4667
2026-01-09 00:11:11.86	6.59	21.91	-39.4	-41.7	16.1	0.00e+00	0	55	0	288358400	50	4671
2026-01-09 00:11:12.87	6.51	22.05	-39.4	-41.7	16.1	0.00e+00	0	55	0	289406976	50	4670
2026-01-09 00:11:13.88	6.44	22.18	-39.3	-41.6	16.3	0.00e+00	0	55	0	291504128	50	4632
2026-01-09 00:11:14.88	6.37	22.32	-39.4	-41.6	16.2	0.00e+00	0	55	0	293601280	50	4643
2026-01-09 00:11:15.89	6.29	22.46	-39.4	-41.7	16.2	0.00e+00	0	55	0	295698432	50	4671
2026-01-09 00:11:16.90	6.22	22.60	-39.4	-41.7	16.1	0.00e+00	0	55	0	297795584	50	4695
2026-01-09 00:11:17.91	6.14	22.74	-39.3	-41.6	16.3	0.00e+00	0	55	0	298844160	50	4633
2026-01-09 00:11:18.92	6.06	22.88	-39.4	-41.7	16.2	0.00e+00	0	56	0	300941312	50	4684
2026-01-09 00:11:19.93	5.98	23.02	-39.4	-41.7	16.1	0.00e+00	0	56	0	303038464	50	4691
2026-01-09 00:11:20.94	5.90	23.17	-39.4	-41.8	16.1	0.00e+00	0	55	0	305135616	50	4714
2026-01-09 00:11:21.95	5.82	23.31	-39.5	-41.8	16.0	0.00e+00	0	55	0	307232768	50	4755
2026-01-09 00:11:22.96	5.74	23.45	-39.5	-41.8	16.1	0.00e+00	0	55	0	308281344	50	4738
2026-01-09 00:11:23.97	5.66	23.60	-39.5	-41.9	16.0	0.00e+00	0	55	0	310378496	50	4763
2026-01-09 00:11:24.98	5.58	23.75	-39.6	-42.0	15.9	0.00e+00	0	55	0	312475648	50	4815
2026-01-09 00:11:25.99	5.50	23.89	-39.5	-41.9	16.0	0.00e+00	0	55	0	314572800	50	4774
2026-01-09 00:11:27.00	5.42	24.04	-39.6	-42.0	15.9	0.00e+00	0	56	0	316669952	50	4838
2026-01-09 00:11:28.01	5.33	24.19	-39.7	-42.1	15.7	0.00e+00	0	56	0	317718528	50	4898
2026-01-09 00:11:29.02	5.25	24.34	-39.7	-42.1	15.7	0.00e+00	0	56	0	319815680	50	4923
2026-01-09 00:11:30.03	5.16	24.49	-39.7	-42.2	15.7	0.00e+00	0	56	0	321912832	50	4947
2026-01-09 00:11:31.04	5.07	24.64	-39.7	-42.1	15.7	0.00e+00	0	56	0	324009984	50	4919
2026-01-09 00:11:32.05	4.98	24.79	-39.8	-42.3	15.6	0.00e+00	0	56	0	326107136	50	4998
2026-01-09 00:11:33.05	4.90	24.94	-39.9	-42.4	15.5	0.00e+00	0	56	0	328204288	50	5048
2026-01-09 00:11:34.06	4.81	25.09	-40.0	-42.5	15.4	0.00e+00	0	56	0	329252864	50	5124
2026-01-09 00:11:35.07	4.72	25.24	-40.0	-42.6	15.3	0.00e+00	0	56	0	331350016	50	5211
2026-01-09 00:11:36.08	4.63	25.40	-40.1	-42.8	15.2	0.00e+00	0	56	0	333447168	50	5280
2026-01-09 00:11:37.09	4.53	25.55	-40.1	-42.8	15.1	0.00e+00	0	56	0	335544320	50	5303
2026-01-09 00:11:38.10	4.44	25.71	-40.2	-42.9	15.0	0.00e+00	0	56	0	337641472	51	5068
2026-01-09 00:11:39.11	4.35	25.87	-40.2	-42.8	15.1	0.00e+00	0	56	0	338690048	51	5033
2026-01-09 00:11:40.12	4.25	26.02	-40.3	-43.0	14.9	0.00e+00	0	56	0	340787200	51	5108
2026-01-09 00:11:41.13	4.15	26.18	-40.3	-43.0	14.9	7.00e-07	0	56	0	342884352	51	5141
2026-01-09 00:11:42.14	4.06	26.34	-40.4	-43.1	14.8	7.00e-07	0	56	0	344981504	51	5203
2026-01-09 00:11:43.15	3.96	26.50	-40.5	-43.3	14.6	7.00e-07	0	56	0	346030080	51	5291
2026-01-09 00:11:44.16	3.86	26.66	-40.6	-43.5	14.5	0.00e+00	0	56	0	348127232	51	5414
2026-01-09 00:11:45.17	3.76	26.82	-40.6	-43.5	14.4	7.00e-07	0	56	0	350224384	51	5437
2026-01-09 00:11:46.18	3.66	26.99	-40.7	-43.6	14.3	0.00e+00	0	56	0	352321536	51	5493
2026-01-09 00:11:47.18	3.56	27.15	-40.7	-43.7	14.1	2.20e-06	0	56	0	354418688	52	5256
2026-01-09 00:11:48.20	3.45	27.32	-40.8	-43.9	14.0	2.20e-06	0	56	0	356515840	52	5345
2026-01-09 00:11:49.21	3.35	27.48	-40.9	-44.0	13.8	2.20e-06	0	56	0	357564416	52	5463
2026-01-09 00:11:50.21	3.24	27.65	-41.0	-44.1	13.7	3.00e-06	0	56	0	359661568	52	5523
2026-01-09 00:11:51.22	3.14	27.81	-41.0	-44.2	13.6	6.10e-06	0	56	0	361758720	52	5585
2026-01-09 00:11:52.23	3.03	27.98	-41.2	-44.5	13.4	1.44e-05	0	56	0	363855872	52	5732
2026-01-09 00:11:53.24	2.92	28.15	-41.2	-44.6	13.3	2.21e-05	0	56	0	365953024	53	5471
2026-01-09 00:11:54.25	2.81	28.32	-41.2	-44.6	13.2	2.67e-05	0	56	0	367001600	53	5493
2026-01-09 00:11:55.26	2.70	28.49	-41.3	-44.7	13.1	4.19e-05	0	56	0	369098752	53	5581
2026-01-09 00:11:56.27	2.58	28.66	-41.3	-44.8	13.1	2.97e-05	0	56	0	371195904	53	5600
2026-01-09 00:11:57.28	2.47	28.84	-41.3	-44.7	13.1	2.59e-05	0	56	0	373293056	53	5575
2026-01-09 00:11:58.29	2.35	29.01	-41.3	-44.7	13.1	2.28e-05	0	56	0	375390208	53	5566
2026-01-09 00:11:59.30	2.24	29.18	-41.4	-44.9	12.9	3.05e-05	0	56	0	376438784	53	5673
2026-01-09 00:12:00.29	2.12	29.36	-41.5	-45.1	12.8	3.96e-05	0	56	0	378535936	53	5795
2026-01-09 00:12:01.30	2.00	29.53	-41.5	-45.0	12.9	6.71e-05	0	56	0	380633088	53	5739
2026-01-09 00:12:02.31	1.88	29.71	-41.5	-45.1	12.7	6.56e-05	0	56	0	382730240	53	5825
2026-01-09 00:12:03.32	1.76	29.89	-41.6	-45.3	12.5	9.68e-05	0	56	0	384827392	53	5943
2026-01-09 00:12:04.33	1.64	30.07	-41.7	-45.4	12.4	1.41e-04	0	56	0	385875968	53	6050
2026-01-09 00:12:05.34	1.51	30.25	-41.8	-45.6	12.3	1.89e-04	0	56	0	387973120	54	5799
2026-01-09 00:12:06.35	1.38	30.43	-41.8	-45.6	12.2	2.32e-04	0	56	0	390070272	54	5841
2026-01-09 00:12:07.36	1.26	30.61	-41.9	-45.7	12.1	2.59e-04	0	56	0	392167424	54	5921
2026-01-09 00:12:08.37	1.13	30.80	-41.9	-45.8	12.0	2.60e-04	0	56	0	394264576	54	5951
2026-01-09 00:12:09.38	1.00	30.98	-41.8	-45.6	12.2	1.95e-04	0	56	0	395313152	54	5839
2026-01-09 00:12:10.39	0.86	31.17	-41.8	-45.6	12.3	2.14e-04	0	56	0	397410304	54	5817
2026-01-09 00:12:11.40	0.73	31.35	-41.9	-45.8	12.1	2.55e-04	0	56	0	399507456	54	5935
2026-01-09 00:12:12.41	0.59	31.54	-41.9	-45.7	12.1	2.40e-04	0	56	0	401604608	54	5921
2026-01-09 00:12:13.42	0.46	31.73	-42.0	-45.9	11.9	3.79e-04	0	56	0	403701760	54	6048
2026-01-09 00:12:14.43	0.32	31.92	-42.0	-46.0	11.8	5.33e-04	0	56	0	404750336	54	6114
2026-01-09 00:12:15.44	0.18	32.11	-42.1	-46.2	11.7	5.65e-04	0	56	0	406847488	54	6205
2026-01-09 00:12:16.45	0.04	32.30	-42.1	-46.1	11.7	6.12e-04	0	56	0	408944640	54	6174
2026-01-09 00:12:17.46	359.89	32.49	-42.1	-46.2	11.7	5.51e-04	0	56	0	411041792	54	6210
2026-01-09 00:12:18.47	359.75	32.69	-42.2	-46.3	11.6	7.58e-04	0	56	0	413138944	54	6331
2026-01-09 00:12:19.48	359.60	32.88	-42.2	-46.4	11.5	7.04e-04	0	56	0	414187520	55	6021
2026-01-09 00:12:20.48	359.45	33.07	-42.2	-46.4	11.4	7.31e-04	0	56	0	416284672	55	6048
2026-01-09 00:12:21.49	359.30	33.27	-42.1	-46.2	11.6	7.00e-04	0	56	0	418381824	55	5920
2026-01-09 00:12:22.50	359.15	33.47	-42.2	-46.3	11.5	6.06e-04	0	56	0	420478976	55	5979
2026-01-09 00:12:23.51	358.99	33.67	-42.2	-46.3	11.5	8.47e-04	0	56	0	422576128	55	5978
2026-01-09 00:12:24.52	358.83	33.87	-42.1	-46.3	11.6	6.48e-04	0	56	0	424673280	55	5930
2026-01-09 00:12:25.53	358.68	34.07	-42.2	-46.3	11.6	7.34e-04	0	56	0	425721856	55	5966
2026-01-09 00:12:26.54	358.51	34.27	-42.2	-46.3	11.6	6.86e-04	0	56	0	427819008	55	5950
2026-01-09 00:12:27.55	358.35	34.47	-42.2	-46.4	11.5	5.82e-04	0	56	0	429916160	55	5994
2026-01-09 00:12:28.56	358.19	34.68	-42.1	-46.2	11.6	6.13e-04	0	56	0	432013312	55	5901
2026-01-09 00:12:29.57	358.02	34.88	-42.2	-46.5	11.5	8.64e-04	0	56	0	434110464	55	6063
2026-01-09 00:12:30.58	357.85	35.09	-42.3	-46.6	11.2	1.25e-03	0	56	0	435159040	55	6191
2026-01-09 00:12:31.59	357.68	35.30	-42.4	-46.8	11.1	1.22e-03	0	56	0	437256192	55	6275
2026-01-09 00:12:32.60	357.50	35.50	-42.4	-46.7	11.1	1.48e-03	0	56	0	439353344	55	6218
2026-01-09 00:12:33.61	357.33	35.71	-42.3	-46.7	11.2	1.70e-03	0	56	0	441450496	55	6222
2026-01-09 00:12:34.62	357.15	35.92	-42.3	-46.7	11.3	1.28e-03	0	56	0	443547648	55	6220
2026-01-09 00:12:35.63	356.97	36.14	-42.3	-46.6	11.3	1.13e-03	0	56	0	444596224	55	6162
2026-01-09 00:12:36.63	356.79	36.35	-42.3	-46.6	11.3	1.05e-03	0	56	0	446693376	55	6162
2026-01-09 00:12:37.64	356.60	36.56	-42.2	-46.5	11.4	9.47e-04	0	56	0	448790528	55	6080
2026-01-09 00:12:38.65	356.41	36.77	-42.2	-46.3	11.6	7.34e-04	0	56	0	450887680	55	5926
2026-01-09 00:12:39.66	356.22	36.99	-42.1	-46.1	11.8	5.71e-04	0	56	0	452984832	55	5816
2026-01-09 00:12:40.67	356.03	37.21	-42.0	-45.8	12.1	3.36e-04	0	56	0	454033408	55	5650
2026-01-09 00:12:41.68	355.83	37.42	-41.9	-45.6	12.4	2.00e-04	0	56	0	456130560	55	5487
2026-01-09 00:12:42.69	355.64	37.64	-41.7	-45.4	12.6	1.23e-04	0	56	0	458227712	55	5348
2026-01-09 00:12:43.70	355.43	37.86	-41.7	-45.3	12.8	6.02e-05	0	56	0	460324864	55	5282
2026-01-09 00:12:44.71	355.23	38.08	-41.7	-45.3	12.7	7.47e-05	0	56	0	462422016	55	5312
2026-01-09 00:12:45.72	355.02	38.31	-41.7	-45.3	12.6	1.50e-04	0	56	0	463470592	55	5333
2026-01-09 00:12:46.73	354.81	38.53	-41.7	-45.3	12.7	6.63e-05	0	56	0	465567744	55	5307
2026-01-09 00:12:47.74	354.60	38.75	-41.6	-45.1	12.9	6.71e-05	0	56	0	467664896	55	5187
2026-01-09 00:12:48.75	354.38	38.98	-41.5	-45.0	13.0	4.42e-05	0	56	0	469762048	55	5111
2026-01-09 00:12:49.76	354.17	39.21	-41.6	-45.1	13.0	3.89e-05	0	56	0	471859200	55	5160
2026-01-09 00:12:50.76	353.95	39.43	-41.6	-45.1	12.9	3.43e-05	0	56	0	472907776	55	5196
2026-01-09 00:12:51.78	353.72	39.66	-41.6	-45.2	12.8	5.18e-05	0	56	0	475004928	55	5259
2026-01-09 00:12:52.79	353.49	39.89	-41.7	-45.2	12.8	6.17e-05	0	56	0	477102080	55	5252
2026-01-09 00:12:53.80	353.26	40.12	-41.7	-45.2	12.8	6.63e-05	0	56	0	479199232	55	5279
2026-01-09 00:12:54.80	353.02	40.35	-41.7	-45.3	12.7	8.39e-05	0	56	0	481296384	55	5334
2026-01-09 00:12:55.81	352.79	40.58	-41.7	-45.3	12.7	8.31e-05	0	56	0	482344960	55	5315
2026-01-09 00:12:56.82	352.54	40.81	-41.7	-45.3	12.7	8.69e-05	0	56	0	484442112	55	5301
2026-01-09 00:12:57.83	352.30	41.05	-41.8	-45.4	12.5	7.17e-05	0	56	0	486539264	55	5388
2026-01-09 00:12:58.84	352.05	41.28	-41.8	-45.5	12.6	7.47e-05	0	56	0	488636416	55	5406
2026-01-09 00:12:59.85	351.80	41.52	-41.7	-45.3	12.6	9.15e-05	0	56	0	490733568	55	5333
2026-01-09 00:13:00.86	351.54	41.75	-41.8	-45.4	12.6	1.13e-04	0	56	0	492830720	55	5379
2026-01-09 00:13:01.87	351.28	41.99	-41.8	-45.5	12.5	1.14e-04	0	56	0	493879296	55	5453
2026-01-09 00:13:02.88	351.02	42.23	-41.8	-45.4	12.6	9.38e-05	0	56	0	495976448	55	5371
2026-01-09 00:13:03.89	350.75	42.47	-41.8	-45.4	12.5	8.77e-05	0	56	0	498073600	55	5384
2026-01-09 00:13:04.90	350.47	42.71	-41.7	-45.3	12.7	9.68e-05	0	56	0	500170752	55	5317
2026-01-09 00:13:05.91	350.20	42.95	-41.8	-45.4	12.5	6.94e-05	0	56	0	502267904	55	5402
2026-01-09 00:13:06.92	349.92	43.19	-41.6	-45.1	12.9	7.17e-05	0	56	0	503316480	55	5207
2026-01-09 00:13:07.93	349.63	43.43	-41.5	-45.0	13.0	4.34e-05	0	56	0	505413632	55	5119
2026-01-09 00:13:08.94	349.34	43.68	-41.5	-44.8	13.2	2.13e-05	0	56	0	507510784	54	5336
2026-01-09 00:13:09.95	349.05	43.92	-41.3	-44.5	13.6	9.10e-06	0	56	0	509607936	54	5111
2026-01-09 00:13:10.96	348.75	44.16	-41.1	-44.2	13.8	1.50e-06	0	56	0	511705088	54	4982
2026-01-09 00:13:11.97	348.45	44.41	-41.3	-44.5	13.6	3.00e-06	0	56	0	512753664	54	5110
2026-01-09 00:13:12.98	348.14	44.66	-41.4	-44.6	13.4	1.29e-05	0	56	0	514850816	54	5207
2026-01-09 00:13:13.99	347.82	44.90	-41.4	-44.7	13.4	8.30e-06	0	56	0	516947968	54	5222
2026-01-09 00:13:15.00	347.51	45.15	-41.2	-44.4	13.7	1.22e-05	0	56	0	519045120	54	5046
2026-01-09 00:13:16.00	347.19	45.39	-41.1	-44.2	13.9	3.00e-06	0	56	0	521142272	54	4967
2026-01-09 00:13:17.01	346.86	45.64	-41.0	-44.1	14.0	6.10e-06	0	56	0	522190848	54	4880
2026-01-09 00:13:18.02	346.52	45.89	-41.2	-44.3	13.8	3.80e-06	0	56	0	524288000	54	5014
2026-01-09 00:13:19.03	346.19	46.14	-41.4	-44.7	13.4	6.80e-06	0	56	0	526385152	54	5222
2026-01-09 00:13:20.04	345.84	46.39	-41.4	-44.8	13.3	1.98e-05	0	56	0	528482304	54	5282
2026-01-09 00:13:21.05	345.49	46.64	-41.5	-44.8	13.3	1.75e-05	0	56	0	530579456	54	5326
2026-01-09 00:13:22.06	345.14	46.89	-41.5	-44.8	13.2	2.59e-05	0	56	0	531628032	54	5297
2026-01-09 00:13:23.07	344.78	47.14	-41.6	-45.1	12.9	3.05e-05	0	56	0	533725184	54	5474
2026-01-09 00:13:24.08	344.41	47.39	-41.6	-45.1	13.0	4.11e-05	0	56	0	535822336	54	5475
2026-01-09 00:13:25.09	344.04	47.64	-41.6	-45.1	12.9	3.50e-05	0	56	0	537919488	54	5506
2026-01-09 00:13:26.10	343.66	47.89	-41.6	-45.0	13.0	3.58e-05	0	56	0	540016640	54	5422
2026-01-09 00:13:27.11	343.27	48.14	-41.6	-45.0	13.1	3.12e-05	0	56	0	541065216	54	5428
2026-01-09 00:13:28.12	342.88	48.39	-41.5	-44.8	13.2	1.83e-05	0	56	0	543162368	54	5334
2026-01-09 00:13:29.12	342.48	48.64	-41.4	-44.6	13.5	2.51e-05	0	56	0	545259520	54	5207
2026-01-09 00:13:30.13	342.08	48.89	-41.1	-44.2	13.8	6.80e-06	0	56	0	547356672	54	4973
2026-01-09 00:13:31.14	341.67	49.14	-41.0	-43.9	14.1	3.00e-06	0	56	0	549453824	53	5081
2026-01-09 00:13:32.15	341.25	49.39	-41.1	-44.1	13.9	5.30e-06	0	56	0	550502400	53	5205
2026-01-09 00:13:33.16	340.82	49.64	-41.0	-44.0	14.0	1.50e-06	0	56	0	552599552	53	5159
2026-01-09 00:13:34.17	340.39	49.89	-41.1	-44.1	13.9	4.50e-06	0	56	0	554696704	53	5184
2026-01-09 00:13:35.18	339.95	50.14	-41.0	-44.0	14.0	2.20e-06	0	57	0	556793856	53	5151
2026-01-09 00:13:36.19	339.51	50.39	-41.0	-44.0	14.0	1.50e-06	0	56	0	558891008	53	5127
2026-01-09 00:13:37.20	339.05	50.63	-41.1	-44.2	13.9	3.00e-06	0	57	0	559939584	53	5220
2026-01-09 00:13:38.20	338.59	50.88	-41.1	-44.1	14.0	0.00e+00	0	56	0	562036736	53	5184
2026-01-09 00:13:39.21	338.13	51.13	-41.0	-43.9	14.0	3.00e-06	0	56	0	564133888	53	5100
2026-01-09 00:13:40.22	337.65	51.37	-40.4	-43.1	14.9	7.00e-07	0	57	0	566231040	52	4880
2026-01-09 00:13:41.23	337.16	51.62	-40.1	-42.6	15.4	0.00e+00	0	56	0	568328192	52	4635
2026-01-09 00:13:42.24	336.67	51.86	-40.1	-42.5	15.6	0.00e+00	0	57	0	569376768	52	4591
2026-01-09 00:13:43.25	336.17	52.10	-39.7	-41.9	16.2	0.00e+00	0	57	0	571473920	51	4544
2026-01-09 00:13:44.26	335.66	52.35	-39.5	-41.6	16.6	0.00e+00	0	56	0	573571072	50	4638
2026-01-09 00:13:45.27	335.14	52.59	-39.4	-41.6	16.6	0.00e+00	0	56	0	575668224	50	4605
2026-01-09 00:13:46.28	334.61	52.83	-39.6	-41.8	16.4	0.00e+00	0	56	0	577765376	50	4750
2026-01-09 00:13:47.29	334.08	53.07	-39.8	-42.1	16.1	0.00e+00	0	57	0	578813952	50	4892
2026-01-09 00:13:48.30	333.53	53.30	-39.7	-41.9	16.2	0.00e+00	0	57	0	580911104	50	4813
2026-01-09 00:13:49.31	332.98	53.54	-39.6	-41.8	16.4	0.00e+00	0	56	0	583008256	50	4727
2026-01-09 00:13:50.32	332.41	53.77	-39.6	-41.8	16.4	0.00e+00	0	57	0	585105408	50	4721
2026-01-09 00:13:51.33	331.84	54.00	-39.7	-42.0	16.2	0.00e+00	0	57	0	587202560	50	4837
2026-01-09 00:13:52.34	331.26	54.23	-39.8	-42.1	16.1	0.00e+00	0	57	0	589299712	50	4872
2026-01-09 00:13:53.34	330.68	54.46	-39.7	-41.9	16.3	0.00e+00	0	57	0	590348288	50	4781
2026-01-09 00:13:54.35	330.08	54.68	-39.6	-41.8	16.4	0.00e+00	0	57	0	592445440	50	4708
2026-01-09 00:13:55.36	329.47	54.91	-39.8	-42.1	16.0	0.00e+00	0	57	0	594542592	50	4897
2026-01-09 00:13:56.37	328.85	55.13	-40.0	-42.5	15.6	0.00e+00	0	56	0	596639744	50	5116
2026-01-09 00:13:57.38	328.22	55.35	-40.3	-42.9	15.2	0.00e+00	0	57	0	598736896	51	5085
2026-01-09 00:13:58.39	327.58	55.56	-40.6	-43.3	14.8	0.00e+00	0	57	0	599785472	51	5326
2026-01-09 00:13:59.40	326.93	55.78	-40.9	-43.8	14.2	0.00e+00	0	56	0	601882624	52	5337
2026-01-09 00:14:00.40	326.28	55.99	-41.3	-44.5	13.5	6.10e-06	0	56	0	603979776	53	5432
2026-01-09 00:14:01.41	325.61	56.19	-41.4	-44.8	13.2	1.60e-05	0	56	0	606076928	53	5599
2026-01-09 00:14:02.42	324.93	56.40	-41.1	-44.2	13.8	8.30e-06	0	56	0	608174080	53	5237
2026-01-09 00:14:03.43	324.24	56.60	-41.0	-44.1	13.9	2.20e-06	0	57	0	609222656	53	5169
2026-01-09 00:14:04.44	323.55	56.80	-41.3	-44.5	13.5	4.50e-06	0	57	0	611319808	53	5450
2026-01-09 00:14:05.45	322.84	56.99	-41.2	-44.3	13.7	2.20e-06	0	57	0	613416960	53	5323
2026-01-09 00:14:06.46	322.12	57.18	-41.0	-44.0	14.0	5.30e-06	0	57	0	615514112	53	5150
2026-01-09 00:14:07.47	321.39	57.37	-41.1	-44.1	13.9	1.50e-06	0	57	0	617611264	53	5187
2026-01-09 00:14:08.48	320.65	57.55	-41.3	-44.5	13.5	8.30e-06	0	57	0	618659840	53	5444
2026-01-09 00:14:09.49	319.90	57.73	-41.3	-44.5	13.4	9.90e-06	0	57	0	620756992	53	5460
2026-01-09 00:14:10.49	319.15	57.91	-41.4	-44.7	13.3	2.28e-05	0	56	0	622854144	53	5546
2026-01-09 00:14:11.50	318.38	58.08	-41.1	-44.2	13.8	5.30e-06	0	57	0	624951296	53	5257
2026-01-09 00:14:12.51	317.60	58.24	-41.2	-44.4	13.7	3.00e-06	0	56	0	627048448	53	5351
2026-01-09 00:14:13.52	316.81	58.40	-41.1	-44.2	13.8	3.80e-06	0	57	0	628097024	53	5235
2026-01-09 00:14:14.53	316.02	58.56	-41.0	-44.1	13.9	3.80e-06	0	57	0	630194176	53	5167
2026-01-09 00:14:15.54	315.21	58.71	-41.3	-44.5	13.5	8.30e-06	0	56	0	632291328	53	5434
2026-01-09 00:14:16.55	314.39	58.86	-41.5	-44.9	13.0	1.90e-05	0	57	0	634388480	53	5692
2026-01-09 00:14:17.56	313.57	59.00	-41.5	-44.9	13.1	2.59e-05	0	57	0	636485632	53	5681
2026-01-09 00:14:18.57	312.73	59.14	-41.2	-44.3	13.7	1.37e-05	0	57	0	637534208	53	5322
2026-01-09 00:14:19.58	311.89	59.27	-40.9	-43.9	14.0	1.06e-05	0	57	0	639631360	53	5084
2026-01-09 00:14:20.59	311.04	59.40	-40.7	-43.6	14.4	3.00e-06	0	57	0	641728512	53	4887
2026-01-09 00:14:21.60	310.18	59.52	-40.7	-43.5	14.5	7.00e-07	0	56	0	643825664	53	4823
2026-01-09 00:14:22.61	309.31	59.63	-40.6	-43.5	14.5	7.00e-07	0	57	0	645922816	53	4819
2026-01-09 00:14:23.62	308.43	59.74	-40.5	-43.2	14.8	0.00e+00	0	56	0	646971392	52	4946
2026-01-09 00:14:24.63	307.55	59.85	-40.1	-42.6	15.4	0.00e+00	0	56	0	649068544	52	4620
2026-01-09 00:14:25.64	306.66	59.94	-40.0	-42.5	15.7	0.00e+00	0	57	0	651165696	51	4830
2026-01-09 00:14:26.64	305.78	60.03	-40.2	-42.7	15.3	0.00e+00	0	56	0	653262848	51	4958
2026-01-09 00:14:27.65	304.87	60.12	-40.2	-42.7	15.4	0.00e+00	0	56	0	655360000	51	4932
2026-01-09 00:14:28.66	303.97	60.20	-40.1	-42.6	15.4	0.00e+00	0	56	0	657457152	51	4906
2026-01-09 00:14:29.67	303.05	60.27	-40.0	-42.5	15.6	0.00e+00	0	57	0	658505728	51	4815
2026-01-09 00:14:30.68	302.14	60.33	-40.0	-42.5	15.5	0.00e+00	0	56	0	660602880	51	4837
2026-01-09 00:14:31.69	301.21	60.39	-39.9	-42.3	15.7	0.00e+00	0	57	0	662700032	51	4752
2026-01-09 00:14:32.70	300.29	60.45	-39.7	-42.0	16.1	0.00e+00	0	56	0	664797184	51	4546
2026-01-09 00:14:33.71	299.36	60.49	-39.8	-42.1	16.0	0.00e+00	0	57	0	666894336	51	4630
2026-01-09 00:14:34.72	298.42	60.53	-39.7	-42.0	16.1	0.00e+00	0	56	0	667942912	51	4576
2026-01-09 00:14:35.73	297.49	60.56	-39.4	-41.6	16.5	0.00e+00	0	56	0	670040064	50	4599
2026-01-09 00:14:36.74	296.55	60.59	-39.1	-41.1	16.9	0.00e+00	0	56	0	672137216	50	4385
2026-01-09 00:14:37.74	295.62	60.61	-39.1	-41.2	16.9	0.00e+00	0	57	0	674234368	49	4657
2026-01-09 00:14:38.75	294.68	60.62	-38.9	-40.9	17.1	0.00e+00	0	56	0	676331520	49	4541
2026-01-09 00:14:39.76	293.73	60.62	-38.7	-40.7	17.4	0.00e+00	0	56	0	677380096	49	4402
2026-01-09 00:14:40.77	292.79	60.62	-38.6	-40.5	17.5	0.00e+00	0	57	0	679477248	49	4321
2026-01-09 00:14:41.78	291.85	60.61	-38.4	-40.3	17.8	0.00e+00	0	56	0	681574400	48	4451
2026-01-09 00:14:42.79	290.91	60.60	-38.4	-40.3	17.7	0.00e+00	0	56	0	683671552	48	4471
2026-01-09 00:14:43.80	289.97	60.57	-38.5	-40.4	17.6	0.00e+00	0	56	0	685768704	48	4538
2026-01-09 00:14:44.81	289.03	60.54	-38.6	-40.5	17.5	0.00e+00	0	57	0	686817280	48	4589
2026-01-09 00:14:45.81	288.11	60.51	-38.3	-40.2	17.9	0.00e+00	0	56	0	688914432	48	4406
2026-01-09 00:14:46.82	287.18	60.47	-38.3	-40.2	17.8	0.00e+00	0	56	0	691011584	48	4410
2026-01-09 00:14:47.83	286.25	60.42	-38.4	-40.3	17.8	0.00e+00	0	57	0	693108736	48	4443
2026-01-09 00:14:48.84	285.32	60.36	-38.4	-40.2	17.8	0.00e+00	0	57	0	695205888	48	4434
2026-01-09 00:14:49.85	284.40	60.30	-38.3	-40.1	17.9	0.00e+00	0	56	0	696254464	48	4373
2026-01-09 00:14:50.86	283.49	60.23	-38.3	-40.1	17.9	0.00e+00	0	56	0	698351616	48	4385
2026-01-09 00:14:51.87	282.58	60.15	-38.5	-40.4	17.6	0.00e+00	0	56	0	700448768	48	4537
2026-01-09 00:14:52.88	281.67	60.07	-38.7	-40.7	17.3	0.00e+00	0	57	0	702545920	48	4695
2026-01-09 00:14:53.89	280.77	59.98	-38.7	-40.7	17.3	0.00e+00	0	57	0	704643072	48	4663
2026-01-09 00:14:54.90	279.88	59.89	-38.8	-40.8	17.3	0.00e+00	0	57	0	705691648	48	4710
2026-01-09 00:14:55.91	278.99	59.79	-39.1	-41.1	16.9	0.00e+00	0	57	0	707788800	48	4913
2026-01-09 00:14:56.92	278.11	59.68	-39.3	-41.4	16.6	0.00e+00	0	56	0	709885952	49	4814
2026-01-09 00:14:57.93	277.24	59.57	-39.4	-41.7	16.4	0.00e+00	0	57	0	711983104	49	4937
2026-01-09 00:14:58.94	276.38	59.45	-39.5	-41.8	16.3	0.00e+00	0	57	0	714080256	49	5020
2026-01-09 00:14:59.95	275.52	59.32	-39.6	-41.9	16.2	0.00e+00	0	57	0	715128832	49	5055
2026-01-09 00:15:00.96	274.68	59.19	-39.8	-42.1	16.0	0.00e+00	0	57	0	717225984	50	4908
2026-01-09 00:15:01.97	273.84	59.06	-40.1	-42.5	15.6	0.00e+00	0	57	0	719323136	50	5145
2026-01-09 00:15:02.97	273.02	58.92	-40.0	-42.4	15.7	0.00e+00	0	56	0	721420288	50	5053
2026-01-09 00:15:03.98	272.19	58.78	-39.7	-42.0	16.0	0.00e+00	0	56	0	723517440	50	4870
2026-01-09 00:15:04.99	271.38	58.63	-39.9	-42.3	15.8	0.00e+00	0	57	0	724566016	50	4990
2026-01-09 00:15:06.00	270.58	58.47	-40.1	-42.5	15.6	0.00e+00	0	57	0	726663168	50	5137
2026-01-09 00:15:07.01	269.79	58.31	-40.4	-43.0	15.0	0.00e+00	0	57	0	728760320	51	5145
2026-01-09 00:15:08.02	269.00	58.14	-40.6	-43.3	14.7	0.00e+00	0	57	0	730857472	51	5323
2026-01-09 00:15:09.03	268.23	57.98	-40.6	-43.4	14.5	0.00e+00	0	57	0	732954624	52	5082
2026-01-09 00:15:10.04	267.46	57.80	-40.4	-43.0	14.9	0.00e+00	0	57	0	734003200	52	4858
2026-01-09 00:15:11.05	266.71	57.62	-40.5	-43.3	14.6	0.00e+00	0	56	0	736100352	52	5010
2026-01-09 00:15:12.06	265.96	57.44	-40.4	-43.1	14.9	0.00e+00	0	57	0	738197504	52	4871
2026-01-09 00:15:13.07	265.23	57.26	-40.4	-43.1	14.8	0.00e+00	0	57	0	740294656	52	4885
2026-01-09 00:15:14.07	264.51	57.07	-40.5	-43.2	14.7	0.00e+00	0	56	0	742391808	52	4962
2026-01-09 00:15:15.08	263.80	56.88	-40.3	-43.0	15.0	0.00e+00	0	57	0	743440384	52	4817
2026-01-09 00:15:16.09	263.09	56.68	-40.1	-42.6	15.5	0.00e+00	0	57	0	745537536	51	4872
2026-01-09 00:15:17.10	262.40	56.48	-39.9	-42.3	15.7	0.00e+00	0	57	0	747634688	51	4745
2026-01-09 00:15:18.11	261.72	56.27	-40.2	-42.7	15.3	0.00e+00	0	57	0	749731840	51	4979
2026-01-09 00:15:19.12	261.04	56.07	-40.0	-42.5	15.5	0.00e+00	0	57	0	751828992	51	4849
2026-01-09 00:15:20.13	260.38	55.86	-39.6	-41.8	16.2	0.00e+00	0	56	0	753926144	51	4489
2026-01-09 00:15:21.14	259.72	55.64	-39.2	-41.3	16.7	0.00e+00	0	57	0	754974720	50	4488
2026-01-09 00:15:22.15	259.08	55.43	-39.1	-41.2	16.9	0.00e+00	0	56	0	757071872	50	4409
2026-01-09 00:15:23.16	258.45	55.21	-39.1	-41.2	16.8	0.00e+00	0	56	0	759169024	50	4418
2026-01-09 00:15:24.17	257.82	54.99	-39.2	-41.3	16.8	0.00e+00	0	57	0	761266176	50	4448
2026-01-09 00:15:25.18	257.21	54.77	-39.1	-41.2	16.9	0.00e+00	0	57	0	763363328	50	4392
2026-01-09 00:15:26.19	256.60	54.54	-39.2	-41.3	16.8	0.00e+00	0	56	0	764411904	50	4442
2026-01-09 00:15:27.20	256.01	54.31	-39.4	-41.5	16.5	0.00e+00	0	57	0	766509056	50	4588
2026-01-09 00:15:28.21	255.42	54.08	-39.3	-41.5	16.6	0.00e+00	0	57	0	768606208	50	4560
2026-01-09 00:15:29.21	254.85	53.85	-39.5	-41.7	16.3	0.00e+00	0	56	0	770703360	50	4692
2026-01-09 00:15:30.22	254.28	53.62	-39.6	-41.9	16.2	0.00e+00	0	56	0	772800512	50	4762
2026-01-09 00:15:31.23	253.72	53.39	-39.5	-41.7	16.3	0.00e+00	0	57	0	773849088	50	4705
2026-01-09 00:15:32.24	253.17	53.15	-39.4	-41.6	16.4	0.00e+00	0	56	0	775946240	50	4634
2026-01-09 00:15:33.25	252.63	52.91	-39.8	-42.2	15.8	0.00e+00	0	57	0	778043392	50	4950
2026-01-09 00:15:34.26	252.10	52.67	-40.3	-42.9	15.1	0.00e+00	0	56	0	780140544	51	5073
2026-01-09 00:15:35.27	251.58	52.43	-40.5	-43.2	14.9	0.00e+00	0	57	0	782237696	51	5226
2026-01-09 00:15:36.28	251.06	52.19	-40.5	-43.2	14.9	0.00e+00	0	57	0	783286272	51	5241
2026-01-09 00:15:37.29	250.56	51.94	-40.5	-43.2	14.8	0.00e+00	0	57	0	785383424	51	5241
2026-01-09 00:15:38.30	250.06	51.70	-40.6	-43.4	14.7	0.00e+00	0	57	0	787480576	51	5343
2026-01-09 00:15:39.31	249.57	51.45	-40.6	-43.4	14.5	7.00e-07	0	57	0	789577728	52	5081
2026-01-09 00:15:40.32	249.09	51.21	-40.9	-43.8	14.1	2.20e-06	0	57	0	791674880	52	5308
2026-01-09 00:15:41.33	248.62	50.96	-40.8	-43.7	14.2	1.50e-06	0	57	0	792723456	52	5276
2026-01-09 00:15:42.34	248.15	50.71	-40.9	-43.9	14.1	0.00e+00	0	56	0	794820608	52	5341
2026-01-09 00:15:43.35	247.69	50.46	-41.1	-44.1	13.8	7.00e-07	0	57	0	796917760	52	5524
2026-01-09 00:15:44.36	247.24	50.21	-41.4	-44.7	13.2	6.10e-06	0	57	0	799014912	53	5570
2026-01-09 00:15:45.37	246.80	49.96	-41.9	-45.6	12.4	4.27e-05	0	57	0	801112064	54	5813
2026-01-09 00:15:46.38	246.36	49.71	-42.2	-46.2	11.7	5.87e-04	0	57	0	802160640	54	6270
2026-01-09 00:15:47.39	245.93	49.46	-42.3	-46.4	11.5	9.43e-04	0	57	0	804257792	55	6034
2026-01-09 00:15:48.39	245.51	49.22	-41.9	-45.7	12.2	3.75e-04	0	57	0	806354944	55	5535
2026-01-09 00:15:49.40	245.10	48.96	-41.8	-45.5	12.5	1.44e-04	0	56	0	808452096	55	5410
2026-01-09 00:15:50.41	244.69	48.71	-41.7	-45.3	12.6	1.17e-04	0	57	0	810549248	55	5303
2026-01-09 00:15:51.42	244.29	48.46	-41.6	-45.1	12.8	8.54e-05	0	57	0	811597824	55	5190
2026-01-09 00:15:52.43	243.89	48.21	-41.8	-45.6	12.5	9.68e-05	0	57	0	813694976	55	5467
2026-01-09 00:15:53.44	243.51	47.96	-42.2	-46.3	11.6	3.75e-04	0	57	0	815792128	55	5959
2026-01-09 00:15:54.45	243.12	47.71	-42.5	-46.9	11.0	1.43e-03	0	57	0	817889280	55	6373
2026-01-09 00:15:55.46	242.75	47.46	-42.6	-47.2	10.5	3.80e-03	0	57	0	819986432	55	6638
2026-01-09 00:15:56.47	242.38	47.20	-42.5	-47.0	10.8	2.98e-03	0	57	0	822083584	55	6482
2026-01-09 00:15:57.48	242.01	46.95	-42.4	-46.8	10.9	2.34e-03	0	57	0	823132160	55	6336
2026-01-09 00:15:58.49	241.65	46.70	-42.0	-45.9	11.9	1.07e-03	0	57	0	825229312	55	5681
2026-01-09 00:15:59.50	241.30	46.45	-41.6	-45.2	12.7	1.23e-04	0	57	0	827326464	55	5226
2026-01-09 00:16:00.51	240.95	46.20	-41.4	-44.8	13.1	3.35e-05	0	57	0	829423616	54	5305
2026-01-09 00:16:01.52	240.61	45.95	-41.3	-44.6	13.3	2.67e-05	0	57	0	831520768	54	5176
2026-01-09 00:16:02.53	240.28	45.70	-41.4	-44.8	13.2	2.36e-05	0	57	0	832569344	54	5280
2026-01-09 00:16:03.54	239.94	45.45	-41.5	-45.0	13.0	2.28e-05	0	57	0	834666496	54	5408
2026-01-09 00:16:04.55	239.62	45.21	-41.5	-44.8	13.1	2.67e-05	0	57	0	836763648	54	5322
2026-01-09 00:16:05.56	239.30	44.96	-41.5	-44.9	13.0	3.66e-05	0	57	0	838860800	54	5376
2026-01-09 00:16:06.56	238.98	44.71	-41.3	-44.6	13.3	3.81e-05	0	57	0	840957952	54	5162
2026-01-09 00:16:07.57	238.67	44.47	-41.1	-44.2	13.7	1.14e-05	0	57	0	842006528	54	4959
2026-01-09 00:16:08.58	238.37	44.22	-41.2	-44.3	13.7	9.10e-06	0	57	0	844103680	54	5014
2026-01-09 00:16:09.59	238.07	43.97	-41.2	-44.4	13.5	9.90e-06	0	57	0	846200832	54	5078
2026-01-09 00:16:10.60	237.77	43.73	-41.4	-44.8	13.1	1.83e-05	0	57	0	848297984	54	5317
2026-01-09 00:16:11.61	237.48	43.49	-41.4	-44.6	13.2	2.82e-05	0	57	0	850395136	54	5217
2026-01-09 00:16:12.62	237.19	43.24	-41.2	-44.3	13.6	1.67e-05	0	57	0	851443712	54	5039
2026-01-09 00:16:13.63	236.91	43.00	-41.2	-44.4	13.6	1.22e-05	0	57	0	853540864	54	5089
2026-01-09 00:16:14.64	236.63	42.76	-41.3	-44.5	13.4	9.90e-06	0	57	0	855638016	54	5123
2026-01-09 00:16:15.65	236.35	42.52	-41.3	-44.5	13.3	1.90e-05	0	57	0	857735168	54	5131
2026-01-09 00:16:16.66	236.08	42.28	-41.3	-44.5	13.3	1.22e-05	0	57	0	859832320	54	5143
2026-01-09 00:16:17.67	235.81	42.04	-41.2	-44.3	13.6	6.80e-06	0	57	0	860880896	54	5004
2026-01-09 00:16:18.68	235.55	41.80	-41.3	-44.6	13.3	8.30e-06	0	57	0	862978048	54	5180
2026-01-09 00:16:19.68	235.30	41.56	-41.3	-44.6	13.3	1.98e-05	0	57	0	865075200	54	5179
2026-01-09 00:16:20.69	235.04	41.32	-41.4	-44.8	13.1	2.51e-05	0	57	0	867172352	54	5295
2026-01-09 00:16:21.70	234.79	41.09	-41.6	-45.0	12.9	4.50e-05	0	56	0	869269504	54	5459
2026-01-09 00:16:22.71	234.54	40.85	-41.8	-45.4	12.5	1.09e-04	0	57	0	870318080	54	5702
2026-01-09 00:16:23.72	234.30	40.62	-41.9	-45.7	12.1	2.59e-04	0	57	0	872415232	54	5901
2026-01-09 00:16:24.73	234.06	40.39	-42.0	-45.8	12.0	2.47e-04	0	57	0	874512384	54	5989
2026-01-09 00:16:25.74	233.82	40.15	-41.9	-45.7	12.2	2.89e-04	0	57	0	876609536	54	5901
2026-01-09 00:16:26.75	233.59	39.92	-42.1	-46.1	11.7	4.12e-04	0	57	0	878706688	54	6190
2026-01-09 00:16:27.76	233.36	39.69	-42.2	-46.3	11.5	8.11e-04	0	57	0	879755264	55	5973
2026-01-09 00:16:28.77	233.13	39.46	-42.3	-46.6	11.2	1.36e-03	0	57	0	881852416	55	6190
2026-01-09 00:16:29.78	232.90	39.23	-42.3	-46.5	11.3	1.72e-03	0	57	0	883949568	55	6087
2026-01-09 00:16:30.79	232.68	39.01	-42.3	-46.5	11.3	1.13e-03	0	57	0	886046720	55	6091
2026-01-09 00:16:31.80	232.47	38.78	-42.2	-46.3	11.4	1.02e-03	0	57	0	888143872	55	5990
2026-01-09 00:16:32.80	232.25	38.56	-42.2	-46.3	11.5	7.40e-04	0	57	0	890241024	55	5958
2026-01-09 00:16:33.81	232.04	38.33	-42.2	-46.2	11.5	8.43e-04	0	57	0	891289600	55	5907
2026-01-09 00:16:34.82	231.83	38.11	-42.2	-46.3	11.6	8.62e-04	0	57	0	893386752	55	5926
2026-01-09 00:16:35.83	231.63	37.89	-42.1	-46.2	11.6	1.03e-03	0	57	0	895483904	55	5869
2026-01-09 00:16:36.84	231.42	37.67	-42.1	-46.0	11.8	5.49e-04	0	57	0	897581056	55	5784
2026-01-09 00:16:37.85	231.22	37.45	-42.0	-45.8	12.0	3.50e-04	0	57	0	899678208	55	5655
2026-01-09 00:16:38.86	231.03	37.23	-41.9	-45.7	12.1	2.66e-04	0	57	0	900726784	55	5545
2026-01-09 00:16:39.87	230.83	37.01	-41.9	-45.7	12.1	2.45e-04	0	57	0	902823936	55	5561
2026-01-09 00:16:40.88	230.64	36.79	-41.7	-45.3	12.5	1.71e-04	0	57	0	904921088	55	5318
2026-01-09 00:16:41.89	230.45	36.58	-41.9	-45.7	12.2	2.29e-04	0	57	0	907018240	55	5566
2026-01-09 00:16:42.89	230.26	36.36	-41.8	-45.4	12.4	1.86e-04	0	57	0	908066816	55	5374
2026-01-09 00:16:43.90	230.08	36.15	-41.7	-45.3	12.5	1.44e-04	0	57	0	910163968	55	5314
2026-01-09 00:16:44.91	229.90	35.94	-41.8	-45.5	12.4	1.30e-04	0	57	0	912261120	55	5403
2026-01-09 00:16:45.92	229.72	35.72	-41.8	-45.5	12.3	2.33e-04	0	57	0	914358272	55	5443
2026-01-09 00:16:46.93	229.54	35.51	-41.9	-45.6	12.1	2.46e-04	0	57	0	916455424	55	5525
2026-01-09 00:16:47.94	229.36	35.30	-42.0	-45.9	11.9	3.72e-04	0	57	0	918552576	55	5698
2026-01-09 00:16:48.95	229.19	35.10	-42.0	-46.0	11.8	5.10e-04	0	57	0	919601152	55	5740
2026-01-09 00:16:49.96	229.02	34.89	-42.1	-46.1	11.6	5.99e-04	0	57	0	921698304	55	5853
2026-01-09 00:16:50.97	228.85	34.68	-41.9	-45.9	11.9	5.46e-04	0	57	0	923795456	55	5660
2026-01-09 00:16:51.98	228.68	34.48	-41.9	-45.8	12.0	3.03e-04	0	57	0	925892608	55	5641
2026-01-09 00:16:52.99	228.52	34.27	-41.9	-45.7	12.1	3.52e-04	0	57	0	927989760	55	5561
2026-01-09 00:16:54.00	228.36	34.07	-41.9	-45.7	12.1	2.98e-04	0	57	0	929038336	55	5544
2026-01-09 00:16:55.01	228.20	33.87	-41.9	-45.8	12.0	3.29e-04	0	57	0	931135488	55	5605
2026-01-09 00:16:56.02	228.04	33.67	-42.1	-46.1	11.6	4.05e-04	0	57	0	933232640	55	5822
2026-01-09 00:16:57.03	227.88	33.47	-42.2	-46.4	11.3	8.06e-04	0	57	0	935329792	55	6022
2026-01-09 00:16:58.04	227.73	33.27	-42.3	-46.5	11.2	1.23e-03	0	57	0	937426944	55	6130
2026-01-09 00:16:59.05	227.57	33.07	-42.3	-46.5	11.2	1.56e-03	0	57	0	938475520	55	6125
2026-01-09 00:17:00.06	227.42	32.87	-42.3	-46.7	11.0	1.58e-03	0	57	0	940572672	55	6262
2026-01-09 00:17:01.06	227.28	32.68	-42.2	-46.5	11.2	1.54e-03	0	57	0	942669824	55	6099
2026-01-09 00:17:02.07	227.13	32.48	-42.1	-46.2	11.6	1.04e-03	0	57	0	944766976	55	5874
2026-01-09 00:17:03.08	226.98	32.29	-42.0	-46.0	11.8	5.30e-04	0	57	0	946864128	55	5725
2026-01-09 00:17:04.09	226.84	32.10	-41.8	-45.6	12.2	3.12e-04	0	57	0	947912704	55	5480
2026-01-09 00:17:05.10	226.70	31.91	-41.6	-45.2	12.6	1.12e-04	0	57	0	950009856	55	5247
2026-01-09 00:17:06.11	226.56	31.72	-41.4	-44.9	13.0	6.33e-05	0	57	0	952107008	54	5343
2026-01-09 00:17:07.12	226.42	31.53	-41.4	-44.7	13.1	3.20e-05	0	57	0	954204160	54	5264
2026-01-09 00:17:08.13	226.28	31.34	-41.4	-44.8	13.0	3.35e-05	0	57	0	956301312	54	5305
2026-01-09 00:17:09.14	226.15	31.15	-41.4	-44.8	13.0	4.50e-05	0	57	0	957349888	54	5287
2026-01-09 00:17:10.15	226.01	30.96	-41.4	-44.8	12.9	4.04e-05	0	57	0	959447040	54	5333
2026-01-09 00:17:11.16	225.88	30.78	-41.4	-44.8	13.0	3.96e-05	0	57	0	961544192	54	5317
2026-01-09 00:17:12.17	225.75	30.59	-41.5	-45.0	12.8	5.56e-05	0	57	0	963641344	54	5440
2026-01-09 00:17:13.18	225.62	30.41	-41.6	-45.2	12.6	8.31e-05	0	57	0	965738496	54	5560
2026-01-09 00:17:14.19	225.49	30.23	-41.6	-45.2	12.5	1.01e-04	0	57	0	966787072	54	5574
2026-01-09 00:17:15.20	225.37	30.05	-41.6	-45.3	12.5	1.39e-04	0	57	0	968884224	54	5614
2026-01-09 00:17:16.20	225.24	29.87	-41.8	-45.5	12.2	1.65e-04	0	57	0	970981376	54	5761
2026-01-09 00:17:17.21	225.12	29.69	-41.8	-45.6	12.2	2.16e-04	0	57	0	973078528	54	5809
2026-01-09 00:17:18.22	225.00	29.51	-41.8	-45.7	12.1	2.66e-04	0	57	0	975175680	54	5856
2026-01-09 00:17:19.23	224.88	29.33	-41.8	-45.6	12.2	2.46e-04	0	57	0	976224256	54	5814
2026-01-09 00:17:20.24	224.76	29.16	-41.8	-45.5	12.3	2.08e-04	0	57	0	978321408	54	5752
2026-01-09 00:17:21.25	224.64	28.98	-41.7	-45.4	12.4	1.90e-04	0	57	0	980418560	54	5680
2026-01-09 00:17:22.26	224.53	28.81	-41.6	-45.2	12.5	1.49e-04	0	57	0	982515712	54	5572
2026-01-09 00:17:23.27	224.41	28.63	-41.5	-45.0	12.8	9.76e-05	0	57	0	984612864	54	5403
2026-01-09 00:17:24.28	224.30	28.46	-41.4	-44.8	13.0	4.34e-05	0	57	0	986710016	54	5325
2026-01-09 00:17:25.29	224.18	28.29	-41.4	-44.8	12.9	3.96e-05	0	57	0	987758592	54	5334
2026-01-09 00:17:26.30	224.07	28.12	-41.3	-44.7	13.1	4.80e-05	0	57	0	989855744	54	5266
2026-01-09 00:17:27.31	223.96	27.95	-41.3	-44.6	13.2	1.98e-05	0	57	0	991952896	54	5171
2026-01-09 00:17:28.31	223.85	27.78	-41.3	-44.6	13.2	1.83e-05	0	57	0	994050048	54	5177
2026-01-09 00:17:29.32	223.75	27.61	-41.2	-44.5	13.2	2.59e-05	0	57	0	996147200	54	5159
2026-01-09 00:17:30.33	223.64	27.44	-41.2	-44.5	13.3	1.22e-05	0	57	0	997195776	54	5106
2026-01-09 00:17:31.34	223.53	27.28	-41.2	-44.4	13.4	1.29e-05	0	57	0	999292928	54	5075
2026-01-09 00:17:32.35	223.43	27.11	-41.1	-44.3	13.4	9.90e-06	0	57	0	1001390080	54	5022
2026-01-09 00:17:33.36	223.32	26.95	-41.1	-44.4	13.4	1.60e-05	0	57	0	1003487232	54	5051
2026-01-09 00:17:34.37	223.22	26.78	-41.0	-44.1	13.7	1.06e-05	0	57	0	1005584384	54	4885
2026-01-09 00:17:35.38	223.12	26.62	-41.0	-44.1	13.7	9.90e-06	0	57	0	1006632960	53	5178
2026-01-09 00:17:36.39	223.02	26.46	-41.0	-44.1	13.6	4.50e-06	0	57	0	1008730112	53	5194
2026-01-09 00:17:37.40	222.92	26.30	-40.9	-44.0	13.7	4.50e-06	0	57	0	1010827264	53	5137
2026-01-09 00:17:38.41	222.82	26.14	-40.9	-43.9	13.8	5.30e-06	0	57	0	1012924416	53	5070
2026-01-09 00:17:39.42	222.73	25.98	-40.8	-43.8	14.0	2.20e-06	0	57	0	1015021568	53	4999
2026-01-09 00:17:40.43	222.63	25.82	-40.7	-43.7	14.1	2.20e-06	0	57	0	1016070144	53	4932
2026-01-09 00:17:41.44	222.53	25.66	-40.7	-43.6	14.1	0.00e+00	0	57	0	1018167296	53	4915
2026-01-09 00:17:42.45	222.44	25.50	-40.7	-43.7	14.1	4.50e-06	0	57	0	1020264448	53	4953
2026-01-09 00:17:43.46	222.35	25.35	-40.8	-43.7	14.0	7.00e-07	0	57	0	1022361600	53	4980
2026-01-09 00:17:44.47	222.25	25.19	-40.8	-43.8	13.9	1.50e-06	0	57	0	1024458752	53	5024
2026-01-09 00:17:45.47	222.16	25.04	-40.9	-44.0	13.8	4.50e-06	0	57	0	1025507328	53	5119
2026-01-09 00:17:46.48	222.07	24.89	-40.9	-44.1	13.7	3.80e-06	0	57	0	1027604480	53	5177
2026-01-09 00:17:47.49	221.98	24.73	-40.9	-44.0	13.7	3.80e-06	0	57	0	1029701632	53	5147
2026-01-09 00:17:48.50	221.89	24.58	-40.9	-43.9	13.8	4.50e-06	0	57	0	1031798784	53	5091
2026-01-09 00:17:49.51	221.81	24.43	-40.9	-43.9	13.7	5.30e-06	0	57	0	1033895936	53	5080
2026-01-09 00:17:50.52	221.72	24.28	-40.9	-44.0	13.7	7.60e-06	0	57	0	1034944512	53	5141
2026-01-09 00:17:51.53	221.63	24.13	-40.9	-44.1	13.6	7.60e-06	0	57	0	1037041664	53	5170
2026-01-09 00:17:52.54	221.55	23.98	-40.9	-44.1	13.7	7.60e-06	0	57	0	1039138816	53	5163
2026-01-09 00:17:53.55	221.46	23.83	-40.9	-44.0	13.7	1.50e-06	0	57	0	1041235968	53	5127
2026-01-09 00:17:54.56	221.38	23.69	-40.9	-44.0	13.7	3.80e-06	0	57	0	1043333120	53	5138
2026-01-09 00:17:55.56	221.30	23.54	-40.8	-43.9	13.8	7.60e-06	0	57	0	1044381696	53	5050
2026-01-09 00:17:56.57	221.22	23.40	-40.8	-43.8	13.9	2.20e-06	0	57	0	1046478848	53	5003
2026-01-09 00:17:57.58	221.13	23.25	-40.7	-43.7	14.0	5.30e-06	0	57	0	1048576000	53	4938
2026-01-09 00:17:58.59	221.05	23.11	-40.7	-43.7	14.0	3.00e-06	0	57	0	1050673152	53	4968
2026-01-09 00:17:59.60	220.97	22.96	-40.7	-43.7	14.0	7.00e-07	0	57	0	1052770304	53	4934
2026-01-09 00:18:00.61	220.89	22.82	-40.7	-43.7	14.0	3.80e-06	0	57	0	1054867456	53	4972
2026-01-09 00:18:01.62	220.82	22.68	-40.7	-43.7	14.0	7.00e-07	0	57	0	1055916032	53	4956
2026-01-09 00:18:02.63	220.74	22.54	-40.7	-43.7	13.9	3.80e-06	0	57	0	1058013184	53	4981
2026-01-09 00:18:03.64	220.66	22.40	-40.8	-43.9	13.8	6.10e-06	0	57	0	1060110336	53	5081
2026-01-09 00:18:04.65	220.59	22.26	-40.9	-43.9	13.7	6.80e-06	0	57	0	1062207488	53	5099
2026-01-09 00:18:05.66	220.51	22.12	-40.8	-43.9	13.7	5.30e-06	0	57	0	1064304640	53	5090
2026-01-09 00:18:06.66	220.44	21.98	-40.7	-43.8	13.9	4.50e-06	0	57	0	1065353216	53	4988
2026-01-09 00:18:07.67	220.36	21.84	-40.8	-43.8	13.9	7.00e-07	0	57	0	1067450368	53	5008
2026-01-09 00:18:08.68	220.29	21.71	-40.7	-43.8	13.9	3.80e-06	0	57	0	1069547520	53	4987
2026-01-09 00:18:09.69	220.22	21.57	-40.6	-43.6	14.0	3.00e-06	0	57	0	1071644672	53	4903
2026-01-09 00:18:10.70	220.14	21.43	-40.5	-43.3	14.4	7.00e-07	0	57	0	1073741824	52	5021
2026-01-09 00:18:11.71	220.07	21.30	-40.4	-43.3	14.4	7.00e-07	0	57	0	1074790400	52	5003
2026-01-09 00:18:12.72	220.00	21.16	-40.5	-43.3	14.3	1.50e-06	0	57	0	1076887552	52	5026
2026-01-09 00:18:13.73	219.93	21.03	-40.3	-43.1	14.7	7.00e-07	0	57	0	1078984704	52	4871
2026-01-09 00:18:14.74	219.86	20.90	-40.2	-42.9	14.7	0.00e+00	0	57	0	1081081856	52	4809
2026-01-09 00:18:15.75	219.79	20.77	-40.3	-43.0	14.6	0.00e+00	0	57	0	1083179008	52	4868
2026-01-09 00:18:16.76	219.72	20.63	-40.3	-43.0	14.7	0.00e+00	0	57	0	1084227584	52	4840
2026-01-09 00:18:17.77	219.66	20.50	-40.3	-43.1	14.6	1.50e-06	0	57	0	1086324736	52	4911
2026-01-09 00:18:18.78	219.59	20.37	-40.3	-43.0	14.6	0.00e+00	0	57	0	1088421888	52	4868
2026-01-09 00:18:19.79	219.52	20.24	-40.4	-43.2	14.5	0.00e+00	0	57	0	1090519040	52	4952
2026-01-09 00:18:20.80	219.46	20.11	-40.4	-43.2	14.4	0.00e+00	0	57	0	1092616192	52	4964
2026-01-09 00:18:21.81	219.39	19.98	-40.5	-43.3	14.4	0.00e+00	0	57	0	1093664768	52	5024
2026-01-09 00:18:22.81	219.33	19.86	-40.4	-43.3	14.4	7.00e-07	0	57	0	1095761920	52	5013
2026-01-09 00:18:23.82	219.26	19.73	-40.5	-43.4	14.2	0.00e+00	0	57	0	1097859072	52	5094
2026-01-09 00:18:24.83	219.20	19.60	-40.5	-43.5	14.2	2.20e-06	0	57	0	1099956224	52	5114
2026-01-09 00:18:25.84	219.14	19.48	-40.5	-43.4	14.2	0.00e+00	0	57	0	1102053376	52	5065
2026-01-09 00:18:26.85	219.07	19.35	-40.6	-43.6	14.1	7.00e-07	0	57	0	1103101952	52	5171
2026-01-09 00:18:27.86	219.01	19.23	-40.5	-43.4	14.2	1.50e-06	0	57	0	1105199104	52	5055
2026-01-09 00:18:28.87	218.95	19.10	-40.5	-43.4	14.2	7.00e-07	0	57	0	1107296256	52	5061
2026-01-09 00:18:29.88	218.89	18.98	-40.5	-43.4	14.3	1.50e-06	0	57	0	1109393408	52	5044
2026-01-09 00:18:30.89	218.83	18.86	-40.4	-43.3	14.3	2.20e-06	0	57	0	1111490560	52	5034
2026-01-09 00:18:31.90	218.77	18.73	-40.4	-43.3	14.4	1.50e-06	0	57	0	1112539136	52	4993
2026-01-09 00:18:32.91	218.71	18.61	-40.4	-43.2	14.4	0.00e+00	0	57	0	1114636288	52	4967
2026-01-09 00:18:33.92	218.65	18.49	-40.4	-43.3	14.3	7.00e-07	0	57	0	1116733440	52	4988
2026-01-09 00:18:34.93	218.59	18.37	-40.3	-43.1	14.5	7.00e-07	0	57	0	1118830592	52	4885
2026-01-09 00:18:35.94	218.53	18.25	-40.3	-43.2	14.5	7.00e-07	0	57	0	1120927744	52	4931
2026-01-09 00:18:36.95	218.48	18.13	-40.4	-43.2	14.4	0.00e+00	0	57	0	1121976320	52	4970
2026-01-09 00:18:37.96	218.42	18.01	-40.3	-43.1	14.5	0.00e+00	0	57	0	1124073472	52	4891
2026-01-09 00:18:38.97	218.36	17.89	-40.4	-43.2	14.4	2.20e-06	0	57	0	1126170624	52	4963
2026-01-09 00:18:39.98	218.31	17.77	-40.4	-43.2	14.4	1.50e-06	0	57	0	1128267776	52	4962
2026-01-09 00:18:40.98	218.25	17.66	-40.4	-43.2	14.4	0.00e+00	0	57	0	1130364928	52	4956
2026-01-09 00:18:41.99	218.20	17.54	-40.4	-43.4	14.2	2.20e-06	0	57	0	1131413504	52	5050
2026-01-09 00:18:43.00	218.14	17.42	-40.4	-43.2	14.4	2.20e-06	0	57	0	1133510656	52	4977
2026-01-09 00:18:44.01	218.09	17.31	-40.5	-43.4	14.2	7.00e-07	0	57	0	1135607808	52	5074
2026-01-09 00:18:45.02	218.03	17.19	-40.5	-43.5	14.1	3.00e-06	0	57	0	1137704960	52	5131
2026-01-09 00:18:46.03	217.98	17.08	-40.6	-43.6	14.0	2.20e-06	0	57	0	1139802112	52	5201
2026-01-09 00:18:47.04	217.93	16.96	-40.6	-43.6	13.9	6.10e-06	0	57	0	1140850688	52	5206
2026-01-09 00:18:48.05	217.87	16.85	-40.6	-43.7	13.9	1.50e-06	0	57	0	1142947840	52	5221
2026-01-09 00:18:49.06	217.82	16.73	-40.7	-43.7	13.8	2.20e-06	0	57	0	1145044992	52	5267
2026-01-09 00:18:50.07	217.77	16.62	-40.6	-43.7	13.9	3.00e-06	0	57	0	1147142144	52	5234
2026-01-09 00:18:51.08	217.72	16.51	-40.8	-43.9	13.6	3.80e-06	0	57	0	1149239296	52	5372
2026-01-09 00:18:52.09	217.67	16.40	-40.8	-44.0	13.5	9.10e-06	0	57	0	1151336448	52	5447
2026-01-09 00:18:53.10	217.62	16.29	-40.8	-44.0	13.5	1.06e-05	0	57	0	1152385024	52	5463
2026-01-09 00:18:54.11	217.57	16.17	-40.8	-44.0	13.5	1.06e-05	0	57	0	1154482176	52	5426
2026-01-09 00:18:55.12	217.52	16.06	-40.7	-43.8	13.7	6.80e-06	0	57	0	1156579328	52	5335
2026-01-09 00:18:56.13	217.47	15.95	-40.7	-43.8	13.7	7.60e-06	0	57	0	1158676480	52	5336
2026-01-09 00:18:57.14	217.42	15.84	-40.8	-43.9	13.5	6.80e-06	0	57	0	1160773632	52	5400
2026-01-09 00:18:58.14	217.37	15.74	-40.7	-43.9	13.6	9.10e-06	0	57	0	1161822208	52	5377
2026-01-09 00:18:59.15	217.32	15.63	-40.7	-43.9	13.6	6.10e-06	0	57	0	1163919360	52	5376
2026-01-09 00:19:00.16	217.27	15.52	-40.7	-43.9	13.6	6.10e-06	0	57	0	1166016512	52	5369
2026-01-09 00:19:01.17	217.22	15.41	-40.7	-43.9	13.6	6.10e-06	0	57	0	1168113664	52	5369
2026-01-09 00:19:02.18	217.18	15.30	-40.8	-44.0	13.4	8.30e-06	0	57	0	1170210816	52	5457
2026-01-09 00:19:03.19	217.13	15.20	-40.8	-44.0	13.4	1.52e-05	0	57	0	1171259392	52	5463
2026-01-09 00:19:04.20	217.08	15.09	-40.8	-44.0	13.5	1.22e-05	0	57	0	1173356544	52	5433
2026-01-09 00:19:05.21	217.04	14.99	-40.8	-44.0	13.5	1.29e-05	0	57	0	1175453696	52	5415
2026-01-09 00:19:06.22	216.99	14.88	-40.8	-44.0	13.4	1.52e-05	0	57	0	1177550848	52	5426
2026-01-09 00:19:07.22	216.95	14.78	-40.7	-43.9	13.5	7.60e-06	0	57	0	1179648000	52	5393
2026-01-09 00:19:08.23	216.90	14.67	-40.8	-44.1	13.4	1.14e-05	0	57	0	1180696576	52	5472
2026-01-09 00:19:09.24	216.86	14.57	-40.8	-44.1	13.4	1.52e-05	0	57	0	1182793728	52	5494
2026-01-09 00:19:10.25	216.81	14.46	-40.8	-44.0	13.4	1.52e-05	0	57	0	1184890880	52	5432
