passes_logs/2026/01/09/R2.0S_Moscow/R2.0S_Moscow__20260109_022714_FENGYUN_3D_rec.log

#Pass ID: 20260109_022714_FENGYUN 3D
#Satellite: FENGYUN 3D
#Configuration: FENGYUN 3D
#almurnet v.1.7.20251203
#Start time: 2026-01-09 02:27:15

#Version: 2.2.20231116
#Station: R2.0S_Moscow
#Location: 37.707566 lon 55.798166 lat
#TLE: 1 43010U 17072A   26008.51967461  .00000013  00000+0  27718-4 0  9992
#TLE: 2 43010  98.9935 340.2353 0002115 119.1573 240.9815 14.19693759422336

#Time	Az	El	Level	Level2	SNR	BER	BlckErr	Temp	State	Recorded	gain1	gain2
2026-01-09 02:27:15.02	13.74	2.04	-40.1	-51.8	3.8	8.45e-01	0	47	0	0	52	13367
2026-01-09 02:27:16.02	13.71	2.10	-40.1	-51.8	3.8	8.47e-01	0	48	104	0	52	13354
2026-01-09 02:27:17.03	13.68	2.17	-40.1	-51.8	3.8	8.46e-01	0	48	104	0	52	13338
2026-01-09 02:27:18.04	13.66	2.23	-40.1	-51.8	3.8	8.46e-01	0	48	104	0	52	13312
2026-01-09 02:27:19.05	13.63	2.29	-40.1	-51.8	3.8	8.45e-01	0	48	104	0	52	13323
2026-01-09 02:27:20.06	13.60	2.36	-40.1	-51.8	3.8	8.46e-01	0	48	104	0	52	13325
2026-01-09 02:27:21.07	13.57	2.42	-40.1	-51.8	3.8	8.47e-01	0	48	104	0	52	13305
2026-01-09 02:27:22.08	13.55	2.49	-40.1	-51.8	3.8	8.46e-01	0	48	104	0	52	13336
2026-01-09 02:27:23.09	13.52	2.55	-40.1	-51.8	3.8	8.45e-01	0	48	104	0	52	13320
2026-01-09 02:27:24.10	13.49	2.61	-40.1	-51.8	3.8	8.45e-01	0	48	104	0	52	13325
2026-01-09 02:27:25.11	13.46	2.68	-40.1	-51.8	3.8	8.46e-01	0	48	104	0	52	13299
2026-01-09 02:27:26.13	13.43	2.74	-40.1	-51.8	3.8	8.45e-01	0	48	104	0	52	13300
2026-01-09 02:27:27.14	13.40	2.81	-40.1	-51.8	3.8	8.47e-01	0	49	104	0	52	13299
2026-01-09 02:27:28.14	13.38	2.87	-40.1	-51.8	3.8	8.45e-01	0	48	104	0	52	13325
2026-01-09 02:27:29.16	13.35	2.94	-40.1	-51.8	3.8	8.45e-01	0	49	104	0	52	13318
2026-01-09 02:27:30.17	13.32	3.00	-40.1	-51.8	3.8	8.46e-01	0	49	104	0	52	13303
2026-01-09 02:27:31.18	13.29	3.07	-40.1	-51.8	3.8	8.46e-01	0	49	104	0	52	13316
2026-01-09 02:27:32.19	13.26	3.14	-40.1	-51.8	3.8	8.45e-01	0	49	104	0	52	13293
2026-01-09 02:27:33.20	13.23	3.20	-40.1	-51.8	3.8	8.46e-01	0	49	104	0	52	13320
2026-01-09 02:27:34.21	13.20	3.27	-40.1	-51.8	3.8	8.45e-01	0	49	104	0	52	13310
2026-01-09 02:27:35.22	13.17	3.33	-40.1	-51.7	3.8	8.46e-01	0	49	104	0	52	13244
2026-01-09 02:27:36.23	13.14	3.40	-40.1	-51.8	3.8	8.46e-01	0	49	104	0	52	13265
2026-01-09 02:27:37.24	13.11	3.47	-40.1	-51.7	3.8	8.46e-01	0	49	104	0	52	13150
2026-01-09 02:27:38.25	13.08	3.53	-40.1	-51.7	3.8	8.47e-01	0	49	104	0	52	13148
2026-01-09 02:27:39.26	13.05	3.60	-40.1	-51.6	3.8	8.46e-01	0	49	104	0	52	13031
2026-01-09 02:27:40.27	13.02	3.67	-40.1	-51.6	3.8	8.45e-01	0	49	104	0	52	13059
2026-01-09 02:27:41.28	12.99	3.73	-40.1	-51.6	3.8	8.46e-01	0	49	104	0	52	13062
2026-01-09 02:27:42.30	12.96	3.80	-40.1	-51.6	3.8	8.46e-01	0	49	104	0	52	13034
2026-01-09 02:27:43.31	12.93	3.87	-40.1	-51.6	3.8	8.46e-01	0	49	104	0	52	13098
2026-01-09 02:27:44.32	12.89	3.93	-40.1	-51.7	3.8	8.46e-01	0	49	104	0	52	13122
2026-01-09 02:27:45.33	12.86	4.00	-40.1	-51.6	3.8	8.47e-01	0	50	104	0	52	13063
2026-01-09 02:27:46.34	12.83	4.07	-40.1	-51.6	3.8	8.45e-01	0	50	104	0	52	13051
2026-01-09 02:27:47.35	12.80	4.14	-40.1	-51.6	3.8	8.47e-01	0	49	104	0	52	12966
2026-01-09 02:27:48.36	12.77	4.21	-40.0	-51.5	3.8	8.46e-01	0	50	104	0	52	12926
2026-01-09 02:27:49.37	12.74	4.27	-40.1	-51.5	3.8	8.46e-01	0	50	104	0	52	12932
2026-01-09 02:27:50.38	12.70	4.34	-40.1	-51.5	3.8	8.46e-01	0	50	104	0	52	12873
2026-01-09 02:27:51.39	12.67	4.41	-40.0	-51.5	3.8	8.46e-01	0	50	104	0	52	12863
2026-01-09 02:27:52.40	12.64	4.48	-40.1	-51.5	3.8	8.46e-01	0	50	104	0	52	12825
2026-01-09 02:27:53.41	12.61	4.55	-40.1	-51.5	3.8	8.47e-01	0	50	104	0	52	12821
2026-01-09 02:27:54.42	12.57	4.62	-40.0	-51.5	3.8	8.46e-01	0	50	104	0	52	12861
2026-01-09 02:27:55.43	12.54	4.69	-40.1	-51.5	3.8	8.47e-01	0	50	104	0	52	12881
2026-01-09 02:27:56.44	12.51	4.76	-40.0	-51.5	3.8	8.48e-01	0	50	104	0	52	12859
2026-01-09 02:27:57.45	12.47	4.83	-40.1	-51.4	3.8	8.45e-01	0	50	104	0	52	12810
2026-01-09 02:27:58.46	12.44	4.90	-40.1	-51.5	3.8	8.47e-01	0	51	104	0	52	12815
2026-01-09 02:27:59.48	12.41	4.97	-40.1	-51.4	3.8	8.46e-01	0	50	104	0	52	12753
2026-01-09 02:28:00.49	12.37	5.04	-40.0	-51.3	3.8	8.46e-01	0	51	104	0	52	12649
2026-01-09 02:28:01.50	12.34	5.11	-40.0	-51.2	3.8	8.47e-01	0	51	104	0	52	12409
2026-01-09 02:28:02.51	12.30	5.18	-40.0	-51.0	3.8	8.46e-01	0	51	104	0	52	12215
2026-01-09 02:28:03.52	12.27	5.25	-40.0	-50.9	3.8	8.46e-01	0	51	104	0	52	11977
2026-01-09 02:28:04.53	12.23	5.32	-40.1	-50.7	3.8	8.46e-01	0	51	104	0	51	12391
2026-01-09 02:28:05.54	12.20	5.39	-40.0	-50.4	3.8	8.46e-01	0	51	104	0	51	11998
2026-01-09 02:28:06.55	12.16	5.46	-40.0	-50.1	3.8	8.45e-01	0	51	104	0	51	11560
2026-01-09 02:28:07.56	12.13	5.53	-39.9	-49.9	3.8	8.45e-01	0	51	104	0	51	11299
2026-01-09 02:28:08.57	12.09	5.60	-39.9	-49.6	3.8	8.44e-01	0	51	104	0	51	10907
2026-01-09 02:28:09.58	12.06	5.67	-39.9	-49.4	3.8	8.45e-01	0	51	104	0	51	10717
2026-01-09 02:28:10.59	12.02	5.75	-39.9	-49.2	4.0	8.44e-01	0	51	104	0	51	10479
2026-01-09 02:28:11.60	11.99	5.82	-39.9	-49.2	4.0	8.44e-01	0	51	104	0	51	10518
2026-01-09 02:28:12.62	11.95	5.89	-39.9	-49.3	3.8	8.45e-01	0	51	104	0	51	10606
2026-01-09 02:28:13.63	11.91	5.96	-39.9	-49.4	4.0	8.44e-01	0	51	104	0	51	10751
2026-01-09 02:28:14.64	11.88	6.04	-39.9	-49.6	3.8	8.46e-01	0	51	104	0	51	11025
2026-01-09 02:28:15.65	11.84	6.11	-40.0	-49.9	3.9	8.44e-01	0	51	104	0	51	11409
2026-01-09 02:28:16.66	11.80	6.18	-40.0	-50.3	3.8	8.47e-01	0	51	104	0	51	11925
2026-01-09 02:28:17.67	11.76	6.26	-40.0	-50.6	3.8	8.45e-01	0	51	104	0	51	12304
2026-01-09 02:28:18.68	11.73	6.33	-40.0	-50.7	3.8	8.46e-01	0	51	104	0	51	12476
2026-01-09 02:28:19.69	11.69	6.40	-40.1	-50.9	3.8	8.46e-01	0	52	104	0	51	12706
2026-01-09 02:28:20.70	11.65	6.48	-40.1	-50.8	3.8	8.46e-01	0	52	104	0	51	12547
2026-01-09 02:28:21.71	11.61	6.55	-40.0	-50.5	3.8	8.46e-01	0	51	104	0	51	12105
2026-01-09 02:28:22.72	11.57	6.62	-40.0	-49.9	3.8	8.46e-01	0	52	104	0	51	11414
2026-01-09 02:28:23.73	11.54	6.70	-39.9	-49.4	3.8	8.44e-01	0	52	104	0	51	10680
2026-01-09 02:28:24.74	11.50	6.77	-39.8	-48.8	3.9	8.44e-01	0	52	104	0	51	10032
2026-01-09 02:28:25.75	11.46	6.85	-39.7	-48.2	4.2	8.37e-01	0	52	0	0	51	9321
2026-01-09 02:28:26.76	11.42	6.92	-39.6	-47.7	4.4	8.28e-01	0	52	0	0	51	8792
2026-01-09 02:28:27.78	11.38	7.00	-39.5	-47.2	4.5	8.20e-01	0	52	0	0	51	8328
2026-01-09 02:28:28.78	11.34	7.07	-39.5	-46.9	4.7	8.08e-01	0	52	0	0	51	8014
2026-01-09 02:28:29.79	11.30	7.15	-39.5	-46.8	4.7	8.01e-01	0	52	0	0	50	8425
2026-01-09 02:28:30.80	11.26	7.22	-39.4	-46.7	4.8	7.91e-01	0	52	0	0	50	8300
2026-01-09 02:28:31.82	11.22	7.30	-39.4	-46.6	4.9	7.86e-01	0	52	0	0	50	8194
2026-01-09 02:28:32.83	11.18	7.38	-39.4	-46.6	4.9	7.84e-01	0	52	0	0	50	8195
2026-01-09 02:28:33.84	11.14	7.45	-39.4	-46.6	4.9	7.88e-01	0	52	0	0	50	8267
2026-01-09 02:28:34.85	11.10	7.53	-39.5	-46.9	4.7	7.99e-01	0	52	0	0	50	8522
2026-01-09 02:28:35.86	11.05	7.61	-39.5	-47.2	4.6	8.16e-01	0	52	0	0	50	8805
2026-01-09 02:28:36.87	11.01	7.68	-39.6	-47.7	4.4	8.24e-01	0	52	0	0	50	9351
2026-01-09 02:28:37.88	10.97	7.76	-39.7	-48.1	4.2	8.33e-01	0	52	0	0	50	9724
2026-01-09 02:28:38.89	10.93	7.84	-39.8	-48.5	4.2	8.37e-01	0	52	0	0	50	10218
2026-01-09 02:28:39.90	10.89	7.92	-39.8	-48.9	4.1	8.42e-01	0	52	0	0	50	10659
2026-01-09 02:28:40.91	10.84	8.00	-39.9	-49.3	4.0	8.44e-01	0	52	0	0	50	11234
2026-01-09 02:28:41.92	10.80	8.07	-39.7	-50.6	3.8	8.46e-01	0	52	104	0	50	12973
2026-01-09 02:28:42.93	10.76	8.15	-39.8	-50.9	3.8	8.45e-01	0	52	104	0	50	13542
2026-01-09 02:28:43.94	10.72	8.23	-40.6	-51.9	3.8	8.47e-01	0	53	104	0	51	14351
2026-01-09 02:28:44.95	10.67	8.31	-40.4	-48.3	4.4	8.35e-01	0	52	0	0	51	9469
2026-01-09 02:28:45.96	10.63	8.39	-39.7	-51.3	3.8	8.45e-01	0	52	104	0	51	13374
2026-01-09 02:28:46.96	10.58	8.47	-40.2	-48.9	4.0	8.45e-01	0	53	104	0	51	10087
2026-01-09 02:28:47.97	10.54	8.55	-40.2	-48.8	4.2	8.37e-01	0	53	0	0	51	9965
2026-01-09 02:28:48.98	10.50	8.63	-40.2	-48.7	4.2	8.36e-01	0	53	0	0	51	9886
2026-01-09 02:28:49.99	10.45	8.71	-40.1	-48.9	4.1	8.38e-01	0	53	0	0	51	10106
2026-01-09 02:28:51.00	10.41	8.79	-40.1	-49.0	4.1	8.40e-01	0	53	0	0	51	10232
2026-01-09 02:28:52.01	10.36	8.87	-40.1	-49.0	4.1	8.39e-01	0	53	0	0	51	10178
2026-01-09 02:28:53.02	10.31	8.95	-40.2	-49.4	3.9	8.42e-01	0	53	104	0	51	10701
2026-01-09 02:28:54.03	10.27	9.03	-40.2	-49.6	4.0	8.45e-01	0	53	104	0	51	10990
2026-01-09 02:28:55.04	10.22	9.11	-40.2	-50.1	3.8	8.44e-01	0	53	104	0	51	11660
2026-01-09 02:28:56.05	10.18	9.19	-40.3	-50.6	3.8	8.44e-01	0	53	104	0	51	12264
2026-01-09 02:28:57.06	10.13	9.27	-40.3	-50.9	3.8	8.46e-01	0	53	104	0	51	12793
2026-01-09 02:28:58.07	10.08	9.36	-40.3	-51.2	3.8	8.46e-01	0	53	104	0	51	13123
2026-01-09 02:28:59.08	10.03	9.44	-40.3	-51.4	3.8	8.45e-01	0	53	104	0	51	13434
2026-01-09 02:29:00.09	9.99	9.52	-40.2	-51.5	3.8	8.46e-01	0	53	104	0	51	13595
2026-01-09 02:29:01.10	9.94	9.60	-40.2	-51.6	3.8	8.45e-01	0	53	104	0	51	13795
2026-01-09 02:29:02.11	9.89	9.69	-40.1	-51.6	3.8	8.45e-01	0	53	104	0	51	13802
2026-01-09 02:29:03.11	9.84	9.77	-39.8	-51.5	3.8	8.47e-01	0	53	104	0	51	13645
2026-01-09 02:29:04.12	9.79	9.85	-40.1	-51.5	3.8	8.44e-01	0	53	104	0	51	13703
2026-01-09 02:29:05.13	9.74	9.94	-39.6	-51.3	3.8	8.46e-01	0	53	104	0	51	13325
2026-01-09 02:29:06.14	9.69	10.02	-39.8	-51.3	3.8	8.47e-01	0	53	104	0	51	13348
2026-01-09 02:29:07.15	9.64	10.10	-39.8	-51.4	3.8	8.46e-01	0	53	104	0	51	13474
2026-01-09 02:29:08.16	9.59	10.19	-39.9	-51.4	3.8	8.45e-01	0	53	104	0	51	13518
2026-01-09 02:29:09.17	9.54	10.27	-39.8	-51.3	3.8	8.47e-01	0	53	104	0	51	13292
2026-01-09 02:29:10.18	9.49	10.36	-40.1	-51.7	3.8	8.45e-01	0	54	104	0	51	13946
2026-01-09 02:29:11.20	9.44	10.44	-39.6	-51.4	3.8	8.46e-01	0	53	104	0	51	13432
2026-01-09 02:29:12.20	9.39	10.53	-40.1	-51.6	3.8	8.45e-01	0	53	104	0	51	13760
2026-01-09 02:29:13.21	9.34	10.62	-39.6	-51.2	3.8	8.46e-01	0	53	104	0	51	13259
2026-01-09 02:29:14.22	9.29	10.70	-40.0	-50.0	3.8	8.45e-01	0	53	104	0	51	11530
2026-01-09 02:29:15.23	9.23	10.79	-39.8	-51.5	3.8	8.47e-01	0	53	104	0	51	13596
2026-01-09 02:29:16.24	9.18	10.87	-40.2	-49.0	4.1	8.45e-01	0	53	0	0	51	10227
2026-01-09 02:29:17.25	9.13	10.96	-40.1	-48.5	4.3	8.35e-01	0	54	0	0	51	9616
2026-01-09 02:29:18.26	9.08	11.05	-40.0	-47.9	4.5	8.30e-01	0	54	0	0	51	8995
2026-01-09 02:29:19.27	9.02	11.14	-39.9	-47.1	4.8	8.02e-01	0	54	0	0	51	8270
2026-01-09 02:29:20.28	8.97	11.22	-39.7	-46.5	5.2	7.62e-01	0	54	0	0	51	7636
2026-01-09 02:29:21.29	8.91	11.31	-39.6	-45.7	5.7	6.25e-01	0	54	0	0	51	6992
2026-01-09 02:29:22.30	8.86	11.40	-39.4	-45.0	6.2	3.55e-01	0	54	0	6291456	50	6835
2026-01-09 02:29:23.32	8.80	11.49	-39.1	-44.1	7.1	1.93e-01	0	54	0	11534336	50	6166
2026-01-09 02:29:24.33	8.75	11.58	-38.8	-43.4	7.7	1.20e-01	0	54	0	17825792	49	6055
2026-01-09 02:29:25.34	8.69	11.67	-38.6	-43.0	8.2	7.26e-02	0	54	0	23068672	49	5745
2026-01-09 02:29:26.35	8.63	11.76	-38.5	-42.7	8.5	5.72e-02	0	54	0	29360128	49	5550
2026-01-09 02:29:27.35	8.58	11.85	-38.4	-42.4	8.9	3.88e-02	0	54	0	34603008	48	5707
2026-01-09 02:29:28.36	8.52	11.94	-38.3	-42.1	9.3	3.23e-02	0	54	0	39845888	48	5480
2026-01-09 02:29:29.37	8.46	12.03	-37.7	-40.8	10.9	4.39e-03	0	54	0	46137344	47	5017
2026-01-09 02:29:30.38	8.41	12.12	-37.3	-40.0	12.1	7.16e-04	0	54	0	51380224	46	4830
2026-01-09 02:29:31.39	8.35	12.21	-37.1	-39.5	13.0	1.15e-04	0	54	0	57671680	46	4555
2026-01-09 02:29:32.40	8.29	12.30	-37.2	-39.6	13.1	3.43e-05	0	54	0	62914560	46	4623
2026-01-09 02:29:33.41	8.23	12.39	-37.3	-39.6	13.3	3.89e-05	0	54	0	68157440	46	4632
2026-01-09 02:29:34.42	8.17	12.49	-37.2	-39.4	13.7	2.05e-05	0	54	0	74448896	46	4535
2026-01-09 02:29:35.43	8.11	12.58	-37.3	-39.5	13.8	1.14e-05	0	54	0	79691776	46	4549
2026-01-09 02:29:36.44	8.05	12.67	-37.1	-39.1	14.2	3.40e-06	0	54	0	85983232	46	4374
2026-01-09 02:29:37.44	7.99	12.76	-36.7	-38.6	14.8	0.00e+00	0	54	0	91226112	45	4363
2026-01-09 02:29:38.46	7.93	12.86	-36.4	-38.2	15.3	0.00e+00	0	54	0	96468992	44	4416
2026-01-09 02:29:39.47	7.87	12.95	-36.3	-38.1	15.5	0.00e+00	0	54	0	102760448	44	4347
2026-01-09 02:29:40.48	7.81	13.05	-36.3	-38.0	15.6	0.00e+00	0	54	0	108003328	44	4328
2026-01-09 02:29:41.49	7.75	13.14	-36.2	-37.9	15.8	0.00e+00	0	54	0	114294784	44	4275
2026-01-09 02:29:42.50	7.68	13.23	-36.0	-37.7	16.1	0.00e+00	0	54	0	119537664	44	4173
2026-01-09 02:29:43.51	7.62	13.33	-35.7	-37.3	16.3	0.00e+00	0	54	0	125829120	43	4231
2026-01-09 02:29:44.51	7.56	13.42	-35.7	-37.4	16.2	0.00e+00	0	54	0	131072000	43	4249
2026-01-09 02:29:45.52	7.49	13.52	-35.8	-37.5	16.2	0.00e+00	0	54	0	137363456	43	4293
2026-01-09 02:29:46.53	7.43	13.62	-36.1	-37.8	15.9	0.00e+00	0	54	0	142606336	43	4471
2026-01-09 02:29:47.54	7.36	13.71	-36.1	-37.8	16.0	0.00e+00	0	54	0	147849216	43	4443
2026-01-09 02:29:48.55	7.30	13.81	-35.8	-37.4	16.5	0.00e+00	0	54	0	154140672	43	4269
2026-01-09 02:29:49.56	7.23	13.91	-35.8	-37.4	16.6	0.00e+00	0	54	0	159383552	43	4253
2026-01-09 02:29:50.57	7.17	14.00	-36.0	-37.5	16.5	0.00e+00	0	54	0	165675008	43	4339
2026-01-09 02:29:51.58	7.10	14.10	-36.2	-37.8	16.3	0.00e+00	0	54	0	170917888	43	4466
2026-01-09 02:29:52.59	7.03	14.20	-36.1	-37.6	16.4	0.00e+00	0	54	0	176160768	43	4381
2026-01-09 02:29:53.60	6.97	14.30	-35.8	-37.3	16.7	0.00e+00	0	54	0	182452224	43	4234
2026-01-09 02:29:54.61	6.90	14.40	-35.9	-37.4	16.7	0.00e+00	0	55	0	187695104	43	4257
2026-01-09 02:29:55.62	6.83	14.50	-35.9	-37.5	16.6	0.00e+00	0	54	0	193986560	43	4318
2026-01-09 02:29:56.63	6.76	14.60	-35.8	-37.4	16.8	0.00e+00	0	54	0	199229440	43	4247
2026-01-09 02:29:57.64	6.69	14.70	-35.8	-37.3	16.9	0.00e+00	0	54	0	204472320	43	4202
2026-01-09 02:29:58.64	6.62	14.80	-35.8	-37.3	16.9	0.00e+00	0	54	0	210763776	43	4217
2026-01-09 02:29:59.66	6.55	14.90	-35.8	-37.2	16.9	0.00e+00	0	55	0	216006656	43	4191
2026-01-09 02:30:00.67	6.48	15.00	-35.8	-37.2	17.0	0.00e+00	0	55	0	222298112	43	4190
2026-01-09 02:30:01.67	6.41	15.10	-35.8	-37.3	16.9	0.00e+00	0	55	0	227540992	43	4223
2026-01-09 02:30:02.68	6.34	15.20	-35.7	-37.1	17.1	0.00e+00	0	55	0	233832448	43	4139
2026-01-09 02:30:03.69	6.26	15.30	-35.6	-37.0	17.2	0.00e+00	0	55	0	239075328	43	4089
2026-01-09 02:30:04.71	6.19	15.41	-35.6	-37.1	17.2	0.00e+00	0	55	0	244318208	43	4100
2026-01-09 02:30:05.71	6.12	15.51	-35.6	-37.0	17.3	0.00e+00	0	55	0	250609664	43	4078
2026-01-09 02:30:06.72	6.04	15.61	-35.6	-37.0	17.3	0.00e+00	0	55	0	255852544	43	4067
2026-01-09 02:30:07.73	5.97	15.72	-35.5	-36.9	17.4	0.00e+00	0	55	0	262144000	43	4036
2026-01-09 02:30:08.74	5.89	15.82	-35.4	-36.8	17.4	0.00e+00	0	55	0	267386880	42	4227
2026-01-09 02:30:09.75	5.82	15.92	-35.4	-36.8	17.5	0.00e+00	0	55	0	272629760	42	4211
2026-01-09 02:30:10.76	5.74	16.03	-35.3	-36.7	17.6	0.00e+00	0	55	0	278921216	42	4165
2026-01-09 02:30:11.77	5.67	16.13	-35.3	-36.7	17.6	0.00e+00	0	55	0	284164096	42	4146
2026-01-09 02:30:12.78	5.59	16.24	-35.2	-36.6	17.7	0.00e+00	0	55	0	290455552	42	4133
2026-01-09 02:30:13.79	5.51	16.35	-35.2	-36.6	17.7	0.00e+00	0	55	0	295698432	42	4126
2026-01-09 02:30:14.80	5.43	16.45	-35.2	-36.6	17.8	0.00e+00	0	55	0	300941312	42	4102
2026-01-09 02:30:15.81	5.35	16.56	-35.2	-36.6	17.7	0.00e+00	0	55	0	307232768	42	4109
2026-01-09 02:30:16.82	5.27	16.67	-35.2	-36.6	17.8	0.00e+00	0	55	0	312475648	42	4113
2026-01-09 02:30:17.83	5.19	16.78	-35.2	-36.5	17.8	0.00e+00	0	55	0	318767104	42	4086
2026-01-09 02:30:18.84	5.11	16.88	-35.1	-36.5	17.8	0.00e+00	0	55	0	324009984	42	4085
2026-01-09 02:30:19.85	5.03	16.99	-35.2	-36.6	17.8	0.00e+00	0	55	0	330301440	42	4118
2026-01-09 02:30:20.86	4.95	17.10	-35.2	-36.6	17.8	0.00e+00	0	55	0	335544320	42	4103
2026-01-09 02:30:21.87	4.87	17.21	-35.1	-36.5	17.9	0.00e+00	0	55	0	341835776	42	4084
2026-01-09 02:30:22.88	4.78	17.32	-35.1	-36.5	17.9	0.00e+00	0	55	0	347078656	42	4066
2026-01-09 02:30:23.89	4.70	17.43	-35.0	-36.4	18.0	0.00e+00	0	55	0	352321536	42	4023
2026-01-09 02:30:24.90	4.61	17.54	-34.9	-36.3	18.1	0.00e+00	0	55	0	358612992	41	4207
2026-01-09 02:30:25.91	4.53	17.65	-34.9	-36.2	18.1	0.00e+00	0	55	0	363855872	41	4192
2026-01-09 02:30:26.92	4.44	17.77	-34.8	-36.2	18.2	0.00e+00	0	55	0	369098752	41	4157
2026-01-09 02:30:27.93	4.35	17.88	-34.8	-36.1	18.3	0.00e+00	0	55	0	375390208	41	4129
2026-01-09 02:30:28.94	4.27	17.99	-34.7	-36.1	18.3	0.00e+00	0	55	0	380633088	41	4100
2026-01-09 02:30:29.95	4.18	18.10	-34.7	-36.0	18.4	0.00e+00	0	55	0	386924544	41	4094
2026-01-09 02:30:30.95	4.09	18.22	-34.7	-36.0	18.4	0.00e+00	0	55	0	392167424	41	4080
2026-01-09 02:30:31.96	4.00	18.33	-34.6	-35.9	18.5	0.00e+00	0	55	0	397410304	41	4019
2026-01-09 02:30:32.97	3.91	18.44	-34.6	-35.9	18.5	0.00e+00	0	55	0	403701760	41	4033
2026-01-09 02:30:33.98	3.82	18.56	-34.6	-35.8	18.6	0.00e+00	0	55	0	408944640	41	3998
2026-01-09 02:30:34.99	3.73	18.67	-34.5	-35.8	18.6	0.00e+00	0	55	0	415236096	41	3989
2026-01-09 02:30:36.00	3.64	18.79	-34.5	-35.8	18.6	0.00e+00	0	55	0	420478976	41	3996
2026-01-09 02:30:37.01	3.54	18.91	-34.5	-35.8	18.6	0.00e+00	0	55	0	426770432	41	3998
2026-01-09 02:30:38.02	3.45	19.02	-34.5	-35.8	18.6	0.00e+00	0	55	0	432013312	41	3986
2026-01-09 02:30:39.03	3.36	19.14	-34.5	-35.8	18.7	0.00e+00	0	55	0	438304768	41	3977
2026-01-09 02:30:40.04	3.26	19.26	-34.6	-35.8	18.6	0.00e+00	0	55	0	443547648	41	3999
2026-01-09 02:30:41.05	3.16	19.37	-34.6	-35.9	18.5	0.00e+00	0	55	0	448790528	41	4019
2026-01-09 02:30:42.06	3.07	19.49	-34.6	-35.8	18.6	0.00e+00	0	55	0	455081984	41	4003
2026-01-09 02:30:43.07	2.97	19.61	-34.6	-35.9	18.6	0.00e+00	0	55	0	460324864	41	4006
2026-01-09 02:30:44.08	2.87	19.73	-34.6	-35.9	18.6	0.00e+00	0	55	0	466616320	41	4009
2026-01-09 02:30:45.09	2.77	19.85	-34.6	-35.9	18.6	0.00e+00	0	55	0	471859200	41	4006
2026-01-09 02:30:46.10	2.67	19.97	-34.5	-35.8	18.7	0.00e+00	0	55	0	477102080	41	3982
2026-01-09 02:30:47.11	2.57	20.09	-34.5	-35.7	18.7	0.00e+00	0	55	0	483393536	40	4193
2026-01-09 02:30:48.12	2.47	20.22	-34.4	-35.6	18.8	0.00e+00	0	55	0	488636416	40	4139
2026-01-09 02:30:49.13	2.37	20.34	-34.3	-35.5	19.0	0.00e+00	0	55	0	494927872	40	4085
2026-01-09 02:30:50.14	2.26	20.46	-34.2	-35.5	19.0	0.00e+00	0	55	0	500170752	40	4069
2026-01-09 02:30:51.15	2.16	20.58	-34.2	-35.4	19.1	0.00e+00	0	55	0	505413632	40	4028
2026-01-09 02:30:52.16	2.06	20.71	-34.1	-35.4	19.1	0.00e+00	0	56	0	511705088	40	4006
2026-01-09 02:30:53.17	1.95	20.83	-34.1	-35.3	19.2	0.00e+00	0	55	0	516947968	40	3994
2026-01-09 02:30:54.17	1.84	20.95	-34.1	-35.3	19.2	0.00e+00	0	55	0	523239424	40	3992
2026-01-09 02:30:55.18	1.74	21.08	-34.2	-35.4	19.1	0.00e+00	0	55	0	528482304	40	4029
2026-01-09 02:30:56.19	1.63	21.20	-34.2	-35.5	19.1	0.00e+00	0	55	0	534773760	40	4054
2026-01-09 02:30:57.20	1.52	21.33	-34.3	-35.5	19.0	0.00e+00	0	55	0	540016640	40	4075
2026-01-09 02:30:58.21	1.41	21.46	-34.3	-35.5	19.0	0.00e+00	0	55	0	545259520	40	4085
2026-01-09 02:30:59.22	1.30	21.58	-34.3	-35.6	19.0	0.00e+00	0	55	0	551550976	40	4107
2026-01-09 02:31:00.23	1.18	21.71	-34.3	-35.5	19.0	0.00e+00	0	55	0	556793856	40	4090
2026-01-09 02:31:01.24	1.07	21.84	-34.2	-35.5	19.1	0.00e+00	0	55	0	563085312	40	4058
2026-01-09 02:31:02.25	0.96	21.97	-34.2	-35.4	19.1	0.00e+00	0	55	0	568328192	40	4043
2026-01-09 02:31:03.26	0.84	22.10	-34.1	-35.4	19.2	0.00e+00	0	55	0	573571072	40	4005
2026-01-09 02:31:04.27	0.72	22.23	-34.0	-35.2	19.3	0.00e+00	0	55	0	579862528	40	3957
2026-01-09 02:31:05.28	0.61	22.36	-34.0	-35.2	19.4	0.00e+00	0	55	0	585105408	39	4177
2026-01-09 02:31:06.29	0.49	22.49	-33.9	-35.1	19.5	0.00e+00	0	55	0	591396864	39	4127
2026-01-09 02:31:07.30	0.37	22.62	-33.8	-35.0	19.6	0.00e+00	0	55	0	596639744	39	4094
2026-01-09 02:31:08.31	0.25	22.75	-33.8	-35.0	19.7	0.00e+00	0	55	0	601882624	39	4054
2026-01-09 02:31:09.32	0.13	22.88	-33.7	-34.9	19.7	0.00e+00	0	56	0	608174080	39	4033
2026-01-09 02:31:10.32	0.01	23.02	-33.8	-35.0	19.6	0.00e+00	0	55	0	613416960	39	4069
2026-01-09 02:31:11.33	359.88	23.15	-33.8	-35.0	19.6	0.00e+00	0	55	0	619708416	39	4057
2026-01-09 02:31:12.34	359.76	23.28	-33.8	-35.0	19.7	0.00e+00	0	55	0	624951296	39	4072
2026-01-09 02:31:13.35	359.63	23.42	-33.8	-35.0	19.6	0.00e+00	0	56	0	631242752	39	4078
2026-01-09 02:31:14.36	359.51	23.55	-33.9	-35.1	19.6	0.00e+00	0	56	0	636485632	39	4108
2026-01-09 02:31:15.37	359.38	23.69	-33.9	-35.1	19.6	0.00e+00	0	56	0	642777088	39	4113
2026-01-09 02:31:16.38	359.25	23.82	-33.9	-35.1	19.6	0.00e+00	0	56	0	648019968	39	4122
2026-01-09 02:31:17.39	359.12	23.96	-33.9	-35.1	19.5	0.00e+00	0	56	0	653262848	39	4132
2026-01-09 02:31:18.40	358.99	24.10	-33.9	-35.0	19.6	0.00e+00	0	56	0	659554304	39	4098
2026-01-09 02:31:19.41	358.85	24.24	-33.8	-35.0	19.6	0.00e+00	0	56	0	664797184	39	4094
2026-01-09 02:31:20.41	358.72	24.37	-33.8	-35.0	19.6	0.00e+00	0	56	0	670040064	39	4076
2026-01-09 02:31:21.42	358.59	24.51	-33.6	-34.8	19.8	0.00e+00	0	56	0	676331520	39	3988
2026-01-09 02:31:22.44	358.45	24.65	-33.5	-34.7	20.0	0.00e+00	0	56	0	681574400	39	3931
2026-01-09 02:31:23.45	358.31	24.79	-33.5	-34.6	20.0	0.00e+00	0	56	0	687865856	38	4145
2026-01-09 02:31:24.45	358.17	24.93	-33.5	-34.6	20.1	0.00e+00	0	56	0	693108736	38	4134
2026-01-09 02:31:25.46	358.03	25.07	-33.5	-34.6	20.0	0.00e+00	0	56	0	698351616	38	4141
2026-01-09 02:31:26.48	357.89	25.22	-33.5	-34.7	20.0	0.00e+00	0	56	0	704643072	38	4164
2026-01-09 02:31:27.48	357.75	25.36	-33.6	-34.8	19.9	0.00e+00	0	56	0	709885952	38	4200
2026-01-09 02:31:28.49	357.60	25.50	-33.7	-34.9	19.8	0.00e+00	0	56	0	716177408	38	4252
2026-01-09 02:31:29.50	357.46	25.65	-33.7	-34.9	19.8	0.00e+00	0	56	0	721420288	38	4253
2026-01-09 02:31:30.51	357.31	25.79	-33.7	-34.9	19.8	0.00e+00	0	56	0	727711744	38	4258
2026-01-09 02:31:31.52	357.16	25.93	-33.7	-34.9	19.8	0.00e+00	0	56	0	732954624	38	4274
2026-01-09 02:31:32.53	357.02	26.08	-33.7	-34.9	19.8	0.00e+00	0	56	0	739246080	38	4259
2026-01-09 02:31:33.54	356.86	26.23	-33.6	-34.8	19.9	0.00e+00	0	56	0	744488960	38	4233
2026-01-09 02:31:34.55	356.71	26.37	-33.6	-34.8	19.9	0.00e+00	0	56	0	749731840	38	4210
2026-01-09 02:31:35.57	356.56	26.52	-33.5	-34.6	20.0	0.00e+00	0	56	0	756023296	38	4144
2026-01-09 02:31:36.57	356.40	26.67	-33.4	-34.6	20.1	0.00e+00	0	56	0	761266176	38	4121
2026-01-09 02:31:37.58	356.25	26.81	-33.4	-34.5	20.2	0.00e+00	0	56	0	767557632	38	4084
2026-01-09 02:31:38.60	356.09	26.97	-33.2	-34.4	20.3	0.00e+00	0	56	0	772800512	38	4008
2026-01-09 02:31:39.60	355.93	27.11	-33.2	-34.3	20.4	0.00e+00	0	56	0	778043392	38	3995
2026-01-09 02:31:40.61	355.77	27.26	-33.3	-34.4	20.3	0.00e+00	0	56	0	784334848	38	4028
2026-01-09 02:31:41.62	355.60	27.41	-33.3	-34.4	20.3	0.00e+00	0	56	0	789577728	38	4044
2026-01-09 02:31:42.64	355.44	27.57	-33.4	-34.6	20.1	0.00e+00	0	56	0	795869184	38	4107
2026-01-09 02:31:43.64	355.27	27.72	-33.5	-34.7	20.1	0.00e+00	0	56	0	801112064	38	4169
2026-01-09 02:31:44.65	355.11	27.87	-33.6	-34.7	20.0	0.00e+00	0	56	0	806354944	38	4180
2026-01-09 02:31:45.67	354.93	28.02	-33.6	-34.7	20.0	0.00e+00	0	56	0	812646400	38	4191
2026-01-09 02:31:46.68	354.76	28.18	-33.6	-34.7	20.0	0.00e+00	0	56	0	817889280	38	4186
2026-01-09 02:31:47.68	354.59	28.33	-33.6	-34.7	20.0	0.00e+00	0	56	0	824180736	38	4174
2026-01-09 02:31:48.69	354.42	28.48	-33.5	-34.6	20.1	0.00e+00	0	56	0	829423616	38	4133
2026-01-09 02:31:49.71	354.24	28.64	-33.4	-34.5	20.2	0.00e+00	0	56	0	835715072	38	4097
2026-01-09 02:31:50.72	354.06	28.79	-33.3	-34.5	20.3	0.00e+00	0	56	0	840957952	38	4061
2026-01-09 02:31:51.72	353.88	28.95	-33.3	-34.4	20.3	0.00e+00	0	56	0	847249408	38	4033
2026-01-09 02:31:52.73	353.70	29.11	-33.2	-34.3	20.4	0.00e+00	0	56	0	852492288	38	3985
2026-01-09 02:31:53.74	353.52	29.26	-33.1	-34.3	20.5	0.00e+00	0	56	0	857735168	38	3975
2026-01-09 02:31:54.75	353.34	29.42	-33.1	-34.3	20.4	0.00e+00	0	56	0	864026624	38	3969
2026-01-09 02:31:55.76	353.15	29.58	-33.1	-34.2	20.5	0.00e+00	0	56	0	869269504	38	3957
2026-01-09 02:31:56.77	352.96	29.74	-33.2	-34.3	20.4	0.00e+00	0	56	0	875560960	38	3993
2026-01-09 02:31:57.78	352.77	29.90	-33.4	-34.5	20.3	0.00e+00	0	56	0	880803840	38	4087
2026-01-09 02:31:58.79	352.58	30.06	-33.4	-34.6	20.2	0.00e+00	0	56	0	886046720	38	4120
2026-01-09 02:31:59.80	352.38	30.22	-33.5	-34.7	20.1	0.00e+00	0	56	0	892338176	38	4146
2026-01-09 02:32:00.81	352.19	30.38	-33.5	-34.7	20.1	0.00e+00	0	56	0	897581056	38	4175
2026-01-09 02:32:01.81	351.99	30.54	-33.6	-34.7	20.0	0.00e+00	0	56	0	902823936	38	4192
2026-01-09 02:32:02.82	351.79	30.70	-33.6	-34.7	20.0	0.00e+00	0	56	0	909115392	38	4189
2026-01-09 02:32:03.84	351.58	30.86	-33.6	-34.7	20.1	0.00e+00	0	56	0	914358272	38	4186
2026-01-09 02:32:04.85	351.38	31.03	-33.5	-34.6	20.2	0.00e+00	0	56	0	920649728	38	4123
2026-01-09 02:32:05.86	351.17	31.19	-33.2	-34.4	20.4	0.00e+00	0	56	0	925892608	38	4010
2026-01-09 02:32:06.87	350.96	31.35	-33.0	-34.1	20.6	0.00e+00	0	56	0	932184064	38	3910
2026-01-09 02:32:07.88	350.75	31.52	-33.0	-34.1	20.6	0.00e+00	0	56	0	937426944	38	3897
2026-01-09 02:32:08.88	350.54	31.68	-33.1	-34.2	20.6	0.00e+00	0	56	0	943718400	37	4151
2026-01-09 02:32:09.89	350.33	31.85	-33.1	-34.3	20.5	0.00e+00	0	56	0	948961280	37	4203
2026-01-09 02:32:10.90	350.11	32.01	-33.2	-34.3	20.5	0.00e+00	0	56	0	954204160	37	4205
2026-01-09 02:32:11.91	349.89	32.18	-33.2	-34.3	20.5	0.00e+00	0	56	0	960495616	37	4210
2026-01-09 02:32:12.92	349.66	32.35	-33.2	-34.3	20.5	0.00e+00	0	56	0	965738496	37	4227
2026-01-09 02:32:13.93	349.44	32.51	-33.1	-34.2	20.6	0.00e+00	0	56	0	972029952	37	4185
2026-01-09 02:32:14.94	349.21	32.68	-33.1	-34.2	20.6	0.00e+00	0	56	0	977272832	37	4164
2026-01-09 02:32:15.95	348.98	32.85	-32.9	-34.0	20.7	0.00e+00	0	56	0	982515712	37	4090
2026-01-09 02:32:16.96	348.75	33.02	-32.8	-33.9	20.9	0.00e+00	0	56	0	988807168	37	4009
2026-01-09 02:32:17.97	348.52	33.19	-32.7	-33.8	21.0	0.00e+00	0	56	0	994050048	37	3963
2026-01-09 02:32:18.97	348.28	33.36	-32.6	-33.7	21.0	0.00e+00	0	56	0	1000341504	37	3954
2026-01-09 02:32:19.98	348.04	33.52	-32.7	-33.8	21.0	0.00e+00	0	56	0	1005584384	37	3990
2026-01-09 02:32:20.99	347.80	33.69	-32.8	-33.9	20.9	0.00e+00	0	56	0	1010827264	37	4044
2026-01-09 02:32:22.00	347.56	33.87	-32.9	-34.0	20.8	0.00e+00	0	56	0	1017118720	37	4083
2026-01-09 02:32:23.01	347.31	34.04	-33.0	-34.1	20.7	0.00e+00	0	56	0	1022361600	37	4108
2026-01-09 02:32:24.02	347.06	34.21	-32.9	-34.0	20.8	0.00e+00	0	56	0	1028653056	37	4062
2026-01-09 02:32:25.03	346.81	34.38	-32.9	-34.0	20.8	0.00e+00	0	56	0	1033895936	37	4052
2026-01-09 02:32:26.04	346.55	34.55	-32.9	-34.0	20.8	0.00e+00	0	56	0	1040187392	37	4076
2026-01-09 02:32:27.05	346.30	34.72	-33.0	-34.1	20.7	0.00e+00	0	56	0	1045430272	37	4134
2026-01-09 02:32:28.06	346.04	34.89	-33.3	-34.4	20.4	0.00e+00	0	56	0	1050673152	37	4267
2026-01-09 02:32:29.07	345.77	35.07	-33.3	-34.5	20.3	0.00e+00	0	56	0	1056964608	37	4311
2026-01-09 02:32:30.08	345.51	35.24	-33.2	-34.4	20.5	0.00e+00	0	56	0	1062207488	37	4245
2026-01-09 02:32:31.09	345.24	35.41	-33.1	-34.3	20.6	0.00e+00	0	56	0	1068498944	37	4196
2026-01-09 02:32:32.10	344.96	35.59	-33.0	-34.1	20.7	0.00e+00	0	56	0	1073741824	37	4121
2026-01-09 02:32:33.11	344.69	35.76	-33.0	-34.1	20.7	0.00e+00	0	56	0	1078984704	37	4130
2026-01-09 02:32:34.12	344.41	35.93	-32.9	-34.0	20.8	0.00e+00	0	56	0	1085276160	37	4078
2026-01-09 02:32:35.13	344.13	36.11	-32.8	-33.9	20.9	0.00e+00	0	56	0	1090519040	37	4030
2026-01-09 02:32:36.14	343.85	36.28	-32.7	-33.8	21.0	0.00e+00	0	56	0	1096810496	37	3981
2026-01-09 02:32:37.14	343.56	36.45	-32.7	-33.8	21.0	0.00e+00	0	56	0	1102053376	37	3966
2026-01-09 02:32:38.15	343.27	36.63	-32.8	-33.9	21.0	0.00e+00	0	56	0	1107296256	37	4022
2026-01-09 02:32:39.16	342.98	36.80	-32.9	-34.0	20.8	0.00e+00	0	56	0	1113587712	37	4077
2026-01-09 02:32:40.17	342.68	36.98	-32.9	-34.0	20.8	0.00e+00	0	56	0	1118830592	37	4088
2026-01-09 02:32:41.19	342.38	37.15	-32.9	-34.0	20.8	0.00e+00	0	56	0	1125122048	37	4078
2026-01-09 02:32:42.19	342.08	37.32	-33.0	-34.0	20.8	0.00e+00	0	56	0	1130364928	37	4097
2026-01-09 02:32:43.20	341.77	37.50	-33.0	-34.1	20.8	0.00e+00	0	56	0	1136656384	37	4130
2026-01-09 02:32:44.21	341.46	37.67	-33.0	-34.2	20.7	0.00e+00	0	56	0	1141899264	37	4152
2026-01-09 02:32:45.22	341.15	37.85	-33.0	-34.1	20.7	0.00e+00	0	56	0	1148190720	37	4117
2026-01-09 02:32:46.23	340.83	38.02	-32.8	-33.9	20.9	0.00e+00	0	56	0	1153433600	37	4036
2026-01-09 02:32:47.24	340.51	38.19	-32.7	-33.8	21.0	0.00e+00	0	56	0	1158676480	37	3984
2026-01-09 02:32:48.25	340.19	38.37	-32.7	-33.8	21.1	0.00e+00	0	56	0	1164967936	37	3973
2026-01-09 02:32:49.26	339.86	38.54	-32.7	-33.8	21.0	0.00e+00	0	56	0	1170210816	37	3994
2026-01-09 02:32:50.27	339.53	38.72	-32.7	-33.8	21.1	0.00e+00	0	56	0	1176502272	37	3980
2026-01-09 02:32:51.28	339.20	38.89	-32.6	-33.7	21.1	0.00e+00	0	56	0	1181745152	37	3942
2026-01-09 02:32:52.29	338.86	39.06	-32.7	-33.8	21.1	0.00e+00	0	56	0	1186988032	37	3965
2026-01-09 02:32:53.30	338.52	39.24	-32.8	-33.9	20.9	0.00e+00	0	56	0	1193279488	37	4017
2026-01-09 02:32:54.30	338.18	39.41	-32.9	-34.0	20.8	0.00e+00	0	56	0	1198522368	37	4089
2026-01-09 02:32:55.31	337.83	39.58	-33.0	-34.1	20.7	0.00e+00	0	56	0	1203765248	37	4140
2026-01-09 02:32:56.32	337.48	39.75	-33.1	-34.2	20.7	0.00e+00	0	56	0	1210056704	37	4164
2026-01-09 02:32:57.33	337.12	39.92	-33.1	-34.2	20.7	0.00e+00	0	56	0	1215299584	37	4161
2026-01-09 02:32:58.34	336.76	40.09	-33.0	-34.1	20.7	0.00e+00	0	56	0	1221591040	37	4132
2026-01-09 02:32:59.35	336.40	40.26	-33.0	-34.0	20.7	0.00e+00	0	56	0	1226833920	37	4097
2026-01-09 02:33:00.36	336.03	40.43	-33.0	-34.0	20.8	0.00e+00	0	56	0	1233125376	37	4094
2026-01-09 02:33:01.37	335.66	40.60	-33.0	-34.1	20.7	0.00e+00	0	56	0	1238368256	37	4130
2026-01-09 02:33:02.38	335.29	40.77	-33.1	-34.2	20.6	0.00e+00	0	56	0	1244659712	37	4169
2026-01-09 02:33:03.39	334.91	40.94	-33.2	-34.3	20.6	0.00e+00	0	56	0	1249902592	37	4209
2026-01-09 02:33:04.40	334.52	41.11	-33.2	-34.3	20.6	0.00e+00	0	56	0	1255145472	37	4207
2026-01-09 02:33:05.41	334.14	41.27	-33.2	-34.3	20.5	0.00e+00	0	56	0	1261436928	37	4222
2026-01-09 02:33:06.42	333.74	41.44	-33.2	-34.3	20.5	0.00e+00	0	56	0	1266679808	37	4217
2026-01-09 02:33:07.43	333.35	41.61	-33.1	-34.2	20.6	0.00e+00	0	56	0	1272971264	37	4161
2026-01-09 02:33:08.44	332.95	41.77	-32.9	-34.0	20.9	0.00e+00	0	56	0	1278214144	37	4064
2026-01-09 02:33:09.45	332.55	41.93	-32.8	-33.9	21.0	0.00e+00	0	56	0	1283457024	37	4014
2026-01-09 02:33:10.46	332.14	42.10	-32.8	-33.9	20.9	0.00e+00	0	56	0	1289748480	37	4006
2026-01-09 02:33:11.47	331.73	42.26	-32.8	-33.9	20.9	0.00e+00	0	56	0	1294991360	37	4033
2026-01-09 02:33:12.48	331.31	42.42	-32.8	-33.9	20.9	0.00e+00	0	56	0	1301282816	37	4042
2026-01-09 02:33:13.49	330.89	42.58	-32.8	-33.9	20.9	0.00e+00	0	56	0	1306525696	37	4040
2026-01-09 02:33:14.50	330.46	42.74	-32.9	-34.0	20.8	0.00e+00	0	56	0	1311768576	37	4068
2026-01-09 02:33:15.51	330.04	42.90	-32.9	-34.0	20.8	0.00e+00	0	56	0	1318060032	37	4081
2026-01-09 02:33:16.52	329.60	43.05	-32.8	-33.8	21.0	0.00e+00	0	57	0	1323302912	37	3996
2026-01-09 02:33:17.53	329.16	43.21	-32.7	-33.8	21.0	0.00e+00	0	56	0	1329594368	37	3977
2026-01-09 02:33:18.54	328.72	43.36	-32.9	-34.0	20.8	0.00e+00	0	57	0	1334837248	37	4087
2026-01-09 02:33:19.54	328.28	43.51	-33.0	-34.1	20.7	0.00e+00	0	56	0	1341128704	37	4140
2026-01-09 02:33:20.55	327.83	43.66	-32.9	-34.0	20.8	0.00e+00	0	57	0	1346371584	37	4073
2026-01-09 02:33:21.56	327.38	43.81	-32.8	-33.9	20.9	0.00e+00	0	56	0	1351614464	37	4024
2026-01-09 02:33:22.57	326.92	43.96	-32.7	-33.8	21.0	0.00e+00	0	56	0	1357905920	37	3988
2026-01-09 02:33:23.58	326.45	44.11	-32.7	-33.8	21.0	0.00e+00	0	56	0	1363148800	37	3994
2026-01-09 02:33:24.59	325.99	44.26	-32.8	-33.9	20.9	0.00e+00	0	56	0	1369440256	37	4020
2026-01-09 02:33:25.60	325.52	44.40	-32.8	-33.9	20.9	0.00e+00	0	56	0	1374683136	37	4038
2026-01-09 02:33:26.61	325.04	44.54	-32.8	-33.8	21.0	0.00e+00	0	56	0	1379926016	37	4004
2026-01-09 02:33:27.63	324.55	44.68	-32.5	-33.6	21.2	0.00e+00	0	56	0	1386217472	37	3878
2026-01-09 02:33:28.64	324.07	44.82	-32.5	-33.5	21.3	0.00e+00	0	56	0	1391460352	36	4082
2026-01-09 02:33:29.65	323.58	44.96	-32.5	-33.6	21.2	0.00e+00	0	56	0	1397751808	36	4120
2026-01-09 02:33:30.66	323.09	45.09	-32.6	-33.6	21.2	0.00e+00	0	56	0	1402994688	36	4140
2026-01-09 02:33:31.67	322.59	45.23	-32.6	-33.6	21.2	0.00e+00	0	56	0	1408237568	36	4144
2026-01-09 02:33:32.68	322.09	45.36	-32.6	-33.6	21.2	0.00e+00	0	56	0	1414529024	36	4140
2026-01-09 02:33:33.68	321.59	45.49	-32.6	-33.7	21.1	0.00e+00	0	56	0	1419771904	36	4168
2026-01-09 02:33:34.70	321.07	45.61	-32.8	-33.9	20.9	0.00e+00	0	56	0	1426063360	36	4271
2026-01-09 02:33:35.70	320.56	45.74	-33.1	-34.3	20.6	0.00e+00	0	56	0	1431306240	36	4456
2026-01-09 02:33:36.71	320.05	45.86	-33.3	-34.4	20.4	0.00e+00	0	56	0	1437597696	37	4279
2026-01-09 02:33:37.72	319.52	45.98	-33.1	-34.2	20.6	0.00e+00	0	56	0	1442840576	37	4181
2026-01-09 02:33:38.73	319.00	46.10	-32.9	-33.9	20.9	0.00e+00	0	56	0	1449132032	37	4040
2026-01-09 02:33:39.74	318.47	46.21	-32.8	-33.9	20.9	0.00e+00	0	56	0	1454374912	37	4035
2026-01-09 02:33:40.75	317.93	46.33	-33.2	-34.3	20.5	0.00e+00	0	56	0	1459617792	37	4233
2026-01-09 02:33:41.76	317.40	46.44	-33.4	-34.6	20.3	0.00e+00	0	56	0	1465909248	37	4367
2026-01-09 02:33:42.77	316.86	46.55	-33.3	-34.4	20.4	0.00e+00	0	56	0	1471152128	37	4273
2026-01-09 02:33:43.78	316.31	46.65	-33.2	-34.3	20.5	0.00e+00	0	56	0	1477443584	37	4220
2026-01-09 02:33:44.79	315.76	46.76	-33.3	-34.5	20.4	0.00e+00	0	56	0	1482686464	37	4305
2026-01-09 02:33:45.79	315.21	46.85	-33.4	-34.6	20.3	0.00e+00	0	56	0	1487929344	37	4352
2026-01-09 02:33:46.80	314.66	46.95	-33.3	-34.4	20.4	0.00e+00	0	57	0	1494220800	37	4269
2026-01-09 02:33:47.81	314.10	47.05	-33.1	-34.2	20.6	0.00e+00	0	56	0	1499463680	37	4177
2026-01-09 02:33:48.82	313.54	47.14	-33.0	-34.0	20.8	0.00e+00	0	56	0	1505755136	37	4097
2026-01-09 02:33:49.83	312.97	47.23	-32.9	-34.0	20.8	0.00e+00	0	56	0	1510998016	37	4091
2026-01-09 02:33:50.84	312.40	47.32	-33.1	-34.3	20.5	0.00e+00	0	56	0	1516240896	37	4201
2026-01-09 02:33:51.85	311.83	47.40	-33.4	-34.5	20.3	0.00e+00	0	56	0	1522532352	37	4315
2026-01-09 02:33:52.86	311.25	47.48	-33.5	-34.7	20.2	0.00e+00	0	57	0	1527775232	37	4398
2026-01-09 02:33:53.87	310.67	47.56	-33.5	-34.7	20.2	0.00e+00	0	56	0	1534066688	37	4399
2026-01-09 02:33:54.88	310.09	47.63	-33.5	-34.6	20.2	0.00e+00	0	56	0	1539309568	37	4372
2026-01-09 02:33:55.89	309.51	47.70	-33.4	-34.5	20.3	0.00e+00	0	56	0	1545601024	37	4320
2026-01-09 02:33:56.90	308.92	47.77	-33.3	-34.4	20.4	0.00e+00	0	56	0	1550843904	37	4274
2026-01-09 02:33:57.91	308.33	47.84	-33.4	-34.5	20.4	0.00e+00	0	56	0	1556086784	37	4310
2026-01-09 02:33:58.92	307.74	47.90	-33.5	-34.6	20.2	0.00e+00	0	56	0	1562378240	37	4378
2026-01-09 02:33:59.93	307.14	47.96	-33.3	-34.5	20.3	0.00e+00	0	56	0	1567621120	37	4299
2026-01-09 02:34:00.94	306.55	48.01	-33.3	-34.4	20.5	0.00e+00	0	57	0	1573912576	37	4250
2026-01-09 02:34:01.95	305.95	48.07	-33.4	-34.5	20.3	0.00e+00	0	56	0	1579155456	37	4313
2026-01-09 02:34:02.96	305.35	48.11	-33.4	-34.6	20.2	0.00e+00	0	56	0	1584398336	37	4357
2026-01-09 02:34:03.97	304.75	48.16	-33.2	-34.3	20.5	0.00e+00	0	57	0	1590689792	37	4217
2026-01-09 02:34:04.98	304.14	48.20	-33.0	-34.2	20.7	0.00e+00	0	56	0	1595932672	37	4147
2026-01-09 02:34:05.99	303.54	48.24	-33.1	-34.2	20.6	0.00e+00	0	56	0	1602224128	37	4184
2026-01-09 02:34:07.00	302.93	48.27	-33.1	-34.2	20.6	0.00e+00	0	56	0	1607467008	37	4169
2026-01-09 02:34:08.01	302.32	48.31	-33.1	-34.2	20.6	0.00e+00	0	56	0	1612709888	37	4184
2026-01-09 02:34:09.02	301.71	48.33	-33.3	-34.4	20.5	0.00e+00	0	56	0	1619001344	37	4257
2026-01-09 02:34:10.03	301.10	48.36	-33.3	-34.5	20.3	0.00e+00	0	56	0	1624244224	37	4299
2026-01-09 02:34:11.04	300.49	48.38	-33.1	-34.3	20.5	0.00e+00	0	56	0	1630535680	37	4200
2026-01-09 02:34:12.05	299.88	48.40	-33.0	-34.1	20.6	0.00e+00	0	57	0	1635778560	37	4136
2026-01-09 02:34:13.06	299.26	48.41	-33.2	-34.3	20.5	0.00e+00	0	57	0	1642070016	37	4224
2026-01-09 02:34:14.07	298.65	48.42	-33.2	-34.3	20.5	0.00e+00	0	57	0	1647312896	37	4214
2026-01-09 02:34:15.08	298.03	48.43	-33.1	-34.2	20.6	0.00e+00	0	56	0	1653604352	37	4180
2026-01-09 02:34:16.09	297.42	48.43	-33.4	-34.5	20.3	0.00e+00	0	57	0	1658847232	37	4315
2026-01-09 02:34:17.10	296.81	48.43	-33.3	-34.4	20.4	0.00e+00	0	56	0	1664090112	37	4269
2026-01-09 02:34:18.11	296.19	48.43	-33.1	-34.2	20.6	0.00e+00	0	56	0	1670381568	37	4178
2026-01-09 02:34:19.12	295.58	48.42	-33.2	-34.4	20.4	0.00e+00	0	56	0	1675624448	37	4259
2026-01-09 02:34:20.13	294.96	48.41	-33.2	-34.3	20.5	0.00e+00	0	56	0	1681915904	37	4224
2026-01-09 02:34:21.14	294.35	48.40	-32.9	-34.0	20.7	0.00e+00	0	57	0	1687158784	37	4084
2026-01-09 02:34:22.15	293.74	48.38	-32.9	-34.0	20.8	0.00e+00	0	56	0	1692401664	37	4071
2026-01-09 02:34:23.16	293.13	48.36	-33.2	-34.3	20.5	0.00e+00	0	57	0	1698693120	37	4206
2026-01-09 02:34:24.17	292.52	48.33	-33.4	-34.5	20.3	0.00e+00	0	57	0	1703936000	37	4313
2026-01-09 02:34:25.18	291.91	48.30	-33.5	-34.6	20.2	0.00e+00	0	57	0	1710227456	37	4376
2026-01-09 02:34:26.18	291.30	48.27	-33.3	-34.5	20.3	0.00e+00	0	56	0	1715470336	37	4298
2026-01-09 02:34:27.19	290.70	48.24	-33.3	-34.4	20.4	0.00e+00	0	56	0	1720713216	37	4291
2026-01-09 02:34:28.20	290.09	48.20	-33.1	-34.2	20.5	0.00e+00	0	57	0	1727004672	37	4188
2026-01-09 02:34:29.21	289.49	48.15	-33.2	-34.3	20.5	0.00e+00	0	56	0	1732247552	37	4197
2026-01-09 02:34:30.22	288.88	48.11	-33.2	-34.3	20.5	0.00e+00	0	56	0	1738539008	37	4222
2026-01-09 02:34:31.23	288.28	48.06	-33.0	-34.1	20.7	0.00e+00	0	57	0	1743781888	37	4117
2026-01-09 02:34:32.24	287.68	48.01	-32.8	-33.9	20.9	0.00e+00	0	57	0	1750073344	37	4028
2026-01-09 02:34:33.25	287.09	47.95	-32.8	-33.9	20.8	0.00e+00	0	57	0	1755316224	37	4042
2026-01-09 02:34:34.26	286.49	47.89	-32.8	-33.9	20.9	0.00e+00	0	57	0	1760559104	37	4038
2026-01-09 02:34:35.27	285.90	47.83	-32.9	-34.0	20.8	0.00e+00	0	57	0	1766850560	37	4061
2026-01-09 02:34:36.28	285.31	47.76	-33.0	-34.1	20.7	0.00e+00	0	57	0	1772093440	37	4114
2026-01-09 02:34:37.29	284.72	47.69	-33.2	-34.3	20.5	0.00e+00	0	57	0	1778384896	37	4218
2026-01-09 02:34:38.30	284.14	47.62	-33.0	-34.1	20.7	0.00e+00	0	57	0	1783627776	37	4125
2026-01-09 02:34:39.31	283.56	47.55	-32.8	-33.9	20.8	0.00e+00	0	57	0	1788870656	37	4030
2026-01-09 02:34:40.32	282.98	47.47	-32.9	-34.0	20.8	0.00e+00	0	56	0	1795162112	37	4071
2026-01-09 02:34:41.33	282.40	47.39	-33.1	-34.2	20.5	0.00e+00	0	57	0	1800404992	37	4184
2026-01-09 02:34:42.34	281.83	47.30	-33.2	-34.3	20.4	0.00e+00	0	56	0	1806696448	37	4224
2026-01-09 02:34:43.34	281.26	47.22	-33.2	-34.3	20.5	0.00e+00	0	57	0	1811939328	37	4235
2026-01-09 02:34:44.35	280.70	47.13	-33.1	-34.2	20.5	0.00e+00	0	57	0	1817182208	37	4181
2026-01-09 02:34:45.36	280.13	47.04	-33.1	-34.2	20.6	0.00e+00	0	57	0	1823473664	37	4157
2026-01-09 02:34:46.37	279.57	46.94	-33.1	-34.2	20.5	0.00e+00	0	57	0	1828716544	37	4174
2026-01-09 02:34:47.38	279.02	46.84	-32.9	-34.0	20.7	0.00e+00	0	56	0	1835008000	37	4085
2026-01-09 02:34:48.39	278.46	46.74	-32.8	-33.9	20.8	0.00e+00	0	57	0	1840250880	37	4043
2026-01-09 02:34:49.40	277.91	46.64	-32.7	-33.8	21.0	0.00e+00	0	57	0	1845493760	37	3967
2026-01-09 02:34:50.41	277.37	46.53	-32.6	-33.7	21.1	0.00e+00	0	56	0	1851785216	37	3916
2026-01-09 02:34:51.42	276.83	46.42	-32.5	-33.6	21.1	0.00e+00	0	57	0	1857028096	37	3889
2026-01-09 02:34:52.43	276.29	46.31	-32.5	-33.6	21.2	0.00e+00	0	57	0	1863319552	37	3875
2026-01-09 02:34:53.44	275.75	46.20	-32.6	-33.6	21.1	0.00e+00	0	57	0	1868562432	37	3907
2026-01-09 02:34:54.45	275.22	46.08	-32.8	-33.9	20.8	0.00e+00	0	57	0	1874853888	37	4040
2026-01-09 02:34:55.46	274.70	45.96	-32.9	-34.0	20.7	0.00e+00	0	57	0	1880096768	37	4098
2026-01-09 02:34:56.47	274.17	45.84	-32.9	-34.0	20.8	0.00e+00	0	57	0	1886388224	37	4052
2026-01-09 02:34:57.48	273.66	45.72	-32.9	-34.0	20.8	0.00e+00	0	57	0	1891631104	37	4080
2026-01-09 02:34:58.49	273.14	45.59	-33.0	-34.2	20.6	0.00e+00	0	57	0	1896873984	37	4150
2026-01-09 02:34:59.50	272.63	45.46	-33.0	-34.1	20.7	0.00e+00	0	57	0	1903165440	37	4113
2026-01-09 02:35:00.51	272.12	45.33	-32.7	-33.8	20.9	0.00e+00	0	57	0	1908408320	37	3996
2026-01-09 02:35:01.52	271.62	45.20	-32.6	-33.6	21.1	0.00e+00	0	57	0	1914699776	37	3903
2026-01-09 02:35:02.53	271.12	45.07	-32.4	-33.5	21.2	0.00e+00	0	56	0	1919942656	36	4071
2026-01-09 02:35:03.54	270.63	44.93	-32.4	-33.4	21.3	0.00e+00	0	57	0	1925185536	36	4051
2026-01-09 02:35:04.55	270.14	44.80	-32.4	-33.5	21.3	0.00e+00	0	57	0	1931476992	36	4054
2026-01-09 02:35:05.56	269.66	44.66	-32.3	-33.4	21.4	0.00e+00	0	57	0	1936719872	36	4009
2026-01-09 02:35:06.57	269.18	44.52	-32.3	-33.3	21.4	0.00e+00	0	57	0	1943011328	36	3985
2026-01-09 02:35:07.58	268.70	44.37	-32.4	-33.4	21.3	0.00e+00	0	57	0	1948254208	36	4040
2026-01-09 02:35:08.59	268.23	44.23	-32.5	-33.5	21.2	0.00e+00	0	57	0	1953497088	36	4082
2026-01-09 02:35:09.60	267.76	44.08	-32.5	-33.6	21.2	0.00e+00	0	57	0	1959788544	36	4124
2026-01-09 02:35:10.62	267.29	43.93	-32.6	-33.6	21.1	0.00e+00	0	57	0	1965031424	36	4137
2026-01-09 02:35:11.62	266.84	43.79	-32.6	-33.7	21.1	0.00e+00	0	57	0	1971322880	36	4153
2026-01-09 02:35:12.64	266.38	43.63	-32.6	-33.7	21.0	0.00e+00	0	57	0	1976565760	36	4183
2026-01-09 02:35:13.65	265.92	43.48	-32.6	-33.7	21.1	0.00e+00	0	57	0	1982857216	36	4163
2026-01-09 02:35:14.66	265.48	43.33	-32.5	-33.5	21.2	0.00e+00	0	57	0	1988100096	36	4081
2026-01-09 02:35:15.66	265.04	43.18	-32.3	-33.3	21.4	0.00e+00	0	57	0	1993342976	36	4002
2026-01-09 02:35:16.67	264.60	43.02	-32.2	-33.3	21.5	0.00e+00	0	57	0	1999634432	36	3962
2026-01-09 02:35:17.68	264.17	42.86	-32.2	-33.3	21.5	0.00e+00	0	57	0	2004877312	36	3974
2026-01-09 02:35:18.69	263.74	42.70	-32.2	-33.3	21.4	0.00e+00	0	57	0	2011168768	36	3979
2026-01-09 02:35:19.70	263.31	42.54	-32.1	-33.2	21.5	0.00e+00	0	57	0	2016411648	36	3926
2026-01-09 02:35:20.71	262.89	42.38	-32.1	-33.1	21.6	0.00e+00	0	57	0	2021654528	36	3892
2026-01-09 02:35:21.72	262.48	42.22	-32.3	-33.3	21.4	0.00e+00	0	57	0	2027945984	36	3983
2026-01-09 02:35:22.74	262.06	42.06	-32.4	-33.5	21.3	0.00e+00	0	57	0	2033188864	36	4055
2026-01-09 02:35:23.75	261.65	41.89	-32.3	-33.4	21.3	0.00e+00	0	57	0	2039480320	36	4013
2026-01-09 02:35:24.76	261.25	41.73	-32.2	-33.2	21.5	0.00e+00	0	57	0	2044723200	36	3950
2026-01-09 02:35:25.77	260.85	41.56	-32.1	-33.1	21.6	0.00e+00	0	57	0	2049966080	36	3898
2026-01-09 02:35:26.77	260.45	41.40	-32.1	-33.1	21.6	0.00e+00	0	57	0	2056257536	36	3901
2026-01-09 02:35:27.78	260.06	41.23	-32.2	-33.2	21.5	0.00e+00	0	57	0	2061500416	36	3952
2026-01-09 02:35:28.79	259.67	41.06	-32.2	-33.2	21.5	0.00e+00	0	57	0	2067791872	36	3942
2026-01-09 02:35:29.80	259.29	40.90	-32.2	-33.2	21.5	0.00e+00	0	57	0	2073034752	36	3948
2026-01-09 02:35:30.81	258.91	40.73	-32.3	-33.4	21.3	0.00e+00	0	57	0	2079326208	36	4020
2026-01-09 02:35:31.82	258.53	40.56	-32.5	-33.6	21.2	0.00e+00	0	57	0	2084569088	36	4102
2026-01-09 02:35:32.83	258.16	40.39	-32.6	-33.7	21.0	0.00e+00	0	57	0	2090860544	36	4173
2026-01-09 02:35:33.84	257.79	40.22	-32.7	-33.8	21.0	0.00e+00	0	57	0	2096103424	36	4204
2026-01-09 02:35:34.85	257.43	40.05	-32.8	-33.9	20.9	0.00e+00	0	57	0	2101346304	36	4268
2026-01-09 02:35:35.86	257.07	39.87	-32.7	-33.8	20.9	0.00e+00	0	57	0	2107637760	36	4239
2026-01-09 02:35:36.87	256.71	39.70	-32.5	-33.6	21.1	0.00e+00	0	57	0	2112880640	36	4127
2026-01-09 02:35:37.88	256.36	39.53	-32.5	-33.5	21.2	0.00e+00	0	57	0	2119172096	36	4092
2026-01-09 02:35:38.89	256.01	39.36	-32.4	-33.5	21.2	0.00e+00	0	57	0	2124414976	36	4066
2026-01-09 02:35:39.90	255.66	39.18	-32.4	-33.5	21.2	0.00e+00	0	57	0	2129657856	36	4073
2026-01-09 02:35:40.91	255.32	39.01	-32.5	-33.6	21.1	0.00e+00	0	57	0	2135949312	36	4113
2026-01-09 02:35:41.92	254.99	38.84	-32.5	-33.6	21.2	0.00e+00	0	57	0	2141192192	36	4109
2026-01-09 02:35:42.93	254.65	38.66	-32.6	-33.7	21.1	0.00e+00	0	57	0	2147483648	36	4149
2026-01-09 02:35:43.94	254.32	38.49	-32.6	-33.7	21.1	0.00e+00	0	57	0	2152726528	36	4147
2026-01-09 02:35:44.95	253.99	38.31	-32.5	-33.6	21.1	0.00e+00	0	57	0	2157969408	36	4114
2026-01-09 02:35:45.96	253.67	38.14	-32.5	-33.5	21.2	0.00e+00	0	56	0	2164260864	36	4092
2026-01-09 02:35:46.97	253.35	37.96	-32.4	-33.5	21.2	0.00e+00	0	57	0	2169503744	36	4071
2026-01-09 02:35:47.97	253.03	37.79	-32.5	-33.6	21.1	0.00e+00	0	57	0	2175795200	36	4107
2026-01-09 02:35:48.98	252.72	37.61	-32.5	-33.6	21.2	0.00e+00	0	57	0	2181038080	36	4107
2026-01-09 02:35:49.99	252.41	37.44	-32.5	-33.5	21.2	0.00e+00	0	57	0	2187329536	36	4092
2026-01-09 02:35:51.00	252.10	37.26	-32.4	-33.4	21.3	0.00e+00	0	57	0	2192572416	36	4043
2026-01-09 02:35:52.01	251.80	37.09	-32.2	-33.3	21.4	0.00e+00	0	57	0	2197815296	36	3964
2026-01-09 02:35:53.02	251.50	36.91	-32.1	-33.2	21.5	0.00e+00	0	57	0	2204106752	36	3923
2026-01-09 02:35:54.03	251.20	36.74	-32.2	-33.2	21.5	0.00e+00	0	57	0	2209349632	36	3953
2026-01-09 02:35:55.04	250.91	36.56	-32.2	-33.3	21.4	0.00e+00	0	57	0	2215641088	36	3981
2026-01-09 02:35:56.05	250.62	36.39	-32.3	-33.4	21.3	0.00e+00	0	57	0	2220883968	36	4011
2026-01-09 02:35:57.06	250.33	36.22	-32.2	-33.3	21.4	0.00e+00	0	57	0	2226126848	36	3969
2026-01-09 02:35:58.07	250.05	36.04	-32.1	-33.2	21.5	0.00e+00	0	57	0	2232418304	36	3933
2026-01-09 02:35:59.08	249.76	35.87	-32.1	-33.2	21.5	0.00e+00	0	57	0	2237661184	36	3921
2026-01-09 02:36:00.09	249.49	35.69	-32.1	-33.1	21.6	0.00e+00	0	57	0	2243952640	36	3904
2026-01-09 02:36:01.10	249.21	35.52	-32.1	-33.1	21.5	0.00e+00	0	57	0	2249195520	36	3903
2026-01-09 02:36:02.10	248.94	35.35	-32.2	-33.2	21.5	0.00e+00	0	57	0	2254438400	36	3942
2026-01-09 02:36:03.11	248.67	35.17	-32.3	-33.3	21.4	0.00e+00	0	57	0	2260729856	36	3995
2026-01-09 02:36:04.12	248.40	35.00	-32.4	-33.5	21.2	0.00e+00	0	57	0	2265972736	36	4068
2026-01-09 02:36:05.13	248.14	34.82	-32.4	-33.5	21.2	0.00e+00	0	57	0	2272264192	36	4084
2026-01-09 02:36:06.14	247.88	34.65	-32.4	-33.5	21.2	0.00e+00	0	57	0	2277507072	36	4067
2026-01-09 02:36:07.15	247.62	34.48	-32.3	-33.4	21.3	0.00e+00	0	57	0	2283798528	36	4013
2026-01-09 02:36:08.16	247.37	34.31	-32.2	-33.3	21.4	0.00e+00	0	57	0	2289041408	36	3974
2026-01-09 02:36:09.17	247.11	34.13	-32.3	-33.4	21.3	0.00e+00	0	57	0	2295332864	36	4028
2026-01-09 02:36:10.18	246.86	33.96	-32.4	-33.4	21.3	0.00e+00	0	57	0	2300575744	36	4034
2026-01-09 02:36:11.19	246.61	33.79	-32.4	-33.4	21.3	0.00e+00	0	57	0	2305818624	36	4029
2026-01-09 02:36:12.20	246.37	33.62	-32.3	-33.4	21.3	0.00e+00	0	57	0	2312110080	36	4023
2026-01-09 02:36:13.21	246.13	33.45	-32.3	-33.4	21.3	0.00e+00	0	57	0	2317352960	36	4005
2026-01-09 02:36:14.22	245.89	33.28	-32.3	-33.4	21.3	0.00e+00	0	57	0	2323644416	36	4015
2026-01-09 02:36:15.23	245.65	33.11	-32.4	-33.5	21.2	0.00e+00	0	57	0	2328887296	36	4061
2026-01-09 02:36:16.24	245.41	32.94	-32.4	-33.5	21.2	0.00e+00	0	57	0	2334130176	36	4066
2026-01-09 02:36:17.25	245.18	32.77	-32.4	-33.5	21.2	0.00e+00	0	57	0	2340421632	36	4084
2026-01-09 02:36:18.27	244.95	32.60	-32.4	-33.4	21.3	0.00e+00	0	57	0	2345664512	36	4044
2026-01-09 02:36:19.28	244.72	32.43	-32.3	-33.4	21.3	0.00e+00	0	57	0	2351955968	36	4013
2026-01-09 02:36:20.29	244.50	32.26	-32.3	-33.4	21.3	0.00e+00	0	57	0	2357198848	36	4008
2026-01-09 02:36:21.29	244.28	32.10	-32.3	-33.3	21.3	0.00e+00	0	57	0	2362441728	36	4004
2026-01-09 02:36:22.30	244.06	31.93	-32.4	-33.4	21.3	0.00e+00	0	57	0	2368733184	36	4034
2026-01-09 02:36:23.31	243.84	31.76	-32.4	-33.5	21.2	0.00e+00	0	57	0	2373976064	36	4072
2026-01-09 02:36:24.32	243.62	31.60	-32.5	-33.6	21.1	0.00e+00	0	57	0	2380267520	36	4106
2026-01-09 02:36:25.33	243.41	31.43	-32.5	-33.6	21.1	0.00e+00	0	57	0	2385510400	36	4115
2026-01-09 02:36:26.34	243.20	31.27	-32.5	-33.6	21.1	0.00e+00	0	57	0	2391801856	36	4119
2026-01-09 02:36:27.35	242.99	31.10	-32.4	-33.5	21.2	0.00e+00	0	57	0	2397044736	36	4080
2026-01-09 02:36:28.36	242.78	30.94	-32.4	-33.5	21.2	0.00e+00	0	57	0	2402287616	36	4054
2026-01-09 02:36:29.37	242.57	30.78	-32.3	-33.4	21.2	0.00e+00	0	57	0	2408579072	36	4030
2026-01-09 02:36:30.38	242.37	30.61	-32.4	-33.4	21.3	0.00e+00	0	57	0	2413821952	36	4038
2026-01-09 02:36:31.39	242.17	30.45	-32.4	-33.4	21.2	0.00e+00	0	57	0	2420113408	36	4047
2026-01-09 02:36:32.40	241.97	30.29	-32.4	-33.5	21.1	0.00e+00	0	57	0	2425356288	36	4080
2026-01-09 02:36:33.41	241.77	30.13	-32.5	-33.6	21.1	0.00e+00	0	57	0	2430599168	36	4101
2026-01-09 02:36:34.42	241.58	29.96	-32.4	-33.5	21.2	0.00e+00	0	57	0	2436890624	36	4088
2026-01-09 02:36:35.43	241.38	29.80	-32.4	-33.5	21.2	0.00e+00	0	57	0	2442133504	36	4075
2026-01-09 02:36:36.44	241.19	29.64	-32.4	-33.5	21.1	0.00e+00	0	57	0	2448424960	36	4080
2026-01-09 02:36:37.45	241.00	29.48	-32.5	-33.5	21.1	0.00e+00	0	57	0	2453667840	36	4092
2026-01-09 02:36:38.46	240.82	29.33	-32.6	-33.6	21.0	0.00e+00	0	57	0	2458910720	36	4143
2026-01-09 02:36:39.47	240.63	29.17	-32.7	-33.8	20.9	0.00e+00	0	57	0	2465202176	36	4209
2026-01-09 02:36:40.48	240.45	29.01	-32.9	-34.0	20.7	0.00e+00	0	57	0	2470445056	36	4300
2026-01-09 02:36:41.49	240.27	28.85	-33.0	-34.1	20.6	0.00e+00	0	57	0	2476736512	36	4365
2026-01-09 02:36:42.50	240.09	28.70	-33.0	-34.1	20.5	0.00e+00	0	57	0	2481979392	36	4388
2026-01-09 02:36:43.50	239.91	28.54	-33.0	-34.2	20.5	0.00e+00	0	57	0	2488270848	36	4399
2026-01-09 02:36:44.52	239.73	28.38	-33.0	-34.2	20.5	0.00e+00	0	57	0	2493513728	36	4394
2026-01-09 02:36:45.53	239.56	28.23	-33.0	-34.1	20.5	0.00e+00	0	57	0	2499805184	36	4388
2026-01-09 02:36:46.54	239.38	28.07	-33.0	-34.1	20.5	0.00e+00	0	57	0	2505048064	36	4391
2026-01-09 02:36:47.54	239.21	27.92	-33.0	-34.1	20.5	0.00e+00	0	57	0	2510290944	36	4381
2026-01-09 02:36:48.55	239.04	27.77	-33.0	-34.1	20.6	0.00e+00	0	57	0	2516582400	36	4369
2026-01-09 02:36:49.56	238.87	27.62	-33.0	-34.1	20.6	0.00e+00	0	57	0	2521825280	36	4374
2026-01-09 02:36:50.57	238.71	27.46	-32.9	-34.0	20.6	0.00e+00	0	57	0	2528116736	36	4335
2026-01-09 02:36:51.58	238.54	27.31	-32.9	-34.0	20.7	0.00e+00	0	57	0	2533359616	36	4315
2026-01-09 02:36:52.59	238.38	27.16	-32.9	-34.0	20.7	0.00e+00	0	57	0	2538602496	36	4293
2026-01-09 02:36:53.60	238.22	27.01	-32.8	-33.9	20.7	0.00e+00	0	57	0	2544893952	36	4287
2026-01-09 02:36:54.61	238.06	26.86	-32.9	-34.0	20.7	0.00e+00	0	57	0	2550136832	36	4307
2026-01-09 02:36:55.62	237.90	26.71	-32.9	-34.0	20.6	0.00e+00	0	57	0	2555379712	36	4325
2026-01-09 02:36:56.62	237.74	26.56	-33.0	-34.1	20.6	0.00e+00	0	57	0	2561671168	36	4353
2026-01-09 02:36:57.63	237.59	26.42	-33.0	-34.2	20.5	0.00e+00	0	57	0	2566914048	36	4407
2026-01-09 02:36:58.64	237.43	26.27	-33.1	-34.2	20.4	0.00e+00	0	57	0	2573205504	36	4433
2026-01-09 02:36:59.65	237.28	26.12	-33.2	-34.3	20.4	0.00e+00	0	57	0	2578448384	36	4457
2026-01-09 02:37:00.66	237.13	25.97	-33.1	-34.3	20.4	0.00e+00	0	57	0	2584739840	36	4449
2026-01-09 02:37:01.67	236.98	25.83	-33.1	-34.3	20.4	0.00e+00	0	57	0	2589982720	36	4449
2026-01-09 02:37:02.68	236.83	25.68	-33.2	-34.3	20.4	0.00e+00	0	57	0	2596274176	36	4457
2026-01-09 02:37:03.69	236.68	25.54	-33.1	-34.2	20.4	0.00e+00	0	57	0	2601517056	36	4432
2026-01-09 02:37:04.70	236.54	25.39	-33.1	-34.2	20.4	0.00e+00	0	57	0	2606759936	36	4435
2026-01-09 02:37:05.71	236.39	25.25	-33.1	-34.2	20.4	0.00e+00	0	57	0	2613051392	36	4425
2026-01-09 02:37:06.72	236.25	25.11	-33.0	-34.1	20.5	0.00e+00	0	57	0	2618294272	36	4384
2026-01-09 02:37:07.73	236.11	24.97	-33.0	-34.1	20.6	0.00e+00	0	57	0	2624585728	36	4343
2026-01-09 02:37:08.74	235.96	24.82	-32.9	-34.0	20.7	0.00e+00	0	57	0	2629828608	36	4296
2026-01-09 02:37:09.75	235.82	24.68	-32.9	-34.0	20.6	0.00e+00	0	57	0	2635071488	36	4317
2026-01-09 02:37:10.76	235.69	24.54	-32.9	-34.0	20.7	0.00e+00	0	57	0	2641362944	36	4298
2026-01-09 02:37:11.77	235.55	24.40	-32.9	-34.0	20.6	0.00e+00	0	57	0	2646605824	36	4317
2026-01-09 02:37:12.78	235.41	24.26	-33.0	-34.1	20.5	0.00e+00	0	57	0	2652897280	36	4365
2026-01-09 02:37:13.77	235.28	24.13	-33.0	-34.1	20.5	0.00e+00	0	57	0	2658140160	36	4386
2026-01-09 02:37:14.78	235.15	23.99	-33.1	-34.2	20.5	0.00e+00	0	57	0	2663383040	36	4405
2026-01-09 02:37:15.79	235.02	23.85	-33.1	-34.3	20.4	0.00e+00	0	57	0	2669674496	36	4444
2026-01-09 02:37:16.80	234.89	23.71	-33.1	-34.2	20.4	0.00e+00	0	57	0	2674917376	36	4431
2026-01-09 02:37:17.81	234.76	23.58	-33.1	-34.2	20.4	0.00e+00	0	57	0	2681208832	36	4415
2026-01-09 02:37:18.82	234.63	23.44	-33.1	-34.2	20.4	0.00e+00	0	57	0	2686451712	36	4439
2026-01-09 02:37:19.83	234.50	23.30	-33.1	-34.2	20.4	0.00e+00	0	57	0	2692743168	36	4414
2026-01-09 02:37:20.84	234.37	23.17	-33.1	-34.2	20.5	0.00e+00	0	57	0	2697986048	36	4399
2026-01-09 02:37:21.85	234.25	23.03	-33.1	-34.2	20.4	0.00e+00	0	57	0	2703228928	36	4416
2026-01-09 02:37:22.86	234.12	22.90	-33.2	-34.3	20.3	0.00e+00	0	57	0	2709520384	36	4458
2026-01-09 02:37:23.87	234.00	22.77	-33.2	-34.3	20.3	0.00e+00	0	57	0	2714763264	36	4483
2026-01-09 02:37:24.88	233.88	22.63	-33.3	-34.4	20.2	0.00e+00	0	57	0	2721054720	37	4282
2026-01-09 02:37:25.89	233.76	22.50	-33.4	-34.5	20.1	0.00e+00	0	57	0	2726297600	37	4324
2026-01-09 02:37:26.90	233.64	22.37	-33.4	-34.5	20.1	0.00e+00	0	57	0	2731540480	37	4337
2026-01-09 02:37:27.91	233.52	22.24	-33.4	-34.6	20.0	0.00e+00	0	57	0	2737831936	37	4372
2026-01-09 02:37:28.92	233.40	22.11	-33.4	-34.6	20.0	0.00e+00	0	57	0	2743074816	37	4363
2026-01-09 02:37:29.93	233.28	21.98	-33.4	-34.6	20.0	0.00e+00	0	57	0	2749366272	37	4371
2026-01-09 02:37:30.94	233.17	21.85	-33.5	-34.6	20.0	0.00e+00	0	57	0	2754609152	37	4378
2026-01-09 02:37:31.95	233.05	21.72	-33.5	-34.6	20.0	0.00e+00	0	57	0	2759852032	37	4382
2026-01-09 02:37:32.96	232.94	21.59	-33.5	-34.6	20.0	0.00e+00	0	57	0	2766143488	37	4373
2026-01-09 02:37:33.97	232.83	21.46	-33.5	-34.6	20.0	0.00e+00	0	57	0	2771386368	37	4391
2026-01-09 02:37:34.98	232.71	21.33	-33.5	-34.7	19.9	0.00e+00	0	57	0	2777677824	37	4402
2026-01-09 02:37:35.99	232.60	21.21	-33.5	-34.7	19.9	0.00e+00	0	57	0	2782920704	37	4421
2026-01-09 02:37:37.00	232.49	21.08	-33.6	-34.7	19.9	0.00e+00	0	57	0	2789212160	37	4426
2026-01-09 02:37:38.01	232.38	20.96	-33.6	-34.8	19.8	0.00e+00	0	57	0	2794455040	37	4473
2026-01-09 02:37:39.02	232.27	20.83	-33.6	-34.8	19.8	0.00e+00	0	57	0	2800746496	37	4473
2026-01-09 02:37:40.03	232.17	20.70	-33.7	-34.8	19.7	0.00e+00	0	57	0	2805989376	37	4493
2026-01-09 02:37:41.04	232.06	20.58	-33.7	-34.9	19.7	0.00e+00	0	57	0	2811232256	37	4514
2026-01-09 02:37:42.05	231.95	20.46	-33.7	-34.9	19.7	0.00e+00	0	57	0	2817523712	38	4275
2026-01-09 02:37:43.06	231.85	20.33	-33.8	-35.0	19.6	0.00e+00	0	57	0	2822766592	38	4311
2026-01-09 02:37:44.07	231.75	20.21	-33.9	-35.0	19.5	0.00e+00	0	57	0	2829058048	38	4334
2026-01-09 02:37:45.08	231.64	20.09	-33.9	-35.1	19.5	0.00e+00	0	57	0	2834300928	38	4347
2026-01-09 02:37:46.08	231.54	19.97	-33.9	-35.1	19.6	0.00e+00	0	57	0	2839543808	38	4341
2026-01-09 02:37:47.09	231.44	19.85	-33.9	-35.1	19.5	0.00e+00	0	57	0	2845835264	38	4355
2026-01-09 02:37:48.10	231.34	19.73	-33.9	-35.1	19.5	0.00e+00	0	57	0	2851078144	38	4352
2026-01-09 02:37:49.11	231.24	19.60	-33.9	-35.1	19.5	0.00e+00	0	57	0	2857369600	38	4353
2026-01-09 02:37:50.12	231.14	19.48	-33.9	-35.1	19.5	0.00e+00	0	57	0	2862612480	38	4351
2026-01-09 02:37:51.13	231.04	19.37	-33.9	-35.1	19.5	0.00e+00	0	57	0	2867855360	38	4364
2026-01-09 02:37:52.14	230.94	19.25	-33.9	-35.1	19.5	0.00e+00	0	57	0	2874146816	38	4372
2026-01-09 02:37:53.15	230.85	19.13	-33.9	-35.1	19.5	0.00e+00	0	57	0	2879389696	38	4367
2026-01-09 02:37:54.16	230.75	19.01	-33.9	-35.1	19.5	0.00e+00	0	57	0	2885681152	38	4379
2026-01-09 02:37:55.17	230.66	18.89	-34.0	-35.2	19.4	0.00e+00	0	57	0	2890924032	38	4402
2026-01-09 02:37:56.17	230.56	18.78	-34.0	-35.2	19.4	0.00e+00	0	57	0	2897215488	38	4419
2026-01-09 02:37:57.18	230.47	18.66	-34.1	-35.3	19.3	0.00e+00	0	57	0	2902458368	38	4452
2026-01-09 02:37:58.19	230.38	18.54	-34.1	-35.3	19.2	0.00e+00	0	57	0	2907701248	38	4491
2026-01-09 02:37:59.20	230.28	18.43	-34.2	-35.4	19.1	0.00e+00	0	57	0	2913992704	38	4545
2026-01-09 02:38:00.21	230.19	18.31	-34.3	-35.5	19.1	0.00e+00	0	57	0	2919235584	39	4314
2026-01-09 02:38:01.22	230.10	18.20	-34.3	-35.6	19.0	0.00e+00	0	57	0	2925527040	39	4347
2026-01-09 02:38:02.23	230.01	18.08	-34.4	-35.6	19.0	0.00e+00	0	57	0	2930769920	39	4368
2026-01-09 02:38:03.24	229.92	17.97	-34.4	-35.7	18.9	0.00e+00	0	57	0	2936012800	39	4397
2026-01-09 02:38:04.25	229.83	17.86	-34.4	-35.7	18.9	0.00e+00	0	57	0	2942304256	39	4405
2026-01-09 02:38:05.25	229.75	17.74	-34.5	-35.7	18.8	0.00e+00	0	57	0	2947547136	39	4421
2026-01-09 02:38:06.26	229.66	17.63	-34.5	-35.7	18.8	0.00e+00	0	57	0	2953838592	39	4424
2026-01-09 02:38:07.27	229.57	17.52	-34.5	-35.7	18.8	0.00e+00	0	57	0	2959081472	39	4425
2026-01-09 02:38:08.29	229.48	17.41	-34.5	-35.8	18.8	0.00e+00	0	57	0	2964324352	39	4454
2026-01-09 02:38:09.30	229.40	17.30	-34.6	-35.8	18.7	0.00e+00	0	57	0	2970615808	39	4477
2026-01-09 02:38:10.30	229.31	17.19	-34.6	-35.9	18.7	0.00e+00	0	57	0	2975858688	39	4505
2026-01-09 02:38:11.31	229.23	17.08	-34.6	-35.9	18.6	0.00e+00	0	57	0	2982150144	39	4532
2026-01-09 02:38:12.32	229.15	16.97	-34.7	-36.0	18.5	0.00e+00	0	57	0	2987393024	39	4580
2026-01-09 02:38:13.33	229.06	16.86	-34.7	-36.0	18.5	0.00e+00	0	57	0	2993684480	40	4302
2026-01-09 02:38:14.34	228.98	16.75	-34.7	-36.0	18.5	0.00e+00	0	57	0	2998927360	40	4295
2026-01-09 02:38:15.35	228.90	16.64	-34.7	-36.0	18.4	0.00e+00	0	57	0	3004170240	40	4333
2026-01-09 02:38:16.36	228.82	16.53	-34.8	-36.1	18.3	0.00e+00	0	57	0	3010461696	40	4367
2026-01-09 02:38:17.37	228.74	16.42	-34.8	-36.1	18.3	0.00e+00	0	57	0	3015704576	40	4390
2026-01-09 02:38:18.38	228.66	16.32	-34.8	-36.1	18.3	0.00e+00	0	57	0	3021996032	40	4379
2026-01-09 02:38:19.39	228.58	16.21	-34.8	-36.1	18.3	0.00e+00	0	57	0	3027238912	40	4377
2026-01-09 02:38:20.40	228.50	16.10	-34.8	-36.1	18.3	0.00e+00	0	57	0	3032481792	40	4368
2026-01-09 02:38:21.41	228.42	16.00	-34.7	-36.0	18.4	0.00e+00	0	57	0	3038773248	40	4336
2026-01-09 02:38:22.42	228.34	15.89	-34.8	-36.1	18.3	0.00e+00	0	57	0	3044016128	40	4362
2026-01-09 02:38:23.43	228.27	15.79	-34.7	-36.0	18.4	0.00e+00	0	57	0	3050307584	40	4330
2026-01-09 02:38:24.44	228.19	15.68	-34.8	-36.1	18.3	0.00e+00	0	57	0	3055550464	40	4365
2026-01-09 02:38:25.45	228.12	15.58	-34.8	-36.1	18.3	0.00e+00	0	57	0	3060793344	40	4365
2026-01-09 02:38:26.46	228.04	15.47	-34.8	-36.1	18.3	0.00e+00	0	57	0	3067084800	40	4364
2026-01-09 02:38:27.47	227.97	15.37	-34.8	-36.1	18.3	0.00e+00	0	57	0	3072327680	40	4363
2026-01-09 02:38:28.48	227.89	15.27	-34.8	-36.1	18.3	0.00e+00	0	57	0	3078619136	40	4387
2026-01-09 02:38:29.49	227.82	15.16	-34.9	-36.2	18.2	0.00e+00	0	57	0	3083862016	40	4402
2026-01-09 02:38:30.50	227.74	15.06	-34.9	-36.2	18.1	0.00e+00	0	57	0	3090153472	40	4439
2026-01-09 02:38:31.50	227.67	14.96	-34.9	-36.3	18.1	0.00e+00	0	57	0	3095396352	40	4449
2026-01-09 02:38:32.51	227.60	14.86	-35.0	-36.3	18.1	0.00e+00	0	57	0	3101687808	40	4468
2026-01-09 02:38:33.52	227.53	14.76	-35.0	-36.3	18.1	0.00e+00	0	57	0	3106930688	40	4487
2026-01-09 02:38:34.53	227.46	14.66	-35.1	-36.4	18.0	0.00e+00	0	57	0	3112173568	40	4525
2026-01-09 02:38:35.54	227.39	14.55	-35.1	-36.5	17.9	0.00e+00	0	57	0	3118465024	40	4561
2026-01-09 02:38:36.55	227.32	14.45	-35.1	-36.5	17.9	0.00e+00	0	57	0	3123707904	40	4553
2026-01-09 02:38:37.56	227.25	14.35	-35.1	-36.5	17.9	0.00e+00	0	57	0	3129999360	40	4574
2026-01-09 02:38:38.57	227.18	14.26	-35.2	-36.5	17.8	0.00e+00	0	57	0	3135242240	40	4594
2026-01-09 02:38:39.58	227.11	14.16	-35.2	-36.6	17.8	0.00e+00	0	57	0	3140485120	41	4368
2026-01-09 02:38:40.59	227.04	14.06	-35.2	-36.5	17.8	0.00e+00	0	57	0	3146776576	41	4330
2026-01-09 02:38:41.60	226.97	13.96	-35.2	-36.5	17.8	0.00e+00	0	57	0	3152019456	41	4328
2026-01-09 02:38:42.61	226.90	13.86	-35.2	-36.6	17.8	0.00e+00	0	57	0	3158310912	41	4343
2026-01-09 02:38:43.62	226.84	13.76	-35.2	-36.6	17.7	0.00e+00	0	57	0	3163553792	41	4369
2026-01-09 02:38:44.63	226.77	13.67	-35.3	-36.6	17.7	0.00e+00	0	57	0	3168796672	41	4391
2026-01-09 02:38:45.64	226.70	13.57	-35.3	-36.7	17.7	0.00e+00	0	57	0	3175088128	41	4405
2026-01-09 02:38:46.65	226.64	13.47	-35.3	-36.6	17.7	0.00e+00	0	57	0	3180331008	41	4390
2026-01-09 02:38:47.66	226.57	13.38	-35.3	-36.7	17.6	0.00e+00	0	57	0	3186622464	41	4424
2026-01-09 02:38:48.67	226.51	13.28	-35.3	-36.7	17.6	0.00e+00	0	57	0	3191865344	41	4426
2026-01-09 02:38:49.68	226.44	13.18	-35.3	-36.7	17.6	0.00e+00	0	57	0	3198156800	41	4426
2026-01-09 02:38:50.69	226.38	13.09	-35.4	-36.8	17.5	0.00e+00	0	57	0	3203399680	41	4455
2026-01-09 02:38:51.70	226.32	12.99	-35.4	-36.8	17.5	0.00e+00	0	57	0	3208642560	41	4484
2026-01-09 02:38:52.71	226.25	12.90	-35.5	-37.0	17.3	0.00e+00	0	57	0	3214934016	41	4547
2026-01-09 02:38:53.72	226.19	12.80	-35.6	-37.0	17.3	0.00e+00	0	57	0	3220176896	41	4582
2026-01-09 02:38:54.73	226.13	12.71	-35.5	-36.9	17.3	0.00e+00	0	57	0	3226468352	41	4541
2026-01-09 02:38:55.74	226.07	12.62	-35.6	-37.0	17.3	0.00e+00	0	57	0	3231711232	41	4580
