passes_logs/2026/01/09/R2.0S_Moscow/R2.0S_Moscow__20260109_004657_FENGYUN_3D_rec.log

#Pass ID: 20260109_004657_FENGYUN 3D
#Satellite: FENGYUN 3D
#Configuration: FENGYUN 3D
#almurnet v.1.7.20251203
#Start time: 2026-01-09 00:46:59

#Version: 2.2.20231116
#Station: R2.0S_Moscow
#Location: 37.707566 lon 55.798166 lat
#TLE: 1 43010U 17072A   26008.51967461  .00000013  00000+0  27718-4 0  9992
#TLE: 2 43010  98.9935 340.2353 0002115 119.1573 240.9815 14.19693759422336

#Time	Az	El	Level	Level2	SNR	BER	BlckErr	Temp	State	Recorded	gain1	gain2
2026-01-09 00:46:59.72	21.78	2.12	-41.6	-53.6	3.8	8.46e-01	0	47	0	0	55	13844
2026-01-09 00:47:00.72	21.82	2.18	-41.5	-53.6	3.8	8.46e-01	0	47	104	0	53	15494
2026-01-09 00:47:01.73	21.87	2.25	-41.6	-53.6	3.8	8.46e-01	0	48	104	0	53	15482
2026-01-09 00:47:02.74	21.92	2.31	-41.5	-53.6	3.8	8.47e-01	0	48	104	0	53	15468
2026-01-09 00:47:03.75	21.97	2.37	-41.6	-53.6	3.8	8.46e-01	0	48	104	0	53	15509
2026-01-09 00:47:04.76	22.02	2.43	-41.5	-53.6	3.8	8.46e-01	0	48	104	0	53	15493
2026-01-09 00:47:05.77	22.07	2.49	-41.5	-53.6	3.8	8.47e-01	0	48	104	0	53	15446
2026-01-09 00:47:06.78	22.11	2.55	-41.5	-53.6	3.8	8.47e-01	0	48	104	0	53	15481
2026-01-09 00:47:07.79	22.16	2.61	-41.5	-53.6	3.8	8.46e-01	0	48	104	0	53	15424
2026-01-09 00:47:08.80	22.21	2.67	-41.5	-53.6	3.8	8.46e-01	0	48	104	0	53	15500
2026-01-09 00:47:09.82	22.26	2.74	-41.6	-53.6	3.8	8.45e-01	0	48	104	0	53	15484
2026-01-09 00:47:10.83	22.31	2.80	-41.5	-53.6	3.8	8.46e-01	0	48	104	0	53	15477
2026-01-09 00:47:11.84	22.36	2.86	-41.5	-53.6	3.8	8.46e-01	0	48	104	0	53	15450
2026-01-09 00:47:12.85	22.41	2.92	-41.5	-53.6	3.8	8.47e-01	0	49	104	0	53	15474
2026-01-09 00:47:13.86	22.46	2.99	-41.5	-53.6	3.8	8.46e-01	0	48	104	0	53	15441
2026-01-09 00:47:14.87	22.51	3.05	-41.5	-53.5	3.8	8.46e-01	0	49	104	0	53	15392
2026-01-09 00:47:15.88	22.56	3.11	-41.5	-53.6	3.8	8.46e-01	0	49	104	0	53	15457
2026-01-09 00:47:16.89	22.61	3.17	-41.5	-53.6	3.8	8.46e-01	0	49	104	0	53	15419
2026-01-09 00:47:17.91	22.67	3.24	-41.5	-53.6	3.8	8.46e-01	0	49	104	0	53	15459
2026-01-09 00:47:18.92	22.72	3.30	-41.5	-53.6	3.8	8.46e-01	0	49	104	0	53	15467
2026-01-09 00:47:19.93	22.77	3.36	-41.5	-53.6	3.8	8.46e-01	0	49	104	0	53	15442
2026-01-09 00:47:20.94	22.82	3.43	-41.5	-53.6	3.8	8.47e-01	0	49	104	0	53	15475
2026-01-09 00:47:21.95	22.87	3.49	-41.5	-53.6	3.8	8.46e-01	0	49	104	0	53	15482
2026-01-09 00:47:22.96	22.92	3.55	-41.5	-53.6	3.8	8.46e-01	0	49	104	0	53	15448
2026-01-09 00:47:23.97	22.98	3.62	-41.5	-53.5	3.8	8.46e-01	0	49	104	0	53	15401
2026-01-09 00:47:24.98	23.03	3.68	-41.5	-53.6	3.8	8.46e-01	0	49	104	0	53	15474
2026-01-09 00:47:25.99	23.08	3.74	-41.5	-53.5	3.8	8.47e-01	0	49	104	0	53	15396
2026-01-09 00:47:27.01	23.13	3.81	-41.5	-53.6	3.8	8.46e-01	0	49	104	0	53	15470
2026-01-09 00:47:28.02	23.19	3.87	-41.5	-53.6	3.8	8.46e-01	0	49	104	0	53	15460
2026-01-09 00:47:29.03	23.24	3.94	-41.5	-53.6	3.8	8.46e-01	0	50	104	0	53	15445
2026-01-09 00:47:30.04	23.29	4.00	-41.6	-53.6	3.8	8.46e-01	0	50	104	0	53	15457
2026-01-09 00:47:31.05	23.35	4.07	-41.6	-53.6	3.8	8.47e-01	0	50	104	0	53	15531
2026-01-09 00:47:32.06	23.40	4.13	-41.5	-53.6	3.8	8.46e-01	0	50	104	0	53	15502
2026-01-09 00:47:33.07	23.46	4.20	-41.6	-53.6	3.8	8.47e-01	0	50	104	0	53	15477
2026-01-09 00:47:34.08	23.51	4.26	-41.6	-53.6	3.8	8.44e-01	0	50	104	0	53	15489
2026-01-09 00:47:35.09	23.56	4.33	-41.5	-53.6	3.8	8.45e-01	0	50	104	0	53	15485
2026-01-09 00:47:36.10	23.62	4.39	-41.5	-53.6	3.8	8.47e-01	0	50	104	0	53	15480
2026-01-09 00:47:37.11	23.67	4.46	-41.5	-53.6	3.8	8.46e-01	0	50	104	0	53	15470
2026-01-09 00:47:38.12	23.73	4.52	-41.5	-53.6	3.8	8.46e-01	0	50	104	0	53	15483
2026-01-09 00:47:39.13	23.78	4.59	-41.5	-53.6	3.8	8.46e-01	0	50	104	0	53	15436
2026-01-09 00:47:40.14	23.84	4.65	-41.6	-53.6	3.8	8.45e-01	0	50	104	0	53	15436
2026-01-09 00:47:41.15	23.90	4.72	-41.5	-53.6	3.8	8.46e-01	0	50	104	0	53	15479
2026-01-09 00:47:42.16	23.95	4.79	-41.5	-53.6	3.8	8.46e-01	0	50	104	0	53	15478
2026-01-09 00:47:43.17	24.01	4.85	-41.5	-53.6	3.8	8.46e-01	0	50	104	0	53	15482
2026-01-09 00:47:44.18	24.06	4.92	-41.5	-53.6	3.8	8.47e-01	0	50	104	0	53	15490
2026-01-09 00:47:45.19	24.12	4.98	-41.6	-53.6	3.8	8.46e-01	0	51	104	0	53	15491
2026-01-09 00:47:46.20	24.18	5.05	-41.5	-53.6	3.8	8.47e-01	0	51	104	0	53	15411
2026-01-09 00:47:47.22	24.24	5.12	-41.5	-53.6	3.8	8.47e-01	0	50	104	0	53	15469
2026-01-09 00:47:48.23	24.29	5.19	-41.5	-53.6	3.8	8.47e-01	0	51	104	0	53	15423
2026-01-09 00:47:49.23	24.35	5.25	-41.5	-53.6	3.8	8.46e-01	0	51	104	0	53	15443
2026-01-09 00:47:50.24	24.41	5.32	-41.6	-53.6	3.8	8.46e-01	0	51	104	0	53	15495
2026-01-09 00:47:51.25	24.47	5.39	-41.5	-53.6	3.8	8.47e-01	0	51	104	0	53	15474
2026-01-09 00:47:52.27	24.53	5.46	-41.5	-53.6	3.8	8.46e-01	0	51	104	0	53	15487
2026-01-09 00:47:53.28	24.59	5.52	-41.5	-53.6	3.8	8.47e-01	0	51	104	0	53	15407
2026-01-09 00:47:54.29	24.64	5.59	-41.6	-53.6	3.8	8.44e-01	0	51	104	0	53	15506
2026-01-09 00:47:55.30	24.70	5.66	-41.5	-53.5	3.8	8.46e-01	0	51	104	0	53	15351
2026-01-09 00:47:56.31	24.76	5.73	-41.5	-53.6	3.8	8.46e-01	0	51	104	0	53	15469
2026-01-09 00:47:57.32	24.82	5.80	-41.5	-53.5	3.8	8.45e-01	0	51	104	0	53	15399
2026-01-09 00:47:58.33	24.88	5.86	-41.6	-53.6	3.8	8.47e-01	0	51	104	0	53	15504
2026-01-09 00:47:59.34	24.94	5.93	-41.5	-53.6	3.8	8.45e-01	0	51	104	0	53	15436
2026-01-09 00:48:00.35	25.00	6.00	-41.5	-53.6	3.8	8.46e-01	0	51	104	0	53	15503
2026-01-09 00:48:01.36	25.06	6.07	-41.5	-53.6	3.8	8.46e-01	0	51	104	0	53	15494
2026-01-09 00:48:02.37	25.13	6.14	-41.6	-53.6	3.8	8.46e-01	0	52	104	0	53	15443
2026-01-09 00:48:03.39	25.19	6.21	-41.5	-53.6	3.8	8.47e-01	0	51	104	0	53	15504
2026-01-09 00:48:04.39	25.25	6.28	-41.5	-53.6	3.8	8.46e-01	0	52	104	0	53	15423
2026-01-09 00:48:05.41	25.31	6.35	-41.5	-53.5	3.8	8.46e-01	0	51	104	0	53	15392
2026-01-09 00:48:06.42	25.37	6.42	-41.5	-53.5	3.8	8.46e-01	0	52	104	0	53	15377
2026-01-09 00:48:07.43	25.44	6.49	-41.5	-53.5	3.8	8.48e-01	0	52	104	0	53	15342
2026-01-09 00:48:08.44	25.50	6.56	-41.5	-53.5	3.8	8.45e-01	0	52	104	0	53	15247
2026-01-09 00:48:09.45	25.56	6.63	-41.5	-53.4	3.8	8.46e-01	0	52	104	0	53	15054
2026-01-09 00:48:10.46	25.63	6.70	-41.5	-53.0	3.8	8.46e-01	0	52	104	0	53	14533
2026-01-09 00:48:11.47	25.69	6.77	-41.4	-52.8	3.8	8.46e-01	0	52	104	0	53	14052
2026-01-09 00:48:12.48	25.75	6.84	-41.4	-52.6	3.8	8.45e-01	0	52	104	0	53	13767
2026-01-09 00:48:13.49	25.82	6.91	-41.4	-52.4	3.8	8.46e-01	0	52	104	0	53	13487
2026-01-09 00:48:14.50	25.88	6.98	-41.4	-52.2	3.8	8.45e-01	0	52	104	0	53	13143
2026-01-09 00:48:15.51	25.95	7.05	-41.3	-52.0	3.8	8.46e-01	0	52	104	0	53	12950
2026-01-09 00:48:16.52	26.01	7.13	-41.3	-51.5	3.8	8.45e-01	0	52	104	0	53	12176
2026-01-09 00:48:17.54	26.08	7.20	-41.2	-50.8	4.0	8.43e-01	0	52	104	0	53	11169
2026-01-09 00:48:18.55	26.14	7.27	-41.1	-49.8	4.3	8.39e-01	0	52	0	0	53	9967
2026-01-09 00:48:19.56	26.21	7.34	-40.8	-48.3	4.8	8.18e-01	0	52	0	0	53	8445
2026-01-09 00:48:20.57	26.27	7.41	-40.5	-47.1	5.6	7.21e-01	0	52	0	0	53	7295
2026-01-09 00:48:21.58	26.34	7.49	-40.0	-45.3	7.0	2.92e-01	0	52	0	5242880	52	6323
2026-01-09 00:48:22.59	26.41	7.56	-39.4	-43.7	8.6	6.42e-02	0	52	0	10485760	50	5921
2026-01-09 00:48:23.60	26.48	7.63	-38.7	-42.2	10.2	1.38e-02	0	53	0	16777216	49	5231
2026-01-09 00:48:24.61	26.54	7.70	-37.8	-40.8	11.6	1.36e-03	0	52	0	22020096	47	5017
2026-01-09 00:48:25.62	26.61	7.78	-37.2	-39.8	12.7	2.76e-04	0	52	0	28311552	46	4731
2026-01-09 00:48:26.63	26.68	7.85	-36.8	-39.2	13.3	4.46e-05	0	53	0	33554432	45	4665
2026-01-09 00:48:27.64	26.75	7.92	-36.6	-38.9	13.6	1.48e-05	0	52	0	38797312	45	4518
2026-01-09 00:48:28.65	26.82	8.00	-36.5	-38.8	13.7	4.50e-06	0	52	0	45088768	44	4744
2026-01-09 00:48:29.66	26.89	8.07	-36.4	-38.5	14.4	8.00e-06	0	52	0	50331648	44	4559
2026-01-09 00:48:30.67	26.95	8.14	-39.8	-45.9	6.5	2.19e-02	0	52	0	56623104	50	7556
2026-01-09 00:48:31.68	27.02	8.22	-38.1	-40.6	12.7	4.94e-01	0	53	0	56623104	48	4603
2026-01-09 00:48:32.69	27.09	8.29	-38.5	-40.9	12.9	1.51e-04	0	53	0	61865984	48	4770
2026-01-09 00:48:33.70	27.16	8.37	-39.1	-42.3	10.9	6.80e-06	0	52	0	67108864	48	5651
2026-01-09 00:48:34.71	27.24	8.44	-37.8	-40.1	13.3	4.08e-02	0	53	0	73400320	47	4641
2026-01-09 00:48:35.72	27.31	8.52	-37.3	-39.3	14.4	3.40e-06	0	53	0	78643200	46	4459
2026-01-09 00:48:36.73	27.38	8.59	-37.1	-39.0	14.6	0.00e+00	0	53	0	84934656	46	4328
2026-01-09 00:48:37.74	27.45	8.67	-37.2	-39.2	14.4	0.00e+00	0	53	0	90177536	46	4437
2026-01-09 00:48:38.75	27.52	8.74	-36.9	-38.8	14.9	0.00e+00	0	53	0	96468992	45	4442
2026-01-09 00:48:39.76	27.59	8.82	-36.8	-38.6	15.1	0.00e+00	0	53	0	101711872	45	4389
2026-01-09 00:48:40.77	27.67	8.89	-37.0	-38.9	14.8	0.00e+00	0	53	0	106954752	45	4507
2026-01-09 00:48:41.78	27.74	8.97	-36.7	-38.6	15.2	0.00e+00	0	53	0	113246208	45	4347
2026-01-09 00:48:42.78	27.81	9.05	-36.8	-38.6	15.2	0.00e+00	0	53	0	118489088	45	4390
2026-01-09 00:48:43.79	27.89	9.12	-36.8	-38.6	15.1	0.00e+00	0	53	0	124780544	45	4391
2026-01-09 00:48:44.80	27.96	9.20	-36.6	-38.4	15.5	0.00e+00	0	53	0	130023424	45	4256
2026-01-09 00:48:45.81	28.04	9.28	-36.7	-38.5	15.4	0.00e+00	0	53	0	135266304	45	4321
2026-01-09 00:48:46.82	28.11	9.35	-36.5	-38.3	15.6	0.00e+00	0	53	0	141557760	45	4212
2026-01-09 00:48:47.83	28.19	9.43	-36.7	-38.4	15.5	0.00e+00	0	53	0	146800640	45	4286
2026-01-09 00:48:48.84	28.26	9.51	-36.7	-38.5	15.5	0.00e+00	0	53	0	153092096	45	4295
2026-01-09 00:48:49.85	28.34	9.58	-36.6	-38.4	15.6	0.00e+00	0	53	0	158334976	45	4245
2026-01-09 00:48:50.86	28.42	9.66	-36.6	-38.3	15.7	0.00e+00	0	53	0	163577856	45	4234
2026-01-09 00:48:51.87	28.49	9.74	-36.6	-38.4	15.6	0.00e+00	0	53	0	169869312	45	4245
2026-01-09 00:48:52.88	28.57	9.82	-36.6	-38.4	15.6	0.00e+00	0	53	0	175112192	45	4256
2026-01-09 00:48:53.89	28.65	9.90	-36.6	-38.3	15.7	0.00e+00	0	53	0	181403648	45	4228
2026-01-09 00:48:54.90	28.73	9.98	-36.6	-38.3	15.8	0.00e+00	0	53	0	186646528	45	4234
2026-01-09 00:48:55.91	28.80	10.05	-36.5	-38.2	15.8	0.00e+00	0	53	0	192937984	45	4181
2026-01-09 00:48:56.91	28.88	10.13	-36.6	-38.3	15.7	0.00e+00	0	53	0	198180864	45	4223
2026-01-09 00:48:57.92	28.96	10.21	-36.6	-38.3	15.8	0.00e+00	0	53	0	204472320	45	4217
2026-01-09 00:48:58.93	29.04	10.29	-36.5	-38.2	15.9	0.00e+00	0	53	0	209715200	45	4172
2026-01-09 00:48:59.94	29.12	10.37	-36.5	-38.1	16.0	0.00e+00	0	53	0	214958080	44	4390
2026-01-09 00:49:00.95	29.20	10.45	-36.4	-38.1	16.0	0.00e+00	0	53	0	221249536	44	4361
2026-01-09 00:49:01.96	29.28	10.53	-36.5	-38.1	16.0	0.00e+00	0	53	0	226492416	44	4386
2026-01-09 00:49:02.97	29.36	10.61	-36.4	-38.0	16.1	0.00e+00	0	53	0	232783872	44	4333
2026-01-09 00:49:03.98	29.45	10.69	-36.3	-37.9	16.2	0.00e+00	0	53	0	238026752	44	4269
2026-01-09 00:49:04.99	29.53	10.77	-36.3	-37.9	16.2	0.00e+00	0	53	0	243269632	44	4270
2026-01-09 00:49:06.00	29.61	10.85	-36.3	-37.9	16.3	0.00e+00	0	53	0	249561088	44	4243
2026-01-09 00:49:07.01	29.69	10.93	-36.2	-37.8	16.4	0.00e+00	0	53	0	254803968	44	4215
2026-01-09 00:49:08.02	29.78	11.02	-36.2	-37.8	16.4	0.00e+00	0	53	0	261095424	44	4200
2026-01-09 00:49:09.03	29.86	11.10	-36.1	-37.7	16.5	0.00e+00	0	53	0	266338304	44	4156
2026-01-09 00:49:10.04	29.95	11.18	-36.1	-37.7	16.6	0.00e+00	0	54	0	271581184	44	4161
2026-01-09 00:49:11.05	30.03	11.26	-36.2	-37.7	16.5	0.00e+00	0	54	0	277872640	44	4178
2026-01-09 00:49:12.06	30.12	11.34	-36.2	-37.7	16.5	0.00e+00	0	54	0	283115520	44	4188
2026-01-09 00:49:13.07	30.20	11.43	-36.2	-37.8	16.5	0.00e+00	0	54	0	289406976	44	4195
2026-01-09 00:49:14.08	30.29	11.51	-36.1	-37.7	16.6	0.00e+00	0	54	0	294649856	44	4147
2026-01-09 00:49:15.08	30.37	11.59	-36.1	-37.6	16.7	0.00e+00	0	54	0	300941312	44	4121
2026-01-09 00:49:16.09	30.46	11.67	-36.0	-37.6	16.7	0.00e+00	0	54	0	306184192	44	4104
2026-01-09 00:49:17.10	30.55	11.76	-36.0	-37.5	16.8	0.00e+00	0	54	0	311427072	44	4076
2026-01-09 00:49:18.12	30.64	11.84	-35.8	-37.3	16.8	0.00e+00	0	54	0	317718528	43	4226
2026-01-09 00:49:19.12	30.72	11.93	-35.8	-37.3	16.9	0.00e+00	0	54	0	322961408	43	4201
2026-01-09 00:49:20.14	30.81	12.01	-35.7	-37.2	17.0	0.00e+00	0	54	0	329252864	43	4146
2026-01-09 00:49:21.15	30.90	12.10	-35.6	-37.1	17.1	0.00e+00	0	54	0	334495744	43	4130
2026-01-09 00:49:22.16	30.99	12.18	-35.8	-37.3	16.9	0.00e+00	0	54	0	339738624	43	4211
2026-01-09 00:49:23.17	31.08	12.26	-35.6	-37.1	17.1	0.00e+00	0	54	0	346030080	43	4131
2026-01-09 00:49:24.18	31.18	12.35	-35.6	-37.1	17.1	0.00e+00	0	54	0	351272960	43	4108
2026-01-09 00:49:25.18	31.27	12.43	-35.5	-37.0	17.2	0.00e+00	0	54	0	357564416	43	4064
2026-01-09 00:49:26.19	31.36	12.52	-35.5	-37.0	17.2	0.00e+00	0	54	0	362807296	43	4074
2026-01-09 00:49:27.20	31.45	12.61	-35.6	-37.0	17.2	0.00e+00	0	54	0	368050176	43	4080
2026-01-09 00:49:28.21	31.54	12.69	-35.6	-37.0	17.2	0.00e+00	0	54	0	374341632	43	4077
2026-01-09 00:49:29.22	31.64	12.78	-35.5	-36.9	17.3	0.00e+00	0	54	0	379584512	43	4025
2026-01-09 00:49:30.23	31.73	12.86	-35.6	-37.0	17.2	0.00e+00	0	54	0	385875968	42	4330
2026-01-09 00:49:31.24	31.83	12.95	-35.5	-36.9	17.3	0.00e+00	0	54	0	391118848	42	4285
2026-01-09 00:49:32.25	31.92	13.04	-35.5	-37.0	17.3	0.00e+00	0	54	0	397410304	42	4293
2026-01-09 00:49:33.26	32.02	13.13	-35.5	-37.0	17.3	0.00e+00	0	54	0	402653184	42	4302
2026-01-09 00:49:34.27	32.11	13.21	-35.5	-37.0	17.3	0.00e+00	0	54	0	408944640	42	4308
2026-01-09 00:49:35.28	32.21	13.30	-35.6	-37.0	17.2	0.00e+00	0	54	0	414187520	42	4334
2026-01-09 00:49:36.29	32.31	13.39	-35.4	-36.9	17.4	0.00e+00	0	54	0	419430400	42	4259
2026-01-09 00:49:37.30	32.41	13.48	-35.4	-36.8	17.4	0.00e+00	0	54	0	425721856	42	4228
2026-01-09 00:49:38.31	32.50	13.57	-35.4	-36.8	17.4	0.00e+00	0	54	0	430964736	42	4232
2026-01-09 00:49:39.32	32.60	13.65	-35.4	-36.8	17.5	0.00e+00	0	54	0	436207616	42	4201
2026-01-09 00:49:40.32	32.70	13.74	-35.4	-36.8	17.5	0.00e+00	0	54	0	442499072	42	4209
2026-01-09 00:49:41.33	32.80	13.83	-35.4	-36.8	17.5	0.00e+00	0	54	0	447741952	42	4211
2026-01-09 00:49:42.34	32.90	13.92	-35.4	-36.8	17.5	0.00e+00	0	54	0	454033408	42	4228
2026-01-09 00:49:43.35	33.00	14.01	-35.4	-36.8	17.5	0.00e+00	0	54	0	459276288	42	4218
2026-01-09 00:49:44.36	33.11	14.10	-35.3	-36.7	17.6	0.00e+00	0	54	0	464519168	42	4192
2026-01-09 00:49:45.37	33.21	14.19	-35.4	-36.8	17.5	0.00e+00	0	54	0	470810624	42	4210
2026-01-09 00:49:46.38	33.31	14.28	-35.4	-36.9	17.4	0.00e+00	0	54	0	476053504	42	4252
2026-01-09 00:49:47.39	33.41	14.37	-35.4	-36.9	17.4	0.00e+00	0	54	0	482344960	42	4251
2026-01-09 00:49:48.40	33.52	14.46	-35.5	-36.9	17.4	0.00e+00	0	54	0	487587840	42	4283
2026-01-09 00:49:49.41	33.62	14.55	-35.5	-36.9	17.4	0.00e+00	0	55	0	493879296	42	4279
2026-01-09 00:49:50.43	33.73	14.65	-35.5	-36.9	17.4	0.00e+00	0	54	0	499122176	42	4284
2026-01-09 00:49:51.44	33.84	14.74	-35.5	-36.9	17.4	0.00e+00	0	55	0	505413632	42	4267
2026-01-09 00:49:52.45	33.94	14.83	-35.5	-36.9	17.5	0.00e+00	0	55	0	510656512	42	4259
2026-01-09 00:49:53.46	34.05	14.92	-35.3	-36.8	17.6	0.00e+00	0	55	0	515899392	42	4194
2026-01-09 00:49:54.47	34.16	15.02	-35.3	-36.7	17.7	0.00e+00	0	54	0	522190848	42	4153
2026-01-09 00:49:55.48	34.27	15.11	-35.2	-36.6	17.8	0.00e+00	0	54	0	527433728	42	4127
2026-01-09 00:49:56.49	34.38	15.20	-35.2	-36.6	17.8	0.00e+00	0	55	0	533725184	42	4119
2026-01-09 00:49:57.50	34.49	15.29	-35.1	-36.5	17.9	0.00e+00	0	55	0	538968064	42	4086
2026-01-09 00:49:58.50	34.60	15.39	-35.1	-36.5	18.0	0.00e+00	0	55	0	544210944	42	4058
2026-01-09 00:49:59.52	34.71	15.48	-35.0	-36.4	17.9	0.00e+00	0	55	0	550502400	42	4029
2026-01-09 00:50:00.53	34.82	15.58	-35.1	-36.4	18.0	0.00e+00	0	55	0	555745280	42	4047
2026-01-09 00:50:01.54	34.93	15.67	-35.0	-36.4	18.0	0.00e+00	0	55	0	562036736	42	4028
2026-01-09 00:50:02.55	35.05	15.77	-35.0	-36.4	18.1	0.00e+00	0	55	0	567279616	41	4250
2026-01-09 00:50:03.56	35.16	15.86	-35.0	-36.3	18.1	0.00e+00	0	55	0	572522496	41	4230
2026-01-09 00:50:04.57	35.28	15.96	-35.0	-36.3	18.1	0.00e+00	0	55	0	578813952	41	4235
2026-01-09 00:50:05.58	35.39	16.05	-35.0	-36.4	18.1	0.00e+00	0	55	0	584056832	41	4248
2026-01-09 00:50:06.59	35.51	16.15	-35.0	-36.3	18.1	0.00e+00	0	55	0	590348288	41	4241
2026-01-09 00:50:07.60	35.62	16.24	-35.1	-36.4	18.0	0.00e+00	0	55	0	595591168	41	4288
2026-01-09 00:50:08.61	35.74	16.34	-35.1	-36.5	18.0	0.00e+00	0	55	0	601882624	41	4300
2026-01-09 00:50:09.62	35.86	16.44	-35.2	-36.5	17.9	0.00e+00	0	55	0	607125504	41	4331
2026-01-09 00:50:10.62	35.98	16.53	-35.1	-36.5	18.0	0.00e+00	0	55	0	613416960	41	4302
2026-01-09 00:50:11.63	36.10	16.63	-35.2	-36.5	18.0	0.00e+00	0	55	0	618659840	41	4328
2026-01-09 00:50:12.64	36.22	16.73	-35.1	-36.5	18.0	0.00e+00	0	55	0	623902720	41	4306
2026-01-09 00:50:13.65	36.34	16.82	-35.1	-36.4	18.0	0.00e+00	0	55	0	630194176	41	4283
2026-01-09 00:50:14.66	36.46	16.92	-35.1	-36.4	18.0	0.00e+00	0	55	0	635437056	41	4284
2026-01-09 00:50:15.67	36.58	17.02	-35.1	-36.5	18.0	0.00e+00	0	55	0	641728512	41	4294
2026-01-09 00:50:16.68	36.71	17.12	-35.0	-36.4	18.1	0.00e+00	0	55	0	646971392	41	4259
2026-01-09 00:50:17.69	36.83	17.22	-35.0	-36.3	18.2	0.00e+00	0	55	0	652214272	41	4227
2026-01-09 00:50:18.71	36.96	17.32	-34.9	-36.2	18.2	0.00e+00	0	55	0	658505728	41	4183
2026-01-09 00:50:19.71	37.08	17.42	-34.9	-36.2	18.2	0.00e+00	0	55	0	663748608	41	4182
2026-01-09 00:50:20.72	37.21	17.52	-34.8	-36.2	18.3	0.00e+00	0	55	0	670040064	41	4154
2026-01-09 00:50:21.73	37.34	17.62	-34.8	-36.1	18.4	0.00e+00	0	55	0	675282944	41	4118
2026-01-09 00:50:22.74	37.47	17.72	-34.8	-36.1	18.4	0.00e+00	0	55	0	680525824	41	4131
2026-01-09 00:50:23.75	37.60	17.82	-34.8	-36.1	18.4	0.00e+00	0	55	0	686817280	41	4125
2026-01-09 00:50:24.76	37.73	17.92	-34.8	-36.1	18.4	0.00e+00	0	55	0	692060160	41	4129
2026-01-09 00:50:25.78	37.86	18.02	-34.7	-36.0	18.4	0.00e+00	0	55	0	698351616	41	4095
2026-01-09 00:50:26.78	37.99	18.12	-34.7	-36.1	18.4	0.00e+00	0	55	0	703594496	41	4101
2026-01-09 00:50:27.79	38.12	18.22	-34.7	-36.0	18.5	0.00e+00	0	55	0	709885952	41	4094
2026-01-09 00:50:28.80	38.26	18.32	-34.7	-36.0	18.5	0.00e+00	0	55	0	715128832	41	4089
2026-01-09 00:50:29.81	38.39	18.42	-34.7	-36.1	18.4	0.00e+00	0	55	0	720371712	41	4100
2026-01-09 00:50:30.82	38.53	18.53	-34.8	-36.1	18.4	0.00e+00	0	55	0	726663168	41	4111
2026-01-09 00:50:31.83	38.66	18.63	-34.8	-36.1	18.4	0.00e+00	0	55	0	731906048	41	4130
2026-01-09 00:50:32.84	38.80	18.73	-34.7	-36.1	18.4	0.00e+00	0	55	0	738197504	41	4103
2026-01-09 00:50:33.85	38.94	18.84	-34.7	-36.0	18.5	0.00e+00	0	55	0	743440384	41	4067
2026-01-09 00:50:34.86	39.08	18.94	-34.6	-36.0	18.5	0.00e+00	0	55	0	748683264	41	4052
2026-01-09 00:50:35.87	39.22	19.04	-34.6	-35.9	18.6	0.00e+00	0	55	0	754974720	41	4006
2026-01-09 00:50:36.87	39.35	19.15	-34.5	-35.8	18.7	0.00e+00	0	55	0	760217600	41	3992
2026-01-09 00:50:37.88	39.50	19.25	-34.5	-35.7	18.8	0.00e+00	0	55	0	766509056	40	4183
2026-01-09 00:50:38.89	39.64	19.36	-34.4	-35.7	18.8	0.00e+00	0	55	0	771751936	40	4182
2026-01-09 00:50:39.90	39.78	19.46	-34.4	-35.7	18.8	0.00e+00	0	55	0	776994816	40	4158
2026-01-09 00:50:40.91	39.93	19.57	-34.4	-35.6	18.9	0.00e+00	0	55	0	783286272	40	4130
2026-01-09 00:50:41.92	40.07	19.67	-34.3	-35.6	18.9	0.00e+00	0	55	0	788529152	40	4106
2026-01-09 00:50:42.93	40.22	19.78	-34.3	-35.6	18.9	0.00e+00	0	55	0	794820608	40	4113
2026-01-09 00:50:43.94	40.37	19.88	-34.3	-35.6	18.9	0.00e+00	0	55	0	800063488	40	4124
2026-01-09 00:50:44.95	40.51	19.99	-34.4	-35.7	18.9	0.00e+00	0	55	0	806354944	40	4151
2026-01-09 00:50:45.96	40.66	20.10	-34.4	-35.7	18.8	0.00e+00	0	55	0	811597824	40	4164
2026-01-09 00:50:46.97	40.81	20.20	-34.4	-35.6	18.9	0.00e+00	0	55	0	817889280	40	4137
2026-01-09 00:50:47.98	40.97	20.31	-34.3	-35.6	18.9	0.00e+00	0	55	0	823132160	40	4122
2026-01-09 00:50:48.99	41.12	20.42	-34.4	-35.6	18.9	0.00e+00	0	55	0	828375040	40	4139
2026-01-09 00:50:50.00	41.27	20.52	-34.4	-35.7	18.9	0.00e+00	0	55	0	834666496	40	4147
2026-01-09 00:50:51.00	41.42	20.63	-34.4	-35.7	18.9	0.00e+00	0	55	0	839909376	40	4169
2026-01-09 00:50:52.02	41.58	20.74	-34.4	-35.7	18.9	0.00e+00	0	55	0	845152256	40	4147
2026-01-09 00:50:53.02	41.74	20.85	-34.4	-35.7	18.9	0.00e+00	0	55	0	851443712	40	4146
2026-01-09 00:50:54.03	41.90	20.96	-34.3	-35.6	19.0	0.00e+00	0	55	0	856686592	40	4116
2026-01-09 00:50:55.04	42.05	21.07	-34.3	-35.5	19.1	0.00e+00	0	55	0	862978048	40	4074
2026-01-09 00:50:56.05	42.21	21.17	-34.2	-35.4	19.2	0.00e+00	0	55	0	868220928	40	4025
2026-01-09 00:50:57.06	42.37	21.28	-34.1	-35.3	19.2	0.00e+00	0	55	0	873463808	40	4004
2026-01-09 00:50:58.07	42.54	21.39	-34.0	-35.3	19.3	0.00e+00	0	55	0	879755264	40	3964
2026-01-09 00:50:59.08	42.70	21.50	-34.0	-35.2	19.4	0.00e+00	0	55	0	884998144	40	3937
2026-01-09 00:51:00.09	42.86	21.61	-34.0	-35.3	19.4	0.00e+00	0	55	0	891289600	39	4198
2026-01-09 00:51:01.10	43.03	21.72	-34.1	-35.3	19.4	0.00e+00	0	55	0	896532480	39	4205
2026-01-09 00:51:02.11	43.20	21.83	-34.1	-35.3	19.4	0.00e+00	0	55	0	902823936	39	4219
2026-01-09 00:51:03.12	43.37	21.95	-34.1	-35.3	19.3	0.00e+00	0	56	0	908066816	39	4240
2026-01-09 00:51:04.12	43.53	22.06	-34.1	-35.3	19.3	0.00e+00	0	55	0	914358272	39	4239
2026-01-09 00:51:05.13	43.70	22.17	-34.1	-35.4	19.3	0.00e+00	0	55	0	919601152	39	4261
2026-01-09 00:51:06.14	43.87	22.28	-34.1	-35.4	19.3	0.00e+00	0	55	0	924844032	39	4254
2026-01-09 00:51:07.15	44.05	22.39	-34.0	-35.2	19.4	0.00e+00	0	55	0	931135488	39	4180
2026-01-09 00:51:08.17	44.22	22.50	-33.9	-35.1	19.6	0.00e+00	0	55	0	936378368	39	4113
2026-01-09 00:51:09.17	44.40	22.62	-33.8	-35.0	19.7	0.00e+00	0	55	0	942669824	39	4066
2026-01-09 00:51:10.19	44.57	22.73	-33.8	-34.9	19.7	0.00e+00	0	55	0	947912704	39	4041
2026-01-09 00:51:11.20	44.75	22.84	-33.8	-34.9	19.7	0.00e+00	0	55	0	953155584	39	4049
2026-01-09 00:51:12.21	44.93	22.95	-33.7	-34.9	19.7	0.00e+00	0	55	0	959447040	39	4034
2026-01-09 00:51:13.22	45.11	23.07	-33.7	-34.9	19.7	0.00e+00	0	55	0	964689920	39	4034
2026-01-09 00:51:14.23	45.29	23.18	-33.8	-34.9	19.7	0.00e+00	0	56	0	970981376	39	4050
2026-01-09 00:51:15.24	45.47	23.30	-33.7	-34.9	19.8	0.00e+00	0	55	0	976224256	39	4012
2026-01-09 00:51:16.25	45.66	23.41	-33.7	-34.9	19.8	0.00e+00	0	56	0	981467136	39	4023
2026-01-09 00:51:17.26	45.84	23.52	-33.7	-34.9	19.8	0.00e+00	0	55	0	987758592	39	4019
2026-01-09 00:51:18.27	46.03	23.64	-33.7	-34.9	19.8	0.00e+00	0	55	0	993001472	39	4030
2026-01-09 00:51:19.28	46.22	23.75	-33.7	-34.8	19.8	0.00e+00	0	55	0	999292928	39	3997
2026-01-09 00:51:20.28	46.41	23.87	-33.7	-34.8	19.9	0.00e+00	0	55	0	1004535808	39	4001
2026-01-09 00:51:21.29	46.60	23.98	-33.6	-34.7	19.9	0.00e+00	0	56	0	1010827264	39	3955
2026-01-09 00:51:22.30	46.79	24.10	-33.7	-34.9	19.8	0.00e+00	0	56	0	1016070144	39	4014
2026-01-09 00:51:23.31	46.98	24.21	-33.7	-34.9	19.8	0.00e+00	0	55	0	1021313024	39	4013
2026-01-09 00:51:24.32	47.18	24.33	-33.7	-34.9	19.8	0.00e+00	0	56	0	1027604480	39	4010
2026-01-09 00:51:25.33	47.37	24.44	-33.7	-34.9	19.8	0.00e+00	0	55	0	1032847360	39	4011
2026-01-09 00:51:26.34	47.57	24.56	-33.6	-34.7	19.9	0.00e+00	0	55	0	1039138816	39	3955
2026-01-09 00:51:27.35	47.77	24.67	-33.5	-34.7	19.9	0.00e+00	0	56	0	1044381696	39	3928
2026-01-09 00:51:28.36	47.97	24.79	-33.5	-34.6	20.0	0.00e+00	0	55	0	1049624576	38	4135
2026-01-09 00:51:29.37	48.17	24.91	-33.4	-34.6	20.0	0.00e+00	0	56	0	1055916032	38	4099
2026-01-09 00:51:30.38	48.38	25.02	-33.4	-34.5	20.1	0.00e+00	0	56	0	1061158912	38	4084
2026-01-09 00:51:31.39	48.58	25.14	-33.3	-34.5	20.1	0.00e+00	0	56	0	1067450368	38	4068
2026-01-09 00:51:32.40	48.79	25.26	-33.3	-34.5	20.1	0.00e+00	0	56	0	1072693248	38	4069
2026-01-09 00:51:33.41	49.00	25.37	-33.3	-34.5	20.2	0.00e+00	0	56	0	1077936128	38	4054
2026-01-09 00:51:34.42	49.20	25.49	-33.3	-34.5	20.2	0.00e+00	0	56	0	1084227584	38	4056
2026-01-09 00:51:35.43	49.42	25.61	-33.3	-34.4	20.2	0.00e+00	0	56	0	1089470464	38	4046
2026-01-09 00:51:36.44	49.63	25.72	-33.3	-34.5	20.2	0.00e+00	0	56	0	1095761920	38	4062
2026-01-09 00:51:37.44	49.84	25.84	-33.3	-34.4	20.2	0.00e+00	0	56	0	1101004800	38	4049
2026-01-09 00:51:38.45	50.06	25.96	-33.4	-34.6	20.1	0.00e+00	0	56	0	1107296256	38	4110
2026-01-09 00:51:39.46	50.27	26.07	-33.5	-34.6	20.1	0.00e+00	0	56	0	1112539136	38	4132
2026-01-09 00:51:40.47	50.49	26.19	-33.5	-34.7	20.0	0.00e+00	0	55	0	1118830592	38	4165
2026-01-09 00:51:41.48	50.71	26.31	-33.5	-34.6	20.1	0.00e+00	0	56	0	1124073472	38	4144
2026-01-09 00:51:42.49	50.93	26.43	-33.4	-34.6	20.1	0.00e+00	0	56	0	1129316352	38	4102
2026-01-09 00:51:43.50	51.16	26.55	-33.3	-34.4	20.3	0.00e+00	0	56	0	1135607808	38	4040
2026-01-09 00:51:44.51	51.38	26.66	-33.3	-34.4	20.3	0.00e+00	0	56	0	1140850688	38	4041
2026-01-09 00:51:45.52	51.61	26.78	-33.2	-34.5	19.7	0.00e+00	0	56	0	1147142144	38	4078
2026-01-09 00:51:46.53	51.84	26.90	-33.3	-34.6	19.6	0.00e+00	0	56	0	1152385024	38	4137
2026-01-09 00:51:47.54	52.07	27.02	-33.3	-34.6	19.6	0.00e+00	0	56	0	1157627904	38	4140
2026-01-09 00:51:48.55	52.30	27.14	-33.3	-34.6	19.6	0.00e+00	0	56	0	1163919360	38	4122
2026-01-09 00:51:49.56	52.53	27.25	-33.1	-34.4	19.8	0.00e+00	0	56	0	1169162240	38	4034
2026-01-09 00:51:50.57	52.77	27.37	-33.0	-34.3	19.9	0.00e+00	0	56	0	1175453696	38	3992
2026-01-09 00:51:51.58	53.01	27.49	-33.0	-34.3	19.9	0.00e+00	0	56	0	1180696576	38	3983
2026-01-09 00:51:52.59	53.24	27.61	-33.0	-34.3	19.9	0.00e+00	0	56	0	1185939456	38	3984
2026-01-09 00:51:53.60	53.48	27.73	-33.0	-34.3	19.9	0.00e+00	0	56	0	1192230912	38	3962
2026-01-09 00:51:54.61	53.73	27.84	-32.9	-34.2	20.0	0.00e+00	0	56	0	1197473792	37	4156
2026-01-09 00:51:55.62	53.97	27.96	-32.8	-34.1	20.1	0.00e+00	0	56	0	1203765248	37	4105
2026-01-09 00:51:56.63	54.22	28.08	-32.9	-34.2	20.0	0.00e+00	0	56	0	1209008128	37	4149
2026-01-09 00:51:57.64	54.46	28.20	-33.0	-34.3	19.9	0.00e+00	0	56	0	1215299584	37	4202
2026-01-09 00:51:58.65	54.71	28.32	-33.0	-34.3	19.9	0.00e+00	0	56	0	1220542464	37	4217
2026-01-09 00:51:59.66	54.96	28.43	-32.9	-34.2	20.0	0.00e+00	0	56	0	1225785344	37	4159
2026-01-09 00:52:00.67	55.22	28.55	-32.7	-34.0	20.2	0.00e+00	0	56	0	1232076800	37	4056
2026-01-09 00:52:01.68	55.47	28.67	-32.5	-33.7	20.4	0.00e+00	0	56	0	1237319680	37	3955
2026-01-09 00:52:02.69	55.73	28.79	-32.5	-33.7	20.5	0.00e+00	0	56	0	1243611136	36	4149
2026-01-09 00:52:03.70	55.99	28.90	-32.5	-33.7	20.5	0.00e+00	0	56	0	1248854016	36	4177
2026-01-09 00:52:04.71	56.25	29.02	-32.7	-33.9	20.4	0.00e+00	0	56	0	1254096896	36	4256
2026-01-09 00:52:05.72	56.51	29.14	-32.8	-34.0	20.2	0.00e+00	0	56	0	1260388352	36	4321
2026-01-09 00:52:06.73	56.77	29.26	-32.8	-34.0	20.2	0.00e+00	0	56	0	1265631232	36	4319
2026-01-09 00:52:07.74	57.04	29.37	-32.7	-34.0	20.2	0.00e+00	0	56	0	1271922688	36	4310
2026-01-09 00:52:08.75	57.31	29.49	-32.7	-34.0	20.2	0.00e+00	0	56	0	1277165568	36	4294
2026-01-09 00:52:09.76	57.58	29.61	-32.7	-33.9	20.2	0.00e+00	0	56	0	1282408448	36	4282
2026-01-09 00:52:10.77	57.85	29.72	-32.7	-33.9	20.2	0.00e+00	0	56	0	1288699904	36	4281
2026-01-09 00:52:11.78	58.12	29.84	-32.7	-33.9	20.3	0.00e+00	0	56	0	1293942784	36	4275
2026-01-09 00:52:12.79	58.40	29.95	-32.7	-33.9	20.3	0.00e+00	0	56	0	1300234240	36	4267
2026-01-09 00:52:13.79	58.67	30.07	-32.7	-33.9	20.2	0.00e+00	0	56	0	1305477120	36	4279
2026-01-09 00:52:14.80	58.95	30.18	-32.6	-33.8	20.3	0.00e+00	0	56	0	1311768576	36	4223
2026-01-09 00:52:15.81	59.23	30.30	-32.5	-33.8	20.4	0.00e+00	0	56	0	1317011456	36	4195
2026-01-09 00:52:16.82	59.52	30.41	-32.5	-33.7	20.5	0.00e+00	0	56	0	1323302912	36	4162
2026-01-09 00:52:17.84	59.81	30.53	-32.5	-33.7	20.4	0.00e+00	0	56	0	1328545792	36	4172
2026-01-09 00:52:18.85	60.09	30.64	-32.6	-33.8	20.3	0.00e+00	0	56	0	1333788672	36	4236
2026-01-09 00:52:19.86	60.38	30.76	-32.7	-34.0	20.2	0.00e+00	0	56	0	1340080128	36	4325
2026-01-09 00:52:20.87	60.68	30.87	-32.8	-34.1	20.1	0.00e+00	0	56	0	1345323008	36	4371
2026-01-09 00:52:21.88	60.97	30.98	-32.7	-34.0	20.2	0.00e+00	0	56	0	1351614464	36	4312
2026-01-09 00:52:22.89	61.26	31.10	-32.6	-33.8	20.3	0.00e+00	0	56	0	1356857344	36	4241
2026-01-09 00:52:23.90	61.56	31.21	-32.6	-33.8	20.3	0.00e+00	0	56	0	1362100224	36	4230
2026-01-09 00:52:24.90	61.86	31.32	-32.6	-33.8	20.4	0.00e+00	0	56	0	1368391680	36	4212
2026-01-09 00:52:25.92	62.16	31.43	-32.6	-33.8	20.3	0.00e+00	0	56	0	1373634560	36	4239
2026-01-09 00:52:26.92	62.46	31.54	-32.6	-33.8	20.3	0.00e+00	0	56	0	1379926016	36	4241
2026-01-09 00:52:27.93	62.77	31.65	-32.6	-33.8	20.3	0.00e+00	0	56	0	1385168896	36	4240
2026-01-09 00:52:28.94	63.08	31.76	-32.7	-33.9	20.2	0.00e+00	0	56	0	1390411776	36	4280
2026-01-09 00:52:29.95	63.39	31.87	-32.8	-34.1	20.1	0.00e+00	0	56	0	1396703232	36	4351
2026-01-09 00:52:30.96	63.70	31.98	-32.8	-34.1	20.1	0.00e+00	0	56	0	1401946112	36	4349
2026-01-09 00:52:31.97	64.01	32.09	-32.7	-34.0	20.2	0.00e+00	0	56	0	1408237568	36	4308
2026-01-09 00:52:32.98	64.33	32.20	-32.6	-33.9	20.3	0.00e+00	0	56	0	1413480448	36	4254
2026-01-09 00:52:33.99	64.65	32.31	-32.6	-33.9	20.3	0.00e+00	0	56	0	1419771904	36	4256
2026-01-09 00:52:35.00	64.97	32.41	-32.8	-34.1	20.2	0.00e+00	0	56	0	1425014784	36	4345
2026-01-09 00:52:36.01	65.29	32.52	-32.9	-34.2	20.0	0.00e+00	0	56	0	1430257664	36	4421
2026-01-09 00:52:37.02	65.62	32.63	-32.9	-34.2	20.1	0.00e+00	0	56	0	1436549120	36	4396
2026-01-09 00:52:38.03	65.94	32.73	-32.7	-34.0	20.2	0.00e+00	0	56	0	1441792000	36	4315
2026-01-09 00:52:39.04	66.27	32.84	-32.5	-33.8	20.4	0.00e+00	0	56	0	1448083456	36	4206
2026-01-09 00:52:40.05	66.60	32.94	-32.4	-33.7	20.5	0.00e+00	0	56	0	1453326336	36	4146
2026-01-09 00:52:41.06	66.94	33.04	-32.5	-33.7	20.5	0.00e+00	0	56	0	1458569216	36	4162
2026-01-09 00:52:42.07	67.27	33.15	-32.6	-33.9	20.3	0.00e+00	0	56	0	1464860672	36	4252
2026-01-09 00:52:43.08	67.61	33.25	-32.7	-33.9	20.2	0.00e+00	0	56	0	1470103552	36	4290
2026-01-09 00:52:44.09	67.95	33.35	-32.7	-34.0	20.2	0.00e+00	0	56	0	1476395008	36	4297
2026-01-09 00:52:45.09	68.28	33.45	-32.6	-33.9	20.3	0.00e+00	0	56	0	1481637888	36	4246
2026-01-09 00:52:46.10	68.63	33.55	-32.5	-33.7	20.4	0.00e+00	0	56	0	1486880768	36	4171
2026-01-09 00:52:47.11	68.97	33.65	-32.3	-33.5	20.6	0.00e+00	0	56	0	1493172224	36	4074
2026-01-09 00:52:48.12	69.32	33.74	-32.4	-33.6	20.6	0.00e+00	0	56	0	1498415104	36	4124
2026-01-09 00:52:49.13	69.67	33.84	-32.5	-33.7	20.4	0.00e+00	0	56	0	1504706560	36	4185
2026-01-09 00:52:50.14	70.02	33.94	-32.6	-33.8	20.3	0.00e+00	0	56	0	1509949440	36	4231
2026-01-09 00:52:51.15	70.38	34.03	-32.6	-33.8	20.3	0.00e+00	0	56	0	1516240896	36	4229
2026-01-09 00:52:52.16	70.73	34.13	-32.5	-33.8	20.4	0.00e+00	0	56	0	1521483776	36	4213
2026-01-09 00:52:53.17	71.09	34.22	-32.4	-33.7	20.5	0.00e+00	0	56	0	1527775232	36	4156
2026-01-09 00:52:54.18	71.45	34.31	-32.4	-33.6	20.5	0.00e+00	0	56	0	1533018112	36	4143
2026-01-09 00:52:55.19	71.81	34.41	-32.4	-33.7	20.5	0.00e+00	0	56	0	1538260992	36	4163
2026-01-09 00:52:56.20	72.17	34.50	-32.4	-33.7	20.5	0.00e+00	0	56	0	1544552448	36	4150
2026-01-09 00:52:57.21	72.54	34.59	-32.4	-33.7	20.6	0.00e+00	0	56	0	1549795328	36	4146
2026-01-09 00:52:58.22	72.91	34.67	-32.6	-33.8	20.4	0.00e+00	0	56	0	1556086784	36	4234
2026-01-09 00:52:59.23	73.28	34.76	-32.7	-34.0	20.3	0.00e+00	0	56	0	1561329664	36	4315
2026-01-09 00:53:00.23	73.65	34.85	-32.7	-34.0	20.3	0.00e+00	0	56	0	1566572544	36	4296
2026-01-09 00:53:01.25	74.02	34.93	-32.5	-33.8	20.4	0.00e+00	0	56	0	1572864000	36	4206
2026-01-09 00:53:02.25	74.40	35.02	-32.5	-33.7	20.5	0.00e+00	0	56	0	1578106880	36	4181
2026-01-09 00:53:03.26	74.77	35.10	-32.4	-33.6	20.6	0.00e+00	0	56	0	1583349760	36	4116
2026-01-09 00:53:04.27	75.15	35.18	-32.4	-33.6	20.6	0.00e+00	0	56	0	1589641216	36	4116
2026-01-09 00:53:05.28	75.53	35.26	-32.3	-33.5	20.7	0.00e+00	0	56	0	1594884096	36	4097
2026-01-09 00:53:06.29	75.92	35.34	-32.4	-33.6	20.6	0.00e+00	0	56	0	1601175552	36	4110
2026-01-09 00:53:07.30	76.30	35.42	-32.4	-33.6	20.6	0.00e+00	0	56	0	1606418432	36	4133
2026-01-09 00:53:08.31	76.69	35.50	-32.2	-33.4	20.8	0.00e+00	0	56	0	1612709888	36	4036
2026-01-09 00:53:09.32	77.08	35.57	-32.1	-33.2	20.9	0.00e+00	0	56	0	1617952768	36	3952
2026-01-09 00:53:10.33	77.47	35.65	-32.1	-33.3	20.9	0.00e+00	0	56	0	1624244224	36	3979
2026-01-09 00:53:11.34	77.86	35.72	-32.1	-33.3	20.9	0.00e+00	0	56	0	1629487104	36	3972
2026-01-09 00:53:12.35	78.25	35.79	-32.3	-33.5	20.7	0.00e+00	0	56	0	1634729984	36	4066
2026-01-09 00:53:13.36	78.65	35.86	-32.4	-33.6	20.6	0.00e+00	0	56	0	1641021440	36	4145
2026-01-09 00:53:14.37	79.05	35.93	-32.4	-33.7	20.5	0.00e+00	0	56	0	1646264320	36	4163
2026-01-09 00:53:15.38	79.45	36.00	-32.4	-33.7	20.5	0.00e+00	0	56	0	1652555776	36	4150
2026-01-09 00:53:16.39	79.85	36.07	-32.3	-33.5	20.6	0.00e+00	0	56	0	1657798656	36	4084
2026-01-09 00:53:17.40	80.25	36.13	-32.3	-33.5	20.7	0.00e+00	0	56	0	1663041536	36	4060
2026-01-09 00:53:18.41	80.65	36.20	-32.2	-33.4	20.8	0.00e+00	0	56	0	1669332992	36	4031
2026-01-09 00:53:19.41	81.05	36.26	-32.2	-33.4	20.8	0.00e+00	0	56	0	1674575872	36	4041
2026-01-09 00:53:20.42	81.46	36.32	-32.3	-33.5	20.7	0.00e+00	0	56	0	1680867328	36	4079
2026-01-09 00:53:21.43	81.87	36.38	-32.5	-33.7	20.5	0.00e+00	0	56	0	1686110208	36	4163
2026-01-09 00:53:22.44	82.28	36.44	-32.5	-33.8	20.4	0.00e+00	0	56	0	1691353088	36	4218
2026-01-09 00:53:23.45	82.69	36.49	-32.5	-33.7	20.5	0.00e+00	0	56	0	1697644544	36	4170
2026-01-09 00:53:24.46	83.10	36.55	-32.3	-33.5	20.7	0.00e+00	0	56	0	1702887424	36	4092
2026-01-09 00:53:25.47	83.52	36.60	-32.2	-33.4	20.8	0.00e+00	0	56	0	1709178880	36	4022
2026-01-09 00:53:26.48	83.93	36.65	-32.1	-33.3	20.9	0.00e+00	0	56	0	1714421760	36	3987
2026-01-09 00:53:27.49	84.35	36.70	-32.0	-33.2	21.0	0.00e+00	0	56	0	1720713216	36	3950
2026-01-09 00:53:28.50	84.77	36.75	-32.1	-33.3	20.9	0.00e+00	0	56	0	1725956096	36	3961
2026-01-09 00:53:29.51	85.19	36.80	-32.2	-33.4	20.8	0.00e+00	0	56	0	1731198976	36	4008
2026-01-09 00:53:30.52	85.61	36.84	-32.3	-33.5	20.7	0.00e+00	0	56	0	1737490432	36	4067
2026-01-09 00:53:31.53	86.03	36.89	-32.2	-33.4	20.8	0.00e+00	0	56	0	1742733312	36	4044
2026-01-09 00:53:32.54	86.45	36.93	-32.1	-33.3	20.9	0.00e+00	0	56	0	1749024768	36	3978
2026-01-09 00:53:33.55	86.87	36.97	-32.1	-33.3	20.9	0.00e+00	0	56	0	1754267648	36	3986
2026-01-09 00:53:34.56	87.30	37.01	-32.2	-33.4	20.8	0.00e+00	0	56	0	1759510528	36	4024
2026-01-09 00:53:35.57	87.73	37.04	-32.3	-33.5	20.7	0.00e+00	0	56	0	1765801984	36	4071
2026-01-09 00:53:36.58	88.15	37.08	-32.3	-33.5	20.7	0.00e+00	0	56	0	1771044864	36	4097
2026-01-09 00:53:37.59	88.58	37.11	-32.3	-33.5	20.7	0.00e+00	0	56	0	1777336320	36	4090
2026-01-09 00:53:38.60	89.01	37.14	-32.3	-33.5	20.7	0.00e+00	0	56	0	1782579200	36	4070
2026-01-09 00:53:39.61	89.44	37.17	-32.3	-33.5	20.7	0.00e+00	0	56	0	1787822080	36	4068
2026-01-09 00:53:40.62	89.87	37.20	-32.3	-33.5	20.7	0.00e+00	0	56	0	1794113536	36	4083
2026-01-09 00:53:41.62	90.29	37.23	-32.3	-33.6	20.7	0.00e+00	0	56	0	1799356416	36	4104
2026-01-09 00:53:42.64	90.73	37.25	-32.3	-33.5	20.7	0.00e+00	0	56	0	1805647872	36	4082
2026-01-09 00:53:43.65	91.16	37.28	-32.2	-33.4	20.8	0.00e+00	0	56	0	1810890752	36	4047
2026-01-09 00:53:44.65	91.59	37.30	-32.3	-33.5	20.7	0.00e+00	0	56	0	1817182208	36	4079
2026-01-09 00:53:45.67	92.03	37.32	-32.3	-33.5	20.7	0.00e+00	0	56	0	1822425088	36	4070
2026-01-09 00:53:46.68	92.46	37.34	-32.1	-33.3	20.9	0.00e+00	0	56	0	1828716544	36	3979
2026-01-09 00:53:47.69	92.90	37.35	-32.1	-33.3	20.9	0.00e+00	0	56	0	1833959424	36	3985
2026-01-09 00:53:48.70	93.33	37.36	-32.1	-33.3	20.9	0.00e+00	0	56	0	1839202304	36	4000
2026-01-09 00:53:49.71	93.76	37.38	-32.3	-33.5	20.7	0.00e+00	0	56	0	1845493760	36	4092
2026-01-09 00:53:50.72	94.20	37.39	-32.3	-33.6	20.7	0.00e+00	0	56	0	1850736640	36	4102
2026-01-09 00:53:51.73	94.64	37.40	-32.3	-33.5	20.7	0.00e+00	0	56	0	1857028096	36	4091
2026-01-09 00:53:52.74	95.07	37.40	-32.2	-33.4	20.8	0.00e+00	0	56	0	1862270976	36	4033
2026-01-09 00:53:53.75	95.51	37.41	-32.3	-33.5	20.7	0.00e+00	0	56	0	1867513856	36	4070
2026-01-09 00:53:54.76	95.94	37.41	-32.4	-33.7	20.6	0.00e+00	0	57	0	1873805312	36	4149
2026-01-09 00:53:55.77	96.38	37.41	-32.5	-33.8	20.5	0.00e+00	0	56	0	1879048192	36	4202
2026-01-09 00:53:56.78	96.81	37.41	-32.5	-33.7	20.5	0.00e+00	0	56	0	1885339648	36	4168
2026-01-09 00:53:57.79	97.25	37.41	-32.4	-33.6	20.6	0.00e+00	0	56	0	1890582528	36	4130
2026-01-09 00:53:58.80	97.69	37.40	-32.3	-33.5	20.7	0.00e+00	0	56	0	1895825408	36	4090
2026-01-09 00:53:59.80	98.12	37.40	-32.2	-33.4	20.8	0.00e+00	0	56	0	1902116864	36	4030
2026-01-09 00:54:00.81	98.55	37.39	-32.1	-33.3	20.9	0.00e+00	0	56	0	1907359744	36	3991
2026-01-09 00:54:01.82	98.99	37.38	-32.1	-33.3	20.9	0.00e+00	0	56	0	1913651200	36	3975
2026-01-09 00:54:02.83	99.42	37.37	-32.0	-33.2	21.0	0.00e+00	0	56	0	1918894080	36	3945
2026-01-09 00:54:03.84	99.86	37.36	-32.0	-33.2	21.1	0.00e+00	0	56	0	1925185536	36	3917
2026-01-09 00:54:04.85	100.29	37.34	-32.1	-33.2	21.0	0.00e+00	0	56	0	1930428416	36	3949
2026-01-09 00:54:05.86	100.73	37.32	-32.2	-33.4	20.8	0.00e+00	0	56	0	1935671296	36	4039
2026-01-09 00:54:06.87	101.16	37.31	-32.3	-33.5	20.7	0.00e+00	0	56	0	1941962752	36	4085
2026-01-09 00:54:07.88	101.60	37.28	-32.3	-33.5	20.7	0.00e+00	0	56	0	1947205632	36	4089
2026-01-09 00:54:08.89	102.03	37.26	-32.3	-33.5	20.7	0.00e+00	0	56	0	1953497088	36	4073
2026-01-09 00:54:09.90	102.46	37.24	-32.3	-33.5	20.7	0.00e+00	0	56	0	1958739968	36	4075
2026-01-09 00:54:10.91	102.89	37.21	-32.4	-33.6	20.7	0.00e+00	0	56	0	1963982848	36	4099
2026-01-09 00:54:11.92	103.32	37.18	-32.3	-33.6	20.7	0.00e+00	0	56	0	1970274304	36	4099
2026-01-09 00:54:12.93	103.75	37.16	-32.3	-33.5	20.8	0.00e+00	0	56	0	1975517184	36	4053
2026-01-09 00:54:13.94	104.18	37.12	-32.2	-33.3	20.9	0.00e+00	0	56	0	1981808640	36	3999
2026-01-09 00:54:14.95	104.61	37.09	-32.1	-33.3	20.9	0.00e+00	0	56	0	1987051520	36	3978
2026-01-09 00:54:15.96	105.04	37.06	-32.2	-33.4	20.8	0.00e+00	0	56	0	1992294400	36	4039
2026-01-09 00:54:16.97	105.46	37.02	-32.3	-33.5	20.7	0.00e+00	0	56	0	1998585856	36	4092
2026-01-09 00:54:17.98	105.89	36.98	-32.4	-33.7	20.6	0.00e+00	0	57	0	2003828736	36	4149
2026-01-09 00:54:18.99	106.31	36.94	-32.4	-33.7	20.6	0.00e+00	0	56	0	2010120192	36	4158
2026-01-09 00:54:20.00	106.74	36.90	-32.3	-33.5	20.8	0.00e+00	0	56	0	2015363072	36	4077
2026-01-09 00:54:21.01	107.16	36.86	-32.2	-33.4	20.9	0.00e+00	0	56	0	2021654528	36	4027
2026-01-09 00:54:22.02	107.58	36.81	-32.2	-33.4	20.9	0.00e+00	0	56	0	2026897408	36	4035
2026-01-09 00:54:23.03	108.00	36.77	-32.3	-33.5	20.7	0.00e+00	0	56	0	2033188864	36	4084
2026-01-09 00:54:24.04	108.42	36.72	-32.4	-33.6	20.6	0.00e+00	0	56	0	2038431744	36	4135
2026-01-09 00:54:25.04	108.83	36.67	-32.4	-33.7	20.6	0.00e+00	0	56	0	2043674624	36	4146
2026-01-09 00:54:26.05	109.25	36.62	-32.4	-33.6	20.6	0.00e+00	0	57	0	2049966080	36	4113
2026-01-09 00:54:27.06	109.67	36.57	-32.4	-33.6	20.6	0.00e+00	0	56	0	2055208960	36	4135
2026-01-09 00:54:28.07	110.08	36.51	-32.4	-33.7	20.5	0.00e+00	0	56	0	2061500416	36	4153
2026-01-09 00:54:29.08	110.49	36.46	-32.4	-33.6	20.6	0.00e+00	0	56	0	2066743296	36	4120
2026-01-09 00:54:30.09	110.90	36.40	-32.3	-33.6	20.6	0.00e+00	0	57	0	2071986176	36	4101
2026-01-09 00:54:31.10	111.31	36.34	-32.4	-33.6	20.6	0.00e+00	0	56	0	2078277632	36	4106
2026-01-09 00:54:32.11	111.72	36.28	-32.4	-33.7	20.6	0.00e+00	0	57	0	2083520512	36	4156
2026-01-09 00:54:33.12	112.13	36.22	-32.5	-33.7	20.5	0.00e+00	0	56	0	2089811968	36	4191
2026-01-09 00:54:34.13	112.53	36.15	-32.5	-33.7	20.6	0.00e+00	0	56	0	2095054848	36	4175
2026-01-09 00:54:35.14	112.94	36.09	-32.4	-33.6	20.7	0.00e+00	0	56	0	2100297728	36	4115
2026-01-09 00:54:36.15	113.34	36.02	-32.3	-33.5	20.7	0.00e+00	0	56	0	2106589184	36	4087
2026-01-09 00:54:37.16	113.74	35.95	-32.3	-33.6	20.7	0.00e+00	0	57	0	2111832064	36	4100
2026-01-09 00:54:38.17	114.14	35.89	-32.3	-33.5	20.7	0.00e+00	0	56	0	2118123520	36	4086
2026-01-09 00:54:39.18	114.54	35.82	-32.3	-33.5	20.8	0.00e+00	0	57	0	2123366400	36	4056
2026-01-09 00:54:40.20	114.94	35.74	-32.2	-33.4	20.8	0.00e+00	0	56	0	2129657856	36	4028
2026-01-09 00:54:41.20	115.33	35.67	-32.3	-33.5	20.7	0.00e+00	0	56	0	2134900736	36	4072
2026-01-09 00:54:42.21	115.72	35.60	-32.5	-33.7	20.5	0.00e+00	0	57	0	2140143616	36	4163
2026-01-09 00:54:43.22	116.11	35.52	-32.5	-33.8	20.5	0.00e+00	0	57	0	2146435072	36	4204
2026-01-09 00:54:44.23	116.50	35.44	-32.5	-33.8	20.4	0.00e+00	0	57	0	2151677952	36	4201
2026-01-09 00:54:45.24	116.88	35.37	-32.5	-33.7	20.5	0.00e+00	0	56	0	2157969408	36	4168
2026-01-09 00:54:46.25	117.27	35.29	-32.5	-33.7	20.5	0.00e+00	0	57	0	2163212288	36	4175
2026-01-09 00:54:47.26	117.65	35.20	-32.5	-33.8	20.5	0.00e+00	0	57	0	2168455168	36	4204
2026-01-09 00:54:48.28	118.04	35.12	-32.6	-33.9	20.4	0.00e+00	0	57	0	2174746624	36	4265
2026-01-09 00:54:49.28	118.41	35.04	-32.6	-33.9	20.3	0.00e+00	0	56	0	2179989504	36	4266
2026-01-09 00:54:50.29	118.79	34.96	-32.7	-33.9	20.3	0.00e+00	0	56	0	2186280960	36	4273
2026-01-09 00:54:51.30	119.16	34.87	-32.6	-33.8	20.3	0.00e+00	0	57	0	2191523840	36	4233
2026-01-09 00:54:52.31	119.54	34.78	-32.5	-33.8	20.4	0.00e+00	0	57	0	2196766720	36	4204
2026-01-09 00:54:53.32	119.91	34.70	-32.5	-33.7	20.4	0.00e+00	0	56	0	2203058176	36	4188
2026-01-09 00:54:54.33	120.28	34.61	-32.5	-33.7	20.5	0.00e+00	0	56	0	2208301056	36	4168
2026-01-09 00:54:55.34	120.65	34.52	-32.5	-33.7	20.5	0.00e+00	0	56	0	2214592512	36	4189
2026-01-09 00:54:56.35	121.01	34.43	-32.6	-33.8	20.4	0.00e+00	0	56	0	2219835392	36	4227
2026-01-09 00:54:57.36	121.38	34.34	-32.8	-34.0	20.2	0.00e+00	0	56	0	2226126848	36	4326
2026-01-09 00:54:58.37	121.74	34.24	-32.9	-34.1	20.1	0.00e+00	0	57	0	2231369728	36	4391
2026-01-09 00:54:59.38	122.10	34.15	-32.8	-34.1	20.2	0.00e+00	0	56	0	2237661184	36	4355
2026-01-09 00:55:00.39	122.45	34.06	-32.7	-34.0	20.3	0.00e+00	0	56	0	2242904064	36	4296
2026-01-09 00:55:01.40	122.81	33.96	-32.6	-33.8	20.4	0.00e+00	0	57	0	2248146944	36	4233
2026-01-09 00:55:02.41	123.16	33.86	-32.6	-33.8	20.4	0.00e+00	0	56	0	2254438400	36	4217
2026-01-09 00:55:03.42	123.51	33.77	-32.6	-33.9	20.3	0.00e+00	0	57	0	2259681280	36	4255
2026-01-09 00:55:04.43	123.86	33.67	-32.7	-34.0	20.2	0.00e+00	0	56	0	2265972736	36	4314
2026-01-09 00:55:05.44	124.21	33.57	-32.9	-34.1	20.1	0.00e+00	0	56	0	2271215616	36	4388
2026-01-09 00:55:06.45	124.56	33.47	-32.9	-34.2	20.0	0.00e+00	0	56	0	2276458496	36	4423
2026-01-09 00:55:07.45	124.90	33.37	-32.9	-34.2	20.0	0.00e+00	0	56	0	2282749952	36	4418
2026-01-09 00:55:08.46	125.24	33.27	-32.8	-34.1	20.1	0.00e+00	0	56	0	2287992832	36	4366
2026-01-09 00:55:09.47	125.58	33.17	-32.8	-34.0	20.2	0.00e+00	0	56	0	2294284288	36	4328
2026-01-09 00:55:10.48	125.91	33.06	-32.6	-33.9	20.3	0.00e+00	0	56	0	2299527168	36	4257
2026-01-09 00:55:11.49	126.25	32.96	-32.7	-33.9	20.3	0.00e+00	0	56	0	2304770048	36	4259
2026-01-09 00:55:12.50	126.58	32.86	-32.7	-34.0	20.2	0.00e+00	0	56	0	2311061504	36	4299
2026-01-09 00:55:13.51	126.91	32.75	-32.8	-34.1	20.1	0.00e+00	0	56	0	2316304384	36	4347
2026-01-09 00:55:14.52	127.24	32.64	-32.9	-34.2	20.0	0.00e+00	0	57	0	2322595840	36	4396
2026-01-09 00:55:15.53	127.56	32.54	-32.8	-34.1	20.1	0.00e+00	0	56	0	2327838720	36	4381
2026-01-09 00:55:16.54	127.89	32.43	-32.8	-34.1	20.1	0.00e+00	0	56	0	2334130176	36	4352
2026-01-09 00:55:17.55	128.21	32.32	-32.8	-34.1	20.1	0.00e+00	0	57	0	2339373056	36	4365
2026-01-09 00:55:18.56	128.53	32.22	-32.9	-34.2	19.9	0.00e+00	0	56	0	2344615936	36	4418
2026-01-09 00:55:19.57	128.85	32.11	-33.0	-34.3	19.9	0.00e+00	0	57	0	2350907392	36	4458
2026-01-09 00:55:20.58	129.17	32.00	-33.0	-34.3	19.9	0.00e+00	0	56	0	2356150272	36	4482
2026-01-09 00:55:21.60	129.48	31.89	-33.0	-34.3	19.9	0.00e+00	0	57	0	2362441728	36	4470
2026-01-09 00:55:22.60	129.79	31.78	-32.9	-34.2	20.0	0.00e+00	0	56	0	2367684608	36	4434
2026-01-09 00:55:23.61	130.10	31.67	-32.9	-34.1	20.1	0.00e+00	0	56	0	2372927488	36	4385
2026-01-09 00:55:24.62	130.41	31.56	-32.8	-34.1	20.1	0.00e+00	0	57	0	2379218944	36	4354
2026-01-09 00:55:25.63	130.71	31.44	-32.7	-34.0	20.2	0.00e+00	0	56	0	2384461824	36	4313
2026-01-09 00:55:26.64	131.02	31.33	-32.7	-34.0	20.3	0.00e+00	0	56	0	2390753280	36	4292
2026-01-09 00:55:27.65	131.32	31.22	-32.7	-34.0	20.2	0.00e+00	0	56	0	2395996160	36	4309
2026-01-09 00:55:28.66	131.62	31.11	-32.8	-34.1	20.1	0.00e+00	0	56	0	2401239040	36	4360
2026-01-09 00:55:29.67	131.91	30.99	-32.9	-34.2	20.0	0.00e+00	0	57	0	2407530496	36	4430
2026-01-09 00:55:30.68	132.21	30.88	-33.0	-34.3	19.9	0.00e+00	0	56	0	2412773376	36	4464
2026-01-09 00:55:31.69	132.50	30.77	-33.0	-34.3	19.8	0.00e+00	0	57	0	2419064832	36	4474
2026-01-09 00:55:32.69	132.79	30.65	-33.0	-34.3	19.8	0.00e+00	0	57	0	2424307712	36	4489
2026-01-09 00:55:33.70	133.08	30.54	-33.1	-34.4	19.8	0.00e+00	0	56	0	2430599168	36	4519
2026-01-09 00:55:34.71	133.37	30.42	-33.1	-34.5	19.7	0.00e+00	0	57	0	2435842048	36	4554
2026-01-09 00:55:35.72	133.65	30.31	-33.2	-34.5	19.7	0.00e+00	0	57	0	2442133504	36	4590
2026-01-09 00:55:36.73	133.94	30.19	-33.2	-34.5	19.8	0.00e+00	0	57	0	2447376384	36	4576
2026-01-09 00:55:37.74	134.22	30.07	-33.1	-34.4	19.9	0.00e+00	0	56	0	2452619264	36	4531
2026-01-09 00:55:38.75	134.50	29.96	-33.0	-34.3	20.0	0.00e+00	0	57	0	2458910720	36	4464
2026-01-09 00:55:39.76	134.77	29.84	-33.0	-34.3	20.0	0.00e+00	0	57	0	2464153600	36	4442
2026-01-09 00:55:40.77	135.05	29.72	-33.0	-34.3	20.0	0.00e+00	0	56	0	2470445056	36	4459
2026-01-09 00:55:41.78	135.32	29.61	-33.1	-34.4	19.9	0.00e+00	0	56	0	2475687936	36	4501
2026-01-09 00:55:42.79	135.59	29.49	-33.1	-34.4	19.9	0.00e+00	0	56	0	2480930816	36	4535
2026-01-09 00:55:43.80	135.86	29.37	-33.2	-34.5	19.8	0.00e+00	0	57	0	2487222272	36	4559
2026-01-09 00:55:44.81	136.13	29.26	-33.2	-34.5	19.8	0.00e+00	0	57	0	2492465152	36	4571
2026-01-09 00:55:45.82	136.40	29.14	-33.2	-34.5	19.8	0.00e+00	0	57	0	2498756608	36	4559
2026-01-09 00:55:46.83	136.66	29.02	-33.1	-34.4	19.8	0.00e+00	0	56	0	2503999488	36	4536
2026-01-09 00:55:47.84	136.92	28.90	-33.1	-34.4	19.8	0.00e+00	0	56	0	2509242368	36	4536
2026-01-09 00:55:48.85	137.18	28.78	-33.2	-34.5	19.8	0.00e+00	0	57	0	2515533824	36	4548
2026-01-09 00:55:49.85	137.44	28.67	-33.3	-34.6	19.6	0.00e+00	0	56	0	2520776704	37	4382
2026-01-09 00:55:50.86	137.69	28.55	-33.5	-34.8	19.4	0.00e+00	0	57	0	2527068160	37	4478
2026-01-09 00:55:51.87	137.95	28.43	-33.6	-35.0	19.3	0.00e+00	0	56	0	2532311040	37	4568
2026-01-09 00:55:52.88	138.20	28.31	-33.6	-35.0	19.3	0.00e+00	0	57	0	2538602496	37	4574
2026-01-09 00:55:53.89	138.45	28.19	-33.5	-34.9	19.4	0.00e+00	0	57	0	2543845376	37	4525
2026-01-09 00:55:54.91	138.70	28.07	-33.4	-34.7	19.5	0.00e+00	0	56	0	2549088256	37	4432
2026-01-09 00:55:55.92	138.95	27.95	-33.3	-34.6	19.7	0.00e+00	0	57	0	2555379712	37	4349
2026-01-09 00:55:56.93	139.19	27.83	-33.2	-34.4	19.8	0.00e+00	0	57	0	2560622592	37	4287
2026-01-09 00:55:57.94	139.44	27.72	-33.1	-34.4	19.8	0.00e+00	0	57	0	2566914048	37	4276
2026-01-09 00:55:58.95	139.68	27.60	-33.2	-34.5	19.8	0.00e+00	0	56	0	2572156928	37	4305
2026-01-09 00:55:59.96	139.92	27.48	-33.2	-34.5	19.7	0.00e+00	0	56	0	2577399808	37	4335
2026-01-09 00:56:00.97	140.16	27.36	-33.3	-34.6	19.6	0.00e+00	0	56	0	2583691264	37	4386
2026-01-09 00:56:01.98	140.39	27.24	-33.3	-34.6	19.7	0.00e+00	0	57	0	2588934144	37	4360
2026-01-09 00:56:02.99	140.63	27.12	-33.3	-34.6	19.7	0.00e+00	0	57	0	2595225600	37	4362
2026-01-09 00:56:04.00	140.86	27.00	-33.2	-34.5	19.8	0.00e+00	0	57	0	2600468480	37	4308
2026-01-09 00:56:05.01	141.09	26.88	-33.1	-34.5	19.8	0.00e+00	0	57	0	2605711360	37	4294
2026-01-09 00:56:06.02	141.32	26.76	-33.1	-34.4	19.8	0.00e+00	0	56	0	2612002816	37	4279
2026-01-09 00:56:07.03	141.55	26.64	-33.1	-34.4	19.8	0.00e+00	0	56	0	2617245696	37	4279
2026-01-09 00:56:08.04	141.78	26.53	-33.1	-34.4	19.8	0.00e+00	0	56	0	2623537152	37	4281
2026-01-09 00:56:09.05	142.00	26.41	-33.1	-34.4	19.8	0.00e+00	0	56	0	2628780032	37	4280
2026-01-09 00:56:10.06	142.23	26.29	-33.2	-34.5	19.8	0.00e+00	0	56	0	2635071488	37	4307
2026-01-09 00:56:11.07	142.45	26.17	-33.3	-34.6	19.7	0.00e+00	0	57	0	2640314368	37	4356
2026-01-09 00:56:12.08	142.67	26.05	-33.3	-34.6	19.7	0.00e+00	0	57	0	2646605824	37	4358
2026-01-09 00:56:13.09	142.89	25.93	-33.3	-34.6	19.6	0.00e+00	0	57	0	2651848704	37	4375
2026-01-09 00:56:14.10	143.10	25.81	-33.3	-34.6	19.7	0.00e+00	0	57	0	2657091584	37	4361
2026-01-09 00:56:15.11	143.32	25.70	-33.3	-34.6	19.7	0.00e+00	0	57	0	2663383040	37	4350
2026-01-09 00:56:16.12	143.53	25.58	-33.3	-34.6	19.7	0.00e+00	0	57	0	2668625920	37	4351
2026-01-09 00:56:17.13	143.74	25.46	-33.3	-34.6	19.7	0.00e+00	0	57	0	2674917376	37	4350
2026-01-09 00:56:18.14	143.95	25.34	-33.3	-34.6	19.7	0.00e+00	0	57	0	2680160256	37	4369
2026-01-09 00:56:19.15	144.16	25.22	-33.4	-34.7	19.6	0.00e+00	0	57	0	2685403136	37	4413
2026-01-09 00:56:20.16	144.37	25.11	-33.4	-34.8	19.5	0.00e+00	0	57	0	2691694592	37	4454
2026-01-09 00:56:21.17	144.58	24.99	-33.5	-34.9	19.4	0.00e+00	0	57	0	2696937472	37	4507
2026-01-09 00:56:22.18	144.78	24.87	-33.6	-35.0	19.4	0.00e+00	0	57	0	2703228928	37	4549
2026-01-09 00:56:23.19	144.98	24.75	-33.7	-35.0	19.3	0.00e+00	0	57	0	2708471808	37	4580
2026-01-09 00:56:24.20	145.18	24.64	-33.6	-35.0	19.3	0.00e+00	0	57	0	2713714688	37	4556
2026-01-09 00:56:25.21	145.38	24.52	-33.6	-34.9	19.3	0.00e+00	0	57	0	2720006144	37	4545
2026-01-09 00:56:26.22	145.58	24.40	-33.5	-34.9	19.4	0.00e+00	0	57	0	2725249024	37	4503
2026-01-09 00:56:27.23	145.78	24.29	-33.5	-34.8	19.4	0.00e+00	0	57	0	2731540480	37	4489
2026-01-09 00:56:28.23	145.97	24.17	-33.5	-34.8	19.4	0.00e+00	0	56	0	2736783360	37	4460
2026-01-09 00:56:29.24	146.17	24.06	-33.5	-34.8	19.5	0.00e+00	0	57	0	2743074816	37	4461
2026-01-09 00:56:30.25	146.36	23.94	-33.5	-34.9	19.4	0.00e+00	0	57	0	2748317696	37	4495
2026-01-09 00:56:31.26	146.55	23.82	-33.5	-34.9	19.3	0.00e+00	0	57	0	2753560576	37	4518
2026-01-09 00:56:32.27	146.74	23.71	-33.6	-35.0	19.2	0.00e+00	0	57	0	2759852032	37	4576
2026-01-09 00:56:33.28	146.93	23.59	-33.7	-35.1	19.2	0.00e+00	0	57	0	2765094912	37	4602
2026-01-09 00:56:34.29	147.12	23.48	-33.8	-35.2	19.1	0.00e+00	0	57	0	2771386368	38	4409
2026-01-09 00:56:35.30	147.30	23.36	-33.8	-35.2	19.0	0.00e+00	0	57	0	2776629248	38	4425
2026-01-09 00:56:36.31	147.49	23.25	-33.8	-35.2	19.0	0.00e+00	0	57	0	2781872128	38	4426
2026-01-09 00:56:37.32	147.67	23.13	-33.8	-35.2	19.1	0.00e+00	0	57	0	2788163584	38	4424
2026-01-09 00:56:38.33	147.85	23.02	-33.8	-35.1	19.1	0.00e+00	0	57	0	2793406464	38	4383
2026-01-09 00:56:39.33	148.03	22.91	-33.7	-35.1	19.2	0.00e+00	0	57	0	2799697920	38	4361
2026-01-09 00:56:40.34	148.21	22.79	-33.7	-35.0	19.2	0.00e+00	0	57	0	2804940800	38	4325
2026-01-09 00:56:41.36	148.39	22.68	-33.7	-35.1	19.2	0.00e+00	0	56	0	2810183680	38	4353
2026-01-09 00:56:42.36	148.57	22.56	-33.7	-35.0	19.2	0.00e+00	0	57	0	2816475136	38	4330
2026-01-09 00:56:43.37	148.74	22.45	-33.7	-35.1	19.2	0.00e+00	0	57	0	2821718016	38	4357
2026-01-09 00:56:44.38	148.92	22.34	-33.8	-35.1	19.1	0.00e+00	0	57	0	2828009472	38	4385
2026-01-09 00:56:45.39	149.09	22.23	-33.9	-35.3	19.0	0.00e+00	0	57	0	2833252352	38	4456
2026-01-09 00:56:46.40	149.26	22.11	-33.9	-35.3	19.0	0.00e+00	0	57	0	2839543808	38	4464
2026-01-09 00:56:47.41	149.44	22.00	-34.0	-35.4	18.9	0.00e+00	0	57	0	2844786688	38	4507
2026-01-09 00:56:48.42	149.60	21.89	-34.0	-35.4	18.9	0.00e+00	0	57	0	2851078144	38	4542
2026-01-09 00:56:49.43	149.77	21.78	-34.1	-35.5	18.8	0.00e+00	0	57	0	2856321024	38	4576
2026-01-09 00:56:50.44	149.94	21.66	-34.1	-35.5	18.8	0.00e+00	0	57	0	2861563904	38	4567
2026-01-09 00:56:51.45	150.11	21.55	-34.1	-35.5	18.8	0.00e+00	0	57	0	2867855360	38	4588
2026-01-09 00:56:52.46	150.27	21.44	-34.1	-35.5	18.8	0.00e+00	0	57	0	2873098240	38	4590
2026-01-09 00:56:53.47	150.44	21.33	-34.1	-35.5	18.8	0.00e+00	0	57	0	2879389696	38	4562
2026-01-09 00:56:54.48	150.60	21.22	-34.1	-35.5	18.8	0.00e+00	0	56	0	2884632576	38	4574
2026-01-09 00:56:55.49	150.76	21.11	-34.1	-35.5	18.8	0.00e+00	0	56	0	2889875456	38	4572
2026-01-09 00:56:56.49	150.92	21.00	-34.2	-35.6	18.7	0.00e+00	0	57	0	2896166912	38	4606
2026-01-09 00:56:57.50	151.08	20.89	-34.2	-35.6	18.7	0.00e+00	0	57	0	2901409792	38	4626
2026-01-09 00:56:58.51	151.24	20.78	-34.3	-35.7	18.6	0.00e+00	0	57	0	2906652672	39	4406
2026-01-09 00:56:59.52	151.39	20.67	-34.4	-35.8	18.5	0.00e+00	0	57	0	2912944128	39	4463
2026-01-09 00:57:00.53	151.55	20.56	-34.4	-35.9	18.4	0.00e+00	0	57	0	2918187008	39	4513
2026-01-09 00:57:01.54	151.70	20.46	-34.5	-36.0	18.3	0.00e+00	0	57	0	2924478464	39	4554
2026-01-09 00:57:02.55	151.86	20.35	-34.5	-36.0	18.2	0.00e+00	0	57	0	2929721344	39	4573
2026-01-09 00:57:03.56	152.01	20.24	-34.5	-36.0	18.3	0.00e+00	0	57	0	2936012800	39	4559
2026-01-09 00:57:04.57	152.16	20.13	-34.5	-36.0	18.3	0.00e+00	0	57	0	2941255680	39	4575
2026-01-09 00:57:05.58	152.31	20.02	-34.5	-36.0	18.3	0.00e+00	0	57	0	2947547136	39	4558
2026-01-09 00:57:06.59	152.46	19.92	-34.5	-36.0	18.3	0.00e+00	0	57	0	2952790016	39	4557
2026-01-09 00:57:07.60	152.61	19.81	-34.5	-35.9	18.3	0.00e+00	0	57	0	2958032896	39	4539
2026-01-09 00:57:08.61	152.76	19.70	-34.6	-36.0	18.2	0.00e+00	0	56	0	2964324352	39	4581
2026-01-09 00:57:09.62	152.91	19.59	-34.6	-36.0	18.2	0.00e+00	0	57	0	2969567232	39	4588
2026-01-09 00:57:10.63	153.05	19.49	-34.6	-36.1	18.1	0.00e+00	0	57	0	2975858688	39	4638
2026-01-09 00:57:11.64	153.20	19.38	-34.7	-36.1	18.1	0.00e+00	0	57	0	2981101568	39	4648
2026-01-09 00:57:12.65	153.34	19.28	-34.7	-36.2	18.1	0.00e+00	0	57	0	2986344448	39	4653
2026-01-09 00:57:13.66	153.48	19.17	-34.7	-36.2	18.1	0.00e+00	0	57	0	2992635904	39	4653
2026-01-09 00:57:14.67	153.63	19.07	-34.7	-36.1	18.1	0.00e+00	0	57	0	2997878784	39	4636
2026-01-09 00:57:15.68	153.77	18.96	-34.7	-36.2	18.1	0.00e+00	0	57	0	3004170240	39	4668
2026-01-09 00:57:16.69	153.91	18.86	-34.7	-36.2	18.1	0.00e+00	0	57	0	3009413120	39	4657
2026-01-09 00:57:17.69	154.04	18.75	-34.7	-36.1	18.1	0.00e+00	0	57	0	3014656000	39	4647
2026-01-09 00:57:18.70	154.18	18.65	-34.7	-36.2	18.1	0.00e+00	0	57	0	3020947456	39	4672
2026-01-09 00:57:19.71	154.32	18.55	-34.7	-36.2	18.0	0.00e+00	0	57	0	3026190336	40	4408
2026-01-09 00:57:20.72	154.46	18.44	-34.8	-36.3	17.9	0.00e+00	0	57	0	3032481792	40	4442
2026-01-09 00:57:21.73	154.59	18.34	-34.8	-36.3	17.9	0.00e+00	0	57	0	3037724672	40	4472
2026-01-09 00:57:22.74	154.73	18.24	-34.9	-36.4	17.8	0.00e+00	0	57	0	3044016128	40	4521
2026-01-09 00:57:23.75	154.86	18.13	-34.9	-36.4	17.8	0.00e+00	0	57	0	3049259008	40	4537
2026-01-09 00:57:24.77	154.99	18.03	-34.9	-36.5	17.7	0.00e+00	0	57	0	3054501888	40	4566
2026-01-09 00:57:25.77	155.13	17.93	-35.0	-36.5	17.7	0.00e+00	0	57	0	3060793344	40	4580
2026-01-09 00:57:26.78	155.26	17.83	-35.0	-36.5	17.7	0.00e+00	0	57	0	3066036224	40	4575
2026-01-09 00:57:27.79	155.39	17.72	-35.0	-36.5	17.7	0.00e+00	0	57	0	3072327680	40	4583
2026-01-09 00:57:28.80	155.52	17.62	-35.0	-36.5	17.7	0.00e+00	0	57	0	3077570560	40	4593
2026-01-09 00:57:29.81	155.64	17.52	-35.0	-36.5	17.7	0.00e+00	0	57	0	3082813440	40	4577
2026-01-09 00:57:30.82	155.77	17.42	-34.9	-36.4	17.8	0.00e+00	0	57	0	3089104896	40	4543
2026-01-09 00:57:31.83	155.90	17.32	-34.9	-36.4	17.8	0.00e+00	0	57	0	3094347776	40	4539
2026-01-09 00:57:32.84	156.03	17.22	-34.9	-36.4	17.8	0.00e+00	0	57	0	3100639232	40	4510
2026-01-09 00:57:33.85	156.15	17.12	-34.9	-36.3	17.8	0.00e+00	0	56	0	3105882112	40	4493
2026-01-09 00:57:34.86	156.28	17.02	-34.9	-36.4	17.8	0.00e+00	0	57	0	3111124992	40	4498
2026-01-09 00:57:35.87	156.40	16.92	-34.9	-36.4	17.8	0.00e+00	0	57	0	3117416448	40	4508
2026-01-09 00:57:36.88	156.52	16.82	-34.9	-36.4	17.8	0.00e+00	0	57	0	3122659328	40	4507
2026-01-09 00:57:37.89	156.64	16.72	-34.9	-36.4	17.8	0.00e+00	0	57	0	3128950784	40	4494
2026-01-09 00:57:38.90	156.77	16.63	-34.9	-36.4	17.8	0.00e+00	0	57	0	3134193664	40	4526
2026-01-09 00:57:39.91	156.89	16.53	-34.9	-36.5	17.7	0.00e+00	0	57	0	3140485120	40	4549
2026-01-09 00:57:40.92	157.01	16.43	-34.9	-36.4	17.7	0.00e+00	0	57	0	3145728000	40	4530
2026-01-09 00:57:41.93	157.12	16.33	-35.0	-36.5	17.7	0.00e+00	0	57	0	3152019456	40	4574
2026-01-09 00:57:42.93	157.24	16.24	-35.0	-36.5	17.6	0.00e+00	0	57	0	3157262336	40	4598
2026-01-09 00:57:43.95	157.36	16.14	-35.1	-36.6	17.5	0.00e+00	0	57	0	3162505216	40	4640
2026-01-09 00:57:44.96	157.48	16.04	-35.1	-36.7	17.5	0.00e+00	0	57	0	3168796672	40	4663
2026-01-09 00:57:45.97	157.59	15.94	-35.2	-36.7	17.4	0.00e+00	0	57	0	3174039552	40	4685
2026-01-09 00:57:46.98	157.71	15.85	-35.2	-36.8	17.4	0.00e+00	0	57	0	3180331008	41	4451
2026-01-09 00:57:47.99	157.82	15.75	-35.3	-36.9	17.3	0.00e+00	0	57	0	3185573888	41	4496
2026-01-09 00:57:49.00	157.94	15.66	-35.3	-36.9	17.3	0.00e+00	0	57	0	3190816768	41	4501
2026-01-09 00:57:50.01	158.05	15.56	-35.4	-37.0	17.2	0.00e+00	0	57	0	3197108224	41	4559
2026-01-09 00:57:51.02	158.16	15.47	-35.4	-37.0	17.1	0.00e+00	0	57	0	3202351104	41	4594
2026-01-09 00:57:52.03	158.28	15.37	-35.5	-37.1	17.0	0.00e+00	0	57	0	3208642560	41	4638
2026-01-09 00:57:53.04	158.39	15.28	-35.5	-37.1	17.0	0.00e+00	0	57	0	3213885440	41	4647
2026-01-09 00:57:54.05	158.50	15.18	-35.6	-37.2	17.0	0.00e+00	0	57	0	3219128320	41	4677
2026-01-09 00:57:55.05	158.61	15.09	-35.6	-37.3	16.9	0.00e+00	0	57	0	3225419776	41	4709
2026-01-09 00:57:56.06	158.72	14.99	-35.6	-37.3	16.9	0.00e+00	0	57	0	3230662656	41	4727
2026-01-09 00:57:57.07	158.82	14.90	-35.8	-37.4	16.8	0.00e+00	0	57	0	3236954112	42	4526
2026-01-09 00:57:58.08	158.93	14.81	-35.8	-37.4	16.7	0.00e+00	0	57	0	3242196992	42	4541
2026-01-09 00:57:59.09	159.04	14.71	-35.9	-37.5	16.7	0.00e+00	0	57	0	3247439872	42	4588
2026-01-09 00:58:00.10	159.15	14.62	-35.9	-37.6	16.6	0.00e+00	0	57	0	3253731328	42	4618
2026-01-09 00:58:01.11	159.25	14.53	-35.8	-37.4	16.7	0.00e+00	0	57	0	3258974208	42	4539
2026-01-09 00:58:02.12	159.36	14.44	-35.8	-37.5	16.7	0.00e+00	0	57	0	3265265664	42	4556
2026-01-09 00:58:03.13	159.46	14.34	-35.9	-37.5	16.6	0.00e+00	0	57	0	3270508544	42	4589
2026-01-09 00:58:04.14	159.57	14.25	-35.8	-37.4	16.7	0.00e+00	0	57	0	3276800000	42	4527
2026-01-09 00:58:05.15	159.67	14.16	-35.8	-37.4	16.7	0.00e+00	0	57	0	3282042880	42	4541
2026-01-09 00:58:06.16	159.77	14.07	-35.8	-37.4	16.7	0.00e+00	0	57	0	3287285760	42	4521
2026-01-09 00:58:07.17	159.87	13.98	-35.7	-37.4	16.8	0.00e+00	0	57	0	3293577216	42	4497
2026-01-09 00:58:08.18	159.98	13.89	-35.8	-37.4	16.7	0.00e+00	0	57	0	3298820096	42	4543
2026-01-09 00:58:09.19	160.08	13.80	-35.8	-37.5	16.6	0.00e+00	0	57	0	3305111552	42	4561
2026-01-09 00:58:10.20	160.18	13.71	-35.8	-37.5	16.6	0.00e+00	0	57	0	3310354432	42	4567
2026-01-09 00:58:11.21	160.28	13.62	-35.9	-37.6	16.5	0.00e+00	0	57	0	3315597312	42	4627
2026-01-09 00:58:12.22	160.38	13.53	-36.1	-37.8	16.4	0.00e+00	0	57	0	3321888768	42	4707
2026-01-09 00:58:13.22	160.47	13.44	-36.1	-37.9	16.3	0.00e+00	0	57	0	3327131648	42	4769
2026-01-09 00:58:14.23	160.57	13.35	-36.1	-37.8	16.2	0.00e+00	0	57	0	3333423104	43	4484
2026-01-09 00:58:15.24	160.67	13.26	-36.0	-37.8	16.3	0.00e+00	0	57	0	3338665984	43	4444
2026-01-09 00:58:16.25	160.77	13.17	-36.0	-37.7	16.4	0.00e+00	0	57	0	3343908864	43	4413
2026-01-09 00:58:17.26	160.86	13.08	-36.0	-37.7	16.3	0.00e+00	0	57	0	3350200320	43	4440
2026-01-09 00:58:18.27	160.96	13.00	-36.2	-37.9	16.2	0.00e+00	0	57	0	3355443200	43	4516
2026-01-09 00:58:19.28	161.05	12.91	-36.2	-38.0	16.1	0.00e+00	0	57	0	3361734656	43	4556
2026-01-09 00:58:20.29	161.15	12.82	-36.2	-38.0	16.0	0.00e+00	0	57	0	3366977536	43	4570
2026-01-09 00:58:21.30	161.24	12.73	-36.2	-38.0	16.1	0.00e+00	0	57	0	3373268992	43	4566
2026-01-09 00:58:22.31	161.34	12.65	-36.1	-37.8	16.2	0.00e+00	0	57	0	3378511872	43	4473
2026-01-09 00:58:23.32	161.43	12.56	-36.1	-37.8	16.2	0.00e+00	0	57	0	3384803328	43	4465
2026-01-09 00:58:24.33	161.52	12.47	-36.0	-37.8	16.3	0.00e+00	0	57	0	3390046208	43	4450
2026-01-09 00:58:25.34	161.62	12.39	-36.1	-37.9	16.2	0.00e+00	0	57	0	3395289088	43	4496
2026-01-09 00:58:26.35	161.71	12.30	-36.1	-37.8	16.2	0.00e+00	0	57	0	3401580544	43	4487
2026-01-09 00:58:27.36	161.80	12.21	-36.1	-37.8	16.2	0.00e+00	0	57	0	3406823424	43	4478
2026-01-09 00:58:28.37	161.89	12.13	-36.1	-37.9	16.1	0.00e+00	0	57	0	3413114880	43	4505
2026-01-09 00:58:29.38	161.98	12.04	-36.2	-38.0	16.0	0.00e+00	0	57	0	3418357760	43	4553
2026-01-09 00:58:30.39	162.07	11.96	-36.3	-38.1	15.9	0.00e+00	0	57	0	3423600640	43	4619
2026-01-09 00:58:31.40	162.16	11.87	-36.3	-38.1	15.9	0.00e+00	0	57	0	3429892096	43	4637
2026-01-09 00:58:32.41	162.25	11.79	-36.5	-38.3	15.7	0.00e+00	0	57	0	3435134976	43	4734
2026-01-09 00:58:33.42	162.33	11.70	-36.4	-38.2	15.8	0.00e+00	0	57	0	3441426432	43	4673
2026-01-09 00:58:34.43	162.42	11.62	-36.2	-38.0	15.9	0.00e+00	0	57	0	3446669312	43	4581
2026-01-09 00:58:35.44	162.51	11.53	-36.3	-38.1	15.8	0.00e+00	0	57	0	3451912192	43	4634
2026-01-09 00:58:36.45	162.60	11.45	-36.4	-38.2	15.8	0.00e+00	0	57	0	3458203648	43	4677
