passes_logs/2026/01/09/R2.0S_Moscow/R2.0S_Moscow__20260109_232757_SUOMI_NPP_rec.log

#Pass ID: 20260109_232757_SUOMI NPP
#Satellite: SUOMI NPP
#Configuration: NPP
#almurnet v.1.7.20251203
#Start time: 2026-01-09 23:35:53

#Version: 2.2.20231116
#Station: R2.0S_Moscow
#Location: 37.707566 lon 55.798166 lat
#TLE: 1 37849U 11061A   26008.83076692  .00000095  00000+0  66074-4 0  9997
#TLE: 2 37849  98.7806 310.9327 0002533  74.3004 285.8451 14.19523607735834

#Time	Az	El	Level	Level2	SNR	BER	BlckErr	Temp	State	Recorded	gain1	gain2
2026-01-09 23:35:53.39	152.57	62.79	-45.0	-63.4	3.8	8.46e-01	0	55	0	0	60	32116
2026-01-09 23:35:54.39	153.25	62.48	-45.0	-59.8	3.8	1.49e+00	0	56	104	0	61	19887
2026-01-09 23:35:55.40	153.92	62.15	-45.0	-59.8	3.8	1.49e+00	0	56	104	0	61	19853
2026-01-09 23:35:56.41	154.57	61.83	-45.0	-59.7	3.8	1.49e+00	0	56	104	0	61	19826
2026-01-09 23:35:57.42	155.20	61.50	-45.0	-59.7	3.8	1.49e+00	0	56	104	0	61	19834
2026-01-09 23:35:58.43	155.81	61.18	-45.0	-59.6	3.8	1.49e+00	0	56	104	0	61	19578
2026-01-09 23:35:59.44	156.41	60.85	-45.0	-59.6	3.8	1.49e+00	0	56	104	0	61	19611
2026-01-09 23:36:00.45	157.00	60.52	-45.0	-59.7	3.8	1.49e+00	0	56	104	0	61	19618
2026-01-09 23:36:01.45	157.56	60.20	-44.9	-59.7	3.8	1.49e+00	0	56	104	0	61	19664
2026-01-09 23:36:02.47	158.13	59.86	-45.0	-59.7	3.8	1.49e+00	0	56	104	0	61	19664
2026-01-09 23:36:03.47	158.66	59.53	-44.9	-59.7	3.8	1.49e+00	0	56	104	0	61	19623
2026-01-09 23:36:04.48	159.19	59.20	-44.9	-59.6	3.8	1.49e+00	0	56	104	0	61	19603
2026-01-09 23:36:05.49	159.71	58.87	-45.0	-59.7	3.8	1.49e+00	0	56	104	0	61	19633
2026-01-09 23:36:06.50	160.21	58.54	-44.9	-59.7	3.8	1.49e+00	0	56	104	0	61	19625
2026-01-09 23:36:07.51	160.70	58.21	-44.9	-59.6	3.8	1.49e+00	0	56	104	0	61	19548
2026-01-09 23:36:08.52	161.18	57.88	-44.9	-59.7	3.8	1.49e+00	0	56	104	0	61	19625
2026-01-09 23:36:09.53	161.65	57.54	-44.9	-59.6	3.8	1.49e+00	0	56	104	0	61	19549
2026-01-09 23:36:10.54	162.10	57.21	-44.9	-59.6	3.8	1.49e+00	0	56	104	0	61	19589
2026-01-09 23:36:11.54	162.54	56.88	-44.9	-59.7	3.8	1.49e+00	0	56	104	0	61	19668
2026-01-09 23:36:12.55	162.98	56.55	-44.9	-59.6	3.8	1.49e+00	0	56	104	0	61	19439
2026-01-09 23:36:13.57	163.40	56.22	-44.9	-59.5	3.8	1.49e+00	0	56	104	0	61	19299
2026-01-09 23:36:14.58	163.82	55.89	-44.9	-59.6	3.8	1.49e+00	0	56	104	0	61	19476
2026-01-09 23:36:15.59	164.22	55.56	-44.9	-59.6	3.8	1.49e+00	0	56	104	0	61	19592
2026-01-09 23:36:16.60	164.62	55.23	-44.9	-59.6	3.8	1.49e+00	0	56	104	0	61	19520
2026-01-09 23:36:17.61	165.01	54.90	-44.9	-59.6	3.8	1.49e+00	0	56	104	0	61	19574
2026-01-09 23:36:18.62	165.38	54.58	-44.9	-59.5	3.8	1.49e+00	0	56	104	0	61	19389
2026-01-09 23:36:19.63	165.75	54.25	-44.9	-59.4	3.8	1.49e+00	0	56	104	0	61	19035
2026-01-09 23:36:20.64	166.11	53.92	-44.9	-59.5	3.8	1.49e+00	0	56	104	0	61	19365
2026-01-09 23:36:21.65	166.47	53.60	-44.9	-59.6	3.8	1.49e+00	0	56	104	0	61	19422
2026-01-09 23:36:22.66	166.81	53.28	-44.9	-59.6	3.8	1.49e+00	0	56	104	0	61	19498
2026-01-09 23:36:23.67	167.15	52.95	-44.9	-59.6	3.8	1.49e+00	0	56	104	0	61	19578
2026-01-09 23:36:24.68	167.48	52.63	-44.9	-59.6	3.8	1.49e+00	0	56	104	0	61	19467
2026-01-09 23:36:25.69	167.81	52.31	-44.9	-59.5	3.8	1.49e+00	0	56	104	0	61	19194
2026-01-09 23:36:26.70	168.12	51.99	-44.9	-59.5	3.8	1.49e+00	0	56	104	0	61	19182
2026-01-09 23:36:27.71	168.43	51.67	-44.9	-59.1	3.8	1.49e+00	0	56	104	0	61	18396
2026-01-09 23:36:28.73	168.74	51.35	-44.9	-59.0	3.8	1.49e+00	0	56	104	0	61	18211
2026-01-09 23:36:29.74	169.04	51.04	-44.9	-59.4	3.8	1.49e+00	0	56	104	0	61	18976
2026-01-09 23:36:30.75	169.33	50.72	-44.9	-59.6	3.8	1.49e+00	0	56	104	0	61	19428
2026-01-09 23:36:31.76	169.61	50.41	-44.9	-59.6	3.8	1.49e+00	0	56	104	0	61	19513
2026-01-09 23:36:32.77	169.89	50.10	-44.9	-59.6	3.8	1.49e+00	0	56	104	0	61	19444
2026-01-09 23:36:33.78	170.17	49.79	-44.9	-59.3	3.8	1.49e+00	0	56	104	0	61	18766
2026-01-09 23:36:34.79	170.44	49.48	-44.9	-59.3	3.8	1.49e+00	0	56	104	0	61	18791
2026-01-09 23:36:35.80	170.70	49.18	-44.9	-59.4	3.8	1.49e+00	0	56	104	0	61	19148
2026-01-09 23:36:36.81	170.96	48.87	-44.9	-59.4	3.8	1.49e+00	0	56	104	0	61	18997
2026-01-09 23:36:37.82	171.21	48.57	-44.9	-59.2	3.8	1.49e+00	0	56	104	0	61	18687
2026-01-09 23:36:38.83	171.46	48.26	-44.9	-59.6	3.8	1.49e+00	0	56	104	0	61	19391
2026-01-09 23:36:39.84	171.70	47.96	-44.9	-58.8	3.8	1.49e+00	0	56	104	0	61	17868
2026-01-09 23:36:40.85	171.94	47.66	-44.6	-55.3	4.4	1.45e+00	0	56	104	0	61	11887
2026-01-09 23:36:41.85	172.18	47.37	-44.5	-54.1	5.0	7.47e-01	0	56	0	1048576	61	10350
2026-01-09 23:36:42.86	172.41	47.07	-44.6	-55.0	4.5	7.35e-01	0	56	0	3145728	61	11483
2026-01-09 23:36:43.87	172.63	46.78	-44.8	-58.3	3.8	1.47e+00	0	56	104	3145728	61	16729
2026-01-09 23:36:44.88	172.85	46.49	-44.7	-56.7	3.9	1.49e+00	0	56	104	3145728	61	14000
2026-01-09 23:36:45.88	173.07	46.20	-44.0	-51.0	7.2	6.08e-01	0	56	0	3145728	59	8119
2026-01-09 23:36:46.89	173.28	45.91	-43.2	-48.4	9.8	2.32e-02	0	56	0	5242880	58	6381
2026-01-09 23:36:47.89	173.49	45.62	-44.9	-59.4	3.8	5.94e-01	0	56	104	7340032	60	20090
2026-01-09 23:36:48.90	173.70	45.34	-44.8	-58.3	3.8	1.49e+00	0	56	104	7340032	60	17748
2026-01-09 23:36:49.91	173.90	45.05	-41.2	-44.3	13.7	3.35e-01	0	56	0	7340032	53	5309
2026-01-09 23:36:50.92	174.10	44.77	-43.0	-47.8	10.5	1.99e-04	0	56	0	8388608	56	6697
2026-01-09 23:36:51.93	174.30	44.49	-43.9	-50.7	7.7	3.20e-04	0	56	0	10485760	58	8279
2026-01-09 23:36:52.94	174.49	44.21	-42.9	-47.6	10.7	1.15e-01	0	56	0	12582912	57	6168
2026-01-09 23:36:53.95	174.68	43.93	-42.8	-47.5	10.7	2.83e-03	0	56	0	14680064	56	6469
2026-01-09 23:36:54.95	174.86	43.65	-42.7	-47.2	11.1	1.48e-03	0	56	0	16777216	56	6224
2026-01-09 23:36:55.96	175.05	43.38	-42.6	-47.0	11.3	1.21e-03	0	56	0	17825792	56	6068
2026-01-09 23:36:56.97	175.23	43.11	-42.2	-46.1	12.2	3.23e-04	0	56	0	19922944	56	5468
2026-01-09 23:36:57.98	175.40	42.83	-41.7	-45.2	12.8	1.03e-04	0	56	0	22020096	55	5254
2026-01-09 23:36:58.99	175.58	42.56	-41.1	-44.3	13.8	1.60e-05	0	56	0	24117248	54	4987
2026-01-09 23:36:59.99	175.75	42.30	-40.8	-43.7	14.4	0.00e+00	0	56	0	26214400	53	4969
2026-01-09 23:37:01.00	175.92	42.03	-40.4	-43.1	15.0	0.00e+00	0	56	0	27262976	52	4879
2026-01-09 23:37:02.01	176.08	41.77	-39.9	-42.2	16.0	0.00e+00	0	56	0	29360128	51	4681
2026-01-09 23:37:03.02	176.25	41.50	-40.2	-42.7	15.5	0.00e+00	0	56	0	31457280	51	4965
2026-01-09 23:37:04.02	176.40	41.25	-40.7	-43.5	14.7	7.00e-07	0	56	0	33554432	52	5102
2026-01-09 23:37:05.03	176.56	40.99	-41.1	-44.2	14.0	7.00e-07	0	56	0	35651584	52	5535
2026-01-09 23:37:06.04	176.72	40.73	-41.3	-44.6	13.6	3.80e-06	0	56	0	36700160	53	5508
2026-01-09 23:37:07.05	176.87	40.47	-41.0	-44.0	14.1	7.00e-07	0	56	0	38797312	53	5108
2026-01-09 23:37:08.06	177.02	40.21	-40.3	-42.9	15.2	7.00e-07	0	56	0	40894464	52	4807
2026-01-09 23:37:09.06	177.17	39.96	-40.1	-42.6	15.6	0.00e+00	0	56	0	42991616	51	4896
2026-01-09 23:37:10.07	177.32	39.71	-39.7	-42.0	16.2	0.00e+00	0	56	0	45088768	51	4546
2026-01-09 23:37:11.08	177.46	39.46	-39.2	-41.3	16.9	0.00e+00	0	56	0	46137344	50	4458
2026-01-09 23:37:12.08	177.60	39.21	-39.6	-41.8	16.4	0.00e+00	0	56	0	48234496	50	4758
2026-01-09 23:37:13.09	177.74	38.97	-40.0	-42.5	15.7	0.00e+00	0	56	0	50331648	50	5126
2026-01-09 23:37:14.09	177.88	38.72	-40.6	-43.3	14.8	0.00e+00	0	56	0	52428800	51	5324
2026-01-09 23:37:15.10	178.02	38.48	-41.1	-44.3	13.8	7.00e-07	0	56	0	54525952	53	5290
2026-01-09 23:37:16.11	178.15	38.24	-41.6	-45.0	13.1	4.50e-06	0	56	0	55574528	53	5780
2026-01-09 23:37:17.12	178.28	38.00	-41.4	-44.8	13.3	3.89e-05	0	56	0	57671680	53	5624
2026-01-09 23:37:18.13	178.41	37.76	-41.1	-44.2	14.0	6.10e-06	0	56	0	59768832	53	5247
2026-01-09 23:37:19.14	178.54	37.52	-40.7	-43.6	14.5	3.80e-06	0	56	0	61865984	53	4903
2026-01-09 23:37:20.15	178.67	37.28	-40.0	-42.5	15.5	0.00e+00	0	56	0	63963136	52	4572
2026-01-09 23:37:21.15	178.79	37.05	-40.0	-42.4	15.8	0.00e+00	0	56	0	65011712	51	4780
2026-01-09 23:37:22.16	178.91	36.82	-40.1	-42.6	15.6	0.00e+00	0	56	0	67108864	51	4880
2026-01-09 23:37:23.17	179.04	36.59	-39.9	-42.2	15.9	0.00e+00	0	56	0	69206016	51	4702
2026-01-09 23:37:24.18	179.16	36.36	-40.4	-43.0	15.2	0.00e+00	0	56	0	71303168	51	5121
2026-01-09 23:37:25.19	179.27	36.13	-40.5	-43.2	15.0	0.00e+00	0	56	0	73400320	51	5234
2026-01-09 23:37:26.20	179.39	35.90	-40.7	-43.5	14.7	7.00e-07	0	56	0	74448896	51	5413
2026-01-09 23:37:27.21	179.51	35.67	-40.5	-43.2	15.0	0.00e+00	0	56	0	76546048	51	5224
2026-01-09 23:37:28.22	179.62	35.45	-40.9	-43.9	14.2	0.00e+00	0	56	0	78643200	52	5353
2026-01-09 23:37:29.22	179.73	35.23	-41.0	-44.0	14.1	1.50e-06	0	56	0	80740352	52	5428
2026-01-09 23:37:30.23	179.84	35.01	-41.4	-44.7	13.4	6.80e-06	0	56	0	82837504	53	5539
2026-01-09 23:37:31.24	179.95	34.79	-41.9	-45.7	12.4	5.72e-05	0	56	0	84934656	54	5880
2026-01-09 23:37:32.24	180.06	34.57	-42.1	-46.2	11.8	1.78e-04	0	56	0	85983232	54	6228
2026-01-09 23:37:33.25	180.16	34.35	-42.6	-47.2	10.7	1.45e-03	0	56	0	88080384	55	6606
2026-01-09 23:37:34.26	180.27	34.14	-42.4	-46.8	11.2	2.09e-03	0	56	0	90177536	55	6297
2026-01-09 23:37:35.27	180.37	33.92	-42.4	-46.8	11.1	2.12e-03	0	56	0	92274688	55	6318
2026-01-09 23:37:36.27	180.47	33.71	-42.2	-46.3	11.6	9.01e-04	0	57	0	93323264	55	5988
2026-01-09 23:37:37.28	180.58	33.50	-41.9	-45.6	12.3	2.44e-04	0	56	0	95420416	55	5516
2026-01-09 23:37:38.28	180.67	33.29	-41.5	-44.8	13.2	1.01e-04	0	56	0	97517568	54	5329
2026-01-09 23:37:39.29	180.77	33.08	-41.1	-44.2	13.8	1.06e-05	0	56	0	99614720	54	4938
2026-01-09 23:37:40.30	180.87	32.88	-40.9	-44.0	14.1	1.50e-06	0	56	0	101711872	53	5109
2026-01-09 23:37:41.31	180.97	32.67	-40.4	-43.1	14.9	1.50e-06	0	56	0	102760448	52	4891
2026-01-09 23:37:42.32	181.06	32.47	-40.6	-43.3	14.7	0.00e+00	0	56	0	104857600	52	5035
2026-01-09 23:37:43.33	181.16	32.26	-40.6	-43.4	14.6	0.00e+00	0	56	0	106954752	52	5071
2026-01-09 23:37:44.33	181.25	32.06	-40.6	-43.3	14.7	7.00e-07	0	56	0	109051904	52	5035
2026-01-09 23:37:45.34	181.34	31.86	-41.0	-44.0	14.0	5.30e-06	0	57	0	111149056	52	5429
2026-01-09 23:37:46.35	181.43	31.66	-41.2	-44.4	13.5	4.50e-06	0	56	0	113246208	53	5385
2026-01-09 23:37:47.36	181.52	31.46	-41.9	-45.6	12.3	4.27e-05	0	56	0	114294784	54	5843
2026-01-09 23:37:48.36	181.61	31.27	-42.1	-46.2	11.8	1.81e-04	0	56	0	116391936	54	6213
2026-01-09 23:37:49.37	181.70	31.07	-42.4	-46.9	10.9	2.07e-03	0	56	0	118489088	55	6376
2026-01-09 23:37:50.37	181.78	30.88	-42.5	-47.0	10.8	2.49e-03	0	57	0	120586240	55	6494
2026-01-09 23:37:51.38	181.87	30.69	-42.5	-47.0	10.9	2.25e-03	0	56	0	122683392	55	6458
2026-01-09 23:37:52.39	181.95	30.49	-42.4	-46.9	11.0	2.59e-03	0	56	0	123731968	55	6356
2026-01-09 23:37:53.39	182.03	30.30	-42.1	-46.2	11.7	8.41e-04	0	56	0	125829120	55	5874
2026-01-09 23:37:54.40	182.12	30.11	-42.3	-46.7	11.3	4.55e-04	0	56	0	127926272	55	6207
2026-01-09 23:37:55.40	182.20	29.93	-41.9	-45.8	12.1	7.60e-04	0	56	0	130023424	55	5608
2026-01-09 23:37:56.41	182.28	29.74	-41.6	-45.2	12.8	1.03e-04	0	56	0	131072000	55	5224
2026-01-09 23:37:57.42	182.36	29.55	-41.7	-45.4	12.6	1.30e-04	0	56	0	133169152	55	5342
2026-01-09 23:37:58.42	182.44	29.37	-41.6	-45.2	12.7	6.10e-05	0	56	0	135266304	55	5262
2026-01-09 23:37:59.43	182.52	29.19	-41.6	-45.2	12.7	7.47e-05	0	56	0	137363456	55	5259
2026-01-09 23:38:00.43	182.59	29.00	-41.5	-45.1	12.8	7.09e-05	0	57	0	139460608	55	5184
2026-01-09 23:38:01.44	182.67	28.82	-41.4	-44.9	13.1	5.79e-05	0	56	0	141557760	54	5355
2026-01-09 23:38:02.45	182.74	28.64	-41.4	-44.8	13.1	3.81e-05	0	56	0	142606336	54	5318
2026-01-09 23:38:03.45	182.82	28.46	-41.3	-44.7	13.2	3.50e-05	0	57	0	144703488	54	5261
2026-01-09 23:38:04.46	182.89	28.29	-41.3	-44.7	13.2	2.74e-05	0	56	0	146800640	54	5247
2026-01-09 23:38:05.47	182.97	28.11	-41.2	-44.5	13.4	2.28e-05	0	56	0	148897792	54	5142
2026-01-09 23:38:06.48	183.04	27.93	-41.4	-44.8	13.1	1.52e-05	0	57	0	150994944	54	5332
2026-01-09 23:38:07.48	183.11	27.76	-41.4	-44.9	13.1	2.89e-05	0	57	0	152043520	54	5388
2026-01-09 23:38:08.49	183.18	27.58	-41.2	-44.4	13.4	1.29e-05	0	56	0	154140672	54	5099
2026-01-09 23:38:09.50	183.25	27.41	-41.3	-44.7	13.1	1.98e-05	0	57	0	156237824	54	5273
2026-01-09 23:38:10.51	183.32	27.24	-40.9	-44.0	13.9	1.67e-05	0	56	0	158334976	53	5138
2026-01-09 23:38:11.52	183.39	27.07	-40.9	-44.1	13.8	3.80e-06	0	56	0	159383552	53	5180
2026-01-09 23:38:12.52	183.46	26.90	-40.9	-44.0	13.9	3.80e-06	0	56	0	161480704	53	5115
2026-01-09 23:38:13.53	183.53	26.73	-40.7	-43.7	14.1	3.00e-06	0	56	0	163577856	53	4956
2026-01-09 23:38:14.54	183.59	26.56	-40.6	-43.5	14.4	3.80e-06	0	56	0	165675008	53	4820
2026-01-09 23:38:15.54	183.66	26.40	-40.4	-43.2	14.6	0.00e+00	0	56	0	167772160	52	4943
2026-01-09 23:38:16.55	183.72	26.23	-40.3	-43.0	14.8	0.00e+00	0	56	0	169869312	52	4846
2026-01-09 23:38:17.56	183.79	26.07	-40.2	-42.9	15.0	0.00e+00	0	56	0	170917888	52	4784
2026-01-09 23:38:18.56	183.85	25.90	-40.0	-42.6	15.3	0.00e+00	0	56	0	173015040	51	4879
2026-01-09 23:38:19.57	183.92	25.74	-39.9	-42.3	15.6	0.00e+00	0	56	0	175112192	51	4753
2026-01-09 23:38:20.58	183.98	25.58	-39.8	-42.3	15.6	0.00e+00	0	56	0	177209344	51	4712
2026-01-09 23:38:21.58	184.04	25.42	-39.6	-42.0	15.9	0.00e+00	0	56	0	179306496	51	4574
2026-01-09 23:38:22.59	184.10	25.26	-39.5	-41.8	16.1	0.00e+00	0	56	0	180355072	51	4452
2026-01-09 23:38:23.60	184.16	25.10	-39.4	-41.6	16.3	0.00e+00	0	57	0	182452224	50	4633
2026-01-09 23:38:24.60	184.22	24.94	-39.4	-41.7	16.2	0.00e+00	0	56	0	184549376	50	4652
2026-01-09 23:38:25.61	184.28	24.79	-39.1	-41.3	16.6	0.00e+00	0	56	0	186646528	50	4453
2026-01-09 23:38:26.61	184.34	24.63	-39.0	-41.1	16.7	0.00e+00	0	56	0	187695104	49	4613
2026-01-09 23:38:27.62	184.40	24.47	-39.1	-41.3	16.5	0.00e+00	0	56	0	189792256	49	4714
2026-01-09 23:38:28.63	184.46	24.32	-39.1	-41.3	16.6	0.00e+00	0	56	0	191889408	49	4708
2026-01-09 23:38:29.63	184.52	24.17	-39.1	-41.2	16.6	0.00e+00	0	56	0	193986560	49	4673
2026-01-09 23:38:30.64	184.58	24.01	-39.2	-41.4	16.4	0.00e+00	0	56	0	196083712	49	4784
2026-01-09 23:38:31.64	184.63	23.86	-39.4	-41.7	16.1	0.00e+00	0	57	0	198180864	49	4981
2026-01-09 23:38:32.65	184.69	23.71	-39.4	-41.7	16.1	0.00e+00	0	56	0	199229440	49	4964
2026-01-09 23:38:33.66	184.74	23.56	-39.4	-41.7	16.1	0.00e+00	0	56	0	201326592	49	4976
2026-01-09 23:38:34.67	184.80	23.41	-39.7	-42.1	15.7	0.00e+00	0	56	0	203423744	49	5193
2026-01-09 23:38:35.69	184.86	23.26	-39.6	-42.1	15.8	0.00e+00	0	57	0	205520896	49	5161
2026-01-09 23:38:36.69	184.91	23.12	-39.8	-42.3	15.6	0.00e+00	0	56	0	207618048	50	4985
2026-01-09 23:38:37.70	184.96	22.97	-39.9	-42.4	15.4	0.00e+00	0	56	0	208666624	50	5081
2026-01-09 23:38:38.72	185.02	22.82	-40.1	-42.7	15.1	0.00e+00	0	56	0	210763776	50	5260
2026-01-09 23:38:39.73	185.07	22.68	-40.2	-42.9	14.9	0.00e+00	0	57	0	212860928	51	5065
2026-01-09 23:38:40.74	185.12	22.53	-40.3	-43.0	14.8	7.00e-07	0	57	0	214958080	51	5124
2026-01-09 23:38:41.75	185.18	22.39	-40.4	-43.1	14.7	0.00e+00	0	56	0	217055232	51	5217
2026-01-09 23:38:42.75	185.23	22.24	-40.4	-43.2	14.5	0.00e+00	0	57	0	218103808	51	5261
2026-01-09 23:38:43.76	185.28	22.10	-40.4	-43.1	14.7	0.00e+00	0	57	0	220200960	51	5199
2026-01-09 23:38:44.77	185.33	21.96	-40.3	-43.1	14.7	0.00e+00	0	57	0	222298112	51	5164
2026-01-09 23:38:45.78	185.38	21.82	-40.3	-43.0	14.8	0.00e+00	0	56	0	224395264	51	5149
2026-01-09 23:38:46.79	185.43	21.68	-40.4	-43.3	14.5	7.00e-07	0	56	0	226492416	51	5287
2026-01-09 23:38:47.80	185.48	21.54	-40.3	-43.0	14.7	0.00e+00	0	57	0	227540992	51	5149
2026-01-09 23:38:48.80	185.53	21.40	-40.3	-43.1	14.7	0.00e+00	0	56	0	229638144	51	5205
2026-01-09 23:38:49.81	185.58	21.27	-40.4	-43.2	14.5	0.00e+00	0	56	0	231735296	51	5233
2026-01-09 23:38:50.81	185.62	21.13	-40.1	-42.8	15.0	0.00e+00	0	57	0	233832448	51	5017
2026-01-09 23:38:51.82	185.67	20.99	-40.1	-42.8	14.9	0.00e+00	0	57	0	235929600	51	5002
2026-01-09 23:38:52.83	185.72	20.86	-40.1	-42.7	15.0	0.00e+00	0	57	0	236978176	51	4977
2026-01-09 23:38:53.83	185.77	20.72	-39.9	-42.4	15.3	0.00e+00	0	56	0	239075328	51	4791
2026-01-09 23:38:54.84	185.81	20.59	-39.8	-42.4	15.4	0.00e+00	0	56	0	241172480	51	4778
2026-01-09 23:38:55.85	185.86	20.46	-39.9	-42.5	15.3	0.00e+00	0	56	0	243269632	51	4827
2026-01-09 23:38:56.86	185.90	20.32	-40.0	-42.6	15.1	0.00e+00	0	56	0	245366784	51	4916
2026-01-09 23:38:57.87	185.95	20.19	-40.0	-42.7	15.0	0.00e+00	0	56	0	246415360	51	4955
2026-01-09 23:38:58.88	186.00	20.06	-39.9	-42.5	15.2	0.00e+00	0	57	0	248512512	51	4849
2026-01-09 23:38:59.89	186.04	19.93	-40.0	-42.6	15.1	0.00e+00	0	56	0	250609664	51	4906
2026-01-09 23:39:00.89	186.08	19.80	-40.0	-42.6	15.0	0.00e+00	0	57	0	252706816	51	4921
2026-01-09 23:39:01.90	186.13	19.67	-39.9	-42.6	15.2	0.00e+00	0	57	0	254803968	51	4892
2026-01-09 23:39:02.92	186.17	19.54	-39.9	-42.5	15.2	0.00e+00	0	57	0	255852544	51	4843
2026-01-09 23:39:03.92	186.22	19.41	-39.7	-42.2	15.5	0.00e+00	0	56	0	257949696	51	4666
2026-01-09 23:39:04.93	186.26	19.29	-39.8	-42.4	15.3	0.00e+00	0	56	0	260046848	51	4770
2026-01-09 23:39:05.94	186.30	19.16	-39.7	-42.2	15.4	0.00e+00	0	56	0	262144000	51	4701
2026-01-09 23:39:06.95	186.34	19.03	-39.7	-42.2	15.4	0.00e+00	0	57	0	264241152	51	4703
2026-01-09 23:39:07.95	186.39	18.91	-39.6	-42.1	15.6	0.00e+00	0	56	0	265289728	51	4624
2026-01-09 23:39:08.96	186.43	18.78	-39.6	-42.0	15.7	0.00e+00	0	56	0	267386880	51	4583
2026-01-09 23:39:09.96	186.47	18.66	-39.6	-42.1	15.6	0.00e+00	0	56	0	269484032	51	4631
2026-01-09 23:39:10.97	186.51	18.54	-39.5	-41.9	15.8	0.00e+00	0	56	0	271581184	50	4765
2026-01-09 23:39:11.98	186.55	18.41	-39.4	-41.7	15.9	0.00e+00	0	56	0	273678336	50	4696
2026-01-09 23:39:12.99	186.59	18.29	-39.3	-41.6	16.0	0.00e+00	0	56	0	274726912	50	4650
2026-01-09 23:39:14.00	186.63	18.17	-39.4	-41.8	15.8	0.00e+00	0	56	0	276824064	50	4749
2026-01-09 23:39:15.01	186.67	18.05	-39.5	-41.9	15.8	0.00e+00	0	56	0	278921216	50	4789
2026-01-09 23:39:16.02	186.71	17.93	-39.4	-41.9	15.8	0.00e+00	0	57	0	281018368	50	4762
2026-01-09 23:39:17.02	186.75	17.81	-39.6	-42.1	15.6	0.00e+00	0	56	0	283115520	50	4887
2026-01-09 23:39:18.03	186.79	17.69	-39.6	-42.1	15.5	0.00e+00	0	57	0	284164096	50	4921
2026-01-09 23:39:19.03	186.83	17.57	-39.5	-42.0	15.6	0.00e+00	0	56	0	286261248	50	4841
2026-01-09 23:39:20.04	186.87	17.45	-39.7	-42.2	15.4	0.00e+00	0	56	0	288358400	50	4957
2026-01-09 23:39:21.06	186.91	17.33	-39.9	-42.5	15.1	0.00e+00	0	57	0	290455552	50	5123
2026-01-09 23:39:22.06	186.94	17.22	-40.0	-42.6	15.0	0.00e+00	0	57	0	292552704	50	5218
2026-01-09 23:39:23.07	186.98	17.10	-40.1	-42.9	14.8	0.00e+00	0	57	0	293601280	50	5359
2026-01-09 23:39:24.08	187.02	16.98	-40.1	-42.9	14.7	0.00e+00	0	57	0	295698432	50	5371
2026-01-09 23:39:25.08	187.06	16.87	-40.4	-43.3	14.3	2.20e-06	0	56	0	297795584	51	5293
2026-01-09 23:39:26.09	187.09	16.75	-40.4	-43.4	14.2	2.20e-06	0	56	0	299892736	51	5362
2026-01-09 23:39:27.10	187.13	16.64	-40.6	-43.6	14.0	7.00e-07	0	56	0	301989888	51	5503
2026-01-09 23:39:28.10	187.17	16.53	-40.6	-43.7	13.8	1.50e-06	0	56	0	303038464	51	5577
2026-01-09 23:39:29.11	187.20	16.41	-40.5	-43.6	13.9	4.50e-06	0	56	0	305135616	52	5162
2026-01-09 23:39:30.12	187.24	16.30	-40.5	-43.5	13.9	3.80e-06	0	56	0	307232768	52	5151
2026-01-09 23:39:31.12	187.27	16.19	-40.7	-43.8	13.6	2.20e-06	0	56	0	309329920	52	5336
2026-01-09 23:39:32.13	187.31	16.07	-40.5	-43.5	13.9	7.60e-06	0	56	0	311427072	52	5154
2026-01-09 23:39:33.13	187.34	15.96	-40.6	-43.7	13.8	4.50e-06	0	56	0	312475648	52	5248
2026-01-09 23:39:34.14	187.38	15.85	-40.6	-43.8	13.7	9.10e-06	0	56	0	314572800	52	5294
2026-01-09 23:39:35.15	187.41	15.74	-40.8	-44.1	13.4	1.37e-05	0	56	0	316669952	52	5487
2026-01-09 23:39:36.15	187.45	15.63	-40.8	-44.1	13.3	1.44e-05	0	56	0	318767104	52	5500
2026-01-09 23:39:37.16	187.48	15.52	-40.8	-44.1	13.3	2.74e-05	0	56	0	320864256	52	5492
2026-01-09 23:39:38.16	187.52	15.42	-40.8	-44.2	13.2	1.37e-05	0	56	0	321912832	52	5565
2026-01-09 23:39:39.17	187.55	15.31	-40.9	-44.3	13.2	2.05e-05	0	56	0	324009984	52	5603
2026-01-09 23:39:40.18	187.58	15.20	-40.8	-44.1	13.3	1.14e-05	0	56	0	326107136	52	5482
2026-01-09 23:39:41.18	187.62	15.09	-40.8	-44.1	13.2	1.75e-05	0	57	0	328204288	52	5527
2026-01-09 23:39:42.19	187.65	14.98	-40.7	-44.0	13.4	1.44e-05	0	56	0	330301440	52	5415
2026-01-09 23:39:43.20	187.68	14.88	-40.8	-44.2	13.2	1.75e-05	0	56	0	331350016	52	5561
2026-01-09 23:39:44.21	187.72	14.77	-40.8	-44.3	13.0	2.36e-05	0	56	0	333447168	52	5627
2026-01-09 23:39:45.21	187.75	14.67	-40.8	-44.3	13.0	1.10e-03	0	57	0	335544320	52	5623
2026-01-09 23:39:46.22	187.78	14.56	-40.6	-44.1	13.1	5.11e-03	0	56	0	337641472	52	5475
2026-01-09 23:39:47.24	187.81	14.46	-40.8	-44.4	12.8	6.49e-03	0	56	0	339738624	52	5696
2026-01-09 23:39:48.24	187.84	14.35	-40.7	-44.3	12.9	6.59e-03	0	56	0	340787200	52	5638
2026-01-09 23:39:49.25	187.88	14.25	-40.7	-44.4	12.8	7.28e-03	0	57	0	342884352	52	5701
2026-01-09 23:39:50.26	187.91	14.14	-40.5	-44.3	12.9	7.20e-03	0	57	0	344981504	52	5616
2026-01-09 23:39:51.27	187.94	14.04	-40.3	-44.3	12.9	7.28e-03	0	57	0	347078656	52	5600
2026-01-09 23:39:52.28	187.97	13.94	-40.0	-44.4	12.8	7.54e-03	0	57	0	349175808	51	6033
2026-01-09 23:39:53.29	188.00	13.84	-39.9	-44.3	12.8	7.69e-03	0	56	0	351272960	51	5947
2026-01-09 23:39:54.30	188.03	13.73	-40.0	-44.3	12.9	7.62e-03	0	56	0	352321536	51	5928
2026-01-09 23:39:55.31	188.06	13.63	-40.6	-44.4	12.8	7.23e-03	0	56	0	354418688	51	6053
2026-01-09 23:39:56.32	188.09	13.53	-40.6	-44.4	12.8	2.73e-04	0	57	0	356515840	52	5704
2026-01-09 23:39:57.32	188.12	13.43	-40.6	-44.3	12.8	6.56e-03	0	57	0	358612992	52	5637
2026-01-09 23:39:58.33	188.15	13.33	-40.9	-44.5	12.8	2.05e-04	0	56	0	360710144	52	5742
2026-01-09 23:39:59.34	188.18	13.23	-40.8	-44.3	12.9	6.56e-05	0	56	0	361758720	52	5651
2026-01-09 23:40:00.35	188.21	13.13	-40.8	-44.3	13.0	4.88e-05	0	56	0	363855872	52	5604
2026-01-09 23:40:01.36	188.24	13.03	-40.8	-44.3	13.0	3.28e-05	0	56	0	365953024	52	5619
2026-01-09 23:40:02.36	188.27	12.93	-40.8	-44.4	12.9	6.02e-05	0	56	0	368050176	52	5667
2026-01-09 23:40:03.37	188.30	12.84	-40.8	-44.3	12.9	5.79e-05	0	56	0	369098752	52	5607
2026-01-09 23:40:04.38	188.33	12.74	-40.8	-44.4	12.8	4.88e-05	0	57	0	371195904	52	5684
2026-01-09 23:40:05.39	188.36	12.64	-40.9	-44.5	12.7	6.79e-05	0	57	0	373293056	52	5767
2026-01-09 23:40:06.39	188.39	12.54	-40.9	-44.6	12.6	9.76e-05	0	57	0	375390208	52	5790
2026-01-09 23:40:07.40	188.42	12.45	-40.9	-44.6	12.7	1.04e-04	0	56	0	377487360	52	5798
2026-01-09 23:40:08.40	188.44	12.35	-41.0	-44.7	12.5	8.16e-05	0	56	0	379584512	52	5863
2026-01-09 23:40:09.41	188.47	12.26	-40.9	-44.6	12.5	1.28e-04	0	56	0	380633088	52	5844
2026-01-09 23:40:10.42	188.50	12.16	-40.9	-44.6	12.5	1.53e-04	0	57	0	382730240	52	5839
2026-01-09 23:40:11.42	188.53	12.07	-40.9	-44.5	12.6	1.79e-04	0	57	0	384827392	52	5771
2026-01-09 23:40:12.43	188.55	11.97	-40.9	-44.5	12.6	2.30e-04	0	57	0	386924544	52	5763
2026-01-09 23:40:13.44	188.58	11.88	-40.8	-44.3	12.8	1.24e-04	0	56	0	389021696	52	5654
2026-01-09 23:40:14.44	188.61	11.78	-40.8	-44.3	12.8	4.57e-05	0	56	0	390070272	52	5656
2026-01-09 23:40:15.45	188.64	11.69	-40.9	-44.6	12.6	7.47e-05	0	56	0	392167424	52	5789
2026-01-09 23:40:16.46	188.66	11.60	-40.8	-44.4	12.7	6.79e-05	0	57	0	394264576	52	5674
2026-01-09 23:40:17.46	188.69	11.50	-40.9	-44.5	12.6	8.77e-05	0	57	0	396361728	52	5779
2026-01-09 23:40:18.47	188.72	11.41	-40.9	-44.5	12.6	9.38e-05	0	57	0	397410304	52	5770
2026-01-09 23:40:19.47	188.74	11.32	-40.9	-44.5	12.6	9.61e-05	0	57	0	399507456	52	5784
2026-01-09 23:40:20.48	188.77	11.23	-40.9	-44.5	12.6	1.30e-04	0	56	0	401604608	52	5772
2026-01-09 23:40:21.48	188.80	11.14	-40.9	-44.6	12.5	7.47e-05	0	57	0	403701760	52	5811
2026-01-09 23:40:22.49	188.82	11.05	-40.9	-44.7	12.4	1.40e-04	0	56	0	405798912	52	5874
2026-01-09 23:40:23.50	188.85	10.95	-40.7	-44.3	12.7	1.07e-04	0	57	0	407896064	52	5653
2026-01-09 23:40:24.51	188.87	10.86	-40.9	-44.5	12.6	8.31e-05	0	57	0	408944640	52	5780
2026-01-09 23:40:25.51	188.90	10.77	-40.9	-44.7	12.4	1.67e-04	0	56	0	411041792	52	5858
2026-01-09 23:40:26.52	188.92	10.68	-40.8	-44.5	12.5	1.60e-04	0	57	0	413138944	52	5769
2026-01-09 23:40:27.52	188.95	10.60	-40.9	-44.7	12.3	1.84e-04	0	57	0	415236096	52	5904
2026-01-09 23:40:28.53	188.97	10.51	-41.0	-44.8	12.2	2.15e-04	0	56	0	417333248	52	5992
2026-01-09 23:40:29.54	189.00	10.42	-40.9	-44.8	12.2	2.02e-04	0	56	0	418381824	52	5930
2026-01-09 23:40:30.55	189.02	10.33	-40.9	-44.7	12.3	2.18e-04	0	56	0	420478976	52	5923
2026-01-09 23:40:31.55	189.05	10.24	-40.9	-44.7	12.3	2.03e-04	0	56	0	422576128	52	5878
2026-01-09 23:40:32.56	189.07	10.15	-41.0	-44.9	12.2	1.74e-04	0	56	0	424673280	52	6003
2026-01-09 23:40:33.57	189.10	10.06	-40.9	-44.8	12.2	2.05e-04	0	57	0	425721856	52	5926
2026-01-09 23:40:34.58	189.12	9.98	-40.7	-44.3	12.7	1.86e-04	0	56	0	427819008	52	5602
2026-01-09 23:40:35.59	189.15	9.89	-40.7	-44.4	12.5	3.07e-04	0	57	0	429916160	52	5710
2026-01-09 23:40:36.60	189.17	9.80	-40.7	-44.3	12.6	4.32e-04	0	57	0	432013312	52	5651
2026-01-09 23:40:37.61	189.20	9.72	-40.7	-44.3	12.7	4.88e-05	0	57	0	434110464	52	5623
2026-01-09 23:40:38.62	189.22	9.63	-40.7	-44.3	12.8	1.14e-04	0	57	0	436207616	52	5600
2026-01-09 23:40:39.62	189.24	9.54	-40.6	-44.1	12.9	9.76e-05	0	56	0	437256192	52	5514
2026-01-09 23:40:40.63	189.27	9.46	-40.6	-44.2	12.7	4.04e-05	0	56	0	439353344	52	5571
2026-01-09 23:40:41.64	189.29	9.37	-40.7	-44.3	12.7	3.89e-05	0	56	0	441450496	52	5617
2026-01-09 23:40:42.64	189.31	9.29	-40.6	-44.1	12.8	5.03e-05	0	56	0	443547648	52	5528
2026-01-09 23:40:43.65	189.34	9.20	-40.6	-44.1	12.9	4.88e-05	0	56	0	445644800	52	5481
2026-01-09 23:40:44.66	189.36	9.12	-40.5	-44.0	12.9	5.18e-05	0	56	0	446693376	52	5428
2026-01-09 23:40:45.66	189.38	9.04	-40.5	-44.1	12.9	4.50e-05	0	57	0	448790528	52	5485
2026-01-09 23:40:46.67	189.41	8.95	-40.4	-43.9	13.1	5.49e-05	0	57	0	450887680	52	5342
2026-01-09 23:40:47.68	189.43	8.87	-40.4	-43.7	13.2	3.28e-05	0	57	0	452984832	52	5271
2026-01-09 23:40:48.68	189.45	8.79	-40.4	-43.9	13.0	1.60e-05	0	56	0	455081984	52	5370
2026-01-09 23:40:49.69	189.47	8.70	-40.5	-44.0	12.9	4.11e-05	0	56	0	456130560	52	5425
2026-01-09 23:40:50.70	189.50	8.62	-40.4	-43.8	13.1	3.20e-05	0	57	0	458227712	52	5308
2026-01-09 23:40:51.71	189.52	8.54	-40.4	-43.9	13.1	2.28e-05	0	56	0	460324864	52	5360
2026-01-09 23:40:52.72	189.54	8.45	-40.4	-44.0	12.9	5.11e-05	0	56	0	462422016	52	5404
2026-01-09 23:40:53.72	189.56	8.37	-40.3	-43.7	13.2	2.82e-05	0	57	0	464519168	52	5257
2026-01-09 23:40:54.73	189.59	8.29	-40.4	-43.9	13.0	3.12e-05	0	56	0	465567744	52	5342
2026-01-09 23:40:55.73	189.61	8.21	-40.4	-43.8	13.1	3.28e-05	0	57	0	467664896	52	5301
2026-01-09 23:40:56.74	189.63	8.13	-40.3	-43.7	13.2	1.67e-05	0	56	0	469762048	52	5242
2026-01-09 23:40:57.75	189.65	8.05	-40.4	-43.9	13.0	3.43e-05	0	57	0	471859200	52	5359
2026-01-09 23:40:58.75	189.67	7.97	-43.4	-52.9	5.2	8.23e-05	0	57	0	473956352	57	11405
2026-01-09 23:40:59.76	189.69	7.89	-44.2	-58.6	3.8	1.48e+00	0	56	104	473956352	58	20723
2026-01-09 23:41:00.77	189.72	7.81	-44.3	-58.8	3.9	1.49e+00	0	57	104	473956352	59	20011
2026-01-09 23:41:01.78	189.74	7.73	-44.7	-59.4	3.8	1.49e+00	0	57	104	473956352	60	20126
2026-01-09 23:41:02.79	189.76	7.65	-44.8	-59.5	3.8	1.49e+00	0	57	104	473956352	60	20435
2026-01-09 23:41:03.80	189.78	7.57	-44.9	-59.6	3.8	1.49e+00	0	57	104	473956352	60	20645
2026-01-09 23:41:04.81	189.80	7.49	-45.0	-59.7	3.8	1.49e+00	0	56	104	473956352	60	20853
2026-01-09 23:41:05.82	189.82	7.41	-45.0	-59.7	3.8	1.49e+00	0	57	104	473956352	60	20976
2026-01-09 23:41:06.83	189.84	7.33	-45.1	-59.8	3.8	1.49e+00	0	57	104	473956352	60	21226
2026-01-09 23:41:07.84	189.86	7.25	-45.1	-59.8	3.8	1.49e+00	0	57	104	473956352	60	21139
2026-01-09 23:41:08.85	189.88	7.17	-45.1	-59.8	3.8	1.49e+00	0	57	104	473956352	60	21109
2026-01-09 23:41:09.85	189.90	7.10	-45.0	-59.8	3.8	1.49e+00	0	57	104	473956352	60	21042
2026-01-09 23:41:10.86	189.93	7.02	-45.0	-59.8	3.8	1.49e+00	0	56	104	473956352	60	21118
2026-01-09 23:41:11.87	189.95	6.94	-45.0	-59.8	3.8	1.49e+00	0	57	104	473956352	60	21160
2026-01-09 23:41:12.88	189.97	6.86	-45.0	-59.7	3.8	1.49e+00	0	57	104	473956352	60	21008
2026-01-09 23:41:13.89	189.99	6.79	-45.0	-59.8	3.8	1.49e+00	0	57	104	473956352	60	21047
2026-01-09 23:41:14.89	190.01	6.71	-45.0	-59.7	3.8	1.49e+00	0	57	104	473956352	60	20999
2026-01-09 23:41:15.90	190.03	6.63	-45.0	-59.7	3.8	1.49e+00	0	56	104	473956352	60	21006
2026-01-09 23:41:16.92	190.05	6.56	-45.0	-59.8	3.8	1.49e+00	0	57	104	473956352	60	21022
2026-01-09 23:41:17.92	190.07	6.48	-44.9	-59.7	3.8	1.49e+00	0	57	104	473956352	60	21004
2026-01-09 23:41:18.93	190.09	6.40	-45.0	-59.7	3.8	1.49e+00	0	57	104	473956352	60	20938
2026-01-09 23:41:19.94	190.11	6.33	-45.0	-59.7	3.8	1.49e+00	0	57	104	473956352	60	20917
2026-01-09 23:41:20.95	190.12	6.25	-44.9	-59.7	3.8	1.49e+00	0	57	104	473956352	60	20979
2026-01-09 23:41:21.96	190.14	6.18	-45.0	-59.7	3.8	1.49e+00	0	57	104	473956352	60	20918
2026-01-09 23:41:22.97	190.16	6.10	-44.9	-59.7	3.8	1.49e+00	0	57	104	473956352	60	20926
2026-01-09 23:41:23.97	190.18	6.03	-44.9	-59.7	3.8	1.49e+00	0	57	104	473956352	60	21015
2026-01-09 23:41:24.98	190.20	5.95	-44.9	-59.7	3.8	1.49e+00	0	57	104	473956352	60	20948
2026-01-09 23:41:25.99	190.22	5.88	-44.9	-59.7	3.8	1.49e+00	0	57	104	473956352	60	20937
2026-01-09 23:41:27.00	190.24	5.80	-44.7	-59.7	3.8	1.49e+00	0	57	104	473956352	60	20898
2026-01-09 23:41:28.01	190.26	5.73	-44.9	-59.7	3.8	1.49e+00	0	56	104	473956352	60	20938
2026-01-09 23:41:29.02	190.28	5.66	-44.9	-59.7	3.8	1.49e+00	0	57	104	473956352	60	20945
2026-01-09 23:41:30.02	190.30	5.58	-44.9	-59.7	3.8	1.49e+00	0	57	104	473956352	60	20941
2026-01-09 23:41:31.03	190.32	5.51	-44.9	-59.7	3.8	1.49e+00	0	57	104	473956352	60	20875
2026-01-09 23:41:32.04	190.33	5.44	-44.9	-59.7	3.8	1.49e+00	0	57	104	473956352	60	20893
2026-01-09 23:41:33.05	190.35	5.36	-44.9	-59.7	3.8	1.49e+00	0	57	104	473956352	60	20824
2026-01-09 23:41:34.06	190.37	5.29	-44.9	-59.7	3.8	1.49e+00	0	57	104	473956352	60	20903
2026-01-09 23:41:35.07	190.39	5.22	-44.9	-59.7	3.8	1.49e+00	0	57	104	473956352	60	20847
2026-01-09 23:41:36.08	190.41	5.14	-44.9	-59.7	3.8	1.49e+00	0	57	104	473956352	60	20878
2026-01-09 23:41:37.09	190.43	5.07	-44.9	-59.7	3.8	1.49e+00	0	57	104	473956352	60	20859
2026-01-09 23:41:38.10	190.44	5.00	-44.9	-59.7	3.8	1.49e+00	0	57	104	473956352	60	20842
2026-01-09 23:41:39.10	190.46	4.93	-44.9	-59.7	3.8	1.49e+00	0	57	104	473956352	60	20876
2026-01-09 23:41:40.10	190.48	4.86	-44.9	-59.7	3.8	1.49e+00	0	57	104	473956352	60	20891
2026-01-09 23:41:41.11	190.50	4.79	-44.9	-59.7	3.8	1.49e+00	0	57	104	473956352	60	20883
2026-01-09 23:41:42.11	190.52	4.72	-44.9	-59.7	3.8	1.49e+00	0	57	104	473956352	60	20942
2026-01-09 23:41:43.12	190.53	4.64	-44.9	-59.7	3.8	1.49e+00	0	57	104	473956352	60	20855
2026-01-09 23:41:44.13	190.55	4.57	-44.9	-59.7	3.8	1.49e+00	0	57	104	473956352	60	20845
2026-01-09 23:41:45.13	190.57	4.50	-44.9	-59.7	3.8	1.49e+00	0	57	104	473956352	60	20879
2026-01-09 23:41:46.14	190.59	4.43	-44.9	-59.7	3.8	1.49e+00	0	57	104	473956352	60	20843
2026-01-09 23:41:47.15	190.60	4.36	-44.9	-59.7	3.8	1.49e+00	0	57	104	473956352	60	20857
2026-01-09 23:41:48.16	190.62	4.29	-44.9	-59.7	3.8	1.49e+00	0	57	104	473956352	60	20809
2026-01-09 23:41:49.17	190.64	4.22	-44.9	-59.7	3.8	1.49e+00	0	57	104	473956352	60	20782
2026-01-09 23:41:50.18	190.66	4.15	-44.9	-59.7	3.8	1.49e+00	0	57	104	473956352	60	20853
2026-01-09 23:41:51.19	190.67	4.08	-44.9	-59.7	3.8	1.49e+00	0	57	104	473956352	60	20820
2026-01-09 23:41:52.19	190.69	4.01	-44.9	-59.7	3.8	1.49e+00	0	57	104	473956352	60	20785
2026-01-09 23:41:53.20	190.71	3.94	-44.9	-59.7	3.8	1.49e+00	0	57	104	473956352	60	20797
2026-01-09 23:41:54.22	190.72	3.87	-44.9	-59.6	3.8	1.49e+00	0	57	104	473956352	60	20709
2026-01-09 23:41:55.22	190.74	3.81	-44.9	-59.6	3.8	1.49e+00	0	57	104	473956352	60	20773
2026-01-09 23:41:56.23	190.76	3.74	-44.9	-59.7	3.8	1.49e+00	0	57	104	473956352	60	20842
2026-01-09 23:41:57.24	190.78	3.67	-44.9	-59.6	3.8	1.49e+00	0	57	104	473956352	60	20708
2026-01-09 23:41:58.25	190.79	3.60	-44.9	-59.6	3.8	1.49e+00	0	57	104	473956352	60	20745
2026-01-09 23:41:59.26	190.81	3.53	-44.9	-59.7	3.8	1.49e+00	0	57	104	473956352	60	20811
2026-01-09 23:42:00.27	190.83	3.46	-44.9	-59.6	3.8	1.49e+00	0	57	104	473956352	60	20764
2026-01-09 23:42:01.28	190.84	3.40	-44.9	-59.6	3.8	1.49e+00	0	57	104	473956352	60	20771
2026-01-09 23:42:02.28	190.86	3.33	-44.9	-59.6	3.8	1.49e+00	0	56	104	473956352	60	20772
2026-01-09 23:42:03.29	190.87	3.26	-44.9	-59.7	3.8	1.49e+00	0	57	104	473956352	60	20780
2026-01-09 23:42:04.30	190.89	3.19	-44.9	-59.7	3.8	1.49e+00	0	57	104	473956352	60	20792
2026-01-09 23:42:05.31	190.91	3.13	-44.9	-59.7	3.8	1.49e+00	0	57	104	473956352	60	20799
2026-01-09 23:42:06.32	190.92	3.06	-44.9	-59.7	3.8	1.49e+00	0	57	104	473956352	60	20823
2026-01-09 23:42:07.33	190.94	2.99	-44.9	-59.7	3.8	1.49e+00	0	57	104	473956352	60	20841
2026-01-09 23:42:08.34	190.96	2.93	-44.9	-59.7	3.8	1.49e+00	0	57	104	473956352	60	20824
2026-01-09 23:42:09.35	190.97	2.86	-44.9	-59.7	3.8	1.49e+00	0	57	104	473956352	60	20786
2026-01-09 23:42:10.36	190.99	2.79	-44.9	-59.7	3.8	1.49e+00	0	57	104	473956352	60	20871
2026-01-09 23:42:11.37	191.00	2.73	-44.9	-59.7	3.8	1.49e+00	0	57	104	473956352	60	20860
2026-01-09 23:42:12.37	191.02	2.66	-44.9	-59.7	3.8	1.49e+00	0	57	104	473956352	60	20852
2026-01-09 23:42:13.38	191.04	2.59	-44.9	-59.7	3.8	1.49e+00	0	57	104	473956352	60	20836
2026-01-09 23:42:14.39	191.05	2.53	-44.9	-59.7	3.8	1.49e+00	0	57	104	473956352	60	20905
2026-01-09 23:42:15.40	191.07	2.46	-44.9	-59.7	3.8	1.49e+00	0	57	104	473956352	60	20789
2026-01-09 23:42:16.41	191.08	2.40	-44.9	-59.7	3.8	1.49e+00	0	57	104	473956352	60	20902
2026-01-09 23:42:17.42	191.10	2.33	-44.9	-59.7	3.8	1.49e+00	0	57	104	473956352	60	20824
2026-01-09 23:42:18.43	191.11	2.27	-44.9	-59.7	3.8	1.49e+00	0	57	104	473956352	60	20829
2026-01-09 23:42:19.44	191.13	2.20	-44.9	-59.7	3.8	1.49e+00	0	57	104	473956352	60	20851
2026-01-09 23:42:20.45	191.14	2.14	-44.9	-59.7	3.8	1.49e+00	0	57	104	473956352	60	20838
2026-01-09 23:42:21.46	191.16	2.07	-44.9	-59.7	3.8	1.49e+00	0	57	104	473956352	60	20780
2026-01-09 23:42:22.46	191.18	2.01	-44.9	-59.7	3.8	1.49e+00	0	57	104	473956352	60	20779
2026-01-09 23:42:23.47	191.19	1.94	-44.9	-59.7	3.8	1.49e+00	0	57	104	473956352	60	20792
2026-01-09 23:42:24.48	191.21	1.88	-44.9	-59.7	3.8	1.49e+00	0	57	104	473956352	60	20834

#Closed at: 2026-01-09 23:42:24
#Recorded file [473 MB]: D:/lorett/data/31039_260110_023553.dat