passes_logs/2026/01/09/R2.0S_Moscow/R2.0S_Moscow__20260109_104825_NOAA_21_JPSS-2_rec.log

#Pass ID: 20260109_104825_NOAA 21 (JPSS-2)
#Satellite: NOAA 21 (JPSS-2)
#Configuration: NOAA-21
#almurnet v.1.7.20251203
#Start time: 2026-01-09 10:51:47

#Version: 2.2.20231116
#Station: R2.0S_Moscow
#Location: 37.707566 lon 55.798166 lat
#TLE: 1 54234U 22150A   26008.45757862  .00000119  00000+0  77172-4 0  9996
#TLE: 2 54234  98.7494 309.4367 0000894 328.2777  31.8345 14.19533328163889

#Time	Az	El	Level	Level2	SNR	BER	BlckErr	Temp	State	Recorded	gain1	gain2
2026-01-09 10:51:47.70	201.28	18.01	-44.7	-56.3	3.8	8.47e-01	0	56	0	0	60	14055
2026-01-09 10:51:48.71	201.40	18.12	-45.0	-57.3	3.8	1.49e+00	0	57	104	0	61	14896
2026-01-09 10:51:49.72	201.52	18.22	-45.0	-57.3	3.8	1.49e+00	0	57	104	0	61	14937
2026-01-09 10:51:50.73	201.64	18.33	-45.0	-57.3	3.8	1.49e+00	0	57	104	0	61	14913
2026-01-09 10:51:51.74	201.77	18.44	-44.9	-57.2	3.8	1.49e+00	0	57	104	0	61	14870
2026-01-09 10:51:52.75	201.89	18.54	-44.9	-57.2	3.8	1.49e+00	0	57	104	0	61	14714
2026-01-09 10:51:53.76	202.02	18.65	-44.8	-57.1	3.8	1.49e+00	0	57	104	0	61	14565
2026-01-09 10:51:54.77	202.14	18.76	-44.8	-57.1	3.8	1.49e+00	0	57	104	0	61	14648
2026-01-09 10:51:55.78	202.27	18.87	-44.8	-57.0	3.8	1.49e+00	0	57	104	0	61	14517
2026-01-09 10:51:56.79	202.40	18.98	-44.8	-57.0	3.8	1.49e+00	0	57	104	0	61	14454
2026-01-09 10:51:57.80	202.53	19.09	-44.8	-57.0	3.8	1.49e+00	0	57	104	0	61	14448
2026-01-09 10:51:58.81	202.66	19.19	-44.8	-57.0	3.8	1.49e+00	0	57	104	0	61	14443
2026-01-09 10:51:59.82	202.79	19.30	-44.8	-57.0	3.8	1.49e+00	0	57	104	0	61	14474
2026-01-09 10:52:00.83	202.92	19.41	-44.8	-57.0	3.8	1.49e+00	0	57	104	0	61	14527
2026-01-09 10:52:01.84	203.05	19.52	-44.8	-57.1	3.8	1.49e+00	0	57	104	0	61	14562
2026-01-09 10:52:02.85	203.18	19.64	-44.8	-57.1	3.8	1.49e+00	0	57	104	0	61	14573
2026-01-09 10:52:03.86	203.32	19.75	-44.7	-57.1	3.8	1.49e+00	0	57	104	0	61	14558
2026-01-09 10:52:04.87	203.45	19.86	-44.8	-57.0	3.8	1.49e+00	0	57	104	0	61	14529
2026-01-09 10:52:05.89	203.59	19.97	-44.8	-57.0	3.8	1.49e+00	0	57	104	0	61	14483
2026-01-09 10:52:06.90	203.73	20.08	-44.7	-56.9	3.8	1.49e+00	0	57	104	0	61	14356
2026-01-09 10:52:07.90	203.87	20.19	-44.7	-56.8	3.8	1.49e+00	0	57	104	0	61	14160
2026-01-09 10:52:08.91	204.01	20.31	-44.7	-56.8	3.8	1.49e+00	0	57	104	0	61	14066
2026-01-09 10:52:09.93	204.15	20.42	-44.7	-56.6	3.8	1.49e+00	0	57	104	0	61	13856
2026-01-09 10:52:10.93	204.29	20.53	-44.7	-56.6	3.8	1.49e+00	0	57	104	0	61	13775
2026-01-09 10:52:11.94	204.43	20.65	-44.7	-56.6	3.8	1.49e+00	0	57	104	0	61	13840
2026-01-09 10:52:12.96	204.57	20.76	-44.7	-56.7	3.8	1.49e+00	0	57	104	0	61	13975
2026-01-09 10:52:13.97	204.72	20.88	-44.7	-56.8	3.8	1.49e+00	0	57	104	0	61	14126
2026-01-09 10:52:14.98	204.86	20.99	-44.7	-56.9	3.8	1.49e+00	0	57	104	0	61	14302
2026-01-09 10:52:15.99	205.01	21.10	-44.7	-56.9	3.8	1.49e+00	0	57	104	0	61	14237
2026-01-09 10:52:17.00	205.16	21.22	-44.7	-56.8	3.8	1.49e+00	0	57	104	0	61	14112
2026-01-09 10:52:18.01	205.31	21.34	-44.7	-56.7	3.8	1.49e+00	0	57	104	0	61	13944
2026-01-09 10:52:19.02	205.46	21.45	-44.7	-56.7	3.8	1.49e+00	0	57	104	0	61	13925
2026-01-09 10:52:20.03	205.61	21.57	-44.7	-56.7	3.8	1.49e+00	0	57	104	0	61	14044
2026-01-09 10:52:21.04	205.76	21.69	-44.7	-56.9	3.8	1.49e+00	0	57	104	0	61	14307
2026-01-09 10:52:22.05	205.91	21.80	-44.7	-57.0	3.8	1.49e+00	0	57	104	0	61	14493
2026-01-09 10:52:23.06	206.07	21.92	-44.7	-57.0	3.8	1.49e+00	0	57	104	0	61	14520
2026-01-09 10:52:24.07	206.22	22.04	-44.7	-57.0	3.8	1.49e+00	0	57	104	0	61	14521
2026-01-09 10:52:25.08	206.38	22.16	-44.7	-57.0	3.8	1.49e+00	0	57	104	0	61	14382
2026-01-09 10:52:26.09	206.54	22.27	-44.7	-56.8	3.8	1.49e+00	0	57	104	0	61	14192
2026-01-09 10:52:27.10	206.70	22.39	-44.7	-56.6	3.8	1.49e+00	0	57	104	0	61	13756
2026-01-09 10:52:28.11	206.86	22.51	-44.6	-56.2	3.8	1.49e+00	0	57	104	0	61	13256
2026-01-09 10:52:29.12	207.02	22.63	-44.6	-55.9	3.8	1.49e+00	0	57	104	0	61	12709
2026-01-09 10:52:30.13	207.18	22.75	-44.6	-55.5	3.8	1.49e+00	0	57	104	0	61	12166
2026-01-09 10:52:31.14	207.34	22.87	-44.6	-55.4	3.8	1.49e+00	0	57	104	0	61	12033
2026-01-09 10:52:32.15	207.51	22.99	-44.5	-55.0	3.9	1.49e+00	0	57	104	0	61	11485
2026-01-09 10:52:33.16	207.67	23.11	-44.5	-54.8	3.9	1.48e+00	0	57	104	0	61	11249
2026-01-09 10:52:34.17	207.84	23.23	-44.4	-53.9	4.1	1.47e+00	0	57	104	0	60	10753
2026-01-09 10:52:35.18	208.01	23.35	-44.3	-52.7	4.5	1.46e+00	0	57	104	0	60	9347
2026-01-09 10:52:36.19	208.18	23.48	-44.0	-51.1	5.2	7.37e-01	0	57	0	0	59	8182
2026-01-09 10:52:37.20	208.35	23.60	-43.4	-48.9	6.8	2.68e-01	0	57	0	3145728	58	6751
2026-01-09 10:52:38.21	208.52	23.72	-42.5	-46.7	8.9	4.59e-02	0	57	0	6291456	57	5563
2026-01-09 10:52:39.22	208.70	23.84	-41.3	-44.5	11.1	3.13e-03	0	57	0	9437184	54	5132
2026-01-09 10:52:40.23	208.87	23.97	-40.2	-42.7	13.0	8.08e-05	0	57	0	12582912	52	4653
2026-01-09 10:52:41.24	209.05	24.09	-39.2	-41.3	14.4	3.80e-06	0	57	0	15728640	50	4471
2026-01-09 10:52:42.25	209.23	24.21	-38.0	-39.8	15.9	0.00e+00	0	57	0	18874368	48	4198
2026-01-09 10:52:43.26	209.41	24.34	-44.4	-53.3	3.9	1.49e+00	0	57	104	20971520	59	10624
2026-01-09 10:52:44.27	209.59	24.46	-42.0	-45.5	10.1	9.59e-02	0	57	0	22020096	56	5156
2026-01-09 10:52:45.28	209.77	24.58	-40.6	-43.2	12.5	9.90e-06	0	57	0	25165824	51	5276
2026-01-09 10:52:46.29	209.95	24.71	-43.1	-48.1	7.5	1.49e-01	0	57	0	28311552	57	6525
2026-01-09 10:52:47.30	210.14	24.83	-37.2	-38.8	16.8	0.00e+00	0	57	0	31457280	45	4467
2026-01-09 10:52:48.31	210.32	24.96	-36.8	-38.3	17.3	0.00e+00	0	57	0	34603008	45	4213
2026-01-09 10:52:49.32	210.51	25.09	-36.7	-38.2	17.4	0.00e+00	0	57	0	37748736	45	4160
2026-01-09 10:52:50.33	210.70	25.21	-36.8	-38.3	17.4	0.00e+00	0	57	0	40894464	45	4201
2026-01-09 10:52:51.34	210.89	25.34	-36.7	-38.1	17.5	0.00e+00	0	57	0	44040192	45	4144
2026-01-09 10:52:52.35	211.08	25.46	-36.6	-38.0	17.5	0.00e+00	0	57	0	47185920	45	4095
2026-01-09 10:52:53.36	211.28	25.59	-36.7	-38.2	17.4	0.00e+00	0	57	0	50331648	45	4153
2026-01-09 10:52:54.37	211.47	25.72	-36.8	-38.2	17.4	0.00e+00	0	57	0	53477376	45	4192
2026-01-09 10:52:55.38	211.67	25.84	-36.7	-38.2	17.4	0.00e+00	0	57	0	56623104	45	4163
2026-01-09 10:52:56.39	211.87	25.97	-36.8	-38.2	17.3	0.00e+00	0	57	0	59768832	45	4184
2026-01-09 10:52:57.40	212.07	26.10	-36.8	-38.3	17.3	0.00e+00	0	57	0	62914560	45	4205
2026-01-09 10:52:58.41	212.27	26.23	-36.8	-38.3	17.3	0.00e+00	0	57	0	66060288	45	4199
2026-01-09 10:52:59.42	212.47	26.36	-37.0	-38.5	17.1	0.00e+00	0	57	0	69206016	45	4299
2026-01-09 10:53:00.43	212.67	26.48	-37.0	-38.6	17.0	0.00e+00	0	57	0	72351744	45	4343
2026-01-09 10:53:01.43	212.88	26.61	-37.2	-38.7	16.9	0.00e+00	0	57	0	75497472	45	4432
2026-01-09 10:53:02.44	213.09	26.74	-37.3	-38.9	16.7	0.00e+00	0	57	0	78643200	45	4510
2026-01-09 10:53:03.45	213.30	26.87	-37.5	-39.1	16.5	0.00e+00	0	57	0	81788928	45	4632
2026-01-09 10:53:04.46	213.51	27.00	-37.7	-39.3	16.3	0.00e+00	0	57	0	84934656	45	4752
2026-01-09 10:53:05.47	213.72	27.13	-37.7	-39.4	16.3	0.00e+00	0	57	0	88080384	46	4494
2026-01-09 10:53:06.48	213.93	27.26	-37.7	-39.4	16.3	0.00e+00	0	57	0	91226112	46	4499
2026-01-09 10:53:07.49	214.15	27.39	-37.7	-39.3	16.4	0.00e+00	0	57	0	94371840	46	4465
2026-01-09 10:53:08.50	214.37	27.52	-37.7	-39.4	16.3	0.00e+00	0	57	0	97517568	46	4525
2026-01-09 10:53:09.51	214.59	27.65	-37.8	-39.5	16.2	0.00e+00	0	57	0	100663296	46	4555
2026-01-09 10:53:10.51	214.81	27.78	-37.8	-39.4	16.2	0.00e+00	0	57	0	103809024	46	4539
2026-01-09 10:53:11.52	215.03	27.91	-37.8	-39.5	16.2	0.00e+00	0	57	0	106954752	46	4588
2026-01-09 10:53:12.53	215.26	28.04	-37.9	-39.6	16.1	0.00e+00	0	57	0	110100480	46	4623
2026-01-09 10:53:13.54	215.48	28.17	-38.0	-39.7	16.0	0.00e+00	0	57	0	113246208	46	4668
2026-01-09 10:53:14.55	215.71	28.30	-37.9	-39.6	16.1	0.00e+00	0	57	0	116391936	46	4632
2026-01-09 10:53:15.56	215.94	28.43	-37.8	-39.5	16.2	0.00e+00	0	57	0	119537664	46	4570
2026-01-09 10:53:16.57	216.17	28.56	-37.7	-39.4	16.3	0.00e+00	0	57	0	122683392	46	4507
2026-01-09 10:53:17.58	216.41	28.69	-37.8	-39.5	16.2	0.00e+00	0	57	0	125829120	46	4557
2026-01-09 10:53:18.59	216.64	28.83	-37.7	-39.4	16.3	0.00e+00	0	57	0	128974848	46	4505
2026-01-09 10:53:19.60	216.88	28.96	-37.7	-39.3	16.3	0.00e+00	0	57	0	132120576	46	4473
2026-01-09 10:53:20.61	217.12	29.09	-37.7	-39.4	16.3	0.00e+00	0	57	0	135266304	46	4517
2026-01-09 10:53:21.62	217.36	29.22	-37.5	-39.1	16.5	0.00e+00	0	57	0	138412032	46	4390
2026-01-09 10:53:22.63	217.61	29.35	-37.4	-39.0	16.7	0.00e+00	0	57	0	141557760	46	4318
2026-01-09 10:53:23.63	217.85	29.48	-37.4	-38.9	16.7	0.00e+00	0	57	0	144703488	46	4277
2026-01-09 10:53:24.64	218.10	29.61	-37.4	-38.9	16.7	0.00e+00	0	57	0	147849216	46	4288
2026-01-09 10:53:25.65	218.35	29.75	-37.5	-39.1	16.6	0.00e+00	0	57	0	150994944	46	4358
2026-01-09 10:53:26.66	218.60	29.88	-37.5	-39.1	16.6	0.00e+00	0	57	0	154140672	46	4363
2026-01-09 10:53:27.67	218.85	30.01	-37.5	-39.1	16.6	0.00e+00	0	57	0	157286400	46	4364
2026-01-09 10:53:28.68	219.11	30.14	-37.5	-39.1	16.6	0.00e+00	0	57	0	160432128	46	4344
2026-01-09 10:53:29.69	219.37	30.27	-37.4	-38.9	16.7	0.00e+00	0	57	0	163577856	46	4291
2026-01-09 10:53:30.70	219.63	30.41	-37.3	-38.8	16.9	0.00e+00	0	57	0	166723584	46	4217
2026-01-09 10:53:31.71	219.89	30.54	-37.2	-38.7	17.0	0.00e+00	0	57	0	169869312	46	4161
2026-01-09 10:53:32.72	220.15	30.67	-37.2	-38.7	17.0	0.00e+00	0	57	0	173015040	46	4167
2026-01-09 10:53:33.73	220.42	30.80	-37.2	-38.8	16.9	0.00e+00	0	57	0	176160768	46	4208
2026-01-09 10:53:34.74	220.69	30.93	-37.1	-38.6	17.1	0.00e+00	0	57	0	179306496	46	4120
2026-01-09 10:53:35.75	220.96	31.07	-37.1	-38.6	17.1	0.00e+00	0	57	0	182452224	46	4116
2026-01-09 10:53:36.76	221.23	31.20	-37.1	-38.6	17.0	0.00e+00	0	57	0	185597952	46	4132
2026-01-09 10:53:37.77	221.51	31.33	-37.1	-38.6	17.1	0.00e+00	0	57	0	188743680	46	4122
2026-01-09 10:53:38.78	221.78	31.46	-37.1	-38.6	17.1	0.00e+00	0	57	0	191889408	46	4104
2026-01-09 10:53:39.79	222.06	31.59	-37.1	-38.6	17.0	0.00e+00	0	57	0	195035136	46	4143
2026-01-09 10:53:40.80	222.34	31.72	-37.2	-38.7	16.9	0.00e+00	0	57	0	198180864	46	4190
2026-01-09 10:53:41.80	222.62	31.85	-37.3	-38.8	16.8	0.00e+00	0	57	0	201326592	46	4236
2026-01-09 10:53:42.82	222.91	31.98	-37.5	-39.0	16.6	0.00e+00	0	57	0	204472320	46	4340
2026-01-09 10:53:43.83	223.20	32.11	-37.5	-39.2	16.4	0.00e+00	0	57	0	207618048	46	4398
2026-01-09 10:53:44.83	223.49	32.24	-37.6	-39.2	16.4	0.00e+00	0	57	0	210763776	46	4402
2026-01-09 10:53:45.84	223.78	32.37	-37.5	-39.1	16.5	0.00e+00	0	57	0	213909504	46	4382
2026-01-09 10:53:46.85	224.08	32.50	-37.6	-39.2	16.4	0.00e+00	0	57	0	218103808	46	4414
2026-01-09 10:53:47.86	224.37	32.63	-37.6	-39.3	16.4	0.00e+00	0	57	0	221249536	46	4463
2026-01-09 10:53:48.87	224.67	32.76	-37.6	-39.2	16.5	0.00e+00	0	57	0	223346688	46	4400
2026-01-09 10:53:49.88	224.98	32.89	-37.7	-39.3	16.4	0.00e+00	0	57	0	226492416	46	4468
2026-01-09 10:53:50.89	225.28	33.02	-37.7	-39.3	16.4	0.00e+00	0	57	0	229638144	46	4472
2026-01-09 10:53:51.90	225.59	33.15	-37.7	-39.4	16.3	0.00e+00	0	57	0	233832448	46	4501
2026-01-09 10:53:52.91	225.90	33.27	-37.8	-39.5	16.1	0.00e+00	0	57	0	236978176	46	4583
2026-01-09 10:53:53.92	226.21	33.40	-37.9	-39.6	16.1	0.00e+00	0	57	0	240123904	46	4619
2026-01-09 10:53:54.93	226.52	33.53	-38.0	-39.7	16.0	0.00e+00	0	57	0	243269632	46	4670
2026-01-09 10:53:55.94	226.84	33.65	-37.9	-39.6	16.0	0.00e+00	0	57	0	245366784	46	4637
2026-01-09 10:53:56.95	227.16	33.78	-37.9	-39.7	16.0	0.00e+00	0	57	0	249561088	46	4655
2026-01-09 10:53:57.96	227.48	33.91	-38.1	-39.8	15.9	0.00e+00	0	57	0	252706816	46	4730
2026-01-09 10:53:58.97	227.80	34.03	-38.0	-39.8	15.9	0.00e+00	0	57	0	255852544	46	4726
2026-01-09 10:53:59.98	228.13	34.16	-38.1	-39.9	15.8	0.00e+00	0	57	0	258998272	46	4761
2026-01-09 10:54:00.99	228.46	34.28	-38.1	-39.9	15.8	0.00e+00	0	57	0	262144000	46	4798
2026-01-09 10:54:01.99	228.78	34.40	-38.2	-40.0	15.8	0.00e+00	0	57	0	265289728	46	4815
2026-01-09 10:54:03.00	229.12	34.53	-38.1	-39.9	15.9	0.00e+00	0	57	0	268435456	46	4767
2026-01-09 10:54:04.01	229.45	34.65	-38.1	-39.9	15.8	0.00e+00	0	57	0	271581184	46	4786
2026-01-09 10:54:05.02	229.79	34.77	-38.2	-40.0	15.7	0.00e+00	0	57	0	274726912	47	4561
2026-01-09 10:54:06.03	230.13	34.89	-38.4	-40.2	15.5	0.00e+00	0	57	0	277872640	47	4664
2026-01-09 10:54:07.04	230.48	35.01	-38.5	-40.3	15.3	0.00e+00	0	57	0	281018368	47	4758
2026-01-09 10:54:08.05	230.82	35.13	-38.6	-40.5	15.2	7.00e-07	0	57	0	284164096	47	4816
2026-01-09 10:54:09.06	231.17	35.25	-38.4	-40.3	15.4	0.00e+00	0	57	0	287309824	47	4720
2026-01-09 10:54:10.07	231.52	35.37	-38.3	-40.1	15.5	0.00e+00	0	57	0	290455552	47	4643
2026-01-09 10:54:11.08	231.87	35.49	-38.4	-40.2	15.4	0.00e+00	0	57	0	293601280	47	4704
2026-01-09 10:54:12.09	232.23	35.60	-38.5	-40.4	15.3	0.00e+00	0	57	0	296747008	47	4775
2026-01-09 10:54:13.10	232.59	35.72	-38.5	-40.4	15.3	0.00e+00	0	57	0	299892736	47	4774
2026-01-09 10:54:14.11	232.95	35.84	-38.8	-40.7	15.1	0.00e+00	0	57	0	303038464	48	4665
2026-01-09 10:54:15.12	233.31	35.95	-38.8	-40.7	15.0	0.00e+00	0	57	0	306184192	48	4653
2026-01-09 10:54:16.13	233.68	36.06	-38.7	-40.5	15.3	0.00e+00	0	57	0	309329920	48	4581
2026-01-09 10:54:17.14	234.05	36.18	-38.5	-40.3	15.4	0.00e+00	0	57	0	312475648	48	4483
2026-01-09 10:54:18.15	234.42	36.29	-38.6	-40.4	15.4	0.00e+00	0	57	0	315621376	48	4522
2026-01-09 10:54:19.16	234.79	36.40	-38.7	-40.6	15.2	0.00e+00	0	57	0	318767104	48	4613
2026-01-09 10:54:20.17	235.17	36.51	-38.8	-40.7	15.1	0.00e+00	0	57	0	321912832	48	4692
2026-01-09 10:54:21.18	235.55	36.62	-39.0	-40.9	14.9	0.00e+00	0	57	0	325058560	48	4795
2026-01-09 10:54:22.19	235.93	36.73	-39.0	-40.9	14.9	0.00e+00	0	57	0	328204288	48	4813
2026-01-09 10:54:23.20	236.31	36.83	-39.0	-41.0	14.7	0.00e+00	0	57	0	331350016	48	4870
2026-01-09 10:54:24.21	236.70	36.94	-38.9	-40.8	15.0	0.00e+00	0	57	0	334495744	48	4740
2026-01-09 10:54:25.22	237.08	37.04	-38.8	-40.6	15.1	0.00e+00	0	57	0	337641472	48	4648
2026-01-09 10:54:26.23	237.47	37.15	-38.6	-40.5	15.3	0.00e+00	0	57	0	340787200	48	4556
2026-01-09 10:54:27.24	237.87	37.25	-38.7	-40.5	15.2	0.00e+00	0	57	0	343932928	48	4598
2026-01-09 10:54:28.25	238.26	37.35	-38.7	-40.5	15.2	0.00e+00	0	57	0	347078656	48	4585
2026-01-09 10:54:29.26	238.66	37.45	-38.6	-40.5	15.2	0.00e+00	0	57	0	350224384	48	4567
2026-01-09 10:54:30.27	239.06	37.55	-38.8	-40.8	15.0	0.00e+00	0	57	0	353370112	48	4708
2026-01-09 10:54:31.28	239.46	37.65	-38.7	-40.6	15.1	0.00e+00	0	57	0	356515840	48	4629
2026-01-09 10:54:32.29	239.87	37.74	-38.7	-40.5	15.2	0.00e+00	0	57	0	359661568	48	4587
2026-01-09 10:54:33.30	240.28	37.84	-38.6	-40.4	15.3	0.00e+00	0	57	0	362807296	48	4542
2026-01-09 10:54:34.31	240.69	37.93	-38.7	-40.5	15.2	0.00e+00	0	57	0	365953024	48	4572
2026-01-09 10:54:35.32	241.10	38.02	-38.6	-40.4	15.3	0.00e+00	0	57	0	369098752	48	4534
2026-01-09 10:54:36.33	241.51	38.11	-38.7	-40.5	15.2	0.00e+00	0	57	0	372244480	48	4562
2026-01-09 10:54:37.34	241.93	38.20	-38.7	-40.6	15.2	0.00e+00	0	57	0	375390208	48	4605
2026-01-09 10:54:38.35	242.35	38.29	-38.6	-40.4	15.3	0.00e+00	0	57	0	378535936	48	4536
2026-01-09 10:54:39.35	242.77	38.38	-38.7	-40.5	15.2	0.00e+00	0	57	0	381681664	48	4580
2026-01-09 10:54:40.36	243.19	38.46	-38.7	-40.5	15.2	0.00e+00	0	57	0	384827392	48	4589
2026-01-09 10:54:41.37	243.61	38.54	-38.9	-40.8	15.0	0.00e+00	0	57	0	387973120	48	4706
2026-01-09 10:54:42.38	244.04	38.63	-39.2	-41.1	14.6	0.00e+00	0	57	0	391118848	48	4922
2026-01-09 10:54:43.39	244.47	38.71	-39.3	-41.3	14.4	1.50e-06	0	57	0	394264576	49	4742
2026-01-09 10:54:44.40	244.90	38.79	-39.1	-41.1	14.6	0.00e+00	0	57	0	397410304	49	4636
2026-01-09 10:54:45.41	245.34	38.86	-38.9	-40.8	15.0	0.00e+00	0	57	0	400556032	49	4470
2026-01-09 10:54:46.41	245.77	38.94	-38.9	-40.8	15.0	0.00e+00	0	57	0	403701760	49	4468
2026-01-09 10:54:47.42	246.21	39.01	-38.7	-40.5	15.2	0.00e+00	0	57	0	406847488	49	4332
2026-01-09 10:54:48.43	246.64	39.08	-39.0	-40.9	14.9	0.00e+00	0	57	0	409993216	49	4521
2026-01-09 10:54:49.44	247.09	39.15	-39.2	-41.2	14.5	7.00e-07	0	57	0	413138944	49	4686
2026-01-09 10:54:50.45	247.53	39.22	-39.2	-41.2	14.5	0.00e+00	0	57	0	416284672	49	4697
2026-01-09 10:54:51.46	247.97	39.29	-39.0	-40.9	14.8	7.00e-07	0	57	0	419430400	49	4538
2026-01-09 10:54:52.47	248.42	39.35	-38.9	-40.8	15.0	0.00e+00	0	57	0	422576128	49	4468
2026-01-09 10:54:53.47	248.87	39.42	-38.9	-40.8	15.1	0.00e+00	0	57	0	425721856	49	4451
2026-01-09 10:54:54.48	249.32	39.48	-38.8	-40.7	15.0	7.00e-07	0	57	0	428867584	49	4426
2026-01-09 10:54:55.49	249.77	39.54	-39.1	-41.1	14.6	7.00e-07	0	57	0	432013312	49	4619
2026-01-09 10:54:56.50	250.22	39.59	-39.1	-41.1	14.6	0.00e+00	0	57	0	435159040	49	4642
2026-01-09 10:54:57.51	250.68	39.65	-39.2	-41.2	14.5	7.00e-07	0	57	0	438304768	49	4671
2026-01-09 10:54:58.52	251.13	39.70	-39.2	-41.2	14.6	0.00e+00	0	57	0	441450496	49	4654
2026-01-09 10:54:59.53	251.59	39.76	-39.3	-41.3	14.4	0.00e+00	0	57	0	444596224	49	4739
2026-01-09 10:55:00.54	252.05	39.81	-39.2	-41.2	14.5	0.00e+00	0	57	0	447741952	49	4704
2026-01-09 10:55:01.54	252.51	39.85	-39.0	-40.9	14.8	7.00e-07	0	57	0	450887680	49	4544
2026-01-09 10:55:02.55	252.97	39.90	-38.9	-40.8	15.0	0.00e+00	0	57	0	454033408	49	4486
2026-01-09 10:55:03.56	253.43	39.94	-38.9	-40.8	15.0	0.00e+00	0	57	0	457179136	49	4459
2026-01-09 10:55:04.57	253.90	39.98	-39.2	-41.2	14.6	7.00e-07	0	57	0	460324864	49	4653
2026-01-09 10:55:05.58	254.36	40.02	-39.4	-41.5	14.3	0.00e+00	0	57	0	463470592	49	4849
2026-01-09 10:55:06.59	254.83	40.06	-39.4	-41.5	14.3	7.00e-07	0	57	0	466616320	49	4848
2026-01-09 10:55:07.60	255.30	40.10	-39.2	-41.2	14.6	0.00e+00	0	57	0	469762048	49	4683
2026-01-09 10:55:08.61	255.77	40.13	-39.0	-40.9	14.9	0.00e+00	0	57	0	472907776	49	4516
2026-01-09 10:55:09.62	256.24	40.16	-39.0	-40.9	14.9	0.00e+00	0	57	0	476053504	49	4504
2026-01-09 10:55:10.63	256.71	40.19	-39.0	-41.0	14.7	0.00e+00	0	57	0	479199232	49	4573
2026-01-09 10:55:11.64	257.18	40.22	-39.3	-41.4	14.4	0.00e+00	0	57	0	482344960	49	4781
2026-01-09 10:55:12.65	257.65	40.25	-39.1	-41.0	14.7	7.00e-07	0	57	0	485490688	49	4588
2026-01-09 10:55:13.66	258.12	40.27	-38.9	-40.8	15.0	0.00e+00	0	57	0	488636416	49	4445
2026-01-09 10:55:14.67	258.60	40.29	-38.9	-40.7	15.0	0.00e+00	0	57	0	491782144	49	4431
2026-01-09 10:55:15.68	259.07	40.31	-39.0	-41.0	14.8	0.00e+00	0	57	0	494927872	49	4566
2026-01-09 10:55:16.69	259.54	40.33	-39.4	-41.4	14.3	7.00e-07	0	57	0	498073600	49	4802
2026-01-09 10:55:17.70	260.02	40.34	-39.4	-41.5	14.4	3.00e-06	0	57	0	501219328	49	4823
2026-01-09 10:55:18.71	260.49	40.35	-39.3	-41.3	14.4	1.50e-06	0	57	0	504365056	49	4757
2026-01-09 10:55:19.72	260.97	40.36	-39.3	-41.4	14.4	7.00e-07	0	57	0	507510784	49	4788
2026-01-09 10:55:20.73	261.45	40.37	-39.5	-41.6	14.1	3.80e-06	0	57	0	510656512	49	4886
2026-01-09 10:55:21.73	261.92	40.38	-39.8	-42.0	13.8	4.50e-06	0	57	0	513802240	50	4836
2026-01-09 10:55:22.75	262.40	40.38	-39.8	-42.1	13.6	6.10e-06	0	57	0	516947968	50	4901
2026-01-09 10:55:23.75	262.87	40.38	-39.6	-41.8	13.9	6.10e-06	0	57	0	520093696	50	4729
2026-01-09 10:55:24.76	263.35	40.38	-39.4	-41.4	14.4	7.00e-07	0	57	0	523239424	50	4518
2026-01-09 10:55:25.77	263.82	40.38	-39.5	-41.5	14.2	1.50e-06	0	57	0	526385152	50	4589
2026-01-09 10:55:26.78	264.30	40.37	-39.6	-41.8	14.1	7.00e-07	0	57	0	529530880	50	4713
2026-01-09 10:55:27.79	264.77	40.37	-39.6	-41.8	14.0	3.80e-06	0	57	0	532676608	50	4734
2026-01-09 10:55:28.80	265.25	40.36	-39.7	-41.9	13.9	5.30e-06	0	57	0	535822336	50	4791
2026-01-09 10:55:29.81	265.73	40.35	-39.6	-41.7	14.1	7.00e-07	0	57	0	538968064	50	4662
2026-01-09 10:55:30.82	266.20	40.33	-39.4	-41.5	14.3	7.00e-07	0	57	0	542113792	50	4573
2026-01-09 10:55:31.83	266.68	40.32	-39.4	-41.4	14.4	7.00e-07	0	57	0	545259520	50	4531
2026-01-09 10:55:32.84	267.15	40.30	-39.6	-41.7	14.0	2.20e-06	0	57	0	548405248	50	4682
2026-01-09 10:55:33.85	267.62	40.28	-39.6	-41.7	14.0	3.00e-06	0	57	0	551550976	50	4691
2026-01-09 10:55:34.86	268.10	40.26	-39.4	-41.5	14.3	3.00e-06	0	57	0	554696704	50	4562
2026-01-09 10:55:35.87	268.57	40.23	-39.4	-41.4	14.3	7.00e-07	0	57	0	557842432	50	4542
2026-01-09 10:55:36.87	269.03	40.21	-39.3	-41.4	14.4	7.00e-07	0	57	0	560988160	50	4507
2026-01-09 10:55:37.88	269.50	40.18	-39.2	-41.2	14.6	7.00e-07	0	57	0	564133888	50	4412
2026-01-09 10:55:38.90	269.98	40.15	-39.5	-41.6	14.0	1.50e-06	0	57	0	567279616	50	4637
2026-01-09 10:55:39.91	270.45	40.11	-39.7	-42.0	13.7	2.20e-06	0	57	0	570425344	50	4834
2026-01-09 10:55:40.92	270.92	40.08	-39.4	-41.5	14.2	2.20e-06	0	57	0	573571072	50	4584
2026-01-09 10:55:41.92	271.38	40.04	-39.3	-41.3	14.5	0.00e+00	0	57	0	576716800	50	4461
2026-01-09 10:55:42.93	271.84	40.00	-39.2	-41.2	14.6	7.00e-07	0	57	0	579862528	50	4393
2026-01-09 10:55:43.94	272.31	39.96	-39.1	-41.1	14.6	0.00e+00	0	57	0	583008256	50	4379
2026-01-09 10:55:44.95	272.77	39.92	-39.2	-41.2	14.6	0.00e+00	0	57	0	586153984	50	4409
2026-01-09 10:55:45.96	273.23	39.88	-39.1	-41.1	14.7	7.00e-07	0	57	0	589299712	50	4372
2026-01-09 10:55:46.97	273.69	39.83	-39.0	-41.0	14.8	0.00e+00	0	57	0	592445440	50	4294
2026-01-09 10:55:47.98	274.15	39.78	-39.2	-41.2	14.6	0.00e+00	0	57	0	595591168	49	4653
2026-01-09 10:55:48.99	274.61	39.73	-39.5	-41.7	14.1	2.20e-06	0	57	0	598736896	49	4930
2026-01-09 10:55:50.00	275.07	39.68	-39.5	-41.6	14.1	2.20e-06	0	57	0	602931200	49	4925
2026-01-09 10:55:51.01	275.52	39.62	-39.3	-41.3	14.5	7.00e-07	0	57	0	606076928	49	4729
2026-01-09 10:55:52.02	275.98	39.56	-39.2	-41.2	14.5	0.00e+00	0	57	0	609222656	49	4684
2026-01-09 10:55:53.03	276.43	39.51	-39.2	-41.2	14.6	7.00e-07	0	57	0	611319808	49	4658
2026-01-09 10:55:54.04	276.88	39.45	-39.1	-41.1	14.7	7.00e-07	0	57	0	614465536	49	4616
2026-01-09 10:55:55.05	277.33	39.38	-39.1	-41.1	14.6	7.00e-07	0	57	0	618659840	49	4640
2026-01-09 10:55:56.06	277.77	39.32	-39.1	-41.1	14.6	0.00e+00	0	57	0	621805568	49	4602
2026-01-09 10:55:57.07	278.22	39.25	-39.2	-41.2	14.6	7.00e-07	0	57	0	624951296	49	4667
2026-01-09 10:55:58.08	278.66	39.19	-39.2	-41.2	14.6	7.00e-07	0	57	0	628097024	49	4669
2026-01-09 10:55:59.09	279.10	39.12	-39.2	-41.2	14.6	7.00e-07	0	57	0	631242752	49	4661
2026-01-09 10:56:00.10	279.54	39.05	-39.2	-41.2	14.6	0.00e+00	0	57	0	634388480	49	4652
2026-01-09 10:56:01.11	279.98	38.97	-38.9	-40.8	14.9	0.00e+00	0	57	0	637534208	49	4485
2026-01-09 10:56:02.12	280.42	38.90	-38.8	-40.7	15.0	0.00e+00	0	57	0	640679936	49	4416
2026-01-09 10:56:03.12	280.85	38.82	-39.0	-40.9	14.9	0.00e+00	0	57	0	643825664	49	4526
2026-01-09 10:56:04.13	281.28	38.75	-39.2	-41.2	14.5	7.00e-07	0	57	0	646971392	49	4691
2026-01-09 10:56:05.14	281.71	38.67	-39.2	-41.2	14.5	0.00e+00	0	57	0	650117120	49	4691
2026-01-09 10:56:06.15	282.13	38.59	-38.8	-40.7	15.1	0.00e+00	0	57	0	653262848	49	4434
2026-01-09 10:56:07.16	282.56	38.50	-38.4	-40.1	15.6	0.00e+00	0	57	0	656408576	48	4389
2026-01-09 10:56:08.17	282.98	38.42	-38.2	-39.9	15.8	0.00e+00	0	57	0	659554304	48	4277
2026-01-09 10:56:09.18	283.40	38.33	-38.2	-39.9	15.7	0.00e+00	0	57	0	662700032	48	4290
2026-01-09 10:56:10.19	283.82	38.25	-38.3	-40.0	15.7	0.00e+00	0	57	0	665845760	48	4319
2026-01-09 10:56:11.20	284.24	38.16	-38.3	-40.0	15.8	0.00e+00	0	57	0	668991488	48	4311
2026-01-09 10:56:12.21	284.65	38.07	-38.4	-40.2	15.5	0.00e+00	0	57	0	672137216	48	4406
2026-01-09 10:56:13.22	285.07	37.98	-38.9	-40.8	14.9	0.00e+00	0	57	0	675282944	48	4735
2026-01-09 10:56:14.23	285.47	37.89	-39.2	-41.1	14.6	0.00e+00	0	57	0	678428672	48	4926
2026-01-09 10:56:15.24	285.88	37.79	-39.3	-41.3	14.4	0.00e+00	0	57	0	681574400	49	4737
2026-01-09 10:56:16.24	286.28	37.70	-39.1	-41.0	14.7	1.50e-06	0	57	0	684720128	49	4588
2026-01-09 10:56:17.25	286.69	37.60	-38.8	-40.7	15.0	0.00e+00	0	57	0	687865856	49	4406
2026-01-09 10:56:18.26	287.09	37.50	-38.6	-40.4	15.3	0.00e+00	0	57	0	691011584	49	4267
2026-01-09 10:56:19.27	287.48	37.41	-38.5	-40.2	15.5	0.00e+00	0	57	0	694157312	48	4429
2026-01-09 10:56:20.28	287.88	37.31	-38.3	-40.1	15.6	0.00e+00	0	57	0	697303040	48	4371
2026-01-09 10:56:21.29	288.27	37.20	-38.2	-39.9	15.8	0.00e+00	0	57	0	700448768	48	4266
2026-01-09 10:56:22.31	288.67	37.10	-38.3	-40.0	15.8	0.00e+00	0	57	0	703594496	48	4298
2026-01-09 10:56:23.31	289.05	37.00	-38.2	-39.9	15.8	0.00e+00	0	57	0	706740224	48	4274
2026-01-09 10:56:24.32	289.44	36.89	-38.3	-40.0	15.8	0.00e+00	0	57	0	709885952	48	4301
2026-01-09 10:56:25.33	289.82	36.79	-38.3	-40.0	15.7	0.00e+00	0	57	0	713031680	48	4312
2026-01-09 10:56:26.34	290.20	36.68	-38.1	-39.8	15.9	0.00e+00	0	57	0	716177408	48	4203
2026-01-09 10:56:27.35	290.58	36.57	-37.8	-39.5	16.1	0.00e+00	0	57	0	719323136	47	4306
2026-01-09 10:56:28.36	290.96	36.46	-37.9	-39.5	16.0	0.00e+00	0	57	0	722468864	47	4334
2026-01-09 10:56:29.37	291.33	36.35	-38.2	-40.0	15.6	0.00e+00	0	57	0	725614592	47	4563
2026-01-09 10:56:30.38	291.70	36.24	-38.4	-40.3	15.4	0.00e+00	0	57	0	728760320	47	4719
2026-01-09 10:56:31.39	292.07	36.13	-38.6	-40.4	15.2	0.00e+00	0	57	0	731906048	47	4805
2026-01-09 10:56:32.40	292.43	36.02	-38.3	-40.1	15.6	0.00e+00	0	57	0	735051776	47	4611
2026-01-09 10:56:33.41	292.80	35.91	-38.2	-40.0	15.6	0.00e+00	0	57	0	738197504	47	4580
2026-01-09 10:56:34.42	293.16	35.79	-38.2	-40.0	15.6	0.00e+00	0	57	0	741343232	47	4559
2026-01-09 10:56:35.43	293.52	35.68	-38.3	-40.1	15.5	0.00e+00	0	57	0	744488960	47	4605
2026-01-09 10:56:36.44	293.87	35.56	-38.2	-39.9	15.7	0.00e+00	0	57	0	747634688	47	4537
2026-01-09 10:56:37.45	294.23	35.44	-37.9	-39.6	15.9	0.00e+00	0	57	0	750780416	47	4385
2026-01-09 10:56:38.45	294.57	35.33	-38.1	-39.9	15.7	0.00e+00	0	57	0	753926144	47	4512
2026-01-09 10:56:39.47	294.93	35.21	-38.3	-40.1	15.5	0.00e+00	0	57	0	757071872	47	4619
2026-01-09 10:56:40.48	295.27	35.09	-38.3	-40.1	15.5	0.00e+00	0	57	0	760217600	47	4615
2026-01-09 10:56:41.49	295.62	34.97	-38.0	-39.7	15.9	0.00e+00	0	57	0	763363328	47	4418
2026-01-09 10:56:42.50	295.96	34.85	-37.9	-39.5	16.1	0.00e+00	0	57	0	766509056	47	4325
2026-01-09 10:56:43.51	296.29	34.73	-37.7	-39.4	16.2	0.00e+00	0	57	0	769654784	47	4266
2026-01-09 10:56:44.52	296.63	34.61	-37.7	-39.4	16.2	0.00e+00	0	57	0	772800512	47	4257
2026-01-09 10:56:45.53	296.96	34.49	-37.9	-39.5	16.0	0.00e+00	0	57	0	775946240	47	4337
2026-01-09 10:56:46.54	297.30	34.36	-37.9	-39.6	15.9	0.00e+00	0	57	0	779091968	47	4385
2026-01-09 10:56:47.55	297.62	34.24	-37.9	-39.6	16.0	0.00e+00	0	57	0	782237696	47	4345
2026-01-09 10:56:48.56	297.95	34.12	-37.9	-39.6	16.1	0.00e+00	0	57	0	785383424	47	4353
2026-01-09 10:56:49.56	298.27	33.99	-37.9	-39.6	16.1	0.00e+00	0	57	0	788529152	47	4341
2026-01-09 10:56:50.57	298.59	33.87	-38.1	-39.8	15.8	0.00e+00	0	57	0	791674880	47	4476
2026-01-09 10:56:51.58	298.91	33.74	-38.2	-39.9	15.7	0.00e+00	0	57	0	794820608	47	4544
2026-01-09 10:56:52.59	299.23	33.62	-38.1	-39.9	15.8	0.00e+00	0	57	0	797966336	47	4525
2026-01-09 10:56:53.60	299.54	33.49	-38.0	-39.7	15.9	0.00e+00	0	57	0	801112064	47	4406
2026-01-09 10:56:54.61	299.85	33.36	-37.9	-39.6	16.0	0.00e+00	0	57	0	804257792	47	4347
2026-01-09 10:56:55.62	300.16	33.24	-37.9	-39.7	16.0	0.00e+00	0	57	0	807403520	47	4394
2026-01-09 10:56:56.63	300.47	33.11	-37.9	-39.6	16.0	0.00e+00	0	57	0	810549248	47	4387
2026-01-09 10:56:57.64	300.77	32.98	-37.8	-39.5	16.1	0.00e+00	0	57	0	813694976	47	4303
2026-01-09 10:56:58.65	301.08	32.86	-37.6	-39.2	16.4	0.00e+00	0	57	0	816840704	47	4182
2026-01-09 10:56:59.66	301.37	32.73	-37.5	-39.1	16.5	0.00e+00	0	57	0	819986432	47	4141
2026-01-09 10:57:00.67	301.67	32.60	-37.4	-39.0	16.7	0.00e+00	0	57	0	823132160	46	4303
2026-01-09 10:57:01.68	301.97	32.47	-37.3	-38.9	16.7	0.00e+00	0	57	0	826277888	46	4257
2026-01-09 10:57:02.69	302.26	32.34	-37.3	-38.9	16.7	0.00e+00	0	57	0	829423616	46	4267
2026-01-09 10:57:03.69	302.55	32.21	-37.4	-39.0	16.6	0.00e+00	0	57	0	832569344	46	4321
2026-01-09 10:57:04.70	302.84	32.08	-37.5	-39.1	16.5	0.00e+00	0	57	0	835715072	46	4376
2026-01-09 10:57:05.71	303.12	31.95	-37.5	-39.1	16.5	0.00e+00	0	57	0	838860800	46	4352
2026-01-09 10:57:06.72	303.41	31.82	-37.5	-39.1	16.5	0.00e+00	0	57	0	842006528	46	4378
2026-01-09 10:57:07.73	303.69	31.69	-37.6	-39.3	16.3	0.00e+00	0	57	0	845152256	46	4443
2026-01-09 10:57:08.74	303.97	31.56	-37.7	-39.3	16.3	0.00e+00	0	57	0	848297984	46	4484
2026-01-09 10:57:09.75	304.24	31.43	-37.6	-39.2	16.4	0.00e+00	0	57	0	851443712	46	4437
2026-01-09 10:57:10.76	304.52	31.30	-37.6	-39.2	16.4	0.00e+00	0	57	0	854589440	46	4427
2026-01-09 10:57:11.77	304.79	31.17	-37.6	-39.2	16.4	0.00e+00	0	57	0	857735168	46	4417
2026-01-09 10:57:12.78	305.06	31.04	-37.6	-39.2	16.3	0.00e+00	0	57	0	860880896	46	4434
2026-01-09 10:57:13.79	305.33	30.91	-37.6	-39.2	16.3	0.00e+00	0	57	0	864026624	46	4429
2026-01-09 10:57:14.80	305.60	30.78	-37.7	-39.4	16.2	0.00e+00	0	57	0	867172352	46	4503
2026-01-09 10:57:15.81	305.86	30.65	-37.9	-39.6	16.0	0.00e+00	0	57	0	870318080	46	4632
2026-01-09 10:57:16.82	306.12	30.52	-38.0	-39.8	15.8	0.00e+00	0	57	0	873463808	46	4719
2026-01-09 10:57:17.83	306.38	30.39	-38.1	-39.8	15.8	0.00e+00	0	57	0	876609536	46	4739
2026-01-09 10:57:18.84	306.64	30.26	-37.9	-39.6	16.0	0.00e+00	0	57	0	879755264	46	4628
2026-01-09 10:57:19.85	306.90	30.13	-37.8	-39.5	16.1	0.00e+00	0	57	0	882900992	46	4576
2026-01-09 10:57:20.86	307.15	30.00	-37.9	-39.6	16.0	0.00e+00	0	57	0	886046720	46	4606
2026-01-09 10:57:21.87	307.40	29.86	-38.0	-39.7	15.9	0.00e+00	0	57	0	889192448	46	4681
2026-01-09 10:57:22.88	307.65	29.73	-37.8	-39.5	16.1	0.00e+00	0	57	0	892338176	46	4574
2026-01-09 10:57:23.89	307.90	29.60	-37.8	-39.5	16.1	0.00e+00	0	57	0	895483904	46	4555
2026-01-09 10:57:24.90	308.15	29.47	-37.8	-39.5	16.0	0.00e+00	0	57	0	898629632	46	4579
2026-01-09 10:57:25.91	308.39	29.34	-37.9	-39.6	16.0	0.00e+00	0	57	0	901775360	46	4649
2026-01-09 10:57:26.92	308.63	29.21	-37.8	-39.4	16.1	0.00e+00	0	57	0	904921088	46	4529
2026-01-09 10:57:27.93	308.87	29.08	-37.6	-39.2	16.4	0.00e+00	0	57	0	908066816	46	4406
2026-01-09 10:57:28.94	309.11	28.95	-37.5	-39.1	16.5	0.00e+00	0	57	0	911212544	46	4355
2026-01-09 10:57:29.95	309.35	28.82	-37.5	-39.1	16.5	0.00e+00	0	57	0	914358272	46	4352
2026-01-09 10:57:30.96	309.58	28.69	-37.5	-39.2	16.4	0.00e+00	0	57	0	917504000	46	4403
2026-01-09 10:57:31.97	309.81	28.56	-37.4	-39.0	16.6	0.00e+00	0	57	0	920649728	46	4309
2026-01-09 10:57:32.97	310.04	28.43	-37.3	-38.9	16.6	0.00e+00	0	57	0	923795456	46	4270
2026-01-09 10:57:33.98	310.27	28.30	-37.3	-38.9	16.6	0.00e+00	0	57	0	926941184	46	4270
2026-01-09 10:57:34.99	310.50	28.17	-37.3	-38.9	16.6	0.00e+00	0	57	0	930086912	46	4283
2026-01-09 10:57:36.00	310.72	28.04	-37.3	-38.9	16.6	0.00e+00	0	57	0	933232640	46	4282
2026-01-09 10:57:37.01	310.95	27.91	-37.3	-38.9	16.6	0.00e+00	0	57	0	936378368	46	4283
2026-01-09 10:57:38.02	311.17	27.78	-37.2	-38.7	16.8	0.00e+00	0	57	0	939524096	46	4189
2026-01-09 10:57:39.03	311.39	27.65	-37.1	-38.6	16.9	0.00e+00	0	57	0	942669824	46	4132
2026-01-09 10:57:40.04	311.61	27.52	-37.0	-38.5	17.0	0.00e+00	0	57	0	945815552	46	4080
2026-01-09 10:57:41.05	311.82	27.39	-37.0	-38.5	16.9	0.00e+00	0	57	0	948961280	46	4097
2026-01-09 10:57:42.05	312.04	27.26	-36.9	-38.4	17.1	0.00e+00	0	57	0	952107008	45	4254
2026-01-09 10:57:43.07	312.25	27.13	-36.8	-38.3	17.2	0.00e+00	0	57	0	955252736	45	4229
2026-01-09 10:57:44.08	312.46	27.01	-36.9	-38.3	17.1	0.00e+00	0	57	0	958398464	45	4238
2026-01-09 10:57:45.09	312.67	26.88	-36.8	-38.3	17.1	0.00e+00	0	57	0	961544192	45	4228
2026-01-09 10:57:46.10	312.88	26.75	-36.8	-38.3	17.2	0.00e+00	0	57	0	965738496	45	4218
2026-01-09 10:57:47.10	313.09	26.62	-36.8	-38.2	17.2	0.00e+00	0	57	0	968884224	45	4192
2026-01-09 10:57:48.12	313.29	26.49	-36.7	-38.2	17.3	0.00e+00	0	57	0	972029952	45	4173
2026-01-09 10:57:49.12	313.49	26.37	-36.7	-38.2	17.2	0.00e+00	0	57	0	974127104	45	4178
2026-01-09 10:57:50.13	313.70	26.24	-36.7	-38.2	17.2	0.00e+00	0	57	0	977272832	45	4180
2026-01-09 10:57:51.14	313.90	26.11	-36.7	-38.2	17.3	0.00e+00	0	57	0	980418560	45	4168
2026-01-09 10:57:52.15	314.09	25.99	-36.7	-38.2	17.3	0.00e+00	0	57	0	984612864	45	4156
2026-01-09 10:57:53.16	314.29	25.86	-36.7	-38.2	17.3	0.00e+00	0	57	0	987758592	45	4147
2026-01-09 10:57:54.17	314.49	25.74	-36.7	-38.2	17.3	0.00e+00	0	57	0	990904320	45	4169
2026-01-09 10:57:55.18	314.68	25.61	-36.8	-38.3	17.2	0.00e+00	0	57	0	994050048	45	4201
2026-01-09 10:57:56.19	314.87	25.48	-36.8	-38.2	17.2	0.00e+00	0	57	0	996147200	45	4189
2026-01-09 10:57:57.20	315.06	25.36	-36.7	-38.2	17.3	0.00e+00	0	57	0	1000341504	45	4150
2026-01-09 10:57:58.21	315.25	25.23	-36.7	-38.2	17.3	0.00e+00	0	57	0	1003487232	45	4171
2026-01-09 10:57:59.22	315.44	25.11	-36.7	-38.2	17.3	0.00e+00	0	57	0	1006632960	45	4179
2026-01-09 10:58:00.23	315.63	24.98	-36.7	-38.1	17.3	0.00e+00	0	57	0	1009778688	45	4144
2026-01-09 10:58:01.24	315.81	24.86	-36.6	-38.1	17.4	0.00e+00	0	57	0	1012924416	45	4117
2026-01-09 10:58:02.25	316.00	24.74	-36.5	-37.9	17.5	0.00e+00	0	57	0	1016070144	45	4036
2026-01-09 10:58:03.26	316.18	24.61	-36.5	-37.9	17.5	0.00e+00	0	57	0	1019215872	44	4281
2026-01-09 10:58:04.26	316.36	24.49	-36.5	-37.9	17.5	0.00e+00	0	57	0	1022361600	44	4270
2026-01-09 10:58:05.28	316.54	24.37	-36.6	-38.0	17.4	0.00e+00	0	57	0	1025507328	44	4333
2026-01-09 10:58:06.29	316.72	24.24	-36.6	-38.1	17.3	0.00e+00	0	57	0	1028653056	44	4343
2026-01-09 10:58:07.29	316.89	24.12	-36.7	-38.2	17.2	0.00e+00	0	57	0	1031798784	44	4420
2026-01-09 10:58:08.30	317.07	24.00	-36.8	-38.3	17.1	0.00e+00	0	57	0	1034944512	44	4468
2026-01-09 10:58:09.31	317.24	23.88	-36.8	-38.3	17.2	0.00e+00	0	57	0	1038090240	44	4443
2026-01-09 10:58:10.32	317.42	23.76	-36.8	-38.3	17.1	0.00e+00	0	57	0	1041235968	44	4465
2026-01-09 10:58:11.33	317.59	23.64	-36.8	-38.3	17.1	0.00e+00	0	57	0	1044381696	44	4448
2026-01-09 10:58:12.34	317.76	23.52	-36.7	-38.2	17.2	0.00e+00	0	57	0	1047527424	44	4397
2026-01-09 10:58:13.35	317.93	23.39	-36.8	-38.2	17.1	0.00e+00	0	57	0	1050673152	44	4441
2026-01-09 10:58:14.36	318.09	23.27	-36.8	-38.3	17.1	0.00e+00	0	57	0	1053818880	44	4447
2026-01-09 10:58:15.37	318.26	23.15	-36.9	-38.4	16.9	0.00e+00	0	57	0	1056964608	44	4539
2026-01-09 10:58:16.38	318.43	23.03	-37.0	-38.5	16.9	0.00e+00	0	57	0	1060110336	44	4591
2026-01-09 10:58:17.39	318.59	22.92	-37.0	-38.6	16.8	0.00e+00	0	57	0	1063256064	44	4624
2026-01-09 10:58:18.40	318.75	22.80	-37.2	-38.7	16.7	0.00e+00	0	57	0	1066401792	44	4698
2026-01-09 10:58:19.41	318.92	22.68	-37.3	-38.8	16.6	0.00e+00	0	57	0	1069547520	45	4487
2026-01-09 10:58:20.42	319.08	22.56	-37.2	-38.8	16.6	0.00e+00	0	57	0	1072693248	45	4469
2026-01-09 10:58:21.42	319.23	22.44	-37.2	-38.8	16.6	0.00e+00	0	57	0	1075838976	45	4462
2026-01-09 10:58:22.43	319.39	22.33	-37.3	-38.9	16.6	0.00e+00	0	57	0	1078984704	45	4495
2026-01-09 10:58:23.44	319.55	22.21	-37.3	-39.0	16.5	0.00e+00	0	57	0	1082130432	45	4554
2026-01-09 10:58:24.45	319.70	22.09	-37.4	-39.0	16.4	0.00e+00	0	57	0	1085276160	45	4579
2026-01-09 10:58:25.46	319.86	21.97	-37.4	-39.0	16.4	0.00e+00	0	57	0	1088421888	45	4581
2026-01-09 10:58:26.47	320.01	21.86	-37.4	-39.0	16.4	0.00e+00	0	57	0	1091567616	45	4579
2026-01-09 10:58:27.48	320.17	21.74	-37.3	-39.0	16.4	0.00e+00	0	57	0	1094713344	45	4555
2026-01-09 10:58:28.49	320.32	21.63	-37.4	-39.0	16.4	0.00e+00	0	57	0	1097859072	45	4577
2026-01-09 10:58:29.50	320.47	21.51	-37.4	-39.0	16.4	0.00e+00	0	57	0	1101004800	45	4576
2026-01-09 10:58:30.51	320.62	21.40	-37.3	-38.9	16.5	0.00e+00	0	57	0	1104150528	45	4518
2026-01-09 10:58:31.52	320.76	21.28	-37.3	-38.9	16.5	0.00e+00	0	57	0	1107296256	45	4515
2026-01-09 10:58:32.53	320.91	21.17	-37.3	-38.9	16.5	0.00e+00	0	57	0	1110441984	45	4518
2026-01-09 10:58:33.54	321.06	21.05	-37.4	-39.0	16.4	0.00e+00	0	57	0	1113587712	45	4579
2026-01-09 10:58:34.55	321.20	20.94	-37.4	-39.1	16.3	0.00e+00	0	57	0	1116733440	45	4615
2026-01-09 10:58:35.56	321.35	20.83	-37.5	-39.2	16.2	0.00e+00	0	57	0	1119879168	45	4659
2026-01-09 10:58:36.57	321.49	20.71	-37.3	-38.9	16.5	0.00e+00	0	57	0	1123024896	45	4499
2026-01-09 10:58:37.58	321.63	20.60	-37.1	-38.6	16.7	0.00e+00	0	57	0	1126170624	45	4385
2026-01-09 10:58:38.59	321.77	20.49	-37.0	-38.6	16.8	0.00e+00	0	57	0	1129316352	45	4341
2026-01-09 10:58:39.60	321.91	20.38	-36.9	-38.5	16.9	0.00e+00	0	57	0	1132462080	45	4298
2026-01-09 10:58:40.61	322.05	20.26	-37.0	-38.5	16.8	0.00e+00	0	57	0	1135607808	45	4312
2026-01-09 10:58:41.62	322.19	20.15	-36.8	-38.3	17.0	0.00e+00	0	57	0	1138753536	45	4212
2026-01-09 10:58:42.62	322.32	20.04	-36.8	-38.3	16.9	0.00e+00	0	57	0	1141899264	45	4242
2026-01-09 10:58:43.63	322.46	19.93	-36.9	-38.4	16.9	0.00e+00	0	57	0	1145044992	45	4263
2026-01-09 10:58:44.64	322.59	19.82	-36.9	-38.4	16.9	0.00e+00	0	57	0	1148190720	45	4286
2026-01-09 10:58:45.65	322.73	19.71	-36.9	-38.4	16.9	0.00e+00	0	57	0	1151336448	45	4251
2026-01-09 10:58:46.66	322.86	19.60	-36.8	-38.3	17.0	0.00e+00	0	57	0	1154482176	45	4228
2026-01-09 10:58:47.67	322.99	19.49	-36.9	-38.4	17.0	0.00e+00	0	57	0	1157627904	45	4260
2026-01-09 10:58:48.68	323.13	19.38	-36.9	-38.5	16.8	0.00e+00	0	57	0	1160773632	45	4310
2026-01-09 10:58:49.69	323.26	19.28	-37.0	-38.5	16.8	0.00e+00	0	57	0	1163919360	45	4324
2026-01-09 10:58:50.70	323.39	19.17	-36.9	-38.4	16.9	0.00e+00	0	58	0	1167065088	45	4256
2026-01-09 10:58:51.71	323.51	19.06	-36.9	-38.4	16.9	0.00e+00	0	58	0	1170210816	45	4260
2026-01-09 10:58:52.71	323.64	18.95	-36.9	-38.4	16.9	0.00e+00	0	57	0	1173356544	45	4272
2026-01-09 10:58:53.72	323.77	18.85	-36.9	-38.4	16.9	0.00e+00	0	57	0	1176502272	45	4282
2026-01-09 10:58:54.73	323.89	18.74	-36.9	-38.4	16.9	0.00e+00	0	57	0	1179648000	45	4290
2026-01-09 10:58:55.74	324.02	18.63	-36.9	-38.5	16.8	0.00e+00	0	57	0	1182793728	45	4305
2026-01-09 10:58:56.75	324.14	18.53	-37.0	-38.6	16.7	0.00e+00	0	57	0	1185939456	45	4358
2026-01-09 10:58:57.76	324.27	18.42	-37.1	-38.6	16.7	0.00e+00	0	57	0	1189085184	45	4387
2026-01-09 10:58:58.77	324.39	18.31	-37.1	-38.6	16.7	0.00e+00	0	58	0	1192230912	45	4384
2026-01-09 10:58:59.78	324.51	18.21	-37.0	-38.6	16.7	0.00e+00	0	57	0	1195376640	45	4378
2026-01-09 10:59:00.79	324.63	18.10	-37.0	-38.5	16.8	0.00e+00	0	57	0	1198522368	45	4320
2026-01-09 10:59:01.79	324.75	18.00	-37.0	-38.6	16.7	0.00e+00	0	57	0	1201668096	45	4362
2026-01-09 10:59:02.80	324.87	17.90	-37.1	-38.6	16.7	0.00e+00	0	58	0	1204813824	45	4383
2026-01-09 10:59:03.81	324.99	17.79	-37.1	-38.7	16.6	0.00e+00	0	57	0	1207959552	45	4410
2026-01-09 10:59:04.82	325.11	17.69	-37.2	-38.8	16.5	0.00e+00	0	57	0	1211105280	45	4458
2026-01-09 10:59:05.83	325.23	17.59	-37.2	-38.8	16.4	0.00e+00	0	57	0	1214251008	45	4487
2026-01-09 10:59:06.84	325.34	17.48	-37.3	-38.9	16.3	0.00e+00	0	58	0	1217396736	45	4538
2026-01-09 10:59:07.85	325.46	17.38	-37.2	-38.8	16.5	0.00e+00	0	57	0	1220542464	45	4456
2026-01-09 10:59:08.86	325.57	17.28	-37.2	-38.8	16.5	0.00e+00	0	57	0	1223688192	45	4452
2026-01-09 10:59:09.87	325.69	17.18	-37.2	-38.8	16.5	0.00e+00	0	58	0	1226833920	45	4455
2026-01-09 10:59:10.88	325.80	17.07	-37.2	-38.8	16.5	0.00e+00	0	57	0	1229979648	45	4479
2026-01-09 10:59:11.89	325.91	16.97	-37.2	-38.8	16.5	0.00e+00	0	57	0	1233125376	45	4471
2026-01-09 10:59:12.90	326.03	16.87	-37.3	-38.9	16.3	0.00e+00	0	58	0	1236271104	45	4526
2026-01-09 10:59:13.91	326.14	16.77	-37.3	-39.0	16.3	0.00e+00	0	57	0	1239416832	45	4561
2026-01-09 10:59:14.92	326.25	16.67	-37.3	-38.9	16.3	0.00e+00	0	57	0	1242562560	45	4515
2026-01-09 10:59:15.93	326.36	16.57	-37.2	-38.8	16.4	0.00e+00	0	57	0	1245708288	45	4483
2026-01-09 10:59:16.94	326.47	16.47	-37.3	-38.9	16.3	0.00e+00	0	57	0	1248854016	45	4516
2026-01-09 10:59:17.95	326.57	16.37	-37.3	-39.0	16.2	0.00e+00	0	58	0	1251999744	45	4568
2026-01-09 10:59:18.96	326.68	16.27	-37.5	-39.1	16.1	0.00e+00	0	58	0	1255145472	45	4638
2026-01-09 10:59:19.97	326.79	16.17	-37.4	-39.1	16.1	0.00e+00	0	57	0	1258291200	45	4635
2026-01-09 10:59:20.97	326.90	16.08	-37.4	-39.1	16.1	0.00e+00	0	58	0	1261436928	45	4622
2026-01-09 10:59:21.98	327.00	15.98	-37.5	-39.2	16.0	0.00e+00	0	58	0	1264582656	45	4674
2026-01-09 10:59:22.99	327.11	15.88	-37.6	-39.3	15.9	0.00e+00	0	57	0	1267728384	45	4735
2026-01-09 10:59:24.00	327.21	15.78	-37.5	-39.3	15.9	0.00e+00	0	58	0	1270874112	45	4710
2026-01-09 10:59:25.01	327.31	15.68	-37.6	-39.3	15.8	0.00e+00	0	57	0	1274019840	45	4748
2026-01-09 10:59:26.02	327.42	15.59	-37.6	-39.3	15.9	0.00e+00	0	57	0	1277165568	45	4719
2026-01-09 10:59:27.03	327.52	15.49	-37.6	-39.4	15.8	0.00e+00	0	57	0	1280311296	45	4775
2026-01-09 10:59:28.04	327.62	15.39	-37.7	-39.4	15.7	0.00e+00	0	57	0	1283457024	45	4807
2026-01-09 10:59:29.05	327.72	15.30	-37.6	-39.4	15.8	0.00e+00	0	57	0	1286602752	45	4778
2026-01-09 10:59:30.06	327.82	15.20	-37.7	-39.4	15.7	0.00e+00	0	57	0	1289748480	45	4807
2026-01-09 10:59:31.07	327.92	15.11	-37.8	-39.5	15.7	0.00e+00	0	57	0	1292894208	46	4579
2026-01-09 10:59:32.08	328.02	15.01	-37.8	-39.6	15.6	0.00e+00	0	57	0	1296039936	46	4606
2026-01-09 10:59:33.09	328.12	14.92	-37.7	-39.5	15.7	0.00e+00	0	58	0	1299185664	46	4572
2026-01-09 10:59:34.10	328.22	14.82	-37.7	-39.5	15.7	0.00e+00	0	57	0	1302331392	46	4561
2026-01-09 10:59:35.11	328.32	14.73	-37.8	-39.5	15.7	0.00e+00	0	57	0	1305477120	46	4590
2026-01-09 10:59:36.12	328.41	14.63	-37.7	-39.4	15.8	0.00e+00	0	57	0	1308622848	46	4528
2026-01-09 10:59:37.13	328.51	14.54	-37.7	-39.4	15.7	0.00e+00	0	58	0	1311768576	46	4536
2026-01-09 10:59:38.13	328.61	14.45	-37.7	-39.4	15.7	0.00e+00	0	57	0	1314914304	46	4539
2026-01-09 10:59:39.15	328.70	14.35	-37.7	-39.4	15.7	0.00e+00	0	57	0	1318060032	46	4538
2026-01-09 10:59:40.16	328.80	14.26	-37.7	-39.4	15.8	0.00e+00	0	58	0	1321205760	46	4512
2026-01-09 10:59:41.16	328.89	14.17	-37.7	-39.5	15.7	0.00e+00	0	57	0	1324351488	46	4565
2026-01-09 10:59:42.17	328.98	14.08	-37.7	-39.4	15.8	0.00e+00	0	57	0	1327497216	46	4526
2026-01-09 10:59:43.18	329.08	13.99	-37.7	-39.5	15.7	0.00e+00	0	58	0	1330642944	46	4563
2026-01-09 10:59:44.19	329.17	13.89	-37.8	-39.6	15.5	0.00e+00	0	57	0	1333788672	46	4649
2026-01-09 10:59:45.20	329.26	13.80	-38.0	-39.8	15.3	0.00e+00	0	57	0	1336934400	46	4739
2026-01-09 10:59:46.21	329.35	13.71	-38.1	-39.9	15.2	0.00e+00	0	57	0	1340080128	46	4814
2026-01-09 10:59:47.22	329.44	13.62	-38.0	-39.8	15.4	0.00e+00	0	57	0	1343225856	46	4734
2026-01-09 10:59:48.23	329.53	13.53	-37.8	-39.7	15.5	0.00e+00	0	58	0	1346371584	46	4655
2026-01-09 10:59:49.24	329.62	13.44	-37.9	-39.8	15.4	0.00e+00	0	57	0	1349517312	46	4709
2026-01-09 10:59:50.25	329.71	13.35	-37.9	-39.7	15.4	0.00e+00	0	57	0	1353711616	46	4689
2026-01-09 10:59:51.26	329.80	13.26	-37.9	-39.7	15.4	0.00e+00	0	57	0	1356857344	46	4673
2026-01-09 10:59:52.27	329.89	13.17	-37.9	-39.8	15.3	0.00e+00	0	57	0	1358954496	46	4706
2026-01-09 10:59:53.28	329.98	13.08	-38.0	-39.8	15.2	0.00e+00	0	58	0	1362100224	46	4750
2026-01-09 10:59:54.29	330.07	12.99	-38.0	-39.8	15.2	0.00e+00	0	57	0	1365245952	46	4757
2026-01-09 10:59:55.30	330.15	12.90	-38.1	-39.9	15.1	0.00e+00	0	57	0	1369440256	46	4804
2026-01-09 10:59:56.31	330.24	12.82	-38.0	-39.9	15.1	0.00e+00	0	58	0	1372585984	46	4787
2026-01-09 10:59:57.32	330.32	12.73	-38.0	-39.9	15.2	0.00e+00	0	58	0	1375731712	46	4769
2026-01-09 10:59:58.33	330.41	12.64	-38.0	-39.8	15.2	0.00e+00	0	57	0	1378877440	46	4748
2026-01-09 10:59:59.34	330.50	12.55	-38.0	-39.9	15.1	0.00e+00	0	57	0	1382023168	46	4779
2026-01-09 11:00:00.35	330.58	12.46	-38.1	-40.0	15.0	0.00e+00	0	58	0	1385168896	46	4838
2026-01-09 11:00:01.36	330.66	12.38	-38.1	-40.0	15.0	0.00e+00	0	58	0	1388314624	46	4864
2026-01-09 11:00:02.36	330.75	12.29	-38.1	-40.0	15.0	0.00e+00	0	58	0	1391460352	46	4818
2026-01-09 11:00:03.37	330.83	12.20	-38.0	-39.9	15.1	0.00e+00	0	58	0	1394606080	46	4782
2026-01-09 11:00:04.38	330.91	12.12	-38.1	-40.0	15.1	0.00e+00	0	57	0	1397751808	46	4825
2026-01-09 11:00:05.39	330.99	12.03	-38.0	-39.9	15.1	0.00e+00	0	58	0	1400897536	46	4791
2026-01-09 11:00:06.40	331.08	11.95	-38.1	-39.9	15.1	0.00e+00	0	57	0	1404043264	46	4813
2026-01-09 11:00:07.41	331.16	11.86	-38.0	-39.9	15.1	0.00e+00	0	58	0	1407188992	46	4806
2026-01-09 11:00:08.42	331.24	11.78	-38.0	-39.9	15.1	0.00e+00	0	58	0	1410334720	46	4799
2026-01-09 11:00:09.43	331.32	11.69	-38.0	-39.9	15.1	0.00e+00	0	57	0	1413480448	46	4783
2026-01-09 11:00:10.44	331.40	11.61	-38.1	-40.0	15.1	0.00e+00	0	58	0	1416626176	46	4833
2026-01-09 11:00:11.45	331.48	11.52	-38.0	-39.9	15.0	0.00e+00	0	58	0	1419771904	46	4803
2026-01-09 11:00:12.46	331.56	11.44	-38.1	-40.0	15.0	0.00e+00	0	57	0	1422917632	46	4831
2026-01-09 11:00:13.47	331.63	11.35	-38.0	-39.9	15.1	0.00e+00	0	58	0	1426063360	46	4803
2026-01-09 11:00:14.48	331.71	11.27	-38.0	-39.9	15.0	0.00e+00	0	58	0	1429209088	46	4806
2026-01-09 11:00:15.49	331.79	11.19	-38.1	-40.0	15.0	0.00e+00	0	57	0	1432354816	46	4866
2026-01-09 11:00:16.50	331.87	11.10	-38.2	-40.1	14.8	0.00e+00	0	57	0	1435500544	46	4925
2026-01-09 11:00:17.51	331.94	11.02	-38.2	-40.1	14.9	0.00e+00	0	57	0	1438646272	46	4907
2026-01-09 11:00:18.52	332.02	10.94	-38.1	-40.0	15.0	0.00e+00	0	57	0	1441792000	46	4839
2026-01-09 11:00:19.53	332.10	10.85	-38.1	-40.0	15.0	0.00e+00	0	58	0	1444937728	46	4839
2026-01-09 11:00:20.53	332.17	10.77	-38.1	-40.1	14.8	0.00e+00	0	58	0	1448083456	46	4904
2026-01-09 11:00:21.55	332.25	10.69	-38.1	-40.1	14.8	0.00e+00	0	58	0	1451229184	46	4904
2026-01-09 11:00:22.55	332.32	10.61	-38.1	-40.0	14.9	7.00e-07	0	58	0	1454374912	46	4869
2026-01-09 11:00:23.57	332.40	10.53	-38.2	-40.1	14.8	0.00e+00	0	58	0	1457520640	46	4911
2026-01-09 11:00:24.57	332.47	10.44	-38.2	-40.2	14.7	7.00e-07	0	57	0	1460666368	46	4938
2026-01-09 11:00:25.58	332.54	10.36	-38.3	-40.3	14.6	0.00e+00	0	58	0	1463812096	47	4724
2026-01-09 11:00:26.59	332.62	10.28	-38.4	-40.4	14.5	0.00e+00	0	58	0	1466957824	47	4794
2026-01-09 11:00:27.61	332.69	10.20	-38.4	-40.4	14.4	0.00e+00	0	58	0	1470103552	47	4805
2026-01-09 11:00:28.62	332.76	10.12	-38.5	-40.6	14.2	7.00e-07	0	57	0	1473249280	47	4917
2026-01-09 11:00:29.63	332.84	10.04	-38.6	-40.7	14.1	2.20e-06	0	58	0	1476395008	47	4980
2026-01-09 11:00:30.64	332.91	9.96	-38.7	-40.9	14.0	4.50e-06	0	57	0	1479540736	47	5045
2026-01-09 11:00:31.65	332.98	9.88	-38.9	-41.1	13.9	3.80e-06	0	57	0	1482686464	48	4873
2026-01-09 11:00:32.65	333.05	9.80	-38.8	-41.0	14.0	6.10e-06	0	58	0	1485832192	48	4831
2026-01-09 11:00:33.66	333.12	9.72	-38.8	-40.9	14.0	1.50e-06	0	58	0	1488977920	48	4806
2026-01-09 11:00:34.67	333.19	9.64	-38.8	-41.0	13.9	3.80e-06	0	58	0	1492123648	48	4858
2026-01-09 11:00:35.68	333.26	9.56	-38.9	-41.1	13.8	2.20e-06	0	58	0	1495269376	48	4922
2026-01-09 11:00:36.69	333.33	9.48	-39.0	-41.2	13.7	1.06e-05	0	58	0	1498415104	48	4956
2026-01-09 11:00:37.70	333.40	9.41	-39.0	-41.3	13.6	5.30e-06	0	58	0	1501560832	48	4994
2026-01-09 11:00:38.71	333.47	9.33	-38.9	-41.2	13.7	9.90e-06	0	58	0	1504706560	48	4951
2026-01-09 11:00:39.72	333.54	9.25	-38.9	-41.1	13.8	3.00e-06	0	57	0	1507852288	48	4913
2026-01-09 11:00:40.73	333.61	9.17	-38.8	-41.1	13.8	4.50e-06	0	58	0	1510998016	48	4888
2026-01-09 11:00:41.74	333.67	9.09	-38.9	-41.2	13.7	5.30e-06	0	57	0	1514143744	48	4940
2026-01-09 11:00:42.75	333.74	9.02	-38.8	-41.0	13.8	6.10e-06	0	57	0	1517289472	48	4863
2026-01-09 11:00:43.76	333.81	8.94	-38.9	-41.1	13.7	3.80e-06	0	58	0	1520435200	48	4911
2026-01-09 11:00:44.77	333.88	8.86	-38.9	-41.1	13.7	7.60e-06	0	58	0	1523580928	48	4912
2026-01-09 11:00:45.78	333.94	8.79	-38.9	-41.2	13.5	9.10e-06	0	58	0	1526726656	48	4959
2026-01-09 11:00:46.79	334.01	8.71	-38.9	-41.2	13.6	1.06e-05	0	58	0	1529872384	48	4929
2026-01-09 11:00:47.80	334.08	8.63	-38.9	-41.1	13.6	9.10e-06	0	58	0	1533018112	48	4925
2026-01-09 11:00:48.81	334.14	8.56	-38.9	-41.2	13.5	6.80e-06	0	58	0	1536163840	48	4976
2026-01-09 11:00:49.82	334.21	8.48	-38.9	-41.2	13.5	1.75e-05	0	58	0	1539309568	48	4965
2026-01-09 11:00:50.83	334.27	8.40	-39.0	-41.3	13.4	1.52e-05	0	57	0	1542455296	48	5002
2026-01-09 11:00:51.84	334.34	8.33	-39.0	-41.3	13.4	1.98e-05	0	58	0	1545601024	48	5027
2026-01-09 11:00:52.85	334.40	8.25	-39.0	-41.3	13.4	1.37e-05	0	58	0	1548746752	48	5025
2026-01-09 11:00:53.86	334.46	8.18	-38.9	-41.2	13.4	1.52e-05	0	58	0	1551892480	48	4974
2026-01-09 11:00:54.87	334.53	8.10	-39.0	-41.4	13.3	7.60e-06	0	58	0	1555038208	48	5052
2026-01-09 11:00:55.88	334.59	8.03	-39.1	-41.5	13.2	1.67e-05	0	57	0	1558183936	48	5114
2026-01-09 11:00:56.89	334.66	7.95	-43.8	-54.0	3.9	4.65e-01	0	58	104	1560281088	58	12122
2026-01-09 11:00:57.90	334.72	7.88	-44.4	-56.5	3.8	1.49e+00	0	58	104	1560281088	59	15312
2026-01-09 11:00:58.91	334.78	7.80	-44.6	-56.8	3.8	1.49e+00	0	58	104	1560281088	59	15777
2026-01-09 11:00:59.92	334.84	7.73	-44.7	-57.0	3.8	1.49e+00	0	58	104	1560281088	60	15357
2026-01-09 11:01:00.93	334.91	7.66	-44.8	-57.1	3.8	1.49e+00	0	58	104	1560281088	60	15539
2026-01-09 11:01:01.94	334.97	7.58	-44.9	-57.2	3.8	1.49e+00	0	58	104	1560281088	60	15748
2026-01-09 11:01:02.95	335.03	7.51	-45.0	-57.2	3.8	1.49e+00	0	57	104	1560281088	60	15746
2026-01-09 11:01:03.96	335.09	7.44	-45.0	-57.3	3.8	1.49e+00	0	58	104	1560281088	60	15815
2026-01-09 11:01:04.97	335.15	7.36	-45.0	-57.3	3.8	1.49e+00	0	58	104	1560281088	60	15825
2026-01-09 11:01:05.98	335.21	7.29	-45.0	-57.3	3.8	1.49e+00	0	57	104	1560281088	60	15784
2026-01-09 11:01:06.99	335.27	7.22	-45.0	-57.2	3.8	1.49e+00	0	57	104	1560281088	60	15695
2026-01-09 11:01:08.00	335.33	7.14	-44.9	-57.2	3.8	1.49e+00	0	58	104	1560281088	60	15673
2026-01-09 11:01:09.01	335.39	7.07	-44.9	-57.2	3.8	1.49e+00	0	57	104	1560281088	60	15675
2026-01-09 11:01:10.02	335.45	7.00	-44.9	-57.2	3.8	1.49e+00	0	57	104	1560281088	60	15583
2026-01-09 11:01:11.03	335.51	6.93	-44.9	-57.2	3.8	1.49e+00	0	58	104	1560281088	60	15609
2026-01-09 11:01:12.05	335.57	6.85	-44.8	-57.1	3.8	1.49e+00	0	57	104	1560281088	60	15499
2026-01-09 11:01:13.06	335.63	6.78	-44.9	-57.1	3.8	1.49e+00	0	57	104	1560281088	60	15497
2026-01-09 11:01:14.07	335.69	6.71	-44.9	-57.1	3.8	1.49e+00	0	58	104	1560281088	60	15511
2026-01-09 11:01:15.07	335.74	6.64	-44.9	-57.1	3.8	1.49e+00	0	58	104	1560281088	60	15504
2026-01-09 11:01:16.08	335.80	6.57	-44.9	-57.1	3.8	1.49e+00	0	58	104	1560281088	60	15514
2026-01-09 11:01:17.10	335.86	6.50	-44.9	-57.1	3.8	1.49e+00	0	58	104	1560281088	60	15491
2026-01-09 11:01:18.10	335.92	6.43	-44.9	-57.1	3.8	1.49e+00	0	58	104	1560281088	60	15534
2026-01-09 11:01:19.11	335.97	6.36	-44.9	-57.1	3.8	1.49e+00	0	58	104	1560281088	60	15487
2026-01-09 11:01:20.12	336.03	6.29	-44.9	-57.1	3.8	1.49e+00	0	58	104	1560281088	60	15467
2026-01-09 11:01:21.14	336.09	6.22	-44.9	-57.1	3.8	1.49e+00	0	58	104	1560281088	60	15479
2026-01-09 11:01:22.15	336.14	6.15	-44.9	-57.1	3.8	1.49e+00	0	58	104	1560281088	60	15446
2026-01-09 11:01:23.16	336.20	6.08	-44.9	-57.1	3.8	1.49e+00	0	58	104	1560281088	60	15478
2026-01-09 11:01:24.17	336.26	6.01	-44.8	-57.1	3.8	1.49e+00	0	58	104	1560281088	60	15490
2026-01-09 11:01:25.18	336.31	5.94	-44.9	-57.1	3.8	1.49e+00	0	58	104	1560281088	60	15541
2026-01-09 11:01:26.19	336.37	5.87	-44.9	-57.1	3.8	1.49e+00	0	57	104	1560281088	60	15515
2026-01-09 11:01:27.20	336.42	5.80	-44.9	-57.1	3.8	1.49e+00	0	58	104	1560281088	60	15485
2026-01-09 11:01:28.21	336.48	5.73	-44.9	-57.1	3.8	1.49e+00	0	58	104	1560281088	60	15471
2026-01-09 11:01:29.22	336.53	5.66	-44.9	-57.1	3.8	1.49e+00	0	58	104	1560281088	60	15488
2026-01-09 11:01:30.23	336.59	5.59	-44.8	-57.1	3.8	1.49e+00	0	58	104	1560281088	60	15475
2026-01-09 11:01:31.24	336.64	5.52	-44.9	-57.1	3.8	1.49e+00	0	58	104	1560281088	60	15465
2026-01-09 11:01:32.25	336.69	5.45	-44.8	-57.1	3.8	1.49e+00	0	58	104	1560281088	60	15490
2026-01-09 11:01:33.26	336.75	5.39	-44.8	-57.1	3.8	1.49e+00	0	57	104	1560281088	60	15456
2026-01-09 11:01:34.27	336.80	5.32	-44.8	-57.0	3.8	1.49e+00	0	58	104	1560281088	60	15387
2026-01-09 11:01:35.28	336.85	5.25	-44.8	-57.1	3.8	1.49e+00	0	58	104	1560281088	60	15429
2026-01-09 11:01:36.29	336.91	5.18	-44.8	-57.1	3.8	1.49e+00	0	58	104	1560281088	60	15459
2026-01-09 11:01:37.30	336.96	5.11	-44.8	-57.1	3.8	1.49e+00	0	58	104	1560281088	60	15456
2026-01-09 11:01:38.31	337.01	5.05	-44.8	-57.1	3.8	1.49e+00	0	58	104	1560281088	60	15457
2026-01-09 11:01:39.32	337.07	4.98	-44.8	-57.1	3.8	1.49e+00	0	58	104	1560281088	60	15431
2026-01-09 11:01:40.33	337.12	4.91	-44.8	-57.0	3.8	1.49e+00	0	58	104	1560281088	60	15400
2026-01-09 11:01:41.34	337.17	4.84	-44.8	-57.1	3.8	1.49e+00	0	58	104	1560281088	60	15412
2026-01-09 11:01:42.35	337.22	4.78	-44.8	-57.0	3.8	1.49e+00	0	58	104	1560281088	60	15378
2026-01-09 11:01:43.36	337.27	4.71	-44.8	-57.0	3.8	1.49e+00	0	58	104	1560281088	60	15366
2026-01-09 11:01:44.37	337.32	4.64	-44.8	-57.1	3.8	1.49e+00	0	58	104	1560281088	60	15403
2026-01-09 11:01:45.38	337.38	4.58	-44.8	-57.0	3.8	1.49e+00	0	58	104	1560281088	60	15399
2026-01-09 11:01:46.39	337.43	4.51	-44.8	-57.0	3.8	1.49e+00	0	58	104	1560281088	60	15392
2026-01-09 11:01:47.40	337.48	4.44	-44.8	-57.1	3.8	1.49e+00	0	58	104	1560281088	60	15423
2026-01-09 11:01:48.41	337.53	4.38	-44.8	-57.0	3.8	1.49e+00	0	58	104	1560281088	60	15373
2026-01-09 11:01:49.42	337.58	4.31	-44.8	-57.0	3.8	1.49e+00	0	58	104	1560281088	60	15379
2026-01-09 11:01:50.43	337.63	4.25	-44.8	-57.0	3.8	1.49e+00	0	58	104	1560281088	60	15391
2026-01-09 11:01:51.44	337.68	4.18	-44.8	-57.1	3.8	1.49e+00	0	58	104	1560281088	60	15413
2026-01-09 11:01:52.45	337.73	4.12	-44.8	-57.0	3.8	1.49e+00	0	58	104	1560281088	60	15351
2026-01-09 11:01:53.46	337.78	4.05	-44.8	-57.0	3.8	1.49e+00	0	58	104	1560281088	60	15398
2026-01-09 11:01:54.47	337.83	3.99	-44.8	-57.0	3.8	1.49e+00	0	58	104	1560281088	60	15323
2026-01-09 11:01:55.48	337.88	3.92	-44.8	-57.0	3.8	1.49e+00	0	58	104	1560281088	60	15376
2026-01-09 11:01:56.50	337.92	3.85	-44.8	-57.1	3.8	1.49e+00	0	58	104	1560281088	60	15432
2026-01-09 11:01:57.50	337.97	3.79	-44.8	-57.0	3.8	1.49e+00	0	58	104	1560281088	60	15355
2026-01-09 11:01:58.51	338.02	3.73	-44.8	-57.0	3.8	1.49e+00	0	58	104	1560281088	60	15364
2026-01-09 11:01:59.53	338.07	3.66	-44.8	-57.0	3.8	1.49e+00	0	58	104	1560281088	60	15382
2026-01-09 11:02:00.54	338.12	3.60	-44.8	-57.0	3.8	1.49e+00	0	58	104	1560281088	60	15393
2026-01-09 11:02:01.55	338.17	3.53	-44.8	-57.1	3.8	1.49e+00	0	58	104	1560281088	60	15410
2026-01-09 11:02:02.56	338.21	3.47	-44.8	-57.0	3.8	1.49e+00	0	58	104	1560281088	60	15371
2026-01-09 11:02:03.57	338.26	3.40	-44.8	-57.0	3.8	1.49e+00	0	58	104	1560281088	60	15380
2026-01-09 11:02:04.58	338.31	3.34	-44.8	-57.0	3.8	1.49e+00	0	58	104	1560281088	60	15388
2026-01-09 11:02:05.59	338.36	3.28	-44.7	-57.1	3.8	1.49e+00	0	58	104	1560281088	60	15439
2026-01-09 11:02:06.60	338.40	3.21	-44.8	-57.0	3.8	1.49e+00	0	58	104	1560281088	60	15381
2026-01-09 11:02:07.61	338.45	3.15	-44.8	-57.0	3.8	1.49e+00	0	58	104	1560281088	60	15393
2026-01-09 11:02:08.62	338.50	3.09	-44.8	-57.0	3.8	1.49e+00	0	58	104	1560281088	60	15340
2026-01-09 11:02:09.63	338.54	3.02	-44.8	-57.0	3.8	1.49e+00	0	58	104	1560281088	60	15389
2026-01-09 11:02:10.64	338.59	2.96	-44.8	-57.1	3.8	1.49e+00	0	58	104	1560281088	60	15406
2026-01-09 11:02:11.66	338.64	2.90	-44.8	-57.0	3.8	1.49e+00	0	58	104	1560281088	60	15373
2026-01-09 11:02:12.67	338.68	2.83	-44.8	-57.0	3.8	1.49e+00	0	58	104	1560281088	60	15394
2026-01-09 11:02:13.68	338.73	2.77	-44.8	-57.1	3.8	1.49e+00	0	58	104	1560281088	60	15405
2026-01-09 11:02:14.69	338.77	2.71	-44.8	-57.1	3.8	1.49e+00	0	58	104	1560281088	60	15434
2026-01-09 11:02:15.70	338.82	2.65	-44.8	-57.0	3.8	1.49e+00	0	58	104	1560281088	60	15369
2026-01-09 11:02:16.71	338.86	2.58	-44.8	-57.1	3.8	1.49e+00	0	58	104	1560281088	60	15405
2026-01-09 11:02:17.72	338.91	2.52	-44.8	-57.0	3.8	1.49e+00	0	58	104	1560281088	60	15365
2026-01-09 11:02:18.73	338.95	2.46	-44.8	-57.0	3.8	1.49e+00	0	58	104	1560281088	60	15381
2026-01-09 11:02:19.74	339.00	2.40	-44.8	-57.0	3.8	1.49e+00	0	58	104	1560281088	60	15396
2026-01-09 11:02:20.75	339.04	2.34	-44.8	-57.1	3.8	1.49e+00	0	58	104	1560281088	60	15419
2026-01-09 11:02:21.76	339.09	2.28	-44.8	-57.0	3.8	1.49e+00	0	58	104	1560281088	60	15378
2026-01-09 11:02:22.77	339.13	2.21	-44.8	-57.1	3.8	1.49e+00	0	58	104	1560281088	60	15403
2026-01-09 11:02:23.78	339.17	2.15	-44.8	-57.1	3.8	1.49e+00	0	58	104	1560281088	60	15435
2026-01-09 11:02:24.79	339.22	2.09	-44.8	-57.0	3.8	1.49e+00	0	58	104	1560281088	60	15348
2026-01-09 11:02:25.80	339.26	2.03	-44.8	-57.0	3.8	1.49e+00	0	58	104	1560281088	60	15378
2026-01-09 11:02:26.81	339.31	1.97	-44.8	-57.1	3.8	1.49e+00	0	58	104	1560281088	60	15427

#Closed at: 2026-01-09 11:02:27
#Recorded file [1560 MB]: D:/lorett/data/31039_260109_135147.dat