passes_logs/2026/01/27/planumMaritime01/planumMaritime01__20260127_164309_METOP-B_rec.log

#Pass ID: 20260127_164309_METOP-B
#Satellite: METOP-B
#Configuration: METOP-B
#Start time: 2026-01-27 16:43:14.573708

#LorettStation: 1.0.0 05.05.2024
#Station: planumMaritime01
#Location: 37.49445 lon 55.92918 lat
#TLE: 1 38771U 12049A   26026.42154174  .00000197  00000+0  10998-3 0  9992
#TLE: 2 38771  98.6731  80.6089 0002944  53.2610 306.8837 14.21428899693123

#Time	Az	El	Level	SNR
2026-01-27 16:43:16.745313	132.0	10.2	-76.1	0.0
2026-01-27 16:43:17.868598	131.9	10.3	-75.5	0.0
2026-01-27 16:43:18.992496	131.8	10.4	-75.2	0.0
2026-01-27 16:43:20.113154	131.8	10.5	-74.3	0.0
2026-01-27 16:43:21.234043	131.7	10.6	-73.8	0.0
2026-01-27 16:43:22.358312	131.6	10.7	-73.6	0.0
2026-01-27 16:43:23.478702	131.5	10.7	-73.7	0.0
2026-01-27 16:43:24.601487	131.5	10.8	-73.6	0.0
2026-01-27 16:43:25.723949	131.4	10.9	-72.9	0.0
2026-01-27 16:43:26.846682	131.3	11.0	-73.2	0.3
2026-01-27 16:43:27.968384	131.3	11.1	-72.8	0.1
2026-01-27 16:43:29.092165	131.2	11.2	-73.1	2.6
2026-01-27 16:43:30.214411	131.1	11.3	-72.5	0.0
2026-01-27 16:43:31.337684	131.0	11.4	-73.3	0.0
2026-01-27 16:43:32.461103	131.0	11.5	-73.4	0.0
2026-01-27 16:43:33.584361	130.9	11.6	-73.1	1.8
2026-01-27 16:43:34.707262	130.8	11.7	-73.1	1.4
2026-01-27 16:43:35.828479	130.7	11.8	-73.9	3.2
2026-01-27 16:43:36.950320	130.7	11.9	-72.9	0.7
2026-01-27 16:43:38.072281	130.6	12.0	-73.1	0.8
2026-01-27 16:43:39.195979	130.5	12.1	-73.3	2.8
2026-01-27 16:43:40.318863	130.4	12.2	-73.6	2.7
2026-01-27 16:43:41.442734	130.4	12.3	-73.5	3.3
2026-01-27 16:43:42.564439	130.3	12.4	-73.6	2.3
2026-01-27 16:43:43.688698	130.2	12.5	-73.4	2.1
2026-01-27 16:43:44.810644	130.1	12.6	-73.4	2.3
2026-01-27 16:43:45.934071	130.0	12.7	-73.6	2.6
2026-01-27 16:43:47.055565	130.0	12.8	-73.7	3.2
2026-01-27 16:43:48.179369	129.9	12.9	-73.9	2.8
2026-01-27 16:43:49.300746	129.8	13.0	-73.5	3.2
2026-01-27 16:43:50.421147	129.7	13.1	-73.8	3.0
2026-01-27 16:43:51.543332	129.6	13.2	-73.7	3.0
2026-01-27 16:43:52.666592	129.5	13.4	-74.0	1.9
2026-01-27 16:43:53.787644	129.5	13.5	-73.8	3.8
2026-01-27 16:43:54.914726	129.4	13.6	-73.2	1.6
2026-01-27 16:43:56.036560	129.3	13.7	-73.6	3.3
2026-01-27 16:43:57.159226	129.2	13.8	-73.4	2.6
2026-01-27 16:43:58.280707	129.1	13.9	-74.1	1.3
2026-01-27 16:43:59.403628	129.0	14.0	-74.3	3.0
2026-01-27 16:44:00.527239	128.9	14.1	-73.7	0.8
2026-01-27 16:44:01.648521	128.9	14.2	-73.8	3.0
2026-01-27 16:44:02.769764	128.8	14.3	-74.0	3.7
2026-01-27 16:44:03.891215	128.7	14.4	-73.7	3.1
2026-01-27 16:44:05.015454	128.6	14.5	-72.9	1.3
2026-01-27 16:44:06.139392	128.5	14.6	-73.8	3.4
2026-01-27 16:44:07.261889	128.4	14.8	-73.6	4.4
2026-01-27 16:44:08.383979	128.3	14.9	-72.6	1.4
2026-01-27 16:44:09.506307	128.2	15.0	-73.4	1.8
2026-01-27 16:44:10.629646	128.1	15.1	-73.4	3.1
2026-01-27 16:44:11.750917	128.0	15.2	-73.6	2.9
2026-01-27 16:44:12.872235	127.9	15.3	-72.6	3.0
2026-01-27 16:44:13.994910	127.8	15.4	-73.2	2.6
2026-01-27 16:44:15.117521	127.7	15.5	-72.8	0.9
2026-01-27 16:44:16.240136	127.6	15.6	-72.9	2.2
2026-01-27 16:44:17.364089	127.5	15.8	-73.3	3.5
2026-01-27 16:44:18.486093	127.4	15.9	-73.3	3.0
2026-01-27 16:44:19.608064	127.3	16.0	-73.5	3.8
2026-01-27 16:44:20.730017	127.2	16.1	-72.8	3.7
2026-01-27 16:44:21.850715	127.1	16.2	-73.3	4.5
2026-01-27 16:44:22.974959	127.0	16.3	-73.5	4.8
2026-01-27 16:44:24.095653	126.9	16.5	-73.3	4.3
2026-01-27 16:44:25.217517	126.8	16.6	-73.0	3.6
2026-01-27 16:44:26.340929	126.7	16.7	-72.9	3.8
2026-01-27 16:44:27.461767	126.6	16.8	-73.0	3.8
2026-01-27 16:44:28.584462	126.5	16.9	-73.3	4.0
2026-01-27 16:44:29.707154	126.4	17.0	-73.3	3.6
2026-01-27 16:44:30.830048	126.3	17.2	-73.1	2.7
2026-01-27 16:44:31.954412	126.2	17.3	-73.3	3.2
2026-01-27 16:44:33.074834	126.1	17.4	-73.1	3.0
2026-01-27 16:44:34.198543	125.9	17.5	-73.3	5.1
2026-01-27 16:44:35.321732	125.8	17.7	-73.0	4.3
2026-01-27 16:44:36.446722	125.7	17.8	-73.0	4.4
2026-01-27 16:44:37.569281	125.6	17.9	-73.1	3.5
2026-01-27 16:44:38.693430	125.5	18.0	-73.0	4.6
2026-01-27 16:44:39.816385	125.4	18.1	-73.3	4.4
2026-01-27 16:44:40.940491	125.3	18.3	-73.9	3.6
2026-01-27 16:44:42.061847	125.1	18.4	-73.6	3.2
2026-01-27 16:44:43.186069	125.0	18.5	-73.0	3.6
2026-01-27 16:44:44.307921	124.9	18.6	-73.2	5.3
2026-01-27 16:44:45.429893	124.8	18.8	-72.9	2.6
2026-01-27 16:44:46.550865	124.7	18.9	-72.7	3.7
2026-01-27 16:44:47.675243	124.5	19.0	-72.4	3.7
2026-01-27 16:44:48.798064	124.4	19.1	-73.0	4.0
2026-01-27 16:44:49.922716	124.3	19.3	-73.6	4.0
2026-01-27 16:44:51.044180	124.2	19.4	-73.3	4.8
2026-01-27 16:44:52.166731	124.0	19.5	-73.4	4.2
2026-01-27 16:44:53.291847	123.9	19.7	-72.3	3.2
2026-01-27 16:44:54.413700	123.8	19.8	-72.8	4.9
2026-01-27 16:44:55.538854	123.6	19.9	-73.3	4.4
2026-01-27 16:44:56.666005	123.5	20.1	-72.6	4.6
2026-01-27 16:44:57.791121	123.4	20.2	-71.2	2.1
2026-01-27 16:44:58.912277	123.2	20.3	-73.0	5.2
2026-01-27 16:45:00.033720	123.1	20.5	-72.5	6.4
2026-01-27 16:45:01.155884	123.0	20.6	-72.8	5.0
2026-01-27 16:45:02.279169	122.8	20.7	-73.0	5.1
2026-01-27 16:45:03.400850	122.7	20.9	-73.5	6.4
2026-01-27 16:45:04.523954	122.5	21.0	-72.2	3.6
2026-01-27 16:45:05.646057	122.4	21.1	-73.0	5.5
2026-01-27 16:45:06.766620	122.3	21.3	-72.9	5.8
2026-01-27 16:45:07.890691	122.1	21.4	-72.2	5.0
2026-01-27 16:45:09.010923	122.0	21.5	-72.9	5.9
2026-01-27 16:45:10.134135	121.8	21.7	-72.3	3.5
2026-01-27 16:45:11.256482	121.7	21.8	-73.3	5.3
2026-01-27 16:45:12.378707	121.5	22.0	-73.1	5.7
2026-01-27 16:45:13.502200	121.4	22.1	-72.3	3.9
2026-01-27 16:45:14.624372	121.2	22.2	-71.9	3.2
2026-01-27 16:45:15.746293	121.1	22.4	-72.6	5.3
2026-01-27 16:45:16.867614	120.9	22.5	-72.6	5.4
2026-01-27 16:45:17.992962	120.7	22.7	-72.7	5.8
2026-01-27 16:45:19.114538	120.6	22.8	-72.5	4.7
2026-01-27 16:45:20.236059	120.4	22.9	-72.3	3.1
2026-01-27 16:45:21.361009	120.3	23.1	-73.0	5.1
2026-01-27 16:45:22.484699	120.1	23.2	-72.9	5.6
2026-01-27 16:45:23.607856	119.9	23.4	-72.6	3.6
2026-01-27 16:45:24.729989	119.8	23.5	-73.1	7.2
2026-01-27 16:45:25.852712	119.6	23.7	-73.3	5.7
2026-01-27 16:45:26.973128	119.4	23.8	-73.3	5.0
2026-01-27 16:45:28.094747	119.3	24.0	-73.2	6.0
2026-01-27 16:45:29.218252	119.1	24.1	-73.2	6.1
2026-01-27 16:45:30.343975	118.9	24.3	-73.5	5.9
2026-01-27 16:45:31.466786	118.7	24.4	-72.7	3.0
2026-01-27 16:45:32.588971	118.6	24.5	-73.1	5.0
2026-01-27 16:45:33.710904	118.4	24.7	-73.0	4.8
2026-01-27 16:45:34.832530	118.2	24.8	-72.4	4.6
2026-01-27 16:45:35.955492	118.0	25.0	-72.8	5.0
2026-01-27 16:45:37.078608	117.8	25.1	-72.9	6.4
2026-01-27 16:45:38.202202	117.6	25.3	-72.7	5.7
2026-01-27 16:45:39.325557	117.5	25.5	-72.0	6.1
2026-01-27 16:45:40.446487	117.3	25.6	-72.6	4.8
2026-01-27 16:45:41.569583	117.1	25.8	-72.2	5.9
2026-01-27 16:45:42.693008	116.9	25.9	-71.4	2.1
2026-01-27 16:45:43.816871	116.7	26.1	-72.2	5.8
2026-01-27 16:45:44.939040	116.5	26.2	-72.5	6.6
2026-01-27 16:45:46.058564	116.3	26.4	-72.1	6.8
2026-01-27 16:45:47.179512	116.1	26.5	-71.6	5.6
2026-01-27 16:45:48.301854	115.9	26.7	-72.8	6.7
2026-01-27 16:45:49.423166	115.7	26.8	-72.6	7.2
2026-01-27 16:45:50.548460	115.5	27.0	-72.3	8.1
2026-01-27 16:45:51.668770	115.3	27.2	-71.8	5.2
2026-01-27 16:45:52.792386	115.0	27.3	-72.5	6.6
2026-01-27 16:45:53.913395	114.8	27.5	-72.3	5.1
2026-01-27 16:45:55.037768	114.6	27.6	-72.2	5.7
2026-01-27 16:45:56.159332	114.4	27.8	-72.7	2.9
2026-01-27 16:45:57.281533	114.2	28.0	-71.9	5.9
2026-01-27 16:45:58.404095	114.0	28.1	-72.2	4.4
2026-01-27 16:45:59.526049	113.7	28.3	-72.7	5.1
2026-01-27 16:46:00.648515	113.5	28.4	-72.4	2.8
2026-01-27 16:46:01.771233	113.3	28.6	-72.9	5.4
2026-01-27 16:46:02.896663	113.0	28.8	-72.9	5.6
2026-01-27 16:46:04.021686	112.8	28.9	-73.2	5.0
2026-01-27 16:46:05.144874	112.6	29.1	-72.8	4.8
2026-01-27 16:46:06.269174	112.3	29.3	-73.2	4.6
2026-01-27 16:46:07.395536	112.1	29.4	-72.7	4.7
2026-01-27 16:46:08.519927	111.8	29.6	-72.8	5.6
2026-01-27 16:46:09.644916	111.6	29.7	-72.7	4.8
2026-01-27 16:46:10.770149	111.3	29.9	-72.2	4.3
2026-01-27 16:46:11.892591	111.1	30.1	-72.8	6.4
2026-01-27 16:46:13.013979	110.8	30.2	-72.9	5.0
2026-01-27 16:46:14.134769	110.6	30.4	-72.2	4.3
2026-01-27 16:46:15.258511	110.3	30.6	-72.7	5.1
2026-01-27 16:46:16.381983	110.1	30.7	-72.2	3.0
2026-01-27 16:46:17.501549	109.8	30.9	-72.5	5.4
2026-01-27 16:46:18.622516	109.5	31.1	-73.0	5.7
2026-01-27 16:46:19.746765	109.2	31.2	-72.3	3.3
2026-01-27 16:46:20.870203	109.0	31.4	-72.2	5.9
2026-01-27 16:46:21.993072	108.7	31.6	-72.0	4.8
2026-01-27 16:46:23.114854	108.4	31.7	-72.1	4.9
2026-01-27 16:46:24.237162	108.1	31.9	-71.8	5.8
2026-01-27 16:46:25.361449	107.8	32.1	-72.7	4.6
2026-01-27 16:46:26.483701	107.6	32.2	-72.0	4.0
2026-01-27 16:46:27.605621	107.3	32.4	-72.2	5.6
2026-01-27 16:46:28.728673	107.0	32.6	-71.8	6.0
2026-01-27 16:46:29.854179	106.7	32.8	-72.3	5.9
2026-01-27 16:46:30.975971	106.4	32.9	-71.6	5.1
2026-01-27 16:46:32.098199	106.1	33.1	-71.3	5.7
2026-01-27 16:46:33.222012	105.8	33.3	-70.6	6.5
2026-01-27 16:46:34.345328	105.4	33.4	-70.8	5.0
2026-01-27 16:46:35.468219	105.1	33.6	-70.7	4.4
2026-01-27 16:46:36.589266	104.8	33.8	-69.9	5.2
2026-01-27 16:46:37.710992	104.5	33.9	-71.3	6.1
2026-01-27 16:46:38.835226	104.2	34.1	-70.2	4.5
2026-01-27 16:46:39.958511	103.8	34.3	-69.9	3.9
2026-01-27 16:46:41.081080	103.5	34.4	-70.6	5.4
2026-01-27 16:46:42.205301	103.2	34.6	-70.7	4.5
2026-01-27 16:46:43.326144	102.8	34.8	-70.5	4.2
2026-01-27 16:46:44.449631	102.5	34.9	-70.1	4.2
2026-01-27 16:46:45.574064	102.2	35.1	-71.1	4.4
2026-01-27 16:46:46.695943	101.8	35.3	-71.6	5.2
2026-01-27 16:46:47.819037	101.5	35.4	-71.2	4.5
2026-01-27 16:46:48.941930	101.1	35.6	-70.8	4.5
2026-01-27 16:46:50.064280	100.7	35.8	-71.1	5.7
2026-01-27 16:46:51.185440	100.4	35.9	-70.7	3.6
2026-01-27 16:46:52.307878	100.0	36.1	-70.9	5.7
2026-01-27 16:46:53.431855	99.6	36.3	-70.9	5.2
2026-01-27 16:46:54.556569	99.3	36.4	-70.3	4.7
2026-01-27 16:46:55.679315	98.9	36.6	-70.5	6.1
2026-01-27 16:46:56.801916	98.5	36.8	-70.9	5.7
2026-01-27 16:46:57.923927	98.1	36.9	-70.7	2.3
2026-01-27 16:46:59.046231	97.7	37.1	-70.8	4.6
2026-01-27 16:47:00.168242	97.3	37.2	-71.1	5.1
2026-01-27 16:47:01.291526	96.9	37.4	-69.9	2.2
2026-01-27 16:47:02.411505	96.5	37.6	-70.3	3.3
2026-01-27 16:47:03.531965	96.1	37.7	-70.1	3.5
2026-01-27 16:47:04.655779	95.7	37.9	-69.7	5.7
2026-01-27 16:47:05.776656	95.3	38.0	-70.4	1.2
2026-01-27 16:47:06.898734	94.9	38.2	-69.8	0.0
2026-01-27 16:47:08.022207	94.5	38.3	-68.3	1.4
2026-01-27 16:47:09.146958	94.1	38.5	-68.9	0.0
2026-01-27 16:47:10.269600	93.6	38.6	-69.4	1.8
2026-01-27 16:47:11.391569	93.2	38.8	-69.0	0.0
2026-01-27 16:47:12.514651	92.8	38.9	-69.2	4.7
2026-01-27 16:47:13.637163	92.3	39.1	-70.3	2.9
2026-01-27 16:47:14.759228	91.9	39.2	-67.8	0.0
2026-01-27 16:47:15.880766	91.4	39.4	-67.8	0.0
2026-01-27 16:47:17.002809	91.0	39.5	-67.3	0.0
2026-01-27 16:47:18.125919	90.5	39.7	-66.7	0.0
2026-01-27 16:47:19.247570	90.0	39.8	-67.6	0.0
2026-01-27 16:47:20.369709	89.6	40.0	-67.8	0.0
2026-01-27 16:47:21.492465	89.1	40.1	-67.5	0.2
2026-01-27 16:47:22.614024	88.6	40.2	-67.8	0.0
2026-01-27 16:47:23.734632	88.2	40.4	-69.6	5.3
2026-01-27 16:47:24.857703	87.7	40.5	-68.1	0.0
2026-01-27 16:47:25.978840	87.2	40.6	-67.6	0.0
2026-01-27 16:47:27.101245	86.7	40.8	-68.4	0.8
2026-01-27 16:47:28.222226	86.2	40.9	-68.1	0.0
2026-01-27 16:47:29.342359	85.7	41.0	-67.5	0.0
2026-01-27 16:47:30.465183	85.2	41.1	-67.6	0.8
2026-01-27 16:47:31.588429	84.7	41.3	-69.1	0.6
2026-01-27 16:47:32.710592	84.2	41.4	-70.1	4.5
2026-01-27 16:47:33.832768	83.7	41.5	-69.0	2.9
2026-01-27 16:47:34.954666	83.2	41.6	-68.9	0.2
2026-01-27 16:47:36.077057	82.7	41.7	-68.5	1.4
2026-01-27 16:47:37.202778	82.1	41.8	-68.5	3.1
2026-01-27 16:47:38.325520	81.6	41.9	-68.1	2.2
2026-01-27 16:47:39.450133	81.1	42.0	-67.3	4.0
2026-01-27 16:47:40.571434	80.5	42.1	-67.6	0.0
2026-01-27 16:47:41.693694	80.0	42.2	-66.1	0.0
2026-01-27 16:47:42.817486	79.5	42.3	-67.2	3.1
2026-01-27 16:47:43.942488	78.9	42.4	-66.0	0.0
2026-01-27 16:47:45.067686	78.4	42.5	-68.0	1.0
2026-01-27 16:47:46.190134	77.8	42.6	-68.2	1.0
2026-01-27 16:47:47.313999	77.3	42.7	-67.0	0.0
2026-01-27 16:47:48.436370	76.7	42.8	-68.3	0.4
2026-01-27 16:47:49.557999	76.2	42.9	-67.5	0.0
2026-01-27 16:47:50.679213	75.6	42.9	-66.8	0.0
2026-01-27 16:47:51.801592	75.0	43.0	-67.9	0.0
2026-01-27 16:47:52.923689	74.5	43.1	-66.7	0.0
2026-01-27 16:47:54.046633	73.9	43.2	-67.2	0.0
2026-01-27 16:47:55.167344	73.3	43.2	-68.8	2.9
2026-01-27 16:47:56.290283	72.8	43.3	-66.4	0.0
2026-01-27 16:47:57.413914	72.2	43.4	-67.6	0.0
2026-01-27 16:47:58.535289	71.6	43.4	-66.5	0.0
2026-01-27 16:47:59.660428	71.0	43.5	-66.7	3.1
2026-01-27 16:48:00.783346	70.4	43.5	-66.6	0.0
2026-01-27 16:48:01.906048	69.9	43.6	-67.2	0.0
2026-01-27 16:48:03.026166	69.3	43.6	-66.7	0.0
2026-01-27 16:48:04.148612	68.7	43.6	-68.0	1.1
2026-01-27 16:48:05.270883	68.1	43.7	-64.3	0.0
2026-01-27 16:48:06.392326	67.5	43.7	-65.9	0.0
2026-01-27 16:48:07.516574	66.9	43.7	-66.4	0.0
2026-01-27 16:48:08.638855	66.3	43.8	-65.3	0.0
2026-01-27 16:48:09.762139	65.7	43.8	-66.8	0.0
2026-01-27 16:48:10.883390	65.2	43.8	-66.8	0.0
2026-01-27 16:48:12.005118	64.6	43.8	-67.1	0.3
2026-01-27 16:48:13.127244	64.0	43.8	-66.9	0.3
2026-01-27 16:48:14.254249	63.4	43.9	-63.7	0.0
2026-01-27 16:48:15.377293	62.8	43.9	-66.7	0.0
2026-01-27 16:48:16.499986	62.2	43.9	-65.7	0.0
2026-01-27 16:48:17.621529	61.6	43.9	-65.8	0.0
2026-01-27 16:48:18.743697	61.0	43.9	-67.6	0.9
2026-01-27 16:48:19.868093	60.4	43.9	-67.5	0.0
2026-01-27 16:48:20.990279	59.8	43.8	-67.6	0.0
2026-01-27 16:48:22.113594	59.2	43.8	-67.3	1.1
2026-01-27 16:48:23.236519	58.6	43.8	-66.5	0.0
2026-01-27 16:48:24.358752	58.0	43.8	-67.6	0.0
2026-01-27 16:48:25.483258	57.4	43.8	-67.0	0.0
2026-01-27 16:48:26.606742	56.8	43.7	-67.4	0.0
2026-01-27 16:48:27.729815	56.2	43.7	-67.3	0.0
2026-01-27 16:48:28.854906	55.7	43.7	-66.5	0.0
2026-01-27 16:48:29.976588	55.1	43.6	-66.6	0.0
2026-01-27 16:48:31.099022	54.5	43.6	-66.7	0.0
2026-01-27 16:48:32.221815	53.9	43.5	-66.8	0.0
2026-01-27 16:48:33.343823	53.3	43.5	-65.7	0.0
2026-01-27 16:48:34.466505	52.7	43.4	-66.8	0.0
2026-01-27 16:48:35.590034	52.2	43.4	-66.4	0.3
2026-01-27 16:48:36.711810	51.6	43.3	-67.5	0.0
2026-01-27 16:48:37.832713	51.0	43.3	-67.1	0.0
2026-01-27 16:48:38.956346	50.4	43.2	-67.0	0.0
2026-01-27 16:48:40.078605	49.9	43.1	-67.0	0.0
2026-01-27 16:48:41.198701	49.3	43.1	-64.5	0.0
2026-01-27 16:48:42.320759	48.7	43.0	-67.2	0.7
2026-01-27 16:48:43.440829	48.2	42.9	-68.0	2.3
2026-01-27 16:48:44.562835	47.6	42.8	-67.8	0.0
2026-01-27 16:48:45.686684	47.1	42.8	-67.9	1.2
2026-01-27 16:48:46.808339	46.5	42.7	-67.1	0.0
2026-01-27 16:48:47.930448	46.0	42.6	-66.7	0.6
2026-01-27 16:48:49.052463	45.4	42.5	-66.5	1.0
2026-01-27 16:48:50.174999	44.9	42.4	-65.5	0.0
2026-01-27 16:48:51.295406	44.3	42.3	-67.3	0.1
2026-01-27 16:48:52.417485	43.8	42.2	-67.6	0.0
2026-01-27 16:48:53.542318	43.3	42.1	-67.9	0.0
2026-01-27 16:48:54.664705	42.7	42.0	-66.8	0.0
2026-01-27 16:48:55.790726	42.2	41.9	-68.2	0.0
2026-01-27 16:48:56.912557	41.7	41.8	-68.0	0.0
2026-01-27 16:48:58.034907	41.1	41.7	-67.9	0.2
2026-01-27 16:48:59.157288	40.6	41.6	-67.2	0.0
2026-01-27 16:49:00.280516	40.1	41.5	-68.7	0.0
2026-01-27 16:49:01.405701	39.6	41.3	-67.8	0.0
2026-01-27 16:49:02.529060	39.1	41.2	-67.5	0.0
2026-01-27 16:49:03.650474	38.6	41.1	-66.6	0.0
2026-01-27 16:49:04.773000	38.1	41.0	-68.0	0.0
2026-01-27 16:49:05.898950	37.6	40.9	-67.1	0.0
2026-01-27 16:49:07.019034	37.1	40.7	-68.8	0.1
2026-01-27 16:49:08.143558	36.6	40.6	-68.5	0.0
2026-01-27 16:49:09.266124	36.1	40.5	-69.8	2.4
2026-01-27 16:49:10.389594	35.7	40.3	-68.3	1.1
2026-01-27 16:49:11.512360	35.2	40.2	-68.9	2.8
2026-01-27 16:49:12.633379	34.7	40.1	-69.0	1.2
2026-01-27 16:49:13.756008	34.3	39.9	-69.0	0.4
2026-01-27 16:49:14.876649	33.8	39.8	-68.8	2.2
2026-01-27 16:49:15.998651	33.3	39.6	-68.0	0.0
2026-01-27 16:49:17.122818	32.9	39.5	-67.6	0.0
2026-01-27 16:49:18.245264	32.4	39.4	-68.5	0.0
2026-01-27 16:49:19.367551	32.0	39.2	-68.4	0.0
2026-01-27 16:49:20.490353	31.5	39.1	-68.1	0.0
2026-01-27 16:49:21.613128	31.1	38.9	-67.7	0.0
2026-01-27 16:49:22.734302	30.7	38.8	-67.8	0.0
2026-01-27 16:49:23.856647	30.2	38.6	-66.5	0.0
2026-01-27 16:49:24.976716	29.8	38.5	-67.8	0.0
2026-01-27 16:49:26.099952	29.4	38.3	-66.9	0.0
2026-01-27 16:49:27.219394	29.0	38.2	-68.6	0.0
2026-01-27 16:49:28.341093	28.6	38.0	-67.8	0.0
2026-01-27 16:49:29.463335	28.1	37.9	-67.5	0.0
2026-01-27 16:49:30.584829	27.7	37.7	-66.1	0.0
2026-01-27 16:49:31.706762	27.3	37.5	-67.5	0.0
2026-01-27 16:49:32.829975	26.9	37.4	-66.9	0.0
2026-01-27 16:49:33.950224	26.5	37.2	-66.7	0.0
2026-01-27 16:49:35.074124	26.2	37.1	-65.7	0.0
2026-01-27 16:49:36.197720	25.8	36.9	-65.8	0.0
2026-01-27 16:49:37.319357	25.4	36.7	-65.7	0.0
2026-01-27 16:49:38.441151	25.0	36.6	-66.2	0.0
2026-01-27 16:49:39.563476	24.6	36.4	-66.2	0.0
2026-01-27 16:49:40.688062	24.3	36.2	-65.1	0.0
2026-01-27 16:49:41.810220	23.9	36.1	-63.9	0.0
2026-01-27 16:49:42.934074	23.5	35.9	-63.7	0.0
2026-01-27 16:49:44.057550	23.2	35.8	-63.7	0.0
2026-01-27 16:49:45.180288	22.8	35.6	-64.5	0.0
2026-01-27 16:49:46.300653	22.5	35.4	-63.6	0.0
2026-01-27 16:49:47.424928	22.1	35.3	-64.1	0.0
2026-01-27 16:49:48.546588	21.8	35.1	-63.9	0.0
2026-01-27 16:49:49.668799	21.4	34.9	-64.2	0.0
2026-01-27 16:49:50.792325	21.1	34.8	-64.6	0.0
2026-01-27 16:49:51.917267	20.7	34.6	-64.7	0.0
2026-01-27 16:49:53.039583	20.4	34.4	-63.4	0.0
2026-01-27 16:49:54.161932	20.1	34.3	-63.7	0.0
2026-01-27 16:49:55.285437	19.8	34.1	-61.1	0.0
2026-01-27 16:49:56.406661	19.4	33.9	-63.4	0.0
2026-01-27 16:49:57.529010	19.1	33.8	-64.4	0.0
2026-01-27 16:49:58.652525	18.8	33.6	-64.6	0.0
2026-01-27 16:49:59.774402	18.5	33.4	-63.9	0.0
2026-01-27 16:50:00.895360	18.2	33.3	-64.3	0.0
2026-01-27 16:50:02.016802	17.9	33.1	-60.2	0.0
2026-01-27 16:50:03.140379	17.6	32.9	-60.9	0.0
2026-01-27 16:50:04.263544	17.3	32.7	-64.5	0.0
2026-01-27 16:50:05.386717	17.0	32.6	-64.4	0.0
2026-01-27 16:50:06.507692	16.7	32.4	-63.9	0.0
2026-01-27 16:50:07.630503	16.4	32.2	-64.2	0.0
2026-01-27 16:50:08.753066	16.1	32.1	-65.0	0.0
2026-01-27 16:50:09.876701	15.8	31.9	-63.0	0.0
2026-01-27 16:50:10.998303	15.5	31.7	-63.0	0.0
2026-01-27 16:50:12.120863	15.3	31.6	-62.8	0.0
2026-01-27 16:50:13.243256	15.0	31.4	-64.0	0.0
2026-01-27 16:50:14.367596	14.7	31.2	-63.7	0.0
2026-01-27 16:50:15.490759	14.4	31.1	-64.1	0.0
2026-01-27 16:50:16.613470	14.2	30.9	-63.4	0.0
2026-01-27 16:50:17.737623	13.9	30.7	-63.0	0.0
2026-01-27 16:50:18.860719	13.7	30.6	-62.5	0.0
2026-01-27 16:50:19.982785	13.4	30.4	-63.4	0.0
2026-01-27 16:50:21.105441	13.1	30.2	-62.3	0.0
2026-01-27 16:50:22.227575	12.9	30.1	-61.9	0.0
2026-01-27 16:50:23.348280	12.6	29.9	-61.4	0.0
2026-01-27 16:50:24.470216	12.4	29.8	-63.1	0.0
2026-01-27 16:50:25.591554	12.1	29.6	-62.1	0.0
2026-01-27 16:50:26.713769	11.9	29.4	-61.5	0.0
2026-01-27 16:50:27.836285	11.7	29.3	-61.9	0.0
2026-01-27 16:50:28.962038	11.4	29.1	-63.7	0.0
2026-01-27 16:50:30.085416	11.2	28.9	-63.9	0.0
2026-01-27 16:50:31.208498	11.0	28.8	-63.6	0.0
2026-01-27 16:50:32.329344	10.7	28.6	-63.4	0.0
2026-01-27 16:50:33.455089	10.5	28.5	-63.5	0.0
2026-01-27 16:50:34.577548	10.3	28.3	-63.7	0.0
2026-01-27 16:50:35.699604	10.0	28.1	-63.1	0.0
2026-01-27 16:50:36.823327	9.8	28.0	-63.2	0.0
2026-01-27 16:50:37.944471	9.6	27.8	-62.6	0.0
2026-01-27 16:50:39.067608	9.4	27.7	-62.8	0.0
2026-01-27 16:50:40.190178	9.2	27.5	-62.2	0.0
2026-01-27 16:50:41.313540	9.0	27.3	-62.2	0.0
2026-01-27 16:50:42.435250	8.8	27.2	-61.9	0.0
2026-01-27 16:50:43.558699	8.5	27.0	-61.3	0.0
2026-01-27 16:50:44.679612	8.3	26.9	-61.9	0.0
2026-01-27 16:50:45.801724	8.1	26.7	-61.7	0.0
2026-01-27 16:50:46.926110	7.9	26.6	-63.1	0.0
2026-01-27 16:50:48.048818	7.7	26.4	-61.6	0.0
2026-01-27 16:50:49.174156	7.5	26.3	-60.7	0.0
2026-01-27 16:50:50.297310	7.3	26.1	-61.5	0.0
2026-01-27 16:50:51.420929	7.1	25.9	-61.0	0.0
2026-01-27 16:50:52.542315	6.9	25.8	-61.4	0.0
2026-01-27 16:50:53.665370	6.8	25.6	-62.0	0.0
2026-01-27 16:50:54.786605	6.6	25.5	-62.4	0.0
2026-01-27 16:50:55.907562	6.4	25.3	-62.7	0.0
2026-01-27 16:50:57.027468	6.2	25.2	-62.2	0.0
2026-01-27 16:50:58.148164	6.0	25.0	-61.7	0.0
2026-01-27 16:50:59.268640	5.8	24.9	-62.9	0.0
2026-01-27 16:51:00.389060	5.7	24.7	-61.3	0.0
2026-01-27 16:51:01.511420	5.5	24.6	-61.9	0.0
2026-01-27 16:51:02.632015	5.3	24.4	-62.6	0.0
2026-01-27 16:51:03.754335	5.1	24.3	-62.5	0.0
2026-01-27 16:51:04.878110	5.0	24.1	-59.0	0.0
2026-01-27 16:51:06.000940	4.8	24.0	-62.2	0.0
2026-01-27 16:51:07.124847	4.6	23.9	-61.3	0.0
2026-01-27 16:51:08.246544	4.4	23.7	-62.8	0.0
2026-01-27 16:51:09.368619	4.3	23.6	-61.1	0.0
2026-01-27 16:51:10.490129	4.1	23.4	-61.5	0.0
2026-01-27 16:51:11.612589	3.9	23.3	-61.4	0.0
2026-01-27 16:51:12.734586	3.8	23.1	-61.2	0.0
2026-01-27 16:51:13.857558	3.6	23.0	-62.6	0.0
2026-01-27 16:51:14.981071	3.5	22.8	-62.8	0.0
2026-01-27 16:51:16.102707	3.3	22.7	-61.8	0.0
2026-01-27 16:51:17.225018	3.2	22.6	-62.8	0.0
2026-01-27 16:51:18.346634	3.0	22.4	-62.4	0.0
2026-01-27 16:51:19.467481	2.8	22.3	-62.4	0.0
2026-01-27 16:51:20.588129	2.7	22.1	-61.7	0.0
2026-01-27 16:51:21.710024	2.5	22.0	-62.3	0.0
2026-01-27 16:51:22.831502	2.4	21.9	-62.5	0.0
2026-01-27 16:51:23.952330	2.3	21.7	-63.0	0.0
2026-01-27 16:51:25.075546	2.1	21.6	-63.7	0.0
2026-01-27 16:51:26.197428	2.0	21.5	-62.0	0.0
2026-01-27 16:51:27.317678	1.8	21.3	-62.8	0.0
2026-01-27 16:51:28.438708	1.7	21.2	-63.8	0.0
2026-01-27 16:51:29.559863	1.5	21.1	-63.1	0.0
2026-01-27 16:51:30.684186	1.4	20.9	-63.9	0.0
2026-01-27 16:51:31.807478	1.3	20.8	-63.6	0.0
2026-01-27 16:51:32.928706	1.1	20.7	-62.6	0.0
2026-01-27 16:51:34.053975	1.0	20.5	-63.5	0.0
2026-01-27 16:51:35.177620	0.8	20.4	-63.3	0.0
2026-01-27 16:51:36.297978	0.7	20.3	-63.0	0.0
2026-01-27 16:51:37.421777	0.6	20.1	-62.0	0.0
2026-01-27 16:51:38.544843	0.4	20.0	-62.5	0.0
2026-01-27 16:51:39.666901	0.3	19.9	-63.6	0.0
2026-01-27 16:51:40.788311	0.2	19.7	-63.3	0.0
2026-01-27 16:51:41.912702	0.1	19.6	-63.5	0.0
2026-01-27 16:51:43.034116	359.9	19.5	-62.7	0.0
2026-01-27 16:51:44.155280	359.8	19.4	-62.7	0.0
2026-01-27 16:51:45.278399	359.7	19.2	-62.6	0.0
2026-01-27 16:51:46.400571	359.6	19.1	-62.9	0.0
2026-01-27 16:51:47.521887	359.4	19.0	-61.8	0.0
2026-01-27 16:51:48.644611	359.3	18.8	-62.5	0.0
2026-01-27 16:51:49.767210	359.2	18.7	-62.9	0.0
2026-01-27 16:51:50.890636	359.1	18.6	-63.1	0.0
2026-01-27 16:51:52.013261	359.0	18.5	-63.9	0.0
2026-01-27 16:51:53.135358	358.8	18.3	-63.3	0.0
2026-01-27 16:51:54.258343	358.7	18.2	-63.7	0.0
2026-01-27 16:51:55.379372	358.6	18.1	-63.8	0.0
2026-01-27 16:51:56.502313	358.5	18.0	-63.8	0.0
2026-01-27 16:51:57.624205	358.4	17.9	-63.1	0.0
2026-01-27 16:51:58.746778	358.3	17.7	-63.2	0.0
2026-01-27 16:51:59.867172	358.2	17.6	-63.6	0.0
2026-01-27 16:52:00.988663	358.0	17.5	-61.6	0.0
2026-01-27 16:52:02.109673	357.9	17.4	-64.3	0.0
2026-01-27 16:52:03.231914	357.8	17.3	-64.0	0.0
2026-01-27 16:52:04.355558	357.7	17.1	-63.9	0.0
2026-01-27 16:52:05.478245	357.6	17.0	-64.2	0.0
2026-01-27 16:52:06.599584	357.5	16.9	-64.7	0.0
2026-01-27 16:52:07.720424	357.4	16.8	-64.7	0.0
2026-01-27 16:52:08.842555	357.3	16.7	-64.8	0.0
2026-01-27 16:52:09.963978	357.2	16.5	-64.5	0.0
2026-01-27 16:52:11.087599	357.1	16.4	-64.9	0.0
2026-01-27 16:52:12.209190	357.0	16.3	-65.3	0.0
2026-01-27 16:52:13.330565	356.9	16.2	-65.4	0.0
2026-01-27 16:52:14.452705	356.8	16.1	-64.7	0.0
2026-01-27 16:52:15.575165	356.7	16.0	-66.1	0.0
2026-01-27 16:52:16.697548	356.6	15.9	-65.3	0.0
2026-01-27 16:52:17.821156	356.5	15.7	-63.6	0.0
2026-01-27 16:52:18.943465	356.4	15.6	-61.0	0.0
2026-01-27 16:52:20.067459	356.3	15.5	-64.4	0.0
2026-01-27 16:52:21.187960	356.2	15.4	-64.2	0.0
2026-01-27 16:52:22.309242	356.1	15.3	-66.1	0.0
2026-01-27 16:52:23.435295	356.0	15.2	-65.9	0.0
2026-01-27 16:52:24.556993	355.9	15.1	-65.5	0.0
2026-01-27 16:52:25.681148	355.8	15.0	-63.2	0.0
2026-01-27 16:52:26.804531	355.7	14.8	-65.4	0.0
2026-01-27 16:52:27.927267	355.6	14.7	-65.9	0.0
2026-01-27 16:52:29.047299	355.6	14.6	-66.5	0.0
2026-01-27 16:52:30.170659	355.5	14.5	-66.3	0.0
2026-01-27 16:52:31.292052	355.4	14.4	-65.4	0.0
2026-01-27 16:52:32.414382	355.3	14.3	-64.6	0.0
2026-01-27 16:52:33.538435	355.2	14.2	-63.9	0.0
2026-01-27 16:52:34.660928	355.1	14.1	-65.7	0.0
2026-01-27 16:52:35.782618	355.0	14.0	-65.1	0.0
2026-01-27 16:52:36.907022	354.9	13.9	-64.9	0.0
2026-01-27 16:52:38.030650	354.9	13.8	-65.6	0.0
2026-01-27 16:52:39.153638	354.8	13.7	-64.7	0.0
2026-01-27 16:52:40.273938	354.7	13.6	-65.6	0.0
2026-01-27 16:52:41.396880	354.6	13.5	-65.8	0.0
2026-01-27 16:52:42.516691	354.5	13.4	-65.4	0.0
2026-01-27 16:52:43.638763	354.4	13.2	-64.1	0.0
2026-01-27 16:52:44.762702	354.4	13.1	-64.0	0.0
2026-01-27 16:52:45.886581	354.3	13.0	-62.6	0.0
2026-01-27 16:52:47.011639	354.2	12.9	-63.3	0.0
2026-01-27 16:52:48.134814	354.1	12.8	-65.0	0.0
2026-01-27 16:52:49.255456	354.0	12.7	-65.0	0.0
2026-01-27 16:52:50.375972	354.0	12.6	-64.9	0.0
2026-01-27 16:52:51.498761	353.9	12.5	-65.2	0.0
2026-01-27 16:52:52.619122	353.8	12.4	-67.1	0.0
2026-01-27 16:52:53.740747	353.7	12.3	-65.0	0.0
2026-01-27 16:52:54.861066	353.6	12.2	-66.2	0.0
2026-01-27 16:52:55.983365	353.6	12.1	-65.7	0.0
2026-01-27 16:52:57.104744	353.5	12.0	-64.9	0.0
2026-01-27 16:52:58.226472	353.4	11.9	-65.3	0.0
2026-01-27 16:52:59.348334	353.3	11.8	-66.3	0.0
2026-01-27 16:53:00.470289	353.3	11.7	-66.5	0.0
2026-01-27 16:53:01.592008	353.2	11.6	-63.4	0.0
2026-01-27 16:53:02.713799	353.1	11.5	-66.3	0.0
2026-01-27 16:53:03.836206	353.1	11.4	-65.9	0.0
2026-01-27 16:53:04.959017	353.0	11.3	-63.5	0.0
2026-01-27 16:53:06.080498	352.9	11.2	-63.5	0.0
2026-01-27 16:53:07.203457	352.8	11.1	-65.4	0.0
2026-01-27 16:53:08.327580	352.8	11.1	-63.0	0.0
2026-01-27 16:53:09.447743	352.7	11.0	-66.3	0.0
2026-01-27 16:53:10.570579	352.6	10.9	-66.3	0.0
2026-01-27 16:53:11.691734	352.6	10.8	-62.8	0.0
2026-01-27 16:53:12.813736	352.5	10.7	-59.4	0.0
2026-01-27 16:53:13.938960	352.4	10.6	-59.5	0.0
2026-01-27 16:53:15.063387	352.4	10.5	-62.4	0.0
2026-01-27 16:53:16.184304	352.3	10.4	-64.2	0.0
2026-01-27 16:53:17.307416	352.2	10.3	-67.2	0.0
2026-01-27 16:53:18.430254	352.2	10.2	-72.3	0.0
2026-01-27 16:53:19.552371	352.1	10.1	-73.2	0.0
2026-01-27 16:53:20.673767	352.0	10.0	-73.8	0.0
#Closed at: 2026-01-27 16:43:09.579560