passes_logs/2026/01/01/R4.6S_Anadyr_2ch/R4.6S_Anadyr_2ch__20260101_092908_2025-108B_rec.log

#Pass ID: 20260101_092908_2025-108B
#Satellite: 2025-108B
#Configuration: 3PB_600M
#almurnet v.1.7.20251203
#Start time: 2026-01-01 09:29:10

#Version: 2.2.20231116
#Station: R4.6S_Anadyr_2ch
#Location: 177.4865 lon 64.73178 lat
#TLE: 1 64088U 25108B   25351.01672131  .00008460  00000+0  43413-3 0  9994
#TLE: 2 64088  97.4940  63.8579 0011684 285.1423  74.8517 15.16717580 31720

#Time	Az	El	Level	Level2	SNR	BER	BlckErr	Temp	State	Recorded	gain1	gain2
2026-01-01 09:29:10.40	158.25	0.12	-52.3	-53.6	3.4	0.00e+00	0	34	0	0	60	80902
2026-01-01 09:29:11.41	158.25	0.18	-51.9	-54.4	3.6	0.00e+00	0	35	104	0	60	88320
2026-01-01 09:29:12.42	158.25	0.25	-51.9	-54.4	3.6	0.00e+00	0	35	104	0	60	88539
2026-01-01 09:29:13.43	158.25	0.31	-51.9	-54.4	3.6	0.00e+00	0	35	104	0	60	88497
2026-01-01 09:29:14.44	158.26	0.38	-51.9	-54.4	3.6	0.00e+00	0	35	104	0	60	88711
2026-01-01 09:29:15.45	158.26	0.44	-51.9	-54.4	3.6	0.00e+00	0	35	104	0	60	88600
2026-01-01 09:29:16.46	158.26	0.51	-51.9	-54.4	3.6	0.00e+00	0	35	104	0	60	88453
2026-01-01 09:29:17.47	158.26	0.58	-51.9	-54.4	3.6	0.00e+00	0	35	104	0	60	88792
2026-01-01 09:29:18.48	158.26	0.64	-51.9	-54.4	3.6	0.00e+00	0	35	104	0	60	88528
2026-01-01 09:29:19.49	158.26	0.71	-51.9	-54.4	3.6	0.00e+00	0	35	104	0	60	88491
2026-01-01 09:29:20.50	158.26	0.78	-51.9	-54.4	3.6	0.00e+00	0	35	104	0	60	88660
2026-01-01 09:29:21.51	158.26	0.84	-51.9	-54.3	3.6	0.00e+00	0	35	104	0	60	88215
2026-01-01 09:29:22.52	158.26	0.91	-51.9	-54.3	3.6	0.00e+00	0	36	104	0	60	87807
2026-01-01 09:29:23.53	158.27	0.98	-51.9	-54.3	3.6	0.00e+00	0	35	104	0	60	87530
2026-01-01 09:29:24.54	158.27	1.04	-51.9	-54.3	3.6	0.00e+00	0	36	104	0	60	88105
2026-01-01 09:29:25.55	158.27	1.11	-51.9	-54.3	3.6	0.00e+00	0	36	104	0	60	88215
2026-01-01 09:29:26.56	158.27	1.18	-51.9	-54.4	3.6	0.00e+00	0	36	104	0	60	88233
2026-01-01 09:29:27.58	158.27	1.25	-51.9	-54.4	3.6	0.00e+00	0	36	104	0	60	88271
2026-01-01 09:29:28.59	158.27	1.32	-51.9	-54.4	3.6	0.00e+00	0	35	104	0	60	88294
2026-01-01 09:29:29.60	158.27	1.39	-51.9	-54.4	3.6	0.00e+00	0	36	104	0	60	88732
2026-01-01 09:29:30.61	158.27	1.45	-51.9	-54.4	3.6	0.00e+00	0	36	104	0	60	88845
2026-01-01 09:29:31.62	158.27	1.52	-51.9	-54.4	3.6	0.00e+00	0	36	104	0	60	88751
2026-01-01 09:29:32.63	158.28	1.59	-51.9	-54.4	3.6	0.00e+00	0	36	104	0	60	88494
2026-01-01 09:29:33.64	158.28	1.66	-51.9	-54.4	3.6	0.00e+00	0	36	104	0	60	88326
2026-01-01 09:29:34.65	158.28	1.73	-51.9	-54.4	3.6	0.00e+00	0	36	104	0	60	88544
2026-01-01 09:29:35.66	158.28	1.80	-51.9	-54.4	3.6	0.00e+00	0	36	104	0	60	88433
2026-01-01 09:29:36.67	158.28	1.87	-52.0	-54.4	3.6	0.00e+00	0	36	104	0	60	88879
2026-01-01 09:29:37.68	158.28	1.94	-52.0	-54.4	3.6	0.00e+00	0	36	104	0	60	88511
2026-01-01 09:29:38.69	158.28	2.01	-52.0	-54.4	3.6	0.00e+00	0	36	104	0	60	88924
2026-01-01 09:29:39.70	158.28	2.08	-51.9	-54.4	3.6	0.00e+00	0	36	104	0	60	88699
2026-01-01 09:29:40.72	158.28	2.15	-51.9	-54.4	3.6	0.00e+00	0	36	104	0	60	88228
2026-01-01 09:29:41.73	158.28	2.22	-51.9	-54.3	3.6	0.00e+00	0	36	104	0	60	87985
2026-01-01 09:29:42.74	158.29	2.30	-52.0	-54.4	3.6	0.00e+00	0	36	104	0	60	88938
2026-01-01 09:29:43.75	158.29	2.37	-51.9	-54.4	3.6	0.00e+00	0	36	104	0	60	89015
2026-01-01 09:29:44.76	158.29	2.44	-51.9	-54.4	3.6	0.00e+00	0	36	104	0	60	88571
2026-01-01 09:29:45.77	158.29	2.51	-51.9	-54.4	3.6	0.00e+00	0	36	104	0	60	88507
2026-01-01 09:29:46.78	158.29	2.58	-51.9	-54.4	3.6	0.00e+00	0	36	104	0	60	88755
2026-01-01 09:29:47.79	158.29	2.65	-51.9	-54.4	3.6	0.00e+00	0	36	104	0	60	88690
2026-01-01 09:29:48.80	158.29	2.73	-51.9	-54.4	3.6	0.00e+00	0	36	104	0	60	88347
2026-01-01 09:29:49.81	158.29	2.80	-51.9	-54.4	3.6	0.00e+00	0	36	104	0	60	88703
2026-01-01 09:29:50.82	158.29	2.87	-51.9	-54.4	3.5	0.00e+00	0	36	104	0	60	88938
2026-01-01 09:29:51.83	158.29	2.95	-51.9	-54.4	3.6	0.00e+00	0	36	104	0	60	88431
2026-01-01 09:29:52.85	158.29	3.02	-52.0	-54.4	3.6	0.00e+00	0	36	104	0	60	88669
2026-01-01 09:29:53.86	158.29	3.10	-51.9	-54.4	3.6	0.00e+00	0	36	104	0	60	88831
2026-01-01 09:29:54.87	158.30	3.17	-51.9	-54.4	3.6	0.00e+00	0	36	104	0	60	88861
2026-01-01 09:29:55.88	158.30	3.24	-51.9	-54.4	3.6	0.00e+00	0	36	104	0	60	88420
2026-01-01 09:29:56.89	158.30	3.32	-51.9	-54.4	3.6	0.00e+00	0	36	104	0	60	88843
2026-01-01 09:29:57.90	158.30	3.39	-51.9	-54.4	3.6	0.00e+00	0	36	104	0	60	88991
2026-01-01 09:29:58.91	158.30	3.47	-51.9	-54.4	3.6	0.00e+00	0	36	104	0	60	88593
2026-01-01 09:29:59.92	158.30	3.54	-52.0	-54.4	3.6	0.00e+00	0	36	104	0	60	89216
2026-01-01 09:30:00.93	158.30	3.62	-52.0	-54.4	3.6	0.00e+00	0	37	104	0	60	88628
2026-01-01 09:30:01.94	158.30	3.70	-52.0	-54.4	3.6	0.00e+00	0	36	104	0	60	88798
2026-01-01 09:30:02.96	158.30	3.77	-52.0	-54.5	3.6	0.00e+00	0	37	104	0	60	89513
2026-01-01 09:30:03.97	158.30	3.85	-51.9	-54.3	3.6	0.00e+00	0	37	104	0	60	88009
2026-01-01 09:30:04.98	158.30	3.93	-51.9	-54.4	3.6	0.00e+00	0	37	104	0	60	88278
2026-01-01 09:30:05.99	158.30	4.00	-51.9	-54.3	3.6	0.00e+00	0	37	104	0	60	88162
2026-01-01 09:30:07.00	158.30	4.08	-51.9	-54.4	3.6	0.00e+00	0	36	104	0	60	88545
2026-01-01 09:30:08.01	158.30	4.16	-51.9	-54.4	3.6	0.00e+00	0	37	104	0	60	88764
2026-01-01 09:30:09.02	158.30	4.24	-51.9	-54.4	3.6	0.00e+00	0	37	104	0	60	88692
2026-01-01 09:30:10.03	158.30	4.32	-51.9	-54.3	3.6	0.00e+00	0	37	104	0	60	88209
2026-01-01 09:30:11.04	158.30	4.39	-51.9	-54.4	3.6	0.00e+00	0	37	104	0	60	88282
2026-01-01 09:30:12.05	158.31	4.47	-51.9	-54.4	3.6	0.00e+00	0	37	104	0	60	88406
2026-01-01 09:30:13.06	158.31	4.55	-51.9	-54.4	3.6	0.00e+00	0	37	104	0	60	88515
2026-01-01 09:30:14.07	158.31	4.63	-51.9	-54.4	3.6	0.00e+00	0	37	104	0	60	88870
2026-01-01 09:30:15.08	158.31	4.71	-51.9	-54.4	3.6	0.00e+00	0	37	104	0	60	88741
2026-01-01 09:30:16.09	158.31	4.79	-52.0	-54.4	3.6	0.00e+00	0	37	104	0	60	88715
2026-01-01 09:30:17.10	158.31	4.87	-51.9	-54.4	3.6	0.00e+00	0	37	104	0	60	88220
2026-01-01 09:30:18.11	158.31	4.95	-51.9	-54.4	3.6	0.00e+00	0	37	104	0	60	88522
2026-01-01 09:30:19.12	158.31	5.03	-51.9	-54.4	3.6	0.00e+00	0	37	104	0	60	88522
2026-01-01 09:30:20.13	158.31	5.12	-51.9	-54.4	3.6	0.00e+00	0	37	104	0	60	88763
2026-01-01 09:30:21.14	158.31	5.20	-51.9	-54.4	3.6	0.00e+00	0	37	104	0	60	88597
2026-01-01 09:30:22.15	158.31	5.28	-51.9	-54.4	3.6	0.00e+00	0	37	104	0	60	88847
2026-01-01 09:30:23.16	158.31	5.36	-51.9	-54.4	3.6	0.00e+00	0	37	104	0	60	88455
2026-01-01 09:30:24.17	158.31	5.45	-51.9	-54.3	3.6	0.00e+00	0	37	104	0	60	87769
2026-01-01 09:30:25.18	158.31	5.53	-51.9	-54.4	3.6	0.00e+00	0	37	104	0	60	88271
2026-01-01 09:30:26.19	158.31	5.61	-51.9	-54.3	3.6	0.00e+00	0	37	104	0	60	88038
2026-01-01 09:30:27.20	158.31	5.70	-51.9	-54.4	3.6	0.00e+00	0	37	104	0	60	88523
2026-01-01 09:30:28.21	158.31	5.78	-51.9	-54.3	3.6	0.00e+00	0	37	104	0	60	87952
2026-01-01 09:30:29.22	158.31	5.86	-51.9	-54.4	3.6	0.00e+00	0	37	104	0	60	88655
2026-01-01 09:30:30.23	158.31	5.95	-51.9	-54.4	3.6	0.00e+00	0	37	104	0	60	88263
2026-01-01 09:30:31.24	158.31	6.03	-51.9	-54.4	3.6	0.00e+00	0	37	104	0	60	88344
2026-01-01 09:30:32.25	158.31	6.12	-51.9	-54.4	3.6	0.00e+00	0	37	104	0	60	88768
2026-01-01 09:30:33.26	158.31	6.21	-51.9	-54.4	3.6	0.00e+00	0	37	104	0	60	88447
2026-01-01 09:30:34.27	158.31	6.29	-51.9	-54.4	3.6	0.00e+00	0	37	104	0	60	88682
2026-01-01 09:30:35.29	158.31	6.38	-51.9	-54.4	3.6	0.00e+00	0	37	104	0	60	88501
2026-01-01 09:30:36.30	158.31	6.47	-51.9	-54.4	3.6	0.00e+00	0	37	104	0	60	88655
2026-01-01 09:30:37.31	158.31	6.55	-51.9	-54.3	3.6	0.00e+00	0	37	104	0	60	87971
2026-01-01 09:30:38.32	158.31	6.64	-51.9	-54.3	3.5	0.00e+00	0	37	104	0	60	88184
2026-01-01 09:30:39.33	158.31	6.73	-51.9	-54.4	3.6	0.00e+00	0	37	104	0	60	88797
2026-01-01 09:30:40.34	158.31	6.82	-51.9	-54.4	3.6	0.00e+00	0	37	104	0	60	88838
2026-01-01 09:30:41.35	158.31	6.91	-51.9	-54.4	3.6	0.00e+00	0	37	104	0	60	88410
2026-01-01 09:30:42.36	158.31	7.00	-51.9	-54.4	3.6	0.00e+00	0	37	104	0	60	88584
2026-01-01 09:30:43.37	158.31	7.09	-51.9	-54.3	3.6	0.00e+00	0	37	104	0	60	87901
2026-01-01 09:30:44.38	158.31	7.18	-51.9	-54.3	3.6	0.00e+00	0	37	104	0	60	88080
2026-01-01 09:30:45.39	158.31	7.27	-51.9	-54.3	3.6	0.00e+00	0	37	104	0	60	88202
2026-01-01 09:30:46.40	158.31	7.36	-51.9	-54.4	3.6	0.00e+00	0	37	104	0	60	88472
2026-01-01 09:30:47.41	158.31	7.45	-51.9	-54.3	3.6	0.00e+00	0	37	104	0	60	88102
2026-01-01 09:30:48.42	158.31	7.54	-51.9	-54.4	3.6	0.00e+00	0	37	104	0	60	88316
2026-01-01 09:30:49.44	158.31	7.64	-51.9	-54.4	3.6	0.00e+00	0	37	104	0	60	88228
2026-01-01 09:30:50.44	158.31	7.73	-51.9	-54.3	3.5	0.00e+00	0	37	104	0	60	88097
2026-01-01 09:30:51.45	158.31	7.82	-51.9	-54.4	3.6	0.00e+00	0	37	104	0	60	88255
2026-01-01 09:30:52.47	158.31	7.92	-51.9	-54.4	3.6	0.00e+00	0	37	104	0	60	88361
2026-01-01 09:30:53.48	158.30	8.01	-51.9	-54.4	3.6	0.00e+00	0	37	104	0	60	88258
2026-01-01 09:30:54.49	158.30	8.11	-51.9	-54.4	3.6	0.00e+00	0	37	104	0	60	88265
2026-01-01 09:30:55.50	158.30	8.20	-51.9	-54.4	3.6	0.00e+00	0	37	104	0	60	88269
2026-01-01 09:30:56.51	158.30	8.30	-51.9	-54.4	3.6	0.00e+00	0	37	104	0	60	88386
2026-01-01 09:30:57.52	158.30	8.39	-51.9	-54.4	3.6	0.00e+00	0	37	104	0	60	88222
2026-01-01 09:30:58.53	158.30	8.49	-51.9	-54.4	3.6	0.00e+00	0	37	104	0	60	88524
2026-01-01 09:30:59.54	158.30	8.59	-51.9	-54.4	3.6	0.00e+00	0	37	104	0	60	88312
2026-01-01 09:31:00.55	158.30	8.68	-51.9	-54.3	3.6	0.00e+00	0	37	104	0	60	87977
2026-01-01 09:31:01.56	158.30	8.78	-51.9	-54.3	3.6	0.00e+00	0	37	104	0	60	88203
2026-01-01 09:31:02.57	158.30	8.88	-51.9	-54.4	3.6	0.00e+00	0	37	104	0	60	88559
2026-01-01 09:31:03.59	158.30	8.98	-51.9	-54.4	3.6	0.00e+00	0	38	104	0	60	88676
2026-01-01 09:31:04.60	158.30	9.08	-51.9	-54.4	3.6	0.00e+00	0	37	104	0	60	88573
2026-01-01 09:31:05.61	158.30	9.18	-51.9	-54.4	3.6	0.00e+00	0	37	104	0	60	88327
2026-01-01 09:31:06.62	158.30	9.28	-51.9	-54.3	3.6	0.00e+00	0	37	104	0	60	88157
2026-01-01 09:31:07.63	158.29	9.38	-51.9	-54.4	3.6	0.00e+00	0	37	104	0	60	88273
2026-01-01 09:31:08.64	158.29	9.48	-51.9	-54.3	3.6	0.00e+00	0	37	104	0	60	88194
2026-01-01 09:31:09.65	158.29	9.59	-51.9	-54.4	3.6	0.00e+00	0	38	104	0	60	88428
2026-01-01 09:31:10.66	158.29	9.69	-51.9	-54.3	3.6	0.00e+00	0	37	104	0	60	88136
2026-01-01 09:31:11.67	158.29	9.79	-51.9	-54.4	3.6	0.00e+00	0	37	104	0	60	88361
2026-01-01 09:31:12.68	158.29	9.90	-51.9	-54.4	3.6	0.00e+00	0	38	104	0	60	88391
2026-01-01 09:31:13.69	158.29	10.00	-51.9	-54.3	3.6	0.00e+00	0	38	104	0	60	88205
2026-01-01 09:31:14.70	158.29	10.11	-51.9	-54.3	3.6	0.00e+00	0	37	104	0	60	88141
2026-01-01 09:31:15.71	158.28	10.21	-51.9	-54.4	3.5	0.00e+00	0	38	104	0	60	88397
2026-01-01 09:31:16.73	158.28	10.32	-51.9	-54.4	3.6	0.00e+00	0	37	104	0	60	88297
2026-01-01 09:31:17.74	158.28	10.43	-51.9	-54.3	3.6	0.00e+00	0	38	104	0	60	87964
2026-01-01 09:31:18.75	158.28	10.53	-51.9	-54.4	3.6	0.00e+00	0	37	104	0	60	88236
2026-01-01 09:31:19.76	158.28	10.64	-51.9	-54.4	3.6	0.00e+00	0	38	104	0	60	88638
2026-01-01 09:31:20.77	158.28	10.75	-51.9	-54.4	3.6	0.00e+00	0	38	104	0	60	88221
2026-01-01 09:31:21.78	158.28	10.86	-51.9	-54.3	3.6	0.00e+00	0	37	104	0	60	87828
2026-01-01 09:31:22.79	158.27	10.97	-51.9	-54.4	3.6	0.00e+00	0	38	104	0	60	88334
2026-01-01 09:31:23.80	158.27	11.08	-51.9	-54.3	3.6	0.00e+00	0	38	104	0	60	88157
2026-01-01 09:31:24.81	158.27	11.19	-51.9	-54.3	3.6	0.00e+00	0	38	104	0	60	88211
2026-01-01 09:31:25.82	158.27	11.30	-51.9	-54.4	3.6	0.00e+00	0	38	104	0	60	88310
2026-01-01 09:31:26.83	158.27	11.42	-51.9	-54.4	3.6	0.00e+00	0	38	104	0	60	88679
2026-01-01 09:31:27.84	158.27	11.53	-51.9	-54.4	3.6	0.00e+00	0	38	104	0	60	88536
2026-01-01 09:31:28.85	158.26	11.64	-51.9	-54.4	3.6	0.00e+00	0	38	104	0	60	88372
2026-01-01 09:31:29.86	158.26	11.76	-51.9	-54.4	3.6	0.00e+00	0	38	104	0	60	88230
2026-01-01 09:31:30.87	158.26	11.87	-51.9	-54.4	3.6	0.00e+00	0	38	104	0	60	88491
2026-01-01 09:31:31.88	158.26	11.99	-51.9	-54.4	3.5	0.00e+00	0	38	104	0	60	88432
2026-01-01 09:31:32.89	158.26	12.11	-51.9	-54.4	3.6	0.00e+00	0	38	104	0	60	88818
2026-01-01 09:31:33.90	158.25	12.22	-51.9	-54.4	3.6	0.00e+00	0	38	104	0	60	88312
2026-01-01 09:31:34.92	158.25	12.34	-51.9	-54.4	3.6	0.00e+00	0	38	104	0	60	88281
2026-01-01 09:31:35.93	158.25	12.46	-51.9	-54.4	3.6	0.00e+00	0	38	104	0	60	88397
2026-01-01 09:31:36.94	158.25	12.58	-51.9	-54.3	3.6	0.00e+00	0	38	104	0	60	88006
2026-01-01 09:31:37.95	158.24	12.70	-51.9	-54.4	3.6	0.00e+00	0	38	104	0	60	88481
2026-01-01 09:31:38.96	158.24	12.82	-51.9	-54.4	3.6	0.00e+00	0	38	104	0	60	88551
2026-01-01 09:31:39.97	158.24	12.94	-51.9	-54.3	3.6	0.00e+00	0	38	104	0	60	87663
2026-01-01 09:31:40.98	158.24	13.07	-51.9	-54.4	3.6	0.00e+00	0	38	104	0	60	88257
2026-01-01 09:31:41.99	158.23	13.19	-51.9	-54.4	3.6	0.00e+00	0	38	104	0	60	88914
2026-01-01 09:31:43.00	158.23	13.32	-51.9	-54.4	3.6	0.00e+00	0	38	104	0	60	88308
2026-01-01 09:31:44.02	158.23	13.44	-51.9	-54.4	3.6	0.00e+00	0	38	104	0	60	88236
2026-01-01 09:31:45.03	158.23	13.57	-51.9	-54.4	3.6	0.00e+00	0	38	104	0	60	88530
2026-01-01 09:31:46.04	158.22	13.69	-51.9	-54.4	3.6	0.00e+00	0	38	104	0	60	88683
2026-01-01 09:31:47.05	158.22	13.82	-51.9	-54.4	3.6	0.00e+00	0	38	104	0	60	88405
2026-01-01 09:31:48.06	158.22	13.95	-51.9	-54.4	3.6	0.00e+00	0	38	104	0	60	88331
2026-01-01 09:31:49.07	158.21	14.08	-51.9	-54.4	3.6	0.00e+00	0	38	104	0	60	88688
2026-01-01 09:31:50.08	158.21	14.21	-51.9	-54.4	3.6	0.00e+00	0	38	104	0	60	88384
2026-01-01 09:31:51.10	158.21	14.34	-51.9	-54.4	3.6	0.00e+00	0	38	104	0	60	88282
2026-01-01 09:31:52.11	158.21	14.48	-51.9	-54.4	3.6	0.00e+00	0	38	104	0	60	88287
2026-01-01 09:31:53.12	158.20	14.61	-51.9	-54.4	3.6	0.00e+00	0	38	104	0	60	88517
2026-01-01 09:31:54.13	158.20	14.74	-51.9	-54.3	3.6	0.00e+00	0	38	104	0	60	88030
2026-01-01 09:31:55.14	158.20	14.88	-51.9	-54.3	3.6	0.00e+00	0	38	104	0	60	88169
2026-01-01 09:31:56.15	158.19	15.01	-51.9	-54.4	3.6	0.00e+00	0	38	104	0	60	88629
2026-01-01 09:31:57.16	158.19	15.15	-51.9	-54.4	3.6	0.00e+00	0	38	104	0	60	88429
2026-01-01 09:31:58.17	158.18	15.29	-51.9	-54.4	3.6	0.00e+00	0	38	104	0	60	89064
2026-01-01 09:31:59.18	158.18	15.43	-51.9	-54.4	3.6	0.00e+00	0	38	104	0	60	88424
2026-01-01 09:32:00.19	158.18	15.57	-51.9	-54.4	3.6	0.00e+00	0	38	104	0	60	88347
2026-01-01 09:32:01.21	158.17	15.71	-51.9	-54.3	3.6	0.00e+00	0	38	104	0	60	88185
2026-01-01 09:32:02.22	158.17	15.85	-51.9	-54.4	3.6	0.00e+00	0	38	104	0	60	88376
2026-01-01 09:32:03.23	158.17	15.99	-51.9	-54.4	3.6	0.00e+00	0	38	104	0	60	88323
2026-01-01 09:32:04.24	158.16	16.14	-51.9	-54.4	3.6	0.00e+00	0	38	104	0	60	88337
2026-01-01 09:32:05.25	158.16	16.28	-51.9	-54.3	3.6	0.00e+00	0	38	104	0	60	88076
2026-01-01 09:32:06.26	158.15	16.43	-51.9	-54.4	3.6	0.00e+00	0	38	104	0	60	88674
2026-01-01 09:32:07.27	158.15	16.58	-51.9	-54.3	3.6	0.00e+00	0	38	104	0	60	88219
2026-01-01 09:32:08.28	158.14	16.73	-51.9	-54.4	3.6	0.00e+00	0	38	104	0	60	88761
2026-01-01 09:32:09.29	158.14	16.88	-51.9	-54.4	3.6	0.00e+00	0	38	104	0	60	88336
2026-01-01 09:32:10.30	158.13	17.03	-51.9	-54.4	3.6	0.00e+00	0	38	104	0	60	88452
2026-01-01 09:32:11.32	158.13	17.18	-51.9	-54.4	3.6	0.00e+00	0	38	104	0	60	88272
2026-01-01 09:32:12.33	158.12	17.33	-51.9	-54.4	3.6	0.00e+00	0	38	104	0	60	88844
2026-01-01 09:32:13.34	158.12	17.49	-51.9	-54.4	3.6	0.00e+00	0	38	104	0	60	88461
2026-01-01 09:32:14.35	158.11	17.64	-51.9	-54.3	3.6	0.00e+00	0	38	104	0	60	88151
2026-01-01 09:32:15.36	158.11	17.80	-51.9	-54.3	3.6	0.00e+00	0	38	104	0	60	88118
2026-01-01 09:32:16.37	158.10	17.96	-51.9	-54.4	3.6	0.00e+00	0	38	104	0	60	88727
2026-01-01 09:32:17.38	158.10	18.12	-51.9	-54.4	3.6	0.00e+00	0	38	104	0	60	88610
2026-01-01 09:32:18.39	158.09	18.28	-51.9	-54.3	3.6	0.00e+00	0	38	104	0	60	87969
2026-01-01 09:32:19.40	158.09	18.44	-51.9	-54.4	3.6	0.00e+00	0	38	104	0	60	88446
2026-01-01 09:32:20.41	158.08	18.61	-51.9	-54.4	3.6	0.00e+00	0	38	104	0	60	88403
2026-01-01 09:32:21.42	158.08	18.77	-51.9	-54.4	3.5	0.00e+00	0	38	104	0	60	88304
2026-01-01 09:32:22.43	158.07	18.94	-51.9	-54.4	3.6	0.00e+00	0	38	104	0	60	88734
2026-01-01 09:32:23.44	158.06	19.10	-51.9	-54.4	3.6	0.00e+00	0	38	104	0	60	88514
2026-01-01 09:32:24.45	158.06	19.27	-51.9	-54.4	3.6	0.00e+00	0	38	104	0	60	88675
2026-01-01 09:32:25.46	158.05	19.44	-51.9	-54.4	3.6	0.00e+00	0	38	104	0	60	88241
2026-01-01 09:32:26.48	158.05	19.62	-51.9	-54.4	3.6	0.00e+00	0	38	104	0	60	88366
2026-01-01 09:32:27.49	158.04	19.79	-51.9	-54.4	3.6	0.00e+00	0	38	104	0	60	88517
2026-01-01 09:32:28.50	158.03	19.96	-51.9	-54.4	3.6	0.00e+00	0	38	104	0	60	88423
2026-01-01 09:32:29.51	158.03	20.14	-51.9	-54.3	3.5	0.00e+00	0	38	104	0	60	88186
2026-01-01 09:32:30.52	158.02	20.32	-51.9	-54.4	3.6	0.00e+00	0	38	104	0	60	88253
2026-01-01 09:32:31.53	158.01	20.50	-51.9	-54.4	3.6	0.00e+00	0	38	104	0	60	88590
2026-01-01 09:32:32.54	158.00	20.68	-51.9	-54.4	3.6	0.00e+00	0	38	104	0	60	88333
2026-01-01 09:32:33.55	158.00	20.86	-51.9	-54.4	3.6	0.00e+00	0	38	104	0	60	88234
2026-01-01 09:32:34.56	157.99	21.05	-51.9	-54.4	3.6	0.00e+00	0	38	104	0	60	88434
2026-01-01 09:32:35.57	157.98	21.23	-51.9	-54.4	3.6	0.00e+00	0	38	104	0	60	88423
2026-01-01 09:32:36.59	157.97	21.42	-51.9	-54.3	3.6	0.00e+00	0	38	104	0	60	87885
2026-01-01 09:32:37.60	157.97	21.61	-51.9	-54.3	3.6	0.00e+00	0	38	104	0	60	88106
2026-01-01 09:32:38.61	157.96	21.80	-51.9	-54.4	3.5	0.00e+00	0	38	104	0	60	88459
2026-01-01 09:32:39.62	157.95	22.00	-51.9	-54.3	3.6	0.00e+00	0	38	104	0	60	87967
2026-01-01 09:32:40.63	157.94	22.19	-51.9	-54.3	3.6	0.00e+00	0	38	104	0	60	87698
2026-01-01 09:32:41.64	157.93	22.39	-51.9	-54.3	3.6	0.00e+00	0	38	104	0	60	87659
2026-01-01 09:32:42.65	157.92	22.59	-51.9	-54.3	3.6	0.00e+00	0	38	104	0	60	88064
2026-01-01 09:32:43.66	157.91	22.79	-51.9	-54.3	3.6	0.00e+00	0	38	104	0	60	88084
2026-01-01 09:32:44.67	157.91	22.99	-51.9	-54.4	3.6	0.00e+00	0	38	104	0	60	88390
2026-01-01 09:32:45.69	157.90	23.20	-51.9	-54.3	3.6	0.00e+00	0	38	104	0	60	88064
2026-01-01 09:32:46.70	157.89	23.40	-51.9	-54.4	3.6	0.00e+00	0	38	104	0	60	88687
2026-01-01 09:32:47.71	157.88	23.61	-51.9	-54.3	3.6	0.00e+00	0	38	104	0	60	87951
2026-01-01 09:32:48.72	157.87	23.82	-51.9	-54.3	3.6	0.00e+00	0	38	104	0	60	88187
2026-01-01 09:32:49.73	157.86	24.03	-51.9	-54.4	3.6	0.00e+00	0	38	104	0	60	88564
2026-01-01 09:32:50.74	157.85	24.25	-51.9	-54.4	3.6	0.00e+00	0	38	104	0	60	88642
2026-01-01 09:32:51.75	157.84	24.46	-51.9	-54.4	3.6	0.00e+00	0	38	104	0	60	88373
2026-01-01 09:32:52.77	157.83	24.69	-51.9	-54.4	3.6	0.00e+00	0	38	104	0	60	88541
2026-01-01 09:32:53.78	157.81	24.91	-51.9	-54.3	3.6	0.00e+00	0	38	104	0	60	88200
2026-01-01 09:32:54.79	157.80	25.13	-51.9	-54.3	3.6	0.00e+00	0	38	104	0	60	88051
2026-01-01 09:32:55.80	157.79	25.36	-51.9	-54.3	3.6	0.00e+00	0	38	104	0	60	88162
2026-01-01 09:32:56.81	157.78	25.58	-51.9	-54.3	3.6	0.00e+00	0	38	104	0	60	88045
2026-01-01 09:32:57.82	157.77	25.81	-51.9	-54.3	3.6	0.00e+00	0	38	104	0	60	88147
2026-01-01 09:32:58.83	157.76	26.05	-51.9	-54.4	3.6	0.00e+00	0	38	104	0	60	88420
2026-01-01 09:32:59.84	157.74	26.28	-51.9	-54.4	3.6	0.00e+00	0	38	104	0	60	88334
2026-01-01 09:33:00.85	157.73	26.52	-51.9	-54.3	3.6	0.00e+00	0	38	104	0	60	88089
2026-01-01 09:33:01.86	157.72	26.76	-51.9	-54.3	3.6	0.00e+00	0	38	104	0	60	88201
2026-01-01 09:33:02.87	157.71	27.00	-51.9	-54.4	3.6	0.00e+00	0	38	104	0	60	88238
2026-01-01 09:33:03.89	157.69	27.25	-51.9	-54.4	3.6	0.00e+00	0	38	104	0	60	88297
2026-01-01 09:33:04.90	157.68	27.50	-51.9	-54.4	3.6	0.00e+00	0	38	104	0	60	88472
2026-01-01 09:33:05.91	157.66	27.75	-51.9	-54.4	3.6	0.00e+00	0	38	104	0	60	88426
2026-01-01 09:33:06.92	157.65	28.00	-51.9	-54.4	3.6	0.00e+00	0	38	104	0	60	88309
2026-01-01 09:33:07.93	157.63	28.26	-51.9	-54.3	3.6	0.00e+00	0	38	104	0	60	88065
2026-01-01 09:33:08.94	157.62	28.52	-51.9	-54.3	3.6	0.00e+00	0	38	104	0	60	88157
2026-01-01 09:33:09.95	157.60	28.78	-51.9	-54.3	3.6	0.00e+00	0	38	104	0	60	88124
2026-01-01 09:33:10.96	157.59	29.04	-51.9	-54.4	3.6	0.00e+00	0	38	104	0	60	88292
2026-01-01 09:33:11.97	157.57	29.31	-51.9	-54.4	3.6	0.00e+00	0	38	104	0	60	88372
2026-01-01 09:33:12.98	157.56	29.58	-51.9	-54.4	3.6	0.00e+00	0	38	104	0	60	88354
2026-01-01 09:33:13.99	157.54	29.86	-51.9	-54.4	3.6	0.00e+00	0	38	104	0	60	88341
2026-01-01 09:33:15.00	157.52	30.13	-51.9	-54.3	3.6	0.00e+00	0	38	104	0	60	87946
2026-01-01 09:33:16.01	157.50	30.41	-51.9	-54.4	3.6	0.00e+00	0	38	104	0	60	88303
2026-01-01 09:33:17.02	157.49	30.70	-51.9	-54.4	3.6	0.00e+00	0	38	104	0	60	88767
2026-01-01 09:33:18.03	157.47	30.98	-51.9	-54.3	3.6	0.00e+00	0	38	104	0	60	87985
2026-01-01 09:33:19.04	157.45	31.27	-51.9	-54.4	3.6	0.00e+00	0	38	104	0	60	88392
2026-01-01 09:33:20.06	157.43	31.57	-51.9	-54.3	3.6	0.00e+00	0	38	104	0	60	87760
2026-01-01 09:33:21.07	157.41	31.86	-51.9	-54.4	3.6	0.00e+00	0	38	104	0	60	88310
2026-01-01 09:33:22.08	157.39	32.16	-51.9	-54.4	3.6	0.00e+00	0	38	104	0	60	88449
2026-01-01 09:33:23.09	157.37	32.47	-51.9	-54.4	3.5	0.00e+00	0	38	104	0	60	88296
2026-01-01 09:33:24.10	157.35	32.77	-51.9	-54.3	3.6	0.00e+00	0	38	104	0	60	87989
2026-01-01 09:33:25.11	157.33	33.09	-51.9	-54.3	3.6	0.00e+00	0	38	104	0	60	88147
2026-01-01 09:33:26.12	157.31	33.40	-51.9	-54.4	3.6	0.00e+00	0	38	104	0	60	88349
2026-01-01 09:33:27.13	157.28	33.72	-51.9	-54.3	3.6	0.00e+00	0	38	104	0	60	87899
2026-01-01 09:33:28.14	157.26	34.04	-51.9	-54.4	3.6	0.00e+00	0	38	104	0	60	88234
2026-01-01 09:33:29.15	157.24	34.37	-51.9	-54.4	3.6	0.00e+00	0	38	104	0	60	88622
2026-01-01 09:33:30.16	157.21	34.70	-51.9	-54.3	3.5	0.00e+00	0	38	104	0	60	88084
2026-01-01 09:33:31.17	157.19	35.03	-51.9	-54.3	3.6	0.00e+00	0	38	104	0	60	87947
2026-01-01 09:33:32.18	157.16	35.37	-51.9	-54.3	3.6	0.00e+00	0	38	104	0	60	88078
2026-01-01 09:33:33.19	157.14	35.71	-51.9	-54.4	3.6	0.00e+00	0	38	104	0	60	88322
2026-01-01 09:33:34.20	157.11	36.06	-51.9	-54.4	3.6	0.00e+00	0	38	104	0	60	88343
2026-01-01 09:33:35.22	157.08	36.41	-51.9	-54.3	3.6	0.00e+00	0	38	104	0	60	87950
2026-01-01 09:33:36.23	157.05	36.77	-51.9	-54.4	3.6	0.00e+00	0	38	104	0	60	88385
2026-01-01 09:33:37.24	157.02	37.13	-51.9	-54.4	3.6	0.00e+00	0	38	104	0	60	88252
2026-01-01 09:33:38.25	156.99	37.49	-51.9	-54.3	3.6	0.00e+00	0	38	104	0	60	87753
2026-01-01 09:33:39.26	156.96	37.86	-51.9	-54.3	3.6	0.00e+00	0	38	104	0	60	88039
2026-01-01 09:33:40.27	156.93	38.23	-51.9	-54.4	3.6	0.00e+00	0	38	104	0	60	88292
2026-01-01 09:33:41.28	156.90	38.61	-51.9	-54.3	3.6	0.00e+00	0	38	104	0	60	88152
2026-01-01 09:33:42.29	156.87	38.99	-51.9	-54.3	3.6	0.00e+00	0	38	104	0	60	88088
2026-01-01 09:33:43.30	156.83	39.38	-51.9	-54.3	3.6	0.00e+00	0	38	104	0	60	88040
2026-01-01 09:33:44.32	156.80	39.78	-51.9	-54.3	3.6	0.00e+00	0	38	104	0	60	87675
2026-01-01 09:33:45.33	156.76	40.18	-51.9	-54.3	3.6	0.00e+00	0	38	104	0	60	88038
2026-01-01 09:33:46.34	156.72	40.58	-51.9	-54.4	3.6	0.00e+00	0	38	104	0	60	88375
2026-01-01 09:33:47.35	156.69	40.99	-51.9	-54.4	3.6	0.00e+00	0	38	104	0	60	88782
2026-01-01 09:33:48.36	156.65	41.40	-51.9	-54.4	3.6	0.00e+00	0	38	104	0	60	88405
2026-01-01 09:33:49.37	156.61	41.82	-51.9	-54.4	3.6	0.00e+00	0	38	104	0	60	88465
2026-01-01 09:33:50.38	156.56	42.24	-51.9	-54.4	3.6	0.00e+00	0	38	104	0	60	88595
2026-01-01 09:33:51.40	156.52	42.68	-52.0	-54.4	3.6	0.00e+00	0	38	104	0	60	88884
2026-01-01 09:33:52.41	156.48	43.11	-52.0	-54.4	3.6	0.00e+00	0	38	104	0	60	88909
2026-01-01 09:33:53.42	156.43	43.55	-51.9	-54.4	3.6	0.00e+00	0	38	104	0	60	88285
2026-01-01 09:33:54.43	156.39	44.00	-51.9	-54.4	3.6	0.00e+00	0	38	104	0	60	88338
2026-01-01 09:33:55.44	156.34	44.45	-51.9	-54.4	3.6	0.00e+00	0	38	104	0	60	88469
2026-01-01 09:33:56.45	156.29	44.91	-51.9	-54.4	3.6	0.00e+00	0	38	104	0	60	88340
2026-01-01 09:33:57.46	156.23	45.37	-51.9	-54.3	3.6	0.00e+00	0	38	104	0	60	88172
2026-01-01 09:33:58.47	156.18	45.84	-51.9	-54.4	3.6	0.00e+00	0	39	104	0	60	88687
2026-01-01 09:33:59.48	156.13	46.32	-51.9	-54.4	3.6	0.00e+00	0	39	104	0	60	88646
2026-01-01 09:34:00.49	156.07	46.80	-51.9	-54.4	3.6	0.00e+00	0	38	104	0	60	88467
2026-01-01 09:34:01.51	156.01	47.29	-51.9	-54.4	3.6	0.00e+00	0	38	104	0	60	88275
2026-01-01 09:34:02.52	155.95	47.79	-51.9	-54.4	3.6	0.00e+00	0	38	104	0	60	88358
2026-01-01 09:34:03.53	155.89	48.29	-51.9	-54.4	3.5	0.00e+00	0	38	104	0	60	88496
2026-01-01 09:34:04.54	155.82	48.80	-51.9	-54.4	3.6	0.00e+00	0	38	104	0	60	88222
2026-01-01 09:34:05.55	155.75	49.31	-51.9	-54.3	3.6	0.00e+00	0	38	104	0	60	87837
2026-01-01 09:34:06.56	155.68	49.83	-51.9	-54.3	3.6	0.00e+00	0	38	104	0	60	87895
2026-01-01 09:34:07.57	155.61	50.36	-51.9	-54.4	3.6	0.00e+00	0	38	104	0	60	88377
2026-01-01 09:34:08.58	155.53	50.89	-51.9	-54.4	3.6	0.00e+00	0	39	104	0	60	88509
2026-01-01 09:34:09.59	155.45	51.43	-51.9	-54.4	3.6	0.00e+00	0	38	104	0	60	88492
2026-01-01 09:34:10.60	155.37	51.98	-51.9	-54.4	3.6	0.00e+00	0	38	104	0	60	88571
2026-01-01 09:34:11.61	155.29	52.53	-51.9	-54.4	3.6	0.00e+00	0	38	104	0	60	88386
2026-01-01 09:34:12.63	155.20	53.10	-51.9	-54.4	3.6	0.00e+00	0	38	104	0	60	88223
2026-01-01 09:34:13.63	155.11	53.66	-51.9	-54.3	3.6	0.00e+00	0	38	104	0	60	88132
2026-01-01 09:34:14.65	155.01	54.24	-51.9	-54.3	3.6	0.00e+00	0	38	104	0	60	87962
2026-01-01 09:34:15.66	154.91	54.82	-51.9	-54.4	3.6	0.00e+00	0	39	104	0	60	88246
2026-01-01 09:34:16.67	154.80	55.41	-51.9	-54.4	3.6	0.00e+00	0	39	104	0	60	88397
2026-01-01 09:34:17.68	154.69	56.01	-51.9	-54.4	3.6	0.00e+00	0	39	104	0	60	88251
2026-01-01 09:34:18.69	154.58	56.61	-51.9	-54.4	3.6	0.00e+00	0	39	104	0	60	88572
2026-01-01 09:34:19.70	154.46	57.22	-51.9	-54.4	3.6	0.00e+00	0	39	104	0	60	88760
2026-01-01 09:34:20.71	154.33	57.83	-51.9	-54.4	3.6	0.00e+00	0	38	104	0	60	88469
2026-01-01 09:34:21.72	154.20	58.46	-51.9	-54.4	3.6	0.00e+00	0	39	104	0	60	88747
2026-01-01 09:34:22.74	154.06	59.09	-51.9	-54.4	3.6	0.00e+00	0	38	104	0	60	88272
2026-01-01 09:34:23.75	153.91	59.73	-51.9	-54.4	3.6	0.00e+00	0	38	104	0	60	88895
2026-01-01 09:34:24.76	153.76	60.38	-52.0	-54.3	3.6	0.00e+00	0	38	104	0	60	88202
2026-01-01 09:34:25.77	153.60	61.03	-52.0	-54.5	3.6	0.00e+00	0	38	104	0	60	89337
2026-01-01 09:34:26.78	153.43	61.68	-52.0	-54.4	3.6	0.00e+00	0	39	104	0	60	89096
2026-01-01 09:34:27.79	153.25	62.35	-52.0	-54.4	3.6	0.00e+00	0	38	104	0	60	88688
2026-01-01 09:34:28.80	153.06	63.02	-52.0	-54.4	3.6	0.00e+00	0	38	104	0	60	89128
2026-01-01 09:34:29.81	152.85	63.70	-51.9	-54.3	3.6	0.00e+00	0	39	104	0	60	88192
2026-01-01 09:34:30.82	152.64	64.38	-52.0	-54.4	3.6	0.00e+00	0	38	104	0	60	88770
2026-01-01 09:34:31.83	152.41	65.08	-52.0	-54.4	3.6	0.00e+00	0	38	104	0	60	89219
2026-01-01 09:34:32.84	152.17	65.77	-51.9	-54.4	3.6	0.00e+00	0	39	104	0	60	89109
2026-01-01 09:34:33.85	151.91	66.48	-51.9	-54.4	3.5	0.00e+00	0	39	104	0	60	88618
2026-01-01 09:34:34.87	151.62	67.19	-52.0	-54.5	3.6	0.00e+00	0	39	104	0	60	89311
2026-01-01 09:34:35.88	151.33	67.91	-52.0	-54.4	3.6	0.00e+00	0	39	104	0	60	88531
2026-01-01 09:34:36.89	151.01	68.63	-51.9	-54.4	3.6	0.00e+00	0	39	104	0	60	88767
2026-01-01 09:34:37.90	150.66	69.36	-52.0	-54.5	3.6	0.00e+00	0	39	104	0	60	89459
2026-01-01 09:34:38.91	150.29	70.09	-51.9	-54.4	3.6	0.00e+00	0	39	104	0	60	88472
2026-01-01 09:34:39.92	149.88	70.83	-51.9	-54.4	3.6	0.00e+00	0	39	104	0	60	88428
2026-01-01 09:34:40.93	149.44	71.57	-51.9	-54.3	3.6	0.00e+00	0	39	104	0	60	88010
2026-01-01 09:34:41.94	148.96	72.32	-51.9	-54.4	3.6	0.00e+00	0	39	104	0	60	88545
2026-01-01 09:34:42.95	148.44	73.07	-51.9	-54.4	3.6	0.00e+00	0	39	104	0	60	88638
2026-01-01 09:34:43.97	147.85	73.83	-52.0	-54.4	3.6	0.00e+00	0	39	104	0	60	88828
2026-01-01 09:34:44.98	147.22	74.59	-51.9	-54.4	3.6	0.00e+00	0	38	104	0	60	88376
2026-01-01 09:34:45.99	146.51	75.35	-51.9	-54.4	3.6	0.00e+00	0	38	104	0	60	88795
2026-01-01 09:34:47.00	145.72	76.12	-51.9	-54.4	3.6	0.00e+00	0	39	104	0	60	88452
2026-01-01 09:34:48.01	144.84	76.88	-51.9	-54.4	3.6	0.00e+00	0	39	104	0	60	88628
2026-01-01 09:34:49.02	143.84	77.65	-52.0	-54.4	3.6	0.00e+00	0	39	104	0	60	88806
2026-01-01 09:34:50.03	142.71	78.41	-52.0	-54.5	3.6	0.00e+00	0	39	104	0	60	89557
2026-01-01 09:34:51.04	141.41	79.18	-51.9	-54.4	3.6	0.00e+00	0	39	104	0	60	88283
2026-01-01 09:34:52.05	139.91	79.94	-51.9	-54.4	3.6	0.00e+00	0	39	104	0	60	88583
2026-01-01 09:34:53.07	138.14	80.70	-51.9	-54.4	3.6	0.00e+00	0	38	104	0	60	88710
2026-01-01 09:34:54.08	136.07	81.45	-51.9	-54.4	3.6	0.00e+00	0	38	104	0	60	89029
2026-01-01 09:34:55.09	133.60	82.19	-51.9	-54.4	3.6	0.00e+00	0	39	104	0	60	88266
2026-01-01 09:34:56.10	130.62	82.91	-51.9	-54.4	3.6	0.00e+00	0	39	104	0	60	88643
2026-01-01 09:34:57.11	126.96	83.61	-51.9	-54.4	3.6	0.00e+00	0	39	104	0	60	88281
2026-01-01 09:34:58.12	122.41	84.28	-51.9	-54.3	3.6	0.00e+00	0	38	104	0	60	88103
2026-01-01 09:34:59.13	116.69	84.91	-51.9	-54.3	3.6	0.00e+00	0	38	104	0	60	88186
2026-01-01 09:35:00.14	109.45	85.48	-52.0	-54.4	3.6	0.00e+00	0	39	104	0	60	88928
2026-01-01 09:35:01.15	100.34	85.95	-51.9	-54.4	3.6	0.00e+00	0	39	104	0	60	88696
2026-01-01 09:35:02.16	89.18	86.29	-51.9	-54.4	3.6	0.00e+00	0	39	104	0	60	88825
2026-01-01 09:35:03.17	76.31	86.48	-52.0	-54.4	3.6	0.00e+00	0	39	104	0	60	88898
2026-01-01 09:35:04.18	62.81	86.47	-51.9	-54.4	3.6	0.00e+00	0	39	104	0	60	88231
2026-01-01 09:35:05.19	50.07	86.27	-51.9	-54.4	3.6	0.00e+00	0	39	104	0	60	88438
2026-01-01 09:35:06.21	38.99	85.91	-51.9	-54.3	3.6	0.00e+00	0	39	104	0	60	87813
2026-01-01 09:35:07.22	30.07	85.42	-51.9	-54.3	3.6	0.00e+00	0	39	104	0	60	87731
2026-01-01 09:35:08.23	23.00	84.85	-51.9	-54.4	3.6	0.00e+00	0	39	104	0	60	88227
2026-01-01 09:35:09.24	17.41	84.22	-51.9	-54.3	3.6	0.00e+00	0	39	104	0	60	88197
2026-01-01 09:35:10.25	12.97	83.55	-51.9	-54.3	3.6	0.00e+00	0	39	104	0	60	87851
2026-01-01 09:35:11.26	9.38	82.84	-51.9	-54.3	3.6	0.00e+00	0	39	104	0	60	88189
2026-01-01 09:35:12.27	6.46	82.12	-51.9	-54.3	3.6	0.00e+00	0	38	104	0	60	88173
2026-01-01 09:35:13.28	4.03	81.38	-51.9	-54.3	3.6	0.00e+00	0	38	104	0	60	88074
2026-01-01 09:35:14.29	2.00	80.63	-51.9	-54.4	3.6	0.00e+00	0	39	104	0	60	88800
2026-01-01 09:35:15.30	0.27	79.87	-51.9	-54.4	3.6	0.00e+00	0	39	104	0	60	88311
2026-01-01 09:35:16.31	358.79	79.11	-51.9	-54.3	3.6	0.00e+00	0	39	104	0	60	87642
2026-01-01 09:35:17.32	357.51	78.35	-51.9	-54.3	3.6	0.00e+00	0	39	104	0	60	88024
2026-01-01 09:35:18.33	356.39	77.59	-51.9	-54.4	3.6	0.00e+00	0	39	104	0	60	88426
2026-01-01 09:35:19.34	355.40	76.82	-51.9	-54.4	3.6	0.00e+00	0	39	104	0	60	88447
2026-01-01 09:35:20.35	354.53	76.06	-51.9	-54.4	3.6	0.00e+00	0	39	104	0	60	88456
2026-01-01 09:35:21.36	353.75	75.29	-51.9	-54.4	3.6	0.00e+00	0	39	104	0	60	88233
2026-01-01 09:35:22.37	353.05	74.53	-51.9	-54.3	3.6	0.00e+00	0	38	104	0	60	88172
2026-01-01 09:35:23.38	352.42	73.78	-51.9	-54.4	3.5	0.00e+00	0	39	104	0	60	88257
2026-01-01 09:35:24.39	351.84	73.02	-51.9	-54.4	3.6	0.00e+00	0	39	104	0	60	88308
2026-01-01 09:35:25.41	351.32	72.27	-51.9	-54.4	3.6	0.00e+00	0	39	104	0	60	88902
2026-01-01 09:35:26.42	350.84	71.52	-51.9	-54.4	3.6	0.00e+00	0	39	104	0	60	88635
2026-01-01 09:35:27.43	350.40	70.78	-51.9	-54.4	3.6	0.00e+00	0	39	104	0	60	88468
2026-01-01 09:35:28.44	350.00	70.04	-51.9	-54.4	3.6	0.00e+00	0	39	104	0	60	88232
2026-01-01 09:35:29.45	349.63	69.31	-51.9	-54.4	3.6	0.00e+00	0	39	104	0	60	88467
2026-01-01 09:35:30.46	349.29	68.59	-51.9	-54.4	3.6	0.00e+00	0	39	104	0	60	88573
2026-01-01 09:35:31.47	348.97	67.87	-51.9	-54.4	3.6	0.00e+00	0	39	104	0	60	88362
2026-01-01 09:35:32.48	348.67	67.15	-51.9	-54.4	3.6	0.00e+00	0	39	104	0	60	88502
2026-01-01 09:35:33.49	348.40	66.44	-51.9	-54.3	3.6	0.00e+00	0	39	104	0	60	87838
2026-01-01 09:35:34.50	348.14	65.74	-51.9	-54.3	3.6	0.00e+00	0	39	104	0	60	88213
2026-01-01 09:35:35.52	347.89	65.04	-51.9	-54.4	3.6	0.00e+00	0	39	104	0	60	88420
2026-01-01 09:35:36.53	347.67	64.35	-51.9	-54.4	3.6	0.00e+00	0	39	104	0	60	88577
2026-01-01 09:35:37.54	347.45	63.67	-51.9	-54.4	3.6	0.00e+00	0	39	104	0	60	88357
2026-01-01 09:35:38.55	347.25	62.99	-51.9	-54.4	3.6	0.00e+00	0	39	104	0	60	88271
2026-01-01 09:35:39.56	347.06	62.32	-51.9	-54.3	3.6	0.00e+00	0	39	104	0	60	87408
2026-01-01 09:35:40.57	346.88	61.66	-51.9	-54.3	3.6	0.00e+00	0	39	104	0	60	87604
2026-01-01 09:35:41.58	346.71	61.00	-51.9	-54.3	3.6	0.00e+00	0	39	104	0	60	87900
2026-01-01 09:35:42.59	346.55	60.35	-51.9	-54.3	3.6	0.00e+00	0	39	104	0	60	87731
2026-01-01 09:35:43.60	346.40	59.71	-51.9	-54.3	3.6	0.00e+00	0	39	104	0	60	88173
2026-01-01 09:35:44.61	346.25	59.07	-51.9	-54.4	3.6	0.00e+00	0	39	104	0	60	88517
2026-01-01 09:35:45.62	346.11	58.44	-51.9	-54.3	3.6	0.00e+00	0	39	104	0	60	87773
2026-01-01 09:35:46.63	345.98	57.82	-51.9	-54.3	3.6	0.00e+00	0	39	104	0	60	87743
2026-01-01 09:35:47.64	345.86	57.21	-51.9	-54.4	3.6	0.00e+00	0	39	104	0	60	88677
2026-01-01 09:35:48.66	345.74	56.60	-51.9	-54.4	3.6	0.00e+00	0	39	104	0	60	88359
2026-01-01 09:35:49.67	345.62	56.00	-51.9	-54.3	3.6	0.00e+00	0	39	104	0	60	87422
2026-01-01 09:35:50.68	345.51	55.40	-51.9	-54.4	3.6	0.00e+00	0	39	104	0	60	88656
2026-01-01 09:35:51.69	345.41	54.82	-51.9	-54.3	3.6	0.00e+00	0	39	104	0	60	88167
2026-01-01 09:35:52.70	345.31	54.24	-51.9	-54.4	3.5	0.00e+00	0	39	104	0	60	88686
2026-01-01 09:35:53.71	345.21	53.66	-51.9	-54.4	3.6	0.00e+00	0	39	104	0	60	88354
2026-01-01 09:35:54.72	345.12	53.10	-51.9	-54.3	3.5	0.00e+00	0	39	104	0	60	87837
2026-01-01 09:35:55.73	345.03	52.54	-51.9	-54.4	3.6	0.00e+00	0	39	104	0	60	88295
2026-01-01 09:35:56.74	344.95	51.99	-51.9	-54.3	3.5	0.00e+00	0	39	104	0	60	87941
2026-01-01 09:35:57.75	344.87	51.44	-51.9	-54.4	3.6	0.00e+00	0	39	104	0	60	88503
2026-01-01 09:35:58.76	344.79	50.90	-51.9	-54.3	3.6	0.00e+00	0	39	104	0	60	88110
2026-01-01 09:35:59.77	344.71	50.37	-51.9	-54.3	3.6	0.00e+00	0	39	104	0	60	88125
2026-01-01 09:36:00.78	344.64	49.85	-51.9	-54.4	3.6	0.00e+00	0	39	104	0	60	88624
2026-01-01 09:36:01.80	344.57	49.32	-51.9	-54.4	3.6	0.00e+00	0	39	104	0	60	88752
2026-01-01 09:36:02.80	344.50	48.82	-51.9	-54.4	3.6	0.00e+00	0	39	104	0	60	88450
2026-01-01 09:36:03.82	344.44	48.31	-51.9	-54.4	3.6	0.00e+00	0	39	104	0	60	88764
2026-01-01 09:36:04.83	344.37	47.81	-51.9	-54.3	3.6	0.00e+00	0	39	104	0	60	88071
2026-01-01 09:36:05.84	344.31	47.31	-51.9	-54.4	3.6	0.00e+00	0	39	104	0	60	88305
2026-01-01 09:36:06.85	344.25	46.83	-51.9	-54.3	3.6	0.00e+00	0	39	104	0	60	88155
2026-01-01 09:36:07.86	344.20	46.35	-51.9	-54.4	3.6	0.00e+00	0	39	104	0	60	88892
2026-01-01 09:36:08.87	344.14	45.87	-51.9	-54.3	3.6	0.00e+00	0	39	104	0	60	88145
2026-01-01 09:36:09.88	344.09	45.40	-51.9	-54.3	3.6	0.00e+00	0	39	104	0	60	88135
2026-01-01 09:36:10.89	344.04	44.94	-51.9	-54.4	3.6	0.00e+00	0	39	104	0	60	88699
2026-01-01 09:36:11.90	343.99	44.49	-51.9	-54.3	3.6	0.00e+00	0	39	104	0	60	87730
2026-01-01 09:36:12.91	343.94	44.04	-51.9	-54.3	3.6	0.00e+00	0	39	104	0	60	87725
2026-01-01 09:36:13.92	343.89	43.59	-51.9	-54.3	3.6	0.00e+00	0	39	104	0	60	88179
2026-01-01 09:36:14.93	343.85	43.15	-51.9	-54.4	3.6	0.00e+00	0	39	104	0	60	88243
2026-01-01 09:36:15.94	343.80	42.72	-51.9	-54.3	3.6	0.00e+00	0	39	104	0	60	87856
2026-01-01 09:36:16.95	343.76	42.29	-51.9	-54.4	3.5	0.00e+00	0	39	104	0	60	88476
2026-01-01 09:36:17.96	343.72	41.87	-51.9	-54.3	3.6	0.00e+00	0	39	104	0	60	88098
2026-01-01 09:36:18.97	343.68	41.45	-51.9	-54.4	3.6	0.00e+00	0	39	104	0	60	88239
2026-01-01 09:36:19.98	343.64	41.04	-51.9	-54.3	3.6	0.00e+00	0	39	104	0	60	87894
2026-01-01 09:36:20.99	343.60	40.63	-51.9	-54.4	3.6	0.00e+00	0	39	104	0	60	88322
2026-01-01 09:36:22.00	343.57	40.23	-51.9	-54.3	3.6	0.00e+00	0	39	104	0	60	88058
2026-01-01 09:36:23.01	343.53	39.83	-51.9	-54.3	3.6	0.00e+00	0	39	104	0	60	88209
2026-01-01 09:36:24.02	343.50	39.44	-51.9	-54.3	3.6	0.00e+00	0	39	104	0	60	87957
2026-01-01 09:36:25.03	343.46	39.06	-51.9	-54.4	3.6	0.00e+00	0	39	104	0	60	88230
2026-01-01 09:36:26.04	343.43	38.67	-51.9	-54.4	3.6	0.00e+00	0	39	104	0	60	88340
2026-01-01 09:36:27.05	343.40	38.30	-51.9	-54.4	3.6	0.00e+00	0	39	104	0	60	88349
2026-01-01 09:36:28.07	343.37	37.92	-51.9	-54.4	3.6	0.00e+00	0	39	104	0	60	88452
2026-01-01 09:36:29.08	343.34	37.55	-51.9	-54.4	3.5	0.00e+00	0	39	104	0	60	88390
2026-01-01 09:36:30.09	343.31	37.19	-51.9	-54.4	3.6	0.00e+00	0	39	104	0	60	88303
2026-01-01 09:36:31.10	343.28	36.83	-51.9	-54.4	3.6	0.00e+00	0	39	104	0	60	89028
2026-01-01 09:36:32.11	343.25	36.48	-51.9	-54.4	3.6	0.00e+00	0	39	104	0	60	88523
2026-01-01 09:36:33.12	343.22	36.13	-51.9	-54.3	3.6	0.00e+00	0	39	104	0	60	88002
2026-01-01 09:36:34.13	343.20	35.78	-51.9	-54.4	3.6	0.00e+00	0	39	104	0	60	88729
2026-01-01 09:36:35.14	343.17	35.44	-51.9	-54.4	3.6	0.00e+00	0	39	104	0	60	88392
2026-01-01 09:36:36.15	343.15	35.10	-51.9	-54.4	3.6	0.00e+00	0	39	104	0	60	88798
2026-01-01 09:36:37.16	343.12	34.77	-51.9	-54.4	3.6	0.00e+00	0	39	104	0	60	88309
2026-01-01 09:36:38.17	343.10	34.44	-51.9	-54.3	3.6	0.00e+00	0	39	104	0	60	87833
2026-01-01 09:36:39.18	343.07	34.12	-51.9	-54.3	3.6	0.00e+00	0	39	104	0	60	88062
2026-01-01 09:36:40.19	343.05	33.80	-51.9	-54.3	3.6	0.00e+00	0	39	104	0	60	88207
2026-01-01 09:36:41.20	343.03	33.48	-51.9	-54.3	3.6	0.00e+00	0	39	104	0	60	87859
2026-01-01 09:36:42.21	343.01	33.16	-51.9	-54.4	3.6	0.00e+00	0	39	104	0	60	88434
2026-01-01 09:36:43.22	342.99	32.85	-51.9	-54.4	3.5	0.00e+00	0	39	104	0	60	88450
2026-01-01 09:36:44.24	342.96	32.55	-51.9	-54.4	3.6	0.00e+00	0	39	104	0	60	88290
2026-01-01 09:36:45.24	342.94	32.25	-51.9	-54.4	3.6	0.00e+00	0	39	104	0	60	88408
2026-01-01 09:36:46.25	342.92	31.95	-51.9	-54.4	3.6	0.00e+00	0	39	104	0	60	88603
2026-01-01 09:36:47.27	342.90	31.65	-51.9	-54.4	3.6	0.00e+00	0	39	104	0	60	88919
2026-01-01 09:36:48.28	342.89	31.36	-51.9	-54.4	3.6	0.00e+00	0	39	104	0	60	88847
2026-01-01 09:36:49.29	342.87	31.07	-51.9	-54.3	3.6	0.00e+00	0	39	104	0	60	87749
2026-01-01 09:36:50.30	342.85	30.78	-51.9	-54.4	3.6	0.00e+00	0	39	104	0	60	88308
2026-01-01 09:36:51.31	342.83	30.50	-51.9	-54.4	3.6	0.00e+00	0	39	104	0	60	88373
2026-01-01 09:36:52.32	342.81	30.22	-51.9	-54.4	3.6	0.00e+00	0	39	104	0	60	88466
2026-01-01 09:36:53.33	342.80	29.94	-51.9	-54.4	3.6	0.00e+00	0	39	104	0	60	88440
2026-01-01 09:36:54.34	342.78	29.67	-51.9	-54.4	3.6	0.00e+00	0	39	104	0	60	88578
2026-01-01 09:36:55.35	342.77	29.40	-51.9	-54.3	3.6	0.00e+00	0	39	104	0	60	88047
2026-01-01 09:36:56.36	342.75	29.13	-51.9	-54.3	3.6	0.00e+00	0	39	104	0	60	87738
2026-01-01 09:36:57.37	342.73	28.87	-51.9	-54.3	3.6	0.00e+00	0	39	104	0	60	88005
2026-01-01 09:36:58.38	342.72	28.61	-51.9	-54.3	3.6	0.00e+00	0	39	104	0	60	87880
2026-01-01 09:36:59.39	342.70	28.35	-51.9	-54.3	3.6	0.00e+00	0	39	104	0	60	88197
2026-01-01 09:37:00.40	342.69	28.10	-51.9	-54.4	3.6	0.00e+00	0	39	104	0	60	88431
2026-01-01 09:37:01.41	342.68	27.84	-51.9	-54.3	3.6	0.00e+00	0	39	104	0	60	88193
2026-01-01 09:37:02.42	342.66	27.59	-51.9	-54.3	3.6	0.00e+00	0	39	104	0	60	87972
2026-01-01 09:37:03.43	342.65	27.35	-51.9	-54.3	3.6	0.00e+00	0	39	104	0	60	87969
2026-01-01 09:37:04.44	342.64	27.10	-51.9	-54.4	3.6	0.00e+00	0	39	104	0	60	88269
2026-01-01 09:37:05.46	342.62	26.86	-51.9	-54.3	3.6	0.00e+00	0	39	104	0	60	87804
2026-01-01 09:37:06.47	342.61	26.62	-51.9	-54.3	3.5	0.00e+00	0	39	104	0	60	87904
2026-01-01 09:37:07.48	342.60	26.38	-51.9	-54.3	3.6	0.00e+00	0	39	104	0	60	87785
2026-01-01 09:37:08.49	342.59	26.15	-51.9	-54.3	3.6	0.00e+00	0	39	104	0	60	88145
2026-01-01 09:37:09.50	342.57	25.91	-51.9	-54.3	3.6	0.00e+00	0	39	104	0	60	88085
2026-01-01 09:37:10.51	342.56	25.68	-51.9	-54.4	3.6	0.00e+00	0	39	104	0	60	88275
2026-01-01 09:37:11.52	342.55	25.46	-51.9	-54.4	3.6	0.00e+00	0	39	104	0	60	88431
2026-01-01 09:37:12.53	342.54	25.23	-51.9	-54.4	3.6	0.00e+00	0	39	104	0	60	88246
2026-01-01 09:37:13.54	342.53	25.01	-51.9	-54.3	3.6	0.00e+00	0	39	104	0	60	88070
2026-01-01 09:37:14.55	342.52	24.79	-51.9	-54.4	3.6	0.00e+00	0	39	104	0	60	88822
2026-01-01 09:37:15.56	342.51	24.57	-51.9	-54.4	3.6	0.00e+00	0	39	104	0	60	88344
2026-01-01 09:37:16.57	342.50	24.35	-51.9	-54.3	3.6	0.00e+00	0	39	104	0	60	87571
2026-01-01 09:37:17.58	342.49	24.14	-51.9	-54.4	3.6	0.00e+00	0	39	104	0	60	88637
2026-01-01 09:37:18.60	342.48	23.93	-51.9	-54.3	3.6	0.00e+00	0	39	104	0	60	88171
2026-01-01 09:37:19.60	342.47	23.72	-51.9	-54.3	3.6	0.00e+00	0	39	104	0	60	87651
2026-01-01 09:37:20.61	342.46	23.51	-51.9	-54.3	3.6	0.00e+00	0	39	104	0	60	87887
2026-01-01 09:37:21.63	342.45	23.30	-51.8	-54.3	3.6	0.00e+00	0	39	104	0	60	87895
2026-01-01 09:37:22.64	342.44	23.10	-51.8	-54.3	3.6	0.00e+00	0	39	104	0	60	88103
2026-01-01 09:37:23.64	342.43	22.90	-51.9	-54.3	3.6	0.00e+00	0	39	104	0	60	87913
2026-01-01 09:37:24.65	342.42	22.70	-51.9	-54.4	3.6	0.00e+00	0	39	104	0	60	88414
2026-01-01 09:37:25.66	342.42	22.50	-51.9	-54.3	3.6	0.00e+00	0	39	104	0	60	87893
2026-01-01 09:37:26.67	342.41	22.30	-51.9	-54.3	3.6	0.00e+00	0	39	104	0	60	87754
2026-01-01 09:37:27.68	342.40	22.11	-51.9	-54.3	3.6	0.00e+00	0	39	104	0	60	87926
2026-01-01 09:37:28.69	342.39	21.92	-51.9	-54.3	3.6	0.00e+00	0	39	104	0	60	87731
2026-01-01 09:37:29.71	342.38	21.72	-51.9	-54.3	3.6	0.00e+00	0	39	104	0	60	87483
2026-01-01 09:37:30.72	342.38	21.54	-51.9	-54.3	3.6	0.00e+00	0	39	104	0	60	87858
2026-01-01 09:37:31.73	342.37	21.35	-51.9	-54.3	3.6	0.00e+00	0	39	104	0	60	87657
2026-01-01 09:37:32.74	342.36	21.16	-51.9	-54.3	3.6	0.00e+00	0	39	104	0	60	87681
2026-01-01 09:37:33.75	342.35	20.98	-51.9	-54.3	3.6	0.00e+00	0	39	104	0	60	87857
2026-01-01 09:37:34.76	342.35	20.80	-51.8	-54.3	3.6	0.00e+00	0	39	104	0	60	87300
2026-01-01 09:37:35.77	342.34	20.62	-51.8	-54.3	3.6	0.00e+00	0	39	104	0	60	87388
2026-01-01 09:37:36.78	342.33	20.44	-51.8	-54.3	3.6	0.00e+00	0	39	104	0	60	87848
2026-01-01 09:37:37.79	342.33	20.26	-51.9	-54.3	3.6	0.00e+00	0	39	104	0	60	87883
2026-01-01 09:37:38.80	342.32	20.08	-51.9	-54.3	3.6	0.00e+00	0	39	104	0	60	88122
2026-01-01 09:37:39.81	342.31	19.91	-51.9	-54.3	3.6	0.00e+00	0	39	104	0	60	87946
2026-01-01 09:37:40.83	342.31	19.73	-51.9	-54.3	3.6	0.00e+00	0	39	104	0	60	87779
2026-01-01 09:37:41.84	342.30	19.56	-51.9	-54.3	3.6	0.00e+00	0	39	104	0	60	87761
2026-01-01 09:37:42.85	342.30	19.39	-51.9	-54.3	3.6	0.00e+00	0	39	104	0	60	88057
2026-01-01 09:37:43.86	342.29	19.22	-51.8	-54.3	3.6	0.00e+00	0	39	104	0	60	87446
2026-01-01 09:37:44.87	342.28	19.06	-51.8	-54.3	3.6	0.00e+00	0	39	104	0	60	87484
2026-01-01 09:37:45.88	342.28	18.89	-51.8	-54.3	3.6	0.00e+00	0	39	104	0	60	87789
2026-01-01 09:37:46.89	342.27	18.73	-51.8	-54.3	3.6	0.00e+00	0	39	104	0	60	87945
2026-01-01 09:37:47.90	342.27	18.56	-51.8	-54.3	3.6	0.00e+00	0	39	104	0	60	88024
2026-01-01 09:37:48.91	342.26	18.40	-51.8	-54.3	3.6	0.00e+00	0	39	104	0	60	87942
2026-01-01 09:37:49.92	342.26	18.24	-51.9	-54.3	3.6	0.00e+00	0	39	104	0	60	87761
2026-01-01 09:37:50.93	342.25	18.08	-51.8	-54.3	3.6	0.00e+00	0	39	104	0	60	87659
2026-01-01 09:37:51.94	342.25	17.92	-51.8	-54.3	3.6	0.00e+00	0	39	104	0	60	87662
2026-01-01 09:37:52.95	342.24	17.77	-51.8	-54.3	3.6	0.00e+00	0	39	104	0	60	87433
2026-01-01 09:37:53.96	342.24	17.61	-51.8	-54.3	3.6	0.00e+00	0	39	104	0	60	87439
2026-01-01 09:37:54.97	342.23	17.46	-51.8	-54.3	3.6	0.00e+00	0	39	104	0	60	87860
2026-01-01 09:37:55.98	342.23	17.30	-51.8	-54.2	3.6	0.00e+00	0	39	104	0	60	87080
2026-01-01 09:37:56.99	342.23	17.15	-51.8	-54.3	3.6	0.00e+00	0	39	104	0	60	87281
2026-01-01 09:37:58.00	342.22	17.00	-51.8	-54.3	3.6	0.00e+00	0	39	104	0	60	87485
2026-01-01 09:37:59.01	342.22	16.85	-51.8	-54.3	3.6	0.00e+00	0	39	104	0	60	87310
2026-01-01 09:38:00.02	342.21	16.70	-51.8	-54.3	3.6	0.00e+00	0	39	104	0	60	87734
2026-01-01 09:38:01.04	342.21	16.56	-51.8	-54.3	3.6	0.00e+00	0	39	104	0	60	87797
2026-01-01 09:38:02.05	342.21	16.41	-51.8	-54.3	3.6	0.00e+00	0	39	104	0	60	87498
2026-01-01 09:38:03.06	342.20	16.26	-51.8	-54.3	3.6	0.00e+00	0	39	104	0	60	87593
2026-01-01 09:38:04.07	342.20	16.12	-51.8	-54.3	3.6	0.00e+00	0	39	104	0	60	87507
2026-01-01 09:38:05.08	342.19	15.98	-51.8	-54.3	3.6	0.00e+00	0	39	104	0	60	87631
2026-01-01 09:38:06.09	342.19	15.84	-51.8	-54.3	3.6	0.00e+00	0	39	104	0	60	87485
2026-01-01 09:38:07.10	342.19	15.70	-51.8	-54.3	3.6	0.00e+00	0	39	104	0	60	87354
2026-01-01 09:38:08.11	342.18	15.56	-51.8	-54.3	3.6	0.00e+00	0	39	104	0	60	87747
2026-01-01 09:38:09.12	342.18	15.42	-51.8	-54.3	3.6	0.00e+00	0	39	104	0	60	87495
2026-01-01 09:38:10.13	342.18	15.28	-51.8	-54.3	3.6	0.00e+00	0	39	104	0	60	87239
2026-01-01 09:38:11.14	342.18	15.14	-51.8	-54.2	3.6	0.00e+00	0	39	104	0	60	87020
2026-01-01 09:38:12.15	342.17	15.01	-51.8	-54.2	3.6	0.00e+00	0	39	104	0	60	87189
2026-01-01 09:38:13.16	342.17	14.87	-51.8	-54.2	3.6	0.00e+00	0	39	104	0	60	87035
2026-01-01 09:38:14.17	342.17	14.74	-51.8	-54.3	3.6	0.00e+00	0	39	104	0	60	87586
2026-01-01 09:38:15.18	342.16	14.61	-51.8	-54.2	3.6	0.00e+00	0	39	104	0	60	87044
2026-01-01 09:38:16.20	342.16	14.47	-51.8	-54.3	3.6	0.00e+00	0	39	104	0	60	88080
2026-01-01 09:38:17.21	342.16	14.34	-51.8	-54.3	3.6	0.00e+00	0	39	104	0	60	87511
2026-01-01 09:38:18.22	342.16	14.21	-51.8	-54.3	3.6	0.00e+00	0	39	104	0	60	88179
2026-01-01 09:38:19.23	342.15	14.08	-51.8	-54.3	3.6	0.00e+00	0	39	104	0	60	88184
2026-01-01 09:38:20.24	342.15	13.95	-51.8	-54.3	3.6	0.00e+00	0	39	104	0	60	87590
2026-01-01 09:38:21.25	342.15	13.83	-51.8	-54.2	3.6	0.00e+00	0	39	104	0	60	86936
2026-01-01 09:38:22.26	342.15	13.70	-51.8	-54.2	3.6	0.00e+00	0	39	104	0	60	87114
2026-01-01 09:38:23.27	342.14	13.57	-51.8	-54.3	3.6	0.00e+00	0	39	104	0	60	87984
2026-01-01 09:38:24.28	342.14	13.45	-51.8	-54.3	3.6	0.00e+00	0	39	104	0	60	87866
2026-01-01 09:38:25.29	342.14	13.32	-51.8	-54.3	3.6	0.00e+00	0	39	104	0	60	87371
2026-01-01 09:38:26.30	342.14	13.20	-51.8	-54.3	3.6	0.00e+00	0	39	104	0	60	88109
2026-01-01 09:38:27.31	342.14	13.08	-51.8	-54.3	3.6	0.00e+00	0	39	104	0	60	87507
2026-01-01 09:38:28.32	342.13	12.96	-51.8	-54.3	3.6	0.00e+00	0	39	104	0	60	87316
2026-01-01 09:38:29.34	342.13	12.83	-51.8	-54.3	3.6	0.00e+00	0	39	104	0	60	87523
2026-01-01 09:38:30.35	342.13	12.71	-51.9	-54.3	3.6	0.00e+00	0	39	104	0	60	87582
2026-01-01 09:38:31.36	342.13	12.59	-51.9	-54.3	3.6	0.00e+00	0	39	104	0	60	87402
2026-01-01 09:38:32.37	342.13	12.48	-51.8	-54.3	3.6	0.00e+00	0	39	104	0	60	88044
2026-01-01 09:38:33.38	342.12	12.36	-51.9	-54.3	3.6	0.00e+00	0	39	104	0	60	87551
2026-01-01 09:38:34.39	342.12	12.24	-51.9	-54.3	3.6	0.00e+00	0	39	104	0	60	87868
2026-01-01 09:38:35.40	342.12	12.12	-51.9	-54.3	3.6	0.00e+00	0	39	104	0	60	87404
2026-01-01 09:38:36.41	342.12	12.01	-51.9	-54.3	3.6	0.00e+00	0	39	104	0	60	87928
2026-01-01 09:38:37.42	342.12	11.89	-51.8	-54.3	3.6	0.00e+00	0	39	104	0	60	87680
2026-01-01 09:38:38.43	342.12	11.78	-51.9	-54.3	3.6	0.00e+00	0	39	104	0	60	87971
2026-01-01 09:38:39.44	342.12	11.66	-51.8	-54.3	3.6	0.00e+00	0	39	104	0	60	87523
2026-01-01 09:38:40.46	342.11	11.55	-51.8	-54.3	3.6	0.00e+00	0	39	104	0	60	87560
2026-01-01 09:38:41.47	342.11	11.44	-51.9	-54.3	3.6	0.00e+00	0	39	104	0	60	88018
2026-01-01 09:38:42.48	342.11	11.33	-51.9	-54.3	3.6	0.00e+00	0	39	104	0	60	87992
2026-01-01 09:38:43.49	342.11	11.22	-51.9	-54.3	3.6	0.00e+00	0	39	104	0	60	87739
2026-01-01 09:38:44.50	342.11	11.10	-51.9	-54.3	3.6	0.00e+00	0	39	104	0	60	88039
2026-01-01 09:38:45.51	342.11	10.99	-51.9	-54.3	3.6	0.00e+00	0	39	104	0	60	88144
2026-01-01 09:38:46.52	342.11	10.89	-51.8	-54.3	3.6	0.00e+00	0	39	104	0	60	87597
2026-01-01 09:38:47.53	342.11	10.78	-51.9	-54.3	3.6	0.00e+00	0	39	104	0	60	88191
2026-01-01 09:38:48.54	342.11	10.67	-51.9	-54.3	3.6	0.00e+00	0	39	104	0	60	87903
2026-01-01 09:38:49.55	342.10	10.56	-51.9	-54.3	3.6	0.00e+00	0	39	104	0	60	87972
2026-01-01 09:38:50.57	342.10	10.45	-51.9	-54.3	3.6	0.00e+00	0	39	104	0	60	88050
2026-01-01 09:38:51.57	342.10	10.35	-51.8	-54.3	3.6	0.00e+00	0	39	104	0	60	87959
2026-01-01 09:38:52.59	342.10	10.24	-51.9	-54.4	3.6	0.00e+00	0	39	104	0	60	88361
2026-01-01 09:38:53.60	342.10	10.14	-51.8	-54.3	3.6	0.00e+00	0	39	104	0	60	87563
2026-01-01 09:38:54.60	342.10	10.03	-51.8	-54.3	3.6	0.00e+00	0	39	104	0	60	88058
2026-01-01 09:38:55.62	342.10	9.93	-51.9	-54.3	3.6	0.00e+00	0	39	104	0	60	87652
2026-01-01 09:38:56.63	342.10	9.83	-51.9	-54.3	3.6	0.00e+00	0	39	104	0	60	87645
2026-01-01 09:38:57.64	342.10	9.72	-51.8	-54.3	3.6	0.00e+00	0	39	104	0	60	87593
2026-01-01 09:38:58.65	342.10	9.62	-51.9	-54.3	3.6	0.00e+00	0	39	104	0	60	88009
2026-01-01 09:38:59.66	342.10	9.52	-51.9	-54.3	3.6	0.00e+00	0	39	104	0	60	88084
2026-01-01 09:39:00.67	342.10	9.42	-51.9	-54.3	3.6	0.00e+00	0	39	104	0	60	87751
2026-01-01 09:39:01.68	342.10	9.32	-51.8	-54.3	3.6	0.00e+00	0	39	104	0	60	87380
2026-01-01 09:39:02.69	342.10	9.22	-51.8	-54.2	3.6	0.00e+00	0	39	104	0	60	86694
2026-01-01 09:39:03.70	342.10	9.12	-51.8	-54.3	3.6	0.00e+00	0	39	104	0	60	87264
2026-01-01 09:39:04.71	342.10	9.02	-51.8	-54.2	3.6	0.00e+00	0	39	104	0	60	86593
2026-01-01 09:39:05.72	342.10	8.92	-51.8	-54.2	3.6	0.00e+00	0	39	104	0	60	86990
2026-01-01 09:39:06.73	342.10	8.82	-51.8	-54.3	3.6	0.00e+00	0	39	104	0	60	87482
2026-01-01 09:39:07.75	342.10	8.73	-51.9	-54.3	3.6	0.00e+00	0	39	104	0	60	87886
2026-01-01 09:39:08.76	342.10	8.63	-51.9	-54.3	3.6	0.00e+00	0	39	104	0	60	87616
2026-01-01 09:39:09.77	342.10	8.53	-51.9	-54.3	3.6	0.00e+00	0	39	104	0	60	87927
2026-01-01 09:39:10.78	342.10	8.44	-51.8	-54.3	3.6	0.00e+00	0	39	104	0	60	87394
2026-01-01 09:39:11.79	342.10	8.34	-51.8	-54.3	3.6	0.00e+00	0	39	104	0	60	87552
2026-01-01 09:39:12.80	342.10	8.25	-51.8	-54.3	3.6	0.00e+00	0	39	104	0	60	87869
2026-01-01 09:39:13.81	342.10	8.15	-51.8	-54.2	3.5	0.00e+00	0	39	104	0	60	87013
2026-01-01 09:39:14.82	342.10	8.06	-51.8	-54.3	3.6	0.00e+00	0	39	104	0	60	88129
2026-01-01 09:39:15.82	342.10	7.96	-51.8	-54.2	3.6	0.00e+00	0	39	104	0	60	86786
2026-01-01 09:39:16.84	342.10	7.87	-51.8	-54.3	3.6	0.00e+00	0	39	104	0	60	87489
2026-01-01 09:39:17.85	342.10	7.78	-51.8	-54.3	3.6	0.00e+00	0	39	104	0	60	88006
2026-01-01 09:39:18.85	342.10	7.69	-51.8	-54.3	3.6	0.00e+00	0	39	104	0	60	87622
2026-01-01 09:39:19.87	342.10	7.59	-51.8	-54.3	3.6	0.00e+00	0	39	104	0	60	87898
2026-01-01 09:39:20.88	342.10	7.50	-51.8	-54.3	3.6	0.00e+00	0	39	104	0	60	87568
2026-01-01 09:39:21.89	342.10	7.41	-51.8	-54.3	3.6	0.00e+00	0	39	104	0	60	87538
2026-01-01 09:39:22.90	342.10	7.32	-51.8	-54.3	3.6	0.00e+00	0	39	104	0	60	87387
2026-01-01 09:39:23.91	342.10	7.23	-51.8	-54.3	3.6	0.00e+00	0	39	104	0	60	87697
2026-01-01 09:39:24.92	342.10	7.14	-51.9	-54.3	3.6	0.00e+00	0	39	104	0	60	87934
2026-01-01 09:39:25.93	342.10	7.05	-51.8	-54.3	3.5	0.00e+00	0	39	104	0	60	87942
2026-01-01 09:39:26.94	342.10	6.96	-51.8	-54.3	3.6	0.00e+00	0	39	104	0	60	87392
2026-01-01 09:39:27.96	342.10	6.87	-51.8	-54.3	3.6	0.00e+00	0	39	104	0	60	87349
2026-01-01 09:39:28.97	342.10	6.78	-51.8	-54.3	3.6	0.00e+00	0	39	104	0	60	87310
2026-01-01 09:39:29.98	342.10	6.70	-51.8	-54.3	3.6	0.00e+00	0	39	104	0	60	87557
2026-01-01 09:39:30.99	342.10	6.61	-51.8	-54.3	3.6	0.00e+00	0	39	104	0	60	87793
2026-01-01 09:39:32.00	342.10	6.52	-51.8	-54.3	3.6	0.00e+00	0	39	104	0	60	87803
2026-01-01 09:39:33.01	342.10	6.44	-51.8	-54.3	3.6	0.00e+00	0	39	104	0	60	87633
2026-01-01 09:39:34.02	342.10	6.35	-51.8	-54.3	3.6	0.00e+00	0	39	104	0	60	88212
2026-01-01 09:39:35.03	342.10	6.26	-51.8	-54.4	3.6	0.00e+00	0	39	104	0	60	88350
2026-01-01 09:39:36.04	342.11	6.18	-51.8	-54.3	3.6	0.00e+00	0	39	104	0	60	88055
2026-01-01 09:39:37.05	342.11	6.09	-51.9	-54.3	3.6	0.00e+00	0	39	104	0	60	87472
2026-01-01 09:39:38.07	342.11	6.01	-51.9	-54.3	3.6	0.00e+00	0	39	104	0	60	87370
2026-01-01 09:39:39.08	342.11	5.92	-51.9	-54.3	3.6	0.00e+00	0	39	104	0	60	87799
2026-01-01 09:39:40.09	342.11	5.84	-51.9	-54.3	3.6	0.00e+00	0	39	104	0	60	87450
2026-01-01 09:39:41.10	342.11	5.76	-51.9	-54.3	3.6	0.00e+00	0	39	104	0	60	87718
2026-01-01 09:39:42.11	342.11	5.67	-51.8	-54.3	3.6	0.00e+00	0	39	104	0	60	87636
2026-01-01 09:39:43.12	342.11	5.59	-51.8	-54.3	3.6	0.00e+00	0	39	104	0	60	87469
2026-01-01 09:39:44.13	342.11	5.51	-51.9	-54.3	3.6	0.00e+00	0	39	104	0	60	87663
2026-01-01 09:39:45.14	342.11	5.42	-51.9	-54.3	3.6	0.00e+00	0	39	104	0	60	87846
2026-01-01 09:39:46.16	342.11	5.34	-51.9	-54.3	3.6	0.00e+00	0	39	104	0	60	87709
2026-01-01 09:39:47.17	342.12	5.26	-51.9	-54.3	3.6	0.00e+00	0	39	104	0	60	87684
2026-01-01 09:39:48.18	342.12	5.18	-51.9	-54.3	3.6	0.00e+00	0	39	104	0	60	87685
2026-01-01 09:39:49.19	342.12	5.10	-51.9	-54.3	3.6	0.00e+00	0	39	104	0	60	87783
2026-01-01 09:39:50.20	342.12	5.02	-51.9	-54.3	3.6	0.00e+00	0	39	104	0	60	87845
2026-01-01 09:39:51.21	342.12	4.94	-51.9	-54.3	3.6	0.00e+00	0	39	104	0	60	88038
2026-01-01 09:39:52.22	342.12	4.86	-51.8	-54.3	3.6	0.00e+00	0	39	104	0	60	87834
2026-01-01 09:39:53.23	342.12	4.78	-51.9	-54.3	3.6	0.00e+00	0	39	104	0	60	87595
2026-01-01 09:39:54.24	342.12	4.70	-51.9	-54.3	3.6	0.00e+00	0	39	104	0	60	87786
2026-01-01 09:39:55.25	342.12	4.62	-51.8	-54.3	3.6	0.00e+00	0	39	104	0	60	87396
2026-01-01 09:39:56.26	342.13	4.54	-51.9	-54.3	3.6	0.00e+00	0	39	104	0	60	87899
2026-01-01 09:39:57.27	342.13	4.46	-51.8	-54.3	3.6	0.00e+00	0	39	104	0	60	87480
2026-01-01 09:39:58.29	342.13	4.38	-51.8	-54.3	3.6	0.00e+00	0	39	104	0	60	87602
2026-01-01 09:39:59.30	342.13	4.30	-51.9	-54.3	3.6	0.00e+00	0	39	104	0	60	87421
2026-01-01 09:40:00.31	342.13	4.23	-51.9	-54.4	3.6	0.00e+00	0	39	104	0	60	88237
2026-01-01 09:40:01.32	342.13	4.15	-51.9	-54.3	3.6	0.00e+00	0	39	104	0	60	87873
2026-01-01 09:40:02.33	342.13	4.07	-51.9	-54.3	3.6	0.00e+00	0	39	104	0	60	88142
2026-01-01 09:40:03.34	342.13	3.99	-51.9	-54.3	3.6	0.00e+00	0	39	104	0	60	88115
2026-01-01 09:40:04.35	342.14	3.92	-51.9	-54.3	3.6	0.00e+00	0	39	104	0	60	87856
2026-01-01 09:40:05.36	342.14	3.84	-51.8	-54.3	3.6	0.00e+00	0	39	104	0	60	87620
2026-01-01 09:40:06.37	342.14	3.77	-51.9	-54.3	3.6	0.00e+00	0	39	104	0	60	87501
2026-01-01 09:40:07.38	342.14	3.69	-51.8	-54.3	3.6	0.00e+00	0	39	104	0	60	87666
2026-01-01 09:40:08.39	342.14	3.61	-51.9	-54.3	3.6	0.00e+00	0	39	104	0	60	87760
2026-01-01 09:40:09.40	342.14	3.54	-51.9	-54.3	3.6	0.00e+00	0	39	104	0	60	87626
2026-01-01 09:40:10.42	342.14	3.46	-51.9	-54.3	3.6	0.00e+00	0	39	104	0	60	88071
2026-01-01 09:40:11.43	342.15	3.39	-51.9	-54.3	3.6	0.00e+00	0	39	104	0	60	87882
2026-01-01 09:40:12.44	342.15	3.31	-51.8	-54.3	3.6	0.00e+00	0	39	104	0	60	88067
2026-01-01 09:40:13.45	342.15	3.24	-51.8	-54.3	3.6	0.00e+00	0	39	104	0	60	87787
2026-01-01 09:40:14.46	342.15	3.17	-51.8	-54.3	3.6	0.00e+00	0	39	104	0	60	87419
2026-01-01 09:40:15.47	342.15	3.09	-51.8	-54.3	3.6	0.00e+00	0	39	104	0	60	87594
2026-01-01 09:40:16.48	342.15	3.02	-51.8	-54.3	3.6	0.00e+00	0	39	104	0	60	87521
2026-01-01 09:40:17.49	342.15	2.95	-51.8	-54.3	3.6	0.00e+00	0	39	104	0	60	87551
2026-01-01 09:40:18.50	342.16	2.87	-51.8	-54.3	3.6	0.00e+00	0	39	104	0	60	87680
2026-01-01 09:40:19.51	342.16	2.80	-51.8	-54.3	3.6	0.00e+00	0	39	104	0	60	88077
2026-01-01 09:40:20.53	342.16	2.73	-51.8	-54.3	3.6	0.00e+00	0	39	104	0	60	87687
2026-01-01 09:40:21.54	342.16	2.66	-51.9	-54.3	3.6	0.00e+00	0	39	104	0	60	87851
2026-01-01 09:40:22.55	342.16	2.58	-51.9	-54.3	3.6	0.00e+00	0	39	104	0	60	87242
2026-01-01 09:40:23.56	342.16	2.51	-51.9	-54.3	3.6	0.00e+00	0	39	104	0	60	87787
2026-01-01 09:40:24.57	342.17	2.44	-51.9	-54.3	3.6	0.00e+00	0	39	104	0	60	87736
2026-01-01 09:40:25.58	342.17	2.37	-51.8	-54.3	3.6	0.00e+00	0	39	104	0	60	88168
2026-01-01 09:40:26.59	342.17	2.30	-51.9	-54.3	3.6	0.00e+00	0	39	104	0	60	87934
2026-01-01 09:40:27.60	342.17	2.23	-51.9	-54.3	3.6	0.00e+00	0	39	104	0	60	88047
2026-01-01 09:40:28.61	342.17	2.16	-51.9	-54.3	3.6	0.00e+00	0	39	104	0	60	88057
2026-01-01 09:40:29.62	342.18	2.09	-51.9	-54.3	3.6	0.00e+00	0	39	104	0	60	88136
2026-01-01 09:40:30.64	342.18	2.02	-51.9	-54.3	3.6	0.00e+00	0	39	104	0	60	87738
2026-01-01 09:40:31.65	342.18	1.95	-51.8	-54.3	3.6	0.00e+00	0	39	104	0	60	87890
2026-01-01 09:40:32.66	342.18	1.88	-51.9	-54.3	3.6	0.00e+00	0	39	104	0	60	87724
2026-01-01 09:40:33.67	342.18	1.81	-51.9	-54.3	3.6	0.00e+00	0	39	104	0	60	87822
2026-01-01 09:40:34.68	342.18	1.74	-51.9	-54.3	3.6	0.00e+00	0	39	104	0	60	87750
2026-01-01 09:40:35.69	342.19	1.67	-51.9	-54.3	3.6	0.00e+00	0	39	104	0	60	87451
2026-01-01 09:40:36.70	342.19	1.60	-51.9	-54.4	3.6	0.00e+00	0	39	104	0	60	88345
2026-01-01 09:40:37.71	342.19	1.53	-51.9	-54.3	3.6	0.00e+00	0	39	104	0	60	88131
2026-01-01 09:40:38.73	342.19	1.46	-51.9	-54.3	3.6	0.00e+00	0	39	104	0	60	88052
2026-01-01 09:40:39.74	342.19	1.40	-51.9	-54.3	3.6	0.00e+00	0	39	104	0	60	88088
2026-01-01 09:40:40.75	342.20	1.33	-51.9	-54.4	3.6	0.00e+00	0	39	104	0	60	88509
2026-01-01 09:40:41.76	342.20	1.26	-51.9	-54.3	3.6	0.00e+00	0	39	104	0	60	87637
2026-01-01 09:40:42.77	342.20	1.19	-51.9	-54.4	3.6	0.00e+00	0	39	104	0	60	88309
2026-01-01 09:40:43.78	342.20	1.13	-51.9	-54.3	3.6	0.00e+00	0	39	104	0	60	87853
2026-01-01 09:40:44.79	342.20	1.06	-51.9	-54.3	3.6	0.00e+00	0	39	104	0	60	88185
2026-01-01 09:40:45.80	342.21	0.99	-51.9	-54.3	3.6	0.00e+00	0	39	104	0	60	88183
2026-01-01 09:40:46.81	342.21	0.92	-51.9	-54.4	3.6	0.00e+00	0	39	104	0	60	88310
2026-01-01 09:40:47.82	342.21	0.86	-51.9	-54.3	3.6	0.00e+00	0	39	104	0	60	87852
2026-01-01 09:40:48.84	342.21	0.79	-51.9	-54.3	3.6	0.00e+00	0	39	104	0	60	87808
2026-01-01 09:40:49.85	342.21	0.72	-51.9	-54.3	3.6	0.00e+00	0	39	104	0	60	87775
2026-01-01 09:40:50.86	342.22	0.66	-51.9	-54.3	3.6	0.00e+00	0	39	104	0	60	88035
2026-01-01 09:40:51.87	342.22	0.59	-51.9	-54.3	3.6	0.00e+00	0	39	104	0	60	87594
2026-01-01 09:40:52.88	342.22	0.53	-51.9	-54.3	3.6	0.00e+00	0	39	104	0	60	88073
2026-01-01 09:40:53.89	342.22	0.46	-51.9	-54.3	3.6	0.00e+00	0	39	104	0	60	87627
2026-01-01 09:40:54.90	342.22	0.40	-51.9	-54.3	3.6	0.00e+00	0	39	104	0	60	88054
2026-01-01 09:40:55.91	342.23	0.33	-51.9	-54.4	3.6	0.00e+00	0	39	104	0	60	88526
2026-01-01 09:40:56.92	342.23	0.27	-51.9	-54.4	3.6	0.00e+00	0	39	104	0	60	88405
2026-01-01 09:40:57.93	342.23	0.20	-51.9	-54.3	3.6	0.00e+00	0	39	104	0	60	87566
2026-01-01 09:40:58.94	342.23	0.14	-51.9	-54.4	3.6	0.00e+00	0	39	104	0	60	88532
2026-01-01 09:40:59.95	342.24	0.07	-51.9	-54.3	3.6	0.00e+00	0	39	104	0	60	88117
2026-01-01 09:41:00.96	342.24	0.01	-51.9	-54.3	3.6	0.00e+00	0	39	104	0	60	87948
2026-01-01 09:41:01.98	342.24	-0.06	-51.9	-54.3	3.6	0.00e+00	0	39	104	0	60	88177

#Closed at: 2026-01-01 09:41:02
#Recorded file [0 MB]: D:/lorett/data/35034_260101_122910.dat