passes_logs/2026/01/01/R4.6S_Anadyr_2ch/R4.6S_Anadyr_2ch__20260101_222233_2025-108B_rec.log

#Pass ID: 20260101_222233_2025-108B
#Satellite: 2025-108B
#Configuration: 3PB_600M
#almurnet v.1.7.20251203
#Start time: 2026-01-01 22:22:34

#Version: 2.2.20231116
#Station: R4.6S_Anadyr_2ch
#Location: 177.4865 lon 64.73178 lat
#TLE: 1 64088U 25108B   25351.01672131  .00008460  00000+0  43413-3 0  9994
#TLE: 2 64088  97.4940  63.8579 0011684 285.1423  74.8517 15.16717580 31720

#Time	Az	El	Level	Level2	SNR	BER	BlckErr	Temp	State	Recorded	gain1	gain2
2026-01-01 22:22:34.87	20.74	0.09	-51.8	-53.2	3.4	0.00e+00	0	34	0	0	60	77033
2026-01-01 22:22:35.88	20.81	0.15	-51.8	-54.3	3.5	0.00e+00	0	35	104	0	60	87630
2026-01-01 22:22:36.89	20.88	0.21	-51.8	-54.3	3.6	0.00e+00	0	35	104	0	60	87836
2026-01-01 22:22:37.90	20.94	0.27	-51.8	-54.3	3.6	0.00e+00	0	35	104	0	60	87597
2026-01-01 22:22:38.91	21.01	0.33	-51.8	-54.3	3.6	0.00e+00	0	35	104	0	60	87553
2026-01-01 22:22:39.92	21.08	0.39	-51.8	-54.3	3.6	0.00e+00	0	35	104	0	60	87700
2026-01-01 22:22:40.93	21.14	0.45	-51.8	-54.3	3.5	0.00e+00	0	35	104	0	60	87562
2026-01-01 22:22:41.94	21.21	0.51	-51.8	-54.3	3.6	0.00e+00	0	36	104	0	60	87765
2026-01-01 22:22:42.95	21.28	0.57	-51.8	-54.3	3.5	0.00e+00	0	36	104	0	60	87350
2026-01-01 22:22:43.96	21.35	0.63	-51.8	-54.3	3.6	0.00e+00	0	36	104	0	60	87666
2026-01-01 22:22:44.97	21.42	0.69	-51.8	-54.3	3.6	0.00e+00	0	36	104	0	60	87679
2026-01-01 22:22:45.98	21.49	0.75	-51.8	-54.3	3.6	0.00e+00	0	36	104	0	60	88004
2026-01-01 22:22:46.99	21.56	0.81	-51.8	-54.3	3.6	0.00e+00	0	36	104	0	60	87472
2026-01-01 22:22:48.00	21.63	0.87	-51.8	-54.2	3.6	0.00e+00	0	36	104	0	60	86929
2026-01-01 22:22:49.01	21.70	0.93	-51.8	-54.3	3.6	0.00e+00	0	36	104	0	60	87922
2026-01-01 22:22:50.02	21.77	0.99	-51.8	-54.3	3.5	0.00e+00	0	36	104	0	60	87487
2026-01-01 22:22:51.03	21.84	1.05	-51.8	-54.3	3.6	0.00e+00	0	36	104	0	60	87881
2026-01-01 22:22:52.05	21.91	1.11	-51.8	-54.3	3.6	0.00e+00	0	36	104	0	60	87496
2026-01-01 22:22:53.06	21.98	1.17	-51.8	-54.3	3.6	0.00e+00	0	36	104	0	60	87400
2026-01-01 22:22:54.06	22.05	1.24	-51.8	-54.3	3.6	0.00e+00	0	36	104	0	60	87911
2026-01-01 22:22:55.08	22.13	1.30	-51.8	-54.3	3.6	0.00e+00	0	36	104	0	60	87974
2026-01-01 22:22:56.09	22.20	1.36	-51.8	-54.3	3.6	0.00e+00	0	36	104	0	60	87447
2026-01-01 22:22:57.10	22.27	1.42	-51.8	-54.3	3.6	0.00e+00	0	36	104	0	60	87620
2026-01-01 22:22:58.11	22.35	1.48	-51.8	-54.3	3.6	0.00e+00	0	36	104	0	60	87677
2026-01-01 22:22:59.12	22.42	1.54	-51.8	-54.3	3.6	0.00e+00	0	36	104	0	60	87871
2026-01-01 22:23:00.13	22.49	1.61	-51.8	-54.3	3.6	0.00e+00	0	36	104	0	60	87609
2026-01-01 22:23:01.14	22.57	1.67	-51.8	-54.3	3.6	0.00e+00	0	36	104	0	60	87602
2026-01-01 22:23:02.15	22.64	1.73	-51.8	-54.3	3.6	0.00e+00	0	36	104	0	60	87553
2026-01-01 22:23:03.16	22.72	1.79	-51.8	-54.3	3.6	0.00e+00	0	36	104	0	60	87434
2026-01-01 22:23:04.17	22.79	1.86	-51.8	-54.3	3.6	0.00e+00	0	36	104	0	60	87391
2026-01-01 22:23:05.18	22.87	1.92	-51.8	-54.3	3.6	0.00e+00	0	36	104	0	60	87378
2026-01-01 22:23:06.20	22.95	1.98	-51.8	-54.3	3.6	0.00e+00	0	36	104	0	60	87551
2026-01-01 22:23:07.21	23.02	2.05	-51.8	-54.3	3.6	0.00e+00	0	36	104	0	60	87479
2026-01-01 22:23:08.22	23.10	2.11	-51.8	-54.3	3.6	0.00e+00	0	36	104	0	60	87449
2026-01-01 22:23:09.23	23.18	2.17	-51.8	-54.3	3.6	0.00e+00	0	36	104	0	60	87506
2026-01-01 22:23:10.24	23.26	2.24	-51.8	-54.2	3.6	0.00e+00	0	36	104	0	60	86996
2026-01-01 22:23:11.25	23.34	2.30	-51.8	-54.3	3.6	0.00e+00	0	36	104	0	60	87298
2026-01-01 22:23:12.26	23.41	2.36	-51.8	-54.2	3.6	0.00e+00	0	36	104	0	60	87109
2026-01-01 22:23:13.27	23.49	2.43	-51.8	-54.3	3.6	0.00e+00	0	36	104	0	60	87617
2026-01-01 22:23:14.28	23.57	2.49	-51.8	-54.3	3.6	0.00e+00	0	36	104	0	60	87802
2026-01-01 22:23:15.29	23.65	2.56	-51.8	-54.3	3.5	0.00e+00	0	36	104	0	60	87942
2026-01-01 22:23:16.30	23.73	2.62	-51.8	-54.3	3.6	0.00e+00	0	36	104	0	60	87699
2026-01-01 22:23:17.31	23.81	2.68	-51.8	-54.3	3.6	0.00e+00	0	36	104	0	60	87798
2026-01-01 22:23:18.32	23.90	2.75	-51.8	-54.3	3.6	0.00e+00	0	36	104	0	60	87422
2026-01-01 22:23:19.34	23.98	2.82	-51.8	-54.3	3.6	0.00e+00	0	37	104	0	60	87561
2026-01-01 22:23:20.35	24.06	2.88	-51.8	-54.3	3.6	0.00e+00	0	36	104	0	60	87689
2026-01-01 22:23:21.36	24.14	2.95	-51.8	-54.2	3.6	0.00e+00	0	37	104	0	60	87104
2026-01-01 22:23:22.37	24.23	3.01	-51.8	-54.3	3.6	0.00e+00	0	37	104	0	60	87715
2026-01-01 22:23:23.38	24.31	3.08	-51.8	-54.3	3.6	0.00e+00	0	37	104	0	60	87873
2026-01-01 22:23:24.39	24.39	3.14	-51.8	-54.3	3.6	0.00e+00	0	36	104	0	60	87925
2026-01-01 22:23:25.40	24.48	3.21	-51.8	-54.3	3.6	0.00e+00	0	37	104	0	60	87397
2026-01-01 22:23:26.41	24.56	3.27	-51.8	-54.3	3.6	0.00e+00	0	37	104	0	60	87302
2026-01-01 22:23:27.42	24.65	3.34	-51.8	-54.3	3.6	0.00e+00	0	37	104	0	60	87993
2026-01-01 22:23:28.43	24.73	3.41	-51.8	-54.3	3.6	0.00e+00	0	37	104	0	60	87544
2026-01-01 22:23:29.44	24.82	3.47	-51.8	-54.3	3.6	0.00e+00	0	37	104	0	60	87932
2026-01-01 22:23:30.45	24.91	3.54	-51.8	-54.3	3.6	0.00e+00	0	37	104	0	60	87968
2026-01-01 22:23:31.46	24.99	3.61	-51.8	-54.3	3.6	0.00e+00	0	37	104	0	60	88035
2026-01-01 22:23:32.43	25.08	3.67	-51.8	-54.3	3.6	0.00e+00	0	37	104	0	60	87879
2026-01-01 22:23:33.44	25.16	3.74	-51.8	-54.3	3.6	0.00e+00	0	37	104	0	60	88109
2026-01-01 22:23:34.45	25.25	3.81	-51.8	-54.3	3.6	0.00e+00	0	37	104	0	60	87528
2026-01-01 22:23:35.46	25.34	3.87	-51.8	-54.3	3.6	0.00e+00	0	37	104	0	60	87757
2026-01-01 22:23:36.47	25.43	3.94	-51.8	-54.3	3.6	0.00e+00	0	37	104	0	60	87813
2026-01-01 22:23:37.48	25.52	4.01	-51.8	-54.3	3.6	0.00e+00	0	37	104	0	60	87770
2026-01-01 22:23:38.49	25.61	4.08	-51.8	-54.3	3.6	0.00e+00	0	37	104	0	60	87833
2026-01-01 22:23:39.50	25.70	4.14	-51.8	-54.3	3.6	0.00e+00	0	37	104	0	60	87822
2026-01-01 22:23:40.51	25.79	4.21	-51.8	-54.3	3.6	0.00e+00	0	37	104	0	60	87706
2026-01-01 22:23:41.52	25.89	4.28	-51.8	-54.3	3.6	0.00e+00	0	37	104	0	60	88005
2026-01-01 22:23:42.54	25.98	4.35	-51.8	-54.3	3.6	0.00e+00	0	37	104	0	60	88029
2026-01-01 22:23:43.55	26.07	4.42	-51.8	-54.3	3.6	0.00e+00	0	37	104	0	60	88026
2026-01-01 22:23:44.56	26.17	4.49	-51.8	-54.3	3.6	0.00e+00	0	37	104	0	60	87819
2026-01-01 22:23:45.57	26.26	4.56	-51.8	-54.3	3.6	0.00e+00	0	37	104	0	60	87765
2026-01-01 22:23:46.58	26.35	4.63	-51.8	-54.3	3.6	0.00e+00	0	37	104	0	60	88123
2026-01-01 22:23:47.59	26.45	4.70	-51.8	-54.3	3.6	0.00e+00	0	37	104	0	60	87468
2026-01-01 22:23:48.60	26.55	4.77	-51.8	-54.3	3.6	0.00e+00	0	37	104	0	60	87667
2026-01-01 22:23:49.61	26.64	4.84	-51.8	-54.3	3.6	0.00e+00	0	37	104	0	60	87436
2026-01-01 22:23:50.62	26.74	4.91	-51.8	-54.3	3.6	0.00e+00	0	37	104	0	60	87224
2026-01-01 22:23:51.63	26.84	4.98	-51.8	-54.3	3.6	0.00e+00	0	37	104	0	60	87521
2026-01-01 22:23:52.64	26.93	5.05	-51.8	-54.3	3.6	0.00e+00	0	37	104	0	60	87345
2026-01-01 22:23:53.65	27.03	5.12	-51.8	-54.3	3.6	0.00e+00	0	37	104	0	60	88143
2026-01-01 22:23:54.66	27.13	5.19	-51.8	-54.3	3.6	0.00e+00	0	37	104	0	60	88150
2026-01-01 22:23:55.67	27.23	5.26	-51.8	-54.3	3.6	0.00e+00	0	37	104	0	60	87938
2026-01-01 22:23:56.68	27.33	5.33	-51.8	-54.3	3.6	0.00e+00	0	37	104	0	60	87748
2026-01-01 22:23:57.69	27.43	5.40	-51.9	-54.3	3.6	0.00e+00	0	37	104	0	60	88178
2026-01-01 22:23:58.70	27.53	5.48	-51.8	-54.3	3.6	0.00e+00	0	37	104	0	60	87648
2026-01-01 22:23:59.71	27.63	5.55	-51.8	-54.3	3.6	0.00e+00	0	37	104	0	60	87501
2026-01-01 22:24:00.72	27.74	5.62	-51.8	-54.3	3.6	0.00e+00	0	37	104	0	60	87720
2026-01-01 22:24:01.73	27.84	5.69	-51.8	-54.2	3.6	0.00e+00	0	37	104	0	60	87021
2026-01-01 22:24:02.74	27.94	5.77	-51.8	-54.3	3.6	0.00e+00	0	37	104	0	60	87737
2026-01-01 22:24:03.76	28.05	5.84	-51.8	-54.3	3.6	0.00e+00	0	37	104	0	60	87949
2026-01-01 22:24:04.77	28.15	5.91	-51.8	-54.3	3.6	0.00e+00	0	37	104	0	60	87908
2026-01-01 22:24:05.78	28.26	5.98	-51.8	-54.3	3.5	0.00e+00	0	37	104	0	60	87950
2026-01-01 22:24:06.79	28.37	6.06	-51.8	-54.3	3.6	0.00e+00	0	37	104	0	60	87889
2026-01-01 22:24:07.80	28.47	6.13	-51.8	-54.3	3.6	0.00e+00	0	37	104	0	60	87546
2026-01-01 22:24:08.81	28.58	6.21	-51.8	-54.3	3.6	0.00e+00	0	37	104	0	60	87888
2026-01-01 22:24:09.82	28.69	6.28	-51.8	-54.3	3.6	0.00e+00	0	37	104	0	60	87549
2026-01-01 22:24:10.83	28.80	6.35	-51.8	-54.3	3.6	0.00e+00	0	37	104	0	60	87707
2026-01-01 22:24:11.84	28.91	6.43	-51.8	-54.3	3.6	0.00e+00	0	37	104	0	60	87886
2026-01-01 22:24:12.85	29.02	6.50	-51.8	-54.3	3.5	0.00e+00	0	37	104	0	60	87328
2026-01-01 22:24:13.86	29.13	6.58	-51.8	-54.3	3.6	0.00e+00	0	37	104	0	60	87574
2026-01-01 22:24:14.87	29.24	6.65	-51.8	-54.3	3.6	0.00e+00	0	37	104	0	60	88016
2026-01-01 22:24:15.88	29.35	6.73	-51.8	-54.4	3.6	0.00e+00	0	37	104	0	60	88268
2026-01-01 22:24:16.90	29.47	6.80	-51.9	-54.3	3.6	0.00e+00	0	37	104	0	60	88050
2026-01-01 22:24:17.91	29.58	6.88	-51.8	-54.3	3.6	0.00e+00	0	37	104	0	60	87999
2026-01-01 22:24:18.92	29.69	6.95	-51.9	-54.4	3.6	0.00e+00	0	37	104	0	60	88462
2026-01-01 22:24:19.93	29.81	7.03	-51.8	-54.3	3.6	0.00e+00	0	37	104	0	60	87677
2026-01-01 22:24:20.94	29.92	7.11	-51.8	-54.3	3.6	0.00e+00	0	37	104	0	60	87357
2026-01-01 22:24:21.95	30.04	7.18	-51.8	-54.3	3.6	0.00e+00	0	37	104	0	60	87952
2026-01-01 22:24:22.96	30.16	7.26	-51.8	-54.3	3.6	0.00e+00	0	37	104	0	60	88025
2026-01-01 22:24:23.97	30.27	7.34	-51.8	-54.3	3.6	0.00e+00	0	37	104	0	60	87657
2026-01-01 22:24:24.98	30.39	7.41	-51.8	-54.3	3.6	0.00e+00	0	37	104	0	60	87709
2026-01-01 22:24:25.99	30.51	7.49	-51.8	-54.3	3.6	0.00e+00	0	38	104	0	60	87645
2026-01-01 22:24:27.00	30.63	7.57	-51.8	-54.3	3.6	0.00e+00	0	38	104	0	60	87778
2026-01-01 22:24:28.01	30.75	7.65	-51.8	-54.3	3.6	0.00e+00	0	38	104	0	60	87595
2026-01-01 22:24:29.02	30.88	7.72	-51.8	-54.3	3.6	0.00e+00	0	38	104	0	60	87831
2026-01-01 22:24:30.03	31.00	7.80	-51.9	-54.3	3.6	0.00e+00	0	38	104	0	60	87969
2026-01-01 22:24:31.04	31.12	7.88	-51.9	-54.3	3.6	0.00e+00	0	38	104	0	60	87891
2026-01-01 22:24:32.05	31.24	7.96	-51.8	-54.4	3.6	0.00e+00	0	38	104	0	60	88348
2026-01-01 22:24:33.07	31.37	8.04	-51.9	-54.3	3.6	0.00e+00	0	37	104	0	60	87976
2026-01-01 22:24:34.08	31.50	8.12	-51.9	-54.3	3.6	0.00e+00	0	38	104	0	60	88116
2026-01-01 22:24:35.09	31.62	8.20	-51.9	-54.4	3.6	0.00e+00	0	38	104	0	60	88302
2026-01-01 22:24:36.10	31.75	8.28	-51.9	-54.4	3.6	0.00e+00	0	38	104	0	60	88340
2026-01-01 22:24:37.11	31.88	8.36	-51.9	-54.4	3.6	0.00e+00	0	38	104	0	60	89151
2026-01-01 22:24:38.12	32.01	8.44	-51.8	-54.3	3.6	0.00e+00	0	38	104	0	60	88007
2026-01-01 22:24:39.13	32.14	8.52	-51.8	-54.4	3.6	0.00e+00	0	38	104	0	60	88617
2026-01-01 22:24:40.14	32.27	8.60	-51.9	-54.4	3.6	0.00e+00	0	38	104	0	60	88292
2026-01-01 22:24:41.15	32.40	8.68	-51.9	-54.3	3.6	0.00e+00	0	38	104	0	60	87972
2026-01-01 22:24:42.16	32.53	8.76	-51.9	-54.4	3.6	0.00e+00	0	38	104	0	60	88380
2026-01-01 22:24:43.17	32.66	8.84	-51.9	-54.4	3.6	0.00e+00	0	38	104	0	60	88503
2026-01-01 22:24:44.18	32.80	8.92	-51.9	-54.3	3.6	0.00e+00	0	38	104	0	60	87779
2026-01-01 22:24:45.19	32.93	9.00	-51.8	-54.4	3.6	0.00e+00	0	38	104	0	60	88373
2026-01-01 22:24:46.21	33.07	9.09	-51.9	-54.3	3.6	0.00e+00	0	38	104	0	60	88104
2026-01-01 22:24:47.22	33.21	9.17	-51.9	-54.3	3.6	0.00e+00	0	38	104	0	60	88176
2026-01-01 22:24:48.23	33.34	9.25	-51.9	-54.3	3.6	0.00e+00	0	38	104	0	60	87932
2026-01-01 22:24:49.24	33.48	9.33	-51.9	-54.3	3.6	0.00e+00	0	38	104	0	60	87940
2026-01-01 22:24:50.25	33.62	9.42	-51.9	-54.4	3.6	0.00e+00	0	38	104	0	60	88798
2026-01-01 22:24:51.26	33.76	9.50	-51.9	-54.4	3.6	0.00e+00	0	38	104	0	60	88232
2026-01-01 22:24:52.27	33.90	9.58	-51.9	-54.3	3.6	0.00e+00	0	38	104	0	60	87827
2026-01-01 22:24:53.28	34.05	9.67	-51.8	-54.4	3.6	0.00e+00	0	38	104	0	60	88340
2026-01-01 22:24:54.30	34.19	9.75	-51.8	-54.3	3.6	0.00e+00	0	38	104	0	60	87942
2026-01-01 22:24:55.31	34.34	9.83	-51.8	-54.3	3.6	0.00e+00	0	38	104	0	60	87678
2026-01-01 22:24:56.32	34.48	9.92	-51.8	-54.3	3.6	0.00e+00	0	38	104	0	60	87619
2026-01-01 22:24:57.33	34.63	10.00	-51.8	-54.3	3.6	0.00e+00	0	38	104	0	60	87875
2026-01-01 22:24:58.34	34.77	10.09	-51.9	-54.3	3.6	0.00e+00	0	38	104	0	60	88055
2026-01-01 22:24:59.35	34.92	10.17	-51.9	-54.3	3.6	0.00e+00	0	38	104	0	60	88019
2026-01-01 22:25:00.36	35.07	10.26	-51.9	-54.3	3.6	0.00e+00	0	38	104	0	60	87845
2026-01-01 22:25:01.37	35.22	10.34	-51.9	-54.4	3.6	0.00e+00	0	38	104	0	60	88304
2026-01-01 22:25:02.38	35.37	10.43	-51.9	-54.4	3.6	0.00e+00	0	38	104	0	60	88339
2026-01-01 22:25:03.39	35.53	10.52	-51.9	-54.3	3.6	0.00e+00	0	38	104	0	60	87913
2026-01-01 22:25:04.40	35.68	10.60	-51.9	-54.3	3.6	0.00e+00	0	38	104	0	60	87976
2026-01-01 22:25:05.41	35.83	10.69	-51.8	-54.3	3.6	0.00e+00	0	38	104	0	60	87662
2026-01-01 22:25:06.43	35.99	10.78	-51.8	-54.3	3.6	0.00e+00	0	38	104	0	60	88147
2026-01-01 22:25:07.43	36.14	10.86	-51.8	-54.3	3.6	0.00e+00	0	38	104	0	60	87746
2026-01-01 22:25:08.45	36.30	10.95	-51.8	-54.3	3.6	0.00e+00	0	38	104	0	60	87942
2026-01-01 22:25:09.46	36.46	11.04	-51.8	-54.3	3.6	0.00e+00	0	38	104	0	60	87861
2026-01-01 22:25:10.47	36.62	11.12	-51.9	-54.3	3.6	0.00e+00	0	38	104	0	60	87662
2026-01-01 22:25:11.48	36.78	11.21	-51.9	-54.3	3.6	0.00e+00	0	38	104	0	60	88163
2026-01-01 22:25:12.49	36.95	11.30	-51.9	-54.4	3.6	0.00e+00	0	38	104	0	60	88741
2026-01-01 22:25:13.50	37.11	11.39	-51.9	-54.3	3.6	0.00e+00	0	38	104	0	60	88105
2026-01-01 22:25:14.51	37.27	11.48	-51.9	-54.3	3.6	0.00e+00	0	38	104	0	60	88053
2026-01-01 22:25:15.52	37.44	11.57	-51.8	-54.3	3.6	0.00e+00	0	38	104	0	60	88153
2026-01-01 22:25:16.53	37.61	11.65	-51.8	-54.3	3.6	0.00e+00	0	38	104	0	60	87880
2026-01-01 22:25:17.54	37.77	11.74	-51.8	-54.3	3.6	0.00e+00	0	38	104	0	60	88004
2026-01-01 22:25:18.56	37.95	11.83	-51.8	-54.3	3.6	0.00e+00	0	38	104	0	60	87906
2026-01-01 22:25:19.57	38.12	11.92	-51.9	-54.3	3.6	0.00e+00	0	38	104	0	60	88101
2026-01-01 22:25:20.58	38.29	12.01	-51.9	-54.4	3.6	0.00e+00	0	38	104	0	60	88271
2026-01-01 22:25:21.59	38.46	12.10	-51.9	-54.3	3.5	0.00e+00	0	38	104	0	60	88068
2026-01-01 22:25:22.60	38.63	12.19	-51.9	-54.4	3.6	0.00e+00	0	38	104	0	60	88468
2026-01-01 22:25:23.61	38.81	12.28	-51.9	-54.4	3.6	0.00e+00	0	38	104	0	60	88273
2026-01-01 22:25:24.62	38.99	12.37	-51.9	-54.4	3.6	0.00e+00	0	38	104	0	60	88413
2026-01-01 22:25:25.63	39.16	12.47	-51.9	-54.4	3.6	0.00e+00	0	38	104	0	60	88280
2026-01-01 22:25:26.64	39.34	12.56	-51.9	-54.4	3.6	0.00e+00	0	38	104	0	60	88452
2026-01-01 22:25:27.65	39.52	12.65	-51.9	-54.3	3.6	0.00e+00	0	38	104	0	60	88160
2026-01-01 22:25:28.66	39.71	12.74	-51.9	-54.3	3.6	0.00e+00	0	38	104	0	60	88066
2026-01-01 22:25:29.67	39.89	12.83	-51.9	-54.4	3.6	0.00e+00	0	38	104	0	60	88392
2026-01-01 22:25:30.68	40.07	12.92	-51.9	-54.4	3.6	0.00e+00	0	38	104	0	60	88261
2026-01-01 22:25:31.70	40.26	13.02	-51.9	-54.3	3.6	0.00e+00	0	38	104	0	60	88120
2026-01-01 22:25:32.71	40.45	13.11	-51.9	-54.4	3.6	0.00e+00	0	38	104	0	60	88438
2026-01-01 22:25:33.72	40.64	13.20	-51.9	-54.4	3.6	0.00e+00	0	38	104	0	60	88670
2026-01-01 22:25:34.73	40.83	13.30	-51.9	-54.3	3.6	0.00e+00	0	38	104	0	60	87758
2026-01-01 22:25:35.74	41.02	13.39	-51.9	-54.4	3.6	0.00e+00	0	38	104	0	60	88323
2026-01-01 22:25:36.75	41.21	13.48	-51.9	-54.3	3.6	0.00e+00	0	38	104	0	60	88057
2026-01-01 22:25:37.76	41.40	13.58	-51.9	-54.3	3.6	0.00e+00	0	38	104	0	60	88096
2026-01-01 22:25:38.77	41.60	13.67	-51.9	-54.4	3.6	0.00e+00	0	38	104	0	60	88363
2026-01-01 22:25:39.78	41.80	13.76	-51.9	-54.4	3.6	0.00e+00	0	38	104	0	60	88440
2026-01-01 22:25:40.79	42.00	13.86	-51.9	-54.3	3.6	0.00e+00	0	38	104	0	60	88036
2026-01-01 22:25:41.80	42.20	13.95	-51.9	-54.4	3.6	0.00e+00	0	38	104	0	60	88312
2026-01-01 22:25:42.81	42.40	14.05	-51.9	-54.4	3.6	0.00e+00	0	38	104	0	60	88354
2026-01-01 22:25:43.82	42.60	14.14	-51.9	-54.4	3.6	0.00e+00	0	38	104	0	60	88418
2026-01-01 22:25:44.83	42.80	14.24	-51.9	-54.3	3.6	0.00e+00	0	38	104	0	60	88012
2026-01-01 22:25:45.84	43.01	14.33	-51.9	-54.4	3.6	0.00e+00	0	38	104	0	60	88280
2026-01-01 22:25:46.85	43.22	14.43	-51.9	-54.4	3.6	0.00e+00	0	38	104	0	60	88895
2026-01-01 22:25:47.86	43.43	14.52	-51.9	-54.4	3.6	0.00e+00	0	38	104	0	60	88287
2026-01-01 22:25:48.87	43.64	14.62	-51.9	-54.4	3.6	0.00e+00	0	38	104	0	60	88595
2026-01-01 22:25:49.88	43.85	14.71	-51.9	-54.4	3.6	0.00e+00	0	38	104	0	60	88622
2026-01-01 22:25:50.89	44.06	14.81	-51.9	-54.4	3.6	0.00e+00	0	38	104	0	60	88719
2026-01-01 22:25:51.90	44.28	14.91	-51.9	-54.3	3.6	0.00e+00	0	38	104	0	60	88123
2026-01-01 22:25:52.91	44.49	15.00	-51.9	-54.3	3.6	0.00e+00	0	38	104	0	60	88131
2026-01-01 22:25:53.92	44.71	15.10	-51.9	-54.4	3.6	0.00e+00	0	38	104	0	60	88270
2026-01-01 22:25:54.93	44.93	15.20	-51.9	-54.4	3.6	0.00e+00	0	38	104	0	60	88341
2026-01-01 22:25:55.94	45.15	15.29	-51.9	-54.4	3.6	0.00e+00	0	38	104	0	60	88259
2026-01-01 22:25:56.95	45.38	15.39	-51.9	-54.4	3.6	0.00e+00	0	38	104	0	60	88461
2026-01-01 22:25:57.96	45.60	15.49	-51.9	-54.4	3.6	0.00e+00	0	38	104	0	60	88355
2026-01-01 22:25:58.97	45.83	15.58	-51.9	-54.3	3.6	0.00e+00	0	38	104	0	60	87790
2026-01-01 22:25:59.99	46.06	15.68	-51.9	-54.3	3.6	0.00e+00	0	38	104	0	60	88034
2026-01-01 22:26:01.00	46.29	15.78	-51.9	-54.3	3.6	0.00e+00	0	38	104	0	60	88102
2026-01-01 22:26:02.01	46.52	15.88	-51.9	-54.4	3.6	0.00e+00	0	38	104	0	60	88315
2026-01-01 22:26:03.02	46.76	15.97	-51.9	-54.4	3.6	0.00e+00	0	38	104	0	60	88909
2026-01-01 22:26:04.03	46.99	16.07	-51.9	-54.4	3.6	0.00e+00	0	38	104	0	60	88590
2026-01-01 22:26:05.04	47.23	16.17	-51.9	-54.4	3.6	0.00e+00	0	38	104	0	60	88287
2026-01-01 22:26:06.05	47.47	16.27	-51.9	-54.4	3.6	0.00e+00	0	38	104	0	60	88273
2026-01-01 22:26:07.06	47.71	16.36	-51.9	-54.3	3.6	0.00e+00	0	38	104	0	60	88085
2026-01-01 22:26:08.07	47.95	16.46	-51.9	-54.3	3.6	0.00e+00	0	38	104	0	60	88113
2026-01-01 22:26:09.09	48.20	16.56	-51.9	-54.4	3.6	0.00e+00	0	38	104	0	60	88279
2026-01-01 22:26:10.10	48.44	16.66	-51.9	-54.4	3.5	0.00e+00	0	38	104	0	60	88323
2026-01-01 22:26:11.11	48.69	16.76	-51.9	-54.4	3.5	0.00e+00	0	38	104	0	60	88315
2026-01-01 22:26:12.12	48.94	16.86	-51.9	-54.4	3.6	0.00e+00	0	38	104	0	60	88443
2026-01-01 22:26:13.13	49.19	16.95	-51.9	-54.3	3.6	0.00e+00	0	38	104	0	60	87692
2026-01-01 22:26:14.14	49.45	17.05	-51.9	-54.4	3.6	0.00e+00	0	38	104	0	60	88519
2026-01-01 22:26:15.15	49.70	17.15	-51.9	-54.4	3.6	0.00e+00	0	38	104	0	60	88354
2026-01-01 22:26:16.16	49.96	17.25	-51.9	-54.3	3.6	0.00e+00	0	38	104	0	60	87986
2026-01-01 22:26:17.18	50.22	17.35	-51.9	-54.4	3.5	0.00e+00	0	38	104	0	60	88594
2026-01-01 22:26:18.18	50.48	17.45	-51.9	-54.4	3.6	0.00e+00	0	38	104	0	60	88389
2026-01-01 22:26:19.20	50.75	17.55	-51.9	-54.4	3.6	0.00e+00	0	38	104	0	60	88660
2026-01-01 22:26:20.21	51.01	17.64	-51.9	-54.3	3.6	0.00e+00	0	38	104	0	60	88110
2026-01-01 22:26:21.22	51.28	17.74	-51.9	-54.3	3.6	0.00e+00	0	38	104	0	60	88207
2026-01-01 22:26:22.23	51.55	17.84	-51.9	-54.3	3.6	0.00e+00	0	38	104	0	60	88071
2026-01-01 22:26:23.24	51.82	17.94	-51.9	-54.4	3.6	0.00e+00	0	38	104	0	60	89148
2026-01-01 22:26:24.25	52.09	18.04	-51.9	-54.4	3.6	0.00e+00	0	38	104	0	60	88354
2026-01-01 22:26:25.26	52.37	18.13	-51.9	-54.4	3.6	0.00e+00	0	38	104	0	60	88463
2026-01-01 22:26:26.27	52.64	18.23	-51.9	-54.3	3.6	0.00e+00	0	38	104	0	60	88170
2026-01-01 22:26:27.28	52.92	18.33	-51.9	-54.4	3.6	0.00e+00	0	38	104	0	60	88263
2026-01-01 22:26:28.29	53.20	18.43	-51.9	-54.4	3.6	0.00e+00	0	38	104	0	60	88685
2026-01-01 22:26:29.30	53.49	18.52	-51.9	-54.3	3.6	0.00e+00	0	38	104	0	60	88104
2026-01-01 22:26:30.31	53.77	18.62	-51.9	-54.4	3.6	0.00e+00	0	38	104	0	60	88226
2026-01-01 22:26:31.32	54.06	18.72	-51.9	-54.3	3.6	0.00e+00	0	38	104	0	60	88085
2026-01-01 22:26:32.33	54.35	18.82	-51.9	-54.4	3.6	0.00e+00	0	38	104	0	60	88840
2026-01-01 22:26:33.34	54.64	18.91	-51.9	-54.4	3.6	0.00e+00	0	38	104	0	60	88236
2026-01-01 22:26:34.35	54.93	19.01	-51.9	-54.4	3.6	0.00e+00	0	38	104	0	60	88545
2026-01-01 22:26:35.37	55.23	19.11	-51.9	-54.4	3.6	0.00e+00	0	38	104	0	60	88555
2026-01-01 22:26:36.38	55.53	19.20	-51.9	-54.4	3.6	0.00e+00	0	38	104	0	60	88513
2026-01-01 22:26:37.39	55.83	19.30	-51.9	-54.4	3.6	0.00e+00	0	38	104	0	60	88537
2026-01-01 22:26:38.40	56.13	19.40	-51.9	-54.4	3.6	0.00e+00	0	38	104	0	60	88853
2026-01-01 22:26:39.41	56.44	19.49	-51.9	-54.4	3.6	0.00e+00	0	38	104	0	60	88386
2026-01-01 22:26:40.42	56.74	19.59	-51.9	-54.4	3.6	0.00e+00	0	38	104	0	60	88445
2026-01-01 22:26:41.43	57.05	19.68	-51.9	-54.4	3.6	0.00e+00	0	38	104	0	60	88445
2026-01-01 22:26:42.44	57.36	19.78	-51.9	-54.4	3.6	0.00e+00	0	38	104	0	60	88293
2026-01-01 22:26:43.45	57.68	19.87	-51.9	-54.3	3.6	0.00e+00	0	38	104	0	60	88216
2026-01-01 22:26:44.46	57.99	19.97	-51.9	-54.3	3.6	0.00e+00	0	38	104	0	60	87987
2026-01-01 22:26:45.47	58.31	20.06	-51.9	-54.3	3.6	0.00e+00	0	38	104	0	60	88106
2026-01-01 22:26:46.48	58.63	20.15	-51.9	-54.4	3.6	0.00e+00	0	38	104	0	60	88871
2026-01-01 22:26:47.49	58.95	20.25	-51.9	-54.4	3.6	0.00e+00	0	38	104	0	60	88324
2026-01-01 22:26:48.50	59.27	20.34	-51.8	-54.4	3.6	0.00e+00	0	38	104	0	60	88411
2026-01-01 22:26:49.51	59.60	20.43	-51.8	-54.3	3.6	0.00e+00	0	38	104	0	60	87597
2026-01-01 22:26:50.53	59.93	20.52	-51.9	-54.3	3.6	0.00e+00	0	38	104	0	60	88007
2026-01-01 22:26:51.54	60.26	20.61	-51.9	-54.4	3.6	0.00e+00	0	38	104	0	60	88233
2026-01-01 22:26:52.55	60.59	20.71	-51.9	-54.4	3.6	0.00e+00	0	39	104	0	60	88743
2026-01-01 22:26:53.56	60.93	20.80	-51.9	-54.3	3.6	0.00e+00	0	38	104	0	60	88212
2026-01-01 22:26:54.57	61.27	20.89	-51.9	-54.4	3.6	0.00e+00	0	38	104	0	60	88222
2026-01-01 22:26:55.58	61.61	20.98	-51.9	-54.3	3.6	0.00e+00	0	38	104	0	60	88091
2026-01-01 22:26:56.59	61.95	21.06	-51.9	-54.4	3.6	0.00e+00	0	38	104	0	60	88575
2026-01-01 22:26:57.60	62.29	21.15	-51.9	-54.3	3.6	0.00e+00	0	38	104	0	60	88198
2026-01-01 22:26:58.61	62.64	21.24	-51.9	-54.4	3.6	0.00e+00	0	38	104	0	60	88379
2026-01-01 22:26:59.62	62.98	21.33	-51.9	-54.4	3.6	0.00e+00	0	38	104	0	60	88264
2026-01-01 22:27:00.63	63.33	21.42	-51.9	-54.4	3.6	0.00e+00	0	39	104	0	60	88777
2026-01-01 22:27:01.64	63.69	21.50	-51.9	-54.4	3.6	0.00e+00	0	38	104	0	60	88411
2026-01-01 22:27:02.65	64.04	21.59	-51.9	-54.3	3.6	0.00e+00	0	38	104	0	60	88209
2026-01-01 22:27:03.67	64.40	21.67	-51.9	-54.4	3.6	0.00e+00	0	38	104	0	60	89033
2026-01-01 22:27:04.68	64.76	21.76	-51.9	-54.4	3.6	0.00e+00	0	38	104	0	60	89011
2026-01-01 22:27:05.69	65.12	21.84	-51.9	-54.4	3.6	0.00e+00	0	38	104	0	60	88621
2026-01-01 22:27:06.70	65.49	21.92	-51.9	-54.4	3.6	0.00e+00	0	38	104	0	60	88254
2026-01-01 22:27:07.71	65.85	22.00	-51.9	-54.4	3.6	0.00e+00	0	38	104	0	60	88397
2026-01-01 22:27:08.72	66.22	22.09	-51.9	-54.4	3.6	0.00e+00	0	38	104	0	60	88961
2026-01-01 22:27:09.73	66.59	22.17	-51.9	-54.4	3.6	0.00e+00	0	38	104	0	60	88746
2026-01-01 22:27:10.75	66.97	22.25	-51.9	-54.4	3.6	0.00e+00	0	38	104	0	60	88483
2026-01-01 22:27:11.76	67.34	22.32	-51.9	-54.4	3.6	0.00e+00	0	38	104	0	60	88866
2026-01-01 22:27:12.77	67.72	22.40	-51.9	-54.4	3.6	0.00e+00	0	38	104	0	60	88429
2026-01-01 22:27:13.78	68.09	22.48	-51.9	-54.4	3.6	0.00e+00	0	38	104	0	60	88633
2026-01-01 22:27:14.79	68.47	22.56	-51.9	-54.4	3.6	0.00e+00	0	38	104	0	60	89180
2026-01-01 22:27:15.80	68.86	22.63	-51.9	-54.4	3.6	0.00e+00	0	38	104	0	60	88730
2026-01-01 22:27:16.81	69.24	22.71	-51.9	-54.4	3.6	0.00e+00	0	38	104	0	60	88638
2026-01-01 22:27:17.82	69.63	22.78	-51.9	-54.4	3.6	0.00e+00	0	38	104	0	60	89188
2026-01-01 22:27:18.84	70.02	22.85	-51.9	-54.4	3.6	0.00e+00	0	38	104	0	60	88912
2026-01-01 22:27:19.85	70.41	22.92	-51.9	-54.3	3.6	0.00e+00	0	38	104	0	60	88198
2026-01-01 22:27:20.86	70.80	22.99	-51.9	-54.3	3.6	0.00e+00	0	39	104	0	60	88012
2026-01-01 22:27:21.87	71.20	23.06	-51.9	-54.4	3.6	0.00e+00	0	38	104	0	60	88865
2026-01-01 22:27:22.88	71.59	23.13	-51.9	-54.4	3.6	0.00e+00	0	38	104	0	60	88664
2026-01-01 22:27:23.89	71.99	23.20	-51.9	-54.3	3.6	0.00e+00	0	39	104	0	60	87943
2026-01-01 22:27:24.90	72.39	23.26	-51.9	-54.4	3.6	0.00e+00	0	38	104	0	60	88624
2026-01-01 22:27:25.91	72.79	23.33	-51.9	-54.4	3.6	0.00e+00	0	38	104	0	60	88491
2026-01-01 22:27:26.92	73.20	23.39	-51.9	-54.4	3.6	0.00e+00	0	38	104	0	60	88243
2026-01-01 22:27:27.93	73.60	23.46	-51.9	-54.4	3.6	0.00e+00	0	38	104	0	60	88551
2026-01-01 22:27:28.94	74.01	23.52	-51.9	-54.3	3.6	0.00e+00	0	39	104	0	60	88077
2026-01-01 22:27:29.95	74.42	23.58	-51.9	-54.3	3.6	0.00e+00	0	39	104	0	60	88172
2026-01-01 22:27:30.96	74.83	23.64	-51.9	-54.3	3.6	0.00e+00	0	39	104	0	60	87659
2026-01-01 22:27:31.97	75.25	23.69	-51.9	-54.3	3.6	0.00e+00	0	38	104	0	60	87858
2026-01-01 22:27:32.98	75.66	23.75	-51.9	-54.3	3.6	0.00e+00	0	38	104	0	60	88004
2026-01-01 22:27:33.99	76.08	23.81	-51.9	-54.4	3.6	0.00e+00	0	38	104	0	60	88243
2026-01-01 22:27:35.01	76.50	23.86	-51.9	-54.3	3.6	0.00e+00	0	38	104	0	60	87890
2026-01-01 22:27:36.01	76.91	23.91	-51.9	-54.3	3.6	0.00e+00	0	38	104	0	60	88095
2026-01-01 22:27:37.03	77.34	23.96	-51.9	-54.3	3.6	0.00e+00	0	38	104	0	60	87991
2026-01-01 22:27:38.04	77.76	24.01	-51.9	-54.4	3.6	0.00e+00	0	38	104	0	60	88373
2026-01-01 22:27:39.05	78.18	24.06	-51.9	-54.4	3.6	0.00e+00	0	38	104	0	60	88464
2026-01-01 22:27:40.06	78.61	24.11	-51.9	-54.4	3.6	0.00e+00	0	38	104	0	60	88718
2026-01-01 22:27:41.07	79.04	24.16	-51.9	-54.4	3.6	0.00e+00	0	38	104	0	60	88518
2026-01-01 22:27:42.08	79.47	24.20	-51.9	-54.4	3.6	0.00e+00	0	39	104	0	60	88862
2026-01-01 22:27:43.09	79.89	24.24	-52.0	-54.4	3.6	0.00e+00	0	38	104	0	60	88548
2026-01-01 22:27:44.10	80.33	24.28	-51.9	-54.4	3.6	0.00e+00	0	38	104	0	60	88839
2026-01-01 22:27:45.11	80.76	24.32	-51.9	-54.4	3.6	0.00e+00	0	39	104	0	60	88404
2026-01-01 22:27:46.12	81.19	24.36	-51.9	-54.3	3.6	0.00e+00	0	38	104	0	60	87870
2026-01-01 22:27:47.13	81.62	24.40	-51.9	-54.3	3.6	0.00e+00	0	39	104	0	60	87990
2026-01-01 22:27:48.14	82.06	24.43	-51.9	-54.4	3.6	0.00e+00	0	39	104	0	60	88469
2026-01-01 22:27:49.15	82.50	24.47	-51.9	-54.4	3.6	0.00e+00	0	39	104	0	60	88395
2026-01-01 22:27:50.16	82.93	24.50	-51.9	-54.3	3.6	0.00e+00	0	38	104	0	60	87877
2026-01-01 22:27:51.17	83.37	24.53	-51.9	-54.4	3.6	0.00e+00	0	39	104	0	60	88526
2026-01-01 22:27:52.18	83.81	24.56	-51.9	-54.4	3.6	0.00e+00	0	39	104	0	60	88340
2026-01-01 22:27:53.19	84.25	24.59	-51.9	-54.4	3.6	0.00e+00	0	39	104	0	60	88711
2026-01-01 22:27:54.20	84.69	24.61	-51.9	-54.4	3.6	0.00e+00	0	39	104	0	60	88408
2026-01-01 22:27:55.21	85.14	24.64	-51.9	-54.4	3.6	0.00e+00	0	39	104	0	60	88226
2026-01-01 22:27:56.23	85.58	24.66	-51.9	-54.3	3.6	0.00e+00	0	38	104	0	60	87698
2026-01-01 22:27:57.24	86.03	24.68	-51.9	-54.4	3.6	0.00e+00	0	38	104	0	60	88535
2026-01-01 22:27:58.25	86.47	24.70	-51.9	-54.4	3.6	0.00e+00	0	38	104	0	60	88313
2026-01-01 22:27:59.26	86.92	24.72	-51.9	-54.4	3.5	0.00e+00	0	38	104	0	60	88998
2026-01-01 22:28:00.27	87.36	24.74	-51.9	-54.3	3.6	0.00e+00	0	39	104	0	60	87896
2026-01-01 22:28:01.28	87.81	24.75	-51.9	-54.4	3.6	0.00e+00	0	39	104	0	60	88401
2026-01-01 22:28:02.29	88.25	24.76	-51.9	-54.3	3.6	0.00e+00	0	38	104	0	60	88127
2026-01-01 22:28:03.30	88.70	24.78	-51.9	-54.4	3.6	0.00e+00	0	38	104	0	60	88282
2026-01-01 22:28:04.31	89.15	24.79	-51.9	-54.4	3.6	0.00e+00	0	38	104	0	60	88459
2026-01-01 22:28:05.32	89.60	24.79	-51.9	-54.3	3.6	0.00e+00	0	38	104	0	60	87751
2026-01-01 22:28:06.34	90.05	24.80	-51.9	-54.4	3.6	0.00e+00	0	39	104	0	60	88438
2026-01-01 22:28:07.35	90.50	24.80	-51.9	-54.4	3.6	0.00e+00	0	39	104	0	60	88426
2026-01-01 22:28:08.36	90.94	24.81	-51.9	-54.3	3.6	0.00e+00	0	38	104	0	60	88157
2026-01-01 22:28:09.37	91.39	24.81	-51.9	-54.3	3.6	0.00e+00	0	38	104	0	60	87914
2026-01-01 22:28:10.38	91.84	24.81	-51.9	-54.4	3.6	0.00e+00	0	39	104	0	60	88413
2026-01-01 22:28:11.39	92.29	24.81	-51.9	-54.3	3.6	0.00e+00	0	39	104	0	60	88179
2026-01-01 22:28:12.40	92.74	24.80	-51.9	-54.4	3.6	0.00e+00	0	39	104	0	60	88259
2026-01-01 22:28:13.41	93.18	24.80	-51.9	-54.3	3.6	0.00e+00	0	39	104	0	60	87812
2026-01-01 22:28:14.42	93.63	24.79	-51.9	-54.4	3.6	0.00e+00	0	39	104	0	60	88299
2026-01-01 22:28:15.43	94.08	24.78	-51.9	-54.3	3.6	0.00e+00	0	38	104	0	60	87934
2026-01-01 22:28:16.44	94.53	24.77	-51.9	-54.4	3.6	0.00e+00	0	38	104	0	60	88520
2026-01-01 22:28:17.45	94.97	24.76	-51.9	-54.4	3.6	0.00e+00	0	39	104	0	60	88423
2026-01-01 22:28:18.46	95.42	24.74	-52.0	-54.5	3.6	0.00e+00	0	39	104	0	60	89284
2026-01-01 22:28:19.47	95.87	24.73	-51.9	-54.3	3.6	0.00e+00	0	39	104	0	60	88160
2026-01-01 22:28:20.48	96.31	24.71	-51.9	-54.4	3.6	0.00e+00	0	39	104	0	60	88567
2026-01-01 22:28:21.49	96.76	24.69	-51.9	-54.4	3.5	0.00e+00	0	39	104	0	60	88554
2026-01-01 22:28:22.50	97.20	24.67	-51.9	-54.4	3.6	0.00e+00	0	39	104	0	60	88257
2026-01-01 22:28:23.52	97.65	24.65	-51.9	-54.3	3.6	0.00e+00	0	39	104	0	60	88176
2026-01-01 22:28:24.53	98.09	24.62	-51.9	-54.4	3.6	0.00e+00	0	39	104	0	60	88242
2026-01-01 22:28:25.54	98.53	24.60	-51.9	-54.4	3.6	0.00e+00	0	39	104	0	60	88771
2026-01-01 22:28:26.55	98.98	24.57	-51.9	-54.4	3.6	0.00e+00	0	39	104	0	60	89046
2026-01-01 22:28:27.56	99.42	24.54	-51.9	-54.4	3.6	0.00e+00	0	39	104	0	60	88223
2026-01-01 22:28:28.57	99.86	24.51	-51.9	-54.4	3.6	0.00e+00	0	39	104	0	60	88716
2026-01-01 22:28:29.58	100.30	24.48	-51.9	-54.4	3.6	0.00e+00	0	39	104	0	60	88387
2026-01-01 22:28:30.59	100.73	24.45	-51.9	-54.4	3.6	0.00e+00	0	39	104	0	60	88370
2026-01-01 22:28:31.60	101.17	24.41	-51.9	-54.4	3.6	0.00e+00	0	39	104	0	60	88499
2026-01-01 22:28:32.61	101.61	24.38	-51.9	-54.4	3.6	0.00e+00	0	39	104	0	60	88824
2026-01-01 22:28:33.62	102.04	24.34	-51.9	-54.4	3.6	0.00e+00	0	39	104	0	60	88693
2026-01-01 22:28:34.63	102.48	24.30	-51.9	-54.4	3.6	0.00e+00	0	38	104	0	60	89077
2026-01-01 22:28:35.64	102.91	24.26	-51.9	-54.4	3.6	0.00e+00	0	39	104	0	60	89101
2026-01-01 22:28:36.66	103.35	24.21	-51.9	-54.4	3.6	0.00e+00	0	39	104	0	60	89118
2026-01-01 22:28:37.66	103.77	24.17	-51.9	-54.4	3.6	0.00e+00	0	39	104	0	60	88908
2026-01-01 22:28:38.68	104.20	24.12	-51.9	-54.3	3.6	0.00e+00	0	38	104	0	60	88057
2026-01-01 22:28:39.68	104.63	24.08	-51.9	-54.4	3.6	0.00e+00	0	39	104	0	60	88446
2026-01-01 22:28:40.69	105.05	24.03	-51.9	-54.4	3.6	0.00e+00	0	39	104	0	60	89137
2026-01-01 22:28:41.70	105.48	23.98	-51.9	-54.4	3.6	0.00e+00	0	38	104	0	60	88478
2026-01-01 22:28:42.71	105.90	23.93	-51.9	-54.4	3.6	0.00e+00	0	39	104	0	60	88252
2026-01-01 22:28:43.72	106.32	23.88	-51.9	-54.4	3.6	0.00e+00	0	39	104	0	60	88458
2026-01-01 22:28:44.73	106.74	23.82	-51.9	-54.4	3.6	0.00e+00	0	38	104	0	60	88329
2026-01-01 22:28:45.75	107.17	23.77	-51.9	-54.4	3.6	0.00e+00	0	39	104	0	60	88621
2026-01-01 22:28:46.76	107.58	23.71	-51.9	-54.4	3.6	0.00e+00	0	39	104	0	60	88528
2026-01-01 22:28:47.77	108.00	23.65	-51.9	-54.4	3.6	0.00e+00	0	39	104	0	60	88640
2026-01-01 22:28:48.78	108.41	23.59	-51.9	-54.4	3.6	0.00e+00	0	39	104	0	60	89212
2026-01-01 22:28:49.79	108.82	23.53	-51.9	-54.4	3.6	0.00e+00	0	39	104	0	60	88813
2026-01-01 22:28:50.80	109.23	23.47	-51.9	-54.4	3.6	0.00e+00	0	39	104	0	60	88634
2026-01-01 22:28:51.81	109.64	23.41	-52.0	-54.4	3.5	0.00e+00	0	39	104	0	60	88842
2026-01-01 22:28:52.82	110.05	23.35	-52.0	-54.4	3.6	0.00e+00	0	39	104	0	60	88731
2026-01-01 22:28:53.83	110.46	23.28	-51.9	-54.4	3.6	0.00e+00	0	38	104	0	60	88488
2026-01-01 22:28:54.84	110.86	23.21	-51.9	-54.4	3.6	0.00e+00	0	39	104	0	60	88686
2026-01-01 22:28:55.85	111.26	23.15	-51.9	-54.4	3.6	0.00e+00	0	39	104	0	60	88721
2026-01-01 22:28:56.86	111.66	23.08	-52.0	-54.4	3.6	0.00e+00	0	38	104	0	60	89065
2026-01-01 22:28:57.87	112.06	23.01	-52.0	-54.5	3.6	0.00e+00	0	39	104	0	60	89351
2026-01-01 22:28:58.88	112.45	22.94	-52.0	-54.5	3.6	0.00e+00	0	39	104	0	60	89417
2026-01-01 22:28:59.90	112.85	22.87	-51.9	-54.4	3.6	0.00e+00	0	39	104	0	60	88538
2026-01-01 22:29:00.90	113.24	22.79	-51.9	-54.4	3.6	0.00e+00	0	39	104	0	60	88573
2026-01-01 22:29:01.92	113.63	22.72	-52.0	-54.4	3.6	0.00e+00	0	39	104	0	60	89042
2026-01-01 22:29:02.93	114.02	22.65	-51.9	-54.4	3.6	0.00e+00	0	39	104	0	60	88474
2026-01-01 22:29:03.94	114.40	22.57	-51.9	-54.4	3.6	0.00e+00	0	38	104	0	60	88667
2026-01-01 22:29:04.95	114.79	22.49	-52.0	-54.4	3.6	0.00e+00	0	39	104	0	60	88933
2026-01-01 22:29:05.96	115.17	22.42	-51.9	-54.4	3.6	0.00e+00	0	39	104	0	60	88557
2026-01-01 22:29:06.97	115.55	22.34	-52.0	-54.5	3.6	0.00e+00	0	39	104	0	60	89809
2026-01-01 22:29:07.98	115.93	22.26	-51.9	-54.4	3.6	0.00e+00	0	39	104	0	60	88695
2026-01-01 22:29:08.99	116.30	22.18	-52.0	-54.5	3.6	0.00e+00	0	39	104	0	60	89298
2026-01-01 22:29:10.00	116.67	22.10	-51.9	-54.4	3.6	0.00e+00	0	39	104	0	60	88348
2026-01-01 22:29:11.01	117.04	22.02	-51.9	-54.4	3.6	0.00e+00	0	39	104	0	60	89041
2026-01-01 22:29:12.02	117.41	21.93	-51.9	-54.4	3.6	0.00e+00	0	39	104	0	60	88599
2026-01-01 22:29:13.04	117.78	21.85	-51.9	-54.4	3.6	0.00e+00	0	39	104	0	60	88786
2026-01-01 22:29:14.05	118.15	21.77	-51.9	-54.4	3.6	0.00e+00	0	39	104	0	60	88741
2026-01-01 22:29:15.06	118.51	21.68	-51.9	-54.4	3.6	0.00e+00	0	39	104	0	60	88990
2026-01-01 22:29:16.07	118.87	21.60	-52.0	-54.5	3.6	0.00e+00	0	39	104	0	60	89375
2026-01-01 22:29:17.08	119.23	21.51	-52.0	-54.5	3.6	0.00e+00	0	39	104	0	60	89287
2026-01-01 22:29:18.09	119.58	21.42	-51.9	-54.4	3.6	0.00e+00	0	39	104	0	60	88477
2026-01-01 22:29:19.10	119.94	21.34	-51.9	-54.4	3.6	0.00e+00	0	39	104	0	60	88583
2026-01-01 22:29:20.11	120.29	21.25	-51.9	-54.4	3.6	0.00e+00	0	39	104	0	60	88854
2026-01-01 22:29:21.12	120.64	21.16	-51.9	-54.4	3.6	0.00e+00	0	39	104	0	60	88795
2026-01-01 22:29:22.13	120.99	21.07	-51.9	-54.4	3.6	0.00e+00	0	39	104	0	60	88414
2026-01-01 22:29:23.14	121.33	20.98	-52.0	-54.4	3.6	0.00e+00	0	39	104	0	60	88580
2026-01-01 22:29:24.15	121.67	20.89	-52.0	-54.4	3.6	0.00e+00	0	39	104	0	60	88955
2026-01-01 22:29:25.16	122.01	20.80	-51.9	-54.3	3.6	0.00e+00	0	39	104	0	60	88068
2026-01-01 22:29:26.17	122.35	20.71	-51.9	-54.4	3.6	0.00e+00	0	39	104	0	60	88576
2026-01-01 22:29:27.18	122.69	20.62	-52.0	-54.4	3.6	0.00e+00	0	39	104	0	60	89114
2026-01-01 22:29:28.19	123.02	20.52	-51.9	-54.4	3.6	0.00e+00	0	39	104	0	60	89077
2026-01-01 22:29:29.20	123.35	20.43	-51.9	-54.4	3.6	0.00e+00	0	39	104	0	60	88931
2026-01-01 22:29:30.21	123.68	20.34	-51.9	-54.4	3.4	0.00e+00	0	39	104	0	60	88570
2026-01-01 22:29:31.22	124.01	20.24	-52.0	-54.5	3.6	0.00e+00	0	39	104	0	60	89409
2026-01-01 22:29:32.23	124.33	20.15	-51.9	-54.4	3.6	0.00e+00	0	39	104	0	60	89011
2026-01-01 22:29:33.24	124.66	20.06	-52.0	-54.5	3.6	0.00e+00	0	39	104	0	60	89452
2026-01-01 22:29:34.26	124.98	19.96	-51.9	-54.4	3.6	0.00e+00	0	39	104	0	60	88593
2026-01-01 22:29:35.27	125.30	19.86	-51.9	-54.3	3.6	0.00e+00	0	39	104	0	60	88181
2026-01-01 22:29:36.28	125.62	19.77	-52.0	-54.4	3.6	0.00e+00	0	39	104	0	60	88818
2026-01-01 22:29:37.29	125.93	19.67	-52.0	-54.4	3.6	0.00e+00	0	39	104	0	60	88758
2026-01-01 22:29:38.30	126.24	19.58	-51.9	-54.4	3.6	0.00e+00	0	39	104	0	60	88502
2026-01-01 22:29:39.31	126.55	19.48	-51.9	-54.4	3.6	0.00e+00	0	39	104	0	60	88723
2026-01-01 22:29:40.32	126.86	19.38	-51.9	-54.4	3.6	0.00e+00	0	39	104	0	60	88680
2026-01-01 22:29:41.33	127.16	19.29	-51.9	-54.4	3.6	0.00e+00	0	39	104	0	60	88992
2026-01-01 22:29:42.34	127.47	19.19	-51.9	-54.4	3.6	0.00e+00	0	39	104	0	60	88516
2026-01-01 22:29:43.35	127.77	19.09	-51.9	-54.4	3.6	0.00e+00	0	39	104	0	60	89156
2026-01-01 22:29:44.36	128.07	18.99	-51.9	-54.4	3.6	0.00e+00	0	39	104	0	60	88902
2026-01-01 22:29:45.37	128.36	18.90	-51.9	-54.4	3.6	0.00e+00	0	39	104	0	60	88462
2026-01-01 22:29:46.38	128.66	18.80	-51.9	-54.4	3.5	0.00e+00	0	39	104	0	60	88627
2026-01-01 22:29:47.39	128.95	18.70	-51.9	-54.4	3.6	0.00e+00	0	39	104	0	60	88856
2026-01-01 22:29:48.40	129.24	18.60	-52.0	-54.4	3.6	0.00e+00	0	39	104	0	60	88994
2026-01-01 22:29:49.41	129.53	18.50	-52.0	-54.4	3.6	0.00e+00	0	38	104	0	60	89079
2026-01-01 22:29:50.42	129.82	18.40	-52.0	-54.5	3.6	0.00e+00	0	39	104	0	60	89651
2026-01-01 22:29:51.43	130.10	18.31	-52.0	-54.4	3.6	0.00e+00	0	39	104	0	60	88911
2026-01-01 22:29:52.44	130.38	18.21	-51.9	-54.4	3.6	0.00e+00	0	39	104	0	60	88464
2026-01-01 22:29:53.45	130.66	18.11	-51.9	-54.4	3.6	0.00e+00	0	39	104	0	60	88673
2026-01-01 22:29:54.46	130.94	18.01	-51.9	-54.4	3.6	0.00e+00	0	39	104	0	60	89126
2026-01-01 22:29:55.47	131.22	17.91	-51.9	-54.4	3.6	0.00e+00	0	39	104	0	60	88728
2026-01-01 22:29:56.49	131.49	17.81	-51.9	-54.4	3.6	0.00e+00	0	39	104	0	60	88816
2026-01-01 22:29:57.49	131.76	17.71	-51.9	-54.4	3.6	0.00e+00	0	39	104	0	60	88587
2026-01-01 22:29:58.51	132.04	17.61	-51.9	-54.4	3.6	0.00e+00	0	39	104	0	60	89058
2026-01-01 22:29:59.52	132.30	17.51	-51.9	-54.4	3.6	0.00e+00	0	39	104	0	60	89075
2026-01-01 22:30:00.53	132.57	17.41	-51.9	-54.4	3.6	0.00e+00	0	39	104	0	60	89131
2026-01-01 22:30:01.54	132.83	17.31	-51.9	-54.4	3.6	0.00e+00	0	39	104	0	60	88863
2026-01-01 22:30:02.55	133.10	17.21	-51.9	-54.4	3.6	0.00e+00	0	39	104	0	60	88374
2026-01-01 22:30:03.56	133.36	17.11	-51.9	-54.4	3.6	0.00e+00	0	39	104	0	60	88434
2026-01-01 22:30:04.57	133.61	17.01	-52.0	-54.4	3.6	0.00e+00	0	39	104	0	60	88583
2026-01-01 22:30:05.58	133.87	16.91	-52.0	-54.4	3.6	0.00e+00	0	39	104	0	60	89024
2026-01-01 22:30:06.59	134.13	16.81	-51.9	-54.4	3.6	0.00e+00	0	39	104	0	60	88353
2026-01-01 22:30:07.61	134.38	16.71	-51.9	-54.4	3.6	0.00e+00	0	39	104	0	60	88467
2026-01-01 22:30:08.61	134.63	16.62	-51.9	-54.4	3.6	0.00e+00	0	39	104	0	60	88769
2026-01-01 22:30:09.63	134.88	16.52	-51.9	-54.4	3.6	0.00e+00	0	39	104	0	60	89237
2026-01-01 22:30:10.64	135.13	16.42	-52.0	-54.5	3.6	0.00e+00	0	39	104	0	60	89560
2026-01-01 22:30:11.65	135.37	16.32	-51.9	-54.5	3.6	0.00e+00	0	39	104	0	60	89698
2026-01-01 22:30:12.66	135.62	16.22	-52.0	-54.5	3.6	0.00e+00	0	39	104	0	60	89330
2026-01-01 22:30:13.67	135.86	16.12	-51.9	-54.4	3.6	0.00e+00	0	39	104	0	60	88699
2026-01-01 22:30:14.68	136.10	16.02	-51.9	-54.4	3.6	0.00e+00	0	39	104	0	60	88980
2026-01-01 22:30:15.69	136.33	15.92	-52.0	-54.4	3.6	0.00e+00	0	39	104	0	60	89169
2026-01-01 22:30:16.70	136.57	15.82	-51.9	-54.4	3.6	0.00e+00	0	39	104	0	60	88706
2026-01-01 22:30:17.71	136.80	15.72	-51.9	-54.4	3.6	0.00e+00	0	39	104	0	60	88566
2026-01-01 22:30:18.72	137.04	15.62	-51.9	-54.4	3.6	0.00e+00	0	39	104	0	60	88849
2026-01-01 22:30:19.73	137.27	15.53	-52.0	-54.5	3.6	0.00e+00	0	39	104	0	60	89633
2026-01-01 22:30:20.74	137.50	15.43	-51.9	-54.4	3.6	0.00e+00	0	39	104	0	60	88453
2026-01-01 22:30:21.75	137.72	15.33	-51.9	-54.4	3.6	0.00e+00	0	39	104	0	60	88593
2026-01-01 22:30:22.76	137.95	15.23	-51.9	-54.4	3.6	0.00e+00	0	39	104	0	60	88651
2026-01-01 22:30:23.77	138.17	15.13	-51.9	-54.4	3.6	0.00e+00	0	39	104	0	60	88694
2026-01-01 22:30:24.78	138.40	15.03	-51.9	-54.4	3.5	0.00e+00	0	39	104	0	60	88695
2026-01-01 22:30:25.79	138.62	14.94	-52.0	-54.4	3.6	0.00e+00	0	39	104	0	60	88821
2026-01-01 22:30:26.80	138.84	14.84	-51.9	-54.4	3.6	0.00e+00	0	39	104	0	60	88532
2026-01-01 22:30:27.81	139.05	14.74	-51.9	-54.4	3.6	0.00e+00	0	39	104	0	60	88771
2026-01-01 22:30:28.82	139.27	14.64	-52.0	-54.5	3.6	0.00e+00	0	39	104	0	60	89303
2026-01-01 22:30:29.83	139.48	14.55	-51.9	-54.4	3.6	0.00e+00	0	39	104	0	60	89104
2026-01-01 22:30:30.84	139.70	14.45	-52.0	-54.5	3.6	0.00e+00	0	39	104	0	60	89286
2026-01-01 22:30:31.85	139.91	14.35	-51.9	-54.4	3.6	0.00e+00	0	39	104	0	60	88876
2026-01-01 22:30:32.87	140.12	14.26	-51.9	-54.4	3.6	0.00e+00	0	39	104	0	60	88954
2026-01-01 22:30:33.88	140.33	14.16	-51.9	-54.4	3.6	0.00e+00	0	39	104	0	60	88439
2026-01-01 22:30:34.89	140.53	14.06	-51.9	-54.4	3.6	0.00e+00	0	39	104	0	60	88721
2026-01-01 22:30:35.90	140.74	13.97	-51.9	-54.4	3.6	0.00e+00	0	39	104	0	60	88594
2026-01-01 22:30:36.91	140.94	13.87	-51.9	-54.4	3.6	0.00e+00	0	39	104	0	60	88359
2026-01-01 22:30:37.92	141.14	13.78	-51.9	-54.4	3.6	0.00e+00	0	39	104	0	60	88679
2026-01-01 22:30:38.93	141.34	13.68	-52.0	-54.4	3.5	0.00e+00	0	39	104	0	60	88963
2026-01-01 22:30:39.94	141.54	13.59	-51.9	-54.4	3.6	0.00e+00	0	39	104	0	60	88672
2026-01-01 22:30:40.95	141.74	13.49	-52.0	-54.4	3.5	0.00e+00	0	39	104	0	60	89098
2026-01-01 22:30:41.96	141.94	13.40	-52.0	-54.5	3.6	0.00e+00	0	39	104	0	60	89246
2026-01-01 22:30:42.97	142.13	13.30	-51.9	-54.4	3.6	0.00e+00	0	39	104	0	60	88375
2026-01-01 22:30:43.98	142.32	13.21	-51.9	-54.4	3.6	0.00e+00	0	39	104	0	60	88783
2026-01-01 22:30:45.00	142.52	13.11	-51.9	-54.4	3.6	0.00e+00	0	39	104	0	60	88697
2026-01-01 22:30:46.00	142.71	13.02	-52.0	-54.4	3.6	0.00e+00	0	39	104	0	60	88883
2026-01-01 22:30:47.01	142.90	12.92	-51.9	-54.4	3.6	0.00e+00	0	39	104	0	60	88684
2026-01-01 22:30:48.03	143.09	12.83	-51.9	-54.4	3.6	0.00e+00	0	39	104	0	60	88863
2026-01-01 22:30:49.04	143.27	12.74	-51.9	-54.4	3.6	0.00e+00	0	39	104	0	60	88622
2026-01-01 22:30:50.05	143.46	12.64	-52.0	-54.5	3.5	0.00e+00	0	39	104	0	60	89636
2026-01-01 22:30:51.06	143.64	12.55	-51.9	-54.5	3.6	0.00e+00	0	39	104	0	60	89316
2026-01-01 22:30:52.07	143.82	12.46	-51.9	-54.4	3.6	0.00e+00	0	39	104	0	60	88574
2026-01-01 22:30:53.08	144.00	12.37	-51.9	-54.4	3.6	0.00e+00	0	39	104	0	60	89117
2026-01-01 22:30:54.09	144.18	12.27	-51.9	-54.4	3.6	0.00e+00	0	39	104	0	60	88895
2026-01-01 22:30:55.10	144.36	12.18	-52.0	-54.5	3.6	0.00e+00	0	39	104	0	60	89384
2026-01-01 22:30:56.11	144.54	12.09	-52.0	-54.5	3.6	0.00e+00	0	39	104	0	60	89357
2026-01-01 22:30:57.12	144.71	12.00	-51.9	-54.4	3.6	0.00e+00	0	39	104	0	60	88359
2026-01-01 22:30:58.13	144.89	11.91	-52.0	-54.4	3.6	0.00e+00	0	39	104	0	60	88999
2026-01-01 22:30:59.14	145.06	11.82	-51.9	-54.4	3.6	0.00e+00	0	39	104	0	60	88742
2026-01-01 22:31:00.16	145.23	11.72	-52.0	-54.5	3.6	0.00e+00	0	39	104	0	60	89443
2026-01-01 22:31:01.17	145.41	11.63	-52.0	-54.4	3.6	0.00e+00	0	39	104	0	60	88772
2026-01-01 22:31:02.18	145.57	11.54	-51.9	-54.4	3.6	0.00e+00	0	39	104	0	60	88689
2026-01-01 22:31:03.19	145.74	11.45	-51.9	-54.4	3.6	0.00e+00	0	39	104	0	60	88790
2026-01-01 22:31:04.20	145.91	11.36	-51.9	-54.4	3.6	0.00e+00	0	39	104	0	60	88645
2026-01-01 22:31:05.21	146.08	11.27	-51.9	-54.4	3.6	0.00e+00	0	39	104	0	60	88504
2026-01-01 22:31:06.22	146.24	11.18	-51.9	-54.4	3.6	0.00e+00	0	39	104	0	60	88272
2026-01-01 22:31:07.23	146.40	11.09	-52.0	-54.4	3.6	0.00e+00	0	39	104	0	60	89066
2026-01-01 22:31:08.25	146.57	11.00	-51.9	-54.5	3.6	0.00e+00	0	39	104	0	60	89422
2026-01-01 22:31:09.26	146.73	10.92	-51.9	-54.4	3.6	0.00e+00	0	39	104	0	60	88783
2026-01-01 22:31:10.27	146.89	10.83	-52.0	-54.5	3.6	0.00e+00	0	39	104	0	60	89549
2026-01-01 22:31:11.28	147.05	10.74	-51.9	-54.4	3.6	0.00e+00	0	39	104	0	60	88979
2026-01-01 22:31:12.29	147.21	10.65	-51.9	-54.4	3.6	0.00e+00	0	39	104	0	60	88322
2026-01-01 22:31:13.30	147.36	10.56	-51.9	-54.4	3.6	0.00e+00	0	39	104	0	60	88392
2026-01-01 22:31:14.31	147.52	10.48	-51.9	-54.4	3.6	0.00e+00	0	39	104	0	60	88788
2026-01-01 22:31:15.32	147.67	10.39	-51.9	-54.4	3.6	0.00e+00	0	39	104	0	60	88337
2026-01-01 22:31:16.33	147.83	10.30	-51.9	-54.3	3.6	0.00e+00	0	39	104	0	60	87989
2026-01-01 22:31:17.34	147.98	10.22	-51.9	-54.4	3.6	0.00e+00	0	39	104	0	60	89177
2026-01-01 22:31:18.35	148.13	10.13	-51.9	-54.4	3.6	0.00e+00	0	39	104	0	60	88567
2026-01-01 22:31:19.36	148.28	10.04	-51.9	-54.4	3.6	0.00e+00	0	39	104	0	60	89204
2026-01-01 22:31:20.37	148.43	9.96	-52.0	-54.5	3.6	0.00e+00	0	39	104	0	60	89485
2026-01-01 22:31:21.38	148.58	9.87	-52.0	-54.4	3.6	0.00e+00	0	39	104	0	60	88765
2026-01-01 22:31:22.39	148.73	9.79	-52.0	-54.4	3.6	0.00e+00	0	39	104	0	60	89114
2026-01-01 22:31:23.40	148.87	9.70	-51.9	-54.4	3.6	0.00e+00	0	39	104	0	60	88620
2026-01-01 22:31:24.41	149.02	9.61	-52.0	-54.4	3.6	0.00e+00	0	39	104	0	60	89201
2026-01-01 22:31:25.43	149.16	9.53	-51.9	-54.4	3.6	0.00e+00	0	39	104	0	60	88342
2026-01-01 22:31:26.44	149.31	9.44	-51.9	-54.4	3.6	0.00e+00	0	39	104	0	60	88641
2026-01-01 22:31:27.45	149.45	9.36	-51.9	-54.4	3.6	0.00e+00	0	39	104	0	60	88888
2026-01-01 22:31:28.46	149.59	9.28	-51.9	-54.3	3.6	0.00e+00	0	39	104	0	60	87989
2026-01-01 22:31:29.47	149.73	9.19	-51.9	-54.4	3.6	0.00e+00	0	39	104	0	60	88552
2026-01-01 22:31:30.48	149.87	9.11	-51.9	-54.4	3.6	0.00e+00	0	39	104	0	60	88830
2026-01-01 22:31:31.49	150.01	9.03	-51.9	-54.4	3.6	0.00e+00	0	39	104	0	60	88431
2026-01-01 22:31:32.50	150.15	8.94	-52.0	-54.4	3.6	0.00e+00	0	39	104	0	60	88999
2026-01-01 22:31:33.50	150.28	8.86	-51.9	-54.4	3.6	0.00e+00	0	39	104	0	60	88614
2026-01-01 22:31:34.51	150.42	8.78	-51.9	-54.4	3.6	0.00e+00	0	39	104	0	60	88845
2026-01-01 22:31:35.53	150.55	8.69	-51.9	-54.4	3.6	0.00e+00	0	39	104	0	60	88454
2026-01-01 22:31:36.53	150.69	8.61	-52.0	-54.4	3.6	0.00e+00	0	39	104	0	60	88907
2026-01-01 22:31:37.55	150.82	8.53	-52.0	-54.5	3.6	0.00e+00	0	39	104	0	60	89435
2026-01-01 22:31:38.56	150.95	8.45	-51.9	-54.5	3.6	0.00e+00	0	39	104	0	60	89243
2026-01-01 22:31:39.57	151.08	8.37	-52.0	-54.4	3.6	0.00e+00	0	39	104	0	60	89109
2026-01-01 22:31:40.58	151.22	8.29	-51.9	-54.4	3.6	0.00e+00	0	39	104	0	60	88442
2026-01-01 22:31:41.59	151.34	8.20	-51.9	-54.4	3.6	0.00e+00	0	39	104	0	60	88629
2026-01-01 22:31:42.60	151.47	8.12	-51.9	-54.4	3.6	0.00e+00	0	39	104	0	60	88714
2026-01-01 22:31:43.61	151.60	8.04	-52.0	-54.4	3.6	0.00e+00	0	39	104	0	60	88722
2026-01-01 22:31:44.62	151.73	7.96	-52.0	-54.4	3.6	0.00e+00	0	39	104	0	60	89103
2026-01-01 22:31:45.63	151.86	7.88	-52.0	-54.4	3.6	0.00e+00	0	39	104	0	60	89154
2026-01-01 22:31:46.64	151.98	7.80	-52.0	-54.5	3.6	0.00e+00	0	39	104	0	60	89438
2026-01-01 22:31:47.65	152.11	7.72	-51.9	-54.4	3.6	0.00e+00	0	39	104	0	60	89228
2026-01-01 22:31:48.66	152.23	7.64	-51.9	-54.4	3.6	0.00e+00	0	39	104	0	60	88815
2026-01-01 22:31:49.67	152.35	7.57	-51.9	-54.4	3.6	0.00e+00	0	39	104	0	60	88676
2026-01-01 22:31:50.68	152.47	7.49	-52.0	-54.4	3.6	0.00e+00	0	39	104	0	60	88891
2026-01-01 22:31:51.69	152.60	7.41	-51.9	-54.4	3.6	0.00e+00	0	39	104	0	60	88408
2026-01-01 22:31:52.70	152.72	7.33	-51.9	-54.4	3.6	0.00e+00	0	39	104	0	60	88603
2026-01-01 22:31:53.71	152.84	7.25	-51.9	-54.4	3.6	0.00e+00	0	39	104	0	60	88879
2026-01-01 22:31:54.72	152.96	7.17	-51.9	-54.4	3.6	0.00e+00	0	39	104	0	60	88942
2026-01-01 22:31:55.73	153.07	7.10	-51.9	-54.4	3.5	0.00e+00	0	39	104	0	60	88834
2026-01-01 22:31:56.74	153.19	7.02	-51.9	-54.4	3.6	0.00e+00	0	39	104	0	60	89034
2026-01-01 22:31:57.75	153.31	6.94	-51.9	-54.4	3.6	0.00e+00	0	39	104	0	60	88727
2026-01-01 22:31:58.77	153.43	6.86	-51.9	-54.4	3.6	0.00e+00	0	39	104	0	60	89056
2026-01-01 22:31:59.78	153.54	6.79	-52.0	-54.4	3.6	0.00e+00	0	39	104	0	60	88724
2026-01-01 22:32:00.79	153.66	6.71	-52.0	-54.5	3.6	0.00e+00	0	39	104	0	60	89790
2026-01-01 22:32:01.80	153.77	6.63	-52.0	-54.4	3.5	0.00e+00	0	39	104	0	60	89222
2026-01-01 22:32:02.81	153.88	6.56	-52.0	-54.5	3.6	0.00e+00	0	39	104	0	60	89489
2026-01-01 22:32:03.82	154.00	6.48	-51.9	-54.4	3.6	0.00e+00	0	39	104	0	60	88232
2026-01-01 22:32:04.83	154.11	6.40	-51.9	-54.4	3.6	0.00e+00	0	39	104	0	60	88964
2026-01-01 22:32:05.84	154.22	6.33	-51.9	-54.4	3.6	0.00e+00	0	39	104	0	60	89179
2026-01-01 22:32:06.86	154.33	6.25	-51.9	-54.4	3.6	0.00e+00	0	39	104	0	60	89037
2026-01-01 22:32:07.87	154.44	6.18	-52.0	-54.4	3.6	0.00e+00	0	39	104	0	60	89027
2026-01-01 22:32:08.88	154.55	6.10	-52.0	-54.4	3.6	0.00e+00	0	39	104	0	60	88912
2026-01-01 22:32:09.89	154.66	6.03	-51.9	-54.4	3.6	0.00e+00	0	39	104	0	60	88695
2026-01-01 22:32:10.90	154.77	5.95	-52.0	-54.4	3.6	0.00e+00	0	39	104	0	60	89148
2026-01-01 22:32:11.91	154.87	5.88	-52.0	-54.5	3.6	0.00e+00	0	39	104	0	60	89413
2026-01-01 22:32:12.92	154.98	5.80	-52.0	-54.5	3.6	0.00e+00	0	39	104	0	60	89258
2026-01-01 22:32:13.93	155.09	5.73	-52.0	-54.4	3.6	0.00e+00	0	39	104	0	60	88802
2026-01-01 22:32:14.95	155.19	5.66	-52.0	-54.5	3.6	0.00e+00	0	39	104	0	60	89417
2026-01-01 22:32:15.96	155.30	5.58	-51.9	-54.4	3.6	0.00e+00	0	39	104	0	60	89032
2026-01-01 22:32:16.97	155.40	5.51	-51.9	-54.4	3.6	0.00e+00	0	39	104	0	60	88343
2026-01-01 22:32:17.98	155.51	5.44	-52.0	-54.4	3.6	0.00e+00	0	39	104	0	60	88878
2026-01-01 22:32:18.99	155.61	5.36	-52.0	-54.4	3.6	0.00e+00	0	39	104	0	60	88659
2026-01-01 22:32:20.00	155.71	5.29	-52.0	-54.5	3.6	0.00e+00	0	39	104	0	60	89276
2026-01-01 22:32:21.01	155.81	5.22	-52.0	-54.4	3.6	0.00e+00	0	39	104	0	60	89121
2026-01-01 22:32:22.02	155.91	5.15	-52.0	-54.4	3.6	0.00e+00	0	39	104	0	60	88631
2026-01-01 22:32:23.03	156.01	5.07	-52.0	-54.4	3.6	0.00e+00	0	39	104	0	60	89012
2026-01-01 22:32:24.04	156.11	5.00	-51.9	-54.4	3.6	0.00e+00	0	39	104	0	60	88554
2026-01-01 22:32:25.05	156.21	4.93	-52.0	-54.4	3.6	0.00e+00	0	39	104	0	60	89025
2026-01-01 22:32:26.06	156.31	4.86	-52.0	-54.4	3.6	0.00e+00	0	39	104	0	60	89107
2026-01-01 22:32:27.07	156.41	4.79	-52.0	-54.5	3.6	0.00e+00	0	39	104	0	60	89320
2026-01-01 22:32:28.08	156.51	4.72	-52.0	-54.4	3.6	0.00e+00	0	39	104	0	60	89117
2026-01-01 22:32:29.09	156.60	4.64	-52.0	-54.4	3.6	0.00e+00	0	39	104	0	60	88643
2026-01-01 22:32:30.11	156.70	4.57	-52.0	-54.4	3.6	0.00e+00	0	39	104	0	60	89209
2026-01-01 22:32:31.12	156.80	4.50	-52.0	-54.4	3.6	0.00e+00	0	39	104	0	60	88914
2026-01-01 22:32:32.13	156.89	4.43	-52.0	-54.5	3.6	0.00e+00	0	39	104	0	60	89912
2026-01-01 22:32:33.14	156.99	4.36	-52.0	-54.4	3.6	0.00e+00	0	39	104	0	60	88968
2026-01-01 22:32:34.15	157.08	4.29	-51.9	-54.4	3.6	0.00e+00	0	39	104	0	60	88394
2026-01-01 22:32:35.16	157.18	4.22	-52.0	-54.5	3.6	0.00e+00	0	39	104	0	60	89757
2026-01-01 22:32:36.17	157.27	4.15	-52.0	-54.5	3.6	0.00e+00	0	39	104	0	60	89636
2026-01-01 22:32:37.18	157.36	4.08	-52.0	-54.5	3.6	0.00e+00	0	39	104	0	60	89568
2026-01-01 22:32:38.19	157.45	4.01	-52.0	-54.4	3.6	0.00e+00	0	39	104	0	60	89149
2026-01-01 22:32:39.20	157.54	3.94	-52.0	-54.5	3.6	0.00e+00	0	39	104	0	60	89737
2026-01-01 22:32:40.21	157.64	3.88	-52.0	-54.5	3.6	0.00e+00	0	39	104	0	60	89501
2026-01-01 22:32:41.22	157.73	3.81	-52.0	-54.4	3.6	0.00e+00	0	39	104	0	60	89030
2026-01-01 22:32:42.23	157.82	3.74	-52.0	-54.5	3.6	0.00e+00	0	39	104	0	60	90101
2026-01-01 22:32:43.24	157.91	3.67	-52.0	-54.4	3.6	0.00e+00	0	39	104	0	60	89048
2026-01-01 22:32:44.25	157.99	3.60	-52.0	-54.4	3.6	0.00e+00	0	39	104	0	60	88641
2026-01-01 22:32:45.27	158.08	3.53	-52.0	-54.4	3.6	0.00e+00	0	39	104	0	60	88919
2026-01-01 22:32:46.27	158.17	3.47	-52.0	-54.4	3.6	0.00e+00	0	39	104	0	60	88627
2026-01-01 22:32:47.29	158.26	3.40	-52.0	-54.4	3.6	0.00e+00	0	39	104	0	60	89015
2026-01-01 22:32:48.30	158.35	3.33	-52.0	-54.5	3.6	0.00e+00	0	39	104	0	60	89265
2026-01-01 22:32:49.31	158.43	3.26	-52.0	-54.4	3.6	0.00e+00	0	39	104	0	60	88917
2026-01-01 22:32:50.32	158.52	3.20	-52.0	-54.5	3.6	0.00e+00	0	39	104	0	60	89669
2026-01-01 22:32:51.33	158.60	3.13	-52.0	-54.4	3.6	0.00e+00	0	39	104	0	60	88944
2026-01-01 22:32:52.34	158.69	3.06	-52.0	-54.4	3.6	0.00e+00	0	39	104	0	60	89236
2026-01-01 22:32:53.35	158.77	2.99	-52.0	-54.5	3.6	0.00e+00	0	39	104	0	60	89249
2026-01-01 22:32:54.36	158.86	2.93	-52.0	-54.4	3.6	0.00e+00	0	39	104	0	60	89232
2026-01-01 22:32:55.37	158.94	2.86	-52.0	-54.5	3.6	0.00e+00	0	39	104	0	60	89250
2026-01-01 22:32:56.38	159.03	2.80	-52.0	-54.5	3.6	0.00e+00	0	39	104	0	60	90022
2026-01-01 22:32:57.40	159.11	2.73	-52.0	-54.5	3.6	0.00e+00	0	39	104	0	60	89391
2026-01-01 22:32:58.41	159.19	2.66	-52.0	-54.4	3.6	0.00e+00	0	39	104	0	60	89056
2026-01-01 22:32:59.42	159.27	2.60	-52.0	-54.5	3.6	0.00e+00	0	39	104	0	60	89513
2026-01-01 22:33:00.43	159.36	2.53	-52.0	-54.5	3.6	0.00e+00	0	39	104	0	60	89789
2026-01-01 22:33:01.44	159.44	2.47	-52.1	-54.5	3.6	0.00e+00	0	39	104	0	60	89678
2026-01-01 22:33:02.45	159.52	2.40	-52.0	-54.5	3.6	0.00e+00	0	39	104	0	60	89315
2026-01-01 22:33:03.46	159.60	2.34	-52.0	-54.5	3.6	0.00e+00	0	39	104	0	60	89293
2026-01-01 22:33:04.47	159.68	2.27	-52.0	-54.4	3.6	0.00e+00	0	39	104	0	60	88804
2026-01-01 22:33:05.48	159.76	2.21	-51.9	-54.4	3.6	0.00e+00	0	39	104	0	60	88645
2026-01-01 22:33:06.50	159.84	2.14	-52.0	-54.4	3.6	0.00e+00	0	39	104	0	60	88689
2026-01-01 22:33:07.51	159.92	2.08	-52.0	-54.4	3.6	0.00e+00	0	39	104	0	60	89131
2026-01-01 22:33:08.52	159.99	2.01	-52.0	-54.5	3.6	0.00e+00	0	39	104	0	60	89475
2026-01-01 22:33:09.53	160.07	1.95	-52.0	-54.5	3.6	0.00e+00	0	39	104	0	60	89257
2026-01-01 22:33:10.54	160.15	1.88	-51.9	-54.4	3.5	0.00e+00	0	39	104	0	60	88739
2026-01-01 22:33:11.55	160.23	1.82	-52.0	-54.4	3.6	0.00e+00	0	39	104	0	60	88951
2026-01-01 22:33:12.56	160.30	1.76	-52.0	-54.4	3.6	0.00e+00	0	39	104	0	60	88772
2026-01-01 22:33:13.57	160.38	1.69	-52.0	-54.5	3.6	0.00e+00	0	39	104	0	60	89377
2026-01-01 22:33:14.58	160.45	1.63	-51.9	-54.4	3.6	0.00e+00	0	39	104	0	60	88720
2026-01-01 22:33:15.59	160.53	1.57	-52.0	-54.5	3.6	0.00e+00	0	39	104	0	60	89255
2026-01-01 22:33:16.60	160.60	1.50	-52.0	-54.4	3.6	0.00e+00	0	39	104	0	60	88978
2026-01-01 22:33:17.61	160.68	1.44	-52.0	-54.5	3.6	0.00e+00	0	39	104	0	60	89312
2026-01-01 22:33:18.62	160.75	1.38	-52.0	-54.5	3.6	0.00e+00	0	39	104	0	60	89257
2026-01-01 22:33:19.63	160.83	1.32	-52.0	-54.4	3.6	0.00e+00	0	39	104	0	60	88827
2026-01-01 22:33:20.64	160.90	1.25	-52.0	-54.4	3.6	0.00e+00	0	39	104	0	60	89183
2026-01-01 22:33:21.65	160.97	1.19	-52.0	-54.4	3.6	0.00e+00	0	39	104	0	60	88810
2026-01-01 22:33:22.67	161.05	1.13	-52.0	-54.4	3.6	0.00e+00	0	39	104	0	60	89038
2026-01-01 22:33:23.68	161.12	1.07	-51.9	-54.4	3.6	0.00e+00	0	39	104	0	60	89081
2026-01-01 22:33:24.69	161.19	1.00	-52.0	-54.5	3.6	0.00e+00	0	39	104	0	60	89289
2026-01-01 22:33:25.70	161.26	0.94	-51.9	-54.4	3.6	0.00e+00	0	39	104	0	60	88810
2026-01-01 22:33:26.71	161.34	0.88	-51.9	-54.4	3.6	0.00e+00	0	39	104	0	60	89199
2026-01-01 22:33:27.72	161.41	0.82	-51.9	-54.4	3.6	0.00e+00	0	39	104	0	60	88813
2026-01-01 22:33:28.73	161.48	0.76	-51.9	-54.4	3.6	0.00e+00	0	39	104	0	60	88446
2026-01-01 22:33:29.74	161.55	0.70	-51.9	-54.4	3.6	0.00e+00	0	39	104	0	60	88318
2026-01-01 22:33:30.75	161.62	0.63	-51.9	-54.4	3.6	0.00e+00	0	39	104	0	60	88985
2026-01-01 22:33:31.76	161.69	0.57	-51.9	-54.4	3.6	0.00e+00	0	39	104	0	60	88960
2026-01-01 22:33:32.77	161.76	0.51	-51.9	-54.4	3.6	0.00e+00	0	39	104	0	60	88692
2026-01-01 22:33:33.78	161.83	0.45	-52.0	-54.4	3.6	0.00e+00	0	39	104	0	60	88916
2026-01-01 22:33:34.79	161.89	0.39	-52.0	-54.4	3.6	0.00e+00	0	39	104	0	60	89040
2026-01-01 22:33:35.80	161.96	0.33	-52.0	-54.5	3.5	0.00e+00	0	39	104	0	60	89550
2026-01-01 22:33:36.81	162.03	0.27	-51.9	-54.4	3.6	0.00e+00	0	39	104	0	60	89112
2026-01-01 22:33:37.82	162.10	0.21	-51.9	-54.4	3.6	0.00e+00	0	39	104	0	60	88443
2026-01-01 22:33:38.83	162.16	0.15	-51.9	-54.4	3.6	0.00e+00	0	39	104	0	60	88607
2026-01-01 22:33:39.84	162.23	0.09	-51.9	-54.4	3.6	0.00e+00	0	39	104	0	60	88346
2026-01-01 22:33:40.85	162.30	0.03	-51.9	-54.4	3.6	0.00e+00	0	39	104	0	60	88954
2026-01-01 22:33:41.86	162.36	-0.03	-51.9	-54.4	3.6	0.00e+00	0	39	104	0	60	88887

#Closed at: 2026-01-01 22:33:42
#Recorded file [0 MB]: D:/lorett/data/35034_260102_012234.dat