passes_logs/2026/01/01/R4.6S_Anadyr_2ch/R4.6S_Anadyr_2ch__20260101_014552_2025-108B_rec.log

#Pass ID: 20260101_014552_2025-108B
#Satellite: 2025-108B
#Configuration: 3PB_600M
#almurnet v.1.7.20251203
#Start time: 2026-01-01 01:45:54

#Version: 2.2.20231116
#Station: R4.6S_Anadyr_2ch
#Location: 177.4865 lon 64.73178 lat
#TLE: 1 64088U 25108B   25351.01672131  .00008460  00000+0  43413-3 0  9994
#TLE: 2 64088  97.4940  63.8579 0011684 285.1423  74.8517 15.16717580 31720

#Time	Az	El	Level	Level2	SNR	BER	BlckErr	Temp	State	Recorded	gain1	gain2
2026-01-01 01:45:54.72	18.15	0.13	-51.1	-52.6	3.4	0.00e+00	0	34	0	0	60	71745
2026-01-01 01:45:55.73	18.06	0.19	-51.9	-54.3	3.6	0.00e+00	0	35	104	0	60	88076
2026-01-01 01:45:56.74	17.98	0.24	-51.9	-54.4	3.6	0.00e+00	0	35	104	0	60	88678
2026-01-01 01:45:57.75	17.90	0.30	-51.9	-54.4	3.6	0.00e+00	0	35	104	0	60	88722
2026-01-01 01:45:58.76	17.82	0.35	-51.9	-54.4	3.6	0.00e+00	0	35	104	0	60	88312
2026-01-01 01:45:59.77	17.74	0.41	-51.9	-54.4	3.6	0.00e+00	0	35	104	0	60	88761
2026-01-01 01:46:00.78	17.65	0.47	-51.9	-54.4	3.6	0.00e+00	0	36	104	0	60	88554
2026-01-01 01:46:01.79	17.57	0.52	-51.9	-54.4	3.5	0.00e+00	0	36	104	0	60	88690
2026-01-01 01:46:02.80	17.48	0.58	-51.9	-54.4	3.6	0.00e+00	0	36	104	0	60	88682
2026-01-01 01:46:03.82	17.40	0.64	-51.9	-54.3	3.6	0.00e+00	0	36	104	0	60	88206
2026-01-01 01:46:04.83	17.31	0.70	-51.9	-54.4	3.6	0.00e+00	0	36	104	0	60	88560
2026-01-01 01:46:05.84	17.23	0.75	-51.9	-54.4	3.6	0.00e+00	0	36	104	0	60	88893
2026-01-01 01:46:06.85	17.14	0.81	-51.9	-54.4	3.6	0.00e+00	0	36	104	0	60	88387
2026-01-01 01:46:07.86	17.06	0.87	-51.9	-54.4	3.6	0.00e+00	0	36	104	0	60	88267
2026-01-01 01:46:08.87	16.97	0.92	-51.9	-54.4	3.6	0.00e+00	0	36	104	0	60	88818
2026-01-01 01:46:09.88	16.88	0.98	-51.9	-54.4	3.6	0.00e+00	0	36	104	0	60	88254
2026-01-01 01:46:10.90	16.79	1.04	-51.9	-54.4	3.6	0.00e+00	0	36	104	0	60	88705
2026-01-01 01:46:11.91	16.71	1.10	-51.9	-54.4	3.6	0.00e+00	0	36	104	0	60	88491
2026-01-01 01:46:12.92	16.62	1.16	-51.9	-54.4	3.6	0.00e+00	0	36	104	0	60	88569
2026-01-01 01:46:13.93	16.53	1.21	-51.9	-54.4	3.6	0.00e+00	0	36	104	0	60	88685
2026-01-01 01:46:14.94	16.44	1.27	-51.9	-54.4	3.6	0.00e+00	0	36	104	0	60	88369
2026-01-01 01:46:15.95	16.35	1.33	-51.9	-54.3	3.6	0.00e+00	0	36	104	0	60	87944
2026-01-01 01:46:16.96	16.26	1.39	-51.9	-54.4	3.6	0.00e+00	0	36	104	0	60	88743
2026-01-01 01:46:17.97	16.17	1.45	-51.9	-54.4	3.6	0.00e+00	0	36	104	0	60	88819
2026-01-01 01:46:18.98	16.08	1.50	-51.9	-54.4	3.6	0.00e+00	0	36	104	0	60	88561
2026-01-01 01:46:19.99	15.98	1.56	-51.9	-54.4	3.6	0.00e+00	0	36	104	0	60	88641
2026-01-01 01:46:21.01	15.89	1.62	-51.9	-54.4	3.6	0.00e+00	0	36	104	0	60	88561
2026-01-01 01:46:22.02	15.80	1.68	-51.9	-54.4	3.6	0.00e+00	0	36	104	0	60	88322
2026-01-01 01:46:23.03	15.71	1.74	-51.9	-54.4	3.6	0.00e+00	0	36	104	0	60	88718
2026-01-01 01:46:24.04	15.61	1.80	-51.9	-54.4	3.6	0.00e+00	0	36	104	0	60	88710
2026-01-01 01:46:25.05	15.52	1.86	-51.9	-54.4	3.6	0.00e+00	0	36	104	0	60	88674
2026-01-01 01:46:26.06	15.42	1.91	-51.9	-54.4	3.6	0.00e+00	0	36	104	0	60	88443
2026-01-01 01:46:27.07	15.33	1.97	-51.9	-54.4	3.6	0.00e+00	0	37	104	0	60	88614
2026-01-01 01:46:28.08	15.23	2.03	-51.9	-54.3	3.6	0.00e+00	0	37	104	0	60	88196
2026-01-01 01:46:29.09	15.14	2.09	-51.9	-54.4	3.6	0.00e+00	0	36	104	0	60	88448
2026-01-01 01:46:30.11	15.04	2.15	-51.9	-54.4	3.6	0.00e+00	0	37	104	0	60	88237
2026-01-01 01:46:31.12	14.94	2.21	-51.9	-54.3	3.6	0.00e+00	0	37	104	0	60	88097
2026-01-01 01:46:32.13	14.84	2.27	-51.9	-54.4	3.6	0.00e+00	0	37	104	0	60	88407
2026-01-01 01:46:33.14	14.75	2.33	-51.9	-54.4	3.6	0.00e+00	0	37	104	0	60	88771
2026-01-01 01:46:34.15	14.65	2.39	-51.9	-54.4	3.6	0.00e+00	0	37	104	0	60	88450
2026-01-01 01:46:35.16	14.55	2.45	-51.9	-54.4	3.6	0.00e+00	0	37	104	0	60	88441
2026-01-01 01:46:36.17	14.45	2.51	-51.9	-54.4	3.6	0.00e+00	0	37	104	0	60	88556
2026-01-01 01:46:37.18	14.35	2.57	-51.9	-54.3	3.6	0.00e+00	0	37	104	0	60	87881
2026-01-01 01:46:38.19	14.25	2.63	-51.9	-54.4	3.6	0.00e+00	0	37	104	0	60	88635
2026-01-01 01:46:39.20	14.14	2.69	-51.9	-54.4	3.6	0.00e+00	0	37	104	0	60	88353
2026-01-01 01:46:40.22	14.04	2.75	-51.9	-54.4	3.6	0.00e+00	0	37	104	0	60	88514
2026-01-01 01:46:41.23	13.94	2.81	-51.9	-54.4	3.6	0.00e+00	0	37	104	0	60	88267
2026-01-01 01:46:42.24	13.84	2.87	-51.9	-54.4	3.6	0.00e+00	0	37	104	0	60	88661
2026-01-01 01:46:43.25	13.73	2.93	-51.9	-54.4	3.6	0.00e+00	0	37	104	0	60	88614
2026-01-01 01:46:44.26	13.63	2.99	-51.9	-54.3	3.6	0.00e+00	0	37	104	0	60	88184
2026-01-01 01:46:45.27	13.52	3.05	-51.9	-54.3	3.6	0.00e+00	0	37	104	0	60	88193
2026-01-01 01:46:46.28	13.42	3.11	-51.9	-54.4	3.6	0.00e+00	0	37	104	0	60	88327
2026-01-01 01:46:47.29	13.31	3.18	-51.9	-54.4	3.6	0.00e+00	0	37	104	0	60	88829
2026-01-01 01:46:48.30	13.21	3.24	-51.9	-54.4	3.6	0.00e+00	0	37	104	0	60	88775
2026-01-01 01:46:49.32	13.10	3.30	-51.9	-54.4	3.6	0.00e+00	0	37	104	0	60	88398
2026-01-01 01:46:50.33	12.99	3.36	-51.9	-54.4	3.6	0.00e+00	0	37	104	0	60	88487
2026-01-01 01:46:51.34	12.88	3.42	-51.9	-54.4	3.6	0.00e+00	0	37	104	0	60	88647
2026-01-01 01:46:52.35	12.77	3.48	-51.9	-54.4	3.6	0.00e+00	0	37	104	0	60	88641
2026-01-01 01:46:53.36	12.66	3.54	-51.9	-54.4	3.6	0.00e+00	0	37	104	0	60	88390
2026-01-01 01:46:54.37	12.55	3.61	-51.9	-54.3	3.6	0.00e+00	0	37	104	0	60	88186
2026-01-01 01:46:55.38	12.44	3.67	-51.9	-54.3	3.6	0.00e+00	0	37	104	0	60	88100
2026-01-01 01:46:56.39	12.33	3.73	-51.9	-54.4	3.6	0.00e+00	0	37	104	0	60	88352
2026-01-01 01:46:57.40	12.22	3.79	-51.9	-54.3	3.6	0.00e+00	0	37	104	0	60	87960
2026-01-01 01:46:58.42	12.11	3.85	-51.9	-54.4	3.6	0.00e+00	0	37	104	0	60	88660
2026-01-01 01:46:59.43	11.99	3.92	-51.9	-54.4	3.6	0.00e+00	0	37	104	0	60	88468
2026-01-01 01:47:00.44	11.88	3.98	-51.9	-54.4	3.6	0.00e+00	0	37	104	0	60	88284
2026-01-01 01:47:01.45	11.77	4.04	-51.9	-54.4	3.6	0.00e+00	0	37	104	0	60	88540
2026-01-01 01:47:02.46	11.65	4.10	-51.9	-54.4	3.6	0.00e+00	0	37	104	0	60	88317
2026-01-01 01:47:03.47	11.54	4.16	-51.9	-54.4	3.6	0.00e+00	0	37	104	0	60	88849
2026-01-01 01:47:04.48	11.42	4.23	-51.9	-54.4	3.6	0.00e+00	0	37	104	0	60	88545
2026-01-01 01:47:05.49	11.30	4.29	-51.9	-54.4	3.6	0.00e+00	0	37	104	0	60	88317
2026-01-01 01:47:06.50	11.18	4.35	-51.9	-54.4	3.6	0.00e+00	0	37	104	0	60	88637
2026-01-01 01:47:07.51	11.07	4.42	-51.9	-54.4	3.6	0.00e+00	0	37	104	0	60	88850
2026-01-01 01:47:08.52	10.95	4.48	-51.9	-54.4	3.6	0.00e+00	0	37	104	0	60	88280
2026-01-01 01:47:09.54	10.83	4.54	-51.9	-54.3	3.6	0.00e+00	0	37	104	0	60	88205
2026-01-01 01:47:10.55	10.71	4.60	-51.9	-54.4	3.6	0.00e+00	0	37	104	0	60	88610
2026-01-01 01:47:11.56	10.59	4.67	-51.9	-54.4	3.6	0.00e+00	0	37	104	0	60	88250
2026-01-01 01:47:12.57	10.46	4.73	-51.9	-54.4	3.6	0.00e+00	0	37	104	0	60	88708
2026-01-01 01:47:13.58	10.34	4.79	-51.9	-54.3	3.6	0.00e+00	0	37	104	0	60	88159
2026-01-01 01:47:14.59	10.22	4.86	-51.9	-54.4	3.6	0.00e+00	0	37	104	0	60	88438
2026-01-01 01:47:15.60	10.10	4.92	-51.9	-54.4	3.6	0.00e+00	0	37	104	0	60	88733
2026-01-01 01:47:16.61	9.97	4.99	-51.9	-54.4	3.6	0.00e+00	0	37	104	0	60	88393
2026-01-01 01:47:17.62	9.85	5.05	-51.9	-54.3	3.6	0.00e+00	0	37	104	0	60	88157
2026-01-01 01:47:18.63	9.72	5.11	-51.9	-54.4	3.6	0.00e+00	0	37	104	0	60	88720
2026-01-01 01:47:19.64	9.60	5.18	-51.9	-54.4	3.6	0.00e+00	0	37	104	0	60	88746
2026-01-01 01:47:20.66	9.47	5.24	-51.9	-54.4	3.6	0.00e+00	0	37	104	0	60	88436
2026-01-01 01:47:21.67	9.34	5.31	-51.9	-54.4	3.6	0.00e+00	0	37	104	0	60	88754
2026-01-01 01:47:22.68	9.21	5.37	-51.9	-54.4	3.6	0.00e+00	0	37	104	0	60	88551
2026-01-01 01:47:23.69	9.08	5.43	-51.9	-54.4	3.6	0.00e+00	0	37	104	0	60	88797
2026-01-01 01:47:24.70	8.95	5.50	-51.9	-54.4	3.6	0.00e+00	0	38	104	0	60	88273
2026-01-01 01:47:25.71	8.82	5.56	-51.9	-54.4	3.6	0.00e+00	0	38	104	0	60	88507
2026-01-01 01:47:26.72	8.69	5.63	-51.9	-54.4	3.6	0.00e+00	0	38	104	0	60	88270
2026-01-01 01:47:27.73	8.56	5.69	-51.9	-54.4	3.6	0.00e+00	0	38	104	0	60	88285
2026-01-01 01:47:28.74	8.42	5.76	-51.9	-54.5	3.6	0.00e+00	0	38	104	0	60	89260
2026-01-01 01:47:29.75	8.29	5.82	-51.9	-54.4	3.6	0.00e+00	0	38	104	0	60	88433
2026-01-01 01:47:30.76	8.16	5.89	-51.9	-54.4	3.6	0.00e+00	0	38	104	0	60	88307
2026-01-01 01:47:31.77	8.02	5.95	-51.9	-54.4	3.6	0.00e+00	0	38	104	0	60	88420
2026-01-01 01:47:32.78	7.89	6.02	-51.9	-54.4	3.6	0.00e+00	0	38	104	0	60	88895
2026-01-01 01:47:33.79	7.75	6.08	-51.9	-54.4	3.6	0.00e+00	0	38	104	0	60	88535
2026-01-01 01:47:34.81	7.61	6.15	-51.9	-54.3	3.6	0.00e+00	0	38	104	0	60	88139
2026-01-01 01:47:35.82	7.47	6.21	-51.9	-54.4	3.6	0.00e+00	0	38	104	0	60	88512
2026-01-01 01:47:36.83	7.33	6.28	-51.9	-54.4	3.6	0.00e+00	0	38	104	0	60	88949
2026-01-01 01:47:37.84	7.19	6.34	-51.9	-54.3	3.6	0.00e+00	0	38	104	0	60	88096
2026-01-01 01:47:38.85	7.05	6.41	-51.9	-54.3	3.6	0.00e+00	0	38	104	0	60	88203
2026-01-01 01:47:39.86	6.91	6.48	-51.9	-54.4	3.6	0.00e+00	0	38	104	0	60	88624
2026-01-01 01:47:40.87	6.77	6.54	-51.9	-54.4	3.6	0.00e+00	0	38	104	0	60	89086
2026-01-01 01:47:41.88	6.62	6.61	-51.9	-54.4	3.6	0.00e+00	0	38	104	0	60	88418
2026-01-01 01:47:42.89	6.48	6.67	-51.9	-54.4	3.6	0.00e+00	0	38	104	0	60	88476
2026-01-01 01:47:43.90	6.34	6.74	-51.9	-54.3	3.5	0.00e+00	0	38	104	0	60	88205
2026-01-01 01:47:44.92	6.19	6.80	-51.9	-54.4	3.6	0.00e+00	0	38	104	0	60	88356
2026-01-01 01:47:45.93	6.04	6.87	-51.9	-54.3	3.6	0.00e+00	0	38	104	0	60	88042
2026-01-01 01:47:46.94	5.90	6.94	-51.9	-54.4	3.6	0.00e+00	0	38	104	0	60	88593
2026-01-01 01:47:47.95	5.75	7.00	-51.9	-54.4	3.6	0.00e+00	0	38	104	0	60	88969
2026-01-01 01:47:48.96	5.60	7.07	-51.9	-54.4	3.6	0.00e+00	0	38	104	0	60	88676
2026-01-01 01:47:49.97	5.45	7.14	-51.9	-54.4	3.6	0.00e+00	0	38	104	0	60	88483
2026-01-01 01:47:50.98	5.30	7.20	-51.9	-54.4	3.6	0.00e+00	0	38	104	0	60	88312
2026-01-01 01:47:52.00	5.14	7.27	-51.9	-54.4	3.6	0.00e+00	0	38	104	0	60	88979
2026-01-01 01:47:53.01	4.99	7.34	-51.9	-54.3	3.6	0.00e+00	0	38	104	0	60	88184
2026-01-01 01:47:54.02	4.84	7.40	-51.9	-54.4	3.6	0.00e+00	0	38	104	0	60	88529
2026-01-01 01:47:55.03	4.68	7.47	-51.9	-54.4	3.6	0.00e+00	0	38	104	0	60	88242
2026-01-01 01:47:56.04	4.53	7.54	-51.9	-54.3	3.6	0.00e+00	0	38	104	0	60	88047
2026-01-01 01:47:57.05	4.37	7.60	-51.9	-54.3	3.6	0.00e+00	0	38	104	0	60	88144
2026-01-01 01:47:58.06	4.22	7.67	-51.9	-54.4	3.6	0.00e+00	0	38	104	0	60	88284
2026-01-01 01:47:59.07	4.06	7.74	-51.9	-54.4	3.6	0.00e+00	0	38	104	0	60	88318
2026-01-01 01:48:00.08	3.90	7.80	-51.9	-54.4	3.6	0.00e+00	0	38	104	0	60	88726
2026-01-01 01:48:01.09	3.74	7.87	-51.9	-54.3	3.6	0.00e+00	0	38	104	0	60	87950
2026-01-01 01:48:02.10	3.58	7.94	-51.9	-54.4	3.6	0.00e+00	0	38	104	0	60	88551
2026-01-01 01:48:03.12	3.42	8.01	-51.9	-54.4	3.6	0.00e+00	0	38	104	0	60	88267
2026-01-01 01:48:04.13	3.25	8.07	-51.9	-54.4	3.6	0.00e+00	0	38	104	0	60	88602
2026-01-01 01:48:05.14	3.09	8.14	-51.9	-54.4	3.6	0.00e+00	0	38	104	0	60	88369
2026-01-01 01:48:06.15	2.93	8.21	-51.9	-54.4	3.6	0.00e+00	0	38	104	0	60	88580
2026-01-01 01:48:07.16	2.76	8.27	-51.9	-54.4	3.6	0.00e+00	0	38	104	0	60	88617
2026-01-01 01:48:08.17	2.59	8.34	-51.9	-54.4	3.6	0.00e+00	0	38	104	0	60	88273
2026-01-01 01:48:09.18	2.43	8.41	-51.9	-54.4	3.6	0.00e+00	0	38	104	0	60	89039
2026-01-01 01:48:10.19	2.26	8.48	-51.9	-54.4	3.6	0.00e+00	0	38	104	0	60	88702
2026-01-01 01:48:11.20	2.09	8.54	-51.9	-54.4	3.6	0.00e+00	0	38	104	0	60	88560
2026-01-01 01:48:12.22	1.92	8.61	-51.9	-54.4	3.6	0.00e+00	0	38	104	0	60	88676
2026-01-01 01:48:13.22	1.75	8.68	-51.9	-54.4	3.6	0.00e+00	0	38	104	0	60	88222
2026-01-01 01:48:14.23	1.58	8.75	-51.9	-54.4	3.6	0.00e+00	0	38	104	0	60	88655
2026-01-01 01:48:15.25	1.40	8.81	-51.9	-54.4	3.6	0.00e+00	0	38	104	0	60	88632
2026-01-01 01:48:16.26	1.23	8.88	-51.9	-54.4	3.6	0.00e+00	0	38	104	0	60	88252
2026-01-01 01:48:17.27	1.05	8.95	-51.9	-54.4	3.6	0.00e+00	0	38	104	0	60	88374
2026-01-01 01:48:18.28	0.88	9.02	-51.9	-54.4	3.6	0.00e+00	0	38	104	0	60	88253
2026-01-01 01:48:19.29	0.70	9.08	-51.9	-54.4	3.6	0.00e+00	0	38	104	0	60	88493
2026-01-01 01:48:20.30	0.52	9.15	-51.9	-54.4	3.6	0.00e+00	0	38	104	0	60	88369
2026-01-01 01:48:21.31	0.34	9.22	-51.9	-54.4	3.6	0.00e+00	0	38	104	0	60	88529
2026-01-01 01:48:22.32	0.16	9.29	-51.9	-54.4	3.6	0.00e+00	0	38	104	0	60	88561
2026-01-01 01:48:23.33	359.98	9.35	-51.9	-54.4	3.6	0.00e+00	0	38	104	0	60	89036
2026-01-01 01:48:24.34	359.80	9.42	-51.9	-54.4	3.6	0.00e+00	0	38	104	0	60	88232
2026-01-01 01:48:25.35	359.61	9.49	-51.9	-54.4	3.6	0.00e+00	0	38	104	0	60	88491
2026-01-01 01:48:26.36	359.43	9.56	-51.9	-54.4	3.6	0.00e+00	0	38	104	0	60	88294
2026-01-01 01:48:27.38	359.24	9.63	-51.9	-54.4	3.6	0.00e+00	0	38	104	0	60	88376
2026-01-01 01:48:28.39	359.06	9.69	-51.9	-54.3	3.6	0.00e+00	0	38	104	0	60	88156
2026-01-01 01:48:29.40	358.87	9.76	-51.9	-54.4	3.6	0.00e+00	0	38	104	0	60	88439
2026-01-01 01:48:30.41	358.68	9.83	-51.9	-54.3	3.6	0.00e+00	0	38	104	0	60	87963
2026-01-01 01:48:31.42	358.49	9.90	-51.9	-54.3	3.6	0.00e+00	0	38	104	0	60	88051
2026-01-01 01:48:32.43	358.30	9.96	-51.9	-54.4	3.6	0.00e+00	0	38	104	0	60	88654
2026-01-01 01:48:33.44	358.11	10.03	-51.9	-54.4	3.6	0.00e+00	0	38	104	0	60	88609
2026-01-01 01:48:34.45	357.91	10.10	-51.9	-54.4	3.6	0.00e+00	0	38	104	0	60	88341
2026-01-01 01:48:35.46	357.72	10.17	-51.9	-54.4	3.6	0.00e+00	0	38	104	0	60	88579
2026-01-01 01:48:36.47	357.52	10.23	-51.9	-54.3	3.6	0.00e+00	0	38	104	0	60	88098
2026-01-01 01:48:37.48	357.33	10.30	-51.9	-54.4	3.6	0.00e+00	0	38	104	0	60	88514
2026-01-01 01:48:38.50	357.13	10.37	-51.9	-54.4	3.6	0.00e+00	0	38	104	0	60	88388
2026-01-01 01:48:39.51	356.93	10.44	-51.9	-54.4	3.6	0.00e+00	0	38	104	0	60	88494
2026-01-01 01:48:40.52	356.73	10.50	-51.9	-54.3	3.6	0.00e+00	0	38	104	0	60	88049
2026-01-01 01:48:41.53	356.53	10.57	-51.9	-54.3	3.6	0.00e+00	0	38	104	0	60	88167
2026-01-01 01:48:42.54	356.33	10.64	-51.9	-54.4	3.6	0.00e+00	0	38	104	0	60	88988
2026-01-01 01:48:43.55	356.12	10.70	-51.9	-54.4	3.6	0.00e+00	0	38	104	0	60	88419
2026-01-01 01:48:44.56	355.92	10.77	-51.9	-54.4	3.6	0.00e+00	0	38	104	0	60	88330
2026-01-01 01:48:45.57	355.71	10.84	-51.9	-54.4	3.6	0.00e+00	0	38	104	0	60	88744
2026-01-01 01:48:46.58	355.51	10.90	-51.9	-54.3	3.6	0.00e+00	0	38	104	0	60	88072
2026-01-01 01:48:47.60	355.30	10.97	-51.9	-54.4	3.6	0.00e+00	0	38	104	0	60	88351
2026-01-01 01:48:48.61	355.09	11.04	-51.9	-54.3	3.6	0.00e+00	0	38	104	0	60	88073
2026-01-01 01:48:49.62	354.88	11.11	-51.9	-54.4	3.6	0.00e+00	0	38	104	0	60	88803
2026-01-01 01:48:50.63	354.67	11.17	-51.9	-54.4	3.6	0.00e+00	0	38	104	0	60	88373
2026-01-01 01:48:51.64	354.45	11.24	-51.9	-54.4	3.6	0.00e+00	0	38	104	0	60	88926
2026-01-01 01:48:52.65	354.24	11.30	-51.9	-54.4	3.6	0.00e+00	0	38	104	0	60	88497
2026-01-01 01:48:53.66	354.03	11.37	-51.9	-54.3	3.6	0.00e+00	0	38	104	0	60	88217
2026-01-01 01:48:54.67	353.81	11.44	-51.9	-54.4	3.6	0.00e+00	0	38	104	0	60	88405
2026-01-01 01:48:55.68	353.59	11.50	-51.9	-54.4	3.6	0.00e+00	0	38	104	0	60	88431
2026-01-01 01:48:56.70	353.37	11.57	-51.9	-54.4	3.6	0.00e+00	0	38	104	0	60	88759
2026-01-01 01:48:57.71	353.15	11.63	-51.9	-54.4	3.6	0.00e+00	0	38	104	0	60	88933
2026-01-01 01:48:58.72	352.93	11.70	-51.9	-54.4	3.6	0.00e+00	0	38	104	0	60	88537
2026-01-01 01:48:59.73	352.71	11.77	-51.9	-54.4	3.6	0.00e+00	0	38	104	0	60	88563
2026-01-01 01:49:00.74	352.49	11.83	-51.9	-54.4	3.6	0.00e+00	0	38	104	0	60	88281
2026-01-01 01:49:01.75	352.26	11.90	-51.9	-54.4	3.6	0.00e+00	0	38	104	0	60	88597
2026-01-01 01:49:02.76	352.04	11.96	-51.9	-54.3	3.5	0.00e+00	0	38	104	0	60	88081
2026-01-01 01:49:03.77	351.81	12.03	-51.9	-54.3	3.6	0.00e+00	0	38	104	0	60	87978
2026-01-01 01:49:04.78	351.58	12.09	-51.9	-54.4	3.6	0.00e+00	0	38	104	0	60	88826
2026-01-01 01:49:05.79	351.35	12.16	-51.9	-54.4	3.6	0.00e+00	0	38	104	0	60	88403
2026-01-01 01:49:06.80	351.12	12.22	-51.9	-54.4	3.6	0.00e+00	0	38	104	0	60	88675
2026-01-01 01:49:07.81	350.89	12.28	-51.9	-54.4	3.6	0.00e+00	0	38	104	0	60	88668
2026-01-01 01:49:08.82	350.66	12.35	-51.9	-54.4	3.6	0.00e+00	0	38	104	0	60	88342
2026-01-01 01:49:09.83	350.42	12.41	-51.9	-54.4	3.6	0.00e+00	0	38	104	0	60	88268
2026-01-01 01:49:10.85	350.18	12.48	-51.9	-54.4	3.6	0.00e+00	0	38	104	0	60	88531
2026-01-01 01:49:11.86	349.95	12.54	-51.9	-54.3	3.6	0.00e+00	0	39	104	0	60	87852
2026-01-01 01:49:12.87	349.71	12.60	-51.9	-54.4	3.6	0.00e+00	0	39	104	0	60	88256
2026-01-01 01:49:13.88	349.47	12.67	-51.9	-54.3	3.6	0.00e+00	0	39	104	0	60	88194
2026-01-01 01:49:14.89	349.23	12.73	-51.9	-54.3	3.6	0.00e+00	0	39	104	0	60	87983
2026-01-01 01:49:15.90	348.99	12.79	-51.9	-54.4	3.6	0.00e+00	0	38	104	0	60	88289
2026-01-01 01:49:16.91	348.75	12.85	-51.9	-54.4	3.6	0.00e+00	0	38	104	0	60	88570
2026-01-01 01:49:17.92	348.50	12.92	-51.9	-54.4	3.6	0.00e+00	0	39	104	0	60	88280
2026-01-01 01:49:18.93	348.26	12.98	-51.9	-54.4	3.6	0.00e+00	0	38	104	0	60	88400
2026-01-01 01:49:19.94	348.01	13.04	-51.9	-54.4	3.6	0.00e+00	0	38	104	0	60	88580
2026-01-01 01:49:20.96	347.76	13.10	-51.9	-54.3	3.6	0.00e+00	0	39	104	0	60	88193
2026-01-01 01:49:21.97	347.51	13.16	-51.9	-54.4	3.6	0.00e+00	0	38	104	0	60	88667
2026-01-01 01:49:22.98	347.26	13.22	-51.9	-54.4	3.6	0.00e+00	0	39	104	0	60	88256
2026-01-01 01:49:23.99	347.01	13.28	-51.9	-54.4	3.6	0.00e+00	0	39	104	0	60	88221
2026-01-01 01:49:25.00	346.76	13.34	-51.9	-54.3	3.6	0.00e+00	0	39	104	0	60	88211
2026-01-01 01:49:26.01	346.50	13.40	-51.9	-54.4	3.6	0.00e+00	0	39	104	0	60	88492
2026-01-01 01:49:27.02	346.25	13.46	-51.9	-54.4	3.6	0.00e+00	0	39	104	0	60	88265
2026-01-01 01:49:28.03	345.99	13.52	-51.9	-54.4	3.6	0.00e+00	0	39	104	0	60	88407
2026-01-01 01:49:29.04	345.73	13.58	-51.9	-54.4	3.6	0.00e+00	0	39	104	0	60	88363
2026-01-01 01:49:30.05	345.47	13.64	-51.9	-54.4	3.6	0.00e+00	0	39	104	0	60	88344
2026-01-01 01:49:31.07	345.21	13.70	-51.9	-54.3	3.6	0.00e+00	0	39	104	0	60	88151
2026-01-01 01:49:32.08	344.95	13.76	-51.9	-54.4	3.6	0.00e+00	0	38	104	0	60	88492
2026-01-01 01:49:33.09	344.69	13.81	-51.9	-54.3	3.6	0.00e+00	0	38	104	0	60	87843
2026-01-01 01:49:34.10	344.42	13.87	-51.9	-54.4	3.6	0.00e+00	0	39	104	0	60	88480
2026-01-01 01:49:35.11	344.16	13.93	-51.9	-54.3	3.6	0.00e+00	0	39	104	0	60	87894
2026-01-01 01:49:36.12	343.89	13.99	-51.9	-54.4	3.6	0.00e+00	0	38	104	0	60	88719
2026-01-01 01:49:37.13	343.62	14.04	-51.9	-54.3	3.6	0.00e+00	0	39	104	0	60	88154
2026-01-01 01:49:38.14	343.35	14.10	-51.9	-54.4	3.6	0.00e+00	0	39	104	0	60	88270
2026-01-01 01:49:39.15	343.08	14.15	-51.9	-54.4	3.6	0.00e+00	0	39	104	0	60	88631
2026-01-01 01:49:40.17	342.81	14.21	-51.9	-54.3	3.6	0.00e+00	0	39	104	0	60	87967
2026-01-01 01:49:41.18	342.54	14.26	-51.9	-54.3	3.6	0.00e+00	0	39	104	0	60	87913
2026-01-01 01:49:42.19	342.26	14.32	-51.9	-54.4	3.6	0.00e+00	0	39	104	0	60	88533
2026-01-01 01:49:43.20	341.99	14.37	-51.9	-54.3	3.6	0.00e+00	0	39	104	0	60	88193
2026-01-01 01:49:44.21	341.71	14.42	-51.9	-54.3	3.6	0.00e+00	0	39	104	0	60	88184
2026-01-01 01:49:45.22	341.43	14.48	-51.9	-54.4	3.6	0.00e+00	0	39	104	0	60	88372
2026-01-01 01:49:46.23	341.16	14.53	-51.9	-54.4	3.6	0.00e+00	0	39	104	0	60	88403
2026-01-01 01:49:47.25	340.87	14.58	-51.9	-54.4	3.6	0.00e+00	0	39	104	0	60	88338
2026-01-01 01:49:48.26	340.59	14.63	-51.9	-54.4	3.6	0.00e+00	0	39	104	0	60	88653
2026-01-01 01:49:49.27	340.31	14.69	-51.9	-54.3	3.6	0.00e+00	0	39	104	0	60	88160
2026-01-01 01:49:50.28	340.03	14.74	-51.9	-54.4	3.6	0.00e+00	0	39	104	0	60	88746
2026-01-01 01:49:51.29	339.74	14.79	-51.9	-54.3	3.6	0.00e+00	0	39	104	0	60	88111
2026-01-01 01:49:52.30	339.46	14.84	-51.9	-54.3	3.6	0.00e+00	0	39	104	0	60	88067
2026-01-01 01:49:53.31	339.17	14.89	-51.9	-54.3	3.6	0.00e+00	0	39	104	0	60	87975
2026-01-01 01:49:54.32	338.88	14.93	-51.9	-54.4	3.6	0.00e+00	0	39	104	0	60	88258
2026-01-01 01:49:55.33	338.60	14.98	-51.9	-54.3	3.6	0.00e+00	0	39	104	0	60	88063
2026-01-01 01:49:56.34	338.31	15.03	-51.9	-54.4	3.6	0.00e+00	0	39	104	0	60	88368
2026-01-01 01:49:57.35	338.01	15.08	-51.9	-54.4	3.6	0.00e+00	0	39	104	0	60	88766
2026-01-01 01:49:58.37	337.72	15.12	-51.9	-54.4	3.6	0.00e+00	0	39	104	0	60	88245
2026-01-01 01:49:59.38	337.43	15.17	-51.9	-54.4	3.6	0.00e+00	0	39	104	0	60	88322
2026-01-01 01:50:00.39	337.13	15.22	-51.9	-54.4	3.6	0.00e+00	0	39	104	0	60	88356
2026-01-01 01:50:01.40	336.84	15.26	-51.9	-54.4	3.6	0.00e+00	0	39	104	0	60	88625
2026-01-01 01:50:02.41	336.54	15.30	-51.9	-54.4	3.6	0.00e+00	0	39	104	0	60	88536
2026-01-01 01:50:03.42	336.24	15.35	-51.9	-54.4	3.6	0.00e+00	0	39	104	0	60	88255
2026-01-01 01:50:04.43	335.94	15.39	-51.9	-54.4	3.6	0.00e+00	0	39	104	0	60	88766
2026-01-01 01:50:05.45	335.64	15.43	-51.9	-54.4	3.6	0.00e+00	0	39	104	0	60	88340
2026-01-01 01:50:06.46	335.34	15.48	-51.9	-54.4	3.6	0.00e+00	0	39	104	0	60	88599
2026-01-01 01:50:07.47	335.04	15.52	-51.9	-54.4	3.6	0.00e+00	0	39	104	0	60	88548
2026-01-01 01:50:08.48	334.74	15.56	-51.9	-54.4	3.6	0.00e+00	0	39	104	0	60	88433
2026-01-01 01:50:09.49	334.43	15.60	-51.9	-54.3	3.6	0.00e+00	0	39	104	0	60	87924
2026-01-01 01:50:10.50	334.13	15.64	-51.9	-54.4	3.6	0.00e+00	0	39	104	0	60	88456
2026-01-01 01:50:11.51	333.82	15.68	-51.9	-54.4	3.6	0.00e+00	0	39	104	0	60	88403
2026-01-01 01:50:12.52	333.52	15.72	-51.9	-54.3	3.6	0.00e+00	0	39	104	0	60	87699
2026-01-01 01:50:13.53	333.21	15.75	-51.9	-54.4	3.6	0.00e+00	0	39	104	0	60	88222
2026-01-01 01:50:14.54	332.90	15.79	-51.9	-54.4	3.6	0.00e+00	0	39	104	0	60	88466
2026-01-01 01:50:15.55	332.59	15.83	-51.9	-54.3	3.6	0.00e+00	0	39	104	0	60	88119
2026-01-01 01:50:16.56	332.28	15.86	-51.9	-54.4	3.6	0.00e+00	0	39	104	0	60	88608
2026-01-01 01:50:17.57	331.97	15.90	-51.9	-54.3	3.6	0.00e+00	0	39	104	0	60	88165
2026-01-01 01:50:18.58	331.66	15.93	-51.9	-54.4	3.6	0.00e+00	0	39	104	0	60	88575
2026-01-01 01:50:19.60	331.35	15.96	-51.9	-54.3	3.6	0.00e+00	0	39	104	0	60	88099
2026-01-01 01:50:20.61	331.03	16.00	-51.9	-54.4	3.6	0.00e+00	0	39	104	0	60	88294
2026-01-01 01:50:21.62	330.72	16.03	-51.9	-54.4	3.6	0.00e+00	0	39	104	0	60	88241
2026-01-01 01:50:22.63	330.40	16.06	-51.9	-54.3	3.6	0.00e+00	0	39	104	0	60	87972
2026-01-01 01:50:23.64	330.09	16.09	-51.9	-54.4	3.6	0.00e+00	0	39	104	0	60	88622
2026-01-01 01:50:24.65	329.77	16.12	-51.9	-54.3	3.6	0.00e+00	0	39	104	0	60	88199
2026-01-01 01:50:25.66	329.45	16.15	-51.9	-54.3	3.6	0.00e+00	0	39	104	0	60	87995
2026-01-01 01:50:26.67	329.14	16.18	-51.9	-54.4	3.6	0.00e+00	0	39	104	0	60	88316
2026-01-01 01:50:27.68	328.82	16.21	-51.9	-54.4	3.6	0.00e+00	0	39	104	0	60	88415
2026-01-01 01:50:28.69	328.50	16.23	-51.9	-54.4	3.6	0.00e+00	0	39	104	0	60	88310
2026-01-01 01:50:29.71	328.17	16.26	-51.9	-54.4	3.6	0.00e+00	0	39	104	0	60	88220
2026-01-01 01:50:30.72	327.85	16.28	-51.9	-54.3	3.6	0.00e+00	0	39	104	0	60	88174
2026-01-01 01:50:31.73	327.53	16.31	-51.9	-54.4	3.6	0.00e+00	0	39	104	0	60	88536
2026-01-01 01:50:32.74	327.21	16.33	-51.9	-54.4	3.5	0.00e+00	0	39	104	0	60	88343
2026-01-01 01:50:33.75	326.89	16.36	-51.9	-54.4	3.6	0.00e+00	0	39	104	0	60	88224
2026-01-01 01:50:34.76	326.56	16.38	-51.9	-54.4	3.6	0.00e+00	0	39	104	0	60	88606
2026-01-01 01:50:35.78	326.24	16.40	-51.9	-54.4	3.6	0.00e+00	0	39	104	0	60	88430
2026-01-01 01:50:36.79	325.91	16.42	-51.9	-54.3	3.6	0.00e+00	0	39	104	0	60	87969
2026-01-01 01:50:37.80	325.59	16.44	-51.9	-54.4	3.6	0.00e+00	0	39	104	0	60	88377
2026-01-01 01:50:38.81	325.26	16.46	-51.9	-54.4	3.6	0.00e+00	0	39	104	0	60	88502
2026-01-01 01:50:39.82	324.94	16.48	-51.9	-54.3	3.6	0.00e+00	0	39	104	0	60	87826
2026-01-01 01:50:40.83	324.61	16.50	-51.9	-54.4	3.6	0.00e+00	0	39	104	0	60	88280
2026-01-01 01:50:41.84	324.29	16.51	-51.9	-54.4	3.6	0.00e+00	0	39	104	0	60	88452
2026-01-01 01:50:42.85	323.96	16.53	-51.9	-54.4	3.6	0.00e+00	0	39	104	0	60	88729
2026-01-01 01:50:43.87	323.63	16.54	-51.9	-54.4	3.6	0.00e+00	0	39	104	0	60	88456
2026-01-01 01:50:44.88	323.30	16.56	-51.9	-54.4	3.6	0.00e+00	0	39	104	0	60	88655
2026-01-01 01:50:45.89	322.97	16.57	-51.9	-54.3	3.6	0.00e+00	0	39	104	0	60	87945
2026-01-01 01:50:46.90	322.64	16.58	-51.9	-54.4	3.6	0.00e+00	0	39	104	0	60	88437
2026-01-01 01:50:47.91	322.31	16.59	-51.9	-54.4	3.6	0.00e+00	0	39	104	0	60	88657
2026-01-01 01:50:48.92	321.98	16.60	-51.9	-54.4	3.6	0.00e+00	0	39	104	0	60	88391
2026-01-01 01:50:49.93	321.65	16.61	-51.9	-54.4	3.6	0.00e+00	0	39	104	0	60	88522
2026-01-01 01:50:50.94	321.33	16.62	-51.9	-54.4	3.6	0.00e+00	0	39	104	0	60	88373
2026-01-01 01:50:51.96	320.99	16.63	-51.9	-54.4	3.6	0.00e+00	0	39	104	0	60	88572
2026-01-01 01:50:52.97	320.66	16.64	-51.9	-54.4	3.6	0.00e+00	0	39	104	0	60	88378
2026-01-01 01:50:53.98	320.33	16.65	-51.9	-54.4	3.6	0.00e+00	0	39	104	0	60	88284
2026-01-01 01:50:54.99	320.00	16.65	-51.9	-54.4	3.6	0.00e+00	0	39	104	0	60	88485
2026-01-01 01:50:56.00	319.67	16.66	-51.9	-54.4	3.6	0.00e+00	0	39	104	0	60	88944
2026-01-01 01:50:57.01	319.34	16.66	-51.9	-54.4	3.6	0.00e+00	0	39	104	0	60	88350
2026-01-01 01:50:58.02	319.01	16.66	-51.9	-54.4	3.6	0.00e+00	0	39	104	0	60	88330
2026-01-01 01:50:59.03	318.68	16.67	-51.9	-54.4	3.6	0.00e+00	0	39	104	0	60	88396
2026-01-01 01:51:00.04	318.35	16.67	-51.9	-54.4	3.6	0.00e+00	0	39	104	0	60	88399
2026-01-01 01:51:01.05	318.02	16.67	-51.9	-54.4	3.6	0.00e+00	0	39	104	0	60	88253
2026-01-01 01:51:02.06	317.68	16.67	-51.9	-54.4	3.6	0.00e+00	0	39	104	0	60	88538
2026-01-01 01:51:03.08	317.35	16.67	-51.9	-54.4	3.6	0.00e+00	0	39	104	0	60	88886
2026-01-01 01:51:04.09	317.02	16.66	-51.9	-54.4	3.6	0.00e+00	0	39	104	0	60	88435
2026-01-01 01:51:05.10	316.69	16.66	-51.9	-54.4	3.6	0.00e+00	0	39	104	0	60	88645
2026-01-01 01:51:06.11	316.36	16.66	-51.9	-54.4	3.6	0.00e+00	0	39	104	0	60	88354
2026-01-01 01:51:07.12	316.03	16.65	-51.9	-54.4	3.6	0.00e+00	0	39	104	0	60	88310
2026-01-01 01:51:08.13	315.69	16.65	-51.9	-54.4	3.6	0.00e+00	0	39	104	0	60	88556
2026-01-01 01:51:09.14	315.36	16.64	-51.9	-54.3	3.6	0.00e+00	0	39	104	0	60	88117
2026-01-01 01:51:10.15	315.03	16.63	-51.9	-54.4	3.6	0.00e+00	0	39	104	0	60	88715
2026-01-01 01:51:11.16	314.70	16.62	-51.9	-54.4	3.6	0.00e+00	0	39	104	0	60	88485
2026-01-01 01:51:12.17	314.37	16.61	-51.9	-54.4	3.6	0.00e+00	0	39	104	0	60	88547
2026-01-01 01:51:13.18	314.04	16.61	-51.9	-54.4	3.5	0.00e+00	0	39	104	0	60	88424
2026-01-01 01:51:14.19	313.71	16.59	-51.9	-54.4	3.6	0.00e+00	0	39	104	0	60	88245
2026-01-01 01:51:15.20	313.38	16.58	-51.9	-54.3	3.6	0.00e+00	0	39	104	0	60	88195
2026-01-01 01:51:16.21	313.06	16.57	-51.9	-54.3	3.6	0.00e+00	0	39	104	0	60	88168
2026-01-01 01:51:17.22	312.73	16.56	-51.9	-54.3	3.6	0.00e+00	0	39	104	0	60	88158
2026-01-01 01:51:18.23	312.40	16.54	-51.9	-54.4	3.6	0.00e+00	0	39	104	0	60	88799
2026-01-01 01:51:19.25	312.07	16.53	-51.9	-54.4	3.6	0.00e+00	0	39	104	0	60	88436
2026-01-01 01:51:20.26	311.74	16.51	-51.9	-54.3	3.6	0.00e+00	0	39	104	0	60	88122
2026-01-01 01:51:21.27	311.41	16.50	-51.9	-54.4	3.6	0.00e+00	0	39	104	0	60	88388
2026-01-01 01:51:22.28	311.09	16.48	-51.9	-54.3	3.6	0.00e+00	0	39	104	0	60	88189
2026-01-01 01:51:23.29	310.76	16.46	-51.9	-54.4	3.6	0.00e+00	0	39	104	0	60	88286
2026-01-01 01:51:24.30	310.43	16.44	-51.9	-54.4	3.6	0.00e+00	0	39	104	0	60	88381
2026-01-01 01:51:25.31	310.11	16.42	-51.9	-54.3	3.6	0.00e+00	0	39	104	0	60	88169
2026-01-01 01:51:26.32	309.78	16.40	-51.9	-54.3	3.6	0.00e+00	0	39	104	0	60	88212
2026-01-01 01:51:27.34	309.45	16.38	-51.9	-54.4	3.6	0.00e+00	0	39	104	0	60	88452
2026-01-01 01:51:28.35	309.13	16.36	-51.9	-54.4	3.6	0.00e+00	0	39	104	0	60	88584
2026-01-01 01:51:29.36	308.81	16.33	-51.9	-54.4	3.6	0.00e+00	0	39	104	0	60	88664
2026-01-01 01:51:30.37	308.48	16.31	-51.9	-54.3	3.6	0.00e+00	0	39	104	0	60	88075
2026-01-01 01:51:31.38	308.16	16.29	-51.9	-54.4	3.6	0.00e+00	0	39	104	0	60	88315
2026-01-01 01:51:32.39	307.84	16.26	-51.9	-54.4	3.6	0.00e+00	0	39	104	0	60	88291
2026-01-01 01:51:33.40	307.52	16.23	-51.9	-54.4	3.6	0.00e+00	0	39	104	0	60	88438
2026-01-01 01:51:34.41	307.20	16.21	-51.9	-54.4	3.6	0.00e+00	0	39	104	0	60	88263
2026-01-01 01:51:35.42	306.88	16.18	-51.9	-54.3	3.6	0.00e+00	0	39	104	0	60	87959
2026-01-01 01:51:36.44	306.56	16.15	-51.9	-54.4	3.6	0.00e+00	0	39	104	0	60	88651
2026-01-01 01:51:37.45	306.24	16.12	-51.9	-54.4	3.6	0.00e+00	0	39	104	0	60	88832
2026-01-01 01:51:38.46	305.92	16.09	-51.9	-54.4	3.6	0.00e+00	0	39	104	0	60	88529
2026-01-01 01:51:39.47	305.60	16.06	-51.9	-54.4	3.6	0.00e+00	0	39	104	0	60	88781
2026-01-01 01:51:40.48	305.29	16.03	-51.9	-54.4	3.6	0.00e+00	0	39	104	0	60	88539
2026-01-01 01:51:41.49	304.97	16.00	-51.9	-54.4	3.6	0.00e+00	0	39	104	0	60	88437
2026-01-01 01:51:42.50	304.66	15.96	-51.9	-54.4	3.6	0.00e+00	0	39	104	0	60	88359
2026-01-01 01:51:43.51	304.35	15.93	-51.9	-54.4	3.6	0.00e+00	0	39	104	0	60	88417
2026-01-01 01:51:44.52	304.03	15.90	-51.9	-54.4	3.6	0.00e+00	0	39	104	0	60	88432
2026-01-01 01:51:45.53	303.72	15.86	-51.9	-54.4	3.6	0.00e+00	0	39	104	0	60	88828
2026-01-01 01:51:46.55	303.41	15.83	-51.9	-54.4	3.6	0.00e+00	0	39	104	0	60	88623
2026-01-01 01:51:47.56	303.10	15.79	-51.9	-54.4	3.6	0.00e+00	0	39	104	0	60	88567
2026-01-01 01:51:48.57	302.79	15.75	-51.9	-54.3	3.6	0.00e+00	0	39	104	0	60	87920
2026-01-01 01:51:49.58	302.48	15.71	-51.9	-54.3	3.6	0.00e+00	0	39	104	0	60	88010
2026-01-01 01:51:50.59	302.17	15.68	-51.9	-54.4	3.6	0.00e+00	0	39	104	0	60	88257
2026-01-01 01:51:51.60	301.86	15.64	-51.9	-54.4	3.6	0.00e+00	0	39	104	0	60	88627
2026-01-01 01:51:52.61	301.56	15.60	-51.9	-54.4	3.5	0.00e+00	0	39	104	0	60	88709
2026-01-01 01:51:53.62	301.25	15.56	-51.9	-54.3	3.6	0.00e+00	0	39	104	0	60	88067
2026-01-01 01:51:54.63	300.95	15.52	-51.9	-54.4	3.6	0.00e+00	0	39	104	0	60	88469
2026-01-01 01:51:55.64	300.65	15.47	-51.9	-54.3	3.6	0.00e+00	0	39	104	0	60	88213
2026-01-01 01:51:56.65	300.34	15.43	-51.9	-54.4	3.6	0.00e+00	0	39	104	0	60	88522
2026-01-01 01:51:57.66	300.04	15.39	-51.9	-54.4	3.6	0.00e+00	0	39	104	0	60	88541
2026-01-01 01:51:58.68	299.74	15.35	-51.9	-54.4	3.6	0.00e+00	0	39	104	0	60	88497
2026-01-01 01:51:59.69	299.44	15.30	-51.9	-54.4	3.6	0.00e+00	0	39	104	0	60	88478
2026-01-01 01:52:00.70	299.14	15.26	-51.9	-54.4	3.6	0.00e+00	0	39	104	0	60	88439
2026-01-01 01:52:01.71	298.85	15.21	-51.9	-54.4	3.6	0.00e+00	0	39	104	0	60	88391
2026-01-01 01:52:02.72	298.55	15.17	-51.9	-54.4	3.6	0.00e+00	0	39	104	0	60	88658
2026-01-01 01:52:03.73	298.26	15.12	-51.9	-54.4	3.6	0.00e+00	0	39	104	0	60	88669
2026-01-01 01:52:04.74	297.96	15.07	-51.9	-54.3	3.6	0.00e+00	0	39	104	0	60	88182
2026-01-01 01:52:05.75	297.67	15.03	-51.9	-54.3	3.6	0.00e+00	0	39	104	0	60	88104
2026-01-01 01:52:06.76	297.38	14.98	-51.9	-54.4	3.6	0.00e+00	0	39	104	0	60	88572
2026-01-01 01:52:07.77	297.09	14.93	-51.9	-54.4	3.6	0.00e+00	0	39	104	0	60	88864
2026-01-01 01:52:08.78	296.80	14.88	-51.9	-54.3	3.6	0.00e+00	0	39	104	0	60	88198
2026-01-01 01:52:09.79	296.51	14.83	-51.9	-54.4	3.6	0.00e+00	0	39	104	0	60	88533
2026-01-01 01:52:10.81	296.22	14.78	-51.9	-54.4	3.6	0.00e+00	0	39	104	0	60	88585
2026-01-01 01:52:11.82	295.93	14.73	-51.9	-54.4	3.6	0.00e+00	0	39	104	0	60	88512
2026-01-01 01:52:12.83	295.65	14.68	-51.9	-54.4	3.6	0.00e+00	0	39	104	0	60	88337
2026-01-01 01:52:13.84	295.36	14.63	-51.9	-54.4	3.6	0.00e+00	0	39	104	0	60	88454
2026-01-01 01:52:14.85	295.08	14.58	-51.9	-54.3	3.6	0.00e+00	0	39	104	0	60	87934
2026-01-01 01:52:15.86	294.80	14.52	-51.9	-54.4	3.6	0.00e+00	0	39	104	0	60	88584
2026-01-01 01:52:16.87	294.52	14.47	-51.9	-54.4	3.6	0.00e+00	0	39	104	0	60	88739
2026-01-01 01:52:17.88	294.24	14.42	-51.9	-54.4	3.6	0.00e+00	0	39	104	0	60	88450
2026-01-01 01:52:18.89	293.96	14.36	-51.9	-54.3	3.6	0.00e+00	0	39	104	0	60	88002
2026-01-01 01:52:19.90	293.69	14.31	-51.9	-54.4	3.6	0.00e+00	0	39	104	0	60	88601
2026-01-01 01:52:20.92	293.41	14.25	-51.9	-54.4	3.6	0.00e+00	0	39	104	0	60	88698
2026-01-01 01:52:21.93	293.13	14.20	-51.9	-54.4	3.6	0.00e+00	0	39	104	0	60	88369
2026-01-01 01:52:22.94	292.86	14.14	-51.9	-54.4	3.6	0.00e+00	0	39	104	0	60	88516
2026-01-01 01:52:23.95	292.59	14.09	-51.9	-54.3	3.6	0.00e+00	0	39	104	0	60	88215
2026-01-01 01:52:24.96	292.32	14.03	-51.9	-54.4	3.6	0.00e+00	0	39	104	0	60	88348
2026-01-01 01:52:25.97	292.05	13.97	-51.9	-54.3	3.6	0.00e+00	0	39	104	0	60	88113
2026-01-01 01:52:26.98	291.78	13.92	-51.9	-54.4	3.6	0.00e+00	0	39	104	0	60	88341
2026-01-01 01:52:27.99	291.51	13.86	-51.9	-54.3	3.6	0.00e+00	0	39	104	0	60	88193
2026-01-01 01:52:29.00	291.25	13.80	-51.9	-54.4	3.6	0.00e+00	0	39	104	0	60	88408
2026-01-01 01:52:30.01	290.98	13.74	-51.9	-54.4	3.6	0.00e+00	0	39	104	0	60	88238
2026-01-01 01:52:31.03	290.72	13.69	-51.9	-54.4	3.6	0.00e+00	0	39	104	0	60	88252
2026-01-01 01:52:32.04	290.45	13.63	-51.9	-54.4	3.6	0.00e+00	0	39	104	0	60	88597
2026-01-01 01:52:33.05	290.19	13.57	-51.9	-54.4	3.6	0.00e+00	0	39	104	0	60	88827
2026-01-01 01:52:34.06	289.93	13.51	-51.9	-54.3	3.6	0.00e+00	0	39	104	0	60	88189
2026-01-01 01:52:35.07	289.68	13.45	-51.9	-54.4	3.6	0.00e+00	0	39	104	0	60	88578
2026-01-01 01:52:36.08	289.42	13.39	-51.9	-54.3	3.6	0.00e+00	0	39	104	0	60	88104
2026-01-01 01:52:37.09	289.16	13.33	-51.9	-54.4	3.6	0.00e+00	0	39	104	0	60	88450
2026-01-01 01:52:38.10	288.91	13.27	-51.9	-54.4	3.6	0.00e+00	0	39	104	0	60	88608
2026-01-01 01:52:39.12	288.65	13.21	-51.9	-54.4	3.6	0.00e+00	0	39	104	0	60	88247
2026-01-01 01:52:40.13	288.40	13.14	-51.9	-54.4	3.6	0.00e+00	0	39	104	0	60	88541
2026-01-01 01:52:41.14	288.15	13.08	-51.9	-54.4	3.6	0.00e+00	0	39	104	0	60	88887
2026-01-01 01:52:42.15	287.90	13.02	-51.9	-54.3	3.6	0.00e+00	0	39	104	0	60	88046
2026-01-01 01:52:43.16	287.65	12.96	-51.9	-54.3	3.6	0.00e+00	0	39	104	0	60	88125
2026-01-01 01:52:44.17	287.40	12.90	-51.9	-54.4	3.6	0.00e+00	0	39	104	0	60	88606
2026-01-01 01:52:45.18	287.16	12.83	-51.9	-54.3	3.6	0.00e+00	0	39	104	0	60	88067
2026-01-01 01:52:46.19	286.91	12.77	-51.9	-54.4	3.6	0.00e+00	0	39	104	0	60	88424
2026-01-01 01:52:47.20	286.67	12.71	-51.9	-54.3	3.6	0.00e+00	0	39	104	0	60	88082
2026-01-01 01:52:48.21	286.43	12.64	-51.9	-54.4	3.6	0.00e+00	0	39	104	0	60	88535
2026-01-01 01:52:49.23	286.18	12.58	-51.9	-54.4	3.6	0.00e+00	0	39	104	0	60	88795
2026-01-01 01:52:50.24	285.94	12.52	-51.9	-54.3	3.6	0.00e+00	0	38	104	0	60	88002
2026-01-01 01:52:51.25	285.70	12.45	-51.9	-54.4	3.5	0.00e+00	0	39	104	0	60	88305
2026-01-01 01:52:52.26	285.47	12.39	-51.9	-54.4	3.6	0.00e+00	0	38	104	0	60	88433
2026-01-01 01:52:53.27	285.23	12.32	-51.9	-54.4	3.6	0.00e+00	0	39	104	0	60	88501
2026-01-01 01:52:54.28	285.00	12.26	-51.9	-54.3	3.6	0.00e+00	0	39	104	0	60	87694
2026-01-01 01:52:55.29	284.76	12.20	-51.9	-54.4	3.6	0.00e+00	0	39	104	0	60	88221
2026-01-01 01:52:56.30	284.53	12.13	-51.9	-54.3	3.5	0.00e+00	0	39	104	0	60	88173
2026-01-01 01:52:57.31	284.30	12.07	-51.9	-54.4	3.6	0.00e+00	0	39	104	0	60	88626
2026-01-01 01:52:58.32	284.07	12.00	-51.9	-54.4	3.6	0.00e+00	0	39	104	0	60	88232
2026-01-01 01:52:59.33	283.84	11.93	-51.9	-54.4	3.6	0.00e+00	0	39	104	0	60	88538
2026-01-01 01:53:00.34	283.61	11.87	-51.9	-54.4	3.6	0.00e+00	0	39	104	0	60	88410
2026-01-01 01:53:01.36	283.38	11.80	-51.9	-54.4	3.6	0.00e+00	0	39	104	0	60	88289
2026-01-01 01:53:02.37	283.16	11.74	-51.9	-54.3	3.6	0.00e+00	0	39	104	0	60	87812
2026-01-01 01:53:03.38	282.93	11.67	-51.9	-54.3	3.6	0.00e+00	0	39	104	0	60	88086
2026-01-01 01:53:04.39	282.71	11.60	-51.9	-54.4	3.6	0.00e+00	0	39	104	0	60	88373
2026-01-01 01:53:05.40	282.49	11.54	-51.9	-54.4	3.6	0.00e+00	0	39	104	0	60	88582
2026-01-01 01:53:06.41	282.27	11.47	-51.9	-54.3	3.6	0.00e+00	0	39	104	0	60	88186
2026-01-01 01:53:07.42	282.05	11.41	-51.9	-54.4	3.6	0.00e+00	0	39	104	0	60	88550
2026-01-01 01:53:08.43	281.83	11.34	-51.9	-54.4	3.6	0.00e+00	0	39	104	0	60	88363
2026-01-01 01:53:09.44	281.62	11.27	-51.9	-54.4	3.6	0.00e+00	0	39	104	0	60	88697
2026-01-01 01:53:10.45	281.40	11.21	-51.9	-54.4	3.6	0.00e+00	0	39	104	0	60	88375
2026-01-01 01:53:11.46	281.19	11.14	-51.9	-54.4	3.6	0.00e+00	0	39	104	0	60	88934
2026-01-01 01:53:12.47	280.97	11.07	-51.9	-54.3	3.6	0.00e+00	0	39	104	0	60	88209
2026-01-01 01:53:13.48	280.76	11.00	-51.9	-54.4	3.6	0.00e+00	0	39	104	0	60	88230
2026-01-01 01:53:14.50	280.55	10.94	-51.9	-54.4	3.6	0.00e+00	0	39	104	0	60	88296
2026-01-01 01:53:15.51	280.34	10.87	-51.9	-54.4	3.6	0.00e+00	0	39	104	0	60	88246
2026-01-01 01:53:16.52	280.13	10.80	-51.9	-54.3	3.6	0.00e+00	0	39	104	0	60	88139
2026-01-01 01:53:17.53	279.92	10.73	-51.9	-54.4	3.6	0.00e+00	0	39	104	0	60	88734
2026-01-01 01:53:18.54	279.72	10.67	-51.9	-54.4	3.6	0.00e+00	0	39	104	0	60	88260
2026-01-01 01:53:19.55	279.51	10.60	-51.9	-54.4	3.6	0.00e+00	0	39	104	0	60	88509
2026-01-01 01:53:20.56	279.31	10.53	-51.9	-54.4	3.6	0.00e+00	0	39	104	0	60	88619
2026-01-01 01:53:21.58	279.10	10.46	-51.9	-54.4	3.6	0.00e+00	0	39	104	0	60	88428
2026-01-01 01:53:22.59	278.90	10.39	-51.9	-54.4	3.6	0.00e+00	0	39	104	0	60	88506
2026-01-01 01:53:23.60	278.70	10.33	-51.9	-54.4	3.6	0.00e+00	0	39	104	0	60	88302
2026-01-01 01:53:24.61	278.50	10.26	-51.9	-54.4	3.6	0.00e+00	0	39	104	0	60	88577
2026-01-01 01:53:25.88	278.25	10.17	-51.9	-54.3	3.6	0.00e+00	0	39	104	0	60	88219
2026-01-01 01:53:26.61	278.11	10.12	-51.9	-54.3	3.6	0.00e+00	0	39	104	0	60	88197
2026-01-01 01:53:27.91	277.86	10.04	-51.9	-54.4	3.6	0.00e+00	0	39	104	0	60	88338
2026-01-01 01:53:28.63	277.72	9.99	-51.9	-54.4	3.6	0.00e+00	0	39	104	0	60	88579
2026-01-01 01:53:29.93	277.47	9.90	-51.9	-54.4	3.6	0.00e+00	0	39	104	0	60	88278
2026-01-01 01:53:30.65	277.33	9.85	-51.9	-54.4	3.6	0.00e+00	0	39	104	0	60	88328
2026-01-01 01:53:31.95	277.08	9.76	-51.9	-54.4	3.6	0.00e+00	0	39	104	0	60	88239
2026-01-01 01:53:32.67	276.95	9.72	-51.9	-54.4	3.6	0.00e+00	0	39	104	0	60	88757
2026-01-01 01:53:33.97	276.70	9.63	-51.9	-54.4	3.6	0.00e+00	0	39	104	0	60	88511
2026-01-01 01:53:34.70	276.57	9.58	-51.9	-54.3	3.6	0.00e+00	0	39	104	0	60	88191
2026-01-01 01:53:35.99	276.33	9.49	-51.9	-54.4	3.6	0.00e+00	0	39	104	0	60	88352
2026-01-01 01:53:36.72	276.20	9.44	-51.9	-54.3	3.6	0.00e+00	0	39	104	0	60	88207
2026-01-01 01:53:38.02	275.96	9.35	-51.9	-54.4	3.6	0.00e+00	0	39	104	0	60	88454
2026-01-01 01:53:38.74	275.83	9.31	-51.9	-54.3	3.6	0.00e+00	0	39	104	0	60	88207
2026-01-01 01:53:40.04	275.59	9.22	-51.9	-54.4	3.6	0.00e+00	0	39	104	0	60	88532
2026-01-01 01:53:40.76	275.46	9.17	-51.9	-54.4	3.6	0.00e+00	0	39	104	0	60	88475
2026-01-01 01:53:42.06	275.23	9.08	-51.9	-54.3	3.6	0.00e+00	0	39	104	0	60	87930
2026-01-01 01:53:42.78	275.10	9.03	-51.9	-54.4	3.6	0.00e+00	0	39	104	0	60	88446
2026-01-01 01:53:44.08	274.87	8.95	-51.9	-54.4	3.6	0.00e+00	0	39	104	0	60	88753
2026-01-01 01:53:44.80	274.74	8.90	-51.9	-54.4	3.6	0.00e+00	0	39	104	0	60	88392
2026-01-01 01:53:46.10	274.52	8.81	-51.9	-54.4	3.6	0.00e+00	0	39	104	0	60	88287
2026-01-01 01:53:46.83	274.39	8.76	-51.9	-54.4	3.6	0.00e+00	0	39	104	0	60	88568
2026-01-01 01:53:48.13	274.16	8.67	-51.9	-54.4	3.6	0.00e+00	0	39	104	0	60	88409
2026-01-01 01:53:48.85	274.04	8.62	-51.9	-54.4	3.6	0.00e+00	0	39	104	0	60	88456
2026-01-01 01:53:50.15	273.82	8.54	-51.9	-54.4	3.6	0.00e+00	0	39	104	0	60	88512
2026-01-01 01:53:50.87	273.70	8.49	-51.9	-54.4	3.6	0.00e+00	0	39	104	0	60	88560
2026-01-01 01:53:52.17	273.48	8.40	-51.9	-54.3	3.6	0.00e+00	0	39	104	0	60	87925
2026-01-01 01:53:52.89	273.35	8.35	-51.9	-54.4	3.6	0.00e+00	0	39	104	0	60	88264
2026-01-01 01:53:54.19	273.14	8.26	-51.9	-54.4	3.6	0.00e+00	0	39	104	0	60	88534
2026-01-01 01:53:54.91	273.02	8.22	-51.9	-54.3	3.6	0.00e+00	0	39	104	0	60	88109
2026-01-01 01:53:56.21	272.80	8.13	-51.9	-54.4	3.6	0.00e+00	0	39	104	0	60	88328
2026-01-01 01:53:56.94	272.68	8.08	-51.9	-54.4	3.6	0.00e+00	0	39	104	0	60	88499
2026-01-01 01:53:58.23	272.47	7.99	-51.9	-54.4	3.6	0.00e+00	0	39	104	0	60	88421
2026-01-01 01:53:58.96	272.35	7.94	-51.9	-54.3	3.6	0.00e+00	0	39	104	0	60	87871
2026-01-01 01:54:00.26	272.14	7.86	-51.9	-54.4	3.6	0.00e+00	0	39	104	0	60	88467
2026-01-01 01:54:00.98	272.03	7.81	-51.9	-54.4	3.6	0.00e+00	0	39	104	0	60	88980
2026-01-01 01:54:02.28	271.82	7.72	-51.9	-54.4	3.6	0.00e+00	0	39	104	0	60	88454
2026-01-01 01:54:03.00	271.71	7.67	-51.9	-54.4	3.6	0.00e+00	0	39	104	0	60	88704
2026-01-01 01:54:04.30	271.50	7.59	-51.9	-54.4	3.6	0.00e+00	0	39	104	0	60	88775
2026-01-01 01:54:05.02	271.39	7.54	-51.9	-54.4	3.6	0.00e+00	0	39	104	0	60	88315
2026-01-01 01:54:06.32	271.19	7.45	-51.9	-54.4	3.6	0.00e+00	0	39	104	0	60	88334
2026-01-01 01:54:07.04	271.07	7.40	-51.9	-54.4	3.6	0.00e+00	0	39	104	0	60	88720
2026-01-01 01:54:08.34	270.87	7.32	-51.9	-54.3	3.6	0.00e+00	0	39	104	0	60	88167
2026-01-01 01:54:09.07	270.76	7.27	-51.9	-54.4	3.6	0.00e+00	0	39	104	0	60	88718
2026-01-01 01:54:10.36	270.57	7.18	-51.9	-54.3	3.6	0.00e+00	0	39	104	0	60	88177
2026-01-01 01:54:11.09	270.45	7.14	-51.9	-54.4	3.6	0.00e+00	0	39	104	0	60	88430
2026-01-01 01:54:12.39	270.26	7.05	-51.9	-54.4	3.6	0.00e+00	0	39	104	0	60	88467
2026-01-01 01:54:13.11	270.15	7.00	-51.9	-54.3	3.6	0.00e+00	0	39	104	0	60	88149
2026-01-01 01:54:14.41	269.96	6.92	-51.9	-54.4	3.6	0.00e+00	0	39	104	0	60	88877
2026-01-01 01:54:15.13	269.85	6.87	-51.9	-54.4	3.6	0.00e+00	0	39	104	0	60	88349
2026-01-01 01:54:16.43	269.66	6.78	-51.9	-54.4	3.6	0.00e+00	0	39	104	0	60	88656
2026-01-01 01:54:17.15	269.55	6.74	-51.9	-54.4	3.6	0.00e+00	0	39	104	0	60	88418
2026-01-01 01:54:18.45	269.36	6.65	-51.9	-54.4	3.6	0.00e+00	0	39	104	0	60	88306
2026-01-01 01:54:19.17	269.26	6.60	-51.9	-54.4	3.6	0.00e+00	0	39	104	0	60	88394
2026-01-01 01:54:20.47	269.07	6.52	-51.9	-54.4	3.6	0.00e+00	0	39	104	0	60	88451
2026-01-01 01:54:21.20	268.97	6.47	-51.9	-54.4	3.6	0.00e+00	0	39	104	0	60	88904
2026-01-01 01:54:22.50	268.78	6.38	-51.9	-54.4	3.6	0.00e+00	0	39	104	0	60	88298
2026-01-01 01:54:23.22	268.68	6.34	-51.9	-54.4	3.6	0.00e+00	0	39	104	0	60	88564
2026-01-01 01:54:24.52	268.50	6.25	-51.9	-54.4	3.6	0.00e+00	0	39	104	0	60	88606
2026-01-01 01:54:25.24	268.40	6.20	-51.9	-54.4	3.6	0.00e+00	0	39	104	0	60	88412
2026-01-01 01:54:26.54	268.22	6.12	-51.9	-54.3	3.6	0.00e+00	0	39	104	0	60	88190
2026-01-01 01:54:27.26	268.12	6.07	-51.9	-54.3	3.6	0.00e+00	0	39	104	0	60	88147
2026-01-01 01:54:28.56	267.94	5.99	-51.9	-54.4	3.6	0.00e+00	0	39	104	0	60	88569
2026-01-01 01:54:29.28	267.84	5.94	-51.9	-54.4	3.6	0.00e+00	0	39	104	0	60	88543
2026-01-01 01:54:30.58	267.66	5.86	-51.9	-54.4	3.6	0.00e+00	0	39	104	0	60	88305
2026-01-01 01:54:31.31	267.57	5.81	-51.9	-54.3	3.6	0.00e+00	0	39	104	0	60	88124
2026-01-01 01:54:32.61	267.39	5.73	-51.9	-54.4	3.6	0.00e+00	0	38	104	0	60	88572
2026-01-01 01:54:33.33	267.29	5.68	-51.9	-54.4	3.6	0.00e+00	0	39	104	0	60	88287
2026-01-01 01:54:34.63	267.12	5.59	-51.9	-54.4	3.6	0.00e+00	0	39	104	0	60	88643
2026-01-01 01:54:35.35	267.03	5.55	-51.9	-54.4	3.6	0.00e+00	0	38	104	0	60	88715
2026-01-01 01:54:36.65	266.86	5.46	-51.9	-54.4	3.5	0.00e+00	0	39	104	0	60	88650
2026-01-01 01:54:37.37	266.76	5.42	-51.9	-54.4	3.6	0.00e+00	0	39	104	0	60	88278
2026-01-01 01:54:38.67	266.59	5.33	-51.9	-54.4	3.6	0.00e+00	0	39	104	0	60	88855
2026-01-01 01:54:39.40	266.50	5.29	-51.9	-54.3	3.6	0.00e+00	0	39	104	0	60	88219
2026-01-01 01:54:40.70	266.33	5.20	-51.9	-54.4	3.6	0.00e+00	0	39	104	0	60	88254
2026-01-01 01:54:41.42	266.24	5.16	-51.9	-54.4	3.6	0.00e+00	0	39	104	0	60	88305
2026-01-01 01:54:42.72	266.07	5.08	-51.9	-54.3	3.6	0.00e+00	0	39	104	0	60	88042
2026-01-01 01:54:43.44	265.98	5.03	-51.9	-54.4	3.6	0.00e+00	0	38	104	0	60	88439
2026-01-01 01:54:44.74	265.82	4.95	-51.9	-54.4	3.6	0.00e+00	0	39	104	0	60	88775
2026-01-01 01:54:45.46	265.73	4.90	-51.9	-54.4	3.6	0.00e+00	0	39	104	0	60	88952
2026-01-01 01:54:46.76	265.57	4.82	-51.9	-54.4	3.6	0.00e+00	0	39	104	0	60	89173
2026-01-01 01:54:47.48	265.48	4.77	-51.9	-54.3	3.6	0.00e+00	0	39	104	0	60	88136
2026-01-01 01:54:48.78	265.32	4.69	-51.9	-54.4	3.6	0.00e+00	0	39	104	0	60	88560
2026-01-01 01:54:49.50	265.23	4.65	-51.9	-54.4	3.6	0.00e+00	0	39	104	0	60	88717
2026-01-01 01:54:50.80	265.07	4.56	-51.9	-54.3	3.6	0.00e+00	0	39	104	0	60	88150
2026-01-01 01:54:51.53	264.99	4.52	-51.9	-54.3	3.6	0.00e+00	0	39	104	0	60	88206
2026-01-01 01:54:52.83	264.83	4.44	-51.9	-54.4	3.6	0.00e+00	0	39	104	0	60	88800
2026-01-01 01:54:53.55	264.74	4.39	-51.9	-54.4	3.6	0.00e+00	0	39	104	0	60	88712
2026-01-01 01:54:54.85	264.59	4.31	-51.9	-54.4	3.6	0.00e+00	0	39	104	0	60	88543
2026-01-01 01:54:55.57	264.50	4.26	-51.9	-54.4	3.6	0.00e+00	0	39	104	0	60	88809
2026-01-01 01:54:56.87	264.35	4.18	-51.9	-54.5	3.6	0.00e+00	0	39	104	0	60	89275
2026-01-01 01:54:57.59	264.27	4.14	-51.9	-54.4	3.6	0.00e+00	0	39	104	0	60	88548
2026-01-01 01:54:58.89	264.12	4.06	-51.9	-54.4	3.6	0.00e+00	0	39	104	0	60	88656
2026-01-01 01:54:59.61	264.03	4.01	-51.9	-54.4	3.6	0.00e+00	0	39	104	0	60	89100
2026-01-01 01:55:00.91	263.88	3.93	-51.9	-54.4	3.6	0.00e+00	0	39	104	0	60	88599
2026-01-01 01:55:01.63	263.80	3.89	-51.9	-54.4	3.6	0.00e+00	0	39	104	0	60	88584
2026-01-01 01:55:02.93	263.65	3.81	-51.9	-54.3	3.6	0.00e+00	0	39	104	0	60	88145
2026-01-01 01:55:03.65	263.57	3.76	-51.9	-54.4	3.6	0.00e+00	0	39	104	0	60	88414
2026-01-01 01:55:04.95	263.42	3.68	-51.9	-54.4	3.6	0.00e+00	0	39	104	0	60	88690
2026-01-01 01:55:05.68	263.34	3.64	-51.9	-54.4	3.6	0.00e+00	0	39	104	0	60	88699
2026-01-01 01:55:06.98	263.20	3.55	-51.9	-54.4	3.6	0.00e+00	0	39	104	0	60	88607
2026-01-01 01:55:07.70	263.12	3.51	-51.9	-54.4	3.6	0.00e+00	0	39	104	0	60	88636
2026-01-01 01:55:09.00	262.98	3.43	-51.9	-54.4	3.6	0.00e+00	0	39	104	0	60	88371
2026-01-01 01:55:09.72	262.90	3.39	-51.9	-54.4	3.6	0.00e+00	0	39	104	0	60	88493
2026-01-01 01:55:11.02	262.75	3.31	-51.9	-54.3	3.6	0.00e+00	0	39	104	0	60	88091
2026-01-01 01:55:11.74	262.68	3.26	-51.9	-54.3	3.6	0.00e+00	0	39	104	0	60	88131
2026-01-01 01:55:13.04	262.54	3.18	-51.9	-54.4	3.6	0.00e+00	0	39	104	0	60	88730
2026-01-01 01:55:13.76	262.46	3.14	-51.9	-54.3	3.6	0.00e+00	0	39	104	0	60	88052
2026-01-01 01:55:15.06	262.32	3.06	-51.9	-54.4	3.6	0.00e+00	0	39	104	0	60	88430
2026-01-01 01:55:15.78	262.24	3.02	-51.9	-54.4	3.6	0.00e+00	0	39	104	0	60	89081
2026-01-01 01:55:17.08	262.11	2.94	-51.9	-54.4	3.6	0.00e+00	0	39	104	0	60	88685
2026-01-01 01:55:17.81	262.03	2.89	-51.9	-54.4	3.6	0.00e+00	0	39	104	0	60	88936
2026-01-01 01:55:19.11	261.90	2.82	-51.9	-54.4	3.6	0.00e+00	0	39	104	0	60	88749
2026-01-01 01:55:19.83	261.82	2.77	-51.9	-54.4	3.6	0.00e+00	0	39	104	0	60	88303
2026-01-01 01:55:21.13	261.69	2.69	-51.9	-54.3	3.6	0.00e+00	0	39	104	0	60	88219
2026-01-01 01:55:21.85	261.61	2.65	-51.9	-54.4	3.6	0.00e+00	0	39	104	0	60	88312
2026-01-01 01:55:23.15	261.48	2.57	-51.9	-54.3	3.6	0.00e+00	0	39	104	0	60	87755
2026-01-01 01:55:23.88	261.41	2.53	-51.9	-54.4	3.6	0.00e+00	0	39	104	0	60	88404
2026-01-01 01:55:25.18	261.27	2.45	-51.9	-54.4	3.6	0.00e+00	0	39	104	0	60	88312
2026-01-01 01:55:25.90	261.20	2.41	-51.9	-54.4	3.6	0.00e+00	0	39	104	0	60	88497
2026-01-01 01:55:27.20	261.07	2.33	-51.9	-54.4	3.6	0.00e+00	0	39	104	0	60	88640
2026-01-01 01:55:27.92	261.00	2.29	-51.9	-54.4	3.6	0.00e+00	0	39	104	0	60	88508
2026-01-01 01:55:29.22	260.87	2.21	-51.9	-54.4	3.6	0.00e+00	0	39	104	0	60	88418
2026-01-01 01:55:29.94	260.80	2.17	-51.9	-54.4	3.6	0.00e+00	0	39	104	0	60	88465
2026-01-01 01:55:31.25	260.67	2.09	-51.9	-54.4	3.6	0.00e+00	0	39	104	0	60	88977
2026-01-01 01:55:31.97	260.60	2.05	-51.9	-54.4	3.6	0.00e+00	0	39	104	0	60	88668
2026-01-01 01:55:33.27	260.48	1.97	-51.9	-54.4	3.6	0.00e+00	0	39	104	0	60	88233
2026-01-01 01:55:33.99	260.41	1.93	-51.9	-54.4	3.6	0.00e+00	0	39	104	0	60	88482
2026-01-01 01:55:35.29	260.28	1.85	-51.9	-54.4	3.6	0.00e+00	0	39	104	0	60	88513
2026-01-01 01:55:36.01	260.21	1.81	-51.9	-54.4	3.6	0.00e+00	0	39	104	0	60	88816
2026-01-01 01:55:37.31	260.09	1.73	-51.9	-54.4	3.6	0.00e+00	0	39	104	0	60	88551
2026-01-01 01:55:38.04	260.02	1.69	-51.9	-54.4	3.6	0.00e+00	0	39	104	0	60	88622
2026-01-01 01:55:39.34	259.90	1.61	-51.9	-54.4	3.6	0.00e+00	0	39	104	0	60	88681
2026-01-01 01:55:40.06	259.83	1.57	-51.9	-54.4	3.6	0.00e+00	0	39	104	0	60	88328
2026-01-01 01:55:41.36	259.71	1.50	-51.9	-54.3	3.6	0.00e+00	0	39	104	0	60	88210
2026-01-01 01:55:42.08	259.64	1.45	-51.9	-54.4	3.6	0.00e+00	0	39	104	0	60	88943
2026-01-01 01:55:43.38	259.53	1.38	-51.9	-54.4	3.6	0.00e+00	0	39	104	0	60	88729
2026-01-01 01:55:44.10	259.46	1.34	-51.9	-54.4	3.6	0.00e+00	0	39	104	0	60	88692
2026-01-01 01:55:45.40	259.34	1.26	-51.9	-54.4	3.6	0.00e+00	0	39	104	0	60	88527
2026-01-01 01:55:46.12	259.28	1.22	-51.9	-54.4	3.6	0.00e+00	0	39	104	0	60	88396
2026-01-01 01:55:47.42	259.16	1.14	-51.9	-54.4	3.6	0.00e+00	0	39	104	0	60	88537
2026-01-01 01:55:48.14	259.09	1.10	-51.9	-54.4	3.6	0.00e+00	0	39	104	0	60	88745
2026-01-01 01:55:49.44	258.98	1.03	-51.9	-54.4	3.6	0.00e+00	0	39	104	0	60	88866
2026-01-01 01:55:50.17	258.91	0.99	-51.9	-54.4	3.6	0.00e+00	0	39	104	0	60	88695
2026-01-01 01:55:51.46	258.80	0.91	-51.9	-54.4	3.6	0.00e+00	0	39	104	0	60	88314
2026-01-01 01:55:52.19	258.73	0.87	-51.9	-54.4	3.6	0.00e+00	0	39	104	0	60	88331
2026-01-01 01:55:53.49	258.62	0.80	-51.9	-54.4	3.6	0.00e+00	0	39	104	0	60	88546
2026-01-01 01:55:54.21	258.56	0.75	-51.9	-54.4	3.6	0.00e+00	0	39	104	0	60	88916
2026-01-01 01:55:55.51	258.45	0.68	-51.9	-54.4	3.6	0.00e+00	0	39	104	0	60	88765
2026-01-01 01:55:56.23	258.38	0.64	-51.9	-54.4	3.6	0.00e+00	0	39	104	0	60	88872
2026-01-01 01:55:57.53	258.27	0.57	-51.9	-54.4	3.6	0.00e+00	0	39	104	0	60	88933
2026-01-01 01:55:58.25	258.21	0.52	-51.9	-54.4	3.6	0.00e+00	0	39	104	0	60	88812
2026-01-01 01:55:59.55	258.10	0.45	-51.9	-54.4	3.6	0.00e+00	0	39	104	0	60	88727
2026-01-01 01:56:00.28	258.04	0.41	-51.9	-54.4	3.6	0.00e+00	0	39	104	0	60	88817
2026-01-01 01:56:01.58	257.93	0.34	-51.9	-54.4	3.6	0.00e+00	0	39	104	0	60	89154
2026-01-01 01:56:02.30	257.87	0.30	-51.9	-54.3	3.6	0.00e+00	0	39	104	0	60	88147
2026-01-01 01:56:03.60	257.76	0.22	-51.9	-54.4	3.6	0.00e+00	0	39	104	0	60	88933
2026-01-01 01:56:04.32	257.70	0.18	-51.9	-54.4	3.6	0.00e+00	0	39	104	0	60	88440
2026-01-01 01:56:05.62	257.60	0.11	-51.9	-54.4	3.6	0.00e+00	0	39	104	0	60	88537
2026-01-01 01:56:06.34	257.54	0.07	-52.0	-54.4	3.6	0.00e+00	0	39	104	0	60	88822
2026-01-01 01:56:07.64	257.43	-0.00	-51.9	-54.4	3.6	0.00e+00	0	39	104	0	60	88947
2026-01-01 01:56:08.36	257.37	-0.04	-51.9	-54.4	3.6	0.00e+00	0	39	104	0	60	88612
2026-01-01 01:56:09.66	257.27	-0.12	-51.9	-54.4	3.6	0.00e+00	0	39	104	0	60	88839

#Closed at: 2026-01-01 01:56:10
#Recorded file [0 MB]: D:/lorett/data/35034_260101_044554.dat