passes_logs/2026/01/01/R4.6S_Anadyr_2ch/R4.6S_Anadyr_2ch__20260101_075559_2025-108B_rec.log

#Pass ID: 20260101_075559_2025-108B
#Satellite: 2025-108B
#Configuration: 3PB_600M
#almurnet v.1.7.20251203
#Start time: 2026-01-01 07:56:00

#Version: 2.2.20231116
#Station: R4.6S_Anadyr_2ch
#Location: 177.4865 lon 64.73178 lat
#TLE: 1 64088U 25108B   25351.01672131  .00008460  00000+0  43413-3 0  9994
#TLE: 2 64088  97.4940  63.8579 0011684 285.1423  74.8517 15.16717580 31720

#Time	Az	El	Level	Level2	SNR	BER	BlckErr	Temp	State	Recorded	gain1	gain2
2026-01-01 07:56:00.40	115.26	0.06	-52.0	-53.4	3.3	0.00e+00	0	34	0	0	60	78975
2026-01-01 07:56:01.41	115.20	0.12	-52.2	-54.6	3.6	0.00e+00	0	36	104	0	60	90960
2026-01-01 07:56:02.42	115.13	0.18	-52.4	-54.8	3.6	0.00e+00	0	36	104	0	60	93250
2026-01-01 07:56:03.44	115.07	0.24	-52.2	-54.7	3.6	0.00e+00	0	36	104	0	60	91658
2026-01-01 07:56:04.45	115.00	0.30	-52.2	-54.6	3.6	0.00e+00	0	36	104	0	60	91072
2026-01-01 07:56:05.46	114.93	0.36	-52.1	-54.6	3.6	0.00e+00	0	36	104	0	60	90367
2026-01-01 07:56:06.47	114.87	0.42	-52.1	-54.5	3.6	0.00e+00	0	36	104	0	60	89888
2026-01-01 07:56:07.48	114.80	0.48	-52.1	-54.6	3.6	0.00e+00	0	36	104	0	60	90379
2026-01-01 07:56:08.49	114.73	0.54	-52.2	-54.7	3.6	0.00e+00	0	36	104	0	60	91478
2026-01-01 07:56:09.50	114.66	0.60	-52.4	-54.9	3.6	0.00e+00	0	36	104	0	60	94199
2026-01-01 07:56:10.52	114.59	0.66	-52.3	-54.7	3.6	0.00e+00	0	36	104	0	60	91997
2026-01-01 07:56:11.53	114.52	0.72	-52.4	-54.9	3.6	0.00e+00	0	36	104	0	60	93598
2026-01-01 07:56:12.54	114.46	0.78	-52.5	-54.9	3.6	0.00e+00	0	36	104	0	60	94390
2026-01-01 07:56:13.55	114.39	0.84	-52.3	-54.7	3.6	0.00e+00	0	36	104	0	60	91647
2026-01-01 07:56:14.56	114.32	0.90	-52.2	-54.6	3.6	0.00e+00	0	36	104	0	60	91167
2026-01-01 07:56:15.57	114.25	0.97	-52.3	-54.7	3.6	0.00e+00	0	36	104	0	60	92163
2026-01-01 07:56:16.58	114.18	1.03	-52.2	-54.7	3.6	0.00e+00	0	36	104	0	60	92096
2026-01-01 07:56:17.59	114.10	1.09	-52.3	-54.7	3.6	0.00e+00	0	36	104	0	60	92012
2026-01-01 07:56:18.60	114.03	1.15	-52.2	-54.6	3.6	0.00e+00	0	36	104	0	60	91083
2026-01-01 07:56:19.62	113.96	1.21	-52.2	-54.7	3.6	0.00e+00	0	36	104	0	60	91857
2026-01-01 07:56:20.63	113.89	1.27	-52.2	-54.7	3.6	0.00e+00	0	37	104	0	60	91484
2026-01-01 07:56:21.64	113.82	1.34	-52.4	-54.8	3.6	0.00e+00	0	36	104	0	60	93223
2026-01-01 07:56:22.65	113.74	1.40	-52.3	-54.8	3.6	0.00e+00	0	36	104	0	60	92927
2026-01-01 07:56:23.66	113.67	1.46	-52.4	-54.9	3.6	0.00e+00	0	36	104	0	60	93970
2026-01-01 07:56:24.67	113.60	1.52	-52.3	-54.8	3.6	0.00e+00	0	37	104	0	60	92447
2026-01-01 07:56:25.68	113.52	1.59	-52.2	-54.6	3.6	0.00e+00	0	37	104	0	60	91254
2026-01-01 07:56:26.69	113.45	1.65	-52.3	-54.7	3.6	0.00e+00	0	37	104	0	60	91621
2026-01-01 07:56:27.70	113.37	1.71	-52.2	-54.6	3.6	0.00e+00	0	37	104	0	60	91318
2026-01-01 07:56:28.71	113.30	1.78	-52.2	-54.7	3.6	0.00e+00	0	37	104	0	60	91468
2026-01-01 07:56:29.72	113.22	1.84	-52.3	-54.7	3.6	0.00e+00	0	37	104	0	60	91789
2026-01-01 07:56:30.74	113.14	1.90	-52.4	-54.9	3.6	0.00e+00	0	37	104	0	60	93663
2026-01-01 07:56:31.75	113.07	1.97	-52.4	-54.9	3.6	0.00e+00	0	37	104	0	60	93869
2026-01-01 07:56:32.76	112.99	2.03	-52.2	-54.7	3.6	0.00e+00	0	37	104	0	60	91651
2026-01-01 07:56:33.77	112.91	2.09	-52.3	-54.8	3.6	0.00e+00	0	37	104	0	60	92578
2026-01-01 07:56:34.78	112.84	2.16	-52.2	-54.7	3.6	0.00e+00	0	37	104	0	60	91867
2026-01-01 07:56:35.79	112.76	2.22	-52.3	-54.8	3.6	0.00e+00	0	37	104	0	60	92392
2026-01-01 07:56:36.80	112.68	2.29	-52.2	-54.7	3.6	0.00e+00	0	37	104	0	60	91661
2026-01-01 07:56:37.81	112.60	2.35	-52.2	-54.6	3.6	0.00e+00	0	37	104	0	60	90613
2026-01-01 07:56:38.82	112.52	2.42	-52.2	-54.6	3.6	0.00e+00	0	37	104	0	60	91097
2026-01-01 07:56:39.83	112.44	2.48	-52.3	-54.8	3.6	0.00e+00	0	37	104	0	60	92671
2026-01-01 07:56:40.84	112.36	2.54	-52.3	-54.8	3.6	0.00e+00	0	37	104	0	60	92574
2026-01-01 07:56:41.85	112.28	2.61	-52.4	-54.9	3.6	0.00e+00	0	37	104	0	60	93684
2026-01-01 07:56:42.86	112.20	2.68	-52.4	-54.8	3.6	0.00e+00	0	37	104	0	60	93097
2026-01-01 07:56:43.88	112.11	2.74	-52.3	-54.8	3.6	0.00e+00	0	37	104	0	60	92473
2026-01-01 07:56:44.89	112.03	2.81	-52.2	-54.6	3.6	0.00e+00	0	37	104	0	60	91208
2026-01-01 07:56:45.90	111.95	2.87	-52.4	-54.9	3.6	0.00e+00	0	37	104	0	60	93567
2026-01-01 07:56:46.91	111.86	2.94	-52.4	-54.9	3.6	0.00e+00	0	37	104	0	60	93495
2026-01-01 07:56:47.92	111.78	3.00	-52.3	-54.8	3.6	0.00e+00	0	37	104	0	60	93338
2026-01-01 07:56:48.93	111.69	3.07	-52.3	-54.7	3.6	0.00e+00	0	37	104	0	60	91935
2026-01-01 07:56:49.94	111.61	3.14	-52.2	-54.7	3.6	0.00e+00	0	37	104	0	60	91956
2026-01-01 07:56:50.95	111.52	3.20	-52.2	-54.7	3.6	0.00e+00	0	37	104	0	60	91927
2026-01-01 07:56:51.96	111.44	3.27	-52.2	-54.6	3.6	0.00e+00	0	37	104	0	60	91074
2026-01-01 07:56:52.97	111.35	3.34	-52.2	-54.7	3.6	0.00e+00	0	37	104	0	60	91418
2026-01-01 07:56:53.98	111.27	3.40	-52.1	-54.6	3.6	0.00e+00	0	37	104	0	60	91153
2026-01-01 07:56:54.99	111.18	3.47	-52.3	-54.7	3.6	0.00e+00	0	37	104	0	60	92122
2026-01-01 07:56:56.01	111.09	3.54	-52.3	-54.8	3.6	0.00e+00	0	37	104	0	60	92429
2026-01-01 07:56:57.02	111.00	3.60	-52.3	-54.8	3.6	0.00e+00	0	37	104	0	60	92414
2026-01-01 07:56:58.03	110.91	3.67	-52.4	-54.8	3.6	0.00e+00	0	37	104	0	60	93233
2026-01-01 07:56:59.04	110.82	3.74	-52.3	-54.7	3.6	0.00e+00	0	37	104	0	60	92358
2026-01-01 07:57:00.05	110.73	3.81	-52.2	-54.6	3.6	0.00e+00	0	37	104	0	60	90925
2026-01-01 07:57:01.06	110.64	3.87	-52.1	-54.6	3.6	0.00e+00	0	37	104	0	60	90715
2026-01-01 07:57:02.07	110.55	3.94	-52.2	-54.6	3.6	0.00e+00	0	37	104	0	60	91232
2026-01-01 07:57:03.08	110.46	4.01	-52.3	-54.8	3.6	0.00e+00	0	37	104	0	60	92848
2026-01-01 07:57:04.10	110.36	4.08	-52.4	-54.8	3.6	0.00e+00	0	37	104	0	60	93162
2026-01-01 07:57:05.11	110.27	4.15	-52.3	-54.7	3.6	0.00e+00	0	37	104	0	60	91998
2026-01-01 07:57:06.12	110.18	4.22	-52.3	-54.8	3.6	0.00e+00	0	38	104	0	60	92548
2026-01-01 07:57:07.13	110.08	4.29	-52.3	-54.8	3.6	0.00e+00	0	37	104	0	60	92676
2026-01-01 07:57:08.14	109.99	4.36	-52.3	-54.8	3.6	0.00e+00	0	37	104	0	60	92573
2026-01-01 07:57:09.15	109.89	4.42	-52.3	-54.7	3.5	0.00e+00	0	37	104	0	60	92022
2026-01-01 07:57:10.16	109.80	4.49	-52.3	-54.7	3.6	0.00e+00	0	37	104	0	60	92346
2026-01-01 07:57:11.18	109.70	4.56	-52.4	-54.9	3.6	0.00e+00	0	37	104	0	60	93835
2026-01-01 07:57:12.18	109.61	4.63	-52.2	-54.7	3.6	0.00e+00	0	37	104	0	60	91519
2026-01-01 07:57:13.20	109.51	4.70	-52.2	-54.7	3.6	0.00e+00	0	37	104	0	60	91379
2026-01-01 07:57:14.21	109.41	4.77	-52.4	-54.9	3.6	0.00e+00	0	37	104	0	60	93571
2026-01-01 07:57:15.22	109.31	4.84	-52.3	-54.8	3.6	0.00e+00	0	37	104	0	60	92813
2026-01-01 07:57:16.23	109.21	4.92	-52.2	-54.6	3.6	0.00e+00	0	37	104	0	60	90878
2026-01-01 07:57:17.24	109.11	4.99	-52.3	-54.7	3.6	0.00e+00	0	37	104	0	60	91663
2026-01-01 07:57:18.25	109.01	5.06	-52.3	-54.7	3.6	0.00e+00	0	38	104	0	60	91989
2026-01-01 07:57:19.26	108.91	5.13	-52.2	-54.7	3.6	0.00e+00	0	38	104	0	60	91573
2026-01-01 07:57:20.27	108.81	5.20	-52.3	-54.7	3.6	0.00e+00	0	37	104	0	60	91931
2026-01-01 07:57:21.28	108.71	5.27	-52.5	-54.9	3.6	0.00e+00	0	38	104	0	60	94449
2026-01-01 07:57:22.29	108.60	5.34	-52.4	-54.8	3.6	0.00e+00	0	38	104	0	60	92825
2026-01-01 07:57:23.30	108.50	5.41	-52.4	-54.9	3.6	0.00e+00	0	37	104	0	60	93507
2026-01-01 07:57:24.31	108.39	5.49	-52.4	-54.9	3.6	0.00e+00	0	38	104	0	60	93602
2026-01-01 07:57:25.32	108.29	5.56	-52.3	-54.8	3.6	0.00e+00	0	38	104	0	60	92427
2026-01-01 07:57:26.34	108.18	5.63	-52.4	-54.8	3.6	0.00e+00	0	38	104	0	60	92987
2026-01-01 07:57:27.34	108.08	5.70	-52.4	-54.9	3.6	0.00e+00	0	38	104	0	60	93903
2026-01-01 07:57:28.36	107.97	5.78	-52.3	-54.7	3.5	0.00e+00	0	38	104	0	60	92316
2026-01-01 07:57:29.37	107.86	5.85	-52.3	-54.7	3.6	0.00e+00	0	38	104	0	60	91733
2026-01-01 07:57:30.38	107.75	5.92	-52.2	-54.7	3.6	0.00e+00	0	38	104	0	60	91756
2026-01-01 07:57:31.39	107.64	5.99	-52.2	-54.6	3.6	0.00e+00	0	38	104	0	60	90906
2026-01-01 07:57:32.40	107.53	6.07	-52.1	-54.6	3.6	0.00e+00	0	38	104	0	60	90421
2026-01-01 07:57:33.41	107.42	6.14	-52.1	-54.6	3.6	0.00e+00	0	38	104	0	60	90433
2026-01-01 07:57:34.42	107.31	6.21	-52.1	-54.5	3.6	0.00e+00	0	38	104	0	60	90236
2026-01-01 07:57:35.43	107.20	6.29	-52.1	-54.6	3.6	0.00e+00	0	38	104	0	60	90380
2026-01-01 07:57:36.44	107.09	6.36	-52.2	-54.6	3.6	0.00e+00	0	38	104	0	60	90704
2026-01-01 07:57:37.45	106.97	6.44	-52.3	-54.7	3.6	0.00e+00	0	38	104	0	60	92017
2026-01-01 07:57:38.46	106.86	6.51	-52.3	-54.7	3.6	0.00e+00	0	38	104	0	60	92212
2026-01-01 07:57:39.47	106.75	6.59	-52.4	-54.8	3.6	0.00e+00	0	38	104	0	60	93017
2026-01-01 07:57:40.49	106.63	6.66	-52.3	-54.8	3.5	0.00e+00	0	38	104	0	60	92577
2026-01-01 07:57:41.50	106.51	6.74	-52.3	-54.7	3.6	0.00e+00	0	38	104	0	60	92148
2026-01-01 07:57:42.51	106.40	6.81	-52.3	-54.8	3.6	0.00e+00	0	38	104	0	60	92538
2026-01-01 07:57:43.52	106.28	6.89	-52.3	-54.7	3.6	0.00e+00	0	38	104	0	60	92104
2026-01-01 07:57:44.53	106.16	6.96	-52.3	-54.7	3.6	0.00e+00	0	38	104	0	60	91892
2026-01-01 07:57:45.54	106.04	7.04	-52.2	-54.6	3.6	0.00e+00	0	38	104	0	60	90858
2026-01-01 07:57:46.55	105.92	7.11	-52.1	-54.6	3.6	0.00e+00	0	38	104	0	60	90654
2026-01-01 07:57:47.56	105.80	7.19	-52.2	-54.6	3.6	0.00e+00	0	38	104	0	60	90634
2026-01-01 07:57:48.57	105.68	7.27	-52.3	-54.7	3.6	0.00e+00	0	38	104	0	60	92248
2026-01-01 07:57:49.58	105.55	7.34	-52.3	-54.8	3.6	0.00e+00	0	38	104	0	60	92509
2026-01-01 07:57:50.59	105.43	7.42	-52.3	-54.7	3.6	0.00e+00	0	38	104	0	60	92052
2026-01-01 07:57:51.61	105.31	7.50	-52.4	-54.8	3.6	0.00e+00	0	38	104	0	60	93407
2026-01-01 07:57:52.62	105.18	7.57	-52.4	-54.9	3.6	0.00e+00	0	38	104	0	60	93809
2026-01-01 07:57:53.63	105.06	7.65	-52.3	-54.7	3.6	0.00e+00	0	38	104	0	60	92350
2026-01-01 07:57:54.64	104.93	7.73	-52.5	-54.9	3.6	0.00e+00	0	38	104	0	60	94157
2026-01-01 07:57:55.65	104.80	7.81	-52.5	-54.9	3.6	0.00e+00	0	38	104	0	60	94400
2026-01-01 07:57:56.66	104.67	7.88	-52.3	-54.8	3.6	0.00e+00	0	38	104	0	60	92615
2026-01-01 07:57:57.67	104.54	7.96	-52.3	-54.8	3.6	0.00e+00	0	38	104	0	60	92393
2026-01-01 07:57:58.68	104.41	8.04	-52.5	-54.9	3.6	0.00e+00	0	38	104	0	60	93956
2026-01-01 07:57:59.69	104.28	8.12	-52.4	-54.8	3.6	0.00e+00	0	38	104	0	60	93092
2026-01-01 07:58:00.70	104.15	8.20	-52.3	-54.8	3.6	0.00e+00	0	38	104	0	60	92972
2026-01-01 07:58:01.72	104.02	8.28	-52.3	-54.7	3.6	0.00e+00	0	38	104	0	60	92180
2026-01-01 07:58:02.73	103.88	8.36	-52.3	-54.7	3.6	0.00e+00	0	38	104	0	60	92142
2026-01-01 07:58:03.74	103.75	8.44	-52.2	-54.7	3.6	0.00e+00	0	38	104	0	60	91456
2026-01-01 07:58:04.75	103.61	8.52	-52.3	-54.8	3.6	0.00e+00	0	38	104	0	60	92384
2026-01-01 07:58:05.76	103.48	8.60	-52.2	-54.7	3.6	0.00e+00	0	38	104	0	60	91855
2026-01-01 07:58:06.77	103.34	8.68	-52.3	-54.7	3.6	0.00e+00	0	38	104	0	60	91518
2026-01-01 07:58:07.78	103.20	8.76	-52.5	-54.9	3.6	0.00e+00	0	38	104	0	60	94293
2026-01-01 07:58:08.79	103.06	8.84	-52.4	-54.9	3.6	0.00e+00	0	38	104	0	60	93635
2026-01-01 07:58:09.81	102.92	8.92	-52.4	-54.9	3.6	0.00e+00	0	38	104	0	60	93617
2026-01-01 07:58:10.82	102.78	9.00	-52.2	-54.7	3.6	0.00e+00	0	38	104	0	60	92215
2026-01-01 07:58:11.83	102.64	9.08	-52.3	-54.8	3.5	0.00e+00	0	38	104	0	60	92399
2026-01-01 07:58:12.84	102.49	9.16	-52.3	-54.8	3.6	0.00e+00	0	38	104	0	60	92386
2026-01-01 07:58:13.85	102.35	9.24	-52.3	-54.8	3.6	0.00e+00	0	38	104	0	60	92599
2026-01-01 07:58:14.86	102.20	9.32	-52.2	-54.7	3.6	0.00e+00	0	38	104	0	60	91544
2026-01-01 07:58:15.87	102.06	9.40	-52.2	-54.7	3.6	0.00e+00	0	38	104	0	60	91496
2026-01-01 07:58:16.88	101.91	9.49	-52.4	-54.8	3.6	0.00e+00	0	38	104	0	60	92855
2026-01-01 07:58:17.89	101.76	9.57	-52.3	-54.8	3.6	0.00e+00	0	38	104	0	60	92525
2026-01-01 07:58:18.91	101.61	9.65	-52.3	-54.8	3.6	0.00e+00	0	38	104	0	60	92687
2026-01-01 07:58:19.92	101.46	9.73	-52.3	-54.8	3.6	0.00e+00	0	38	104	0	60	92463
2026-01-01 07:58:20.93	101.31	9.81	-52.4	-54.8	3.6	0.00e+00	0	38	104	0	60	93188
2026-01-01 07:58:21.94	101.16	9.90	-52.4	-54.8	3.6	0.00e+00	0	38	104	0	60	92692
2026-01-01 07:58:22.95	101.01	9.98	-52.4	-54.8	3.6	0.00e+00	0	38	104	0	60	92693
2026-01-01 07:58:23.96	100.85	10.06	-52.3	-54.7	3.6	0.00e+00	0	38	104	0	60	91921
2026-01-01 07:58:24.97	100.70	10.15	-52.3	-54.8	3.6	0.00e+00	0	38	104	0	60	92795
2026-01-01 07:58:25.98	100.54	10.23	-52.4	-54.8	3.6	0.00e+00	0	38	104	0	60	93297
2026-01-01 07:58:26.99	100.38	10.31	-52.3	-54.7	3.6	0.00e+00	0	38	104	0	60	92083
2026-01-01 07:58:28.00	100.22	10.40	-52.3	-54.7	3.6	0.00e+00	0	38	104	0	60	91670
2026-01-01 07:58:29.02	100.06	10.48	-52.3	-54.7	3.6	0.00e+00	0	38	104	0	60	91935
2026-01-01 07:58:30.02	99.90	10.57	-52.3	-54.8	3.6	0.00e+00	0	38	104	0	60	92547
2026-01-01 07:58:31.04	99.74	10.65	-52.5	-55.0	3.6	0.00e+00	0	38	104	0	60	94710
2026-01-01 07:58:32.05	99.58	10.74	-52.5	-54.9	3.6	0.00e+00	0	38	104	0	60	94181
2026-01-01 07:58:33.06	99.41	10.82	-52.5	-55.0	3.6	0.00e+00	0	38	104	0	60	95095
2026-01-01 07:58:34.07	99.25	10.91	-52.4	-54.8	3.6	0.00e+00	0	38	104	0	60	93281
2026-01-01 07:58:35.08	99.08	10.99	-52.4	-54.8	3.6	0.00e+00	0	38	104	0	60	93218
2026-01-01 07:58:36.09	98.91	11.08	-52.3	-54.8	3.6	0.00e+00	0	38	104	0	60	92625
2026-01-01 07:58:37.10	98.74	11.16	-52.3	-54.7	3.6	0.00e+00	0	38	104	0	60	92257
2026-01-01 07:58:38.11	98.57	11.25	-52.3	-54.8	3.6	0.00e+00	0	38	104	0	60	92387
2026-01-01 07:58:39.12	98.40	11.33	-52.4	-54.9	3.6	0.00e+00	0	38	104	0	60	93778
2026-01-01 07:58:40.13	98.23	11.42	-52.4	-54.8	3.6	0.00e+00	0	38	104	0	60	93151
2026-01-01 07:58:41.14	98.05	11.51	-52.3	-54.8	3.6	0.00e+00	0	38	104	0	60	92982
2026-01-01 07:58:42.15	97.88	11.59	-52.3	-54.8	3.6	0.00e+00	0	38	104	0	60	92832
2026-01-01 07:58:43.16	97.70	11.68	-52.3	-54.8	3.6	0.00e+00	0	38	104	0	60	93010
2026-01-01 07:58:44.17	97.52	11.76	-52.5	-55.0	3.6	0.00e+00	0	38	104	0	60	94731
2026-01-01 07:58:45.18	97.34	11.85	-52.4	-54.9	3.6	0.00e+00	0	38	104	0	60	93609
2026-01-01 07:58:46.20	97.16	11.94	-52.4	-54.8	3.6	0.00e+00	0	38	104	0	60	92637
2026-01-01 07:58:47.21	96.98	12.03	-52.4	-54.9	3.6	0.00e+00	0	38	104	0	60	94131
2026-01-01 07:58:48.22	96.80	12.11	-52.3	-54.8	3.6	0.00e+00	0	38	104	0	60	92599
2026-01-01 07:58:49.23	96.61	12.20	-52.3	-54.7	3.6	0.00e+00	0	38	104	0	60	92173
2026-01-01 07:58:50.24	96.43	12.29	-52.4	-54.8	3.6	0.00e+00	0	38	104	0	60	93297
2026-01-01 07:58:51.25	96.24	12.38	-52.4	-54.9	3.6	0.00e+00	0	38	104	0	60	93937
2026-01-01 07:58:52.26	96.05	12.46	-52.3	-54.8	3.6	0.00e+00	0	38	104	0	60	92789
2026-01-01 07:58:53.27	95.86	12.55	-52.3	-54.7	3.6	0.00e+00	0	38	104	0	60	91850
2026-01-01 07:58:54.28	95.67	12.64	-52.2	-54.7	3.6	0.00e+00	0	38	104	0	60	91547
2026-01-01 07:58:55.29	95.48	12.73	-52.3	-54.7	3.6	0.00e+00	0	38	104	0	60	91769
2026-01-01 07:58:56.31	95.28	12.82	-52.4	-54.8	3.6	0.00e+00	0	38	104	0	60	93264
2026-01-01 07:58:57.32	95.09	12.91	-52.5	-54.9	3.6	0.00e+00	0	38	104	0	60	94498
2026-01-01 07:58:58.33	94.89	13.00	-52.3	-54.7	3.6	0.00e+00	0	38	104	0	60	91900
2026-01-01 07:58:59.34	94.69	13.08	-52.3	-54.8	3.6	0.00e+00	0	38	104	0	60	92431
2026-01-01 07:59:00.35	94.49	13.17	-52.3	-54.7	3.6	0.00e+00	0	38	104	0	60	92262
2026-01-01 07:59:01.36	94.29	13.26	-52.3	-54.8	3.6	0.00e+00	0	38	104	0	60	92886
2026-01-01 07:59:02.37	94.09	13.35	-52.4	-54.8	3.6	0.00e+00	0	38	104	0	60	93218
2026-01-01 07:59:03.38	93.89	13.44	-52.3	-54.7	3.6	0.00e+00	0	38	104	0	60	92105
2026-01-01 07:59:04.39	93.68	13.53	-52.3	-54.7	3.6	0.00e+00	0	38	104	0	60	91776
2026-01-01 07:59:05.41	93.47	13.62	-52.4	-54.8	3.6	0.00e+00	0	38	104	0	60	92758
2026-01-01 07:59:06.42	93.27	13.71	-52.3	-54.7	3.6	0.00e+00	0	38	104	0	60	92018
2026-01-01 07:59:07.43	93.06	13.80	-52.4	-54.8	3.6	0.00e+00	0	38	104	0	60	93326
2026-01-01 07:59:08.44	92.84	13.89	-52.3	-54.7	3.6	0.00e+00	0	38	104	0	60	91389
2026-01-01 07:59:09.45	92.63	13.98	-52.3	-54.7	3.6	0.00e+00	0	38	104	0	60	91671
2026-01-01 07:59:10.46	92.42	14.07	-52.4	-54.9	3.6	0.00e+00	0	38	104	0	60	93843
2026-01-01 07:59:11.47	92.20	14.16	-52.4	-54.9	3.6	0.00e+00	0	38	104	0	60	93786
2026-01-01 07:59:12.48	91.98	14.25	-52.3	-54.8	3.6	0.00e+00	0	38	104	0	60	92870
2026-01-01 07:59:13.49	91.77	14.34	-52.2	-54.7	3.6	0.00e+00	0	38	104	0	60	91590
2026-01-01 07:59:14.51	91.54	14.43	-52.2	-54.6	3.6	0.00e+00	0	38	104	0	60	91291
2026-01-01 07:59:15.52	91.32	14.52	-52.3	-54.7	3.6	0.00e+00	0	38	104	0	60	92224
2026-01-01 07:59:16.53	91.10	14.61	-52.3	-54.8	3.6	0.00e+00	0	38	104	0	60	92417
2026-01-01 07:59:17.54	90.87	14.70	-52.3	-54.7	3.6	0.00e+00	0	38	104	0	60	91899
2026-01-01 07:59:18.55	90.64	14.79	-52.4	-54.9	3.6	0.00e+00	0	38	104	0	60	93520
2026-01-01 07:59:19.56	90.42	14.88	-52.2	-54.6	3.6	0.00e+00	0	38	104	0	60	91268
2026-01-01 07:59:20.57	90.19	14.97	-52.2	-54.7	3.6	0.00e+00	0	38	104	0	60	91795
2026-01-01 07:59:21.58	89.95	15.06	-52.4	-54.8	3.6	0.00e+00	0	38	104	0	60	93074
2026-01-01 07:59:22.59	89.72	15.15	-52.4	-54.8	3.6	0.00e+00	0	38	104	0	60	92894
2026-01-01 07:59:23.61	89.48	15.24	-52.4	-54.9	3.6	0.00e+00	0	38	104	0	60	93854
2026-01-01 07:59:24.62	89.25	15.33	-52.3	-54.8	3.6	0.00e+00	0	38	104	0	60	92766
2026-01-01 07:59:25.63	89.01	15.42	-52.3	-54.8	3.6	0.00e+00	0	38	104	0	60	92453
2026-01-01 07:59:26.64	88.77	15.51	-52.3	-54.7	3.6	0.00e+00	0	38	104	0	60	92308
2026-01-01 07:59:27.65	88.52	15.60	-52.3	-54.7	3.6	0.00e+00	0	38	104	0	60	91632
2026-01-01 07:59:28.66	88.28	15.69	-52.2	-54.7	3.6	0.00e+00	0	38	104	0	60	91442
2026-01-01 07:59:29.67	88.04	15.78	-52.2	-54.6	3.6	0.00e+00	0	38	104	0	60	90828
2026-01-01 07:59:30.68	87.79	15.88	-52.3	-54.8	3.6	0.00e+00	0	38	104	0	60	92464
2026-01-01 07:59:31.69	87.54	15.97	-52.4	-54.8	3.6	0.00e+00	0	38	104	0	60	92751
2026-01-01 07:59:32.70	87.29	16.06	-52.2	-54.7	3.6	0.00e+00	0	38	104	0	60	91569
2026-01-01 07:59:33.71	87.04	16.15	-52.2	-54.7	3.6	0.00e+00	0	38	104	0	60	91626
2026-01-01 07:59:34.73	86.78	16.24	-52.2	-54.6	3.6	0.00e+00	0	38	104	0	60	91194
2026-01-01 07:59:35.74	86.52	16.33	-52.2	-54.7	3.6	0.00e+00	0	38	104	0	60	91344
2026-01-01 07:59:36.75	86.27	16.42	-52.2	-54.6	3.6	0.00e+00	0	38	104	0	60	91135
2026-01-01 07:59:37.76	86.01	16.50	-52.2	-54.7	3.6	0.00e+00	0	38	104	0	60	91669
2026-01-01 07:59:38.77	85.75	16.59	-52.3	-54.8	3.6	0.00e+00	0	38	104	0	60	92473
2026-01-01 07:59:39.78	85.48	16.68	-52.2	-54.7	3.6	0.00e+00	0	38	104	0	60	91661
2026-01-01 07:59:40.79	85.22	16.77	-52.3	-54.7	3.6	0.00e+00	0	38	104	0	60	91975
2026-01-01 07:59:41.80	84.95	16.86	-52.2	-54.6	3.6	0.00e+00	0	38	104	0	60	91174
2026-01-01 07:59:42.81	84.68	16.95	-52.2	-54.7	3.6	0.00e+00	0	38	104	0	60	91412
2026-01-01 07:59:43.82	84.41	17.04	-52.3	-54.8	3.6	0.00e+00	0	38	104	0	60	92681
2026-01-01 07:59:44.83	84.14	17.13	-52.2	-54.7	3.6	0.00e+00	0	38	104	0	60	91411
2026-01-01 07:59:45.85	83.86	17.22	-52.4	-54.8	3.6	0.00e+00	0	38	104	0	60	93385
2026-01-01 07:59:46.86	83.59	17.30	-52.3	-54.7	3.6	0.00e+00	0	38	104	0	60	92012
2026-01-01 07:59:47.87	83.31	17.39	-52.2	-54.6	3.6	0.00e+00	0	38	104	0	60	91152
2026-01-01 07:59:48.88	83.03	17.48	-52.2	-54.7	3.6	0.00e+00	0	38	104	0	60	91460
2026-01-01 07:59:49.89	82.75	17.57	-52.3	-54.7	3.6	0.00e+00	0	38	104	0	60	92164
2026-01-01 07:59:50.90	82.46	17.65	-52.2	-54.7	3.6	0.00e+00	0	38	104	0	60	91626
2026-01-01 07:59:51.91	82.18	17.74	-52.3	-54.7	3.6	0.00e+00	0	38	104	0	60	92354
2026-01-01 07:59:52.92	81.89	17.83	-52.2	-54.7	3.6	0.00e+00	0	38	104	0	60	91629
2026-01-01 07:59:53.93	81.60	17.91	-52.2	-54.7	3.6	0.00e+00	0	38	104	0	60	91525
2026-01-01 07:59:54.94	81.31	18.00	-52.3	-54.8	3.6	0.00e+00	0	38	104	0	60	92567
2026-01-01 07:59:55.95	81.02	18.09	-52.3	-54.7	3.6	0.00e+00	0	38	104	0	60	92161
2026-01-01 07:59:56.97	80.72	18.17	-52.3	-54.8	3.5	0.00e+00	0	38	104	0	60	92492
2026-01-01 07:59:57.98	80.42	18.26	-52.3	-54.8	3.6	0.00e+00	0	38	104	0	60	92455
2026-01-01 07:59:58.99	80.12	18.34	-52.4	-54.8	3.6	0.00e+00	0	38	104	0	60	93051
2026-01-01 08:00:00.00	79.82	18.43	-52.4	-54.8	3.6	0.00e+00	0	38	104	0	60	93434
2026-01-01 08:00:01.01	79.52	18.51	-52.3	-54.8	3.6	0.00e+00	0	38	104	0	60	92386
2026-01-01 08:00:02.02	79.21	18.59	-52.3	-54.8	3.5	0.00e+00	0	38	104	0	60	92441
2026-01-01 08:00:03.03	78.91	18.68	-52.4	-54.8	3.6	0.00e+00	0	38	104	0	60	93148
2026-01-01 08:00:04.04	78.60	18.76	-52.4	-54.8	3.6	0.00e+00	0	38	104	0	60	93432
2026-01-01 08:00:05.05	78.29	18.84	-52.3	-54.8	3.6	0.00e+00	0	38	104	0	60	92629
2026-01-01 08:00:06.07	77.97	18.92	-52.4	-54.8	3.6	0.00e+00	0	38	104	0	60	92642
2026-01-01 08:00:07.08	77.66	19.01	-52.3	-54.7	3.6	0.00e+00	0	38	104	0	60	91844
2026-01-01 08:00:08.09	77.34	19.09	-52.3	-54.7	3.6	0.00e+00	0	38	104	0	60	92139
2026-01-01 08:00:09.10	77.02	19.17	-52.3	-54.7	3.6	0.00e+00	0	38	104	0	60	92107
2026-01-01 08:00:10.11	76.70	19.25	-52.3	-54.8	3.6	0.00e+00	0	38	104	0	60	92897
2026-01-01 08:00:11.12	76.38	19.33	-52.2	-54.7	3.6	0.00e+00	0	38	104	0	60	91562
2026-01-01 08:00:12.14	76.06	19.41	-52.2	-54.7	3.6	0.00e+00	0	38	104	0	60	92180
2026-01-01 08:00:13.15	75.73	19.48	-52.2	-54.7	3.6	0.00e+00	0	38	104	0	60	91631
2026-01-01 08:00:14.16	75.40	19.56	-52.3	-54.8	3.6	0.00e+00	0	38	104	0	60	92497
2026-01-01 08:00:15.17	75.07	19.64	-52.3	-54.7	3.6	0.00e+00	0	38	104	0	60	92173
2026-01-01 08:00:16.18	74.74	19.72	-52.3	-54.8	3.6	0.00e+00	0	38	104	0	60	92666
2026-01-01 08:00:17.19	74.41	19.79	-52.2	-54.7	3.6	0.00e+00	0	38	104	0	60	91530
2026-01-01 08:00:18.20	74.07	19.87	-52.2	-54.7	3.6	0.00e+00	0	38	104	0	60	91753
2026-01-01 08:00:19.21	73.74	19.94	-52.2	-54.6	3.6	0.00e+00	0	38	104	0	60	90865
2026-01-01 08:00:20.22	73.40	20.02	-52.2	-54.6	3.6	0.00e+00	0	38	104	0	60	90743
2026-01-01 08:00:21.23	73.06	20.09	-52.3	-54.7	3.6	0.00e+00	0	38	104	0	60	92322
2026-01-01 08:00:22.24	72.71	20.16	-52.2	-54.7	3.6	0.00e+00	0	38	104	0	60	91729
2026-01-01 08:00:23.26	72.37	20.23	-52.3	-54.7	3.6	0.00e+00	0	38	104	0	60	91993
2026-01-01 08:00:24.27	72.02	20.31	-52.3	-54.8	3.6	0.00e+00	0	38	104	0	60	92657
2026-01-01 08:00:25.28	71.67	20.38	-52.4	-54.8	3.6	0.00e+00	0	38	104	0	60	93168
2026-01-01 08:00:26.29	71.32	20.45	-52.4	-54.8	3.6	0.00e+00	0	38	104	0	60	93430
2026-01-01 08:00:27.30	70.97	20.51	-52.4	-54.8	3.6	0.00e+00	0	38	104	0	60	92709
2026-01-01 08:00:28.31	70.62	20.58	-52.3	-54.8	3.6	0.00e+00	0	38	104	0	60	92426
2026-01-01 08:00:29.32	70.26	20.65	-52.3	-54.7	3.6	0.00e+00	0	38	104	0	60	91654
2026-01-01 08:00:30.33	69.91	20.72	-52.4	-54.8	3.6	0.00e+00	0	38	104	0	60	93019
2026-01-01 08:00:31.34	69.55	20.78	-52.4	-54.8	3.6	0.00e+00	0	38	104	0	60	93320
2026-01-01 08:00:32.35	69.19	20.85	-52.6	-55.0	3.6	0.00e+00	0	38	104	0	60	94944
2026-01-01 08:00:33.36	68.82	20.91	-52.4	-54.9	3.6	0.00e+00	0	38	104	0	60	93536
2026-01-01 08:00:34.37	68.46	20.97	-52.4	-54.9	3.6	0.00e+00	0	38	104	0	60	94342
2026-01-01 08:00:35.38	68.10	21.03	-52.3	-54.7	3.6	0.00e+00	0	38	104	0	60	91999
2026-01-01 08:00:36.39	67.73	21.09	-52.3	-54.8	3.6	0.00e+00	0	38	104	0	60	92899
2026-01-01 08:00:37.40	67.36	21.15	-52.3	-54.8	3.6	0.00e+00	0	38	104	0	60	92530
2026-01-01 08:00:38.41	66.99	21.21	-52.2	-54.7	3.6	0.00e+00	0	38	104	0	60	91792
2026-01-01 08:00:39.42	66.62	21.27	-52.4	-54.8	3.6	0.00e+00	0	38	104	0	60	92651
2026-01-01 08:00:40.43	66.24	21.33	-52.5	-54.9	3.6	0.00e+00	0	38	104	0	60	94525
2026-01-01 08:00:41.44	65.87	21.38	-52.3	-54.7	3.6	0.00e+00	0	38	104	0	60	92331
2026-01-01 08:00:42.45	65.49	21.44	-52.3	-54.7	3.6	0.00e+00	0	38	104	0	60	92331
2026-01-01 08:00:43.46	65.12	21.49	-52.3	-54.7	3.6	0.00e+00	0	38	104	0	60	91656
2026-01-01 08:00:44.47	64.74	21.55	-52.3	-54.8	3.6	0.00e+00	0	38	104	0	60	92825
2026-01-01 08:00:45.49	64.35	21.60	-52.2	-54.7	3.6	0.00e+00	0	38	104	0	60	91409
2026-01-01 08:00:46.50	63.97	21.65	-52.2	-54.7	3.6	0.00e+00	0	38	104	0	60	91462
2026-01-01 08:00:47.51	63.59	21.70	-52.4	-54.8	3.6	0.00e+00	0	38	104	0	60	93307
2026-01-01 08:00:48.52	63.20	21.75	-52.3	-54.7	3.5	0.00e+00	0	38	104	0	60	91477
2026-01-01 08:00:49.53	62.81	21.80	-52.4	-54.9	3.5	0.00e+00	0	38	104	0	60	94026
2026-01-01 08:00:50.54	62.43	21.84	-52.4	-54.9	3.6	0.00e+00	0	38	104	0	60	93825
2026-01-01 08:00:51.55	62.04	21.89	-52.3	-54.8	3.6	0.00e+00	0	38	104	0	60	92542
2026-01-01 08:00:52.56	61.65	21.93	-52.5	-55.0	3.6	0.00e+00	0	38	104	0	60	94738
2026-01-01 08:00:53.57	61.26	21.97	-52.4	-54.9	3.6	0.00e+00	0	38	104	0	60	93861
2026-01-01 08:00:54.58	60.86	22.01	-52.4	-54.9	3.6	0.00e+00	0	38	104	0	60	93667
2026-01-01 08:00:55.60	60.47	22.05	-52.3	-54.8	3.6	0.00e+00	0	38	104	0	60	92461
2026-01-01 08:00:56.61	60.07	22.09	-52.4	-54.9	3.6	0.00e+00	0	38	104	0	60	93799
2026-01-01 08:00:57.62	59.68	22.13	-52.4	-54.8	3.6	0.00e+00	0	38	104	0	60	92878
2026-01-01 08:00:58.63	59.28	22.17	-52.4	-54.8	3.6	0.00e+00	0	38	104	0	60	93348
2026-01-01 08:00:59.64	58.88	22.20	-52.4	-54.8	3.6	0.00e+00	0	38	104	0	60	93407
2026-01-01 08:01:00.65	58.48	22.24	-52.3	-54.7	3.5	0.00e+00	0	38	104	0	60	92315
2026-01-01 08:01:01.66	58.08	22.27	-52.3	-54.8	3.6	0.00e+00	0	38	104	0	60	92786
2026-01-01 08:01:02.67	57.68	22.30	-52.3	-54.8	3.6	0.00e+00	0	38	104	0	60	92393
2026-01-01 08:01:03.69	57.27	22.33	-52.3	-54.8	3.6	0.00e+00	0	38	104	0	60	92420
2026-01-01 08:01:04.70	56.87	22.36	-52.3	-54.7	3.6	0.00e+00	0	38	104	0	60	92288
2026-01-01 08:01:05.71	56.47	22.39	-52.3	-54.8	3.6	0.00e+00	0	38	104	0	60	92468
2026-01-01 08:01:06.72	56.06	22.41	-52.3	-54.7	3.6	0.00e+00	0	38	104	0	60	91597
2026-01-01 08:01:07.73	55.66	22.44	-52.2	-54.7	3.6	0.00e+00	0	38	104	0	60	91802
2026-01-01 08:01:08.74	55.25	22.46	-52.2	-54.6	3.6	0.00e+00	0	38	104	0	60	91196
2026-01-01 08:01:09.75	54.85	22.48	-52.3	-54.7	3.6	0.00e+00	0	38	104	0	60	91976
2026-01-01 08:01:10.76	54.44	22.50	-52.2	-54.7	3.6	0.00e+00	0	38	104	0	60	91554
2026-01-01 08:01:11.77	54.03	22.52	-52.4	-54.8	3.6	0.00e+00	0	38	104	0	60	92924
2026-01-01 08:01:12.79	53.62	22.54	-52.6	-55.1	3.6	0.00e+00	0	38	104	0	60	95777
2026-01-01 08:01:13.80	53.21	22.56	-52.3	-54.7	3.6	0.00e+00	0	38	104	0	60	92241
2026-01-01 08:01:14.81	52.80	22.57	-52.4	-54.9	3.6	0.00e+00	0	38	104	0	60	93628
2026-01-01 08:01:15.82	52.40	22.58	-52.3	-54.8	3.6	0.00e+00	0	39	104	0	60	92501
2026-01-01 08:01:16.83	51.99	22.60	-52.4	-54.9	3.6	0.00e+00	0	39	104	0	60	93450
2026-01-01 08:01:17.84	51.58	22.61	-52.3	-54.8	3.6	0.00e+00	0	38	104	0	60	92645
2026-01-01 08:01:18.85	51.17	22.61	-52.4	-54.8	3.6	0.00e+00	0	38	104	0	60	93064
2026-01-01 08:01:19.86	50.76	22.62	-52.3	-54.8	3.6	0.00e+00	0	38	104	0	60	92685
2026-01-01 08:01:20.87	50.34	22.63	-52.3	-54.7	3.6	0.00e+00	0	38	104	0	60	92170
2026-01-01 08:01:21.88	49.93	22.63	-52.2	-54.7	3.6	0.00e+00	0	38	104	0	60	91618
2026-01-01 08:01:22.89	49.52	22.64	-52.3	-54.7	3.6	0.00e+00	0	38	104	0	60	92095
2026-01-01 08:01:23.91	49.11	22.64	-52.4	-54.8	3.6	0.00e+00	0	38	104	0	60	93341
2026-01-01 08:01:24.92	48.70	22.64	-52.5	-55.0	3.6	0.00e+00	0	38	104	0	60	94821
2026-01-01 08:01:25.93	48.29	22.64	-52.5	-55.0	3.6	0.00e+00	0	38	104	0	60	94659
2026-01-01 08:01:26.94	47.87	22.64	-52.4	-54.9	3.6	0.00e+00	0	38	104	0	60	93985
2026-01-01 08:01:27.95	47.46	22.63	-52.3	-54.8	3.6	0.00e+00	0	38	104	0	60	92779
2026-01-01 08:01:28.96	47.05	22.63	-52.2	-54.6	3.6	0.00e+00	0	38	104	0	60	90950
2026-01-01 08:01:29.97	46.64	22.62	-52.4	-54.8	3.6	0.00e+00	0	38	104	0	60	93166
2026-01-01 08:01:30.98	46.23	22.61	-52.5	-54.9	3.6	0.00e+00	0	38	104	0	60	94201
2026-01-01 08:01:31.99	45.82	22.60	-52.5	-54.9	3.6	0.00e+00	0	38	104	0	60	94400
2026-01-01 08:01:33.00	45.41	22.59	-52.4	-54.9	3.6	0.00e+00	0	38	104	0	60	94123
2026-01-01 08:01:34.01	45.00	22.58	-52.3	-54.8	3.6	0.00e+00	0	38	104	0	60	92680
2026-01-01 08:01:35.02	44.59	22.57	-52.3	-54.8	3.6	0.00e+00	0	38	104	0	60	92864
2026-01-01 08:01:36.04	44.18	22.55	-52.3	-54.8	3.6	0.00e+00	0	38	104	0	60	92580
2026-01-01 08:01:37.05	43.77	22.53	-52.3	-54.7	3.6	0.00e+00	0	38	104	0	60	91966
2026-01-01 08:01:38.06	43.37	22.52	-52.4	-54.8	3.6	0.00e+00	0	38	104	0	60	93431
2026-01-01 08:01:39.07	42.96	22.50	-52.3	-54.8	3.6	0.00e+00	0	38	104	0	60	92404
2026-01-01 08:01:40.08	42.55	22.48	-52.2	-54.7	3.6	0.00e+00	0	38	104	0	60	91935
2026-01-01 08:01:41.09	42.15	22.45	-52.2	-54.6	3.6	0.00e+00	0	39	104	0	60	91066
2026-01-01 08:01:42.10	41.74	22.43	-52.4	-54.8	3.6	0.00e+00	0	38	104	0	60	93301
2026-01-01 08:01:43.11	41.34	22.40	-52.3	-54.9	3.6	0.00e+00	0	38	104	0	60	93566
2026-01-01 08:01:44.12	40.93	22.38	-52.3	-54.7	3.5	0.00e+00	0	38	104	0	60	91894
2026-01-01 08:01:45.13	40.53	22.35	-52.3	-54.7	3.6	0.00e+00	0	38	104	0	60	92372
2026-01-01 08:01:46.14	40.13	22.32	-52.2	-54.7	3.6	0.00e+00	0	38	104	0	60	91515
2026-01-01 08:01:47.16	39.72	22.29	-52.3	-54.7	3.6	0.00e+00	0	38	104	0	60	91846
2026-01-01 08:01:48.17	39.32	22.26	-52.2	-54.7	3.6	0.00e+00	0	38	104	0	60	91506
2026-01-01 08:01:49.18	38.92	22.23	-52.2	-54.7	3.6	0.00e+00	0	38	104	0	60	91755
2026-01-01 08:01:50.19	38.53	22.19	-52.2	-54.7	3.6	0.00e+00	0	38	104	0	60	91957
2026-01-01 08:01:51.20	38.13	22.16	-52.2	-54.7	3.6	0.00e+00	0	38	104	0	60	91478
2026-01-01 08:01:52.21	37.73	22.12	-52.4	-54.9	3.6	0.00e+00	0	38	104	0	60	93503
2026-01-01 08:01:53.22	37.34	22.08	-52.3	-54.8	3.6	0.00e+00	0	38	104	0	60	92828
2026-01-01 08:01:54.24	36.94	22.04	-52.3	-54.8	3.6	0.00e+00	0	38	104	0	60	92596
2026-01-01 08:01:55.25	36.55	22.00	-52.2	-54.6	3.6	0.00e+00	0	38	104	0	60	91091
2026-01-01 08:01:56.26	36.16	21.96	-52.5	-54.9	3.6	0.00e+00	0	38	104	0	60	94314
2026-01-01 08:01:57.27	35.76	21.92	-52.4	-54.8	3.6	0.00e+00	0	38	104	0	60	93363
2026-01-01 08:01:58.28	35.38	21.87	-52.4	-54.9	3.6	0.00e+00	0	38	104	0	60	94135
2026-01-01 08:01:59.29	34.99	21.83	-52.3	-54.8	3.6	0.00e+00	0	38	104	0	60	92826
2026-01-01 08:02:00.30	34.60	21.78	-52.3	-54.7	3.6	0.00e+00	0	38	104	0	60	91986
2026-01-01 08:02:01.31	34.22	21.73	-52.2	-54.7	3.6	0.00e+00	0	38	104	0	60	91891
2026-01-01 08:02:02.33	33.83	21.68	-52.2	-54.7	3.6	0.00e+00	0	38	104	0	60	91469
2026-01-01 08:02:03.34	33.45	21.63	-52.1	-54.6	3.6	0.00e+00	0	38	104	0	60	90942
2026-01-01 08:02:04.35	33.06	21.58	-52.3	-54.7	3.6	0.00e+00	0	39	104	0	60	92018
2026-01-01 08:02:05.36	32.68	21.53	-52.2	-54.6	3.6	0.00e+00	0	39	104	0	60	91002
2026-01-01 08:02:06.37	32.31	21.48	-52.2	-54.7	3.6	0.00e+00	0	38	104	0	60	91611
2026-01-01 08:02:07.38	31.93	21.42	-52.2	-54.7	3.6	0.00e+00	0	39	104	0	60	91580
2026-01-01 08:02:08.39	31.55	21.37	-52.2	-54.7	3.6	0.00e+00	0	38	104	0	60	91324
2026-01-01 08:02:09.40	31.18	21.31	-52.3	-54.8	3.6	0.00e+00	0	39	104	0	60	92386
2026-01-01 08:02:10.42	30.80	21.25	-52.3	-54.7	3.6	0.00e+00	0	38	104	0	60	91741
2026-01-01 08:02:11.43	30.43	21.20	-52.3	-54.7	3.6	0.00e+00	0	38	104	0	60	92269
2026-01-01 08:02:12.44	30.06	21.14	-52.2	-54.6	3.6	0.00e+00	0	38	104	0	60	91192
2026-01-01 08:02:13.45	29.70	21.08	-52.2	-54.7	3.6	0.00e+00	0	39	104	0	60	91421
2026-01-01 08:02:14.46	29.33	21.02	-52.2	-54.7	3.6	0.00e+00	0	38	104	0	60	91509
2026-01-01 08:02:15.47	28.97	20.95	-52.4	-54.9	3.6	0.00e+00	0	38	104	0	60	93655
2026-01-01 08:02:16.48	28.60	20.89	-52.4	-54.8	3.6	0.00e+00	0	38	104	0	60	93196
2026-01-01 08:02:17.49	28.24	20.83	-52.4	-54.8	3.6	0.00e+00	0	39	104	0	60	93378
2026-01-01 08:02:18.50	27.88	20.76	-52.3	-54.8	3.6	0.00e+00	0	39	104	0	60	92606
2026-01-01 08:02:19.51	27.53	20.70	-52.3	-54.7	3.6	0.00e+00	0	38	104	0	60	92001
2026-01-01 08:02:20.53	27.17	20.63	-52.4	-54.8	3.6	0.00e+00	0	38	104	0	60	93387
2026-01-01 08:02:21.54	26.81	20.56	-52.4	-54.9	3.6	0.00e+00	0	38	104	0	60	93626
2026-01-01 08:02:22.55	26.46	20.49	-52.3	-54.7	3.6	0.00e+00	0	38	104	0	60	92121
2026-01-01 08:02:23.56	26.11	20.43	-52.4	-54.9	3.6	0.00e+00	0	38	104	0	60	93975
2026-01-01 08:02:24.57	25.76	20.36	-52.3	-54.8	3.6	0.00e+00	0	39	104	0	60	92681
2026-01-01 08:02:25.58	25.42	20.29	-52.3	-54.8	3.6	0.00e+00	0	39	104	0	60	92536
2026-01-01 08:02:26.59	25.07	20.21	-52.3	-54.8	3.6	0.00e+00	0	39	104	0	60	92648
2026-01-01 08:02:27.60	24.73	20.14	-52.3	-54.8	3.5	0.00e+00	0	39	104	0	60	92384
2026-01-01 08:02:28.61	24.39	20.07	-52.3	-54.7	3.6	0.00e+00	0	39	104	0	60	92347
2026-01-01 08:02:29.62	24.05	20.00	-52.5	-55.0	3.6	0.00e+00	0	39	104	0	60	94705
2026-01-01 08:02:30.63	23.71	19.92	-52.5	-54.9	3.6	0.00e+00	0	39	104	0	60	94428
2026-01-01 08:02:31.65	23.37	19.85	-52.4	-54.9	3.6	0.00e+00	0	39	104	0	60	93848
2026-01-01 08:02:32.66	23.04	19.77	-52.5	-54.9	3.6	0.00e+00	0	39	104	0	60	94124
2026-01-01 08:02:33.67	22.71	19.70	-52.6	-55.0	3.6	0.00e+00	0	39	104	0	60	94865
2026-01-01 08:02:34.68	22.38	19.62	-52.4	-54.9	3.6	0.00e+00	0	39	104	0	60	93830
2026-01-01 08:02:35.69	22.05	19.54	-52.3	-54.8	3.6	0.00e+00	0	39	104	0	60	92794
2026-01-01 08:02:36.70	21.72	19.46	-52.4	-54.8	3.6	0.00e+00	0	38	104	0	60	93437
2026-01-01 08:02:37.71	21.40	19.39	-52.5	-55.0	3.6	0.00e+00	0	39	104	0	60	94763
2026-01-01 08:02:38.72	21.08	19.31	-52.4	-54.8	3.6	0.00e+00	0	39	104	0	60	93062
2026-01-01 08:02:39.73	20.76	19.23	-52.4	-54.9	3.6	0.00e+00	0	39	104	0	60	93707
2026-01-01 08:02:40.74	20.44	19.15	-52.4	-54.9	3.5	0.00e+00	0	39	104	0	60	93637
2026-01-01 08:02:41.75	20.12	19.07	-52.5	-55.0	3.6	0.00e+00	0	39	104	0	60	94969
2026-01-01 08:02:42.76	19.81	18.99	-52.3	-54.8	3.6	0.00e+00	0	39	104	0	60	92688
2026-01-01 08:02:43.77	19.49	18.91	-52.3	-54.7	3.6	0.00e+00	0	39	104	0	60	91816
2026-01-01 08:02:44.78	19.18	18.82	-52.3	-54.7	3.6	0.00e+00	0	39	104	0	60	91823
2026-01-01 08:02:45.79	18.87	18.74	-52.2	-54.7	3.6	0.00e+00	0	39	104	0	60	91942
2026-01-01 08:02:46.80	18.57	18.66	-52.3	-54.8	3.6	0.00e+00	0	39	104	0	60	92648
2026-01-01 08:02:47.82	18.26	18.58	-52.3	-54.8	3.6	0.00e+00	0	39	104	0	60	92994
2026-01-01 08:02:48.83	17.96	18.49	-52.3	-54.8	3.6	0.00e+00	0	39	104	0	60	92591
2026-01-01 08:02:49.84	17.65	18.41	-52.4	-54.8	3.6	0.00e+00	0	39	104	0	60	93250
2026-01-01 08:02:50.85	17.35	18.32	-52.3	-54.7	3.6	0.00e+00	0	39	104	0	60	92187
2026-01-01 08:02:51.86	17.06	18.24	-52.3	-54.8	3.6	0.00e+00	0	39	104	0	60	93042
2026-01-01 08:02:52.87	16.76	18.15	-52.3	-54.8	3.6	0.00e+00	0	39	104	0	60	92455
2026-01-01 08:02:53.88	16.47	18.07	-52.4	-54.8	3.6	0.00e+00	0	39	104	0	60	93275
2026-01-01 08:02:54.89	16.18	17.98	-52.4	-54.8	3.6	0.00e+00	0	39	104	0	60	92949
2026-01-01 08:02:55.91	15.88	17.90	-52.3	-54.7	3.6	0.00e+00	0	39	104	0	60	92272
2026-01-01 08:02:56.92	15.60	17.81	-52.3	-54.8	3.6	0.00e+00	0	38	104	0	60	92640
2026-01-01 08:02:57.93	15.31	17.72	-52.3	-54.8	3.6	0.00e+00	0	39	104	0	60	92590
2026-01-01 08:02:58.94	15.03	17.64	-52.3	-54.8	3.6	0.00e+00	0	38	104	0	60	92672
2026-01-01 08:02:59.95	14.74	17.55	-52.3	-54.8	3.6	0.00e+00	0	39	104	0	60	92798
2026-01-01 08:03:00.96	14.46	17.46	-52.3	-54.8	3.6	0.00e+00	0	39	104	0	60	92438
2026-01-01 08:03:01.97	14.19	17.38	-52.2	-54.7	3.6	0.00e+00	0	39	104	0	60	91338
2026-01-01 08:03:02.98	13.91	17.29	-52.2	-54.7	3.6	0.00e+00	0	39	104	0	60	91489
2026-01-01 08:03:03.99	13.63	17.20	-52.3	-54.7	3.6	0.00e+00	0	39	104	0	60	91995
2026-01-01 08:03:05.00	13.36	17.11	-52.3	-54.8	3.6	0.00e+00	0	39	104	0	60	92958
2026-01-01 08:03:06.02	13.09	17.02	-52.5	-54.9	3.6	0.00e+00	0	39	104	0	60	94409
2026-01-01 08:03:07.03	12.82	16.93	-52.3	-54.8	3.6	0.00e+00	0	39	104	0	60	93388
2026-01-01 08:03:08.04	12.55	16.85	-52.4	-54.8	3.6	0.00e+00	0	39	104	0	60	92880
2026-01-01 08:03:09.05	12.29	16.76	-52.2	-54.7	3.6	0.00e+00	0	39	104	0	60	91379
2026-01-01 08:03:10.06	12.02	16.67	-52.4	-54.9	3.6	0.00e+00	0	39	104	0	60	93787
2026-01-01 08:03:11.07	11.76	16.58	-52.4	-54.9	3.6	0.00e+00	0	39	104	0	60	93590
2026-01-01 08:03:12.08	11.50	16.49	-52.3	-54.8	3.6	0.00e+00	0	39	104	0	60	92937
2026-01-01 08:03:13.09	11.24	16.40	-52.2	-54.7	3.6	0.00e+00	0	39	104	0	60	91654
2026-01-01 08:03:14.10	10.99	16.31	-52.3	-54.8	3.6	0.00e+00	0	39	104	0	60	92995
2026-01-01 08:03:15.11	10.73	16.22	-52.4	-54.8	3.6	0.00e+00	0	39	104	0	60	93348
2026-01-01 08:03:16.12	10.48	16.13	-52.3	-54.8	3.6	0.00e+00	0	39	104	0	60	92994
2026-01-01 08:03:17.14	10.23	16.04	-52.3	-54.8	3.6	0.00e+00	0	39	104	0	60	92561
2026-01-01 08:03:18.15	9.98	15.95	-52.5	-54.9	3.6	0.00e+00	0	39	104	0	60	94503
2026-01-01 08:03:19.16	9.73	15.86	-52.5	-54.9	3.6	0.00e+00	0	39	104	0	60	94260
2026-01-01 08:03:20.17	9.48	15.77	-52.5	-54.9	3.6	0.00e+00	0	39	104	0	60	93998
2026-01-01 08:03:21.18	9.24	15.68	-52.3	-54.7	3.6	0.00e+00	0	39	104	0	60	92318
2026-01-01 08:03:22.19	9.00	15.59	-52.3	-54.7	3.6	0.00e+00	0	39	104	0	60	92121
2026-01-01 08:03:23.20	8.76	15.50	-52.3	-54.8	3.6	0.00e+00	0	39	104	0	60	92499
2026-01-01 08:03:24.21	8.52	15.41	-52.3	-54.8	3.6	0.00e+00	0	39	104	0	60	92505
2026-01-01 08:03:25.23	8.28	15.32	-52.4	-54.8	3.6	0.00e+00	0	39	104	0	60	93172
2026-01-01 08:03:26.24	8.04	15.23	-52.3	-54.7	3.6	0.00e+00	0	39	104	0	60	92319
2026-01-01 08:03:27.25	7.81	15.14	-52.2	-54.7	3.6	0.00e+00	0	39	104	0	60	91881
2026-01-01 08:03:28.26	7.58	15.05	-52.2	-54.7	3.6	0.00e+00	0	39	104	0	60	91798
2026-01-01 08:03:29.27	7.35	14.96	-52.3	-54.7	3.6	0.00e+00	0	39	104	0	60	92166
2026-01-01 08:03:30.28	7.12	14.87	-52.5	-54.9	3.6	0.00e+00	0	39	104	0	60	93923
2026-01-01 08:03:31.29	6.89	14.78	-52.4	-54.9	3.6	0.00e+00	0	39	104	0	60	94237
2026-01-01 08:03:32.30	6.66	14.69	-52.3	-54.8	3.6	0.00e+00	0	39	104	0	60	92459
2026-01-01 08:03:33.31	6.44	14.60	-52.3	-54.7	3.6	0.00e+00	0	39	104	0	60	91780
2026-01-01 08:03:34.32	6.22	14.51	-52.4	-54.9	3.6	0.00e+00	0	39	104	0	60	93839
2026-01-01 08:03:35.33	6.00	14.42	-52.4	-54.8	3.6	0.00e+00	0	39	104	0	60	93137
2026-01-01 08:03:36.34	5.78	14.33	-52.2	-54.7	3.6	0.00e+00	0	39	104	0	60	91860
2026-01-01 08:03:37.35	5.56	14.24	-52.3	-54.7	3.6	0.00e+00	0	39	104	0	60	91934
2026-01-01 08:03:38.36	5.34	14.15	-52.3	-54.8	3.6	0.00e+00	0	39	104	0	60	93055
2026-01-01 08:03:39.37	5.13	14.06	-52.3	-54.8	3.6	0.00e+00	0	39	104	0	60	92606
2026-01-01 08:03:40.39	4.91	13.97	-52.4	-54.8	3.6	0.00e+00	0	39	104	0	60	93116
2026-01-01 08:03:41.40	4.70	13.88	-52.2	-54.7	3.6	0.00e+00	0	39	104	0	60	91757
2026-01-01 08:03:42.41	4.49	13.79	-52.3	-54.8	3.6	0.00e+00	0	39	104	0	60	92590
2026-01-01 08:03:43.42	4.28	13.70	-52.3	-54.8	3.6	0.00e+00	0	39	104	0	60	92504
2026-01-01 08:03:44.43	4.08	13.61	-52.3	-54.8	3.6	0.00e+00	0	39	104	0	60	92642
2026-01-01 08:03:45.44	3.87	13.53	-52.3	-54.8	3.6	0.00e+00	0	39	104	0	60	92494
2026-01-01 08:03:46.45	3.67	13.44	-52.4	-54.9	3.6	0.00e+00	0	39	104	0	60	93936
2026-01-01 08:03:47.46	3.47	13.35	-52.4	-54.8	3.6	0.00e+00	0	39	104	0	60	93021
2026-01-01 08:03:48.47	3.26	13.26	-52.4	-54.9	3.6	0.00e+00	0	39	104	0	60	93589
2026-01-01 08:03:49.49	3.06	13.17	-52.3	-54.7	3.6	0.00e+00	0	39	104	0	60	92098
2026-01-01 08:03:50.50	2.87	13.08	-52.3	-54.7	3.6	0.00e+00	0	39	104	0	60	91798
2026-01-01 08:03:51.51	2.67	12.99	-52.3	-54.8	3.6	0.00e+00	0	39	104	0	60	92619
2026-01-01 08:03:52.52	2.47	12.90	-52.3	-54.7	3.6	0.00e+00	0	39	104	0	60	92047
2026-01-01 08:03:53.53	2.28	12.82	-52.4	-54.8	3.6	0.00e+00	0	39	104	0	60	93070
2026-01-01 08:03:54.54	2.09	12.73	-52.4	-54.9	3.6	0.00e+00	0	39	104	0	60	93472
2026-01-01 08:03:55.55	1.90	12.64	-52.4	-54.9	3.6	0.00e+00	0	39	104	0	60	93717
2026-01-01 08:03:56.56	1.71	12.55	-52.3	-54.7	3.6	0.00e+00	0	39	104	0	60	92037
2026-01-01 08:03:57.57	1.52	12.46	-52.3	-54.8	3.6	0.00e+00	0	39	104	0	60	92830
2026-01-01 08:03:58.58	1.33	12.38	-52.3	-54.7	3.6	0.00e+00	0	39	104	0	60	91802
2026-01-01 08:03:59.59	1.14	12.29	-52.5	-55.0	3.6	0.00e+00	0	39	104	0	60	94598
2026-01-01 08:04:00.61	0.96	12.20	-52.3	-54.8	3.6	0.00e+00	0	39	104	0	60	92718
2026-01-01 08:04:01.62	0.78	12.11	-52.2	-54.7	3.6	0.00e+00	0	39	104	0	60	91922
2026-01-01 08:04:02.63	0.59	12.03	-52.2	-54.7	3.6	0.00e+00	0	39	104	0	60	91507
2026-01-01 08:04:03.64	0.41	11.94	-52.2	-54.6	3.6	0.00e+00	0	39	104	0	60	90713
2026-01-01 08:04:04.65	0.23	11.85	-52.4	-54.9	3.5	0.00e+00	0	39	104	0	60	93481
2026-01-01 08:04:05.66	0.06	11.77	-52.4	-54.9	3.6	0.00e+00	0	39	104	0	60	93757
2026-01-01 08:04:06.67	359.88	11.68	-52.5	-54.9	3.6	0.00e+00	0	39	104	0	60	93924
2026-01-01 08:04:07.68	359.70	11.59	-52.6	-55.0	3.6	0.00e+00	0	39	104	0	60	95120
2026-01-01 08:04:08.69	359.53	11.51	-52.4	-54.9	3.6	0.00e+00	0	39	104	0	60	94284
2026-01-01 08:04:09.70	359.36	11.42	-52.4	-54.9	3.6	0.00e+00	0	39	104	0	60	93698
2026-01-01 08:04:10.72	359.18	11.34	-52.3	-54.8	3.6	0.00e+00	0	39	104	0	60	93061
2026-01-01 08:04:11.73	359.01	11.25	-52.4	-54.8	3.6	0.00e+00	0	39	104	0	60	93436
2026-01-01 08:04:12.74	358.84	11.17	-52.5	-55.0	3.6	0.00e+00	0	39	104	0	60	94686
2026-01-01 08:04:13.75	358.68	11.08	-52.6	-55.0	3.6	0.00e+00	0	39	104	0	60	95244
2026-01-01 08:04:14.76	358.51	10.99	-52.4	-54.9	3.6	0.00e+00	0	39	104	0	60	93809
2026-01-01 08:04:15.77	358.34	10.91	-52.4	-54.8	3.6	0.00e+00	0	39	104	0	60	93412
2026-01-01 08:04:16.78	358.18	10.83	-52.3	-54.8	3.6	0.00e+00	0	39	104	0	60	93280
2026-01-01 08:04:17.79	358.02	10.74	-52.5	-54.9	3.6	0.00e+00	0	39	104	0	60	93978
2026-01-01 08:04:18.80	357.85	10.66	-52.3	-54.8	3.6	0.00e+00	0	39	104	0	60	92539
2026-01-01 08:04:19.81	357.69	10.57	-52.3	-54.8	3.6	0.00e+00	0	39	104	0	60	92511
2026-01-01 08:04:20.82	357.53	10.49	-52.3	-54.8	3.6	0.00e+00	0	39	104	0	60	92412
2026-01-01 08:04:21.83	357.37	10.40	-52.3	-54.7	3.6	0.00e+00	0	39	104	0	60	91981
2026-01-01 08:04:22.84	357.22	10.32	-52.5	-55.0	3.6	0.00e+00	0	39	104	0	60	94919
2026-01-01 08:04:23.86	357.06	10.24	-52.4	-54.9	3.6	0.00e+00	0	39	104	0	60	94100
2026-01-01 08:04:24.87	356.90	10.15	-52.4	-54.9	3.6	0.00e+00	0	39	104	0	60	93972
2026-01-01 08:04:25.88	356.75	10.07	-52.4	-54.8	3.6	0.00e+00	0	39	104	0	60	92919
2026-01-01 08:04:26.89	356.60	9.99	-52.4	-54.9	3.6	0.00e+00	0	39	104	0	60	93746
2026-01-01 08:04:27.90	356.44	9.91	-52.3	-54.7	3.6	0.00e+00	0	39	104	0	60	91670
2026-01-01 08:04:28.91	356.29	9.82	-52.2	-54.6	3.5	0.00e+00	0	39	104	0	60	91027
2026-01-01 08:04:29.92	356.14	9.74	-52.2	-54.6	3.6	0.00e+00	0	39	104	0	60	90801
2026-01-01 08:04:30.93	355.99	9.66	-52.2	-54.6	3.6	0.00e+00	0	39	104	0	60	91039
2026-01-01 08:04:31.94	355.84	9.58	-52.2	-54.7	3.6	0.00e+00	0	39	104	0	60	92224
2026-01-01 08:04:32.96	355.70	9.49	-52.2	-54.6	3.6	0.00e+00	0	39	104	0	60	91053
2026-01-01 08:04:33.97	355.55	9.41	-52.2	-54.7	3.6	0.00e+00	0	39	104	0	60	91642
2026-01-01 08:04:34.98	355.41	9.33	-52.2	-54.6	3.6	0.00e+00	0	39	104	0	60	90806
2026-01-01 08:04:35.99	355.26	9.25	-52.4	-54.8	3.6	0.00e+00	0	39	104	0	60	93241
2026-01-01 08:04:37.00	355.12	9.17	-52.5	-55.0	3.6	0.00e+00	0	39	104	0	60	94585
2026-01-01 08:04:38.01	354.98	9.09	-52.3	-54.8	3.6	0.00e+00	0	39	104	0	60	92778
2026-01-01 08:04:39.02	354.84	9.01	-52.4	-54.8	3.6	0.00e+00	0	39	104	0	60	93300
2026-01-01 08:04:40.03	354.70	8.93	-52.3	-54.7	3.6	0.00e+00	0	39	104	0	60	92247
2026-01-01 08:04:41.04	354.56	8.85	-52.3	-54.7	3.6	0.00e+00	0	39	104	0	60	91928
2026-01-01 08:04:42.05	354.42	8.77	-52.3	-54.8	3.6	0.00e+00	0	39	104	0	60	93175
2026-01-01 08:04:43.06	354.28	8.69	-52.3	-54.7	3.6	0.00e+00	0	39	104	0	60	92241
2026-01-01 08:04:44.08	354.14	8.61	-52.3	-54.8	3.6	0.00e+00	0	39	104	0	60	92684
2026-01-01 08:04:45.09	354.01	8.53	-52.3	-54.7	3.6	0.00e+00	0	39	104	0	60	92292
2026-01-01 08:04:46.10	353.87	8.45	-52.4	-54.8	3.6	0.00e+00	0	39	104	0	60	93033
2026-01-01 08:04:47.11	353.74	8.37	-52.2	-54.7	3.6	0.00e+00	0	39	104	0	60	91510
2026-01-01 08:04:48.12	353.61	8.29	-52.3	-54.8	3.6	0.00e+00	0	39	104	0	60	92930
2026-01-01 08:04:49.13	353.48	8.21	-52.3	-54.8	3.6	0.00e+00	0	39	104	0	60	92658
2026-01-01 08:04:50.14	353.34	8.13	-52.4	-54.9	3.6	0.00e+00	0	39	104	0	60	94048
2026-01-01 08:04:51.15	353.21	8.06	-52.4	-54.8	3.6	0.00e+00	0	39	104	0	60	93123
2026-01-01 08:04:52.17	353.08	7.98	-52.3	-54.8	3.6	0.00e+00	0	39	104	0	60	93215
2026-01-01 08:04:53.18	352.96	7.90	-52.5	-54.9	3.6	0.00e+00	0	39	104	0	60	94415
2026-01-01 08:04:54.19	352.83	7.82	-52.4	-54.9	3.6	0.00e+00	0	39	104	0	60	93706
2026-01-01 08:04:55.20	352.70	7.74	-52.4	-54.8	3.6	0.00e+00	0	39	104	0	60	93088
2026-01-01 08:04:56.21	352.58	7.67	-52.4	-54.8	3.6	0.00e+00	0	39	104	0	60	93398
2026-01-01 08:04:57.22	352.45	7.59	-52.5	-55.0	3.6	0.00e+00	0	39	104	0	60	94895
2026-01-01 08:04:58.23	352.33	7.51	-52.4	-54.8	3.6	0.00e+00	0	39	104	0	60	93269
2026-01-01 08:04:59.25	352.20	7.44	-52.3	-54.7	3.6	0.00e+00	0	39	104	0	60	91622
2026-01-01 08:05:00.26	352.08	7.36	-52.3	-54.8	3.6	0.00e+00	0	39	104	0	60	93321
2026-01-01 08:05:01.27	351.96	7.28	-52.4	-54.8	3.6	0.00e+00	0	39	104	0	60	93242
2026-01-01 08:05:02.28	351.84	7.21	-52.3	-54.7	3.6	0.00e+00	0	39	104	0	60	91655
2026-01-01 08:05:03.29	351.72	7.13	-52.3	-54.7	3.6	0.00e+00	0	39	104	0	60	92358
2026-01-01 08:05:04.30	351.60	7.06	-52.5	-55.0	3.6	0.00e+00	0	39	104	0	60	94684
2026-01-01 08:05:05.31	351.48	6.98	-52.5	-55.0	3.6	0.00e+00	0	39	104	0	60	94904
2026-01-01 08:05:06.32	351.36	6.90	-52.3	-54.7	3.6	0.00e+00	0	39	104	0	60	92068
2026-01-01 08:05:07.33	351.25	6.83	-52.3	-54.7	3.6	0.00e+00	0	39	104	0	60	92342
2026-01-01 08:05:08.34	351.13	6.75	-52.3	-54.8	3.6	0.00e+00	0	39	104	0	60	92653
2026-01-01 08:05:09.35	351.02	6.68	-52.4	-54.8	3.6	0.00e+00	0	39	104	0	60	93253
2026-01-01 08:05:10.36	350.90	6.61	-52.5	-54.9	3.6	0.00e+00	0	39	104	0	60	93916
2026-01-01 08:05:11.38	350.79	6.53	-52.3	-54.7	3.6	0.00e+00	0	39	104	0	60	92103
2026-01-01 08:05:12.39	350.67	6.46	-52.3	-54.7	3.6	0.00e+00	0	39	104	0	60	91551
2026-01-01 08:05:13.40	350.56	6.38	-52.3	-54.7	3.6	0.00e+00	0	39	104	0	60	91898
2026-01-01 08:05:14.41	350.45	6.31	-52.3	-54.8	3.6	0.00e+00	0	39	104	0	60	92697
2026-01-01 08:05:15.42	350.34	6.23	-52.4	-54.8	3.6	0.00e+00	0	39	104	0	60	93352
2026-01-01 08:05:16.43	350.23	6.16	-52.4	-54.9	3.6	0.00e+00	0	39	104	0	60	93760
2026-01-01 08:05:17.44	350.12	6.09	-52.4	-54.9	3.6	0.00e+00	0	39	104	0	60	93467
2026-01-01 08:05:18.45	350.01	6.01	-52.5	-54.9	3.6	0.00e+00	0	39	104	0	60	93716
2026-01-01 08:05:19.46	349.90	5.94	-52.2	-54.7	3.6	0.00e+00	0	39	104	0	60	92192
2026-01-01 08:05:20.47	349.79	5.87	-52.2	-54.7	3.6	0.00e+00	0	39	104	0	60	91633
2026-01-01 08:05:21.49	349.69	5.80	-52.5	-54.9	3.6	0.00e+00	0	39	104	0	60	94127
2026-01-01 08:05:22.50	349.58	5.72	-52.3	-54.8	3.6	0.00e+00	0	39	104	0	60	92589
2026-01-01 08:05:23.51	349.47	5.65	-52.3	-54.7	3.6	0.00e+00	0	39	104	0	60	92097
2026-01-01 08:05:24.52	349.37	5.58	-52.3	-54.8	3.6	0.00e+00	0	39	104	0	60	93142
2026-01-01 08:05:25.53	349.27	5.51	-52.4	-54.8	3.5	0.00e+00	0	39	104	0	60	92904
2026-01-01 08:05:26.54	349.16	5.44	-52.4	-54.9	3.6	0.00e+00	0	39	104	0	60	94007
2026-01-01 08:05:27.55	349.06	5.36	-52.4	-54.9	3.6	0.00e+00	0	39	104	0	60	94195
2026-01-01 08:05:28.56	348.96	5.29	-52.4	-54.9	3.6	0.00e+00	0	39	104	0	60	93474
2026-01-01 08:05:29.57	348.86	5.22	-52.3	-54.8	3.6	0.00e+00	0	39	104	0	60	93081
2026-01-01 08:05:30.58	348.75	5.15	-52.4	-54.8	3.6	0.00e+00	0	39	104	0	60	92857
2026-01-01 08:05:31.60	348.65	5.08	-52.5	-55.0	3.6	0.00e+00	0	39	104	0	60	95196
2026-01-01 08:05:32.61	348.55	5.01	-52.3	-54.8	3.6	0.00e+00	0	39	104	0	60	92834
2026-01-01 08:05:33.62	348.45	4.94	-52.2	-54.6	3.6	0.00e+00	0	39	104	0	60	91289
2026-01-01 08:05:34.63	348.36	4.87	-52.4	-54.8	3.6	0.00e+00	0	39	104	0	60	93239
2026-01-01 08:05:35.64	348.26	4.80	-52.5	-55.0	3.6	0.00e+00	0	39	104	0	60	94952
2026-01-01 08:05:36.65	348.16	4.73	-52.5	-54.9	3.6	0.00e+00	0	39	104	0	60	94431
2026-01-01 08:05:37.66	348.06	4.66	-52.4	-54.9	3.6	0.00e+00	0	39	104	0	60	94157
2026-01-01 08:05:38.67	347.97	4.59	-52.6	-55.0	3.6	0.00e+00	0	39	104	0	60	94977
2026-01-01 08:05:39.68	347.87	4.52	-52.5	-55.0	3.6	0.00e+00	0	39	104	0	60	94753
2026-01-01 08:05:40.69	347.78	4.45	-52.5	-55.0	3.6	0.00e+00	0	39	104	0	60	94642
2026-01-01 08:05:41.70	347.68	4.38	-52.4	-54.8	3.6	0.00e+00	0	39	104	0	60	92941
2026-01-01 08:05:42.72	347.59	4.31	-52.4	-54.8	3.6	0.00e+00	0	39	104	0	60	93303
2026-01-01 08:05:43.73	347.50	4.24	-52.4	-54.8	3.6	0.00e+00	0	39	104	0	60	93068
2026-01-01 08:05:44.74	347.40	4.17	-52.4	-54.8	3.6	0.00e+00	0	39	104	0	60	93227
2026-01-01 08:05:45.75	347.31	4.11	-52.3	-54.7	3.6	0.00e+00	0	39	104	0	60	91435
2026-01-01 08:05:46.76	347.22	4.04	-52.5	-54.9	3.6	0.00e+00	0	39	104	0	60	94125
2026-01-01 08:05:47.77	347.13	3.97	-52.2	-54.6	3.6	0.00e+00	0	39	104	0	60	90863
2026-01-01 08:05:48.78	347.04	3.90	-52.2	-54.7	3.6	0.00e+00	0	39	104	0	60	91420
2026-01-01 08:05:49.80	346.95	3.83	-52.2	-54.7	3.6	0.00e+00	0	39	104	0	60	91477
2026-01-01 08:05:50.80	346.86	3.77	-52.3	-54.7	3.6	0.00e+00	0	39	104	0	60	92008
2026-01-01 08:05:51.81	346.77	3.70	-52.3	-54.7	3.6	0.00e+00	0	39	104	0	60	92307
2026-01-01 08:05:52.83	346.68	3.63	-52.4	-54.9	3.5	0.00e+00	0	39	104	0	60	93504
2026-01-01 08:05:53.84	346.60	3.56	-52.4	-54.8	3.6	0.00e+00	0	39	104	0	60	93121
2026-01-01 08:05:54.85	346.51	3.50	-52.3	-54.7	3.6	0.00e+00	0	39	104	0	60	92066
2026-01-01 08:05:55.86	346.42	3.43	-52.2	-54.6	3.6	0.00e+00	0	39	104	0	60	90870
2026-01-01 08:05:56.87	346.34	3.36	-52.2	-54.7	3.6	0.00e+00	0	39	104	0	60	91576
2026-01-01 08:05:57.88	346.25	3.30	-52.2	-54.7	3.6	0.00e+00	0	39	104	0	60	91536
2026-01-01 08:05:58.89	346.16	3.23	-52.3	-54.8	3.6	0.00e+00	0	39	104	0	60	92846
2026-01-01 08:05:59.91	346.08	3.16	-52.3	-54.7	3.6	0.00e+00	0	39	104	0	60	91942
2026-01-01 08:06:00.92	346.00	3.10	-52.2	-54.7	3.6	0.00e+00	0	39	104	0	60	91437
2026-01-01 08:06:01.93	345.91	3.03	-52.2	-54.7	3.6	0.00e+00	0	39	104	0	60	91382
2026-01-01 08:06:02.94	345.83	2.97	-52.2	-54.6	3.6	0.00e+00	0	39	104	0	60	91316
2026-01-01 08:06:03.95	345.75	2.90	-52.2	-54.6	3.6	0.00e+00	0	39	104	0	60	90953
2026-01-01 08:06:04.96	345.66	2.84	-52.2	-54.7	3.6	0.00e+00	0	39	104	0	60	91681
2026-01-01 08:06:05.97	345.58	2.77	-52.3	-54.8	3.6	0.00e+00	0	39	104	0	60	92454
2026-01-01 08:06:06.98	345.50	2.71	-52.4	-54.9	3.6	0.00e+00	0	39	104	0	60	93574
2026-01-01 08:06:07.99	345.42	2.64	-52.4	-54.8	3.6	0.00e+00	0	39	104	0	60	92882
2026-01-01 08:06:09.00	345.34	2.58	-52.3	-54.8	3.6	0.00e+00	0	39	104	0	60	92426
2026-01-01 08:06:10.01	345.26	2.51	-52.2	-54.7	3.6	0.00e+00	0	39	104	0	60	91344
2026-01-01 08:06:11.02	345.18	2.45	-52.2	-54.7	3.6	0.00e+00	0	39	104	0	60	91654
2026-01-01 08:06:12.03	345.10	2.38	-52.2	-54.7	3.6	0.00e+00	0	39	104	0	60	91336
2026-01-01 08:06:13.04	345.02	2.32	-52.3	-54.7	3.6	0.00e+00	0	39	104	0	60	91929
2026-01-01 08:06:14.06	344.95	2.25	-52.2	-54.7	3.6	0.00e+00	0	39	104	0	60	91415
2026-01-01 08:06:15.07	344.87	2.19	-52.2	-54.6	3.6	0.00e+00	0	39	104	0	60	91014
2026-01-01 08:06:16.08	344.79	2.13	-52.3	-54.8	3.6	0.00e+00	0	39	104	0	60	92607
2026-01-01 08:06:17.09	344.71	2.06	-52.4	-54.8	3.6	0.00e+00	0	39	104	0	60	93383
2026-01-01 08:06:18.10	344.64	2.00	-52.4	-54.8	3.6	0.00e+00	0	39	104	0	60	93116
2026-01-01 08:06:19.11	344.56	1.93	-52.3	-54.7	3.6	0.00e+00	0	39	104	0	60	92144
2026-01-01 08:06:20.12	344.49	1.87	-52.2	-54.7	3.6	0.00e+00	0	39	104	0	60	91340
2026-01-01 08:06:21.13	344.41	1.81	-52.2	-54.6	3.6	0.00e+00	0	39	104	0	60	91292
2026-01-01 08:06:22.14	344.34	1.75	-52.2	-54.6	3.6	0.00e+00	0	39	104	0	60	91154
2026-01-01 08:06:23.15	344.26	1.68	-52.4	-54.8	3.6	0.00e+00	0	39	104	0	60	92888
2026-01-01 08:06:24.16	344.19	1.62	-52.4	-54.8	3.6	0.00e+00	0	39	104	0	60	93362
2026-01-01 08:06:25.17	344.12	1.56	-52.5	-54.9	3.6	0.00e+00	0	39	104	0	60	94475
2026-01-01 08:06:26.18	344.04	1.50	-52.3	-54.7	3.6	0.00e+00	0	39	104	0	60	92346
2026-01-01 08:06:27.19	343.97	1.43	-52.4	-54.8	3.6	0.00e+00	0	39	104	0	60	92514
2026-01-01 08:06:28.20	343.90	1.37	-52.3	-54.8	3.6	0.00e+00	0	39	104	0	60	92690
2026-01-01 08:06:29.22	343.83	1.31	-52.4	-54.8	3.6	0.00e+00	0	39	104	0	60	93369
2026-01-01 08:06:30.23	343.76	1.25	-52.3	-54.8	3.6	0.00e+00	0	39	104	0	60	92702
2026-01-01 08:06:31.24	343.68	1.18	-52.3	-54.7	3.6	0.00e+00	0	39	104	0	60	92178
2026-01-01 08:06:32.25	343.61	1.12	-52.3	-54.7	3.6	0.00e+00	0	39	104	0	60	91932
2026-01-01 08:06:33.26	343.54	1.06	-52.2	-54.7	3.6	0.00e+00	0	39	104	0	60	91957
2026-01-01 08:06:34.27	343.47	1.00	-52.2	-54.6	3.6	0.00e+00	0	39	104	0	60	90617
2026-01-01 08:06:35.28	343.40	0.94	-52.3	-54.7	3.6	0.00e+00	0	39	104	0	60	91855
2026-01-01 08:06:36.29	343.34	0.88	-52.3	-54.7	3.6	0.00e+00	0	39	104	0	60	92305
2026-01-01 08:06:37.30	343.27	0.82	-52.3	-54.7	3.6	0.00e+00	0	39	104	0	60	92249
2026-01-01 08:06:38.31	343.20	0.76	-52.2	-54.7	3.6	0.00e+00	0	39	104	0	60	91409
2026-01-01 08:06:39.33	343.13	0.69	-52.2	-54.7	3.6	0.00e+00	0	39	104	0	60	91613
2026-01-01 08:06:40.34	343.06	0.63	-52.2	-54.6	3.6	0.00e+00	0	39	104	0	60	91227
2026-01-01 08:06:41.35	343.00	0.57	-52.4	-54.9	3.6	0.00e+00	0	39	104	0	60	94072
2026-01-01 08:06:42.36	342.93	0.51	-52.3	-54.7	3.6	0.00e+00	0	39	104	0	60	92358
2026-01-01 08:06:43.37	342.86	0.45	-52.2	-54.7	3.6	0.00e+00	0	39	104	0	60	91552
2026-01-01 08:06:44.38	342.80	0.39	-52.3	-54.7	3.6	0.00e+00	0	39	104	0	60	92101
2026-01-01 08:06:45.39	342.73	0.33	-52.3	-54.7	3.6	0.00e+00	0	39	104	0	60	91779
2026-01-01 08:06:46.40	342.67	0.27	-52.4	-54.8	3.6	0.00e+00	0	39	104	0	60	92867
2026-01-01 08:06:47.41	342.60	0.21	-52.2	-54.7	3.6	0.00e+00	0	39	104	0	60	91662
2026-01-01 08:06:48.42	342.54	0.15	-52.3	-54.7	3.6	0.00e+00	0	39	104	0	60	91931
2026-01-01 08:06:49.44	342.47	0.09	-52.2	-54.6	3.6	0.00e+00	0	39	104	0	60	91175
2026-01-01 08:06:50.45	342.41	0.03	-52.2	-54.6	3.6	0.00e+00	0	39	104	0	60	91053
2026-01-01 08:06:51.46	342.34	-0.03	-52.3	-54.8	3.6	0.00e+00	0	39	104	0	60	92649
2026-01-01 08:06:52.47	342.28	-0.08	-52.2	-54.6	3.6	0.00e+00	0	39	104	0	60	90984

#Closed at: 2026-01-01 08:06:52
#Recorded file [0 MB]: D:/lorett/data/35034_260101_105600.dat