passes_logs/2026/01/01/R4.6S_Anadyr_2ch/R4.6S_Anadyr_2ch__20260101_110411_2025-108B_rec.log

#Pass ID: 20260101_110411_2025-108B
#Satellite: 2025-108B
#Configuration: 3PB_600M
#almurnet v.1.7.20251203
#Start time: 2026-01-01 11:04:12

#Version: 2.2.20231116
#Station: R4.6S_Anadyr_2ch
#Location: 177.4865 lon 64.73178 lat
#TLE: 1 64088U 25108B   25351.01672131  .00008460  00000+0  43413-3 0  9994
#TLE: 2 64088  97.4940  63.8579 0011684 285.1423  74.8517 15.16717580 31720

#Time	Az	El	Level	Level2	SNR	BER	BlckErr	Temp	State	Recorded	gain1	gain2
2026-01-01 11:04:12.55	204.54	0.06	-51.9	-53.3	3.4	0.00e+00	0	34	0	0	60	77729
2026-01-01 11:04:13.56	204.62	0.11	-51.8	-54.2	3.6	0.00e+00	0	35	104	0	60	86772
2026-01-01 11:04:14.57	204.70	0.17	-51.8	-54.2	3.6	0.00e+00	0	36	104	0	60	87084
2026-01-01 11:04:15.58	204.78	0.23	-51.8	-54.2	3.6	0.00e+00	0	36	104	0	60	86761
2026-01-01 11:04:16.59	204.85	0.29	-51.8	-54.2	3.6	0.00e+00	0	36	104	0	60	86385
2026-01-01 11:04:17.60	204.93	0.35	-51.8	-54.3	3.6	0.00e+00	0	36	104	0	60	87417
2026-01-01 11:04:18.61	205.01	0.40	-51.8	-54.3	3.6	0.00e+00	0	36	104	0	60	87385
2026-01-01 11:04:19.63	205.09	0.46	-51.8	-54.2	3.6	0.00e+00	0	36	104	0	60	86883
2026-01-01 11:04:20.64	205.17	0.52	-51.8	-54.2	3.6	0.00e+00	0	36	104	0	60	86888
2026-01-01 11:04:21.65	205.25	0.58	-51.8	-54.2	3.6	0.00e+00	0	36	104	0	60	87100
2026-01-01 11:04:22.66	205.33	0.64	-51.8	-54.2	3.6	0.00e+00	0	36	104	0	60	86744
2026-01-01 11:04:23.67	205.41	0.70	-51.8	-54.2	3.6	0.00e+00	0	36	104	0	60	86631
2026-01-01 11:04:24.68	205.49	0.76	-51.8	-54.2	3.6	0.00e+00	0	36	104	0	60	86740
2026-01-01 11:04:25.69	205.57	0.82	-51.8	-54.2	3.6	0.00e+00	0	36	104	0	60	86420
2026-01-01 11:04:26.70	205.65	0.88	-51.8	-54.2	3.6	0.00e+00	0	36	104	0	60	86879
2026-01-01 11:04:27.71	205.73	0.93	-51.8	-54.2	3.6	0.00e+00	0	36	104	0	60	87090
2026-01-01 11:04:28.72	205.82	0.99	-51.8	-54.2	3.6	0.00e+00	0	36	104	0	60	86994
2026-01-01 11:04:29.73	205.90	1.05	-51.8	-54.2	3.6	0.00e+00	0	36	104	0	60	86549
2026-01-01 11:04:30.74	205.98	1.11	-51.8	-54.2	3.6	0.00e+00	0	36	104	0	60	86852
2026-01-01 11:04:31.75	206.07	1.17	-51.8	-54.2	3.6	0.00e+00	0	36	104	0	60	87027
2026-01-01 11:04:32.77	206.15	1.23	-51.8	-54.3	3.6	0.00e+00	0	36	104	0	60	87626
2026-01-01 11:04:33.77	206.23	1.29	-51.8	-54.2	3.6	0.00e+00	0	36	104	0	60	86974
2026-01-01 11:04:34.78	206.32	1.35	-51.8	-54.2	3.6	0.00e+00	0	36	104	0	60	87140
2026-01-01 11:04:35.80	206.40	1.41	-51.8	-54.3	3.6	0.00e+00	0	36	104	0	60	87456
2026-01-01 11:04:36.81	206.49	1.47	-51.8	-54.2	3.6	0.00e+00	0	36	104	0	60	87163
2026-01-01 11:04:37.82	206.58	1.53	-51.8	-54.2	3.6	0.00e+00	0	37	104	0	60	87078
2026-01-01 11:04:38.83	206.66	1.59	-51.8	-54.3	3.6	0.00e+00	0	36	104	0	60	87239
2026-01-01 11:04:39.84	206.75	1.65	-51.8	-54.3	3.6	0.00e+00	0	37	104	0	60	87415
2026-01-01 11:04:40.85	206.84	1.72	-51.8	-54.2	3.6	0.00e+00	0	37	104	0	60	86710
2026-01-01 11:04:41.86	206.92	1.78	-51.7	-54.2	3.5	0.00e+00	0	37	104	0	60	86756
2026-01-01 11:04:42.87	207.01	1.84	-51.8	-54.2	3.6	0.00e+00	0	37	104	0	60	87022
2026-01-01 11:04:43.88	207.10	1.90	-51.8	-54.2	3.6	0.00e+00	0	37	104	0	60	86986
2026-01-01 11:04:44.89	207.19	1.96	-51.8	-54.2	3.6	0.00e+00	0	37	104	0	60	86868
2026-01-01 11:04:45.90	207.28	2.02	-51.8	-54.2	3.6	0.00e+00	0	37	104	0	60	87154
2026-01-01 11:04:46.91	207.37	2.08	-51.8	-54.2	3.6	0.00e+00	0	37	104	0	60	86991
2026-01-01 11:04:47.92	207.46	2.14	-51.8	-54.2	3.6	0.00e+00	0	37	104	0	60	86807
2026-01-01 11:04:48.93	207.55	2.21	-51.8	-54.3	3.6	0.00e+00	0	37	104	0	60	87391
2026-01-01 11:04:49.95	207.64	2.27	-51.8	-54.2	3.6	0.00e+00	0	37	104	0	60	86701
2026-01-01 11:04:50.96	207.73	2.33	-51.8	-54.3	3.6	0.00e+00	0	37	104	0	60	87308
2026-01-01 11:04:51.96	207.82	2.39	-51.9	-54.3	3.6	0.00e+00	0	37	104	0	60	88073
2026-01-01 11:04:52.97	207.92	2.45	-51.8	-54.3	3.6	0.00e+00	0	37	104	0	60	87816
2026-01-01 11:04:53.99	208.01	2.52	-51.8	-54.3	3.6	0.00e+00	0	37	104	0	60	87706
2026-01-01 11:04:54.99	208.10	2.58	-51.8	-54.3	3.6	0.00e+00	0	37	104	0	60	87943
2026-01-01 11:04:56.00	208.20	2.64	-51.8	-54.3	3.6	0.00e+00	0	37	104	0	60	87563
2026-01-01 11:04:57.02	208.29	2.71	-51.8	-54.2	3.6	0.00e+00	0	37	104	0	60	87149
2026-01-01 11:04:58.03	208.39	2.77	-51.8	-54.2	3.6	0.00e+00	0	37	104	0	60	86845
2026-01-01 11:04:59.04	208.48	2.83	-51.8	-54.3	3.6	0.00e+00	0	37	104	0	60	87236
2026-01-01 11:05:00.05	208.58	2.89	-51.8	-54.2	3.6	0.00e+00	0	37	104	0	60	86648
2026-01-01 11:05:01.06	208.68	2.96	-51.8	-54.2	3.6	0.00e+00	0	37	104	0	60	86734
2026-01-01 11:05:02.07	208.77	3.02	-51.8	-54.2	3.6	0.00e+00	0	37	104	0	60	86973
2026-01-01 11:05:03.08	208.87	3.08	-51.8	-54.2	3.6	0.00e+00	0	37	104	0	60	87043
2026-01-01 11:05:04.09	208.97	3.15	-51.8	-54.2	3.6	0.00e+00	0	37	104	0	60	87130
2026-01-01 11:05:05.10	209.07	3.21	-51.8	-54.2	3.6	0.00e+00	0	37	104	0	60	86842
2026-01-01 11:05:06.11	209.17	3.28	-51.8	-54.3	3.6	0.00e+00	0	37	104	0	60	87273
2026-01-01 11:05:07.12	209.27	3.34	-51.8	-54.3	3.6	0.00e+00	0	37	104	0	60	87221
2026-01-01 11:05:08.13	209.37	3.40	-51.8	-54.3	3.6	0.00e+00	0	37	104	0	60	87707
2026-01-01 11:05:09.14	209.47	3.47	-51.8	-54.2	3.6	0.00e+00	0	37	104	0	60	87075
2026-01-01 11:05:10.15	209.57	3.53	-51.8	-54.3	3.6	0.00e+00	0	37	104	0	60	87371
2026-01-01 11:05:11.17	209.67	3.60	-51.9	-54.3	3.5	0.00e+00	0	37	104	0	60	88027
2026-01-01 11:05:12.18	209.77	3.66	-51.8	-54.3	3.6	0.00e+00	0	37	104	0	60	87422
2026-01-01 11:05:13.19	209.87	3.73	-51.8	-54.3	3.6	0.00e+00	0	37	104	0	60	87339
2026-01-01 11:05:14.20	209.98	3.79	-51.8	-54.3	3.6	0.00e+00	0	37	104	0	60	87219
2026-01-01 11:05:15.21	210.08	3.86	-51.8	-54.2	3.6	0.00e+00	0	37	104	0	60	87156
2026-01-01 11:05:16.22	210.19	3.92	-51.8	-54.3	3.6	0.00e+00	0	37	104	0	60	87237
2026-01-01 11:05:17.23	210.29	3.99	-51.8	-54.3	3.6	0.00e+00	0	37	104	0	60	87326
2026-01-01 11:05:18.24	210.40	4.05	-51.8	-54.3	3.6	0.00e+00	0	37	104	0	60	87447
2026-01-01 11:05:19.25	210.50	4.12	-51.9	-54.3	3.6	0.00e+00	0	37	104	0	60	87882
2026-01-01 11:05:20.26	210.61	4.19	-51.8	-54.3	3.6	0.00e+00	0	37	104	0	60	87569
2026-01-01 11:05:21.27	210.72	4.25	-51.9	-54.3	3.6	0.00e+00	0	37	104	0	60	87752
2026-01-01 11:05:22.28	210.82	4.32	-51.8	-54.3	3.6	0.00e+00	0	37	104	0	60	87349
2026-01-01 11:05:23.30	210.93	4.38	-51.8	-54.3	3.6	0.00e+00	0	37	104	0	60	87507
2026-01-01 11:05:24.31	211.04	4.45	-51.8	-54.2	3.6	0.00e+00	0	37	104	0	60	87119
2026-01-01 11:05:25.31	211.15	4.52	-51.8	-54.2	3.6	0.00e+00	0	37	104	0	60	87168
2026-01-01 11:05:26.32	211.26	4.58	-51.8	-54.3	3.6	0.00e+00	0	37	104	0	60	87229
2026-01-01 11:05:27.34	211.37	4.65	-51.8	-54.3	3.6	0.00e+00	0	37	104	0	60	87351
2026-01-01 11:05:28.34	211.48	4.72	-51.8	-54.3	3.6	0.00e+00	0	37	104	0	60	87303
2026-01-01 11:05:29.36	211.60	4.79	-51.8	-54.2	3.6	0.00e+00	0	37	104	0	60	86956
2026-01-01 11:05:30.37	211.71	4.85	-51.8	-54.3	3.6	0.00e+00	0	37	104	0	60	87264
2026-01-01 11:05:31.38	211.82	4.92	-51.8	-54.3	3.6	0.00e+00	0	37	104	0	60	87430
2026-01-01 11:05:32.39	211.94	4.99	-51.8	-54.3	3.6	0.00e+00	0	37	104	0	60	87602
2026-01-01 11:05:33.40	212.05	5.06	-51.8	-54.3	3.6	0.00e+00	0	37	104	0	60	88106
2026-01-01 11:05:34.41	212.17	5.12	-51.8	-54.2	3.6	0.00e+00	0	37	104	0	60	87014
2026-01-01 11:05:35.42	212.28	5.19	-51.8	-54.3	3.6	0.00e+00	0	37	104	0	60	87438
2026-01-01 11:05:36.43	212.40	5.26	-51.8	-54.2	3.6	0.00e+00	0	37	104	0	60	86999
2026-01-01 11:05:37.44	212.51	5.33	-51.8	-54.2	3.6	0.00e+00	0	37	104	0	60	87181
2026-01-01 11:05:38.45	212.63	5.40	-51.8	-54.3	3.6	0.00e+00	0	37	104	0	60	87347
2026-01-01 11:05:39.46	212.75	5.46	-51.8	-54.3	3.6	0.00e+00	0	37	104	0	60	87450
2026-01-01 11:05:40.47	212.87	5.53	-51.8	-54.3	3.6	0.00e+00	0	38	104	0	60	87237
2026-01-01 11:05:41.48	212.99	5.60	-51.8	-54.3	3.6	0.00e+00	0	37	104	0	60	87482
2026-01-01 11:05:42.49	213.11	5.67	-51.8	-54.2	3.6	0.00e+00	0	37	104	0	60	87197
2026-01-01 11:05:43.50	213.23	5.74	-51.8	-54.3	3.6	0.00e+00	0	38	104	0	60	87485
2026-01-01 11:05:44.51	213.35	5.81	-51.8	-54.2	3.6	0.00e+00	0	38	104	0	60	86947
2026-01-01 11:05:45.53	213.48	5.88	-51.8	-54.3	3.6	0.00e+00	0	38	104	0	60	87230
2026-01-01 11:05:46.53	213.60	5.95	-51.8	-54.3	3.6	0.00e+00	0	38	104	0	60	87325
2026-01-01 11:05:47.55	213.72	6.02	-51.8	-54.3	3.6	0.00e+00	0	38	104	0	60	87572
2026-01-01 11:05:48.56	213.85	6.09	-51.8	-54.3	3.6	0.00e+00	0	38	104	0	60	87323
2026-01-01 11:05:49.57	213.97	6.16	-51.8	-54.2	3.6	0.00e+00	0	38	104	0	60	86762
2026-01-01 11:05:50.58	214.10	6.23	-51.7	-54.2	3.6	0.00e+00	0	38	104	0	60	86568
2026-01-01 11:05:51.59	214.23	6.30	-51.8	-54.2	3.6	0.00e+00	0	38	104	0	60	87038
2026-01-01 11:05:52.60	214.35	6.37	-51.8	-54.3	3.6	0.00e+00	0	38	104	0	60	87347
2026-01-01 11:05:53.61	214.48	6.44	-51.8	-54.3	3.6	0.00e+00	0	38	104	0	60	87312
2026-01-01 11:05:54.62	214.61	6.51	-51.8	-54.3	3.6	0.00e+00	0	38	104	0	60	87527
2026-01-01 11:05:55.63	214.74	6.58	-51.8	-54.3	3.6	0.00e+00	0	38	104	0	60	87700
2026-01-01 11:05:56.64	214.87	6.65	-51.8	-54.3	3.6	0.00e+00	0	38	104	0	60	87237
2026-01-01 11:05:57.65	215.00	6.72	-51.8	-54.2	3.6	0.00e+00	0	38	104	0	60	87126
2026-01-01 11:05:58.66	215.13	6.80	-51.8	-54.3	3.6	0.00e+00	0	38	104	0	60	87245
2026-01-01 11:05:59.67	215.27	6.87	-51.8	-54.3	3.6	0.00e+00	0	38	104	0	60	87236
2026-01-01 11:06:00.68	215.40	6.94	-51.8	-54.2	3.6	0.00e+00	0	38	104	0	60	86706
2026-01-01 11:06:01.69	215.53	7.01	-51.8	-54.2	3.6	0.00e+00	0	38	104	0	60	87154
2026-01-01 11:06:02.71	215.67	7.08	-51.8	-54.2	3.6	0.00e+00	0	38	104	0	60	87043
2026-01-01 11:06:03.72	215.81	7.16	-51.8	-54.2	3.6	0.00e+00	0	38	104	0	60	86629
2026-01-01 11:06:04.73	215.94	7.23	-51.8	-54.2	3.6	0.00e+00	0	38	104	0	60	86834
2026-01-01 11:06:05.74	216.08	7.30	-51.8	-54.2	3.6	0.00e+00	0	38	104	0	60	87049
2026-01-01 11:06:06.75	216.22	7.37	-51.8	-54.2	3.5	0.00e+00	0	38	104	0	60	86618
2026-01-01 11:06:07.76	216.36	7.45	-51.8	-54.2	3.6	0.00e+00	0	38	104	0	60	86769
2026-01-01 11:06:08.77	216.50	7.52	-51.8	-54.2	3.6	0.00e+00	0	38	104	0	60	86611
2026-01-01 11:06:09.78	216.64	7.59	-51.8	-54.2	3.6	0.00e+00	0	38	104	0	60	87193
2026-01-01 11:06:10.79	216.78	7.66	-51.8	-54.3	3.6	0.00e+00	0	38	104	0	60	87268
2026-01-01 11:06:11.80	216.92	7.74	-51.8	-54.2	3.6	0.00e+00	0	38	104	0	60	87145
2026-01-01 11:06:12.81	217.07	7.81	-51.8	-54.2	3.6	0.00e+00	0	38	104	0	60	87010
2026-01-01 11:06:13.82	217.21	7.88	-51.8	-54.2	3.6	0.00e+00	0	38	104	0	60	87021
2026-01-01 11:06:14.83	217.36	7.96	-51.8	-54.2	3.6	0.00e+00	0	38	104	0	60	87080
2026-01-01 11:06:15.84	217.50	8.03	-51.8	-54.2	3.6	0.00e+00	0	38	104	0	60	86740
2026-01-01 11:06:16.86	217.65	8.11	-51.8	-54.3	3.6	0.00e+00	0	38	104	0	60	87263
2026-01-01 11:06:17.87	217.80	8.18	-51.8	-54.2	3.6	0.00e+00	0	38	104	0	60	86826
2026-01-01 11:06:18.88	217.95	8.26	-51.8	-54.2	3.6	0.00e+00	0	38	104	0	60	86970
2026-01-01 11:06:19.89	218.10	8.33	-51.8	-54.2	3.6	0.00e+00	0	38	104	0	60	87201
2026-01-01 11:06:20.90	218.25	8.40	-51.8	-54.2	3.6	0.00e+00	0	38	104	0	60	86977
2026-01-01 11:06:21.91	218.40	8.48	-51.8	-54.3	3.6	0.00e+00	0	38	104	0	60	87549
2026-01-01 11:06:22.92	218.55	8.55	-51.8	-54.2	3.6	0.00e+00	0	38	104	0	60	87137
2026-01-01 11:06:23.93	218.70	8.63	-51.8	-54.3	3.6	0.00e+00	0	38	104	0	60	87725
2026-01-01 11:06:24.94	218.86	8.70	-51.8	-54.3	3.6	0.00e+00	0	38	104	0	60	87241
2026-01-01 11:06:25.95	219.01	8.78	-51.8	-54.3	3.6	0.00e+00	0	38	104	0	60	87247
2026-01-01 11:06:26.96	219.17	8.86	-51.8	-54.2	3.6	0.00e+00	0	38	104	0	60	86870
2026-01-01 11:06:27.97	219.33	8.93	-51.8	-54.2	3.6	0.00e+00	0	38	104	0	60	86949
2026-01-01 11:06:28.98	219.48	9.01	-51.8	-54.2	3.6	0.00e+00	0	38	104	0	60	86774
2026-01-01 11:06:30.00	219.64	9.08	-51.8	-54.3	3.6	0.00e+00	0	38	104	0	60	87668
2026-01-01 11:06:31.01	219.80	9.16	-51.8	-54.3	3.6	0.00e+00	0	38	104	0	60	87233
2026-01-01 11:06:32.02	219.96	9.24	-51.8	-54.3	3.6	0.00e+00	0	38	104	0	60	87394
2026-01-01 11:06:33.03	220.13	9.31	-51.8	-54.2	3.6	0.00e+00	0	38	104	0	60	86975
2026-01-01 11:06:34.04	220.29	9.39	-51.8	-54.3	3.6	0.00e+00	0	38	104	0	60	87436
2026-01-01 11:06:35.05	220.45	9.46	-51.8	-54.2	3.6	0.00e+00	0	38	104	0	60	87051
2026-01-01 11:06:36.06	220.62	9.54	-51.8	-54.2	3.6	0.00e+00	0	38	104	0	60	87101
2026-01-01 11:06:37.07	220.78	9.62	-51.8	-54.2	3.6	0.00e+00	0	38	104	0	60	86890
2026-01-01 11:06:38.08	220.95	9.69	-51.8	-54.2	3.6	0.00e+00	0	38	104	0	60	86833
2026-01-01 11:06:39.09	221.12	9.77	-51.7	-54.2	3.6	0.00e+00	0	38	104	0	60	86426
2026-01-01 11:06:40.10	221.29	9.85	-51.8	-54.2	3.6	0.00e+00	0	38	104	0	60	87035
2026-01-01 11:06:41.11	221.46	9.93	-51.8	-54.2	3.6	0.00e+00	0	38	104	0	60	86923
2026-01-01 11:06:42.12	221.63	10.00	-51.8	-54.2	3.6	0.00e+00	0	38	104	0	60	86665
2026-01-01 11:06:43.13	221.80	10.08	-51.8	-54.2	3.6	0.00e+00	0	38	104	0	60	86706
2026-01-01 11:06:44.14	221.97	10.16	-51.8	-54.2	3.6	0.00e+00	0	38	104	0	60	86882
2026-01-01 11:06:45.15	222.15	10.24	-51.8	-54.2	3.6	0.00e+00	0	38	104	0	60	87002
2026-01-01 11:06:46.16	222.32	10.31	-51.8	-54.3	3.6	0.00e+00	0	38	104	0	60	87350
2026-01-01 11:06:47.18	222.50	10.39	-51.8	-54.3	3.6	0.00e+00	0	38	104	0	60	88132
2026-01-01 11:06:48.19	222.68	10.47	-51.8	-54.3	3.6	0.00e+00	0	38	104	0	60	87445
2026-01-01 11:06:49.20	222.86	10.55	-51.8	-54.3	3.6	0.00e+00	0	38	104	0	60	87389
2026-01-01 11:06:50.21	223.04	10.63	-51.8	-54.3	3.6	0.00e+00	0	38	104	0	60	87864
2026-01-01 11:06:51.22	223.22	10.71	-51.8	-54.3	3.6	0.00e+00	0	38	104	0	60	88097
2026-01-01 11:06:52.23	223.40	10.78	-51.8	-54.3	3.6	0.00e+00	0	38	104	0	60	87657
2026-01-01 11:06:53.24	223.58	10.86	-51.8	-54.2	3.6	0.00e+00	0	38	104	0	60	86836
2026-01-01 11:06:54.25	223.77	10.94	-51.8	-54.2	3.6	0.00e+00	0	38	104	0	60	87182
2026-01-01 11:06:55.26	223.95	11.02	-51.8	-54.2	3.5	0.00e+00	0	38	104	0	60	87190
2026-01-01 11:06:56.27	224.14	11.10	-51.8	-54.3	3.6	0.00e+00	0	38	104	0	60	87306
2026-01-01 11:06:57.28	224.33	11.18	-51.8	-54.2	3.6	0.00e+00	0	38	104	0	60	87107
2026-01-01 11:06:58.29	224.52	11.26	-51.8	-54.3	3.6	0.00e+00	0	38	104	0	60	87370
2026-01-01 11:06:59.30	224.71	11.34	-51.8	-54.2	3.6	0.00e+00	0	38	104	0	60	86573
2026-01-01 11:07:00.31	224.90	11.41	-51.8	-54.3	3.6	0.00e+00	0	38	104	0	60	87331
2026-01-01 11:07:01.33	225.09	11.49	-51.7	-54.2	3.6	0.00e+00	0	38	104	0	60	86295
2026-01-01 11:07:02.34	225.29	11.57	-51.8	-54.2	3.6	0.00e+00	0	38	104	0	60	87163
2026-01-01 11:07:03.35	225.48	11.65	-51.8	-54.2	3.6	0.00e+00	0	38	104	0	60	86783
2026-01-01 11:07:04.36	225.68	11.73	-51.7	-54.2	3.6	0.00e+00	0	38	104	0	60	86651
2026-01-01 11:07:05.37	225.88	11.81	-51.8	-54.2	3.6	0.00e+00	0	38	104	0	60	87203
2026-01-01 11:07:06.38	226.08	11.89	-51.7	-54.2	3.6	0.00e+00	0	38	104	0	60	86496
2026-01-01 11:07:07.39	226.28	11.97	-51.7	-54.2	3.6	0.00e+00	0	38	104	0	60	86365
2026-01-01 11:07:08.40	226.48	12.05	-51.8	-54.2	3.6	0.00e+00	0	38	104	0	60	86764
2026-01-01 11:07:09.41	226.68	12.13	-51.8	-54.2	3.5	0.00e+00	0	38	104	0	60	86497
2026-01-01 11:07:10.42	226.88	12.21	-51.8	-54.2	3.6	0.00e+00	0	38	104	0	60	86490
2026-01-01 11:07:11.43	227.09	12.29	-51.8	-54.2	3.5	0.00e+00	0	38	104	0	60	87107
2026-01-01 11:07:12.44	227.29	12.37	-51.8	-54.2	3.6	0.00e+00	0	38	104	0	60	86778
2026-01-01 11:07:13.45	227.50	12.45	-51.8	-54.3	3.6	0.00e+00	0	38	104	0	60	87421
2026-01-01 11:07:14.46	227.71	12.53	-51.8	-54.2	3.5	0.00e+00	0	38	104	0	60	86777
2026-01-01 11:07:15.47	227.92	12.61	-51.8	-54.2	3.6	0.00e+00	0	38	104	0	60	86881
2026-01-01 11:07:16.48	228.13	12.69	-51.8	-54.3	3.6	0.00e+00	0	38	104	0	60	87227
2026-01-01 11:07:17.50	228.35	12.77	-51.8	-54.3	3.6	0.00e+00	0	38	104	0	60	87436
2026-01-01 11:07:18.51	228.56	12.85	-51.8	-54.3	3.6	0.00e+00	0	38	104	0	60	87568
2026-01-01 11:07:19.52	228.78	12.93	-51.8	-54.2	3.6	0.00e+00	0	38	104	0	60	87119
2026-01-01 11:07:20.53	229.00	13.01	-51.8	-54.2	3.6	0.00e+00	0	38	104	0	60	86760
2026-01-01 11:07:21.54	229.21	13.09	-51.8	-54.3	3.6	0.00e+00	0	38	104	0	60	87746
2026-01-01 11:07:22.55	229.43	13.17	-51.8	-54.3	3.6	0.00e+00	0	38	104	0	60	87336
2026-01-01 11:07:23.56	229.66	13.25	-51.8	-54.3	3.6	0.00e+00	0	38	104	0	60	87656
2026-01-01 11:07:24.57	229.88	13.33	-51.8	-54.2	3.6	0.00e+00	0	38	104	0	60	87170
2026-01-01 11:07:25.58	230.10	13.41	-51.8	-54.2	3.6	0.00e+00	0	38	104	0	60	87072
2026-01-01 11:07:26.59	230.33	13.49	-51.8	-54.3	3.6	0.00e+00	0	38	104	0	60	87253
2026-01-01 11:07:27.60	230.55	13.57	-51.8	-54.3	3.6	0.00e+00	0	38	104	0	60	87358
2026-01-01 11:07:28.61	230.78	13.65	-51.8	-54.3	3.6	0.00e+00	0	38	104	0	60	87613
2026-01-01 11:07:29.62	231.01	13.73	-51.8	-54.3	3.6	0.00e+00	0	38	104	0	60	87318
2026-01-01 11:07:30.63	231.24	13.81	-51.8	-54.3	3.5	0.00e+00	0	38	104	0	60	87332
2026-01-01 11:07:31.64	231.48	13.89	-51.8	-54.2	3.5	0.00e+00	0	38	104	0	60	86785
2026-01-01 11:07:32.66	231.71	13.97	-51.8	-54.2	3.6	0.00e+00	0	38	104	0	60	86295
2026-01-01 11:07:33.67	231.95	14.05	-51.8	-54.2	3.6	0.00e+00	0	38	104	0	60	86501
2026-01-01 11:07:34.68	232.18	14.13	-51.8	-54.2	3.6	0.00e+00	0	38	104	0	60	86926
2026-01-01 11:07:35.69	232.42	14.21	-51.7	-54.2	3.6	0.00e+00	0	38	104	0	60	86400
2026-01-01 11:07:36.70	232.66	14.29	-51.7	-54.2	3.6	0.00e+00	0	38	104	0	60	86580
2026-01-01 11:07:37.71	232.90	14.37	-51.7	-54.2	3.6	0.00e+00	0	38	104	0	60	86752
2026-01-01 11:07:38.72	233.15	14.45	-51.7	-54.2	3.6	0.00e+00	0	38	104	0	60	86394
2026-01-01 11:07:39.73	233.39	14.53	-51.7	-54.2	3.5	0.00e+00	0	38	104	0	60	86747
2026-01-01 11:07:40.74	233.64	14.61	-51.8	-54.2	3.6	0.00e+00	0	38	104	0	60	86624
2026-01-01 11:07:41.75	233.88	14.69	-51.7	-54.2	3.6	0.00e+00	0	38	104	0	60	86912
2026-01-01 11:07:42.76	234.13	14.77	-51.7	-54.2	3.6	0.00e+00	0	38	104	0	60	86809
2026-01-01 11:07:43.77	234.38	14.85	-51.8	-54.2	3.6	0.00e+00	0	38	104	0	60	86738
2026-01-01 11:07:44.78	234.63	14.92	-51.7	-54.2	3.6	0.00e+00	0	38	104	0	60	86417
2026-01-01 11:07:45.79	234.89	15.00	-51.8	-54.2	3.6	0.00e+00	0	38	104	0	60	87125
2026-01-01 11:07:46.80	235.14	15.08	-51.7	-54.1	3.6	0.00e+00	0	38	104	0	60	86206
2026-01-01 11:07:47.81	235.40	15.16	-51.7	-54.2	3.6	0.00e+00	0	38	104	0	60	86555
2026-01-01 11:07:48.82	235.66	15.24	-51.8	-54.2	3.6	0.00e+00	0	38	104	0	60	86875
2026-01-01 11:07:49.83	235.91	15.32	-51.7	-54.2	3.6	0.00e+00	0	38	104	0	60	86758
2026-01-01 11:07:50.84	236.18	15.39	-51.7	-54.2	3.6	0.00e+00	0	38	104	0	60	86578
2026-01-01 11:07:51.86	236.44	15.47	-51.8	-54.2	3.6	0.00e+00	0	38	104	0	60	86530
2026-01-01 11:07:52.87	236.70	15.55	-51.7	-54.2	3.6	0.00e+00	0	38	104	0	60	86990
2026-01-01 11:07:53.88	236.97	15.63	-51.8	-54.2	3.6	0.00e+00	0	38	104	0	60	86831
2026-01-01 11:07:54.89	237.24	15.70	-51.8	-54.2	3.6	0.00e+00	0	38	104	0	60	87102
2026-01-01 11:07:55.90	237.51	15.78	-51.8	-54.2	3.6	0.00e+00	0	38	104	0	60	86667
2026-01-01 11:07:56.91	237.78	15.86	-51.8	-54.2	3.6	0.00e+00	0	38	104	0	60	86638
2026-01-01 11:07:57.92	238.05	15.93	-51.8	-54.3	3.6	0.00e+00	0	38	104	0	60	87433
2026-01-01 11:07:58.93	238.32	16.01	-51.8	-54.2	3.6	0.00e+00	0	38	104	0	60	86982
2026-01-01 11:07:59.94	238.60	16.08	-51.8	-54.2	3.6	0.00e+00	0	38	104	0	60	87129
2026-01-01 11:08:00.96	238.88	16.16	-51.8	-54.2	3.6	0.00e+00	0	38	104	0	60	87131
2026-01-01 11:08:01.96	239.15	16.23	-51.8	-54.2	3.6	0.00e+00	0	38	104	0	60	87039
2026-01-01 11:08:02.97	239.43	16.31	-51.8	-54.2	3.6	0.00e+00	0	38	104	0	60	86855
2026-01-01 11:08:03.98	239.71	16.38	-51.8	-54.3	3.6	0.00e+00	0	38	104	0	60	87530
2026-01-01 11:08:05.00	240.00	16.46	-51.8	-54.2	3.6	0.00e+00	0	38	104	0	60	87207
2026-01-01 11:08:06.01	240.28	16.53	-51.8	-54.2	3.6	0.00e+00	0	38	104	0	60	87003
2026-01-01 11:08:07.02	240.57	16.61	-51.8	-54.3	3.6	0.00e+00	0	38	104	0	60	87268
2026-01-01 11:08:08.03	240.86	16.68	-51.8	-54.2	3.6	0.00e+00	0	38	104	0	60	86969
2026-01-01 11:08:09.04	241.14	16.75	-51.8	-54.3	3.6	0.00e+00	0	38	104	0	60	87522
2026-01-01 11:08:10.05	241.44	16.83	-51.8	-54.3	3.6	0.00e+00	0	38	104	0	60	87416
2026-01-01 11:08:11.06	241.73	16.90	-51.8	-54.3	3.6	0.00e+00	0	38	104	0	60	87529
2026-01-01 11:08:12.07	242.02	16.97	-51.8	-54.3	3.6	0.00e+00	0	38	104	0	60	87277
2026-01-01 11:08:13.08	242.32	17.04	-51.8	-54.2	3.6	0.00e+00	0	38	104	0	60	86692
2026-01-01 11:08:14.10	242.62	17.11	-51.8	-54.2	3.6	0.00e+00	0	38	104	0	60	87119
2026-01-01 11:08:15.11	242.92	17.18	-51.8	-54.2	3.6	0.00e+00	0	38	104	0	60	86470
2026-01-01 11:08:16.12	243.22	17.25	-51.8	-54.2	3.6	0.00e+00	0	38	104	0	60	86625
2026-01-01 11:08:17.13	243.52	17.32	-51.8	-54.3	3.6	0.00e+00	0	38	104	0	60	87257
2026-01-01 11:08:18.14	243.82	17.39	-51.8	-54.3	3.6	0.00e+00	0	38	104	0	60	87515
2026-01-01 11:08:19.15	244.13	17.46	-51.8	-54.2	3.6	0.00e+00	0	38	104	0	60	87181
2026-01-01 11:08:20.16	244.43	17.53	-51.8	-54.2	3.6	0.00e+00	0	38	104	0	60	86938
2026-01-01 11:08:21.17	244.74	17.60	-51.8	-54.3	3.6	0.00e+00	0	38	104	0	60	87367
2026-01-01 11:08:22.18	245.05	17.67	-51.8	-54.2	3.6	0.00e+00	0	38	104	0	60	86864
2026-01-01 11:08:23.19	245.36	17.73	-51.8	-54.2	3.5	0.00e+00	0	38	104	0	60	86911
2026-01-01 11:08:24.21	245.68	17.80	-51.8	-54.2	3.6	0.00e+00	0	38	104	0	60	87169
2026-01-01 11:08:25.21	245.99	17.86	-51.8	-54.3	3.6	0.00e+00	0	38	104	0	60	87629
2026-01-01 11:08:26.23	246.31	17.93	-51.8	-54.3	3.6	0.00e+00	0	38	104	0	60	87264
2026-01-01 11:08:27.24	246.62	18.00	-51.8	-54.3	3.6	0.00e+00	0	38	104	0	60	87238
2026-01-01 11:08:28.25	246.94	18.06	-51.8	-54.2	3.6	0.00e+00	0	38	104	0	60	87153
2026-01-01 11:08:29.26	247.26	18.12	-51.8	-54.2	3.6	0.00e+00	0	38	104	0	60	86844
2026-01-01 11:08:30.27	247.59	18.19	-51.8	-54.3	3.6	0.00e+00	0	38	104	0	60	87589
2026-01-01 11:08:31.28	247.91	18.25	-51.8	-54.3	3.6	0.00e+00	0	38	104	0	60	87487
2026-01-01 11:08:32.29	248.23	18.31	-51.8	-54.2	3.6	0.00e+00	0	38	104	0	60	87097
2026-01-01 11:08:33.30	248.56	18.37	-51.8	-54.2	3.6	0.00e+00	0	38	104	0	60	86937
2026-01-01 11:08:34.31	248.89	18.43	-51.8	-54.3	3.6	0.00e+00	0	38	104	0	60	87363
2026-01-01 11:08:35.33	249.22	18.49	-51.8	-54.2	3.6	0.00e+00	0	38	104	0	60	87078
2026-01-01 11:08:36.34	249.55	18.55	-51.8	-54.2	3.6	0.00e+00	0	38	104	0	60	86974
2026-01-01 11:08:37.35	249.88	18.61	-51.8	-54.3	3.6	0.00e+00	0	38	104	0	60	87552
2026-01-01 11:08:38.36	250.22	18.67	-51.8	-54.2	3.6	0.00e+00	0	38	104	0	60	87039
2026-01-01 11:08:39.37	250.55	18.73	-51.8	-54.2	3.6	0.00e+00	0	38	104	0	60	86874
2026-01-01 11:08:40.38	250.89	18.78	-51.9	-54.3	3.6	0.00e+00	0	38	104	0	60	87657
2026-01-01 11:08:41.39	251.22	18.84	-51.8	-54.3	3.6	0.00e+00	0	38	104	0	60	87780
2026-01-01 11:08:42.40	251.56	18.89	-51.8	-54.3	3.6	0.00e+00	0	38	104	0	60	87298
2026-01-01 11:08:43.41	251.90	18.95	-51.8	-54.2	3.6	0.00e+00	0	38	104	0	60	87071
2026-01-01 11:08:44.43	252.25	19.00	-51.8	-54.3	3.6	0.00e+00	0	38	104	0	60	87561
2026-01-01 11:08:45.44	252.59	19.06	-51.8	-54.2	3.6	0.00e+00	0	38	104	0	60	86954
2026-01-01 11:08:46.45	252.94	19.11	-51.8	-54.2	3.5	0.00e+00	0	38	104	0	60	87150
2026-01-01 11:08:47.46	253.28	19.16	-51.8	-54.2	3.6	0.00e+00	0	38	104	0	60	86964
2026-01-01 11:08:48.47	253.63	19.21	-51.8	-54.2	3.6	0.00e+00	0	38	104	0	60	86899
2026-01-01 11:08:49.48	253.98	19.26	-51.8	-54.2	3.5	0.00e+00	0	38	104	0	60	87151
2026-01-01 11:08:50.49	254.33	19.31	-51.8	-54.2	3.6	0.00e+00	0	38	104	0	60	87105
2026-01-01 11:08:51.50	254.68	19.36	-51.8	-54.3	3.6	0.00e+00	0	38	104	0	60	87355
2026-01-01 11:08:52.51	255.03	19.40	-51.8	-54.3	3.5	0.00e+00	0	38	104	0	60	87707
2026-01-01 11:08:53.52	255.38	19.45	-51.8	-54.3	3.6	0.00e+00	0	38	104	0	60	87445
2026-01-01 11:08:54.53	255.74	19.49	-51.8	-54.3	3.6	0.00e+00	0	38	104	0	60	87441
2026-01-01 11:08:55.55	256.10	19.54	-51.8	-54.3	3.6	0.00e+00	0	38	104	0	60	87362
2026-01-01 11:08:56.56	256.45	19.58	-51.8	-54.3	3.6	0.00e+00	0	38	104	0	60	87699
2026-01-01 11:08:57.57	256.81	19.62	-51.8	-54.3	3.6	0.00e+00	0	38	104	0	60	87340
2026-01-01 11:08:58.58	257.17	19.67	-51.8	-54.2	3.6	0.00e+00	0	38	104	0	60	87101
2026-01-01 11:08:59.59	257.53	19.71	-51.8	-54.2	3.6	0.00e+00	0	38	104	0	60	86535
2026-01-01 11:09:00.60	257.89	19.75	-51.8	-54.2	3.6	0.00e+00	0	38	104	0	60	86765
2026-01-01 11:09:01.61	258.25	19.79	-51.8	-54.2	3.6	0.00e+00	0	38	104	0	60	87059
2026-01-01 11:09:02.62	258.62	19.82	-51.8	-54.3	3.6	0.00e+00	0	38	104	0	60	87265
2026-01-01 11:09:03.63	258.98	19.86	-51.8	-54.2	3.5	0.00e+00	0	38	104	0	60	86952
2026-01-01 11:09:04.64	259.34	19.90	-51.8	-54.2	3.6	0.00e+00	0	38	104	0	60	86875
2026-01-01 11:09:05.65	259.71	19.93	-51.7	-54.2	3.6	0.00e+00	0	38	104	0	60	86908
2026-01-01 11:09:06.67	260.08	19.97	-51.8	-54.2	3.6	0.00e+00	0	38	104	0	60	87044
2026-01-01 11:09:07.68	260.45	20.00	-51.8	-54.2	3.6	0.00e+00	0	38	104	0	60	87123
2026-01-01 11:09:08.69	260.82	20.03	-51.8	-54.2	3.6	0.00e+00	0	38	104	0	60	86800
2026-01-01 11:09:09.70	261.19	20.06	-51.8	-54.2	3.6	0.00e+00	0	38	104	0	60	86992
2026-01-01 11:09:10.71	261.56	20.09	-51.8	-54.3	3.6	0.00e+00	0	38	104	0	60	87980
2026-01-01 11:09:11.72	261.93	20.12	-51.9	-54.3	3.6	0.00e+00	0	38	104	0	60	88140
2026-01-01 11:09:12.73	262.30	20.15	-51.9	-54.3	3.6	0.00e+00	0	38	104	0	60	88098
2026-01-01 11:09:13.75	262.67	20.18	-51.9	-54.3	3.6	0.00e+00	0	38	104	0	60	87556
2026-01-01 11:09:14.76	263.05	20.20	-51.8	-54.3	3.6	0.00e+00	0	38	104	0	60	87890
2026-01-01 11:09:15.77	263.42	20.23	-51.8	-54.3	3.6	0.00e+00	0	38	104	0	60	87457
2026-01-01 11:09:16.78	263.80	20.25	-51.8	-54.3	3.6	0.00e+00	0	38	104	0	60	87356
2026-01-01 11:09:17.79	264.17	20.27	-51.8	-54.3	3.6	0.00e+00	0	38	104	0	60	87694
2026-01-01 11:09:18.80	264.55	20.29	-51.9	-54.3	3.6	0.00e+00	0	38	104	0	60	88108
2026-01-01 11:09:19.82	264.93	20.31	-51.9	-54.3	3.6	0.00e+00	0	38	104	0	60	87692
2026-01-01 11:09:20.83	265.30	20.33	-51.8	-54.3	3.6	0.00e+00	0	38	104	0	60	87584
2026-01-01 11:09:21.84	265.68	20.35	-51.8	-54.3	3.6	0.00e+00	0	38	104	0	60	87388
2026-01-01 11:09:22.85	266.06	20.37	-51.8	-54.2	3.6	0.00e+00	0	38	104	0	60	86933
2026-01-01 11:09:23.86	266.44	20.38	-51.8	-54.3	3.6	0.00e+00	0	38	104	0	60	87516
2026-01-01 11:09:24.87	266.81	20.40	-51.8	-54.3	3.6	0.00e+00	0	38	104	0	60	87247
2026-01-01 11:09:25.88	267.19	20.41	-51.8	-54.3	3.6	0.00e+00	0	38	104	0	60	87537
2026-01-01 11:09:26.89	267.57	20.42	-51.8	-54.3	3.6	0.00e+00	0	38	104	0	60	87521
2026-01-01 11:09:27.91	267.96	20.44	-51.9	-54.3	3.6	0.00e+00	0	38	104	0	60	88144
2026-01-01 11:09:28.92	268.33	20.45	-51.9	-54.2	3.6	0.00e+00	0	38	104	0	60	87115
2026-01-01 11:09:29.93	268.71	20.45	-51.8	-54.3	3.6	0.00e+00	0	38	104	0	60	87596
2026-01-01 11:09:30.94	269.10	20.46	-51.8	-54.2	3.6	0.00e+00	0	38	104	0	60	87204
2026-01-01 11:09:31.95	269.48	20.47	-51.8	-54.3	3.6	0.00e+00	0	38	104	0	60	87408
2026-01-01 11:09:32.96	269.86	20.48	-51.8	-54.3	3.6	0.00e+00	0	38	104	0	60	87214
2026-01-01 11:09:33.97	270.24	20.48	-51.8	-54.3	3.6	0.00e+00	0	38	104	0	60	87471
2026-01-01 11:09:34.98	270.62	20.48	-51.8	-54.2	3.6	0.00e+00	0	38	104	0	60	86919
2026-01-01 11:09:35.99	271.00	20.48	-51.8	-54.2	3.6	0.00e+00	0	38	104	0	60	87049
2026-01-01 11:09:37.00	271.38	20.49	-51.8	-54.2	3.6	0.00e+00	0	38	104	0	60	87181
2026-01-01 11:09:38.02	271.76	20.49	-51.8	-54.3	3.6	0.00e+00	0	38	104	0	60	87233
2026-01-01 11:09:39.03	272.14	20.48	-51.8	-54.2	3.6	0.00e+00	0	38	104	0	60	87005
2026-01-01 11:09:40.04	272.53	20.48	-51.8	-54.3	3.6	0.00e+00	0	38	104	0	60	87885
2026-01-01 11:09:41.05	272.91	20.48	-51.8	-54.2	3.6	0.00e+00	0	38	104	0	60	87131
2026-01-01 11:09:42.06	273.29	20.47	-51.8	-54.2	3.6	0.00e+00	0	38	104	0	60	86846
2026-01-01 11:09:43.07	273.67	20.47	-51.8	-54.3	3.6	0.00e+00	0	38	104	0	60	87243
2026-01-01 11:09:44.08	274.05	20.46	-51.8	-54.3	3.6	0.00e+00	0	38	104	0	60	87838
2026-01-01 11:09:45.09	274.43	20.45	-51.8	-54.3	3.6	0.00e+00	0	38	104	0	60	87562
2026-01-01 11:09:46.10	274.81	20.44	-51.8	-54.3	3.6	0.00e+00	0	38	104	0	60	87220
2026-01-01 11:09:47.11	275.19	20.43	-51.8	-54.3	3.6	0.00e+00	0	38	104	0	60	87265
2026-01-01 11:09:48.12	275.57	20.42	-51.8	-54.2	3.5	0.00e+00	0	38	104	0	60	86762
2026-01-01 11:09:49.14	275.95	20.41	-51.8	-54.3	3.6	0.00e+00	0	38	104	0	60	87313
2026-01-01 11:09:50.15	276.33	20.39	-51.8	-54.2	3.6	0.00e+00	0	38	104	0	60	87098
2026-01-01 11:09:51.16	276.70	20.38	-51.8	-54.2	3.6	0.00e+00	0	38	104	0	60	86881
2026-01-01 11:09:52.17	277.08	20.36	-51.8	-54.3	3.6	0.00e+00	0	38	104	0	60	87749
2026-01-01 11:09:53.18	277.46	20.34	-51.8	-54.3	3.6	0.00e+00	0	38	104	0	60	87585
2026-01-01 11:09:54.19	277.84	20.33	-51.8	-54.3	3.6	0.00e+00	0	38	104	0	60	87374
2026-01-01 11:09:55.20	278.21	20.31	-51.8	-54.2	3.6	0.00e+00	0	38	104	0	60	86900
2026-01-01 11:09:56.21	278.59	20.29	-51.8	-54.3	3.6	0.00e+00	0	38	104	0	60	87659
2026-01-01 11:09:57.22	278.96	20.26	-51.8	-54.3	3.6	0.00e+00	0	38	104	0	60	87303
2026-01-01 11:09:58.23	279.34	20.24	-51.8	-54.2	3.6	0.00e+00	0	38	104	0	60	86814
2026-01-01 11:09:59.25	279.71	20.22	-51.8	-54.2	3.6	0.00e+00	0	38	104	0	60	87194
2026-01-01 11:10:00.26	280.09	20.19	-51.8	-54.3	3.6	0.00e+00	0	38	104	0	60	87337
2026-01-01 11:10:01.27	280.46	20.17	-51.8	-54.2	3.6	0.00e+00	0	38	104	0	60	87053
2026-01-01 11:10:02.28	280.83	20.14	-51.8	-54.3	3.6	0.00e+00	0	39	104	0	60	87839
2026-01-01 11:10:03.29	281.20	20.11	-51.9	-54.3	3.6	0.00e+00	0	38	104	0	60	87945
2026-01-01 11:10:04.30	281.57	20.08	-51.8	-54.3	3.6	0.00e+00	0	38	104	0	60	87646
2026-01-01 11:10:05.31	281.94	20.05	-51.8	-54.2	3.6	0.00e+00	0	38	104	0	60	87136
2026-01-01 11:10:06.32	282.31	20.02	-51.8	-54.2	3.6	0.00e+00	0	38	104	0	60	86931
2026-01-01 11:10:07.34	282.68	19.99	-51.8	-54.3	3.6	0.00e+00	0	38	104	0	60	87590
2026-01-01 11:10:08.34	283.04	19.95	-51.8	-54.3	3.6	0.00e+00	0	38	104	0	60	87321
2026-01-01 11:10:09.36	283.41	19.92	-51.8	-54.2	3.6	0.00e+00	0	38	104	0	60	87061
2026-01-01 11:10:10.37	283.78	19.88	-51.8	-54.2	3.6	0.00e+00	0	38	104	0	60	87194
2026-01-01 11:10:11.38	284.14	19.85	-51.8	-54.2	3.6	0.00e+00	0	38	104	0	60	86896
2026-01-01 11:10:12.39	284.50	19.81	-51.8	-54.2	3.6	0.00e+00	0	38	104	0	60	87006
2026-01-01 11:10:13.40	284.87	19.77	-51.8	-54.2	3.6	0.00e+00	0	38	104	0	60	86805
2026-01-01 11:10:14.41	285.23	19.73	-51.8	-54.3	3.6	0.00e+00	0	38	104	0	60	87217
2026-01-01 11:10:15.42	285.59	19.69	-51.8	-54.2	3.6	0.00e+00	0	38	104	0	60	86892
2026-01-01 11:10:16.43	285.94	19.65	-51.8	-54.3	3.6	0.00e+00	0	38	104	0	60	87424
2026-01-01 11:10:17.44	286.30	19.61	-51.8	-54.2	3.6	0.00e+00	0	39	104	0	60	87160
2026-01-01 11:10:18.45	286.66	19.57	-51.8	-54.2	3.6	0.00e+00	0	38	104	0	60	86952
2026-01-01 11:10:19.47	287.02	19.52	-51.8	-54.2	3.6	0.00e+00	0	38	104	0	60	87143
2026-01-01 11:10:20.48	287.37	19.48	-51.8	-54.2	3.6	0.00e+00	0	38	104	0	60	86873
2026-01-01 11:10:21.49	287.72	19.43	-51.8	-54.2	3.6	0.00e+00	0	38	104	0	60	87092
2026-01-01 11:10:22.50	288.08	19.39	-51.8	-54.2	3.6	0.00e+00	0	38	104	0	60	87005
2026-01-01 11:10:23.51	288.43	19.34	-51.8	-54.3	3.6	0.00e+00	0	38	104	0	60	87384
2026-01-01 11:10:24.52	288.78	19.29	-51.8	-54.2	3.6	0.00e+00	0	38	104	0	60	86966
2026-01-01 11:10:25.53	289.12	19.24	-51.8	-54.2	3.6	0.00e+00	0	38	104	0	60	87065
2026-01-01 11:10:26.54	289.47	19.19	-51.8	-54.2	3.6	0.00e+00	0	38	104	0	60	87006
2026-01-01 11:10:27.55	289.82	19.14	-51.8	-54.2	3.6	0.00e+00	0	38	104	0	60	86611
2026-01-01 11:10:28.56	290.16	19.09	-51.7	-54.2	3.6	0.00e+00	0	38	104	0	60	86351
2026-01-01 11:10:29.57	290.50	19.04	-51.7	-54.2	3.6	0.00e+00	0	38	104	0	60	86723
2026-01-01 11:10:30.58	290.84	18.99	-51.8	-54.2	3.6	0.00e+00	0	38	104	0	60	86779
2026-01-01 11:10:31.59	291.19	18.93	-51.7	-54.2	3.6	0.00e+00	0	38	104	0	60	86778
2026-01-01 11:10:32.60	291.52	18.88	-51.7	-54.2	3.6	0.00e+00	0	38	104	0	60	86699
2026-01-01 11:10:33.61	291.86	18.82	-51.7	-54.2	3.6	0.00e+00	0	38	104	0	60	86596
2026-01-01 11:10:34.62	292.20	18.77	-51.8	-54.2	3.6	0.00e+00	0	38	104	0	60	86767
2026-01-01 11:10:35.63	292.53	18.71	-51.8	-54.2	3.6	0.00e+00	0	38	104	0	60	86595
2026-01-01 11:10:36.64	292.87	18.65	-51.8	-54.2	3.6	0.00e+00	0	38	104	0	60	86693
2026-01-01 11:10:37.65	293.20	18.60	-51.8	-54.3	3.6	0.00e+00	0	38	104	0	60	87459
2026-01-01 11:10:38.66	293.53	18.54	-51.8	-54.2	3.6	0.00e+00	0	38	104	0	60	87060
2026-01-01 11:10:39.68	293.86	18.48	-51.8	-54.3	3.6	0.00e+00	0	38	104	0	60	87464
2026-01-01 11:10:40.68	294.18	18.42	-51.8	-54.3	3.6	0.00e+00	0	38	104	0	60	87325
2026-01-01 11:10:41.70	294.51	18.36	-51.8	-54.3	3.6	0.00e+00	0	39	104	0	60	87262
2026-01-01 11:10:42.71	294.84	18.30	-51.8	-54.2	3.6	0.00e+00	0	38	104	0	60	86906
2026-01-01 11:10:43.72	295.16	18.23	-51.8	-54.3	3.6	0.00e+00	0	38	104	0	60	87404
2026-01-01 11:10:44.73	295.48	18.17	-51.8	-54.2	3.5	0.00e+00	0	38	104	0	60	86929
2026-01-01 11:10:45.74	295.80	18.11	-51.8	-54.3	3.6	0.00e+00	0	39	104	0	60	87305
2026-01-01 11:10:46.75	296.12	18.05	-51.8	-54.2	3.6	0.00e+00	0	38	104	0	60	86545
2026-01-01 11:10:47.76	296.44	17.98	-51.8	-54.2	3.6	0.00e+00	0	38	104	0	60	86833
2026-01-01 11:10:48.77	296.75	17.92	-51.8	-54.2	3.6	0.00e+00	0	38	104	0	60	87169
2026-01-01 11:10:49.78	297.07	17.85	-51.8	-54.2	3.6	0.00e+00	0	38	104	0	60	87206
2026-01-01 11:10:50.79	297.38	17.79	-51.8	-54.3	3.6	0.00e+00	0	38	104	0	60	87498
2026-01-01 11:10:51.80	297.69	17.72	-51.9	-54.3	3.6	0.00e+00	0	38	104	0	60	87967
2026-01-01 11:10:52.81	298.00	17.65	-51.8	-54.3	3.6	0.00e+00	0	38	104	0	60	87332
2026-01-01 11:10:53.82	298.31	17.59	-51.8	-54.3	3.6	0.00e+00	0	38	104	0	60	87259
2026-01-01 11:10:54.83	298.62	17.52	-51.8	-54.2	3.6	0.00e+00	0	38	104	0	60	87003
2026-01-01 11:10:55.84	298.92	17.45	-51.8	-54.2	3.6	0.00e+00	0	38	104	0	60	86985
2026-01-01 11:10:56.86	299.23	17.38	-51.8	-54.2	3.6	0.00e+00	0	38	104	0	60	87196
2026-01-01 11:10:57.87	299.53	17.31	-51.8	-54.3	3.6	0.00e+00	0	38	104	0	60	87847
2026-01-01 11:10:58.88	299.83	17.24	-51.8	-54.2	3.6	0.00e+00	0	38	104	0	60	86723
2026-01-01 11:10:59.89	300.13	17.17	-51.8	-54.2	3.6	0.00e+00	0	38	104	0	60	87142
2026-01-01 11:11:00.90	300.42	17.10	-51.8	-54.3	3.6	0.00e+00	0	39	104	0	60	87409
2026-01-01 11:11:01.91	300.72	17.03	-51.8	-54.3	3.5	0.00e+00	0	38	104	0	60	87946
2026-01-01 11:11:02.92	301.01	16.96	-51.9	-54.3	3.6	0.00e+00	0	39	104	0	60	88093
2026-01-01 11:11:03.93	301.31	16.89	-51.8	-54.3	3.6	0.00e+00	0	39	104	0	60	88059
2026-01-01 11:11:04.94	301.60	16.82	-51.8	-54.3	3.5	0.00e+00	0	39	104	0	60	87598
2026-01-01 11:11:05.95	301.89	16.74	-51.8	-54.3	3.6	0.00e+00	0	38	104	0	60	87259
2026-01-01 11:11:06.96	302.17	16.67	-51.8	-54.2	3.6	0.00e+00	0	38	104	0	60	86962
2026-01-01 11:11:07.97	302.46	16.60	-51.8	-54.2	3.6	0.00e+00	0	38	104	0	60	86995
2026-01-01 11:11:08.98	302.74	16.53	-51.8	-54.3	3.6	0.00e+00	0	38	104	0	60	87470
2026-01-01 11:11:09.99	303.03	16.45	-51.8	-54.2	3.6	0.00e+00	0	38	104	0	60	86959
2026-01-01 11:11:11.00	303.31	16.38	-51.8	-54.2	3.6	0.00e+00	0	38	104	0	60	87130
2026-01-01 11:11:12.01	303.59	16.30	-51.8	-54.3	3.6	0.00e+00	0	39	104	0	60	87363
2026-01-01 11:11:13.02	303.86	16.23	-51.8	-54.3	3.6	0.00e+00	0	38	104	0	60	87487
2026-01-01 11:11:14.03	304.14	16.15	-51.8	-54.3	3.6	0.00e+00	0	39	104	0	60	87394
2026-01-01 11:11:15.04	304.42	16.08	-51.8	-54.3	3.6	0.00e+00	0	38	104	0	60	87255
2026-01-01 11:11:16.05	304.69	16.00	-51.8	-54.2	3.6	0.00e+00	0	39	104	0	60	87169
2026-01-01 11:11:17.06	304.96	15.93	-51.8	-54.2	3.6	0.00e+00	0	38	104	0	60	86774
2026-01-01 11:11:18.08	305.23	15.85	-51.8	-54.2	3.6	0.00e+00	0	39	104	0	60	87148
2026-01-01 11:11:19.09	305.50	15.78	-51.8	-54.3	3.6	0.00e+00	0	39	104	0	60	87418
2026-01-01 11:11:20.10	305.77	15.70	-51.8	-54.3	3.6	0.00e+00	0	39	104	0	60	87767
2026-01-01 11:11:21.11	306.03	15.62	-51.8	-54.3	3.6	0.00e+00	0	38	104	0	60	87259
2026-01-01 11:11:22.12	306.30	15.55	-51.9	-54.3	3.6	0.00e+00	0	38	104	0	60	87716
2026-01-01 11:11:23.13	306.56	15.47	-51.8	-54.3	3.6	0.00e+00	0	38	104	0	60	87784
2026-01-01 11:11:24.14	306.82	15.39	-51.9	-54.3	3.6	0.00e+00	0	38	104	0	60	87649
2026-01-01 11:11:25.15	307.08	15.32	-51.8	-54.3	3.6	0.00e+00	0	38	104	0	60	88109
2026-01-01 11:11:26.16	307.34	15.24	-51.9	-54.3	3.6	0.00e+00	0	38	104	0	60	87807
2026-01-01 11:11:27.17	307.59	15.16	-51.8	-54.3	3.6	0.00e+00	0	38	104	0	60	87698
2026-01-01 11:11:28.18	307.85	15.08	-51.8	-54.2	3.6	0.00e+00	0	38	104	0	60	87113
2026-01-01 11:11:29.19	308.10	15.00	-51.8	-54.3	3.6	0.00e+00	0	38	104	0	60	87901
2026-01-01 11:11:30.20	308.35	14.93	-51.9	-54.3	3.6	0.00e+00	0	39	104	0	60	87843
2026-01-01 11:11:31.21	308.60	14.85	-51.8	-54.2	3.6	0.00e+00	0	38	104	0	60	87050
2026-01-01 11:11:32.22	308.85	14.77	-51.8	-54.3	3.6	0.00e+00	0	39	104	0	60	87387
2026-01-01 11:11:33.23	309.10	14.69	-51.8	-54.3	3.6	0.00e+00	0	39	104	0	60	87333
2026-01-01 11:11:34.24	309.35	14.61	-51.8	-54.3	3.6	0.00e+00	0	38	104	0	60	87264
2026-01-01 11:11:35.26	309.59	14.53	-51.8	-54.2	3.6	0.00e+00	0	38	104	0	60	86915
2026-01-01 11:11:36.26	309.83	14.46	-51.8	-54.2	3.6	0.00e+00	0	39	104	0	60	86699
2026-01-01 11:11:37.28	310.08	14.38	-51.8	-54.2	3.6	0.00e+00	0	38	104	0	60	86830
2026-01-01 11:11:38.29	310.32	14.30	-51.8	-54.2	3.6	0.00e+00	0	38	104	0	60	87199
2026-01-01 11:11:39.30	310.55	14.22	-51.8	-54.3	3.6	0.00e+00	0	39	104	0	60	87400
2026-01-01 11:11:40.31	310.79	14.14	-51.8	-54.3	3.6	0.00e+00	0	38	104	0	60	87526
2026-01-01 11:11:41.32	311.03	14.06	-51.8	-54.3	3.6	0.00e+00	0	39	104	0	60	87760
2026-01-01 11:11:42.33	311.26	13.98	-51.8	-54.3	3.6	0.00e+00	0	39	104	0	60	87409
2026-01-01 11:11:43.34	311.49	13.90	-51.8	-54.3	3.6	0.00e+00	0	38	104	0	60	87475
2026-01-01 11:11:44.35	311.72	13.82	-51.8	-54.3	3.6	0.00e+00	0	38	104	0	60	87378
2026-01-01 11:11:45.36	311.95	13.74	-51.8	-54.3	3.6	0.00e+00	0	39	104	0	60	87837
2026-01-01 11:11:46.37	312.18	13.66	-51.8	-54.3	3.6	0.00e+00	0	38	104	0	60	87284
2026-01-01 11:11:47.38	312.41	13.58	-51.8	-54.3	3.6	0.00e+00	0	39	104	0	60	87608
2026-01-01 11:11:48.39	312.63	13.50	-51.8	-54.2	3.6	0.00e+00	0	38	104	0	60	86502
2026-01-01 11:11:49.41	312.86	13.42	-51.8	-54.2	3.6	0.00e+00	0	38	104	0	60	87002
2026-01-01 11:11:50.41	313.08	13.35	-51.8	-54.3	3.6	0.00e+00	0	38	104	0	60	87542
2026-01-01 11:11:51.42	313.30	13.27	-51.9	-54.3	3.6	0.00e+00	0	38	104	0	60	87981
2026-01-01 11:11:52.44	313.52	13.19	-51.8	-54.3	3.6	0.00e+00	0	38	104	0	60	87318
2026-01-01 11:11:53.45	313.74	13.11	-51.8	-54.3	3.6	0.00e+00	0	38	104	0	60	87692
2026-01-01 11:11:54.46	313.96	13.03	-51.8	-54.3	3.6	0.00e+00	0	38	104	0	60	87558
2026-01-01 11:11:55.47	314.17	12.95	-51.8	-54.4	3.6	0.00e+00	0	38	104	0	60	88224
2026-01-01 11:11:56.48	314.39	12.87	-51.8	-54.3	3.6	0.00e+00	0	38	104	0	60	87613
2026-01-01 11:11:57.49	314.60	12.79	-51.8	-54.3	3.6	0.00e+00	0	38	104	0	60	87551
2026-01-01 11:11:58.50	314.81	12.71	-51.8	-54.3	3.6	0.00e+00	0	38	104	0	60	87610
2026-01-01 11:11:59.51	315.02	12.63	-51.8	-54.2	3.6	0.00e+00	0	39	104	0	60	86512
2026-01-01 11:12:00.52	315.23	12.55	-51.8	-54.3	3.5	0.00e+00	0	39	104	0	60	87416
2026-01-01 11:12:01.53	315.44	12.47	-51.8	-54.3	3.6	0.00e+00	0	38	104	0	60	87880
2026-01-01 11:12:02.54	315.65	12.39	-51.8	-54.3	3.6	0.00e+00	0	39	104	0	60	87982
2026-01-01 11:12:03.55	315.85	12.31	-51.8	-54.3	3.6	0.00e+00	0	39	104	0	60	87676
2026-01-01 11:12:04.56	316.06	12.23	-51.8	-54.3	3.6	0.00e+00	0	39	104	0	60	87407
2026-01-01 11:12:05.57	316.26	12.15	-51.8	-54.2	3.6	0.00e+00	0	39	104	0	60	87032
2026-01-01 11:12:06.58	316.46	12.07	-51.8	-54.3	3.6	0.00e+00	0	39	104	0	60	87390
2026-01-01 11:12:07.59	316.66	12.00	-51.8	-54.3	3.7	0.00e+00	0	39	104	0	60	87745
2026-01-01 11:12:08.60	316.86	11.92	-51.8	-54.2	3.6	0.00e+00	0	39	104	0	60	87155
2026-01-01 11:12:09.62	317.06	11.84	-51.8	-54.3	3.6	0.00e+00	0	39	104	0	60	87480
2026-01-01 11:12:10.62	317.25	11.76	-51.8	-54.3	3.6	0.00e+00	0	38	104	0	60	87448
2026-01-01 11:12:11.64	317.45	11.68	-51.8	-54.3	3.6	0.00e+00	0	39	104	0	60	87738
2026-01-01 11:12:12.65	317.65	11.60	-51.8	-54.4	3.6	0.00e+00	0	38	104	0	60	88313
2026-01-01 11:12:13.66	317.84	11.52	-51.8	-54.2	3.6	0.00e+00	0	38	104	0	60	86901
2026-01-01 11:12:14.67	318.03	11.44	-51.8	-54.3	3.6	0.00e+00	0	39	104	0	60	87239
2026-01-01 11:12:15.68	318.22	11.36	-51.8	-54.3	3.6	0.00e+00	0	39	104	0	60	87509
2026-01-01 11:12:16.69	318.41	11.29	-51.8	-54.3	3.6	0.00e+00	0	38	104	0	60	87290
2026-01-01 11:12:17.70	318.60	11.21	-51.8	-54.3	3.6	0.00e+00	0	38	104	0	60	87482
2026-01-01 11:12:18.71	318.78	11.13	-51.9	-54.3	3.6	0.00e+00	0	39	104	0	60	88205
2026-01-01 11:12:19.72	318.97	11.05	-51.8	-54.3	3.6	0.00e+00	0	39	104	0	60	87501
2026-01-01 11:12:20.73	319.16	10.97	-51.8	-54.2	3.6	0.00e+00	0	39	104	0	60	87096
2026-01-01 11:12:21.74	319.34	10.89	-51.8	-54.3	3.6	0.00e+00	0	39	104	0	60	87537
2026-01-01 11:12:22.75	319.52	10.82	-51.9	-54.3	3.6	0.00e+00	0	39	104	0	60	87481
2026-01-01 11:12:23.77	319.70	10.74	-51.8	-54.3	3.6	0.00e+00	0	39	104	0	60	88036
2026-01-01 11:12:24.78	319.88	10.66	-51.8	-54.3	3.6	0.00e+00	0	39	104	0	60	87572
2026-01-01 11:12:25.79	320.06	10.58	-51.8	-54.2	3.6	0.00e+00	0	38	104	0	60	87083
2026-01-01 11:12:26.80	320.24	10.50	-51.7	-54.2	3.5	0.00e+00	0	39	104	0	60	87086
2026-01-01 11:12:27.81	320.42	10.43	-51.8	-54.2	3.6	0.00e+00	0	39	104	0	60	86773
2026-01-01 11:12:28.82	320.59	10.35	-51.8	-54.2	3.6	0.00e+00	0	39	104	0	60	86964
2026-01-01 11:12:29.83	320.77	10.27	-51.8	-54.2	3.6	0.00e+00	0	39	104	0	60	87161
2026-01-01 11:12:30.84	320.94	10.20	-51.8	-54.3	3.6	0.00e+00	0	39	104	0	60	87621
2026-01-01 11:12:31.85	321.11	10.12	-51.8	-54.3	3.6	0.00e+00	0	39	104	0	60	87456
2026-01-01 11:12:32.86	321.28	10.04	-51.8	-54.2	3.6	0.00e+00	0	39	104	0	60	86933
2026-01-01 11:12:33.87	321.45	9.97	-51.8	-54.2	3.6	0.00e+00	0	39	104	0	60	86980
2026-01-01 11:12:34.88	321.62	9.89	-51.8	-54.3	3.6	0.00e+00	0	38	104	0	60	87405
2026-01-01 11:12:35.89	321.79	9.81	-51.8	-54.3	3.6	0.00e+00	0	39	104	0	60	87285
2026-01-01 11:12:36.90	321.96	9.74	-51.8	-54.3	3.6	0.00e+00	0	39	104	0	60	87470
2026-01-01 11:12:37.91	322.13	9.66	-51.9	-54.3	3.6	0.00e+00	0	39	104	0	60	87822
2026-01-01 11:12:38.92	322.29	9.58	-51.9	-54.3	3.6	0.00e+00	0	38	104	0	60	87690
2026-01-01 11:12:39.93	322.45	9.51	-51.9	-54.3	3.6	0.00e+00	0	39	104	0	60	87847
2026-01-01 11:12:40.94	322.62	9.43	-51.8	-54.3	3.6	0.00e+00	0	39	104	0	60	87507
2026-01-01 11:12:41.95	322.78	9.36	-51.8	-54.3	3.6	0.00e+00	0	39	104	0	60	87715
2026-01-01 11:12:42.96	322.94	9.28	-51.8	-54.3	3.6	0.00e+00	0	39	104	0	60	87819
2026-01-01 11:12:43.97	323.10	9.20	-51.8	-54.3	3.6	0.00e+00	0	39	104	0	60	88169
2026-01-01 11:12:44.98	323.26	9.13	-51.8	-54.3	3.5	0.00e+00	0	39	104	0	60	87374
2026-01-01 11:12:45.99	323.42	9.05	-51.8	-54.3	3.6	0.00e+00	0	39	104	0	60	87370
2026-01-01 11:12:47.00	323.58	8.98	-51.8	-54.3	3.5	0.00e+00	0	39	104	0	60	87872
2026-01-01 11:12:48.01	323.73	8.90	-51.8	-54.3	3.6	0.00e+00	0	39	104	0	60	87403
2026-01-01 11:12:49.02	323.89	8.83	-51.9	-54.4	3.6	0.00e+00	0	39	104	0	60	88445
2026-01-01 11:12:50.03	324.04	8.75	-51.8	-54.3	3.6	0.00e+00	0	39	104	0	60	87541
2026-01-01 11:12:51.04	324.19	8.68	-51.8	-54.3	3.6	0.00e+00	0	39	104	0	60	87629
2026-01-01 11:12:52.05	324.35	8.61	-51.8	-54.3	3.6	0.00e+00	0	39	104	0	60	87352
2026-01-01 11:12:53.06	324.50	8.53	-51.8	-54.2	3.6	0.00e+00	0	39	104	0	60	86777
2026-01-01 11:12:54.08	324.65	8.46	-51.8	-54.2	3.6	0.00e+00	0	39	104	0	60	86863
2026-01-01 11:12:55.09	324.80	8.38	-51.8	-54.2	3.6	0.00e+00	0	39	104	0	60	86857
2026-01-01 11:12:56.10	324.95	8.31	-51.8	-54.2	3.6	0.00e+00	0	39	104	0	60	86839
2026-01-01 11:12:57.11	325.10	8.23	-51.8	-54.2	3.6	0.00e+00	0	39	104	0	60	86940
2026-01-01 11:12:58.12	325.25	8.16	-51.8	-54.2	3.6	0.00e+00	0	39	104	0	60	86670
2026-01-01 11:12:59.13	325.39	8.09	-51.8	-54.2	3.6	0.00e+00	0	39	104	0	60	87014
2026-01-01 11:13:00.14	325.54	8.01	-51.8	-54.2	3.5	0.00e+00	0	39	104	0	60	86748
2026-01-01 11:13:01.15	325.68	7.94	-51.7	-54.2	3.6	0.00e+00	0	39	104	0	60	86491
2026-01-01 11:13:02.16	325.83	7.87	-51.7	-54.2	3.6	0.00e+00	0	39	104	0	60	86548
2026-01-01 11:13:03.17	325.97	7.80	-51.7	-54.2	3.6	0.00e+00	0	39	104	0	60	86654
2026-01-01 11:13:04.18	326.11	7.72	-51.7	-54.2	3.6	0.00e+00	0	39	104	0	60	86675
2026-01-01 11:13:05.19	326.25	7.65	-51.7	-54.1	3.6	0.00e+00	0	39	104	0	60	86112
2026-01-01 11:13:06.20	326.39	7.58	-51.7	-54.2	3.6	0.00e+00	0	39	104	0	60	86649
2026-01-01 11:13:07.21	326.53	7.51	-51.7	-54.2	3.6	0.00e+00	0	39	104	0	60	86483
2026-01-01 11:13:08.23	326.67	7.43	-51.8	-54.2	3.6	0.00e+00	0	39	104	0	60	87025
2026-01-01 11:13:09.24	326.81	7.36	-51.8	-54.2	3.6	0.00e+00	0	39	104	0	60	86953
2026-01-01 11:13:10.25	326.95	7.29	-51.8	-54.2	3.6	0.00e+00	0	39	104	0	60	86694
2026-01-01 11:13:11.26	327.08	7.22	-51.8	-54.2	3.6	0.00e+00	0	38	104	0	60	87036
2026-01-01 11:13:12.27	327.22	7.15	-51.8	-54.2	3.6	0.00e+00	0	39	104	0	60	86891
2026-01-01 11:13:13.28	327.35	7.07	-51.8	-54.2	3.6	0.00e+00	0	38	104	0	60	87192
2026-01-01 11:13:14.29	327.49	7.00	-51.8	-54.2	3.6	0.00e+00	0	39	104	0	60	86998
2026-01-01 11:13:15.30	327.62	6.93	-51.8	-54.3	3.6	0.00e+00	0	39	104	0	60	87506
2026-01-01 11:13:16.31	327.75	6.86	-51.8	-54.2	3.5	0.00e+00	0	39	104	0	60	87079
2026-01-01 11:13:17.32	327.88	6.79	-51.8	-54.2	3.6	0.00e+00	0	39	104	0	60	86831
2026-01-01 11:13:18.33	328.01	6.72	-51.7	-54.2	3.6	0.00e+00	0	39	104	0	60	87154
2026-01-01 11:13:19.34	328.14	6.65	-51.8	-54.2	3.6	0.00e+00	0	39	104	0	60	86949
2026-01-01 11:13:20.35	328.27	6.58	-51.8	-54.2	3.6	0.00e+00	0	39	104	0	60	86843
2026-01-01 11:13:21.36	328.40	6.51	-51.8	-54.2	3.6	0.00e+00	0	39	104	0	60	86803
2026-01-01 11:13:22.37	328.53	6.44	-51.8	-54.2	3.6	0.00e+00	0	39	104	0	60	86876
2026-01-01 11:13:23.38	328.66	6.37	-51.8	-54.3	3.6	0.00e+00	0	39	104	0	60	87621
2026-01-01 11:13:24.39	328.78	6.30	-51.8	-54.2	3.6	0.00e+00	0	39	104	0	60	87110
2026-01-01 11:13:25.40	328.91	6.23	-51.8	-54.2	3.6	0.00e+00	0	39	104	0	60	86667
2026-01-01 11:13:26.41	329.04	6.16	-51.8	-54.2	3.6	0.00e+00	0	39	104	0	60	87157
2026-01-01 11:13:27.42	329.16	6.09	-51.7	-54.2	3.6	0.00e+00	0	38	104	0	60	86733
2026-01-01 11:13:28.43	329.28	6.02	-51.7	-54.2	3.6	0.00e+00	0	39	104	0	60	86690
2026-01-01 11:13:29.44	329.41	5.95	-51.8	-54.2	3.6	0.00e+00	0	39	104	0	60	87140
2026-01-01 11:13:30.45	329.53	5.88	-51.8	-54.2	3.6	0.00e+00	0	39	104	0	60	86934
2026-01-01 11:13:31.46	329.65	5.81	-51.8	-54.2	3.6	0.00e+00	0	39	104	0	60	87104
2026-01-01 11:13:32.47	329.77	5.74	-51.8	-54.2	3.6	0.00e+00	0	39	104	0	60	86928
2026-01-01 11:13:33.49	329.89	5.68	-51.8	-54.2	3.6	0.00e+00	0	39	104	0	60	87005
2026-01-01 11:13:34.49	330.01	5.61	-51.7	-54.2	3.6	0.00e+00	0	39	104	0	60	86973
2026-01-01 11:13:35.50	330.13	5.54	-51.7	-54.2	3.6	0.00e+00	0	39	104	0	60	86563
2026-01-01 11:13:36.51	330.25	5.47	-51.8	-54.2	3.6	0.00e+00	0	39	104	0	60	86542
2026-01-01 11:13:37.53	330.37	5.40	-51.7	-54.2	3.6	0.00e+00	0	39	104	0	60	86361
2026-01-01 11:13:38.53	330.48	5.34	-51.7	-54.2	3.6	0.00e+00	0	39	104	0	60	86852
2026-01-01 11:13:39.55	330.60	5.27	-51.8	-54.2	3.6	0.00e+00	0	39	104	0	60	86680
2026-01-01 11:13:40.56	330.72	5.20	-51.8	-54.2	3.5	0.00e+00	0	39	104	0	60	86948
2026-01-01 11:13:41.57	330.83	5.13	-51.8	-54.2	3.6	0.00e+00	0	39	104	0	60	87126
2026-01-01 11:13:42.58	330.94	5.07	-51.7	-54.2	3.6	0.00e+00	0	39	104	0	60	87010
2026-01-01 11:13:43.59	331.06	5.00	-51.7	-54.2	3.6	0.00e+00	0	39	104	0	60	86593
2026-01-01 11:13:44.60	331.17	4.93	-51.8	-54.2	3.6	0.00e+00	0	39	104	0	60	86609
2026-01-01 11:13:45.61	331.28	4.86	-51.8	-54.2	3.6	0.00e+00	0	39	104	0	60	86801
2026-01-01 11:13:46.62	331.40	4.80	-51.8	-54.2	3.6	0.00e+00	0	39	104	0	60	87140
2026-01-01 11:13:47.63	331.51	4.73	-51.8	-54.2	3.6	0.00e+00	0	39	104	0	60	86825
2026-01-01 11:13:48.64	331.62	4.67	-51.8	-54.3	3.6	0.00e+00	0	39	104	0	60	87260
2026-01-01 11:13:49.65	331.73	4.60	-51.8	-54.2	3.6	0.00e+00	0	39	104	0	60	86576
2026-01-01 11:13:50.66	331.84	4.53	-51.8	-54.2	3.6	0.00e+00	0	39	104	0	60	86960
2026-01-01 11:13:51.67	331.95	4.47	-51.7	-54.2	3.6	0.00e+00	0	39	104	0	60	86503
2026-01-01 11:13:52.68	332.06	4.40	-51.7	-54.2	3.6	0.00e+00	0	39	104	0	60	86460
2026-01-01 11:13:53.69	332.16	4.34	-51.7	-54.2	3.6	0.00e+00	0	39	104	0	60	86901
2026-01-01 11:13:54.70	332.27	4.27	-51.8	-54.2	3.6	0.00e+00	0	39	104	0	60	86792
2026-01-01 11:13:55.71	332.38	4.20	-51.7	-54.2	3.5	0.00e+00	0	39	104	0	60	86788
2026-01-01 11:13:56.72	332.48	4.14	-51.7	-54.2	3.6	0.00e+00	0	39	104	0	60	86612
2026-01-01 11:13:57.73	332.59	4.07	-51.7	-54.2	3.6	0.00e+00	0	39	104	0	60	86779
2026-01-01 11:13:58.74	332.69	4.01	-51.8	-54.2	3.6	0.00e+00	0	39	104	0	60	86965
2026-01-01 11:13:59.75	332.80	3.94	-51.7	-54.2	3.6	0.00e+00	0	39	104	0	60	86275
2026-01-01 11:14:00.77	332.90	3.88	-51.8	-54.2	3.6	0.00e+00	0	39	104	0	60	86738
2026-01-01 11:14:01.78	333.01	3.81	-51.7	-54.2	3.6	0.00e+00	0	39	104	0	60	86519
2026-01-01 11:14:02.79	333.11	3.75	-51.8	-54.2	3.6	0.00e+00	0	39	104	0	60	86679
2026-01-01 11:14:03.80	333.21	3.69	-51.8	-54.2	3.6	0.00e+00	0	39	104	0	60	86773
2026-01-01 11:14:04.81	333.31	3.62	-51.8	-54.2	3.6	0.00e+00	0	39	104	0	60	86661
2026-01-01 11:14:05.82	333.41	3.56	-51.8	-54.2	3.6	0.00e+00	0	39	104	0	60	87013
2026-01-01 11:14:06.83	333.51	3.49	-51.8	-54.3	3.6	0.00e+00	0	39	104	0	60	87241
2026-01-01 11:14:07.84	333.61	3.43	-51.8	-54.2	3.6	0.00e+00	0	39	104	0	60	86591
2026-01-01 11:14:08.85	333.71	3.37	-51.8	-54.2	3.6	0.00e+00	0	39	104	0	60	87190
2026-01-01 11:14:09.86	333.81	3.30	-51.7	-54.2	3.6	0.00e+00	0	39	104	0	60	86445
2026-01-01 11:14:10.87	333.91	3.24	-51.8	-54.2	3.6	0.00e+00	0	39	104	0	60	86883
2026-01-01 11:14:11.88	334.01	3.18	-51.7	-54.2	3.6	0.00e+00	0	39	104	0	60	86702
2026-01-01 11:14:12.89	334.11	3.11	-51.8	-54.2	3.6	0.00e+00	0	39	104	0	60	87202
2026-01-01 11:14:13.90	334.20	3.05	-51.8	-54.2	3.6	0.00e+00	0	39	104	0	60	86981
2026-01-01 11:14:14.91	334.30	2.99	-51.8	-54.2	3.6	0.00e+00	0	39	104	0	60	86928
2026-01-01 11:14:15.92	334.40	2.93	-51.8	-54.2	3.6	0.00e+00	0	39	104	0	60	87074
2026-01-01 11:14:16.93	334.49	2.86	-51.8	-54.2	3.6	0.00e+00	0	39	104	0	60	86675
2026-01-01 11:14:17.95	334.59	2.80	-51.8	-54.2	3.6	0.00e+00	0	39	104	0	60	87190
2026-01-01 11:14:18.96	334.68	2.74	-51.8	-54.2	3.6	0.00e+00	0	39	104	0	60	86705
2026-01-01 11:14:19.97	334.78	2.67	-51.8	-54.3	3.6	0.00e+00	0	39	104	0	60	87221
2026-01-01 11:14:20.98	334.87	2.61	-51.8	-54.2	3.5	0.00e+00	0	39	104	0	60	87074
2026-01-01 11:14:21.99	334.97	2.55	-51.8	-54.2	3.6	0.00e+00	0	39	104	0	60	86979
2026-01-01 11:14:23.00	335.06	2.49	-51.8	-54.3	3.6	0.00e+00	0	39	104	0	60	87246
2026-01-01 11:14:24.01	335.15	2.43	-51.7	-54.2	3.6	0.00e+00	0	39	104	0	60	86789
2026-01-01 11:14:25.02	335.24	2.37	-51.7	-54.2	3.6	0.00e+00	0	39	104	0	60	86820
2026-01-01 11:14:26.03	335.33	2.30	-51.7	-54.2	3.6	0.00e+00	0	39	104	0	60	86601
2026-01-01 11:14:27.04	335.42	2.24	-51.7	-54.1	3.6	0.00e+00	0	39	104	0	60	86130
2026-01-01 11:14:28.05	335.52	2.18	-51.8	-54.2	3.6	0.00e+00	0	39	104	0	60	87045
2026-01-01 11:14:29.06	335.61	2.12	-51.8	-54.2	3.6	0.00e+00	0	39	104	0	60	87104
2026-01-01 11:14:30.07	335.70	2.06	-51.8	-54.2	3.6	0.00e+00	0	39	104	0	60	87143
2026-01-01 11:14:31.08	335.78	2.00	-51.8	-54.2	3.6	0.00e+00	0	39	104	0	60	86831
2026-01-01 11:14:32.09	335.87	1.94	-51.8	-54.3	3.6	0.00e+00	0	39	104	0	60	87267
2026-01-01 11:14:33.10	335.96	1.88	-51.7	-54.2	3.6	0.00e+00	0	39	104	0	60	86636
2026-01-01 11:14:34.11	336.05	1.82	-51.7	-54.2	3.6	0.00e+00	0	39	104	0	60	86528
2026-01-01 11:14:35.13	336.14	1.76	-51.7	-54.2	3.6	0.00e+00	0	39	104	0	60	86345
2026-01-01 11:14:36.14	336.22	1.70	-51.7	-54.2	3.6	0.00e+00	0	39	104	0	60	86735
2026-01-01 11:14:37.15	336.31	1.64	-51.8	-54.3	3.5	0.00e+00	0	39	104	0	60	87255
2026-01-01 11:14:38.16	336.40	1.58	-51.8	-54.2	3.6	0.00e+00	0	39	104	0	60	86783
2026-01-01 11:14:39.17	336.48	1.52	-51.8	-54.2	3.6	0.00e+00	0	39	104	0	60	86965
2026-01-01 11:14:40.18	336.57	1.46	-51.8	-54.2	3.6	0.00e+00	0	39	104	0	60	86888
2026-01-01 11:14:41.19	336.65	1.40	-51.8	-54.2	3.6	0.00e+00	0	39	104	0	60	86928
2026-01-01 11:14:42.20	336.74	1.34	-51.8	-54.3	3.6	0.00e+00	0	39	104	0	60	87314
2026-01-01 11:14:43.21	336.82	1.28	-51.8	-54.2	3.6	0.00e+00	0	39	104	0	60	86723
2026-01-01 11:14:44.22	336.91	1.22	-51.8	-54.2	3.6	0.00e+00	0	39	104	0	60	86832
2026-01-01 11:14:45.24	336.99	1.16	-51.8	-54.3	3.6	0.00e+00	0	39	104	0	60	87216
2026-01-01 11:14:46.25	337.07	1.10	-51.8	-54.2	3.6	0.00e+00	0	39	104	0	60	86976
2026-01-01 11:14:47.26	337.16	1.04	-51.8	-54.2	3.6	0.00e+00	0	39	104	0	60	86830
2026-01-01 11:14:48.27	337.24	0.98	-51.8	-54.2	3.6	0.00e+00	0	39	104	0	60	86742
2026-01-01 11:14:49.28	337.32	0.92	-51.8	-54.2	3.6	0.00e+00	0	39	104	0	60	86599
2026-01-01 11:14:50.29	337.40	0.86	-51.8	-54.2	3.6	0.00e+00	0	39	104	0	60	86812
2026-01-01 11:14:51.30	337.48	0.81	-51.8	-54.2	3.6	0.00e+00	0	39	104	0	60	87017
2026-01-01 11:14:52.31	337.56	0.75	-51.8	-54.2	3.6	0.00e+00	0	39	104	0	60	86729
2026-01-01 11:14:53.32	337.64	0.69	-51.8	-54.2	3.6	0.00e+00	0	39	104	0	60	86774
2026-01-01 11:14:54.33	337.72	0.63	-51.8	-54.2	3.6	0.00e+00	0	39	104	0	60	86742
2026-01-01 11:14:55.34	337.80	0.57	-51.8	-54.3	3.6	0.00e+00	0	39	104	0	60	87314
2026-01-01 11:14:56.35	337.88	0.51	-51.8	-54.2	3.6	0.00e+00	0	39	104	0	60	87106
2026-01-01 11:14:57.37	337.96	0.46	-51.8	-54.2	3.6	0.00e+00	0	39	104	0	60	87166
2026-01-01 11:14:58.38	338.04	0.40	-51.8	-54.2	3.6	0.00e+00	0	39	104	0	60	86710
2026-01-01 11:14:59.39	338.12	0.34	-51.8	-54.2	3.6	0.00e+00	0	39	104	0	60	86972
2026-01-01 11:15:00.40	338.20	0.28	-51.8	-54.2	3.6	0.00e+00	0	39	104	0	60	86717
2026-01-01 11:15:01.41	338.27	0.23	-51.8	-54.2	3.6	0.00e+00	0	39	104	0	60	86946
2026-01-01 11:15:02.42	338.35	0.17	-51.8	-54.2	3.6	0.00e+00	0	39	104	0	60	86447
2026-01-01 11:15:03.43	338.43	0.11	-51.8	-54.2	3.6	0.00e+00	0	39	104	0	60	86879
2026-01-01 11:15:04.44	338.50	0.05	-51.8	-54.3	3.6	0.00e+00	0	39	104	0	60	87267
2026-01-01 11:15:05.45	338.58	-0.00	-51.8	-54.2	3.6	0.00e+00	0	39	104	0	60	86914

#Closed at: 2026-01-01 11:15:05
#Recorded file [0 MB]: D:/lorett/data/35034_260101_140412.dat