passes_logs/2026/01/01/R4.6S_Anadyr_2ch/R4.6S_Anadyr_2ch__20260101_062406_2025-108B_rec.log

#Pass ID: 20260101_062406_2025-108B
#Satellite: 2025-108B
#Configuration: 3PB_600M
#almurnet v.1.7.20251203
#Start time: 2026-01-01 06:24:08

#Version: 2.2.20231116
#Station: R4.6S_Anadyr_2ch
#Location: 177.4865 lon 64.73178 lat
#TLE: 1 64088U 25108B   25351.01672131  .00008460  00000+0  43413-3 0  9994
#TLE: 2 64088  97.4940  63.8579 0011684 285.1423  74.8517 15.16717580 31720

#Time	Az	El	Level	Level2	SNR	BER	BlckErr	Temp	State	Recorded	gain1	gain2
2026-01-01 06:24:08.78	74.83	0.11	-51.9	-53.3	3.4	0.00e+00	0	34	0	0	60	78433
2026-01-01 06:24:09.78	74.72	0.16	-51.9	-54.4	3.6	0.00e+00	0	35	104	0	60	88291
2026-01-01 06:24:10.79	74.61	0.21	-51.9	-54.4	3.6	0.00e+00	0	35	104	0	60	88389
2026-01-01 06:24:11.81	74.49	0.26	-51.9	-54.4	3.6	0.00e+00	0	35	104	0	60	88365
2026-01-01 06:24:12.82	74.38	0.31	-51.9	-54.3	3.6	0.00e+00	0	35	104	0	60	88053
2026-01-01 06:24:13.83	74.26	0.35	-51.9	-54.3	3.6	0.00e+00	0	35	104	0	60	88188
2026-01-01 06:24:14.84	74.15	0.40	-51.9	-54.4	3.6	0.00e+00	0	35	104	0	60	88260
2026-01-01 06:24:15.85	74.04	0.45	-51.9	-54.4	3.6	0.00e+00	0	35	104	0	60	88263
2026-01-01 06:24:16.86	73.92	0.50	-51.9	-54.3	3.6	0.00e+00	0	35	104	0	60	88073
2026-01-01 06:24:17.87	73.80	0.55	-51.9	-54.4	3.6	0.00e+00	0	35	104	0	60	88315
2026-01-01 06:24:18.88	73.69	0.59	-51.9	-54.4	3.6	0.00e+00	0	36	104	0	60	88371
2026-01-01 06:24:19.90	73.57	0.64	-51.9	-54.4	3.6	0.00e+00	0	36	104	0	60	88536
2026-01-01 06:24:20.91	73.45	0.69	-51.9	-54.3	3.6	0.00e+00	0	36	104	0	60	88032
2026-01-01 06:24:21.92	73.33	0.74	-51.9	-54.4	3.6	0.00e+00	0	36	104	0	60	88645
2026-01-01 06:24:22.93	73.22	0.79	-51.9	-54.3	3.6	0.00e+00	0	36	104	0	60	88105
2026-01-01 06:24:23.94	73.10	0.84	-51.9	-54.4	3.6	0.00e+00	0	36	104	0	60	88846
2026-01-01 06:24:24.95	72.98	0.88	-51.9	-54.3	3.6	0.00e+00	0	36	104	0	60	87999
2026-01-01 06:24:25.96	72.86	0.93	-51.9	-54.4	3.6	0.00e+00	0	36	104	0	60	88432
2026-01-01 06:24:26.97	72.74	0.98	-51.9	-54.3	3.6	0.00e+00	0	36	104	0	60	88116
2026-01-01 06:24:27.98	72.62	1.03	-51.9	-54.4	3.6	0.00e+00	0	36	104	0	60	88241
2026-01-01 06:24:28.99	72.50	1.08	-51.9	-54.4	3.5	0.00e+00	0	36	104	0	60	88685
2026-01-01 06:24:30.00	72.37	1.12	-51.9	-54.4	3.6	0.00e+00	0	36	104	0	60	88462
2026-01-01 06:24:31.02	72.25	1.17	-51.9	-54.4	3.6	0.00e+00	0	36	104	0	60	88235
2026-01-01 06:24:32.03	72.13	1.22	-51.9	-54.4	3.6	0.00e+00	0	36	104	0	60	88746
2026-01-01 06:24:33.04	72.01	1.27	-51.9	-54.3	3.6	0.00e+00	0	36	104	0	60	88189
2026-01-01 06:24:34.05	71.88	1.32	-51.9	-54.4	3.6	0.00e+00	0	36	104	0	60	88787
2026-01-01 06:24:35.06	71.76	1.37	-51.9	-54.4	3.6	0.00e+00	0	36	104	0	60	88671
2026-01-01 06:24:36.07	71.63	1.41	-51.9	-54.4	3.6	0.00e+00	0	36	104	0	60	88704
2026-01-01 06:24:37.08	71.51	1.46	-51.9	-54.3	3.6	0.00e+00	0	36	104	0	60	88200
2026-01-01 06:24:38.09	71.38	1.51	-51.9	-54.3	3.6	0.00e+00	0	36	104	0	60	87835
2026-01-01 06:24:39.10	71.25	1.56	-51.9	-54.4	3.6	0.00e+00	0	36	104	0	60	88291
2026-01-01 06:24:40.11	71.13	1.61	-51.9	-54.4	3.6	0.00e+00	0	36	104	0	60	88487
2026-01-01 06:24:41.12	71.00	1.66	-51.9	-54.4	3.6	0.00e+00	0	36	104	0	60	88321
2026-01-01 06:24:42.13	70.87	1.70	-51.9	-54.4	3.6	0.00e+00	0	36	104	0	60	88706
2026-01-01 06:24:43.14	70.74	1.75	-51.9	-54.4	3.6	0.00e+00	0	36	104	0	60	88464
2026-01-01 06:24:44.15	70.61	1.80	-51.9	-54.4	3.6	0.00e+00	0	36	104	0	60	88690
2026-01-01 06:24:45.17	70.48	1.85	-51.9	-54.4	3.6	0.00e+00	0	36	104	0	60	88975
2026-01-01 06:24:46.18	70.35	1.90	-51.9	-54.4	3.6	0.00e+00	0	36	104	0	60	88583
2026-01-01 06:24:47.19	70.22	1.95	-51.9	-54.4	3.6	0.00e+00	0	36	104	0	60	88437
2026-01-01 06:24:48.20	70.09	1.99	-51.9	-54.4	3.6	0.00e+00	0	36	104	0	60	88830
2026-01-01 06:24:49.21	69.96	2.04	-51.9	-54.4	3.6	0.00e+00	0	36	104	0	60	88614
2026-01-01 06:24:50.22	69.83	2.09	-51.9	-54.4	3.6	0.00e+00	0	36	104	0	60	88608
2026-01-01 06:24:51.23	69.69	2.14	-51.9	-54.4	3.6	0.00e+00	0	36	104	0	60	88344
2026-01-01 06:24:52.24	69.56	2.19	-51.9	-54.4	3.6	0.00e+00	0	36	104	0	60	88543
2026-01-01 06:24:53.25	69.43	2.23	-51.9	-54.4	3.6	0.00e+00	0	36	104	0	60	88613
2026-01-01 06:24:54.26	69.29	2.28	-51.9	-54.4	3.6	0.00e+00	0	36	104	0	60	88663
2026-01-01 06:24:55.27	69.16	2.33	-51.9	-54.4	3.6	0.00e+00	0	36	104	0	60	89005
2026-01-01 06:24:56.29	69.02	2.38	-52.0	-54.4	3.6	0.00e+00	0	36	104	0	60	88722
2026-01-01 06:24:57.30	68.88	2.43	-51.9	-54.4	3.6	0.00e+00	0	37	104	0	60	88466
2026-01-01 06:24:58.31	68.75	2.47	-51.9	-54.4	3.6	0.00e+00	0	37	104	0	60	88599
2026-01-01 06:24:59.32	68.61	2.52	-51.9	-54.4	3.6	0.00e+00	0	37	104	0	60	88283
2026-01-01 06:25:00.33	68.47	2.57	-51.9	-54.4	3.6	0.00e+00	0	36	104	0	60	88533
2026-01-01 06:25:01.34	68.33	2.62	-51.9	-54.4	3.6	0.00e+00	0	37	104	0	60	88944
2026-01-01 06:25:02.35	68.19	2.67	-51.9	-54.4	3.6	0.00e+00	0	36	104	0	60	88757
2026-01-01 06:25:03.36	68.05	2.71	-51.9	-54.4	3.6	0.00e+00	0	37	104	0	60	88397
2026-01-01 06:25:04.37	67.91	2.76	-51.9	-54.4	3.6	0.00e+00	0	37	104	0	60	88750
2026-01-01 06:25:05.38	67.77	2.81	-51.9	-54.4	3.6	0.00e+00	0	37	104	0	60	88892
2026-01-01 06:25:06.40	67.63	2.86	-51.9	-54.4	3.6	0.00e+00	0	37	104	0	60	88621
2026-01-01 06:25:07.41	67.49	2.91	-51.9	-54.4	3.6	0.00e+00	0	37	104	0	60	88615
2026-01-01 06:25:08.42	67.34	2.95	-51.9	-54.4	3.6	0.00e+00	0	37	104	0	60	88716
2026-01-01 06:25:09.43	67.20	3.00	-51.9	-54.4	3.6	0.00e+00	0	37	104	0	60	88431
2026-01-01 06:25:10.44	67.06	3.05	-51.9	-54.4	3.6	0.00e+00	0	37	104	0	60	88555
2026-01-01 06:25:11.45	66.91	3.10	-51.9	-54.4	3.6	0.00e+00	0	37	104	0	60	88508
2026-01-01 06:25:12.46	66.77	3.14	-51.9	-54.4	3.6	0.00e+00	0	37	104	0	60	88900
2026-01-01 06:25:13.47	66.62	3.19	-51.9	-54.4	3.6	0.00e+00	0	37	104	0	60	88928
2026-01-01 06:25:14.49	66.47	3.24	-51.9	-54.4	3.6	0.00e+00	0	37	104	0	60	88547
2026-01-01 06:25:15.50	66.33	3.29	-51.9	-54.4	3.6	0.00e+00	0	37	104	0	60	88389
2026-01-01 06:25:16.51	66.18	3.33	-51.9	-54.4	3.6	0.00e+00	0	37	104	0	60	88781
2026-01-01 06:25:17.52	66.03	3.38	-51.9	-54.4	3.6	0.00e+00	0	37	104	0	60	88468
2026-01-01 06:25:18.53	65.88	3.43	-51.9	-54.4	3.6	0.00e+00	0	37	104	0	60	89008
2026-01-01 06:25:19.54	65.73	3.48	-51.9	-54.4	3.6	0.00e+00	0	37	104	0	60	88967
2026-01-01 06:25:20.55	65.58	3.52	-51.9	-54.4	3.6	0.00e+00	0	37	104	0	60	88709
2026-01-01 06:25:21.56	65.43	3.57	-51.9	-54.4	3.6	0.00e+00	0	37	104	0	60	88700
2026-01-01 06:25:22.57	65.28	3.62	-51.9	-54.4	3.6	0.00e+00	0	37	104	0	60	88709
2026-01-01 06:25:23.58	65.13	3.66	-51.9	-54.4	3.6	0.00e+00	0	37	104	0	60	88593
2026-01-01 06:25:24.60	64.98	3.71	-51.9	-54.4	3.6	0.00e+00	0	37	104	0	60	88528
2026-01-01 06:25:25.61	64.82	3.76	-51.9	-54.4	3.6	0.00e+00	0	37	104	0	60	88450
2026-01-01 06:25:26.62	64.67	3.81	-51.9	-54.4	3.6	0.00e+00	0	37	104	0	60	88286
2026-01-01 06:25:27.63	64.51	3.85	-51.9	-54.4	3.6	0.00e+00	0	37	104	0	60	88607
2026-01-01 06:25:28.64	64.36	3.90	-51.9	-54.4	3.6	0.00e+00	0	37	104	0	60	88565
2026-01-01 06:25:29.65	64.20	3.95	-51.9	-54.4	3.6	0.00e+00	0	37	104	0	60	88719
2026-01-01 06:25:30.66	64.05	3.99	-51.9	-54.4	3.6	0.00e+00	0	37	104	0	60	88528
2026-01-01 06:25:31.67	63.89	4.04	-51.9	-54.4	3.6	0.00e+00	0	37	104	0	60	88931
2026-01-01 06:25:32.68	63.73	4.09	-51.9	-54.4	3.6	0.00e+00	0	37	104	0	60	88912
2026-01-01 06:25:33.70	63.57	4.13	-51.9	-54.3	3.6	0.00e+00	0	37	104	0	60	88049
2026-01-01 06:25:34.71	63.42	4.18	-51.9	-54.4	3.6	0.00e+00	0	37	104	0	60	88249
2026-01-01 06:25:35.72	63.26	4.23	-51.9	-54.4	3.6	0.00e+00	0	37	104	0	60	88739
2026-01-01 06:25:36.73	63.10	4.27	-51.9	-54.4	3.6	0.00e+00	0	37	104	0	60	88787
2026-01-01 06:25:37.74	62.94	4.32	-51.9	-54.4	3.5	0.00e+00	0	37	104	0	60	88389
2026-01-01 06:25:38.75	62.77	4.36	-51.9	-54.4	3.6	0.00e+00	0	37	104	0	60	88438
2026-01-01 06:25:39.76	62.61	4.41	-51.9	-54.4	3.6	0.00e+00	0	37	104	0	60	88370
2026-01-01 06:25:40.77	62.45	4.46	-51.9	-54.4	3.6	0.00e+00	0	37	104	0	60	88387
2026-01-01 06:25:41.78	62.29	4.50	-51.9	-54.4	3.6	0.00e+00	0	37	104	0	60	88572
2026-01-01 06:25:42.79	62.12	4.55	-51.9	-54.4	3.6	0.00e+00	0	37	104	0	60	88598
2026-01-01 06:25:43.80	61.96	4.59	-51.9	-54.4	3.6	0.00e+00	0	37	104	0	60	88476
2026-01-01 06:25:44.81	61.79	4.64	-51.9	-54.4	3.6	0.00e+00	0	37	104	0	60	88691
2026-01-01 06:25:45.83	61.63	4.69	-51.9	-54.4	3.6	0.00e+00	0	37	104	0	60	88806
2026-01-01 06:25:46.84	61.46	4.73	-51.9	-54.4	3.5	0.00e+00	0	37	104	0	60	88760
2026-01-01 06:25:47.85	61.29	4.78	-51.9	-54.4	3.6	0.00e+00	0	37	104	0	60	88288
2026-01-01 06:25:48.86	61.12	4.82	-51.9	-54.4	3.6	0.00e+00	0	37	104	0	60	88514
2026-01-01 06:25:49.87	60.96	4.87	-51.9	-54.4	3.6	0.00e+00	0	37	104	0	60	88774
2026-01-01 06:25:50.88	60.79	4.91	-51.9	-54.4	3.6	0.00e+00	0	37	104	0	60	88399
2026-01-01 06:25:51.89	60.62	4.96	-51.9	-54.4	3.6	0.00e+00	0	37	104	0	60	88464
2026-01-01 06:25:52.90	60.45	5.00	-51.9	-54.4	3.6	0.00e+00	0	37	104	0	60	88532
2026-01-01 06:25:53.91	60.28	5.05	-51.9	-54.4	3.6	0.00e+00	0	37	104	0	60	88377
2026-01-01 06:25:54.92	60.10	5.09	-51.9	-54.4	3.6	0.00e+00	0	37	104	0	60	88677
2026-01-01 06:25:55.93	59.93	5.14	-51.9	-54.4	3.6	0.00e+00	0	37	104	0	60	88803
2026-01-01 06:25:56.94	59.76	5.18	-51.9	-54.4	3.6	0.00e+00	0	37	104	0	60	88659
2026-01-01 06:25:57.96	59.58	5.23	-51.9	-54.4	3.6	0.00e+00	0	37	104	0	60	88566
2026-01-01 06:25:58.97	59.41	5.27	-51.9	-54.4	3.6	0.00e+00	0	37	104	0	60	88547
2026-01-01 06:25:59.98	59.23	5.31	-51.9	-54.4	3.6	0.00e+00	0	37	104	0	60	88791
2026-01-01 06:26:00.99	59.06	5.36	-51.9	-54.4	3.6	0.00e+00	0	37	104	0	60	88307
2026-01-01 06:26:02.00	58.88	5.40	-51.9	-54.4	3.6	0.00e+00	0	37	104	0	60	88610
2026-01-01 06:26:03.01	58.70	5.45	-51.9	-54.4	3.6	0.00e+00	0	37	104	0	60	88567
2026-01-01 06:26:04.02	58.53	5.49	-51.9	-54.4	3.6	0.00e+00	0	37	104	0	60	88534
2026-01-01 06:26:05.03	58.35	5.53	-51.9	-54.4	3.6	0.00e+00	0	37	104	0	60	88799
2026-01-01 06:26:06.05	58.17	5.58	-51.9	-54.4	3.6	0.00e+00	0	37	104	0	60	88501
2026-01-01 06:26:07.06	57.99	5.62	-51.9	-54.4	3.6	0.00e+00	0	37	104	0	60	88516
2026-01-01 06:26:08.07	57.81	5.66	-51.9	-54.4	3.6	0.00e+00	0	37	104	0	60	88356
2026-01-01 06:26:09.08	57.63	5.71	-51.9	-54.4	3.6	0.00e+00	0	37	104	0	60	88278
2026-01-01 06:26:10.09	57.44	5.75	-51.9	-54.4	3.6	0.00e+00	0	37	104	0	60	88798
2026-01-01 06:26:11.10	57.26	5.79	-51.9	-54.4	3.6	0.00e+00	0	38	104	0	60	88683
2026-01-01 06:26:12.11	57.08	5.84	-51.9	-54.4	3.6	0.00e+00	0	38	104	0	60	88526
2026-01-01 06:26:13.12	56.90	5.88	-51.9	-54.4	3.6	0.00e+00	0	38	104	0	60	88768
2026-01-01 06:26:14.13	56.71	5.92	-51.9	-54.4	3.6	0.00e+00	0	38	104	0	60	88869
2026-01-01 06:26:15.15	56.52	5.96	-51.9	-54.4	3.6	0.00e+00	0	38	104	0	60	88946
2026-01-01 06:26:16.16	56.34	6.01	-51.9	-54.4	3.6	0.00e+00	0	38	104	0	60	88816
2026-01-01 06:26:17.17	56.15	6.05	-51.9	-54.4	3.6	0.00e+00	0	38	104	0	60	89097
2026-01-01 06:26:18.18	55.96	6.09	-51.9	-54.4	3.6	0.00e+00	0	38	104	0	60	88820
2026-01-01 06:26:19.19	55.78	6.13	-51.9	-54.4	3.6	0.00e+00	0	38	104	0	60	88471
2026-01-01 06:26:20.20	55.59	6.17	-51.9	-54.3	3.6	0.00e+00	0	38	104	0	60	87972
2026-01-01 06:26:21.21	55.40	6.21	-51.9	-54.4	3.6	0.00e+00	0	38	104	0	60	88880
2026-01-01 06:26:22.22	55.21	6.25	-51.9	-54.4	3.6	0.00e+00	0	38	104	0	60	88641
2026-01-01 06:26:23.23	55.02	6.30	-51.9	-54.4	3.6	0.00e+00	0	38	104	0	60	88931
2026-01-01 06:26:24.24	54.83	6.34	-51.9	-54.4	3.5	0.00e+00	0	38	104	0	60	88467
2026-01-01 06:26:25.26	54.63	6.38	-51.9	-54.4	3.6	0.00e+00	0	38	104	0	60	88882
2026-01-01 06:26:26.27	54.44	6.42	-51.9	-54.4	3.6	0.00e+00	0	38	104	0	60	88355
2026-01-01 06:26:27.27	54.25	6.46	-51.9	-54.4	3.5	0.00e+00	0	38	104	0	60	88960
2026-01-01 06:26:28.28	54.06	6.50	-51.9	-54.4	3.6	0.00e+00	0	38	104	0	60	89179
2026-01-01 06:26:29.30	53.86	6.54	-51.9	-54.4	3.6	0.00e+00	0	38	104	0	60	88874
2026-01-01 06:26:30.31	53.66	6.58	-51.9	-54.3	3.6	0.00e+00	0	38	104	0	60	88163
2026-01-01 06:26:31.32	53.47	6.62	-51.9	-54.4	3.6	0.00e+00	0	38	104	0	60	88665
2026-01-01 06:26:32.33	53.27	6.66	-51.9	-54.4	3.6	0.00e+00	0	38	104	0	60	88702
2026-01-01 06:26:33.34	53.08	6.70	-51.9	-54.4	3.6	0.00e+00	0	38	104	0	60	88750
2026-01-01 06:26:34.35	52.88	6.73	-51.9	-54.4	3.6	0.00e+00	0	38	104	0	60	88352
2026-01-01 06:26:35.36	52.68	6.77	-51.9	-54.4	3.6	0.00e+00	0	38	104	0	60	88534
2026-01-01 06:26:36.37	52.48	6.81	-52.0	-54.4	3.6	0.00e+00	0	38	104	0	60	88316
2026-01-01 06:26:37.38	52.28	6.85	-51.9	-54.4	3.6	0.00e+00	0	38	104	0	60	88344
2026-01-01 06:26:38.39	52.08	6.89	-51.9	-54.4	3.6	0.00e+00	0	38	104	0	60	89158
2026-01-01 06:26:39.40	51.88	6.93	-51.9	-54.4	3.6	0.00e+00	0	38	104	0	60	88710
2026-01-01 06:26:40.41	51.68	6.96	-51.9	-54.4	3.6	0.00e+00	0	38	104	0	60	89078
2026-01-01 06:26:41.42	51.47	7.00	-51.9	-54.4	3.6	0.00e+00	0	38	104	0	60	88717
2026-01-01 06:26:42.43	51.27	7.04	-51.9	-54.4	3.6	0.00e+00	0	38	104	0	60	88490
2026-01-01 06:26:43.44	51.07	7.08	-51.9	-54.3	3.6	0.00e+00	0	38	104	0	60	88154
2026-01-01 06:26:44.46	50.86	7.11	-51.9	-54.4	3.6	0.00e+00	0	38	104	0	60	88614
2026-01-01 06:26:45.47	50.66	7.15	-52.0	-54.4	3.6	0.00e+00	0	38	104	0	60	89030
2026-01-01 06:26:46.48	50.45	7.19	-51.9	-54.4	3.6	0.00e+00	0	38	104	0	60	88742
2026-01-01 06:26:47.49	50.24	7.22	-51.9	-54.4	3.6	0.00e+00	0	38	104	0	60	88630
2026-01-01 06:26:48.50	50.04	7.26	-52.0	-54.4	3.6	0.00e+00	0	38	104	0	60	88967
2026-01-01 06:26:49.51	49.83	7.30	-52.0	-54.4	3.6	0.00e+00	0	38	104	0	60	88994
2026-01-01 06:26:50.52	49.62	7.33	-51.9	-54.4	3.6	0.00e+00	0	38	104	0	60	88578
2026-01-01 06:26:51.53	49.41	7.37	-52.0	-54.4	3.6	0.00e+00	0	38	104	0	60	88750
2026-01-01 06:26:52.54	49.20	7.40	-51.9	-54.4	3.6	0.00e+00	0	38	104	0	60	89001
2026-01-01 06:26:53.55	48.99	7.44	-51.9	-54.4	3.6	0.00e+00	0	38	104	0	60	88574
2026-01-01 06:26:54.56	48.78	7.47	-52.0	-54.4	3.6	0.00e+00	0	38	104	0	60	88586
2026-01-01 06:26:55.58	48.57	7.50	-52.0	-54.4	3.6	0.00e+00	0	38	104	0	60	88755
2026-01-01 06:26:56.59	48.36	7.54	-52.0	-54.4	3.6	0.00e+00	0	38	104	0	60	88785
2026-01-01 06:26:57.60	48.15	7.57	-52.0	-54.4	3.6	0.00e+00	0	38	104	0	60	88769
2026-01-01 06:26:58.61	47.93	7.61	-52.0	-54.4	3.6	0.00e+00	0	38	104	0	60	88370
2026-01-01 06:26:59.62	47.72	7.64	-52.0	-54.4	3.6	0.00e+00	0	38	104	0	60	88804
2026-01-01 06:27:00.63	47.50	7.67	-52.0	-54.4	3.6	0.00e+00	0	38	104	0	60	88433
2026-01-01 06:27:01.64	47.29	7.71	-52.0	-54.4	3.5	0.00e+00	0	38	104	0	60	88881
2026-01-01 06:27:02.65	47.07	7.74	-52.0	-54.4	3.6	0.00e+00	0	38	104	0	60	88883
2026-01-01 06:27:03.66	46.86	7.77	-52.0	-54.4	3.5	0.00e+00	0	38	104	0	60	89151
2026-01-01 06:27:04.67	46.64	7.80	-52.0	-54.4	3.6	0.00e+00	0	38	104	0	60	89150
2026-01-01 06:27:05.69	46.42	7.83	-52.0	-54.4	3.6	0.00e+00	0	38	104	0	60	89232
2026-01-01 06:27:06.70	46.20	7.87	-52.0	-54.4	3.6	0.00e+00	0	38	104	0	60	89145
2026-01-01 06:27:07.71	45.99	7.90	-52.0	-54.4	3.6	0.00e+00	0	38	104	0	60	89140
2026-01-01 06:27:08.72	45.77	7.93	-51.9	-54.4	3.6	0.00e+00	0	38	104	0	60	89020
2026-01-01 06:27:09.73	45.55	7.96	-52.0	-54.5	3.6	0.00e+00	0	38	104	0	60	89518
2026-01-01 06:27:10.74	45.33	7.99	-52.0	-54.4	3.6	0.00e+00	0	38	104	0	60	88730
2026-01-01 06:27:11.75	45.11	8.02	-52.0	-54.4	3.6	0.00e+00	0	38	104	0	60	89166
2026-01-01 06:27:12.76	44.88	8.05	-52.0	-54.4	3.6	0.00e+00	0	38	104	0	60	88440
2026-01-01 06:27:13.77	44.66	8.08	-52.0	-54.4	3.6	0.00e+00	0	38	104	0	60	88884
2026-01-01 06:27:14.78	44.44	8.11	-52.0	-54.4	3.6	0.00e+00	0	38	104	0	60	88623
2026-01-01 06:27:15.80	44.22	8.13	-52.0	-54.4	3.6	0.00e+00	0	38	104	0	60	88895
2026-01-01 06:27:16.81	43.99	8.16	-52.0	-54.4	3.6	0.00e+00	0	38	104	0	60	88673
2026-01-01 06:27:17.82	43.77	8.19	-52.0	-54.4	3.6	0.00e+00	0	38	104	0	60	89109
2026-01-01 06:27:18.83	43.54	8.22	-52.0	-54.3	3.5	0.00e+00	0	38	104	0	60	88199
2026-01-01 06:27:19.84	43.32	8.25	-52.0	-54.4	3.6	0.00e+00	0	38	104	0	60	89017
2026-01-01 06:27:20.85	43.09	8.27	-52.0	-54.4	3.6	0.00e+00	0	38	104	0	60	88526
2026-01-01 06:27:21.86	42.87	8.30	-52.0	-54.4	3.6	0.00e+00	0	38	104	0	60	89029
2026-01-01 06:27:22.87	42.64	8.33	-52.0	-54.4	3.6	0.00e+00	0	38	104	0	60	88943
2026-01-01 06:27:23.88	42.41	8.35	-52.0	-54.4	3.6	0.00e+00	0	38	104	0	60	88586
2026-01-01 06:27:24.90	42.18	8.38	-52.0	-54.4	3.6	0.00e+00	0	38	104	0	60	88806
2026-01-01 06:27:25.91	41.96	8.40	-52.0	-54.4	3.6	0.00e+00	0	38	104	0	60	88616
2026-01-01 06:27:26.92	41.73	8.43	-52.0	-54.5	3.6	0.00e+00	0	38	104	0	60	89419
2026-01-01 06:27:27.93	41.50	8.45	-52.0	-54.4	3.6	0.00e+00	0	38	104	0	60	88821
2026-01-01 06:27:28.94	41.27	8.48	-52.0	-54.4	3.6	0.00e+00	0	38	104	0	60	88722
2026-01-01 06:27:29.95	41.04	8.50	-52.0	-54.4	3.6	0.00e+00	0	38	104	0	60	88664
2026-01-01 06:27:30.96	40.81	8.53	-52.0	-54.4	3.6	0.00e+00	0	38	104	0	60	89177
2026-01-01 06:27:31.97	40.58	8.55	-52.0	-54.5	3.6	0.00e+00	0	38	104	0	60	89631
2026-01-01 06:27:32.98	40.35	8.57	-52.0	-54.5	3.6	0.00e+00	0	38	104	0	60	89363
2026-01-01 06:27:33.99	40.11	8.60	-52.0	-54.4	3.6	0.00e+00	0	38	104	0	60	89208
2026-01-01 06:27:35.00	39.88	8.62	-52.0	-54.4	3.6	0.00e+00	0	38	104	0	60	89143
2026-01-01 06:27:36.02	39.65	8.64	-52.0	-54.5	3.6	0.00e+00	0	38	104	0	60	89604
2026-01-01 06:27:37.03	39.41	8.66	-52.0	-54.5	3.6	0.00e+00	0	38	104	0	60	89608
2026-01-01 06:27:38.04	39.18	8.68	-52.0	-54.4	3.6	0.00e+00	0	38	104	0	60	88956
2026-01-01 06:27:39.05	38.95	8.71	-52.0	-54.4	3.6	0.00e+00	0	38	104	0	60	88584
2026-01-01 06:27:40.06	38.71	8.73	-52.0	-54.4	3.6	0.00e+00	0	38	104	0	60	88900
2026-01-01 06:27:41.07	38.48	8.75	-52.0	-54.4	3.6	0.00e+00	0	38	104	0	60	88906
2026-01-01 06:27:42.08	38.24	8.77	-52.0	-54.4	3.6	0.00e+00	0	38	104	0	60	89211
2026-01-01 06:27:43.09	38.01	8.79	-52.0	-54.4	3.6	0.00e+00	0	38	104	0	60	89107
2026-01-01 06:27:44.10	37.77	8.80	-52.0	-54.4	3.5	0.00e+00	0	38	104	0	60	88705
2026-01-01 06:27:45.11	37.53	8.82	-52.0	-54.4	3.6	0.00e+00	0	38	104	0	60	88976
2026-01-01 06:27:46.13	37.29	8.84	-52.0	-54.5	3.6	0.00e+00	0	38	104	0	60	89274
2026-01-01 06:27:47.14	37.06	8.86	-52.0	-54.4	3.6	0.00e+00	0	38	104	0	60	88969
2026-01-01 06:27:48.15	36.82	8.88	-52.0	-54.4	3.6	0.00e+00	0	38	104	0	60	88801
2026-01-01 06:27:49.16	36.58	8.89	-52.0	-54.5	3.6	0.00e+00	0	38	104	0	60	89316
2026-01-01 06:27:50.17	36.34	8.91	-52.0	-54.4	3.6	0.00e+00	0	38	104	0	60	89029
2026-01-01 06:27:51.18	36.11	8.93	-52.0	-54.4	3.6	0.00e+00	0	38	104	0	60	89042
2026-01-01 06:27:52.19	35.87	8.94	-52.0	-54.4	3.6	0.00e+00	0	38	104	0	60	89082
2026-01-01 06:27:53.21	35.63	8.96	-52.0	-54.4	3.6	0.00e+00	0	38	104	0	60	88843
2026-01-01 06:27:54.22	35.39	8.97	-52.0	-54.5	3.6	0.00e+00	0	38	104	0	60	89285
2026-01-01 06:27:55.23	35.15	8.99	-52.0	-54.4	3.6	0.00e+00	0	38	104	0	60	89142
2026-01-01 06:27:56.24	34.91	9.00	-52.0	-54.4	3.6	0.00e+00	0	38	104	0	60	88511
2026-01-01 06:27:57.25	34.67	9.02	-52.0	-54.4	3.6	0.00e+00	0	38	104	0	60	88802
2026-01-01 06:27:58.26	34.43	9.03	-52.0	-54.4	3.6	0.00e+00	0	38	104	0	60	89075
2026-01-01 06:27:59.27	34.19	9.05	-52.0	-54.4	3.6	0.00e+00	0	38	104	0	60	88412
2026-01-01 06:28:00.28	33.94	9.06	-52.0	-54.4	3.6	0.00e+00	0	38	104	0	60	88993
2026-01-01 06:28:01.30	33.70	9.07	-52.0	-54.4	3.6	0.00e+00	0	38	104	0	60	89019
2026-01-01 06:28:02.31	33.46	9.08	-52.0	-54.4	3.6	0.00e+00	0	38	104	0	60	88819
2026-01-01 06:28:03.32	33.22	9.09	-52.0	-54.4	3.6	0.00e+00	0	38	104	0	60	88705
2026-01-01 06:28:04.33	32.98	9.11	-52.0	-54.4	3.6	0.00e+00	0	38	104	0	60	89122
2026-01-01 06:28:05.34	32.73	9.12	-52.0	-54.5	3.6	0.00e+00	0	38	104	0	60	89988
2026-01-01 06:28:06.35	32.49	9.13	-52.0	-54.4	3.6	0.00e+00	0	38	104	0	60	88510
2026-01-01 06:28:07.36	32.25	9.14	-52.0	-54.4	3.6	0.00e+00	0	38	104	0	60	88956
2026-01-01 06:28:08.37	32.00	9.15	-52.0	-54.4	3.6	0.00e+00	0	38	104	0	60	89157
2026-01-01 06:28:09.38	31.76	9.16	-52.0	-54.4	3.6	0.00e+00	0	38	104	0	60	89121
2026-01-01 06:28:10.40	31.52	9.16	-52.0	-54.4	3.6	0.00e+00	0	38	104	0	60	88889
2026-01-01 06:28:11.41	31.27	9.17	-52.0	-54.4	3.6	0.00e+00	0	38	104	0	60	89051
2026-01-01 06:28:12.42	31.03	9.18	-52.0	-54.4	3.5	0.00e+00	0	38	104	0	60	88816
2026-01-01 06:28:13.43	30.79	9.19	-52.0	-54.5	3.6	0.00e+00	0	38	104	0	60	89352
2026-01-01 06:28:14.44	30.54	9.19	-52.0	-54.4	3.6	0.00e+00	0	39	104	0	60	89012
2026-01-01 06:28:15.45	30.30	9.20	-52.0	-54.5	3.6	0.00e+00	0	38	104	0	60	89486
2026-01-01 06:28:16.46	30.05	9.21	-52.0	-54.4	3.6	0.00e+00	0	38	104	0	60	89037
2026-01-01 06:28:17.47	29.81	9.21	-52.0	-54.5	3.6	0.00e+00	0	38	104	0	60	89270
2026-01-01 06:28:18.48	29.56	9.22	-52.0	-54.4	3.6	0.00e+00	0	39	104	0	60	88747
2026-01-01 06:28:19.49	29.32	9.22	-52.0	-54.4	3.6	0.00e+00	0	39	104	0	60	89204
2026-01-01 06:28:20.50	29.08	9.23	-52.0	-54.4	3.6	0.00e+00	0	38	104	0	60	88949
2026-01-01 06:28:21.51	28.83	9.23	-52.0	-54.4	3.6	0.00e+00	0	38	104	0	60	89200
2026-01-01 06:28:22.52	28.59	9.24	-52.0	-54.4	3.6	0.00e+00	0	38	104	0	60	88937
2026-01-01 06:28:23.54	28.34	9.24	-52.0	-54.4	3.6	0.00e+00	0	38	104	0	60	88804
2026-01-01 06:28:24.55	28.09	9.24	-52.0	-54.5	3.6	0.00e+00	0	39	104	0	60	89347
2026-01-01 06:28:25.56	27.85	9.24	-52.0	-54.4	3.6	0.00e+00	0	38	104	0	60	88895
2026-01-01 06:28:26.57	27.60	9.25	-52.0	-54.4	3.6	0.00e+00	0	39	104	0	60	88944
2026-01-01 06:28:27.58	27.36	9.25	-52.0	-54.4	3.6	0.00e+00	0	39	104	0	60	88854
2026-01-01 06:28:28.59	27.11	9.25	-52.0	-54.4	3.6	0.00e+00	0	39	104	0	60	89080
2026-01-01 06:28:29.60	26.87	9.25	-52.0	-54.4	3.6	0.00e+00	0	38	104	0	60	88816
2026-01-01 06:28:30.61	26.62	9.25	-52.0	-54.5	3.6	0.00e+00	0	39	104	0	60	89394
2026-01-01 06:28:31.62	26.38	9.25	-52.0	-54.4	3.6	0.00e+00	0	38	104	0	60	88984
2026-01-01 06:28:32.63	26.13	9.25	-52.0	-54.4	3.6	0.00e+00	0	39	104	0	60	89090
2026-01-01 06:28:33.64	25.89	9.25	-52.0	-54.5	3.6	0.00e+00	0	39	104	0	60	89295
2026-01-01 06:28:34.66	25.64	9.25	-52.0	-54.5	3.6	0.00e+00	0	39	104	0	60	89269
2026-01-01 06:28:35.67	25.40	9.24	-52.0	-54.4	3.6	0.00e+00	0	39	104	0	60	89021
2026-01-01 06:28:36.68	25.15	9.24	-52.0	-54.5	3.6	0.00e+00	0	39	104	0	60	89479
2026-01-01 06:28:37.69	24.91	9.24	-52.0	-54.4	3.6	0.00e+00	0	39	104	0	60	89100
2026-01-01 06:28:38.70	24.66	9.24	-52.0	-54.5	3.6	0.00e+00	0	39	104	0	60	89349
2026-01-01 06:28:39.71	24.42	9.23	-52.0	-54.4	3.6	0.00e+00	0	39	104	0	60	89218
2026-01-01 06:28:40.72	24.17	9.23	-52.0	-54.5	3.6	0.00e+00	0	39	104	0	60	89325
2026-01-01 06:28:41.73	23.93	9.22	-52.0	-54.5	3.5	0.00e+00	0	39	104	0	60	89468
2026-01-01 06:28:42.74	23.68	9.22	-52.0	-54.5	3.6	0.00e+00	0	38	104	0	60	89270
2026-01-01 06:28:43.75	23.44	9.21	-52.0	-54.5	3.6	0.00e+00	0	39	104	0	60	89358
2026-01-01 06:28:44.76	23.19	9.21	-52.0	-54.5	3.6	0.00e+00	0	39	104	0	60	89263
2026-01-01 06:28:45.77	22.95	9.20	-52.0	-54.4	3.6	0.00e+00	0	39	104	0	60	88799
2026-01-01 06:28:46.79	22.70	9.20	-52.0	-54.4	3.6	0.00e+00	0	38	104	0	60	88775
2026-01-01 06:28:47.80	22.46	9.19	-52.0	-54.5	3.6	0.00e+00	0	39	104	0	60	89305
2026-01-01 06:28:48.81	22.22	9.18	-52.0	-54.4	3.6	0.00e+00	0	39	104	0	60	89181
2026-01-01 06:28:49.82	21.97	9.17	-52.0	-54.4	3.6	0.00e+00	0	39	104	0	60	89174
2026-01-01 06:28:50.83	21.73	9.17	-52.0	-54.5	3.6	0.00e+00	0	39	104	0	60	89490
2026-01-01 06:28:51.84	21.49	9.16	-52.0	-54.5	3.6	0.00e+00	0	39	104	0	60	89290
2026-01-01 06:28:52.85	21.24	9.15	-52.0	-54.4	3.6	0.00e+00	0	39	104	0	60	89074
2026-01-01 06:28:53.86	21.00	9.14	-52.0	-54.5	3.6	0.00e+00	0	39	104	0	60	89406
2026-01-01 06:28:54.87	20.76	9.13	-52.0	-54.4	3.6	0.00e+00	0	39	104	0	60	89164
2026-01-01 06:28:55.89	20.51	9.12	-52.0	-54.4	3.6	0.00e+00	0	39	104	0	60	88953
2026-01-01 06:28:56.90	20.27	9.11	-52.0	-54.4	3.6	0.00e+00	0	39	104	0	60	89233
2026-01-01 06:28:57.91	20.03	9.10	-52.0	-54.5	3.6	0.00e+00	0	39	104	0	60	89552
2026-01-01 06:28:58.92	19.79	9.08	-52.0	-54.4	3.6	0.00e+00	0	39	104	0	60	89001
2026-01-01 06:28:59.93	19.54	9.07	-52.0	-54.4	3.6	0.00e+00	0	39	104	0	60	88848
2026-01-01 06:29:00.94	19.30	9.06	-52.0	-54.5	3.6	0.00e+00	0	39	104	0	60	89581
2026-01-01 06:29:01.95	19.06	9.05	-52.0	-54.4	3.6	0.00e+00	0	39	104	0	60	89124
2026-01-01 06:29:02.96	18.82	9.03	-52.0	-54.5	3.6	0.00e+00	0	39	104	0	60	89363
2026-01-01 06:29:03.97	18.58	9.02	-52.0	-54.5	3.6	0.00e+00	0	39	104	0	60	89472
2026-01-01 06:29:04.99	18.34	9.01	-52.0	-54.4	3.6	0.00e+00	0	39	104	0	60	89026
2026-01-01 06:29:06.00	18.10	8.99	-52.0	-54.4	3.6	0.00e+00	0	39	104	0	60	88626
2026-01-01 06:29:07.01	17.86	8.98	-52.0	-54.5	3.6	0.00e+00	0	39	104	0	60	89557
2026-01-01 06:29:08.02	17.62	8.96	-52.0	-54.4	3.6	0.00e+00	0	39	104	0	60	89029
2026-01-01 06:29:09.03	17.38	8.95	-52.0	-54.4	3.6	0.00e+00	0	39	104	0	60	89124
2026-01-01 06:29:10.04	17.14	8.93	-52.0	-54.4	3.6	0.00e+00	0	39	104	0	60	89078
2026-01-01 06:29:11.05	16.90	8.91	-52.0	-54.4	3.6	0.00e+00	0	39	104	0	60	88830
2026-01-01 06:29:12.06	16.66	8.90	-52.0	-54.5	3.6	0.00e+00	0	39	104	0	60	89411
2026-01-01 06:29:13.08	16.42	8.88	-52.0	-54.5	3.6	0.00e+00	0	39	104	0	60	89277
2026-01-01 06:29:14.09	16.19	8.86	-52.0	-54.5	3.6	0.00e+00	0	39	104	0	60	89489
2026-01-01 06:29:15.10	15.95	8.84	-52.0	-54.5	3.6	0.00e+00	0	39	104	0	60	89536
2026-01-01 06:29:16.11	15.71	8.83	-52.0	-54.4	3.6	0.00e+00	0	39	104	0	60	88789
2026-01-01 06:29:17.12	15.48	8.81	-52.0	-54.4	3.6	0.00e+00	0	39	104	0	60	89067
2026-01-01 06:29:18.13	15.24	8.79	-52.0	-54.5	3.6	0.00e+00	0	39	104	0	60	89302
2026-01-01 06:29:19.14	15.01	8.77	-52.0	-54.4	3.6	0.00e+00	0	39	104	0	60	89201
2026-01-01 06:29:20.15	14.77	8.75	-52.0	-54.4	3.6	0.00e+00	0	39	104	0	60	88879
2026-01-01 06:29:21.16	14.54	8.73	-52.0	-54.5	3.6	0.00e+00	0	39	104	0	60	89701
2026-01-01 06:29:22.17	14.30	8.71	-52.0	-54.5	3.6	0.00e+00	0	39	104	0	60	89392
2026-01-01 06:29:23.19	14.07	8.69	-52.0	-54.4	3.6	0.00e+00	0	39	104	0	60	88856
2026-01-01 06:29:24.20	13.83	8.67	-52.0	-54.4	3.6	0.00e+00	0	39	104	0	60	88991
2026-01-01 06:29:25.21	13.60	8.64	-52.0	-54.4	3.6	0.00e+00	0	39	104	0	60	88732
2026-01-01 06:29:26.22	13.37	8.62	-52.0	-54.4	3.6	0.00e+00	0	39	104	0	60	89117
2026-01-01 06:29:27.23	13.13	8.60	-52.0	-54.5	3.6	0.00e+00	0	39	104	0	60	89517
2026-01-01 06:29:28.24	12.90	8.58	-52.0	-54.4	3.6	0.00e+00	0	39	104	0	60	89233
2026-01-01 06:29:29.25	12.67	8.55	-52.0	-54.4	3.6	0.00e+00	0	39	104	0	60	89175
2026-01-01 06:29:30.26	12.44	8.53	-52.0	-54.4	3.6	0.00e+00	0	39	104	0	60	89163
2026-01-01 06:29:31.27	12.21	8.51	-52.0	-54.5	3.6	0.00e+00	0	39	104	0	60	89257
2026-01-01 06:29:32.28	11.98	8.48	-52.0	-54.4	3.6	0.00e+00	0	39	104	0	60	89090
2026-01-01 06:29:33.29	11.75	8.46	-52.0	-54.5	3.6	0.00e+00	0	39	104	0	60	89614
2026-01-01 06:29:34.30	11.52	8.43	-52.0	-54.4	3.6	0.00e+00	0	39	104	0	60	89192
2026-01-01 06:29:35.32	11.29	8.41	-52.0	-54.4	3.6	0.00e+00	0	39	104	0	60	89037
2026-01-01 06:29:36.33	11.06	8.38	-52.0	-54.4	3.6	0.00e+00	0	39	104	0	60	88819
2026-01-01 06:29:37.34	10.83	8.36	-52.0	-54.4	3.6	0.00e+00	0	39	104	0	60	89181
2026-01-01 06:29:38.35	10.61	8.33	-52.0	-54.4	3.6	0.00e+00	0	39	104	0	60	88928
2026-01-01 06:29:39.36	10.38	8.30	-52.0	-54.5	3.6	0.00e+00	0	39	104	0	60	89436
2026-01-01 06:29:40.37	10.16	8.28	-52.0	-54.4	3.6	0.00e+00	0	39	104	0	60	89198
2026-01-01 06:29:41.38	9.93	8.25	-52.0	-54.4	3.6	0.00e+00	0	39	104	0	60	89018
2026-01-01 06:29:42.39	9.70	8.22	-52.0	-54.5	3.6	0.00e+00	0	39	104	0	60	89304
2026-01-01 06:29:43.40	9.48	8.20	-52.0	-54.4	3.6	0.00e+00	0	39	104	0	60	89050
2026-01-01 06:29:44.41	9.26	8.17	-52.0	-54.5	3.6	0.00e+00	0	39	104	0	60	89350
2026-01-01 06:29:45.43	9.03	8.14	-52.0	-54.4	3.6	0.00e+00	0	39	104	0	60	89066
2026-01-01 06:29:46.44	8.81	8.11	-52.0	-54.4	3.6	0.00e+00	0	39	104	0	60	88665
2026-01-01 06:29:47.45	8.59	8.08	-52.0	-54.4	3.6	0.00e+00	0	39	104	0	60	88701
2026-01-01 06:29:48.46	8.36	8.05	-52.0	-54.5	3.6	0.00e+00	0	39	104	0	60	89315
2026-01-01 06:29:49.47	8.14	8.02	-52.0	-54.5	3.6	0.00e+00	0	39	104	0	60	89254
2026-01-01 06:29:50.48	7.92	7.99	-52.0	-54.4	3.6	0.00e+00	0	39	104	0	60	89199
2026-01-01 06:29:51.49	7.70	7.96	-52.0	-54.4	3.6	0.00e+00	0	39	104	0	60	89123
2026-01-01 06:29:52.50	7.48	7.93	-52.0	-54.5	3.6	0.00e+00	0	39	104	0	60	89318
2026-01-01 06:29:53.51	7.26	7.90	-52.0	-54.4	3.5	0.00e+00	0	39	104	0	60	88824
2026-01-01 06:29:54.53	7.04	7.87	-52.0	-54.5	3.6	0.00e+00	0	39	104	0	60	89356
2026-01-01 06:29:55.54	6.83	7.84	-52.0	-54.4	3.6	0.00e+00	0	39	104	0	60	89032
2026-01-01 06:29:56.55	6.61	7.81	-52.0	-54.4	3.6	0.00e+00	0	39	104	0	60	89073
2026-01-01 06:29:57.56	6.39	7.78	-52.0	-54.4	3.6	0.00e+00	0	39	104	0	60	89184
2026-01-01 06:29:58.57	6.18	7.74	-52.0	-54.4	3.6	0.00e+00	0	39	104	0	60	88564
2026-01-01 06:29:59.58	5.96	7.71	-52.0	-54.4	3.6	0.00e+00	0	39	104	0	60	88738
2026-01-01 06:30:00.59	5.75	7.68	-52.0	-54.4	3.6	0.00e+00	0	39	104	0	60	88916
2026-01-01 06:30:01.60	5.53	7.64	-52.0	-54.4	3.6	0.00e+00	0	39	104	0	60	88965
2026-01-01 06:30:02.62	5.32	7.61	-52.0	-54.4	3.6	0.00e+00	0	39	104	0	60	88966
2026-01-01 06:30:03.63	5.10	7.58	-52.0	-54.4	3.6	0.00e+00	0	39	104	0	60	88981
2026-01-01 06:30:04.64	4.89	7.54	-52.0	-54.5	3.6	0.00e+00	0	39	104	0	60	89377
2026-01-01 06:30:05.65	4.68	7.51	-52.0	-54.5	3.6	0.00e+00	0	39	104	0	60	89654
2026-01-01 06:30:06.66	4.47	7.48	-52.0	-54.4	3.6	0.00e+00	0	39	104	0	60	89012
2026-01-01 06:30:07.67	4.26	7.44	-52.0	-54.5	3.6	0.00e+00	0	39	104	0	60	89273
2026-01-01 06:30:08.68	4.05	7.41	-52.0	-54.4	3.6	0.00e+00	0	39	104	0	60	89233
2026-01-01 06:30:09.70	3.83	7.37	-52.0	-54.4	3.6	0.00e+00	0	39	104	0	60	88851
2026-01-01 06:30:10.71	3.63	7.34	-52.0	-54.4	3.6	0.00e+00	0	39	104	0	60	89089
2026-01-01 06:30:11.72	3.42	7.30	-52.0	-54.5	3.6	0.00e+00	0	39	104	0	60	89296
2026-01-01 06:30:12.73	3.21	7.26	-52.0	-54.5	3.6	0.00e+00	0	39	104	0	60	89329
2026-01-01 06:30:13.74	3.00	7.23	-52.0	-54.4	3.6	0.00e+00	0	39	104	0	60	88912
2026-01-01 06:30:14.75	2.80	7.19	-52.0	-54.4	3.6	0.00e+00	0	39	104	0	60	88966
2026-01-01 06:30:15.76	2.59	7.16	-52.0	-54.4	3.6	0.00e+00	0	39	104	0	60	89090
2026-01-01 06:30:16.77	2.39	7.12	-52.0	-54.5	3.6	0.00e+00	0	39	104	0	60	89400
2026-01-01 06:30:17.78	2.18	7.08	-52.0	-54.4	3.6	0.00e+00	0	39	104	0	60	89075
2026-01-01 06:30:18.79	1.98	7.05	-52.0	-54.4	3.6	0.00e+00	0	39	104	0	60	89126
2026-01-01 06:30:19.80	1.78	7.01	-52.0	-54.4	3.6	0.00e+00	0	39	104	0	60	89179
2026-01-01 06:30:20.81	1.57	6.97	-52.0	-54.5	3.6	0.00e+00	0	39	104	0	60	89820
2026-01-01 06:30:21.82	1.37	6.93	-52.0	-54.5	3.6	0.00e+00	0	39	104	0	60	89320
2026-01-01 06:30:22.84	1.17	6.89	-52.0	-54.4	3.6	0.00e+00	0	39	104	0	60	88947
2026-01-01 06:30:23.85	0.97	6.86	-52.0	-54.4	3.6	0.00e+00	0	39	104	0	60	88630
2026-01-01 06:30:24.86	0.77	6.82	-52.0	-54.5	3.6	0.00e+00	0	39	104	0	60	89351
2026-01-01 06:30:25.87	0.57	6.78	-52.0	-54.4	3.6	0.00e+00	0	39	104	0	60	88938
2026-01-01 06:30:26.88	0.37	6.74	-52.0	-54.4	3.6	0.00e+00	0	39	104	0	60	88740
2026-01-01 06:30:27.89	0.17	6.70	-52.0	-54.4	3.6	0.00e+00	0	39	104	0	60	89232
2026-01-01 06:30:28.90	359.98	6.66	-52.0	-54.4	3.6	0.00e+00	0	39	104	0	60	89044
2026-01-01 06:30:29.91	359.78	6.62	-52.0	-54.4	3.6	0.00e+00	0	39	104	0	60	89006
2026-01-01 06:30:30.92	359.59	6.58	-52.0	-54.4	3.6	0.00e+00	0	39	104	0	60	88916
2026-01-01 06:30:31.93	359.39	6.54	-52.0	-54.4	3.6	0.00e+00	0	39	104	0	60	89071
2026-01-01 06:30:32.94	359.20	6.50	-52.0	-54.5	3.6	0.00e+00	0	39	104	0	60	89384
2026-01-01 06:30:33.95	359.00	6.46	-52.0	-54.5	3.6	0.00e+00	0	39	104	0	60	89292
2026-01-01 06:30:34.96	358.81	6.42	-52.0	-54.4	3.6	0.00e+00	0	39	104	0	60	88841
2026-01-01 06:30:35.97	358.62	6.38	-52.0	-54.4	3.6	0.00e+00	0	39	104	0	60	89039
2026-01-01 06:30:36.98	358.42	6.34	-52.0	-54.4	3.6	0.00e+00	0	39	104	0	60	89047
2026-01-01 06:30:37.99	358.23	6.30	-52.0	-54.4	3.6	0.00e+00	0	39	104	0	60	88747
2026-01-01 06:30:39.01	358.04	6.26	-52.0	-54.4	3.6	0.00e+00	0	39	104	0	60	89097
2026-01-01 06:30:40.02	357.85	6.22	-52.0	-54.4	3.6	0.00e+00	0	39	104	0	60	89165
2026-01-01 06:30:41.03	357.66	6.18	-52.0	-54.4	3.6	0.00e+00	0	39	104	0	60	89214
2026-01-01 06:30:42.04	357.47	6.14	-52.0	-54.4	3.6	0.00e+00	0	39	104	0	60	88970
2026-01-01 06:30:43.05	357.29	6.10	-52.0	-54.4	3.6	0.00e+00	0	39	104	0	60	89096
2026-01-01 06:30:44.06	357.10	6.05	-52.0	-54.5	3.6	0.00e+00	0	39	104	0	60	89497
2026-01-01 06:30:45.07	356.91	6.01	-52.0	-54.4	3.6	0.00e+00	0	39	104	0	60	88941
2026-01-01 06:30:46.08	356.73	5.97	-52.0	-54.4	3.6	0.00e+00	0	39	104	0	60	88380
2026-01-01 06:30:47.09	356.54	5.93	-52.0	-54.4	3.6	0.00e+00	0	39	104	0	60	88898
2026-01-01 06:30:48.10	356.36	5.88	-52.0	-54.4	3.6	0.00e+00	0	39	104	0	60	89142
2026-01-01 06:30:49.11	356.17	5.84	-52.0	-54.4	3.6	0.00e+00	0	39	104	0	60	89099
2026-01-01 06:30:50.12	355.99	5.80	-52.0	-54.4	3.6	0.00e+00	0	39	104	0	60	88917
2026-01-01 06:30:51.13	355.81	5.76	-52.0	-54.4	3.6	0.00e+00	0	39	104	0	60	88858
2026-01-01 06:30:52.15	355.63	5.71	-52.0	-54.5	3.6	0.00e+00	0	39	104	0	60	89242
2026-01-01 06:30:53.16	355.45	5.67	-52.0	-54.4	3.6	0.00e+00	0	39	104	0	60	89201
2026-01-01 06:30:54.17	355.26	5.63	-52.0	-54.4	3.6	0.00e+00	0	39	104	0	60	89176
2026-01-01 06:30:55.18	355.09	5.58	-52.0	-54.5	3.6	0.00e+00	0	39	104	0	60	89516
2026-01-01 06:30:56.19	354.91	5.54	-52.0	-54.4	3.6	0.00e+00	0	39	104	0	60	88936
2026-01-01 06:30:57.20	354.73	5.50	-52.0	-54.5	3.6	0.00e+00	0	39	104	0	60	89552
2026-01-01 06:30:58.21	354.55	5.45	-52.0	-54.5	3.6	0.00e+00	0	39	104	0	60	89251
2026-01-01 06:30:59.22	354.37	5.41	-52.0	-54.4	3.6	0.00e+00	0	39	104	0	60	89137
2026-01-01 06:31:00.23	354.20	5.37	-52.0	-54.4	3.6	0.00e+00	0	39	104	0	60	89191
2026-01-01 06:31:01.25	354.02	5.32	-52.0	-54.5	3.6	0.00e+00	0	39	104	0	60	89310
2026-01-01 06:31:02.26	353.85	5.28	-52.0	-54.4	3.6	0.00e+00	0	39	104	0	60	88917
2026-01-01 06:31:03.27	353.67	5.23	-52.0	-54.5	3.6	0.00e+00	0	39	104	0	60	89357
2026-01-01 06:31:04.28	353.50	5.19	-52.0	-54.4	3.6	0.00e+00	0	39	104	0	60	88809
2026-01-01 06:31:05.29	353.32	5.14	-52.0	-54.5	3.6	0.00e+00	0	39	104	0	60	89451
2026-01-01 06:31:06.30	353.15	5.10	-52.0	-54.4	3.6	0.00e+00	0	39	104	0	60	89069
2026-01-01 06:31:07.31	352.98	5.05	-52.0	-54.4	3.6	0.00e+00	0	39	104	0	60	89012
2026-01-01 06:31:08.32	352.81	5.01	-52.0	-54.4	3.6	0.00e+00	0	39	104	0	60	89025
2026-01-01 06:31:09.33	352.64	4.96	-52.0	-54.4	3.6	0.00e+00	0	39	104	0	60	89073
2026-01-01 06:31:10.35	352.47	4.92	-52.0	-54.4	3.6	0.00e+00	0	39	104	0	60	88655
2026-01-01 06:31:11.36	352.30	4.87	-52.0	-54.4	3.6	0.00e+00	0	39	104	0	60	89002
2026-01-01 06:31:12.37	352.13	4.83	-52.0	-54.4	3.6	0.00e+00	0	39	104	0	60	88617
2026-01-01 06:31:13.38	351.96	4.78	-52.0	-54.4	3.6	0.00e+00	0	39	104	0	60	88766
2026-01-01 06:31:14.39	351.80	4.74	-52.0	-54.4	3.6	0.00e+00	0	39	104	0	60	89030
2026-01-01 06:31:15.40	351.63	4.69	-52.0	-54.4	3.6	0.00e+00	0	39	104	0	60	89145
2026-01-01 06:31:16.41	351.46	4.65	-52.0	-54.5	3.6	0.00e+00	0	39	104	0	60	89292
2026-01-01 06:31:17.42	351.30	4.60	-52.0	-54.4	3.6	0.00e+00	0	39	104	0	60	88983
2026-01-01 06:31:18.43	351.13	4.56	-52.0	-54.4	3.6	0.00e+00	0	39	104	0	60	88867
2026-01-01 06:31:19.44	350.97	4.51	-52.0	-54.4	3.6	0.00e+00	0	39	104	0	60	89210
2026-01-01 06:31:20.45	350.81	4.46	-52.0	-54.4	3.6	0.00e+00	0	39	104	0	60	88987
2026-01-01 06:31:21.46	350.65	4.42	-52.0	-54.4	3.6	0.00e+00	0	39	104	0	60	88568
2026-01-01 06:31:22.48	350.48	4.37	-52.0	-54.4	3.6	0.00e+00	0	39	104	0	60	88727
2026-01-01 06:31:23.49	350.32	4.33	-52.0	-54.4	3.6	0.00e+00	0	39	104	0	60	89064
2026-01-01 06:31:24.50	350.16	4.28	-52.0	-54.4	3.6	0.00e+00	0	39	104	0	60	88724
2026-01-01 06:31:25.51	350.00	4.23	-52.0	-54.4	3.6	0.00e+00	0	39	104	0	60	88770
2026-01-01 06:31:26.52	349.84	4.19	-52.0	-54.4	3.6	0.00e+00	0	39	104	0	60	89233
2026-01-01 06:31:27.53	349.68	4.14	-52.0	-54.4	3.6	0.00e+00	0	39	104	0	60	89037
2026-01-01 06:31:28.54	349.53	4.09	-52.0	-54.4	3.6	0.00e+00	0	39	104	0	60	88720
2026-01-01 06:31:29.55	349.37	4.05	-52.0	-54.4	3.6	0.00e+00	0	39	104	0	60	88575
2026-01-01 06:31:30.56	349.21	4.00	-52.0	-54.5	3.6	0.00e+00	0	39	104	0	60	89353
2026-01-01 06:31:31.57	349.06	3.95	-52.0	-54.4	3.6	0.00e+00	0	39	104	0	60	89112
2026-01-01 06:31:32.58	348.90	3.91	-52.0	-54.4	3.6	0.00e+00	0	39	104	0	60	88811
2026-01-01 06:31:33.60	348.74	3.86	-52.0	-54.4	3.6	0.00e+00	0	39	104	0	60	88938
2026-01-01 06:31:34.61	348.59	3.81	-52.0	-54.4	3.6	0.00e+00	0	39	104	0	60	89178
2026-01-01 06:31:35.62	348.44	3.77	-52.0	-54.5	3.6	0.00e+00	0	39	104	0	60	89315
2026-01-01 06:31:36.63	348.28	3.72	-52.0	-54.4	3.6	0.00e+00	0	39	104	0	60	89147
2026-01-01 06:31:37.64	348.13	3.67	-52.0	-54.4	3.6	0.00e+00	0	39	104	0	60	88876
2026-01-01 06:31:38.65	347.98	3.63	-52.0	-54.4	3.6	0.00e+00	0	39	104	0	60	89240
2026-01-01 06:31:39.66	347.83	3.58	-52.0	-54.4	3.6	0.00e+00	0	39	104	0	60	88650
2026-01-01 06:31:40.67	347.68	3.53	-52.0	-54.4	3.6	0.00e+00	0	39	104	0	60	88700
2026-01-01 06:31:41.68	347.53	3.48	-52.0	-54.4	3.6	0.00e+00	0	39	104	0	60	88720
2026-01-01 06:31:42.69	347.38	3.44	-52.0	-54.4	3.5	0.00e+00	0	39	104	0	60	88810
2026-01-01 06:31:43.71	347.23	3.39	-52.0	-54.4	3.6	0.00e+00	0	39	104	0	60	88644
2026-01-01 06:31:44.72	347.08	3.34	-52.0	-54.4	3.6	0.00e+00	0	39	104	0	60	88605
2026-01-01 06:31:45.73	346.93	3.29	-52.0	-54.4	3.6	0.00e+00	0	39	104	0	60	88835
2026-01-01 06:31:46.74	346.79	3.25	-52.0	-54.4	3.6	0.00e+00	0	39	104	0	60	89145
2026-01-01 06:31:47.75	346.64	3.20	-52.0	-54.4	3.6	0.00e+00	0	39	104	0	60	89218
2026-01-01 06:31:48.76	346.50	3.15	-52.0	-54.4	3.6	0.00e+00	0	39	104	0	60	89034
2026-01-01 06:31:49.77	346.35	3.10	-52.0	-54.4	3.6	0.00e+00	0	39	104	0	60	88603
2026-01-01 06:31:50.78	346.21	3.06	-52.0	-54.4	3.6	0.00e+00	0	39	104	0	60	88841
2026-01-01 06:31:51.79	346.06	3.01	-52.0	-54.4	3.6	0.00e+00	0	39	104	0	60	89046
2026-01-01 06:31:52.80	345.92	2.96	-52.0	-54.4	3.6	0.00e+00	0	39	104	0	60	88792
2026-01-01 06:31:53.81	345.78	2.91	-52.0	-54.4	3.6	0.00e+00	0	39	104	0	60	88761
2026-01-01 06:31:54.83	345.63	2.86	-52.0	-54.4	3.6	0.00e+00	0	39	104	0	60	88857
2026-01-01 06:31:55.84	345.49	2.82	-52.0	-54.4	3.6	0.00e+00	0	39	104	0	60	88636
2026-01-01 06:31:56.85	345.35	2.77	-52.0	-54.4	3.6	0.00e+00	0	39	104	0	60	88798
2026-01-01 06:31:57.86	345.21	2.72	-52.0	-54.4	3.6	0.00e+00	0	39	104	0	60	88989
2026-01-01 06:31:58.87	345.07	2.67	-52.0	-54.5	3.6	0.00e+00	0	39	104	0	60	89264
2026-01-01 06:31:59.88	344.93	2.63	-52.0	-54.4	3.6	0.00e+00	0	39	104	0	60	89237
2026-01-01 06:32:00.89	344.80	2.58	-52.0	-54.5	3.6	0.00e+00	0	39	104	0	60	89328
2026-01-01 06:32:01.90	344.66	2.53	-52.0	-54.5	3.6	0.00e+00	0	39	104	0	60	89452
2026-01-01 06:32:02.92	344.52	2.48	-52.0	-54.4	3.6	0.00e+00	0	39	104	0	60	89061
2026-01-01 06:32:03.93	344.38	2.43	-52.0	-54.5	3.6	0.00e+00	0	39	104	0	60	89241
2026-01-01 06:32:04.94	344.25	2.39	-52.0	-54.4	3.6	0.00e+00	0	39	104	0	60	89062
2026-01-01 06:32:05.95	344.11	2.34	-52.0	-54.4	3.6	0.00e+00	0	39	104	0	60	89220
2026-01-01 06:32:06.96	343.98	2.29	-52.0	-54.4	3.6	0.00e+00	0	39	104	0	60	89168
2026-01-01 06:32:07.97	343.84	2.24	-52.0	-54.4	3.6	0.00e+00	0	39	104	0	60	89211
2026-01-01 06:32:08.98	343.71	2.19	-52.0	-54.5	3.6	0.00e+00	0	39	104	0	60	89265
2026-01-01 06:32:09.99	343.57	2.15	-52.0	-54.4	3.6	0.00e+00	0	39	104	0	60	88762
2026-01-01 06:32:11.00	343.44	2.10	-52.0	-54.5	3.6	0.00e+00	0	39	104	0	60	89394
2026-01-01 06:32:12.01	343.31	2.05	-52.0	-54.5	3.6	0.00e+00	0	39	104	0	60	89427
2026-01-01 06:32:13.02	343.18	2.00	-52.0	-54.4	3.6	0.00e+00	0	39	104	0	60	89203
2026-01-01 06:32:14.03	343.05	1.95	-52.0	-54.5	3.6	0.00e+00	0	39	104	0	60	89384
2026-01-01 06:32:15.04	342.92	1.90	-52.0	-54.4	3.6	0.00e+00	0	39	104	0	60	89164
2026-01-01 06:32:16.05	342.79	1.86	-52.0	-54.4	3.6	0.00e+00	0	39	104	0	60	89023
2026-01-01 06:32:17.07	342.65	1.81	-52.0	-54.5	3.6	0.00e+00	0	39	104	0	60	89454
2026-01-01 06:32:18.08	342.53	1.76	-52.0	-54.4	3.6	0.00e+00	0	39	104	0	60	89133
2026-01-01 06:32:19.09	342.40	1.71	-52.0	-54.4	3.6	0.00e+00	0	39	104	0	60	88921
2026-01-01 06:32:20.10	342.27	1.66	-52.0	-54.5	3.6	0.00e+00	0	39	104	0	60	89485
2026-01-01 06:32:21.11	342.14	1.61	-52.0	-54.4	3.6	0.00e+00	0	39	104	0	60	88600
2026-01-01 06:32:22.12	342.02	1.57	-52.0	-54.5	3.6	0.00e+00	0	39	104	0	60	89444
2026-01-01 06:32:23.13	341.89	1.52	-52.0	-54.4	3.6	0.00e+00	0	39	104	0	60	88825
2026-01-01 06:32:24.14	341.76	1.47	-52.0	-54.4	3.6	0.00e+00	0	39	104	0	60	89145
2026-01-01 06:32:25.15	341.64	1.42	-52.0	-54.5	3.6	0.00e+00	0	39	104	0	60	89327
2026-01-01 06:32:26.16	341.51	1.37	-52.0	-54.4	3.6	0.00e+00	0	39	104	0	60	88942
2026-01-01 06:32:27.17	341.39	1.33	-52.0	-54.4	3.6	0.00e+00	0	39	104	0	60	88914
2026-01-01 06:32:28.18	341.27	1.28	-52.0	-54.4	3.6	0.00e+00	0	39	104	0	60	89206
2026-01-01 06:32:29.19	341.14	1.23	-52.0	-54.5	3.6	0.00e+00	0	39	104	0	60	89278
2026-01-01 06:32:30.20	341.02	1.18	-52.0	-54.4	3.6	0.00e+00	0	39	104	0	60	89188
2026-01-01 06:32:31.21	340.90	1.13	-52.0	-54.5	3.6	0.00e+00	0	39	104	0	60	89328
2026-01-01 06:32:32.22	340.78	1.08	-52.0	-54.4	3.6	0.00e+00	0	39	104	0	60	89103
2026-01-01 06:32:33.23	340.66	1.04	-52.0	-54.4	3.6	0.00e+00	0	39	104	0	60	89183
2026-01-01 06:32:34.25	340.53	0.99	-52.0	-54.5	3.6	0.00e+00	0	39	104	0	60	89338
2026-01-01 06:32:35.26	340.41	0.94	-52.0	-54.4	3.6	0.00e+00	0	39	104	0	60	88596
2026-01-01 06:32:36.27	340.30	0.89	-52.0	-54.5	3.6	0.00e+00	0	39	104	0	60	89544
2026-01-01 06:32:37.28	340.18	0.84	-52.0	-54.4	3.6	0.00e+00	0	39	104	0	60	88800
2026-01-01 06:32:38.29	340.06	0.79	-52.0	-54.4	3.6	0.00e+00	0	39	104	0	60	89009
2026-01-01 06:32:39.30	339.94	0.75	-52.0	-54.4	3.6	0.00e+00	0	39	104	0	60	88961
2026-01-01 06:32:40.31	339.82	0.70	-52.0	-54.5	3.6	0.00e+00	0	39	104	0	60	89368
2026-01-01 06:32:41.32	339.71	0.65	-52.0	-54.4	3.6	0.00e+00	0	39	104	0	60	88806
2026-01-01 06:32:42.34	339.59	0.60	-52.0	-54.4	3.6	0.00e+00	0	39	104	0	60	88932
2026-01-01 06:32:43.35	339.47	0.55	-52.0	-54.4	3.6	0.00e+00	0	39	104	0	60	89062
2026-01-01 06:32:44.36	339.36	0.50	-52.0	-54.4	3.6	0.00e+00	0	39	104	0	60	88728
2026-01-01 06:32:45.37	339.24	0.46	-52.0	-54.4	3.6	0.00e+00	0	39	104	0	60	89124
2026-01-01 06:32:46.38	339.13	0.41	-52.0	-54.5	3.6	0.00e+00	0	39	104	0	60	89485
2026-01-01 06:32:47.39	339.01	0.36	-52.0	-54.5	3.6	0.00e+00	0	39	104	0	60	89338
2026-01-01 06:32:48.40	338.90	0.31	-52.0	-54.4	3.6	0.00e+00	0	39	104	0	60	89028
2026-01-01 06:32:49.41	338.79	0.26	-52.0	-54.4	3.6	0.00e+00	0	39	104	0	60	89092
2026-01-01 06:32:50.42	338.67	0.22	-52.0	-54.4	3.6	0.00e+00	0	39	104	0	60	89134
2026-01-01 06:32:51.44	338.56	0.17	-52.0	-54.4	3.6	0.00e+00	0	39	104	0	60	88975
2026-01-01 06:32:52.45	338.45	0.12	-52.0	-54.5	3.6	0.00e+00	0	39	104	0	60	89299
2026-01-01 06:32:53.46	338.34	0.07	-52.0	-54.4	3.6	0.00e+00	0	39	104	0	60	89229
2026-01-01 06:32:54.47	338.23	0.02	-52.0	-54.4	3.6	0.00e+00	0	39	104	0	60	89224
2026-01-01 06:32:55.48	338.11	-0.02	-52.0	-54.4	3.6	0.00e+00	0	39	104	0	60	89222
2026-01-01 06:32:56.49	338.01	-0.07	-52.0	-54.5	3.6	0.00e+00	0	39	104	0	60	89318
2026-01-01 06:32:57.50	337.90	-0.12	-52.0	-54.4	3.6	0.00e+00	0	39	104	0	60	88747

#Closed at: 2026-01-01 06:32:57
#Recorded file [0 MB]: D:/lorett/data/35034_260101_092408.dat