passes_logs/2026/01/01/R4.6S_Anadyr_2ch/R4.6S_Anadyr_2ch__20260101_235639_2025-108B_rec.log

#Pass ID: 20260101_235639_2025-108B
#Satellite: 2025-108B
#Configuration: 3PB_600M
#almurnet v.1.7.20251203
#Start time: 2026-01-01 23:56:40

#Version: 2.2.20231116
#Station: R4.6S_Anadyr_2ch
#Location: 177.4865 lon 64.73178 lat
#TLE: 1 64088U 25108B   25351.01672131  .00008460  00000+0  43413-3 0  9994
#TLE: 2 64088  97.4940  63.8579 0011684 285.1423  74.8517 15.16717580 31720

#Time	Az	El	Level	Level2	SNR	BER	BlckErr	Temp	State	Recorded	gain1	gain2
2026-01-01 23:56:40.19	17.54	0.05	-52.0	-53.3	3.4	0.00e+00	0	34	0	0	60	77852
2026-01-01 23:56:41.20	17.53	0.11	-51.8	-54.3	3.6	0.00e+00	0	35	104	0	60	87600
2026-01-01 23:56:42.21	17.52	0.17	-51.9	-54.3	3.6	0.00e+00	0	35	104	0	60	87804
2026-01-01 23:56:43.22	17.51	0.24	-51.8	-54.3	3.6	0.00e+00	0	35	104	0	60	87652
2026-01-01 23:56:44.23	17.50	0.30	-51.8	-54.2	3.6	0.00e+00	0	35	104	0	60	87131
2026-01-01 23:56:45.24	17.49	0.37	-51.9	-54.3	3.6	0.00e+00	0	35	104	0	60	87907
2026-01-01 23:56:46.25	17.49	0.43	-51.8	-54.2	3.6	0.00e+00	0	35	104	0	60	86883
2026-01-01 23:56:47.26	17.48	0.50	-51.9	-54.3	3.6	0.00e+00	0	35	104	0	60	87582
2026-01-01 23:56:48.27	17.47	0.56	-51.8	-54.2	3.6	0.00e+00	0	36	104	0	60	86863
2026-01-01 23:56:49.28	17.46	0.63	-51.8	-54.2	3.6	0.00e+00	0	36	104	0	60	86956
2026-01-01 23:56:50.29	17.45	0.69	-51.8	-54.3	3.6	0.00e+00	0	36	104	0	60	87214
2026-01-01 23:56:51.30	17.44	0.76	-51.8	-54.2	3.6	0.00e+00	0	36	104	0	60	87009
2026-01-01 23:56:52.31	17.43	0.83	-51.8	-54.2	3.6	0.00e+00	0	36	104	0	60	86689
2026-01-01 23:56:53.32	17.43	0.89	-51.8	-54.2	3.6	0.00e+00	0	36	104	0	60	87171
2026-01-01 23:56:54.33	17.42	0.96	-51.8	-54.3	3.6	0.00e+00	0	36	104	0	60	87507
2026-01-01 23:56:55.34	17.41	1.02	-51.8	-54.3	3.6	0.00e+00	0	36	104	0	60	87507
2026-01-01 23:56:56.35	17.40	1.09	-51.8	-54.3	3.6	0.00e+00	0	36	104	0	60	87638
2026-01-01 23:56:57.36	17.39	1.16	-51.8	-54.3	3.6	0.00e+00	0	36	104	0	60	87747
2026-01-01 23:56:58.37	17.38	1.22	-51.8	-54.2	3.6	0.00e+00	0	36	104	0	60	86950
2026-01-01 23:56:59.38	17.37	1.29	-51.9	-54.3	3.6	0.00e+00	0	36	104	0	60	88032
2026-01-01 23:57:00.39	17.36	1.36	-51.8	-54.3	3.6	0.00e+00	0	36	104	0	60	87681
2026-01-01 23:57:01.41	17.35	1.43	-51.8	-54.3	3.6	0.00e+00	0	36	104	0	60	87405
2026-01-01 23:57:02.42	17.34	1.50	-51.9	-54.4	3.6	0.00e+00	0	36	104	0	60	88259
2026-01-01 23:57:03.42	17.33	1.56	-51.9	-54.3	3.6	0.00e+00	0	36	104	0	60	88117
2026-01-01 23:57:04.43	17.32	1.63	-51.9	-54.4	3.6	0.00e+00	0	36	104	0	60	88223
2026-01-01 23:57:05.44	17.31	1.70	-51.8	-54.3	3.6	0.00e+00	0	36	104	0	60	87460
2026-01-01 23:57:06.45	17.30	1.77	-51.9	-54.3	3.5	0.00e+00	0	36	104	0	60	88105
2026-01-01 23:57:07.46	17.29	1.84	-51.8	-54.3	3.6	0.00e+00	0	36	104	0	60	87802
2026-01-01 23:57:08.47	17.28	1.91	-51.8	-54.2	3.6	0.00e+00	0	36	104	0	60	87011
2026-01-01 23:57:09.49	17.27	1.98	-51.8	-54.2	3.6	0.00e+00	0	36	104	0	60	86960
2026-01-01 23:57:10.49	17.26	2.05	-51.8	-54.3	3.6	0.00e+00	0	36	104	0	60	87438
2026-01-01 23:57:11.50	17.25	2.12	-51.8	-54.3	3.6	0.00e+00	0	36	104	0	60	88018
2026-01-01 23:57:12.51	17.24	2.19	-51.8	-54.3	3.6	0.00e+00	0	36	104	0	60	87648
2026-01-01 23:57:13.52	17.23	2.26	-51.8	-54.3	3.6	0.00e+00	0	36	104	0	60	87348
2026-01-01 23:57:14.53	17.22	2.33	-51.8	-54.2	3.6	0.00e+00	0	36	104	0	60	87154
2026-01-01 23:57:15.54	17.21	2.40	-51.8	-54.3	3.6	0.00e+00	0	36	104	0	60	87393
2026-01-01 23:57:16.55	17.20	2.47	-51.8	-54.3	3.6	0.00e+00	0	36	104	0	60	87632
2026-01-01 23:57:17.56	17.19	2.54	-51.8	-54.3	3.6	0.00e+00	0	36	104	0	60	88045
2026-01-01 23:57:18.57	17.18	2.61	-51.8	-54.3	3.6	0.00e+00	0	36	104	0	60	87256
2026-01-01 23:57:19.58	17.17	2.68	-51.8	-54.2	3.6	0.00e+00	0	37	104	0	60	86750
2026-01-01 23:57:20.59	17.15	2.75	-51.8	-54.2	3.6	0.00e+00	0	36	104	0	60	86891
2026-01-01 23:57:21.61	17.14	2.83	-51.8	-54.3	3.6	0.00e+00	0	36	104	0	60	87795
2026-01-01 23:57:22.62	17.13	2.90	-51.8	-54.2	3.6	0.00e+00	0	37	104	0	60	87199
2026-01-01 23:57:23.63	17.12	2.97	-51.8	-54.3	3.6	0.00e+00	0	37	104	0	60	87254
2026-01-01 23:57:24.64	17.11	3.04	-51.8	-54.3	3.6	0.00e+00	0	37	104	0	60	87664
2026-01-01 23:57:25.64	17.10	3.12	-51.8	-54.2	3.6	0.00e+00	0	37	104	0	60	86910
2026-01-01 23:57:26.65	17.09	3.19	-51.8	-54.3	3.6	0.00e+00	0	37	104	0	60	87394
2026-01-01 23:57:27.66	17.07	3.26	-51.8	-54.3	3.6	0.00e+00	0	36	104	0	60	87433
2026-01-01 23:57:28.67	17.06	3.34	-51.8	-54.2	3.6	0.00e+00	0	37	104	0	60	86848
2026-01-01 23:57:29.68	17.05	3.41	-51.8	-54.3	3.6	0.00e+00	0	37	104	0	60	87526
2026-01-01 23:57:30.69	17.04	3.49	-51.8	-54.2	3.6	0.00e+00	0	37	104	0	60	87011
2026-01-01 23:57:31.70	17.02	3.56	-51.8	-54.3	3.6	0.00e+00	0	37	104	0	60	87623
2026-01-01 23:57:32.71	17.01	3.64	-51.8	-54.2	3.6	0.00e+00	0	37	104	0	60	87096
2026-01-01 23:57:33.72	17.00	3.71	-51.8	-54.3	3.6	0.00e+00	0	37	104	0	60	87235
2026-01-01 23:57:34.73	16.99	3.79	-51.8	-54.3	3.6	0.00e+00	0	37	104	0	60	87367
2026-01-01 23:57:35.74	16.97	3.86	-51.8	-54.3	3.6	0.00e+00	0	37	104	0	60	87597
2026-01-01 23:57:36.75	16.96	3.94	-51.8	-54.3	3.6	0.00e+00	0	37	104	0	60	87615
2026-01-01 23:57:37.76	16.95	4.01	-51.8	-54.2	3.6	0.00e+00	0	37	104	0	60	87196
2026-01-01 23:57:38.77	16.94	4.09	-51.8	-54.2	3.6	0.00e+00	0	37	104	0	60	86958
2026-01-01 23:57:39.78	16.92	4.17	-51.8	-54.3	3.6	0.00e+00	0	37	104	0	60	87357
2026-01-01 23:57:40.79	16.91	4.24	-51.8	-54.3	3.6	0.00e+00	0	37	104	0	60	87573
2026-01-01 23:57:41.80	16.90	4.32	-51.8	-54.2	3.6	0.00e+00	0	37	104	0	60	87008
2026-01-01 23:57:42.82	16.88	4.40	-51.8	-54.2	3.6	0.00e+00	0	37	104	0	60	86574
2026-01-01 23:57:43.83	16.87	4.48	-51.8	-54.3	3.6	0.00e+00	0	37	104	0	60	87627
2026-01-01 23:57:44.84	16.85	4.56	-51.9	-54.3	3.6	0.00e+00	0	37	104	0	60	87454
2026-01-01 23:57:45.85	16.84	4.63	-51.8	-54.3	3.6	0.00e+00	0	37	104	0	60	87749
2026-01-01 23:57:46.86	16.83	4.71	-51.8	-54.3	3.6	0.00e+00	0	37	104	0	60	87449
2026-01-01 23:57:47.87	16.81	4.79	-51.8	-54.2	3.6	0.00e+00	0	37	104	0	60	86948
2026-01-01 23:57:48.88	16.80	4.87	-51.8	-54.3	3.6	0.00e+00	0	37	104	0	60	87754
2026-01-01 23:57:49.89	16.78	4.95	-51.8	-54.3	3.6	0.00e+00	0	37	104	0	60	87505
2026-01-01 23:57:50.90	16.77	5.03	-51.8	-54.2	3.6	0.00e+00	0	37	104	0	60	87186
2026-01-01 23:57:51.91	16.76	5.11	-51.8	-54.3	3.6	0.00e+00	0	37	104	0	60	87656
2026-01-01 23:57:52.92	16.74	5.19	-51.8	-54.3	3.6	0.00e+00	0	37	104	0	60	87393
2026-01-01 23:57:53.93	16.73	5.27	-51.9	-54.3	3.6	0.00e+00	0	37	104	0	60	87610
2026-01-01 23:57:54.94	16.71	5.35	-51.9	-54.3	3.6	0.00e+00	0	37	104	0	60	88032
2026-01-01 23:57:55.96	16.69	5.44	-51.9	-54.3	3.6	0.00e+00	0	37	104	0	60	88015
2026-01-01 23:57:56.96	16.68	5.52	-51.8	-54.2	3.6	0.00e+00	0	37	104	0	60	87019
2026-01-01 23:57:57.98	16.66	5.60	-51.9	-54.3	3.6	0.00e+00	0	37	104	0	60	87699
2026-01-01 23:57:58.99	16.65	5.68	-51.9	-54.4	3.6	0.00e+00	0	37	104	0	60	88393
2026-01-01 23:58:00.00	16.63	5.77	-51.9	-54.3	3.6	0.00e+00	0	37	104	0	60	88163
2026-01-01 23:58:01.01	16.62	5.85	-51.8	-54.3	3.6	0.00e+00	0	37	104	0	60	87713
2026-01-01 23:58:02.02	16.60	5.93	-51.8	-54.3	3.6	0.00e+00	0	37	104	0	60	87516
2026-01-01 23:58:03.03	16.58	6.02	-51.8	-54.3	3.6	0.00e+00	0	37	104	0	60	87471
2026-01-01 23:58:04.04	16.57	6.10	-51.8	-54.3	3.6	0.00e+00	0	37	104	0	60	87627
2026-01-01 23:58:05.05	16.55	6.19	-51.8	-54.3	3.6	0.00e+00	0	37	104	0	60	87406
2026-01-01 23:58:06.06	16.54	6.27	-51.8	-54.3	3.6	0.00e+00	0	37	104	0	60	87312
2026-01-01 23:58:07.07	16.52	6.36	-51.8	-54.3	3.6	0.00e+00	0	37	104	0	60	87762
2026-01-01 23:58:08.08	16.50	6.44	-51.8	-54.3	3.6	0.00e+00	0	37	104	0	60	87682
2026-01-01 23:58:09.10	16.48	6.53	-51.8	-54.3	3.6	0.00e+00	0	37	104	0	60	87418
2026-01-01 23:58:10.11	16.47	6.62	-51.8	-54.2	3.6	0.00e+00	0	37	104	0	60	87058
2026-01-01 23:58:11.12	16.45	6.70	-51.8	-54.3	3.6	0.00e+00	0	37	104	0	60	88112
2026-01-01 23:58:12.13	16.43	6.79	-51.8	-54.3	3.5	0.00e+00	0	37	104	0	60	87382
2026-01-01 23:58:13.14	16.41	6.88	-51.9	-54.3	3.6	0.00e+00	0	37	104	0	60	87906
2026-01-01 23:58:14.14	16.40	6.97	-51.8	-54.3	3.6	0.00e+00	0	37	104	0	60	87835
2026-01-01 23:58:15.15	16.38	7.05	-51.8	-54.3	3.6	0.00e+00	0	37	104	0	60	87779
2026-01-01 23:58:16.16	16.36	7.14	-51.8	-54.3	3.6	0.00e+00	0	37	104	0	60	87674
2026-01-01 23:58:17.17	16.34	7.23	-51.8	-54.3	3.6	0.00e+00	0	37	104	0	60	87790
2026-01-01 23:58:18.18	16.32	7.32	-52.0	-54.5	3.6	0.00e+00	0	37	104	0	60	89344
2026-01-01 23:58:19.20	16.31	7.41	-51.8	-54.3	3.6	0.00e+00	0	37	104	0	60	87935
2026-01-01 23:58:20.21	16.29	7.50	-51.8	-54.2	3.6	0.00e+00	0	37	104	0	60	87055
2026-01-01 23:58:21.21	16.27	7.59	-51.9	-54.4	3.6	0.00e+00	0	38	104	0	60	88231
2026-01-01 23:58:22.22	16.25	7.69	-51.9	-54.3	3.6	0.00e+00	0	37	104	0	60	87714
2026-01-01 23:58:23.23	16.23	7.78	-51.9	-54.3	3.6	0.00e+00	0	37	104	0	60	87586
2026-01-01 23:58:24.24	16.21	7.87	-51.9	-54.4	3.6	0.00e+00	0	37	104	0	60	88366
2026-01-01 23:58:25.25	16.19	7.96	-51.8	-54.3	3.6	0.00e+00	0	37	104	0	60	87717
2026-01-01 23:58:26.26	16.17	8.06	-51.8	-54.3	3.6	0.00e+00	0	37	104	0	60	87560
2026-01-01 23:58:27.27	16.15	8.15	-51.8	-54.3	3.6	0.00e+00	0	37	104	0	60	87754
2026-01-01 23:58:28.28	16.13	8.24	-51.8	-54.3	3.6	0.00e+00	0	37	104	0	60	87616
2026-01-01 23:58:29.29	16.11	8.34	-51.9	-54.4	3.6	0.00e+00	0	38	104	0	60	88250
2026-01-01 23:58:30.30	16.09	8.43	-51.9	-54.3	3.6	0.00e+00	0	37	104	0	60	87748
2026-01-01 23:58:31.31	16.07	8.53	-51.8	-54.3	3.6	0.00e+00	0	37	104	0	60	87231
2026-01-01 23:58:32.32	16.05	8.62	-51.9	-54.3	3.6	0.00e+00	0	38	104	0	60	87788
2026-01-01 23:58:33.33	16.02	8.72	-51.8	-54.3	3.6	0.00e+00	0	37	104	0	60	87754
2026-01-01 23:58:34.34	16.00	8.82	-51.9	-54.3	3.5	0.00e+00	0	38	104	0	60	87477
2026-01-01 23:58:35.35	15.98	8.91	-51.8	-54.3	3.6	0.00e+00	0	38	104	0	60	87398
2026-01-01 23:58:36.36	15.96	9.01	-51.9	-54.3	3.6	0.00e+00	0	38	104	0	60	87635
2026-01-01 23:58:37.37	15.94	9.11	-51.9	-54.4	3.6	0.00e+00	0	37	104	0	60	88290
2026-01-01 23:58:38.38	15.91	9.21	-51.9	-54.3	3.6	0.00e+00	0	38	104	0	60	88031
2026-01-01 23:58:39.39	15.89	9.31	-51.9	-54.4	3.6	0.00e+00	0	38	104	0	60	88308
2026-01-01 23:58:40.40	15.87	9.41	-51.9	-54.3	3.6	0.00e+00	0	38	104	0	60	87472
2026-01-01 23:58:41.41	15.85	9.51	-51.8	-54.3	3.5	0.00e+00	0	37	104	0	60	87287
2026-01-01 23:58:42.42	15.82	9.61	-51.9	-54.3	3.6	0.00e+00	0	38	104	0	60	87970
2026-01-01 23:58:43.43	15.80	9.71	-51.8	-54.3	3.6	0.00e+00	0	38	104	0	60	87319
2026-01-01 23:58:44.45	15.77	9.81	-51.8	-54.3	3.6	0.00e+00	0	38	104	0	60	87456
2026-01-01 23:58:45.46	15.75	9.92	-51.8	-54.3	3.6	0.00e+00	0	38	104	0	60	87793
2026-01-01 23:58:46.47	15.73	10.02	-51.9	-54.3	3.6	0.00e+00	0	38	104	0	60	87531
2026-01-01 23:58:47.48	15.70	10.12	-51.9	-54.3	3.6	0.00e+00	0	38	104	0	60	87826
2026-01-01 23:58:48.49	15.68	10.23	-51.9	-54.3	3.6	0.00e+00	0	38	104	0	60	87395
2026-01-01 23:58:49.50	15.65	10.33	-51.8	-54.3	3.6	0.00e+00	0	38	104	0	60	87243
2026-01-01 23:58:50.51	15.63	10.44	-51.9	-54.4	3.6	0.00e+00	0	38	104	0	60	88413
2026-01-01 23:58:51.52	15.60	10.54	-51.9	-54.3	3.6	0.00e+00	0	38	104	0	60	87440
2026-01-01 23:58:52.53	15.58	10.65	-51.9	-54.3	3.6	0.00e+00	0	38	104	0	60	87628
2026-01-01 23:58:53.54	15.55	10.76	-51.9	-54.4	3.6	0.00e+00	0	38	104	0	60	88403
2026-01-01 23:58:54.55	15.52	10.86	-51.9	-54.4	3.6	0.00e+00	0	38	104	0	60	88253
2026-01-01 23:58:55.56	15.50	10.97	-51.9	-54.3	3.6	0.00e+00	0	38	104	0	60	88149
2026-01-01 23:58:56.57	15.47	11.08	-51.8	-54.3	3.6	0.00e+00	0	38	104	0	60	87693
2026-01-01 23:58:57.58	15.44	11.19	-51.8	-54.2	3.6	0.00e+00	0	38	104	0	60	86903
2026-01-01 23:58:58.59	15.41	11.30	-51.8	-54.3	3.6	0.00e+00	0	38	104	0	60	87396
2026-01-01 23:58:59.60	15.39	11.41	-51.8	-54.3	3.6	0.00e+00	0	38	104	0	60	87479
2026-01-01 23:59:00.61	15.36	11.52	-51.8	-54.3	3.6	0.00e+00	0	38	104	0	60	87343
2026-01-01 23:59:01.62	15.33	11.64	-51.8	-54.3	3.6	0.00e+00	0	38	104	0	60	87657
2026-01-01 23:59:02.63	15.30	11.75	-51.9	-54.3	3.6	0.00e+00	0	38	104	0	60	88135
2026-01-01 23:59:03.64	15.27	11.86	-51.8	-54.3	3.6	0.00e+00	0	38	104	0	60	88152
2026-01-01 23:59:04.65	15.24	11.98	-51.9	-54.3	3.6	0.00e+00	0	38	104	0	60	88087
2026-01-01 23:59:05.66	15.21	12.09	-51.8	-54.3	3.6	0.00e+00	0	38	104	0	60	87662
2026-01-01 23:59:06.67	15.18	12.21	-51.9	-54.3	3.6	0.00e+00	0	38	104	0	60	87699
2026-01-01 23:59:07.68	15.15	12.32	-51.9	-54.3	3.6	0.00e+00	0	38	104	0	60	87977
2026-01-01 23:59:08.70	15.12	12.44	-51.8	-54.3	3.6	0.00e+00	0	38	104	0	60	87305
2026-01-01 23:59:09.70	15.09	12.56	-51.8	-54.2	3.6	0.00e+00	0	38	104	0	60	87197
2026-01-01 23:59:10.72	15.06	12.68	-51.8	-54.2	3.6	0.00e+00	0	38	104	0	60	87177
2026-01-01 23:59:11.72	15.03	12.79	-51.8	-54.3	3.6	0.00e+00	0	38	104	0	60	87671
2026-01-01 23:59:12.73	15.00	12.91	-51.9	-54.3	3.6	0.00e+00	0	38	104	0	60	87688
2026-01-01 23:59:13.74	14.97	13.04	-51.8	-54.3	3.6	0.00e+00	0	38	104	0	60	88016
2026-01-01 23:59:14.75	14.93	13.16	-51.9	-54.4	3.6	0.00e+00	0	38	104	0	60	88523
2026-01-01 23:59:15.76	14.90	13.28	-51.9	-54.4	3.6	0.00e+00	0	38	104	0	60	88588
2026-01-01 23:59:16.77	14.87	13.40	-51.9	-54.4	3.6	0.00e+00	0	38	104	0	60	88604
2026-01-01 23:59:17.78	14.83	13.53	-51.9	-54.3	3.6	0.00e+00	0	38	104	0	60	88134
2026-01-01 23:59:18.79	14.80	13.65	-51.9	-54.3	3.6	0.00e+00	0	38	104	0	60	88022
2026-01-01 23:59:19.80	14.77	13.78	-51.9	-54.3	3.6	0.00e+00	0	38	104	0	60	88168
2026-01-01 23:59:20.81	14.73	13.90	-51.9	-54.3	3.6	0.00e+00	0	38	104	0	60	87635
2026-01-01 23:59:21.82	14.70	14.03	-51.9	-54.3	3.6	0.00e+00	0	38	104	0	60	87703
2026-01-01 23:59:22.83	14.66	14.16	-51.8	-54.3	3.6	0.00e+00	0	38	104	0	60	87400
2026-01-01 23:59:23.84	14.62	14.29	-51.9	-54.3	3.6	0.00e+00	0	38	104	0	60	87872
2026-01-01 23:59:24.85	14.59	14.42	-51.8	-54.3	3.6	0.00e+00	0	38	104	0	60	87578
2026-01-01 23:59:25.87	14.55	14.55	-51.9	-54.3	3.6	0.00e+00	0	38	104	0	60	88114
2026-01-01 23:59:26.88	14.51	14.68	-51.9	-54.3	3.6	0.00e+00	0	38	104	0	60	88015
2026-01-01 23:59:27.89	14.48	14.81	-51.9	-54.4	3.6	0.00e+00	0	38	104	0	60	88448
2026-01-01 23:59:28.90	14.44	14.94	-51.9	-54.3	3.6	0.00e+00	0	38	104	0	60	88120
2026-01-01 23:59:29.91	14.40	15.08	-51.9	-54.3	3.6	0.00e+00	0	38	104	0	60	88070
2026-01-01 23:59:30.92	14.36	15.21	-51.8	-54.3	3.6	0.00e+00	0	38	104	0	60	87237
2026-01-01 23:59:31.93	14.32	15.35	-51.9	-54.4	3.6	0.00e+00	0	38	104	0	60	88310
2026-01-01 23:59:32.94	14.28	15.49	-51.9	-54.3	3.6	0.00e+00	0	38	104	0	60	87908
2026-01-01 23:59:33.95	14.24	15.62	-51.9	-54.4	3.6	0.00e+00	0	38	104	0	60	88418
2026-01-01 23:59:34.96	14.20	15.76	-51.9	-54.3	3.6	0.00e+00	0	38	104	0	60	88167
2026-01-01 23:59:35.97	14.16	15.90	-51.9	-54.3	3.6	0.00e+00	0	38	104	0	60	87852
2026-01-01 23:59:36.98	14.12	16.04	-51.9	-54.3	3.5	0.00e+00	0	38	104	0	60	88079
2026-01-01 23:59:37.99	14.07	16.19	-51.9	-54.3	3.6	0.00e+00	0	38	104	0	60	88099
2026-01-01 23:59:39.00	14.03	16.33	-51.9	-54.3	3.6	0.00e+00	0	38	104	0	60	87947
2026-01-01 23:59:40.01	13.99	16.47	-51.9	-54.4	3.6	0.00e+00	0	38	104	0	60	88549
2026-01-01 23:59:41.02	13.94	16.62	-51.9	-54.3	3.6	0.00e+00	0	38	104	0	60	88001
2026-01-01 23:59:42.03	13.90	16.77	-51.9	-54.3	3.5	0.00e+00	0	38	104	0	60	88118
2026-01-01 23:59:43.04	13.85	16.91	-51.9	-54.3	3.6	0.00e+00	0	38	104	0	60	88037
2026-01-01 23:59:44.05	13.81	17.06	-51.9	-54.3	3.6	0.00e+00	0	38	104	0	60	87385
2026-01-01 23:59:45.06	13.76	17.21	-51.8	-54.3	3.6	0.00e+00	0	38	104	0	60	87917
2026-01-01 23:59:46.08	13.71	17.36	-51.8	-54.2	3.6	0.00e+00	0	38	104	0	60	87088
2026-01-01 23:59:47.09	13.67	17.52	-51.9	-54.3	3.6	0.00e+00	0	38	104	0	60	87578
2026-01-01 23:59:48.10	13.62	17.67	-51.8	-54.3	3.6	0.00e+00	0	38	104	0	60	87211
2026-01-01 23:59:49.10	13.57	17.82	-51.8	-54.2	3.6	0.00e+00	0	38	104	0	60	86842
2026-01-01 23:59:50.12	13.52	17.98	-51.8	-54.3	3.6	0.00e+00	0	38	104	0	60	87595
2026-01-01 23:59:51.12	13.47	18.13	-51.9	-54.3	3.6	0.00e+00	0	38	104	0	60	87802
2026-01-01 23:59:52.14	13.42	18.29	-51.9	-54.3	3.6	0.00e+00	0	38	104	0	60	87755
2026-01-01 23:59:53.15	13.37	18.45	-51.8	-54.3	3.6	0.00e+00	0	38	104	0	60	87459
2026-01-01 23:59:54.15	13.32	18.61	-51.9	-54.3	3.6	0.00e+00	0	38	104	0	60	87838
2026-01-01 23:59:55.16	13.27	18.77	-51.8	-54.2	3.6	0.00e+00	0	38	104	0	60	87137
2026-01-01 23:59:56.18	13.21	18.94	-51.9	-54.3	3.6	0.00e+00	0	38	104	0	60	88160
2026-01-01 23:59:57.18	13.16	19.10	-51.9	-54.3	3.6	0.00e+00	0	38	104	0	60	88048
2026-01-01 23:59:58.19	13.10	19.27	-51.8	-54.3	3.6	0.00e+00	0	38	104	0	60	87729
2026-01-01 23:59:59.20	13.05	19.43	-51.8	-54.2	3.6	0.00e+00	0	38	104	0	60	87003
2026-01-02 00:00:00.21	12.99	19.60	-51.9	-54.3	3.6	0.00e+00	0	38	104	0	60	88123
2026-01-02 00:00:01.22	12.94	19.77	-51.9	-54.4	3.6	0.00e+00	0	38	104	0	60	88230
2026-01-02 00:00:02.23	12.88	19.94	-51.9	-54.4	3.6	0.00e+00	0	38	104	0	60	88260
2026-01-02 00:00:03.24	12.82	20.12	-51.8	-54.3	3.6	0.00e+00	0	38	104	0	60	87228
2026-01-02 00:00:04.25	12.76	20.29	-51.9	-54.3	3.6	0.00e+00	0	38	104	0	60	87580
2026-01-02 00:00:05.26	12.70	20.47	-51.9	-54.3	3.6	0.00e+00	0	38	104	0	60	87862
2026-01-02 00:00:06.27	12.64	20.64	-51.8	-54.3	3.6	0.00e+00	0	38	104	0	60	87485
2026-01-02 00:00:07.28	12.58	20.82	-51.9	-54.3	3.6	0.00e+00	0	38	104	0	60	87862
2026-01-02 00:00:08.29	12.51	21.00	-51.9	-54.4	3.6	0.00e+00	0	38	104	0	60	88302
2026-01-02 00:00:09.30	12.45	21.19	-51.9	-54.3	3.6	0.00e+00	0	38	104	0	60	88030
2026-01-02 00:00:10.31	12.39	21.37	-52.0	-54.4	3.6	0.00e+00	0	38	104	0	60	88782
2026-01-02 00:00:11.32	12.32	21.56	-51.9	-54.3	3.6	0.00e+00	0	38	104	0	60	87858
2026-01-02 00:00:12.33	12.26	21.74	-51.9	-54.3	3.6	0.00e+00	0	38	104	0	60	87848
2026-01-02 00:00:13.34	12.19	21.93	-51.8	-54.3	3.6	0.00e+00	0	38	104	0	60	87354
2026-01-02 00:00:14.36	12.12	22.12	-51.8	-54.3	3.5	0.00e+00	0	38	104	0	60	87375
2026-01-02 00:00:15.36	12.05	22.31	-51.9	-54.3	3.6	0.00e+00	0	38	104	0	60	87926
2026-01-02 00:00:16.38	11.98	22.51	-51.9	-54.3	3.6	0.00e+00	0	39	104	0	60	87803
2026-01-02 00:00:17.39	11.91	22.70	-51.8	-54.3	3.6	0.00e+00	0	38	104	0	60	87769
2026-01-02 00:00:18.40	11.84	22.90	-51.9	-54.4	3.6	0.00e+00	0	38	104	0	60	88576
2026-01-02 00:00:19.41	11.76	23.10	-51.9	-54.4	3.6	0.00e+00	0	38	104	0	60	88582
2026-01-02 00:00:20.41	11.69	23.30	-51.8	-54.3	3.6	0.00e+00	0	38	104	0	60	87707
2026-01-02 00:00:21.43	11.61	23.50	-51.8	-54.3	3.6	0.00e+00	0	38	104	0	60	87490
2026-01-02 00:00:22.44	11.53	23.71	-51.8	-54.2	3.6	0.00e+00	0	38	104	0	60	87021
2026-01-02 00:00:23.45	11.46	23.92	-51.8	-54.3	3.6	0.00e+00	0	38	104	0	60	87502
2026-01-02 00:00:24.46	11.38	24.12	-51.8	-54.3	3.6	0.00e+00	0	38	104	0	60	87550
2026-01-02 00:00:25.47	11.30	24.34	-51.8	-54.3	3.6	0.00e+00	0	38	104	0	60	87695
2026-01-02 00:00:26.48	11.22	24.55	-51.8	-54.2	3.6	0.00e+00	0	38	104	0	60	87197
2026-01-02 00:00:27.49	11.13	24.76	-51.8	-54.3	3.6	0.00e+00	0	38	104	0	60	87794
2026-01-02 00:00:28.50	11.05	24.98	-51.8	-54.3	3.6	0.00e+00	0	38	104	0	60	87304
2026-01-02 00:00:29.51	10.96	25.20	-51.8	-54.3	3.6	0.00e+00	0	38	104	0	60	87601
2026-01-02 00:00:30.52	10.87	25.42	-51.9	-54.3	3.6	0.00e+00	0	38	104	0	60	88094
2026-01-02 00:00:31.53	10.79	25.64	-51.9	-54.3	3.6	0.00e+00	0	38	104	0	60	88109
2026-01-02 00:00:32.54	10.70	25.87	-51.8	-54.3	3.6	0.00e+00	0	38	104	0	60	87503
2026-01-02 00:00:33.54	10.61	26.09	-51.8	-54.3	3.6	0.00e+00	0	38	104	0	60	87878
2026-01-02 00:00:34.56	10.51	26.33	-51.8	-54.3	3.6	0.00e+00	0	39	104	0	60	87732
2026-01-02 00:00:35.57	10.42	26.56	-51.8	-54.3	3.6	0.00e+00	0	38	104	0	60	87762
2026-01-02 00:00:36.58	10.32	26.79	-51.8	-54.3	3.6	0.00e+00	0	38	104	0	60	87599
2026-01-02 00:00:37.59	10.22	27.03	-51.8	-54.3	3.6	0.00e+00	0	38	104	0	60	87391
2026-01-02 00:00:38.60	10.12	27.27	-51.8	-54.2	3.6	0.00e+00	0	39	104	0	60	87135
2026-01-02 00:00:39.61	10.02	27.51	-51.8	-54.2	3.6	0.00e+00	0	38	104	0	60	87203
2026-01-02 00:00:40.62	9.92	27.75	-51.8	-54.3	3.6	0.00e+00	0	39	104	0	60	88025
2026-01-02 00:00:41.63	9.81	28.00	-51.8	-54.2	3.6	0.00e+00	0	38	104	0	60	87103
2026-01-02 00:00:42.64	9.71	28.25	-51.8	-54.3	3.6	0.00e+00	0	38	104	0	60	87515
2026-01-02 00:00:43.65	9.60	28.50	-51.8	-54.3	3.5	0.00e+00	0	39	104	0	60	87731
2026-01-02 00:00:44.66	9.49	28.76	-51.9	-54.4	3.6	0.00e+00	0	39	104	0	60	88298
2026-01-02 00:00:45.67	9.38	29.01	-51.9	-54.3	3.6	0.00e+00	0	39	104	0	60	88061
2026-01-02 00:00:46.68	9.26	29.27	-51.9	-54.3	3.6	0.00e+00	0	38	104	0	60	88064
2026-01-02 00:00:47.69	9.14	29.54	-51.8	-54.3	3.6	0.00e+00	0	39	104	0	60	87912
2026-01-02 00:00:48.70	9.03	29.80	-51.9	-54.4	3.6	0.00e+00	0	38	104	0	60	88609
2026-01-02 00:00:49.71	8.91	30.07	-51.9	-54.3	3.6	0.00e+00	0	38	104	0	60	87539
2026-01-02 00:00:50.72	8.78	30.34	-51.9	-54.3	3.6	0.00e+00	0	38	104	0	60	87881
2026-01-02 00:00:51.73	8.66	30.62	-51.9	-54.3	3.6	0.00e+00	0	39	104	0	60	87858
2026-01-02 00:00:52.74	8.53	30.89	-51.8	-54.3	3.6	0.00e+00	0	39	104	0	60	87236
2026-01-02 00:00:53.76	8.40	31.17	-51.8	-54.2	3.6	0.00e+00	0	39	104	0	60	87189
2026-01-02 00:00:54.77	8.26	31.46	-51.8	-54.2	3.6	0.00e+00	0	39	104	0	60	87183
2026-01-02 00:00:55.78	8.13	31.74	-51.8	-54.3	3.6	0.00e+00	0	39	104	0	60	87811
2026-01-02 00:00:56.79	7.99	32.03	-51.8	-54.3	3.6	0.00e+00	0	39	104	0	60	87341
2026-01-02 00:00:57.80	7.85	32.32	-51.8	-54.3	3.6	0.00e+00	0	39	104	0	60	87394
2026-01-02 00:00:58.81	7.70	32.62	-51.8	-54.2	3.6	0.00e+00	0	39	104	0	60	86976
2026-01-02 00:00:59.82	7.56	32.92	-51.8	-54.2	3.6	0.00e+00	0	38	104	0	60	86865
2026-01-02 00:01:00.83	7.41	33.22	-51.8	-54.3	3.6	0.00e+00	0	39	104	0	60	87563
2026-01-02 00:01:01.84	7.26	33.52	-51.8	-54.2	3.6	0.00e+00	0	39	104	0	60	87024
2026-01-02 00:01:02.86	7.10	33.84	-51.9	-54.3	3.6	0.00e+00	0	39	104	0	60	87974
2026-01-02 00:01:03.87	6.94	34.15	-51.9	-54.3	3.6	0.00e+00	0	39	104	0	60	87841
2026-01-02 00:01:04.88	6.78	34.46	-51.8	-54.3	3.6	0.00e+00	0	39	104	0	60	87616
2026-01-02 00:01:05.89	6.61	34.78	-51.8	-54.3	3.6	0.00e+00	0	39	104	0	60	87449
2026-01-02 00:01:06.90	6.44	35.10	-51.8	-54.3	3.6	0.00e+00	0	39	104	0	60	87360
2026-01-02 00:01:07.91	6.27	35.43	-51.9	-54.4	3.6	0.00e+00	0	39	104	0	60	88415
2026-01-02 00:01:08.92	6.09	35.76	-51.9	-54.4	3.6	0.00e+00	0	39	104	0	60	88479
2026-01-02 00:01:09.93	5.91	36.09	-51.8	-54.3	3.6	0.00e+00	0	39	104	0	60	87568
2026-01-02 00:01:10.94	5.72	36.43	-51.8	-54.3	3.6	0.00e+00	0	39	104	0	60	87937
2026-01-02 00:01:11.95	5.53	36.77	-51.9	-54.3	3.6	0.00e+00	0	39	104	0	60	88066
2026-01-02 00:01:12.96	5.34	37.11	-51.9	-54.3	3.6	0.00e+00	0	39	104	0	60	88050
2026-01-02 00:01:13.97	5.14	37.46	-51.9	-54.3	3.6	0.00e+00	0	39	104	0	60	88153
2026-01-02 00:01:14.98	4.94	37.81	-51.9	-54.3	3.6	0.00e+00	0	39	104	0	60	87713
2026-01-02 00:01:15.99	4.73	38.17	-51.8	-54.3	3.6	0.00e+00	0	39	104	0	60	87453
2026-01-02 00:01:17.00	4.52	38.53	-51.8	-54.3	3.6	0.00e+00	0	39	104	0	60	87587
2026-01-02 00:01:18.01	4.30	38.89	-51.8	-54.3	3.6	0.00e+00	0	39	104	0	60	87622
2026-01-02 00:01:19.02	4.08	39.26	-51.9	-54.3	3.6	0.00e+00	0	39	104	0	60	88084
2026-01-02 00:01:20.03	3.85	39.63	-51.9	-54.3	3.6	0.00e+00	0	39	104	0	60	88046
2026-01-02 00:01:21.05	3.61	40.01	-52.0	-54.4	3.6	0.00e+00	0	39	104	0	60	88224
2026-01-02 00:01:22.06	3.37	40.39	-51.9	-54.4	3.6	0.00e+00	0	39	104	0	60	88488
2026-01-02 00:01:23.07	3.13	40.77	-51.9	-54.4	3.6	0.00e+00	0	39	104	0	60	88306
2026-01-02 00:01:24.08	2.87	41.16	-51.9	-54.4	3.6	0.00e+00	0	39	104	0	60	88283
2026-01-02 00:01:25.09	2.61	41.55	-51.9	-54.3	3.6	0.00e+00	0	39	104	0	60	88183
2026-01-02 00:01:26.10	2.35	41.95	-51.9	-54.3	3.6	0.00e+00	0	39	104	0	60	87820
2026-01-02 00:01:27.11	2.08	42.35	-51.8	-54.3	3.6	0.00e+00	0	39	104	0	60	87347
2026-01-02 00:01:28.12	1.80	42.75	-51.8	-54.2	3.6	0.00e+00	0	39	104	0	60	87061
2026-01-02 00:01:29.13	1.51	43.16	-51.8	-54.3	3.6	0.00e+00	0	39	104	0	60	87487
2026-01-02 00:01:30.14	1.21	43.57	-51.8	-54.3	3.6	0.00e+00	0	39	104	0	60	87844
2026-01-02 00:01:31.16	0.91	43.99	-51.8	-54.3	3.6	0.00e+00	0	39	104	0	60	87619
2026-01-02 00:01:32.17	0.59	44.42	-51.9	-54.3	3.6	0.00e+00	0	39	104	0	60	88016
2026-01-02 00:01:33.18	0.27	44.84	-51.8	-54.3	3.6	0.00e+00	0	39	104	0	60	87406
2026-01-02 00:01:34.19	359.94	45.27	-51.8	-54.3	3.6	0.00e+00	0	39	104	0	60	87479
2026-01-02 00:01:35.20	359.60	45.70	-51.9	-54.3	3.6	0.00e+00	0	39	104	0	60	88087
2026-01-02 00:01:36.21	359.26	46.14	-51.9	-54.4	3.6	0.00e+00	0	39	104	0	60	88393
2026-01-02 00:01:37.22	358.90	46.58	-51.9	-54.4	3.6	0.00e+00	0	39	104	0	60	88399
2026-01-02 00:01:38.23	358.52	47.03	-51.9	-54.3	3.6	0.00e+00	0	39	104	0	60	87329
2026-01-02 00:01:39.24	358.14	47.48	-51.8	-54.2	3.6	0.00e+00	0	39	104	0	60	87150
2026-01-02 00:01:40.26	357.75	47.94	-51.9	-54.3	3.6	0.00e+00	0	39	104	0	60	88204
2026-01-02 00:01:41.27	357.34	48.39	-51.9	-54.3	3.6	0.00e+00	0	39	104	0	60	87935
2026-01-02 00:01:42.28	356.92	48.85	-51.9	-54.3	3.6	0.00e+00	0	39	104	0	60	88007
2026-01-02 00:01:43.29	356.49	49.32	-51.9	-54.3	3.6	0.00e+00	0	39	104	0	60	88210
2026-01-02 00:01:44.30	356.04	49.79	-51.9	-54.4	3.6	0.00e+00	0	39	104	0	60	88391
2026-01-02 00:01:45.31	355.58	50.26	-51.9	-54.4	3.6	0.00e+00	0	39	104	0	60	88524
2026-01-02 00:01:46.32	355.11	50.74	-51.9	-54.4	3.6	0.00e+00	0	39	104	0	60	88845
2026-01-02 00:01:47.34	354.61	51.22	-51.8	-54.3	3.6	0.00e+00	0	39	104	0	60	87878
2026-01-02 00:01:48.35	354.11	51.70	-51.8	-54.2	3.6	0.00e+00	0	39	104	0	60	87085
2026-01-02 00:01:49.36	353.58	52.19	-51.8	-54.3	3.6	0.00e+00	0	39	104	0	60	87469
2026-01-02 00:01:50.37	353.04	52.67	-51.8	-54.3	3.6	0.00e+00	0	39	104	0	60	87549
2026-01-02 00:01:51.38	352.48	53.16	-51.9	-54.3	3.6	0.00e+00	0	39	104	0	60	87820
2026-01-02 00:01:52.39	351.89	53.66	-51.9	-54.3	3.6	0.00e+00	0	39	104	0	60	87853
2026-01-02 00:01:53.40	351.29	54.15	-51.8	-54.3	3.6	0.00e+00	0	39	104	0	60	88155
2026-01-02 00:01:54.41	350.67	54.65	-51.9	-54.4	3.6	0.00e+00	0	39	104	0	60	88363
2026-01-02 00:01:55.42	350.02	55.15	-51.8	-54.3	3.6	0.00e+00	0	39	104	0	60	87780
2026-01-02 00:01:56.43	349.35	55.65	-51.9	-54.3	3.6	0.00e+00	0	39	104	0	60	87639
2026-01-02 00:01:57.44	348.65	56.15	-51.9	-54.3	3.6	0.00e+00	0	39	104	0	60	88163
2026-01-02 00:01:58.45	347.93	56.65	-51.9	-54.3	3.6	0.00e+00	0	39	104	0	60	87962
2026-01-02 00:01:59.46	347.18	57.15	-51.9	-54.4	3.6	0.00e+00	0	39	104	0	60	88320
2026-01-02 00:02:00.47	346.41	57.66	-51.9	-54.4	3.6	0.00e+00	0	39	104	0	60	88398
2026-01-02 00:02:01.49	345.59	58.16	-51.9	-54.4	3.6	0.00e+00	0	39	104	0	60	88297
2026-01-02 00:02:02.50	344.75	58.67	-51.9	-54.3	3.6	0.00e+00	0	39	104	0	60	87934
2026-01-02 00:02:03.51	343.88	59.17	-51.8	-54.2	3.6	0.00e+00	0	39	104	0	60	86913
2026-01-02 00:02:04.52	342.97	59.66	-51.7	-54.1	3.6	0.00e+00	0	39	104	0	60	86006
2026-01-02 00:02:05.53	342.03	60.16	-51.6	-54.1	3.6	0.00e+00	0	39	104	0	60	85250
2026-01-02 00:02:06.54	341.05	60.65	-51.4	-53.8	3.6	0.00e+00	0	39	104	0	60	83087
2026-01-02 00:02:07.55	340.03	61.14	-51.2	-53.6	3.6	0.00e+00	0	39	104	0	60	80968
2026-01-02 00:02:08.56	338.96	61.63	-51.0	-53.5	3.6	0.00e+00	0	39	104	0	60	80063
2026-01-02 00:02:09.57	337.86	62.11	-50.8	-53.2	3.6	0.00e+00	0	39	104	0	60	77401
2026-01-02 00:02:10.59	336.70	62.59	-50.3	-52.8	3.6	0.00e+00	0	39	104	0	60	73680
2026-01-02 00:02:11.60	335.50	63.06	-50.2	-52.8	3.6	0.00e+00	0	39	104	0	60	73393
2026-01-02 00:02:12.60	334.27	63.51	-50.2	-52.7	3.6	0.00e+00	0	39	104	0	60	73141
2026-01-02 00:02:13.62	332.96	63.97	-50.2	-52.7	3.6	0.00e+00	0	39	104	0	60	73055
2026-01-02 00:02:14.63	331.62	64.41	-50.2	-52.7	3.6	0.00e+00	0	39	104	0	60	72797
2026-01-02 00:02:15.64	330.22	64.84	-50.2	-52.7	3.6	0.00e+00	0	39	104	0	60	72981
2026-01-02 00:02:16.65	328.76	65.26	-50.2	-52.7	3.6	0.00e+00	0	39	104	0	60	72994
2026-01-02 00:02:17.66	327.25	65.67	-50.2	-52.7	3.6	0.00e+00	0	39	104	0	60	73204
2026-01-02 00:02:18.67	325.69	66.07	-50.2	-52.7	3.6	0.00e+00	0	39	104	0	60	73042
2026-01-02 00:02:19.68	324.06	66.45	-50.2	-52.7	3.6	0.00e+00	0	39	104	0	60	72920
2026-01-02 00:02:20.69	322.38	66.81	-50.2	-52.7	3.6	0.00e+00	0	39	104	0	60	72731
2026-01-02 00:02:21.70	320.64	67.16	-50.2	-52.7	3.6	0.00e+00	0	39	104	0	60	72565
2026-01-02 00:02:22.71	318.84	67.49	-50.2	-52.7	3.6	0.00e+00	0	39	104	0	60	73158
2026-01-02 00:02:23.72	316.99	67.80	-50.2	-52.7	3.6	0.00e+00	0	39	104	0	60	73357
2026-01-02 00:02:24.74	315.05	68.09	-50.2	-52.7	3.6	0.00e+00	0	39	104	0	60	73006
2026-01-02 00:02:25.75	313.09	68.36	-50.2	-52.7	3.6	0.00e+00	0	39	104	0	60	73028
2026-01-02 00:02:26.76	311.07	68.60	-50.2	-52.7	3.6	0.00e+00	0	39	104	0	60	72885
2026-01-02 00:02:27.77	309.01	68.82	-50.2	-52.7	3.6	0.00e+00	0	39	104	0	60	72741
2026-01-02 00:02:28.78	306.90	69.01	-50.2	-52.7	3.6	0.00e+00	0	39	104	0	60	72670
2026-01-02 00:02:29.79	304.75	69.18	-50.2	-52.7	3.6	0.00e+00	0	39	104	0	60	72539
2026-01-02 00:02:30.80	302.57	69.32	-50.2	-52.7	3.6	0.00e+00	0	39	104	0	60	72985
2026-01-02 00:02:31.81	300.35	69.43	-50.2	-52.7	3.6	0.00e+00	0	39	104	0	60	72744
2026-01-02 00:02:32.82	298.12	69.51	-50.2	-52.7	3.6	0.00e+00	0	39	104	0	60	72879
2026-01-02 00:02:33.83	295.87	69.56	-50.2	-52.6	3.6	0.00e+00	0	39	104	0	60	72448
2026-01-02 00:02:34.84	293.61	69.59	-50.2	-52.7	3.6	0.00e+00	0	39	104	0	60	73333
2026-01-02 00:02:35.86	291.32	69.58	-50.2	-52.7	3.6	0.00e+00	0	39	104	0	60	72888
2026-01-02 00:02:36.87	289.06	69.55	-50.2	-52.7	3.6	0.00e+00	0	39	104	0	60	72554
2026-01-02 00:02:37.88	286.82	69.48	-50.2	-52.6	3.6	0.00e+00	0	39	104	0	60	72422
2026-01-02 00:02:38.89	284.59	69.39	-50.2	-52.7	3.6	0.00e+00	0	39	104	0	60	72774
2026-01-02 00:02:39.90	282.39	69.27	-50.2	-52.7	3.6	0.00e+00	0	39	104	0	60	73082
2026-01-02 00:02:40.91	280.21	69.12	-50.2	-52.7	3.6	0.00e+00	0	39	104	0	60	72641
2026-01-02 00:02:41.92	278.08	68.94	-50.2	-52.7	3.6	0.00e+00	0	39	104	0	60	72788
2026-01-02 00:02:42.93	275.98	68.73	-50.2	-52.7	3.6	0.00e+00	0	39	104	0	60	72984
2026-01-02 00:02:43.94	273.93	68.51	-50.2	-52.7	3.6	0.00e+00	0	39	104	0	60	73044
2026-01-02 00:02:44.96	271.92	68.25	-50.2	-52.7	3.6	0.00e+00	0	39	104	0	60	72915
2026-01-02 00:02:45.97	269.97	67.97	-50.2	-52.7	3.6	0.00e+00	0	39	104	0	60	73023
2026-01-02 00:02:46.98	268.08	67.68	-50.2	-52.7	3.6	0.00e+00	0	39	104	0	60	72991
2026-01-02 00:02:47.99	266.24	67.36	-50.2	-52.7	3.6	0.00e+00	0	39	104	0	60	72759
2026-01-02 00:02:49.00	264.46	67.02	-50.2	-52.7	3.6	0.00e+00	0	39	104	0	60	72693
2026-01-02 00:02:50.01	262.74	66.67	-50.2	-52.7	3.6	0.00e+00	0	39	104	0	60	72870
2026-01-02 00:02:51.02	261.08	66.29	-50.2	-52.6	3.6	0.00e+00	0	39	104	0	60	72353
2026-01-02 00:02:52.03	259.48	65.91	-50.2	-52.7	3.6	0.00e+00	0	39	104	0	60	72723
2026-01-02 00:02:53.04	257.93	65.51	-50.4	-52.9	3.6	0.00e+00	0	39	104	0	60	74723
2026-01-02 00:02:54.05	256.44	65.09	-50.3	-52.8	3.6	0.00e+00	0	39	104	0	60	73977
2026-01-02 00:02:55.06	255.00	64.66	-50.2	-52.7	3.6	0.00e+00	0	39	104	0	60	73127
2026-01-02 00:02:56.08	253.61	64.22	-50.5	-53.0	3.6	0.00e+00	0	39	104	0	60	75550
2026-01-02 00:02:57.09	252.28	63.77	-50.1	-52.6	3.6	0.00e+00	0	39	104	0	60	72425
2026-01-02 00:02:58.10	251.00	63.31	-50.4	-52.8	3.6	0.00e+00	0	39	104	0	60	73815
2026-01-02 00:02:59.11	249.78	62.85	-50.4	-52.9	3.6	0.00e+00	0	39	104	0	60	74338
2026-01-02 00:03:00.12	248.60	62.38	-50.4	-52.9	3.6	0.00e+00	0	39	104	0	60	74967
2026-01-02 00:03:01.13	247.46	61.90	-50.4	-53.0	3.6	0.00e+00	0	39	104	0	60	75123
2026-01-02 00:03:02.14	246.37	61.41	-50.5	-53.0	3.6	0.00e+00	0	39	104	0	60	75435
2026-01-02 00:03:03.15	245.33	60.92	-50.5	-53.0	3.6	0.00e+00	0	39	104	0	60	75675
2026-01-02 00:03:04.16	244.32	60.43	-50.5	-53.0	3.5	0.00e+00	0	39	104	0	60	75845
2026-01-02 00:03:05.17	243.35	59.93	-50.5	-53.0	3.6	0.00e+00	0	39	104	0	60	75863
2026-01-02 00:03:06.18	242.42	59.44	-50.6	-53.1	3.6	0.00e+00	0	39	104	0	60	76091
2026-01-02 00:03:07.19	241.53	58.93	-50.6	-53.0	3.6	0.00e+00	0	39	104	0	60	75669
2026-01-02 00:03:08.21	240.66	58.43	-50.6	-53.1	3.6	0.00e+00	0	39	104	0	60	76134
2026-01-02 00:03:09.22	239.83	57.92	-50.6	-53.0	3.6	0.00e+00	0	39	104	0	60	75833
2026-01-02 00:03:10.23	239.03	57.42	-50.6	-53.1	3.6	0.00e+00	0	39	104	0	60	76018
2026-01-02 00:03:11.24	238.26	56.91	-50.6	-53.1	3.6	0.00e+00	0	39	104	0	60	76178
2026-01-02 00:03:12.25	237.52	56.41	-50.6	-53.1	3.6	0.00e+00	0	39	104	0	60	76593
2026-01-02 00:03:13.26	236.81	55.90	-50.7	-53.1	3.6	0.00e+00	0	39	104	0	60	76805
2026-01-02 00:03:14.27	236.12	55.40	-50.7	-53.2	3.6	0.00e+00	0	39	104	0	60	77077
2026-01-02 00:03:15.28	235.46	54.90	-50.6	-53.1	3.6	0.00e+00	0	39	104	0	60	76732
2026-01-02 00:03:16.29	234.82	54.40	-50.6	-53.1	3.6	0.00e+00	0	39	104	0	60	76276
2026-01-02 00:03:17.30	234.21	53.90	-50.6	-53.2	3.6	0.00e+00	0	39	104	0	60	76948
2026-01-02 00:03:18.31	233.61	53.40	-50.7	-53.2	3.6	0.00e+00	0	39	104	0	60	77191
2026-01-02 00:03:19.33	233.03	52.90	-50.7	-53.1	3.6	0.00e+00	0	39	104	0	60	76825
2026-01-02 00:03:20.34	232.47	52.41	-50.8	-53.2	3.6	0.00e+00	0	39	104	0	60	77338
2026-01-02 00:03:21.35	231.94	51.92	-50.8	-53.2	3.6	0.00e+00	0	39	104	0	60	77613
2026-01-02 00:03:22.36	231.42	51.43	-50.8	-53.2	3.6	0.00e+00	0	39	104	0	60	77627
2026-01-02 00:03:23.37	230.92	50.95	-50.8	-53.2	3.6	0.00e+00	0	39	104	0	60	77684
2026-01-02 00:03:24.38	230.43	50.47	-50.8	-53.3	3.6	0.00e+00	0	39	104	0	60	77888
2026-01-02 00:03:25.39	229.96	49.99	-50.8	-53.3	3.6	0.00e+00	0	39	104	0	60	77821
2026-01-02 00:03:26.40	229.51	49.52	-50.8	-53.3	3.6	0.00e+00	0	39	104	0	60	78050
2026-01-02 00:03:27.42	229.06	49.04	-50.8	-53.3	3.5	0.00e+00	0	39	104	0	60	78056
2026-01-02 00:03:28.43	228.63	48.58	-50.8	-53.3	3.6	0.00e+00	0	39	104	0	60	77995
2026-01-02 00:03:29.44	228.22	48.11	-50.9	-53.3	3.6	0.00e+00	0	39	104	0	60	77997
2026-01-02 00:03:30.45	227.82	47.66	-50.8	-53.3	3.6	0.00e+00	0	39	104	0	60	78203
2026-01-02 00:03:31.46	227.43	47.20	-50.9	-53.3	3.6	0.00e+00	0	39	104	0	60	78406
2026-01-02 00:03:32.47	227.05	46.75	-50.8	-53.3	3.6	0.00e+00	0	39	104	0	60	77852
2026-01-02 00:03:33.48	226.69	46.30	-50.8	-53.3	3.6	0.00e+00	0	39	104	0	60	78183
2026-01-02 00:03:34.49	226.33	45.86	-50.8	-53.3	3.6	0.00e+00	0	39	104	0	60	78121
2026-01-02 00:03:35.50	225.98	45.42	-50.9	-53.4	3.6	0.00e+00	0	39	104	0	60	78698
2026-01-02 00:03:36.52	225.64	44.99	-50.9	-53.4	3.6	0.00e+00	0	39	104	0	60	78643
2026-01-02 00:03:37.53	225.32	44.56	-50.9	-53.3	3.6	0.00e+00	0	39	104	0	60	78550
2026-01-02 00:03:38.54	225.00	44.13	-50.9	-53.4	3.6	0.00e+00	0	39	104	0	60	78788
2026-01-02 00:03:39.55	224.69	43.71	-42.5	-42.8	5.3	0.00e+00	0	39	104	0	60	23449
2026-01-02 00:03:40.56	224.39	43.29	-42.3	-42.7	5.2	0.00e+00	0	39	104	0	60	22960
2026-01-02 00:03:41.57	224.10	42.88	-42.3	-42.7	5.3	0.00e+00	0	39	104	0	60	22941
2026-01-02 00:03:42.58	223.81	42.47	-42.2	-42.6	5.2	0.00e+00	0	39	104	0	60	22884
2026-01-02 00:03:43.59	223.53	42.06	-42.3	-42.7	5.2	0.00e+00	0	39	104	0	60	23173
2026-01-02 00:03:44.60	223.26	41.66	-42.3	-42.6	5.2	0.00e+00	0	39	104	0	60	22904
2026-01-02 00:03:45.62	223.00	41.26	-42.4	-42.7	5.2	0.00e+00	0	39	104	0	60	23180
2026-01-02 00:03:46.63	222.74	40.87	-42.7	-43.1	5.1	0.00e+00	0	39	104	0	60	24102
2026-01-02 00:03:47.64	222.49	40.48	-42.2	-42.6	5.2	0.00e+00	0	39	104	0	60	22778
2026-01-02 00:03:48.65	222.25	40.10	-42.1	-42.4	5.3	0.00e+00	0	39	104	0	60	22410
2026-01-02 00:03:49.66	222.01	39.72	-42.3	-42.6	5.2	0.00e+00	0	39	104	0	60	22898
2026-01-02 00:03:50.67	221.78	39.34	-42.2	-42.6	5.2	0.00e+00	0	39	104	0	60	22734
2026-01-02 00:03:51.68	221.55	38.97	-42.3	-42.7	5.2	0.00e+00	0	39	104	0	60	23097
2026-01-02 00:03:52.69	221.33	38.60	-42.3	-42.7	5.2	0.00e+00	0	39	104	0	60	22942
2026-01-02 00:03:53.70	221.11	38.24	-42.2	-42.6	5.2	0.00e+00	0	39	104	0	60	22694
2026-01-02 00:03:54.71	220.90	37.88	-42.2	-42.6	5.2	0.00e+00	0	39	104	0	60	22808
2026-01-02 00:03:55.72	220.69	37.52	-42.0	-42.3	5.3	0.00e+00	0	39	104	0	60	22038
2026-01-02 00:03:56.73	220.49	37.17	-42.1	-42.4	5.3	0.00e+00	0	39	104	0	60	22335
2026-01-02 00:03:57.75	220.29	36.82	-42.4	-42.8	5.2	0.00e+00	0	39	104	0	60	23220
2026-01-02 00:03:58.76	220.10	36.47	-41.9	-42.3	5.3	0.00e+00	0	39	104	0	60	22061
2026-01-02 00:03:59.77	219.91	36.13	-42.1	-42.4	5.3	0.00e+00	0	39	104	0	60	22370
2026-01-02 00:04:00.78	219.73	35.79	-42.0	-42.4	5.3	0.00e+00	0	39	104	0	60	22337
2026-01-02 00:04:01.79	219.55	35.46	-42.0	-42.4	5.3	0.00e+00	0	39	104	0	60	22228
2026-01-02 00:04:02.80	219.37	35.13	-42.1	-42.4	5.2	0.00e+00	0	39	104	0	60	22404
2026-01-02 00:04:03.81	219.20	34.80	-42.3	-42.7	5.2	0.00e+00	0	39	104	0	60	22978
2026-01-02 00:04:04.82	219.03	34.48	-42.1	-42.4	5.3	0.00e+00	0	39	104	0	60	22318
2026-01-02 00:04:05.84	218.86	34.16	-42.1	-42.4	5.2	0.00e+00	0	39	104	0	60	22340
2026-01-02 00:04:06.85	218.70	33.84	-42.0	-42.4	5.3	0.00e+00	0	39	104	0	60	22191
2026-01-02 00:04:07.86	218.54	33.53	-42.0	-42.3	5.3	0.00e+00	0	39	104	0	60	22133
2026-01-02 00:04:08.87	218.39	33.22	-42.1	-42.4	5.3	0.00e+00	0	39	104	0	60	22310
2026-01-02 00:04:09.88	218.24	32.92	-42.0	-42.4	5.3	0.00e+00	0	39	104	0	60	22193
2026-01-02 00:04:10.89	218.09	32.62	-42.1	-42.5	5.3	0.00e+00	0	39	104	0	60	22503
2026-01-02 00:04:11.90	217.94	32.32	-42.0	-42.4	5.3	0.00e+00	0	39	104	0	60	22282
2026-01-02 00:04:12.91	217.80	32.02	-42.1	-42.4	5.3	0.00e+00	0	39	104	0	60	22304
2026-01-02 00:04:13.92	217.66	31.73	-42.0	-42.4	5.3	0.00e+00	0	39	104	0	60	22377
2026-01-02 00:04:14.93	217.52	31.44	-42.2	-42.6	5.2	0.00e+00	0	39	104	0	60	22760
2026-01-02 00:04:15.94	217.39	31.15	-42.1	-42.4	5.3	0.00e+00	0	39	104	0	60	22276
2026-01-02 00:04:16.95	217.25	30.87	-42.1	-42.5	5.2	0.00e+00	0	39	104	0	60	22478
2026-01-02 00:04:17.96	217.12	30.59	-42.0	-42.3	5.3	0.00e+00	0	39	104	0	60	22007
2026-01-02 00:04:18.97	217.00	30.31	-42.0	-42.4	5.3	0.00e+00	0	39	104	0	60	22339
2026-01-02 00:04:19.99	216.87	30.04	-42.1	-42.5	5.3	0.00e+00	0	39	104	0	60	22514
2026-01-02 00:04:21.00	216.75	29.77	-42.0	-42.4	5.3	0.00e+00	0	39	104	0	60	22262
2026-01-02 00:04:22.01	216.63	29.50	-42.1	-42.4	5.3	0.00e+00	0	39	104	0	60	22378
2026-01-02 00:04:23.02	216.51	29.23	-42.1	-42.4	5.3	0.00e+00	0	39	104	0	60	22292
2026-01-02 00:04:24.03	216.39	28.97	-42.0	-42.4	5.3	0.00e+00	0	39	104	0	60	22281
2026-01-02 00:04:25.04	216.28	28.71	-42.0	-42.4	5.3	0.00e+00	0	39	104	0	60	22161
2026-01-02 00:04:26.05	216.17	28.45	-42.0	-42.3	5.3	0.00e+00	0	39	104	0	60	22110
2026-01-02 00:04:27.06	216.06	28.20	-42.1	-42.4	5.3	0.00e+00	0	39	104	0	60	22296
2026-01-02 00:04:28.07	215.95	27.94	-42.0	-42.4	5.2	0.00e+00	0	39	104	0	60	22165
2026-01-02 00:04:29.09	215.84	27.69	-42.1	-42.4	5.3	0.00e+00	0	39	104	0	60	22363
2026-01-02 00:04:30.10	215.74	27.45	-42.2	-42.6	5.2	0.00e+00	0	39	104	0	60	22875
2026-01-02 00:04:31.11	215.63	27.20	-42.1	-42.5	5.2	0.00e+00	0	39	104	0	60	22429
2026-01-02 00:04:32.12	215.53	26.96	-42.2	-42.5	5.3	0.00e+00	0	39	104	0	60	22622
2026-01-02 00:04:33.13	215.43	26.72	-42.2	-42.5	5.2	0.00e+00	0	39	104	0	60	22583
2026-01-02 00:04:34.14	215.34	26.48	-42.1	-42.5	5.3	0.00e+00	0	39	104	0	60	22604
2026-01-02 00:04:35.15	215.24	26.25	-42.0	-42.4	5.3	0.00e+00	0	39	104	0	60	22354
2026-01-02 00:04:36.16	215.15	26.02	-42.1	-42.4	5.2	0.00e+00	0	39	104	0	60	22341
2026-01-02 00:04:37.17	215.05	25.78	-41.9	-42.2	5.3	0.00e+00	0	39	104	0	60	21880
2026-01-02 00:04:38.18	214.96	25.56	-42.0	-42.4	5.3	0.00e+00	0	39	104	0	60	22205
2026-01-02 00:04:39.19	214.87	25.33	-42.0	-42.3	5.3	0.00e+00	0	39	104	0	60	22092
2026-01-02 00:04:40.21	214.78	25.11	-41.9	-42.2	5.3	0.00e+00	0	39	104	0	60	21809
2026-01-02 00:04:41.22	214.70	24.88	-42.0	-42.4	5.3	0.00e+00	0	39	104	0	60	22230
2026-01-02 00:04:42.23	214.61	24.67	-42.0	-42.3	5.3	0.00e+00	0	39	104	0	60	22118
2026-01-02 00:04:43.24	214.53	24.45	-41.9	-42.2	5.3	0.00e+00	0	39	104	0	60	21834
2026-01-02 00:04:44.25	214.44	24.23	-42.0	-42.4	5.3	0.00e+00	0	39	104	0	60	22204
2026-01-02 00:04:45.26	214.36	24.02	-41.7	-42.0	5.3	0.00e+00	0	39	104	0	60	21275
2026-01-02 00:04:46.27	214.28	23.81	-41.9	-42.2	5.3	0.00e+00	0	39	104	0	60	21800
2026-01-02 00:04:47.28	214.20	23.60	-42.0	-42.3	5.3	0.00e+00	0	39	104	0	60	22091
2026-01-02 00:04:48.29	214.12	23.39	-41.7	-42.0	5.3	0.00e+00	0	39	104	0	60	21340
2026-01-02 00:04:49.30	214.05	23.19	-41.8	-42.1	5.3	0.00e+00	0	39	104	0	60	21578
2026-01-02 00:04:50.31	213.97	22.99	-41.8	-42.1	5.3	0.00e+00	0	39	104	0	60	21586
2026-01-02 00:04:51.32	213.90	22.79	-41.8	-42.1	5.3	0.00e+00	0	39	104	0	60	21576
2026-01-02 00:04:52.33	213.82	22.59	-41.7	-42.0	5.3	0.00e+00	0	39	104	0	60	21288
2026-01-02 00:04:53.34	213.75	22.39	-41.4	-41.8	5.4	0.00e+00	0	39	104	0	60	20707
2026-01-02 00:04:54.35	213.68	22.19	-41.6	-41.9	5.4	0.00e+00	0	39	104	0	60	21043
2026-01-02 00:04:55.36	213.61	22.00	-41.5	-41.8	5.4	0.00e+00	0	39	104	0	60	20830
2026-01-02 00:04:56.37	213.54	21.81	-41.4	-41.7	5.4	0.00e+00	0	39	104	0	60	20544
2026-01-02 00:04:57.38	213.47	21.62	-41.5	-41.8	5.4	0.00e+00	0	39	104	0	60	20845
2026-01-02 00:04:58.39	213.41	21.43	-41.4	-41.7	5.4	0.00e+00	0	39	104	0	60	20474
2026-01-02 00:04:59.40	213.34	21.24	-41.4	-41.7	5.4	0.00e+00	0	39	104	0	60	20591
2026-01-02 00:05:00.41	213.27	21.06	-41.5	-41.8	5.4	0.00e+00	0	39	104	0	60	20812
2026-01-02 00:05:01.42	213.21	20.87	-41.1	-41.4	5.4	0.00e+00	0	39	104	0	60	19956
2026-01-02 00:05:02.43	213.15	20.69	-41.5	-41.8	5.4	0.00e+00	0	39	104	0	60	20752
2026-01-02 00:05:03.44	213.08	20.51	-41.3	-41.7	5.4	0.00e+00	0	39	104	0	60	20533
2026-01-02 00:05:04.45	213.02	20.33	-41.1	-41.4	5.4	0.00e+00	0	39	104	0	60	19955
2026-01-02 00:05:05.46	212.96	20.15	-41.3	-41.5	5.4	0.00e+00	0	39	104	0	60	20207
2026-01-02 00:05:06.47	212.90	19.98	-41.0	-41.4	5.4	0.00e+00	0	39	104	0	60	19776
2026-01-02 00:05:07.48	212.84	19.80	-41.1	-41.5	5.4	0.00e+00	0	39	104	0	60	20062
2026-01-02 00:05:08.49	212.78	19.63	-41.2	-41.5	5.4	0.00e+00	0	39	104	0	60	20149
2026-01-02 00:05:09.50	212.73	19.46	-41.2	-41.5	5.4	0.00e+00	0	39	104	0	60	20052
2026-01-02 00:05:10.51	212.67	19.29	-41.5	-41.9	5.4	0.00e+00	0	39	104	0	60	20929
2026-01-02 00:05:11.52	212.61	19.12	-41.2	-41.5	5.4	0.00e+00	0	39	104	0	60	20151
2026-01-02 00:05:12.53	212.56	18.95	-41.4	-41.7	5.4	0.00e+00	0	39	104	0	60	20494
2026-01-02 00:05:13.54	212.50	18.79	-41.3	-41.6	5.4	0.00e+00	0	39	104	0	60	20219
2026-01-02 00:05:14.55	212.45	18.62	-41.1	-41.4	5.4	0.00e+00	0	39	104	0	60	19876
2026-01-02 00:05:15.56	212.39	18.46	-41.3	-41.6	5.4	0.00e+00	0	39	104	0	60	20253
2026-01-02 00:05:16.57	212.34	18.30	-41.3	-41.6	5.4	0.00e+00	0	39	104	0	60	20346
2026-01-02 00:05:17.58	212.29	18.13	-41.1	-41.4	5.4	0.00e+00	0	39	104	0	60	19817
2026-01-02 00:05:18.59	212.24	17.98	-41.3	-41.6	5.4	0.00e+00	0	39	104	0	60	20225
2026-01-02 00:05:19.60	212.19	17.82	-41.3	-41.6	5.4	0.00e+00	0	39	104	0	60	20280
2026-01-02 00:05:20.61	212.14	17.66	-41.4	-41.6	5.4	0.00e+00	0	39	104	0	60	20426
2026-01-02 00:05:21.62	212.09	17.50	-41.5	-41.8	5.4	0.00e+00	0	39	104	0	60	20822
2026-01-02 00:05:22.63	212.04	17.35	-41.4	-41.7	5.4	0.00e+00	0	39	104	0	60	20592
2026-01-02 00:05:23.64	211.99	17.20	-41.5	-41.8	5.4	0.00e+00	0	39	104	0	60	20833
2026-01-02 00:05:24.65	211.94	17.05	-41.6	-41.8	5.4	0.00e+00	0	39	104	0	60	20867
2026-01-02 00:05:25.66	211.90	16.89	-41.5	-41.8	5.4	0.00e+00	0	39	104	0	60	20871
2026-01-02 00:05:26.67	211.85	16.74	-41.6	-41.9	5.3	0.00e+00	0	39	104	0	60	21120
2026-01-02 00:05:27.68	211.80	16.60	-41.7	-42.0	5.3	0.00e+00	0	39	104	0	60	21336
2026-01-02 00:05:28.69	211.76	16.45	-41.6	-42.0	5.3	0.00e+00	0	39	104	0	60	21255
2026-01-02 00:05:29.70	211.71	16.30	-41.7	-42.1	5.3	0.00e+00	0	39	104	0	60	21487
2026-01-02 00:05:30.71	211.67	16.16	-41.9	-42.2	5.3	0.00e+00	0	39	104	0	60	21880
2026-01-02 00:05:31.72	211.63	16.01	-41.9	-42.3	5.3	0.00e+00	0	39	104	0	60	21971
2026-01-02 00:05:32.73	211.58	15.87	-41.9	-42.2	5.3	0.00e+00	0	39	104	0	60	21799
2026-01-02 00:05:33.74	211.54	15.73	-41.7	-42.0	5.3	0.00e+00	0	39	104	0	60	21349
2026-01-02 00:05:34.75	211.50	15.59	-41.9	-42.2	5.3	0.00e+00	0	39	104	0	60	21698
2026-01-02 00:05:35.76	211.46	15.45	-41.9	-42.3	5.3	0.00e+00	0	39	104	0	60	22035
2026-01-02 00:05:36.77	211.42	15.31	-41.9	-42.3	5.3	0.00e+00	0	39	104	0	60	21918
2026-01-02 00:05:37.79	211.37	15.17	-41.8	-42.2	5.3	0.00e+00	0	39	104	0	60	21754
2026-01-02 00:05:38.80	211.33	15.03	-41.9	-42.3	5.3	0.00e+00	0	39	104	0	60	21962
2026-01-02 00:05:39.81	211.29	14.89	-41.9	-42.2	5.3	0.00e+00	0	39	104	0	60	21813
2026-01-02 00:05:40.82	211.26	14.76	-41.7	-42.1	5.4	0.00e+00	0	39	104	0	60	21482
2026-01-02 00:05:41.83	211.22	14.62	-41.9	-42.2	5.4	0.00e+00	0	39	104	0	60	21877
2026-01-02 00:05:42.84	211.18	14.49	-41.6	-41.9	5.4	0.00e+00	0	39	104	0	60	21153
2026-01-02 00:05:43.85	211.14	14.36	-42.0	-42.3	5.3	0.00e+00	0	39	104	0	60	22133
2026-01-02 00:05:44.86	211.10	14.23	-41.7	-42.1	5.4	0.00e+00	0	39	104	0	60	21520
2026-01-02 00:05:45.87	211.07	14.10	-41.8	-42.1	5.4	0.00e+00	0	39	104	0	60	21530
2026-01-02 00:05:46.88	211.03	13.97	-42.2	-42.5	5.4	0.00e+00	0	39	104	0	60	22448
2026-01-02 00:05:47.89	210.99	13.84	-41.5	-41.9	5.4	0.00e+00	0	39	104	0	60	20966
2026-01-02 00:05:48.90	210.96	13.71	-41.7	-42.1	5.4	0.00e+00	0	39	104	0	60	21484
2026-01-02 00:05:49.91	210.92	13.58	-41.7	-42.0	5.4	0.00e+00	0	39	104	0	60	21337
2026-01-02 00:05:50.92	210.89	13.46	-41.5	-41.9	5.4	0.00e+00	0	39	104	0	60	21005
2026-01-02 00:05:51.93	210.85	13.33	-41.6	-42.0	5.4	0.00e+00	0	39	104	0	60	21181
2026-01-02 00:05:52.94	210.82	13.21	-41.3	-41.6	5.5	0.00e+00	0	39	104	0	60	20369
2026-01-02 00:05:53.95	210.78	13.08	-41.1	-41.4	5.5	0.00e+00	0	39	104	0	60	19912
2026-01-02 00:05:54.96	210.75	12.96	-41.4	-41.7	5.5	0.00e+00	0	39	104	0	60	20498
2026-01-02 00:05:55.97	210.72	12.84	-41.2	-41.4	5.5	0.00e+00	0	39	104	0	60	19965
2026-01-02 00:05:56.98	210.68	12.72	-41.3	-41.6	5.5	0.00e+00	0	39	104	0	60	20310
2026-01-02 00:05:57.99	210.65	12.59	-41.5	-41.8	5.4	0.00e+00	0	39	104	0	60	20840
2026-01-02 00:05:59.00	210.62	12.47	-41.2	-41.5	5.4	0.00e+00	0	39	104	0	60	19987
2026-01-02 00:06:00.01	210.59	12.36	-41.1	-41.4	5.5	0.00e+00	0	39	104	0	60	19903
2026-01-02 00:06:01.02	210.55	12.24	-41.1	-41.4	5.5	0.00e+00	0	39	104	0	60	19813
2026-01-02 00:06:02.03	210.52	12.12	-41.0	-41.3	5.5	0.00e+00	0	39	104	0	60	19579
2026-01-02 00:06:03.04	210.49	12.00	-41.2	-41.5	5.5	0.00e+00	0	39	104	0	60	20104
2026-01-02 00:06:04.04	210.46	11.89	-41.1	-41.4	5.5	0.00e+00	0	39	104	0	60	19815
2026-01-02 00:06:05.05	210.43	11.77	-41.2	-41.5	5.5	0.00e+00	0	39	104	0	60	19990
2026-01-02 00:06:06.07	210.40	11.66	-41.2	-41.5	5.4	0.00e+00	0	39	104	0	60	20098
2026-01-02 00:06:07.07	210.37	11.54	-41.4	-41.7	5.5	0.00e+00	0	39	104	0	60	20614
2026-01-02 00:06:08.08	210.34	11.43	-41.6	-41.9	5.5	0.00e+00	0	39	104	0	60	21021
2026-01-02 00:06:09.09	210.31	11.32	-41.5	-41.8	5.4	0.00e+00	0	39	104	0	60	20819
2026-01-02 00:06:10.10	210.29	11.20	-41.3	-41.7	5.4	0.00e+00	0	39	104	0	60	20500
2026-01-02 00:06:11.11	210.26	11.09	-41.5	-41.8	5.4	0.00e+00	0	39	104	0	60	20725
2026-01-02 00:06:12.12	210.23	10.98	-41.7	-42.0	5.4	0.00e+00	0	39	104	0	60	21368
2026-01-02 00:06:13.13	210.20	10.87	-41.4	-41.7	5.5	0.00e+00	0	39	104	0	60	20464
2026-01-02 00:06:14.14	210.17	10.76	-41.6	-41.9	5.4	0.00e+00	0	39	104	0	60	21085
2026-01-02 00:06:15.15	210.15	10.65	-41.9	-42.1	5.4	0.00e+00	0	39	104	0	60	21651
2026-01-02 00:06:16.17	210.12	10.54	-41.6	-41.9	5.4	0.00e+00	0	39	104	0	60	20972
2026-01-02 00:06:17.17	210.09	10.44	-41.8	-42.2	5.4	0.00e+00	0	39	104	0	60	21827
2026-01-02 00:06:18.19	210.07	10.33	-41.9	-42.3	5.4	0.00e+00	0	39	104	0	60	21938
2026-01-02 00:06:19.20	210.04	10.22	-42.0	-42.3	5.3	0.00e+00	0	39	104	0	60	21962
2026-01-02 00:06:20.21	210.01	10.12	-42.0	-42.3	5.4	0.00e+00	0	39	104	0	60	22154
2026-01-02 00:06:21.22	209.99	10.01	-41.8	-42.1	5.4	0.00e+00	0	39	104	0	60	21473
2026-01-02 00:06:22.23	209.96	9.91	-42.0	-42.3	5.3	0.00e+00	0	39	104	0	60	22114
2026-01-02 00:06:23.24	209.94	9.80	-42.1	-42.4	5.3	0.00e+00	0	39	104	0	60	22309
2026-01-02 00:06:24.25	209.91	9.70	-41.7	-42.0	5.4	0.00e+00	0	39	104	0	60	21399
2026-01-02 00:06:25.26	209.89	9.59	-42.3	-42.6	5.3	0.00e+00	0	39	104	0	60	22826
2026-01-02 00:06:26.27	209.86	9.49	-42.0	-42.4	5.3	0.00e+00	0	39	104	0	60	22260
2026-01-02 00:06:27.28	209.84	9.39	-42.4	-42.8	5.3	0.00e+00	0	39	104	0	60	23276
2026-01-02 00:06:28.29	209.81	9.29	-42.3	-42.7	5.3	0.00e+00	0	39	104	0	60	23024
2026-01-02 00:06:29.31	209.79	9.19	-42.4	-42.8	5.2	0.00e+00	0	39	104	0	60	23404
2026-01-02 00:06:30.32	209.77	9.09	-42.5	-42.9	5.2	0.00e+00	0	39	104	0	60	23595
2026-01-02 00:06:31.33	209.74	8.99	-43.1	-43.5	5.1	0.00e+00	0	39	104	0	60	25206
2026-01-02 00:06:32.34	209.72	8.89	-43.3	-43.7	5.1	0.00e+00	0	39	104	0	60	25942
2026-01-02 00:06:33.35	209.70	8.79	-43.4	-43.8	5.1	0.00e+00	0	39	104	0	60	26292
2026-01-02 00:06:34.36	209.67	8.69	-43.7	-44.2	5.0	0.00e+00	0	39	104	0	60	27280
2026-01-02 00:06:35.37	209.65	8.59	-43.6	-44.0	5.1	0.00e+00	0	39	104	0	60	26887
2026-01-02 00:06:36.38	209.63	8.49	-43.3	-43.7	5.2	0.00e+00	0	39	104	0	60	25857
2026-01-02 00:06:37.39	209.61	8.40	-43.3	-43.8	5.1	0.00e+00	0	39	104	0	60	26061
2026-01-02 00:06:38.40	209.59	8.30	-43.3	-43.7	5.2	0.00e+00	0	39	104	0	60	25896
2026-01-02 00:06:39.41	209.56	8.20	-43.0	-43.3	5.2	0.00e+00	0	39	104	0	60	24847
2026-01-02 00:06:40.43	209.54	8.11	-43.0	-43.3	5.2	0.00e+00	0	39	104	0	60	24781
2026-01-02 00:06:41.44	209.52	8.01	-42.8	-43.2	5.3	0.00e+00	0	39	104	0	60	24473
2026-01-02 00:06:42.45	209.50	7.92	-43.1	-43.5	5.2	0.00e+00	0	39	104	0	60	25191
2026-01-02 00:06:43.46	209.48	7.82	-42.9	-43.2	5.3	0.00e+00	0	39	104	0	60	24540
2026-01-02 00:06:44.47	209.46	7.73	-42.8	-43.2	5.3	0.00e+00	0	39	104	0	60	24392
2026-01-02 00:06:45.48	209.44	7.64	-43.3	-43.6	5.1	0.00e+00	0	39	104	0	60	25679
2026-01-02 00:06:46.49	209.42	7.55	-43.0	-43.4	5.1	0.00e+00	0	39	104	0	60	24919
2026-01-02 00:06:47.50	209.40	7.45	-43.1	-43.5	5.1	0.00e+00	0	39	104	0	60	25367
2026-01-02 00:06:48.51	209.38	7.36	-43.3	-43.7	5.1	0.00e+00	0	39	104	0	60	25879
2026-01-02 00:06:49.52	209.36	7.27	-43.3	-43.8	5.2	0.00e+00	0	39	104	0	60	26051
2026-01-02 00:06:50.53	209.34	7.18	-43.5	-43.9	5.1	0.00e+00	0	39	104	0	60	26614
2026-01-02 00:06:51.54	209.32	7.09	-43.4	-43.8	5.1	0.00e+00	0	39	104	0	60	26233
2026-01-02 00:06:52.55	209.30	7.00	-43.3	-43.7	5.1	0.00e+00	0	39	104	0	60	25857
2026-01-02 00:06:53.56	209.28	6.91	-43.2	-43.6	5.1	0.00e+00	0	39	104	0	60	25727
2026-01-02 00:06:54.57	209.26	6.82	-43.0	-43.4	5.1	0.00e+00	0	39	104	0	60	24914
2026-01-02 00:06:55.58	209.24	6.73	-42.5	-42.8	5.2	0.00e+00	0	39	104	0	60	23432
2026-01-02 00:06:56.59	209.22	6.64	-42.6	-43.0	5.2	0.00e+00	0	39	104	0	60	23767
2026-01-02 00:06:57.60	209.20	6.55	-42.4	-42.8	5.3	0.00e+00	0	39	104	0	60	23249
2026-01-02 00:06:58.61	209.19	6.47	-42.1	-42.5	5.4	0.00e+00	0	39	104	0	60	22470
2026-01-02 00:06:59.62	209.17	6.38	-42.1	-42.3	5.4	0.00e+00	0	39	104	0	60	22110
2026-01-02 00:07:00.63	209.15	6.29	-42.1	-42.4	5.4	0.00e+00	0	39	104	0	60	22354
2026-01-02 00:07:01.64	209.13	6.20	-42.1	-42.4	5.3	0.00e+00	0	39	104	0	60	22351
2026-01-02 00:07:02.65	209.11	6.12	-42.4	-42.7	5.3	0.00e+00	0	39	104	0	60	23175
2026-01-02 00:07:03.65	209.10	6.03	-42.5	-42.8	5.2	0.00e+00	0	39	104	0	60	23257
2026-01-02 00:07:04.66	209.08	5.95	-43.3	-43.7	5.1	0.00e+00	0	39	104	0	60	25996
2026-01-02 00:07:05.67	209.06	5.86	-43.6	-44.1	5.0	0.00e+00	0	39	104	0	60	27116
2026-01-02 00:07:06.68	209.05	5.78	-43.3	-43.7	5.1	0.00e+00	0	39	104	0	60	25867
2026-01-02 00:07:07.69	209.03	5.69	-43.8	-44.3	5.0	0.00e+00	0	39	104	0	60	27729
2026-01-02 00:07:08.70	209.01	5.61	-43.9	-44.3	5.0	0.00e+00	0	39	104	0	60	27811
2026-01-02 00:07:09.71	209.00	5.53	-43.4	-43.7	5.1	0.00e+00	0	39	104	0	60	26034
2026-01-02 00:07:10.72	208.98	5.44	-43.7	-44.2	5.1	0.00e+00	0	39	104	0	60	27355
2026-01-02 00:07:11.73	208.96	5.36	-43.1	-43.6	5.2	0.00e+00	0	39	104	0	60	25512
2026-01-02 00:07:12.74	208.95	5.28	-43.5	-43.9	5.1	0.00e+00	0	39	104	0	60	26624
2026-01-02 00:07:13.75	208.93	5.19	-42.9	-43.3	5.2	0.00e+00	0	39	104	0	60	24731
2026-01-02 00:07:14.76	208.91	5.11	-43.3	-43.6	5.2	0.00e+00	0	39	104	0	60	25611
2026-01-02 00:07:15.77	208.90	5.03	-43.2	-43.6	5.2	0.00e+00	0	39	104	0	60	25578
2026-01-02 00:07:16.78	208.88	4.95	-43.1	-43.5	5.2	0.00e+00	0	39	104	0	60	25261
2026-01-02 00:07:17.79	208.87	4.87	-42.8	-43.1	5.3	0.00e+00	0	39	104	0	60	24233
2026-01-02 00:07:18.80	208.85	4.79	-42.8	-43.2	5.3	0.00e+00	0	39	104	0	60	24401
2026-01-02 00:07:19.81	208.84	4.71	-42.8	-43.2	5.3	0.00e+00	0	39	104	0	60	24472
2026-01-02 00:07:20.82	208.82	4.63	-42.1	-42.3	5.3	0.00e+00	0	39	104	0	60	22139
2026-01-02 00:07:21.83	208.81	4.55	-41.6	-40.7	8.3	0.00e+00	0	39	0	0	60	18427
2026-01-02 00:07:22.84	208.79	4.47	-41.9	-41.1	7.9	0.00e+00	0	39	0	0	60	19188
2026-01-02 00:07:23.85	208.78	4.39	-41.2	-40.4	8.3	0.00e+00	0	39	0	0	60	17612
2026-01-02 00:07:24.86	208.76	4.31	-41.5	-40.7	8.2	0.00e+00	0	39	0	0	60	18292
2026-01-02 00:07:25.87	208.75	4.23	-41.2	-40.3	8.4	0.00e+00	0	39	0	0	60	17550
2026-01-02 00:07:26.88	208.73	4.15	-41.2	-40.4	8.4	0.00e+00	0	39	0	0	60	17689
2026-01-02 00:07:27.89	208.72	4.07	-41.8	-41.0	8.2	0.00e+00	0	39	0	0	60	18863
2026-01-02 00:07:28.90	208.70	4.00	-41.2	-40.4	8.2	0.00e+00	0	39	0	0	60	17726
2026-01-02 00:07:29.91	208.69	3.92	-41.2	-40.4	8.2	0.00e+00	0	39	0	0	60	17744
2026-01-02 00:07:30.93	208.68	3.84	-41.3	-40.4	8.1	0.00e+00	0	39	0	0	60	17777
2026-01-02 00:07:31.94	208.66	3.76	-41.2	-40.4	8.2	0.00e+00	0	39	0	0	60	17758
2026-01-02 00:07:32.95	208.65	3.69	-41.0	-40.2	8.3	0.00e+00	0	39	0	0	60	17211
2026-01-02 00:07:33.96	208.63	3.61	-41.0	-40.2	8.4	0.00e+00	0	39	0	0	60	17272
2026-01-02 00:07:34.97	208.62	3.54	-41.2	-40.3	8.3	0.00e+00	0	39	0	0	60	17554
2026-01-02 00:07:35.98	208.61	3.46	-40.7	-39.8	8.5	0.00e+00	0	39	0	0	60	16570
2026-01-02 00:07:36.99	208.59	3.38	-41.0	-40.2	8.3	0.00e+00	0	39	0	0	60	17275
2026-01-02 00:07:38.00	208.58	3.31	-41.0	-40.1	8.3	0.00e+00	0	39	0	0	60	17189
2026-01-02 00:07:39.01	208.57	3.23	-40.4	-39.5	8.3	0.00e+00	0	39	0	0	60	15948
2026-01-02 00:07:40.02	208.56	3.16	-40.6	-39.7	8.3	0.00e+00	0	39	0	0	60	16385
2026-01-02 00:07:41.04	208.54	3.08	-40.2	-39.3	8.4	0.00e+00	0	39	0	0	60	15686
2026-01-02 00:07:42.05	208.53	3.01	-40.4	-39.6	8.4	0.00e+00	0	39	0	0	60	16129
2026-01-02 00:07:43.06	208.52	2.94	-40.3	-39.5	8.5	0.00e+00	0	39	0	0	60	15913
2026-01-02 00:07:44.07	208.50	2.86	-39.8	-38.9	8.6	0.00e+00	0	39	0	0	60	14855
2026-01-02 00:07:45.08	208.49	2.79	-39.5	-38.6	8.8	0.00e+00	0	39	0	0	60	14389
2026-01-02 00:07:46.09	208.48	2.72	-39.2	-38.3	8.9	0.00e+00	0	39	0	0	60	13895
2026-01-02 00:07:47.10	208.47	2.64	-39.1	-38.3	8.8	0.00e+00	0	39	0	0	60	13828
2026-01-02 00:07:48.11	208.45	2.57	-38.5	-37.6	8.8	0.00e+00	0	39	0	0	58	14434
2026-01-02 00:07:49.12	208.44	2.50	-38.8	-38.0	8.8	0.00e+00	0	39	0	0	58	14988
2026-01-02 00:07:50.13	208.43	2.43	-38.5	-37.6	8.8	0.00e+00	0	39	0	0	58	14372
2026-01-02 00:07:51.15	208.42	2.35	-38.6	-37.7	8.9	0.00e+00	0	39	0	0	58	14527
2026-01-02 00:07:52.16	208.41	2.28	-38.7	-37.8	8.8	0.00e+00	0	39	0	0	58	14727
2026-01-02 00:07:53.17	208.39	2.21	-38.6	-37.7	8.8	0.00e+00	0	39	0	0	58	14580
2026-01-02 00:07:54.18	208.38	2.14	-39.2	-38.3	8.9	0.00e+00	0	39	0	0	58	15576
2026-01-02 00:07:55.19	208.37	2.07	-39.9	-39.1	9.0	0.00e+00	0	39	0	0	58	17053
2026-01-02 00:07:56.20	208.36	2.00	-40.4	-39.6	8.9	0.00e+00	0	39	0	0	60	16075
2026-01-02 00:07:57.21	208.35	1.93	-40.4	-39.5	8.8	0.00e+00	0	39	0	0	60	15996
2026-01-02 00:07:58.22	208.34	1.86	-40.8	-40.0	10.7	0.00e+00	0	39	0	0	60	16890
2026-01-02 00:07:59.23	208.33	1.79	-40.9	-40.0	10.6	0.00e+00	0	39	0	0	60	16932
2026-01-02 00:08:00.25	208.32	1.72	-40.6	-39.8	11.0	0.00e+00	0	39	0	0	60	16455
2026-01-02 00:08:01.26	208.30	1.65	-40.6	-39.7	11.2	0.00e+00	0	39	0	0	60	16374
2026-01-02 00:08:02.27	208.29	1.58	-39.9	-39.0	11.5	0.00e+00	0	39	0	0	60	15126
2026-01-02 00:08:03.28	208.28	1.51	-39.3	-38.4	11.6	0.00e+00	0	39	0	0	60	14018
2026-01-02 00:08:04.29	208.27	1.44	-39.0	-38.2	11.4	0.00e+00	0	39	0	0	60	13672
2026-01-02 00:08:05.30	208.26	1.37	-39.3	-38.4	11.1	0.00e+00	0	39	0	0	60	14120
2026-01-02 00:08:06.31	208.25	1.30	-39.7	-38.8	11.0	0.00e+00	0	39	0	0	60	14673
2026-01-02 00:08:07.32	208.24	1.23	-39.4	-38.5	11.3	0.00e+00	0	39	0	0	60	14247
2026-01-02 00:08:08.33	208.23	1.16	-39.6	-38.8	11.2	0.00e+00	0	39	0	0	60	14656
2026-01-02 00:08:09.35	208.22	1.10	-39.0	-38.1	11.2	0.00e+00	0	39	0	0	60	13627
2026-01-02 00:08:10.36	208.21	1.03	-39.1	-38.2	11.2	0.00e+00	0	39	0	0	58	15444
2026-01-02 00:08:11.37	208.20	0.96	-39.0	-38.1	11.2	0.00e+00	0	39	0	0	58	15204
2026-01-02 00:08:12.38	208.19	0.89	-39.1	-38.2	11.2	0.00e+00	0	39	0	0	58	15414
2026-01-02 00:08:13.39	208.18	0.83	-38.7	-37.8	11.6	0.00e+00	0	39	0	0	58	14724
2026-01-02 00:08:14.40	208.17	0.76	-38.7	-37.8	11.3	0.00e+00	0	39	0	0	58	14788
2026-01-02 00:08:15.41	208.16	0.69	-38.9	-38.0	11.6	0.00e+00	0	39	0	0	58	15078
2026-01-02 00:08:16.42	208.15	0.63	-38.7	-37.8	11.6	0.00e+00	0	39	0	0	58	14782
2026-01-02 00:08:17.43	208.14	0.56	-39.1	-38.2	11.8	0.00e+00	0	39	0	0	58	15403
2026-01-02 00:08:18.45	208.13	0.49	-38.8	-37.9	11.9	0.00e+00	0	39	0	0	58	14849
2026-01-02 00:08:19.46	208.12	0.43	-38.9	-38.0	12.0	0.00e+00	0	39	0	0	58	15002
2026-01-02 00:08:20.47	208.11	0.36	-38.8	-37.9	12.2	0.00e+00	0	39	0	0	58	14904
2026-01-02 00:08:21.48	208.10	0.30	-38.9	-38.0	12.5	0.00e+00	0	39	0	0	58	15043
2026-01-02 00:08:22.49	208.09	0.23	-38.8	-37.9	12.6	0.00e+00	0	39	0	0	58	14913
2026-01-02 00:08:23.50	208.08	0.16	-38.6	-37.7	12.6	0.00e+00	0	39	0	0	58	14548
2026-01-02 00:08:24.51	208.07	0.10	-38.4	-37.5	12.4	0.00e+00	0	39	0	0	58	14243
2026-01-02 00:08:25.52	208.06	0.03	-38.0	-37.3	12.4	0.00e+00	0	39	0	0	58	13969
2026-01-02 00:08:26.53	208.05	-0.03	-38.0	-37.5	12.2	0.00e+00	0	39	0	0	56	15983
2026-01-02 00:08:27.54	208.04	-0.10	-38.0	-37.6	12.2	0.00e+00	0	39	0	0	56	16100

#Closed at: 2026-01-02 00:08:27
#Recorded file [0 MB]: D:/lorett/data/35034_260102_025640.dat