passes_logs/2026/01/01/R4.6S_Anadyr_2ch/R4.6S_Anadyr_2ch__20260101_001144_2025-108B_rec.log

#Pass ID: 20260101_001144_2025-108B
#Satellite: 2025-108B
#Configuration: 3PB_600M
#almurnet v.1.7.20251203
#Start time: 2026-01-01 00:11:47

#Version: 2.2.20231116
#Station: R4.6S_Anadyr_2ch
#Location: 177.4865 lon 64.73178 lat
#TLE: 1 64088U 25108B   25351.01672131  .00008460  00000+0  43413-3 0  9994
#TLE: 2 64088  97.4940  63.8579 0011684 285.1423  74.8517 15.16717580 31720

#Time	Az	El	Level	Level2	SNR	BER	BlckErr	Temp	State	Recorded	gain1	gain2
2026-01-01 00:11:47.23	17.32	0.18	-51.4	-52.7	3.4	0.00e+00	0	34	0	0	60	73082
2026-01-01 00:11:48.24	17.30	0.24	-51.6	-54.1	3.6	0.00e+00	0	35	104	0	60	85299
2026-01-01 00:11:49.25	17.28	0.31	-51.6	-54.1	3.6	0.00e+00	0	35	104	0	60	85601
2026-01-01 00:11:50.26	17.26	0.37	-51.6	-54.1	3.5	0.00e+00	0	35	104	0	60	85566
2026-01-01 00:11:51.27	17.24	0.43	-51.6	-54.0	3.6	0.00e+00	0	35	104	0	60	84995
2026-01-01 00:11:52.28	17.22	0.50	-51.6	-54.0	3.6	0.00e+00	0	35	104	0	60	84875
2026-01-01 00:11:53.29	17.20	0.56	-51.6	-54.0	3.6	0.00e+00	0	35	104	0	60	85128
2026-01-01 00:11:54.30	17.18	0.63	-51.6	-54.1	3.6	0.00e+00	0	35	104	0	60	85410
2026-01-01 00:11:55.31	17.16	0.69	-51.6	-54.0	3.6	0.00e+00	0	36	104	0	60	85150
2026-01-01 00:11:56.33	17.14	0.76	-51.6	-54.0	3.6	0.00e+00	0	36	104	0	60	85127
2026-01-01 00:11:57.34	17.12	0.83	-51.6	-54.1	3.6	0.00e+00	0	36	104	0	60	85406
2026-01-01 00:11:58.35	17.10	0.89	-51.6	-54.1	3.6	0.00e+00	0	36	104	0	60	85565
2026-01-01 00:11:59.36	17.08	0.96	-51.6	-54.1	3.6	0.00e+00	0	36	104	0	60	85646
2026-01-01 00:12:00.37	17.06	1.02	-51.6	-54.0	3.6	0.00e+00	0	36	104	0	60	84958
2026-01-01 00:12:01.38	17.03	1.09	-51.6	-54.0	3.6	0.00e+00	0	36	104	0	60	85120
2026-01-01 00:12:02.39	17.01	1.16	-51.6	-54.0	3.6	0.00e+00	0	36	104	0	60	85218
2026-01-01 00:12:03.40	16.99	1.22	-51.6	-54.1	3.6	0.00e+00	0	36	104	0	60	85285
2026-01-01 00:12:04.41	16.97	1.29	-51.6	-54.0	3.6	0.00e+00	0	36	104	0	60	85174
2026-01-01 00:12:05.43	16.95	1.36	-51.6	-54.0	3.6	0.00e+00	0	36	104	0	60	85222
2026-01-01 00:12:06.44	16.93	1.42	-51.6	-54.1	3.6	0.00e+00	0	36	104	0	60	85249
2026-01-01 00:12:07.45	16.90	1.49	-51.6	-54.1	3.6	0.00e+00	0	36	104	0	60	85954
2026-01-01 00:12:08.46	16.88	1.56	-51.6	-54.1	3.6	0.00e+00	0	36	104	0	60	85925
2026-01-01 00:12:09.47	16.86	1.63	-51.6	-54.1	3.6	0.00e+00	0	36	104	0	60	85695
2026-01-01 00:12:10.48	16.84	1.70	-51.6	-54.1	3.6	0.00e+00	0	36	104	0	60	86183
2026-01-01 00:12:11.49	16.81	1.76	-51.6	-54.1	3.6	0.00e+00	0	36	104	0	60	85575
2026-01-01 00:12:12.50	16.79	1.83	-51.6	-54.1	3.6	0.00e+00	0	36	104	0	60	85245
2026-01-01 00:12:13.51	16.77	1.90	-51.6	-54.1	3.6	0.00e+00	0	36	104	0	60	85309
2026-01-01 00:12:14.52	16.74	1.97	-51.6	-54.1	3.6	0.00e+00	0	36	104	0	60	85667
2026-01-01 00:12:15.53	16.72	2.04	-51.6	-54.1	3.6	0.00e+00	0	36	104	0	60	85311
2026-01-01 00:12:16.54	16.70	2.11	-51.6	-54.1	3.6	0.00e+00	0	36	104	0	60	85345
2026-01-01 00:12:17.55	16.67	2.18	-51.6	-54.1	3.6	0.00e+00	0	36	104	0	60	85582
2026-01-01 00:12:18.57	16.65	2.25	-51.6	-54.1	3.6	0.00e+00	0	36	104	0	60	85354
2026-01-01 00:12:19.58	16.62	2.32	-51.6	-54.1	3.6	0.00e+00	0	36	104	0	60	85305
2026-01-01 00:12:20.59	16.60	2.39	-51.6	-54.0	3.6	0.00e+00	0	36	104	0	60	85223
2026-01-01 00:12:21.60	16.58	2.46	-51.6	-54.0	3.6	0.00e+00	0	36	104	0	60	84879
2026-01-01 00:12:22.61	16.55	2.53	-51.6	-54.1	3.6	0.00e+00	0	36	104	0	60	85561
2026-01-01 00:12:23.62	16.53	2.60	-51.6	-54.1	3.6	0.00e+00	0	36	104	0	60	85518
2026-01-01 00:12:24.63	16.50	2.67	-51.6	-54.1	3.6	0.00e+00	0	36	104	0	60	85378
2026-01-01 00:12:25.64	16.48	2.74	-51.6	-54.1	3.6	0.00e+00	0	37	104	0	60	86032
2026-01-01 00:12:26.66	16.45	2.81	-51.6	-54.1	3.6	0.00e+00	0	37	104	0	60	85328
2026-01-01 00:12:27.67	16.42	2.89	-51.6	-54.1	3.6	0.00e+00	0	37	104	0	60	85694
2026-01-01 00:12:28.68	16.40	2.96	-51.6	-54.1	3.6	0.00e+00	0	37	104	0	60	85419
2026-01-01 00:12:29.69	16.37	3.03	-51.6	-54.1	3.6	0.00e+00	0	37	104	0	60	85519
2026-01-01 00:12:30.70	16.35	3.10	-51.6	-54.1	3.6	0.00e+00	0	37	104	0	60	85866
2026-01-01 00:12:31.71	16.32	3.18	-51.6	-54.1	3.6	0.00e+00	0	37	104	0	60	85724
2026-01-01 00:12:32.72	16.29	3.25	-51.6	-54.1	3.6	0.00e+00	0	37	104	0	60	85936
2026-01-01 00:12:33.73	16.27	3.32	-51.6	-54.1	3.6	0.00e+00	0	37	104	0	60	85881
2026-01-01 00:12:34.73	16.24	3.39	-51.6	-54.1	3.6	0.00e+00	0	37	104	0	60	85239
2026-01-01 00:12:35.75	16.21	3.47	-51.6	-54.0	3.6	0.00e+00	0	37	104	0	60	85216
2026-01-01 00:12:36.76	16.19	3.54	-51.6	-54.0	3.6	0.00e+00	0	37	104	0	60	85166
2026-01-01 00:12:37.77	16.16	3.62	-51.6	-54.1	3.6	0.00e+00	0	37	104	0	60	85256
2026-01-01 00:12:38.78	16.13	3.69	-51.6	-54.1	3.6	0.00e+00	0	37	104	0	60	85519
2026-01-01 00:12:39.79	16.10	3.77	-51.6	-54.1	3.6	0.00e+00	0	37	104	0	60	85342
2026-01-01 00:12:40.80	16.08	3.84	-51.6	-54.1	3.6	0.00e+00	0	37	104	0	60	85397
2026-01-01 00:12:41.81	16.05	3.92	-51.6	-54.1	3.6	0.00e+00	0	37	104	0	60	85511
2026-01-01 00:12:42.82	16.02	3.99	-51.6	-54.0	3.6	0.00e+00	0	37	104	0	60	85145
2026-01-01 00:12:43.83	15.99	4.07	-51.6	-54.1	3.6	0.00e+00	0	37	104	0	60	85455
2026-01-01 00:12:44.84	15.96	4.14	-51.6	-54.0	3.6	0.00e+00	0	37	104	0	60	85194
2026-01-01 00:12:45.85	15.93	4.22	-51.6	-54.1	3.6	0.00e+00	0	37	104	0	60	85457
2026-01-01 00:12:46.87	15.90	4.30	-51.6	-54.1	3.6	0.00e+00	0	37	104	0	60	85561
2026-01-01 00:12:47.88	15.87	4.37	-51.6	-54.0	3.6	0.00e+00	0	37	104	0	60	85030
2026-01-01 00:12:48.89	15.84	4.45	-51.6	-54.1	3.6	0.00e+00	0	37	104	0	60	85530
2026-01-01 00:12:49.90	15.81	4.53	-51.6	-54.0	3.6	0.00e+00	0	37	104	0	60	85211
2026-01-01 00:12:50.91	15.78	4.61	-51.6	-54.1	3.6	0.00e+00	0	37	104	0	60	85388
2026-01-01 00:12:51.92	15.75	4.68	-51.6	-54.1	3.6	0.00e+00	0	37	104	0	60	85529
2026-01-01 00:12:52.93	15.72	4.76	-51.6	-54.1	3.6	0.00e+00	0	37	104	0	60	85529
2026-01-01 00:12:53.95	15.69	4.84	-51.6	-54.1	3.6	0.00e+00	0	37	104	0	60	85288
2026-01-01 00:12:54.96	15.66	4.92	-51.6	-54.0	3.6	0.00e+00	0	37	104	0	60	85155
2026-01-01 00:12:55.97	15.63	5.00	-51.6	-54.1	3.6	0.00e+00	0	37	104	0	60	85951
2026-01-01 00:12:56.98	15.60	5.08	-51.6	-54.1	3.6	0.00e+00	0	37	104	0	60	85327
2026-01-01 00:12:57.99	15.56	5.16	-51.6	-54.1	3.6	0.00e+00	0	37	104	0	60	85382
2026-01-01 00:12:59.00	15.53	5.24	-51.6	-54.1	3.6	0.00e+00	0	37	104	0	60	85549
2026-01-01 00:13:00.01	15.50	5.32	-51.6	-54.1	3.6	0.00e+00	0	37	104	0	60	85895
2026-01-01 00:13:01.03	15.47	5.40	-51.6	-54.1	3.6	0.00e+00	0	37	104	0	60	85626
2026-01-01 00:13:02.04	15.43	5.48	-51.6	-54.1	3.6	0.00e+00	0	37	104	0	60	85536
2026-01-01 00:13:03.05	15.40	5.56	-51.6	-54.1	3.6	0.00e+00	0	37	104	0	60	85545
2026-01-01 00:13:04.06	15.37	5.65	-51.6	-54.1	3.6	0.00e+00	0	37	104	0	60	85327
2026-01-01 00:13:05.07	15.33	5.73	-51.6	-54.1	3.6	0.00e+00	0	37	104	0	60	85706
2026-01-01 00:13:06.08	15.30	5.81	-51.6	-54.1	3.6	0.00e+00	0	37	104	0	60	85814
2026-01-01 00:13:07.09	15.26	5.89	-51.6	-54.1	3.6	0.00e+00	0	37	104	0	60	85784
2026-01-01 00:13:08.10	15.23	5.97	-51.6	-54.1	3.6	0.00e+00	0	37	104	0	60	85415
2026-01-01 00:13:09.11	15.20	6.06	-51.6	-54.1	3.6	0.00e+00	0	37	104	0	60	85640
2026-01-01 00:13:10.12	15.16	6.14	-51.6	-54.1	3.6	0.00e+00	0	37	104	0	60	85613
2026-01-01 00:13:11.13	15.12	6.23	-51.6	-54.1	3.6	0.00e+00	0	37	104	0	60	85557
2026-01-01 00:13:12.15	15.09	6.31	-51.6	-54.1	3.6	0.00e+00	0	37	104	0	60	85567
2026-01-01 00:13:13.16	15.05	6.40	-51.6	-54.1	3.6	0.00e+00	0	37	104	0	60	85678
2026-01-01 00:13:14.17	15.02	6.48	-51.6	-54.0	3.6	0.00e+00	0	37	104	0	60	85035
2026-01-01 00:13:15.18	14.98	6.57	-51.6	-54.1	3.6	0.00e+00	0	37	104	0	60	85757
2026-01-01 00:13:16.19	14.94	6.65	-51.6	-54.1	3.6	0.00e+00	0	37	104	0	60	85787
2026-01-01 00:13:17.20	14.91	6.74	-51.6	-54.0	3.6	0.00e+00	0	37	104	0	60	85219
2026-01-01 00:13:18.21	14.87	6.82	-51.6	-54.1	3.6	0.00e+00	0	37	104	0	60	85502
2026-01-01 00:13:19.22	14.83	6.91	-51.6	-54.1	3.6	0.00e+00	0	37	104	0	60	85946
2026-01-01 00:13:20.23	14.79	7.00	-51.6	-54.1	3.6	0.00e+00	0	37	104	0	60	85718
2026-01-01 00:13:21.25	14.75	7.09	-51.6	-54.1	3.6	0.00e+00	0	37	104	0	60	85656
2026-01-01 00:13:22.26	14.72	7.17	-51.6	-54.1	3.6	0.00e+00	0	37	104	0	60	85625
2026-01-01 00:13:23.27	14.68	7.26	-51.6	-54.1	3.6	0.00e+00	0	38	104	0	60	85473
2026-01-01 00:13:24.28	14.64	7.35	-51.6	-54.1	3.6	0.00e+00	0	37	104	0	60	85310
2026-01-01 00:13:25.29	14.60	7.44	-51.6	-54.1	3.6	0.00e+00	0	37	104	0	60	85401
2026-01-01 00:13:26.30	14.56	7.53	-51.6	-54.1	3.6	0.00e+00	0	38	104	0	60	85533
2026-01-01 00:13:27.31	14.52	7.62	-51.6	-54.1	3.6	0.00e+00	0	37	104	0	60	86116
2026-01-01 00:13:28.32	14.48	7.71	-51.6	-54.1	3.6	0.00e+00	0	38	104	0	60	85424
2026-01-01 00:13:29.33	14.44	7.80	-51.6	-54.1	3.6	0.00e+00	0	38	104	0	60	85766
2026-01-01 00:13:30.34	14.39	7.89	-51.6	-54.1	3.6	0.00e+00	0	37	104	0	60	85334
2026-01-01 00:13:31.35	14.35	7.98	-51.6	-54.1	3.6	0.00e+00	0	38	104	0	60	85811
2026-01-01 00:13:32.36	14.31	8.08	-51.6	-54.1	3.6	0.00e+00	0	38	104	0	60	85318
2026-01-01 00:13:33.37	14.27	8.17	-51.6	-54.1	3.6	0.00e+00	0	38	104	0	60	85861
2026-01-01 00:13:34.38	14.23	8.26	-51.6	-54.1	3.6	0.00e+00	0	38	104	0	60	85286
2026-01-01 00:13:35.39	14.18	8.35	-51.6	-54.0	3.6	0.00e+00	0	38	104	0	60	85076
2026-01-01 00:13:36.40	14.14	8.45	-51.6	-54.1	3.6	0.00e+00	0	38	104	0	60	85857
2026-01-01 00:13:37.41	14.10	8.54	-51.6	-54.1	3.6	0.00e+00	0	38	104	0	60	85510
2026-01-01 00:13:38.42	14.05	8.64	-51.6	-54.1	3.6	0.00e+00	0	38	104	0	60	85614
2026-01-01 00:13:39.44	14.01	8.73	-51.6	-54.1	3.6	0.00e+00	0	38	104	0	60	85393
2026-01-01 00:13:40.45	13.96	8.83	-51.6	-54.1	3.6	0.00e+00	0	38	104	0	60	85255
2026-01-01 00:13:41.46	13.92	8.92	-51.6	-54.1	3.6	0.00e+00	0	38	104	0	60	85391
2026-01-01 00:13:42.47	13.87	9.02	-51.6	-54.1	3.6	0.00e+00	0	38	104	0	60	85493
2026-01-01 00:13:43.48	13.82	9.12	-51.6	-54.1	3.6	0.00e+00	0	38	104	0	60	85615
2026-01-01 00:13:44.49	13.78	9.22	-51.6	-54.1	3.6	0.00e+00	0	38	104	0	60	85878
2026-01-01 00:13:45.50	13.73	9.31	-51.6	-54.1	3.6	0.00e+00	0	38	104	0	60	85574
2026-01-01 00:13:46.51	13.68	9.41	-51.6	-54.1	3.6	0.00e+00	0	38	104	0	60	85777
2026-01-01 00:13:47.52	13.63	9.51	-51.6	-54.1	3.5	0.00e+00	0	38	104	0	60	85383
2026-01-01 00:13:48.53	13.59	9.61	-51.6	-54.1	3.6	0.00e+00	0	38	104	0	60	85714
2026-01-01 00:13:49.54	13.54	9.71	-51.6	-54.1	3.6	0.00e+00	0	38	104	0	60	85322
2026-01-01 00:13:50.56	13.49	9.81	-51.6	-54.1	3.6	0.00e+00	0	38	104	0	60	85262
2026-01-01 00:13:51.57	13.44	9.91	-51.6	-54.1	3.6	0.00e+00	0	38	104	0	60	85350
2026-01-01 00:13:52.58	13.39	10.01	-51.6	-54.1	3.6	0.00e+00	0	38	104	0	60	85764
2026-01-01 00:13:53.59	13.34	10.12	-51.6	-54.1	3.6	0.00e+00	0	38	104	0	60	85673
2026-01-01 00:13:54.60	13.29	10.22	-51.6	-54.1	3.6	0.00e+00	0	38	104	0	60	85552
2026-01-01 00:13:55.61	13.23	10.32	-51.6	-54.1	3.6	0.00e+00	0	38	104	0	60	85397
2026-01-01 00:13:56.63	13.18	10.43	-51.6	-54.1	3.6	0.00e+00	0	38	104	0	60	85489
2026-01-01 00:13:57.64	13.13	10.53	-51.6	-54.1	3.6	0.00e+00	0	38	104	0	60	85448
2026-01-01 00:13:58.65	13.08	10.63	-51.6	-54.1	3.6	0.00e+00	0	38	104	0	60	85369
2026-01-01 00:13:59.66	13.02	10.74	-51.6	-54.1	3.6	0.00e+00	0	38	104	0	60	85400
2026-01-01 00:14:00.67	12.97	10.85	-51.6	-54.1	3.6	0.00e+00	0	38	104	0	60	85595
2026-01-01 00:14:01.68	12.91	10.95	-51.6	-54.0	3.6	0.00e+00	0	38	104	0	60	85094
2026-01-01 00:14:02.69	12.86	11.06	-51.6	-54.0	3.6	0.00e+00	0	38	104	0	60	85141
2026-01-01 00:14:03.71	12.80	11.17	-51.6	-54.1	3.6	0.00e+00	0	38	104	0	60	85867
2026-01-01 00:14:04.72	12.75	11.28	-51.6	-54.1	3.6	0.00e+00	0	38	104	0	60	85338
2026-01-01 00:14:05.73	12.69	11.38	-51.6	-54.1	3.6	0.00e+00	0	38	104	0	60	85891
2026-01-01 00:14:06.74	12.63	11.49	-51.6	-54.1	3.6	0.00e+00	0	38	104	0	60	85488
2026-01-01 00:14:07.75	12.58	11.60	-51.6	-54.1	3.6	0.00e+00	0	38	104	0	60	85478
2026-01-01 00:14:08.76	12.52	11.71	-51.6	-54.1	3.6	0.00e+00	0	38	104	0	60	85508
2026-01-01 00:14:09.77	12.46	11.83	-51.6	-54.1	3.6	0.00e+00	0	38	104	0	60	85379
2026-01-01 00:14:10.78	12.40	11.94	-51.6	-54.1	3.6	0.00e+00	0	38	104	0	60	85385
2026-01-01 00:14:11.79	12.34	12.05	-51.6	-54.1	3.5	0.00e+00	0	38	104	0	60	85635
2026-01-01 00:14:12.80	12.28	12.16	-51.6	-54.1	3.6	0.00e+00	0	38	104	0	60	85536
2026-01-01 00:14:13.82	12.22	12.28	-51.6	-54.1	3.6	0.00e+00	0	38	104	0	60	85557
2026-01-01 00:14:14.83	12.16	12.39	-51.6	-54.1	3.6	0.00e+00	0	38	104	0	60	85356
2026-01-01 00:14:15.84	12.09	12.51	-51.6	-54.1	3.6	0.00e+00	0	38	104	0	60	85684
2026-01-01 00:14:16.85	12.03	12.62	-51.6	-54.1	3.6	0.00e+00	0	38	104	0	60	85849
2026-01-01 00:14:17.86	11.97	12.74	-51.6	-54.0	3.6	0.00e+00	0	38	104	0	60	85171
2026-01-01 00:14:18.87	11.90	12.86	-51.6	-54.1	3.6	0.00e+00	0	38	104	0	60	85492
2026-01-01 00:14:19.88	11.84	12.97	-51.6	-54.1	3.6	0.00e+00	0	38	104	0	60	85322
2026-01-01 00:14:20.89	11.77	13.09	-51.6	-54.1	3.6	0.00e+00	0	38	104	0	60	85453
2026-01-01 00:14:21.90	11.71	13.21	-51.6	-54.1	3.6	0.00e+00	0	38	104	0	60	85742
2026-01-01 00:14:22.91	11.64	13.33	-51.6	-54.1	3.6	0.00e+00	0	38	104	0	60	85531
2026-01-01 00:14:23.92	11.57	13.45	-51.6	-54.1	3.6	0.00e+00	0	38	104	0	60	85325
2026-01-01 00:14:24.93	11.50	13.57	-51.6	-54.1	3.6	0.00e+00	0	38	104	0	60	85577
2026-01-01 00:14:25.94	11.43	13.70	-51.6	-54.1	3.5	0.00e+00	0	38	104	0	60	85361
2026-01-01 00:14:26.96	11.36	13.82	-51.6	-54.0	3.6	0.00e+00	0	38	104	0	60	85069
2026-01-01 00:14:27.97	11.29	13.94	-51.6	-54.1	3.6	0.00e+00	0	38	104	0	60	85506
2026-01-01 00:14:28.98	11.22	14.07	-51.6	-54.1	3.6	0.00e+00	0	38	104	0	60	85711
2026-01-01 00:14:29.99	11.15	14.19	-51.6	-54.1	3.6	0.00e+00	0	38	104	0	60	85412
2026-01-01 00:14:31.00	11.08	14.32	-51.6	-54.1	3.6	0.00e+00	0	38	104	0	60	85361
2026-01-01 00:14:32.01	11.00	14.45	-51.6	-54.1	3.6	0.00e+00	0	38	104	0	60	85565
2026-01-01 00:14:33.02	10.93	14.57	-51.6	-54.1	3.6	0.00e+00	0	38	104	0	60	85348
2026-01-01 00:14:34.03	10.86	14.70	-51.6	-54.1	3.6	0.00e+00	0	38	104	0	60	85784
2026-01-01 00:14:35.04	10.78	14.83	-51.6	-54.1	3.6	0.00e+00	0	38	104	0	60	85541
2026-01-01 00:14:36.06	10.70	14.96	-51.6	-54.1	3.6	0.00e+00	0	38	104	0	60	85554
2026-01-01 00:14:37.07	10.62	15.09	-51.6	-54.1	3.6	0.00e+00	0	38	104	0	60	85588
2026-01-01 00:14:38.08	10.55	15.23	-51.6	-54.1	3.5	0.00e+00	0	38	104	0	60	85244
2026-01-01 00:14:39.09	10.47	15.36	-51.6	-54.1	3.6	0.00e+00	0	38	104	0	60	85788
2026-01-01 00:14:40.10	10.39	15.49	-51.6	-54.1	3.6	0.00e+00	0	38	104	0	60	85592
2026-01-01 00:14:41.11	10.31	15.63	-51.6	-54.1	3.6	0.00e+00	0	38	104	0	60	85693
2026-01-01 00:14:42.12	10.22	15.76	-51.6	-54.1	3.6	0.00e+00	0	38	104	0	60	85581
2026-01-01 00:14:43.13	10.14	15.90	-51.6	-54.1	3.6	0.00e+00	0	38	104	0	60	85483
2026-01-01 00:14:44.14	10.06	16.04	-51.6	-54.1	3.6	0.00e+00	0	38	104	0	60	85927
2026-01-01 00:14:45.15	9.97	16.17	-51.6	-54.0	3.6	0.00e+00	0	38	104	0	60	85185
2026-01-01 00:14:46.16	9.89	16.31	-51.6	-54.1	3.6	0.00e+00	0	38	104	0	60	85340
2026-01-01 00:14:47.18	9.80	16.46	-51.6	-54.0	3.6	0.00e+00	0	38	104	0	60	85075
2026-01-01 00:14:48.19	9.71	16.60	-51.6	-54.1	3.6	0.00e+00	0	38	104	0	60	85827
2026-01-01 00:14:49.20	9.62	16.74	-51.6	-54.1	3.6	0.00e+00	0	38	104	0	60	85438
2026-01-01 00:14:50.21	9.53	16.88	-51.6	-54.1	3.6	0.00e+00	0	38	104	0	60	85448
2026-01-01 00:14:51.22	9.44	17.03	-51.6	-54.1	3.6	0.00e+00	0	38	104	0	60	85378
2026-01-01 00:14:52.23	9.35	17.17	-51.6	-54.1	3.6	0.00e+00	0	38	104	0	60	85385
2026-01-01 00:14:53.24	9.26	17.32	-51.6	-54.1	3.6	0.00e+00	0	38	104	0	60	85635
2026-01-01 00:14:54.26	9.17	17.46	-51.6	-54.1	3.6	0.00e+00	0	38	104	0	60	85328
2026-01-01 00:14:55.27	9.07	17.61	-51.6	-54.1	3.6	0.00e+00	0	38	104	0	60	85426
2026-01-01 00:14:56.28	8.97	17.76	-51.6	-54.0	3.6	0.00e+00	0	38	104	0	60	85037
2026-01-01 00:14:57.29	8.88	17.91	-51.6	-54.0	3.6	0.00e+00	0	38	104	0	60	85195
2026-01-01 00:14:58.30	8.78	18.06	-51.6	-54.0	3.6	0.00e+00	0	38	104	0	60	84898
2026-01-01 00:14:59.31	8.68	18.22	-51.6	-54.1	3.6	0.00e+00	0	38	104	0	60	85467
2026-01-01 00:15:00.32	8.58	18.37	-51.6	-54.1	3.6	0.00e+00	0	38	104	0	60	85536
2026-01-01 00:15:01.33	8.48	18.52	-51.6	-54.1	3.5	0.00e+00	0	38	104	0	60	85233
2026-01-01 00:15:02.34	8.37	18.68	-51.6	-54.1	3.6	0.00e+00	0	38	104	0	60	85463
2026-01-01 00:15:03.35	8.27	18.84	-51.6	-54.0	3.6	0.00e+00	0	38	104	0	60	85207
2026-01-01 00:15:04.36	8.16	19.00	-51.6	-54.1	3.6	0.00e+00	0	38	104	0	60	85402
2026-01-01 00:15:05.38	8.05	19.16	-51.6	-54.1	3.6	0.00e+00	0	38	104	0	60	85399
2026-01-01 00:15:06.39	7.95	19.32	-51.6	-54.1	3.6	0.00e+00	0	38	104	0	60	85855
2026-01-01 00:15:07.40	7.84	19.48	-51.6	-54.1	3.6	0.00e+00	0	38	104	0	60	85585
2026-01-01 00:15:08.41	7.73	19.64	-51.6	-54.1	3.6	0.00e+00	0	38	104	0	60	85655
2026-01-01 00:15:09.42	7.61	19.81	-51.6	-54.1	3.6	0.00e+00	0	38	104	0	60	85416
2026-01-01 00:15:10.43	7.50	19.97	-51.6	-54.1	3.6	0.00e+00	0	38	104	0	60	85582
2026-01-01 00:15:11.44	7.38	20.14	-51.6	-54.1	3.6	0.00e+00	0	38	104	0	60	85399
2026-01-01 00:15:12.45	7.27	20.31	-51.6	-54.1	3.6	0.00e+00	0	38	104	0	60	85261
2026-01-01 00:15:13.46	7.15	20.47	-51.6	-54.1	3.6	0.00e+00	0	38	104	0	60	85710
2026-01-01 00:15:14.47	7.03	20.64	-51.6	-54.1	3.6	0.00e+00	0	38	104	0	60	85736
2026-01-01 00:15:15.49	6.90	20.82	-51.6	-54.2	3.6	0.00e+00	0	38	104	0	60	86236
2026-01-01 00:15:16.50	6.78	20.99	-51.6	-54.0	3.6	0.00e+00	0	38	104	0	60	84953
2026-01-01 00:15:17.51	6.66	21.17	-51.6	-54.0	3.6	0.00e+00	0	38	104	0	60	85148
2026-01-01 00:15:18.52	6.53	21.34	-51.6	-54.1	3.6	0.00e+00	0	38	104	0	60	85447
2026-01-01 00:15:19.53	6.40	21.52	-51.6	-54.1	3.6	0.00e+00	0	38	104	0	60	85670
2026-01-01 00:15:20.54	6.27	21.70	-51.6	-54.1	3.6	0.00e+00	0	38	104	0	60	85681
2026-01-01 00:15:21.55	6.14	21.88	-51.6	-54.1	3.6	0.00e+00	0	38	104	0	60	85730
2026-01-01 00:15:22.56	6.01	22.06	-51.6	-54.1	3.6	0.00e+00	0	38	104	0	60	85416
2026-01-01 00:15:23.57	5.87	22.24	-51.6	-54.0	3.6	0.00e+00	0	38	104	0	60	85123
2026-01-01 00:15:24.58	5.74	22.43	-51.6	-54.1	3.6	0.00e+00	0	38	104	0	60	85757
2026-01-01 00:15:25.59	5.60	22.61	-51.6	-54.1	3.6	0.00e+00	0	38	104	0	60	85397
2026-01-01 00:15:26.60	5.46	22.80	-51.6	-54.1	3.6	0.00e+00	0	38	104	0	60	85425
2026-01-01 00:15:27.61	5.31	22.99	-51.6	-54.0	3.6	0.00e+00	0	38	104	0	60	85034
2026-01-01 00:15:28.62	5.17	23.18	-51.6	-54.1	3.6	0.00e+00	0	38	104	0	60	85452
2026-01-01 00:15:29.63	5.02	23.37	-51.6	-54.1	3.6	0.00e+00	0	38	104	0	60	85448
2026-01-01 00:15:30.65	4.87	23.57	-51.6	-54.1	3.6	0.00e+00	0	38	104	0	60	85670
2026-01-01 00:15:31.66	4.72	23.76	-51.6	-54.1	3.6	0.00e+00	0	38	104	0	60	85357
2026-01-01 00:15:32.67	4.57	23.96	-51.6	-54.1	3.6	0.00e+00	0	38	104	0	60	85529
2026-01-01 00:15:33.68	4.41	24.16	-51.6	-54.1	3.6	0.00e+00	0	38	104	0	60	85616
2026-01-01 00:15:34.69	4.25	24.36	-51.6	-54.1	3.6	0.00e+00	0	38	104	0	60	85423
2026-01-01 00:15:35.70	4.09	24.56	-51.6	-54.1	3.6	0.00e+00	0	38	104	0	60	85240
2026-01-01 00:15:36.71	3.93	24.76	-51.6	-54.1	3.6	0.00e+00	0	38	104	0	60	85730
2026-01-01 00:15:37.72	3.77	24.97	-51.6	-54.0	3.6	0.00e+00	0	38	104	0	60	85206
2026-01-01 00:15:38.73	3.60	25.17	-51.6	-54.1	3.6	0.00e+00	0	38	104	0	60	85335
2026-01-01 00:15:39.74	3.43	25.38	-51.6	-54.1	3.6	0.00e+00	0	38	104	0	60	85572
2026-01-01 00:15:40.76	3.25	25.59	-51.6	-54.1	3.6	0.00e+00	0	39	104	0	60	85793
2026-01-01 00:15:41.77	3.08	25.81	-51.6	-54.1	3.6	0.00e+00	0	38	104	0	60	85744
2026-01-01 00:15:42.78	2.90	26.02	-51.6	-54.1	3.6	0.00e+00	0	38	104	0	60	85701
2026-01-01 00:15:43.79	2.72	26.24	-51.6	-54.1	3.6	0.00e+00	0	38	104	0	60	85674
2026-01-01 00:15:44.80	2.54	26.45	-51.6	-54.1	3.6	0.00e+00	0	38	104	0	60	85530
2026-01-01 00:15:45.81	2.35	26.67	-51.6	-54.1	3.6	0.00e+00	0	38	104	0	60	85392
2026-01-01 00:15:46.82	2.16	26.89	-51.6	-54.1	3.6	0.00e+00	0	38	104	0	60	85730
2026-01-01 00:15:47.83	1.97	27.11	-51.6	-54.1	3.5	0.00e+00	0	38	104	0	60	85344
2026-01-01 00:15:48.84	1.78	27.34	-51.6	-54.1	3.6	0.00e+00	0	38	104	0	60	85608
2026-01-01 00:15:49.86	1.58	27.57	-51.6	-54.0	3.6	0.00e+00	0	38	104	0	60	84917
2026-01-01 00:15:50.87	1.38	27.80	-51.6	-54.1	3.6	0.00e+00	0	38	104	0	60	85395
2026-01-01 00:15:51.88	1.17	28.03	-51.6	-54.1	3.6	0.00e+00	0	39	104	0	60	85640
2026-01-01 00:15:52.89	0.97	28.26	-51.6	-54.1	3.6	0.00e+00	0	38	104	0	60	85535
2026-01-01 00:15:53.90	0.75	28.49	-51.6	-54.1	3.6	0.00e+00	0	39	104	0	60	85232
2026-01-01 00:15:54.91	0.54	28.73	-51.6	-54.1	3.6	0.00e+00	0	38	104	0	60	85304
2026-01-01 00:15:55.92	0.32	28.97	-51.6	-54.1	3.6	0.00e+00	0	38	104	0	60	85509
2026-01-01 00:15:56.93	0.10	29.21	-51.6	-54.1	3.6	0.00e+00	0	38	104	0	60	85294
2026-01-01 00:15:57.94	359.88	29.45	-51.6	-54.1	3.6	0.00e+00	0	38	104	0	60	85559
2026-01-01 00:15:58.95	359.65	29.69	-51.6	-54.0	3.6	0.00e+00	0	38	104	0	60	84946
2026-01-01 00:15:59.97	359.41	29.94	-51.6	-54.1	3.6	0.00e+00	0	38	104	0	60	85733
2026-01-01 00:16:00.98	359.17	30.19	-51.6	-54.1	3.6	0.00e+00	0	38	104	0	60	85833
2026-01-01 00:16:01.99	358.93	30.44	-51.6	-54.1	3.6	0.00e+00	0	38	104	0	60	85543
2026-01-01 00:16:03.00	358.69	30.69	-51.6	-54.1	3.6	0.00e+00	0	38	104	0	60	85500
2026-01-01 00:16:04.01	358.44	30.94	-51.6	-54.1	3.6	0.00e+00	0	38	104	0	60	85241
2026-01-01 00:16:05.02	358.19	31.20	-51.6	-54.1	3.6	0.00e+00	0	38	104	0	60	85338
2026-01-01 00:16:06.03	357.93	31.46	-51.6	-54.1	3.6	0.00e+00	0	38	104	0	60	85551
2026-01-01 00:16:07.04	357.67	31.72	-51.6	-54.1	3.6	0.00e+00	0	38	104	0	60	85965
2026-01-01 00:16:08.05	357.40	31.98	-51.6	-54.1	3.6	0.00e+00	0	38	104	0	60	85388
2026-01-01 00:16:09.06	357.13	32.24	-51.6	-54.1	3.6	0.00e+00	0	38	104	0	60	85244
2026-01-01 00:16:10.07	356.85	32.51	-51.6	-54.1	3.6	0.00e+00	0	38	104	0	60	85814
2026-01-01 00:16:11.08	356.57	32.78	-51.6	-54.1	3.6	0.00e+00	0	38	104	0	60	85603
2026-01-01 00:16:12.09	356.28	33.05	-51.6	-54.1	3.6	0.00e+00	0	38	104	0	60	85403
2026-01-01 00:16:13.10	355.99	33.32	-51.6	-54.1	3.6	0.00e+00	0	38	104	0	60	85705
2026-01-01 00:16:14.12	355.69	33.60	-51.6	-54.1	3.6	0.00e+00	0	38	104	0	60	85849
2026-01-01 00:16:15.13	355.39	33.87	-51.6	-54.1	3.6	0.00e+00	0	38	104	0	60	85724
2026-01-01 00:16:16.14	355.08	34.15	-51.6	-54.1	3.5	0.00e+00	0	38	104	0	60	85977
2026-01-01 00:16:17.15	354.77	34.43	-51.6	-54.1	3.6	0.00e+00	0	39	104	0	60	85236
2026-01-01 00:16:18.16	354.45	34.71	-51.6	-54.1	3.5	0.00e+00	0	38	104	0	60	85587
2026-01-01 00:16:19.17	354.12	35.00	-51.6	-54.1	3.6	0.00e+00	0	39	104	0	60	85858
2026-01-01 00:16:20.18	353.79	35.28	-51.6	-54.1	3.6	0.00e+00	0	39	104	0	60	85885
2026-01-01 00:16:21.19	353.45	35.57	-51.6	-54.1	3.6	0.00e+00	0	39	104	0	60	85808
2026-01-01 00:16:22.20	353.10	35.86	-51.6	-54.1	3.6	0.00e+00	0	38	104	0	60	85708
2026-01-01 00:16:23.21	352.75	36.15	-51.6	-54.1	3.6	0.00e+00	0	39	104	0	60	85762
2026-01-01 00:16:24.22	352.39	36.45	-51.6	-54.1	3.6	0.00e+00	0	39	104	0	60	85352
2026-01-01 00:16:25.23	352.03	36.74	-51.6	-54.1	3.6	0.00e+00	0	39	104	0	60	85678
2026-01-01 00:16:26.24	351.66	37.04	-51.6	-54.1	3.6	0.00e+00	0	39	104	0	60	85353
2026-01-01 00:16:27.25	351.28	37.34	-51.6	-54.1	3.6	0.00e+00	0	39	104	0	60	85571
2026-01-01 00:16:28.26	350.89	37.64	-51.6	-54.0	3.6	0.00e+00	0	39	104	0	60	85092
2026-01-01 00:16:29.27	350.49	37.94	-51.6	-54.1	3.6	0.00e+00	0	39	104	0	60	85928
2026-01-01 00:16:30.29	350.09	38.25	-51.6	-54.1	3.6	0.00e+00	0	39	104	0	60	85506
2026-01-01 00:16:31.30	349.68	38.56	-51.6	-54.1	3.6	0.00e+00	0	39	104	0	60	85733
2026-01-01 00:16:32.31	349.26	38.86	-51.6	-54.1	3.6	0.00e+00	0	39	104	0	60	85359
2026-01-01 00:16:33.32	348.83	39.17	-51.6	-54.1	3.6	0.00e+00	0	39	104	0	60	85446
2026-01-01 00:16:34.33	348.39	39.48	-51.6	-54.1	3.6	0.00e+00	0	39	104	0	60	85655
2026-01-01 00:16:35.34	347.95	39.79	-51.6	-54.1	3.6	0.00e+00	0	39	104	0	60	85634
2026-01-01 00:16:36.35	347.49	40.11	-51.6	-54.1	3.6	0.00e+00	0	39	104	0	60	85443
2026-01-01 00:16:37.36	347.03	40.42	-51.6	-54.1	3.6	0.00e+00	0	39	104	0	60	85284
2026-01-01 00:16:38.37	346.55	40.73	-51.6	-54.1	3.6	0.00e+00	0	39	104	0	60	85289
2026-01-01 00:16:39.39	346.07	41.05	-51.6	-54.1	3.6	0.00e+00	0	39	104	0	60	85591
2026-01-01 00:16:40.40	345.57	41.37	-51.6	-54.0	3.6	0.00e+00	0	39	104	0	60	85215
2026-01-01 00:16:41.41	345.07	41.69	-51.6	-54.1	3.6	0.00e+00	0	39	104	0	60	85529
2026-01-01 00:16:42.42	344.55	42.00	-51.6	-54.1	3.6	0.00e+00	0	39	104	0	60	85251
2026-01-01 00:16:43.43	344.03	42.32	-51.6	-54.1	3.6	0.00e+00	0	39	104	0	60	85226
2026-01-01 00:16:44.44	343.49	42.64	-51.6	-54.1	3.6	0.00e+00	0	39	104	0	60	85905
2026-01-01 00:16:45.45	342.95	42.96	-51.6	-54.1	3.6	0.00e+00	0	38	104	0	60	85644
2026-01-01 00:16:46.46	342.39	43.28	-51.6	-54.1	3.6	0.00e+00	0	39	104	0	60	85337
2026-01-01 00:16:47.47	341.82	43.60	-51.6	-54.1	3.6	0.00e+00	0	39	104	0	60	85258
2026-01-01 00:16:48.48	341.24	43.92	-51.6	-54.1	3.6	0.00e+00	0	39	104	0	60	85350
2026-01-01 00:16:49.50	340.64	44.24	-51.6	-54.1	3.6	0.00e+00	0	39	104	0	60	85448
2026-01-01 00:16:50.51	340.03	44.56	-51.6	-54.1	3.6	0.00e+00	0	39	104	0	60	85393
2026-01-01 00:16:51.52	339.41	44.87	-51.6	-54.1	3.6	0.00e+00	0	39	104	0	60	85734
2026-01-01 00:16:52.53	338.77	45.19	-51.6	-54.0	3.6	0.00e+00	0	39	104	0	60	85191
2026-01-01 00:16:53.54	338.13	45.51	-51.6	-54.1	3.6	0.00e+00	0	39	104	0	60	85292
2026-01-01 00:16:54.55	337.47	45.82	-51.6	-54.1	3.6	0.00e+00	0	39	104	0	60	85552
2026-01-01 00:16:55.56	336.79	46.13	-51.6	-54.1	3.6	0.00e+00	0	39	104	0	60	85240
2026-01-01 00:16:56.58	336.10	46.45	-51.6	-54.0	3.6	0.00e+00	0	39	104	0	60	84871
2026-01-01 00:16:57.59	335.40	46.76	-51.6	-54.1	3.6	0.00e+00	0	39	104	0	60	85493
2026-01-01 00:16:58.60	334.68	47.06	-51.6	-54.1	3.6	0.00e+00	0	39	104	0	60	85616
2026-01-01 00:16:59.61	333.95	47.37	-51.6	-54.1	3.6	0.00e+00	0	39	104	0	60	85240
2026-01-01 00:17:00.62	333.20	47.67	-51.6	-54.1	3.6	0.00e+00	0	39	104	0	60	85402
2026-01-01 00:17:01.63	332.44	47.97	-51.6	-54.0	3.6	0.00e+00	0	39	104	0	60	85208
2026-01-01 00:17:02.64	331.67	48.26	-51.6	-54.1	3.6	0.00e+00	0	39	104	0	60	85591
2026-01-01 00:17:03.65	330.88	48.56	-51.6	-54.1	3.6	0.00e+00	0	39	104	0	60	85244
2026-01-01 00:17:04.66	330.07	48.85	-51.6	-54.1	3.6	0.00e+00	0	39	104	0	60	85404
2026-01-01 00:17:05.67	329.25	49.13	-51.6	-54.1	3.6	0.00e+00	0	39	104	0	60	85540
2026-01-01 00:17:06.68	328.41	49.41	-51.6	-54.1	3.5	0.00e+00	0	38	104	0	60	85838
2026-01-01 00:17:07.69	327.55	49.69	-51.6	-54.1	3.6	0.00e+00	0	39	104	0	60	85567
2026-01-01 00:17:08.71	326.67	49.96	-51.6	-54.1	3.6	0.00e+00	0	39	104	0	60	85620
2026-01-01 00:17:09.72	325.79	50.22	-51.6	-54.0	3.6	0.00e+00	0	39	104	0	60	85224
2026-01-01 00:17:10.73	324.88	50.48	-51.6	-54.1	3.6	0.00e+00	0	39	104	0	60	85819
2026-01-01 00:17:11.74	323.96	50.74	-51.6	-54.1	3.6	0.00e+00	0	39	104	0	60	85276
2026-01-01 00:17:12.75	323.03	50.99	-51.6	-54.1	3.6	0.00e+00	0	39	104	0	60	85373
2026-01-01 00:17:13.76	322.08	51.23	-51.6	-54.1	3.6	0.00e+00	0	39	104	0	60	85485
2026-01-01 00:17:14.77	321.11	51.46	-51.6	-54.1	3.6	0.00e+00	0	39	104	0	60	85607
2026-01-01 00:17:15.78	320.13	51.69	-51.6	-54.1	3.6	0.00e+00	0	39	104	0	60	85517
2026-01-01 00:17:16.79	319.13	51.91	-51.6	-54.0	3.6	0.00e+00	0	39	104	0	60	85059
2026-01-01 00:17:17.80	318.12	52.12	-51.6	-54.1	3.6	0.00e+00	0	39	104	0	60	85508
2026-01-01 00:17:18.81	317.10	52.32	-51.6	-54.1	3.6	0.00e+00	0	39	104	0	60	85567
2026-01-01 00:17:19.82	316.06	52.52	-51.6	-54.1	3.6	0.00e+00	0	39	104	0	60	85261
2026-01-01 00:17:20.83	315.00	52.70	-51.6	-54.1	3.6	0.00e+00	0	39	104	0	60	85354
2026-01-01 00:17:21.84	313.93	52.88	-51.6	-54.0	3.6	0.00e+00	0	38	104	0	60	85071
2026-01-01 00:17:22.86	312.84	53.05	-51.6	-54.1	3.6	0.00e+00	0	39	104	0	60	85459
2026-01-01 00:17:23.87	311.75	53.20	-51.6	-54.0	3.6	0.00e+00	0	39	104	0	60	85122
2026-01-01 00:17:24.88	310.64	53.35	-51.6	-54.0	3.6	0.00e+00	0	39	104	0	60	85099
2026-01-01 00:17:25.89	309.53	53.49	-51.6	-54.0	3.6	0.00e+00	0	39	104	0	60	85078
2026-01-01 00:17:26.90	308.40	53.61	-51.6	-54.1	3.6	0.00e+00	0	39	104	0	60	85823
2026-01-01 00:17:27.91	307.26	53.73	-51.6	-54.1	3.6	0.00e+00	0	39	104	0	60	85528
2026-01-01 00:17:28.92	306.12	53.83	-51.6	-54.0	3.6	0.00e+00	0	39	104	0	60	85214
2026-01-01 00:17:29.93	304.96	53.93	-51.6	-54.1	3.6	0.00e+00	0	39	104	0	60	85708
2026-01-01 00:17:30.94	303.80	54.01	-51.6	-54.1	3.6	0.00e+00	0	39	104	0	60	85244
2026-01-01 00:17:31.95	302.63	54.08	-51.6	-54.1	3.5	0.00e+00	0	39	104	0	60	85438
2026-01-01 00:17:32.96	301.46	54.13	-51.6	-54.1	3.6	0.00e+00	0	39	104	0	60	85555
2026-01-01 00:17:33.97	300.28	54.18	-51.6	-54.1	3.6	0.00e+00	0	39	104	0	60	85846
2026-01-01 00:17:34.98	299.10	54.22	-51.6	-54.1	3.6	0.00e+00	0	39	104	0	60	85264
2026-01-01 00:17:35.99	297.92	54.24	-51.6	-54.0	3.6	0.00e+00	0	39	104	0	60	85029
2026-01-01 00:17:37.00	296.74	54.25	-51.6	-54.1	3.6	0.00e+00	0	39	104	0	60	85368
2026-01-01 00:17:38.01	295.55	54.25	-51.6	-54.1	3.6	0.00e+00	0	39	104	0	60	85679
2026-01-01 00:17:39.02	294.37	54.23	-51.6	-54.1	3.6	0.00e+00	0	39	104	0	60	85535
2026-01-01 00:17:40.04	293.17	54.21	-51.6	-54.1	3.6	0.00e+00	0	39	104	0	60	85303
2026-01-01 00:17:41.05	291.99	54.17	-51.6	-54.1	3.6	0.00e+00	0	39	104	0	60	85241
2026-01-01 00:17:42.06	290.82	54.12	-51.6	-54.1	3.6	0.00e+00	0	39	104	0	60	85682
2026-01-01 00:17:43.07	289.65	54.05	-51.6	-54.1	3.6	0.00e+00	0	39	104	0	60	85540
2026-01-01 00:17:44.08	288.48	53.98	-51.6	-54.0	3.6	0.00e+00	0	39	104	0	60	85185
2026-01-01 00:17:45.09	287.32	53.90	-51.6	-54.1	3.6	0.00e+00	0	39	104	0	60	85560
2026-01-01 00:17:46.10	286.17	53.80	-51.6	-54.1	3.6	0.00e+00	0	39	104	0	60	85563
2026-01-01 00:17:47.12	285.01	53.69	-51.6	-54.1	3.6	0.00e+00	0	39	104	0	60	85642
2026-01-01 00:17:48.12	283.89	53.57	-51.6	-54.1	3.6	0.00e+00	0	39	104	0	60	85686
2026-01-01 00:17:49.14	282.75	53.44	-51.6	-54.1	3.6	0.00e+00	0	39	104	0	60	85510
2026-01-01 00:17:50.15	281.64	53.30	-51.6	-54.1	3.6	0.00e+00	0	39	104	0	60	85475
2026-01-01 00:17:51.16	280.53	53.15	-51.6	-54.0	3.6	0.00e+00	0	39	104	0	60	85133
2026-01-01 00:17:52.17	279.44	52.99	-51.6	-54.1	3.6	0.00e+00	0	39	104	0	60	85557
2026-01-01 00:17:53.18	278.36	52.82	-51.6	-54.1	3.6	0.00e+00	0	39	104	0	60	85346
2026-01-01 00:17:54.19	277.30	52.64	-51.6	-54.1	3.6	0.00e+00	0	39	104	0	60	85598
2026-01-01 00:17:55.20	276.25	52.45	-51.6	-54.1	3.6	0.00e+00	0	39	104	0	60	85502
2026-01-01 00:17:56.21	275.21	52.25	-51.6	-54.1	3.6	0.00e+00	0	39	104	0	60	85663
2026-01-01 00:17:57.22	274.18	52.04	-51.6	-54.0	3.6	0.00e+00	0	39	104	0	60	84653
2026-01-01 00:17:58.23	273.17	51.83	-51.6	-54.1	3.6	0.00e+00	0	39	104	0	60	85296
2026-01-01 00:17:59.25	272.17	51.60	-51.6	-54.0	3.6	0.00e+00	0	39	104	0	60	85115
2026-01-01 00:18:00.26	271.19	51.37	-51.6	-54.0	3.6	0.00e+00	0	39	104	0	60	85154
2026-01-01 00:18:01.27	270.23	51.13	-51.6	-54.0	3.6	0.00e+00	0	39	104	0	60	85029
2026-01-01 00:18:02.28	269.28	50.89	-51.6	-54.0	3.6	0.00e+00	0	39	104	0	60	85076
2026-01-01 00:18:03.29	268.35	50.64	-51.6	-54.0	3.6	0.00e+00	0	39	104	0	60	85214
2026-01-01 00:18:04.30	267.43	50.38	-51.6	-54.1	3.6	0.00e+00	0	39	104	0	60	85693
2026-01-01 00:18:05.31	266.53	50.12	-51.6	-54.1	3.6	0.00e+00	0	39	104	0	60	85802
2026-01-01 00:18:06.32	265.65	49.85	-51.6	-54.1	3.6	0.00e+00	0	39	104	0	60	85926
2026-01-01 00:18:07.33	264.78	49.58	-51.6	-54.1	3.6	0.00e+00	0	39	104	0	60	85960
2026-01-01 00:18:08.34	263.93	49.30	-51.6	-54.1	3.6	0.00e+00	0	39	104	0	60	85782
2026-01-01 00:18:09.36	263.08	49.01	-51.6	-54.1	3.6	0.00e+00	0	39	104	0	60	85711
2026-01-01 00:18:10.37	262.26	48.73	-51.6	-54.1	3.6	0.00e+00	0	39	104	0	60	85641
2026-01-01 00:18:11.38	261.46	48.43	-51.6	-54.1	3.6	0.00e+00	0	39	104	0	60	85694
2026-01-01 00:18:12.39	260.67	48.14	-51.6	-54.1	3.6	0.00e+00	0	39	104	0	60	85504
2026-01-01 00:18:13.40	259.90	47.84	-51.6	-54.1	3.6	0.00e+00	0	39	104	0	60	85569
2026-01-01 00:18:14.41	259.14	47.54	-51.6	-54.1	3.6	0.00e+00	0	39	104	0	60	85788
2026-01-01 00:18:15.42	258.40	47.23	-51.6	-54.1	3.6	0.00e+00	0	39	104	0	60	85377
2026-01-01 00:18:16.43	257.67	46.93	-51.6	-54.0	3.6	0.00e+00	0	39	104	0	60	84454
2026-01-01 00:18:17.44	256.95	46.62	-51.6	-54.0	3.6	0.00e+00	0	39	104	0	60	85222
2026-01-01 00:18:18.45	256.25	46.31	-51.6	-54.1	3.6	0.00e+00	0	39	104	0	60	85538
2026-01-01 00:18:19.46	255.57	45.99	-51.6	-54.1	3.6	0.00e+00	0	39	104	0	60	85334
2026-01-01 00:18:20.47	254.90	45.68	-51.6	-54.1	3.6	0.00e+00	0	39	104	0	60	85289
2026-01-01 00:18:21.49	254.23	45.36	-51.6	-54.0	3.6	0.00e+00	0	39	104	0	60	85195
2026-01-01 00:18:22.50	253.59	45.04	-51.6	-54.1	3.6	0.00e+00	0	39	104	0	60	85401
2026-01-01 00:18:23.51	252.96	44.72	-51.6	-54.1	3.6	0.00e+00	0	39	104	0	60	85537
2026-01-01 00:18:24.52	252.34	44.40	-51.6	-54.0	3.6	0.00e+00	0	39	104	0	60	85120
2026-01-01 00:18:25.53	251.74	44.08	-51.6	-54.0	3.6	0.00e+00	0	39	104	0	60	85025
2026-01-01 00:18:26.54	251.14	43.76	-51.6	-54.1	3.6	0.00e+00	0	39	104	0	60	85607
2026-01-01 00:18:27.55	250.56	43.44	-51.6	-54.1	3.6	0.00e+00	0	39	104	0	60	85874
2026-01-01 00:18:28.56	249.99	43.12	-51.6	-54.1	3.6	0.00e+00	0	39	104	0	60	86196
2026-01-01 00:18:29.57	249.44	42.80	-51.6	-54.1	3.6	0.00e+00	0	39	104	0	60	85580
2026-01-01 00:18:30.58	248.89	42.48	-51.6	-54.1	3.6	0.00e+00	0	39	104	0	60	85445
2026-01-01 00:18:31.59	248.36	42.15	-51.6	-54.1	3.6	0.00e+00	0	39	104	0	60	85399
2026-01-01 00:18:32.61	247.83	41.83	-51.6	-54.0	3.6	0.00e+00	0	39	104	0	60	85104
2026-01-01 00:18:33.62	247.32	41.51	-51.6	-54.0	3.6	0.00e+00	0	39	104	0	60	84968
2026-01-01 00:18:34.63	246.82	41.19	-51.6	-54.1	3.6	0.00e+00	0	39	104	0	60	85308
2026-01-01 00:18:35.64	246.32	40.87	-51.6	-54.0	3.6	0.00e+00	0	39	104	0	60	85103
2026-01-01 00:18:36.65	245.84	40.56	-51.6	-54.1	3.6	0.00e+00	0	39	104	0	60	85789
2026-01-01 00:18:37.66	245.37	40.24	-51.6	-54.1	3.6	0.00e+00	0	39	104	0	60	85656
2026-01-01 00:18:38.67	244.91	39.92	-51.6	-54.0	3.6	0.00e+00	0	39	104	0	60	85109
2026-01-01 00:18:39.69	244.45	39.61	-51.6	-54.0	3.6	0.00e+00	0	39	104	0	60	85143
2026-01-01 00:18:40.70	244.01	39.29	-51.6	-54.0	3.6	0.00e+00	0	39	104	0	60	84908
2026-01-01 00:18:41.71	243.57	38.98	-51.6	-54.0	3.6	0.00e+00	0	39	104	0	60	84822
2026-01-01 00:18:42.72	243.15	38.67	-51.6	-54.0	3.6	0.00e+00	0	39	104	0	60	85026
2026-01-01 00:18:43.73	242.73	38.36	-51.6	-54.1	3.6	0.00e+00	0	39	104	0	60	85543
2026-01-01 00:18:44.74	242.32	38.06	-51.6	-54.1	3.6	0.00e+00	0	39	104	0	60	85407
2026-01-01 00:18:45.75	241.92	37.75	-51.6	-54.0	3.6	0.00e+00	0	39	104	0	60	84298
2026-01-01 00:18:46.77	241.52	37.44	-51.6	-54.0	3.6	0.00e+00	0	39	104	0	60	84793
2026-01-01 00:18:47.78	241.13	37.14	-51.6	-54.0	3.6	0.00e+00	0	39	104	0	60	84990
2026-01-01 00:18:48.79	240.75	36.84	-51.6	-54.1	3.6	0.00e+00	0	39	104	0	60	85892
2026-01-01 00:18:49.80	240.38	36.54	-51.6	-54.1	3.6	0.00e+00	0	39	104	0	60	85462
2026-01-01 00:18:50.81	240.02	36.25	-51.6	-54.1	3.6	0.00e+00	0	39	104	0	60	85943
2026-01-01 00:18:51.82	239.66	35.95	-51.6	-54.1	3.6	0.00e+00	0	39	104	0	60	85288
2026-01-01 00:18:52.83	239.31	35.66	-51.6	-54.1	3.6	0.00e+00	0	39	104	0	60	85876
2026-01-01 00:18:53.84	238.97	35.37	-51.6	-54.1	3.6	0.00e+00	0	39	104	0	60	85787
2026-01-01 00:18:54.85	238.63	35.08	-51.6	-54.1	3.6	0.00e+00	0	39	104	0	60	85657
2026-01-01 00:18:55.86	238.30	34.79	-51.6	-54.1	3.6	0.00e+00	0	39	104	0	60	85787
2026-01-01 00:18:56.88	237.97	34.50	-51.6	-54.1	3.6	0.00e+00	0	39	104	0	60	85881
2026-01-01 00:18:57.89	237.65	34.22	-51.6	-54.1	3.6	0.00e+00	0	39	104	0	60	85693
2026-01-01 00:18:58.90	237.34	33.94	-51.6	-54.0	3.6	0.00e+00	0	39	104	0	60	84807
2026-01-01 00:18:59.91	237.03	33.66	-51.6	-54.0	3.6	0.00e+00	0	39	104	0	60	84832
2026-01-01 00:19:00.92	236.73	33.38	-51.6	-54.1	3.6	0.00e+00	0	39	104	0	60	85597
2026-01-01 00:19:01.93	236.43	33.10	-51.6	-54.1	3.6	0.00e+00	0	39	104	0	60	85666
2026-01-01 00:19:02.94	236.14	32.83	-51.6	-54.1	3.6	0.00e+00	0	39	104	0	60	85290
2026-01-01 00:19:03.95	235.85	32.56	-51.6	-54.1	3.6	0.00e+00	0	39	104	0	60	85434
2026-01-01 00:19:04.96	235.57	32.29	-51.6	-54.1	3.6	0.00e+00	0	39	104	0	60	85446
2026-01-01 00:19:05.97	235.30	32.02	-51.6	-54.1	3.6	0.00e+00	0	39	104	0	60	85722
2026-01-01 00:19:06.98	235.03	31.76	-51.6	-54.1	3.6	0.00e+00	0	39	104	0	60	85850
2026-01-01 00:19:07.99	234.76	31.49	-51.6	-54.1	3.6	0.00e+00	0	39	104	0	60	85287
2026-01-01 00:19:09.00	234.50	31.23	-51.6	-54.1	3.6	0.00e+00	0	39	104	0	60	85731
2026-01-01 00:19:10.01	234.24	30.97	-51.6	-54.1	3.6	0.00e+00	0	39	104	0	60	85833
2026-01-01 00:19:11.02	233.99	30.72	-51.7	-54.1	3.6	0.00e+00	0	39	104	0	60	85641
2026-01-01 00:19:12.04	233.74	30.46	-51.6	-54.1	3.6	0.00e+00	0	39	104	0	60	85726
2026-01-01 00:19:13.05	233.49	30.21	-51.7	-54.1	3.6	0.00e+00	0	39	104	0	60	85714
2026-01-01 00:19:14.06	233.25	29.96	-51.6	-54.1	3.6	0.00e+00	0	39	104	0	60	85796
2026-01-01 00:19:15.07	233.02	29.71	-51.6	-54.1	3.6	0.00e+00	0	39	104	0	60	85902
2026-01-01 00:19:16.08	232.78	29.46	-51.6	-54.1	3.6	0.00e+00	0	39	104	0	60	85657
2026-01-01 00:19:17.09	232.56	29.22	-51.6	-54.1	3.6	0.00e+00	0	39	104	0	60	85419
2026-01-01 00:19:18.10	232.33	28.97	-51.6	-54.1	3.6	0.00e+00	0	39	104	0	60	85547
2026-01-01 00:19:19.11	232.11	28.73	-51.6	-54.1	3.5	0.00e+00	0	39	104	0	60	85651
2026-01-01 00:19:20.12	231.89	28.49	-51.6	-54.1	3.6	0.00e+00	0	39	104	0	60	85722
2026-01-01 00:19:21.13	231.68	28.26	-51.6	-54.1	3.6	0.00e+00	0	39	104	0	60	85658
2026-01-01 00:19:22.14	231.47	28.02	-51.6	-54.1	3.6	0.00e+00	0	39	104	0	60	85996
2026-01-01 00:19:23.16	231.26	27.79	-51.6	-54.0	3.6	0.00e+00	0	39	104	0	60	85187
2026-01-01 00:19:24.16	231.06	27.56	-51.6	-54.0	3.6	0.00e+00	0	39	104	0	60	84954
2026-01-01 00:19:25.18	230.85	27.33	-51.6	-54.1	3.6	0.00e+00	0	39	104	0	60	85231
2026-01-01 00:19:26.19	230.66	27.10	-51.6	-54.1	3.6	0.00e+00	0	39	104	0	60	85303
2026-01-01 00:19:27.20	230.46	26.87	-51.6	-54.1	3.6	0.00e+00	0	39	104	0	60	85471
2026-01-01 00:19:28.20	230.27	26.65	-51.6	-54.0	3.6	0.00e+00	0	39	104	0	60	85131
2026-01-01 00:19:29.22	230.08	26.43	-51.6	-54.1	3.6	0.00e+00	0	39	104	0	60	85501
2026-01-01 00:19:30.23	229.90	26.21	-51.6	-54.1	3.6	0.00e+00	0	39	104	0	60	85516
2026-01-01 00:19:31.24	229.71	25.99	-51.6	-54.1	3.6	0.00e+00	0	39	104	0	60	85344
2026-01-01 00:19:32.25	229.53	25.77	-51.6	-54.1	3.6	0.00e+00	0	39	104	0	60	85812
2026-01-01 00:19:33.26	229.36	25.56	-51.6	-54.1	3.6	0.00e+00	0	39	104	0	60	85832
2026-01-01 00:19:34.27	229.18	25.35	-51.7	-54.1	3.6	0.00e+00	0	39	104	0	60	85843
2026-01-01 00:19:35.28	229.01	25.14	-51.6	-54.1	3.6	0.00e+00	0	39	104	0	60	85431
2026-01-01 00:19:36.30	228.84	24.93	-51.6	-54.1	3.6	0.00e+00	0	39	104	0	60	85843
2026-01-01 00:19:37.31	228.67	24.72	-51.6	-54.1	3.6	0.00e+00	0	39	104	0	60	85712
2026-01-01 00:19:38.32	228.51	24.51	-51.6	-54.1	3.6	0.00e+00	0	39	104	0	60	85261
2026-01-01 00:19:39.33	228.34	24.31	-51.6	-54.1	3.6	0.00e+00	0	39	104	0	60	85783
2026-01-01 00:19:40.34	228.18	24.11	-51.6	-54.1	3.6	0.00e+00	0	39	104	0	60	85744
2026-01-01 00:19:41.35	228.03	23.91	-51.7	-54.1	3.6	0.00e+00	0	39	104	0	60	85626
2026-01-01 00:19:42.36	227.87	23.71	-51.6	-54.1	3.6	0.00e+00	0	39	104	0	60	85620
2026-01-01 00:19:43.37	227.72	23.51	-51.6	-54.1	3.6	0.00e+00	0	39	104	0	60	86188
2026-01-01 00:19:44.38	227.57	23.31	-51.6	-54.2	3.6	0.00e+00	0	39	104	0	60	86393
2026-01-01 00:19:45.40	227.42	23.12	-51.6	-54.1	3.6	0.00e+00	0	39	104	0	60	85426
2026-01-01 00:19:46.41	227.27	22.93	-51.6	-54.0	3.6	0.00e+00	0	39	104	0	60	85085
2026-01-01 00:19:47.42	227.13	22.73	-51.6	-54.1	3.6	0.00e+00	0	39	104	0	60	85245
2026-01-01 00:19:48.43	226.98	22.55	-51.6	-54.1	3.6	0.00e+00	0	39	104	0	60	85406
2026-01-01 00:19:49.44	226.84	22.36	-51.6	-54.1	3.6	0.00e+00	0	39	104	0	60	85691
2026-01-01 00:19:50.45	226.70	22.17	-51.6	-54.1	3.6	0.00e+00	0	39	104	0	60	85613
2026-01-01 00:19:51.46	226.57	21.99	-51.6	-54.1	3.6	0.00e+00	0	39	104	0	60	86191
2026-01-01 00:19:52.47	226.43	21.80	-51.7	-54.1	3.6	0.00e+00	0	39	104	0	60	85731
2026-01-01 00:19:53.48	226.30	21.62	-51.6	-54.1	3.6	0.00e+00	0	39	104	0	60	85681
2026-01-01 00:19:54.49	226.17	21.44	-51.6	-54.1	3.6	0.00e+00	0	39	104	0	60	85674
2026-01-01 00:19:55.50	226.04	21.26	-51.6	-54.1	3.6	0.00e+00	0	39	104	0	60	85764
2026-01-01 00:19:56.52	225.91	21.08	-51.6	-54.1	3.5	0.00e+00	0	39	104	0	60	85370
2026-01-01 00:19:57.53	225.78	20.90	-51.6	-54.1	3.6	0.00e+00	0	39	104	0	60	86124
2026-01-01 00:19:58.54	225.66	20.73	-51.6	-54.1	3.6	0.00e+00	0	39	104	0	60	85778
2026-01-01 00:19:59.55	225.53	20.56	-51.7	-54.1	3.6	0.00e+00	0	39	104	0	60	85318
2026-01-01 00:20:00.56	225.41	20.38	-51.6	-54.2	3.6	0.00e+00	0	39	104	0	60	86286
2026-01-01 00:20:01.57	225.29	20.21	-51.7	-54.1	3.6	0.00e+00	0	39	104	0	60	85806
2026-01-01 00:20:02.58	225.17	20.04	-51.7	-54.1	3.6	0.00e+00	0	39	104	0	60	85553
2026-01-01 00:20:03.59	225.05	19.87	-51.7	-54.1	3.6	0.00e+00	0	39	104	0	60	85539
2026-01-01 00:20:04.60	224.94	19.71	-51.6	-54.1	3.6	0.00e+00	0	39	104	0	60	85968
2026-01-01 00:20:05.61	224.83	19.54	-51.7	-54.1	3.6	0.00e+00	0	39	104	0	60	85394
2026-01-01 00:20:06.63	224.71	19.38	-51.7	-54.1	3.6	0.00e+00	0	39	104	0	60	85567
2026-01-01 00:20:07.64	224.60	19.21	-51.7	-54.1	3.6	0.00e+00	0	39	104	0	60	85793
2026-01-01 00:20:08.65	224.49	19.05	-51.6	-54.1	3.6	0.00e+00	0	39	104	0	60	85780
2026-01-01 00:20:09.66	224.38	18.89	-51.6	-54.1	3.6	0.00e+00	0	39	104	0	60	85795
2026-01-01 00:20:10.67	224.27	18.73	-51.6	-54.1	3.6	0.00e+00	0	39	104	0	60	85305
2026-01-01 00:20:11.68	224.17	18.57	-51.6	-54.1	3.6	0.00e+00	0	39	104	0	60	85528
2026-01-01 00:20:12.69	224.06	18.41	-51.7	-54.1	3.6	0.00e+00	0	39	104	0	60	85404
2026-01-01 00:20:13.70	223.96	18.26	-51.6	-54.1	3.6	0.00e+00	0	39	104	0	60	85682
2026-01-01 00:20:14.71	223.86	18.10	-51.6	-54.1	3.6	0.00e+00	0	39	104	0	60	85525
2026-01-01 00:20:15.72	223.76	17.95	-51.6	-54.1	3.6	0.00e+00	0	39	104	0	60	86168
2026-01-01 00:20:16.73	223.66	17.80	-51.7	-54.1	3.6	0.00e+00	0	39	104	0	60	85841
2026-01-01 00:20:17.74	223.56	17.64	-51.6	-54.1	3.6	0.00e+00	0	39	104	0	60	85864
2026-01-01 00:20:18.76	223.46	17.49	-51.6	-54.1	3.6	0.00e+00	0	39	104	0	60	85897
2026-01-01 00:20:19.77	223.36	17.34	-51.6	-54.1	3.6	0.00e+00	0	39	104	0	60	85440
2026-01-01 00:20:20.78	223.27	17.19	-51.6	-54.1	3.6	0.00e+00	0	39	104	0	60	85673
2026-01-01 00:20:21.79	223.18	17.05	-51.7	-54.1	3.6	0.00e+00	0	39	104	0	60	86100
2026-01-01 00:20:22.80	223.08	16.90	-51.7	-54.2	3.6	0.00e+00	0	39	104	0	60	86231
2026-01-01 00:20:23.81	222.99	16.75	-51.7	-54.1	3.6	0.00e+00	0	39	104	0	60	85569
2026-01-01 00:20:24.82	222.90	16.61	-51.7	-54.1	3.6	0.00e+00	0	39	104	0	60	85259
2026-01-01 00:20:25.83	222.81	16.47	-51.6	-54.1	3.6	0.00e+00	0	39	104	0	60	85641
2026-01-01 00:20:26.84	222.72	16.32	-51.7	-54.1	3.6	0.00e+00	0	39	104	0	60	85623
2026-01-01 00:20:27.85	222.63	16.18	-51.6	-54.1	3.6	0.00e+00	0	39	104	0	60	85869
2026-01-01 00:20:28.86	222.55	16.04	-51.6	-54.1	3.6	0.00e+00	0	39	104	0	60	85441
2026-01-01 00:20:29.88	222.46	15.90	-51.7	-54.1	3.6	0.00e+00	0	39	104	0	60	85966
2026-01-01 00:20:30.89	222.38	15.76	-51.7	-54.1	3.6	0.00e+00	0	39	104	0	60	85763
2026-01-01 00:20:31.90	222.29	15.63	-51.6	-54.1	3.6	0.00e+00	0	39	104	0	60	85355
2026-01-01 00:20:32.91	222.21	15.49	-51.6	-54.1	3.6	0.00e+00	0	39	104	0	60	85438
2026-01-01 00:20:33.92	222.13	15.35	-51.7	-54.1	3.6	0.00e+00	0	39	104	0	60	85375
2026-01-01 00:20:34.93	222.05	15.22	-51.6	-54.1	3.6	0.00e+00	0	39	104	0	60	86161
2026-01-01 00:20:35.94	221.97	15.08	-51.6	-54.1	3.6	0.00e+00	0	39	104	0	60	86029
2026-01-01 00:20:36.96	221.88	14.95	-51.6	-54.0	3.6	0.00e+00	0	39	104	0	60	85092
2026-01-01 00:20:37.97	221.81	14.82	-51.6	-54.1	3.6	0.00e+00	0	39	104	0	60	85608
2026-01-01 00:20:38.98	221.73	14.69	-51.6	-54.1	3.6	0.00e+00	0	39	104	0	60	85665
2026-01-01 00:20:39.99	221.65	14.56	-51.7	-54.1	3.6	0.00e+00	0	39	104	0	60	86189
2026-01-01 00:20:41.00	221.58	14.43	-51.8	-54.2	3.6	0.00e+00	0	39	104	0	60	86825
2026-01-01 00:20:42.01	221.50	14.30	-51.6	-54.1	3.6	0.00e+00	0	39	104	0	60	86068
2026-01-01 00:20:43.02	221.43	14.17	-51.7	-54.2	3.6	0.00e+00	0	39	104	0	60	86449
2026-01-01 00:20:44.04	221.35	14.04	-51.8	-54.3	3.6	0.00e+00	0	39	104	0	60	87216
2026-01-01 00:20:45.05	221.28	13.92	-51.9	-54.3	3.6	0.00e+00	0	39	104	0	60	87826
2026-01-01 00:20:46.06	221.21	13.79	-51.9	-54.3	3.6	0.00e+00	0	39	104	0	60	87939
2026-01-01 00:20:47.07	221.13	13.66	-51.7	-54.2	3.6	0.00e+00	0	39	104	0	60	86775
2026-01-01 00:20:48.08	221.06	13.54	-51.8	-54.2	3.6	0.00e+00	0	39	104	0	60	86727
2026-01-01 00:20:49.09	220.99	13.42	-51.6	-54.1	3.6	0.00e+00	0	39	104	0	60	85884
2026-01-01 00:20:50.10	220.92	13.30	-51.5	-54.0	3.6	0.00e+00	0	39	104	0	60	84694
2026-01-01 00:20:51.11	220.86	13.17	-51.3	-53.9	3.6	0.00e+00	0	39	104	0	60	83554
2026-01-01 00:20:52.12	220.79	13.05	-51.2	-53.7	3.6	0.00e+00	0	39	104	0	60	81424
2026-01-01 00:20:53.14	220.72	12.93	-49.6	-52.2	3.6	0.00e+00	0	39	104	0	60	68788
2026-01-01 00:20:54.15	220.65	12.81	-50.5	-52.9	3.6	0.00e+00	0	39	104	0	60	74951
2026-01-01 00:20:55.16	220.59	12.69	-50.2	-52.7	3.6	0.00e+00	0	39	104	0	60	72566
2026-01-01 00:20:56.17	220.52	12.57	-50.2	-52.6	3.6	0.00e+00	0	39	104	0	60	72536
2026-01-01 00:20:57.18	220.46	12.46	-50.2	-52.7	3.6	0.00e+00	0	39	104	0	60	73049
2026-01-01 00:20:58.19	220.39	12.34	-50.2	-52.7	3.6	0.00e+00	0	39	104	0	60	72808
2026-01-01 00:20:59.20	220.33	12.22	-50.2	-52.7	3.6	0.00e+00	0	39	104	0	60	72697
2026-01-01 00:21:00.21	220.27	12.11	-50.2	-52.7	3.6	0.00e+00	0	39	104	0	60	72683
2026-01-01 00:21:01.22	220.21	11.99	-50.2	-52.7	3.6	0.00e+00	0	39	104	0	60	73170
2026-01-01 00:21:02.23	220.14	11.88	-50.2	-52.7	3.6	0.00e+00	0	39	104	0	60	72791
2026-01-01 00:21:03.24	220.08	11.77	-50.2	-52.7	3.6	0.00e+00	0	39	104	0	60	72698
2026-01-01 00:21:04.26	220.02	11.65	-50.2	-52.7	3.6	0.00e+00	0	39	104	0	60	72813
2026-01-01 00:21:05.27	219.96	11.54	-50.2	-52.7	3.6	0.00e+00	0	39	104	0	60	72719
2026-01-01 00:21:06.28	219.90	11.43	-50.2	-52.7	3.6	0.00e+00	0	39	104	0	60	72787
2026-01-01 00:21:07.29	219.84	11.32	-50.2	-52.7	3.6	0.00e+00	0	39	104	0	60	72651
2026-01-01 00:21:08.30	219.79	11.21	-50.2	-52.6	3.6	0.00e+00	0	39	104	0	60	72468
2026-01-01 00:21:09.31	219.73	11.10	-50.2	-52.7	3.6	0.00e+00	0	39	104	0	60	72971
2026-01-01 00:21:10.32	219.67	10.99	-50.2	-52.7	3.6	0.00e+00	0	39	104	0	60	72594
2026-01-01 00:21:11.33	219.62	10.88	-50.2	-52.7	3.6	0.00e+00	0	39	104	0	60	72668
2026-01-01 00:21:12.34	219.56	10.77	-50.2	-52.7	3.6	0.00e+00	0	39	104	0	60	72855
2026-01-01 00:21:13.35	219.50	10.67	-50.2	-52.7	3.6	0.00e+00	0	39	104	0	60	72680
2026-01-01 00:21:14.36	219.45	10.56	-50.2	-52.7	3.6	0.00e+00	0	39	104	0	60	72669
2026-01-01 00:21:15.37	219.40	10.46	-50.2	-52.7	3.6	0.00e+00	0	39	104	0	60	73259
2026-01-01 00:21:16.38	219.34	10.35	-50.2	-52.6	3.6	0.00e+00	0	39	104	0	60	72509
2026-01-01 00:21:17.40	219.29	10.24	-50.2	-52.6	3.6	0.00e+00	0	39	104	0	60	72496
2026-01-01 00:21:18.41	219.23	10.14	-50.2	-52.7	3.6	0.00e+00	0	39	104	0	60	72948
2026-01-01 00:21:19.42	219.18	10.04	-50.2	-52.7	3.6	0.00e+00	0	39	104	0	60	72605
2026-01-01 00:21:20.43	219.13	9.93	-50.2	-52.6	3.6	0.00e+00	0	39	104	0	60	72423
2026-01-01 00:21:21.44	219.08	9.83	-50.2	-52.6	3.6	0.00e+00	0	39	104	0	60	72285
2026-01-01 00:21:22.45	219.03	9.73	-50.2	-52.7	3.6	0.00e+00	0	39	104	0	60	72594
2026-01-01 00:21:23.46	218.98	9.63	-50.2	-52.7	3.6	0.00e+00	0	39	104	0	60	72902
2026-01-01 00:21:24.47	218.93	9.53	-50.2	-52.6	3.6	0.00e+00	0	39	104	0	60	72409
2026-01-01 00:21:25.48	218.88	9.42	-50.2	-52.6	3.6	0.00e+00	0	39	104	0	60	72509
2026-01-01 00:21:26.49	218.83	9.32	-50.2	-52.7	3.6	0.00e+00	0	39	104	0	60	72763
2026-01-01 00:21:27.50	218.78	9.22	-50.2	-52.7	3.6	0.00e+00	0	39	104	0	60	72709
2026-01-01 00:21:28.52	218.73	9.12	-50.2	-52.6	3.6	0.00e+00	0	39	104	0	60	72393
2026-01-01 00:21:29.53	218.68	9.03	-50.2	-52.7	3.6	0.00e+00	0	39	104	0	60	72804
2026-01-01 00:21:30.54	218.63	8.93	-50.2	-52.6	3.6	0.00e+00	0	39	104	0	60	72202
2026-01-01 00:21:31.55	218.59	8.83	-50.1	-52.7	3.6	0.00e+00	0	39	104	0	60	72847
2026-01-01 00:21:32.56	218.54	8.73	-50.2	-52.6	3.6	0.00e+00	0	39	104	0	60	72410
2026-01-01 00:21:33.57	218.49	8.64	-50.2	-52.6	3.6	0.00e+00	0	39	104	0	60	72391
2026-01-01 00:21:34.58	218.45	8.54	-50.2	-52.6	3.6	0.00e+00	0	39	104	0	60	72459
2026-01-01 00:21:35.60	218.40	8.44	-50.1	-52.6	3.6	0.00e+00	0	39	104	0	60	72368
2026-01-01 00:21:36.61	218.36	8.35	-50.1	-52.6	3.6	0.00e+00	0	39	104	0	60	72337
2026-01-01 00:21:37.62	218.31	8.25	-50.1	-52.6	3.6	0.00e+00	0	39	104	0	60	72320
2026-01-01 00:21:38.63	218.27	8.16	-50.2	-52.7	3.6	0.00e+00	0	39	104	0	60	72637
2026-01-01 00:21:39.64	218.22	8.07	-50.2	-52.7	3.6	0.00e+00	0	39	104	0	60	72714
2026-01-01 00:21:40.65	218.18	7.97	-50.3	-52.8	3.6	0.00e+00	0	39	104	0	60	73742
2026-01-01 00:21:41.66	218.14	7.88	-50.3	-52.8	3.6	0.00e+00	0	39	104	0	60	73756
2026-01-01 00:21:42.67	218.09	7.79	-50.1	-52.6	3.6	0.00e+00	0	39	104	0	60	72494
2026-01-01 00:21:43.68	218.05	7.69	-50.3	-52.8	3.6	0.00e+00	0	39	104	0	60	73521
2026-01-01 00:21:44.69	218.01	7.60	-50.3	-52.8	3.6	0.00e+00	0	39	104	0	60	73923
2026-01-01 00:21:45.70	217.97	7.51	-50.3	-52.8	3.6	0.00e+00	0	39	104	0	60	73669
2026-01-01 00:21:46.72	217.93	7.42	-50.4	-52.8	3.6	0.00e+00	0	39	104	0	60	74223
2026-01-01 00:21:47.73	217.89	7.33	-50.4	-52.9	3.6	0.00e+00	0	39	104	0	60	74729
2026-01-01 00:21:48.74	217.84	7.24	-50.5	-52.9	3.6	0.00e+00	0	39	104	0	60	75065
2026-01-01 00:21:49.75	217.80	7.15	-50.5	-52.9	3.6	0.00e+00	0	39	104	0	60	74952
2026-01-01 00:21:50.76	217.76	7.06	-50.5	-52.9	3.6	0.00e+00	0	39	104	0	60	74829
2026-01-01 00:21:51.77	217.72	6.97	-50.5	-52.9	3.6	0.00e+00	0	39	104	0	60	74609
2026-01-01 00:21:52.78	217.68	6.88	-50.5	-53.0	3.6	0.00e+00	0	39	104	0	60	75123
2026-01-01 00:21:53.79	217.65	6.79	-50.5	-53.0	3.6	0.00e+00	0	39	104	0	60	75602
2026-01-01 00:21:54.80	217.61	6.71	-50.5	-52.9	3.6	0.00e+00	0	39	104	0	60	75071
2026-01-01 00:21:55.81	217.57	6.62	-50.5	-53.0	3.6	0.00e+00	0	39	104	0	60	75450
2026-01-01 00:21:56.83	217.53	6.53	-50.5	-53.0	3.6	0.00e+00	0	39	104	0	60	75447
2026-01-01 00:21:57.84	217.49	6.44	-50.6	-53.0	3.6	0.00e+00	0	39	104	0	60	75844
2026-01-01 00:21:58.85	217.45	6.36	-50.6	-53.0	3.6	0.00e+00	0	39	104	0	60	75815
2026-01-01 00:21:59.86	217.42	6.27	-50.6	-53.0	3.6	0.00e+00	0	39	104	0	60	75771
2026-01-01 00:22:00.87	217.38	6.19	-50.6	-53.0	3.6	0.00e+00	0	39	104	0	60	75537
2026-01-01 00:22:01.88	217.34	6.10	-50.6	-53.0	3.6	0.00e+00	0	39	104	0	60	75834
2026-01-01 00:22:02.89	217.31	6.02	-50.6	-53.1	3.6	0.00e+00	0	39	104	0	60	76251
2026-01-01 00:22:03.90	217.27	5.93	-50.6	-53.1	3.6	0.00e+00	0	39	104	0	60	76206
2026-01-01 00:22:04.91	217.23	5.85	-50.6	-53.1	3.6	0.00e+00	0	39	104	0	60	75996
2026-01-01 00:22:05.92	217.20	5.76	-50.6	-53.1	3.6	0.00e+00	0	39	104	0	60	76007
2026-01-01 00:22:06.93	217.16	5.68	-50.6	-53.1	3.6	0.00e+00	0	39	104	0	60	76334
2026-01-01 00:22:07.94	217.13	5.60	-50.6	-53.1	3.6	0.00e+00	0	39	104	0	60	76650
2026-01-01 00:22:08.95	217.09	5.52	-50.7	-53.1	3.6	0.00e+00	0	39	104	0	60	76769
2026-01-01 00:22:09.97	217.06	5.43	-50.7	-53.1	3.6	0.00e+00	0	39	104	0	60	76478
2026-01-01 00:22:10.98	217.02	5.35	-50.7	-53.1	3.6	0.00e+00	0	39	104	0	60	76780
2026-01-01 00:22:11.99	216.99	5.27	-50.7	-53.2	3.6	0.00e+00	0	39	104	0	60	76859
2026-01-01 00:22:13.00	216.96	5.19	-50.7	-53.2	3.6	0.00e+00	0	39	104	0	60	76945
2026-01-01 00:22:14.01	216.92	5.11	-50.7	-53.2	3.6	0.00e+00	0	39	104	0	60	77460
2026-01-01 00:22:15.02	216.89	5.03	-50.7	-53.2	3.6	0.00e+00	0	39	104	0	60	77220
2026-01-01 00:22:16.03	216.86	4.94	-50.7	-53.2	3.6	0.00e+00	0	39	104	0	60	77142
2026-01-01 00:22:17.04	216.82	4.86	-50.7	-53.2	3.6	0.00e+00	0	39	104	0	60	76907
2026-01-01 00:22:18.05	216.79	4.78	-50.7	-53.2	3.6	0.00e+00	0	39	104	0	60	77478
2026-01-01 00:22:19.06	216.76	4.70	-50.8	-53.2	3.6	0.00e+00	0	39	104	0	60	77410
2026-01-01 00:22:20.07	216.73	4.63	-50.8	-53.2	3.6	0.00e+00	0	39	104	0	60	77208
2026-01-01 00:22:21.08	216.69	4.55	-50.7	-53.2	3.6	0.00e+00	0	39	104	0	60	77264
2026-01-01 00:22:22.09	216.66	4.47	-50.7	-53.2	3.6	0.00e+00	0	39	104	0	60	77286
2026-01-01 00:22:23.10	216.63	4.39	-50.7	-53.3	3.6	0.00e+00	0	39	104	0	60	77747
2026-01-01 00:22:24.12	216.60	4.31	-50.7	-53.3	3.6	0.00e+00	0	39	104	0	60	77916
2026-01-01 00:22:25.13	216.57	4.23	-50.8	-53.2	3.6	0.00e+00	0	39	104	0	60	77606
2026-01-01 00:22:26.14	216.54	4.16	-50.8	-53.3	3.6	0.00e+00	0	39	104	0	60	77797
2026-01-01 00:22:27.15	216.51	4.08	-50.8	-53.3	3.6	0.00e+00	0	39	104	0	60	77992
2026-01-01 00:22:28.16	216.48	4.00	-50.8	-53.3	3.6	0.00e+00	0	39	104	0	60	77954
2026-01-01 00:22:29.17	216.45	3.92	-50.8	-53.3	3.6	0.00e+00	0	39	104	0	60	78057
2026-01-01 00:22:30.18	216.42	3.85	-50.8	-53.3	3.6	0.00e+00	0	39	104	0	60	78312
2026-01-01 00:22:31.20	216.39	3.77	-50.8	-53.3	3.6	0.00e+00	0	39	104	0	60	77795
2026-01-01 00:22:32.20	216.36	3.70	-50.8	-53.3	3.6	0.00e+00	0	39	104	0	60	78027
2026-01-01 00:22:33.21	216.33	3.62	-50.8	-53.3	3.6	0.00e+00	0	39	104	0	60	77844
2026-01-01 00:22:34.23	216.30	3.54	-50.8	-53.3	3.6	0.00e+00	0	39	104	0	60	77992
2026-01-01 00:22:35.24	216.27	3.47	-50.8	-53.3	3.6	0.00e+00	0	39	104	0	60	77958
2026-01-01 00:22:36.25	216.24	3.39	-50.8	-53.3	3.6	0.00e+00	0	39	104	0	60	77742
2026-01-01 00:22:37.26	216.21	3.32	-50.8	-53.3	3.6	0.00e+00	0	39	104	0	60	77995
2026-01-01 00:22:38.27	216.19	3.25	-50.8	-53.3	3.6	0.00e+00	0	39	104	0	60	78212
2026-01-01 00:22:39.28	216.16	3.17	-50.8	-53.3	3.6	0.00e+00	0	39	104	0	60	77814
2026-01-01 00:22:40.29	216.13	3.10	-50.8	-53.3	3.6	0.00e+00	0	39	104	0	60	78560
2026-01-01 00:22:41.30	216.10	3.02	-50.9	-53.4	3.6	0.00e+00	0	39	104	0	60	78632
2026-01-01 00:22:42.32	216.07	2.95	-50.9	-53.4	3.6	0.00e+00	0	39	104	0	60	78824
2026-01-01 00:22:43.33	216.05	2.88	-50.9	-53.4	3.6	0.00e+00	0	39	104	0	60	78685
2026-01-01 00:22:44.34	216.02	2.80	-51.0	-53.4	3.6	0.00e+00	0	39	104	0	60	79091
2026-01-01 00:22:45.35	215.99	2.73	-51.0	-53.4	3.6	0.00e+00	0	39	104	0	60	79217
2026-01-01 00:22:46.36	215.97	2.66	-51.0	-53.4	3.6	0.00e+00	0	39	104	0	60	78968
2026-01-01 00:22:47.37	215.94	2.59	-51.0	-53.5	3.6	0.00e+00	0	39	104	0	60	79572
2026-01-01 00:22:48.38	215.91	2.52	-51.0	-53.4	3.6	0.00e+00	0	39	104	0	60	79230
2026-01-01 00:22:49.39	215.89	2.44	-51.0	-53.4	3.6	0.00e+00	0	39	104	0	60	79412
2026-01-01 00:22:50.40	215.86	2.37	-51.0	-53.4	3.6	0.00e+00	0	39	104	0	60	79407
2026-01-01 00:22:51.41	215.84	2.30	-51.0	-53.4	3.6	0.00e+00	0	39	104	0	60	79341
2026-01-01 00:22:52.43	215.81	2.23	-51.0	-53.4	3.6	0.00e+00	0	39	104	0	60	79446
2026-01-01 00:22:53.44	215.79	2.16	-51.0	-53.4	3.6	0.00e+00	0	39	104	0	60	79392
2026-01-01 00:22:54.45	215.76	2.09	-51.0	-53.4	3.6	0.00e+00	0	39	104	0	60	79437
2026-01-01 00:22:55.46	215.74	2.02	-50.9	-53.4	3.6	0.00e+00	0	39	104	0	60	79470
2026-01-01 00:22:56.47	215.71	1.95	-51.0	-53.4	3.6	0.00e+00	0	39	104	0	60	79352
2026-01-01 00:22:57.48	215.69	1.88	-51.0	-53.5	3.6	0.00e+00	0	39	104	0	60	79757
2026-01-01 00:22:58.49	215.66	1.81	-51.0	-53.5	3.6	0.00e+00	0	39	104	0	60	79800
2026-01-01 00:22:59.50	215.64	1.74	-51.0	-53.5	3.6	0.00e+00	0	39	104	0	60	79601
2026-01-01 00:23:00.51	215.61	1.67	-51.0	-53.5	3.6	0.00e+00	0	39	104	0	60	80047
2026-01-01 00:23:01.52	215.59	1.60	-51.1	-53.5	3.6	0.00e+00	0	39	104	0	60	79823
2026-01-01 00:23:02.53	215.56	1.53	-51.0	-53.5	3.6	0.00e+00	0	39	104	0	60	79747
2026-01-01 00:23:03.55	215.54	1.46	-51.1	-53.5	3.6	0.00e+00	0	39	104	0	60	80244
2026-01-01 00:23:04.55	215.52	1.40	-51.1	-53.5	3.6	0.00e+00	0	39	104	0	60	80109
2026-01-01 00:23:05.57	215.49	1.33	-51.1	-53.6	3.6	0.00e+00	0	39	104	0	60	80460
2026-01-01 00:23:06.58	215.47	1.26	-51.0	-53.5	3.6	0.00e+00	0	39	104	0	60	79856
2026-01-01 00:23:07.59	215.45	1.19	-51.0	-53.5	3.6	0.00e+00	0	39	104	0	60	79810
2026-01-01 00:23:08.60	215.42	1.12	-51.1	-53.5	3.6	0.00e+00	0	39	104	0	60	80356
2026-01-01 00:23:09.61	215.40	1.06	-51.1	-53.6	3.6	0.00e+00	0	39	104	0	60	80678
2026-01-01 00:23:10.62	215.38	0.99	-51.1	-53.6	3.6	0.00e+00	0	39	104	0	60	80496
2026-01-01 00:23:11.63	215.36	0.92	-51.1	-53.6	3.6	0.00e+00	0	39	104	0	60	80520
2026-01-01 00:23:12.64	215.33	0.85	-51.1	-53.6	3.6	0.00e+00	0	39	104	0	60	80595
2026-01-01 00:23:13.65	215.31	0.79	-51.1	-53.5	3.6	0.00e+00	0	39	104	0	60	80347
2026-01-01 00:23:14.66	215.29	0.72	-51.1	-53.6	3.6	0.00e+00	0	39	104	0	60	80848
2026-01-01 00:23:15.67	215.27	0.66	-51.1	-53.6	3.6	0.00e+00	0	39	104	0	60	80464
2026-01-01 00:23:16.68	215.25	0.59	-51.1	-53.6	3.6	0.00e+00	0	39	104	0	60	80789
2026-01-01 00:23:17.69	215.22	0.52	-51.0	-53.5	3.6	0.00e+00	0	39	104	0	60	80173
2026-01-01 00:23:18.70	215.20	0.46	-51.0	-53.6	3.6	0.00e+00	0	39	104	0	60	80500
2026-01-01 00:23:19.71	215.18	0.39	-51.0	-53.5	3.6	0.00e+00	0	39	104	0	60	80256
2026-01-01 00:23:20.72	215.16	0.33	-51.0	-53.5	3.6	0.00e+00	0	39	104	0	60	80443
2026-01-01 00:23:21.73	215.14	0.26	-51.1	-53.6	3.6	0.00e+00	0	39	104	0	60	80984
2026-01-01 00:23:22.74	215.12	0.20	-51.2	-53.7	3.6	0.00e+00	0	39	104	0	60	81425
2026-01-01 00:23:23.75	215.10	0.13	-51.2	-53.6	3.6	0.00e+00	0	39	104	0	60	80982
2026-01-01 00:23:24.76	215.08	0.07	-51.2	-53.6	3.5	0.00e+00	0	39	104	0	60	81238
2026-01-01 00:23:25.77	215.05	0.00	-51.2	-53.6	3.6	0.00e+00	0	39	104	0	60	81148
2026-01-01 00:23:26.79	215.03	-0.06	-51.2	-53.6	3.6	0.00e+00	0	39	104	0	60	81006

#Closed at: 2026-01-01 00:23:27
#Recorded file [0 MB]: D:/lorett/data/35034_260101_031147.dat