passes_logs/2026/01/29/R2.0S_Moscow/R2.0S_Moscow__20260129_235327_SUOMI_NPP_rec.log

#Pass ID: 20260129_235327_SUOMI NPP
#Satellite: SUOMI NPP
#Configuration: NPP
#almurnet v.1.7.20251203
#Start time: 2026-01-29 23:53:28

#Version: 2.2.20231116
#Station: R2.0S_Moscow
#Location: 37.707566 lon 55.798166 lat
#TLE: 1 37849U 11061A   26028.91916408  .00000155  00000+0  94467-4 0  9990
#TLE: 2 37849  98.7824 330.8488 0002045  39.4457 320.6868 14.19531289738686

#Time	Az	El	Level	Level2	SNR	BER	BlckErr	Temp	State	Recorded	gain1	gain2
2026-01-29 23:53:28.95	15.60	2.12	-42.5	-57.1	3.8	1.49e+00	0	51	0	0	57	18321
2026-01-29 23:53:29.96	15.60	2.18	-42.5	-57.1	3.8	1.49e+00	0	51	104	0	56	19407
2026-01-29 23:53:30.97	15.59	2.25	-42.5	-57.1	3.8	1.49e+00	0	51	104	0	56	19409
2026-01-29 23:53:31.98	15.59	2.31	-42.5	-57.1	3.8	1.49e+00	0	52	104	0	56	19414
2026-01-29 23:53:32.99	15.59	2.38	-42.5	-57.1	3.8	1.49e+00	0	52	104	0	56	19420
2026-01-29 23:53:34.00	15.59	2.44	-42.5	-57.1	3.8	1.49e+00	0	52	104	0	56	19475
2026-01-29 23:53:35.01	15.59	2.51	-42.5	-57.1	3.8	1.49e+00	0	52	104	0	56	19392
2026-01-29 23:53:36.02	15.58	2.57	-42.5	-57.0	3.8	1.49e+00	0	52	104	0	56	19340
2026-01-29 23:53:37.03	15.58	2.64	-42.5	-57.1	3.8	1.49e+00	0	52	104	0	56	19426
2026-01-29 23:53:38.04	15.58	2.71	-42.5	-57.0	3.8	1.49e+00	0	52	104	0	56	19387
2026-01-29 23:53:39.05	15.58	2.77	-42.5	-57.0	3.8	1.49e+00	0	52	104	0	56	19371
2026-01-29 23:53:40.06	15.57	2.84	-42.5	-57.0	3.8	1.49e+00	0	52	104	0	56	19369
2026-01-29 23:53:41.07	15.57	2.90	-42.5	-57.1	3.8	1.49e+00	0	52	104	0	56	19395
2026-01-29 23:53:42.08	15.57	2.97	-42.5	-57.1	3.8	1.49e+00	0	53	104	0	56	19397
2026-01-29 23:53:43.09	15.57	3.04	-42.5	-57.0	3.8	1.49e+00	0	53	104	0	56	19343
2026-01-29 23:53:44.10	15.56	3.10	-42.5	-57.0	3.8	1.49e+00	0	53	104	0	56	19370
2026-01-29 23:53:45.11	15.56	3.17	-42.5	-57.1	3.8	1.49e+00	0	53	104	0	56	19448
2026-01-29 23:53:46.12	15.56	3.24	-42.5	-57.0	3.8	1.49e+00	0	53	104	0	56	19384
2026-01-29 23:53:47.13	15.55	3.31	-42.5	-57.1	3.8	1.49e+00	0	53	104	0	56	19394
2026-01-29 23:53:48.14	15.55	3.37	-42.5	-57.0	3.8	1.49e+00	0	53	104	0	56	19375
2026-01-29 23:53:49.15	15.55	3.44	-42.5	-57.1	3.8	1.49e+00	0	53	104	0	56	19392
2026-01-29 23:53:50.16	15.55	3.51	-42.5	-57.1	3.8	1.49e+00	0	53	104	0	56	19430
2026-01-29 23:53:51.17	15.54	3.58	-42.5	-57.0	3.8	1.49e+00	0	53	104	0	56	19376
2026-01-29 23:53:52.18	15.54	3.65	-42.5	-57.0	3.8	1.49e+00	0	53	104	0	56	19379
2026-01-29 23:53:53.19	15.54	3.71	-42.5	-57.0	3.8	1.49e+00	0	53	104	0	56	19346
2026-01-29 23:53:54.20	15.53	3.78	-42.5	-57.0	3.8	1.49e+00	0	53	104	0	56	19346
2026-01-29 23:53:55.21	15.53	3.85	-42.5	-57.0	3.8	1.49e+00	0	53	104	0	56	19297
2026-01-29 23:53:56.22	15.53	3.92	-42.5	-57.0	3.8	1.49e+00	0	53	104	0	56	19351
2026-01-29 23:53:57.23	15.53	3.99	-42.5	-57.0	3.8	1.49e+00	0	53	104	0	56	19375
2026-01-29 23:53:58.25	15.52	4.06	-42.5	-57.0	3.8	1.49e+00	0	54	104	0	56	19336
2026-01-29 23:53:59.26	15.52	4.13	-42.5	-57.0	3.8	1.49e+00	0	53	104	0	56	19343
2026-01-29 23:54:00.26	15.52	4.20	-42.5	-57.0	3.8	1.49e+00	0	54	104	0	56	19291
2026-01-29 23:54:01.28	15.51	4.27	-42.5	-57.0	3.8	1.49e+00	0	54	104	0	56	19358
2026-01-29 23:54:02.29	15.51	4.34	-42.5	-57.0	3.8	1.49e+00	0	54	104	0	56	19328
2026-01-29 23:54:03.30	15.51	4.41	-42.5	-57.0	3.8	1.49e+00	0	54	104	0	56	19346
2026-01-29 23:54:04.31	15.50	4.48	-42.5	-57.0	3.8	1.49e+00	0	54	104	0	56	19328
2026-01-29 23:54:05.32	15.50	4.55	-42.5	-57.0	3.8	1.49e+00	0	54	104	0	56	19293
2026-01-29 23:54:06.33	15.50	4.62	-42.5	-57.0	3.8	1.49e+00	0	54	104	0	56	19388
2026-01-29 23:54:07.34	15.49	4.69	-42.5	-57.0	3.8	1.49e+00	0	54	104	0	56	19313
2026-01-29 23:54:08.35	15.49	4.76	-42.5	-57.0	3.8	1.49e+00	0	54	104	0	56	19284
2026-01-29 23:54:09.36	15.49	4.83	-42.5	-57.0	3.8	1.49e+00	0	54	104	0	56	19345
2026-01-29 23:54:10.37	15.48	4.90	-42.5	-57.0	3.8	1.49e+00	0	54	104	0	56	19366
2026-01-29 23:54:11.38	15.48	4.98	-42.5	-57.0	3.8	1.49e+00	0	54	104	0	56	19368
2026-01-29 23:54:12.39	15.47	5.05	-42.5	-57.0	3.8	1.49e+00	0	54	104	0	56	19349
2026-01-29 23:54:13.40	15.47	5.12	-42.5	-57.0	3.8	1.49e+00	0	54	104	0	56	19351
2026-01-29 23:54:14.41	15.47	5.19	-42.5	-57.0	3.8	1.49e+00	0	54	104	0	56	19316
2026-01-29 23:54:15.42	15.46	5.26	-42.5	-57.0	3.8	1.49e+00	0	55	104	0	56	19327
2026-01-29 23:54:16.43	15.46	5.34	-42.5	-57.0	3.8	1.49e+00	0	54	104	0	56	19377
2026-01-29 23:54:17.44	15.46	5.41	-42.5	-57.0	3.8	1.49e+00	0	55	104	0	56	19279
2026-01-29 23:54:18.45	15.45	5.48	-42.5	-57.0	3.8	1.49e+00	0	55	104	0	56	19305
2026-01-29 23:54:19.46	15.45	5.56	-42.5	-57.0	3.8	1.49e+00	0	55	104	0	56	19341
2026-01-29 23:54:20.47	15.44	5.63	-42.5	-57.0	3.8	1.49e+00	0	55	104	0	56	19292
2026-01-29 23:54:21.48	15.44	5.70	-42.5	-57.0	3.8	1.49e+00	0	55	104	0	56	19285
2026-01-29 23:54:22.49	15.44	5.78	-42.5	-57.0	3.8	1.49e+00	0	55	104	0	56	19232
2026-01-29 23:54:23.50	15.43	5.85	-42.5	-57.0	3.8	1.49e+00	0	55	104	0	56	19366
2026-01-29 23:54:24.51	15.43	5.93	-42.5	-57.0	3.8	1.49e+00	0	55	104	0	56	19326
2026-01-29 23:54:25.52	15.42	6.00	-42.5	-57.0	3.8	1.49e+00	0	55	104	0	56	19229
2026-01-29 23:54:26.53	15.42	6.07	-42.5	-56.9	3.8	1.49e+00	0	55	104	0	56	19139
2026-01-29 23:54:27.54	15.41	6.15	-42.5	-56.9	3.8	1.49e+00	0	55	104	0	56	19112
2026-01-29 23:54:28.55	15.41	6.22	-42.5	-56.9	3.8	1.49e+00	0	55	104	0	56	19080
2026-01-29 23:54:29.56	15.41	6.30	-42.5	-56.9	3.8	1.49e+00	0	55	104	0	56	18988
2026-01-29 23:54:30.57	15.40	6.38	-42.5	-56.8	3.8	1.49e+00	0	55	104	0	56	18948
2026-01-29 23:54:31.58	15.40	6.45	-42.5	-56.8	3.8	1.49e+00	0	55	104	0	56	18798
2026-01-29 23:54:32.59	15.39	6.53	-42.5	-56.7	3.8	1.49e+00	0	55	104	0	56	18534
2026-01-29 23:54:33.60	15.39	6.60	-42.5	-56.5	3.8	1.49e+00	0	55	104	0	56	18282
2026-01-29 23:54:34.61	15.38	6.68	-42.5	-56.2	3.8	1.49e+00	0	56	104	0	56	17652
2026-01-29 23:54:35.62	15.38	6.76	-42.4	-56.2	3.8	1.49e+00	0	56	104	0	56	17589
2026-01-29 23:54:36.63	15.37	6.83	-42.4	-55.7	3.8	1.49e+00	0	55	104	0	56	16521
2026-01-29 23:54:37.64	15.37	6.91	-42.4	-55.3	3.8	1.49e+00	0	56	104	0	56	15882
2026-01-29 23:54:38.65	15.36	6.99	-42.3	-54.8	3.8	1.49e+00	0	56	104	0	56	14990
2026-01-29 23:54:39.67	15.36	7.07	-42.3	-53.8	3.9	1.46e+00	0	56	104	0	56	13344
2026-01-29 23:54:40.68	15.36	7.14	-42.2	-53.1	4.3	1.39e+00	0	55	0	0	56	12237
2026-01-29 23:54:41.69	15.35	7.22	-42.1	-52.1	4.6	9.81e-01	0	56	0	1048576	56	10995
2026-01-29 23:54:42.70	15.35	7.30	-42.0	-51.4	5.1	7.74e-01	0	56	0	3145728	56	10079
2026-01-29 23:54:43.71	15.34	7.38	-41.7	-50.3	5.7	5.00e-01	0	56	0	5242880	55	9393
2026-01-29 23:54:44.72	15.34	7.46	-41.6	-49.6	6.1	3.27e-01	0	56	0	7340032	55	8670
2026-01-29 23:54:45.73	15.33	7.54	-41.5	-49.0	6.6	2.33e-01	0	56	0	8388608	55	8161
2026-01-29 23:54:46.74	15.32	7.62	-41.5	-48.8	6.8	1.95e-01	0	56	0	10485760	54	8453
2026-01-29 23:54:47.75	15.32	7.70	-41.6	-49.3	6.3	2.58e-01	0	56	0	12582912	54	8964
2026-01-29 23:54:48.76	15.31	7.78	-41.8	-50.4	5.6	3.98e-01	0	56	0	14680064	54	10130
2026-01-29 23:54:49.77	15.31	7.86	-41.9	-51.3	5.0	6.03e-01	0	56	0	16777216	54	11281
2026-01-29 23:54:50.78	15.30	7.94	-41.9	-51.4	5.0	7.86e-01	0	56	0	17825792	54	11303
2026-01-29 23:54:51.79	15.30	8.02	-41.8	-50.9	5.2	6.18e-01	0	56	0	19922944	54	10697
2026-01-29 23:54:52.80	15.29	8.10	-41.8	-50.5	5.5	4.68e-01	0	56	0	22020096	54	10238
2026-01-29 23:54:53.81	15.29	8.18	-42.5	-50.2	6.4	4.22e-01	0	56	0	24117248	55	9313
2026-01-29 23:54:54.82	15.28	8.26	-41.9	-53.9	4.0	7.08e-01	0	56	0	25165824	55	14370
2026-01-29 23:54:55.83	15.28	8.34	-42.6	-51.3	5.6	1.43e+00	0	56	104	25165824	55	10631
2026-01-29 23:54:56.84	15.27	8.42	-42.8	-50.3	6.6	5.29e-01	0	56	0	26214400	56	8919
2026-01-29 23:54:57.85	15.26	8.51	-42.7	-50.1	6.7	2.32e-01	0	57	0	28311552	56	8677
2026-01-29 23:54:58.86	15.26	8.59	-42.6	-49.6	7.3	1.34e-01	0	57	0	30408704	56	8197
2026-01-29 23:54:59.87	15.25	8.67	-42.7	-50.1	6.8	1.69e-01	0	56	0	32505856	56	8679
2026-01-29 23:55:00.88	15.25	8.75	-42.7	-49.9	7.1	1.77e-01	0	56	0	34603008	56	8466
2026-01-29 23:55:01.89	15.24	8.84	-42.7	-49.7	7.2	1.36e-01	0	56	0	35651584	56	8338
2026-01-29 23:55:02.90	15.23	8.92	-42.7	-49.8	7.0	1.65e-01	0	56	0	37748736	56	8454
2026-01-29 23:55:03.91	15.23	9.00	-42.7	-49.6	7.4	1.24e-01	0	56	0	39845888	56	8197
2026-01-29 23:55:04.92	15.22	9.09	-42.9	-50.2	6.8	1.78e-01	0	57	0	41943040	56	8819
2026-01-29 23:55:05.93	15.22	9.17	-42.7	-54.0	4.2	2.95e-01	0	57	0	42991616	56	13616
2026-01-29 23:55:06.94	15.21	9.26	-43.3	-52.4	5.3	1.18e+00	0	57	0	45088768	57	10738
2026-01-29 23:55:07.95	15.20	9.34	-42.8	-50.0	7.1	1.36e-01	0	57	0	46137344	57	8102
2026-01-29 23:55:08.96	15.20	9.43	-42.8	-49.8	7.2	1.12e-01	0	57	0	48234496	57	7968
2026-01-29 23:55:09.97	15.19	9.51	-42.8	-49.5	7.6	1.29e-01	0	57	0	50331648	57	7664
2026-01-29 23:55:10.98	15.18	9.60	-42.8	-49.7	7.4	1.11e-01	0	57	0	52428800	57	7851
2026-01-29 23:55:12.00	15.18	9.69	-42.7	-49.2	7.8	1.09e-01	0	57	0	54525952	57	7429
2026-01-29 23:55:13.00	15.17	9.77	-42.8	-49.7	7.3	1.14e-01	0	57	0	55574528	57	7851
2026-01-29 23:55:14.02	15.16	9.86	-42.8	-49.4	7.6	1.00e-01	0	57	0	57671680	57	7623
2026-01-29 23:55:15.03	15.16	9.95	-42.8	-49.5	7.6	8.88e-02	0	57	0	59768832	57	7640
2026-01-29 23:55:16.04	15.15	10.03	-42.8	-49.7	7.4	1.02e-01	0	57	0	61865984	57	7817
2026-01-29 23:55:17.04	15.14	10.12	-42.8	-49.3	7.8	7.94e-02	0	57	0	63963136	57	7519
2026-01-29 23:55:18.05	15.14	10.21	-42.8	-49.3	7.9	8.47e-02	0	57	0	65011712	57	7469
2026-01-29 23:55:19.06	15.13	10.30	-42.9	-49.5	7.6	8.77e-02	0	57	0	67108864	57	7670
2026-01-29 23:55:20.07	15.12	10.38	-42.8	-49.2	8.0	6.60e-02	0	57	0	69206016	57	7403
2026-01-29 23:55:21.08	15.11	10.47	-42.8	-49.3	7.9	7.38e-02	0	57	0	71303168	57	7498
2026-01-29 23:55:22.09	15.11	10.56	-42.8	-49.2	8.0	6.39e-02	0	57	0	73400320	57	7433
2026-01-29 23:55:23.10	15.10	10.65	-42.8	-49.0	8.2	5.73e-02	0	57	0	74448896	57	7259
2026-01-29 23:55:24.12	15.09	10.74	-42.7	-48.9	8.3	6.15e-02	0	58	0	76546048	57	7160
2026-01-29 23:55:25.12	15.08	10.83	-42.7	-48.8	8.4	6.42e-02	0	57	0	78643200	57	7115
2026-01-29 23:55:26.14	15.08	10.92	-42.8	-49.0	8.2	5.17e-02	0	57	0	80740352	57	7263
2026-01-29 23:55:27.15	15.07	11.01	-42.8	-49.0	8.2	6.21e-02	0	57	0	82837504	57	7261
2026-01-29 23:55:28.16	15.06	11.11	-42.8	-48.9	8.3	4.65e-02	0	57	0	84934656	57	7176
2026-01-29 23:55:29.17	15.05	11.20	-42.8	-49.0	8.3	4.82e-02	0	57	0	85983232	57	7260
2026-01-29 23:55:30.18	15.05	11.29	-42.7	-48.7	8.5	5.35e-02	0	58	0	88080384	57	6967
2026-01-29 23:55:31.19	15.04	11.38	-42.7	-48.7	8.5	3.64e-02	0	57	0	90177536	57	7031
2026-01-29 23:55:32.20	15.03	11.47	-42.8	-48.8	8.5	3.67e-02	0	57	0	92274688	57	7082
2026-01-29 23:55:33.21	15.02	11.57	-42.7	-48.4	8.8	3.26e-02	0	58	0	93323264	57	6774
2026-01-29 23:55:34.22	15.01	11.66	-42.8	-48.7	8.6	3.62e-02	0	57	0	95420416	57	7001
2026-01-29 23:55:35.23	15.01	11.75	-42.7	-48.7	8.6	3.72e-02	0	58	0	97517568	57	6988
2026-01-29 23:55:36.24	15.00	11.85	-42.7	-48.6	8.8	3.30e-02	0	57	0	99614720	57	6893
2026-01-29 23:55:37.25	14.99	11.94	-42.7	-48.7	8.6	3.21e-02	0	58	0	101711872	57	6979
2026-01-29 23:55:38.26	14.98	12.04	-42.7	-48.6	8.7	3.32e-02	0	58	0	103809024	57	6899
2026-01-29 23:55:39.27	14.97	12.13	-42.7	-48.6	8.7	2.82e-02	0	58	0	104857600	57	6910
2026-01-29 23:55:40.27	14.96	12.23	-42.7	-48.4	8.9	3.56e-02	0	58	0	106954752	57	6749
2026-01-29 23:55:41.28	14.95	12.32	-42.6	-48.2	9.2	2.49e-02	0	58	0	109051904	57	6601
2026-01-29 23:55:42.29	14.95	12.42	-42.7	-48.5	8.8	2.37e-02	0	58	0	111149056	57	6819
2026-01-29 23:55:43.30	14.94	12.51	-42.6	-48.2	9.1	2.29e-02	0	58	0	113246208	57	6607
2026-01-29 23:55:44.31	14.93	12.61	-42.6	-48.2	9.1	1.80e-02	0	58	0	114294784	57	6644
2026-01-29 23:55:45.32	14.92	12.71	-42.7	-48.4	8.9	2.56e-02	0	58	0	116391936	57	6765
2026-01-29 23:55:46.33	14.91	12.81	-42.6	-48.2	9.1	2.28e-02	0	58	0	118489088	57	6616
2026-01-29 23:55:47.35	14.90	12.91	-42.6	-48.1	9.3	1.78e-02	0	58	0	120586240	57	6499
2026-01-29 23:55:48.36	14.89	13.00	-42.6	-48.2	9.2	2.15e-02	0	58	0	122683392	57	6576
2026-01-29 23:55:49.36	14.88	13.10	-42.6	-48.0	9.5	1.55e-02	0	58	0	123731968	57	6425
2026-01-29 23:55:50.38	14.87	13.20	-42.7	-48.2	9.2	1.66e-02	0	58	0	125829120	57	6621
2026-01-29 23:55:51.39	14.86	13.30	-42.6	-48.1	9.3	1.90e-02	0	58	0	127926272	57	6542
2026-01-29 23:55:52.39	14.85	13.40	-42.7	-48.2	9.3	1.49e-02	0	58	0	130023424	57	6601
2026-01-29 23:55:53.40	14.84	13.50	-42.6	-48.0	9.4	1.78e-02	0	58	0	132120576	57	6493
2026-01-29 23:55:54.41	14.83	13.60	-42.6	-47.9	9.6	1.62e-02	0	58	0	133169152	57	6383
2026-01-29 23:55:55.42	14.82	13.70	-42.7	-48.1	9.4	1.23e-02	0	58	0	135266304	57	6531
2026-01-29 23:55:56.43	14.81	13.81	-42.7	-48.1	9.4	1.53e-02	0	58	0	137363456	57	6540
2026-01-29 23:55:57.44	14.80	13.91	-42.6	-47.9	9.7	1.40e-02	0	58	0	139460608	57	6382
2026-01-29 23:55:58.45	14.79	14.01	-42.7	-48.1	9.5	1.45e-02	0	58	0	141557760	57	6539
2026-01-29 23:55:59.46	14.78	14.11	-42.6	-47.9	9.7	1.33e-02	0	58	0	143654912	57	6401
2026-01-29 23:56:00.47	14.77	14.22	-42.5	-47.6	9.9	1.04e-02	0	58	0	144703488	57	6200
2026-01-29 23:56:01.48	14.76	14.32	-42.6	-47.7	9.8	9.78e-03	0	58	0	146800640	57	6264
2026-01-29 23:56:02.49	14.75	14.43	-42.6	-47.7	9.9	9.41e-03	0	58	0	148897792	57	6209
2026-01-29 23:56:03.50	14.74	14.53	-42.6	-47.9	9.7	1.06e-02	0	58	0	150994944	57	6377
2026-01-29 23:56:04.51	14.73	14.64	-42.6	-47.8	9.7	1.17e-02	0	58	0	153092096	57	6317
2026-01-29 23:56:05.52	14.72	14.74	-42.6	-47.7	9.9	8.03e-03	0	58	0	154140672	57	6210
2026-01-29 23:56:06.53	14.71	14.85	-42.5	-47.6	10.0	9.04e-03	0	58	0	156237824	57	6158
2026-01-29 23:56:07.54	14.69	14.96	-42.5	-47.6	10.0	7.61e-03	0	58	0	158334976	57	6143
2026-01-29 23:56:08.55	14.68	15.06	-42.5	-47.5	10.0	6.70e-03	0	58	0	160432128	56	6483
2026-01-29 23:56:09.56	14.67	15.17	-42.5	-47.5	10.1	7.23e-03	0	58	0	162529280	56	6491
2026-01-29 23:56:10.57	14.66	15.28	-42.5	-47.5	10.2	6.94e-03	0	59	0	163577856	56	6434
2026-01-29 23:56:11.59	14.65	15.39	-42.5	-47.6	10.0	7.95e-03	0	58	0	165675008	56	6516
2026-01-29 23:56:12.60	14.64	15.50	-42.5	-47.4	10.3	6.27e-03	0	58	0	167772160	56	6381
2026-01-29 23:56:13.61	14.62	15.61	-42.4	-47.3	10.3	5.47e-03	0	58	0	169869312	56	6324
2026-01-29 23:56:14.62	14.61	15.72	-42.5	-47.4	10.2	5.33e-03	0	59	0	171966464	56	6415
2026-01-29 23:56:15.63	14.60	15.83	-42.5	-47.5	10.1	5.95e-03	0	58	0	173015040	56	6486
2026-01-29 23:56:16.64	14.59	15.94	-42.5	-47.4	10.3	5.02e-03	0	58	0	175112192	56	6387
2026-01-29 23:56:17.65	14.58	16.05	-42.5	-47.5	10.2	5.71e-03	0	59	0	177209344	56	6451
2026-01-29 23:56:18.66	14.56	16.16	-42.5	-47.3	10.4	5.45e-03	0	59	0	179306496	56	6338
2026-01-29 23:56:19.67	14.55	16.27	-42.5	-47.4	10.3	5.71e-03	0	58	0	181403648	56	6390
2026-01-29 23:56:20.68	14.54	16.39	-42.5	-47.4	10.4	5.06e-03	0	59	0	182452224	56	6367
2026-01-29 23:56:21.69	14.53	16.50	-42.5	-47.4	10.3	4.73e-03	0	58	0	184549376	56	6410
2026-01-29 23:56:22.70	14.51	16.62	-42.5	-47.4	10.4	4.84e-03	0	59	0	186646528	56	6359
2026-01-29 23:56:23.71	14.50	16.73	-42.6	-47.4	10.3	4.27e-03	0	59	0	188743680	56	6385
2026-01-29 23:56:24.72	14.49	16.85	-42.5	-47.3	10.4	4.47e-03	0	59	0	190840832	56	6341
2026-01-29 23:56:25.73	14.47	16.96	-42.5	-47.3	10.5	4.11e-03	0	59	0	191889408	56	6306
2026-01-29 23:56:26.74	14.46	17.08	-42.4	-47.1	10.8	3.52e-03	0	59	0	193986560	56	6142
2026-01-29 23:56:27.75	14.45	17.20	-42.5	-47.3	10.5	3.34e-03	0	59	0	196083712	56	6323
2026-01-29 23:56:28.76	14.43	17.31	-42.4	-47.1	10.6	3.52e-03	0	59	0	198180864	56	6189
2026-01-29 23:56:29.77	14.42	17.43	-42.5	-47.1	10.7	2.37e-03	0	59	0	200278016	56	6199
2026-01-29 23:56:30.78	14.40	17.55	-42.4	-47.1	10.7	2.94e-03	0	59	0	201326592	56	6148
2026-01-29 23:56:31.79	14.39	17.67	-42.3	-46.8	11.0	2.37e-03	0	59	0	203423744	56	5935
2026-01-29 23:56:32.80	14.37	17.79	-42.3	-46.8	11.0	2.00e-03	0	58	0	205520896	56	5979
2026-01-29 23:56:33.81	14.36	17.91	-42.3	-46.6	11.2	1.91e-03	0	59	0	207618048	56	5845
2026-01-29 23:56:34.82	14.35	18.03	-42.3	-46.7	11.2	1.28e-03	0	58	0	209715200	56	5861
2026-01-29 23:56:35.83	14.33	18.15	-42.3	-46.6	11.3	1.26e-03	0	59	0	211812352	56	5836
2026-01-29 23:56:36.84	14.32	18.27	-42.2	-46.5	11.3	1.37e-03	0	59	0	212860928	56	5782
2026-01-29 23:56:37.86	14.30	18.40	-42.2	-46.5	11.4	1.01e-03	0	59	0	214958080	56	5742
2026-01-29 23:56:38.86	14.28	18.52	-42.2	-46.4	11.5	9.71e-04	0	59	0	217055232	56	5676
2026-01-29 23:56:39.87	14.27	18.64	-42.1	-46.2	11.7	7.50e-04	0	59	0	219152384	56	5546
2026-01-29 23:56:40.89	14.25	18.77	-42.2	-46.4	11.5	7.06e-04	0	59	0	221249536	56	5683
2026-01-29 23:56:41.89	14.24	18.89	-42.1	-46.2	11.7	6.98e-04	0	59	0	222298112	56	5572
2026-01-29 23:56:42.90	14.22	19.02	-42.1	-46.3	11.7	5.18e-04	0	59	0	224395264	56	5605
2026-01-29 23:56:43.91	14.21	19.15	-42.1	-46.2	11.7	5.98e-04	0	59	0	226492416	56	5550
2026-01-29 23:56:44.92	14.19	19.27	-42.1	-46.2	11.7	5.74e-04	0	59	0	228589568	56	5567
2026-01-29 23:56:45.93	14.17	19.40	-42.1	-46.2	11.8	5.23e-04	0	59	0	230686720	56	5533
2026-01-29 23:56:46.94	14.16	19.53	-42.1	-46.2	11.7	5.93e-04	0	59	0	231735296	56	5561
2026-01-29 23:56:47.95	14.14	19.66	-42.0	-46.0	12.0	4.39e-04	0	59	0	233832448	56	5427
2026-01-29 23:56:48.96	14.12	19.79	-42.1	-46.2	11.7	5.99e-04	0	59	0	235929600	56	5577
2026-01-29 23:56:49.97	14.11	19.92	-42.2	-46.3	11.6	6.38e-04	0	59	0	238026752	56	5656
2026-01-29 23:56:50.98	14.09	20.05	-42.2	-46.3	11.6	4.36e-04	0	59	0	240123904	56	5647
2026-01-29 23:56:51.99	14.07	20.18	-42.1	-46.1	11.9	5.80e-04	0	59	0	241172480	56	5479
2026-01-29 23:56:53.00	14.05	20.32	-42.1	-46.2	11.8	5.82e-04	0	59	0	243269632	56	5585
2026-01-29 23:56:54.01	14.04	20.45	-42.2	-46.3	11.7	5.71e-04	0	59	0	245366784	56	5644
2026-01-29 23:56:55.02	14.02	20.58	-42.1	-46.0	11.9	4.51e-04	0	59	0	247463936	56	5464
2026-01-29 23:56:56.03	14.00	20.72	-41.3	-45.9	11.8	5.90e-03	0	59	0	249561088	54	6017
2026-01-29 23:56:57.04	13.98	20.85	-41.5	-45.9	11.9	5.06e-03	0	59	0	250609664	54	6048
2026-01-29 23:56:58.05	13.96	20.99	-41.4	-45.8	12.0	6.48e-04	0	59	0	252706816	54	5951
2026-01-29 23:56:59.06	13.94	21.13	-41.6	-45.9	11.9	4.42e-04	0	59	0	254803968	54	6032
2026-01-29 23:57:00.06	13.92	21.26	-41.4	-45.8	11.9	8.57e-04	0	59	0	256901120	54	5955
2026-01-29 23:57:01.07	13.90	21.40	-41.8	-45.6	12.2	3.03e-04	0	59	0	258998272	54	5833
2026-01-29 23:57:02.08	13.88	21.54	-41.8	-45.6	12.2	2.40e-04	0	59	0	260046848	54	5853
2026-01-29 23:57:03.09	13.87	21.68	-41.9	-45.8	12.1	2.82e-04	0	59	0	262144000	54	5938
2026-01-29 23:57:04.10	13.85	21.82	-41.8	-45.6	12.3	2.37e-04	0	59	0	264241152	54	5809
2026-01-29 23:57:05.11	13.83	21.96	-41.9	-45.8	12.1	3.26e-04	0	59	0	266338304	54	5969
2026-01-29 23:57:06.12	13.80	22.11	-41.9	-45.9	11.9	3.59e-04	0	59	0	268435456	54	6025
2026-01-29 23:57:07.13	13.78	22.25	-42.0	-46.0	11.9	3.14e-04	0	59	0	269484032	54	6082
2026-01-29 23:57:08.14	13.76	22.39	-42.0	-46.0	11.9	3.97e-04	0	59	0	271581184	54	6090
2026-01-29 23:57:09.15	13.74	22.54	-41.9	-45.9	12.0	4.00e-04	0	59	0	273678336	54	6019
2026-01-29 23:57:10.16	13.72	22.68	-42.0	-46.0	11.9	4.07e-04	0	59	0	275775488	54	6118
2026-01-29 23:57:11.17	13.70	22.83	-41.9	-45.8	12.1	3.55e-04	0	59	0	277872640	54	5975
2026-01-29 23:57:12.18	13.68	22.98	-41.9	-45.7	12.2	3.11e-04	0	59	0	279969792	54	5902
2026-01-29 23:57:13.19	13.66	23.12	-41.9	-45.9	12.0	3.43e-04	0	59	0	281018368	54	6003
2026-01-29 23:57:14.20	13.63	23.27	-41.9	-45.9	12.0	2.74e-04	0	59	0	283115520	54	6035
2026-01-29 23:57:15.21	13.61	23.42	-41.8	-45.7	12.2	1.69e-04	0	59	0	285212672	54	5872
2026-01-29 23:57:16.22	13.59	23.57	-41.8	-45.7	12.2	2.63e-04	0	59	0	287309824	54	5903
2026-01-29 23:57:17.24	13.57	23.73	-41.7	-45.3	12.6	2.23e-04	0	59	0	289406976	54	5632
2026-01-29 23:57:18.24	13.54	23.88	-41.8	-45.7	12.2	1.52e-04	0	59	0	290455552	54	5867
2026-01-29 23:57:19.26	13.52	24.03	-41.8	-45.6	12.3	1.62e-04	0	59	0	292552704	54	5842
2026-01-29 23:57:20.27	13.49	24.19	-41.8	-45.7	12.2	1.42e-04	0	59	0	294649856	54	5874
2026-01-29 23:57:21.28	13.47	24.34	-41.9	-45.8	12.1	2.61e-04	0	59	0	296747008	54	5985
2026-01-29 23:57:22.29	13.45	24.50	-42.0	-45.9	12.0	2.08e-04	0	59	0	298844160	54	6059
2026-01-29 23:57:23.30	13.42	24.66	-42.0	-45.9	12.0	3.29e-04	0	59	0	299892736	54	6045
2026-01-29 23:57:24.31	13.40	24.81	-42.0	-45.9	11.9	3.26e-04	0	59	0	301989888	54	6054
2026-01-29 23:57:25.32	13.37	24.97	-41.8	-45.7	12.2	4.58e-04	0	60	0	304087040	54	5890
2026-01-29 23:57:26.33	13.35	25.13	-42.0	-46.0	11.9	4.09e-04	0	60	0	306184192	54	6090
2026-01-29 23:57:27.34	13.32	25.29	-42.0	-45.9	12.0	3.93e-04	0	60	0	308281344	54	6051
2026-01-29 23:57:28.35	13.29	25.46	-41.9	-45.8	12.1	2.29e-04	0	59	0	309329920	54	5976
2026-01-29 23:57:29.36	13.27	25.62	-41.9	-45.7	12.2	3.10e-04	0	60	0	311427072	54	5902
2026-01-29 23:57:30.37	13.24	25.78	-41.9	-45.7	12.2	2.63e-04	0	60	0	313524224	54	5891
2026-01-29 23:57:31.38	13.21	25.95	-41.8	-45.6	12.4	1.24e-04	0	59	0	315621376	54	5843
2026-01-29 23:57:32.39	13.19	26.11	-41.8	-45.6	12.4	1.35e-04	0	59	0	317718528	54	5836
2026-01-29 23:57:33.40	13.16	26.28	-41.7	-45.4	12.6	1.21e-04	0	60	0	318767104	54	5666
2026-01-29 23:57:34.41	13.13	26.45	-41.9	-45.8	12.3	2.27e-04	0	59	0	320864256	54	5929
2026-01-29 23:57:35.42	13.10	26.62	-42.1	-46.1	11.9	2.73e-04	0	60	0	322961408	54	6181
2026-01-29 23:57:36.43	13.07	26.79	-42.1	-46.1	11.9	3.06e-04	0	60	0	325058560	54	6182
2026-01-29 23:57:37.44	13.04	26.96	-42.2	-46.4	11.6	5.93e-04	0	60	0	327155712	54	6354
2026-01-29 23:57:38.45	13.01	27.13	-42.2	-46.4	11.5	1.00e-03	0	60	0	328204288	55	6050
2026-01-29 23:57:39.46	12.98	27.30	-42.3	-46.6	11.3	1.08e-03	0	60	0	330301440	55	6192
2026-01-29 23:57:40.47	12.95	27.48	-42.3	-46.7	11.3	1.46e-03	0	60	0	332398592	55	6209
2026-01-29 23:57:41.48	12.92	27.65	-42.3	-46.6	11.4	1.56e-03	0	59	0	334495744	55	6135
2026-01-29 23:57:42.49	12.89	27.83	-42.3	-46.7	11.3	1.35e-03	0	59	0	336592896	55	6240
2026-01-29 23:57:43.50	12.86	28.01	-42.4	-46.9	11.0	1.38e-03	0	59	0	337641472	55	6368
2026-01-29 23:57:44.51	12.83	28.19	-42.3	-46.6	11.4	9.27e-04	0	60	0	339738624	55	6167
2026-01-29 23:57:45.52	12.80	28.37	-42.4	-46.8	11.2	1.18e-03	0	59	0	341835776	55	6298
2026-01-29 23:57:46.54	12.77	28.55	-42.3	-46.6	11.4	1.45e-03	0	60	0	343932928	55	6174
2026-01-29 23:57:47.55	12.73	28.73	-42.5	-47.0	11.0	1.38e-03	0	60	0	346030080	55	6451
2026-01-29 23:57:48.55	12.70	28.91	-42.6	-47.2	10.8	2.19e-03	0	60	0	348127232	55	6581
2026-01-29 23:57:49.56	12.67	29.10	-42.6	-47.3	10.7	2.63e-03	0	60	0	349175808	55	6675
2026-01-29 23:57:50.57	12.63	29.28	-42.9	-47.9	10.3	4.76e-03	0	60	0	351272960	56	6746
2026-01-29 23:57:51.59	12.60	29.47	-43.0	-48.1	10.0	6.56e-03	0	60	0	353370112	56	6958
2026-01-29 23:57:52.60	12.56	29.66	-43.1	-48.2	9.9	9.03e-03	0	60	0	355467264	56	7022
2026-01-29 23:57:53.61	12.53	29.85	-43.2	-48.5	9.6	9.98e-03	0	60	0	357564416	57	6858
2026-01-29 23:57:54.62	12.49	30.04	-43.2	-48.6	9.6	1.12e-02	0	60	0	358612992	57	6898
2026-01-29 23:57:55.63	12.45	30.23	-43.1	-48.2	9.9	9.16e-03	0	60	0	360710144	57	6602
2026-01-29 23:57:56.64	12.42	30.43	-43.1	-48.2	9.9	7.94e-03	0	59	0	362807296	57	6623
2026-01-29 23:57:57.65	12.38	30.62	-43.1	-48.1	10.0	9.94e-03	0	60	0	364904448	57	6565
2026-01-29 23:57:58.66	12.34	30.82	-43.1	-48.1	10.0	9.62e-03	0	60	0	367001600	57	6557
2026-01-29 23:57:59.67	12.30	31.01	-43.1	-48.3	9.8	1.04e-02	0	60	0	368050176	57	6696
2026-01-29 23:58:00.68	12.26	31.21	-43.3	-49.0	9.1	1.95e-02	0	60	0	370147328	57	7238
2026-01-29 23:58:01.69	12.22	31.41	-43.5	-49.4	8.7	2.27e-02	0	60	0	372244480	57	7581
2026-01-29 23:58:02.70	12.18	31.61	-43.6	-50.0	8.1	4.14e-02	0	60	0	374341632	57	8110
2026-01-29 23:58:03.71	12.14	31.82	-43.8	-50.6	7.5	8.56e-02	0	60	0	376438784	58	8239
2026-01-29 23:58:04.72	12.10	32.02	-44.0	-51.3	6.8	9.94e-02	0	60	0	377487360	58	8863
2026-01-29 23:58:05.73	12.06	32.23	-44.0	-51.4	6.8	1.58e-01	0	59	0	379584512	58	9009
2026-01-29 23:58:06.74	12.02	32.43	-44.0	-51.3	6.9	1.58e-01	0	60	0	381681664	58	8943
2026-01-29 23:58:07.75	11.97	32.64	-43.9	-50.7	7.4	1.58e-01	0	60	0	383778816	58	8348
2026-01-29 23:58:08.76	11.93	32.85	-43.9	-50.8	7.3	1.46e-01	0	60	0	385875968	58	8432
2026-01-29 23:58:09.77	11.89	33.06	-43.9	-50.9	7.2	1.09e-01	0	60	0	387973120	58	8561
2026-01-29 23:58:10.78	11.84	33.28	-44.2	-51.9	6.4	9.12e-02	0	60	0	389021696	58	9600
2026-01-29 23:58:11.79	11.80	33.49	-44.5	-53.6	5.3	2.57e-01	0	60	0	391118848	59	10922
2026-01-29 23:58:12.80	11.75	33.71	-44.2	-52.2	6.1	7.44e-01	0	60	0	393216000	59	9299
2026-01-29 23:58:13.81	11.70	33.92	-44.0	-50.9	7.3	2.78e-01	0	60	0	395313152	59	8076
2026-01-29 23:58:14.82	11.66	34.14	-43.8	-50.6	7.6	9.53e-02	0	60	0	397410304	59	7748
2026-01-29 23:58:15.83	11.61	34.36	-43.7	-50.0	8.2	6.23e-02	0	60	0	398458880	59	7255
2026-01-29 23:58:16.84	11.56	34.59	-43.4	-49.0	9.2	4.23e-02	0	60	0	400556032	58	6833
2026-01-29 23:58:17.85	11.51	34.81	-43.3	-48.7	9.5	1.75e-02	0	60	0	402653184	58	6584
2026-01-29 23:58:18.86	11.46	35.03	-43.1	-48.0	10.3	6.67e-03	0	60	0	404750336	58	6131
2026-01-29 23:58:19.87	11.41	35.26	-42.7	-47.2	11.0	3.65e-03	0	60	0	406847488	57	5912
2026-01-29 23:58:20.88	11.36	35.49	-42.7	-47.1	11.2	1.93e-03	0	60	0	407896064	57	5848
2026-01-29 23:58:21.89	11.30	35.72	-42.7	-47.0	11.2	1.25e-03	0	60	0	409993216	57	5785
2026-01-29 23:58:22.90	11.25	35.95	-42.6	-47.0	11.4	1.29e-03	0	60	0	412090368	57	5723
2026-01-29 23:58:23.91	11.20	36.18	-42.7	-47.2	11.1	7.32e-04	0	60	0	414187520	56	6213
2026-01-29 23:58:24.93	11.14	36.42	-42.5	-46.7	11.6	4.91e-04	0	60	0	416284672	56	5861
2026-01-29 23:58:25.94	11.09	36.66	-42.4	-46.5	11.8	4.95e-04	0	60	0	417333248	56	5755
2026-01-29 23:58:26.95	11.03	36.89	-42.4	-46.4	11.9	4.55e-04	0	60	0	419430400	56	5667
2026-01-29 23:58:27.96	10.97	37.13	-41.8	-45.4	12.8	1.07e-04	0	60	0	421527552	55	5398
2026-01-29 23:58:28.97	10.91	37.38	-41.9	-45.6	12.6	7.70e-05	0	60	0	423624704	55	5472
2026-01-29 23:58:29.98	10.85	37.62	-41.7	-45.2	12.9	1.01e-04	0	60	0	425721856	55	5274
2026-01-29 23:58:30.99	10.79	37.87	-41.6	-45.2	13.0	6.17e-05	0	60	0	426770432	55	5219
2026-01-29 23:58:32.00	10.73	38.11	-42.0	-45.8	12.4	7.32e-05	0	60	0	428867584	55	5594
2026-01-29 23:58:33.01	10.67	38.36	-42.0	-45.8	12.3	7.01e-05	0	60	0	430964736	55	5629
2026-01-29 23:58:34.02	10.60	38.61	-42.1	-46.0	12.1	1.17e-04	0	60	0	433061888	55	5786
2026-01-29 23:58:35.03	10.54	38.86	-42.1	-46.1	12.0	3.68e-04	0	60	0	435159040	55	5838
2026-01-29 23:58:36.04	10.47	39.12	-42.2	-46.2	12.0	3.55e-04	0	60	0	436207616	55	5872
2026-01-29 23:58:37.05	10.41	39.37	-42.1	-46.0	12.2	3.95e-04	0	60	0	438304768	55	5729
2026-01-29 23:58:38.06	10.34	39.63	-42.0	-45.8	12.4	2.59e-04	0	60	0	440401920	55	5614
2026-01-29 23:58:39.07	10.27	39.89	-42.0	-45.7	12.4	1.72e-04	0	60	0	442499072	55	5579
2026-01-29 23:58:40.08	10.20	40.15	-41.9	-45.7	12.5	1.35e-04	0	60	0	444596224	55	5532
2026-01-29 23:58:41.09	10.13	40.42	-42.0	-45.7	12.5	1.33e-04	0	60	0	445644800	55	5584
2026-01-29 23:58:42.09	10.06	40.68	-42.0	-45.8	12.3	1.75e-04	0	60	0	447741952	55	5648
2026-01-29 23:58:43.11	9.98	40.95	-42.1	-46.0	12.1	1.17e-04	0	60	0	449839104	55	5731
2026-01-29 23:58:44.11	9.91	41.22	-42.2	-46.2	12.0	2.90e-04	0	60	0	451936256	55	5868
2026-01-29 23:58:45.12	9.83	41.49	-42.2	-46.2	11.9	4.49e-04	0	60	0	454033408	55	5876
2026-01-29 23:58:46.13	9.75	41.76	-42.4	-46.6	11.6	6.01e-04	0	60	0	456130560	55	6170
2026-01-29 23:58:47.14	9.68	42.04	-42.5	-46.8	11.2	8.91e-04	0	60	0	457179136	55	6317
2026-01-29 23:58:48.15	9.59	42.31	-42.4	-46.6	11.6	8.80e-04	0	60	0	459276288	55	6186
2026-01-29 23:58:49.16	9.51	42.59	-42.6	-47.1	11.0	1.68e-03	0	60	0	461373440	55	6552
2026-01-29 23:58:50.17	9.43	42.87	-42.7	-47.2	11.0	1.48e-03	0	60	0	463470592	55	6638
2026-01-29 23:58:51.18	9.34	43.16	-42.9	-47.6	10.7	1.79e-03	0	60	0	465567744	56	6537
2026-01-29 23:58:52.19	9.26	43.44	-42.9	-47.6	10.6	3.55e-03	0	60	0	466616320	56	6568
2026-01-29 23:58:53.20	9.17	43.73	-43.0	-47.9	10.5	4.81e-03	0	60	0	468713472	56	6724
2026-01-29 23:58:54.21	9.08	44.02	-43.2	-48.3	10.0	8.96e-03	0	60	0	470810624	57	6697
2026-01-29 23:58:55.22	8.99	44.31	-43.2	-48.4	9.9	7.78e-03	0	60	0	472907776	57	6729
2026-01-29 23:58:56.23	8.89	44.61	-43.1	-48.1	10.2	7.74e-03	0	60	0	475004928	57	6497
2026-01-29 23:58:57.24	8.80	44.90	-43.0	-47.8	10.4	4.04e-03	0	60	0	476053504	57	6338
2026-01-29 23:58:58.25	8.70	45.20	-42.8	-47.4	10.9	2.37e-03	0	60	0	478150656	57	6002
2026-01-29 23:58:59.26	8.60	45.50	-42.7	-47.0	11.3	1.35e-03	0	60	0	480247808	57	5778
2026-01-29 23:59:00.27	8.50	45.80	-42.8	-47.3	11.0	1.69e-03	0	60	0	482344960	57	5951
2026-01-29 23:59:01.28	8.40	46.11	-43.1	-47.9	10.5	2.04e-03	0	60	0	484442112	57	6419
2026-01-29 23:59:02.29	8.29	46.41	-43.2	-48.2	10.1	4.90e-03	0	60	0	485490688	57	6644
2026-01-29 23:59:03.30	8.18	46.72	-43.4	-49.0	9.3	1.25e-02	0	60	0	487587840	57	7243
2026-01-29 23:59:04.31	8.07	47.03	-43.5	-49.3	8.9	2.96e-02	0	60	0	489684992	57	7490
2026-01-29 23:59:05.32	7.96	47.35	-43.6	-49.3	9.0	2.04e-02	0	60	0	491782144	57	7535
2026-01-29 23:59:06.33	7.85	47.66	-43.4	-48.9	9.4	1.54e-02	0	60	0	493879296	57	7146
2026-01-29 23:59:07.34	7.73	47.98	-43.2	-48.3	10.0	7.73e-03	0	60	0	494927872	57	6700
2026-01-29 23:59:08.35	7.61	48.30	-43.2	-48.4	9.9	8.60e-03	0	60	0	497025024	57	6760
2026-01-29 23:59:09.36	7.49	48.62	-43.6	-49.3	8.9	1.40e-02	0	60	0	499122176	57	7513
2026-01-29 23:59:10.37	7.37	48.95	-43.6	-49.6	8.7	3.05e-02	0	60	0	501219328	57	7738
2026-01-29 23:59:11.38	7.24	49.27	-43.6	-49.5	8.8	2.93e-02	0	60	0	503316480	57	7675
2026-01-29 23:59:12.39	7.11	49.60	-43.3	-48.7	9.6	1.56e-02	0	60	0	504365056	57	6974
2026-01-29 23:59:13.40	6.98	49.94	-43.1	-47.9	10.4	7.38e-03	0	60	0	506462208	57	6389
2026-01-29 23:59:14.41	6.84	50.27	-42.8	-47.2	11.0	3.10e-03	0	60	0	508559360	57	5889
2026-01-29 23:59:15.42	6.70	50.60	-42.8	-47.4	11.0	1.51e-03	0	60	0	510656512	57	5993
2026-01-29 23:59:16.43	6.56	50.94	-42.9	-47.5	10.9	1.81e-03	0	60	0	512753664	57	6071
2026-01-29 23:59:17.44	6.41	51.28	-42.8	-47.3	11.1	1.54e-03	0	60	0	513802240	57	5955
2026-01-29 23:59:18.45	6.26	51.63	-42.6	-46.9	11.5	1.32e-03	0	60	0	515899392	57	5659
2026-01-29 23:59:19.46	6.11	51.97	-42.6	-46.8	11.6	6.80e-04	0	60	0	517996544	57	5607
2026-01-29 23:59:20.47	5.96	52.32	-42.4	-46.5	12.0	5.21e-04	0	60	0	520093696	56	5754
2026-01-29 23:59:21.48	5.80	52.67	-42.6	-46.7	11.6	4.50e-04	0	60	0	522190848	56	5921
2026-01-29 23:59:22.49	5.63	53.02	-43.1	-47.9	10.5	1.20e-03	0	60	0	524288000	56	6792
2026-01-29 23:59:23.50	5.46	53.37	-43.0	-47.9	10.6	3.65e-03	0	60	0	525336576	56	6730
2026-01-29 23:59:24.51	5.29	53.73	-42.9	-47.5	10.9	2.83e-03	0	60	0	527433728	56	6454
2026-01-29 23:59:25.52	5.11	54.09	-42.6	-46.8	11.6	1.00e-03	0	60	0	529530880	56	5986
2026-01-29 23:59:26.53	4.93	54.45	-42.3	-46.1	12.3	2.30e-04	0	60	0	531628032	56	5494
2026-01-29 23:59:27.54	4.75	54.81	-42.2	-46.0	12.5	1.75e-04	0	60	0	533725184	56	5406
2026-01-29 23:59:28.55	4.56	55.18	-42.4	-46.3	12.1	1.75e-04	0	60	0	534773760	56	5631
2026-01-29 23:59:29.56	4.36	55.54	-42.6	-46.7	11.7	4.25e-04	0	60	0	536870912	56	5902
2026-01-29 23:59:30.57	4.16	55.91	-42.4	-46.5	12.0	5.04e-04	0	60	0	538968064	56	5727
2026-01-29 23:59:31.58	3.95	56.28	-42.4	-46.3	12.1	3.75e-04	0	60	0	541065216	56	5653
2026-01-29 23:59:32.59	3.74	56.66	-42.7	-46.9	11.5	4.62e-04	0	60	0	543162368	56	6018
2026-01-29 23:59:33.60	3.52	57.03	-42.8	-47.3	11.1	1.37e-03	0	60	0	544210944	56	6336
2026-01-29 23:59:34.61	3.29	57.41	-43.0	-47.6	10.7	2.15e-03	0	60	0	546308096	56	6542
2026-01-29 23:59:35.62	3.06	57.79	-43.0	-47.6	10.6	2.85e-03	0	60	0	548405248	56	6563
2026-01-29 23:59:36.63	2.82	58.17	-43.1	-47.9	10.4	3.93e-03	0	60	0	550502400	56	6745
2026-01-29 23:59:37.64	2.58	58.56	-43.3	-48.6	9.7	8.23e-03	0	60	0	552599552	57	6936
2026-01-29 23:59:38.65	2.33	58.95	-43.7	-49.9	8.5	1.98e-02	0	60	0	553648128	57	8014
2026-01-29 23:59:39.66	2.07	59.33	-43.5	-49.2	9.1	3.05e-02	0	60	0	555745280	58	6961
2026-01-29 23:59:40.67	1.80	59.72	-42.8	-47.3	11.1	5.51e-03	0	60	0	557842432	57	5924
2026-01-29 23:59:41.68	1.52	60.12	-42.3	-46.2	12.3	4.56e-04	0	60	0	559939584	56	5530
2026-01-29 23:59:42.69	1.24	60.51	-42.5	-46.5	11.9	3.09e-04	0	60	0	562036736	56	5745
2026-01-29 23:59:43.70	0.94	60.90	-42.9	-47.5	11.0	1.19e-03	0	60	0	563085312	56	6452
2026-01-29 23:59:44.72	0.64	61.31	-43.0	-47.7	10.8	2.67e-03	0	60	0	565182464	56	6622
2026-01-29 23:59:45.73	0.32	61.70	-42.6	-46.9	11.5	1.21e-03	0	60	0	567279616	56	6051
2026-01-29 23:59:46.74	360.00	62.11	-42.4	-46.3	12.1	4.16e-04	0	60	0	569376768	56	5623
2026-01-29 23:59:47.75	359.66	62.51	-42.2	-45.9	12.5	1.64e-04	0	60	0	571473920	56	5395
2026-01-29 23:59:48.76	359.32	62.91	-41.7	-45.2	13.1	3.50e-05	0	60	0	573571072	55	5244
2026-01-29 23:59:49.77	358.96	63.32	-41.4	-44.6	13.8	2.28e-05	0	60	0	574619648	54	5166
2026-01-29 23:59:50.78	358.59	63.72	-41.8	-45.3	13.0	1.90e-05	0	60	0	576716800	54	5609
2026-01-29 23:59:51.78	358.21	64.13	-41.8	-45.4	12.8	4.04e-05	0	60	0	578813952	54	5715
2026-01-29 23:59:52.79	357.81	64.53	-42.0	-45.7	12.6	6.86e-05	0	60	0	580911104	54	5879
2026-01-29 23:59:53.80	357.39	64.94	-41.6	-44.9	13.4	1.60e-05	0	60	0	581959680	54	5392
2026-01-29 23:59:54.81	356.97	65.36	-41.4	-44.6	13.7	9.10e-06	0	60	0	584056832	54	5178
2026-01-29 23:59:55.82	356.52	65.77	-42.1	-45.9	12.4	5.18e-05	0	61	0	586153984	54	6028
2026-01-29 23:59:56.83	356.06	66.18	-42.6	-47.1	11.1	6.86e-04	0	60	0	588251136	55	6561
2026-01-29 23:59:57.84	355.58	66.59	-42.6	-46.9	11.2	9.21e-04	0	61	0	590348288	55	6406
2026-01-29 23:59:58.85	355.08	67.01	-42.5	-46.7	11.5	1.09e-03	0	60	0	592445440	55	6222
2026-01-29 23:59:59.86	354.56	67.42	-42.6	-47.0	11.3	1.10e-03	0	60	0	593494016	55	6461
2026-01-30 00:00:00.87	354.02	67.83	-42.8	-47.4	11.0	1.42e-03	0	60	0	595591168	56	6391
2026-01-30 00:00:01.88	353.45	68.25	-43.1	-48.0	10.4	3.69e-03	0	60	0	597688320	56	6862
2026-01-30 00:00:02.89	352.87	68.66	-43.2	-48.4	9.9	9.13e-03	0	60	0	599785472	57	6781
2026-01-30 00:00:03.90	352.25	69.08	-43.0	-47.9	10.3	5.33e-03	0	60	0	601882624	57	6408
2026-01-30 00:00:04.91	351.61	69.49	-42.8	-47.4	10.9	2.41e-03	0	60	0	602931200	57	5997
2026-01-30 00:00:05.92	350.95	69.90	-42.9	-47.6	10.6	1.66e-03	0	60	0	605028352	57	6192
2026-01-30 00:00:06.93	350.25	70.32	-42.7	-47.1	11.2	2.69e-03	0	60	0	607125504	57	5796
2026-01-30 00:00:07.94	349.52	70.73	-42.5	-46.6	11.8	1.29e-03	0	60	0	609222656	56	5840
2026-01-30 00:00:08.95	348.75	71.14	-42.0	-45.7	12.6	9.84e-05	0	60	0	611319808	55	5582
2026-01-30 00:00:09.96	347.95	71.54	-41.7	-45.3	12.9	8.31e-05	0	60	0	612368384	55	5280
2026-01-30 00:00:10.97	347.11	71.95	-41.6	-45.0	13.2	4.57e-05	0	60	0	614465536	55	5145
2026-01-30 00:00:11.98	346.23	72.35	-41.5	-44.8	13.5	6.80e-06	0	60	0	616562688	54	5324
2026-01-30 00:00:12.99	345.31	72.75	-41.5	-44.9	13.4	1.83e-05	0	60	0	618659840	54	5396
2026-01-30 00:00:14.00	344.34	73.15	-41.9	-45.6	12.6	3.66e-05	0	60	0	620756992	54	5850
2026-01-30 00:00:15.01	343.32	73.55	-41.9	-45.7	12.5	1.09e-04	0	60	0	621805568	54	5886
2026-01-30 00:00:16.02	342.25	73.94	-42.1	-46.1	12.1	1.58e-04	0	60	0	623902720	54	6158
2026-01-30 00:00:17.03	341.12	74.32	-43.1	-48.2	10.1	1.25e-03	0	60	0	625999872	56	7025
2026-01-30 00:00:18.04	339.94	74.70	-43.5	-49.3	8.9	2.15e-02	0	60	0	628097024	57	7523
2026-01-30 00:00:19.05	338.69	75.08	-43.2	-48.4	9.8	1.84e-02	0	60	0	630194176	57	6773
2026-01-30 00:00:20.06	337.37	75.45	-43.4	-49.1	9.2	1.14e-02	0	60	0	632291328	57	7314
2026-01-30 00:00:21.07	335.99	75.81	-43.7	-50.3	7.8	4.34e-02	0	60	0	633339904	58	7986
2026-01-30 00:00:22.08	334.53	76.16	-43.3	-48.6	9.7	2.68e-02	0	61	0	635437056	58	6524
2026-01-30 00:00:23.09	332.99	76.51	-43.1	-48.3	9.9	7.72e-03	0	60	0	637534208	58	6322
2026-01-30 00:00:24.10	331.37	76.85	-43.8	-50.5	7.6	2.13e-02	0	60	0	639631360	58	8157
2026-01-30 00:00:25.11	329.66	77.17	-43.5	-49.4	8.7	7.65e-02	0	60	0	641728512	58	7182
2026-01-30 00:00:26.12	327.86	77.49	-43.0	-48.0	10.2	9.10e-03	0	60	0	642777088	58	6096
2026-01-30 00:00:27.13	325.96	77.79	-43.0	-48.0	10.4	4.07e-03	0	61	0	644874240	57	6441
2026-01-30 00:00:28.14	323.97	78.08	-42.9	-47.6	10.8	2.60e-03	0	60	0	646971392	57	6154
2026-01-30 00:00:29.15	321.88	78.36	-42.9	-47.7	10.5	3.18e-03	0	60	0	649068544	57	6214
2026-01-30 00:00:30.16	319.69	78.62	-43.0	-47.9	10.2	3.72e-03	0	60	0	651165696	57	6390
2026-01-30 00:00:31.17	317.40	78.87	-43.1	-48.1	10.1	5.03e-03	0	61	0	652214272	57	6560
2026-01-30 00:00:32.18	315.00	79.09	-43.3	-48.8	9.5	1.21e-02	0	61	0	654311424	57	7094
2026-01-30 00:00:33.19	312.51	79.30	-43.6	-49.9	8.4	4.45e-02	0	60	0	656408576	57	8005
2026-01-30 00:00:34.20	309.92	79.49	-43.8	-50.6	7.5	1.11e-01	0	61	0	658505728	58	8255
2026-01-30 00:00:35.22	307.21	79.65	-44.1	-51.7	6.6	1.67e-01	0	61	0	660602880	58	9285
2026-01-30 00:00:36.23	304.45	79.79	-43.9	-51.1	7.2	1.74e-01	0	60	0	661651456	58	8686
2026-01-30 00:00:37.24	301.61	79.91	-44.1	-51.7	6.6	1.74e-01	0	61	0	663748608	58	9295
2026-01-30 00:00:38.25	298.71	80.01	-44.3	-53.2	5.4	3.21e-01	0	60	0	665845760	59	10467
2026-01-30 00:00:39.26	295.77	80.07	-44.3	-53.0	5.6	4.69e-01	0	60	0	667942912	59	10184
2026-01-30 00:00:40.27	292.79	80.11	-44.0	-51.8	6.4	2.96e-01	0	60	0	670040064	59	8896
2026-01-30 00:00:41.28	289.80	80.13	-44.3	-52.8	5.7	3.40e-01	0	60	0	671088640	59	10031
2026-01-30 00:00:42.29	286.80	80.12	-44.4	-54.1	4.8	1.17e+00	0	61	0	673185792	59	11559
2026-01-30 00:00:43.30	283.82	80.08	-44.5	-54.7	4.6	6.76e-01	0	61	0	674234368	59	12417
2026-01-30 00:00:44.31	280.87	80.01	-43.9	-51.2	6.9	2.05e-01	0	60	0	676331520	59	8338
2026-01-30 00:00:45.32	277.97	79.92	-43.4	-49.3	8.9	7.85e-02	0	61	0	678428672	58	7052
2026-01-30 00:00:46.33	275.12	79.81	-43.6	-49.8	8.3	5.91e-02	0	61	0	680525824	58	7510
2026-01-30 00:00:47.34	272.35	79.67	-43.9	-50.9	7.3	1.18e-01	0	60	0	682622976	58	8527
2026-01-30 00:00:48.35	269.66	79.51	-43.3	-49.0	9.2	8.82e-02	0	61	0	683671552	58	6828
2026-01-30 00:00:49.36	267.06	79.32	-43.7	-50.1	8.1	3.37e-02	0	61	0	685768704	58	7735
2026-01-30 00:00:50.37	264.55	79.12	-44.0	-51.5	6.7	1.94e-01	0	61	0	687865856	58	9164
2026-01-30 00:00:51.38	262.14	78.89	-43.1	-48.3	9.8	5.06e-02	0	60	0	689963008	58	6339
2026-01-30 00:00:52.39	259.83	78.65	-43.3	-48.9	9.5	7.81e-03	0	61	0	692060160	58	6738
2026-01-30 00:00:53.40	257.63	78.39	-44.0	-51.4	6.9	4.42e-02	0	61	0	693108736	58	9018
2026-01-30 00:00:54.41	255.52	78.12	-43.5	-49.4	8.7	7.14e-02	0	61	0	695205888	58	7199
2026-01-30 00:00:55.42	253.52	77.83	-43.5	-49.6	8.5	2.87e-02	0	60	0	697303040	58	7318
2026-01-30 00:00:56.43	251.61	77.52	-43.8	-50.4	7.8	4.93e-02	0	60	0	699400192	58	8051
2026-01-30 00:00:57.44	249.80	77.21	-43.9	-50.8	7.4	1.08e-01	0	61	0	701497344	58	8455
2026-01-30 00:00:58.44	248.10	76.89	-44.1	-52.2	6.2	1.64e-01	0	61	0	702545920	58	9902
2026-01-30 00:00:59.45	246.47	76.55	-44.2	-52.6	5.9	3.45e-01	0	60	0	704643072	59	9765
2026-01-30 00:01:00.47	244.90	76.20	-44.3	-52.9	5.6	4.25e-01	0	61	0	706740224	59	10146
2026-01-30 00:01:01.48	243.43	75.85	-43.9	-51.1	7.1	3.25e-01	0	60	0	708837376	59	8230
2026-01-30 00:01:02.49	242.03	75.49	-43.4	-49.1	9.1	4.19e-02	0	61	0	710934528	58	6896
2026-01-30 00:01:03.50	240.71	75.12	-43.1	-48.2	10.0	7.49e-03	0	60	0	713031680	58	6227
2026-01-30 00:01:04.51	239.45	74.74	-42.9	-47.7	10.5	8.93e-03	0	60	0	714080256	57	6230
2026-01-30 00:01:05.52	238.26	74.36	-42.3	-46.3	12.0	6.20e-04	0	61	0	716177408	56	5611
2026-01-30 00:01:06.53	237.12	73.97	-42.1	-45.9	12.4	2.55e-04	0	61	0	718274560	56	5362
2026-01-30 00:01:07.54	236.05	73.58	-42.5	-46.8	11.6	5.27e-04	0	61	0	720371712	56	5961
2026-01-30 00:01:08.55	235.02	73.19	-42.0	-45.7	12.6	3.78e-04	0	61	0	722468864	56	5264
2026-01-30 00:01:09.56	234.05	72.79	-41.3	-44.4	13.7	2.05e-05	0	61	0	723517440	54	5097
2026-01-30 00:01:10.57	233.12	72.39	-41.6	-45.0	13.2	1.22e-05	0	61	0	725614592	54	5462
2026-01-30 00:01:11.58	232.23	71.99	-42.2	-46.3	12.0	1.23e-04	0	61	0	727711744	54	6319
2026-01-30 00:01:12.59	231.39	71.58	-42.4	-46.7	11.5	5.16e-04	0	61	0	729808896	55	6210
2026-01-30 00:01:13.60	230.58	71.17	-42.2	-46.3	11.8	7.29e-04	0	61	0	731906048	55	5942
2026-01-30 00:01:14.60	229.82	70.77	-41.7	-45.3	12.8	1.68e-04	0	61	0	732954624	55	5331
2026-01-30 00:01:15.61	229.08	70.36	-41.7	-45.3	12.9	2.44e-05	0	60	0	735051776	55	5283
2026-01-30 00:01:16.63	228.37	69.94	-42.6	-47.2	10.9	1.17e-03	0	61	0	737148928	55	6620
2026-01-30 00:01:17.64	227.70	69.53	-42.7	-47.2	11.2	5.00e-03	0	60	0	739246080	56	6205
2026-01-30 00:01:18.65	227.06	69.11	-42.2	-46.1	12.3	2.96e-04	0	61	0	741343232	56	5475
2026-01-30 00:01:19.66	226.44	68.70	-42.4	-46.5	11.8	5.67e-04	0	61	0	742391808	56	5753
2026-01-30 00:01:20.67	225.85	68.28	-42.8	-47.5	10.9	1.95e-03	0	61	0	744488960	56	6427
2026-01-30 00:01:21.68	225.29	67.87	-43.0	-48.0	10.1	3.61e-03	0	61	0	746586112	56	6834
2026-01-30 00:01:22.69	224.74	67.45	-42.8	-47.5	10.7	5.17e-03	0	61	0	748683264	56	6474
2026-01-30 00:01:23.70	224.22	67.04	-42.0	-45.6	12.6	4.37e-04	0	61	0	750780416	56	5215
2026-01-30 00:01:24.71	223.72	66.62	-41.2	-44.3	13.9	2.28e-05	0	61	0	752877568	54	5016
2026-01-30 00:01:25.72	223.23	66.21	-41.6	-45.0	13.3	3.80e-06	0	61	0	753926144	54	5443
2026-01-30 00:01:26.73	222.77	65.79	-42.0	-45.9	12.4	1.22e-04	0	61	0	756023296	54	6022
2026-01-30 00:01:27.74	222.32	65.38	-42.3	-46.4	11.9	3.80e-04	0	61	0	758120448	55	5993
2026-01-30 00:01:28.75	221.89	64.97	-42.2	-46.3	11.9	4.29e-04	0	61	0	760217600	55	5966
2026-01-30 00:01:29.76	221.48	64.56	-42.9	-47.6	10.6	3.79e-03	0	61	0	762314752	56	6520
2026-01-30 00:01:30.77	221.08	64.15	-42.6	-47.0	11.3	1.81e-03	0	60	0	763363328	56	6093
2026-01-30 00:01:31.78	220.69	63.74	-42.5	-46.6	11.8	5.29e-04	0	61	0	765460480	56	5834
2026-01-30 00:01:32.79	220.32	63.33	-43.2	-48.6	9.7	5.73e-03	0	61	0	767557632	57	6905
2026-01-30 00:01:33.80	219.96	62.93	-43.8	-50.4	7.9	8.51e-02	0	61	0	769654784	58	8039
2026-01-30 00:01:34.81	219.61	62.52	-43.4	-49.0	9.3	3.80e-02	0	61	0	771751936	58	6860
2026-01-30 00:01:35.82	219.27	62.12	-43.8	-50.7	7.7	5.17e-02	0	61	0	772800512	58	8272
2026-01-30 00:01:36.83	218.95	61.72	-43.8	-50.7	7.3	1.43e-01	0	61	0	774897664	58	8285
2026-01-30 00:01:37.84	218.63	61.32	-43.2	-48.4	9.9	3.38e-02	0	61	0	776994816	58	6352
2026-01-30 00:01:38.85	218.33	60.92	-42.5	-46.7	11.6	2.28e-03	0	60	0	779091968	57	5538
2026-01-30 00:01:39.86	218.03	60.52	-42.1	-45.9	12.5	1.32e-04	0	61	0	781189120	56	5343
2026-01-30 00:01:40.87	217.74	60.13	-41.7	-45.3	12.9	5.95e-05	0	61	0	782237696	55	5293
2026-01-30 00:01:41.89	217.46	59.73	-41.3	-44.4	13.9	1.44e-05	0	61	0	784334848	54	5067
2026-01-30 00:01:42.90	217.19	59.34	-41.3	-44.6	13.7	6.80e-06	0	61	0	786432000	54	5163
2026-01-30 00:01:43.91	216.93	58.95	-41.2	-44.4	14.0	4.50e-06	0	61	0	788529152	54	5053
2026-01-30 00:01:44.92	216.68	58.56	-41.5	-44.9	13.3	3.80e-06	0	61	0	790626304	54	5344
2026-01-30 00:01:45.93	216.43	58.17	-41.7	-45.3	13.0	4.34e-05	0	60	0	791674880	54	5596
2026-01-30 00:01:46.94	216.19	57.79	-42.2	-46.3	11.9	2.77e-04	0	61	0	793772032	55	5960
2026-01-30 00:01:47.95	215.96	57.41	-42.0	-45.8	12.5	2.50e-04	0	61	0	795869184	55	5604
2026-01-30 00:01:48.96	215.74	57.03	-41.8	-45.5	12.8	1.30e-04	0	61	0	797966336	55	5403
2026-01-30 00:01:49.97	215.52	56.65	-42.3	-46.4	11.8	2.17e-04	0	61	0	800063488	55	6021
2026-01-30 00:01:50.98	215.30	56.28	-42.9	-47.6	10.8	1.12e-03	0	61	0	801112064	56	6509
2026-01-30 00:01:51.99	215.09	55.91	-43.1	-48.2	10.0	5.38e-03	0	61	0	803209216	56	7010
2026-01-30 00:01:53.00	214.89	55.53	-43.2	-48.6	9.7	9.54e-03	0	61	0	805306368	57	6887
2026-01-30 00:01:54.01	214.70	55.17	-43.5	-49.2	9.0	1.89e-02	0	61	0	807403520	57	7431
2026-01-30 00:01:55.02	214.50	54.80	-43.3	-48.6	9.7	1.84e-02	0	61	0	809500672	57	6915
2026-01-30 00:01:56.03	214.32	54.44	-42.9	-47.7	10.6	7.70e-03	0	61	0	810549248	57	6264
2026-01-30 00:01:57.04	214.13	54.07	-43.0	-47.8	10.9	3.23e-03	0	61	0	812646400	57	6301
2026-01-30 00:01:58.05	213.96	53.71	-42.9	-47.6	10.8	3.40e-03	0	61	0	814743552	57	6139
2026-01-30 00:01:59.06	213.78	53.36	-42.6	-46.9	11.5	1.15e-03	0	61	0	816840704	57	5709
2026-01-30 00:02:00.07	213.61	53.00	-42.6	-46.8	11.5	1.20e-03	0	60	0	818937856	57	5637
2026-01-30 00:02:01.08	213.45	52.65	-43.0	-47.8	10.5	1.71e-03	0	61	0	821035008	57	6331
2026-01-30 00:02:02.09	213.29	52.30	-42.7	-47.1	11.2	2.69e-03	0	60	0	822083584	57	5832
2026-01-30 00:02:03.10	213.13	51.95	-42.5	-46.7	11.6	7.70e-04	0	61	0	824180736	56	5921
2026-01-30 00:02:04.11	212.98	51.60	-42.5	-46.7	11.6	1.03e-03	0	61	0	826277888	56	5886
2026-01-30 00:02:05.12	212.83	51.26	-43.0	-47.9	10.4	2.87e-03	0	61	0	828375040	56	6796
2026-01-30 00:02:06.13	212.68	50.92	-42.9	-47.6	10.6	4.45e-03	0	61	0	830472192	56	6552
2026-01-30 00:02:07.14	212.54	50.58	-42.7	-47.2	11.2	1.69e-03	0	61	0	831520768	56	6229
2026-01-30 00:02:08.15	212.40	50.24	-42.9	-47.6	10.8	1.48e-03	0	61	0	833617920	56	6553
2026-01-30 00:02:09.16	212.26	49.91	-43.4	-49.1	9.2	1.00e-02	0	61	0	835715072	57	7304
2026-01-30 00:02:10.17	212.13	49.57	-43.7	-50.0	8.6	4.22e-02	0	61	0	837812224	57	8148
2026-01-30 00:02:11.18	212.00	49.24	-43.5	-49.2	9.0	3.56e-02	0	61	0	839909376	57	7420
2026-01-30 00:02:12.19	211.87	48.91	-43.4	-49.1	9.2	1.87e-02	0	61	0	840957952	57	7299
2026-01-30 00:02:13.19	211.75	48.59	-43.4	-49.0	9.1	1.36e-02	0	61	0	843055104	57	7270
2026-01-30 00:02:14.21	211.62	48.27	-43.7	-50.0	8.3	3.14e-02	0	60	0	845152256	58	7679
2026-01-30 00:02:15.21	211.51	47.95	-43.9	-50.6	7.7	8.81e-02	0	61	0	847249408	58	8190
2026-01-30 00:02:16.23	211.39	47.62	-44.1	-51.6	6.6	2.32e-01	0	61	0	849346560	59	8761
2026-01-30 00:02:17.24	211.27	47.31	-43.9	-50.5	7.7	1.43e-01	0	61	0	850395136	59	7674
2026-01-30 00:02:18.25	211.16	46.99	-43.9	-50.5	7.9	9.58e-02	0	61	0	852492288	59	7648
2026-01-30 00:02:19.26	211.05	46.68	-43.8	-50.4	7.8	4.73e-02	0	61	0	854589440	59	7577
2026-01-30 00:02:20.27	210.94	46.37	-43.8	-50.5	7.7	1.11e-01	0	61	0	856686592	59	7681
2026-01-30 00:02:21.28	210.84	46.06	-43.3	-48.6	9.7	1.97e-02	0	61	0	858783744	58	6545
2026-01-30 00:02:22.29	210.73	45.76	-42.9	-47.6	10.7	7.00e-03	0	61	0	859832320	57	6183
2026-01-30 00:02:23.30	210.63	45.45	-42.7	-47.1	11.2	2.31e-03	0	61	0	861929472	57	5822
2026-01-30 00:02:24.31	210.53	45.15	-43.0	-47.8	10.5	4.06e-03	0	61	0	864026624	57	6331
2026-01-30 00:02:25.32	210.43	44.85	-43.1	-48.2	10.0	5.19e-03	0	61	0	866123776	57	6613
2026-01-30 00:02:26.33	210.34	44.56	-43.2	-48.4	9.9	8.30e-03	0	61	0	868220928	57	6727
2026-01-30 00:02:27.34	210.24	44.26	-43.3	-48.5	9.7	1.03e-02	0	61	0	869269504	57	6876
2026-01-30 00:02:28.35	210.15	43.97	-43.4	-49.0	9.2	1.82e-02	0	61	0	871366656	57	7214
2026-01-30 00:02:29.36	210.06	43.68	-43.2	-48.4	9.8	2.19e-02	0	61	0	873463808	57	6780
2026-01-30 00:02:30.37	209.97	43.39	-43.4	-49.0	9.2	1.52e-02	0	60	0	875560960	57	7261
2026-01-30 00:02:31.38	209.88	43.10	-43.4	-48.9	9.3	2.52e-02	0	61	0	877658112	57	7197
2026-01-30 00:02:32.39	209.80	42.82	-43.4	-49.1	9.1	1.26e-02	0	61	0	878706688	57	7337
2026-01-30 00:02:33.40	209.71	42.53	-43.7	-50.1	8.1	3.31e-02	0	61	0	880803840	57	8208
2026-01-30 00:02:34.41	209.63	42.25	-44.1	-51.7	6.7	1.43e-01	0	61	0	882900992	58	9339
2026-01-30 00:02:35.42	209.55	41.98	-44.2	-52.0	6.3	3.53e-01	0	61	0	884998144	59	9163
2026-01-30 00:02:36.43	209.47	41.70	-43.8	-50.5	7.7	1.90e-01	0	61	0	887095296	59	7653
2026-01-30 00:02:37.44	209.39	41.42	-43.4	-49.1	9.0	4.25e-02	0	61	0	889192448	58	6949
2026-01-30 00:02:38.45	209.31	41.15	-43.2	-48.3	10.0	1.07e-02	0	61	0	890241024	58	6283
2026-01-30 00:02:39.46	209.24	40.88	-43.2	-48.3	10.2	6.58e-03	0	61	0	892338176	58	6328
2026-01-30 00:02:40.47	209.16	40.61	-43.1	-48.1	10.2	5.93e-03	0	61	0	894435328	57	6523
2026-01-30 00:02:41.48	209.09	40.35	-43.4	-49.0	9.3	1.77e-02	0	61	0	896532480	57	7264
2026-01-30 00:02:42.49	209.02	40.08	-43.2	-48.5	9.8	2.05e-02	0	61	0	898629632	57	6809
2026-01-30 00:02:43.50	208.95	39.82	-43.4	-48.9	9.3	1.11e-02	0	61	0	899678208	57	7151
2026-01-30 00:02:44.51	208.88	39.56	-43.4	-49.1	9.1	2.44e-02	0	61	0	901775360	57	7349
2026-01-30 00:02:45.52	208.81	39.30	-43.5	-49.4	8.8	3.94e-02	0	61	0	903872512	57	7606
2026-01-30 00:02:46.53	208.74	39.04	-43.4	-49.1	9.1	3.24e-02	0	61	0	905969664	57	7298
2026-01-30 00:02:47.55	208.68	38.79	-43.1	-48.3	10.3	1.33e-02	0	61	0	908066816	57	6671
2026-01-30 00:02:48.55	208.61	38.53	-43.0	-47.9	10.4	1.10e-02	0	61	0	909115392	57	6349
2026-01-30 00:02:49.56	208.55	38.28	-42.6	-47.0	11.3	1.70e-03	0	61	0	911212544	57	5731
2026-01-30 00:02:50.57	208.49	38.03	-42.5	-46.8	11.5	6.64e-04	0	61	0	913309696	56	5957
2026-01-30 00:02:51.58	208.42	37.79	-42.5	-46.8	11.5	7.32e-04	0	61	0	915406848	56	5944
2026-01-30 00:02:52.59	208.36	37.54	-42.8	-47.5	10.8	1.58e-03	0	61	0	917504000	56	6487
2026-01-30 00:02:53.60	208.30	37.30	-42.8	-47.5	10.7	2.62e-03	0	61	0	918552576	56	6483
2026-01-30 00:02:54.61	208.24	37.05	-43.0	-48.0	10.3	4.48e-03	0	61	0	920649728	56	6822
2026-01-30 00:02:55.62	208.19	36.81	-43.1	-48.2	9.9	5.86e-03	0	61	0	922746880	57	6643
2026-01-30 00:02:56.63	208.13	36.57	-43.3	-48.6	9.6	6.24e-03	0	61	0	924844032	57	6936
2026-01-30 00:02:57.64	208.07	36.34	-43.3	-48.7	9.5	9.53e-03	0	61	0	926941184	57	6964
2026-01-30 00:02:58.65	208.02	36.10	-43.3	-48.7	9.5	1.64e-02	0	61	0	927989760	57	6991
2026-01-30 00:02:59.66	207.96	35.87	-43.3	-48.9	9.2	1.68e-02	0	61	0	930086912	57	7159
2026-01-30 00:03:00.67	207.91	35.63	-43.5	-49.3	8.8	2.45e-02	0	61	0	932184064	57	7505
2026-01-30 00:03:01.68	207.85	35.40	-43.7	-50.0	8.2	5.13e-02	0	61	0	934281216	57	8113
2026-01-30 00:03:02.69	207.80	35.17	-43.5	-49.5	8.5	4.33e-02	0	61	0	936378368	57	7671
2026-01-30 00:03:03.70	207.75	34.95	-43.5	-49.5	8.7	2.79e-02	0	61	0	937426944	57	7659
2026-01-30 00:03:04.70	207.70	34.72	-43.3	-48.7	9.5	2.41e-02	0	61	0	939524096	57	7020
2026-01-30 00:03:05.71	207.65	34.50	-43.1	-48.1	10.1	1.33e-02	0	61	0	941621248	57	6557
2026-01-30 00:03:06.72	207.60	34.27	-42.8	-47.4	10.8	2.88e-03	0	61	0	943718400	57	6046
2026-01-30 00:03:07.73	207.55	34.05	-42.8	-47.4	10.8	2.26e-03	0	61	0	945815552	57	6034
2026-01-30 00:03:08.74	207.50	33.83	-42.7	-47.2	11.0	2.06e-03	0	61	0	946864128	57	5868
2026-01-30 00:03:09.75	207.46	33.62	-42.7	-47.1	11.2	1.46e-03	0	61	0	948961280	57	5805
2026-01-30 00:03:10.76	207.41	33.40	-42.9	-47.6	10.6	2.22e-03	0	61	0	951058432	57	6148
2026-01-30 00:03:11.77	207.36	33.18	-42.9	-47.6	10.6	2.65e-03	0	61	0	953155584	57	6154
2026-01-30 00:03:12.78	207.32	32.97	-42.9	-47.6	10.5	3.38e-03	0	61	0	955252736	57	6201
2026-01-30 00:03:13.79	207.27	32.76	-42.8	-47.5	10.6	3.29e-03	0	61	0	957349888	57	6122
2026-01-30 00:03:14.80	207.23	32.55	-42.8	-47.5	10.7	4.50e-03	0	61	0	958398464	57	6094
2026-01-30 00:03:15.81	207.19	32.34	-43.0	-47.9	10.2	5.45e-03	0	61	0	960495616	57	6391
2026-01-30 00:03:16.82	207.14	32.13	-42.9	-47.7	10.3	8.34e-03	0	61	0	962592768	57	6212
2026-01-30 00:03:17.83	207.10	31.92	-43.1	-48.1	10.0	7.13e-03	0	61	0	964689920	57	6566
2026-01-30 00:03:18.84	207.06	31.72	-43.0	-48.0	10.1	6.44e-03	0	61	0	966787072	57	6422
2026-01-30 00:03:19.85	207.02	31.52	-43.0	-47.9	10.2	6.29e-03	0	61	0	967835648	57	6395
2026-01-30 00:03:20.86	206.98	31.31	-43.0	-48.1	10.0	7.55e-03	0	61	0	969932800	57	6516
2026-01-30 00:03:21.87	206.94	31.11	-43.1	-48.2	9.9	8.37e-03	0	61	0	972029952	57	6636
2026-01-30 00:03:22.88	206.90	30.91	-43.1	-48.3	9.9	5.77e-03	0	61	0	974127104	57	6674
2026-01-30 00:03:23.89	206.86	30.72	-43.0	-48.0	10.1	6.93e-03	0	61	0	976224256	57	6444
2026-01-30 00:03:24.90	206.82	30.52	-42.9	-47.7	10.2	4.78e-03	0	61	0	977272832	57	6273
2026-01-30 00:03:25.91	206.78	30.32	-42.8	-47.6	10.6	3.10e-03	0	61	0	979369984	57	6181
2026-01-30 00:03:26.93	206.74	30.13	-42.9	-47.7	10.5	3.62e-03	0	61	0	981467136	57	6224
2026-01-30 00:03:27.93	206.71	29.94	-42.8	-47.6	10.6	4.33e-03	0	61	0	983564288	57	6154
2026-01-30 00:03:28.94	206.67	29.74	-42.9	-47.7	10.5	4.29e-03	0	61	0	985661440	57	6209
2026-01-30 00:03:29.95	206.64	29.55	-43.0	-48.0	10.2	4.95e-03	0	61	0	986710016	57	6424
2026-01-30 00:03:30.97	206.60	29.36	-43.0	-48.2	10.0	7.34e-03	0	61	0	988807168	57	6603
2026-01-30 00:03:31.98	206.56	29.18	-43.1	-48.2	9.8	9.51e-03	0	61	0	990904320	57	6619
2026-01-30 00:03:32.98	206.53	28.99	-43.0	-48.1	10.0	8.26e-03	0	61	0	993001472	57	6549
2026-01-30 00:03:33.99	206.50	28.81	-42.7	-47.4	10.7	4.40e-03	0	61	0	995098624	57	6024
2026-01-30 00:03:35.00	206.46	28.62	-42.6	-47.1	11.1	2.57e-03	0	61	0	996147200	57	5801
2026-01-30 00:03:36.01	206.43	28.44	-42.5	-46.8	11.3	1.76e-03	0	61	0	998244352	56	5960
2026-01-30 00:03:37.02	206.39	28.26	-42.4	-46.5	11.6	6.07e-04	0	61	0	1000341504	56	5765
2026-01-30 00:03:38.03	206.36	28.08	-42.4	-46.6	11.6	6.59e-04	0	61	0	1002438656	56	5797
2026-01-30 00:03:39.04	206.33	27.90	-42.4	-46.7	11.5	9.77e-04	0	61	0	1004535808	56	5860
2026-01-30 00:03:40.05	206.30	27.72	-42.3	-46.5	11.7	7.39e-04	0	61	0	1005584384	56	5744
2026-01-30 00:03:41.06	206.27	27.54	-42.5	-46.7	11.4	5.75e-04	0	61	0	1007681536	56	5922
2026-01-30 00:03:42.07	206.23	27.36	-42.5	-47.0	11.2	1.26e-03	0	61	0	1009778688	56	6062
2026-01-30 00:03:43.08	206.20	27.19	-42.4	-46.7	11.4	1.16e-03	0	61	0	1011875840	56	5906
2026-01-30 00:03:44.09	206.17	27.02	-42.4	-46.7	11.5	8.21e-04	0	61	0	1013972992	56	5874
2026-01-30 00:03:45.10	206.14	26.84	-42.2	-46.3	11.9	6.72e-04	0	61	0	1015021568	56	5620
2026-01-30 00:03:46.11	206.11	26.67	-42.2	-46.1	12.0	2.59e-04	0	61	0	1017118720	56	5510
2026-01-30 00:03:47.12	206.08	26.50	-42.2	-46.2	11.9	3.13e-04	0	61	0	1019215872	56	5574
2026-01-30 00:03:48.13	206.06	26.33	-42.1	-46.0	12.2	2.42e-04	0	61	0	1021313024	56	5422
2026-01-30 00:03:49.14	206.03	26.16	-41.7	-45.4	12.6	1.53e-04	0	61	0	1023410176	55	5357
2026-01-30 00:03:50.15	206.00	26.00	-41.8	-45.6	12.3	1.88e-04	0	61	0	1025507328	55	5513
2026-01-30 00:03:51.15	205.97	25.83	-41.8	-45.5	12.5	1.53e-04	0	61	0	1026555904	55	5446
2026-01-30 00:03:52.16	205.94	25.67	-41.7	-45.5	12.6	8.77e-05	0	61	0	1028653056	55	5408
2026-01-30 00:03:53.17	205.92	25.50	-42.0	-45.9	12.1	1.50e-04	0	61	0	1030750208	55	5697
2026-01-30 00:03:54.18	205.89	25.34	-42.0	-46.0	12.0	3.20e-04	0	61	0	1032847360	55	5761
2026-01-30 00:03:55.19	205.86	25.18	-42.0	-46.0	11.9	3.78e-04	0	61	0	1034944512	55	5766
2026-01-30 00:03:56.20	205.84	25.01	-42.1	-46.2	11.7	5.16e-04	0	61	0	1035993088	55	5888
2026-01-30 00:03:57.21	205.81	24.85	-42.1	-46.3	11.6	6.14e-04	0	61	0	1038090240	55	5962
2026-01-30 00:03:58.22	205.78	24.69	-42.1	-46.1	11.8	4.54e-04	0	61	0	1040187392	55	5849
2026-01-30 00:03:59.23	205.76	24.54	-42.1	-46.3	11.7	5.34e-04	0	61	0	1042284544	55	5941
2026-01-30 00:04:00.24	205.73	24.38	-42.0	-46.1	11.9	6.15e-04	0	61	0	1044381696	55	5801
2026-01-30 00:04:01.25	205.71	24.22	-42.1	-46.3	11.7	4.89e-04	0	61	0	1045430272	55	5947
2026-01-30 00:04:02.26	205.68	24.07	-42.2	-46.5	11.5	7.05e-04	0	61	0	1047527424	55	6070
2026-01-30 00:04:03.27	205.66	23.91	-42.1	-46.3	11.7	4.58e-04	0	61	0	1049624576	55	5945
2026-01-30 00:04:04.28	205.63	23.76	-42.2	-46.5	11.4	7.32e-04	0	61	0	1051721728	55	6125
2026-01-30 00:04:05.29	205.61	23.60	-42.3	-46.7	11.2	1.33e-03	0	61	0	1053818880	55	6217
2026-01-30 00:04:06.30	205.59	23.45	-42.3	-46.8	11.1	1.89e-03	0	61	0	1054867456	55	6303
2026-01-30 00:04:07.31	205.56	23.30	-42.4	-46.9	11.0	1.71e-03	0	61	0	1056964608	55	6398
2026-01-30 00:04:08.32	205.54	23.15	-42.4	-47.0	10.9	2.48e-03	0	61	0	1059061760	55	6436
2026-01-30 00:04:09.33	205.52	23.00	-42.5	-47.1	10.8	4.05e-03	0	61	0	1061158912	55	6538
2026-01-30 00:04:10.34	205.49	22.85	-42.6	-47.4	10.4	3.66e-03	0	61	0	1063256064	55	6778
2026-01-30 00:04:11.35	205.47	22.70	-42.9	-47.9	10.2	5.89e-03	0	61	0	1064304640	56	6738
2026-01-30 00:04:12.36	205.45	22.56	-42.9	-47.9	10.1	6.79e-03	0	61	0	1066401792	56	6752
2026-01-30 00:04:13.37	205.43	22.41	-42.8	-47.8	10.2	6.25e-03	0	61	0	1068498944	56	6691
2026-01-30 00:04:14.38	205.41	22.27	-42.7	-47.6	10.4	5.66e-03	0	61	0	1070596096	56	6500
2026-01-30 00:04:15.39	205.38	22.12	-42.7	-47.6	10.4	3.77e-03	0	61	0	1072693248	56	6532
2026-01-30 00:04:16.40	205.36	21.98	-42.7	-47.6	10.4	4.24e-03	0	61	0	1073741824	56	6503
2026-01-30 00:04:17.41	205.34	21.84	-42.6	-47.3	10.6	3.52e-03	0	61	0	1075838976	56	6342
2026-01-30 00:04:18.42	205.32	21.69	-42.7	-47.5	10.5	3.55e-03	0	61	0	1077936128	56	6431
2026-01-30 00:04:19.43	205.30	21.55	-42.6	-47.4	10.7	3.77e-03	0	61	0	1080033280	56	6349
2026-01-30 00:04:20.44	205.28	21.41	-42.5	-47.1	10.9	2.67e-03	0	61	0	1082130432	56	6193
2026-01-30 00:04:21.45	205.26	21.27	-42.6	-47.4	10.7	3.05e-03	0	61	0	1083179008	56	6370
2026-01-30 00:04:22.46	205.24	21.13	-42.7	-47.6	10.3	3.03e-03	0	61	0	1085276160	56	6562
2026-01-30 00:04:23.47	205.22	20.99	-42.7	-47.5	10.6	3.67e-03	0	61	0	1087373312	56	6458
2026-01-30 00:04:24.47	205.20	20.86	-42.6	-47.3	10.7	3.13e-03	0	61	0	1089470464	56	6320
2026-01-30 00:04:25.48	205.18	20.72	-42.7	-47.5	10.5	3.99e-03	0	61	0	1091567616	56	6487
2026-01-30 00:04:26.49	205.16	20.59	-42.7	-47.4	10.6	4.32e-03	0	61	0	1093664768	56	6374
2026-01-30 00:04:27.50	205.14	20.45	-42.7	-47.5	10.4	3.15e-03	0	61	0	1094713344	56	6477
2026-01-30 00:04:28.51	205.12	20.32	-42.7	-47.5	10.5	6.03e-03	0	61	0	1096810496	56	6425
2026-01-30 00:04:29.52	205.11	20.18	-42.6	-47.3	10.6	4.93e-03	0	61	0	1098907648	56	6303
2026-01-30 00:04:30.53	205.09	20.05	-42.6	-47.3	10.6	2.98e-03	0	61	0	1101004800	56	6336
2026-01-30 00:04:31.54	205.07	19.92	-42.5	-47.0	11.0	2.69e-03	0	61	0	1103101952	56	6081
2026-01-30 00:04:32.55	205.05	19.79	-42.4	-46.8	11.2	1.47e-03	0	61	0	1104150528	56	5990
2026-01-30 00:04:33.56	205.03	19.65	-42.5	-47.0	11.0	1.81e-03	0	61	0	1106247680	56	6117
2026-01-30 00:04:34.57	205.02	19.52	-42.4	-46.8	11.1	1.75e-03	0	61	0	1108344832	56	5978
2026-01-30 00:04:35.58	205.00	19.39	-42.4	-46.8	11.1	9.80e-04	0	61	0	1110441984	56	5974
2026-01-30 00:04:36.59	204.98	19.27	-42.3	-46.6	11.4	1.21e-03	0	61	0	1112539136	56	5800
2026-01-30 00:04:37.60	204.96	19.14	-42.2	-46.3	11.7	7.72e-04	0	61	0	1113587712	56	5630
2026-01-30 00:04:38.61	204.95	19.01	-42.1	-46.2	11.7	4.97e-04	0	61	0	1115684864	56	5568
2026-01-30 00:04:39.62	204.93	18.88	-42.3	-46.5	11.4	5.13e-04	0	61	0	1117782016	56	5778
2026-01-30 00:04:40.63	204.91	18.76	-42.3	-46.5	11.4	9.47e-04	0	61	0	1119879168	56	5778
2026-01-30 00:04:41.64	204.90	18.63	-42.3	-46.6	11.3	1.09e-03	0	61	0	1121976320	56	5793
2026-01-30 00:04:42.65	204.88	18.51	-42.4	-46.9	11.0	1.39e-03	0	61	0	1123024896	56	6029
2026-01-30 00:04:43.66	204.86	18.38	-42.4	-47.0	11.0	2.07e-03	0	61	0	1125122048	56	6063
2026-01-30 00:04:44.67	204.85	18.26	-42.4	-46.9	11.0	1.87e-03	0	61	0	1127219200	56	6020
2026-01-30 00:04:45.68	204.83	18.13	-42.5	-47.3	10.7	2.53e-03	0	61	0	1129316352	56	6279
2026-01-30 00:04:46.69	204.82	18.01	-42.7	-47.5	10.3	4.10e-03	0	61	0	1131413504	56	6494
2026-01-30 00:04:47.70	204.80	17.89	-42.7	-47.7	10.1	6.68e-03	0	61	0	1132462080	56	6639
2026-01-30 00:04:48.71	204.78	17.77	-42.8	-48.0	9.9	8.93e-03	0	61	0	1134559232	56	6828
2026-01-30 00:04:49.72	204.77	17.65	-42.8	-48.0	9.8	9.24e-03	0	61	0	1136656384	56	6875
2026-01-30 00:04:50.73	204.75	17.53	-42.9	-48.4	9.4	1.39e-02	0	61	0	1138753536	56	7145
2026-01-30 00:04:51.74	204.74	17.41	-42.9	-48.3	9.5	1.43e-02	0	61	0	1140850688	56	7061
2026-01-30 00:04:52.75	204.72	17.29	-43.0	-48.6	9.3	1.54e-02	0	61	0	1141899264	56	7301
2026-01-30 00:04:53.76	204.71	17.17	-43.1	-48.8	8.9	2.87e-02	0	61	0	1143996416	56	7536
2026-01-30 00:04:54.77	204.69	17.05	-43.1	-48.8	9.1	2.08e-02	0	61	0	1146093568	56	7475
2026-01-30 00:04:55.78	204.68	16.94	-43.0	-48.6	9.2	2.27e-02	0	61	0	1148190720	56	7343
2026-01-30 00:04:56.79	204.67	16.82	-43.1	-48.9	8.9	2.80e-02	0	61	0	1150287872	56	7566
2026-01-30 00:04:57.80	204.65	16.70	-43.0	-48.6	9.1	2.29e-02	0	61	0	1151336448	56	7368
2026-01-30 00:04:58.81	204.64	16.59	-43.1	-48.8	9.0	2.21e-02	0	61	0	1153433600	56	7529
2026-01-30 00:04:59.82	204.62	16.47	-43.1	-48.8	9.0	2.51e-02	0	61	0	1155530752	56	7525
2026-01-30 00:05:00.83	204.61	16.36	-43.0	-48.7	9.2	2.04e-02	0	61	0	1157627904	56	7451
2026-01-30 00:05:01.84	204.60	16.24	-43.0	-48.7	9.1	2.08e-02	0	61	0	1159725056	56	7387
2026-01-30 00:05:02.85	204.58	16.13	-43.0	-48.5	9.3	1.77e-02	0	61	0	1160773632	56	7275
2026-01-30 00:05:03.86	204.57	16.02	-43.0	-48.5	9.3	2.07e-02	0	61	0	1162870784	56	7237
2026-01-30 00:05:04.87	204.55	15.90	-43.0	-48.6	9.2	2.31e-02	0	61	0	1164967936	56	7331
2026-01-30 00:05:05.88	204.54	15.79	-43.0	-48.6	9.1	2.17e-02	0	61	0	1167065088	56	7336
2026-01-30 00:05:06.89	204.53	15.68	-43.0	-48.6	9.2	1.83e-02	0	61	0	1169162240	56	7344
2026-01-30 00:05:07.90	204.52	15.57	-42.9	-48.4	9.3	1.79e-02	0	61	0	1171259392	56	7171
2026-01-30 00:05:08.91	204.50	15.46	-42.9	-48.3	9.5	2.32e-02	0	61	0	1172307968	56	7062
2026-01-30 00:05:09.92	204.49	15.35	-43.0	-48.6	9.2	2.04e-02	0	61	0	1174405120	56	7320
2026-01-30 00:05:10.93	204.48	15.24	-43.1	-48.9	8.8	2.57e-02	0	61	0	1176502272	56	7590
2026-01-30 00:05:11.94	204.46	15.13	-43.0	-48.8	8.9	2.75e-02	0	61	0	1178599424	56	7505
