passes_logs/2026/01/29/R2.0S_Moscow/R2.0S_Moscow__20260129_030847_AQUA_rec.log

#Pass ID: 20260129_030847_AQUA
#Satellite: AQUA
#Configuration: AQUA
#almurnet v.1.7.20251203
#Start time: 2026-01-29 03:08:49

#Version: 2.2.20231116
#Station: R2.0S_Moscow
#Location: 37.707566 lon 55.798166 lat
#TLE: 1 27424U 02022A   26027.88561574  .00001798  00000+0  36942-3 0  9997
#TLE: 2 27424  98.4102 354.5311 0001840  63.5604 322.5877 14.61868111262779

#Time	Az	El	Level	Level2	SNR	BER	BlckErr	Temp	State	Recorded	gain1	gain2
2026-01-29 03:08:49.43	5.70	2.13	-40.9	-59.7	3.8	7.47e-01	0	51	0	0	53	31433
2026-01-29 03:08:50.45	5.61	2.18	-40.9	-59.8	3.8	7.44e-01	0	51	104	0	52	33349
2026-01-29 03:08:51.46	5.53	2.24	-40.9	-59.7	3.8	7.44e-01	0	51	104	0	52	33284
2026-01-29 03:08:52.47	5.44	2.30	-40.9	-59.7	3.8	7.48e-01	0	51	104	0	52	33277
2026-01-29 03:08:53.48	5.36	2.35	-40.9	-59.8	3.8	7.45e-01	0	51	104	0	52	33336
2026-01-29 03:08:54.49	5.27	2.41	-40.9	-59.7	3.8	7.42e-01	0	51	104	0	52	33302
2026-01-29 03:08:55.50	5.18	2.46	-40.9	-59.7	3.8	7.47e-01	0	51	104	0	52	33240
2026-01-29 03:08:56.51	5.09	2.52	-40.8	-59.7	3.8	7.48e-01	0	51	104	0	52	33239
2026-01-29 03:08:57.52	5.01	2.58	-40.8	-59.7	3.8	7.42e-01	0	52	104	0	52	33252
2026-01-29 03:08:58.53	4.92	2.63	-40.8	-59.7	3.8	7.43e-01	0	52	104	0	52	33253
2026-01-29 03:08:59.54	4.83	2.69	-40.9	-59.8	3.8	7.44e-01	0	52	104	0	52	33357
2026-01-29 03:09:00.55	4.74	2.75	-40.8	-59.7	3.8	7.47e-01	0	52	104	0	52	33212
2026-01-29 03:09:01.56	4.65	2.80	-40.8	-59.7	3.8	7.51e-01	0	52	104	0	52	33229
2026-01-29 03:09:02.57	4.56	2.86	-40.8	-59.7	3.8	7.45e-01	0	52	104	0	52	33176
2026-01-29 03:09:03.58	4.47	2.92	-40.8	-59.7	3.8	7.46e-01	0	52	104	0	52	33226
2026-01-29 03:09:04.59	4.38	2.97	-40.8	-59.7	3.8	7.45e-01	0	52	104	0	52	33170
2026-01-29 03:09:05.60	4.29	3.03	-40.8	-59.7	3.8	7.44e-01	0	52	104	0	52	33137
2026-01-29 03:09:06.61	4.19	3.09	-40.8	-59.7	3.8	7.46e-01	0	52	104	0	52	33195
2026-01-29 03:09:07.62	4.10	3.15	-40.8	-59.7	3.8	7.47e-01	0	52	104	0	52	33173
2026-01-29 03:09:08.63	4.01	3.20	-40.8	-59.7	3.8	7.43e-01	0	52	104	0	52	33188
2026-01-29 03:09:09.64	3.92	3.26	-40.8	-59.7	3.8	7.46e-01	0	52	104	0	52	33151
2026-01-29 03:09:10.65	3.82	3.32	-40.8	-59.7	3.8	7.45e-01	0	52	104	0	52	33257
2026-01-29 03:09:11.66	3.73	3.37	-40.8	-59.7	3.8	7.47e-01	0	53	104	0	52	33241
2026-01-29 03:09:12.67	3.64	3.43	-40.8	-59.7	3.8	7.43e-01	0	53	104	0	52	33194
2026-01-29 03:09:13.68	3.54	3.49	-40.8	-59.7	3.8	7.46e-01	0	53	104	0	52	33192
2026-01-29 03:09:14.69	3.45	3.55	-40.8	-59.7	3.8	7.45e-01	0	53	104	0	52	33224
2026-01-29 03:09:15.70	3.35	3.60	-40.8	-59.7	3.8	7.49e-01	0	53	104	0	52	33210
2026-01-29 03:09:16.71	3.25	3.66	-40.8	-59.7	3.8	7.46e-01	0	53	104	0	52	33172
2026-01-29 03:09:17.72	3.16	3.72	-40.8	-59.7	3.8	7.44e-01	0	53	104	0	52	33186
2026-01-29 03:09:18.73	3.06	3.78	-40.8	-59.7	3.8	7.45e-01	0	53	104	0	52	33138
2026-01-29 03:09:19.74	2.96	3.84	-40.8	-59.7	3.8	7.45e-01	0	53	104	0	52	33081
2026-01-29 03:09:20.75	2.87	3.89	-40.8	-59.7	3.8	7.43e-01	0	53	104	0	52	33035
2026-01-29 03:09:21.77	2.77	3.95	-40.8	-59.7	3.8	7.44e-01	0	53	104	0	52	33014
2026-01-29 03:09:22.78	2.67	4.01	-40.8	-59.7	3.8	7.46e-01	0	53	104	0	52	33055
2026-01-29 03:09:23.78	2.57	4.07	-40.8	-59.7	3.8	7.46e-01	0	53	104	0	52	33022
2026-01-29 03:09:24.80	2.47	4.13	-40.8	-59.7	3.8	7.45e-01	0	53	104	0	52	33046
2026-01-29 03:09:25.80	2.37	4.18	-40.8	-59.7	3.8	7.47e-01	0	53	104	0	52	33013
2026-01-29 03:09:26.82	2.27	4.24	-40.8	-59.7	3.8	7.44e-01	0	53	104	0	52	33168
2026-01-29 03:09:27.83	2.17	4.30	-40.8	-59.7	3.8	7.45e-01	0	53	104	0	52	33001
2026-01-29 03:09:28.84	2.07	4.36	-40.8	-59.7	3.8	7.45e-01	0	54	104	0	52	32975
2026-01-29 03:09:29.85	1.97	4.42	-40.8	-59.7	3.8	7.48e-01	0	54	104	0	52	33057
2026-01-29 03:09:30.86	1.86	4.48	-40.8	-59.7	3.8	7.47e-01	0	54	104	0	52	32959
2026-01-29 03:09:31.87	1.76	4.54	-40.8	-59.7	3.8	7.46e-01	0	54	104	0	52	32972
2026-01-29 03:09:32.88	1.66	4.59	-40.8	-59.7	3.8	7.48e-01	0	54	104	0	52	32936
2026-01-29 03:09:33.89	1.55	4.65	-40.8	-59.7	3.8	7.42e-01	0	54	104	0	52	32937
2026-01-29 03:09:34.90	1.45	4.71	-40.8	-59.6	3.8	7.45e-01	0	54	104	0	52	32874
2026-01-29 03:09:35.91	1.35	4.77	-40.8	-59.7	3.8	7.47e-01	0	54	104	0	52	32946
2026-01-29 03:09:36.92	1.24	4.83	-40.8	-59.6	3.8	7.48e-01	0	54	104	0	52	32872
2026-01-29 03:09:37.93	1.14	4.89	-40.8	-59.6	3.8	7.47e-01	0	54	104	0	52	32879
2026-01-29 03:09:38.94	1.03	4.95	-40.8	-59.6	3.8	7.42e-01	0	54	104	0	52	32838
2026-01-29 03:09:39.95	0.92	5.01	-40.8	-59.6	3.8	7.49e-01	0	54	104	0	52	32887
2026-01-29 03:09:40.96	0.82	5.07	-40.8	-59.7	3.8	7.47e-01	0	54	104	0	52	33022
2026-01-29 03:09:41.98	0.71	5.13	-40.8	-59.7	3.8	7.42e-01	0	54	104	0	52	32969
2026-01-29 03:09:42.99	0.60	5.18	-40.8	-59.6	3.8	7.44e-01	0	54	104	0	52	32882
2026-01-29 03:09:44.00	0.49	5.24	-40.8	-59.7	3.8	7.48e-01	0	54	104	0	52	32952
2026-01-29 03:09:45.01	0.38	5.30	-40.8	-59.6	3.8	7.47e-01	0	54	104	0	52	32881
2026-01-29 03:09:46.02	0.27	5.36	-40.8	-59.6	3.8	7.45e-01	0	54	104	0	52	32893
2026-01-29 03:09:47.03	0.16	5.42	-40.8	-59.6	3.8	7.46e-01	0	54	104	0	52	32879
2026-01-29 03:09:48.04	0.05	5.48	-40.8	-59.7	3.8	7.44e-01	0	54	104	0	52	32968
2026-01-29 03:09:49.05	359.94	5.54	-40.8	-59.6	3.8	7.45e-01	0	54	104	0	52	32909
2026-01-29 03:09:50.06	359.83	5.60	-40.8	-59.6	3.8	7.48e-01	0	54	104	0	52	32822
2026-01-29 03:09:51.07	359.72	5.66	-40.7	-59.6	3.8	7.43e-01	0	54	104	0	52	32828
2026-01-29 03:09:52.08	359.61	5.72	-40.8	-59.6	3.8	7.45e-01	0	54	104	0	52	32858
2026-01-29 03:09:53.09	359.49	5.78	-40.7	-59.6	3.8	7.43e-01	0	54	104	0	52	32833
2026-01-29 03:09:54.10	359.38	5.84	-40.8	-59.6	3.8	7.45e-01	0	55	104	0	52	32886
2026-01-29 03:09:55.12	359.26	5.90	-40.7	-59.6	3.8	7.45e-01	0	55	104	0	52	32919
2026-01-29 03:09:56.13	359.15	5.96	-40.7	-59.6	3.8	7.44e-01	0	55	104	0	52	32886
2026-01-29 03:09:57.14	359.03	6.02	-40.8	-59.6	3.8	7.46e-01	0	55	104	0	52	32876
2026-01-29 03:09:58.15	358.92	6.08	-40.7	-59.6	3.8	7.46e-01	0	55	104	0	52	32848
2026-01-29 03:09:59.16	358.80	6.14	-40.7	-59.6	3.8	7.46e-01	0	55	104	0	52	32856
2026-01-29 03:10:00.17	358.69	6.20	-40.8	-59.6	3.8	7.49e-01	0	55	104	0	52	32901
2026-01-29 03:10:01.18	358.57	6.26	-40.8	-59.6	3.8	7.44e-01	0	55	104	0	52	32913
2026-01-29 03:10:02.19	358.45	6.32	-40.7	-59.6	3.8	7.44e-01	0	55	104	0	52	32828
2026-01-29 03:10:03.20	358.33	6.38	-40.7	-59.6	3.8	7.43e-01	0	55	104	0	52	32857
2026-01-29 03:10:04.21	358.21	6.44	-40.8	-59.6	3.8	7.48e-01	0	55	104	0	52	32827
2026-01-29 03:10:05.22	358.09	6.50	-40.7	-59.6	3.8	7.45e-01	0	55	104	0	52	32914
2026-01-29 03:10:06.23	357.97	6.56	-40.8	-59.6	3.8	7.45e-01	0	55	104	0	52	32838
2026-01-29 03:10:07.24	357.85	6.62	-40.7	-59.6	3.8	7.46e-01	0	55	104	0	52	32857
2026-01-29 03:10:08.25	357.73	6.68	-40.7	-59.6	3.8	7.46e-01	0	55	104	0	52	32835
2026-01-29 03:10:09.26	357.61	6.74	-40.7	-59.6	3.8	7.43e-01	0	55	104	0	52	32808
2026-01-29 03:10:10.27	357.49	6.80	-40.7	-59.6	3.8	7.47e-01	0	55	104	0	52	32818
2026-01-29 03:10:11.28	357.36	6.87	-40.7	-59.6	3.8	7.45e-01	0	55	104	0	52	32884
2026-01-29 03:10:12.29	357.24	6.93	-40.8	-59.6	3.8	7.46e-01	0	55	104	0	52	32807
2026-01-29 03:10:13.30	357.12	6.99	-40.8	-59.6	3.8	7.47e-01	0	55	104	0	52	32810
2026-01-29 03:10:14.31	356.99	7.05	-40.7	-59.6	3.8	7.47e-01	0	55	104	0	52	32855
2026-01-29 03:10:15.32	356.87	7.11	-40.7	-59.6	3.8	7.45e-01	0	55	104	0	52	32851
2026-01-29 03:10:16.34	356.74	7.17	-40.7	-59.6	3.8	7.44e-01	0	55	104	0	52	32921
2026-01-29 03:10:17.35	356.61	7.23	-40.8	-59.7	3.8	7.44e-01	0	55	104	0	52	32936
2026-01-29 03:10:18.36	356.49	7.29	-40.7	-59.6	3.8	7.46e-01	0	56	104	0	52	32887
2026-01-29 03:10:19.37	356.36	7.35	-40.7	-59.6	3.8	7.47e-01	0	55	104	0	52	32909
2026-01-29 03:10:20.38	356.23	7.41	-40.7	-59.6	3.8	7.43e-01	0	56	104	0	52	32898
2026-01-29 03:10:21.39	356.10	7.48	-40.8	-59.6	3.8	7.43e-01	0	56	104	0	52	32846
2026-01-29 03:10:22.40	355.97	7.54	-40.8	-59.6	3.8	7.47e-01	0	55	104	0	52	32838
2026-01-29 03:10:23.41	355.84	7.60	-40.8	-59.7	3.8	7.46e-01	0	56	104	0	52	32940
2026-01-29 03:10:24.42	355.71	7.66	-40.8	-59.6	3.8	7.44e-01	0	56	104	0	52	32910
2026-01-29 03:10:25.43	355.58	7.72	-40.7	-59.6	3.8	7.45e-01	0	56	104	0	52	32841
2026-01-29 03:10:26.44	355.45	7.78	-40.8	-59.7	3.8	7.45e-01	0	56	104	0	52	32947
2026-01-29 03:10:27.45	355.32	7.84	-40.7	-59.6	3.8	7.46e-01	0	56	104	0	52	32887
2026-01-29 03:10:28.46	355.18	7.90	-40.7	-59.6	3.8	7.46e-01	0	56	104	0	52	32912
2026-01-29 03:10:29.47	355.05	7.96	-40.8	-59.6	3.8	7.47e-01	0	56	104	0	52	32832
2026-01-29 03:10:30.48	354.92	8.03	-40.7	-59.6	3.8	7.46e-01	0	56	104	0	52	32921
2026-01-29 03:10:31.49	354.78	8.09	-40.8	-59.7	3.8	7.44e-01	0	56	104	0	52	32935
2026-01-29 03:10:32.50	354.64	8.15	-41.0	-59.8	3.8	7.44e-01	0	56	104	0	52	33667
2026-01-29 03:10:33.51	354.51	8.21	-41.0	-59.9	3.8	7.47e-01	0	56	104	0	52	33840
2026-01-29 03:10:34.52	354.37	8.27	-41.0	-59.9	3.8	7.44e-01	0	56	104	0	52	33697
2026-01-29 03:10:35.53	354.23	8.33	-41.0	-59.9	3.8	7.43e-01	0	56	104	0	52	33943
2026-01-29 03:10:36.53	354.10	8.39	-41.1	-60.0	3.8	7.43e-01	0	56	104	0	52	34241
2026-01-29 03:10:37.54	353.96	8.46	-41.1	-60.0	3.8	7.42e-01	0	56	104	0	52	34146
2026-01-29 03:10:38.55	353.82	8.52	-41.0	-59.9	3.8	7.46e-01	0	56	104	0	52	33756
2026-01-29 03:10:39.56	353.68	8.58	-41.1	-59.9	3.8	7.43e-01	0	56	104	0	52	34045
2026-01-29 03:10:40.57	353.54	8.64	-41.2	-60.3	3.8	7.41e-01	0	56	104	0	53	33472
2026-01-29 03:10:41.58	353.40	8.70	-41.1	-60.0	3.8	7.41e-01	0	56	104	0	53	32342
2026-01-29 03:10:42.59	353.25	8.76	-41.0	-59.9	3.8	7.44e-01	0	56	104	0	53	32040
2026-01-29 03:10:43.60	353.11	8.82	-41.2	-60.1	3.8	7.47e-01	0	56	104	0	53	32580
2026-01-29 03:10:44.61	352.97	8.89	-41.4	-60.3	3.8	7.43e-01	0	56	104	0	53	33434
2026-01-29 03:10:45.62	352.82	8.95	-41.2	-60.1	3.8	7.45e-01	0	56	104	0	53	32771
2026-01-29 03:10:46.63	352.68	9.01	-41.2	-60.1	3.8	7.49e-01	0	56	104	0	53	32574
2026-01-29 03:10:47.64	352.53	9.07	-41.3	-60.2	3.8	7.44e-01	0	56	104	0	53	33106
2026-01-29 03:10:48.65	352.39	9.13	-41.4	-60.3	3.8	7.44e-01	0	56	104	0	53	33464
2026-01-29 03:10:49.66	352.24	9.19	-41.4	-60.3	3.8	7.46e-01	0	56	104	0	53	33475
2026-01-29 03:10:50.67	352.09	9.25	-41.5	-60.4	3.8	7.44e-01	0	56	104	0	53	33719
2026-01-29 03:10:51.68	351.94	9.32	-41.4	-60.3	3.8	7.43e-01	0	56	104	0	53	33391
2026-01-29 03:10:52.69	351.80	9.38	-41.5	-60.4	3.8	7.43e-01	0	56	104	0	53	33810
2026-01-29 03:10:53.70	351.65	9.44	-41.5	-60.4	3.8	7.44e-01	0	56	104	0	53	33702
2026-01-29 03:10:54.71	351.50	9.50	-41.3	-60.2	3.8	7.47e-01	0	57	104	0	53	33208
2026-01-29 03:10:55.72	351.34	9.56	-41.4	-60.3	3.8	7.43e-01	0	56	104	0	53	33505
2026-01-29 03:10:56.73	351.19	9.62	-41.8	-61.0	3.8	7.46e-01	0	57	104	0	54	34209
2026-01-29 03:10:57.74	351.04	9.69	-41.4	-60.3	3.8	7.46e-01	0	57	104	0	54	31752
2026-01-29 03:10:58.76	350.89	9.75	-41.4	-60.2	3.8	7.45e-01	0	57	104	0	54	31248
2026-01-29 03:10:59.77	350.73	9.81	-41.6	-60.6	3.8	7.45e-01	0	56	104	0	54	32698
2026-01-29 03:11:00.77	350.58	9.87	-41.6	-60.5	3.8	7.43e-01	0	57	104	0	54	32414
2026-01-29 03:11:01.78	350.42	9.93	-41.6	-60.5	3.8	7.40e-01	0	57	104	0	54	32389
2026-01-29 03:11:02.79	350.27	9.99	-41.5	-60.4	3.8	7.43e-01	0	57	104	0	54	31843
2026-01-29 03:11:03.80	350.11	10.05	-41.6	-60.6	3.8	7.43e-01	0	57	104	0	54	32651
2026-01-29 03:11:04.81	349.95	10.12	-41.5	-60.4	3.8	7.48e-01	0	57	104	0	54	32141
2026-01-29 03:11:05.82	349.79	10.18	-41.6	-60.5	3.8	7.46e-01	0	57	104	0	54	32299
2026-01-29 03:11:06.83	349.64	10.24	-41.6	-60.5	3.8	7.45e-01	0	57	104	0	54	32402
2026-01-29 03:11:07.84	349.48	10.30	-41.6	-60.5	3.8	7.43e-01	0	57	104	0	54	32293
2026-01-29 03:11:08.85	349.32	10.36	-41.9	-60.8	3.8	7.45e-01	0	57	104	0	54	33453
2026-01-29 03:11:09.86	349.15	10.42	-41.5	-60.3	3.8	7.44e-01	0	57	104	0	54	31740
2026-01-29 03:11:10.87	348.99	10.48	-41.7	-60.6	3.8	7.43e-01	0	57	104	0	54	32716
2026-01-29 03:11:11.88	348.83	10.54	-41.9	-60.8	3.8	7.48e-01	0	57	104	0	54	33647
2026-01-29 03:11:12.89	348.67	10.60	-41.9	-60.8	3.8	7.45e-01	0	57	104	0	54	33413
2026-01-29 03:11:13.90	348.50	10.67	-41.7	-60.6	3.8	7.46e-01	0	57	104	0	54	32630
2026-01-29 03:11:14.91	348.34	10.73	-41.8	-60.7	3.8	7.45e-01	0	57	104	0	54	33232
2026-01-29 03:11:15.92	348.17	10.79	-42.0	-61.0	3.8	7.44e-01	0	57	104	0	54	34094
2026-01-29 03:11:16.93	348.00	10.85	-41.9	-60.7	3.8	7.48e-01	0	57	104	0	54	33265
2026-01-29 03:11:17.93	347.84	10.91	-41.9	-60.8	3.8	7.45e-01	0	57	104	0	54	33504
2026-01-29 03:11:18.94	347.67	10.97	-41.9	-60.8	3.8	7.49e-01	0	57	104	0	54	33390
2026-01-29 03:11:19.95	347.50	11.03	-41.9	-60.8	3.8	7.41e-01	0	57	104	0	54	33487
2026-01-29 03:11:20.96	347.33	11.09	-42.0	-60.8	3.8	7.43e-01	0	57	104	0	54	33627
2026-01-29 03:11:21.97	347.16	11.15	-41.9	-60.8	3.8	7.46e-01	0	57	104	0	54	33319
2026-01-29 03:11:22.98	346.99	11.21	-41.9	-60.8	3.8	7.46e-01	0	57	104	0	54	33449
2026-01-29 03:11:23.99	346.82	11.27	-41.8	-60.7	3.8	7.46e-01	0	57	104	0	54	33240
2026-01-29 03:11:25.00	346.65	11.33	-41.8	-60.7	3.8	7.48e-01	0	57	104	0	54	32938
2026-01-29 03:11:26.01	346.47	11.39	-41.9	-60.8	3.8	7.45e-01	0	57	104	0	54	33395
2026-01-29 03:11:27.02	346.30	11.45	-41.9	-60.7	3.8	7.41e-01	0	57	104	0	54	33294
2026-01-29 03:11:28.03	346.12	11.51	-41.6	-60.5	3.8	7.44e-01	0	57	104	0	54	32335
2026-01-29 03:11:29.05	345.95	11.57	-41.6	-60.4	3.8	7.44e-01	0	57	104	0	54	31985
2026-01-29 03:11:30.06	345.77	11.63	-41.9	-60.8	3.8	7.46e-01	0	57	104	0	54	33469
2026-01-29 03:11:31.06	345.59	11.69	-41.7	-60.6	3.8	7.47e-01	0	57	104	0	54	32636
2026-01-29 03:11:32.08	345.41	11.75	-41.5	-60.4	3.8	7.43e-01	0	57	104	0	54	31830
2026-01-29 03:11:33.09	345.24	11.81	-41.6	-60.5	3.8	7.43e-01	0	57	104	0	54	32180
2026-01-29 03:11:34.10	345.06	11.87	-41.7	-60.5	3.8	7.44e-01	0	57	104	0	54	32436
2026-01-29 03:11:35.11	344.88	11.93	-41.6	-60.5	3.8	7.46e-01	0	57	104	0	54	32306
2026-01-29 03:11:36.12	344.69	11.99	-41.6	-60.5	3.8	7.43e-01	0	57	104	0	54	32248
2026-01-29 03:11:37.12	344.51	12.05	-41.5	-60.4	3.8	7.42e-01	0	58	104	0	54	31901
2026-01-29 03:11:38.13	344.33	12.11	-41.5	-60.4	3.8	7.46e-01	0	57	104	0	54	31940
2026-01-29 03:11:39.15	344.15	12.17	-41.7	-60.6	3.8	7.46e-01	0	58	104	0	54	32705
2026-01-29 03:11:40.15	343.96	12.23	-41.6	-60.4	3.8	7.44e-01	0	58	104	0	54	32098
2026-01-29 03:11:41.16	343.78	12.29	-41.5	-60.3	3.8	7.48e-01	0	58	104	0	54	31587
2026-01-29 03:11:42.17	343.59	12.34	-41.6	-60.4	3.8	7.46e-01	0	58	104	0	54	32158
2026-01-29 03:11:43.18	343.40	12.40	-41.6	-60.4	3.8	7.43e-01	0	57	104	0	54	32080
2026-01-29 03:11:44.19	343.22	12.46	-41.5	-60.3	3.8	7.45e-01	0	58	104	0	54	31755
2026-01-29 03:11:45.20	343.03	12.52	-41.4	-60.2	3.8	7.45e-01	0	58	104	0	54	31396
2026-01-29 03:11:46.21	342.84	12.58	-41.5	-60.3	3.8	7.44e-01	0	57	104	0	54	31639
2026-01-29 03:11:47.22	342.65	12.64	-41.6	-60.5	3.8	7.44e-01	0	58	104	0	54	32216
2026-01-29 03:11:48.23	342.46	12.69	-41.4	-60.3	3.8	7.42e-01	0	58	104	0	54	31465
2026-01-29 03:11:49.24	342.26	12.75	-41.2	-60.0	3.8	7.42e-01	0	58	104	0	54	30672
2026-01-29 03:11:50.25	342.07	12.81	-41.5	-60.3	3.8	7.46e-01	0	58	104	0	54	31652
2026-01-29 03:11:51.26	341.88	12.87	-41.4	-60.2	3.8	7.48e-01	0	58	104	0	54	31357
2026-01-29 03:11:52.27	341.68	12.92	-41.2	-60.0	3.8	7.44e-01	0	58	104	0	54	30426
2026-01-29 03:11:53.28	341.49	12.98	-41.3	-60.0	3.8	7.50e-01	0	58	104	0	54	30511
2026-01-29 03:11:54.29	341.29	13.04	-41.3	-60.1	3.8	7.47e-01	0	58	104	0	54	30857
2026-01-29 03:11:55.30	341.10	13.09	-41.3	-60.1	3.8	7.44e-01	0	58	104	0	54	30750
2026-01-29 03:11:56.30	340.90	13.15	-41.3	-60.0	3.8	7.45e-01	0	58	104	0	54	30390
2026-01-29 03:11:57.31	340.70	13.21	-41.6	-59.9	3.8	7.47e-01	0	58	104	0	54	30168
2026-01-29 03:11:58.32	340.50	13.26	-41.2	-59.9	3.8	7.46e-01	0	57	104	0	54	30203
2026-01-29 03:11:59.33	340.30	13.32	-41.6	-60.0	3.8	7.46e-01	0	58	104	0	54	30426
2026-01-29 03:12:00.34	340.10	13.38	-41.7	-59.0	3.8	7.45e-01	0	58	104	0	54	27360
2026-01-29 03:12:01.35	339.90	13.43	-41.8	-57.7	4.1	7.42e-01	0	58	104	0	54	23324
2026-01-29 03:12:02.36	339.70	13.49	-42.1	-56.1	4.1	7.37e-01	0	58	104	0	54	19488
2026-01-29 03:12:03.37	339.49	13.54	-42.1	-53.6	6.4	6.77e-01	90	58	0	524288	54	14635
2026-01-29 03:12:04.38	339.29	13.60	-42.1	-51.8	8.4	6.39e-01	21	58	0	2621440	54	11910
2026-01-29 03:12:05.39	339.08	13.65	-42.0	-49.9	10.6	6.14e-01	0	58	0	4194304	54	9576
2026-01-29 03:12:06.40	338.88	13.71	-41.8	-48.2	12.8	6.02e-01	0	58	0	6291456	54	7817
2026-01-29 03:12:07.41	338.67	13.76	-41.5	-46.7	14.5	6.02e-01	0	58	0	8388608	54	6606
2026-01-29 03:12:08.42	338.46	13.82	-41.4	-46.1	15.4	6.04e-01	0	58	0	9961472	54	6178
2026-01-29 03:12:09.43	338.25	13.87	-41.5	-46.1	15.6	6.02e-01	0	58	0	12058624	54	6189
2026-01-29 03:12:10.44	338.05	13.92	-41.9	-46.8	15.3	6.02e-01	0	58	0	13631488	54	6650
2026-01-29 03:12:11.45	337.84	13.98	-42.0	-46.8	15.4	6.02e-01	0	58	0	15728640	54	6655
2026-01-29 03:12:12.46	337.62	14.03	-41.8	-46.2	16.0	6.05e-01	0	58	0	17825792	54	6250
2026-01-29 03:12:13.47	337.41	14.08	-41.8	-46.2	16.1	5.99e-01	0	58	0	19398656	54	6265
2026-01-29 03:12:14.48	337.20	14.14	-41.6	-45.6	17.0	6.04e-01	0	58	0	21495808	54	5821
2026-01-29 03:12:15.49	336.99	14.19	-41.8	-45.9	16.8	6.00e-01	0	58	0	23068672	54	5999
2026-01-29 03:12:16.50	336.77	14.24	-41.6	-45.2	17.6	6.00e-01	0	58	0	25165824	54	5590
2026-01-29 03:12:17.51	336.56	14.29	-41.4	-44.9	18.1	6.02e-01	0	58	0	27262976	54	5352
2026-01-29 03:12:18.52	336.34	14.34	-41.6	-45.2	17.9	6.04e-01	0	58	0	28835840	54	5541
2026-01-29 03:12:19.54	336.12	14.40	-41.7	-45.4	17.7	6.00e-01	0	58	0	30932992	54	5679
2026-01-29 03:12:20.55	335.90	14.45	-41.6	-45.0	18.1	6.03e-01	0	58	0	33030144	54	5459
2026-01-29 03:12:21.56	335.69	14.50	-41.6	-45.0	18.1	5.99e-01	0	58	0	34603008	54	5457
2026-01-29 03:12:22.57	335.47	14.55	-41.5	-44.9	18.4	6.01e-01	0	58	0	36700160	54	5344
2026-01-29 03:12:23.58	335.25	14.60	-41.4	-44.6	18.6	6.03e-01	0	58	0	38273024	54	5189
2026-01-29 03:12:24.59	335.03	14.65	-41.3	-44.5	18.7	6.04e-01	0	58	0	40370176	54	5127
2026-01-29 03:12:25.60	334.81	14.70	-41.3	-44.5	18.8	6.01e-01	0	58	0	42467328	54	5115
2026-01-29 03:12:26.61	334.58	14.75	-41.2	-44.3	18.9	6.02e-01	0	58	0	44040192	54	5030
2026-01-29 03:12:27.62	334.36	14.80	-41.2	-44.3	19.0	6.03e-01	0	58	0	46137344	54	4986
2026-01-29 03:12:28.63	334.14	14.85	-41.1	-44.2	19.1	6.02e-01	0	58	0	47710208	54	4955
2026-01-29 03:12:29.64	333.91	14.90	-41.3	-44.4	18.9	6.04e-01	0	58	0	49807360	54	5085
2026-01-29 03:12:30.65	333.69	14.95	-41.4	-44.6	18.8	6.02e-01	0	58	0	51904512	54	5167
2026-01-29 03:12:31.65	333.46	14.99	-41.2	-44.3	19.1	6.04e-01	0	58	0	53477376	54	5025
2026-01-29 03:12:32.67	333.23	15.04	-41.2	-44.2	19.2	6.02e-01	0	58	0	55574528	54	4962
2026-01-29 03:12:33.67	333.01	15.09	-41.1	-44.1	19.2	6.02e-01	0	58	0	57147392	54	4916
2026-01-29 03:12:34.68	332.78	15.14	-41.2	-44.2	19.2	6.00e-01	0	58	0	59244544	54	4953
2026-01-29 03:12:35.69	332.55	15.18	-41.2	-44.2	19.1	6.01e-01	0	58	0	61341696	54	4967
2026-01-29 03:12:36.70	332.32	15.23	-41.3	-44.3	19.0	6.00e-01	0	58	0	62914560	54	5041
2026-01-29 03:12:37.71	332.09	15.27	-41.2	-44.3	19.1	6.03e-01	0	58	0	65011712	54	5011
2026-01-29 03:12:38.72	331.85	15.32	-41.1	-44.1	19.3	6.02e-01	0	58	0	66584576	54	4906
2026-01-29 03:12:39.73	331.62	15.37	-41.0	-44.0	19.4	6.04e-01	0	58	0	68681728	54	4817
2026-01-29 03:12:40.74	331.39	15.41	-41.1	-44.1	19.3	6.04e-01	0	58	0	70778880	54	4882
2026-01-29 03:12:41.75	331.15	15.46	-41.1	-44.1	19.3	6.01e-01	0	58	0	72351744	54	4907
2026-01-29 03:12:42.76	330.92	15.50	-41.1	-44.1	19.3	6.02e-01	0	58	0	74448896	54	4898
2026-01-29 03:12:43.77	330.68	15.54	-41.2	-44.3	19.2	6.02e-01	0	58	0	76546048	54	4998
2026-01-29 03:12:44.78	330.45	15.59	-41.2	-44.3	19.1	6.03e-01	0	58	0	78118912	54	5005
2026-01-29 03:12:45.79	330.21	15.63	-41.3	-44.4	19.0	6.01e-01	0	58	0	80216064	54	5062
2026-01-29 03:12:46.80	329.97	15.67	-41.2	-44.3	19.2	6.03e-01	0	58	0	81788928	54	4984
2026-01-29 03:12:47.81	329.73	15.72	-41.0	-44.0	19.5	6.02e-01	0	58	0	83886080	54	4818
2026-01-29 03:12:48.82	329.49	15.76	-41.0	-43.9	19.5	6.03e-01	0	58	0	85983232	54	4801
2026-01-29 03:12:49.83	329.25	15.80	-41.1	-44.0	19.4	6.03e-01	0	58	0	87556096	54	4859
2026-01-29 03:12:50.83	329.02	15.84	-41.2	-44.3	19.2	6.01e-01	0	58	0	89653248	54	5008
2026-01-29 03:12:51.84	328.77	15.88	-41.2	-44.3	19.2	6.02e-01	0	58	0	91226112	54	5000
2026-01-29 03:12:52.85	328.53	15.92	-41.2	-44.2	19.3	6.00e-01	0	58	0	93323264	54	4943
2026-01-29 03:12:53.86	328.29	15.96	-41.2	-44.2	19.2	6.03e-01	0	58	0	95420416	54	4956
2026-01-29 03:12:54.87	328.05	16.00	-41.1	-44.1	19.3	6.04e-01	0	58	0	96993280	54	4897
2026-01-29 03:12:55.88	327.80	16.04	-41.2	-44.1	19.3	6.03e-01	0	58	0	99090432	54	4910
2026-01-29 03:12:56.89	327.56	16.08	-41.1	-44.1	19.3	6.03e-01	0	58	0	101187584	54	4889
2026-01-29 03:12:57.90	327.31	16.12	-41.2	-44.3	19.2	6.01e-01	0	58	0	102760448	54	4986
2026-01-29 03:12:58.91	327.06	16.15	-41.3	-44.4	19.1	6.02e-01	0	58	0	104857600	54	5043
2026-01-29 03:12:59.92	326.82	16.19	-41.2	-44.2	19.3	6.03e-01	0	59	0	106430464	54	4951
2026-01-29 03:13:00.93	326.57	16.23	-41.1	-44.1	19.4	6.04e-01	0	58	0	108527616	54	4882
2026-01-29 03:13:01.94	326.32	16.26	-41.1	-44.1	19.4	6.01e-01	0	58	0	110624768	54	4897
2026-01-29 03:13:02.95	326.07	16.30	-41.2	-44.2	19.2	6.04e-01	0	58	0	112197632	54	4968
2026-01-29 03:13:03.96	325.82	16.34	-41.3	-44.3	19.2	6.05e-01	0	58	0	114294784	54	5025
2026-01-29 03:13:04.97	325.57	16.37	-41.3	-44.3	19.1	6.03e-01	0	58	0	115867648	54	5026
2026-01-29 03:13:05.98	325.32	16.40	-41.2	-44.2	19.3	6.05e-01	0	58	0	117964800	54	4961
2026-01-29 03:13:06.99	325.07	16.44	-41.3	-44.3	19.1	6.02e-01	0	58	0	120061952	54	5018
2026-01-29 03:13:08.00	324.82	16.47	-41.3	-44.3	19.1	6.04e-01	0	58	0	121634816	54	5026
2026-01-29 03:13:09.01	324.57	16.51	-41.2	-44.2	19.3	6.05e-01	0	58	0	123731968	54	4950
2026-01-29 03:13:10.02	324.31	16.54	-41.3	-44.3	19.1	6.03e-01	0	58	0	125304832	54	5019
2026-01-29 03:13:11.03	324.06	16.57	-41.3	-44.3	19.2	6.00e-01	0	58	0	127401984	54	5023
2026-01-29 03:13:12.04	323.80	16.60	-41.3	-44.3	19.1	6.02e-01	0	59	0	129499136	54	5019
2026-01-29 03:13:13.05	323.55	16.63	-41.2	-44.1	19.3	6.00e-01	0	59	0	131072000	54	4910
2026-01-29 03:13:14.06	323.29	16.66	-41.2	-44.2	19.3	6.02e-01	0	58	0	133169152	54	4949
2026-01-29 03:13:15.07	323.04	16.69	-41.2	-44.3	19.2	6.03e-01	0	58	0	134742016	54	4984
2026-01-29 03:13:16.08	322.78	16.72	-41.2	-44.2	19.2	6.05e-01	0	59	0	136839168	54	4969
2026-01-29 03:13:17.09	322.52	16.75	-41.3	-44.3	19.2	6.00e-01	0	58	0	138936320	54	5007
2026-01-29 03:13:18.10	322.26	16.78	-41.1	-44.1	19.4	6.01e-01	0	59	0	140509184	54	4881
2026-01-29 03:13:19.11	322.01	16.81	-41.2	-44.2	19.2	6.03e-01	0	58	0	142606336	54	4973
2026-01-29 03:13:20.12	321.75	16.84	-41.3	-44.3	19.1	6.01e-01	0	58	0	144703488	54	5038
2026-01-29 03:13:21.14	321.49	16.86	-41.3	-44.3	19.2	6.03e-01	0	59	0	146276352	54	5008
2026-01-29 03:13:22.15	321.23	16.89	-41.3	-44.3	19.1	6.03e-01	0	59	0	148373504	54	5041
2026-01-29 03:13:23.15	320.97	16.91	-41.2	-44.1	19.3	5.99e-01	0	58	0	149946368	54	4925
2026-01-29 03:13:24.16	320.71	16.94	-41.2	-44.2	19.3	6.03e-01	0	58	0	152043520	54	4955
2026-01-29 03:13:25.17	320.45	16.96	-41.3	-44.3	19.2	6.02e-01	0	58	0	154140672	54	5011
2026-01-29 03:13:26.18	320.18	16.99	-41.4	-44.4	19.0	6.01e-01	0	59	0	155713536	54	5100
2026-01-29 03:13:27.19	319.92	17.01	-41.5	-44.7	18.9	6.02e-01	0	58	0	157810688	54	5226
2026-01-29 03:13:28.20	319.66	17.04	-41.5	-44.7	18.8	6.03e-01	0	59	0	159383552	54	5274
2026-01-29 03:13:29.21	319.40	17.06	-41.4	-44.5	19.0	6.00e-01	0	58	0	161480704	54	5109
2026-01-29 03:13:30.22	319.13	17.08	-41.1	-44.0	19.5	6.00e-01	0	59	0	163577856	54	4860
2026-01-29 03:13:31.23	318.87	17.10	-41.2	-44.2	19.3	6.02e-01	0	58	0	165150720	54	4968
2026-01-29 03:13:32.24	318.60	17.12	-41.3	-44.4	19.1	6.04e-01	0	58	0	167247872	54	5051
2026-01-29 03:13:33.25	318.34	17.14	-41.3	-44.4	19.1	6.02e-01	0	58	0	169345024	54	5071
2026-01-29 03:13:34.26	318.08	17.16	-41.3	-44.4	19.1	6.02e-01	0	59	0	170917888	54	5072
2026-01-29 03:13:35.27	317.81	17.18	-41.3	-44.3	19.1	6.02e-01	0	58	0	173015040	54	5040
2026-01-29 03:13:36.28	317.54	17.20	-41.3	-44.3	19.2	6.03e-01	0	59	0	174587904	54	5004
2026-01-29 03:13:37.29	317.28	17.22	-41.3	-44.4	19.2	6.03e-01	0	59	0	176685056	54	5049
2026-01-29 03:13:38.30	317.01	17.23	-41.3	-44.4	19.1	6.02e-01	0	58	0	178782208	54	5064
2026-01-29 03:13:39.31	316.74	17.25	-41.3	-44.3	19.2	6.04e-01	0	58	0	180355072	54	5023
2026-01-29 03:13:40.32	316.48	17.27	-41.3	-44.3	19.2	6.01e-01	0	59	0	182452224	54	5027
2026-01-29 03:13:41.33	316.21	17.28	-41.3	-44.3	19.2	6.02e-01	0	59	0	184025088	54	5018
2026-01-29 03:13:42.34	315.94	17.30	-41.3	-44.4	19.1	6.04e-01	0	59	0	186122240	54	5044
2026-01-29 03:13:43.35	315.67	17.31	-41.4	-44.4	19.1	6.05e-01	0	59	0	188219392	54	5092
2026-01-29 03:13:44.36	315.41	17.33	-41.3	-44.4	19.1	6.04e-01	0	59	0	189792256	54	5066
2026-01-29 03:13:45.37	315.14	17.34	-41.2	-44.2	19.3	6.01e-01	0	59	0	191889408	54	4976
2026-01-29 03:13:46.38	314.87	17.35	-41.2	-44.2	19.3	6.00e-01	0	58	0	193462272	54	4974
2026-01-29 03:13:47.39	314.60	17.36	-41.4	-44.4	19.1	6.01e-01	0	59	0	195559424	54	5086
2026-01-29 03:13:48.40	314.33	17.37	-41.4	-44.5	19.0	6.05e-01	0	59	0	197656576	54	5117
2026-01-29 03:13:49.41	314.06	17.38	-41.3	-44.4	19.2	5.99e-01	0	59	0	199229440	54	5043
2026-01-29 03:13:50.42	313.79	17.39	-41.3	-44.3	19.2	6.01e-01	0	59	0	201326592	54	4999
2026-01-29 03:13:51.43	313.52	17.40	-41.3	-44.4	19.1	6.04e-01	0	59	0	202899456	54	5054
2026-01-29 03:13:52.44	313.25	17.41	-41.2	-44.2	19.3	6.01e-01	0	59	0	204996608	54	4950
2026-01-29 03:13:53.45	312.98	17.42	-41.4	-44.6	19.0	6.02e-01	0	59	0	207093760	54	5165
2026-01-29 03:13:54.46	312.71	17.43	-41.3	-44.3	19.2	6.01e-01	0	59	0	208666624	54	5023
2026-01-29 03:13:55.47	312.44	17.44	-41.6	-44.8	18.7	6.03e-01	0	59	0	210763776	54	5322
2026-01-29 03:13:56.48	312.17	17.44	-41.3	-44.3	19.2	6.03e-01	0	59	0	212860928	54	5010
2026-01-29 03:13:57.49	311.90	17.45	-41.6	-44.7	18.8	6.03e-01	0	59	0	214433792	54	5278
2026-01-29 03:13:58.50	311.63	17.45	-41.3	-44.3	19.2	6.02e-01	0	59	0	216530944	54	4996
2026-01-29 03:13:59.51	311.36	17.46	-41.4	-44.6	18.9	6.03e-01	0	59	0	218103808	54	5174
2026-01-29 03:14:00.52	311.09	17.46	-41.2	-44.2	19.3	6.05e-01	0	58	0	220200960	54	4975
2026-01-29 03:14:01.53	310.81	17.46	-41.2	-44.2	19.2	6.01e-01	0	59	0	222298112	54	4975
2026-01-29 03:14:02.55	310.54	17.47	-41.4	-44.5	19.0	6.01e-01	0	59	0	223870976	54	5159
2026-01-29 03:14:03.56	310.27	17.47	-41.2	-44.2	19.3	6.00e-01	0	59	0	225968128	54	4931
2026-01-29 03:14:04.56	310.00	17.47	-41.6	-44.8	18.7	5.99e-01	0	59	0	227540992	54	5321
2026-01-29 03:14:05.57	309.73	17.47	-41.1	-44.0	19.4	6.02e-01	0	59	0	229638144	54	4849
2026-01-29 03:14:06.59	309.46	17.47	-41.6	-44.8	18.7	6.02e-01	0	59	0	231735296	54	5310
2026-01-29 03:14:07.59	309.19	17.47	-41.2	-44.2	19.4	6.01e-01	0	59	0	233308160	54	4932
2026-01-29 03:14:08.61	308.91	17.47	-41.4	-44.5	18.9	6.03e-01	0	59	0	235405312	54	5110
2026-01-29 03:14:09.62	308.64	17.47	-41.5	-44.6	19.0	6.01e-01	0	59	0	237502464	54	5183
2026-01-29 03:14:10.63	308.37	17.47	-41.2	-44.1	19.4	6.02e-01	0	59	0	239075328	54	4887
2026-01-29 03:14:11.64	308.10	17.46	-41.6	-44.8	18.7	6.04e-01	0	59	0	241172480	54	5311
2026-01-29 03:14:12.65	307.83	17.46	-41.0	-43.8	19.6	6.06e-01	0	59	0	242745344	54	4746
2026-01-29 03:14:13.66	307.56	17.45	-41.5	-44.7	18.7	6.03e-01	0	59	0	244842496	54	5267
2026-01-29 03:14:14.67	307.29	17.45	-41.1	-44.0	19.5	6.02e-01	0	59	0	246939648	54	4867
2026-01-29 03:14:15.68	307.01	17.44	-41.5	-44.7	18.7	6.00e-01	0	59	0	248512512	54	5256
2026-01-29 03:14:16.69	306.74	17.44	-41.5	-44.6	18.9	6.01e-01	0	59	0	250609664	54	5189
2026-01-29 03:14:17.69	306.48	17.43	-41.2	-44.2	19.2	6.00e-01	0	59	0	252706816	54	4950
2026-01-29 03:14:18.71	306.20	17.42	-41.5	-44.7	18.8	6.03e-01	0	59	0	254279680	54	5263
2026-01-29 03:14:19.72	305.93	17.42	-40.9	-43.7	19.7	6.02e-01	0	59	0	256376832	53	4948
2026-01-29 03:14:20.73	305.66	17.41	-41.5	-44.7	18.7	6.02e-01	0	59	0	257949696	53	5576
2026-01-29 03:14:21.74	305.39	17.40	-41.2	-44.1	19.4	6.02e-01	0	59	0	260046848	53	5195
2026-01-29 03:14:22.75	305.12	17.39	-41.3	-44.4	19.0	6.03e-01	0	59	0	262144000	53	5391
2026-01-29 03:14:23.76	304.85	17.38	-41.4	-44.6	18.9	6.01e-01	0	59	0	263716864	53	5494
2026-01-29 03:14:24.77	304.58	17.37	-41.2	-44.3	19.2	6.05e-01	0	59	0	265814016	53	5288
2026-01-29 03:14:25.78	304.31	17.35	-41.4	-44.6	18.9	6.03e-01	0	59	0	267386880	53	5489
2026-01-29 03:14:26.79	304.04	17.34	-41.2	-44.2	19.2	6.01e-01	0	59	0	269484032	53	5255
2026-01-29 03:14:27.80	303.78	17.33	-41.3	-44.4	19.1	6.01e-01	0	59	0	271581184	53	5342
2026-01-29 03:14:28.81	303.51	17.32	-41.2	-44.2	19.3	6.00e-01	0	59	0	273154048	53	5259
2026-01-29 03:14:29.82	303.24	17.30	-41.5	-44.7	18.5	6.01e-01	0	59	0	275251200	53	5556
2026-01-29 03:14:30.83	302.97	17.29	-41.3	-44.4	19.0	6.02e-01	0	59	0	276824064	53	5376
2026-01-29 03:14:31.84	302.70	17.27	-41.4	-44.6	18.8	6.02e-01	0	59	0	278921216	53	5492
2026-01-29 03:14:32.85	302.43	17.26	-41.5	-44.6	18.8	6.02e-01	0	59	0	281018368	53	5517
2026-01-29 03:14:33.86	302.17	17.24	-41.4	-44.5	18.9	6.04e-01	0	59	0	282591232	53	5454
2026-01-29 03:14:34.87	301.90	17.22	-41.3	-44.4	19.0	6.02e-01	0	59	0	284688384	53	5378
2026-01-29 03:14:35.88	301.63	17.20	-41.7	-45.2	18.4	6.02e-01	0	59	0	286261248	54	5538
2026-01-29 03:14:36.89	301.37	17.19	-41.1	-44.0	19.5	6.01e-01	0	59	0	288358400	54	4827
2026-01-29 03:14:37.90	301.10	17.17	-41.6	-44.9	18.5	6.01e-01	0	59	0	290455552	54	5366
2026-01-29 03:14:38.91	300.84	17.15	-41.5	-44.6	18.8	6.05e-01	0	59	0	292028416	54	5216
2026-01-29 03:14:39.92	300.57	17.13	-41.3	-44.4	19.0	6.02e-01	0	59	0	294125568	54	5083
2026-01-29 03:14:40.93	300.31	17.11	-41.4	-44.6	18.8	6.00e-01	0	59	0	295698432	54	5166
2026-01-29 03:14:41.94	300.04	17.09	-41.4	-44.6	18.9	6.01e-01	0	59	0	297795584	53	5484
2026-01-29 03:14:42.95	299.78	17.06	-41.0	-43.9	19.4	6.02e-01	0	59	0	299892736	53	5070
2026-01-29 03:14:43.96	299.51	17.04	-41.5	-44.7	18.7	6.01e-01	0	59	0	301465600	53	5569
2026-01-29 03:14:44.98	299.25	17.02	-41.4	-44.5	19.0	6.03e-01	0	59	0	303562752	53	5435
2026-01-29 03:14:45.99	298.99	17.00	-41.3	-44.4	19.0	6.04e-01	0	59	0	305659904	53	5390
2026-01-29 03:14:46.99	298.73	16.97	-41.7	-45.1	18.4	6.02e-01	0	59	0	307232768	53	5795
2026-01-29 03:14:48.00	298.46	16.95	-41.2	-44.1	19.3	6.03e-01	0	59	0	309329920	53	5200
2026-01-29 03:14:49.01	298.20	16.92	-41.5	-44.7	18.8	6.01e-01	0	59	0	310902784	53	5543
2026-01-29 03:14:50.02	297.94	16.90	-41.2	-44.2	19.2	5.99e-01	0	59	0	312999936	53	5234
2026-01-29 03:14:51.03	297.68	16.87	-41.5	-44.8	18.7	6.03e-01	0	59	0	315097088	53	5619
2026-01-29 03:14:52.04	297.42	16.84	-41.1	-44.0	19.3	6.04e-01	0	59	0	316669952	54	4830
2026-01-29 03:14:53.05	297.16	16.82	-41.4	-44.6	18.9	6.00e-01	0	59	0	318767104	53	5495
2026-01-29 03:14:54.06	296.90	16.79	-41.4	-44.5	18.8	6.05e-01	0	59	0	320339968	54	5128
2026-01-29 03:14:55.08	296.64	16.76	-41.2	-44.2	19.3	6.03e-01	0	59	0	322437120	53	5246
2026-01-29 03:14:56.08	296.39	16.73	-41.4	-44.7	18.8	6.04e-01	0	59	0	324534272	53	5531
2026-01-29 03:14:57.09	296.13	16.70	-41.0	-43.9	19.4	6.06e-01	0	59	0	326107136	53	5082
2026-01-29 03:14:58.11	295.87	16.67	-41.4	-44.7	18.8	6.01e-01	0	59	0	328204288	53	5534
2026-01-29 03:14:59.11	295.61	16.64	-41.1	-44.1	19.2	6.03e-01	0	59	0	330301440	53	5165
2026-01-29 03:15:00.12	295.36	16.61	-41.2	-44.3	19.1	6.01e-01	0	59	0	331874304	53	5314
2026-01-29 03:15:01.13	295.10	16.58	-41.5	-44.7	18.6	6.02e-01	0	59	0	333971456	54	5232
2026-01-29 03:15:02.14	294.85	16.55	-41.1	-44.0	19.4	6.04e-01	0	59	0	335544320	53	5121
2026-01-29 03:15:03.15	294.60	16.51	-41.6	-44.9	18.5	6.02e-01	0	59	0	337641472	53	5687
2026-01-29 03:15:04.16	294.34	16.48	-41.1	-44.1	19.3	6.04e-01	0	59	0	339738624	53	5175
2026-01-29 03:15:05.17	294.09	16.45	-41.1	-44.2	19.2	6.02e-01	0	59	0	341311488	53	5223
2026-01-29 03:15:06.18	293.84	16.41	-41.6	-45.0	18.3	6.04e-01	0	59	0	343408640	53	5787
2026-01-29 03:15:07.19	293.58	16.38	-40.9	-43.7	19.6	6.00e-01	0	59	0	345505792	53	4954
2026-01-29 03:15:08.20	293.33	16.34	-41.9	-45.5	17.9	6.03e-01	0	59	0	347078656	54	5736
2026-01-29 03:15:09.21	293.08	16.31	-40.9	-43.8	19.4	6.02e-01	0	59	0	349175808	53	4997
2026-01-29 03:15:10.22	292.83	16.27	-41.3	-44.5	18.9	6.00e-01	0	59	0	350748672	53	5435
2026-01-29 03:15:11.23	292.58	16.24	-41.3	-44.4	18.8	6.02e-01	0	59	0	352845824	53	5390
2026-01-29 03:15:12.24	292.34	16.20	-41.2	-44.2	19.1	6.01e-01	0	59	0	354942976	53	5261
2026-01-29 03:15:13.26	292.09	16.16	-41.4	-44.7	18.7	6.00e-01	0	59	0	356515840	53	5543
2026-01-29 03:15:14.27	291.84	16.12	-41.5	-44.7	18.6	6.02e-01	0	59	0	358612992	53	5578
2026-01-29 03:15:15.28	291.59	16.09	-41.2	-44.3	19.0	6.03e-01	0	59	0	360185856	53	5322
2026-01-29 03:15:16.28	291.35	16.05	-41.9	-45.4	17.9	6.03e-01	0	59	0	362283008	54	5721
2026-01-29 03:15:17.29	291.10	16.01	-41.0	-43.9	19.3	6.01e-01	0	59	0	364380160	54	4785
2026-01-29 03:15:18.30	290.86	15.97	-41.6	-45.0	18.3	6.02e-01	0	59	0	365953024	53	5770
2026-01-29 03:15:19.31	290.61	15.93	-41.3	-44.4	18.9	6.00e-01	0	59	0	368050176	53	5366
2026-01-29 03:15:20.32	290.37	15.89	-41.4	-44.6	18.8	6.02e-01	0	59	0	369623040	53	5509
2026-01-29 03:15:21.34	290.13	15.85	-41.3	-44.5	18.8	6.01e-01	0	59	0	371720192	53	5435
2026-01-29 03:15:22.34	289.89	15.81	-41.7	-45.1	18.2	6.04e-01	0	59	0	373817344	53	5850
2026-01-29 03:15:23.35	289.65	15.77	-41.6	-44.9	18.3	6.00e-01	0	59	0	375390208	54	5377
2026-01-29 03:15:24.36	289.41	15.72	-41.5	-44.7	18.6	6.03e-01	0	59	0	377487360	54	5253
2026-01-29 03:15:25.37	289.17	15.68	-41.8	-45.4	17.9	5.99e-01	0	59	0	379060224	54	5679
2026-01-29 03:15:26.38	288.93	15.64	-41.6	-44.9	18.5	6.04e-01	0	59	0	381157376	54	5341
2026-01-29 03:15:27.39	288.69	15.60	-41.7	-45.2	18.1	6.04e-01	0	59	0	383254528	54	5572
2026-01-29 03:15:28.40	288.45	15.55	-41.7	-45.1	18.3	6.04e-01	0	59	0	384827392	54	5465
2026-01-29 03:15:29.41	288.21	15.51	-41.6	-44.9	18.4	6.01e-01	0	59	0	386924544	54	5374
2026-01-29 03:15:30.42	287.98	15.46	-41.4	-44.6	18.7	6.03e-01	0	59	0	388497408	54	5206
2026-01-29 03:15:31.43	287.74	15.42	-41.6	-45.0	18.3	6.00e-01	0	59	0	390594560	54	5433
2026-01-29 03:15:32.44	287.51	15.37	-41.3	-44.5	18.7	6.01e-01	0	59	0	392691712	54	5153
2026-01-29 03:15:33.45	287.28	15.33	-41.3	-44.5	18.7	6.00e-01	0	59	0	394264576	54	5145
2026-01-29 03:15:34.46	287.04	15.28	-41.4	-44.6	18.7	6.03e-01	0	59	0	396361728	54	5194
2026-01-29 03:15:35.47	286.81	15.24	-41.2	-44.4	18.9	6.05e-01	0	59	0	398458880	54	5046
2026-01-29 03:15:36.48	286.58	15.19	-41.1	-44.1	19.1	6.02e-01	0	59	0	400031744	54	4907
2026-01-29 03:15:37.49	286.35	15.14	-41.2	-44.4	18.9	6.01e-01	0	59	0	402128896	54	5053
2026-01-29 03:15:38.50	286.12	15.10	-41.5	-44.9	18.4	6.01e-01	0	59	0	403701760	54	5350
2026-01-29 03:15:39.51	285.89	15.05	-41.2	-44.4	18.9	5.99e-01	0	59	0	405798912	54	5048
2026-01-29 03:15:40.52	285.66	15.00	-41.4	-44.7	18.6	6.04e-01	0	59	0	407896064	54	5232
2026-01-29 03:15:41.54	285.43	14.95	-41.6	-45.1	18.1	6.01e-01	0	59	0	409468928	54	5513
2026-01-29 03:15:42.55	285.20	14.90	-41.0	-44.0	19.2	6.02e-01	0	59	0	411566080	54	4822
2026-01-29 03:15:43.56	284.98	14.86	-41.2	-44.3	18.9	6.03e-01	0	59	0	413663232	53	5311
2026-01-29 03:15:44.57	284.75	14.81	-41.5	-44.9	18.3	6.02e-01	0	59	0	415236096	53	5659
2026-01-29 03:15:45.58	284.53	14.76	-41.0	-44.1	19.1	6.03e-01	0	59	0	417333248	53	5182
2026-01-29 03:15:46.59	284.31	14.71	-41.3	-44.6	18.6	6.00e-01	0	59	0	418906112	53	5490
2026-01-29 03:15:47.60	284.08	14.66	-41.6	-45.0	18.1	6.00e-01	0	59	0	421003264	53	5773
2026-01-29 03:15:48.60	283.86	14.61	-41.2	-44.4	18.7	6.01e-01	0	59	0	423100416	53	5390
2026-01-29 03:15:49.61	283.64	14.56	-41.4	-44.7	18.5	6.03e-01	0	59	0	424673280	53	5590
2026-01-29 03:15:50.62	283.42	14.51	-41.6	-45.1	18.1	6.01e-01	0	59	0	426770432	53	5808
2026-01-29 03:15:51.63	283.20	14.46	-41.0	-44.0	19.1	6.02e-01	0	59	0	428343296	53	5158
2026-01-29 03:15:52.64	282.98	14.40	-41.3	-44.6	18.6	6.03e-01	0	59	0	430440448	53	5475
2026-01-29 03:15:53.65	282.77	14.35	-41.6	-45.1	18.0	6.03e-01	0	59	0	432537600	53	5850
2026-01-29 03:15:54.66	282.55	14.30	-41.1	-44.3	18.8	6.05e-01	0	59	0	434110464	53	5288
2026-01-29 03:15:55.67	282.33	14.25	-40.9	-43.8	19.4	6.05e-01	0	59	0	436207616	53	5009
2026-01-29 03:15:56.68	282.12	14.20	-41.6	-45.2	18.0	6.02e-01	0	59	0	437780480	53	5863
2026-01-29 03:15:57.69	281.90	14.14	-41.5	-44.8	18.2	6.05e-01	0	59	0	439877632	53	5656
2026-01-29 03:15:58.70	281.69	14.09	-41.1	-44.1	19.1	6.01e-01	0	59	0	441974784	53	5197
2026-01-29 03:15:59.71	281.48	14.04	-41.4	-44.7	18.5	6.02e-01	0	59	0	443547648	53	5554
2026-01-29 03:16:00.72	281.26	13.98	-41.6	-45.0	18.1	6.05e-01	0	59	0	445644800	53	5783
2026-01-29 03:16:01.73	281.05	13.93	-41.0	-44.1	19.0	6.03e-01	0	59	0	447217664	53	5188
2026-01-29 03:16:02.74	280.84	13.88	-40.9	-43.9	19.3	6.05e-01	0	59	0	449314816	53	5060
2026-01-29 03:16:03.75	280.63	13.82	-41.3	-44.6	18.6	6.02e-01	0	59	0	451411968	53	5489
2026-01-29 03:16:04.76	280.42	13.77	-41.4	-44.8	18.3	6.02e-01	0	59	0	452984832	53	5647
2026-01-29 03:16:05.77	280.22	13.71	-41.1	-44.2	18.9	6.00e-01	0	59	0	455081984	53	5257
2026-01-29 03:16:06.78	280.01	13.66	-41.2	-44.4	18.7	6.01e-01	0	59	0	456654848	53	5395
2026-01-29 03:16:07.79	279.80	13.60	-41.4	-44.8	18.3	6.03e-01	0	59	0	458752000	53	5621
2026-01-29 03:16:08.80	279.60	13.55	-41.2	-44.4	18.7	6.04e-01	0	59	0	460849152	53	5393
2026-01-29 03:16:09.81	279.39	13.49	-41.0	-44.1	19.1	6.03e-01	0	59	0	462422016	53	5169
2026-01-29 03:16:10.82	279.19	13.44	-41.1	-44.2	18.9	6.01e-01	0	59	0	464519168	53	5278
2026-01-29 03:16:11.83	278.98	13.38	-41.4	-44.7	18.5	5.99e-01	0	59	0	466616320	53	5557
2026-01-29 03:16:12.84	278.78	13.32	-41.3	-44.6	18.5	6.08e-01	0	59	0	468189184	53	5483
2026-01-29 03:16:13.85	278.58	13.27	-41.2	-44.4	18.7	6.00e-01	0	59	0	470286336	53	5390
2026-01-29 03:16:14.86	278.38	13.21	-41.3	-44.5	18.7	6.01e-01	0	59	0	471859200	53	5441
2026-01-29 03:16:15.87	278.18	13.16	-41.3	-44.6	18.5	6.04e-01	0	59	0	473956352	53	5525
2026-01-29 03:16:16.88	277.98	13.10	-41.2	-44.4	18.7	6.03e-01	0	59	0	476053504	53	5367
2026-01-29 03:16:17.89	277.78	13.04	-41.2	-44.3	18.8	6.02e-01	0	59	0	477626368	53	5336
2026-01-29 03:16:18.90	277.59	12.98	-41.1	-44.2	18.9	6.02e-01	0	59	0	479723520	53	5261
2026-01-29 03:16:19.91	277.39	12.93	-41.3	-44.5	18.6	6.03e-01	0	59	0	481820672	53	5443
2026-01-29 03:16:20.92	277.19	12.87	-41.4	-44.7	18.4	6.00e-01	0	59	0	483393536	53	5576
2026-01-29 03:16:21.93	277.00	12.81	-41.2	-44.5	18.4	6.04e-01	0	59	0	485490688	53	5435
2026-01-29 03:16:22.94	276.81	12.75	-41.2	-44.4	18.6	6.03e-01	0	59	0	487063552	53	5381
2026-01-29 03:16:23.95	276.61	12.70	-41.2	-44.4	18.6	6.04e-01	0	59	0	489160704	53	5387
2026-01-29 03:16:24.96	276.42	12.64	-41.2	-44.5	18.5	6.02e-01	0	59	0	491257856	53	5443
2026-01-29 03:16:25.97	276.23	12.58	-41.4	-44.7	18.3	6.01e-01	0	59	0	492830720	53	5591
2026-01-29 03:16:26.98	276.04	12.52	-41.4	-44.8	18.3	6.01e-01	0	59	0	494927872	53	5608
2026-01-29 03:16:28.00	275.85	12.46	-41.2	-44.5	18.5	6.00e-01	0	59	0	496500736	53	5460
2026-01-29 03:16:29.01	275.66	12.40	-41.2	-44.4	18.6	6.06e-01	0	59	0	498597888	53	5369
2026-01-29 03:16:30.02	275.47	12.35	-41.2	-44.5	18.5	5.99e-01	0	59	0	500695040	53	5437
2026-01-29 03:16:31.03	275.28	12.29	-41.3	-44.6	18.4	6.03e-01	0	59	0	502267904	53	5512
2026-01-29 03:16:32.04	275.09	12.23	-41.2	-44.4	18.6	6.03e-01	0	59	0	504365056	53	5386
2026-01-29 03:16:33.04	274.91	12.17	-41.2	-44.5	18.6	6.03e-01	0	59	0	506462208	53	5414
2026-01-29 03:16:34.06	274.72	12.11	-41.3	-44.6	18.3	6.00e-01	0	59	0	508035072	53	5523
2026-01-29 03:16:35.07	274.54	12.05	-41.3	-44.7	18.3	6.01e-01	0	59	0	510132224	53	5582
2026-01-29 03:16:36.08	274.36	11.99	-41.4	-44.9	18.1	6.01e-01	0	59	0	511705088	53	5662
2026-01-29 03:16:37.09	274.17	11.93	-41.3	-44.7	18.3	6.02e-01	0	59	0	513802240	53	5548
2026-01-29 03:16:38.10	273.99	11.87	-41.2	-44.5	18.4	6.01e-01	0	59	0	515899392	53	5451
2026-01-29 03:16:39.11	273.81	11.81	-41.2	-44.5	18.5	6.04e-01	0	59	0	517472256	53	5406
2026-01-29 03:16:40.12	273.63	11.75	-41.3	-44.6	18.3	6.04e-01	0	59	0	519569408	53	5516
2026-01-29 03:16:41.13	273.45	11.69	-41.3	-44.8	18.1	6.03e-01	0	59	0	521142272	53	5620
2026-01-29 03:16:42.14	273.27	11.63	-41.3	-44.8	18.1	6.04e-01	0	59	0	523239424	53	5636
2026-01-29 03:16:43.15	273.09	11.57	-41.3	-44.8	18.0	6.01e-01	0	59	0	525336576	53	5656
2026-01-29 03:16:44.16	272.92	11.51	-41.3	-44.8	18.0	6.04e-01	0	59	0	526909440	53	5614
2026-01-29 03:16:45.17	272.74	11.45	-41.4	-44.9	17.9	6.01e-01	0	59	0	529006592	53	5704
2026-01-29 03:16:46.18	272.57	11.39	-41.3	-44.8	18.0	5.99e-01	0	59	0	530579456	53	5640
2026-01-29 03:16:47.19	272.39	11.33	-41.3	-44.8	18.1	6.03e-01	0	59	0	532676608	53	5596
2026-01-29 03:16:48.20	272.22	11.27	-41.4	-44.9	17.9	6.00e-01	0	59	0	534773760	53	5717
2026-01-29 03:16:49.20	272.05	11.21	-41.4	-45.0	17.8	6.02e-01	0	59	0	536346624	53	5760
2026-01-29 03:16:50.21	271.87	11.15	-41.4	-45.1	17.7	6.04e-01	0	59	0	538443776	53	5814
2026-01-29 03:16:51.22	271.70	11.09	-41.4	-45.0	17.8	6.01e-01	0	59	0	540016640	53	5735
2026-01-29 03:16:52.23	271.53	11.03	-41.4	-45.0	17.7	6.01e-01	0	59	0	542113792	53	5786
2026-01-29 03:16:53.24	271.36	10.97	-41.4	-45.1	17.5	6.04e-01	0	59	0	544210944	53	5844
2026-01-29 03:16:54.26	271.19	10.91	-41.4	-45.1	17.6	6.03e-01	0	59	0	545783808	53	5847
2026-01-29 03:16:55.27	271.02	10.84	-41.5	-45.4	17.3	6.02e-01	0	59	0	547880960	53	6021
2026-01-29 03:16:56.28	270.85	10.78	-41.6	-45.5	17.2	6.02e-01	0	59	0	549978112	53	6069
2026-01-29 03:16:57.29	270.69	10.72	-41.5	-45.4	17.3	6.02e-01	0	59	0	551550976	53	6018
2026-01-29 03:16:58.29	270.52	10.66	-41.5	-45.3	17.3	6.04e-01	0	59	0	553648128	53	5979
2026-01-29 03:16:59.31	270.35	10.60	-41.5	-45.4	17.2	6.00e-01	0	59	0	555220992	53	6053
2026-01-29 03:17:00.31	270.19	10.54	-41.6	-45.6	17.1	6.01e-01	0	59	0	557318144	53	6132
2026-01-29 03:17:01.32	270.03	10.48	-41.5	-45.4	17.2	6.04e-01	0	59	0	559415296	53	6059
2026-01-29 03:17:02.33	269.86	10.42	-41.5	-45.4	17.2	6.04e-01	0	59	0	560988160	53	6033
2026-01-29 03:17:03.34	269.70	10.35	-41.4	-45.1	17.5	6.02e-01	0	59	0	563085312	53	5842
2026-01-29 03:17:04.35	269.54	10.29	-41.4	-45.1	17.5	5.99e-01	0	59	0	564658176	53	5836
2026-01-29 03:17:05.36	269.38	10.23	-41.3	-45.0	17.6	6.03e-01	0	59	0	566755328	53	5762
2026-01-29 03:17:06.37	269.22	10.17	-41.2	-44.9	17.6	6.01e-01	0	59	0	568852480	53	5712
2026-01-29 03:17:07.38	269.06	10.11	-41.3	-45.1	17.4	6.02e-01	0	59	0	570425344	53	5796
2026-01-29 03:17:08.39	268.90	10.05	-41.3	-45.1	17.4	6.03e-01	0	59	0	572522496	53	5822
2026-01-29 03:17:09.40	268.74	9.99	-41.2	-45.1	17.3	6.02e-01	0	59	0	574619648	53	5808
2026-01-29 03:17:10.41	268.59	9.92	-41.1	-44.8	17.5	6.03e-01	0	59	0	576192512	53	5654
2026-01-29 03:17:11.42	268.43	9.86	-41.1	-44.8	17.4	6.01e-01	0	59	0	578289664	53	5656
2026-01-29 03:17:12.43	268.27	9.80	-41.1	-45.0	17.3	6.03e-01	0	59	0	579862528	53	5748
2026-01-29 03:17:13.44	268.12	9.74	-41.3	-45.3	16.8	5.99e-01	0	59	0	581959680	53	5977
2026-01-29 03:17:14.45	267.96	9.68	-41.3	-45.5	16.6	6.01e-01	0	59	0	584056832	53	6085
2026-01-29 03:17:15.46	267.81	9.62	-41.4	-45.6	16.5	6.02e-01	0	59	0	585629696	53	6190
2026-01-29 03:17:16.47	267.66	9.55	-41.5	-45.9	16.1	6.00e-01	0	59	0	587726848	53	6376
2026-01-29 03:17:17.48	267.50	9.49	-41.4	-45.5	16.6	6.04e-01	0	59	0	589299712	53	6126
2026-01-29 03:17:18.49	267.35	9.43	-41.4	-45.7	16.4	6.03e-01	0	59	0	591396864	53	6218
2026-01-29 03:17:19.50	267.20	9.37	-41.3	-45.7	16.3	6.02e-01	0	59	0	593494016	53	6210
2026-01-29 03:17:20.51	267.05	9.31	-41.2	-45.2	16.9	6.03e-01	0	59	0	595066880	53	5887
2026-01-29 03:17:21.52	266.90	9.25	-41.3	-45.4	16.7	6.02e-01	0	59	0	597164032	53	6014
2026-01-29 03:17:22.53	266.75	9.18	-41.2	-45.3	16.7	6.01e-01	0	59	0	598736896	53	5982
2026-01-29 03:17:23.54	266.61	9.12	-41.3	-45.5	16.5	6.00e-01	0	59	0	600834048	53	6126
2026-01-29 03:17:24.55	266.46	9.06	-41.3	-45.6	16.4	5.99e-01	0	59	0	602931200	53	6196
2026-01-29 03:17:25.56	266.31	9.00	-41.4	-45.8	16.1	6.04e-01	0	59	0	604504064	53	6308
2026-01-29 03:17:26.57	266.17	8.94	-41.5	-46.1	15.8	6.01e-01	0	59	0	606601216	53	6540
2026-01-29 03:17:27.58	266.02	8.87	-41.6	-46.2	15.7	6.02e-01	0	59	0	608698368	53	6615
2026-01-29 03:17:28.59	265.87	8.81	-41.7	-46.4	15.5	6.01e-01	0	59	0	610271232	53	6769
2026-01-29 03:17:29.60	265.73	8.75	-41.7	-46.5	15.4	6.03e-01	0	59	0	612368384	54	6481
2026-01-29 03:17:30.62	265.59	8.69	-41.8	-46.8	15.1	6.03e-01	0	59	0	613941248	54	6678
2026-01-29 03:17:31.62	265.44	8.63	-41.9	-47.1	14.8	6.01e-01	0	59	0	616038400	54	6930
2026-01-29 03:17:32.63	265.30	8.57	-42.0	-47.2	14.7	6.02e-01	0	59	0	618135552	54	7011
2026-01-29 03:17:33.64	265.16	8.50	-42.0	-47.3	14.4	6.04e-01	0	59	0	619708416	54	7088
2026-01-29 03:17:34.65	265.02	8.44	-42.0	-47.4	14.4	6.02e-01	0	59	0	621805568	54	7190
2026-01-29 03:17:35.66	264.88	8.38	-42.1	-47.7	14.0	6.02e-01	0	59	0	623378432	54	7418
2026-01-29 03:17:36.67	264.74	8.32	-42.1	-47.7	14.0	6.00e-01	0	59	0	625475584	54	7439
2026-01-29 03:17:37.68	264.60	8.26	-42.1	-47.7	14.1	6.01e-01	0	59	0	627572736	54	7442
2026-01-29 03:17:38.69	264.46	8.20	-42.1	-47.8	14.0	6.01e-01	0	59	0	629145600	54	7487
2026-01-29 03:17:39.70	264.33	8.13	-42.1	-47.5	14.3	6.03e-01	0	59	0	631242752	54	7278
2026-01-29 03:17:40.71	264.19	8.07	-42.1	-47.6	14.3	6.02e-01	0	59	0	632815616	54	7297
2026-01-29 03:17:41.72	264.05	8.01	-44.1	-52.5	11.4	6.15e-01	0	59	0	634912768	58	10219
2026-01-29 03:17:42.73	263.92	7.95	-45.3	-64.0	3.9	7.43e-01	0	59	104	634912768	61	32448
2026-01-29 03:17:43.74	263.78	7.89	-45.6	-64.4	3.8	7.47e-01	0	59	104	634912768	61	33950
2026-01-29 03:17:44.75	263.65	7.83	-45.8	-64.6	3.8	7.44e-01	0	59	104	634912768	62	32889
2026-01-29 03:17:45.76	263.52	7.77	-45.9	-64.8	3.8	7.45e-01	0	59	104	634912768	62	33464
2026-01-29 03:17:46.77	263.38	7.70	-46.0	-64.9	3.8	7.44e-01	0	59	104	634912768	62	33743
2026-01-29 03:17:47.78	263.25	7.64	-46.0	-64.9	3.8	7.48e-01	0	59	104	634912768	62	33972
2026-01-29 03:17:48.79	263.12	7.58	-46.1	-64.9	3.8	7.50e-01	0	59	104	634912768	62	33987
2026-01-29 03:17:49.80	262.99	7.52	-46.0	-64.9	3.8	7.43e-01	0	59	104	634912768	62	33998
2026-01-29 03:17:50.81	262.86	7.46	-46.0	-64.9	3.8	7.44e-01	0	59	104	634912768	62	33717
2026-01-29 03:17:51.82	262.73	7.40	-46.0	-64.8	3.8	7.43e-01	0	59	104	634912768	62	33675
2026-01-29 03:17:52.83	262.60	7.34	-46.0	-64.8	3.8	7.43e-01	0	59	104	634912768	62	33680
2026-01-29 03:17:53.84	262.47	7.27	-46.0	-64.8	3.8	7.41e-01	0	59	104	634912768	62	33675
2026-01-29 03:17:54.85	262.34	7.21	-46.0	-64.9	3.8	7.43e-01	0	59	104	634912768	62	33734
2026-01-29 03:17:55.86	262.21	7.15	-46.0	-64.9	3.8	7.45e-01	0	59	104	634912768	62	33792
2026-01-29 03:17:56.88	262.08	7.09	-46.0	-64.9	3.8	7.44e-01	0	59	104	634912768	62	34064
2026-01-29 03:17:57.89	261.96	7.03	-46.1	-64.9	3.8	7.45e-01	0	59	104	634912768	62	34054
2026-01-29 03:17:58.90	261.83	6.97	-46.1	-65.0	3.8	7.44e-01	0	59	104	634912768	62	34125
2026-01-29 03:17:59.91	261.71	6.91	-46.0	-64.9	3.8	7.44e-01	0	59	104	634912768	62	33969
2026-01-29 03:18:00.92	261.58	6.85	-46.0	-64.9	3.8	7.45e-01	0	59	104	634912768	62	34022
2026-01-29 03:18:01.93	261.46	6.79	-46.0	-64.9	3.8	7.46e-01	0	59	104	634912768	62	33828
2026-01-29 03:18:02.94	261.33	6.72	-46.0	-64.9	3.8	7.42e-01	0	59	104	634912768	62	33819
2026-01-29 03:18:03.95	261.21	6.66	-46.0	-64.9	3.8	7.44e-01	0	59	104	634912768	62	33798
2026-01-29 03:18:04.96	261.09	6.60	-45.9	-64.8	3.8	7.46e-01	0	59	104	634912768	62	33585
2026-01-29 03:18:05.97	260.97	6.54	-45.9	-64.8	3.8	7.43e-01	0	59	104	634912768	62	33555
2026-01-29 03:18:06.98	260.84	6.48	-45.9	-64.8	3.8	7.45e-01	0	59	104	634912768	62	33431
2026-01-29 03:18:07.99	260.72	6.42	-45.9	-64.8	3.8	7.46e-01	0	59	104	634912768	62	33531
2026-01-29 03:18:09.00	260.60	6.36	-45.9	-64.8	3.8	7.45e-01	0	59	104	634912768	62	33496
2026-01-29 03:18:10.01	260.48	6.30	-45.9	-64.8	3.8	7.46e-01	0	59	104	634912768	62	33474
2026-01-29 03:18:11.02	260.37	6.24	-45.9	-64.8	3.8	7.45e-01	0	59	104	634912768	62	33539
2026-01-29 03:18:12.03	260.25	6.18	-45.9	-64.8	3.8	7.46e-01	0	59	104	634912768	62	33488
2026-01-29 03:18:13.03	260.13	6.12	-45.9	-64.8	3.8	7.48e-01	0	59	104	634912768	62	33444
2026-01-29 03:18:14.04	260.01	6.06	-45.9	-64.8	3.8	7.48e-01	0	59	104	634912768	62	33500
2026-01-29 03:18:15.05	259.90	6.00	-45.9	-64.8	3.8	7.46e-01	0	59	104	634912768	62	33559
2026-01-29 03:18:16.06	259.78	5.94	-45.9	-64.8	3.8	7.46e-01	0	59	104	634912768	62	33540
2026-01-29 03:18:17.07	259.66	5.88	-45.9	-64.8	3.8	7.47e-01	0	59	104	634912768	62	33493
2026-01-29 03:18:18.08	259.55	5.82	-45.9	-64.8	3.8	7.50e-01	0	59	104	634912768	62	33458
2026-01-29 03:18:19.09	259.43	5.76	-45.9	-64.8	3.8	7.46e-01	0	59	104	634912768	62	33536
2026-01-29 03:18:20.10	259.32	5.70	-45.9	-64.8	3.8	7.43e-01	0	59	104	634912768	62	33425
2026-01-29 03:18:21.11	259.20	5.64	-45.9	-64.8	3.8	7.45e-01	0	59	104	634912768	62	33506
2026-01-29 03:18:22.12	259.09	5.58	-45.9	-64.8	3.8	7.46e-01	0	59	104	634912768	62	33486
2026-01-29 03:18:23.13	258.98	5.52	-45.9	-64.8	3.8	7.49e-01	0	59	104	634912768	62	33470
2026-01-29 03:18:24.14	258.87	5.46	-45.9	-64.8	3.8	7.48e-01	0	59	104	634912768	62	33489
2026-01-29 03:18:25.15	258.76	5.40	-45.9	-64.8	3.8	7.45e-01	0	59	104	634912768	62	33414
2026-01-29 03:18:26.16	258.64	5.34	-45.9	-64.8	3.8	7.44e-01	0	59	104	634912768	62	33463
2026-01-29 03:18:27.17	258.53	5.28	-45.9	-64.8	3.8	7.44e-01	0	59	104	634912768	62	33518
2026-01-29 03:18:28.18	258.42	5.22	-45.9	-64.8	3.8	7.50e-01	0	59	104	634912768	62	33423
2026-01-29 03:18:29.20	258.31	5.16	-45.9	-64.8	3.8	7.45e-01	0	59	104	634912768	62	33477
2026-01-29 03:18:30.21	258.20	5.10	-45.9	-64.8	3.8	7.45e-01	0	59	104	634912768	62	33472
2026-01-29 03:18:31.22	258.09	5.04	-45.9	-64.8	3.8	7.46e-01	0	59	104	634912768	62	33485
2026-01-29 03:18:32.23	257.99	4.98	-45.9	-64.8	3.8	7.46e-01	0	60	104	634912768	62	33428
2026-01-29 03:18:33.24	257.88	4.92	-45.9	-64.8	3.8	7.46e-01	0	59	104	634912768	62	33426
2026-01-29 03:18:34.25	257.77	4.86	-45.9	-64.8	3.8	7.45e-01	0	59	104	634912768	62	33455
2026-01-29 03:18:35.26	257.66	4.80	-45.9	-64.8	3.8	7.47e-01	0	59	104	634912768	62	33487
2026-01-29 03:18:36.27	257.56	4.75	-45.9	-64.8	3.8	7.47e-01	0	59	104	634912768	62	33368
2026-01-29 03:18:37.28	257.45	4.69	-45.9	-64.8	3.8	7.45e-01	0	59	104	634912768	62	33413
2026-01-29 03:18:38.29	257.35	4.63	-45.9	-64.8	3.8	7.46e-01	0	59	104	634912768	62	33360
2026-01-29 03:18:39.30	257.24	4.57	-45.9	-64.8	3.8	7.47e-01	0	59	104	634912768	62	33377
2026-01-29 03:18:40.31	257.14	4.51	-45.9	-64.8	3.8	7.47e-01	0	60	104	634912768	62	33372
2026-01-29 03:18:41.32	257.03	4.45	-45.9	-64.8	3.8	7.44e-01	0	59	104	634912768	62	33368
2026-01-29 03:18:42.33	256.93	4.39	-45.9	-64.8	3.8	7.44e-01	0	59	104	634912768	62	33360
2026-01-29 03:18:43.34	256.83	4.33	-45.9	-64.8	3.8	7.50e-01	0	59	104	634912768	62	33318
2026-01-29 03:18:44.35	256.73	4.27	-45.9	-64.8	3.8	7.45e-01	0	59	104	634912768	62	33423
2026-01-29 03:18:45.36	256.62	4.22	-45.9	-64.8	3.8	7.42e-01	0	59	104	634912768	62	33351
2026-01-29 03:18:46.37	256.52	4.16	-45.9	-64.8	3.8	7.47e-01	0	60	104	634912768	62	33452
2026-01-29 03:18:47.39	256.42	4.10	-45.9	-64.8	3.8	7.44e-01	0	59	104	634912768	62	33465
2026-01-29 03:18:48.40	256.32	4.04	-45.9	-64.8	3.8	7.43e-01	0	60	104	634912768	62	33413
2026-01-29 03:18:49.41	256.22	3.98	-45.9	-64.8	3.8	7.44e-01	0	60	104	634912768	62	33373
2026-01-29 03:18:50.42	256.12	3.92	-45.9	-64.8	3.8	7.46e-01	0	60	104	634912768	62	33443
2026-01-29 03:18:51.43	256.02	3.87	-45.9	-64.8	3.8	7.45e-01	0	59	104	634912768	62	33420
2026-01-29 03:18:52.44	255.92	3.81	-45.9	-64.8	3.8	7.45e-01	0	59	104	634912768	62	33384
2026-01-29 03:18:53.45	255.82	3.75	-45.9	-64.8	3.8	7.41e-01	0	59	104	634912768	62	33407
2026-01-29 03:18:54.46	255.72	3.69	-45.9	-64.8	3.8	7.43e-01	0	59	104	634912768	62	33377
2026-01-29 03:18:55.47	255.63	3.63	-45.9	-64.8	3.8	7.46e-01	0	59	104	634912768	62	33433
2026-01-29 03:18:56.48	255.53	3.58	-45.9	-64.8	3.8	7.42e-01	0	59	104	634912768	62	33386
2026-01-29 03:18:57.49	255.43	3.52	-45.9	-64.8	3.8	7.45e-01	0	60	104	634912768	62	33420
2026-01-29 03:18:58.50	255.34	3.46	-45.9	-64.8	3.8	7.44e-01	0	59	104	634912768	62	33388
2026-01-29 03:18:59.51	255.24	3.40	-45.9	-64.8	3.8	7.43e-01	0	59	104	634912768	62	33468
2026-01-29 03:19:00.52	255.15	3.34	-45.9	-64.8	3.8	7.46e-01	0	59	104	634912768	62	33320
2026-01-29 03:19:01.53	255.05	3.29	-45.9	-64.8	3.8	7.44e-01	0	60	104	634912768	62	33311
2026-01-29 03:19:02.54	254.96	3.23	-45.9	-64.7	3.8	7.45e-01	0	60	104	634912768	62	33226
2026-01-29 03:19:03.55	254.86	3.17	-45.8	-64.7	3.8	7.46e-01	0	59	104	634912768	62	33276
2026-01-29 03:19:04.56	254.77	3.12	-45.8	-64.7	3.8	7.45e-01	0	59	104	634912768	62	33257
2026-01-29 03:19:05.57	254.67	3.06	-45.8	-64.8	3.8	7.48e-01	0	59	104	634912768	62	33316
2026-01-29 03:19:06.58	254.58	3.00	-45.9	-64.7	3.8	7.49e-01	0	59	104	634912768	62	33256
2026-01-29 03:19:07.59	254.49	2.94	-45.8	-64.7	3.8	7.42e-01	0	59	104	634912768	62	33310
2026-01-29 03:19:08.60	254.40	2.89	-45.8	-64.7	3.8	7.45e-01	0	59	104	634912768	62	33297
2026-01-29 03:19:09.61	254.30	2.83	-45.8	-64.7	3.8	7.46e-01	0	59	104	634912768	62	33259
2026-01-29 03:19:10.62	254.21	2.77	-45.8	-64.8	3.8	7.47e-01	0	59	104	634912768	62	33327
2026-01-29 03:19:11.63	254.12	2.72	-45.8	-64.7	3.8	7.47e-01	0	59	104	634912768	62	33196
2026-01-29 03:19:12.64	254.03	2.66	-45.8	-64.7	3.8	7.49e-01	0	59	104	634912768	62	33262
2026-01-29 03:19:13.65	253.94	2.60	-45.8	-64.7	3.8	7.47e-01	0	59	104	634912768	62	33265
2026-01-29 03:19:14.66	253.85	2.55	-45.8	-64.7	3.8	7.41e-01	0	59	104	634912768	62	33257
2026-01-29 03:19:15.67	253.76	2.49	-45.8	-64.7	3.8	7.44e-01	0	59	104	634912768	62	33285
2026-01-29 03:19:16.68	253.67	2.43	-45.8	-64.7	3.8	7.47e-01	0	59	104	634912768	62	33229
2026-01-29 03:19:17.69	253.58	2.38	-45.8	-64.7	3.8	7.46e-01	0	59	104	634912768	62	33230
2026-01-29 03:19:18.71	253.50	2.32	-45.8	-64.7	3.8	7.47e-01	0	60	104	634912768	62	33289
2026-01-29 03:19:19.71	253.41	2.26	-45.8	-64.7	3.8	7.42e-01	0	59	104	634912768	62	33284
2026-01-29 03:19:20.73	253.32	2.21	-45.8	-64.7	3.8	7.45e-01	0	59	104	634912768	62	33278
2026-01-29 03:19:21.74	253.23	2.15	-45.8	-64.7	3.8	7.49e-01	0	59	104	634912768	62	33259
2026-01-29 03:19:22.75	253.15	2.09	-45.9	-64.7	3.8	7.46e-01	0	59	104	634912768	62	33249
2026-01-29 03:19:23.76	253.06	2.04	-45.5	-64.7	3.8	7.44e-01	0	59	104	634912768	62	33207
2026-01-29 03:19:24.77	252.97	1.98	-45.8	-64.7	3.8	7.43e-01	0	59	104	634912768	62	33274
2026-01-29 03:19:25.78	252.89	1.93	-45.8	-64.7	3.8	7.44e-01	0	59	104	634912768	62	33250
2026-01-29 03:19:26.79	252.80	1.87	-45.7	-64.7	3.8	7.46e-01	0	59	104	634912768	62	33195

#Closed at: 2026-01-29 03:19:27
#Recorded file [634 MB]: D:/lorett/data/31039_260129_060849.dat