passes_logs/2026/01/29/R2.0S_Moscow/R2.0S_Moscow__20260129_223345_NOAA_20_JPSS-1_rec.log

#Pass ID: 20260129_223345_NOAA 20 (JPSS-1)
#Satellite: NOAA 20 (JPSS-1)
#Configuration: NOAA 20
#almurnet v.1.7.20251203
#Start time: 2026-01-29 22:33:45

#Version: 2.2.20231116
#Station: R2.0S_Moscow
#Location: 37.707566 lon 55.798166 lat
#TLE: 1 43013U 17073A   26028.86313978  .00000144  00000+0  89200-4 0  9993
#TLE: 2 43013  98.7648 329.6571 0000891  20.0014 340.1197 14.19541559424709

#Time	Az	El	Level	Level2	SNR	BER	BlckErr	Temp	State	Recorded	gain1	gain2
2026-01-29 22:33:45.63	22.30	2.02	-42.4	-56.9	3.8	1.49e+00	0	52	0	0	56	18984
2026-01-29 22:33:46.63	22.35	2.08	-42.4	-56.8	3.8	1.49e+00	0	52	104	0	56	18914
2026-01-29 22:33:47.64	22.40	2.14	-42.4	-56.9	3.8	1.49e+00	0	52	104	0	56	19045
2026-01-29 22:33:48.65	22.46	2.20	-42.4	-56.8	3.8	1.49e+00	0	52	104	0	56	18945
2026-01-29 22:33:49.66	22.51	2.26	-42.4	-56.9	3.8	1.49e+00	0	52	104	0	56	18988
2026-01-29 22:33:50.67	22.57	2.32	-42.4	-56.9	3.8	1.49e+00	0	52	104	0	56	18991
2026-01-29 22:33:51.69	22.62	2.38	-42.4	-56.9	3.8	1.49e+00	0	52	104	0	56	18970
2026-01-29 22:33:52.69	22.68	2.43	-42.4	-56.9	3.8	1.49e+00	0	52	104	0	56	18973
2026-01-29 22:33:53.71	22.74	2.50	-42.4	-56.9	3.8	1.49e+00	0	52	104	0	56	18998
2026-01-29 22:33:54.72	22.79	2.56	-42.4	-56.9	3.8	1.49e+00	0	52	104	0	56	19015
2026-01-29 22:33:55.73	22.85	2.62	-42.4	-56.9	3.8	1.49e+00	0	52	104	0	56	18989
2026-01-29 22:33:56.74	22.90	2.68	-42.4	-56.9	3.8	1.49e+00	0	52	104	0	56	19031
2026-01-29 22:33:57.75	22.96	2.74	-42.4	-56.8	3.8	1.49e+00	0	53	104	0	56	18932
2026-01-29 22:33:58.76	23.02	2.80	-42.4	-56.9	3.8	1.49e+00	0	53	104	0	56	18982
2026-01-29 22:33:59.77	23.08	2.86	-42.4	-56.8	3.8	1.49e+00	0	53	104	0	56	18945
2026-01-29 22:34:00.78	23.13	2.92	-42.4	-56.9	3.8	1.49e+00	0	53	104	0	56	19027
2026-01-29 22:34:01.79	23.19	2.98	-42.4	-56.9	3.8	1.49e+00	0	53	104	0	56	18983
2026-01-29 22:34:02.80	23.25	3.04	-42.4	-56.9	3.8	1.49e+00	0	53	104	0	56	18950
2026-01-29 22:34:03.81	23.31	3.10	-42.4	-56.9	3.8	1.49e+00	0	53	104	0	56	18962
2026-01-29 22:34:04.82	23.36	3.16	-42.4	-56.9	3.8	1.49e+00	0	53	104	0	56	18997
2026-01-29 22:34:05.83	23.42	3.22	-42.4	-56.9	3.8	1.49e+00	0	53	104	0	56	18967
2026-01-29 22:34:06.84	23.48	3.29	-42.4	-56.9	3.8	1.49e+00	0	53	104	0	56	18996
2026-01-29 22:34:07.85	23.54	3.35	-42.4	-56.9	3.8	1.49e+00	0	53	104	0	56	18975
2026-01-29 22:34:08.86	23.60	3.41	-42.4	-56.9	3.8	1.49e+00	0	53	104	0	56	18993
2026-01-29 22:34:09.87	23.66	3.47	-42.4	-56.9	3.8	1.49e+00	0	53	104	0	56	18993
2026-01-29 22:34:10.88	23.72	3.53	-42.4	-56.9	3.8	1.49e+00	0	54	104	0	56	18972
2026-01-29 22:34:11.89	23.78	3.59	-42.4	-56.9	3.8	1.49e+00	0	53	104	0	56	19047
2026-01-29 22:34:12.89	23.84	3.66	-42.4	-56.9	3.8	1.49e+00	0	53	104	0	56	19075
2026-01-29 22:34:13.90	23.90	3.72	-42.4	-56.8	3.8	1.49e+00	0	54	104	0	56	18948
2026-01-29 22:34:14.91	23.96	3.78	-42.4	-56.8	3.8	1.49e+00	0	54	104	0	56	18929
2026-01-29 22:34:15.92	24.02	3.84	-42.4	-56.8	3.8	1.49e+00	0	54	104	0	56	18939
2026-01-29 22:34:16.93	24.08	3.91	-42.4	-56.9	3.8	1.49e+00	0	54	104	0	56	18983
2026-01-29 22:34:17.94	24.14	3.97	-42.4	-56.9	3.8	1.49e+00	0	54	104	0	56	18957
2026-01-29 22:34:18.95	24.20	4.03	-42.4	-56.9	3.8	1.49e+00	0	54	104	0	56	18983
2026-01-29 22:34:19.96	24.26	4.09	-42.4	-56.9	3.8	1.49e+00	0	54	104	0	56	18954
2026-01-29 22:34:20.97	24.33	4.16	-42.4	-56.9	3.8	1.49e+00	0	54	104	0	56	18954
2026-01-29 22:34:21.98	24.39	4.22	-42.4	-56.8	3.8	1.49e+00	0	54	104	0	56	18941
2026-01-29 22:34:22.99	24.45	4.28	-42.4	-56.8	3.8	1.49e+00	0	54	104	0	56	18929
2026-01-29 22:34:24.00	24.51	4.35	-42.4	-56.9	3.8	1.49e+00	0	54	104	0	56	18956
2026-01-29 22:34:25.01	24.58	4.41	-42.4	-56.8	3.8	1.49e+00	0	54	104	0	56	18909
2026-01-29 22:34:26.03	24.64	4.47	-42.4	-56.8	3.8	1.49e+00	0	54	104	0	56	18937
2026-01-29 22:34:27.04	24.70	4.54	-42.4	-56.8	3.8	1.49e+00	0	54	104	0	56	18936
2026-01-29 22:34:28.05	24.77	4.60	-42.4	-56.8	3.8	1.49e+00	0	54	104	0	56	18948
2026-01-29 22:34:29.06	24.83	4.67	-42.4	-56.8	3.8	1.49e+00	0	54	104	0	56	18940
2026-01-29 22:34:30.07	24.89	4.73	-42.4	-56.8	3.8	1.49e+00	0	54	104	0	56	18933
2026-01-29 22:34:31.08	24.96	4.80	-42.4	-56.9	3.8	1.49e+00	0	55	104	0	56	18972
2026-01-29 22:34:32.09	25.02	4.86	-42.4	-56.9	3.8	1.49e+00	0	55	104	0	56	18981
2026-01-29 22:34:33.10	25.09	4.92	-42.4	-56.9	3.8	1.49e+00	0	55	104	0	56	18980
2026-01-29 22:34:34.11	25.15	4.99	-42.4	-56.9	3.8	1.49e+00	0	55	104	0	56	18958
2026-01-29 22:34:35.12	25.22	5.05	-42.4	-56.9	3.8	1.49e+00	0	55	104	0	56	18953
2026-01-29 22:34:36.13	25.29	5.12	-42.4	-56.9	3.8	1.49e+00	0	55	104	0	56	18990
2026-01-29 22:34:37.14	25.35	5.18	-42.4	-56.9	3.8	1.49e+00	0	55	104	0	56	18980
2026-01-29 22:34:38.15	25.42	5.25	-42.4	-56.9	3.8	1.49e+00	0	55	104	0	56	18981
2026-01-29 22:34:39.16	25.48	5.31	-42.4	-56.8	3.8	1.49e+00	0	55	104	0	56	18940
2026-01-29 22:34:40.17	25.55	5.38	-42.4	-56.8	3.8	1.49e+00	0	55	104	0	56	18854
2026-01-29 22:34:41.18	25.62	5.45	-42.4	-56.8	3.8	1.49e+00	0	55	104	0	56	18943
2026-01-29 22:34:42.19	25.69	5.51	-42.4	-56.8	3.8	1.49e+00	0	55	104	0	56	18915
2026-01-29 22:34:43.20	25.75	5.58	-42.4	-56.8	3.8	1.49e+00	0	55	104	0	56	18916
2026-01-29 22:34:44.21	25.82	5.64	-42.4	-56.8	3.8	1.49e+00	0	55	104	0	56	18928
2026-01-29 22:34:45.22	25.89	5.71	-42.4	-56.8	3.8	1.49e+00	0	55	104	0	56	18891
2026-01-29 22:34:46.23	25.96	5.78	-42.4	-56.9	3.8	1.49e+00	0	55	104	0	56	18964
2026-01-29 22:34:47.24	26.03	5.84	-42.4	-56.8	3.8	1.49e+00	0	55	104	0	56	18896
2026-01-29 22:34:48.26	26.10	5.91	-42.4	-56.8	3.8	1.49e+00	0	55	104	0	56	18908
2026-01-29 22:34:49.27	26.17	5.98	-42.4	-56.8	3.8	1.49e+00	0	56	104	0	56	18864
2026-01-29 22:34:50.28	26.24	6.04	-42.4	-56.8	3.8	1.49e+00	0	56	104	0	56	18944
2026-01-29 22:34:51.28	26.31	6.11	-42.4	-56.8	3.8	1.49e+00	0	55	104	0	56	18851
2026-01-29 22:34:52.29	26.38	6.18	-42.4	-56.8	3.8	1.49e+00	0	56	104	0	56	18844
2026-01-29 22:34:53.30	26.45	6.24	-42.4	-56.8	3.8	1.49e+00	0	56	104	0	56	18915
2026-01-29 22:34:54.31	26.52	6.31	-42.4	-56.8	3.8	1.49e+00	0	56	104	0	56	18885
2026-01-29 22:34:55.32	26.59	6.38	-42.4	-56.8	3.8	1.49e+00	0	56	104	0	56	18924
2026-01-29 22:34:56.33	26.66	6.45	-42.4	-56.8	3.8	1.49e+00	0	56	104	0	56	18894
2026-01-29 22:34:57.34	26.73	6.51	-42.4	-56.8	3.8	1.49e+00	0	56	104	0	56	18911
2026-01-29 22:34:58.35	26.80	6.58	-42.4	-56.8	3.8	1.49e+00	0	56	104	0	56	18833
2026-01-29 22:34:59.36	26.88	6.65	-42.4	-56.8	3.8	1.49e+00	0	56	104	0	56	18929
2026-01-29 22:35:00.38	26.95	6.72	-42.4	-56.8	3.8	1.49e+00	0	56	104	0	56	18913
2026-01-29 22:35:01.39	27.02	6.79	-42.3	-56.8	3.8	1.49e+00	0	56	104	0	56	18940
2026-01-29 22:35:02.40	27.10	6.86	-42.4	-56.8	3.8	1.49e+00	0	56	104	0	56	18869
2026-01-29 22:35:03.41	27.17	6.93	-42.3	-56.6	3.8	1.49e+00	0	56	104	0	56	18455
2026-01-29 22:35:04.42	27.25	6.99	-42.3	-56.5	3.8	1.49e+00	0	56	104	0	56	18245
2026-01-29 22:35:05.43	27.32	7.06	-42.3	-56.3	3.8	1.49e+00	0	56	104	0	56	17812
2026-01-29 22:35:06.44	27.39	7.13	-42.3	-55.3	3.8	1.49e+00	0	56	104	0	56	15928
2026-01-29 22:35:07.45	27.47	7.20	-42.1	-53.2	4.2	1.48e+00	0	56	0	0	56	12515
2026-01-29 22:35:08.46	27.55	7.27	-42.1	-52.5	4.4	1.24e+00	62	56	0	1048576	56	11538
2026-01-29 22:35:09.47	27.62	7.34	-42.0	-51.8	4.7	9.94e-01	0	56	0	2097152	56	10578
2026-01-29 22:35:10.48	27.70	7.41	-41.7	-50.5	5.4	6.98e-01	0	57	0	4194304	55	9666
2026-01-29 22:35:11.49	27.77	7.48	-41.5	-49.5	6.1	3.73e-01	0	57	0	6291456	55	8646
2026-01-29 22:35:12.50	27.85	7.55	-41.5	-49.4	6.2	2.99e-01	0	56	0	8388608	54	8995
2026-01-29 22:35:13.51	27.93	7.62	-41.5	-49.3	6.2	2.79e-01	0	57	0	10485760	54	8891
2026-01-29 22:35:14.52	28.01	7.69	-41.3	-48.6	6.7	2.21e-01	0	57	0	11534336	54	8263
2026-01-29 22:35:15.53	28.08	7.76	-41.2	-48.2	7.1	1.34e-01	0	57	0	13631488	54	7897
2026-01-29 22:35:16.54	28.16	7.83	-41.2	-48.1	7.2	1.25e-01	0	57	0	15728640	54	7800
2026-01-29 22:35:17.55	28.24	7.90	-41.3	-48.6	6.8	1.82e-01	0	56	0	17825792	54	8248
2026-01-29 22:35:18.56	28.32	7.97	-41.2	-48.2	7.2	1.56e-01	0	57	0	19922944	54	7842
2026-01-29 22:35:19.57	28.40	8.05	-41.4	-47.9	7.8	1.07e-01	0	57	0	20971520	54	7544
2026-01-29 22:35:20.58	28.48	8.12	-41.3	-49.6	5.9	1.58e-01	0	57	0	23068672	54	9177
2026-01-29 22:35:21.59	28.56	8.19	-41.5	-48.2	7.5	6.99e-01	0	57	0	25165824	54	7828
2026-01-29 22:35:22.60	28.64	8.26	-42.3	-48.9	7.6	3.47e-02	0	57	0	27262976	55	8073
2026-01-29 22:35:23.61	28.72	8.33	-41.8	-47.7	8.8	2.82e-01	0	57	0	29360128	55	6971
2026-01-29 22:35:24.62	28.80	8.40	-41.7	-47.5	8.7	7.68e-02	0	57	0	30408704	55	6876
2026-01-29 22:35:25.63	28.88	8.48	-41.8	-47.8	8.6	3.53e-02	0	57	0	32505856	55	7111
2026-01-29 22:35:26.64	28.96	8.55	-41.8	-47.7	8.6	3.80e-02	0	57	0	34603008	55	6986
2026-01-29 22:35:27.65	29.05	8.62	-41.7	-47.2	9.4	1.96e-02	0	57	0	36700160	55	6592
2026-01-29 22:35:28.66	29.13	8.69	-41.8	-47.5	9.0	2.17e-02	0	57	0	38797312	55	6845
2026-01-29 22:35:29.67	29.21	8.77	-41.8	-47.2	9.4	1.78e-02	0	57	0	39845888	55	6611
2026-01-29 22:35:30.68	29.30	8.84	-41.8	-47.3	9.3	1.61e-02	0	57	0	41943040	55	6686
2026-01-29 22:35:31.69	29.38	8.91	-41.8	-47.4	9.3	2.27e-02	0	57	0	44040192	55	6743
2026-01-29 22:35:32.71	29.46	8.99	-41.8	-47.3	9.3	1.70e-02	0	57	0	46137344	55	6707
2026-01-29 22:35:33.72	29.55	9.06	-41.9	-47.4	9.2	1.96e-02	0	57	0	48234496	55	6754
2026-01-29 22:35:34.73	29.63	9.13	-41.7	-47.0	9.7	1.17e-02	0	57	0	49283072	55	6433
2026-01-29 22:35:35.74	29.72	9.21	-41.9	-47.1	9.6	1.77e-02	0	58	0	51380224	55	6564
2026-01-29 22:35:36.75	29.81	9.28	-41.9	-47.2	9.5	1.28e-02	0	57	0	53477376	55	6611
2026-01-29 22:35:37.76	29.89	9.35	-41.9	-47.1	9.7	1.30e-02	0	57	0	55574528	55	6522
2026-01-29 22:35:38.77	29.98	9.43	-41.9	-47.1	9.7	1.13e-02	0	57	0	57671680	55	6539
2026-01-29 22:35:39.78	30.07	9.50	-41.8	-46.8	10.1	9.49e-03	0	57	0	58720256	55	6302
2026-01-29 22:35:40.79	30.15	9.58	-42.0	-47.2	9.7	1.21e-02	0	57	0	60817408	55	6611
2026-01-29 22:35:41.80	30.24	9.65	-41.9	-47.0	9.9	8.57e-03	0	57	0	62914560	55	6482
2026-01-29 22:35:42.81	30.33	9.73	-42.0	-47.2	9.8	9.45e-03	0	57	0	65011712	55	6614
2026-01-29 22:35:43.82	30.42	9.80	-41.9	-47.1	9.9	8.45e-03	0	57	0	67108864	55	6532
2026-01-29 22:35:44.83	30.51	9.88	-42.0	-47.1	9.9	1.07e-02	0	57	0	69206016	55	6507
2026-01-29 22:35:45.84	30.60	9.95	-42.0	-47.1	9.9	9.74e-03	0	58	0	70254592	55	6550
2026-01-29 22:35:46.84	30.69	10.03	-42.0	-47.1	9.9	7.77e-03	0	58	0	72351744	55	6545
2026-01-29 22:35:47.85	30.78	10.10	-42.0	-47.1	10.0	9.31e-03	0	58	0	74448896	55	6507
2026-01-29 22:35:48.86	30.87	10.18	-42.1	-47.1	9.9	7.60e-03	0	58	0	76546048	55	6544
2026-01-29 22:35:49.87	30.96	10.26	-42.0	-47.1	10.1	7.35e-03	0	57	0	78643200	55	6513
2026-01-29 22:35:50.89	31.05	10.33	-42.0	-47.1	10.1	7.96e-03	0	58	0	79691776	55	6519
2026-01-29 22:35:51.90	31.15	10.41	-42.0	-46.9	10.2	5.67e-03	0	58	0	81788928	55	6394
2026-01-29 22:35:52.91	31.24	10.49	-42.0	-46.8	10.3	5.78e-03	0	58	0	83886080	55	6337
2026-01-29 22:35:53.92	31.33	10.56	-41.9	-46.8	10.5	6.20e-03	0	58	0	85983232	55	6287
2026-01-29 22:35:54.93	31.43	10.64	-42.0	-46.9	10.3	4.19e-03	0	58	0	88080384	55	6353
2026-01-29 22:35:55.94	31.52	10.72	-41.9	-46.7	10.5	4.32e-03	0	58	0	89128960	55	6238
2026-01-29 22:35:56.95	31.62	10.79	-42.0	-46.8	10.5	4.30e-03	0	58	0	91226112	55	6276
2026-01-29 22:35:57.96	31.71	10.87	-41.9	-46.7	10.6	4.23e-03	0	58	0	93323264	55	6248
2026-01-29 22:35:58.97	31.81	10.95	-41.9	-46.6	10.6	3.30e-03	0	58	0	95420416	55	6173
2026-01-29 22:35:59.97	31.90	11.03	-41.9	-46.6	10.8	2.77e-03	0	58	0	97517568	55	6147
2026-01-29 22:36:00.99	32.00	11.11	-41.9	-46.7	10.7	2.63e-03	0	58	0	98566144	55	6206
2026-01-29 22:36:02.00	32.10	11.18	-42.0	-46.6	10.7	2.71e-03	0	58	0	100663296	55	6196
2026-01-29 22:36:03.00	32.19	11.26	-42.0	-46.7	10.6	3.19e-03	0	58	0	102760448	55	6237
2026-01-29 22:36:04.01	32.29	11.34	-41.9	-46.5	10.8	3.06e-03	0	58	0	104857600	55	6115
2026-01-29 22:36:05.02	32.39	11.42	-42.0	-46.6	10.8	2.80e-03	0	58	0	106954752	55	6161
2026-01-29 22:36:06.03	32.49	11.50	-42.0	-46.6	10.7	3.10e-03	0	58	0	109051904	55	6187
2026-01-29 22:36:07.04	32.59	11.58	-42.0	-46.6	10.8	2.57e-03	0	58	0	110100480	55	6147
2026-01-29 22:36:08.05	32.69	11.66	-42.0	-46.7	10.7	2.57e-03	0	58	0	112197632	55	6222
2026-01-29 22:36:09.06	32.79	11.74	-41.9	-46.5	10.9	2.23e-03	0	58	0	114294784	55	6076
2026-01-29 22:36:10.07	32.89	11.82	-41.9	-46.4	11.0	1.89e-03	0	58	0	116391936	55	6052
2026-01-29 22:36:11.08	32.99	11.90	-41.9	-46.5	11.0	1.68e-03	0	58	0	118489088	55	6064
2026-01-29 22:36:12.09	33.10	11.98	-41.9	-46.5	10.9	2.09e-03	0	58	0	119537664	55	6072
2026-01-29 22:36:13.11	33.20	12.06	-41.9	-46.5	10.8	2.31e-03	0	58	0	121634816	55	6102
2026-01-29 22:36:14.12	33.30	12.14	-42.0	-46.5	10.9	1.88e-03	0	58	0	123731968	55	6088
2026-01-29 22:36:15.13	33.41	12.22	-41.9	-46.3	11.1	1.68e-03	0	58	0	125829120	55	5978
2026-01-29 22:36:16.14	33.51	12.30	-42.0	-46.6	10.8	2.09e-03	0	58	0	127926272	55	6140
2026-01-29 22:36:17.14	33.62	12.38	-41.9	-46.3	11.1	1.98e-03	0	58	0	128974848	55	5949
2026-01-29 22:36:18.15	33.72	12.46	-42.0	-46.5	10.9	1.83e-03	0	58	0	131072000	55	6113
2026-01-29 22:36:19.16	33.83	12.54	-42.0	-46.6	10.8	2.10e-03	0	58	0	133169152	55	6155
2026-01-29 22:36:20.17	33.93	12.62	-41.9	-46.4	11.1	1.89e-03	0	58	0	135266304	55	5997
2026-01-29 22:36:21.19	34.04	12.71	-41.9	-46.5	11.0	1.67e-03	0	59	0	137363456	55	6069
2026-01-29 22:36:22.19	34.15	12.79	-42.0	-46.5	10.9	2.12e-03	0	58	0	138412032	55	6104
2026-01-29 22:36:23.20	34.26	12.87	-42.0	-46.6	10.8	2.33e-03	0	58	0	140509184	55	6180
2026-01-29 22:36:24.21	34.37	12.95	-42.0	-46.6	10.8	2.47e-03	0	58	0	142606336	55	6164
2026-01-29 22:36:25.22	34.48	13.03	-42.1	-46.7	10.8	2.64e-03	0	58	0	144703488	55	6208
2026-01-29 22:36:26.23	34.59	13.12	-42.1	-46.8	10.7	2.50e-03	0	59	0	146800640	55	6307
2026-01-29 22:36:27.24	34.70	13.20	-42.1	-46.7	10.8	3.04e-03	0	58	0	147849216	55	6233
2026-01-29 22:36:28.25	34.81	13.28	-42.1	-46.9	10.6	3.46e-03	0	59	0	149946368	55	6359
2026-01-29 22:36:29.26	34.92	13.37	-42.1	-46.8	10.7	3.11e-03	0	58	0	152043520	55	6308
2026-01-29 22:36:30.27	35.03	13.45	-42.2	-47.0	10.5	3.13e-03	0	59	0	154140672	55	6428
2026-01-29 22:36:31.28	35.15	13.53	-42.2	-46.9	10.6	4.37e-03	0	59	0	156237824	55	6369
2026-01-29 22:36:32.29	35.26	13.62	-42.1	-46.7	10.9	2.86e-03	0	58	0	157286400	55	6218
2026-01-29 22:36:33.30	35.38	13.70	-42.1	-46.8	10.7	2.82e-03	0	59	0	159383552	55	6329
2026-01-29 22:36:34.31	35.49	13.79	-42.1	-46.7	10.8	2.64e-03	0	59	0	161480704	55	6260
2026-01-29 22:36:35.32	35.61	13.87	-42.1	-46.6	11.0	1.94e-03	0	59	0	163577856	55	6158
2026-01-29 22:36:36.34	35.72	13.96	-42.0	-46.5	11.0	1.98e-03	0	58	0	165675008	55	6104
2026-01-29 22:36:37.34	35.84	14.04	-42.1	-46.6	11.0	1.88e-03	0	59	0	166723584	55	6136
2026-01-29 22:36:38.35	35.96	14.12	-42.0	-46.5	11.0	1.83e-03	0	59	0	168820736	55	6106
2026-01-29 22:36:39.36	36.08	14.21	-42.0	-46.4	11.1	1.44e-03	0	59	0	170917888	55	6049
2026-01-29 22:36:40.38	36.20	14.30	-42.1	-46.7	10.9	2.12e-03	0	59	0	173015040	55	6221
2026-01-29 22:36:41.38	36.31	14.38	-42.1	-46.5	11.0	1.57e-03	0	59	0	175112192	55	6095
2026-01-29 22:36:42.39	36.43	14.47	-42.2	-46.8	10.8	2.19e-03	0	59	0	177209344	55	6297
2026-01-29 22:36:43.40	36.56	14.55	-42.1	-46.7	10.9	2.20e-03	0	59	0	178257920	55	6209
2026-01-29 22:36:44.41	36.68	14.64	-42.2	-46.8	10.7	2.19e-03	0	59	0	180355072	55	6307
2026-01-29 22:36:45.42	36.80	14.73	-42.1	-46.7	10.8	2.60e-03	0	59	0	182452224	55	6244
2026-01-29 22:36:46.43	36.92	14.81	-42.2	-46.8	10.8	2.20e-03	0	59	0	184549376	55	6289
2026-01-29 22:36:47.44	37.05	14.90	-42.1	-46.7	10.9	2.16e-03	0	59	0	186646528	55	6234
2026-01-29 22:36:48.45	37.17	14.99	-42.2	-46.8	10.7	2.30e-03	0	59	0	187695104	55	6323
2026-01-29 22:36:49.46	37.30	15.07	-42.1	-46.6	11.0	2.53e-03	0	59	0	189792256	55	6145
2026-01-29 22:36:50.47	37.42	15.16	-42.1	-46.7	10.9	1.76e-03	0	59	0	191889408	55	6203
2026-01-29 22:36:51.48	37.55	15.25	-42.1	-46.6	11.0	1.75e-03	0	59	0	193986560	55	6141
2026-01-29 22:36:52.49	37.67	15.33	-42.1	-46.6	11.0	1.92e-03	0	59	0	196083712	55	6149
2026-01-29 22:36:53.50	37.80	15.42	-42.1	-46.6	11.0	1.57e-03	0	59	0	197132288	55	6191
2026-01-29 22:36:54.51	37.93	15.51	-42.1	-46.6	11.1	1.56e-03	0	59	0	199229440	55	6142
2026-01-29 22:36:55.52	38.06	15.60	-42.1	-46.5	11.1	1.55e-03	0	59	0	201326592	55	6117
2026-01-29 22:36:56.53	38.19	15.69	-42.2	-46.7	11.0	1.78e-03	0	59	0	203423744	55	6217
2026-01-29 22:36:57.54	38.32	15.78	-42.2	-46.8	10.8	2.92e-03	0	59	0	205520896	55	6335
2026-01-29 22:36:58.56	38.45	15.87	-42.2	-46.7	10.9	1.65e-03	0	59	0	206569472	55	6262
2026-01-29 22:36:59.57	38.59	15.95	-42.2	-46.7	10.9	2.55e-03	0	59	0	208666624	55	6257
2026-01-29 22:37:00.58	38.72	16.04	-42.2	-46.8	10.9	2.06e-03	0	59	0	210763776	55	6308
2026-01-29 22:37:01.59	38.85	16.13	-42.2	-46.8	10.9	2.50e-03	0	59	0	212860928	55	6295
2026-01-29 22:37:02.60	38.99	16.22	-42.1	-46.6	11.0	2.07e-03	0	59	0	214958080	55	6170
2026-01-29 22:37:03.61	39.12	16.31	-42.1	-46.6	11.0	1.69e-03	0	59	0	216006656	55	6166
2026-01-29 22:37:04.62	39.26	16.40	-42.1	-46.5	11.1	1.31e-03	0	59	0	218103808	55	6122
2026-01-29 22:37:05.63	39.40	16.49	-42.1	-46.4	11.3	1.40e-03	0	59	0	220200960	55	6059
2026-01-29 22:37:06.64	39.54	16.58	-42.1	-46.4	11.3	1.05e-03	0	59	0	222298112	55	6023
2026-01-29 22:37:07.65	39.67	16.67	-42.0	-46.3	11.4	1.01e-03	0	59	0	224395264	55	5940
2026-01-29 22:37:08.66	39.81	16.76	-42.0	-46.2	11.5	8.39e-04	0	59	0	225443840	55	5882
2026-01-29 22:37:09.67	39.95	16.85	-42.0	-46.3	11.4	9.02e-04	0	59	0	227540992	55	5955
2026-01-29 22:37:10.68	40.10	16.95	-42.0	-46.3	11.4	9.25e-04	0	59	0	229638144	55	5944
2026-01-29 22:37:11.69	40.24	17.04	-42.0	-46.3	11.4	9.87e-04	0	59	0	231735296	55	5990
2026-01-29 22:37:12.70	40.38	17.13	-42.0	-46.3	11.4	1.19e-03	0	59	0	233832448	55	5990
2026-01-29 22:37:13.71	40.52	17.22	-42.1	-46.5	11.3	1.09e-03	0	59	0	234881024	55	6067
2026-01-29 22:37:14.72	40.67	17.31	-42.2	-46.6	11.1	1.14e-03	0	59	0	236978176	55	6187
2026-01-29 22:37:15.73	40.81	17.40	-42.1	-46.5	11.2	1.85e-03	0	59	0	239075328	55	6072
2026-01-29 22:37:16.74	40.96	17.50	-42.1	-46.4	11.3	1.23e-03	0	59	0	241172480	55	6049
2026-01-29 22:37:17.75	41.11	17.59	-42.1	-46.4	11.3	1.22e-03	0	59	0	243269632	55	6045
2026-01-29 22:37:18.76	41.25	17.68	-42.1	-46.4	11.3	1.04e-03	0	59	0	245366784	55	6028
2026-01-29 22:37:19.77	41.40	17.77	-42.1	-46.4	11.3	1.12e-03	0	59	0	246415360	55	6046
2026-01-29 22:37:20.78	41.55	17.87	-42.1	-46.4	11.3	1.14e-03	0	59	0	248512512	55	6030
2026-01-29 22:37:21.79	41.70	17.96	-42.1	-46.4	11.3	1.06e-03	0	59	0	250609664	55	6056
2026-01-29 22:37:22.80	41.86	18.05	-42.1	-46.3	11.4	9.96e-04	0	59	0	252706816	55	5984
2026-01-29 22:37:23.82	42.01	18.15	-42.1	-46.3	11.4	1.05e-03	0	59	0	254803968	55	5969
2026-01-29 22:37:24.83	42.16	18.24	-42.1	-46.3	11.5	8.71e-04	0	59	0	255852544	55	5964
2026-01-29 22:37:25.84	42.32	18.33	-42.1	-46.3	11.5	9.36e-04	0	59	0	257949696	55	5968
2026-01-29 22:37:26.85	42.47	18.43	-42.0	-46.2	11.6	7.69e-04	0	59	0	260046848	55	5885
2026-01-29 22:37:27.86	42.63	18.52	-42.0	-46.3	11.5	6.90e-04	0	59	0	262144000	55	5939
2026-01-29 22:37:28.87	42.78	18.61	-42.0	-46.2	11.5	7.25e-04	0	59	0	264241152	55	5911
2026-01-29 22:37:29.88	42.94	18.71	-42.0	-46.2	11.6	6.91e-04	0	59	0	265289728	55	5921
2026-01-29 22:37:30.89	43.10	18.80	-42.1	-46.2	11.6	6.52e-04	0	59	0	267386880	55	5923
2026-01-29 22:37:31.90	43.26	18.90	-42.0	-46.2	11.6	7.12e-04	0	59	0	269484032	55	5881
2026-01-29 22:37:32.91	43.42	18.99	-41.9	-45.9	11.9	4.29e-04	0	60	0	271581184	55	5705
2026-01-29 22:37:33.92	43.58	19.09	-41.8	-45.8	12.1	2.96e-04	0	59	0	273678336	55	5593
2026-01-29 22:37:34.93	43.75	19.18	-41.8	-45.7	12.1	2.83e-04	0	59	0	274726912	55	5554
2026-01-29 22:37:35.94	43.91	19.28	-41.7	-45.6	12.2	2.30e-04	0	60	0	276824064	55	5494
2026-01-29 22:37:36.95	44.08	19.37	-41.7	-45.5	12.3	1.73e-04	0	59	0	278921216	55	5458
2026-01-29 22:37:37.96	44.24	19.47	-41.7	-45.5	12.4	1.82e-04	0	59	0	281018368	55	5411
2026-01-29 22:37:38.97	44.41	19.56	-41.7	-45.6	12.3	1.81e-04	0	59	0	283115520	55	5476
2026-01-29 22:37:39.98	44.58	19.66	-41.7	-45.6	12.3	1.48e-04	0	59	0	284164096	55	5484
2026-01-29 22:37:40.99	44.75	19.75	-41.7	-45.5	12.3	1.97e-04	0	59	0	286261248	55	5462
2026-01-29 22:37:42.00	44.91	19.85	-41.7	-45.6	12.2	2.04e-04	0	59	0	288358400	55	5488
2026-01-29 22:37:43.01	45.09	19.95	-41.8	-45.6	12.2	2.13e-04	0	59	0	290455552	55	5517
2026-01-29 22:37:44.02	45.26	20.04	-41.7	-45.5	12.3	2.03e-04	0	59	0	292552704	55	5456
2026-01-29 22:37:45.03	45.43	20.14	-41.8	-45.6	12.2	1.81e-04	0	59	0	293601280	55	5517
2026-01-29 22:37:46.04	45.60	20.23	-41.7	-45.6	12.3	1.69e-04	0	59	0	295698432	55	5478
2026-01-29 22:37:47.05	45.78	20.33	-41.7	-45.5	12.4	1.62e-04	0	59	0	297795584	55	5416
2026-01-29 22:37:48.06	45.96	20.43	-41.7	-45.5	12.3	1.97e-04	0	59	0	299892736	55	5461
2026-01-29 22:37:49.07	46.13	20.52	-41.8	-45.6	12.2	1.60e-04	0	59	0	301989888	55	5506
2026-01-29 22:37:50.08	46.31	20.62	-41.8	-45.6	12.2	1.67e-04	0	59	0	304087040	55	5503
2026-01-29 22:37:51.09	46.49	20.72	-41.8	-45.7	12.2	2.16e-04	0	60	0	305135616	55	5548
2026-01-29 22:37:52.10	46.67	20.81	-41.8	-45.7	12.1	2.39e-04	0	59	0	307232768	55	5586
2026-01-29 22:37:53.11	46.85	20.91	-41.8	-45.6	12.3	2.18e-04	0	59	0	309329920	55	5508
2026-01-29 22:37:54.12	47.04	21.01	-41.8	-45.7	12.2	2.02e-04	0	60	0	311427072	55	5549
2026-01-29 22:37:55.13	47.22	21.11	-41.8	-45.6	12.3	2.29e-04	0	59	0	313524224	55	5481
2026-01-29 22:37:56.14	47.41	21.20	-41.7	-45.4	12.5	1.39e-04	0	60	0	314572800	55	5378
2026-01-29 22:37:57.15	47.59	21.30	-41.6	-45.4	12.5	1.19e-04	0	59	0	316669952	55	5359
2026-01-29 22:37:58.16	47.78	21.40	-41.7	-45.4	12.4	1.23e-04	0	60	0	318767104	55	5397
2026-01-29 22:37:59.17	47.97	21.50	-41.6	-45.3	12.6	1.27e-04	0	59	0	320864256	55	5318
2026-01-29 22:38:00.18	48.16	21.59	-41.6	-45.4	12.5	8.54e-05	0	60	0	322961408	55	5351
2026-01-29 22:38:01.18	48.35	21.69	-41.6	-45.3	12.5	9.23e-05	0	60	0	324009984	55	5338
2026-01-29 22:38:02.19	48.54	21.79	-41.6	-45.4	12.6	1.08e-04	0	60	0	326107136	55	5356
2026-01-29 22:38:03.20	48.73	21.89	-41.7	-45.4	12.4	1.11e-04	0	59	0	328204288	55	5384
2026-01-29 22:38:04.21	48.93	21.98	-41.7	-45.4	12.5	1.27e-04	0	59	0	330301440	55	5397
2026-01-29 22:38:05.22	49.12	22.08	-41.7	-45.4	12.5	1.27e-04	0	60	0	332398592	55	5386
2026-01-29 22:38:06.23	49.32	22.18	-41.6	-45.3	12.6	1.11e-04	0	59	0	333447168	55	5320
2026-01-29 22:38:07.24	49.52	22.28	-41.6	-45.3	12.7	9.00e-05	0	60	0	335544320	55	5301
2026-01-29 22:38:08.25	49.72	22.38	-41.7	-45.3	12.6	7.62e-05	0	59	0	337641472	55	5327
2026-01-29 22:38:09.26	49.92	22.47	-41.6	-45.3	12.6	8.16e-05	0	60	0	339738624	55	5309
2026-01-29 22:38:10.27	50.12	22.57	-41.6	-45.1	12.8	5.64e-05	0	60	0	341835776	55	5207
2026-01-29 22:38:11.28	50.32	22.67	-41.5	-45.1	12.8	4.73e-05	0	60	0	342884352	55	5192
2026-01-29 22:38:12.29	50.53	22.77	-41.6	-45.1	12.9	4.80e-05	0	60	0	344981504	55	5205
2026-01-29 22:38:13.30	50.73	22.87	-41.5	-45.0	13.0	3.96e-05	0	60	0	347078656	55	5150
2026-01-29 22:38:14.31	50.94	22.97	-41.5	-45.0	12.9	4.11e-05	0	59	0	349175808	55	5150
2026-01-29 22:38:15.32	51.15	23.06	-41.5	-45.1	12.9	4.95e-05	0	60	0	351272960	55	5170
2026-01-29 22:38:16.33	51.36	23.16	-41.5	-45.0	13.0	4.73e-05	0	60	0	353370112	54	5448
2026-01-29 22:38:17.34	51.57	23.26	-41.5	-45.0	13.0	2.89e-05	0	60	0	354418688	54	5427
2026-01-29 22:38:18.35	51.78	23.36	-41.5	-45.0	13.0	2.44e-05	0	60	0	356515840	54	5430
2026-01-29 22:38:19.36	51.99	23.46	-41.5	-45.1	12.9	3.58e-05	0	60	0	358612992	54	5477
2026-01-29 22:38:20.37	52.21	23.55	-41.6	-45.1	12.9	5.11e-05	0	60	0	360710144	54	5498
2026-01-29 22:38:21.38	52.42	23.65	-41.7	-45.3	12.7	5.95e-05	0	60	0	362807296	54	5619
2026-01-29 22:38:22.40	52.64	23.75	-41.6	-45.2	12.8	6.71e-05	0	60	0	363855872	54	5584
2026-01-29 22:38:23.41	52.86	23.85	-41.6	-45.2	12.7	7.47e-05	0	60	0	365953024	54	5591
2026-01-29 22:38:24.42	53.08	23.95	-41.6	-45.3	12.8	7.55e-05	0	60	0	368050176	54	5596
2026-01-29 22:38:25.43	53.30	24.04	-41.6	-45.2	12.8	5.03e-05	0	60	0	370147328	54	5584
2026-01-29 22:38:26.44	53.52	24.14	-41.6	-45.2	12.9	5.56e-05	0	60	0	372244480	54	5531
2026-01-29 22:38:27.45	53.75	24.24	-41.6	-45.2	12.8	6.48e-05	0	60	0	373293056	54	5552
2026-01-29 22:38:28.46	53.97	24.34	-41.6	-45.2	12.8	7.09e-05	0	60	0	375390208	54	5578
2026-01-29 22:38:29.47	54.20	24.44	-41.6	-45.2	12.8	4.88e-05	0	60	0	377487360	54	5562
2026-01-29 22:38:30.48	54.43	24.53	-41.6	-45.1	12.9	4.57e-05	0	60	0	379584512	54	5489
2026-01-29 22:38:31.49	54.66	24.63	-41.6	-45.1	12.9	3.96e-05	0	60	0	381681664	54	5498
2026-01-29 22:38:32.50	54.89	24.73	-41.7	-45.3	12.8	5.79e-05	0	60	0	382730240	54	5603
2026-01-29 22:38:33.51	55.12	24.82	-41.7	-45.3	12.7	6.40e-05	0	60	0	384827392	54	5614
2026-01-29 22:38:34.52	55.36	24.92	-41.7	-45.4	12.6	9.00e-05	0	60	0	386924544	54	5712
2026-01-29 22:38:35.53	55.59	25.02	-41.7	-45.4	12.6	9.53e-05	0	60	0	389021696	54	5706
2026-01-29 22:38:36.54	55.83	25.12	-41.8	-45.6	12.4	1.08e-04	0	60	0	391118848	54	5852
2026-01-29 22:38:37.55	56.06	25.21	-41.9	-45.7	12.3	1.43e-04	0	60	0	392167424	54	5891
2026-01-29 22:38:38.56	56.30	25.31	-41.9	-45.8	12.2	2.09e-04	0	60	0	394264576	54	5942
2026-01-29 22:38:39.57	56.55	25.40	-41.9	-45.9	12.1	2.08e-04	0	60	0	396361728	54	6010
2026-01-29 22:38:40.58	56.79	25.50	-42.0	-46.0	12.0	2.91e-04	0	60	0	398458880	54	6116
2026-01-29 22:38:41.59	57.03	25.60	-42.1	-46.2	11.8	5.25e-04	0	60	0	400556032	54	6224
2026-01-29 22:38:42.60	57.28	25.69	-42.1	-46.2	11.7	5.56e-04	0	60	0	401604608	54	6248
2026-01-29 22:38:43.61	57.52	25.79	-42.1	-46.1	11.8	4.90e-04	0	60	0	403701760	54	6189
2026-01-29 22:38:44.62	57.77	25.88	-42.1	-46.1	11.8	4.84e-04	0	60	0	405798912	54	6189
2026-01-29 22:38:45.63	58.02	25.98	-42.1	-46.1	11.8	3.77e-04	0	60	0	407896064	54	6185
2026-01-29 22:38:46.64	58.27	26.07	-42.0	-46.1	11.8	3.73e-04	0	60	0	409993216	54	6153
2026-01-29 22:38:47.65	58.52	26.17	-42.1	-46.2	11.7	4.54e-04	0	60	0	411041792	54	6240
2026-01-29 22:38:48.66	58.78	26.26	-42.1	-46.3	11.7	6.05e-04	0	60	0	413138944	54	6307
2026-01-29 22:38:49.67	59.03	26.36	-42.2	-46.5	11.4	8.60e-04	0	60	0	415236096	55	6110
2026-01-29 22:38:50.68	59.29	26.45	-42.3	-46.7	11.2	1.15e-03	0	60	0	417333248	55	6229
2026-01-29 22:38:51.69	59.55	26.54	-42.4	-46.8	11.2	1.25e-03	0	60	0	419430400	55	6294
2026-01-29 22:38:52.70	59.81	26.64	-42.3	-46.7	11.3	1.42e-03	0	60	0	421527552	55	6216
2026-01-29 22:38:53.71	60.07	26.73	-42.4	-46.8	11.2	1.19e-03	0	60	0	422576128	55	6278
2026-01-29 22:38:54.72	60.33	26.82	-42.3	-46.7	11.3	1.15e-03	0	60	0	424673280	55	6206
2026-01-29 22:38:55.73	60.60	26.91	-42.3	-46.6	11.4	9.48e-04	0	60	0	426770432	55	6148
2026-01-29 22:38:56.75	60.87	27.01	-42.3	-46.7	11.3	1.06e-03	0	60	0	428867584	55	6220
2026-01-29 22:38:57.76	61.14	27.10	-42.4	-46.9	11.0	1.52e-03	0	60	0	430964736	55	6390
2026-01-29 22:38:58.77	61.40	27.19	-42.6	-47.2	10.8	2.24e-03	0	60	0	432013312	55	6602
2026-01-29 22:38:59.78	61.68	27.28	-42.9	-47.8	10.3	3.82e-03	0	60	0	434110464	56	6692
2026-01-29 22:39:00.79	61.95	27.37	-43.0	-48.1	10.0	6.68e-03	0	60	0	436207616	56	6908
2026-01-29 22:39:01.80	62.22	27.46	-43.1	-48.4	9.8	9.11e-03	0	60	0	438304768	56	7122
2026-01-29 22:39:02.81	62.50	27.55	-43.1	-48.4	9.7	1.12e-02	0	60	0	440401920	56	7176
2026-01-29 22:39:03.82	62.77	27.64	-43.2	-48.4	9.7	1.24e-02	0	60	0	441450496	56	7173
2026-01-29 22:39:04.83	63.05	27.73	-43.1	-48.3	9.8	9.60e-03	0	60	0	443547648	56	7045
2026-01-29 22:39:05.84	63.33	27.82	-43.0	-48.2	10.0	8.88e-03	0	60	0	445644800	56	6980
2026-01-29 22:39:06.84	63.61	27.91	-43.0	-48.1	9.9	8.24e-03	0	60	0	447741952	56	6957
2026-01-29 22:39:07.85	63.89	27.99	-43.0	-48.1	10.1	7.15e-03	0	60	0	449839104	56	6888
2026-01-29 22:39:08.86	64.18	28.08	-43.0	-48.0	10.2	6.35e-03	0	60	0	450887680	56	6852
2026-01-29 22:39:09.87	64.46	28.17	-43.0	-48.1	10.1	6.34e-03	0	60	0	452984832	56	6920
2026-01-29 22:39:10.88	64.75	28.25	-43.0	-47.9	10.2	6.30e-03	0	60	0	455081984	56	6781
2026-01-29 22:39:11.89	65.04	28.34	-43.0	-47.9	10.2	5.82e-03	0	60	0	457179136	56	6783
2026-01-29 22:39:12.90	65.33	28.42	-43.0	-48.0	10.2	6.47e-03	0	60	0	459276288	56	6862
2026-01-29 22:39:13.91	65.62	28.51	-43.0	-48.1	10.0	6.84e-03	0	60	0	460324864	56	6913
2026-01-29 22:39:14.92	65.91	28.59	-43.1	-48.3	9.9	7.69e-03	0	60	0	462422016	56	7058
2026-01-29 22:39:15.93	66.21	28.68	-43.1	-48.3	9.9	9.29e-03	0	60	0	464519168	56	7058
2026-01-29 22:39:16.95	66.51	28.76	-43.1	-48.3	9.8	1.01e-02	0	60	0	466616320	56	7108
2026-01-29 22:39:17.95	66.80	28.84	-43.1	-48.1	10.0	9.03e-03	0	60	0	468713472	56	6957
2026-01-29 22:39:18.96	67.10	28.92	-43.0	-48.0	10.2	6.19e-03	0	60	0	469762048	56	6826
2026-01-29 22:39:19.97	67.40	29.00	-43.0	-47.9	10.3	5.53e-03	0	60	0	471859200	56	6735
2026-01-29 22:39:20.99	67.71	29.09	-42.9	-47.8	10.3	4.80e-03	0	60	0	473956352	56	6710
2026-01-29 22:39:22.00	68.01	29.17	-42.9	-47.7	10.4	4.76e-03	0	60	0	476053504	56	6623
2026-01-29 22:39:23.00	68.32	29.25	-42.9	-47.8	10.3	3.99e-03	0	60	0	478150656	56	6693
2026-01-29 22:39:24.01	68.62	29.32	-42.9	-47.7	10.5	5.00e-03	0	60	0	479199232	56	6631
2026-01-29 22:39:25.02	68.93	29.40	-43.0	-47.9	10.3	5.07e-03	0	60	0	481296384	56	6770
2026-01-29 22:39:26.03	69.24	29.48	-43.0	-48.1	10.2	6.17e-03	0	60	0	483393536	56	6881
2026-01-29 22:39:27.04	69.55	29.56	-43.1	-48.1	10.1	6.99e-03	0	60	0	485490688	56	6918
2026-01-29 22:39:28.05	69.87	29.63	-43.1	-48.1	10.1	7.46e-03	0	60	0	487587840	56	6924
2026-01-29 22:39:29.06	70.18	29.71	-43.1	-48.1	10.1	7.62e-03	0	60	0	489684992	56	6934
2026-01-29 22:39:30.07	70.50	29.78	-43.1	-48.1	10.0	8.04e-03	0	60	0	490733568	56	6928
2026-01-29 22:39:31.08	70.81	29.86	-43.0	-48.0	10.2	7.31e-03	0	60	0	492830720	56	6851
2026-01-29 22:39:32.09	71.13	29.93	-43.0	-48.0	10.1	6.88e-03	0	60	0	494927872	56	6854
2026-01-29 22:39:33.10	71.45	30.00	-43.1	-48.1	10.1	6.67e-03	0	60	0	497025024	56	6898
2026-01-29 22:39:34.11	71.77	30.07	-43.1	-48.2	9.9	7.26e-03	0	60	0	499122176	56	7022
2026-01-29 22:39:35.12	72.10	30.14	-43.3	-48.7	9.5	9.95e-03	0	60	0	500170752	57	6967
2026-01-29 22:39:36.13	72.42	30.21	-43.4	-49.2	8.9	2.39e-02	0	60	0	502267904	57	7423
2026-01-29 22:39:37.14	72.75	30.28	-43.6	-49.8	8.3	4.14e-02	0	60	0	504365056	57	7975
2026-01-29 22:39:38.15	73.07	30.35	-43.8	-50.5	7.7	7.20e-02	0	60	0	506462208	58	8085
2026-01-29 22:39:39.16	73.40	30.42	-43.8	-50.6	7.6	9.51e-02	0	60	0	508559360	58	8218
2026-01-29 22:39:40.17	73.73	30.48	-43.9	-50.7	7.5	1.08e-01	0	60	0	509607936	58	8278
2026-01-29 22:39:41.18	74.06	30.55	-43.8	-50.6	7.5	1.04e-01	0	60	0	511705088	58	8255
2026-01-29 22:39:42.19	74.40	30.62	-43.8	-50.6	7.5	1.03e-01	0	60	0	513802240	58	8202
2026-01-29 22:39:43.20	74.73	30.68	-43.8	-50.4	7.7	9.52e-02	0	60	0	515899392	58	8081
2026-01-29 22:39:44.21	75.07	30.74	-43.9	-50.8	7.4	1.29e-01	0	60	0	517996544	58	8446
2026-01-29 22:39:45.22	75.40	30.80	-44.1	-51.4	6.7	2.29e-01	0	60	0	519045120	59	8468
2026-01-29 22:39:46.23	75.74	30.87	-44.3	-52.8	5.8	4.19e-01	0	60	0	521142272	59	9950
2026-01-29 22:39:47.24	76.08	30.93	-44.4	-54.2	4.8	1.13e+00	0	60	0	523239424	60	11093
2026-01-29 22:39:48.25	76.42	30.99	-44.1	-51.7	6.6	1.26e-01	0	60	0	524288000	59	8806
2026-01-29 22:39:49.26	76.76	31.04	-43.9	-51.1	7.0	1.48e-01	0	60	0	526385152	59	8232
2026-01-29 22:39:50.27	77.10	31.10	-44.0	-51.1	7.1	1.44e-01	0	60	0	528482304	59	8263
2026-01-29 22:39:51.28	77.45	31.16	-43.9	-51.0	7.2	1.55e-01	0	60	0	530579456	59	8119
2026-01-29 22:39:52.29	77.79	31.21	-43.8	-50.6	7.6	1.31e-01	0	60	0	532676608	59	7740
2026-01-29 22:39:53.30	78.14	31.27	-43.8	-50.2	7.9	7.30e-02	0	60	0	533725184	59	7376
2026-01-29 22:39:54.31	78.49	31.32	-43.6	-49.7	8.4	5.33e-02	0	60	0	535822336	59	7006
2026-01-29 22:39:55.32	78.83	31.37	-43.5	-49.3	8.8	4.09e-02	0	60	0	537919488	59	6723
2026-01-29 22:39:56.33	79.18	31.42	-43.5	-49.4	8.8	2.88e-02	0	60	0	540016640	59	6788
2026-01-29 22:39:57.34	79.53	31.47	-43.5	-49.4	8.8	3.36e-02	0	60	0	542113792	59	6749
2026-01-29 22:39:58.35	79.89	31.52	-43.6	-49.7	8.4	3.60e-02	0	60	0	543162368	59	6968
2026-01-29 22:39:59.36	80.24	31.57	-43.6	-49.8	8.4	4.37e-02	0	60	0	545259520	59	7057
2026-01-29 22:40:00.37	80.59	31.62	-43.7	-49.8	8.4	5.30e-02	0	60	0	547356672	59	7099
2026-01-29 22:40:01.38	80.95	31.66	-43.7	-49.9	8.3	4.67e-02	0	60	0	549453824	59	7164
2026-01-29 22:40:02.38	81.30	31.71	-43.6	-49.7	8.5	4.21e-02	0	60	0	551550976	59	6991
2026-01-29 22:40:03.40	81.66	31.75	-43.5	-49.4	8.8	3.51e-02	0	60	0	552599552	59	6751
2026-01-29 22:40:04.41	82.02	31.79	-43.5	-49.3	8.9	3.07e-02	0	60	0	554696704	59	6683
2026-01-29 22:40:05.42	82.38	31.83	-43.4	-49.0	9.2	2.49e-02	0	60	0	556793856	58	6878
2026-01-29 22:40:06.43	82.74	31.87	-43.4	-49.0	9.2	2.15e-02	0	60	0	558891008	58	6855
2026-01-29 22:40:07.44	83.10	31.91	-43.5	-49.1	9.1	1.87e-02	0	60	0	560988160	58	6943
2026-01-29 22:40:08.45	83.46	31.95	-43.5	-49.1	9.1	2.40e-02	0	60	0	562036736	58	6910
2026-01-29 22:40:09.46	83.82	31.99	-43.5	-49.1	9.1	2.11e-02	0	60	0	564133888	58	6928
2026-01-29 22:40:10.47	84.18	32.02	-43.5	-49.2	9.1	2.34e-02	0	60	0	566231040	58	6967
2026-01-29 22:40:11.48	84.55	32.06	-43.4	-49.1	9.1	2.40e-02	0	60	0	568328192	58	6881
2026-01-29 22:40:12.49	84.91	32.09	-43.4	-48.9	9.4	1.86e-02	0	60	0	570425344	58	6745
2026-01-29 22:40:13.50	85.27	32.12	-43.3	-48.7	9.5	1.55e-02	0	60	0	572522496	58	6636
2026-01-29 22:40:14.51	85.64	32.15	-43.4	-48.8	9.5	1.43e-02	0	60	0	573571072	58	6656
2026-01-29 22:40:15.52	86.01	32.18	-43.4	-49.0	9.2	1.78e-02	0	60	0	575668224	58	6876
2026-01-29 22:40:16.53	86.37	32.21	-43.6	-49.5	8.7	2.70e-02	0	60	0	577765376	58	7231
2026-01-29 22:40:17.54	86.74	32.23	-43.7	-50.0	8.3	4.07e-02	0	60	0	579862528	58	7646
2026-01-29 22:40:18.55	87.11	32.26	-43.8	-50.3	7.9	7.52e-02	0	60	0	581959680	58	7985
2026-01-29 22:40:19.56	87.48	32.28	-43.9	-50.5	7.7	9.01e-02	0	60	0	583008256	58	8117
2026-01-29 22:40:20.57	87.85	32.31	-43.8	-50.3	8.0	8.01e-02	0	60	0	585105408	58	7923
2026-01-29 22:40:21.58	88.22	32.33	-43.7	-49.8	8.3	5.19e-02	0	60	0	587202560	58	7532
2026-01-29 22:40:22.59	88.59	32.35	-43.5	-49.2	9.0	2.96e-02	0	60	0	589299712	58	6991
2026-01-29 22:40:23.60	88.96	32.37	-43.3	-48.6	9.6	1.53e-02	0	60	0	591396864	58	6523
2026-01-29 22:40:24.61	89.33	32.38	-43.3	-48.6	9.7	1.10e-02	0	60	0	592445440	58	6516
2026-01-29 22:40:25.62	89.70	32.40	-43.3	-48.7	9.5	1.24e-02	0	60	0	594542592	58	6592
2026-01-29 22:40:26.63	90.07	32.41	-43.3	-48.8	9.4	1.36e-02	0	60	0	596639744	58	6651
2026-01-29 22:40:27.64	90.45	32.43	-43.3	-48.7	9.5	1.40e-02	0	60	0	598736896	58	6608
2026-01-29 22:40:28.65	90.82	32.44	-43.4	-48.8	9.4	1.42e-02	0	60	0	600834048	58	6687
2026-01-29 22:40:29.66	91.19	32.45	-43.3	-48.7	9.6	1.41e-02	0	60	0	601882624	58	6586
2026-01-29 22:40:30.67	91.56	32.46	-43.3	-48.7	9.6	1.18e-02	0	60	0	603979776	58	6581
2026-01-29 22:40:31.68	91.94	32.47	-43.3	-48.7	9.6	1.27e-02	0	60	0	606076928	58	6571
2026-01-29 22:40:32.69	92.31	32.48	-43.4	-48.8	9.4	1.47e-02	0	61	0	608174080	58	6681
2026-01-29 22:40:33.70	92.69	32.48	-43.4	-48.9	9.4	1.60e-02	0	61	0	610271232	58	6751
2026-01-29 22:40:34.71	93.06	32.49	-43.5	-49.1	9.3	2.07e-02	0	61	0	611319808	58	6882
2026-01-29 22:40:35.72	93.43	32.49	-43.5	-49.3	9.0	2.23e-02	0	60	0	613416960	58	7044
2026-01-29 22:40:36.73	93.81	32.49	-43.6	-49.6	8.6	2.95e-02	0	60	0	615514112	58	7307
2026-01-29 22:40:37.73	94.18	32.49	-43.7	-49.7	8.5	4.03e-02	0	60	0	617611264	58	7424
2026-01-29 22:40:38.74	94.55	32.49	-43.7	-49.8	8.4	4.79e-02	0	61	0	619708416	58	7473
2026-01-29 22:40:39.75	94.93	32.49	-43.6	-49.5	8.7	3.93e-02	0	61	0	620756992	58	7254
2026-01-29 22:40:40.76	95.30	32.49	-43.5	-49.2	9.1	3.07e-02	0	61	0	622854144	58	6965
2026-01-29 22:40:41.77	95.67	32.48	-43.3	-48.7	9.5	1.69e-02	0	60	0	624951296	58	6635
2026-01-29 22:40:42.78	96.05	32.48	-43.2	-48.4	9.9	1.05e-02	0	61	0	627048448	58	6362
2026-01-29 22:40:43.79	96.42	32.47	-43.1	-48.1	10.2	8.01e-03	0	61	0	629145600	58	6140
2026-01-29 22:40:44.80	96.79	32.46	-43.2	-48.2	10.1	6.26e-03	0	60	0	630194176	58	6228
2026-01-29 22:40:45.81	97.17	32.45	-43.2	-48.3	9.9	6.88e-03	0	61	0	632291328	58	6316
2026-01-29 22:40:46.82	97.54	32.44	-43.3	-48.7	9.5	1.12e-02	0	61	0	634388480	58	6622
2026-01-29 22:40:47.84	97.92	32.42	-43.5	-49.1	9.1	2.15e-02	0	60	0	636485632	58	6944
2026-01-29 22:40:48.84	98.29	32.41	-43.5	-49.3	8.9	2.65e-02	0	60	0	638582784	58	7054
2026-01-29 22:40:49.86	98.66	32.40	-43.6	-49.5	8.7	2.75e-02	0	60	0	640679936	58	7241
2026-01-29 22:40:50.87	99.03	32.38	-43.6	-49.6	8.6	3.27e-02	0	60	0	641728512	58	7301
2026-01-29 22:40:51.88	99.40	32.36	-43.7	-49.8	8.4	4.37e-02	0	60	0	643825664	58	7458
2026-01-29 22:40:52.89	99.78	32.34	-43.6	-49.7	8.5	4.35e-02	0	60	0	645922816	58	7394
2026-01-29 22:40:53.89	100.14	32.32	-43.7	-49.9	8.3	4.57e-02	0	60	0	648019968	58	7569
2026-01-29 22:40:54.90	100.51	32.30	-43.7	-49.8	8.4	4.97e-02	0	60	0	650117120	58	7467
2026-01-29 22:40:55.91	100.88	32.28	-43.8	-50.1	8.1	5.49e-02	0	60	0	651165696	58	7752
2026-01-29 22:40:56.92	101.25	32.25	-43.9	-50.4	7.8	6.15e-02	0	61	0	653262848	58	8011
2026-01-29 22:40:57.93	101.62	32.23	-43.9	-50.5	7.7	8.55e-02	0	61	0	655360000	58	8164
2026-01-29 22:40:58.95	101.99	32.20	-43.9	-50.6	7.6	9.72e-02	0	60	0	657457152	58	8236
2026-01-29 22:40:59.96	102.36	32.17	-43.9	-50.4	7.8	9.35e-02	0	61	0	659554304	58	8047
2026-01-29 22:41:00.96	102.72	32.14	-43.9	-50.5	7.7	8.30e-02	0	61	0	660602880	58	8158
2026-01-29 22:41:01.97	103.09	32.11	-43.8	-50.4	7.8	8.11e-02	0	61	0	662700032	58	8056
2026-01-29 22:41:02.98	103.45	32.08	-43.8	-50.4	7.8	8.69e-02	0	61	0	664797184	58	8067
2026-01-29 22:41:03.99	103.82	32.04	-43.8	-50.4	7.8	8.02e-02	0	60	0	666894336	58	8058
2026-01-29 22:41:05.00	104.18	32.01	-43.9	-50.5	7.7	8.07e-02	0	60	0	668991488	58	8117
2026-01-29 22:41:06.01	104.54	31.97	-43.9	-50.5	7.7	8.50e-02	0	61	0	670040064	58	8162
2026-01-29 22:41:07.02	104.91	31.94	-43.9	-50.6	7.6	8.86e-02	0	60	0	672137216	58	8195
2026-01-29 22:41:08.03	105.27	31.90	-43.9	-50.6	7.6	9.58e-02	0	61	0	674234368	58	8230
2026-01-29 22:41:09.04	105.63	31.86	-43.9	-50.5	7.7	9.29e-02	0	61	0	676331520	58	8133
2026-01-29 22:41:10.05	105.99	31.82	-43.8	-50.2	7.9	7.74e-02	0	61	0	678428672	58	7899
2026-01-29 22:41:11.06	106.35	31.78	-43.8	-50.1	8.1	6.30e-02	0	60	0	679477248	58	7764
2026-01-29 22:41:12.07	106.71	31.74	-43.7	-49.9	8.4	5.59e-02	0	61	0	681574400	58	7555
2026-01-29 22:41:13.08	107.06	31.69	-43.6	-49.4	8.8	4.30e-02	0	60	0	683671552	58	7176
2026-01-29 22:41:14.09	107.42	31.65	-43.5	-49.3	9.0	2.72e-02	0	60	0	685768704	58	7046
2026-01-29 22:41:15.10	107.77	31.60	-43.4	-49.0	9.1	2.37e-02	0	60	0	687865856	58	6871
2026-01-29 22:41:16.11	108.13	31.55	-43.4	-48.8	9.4	1.92e-02	0	61	0	688914432	58	6676
2026-01-29 22:41:17.12	108.48	31.51	-43.3	-48.7	9.5	1.46e-02	0	60	0	691011584	58	6638
2026-01-29 22:41:18.13	108.83	31.46	-43.4	-48.8	9.4	1.64e-02	0	60	0	693108736	58	6711
2026-01-29 22:41:19.14	109.19	31.41	-43.4	-49.1	9.2	1.92e-02	0	60	0	695205888	58	6885
2026-01-29 22:41:20.15	109.54	31.35	-43.5	-49.1	9.1	2.28e-02	0	60	0	697303040	58	6957
2026-01-29 22:41:21.16	109.88	31.30	-43.5	-49.3	8.9	2.61e-02	0	60	0	698351616	58	7057
2026-01-29 22:41:22.17	110.23	31.25	-43.5	-49.3	9.0	2.65e-02	0	60	0	700448768	58	7053
2026-01-29 22:41:23.18	110.58	31.19	-43.5	-49.2	9.0	2.62e-02	0	60	0	702545920	58	6963
2026-01-29 22:41:24.19	110.92	31.14	-43.5	-49.1	9.1	2.28e-02	0	61	0	704643072	58	6945
2026-01-29 22:41:25.20	111.27	31.08	-43.5	-49.2	9.1	2.53e-02	0	61	0	706740224	58	6986
2026-01-29 22:41:26.21	111.61	31.02	-43.5	-49.2	9.0	2.68e-02	0	60	0	708837376	58	7008
2026-01-29 22:41:27.22	111.95	30.96	-43.5	-49.0	9.2	2.32e-02	0	60	0	709885952	58	6877
2026-01-29 22:41:28.23	112.29	30.90	-43.4	-48.8	9.5	1.80e-02	0	61	0	711983104	58	6664
2026-01-29 22:41:29.24	112.63	30.84	-43.3	-48.6	9.5	1.37e-02	0	60	0	714080256	58	6558
2026-01-29 22:41:30.25	112.97	30.78	-43.3	-48.5	9.7	1.16e-02	0	61	0	716177408	58	6478
2026-01-29 22:41:31.26	113.31	30.72	-43.2	-48.5	9.7	1.04e-02	0	61	0	718274560	58	6437
2026-01-29 22:41:32.27	113.64	30.65	-43.2	-48.4	9.8	1.01e-02	0	61	0	719323136	58	6365
2026-01-29 22:41:33.28	113.98	30.59	-43.2	-48.4	9.9	9.53e-03	0	61	0	721420288	58	6352
2026-01-29 22:41:34.29	114.31	30.53	-43.3	-48.6	9.6	1.07e-02	0	60	0	723517440	58	6515
2026-01-29 22:41:35.29	114.64	30.46	-43.4	-49.1	9.2	1.48e-02	0	61	0	725614592	58	6887
2026-01-29 22:41:36.30	114.97	30.39	-43.6	-49.5	8.7	3.23e-02	0	61	0	727711744	58	7287
2026-01-29 22:41:37.31	115.30	30.32	-43.7	-49.9	8.3	4.98e-02	0	60	0	728760320	58	7614
2026-01-29 22:41:38.32	115.63	30.26	-43.7	-50.1	8.1	6.11e-02	0	61	0	730857472	58	7756
2026-01-29 22:41:39.33	115.95	30.19	-43.7	-49.8	8.3	5.40e-02	0	61	0	732954624	58	7530
2026-01-29 22:41:40.34	116.28	30.12	-43.6	-49.5	8.7	3.91e-02	0	61	0	735051776	58	7213
2026-01-29 22:41:41.35	116.60	30.04	-43.5	-49.3	8.9	3.05e-02	0	61	0	737148928	58	7109
2026-01-29 22:41:42.36	116.92	29.97	-43.5	-49.3	8.9	2.63e-02	0	61	0	738197504	58	7045
2026-01-29 22:41:43.37	117.24	29.90	-43.5	-49.2	9.0	2.74e-02	0	61	0	740294656	58	7011
2026-01-29 22:41:44.38	117.56	29.83	-43.5	-49.2	9.0	2.70e-02	0	61	0	742391808	58	7008
2026-01-29 22:41:45.39	117.88	29.75	-43.5	-49.3	8.9	2.71e-02	0	61	0	744488960	58	7089
2026-01-29 22:41:46.40	118.20	29.68	-43.5	-49.3	8.9	2.84e-02	0	61	0	746586112	58	7103
2026-01-29 22:41:47.41	118.51	29.60	-43.5	-49.3	8.9	2.86e-02	0	61	0	747634688	58	7091
2026-01-29 22:41:48.41	118.82	29.52	-43.6	-49.4	8.8	2.90e-02	0	61	0	749731840	58	7195
2026-01-29 22:41:49.43	119.14	29.45	-43.6	-49.6	8.6	3.64e-02	0	61	0	751828992	58	7290
2026-01-29 22:41:50.44	119.45	29.37	-43.7	-49.9	8.3	4.77e-02	0	61	0	753926144	58	7596
2026-01-29 22:41:51.44	119.76	29.29	-43.8	-50.3	8.0	5.96e-02	0	61	0	756023296	58	7903
2026-01-29 22:41:52.45	120.06	29.21	-43.8	-50.3	7.9	7.39e-02	0	61	0	757071872	58	7966
2026-01-29 22:41:53.46	120.37	29.13	-43.8	-50.2	8.0	7.55e-02	0	61	0	759169024	58	7864
2026-01-29 22:41:54.47	120.67	29.05	-43.8	-50.1	8.0	7.03e-02	0	61	0	761266176	58	7777
2026-01-29 22:41:55.49	120.98	28.97	-43.7	-50.0	8.1	6.14e-02	0	61	0	763363328	58	7717
2026-01-29 22:41:56.50	121.28	28.89	-43.7	-49.9	8.3	5.67e-02	0	61	0	765460480	58	7601
2026-01-29 22:41:57.51	121.58	28.80	-43.7	-49.8	8.4	5.01e-02	0	61	0	766509056	58	7516
2026-01-29 22:41:58.52	121.88	28.72	-43.5	-49.2	9.0	4.01e-02	0	61	0	768606208	58	7004
2026-01-29 22:41:59.53	122.18	28.64	-43.3	-48.6	9.6	1.66e-02	0	60	0	770703360	58	6552
2026-01-29 22:42:00.54	122.47	28.55	-43.1	-48.1	10.1	8.23e-03	0	61	0	772800512	58	6174
2026-01-29 22:42:01.54	122.76	28.47	-43.1	-48.0	10.2	6.05e-03	0	60	0	774897664	58	6089
2026-01-29 22:42:02.55	123.06	28.38	-43.1	-48.1	10.2	5.81e-03	0	61	0	776994816	58	6132
2026-01-29 22:42:03.56	123.35	28.30	-43.1	-48.2	10.1	6.51e-03	0	61	0	778043392	58	6228
2026-01-29 22:42:04.57	123.64	28.21	-43.2	-48.5	9.7	9.13e-03	0	60	0	780140544	58	6457
2026-01-29 22:42:05.58	123.92	28.12	-43.3	-48.7	9.5	1.40e-02	0	61	0	782237696	58	6606
2026-01-29 22:42:06.59	124.21	28.04	-43.3	-48.8	9.4	1.58e-02	0	61	0	784334848	58	6678
2026-01-29 22:42:07.60	124.50	27.95	-43.3	-48.8	9.4	1.49e-02	0	61	0	786432000	58	6672
2026-01-29 22:42:08.61	124.78	27.86	-43.4	-48.9	9.3	1.68e-02	0	61	0	787480576	58	6780
2026-01-29 22:42:09.62	125.06	27.77	-43.5	-49.3	8.9	2.32e-02	0	61	0	789577728	58	7052
2026-01-29 22:42:10.63	125.34	27.68	-43.6	-49.7	8.4	3.85e-02	0	61	0	791674880	58	7423
2026-01-29 22:42:11.64	125.62	27.59	-43.6	-49.6	8.5	4.81e-02	0	61	0	793772032	58	7343
2026-01-29 22:42:12.65	125.90	27.50	-43.4	-49.0	9.2	2.79e-02	0	61	0	795869184	58	6818
2026-01-29 22:42:13.66	126.17	27.41	-43.1	-48.1	10.1	1.15e-02	0	61	0	796917760	58	6174
2026-01-29 22:42:14.67	126.45	27.32	-42.8	-47.4	10.9	4.26e-03	0	60	0	799014912	57	6049
2026-01-29 22:42:15.68	126.72	27.23	-42.8	-47.3	10.9	2.02e-03	0	61	0	801112064	57	5971
2026-01-29 22:42:16.69	126.99	27.14	-42.9	-47.7	10.6	2.58e-03	0	61	0	803209216	57	6223
2026-01-29 22:42:17.70	127.26	27.05	-43.1	-48.0	10.1	5.01e-03	0	61	0	805306368	57	6485
2026-01-29 22:42:18.71	127.53	26.95	-43.2	-48.3	9.9	7.95e-03	0	61	0	806354944	57	6651
2026-01-29 22:42:19.72	127.79	26.86	-43.0	-48.0	10.3	6.37e-03	0	61	0	808452096	57	6431
2026-01-29 22:42:20.73	128.06	26.77	-42.8	-47.4	10.9	3.72e-03	0	61	0	810549248	57	6019
2026-01-29 22:42:21.74	128.32	26.67	-42.7	-47.1	11.1	1.63e-03	0	61	0	812646400	57	5849
2026-01-29 22:42:22.75	128.59	26.58	-42.7	-47.2	11.1	1.42e-03	0	61	0	814743552	57	5864
2026-01-29 22:42:23.76	128.85	26.49	-43.0	-47.8	10.5	2.44e-03	0	61	0	815792128	57	6294
2026-01-29 22:42:24.77	129.10	26.39	-43.3	-48.7	9.5	7.35e-03	0	61	0	817889280	57	7011
2026-01-29 22:42:25.78	129.36	26.30	-43.6	-49.6	8.5	3.66e-02	0	61	0	819986432	57	7745
2026-01-29 22:42:26.79	129.62	26.20	-43.8	-50.2	8.0	6.31e-02	0	61	0	822083584	58	7851
2026-01-29 22:42:27.80	129.87	26.11	-43.7	-49.8	8.4	6.93e-02	0	61	0	824180736	58	7476
2026-01-29 22:42:28.81	130.13	26.01	-43.5	-49.3	8.9	3.40e-02	0	61	0	825229312	58	7060
2026-01-29 22:42:29.82	130.38	25.92	-43.4	-49.0	9.1	2.29e-02	0	61	0	827326464	58	6840
2026-01-29 22:42:30.83	130.63	25.82	-43.4	-48.9	9.2	1.89e-02	0	61	0	829423616	58	6788
2026-01-29 22:42:31.84	130.88	25.72	-43.4	-48.9	9.2	1.90e-02	0	61	0	831520768	58	6756
2026-01-29 22:42:32.84	131.12	25.63	-43.3	-48.9	9.2	1.94e-02	0	61	0	833617920	58	6779
2026-01-29 22:42:33.85	131.37	25.53	-43.3	-48.7	9.4	1.75e-02	0	61	0	834666496	57	7011
2026-01-29 22:42:34.86	131.61	25.44	-43.1	-48.2	10.0	9.65e-03	0	61	0	836763648	57	6598
2026-01-29 22:42:35.87	131.85	25.34	-42.8	-47.5	10.7	4.08e-03	0	61	0	838860800	57	6069
2026-01-29 22:42:36.88	132.09	25.24	-42.7	-47.1	11.1	2.01e-03	0	61	0	840957952	57	5825
2026-01-29 22:42:37.89	132.33	25.15	-42.7	-47.2	11.1	1.50e-03	0	61	0	843055104	57	5861
2026-01-29 22:42:38.90	132.57	25.05	-42.9	-47.6	10.6	2.65e-03	0	61	0	845152256	57	6165
2026-01-29 22:42:39.91	132.81	24.95	-43.2	-48.3	9.9	5.85e-03	0	61	0	846200832	57	6702
2026-01-29 22:42:40.92	133.05	24.85	-43.3	-48.7	9.4	1.16e-02	0	61	0	848297984	57	7014
2026-01-29 22:42:41.93	133.28	24.75	-43.1	-48.3	9.8	1.15e-02	0	61	0	850395136	57	6678
2026-01-29 22:42:42.94	133.51	24.66	-42.8	-47.5	10.7	4.97e-03	0	61	0	852492288	57	6104
2026-01-29 22:42:43.96	133.75	24.56	-42.7	-47.0	11.2	2.23e-03	0	61	0	854589440	57	5786
2026-01-29 22:42:44.96	133.97	24.46	-42.5	-46.9	11.4	1.04e-03	0	61	0	855638016	56	6014
2026-01-29 22:42:45.97	134.20	24.36	-42.6	-47.0	11.2	9.89e-04	0	61	0	857735168	56	6111
2026-01-29 22:42:46.99	134.43	24.26	-42.8	-47.4	10.8	1.89e-03	0	61	0	859832320	56	6403
2026-01-29 22:42:48.00	134.66	24.17	-42.9	-47.7	10.5	3.75e-03	0	61	0	861929472	56	6597
2026-01-29 22:42:49.01	134.88	24.07	-43.0	-47.9	10.3	5.01e-03	0	61	0	864026624	56	6735
2026-01-29 22:42:50.01	135.10	23.97	-42.8	-47.5	10.6	5.20e-03	0	61	0	865075200	56	6484
2026-01-29 22:42:51.02	135.32	23.87	-42.6	-46.9	11.2	2.33e-03	0	61	0	867172352	56	6051
2026-01-29 22:42:52.03	135.54	23.77	-42.4	-46.5	11.7	6.81e-04	0	61	0	869269504	56	5750
2026-01-29 22:42:53.04	135.76	23.67	-42.3	-46.3	11.9	4.13e-04	0	61	0	871366656	56	5639
2026-01-29 22:42:54.05	135.98	23.57	-42.3	-46.4	11.8	4.00e-04	0	61	0	873463808	56	5717
2026-01-29 22:42:55.06	136.20	23.48	-42.5	-46.8	11.4	8.52e-04	0	61	0	874512384	56	5991
2026-01-29 22:42:56.07	136.41	23.38	-42.7	-47.2	10.9	1.61e-03	0	61	0	876609536	56	6247
2026-01-29 22:42:57.08	136.63	23.28	-42.7	-47.4	10.8	2.62e-03	0	61	0	878706688	56	6373
2026-01-29 22:42:58.09	136.84	23.18	-42.6	-47.2	11.0	2.34e-03	0	61	0	880803840	56	6213
2026-01-29 22:42:59.10	137.05	23.08	-42.4	-46.7	11.5	1.27e-03	0	61	0	882900992	56	5870
2026-01-29 22:43:00.11	137.26	22.98	-42.2	-46.2	12.0	6.40e-04	0	61	0	883949568	56	5582
2026-01-29 22:43:01.12	137.47	22.88	-42.1	-46.0	12.2	2.15e-04	0	61	0	886046720	56	5445
2026-01-29 22:43:02.13	137.67	22.78	-42.1	-46.0	12.2	2.38e-04	0	61	0	888143872	56	5451
2026-01-29 22:43:03.14	137.88	22.68	-42.2	-46.2	12.1	2.91e-04	0	61	0	890241024	56	5540
2026-01-29 22:43:04.15	138.08	22.58	-42.3	-46.3	11.9	4.16e-04	0	61	0	892338176	56	5640
2026-01-29 22:43:05.16	138.29	22.49	-42.3	-46.3	11.9	3.71e-04	0	61	0	893386752	56	5655
2026-01-29 22:43:06.17	138.49	22.39	-42.3	-46.3	11.9	3.42e-04	0	61	0	895483904	56	5610
2026-01-29 22:43:07.18	138.69	22.29	-42.2	-46.1	12.1	3.56e-04	0	61	0	897581056	56	5517
2026-01-29 22:43:08.19	138.89	22.19	-41.9	-45.8	12.3	2.09e-04	0	61	0	899678208	55	5608
2026-01-29 22:43:09.20	139.09	22.09	-41.8	-45.5	12.5	1.68e-04	0	61	0	901775360	55	5437
2026-01-29 22:43:10.21	139.28	21.99	-41.7	-45.2	12.8	8.46e-05	0	61	0	902823936	55	5274
2026-01-29 22:43:11.22	139.48	21.89	-41.6	-45.2	12.9	3.20e-05	0	61	0	904921088	55	5226
2026-01-29 22:43:12.23	139.68	21.79	-41.6	-45.2	12.9	6.33e-05	0	61	0	907018240	55	5267
2026-01-29 22:43:13.24	139.87	21.70	-41.7	-45.3	12.7	6.10e-05	0	61	0	909115392	55	5315
2026-01-29 22:43:14.25	140.06	21.60	-41.6	-45.2	12.8	5.56e-05	0	61	0	911212544	55	5244
2026-01-29 22:43:15.26	140.25	21.50	-41.7	-45.3	12.7	6.71e-05	0	61	0	913309696	55	5328
2026-01-29 22:43:16.27	140.44	21.40	-41.7	-45.3	12.7	6.79e-05	0	61	0	914358272	55	5310
2026-01-29 22:43:17.28	140.63	21.30	-41.6	-45.1	12.9	4.95e-05	0	61	0	916455424	55	5191
2026-01-29 22:43:18.29	140.82	21.20	-41.5	-45.0	13.0	4.19e-05	0	61	0	918552576	55	5145
2026-01-29 22:43:19.30	141.00	21.11	-41.5	-45.0	13.0	3.12e-05	0	61	0	920649728	55	5132
2026-01-29 22:43:20.31	141.19	21.01	-41.5	-45.0	13.0	4.27e-05	0	61	0	922746880	55	5155
2026-01-29 22:43:21.32	141.37	20.91	-41.6	-45.1	12.9	4.42e-05	0	61	0	923795456	55	5211
2026-01-29 22:43:22.33	141.56	20.81	-41.6	-45.2	12.9	4.27e-05	0	61	0	925892608	55	5222
2026-01-29 22:43:23.34	141.74	20.71	-41.6	-45.2	12.8	5.49e-05	0	61	0	927989760	55	5277
2026-01-29 22:43:24.35	141.92	20.62	-41.6	-45.2	12.9	5.87e-05	0	61	0	930086912	55	5219
2026-01-29 22:43:25.36	142.10	20.52	-41.6	-45.1	12.9	4.80e-05	0	61	0	932184064	55	5207
2026-01-29 22:43:26.37	142.28	20.42	-41.5	-45.1	13.0	5.87e-05	0	61	0	933232640	55	5165
2026-01-29 22:43:27.38	142.45	20.32	-41.5	-45.0	13.0	4.11e-05	0	61	0	935329792	55	5125
2026-01-29 22:43:28.40	142.63	20.22	-41.5	-45.0	13.1	3.43e-05	0	60	0	937426944	54	5403
2026-01-29 22:43:29.41	142.81	20.13	-41.3	-44.7	13.3	3.20e-05	0	61	0	939524096	54	5236
2026-01-29 22:43:30.42	142.98	20.03	-41.3	-44.6	13.4	1.29e-05	0	61	0	941621248	54	5185
2026-01-29 22:43:31.43	143.15	19.93	-41.3	-44.6	13.4	1.14e-05	0	61	0	942669824	54	5194
2026-01-29 22:43:32.44	143.33	19.84	-41.3	-44.6	13.4	9.90e-06	0	61	0	944766976	54	5207
2026-01-29 22:43:33.45	143.50	19.74	-41.5	-45.0	13.0	3.05e-05	0	61	0	946864128	54	5426
2026-01-29 22:43:34.46	143.67	19.64	-41.6	-45.2	12.8	4.50e-05	0	61	0	948961280	54	5535
2026-01-29 22:43:35.47	143.84	19.55	-41.7	-45.4	12.5	5.56e-05	0	61	0	951058432	54	5714
2026-01-29 22:43:36.48	144.00	19.45	-41.8	-45.7	12.3	2.05e-04	0	61	0	952107008	54	5883
2026-01-29 22:43:37.49	144.17	19.35	-41.9	-45.8	12.2	2.10e-04	0	61	0	954204160	54	5938
2026-01-29 22:43:38.50	144.34	19.26	-42.0	-46.0	11.9	3.17e-04	0	61	0	956301312	54	6108
2026-01-29 22:43:39.51	144.50	19.16	-41.9	-45.9	12.0	3.34e-04	0	61	0	958398464	54	6037
2026-01-29 22:43:40.51	144.66	19.07	-41.9	-45.9	12.0	3.09e-04	0	61	0	960495616	54	6022
2026-01-29 22:43:41.52	144.83	18.97	-41.8	-45.7	12.2	2.36e-04	0	61	0	961544192	54	5893
2026-01-29 22:43:42.53	144.99	18.88	-41.8	-45.6	12.3	1.74e-04	0	61	0	963641344	54	5855
2026-01-29 22:43:43.54	145.15	18.78	-41.8	-45.7	12.3	1.65e-04	0	61	0	965738496	54	5872
2026-01-29 22:43:44.55	145.31	18.69	-41.8	-45.5	12.4	1.67e-04	0	61	0	967835648	54	5788
2026-01-29 22:43:45.56	145.47	18.59	-41.8	-45.7	12.2	1.82e-04	0	61	0	969932800	54	5894
2026-01-29 22:43:46.57	145.63	18.50	-41.9	-45.8	12.1	2.01e-04	0	61	0	970981376	54	5926
2026-01-29 22:43:47.58	145.78	18.40	-41.9	-45.8	12.1	2.59e-04	0	61	0	973078528	54	5976
2026-01-29 22:43:48.59	145.94	18.31	-42.0	-46.0	11.9	2.97e-04	0	61	0	975175680	54	6079
2026-01-29 22:43:49.60	146.09	18.21	-41.9	-45.9	11.9	4.00e-04	0	61	0	977272832	54	6041
2026-01-29 22:43:50.61	146.25	18.12	-41.8	-45.7	12.2	2.88e-04	0	61	0	979369984	54	5917
2026-01-29 22:43:51.62	146.40	18.02	-41.8	-45.7	12.2	2.19e-04	0	61	0	981467136	54	5883
2026-01-29 22:43:52.63	146.55	17.93	-41.8	-45.7	12.2	2.39e-04	0	61	0	982515712	54	5882
2026-01-29 22:43:53.64	146.70	17.84	-41.8	-45.7	12.2	2.03e-04	0	61	0	984612864	54	5865
2026-01-29 22:43:54.65	146.85	17.74	-41.8	-45.7	12.2	2.14e-04	0	61	0	986710016	54	5907
2026-01-29 22:43:55.66	147.00	17.65	-41.8	-45.7	12.2	2.04e-04	0	61	0	988807168	54	5870
2026-01-29 22:43:56.67	147.15	17.56	-41.9	-45.9	12.0	3.13e-04	0	61	0	990904320	54	6027
2026-01-29 22:43:57.68	147.30	17.46	-42.0	-46.0	11.8	4.42e-04	0	61	0	991952896	54	6127
2026-01-29 22:43:58.69	147.45	17.37	-42.1	-46.2	11.7	5.58e-04	0	61	0	994050048	54	6245
2026-01-29 22:43:59.70	147.59	17.28	-42.1	-46.4	11.5	7.65e-04	0	61	0	996147200	54	6349
2026-01-29 22:44:00.72	147.74	17.18	-42.0	-46.3	11.5	8.06e-04	0	61	0	998244352	54	6288
2026-01-29 22:44:01.73	147.88	17.09	-42.1	-46.3	11.5	6.94e-04	0	61	0	1000341504	54	6309
2026-01-29 22:44:02.74	148.03	17.00	-42.1	-46.3	11.4	8.99e-04	0	61	0	1001390080	54	6345
2026-01-29 22:44:03.74	148.17	16.91	-42.1	-46.5	11.3	1.07e-03	0	61	0	1003487232	54	6424
2026-01-29 22:44:04.76	148.31	16.81	-42.2	-46.6	11.2	1.47e-03	0	61	0	1005584384	54	6515
2026-01-29 22:44:05.77	148.45	16.72	-42.3	-46.9	10.9	2.17e-03	0	60	0	1007681536	55	6372
2026-01-29 22:44:06.78	148.59	16.63	-42.4	-47.1	10.7	2.44e-03	0	61	0	1009778688	55	6510
2026-01-29 22:44:07.79	148.73	16.54	-42.5	-47.4	10.3	4.33e-03	0	61	0	1010827264	55	6783
2026-01-29 22:44:08.80	148.87	16.45	-42.6	-47.5	10.2	6.75e-03	0	61	0	1012924416	55	6868
2026-01-29 22:44:09.81	149.01	16.36	-42.6	-47.7	10.0	7.68e-03	0	61	0	1015021568	55	6969
2026-01-29 22:44:10.82	149.14	16.27	-42.6	-47.6	10.1	6.46e-03	0	61	0	1017118720	55	6940
2026-01-29 22:44:11.83	149.28	16.18	-42.5	-47.4	10.3	6.49e-03	0	61	0	1019215872	55	6740
2026-01-29 22:44:12.84	149.42	16.09	-42.4	-47.2	10.5	4.41e-03	0	61	0	1021313024	55	6591
2026-01-29 22:44:13.85	149.55	16.00	-42.4	-47.0	10.6	3.27e-03	0	61	0	1022361600	55	6490
2026-01-29 22:44:14.86	149.68	15.91	-42.3	-46.9	10.8	2.38e-03	0	61	0	1024458752	55	6358
2026-01-29 22:44:15.86	149.82	15.82	-42.2	-46.7	11.0	1.97e-03	0	61	0	1026555904	55	6241
2026-01-29 22:44:16.87	149.95	15.73	-42.2	-46.7	11.0	1.89e-03	0	61	0	1028653056	55	6216
2026-01-29 22:44:17.88	150.08	15.64	-42.2	-46.7	10.9	1.83e-03	0	61	0	1030750208	55	6267
2026-01-29 22:44:18.89	150.21	15.55	-42.3	-46.8	10.9	2.23e-03	0	61	0	1031798784	55	6323
2026-01-29 22:44:19.90	150.34	15.46	-42.3	-47.1	10.6	3.02e-03	0	61	0	1033895936	55	6501
2026-01-29 22:44:20.92	150.47	15.37	-42.4	-47.3	10.4	4.46e-03	0	61	0	1035993088	55	6662
2026-01-29 22:44:21.92	150.60	15.28	-42.5	-47.6	10.1	6.22e-03	0	61	0	1038090240	55	6886
2026-01-29 22:44:22.94	150.73	15.19	-42.6	-47.7	9.9	8.44e-03	0	61	0	1040187392	55	6988
2026-01-29 22:44:23.94	150.85	15.10	-42.5	-47.5	10.1	7.24e-03	0	61	0	1041235968	55	6863
2026-01-29 22:44:24.96	150.98	15.02	-42.4	-47.3	10.3	5.86e-03	0	61	0	1043333120	55	6715
2026-01-29 22:44:25.97	151.10	14.93	-42.4	-47.3	10.3	6.21e-03	0	61	0	1045430272	55	6697
2026-01-29 22:44:26.98	151.23	14.84	-42.4	-47.2	10.4	4.83e-03	0	61	0	1047527424	55	6610
2026-01-29 22:44:27.99	151.35	14.75	-42.3	-47.1	10.5	3.61e-03	0	61	0	1049624576	55	6557
2026-01-29 22:44:29.00	151.48	14.67	-42.2	-46.8	10.8	2.69e-03	0	61	0	1050673152	55	6340
2026-01-29 22:44:30.01	151.60	14.58	-42.1	-46.6	11.0	2.07e-03	0	61	0	1052770304	55	6198
2026-01-29 22:44:31.02	151.72	14.49	-42.2	-46.7	11.0	1.39e-03	0	61	0	1054867456	55	6215
2026-01-29 22:44:32.03	151.84	14.40	-42.1	-46.5	11.1	1.54e-03	0	61	0	1056964608	55	6128
2026-01-29 22:44:33.04	151.96	14.32	-42.2	-46.7	10.9	2.04e-03	0	61	0	1059061760	55	6247
2026-01-29 22:44:34.05	152.08	14.23	-42.3	-47.0	10.7	2.41e-03	0	61	0	1060110336	55	6439
2026-01-29 22:44:35.06	152.20	14.15	-42.3	-47.1	10.5	3.04e-03	0	61	0	1062207488	55	6503
2026-01-29 22:44:36.07	152.32	14.06	-42.4	-47.3	10.3	4.26e-03	0	61	0	1064304640	55	6720
2026-01-29 22:44:37.08	152.44	13.97	-42.4	-47.4	10.2	6.77e-03	0	61	0	1066401792	55	6748
2026-01-29 22:44:38.08	152.55	13.89	-42.6	-47.8	9.8	9.22e-03	0	61	0	1068498944	55	7072
2026-01-29 22:44:39.09	152.67	13.80	-42.5	-47.6	9.9	9.24e-03	0	61	0	1069547520	55	6954
2026-01-29 22:44:40.10	152.79	13.72	-42.5	-47.5	10.1	7.40e-03	0	61	0	1071644672	55	6853
2026-01-29 22:44:41.11	152.90	13.63	-42.5	-47.5	10.1	7.66e-03	0	61	0	1073741824	55	6852
2026-01-29 22:44:42.12	153.02	13.55	-42.4	-47.4	10.2	6.36e-03	0	61	0	1075838976	55	6737
2026-01-29 22:44:43.13	153.13	13.46	-42.4	-47.2	10.4	4.92e-03	0	61	0	1077936128	55	6631
2026-01-29 22:44:44.14	153.24	13.38	-42.3	-47.0	10.6	4.17e-03	0	60	0	1078984704	55	6452
2026-01-29 22:44:45.15	153.36	13.29	-42.1	-46.6	11.0	2.26e-03	0	61	0	1081081856	55	6172
2026-01-29 22:44:46.16	153.47	13.21	-42.1	-46.5	11.1	1.81e-03	0	61	0	1083179008	55	6082
2026-01-29 22:44:47.17	153.58	13.13	-42.0	-46.4	11.2	1.30e-03	0	61	0	1085276160	55	6034
2026-01-29 22:44:48.18	153.69	13.04	-42.0	-46.4	11.3	1.30e-03	0	61	0	1087373312	55	6001
2026-01-29 22:44:49.19	153.80	12.96	-41.9	-46.1	11.5	1.01e-03	0	61	0	1089470464	55	5808
2026-01-29 22:44:50.20	153.91	12.88	-41.9	-46.2	11.4	9.83e-04	0	61	0	1090519040	55	5897
2026-01-29 22:44:51.21	154.02	12.79	-42.0	-46.4	11.2	1.13e-03	0	61	0	1092616192	55	6002
2026-01-29 22:44:52.22	154.13	12.71	-42.1	-46.5	11.0	1.39e-03	0	61	0	1094713344	55	6119
2026-01-29 22:44:53.23	154.24	12.63	-42.1	-46.6	10.9	1.68e-03	0	61	0	1096810496	55	6163
2026-01-29 22:44:54.24	154.34	12.54	-42.2	-46.8	10.7	2.92e-03	0	61	0	1098907648	55	6323
2026-01-29 22:44:55.25	154.45	12.46	-42.2	-46.9	10.6	2.87e-03	0	61	0	1099956224	55	6383
2026-01-29 22:44:56.26	154.56	12.38	-42.2	-47.0	10.5	3.28e-03	0	61	0	1102053376	55	6463
2026-01-29 22:44:57.27	154.66	12.30	-42.2	-47.0	10.5	4.98e-03	0	61	0	1104150528	55	6476
2026-01-29 22:44:58.28	154.77	12.22	-42.3	-47.2	10.2	5.38e-03	0	61	0	1106247680	55	6644
2026-01-29 22:44:59.29	154.87	12.13	-42.2	-47.0	10.5	4.75e-03	0	61	0	1108344832	55	6448
2026-01-29 22:45:00.30	154.98	12.05	-42.3	-47.2	10.3	3.57e-03	0	61	0	1109393408	55	6626
2026-01-29 22:45:01.31	155.08	11.97	-42.2	-47.0	10.5	5.06e-03	0	61	0	1111490560	55	6472
2026-01-29 22:45:02.32	155.18	11.89	-42.2	-47.0	10.5	4.56e-03	0	61	0	1113587712	55	6470
2026-01-29 22:45:03.33	155.29	11.81	-42.2	-47.0	10.5	4.29e-03	0	61	0	1115684864	55	6445
2026-01-29 22:45:04.34	155.39	11.73	-42.1	-46.8	10.7	3.43e-03	0	61	0	1117782016	55	6321
2026-01-29 22:45:05.35	155.49	11.65	-42.1	-46.8	10.7	3.69e-03	0	61	0	1118830592	55	6276
2026-01-29 22:45:06.36	155.59	11.57	-42.0	-46.6	10.9	3.03e-03	0	61	0	1120927744	55	6135
2026-01-29 22:45:07.37	155.69	11.49	-42.1	-46.8	10.7	2.89e-03	0	61	0	1123024896	55	6289
2026-01-29 22:45:08.38	155.79	11.41	-42.2	-46.9	10.5	2.86e-03	0	61	0	1125122048	55	6386
2026-01-29 22:45:09.39	155.89	11.33	-41.9	-46.4	11.1	2.67e-03	0	61	0	1127219200	55	6010
2026-01-29 22:45:10.40	155.99	11.25	-42.0	-46.7	10.7	2.63e-03	0	60	0	1128267776	55	6239
2026-01-29 22:45:11.41	156.08	11.17	-42.0	-46.7	10.8	2.73e-03	0	61	0	1130364928	55	6203
2026-01-29 22:45:12.42	156.18	11.09	-42.1	-46.9	10.6	3.27e-03	0	61	0	1132462080	55	6357
2026-01-29 22:45:13.43	156.28	11.01	-42.1	-46.8	10.6	3.43e-03	0	61	0	1134559232	55	6318
2026-01-29 22:45:14.44	156.38	10.93	-42.1	-46.8	10.6	3.36e-03	0	61	0	1136656384	55	6319
2026-01-29 22:45:15.45	156.47	10.85	-42.1	-46.9	10.4	4.58e-03	0	61	0	1137704960	55	6407
2026-01-29 22:45:16.46	156.57	10.78	-42.1	-46.8	10.6	3.89e-03	0	61	0	1139802112	55	6294
2026-01-29 22:45:17.47	156.66	10.70	-42.2	-47.1	10.2	5.30e-03	0	61	0	1141899264	55	6565
2026-01-29 22:45:18.48	156.76	10.62	-42.2	-47.1	10.3	5.18e-03	0	61	0	1143996416	55	6500
2026-01-29 22:45:19.49	156.85	10.54	-42.1	-46.9	10.4	6.31e-03	0	61	0	1146093568	55	6404
2026-01-29 22:45:20.50	156.95	10.46	-42.1	-47.0	10.3	5.01e-03	0	61	0	1147142144	55	6440
2026-01-29 22:45:21.51	157.04	10.39	-42.2	-47.1	10.2	5.91e-03	0	61	0	1149239296	55	6546
2026-01-29 22:45:22.52	157.13	10.31	-42.1	-47.0	10.3	4.92e-03	0	61	0	1151336448	55	6446
2026-01-29 22:45:23.53	157.22	10.23	-42.2	-47.2	10.1	6.35e-03	0	61	0	1153433600	55	6591
2026-01-29 22:45:24.54	157.32	10.16	-42.0	-46.8	10.6	4.49e-03	0	61	0	1155530752	55	6280
2026-01-29 22:45:25.55	157.41	10.08	-42.1	-46.9	10.4	4.53e-03	0	61	0	1156579328	55	6394
2026-01-29 22:45:26.56	157.50	10.00	-42.2	-47.2	10.0	7.86e-03	0	61	0	1158676480	55	6613
2026-01-29 22:45:27.57	157.59	9.93	-42.1	-47.1	10.1	4.72e-03	0	61	0	1160773632	55	6552
2026-01-29 22:45:28.58	157.68	9.85	-42.1	-47.0	10.2	9.47e-03	0	61	0	1162870784	55	6494
2026-01-29 22:45:29.59	157.77	9.77	-42.0	-47.0	10.2	5.56e-03	0	61	0	1164967936	55	6427
