passes_logs/2026/01/29/R2.0S_Moscow/R2.0S_Moscow__20260129_003251_NOAA_20_JPSS-1_rec.log

#Pass ID: 20260129_003251_NOAA 20 (JPSS-1)
#Satellite: NOAA 20 (JPSS-1)
#Configuration: NOAA 20
#almurnet v.1.7.20251203
#Start time: 2026-01-29 00:32:52

#Version: 2.2.20231116
#Station: R2.0S_Moscow
#Location: 37.707566 lon 55.798166 lat
#TLE: 1 43013U 17073A   26027.80586608  .00000156  00000+0  94940-4 0  9998
#TLE: 2 43013  98.7647 328.6108 0000947  21.3465 338.7750 14.19541216424550

#Time	Az	El	Level	Level2	SNR	BER	BlckErr	Temp	State	Recorded	gain1	gain2
2026-01-29 00:32:52.48	12.73	2.05	-40.0	-54.4	3.8	1.49e+00	0	50	0	0	52	17969
2026-01-29 00:32:53.48	12.70	2.11	-40.1	-54.4	3.8	1.49e+00	0	50	104	0	51	19114
2026-01-29 00:32:54.49	12.67	2.17	-40.1	-54.4	3.8	1.49e+00	0	51	104	0	51	19136
2026-01-29 00:32:55.50	12.63	2.23	-40.1	-54.5	3.8	1.49e+00	0	50	104	0	51	19175
2026-01-29 00:32:56.51	12.60	2.30	-40.1	-54.4	3.8	1.49e+00	0	51	104	0	51	19083
2026-01-29 00:32:57.52	12.56	2.36	-40.1	-54.4	3.8	1.49e+00	0	51	104	0	51	19118
2026-01-29 00:32:58.53	12.53	2.42	-40.1	-54.4	3.8	1.49e+00	0	51	104	0	51	19099
2026-01-29 00:32:59.54	12.49	2.49	-40.1	-54.4	3.8	1.49e+00	0	51	104	0	51	19109
2026-01-29 00:33:00.55	12.46	2.55	-40.1	-54.4	3.8	1.49e+00	0	51	104	0	51	19152
2026-01-29 00:33:01.56	12.42	2.61	-40.1	-54.4	3.8	1.49e+00	0	51	104	0	51	19118
2026-01-29 00:33:02.57	12.39	2.68	-40.0	-54.4	3.8	1.49e+00	0	51	104	0	51	19062
2026-01-29 00:33:03.58	12.35	2.74	-40.1	-54.4	3.8	1.49e+00	0	51	104	0	51	19085
2026-01-29 00:33:04.58	12.32	2.81	-40.1	-54.4	3.8	1.49e+00	0	51	104	0	51	19000
2026-01-29 00:33:05.59	12.28	2.87	-40.0	-54.4	3.8	1.49e+00	0	51	104	0	51	19056
2026-01-29 00:33:06.61	12.25	2.93	-40.0	-54.4	3.8	1.49e+00	0	51	104	0	51	19107
2026-01-29 00:33:07.62	12.21	3.00	-40.0	-54.4	3.8	1.49e+00	0	51	104	0	51	19042
2026-01-29 00:33:08.63	12.17	3.06	-40.0	-54.4	3.8	1.49e+00	0	51	104	0	51	19099
2026-01-29 00:33:09.64	12.14	3.13	-40.0	-54.4	3.8	1.49e+00	0	51	104	0	51	19038
2026-01-29 00:33:10.65	12.10	3.19	-40.0	-54.4	3.8	1.49e+00	0	52	104	0	51	19068
2026-01-29 00:33:11.66	12.06	3.26	-40.0	-54.4	3.8	1.49e+00	0	52	104	0	51	19079
2026-01-29 00:33:12.67	12.03	3.32	-40.1	-54.4	3.8	1.49e+00	0	52	104	0	51	19091
2026-01-29 00:33:13.68	11.99	3.39	-40.0	-54.4	3.8	1.49e+00	0	52	104	0	51	19085
2026-01-29 00:33:14.69	11.95	3.45	-40.1	-54.4	3.8	1.49e+00	0	52	104	0	51	19118
2026-01-29 00:33:15.70	11.91	3.52	-40.1	-54.4	3.8	1.49e+00	0	52	104	0	51	19094
2026-01-29 00:33:16.71	11.88	3.59	-40.1	-54.4	3.8	1.49e+00	0	52	104	0	51	19051
2026-01-29 00:33:17.72	11.84	3.65	-40.1	-54.4	3.8	1.49e+00	0	52	104	0	51	19089
2026-01-29 00:33:18.73	11.80	3.72	-40.1	-54.4	3.8	1.49e+00	0	52	104	0	51	19112
2026-01-29 00:33:19.74	11.76	3.78	-40.1	-54.4	3.8	1.49e+00	0	52	104	0	51	19030
2026-01-29 00:33:20.75	11.72	3.85	-40.1	-54.4	3.8	1.49e+00	0	52	104	0	51	18970
2026-01-29 00:33:21.76	11.68	3.92	-40.0	-54.4	3.8	1.49e+00	0	52	104	0	51	19014
2026-01-29 00:33:22.77	11.65	3.98	-40.0	-54.4	3.8	1.49e+00	0	52	104	0	51	18961
2026-01-29 00:33:23.78	11.61	4.05	-40.0	-54.4	3.8	1.49e+00	0	52	104	0	51	18985
2026-01-29 00:33:24.79	11.57	4.12	-40.0	-54.4	3.8	1.49e+00	0	52	104	0	51	18979
2026-01-29 00:33:25.80	11.53	4.18	-40.0	-54.3	3.8	1.49e+00	0	53	104	0	51	18920
2026-01-29 00:33:26.82	11.49	4.25	-40.0	-54.3	3.8	1.49e+00	0	53	104	0	51	18912
2026-01-29 00:33:27.83	11.45	4.32	-40.1	-54.4	3.8	1.49e+00	0	53	104	0	51	18992
2026-01-29 00:33:28.83	11.41	4.39	-40.0	-54.4	3.8	1.49e+00	0	53	104	0	51	18983
2026-01-29 00:33:29.84	11.37	4.45	-40.0	-54.3	3.8	1.49e+00	0	53	104	0	51	18936
2026-01-29 00:33:30.85	11.33	4.52	-40.0	-54.3	3.8	1.49e+00	0	53	104	0	51	18914
2026-01-29 00:33:31.86	11.29	4.59	-40.0	-54.3	3.8	1.49e+00	0	53	104	0	51	18896
2026-01-29 00:33:32.87	11.24	4.66	-40.0	-54.3	3.8	1.49e+00	0	53	104	0	51	18911
2026-01-29 00:33:33.88	11.20	4.72	-40.0	-54.3	3.8	1.49e+00	0	53	104	0	51	18866
2026-01-29 00:33:34.89	11.16	4.79	-40.0	-54.3	3.8	1.49e+00	0	53	104	0	51	18896
2026-01-29 00:33:35.90	11.12	4.86	-40.0	-54.3	3.8	1.49e+00	0	53	104	0	51	18909
2026-01-29 00:33:36.91	11.08	4.93	-40.0	-54.3	3.8	1.49e+00	0	53	104	0	51	18869
2026-01-29 00:33:37.92	11.04	5.00	-40.0	-54.3	3.8	1.49e+00	0	53	104	0	51	18893
2026-01-29 00:33:38.94	10.99	5.07	-40.0	-54.3	3.8	1.49e+00	0	53	104	0	51	18918
2026-01-29 00:33:39.95	10.95	5.14	-40.0	-54.3	3.8	1.49e+00	0	53	104	0	51	18833
2026-01-29 00:33:40.96	10.91	5.21	-40.0	-54.3	3.8	1.49e+00	0	53	104	0	51	18846
2026-01-29 00:33:41.97	10.87	5.28	-40.0	-54.3	3.8	1.49e+00	0	53	104	0	51	18874
2026-01-29 00:33:42.98	10.82	5.35	-40.0	-54.3	3.8	1.49e+00	0	53	104	0	51	18938
2026-01-29 00:33:43.99	10.78	5.42	-40.0	-54.3	3.8	1.49e+00	0	53	104	0	51	18894
2026-01-29 00:33:45.00	10.74	5.49	-40.0	-54.3	3.8	1.49e+00	0	54	104	0	51	18873
2026-01-29 00:33:46.01	10.69	5.56	-40.0	-54.3	3.8	1.49e+00	0	54	104	0	51	18926
2026-01-29 00:33:47.02	10.65	5.63	-40.0	-54.4	3.8	1.49e+00	0	53	104	0	51	18950
2026-01-29 00:33:48.03	10.60	5.70	-40.0	-54.3	3.8	1.49e+00	0	53	104	0	51	18917
2026-01-29 00:33:49.04	10.56	5.77	-40.0	-54.3	3.8	1.49e+00	0	53	104	0	51	18897
2026-01-29 00:33:50.05	10.51	5.84	-40.0	-54.3	3.8	1.49e+00	0	54	104	0	51	18933
2026-01-29 00:33:51.06	10.47	5.91	-40.0	-54.3	3.8	1.49e+00	0	54	104	0	51	18929
2026-01-29 00:33:52.07	10.42	5.98	-40.0	-54.3	3.8	1.49e+00	0	54	104	0	51	18922
2026-01-29 00:33:53.08	10.38	6.05	-40.0	-54.4	3.8	1.49e+00	0	54	104	0	51	18971
2026-01-29 00:33:54.09	10.33	6.13	-40.0	-54.3	3.8	1.49e+00	0	54	104	0	51	18923
2026-01-29 00:33:55.10	10.29	6.20	-40.0	-54.3	3.8	1.49e+00	0	54	104	0	51	18921
2026-01-29 00:33:56.11	10.24	6.27	-40.0	-54.3	3.8	1.49e+00	0	54	104	0	51	18930
2026-01-29 00:33:57.12	10.19	6.34	-40.0	-54.4	3.8	1.49e+00	0	54	104	0	51	18963
2026-01-29 00:33:58.13	10.15	6.41	-40.0	-54.3	3.8	1.49e+00	0	54	104	0	51	18904
2026-01-29 00:33:59.14	10.10	6.49	-40.0	-54.4	3.8	1.49e+00	0	54	104	0	51	18968
2026-01-29 00:34:00.15	10.05	6.56	-40.0	-54.3	3.8	1.49e+00	0	54	104	0	51	18921
2026-01-29 00:34:01.16	10.01	6.63	-40.0	-54.4	3.8	1.49e+00	0	54	104	0	51	18989
2026-01-29 00:34:02.18	9.96	6.71	-40.0	-54.3	3.8	1.49e+00	0	54	104	0	51	18919
2026-01-29 00:34:03.18	9.91	6.78	-40.0	-54.4	3.8	1.49e+00	0	54	104	0	51	18974
2026-01-29 00:34:04.20	9.86	6.85	-40.0	-54.3	3.8	1.49e+00	0	54	104	0	51	18934
2026-01-29 00:34:05.21	9.81	6.93	-40.0	-54.4	3.8	1.49e+00	0	54	104	0	51	18969
2026-01-29 00:34:06.22	9.76	7.00	-40.0	-54.3	3.8	1.49e+00	0	54	104	0	51	18934
2026-01-29 00:34:07.23	9.71	7.07	-40.0	-54.4	3.8	1.49e+00	0	54	104	0	51	18954
2026-01-29 00:34:08.24	9.66	7.15	-40.0	-54.3	3.8	1.49e+00	0	54	104	0	51	18901
2026-01-29 00:34:09.25	9.61	7.22	-40.0	-54.3	3.8	1.49e+00	0	54	104	0	51	18944
2026-01-29 00:34:10.26	9.57	7.30	-40.0	-54.4	3.8	1.49e+00	0	54	104	0	51	19000
2026-01-29 00:34:11.27	9.51	7.37	-40.0	-54.4	3.8	1.49e+00	0	54	104	0	51	18955
2026-01-29 00:34:12.28	9.46	7.45	-40.0	-54.3	3.8	1.49e+00	0	55	104	0	51	18923
2026-01-29 00:34:13.29	9.41	7.52	-40.0	-54.3	3.8	1.49e+00	0	55	104	0	51	18933
2026-01-29 00:34:14.29	9.36	7.60	-40.0	-54.4	3.8	1.49e+00	0	55	104	0	51	18950
2026-01-29 00:34:15.30	9.31	7.67	-40.0	-54.3	3.8	1.49e+00	0	55	104	0	51	18905
2026-01-29 00:34:16.31	9.26	7.75	-40.0	-54.4	3.8	1.49e+00	0	55	104	0	51	18974
2026-01-29 00:34:17.33	9.21	7.83	-40.0	-54.4	3.8	1.49e+00	0	55	104	0	51	19033
2026-01-29 00:34:18.33	9.16	7.90	-40.0	-54.3	3.8	1.49e+00	0	54	104	0	51	18926
2026-01-29 00:34:19.35	9.10	7.98	-40.0	-54.3	3.8	1.49e+00	0	55	104	0	51	18921
2026-01-29 00:34:20.35	9.05	8.05	-40.0	-54.4	3.8	1.49e+00	0	55	104	0	51	19032
2026-01-29 00:34:21.37	9.00	8.13	-40.0	-54.4	3.8	1.49e+00	0	55	104	0	51	18986
2026-01-29 00:34:22.37	8.94	8.21	-40.1	-54.5	3.8	1.49e+00	0	55	104	0	51	19179
2026-01-29 00:34:23.38	8.89	8.29	-40.0	-54.4	3.8	1.49e+00	0	55	104	0	51	18956
2026-01-29 00:34:24.39	8.84	8.36	-40.1	-54.4	3.8	1.49e+00	0	55	104	0	51	19081
2026-01-29 00:34:25.40	8.78	8.44	-40.2	-54.5	3.8	1.49e+00	0	55	104	0	51	19377
2026-01-29 00:34:26.41	8.73	8.52	-40.1	-54.4	3.8	1.49e+00	0	55	104	0	51	19133
2026-01-29 00:34:27.42	8.67	8.60	-40.0	-54.4	3.8	1.49e+00	0	55	104	0	51	18991
2026-01-29 00:34:28.43	8.62	8.67	-40.0	-54.4	3.8	1.49e+00	0	55	104	0	51	18996
2026-01-29 00:34:29.44	8.56	8.75	-40.1	-54.5	3.8	1.49e+00	0	55	104	0	51	19237
2026-01-29 00:34:30.45	8.51	8.83	-40.0	-54.3	3.8	1.49e+00	0	55	104	0	51	18939
2026-01-29 00:34:31.46	8.45	8.91	-39.9	-54.3	3.8	1.49e+00	0	55	104	0	51	18776
2026-01-29 00:34:32.47	8.39	8.99	-40.0	-54.3	3.8	1.49e+00	0	55	104	0	51	18893
2026-01-29 00:34:33.48	8.34	9.07	-40.1	-54.4	3.8	1.49e+00	0	56	104	0	51	19103
2026-01-29 00:34:34.50	8.28	9.15	-40.0	-54.3	3.8	1.49e+00	0	55	104	0	51	18850
2026-01-29 00:34:35.51	8.22	9.23	-39.9	-54.3	3.8	1.49e+00	0	55	104	0	51	18763
2026-01-29 00:34:36.52	8.16	9.31	-40.0	-54.3	3.8	1.49e+00	0	55	104	0	51	18846
2026-01-29 00:34:37.53	8.10	9.39	-40.0	-54.4	3.8	1.49e+00	0	55	104	0	51	18952
2026-01-29 00:34:38.54	8.05	9.47	-39.9	-54.3	3.8	1.49e+00	0	55	104	0	51	18822
2026-01-29 00:34:39.54	7.99	9.55	-39.9	-54.3	3.8	1.49e+00	0	56	104	0	51	18771
2026-01-29 00:34:40.55	7.93	9.63	-40.0	-54.3	3.8	1.49e+00	0	55	104	0	51	18819
2026-01-29 00:34:41.57	7.87	9.71	-40.0	-54.4	3.8	1.49e+00	0	56	104	0	51	18957
2026-01-29 00:34:42.57	7.81	9.80	-40.0	-54.3	3.8	1.49e+00	0	55	104	0	51	18893
2026-01-29 00:34:43.58	7.75	9.88	-40.0	-54.4	3.8	1.49e+00	0	55	104	0	51	18950
2026-01-29 00:34:44.60	7.69	9.96	-40.0	-54.4	3.8	1.49e+00	0	56	104	0	51	18966
2026-01-29 00:34:45.61	7.63	10.04	-40.1	-54.4	3.8	1.49e+00	0	56	104	0	51	19164
2026-01-29 00:34:46.61	7.57	10.12	-40.0	-54.3	3.8	1.49e+00	0	56	104	0	51	18921
2026-01-29 00:34:47.62	7.50	10.21	-40.1	-54.4	3.8	1.49e+00	0	56	104	0	51	18990
2026-01-29 00:34:48.63	7.44	10.29	-40.0	-54.3	3.8	1.49e+00	0	56	104	0	51	18867
2026-01-29 00:34:49.64	7.38	10.37	-40.3	-54.5	3.8	1.49e+00	0	56	104	0	51	19327
2026-01-29 00:34:50.65	7.32	10.46	-40.0	-54.3	3.8	1.49e+00	0	56	104	0	51	18931
2026-01-29 00:34:51.67	7.25	10.54	-40.1	-54.4	3.8	1.49e+00	0	56	104	0	51	19082
2026-01-29 00:34:52.68	7.19	10.62	-39.9	-54.3	3.8	1.49e+00	0	56	104	0	51	18779
2026-01-29 00:34:53.68	7.13	10.71	-39.9	-54.3	3.8	1.49e+00	0	56	104	0	51	18795
2026-01-29 00:34:54.69	7.06	10.79	-39.9	-54.3	3.8	1.49e+00	0	56	104	0	51	18778
2026-01-29 00:34:55.70	7.00	10.88	-39.9	-54.3	3.8	1.49e+00	0	56	104	0	51	18741
2026-01-29 00:34:56.71	6.93	10.96	-40.2	-54.5	3.8	1.49e+00	0	56	104	0	51	19294
2026-01-29 00:34:57.72	6.86	11.05	-40.1	-54.4	3.8	1.49e+00	0	56	104	0	51	19088
2026-01-29 00:34:58.73	6.80	11.13	-40.9	-54.7	3.8	1.49e+00	0	56	104	0	52	18577
2026-01-29 00:34:59.74	6.73	11.22	-41.2	-54.1	3.8	1.49e+00	0	56	104	0	53	16358
2026-01-29 00:35:00.75	6.67	11.30	-40.3	-54.5	3.8	1.49e+00	0	56	104	0	52	18117
2026-01-29 00:35:01.76	6.60	11.39	-40.7	-53.7	3.8	1.49e+00	0	56	104	0	52	16505
2026-01-29 00:35:02.77	6.53	11.48	-40.9	-52.6	4.0	1.48e+00	0	56	104	0	52	14671
2026-01-29 00:35:03.78	6.46	11.56	-40.9	-52.5	3.9	1.44e+00	0	56	104	0	52	14440
2026-01-29 00:35:04.79	6.39	11.65	-40.9	-52.4	4.1	1.43e+00	0	56	0	0	52	14230
2026-01-29 00:35:05.80	6.32	11.74	-41.1	-51.6	4.4	1.38e+00	86	56	0	0	52	13086
2026-01-29 00:35:06.81	6.26	11.83	-41.1	-50.6	4.9	8.46e-01	0	56	0	2097152	52	11566
2026-01-29 00:35:07.82	6.19	11.91	-41.1	-49.4	5.8	5.10e-01	0	56	0	3145728	52	10159
2026-01-29 00:35:08.83	6.12	12.00	-41.9	-50.6	5.5	3.01e-01	0	56	0	5242880	54	10349
2026-01-29 00:35:09.84	6.04	12.09	-41.4	-48.6	7.0	2.54e-01	0	56	0	7340032	54	8179
2026-01-29 00:35:10.85	5.97	12.18	-40.8	-52.1	4.1	2.73e-01	0	56	0	9437184	53	13096
2026-01-29 00:35:11.86	5.90	12.27	-42.3	-50.7	5.9	1.16e+00	0	56	0	9437184	55	9928
2026-01-29 00:35:12.87	5.83	12.36	-40.0	-47.0	7.3	3.83e-02	0	56	0	11534336	52	7644
2026-01-29 00:35:13.88	5.76	12.45	-39.9	-44.5	10.6	4.93e-02	0	56	0	13631488	51	6124
2026-01-29 00:35:14.89	5.68	12.54	-39.8	-44.2	11.2	1.95e-03	0	57	0	14680064	51	5877
2026-01-29 00:35:15.90	5.61	12.63	-40.0	-44.4	11.2	1.04e-03	0	56	0	16777216	51	6026
2026-01-29 00:35:16.91	5.54	12.72	-40.2	-44.6	11.1	1.25e-03	0	56	0	18874368	51	6181
2026-01-29 00:35:17.92	5.46	12.81	-40.2	-44.5	11.2	1.43e-03	0	56	0	20971520	51	6130
2026-01-29 00:35:18.93	5.39	12.90	-40.2	-44.6	11.1	1.44e-03	0	56	0	23068672	51	6182
2026-01-29 00:35:19.94	5.31	12.99	-40.3	-44.7	11.2	1.34e-03	0	56	0	24117248	51	6237
2026-01-29 00:35:20.95	5.24	13.08	-40.4	-45.0	11.0	2.00e-03	0	56	0	26214400	51	6440
2026-01-29 00:35:21.96	5.16	13.17	-40.4	-44.8	11.2	2.52e-03	0	57	0	28311552	51	6280
2026-01-29 00:35:22.97	5.08	13.26	-40.4	-44.6	11.6	8.86e-04	0	57	0	30408704	51	6159
2026-01-29 00:35:23.98	5.00	13.36	-40.3	-44.5	11.6	6.00e-04	0	57	0	32505856	51	6110
2026-01-29 00:35:24.99	4.93	13.45	-40.4	-44.5	11.8	7.04e-04	0	56	0	33554432	51	6083
2026-01-29 00:35:26.00	4.85	13.54	-40.2	-44.1	12.2	2.25e-04	0	57	0	35651584	51	5814
2026-01-29 00:35:27.01	4.77	13.64	-40.2	-44.1	12.2	1.85e-04	0	57	0	37748736	51	5836
2026-01-29 00:35:28.02	4.69	13.73	-40.3	-44.1	12.3	2.01e-04	0	57	0	39845888	51	5817
2026-01-29 00:35:29.03	4.61	13.82	-40.3	-44.2	12.3	1.81e-04	0	57	0	41943040	51	5894
2026-01-29 00:35:30.04	4.53	13.92	-40.5	-44.5	12.0	2.66e-04	0	56	0	42991616	51	6130
2026-01-29 00:35:31.05	4.45	14.01	-40.6	-44.6	12.0	3.44e-04	0	57	0	45088768	51	6171
2026-01-29 00:35:32.06	4.37	14.11	-40.7	-44.8	11.8	3.98e-04	0	56	0	47185920	51	6280
2026-01-29 00:35:33.07	4.28	14.20	-40.7	-44.9	11.7	4.53e-04	0	57	0	49283072	52	6034
2026-01-29 00:35:34.08	4.20	14.30	-40.8	-45.0	11.6	6.22e-04	0	57	0	51380224	52	6100
2026-01-29 00:35:35.09	4.12	14.39	-40.7	-44.8	11.9	5.21e-04	0	57	0	53477376	52	5946
2026-01-29 00:35:36.11	4.03	14.49	-40.6	-44.5	12.2	2.71e-04	0	57	0	54525952	52	5768
2026-01-29 00:35:37.11	3.95	14.59	-40.6	-44.4	12.5	1.68e-04	0	57	0	56623104	52	5679
2026-01-29 00:35:38.12	3.86	14.68	-40.6	-44.3	12.7	8.46e-05	0	57	0	58720256	52	5611
2026-01-29 00:35:39.13	3.78	14.78	-40.7	-44.4	12.6	6.56e-05	0	57	0	60817408	52	5660
2026-01-29 00:35:40.14	3.69	14.88	-40.9	-44.8	12.3	1.23e-04	0	57	0	62914560	52	5924
2026-01-29 00:35:41.15	3.61	14.97	-40.9	-44.8	12.3	1.69e-04	0	57	0	63963136	52	5925
2026-01-29 00:35:42.16	3.52	15.07	-40.8	-44.5	12.7	1.01e-04	0	57	0	66060288	52	5731
2026-01-29 00:35:43.17	3.43	15.17	-40.8	-44.4	12.9	3.73e-05	0	57	0	68157440	52	5687
2026-01-29 00:35:44.18	3.34	15.27	-41.0	-44.8	12.6	5.87e-05	0	57	0	70254592	52	5930
2026-01-29 00:35:45.19	3.25	15.37	-41.0	-44.8	12.5	9.99e-05	0	57	0	72351744	52	5966
2026-01-29 00:35:46.20	3.16	15.47	-40.9	-44.5	12.9	4.88e-05	0	57	0	73400320	52	5757
2026-01-29 00:35:47.22	3.07	15.57	-41.0	-44.7	12.7	5.03e-05	0	57	0	75497472	52	5879
2026-01-29 00:35:48.22	2.98	15.67	-41.1	-44.8	12.7	7.55e-05	0	57	0	77594624	52	5980
2026-01-29 00:35:49.23	2.89	15.77	-41.0	-44.7	12.8	6.71e-05	0	57	0	79691776	52	5884
2026-01-29 00:35:50.24	2.80	15.87	-41.0	-44.7	12.8	6.48e-05	0	57	0	81788928	52	5881
2026-01-29 00:35:51.26	2.70	15.97	-41.1	-44.8	12.7	5.95e-05	0	57	0	82837504	52	5979
2026-01-29 00:35:52.27	2.61	16.07	-41.1	-44.8	12.8	7.17e-05	0	57	0	84934656	52	5926
2026-01-29 00:35:53.28	2.52	16.17	-41.2	-44.9	12.7	6.40e-05	0	57	0	87031808	52	5997
2026-01-29 00:35:54.29	2.42	16.27	-41.2	-44.8	12.8	7.09e-05	0	57	0	89128960	52	5978
2026-01-29 00:35:55.30	2.32	16.38	-41.1	-44.7	12.9	4.65e-05	0	57	0	91226112	52	5896
2026-01-29 00:35:56.31	2.23	16.48	-41.1	-44.7	12.9	5.03e-05	0	57	0	92274688	52	5901
2026-01-29 00:35:57.32	2.13	16.58	-41.2	-44.8	12.9	5.41e-05	0	57	0	94371840	52	5954
2026-01-29 00:35:58.33	2.03	16.69	-41.2	-44.8	12.8	7.70e-05	0	57	0	96468992	53	5652
2026-01-29 00:35:59.34	1.94	16.79	-41.2	-44.9	12.9	3.73e-05	0	57	0	98566144	53	5658
2026-01-29 00:36:00.35	1.84	16.89	-41.3	-44.9	12.8	5.34e-05	0	57	0	100663296	53	5703
2026-01-29 00:36:01.36	1.74	17.00	-41.3	-44.9	12.8	6.40e-05	0	57	0	101711872	53	5695
2026-01-29 00:36:02.37	1.64	17.10	-41.3	-45.0	12.6	7.55e-05	0	57	0	103809024	53	5788
2026-01-29 00:36:03.37	1.54	17.21	-41.4	-45.1	12.6	9.68e-05	0	57	0	105906176	53	5832
2026-01-29 00:36:04.38	1.43	17.31	-41.4	-45.2	12.5	1.10e-04	0	57	0	108003328	53	5915
2026-01-29 00:36:05.39	1.33	17.42	-41.4	-45.2	12.5	1.21e-04	0	57	0	110100480	53	5873
2026-01-29 00:36:06.40	1.23	17.52	-41.4	-45.1	12.6	1.03e-04	0	57	0	111149056	53	5844
2026-01-29 00:36:07.41	1.12	17.63	-41.4	-45.2	12.5	1.27e-04	0	57	0	113246208	53	5899
2026-01-29 00:36:08.42	1.02	17.74	-41.5	-45.3	12.4	1.31e-04	0	57	0	115343360	53	5986
2026-01-29 00:36:09.43	0.91	17.85	-41.5	-45.3	12.4	1.45e-04	0	57	0	117440512	53	5967
2026-01-29 00:36:10.44	0.81	17.95	-41.5	-45.3	12.4	1.30e-04	0	57	0	119537664	53	5988
2026-01-29 00:36:11.45	0.70	18.06	-41.5	-45.3	12.4	1.57e-04	0	57	0	121634816	53	5991
2026-01-29 00:36:12.46	0.59	18.17	-41.5	-45.3	12.4	1.45e-04	0	57	0	122683392	53	5933
2026-01-29 00:36:13.47	0.48	18.28	-41.5	-45.4	12.3	1.51e-04	0	57	0	124780544	53	6024
2026-01-29 00:36:14.48	0.37	18.39	-41.5	-45.4	12.3	1.57e-04	0	57	0	126877696	53	6017
2026-01-29 00:36:15.50	0.26	18.50	-41.5	-45.3	12.4	1.65e-04	0	57	0	128974848	53	5959
2026-01-29 00:36:16.51	0.15	18.61	-41.5	-45.3	12.4	1.55e-04	0	57	0	131072000	53	5987
2026-01-29 00:36:17.52	0.04	18.72	-41.5	-45.4	12.4	1.18e-04	0	57	0	132120576	53	6025
2026-01-29 00:36:18.53	359.92	18.83	-41.4	-45.2	12.5	1.28e-04	0	57	0	134217728	53	5878
2026-01-29 00:36:19.54	359.81	18.94	-41.5	-45.2	12.5	1.26e-04	0	58	0	136314880	53	5923
2026-01-29 00:36:20.54	359.70	19.05	-41.5	-45.4	12.4	1.26e-04	0	57	0	138412032	53	5999
2026-01-29 00:36:21.56	359.58	19.16	-41.5	-45.3	12.5	1.31e-04	0	57	0	140509184	53	5937
2026-01-29 00:36:22.57	359.46	19.28	-41.5	-45.3	12.5	1.08e-04	0	58	0	141557760	53	5956
2026-01-29 00:36:23.58	359.34	19.39	-41.5	-45.4	12.4	1.54e-04	0	57	0	143654912	53	6004
2026-01-29 00:36:24.58	359.23	19.50	-41.5	-45.3	12.4	1.45e-04	0	57	0	145752064	53	5979
2026-01-29 00:36:25.60	359.11	19.61	-41.5	-45.3	12.4	1.30e-04	0	57	0	147849216	53	5984
2026-01-29 00:36:26.61	358.99	19.73	-41.6	-45.5	12.3	1.76e-04	0	58	0	149946368	53	6074
2026-01-29 00:36:27.62	358.87	19.84	-41.5	-45.4	12.3	1.93e-04	0	57	0	150994944	53	6003
2026-01-29 00:36:28.63	358.74	19.96	-41.5	-45.4	12.3	2.10e-04	0	57	0	153092096	53	6015
2026-01-29 00:36:29.64	358.62	20.07	-41.6	-45.5	12.1	1.66e-04	0	57	0	155189248	53	6131
2026-01-29 00:36:30.65	358.50	20.19	-41.5	-45.4	12.3	2.48e-04	0	57	0	157286400	53	6020
2026-01-29 00:36:31.66	358.37	20.30	-41.5	-45.4	12.2	2.33e-04	0	57	0	159383552	53	6061
2026-01-29 00:36:32.67	358.25	20.42	-41.5	-45.4	12.1	2.40e-04	0	57	0	160432128	53	6058
2026-01-29 00:36:33.68	358.12	20.54	-41.5	-45.4	12.2	1.95e-04	0	57	0	162529280	53	6057
2026-01-29 00:36:34.69	357.99	20.65	-41.5	-45.5	12.1	2.72e-04	0	57	0	164626432	53	6097
2026-01-29 00:36:35.70	357.86	20.77	-41.5	-45.5	12.0	3.51e-04	0	58	0	166723584	53	6126
2026-01-29 00:36:36.71	357.73	20.89	-41.5	-45.6	11.9	2.75e-04	0	58	0	168820736	53	6152
2026-01-29 00:36:37.72	357.60	21.00	-41.5	-45.6	11.9	3.14e-04	0	58	0	169869312	53	6172
2026-01-29 00:36:38.73	357.47	21.12	-41.5	-45.6	11.9	3.48e-04	0	58	0	171966464	53	6168
2026-01-29 00:36:39.74	357.34	21.24	-41.6	-45.6	11.9	4.10e-04	0	58	0	174063616	53	6199
2026-01-29 00:36:40.75	357.20	21.36	-41.5	-45.5	12.0	4.00e-04	0	57	0	176160768	53	6105
2026-01-29 00:36:41.76	357.07	21.48	-41.5	-45.6	11.9	3.36e-04	0	58	0	178257920	53	6147
2026-01-29 00:36:42.77	356.93	21.60	-41.5	-45.6	12.0	3.38e-04	0	58	0	179306496	53	6137
2026-01-29 00:36:43.78	356.79	21.72	-41.5	-45.6	11.9	3.56e-04	0	58	0	181403648	53	6143
2026-01-29 00:36:44.78	356.66	21.84	-41.6	-45.6	12.0	3.41e-04	0	58	0	183500800	53	6151
2026-01-29 00:36:45.80	356.52	21.96	-41.7	-45.8	11.8	3.58e-04	0	58	0	185597952	53	6290
2026-01-29 00:36:46.80	356.38	22.08	-41.5	-45.5	12.1	3.32e-04	0	57	0	187695104	53	6095
2026-01-29 00:36:47.81	356.24	22.21	-41.5	-45.4	12.3	2.05e-04	0	57	0	189792256	53	6006
2026-01-29 00:36:48.82	356.09	22.33	-41.5	-45.3	12.3	2.17e-04	0	58	0	190840832	53	5986
2026-01-29 00:36:49.83	355.95	22.45	-41.6	-45.5	12.2	2.03e-04	0	57	0	192937984	53	6107
2026-01-29 00:36:50.84	355.80	22.57	-41.6	-45.7	12.1	2.76e-04	0	58	0	195035136	53	6219
2026-01-29 00:36:51.85	355.66	22.70	-41.6	-45.7	12.0	3.23e-04	0	58	0	197132288	53	6203
2026-01-29 00:36:52.86	355.51	22.82	-41.6	-45.5	12.3	2.53e-04	0	58	0	199229440	53	6070
2026-01-29 00:36:53.87	355.36	22.95	-41.6	-45.5	12.2	2.11e-04	0	58	0	200278016	53	6105
2026-01-29 00:36:54.88	355.21	23.07	-41.6	-45.6	12.2	2.29e-04	0	58	0	202375168	53	6137
2026-01-29 00:36:55.89	355.06	23.19	-41.5	-45.4	12.3	1.96e-04	0	58	0	204472320	53	6013
2026-01-29 00:36:56.90	354.91	23.32	-41.6	-45.4	12.4	1.21e-04	0	58	0	206569472	53	6014
2026-01-29 00:36:57.91	354.75	23.45	-41.5	-45.2	12.6	9.91e-05	0	58	0	208666624	53	5898
2026-01-29 00:36:58.92	354.60	23.57	-41.5	-45.3	12.4	1.01e-04	0	58	0	209715200	53	5981
2026-01-29 00:36:59.93	354.44	23.70	-41.6	-45.3	12.4	1.34e-04	0	58	0	211812352	53	5990
2026-01-29 00:37:00.92	354.29	23.82	-41.6	-45.5	12.3	1.82e-04	0	58	0	213909504	53	6101
2026-01-29 00:37:01.93	354.13	23.95	-41.7	-45.6	12.3	1.47e-04	0	58	0	216006656	53	6137
2026-01-29 00:37:02.94	353.97	24.08	-41.7	-45.5	12.3	1.69e-04	0	58	0	218103808	53	6118
2026-01-29 00:37:03.95	353.81	24.21	-41.7	-45.6	12.3	2.03e-04	0	57	0	219152384	54	5813
2026-01-29 00:37:04.96	353.65	24.34	-41.7	-45.6	12.4	1.73e-04	0	58	0	221249536	54	5801
2026-01-29 00:37:05.97	353.48	24.46	-41.7	-45.6	12.4	1.59e-04	0	58	0	223346688	54	5792
2026-01-29 00:37:06.98	353.32	24.59	-41.7	-45.5	12.4	1.43e-04	0	58	0	225443840	54	5777
2026-01-29 00:37:07.99	353.15	24.72	-41.7	-45.5	12.4	1.40e-04	0	58	0	227540992	54	5784
2026-01-29 00:37:09.00	352.98	24.85	-41.7	-45.6	12.4	1.81e-04	0	58	0	228589568	54	5805
2026-01-29 00:37:10.01	352.81	24.98	-41.7	-45.5	12.5	1.18e-04	0	58	0	230686720	54	5724
2026-01-29 00:37:11.02	352.64	25.11	-41.7	-45.4	12.5	9.00e-05	0	58	0	232783872	54	5715
2026-01-29 00:37:12.03	352.47	25.25	-41.6	-45.4	12.6	9.84e-05	0	58	0	234881024	54	5660
2026-01-29 00:37:13.04	352.29	25.38	-41.6	-45.4	12.6	9.91e-05	0	58	0	236978176	54	5679
2026-01-29 00:37:14.05	352.12	25.51	-41.7	-45.4	12.6	9.99e-05	0	58	0	238026752	54	5704
2026-01-29 00:37:15.06	351.94	25.64	-41.7	-45.4	12.6	9.91e-05	0	58	0	240123904	54	5689
2026-01-29 00:37:16.07	351.76	25.77	-41.7	-45.4	12.7	9.07e-05	0	58	0	242221056	54	5681
2026-01-29 00:37:17.08	351.58	25.91	-41.7	-45.4	12.6	1.09e-04	0	58	0	244318208	54	5709
2026-01-29 00:37:18.09	351.40	26.04	-41.7	-45.4	12.7	9.07e-05	0	58	0	246415360	54	5665
2026-01-29 00:37:19.10	351.22	26.17	-41.7	-45.4	12.7	1.09e-04	0	58	0	247463936	54	5687
2026-01-29 00:37:20.11	351.03	26.31	-41.7	-45.5	12.5	1.01e-04	0	58	0	249561088	54	5735
2026-01-29 00:37:21.12	350.84	26.44	-41.8	-45.5	12.4	1.56e-04	0	58	0	251658240	54	5783
2026-01-29 00:37:22.13	350.66	26.58	-41.8	-45.6	12.5	1.40e-04	0	58	0	253755392	54	5828
2026-01-29 00:37:23.14	350.47	26.71	-41.7	-45.5	12.6	1.28e-04	0	58	0	255852544	54	5750
2026-01-29 00:37:24.15	350.27	26.85	-41.7	-45.4	12.6	1.03e-04	0	58	0	257949696	54	5717
2026-01-29 00:37:25.16	350.08	26.98	-41.7	-45.4	12.6	9.53e-05	0	58	0	258998272	54	5700
2026-01-29 00:37:26.17	349.89	27.12	-41.8	-45.6	12.5	1.20e-04	0	58	0	261095424	54	5801
2026-01-29 00:37:27.18	349.69	27.25	-41.8	-45.6	12.5	1.01e-04	0	58	0	263192576	54	5833
2026-01-29 00:37:28.19	349.49	27.39	-41.8	-45.6	12.5	1.17e-04	0	58	0	265289728	54	5819
2026-01-29 00:37:29.20	349.29	27.53	-41.9	-45.7	12.4	1.04e-04	0	58	0	267386880	54	5864
2026-01-29 00:37:30.21	349.09	27.66	-41.9	-45.7	12.4	1.24e-04	0	58	0	268435456	54	5884
2026-01-29 00:37:31.22	348.89	27.80	-42.0	-45.9	12.3	1.64e-04	0	58	0	270532608	54	5999
2026-01-29 00:37:32.23	348.68	27.94	-42.0	-46.0	12.1	2.50e-04	0	58	0	272629760	54	6073
2026-01-29 00:37:33.24	348.48	28.08	-42.1	-46.1	12.0	3.83e-04	0	58	0	274726912	54	6197
2026-01-29 00:37:34.25	348.27	28.22	-42.1	-46.2	12.0	3.91e-04	0	58	0	276824064	54	6212
2026-01-29 00:37:35.26	348.06	28.35	-42.2	-46.3	11.8	3.92e-04	0	58	0	277872640	54	6343
2026-01-29 00:37:36.27	347.84	28.49	-42.2	-46.4	11.7	5.72e-04	0	58	0	279969792	55	6024
2026-01-29 00:37:37.28	347.63	28.63	-42.4	-46.7	11.4	7.71e-04	0	58	0	282066944	55	6241
2026-01-29 00:37:38.29	347.41	28.77	-42.4	-46.9	11.2	1.09e-03	0	58	0	284164096	55	6361
2026-01-29 00:37:39.30	347.20	28.91	-42.5	-47.0	11.0	1.62e-03	0	58	0	286261248	55	6464
2026-01-29 00:37:40.31	346.98	29.05	-42.5	-47.1	11.0	1.69e-03	0	58	0	287309824	55	6497
2026-01-29 00:37:41.33	346.75	29.19	-42.5	-47.1	10.9	2.00e-03	0	58	0	289406976	55	6556
2026-01-29 00:37:42.33	346.53	29.33	-42.7	-47.6	10.5	3.50e-03	0	58	0	291504128	55	6909
2026-01-29 00:37:43.34	346.30	29.47	-42.9	-47.8	10.4	4.02e-03	0	58	0	293601280	56	6672
2026-01-29 00:37:44.35	346.08	29.61	-43.0	-48.2	10.0	5.52e-03	0	58	0	295698432	56	7001
2026-01-29 00:37:45.36	345.85	29.75	-43.1	-48.3	9.8	9.14e-03	0	58	0	296747008	56	7075
2026-01-29 00:37:46.37	345.61	29.89	-43.1	-48.4	9.7	9.38e-03	0	58	0	298844160	56	7182
2026-01-29 00:37:47.38	345.38	30.03	-43.3	-48.8	9.4	1.35e-02	0	58	0	300941312	57	7064
2026-01-29 00:37:48.39	345.14	30.17	-43.4	-49.0	9.2	2.19e-02	0	58	0	303038464	57	7237
2026-01-29 00:37:49.40	344.90	30.32	-43.4	-49.3	8.9	2.74e-02	0	58	0	305135616	57	7461
2026-01-29 00:37:50.41	344.66	30.46	-43.4	-49.1	9.0	3.32e-02	0	58	0	306184192	57	7327
2026-01-29 00:37:51.42	344.42	30.60	-43.4	-49.1	9.0	2.50e-02	0	58	0	308281344	57	7355
2026-01-29 00:37:52.43	344.18	30.74	-43.4	-49.2	8.9	2.47e-02	0	58	0	310378496	57	7438
2026-01-29 00:37:53.44	343.93	30.88	-43.3	-49.0	9.1	2.33e-02	0	58	0	312475648	57	7276
2026-01-29 00:37:54.45	343.68	31.02	-43.3	-48.9	9.2	2.11e-02	0	58	0	314572800	57	7199
2026-01-29 00:37:55.46	343.43	31.17	-43.2	-48.7	9.4	2.00e-02	0	58	0	315621376	57	7006
2026-01-29 00:37:56.47	343.18	31.31	-43.2	-48.7	9.5	1.45e-02	0	58	0	317718528	57	6987
2026-01-29 00:37:57.48	342.92	31.45	-43.2	-48.5	9.6	1.44e-02	0	58	0	319815680	57	6860
2026-01-29 00:37:58.49	342.66	31.59	-43.2	-48.5	9.7	1.05e-02	0	58	0	321912832	57	6844
2026-01-29 00:37:59.50	342.40	31.73	-43.2	-48.6	9.6	1.34e-02	0	58	0	324009984	57	6887
2026-01-29 00:38:00.51	342.14	31.88	-43.2	-48.6	9.6	1.30e-02	0	58	0	326107136	57	6913
2026-01-29 00:38:01.52	341.87	32.02	-43.2	-48.5	9.8	1.00e-02	0	58	0	327155712	57	6842
2026-01-29 00:38:02.53	341.61	32.16	-43.2	-48.4	9.9	9.09e-03	0	58	0	329252864	57	6746
2026-01-29 00:38:03.54	341.34	32.30	-43.1	-48.3	10.0	7.64e-03	0	58	0	331350016	57	6660
2026-01-29 00:38:04.55	341.06	32.44	-43.2	-48.6	9.6	1.25e-02	0	58	0	333447168	57	6913
2026-01-29 00:38:05.56	340.79	32.58	-43.3	-48.8	9.4	1.57e-02	0	58	0	335544320	57	7075
2026-01-29 00:38:06.57	340.51	32.73	-43.4	-49.0	9.2	1.93e-02	0	58	0	336592896	57	7224
2026-01-29 00:38:07.58	340.23	32.87	-43.4	-49.0	9.2	2.05e-02	0	58	0	338690048	57	7250
2026-01-29 00:38:08.59	339.95	33.01	-43.3	-48.8	9.4	1.52e-02	0	58	0	340787200	57	7084
2026-01-29 00:38:09.60	339.67	33.15	-43.2	-48.5	9.8	1.18e-02	0	58	0	342884352	57	6842
2026-01-29 00:38:10.61	339.38	33.29	-43.2	-48.3	9.9	9.27e-03	0	58	0	344981504	57	6717
2026-01-29 00:38:11.62	339.09	33.43	-43.1	-48.3	10.0	8.48e-03	0	58	0	346030080	57	6656
2026-01-29 00:38:12.63	338.80	33.57	-43.1	-48.3	10.0	6.62e-03	0	58	0	348127232	57	6669
2026-01-29 00:38:13.65	338.50	33.72	-43.0	-47.9	10.3	6.00e-03	0	58	0	350224384	57	6407
2026-01-29 00:38:14.66	338.20	33.86	-42.9	-47.8	10.5	3.82e-03	0	58	0	352321536	57	6286
2026-01-29 00:38:15.67	337.90	34.00	-42.9	-47.6	10.7	2.96e-03	0	58	0	354418688	57	6170
2026-01-29 00:38:16.68	337.60	34.14	-42.9	-47.6	10.7	3.13e-03	0	58	0	355467264	57	6194
2026-01-29 00:38:17.69	337.30	34.28	-42.8	-47.4	10.9	2.21e-03	0	58	0	357564416	57	6057
2026-01-29 00:38:18.70	336.99	34.42	-42.8	-47.3	11.0	1.99e-03	0	58	0	359661568	57	5962
2026-01-29 00:38:19.71	336.68	34.56	-42.7	-47.1	11.2	1.58e-03	0	58	0	361758720	57	5822
2026-01-29 00:38:20.72	336.36	34.69	-42.6	-46.9	11.4	1.25e-03	0	58	0	363855872	57	5698
2026-01-29 00:38:21.73	336.05	34.83	-42.5	-46.7	11.7	6.67e-04	0	58	0	364904448	57	5542
2026-01-29 00:38:22.74	335.73	34.97	-42.4	-46.5	11.9	4.13e-04	0	59	0	367001600	56	5752
2026-01-29 00:38:23.75	335.41	35.11	-42.4	-46.5	12.0	4.29e-04	0	58	0	369098752	56	5741
2026-01-29 00:38:24.76	335.08	35.24	-42.4	-46.4	12.1	2.87e-04	0	58	0	371195904	56	5674
2026-01-29 00:38:25.77	334.76	35.38	-42.4	-46.4	12.0	3.35e-04	0	58	0	373293056	56	5692
2026-01-29 00:38:26.78	334.43	35.52	-42.4	-46.5	11.9	3.30e-04	0	58	0	375390208	56	5773
2026-01-29 00:38:27.79	334.10	35.65	-42.5	-46.7	11.7	4.71e-04	0	58	0	376438784	56	5888
2026-01-29 00:38:28.80	333.76	35.79	-42.5	-46.7	11.7	4.80e-04	0	58	0	378535936	56	5906
2026-01-29 00:38:29.81	333.42	35.92	-42.6	-46.8	11.6	5.80e-04	0	58	0	380633088	56	5953
2026-01-29 00:38:30.82	333.08	36.06	-42.6	-46.7	11.7	6.52e-04	0	58	0	382730240	56	5919
2026-01-29 00:38:31.83	332.74	36.19	-42.6	-46.9	11.6	6.77e-04	0	59	0	384827392	56	5996
2026-01-29 00:38:32.83	332.39	36.32	-42.6	-47.0	11.5	9.11e-04	0	59	0	385875968	56	6068
2026-01-29 00:38:33.84	332.05	36.45	-42.7	-47.0	11.5	7.68e-04	0	58	0	387973120	56	6076
2026-01-29 00:38:34.85	331.69	36.58	-42.6	-47.0	11.5	1.02e-03	0	58	0	390070272	56	6071
2026-01-29 00:38:35.86	331.34	36.72	-42.7	-47.1	11.2	1.04e-03	0	59	0	392167424	56	6195
2026-01-29 00:38:36.87	330.98	36.85	-42.8	-47.2	11.2	1.51e-03	0	58	0	394264576	56	6232
2026-01-29 00:38:37.88	330.62	36.97	-42.8	-47.3	11.1	1.74e-03	0	58	0	395313152	56	6289
2026-01-29 00:38:38.89	330.26	37.10	-42.7	-47.1	11.3	1.09e-03	0	58	0	397410304	56	6182
2026-01-29 00:38:39.90	329.89	37.23	-42.7	-47.1	11.4	1.12e-03	0	58	0	399507456	56	6156
2026-01-29 00:38:40.91	329.52	37.36	-42.6	-47.0	11.5	7.77e-04	0	58	0	401604608	56	6065
2026-01-29 00:38:41.92	329.15	37.48	-42.7	-47.1	11.3	1.04e-03	0	58	0	403701760	56	6197
2026-01-29 00:38:42.93	328.77	37.61	-42.9	-47.5	10.9	1.41e-03	0	58	0	404750336	56	6494
2026-01-29 00:38:43.94	328.39	37.73	-43.0	-47.8	10.6	3.49e-03	0	58	0	406847488	56	6665
2026-01-29 00:38:44.95	328.01	37.85	-43.1	-48.0	10.4	3.60e-03	0	58	0	408944640	56	6834
2026-01-29 00:38:45.96	327.63	37.98	-43.1	-47.9	10.5	4.42e-03	0	59	0	411041792	56	6792
2026-01-29 00:38:46.97	327.24	38.10	-43.0	-47.8	10.6	3.43e-03	0	59	0	413138944	56	6653
2026-01-29 00:38:47.98	326.85	38.22	-42.9	-47.5	10.8	3.14e-03	0	59	0	414187520	56	6488
2026-01-29 00:38:48.99	326.46	38.33	-42.9	-47.6	10.8	2.56e-03	0	58	0	416284672	56	6514
2026-01-29 00:38:50.01	326.06	38.45	-43.0	-47.7	10.7	2.80e-03	0	58	0	418381824	56	6629
2026-01-29 00:38:51.01	325.67	38.57	-43.0	-47.8	10.5	3.50e-03	0	58	0	420478976	56	6694
2026-01-29 00:38:52.02	325.27	38.68	-43.0	-47.7	10.7	3.05e-03	0	58	0	422576128	56	6593
2026-01-29 00:38:53.03	324.86	38.80	-42.9	-47.4	11.0	2.32e-03	0	58	0	423624704	56	6420
2026-01-29 00:38:54.04	324.45	38.91	-42.8	-47.4	11.1	1.76e-03	0	58	0	425721856	56	6350
2026-01-29 00:38:55.05	324.04	39.02	-42.8	-47.3	11.1	1.82e-03	0	59	0	427819008	56	6341
2026-01-29 00:38:56.06	323.63	39.13	-42.8	-47.2	11.2	1.40e-03	0	58	0	429916160	56	6259
2026-01-29 00:38:57.07	323.22	39.24	-42.7	-47.1	11.4	1.05e-03	0	58	0	432013312	56	6184
2026-01-29 00:38:58.09	322.79	39.35	-42.4	-46.4	12.1	4.90e-04	0	58	0	434110464	56	5668
2026-01-29 00:38:59.10	322.37	39.45	-42.2	-46.0	12.6	1.74e-04	0	58	0	435159040	56	5415
2026-01-29 00:39:00.11	321.95	39.56	-42.0	-45.6	12.9	4.88e-05	0	58	0	437256192	56	5203
2026-01-29 00:39:01.11	321.53	39.66	-42.0	-45.6	12.8	5.03e-05	0	58	0	439353344	56	5212
2026-01-29 00:39:02.12	321.10	39.76	-42.0	-45.7	12.9	5.72e-05	0	59	0	441450496	56	5230
2026-01-29 00:39:03.13	320.67	39.86	-42.0	-45.6	13.0	4.80e-05	0	58	0	443547648	56	5168
2026-01-29 00:39:04.14	320.23	39.96	-41.8	-45.3	13.1	3.28e-05	0	58	0	444596224	55	5282
2026-01-29 00:39:05.15	319.79	40.06	-41.6	-45.0	13.3	2.13e-05	0	58	0	446693376	55	5130
2026-01-29 00:39:06.17	319.35	40.15	-41.6	-45.0	13.4	1.44e-05	0	58	0	448790528	55	5113
2026-01-29 00:39:07.18	318.91	40.25	-41.5	-44.9	13.5	1.37e-05	0	59	0	450887680	55	5063
2026-01-29 00:39:08.19	318.46	40.34	-41.6	-45.1	13.3	2.05e-05	0	59	0	452984832	55	5161
2026-01-29 00:39:09.20	318.02	40.43	-41.8	-45.3	13.1	1.67e-05	0	58	0	454033408	55	5304
2026-01-29 00:39:10.21	317.57	40.52	-42.0	-45.7	12.7	6.40e-05	0	58	0	456130560	55	5544
2026-01-29 00:39:11.22	317.11	40.60	-42.1	-45.9	12.5	1.15e-04	0	58	0	458227712	55	5681
2026-01-29 00:39:12.23	316.66	40.69	-42.1	-46.0	12.3	1.41e-04	0	59	0	460324864	55	5759
2026-01-29 00:39:13.24	316.20	40.77	-42.1	-46.0	12.3	1.74e-04	0	58	0	462422016	55	5776
2026-01-29 00:39:14.25	315.74	40.85	-42.0	-45.8	12.6	1.70e-04	0	58	0	463470592	55	5627
2026-01-29 00:39:15.26	315.28	40.93	-41.9	-45.5	12.8	8.23e-05	0	58	0	465567744	55	5452
2026-01-29 00:39:16.27	314.81	41.01	-41.7	-45.2	13.2	2.28e-05	0	58	0	467664896	55	5249
2026-01-29 00:39:17.28	314.35	41.08	-41.6	-44.9	13.4	1.44e-05	0	59	0	469762048	55	5092
2026-01-29 00:39:18.29	313.88	41.15	-41.5	-44.9	13.5	1.60e-05	0	59	0	471859200	55	5047
2026-01-29 00:39:19.30	313.41	41.23	-41.5	-44.8	13.6	8.30e-06	0	59	0	472907776	54	5329
2026-01-29 00:39:20.31	312.94	41.29	-41.6	-44.9	13.5	1.22e-05	0	58	0	475004928	54	5351
2026-01-29 00:39:21.32	312.46	41.36	-41.4	-44.7	13.7	7.60e-06	0	58	0	477102080	54	5235
2026-01-29 00:39:22.33	311.99	41.43	-41.3	-44.5	13.8	3.80e-06	0	59	0	479199232	54	5128
2026-01-29 00:39:23.34	311.51	41.49	-41.3	-44.5	13.9	3.80e-06	0	59	0	481296384	54	5117
2026-01-29 00:39:24.35	311.03	41.55	-41.4	-44.7	13.7	3.00e-06	0	59	0	482344960	54	5260
2026-01-29 00:39:25.36	310.54	41.61	-41.5	-44.8	13.7	5.30e-06	0	59	0	484442112	54	5289
2026-01-29 00:39:26.37	310.06	41.66	-41.3	-44.5	13.9	5.30e-06	0	58	0	486539264	54	5124
2026-01-29 00:39:27.38	309.58	41.72	-41.2	-44.4	14.1	2.20e-06	0	58	0	488636416	54	5045
2026-01-29 00:39:28.39	309.09	41.77	-41.1	-44.0	14.3	7.00e-07	0	59	0	490733568	54	4863
2026-01-29 00:39:29.40	308.60	41.82	-41.0	-44.0	14.4	7.00e-07	0	59	0	491782144	54	4848
2026-01-29 00:39:30.41	308.11	41.86	-41.1	-44.1	14.3	7.00e-07	0	59	0	493879296	54	4908
2026-01-29 00:39:31.42	307.62	41.91	-41.0	-44.0	14.5	7.00e-07	0	59	0	495976448	54	4816
2026-01-29 00:39:32.42	307.13	41.95	-41.1	-44.0	14.3	7.00e-07	0	59	0	498073600	54	4858
2026-01-29 00:39:33.43	306.64	41.99	-41.2	-44.3	14.1	7.00e-07	0	59	0	500170752	54	5003
2026-01-29 00:39:34.44	306.14	42.03	-41.4	-44.6	13.8	7.00e-07	0	58	0	502267904	54	5203
2026-01-29 00:39:35.46	305.64	42.06	-41.2	-44.4	14.1	2.20e-06	0	59	0	503316480	54	5044
2026-01-29 00:39:36.46	305.15	42.09	-41.1	-44.2	14.2	3.00e-06	0	58	0	505413632	54	4939
2026-01-29 00:39:37.47	304.65	42.12	-41.2	-44.2	14.2	0.00e+00	0	59	0	507510784	54	4955
2026-01-29 00:39:38.48	304.15	42.15	-41.2	-44.2	14.2	2.20e-06	0	59	0	509607936	54	4968
2026-01-29 00:39:39.50	303.64	42.18	-41.3	-44.4	14.0	7.00e-07	0	59	0	511705088	54	5086
2026-01-29 00:39:40.50	303.15	42.20	-41.3	-44.5	13.9	3.80e-06	0	59	0	512753664	54	5123
2026-01-29 00:39:41.51	302.64	42.22	-41.4	-44.7	13.8	3.00e-06	0	59	0	514850816	54	5230
2026-01-29 00:39:42.52	302.14	42.24	-41.6	-44.9	13.5	7.60e-06	0	58	0	516947968	54	5364
2026-01-29 00:39:43.53	301.64	42.26	-41.6	-44.9	13.4	9.90e-06	0	59	0	519045120	54	5390
2026-01-29 00:39:44.54	301.14	42.27	-41.5	-44.9	13.5	1.29e-05	0	58	0	521142272	54	5355
2026-01-29 00:39:45.55	300.63	42.28	-41.5	-44.9	13.5	7.60e-06	0	59	0	522190848	54	5350
2026-01-29 00:39:46.56	300.13	42.29	-41.5	-44.8	13.5	8.30e-06	0	59	0	524288000	54	5324
2026-01-29 00:39:47.57	299.62	42.29	-41.5	-44.8	13.6	9.90e-06	0	59	0	526385152	54	5303
2026-01-29 00:39:48.58	299.12	42.30	-41.6	-45.0	13.3	1.52e-05	0	58	0	528482304	54	5416
2026-01-29 00:39:49.59	298.62	42.30	-41.9	-45.5	12.9	2.97e-05	0	58	0	530579456	54	5734
2026-01-29 00:39:50.60	298.11	42.29	-42.1	-45.9	12.4	8.92e-05	0	59	0	531628032	54	6021
2026-01-29 00:39:51.61	297.61	42.29	-42.1	-46.1	12.3	2.08e-04	0	59	0	533725184	54	6137
2026-01-29 00:39:52.62	297.10	42.28	-42.1	-46.0	12.3	1.70e-04	0	59	0	535822336	54	6075
2026-01-29 00:39:53.63	296.60	42.27	-42.2	-46.1	12.3	1.89e-04	0	59	0	537919488	54	6148
2026-01-29 00:39:54.64	296.09	42.26	-42.3	-46.3	12.1	2.97e-04	0	59	0	540016640	55	5930
2026-01-29 00:39:55.65	295.59	42.25	-42.2	-46.2	12.1	2.12e-04	0	59	0	541065216	55	5862
2026-01-29 00:39:56.66	295.09	42.23	-42.2	-46.1	12.2	2.08e-04	0	59	0	543162368	55	5813
2026-01-29 00:39:57.67	294.59	42.21	-42.2	-46.1	12.3	2.14e-04	0	59	0	545259520	55	5800
2026-01-29 00:39:58.68	294.08	42.19	-42.2	-46.2	12.1	2.02e-04	0	59	0	547356672	55	5888
2026-01-29 00:39:59.69	293.58	42.16	-42.4	-46.5	11.8	3.53e-04	0	59	0	549453824	55	6125
2026-01-29 00:40:00.70	293.08	42.14	-42.5	-46.8	11.5	6.00e-04	0	59	0	550502400	55	6295
2026-01-29 00:40:01.71	292.58	42.11	-42.7	-47.2	11.1	1.37e-03	0	59	0	552599552	55	6573
2026-01-29 00:40:02.72	292.09	42.08	-42.9	-47.6	10.8	2.24e-03	0	58	0	554696704	56	6529
2026-01-29 00:40:03.73	291.59	42.04	-42.9	-47.6	10.9	2.33e-03	0	58	0	556793856	56	6561
2026-01-29 00:40:04.74	291.09	42.01	-42.8	-47.3	11.1	1.97e-03	0	58	0	558891008	56	6321
2026-01-29 00:40:05.75	290.60	41.97	-42.8	-47.4	11.1	1.56e-03	0	58	0	559939584	56	6348
2026-01-29 00:40:06.76	290.10	41.93	-42.9	-47.5	10.9	1.66e-03	0	58	0	562036736	56	6431
2026-01-29 00:40:07.77	289.61	41.88	-42.9	-47.6	10.8	2.41e-03	0	59	0	564133888	56	6526
2026-01-29 00:40:08.78	289.12	41.84	-43.1	-48.0	10.4	3.21e-03	0	59	0	566231040	56	6840
2026-01-29 00:40:09.79	288.63	41.79	-43.3	-48.6	9.8	6.65e-03	0	58	0	568328192	57	6887
2026-01-29 00:40:10.80	288.14	41.74	-43.5	-49.2	9.1	1.28e-02	0	59	0	570425344	57	7393
2026-01-29 00:40:11.81	287.65	41.69	-43.6	-49.4	8.9	2.84e-02	0	58	0	571473920	57	7607
2026-01-29 00:40:12.82	287.17	41.63	-43.5	-49.2	9.2	2.81e-02	0	59	0	573571072	57	7442
2026-01-29 00:40:13.83	286.69	41.57	-43.4	-49.0	9.4	1.99e-02	0	59	0	575668224	57	7267
2026-01-29 00:40:14.84	286.20	41.51	-43.5	-49.1	9.2	1.80e-02	0	59	0	577765376	57	7327
2026-01-29 00:40:15.85	285.72	41.45	-43.5	-49.2	9.2	2.26e-02	0	59	0	579862528	57	7414
2026-01-29 00:40:16.86	285.25	41.39	-43.6	-49.4	8.9	2.20e-02	0	59	0	580911104	57	7560
2026-01-29 00:40:17.87	284.77	41.32	-43.6	-49.6	8.7	3.38e-02	0	59	0	583008256	57	7795
2026-01-29 00:40:18.88	284.30	41.25	-43.5	-49.4	8.9	3.19e-02	0	59	0	585105408	57	7569
2026-01-29 00:40:19.89	283.82	41.18	-43.4	-48.9	9.5	2.60e-02	0	58	0	587202560	57	7164
2026-01-29 00:40:20.90	283.35	41.11	-43.2	-48.3	10.2	7.52e-03	0	58	0	589299712	57	6671
2026-01-29 00:40:21.91	282.88	41.04	-43.0	-47.7	10.7	4.55e-03	0	59	0	590348288	57	6247
2026-01-29 00:40:22.92	282.42	40.96	-42.8	-47.4	11.0	2.63e-03	0	58	0	592445440	57	6048
2026-01-29 00:40:23.93	281.96	40.88	-42.7	-47.1	11.3	1.48e-03	0	59	0	594542592	57	5829
2026-01-29 00:40:24.93	281.50	40.80	-42.5	-46.7	11.7	8.36e-04	0	59	0	596639744	57	5544
2026-01-29 00:40:25.94	281.04	40.72	-42.4	-46.3	12.1	4.48e-04	0	59	0	598736896	56	5656
2026-01-29 00:40:26.95	280.58	40.64	-42.3	-46.2	12.2	2.06e-04	0	59	0	599785472	56	5586
2026-01-29 00:40:27.96	280.13	40.55	-42.3	-46.3	12.2	2.29e-04	0	59	0	601882624	56	5600
2026-01-29 00:40:28.97	279.68	40.47	-42.3	-46.2	12.3	1.85e-04	0	58	0	603979776	56	5549
2026-01-29 00:40:29.98	279.23	40.38	-42.1	-45.8	12.6	1.53e-04	0	59	0	606076928	56	5336
2026-01-29 00:40:30.99	278.78	40.28	-41.6	-45.0	13.3	3.05e-05	0	59	0	608174080	55	5155
2026-01-29 00:40:32.00	278.34	40.19	-41.4	-44.6	13.8	4.50e-06	0	59	0	609222656	54	5184
2026-01-29 00:40:33.01	277.89	40.10	-41.3	-44.5	13.8	3.80e-06	0	58	0	611319808	54	5137
2026-01-29 00:40:34.02	277.45	40.00	-41.2	-44.3	14.1	5.30e-06	0	59	0	613416960	54	5005
2026-01-29 00:40:35.04	277.01	39.90	-41.0	-44.0	14.4	7.00e-07	0	59	0	615514112	53	5110
2026-01-29 00:40:36.05	276.58	39.80	-41.2	-44.4	14.0	0.00e+00	0	59	0	617611264	53	5356
2026-01-29 00:40:37.06	276.15	39.70	-41.5	-44.9	13.5	1.14e-05	0	59	0	618659840	53	5689
2026-01-29 00:40:38.07	275.72	39.60	-41.5	-44.8	13.5	1.52e-05	0	59	0	620756992	53	5632
2026-01-29 00:40:39.08	275.29	39.50	-41.1	-44.2	14.2	3.00e-06	0	59	0	622854144	53	5237
2026-01-29 00:40:40.09	274.87	39.39	-40.8	-43.6	14.7	7.00e-07	0	59	0	624951296	53	4905
2026-01-29 00:40:41.10	274.45	39.28	-40.6	-43.3	15.1	0.00e+00	0	59	0	627048448	53	4737
2026-01-29 00:40:42.11	274.03	39.17	-40.4	-43.0	15.3	0.00e+00	0	59	0	628097024	52	4848
2026-01-29 00:40:43.12	273.62	39.06	-40.4	-43.0	15.4	0.00e+00	0	58	0	630194176	52	4819
2026-01-29 00:40:44.13	273.20	38.95	-40.4	-43.1	15.3	0.00e+00	0	59	0	632291328	52	4895
2026-01-29 00:40:45.13	272.80	38.84	-40.7	-43.5	14.9	0.00e+00	0	59	0	634388480	52	5147
2026-01-29 00:40:46.14	272.39	38.73	-41.0	-43.9	14.4	0.00e+00	0	59	0	636485632	52	5382
2026-01-29 00:40:47.15	271.99	38.61	-40.9	-43.9	14.5	7.00e-07	0	59	0	638582784	52	5347
2026-01-29 00:40:48.16	271.59	38.50	-40.8	-43.7	14.7	0.00e+00	0	58	0	639631360	52	5253
2026-01-29 00:40:49.17	271.19	38.38	-40.7	-43.6	14.8	1.50e-06	0	59	0	641728512	52	5165
2026-01-29 00:40:50.18	270.80	38.26	-40.7	-43.4	14.9	0.00e+00	0	59	0	643825664	52	5094
2026-01-29 00:40:51.19	270.40	38.14	-40.5	-43.2	15.2	0.00e+00	0	59	0	645922816	52	4928
2026-01-29 00:40:52.20	270.02	38.02	-40.5	-43.2	15.2	0.00e+00	0	59	0	648019968	52	4936
2026-01-29 00:40:53.21	269.63	37.90	-40.3	-43.0	15.4	0.00e+00	0	59	0	649068544	52	4831
2026-01-29 00:40:54.22	269.25	37.78	-40.5	-43.1	15.2	0.00e+00	0	59	0	651165696	52	4919
2026-01-29 00:40:55.23	268.86	37.65	-40.6	-43.4	14.9	0.00e+00	0	58	0	653262848	52	5078
2026-01-29 00:40:56.24	268.49	37.53	-40.9	-43.8	14.5	0.00e+00	0	59	0	655360000	52	5309
2026-01-29 00:40:57.25	268.11	37.40	-41.1	-44.2	14.1	7.00e-07	0	59	0	657457152	52	5576
2026-01-29 00:40:58.26	267.74	37.28	-41.2	-44.3	14.0	1.50e-06	0	59	0	658505728	53	5325
2026-01-29 00:40:59.27	267.37	37.15	-41.0	-44.0	14.3	1.50e-06	0	59	0	660602880	53	5130
2026-01-29 00:41:00.28	267.01	37.02	-40.9	-43.9	14.4	1.50e-06	0	59	0	662700032	53	5064
2026-01-29 00:41:01.29	266.64	36.89	-40.9	-43.8	14.5	0.00e+00	0	59	0	664797184	53	5010
2026-01-29 00:41:02.30	266.28	36.76	-40.8	-43.6	14.7	0.00e+00	0	58	0	666894336	53	4922
2026-01-29 00:41:03.31	265.92	36.63	-40.7	-43.6	14.7	0.00e+00	0	58	0	667942912	53	4887
2026-01-29 00:41:04.32	265.57	36.50	-40.8	-43.7	14.6	0.00e+00	0	59	0	670040064	53	4953
2026-01-29 00:41:05.33	265.22	36.37	-41.0	-44.0	14.4	1.50e-06	0	59	0	672137216	53	5118
2026-01-29 00:41:06.34	264.87	36.23	-41.2	-44.4	13.8	7.00e-07	0	59	0	674234368	53	5342
2026-01-29 00:41:07.35	264.52	36.10	-41.3	-44.6	13.8	3.00e-06	0	59	0	676331520	53	5475
2026-01-29 00:41:08.36	264.18	35.97	-41.4	-44.6	13.7	9.90e-06	0	59	0	677380096	53	5524
2026-01-29 00:41:09.37	263.84	35.83	-41.2	-44.3	14.0	4.50e-06	0	59	0	679477248	53	5334
2026-01-29 00:41:10.38	263.50	35.70	-41.1	-44.3	14.1	1.50e-06	0	58	0	681574400	53	5281
2026-01-29 00:41:11.39	263.17	35.56	-41.0	-44.1	14.2	1.50e-06	0	58	0	683671552	53	5175
2026-01-29 00:41:12.40	262.84	35.42	-41.0	-44.0	14.3	0.00e+00	0	59	0	685768704	53	5138
2026-01-29 00:41:13.41	262.51	35.29	-41.2	-44.3	14.0	7.00e-07	0	58	0	686817280	53	5338
2026-01-29 00:41:14.41	262.18	35.15	-41.4	-44.7	13.6	6.10e-06	0	58	0	688914432	53	5554
2026-01-29 00:41:15.42	261.86	35.01	-41.5	-45.0	13.3	1.60e-05	0	59	0	691011584	53	5736
2026-01-29 00:41:16.43	261.54	34.87	-41.7	-45.4	12.9	3.35e-05	0	59	0	693108736	54	5659
2026-01-29 00:41:17.44	261.22	34.74	-41.8	-45.4	12.9	3.73e-05	0	58	0	695205888	54	5674
2026-01-29 00:41:18.45	260.91	34.60	-41.7	-45.3	12.9	4.57e-05	0	59	0	696254464	54	5615
2026-01-29 00:41:19.46	260.59	34.46	-41.8	-45.5	12.7	7.32e-05	0	59	0	698351616	54	5759
2026-01-29 00:41:20.47	260.28	34.32	-41.9	-45.7	12.5	8.92e-05	0	59	0	700448768	54	5876
2026-01-29 00:41:21.48	259.98	34.18	-42.1	-46.0	12.3	1.33e-04	0	59	0	702545920	54	6089
2026-01-29 00:41:22.49	259.67	34.04	-42.2	-46.2	12.0	3.05e-04	0	59	0	704643072	54	6272
2026-01-29 00:41:23.50	259.37	33.90	-42.2	-46.2	12.0	3.26e-04	0	59	0	706740224	54	6237
2026-01-29 00:41:24.51	259.07	33.75	-42.3	-46.5	11.7	4.60e-04	0	59	0	707788800	55	6067
2026-01-29 00:41:25.52	258.77	33.61	-42.3	-46.5	11.7	5.35e-04	0	59	0	709885952	55	6128
2026-01-29 00:41:26.53	258.48	33.47	-42.4	-46.7	11.6	7.22e-04	0	59	0	711983104	55	6218
2026-01-29 00:41:27.54	258.19	33.33	-42.4	-46.8	11.4	8.05e-04	0	59	0	714080256	55	6316
2026-01-29 00:41:28.55	257.90	33.19	-42.5	-46.9	11.3	1.07e-03	0	59	0	716177408	55	6353
2026-01-29 00:41:29.56	257.61	33.05	-42.6	-47.2	11.0	1.83e-03	0	59	0	717225984	55	6625
2026-01-29 00:41:30.57	257.33	32.90	-42.6	-47.2	11.0	1.84e-03	0	59	0	719323136	55	6595
2026-01-29 00:41:31.58	257.04	32.76	-42.5	-47.0	11.2	1.71e-03	0	59	0	721420288	55	6432
2026-01-29 00:41:32.59	256.77	32.62	-42.6	-47.2	11.0	1.66e-03	0	59	0	723517440	55	6597
2026-01-29 00:41:33.60	256.49	32.48	-42.9	-47.7	10.6	2.80e-03	0	59	0	725614592	56	6607
2026-01-29 00:41:34.61	256.21	32.34	-43.0	-48.0	10.3	3.79e-03	0	59	0	726663168	56	6804
2026-01-29 00:41:35.61	255.95	32.19	-43.1	-48.3	10.0	7.43e-03	0	58	0	728760320	56	7070
2026-01-29 00:41:36.62	255.68	32.05	-43.1	-48.3	9.9	8.81e-03	0	59	0	730857472	56	7087
2026-01-29 00:41:37.63	255.41	31.91	-43.1	-48.3	10.0	8.85e-03	0	59	0	732954624	56	7069
2026-01-29 00:41:38.65	255.14	31.76	-43.0	-48.0	10.3	6.23e-03	0	59	0	735051776	56	6833
2026-01-29 00:41:39.66	254.88	31.62	-42.9	-47.7	10.6	4.54e-03	0	59	0	736100352	56	6629
2026-01-29 00:41:40.67	254.62	31.48	-42.8	-47.6	10.7	2.59e-03	0	59	0	738197504	56	6505
2026-01-29 00:41:41.68	254.36	31.34	-42.9	-47.8	10.5	3.29e-03	0	59	0	740294656	56	6668
2026-01-29 00:41:42.69	254.10	31.19	-43.0	-48.1	10.2	4.31e-03	0	59	0	742391808	56	6907
2026-01-29 00:41:43.70	253.85	31.05	-43.1	-48.2	10.1	5.95e-03	0	59	0	744488960	56	6993
2026-01-29 00:41:44.71	253.60	30.91	-43.1	-48.2	10.1	7.80e-03	0	59	0	745537536	56	7020
2026-01-29 00:41:45.72	253.35	30.77	-43.1	-48.2	10.1	7.87e-03	0	59	0	747634688	56	6969
2026-01-29 00:41:46.72	253.11	30.63	-42.9	-47.9	10.4	5.76e-03	0	59	0	749731840	56	6739
2026-01-29 00:41:47.73	252.86	30.48	-42.9	-47.8	10.4	5.13e-03	0	59	0	751828992	56	6708
2026-01-29 00:41:48.74	252.62	30.34	-42.9	-47.7	10.6	3.68e-03	0	59	0	753926144	56	6575
2026-01-29 00:41:49.76	252.38	30.20	-42.8	-47.5	10.8	2.59e-03	0	59	0	754974720	56	6485
2026-01-29 00:41:50.76	252.14	30.06	-42.6	-47.1	11.2	1.80e-03	0	59	0	757071872	56	6185
2026-01-29 00:41:51.78	251.90	29.92	-42.6	-47.1	11.1	1.45e-03	0	59	0	759169024	56	6161
2026-01-29 00:41:52.79	251.67	29.77	-42.6	-47.1	11.2	1.69e-03	0	59	0	761266176	56	6174
2026-01-29 00:41:53.80	251.44	29.63	-42.7	-47.3	10.9	1.79e-03	0	59	0	763363328	56	6332
2026-01-29 00:41:54.81	251.21	29.49	-42.7	-47.2	11.1	1.68e-03	0	59	0	764411904	56	6255
2026-01-29 00:41:55.82	250.98	29.35	-42.5	-46.9	11.3	1.25e-03	0	59	0	766509056	56	6042
2026-01-29 00:41:56.83	250.75	29.21	-42.4	-46.6	11.7	7.22e-04	0	59	0	768606208	56	5827
2026-01-29 00:41:57.84	250.53	29.07	-42.4	-46.6	11.7	4.44e-04	0	59	0	770703360	56	5805
2026-01-29 00:41:58.85	250.31	28.93	-42.2	-46.2	12.1	3.91e-04	0	59	0	772800512	56	5565
2026-01-29 00:41:59.86	250.09	28.79	-42.1	-46.0	12.4	1.72e-04	0	59	0	774897664	56	5424
2026-01-29 00:42:00.87	249.87	28.65	-42.1	-45.9	12.4	1.50e-04	0	59	0	775946240	56	5401
2026-01-29 00:42:01.88	249.65	28.51	-42.1	-45.9	12.5	1.05e-04	0	59	0	778043392	56	5346
2026-01-29 00:42:02.89	249.44	28.37	-42.0	-45.7	12.6	1.10e-04	0	59	0	780140544	56	5276
2026-01-29 00:42:03.90	249.23	28.23	-42.1	-45.9	12.5	1.19e-04	0	59	0	782237696	56	5354
2026-01-29 00:42:04.91	249.02	28.09	-42.1	-46.0	12.3	1.68e-04	0	58	0	784334848	56	5424
2026-01-29 00:42:05.92	248.81	27.95	-42.1	-46.0	12.3	1.75e-04	0	59	0	785383424	56	5433
2026-01-29 00:42:06.93	248.60	27.81	-42.1	-45.9	12.4	1.77e-04	0	59	0	787480576	56	5380
2026-01-29 00:42:07.94	248.39	27.68	-42.0	-45.9	12.5	1.30e-04	0	59	0	789577728	56	5356
2026-01-29 00:42:08.95	248.19	27.54	-42.1	-46.0	12.3	1.43e-04	0	59	0	791674880	56	5409
2026-01-29 00:42:09.96	247.99	27.40	-42.0	-45.8	12.5	1.29e-04	0	59	0	793772032	56	5332
2026-01-29 00:42:10.97	247.79	27.26	-42.0	-45.9	12.4	1.02e-04	0	59	0	794820608	56	5353
2026-01-29 00:42:11.98	247.59	27.13	-41.8	-45.6	12.5	1.05e-04	0	59	0	796917760	55	5506
2026-01-29 00:42:12.99	247.40	26.99	-41.7	-45.5	12.7	1.01e-04	0	59	0	799014912	55	5405
2026-01-29 00:42:13.99	247.20	26.86	-41.6	-45.2	12.9	6.94e-05	0	59	0	801112064	55	5272
2026-01-29 00:42:15.01	247.01	26.72	-41.6	-45.2	12.9	5.26e-05	0	59	0	803209216	55	5259
2026-01-29 00:42:16.02	246.82	26.58	-41.6	-45.3	12.9	5.18e-05	0	59	0	804257792	55	5282
2026-01-29 00:42:17.03	246.63	26.45	-41.6	-45.2	12.9	3.96e-05	0	59	0	806354944	55	5255
2026-01-29 00:42:18.03	246.44	26.31	-41.7	-45.3	12.9	5.18e-05	0	59	0	808452096	55	5316
2026-01-29 00:42:19.04	246.25	26.18	-41.7	-45.3	12.8	5.18e-05	0	59	0	810549248	55	5328
2026-01-29 00:42:20.05	246.07	26.04	-41.7	-45.3	12.8	4.95e-05	0	59	0	812646400	55	5304
2026-01-29 00:42:21.06	245.89	25.91	-41.7	-45.4	12.8	5.64e-05	0	59	0	813694976	55	5355
2026-01-29 00:42:22.07	245.70	25.78	-41.8	-45.5	12.6	8.77e-05	0	59	0	815792128	55	5408
2026-01-29 00:42:23.08	245.52	25.64	-41.7	-45.5	12.7	8.23e-05	0	59	0	817889280	55	5404
2026-01-29 00:42:24.09	245.34	25.51	-41.7	-45.4	12.7	9.68e-05	0	59	0	819986432	55	5401
2026-01-29 00:42:25.10	245.17	25.38	-41.8	-45.6	12.5	1.07e-04	0	59	0	822083584	55	5500
2026-01-29 00:42:26.11	244.99	25.25	-41.8	-45.6	12.5	1.14e-04	0	59	0	823132160	55	5516
2026-01-29 00:42:27.12	244.82	25.11	-41.7	-45.4	12.8	9.00e-05	0	59	0	825229312	55	5361
2026-01-29 00:42:28.12	244.65	24.98	-41.7	-45.4	12.7	8.39e-05	0	59	0	827326464	55	5385
2026-01-29 00:42:29.14	244.47	24.85	-41.7	-45.5	12.7	1.01e-04	0	59	0	829423616	55	5415
2026-01-29 00:42:30.14	244.30	24.72	-41.7	-45.4	12.7	8.39e-05	0	59	0	831520768	55	5369
2026-01-29 00:42:31.15	244.14	24.59	-41.8	-45.5	12.6	8.54e-05	0	59	0	832569344	55	5452
2026-01-29 00:42:32.16	243.97	24.46	-41.7	-45.5	12.6	8.62e-05	0	59	0	834666496	55	5413
2026-01-29 00:42:33.17	243.80	24.33	-41.7	-45.4	12.7	1.05e-04	0	59	0	836763648	55	5375
2026-01-29 00:42:34.18	243.64	24.20	-41.8	-45.5	12.6	8.16e-05	0	59	0	838860800	55	5425
2026-01-29 00:42:35.19	243.48	24.07	-41.7	-45.4	12.7	6.94e-05	0	59	0	840957952	55	5361
2026-01-29 00:42:36.20	243.31	23.94	-41.7	-45.3	12.8	6.10e-05	0	59	0	843055104	55	5322
2026-01-29 00:42:37.21	243.15	23.82	-41.7	-45.3	12.8	5.79e-05	0	59	0	844103680	55	5316
2026-01-29 00:42:38.22	242.99	23.69	-41.6	-45.2	12.9	4.95e-05	0	59	0	846200832	55	5274
2026-01-29 00:42:39.23	242.84	23.56	-41.7	-45.3	12.8	4.80e-05	0	59	0	848297984	55	5325
2026-01-29 00:42:40.24	242.68	23.43	-41.7	-45.4	12.7	8.23e-05	0	59	0	850395136	55	5372
2026-01-29 00:42:41.25	242.53	23.31	-41.8	-45.5	12.6	8.54e-05	0	59	0	852492288	55	5430
2026-01-29 00:42:42.26	242.37	23.18	-41.8	-45.7	12.4	1.40e-04	0	59	0	853540864	55	5553
2026-01-29 00:42:43.27	242.22	23.06	-41.9	-45.8	12.3	1.66e-04	0	59	0	855638016	55	5640
2026-01-29 00:42:44.28	242.07	22.93	-41.9	-45.8	12.3	1.98e-04	0	59	0	857735168	55	5634
2026-01-29 00:42:45.29	241.92	22.81	-41.9	-45.9	12.1	2.05e-04	0	59	0	859832320	55	5681
2026-01-29 00:42:46.30	241.77	22.68	-42.0	-46.0	12.1	2.55e-04	0	59	0	861929472	55	5726
2026-01-29 00:42:47.31	241.62	22.56	-41.9	-45.8	12.2	1.74e-04	0	59	0	862978048	55	5629
2026-01-29 00:42:48.32	241.47	22.43	-41.9	-45.8	12.3	1.89e-04	0	59	0	865075200	55	5601
2026-01-29 00:42:49.32	241.33	22.31	-41.8	-45.5	12.5	1.51e-04	0	59	0	867172352	55	5456
2026-01-29 00:42:50.34	241.18	22.19	-41.8	-45.6	12.5	1.15e-04	0	59	0	869269504	55	5475
2026-01-29 00:42:51.35	241.04	22.06	-41.7	-45.4	12.6	1.09e-04	0	59	0	871366656	55	5386
2026-01-29 00:42:52.36	240.90	21.94	-41.7	-45.5	12.6	9.84e-05	0	59	0	872415232	55	5429
2026-01-29 00:42:53.37	240.76	21.82	-41.7	-45.4	12.7	8.01e-05	0	59	0	874512384	55	5363
2026-01-29 00:42:54.38	240.62	21.70	-41.7	-45.4	12.7	7.55e-05	0	59	0	876609536	55	5361
2026-01-29 00:42:55.39	240.48	21.58	-41.7	-45.4	12.6	8.46e-05	0	59	0	878706688	55	5380
2026-01-29 00:42:56.40	240.34	21.46	-41.7	-45.5	12.6	8.77e-05	0	59	0	880803840	55	5417
2026-01-29 00:42:57.41	240.21	21.34	-41.8	-45.6	12.5	1.14e-04	0	59	0	881852416	55	5479
2026-01-29 00:42:58.42	240.07	21.22	-41.8	-45.7	12.3	1.45e-04	0	59	0	883949568	55	5568
2026-01-29 00:42:59.43	239.94	21.10	-41.9	-45.8	12.2	1.87e-04	0	59	0	886046720	55	5638
2026-01-29 00:43:00.44	239.80	20.98	-41.9	-45.9	12.1	2.70e-04	0	59	0	888143872	55	5713
2026-01-29 00:43:01.45	239.67	20.86	-42.0	-46.0	12.0	2.68e-04	0	59	0	890241024	55	5749
2026-01-29 00:43:02.46	239.54	20.74	-42.0	-46.0	12.0	3.58e-04	0	59	0	891289600	55	5780
2026-01-29 00:43:03.47	239.41	20.62	-42.0	-46.0	12.1	3.15e-04	0	59	0	893386752	55	5740
2026-01-29 00:43:04.48	239.28	20.51	-41.9	-45.9	12.2	2.67e-04	0	59	0	895483904	55	5667
2026-01-29 00:43:05.49	239.15	20.39	-41.9	-46.0	12.0	2.66e-04	0	59	0	897581056	55	5728
2026-01-29 00:43:06.50	239.03	20.27	-42.0	-46.0	12.0	3.05e-04	0	59	0	899678208	55	5737
2026-01-29 00:43:07.51	238.90	20.16	-41.8	-45.6	12.5	1.59e-04	0	59	0	900726784	55	5467
2026-01-29 00:43:08.51	238.78	20.04	-41.8	-45.6	12.4	1.69e-04	0	59	0	902823936	55	5507
2026-01-29 00:43:09.52	238.65	19.93	-41.8	-45.7	12.4	1.33e-04	0	59	0	904921088	55	5530
2026-01-29 00:43:10.53	238.53	19.81	-41.8	-45.7	12.3	1.65e-04	0	59	0	907018240	55	5536
2026-01-29 00:43:11.54	238.41	19.70	-41.8	-45.7	12.3	1.23e-04	0	59	0	909115392	55	5529
2026-01-29 00:43:12.55	238.28	19.58	-41.8	-45.7	12.3	1.50e-04	0	59	0	911212544	55	5530
2026-01-29 00:43:13.56	238.16	19.47	-41.8	-45.7	12.3	1.38e-04	0	59	0	912261120	55	5535
2026-01-29 00:43:14.57	238.04	19.35	-41.8	-45.7	12.4	1.65e-04	0	59	0	914358272	55	5531
2026-01-29 00:43:15.58	237.93	19.24	-41.7	-45.5	12.5	1.28e-04	0	59	0	916455424	55	5441
2026-01-29 00:43:16.59	237.81	19.13	-41.8	-45.6	12.3	1.81e-04	0	59	0	918552576	55	5527
2026-01-29 00:43:17.60	237.69	19.02	-41.9	-45.8	12.2	1.99e-04	0	59	0	920649728	55	5605
2026-01-29 00:43:18.61	237.57	18.90	-41.9	-45.8	12.2	2.15e-04	0	59	0	921698304	55	5599
2026-01-29 00:43:19.62	237.46	18.79	-41.9	-45.8	12.2	1.94e-04	0	59	0	923795456	55	5634
2026-01-29 00:43:20.63	237.34	18.68	-41.9	-46.0	12.0	2.72e-04	0	59	0	925892608	55	5747
2026-01-29 00:43:21.64	237.23	18.57	-41.9	-45.9	12.1	2.97e-04	0	59	0	927989760	55	5684
2026-01-29 00:43:22.65	237.12	18.46	-41.9	-45.9	12.1	3.15e-04	0	59	0	930086912	55	5696
2026-01-29 00:43:23.66	237.01	18.35	-41.9	-46.0	12.0	2.88e-04	0	59	0	931135488	55	5756
2026-01-29 00:43:24.67	236.90	18.24	-42.0	-46.0	11.9	4.03e-04	0	59	0	933232640	55	5766
2026-01-29 00:43:25.68	236.79	18.13	-41.9	-46.0	11.9	3.78e-04	0	59	0	935329792	55	5780
2026-01-29 00:43:26.69	236.68	18.02	-41.9	-46.0	12.0	4.01e-04	0	59	0	937426944	55	5743
2026-01-29 00:43:27.70	236.57	17.91	-41.9	-45.9	12.0	3.17e-04	0	59	0	939524096	55	5719
2026-01-29 00:43:28.71	236.46	17.80	-41.8	-45.8	12.1	3.10e-04	0	59	0	940572672	55	5629
2026-01-29 00:43:29.72	236.35	17.70	-41.8	-45.6	12.4	2.13e-04	0	59	0	942669824	55	5510
2026-01-29 00:43:30.73	236.25	17.59	-41.7	-45.6	12.4	1.63e-04	0	59	0	944766976	55	5482
2026-01-29 00:43:31.74	236.14	17.48	-41.8	-45.6	12.3	1.59e-04	0	59	0	946864128	55	5519
2026-01-29 00:43:32.75	236.04	17.37	-41.7	-45.6	12.4	1.75e-04	0	59	0	948961280	55	5473
2026-01-29 00:43:33.76	235.93	17.27	-41.7	-45.5	12.5	1.26e-04	0	59	0	950009856	55	5422
2026-01-29 00:43:34.77	235.83	17.16	-41.7	-45.5	12.4	1.40e-04	0	59	0	952107008	55	5434
2026-01-29 00:43:35.79	235.73	17.06	-41.7	-45.6	12.4	1.79e-04	0	59	0	954204160	55	5466
2026-01-29 00:43:36.79	235.62	16.95	-41.7	-45.5	12.5	1.26e-04	0	59	0	956301312	55	5416
2026-01-29 00:43:37.80	235.52	16.85	-41.7	-45.5	12.5	9.38e-05	0	59	0	958398464	55	5424
2026-01-29 00:43:38.82	235.42	16.74	-41.6	-45.4	12.5	1.74e-04	0	59	0	959447040	55	5394
2026-01-29 00:43:39.83	235.32	16.64	-41.6	-45.4	12.5	1.27e-04	0	59	0	961544192	55	5389
2026-01-29 00:43:40.84	235.22	16.53	-41.6	-45.4	12.5	1.01e-04	0	59	0	963641344	55	5358
2026-01-29 00:43:41.85	235.13	16.43	-41.6	-45.3	12.6	1.03e-04	0	59	0	965738496	55	5331
2026-01-29 00:43:42.86	235.03	16.33	-41.5	-45.2	12.7	1.12e-04	0	59	0	967835648	55	5265
2026-01-29 00:43:43.87	234.93	16.22	-41.5	-45.1	12.8	6.71e-05	0	59	0	968884224	55	5200
2026-01-29 00:43:44.88	234.84	16.12	-41.5	-45.2	12.7	9.07e-05	0	59	0	970981376	54	5590
2026-01-29 00:43:45.89	234.74	16.02	-41.5	-45.2	12.7	5.34e-05	0	59	0	973078528	54	5538
2026-01-29 00:43:46.90	234.64	15.92	-41.5	-45.3	12.7	6.40e-05	0	59	0	975175680	54	5601
2026-01-29 00:43:47.91	234.55	15.81	-41.5	-45.3	12.7	7.40e-05	0	59	0	977272832	54	5596
2026-01-29 00:43:48.92	234.46	15.71	-41.6	-45.4	12.5	9.84e-05	0	59	0	978321408	54	5665
2026-01-29 00:43:49.93	234.36	15.61	-41.7	-45.5	12.4	1.22e-04	0	59	0	980418560	54	5744
2026-01-29 00:43:50.94	234.27	15.51	-41.7	-45.5	12.3	1.66e-04	0	59	0	982515712	54	5779
2026-01-29 00:43:51.95	234.18	15.41	-41.8	-45.7	12.2	2.14e-04	0	59	0	984612864	54	5884
2026-01-29 00:43:52.96	234.09	15.31	-41.8	-45.7	12.1	2.71e-04	0	59	0	986710016	54	5920
2026-01-29 00:43:53.97	234.00	15.21	-41.8	-45.9	11.9	3.58e-04	0	59	0	988807168	54	6052
2026-01-29 00:43:54.98	233.91	15.11	-41.9	-46.0	11.9	5.03e-04	0	59	0	989855744	54	6070
2026-01-29 00:43:55.99	233.82	15.01	-41.9	-46.1	11.7	5.14e-04	0	59	0	991952896	54	6179
2026-01-29 00:43:57.00	233.73	14.92	-41.9	-46.2	11.6	5.97e-04	0	59	0	994050048	54	6210
2026-01-29 00:43:58.01	233.64	14.82	-41.9	-46.1	11.7	6.32e-04	0	59	0	996147200	54	6174
2026-01-29 00:43:59.02	233.56	14.72	-41.9	-46.2	11.6	6.39e-04	0	59	0	998244352	54	6214
2026-01-29 00:44:00.03	233.47	14.62	-41.9	-46.1	11.7	6.75e-04	0	59	0	999292928	54	6185
2026-01-29 00:44:01.04	233.38	14.53	-41.9	-46.1	11.7	5.47e-04	0	59	0	1001390080	54	6171
2026-01-29 00:44:02.05	233.30	14.43	-41.9	-46.1	11.7	6.38e-04	0	59	0	1003487232	54	6172
2026-01-29 00:44:03.06	233.21	14.33	-41.9	-46.0	11.8	5.69e-04	0	59	0	1005584384	54	6122
2026-01-29 00:44:04.07	233.13	14.24	-41.8	-45.9	11.9	4.34e-04	0	59	0	1007681536	54	6046
2026-01-29 00:44:05.08	233.04	14.14	-41.8	-46.0	11.9	4.61e-04	0	59	0	1008730112	54	6064
2026-01-29 00:44:06.09	232.96	14.04	-41.8	-45.9	11.9	4.40e-04	0	59	0	1010827264	54	6043
2026-01-29 00:44:07.10	232.88	13.95	-41.8	-46.0	11.8	4.59e-04	0	59	0	1012924416	54	6084
2026-01-29 00:44:08.11	232.80	13.85	-41.8	-45.9	11.9	4.39e-04	0	59	0	1015021568	54	6030
2026-01-29 00:44:09.12	232.71	13.76	-41.9	-46.1	11.7	5.58e-04	0	59	0	1017118720	54	6155
2026-01-29 00:44:10.13	232.63	13.67	-41.9	-46.1	11.7	5.58e-04	0	59	0	1018167296	54	6179
2026-01-29 00:44:11.14	232.55	13.57	-41.9	-46.1	11.6	5.77e-04	0	59	0	1020264448	54	6170
2026-01-29 00:44:12.15	232.47	13.48	-42.0	-46.3	11.4	8.62e-04	0	59	0	1022361600	54	6322
2026-01-29 00:44:13.16	232.39	13.38	-42.0	-46.4	11.4	1.05e-03	0	59	0	1024458752	54	6369
2026-01-29 00:44:14.17	232.31	13.29	-42.0	-46.5	11.3	1.24e-03	0	59	0	1026555904	54	6428
2026-01-29 00:44:15.18	232.23	13.20	-42.1	-46.7	11.0	1.70e-03	0	59	0	1028653056	54	6593
2026-01-29 00:44:16.19	232.16	13.11	-42.1	-46.7	11.0	1.86e-03	0	59	0	1029701632	54	6593
2026-01-29 00:44:17.20	232.08	13.01	-42.2	-46.8	10.9	2.10e-03	0	59	0	1031798784	54	6718
2026-01-29 00:44:18.21	232.00	12.92	-42.2	-47.0	10.7	2.76e-03	0	59	0	1033895936	55	6434
2026-01-29 00:44:19.22	231.92	12.83	-42.2	-47.0	10.7	2.93e-03	0	59	0	1035993088	55	6421
2026-01-29 00:44:20.23	231.85	12.74	-42.3	-47.1	10.6	2.76e-03	0	59	0	1038090240	55	6511
2026-01-29 00:44:21.24	231.77	12.65	-42.3	-47.0	10.6	3.32e-03	0	59	0	1039138816	55	6472
2026-01-29 00:44:22.25	231.70	12.56	-42.2	-46.9	10.7	2.61e-03	0	59	0	1041235968	55	6408
2026-01-29 00:44:23.26	231.62	12.47	-42.2	-46.9	10.7	3.48e-03	0	59	0	1043333120	55	6401
2026-01-29 00:44:24.27	231.55	12.38	-42.2	-46.9	10.7	3.06e-03	0	59	0	1045430272	55	6391
2026-01-29 00:44:25.28	231.48	12.29	-42.2	-46.9	10.7	2.74e-03	0	59	0	1047527424	55	6407
2026-01-29 00:44:26.29	231.40	12.20	-42.2	-47.0	10.6	2.84e-03	0	59	0	1048576000	55	6474
2026-01-29 00:44:27.30	231.33	12.11	-42.2	-46.9	10.7	2.89e-03	0	59	0	1050673152	55	6386
2026-01-29 00:44:28.31	231.26	12.02	-42.2	-46.8	10.8	2.74e-03	0	59	0	1052770304	55	6347
2026-01-29 00:44:29.32	231.18	11.93	-42.2	-46.9	10.7	2.54e-03	0	59	0	1054867456	55	6377
2026-01-29 00:44:30.33	231.11	11.84	-42.2	-46.9	10.7	2.89e-03	0	59	0	1056964608	55	6391
2026-01-29 00:44:31.34	231.04	11.75	-42.2	-46.9	10.7	3.20e-03	0	59	0	1058013184	55	6374
2026-01-29 00:44:32.35	230.97	11.66	-42.2	-47.0	10.5	3.22e-03	0	59	0	1060110336	55	6481
2026-01-29 00:44:33.36	230.90	11.58	-42.2	-47.1	10.5	3.94e-03	0	59	0	1062207488	55	6507
2026-01-29 00:44:34.37	230.83	11.49	-42.2	-47.0	10.5	3.75e-03	0	59	0	1064304640	55	6484
2026-01-29 00:44:35.38	230.76	11.40	-42.3	-47.3	10.3	5.11e-03	0	59	0	1066401792	55	6674
2026-01-29 00:44:36.39	230.69	11.32	-42.3	-47.3	10.3	5.81e-03	0	59	0	1067450368	55	6652
2026-01-29 00:44:37.40	230.63	11.23	-42.3	-47.4	10.1	5.95e-03	0	59	0	1069547520	55	6773
