passes_logs/2026/01/29/R2.0S_Moscow/R2.0S_Moscow__20260129_084354_NOAA_20_JPSS-1_rec.log

#Pass ID: 20260129_084354_NOAA 20 (JPSS-1)
#Satellite: NOAA 20 (JPSS-1)
#Configuration: NOAA 20
#almurnet v.1.7.20251203
#Start time: 2026-01-29 08:43:54

#Version: 2.2.20231116
#Station: R2.0S_Moscow
#Location: 37.707566 lon 55.798166 lat
#TLE: 1 43013U 17073A   26027.94683596  .00000137  00000+0  85741-4 0  9995
#TLE: 2 43013  98.7648 328.7503 0000940  21.3928 338.7287 14.19541154424576

#Time	Az	El	Level	Level2	SNR	BER	BlckErr	Temp	State	Recorded	gain1	gain2
2026-01-29 08:43:54.07	125.79	1.99	-14.3	-39.6	3.4	1.54e+00	0	50	0	0	0	65535
2026-01-29 08:43:55.07	125.74	2.05	-13.3	-39.6	3.5	1.54e+00	0	51	104	0	0	65535
2026-01-29 08:43:56.08	125.69	2.11	-11.6	-39.6	3.8	1.53e+00	0	51	104	0	0	65535
2026-01-29 08:43:57.09	125.65	2.17	-9.9	-40.1	4.4	1.55e+00	0	51	104	0	1	65535
2026-01-29 08:43:58.10	125.60	2.23	-6.1	-38.3	5.0	1.53e+00	0	51	104	0	0	56479
2026-01-29 08:43:59.11	125.55	2.30	-18.7	-42.6	5.4	1.53e+00	0	51	104	0	6	65534
2026-01-29 08:44:00.12	125.50	2.36	-14.7	-42.6	4.0	1.53e+00	0	51	104	0	6	65531
2026-01-29 08:44:01.14	125.44	2.42	-14.6	-40.6	3.3	1.54e+00	0	51	104	0	2	65531
2026-01-29 08:44:02.15	125.39	2.48	-19.3	-43.6	4.8	1.53e+00	0	51	104	0	8	65535
2026-01-29 08:44:03.16	125.34	2.54	-18.5	-42.6	4.1	1.54e+00	0	51	104	0	6	65535
2026-01-29 08:44:04.17	125.29	2.60	-13.7	-41.1	3.2	1.53e+00	0	51	104	0	3	65535
2026-01-29 08:44:05.18	125.24	2.67	-17.2	-41.6	3.8	1.54e+00	0	51	104	0	4	65502
2026-01-29 08:44:06.19	125.19	2.73	-18.7	-41.2	-2.4	1.54e+00	0	51	104	0	4	62556
2026-01-29 08:44:07.20	125.14	2.79	-16.3	-40.6	5.2	1.54e+00	0	51	104	0	2	65535
2026-01-29 08:44:08.20	125.09	2.85	-16.5	-42.6	3.4	1.53e+00	0	51	104	0	6	65535
2026-01-29 08:44:09.21	125.03	2.91	-17.9	-42.6	4.5	1.54e+00	0	51	104	0	6	65534
2026-01-29 08:44:10.22	124.98	2.98	-14.2	-42.1	6.2	1.54e+00	0	52	104	0	5	65535
2026-01-29 08:44:11.24	124.93	3.04	-10.9	-40.1	3.2	1.54e+00	0	52	104	0	1	65443
2026-01-29 08:44:12.25	124.88	3.10	-17.1	-41.1	5.3	1.54e+00	0	52	104	0	3	65535
2026-01-29 08:44:13.25	124.82	3.16	-10.2	-40.1	3.8	1.53e+00	0	52	104	0	1	65535
2026-01-29 08:44:14.26	124.77	3.23	-12.3	-41.1	3.3	1.52e+00	0	52	104	0	3	65535
2026-01-29 08:44:15.28	124.72	3.29	-18.1	-42.1	3.8	1.54e+00	0	52	104	0	5	65535
2026-01-29 08:44:16.29	124.66	3.35	-19.6	-43.6	5.1	1.53e+00	0	52	104	0	8	65535
2026-01-29 08:44:17.30	124.61	3.42	-18.8	-43.1	3.7	1.53e+00	0	52	104	0	7	65535
2026-01-29 08:44:18.31	124.55	3.48	-20.4	-41.6	4.6	1.54e+00	0	52	104	0	4	65535
2026-01-29 08:44:19.32	124.50	3.55	-14.6	-40.6	4.3	1.54e+00	0	52	104	0	2	65535
2026-01-29 08:44:20.33	124.44	3.61	-13.5	-42.4	3.6	1.54e+00	0	52	104	0	6	63868
2026-01-29 08:44:21.34	124.39	3.67	-17.0	-42.6	4.3	1.54e+00	0	52	104	0	6	65535
2026-01-29 08:44:22.35	124.33	3.74	-18.7	-42.6	4.7	1.54e+00	0	52	104	0	6	65535
2026-01-29 08:44:23.36	124.28	3.80	-12.9	-39.2	-2.0	1.54e+00	0	52	104	0	2	55841
2026-01-29 08:44:24.37	124.22	3.87	-15.1	-39.9	3.7	1.53e+00	0	52	104	0	1	63865
2026-01-29 08:44:25.38	124.17	3.93	-18.2	-42.1	3.4	1.54e+00	0	52	104	0	5	65533
2026-01-29 08:44:26.39	124.11	3.99	-9.9	-42.9	6.4	1.54e+00	0	53	104	0	9	56856
2026-01-29 08:44:27.40	124.05	4.06	-15.2	-40.1	3.3	1.54e+00	0	53	104	0	1	65535
2026-01-29 08:44:28.41	124.00	4.12	-18.9	-43.1	4.5	1.54e+00	0	53	104	0	7	65535
2026-01-29 08:44:29.42	123.94	4.19	-19.5	-41.1	3.8	1.53e+00	0	53	104	0	3	65535
2026-01-29 08:44:30.44	123.88	4.25	-12.7	-40.5	7.8	1.54e+00	0	53	104	0	2	64688
2026-01-29 08:44:31.45	123.82	4.32	-13.3	-41.1	5.3	1.54e+00	0	53	104	0	3	65535
2026-01-29 08:44:32.46	123.77	4.38	-16.1	-40.6	3.8	1.54e+00	0	53	104	0	2	65535
2026-01-29 08:44:33.47	123.71	4.45	-9.4	-40.5	3.5	1.54e+00	0	53	104	0	3	60652
2026-01-29 08:44:34.48	123.65	4.52	-16.4	-40.6	3.7	1.53e+00	0	53	104	0	2	65535
2026-01-29 08:44:35.49	123.59	4.58	-14.9	-39.6	3.6	1.54e+00	0	53	104	0	0	65535
2026-01-29 08:44:36.50	123.53	4.65	-5.2	-38.9	3.8	1.53e+00	0	53	104	0	0	60057
2026-01-29 08:44:37.51	123.47	4.71	-18.2	-42.1	6.0	1.54e+00	0	53	104	0	5	65535
2026-01-29 08:44:38.52	123.41	4.78	-7.5	-37.7	4.2	1.53e+00	0	53	104	0	0	52288
2026-01-29 08:44:39.53	123.35	4.85	-13.7	-41.7	3.4	1.53e+00	0	53	104	0	5	62640
2026-01-29 08:44:40.54	123.29	4.91	-19.7	-44.1	3.8	1.53e+00	0	53	104	0	9	65535
2026-01-29 08:44:41.55	123.23	4.98	-17.2	-38.7	6.8	1.54e+00	0	54	104	0	3	49620
2026-01-29 08:44:42.57	123.17	5.05	-13.2	-40.1	5.7	1.55e+00	0	54	104	0	1	65535
2026-01-29 08:44:43.58	123.11	5.11	-18.4	-43.6	5.0	1.54e+00	0	53	104	0	8	65517
2026-01-29 08:44:44.59	123.05	5.18	-18.9	-42.6	3.7	1.54e+00	0	54	104	0	6	65534
2026-01-29 08:44:45.60	122.99	5.25	-16.0	-39.4	3.7	1.53e+00	0	54	104	0	0	64015
2026-01-29 08:44:46.61	122.93	5.31	-14.1	-40.1	3.7	1.52e+00	0	54	104	0	1	65535
2026-01-29 08:44:47.62	122.86	5.38	-17.4	-39.8	3.7	1.53e+00	0	54	104	0	1	63103
2026-01-29 08:44:48.63	122.80	5.45	-17.4	-40.1	3.5	1.53e+00	0	54	104	0	1	65535
2026-01-29 08:44:49.64	122.74	5.52	-18.5	-43.1	4.5	1.53e+00	0	54	104	0	7	65367
2026-01-29 08:44:50.65	122.68	5.58	-19.4	-43.1	5.0	1.52e+00	0	54	104	0	7	65530
2026-01-29 08:44:51.66	122.61	5.65	-15.2	-42.6	3.5	1.53e+00	0	54	104	0	6	65479
2026-01-29 08:44:52.67	122.55	5.72	-19.3	-39.3	5.4	1.52e+00	0	54	104	0	1	59641
2026-01-29 08:44:53.68	122.48	5.79	-11.9	-43.5	4.9	1.53e+00	0	54	104	0	9	60701
2026-01-29 08:44:54.69	122.42	5.86	-14.0	-40.6	3.7	1.53e+00	0	54	104	0	2	65254
2026-01-29 08:44:55.70	122.36	5.92	-17.6	-41.6	3.4	1.53e+00	0	54	104	0	4	65535
2026-01-29 08:44:56.71	122.29	5.99	-14.4	-41.6	5.4	1.52e+00	0	54	104	0	4	65535
2026-01-29 08:44:57.72	122.23	6.06	-11.1	-39.6	5.6	1.54e+00	0	54	104	0	0	65535
2026-01-29 08:44:58.73	122.16	6.13	-13.6	-40.6	3.2	1.53e+00	0	54	104	0	2	65531
2026-01-29 08:44:59.74	122.09	6.20	-12.8	-39.4	3.5	1.53e+00	0	54	104	0	0	63765
2026-01-29 08:45:00.75	122.03	6.27	-10.2	-39.5	3.4	1.52e+00	0	54	104	0	0	64903
2026-01-29 08:45:01.76	121.96	6.34	-13.9	-39.6	3.3	1.53e+00	0	54	104	0	0	65535
2026-01-29 08:45:02.77	121.89	6.41	-11.6	-41.0	4.8	1.53e+00	0	54	104	0	3	64924
2026-01-29 08:45:03.78	121.83	6.48	-13.8	-39.6	3.2	1.54e+00	0	54	104	0	0	65418
2026-01-29 08:45:04.79	121.76	6.55	-15.1	-41.3	4.0	1.52e+00	0	55	104	0	9	47171
2026-01-29 08:45:05.81	121.69	6.62	-18.0	-43.1	3.4	1.51e+00	0	54	104	0	7	65535
2026-01-29 08:45:06.82	121.62	6.69	-16.3	-41.6	4.1	1.53e+00	0	55	104	0	4	65535
2026-01-29 08:45:07.83	121.55	6.76	-18.5	-40.1	3.3	1.53e+00	0	55	104	0	1	65535
2026-01-29 08:45:08.84	121.49	6.83	-7.2	-39.7	3.5	1.52e+00	0	55	104	0	1	62180
2026-01-29 08:45:09.85	121.42	6.90	-14.9	-39.0	3.6	1.51e+00	0	55	104	0	0	60724
2026-01-29 08:45:10.86	121.35	6.97	-17.3	-39.6	3.4	1.52e+00	0	55	104	0	0	65450
2026-01-29 08:45:11.87	121.28	7.04	-12.6	-42.1	3.5	1.53e+00	0	55	104	0	6	61951
2026-01-29 08:45:12.88	121.21	7.11	-12.6	-41.6	4.3	1.55e+00	0	55	104	0	4	65535
2026-01-29 08:45:13.89	121.14	7.18	-12.0	-40.6	3.7	1.53e+00	0	55	104	0	2	65535
2026-01-29 08:45:14.90	121.06	7.25	-10.2	-39.2	3.7	1.51e+00	0	55	104	0	3	52283
2026-01-29 08:45:15.91	120.99	7.32	-9.6	-39.7	4.0	1.51e+00	0	55	104	0	2	58575
2026-01-29 08:45:16.92	120.92	7.40	-13.8	-38.5	-4.8	1.51e+00	0	55	104	0	2	51234
2026-01-29 08:45:17.93	120.85	7.47	-14.7	-39.6	3.8	1.51e+00	0	55	104	0	0	65535
2026-01-29 08:45:18.94	120.78	7.54	-18.9	-44.6	4.0	1.50e+00	0	55	104	0	10	65535
2026-01-29 08:45:19.95	120.70	7.61	-18.8	-41.1	4.4	1.53e+00	0	55	104	0	3	65535
2026-01-29 08:45:20.96	120.63	7.68	-11.7	-39.6	3.5	1.53e+00	0	55	104	0	0	65535
2026-01-29 08:45:21.98	120.56	7.76	-18.1	-41.1	5.5	1.52e+00	0	55	104	0	3	65535
2026-01-29 08:45:22.99	120.48	7.83	-12.6	-39.6	3.5	1.53e+00	0	55	104	0	0	65535
2026-01-29 08:45:24.00	120.41	7.90	-10.1	-39.6	3.8	1.53e+00	0	55	104	0	0	65535
2026-01-29 08:45:25.01	120.33	7.98	-8.0	-39.2	3.7	1.52e+00	0	55	104	0	0	62305
2026-01-29 08:45:26.02	120.26	8.05	-17.8	-40.6	3.6	1.53e+00	0	55	104	0	2	65535
2026-01-29 08:45:27.03	120.18	8.12	-35.8	-56.0	4.0	1.52e+00	0	55	104	0	40	43382
2026-01-29 08:45:28.04	120.11	8.20	-19.9	-44.6	5.6	1.51e+00	0	55	104	0	10	65535
2026-01-29 08:45:29.05	120.03	8.27	-16.7	-42.1	4.0	1.53e+00	0	55	104	0	5	65535
2026-01-29 08:45:30.06	119.95	8.34	-20.9	-44.1	4.2	1.51e+00	0	55	104	0	9	65432
2026-01-29 08:45:31.07	119.88	8.42	-11.7	-41.5	5.0	1.51e+00	0	55	104	0	5	61240
2026-01-29 08:45:32.08	119.80	8.49	-19.0	-42.6	4.3	1.52e+00	0	55	104	0	6	65383
2026-01-29 08:45:33.09	119.72	8.56	-19.2	-42.1	4.4	1.52e+00	0	56	104	0	5	65535
2026-01-29 08:45:34.10	119.64	8.64	-15.5	-42.6	4.3	1.50e+00	0	55	104	0	6	65535
2026-01-29 08:45:35.11	119.57	8.71	-17.1	-41.6	3.6	1.50e+00	0	55	104	0	4	65501
2026-01-29 08:45:36.12	119.49	8.79	-12.1	-40.1	4.2	1.50e+00	0	55	104	0	1	65535
2026-01-29 08:45:37.13	119.41	8.86	-13.7	-40.4	4.2	1.50e+00	0	55	104	0	2	63603
2026-01-29 08:45:38.14	119.33	8.94	-17.1	-41.6	3.5	1.48e+00	0	56	0	0	4	65535
2026-01-29 08:45:39.15	119.25	9.01	-17.1	-42.1	3.6	1.50e+00	0	55	104	0	5	65509
2026-01-29 08:45:40.16	119.17	9.09	-12.4	-38.5	4.0	1.50e+00	0	56	104	0	0	57751
2026-01-29 08:45:41.17	119.08	9.16	-19.8	-42.1	4.1	1.52e+00	0	56	104	0	5	65519
2026-01-29 08:45:42.18	119.00	9.24	-18.1	-40.7	4.2	1.51e+00	0	56	104	0	5	55886
2026-01-29 08:45:43.19	118.92	9.32	-14.2	-41.5	3.7	1.52e+00	0	56	104	0	4	64401
2026-01-29 08:45:44.20	118.84	9.39	-14.2	-40.6	4.0	1.50e+00	0	56	104	0	2	65118
2026-01-29 08:45:45.20	118.76	9.47	-15.1	-39.6	3.8	1.50e+00	0	56	104	0	0	65535
2026-01-29 08:45:46.22	118.67	9.55	-9.9	-40.6	4.0	1.49e+00	0	56	104	0	3	61690
2026-01-29 08:45:47.22	118.59	9.62	-17.6	-42.6	3.8	1.51e+00	0	56	104	0	6	65535
2026-01-29 08:45:48.23	118.50	9.70	-21.2	-45.4	4.4	1.49e+00	0	56	104	0	15	53473
2026-01-29 08:45:49.24	118.42	9.78	-24.7	-47.0	4.1	1.49e+00	0	56	104	0	16	61048
2026-01-29 08:45:50.25	118.33	9.85	-13.4	-39.0	3.9	1.49e+00	0	56	104	0	3	51106
2026-01-29 08:45:51.26	118.25	9.93	-19.9	-42.5	4.0	1.50e+00	0	56	104	0	9	54464
2026-01-29 08:45:52.27	118.16	10.01	-16.1	-42.8	3.3	1.51e+00	0	56	104	0	10	53295
2026-01-29 08:45:53.28	118.08	10.08	-11.7	-39.3	3.6	1.50e+00	0	56	104	0	0	63343
2026-01-29 08:45:54.29	117.99	10.16	-22.3	-42.7	4.1	1.51e+00	0	56	104	0	7	62325
2026-01-29 08:45:55.30	117.90	10.24	-11.9	-41.8	3.7	1.50e+00	0	56	104	0	10	47158
2026-01-29 08:45:56.31	117.81	10.32	-7.9	-35.9	4.1	1.50e+00	0	56	104	0	0	42627
2026-01-29 08:45:57.32	117.72	10.40	-17.0	-38.0	3.5	1.50e+00	0	56	104	0	0	54399
2026-01-29 08:45:58.33	117.64	10.48	-16.2	-37.9	3.9	1.50e+00	0	56	104	0	0	53943
2026-01-29 08:45:59.34	117.55	10.55	-17.2	-43.1	3.8	1.50e+00	0	56	104	0	8	61336
2026-01-29 08:46:00.35	117.46	10.63	-10.6	-39.0	3.6	1.50e+00	0	56	104	0	0	61231
2026-01-29 08:46:01.37	117.36	10.71	-28.8	-45.1	4.4	1.49e+00	0	56	104	0	22	34850
2026-01-29 08:46:02.38	117.27	10.79	-22.1	-46.0	4.3	1.49e+00	0	57	104	0	17	51314
2026-01-29 08:46:03.38	117.18	10.87	-17.4	-42.3	3.9	1.50e+00	0	56	104	0	6	63212
2026-01-29 08:46:04.39	117.09	10.95	-22.4	-45.4	3.9	1.51e+00	0	56	104	0	13	60259
2026-01-29 08:46:05.40	117.00	11.03	-23.6	-46.2	3.8	1.49e+00	0	56	104	0	15	59171
2026-01-29 08:46:06.41	116.90	11.11	-20.3	-43.4	4.5	1.49e+00	0	56	104	0	13	48087
2026-01-29 08:46:07.43	116.81	11.19	-18.8	-41.2	4.4	1.49e+00	0	56	104	0	13	36947
2026-01-29 08:46:08.44	116.72	11.27	-28.5	-44.9	5.0	1.45e+00	0	56	104	0	28	24083
2026-01-29 08:46:09.45	116.62	11.35	-25.5	-45.1	4.9	8.24e-01	0	57	104	0	34	17465
2026-01-29 08:46:10.46	116.53	11.44	-21.5	-44.8	4.4	1.09e+00	0	57	104	0	21	35475
2026-01-29 08:46:11.47	116.43	11.52	-25.2	-46.0	4.4	1.48e+00	0	57	0	0	21	40975
2026-01-29 08:46:12.48	116.33	11.60	-17.5	-43.5	4.4	1.43e+00	0	57	104	0	17	38337
2026-01-29 08:46:13.49	116.24	11.68	-28.6	-46.5	4.8	1.45e+00	0	57	104	0	27	30499
2026-01-29 08:46:14.49	116.14	11.76	-21.2	-42.0	4.3	1.45e+00	0	57	104	0	22	24324
2026-01-29 08:46:15.50	116.04	11.84	-27.0	-45.7	4.2	1.39e+00	0	57	104	0	26	29671
2026-01-29 08:46:16.51	115.94	11.92	-29.7	-45.2	6.1	1.46e+00	24	57	104	0	29	23576
2026-01-29 08:46:17.52	115.85	12.01	-29.6	-46.6	2.7	9.47e-01	0	57	104	0	20	46503
2026-01-29 08:46:18.53	115.75	12.09	-24.1	-45.7	5.8	1.14e+00	69	57	0	0	29	24896
2026-01-29 08:46:19.54	115.65	12.17	-25.1	-46.0	4.2	1.48e+00	0	57	104	0	23	36480
2026-01-29 08:46:20.55	115.54	12.25	-23.7	-46.3	4.1	1.47e+00	0	57	104	0	19	47441
2026-01-29 08:46:21.56	115.44	12.34	-27.7	-46.3	4.5	1.46e+00	0	57	104	0	22	39759
2026-01-29 08:46:22.57	115.34	12.42	-23.5	-46.2	4.2	1.47e+00	0	57	104	0	21	41850
2026-01-29 08:46:23.58	115.24	12.50	-24.4	-47.4	4.7	1.44e+00	0	57	104	0	29	30101
2026-01-29 08:46:24.59	115.14	12.59	-29.1	-47.4	4.3	1.42e+00	0	57	104	0	25	38066
2026-01-29 08:46:25.60	115.03	12.67	-28.5	-46.0	7.9	6.70e-01	12	57	0	0	32	21679
2026-01-29 08:46:26.61	114.93	12.75	-38.2	-48.9	7.3	1.45e-01	6	57	0	2097152	46	13425
2026-01-29 08:46:27.63	114.82	12.84	-22.5	-44.9	7.8	5.95e-01	23	57	0	4194304	31	20119
2026-01-29 08:46:28.64	114.72	12.92	-26.6	-46.8	5.1	7.60e-01	0	57	104	4194304	31	25251
2026-01-29 08:46:29.65	114.61	13.01	-30.5	-47.6	5.5	5.88e-01	2	57	0	4194304	27	34495
2026-01-29 08:46:30.66	114.50	13.09	-29.2	-47.5	6.0	6.96e-01	16	57	0	5242880	30	28704
2026-01-29 08:46:31.67	114.40	13.18	-35.0	-48.0	7.4	2.45e-01	6	57	0	7340032	40	17126
2026-01-29 08:46:32.68	114.29	13.26	-35.6	-48.5	7.4	5.99e-01	6	57	0	8388608	42	16186
2026-01-29 08:46:33.69	114.18	13.35	-33.6	-48.1	7.4	2.04e-01	1	57	0	9437184	39	18349
2026-01-29 08:46:34.70	114.07	13.43	-37.6	-48.6	8.0	1.73e-01	0	57	0	11534336	44	14589
2026-01-29 08:46:35.71	113.96	13.52	-37.4	-48.2	7.6	1.19e-01	0	57	0	13631488	43	14810
2026-01-29 08:46:36.72	113.85	13.61	-38.4	-48.5	7.7	1.14e-01	0	57	0	14680064	47	12125
2026-01-29 08:46:37.73	113.74	13.69	-35.8	-48.5	8.2	2.73e-01	0	57	0	16777216	50	10261
2026-01-29 08:46:38.74	113.63	13.78	-40.8	-48.4	8.4	6.51e-02	0	57	0	18874368	52	8969
2026-01-29 08:46:39.75	113.51	13.86	-35.0	-47.8	8.2	4.21e-02	0	57	0	20971520	47	11180
2026-01-29 08:46:40.76	113.40	13.95	-41.7	-48.0	9.0	2.77e-02	0	58	0	23068672	54	7696
2026-01-29 08:46:41.77	113.29	14.04	-40.9	-47.9	9.2	2.65e-02	0	57	0	24117248	54	7575
2026-01-29 08:46:42.78	113.17	14.12	-42.1	-48.1	8.9	2.32e-02	0	57	0	26214400	53	8183
2026-01-29 08:46:43.79	113.06	14.21	-42.3	-48.1	9.1	2.82e-02	0	57	0	28311552	55	7300
2026-01-29 08:46:44.80	112.94	14.30	-42.2	-48.0	9.1	2.63e-02	0	57	0	30408704	55	7269
2026-01-29 08:46:45.81	112.82	14.39	-42.3	-47.9	9.3	2.29e-02	0	57	0	32505856	55	7125
2026-01-29 08:46:46.82	112.71	14.47	-42.3	-47.8	9.4	1.98e-02	0	57	0	33554432	55	7076
2026-01-29 08:46:47.83	112.59	14.56	-42.1	-47.9	9.2	1.71e-02	0	57	0	35651584	55	7165
2026-01-29 08:46:48.84	112.47	14.65	-42.2	-47.8	9.4	1.57e-02	0	57	0	37748736	55	7055
2026-01-29 08:46:49.84	112.35	14.74	-42.4	-47.9	9.3	1.90e-02	0	57	0	39845888	55	7171
2026-01-29 08:46:50.85	112.23	14.83	-42.4	-48.1	9.1	2.05e-02	0	57	0	41943040	55	7350
2026-01-29 08:46:51.87	112.11	14.92	-42.2	-48.2	9.0	2.60e-02	0	57	0	42991616	55	7383
2026-01-29 08:46:52.88	111.99	15.01	-42.3	-47.9	9.4	1.97e-02	0	57	0	45088768	55	7129
2026-01-29 08:46:53.89	111.86	15.10	-42.2	-47.5	9.8	1.25e-02	0	57	0	47185920	55	6842
2026-01-29 08:46:54.90	111.74	15.18	-42.2	-47.4	9.9	9.68e-03	0	57	0	49283072	54	7138
2026-01-29 08:46:55.91	111.62	15.27	-42.2	-47.4	9.8	8.16e-03	0	57	0	51380224	55	6786
2026-01-29 08:46:56.92	111.49	15.36	-42.3	-47.6	9.7	1.06e-02	0	57	0	52428800	55	6944
2026-01-29 08:46:57.93	111.37	15.45	-42.4	-47.8	9.5	1.36e-02	0	57	0	54525952	55	7111
2026-01-29 08:46:58.94	111.24	15.54	-42.4	-47.9	9.5	1.63e-02	0	57	0	56623104	55	7135
2026-01-29 08:46:59.95	111.11	15.63	-42.2	-47.5	9.8	1.10e-02	0	58	0	58720256	55	6843
2026-01-29 08:47:00.96	110.98	15.73	-42.0	-47.1	10.3	6.41e-03	0	58	0	60817408	54	6882
2026-01-29 08:47:01.97	110.86	15.82	-41.9	-46.5	10.9	3.37e-03	0	57	0	61865984	54	6466
2026-01-29 08:47:02.98	110.73	15.91	-41.9	-46.4	11.1	1.83e-03	0	58	0	63963136	54	6392
2026-01-29 08:47:03.99	110.60	16.00	-41.8	-46.7	10.8	2.48e-03	0	58	0	66060288	54	6586
2026-01-29 08:47:05.00	110.46	16.09	-41.5	-46.9	10.5	2.96e-03	0	58	0	68157440	54	6799
2026-01-29 08:47:06.01	110.33	16.18	-42.2	-47.1	10.4	4.63e-03	0	57	0	70254592	54	6890
2026-01-29 08:47:07.02	110.20	16.27	-42.1	-47.0	10.4	5.02e-03	0	58	0	72351744	54	6856
2026-01-29 08:47:08.03	110.07	16.36	-42.2	-47.1	10.4	4.95e-03	0	58	0	73400320	54	6902
2026-01-29 08:47:09.04	109.93	16.46	-42.2	-47.0	10.5	4.61e-03	0	57	0	75497472	54	6846
2026-01-29 08:47:10.05	109.80	16.55	-42.2	-47.0	10.5	3.76e-03	0	58	0	77594624	54	6830
2026-01-29 08:47:11.06	109.66	16.64	-42.1	-46.7	10.8	3.35e-03	0	58	0	79691776	54	6627
2026-01-29 08:47:12.07	109.52	16.73	-42.0	-46.6	10.9	2.51e-03	0	58	0	81788928	54	6528
2026-01-29 08:47:13.08	109.39	16.83	-42.0	-46.6	10.9	1.95e-03	0	58	0	82837504	54	6522
2026-01-29 08:47:14.09	109.25	16.92	-42.0	-46.6	10.9	2.27e-03	0	58	0	84934656	54	6543
2026-01-29 08:47:15.10	109.11	17.01	-42.0	-46.5	11.0	1.99e-03	0	58	0	87031808	54	6476
2026-01-29 08:47:16.11	108.97	17.11	-41.9	-46.3	11.3	1.42e-03	0	58	0	89128960	54	6278
2026-01-29 08:47:17.12	108.83	17.20	-41.8	-46.0	11.5	8.39e-04	0	58	0	91226112	54	6105
2026-01-29 08:47:18.13	108.68	17.29	-41.6	-45.9	11.7	5.41e-04	0	58	0	92274688	54	6024
2026-01-29 08:47:19.15	108.54	17.39	-41.7	-45.9	11.7	5.44e-04	0	57	0	94371840	54	6013
2026-01-29 08:47:20.16	108.40	17.48	-41.7	-46.0	11.6	5.86e-04	0	58	0	96468992	54	6063
2026-01-29 08:47:21.17	108.25	17.58	-41.7	-45.9	11.7	6.00e-04	0	58	0	98566144	54	6055
2026-01-29 08:47:22.18	108.11	17.67	-41.8	-46.0	11.6	7.26e-04	0	58	0	100663296	54	6118
2026-01-29 08:47:23.19	107.96	17.77	-41.8	-46.0	11.6	7.99e-04	0	58	0	101711872	54	6122
2026-01-29 08:47:24.20	107.81	17.86	-41.8	-46.0	11.6	7.28e-04	0	58	0	103809024	54	6082
2026-01-29 08:47:25.21	107.66	17.96	-41.7	-45.8	11.8	6.34e-04	0	58	0	105906176	54	5979
2026-01-29 08:47:26.22	107.51	18.05	-41.7	-45.7	11.9	3.93e-04	0	58	0	108003328	54	5919
2026-01-29 08:47:27.23	107.36	18.15	-41.8	-45.9	11.7	4.68e-04	0	58	0	110100480	54	6053
2026-01-29 08:47:28.24	107.21	18.24	-41.8	-46.1	11.6	6.83e-04	0	58	0	112197632	54	6139
2026-01-29 08:47:29.25	107.06	18.34	-41.8	-46.0	11.6	7.09e-04	0	58	0	113246208	54	6108
2026-01-29 08:47:30.26	106.90	18.43	-41.8	-45.9	11.7	5.91e-04	0	58	0	115343360	54	6023
2026-01-29 08:47:31.27	106.75	18.53	-41.7	-45.9	11.7	5.43e-04	0	58	0	117440512	54	6013
2026-01-29 08:47:32.28	106.60	18.62	-41.7	-45.8	11.9	4.03e-04	0	58	0	119537664	54	5933
2026-01-29 08:47:33.29	106.44	18.72	-41.7	-45.8	11.8	4.11e-04	0	58	0	121634816	54	5974
2026-01-29 08:47:34.30	106.28	18.82	-41.7	-45.9	11.7	4.68e-04	0	58	0	122683392	54	6037
2026-01-29 08:47:35.31	106.12	18.91	-41.8	-45.9	11.7	5.45e-04	0	58	0	124780544	54	6045
2026-01-29 08:47:36.32	105.96	19.01	-41.8	-45.9	11.8	5.14e-04	0	58	0	126877696	54	6023
2026-01-29 08:47:37.33	105.80	19.11	-41.7	-45.8	11.8	5.83e-04	0	58	0	128974848	54	5985
2026-01-29 08:47:38.34	105.64	19.20	-41.7	-45.9	11.8	4.64e-04	0	58	0	131072000	54	6025
2026-01-29 08:47:39.35	105.48	19.30	-41.8	-45.9	11.7	3.96e-04	0	58	0	132120576	54	6039
2026-01-29 08:47:40.36	105.32	19.40	-41.7	-45.7	11.9	4.10e-04	0	58	0	134217728	54	5919
2026-01-29 08:47:41.37	105.15	19.50	-41.8	-45.8	11.8	3.85e-04	0	58	0	136314880	54	5990
2026-01-29 08:47:42.38	104.99	19.59	-41.8	-45.8	11.8	5.03e-04	0	58	0	138412032	54	5980
2026-01-29 08:47:43.39	104.82	19.69	-41.7	-45.8	11.9	4.06e-04	0	58	0	140509184	54	5942
2026-01-29 08:47:44.40	104.65	19.79	-41.7	-45.7	11.9	3.67e-04	0	58	0	141557760	54	5911
2026-01-29 08:47:45.41	104.48	19.89	-41.7	-45.8	11.9	3.99e-04	0	58	0	143654912	54	5941
2026-01-29 08:47:46.42	104.31	19.98	-41.8	-45.9	11.7	4.92e-04	0	58	0	145752064	54	6036
2026-01-29 08:47:47.43	104.14	20.08	-41.8	-46.0	11.6	5.04e-04	0	58	0	147849216	54	6117
2026-01-29 08:47:48.44	103.97	20.18	-41.8	-46.2	11.4	8.86e-04	0	58	0	149946368	54	6251
2026-01-29 08:47:49.45	103.80	20.28	-41.8	-46.3	11.3	1.07e-03	0	58	0	150994944	54	6332
2026-01-29 08:47:50.46	103.62	20.38	-42.0	-46.3	11.3	1.08e-03	0	58	0	153092096	54	6332
2026-01-29 08:47:51.47	103.45	20.48	-42.0	-46.5	11.2	1.26e-03	0	58	0	155189248	54	6428
2026-01-29 08:47:52.48	103.27	20.57	-41.9	-46.5	11.1	1.72e-03	0	58	0	157286400	54	6462
2026-01-29 08:47:53.48	103.09	20.67	-41.7	-46.5	11.2	1.45e-03	0	58	0	159383552	54	6451
2026-01-29 08:47:54.49	102.91	20.77	-41.9	-46.4	11.2	1.33e-03	0	58	0	160432128	54	6396
2026-01-29 08:47:55.50	102.73	20.87	-42.0	-46.5	11.1	1.59e-03	0	58	0	162529280	54	6456
2026-01-29 08:47:56.51	102.55	20.97	-42.1	-46.6	11.0	1.62e-03	0	58	0	164626432	54	6517
2026-01-29 08:47:57.52	102.37	21.07	-42.1	-46.6	11.0	1.72e-03	0	58	0	166723584	54	6529
2026-01-29 08:47:58.53	102.19	21.17	-41.9	-46.5	11.1	1.59e-03	0	58	0	168820736	54	6453
2026-01-29 08:47:59.54	102.00	21.27	-42.0	-46.4	11.3	1.46e-03	0	58	0	169869312	54	6354
2026-01-29 08:48:00.55	101.81	21.37	-42.0	-46.4	11.2	1.43e-03	0	58	0	171966464	54	6412
2026-01-29 08:48:01.56	101.63	21.46	-42.0	-46.5	11.1	1.53e-03	0	58	0	174063616	54	6480
2026-01-29 08:48:02.57	101.44	21.56	-42.1	-46.7	11.0	1.75e-03	0	58	0	176160768	54	6589
2026-01-29 08:48:03.58	101.25	21.66	-42.0	-46.5	11.1	2.15e-03	0	58	0	178257920	54	6460
2026-01-29 08:48:04.59	101.06	21.76	-42.0	-46.5	11.1	1.63e-03	0	58	0	180355072	54	6488
2026-01-29 08:48:05.60	100.87	21.86	-42.1	-46.6	11.1	1.71e-03	0	58	0	181403648	54	6506
2026-01-29 08:48:06.61	100.67	21.96	-42.0	-46.5	11.1	1.82e-03	0	58	0	183500800	54	6461
2026-01-29 08:48:07.61	100.48	22.06	-42.0	-46.3	11.4	1.25e-03	0	58	0	185597952	54	6312
2026-01-29 08:48:08.63	100.28	22.16	-41.9	-46.1	11.5	7.97e-04	0	58	0	187695104	54	6181
2026-01-29 08:48:09.64	100.08	22.26	-41.8	-46.0	11.7	5.95e-04	0	58	0	189792256	54	6070
2026-01-29 08:48:10.65	99.89	22.36	-41.8	-45.9	11.8	5.06e-04	0	58	0	190840832	54	6032
2026-01-29 08:48:11.65	99.69	22.46	-41.9	-46.0	11.7	5.16e-04	0	58	0	192937984	54	6122
2026-01-29 08:48:12.66	99.49	22.56	-41.8	-45.9	11.8	5.39e-04	0	58	0	195035136	54	6050
2026-01-29 08:48:13.67	99.28	22.66	-41.8	-46.0	11.8	4.69e-04	0	58	0	197132288	54	6067
2026-01-29 08:48:14.68	99.08	22.76	-41.7	-45.7	12.0	3.76e-04	0	58	0	199229440	54	5893
2026-01-29 08:48:15.69	98.88	22.86	-41.8	-45.7	12.0	3.29e-04	0	58	0	200278016	54	5918
2026-01-29 08:48:16.70	98.67	22.96	-41.7	-45.6	12.1	3.09e-04	0	58	0	202375168	54	5849
2026-01-29 08:48:17.71	98.46	23.06	-41.7	-45.6	12.1	2.85e-04	0	58	0	204472320	54	5832
2026-01-29 08:48:18.72	98.25	23.16	-41.7	-45.6	12.1	2.18e-04	0	58	0	206569472	54	5837
2026-01-29 08:48:19.73	98.04	23.26	-41.7	-45.6	12.2	2.32e-04	0	58	0	208666624	54	5795
2026-01-29 08:48:20.74	97.83	23.36	-41.6	-45.5	12.3	1.78e-04	0	58	0	209715200	54	5751
2026-01-29 08:48:21.74	97.62	23.46	-41.6	-45.5	12.3	1.40e-04	0	58	0	211812352	54	5738
2026-01-29 08:48:22.75	97.41	23.56	-41.5	-45.3	12.5	1.38e-04	0	58	0	213909504	54	5623
2026-01-29 08:48:23.76	97.19	23.66	-41.5	-45.2	12.6	1.22e-04	0	58	0	216006656	54	5591
2026-01-29 08:48:24.77	96.97	23.75	-41.4	-45.1	12.7	9.00e-05	0	58	0	218103808	54	5472
2026-01-29 08:48:25.78	96.75	23.85	-41.4	-45.1	12.7	7.47e-05	0	58	0	219152384	54	5476
2026-01-29 08:48:26.79	96.53	23.95	-41.5	-45.2	12.6	7.47e-05	0	58	0	221249536	54	5567
2026-01-29 08:48:27.80	96.31	24.05	-41.5	-45.2	12.6	8.31e-05	0	58	0	223346688	54	5543
2026-01-29 08:48:28.81	96.09	24.15	-41.5	-45.2	12.6	9.30e-05	0	58	0	225443840	54	5540
2026-01-29 08:48:29.82	95.87	24.25	-41.5	-45.2	12.6	8.62e-05	0	58	0	227540992	54	5569
2026-01-29 08:48:30.82	95.64	24.35	-41.5	-45.3	12.5	1.08e-04	0	58	0	228589568	54	5632
2026-01-29 08:48:31.83	95.42	24.45	-41.5	-45.3	12.5	1.04e-04	0	58	0	230686720	54	5626
2026-01-29 08:48:32.84	95.19	24.55	-41.5	-45.3	12.5	1.34e-04	0	58	0	232783872	54	5648
2026-01-29 08:48:33.85	94.96	24.64	-41.6	-45.4	12.4	1.38e-04	0	58	0	234881024	54	5662
2026-01-29 08:48:34.86	94.73	24.74	-41.6	-45.4	12.4	1.64e-04	0	58	0	236978176	54	5702
2026-01-29 08:48:35.87	94.49	24.84	-41.6	-45.4	12.4	1.48e-04	0	58	0	238026752	54	5659
2026-01-29 08:48:36.88	94.26	24.94	-41.5	-45.2	12.6	1.11e-04	0	58	0	240123904	54	5553
2026-01-29 08:48:37.89	94.02	25.04	-41.4	-45.1	12.7	1.01e-04	0	59	0	242221056	54	5519
2026-01-29 08:48:38.90	93.79	25.13	-41.4	-45.1	12.7	8.69e-05	0	58	0	244318208	54	5500
2026-01-29 08:48:39.91	93.55	25.23	-41.4	-45.1	12.7	6.17e-05	0	58	0	246415360	54	5476
2026-01-29 08:48:40.92	93.31	25.33	-41.4	-45.0	12.8	5.64e-05	0	59	0	247463936	54	5413
2026-01-29 08:48:41.93	93.06	25.43	-41.3	-44.9	12.9	3.50e-05	0	58	0	249561088	54	5359
2026-01-29 08:48:42.94	92.82	25.52	-41.4	-45.1	12.7	5.11e-05	0	58	0	251658240	54	5479
2026-01-29 08:48:43.94	92.58	25.62	-41.4	-45.1	12.7	8.62e-05	0	58	0	253755392	54	5499
2026-01-29 08:48:44.95	92.33	25.72	-41.4	-44.9	12.9	8.31e-05	0	58	0	255852544	54	5390
2026-01-29 08:48:45.96	92.08	25.81	-41.3	-44.9	13.0	3.73e-05	0	59	0	256901120	54	5349
2026-01-29 08:48:46.97	91.84	25.91	-41.3	-44.9	13.0	3.96e-05	0	59	0	258998272	54	5343
2026-01-29 08:48:47.98	91.58	26.00	-41.4	-45.0	12.9	5.34e-05	0	58	0	261095424	54	5448
2026-01-29 08:48:48.99	91.33	26.10	-41.5	-45.1	12.7	6.48e-05	0	58	0	263192576	54	5508
2026-01-29 08:48:50.00	91.08	26.20	-41.6	-45.4	12.5	1.07e-04	0	58	0	265289728	54	5671
2026-01-29 08:48:51.01	90.82	26.29	-41.7	-45.6	12.2	1.88e-04	0	59	0	266338304	54	5824
2026-01-29 08:48:52.02	90.57	26.39	-41.9	-46.0	11.8	3.40e-04	0	59	0	268435456	54	6121
2026-01-29 08:48:53.03	90.31	26.48	-42.0	-46.1	11.7	4.04e-04	0	58	0	270532608	54	6192
2026-01-29 08:48:54.04	90.05	26.57	-42.0	-46.2	11.6	5.47e-04	0	59	0	272629760	54	6270
2026-01-29 08:48:55.06	89.78	26.67	-41.9	-46.0	11.9	5.03e-04	0	59	0	274726912	54	6102
2026-01-29 08:48:56.06	89.52	26.76	-41.9	-46.0	11.9	3.97e-04	0	58	0	276824064	54	6105
2026-01-29 08:48:57.07	89.26	26.85	-42.0	-46.1	11.8	4.78e-04	0	59	0	277872640	54	6177
2026-01-29 08:48:58.08	88.99	26.95	-42.0	-46.1	11.8	5.12e-04	0	59	0	279969792	54	6192
2026-01-29 08:48:59.09	88.73	27.04	-42.1	-46.3	11.6	5.38e-04	0	59	0	282066944	54	6303
2026-01-29 08:49:00.10	88.46	27.13	-42.1	-46.4	11.5	7.68e-04	0	58	0	284164096	54	6387
2026-01-29 08:49:01.11	88.19	27.22	-42.2	-46.5	11.4	1.17e-03	0	59	0	286261248	55	6102
2026-01-29 08:49:02.12	87.91	27.31	-42.2	-46.6	11.3	1.16e-03	0	59	0	287309824	55	6144
2026-01-29 08:49:03.13	87.64	27.40	-42.3	-46.7	11.1	1.53e-03	0	58	0	289406976	55	6249
2026-01-29 08:49:04.14	87.36	27.49	-42.3	-46.7	11.2	1.38e-03	0	58	0	291504128	55	6229
2026-01-29 08:49:05.15	87.09	27.58	-42.3	-46.7	11.1	1.30e-03	0	59	0	293601280	55	6236
2026-01-29 08:49:06.16	86.81	27.67	-42.3	-46.8	11.1	1.70e-03	0	59	0	295698432	55	6293
2026-01-29 08:49:07.16	86.53	27.76	-42.3	-46.7	11.2	1.42e-03	0	59	0	296747008	55	6228
2026-01-29 08:49:08.17	86.25	27.85	-42.3	-46.7	11.1	1.44e-03	0	59	0	298844160	55	6273
2026-01-29 08:49:09.18	85.97	27.94	-42.3	-46.9	11.0	1.76e-03	0	58	0	300941312	55	6385
2026-01-29 08:49:10.19	85.68	28.03	-42.3	-46.8	11.1	1.83e-03	0	59	0	303038464	55	6314
2026-01-29 08:49:11.20	85.39	28.11	-42.3	-46.7	11.1	1.46e-03	0	59	0	305135616	55	6273
2026-01-29 08:49:12.21	85.11	28.20	-42.4	-47.0	11.0	1.67e-03	0	59	0	306184192	55	6431
2026-01-29 08:49:13.22	84.82	28.28	-42.5	-47.2	10.7	2.86e-03	0	59	0	308281344	55	6587
2026-01-29 08:49:14.23	84.53	28.37	-42.5	-47.3	10.6	3.62e-03	0	59	0	310378496	55	6677
2026-01-29 08:49:15.24	84.23	28.45	-42.5	-47.1	10.8	3.28e-03	0	59	0	312475648	55	6543
2026-01-29 08:49:16.25	83.94	28.54	-42.4	-46.9	11.0	2.19e-03	0	59	0	314572800	55	6408
2026-01-29 08:49:17.26	83.64	28.62	-42.5	-47.2	10.8	2.51e-03	0	59	0	315621376	55	6573
2026-01-29 08:49:18.27	83.35	28.70	-42.4	-47.0	10.8	2.55e-03	0	59	0	317718528	55	6472
2026-01-29 08:49:19.28	83.05	28.79	-42.4	-46.9	11.0	2.33e-03	0	59	0	319815680	55	6412
2026-01-29 08:49:20.29	82.75	28.87	-42.3	-46.8	11.1	1.84e-03	0	59	0	321912832	55	6297
2026-01-29 08:49:21.30	82.45	28.95	-42.4	-46.9	11.0	1.60e-03	0	59	0	324009984	55	6374
2026-01-29 08:49:22.31	82.14	29.03	-42.4	-47.0	10.9	1.93e-03	0	59	0	325058560	55	6432
2026-01-29 08:49:23.32	81.84	29.11	-42.4	-46.9	11.0	2.11e-03	0	59	0	327155712	55	6416
2026-01-29 08:49:24.33	81.53	29.19	-42.4	-47.0	10.8	2.26e-03	0	59	0	329252864	55	6488
2026-01-29 08:49:25.34	81.22	29.27	-42.4	-46.8	11.1	2.44e-03	0	59	0	331350016	55	6337
2026-01-29 08:49:26.35	80.91	29.34	-42.3	-46.7	11.2	1.63e-03	0	59	0	333447168	55	6221
2026-01-29 08:49:27.36	80.60	29.42	-42.3	-46.8	11.1	1.37e-03	0	59	0	334495744	55	6295
2026-01-29 08:49:28.37	80.29	29.50	-42.4	-46.8	11.1	1.47e-03	0	59	0	336592896	55	6329
2026-01-29 08:49:29.37	79.98	29.57	-42.4	-46.9	11.1	1.58e-03	0	59	0	338690048	55	6362
2026-01-29 08:49:30.38	79.66	29.65	-42.5	-47.1	10.9	1.97e-03	0	59	0	340787200	55	6516
2026-01-29 08:49:31.39	79.35	29.72	-42.4	-46.9	11.0	2.40e-03	0	59	0	342884352	55	6416
2026-01-29 08:49:32.40	79.03	29.79	-42.6	-47.4	11.0	2.01e-03	0	59	0	344981504	55	6725
2026-01-29 08:49:33.41	78.71	29.87	-42.8	-47.4	10.7	2.43e-03	0	59	0	346030080	57	6049
2026-01-29 08:49:34.41	78.39	29.94	-42.7	-47.3	10.8	2.17e-03	0	59	0	348127232	57	5958
2026-01-29 08:49:35.42	78.07	30.01	-42.6	-47.1	10.9	2.30e-03	0	59	0	350224384	57	5849
2026-01-29 08:49:36.43	77.75	30.08	-42.6	-47.3	10.8	2.14e-03	0	59	0	352321536	57	5932
2026-01-29 08:49:37.44	77.42	30.15	-42.7	-47.4	10.6	3.08e-03	0	59	0	354418688	57	6041
2026-01-29 08:49:38.45	77.09	30.21	-42.7	-47.4	10.7	3.42e-03	0	59	0	355467264	57	6044
2026-01-29 08:49:39.46	76.77	30.28	-42.7	-47.4	10.7	3.23e-03	0	59	0	357564416	57	6019
2026-01-29 08:49:40.47	76.44	30.35	-42.7	-47.3	10.8	2.26e-03	0	59	0	359661568	57	5967
2026-01-29 08:49:41.48	76.11	30.41	-42.7	-47.4	10.6	2.84e-03	0	59	0	361758720	57	6052
2026-01-29 08:49:42.49	75.77	30.48	-42.8	-47.6	10.6	3.18e-03	0	59	0	363855872	57	6134
2026-01-29 08:49:43.50	75.44	30.54	-42.8	-47.7	10.4	4.50e-03	0	59	0	364904448	57	6245
2026-01-29 08:49:44.51	75.11	30.60	-42.9	-47.8	10.3	5.52e-03	0	59	0	367001600	57	6324
2026-01-29 08:49:45.52	74.77	30.66	-42.9	-48.0	10.1	6.27e-03	0	59	0	369098752	57	6446
2026-01-29 08:49:46.53	74.43	30.72	-43.0	-48.1	10.0	7.02e-03	0	59	0	371195904	57	6564
2026-01-29 08:49:47.54	74.09	30.78	-42.9	-47.8	10.3	7.09e-03	0	59	0	373293056	57	6306
2026-01-29 08:49:48.54	73.76	30.84	-42.9	-47.9	10.2	5.89e-03	0	59	0	374341632	57	6408
2026-01-29 08:49:49.55	73.42	30.90	-43.0	-48.0	10.1	6.72e-03	0	59	0	376438784	57	6462
2026-01-29 08:49:50.56	73.07	30.95	-42.9	-47.9	10.3	5.88e-03	0	59	0	378535936	57	6350
2026-01-29 08:49:51.57	72.73	31.01	-42.8	-47.5	10.6	4.86e-03	0	59	0	380633088	57	6110
2026-01-29 08:49:52.58	72.39	31.06	-42.7	-47.2	10.9	2.69e-03	0	59	0	382730240	57	5906
2026-01-29 08:49:53.59	72.04	31.12	-42.7	-47.4	10.8	2.54e-03	0	59	0	383778816	57	6019
2026-01-29 08:49:54.60	71.69	31.17	-42.8	-47.5	10.6	2.98e-03	0	59	0	385875968	57	6121
2026-01-29 08:49:55.61	71.35	31.22	-42.8	-47.5	10.6	3.12e-03	0	59	0	387973120	57	6115
2026-01-29 08:49:56.62	71.00	31.27	-42.8	-47.6	10.6	3.03e-03	0	59	0	390070272	57	6166
2026-01-29 08:49:57.63	70.65	31.32	-42.8	-47.5	10.7	3.85e-03	0	59	0	392167424	57	6114
2026-01-29 08:49:58.64	70.30	31.37	-42.8	-47.6	10.5	4.06e-03	0	59	0	393216000	57	6198
2026-01-29 08:49:59.65	69.95	31.41	-42.8	-47.5	10.7	3.55e-03	0	59	0	395313152	57	6119
2026-01-29 08:50:00.66	69.59	31.46	-42.7	-47.3	10.9	2.88e-03	0	59	0	397410304	57	5939
2026-01-29 08:50:01.67	69.24	31.50	-42.6	-47.1	11.1	1.97e-03	0	59	0	399507456	57	5821
2026-01-29 08:50:02.67	68.89	31.55	-42.6	-47.0	11.2	1.39e-03	0	59	0	401604608	57	5775
2026-01-29 08:50:03.68	68.53	31.59	-42.6	-47.0	11.2	1.60e-03	0	59	0	402653184	57	5758
2026-01-29 08:50:04.69	68.17	31.63	-42.5	-46.9	11.4	1.14e-03	0	59	0	404750336	57	5658
2026-01-29 08:50:05.70	67.82	31.67	-42.6	-47.0	11.2	1.03e-03	0	59	0	406847488	57	5751
2026-01-29 08:50:06.71	67.46	31.71	-42.6	-46.9	11.3	1.08e-03	0	59	0	408944640	57	5719
2026-01-29 08:50:07.72	67.10	31.74	-42.6	-46.9	11.3	1.21e-03	0	59	0	411041792	57	5719
2026-01-29 08:50:08.73	66.74	31.78	-42.7	-47.2	11.0	1.62e-03	0	59	0	413138944	57	5911
2026-01-29 08:50:09.74	66.38	31.81	-42.8	-47.4	10.8	2.44e-03	0	59	0	414187520	57	6043
2026-01-29 08:50:10.75	66.02	31.85	-42.8	-47.6	10.6	3.18e-03	0	59	0	416284672	57	6146
2026-01-29 08:50:11.76	65.65	31.88	-42.9	-47.7	10.5	3.73e-03	0	59	0	418381824	57	6222
2026-01-29 08:50:12.77	65.29	31.91	-42.9	-47.7	10.5	4.19e-03	0	59	0	420478976	57	6244
2026-01-29 08:50:13.78	64.93	31.94	-42.8	-47.6	10.6	4.05e-03	0	59	0	422576128	57	6161
2026-01-29 08:50:14.79	64.56	31.97	-42.8	-47.6	10.6	3.47e-03	0	59	0	423624704	57	6175
2026-01-29 08:50:15.80	64.20	31.99	-42.9	-47.7	10.5	3.82e-03	0	59	0	425721856	57	6228
2026-01-29 08:50:16.81	63.83	32.02	-43.0	-47.9	10.3	4.17e-03	0	59	0	427819008	57	6386
2026-01-29 08:50:17.82	63.47	32.04	-43.0	-48.0	10.2	4.88e-03	0	59	0	429916160	57	6442
2026-01-29 08:50:18.83	63.10	32.07	-43.1	-48.1	10.1	7.25e-03	0	59	0	432013312	57	6565
2026-01-29 08:50:19.84	62.73	32.09	-43.1	-48.2	10.0	7.91e-03	0	59	0	433061888	57	6593
2026-01-29 08:50:20.85	62.36	32.11	-43.1	-48.1	10.1	8.73e-03	0	59	0	435159040	57	6542
2026-01-29 08:50:21.86	62.00	32.13	-43.1	-48.2	9.9	7.75e-03	0	59	0	437256192	57	6636
2026-01-29 08:50:22.87	61.63	32.15	-43.1	-48.3	9.8	9.20e-03	0	59	0	439353344	57	6721
2026-01-29 08:50:23.88	61.26	32.16	-43.2	-48.5	9.7	1.16e-02	0	59	0	441450496	57	6839
2026-01-29 08:50:24.89	60.89	32.18	-43.1	-48.3	9.8	1.04e-02	0	59	0	442499072	57	6722
2026-01-29 08:50:25.90	60.52	32.19	-43.1	-48.2	9.9	9.10e-03	0	59	0	444596224	57	6612
2026-01-29 08:50:26.91	60.15	32.20	-43.1	-48.1	10.1	7.65e-03	0	59	0	446693376	57	6535
2026-01-29 08:50:27.92	59.78	32.22	-43.1	-48.3	9.9	9.63e-03	0	59	0	448790528	57	6662
2026-01-29 08:50:28.93	59.41	32.23	-43.1	-48.3	9.9	8.33e-03	0	59	0	450887680	57	6655
2026-01-29 08:50:29.94	59.04	32.23	-43.1	-48.3	9.9	8.68e-03	0	59	0	451936256	57	6673
2026-01-29 08:50:30.95	58.67	32.24	-43.1	-48.2	10.0	7.71e-03	0	59	0	454033408	57	6625
2026-01-29 08:50:31.95	58.30	32.25	-43.0	-47.9	10.2	6.50e-03	0	59	0	456130560	57	6419
2026-01-29 08:50:32.96	57.93	32.25	-43.0	-47.8	10.4	4.70e-03	0	59	0	458227712	57	6334
2026-01-29 08:50:33.97	57.56	32.25	-42.9	-47.6	10.6	3.50e-03	0	59	0	460324864	57	6164
2026-01-29 08:50:34.98	57.19	32.26	-42.7	-47.2	10.9	2.85e-03	0	59	0	461373440	57	5922
2026-01-29 08:50:35.99	56.82	32.26	-42.7	-47.3	10.9	2.36e-03	0	59	0	463470592	57	5936
2026-01-29 08:50:37.00	56.45	32.26	-42.8	-47.4	10.9	2.01e-03	0	59	0	465567744	57	6004
2026-01-29 08:50:38.01	56.08	32.25	-42.8	-47.4	10.8	2.68e-03	0	59	0	467664896	57	6026
2026-01-29 08:50:39.02	55.71	32.25	-42.8	-47.6	10.7	3.04e-03	0	59	0	469762048	57	6146
2026-01-29 08:50:40.03	55.33	32.24	-42.9	-47.8	10.4	3.31e-03	0	59	0	470810624	57	6298
2026-01-29 08:50:41.04	54.96	32.24	-43.0	-47.9	10.3	5.53e-03	0	59	0	472907776	57	6374
2026-01-29 08:50:42.05	54.59	32.23	-43.0	-48.1	10.1	6.58e-03	0	59	0	475004928	57	6509
2026-01-29 08:50:43.06	54.22	32.22	-43.0	-48.1	10.1	7.88e-03	0	59	0	477102080	57	6542
2026-01-29 08:50:44.07	53.85	32.21	-43.0	-48.1	10.1	7.11e-03	0	59	0	479199232	57	6524
2026-01-29 08:50:45.08	53.48	32.20	-43.0	-48.1	10.1	6.42e-03	0	59	0	481296384	57	6496
2026-01-29 08:50:46.09	53.11	32.18	-43.0	-47.9	10.2	6.37e-03	0	59	0	482344960	57	6380
2026-01-29 08:50:47.10	52.74	32.17	-42.9	-47.8	10.4	4.98e-03	0	59	0	484442112	57	6322
2026-01-29 08:50:48.10	52.38	32.15	-43.0	-48.0	10.3	4.72e-03	0	59	0	486539264	57	6423
2026-01-29 08:50:49.11	52.01	32.14	-43.0	-48.0	10.3	5.53e-03	0	59	0	488636416	57	6425
2026-01-29 08:50:50.12	51.64	32.12	-43.1	-48.2	10.0	6.86e-03	0	59	0	490733568	57	6619
2026-01-29 08:50:51.13	51.28	32.10	-43.1	-48.2	10.0	8.22e-03	0	59	0	491782144	57	6572
2026-01-29 08:50:52.13	50.91	32.08	-43.0	-48.1	10.1	8.18e-03	0	59	0	493879296	57	6514
2026-01-29 08:50:53.14	50.55	32.06	-43.0	-48.0	10.2	6.75e-03	0	59	0	495976448	57	6425
2026-01-29 08:50:54.15	50.18	32.03	-42.9	-47.7	10.5	4.71e-03	0	59	0	498073600	57	6247
2026-01-29 08:50:55.16	49.81	32.01	-42.9	-47.5	10.7	3.73e-03	0	59	0	500170752	57	6120
2026-01-29 08:50:56.17	49.45	31.98	-42.9	-47.5	10.6	3.49e-03	0	59	0	501219328	57	6121
2026-01-29 08:50:57.18	49.09	31.95	-42.8	-47.5	10.7	3.16e-03	0	59	0	503316480	57	6099
2026-01-29 08:50:58.19	48.72	31.92	-42.9	-47.7	10.5	3.45e-03	0	59	0	505413632	57	6223
2026-01-29 08:50:59.20	48.36	31.89	-42.9	-47.7	10.5	3.79e-03	0	59	0	507510784	57	6252
2026-01-29 08:51:00.21	48.00	31.86	-43.0	-48.0	10.2	5.57e-03	0	59	0	509607936	57	6432
2026-01-29 08:51:01.22	47.64	31.83	-43.1	-48.2	10.0	6.70e-03	0	59	0	510656512	57	6595
2026-01-29 08:51:02.23	47.27	31.79	-43.1	-48.2	10.0	8.77e-03	0	59	0	512753664	57	6600
2026-01-29 08:51:03.24	46.91	31.76	-43.0	-48.0	10.3	6.89e-03	0	59	0	514850816	57	6427
2026-01-29 08:51:04.25	46.56	31.72	-43.0	-48.0	10.2	5.75e-03	0	59	0	516947968	57	6439
2026-01-29 08:51:05.26	46.20	31.69	-43.0	-47.9	10.2	5.50e-03	0	59	0	519045120	57	6418
2026-01-29 08:51:06.28	45.84	31.65	-43.1	-48.1	10.1	6.26e-03	0	59	0	520093696	57	6562
2026-01-29 08:51:07.28	45.48	31.61	-43.1	-48.2	10.0	7.44e-03	0	59	0	522190848	57	6595
2026-01-29 08:51:08.30	45.12	31.56	-43.1	-48.2	10.0	8.22e-03	0	59	0	524288000	57	6618
2026-01-29 08:51:09.31	44.77	31.52	-43.1	-48.2	10.0	8.59e-03	0	59	0	526385152	57	6585
2026-01-29 08:51:10.32	44.42	31.48	-43.2	-48.5	9.7	1.08e-02	0	59	0	528482304	57	6836
2026-01-29 08:51:11.33	44.06	31.43	-43.2	-48.7	9.5	1.23e-02	0	59	0	529530880	57	7007
2026-01-29 08:51:12.34	43.71	31.39	-43.3	-49.0	9.1	1.63e-02	0	59	0	531628032	57	7248
2026-01-29 08:51:13.35	43.36	31.34	-43.3	-48.8	9.4	1.69e-02	0	59	0	533725184	57	7081
2026-01-29 08:51:14.36	43.01	31.29	-43.3	-48.7	9.6	1.47e-02	0	59	0	535822336	57	6969
2026-01-29 08:51:15.37	42.66	31.24	-43.3	-48.7	9.5	1.31e-02	0	59	0	537919488	57	6971
2026-01-29 08:51:16.38	42.31	31.19	-43.2	-48.6	9.6	1.26e-02	0	59	0	538968064	57	6901
2026-01-29 08:51:17.39	41.97	31.14	-43.2	-48.4	9.8	1.17e-02	0	59	0	541065216	57	6752
2026-01-29 08:51:18.40	41.62	31.09	-43.1	-48.3	9.9	9.64e-03	0	59	0	543162368	57	6655
2026-01-29 08:51:19.41	41.28	31.04	-43.1	-48.1	10.0	6.41e-03	0	59	0	545259520	57	6567
2026-01-29 08:51:20.42	40.94	30.98	-43.2	-48.4	9.8	9.45e-03	0	59	0	547356672	57	6777
2026-01-29 08:51:21.43	40.59	30.92	-43.3	-48.6	9.5	1.41e-02	0	59	0	549453824	57	6940
2026-01-29 08:51:22.44	40.25	30.87	-43.4	-48.9	9.2	1.69e-02	0	59	0	550502400	57	7203
2026-01-29 08:51:23.45	39.91	30.81	-43.4	-49.2	9.0	2.33e-02	0	59	0	552599552	57	7396
2026-01-29 08:51:24.46	39.58	30.75	-43.4	-49.1	9.1	2.34e-02	0	59	0	554696704	57	7292
2026-01-29 08:51:25.47	39.24	30.69	-43.3	-48.7	9.5	1.86e-02	0	59	0	556793856	57	6960
2026-01-29 08:51:26.48	38.90	30.63	-43.2	-48.5	9.7	1.29e-02	0	59	0	558891008	57	6814
2026-01-29 08:51:27.49	38.57	30.57	-43.2	-48.5	9.7	1.09e-02	0	59	0	559939584	57	6830
2026-01-29 08:51:28.50	38.24	30.51	-43.2	-48.4	9.8	1.11e-02	0	59	0	562036736	57	6769
2026-01-29 08:51:29.51	37.90	30.44	-43.2	-48.7	9.5	1.44e-02	0	59	0	564133888	57	6966
2026-01-29 08:51:30.52	37.57	30.38	-43.3	-48.8	9.3	1.76e-02	0	59	0	566231040	57	7096
2026-01-29 08:51:31.52	37.25	30.31	-43.3	-48.8	9.2	2.03e-02	0	59	0	568328192	57	7110
2026-01-29 08:51:32.53	36.92	30.25	-43.2	-48.6	9.6	1.47e-02	0	59	0	569376768	57	6954
2026-01-29 08:51:33.54	36.59	30.18	-43.2	-48.5	9.7	1.20e-02	0	59	0	571473920	57	6828
2026-01-29 08:51:34.55	36.27	30.11	-43.2	-48.4	9.7	1.21e-02	0	59	0	573571072	57	6790
2026-01-29 08:51:35.56	35.95	30.04	-43.2	-48.4	9.7	1.07e-02	0	59	0	575668224	57	6758
2026-01-29 08:51:36.57	35.62	29.97	-43.1	-48.4	9.8	9.85e-03	0	59	0	577765376	57	6750
2026-01-29 08:51:37.58	35.30	29.90	-43.2	-48.5	9.7	1.12e-02	0	59	0	578813952	57	6809
2026-01-29 08:51:38.59	34.98	29.83	-43.1	-48.2	9.9	1.07e-02	0	59	0	580911104	57	6626
2026-01-29 08:51:39.60	34.67	29.76	-43.0	-48.1	10.0	8.74e-03	0	59	0	583008256	57	6533
2026-01-29 08:51:40.61	34.35	29.68	-43.0	-48.0	10.1	6.62e-03	0	59	0	585105408	57	6468
2026-01-29 08:51:41.62	34.03	29.61	-43.0	-48.1	10.1	6.14e-03	0	59	0	587202560	57	6528
2026-01-29 08:51:42.63	33.72	29.53	-43.0	-47.9	10.3	5.61e-03	0	59	0	588251136	57	6372
2026-01-29 08:51:43.64	33.41	29.46	-43.1	-48.1	10.1	6.83e-03	0	59	0	590348288	57	6525
2026-01-29 08:51:44.65	33.10	29.38	-43.0	-48.0	10.1	6.51e-03	0	59	0	592445440	57	6462
2026-01-29 08:51:45.66	32.79	29.31	-43.1	-48.1	10.1	6.92e-03	0	59	0	594542592	57	6543
2026-01-29 08:51:46.68	32.48	29.23	-43.0	-47.9	10.3	6.27e-03	0	59	0	596639744	57	6368
2026-01-29 08:51:47.69	32.17	29.15	-42.9	-47.8	10.3	4.50e-03	0	59	0	597688320	57	6340
2026-01-29 08:51:48.70	31.87	29.07	-42.9	-47.7	10.4	4.32e-03	0	59	0	599785472	57	6270
2026-01-29 08:51:49.70	31.57	28.99	-42.9	-47.9	10.3	4.24e-03	0	59	0	601882624	57	6358
2026-01-29 08:51:50.71	31.27	28.91	-42.9	-47.8	10.3	5.15e-03	0	59	0	603979776	57	6331
2026-01-29 08:51:51.72	30.97	28.83	-42.9	-47.9	10.3	4.95e-03	0	59	0	606076928	57	6358
2026-01-29 08:51:52.73	30.67	28.75	-43.0	-48.0	10.2	6.20e-03	0	59	0	607125504	57	6439
2026-01-29 08:51:53.74	30.37	28.66	-43.0	-48.1	10.0	7.28e-03	0	59	0	609222656	57	6537
2026-01-29 08:51:54.75	30.08	28.58	-43.0	-48.0	10.0	7.95e-03	0	59	0	611319808	57	6482
2026-01-29 08:51:55.76	29.78	28.50	-42.9	-48.0	10.2	5.73e-03	0	59	0	613416960	57	6437
2026-01-29 08:51:56.77	29.49	28.41	-42.8	-47.6	10.6	4.92e-03	0	59	0	615514112	57	6162
2026-01-29 08:51:57.78	29.20	28.33	-42.8	-47.5	10.7	3.03e-03	0	59	0	617611264	57	6090
2026-01-29 08:51:58.79	28.91	28.24	-42.7	-47.3	10.8	2.51e-03	0	59	0	618659840	57	5991
2026-01-29 08:51:59.80	28.62	28.16	-42.7	-47.3	10.9	2.45e-03	0	59	0	620756992	57	5952
2026-01-29 08:52:00.81	28.34	28.07	-42.7	-47.2	10.9	2.20e-03	0	59	0	622854144	57	5885
2026-01-29 08:52:01.83	28.05	27.98	-42.6	-47.1	11.1	1.69e-03	0	59	0	624951296	57	5832
2026-01-29 08:52:02.83	27.77	27.90	-42.6	-47.1	11.0	1.91e-03	0	59	0	627048448	57	5809
2026-01-29 08:52:03.84	27.49	27.81	-42.7	-47.4	10.8	1.90e-03	0	59	0	628097024	57	6005
2026-01-29 08:52:04.86	27.21	27.72	-42.8	-47.6	10.6	3.11e-03	0	59	0	630194176	57	6142
2026-01-29 08:52:05.87	26.93	27.63	-42.7	-47.4	10.7	3.34e-03	0	59	0	632291328	57	6055
2026-01-29 08:52:06.87	26.66	27.54	-42.6	-47.2	10.9	2.57e-03	0	59	0	634388480	57	5915
2026-01-29 08:52:07.88	26.38	27.45	-42.6	-47.1	11.1	1.91e-03	0	59	0	636485632	57	5795
2026-01-29 08:52:08.89	26.11	27.36	-42.6	-47.0	11.2	1.58e-03	0	59	0	637534208	57	5757
2026-01-29 08:52:09.90	25.83	27.27	-42.5	-47.0	11.2	1.44e-03	0	59	0	639631360	57	5737
2026-01-29 08:52:10.91	25.56	27.18	-42.6	-47.2	11.0	1.64e-03	0	59	0	641728512	57	5871
2026-01-29 08:52:11.92	25.30	27.09	-42.6	-47.1	11.1	1.69e-03	0	59	0	643825664	57	5811
2026-01-29 08:52:12.93	25.03	27.00	-42.5	-47.0	11.2	1.54e-03	0	59	0	645922816	57	5725
2026-01-29 08:52:13.94	24.76	26.91	-42.4	-46.7	11.5	1.08e-03	0	59	0	646971392	56	5868
2026-01-29 08:52:14.95	24.50	26.81	-42.4	-46.6	11.6	7.11e-04	0	59	0	649068544	56	5811
2026-01-29 08:52:15.97	24.23	26.72	-42.3	-46.4	11.8	5.29e-04	0	59	0	651165696	56	5709
2026-01-29 08:52:16.98	23.97	26.63	-42.3	-46.3	11.8	4.90e-04	0	59	0	653262848	56	5651
2026-01-29 08:52:17.99	23.71	26.53	-42.1	-46.1	12.1	2.99e-04	0	59	0	655360000	56	5492
2026-01-29 08:52:19.00	23.46	26.44	-42.1	-46.0	12.3	2.03e-04	0	59	0	656408576	56	5412
2026-01-29 08:52:20.01	23.20	26.35	-42.0	-45.9	12.3	1.68e-04	0	59	0	658505728	56	5349
2026-01-29 08:52:21.02	22.94	26.25	-42.1	-45.9	12.3	1.72e-04	0	59	0	660602880	56	5389
2026-01-29 08:52:22.03	22.69	26.16	-42.0	-45.8	12.4	1.90e-04	0	59	0	662700032	56	5287
2026-01-29 08:52:23.04	22.44	26.06	-41.8	-45.5	12.5	1.30e-04	0	59	0	664797184	55	5415
2026-01-29 08:52:24.05	22.19	25.97	-41.6	-45.3	12.7	9.99e-05	0	59	0	665845760	55	5286
2026-01-29 08:52:25.06	21.94	25.87	-41.5	-45.1	12.9	6.02e-05	0	59	0	667942912	55	5179
2026-01-29 08:52:26.07	21.69	25.78	-41.4	-44.9	13.1	3.89e-05	0	59	0	670040064	54	5376
2026-01-29 08:52:27.08	21.45	25.68	-41.4	-44.9	13.1	2.67e-05	0	59	0	672137216	54	5357
2026-01-29 08:52:28.09	21.20	25.58	-41.4	-44.9	13.2	2.82e-05	0	59	0	674234368	54	5362
2026-01-29 08:52:29.10	20.96	25.49	-41.4	-44.8	13.3	2.74e-05	0	59	0	675282944	54	5290
2026-01-29 08:52:30.11	20.72	25.39	-41.3	-44.6	13.4	1.06e-05	0	59	0	677380096	54	5197
2026-01-29 08:52:31.12	20.48	25.29	-41.2	-44.5	13.5	8.30e-06	0	59	0	679477248	54	5116
2026-01-29 08:52:32.13	20.24	25.20	-41.2	-44.4	13.5	7.60e-06	0	59	0	681574400	54	5098
2026-01-29 08:52:33.14	20.01	25.10	-41.1	-44.4	13.6	1.14e-05	0	59	0	683671552	54	5060
2026-01-29 08:52:34.15	19.77	25.00	-41.1	-44.3	13.7	3.80e-06	0	59	0	685768704	54	4985
2026-01-29 08:52:35.16	19.54	24.90	-41.0	-44.2	13.8	4.50e-06	0	59	0	686817280	54	4955
2026-01-29 08:52:36.17	19.30	24.81	-41.0	-44.1	13.9	1.50e-06	0	59	0	688914432	53	5209
2026-01-29 08:52:37.18	19.07	24.71	-40.9	-44.1	13.9	2.20e-06	0	59	0	691011584	53	5161
2026-01-29 08:52:38.19	18.84	24.61	-40.9	-44.0	14.0	0.00e+00	0	59	0	693108736	53	5120
2026-01-29 08:52:39.20	18.62	24.51	-40.9	-44.0	14.0	3.80e-06	0	59	0	695205888	53	5106
2026-01-29 08:52:40.21	18.39	24.41	-41.0	-44.1	13.9	1.50e-06	0	59	0	696254464	53	5197
2026-01-29 08:52:41.22	18.16	24.32	-40.9	-44.0	14.1	1.50e-06	0	59	0	698351616	53	5107
2026-01-29 08:52:42.23	17.94	24.22	-40.9	-43.9	14.1	1.50e-06	0	59	0	700448768	53	5061
2026-01-29 08:52:43.24	17.72	24.12	-40.7	-43.7	14.3	2.20e-06	0	59	0	702545920	53	4970
2026-01-29 08:52:44.25	17.50	24.02	-40.6	-43.5	14.5	2.20e-06	0	59	0	704643072	53	4859
2026-01-29 08:52:45.26	17.28	23.92	-40.6	-43.5	14.5	7.00e-07	0	59	0	705691648	53	4849
2026-01-29 08:52:46.27	17.06	23.82	-40.6	-43.5	14.5	7.00e-07	0	59	0	707788800	53	4855
2026-01-29 08:52:47.28	16.84	23.72	-40.7	-43.6	14.5	0.00e+00	0	59	0	709885952	53	4892
2026-01-29 08:52:48.29	16.63	23.62	-40.6	-43.6	14.5	0.00e+00	0	59	0	711983104	53	4873
2026-01-29 08:52:49.30	16.42	23.52	-40.7	-43.7	14.3	1.50e-06	0	59	0	714080256	53	4957
2026-01-29 08:52:50.31	16.20	23.43	-40.7	-43.7	14.3	7.00e-07	0	59	0	715128832	53	4974
2026-01-29 08:52:51.32	15.99	23.33	-40.8	-43.8	14.2	2.20e-06	0	59	0	717225984	53	5013
2026-01-29 08:52:52.33	15.78	23.23	-40.7	-43.7	14.3	0.00e+00	0	59	0	719323136	53	4973
2026-01-29 08:52:53.34	15.57	23.13	-40.8	-43.8	14.2	7.00e-07	0	59	0	721420288	53	4993
2026-01-29 08:52:54.35	15.37	23.03	-40.9	-44.0	14.0	7.00e-07	0	59	0	723517440	53	5103
2026-01-29 08:52:55.36	15.16	22.93	-40.9	-44.0	13.9	1.50e-06	0	59	0	724566016	52	5413
2026-01-29 08:52:56.37	14.96	22.83	-40.9	-44.0	13.8	2.20e-06	0	59	0	726663168	52	5463
2026-01-29 08:52:57.38	14.75	22.73	-41.0	-44.3	13.6	8.30e-06	0	59	0	728760320	52	5597
2026-01-29 08:52:58.39	14.55	22.63	-41.0	-44.2	13.7	7.60e-06	0	59	0	730857472	52	5590
2026-01-29 08:52:59.40	14.35	22.53	-41.0	-44.2	13.8	6.80e-06	0	59	0	732954624	52	5534
2026-01-29 08:53:00.41	14.15	22.43	-41.0	-44.1	13.9	4.50e-06	0	59	0	734003200	52	5510
2026-01-29 08:53:01.42	13.95	22.33	-41.0	-44.2	13.8	5.30e-06	0	59	0	736100352	52	5584
2026-01-29 08:53:02.43	13.76	22.23	-41.1	-44.3	13.7	6.10e-06	0	59	0	738197504	52	5632
2026-01-29 08:53:03.44	13.56	22.14	-41.1	-44.3	13.6	8.30e-06	0	59	0	740294656	52	5627
2026-01-29 08:53:04.45	13.37	22.04	-41.1	-44.4	13.5	1.44e-05	0	59	0	742391808	52	5711
2026-01-29 08:53:05.46	13.18	21.94	-41.1	-44.5	13.5	1.06e-05	0	59	0	743440384	52	5742
2026-01-29 08:53:06.47	12.98	21.84	-41.2	-44.6	13.4	1.75e-05	0	59	0	745537536	52	5806
2026-01-29 08:53:07.48	12.79	21.74	-41.2	-44.5	13.5	1.22e-05	0	59	0	747634688	53	5441
2026-01-29 08:53:08.49	12.60	21.64	-41.3	-44.6	13.3	1.22e-05	0	59	0	749731840	53	5523
2026-01-29 08:53:09.49	12.42	21.54	-41.2	-44.6	13.3	3.12e-05	0	59	0	751828992	53	5494
2026-01-29 08:53:10.50	12.23	21.44	-41.2	-44.6	13.3	1.83e-05	0	59	0	753926144	53	5526
2026-01-29 08:53:11.51	12.05	21.34	-41.3	-44.8	13.2	1.98e-05	0	59	0	754974720	53	5597
2026-01-29 08:53:12.52	11.86	21.25	-41.3	-44.7	13.2	2.59e-05	0	59	0	757071872	53	5565
2026-01-29 08:53:13.53	11.68	21.15	-41.3	-44.7	13.2	2.82e-05	0	59	0	759169024	53	5572
2026-01-29 08:53:14.54	11.50	21.05	-41.3	-44.7	13.2	2.05e-05	0	59	0	761266176	53	5555
2026-01-29 08:53:15.55	11.32	20.95	-41.3	-44.7	13.2	2.67e-05	0	59	0	763363328	53	5585
2026-01-29 08:53:16.56	11.14	20.85	-41.3	-44.7	13.2	1.98e-05	0	59	0	764411904	53	5591
2026-01-29 08:53:17.57	10.96	20.75	-41.4	-44.9	13.0	2.44e-05	0	59	0	766509056	53	5717
2026-01-29 08:53:18.58	10.78	20.65	-41.4	-44.9	13.0	3.43e-05	0	59	0	768606208	53	5700
2026-01-29 08:53:19.59	10.61	20.56	-41.4	-45.0	12.9	5.49e-05	0	59	0	770703360	53	5742
2026-01-29 08:53:20.60	10.43	20.46	-41.4	-44.9	12.9	5.03e-05	0	59	0	772800512	53	5714
2026-01-29 08:53:21.60	10.26	20.36	-41.4	-45.0	12.9	3.96e-05	0	59	0	773849088	53	5734
2026-01-29 08:53:22.61	10.09	20.26	-41.4	-45.0	12.9	5.72e-05	0	59	0	775946240	53	5735
2026-01-29 08:53:23.62	9.91	20.17	-41.4	-45.1	12.8	4.80e-05	0	59	0	778043392	53	5792
2026-01-29 08:53:24.63	9.74	20.07	-41.4	-45.0	12.8	5.03e-05	0	59	0	780140544	53	5782
2026-01-29 08:53:25.64	9.57	19.97	-41.4	-45.0	12.9	4.95e-05	0	59	0	782237696	53	5757
2026-01-29 08:53:26.65	9.41	19.87	-41.4	-45.0	12.8	6.48e-05	0	59	0	783286272	53	5787
2026-01-29 08:53:27.66	9.24	19.78	-41.5	-45.1	12.8	5.49e-05	0	59	0	785383424	53	5819
2026-01-29 08:53:28.67	9.07	19.68	-41.5	-45.3	12.6	8.31e-05	0	59	0	787480576	53	5938
2026-01-29 08:53:29.68	8.91	19.58	-41.6	-45.3	12.5	1.04e-04	0	59	0	789577728	53	5968
2026-01-29 08:53:30.69	8.74	19.49	-41.6	-45.3	12.5	1.17e-04	0	59	0	791674880	53	5985
2026-01-29 08:53:31.71	8.58	19.39	-41.6	-45.5	12.3	1.64e-04	0	59	0	792723456	53	6094
2026-01-29 08:53:32.71	8.42	19.29	-41.7	-45.6	12.2	1.98e-04	0	59	0	794820608	53	6149
2026-01-29 08:53:33.72	8.26	19.20	-41.7	-45.6	12.1	2.52e-04	0	59	0	796917760	53	6190
2026-01-29 08:53:34.73	8.10	19.10	-41.8	-45.7	12.1	2.54e-04	0	59	0	799014912	54	5902
2026-01-29 08:53:35.74	7.94	19.00	-41.8	-45.8	12.0	3.01e-04	0	59	0	801112064	54	5938
2026-01-29 08:53:36.76	7.78	18.91	-41.8	-45.9	11.9	3.60e-04	0	59	0	802160640	54	6001
2026-01-29 08:53:37.77	7.62	18.81	-41.9	-46.0	11.8	4.83e-04	0	59	0	804257792	54	6093
2026-01-29 08:53:38.77	7.47	18.71	-41.9	-46.1	11.6	5.39e-04	0	59	0	806354944	54	6196
2026-01-29 08:53:39.78	7.32	18.62	-42.0	-46.2	11.5	8.19e-04	0	59	0	808452096	54	6260
2026-01-29 08:53:40.79	7.16	18.52	-42.0	-46.3	11.4	7.68e-04	0	60	0	810549248	54	6300
2026-01-29 08:53:41.80	7.01	18.43	-42.0	-46.3	11.4	8.17e-04	0	59	0	811597824	54	6278
2026-01-29 08:53:42.81	6.86	18.33	-42.0	-46.3	11.3	1.05e-03	0	59	0	813694976	54	6334
2026-01-29 08:53:43.82	6.71	18.24	-42.0	-46.3	11.4	1.17e-03	0	59	0	815792128	54	6318
2026-01-29 08:53:44.83	6.56	18.14	-42.0	-46.3	11.3	9.44e-04	0	59	0	817889280	54	6335
2026-01-29 08:53:45.84	6.41	18.05	-42.0	-46.3	11.3	1.08e-03	0	59	0	819986432	54	6344
2026-01-29 08:53:46.85	6.26	17.95	-42.0	-46.4	11.2	1.36e-03	0	59	0	822083584	54	6420
2026-01-29 08:53:47.86	6.11	17.86	-42.0	-46.4	11.2	1.23e-03	0	59	0	823132160	54	6398
2026-01-29 08:53:48.87	5.97	17.77	-42.0	-46.4	11.2	1.28e-03	0	59	0	825229312	54	6420
2026-01-29 08:53:49.88	5.82	17.67	-42.0	-46.4	11.3	1.28e-03	0	59	0	827326464	54	6355
2026-01-29 08:53:50.89	5.68	17.58	-42.0	-46.4	11.2	1.42e-03	0	59	0	829423616	54	6401
2026-01-29 08:53:51.90	5.54	17.48	-42.0	-46.4	11.3	1.13e-03	0	59	0	831520768	54	6361
2026-01-29 08:53:52.91	5.39	17.39	-42.0	-46.4	11.2	1.16e-03	0	59	0	832569344	54	6371
2026-01-29 08:53:53.92	5.25	17.30	-41.9	-46.3	11.4	1.13e-03	0	59	0	834666496	54	6293
2026-01-29 08:53:54.93	5.11	17.20	-41.9	-46.3	11.3	9.98e-04	0	59	0	836763648	54	6309
2026-01-29 08:53:55.94	4.97	17.11	-41.9	-46.3	11.3	1.15e-03	0	59	0	838860800	54	6304
2026-01-29 08:53:56.95	4.83	17.02	-41.9	-46.4	11.2	1.24e-03	0	59	0	840957952	54	6373
2026-01-29 08:53:57.96	4.69	16.93	-42.0	-46.4	11.1	1.22e-03	0	59	0	842006528	54	6401
2026-01-29 08:53:58.97	4.56	16.83	-42.0	-46.5	11.0	1.62e-03	0	59	0	844103680	54	6454
2026-01-29 08:53:59.98	4.42	16.74	-42.0	-46.6	11.0	1.70e-03	0	59	0	846200832	54	6502
2026-01-29 08:54:00.99	4.29	16.65	-42.0	-46.7	10.8	1.87e-03	0	59	0	848297984	54	6575
2026-01-29 08:54:02.00	4.15	16.56	-42.0	-46.7	10.8	2.43e-03	0	59	0	850395136	54	6583
2026-01-29 08:54:03.01	4.02	16.46	-42.1	-46.8	10.7	2.62e-03	0	59	0	851443712	54	6654
2026-01-29 08:54:04.02	3.88	16.37	-42.0	-46.7	10.8	2.99e-03	0	59	0	853540864	54	6617
2026-01-29 08:54:05.03	3.75	16.28	-42.1	-46.8	10.6	3.12e-03	0	59	0	855638016	54	6695
2026-01-29 08:54:06.04	3.62	16.19	-42.0	-46.7	10.6	3.21e-03	0	59	0	857735168	54	6643
2026-01-29 08:54:07.05	3.49	16.10	-42.0	-46.6	10.8	2.80e-03	0	59	0	859832320	54	6555
2026-01-29 08:54:08.06	3.36	16.01	-42.0	-46.7	10.7	2.69e-03	0	59	0	860880896	54	6631
2026-01-29 08:54:09.07	3.23	15.92	-42.0	-46.7	10.7	3.08e-03	0	59	0	862978048	54	6580
2026-01-29 08:54:10.08	3.11	15.83	-42.0	-46.8	10.6	3.36e-03	0	59	0	865075200	54	6690
2026-01-29 08:54:11.09	2.98	15.74	-42.0	-46.8	10.5	4.06e-03	0	59	0	867172352	54	6710
2026-01-29 08:54:12.10	2.85	15.65	-41.9	-46.7	10.6	3.17e-03	0	59	0	869269504	54	6589
2026-01-29 08:54:13.11	2.73	15.56	-42.0	-46.9	10.3	4.39e-03	0	59	0	871366656	54	6775
2026-01-29 08:54:14.12	2.60	15.47	-41.9	-46.8	10.5	4.91e-03	0	59	0	872415232	54	6651
2026-01-29 08:54:15.13	2.48	15.38	-42.0	-46.9	10.3	4.29e-03	0	59	0	874512384	54	6771
2026-01-29 08:54:16.14	2.35	15.29	-42.0	-47.0	10.1	6.33e-03	0	59	0	876609536	54	6855
2026-01-29 08:54:17.15	2.23	15.20	-41.9	-46.9	10.2	6.19e-03	0	59	0	878706688	54	6760
2026-01-29 08:54:18.16	2.11	15.11	-41.8	-46.8	10.3	5.67e-03	0	59	0	880803840	54	6651
2026-01-29 08:54:19.17	1.99	15.02	-41.8	-46.9	10.1	6.58e-03	0	59	0	881852416	54	6730
2026-01-29 08:54:20.18	1.87	14.93	-41.8	-46.9	9.9	8.25e-03	0	59	0	883949568	54	6754
2026-01-29 08:54:21.19	1.75	14.85	-41.6	-46.6	10.1	7.19e-03	0	59	0	886046720	54	6554
2026-01-29 08:54:22.20	1.63	14.76	-41.4	-46.5	10.1	6.97e-03	0	60	0	888143872	54	6456
2026-01-29 08:54:23.21	1.51	14.67	-41.4	-46.6	9.9	7.81e-03	0	60	0	890241024	54	6504
2026-01-29 08:54:24.22	1.39	14.58	-41.4	-46.7	9.6	1.05e-02	0	59	0	891289600	54	6607
2026-01-29 08:54:25.23	1.28	14.49	-41.4	-46.8	9.5	1.47e-02	0	59	0	893386752	54	6701
2026-01-29 08:54:26.24	1.16	14.41	-41.4	-46.8	9.5	1.39e-02	0	59	0	895483904	54	6722
2026-01-29 08:54:27.25	1.05	14.32	-41.5	-47.0	9.2	1.70e-02	0	59	0	897581056	54	6866
2026-01-29 08:54:28.26	0.93	14.23	-41.4	-47.1	9.1	2.12e-02	0	59	0	899678208	54	6893
2026-01-29 08:54:29.27	0.82	14.15	-41.4	-47.0	9.1	2.24e-02	0	59	0	900726784	54	6867
2026-01-29 08:54:30.28	0.70	14.06	-41.2	-46.7	9.4	2.12e-02	0	59	0	902823936	54	6608
2026-01-29 08:54:31.29	0.59	13.97	-41.1	-46.5	9.4	1.47e-02	0	59	0	904921088	54	6466
2026-01-29 08:54:32.30	0.48	13.89	-40.9	-46.3	9.5	1.47e-02	0	59	0	907018240	53	6689
2026-01-29 08:54:33.31	0.37	13.80	-40.8	-46.3	9.4	1.51e-02	0	59	0	909115392	53	6661
2026-01-29 08:54:34.32	0.26	13.72	-40.8	-46.7	8.8	2.57e-02	0	59	0	910163968	53	6975
2026-01-29 08:54:35.32	0.15	13.63	-41.0	-47.5	7.8	5.56e-02	0	59	0	912261120	53	7677
2026-01-29 08:54:36.33	0.04	13.55	-41.1	-48.4	6.8	1.30e-01	0	59	0	914358272	53	8523
2026-01-29 08:54:37.34	359.93	13.46	-41.2	-49.4	5.9	3.21e-01	0	59	0	916455424	53	9514
2026-01-29 08:54:38.35	359.82	13.38	-41.1	-49.8	5.4	4.55e-01	0	59	0	918552576	53	10058
2026-01-29 08:54:39.36	359.72	13.29	-41.1	-50.6	4.9	5.82e-01	0	59	0	919601152	53	10956
2026-01-29 08:54:40.37	359.61	13.21	-41.1	-51.8	4.3	8.93e-01	58	60	0	921698304	53	12654
2026-01-29 08:54:41.38	359.50	13.12	-41.4	-52.6	4.2	1.41e+00	0	59	0	921698304	53	13741
2026-01-29 08:54:42.39	359.40	13.04	-41.1	-53.2	4.0	1.33e+00	0	60	0	921698304	54	13939
2026-01-29 08:54:43.40	359.29	12.95	-40.2	-54.2	3.8	1.49e+00	0	60	104	921698304	52	17536
2026-01-29 08:54:44.41	359.19	12.87	-41.1	-53.8	3.8	1.49e+00	0	59	104	921698304	52	16783
2026-01-29 08:54:45.42	359.09	12.79	-42.0	-54.5	3.8	1.49e+00	0	59	104	921698304	55	15367
2026-01-29 08:54:46.43	358.98	12.70	-41.4	-54.3	3.8	1.48e+00	0	59	104	921698304	54	15794
2026-01-29 08:54:47.44	358.88	12.62	-41.3	-54.5	3.8	1.49e+00	0	59	104	921698304	54	16194
2026-01-29 08:54:48.45	358.78	12.54	-41.1	-54.6	3.8	1.49e+00	0	60	104	921698304	54	16399
2026-01-29 08:54:49.46	358.68	12.45	-41.0	-54.7	3.8	1.49e+00	0	59	104	921698304	53	17642
2026-01-29 08:54:50.47	358.58	12.37	-40.3	-54.5	3.8	1.49e+00	0	59	104	921698304	52	18171
2026-01-29 08:54:51.48	358.48	12.29	-39.9	-54.2	3.8	1.49e+00	0	59	104	921698304	51	18723
2026-01-29 08:54:52.48	358.38	12.21	-39.8	-54.2	3.8	1.49e+00	0	59	104	921698304	51	18613
2026-01-29 08:54:53.49	358.28	12.12	-39.9	-54.3	3.8	1.49e+00	0	59	104	921698304	51	18827
2026-01-29 08:54:54.50	358.18	12.04	-39.8	-54.2	3.8	1.49e+00	0	60	104	921698304	51	18594
2026-01-29 08:54:55.51	358.08	11.96	-39.8	-54.1	3.8	1.49e+00	0	60	104	921698304	51	18479
2026-01-29 08:54:56.52	357.99	11.88	-39.8	-54.2	3.8	1.49e+00	0	60	104	921698304	51	18521
2026-01-29 08:54:57.53	357.89	11.80	-39.8	-54.1	3.8	1.49e+00	0	60	104	921698304	51	18445
2026-01-29 08:54:58.54	357.79	11.72	-40.1	-54.4	3.8	1.49e+00	0	59	104	921698304	51	19042
2026-01-29 08:54:59.55	357.70	11.63	-40.0	-54.3	3.7	1.49e+00	0	60	104	921698304	51	18766
2026-01-29 08:55:00.56	357.60	11.55	-39.8	-54.2	3.8	1.49e+00	0	60	104	921698304	51	18604
2026-01-29 08:55:01.57	357.51	11.47	-39.8	-54.2	3.8	1.49e+00	0	59	104	921698304	51	18610
2026-01-29 08:55:02.58	357.42	11.39	-39.8	-54.1	3.8	1.49e+00	0	59	104	921698304	51	18467
2026-01-29 08:55:03.59	357.32	11.31	-39.7	-54.1	3.8	1.49e+00	0	60	104	921698304	51	18450
2026-01-29 08:55:04.60	357.23	11.23	-39.7	-54.1	3.8	1.49e+00	0	59	104	921698304	51	18462
2026-01-29 08:55:05.61	357.14	11.15	-39.7	-54.1	3.8	1.49e+00	0	60	104	921698304	51	18459
2026-01-29 08:55:06.62	357.05	11.07	-40.0	-54.4	3.8	1.49e+00	0	59	104	921698304	51	18983
2026-01-29 08:55:07.63	356.95	10.99	-39.8	-54.2	3.8	1.49e+00	0	60	104	921698304	51	18589
2026-01-29 08:55:08.64	356.86	10.91	-39.8	-54.2	3.8	1.49e+00	0	59	104	921698304	51	18568
2026-01-29 08:55:09.65	356.77	10.84	-39.8	-54.2	3.8	1.49e+00	0	59	104	921698304	51	18572
2026-01-29 08:55:10.66	356.68	10.76	-39.7	-54.1	3.8	1.49e+00	0	60	104	921698304	51	18348
2026-01-29 08:55:11.67	356.59	10.68	-39.7	-54.0	3.8	1.49e+00	0	60	104	921698304	51	18272
2026-01-29 08:55:12.69	356.50	10.60	-39.7	-54.1	3.8	1.49e+00	0	59	104	921698304	51	18398
2026-01-29 08:55:13.70	356.42	10.52	-39.7	-54.1	3.8	1.49e+00	0	59	104	921698304	51	18380
2026-01-29 08:55:14.71	356.33	10.44	-39.9	-54.2	3.8	1.49e+00	0	59	104	921698304	51	18717
2026-01-29 08:55:15.72	356.24	10.36	-39.8	-54.2	3.8	1.49e+00	0	59	104	921698304	51	18654
2026-01-29 08:55:16.73	356.16	10.29	-39.8	-54.1	3.8	1.49e+00	0	59	104	921698304	51	18503
2026-01-29 08:55:17.74	356.07	10.21	-39.9	-54.3	3.8	1.49e+00	0	60	104	921698304	51	18790
2026-01-29 08:55:18.75	355.98	10.13	-39.8	-54.2	3.8	1.49e+00	0	60	104	921698304	51	18523
2026-01-29 08:55:19.75	355.90	10.05	-39.8	-54.2	3.8	1.49e+00	0	59	104	921698304	51	18627
2026-01-29 08:55:20.76	355.81	9.98	-39.8	-54.1	3.8	1.49e+00	0	59	104	921698304	51	18470
2026-01-29 08:55:21.77	355.73	9.90	-39.9	-54.3	3.8	1.49e+00	0	59	104	921698304	51	18826
2026-01-29 08:55:22.78	355.65	9.82	-39.8	-54.2	3.8	1.49e+00	0	59	104	921698304	51	18610
2026-01-29 08:55:23.79	355.56	9.75	-39.9	-54.3	3.8	1.49e+00	0	59	104	921698304	51	18767
2026-01-29 08:55:24.80	355.48	9.67	-39.8	-54.2	3.8	1.49e+00	0	59	104	921698304	51	18521
2026-01-29 08:55:25.81	355.40	9.59	-39.9	-54.3	3.8	1.49e+00	0	60	104	921698304	51	18859
2026-01-29 08:55:26.82	355.31	9.52	-39.9	-54.3	3.8	1.49e+00	0	59	104	921698304	51	18857
2026-01-29 08:55:27.83	355.23	9.44	-40.0	-54.4	3.8	1.49e+00	0	59	104	921698304	51	19019
2026-01-29 08:55:28.84	355.15	9.37	-39.8	-54.1	3.8	1.49e+00	0	60	104	921698304	51	18477
2026-01-29 08:55:29.86	355.07	9.29	-39.9	-54.3	3.8	1.49e+00	0	60	104	921698304	51	18836
2026-01-29 08:55:30.87	354.99	9.21	-40.0	-54.4	3.8	1.49e+00	0	60	104	921698304	51	18982
2026-01-29 08:55:31.87	354.91	9.14	-40.1	-54.5	3.8	1.49e+00	0	60	104	921698304	51	19212
2026-01-29 08:55:32.89	354.83	9.06	-39.8	-54.2	3.8	1.49e+00	0	60	104	921698304	51	18587
2026-01-29 08:55:33.90	354.75	8.99	-39.9	-54.3	3.8	1.49e+00	0	59	104	921698304	51	18887
2026-01-29 08:55:34.91	354.67	8.91	-40.0	-54.4	3.8	1.49e+00	0	60	104	921698304	51	19103
2026-01-29 08:55:35.92	354.59	8.84	-40.1	-54.5	3.8	1.49e+00	0	60	104	921698304	51	19275
2026-01-29 08:55:36.93	354.52	8.77	-39.9	-54.3	3.8	1.49e+00	0	59	104	921698304	51	18740
2026-01-29 08:55:37.94	354.44	8.69	-39.9	-54.3	3.8	1.49e+00	0	59	104	921698304	51	18934
2026-01-29 08:55:38.95	354.36	8.62	-39.9	-54.4	3.8	1.49e+00	0	60	104	921698304	51	19050
2026-01-29 08:55:39.96	354.29	8.54	-40.1	-54.5	3.8	1.49e+00	0	59	104	921698304	51	19221
2026-01-29 08:55:40.97	354.21	8.47	-39.9	-54.3	3.8	1.49e+00	0	60	104	921698304	51	18928
2026-01-29 08:55:41.98	354.13	8.40	-40.0	-54.4	3.8	1.49e+00	0	60	104	921698304	51	19096
2026-01-29 08:55:42.99	354.06	8.32	-39.9	-54.3	3.8	1.49e+00	0	60	104	921698304	51	18921
