passes_logs/2026/01/29/R2.0S_Moscow/R2.0S_Moscow__20260129_154340_FENGYUN_3G_rec.log

#Pass ID: 20260129_154340_FENGYUN 3G
#Satellite: FENGYUN 3G
#Configuration: FENGYUN 3G
#almurnet v.1.7.20251203
#Start time: 2026-01-29 15:43:41

#Version: 2.2.20231116
#Station: R2.0S_Moscow
#Location: 37.707566 lon 55.798166 lat
#TLE: 1 56232U 23055A   26027.33093889  .00044881  00000+0  67100-3 0  9994
#TLE: 2 56232  49.9947 352.2708 0004101  93.7831 266.3606 15.54500775158110

#Time	Az	El	Level	Level2	SNR	BER	BlckErr	Temp	State	Recorded	gain1	gain2
2026-01-29 15:43:41.06	221.45	2.02	-44.1	-62.5	3.8	8.45e-01	0	51	0	0	59	30523
2026-01-29 15:43:42.06	221.35	2.09	-44.1	-62.5	3.8	8.44e-01	0	51	104	0	59	30481
2026-01-29 15:43:43.07	221.26	2.15	-44.1	-62.5	3.8	8.46e-01	0	51	104	0	59	30491
2026-01-29 15:43:44.08	221.17	2.21	-44.0	-62.5	3.8	8.46e-01	0	51	104	0	59	30552
2026-01-29 15:43:45.09	221.07	2.27	-44.0	-62.5	3.8	8.46e-01	0	51	104	0	59	30554
2026-01-29 15:43:46.10	220.97	2.34	-44.0	-62.5	3.8	8.46e-01	0	51	104	0	59	30480
2026-01-29 15:43:47.11	220.88	2.40	-44.0	-62.5	3.8	8.46e-01	0	52	104	0	59	30514
2026-01-29 15:43:48.12	220.78	2.46	-44.1	-62.5	3.8	8.46e-01	0	52	104	0	59	30488
2026-01-29 15:43:49.13	220.68	2.52	-44.1	-62.5	3.8	8.46e-01	0	52	104	0	59	30502
2026-01-29 15:43:50.14	220.59	2.59	-44.1	-62.5	3.8	8.47e-01	0	52	104	0	59	30475
2026-01-29 15:43:51.15	220.49	2.65	-44.1	-62.5	3.8	8.47e-01	0	52	104	0	59	30552
2026-01-29 15:43:52.16	220.39	2.71	-44.1	-62.5	3.8	8.46e-01	0	52	104	0	59	30481
2026-01-29 15:43:53.17	220.29	2.78	-44.1	-62.5	3.8	8.46e-01	0	52	104	0	59	30488
2026-01-29 15:43:54.18	220.19	2.84	-44.1	-62.5	3.8	8.46e-01	0	52	104	0	59	30534
2026-01-29 15:43:55.19	220.09	2.91	-44.1	-62.5	3.8	8.46e-01	0	52	104	0	59	30473
2026-01-29 15:43:56.20	219.99	2.97	-44.1	-62.5	3.8	8.45e-01	0	52	104	0	59	30467
2026-01-29 15:43:57.22	219.88	3.04	-44.1	-62.5	3.8	8.47e-01	0	52	104	0	59	30483
2026-01-29 15:43:58.23	219.78	3.10	-44.1	-62.5	3.8	8.47e-01	0	52	104	0	59	30460
2026-01-29 15:43:59.23	219.68	3.16	-44.1	-62.5	3.8	8.45e-01	0	52	104	0	59	30416
2026-01-29 15:44:00.24	219.57	3.23	-44.1	-62.5	3.8	8.46e-01	0	53	104	0	59	30449
2026-01-29 15:44:01.25	219.47	3.29	-44.1	-62.5	3.8	8.46e-01	0	53	104	0	59	30500
2026-01-29 15:44:02.26	219.36	3.36	-44.1	-62.5	3.8	8.46e-01	0	53	104	0	59	30483
2026-01-29 15:44:03.27	219.26	3.43	-44.1	-62.5	3.8	8.46e-01	0	53	104	0	59	30515
2026-01-29 15:44:04.28	219.15	3.49	-44.1	-62.5	3.8	8.46e-01	0	53	104	0	59	30438
2026-01-29 15:44:05.29	219.04	3.56	-44.1	-62.5	3.8	8.48e-01	0	53	104	0	59	30474
2026-01-29 15:44:06.30	218.93	3.62	-44.1	-62.5	3.8	8.46e-01	0	53	104	0	59	30450
2026-01-29 15:44:07.31	218.82	3.69	-44.1	-62.5	3.8	8.46e-01	0	53	104	0	59	30483
2026-01-29 15:44:08.32	218.71	3.75	-44.1	-62.5	3.8	8.46e-01	0	53	104	0	59	30489
2026-01-29 15:44:09.33	218.60	3.82	-44.1	-62.5	3.8	8.47e-01	0	53	104	0	59	30453
2026-01-29 15:44:10.34	218.49	3.89	-44.1	-62.5	3.8	8.46e-01	0	53	104	0	59	30463
2026-01-29 15:44:11.35	218.38	3.95	-44.1	-62.5	3.8	8.46e-01	0	53	104	0	59	30462
2026-01-29 15:44:12.36	218.27	4.02	-44.1	-62.5	3.8	8.46e-01	0	53	104	0	59	30475
2026-01-29 15:44:13.37	218.15	4.09	-44.1	-62.5	3.8	8.46e-01	0	53	104	0	59	30499
2026-01-29 15:44:14.37	218.04	4.16	-44.1	-62.5	3.8	8.46e-01	0	53	104	0	59	30497
2026-01-29 15:44:15.38	217.92	4.22	-44.1	-62.5	3.8	8.47e-01	0	54	104	0	59	30466
2026-01-29 15:44:16.39	217.81	4.29	-44.1	-62.5	3.8	8.46e-01	0	54	104	0	59	30504
2026-01-29 15:44:17.40	217.69	4.36	-44.1	-62.5	3.8	8.46e-01	0	54	104	0	59	30467
2026-01-29 15:44:18.41	217.57	4.43	-44.1	-62.5	3.8	8.47e-01	0	54	104	0	59	30514
2026-01-29 15:44:19.42	217.46	4.49	-44.1	-62.5	3.8	8.45e-01	0	54	104	0	59	30526
2026-01-29 15:44:20.43	217.34	4.56	-44.1	-62.5	3.8	8.47e-01	0	54	104	0	59	30559
2026-01-29 15:44:21.44	217.22	4.63	-44.1	-62.5	3.8	8.47e-01	0	54	104	0	59	30460
2026-01-29 15:44:22.45	217.10	4.70	-44.1	-62.5	3.8	8.47e-01	0	54	104	0	59	30493
2026-01-29 15:44:23.46	216.97	4.77	-44.1	-62.5	3.8	8.47e-01	0	54	104	0	59	30434
2026-01-29 15:44:24.47	216.85	4.84	-44.1	-62.5	3.8	8.47e-01	0	54	104	0	59	30519
2026-01-29 15:44:25.48	216.73	4.91	-44.1	-62.5	3.8	8.47e-01	0	54	104	0	59	30529
2026-01-29 15:44:26.49	216.60	4.98	-44.1	-62.5	3.8	8.46e-01	0	54	104	0	59	30388
2026-01-29 15:44:27.50	216.48	5.05	-44.1	-62.5	3.8	8.46e-01	0	54	104	0	59	30456
2026-01-29 15:44:28.51	216.35	5.12	-44.1	-62.5	3.8	8.46e-01	0	54	104	0	59	30484
2026-01-29 15:44:29.52	216.23	5.19	-44.1	-62.5	3.8	8.47e-01	0	54	104	0	59	30383
2026-01-29 15:44:30.53	216.10	5.26	-44.1	-62.4	3.8	8.47e-01	0	54	104	0	59	30358
2026-01-29 15:44:31.54	215.97	5.33	-44.1	-62.5	3.8	8.46e-01	0	54	104	0	59	30456
2026-01-29 15:44:32.55	215.84	5.40	-44.1	-62.5	3.8	8.46e-01	0	55	104	0	59	30385
2026-01-29 15:44:33.56	215.71	5.47	-44.1	-62.5	3.8	8.46e-01	0	55	104	0	59	30464
2026-01-29 15:44:34.57	215.58	5.54	-44.1	-62.5	3.8	8.46e-01	0	54	104	0	59	30449
2026-01-29 15:44:35.58	215.45	5.61	-44.1	-62.5	3.8	8.46e-01	0	55	104	0	59	30482
2026-01-29 15:44:36.59	215.32	5.68	-44.1	-62.5	3.8	8.47e-01	0	55	104	0	59	30446
2026-01-29 15:44:37.60	215.18	5.75	-44.1	-62.5	3.8	8.47e-01	0	55	104	0	59	30429
2026-01-29 15:44:38.61	215.05	5.82	-44.1	-62.5	3.8	8.47e-01	0	55	104	0	59	30422
2026-01-29 15:44:39.63	214.91	5.90	-44.1	-62.5	3.8	8.46e-01	0	55	104	0	59	30457
2026-01-29 15:44:40.64	214.77	5.97	-44.1	-62.5	3.8	8.46e-01	0	55	104	0	59	30410
2026-01-29 15:44:41.65	214.64	6.04	-44.1	-62.5	3.8	8.47e-01	0	55	104	0	59	30421
2026-01-29 15:44:42.66	214.50	6.11	-44.1	-62.5	3.8	8.47e-01	0	55	104	0	59	30466
2026-01-29 15:44:43.67	214.36	6.19	-44.1	-62.5	3.8	8.47e-01	0	55	104	0	59	30416
2026-01-29 15:44:44.68	214.22	6.26	-44.1	-62.5	3.8	8.47e-01	0	55	104	0	59	30512
2026-01-29 15:44:45.69	214.07	6.33	-44.1	-62.5	3.8	8.45e-01	0	55	104	0	59	30473
2026-01-29 15:44:46.70	213.93	6.41	-44.1	-62.5	3.8	8.46e-01	0	55	104	0	59	30509
2026-01-29 15:44:47.70	213.79	6.48	-44.1	-62.5	3.8	8.46e-01	0	55	104	0	59	30471
2026-01-29 15:44:48.71	213.65	6.55	-44.1	-62.5	3.8	8.46e-01	0	55	104	0	59	30450
2026-01-29 15:44:49.72	213.50	6.63	-44.1	-62.5	3.8	8.45e-01	0	55	104	0	59	30450
2026-01-29 15:44:50.73	213.35	6.70	-44.1	-62.5	3.8	8.45e-01	0	55	104	0	59	30512
2026-01-29 15:44:51.74	213.20	6.77	-44.1	-62.5	3.8	8.46e-01	0	55	104	0	59	30542
2026-01-29 15:44:52.75	213.06	6.85	-44.1	-62.5	3.8	8.47e-01	0	55	104	0	59	30453
2026-01-29 15:44:53.76	212.91	6.92	-44.1	-62.5	3.8	8.47e-01	0	55	104	0	59	30446
2026-01-29 15:44:54.77	212.75	7.00	-44.1	-62.5	3.8	8.46e-01	0	55	104	0	59	30464
2026-01-29 15:44:55.78	212.60	7.07	-44.1	-62.5	3.8	8.46e-01	0	56	104	0	59	30418
2026-01-29 15:44:56.79	212.45	7.15	-44.1	-62.5	3.8	8.46e-01	0	55	104	0	59	30501
2026-01-29 15:44:57.80	212.29	7.22	-44.1	-62.5	3.8	8.47e-01	0	56	104	0	59	30466
2026-01-29 15:44:58.81	212.14	7.30	-44.1	-62.4	3.8	8.46e-01	0	56	104	0	59	30379
2026-01-29 15:44:59.82	211.98	7.37	-44.1	-62.5	3.8	8.45e-01	0	56	104	0	59	30491
2026-01-29 15:45:00.83	211.82	7.45	-44.1	-62.5	3.8	8.45e-01	0	56	104	0	59	30533
2026-01-29 15:45:01.84	211.67	7.53	-44.1	-62.5	3.8	8.46e-01	0	56	104	0	59	30473
2026-01-29 15:45:02.85	211.51	7.60	-44.1	-62.5	3.8	8.47e-01	0	56	104	0	59	30462
2026-01-29 15:45:03.86	211.34	7.68	-44.1	-62.5	3.8	8.47e-01	0	56	104	0	59	30416
2026-01-29 15:45:04.87	211.18	7.75	-44.1	-62.5	3.8	8.47e-01	0	56	104	0	59	30402
2026-01-29 15:45:05.88	211.02	7.83	-44.1	-62.5	3.8	8.46e-01	0	56	104	0	59	30441
2026-01-29 15:45:06.89	210.85	7.91	-44.1	-62.5	3.8	8.46e-01	0	56	104	0	59	30391
2026-01-29 15:45:07.90	210.69	7.99	-44.1	-62.5	3.8	8.46e-01	0	56	104	0	59	30473
2026-01-29 15:45:08.91	210.52	8.06	-44.1	-62.5	3.8	8.45e-01	0	56	104	0	59	30437
2026-01-29 15:45:09.92	210.35	8.14	-44.4	-62.8	3.8	8.45e-01	0	56	104	0	59	31483
2026-01-29 15:45:10.93	210.18	8.22	-44.2	-62.6	3.8	8.45e-01	0	56	104	0	59	30821
2026-01-29 15:45:11.94	210.01	8.30	-44.1	-62.5	3.8	8.46e-01	0	56	104	0	59	30604
2026-01-29 15:45:12.95	209.84	8.37	-44.2	-62.6	3.8	8.46e-01	0	56	104	0	59	31048
2026-01-29 15:45:13.96	209.66	8.45	-44.0	-62.4	3.8	8.46e-01	0	56	104	0	59	30311
2026-01-29 15:45:14.97	209.49	8.53	-44.2	-62.6	3.8	8.47e-01	0	56	104	0	59	30772
2026-01-29 15:45:15.97	209.31	8.61	-44.1	-62.5	3.8	8.47e-01	0	56	104	0	59	30521
2026-01-29 15:45:16.98	209.14	8.69	-44.3	-62.7	3.8	8.47e-01	0	56	104	0	59	31092
2026-01-29 15:45:17.99	208.96	8.77	-44.1	-62.4	3.8	8.46e-01	0	56	104	0	59	30363
2026-01-29 15:45:19.00	208.78	8.85	-44.2	-62.6	3.8	8.46e-01	0	56	104	0	59	30823
2026-01-29 15:45:20.02	208.59	8.93	-44.1	-62.5	3.8	8.46e-01	0	56	104	0	59	30676
2026-01-29 15:45:21.03	208.41	9.01	-44.3	-62.7	3.8	8.44e-01	0	56	104	0	59	31220
2026-01-29 15:45:22.04	208.23	9.08	-44.1	-62.5	3.8	8.45e-01	0	56	104	0	59	30453
2026-01-29 15:45:23.05	208.04	9.16	-44.2	-62.6	3.8	8.45e-01	0	57	104	0	59	30873
2026-01-29 15:45:24.06	207.85	9.24	-44.2	-62.5	3.8	8.49e-01	0	57	104	0	59	30685
2026-01-29 15:45:25.07	207.66	9.32	-44.3	-62.7	3.8	8.45e-01	0	56	104	0	59	31202
2026-01-29 15:45:26.08	207.47	9.41	-44.1	-62.5	3.8	8.46e-01	0	57	104	0	59	30497
2026-01-29 15:45:27.09	207.28	9.49	-44.2	-62.6	3.8	8.46e-01	0	57	104	0	59	31019
2026-01-29 15:45:28.10	207.09	9.57	-44.2	-62.6	3.8	8.47e-01	0	57	104	0	59	30777
2026-01-29 15:45:29.11	206.90	9.65	-44.3	-62.7	3.8	8.47e-01	0	57	104	0	59	31306
2026-01-29 15:45:30.12	206.70	9.73	-44.2	-62.5	3.8	8.47e-01	0	57	104	0	59	30614
2026-01-29 15:45:31.13	206.50	9.81	-44.3	-62.6	3.8	8.45e-01	0	57	104	0	59	31042
2026-01-29 15:45:32.14	206.30	9.89	-44.2	-62.6	3.8	8.47e-01	0	57	104	0	59	30851
2026-01-29 15:45:33.15	206.10	9.97	-44.3	-62.7	3.8	8.47e-01	0	57	104	0	59	31410
2026-01-29 15:45:34.16	205.90	10.05	-44.2	-62.6	3.8	8.46e-01	0	57	104	0	59	30785
2026-01-29 15:45:35.17	205.70	10.13	-44.3	-62.7	3.8	8.47e-01	0	57	104	0	59	31232
2026-01-29 15:45:36.18	205.49	10.22	-44.2	-62.6	3.8	8.46e-01	0	57	104	0	59	30957
2026-01-29 15:45:37.19	205.29	10.30	-44.4	-62.8	3.8	8.46e-01	0	57	104	0	59	31463
2026-01-29 15:45:38.20	205.08	10.38	-44.2	-62.6	3.8	8.46e-01	0	57	104	0	59	30847
2026-01-29 15:45:39.21	204.87	10.46	-44.3	-62.7	3.8	8.47e-01	0	57	104	0	59	31194
2026-01-29 15:45:40.22	204.66	10.54	-44.3	-62.7	3.8	8.47e-01	0	57	104	0	59	31121
2026-01-29 15:45:41.23	204.44	10.63	-44.4	-62.8	3.8	8.47e-01	0	57	104	0	59	31483
2026-01-29 15:45:42.24	204.23	10.71	-44.2	-62.6	3.8	8.46e-01	0	57	104	0	59	30977
2026-01-29 15:45:43.25	204.01	10.79	-44.3	-62.7	3.8	8.46e-01	0	57	104	0	59	31376
2026-01-29 15:45:44.26	203.80	10.88	-44.3	-62.7	3.8	8.45e-01	0	57	104	0	59	31241
2026-01-29 15:45:45.27	203.58	10.96	-44.4	-62.8	3.8	8.46e-01	0	57	104	0	59	31598
2026-01-29 15:45:46.28	203.35	11.04	-44.3	-62.7	3.8	8.46e-01	0	57	104	0	59	31131
2026-01-29 15:45:47.29	203.13	11.12	-44.4	-62.8	3.8	8.46e-01	0	57	104	0	59	31454
2026-01-29 15:45:48.30	202.91	11.21	-44.3	-62.7	3.8	8.47e-01	0	57	104	0	59	31308
2026-01-29 15:45:49.31	202.68	11.29	-44.4	-62.8	3.8	8.47e-01	0	57	104	0	59	31660
2026-01-29 15:45:50.32	202.45	11.37	-44.3	-62.7	3.8	8.47e-01	0	57	104	0	59	31296
2026-01-29 15:45:51.33	202.22	11.46	-44.4	-62.8	3.8	8.46e-01	0	57	104	0	59	31616
2026-01-29 15:45:52.34	201.99	11.54	-44.4	-62.7	3.8	8.46e-01	0	57	104	0	59	31440
2026-01-29 15:45:53.35	201.76	11.62	-44.4	-62.8	3.8	8.46e-01	0	57	104	0	59	31710
2026-01-29 15:45:54.36	201.52	11.71	-44.3	-62.7	3.8	8.45e-01	0	57	104	0	59	31347
2026-01-29 15:45:55.37	201.29	11.79	-44.4	-62.8	3.8	8.45e-01	0	57	104	0	59	31678
2026-01-29 15:45:56.38	201.05	11.87	-44.4	-62.8	3.8	8.45e-01	0	57	104	0	59	31618
2026-01-29 15:45:57.39	200.81	11.96	-44.5	-62.9	3.8	8.46e-01	0	58	104	0	59	31846
2026-01-29 15:45:58.40	200.57	12.04	-44.4	-62.8	3.8	8.46e-01	0	57	104	0	59	31553
2026-01-29 15:45:59.41	200.32	12.13	-44.4	-62.8	3.8	8.46e-01	0	57	104	0	59	31728
2026-01-29 15:46:00.42	200.08	12.21	-44.4	-62.8	3.8	8.47e-01	0	58	104	0	59	31773
2026-01-29 15:46:01.43	199.83	12.29	-44.5	-62.9	3.8	8.47e-01	0	57	104	0	59	31904
2026-01-29 15:46:02.44	199.58	12.38	-44.4	-62.8	3.8	8.45e-01	0	58	104	0	59	31639
2026-01-29 15:46:03.45	199.33	12.46	-44.5	-62.9	3.8	8.45e-01	0	57	104	0	59	31820
2026-01-29 15:46:04.46	199.07	12.55	-44.5	-62.8	3.8	8.45e-01	0	57	104	0	59	31688
2026-01-29 15:46:05.47	198.82	12.63	-44.5	-62.9	3.8	8.47e-01	0	58	104	0	59	31963
2026-01-29 15:46:06.48	198.56	12.71	-44.5	-62.8	3.8	8.47e-01	0	58	104	0	59	31759
2026-01-29 15:46:07.49	198.30	12.80	-44.5	-62.9	3.8	8.46e-01	0	57	104	0	59	31839
2026-01-29 15:46:08.50	198.04	12.88	-44.5	-62.9	3.8	8.46e-01	0	57	104	0	59	31884
2026-01-29 15:46:09.51	197.78	12.96	-44.5	-62.9	3.8	8.46e-01	0	58	104	0	59	31932
2026-01-29 15:46:10.52	197.51	13.05	-44.5	-62.9	3.8	8.46e-01	0	58	104	0	59	31857
2026-01-29 15:46:11.52	197.25	13.13	-44.5	-62.9	3.8	8.45e-01	0	58	104	0	59	31939
2026-01-29 15:46:12.53	196.98	13.21	-44.5	-62.9	3.8	8.45e-01	0	58	104	0	59	31980
2026-01-29 15:46:13.54	196.71	13.30	-44.5	-62.9	3.8	8.46e-01	0	58	104	0	59	31975
2026-01-29 15:46:14.55	196.44	13.38	-44.5	-62.9	3.8	8.46e-01	0	58	104	0	59	32041
2026-01-29 15:46:15.56	196.16	13.46	-44.5	-62.9	3.8	8.46e-01	0	58	104	0	59	31983
2026-01-29 15:46:16.57	195.88	13.55	-44.7	-63.4	3.8	8.46e-01	0	58	104	0	60	32119
2026-01-29 15:46:17.58	195.60	13.63	-44.5	-63.0	3.8	8.47e-01	0	58	104	0	60	30387
2026-01-29 15:46:18.59	195.32	13.71	-44.5	-62.9	3.8	8.46e-01	0	58	104	0	60	30290
2026-01-29 15:46:19.60	195.04	13.80	-44.4	-62.9	3.8	8.46e-01	0	58	104	0	60	30185
2026-01-29 15:46:20.61	194.76	13.88	-44.5	-62.9	3.8	8.46e-01	0	58	104	0	60	30335
2026-01-29 15:46:21.62	194.47	13.96	-44.4	-62.9	3.8	8.46e-01	0	58	104	0	60	30297
2026-01-29 15:46:22.63	194.18	14.04	-44.4	-62.9	3.8	8.46e-01	0	58	104	0	60	30211
2026-01-29 15:46:23.64	193.89	14.13	-44.4	-62.9	3.8	8.46e-01	0	58	104	0	60	30166
2026-01-29 15:46:24.65	193.59	14.21	-44.5	-62.9	3.8	8.46e-01	0	58	104	0	60	30286
2026-01-29 15:46:25.66	193.30	14.29	-44.4	-62.9	3.8	8.46e-01	0	58	104	0	60	30104
2026-01-29 15:46:26.67	193.00	14.37	-44.4	-62.9	3.8	8.45e-01	0	58	104	0	60	30145
2026-01-29 15:46:27.68	192.70	14.45	-44.4	-62.9	3.8	8.46e-01	0	58	104	0	60	30173
2026-01-29 15:46:28.69	192.40	14.53	-44.5	-62.9	3.8	8.44e-01	0	58	104	0	60	30310
2026-01-29 15:46:29.70	192.10	14.61	-44.4	-62.9	3.8	8.44e-01	0	58	104	0	60	30271
2026-01-29 15:46:30.71	191.79	14.69	-44.5	-62.9	3.8	8.47e-01	0	58	104	0	60	30203
2026-01-29 15:46:31.72	191.48	14.77	-44.4	-62.9	3.8	8.46e-01	0	58	104	0	60	30280
2026-01-29 15:46:32.73	191.17	14.85	-44.5	-63.0	3.8	8.46e-01	0	58	104	0	60	30393
2026-01-29 15:46:33.74	190.86	14.93	-44.4	-62.9	3.8	8.46e-01	0	58	104	0	60	30211
2026-01-29 15:46:34.75	190.54	15.01	-44.5	-62.9	3.8	8.46e-01	0	58	104	0	60	30283
2026-01-29 15:46:35.76	190.23	15.09	-44.5	-62.9	3.8	8.46e-01	0	58	104	0	60	30262
2026-01-29 15:46:36.77	189.91	15.17	-44.5	-63.0	3.8	8.46e-01	0	58	104	0	60	30399
2026-01-29 15:46:37.78	189.59	15.25	-44.5	-62.9	3.8	8.46e-01	0	58	104	0	60	30204
2026-01-29 15:46:38.79	189.26	15.33	-44.5	-62.9	3.8	8.46e-01	0	58	104	0	60	30356
2026-01-29 15:46:39.80	188.94	15.40	-44.5	-62.9	3.8	8.46e-01	0	58	104	0	60	30311
2026-01-29 15:46:40.81	188.61	15.48	-44.5	-63.0	3.8	8.45e-01	0	58	104	0	60	30495
2026-01-29 15:46:41.82	188.28	15.56	-44.5	-62.9	3.8	8.46e-01	0	58	104	0	60	30266
2026-01-29 15:46:42.83	187.95	15.64	-44.5	-63.0	3.8	8.46e-01	0	58	104	0	60	30391
2026-01-29 15:46:43.84	187.62	15.71	-44.5	-62.9	3.8	8.46e-01	0	58	104	0	60	30303
2026-01-29 15:46:44.85	187.28	15.79	-44.5	-63.0	3.8	8.45e-01	0	58	104	0	60	30505
2026-01-29 15:46:45.86	186.94	15.86	-44.5	-62.9	3.8	8.45e-01	0	58	104	0	60	30339
2026-01-29 15:46:46.87	186.60	15.94	-44.5	-62.9	3.8	8.46e-01	0	58	104	0	60	30379
2026-01-29 15:46:47.88	186.26	16.01	-44.5	-62.9	3.8	8.46e-01	0	58	104	0	60	30376
2026-01-29 15:46:48.89	185.91	16.08	-44.6	-63.0	3.8	8.46e-01	0	58	104	0	60	30529
2026-01-29 15:46:49.90	185.57	16.16	-44.5	-63.0	3.8	8.47e-01	0	58	104	0	60	30427
2026-01-29 15:46:50.90	185.22	16.23	-44.5	-63.0	3.8	8.47e-01	0	58	104	0	60	30413
2026-01-29 15:46:51.91	184.87	16.30	-44.5	-63.0	3.8	8.46e-01	0	58	104	0	60	30484
2026-01-29 15:46:52.93	184.51	16.37	-44.5	-63.0	3.8	8.46e-01	0	58	104	0	60	30588
2026-01-29 15:46:53.94	184.16	16.44	-44.5	-63.0	3.8	8.46e-01	0	58	104	0	60	30410
2026-01-29 15:46:54.94	183.80	16.51	-44.5	-62.9	3.8	8.46e-01	0	58	104	0	60	30290
2026-01-29 15:46:55.95	183.45	16.58	-44.5	-63.0	3.8	8.46e-01	0	58	104	0	60	30394
2026-01-29 15:46:56.96	183.08	16.65	-44.5	-63.0	3.8	8.47e-01	0	58	104	0	60	30651
2026-01-29 15:46:57.97	182.72	16.72	-44.5	-63.0	3.8	8.45e-01	0	59	104	0	60	30402
2026-01-29 15:46:58.98	182.36	16.78	-44.5	-63.0	3.8	8.45e-01	0	58	104	0	60	30405
2026-01-29 15:46:59.99	181.99	16.85	-44.5	-63.0	3.8	8.46e-01	0	58	104	0	60	30388
2026-01-29 15:47:01.00	181.62	16.91	-44.6	-63.0	3.8	8.46e-01	0	59	104	0	60	30566
2026-01-29 15:47:02.01	181.25	16.98	-44.5	-62.9	3.8	8.46e-01	0	59	104	0	60	30341
2026-01-29 15:47:03.02	180.87	17.04	-44.5	-63.0	3.8	8.46e-01	0	59	104	0	60	30435
2026-01-29 15:47:04.03	180.50	17.11	-44.5	-63.0	3.8	8.46e-01	0	59	104	0	60	30421
2026-01-29 15:47:05.04	180.12	17.17	-44.6	-63.0	3.8	8.46e-01	0	59	104	0	60	30622
2026-01-29 15:47:06.05	179.74	17.23	-44.5	-62.9	3.8	8.46e-01	0	59	104	0	60	30281
2026-01-29 15:47:07.06	179.36	17.29	-44.5	-63.0	3.8	8.46e-01	0	59	104	0	60	30545
2026-01-29 15:47:08.07	178.98	17.35	-44.5	-63.0	3.8	8.46e-01	0	58	104	0	60	30443
2026-01-29 15:47:09.08	178.59	17.41	-44.6	-63.0	3.8	8.46e-01	0	59	104	0	60	30586
2026-01-29 15:47:10.09	178.20	17.47	-44.5	-63.0	3.8	8.46e-01	0	59	104	0	60	30465
2026-01-29 15:47:11.10	177.81	17.53	-44.6	-63.0	3.8	8.46e-01	0	59	104	0	60	30655
2026-01-29 15:47:12.11	177.42	17.58	-44.6	-63.0	3.8	8.46e-01	0	59	104	0	60	30581
2026-01-29 15:47:13.11	177.04	17.64	-44.6	-63.0	3.8	8.46e-01	0	59	104	0	60	30696
2026-01-29 15:47:14.12	176.64	17.69	-44.5	-63.0	3.8	8.44e-01	0	59	104	0	60	30514
2026-01-29 15:47:15.13	176.25	17.74	-44.6	-63.1	3.8	8.44e-01	0	59	104	0	60	30803
2026-01-29 15:47:16.14	175.85	17.80	-44.6	-63.0	3.8	8.47e-01	0	59	104	0	60	30705
2026-01-29 15:47:17.15	175.45	17.85	-44.6	-63.1	3.8	8.46e-01	0	59	104	0	60	30873
2026-01-29 15:47:18.16	175.05	17.90	-44.6	-63.0	3.8	8.46e-01	0	59	104	0	60	30564
2026-01-29 15:47:19.17	174.64	17.95	-44.9	-63.4	3.8	8.46e-01	0	59	104	0	60	32049
2026-01-29 15:47:20.18	174.24	18.00	-44.7	-63.2	3.8	8.47e-01	0	59	104	0	60	31183
2026-01-29 15:47:21.19	173.83	18.04	-44.8	-63.2	3.8	8.47e-01	0	59	104	0	60	31276
2026-01-29 15:47:22.20	173.43	18.09	-44.7	-63.1	3.8	8.47e-01	0	59	104	0	60	30992
2026-01-29 15:47:23.21	173.02	18.13	-44.7	-63.2	3.8	8.46e-01	0	59	104	0	60	31165
2026-01-29 15:47:24.22	172.61	18.18	-44.7	-63.1	3.8	8.46e-01	0	59	104	0	60	31043
2026-01-29 15:47:25.23	172.20	18.22	-44.7	-63.2	3.8	8.46e-01	0	59	104	0	60	31135
2026-01-29 15:47:26.24	171.78	18.26	-44.7	-63.1	3.8	8.46e-01	0	59	104	0	60	30969
2026-01-29 15:47:27.25	171.37	18.30	-44.7	-63.2	3.8	8.46e-01	0	59	104	0	60	31176
2026-01-29 15:47:28.26	170.95	18.34	-44.7	-63.1	3.8	8.46e-01	0	59	104	0	60	31076
2026-01-29 15:47:29.27	170.54	18.38	-44.7	-63.2	3.8	8.45e-01	0	59	104	0	60	31144
2026-01-29 15:47:30.28	170.12	18.41	-44.7	-63.1	3.8	8.47e-01	0	59	104	0	60	31038
2026-01-29 15:47:31.29	169.70	18.45	-44.8	-63.2	3.8	8.47e-01	0	59	104	0	60	31316
2026-01-29 15:47:32.30	169.28	18.48	-44.8	-63.2	3.8	8.47e-01	0	59	104	0	60	31304
2026-01-29 15:47:33.31	168.85	18.52	-44.8	-63.3	3.8	8.45e-01	0	59	104	0	60	31473
2026-01-29 15:47:34.32	168.43	18.55	-44.8	-63.2	3.8	8.46e-01	0	59	104	0	60	31297
2026-01-29 15:47:35.33	168.01	18.58	-44.9	-63.3	3.8	8.46e-01	0	59	104	0	60	31663
2026-01-29 15:47:36.34	167.58	18.61	-44.8	-63.3	3.8	8.47e-01	0	59	104	0	60	31564
2026-01-29 15:47:37.35	167.16	18.63	-44.9	-63.3	3.8	8.45e-01	0	59	104	0	60	31731
2026-01-29 15:47:38.36	166.73	18.66	-44.9	-63.3	3.8	8.45e-01	0	59	104	0	60	31683
2026-01-29 15:47:39.37	166.30	18.68	-44.9	-63.3	3.8	8.46e-01	0	59	104	0	60	31788
2026-01-29 15:47:40.38	165.87	18.71	-44.9	-63.3	3.8	8.46e-01	0	59	104	0	60	31676
2026-01-29 15:47:41.39	165.44	18.73	-44.9	-63.3	3.8	8.46e-01	0	59	104	0	60	31778
2026-01-29 15:47:42.40	165.01	18.75	-44.9	-63.3	3.8	8.47e-01	0	59	104	0	60	31709
2026-01-29 15:47:43.41	164.58	18.77	-44.9	-63.3	3.8	8.47e-01	0	59	104	0	60	31705
2026-01-29 15:47:44.42	164.15	18.79	-44.9	-63.3	3.8	8.46e-01	0	59	104	0	60	31596
2026-01-29 15:47:45.42	163.72	18.80	-44.9	-63.3	3.8	8.46e-01	0	59	104	0	60	31740
2026-01-29 15:47:46.43	163.29	18.82	-44.9	-63.3	3.8	8.45e-01	0	59	104	0	60	31708
2026-01-29 15:47:47.44	162.86	18.83	-44.9	-63.4	3.8	8.46e-01	0	59	104	0	60	31820
2026-01-29 15:47:48.45	162.42	18.85	-44.9	-63.3	3.8	8.46e-01	0	59	104	0	60	31657
2026-01-29 15:47:49.46	161.99	18.86	-44.9	-63.4	3.8	8.45e-01	0	59	104	0	60	31876
2026-01-29 15:47:50.47	161.56	18.87	-44.9	-63.3	3.8	8.47e-01	0	59	104	0	60	31724
2026-01-29 15:47:51.48	161.12	18.88	-44.9	-63.3	3.8	8.47e-01	0	59	104	0	60	31792
2026-01-29 15:47:52.49	160.69	18.88	-44.9	-63.3	3.8	8.45e-01	0	59	104	0	60	31718
2026-01-29 15:47:53.50	160.25	18.89	-44.9	-63.3	3.8	8.46e-01	0	59	104	0	60	31788
2026-01-29 15:47:54.51	159.82	18.89	-44.9	-63.3	3.8	8.46e-01	0	59	104	0	60	31677
2026-01-29 15:47:55.52	159.38	18.89	-44.9	-63.3	3.8	8.46e-01	0	59	104	0	60	31759
2026-01-29 15:47:56.53	158.95	18.89	-44.9	-63.3	3.8	8.46e-01	0	59	104	0	60	31807
2026-01-29 15:47:57.54	158.51	18.89	-44.9	-63.4	3.8	8.47e-01	0	59	104	0	60	31862
2026-01-29 15:47:58.55	158.07	18.89	-44.9	-63.3	3.8	8.47e-01	0	59	104	0	60	31628
2026-01-29 15:47:59.56	157.64	18.89	-44.9	-63.3	3.8	8.46e-01	0	59	104	0	60	31721
2026-01-29 15:48:00.57	157.20	18.88	-44.9	-63.3	3.8	8.46e-01	0	59	104	0	60	31762
2026-01-29 15:48:01.57	156.77	18.88	-44.9	-63.3	3.8	8.46e-01	0	59	104	0	60	31806
2026-01-29 15:48:02.58	156.34	18.87	-44.9	-63.3	3.8	8.47e-01	0	59	104	0	60	31698
2026-01-29 15:48:03.60	155.90	18.86	-44.9	-63.3	3.8	8.47e-01	0	59	104	0	60	31690
2026-01-29 15:48:04.60	155.47	18.85	-44.9	-63.3	3.8	8.47e-01	0	59	104	0	60	31693
2026-01-29 15:48:05.61	155.04	18.84	-44.9	-63.4	3.8	8.46e-01	0	59	104	0	60	31859
2026-01-29 15:48:06.62	154.60	18.83	-44.9	-63.3	3.8	8.45e-01	0	59	104	0	60	31599
2026-01-29 15:48:07.63	154.17	18.81	-44.9	-63.3	3.8	8.45e-01	0	59	104	0	60	31727
2026-01-29 15:48:08.64	153.74	18.79	-44.9	-63.3	3.8	8.46e-01	0	59	104	0	60	31681
2026-01-29 15:48:09.65	153.31	18.78	-44.9	-63.4	3.8	8.46e-01	0	59	104	0	60	31828
2026-01-29 15:48:10.66	152.88	18.76	-44.9	-63.3	3.8	8.47e-01	0	59	104	0	60	31600
2026-01-29 15:48:11.67	152.45	18.74	-44.9	-63.3	3.8	8.47e-01	0	59	104	0	60	31630
2026-01-29 15:48:12.68	152.02	18.72	-44.8	-63.3	3.8	8.47e-01	0	59	104	0	60	31649
2026-01-29 15:48:13.69	151.59	18.69	-44.9	-63.3	3.8	8.46e-01	0	59	104	0	60	31643
2026-01-29 15:48:14.70	151.16	18.67	-44.8	-63.2	3.8	8.46e-01	0	59	104	0	60	31430
2026-01-29 15:48:15.71	150.73	18.64	-44.8	-63.3	3.8	8.45e-01	0	59	104	0	60	31522
2026-01-29 15:48:16.72	150.31	18.62	-44.9	-63.3	3.8	8.47e-01	0	59	104	0	60	31595
2026-01-29 15:48:17.73	149.88	18.59	-44.8	-63.2	3.8	8.47e-01	0	59	104	0	60	31401
2026-01-29 15:48:18.74	149.46	18.56	-44.8	-63.2	3.8	8.45e-01	0	60	104	0	60	31433
2026-01-29 15:48:19.75	149.03	18.53	-44.8	-63.2	3.8	8.47e-01	0	60	104	0	60	31419
2026-01-29 15:48:20.76	148.61	18.49	-44.8	-63.2	3.8	8.47e-01	0	59	104	0	60	31291
2026-01-29 15:48:21.77	148.19	18.46	-44.8	-63.2	3.8	8.46e-01	0	59	104	0	60	31347
2026-01-29 15:48:22.78	147.77	18.43	-44.8	-63.2	3.8	8.46e-01	0	60	104	0	60	31198
2026-01-29 15:48:23.79	147.35	18.39	-44.8	-63.2	3.8	8.45e-01	0	59	104	0	60	31266
2026-01-29 15:48:24.80	146.94	18.35	-44.8	-63.2	3.8	8.45e-01	0	59	104	0	60	31317
2026-01-29 15:48:25.81	146.52	18.31	-44.8	-63.2	3.8	8.46e-01	0	59	104	0	60	31277
2026-01-29 15:48:26.82	146.11	18.28	-44.7	-63.2	3.8	8.46e-01	0	60	104	0	60	31104
2026-01-29 15:48:27.83	145.69	18.23	-44.8	-63.2	3.8	8.46e-01	0	60	104	0	60	31154
2026-01-29 15:48:28.83	145.29	18.19	-44.8	-63.2	3.8	8.46e-01	0	60	104	0	60	31146
2026-01-29 15:48:29.85	144.87	18.15	-44.8	-63.2	3.8	8.47e-01	0	60	104	0	60	31106
2026-01-29 15:48:30.85	144.47	18.11	-44.7	-63.1	3.8	8.47e-01	0	59	104	0	60	30967
2026-01-29 15:48:31.87	144.05	18.06	-44.7	-63.1	3.8	8.45e-01	0	60	104	0	60	31065
2026-01-29 15:48:32.88	143.65	18.01	-44.8	-63.1	3.8	8.48e-01	0	59	104	0	60	31002
2026-01-29 15:48:33.88	143.25	17.97	-44.7	-63.1	3.8	8.47e-01	0	60	104	0	60	31048
2026-01-29 15:48:34.89	142.85	17.92	-44.7	-63.1	3.8	8.47e-01	0	60	104	0	60	31060
2026-01-29 15:48:35.90	142.44	17.87	-44.7	-63.1	3.8	8.45e-01	0	60	104	0	60	30984
2026-01-29 15:48:36.91	142.04	17.82	-44.8	-63.2	3.8	8.47e-01	0	60	104	0	60	31152
2026-01-29 15:48:37.92	141.65	17.76	-44.7	-63.1	3.8	8.47e-01	0	60	104	0	60	31050
2026-01-29 15:48:38.93	141.25	17.71	-44.7	-63.1	3.8	8.46e-01	0	60	104	0	60	30911
2026-01-29 15:48:39.94	140.86	17.66	-44.6	-63.1	3.8	8.47e-01	0	60	104	0	60	30932
2026-01-29 15:48:40.95	140.46	17.60	-45.2	-63.4	3.9	8.47e-01	0	60	104	0	60	31868
2026-01-29 15:48:41.96	140.07	17.55	-44.7	-63.1	3.8	8.47e-01	0	60	104	0	60	30982
2026-01-29 15:48:42.97	139.68	17.49	-44.6	-63.1	3.8	8.45e-01	0	60	104	0	60	30991
2026-01-29 15:48:43.98	139.30	17.43	-44.7	-63.1	3.8	8.45e-01	0	60	104	0	60	30798
2026-01-29 15:48:44.99	138.91	17.37	-44.7	-63.1	3.8	8.47e-01	0	60	104	0	60	30803
2026-01-29 15:48:46.00	138.53	17.31	-44.6	-63.1	3.8	8.46e-01	0	60	104	0	60	30817
2026-01-29 15:48:47.01	138.15	17.25	-44.6	-63.1	3.8	8.47e-01	0	60	104	0	59	32593
2026-01-29 15:48:48.02	137.77	17.19	-44.7	-63.1	3.8	8.47e-01	0	60	104	0	60	30831
2026-01-29 15:48:49.03	137.39	17.13	-44.6	-63.1	3.8	8.46e-01	0	60	104	0	60	30885
2026-01-29 15:48:50.04	137.01	17.07	-43.0	-63.0	3.8	8.45e-01	0	60	104	0	59	32534
2026-01-29 15:48:51.05	136.64	17.00	-43.8	-63.0	3.8	8.45e-01	0	60	104	0	59	32447
2026-01-29 15:48:52.06	136.27	16.94	-44.5	-63.2	3.9	8.46e-01	0	60	104	0	59	33120
2026-01-29 15:48:53.07	135.90	16.87	-41.7	-62.1	3.8	8.47e-01	0	60	104	0	57	32924
2026-01-29 15:48:54.08	135.53	16.81	-44.6	-63.0	3.8	8.47e-01	0	60	104	0	59	32283
2026-01-29 15:48:55.09	135.17	16.74	-44.6	-63.0	3.8	8.44e-01	0	60	104	0	59	32232
2026-01-29 15:48:56.10	134.80	16.67	-44.5	-63.0	3.8	8.47e-01	0	60	104	0	59	32481
2026-01-29 15:48:57.10	134.44	16.61	-43.5	-62.7	3.8	8.47e-01	0	60	104	0	59	31109
2026-01-29 15:48:58.11	134.08	16.54	-44.5	-63.7	3.8	8.47e-01	0	60	104	0	59	34987
2026-01-29 15:48:59.12	133.73	16.47	-44.6	-62.9	3.8	8.46e-01	0	60	104	0	59	32119
2026-01-29 15:49:00.13	133.37	16.40	-44.4	-62.9	3.8	8.47e-01	0	60	104	0	59	32037
2026-01-29 15:49:01.14	133.02	16.33	-42.8	-63.1	3.9	8.47e-01	0	60	104	0	58	34713
2026-01-29 15:49:02.15	132.67	16.26	-39.7	-60.2	3.7	8.47e-01	0	60	104	0	53	33134
2026-01-29 15:49:03.16	132.32	16.18	-39.3	-63.7	3.7	8.47e-01	0	60	104	0	58	37289
2026-01-29 15:49:04.17	131.97	16.11	-44.5	-63.0	3.8	8.47e-01	0	60	104	0	59	32321
2026-01-29 15:49:05.18	131.63	16.04	-42.0	-62.5	3.6	8.46e-01	0	60	104	0	53	43177
2026-01-29 15:49:06.19	131.28	15.96	-39.5	-61.0	4.2	8.45e-01	0	60	104	0	51	40780
2026-01-29 15:49:07.20	130.94	15.89	-33.8	-60.8	3.5	8.45e-01	0	60	104	0	47	50111
2026-01-29 15:49:08.21	130.60	15.82	-37.8	-60.4	3.9	8.42e-01	0	60	104	0	43	60130
2026-01-29 15:49:09.22	130.27	15.74	-33.1	-59.5	3.2	8.43e-01	0	60	104	0	41	60725
2026-01-29 15:49:10.23	129.93	15.67	-33.1	-58.1	3.8	8.43e-01	0	60	104	0	37	65486
2026-01-29 15:49:11.24	129.60	15.59	-28.4	-59.8	3.1	8.36e-01	0	60	104	0	42	59575
2026-01-29 15:49:12.25	129.27	15.51	-43.7	-63.1	3.9	8.40e-01	0	60	104	0	58	34704
2026-01-29 15:49:13.26	128.94	15.44	-30.1	-56.6	3.7	8.43e-01	0	60	104	0	36	58344
2026-01-29 15:49:14.27	128.62	15.36	-39.4	-62.0	3.6	8.43e-01	0	60	104	0	46	61117
2026-01-29 15:49:15.28	128.30	15.28	-37.7	-61.9	3.7	8.40e-01	0	60	104	0	45	64022
2026-01-29 15:49:16.29	127.97	15.20	-39.2	-60.9	4.3	8.38e-01	0	60	104	0	45	56901
2026-01-29 15:49:17.30	127.66	15.13	-38.4	-60.2	4.1	8.38e-01	0	60	104	0	42	62366
2026-01-29 15:49:18.31	127.34	15.05	-33.2	-59.6	3.8	8.42e-01	0	60	104	0	40	64957
2026-01-29 15:49:19.32	127.02	14.97	-33.5	-60.3	3.5	8.37e-01	0	60	104	0	43	59710
2026-01-29 15:49:20.33	126.71	14.89	-42.7	-62.6	3.9	8.37e-01	0	60	104	0	56	36749
2026-01-29 15:49:21.34	126.40	14.81	-42.1	-62.7	3.4	8.41e-01	0	60	104	0	51	49330
2026-01-29 15:49:22.35	126.09	14.73	-41.7	-60.8	4.0	8.45e-01	0	60	104	0	47	50250
2026-01-29 15:49:23.36	125.79	14.65	-41.1	-61.5	3.9	8.45e-01	0	60	104	0	51	43355
2026-01-29 15:49:24.37	125.48	14.57	-41.8	-61.8	3.8	8.45e-01	0	60	104	0	51	44864
2026-01-29 15:49:25.38	125.18	14.49	-42.4	-63.1	3.9	8.45e-01	0	60	104	0	54	43860
2026-01-29 15:49:26.39	124.88	14.41	-40.6	-63.4	3.8	8.45e-01	0	60	104	0	54	45012
2026-01-29 15:49:27.40	124.58	14.32	-40.2	-61.6	3.9	8.45e-01	0	60	104	0	52	41414
2026-01-29 15:49:28.41	124.29	14.24	-41.8	-62.6	3.7	8.46e-01	0	60	104	0	54	41313
2026-01-29 15:49:29.42	123.99	14.16	-39.3	-62.1	3.8	8.44e-01	0	60	104	0	53	41174
2026-01-29 15:49:30.43	123.70	14.08	-43.0	-62.3	3.9	8.44e-01	0	60	104	0	53	42235
2026-01-29 15:49:31.44	123.41	14.00	-41.1	-62.9	3.8	8.45e-01	0	60	104	0	51	50994
2026-01-29 15:49:32.45	123.13	13.92	-42.0	-62.5	3.8	8.46e-01	0	60	104	0	53	43008
2026-01-29 15:49:33.46	122.84	13.83	-41.1	-61.5	3.6	8.46e-01	0	60	104	0	50	45864
2026-01-29 15:49:34.47	122.56	13.75	-40.2	-62.0	3.8	8.44e-01	0	60	104	0	53	40810
2026-01-29 15:49:35.48	122.28	13.67	-40.1	-61.8	4.0	8.45e-01	0	60	104	0	51	44662
2026-01-29 15:49:36.49	122.00	13.58	-38.9	-60.8	4.0	8.45e-01	0	60	104	0	48	47531
2026-01-29 15:49:37.50	121.72	13.50	-42.3	-62.6	3.9	8.45e-01	0	60	104	0	54	41377
2026-01-29 15:49:38.51	121.45	13.42	-38.3	-59.6	3.8	8.45e-01	0	60	104	0	40	65535
2026-01-29 15:49:39.51	121.17	13.34	-29.4	-60.4	3.6	8.44e-01	0	60	104	0	42	63600
2026-01-29 15:49:40.53	120.90	13.25	-37.6	-57.1	4.0	8.44e-01	0	60	104	0	35	65535
2026-01-29 15:49:41.53	120.63	13.17	-39.3	-61.8	4.0	8.37e-01	0	60	104	0	49	50027
2026-01-29 15:49:42.54	120.37	13.09	-38.4	-62.1	3.7	8.42e-01	0	60	104	0	45	65418
2026-01-29 15:49:43.55	120.10	13.00	-40.6	-61.7	3.9	8.42e-01	0	60	104	0	49	49476
2026-01-29 15:49:44.56	119.84	12.92	-41.3	-62.4	3.6	8.45e-01	0	60	104	0	54	40258
2026-01-29 15:49:45.57	119.58	12.84	-38.2	-62.1	3.8	8.44e-01	0	60	104	0	52	43551
2026-01-29 15:49:46.58	119.32	12.75	-37.4	-62.2	3.6	8.44e-01	0	60	104	0	46	62569
2026-01-29 15:49:47.59	119.06	12.67	-40.8	-62.7	3.4	8.42e-01	0	60	104	0	52	46714
2026-01-29 15:49:48.60	118.81	12.59	-38.5	-61.8	3.4	8.44e-01	0	60	104	0	47	56484
2026-01-29 15:49:49.61	118.55	12.50	-38.6	-62.6	3.9	8.43e-01	0	60	104	0	48	58401
2026-01-29 15:49:50.62	118.30	12.42	-38.1	-62.6	3.9	8.43e-01	0	60	104	0	46	65083
2026-01-29 15:49:51.63	118.05	12.33	-35.1	-58.0	3.9	8.41e-01	0	60	104	0	37	64909
2026-01-29 15:49:52.64	117.80	12.25	-19.5	-51.3	4.5	8.32e-01	0	60	104	0	27	53280
2026-01-29 15:49:53.65	117.56	12.17	-23.3	-53.6	4.0	8.32e-01	0	60	104	0	28	65523
2026-01-29 15:49:54.66	117.31	12.08	-15.3	-49.7	4.0	8.07e-01	0	60	104	0	22	59198
2026-01-29 15:49:55.67	117.07	12.00	-18.2	-49.1	4.0	7.98e-01	0	60	104	0	19	65308
2026-01-29 15:49:56.68	116.83	11.92	-26.1	-50.6	3.9	7.98e-01	0	60	104	0	22	65535
2026-01-29 15:49:57.69	116.59	11.83	-21.4	-47.6	3.8	7.97e-01	0	60	104	0	16	65535
2026-01-29 15:49:58.70	116.36	11.75	-17.4	-49.8	4.8	7.95e-01	0	60	104	0	21	62893
2026-01-29 15:49:59.71	116.12	11.67	-30.8	-54.1	4.3	7.95e-01	0	60	104	0	29	65535
2026-01-29 15:50:00.72	115.89	11.58	-24.7	-53.6	3.7	8.12e-01	0	60	104	0	29	61912
2026-01-29 15:50:01.73	115.66	11.50	-27.8	-53.1	4.3	8.18e-01	0	60	104	0	27	65535
2026-01-29 15:50:02.74	115.43	11.42	-21.6	-47.6	3.3	7.89e-01	0	60	104	0	16	65535
2026-01-29 15:50:03.75	115.20	11.33	-22.0	-44.6	3.2	7.89e-01	0	60	104	0	10	65535
2026-01-29 15:50:04.76	114.97	11.25	-23.0	-47.6	3.1	7.65e-01	0	60	104	0	16	65535
2026-01-29 15:50:05.77	114.75	11.17	-19.1	-49.3	5.8	7.71e-01	0	60	104	0	21	59885
2026-01-29 15:50:06.78	114.52	11.08	-24.7	-50.6	4.6	7.71e-01	0	60	104	0	22	65523
2026-01-29 15:50:07.79	114.30	11.00	-30.9	-54.1	4.0	7.77e-01	0	60	104	0	29	65535
2026-01-29 15:50:08.80	114.08	10.92	-23.9	-50.6	5.4	7.95e-01	0	60	104	0	22	65535
2026-01-29 15:50:09.80	113.87	10.84	-20.6	-48.1	4.6	7.95e-01	0	60	104	0	17	65535
2026-01-29 15:50:10.81	113.65	10.75	-25.7	-50.1	3.6	7.80e-01	0	60	104	0	21	65535
2026-01-29 15:50:11.83	113.44	10.67	-24.5	-50.1	4.1	7.81e-01	0	60	104	0	21	65535
2026-01-29 15:50:12.83	113.22	10.59	-20.8	-48.6	4.7	7.81e-01	0	60	104	0	18	65535
2026-01-29 15:50:13.85	113.01	10.51	-28.6	-52.6	3.8	7.82e-01	0	60	104	0	26	65535
2026-01-29 15:50:14.86	112.80	10.42	-25.1	-49.6	3.8	7.88e-01	0	60	104	0	20	65535
2026-01-29 15:50:15.87	112.59	10.34	-31.1	-54.6	4.3	7.82e-01	0	60	104	0	30	65487
2026-01-29 15:50:16.88	112.39	10.26	-28.4	-52.6	4.3	7.82e-01	0	60	104	0	26	65535
2026-01-29 15:50:17.89	112.18	10.18	-24.5	-49.1	4.6	8.03e-01	0	60	104	0	19	65535
2026-01-29 15:50:18.90	111.98	10.10	-25.4	-48.6	5.0	7.84e-01	0	60	104	0	18	65535
2026-01-29 15:50:19.91	111.78	10.02	-21.6	-50.1	4.9	7.84e-01	0	60	104	0	21	65535
2026-01-29 15:50:20.92	111.58	9.94	-20.3	-48.6	3.6	7.72e-01	0	60	104	0	18	65535
2026-01-29 15:50:21.92	111.38	9.85	-26.3	-50.6	4.1	7.73e-01	0	60	104	0	22	65535
2026-01-29 15:50:22.93	111.18	9.77	-27.8	-50.1	3.3	7.73e-01	0	60	104	0	21	65535
2026-01-29 15:50:23.94	110.99	9.69	-34.1	-55.6	4.0	8.00e-01	0	60	104	0	32	65535
2026-01-29 15:50:24.95	110.79	9.61	-36.7	-59.1	3.2	7.97e-01	0	60	104	0	39	65535
2026-01-29 15:50:25.96	110.60	9.53	-29.1	-50.1	4.3	7.97e-01	0	60	104	0	21	65535
2026-01-29 15:50:26.97	110.41	9.45	-30.9	-56.1	4.2	8.12e-01	0	60	104	0	33	65535
2026-01-29 15:50:27.98	110.22	9.37	-26.6	-53.1	1.4	8.11e-01	0	60	104	0	27	65535
2026-01-29 15:50:28.99	110.03	9.29	-27.3	-55.6	3.8	8.07e-01	0	60	104	0	32	65535
2026-01-29 15:50:30.00	109.84	9.21	-31.9	-59.1	3.9	8.07e-01	0	60	104	0	39	65535
2026-01-29 15:50:31.01	109.66	9.13	-30.9	-59.1	3.5	8.36e-01	0	60	104	0	39	65419
2026-01-29 15:50:32.02	109.47	9.05	-42.0	-61.0	4.1	8.40e-01	0	60	104	0	53	36407
2026-01-29 15:50:33.03	109.29	8.97	-43.0	-62.0	3.8	8.40e-01	0	60	104	0	56	34251
2026-01-29 15:50:34.04	109.11	8.89	-39.2	-60.8	4.0	8.47e-01	0	60	104	0	52	37717
2026-01-29 15:50:35.05	108.93	8.81	-38.9	-60.2	3.8	8.46e-01	0	60	104	0	51	36960
2026-01-29 15:50:36.06	108.75	8.74	-41.3	-59.9	3.7	8.46e-01	0	60	104	0	52	33972
2026-01-29 15:50:37.07	108.57	8.66	-41.0	-60.1	3.9	8.46e-01	0	60	104	0	52	34579
2026-01-29 15:50:38.08	108.39	8.58	-40.2	-59.1	3.9	8.46e-01	0	60	104	0	51	32577
2026-01-29 15:50:39.09	108.22	8.50	-40.4	-59.7	3.8	8.46e-01	0	60	104	0	51	35225
2026-01-29 15:50:40.10	108.05	8.42	-42.7	-61.7	3.8	8.46e-01	0	60	104	0	56	32929
2026-01-29 15:50:41.11	107.87	8.34	-39.5	-58.6	3.8	8.46e-01	0	60	104	0	50	32867
2026-01-29 15:50:42.12	107.70	8.27	-36.0	-60.1	3.7	8.45e-01	0	60	104	0	51	36858
2026-01-29 15:50:43.13	107.53	8.19	-39.9	-59.5	3.9	8.45e-01	0	60	104	0	50	36220
2026-01-29 15:50:44.14	107.36	8.11	-39.9	-59.0	3.9	8.46e-01	0	60	104	0	50	34130
2026-01-29 15:50:45.15	107.20	8.03	-36.3	-57.8	4.0	8.45e-01	0	60	104	0	47	35608
2026-01-29 15:50:46.16	107.03	7.96	-32.6	-53.3	3.6	8.45e-01	0	60	104	0	36	39678
2026-01-29 15:50:47.17	106.87	7.88	-44.2	-62.3	3.4	8.42e-01	0	60	104	0	55	37730
2026-01-29 15:50:48.18	106.70	7.80	-44.7	-63.1	3.8	8.43e-01	0	60	104	0	60	30872
2026-01-29 15:50:49.19	106.54	7.73	-44.8	-63.2	3.8	8.43e-01	0	60	104	0	60	31403
2026-01-29 15:50:50.20	106.38	7.65	-45.1	-63.5	3.8	8.47e-01	0	60	104	0	60	32207
2026-01-29 15:50:51.21	106.22	7.57	-45.2	-63.6	3.8	8.46e-01	0	60	104	0	60	32856
2026-01-29 15:50:52.22	106.06	7.50	-45.3	-63.7	3.8	8.46e-01	0	60	104	0	61	31423
2026-01-29 15:50:53.23	105.90	7.42	-45.4	-63.8	3.8	8.46e-01	0	60	104	0	61	31676
2026-01-29 15:50:54.24	105.74	7.35	-45.5	-63.9	3.8	8.46e-01	0	60	104	0	61	31972
2026-01-29 15:50:55.25	105.59	7.27	-45.5	-63.9	3.8	8.47e-01	0	60	104	0	61	31821
2026-01-29 15:50:56.26	105.43	7.20	-45.4	-63.8	3.8	8.47e-01	0	60	104	0	61	31676
2026-01-29 15:50:57.27	105.28	7.12	-45.3	-63.7	3.8	8.47e-01	0	60	104	0	61	31438
2026-01-29 15:50:58.28	105.13	7.05	-45.3	-63.7	3.8	8.46e-01	0	60	104	0	61	31176
2026-01-29 15:50:59.29	104.98	6.97	-45.2	-63.6	3.8	8.46e-01	0	60	104	0	61	31026
2026-01-29 15:51:00.30	104.83	6.90	-45.2	-63.6	3.8	8.47e-01	0	60	104	0	61	30885
2026-01-29 15:51:01.31	104.68	6.82	-45.1	-63.6	3.8	8.47e-01	0	60	104	0	61	30836
2026-01-29 15:51:02.32	104.53	6.75	-45.1	-63.5	3.8	8.47e-01	0	60	104	0	61	30714
2026-01-29 15:51:03.33	104.39	6.67	-45.1	-63.5	3.8	8.47e-01	0	60	104	0	61	30604
2026-01-29 15:51:04.34	104.24	6.60	-45.1	-63.5	3.8	8.47e-01	0	60	104	0	61	30533
2026-01-29 15:51:05.35	104.09	6.53	-45.1	-63.5	3.8	8.47e-01	0	60	104	0	61	30509
2026-01-29 15:51:06.36	103.95	6.45	-45.1	-63.5	3.8	8.46e-01	0	60	104	0	61	30642
2026-01-29 15:51:07.37	103.81	6.38	-45.0	-63.5	3.8	8.46e-01	0	60	104	0	61	30627
2026-01-29 15:51:08.38	103.67	6.31	-45.1	-63.5	3.8	8.46e-01	0	60	104	0	61	30540
2026-01-29 15:51:09.40	103.53	6.23	-45.0	-63.5	3.8	8.46e-01	0	60	104	0	61	30484
2026-01-29 15:51:10.41	103.39	6.16	-45.0	-63.5	3.8	8.46e-01	0	60	104	0	61	30569
2026-01-29 15:51:11.42	103.25	6.09	-45.0	-63.5	3.8	8.45e-01	0	60	104	0	61	30564
2026-01-29 15:51:12.43	103.11	6.02	-45.0	-63.5	3.8	8.45e-01	0	60	104	0	61	30537
2026-01-29 15:51:13.43	102.97	5.95	-45.0	-63.5	3.8	8.47e-01	0	60	104	0	61	30542
2026-01-29 15:51:14.44	102.84	5.87	-45.0	-63.5	3.8	8.46e-01	0	60	104	0	61	30429
2026-01-29 15:51:15.45	102.70	5.80	-45.0	-63.5	3.8	8.46e-01	0	60	104	0	61	30453
2026-01-29 15:51:16.46	102.57	5.73	-45.0	-63.5	3.8	8.46e-01	0	60	104	0	61	30488
2026-01-29 15:51:17.47	102.44	5.66	-45.0	-63.5	3.8	8.47e-01	0	60	104	0	61	30504
2026-01-29 15:51:18.47	102.31	5.59	-45.0	-63.5	3.8	8.46e-01	0	60	104	0	61	30493
2026-01-29 15:51:19.48	102.18	5.52	-45.0	-63.5	3.8	8.46e-01	0	60	104	0	61	30500
2026-01-29 15:51:20.49	102.05	5.45	-45.0	-63.5	3.8	8.46e-01	0	60	104	0	61	30485
2026-01-29 15:51:21.50	101.92	5.38	-45.0	-63.5	3.8	8.47e-01	0	60	104	0	61	30456
2026-01-29 15:51:22.51	101.79	5.31	-45.0	-63.5	3.8	8.47e-01	0	60	104	0	61	30422
2026-01-29 15:51:23.52	101.66	5.24	-45.0	-63.5	3.8	8.45e-01	0	60	104	0	61	30455
2026-01-29 15:51:24.53	101.53	5.17	-45.0	-63.5	3.8	8.46e-01	0	60	104	0	61	30389
2026-01-29 15:51:25.54	101.41	5.10	-45.0	-63.5	3.8	8.46e-01	0	60	104	0	61	30442
2026-01-29 15:51:26.55	101.28	5.03	-45.0	-63.5	3.8	8.46e-01	0	61	104	0	61	30443
2026-01-29 15:51:27.56	101.16	4.96	-45.0	-63.5	3.8	8.46e-01	0	60	104	0	61	30456
2026-01-29 15:51:28.57	101.04	4.89	-45.0	-63.5	3.8	8.46e-01	0	60	104	0	61	30401
2026-01-29 15:51:29.58	100.92	4.82	-45.0	-63.5	3.8	8.45e-01	0	61	104	0	61	30475
2026-01-29 15:51:30.59	100.79	4.75	-45.0	-63.5	3.8	8.47e-01	0	60	104	0	61	30455
2026-01-29 15:51:31.60	100.67	4.68	-45.0	-63.5	3.8	8.47e-01	0	60	104	0	61	30455
2026-01-29 15:51:32.61	100.55	4.61	-45.0	-63.4	3.8	8.47e-01	0	60	104	0	61	30372
2026-01-29 15:51:33.62	100.43	4.55	-45.0	-63.5	3.8	8.46e-01	0	61	104	0	61	30391
2026-01-29 15:51:34.63	100.32	4.48	-45.0	-63.5	3.8	8.47e-01	0	60	104	0	61	30495
2026-01-29 15:51:35.64	100.20	4.41	-45.0	-63.5	3.8	8.47e-01	0	60	104	0	61	30479
2026-01-29 15:51:36.65	100.08	4.34	-45.0	-63.5	3.8	8.46e-01	0	60	104	0	61	30390
2026-01-29 15:51:37.66	99.97	4.27	-45.0	-63.4	3.8	8.47e-01	0	60	104	0	61	30361
2026-01-29 15:51:38.67	99.85	4.21	-45.0	-63.4	3.8	8.47e-01	0	60	104	0	61	30348
2026-01-29 15:51:39.68	99.74	4.14	-45.0	-63.5	3.8	8.45e-01	0	61	104	0	61	30456
2026-01-29 15:51:40.69	99.62	4.07	-45.0	-63.5	3.8	8.46e-01	0	60	104	0	61	30415
2026-01-29 15:51:41.70	99.51	4.01	-45.0	-63.5	3.8	8.46e-01	0	60	104	0	61	30428
2026-01-29 15:51:42.71	99.40	3.94	-45.0	-63.4	3.8	8.47e-01	0	60	104	0	61	30335
2026-01-29 15:51:43.71	99.29	3.87	-45.0	-63.4	3.8	8.47e-01	0	60	104	0	61	30328
2026-01-29 15:51:44.72	99.18	3.81	-45.0	-63.4	3.8	8.46e-01	0	60	104	0	61	30341
2026-01-29 15:51:45.73	99.07	3.74	-45.0	-63.4	3.8	8.46e-01	0	60	104	0	61	30367
2026-01-29 15:51:46.74	98.96	3.67	-45.0	-63.5	3.8	8.45e-01	0	60	104	0	61	30472
2026-01-29 15:51:47.75	98.85	3.61	-45.0	-63.5	3.8	8.45e-01	0	60	104	0	61	30514
2026-01-29 15:51:48.76	98.74	3.54	-45.0	-63.5	3.8	8.45e-01	0	60	104	0	61	30413
2026-01-29 15:51:49.77	98.64	3.48	-45.0	-63.5	3.8	8.46e-01	0	60	104	0	61	30397
2026-01-29 15:51:50.78	98.53	3.41	-45.0	-63.5	3.8	8.47e-01	0	60	104	0	61	30397
2026-01-29 15:51:51.79	98.43	3.35	-45.0	-63.5	3.8	8.47e-01	0	60	104	0	61	30393
2026-01-29 15:51:52.80	98.32	3.28	-45.0	-63.5	3.8	8.46e-01	0	60	104	0	61	30442
2026-01-29 15:51:53.81	98.22	3.22	-44.7	-63.4	3.8	8.47e-01	0	61	104	0	60	32176
2026-01-29 15:51:54.82	98.11	3.15	-45.0	-63.5	3.8	8.47e-01	0	60	104	0	60	32180
2026-01-29 15:51:55.83	98.01	3.09	-44.8	-63.5	3.8	8.47e-01	0	60	104	0	60	32211
2026-01-29 15:51:56.84	97.91	3.02	-45.0	-63.5	3.8	8.46e-01	0	60	104	0	60	32296
2026-01-29 15:51:57.85	97.81	2.96	-45.0	-63.5	3.8	8.46e-01	0	60	104	0	60	32257
2026-01-29 15:51:58.86	97.71	2.89	-45.0	-63.5	3.8	8.46e-01	0	60	104	0	60	32201
2026-01-29 15:51:59.87	97.61	2.83	-45.0	-63.5	3.8	8.47e-01	0	60	104	0	60	32266
2026-01-29 15:52:00.88	97.51	2.77	-45.0	-63.5	3.8	8.46e-01	0	60	104	0	60	32242
2026-01-29 15:52:01.90	97.41	2.70	-45.0	-63.4	3.8	8.46e-01	0	60	104	0	60	32177
2026-01-29 15:52:02.91	97.31	2.64	-44.9	-63.4	3.8	8.46e-01	0	60	104	0	60	32127
2026-01-29 15:52:03.92	97.21	2.58	-45.0	-63.5	3.8	8.45e-01	0	60	104	0	60	32333
2026-01-29 15:52:04.93	97.11	2.51	-45.0	-63.5	3.8	8.45e-01	0	60	104	0	60	32257
2026-01-29 15:52:05.94	97.02	2.45	-45.0	-63.4	3.8	8.46e-01	0	60	104	0	60	32088
2026-01-29 15:52:06.95	96.92	2.39	-45.0	-63.5	3.8	8.47e-01	0	60	104	0	60	32191
2026-01-29 15:52:07.96	96.83	2.32	-45.0	-63.5	3.8	8.47e-01	0	61	104	0	60	32184
2026-01-29 15:52:08.97	96.73	2.26	-45.0	-63.5	3.8	8.47e-01	0	60	104	0	60	32222
2026-01-29 15:52:09.98	96.64	2.20	-45.0	-63.4	3.8	8.45e-01	0	60	104	0	60	32159
2026-01-29 15:52:10.99	96.54	2.14	-45.0	-63.4	3.8	8.45e-01	0	60	104	0	60	32113
2026-01-29 15:52:12.00	96.45	2.08	-45.0	-63.5	3.8	8.45e-01	0	61	104	0	60	32231
2026-01-29 15:52:13.01	96.36	2.01	-44.9	-63.5	3.8	8.46e-01	0	60	104	0	60	32182
2026-01-29 15:52:14.02	96.27	1.95	-45.0	-63.4	3.8	8.46e-01	0	60	104	0	60	32174
2026-01-29 15:52:15.03	96.18	1.89	-45.0	-63.5	3.8	8.46e-01	0	60	104	0	60	32180

#Closed at: 2026-01-29 15:52:15
#Recorded file [0 MB]: D:/lorett/data/31039_260129_184340.dat