passes_logs/2026/01/29/R2.0S_Moscow/R2.0S_Moscow__20260129_110000_FENGYUN_3D_rec.log

#Pass ID: 20260129_110000_FENGYUN 3D
#Satellite: FENGYUN 3D
#Configuration: FENGYUN 3D
#almurnet v.1.7.20251203
#Start time: 2026-01-29 10:59:59

#Version: 2.2.20231116
#Station: R2.0S_Moscow
#Location: 37.707566 lon 55.798166 lat
#TLE: 1 43010U 17072A   26027.97130493  .00000326  00000+0  17586-3 0  9998
#TLE: 2 43010  98.9960 359.9900 0002514  87.8428 272.3036 14.19701925425097

#Time	Az	El	Level	Level2	SNR	BER	BlckErr	Temp	State	Recorded	gain1	gain2
2026-01-29 10:59:59.96	131.56	1.97	-18.8	-32.5	3.8	8.34e-01	0	50	0	0	10	16294
2026-01-29 11:00:00.96	131.52	2.03	-12.9	-26.2	3.6	8.21e-01	0	50	104	0	0	13955
2026-01-29 11:00:01.97	131.48	2.09	-21.6	-36.9	3.7	8.16e-01	0	51	104	0	13	22717
2026-01-29 11:00:02.98	131.44	2.16	-21.7	-37.4	3.6	8.13e-01	0	51	0	0	14	22658
2026-01-29 11:00:03.99	131.39	2.22	-14.1	-31.2	3.8	8.21e-01	0	51	104	0	1	23490
2026-01-29 11:00:05.01	131.35	2.28	-19.4	-36.5	3.5	8.20e-01	0	51	104	0	10	25690
2026-01-29 11:00:06.02	131.31	2.34	-15.5	-29.4	3.9	8.13e-01	0	51	104	0	2	18040
2026-01-29 11:00:07.03	131.27	2.41	-16.2	-34.0	3.8	8.22e-01	0	51	104	0	5	25821
2026-01-29 11:00:08.04	131.23	2.47	-15.1	-29.2	3.5	8.21e-01	0	51	0	0	2	17551
2026-01-29 11:00:09.05	131.19	2.53	-16.4	-31.0	3.7	8.42e-01	0	51	104	0	6	17137
2026-01-29 11:00:10.06	131.14	2.60	-18.9	-35.8	3.5	8.26e-01	0	51	104	0	7	28330
2026-01-29 11:00:11.07	131.10	2.66	-14.1	-28.1	3.7	8.24e-01	0	51	104	0	1	16337
2026-01-29 11:00:12.08	131.06	2.72	-18.9	-36.9	3.7	8.22e-01	0	51	104	0	9	28360
2026-01-29 11:00:13.09	131.02	2.79	-21.8	-36.7	3.4	8.15e-01	0	52	104	0	10	26221
2026-01-29 11:00:14.11	130.97	2.85	-16.9	-28.7	3.8	8.21e-01	0	51	104	0	0	18614
2026-01-29 11:00:15.11	130.93	2.92	-15.0	-33.8	3.7	8.23e-01	0	52	104	0	10	18800
2026-01-29 11:00:16.12	130.89	2.98	-20.9	-36.0	3.5	8.22e-01	0	52	104	0	8	27133
2026-01-29 11:00:17.14	130.84	3.04	-22.3	-37.6	3.5	8.18e-01	0	52	104	0	12	25900
2026-01-29 11:00:18.15	130.80	3.11	-23.1	-38.8	3.7	8.23e-01	0	52	104	0	10	33349
2026-01-29 11:00:19.16	130.76	3.17	-16.0	-31.3	3.6	8.16e-01	0	52	104	0	7	16800
2026-01-29 11:00:20.17	130.71	3.24	-17.0	-34.3	3.7	8.13e-01	0	52	104	0	8	22391
2026-01-29 11:00:21.18	130.67	3.30	-18.0	-33.6	3.8	8.24e-01	0	52	104	0	6	23216
2026-01-29 11:00:22.18	130.62	3.37	-14.2	-29.6	3.7	8.32e-01	0	52	0	0	2	18452
2026-01-29 11:00:23.19	130.58	3.43	-19.8	-36.6	3.5	8.20e-01	0	52	104	0	13	21913
2026-01-29 11:00:24.20	130.53	3.50	-16.8	-31.6	3.9	8.14e-01	0	52	104	0	10	14635
2026-01-29 11:00:25.22	130.49	3.56	-12.9	-28.5	3.6	8.18e-01	0	52	104	0	2	16271
2026-01-29 11:00:26.23	130.44	3.63	-19.5	-33.1	3.7	8.15e-01	0	52	104	0	8	19568
2026-01-29 11:00:27.24	130.40	3.69	-13.0	-23.5	3.5	8.19e-01	0	53	104	0	0	10180
2026-01-29 11:00:28.25	130.35	3.76	-20.0	-35.6	3.6	8.20e-01	0	53	104	0	11	21842
2026-01-29 11:00:29.26	130.31	3.83	-19.0	-32.7	4.0	8.34e-01	0	53	104	0	9	17489
2026-01-29 11:00:30.27	130.26	3.89	-16.1	-29.8	3.7	8.27e-01	0	53	104	0	3	17839
2026-01-29 11:00:31.28	130.21	3.96	-21.1	-36.4	3.6	8.13e-01	0	53	104	0	8	28423
2026-01-29 11:00:32.29	130.17	4.02	-17.1	-31.9	3.7	8.23e-01	0	53	104	0	4	21485
2026-01-29 11:00:33.30	130.12	4.09	-14.4	-31.0	3.6	8.24e-01	0	53	104	0	4	19225
2026-01-29 11:00:34.31	130.07	4.16	-12.3	-30.2	3.8	8.26e-01	0	53	104	0	4	17495
2026-01-29 11:00:35.32	130.03	4.22	-19.5	-33.2	3.5	8.22e-01	0	53	104	0	3	26343
2026-01-29 11:00:36.33	129.98	4.29	-20.9	-35.4	3.5	8.27e-01	0	53	104	0	9	24052
2026-01-29 11:00:37.35	129.93	4.36	-17.1	-32.0	3.5	8.25e-01	0	53	104	0	9	16273
2026-01-29 11:00:38.35	129.88	4.43	-18.6	-32.0	3.7	8.32e-01	0	53	104	0	3	22907
2026-01-29 11:00:39.36	129.83	4.49	-20.2	-30.5	3.6	8.35e-01	0	54	104	0	0	23014
2026-01-29 11:00:40.38	129.79	4.56	-14.3	-29.6	3.8	8.25e-01	0	53	104	0	0	20768
2026-01-29 11:00:41.39	129.74	4.63	-14.4	-27.6	3.9	8.33e-01	0	53	104	0	2	14706
2026-01-29 11:00:42.40	129.69	4.70	-20.4	-35.6	3.9	8.29e-01	0	54	104	0	6	29331
2026-01-29 11:00:43.40	129.64	4.76	-19.3	-34.8	3.7	8.28e-01	0	54	104	0	4	29925
2026-01-29 11:00:44.41	129.59	4.83	-15.7	-29.8	3.8	8.25e-01	0	53	104	0	6	14880
2026-01-29 11:00:45.43	129.54	4.90	-21.8	-32.9	3.7	8.27e-01	0	54	104	0	6	21490
2026-01-29 11:00:46.44	129.49	4.97	-22.4	-37.0	3.6	8.30e-01	0	53	104	0	9	28907
2026-01-29 11:00:47.45	129.44	5.04	-19.9	-33.2	3.6	8.15e-01	0	54	104	0	6	22116
2026-01-29 11:00:48.46	129.39	5.11	-13.7	-29.4	3.5	8.29e-01	0	54	104	0	0	20158
2026-01-29 11:00:49.47	129.34	5.18	-12.2	-24.5	3.7	8.31e-01	0	54	104	0	0	11508
2026-01-29 11:00:50.48	129.29	5.24	-16.2	-27.9	3.8	8.35e-01	0	54	0	0	3	14292
2026-01-29 11:00:51.49	129.24	5.31	-17.2	-31.1	3.5	8.23e-01	0	54	104	0	0	24661
2026-01-29 11:00:52.50	129.19	5.38	-17.5	-32.3	3.6	8.20e-01	0	54	104	0	5	21165
2026-01-29 11:00:53.51	129.13	5.45	-16.5	-30.9	3.6	8.25e-01	0	54	104	0	3	20107
2026-01-29 11:00:54.52	129.08	5.52	-17.9	-34.4	3.7	8.22e-01	0	54	0	0	9	21421
2026-01-29 11:00:55.53	129.03	5.59	-18.2	-35.1	3.3	8.12e-01	0	54	104	0	2	34574
2026-01-29 11:00:56.54	128.98	5.66	-17.3	-31.9	3.5	8.23e-01	0	54	104	0	3	22657
2026-01-29 11:00:57.55	128.92	5.73	-14.3	-28.6	3.7	8.36e-01	0	55	104	0	3	15473
2026-01-29 11:00:58.56	128.87	5.80	-12.0	-25.3	3.6	8.34e-01	0	54	104	0	0	12615
2026-01-29 11:00:59.57	128.82	5.87	-15.8	-28.9	3.8	8.40e-01	0	54	104	0	4	15094
2026-01-29 11:01:00.58	128.76	5.94	-15.9	-27.4	3.8	8.26e-01	0	54	104	0	3	13531
2026-01-29 11:01:01.59	128.71	6.01	-15.8	-31.0	3.6	8.24e-01	0	55	104	0	2	21555
2026-01-29 11:01:02.60	128.66	6.09	-16.2	-33.9	3.5	8.33e-01	0	55	104	0	4	26979
2026-01-29 11:01:03.61	128.60	6.16	-20.6	-33.7	3.4	8.29e-01	0	55	104	0	2	29465
2026-01-29 11:01:04.62	128.55	6.23	-15.8	-30.7	3.6	8.18e-01	0	55	104	0	1	22192
2026-01-29 11:01:05.63	128.49	6.30	-14.9	-33.3	3.7	8.27e-01	0	55	104	0	8	19905
2026-01-29 11:01:06.64	128.44	6.37	-18.5	-30.7	3.8	8.26e-01	0	55	104	0	3	19761
2026-01-29 11:01:07.66	128.38	6.44	-15.3	-31.9	3.5	8.30e-01	0	55	104	0	7	17996
2026-01-29 11:01:08.66	128.33	6.51	-18.1	-33.1	3.6	8.26e-01	0	55	104	0	8	19491
2026-01-29 11:01:09.68	128.27	6.59	-20.3	-35.2	3.8	8.19e-01	0	55	104	0	9	23539
2026-01-29 11:01:10.69	128.21	6.66	-17.5	-30.2	3.9	8.26e-01	0	55	104	0	1	20893
2026-01-29 11:01:11.70	128.16	6.73	-14.7	-30.1	3.6	8.22e-01	0	55	104	0	0	21767
2026-01-29 11:01:12.71	128.10	6.81	-15.7	-34.5	3.6	8.29e-01	0	55	104	0	2	32205
2026-01-29 11:01:13.72	128.04	6.88	-21.9	-36.1	3.8	8.17e-01	0	55	104	0	15	18310
2026-01-29 11:01:14.73	127.99	6.95	-20.0	-34.7	3.7	8.21e-01	0	55	104	0	10	20880
2026-01-29 11:01:15.74	127.93	7.02	-15.8	-31.1	3.8	8.29e-01	0	55	104	0	5	18400
2026-01-29 11:01:16.75	127.87	7.10	-21.4	-36.8	3.6	8.30e-01	0	55	104	0	13	22445
2026-01-29 11:01:17.76	127.81	7.17	-19.5	-34.6	3.6	8.30e-01	0	55	104	0	10	20564
2026-01-29 11:01:18.77	127.75	7.25	-15.2	-30.6	3.8	8.26e-01	0	55	104	0	4	18472
2026-01-29 11:01:19.78	127.69	7.32	-21.8	-37.1	3.8	8.22e-01	0	56	104	0	13	23204
2026-01-29 11:01:20.79	127.63	7.39	-13.8	-30.8	3.7	8.30e-01	0	55	104	0	0	23653
2026-01-29 11:01:21.80	127.57	7.47	-15.8	-30.1	3.7	8.31e-01	0	55	104	0	2	19496
2026-01-29 11:01:22.81	127.51	7.54	-19.3	-34.8	3.6	8.36e-01	0	55	104	0	2	33561
2026-01-29 11:01:23.82	127.45	7.62	-18.7	-31.3	3.9	8.23e-01	0	56	104	0	5	18893
2026-01-29 11:01:24.83	127.39	7.69	-16.9	-29.1	3.9	8.26e-01	0	55	104	0	8	12306
2026-01-29 11:01:25.84	127.33	7.77	-15.9	-29.1	3.9	8.26e-01	0	55	104	0	4	15489
2026-01-29 11:01:26.85	127.27	7.84	-19.8	-33.0	3.5	8.36e-01	0	55	104	0	2	27354
2026-01-29 11:01:27.86	127.21	7.92	-17.4	-34.9	3.4	8.36e-01	0	56	104	0	4	30347
2026-01-29 11:01:28.87	127.15	7.99	-20.3	-36.3	3.7	8.29e-01	0	55	104	0	8	28315
2026-01-29 11:01:29.88	127.09	8.07	-18.7	-32.8	3.8	8.16e-01	0	56	104	0	11	15872
2026-01-29 11:01:30.89	127.02	8.15	-16.8	-32.3	3.8	8.31e-01	0	56	104	0	7	18931
2026-01-29 11:01:31.90	126.96	8.22	-20.0	-34.4	4.1	8.31e-01	0	56	104	0	15	15117
2026-01-29 11:01:32.91	126.90	8.30	-21.6	-37.2	3.7	8.35e-01	0	56	104	0	11	26361
2026-01-29 11:01:33.92	126.83	8.38	-14.4	-29.2	3.7	8.29e-01	0	56	104	0	0	19682
2026-01-29 11:01:34.93	126.77	8.45	-21.6	-32.2	4.1	8.17e-01	0	56	104	0	4	22214
2026-01-29 11:01:35.94	126.70	8.53	-15.3	-30.3	3.5	8.26e-01	0	56	104	0	0	22323
2026-01-29 11:01:36.95	126.64	8.61	-13.2	-24.6	3.8	8.45e-01	0	56	104	0	1	11009
2026-01-29 11:01:37.96	126.58	8.68	-17.0	-32.7	3.6	8.24e-01	0	56	104	0	4	23479
2026-01-29 11:01:38.97	126.51	8.76	-18.9	-35.7	4.3	8.30e-01	0	56	104	0	12	20814
2026-01-29 11:01:39.98	126.44	8.84	-27.4	-39.6	4.8	8.29e-01	0	56	104	0	18	23135
2026-01-29 11:01:40.99	126.38	8.92	-16.7	-31.0	4.0	8.31e-01	0	56	104	0	6	17223
2026-01-29 11:01:42.00	126.31	9.00	-18.8	-33.0	3.9	8.32e-01	0	56	104	0	4	24331
2026-01-29 11:01:43.01	126.24	9.08	-15.9	-30.7	3.8	8.35e-01	0	56	104	0	2	20934
2026-01-29 11:01:44.02	126.18	9.15	-20.4	-33.8	3.8	8.25e-01	0	56	104	0	9	19844
2026-01-29 11:01:45.03	126.11	9.23	-18.0	-32.6	3.7	8.32e-01	0	56	104	0	4	23094
2026-01-29 11:01:46.04	126.04	9.31	-17.9	-31.3	3.7	8.32e-01	0	56	104	0	7	16825
2026-01-29 11:01:47.05	125.97	9.39	-19.8	-34.9	4.1	8.32e-01	0	56	104	0	15	16046
2026-01-29 11:01:48.06	125.90	9.47	-19.4	-34.9	4.0	8.33e-01	0	56	104	0	14	16944
2026-01-29 11:01:49.07	125.84	9.55	-16.9	-34.8	3.7	8.29e-01	0	56	104	0	10	21029
2026-01-29 11:01:50.08	125.77	9.63	-23.9	-36.1	3.7	8.38e-01	0	56	104	0	8	27640
2026-01-29 11:01:51.09	125.70	9.71	-19.0	-33.4	4.1	8.36e-01	0	56	104	0	13	15201
2026-01-29 11:01:52.10	125.63	9.79	-17.7	-30.9	4.0	8.35e-01	0	56	104	0	10	13516
2026-01-29 11:01:53.11	125.55	9.87	-16.8	-28.1	4.0	8.36e-01	0	57	0	0	6	12280
2026-01-29 11:01:54.12	125.48	9.95	-18.7	-33.8	3.9	8.38e-01	0	57	104	0	9	19941
2026-01-29 11:01:55.13	125.41	10.04	-23.4	-38.0	4.5	8.39e-01	0	57	104	0	19	18114
2026-01-29 11:01:56.14	125.34	10.12	-19.5	-32.8	4.3	8.35e-01	0	56	104	0	17	11232
2026-01-29 11:01:57.15	125.27	10.20	-26.3	-42.0	4.3	8.32e-01	0	57	104	0	20	27345
2026-01-29 11:01:58.16	125.19	10.28	-21.6	-35.9	3.7	8.26e-01	0	57	104	0	14	19056
2026-01-29 11:01:59.17	125.12	10.36	-23.5	-39.6	4.1	8.28e-01	0	57	104	0	16	26013
2026-01-29 11:02:00.18	125.05	10.44	-21.2	-39.2	4.2	8.27e-01	0	57	104	0	14	27977
2026-01-29 11:02:01.19	124.97	10.53	-26.1	-39.3	3.8	8.29e-01	0	57	104	0	17	23760
2026-01-29 11:02:02.21	124.90	10.61	-18.8	-32.3	4.3	8.29e-01	0	57	104	0	16	11263
2026-01-29 11:02:03.22	124.82	10.69	-22.5	-37.5	3.8	8.37e-01	0	57	104	0	12	25665
2026-01-29 11:02:04.23	124.75	10.78	-23.7	-38.5	4.7	8.37e-01	0	57	104	0	19	19273
2026-01-29 11:02:05.24	124.67	10.86	-23.8	-39.0	4.5	8.29e-01	0	57	0	0	18	21635
2026-01-29 11:02:06.25	124.60	10.94	-21.0	-35.3	3.9	8.45e-01	0	57	104	0	11	21145
2026-01-29 11:02:07.26	124.52	11.03	-20.2	-33.6	3.7	8.34e-01	0	57	104	0	14	14641
2026-01-29 11:02:08.27	124.44	11.11	-23.2	-38.0	4.1	8.34e-01	0	57	104	0	17	20422
2026-01-29 11:02:09.28	124.36	11.20	-22.8	-38.0	3.9	8.35e-01	0	57	104	0	15	22865
2026-01-29 11:02:10.28	124.29	11.28	-22.8	-41.1	4.3	8.32e-01	0	57	104	0	20	24413
2026-01-29 11:02:11.29	124.21	11.36	-27.0	-40.4	4.5	8.30e-01	0	57	104	0	22	20127
2026-01-29 11:02:12.30	124.13	11.45	-30.8	-40.9	6.8	2.18e-01	0	57	0	1048576	37	9031
2026-01-29 11:02:13.31	124.05	11.54	-29.7	-44.8	4.9	8.32e-01	0	57	104	2097152	28	23615
2026-01-29 11:02:14.33	123.97	11.62	-26.5	-42.2	4.7	8.27e-01	0	57	104	2097152	28	17594
2026-01-29 11:02:15.34	123.89	11.71	-29.1	-43.4	4.9	7.79e-01	0	57	104	2097152	24	25360
2026-01-29 11:02:16.35	123.81	11.79	-29.6	-43.8	4.8	8.27e-01	0	57	104	2097152	34	14951
2026-01-29 11:02:17.36	123.73	11.88	-34.8	-45.2	4.8	8.24e-01	0	57	104	2097152	38	13966
2026-01-29 11:02:18.37	123.64	11.97	-29.1	-42.2	4.6	8.21e-01	0	57	104	2097152	37	10449
2026-01-29 11:02:19.38	123.56	12.05	-36.0	-46.3	6.0	8.25e-01	0	57	0	2097152	41	13351
2026-01-29 11:02:20.39	123.48	12.14	-31.3	-42.1	7.0	6.89e-01	0	57	0	4194304	34	12266
2026-01-29 11:02:21.40	123.39	12.23	-33.9	-41.5	10.9	1.05e-01	0	57	0	9437184	41	7675
2026-01-29 11:02:22.41	123.31	12.32	-37.4	-42.2	10.2	3.13e-01	0	57	0	13631488	44	7030
2026-01-29 11:02:23.42	123.23	12.40	-36.3	-41.6	10.1	5.40e-01	0	57	0	17825792	33	12259
2026-01-29 11:02:24.43	123.14	12.49	-30.1	-40.5	9.9	8.41e-02	0	57	0	23068672	40	7273
2026-01-29 11:02:25.44	123.06	12.58	-36.2	-40.9	8.5	1.40e-01	0	57	0	28311552	38	8486
2026-01-29 11:02:26.45	122.97	12.67	-37.5	-40.8	11.8	6.50e-02	0	57	0	33554432	43	6340
2026-01-29 11:02:27.46	122.88	12.76	-35.3	-40.5	11.1	1.05e-01	0	57	0	38797312	41	6825
2026-01-29 11:02:28.47	122.80	12.85	-34.5	-40.7	11.9	1.07e-01	0	57	0	44040192	43	6217
2026-01-29 11:02:29.48	122.71	12.94	-37.7	-40.9	12.6	8.73e-02	0	57	0	49283072	44	6052
2026-01-29 11:02:30.49	122.62	13.03	-37.2	-40.7	9.9	8.54e-02	0	57	0	55574528	42	6571
2026-01-29 11:02:31.50	122.53	13.12	-27.9	-39.9	8.3	6.38e-02	0	58	0	60817408	35	8972
2026-01-29 11:02:32.51	122.44	13.21	-30.9	-39.5	8.7	7.48e-02	0	57	0	66060288	30	11420
2026-01-29 11:02:33.52	122.35	13.30	-36.7	-40.6	12.6	5.66e-02	0	58	0	72351744	42	6496
2026-01-29 11:02:34.53	122.26	13.39	-35.7	-40.4	12.6	1.60e-02	0	58	0	77594624	43	6014
2026-01-29 11:02:35.54	122.17	13.48	-35.3	-40.4	12.5	2.74e-02	0	57	0	82837504	43	6027
2026-01-29 11:02:36.56	122.08	13.57	-36.7	-40.4	11.7	9.03e-02	0	57	0	88080384	42	6383
2026-01-29 11:02:37.57	121.99	13.66	-30.1	-40.4	11.8	4.88e-02	0	57	0	94371840	37	8554
2026-01-29 11:02:38.58	121.89	13.75	-32.3	-39.8	9.8	5.57e-02	0	57	0	99614720	33	10040
2026-01-29 11:02:39.59	121.80	13.84	-36.0	-40.7	12.9	3.18e-02	0	58	0	105906176	44	5900
2026-01-29 11:02:40.60	121.70	13.94	-33.7	-40.4	12.9	2.92e-02	0	58	0	111149056	43	6042
2026-01-29 11:02:41.61	121.61	14.03	-36.7	-40.6	12.6	5.74e-02	0	58	0	117440512	43	6198
2026-01-29 11:02:42.62	121.52	14.12	-36.4	-40.5	12.7	2.39e-02	0	58	0	122683392	43	6126
2026-01-29 11:02:43.63	121.42	14.22	-35.5	-40.5	12.5	2.04e-02	0	58	0	127926272	40	7221
2026-01-29 11:02:44.64	121.32	14.31	-36.9	-40.7	10.2	2.34e-02	0	58	0	134217728	39	7881
2026-01-29 11:02:45.65	121.23	14.40	-37.3	-40.4	13.0	6.66e-02	0	58	0	139460608	42	6404
2026-01-29 11:02:46.66	121.13	14.50	-34.3	-40.3	12.0	4.66e-02	0	58	0	145752064	41	6676
2026-01-29 11:02:47.67	121.03	14.59	-30.4	-39.7	9.0	3.78e-02	0	58	0	150994944	35	8842
2026-01-29 11:02:48.68	120.93	14.69	-32.1	-40.3	10.9	5.44e-02	0	58	0	156237824	37	8463
2026-01-29 11:02:49.69	120.83	14.78	-32.7	-40.2	11.6	5.53e-02	0	58	0	162529280	40	7002
2026-01-29 11:02:50.70	120.73	14.88	-34.3	-40.2	11.6	3.00e-02	0	58	0	167772160	41	6602
2026-01-29 11:02:51.71	120.63	14.97	-33.3	-40.2	12.4	2.74e-02	0	58	0	174063616	40	6993
2026-01-29 11:02:52.73	120.53	15.07	-34.8	-40.2	12.1	1.89e-02	0	58	0	179306496	40	6982
2026-01-29 11:02:53.74	120.42	15.16	-35.2	-40.2	12.5	1.80e-02	0	58	0	184549376	41	6626
2026-01-29 11:02:54.75	120.32	15.26	-36.0	-40.2	11.5	1.59e-02	0	58	0	190840832	40	7014
2026-01-29 11:02:55.76	120.22	15.36	-36.0	-40.2	12.1	7.46e-03	0	58	0	196083712	41	6604
2026-01-29 11:02:56.77	120.11	15.45	-35.4	-40.1	12.3	1.00e-02	0	58	0	202375168	42	6169
2026-01-29 11:02:57.78	120.01	15.55	-34.7	-40.1	13.0	6.14e-03	0	58	0	207618048	40	6896
2026-01-29 11:02:58.79	119.90	15.65	-35.9	-40.2	13.6	3.15e-03	0	58	0	212860928	44	5549
2026-01-29 11:02:59.80	119.80	15.75	-37.0	-40.1	13.9	2.53e-03	0	58	0	219152384	44	5515
2026-01-29 11:03:00.81	119.69	15.84	-37.6	-40.1	14.0	2.71e-03	0	58	0	224395264	45	5176
2026-01-29 11:03:01.81	119.58	15.94	-37.3	-40.1	14.3	1.26e-03	0	58	0	230686720	46	4873
2026-01-29 11:03:02.82	119.47	16.04	-37.8	-40.0	14.3	1.89e-03	0	58	0	235929600	46	4866
2026-01-29 11:03:03.83	119.37	16.14	-36.3	-40.0	13.8	2.80e-03	0	58	0	242221056	45	5102
2026-01-29 11:03:04.84	119.25	16.24	-37.6	-40.0	14.0	2.16e-03	0	58	0	247463936	45	5122
2026-01-29 11:03:05.86	119.14	16.34	-37.3	-40.0	14.2	1.22e-03	0	58	0	252706816	45	5153
2026-01-29 11:03:06.87	119.03	16.44	-36.4	-39.8	14.1	8.69e-04	0	58	0	258998272	43	5595
2026-01-29 11:03:07.88	118.92	16.54	-37.7	-40.0	14.4	1.57e-03	0	58	0	264241152	45	5133
2026-01-29 11:03:08.89	118.81	16.64	-37.8	-39.9	14.6	4.98e-04	0	58	0	270532608	46	4805
2026-01-29 11:03:09.90	118.69	16.74	-37.9	-40.0	14.3	2.01e-04	0	58	0	275775488	46	4817
2026-01-29 11:03:10.91	118.58	16.84	-37.6	-40.0	13.6	6.43e-04	0	58	0	282066944	44	5427
2026-01-29 11:03:11.92	118.46	16.94	-37.9	-39.9	14.5	1.24e-03	0	58	0	287309824	46	4798
2026-01-29 11:03:12.93	118.35	17.04	-38.3	-39.9	14.5	5.92e-04	0	58	0	292552704	46	4798
2026-01-29 11:03:13.94	118.23	17.14	-37.9	-39.9	14.5	5.47e-04	0	58	0	298844160	46	4807
2026-01-29 11:03:14.95	118.11	17.25	-37.7	-39.9	14.6	2.63e-05	0	58	0	304087040	46	4804
2026-01-29 11:03:15.96	117.99	17.35	-37.9	-40.0	14.6	5.70e-06	0	58	0	310378496	46	4819
2026-01-29 11:03:16.97	117.87	17.45	-37.9	-40.0	14.5	2.20e-06	0	58	0	315621376	46	4823
2026-01-29 11:03:17.99	117.75	17.56	-37.9	-40.0	14.6	0.00e+00	0	58	0	320864256	46	4820
2026-01-29 11:03:19.00	117.63	17.66	-37.9	-40.0	14.5	8.00e-06	0	58	0	327155712	46	4815
2026-01-29 11:03:20.01	117.51	17.76	-37.6	-40.0	14.4	1.10e-06	0	58	0	332398592	46	4844
2026-01-29 11:03:21.01	117.39	17.87	-38.0	-40.0	14.5	4.50e-06	0	58	0	338690048	46	4845
2026-01-29 11:03:22.02	117.26	17.97	-38.0	-40.1	14.4	2.20e-06	0	58	0	343932928	46	4902
2026-01-29 11:03:23.03	117.14	18.07	-38.0	-40.0	14.5	1.02e-05	0	58	0	350224384	46	4858
2026-01-29 11:03:24.04	117.01	18.18	-37.9	-39.9	14.6	0.00e+00	0	59	0	355467264	46	4783
2026-01-29 11:03:25.05	116.89	18.28	-37.7	-39.7	14.5	0.00e+00	0	58	0	360710144	46	4702
2026-01-29 11:03:26.06	116.76	18.39	-37.7	-39.7	14.9	0.00e+00	0	58	0	367001600	46	4652
2026-01-29 11:03:27.07	116.63	18.50	-37.6	-39.6	15.0	4.50e-06	0	58	0	372244480	46	4599
2026-01-29 11:03:28.08	116.50	18.60	-37.5	-39.5	15.1	3.54e-05	0	58	0	378535936	45	4829
2026-01-29 11:03:29.09	116.37	18.71	-37.5	-39.5	15.0	1.10e-06	0	58	0	383778816	45	4835
2026-01-29 11:03:30.10	116.24	18.82	-37.5	-39.4	15.0	1.11e-04	0	59	0	389021696	45	4807
2026-01-29 11:03:31.11	116.11	18.92	-37.5	-39.5	15.1	9.10e-06	0	59	0	395313152	45	4820
2026-01-29 11:03:32.13	115.98	19.03	-37.6	-39.5	15.1	2.05e-05	0	58	0	400556032	45	4835
2026-01-29 11:03:33.14	115.84	19.14	-37.6	-39.6	15.0	4.50e-06	0	58	0	406847488	45	4892
2026-01-29 11:03:34.15	115.71	19.25	-37.6	-39.5	15.1	2.20e-06	0	58	0	412090368	45	4860
2026-01-29 11:03:35.16	115.57	19.35	-37.6	-39.5	15.1	6.80e-06	0	59	0	417333248	45	4829
2026-01-29 11:03:36.16	115.44	19.46	-37.6	-39.5	15.1	1.10e-06	0	59	0	423624704	45	4831
2026-01-29 11:03:37.18	115.30	19.57	-37.6	-39.5	15.1	0.00e+00	0	58	0	428867584	45	4857
2026-01-29 11:03:38.19	115.16	19.68	-37.5	-39.4	15.3	0.00e+00	0	59	0	435159040	45	4779
2026-01-29 11:03:39.20	115.02	19.79	-37.4	-39.3	15.3	8.00e-06	0	59	0	440401920	45	4730
2026-01-29 11:03:40.21	114.88	19.90	-36.9	-39.3	15.3	3.54e-05	0	58	0	446693376	45	4743
2026-01-29 11:03:41.22	114.74	20.01	-37.5	-39.3	15.2	2.20e-06	0	58	0	451936256	45	4744
2026-01-29 11:03:42.23	114.59	20.12	-37.4	-39.3	15.4	5.70e-06	0	59	0	458227712	45	4724
2026-01-29 11:03:43.24	114.45	20.23	-37.4	-39.2	15.3	0.00e+00	0	59	0	463470592	45	4690
2026-01-29 11:03:44.25	114.31	20.34	-37.4	-39.3	15.4	0.00e+00	0	58	0	468713472	45	4717
2026-01-29 11:03:45.26	114.16	20.45	-37.3	-39.2	15.5	0.00e+00	0	59	0	475004928	45	4652
2026-01-29 11:03:46.27	114.01	20.56	-37.3	-39.1	15.6	0.00e+00	0	58	0	480247808	45	4611
2026-01-29 11:03:47.28	113.86	20.68	-37.3	-39.1	15.5	0.00e+00	0	59	0	486539264	45	4613
2026-01-29 11:03:48.29	113.72	20.79	-37.3	-39.1	15.5	0.00e+00	0	59	0	491782144	45	4639
2026-01-29 11:03:49.30	113.57	20.90	-37.2	-39.0	15.6	0.00e+00	0	59	0	497025024	45	4593
2026-01-29 11:03:50.31	113.41	21.01	-37.3	-39.1	15.6	0.00e+00	0	58	0	503316480	45	4615
2026-01-29 11:03:51.33	113.26	21.13	-37.3	-39.1	15.6	0.00e+00	0	59	0	508559360	45	4638
2026-01-29 11:03:52.34	113.11	21.24	-37.3	-39.1	15.6	0.00e+00	0	59	0	514850816	45	4616
2026-01-29 11:03:53.35	112.95	21.35	-37.2	-39.0	15.7	0.00e+00	0	59	0	520093696	45	4556
2026-01-29 11:03:54.36	112.80	21.47	-37.2	-39.0	15.7	0.00e+00	0	59	0	525336576	45	4573
2026-01-29 11:03:55.37	112.64	21.58	-37.2	-38.9	15.8	0.00e+00	0	59	0	531628032	45	4522
2026-01-29 11:03:56.38	112.48	21.70	-37.0	-38.8	16.0	2.20e-06	0	59	0	536870912	45	4444
2026-01-29 11:03:57.39	112.32	21.81	-37.0	-38.7	16.1	3.40e-06	0	59	0	543162368	45	4414
2026-01-29 11:03:58.40	112.16	21.93	-37.0	-38.7	16.0	0.00e+00	0	59	0	548405248	45	4439
2026-01-29 11:03:59.41	112.00	22.04	-36.9	-38.6	16.2	1.10e-06	0	59	0	554696704	45	4358
2026-01-29 11:04:00.42	111.83	22.16	-36.9	-38.6	16.2	0.00e+00	0	59	0	559939584	44	4620
2026-01-29 11:04:01.43	111.67	22.27	-36.7	-38.5	16.3	0.00e+00	0	59	0	566231040	44	4579
2026-01-29 11:04:02.44	111.50	22.39	-36.8	-38.5	16.3	0.00e+00	0	59	0	571473920	44	4562
2026-01-29 11:04:03.45	111.34	22.51	-36.9	-38.6	16.2	0.00e+00	0	59	0	576716800	44	4608
2026-01-29 11:04:04.46	111.17	22.62	-36.9	-38.7	16.1	0.00e+00	0	59	0	583008256	44	4653
2026-01-29 11:04:05.47	111.00	22.74	-36.9	-38.6	16.1	0.00e+00	0	59	0	588251136	44	4646
2026-01-29 11:04:06.48	110.83	22.86	-36.9	-38.6	16.2	0.00e+00	0	59	0	594542592	44	4619
2026-01-29 11:04:07.49	110.66	22.97	-36.9	-38.6	16.3	0.00e+00	0	59	0	599785472	44	4601
2026-01-29 11:04:08.51	110.48	23.09	-36.8	-38.5	16.3	0.00e+00	0	59	0	605028352	44	4569
2026-01-29 11:04:09.52	110.31	23.21	-36.8	-38.5	16.3	0.00e+00	0	59	0	611319808	44	4565
2026-01-29 11:04:10.53	110.13	23.33	-36.8	-38.5	16.3	0.00e+00	0	59	0	616562688	44	4574
2026-01-29 11:04:11.54	109.95	23.45	-36.8	-38.5	16.3	0.00e+00	0	59	0	622854144	44	4582
2026-01-29 11:04:12.55	109.78	23.57	-36.8	-38.4	16.4	0.00e+00	0	59	0	628097024	44	4527
2026-01-29 11:04:13.56	109.60	23.68	-36.8	-38.5	16.4	0.00e+00	0	59	0	633339904	44	4550
2026-01-29 11:04:14.57	109.41	23.80	-36.8	-38.4	16.4	0.00e+00	0	59	0	639631360	44	4543
2026-01-29 11:04:15.58	109.23	23.92	-36.9	-38.6	16.2	0.00e+00	0	59	0	644874240	44	4628
2026-01-29 11:04:16.59	109.05	24.04	-36.9	-38.6	16.2	0.00e+00	0	59	0	651165696	44	4642
2026-01-29 11:04:17.60	108.86	24.16	-36.9	-38.6	16.2	0.00e+00	0	59	0	656408576	44	4612
2026-01-29 11:04:18.61	108.67	24.28	-36.9	-38.6	16.2	0.00e+00	0	59	0	662700032	44	4651
2026-01-29 11:04:19.62	108.49	24.40	-36.9	-38.6	16.2	0.00e+00	0	59	0	667942912	44	4631
2026-01-29 11:04:20.64	108.29	24.52	-36.9	-38.6	16.2	0.00e+00	0	59	0	674234368	44	4622
2026-01-29 11:04:21.64	108.10	24.64	-36.9	-38.6	16.2	0.00e+00	0	59	0	679477248	44	4636
2026-01-29 11:04:22.66	107.91	24.77	-36.8	-38.5	16.4	0.00e+00	0	59	0	684720128	44	4564
2026-01-29 11:04:23.67	107.72	24.89	-36.7	-38.4	16.4	0.00e+00	0	59	0	691011584	44	4512
2026-01-29 11:04:24.68	107.52	25.01	-36.7	-38.4	16.5	0.00e+00	0	59	0	696254464	44	4503
2026-01-29 11:04:25.69	107.32	25.13	-36.6	-38.2	16.6	0.00e+00	0	59	0	702545920	44	4440
2026-01-29 11:04:26.70	107.12	25.25	-36.5	-38.1	16.7	0.00e+00	0	59	0	707788800	44	4389
2026-01-29 11:04:27.71	106.92	25.37	-36.5	-38.1	16.8	0.00e+00	0	59	0	714080256	44	4353
2026-01-29 11:04:28.72	106.72	25.49	-36.3	-37.9	16.9	0.00e+00	0	59	0	719323136	44	4286
2026-01-29 11:04:29.73	106.52	25.62	-36.3	-37.9	16.9	0.00e+00	0	59	0	724566016	44	4281
2026-01-29 11:04:30.75	106.31	25.74	-36.4	-37.9	16.9	0.00e+00	0	59	0	730857472	44	4287
2026-01-29 11:04:31.76	106.10	25.86	-36.3	-37.9	17.0	0.00e+00	0	59	0	736100352	44	4273
2026-01-29 11:04:32.77	105.89	25.99	-36.3	-37.9	17.0	0.00e+00	0	59	0	742391808	44	4249
2026-01-29 11:04:33.78	105.68	26.11	-36.3	-37.9	16.9	0.00e+00	0	59	0	747634688	44	4267
2026-01-29 11:04:34.79	105.47	26.23	-36.4	-38.0	16.9	0.00e+00	0	59	0	752877568	44	4302
2026-01-29 11:04:35.80	105.26	26.35	-36.5	-38.1	16.8	0.00e+00	0	59	0	759169024	44	4360
2026-01-29 11:04:36.81	105.04	26.48	-36.4	-38.0	16.9	0.00e+00	0	59	0	764411904	44	4330
2026-01-29 11:04:37.82	104.82	26.60	-36.4	-38.0	16.9	0.00e+00	0	59	0	770703360	44	4317
2026-01-29 11:04:38.83	104.61	26.72	-36.4	-38.0	16.9	0.00e+00	0	59	0	775946240	44	4307
2026-01-29 11:04:39.84	104.39	26.85	-36.4	-38.0	16.9	0.00e+00	0	59	0	782237696	44	4321
2026-01-29 11:04:40.85	104.16	26.97	-36.4	-37.9	16.9	0.00e+00	0	59	0	787480576	44	4290
2026-01-29 11:04:41.86	103.94	27.09	-36.5	-38.0	16.8	0.00e+00	0	60	0	793772032	44	4340
2026-01-29 11:04:42.87	103.71	27.22	-36.4	-38.0	16.9	0.00e+00	0	59	0	799014912	44	4316
2026-01-29 11:04:43.88	103.49	27.34	-36.3	-37.9	17.0	0.00e+00	0	59	0	804257792	44	4269
2026-01-29 11:04:44.89	103.26	27.47	-36.3	-37.9	17.0	0.00e+00	0	59	0	810549248	44	4264
2026-01-29 11:04:45.90	103.03	27.59	-36.3	-37.9	17.0	0.00e+00	0	59	0	815792128	44	4269
2026-01-29 11:04:46.92	102.79	27.71	-36.4	-37.9	17.0	0.00e+00	0	59	0	822083584	44	4276
2026-01-29 11:04:47.92	102.56	27.84	-36.3	-37.9	17.0	0.00e+00	0	59	0	827326464	44	4243
2026-01-29 11:04:48.94	102.32	27.96	-36.4	-38.0	16.9	0.00e+00	0	59	0	832569344	44	4299
2026-01-29 11:04:49.95	102.08	28.09	-36.4	-38.0	16.9	0.00e+00	0	59	0	838860800	44	4309
2026-01-29 11:04:50.96	101.84	28.21	-36.4	-38.0	16.9	0.00e+00	0	59	0	844103680	44	4304
2026-01-29 11:04:51.97	101.60	28.33	-36.4	-38.0	16.9	0.00e+00	0	59	0	850395136	44	4296
2026-01-29 11:04:52.98	101.36	28.46	-36.3	-37.9	17.0	0.00e+00	0	59	0	855638016	44	4269
2026-01-29 11:04:53.99	101.11	28.58	-36.3	-37.9	17.0	0.00e+00	0	59	0	860880896	44	4256
2026-01-29 11:04:55.00	100.86	28.70	-36.4	-38.0	16.9	0.00e+00	0	59	0	867172352	44	4327
2026-01-29 11:04:56.01	100.61	28.83	-36.4	-38.0	16.9	0.00e+00	0	59	0	872415232	44	4303
2026-01-29 11:04:57.02	100.36	28.95	-36.3	-37.9	17.0	0.00e+00	0	59	0	878706688	44	4249
2026-01-29 11:04:58.03	100.11	29.08	-36.2	-37.8	17.1	0.00e+00	0	59	0	883949568	44	4207
2026-01-29 11:04:59.04	99.85	29.20	-36.2	-37.7	17.2	0.00e+00	0	59	0	890241024	44	4178
2026-01-29 11:05:00.05	99.60	29.32	-36.2	-37.8	17.1	0.00e+00	0	59	0	895483904	44	4219
2026-01-29 11:05:01.06	99.34	29.45	-36.3	-37.9	17.1	0.00e+00	0	59	0	901775360	44	4246
2026-01-29 11:05:02.07	99.07	29.57	-36.3	-37.8	17.1	0.00e+00	0	59	0	907018240	44	4223
2026-01-29 11:05:03.08	98.81	29.69	-36.3	-37.8	17.1	0.00e+00	0	59	0	912261120	44	4242
2026-01-29 11:05:04.09	98.55	29.81	-36.2	-37.7	17.2	0.00e+00	0	59	0	918552576	44	4189
2026-01-29 11:05:05.10	98.28	29.94	-36.2	-37.7	17.2	0.00e+00	0	59	0	923795456	44	4170
2026-01-29 11:05:06.11	98.01	30.06	-36.2	-37.7	17.2	0.00e+00	0	59	0	930086912	44	4182
2026-01-29 11:05:07.12	97.74	30.18	-36.1	-37.7	17.2	0.00e+00	0	59	0	935329792	44	4159
2026-01-29 11:05:08.13	97.46	30.30	-36.0	-37.5	17.4	0.00e+00	0	59	0	940572672	44	4082
2026-01-29 11:05:09.14	97.19	30.43	-35.7	-37.2	17.5	0.00e+00	0	59	0	946864128	43	4192
2026-01-29 11:05:10.15	96.91	30.55	-35.7	-37.1	17.6	0.00e+00	0	59	0	952107008	43	4141
2026-01-29 11:05:11.16	96.63	30.67	-35.7	-37.2	17.6	0.00e+00	0	59	0	958398464	43	4154
2026-01-29 11:05:12.17	96.35	30.79	-35.8	-37.3	17.5	0.00e+00	0	60	0	963641344	43	4201
2026-01-29 11:05:13.18	96.06	30.91	-35.8	-37.3	17.5	0.00e+00	0	59	0	968884224	43	4199
2026-01-29 11:05:14.19	95.78	31.03	-35.6	-37.3	17.3	4.57e-05	0	59	0	975175680	43	4226
2026-01-29 11:05:15.21	95.49	31.15	-35.6	-37.4	17.2	4.02e-04	0	60	0	980418560	43	4270
2026-01-29 11:05:16.22	95.19	31.27	-35.6	-37.4	17.2	2.95e-04	0	59	0	986710016	43	4270
2026-01-29 11:05:17.23	94.90	31.39	-35.5	-37.3	17.2	1.04e-03	0	59	0	991952896	43	4227
2026-01-29 11:05:18.24	94.61	31.51	-35.5	-37.2	17.4	4.60e-04	0	59	0	998244352	42	4421
2026-01-29 11:05:19.25	94.31	31.63	-35.7	-37.2	17.5	2.20e-06	0	59	0	1003487232	42	4439
2026-01-29 11:05:20.26	94.01	31.75	-35.6	-37.2	17.5	1.10e-06	0	59	0	1008730112	42	4430
2026-01-29 11:05:21.27	93.71	31.87	-35.5	-37.2	17.6	0.00e+00	0	59	0	1015021568	42	4394
2026-01-29 11:05:22.28	93.40	31.98	-35.5	-37.1	17.6	0.00e+00	0	59	0	1020264448	42	4384
2026-01-29 11:05:23.29	93.10	32.10	-35.5	-37.1	17.6	0.00e+00	0	60	0	1026555904	42	4355
2026-01-29 11:05:24.30	92.79	32.22	-35.6	-37.2	17.6	0.00e+00	0	59	0	1031798784	42	4408
2026-01-29 11:05:25.31	92.48	32.33	-35.6	-37.0	17.7	0.00e+00	0	60	0	1037041664	42	4336
2026-01-29 11:05:26.32	92.17	32.45	-35.7	-37.1	17.6	0.00e+00	0	60	0	1043333120	42	4385
2026-01-29 11:05:27.33	91.85	32.56	-35.6	-37.1	17.7	0.00e+00	0	59	0	1048576000	42	4362
2026-01-29 11:05:28.34	91.53	32.68	-35.7	-37.1	17.6	0.00e+00	0	59	0	1054867456	42	4387
2026-01-29 11:05:29.35	91.22	32.79	-35.7	-37.2	17.6	0.00e+00	0	59	0	1060110336	42	4428
2026-01-29 11:05:30.37	90.89	32.91	-35.7	-37.2	17.6	0.00e+00	0	59	0	1066401792	42	4396
2026-01-29 11:05:31.38	90.57	33.02	-35.6	-37.0	17.7	0.00e+00	0	59	0	1071644672	42	4340
2026-01-29 11:05:32.39	90.24	33.13	-35.7	-37.1	17.6	0.00e+00	0	59	0	1076887552	42	4388
2026-01-29 11:05:33.40	89.91	33.24	-35.6	-37.0	17.8	0.00e+00	0	60	0	1083179008	42	4331
2026-01-29 11:05:34.41	89.58	33.35	-35.6	-37.1	17.7	0.00e+00	0	59	0	1088421888	42	4341
2026-01-29 11:05:35.42	89.25	33.46	-35.7	-37.2	17.6	0.00e+00	0	60	0	1094713344	42	4392
2026-01-29 11:05:36.43	88.91	33.57	-35.8	-37.4	17.4	0.00e+00	0	59	0	1099956224	42	4495
2026-01-29 11:05:37.44	88.57	33.68	-35.8	-37.3	17.5	0.00e+00	0	59	0	1106247680	42	4460
2026-01-29 11:05:38.45	88.24	33.79	-35.7	-37.2	17.6	0.00e+00	0	60	0	1111490560	42	4393
2026-01-29 11:05:39.46	87.89	33.90	-35.6	-37.1	17.7	0.00e+00	0	59	0	1116733440	42	4357
2026-01-29 11:05:40.47	87.55	34.00	-35.7	-37.2	17.7	0.00e+00	0	59	0	1123024896	42	4400
2026-01-29 11:05:41.48	87.20	34.11	-35.8	-37.3	17.6	0.00e+00	0	60	0	1128267776	42	4449
2026-01-29 11:05:42.49	86.85	34.21	-35.6	-37.1	17.7	0.00e+00	0	60	0	1134559232	42	4367
2026-01-29 11:05:43.50	86.50	34.32	-35.6	-37.1	17.8	0.00e+00	0	59	0	1139802112	42	4345
2026-01-29 11:05:44.51	86.15	34.42	-35.5	-37.0	17.9	0.00e+00	0	59	0	1146093568	42	4293
2026-01-29 11:05:45.52	85.79	34.52	-35.5	-36.9	17.9	0.00e+00	0	59	0	1151336448	42	4276
2026-01-29 11:05:46.54	85.43	34.62	-35.5	-37.0	17.8	0.00e+00	0	59	0	1156579328	42	4321
2026-01-29 11:05:47.55	85.07	34.72	-35.6	-37.1	17.7	0.00e+00	0	60	0	1162870784	42	4371
2026-01-29 11:05:48.56	84.71	34.82	-35.6	-37.1	17.7	0.00e+00	0	59	0	1168113664	42	4361
2026-01-29 11:05:49.57	84.35	34.92	-35.6	-37.0	17.8	0.00e+00	0	59	0	1174405120	42	4335
2026-01-29 11:05:50.58	83.98	35.02	-35.5	-36.9	17.9	0.00e+00	0	59	0	1179648000	42	4289
2026-01-29 11:05:51.59	83.61	35.11	-35.5	-37.0	17.9	0.00e+00	0	60	0	1184890880	42	4310
2026-01-29 11:05:52.60	83.24	35.21	-35.7	-37.2	17.7	0.00e+00	0	59	0	1191182336	42	4407
2026-01-29 11:05:53.61	82.87	35.30	-35.8	-37.3	17.6	0.00e+00	0	59	0	1196425216	42	4462
2026-01-29 11:05:54.62	82.49	35.39	-35.7	-37.1	17.7	0.00e+00	0	59	0	1202716672	42	4384
2026-01-29 11:05:55.63	82.11	35.49	-35.7	-37.2	17.6	0.00e+00	0	60	0	1207959552	42	4396
2026-01-29 11:05:56.64	81.73	35.58	-35.8	-37.3	17.6	0.00e+00	0	59	0	1214251008	42	4453
2026-01-29 11:05:57.65	81.35	35.67	-35.8	-37.4	17.5	0.00e+00	0	59	0	1219493888	42	4501
2026-01-29 11:05:58.66	80.97	35.75	-35.9	-37.4	17.4	0.00e+00	0	60	0	1225785344	42	4518
2026-01-29 11:05:59.67	80.58	35.84	-35.8	-37.3	17.5	0.00e+00	0	59	0	1231028224	42	4468
2026-01-29 11:06:00.68	80.20	35.93	-35.7	-37.2	17.6	0.00e+00	0	60	0	1236271104	42	4410
2026-01-29 11:06:01.69	79.81	36.01	-35.7	-37.2	17.7	0.00e+00	0	60	0	1242562560	42	4393
2026-01-29 11:06:02.70	79.41	36.09	-35.6	-37.1	17.8	0.00e+00	0	60	0	1247805440	42	4343
2026-01-29 11:06:03.71	79.02	36.17	-35.7	-37.1	17.7	0.00e+00	0	59	0	1254096896	42	4389
2026-01-29 11:06:04.72	78.62	36.26	-35.6	-37.1	17.8	0.00e+00	0	59	0	1259339776	42	4368
2026-01-29 11:06:05.73	78.23	36.33	-35.6	-37.1	17.8	0.00e+00	0	59	0	1264582656	42	4344
2026-01-29 11:06:06.74	77.83	36.41	-35.6	-37.0	17.8	0.00e+00	0	59	0	1270874112	42	4336
2026-01-29 11:06:07.75	77.43	36.49	-35.6	-37.1	17.8	0.00e+00	0	60	0	1276116992	42	4371
2026-01-29 11:06:08.76	77.02	36.56	-35.6	-37.1	17.8	0.00e+00	0	59	0	1282408448	42	4354
2026-01-29 11:06:09.77	76.62	36.64	-35.5	-36.9	17.9	0.00e+00	0	60	0	1287651328	42	4288
2026-01-29 11:06:10.78	76.21	36.71	-35.5	-36.9	18.0	0.00e+00	0	60	0	1292894208	42	4252
2026-01-29 11:06:11.79	75.80	36.78	-35.4	-36.8	18.1	0.00e+00	0	59	0	1299185664	42	4221
2026-01-29 11:06:12.80	75.39	36.85	-35.5	-36.9	18.0	0.00e+00	0	60	0	1304428544	42	4271
2026-01-29 11:06:13.81	74.98	36.91	-35.5	-36.9	17.9	0.00e+00	0	59	0	1310720000	42	4272
2026-01-29 11:06:14.82	74.57	36.98	-35.5	-36.9	17.9	0.00e+00	0	59	0	1315962880	42	4274
2026-01-29 11:06:15.83	74.15	37.04	-35.5	-36.9	17.9	0.00e+00	0	60	0	1322254336	42	4291
2026-01-29 11:06:16.84	73.73	37.10	-35.6	-37.1	17.8	0.00e+00	0	60	0	1327497216	42	4347
2026-01-29 11:06:17.85	73.31	37.17	-35.6	-37.1	17.8	0.00e+00	0	60	0	1332740096	42	4350
2026-01-29 11:06:18.86	72.89	37.22	-35.7	-37.2	17.7	0.00e+00	0	60	0	1339031552	42	4419
2026-01-29 11:06:19.87	72.47	37.28	-35.7	-37.1	17.7	0.00e+00	0	60	0	1344274432	42	4386
2026-01-29 11:06:20.88	72.05	37.34	-35.5	-36.9	18.0	0.00e+00	0	60	0	1350565888	42	4262
2026-01-29 11:06:21.89	71.62	37.39	-35.3	-36.7	18.2	0.00e+00	0	60	0	1355808768	42	4150
2026-01-29 11:06:22.90	71.20	37.44	-35.3	-36.7	18.2	0.00e+00	0	60	0	1361051648	42	4183
2026-01-29 11:06:23.91	70.77	37.50	-35.4	-36.9	18.1	0.00e+00	0	60	0	1367343104	42	4246
2026-01-29 11:06:24.92	70.34	37.54	-35.6	-37.0	17.8	0.00e+00	0	60	0	1372585984	42	4339
2026-01-29 11:06:25.93	69.91	37.59	-35.6	-37.1	17.8	0.00e+00	0	59	0	1378877440	42	4350
2026-01-29 11:06:26.94	69.48	37.64	-35.7	-37.2	17.7	0.00e+00	0	60	0	1384120320	42	4424
2026-01-29 11:06:27.95	69.05	37.68	-35.8	-37.2	17.7	0.00e+00	0	59	0	1389363200	42	4434
2026-01-29 11:06:28.96	68.62	37.72	-35.7	-37.1	17.8	0.00e+00	0	60	0	1395654656	42	4385
2026-01-29 11:06:29.97	68.18	37.76	-35.7	-37.2	17.8	0.00e+00	0	60	0	1400897536	42	4392
2026-01-29 11:06:30.98	67.75	37.80	-35.8	-37.3	17.6	0.00e+00	0	60	0	1407188992	42	4469
2026-01-29 11:06:31.99	67.31	37.84	-35.9	-37.4	17.5	0.00e+00	0	60	0	1412431872	42	4539
2026-01-29 11:06:33.00	66.87	37.87	-36.1	-37.7	17.3	0.00e+00	0	60	0	1418723328	42	4658
2026-01-29 11:06:34.01	66.43	37.90	-35.9	-37.5	17.5	0.00e+00	0	60	0	1423966208	42	4554
2026-01-29 11:06:35.02	65.99	37.93	-35.9	-37.4	17.5	0.00e+00	0	60	0	1430257664	42	4502
2026-01-29 11:06:36.03	65.55	37.96	-35.9	-37.4	17.6	0.00e+00	0	60	0	1435500544	42	4506
2026-01-29 11:06:37.04	65.11	37.99	-36.0	-37.4	17.5	0.00e+00	0	60	0	1440743424	42	4545
2026-01-29 11:06:38.05	64.67	38.01	-35.9	-37.4	17.6	0.00e+00	0	60	0	1447034880	42	4502
2026-01-29 11:06:39.06	64.23	38.04	-35.7	-37.2	17.8	0.00e+00	0	60	0	1452277760	42	4396
2026-01-29 11:06:40.07	63.79	38.06	-35.5	-37.0	17.9	0.00e+00	0	60	0	1458569216	42	4308
2026-01-29 11:06:41.08	63.34	38.08	-35.5	-37.0	18.0	0.00e+00	0	60	0	1463812096	42	4301
2026-01-29 11:06:42.09	62.90	38.09	-35.7	-37.1	17.8	0.00e+00	0	60	0	1469054976	42	4391
2026-01-29 11:06:43.10	62.46	38.11	-35.8	-37.3	17.6	0.00e+00	0	60	0	1475346432	42	4487
2026-01-29 11:06:44.11	62.01	38.12	-35.9	-37.4	17.5	0.00e+00	0	59	0	1480589312	42	4533
2026-01-29 11:06:45.12	61.57	38.13	-35.9	-37.4	17.6	0.00e+00	0	60	0	1486880768	42	4510
2026-01-29 11:06:46.13	61.12	38.14	-35.8	-37.3	17.7	0.00e+00	0	60	0	1492123648	42	4447
2026-01-29 11:06:47.15	60.67	38.15	-35.8	-37.3	17.7	0.00e+00	0	60	0	1497366528	42	4450
2026-01-29 11:06:48.16	60.23	38.16	-35.8	-37.3	17.7	0.00e+00	0	59	0	1503657984	42	4475
2026-01-29 11:06:49.17	59.78	38.16	-35.8	-37.3	17.6	0.00e+00	0	60	0	1508900864	42	4472
2026-01-29 11:06:50.18	59.34	38.16	-35.9	-37.3	17.6	0.00e+00	0	60	0	1515192320	42	4490
2026-01-29 11:06:51.19	58.89	38.16	-35.8	-37.3	17.6	0.00e+00	0	60	0	1520435200	42	4469
2026-01-29 11:06:52.20	58.44	38.16	-35.9	-37.4	17.5	0.00e+00	0	60	0	1526726656	42	4522
2026-01-29 11:06:53.21	58.00	38.15	-35.9	-37.4	17.6	0.00e+00	0	59	0	1531969536	42	4516
2026-01-29 11:06:54.22	57.55	38.15	-36.0	-37.5	17.5	0.00e+00	0	60	0	1538260992	42	4571
2026-01-29 11:06:55.23	57.11	38.14	-35.9	-37.3	17.6	0.00e+00	0	60	0	1543503872	42	4488
2026-01-29 11:06:56.24	56.66	38.13	-35.8	-37.3	17.6	0.00e+00	0	60	0	1548746752	42	4471
2026-01-29 11:06:57.25	56.22	38.12	-35.8	-37.3	17.7	0.00e+00	0	60	0	1555038208	42	4459
2026-01-29 11:06:58.26	55.78	38.10	-35.7	-37.2	17.7	0.00e+00	0	60	0	1560281088	42	4418
2026-01-29 11:06:59.27	55.33	38.09	-35.8	-37.2	17.7	0.00e+00	0	60	0	1566572544	42	4421
2026-01-29 11:07:00.28	54.89	38.07	-35.7	-37.1	17.8	0.00e+00	0	60	0	1571815424	42	4371
2026-01-29 11:07:01.29	54.45	38.05	-35.7	-37.1	17.8	0.00e+00	0	60	0	1577058304	42	4375
2026-01-29 11:07:02.30	54.00	38.03	-35.8	-37.2	17.8	0.00e+00	0	60	0	1583349760	42	4428
2026-01-29 11:07:03.31	53.56	38.00	-35.9	-37.3	17.6	0.00e+00	0	60	0	1588592640	42	4487
2026-01-29 11:07:04.32	53.12	37.98	-35.9	-37.3	17.6	0.00e+00	0	60	0	1594884096	42	4470
2026-01-29 11:07:05.33	52.68	37.95	-35.9	-37.4	17.6	0.00e+00	0	60	0	1600126976	42	4506
2026-01-29 11:07:06.34	52.24	37.92	-35.8	-37.3	17.7	0.00e+00	0	60	0	1605369856	42	4457
2026-01-29 11:07:07.35	51.80	37.89	-35.7	-37.1	17.8	0.00e+00	0	60	0	1611661312	42	4368
2026-01-29 11:07:08.36	51.37	37.85	-35.5	-36.9	18.0	0.00e+00	0	60	0	1616904192	42	4279
2026-01-29 11:07:09.37	50.93	37.82	-35.5	-36.9	18.0	0.00e+00	0	60	0	1623195648	42	4259
2026-01-29 11:07:10.38	50.49	37.78	-35.6	-37.0	17.9	0.00e+00	0	60	0	1628438528	42	4332
2026-01-29 11:07:11.39	50.06	37.74	-35.5	-37.0	18.0	0.00e+00	0	60	0	1634729984	42	4297
2026-01-29 11:07:12.39	49.63	37.70	-35.4	-36.8	18.1	0.00e+00	0	60	0	1639972864	42	4212
2026-01-29 11:07:13.40	49.20	37.66	-35.3	-36.6	18.3	0.00e+00	0	60	0	1645215744	42	4142
2026-01-29 11:07:14.42	48.76	37.61	-35.2	-36.6	18.3	0.00e+00	0	59	0	1651507200	42	4102
2026-01-29 11:07:15.43	48.33	37.57	-35.3	-36.6	18.3	0.00e+00	0	60	0	1656750080	42	4143
2026-01-29 11:07:16.44	47.90	37.52	-35.2	-36.6	18.3	0.00e+00	0	60	0	1663041536	42	4123
2026-01-29 11:07:17.45	47.48	37.47	-35.2	-36.6	18.3	0.00e+00	0	60	0	1668284416	42	4128
2026-01-29 11:07:18.46	47.05	37.42	-35.2	-36.6	18.4	0.00e+00	0	60	0	1673527296	42	4116
2026-01-29 11:07:19.47	46.63	37.37	-35.2	-36.6	18.3	0.00e+00	0	60	0	1679818752	42	4116
2026-01-29 11:07:20.48	46.20	37.31	-35.4	-36.8	18.1	0.00e+00	0	60	0	1685061632	42	4196
2026-01-29 11:07:21.49	45.78	37.25	-35.5	-36.9	18.0	0.00e+00	0	60	0	1691353088	42	4277
2026-01-29 11:07:22.50	45.36	37.20	-35.5	-37.0	17.9	0.00e+00	0	60	0	1696595968	42	4300
2026-01-29 11:07:23.51	44.94	37.14	-35.5	-37.0	17.9	0.00e+00	0	60	0	1702887424	42	4308
2026-01-29 11:07:24.52	44.52	37.07	-35.6	-37.1	17.9	0.00e+00	0	60	0	1708130304	42	4343
2026-01-29 11:07:25.53	44.11	37.01	-35.7	-37.1	17.8	0.00e+00	0	60	0	1713373184	42	4385
2026-01-29 11:07:26.55	43.69	36.95	-35.6	-37.0	17.8	0.00e+00	0	60	0	1719664640	42	4335
2026-01-29 11:07:27.56	43.28	36.88	-35.6	-37.1	17.8	0.00e+00	0	60	0	1724907520	42	4370
2026-01-29 11:07:28.57	42.87	36.81	-35.6	-37.0	17.9	0.00e+00	0	60	0	1731198976	42	4328
2026-01-29 11:07:29.58	42.46	36.74	-35.5	-36.9	18.0	0.00e+00	0	60	0	1736441856	42	4267
2026-01-29 11:07:30.59	42.05	36.67	-35.5	-36.9	18.0	0.00e+00	0	60	0	1742733312	42	4288
2026-01-29 11:07:31.60	41.65	36.60	-35.6	-37.1	17.9	0.00e+00	0	60	0	1747976192	42	4344
2026-01-29 11:07:32.61	41.24	36.53	-35.5	-37.0	18.0	0.00e+00	0	60	0	1754267648	42	4298
2026-01-29 11:07:33.62	40.84	36.45	-35.5	-36.9	18.1	0.00e+00	0	60	0	1759510528	42	4251
2026-01-29 11:07:34.63	40.44	36.37	-35.5	-36.9	18.0	0.00e+00	0	60	0	1764753408	42	4273
2026-01-29 11:07:35.64	40.04	36.30	-35.5	-36.9	18.0	0.00e+00	0	60	0	1771044864	42	4279
2026-01-29 11:07:36.65	39.65	36.22	-35.7	-37.1	17.8	0.00e+00	0	60	0	1776287744	42	4370
2026-01-29 11:07:37.66	39.25	36.14	-35.7	-37.2	17.7	0.00e+00	0	60	0	1782579200	42	4410
2026-01-29 11:07:38.67	38.86	36.05	-35.7	-37.2	17.7	0.00e+00	0	60	0	1787822080	42	4413
2026-01-29 11:07:39.68	38.47	35.97	-35.7	-37.1	17.8	0.00e+00	0	60	0	1793064960	42	4371
2026-01-29 11:07:40.69	38.08	35.89	-35.7	-37.1	17.8	0.00e+00	0	60	0	1799356416	42	4376
2026-01-29 11:07:41.71	37.70	35.80	-35.8	-37.3	17.7	0.00e+00	0	60	0	1804599296	42	4448
2026-01-29 11:07:42.72	37.31	35.71	-35.7	-37.2	17.8	0.00e+00	0	60	0	1810890752	42	4393
2026-01-29 11:07:43.73	36.93	35.62	-35.7	-37.2	17.8	0.00e+00	0	60	0	1816133632	42	4394
2026-01-29 11:07:44.74	36.55	35.53	-35.6	-37.0	17.9	0.00e+00	0	60	0	1821376512	42	4332
2026-01-29 11:07:45.75	36.17	35.44	-35.5	-36.9	18.0	0.00e+00	0	60	0	1827667968	42	4275
2026-01-29 11:07:46.76	35.80	35.35	-35.5	-37.0	17.9	0.00e+00	0	60	0	1832910848	42	4303
2026-01-29 11:07:47.77	35.42	35.26	-35.7	-37.1	18.1	0.00e+00	0	60	0	1839202304	42	4348
2026-01-29 11:07:48.78	35.05	35.16	-35.6	-37.0	18.2	0.00e+00	0	60	0	1844445184	42	4303
2026-01-29 11:07:49.79	34.68	35.07	-35.6	-36.9	18.3	0.00e+00	0	60	0	1850736640	42	4258
2026-01-29 11:07:50.80	34.32	34.97	-35.6	-36.9	18.2	0.00e+00	0	60	0	1855979520	42	4290
2026-01-29 11:07:51.81	33.95	34.88	-35.7	-37.0	18.2	0.00e+00	0	60	0	1862270976	42	4316
2026-01-29 11:07:52.82	33.59	34.78	-35.8	-37.1	18.0	0.00e+00	0	60	0	1867513856	42	4386
2026-01-29 11:07:53.83	33.23	34.68	-35.6	-36.9	18.2	0.00e+00	0	60	0	1872756736	42	4289
2026-01-29 11:07:54.84	32.87	34.58	-35.6	-36.9	18.2	0.00e+00	0	60	0	1879048192	42	4282
2026-01-29 11:07:55.85	32.52	34.48	-35.6	-37.0	18.2	0.00e+00	0	60	0	1884291072	42	4305
2026-01-29 11:07:56.87	32.16	34.37	-35.7	-37.0	18.1	0.00e+00	0	60	0	1890582528	42	4336
2026-01-29 11:07:57.87	31.81	34.27	-35.8	-37.1	18.0	0.00e+00	0	60	0	1895825408	42	4379
2026-01-29 11:07:58.89	31.46	34.17	-35.8	-37.1	18.0	0.00e+00	0	60	0	1901068288	42	4372
2026-01-29 11:07:59.90	31.11	34.06	-35.8	-37.1	18.0	0.00e+00	0	60	0	1907359744	42	4367
2026-01-29 11:08:00.91	30.77	33.96	-35.8	-37.2	17.9	0.00e+00	0	60	0	1912602624	42	4403
2026-01-29 11:08:01.92	30.43	33.85	-35.8	-37.2	18.0	0.00e+00	0	60	0	1918894080	42	4395
2026-01-29 11:08:02.93	30.09	33.74	-35.7	-37.1	18.1	0.00e+00	0	60	0	1924136960	42	4344
2026-01-29 11:08:03.94	29.75	33.64	-35.7	-37.0	18.1	0.00e+00	0	60	0	1929379840	42	4336
2026-01-29 11:08:04.95	29.42	33.53	-35.7	-37.1	18.1	0.00e+00	0	60	0	1935671296	42	4352
2026-01-29 11:08:05.96	29.08	33.42	-35.8	-37.2	18.0	0.00e+00	0	60	0	1940914176	42	4411
2026-01-29 11:08:06.97	28.75	33.31	-35.7	-37.1	18.1	0.00e+00	0	60	0	1947205632	42	4346
2026-01-29 11:08:07.98	28.42	33.20	-35.6	-36.9	18.3	0.00e+00	0	60	0	1952448512	42	4254
2026-01-29 11:08:08.99	28.10	33.09	-35.5	-36.8	18.3	0.00e+00	0	60	0	1958739968	42	4209
2026-01-29 11:08:10.00	27.77	32.97	-35.6	-36.9	18.2	0.00e+00	0	60	0	1963982848	42	4269
2026-01-29 11:08:11.01	27.45	32.86	-35.7	-37.0	18.1	0.00e+00	0	60	0	1969225728	42	4335
2026-01-29 11:08:12.02	27.13	32.75	-35.9	-37.3	17.9	0.00e+00	0	60	0	1975517184	42	4451
2026-01-29 11:08:13.03	26.81	32.63	-35.9	-37.3	17.8	0.00e+00	0	60	0	1980760064	42	4467
2026-01-29 11:08:14.04	26.50	32.52	-36.0	-37.3	17.8	0.00e+00	0	60	0	1987051520	42	4480
2026-01-29 11:08:15.05	26.19	32.40	-35.9	-37.2	17.9	0.00e+00	0	60	0	1992294400	42	4423
2026-01-29 11:08:16.06	25.88	32.29	-35.8	-37.2	17.9	0.00e+00	0	60	0	1998585856	42	4427
2026-01-29 11:08:17.07	25.57	32.17	-35.8	-37.2	17.9	0.00e+00	0	60	0	2003828736	42	4424
2026-01-29 11:08:18.08	25.26	32.06	-35.7	-37.0	18.1	0.00e+00	0	60	0	2009071616	42	4339
2026-01-29 11:08:19.09	24.96	31.94	-35.6	-36.9	18.2	0.00e+00	0	60	0	2015363072	42	4260
2026-01-29 11:08:20.10	24.66	31.82	-35.6	-36.9	18.1	0.00e+00	0	60	0	2020605952	42	4290
2026-01-29 11:08:21.11	24.36	31.71	-35.6	-37.0	18.1	0.00e+00	0	60	0	2026897408	42	4297
2026-01-29 11:08:22.12	24.06	31.59	-35.7	-37.0	18.1	0.00e+00	0	60	0	2032140288	42	4322
2026-01-29 11:08:23.13	23.76	31.47	-35.7	-37.0	18.1	0.00e+00	0	60	0	2037383168	42	4332
2026-01-29 11:08:24.14	23.47	31.35	-35.7	-37.0	18.1	0.00e+00	0	60	0	2043674624	42	4332
2026-01-29 11:08:25.15	23.18	31.23	-35.7	-37.0	18.1	0.00e+00	0	60	0	2048917504	42	4318
2026-01-29 11:08:26.16	22.89	31.11	-35.8	-37.1	18.0	0.00e+00	0	60	0	2055208960	42	4361
2026-01-29 11:08:27.17	22.61	30.99	-35.8	-37.2	17.9	0.00e+00	0	60	0	2060451840	42	4405
2026-01-29 11:08:28.18	22.32	30.87	-35.9	-37.3	17.8	0.00e+00	0	60	0	2065694720	42	4453
2026-01-29 11:08:29.19	22.04	30.75	-36.0	-37.3	17.8	0.00e+00	0	60	0	2071986176	42	4492
2026-01-29 11:08:30.20	21.76	30.63	-35.9	-37.3	17.8	0.00e+00	0	60	0	2077229056	42	4446
2026-01-29 11:08:31.21	21.48	30.51	-35.8	-37.2	17.9	0.00e+00	0	60	0	2083520512	42	4398
2026-01-29 11:08:32.22	21.21	30.39	-35.8	-37.2	17.9	0.00e+00	0	60	0	2088763392	42	4404
2026-01-29 11:08:33.23	20.93	30.27	-35.9	-37.3	17.8	0.00e+00	0	60	0	2095054848	42	4475
2026-01-29 11:08:34.24	20.66	30.14	-36.0	-37.4	17.7	0.00e+00	0	60	0	2100297728	42	4521
2026-01-29 11:08:35.26	20.39	30.02	-36.0	-37.4	17.7	0.00e+00	0	60	0	2105540608	42	4529
2026-01-29 11:08:36.27	20.12	29.90	-36.1	-37.5	17.6	0.00e+00	0	60	0	2111832064	42	4558
2026-01-29 11:08:37.28	19.86	29.78	-36.0	-37.3	17.8	0.00e+00	0	60	0	2117074944	42	4482
2026-01-29 11:08:38.29	19.59	29.65	-35.9	-37.3	17.8	0.00e+00	0	60	0	2123366400	42	4470
2026-01-29 11:08:39.30	19.33	29.53	-36.0	-37.3	17.8	0.00e+00	0	60	0	2128609280	42	4489
2026-01-29 11:08:40.31	19.07	29.41	-36.0	-37.4	17.7	0.00e+00	0	60	0	2134900736	42	4511
2026-01-29 11:08:41.32	18.81	29.29	-36.0	-37.4	17.7	0.00e+00	0	60	0	2140143616	42	4524
2026-01-29 11:08:42.33	18.56	29.16	-36.0	-37.4	17.6	0.00e+00	0	60	0	2145386496	42	4538
2026-01-29 11:08:43.34	18.30	29.04	-36.0	-37.4	17.7	0.00e+00	0	60	0	2151677952	42	4530
2026-01-29 11:08:44.35	18.05	28.92	-36.1	-37.4	17.6	0.00e+00	0	60	0	2156920832	42	4544
2026-01-29 11:08:45.36	17.80	28.79	-36.2	-37.6	17.5	0.00e+00	0	60	0	2163212288	42	4626
2026-01-29 11:08:46.37	17.56	28.67	-36.2	-37.6	17.4	0.00e+00	0	60	0	2168455168	42	4638
2026-01-29 11:08:47.38	17.31	28.55	-36.1	-37.5	17.5	0.00e+00	0	60	0	2173698048	43	4340
2026-01-29 11:08:48.40	17.06	28.42	-36.0	-37.4	17.7	0.00e+00	0	60	0	2179989504	43	4256
2026-01-29 11:08:49.40	16.83	28.30	-36.0	-37.4	17.6	0.00e+00	0	60	0	2185232384	43	4279
2026-01-29 11:08:50.41	16.59	28.18	-36.1	-37.5	17.6	0.00e+00	0	60	0	2191523840	43	4310
2026-01-29 11:08:51.42	16.35	28.05	-36.1	-37.6	17.5	0.00e+00	0	60	0	2196766720	43	4343
2026-01-29 11:08:52.43	16.11	27.93	-36.2	-37.6	17.5	0.00e+00	0	60	0	2203058176	43	4361
2026-01-29 11:08:53.44	15.88	27.81	-36.2	-37.6	17.4	0.00e+00	0	60	0	2208301056	43	4386
2026-01-29 11:08:54.45	15.64	27.68	-36.2	-37.6	17.4	0.00e+00	0	60	0	2213543936	43	4382
2026-01-29 11:08:55.46	15.41	27.56	-36.2	-37.6	17.4	0.00e+00	0	60	0	2219835392	43	4353
2026-01-29 11:08:56.47	15.18	27.44	-36.2	-37.6	17.5	0.00e+00	0	60	0	2225078272	43	4363
2026-01-29 11:08:57.48	14.96	27.31	-36.2	-37.7	17.4	0.00e+00	0	60	0	2231369728	43	4397
2026-01-29 11:08:58.49	14.73	27.19	-36.3	-37.7	17.3	0.00e+00	0	60	0	2236612608	43	4416
2026-01-29 11:08:59.50	14.51	27.07	-36.3	-37.7	17.3	0.00e+00	0	60	0	2241855488	43	4432
2026-01-29 11:09:00.51	14.29	26.95	-36.3	-37.8	17.3	0.00e+00	0	60	0	2248146944	43	4446
2026-01-29 11:09:01.52	14.07	26.82	-36.3	-37.8	17.2	0.00e+00	0	60	0	2253389824	43	4468
2026-01-29 11:09:02.53	13.85	26.70	-36.4	-37.9	17.2	0.00e+00	0	60	0	2259681280	43	4511
2026-01-29 11:09:03.54	13.63	26.58	-36.5	-37.9	17.1	0.00e+00	0	60	0	2264924160	43	4539
2026-01-29 11:09:04.55	13.42	26.45	-36.5	-37.9	17.1	0.00e+00	0	60	0	2270167040	43	4541
2026-01-29 11:09:05.56	13.20	26.33	-36.5	-37.9	17.1	0.00e+00	0	60	0	2276458496	43	4545
2026-01-29 11:09:06.57	12.99	26.21	-36.4	-37.9	17.1	0.00e+00	0	60	0	2281701376	43	4524
2026-01-29 11:09:07.58	12.78	26.09	-36.5	-37.9	17.1	0.00e+00	0	60	0	2287992832	43	4535
2026-01-29 11:09:08.59	12.57	25.97	-36.5	-37.9	17.1	0.00e+00	0	60	0	2293235712	43	4541
2026-01-29 11:09:09.60	12.36	25.84	-36.4	-37.9	17.1	0.00e+00	0	60	0	2299527168	43	4513
2026-01-29 11:09:10.61	12.16	25.72	-36.5	-38.0	17.0	0.00e+00	0	60	0	2304770048	43	4548
2026-01-29 11:09:11.62	11.96	25.60	-36.5	-38.0	17.0	0.00e+00	0	60	0	2311061504	43	4561
2026-01-29 11:09:12.64	11.75	25.48	-36.6	-38.1	16.9	0.00e+00	0	60	0	2316304384	43	4612
2026-01-29 11:09:13.65	11.55	25.36	-36.6	-38.1	16.9	0.00e+00	0	60	0	2321547264	43	4638
2026-01-29 11:09:14.66	11.35	25.23	-36.6	-38.1	16.9	0.00e+00	0	60	0	2327838720	43	4631
2026-01-29 11:09:15.67	11.16	25.11	-36.6	-38.0	17.0	0.00e+00	0	60	0	2333081600	43	4593
2026-01-29 11:09:16.68	10.96	24.99	-36.6	-38.1	16.9	0.00e+00	0	60	0	2339373056	43	4629
2026-01-29 11:09:17.69	10.77	24.87	-36.6	-38.1	16.8	0.00e+00	0	60	0	2344615936	43	4650
2026-01-29 11:09:18.70	10.57	24.75	-36.6	-38.1	16.9	0.00e+00	0	60	0	2349858816	43	4646
2026-01-29 11:09:19.71	10.38	24.63	-36.7	-38.1	16.8	0.00e+00	0	60	0	2356150272	43	4649
2026-01-29 11:09:20.71	10.19	24.51	-36.7	-38.2	16.8	0.00e+00	0	60	0	2361393152	43	4672
2026-01-29 11:09:21.72	10.00	24.39	-36.8	-38.4	16.8	0.00e+00	0	60	0	2367684608	44	4499
2026-01-29 11:09:22.73	9.82	24.27	-36.8	-38.3	16.8	0.00e+00	0	60	0	2372927488	44	4476
2026-01-29 11:09:23.74	9.63	24.15	-36.8	-38.3	16.9	0.00e+00	0	60	0	2378170368	44	4444
2026-01-29 11:09:24.75	9.45	24.03	-36.9	-38.4	16.7	0.00e+00	0	60	0	2384461824	44	4511
2026-01-29 11:09:25.76	9.27	23.92	-36.9	-38.4	16.7	0.00e+00	0	60	0	2389704704	44	4519
2026-01-29 11:09:26.77	9.08	23.80	-36.9	-38.4	16.7	0.00e+00	0	60	0	2395996160	44	4542
2026-01-29 11:09:27.78	8.90	23.68	-36.9	-38.4	16.7	0.00e+00	0	60	0	2401239040	44	4544
2026-01-29 11:09:28.79	8.73	23.56	-36.9	-38.4	16.7	0.00e+00	0	60	0	2407530496	44	4519
2026-01-29 11:09:29.80	8.55	23.44	-36.9	-38.4	16.7	0.00e+00	0	60	0	2412773376	44	4532
2026-01-29 11:09:30.81	8.37	23.32	-36.9	-38.4	16.7	0.00e+00	0	60	0	2419064832	44	4532
2026-01-29 11:09:31.82	8.20	23.21	-36.9	-38.4	16.7	0.00e+00	0	60	0	2424307712	44	4511
2026-01-29 11:09:32.83	8.03	23.09	-36.8	-38.3	16.8	0.00e+00	0	60	0	2429550592	44	4470
2026-01-29 11:09:33.84	7.85	22.97	-36.8	-38.4	16.8	0.00e+00	0	60	0	2435842048	44	4497
2026-01-29 11:09:34.85	7.68	22.86	-36.8	-38.3	16.8	0.00e+00	0	60	0	2441084928	44	4447
2026-01-29 11:09:35.86	7.51	22.74	-36.7	-38.2	16.9	0.00e+00	0	60	0	2447376384	44	4414
2026-01-29 11:09:36.87	7.35	22.62	-36.7	-38.2	16.9	0.00e+00	0	60	0	2452619264	44	4398
2026-01-29 11:09:37.88	7.18	22.51	-36.7	-38.2	16.8	0.00e+00	0	60	0	2457862144	44	4428
2026-01-29 11:09:38.89	7.01	22.39	-36.8	-38.3	16.8	0.00e+00	0	60	0	2464153600	44	4472
2026-01-29 11:09:39.91	6.85	22.28	-36.8	-38.3	16.7	0.00e+00	0	60	0	2469396480	44	4483
2026-01-29 11:09:40.92	6.69	22.16	-36.8	-38.4	16.7	0.00e+00	0	60	0	2475687936	44	4497
2026-01-29 11:09:41.93	6.52	22.04	-36.7	-38.3	16.8	0.00e+00	0	60	0	2480930816	44	4447
2026-01-29 11:09:42.94	6.36	21.93	-36.8	-38.3	16.7	0.00e+00	0	60	0	2486173696	44	4485
2026-01-29 11:09:43.95	6.21	21.82	-36.8	-38.4	16.6	0.00e+00	0	60	0	2492465152	44	4500
2026-01-29 11:09:44.96	6.05	21.70	-36.9	-38.5	16.6	0.00e+00	0	60	0	2497708032	44	4547
2026-01-29 11:09:45.97	5.89	21.59	-37.0	-38.5	16.5	0.00e+00	0	60	0	2503999488	44	4594
2026-01-29 11:09:46.98	5.74	21.47	-37.0	-38.5	16.5	0.00e+00	0	60	0	2509242368	44	4595
2026-01-29 11:09:47.99	5.58	21.36	-37.0	-38.6	16.4	0.00e+00	0	60	0	2515533824	44	4625
2026-01-29 11:09:49.00	5.43	21.25	-37.0	-38.6	16.4	0.00e+00	0	60	0	2520776704	44	4635
2026-01-29 11:09:50.01	5.28	21.14	-37.1	-38.6	16.4	0.00e+00	0	60	0	2526019584	44	4647
2026-01-29 11:09:51.02	5.12	21.02	-37.0	-38.6	16.4	0.00e+00	0	60	0	2532311040	44	4620
2026-01-29 11:09:52.03	4.97	20.91	-37.1	-38.7	16.3	0.00e+00	0	60	0	2537553920	44	4665
2026-01-29 11:09:53.04	4.83	20.80	-37.1	-38.7	16.3	0.00e+00	0	60	0	2543845376	44	4665
2026-01-29 11:09:54.05	4.68	20.69	-37.1	-38.6	16.3	0.00e+00	0	60	0	2549088256	44	4650
2026-01-29 11:09:55.06	4.53	20.58	-37.0	-38.6	16.3	0.00e+00	0	60	0	2555379712	44	4638
2026-01-29 11:09:56.07	4.39	20.47	-37.1	-38.7	16.3	0.00e+00	0	60	0	2560622592	44	4667
2026-01-29 11:09:57.08	4.24	20.36	-37.2	-38.8	16.2	0.00e+00	0	60	0	2565865472	44	4723
2026-01-29 11:09:58.10	4.10	20.24	-37.1	-38.7	16.3	0.00e+00	0	60	0	2572156928	44	4669
2026-01-29 11:09:59.11	3.95	20.13	-37.1	-38.7	16.2	0.00e+00	0	60	0	2577399808	44	4705
2026-01-29 11:10:00.12	3.81	20.02	-37.1	-38.7	16.2	0.00e+00	0	60	0	2583691264	44	4678
2026-01-29 11:10:01.13	3.67	19.91	-37.1	-38.7	16.2	0.00e+00	0	60	0	2588934144	44	4703
2026-01-29 11:10:02.14	3.53	19.81	-37.2	-38.8	16.1	0.00e+00	0	60	0	2594177024	44	4756
2026-01-29 11:10:03.15	3.39	19.70	-37.2	-38.8	16.1	0.00e+00	0	60	0	2600468480	44	4733
2026-01-29 11:10:04.16	3.26	19.59	-37.2	-38.9	16.1	0.00e+00	0	60	0	2605711360	45	4499
2026-01-29 11:10:05.17	3.12	19.48	-37.3	-38.9	16.0	0.00e+00	0	60	0	2612002816	45	4536
2026-01-29 11:10:06.17	2.99	19.37	-37.3	-39.0	15.9	0.00e+00	0	60	0	2617245696	45	4573
2026-01-29 11:10:07.19	2.85	19.26	-37.3	-39.0	15.9	0.00e+00	0	60	0	2623537152	45	4576
2026-01-29 11:10:08.20	2.72	19.16	-37.4	-39.0	15.8	0.00e+00	0	60	0	2628780032	45	4590
2026-01-29 11:10:09.21	2.59	19.05	-37.4	-39.1	15.8	0.00e+00	0	60	0	2634022912	45	4616
2026-01-29 11:10:10.22	2.45	18.94	-37.4	-39.1	15.8	0.00e+00	0	60	0	2640314368	45	4625
2026-01-29 11:10:11.23	2.32	18.84	-37.4	-39.1	15.7	0.00e+00	0	60	0	2645557248	45	4643
2026-01-29 11:10:12.24	2.19	18.73	-37.4	-39.1	15.7	0.00e+00	0	61	0	2651848704	45	4642
2026-01-29 11:10:13.25	2.07	18.62	-37.3	-39.0	15.9	0.00e+00	0	60	0	2657091584	45	4547
2026-01-29 11:10:14.26	1.94	18.52	-37.3	-38.9	15.9	0.00e+00	0	60	0	2662334464	45	4543
2026-01-29 11:10:15.27	1.81	18.41	-37.2	-38.9	15.9	0.00e+00	0	60	0	2668625920	45	4513
2026-01-29 11:10:16.28	1.69	18.31	-37.3	-38.9	15.9	0.00e+00	0	60	0	2673868800	45	4534
2026-01-29 11:10:17.29	1.56	18.20	-37.3	-38.9	15.9	0.00e+00	0	60	0	2680160256	45	4534
2026-01-29 11:10:18.30	1.44	18.10	-37.4	-39.0	15.8	0.00e+00	0	60	0	2685403136	45	4593
2026-01-29 11:10:19.31	1.31	18.00	-37.4	-39.1	15.6	0.00e+00	0	60	0	2691694592	45	4634
2026-01-29 11:10:20.32	1.19	17.89	-37.5	-39.2	15.5	0.00e+00	0	60	0	2696937472	45	4704
2026-01-29 11:10:21.33	1.07	17.79	-37.6	-39.4	15.4	0.00e+00	0	60	0	2702180352	45	4775
2026-01-29 11:10:22.34	0.95	17.69	-37.6	-39.4	15.3	0.00e+00	0	60	0	2708471808	45	4803
2026-01-29 11:10:23.35	0.83	17.58	-37.7	-39.5	15.2	0.00e+00	0	60	0	2713714688	45	4848
2026-01-29 11:10:24.36	0.71	17.48	-37.7	-39.5	15.2	0.00e+00	0	60	0	2720006144	46	4589
2026-01-29 11:10:25.38	0.59	17.38	-37.8	-39.6	15.1	0.00e+00	0	60	0	2725249024	46	4617
2026-01-29 11:10:26.39	0.47	17.28	-37.8	-39.6	15.1	0.00e+00	0	60	0	2731540480	46	4636
2026-01-29 11:10:27.40	0.36	17.17	-37.8	-39.7	15.0	0.00e+00	0	60	0	2736783360	46	4658
2026-01-29 11:10:28.41	0.24	17.07	-37.9	-39.7	15.0	0.00e+00	0	60	0	2742026240	46	4689
2026-01-29 11:10:29.42	0.13	16.97	-37.9	-39.8	14.9	0.00e+00	0	60	0	2748317696	46	4714
2026-01-29 11:10:30.43	0.01	16.87	-37.8	-39.6	15.1	0.00e+00	0	60	0	2753560576	46	4626
2026-01-29 11:10:31.44	359.90	16.77	-37.9	-39.7	14.9	0.00e+00	0	60	0	2759852032	46	4673
2026-01-29 11:10:32.45	359.79	16.67	-37.8	-39.7	14.9	0.00e+00	0	60	0	2765094912	46	4680
2026-01-29 11:10:33.46	359.67	16.57	-37.9	-39.9	14.7	0.00e+00	0	60	0	2771386368	46	4765
2026-01-29 11:10:34.47	359.56	16.47	-37.8	-39.7	14.8	2.20e-06	0	60	0	2776629248	46	4672
2026-01-29 11:10:35.48	359.45	16.37	-37.8	-39.7	14.9	0.00e+00	0	60	0	2781872128	46	4672
2026-01-29 11:10:36.49	359.34	16.27	-38.0	-39.9	14.6	3.40e-06	0	60	0	2788163584	46	4772
2026-01-29 11:10:37.50	359.24	16.17	-37.8	-39.7	14.8	1.10e-06	0	60	0	2793406464	46	4682
2026-01-29 11:10:38.51	359.13	16.08	-37.9	-39.8	14.7	0.00e+00	0	60	0	2799697920	46	4717
2026-01-29 11:10:39.52	359.02	15.98	-37.9	-39.9	14.5	1.10e-06	0	60	0	2804940800	46	4780
2026-01-29 11:10:40.53	358.91	15.88	-38.1	-40.1	14.3	1.10e-06	0	60	0	2810183680	46	4880
2026-01-29 11:10:41.54	358.81	15.78	-37.9	-39.8	14.5	1.10e-06	0	60	0	2816475136	46	4755
2026-01-29 11:10:42.55	358.70	15.69	-37.8	-39.7	14.5	0.00e+00	0	60	0	2821718016	46	4699
2026-01-29 11:10:43.57	358.60	15.59	-38.0	-40.1	14.1	3.40e-06	0	60	0	2828009472	46	4889
2026-01-29 11:10:44.57	358.49	15.49	-38.2	-40.3	13.8	4.50e-06	0	60	0	2833252352	47	4755
2026-01-29 11:10:45.58	358.39	15.40	-38.1	-40.2	13.9	5.70e-06	0	60	0	2839543808	47	4654
2026-01-29 11:10:46.59	358.29	15.30	-38.0	-40.0	14.0	3.40e-06	0	60	0	2844786688	47	4591
2026-01-29 11:10:47.61	358.19	15.20	-38.0	-40.2	13.8	3.40e-06	0	60	0	2850029568	47	4658
2026-01-29 11:10:48.62	358.08	15.11	-38.1	-40.3	13.6	1.37e-05	0	60	0	2856321024	47	4730
2026-01-29 11:10:49.63	357.98	15.01	-38.3	-40.7	13.0	5.60e-05	0	60	0	2861563904	47	4942
2026-01-29 11:10:50.64	357.88	14.92	-38.4	-40.7	12.9	7.09e-05	0	60	0	2867855360	47	4983
2026-01-29 11:10:51.65	357.79	14.82	-38.2	-40.5	13.1	5.37e-05	0	60	0	2873098240	47	4868
2026-01-29 11:10:52.66	357.69	14.73	-38.1	-40.4	13.2	5.03e-05	0	60	0	2878341120	47	4769
2026-01-29 11:10:53.67	357.59	14.63	-37.9	-40.2	13.3	3.08e-05	0	60	0	2884632576	47	4654
2026-01-29 11:10:54.68	357.49	14.54	-38.1	-40.5	12.8	5.03e-05	0	60	0	2889875456	47	4829
2026-01-29 11:10:55.69	357.40	14.45	-38.1	-40.5	12.8	1.02e-04	0	60	0	2896166912	47	4836
2026-01-29 11:10:56.70	357.30	14.35	-38.4	-41.0	12.2	2.46e-04	0	60	0	2901409792	47	5113
2026-01-29 11:10:57.71	357.20	14.26	-38.3	-40.9	12.1	3.64e-04	0	60	0	2907701248	47	5063
2026-01-29 11:10:58.72	357.11	14.17	-38.3	-41.0	11.9	4.69e-04	0	60	0	2912944128	47	5134
2026-01-29 11:10:59.73	357.02	14.08	-38.0	-40.5	12.3	4.80e-04	0	60	0	2918187008	47	4868
2026-01-29 11:11:00.74	356.92	13.98	-37.7	-40.2	12.6	1.49e-04	0	60	0	2924478464	47	4671
2026-01-29 11:11:01.75	356.83	13.89	-37.8	-40.3	12.4	2.22e-04	0	60	0	2929721344	47	4730
2026-01-29 11:11:02.76	356.74	13.80	-37.7	-40.2	12.3	2.33e-04	0	60	0	2936012800	47	4701
2026-01-29 11:11:03.77	356.65	13.71	-37.8	-40.4	12.1	3.81e-04	0	60	0	2941255680	47	4761
2026-01-29 11:11:04.79	356.55	13.62	-38.0	-40.7	11.6	8.63e-04	0	60	0	2947547136	47	4972
2026-01-29 11:11:05.80	356.46	13.53	-38.1	-41.0	11.1	1.48e-03	0	60	0	2952790016	47	5148
2026-01-29 11:11:06.80	356.38	13.44	-38.4	-41.6	10.5	3.80e-03	0	60	0	2958032896	47	5465
2026-01-29 11:11:07.81	356.29	13.35	-38.9	-42.5	9.5	1.12e-02	0	60	0	2964324352	48	5761
2026-01-29 11:11:08.82	356.20	13.26	-39.4	-43.6	8.3	5.10e-02	0	60	0	2969567232	49	6135
2026-01-29 11:11:09.83	356.11	13.17	-39.6	-44.2	7.5	9.86e-02	0	60	0	2975858688	49	6599
2026-01-29 11:11:10.84	356.02	13.08	-39.8	-44.8	6.9	1.82e-01	0	60	0	2981101568	50	6684
2026-01-29 11:11:11.85	355.93	12.99	-39.9	-45.4	6.2	2.75e-01	0	60	0	2986344448	50	7201
2026-01-29 11:11:12.87	355.85	12.90	-40.1	-46.5	5.4	6.59e-01	0	60	0	2991587328	50	8116
2026-01-29 11:11:13.88	355.76	12.81	-40.3	-47.5	4.7	7.81e-01	0	60	0	2992635904	51	8655
2026-01-29 11:11:14.89	355.68	12.72	-40.4	-48.6	4.3	8.32e-01	0	60	0	2992635904	51	9799
2026-01-29 11:11:15.90	355.59	12.63	-40.6	-50.6	3.8	8.43e-01	0	60	104	2992635904	51	12267
2026-01-29 11:11:16.91	355.51	12.54	-40.2	-50.8	3.8	8.43e-01	0	60	104	2992635904	51	12654
2026-01-29 11:11:17.92	355.42	12.46	-40.3	-51.4	3.8	8.47e-01	0	60	104	2992635904	51	13479
2026-01-29 11:11:18.93	355.34	12.37	-40.9	-51.0	3.8	8.46e-01	0	60	104	2992635904	52	12227
2026-01-29 11:11:19.94	355.26	12.28	-40.4	-51.5	3.8	8.46e-01	0	61	104	2992635904	52	12951
2026-01-29 11:11:20.95	355.17	12.20	-40.4	-51.6	3.8	8.45e-01	0	60	104	2992635904	52	12969
2026-01-29 11:11:21.96	355.09	12.11	-40.3	-51.5	3.8	8.46e-01	0	60	104	2992635904	52	12861
2026-01-29 11:11:22.97	355.01	12.02	-40.0	-51.5	3.8	8.47e-01	0	60	104	2992635904	51	13594
2026-01-29 11:11:23.98	354.93	11.94	-40.0	-51.4	3.8	8.46e-01	0	61	104	2992635904	51	13513
2026-01-29 11:11:24.99	354.85	11.85	-40.5	-51.9	3.8	8.47e-01	0	60	104	2992635904	51	14347
2026-01-29 11:11:26.00	354.77	11.76	-40.0	-51.5	3.8	8.45e-01	0	60	104	2992635904	51	13632
2026-01-29 11:11:27.01	354.69	11.68	-40.2	-51.6	3.8	8.47e-01	0	61	104	2992635904	51	13866
2026-01-29 11:11:28.02	354.61	11.59	-40.0	-51.4	3.8	8.45e-01	0	60	104	2992635904	51	13513
2026-01-29 11:11:29.03	354.53	11.51	-39.9	-51.4	3.8	8.45e-01	0	60	104	2992635904	51	13434
2026-01-29 11:11:30.04	354.46	11.42	-39.9	-51.4	3.8	8.46e-01	0	60	104	2992635904	51	13467
2026-01-29 11:11:31.05	354.38	11.34	-40.0	-51.4	3.8	8.46e-01	0	61	104	2992635904	51	13512
2026-01-29 11:11:32.06	354.30	11.26	-39.9	-51.4	3.8	8.47e-01	0	61	104	2992635904	51	13498
2026-01-29 11:11:33.07	354.22	11.17	-40.3	-51.8	3.8	8.46e-01	0	60	104	2992635904	51	14123
2026-01-29 11:11:34.08	354.15	11.09	-40.1	-51.5	3.8	8.47e-01	0	60	104	2992635904	51	13720
2026-01-29 11:11:35.09	354.07	11.00	-40.2	-51.6	3.8	8.48e-01	0	60	104	2992635904	51	13885
2026-01-29 11:11:36.10	354.00	10.92	-40.2	-51.7	3.8	8.47e-01	0	60	104	2992635904	51	14029
2026-01-29 11:11:37.11	353.92	10.84	-40.0	-51.5	3.8	8.46e-01	0	60	104	2992635904	51	13637
2026-01-29 11:11:38.12	353.85	10.75	-40.1	-51.6	3.8	8.47e-01	0	60	104	2992635904	51	13743
2026-01-29 11:11:39.13	353.78	10.67	-40.1	-51.6	3.8	8.47e-01	0	61	104	2992635904	51	13766
2026-01-29 11:11:40.14	353.70	10.59	-40.2	-51.7	3.8	8.45e-01	0	60	104	2992635904	51	13935
2026-01-29 11:11:41.15	353.63	10.51	-40.0	-51.5	3.8	8.46e-01	0	60	104	2992635904	51	13625
