passes_logs/2026/01/29/R2.0S_Moscow/R2.0S_Moscow__20260129_111417_NOAA_21_JPSS-2_rec.log

#Pass ID: 20260129_111417_NOAA 21 (JPSS-2)
#Satellite: NOAA 21 (JPSS-2)
#Configuration: NOAA-21
#almurnet v.1.7.20251203
#Start time: 2026-01-29 11:17:30

#Version: 2.2.20231116
#Station: R2.0S_Moscow
#Location: 37.707566 lon 55.798166 lat
#TLE: 1 54234U 22150A   26027.91149249  .00000141  00000+0  87546-4 0  9993
#TLE: 2 54234  98.7510 328.6558 0000880 202.8718 157.2419 14.19540177166642

#Time	Az	El	Level	Level2	SNR	BER	BlckErr	Temp	State	Recorded	gain1	gain2
2026-01-29 11:17:30.00	218.45	15.09	-45.6	-64.7	3.8	7.46e-01	0	60	0	0	62	33245
2026-01-29 11:17:31.00	218.60	15.17	-45.1	-57.7	3.8	1.49e+00	0	61	104	0	61	15672
2026-01-29 11:17:32.01	218.74	15.25	-45.1	-57.7	3.8	1.49e+00	0	60	104	0	61	15692
2026-01-29 11:17:33.02	218.89	15.33	-45.0	-57.7	3.8	1.49e+00	0	61	104	0	61	15583
2026-01-29 11:17:34.03	219.04	15.41	-45.0	-57.6	3.8	1.49e+00	0	61	104	0	61	15549
2026-01-29 11:17:35.04	219.19	15.49	-45.0	-57.6	3.8	1.49e+00	0	61	104	0	61	15535
2026-01-29 11:17:36.05	219.34	15.57	-44.9	-57.5	3.8	1.49e+00	0	61	104	0	61	15261
2026-01-29 11:17:37.07	219.50	15.65	-44.9	-57.5	3.8	1.49e+00	0	61	104	0	61	15339
2026-01-29 11:17:38.08	219.65	15.73	-44.9	-57.4	3.8	1.49e+00	0	61	104	0	61	15195
2026-01-29 11:17:39.09	219.80	15.81	-44.8	-57.4	3.8	1.49e+00	0	61	104	0	61	15150
2026-01-29 11:17:40.10	219.96	15.89	-44.7	-57.3	3.8	1.49e+00	0	61	104	0	61	14903
2026-01-29 11:17:41.11	220.11	15.97	-44.7	-57.2	3.8	1.49e+00	0	61	104	0	61	14816
2026-01-29 11:17:42.12	220.27	16.05	-44.7	-57.3	3.8	1.49e+00	0	60	104	0	61	14916
2026-01-29 11:17:43.13	220.42	16.13	-44.7	-57.2	3.8	1.49e+00	0	61	104	0	61	14856
2026-01-29 11:17:44.14	220.58	16.22	-44.7	-57.3	3.8	1.49e+00	0	61	104	0	61	14916
2026-01-29 11:17:45.16	220.74	16.30	-44.7	-57.3	3.8	1.49e+00	0	61	104	0	61	14954
2026-01-29 11:17:46.17	220.90	16.38	-44.7	-57.3	3.8	1.49e+00	0	61	104	0	61	14926
2026-01-29 11:17:47.18	221.06	16.46	-44.7	-57.2	3.8	1.49e+00	0	61	104	0	61	14856
2026-01-29 11:17:48.19	221.22	16.54	-44.7	-57.2	3.8	1.49e+00	0	61	104	0	61	14838
2026-01-29 11:17:49.20	221.38	16.62	-44.7	-57.2	3.8	1.49e+00	0	61	104	0	61	14858
2026-01-29 11:17:50.21	221.54	16.70	-44.7	-57.2	3.8	1.49e+00	0	60	104	0	60	15703
2026-01-29 11:17:51.22	221.71	16.78	-44.7	-57.2	3.8	1.49e+00	0	60	104	0	60	15694
2026-01-29 11:17:52.23	221.87	16.87	-44.7	-57.2	3.8	1.49e+00	0	61	104	0	60	15718
2026-01-29 11:17:53.24	222.04	16.95	-44.7	-57.2	3.8	1.49e+00	0	61	104	0	60	15684
2026-01-29 11:17:54.25	222.20	17.03	-44.7	-57.2	3.8	1.49e+00	0	61	104	0	60	15648
2026-01-29 11:17:55.26	222.37	17.11	-44.7	-57.2	3.8	1.49e+00	0	61	104	0	60	15655
2026-01-29 11:17:56.27	222.54	17.19	-44.7	-57.2	3.8	1.49e+00	0	61	104	0	60	15709
2026-01-29 11:17:57.28	222.70	17.27	-44.7	-57.2	3.8	1.49e+00	0	61	104	0	60	15750
2026-01-29 11:17:58.29	222.87	17.35	-44.7	-57.3	3.8	1.49e+00	0	61	104	0	60	15762
2026-01-29 11:17:59.30	223.04	17.44	-44.7	-57.3	3.8	1.49e+00	0	61	104	0	60	15796
2026-01-29 11:18:00.31	223.21	17.52	-44.7	-57.2	3.8	1.49e+00	0	61	104	0	60	15753
2026-01-29 11:18:01.32	223.39	17.60	-44.7	-57.2	3.8	1.49e+00	0	61	104	0	60	15662
2026-01-29 11:18:02.33	223.56	17.68	-44.6	-57.1	3.8	1.49e+00	0	61	104	0	60	15451
2026-01-29 11:18:03.34	223.73	17.76	-44.6	-56.9	3.8	1.49e+00	0	61	104	0	60	15099
2026-01-29 11:18:04.36	223.91	17.84	-44.6	-56.6	3.8	1.49e+00	0	61	104	0	60	14688
2026-01-29 11:18:05.37	224.08	17.93	-44.6	-56.4	3.8	1.49e+00	0	61	104	0	60	14372
2026-01-29 11:18:06.38	224.26	18.01	-44.6	-56.3	3.8	1.49e+00	0	61	104	0	60	14089
2026-01-29 11:18:07.39	224.44	18.09	-44.5	-56.1	3.8	1.49e+00	0	61	104	0	60	13851
2026-01-29 11:18:08.40	224.62	18.17	-44.5	-55.9	3.8	1.49e+00	0	61	104	0	60	13476
2026-01-29 11:18:09.41	224.80	18.25	-44.4	-55.5	3.8	1.49e+00	0	60	104	0	60	12845
2026-01-29 11:18:10.42	224.98	18.33	-44.3	-54.8	3.9	1.49e+00	0	61	104	0	60	11885
2026-01-29 11:18:11.43	225.16	18.42	-44.3	-53.4	4.3	1.47e+00	0	61	104	0	60	10071
2026-01-29 11:18:12.44	225.34	18.50	-44.0	-52.0	4.4	9.50e-01	0	61	104	0	60	8660
2026-01-29 11:18:13.46	225.53	18.58	-43.8	-50.3	5.8	4.77e-01	0	61	0	2097152	59	7468
2026-01-29 11:18:14.47	225.71	18.66	-43.4	-49.0	6.9	2.09e-01	0	61	0	5242880	58	6870
2026-01-29 11:18:15.48	225.89	18.74	-42.9	-47.7	8.1	7.56e-02	0	61	0	8388608	57	6205
2026-01-29 11:18:16.49	226.08	18.83	-42.5	-46.6	9.2	2.40e-02	0	61	0	11534336	57	5505
2026-01-29 11:18:17.50	226.27	18.91	-42.0	-45.6	10.2	8.86e-03	0	61	0	14680064	56	5192
2026-01-29 11:18:18.51	226.46	18.99	-41.3	-44.6	11.2	2.30e-03	0	61	0	17825792	54	5165
2026-01-29 11:18:19.52	226.64	19.07	-40.9	-43.8	12.0	5.56e-04	0	61	0	20971520	53	5025
2026-01-29 11:18:20.53	226.83	19.15	-40.5	-43.2	12.6	1.45e-04	0	61	0	24117248	53	4672
2026-01-29 11:18:21.54	227.03	19.23	-40.2	-42.8	13.0	3.81e-05	0	61	0	27262976	52	4714
2026-01-29 11:18:22.56	227.22	19.32	-40.0	-42.4	13.4	1.44e-05	0	61	0	30408704	52	4528
2026-01-29 11:18:23.57	227.41	19.40	-40.1	-42.5	13.4	1.37e-05	0	61	0	33554432	51	4829
2026-01-29 11:18:24.58	227.61	19.48	-44.7	-56.4	3.8	1.83e-05	0	61	104	36700160	60	14256
2026-01-29 11:18:25.59	227.80	19.56	-43.1	-48.7	4.5	1.49e+00	0	61	104	36700160	58	6585
2026-01-29 11:18:26.60	228.00	19.64	-40.0	-42.4	13.5	3.87e-02	0	61	0	37748736	52	4499
2026-01-29 11:18:27.61	228.19	19.72	-40.5	-43.2	12.7	2.84e-04	0	61	0	41943040	52	4934
2026-01-29 11:18:28.62	228.39	19.80	-40.3	-42.9	13.2	1.37e-05	0	61	0	45088768	51	5043
2026-01-29 11:18:29.63	228.59	19.88	-40.5	-43.2	12.5	6.64e-03	0	61	0	48234496	53	4674
2026-01-29 11:18:30.64	228.79	19.96	-39.9	-42.2	13.7	2.20e-06	0	61	0	50331648	51	4680
2026-01-29 11:18:31.65	228.99	20.05	-39.9	-42.3	13.6	6.80e-06	0	61	0	53477376	51	4715
2026-01-29 11:18:32.66	229.19	20.13	-39.9	-42.2	13.7	3.00e-06	0	61	0	57671680	51	4705
2026-01-29 11:18:33.67	229.40	20.21	-39.9	-42.2	13.7	7.60e-06	0	61	0	60817408	51	4689
2026-01-29 11:18:34.68	229.60	20.29	-39.9	-42.2	13.7	3.00e-06	0	61	0	63963136	51	4698
2026-01-29 11:18:35.69	229.81	20.37	-39.9	-42.2	13.8	4.50e-06	0	61	0	67108864	51	4655
2026-01-29 11:18:36.70	230.01	20.45	-39.8	-42.1	13.8	5.30e-06	0	61	0	70254592	51	4647
2026-01-29 11:18:37.71	230.22	20.53	-39.8	-42.0	13.8	1.50e-06	0	61	0	73400320	51	4598
2026-01-29 11:18:38.72	230.43	20.61	-39.7	-42.0	13.9	4.50e-06	0	61	0	76546048	51	4569
2026-01-29 11:18:39.73	230.64	20.69	-39.7	-41.9	14.1	1.50e-06	0	61	0	79691776	51	4508
2026-01-29 11:18:40.74	230.85	20.77	-39.7	-41.9	14.1	3.80e-06	0	61	0	82837504	51	4511
2026-01-29 11:18:41.75	231.06	20.85	-39.6	-41.8	14.1	3.80e-06	0	61	0	85983232	51	4471
2026-01-29 11:18:42.76	231.27	20.93	-39.5	-41.7	14.2	7.00e-07	0	61	0	89128960	51	4414
2026-01-29 11:18:43.77	231.49	21.01	-39.4	-41.5	14.5	1.50e-06	0	61	0	92274688	50	4565
2026-01-29 11:18:44.78	231.70	21.09	-39.3	-41.4	14.5	0.00e+00	0	61	0	95420416	50	4523
2026-01-29 11:18:45.79	231.92	21.17	-39.2	-41.3	14.7	0.00e+00	0	61	0	98566144	50	4464
2026-01-29 11:18:46.80	232.13	21.24	-39.2	-41.3	14.7	7.00e-07	0	61	0	101711872	50	4445
2026-01-29 11:18:47.81	232.35	21.32	-39.1	-41.2	14.8	0.00e+00	0	61	0	104857600	50	4394
2026-01-29 11:18:48.82	232.57	21.40	-39.1	-41.1	14.8	0.00e+00	0	61	0	108003328	50	4384
2026-01-29 11:18:49.83	232.79	21.48	-39.1	-41.1	14.8	0.00e+00	0	61	0	111149056	50	4367
2026-01-29 11:18:50.84	233.01	21.56	-39.1	-41.1	14.8	0.00e+00	0	61	0	114294784	50	4367
2026-01-29 11:18:51.85	233.24	21.64	-39.0	-41.0	14.9	0.00e+00	0	61	0	117440512	50	4334
2026-01-29 11:18:52.86	233.46	21.71	-39.0	-40.9	15.0	0.00e+00	0	61	0	120586240	50	4285
2026-01-29 11:18:53.87	233.68	21.79	-39.0	-41.0	15.0	0.00e+00	0	61	0	123731968	49	4547
2026-01-29 11:18:54.88	233.91	21.87	-38.9	-40.9	15.0	0.00e+00	0	61	0	126877696	49	4514
2026-01-29 11:18:55.89	234.14	21.95	-39.0	-40.9	15.0	0.00e+00	0	61	0	130023424	49	4538
2026-01-29 11:18:56.90	234.36	22.02	-39.0	-41.0	15.0	0.00e+00	0	60	0	133169152	49	4550
2026-01-29 11:18:57.91	234.59	22.10	-38.9	-40.9	15.1	0.00e+00	0	61	0	136314880	49	4498
2026-01-29 11:18:58.92	234.82	22.18	-38.9	-40.9	15.0	0.00e+00	0	61	0	139460608	49	4513
2026-01-29 11:18:59.93	235.05	22.25	-38.9	-40.9	15.1	7.00e-07	0	61	0	142606336	49	4510
2026-01-29 11:19:00.94	235.29	22.33	-38.9	-40.9	15.1	0.00e+00	0	61	0	145752064	49	4501
2026-01-29 11:19:01.95	235.52	22.41	-38.9	-40.9	15.1	0.00e+00	0	61	0	148897792	49	4502
2026-01-29 11:19:02.96	235.76	22.48	-39.0	-40.9	15.0	0.00e+00	0	61	0	152043520	49	4527
2026-01-29 11:19:03.97	235.99	22.56	-39.0	-40.9	15.0	0.00e+00	0	61	0	155189248	49	4543
2026-01-29 11:19:04.98	236.23	22.63	-39.0	-41.0	15.0	0.00e+00	0	61	0	158334976	49	4566
2026-01-29 11:19:05.99	236.47	22.71	-39.0	-41.0	15.0	0.00e+00	0	61	0	161480704	49	4550
2026-01-29 11:19:07.00	236.70	22.78	-39.1	-41.0	14.9	0.00e+00	0	61	0	164626432	49	4591
2026-01-29 11:19:08.01	236.94	22.86	-39.1	-41.1	14.9	0.00e+00	0	61	0	167772160	49	4617
2026-01-29 11:19:09.02	237.19	22.93	-39.2	-41.2	14.8	0.00e+00	0	61	0	170917888	49	4676
2026-01-29 11:19:10.03	237.43	23.00	-39.2	-41.2	14.7	0.00e+00	0	60	0	174063616	49	4680
2026-01-29 11:19:11.04	237.67	23.08	-39.1	-41.1	14.8	0.00e+00	0	61	0	177209344	49	4646
2026-01-29 11:19:12.05	237.92	23.15	-39.1	-41.1	14.8	0.00e+00	0	61	0	180355072	49	4648
2026-01-29 11:19:13.06	238.16	23.22	-39.2	-41.2	14.8	0.00e+00	0	61	0	183500800	49	4669
2026-01-29 11:19:14.07	238.41	23.29	-39.2	-41.2	14.8	0.00e+00	0	61	0	186646528	49	4665
2026-01-29 11:19:15.08	238.66	23.37	-39.2	-41.2	14.7	0.00e+00	0	61	0	189792256	49	4699
2026-01-29 11:19:16.09	238.91	23.44	-39.2	-41.3	14.7	0.00e+00	0	61	0	192937984	49	4707
2026-01-29 11:19:17.10	239.16	23.51	-39.2	-41.2	14.8	0.00e+00	0	61	0	196083712	49	4674
2026-01-29 11:19:18.12	239.41	23.58	-39.2	-41.3	14.7	0.00e+00	0	61	0	199229440	49	4707
2026-01-29 11:19:19.13	239.66	23.65	-39.3	-41.3	14.6	0.00e+00	0	61	0	202375168	49	4750
2026-01-29 11:19:20.14	239.92	23.72	-39.3	-41.4	14.6	0.00e+00	0	61	0	205520896	49	4782
2026-01-29 11:19:21.15	240.17	23.79	-39.3	-41.4	14.5	0.00e+00	0	61	0	208666624	49	4792
2026-01-29 11:19:22.16	240.43	23.86	-39.3	-41.4	14.6	0.00e+00	0	61	0	211812352	49	4780
2026-01-29 11:19:23.17	240.68	23.93	-39.3	-41.4	14.6	2.20e-06	0	61	0	214958080	49	4798
2026-01-29 11:19:24.18	240.94	24.00	-39.3	-41.3	14.6	0.00e+00	0	61	0	218103808	49	4749
2026-01-29 11:19:25.19	241.20	24.07	-39.3	-41.3	14.6	0.00e+00	0	61	0	221249536	49	4758
2026-01-29 11:19:26.20	241.46	24.13	-39.3	-41.3	14.6	7.00e-07	0	61	0	224395264	49	4754
2026-01-29 11:19:27.21	241.72	24.20	-39.4	-41.5	14.5	0.00e+00	0	61	0	227540992	49	4834
2026-01-29 11:19:28.22	241.98	24.27	-39.5	-41.6	14.4	1.50e-06	0	61	0	230686720	49	4885
2026-01-29 11:19:29.23	242.25	24.33	-39.6	-41.8	14.2	7.00e-07	0	61	0	233832448	49	5001
2026-01-29 11:19:30.24	242.51	24.40	-39.7	-41.9	14.1	1.50e-06	0	61	0	236978176	49	5056
2026-01-29 11:19:31.25	242.78	24.46	-39.7	-41.9	14.1	1.50e-06	0	61	0	240123904	49	5068
2026-01-29 11:19:32.26	243.04	24.53	-39.8	-42.1	13.9	2.20e-06	0	61	0	243269632	50	4875
2026-01-29 11:19:33.27	243.31	24.59	-39.7	-41.9	14.1	2.20e-06	0	61	0	246415360	50	4798
2026-01-29 11:19:34.28	243.58	24.66	-39.7	-41.9	14.1	1.50e-06	0	61	0	249561088	50	4803
2026-01-29 11:19:35.29	243.85	24.72	-39.7	-42.0	14.0	2.20e-06	0	61	0	252706816	50	4820
2026-01-29 11:19:36.30	244.12	24.78	-39.6	-41.7	14.3	3.00e-06	0	61	0	255852544	50	4689
2026-01-29 11:19:37.31	244.39	24.85	-39.5	-41.7	14.3	7.00e-07	0	61	0	258998272	50	4662
2026-01-29 11:19:38.31	244.66	24.91	-39.5	-41.6	14.3	0.00e+00	0	61	0	262144000	50	4641
2026-01-29 11:19:39.32	244.94	24.97	-39.5	-41.6	14.3	3.00e-06	0	61	0	265289728	50	4651
2026-01-29 11:19:40.33	245.21	25.03	-39.5	-41.7	14.3	0.00e+00	0	61	0	268435456	50	4655
2026-01-29 11:19:41.34	245.49	25.09	-39.5	-41.6	14.4	1.50e-06	0	61	0	271581184	50	4627
2026-01-29 11:19:42.35	245.76	25.15	-39.5	-41.7	14.3	7.00e-07	0	61	0	274726912	50	4672
2026-01-29 11:19:43.36	246.04	25.21	-39.6	-41.7	14.3	7.00e-07	0	61	0	277872640	50	4689
2026-01-29 11:19:44.37	246.32	25.27	-39.6	-41.8	14.2	7.00e-07	0	61	0	281018368	50	4707
2026-01-29 11:19:45.39	246.60	25.33	-39.6	-41.8	14.2	7.00e-07	0	61	0	284164096	50	4713
2026-01-29 11:19:46.39	246.88	25.38	-39.5	-41.7	14.3	2.20e-06	0	61	0	287309824	50	4660
2026-01-29 11:19:47.40	247.16	25.44	-39.6	-41.8	14.2	0.00e+00	0	61	0	290455552	50	4744
2026-01-29 11:19:48.41	247.45	25.50	-39.6	-41.8	14.1	1.50e-06	0	61	0	293601280	50	4737
2026-01-29 11:19:49.42	247.73	25.55	-39.6	-41.8	14.2	2.20e-06	0	61	0	296747008	50	4731
2026-01-29 11:19:50.43	248.02	25.61	-39.6	-41.8	14.2	3.00e-06	0	61	0	299892736	50	4729
2026-01-29 11:19:51.44	248.30	25.66	-39.6	-41.8	14.2	3.00e-06	0	61	0	303038464	50	4749
2026-01-29 11:19:52.45	248.59	25.71	-39.6	-41.8	14.1	0.00e+00	0	61	0	306184192	50	4729
2026-01-29 11:19:53.46	248.88	25.77	-39.6	-41.8	14.2	7.00e-07	0	61	0	309329920	50	4738
2026-01-29 11:19:54.47	249.17	25.82	-39.6	-41.7	14.3	3.80e-06	0	61	0	312475648	50	4680
2026-01-29 11:19:55.49	249.46	25.87	-39.5	-41.6	14.3	0.00e+00	0	61	0	315621376	50	4631
2026-01-29 11:19:56.50	249.75	25.92	-39.5	-41.6	14.4	0.00e+00	0	61	0	318767104	50	4627
2026-01-29 11:19:57.51	250.04	25.97	-39.6	-41.7	14.2	7.00e-07	0	61	0	321912832	50	4705
2026-01-29 11:19:58.52	250.33	26.02	-39.6	-41.8	14.2	0.00e+00	0	61	0	325058560	50	4728
2026-01-29 11:19:59.53	250.63	26.07	-39.6	-41.7	14.3	1.50e-06	0	61	0	328204288	50	4689
2026-01-29 11:20:00.54	250.92	26.12	-39.5	-41.6	14.4	0.00e+00	0	61	0	331350016	50	4610
2026-01-29 11:20:01.55	251.21	26.17	-39.5	-41.7	14.4	1.50e-06	0	61	0	334495744	50	4652
2026-01-29 11:20:02.56	251.51	26.21	-39.4	-41.5	14.5	7.00e-07	0	61	0	338690048	50	4588
2026-01-29 11:20:03.57	251.81	26.26	-39.4	-41.5	14.5	7.00e-07	0	61	0	340787200	50	4590
2026-01-29 11:20:04.58	252.11	26.31	-39.4	-41.5	14.5	1.50e-06	0	61	0	343932928	50	4583
2026-01-29 11:20:05.59	252.40	26.35	-39.5	-41.6	14.4	1.50e-06	0	61	0	347078656	50	4627
2026-01-29 11:20:06.60	252.70	26.39	-39.7	-41.8	14.1	2.20e-06	0	61	0	351272960	50	4756
2026-01-29 11:20:07.61	253.00	26.44	-39.7	-41.9	14.1	7.00e-07	0	61	0	354418688	50	4783
2026-01-29 11:20:08.62	253.30	26.48	-39.7	-42.0	14.0	0.00e+00	0	61	0	357564416	50	4821
2026-01-29 11:20:09.63	253.61	26.52	-39.7	-41.9	14.1	3.80e-06	0	61	0	360710144	50	4767
2026-01-29 11:20:10.64	253.91	26.56	-39.6	-41.7	14.3	7.00e-07	0	61	0	363855872	50	4683
2026-01-29 11:20:11.65	254.21	26.60	-39.5	-41.6	14.4	0.00e+00	0	61	0	367001600	50	4633
2026-01-29 11:20:12.66	254.51	26.64	-39.5	-41.6	14.4	0.00e+00	0	61	0	370147328	50	4621
2026-01-29 11:20:13.67	254.82	26.68	-39.5	-41.6	14.4	0.00e+00	0	61	0	373293056	50	4650
2026-01-29 11:20:14.68	255.12	26.72	-39.5	-41.6	14.4	7.00e-07	0	61	0	376438784	50	4639
2026-01-29 11:20:15.69	255.43	26.76	-39.5	-41.6	14.4	7.00e-07	0	61	0	379584512	50	4640
2026-01-29 11:20:16.70	255.74	26.79	-39.6	-41.7	14.3	7.00e-07	0	61	0	382730240	50	4686
2026-01-29 11:20:17.71	256.04	26.83	-39.7	-41.9	14.1	7.00e-07	0	61	0	385875968	50	4770
2026-01-29 11:20:18.72	256.35	26.86	-39.6	-41.8	14.2	0.00e+00	0	61	0	389021696	50	4745
2026-01-29 11:20:19.73	256.66	26.89	-39.6	-41.8	14.2	2.20e-06	0	61	0	392167424	50	4728
2026-01-29 11:20:20.74	256.97	26.93	-39.6	-41.7	14.2	1.50e-06	0	61	0	395313152	50	4700
2026-01-29 11:20:21.75	257.28	26.96	-39.5	-41.7	14.3	1.50e-06	0	61	0	398458880	50	4662
2026-01-29 11:20:22.76	257.59	26.99	-39.5	-41.6	14.4	1.50e-06	0	61	0	401604608	50	4601
2026-01-29 11:20:23.77	257.90	27.02	-39.5	-41.6	14.4	0.00e+00	0	61	0	404750336	50	4622
2026-01-29 11:20:24.78	258.21	27.05	-39.4	-41.5	14.5	1.50e-06	0	61	0	407896064	50	4562
2026-01-29 11:20:25.79	258.53	27.08	-39.4	-41.4	14.5	1.50e-06	0	61	0	411041792	50	4544
2026-01-29 11:20:26.80	258.84	27.11	-39.3	-41.4	14.6	1.50e-06	0	61	0	414187520	50	4534
2026-01-29 11:20:27.81	259.15	27.13	-39.3	-41.4	14.6	7.00e-07	0	61	0	417333248	50	4521
2026-01-29 11:20:28.82	259.47	27.16	-39.4	-41.5	14.5	0.00e+00	0	61	0	420478976	50	4565
2026-01-29 11:20:29.83	259.78	27.18	-39.5	-41.6	14.4	0.00e+00	0	61	0	423624704	50	4624
2026-01-29 11:20:30.84	260.09	27.21	-39.4	-41.5	14.5	1.50e-06	0	61	0	426770432	50	4567
2026-01-29 11:20:31.85	260.41	27.23	-39.3	-41.4	14.6	0.00e+00	0	61	0	429916160	50	4516
2026-01-29 11:20:32.86	260.72	27.25	-39.3	-41.4	14.6	7.00e-07	0	61	0	433061888	50	4498
2026-01-29 11:20:33.87	261.04	27.27	-39.4	-41.5	14.5	7.00e-07	0	61	0	436207616	50	4559
2026-01-29 11:20:34.88	261.36	27.30	-39.4	-41.5	14.5	0.00e+00	0	61	0	439353344	50	4561
2026-01-29 11:20:35.89	261.67	27.31	-39.4	-41.4	14.6	7.00e-07	0	61	0	442499072	50	4538
2026-01-29 11:20:36.90	261.99	27.33	-39.3	-41.3	14.6	0.00e+00	0	61	0	445644800	50	4471
2026-01-29 11:20:37.91	262.31	27.35	-39.3	-41.3	14.6	7.00e-07	0	61	0	448790528	50	4486
2026-01-29 11:20:38.92	262.63	27.37	-39.3	-41.4	14.6	0.00e+00	0	61	0	451936256	50	4515
2026-01-29 11:20:39.93	262.94	27.38	-39.4	-41.5	14.5	7.00e-07	0	61	0	455081984	50	4583
2026-01-29 11:20:40.94	263.26	27.40	-39.5	-41.6	14.4	0.00e+00	0	61	0	458227712	50	4641
2026-01-29 11:20:41.95	263.58	27.41	-39.6	-41.7	14.3	7.00e-07	0	61	0	461373440	50	4690
2026-01-29 11:20:42.96	263.90	27.43	-39.5	-41.7	14.3	7.00e-07	0	61	0	464519168	50	4676
2026-01-29 11:20:43.97	264.22	27.44	-39.5	-41.6	14.4	1.50e-06	0	61	0	467664896	50	4626
2026-01-29 11:20:44.98	264.54	27.45	-39.5	-41.6	14.4	7.00e-07	0	61	0	470810624	50	4610
2026-01-29 11:20:45.99	264.86	27.46	-39.5	-41.6	14.3	0.00e+00	0	61	0	473956352	50	4650
2026-01-29 11:20:47.01	265.18	27.47	-39.6	-41.7	14.2	2.20e-06	0	61	0	477102080	50	4694
2026-01-29 11:20:48.02	265.50	27.48	-39.6	-41.8	14.2	1.50e-06	0	61	0	480247808	50	4747
2026-01-29 11:20:49.03	265.82	27.49	-39.5	-41.7	14.3	2.20e-06	0	61	0	483393536	50	4670
2026-01-29 11:20:50.04	266.14	27.49	-39.5	-41.6	14.4	7.00e-07	0	61	0	486539264	50	4637
2026-01-29 11:20:51.05	266.46	27.50	-39.4	-41.5	14.5	7.00e-07	0	61	0	489684992	50	4591
2026-01-29 11:20:52.06	266.78	27.50	-39.4	-41.5	14.5	0.00e+00	0	61	0	492830720	50	4567
2026-01-29 11:20:53.07	267.10	27.51	-39.4	-41.5	14.4	0.00e+00	0	61	0	495976448	50	4597
2026-01-29 11:20:54.08	267.42	27.51	-39.5	-41.7	14.3	1.50e-06	0	61	0	499122176	50	4653
2026-01-29 11:20:55.09	267.74	27.51	-39.5	-41.6	14.4	7.00e-07	0	61	0	502267904	50	4645
2026-01-29 11:20:56.10	268.06	27.51	-39.6	-41.8	14.2	7.00e-07	0	61	0	505413632	50	4711
2026-01-29 11:20:57.11	268.38	27.51	-39.6	-41.8	14.2	1.50e-06	0	61	0	508559360	50	4738
2026-01-29 11:20:58.12	268.71	27.51	-39.4	-41.5	14.5	0.00e+00	0	61	0	511705088	50	4595
2026-01-29 11:20:59.13	269.03	27.51	-39.5	-41.6	14.4	7.00e-07	0	61	0	514850816	50	4618
2026-01-29 11:21:00.14	269.35	27.51	-39.6	-41.7	14.3	7.00e-07	0	61	0	517996544	50	4688
2026-01-29 11:21:01.15	269.67	27.50	-39.6	-41.8	14.2	0.00e+00	0	61	0	521142272	50	4726
2026-01-29 11:21:02.16	269.99	27.50	-39.6	-41.8	14.2	2.20e-06	0	61	0	524288000	50	4731
2026-01-29 11:21:03.17	270.31	27.49	-39.6	-41.9	14.1	1.50e-06	0	61	0	527433728	50	4762
2026-01-29 11:21:04.18	270.63	27.48	-39.5	-41.7	14.3	1.50e-06	0	61	0	530579456	50	4669
2026-01-29 11:21:05.19	270.95	27.48	-39.5	-41.6	14.3	0.00e+00	0	61	0	533725184	50	4635
2026-01-29 11:21:06.20	271.27	27.47	-39.4	-41.6	14.4	2.20e-06	0	61	0	536870912	50	4600
2026-01-29 11:21:07.21	271.59	27.46	-39.4	-41.5	14.5	0.00e+00	0	61	0	540016640	50	4547
2026-01-29 11:21:08.21	271.90	27.45	-39.3	-41.4	14.6	0.00e+00	0	61	0	543162368	50	4528
2026-01-29 11:21:09.22	272.22	27.44	-39.2	-41.3	14.7	7.00e-07	0	61	0	546308096	50	4459
2026-01-29 11:21:10.24	272.54	27.42	-39.2	-41.2	14.8	0.00e+00	0	61	0	549453824	50	4424
2026-01-29 11:21:11.25	272.86	27.41	-39.2	-41.2	14.8	0.00e+00	0	61	0	552599552	50	4403
2026-01-29 11:21:12.26	273.18	27.40	-39.3	-41.3	14.7	7.00e-07	0	61	0	555745280	50	4459
2026-01-29 11:21:13.26	273.50	27.38	-39.3	-41.3	14.7	0.00e+00	0	61	0	558891008	50	4480
2026-01-29 11:21:14.27	273.81	27.37	-39.3	-41.4	14.6	0.00e+00	0	61	0	562036736	50	4495
2026-01-29 11:21:15.28	274.13	27.35	-39.3	-41.4	14.6	7.00e-07	0	61	0	565182464	50	4518
2026-01-29 11:21:16.29	274.45	27.33	-39.3	-41.4	14.5	0.00e+00	0	61	0	568328192	50	4521
2026-01-29 11:21:17.30	274.76	27.31	-39.4	-41.4	14.5	0.00e+00	0	61	0	571473920	50	4544
2026-01-29 11:21:18.31	275.08	27.29	-39.2	-41.2	14.7	0.00e+00	0	61	0	574619648	50	4429
2026-01-29 11:21:19.32	275.40	27.27	-39.1	-41.1	14.9	0.00e+00	0	61	0	577765376	50	4355
2026-01-29 11:21:20.33	275.71	27.25	-39.2	-41.2	14.8	0.00e+00	0	61	0	580911104	50	4411
2026-01-29 11:21:21.34	276.03	27.23	-39.3	-41.3	14.7	0.00e+00	0	61	0	584056832	50	4478
2026-01-29 11:21:22.35	276.34	27.20	-39.3	-41.4	14.6	0.00e+00	0	61	0	587202560	50	4513
2026-01-29 11:21:23.36	276.66	27.18	-39.4	-41.4	14.5	1.50e-06	0	61	0	590348288	50	4543
2026-01-29 11:21:24.37	276.97	27.15	-39.4	-41.5	14.4	7.00e-07	0	61	0	593494016	50	4598
2026-01-29 11:21:25.38	277.28	27.13	-39.4	-41.5	14.5	0.00e+00	0	61	0	596639744	50	4551
2026-01-29 11:21:26.39	277.60	27.10	-39.3	-41.3	14.7	0.00e+00	0	61	0	599785472	50	4475
2026-01-29 11:21:27.40	277.91	27.07	-39.3	-41.3	14.6	0.00e+00	0	61	0	602931200	50	4480
2026-01-29 11:21:28.41	278.22	27.05	-39.3	-41.3	14.6	0.00e+00	0	61	0	606076928	50	4484
2026-01-29 11:21:29.42	278.53	27.02	-39.2	-41.3	14.7	7.00e-07	0	61	0	609222656	50	4450
2026-01-29 11:21:30.43	278.84	26.99	-39.2	-41.2	14.7	0.00e+00	0	61	0	612368384	50	4433
2026-01-29 11:21:31.44	279.15	26.96	-39.2	-41.2	14.7	0.00e+00	0	61	0	615514112	50	4412
2026-01-29 11:21:32.45	279.46	26.92	-39.2	-41.3	14.7	0.00e+00	0	61	0	618659840	50	4449
2026-01-29 11:21:33.46	279.77	26.89	-39.3	-41.3	14.6	0.00e+00	0	61	0	621805568	50	4492
2026-01-29 11:21:34.47	280.08	26.86	-39.3	-41.4	14.6	0.00e+00	0	61	0	624951296	50	4518
2026-01-29 11:21:35.48	280.38	26.82	-39.3	-41.3	14.6	0.00e+00	0	61	0	628097024	50	4487
2026-01-29 11:21:36.49	280.69	26.79	-39.3	-41.4	14.6	0.00e+00	0	61	0	632291328	50	4507
2026-01-29 11:21:37.51	281.00	26.75	-39.3	-41.4	14.6	0.00e+00	0	61	0	634388480	50	4508
2026-01-29 11:21:38.52	281.30	26.71	-39.4	-41.5	14.5	7.00e-07	0	61	0	637534208	50	4551
2026-01-29 11:21:39.53	281.61	26.68	-39.4	-41.5	14.5	0.00e+00	0	61	0	640679936	50	4559
2026-01-29 11:21:40.54	281.91	26.64	-39.5	-41.6	14.4	1.50e-06	0	61	0	643825664	50	4617
2026-01-29 11:21:41.55	282.21	26.60	-39.3	-41.4	14.5	7.00e-07	0	61	0	648019968	50	4519
2026-01-29 11:21:42.56	282.52	26.56	-39.2	-41.3	14.7	0.00e+00	0	61	0	651165696	50	4455
2026-01-29 11:21:43.57	282.82	26.52	-39.3	-41.3	14.6	0.00e+00	0	61	0	654311424	50	4474
2026-01-29 11:21:44.58	283.12	26.48	-39.3	-41.3	14.6	0.00e+00	0	61	0	657457152	50	4482
2026-01-29 11:21:45.59	283.42	26.43	-39.2	-41.2	14.7	0.00e+00	0	61	0	659554304	50	4438
2026-01-29 11:21:46.60	283.72	26.39	-39.2	-41.2	14.7	0.00e+00	0	61	0	663748608	50	4437
2026-01-29 11:21:47.61	284.02	26.35	-39.3	-41.4	14.5	7.00e-07	0	61	0	666894336	50	4531
2026-01-29 11:21:48.62	284.31	26.30	-39.3	-41.4	14.5	0.00e+00	0	61	0	670040064	50	4519
2026-01-29 11:21:49.63	284.61	26.26	-39.2	-41.3	14.6	1.50e-06	0	61	0	673185792	50	4467
2026-01-29 11:21:50.64	284.91	26.21	-39.3	-41.4	14.5	0.00e+00	0	61	0	676331520	50	4507
2026-01-29 11:21:51.65	285.20	26.16	-39.4	-41.5	14.5	0.00e+00	0	61	0	679477248	50	4548
2026-01-29 11:21:52.66	285.50	26.12	-39.3	-41.4	14.5	0.00e+00	0	61	0	682622976	50	4533
2026-01-29 11:21:53.67	285.79	26.07	-39.4	-41.5	14.4	7.00e-07	0	61	0	685768704	50	4564
2026-01-29 11:21:54.68	286.08	26.02	-39.4	-41.6	14.3	0.00e+00	0	61	0	688914432	50	4615
2026-01-29 11:21:55.69	286.37	25.97	-39.6	-41.8	14.1	2.20e-06	0	61	0	692060160	50	4719
2026-01-29 11:21:56.70	286.66	25.92	-39.6	-41.8	14.1	3.00e-06	0	61	0	695205888	50	4737
2026-01-29 11:21:57.71	286.95	25.87	-39.6	-41.8	14.1	3.00e-06	0	61	0	698351616	50	4709
2026-01-29 11:21:58.72	287.24	25.82	-39.6	-41.8	14.1	2.20e-06	0	61	0	701497344	50	4710
2026-01-29 11:21:59.73	287.53	25.76	-39.6	-41.9	14.0	1.50e-06	0	61	0	704643072	50	4772
2026-01-29 11:22:00.74	287.82	25.71	-39.6	-41.8	14.1	7.00e-07	0	61	0	707788800	50	4736
2026-01-29 11:22:01.75	288.10	25.66	-39.6	-41.8	14.1	7.00e-07	0	61	0	710934528	50	4749
2026-01-29 11:22:02.76	288.39	25.60	-39.7	-42.0	13.9	6.10e-06	0	61	0	714080256	50	4825
2026-01-29 11:22:03.77	288.67	25.55	-39.7	-41.9	14.0	2.20e-06	0	61	0	717225984	50	4799
2026-01-29 11:22:04.78	288.95	25.49	-39.6	-41.8	14.0	0.00e+00	0	61	0	720371712	50	4759
2026-01-29 11:22:05.79	289.24	25.44	-39.6	-41.8	14.1	2.20e-06	0	61	0	723517440	50	4721
2026-01-29 11:22:06.80	289.52	25.38	-39.5	-41.7	14.2	2.20e-06	0	61	0	726663168	50	4674
2026-01-29 11:22:07.81	289.80	25.32	-39.5	-41.7	14.2	3.00e-06	0	61	0	729808896	50	4682
2026-01-29 11:22:08.82	290.08	25.27	-39.5	-41.6	14.3	2.20e-06	0	61	0	732954624	50	4645
2026-01-29 11:22:09.83	290.35	25.21	-39.4	-41.5	14.4	0.00e+00	0	61	0	736100352	50	4592
2026-01-29 11:22:10.84	290.63	25.15	-39.4	-41.5	14.4	1.50e-06	0	61	0	739246080	50	4546
2026-01-29 11:22:11.85	290.91	25.09	-39.4	-41.5	14.3	0.00e+00	0	61	0	742391808	50	4595
2026-01-29 11:22:12.87	291.18	25.03	-39.3	-41.4	14.5	7.00e-07	0	61	0	745537536	50	4538
2026-01-29 11:22:13.88	291.46	24.97	-39.3	-41.4	14.5	0.00e+00	0	61	0	748683264	50	4518
2026-01-29 11:22:14.89	291.73	24.91	-39.3	-41.4	14.5	2.20e-06	0	61	0	751828992	50	4537
2026-01-29 11:22:15.90	292.00	24.85	-39.3	-41.3	14.5	7.00e-07	0	61	0	754974720	50	4486
2026-01-29 11:22:16.91	292.27	24.78	-39.3	-41.4	14.5	0.00e+00	0	61	0	758120448	50	4526
2026-01-29 11:22:17.92	292.54	24.72	-39.4	-41.5	14.4	2.20e-06	0	61	0	761266176	50	4551
2026-01-29 11:22:18.93	292.81	24.66	-39.3	-41.4	14.5	7.00e-07	0	61	0	764411904	50	4538
2026-01-29 11:22:19.94	293.08	24.59	-39.4	-41.5	14.4	7.00e-07	0	61	0	767557632	50	4569
2026-01-29 11:22:20.94	293.34	24.53	-39.4	-41.5	14.4	0.00e+00	0	61	0	770703360	50	4564
2026-01-29 11:22:21.95	293.61	24.47	-39.2	-41.3	14.6	7.00e-07	0	61	0	773849088	50	4479
2026-01-29 11:22:22.96	293.87	24.40	-39.2	-41.2	14.6	0.00e+00	0	61	0	776994816	50	4428
2026-01-29 11:22:23.97	294.14	24.34	-39.2	-41.3	14.6	0.00e+00	0	61	0	780140544	50	4443
2026-01-29 11:22:24.98	294.40	24.27	-39.1	-41.2	14.7	0.00e+00	0	61	0	783286272	50	4392
2026-01-29 11:22:25.99	294.66	24.20	-39.1	-41.1	14.7	7.00e-07	0	61	0	786432000	50	4380
2026-01-29 11:22:27.00	294.92	24.14	-39.1	-41.2	14.7	0.00e+00	0	61	0	789577728	50	4405
2026-01-29 11:22:28.02	295.18	24.07	-39.1	-41.1	14.7	0.00e+00	0	61	0	792723456	50	4385
2026-01-29 11:22:29.03	295.44	24.00	-39.1	-41.1	14.8	7.00e-07	0	61	0	795869184	50	4348
2026-01-29 11:22:30.04	295.70	23.93	-39.1	-41.1	14.8	0.00e+00	0	61	0	799014912	50	4343
2026-01-29 11:22:31.05	295.95	23.86	-39.1	-41.1	14.7	7.00e-07	0	61	0	802160640	50	4373
2026-01-29 11:22:32.06	296.21	23.80	-39.2	-41.3	14.6	0.00e+00	0	61	0	805306368	50	4451
2026-01-29 11:22:33.07	296.46	23.73	-39.2	-41.2	14.6	0.00e+00	0	61	0	808452096	50	4437
2026-01-29 11:22:34.08	296.71	23.66	-39.3	-41.4	14.4	0.00e+00	0	61	0	811597824	50	4528
2026-01-29 11:22:35.09	296.96	23.59	-39.4	-41.5	14.3	1.50e-06	0	61	0	814743552	50	4568
2026-01-29 11:22:36.10	297.21	23.52	-39.4	-41.5	14.3	0.00e+00	0	61	0	817889280	50	4560
2026-01-29 11:22:37.11	297.46	23.45	-39.5	-41.6	14.2	1.50e-06	0	61	0	821035008	50	4644
2026-01-29 11:22:38.13	297.71	23.37	-39.5	-41.7	14.2	3.00e-06	0	61	0	824180736	50	4670
2026-01-29 11:22:39.13	297.96	23.30	-39.5	-41.6	14.2	2.20e-06	0	61	0	827326464	50	4635
2026-01-29 11:22:40.15	298.20	23.23	-39.5	-41.7	14.2	7.00e-07	0	61	0	830472192	50	4652
2026-01-29 11:22:41.16	298.45	23.16	-39.5	-41.6	14.2	7.00e-07	0	61	0	833617920	50	4647
2026-01-29 11:22:42.17	298.69	23.09	-39.4	-41.5	14.3	0.00e+00	0	61	0	836763648	50	4591
2026-01-29 11:22:43.18	298.94	23.01	-39.3	-41.4	14.4	2.20e-06	0	61	0	839909376	50	4538
2026-01-29 11:22:44.19	299.18	22.94	-39.3	-41.4	14.4	0.00e+00	0	61	0	843055104	50	4522
2026-01-29 11:22:45.19	299.41	22.87	-39.4	-41.5	14.3	2.20e-06	0	61	0	846200832	50	4579
2026-01-29 11:22:46.20	299.65	22.79	-39.4	-41.5	14.3	1.50e-06	0	61	0	849346560	50	4597
2026-01-29 11:22:47.21	299.89	22.72	-39.5	-41.6	14.2	7.00e-07	0	61	0	852492288	50	4644
2026-01-29 11:22:48.22	300.13	22.65	-39.5	-41.7	14.1	1.50e-06	0	61	0	855638016	50	4670
2026-01-29 11:22:49.23	300.36	22.57	-39.5	-41.7	14.1	2.20e-06	0	61	0	858783744	50	4690
2026-01-29 11:22:50.24	300.60	22.50	-39.5	-41.7	14.1	2.20e-06	0	61	0	861929472	50	4682
2026-01-29 11:22:51.25	300.83	22.42	-39.5	-41.7	14.1	1.50e-06	0	61	0	865075200	50	4670
2026-01-29 11:22:52.27	301.07	22.35	-39.6	-41.8	14.0	2.20e-06	0	61	0	868220928	50	4746
2026-01-29 11:22:53.28	301.30	22.27	-39.6	-41.8	14.0	3.00e-06	0	61	0	871366656	50	4742
2026-01-29 11:22:54.28	301.53	22.19	-39.5	-41.7	14.1	3.00e-06	0	61	0	874512384	50	4696
2026-01-29 11:22:55.29	301.75	22.12	-39.5	-41.7	14.1	1.50e-06	0	61	0	877658112	50	4699
2026-01-29 11:22:56.30	301.98	22.04	-39.6	-41.8	14.1	1.50e-06	0	61	0	880803840	50	4710
2026-01-29 11:22:57.32	302.21	21.97	-39.5	-41.7	14.1	3.00e-06	0	61	0	883949568	50	4700
2026-01-29 11:22:58.33	302.44	21.89	-39.4	-41.6	14.2	3.00e-06	0	61	0	887095296	50	4626
2026-01-29 11:22:59.34	302.66	21.81	-39.4	-41.5	14.3	1.50e-06	0	61	0	890241024	50	4580
2026-01-29 11:23:00.35	302.89	21.73	-39.4	-41.5	14.3	0.00e+00	0	61	0	893386752	50	4595
2026-01-29 11:23:01.36	303.11	21.66	-39.4	-41.5	14.3	7.00e-07	0	61	0	896532480	50	4582
2026-01-29 11:23:02.37	303.33	21.58	-39.4	-41.6	14.2	1.50e-06	0	60	0	899678208	50	4609
2026-01-29 11:23:03.38	303.55	21.50	-39.5	-41.7	14.1	2.20e-06	0	61	0	902823936	50	4663
2026-01-29 11:23:04.39	303.77	21.42	-39.5	-41.7	14.1	1.50e-06	0	61	0	905969664	50	4677
2026-01-29 11:23:05.40	303.99	21.35	-39.5	-41.7	14.1	1.50e-06	0	61	0	909115392	50	4674
2026-01-29 11:23:06.41	304.20	21.27	-39.4	-41.6	14.2	0.00e+00	0	61	0	912261120	50	4632
2026-01-29 11:23:07.42	304.42	21.19	-39.4	-41.6	14.2	7.00e-07	0	61	0	915406848	50	4648
2026-01-29 11:23:08.43	304.63	21.11	-39.4	-41.6	14.2	2.20e-06	0	61	0	918552576	50	4638
2026-01-29 11:23:09.44	304.85	21.03	-39.4	-41.6	14.2	7.00e-07	0	61	0	922746880	50	4631
2026-01-29 11:23:10.45	305.06	20.95	-39.4	-41.6	14.2	1.50e-06	0	61	0	925892608	50	4621
2026-01-29 11:23:11.46	305.27	20.88	-39.4	-41.6	14.2	1.50e-06	0	61	0	927989760	50	4621
2026-01-29 11:23:12.47	305.48	20.80	-39.4	-41.6	14.2	1.50e-06	0	61	0	931135488	50	4609
2026-01-29 11:23:13.48	305.69	20.72	-39.5	-41.7	14.1	0.00e+00	0	61	0	934281216	50	4664
2026-01-29 11:23:14.49	305.90	20.64	-39.5	-41.7	14.1	2.20e-06	0	61	0	938475520	50	4667
2026-01-29 11:23:15.50	306.11	20.56	-39.5	-41.7	14.0	3.00e-06	0	61	0	941621248	50	4694
2026-01-29 11:23:16.51	306.32	20.48	-39.5	-41.7	14.0	1.50e-06	0	61	0	944766976	50	4686
2026-01-29 11:23:17.52	306.52	20.40	-39.5	-41.8	14.0	1.50e-06	0	61	0	947912704	50	4723
2026-01-29 11:23:18.53	306.72	20.32	-39.6	-41.8	14.0	7.00e-07	0	61	0	950009856	50	4726
2026-01-29 11:23:19.54	306.93	20.24	-39.5	-41.7	14.1	4.50e-06	0	61	0	954204160	50	4655
2026-01-29 11:23:20.55	307.13	20.16	-39.4	-41.5	14.2	2.20e-06	0	61	0	957349888	50	4576
2026-01-29 11:23:21.56	307.33	20.08	-39.3	-41.4	14.3	1.50e-06	0	61	0	960495616	50	4539
2026-01-29 11:23:22.57	307.53	20.00	-39.3	-41.4	14.3	0.00e+00	0	61	0	963641344	50	4534
2026-01-29 11:23:23.59	307.73	19.92	-39.3	-41.4	14.3	0.00e+00	0	61	0	966787072	50	4535
2026-01-29 11:23:24.60	307.93	19.84	-39.3	-41.5	14.3	1.50e-06	0	61	0	969932800	50	4546
2026-01-29 11:23:25.61	308.13	19.76	-39.4	-41.5	14.2	7.00e-07	0	61	0	973078528	50	4578
2026-01-29 11:23:26.62	308.32	19.68	-39.4	-41.6	14.2	1.50e-06	0	61	0	976224256	50	4620
2026-01-29 11:23:27.63	308.52	19.60	-39.4	-41.6	14.1	7.00e-07	0	61	0	979369984	50	4640
2026-01-29 11:23:28.64	308.71	19.52	-39.5	-41.7	14.1	2.20e-06	0	61	0	982515712	50	4653
2026-01-29 11:23:29.65	308.91	19.44	-39.4	-41.6	14.1	2.20e-06	0	61	0	985661440	50	4640
2026-01-29 11:23:30.66	309.10	19.35	-39.5	-41.7	14.0	3.80e-06	0	61	0	988807168	50	4671
2026-01-29 11:23:31.67	309.29	19.27	-39.5	-41.7	14.1	0.00e+00	0	61	0	991952896	50	4658
2026-01-29 11:23:32.68	309.48	19.19	-39.5	-41.7	14.0	3.80e-06	0	61	0	995098624	50	4667
2026-01-29 11:23:33.69	309.67	19.11	-39.5	-41.7	14.0	7.00e-07	0	61	0	998244352	50	4682
2026-01-29 11:23:34.70	309.86	19.03	-39.6	-41.8	14.0	1.50e-06	0	61	0	1001390080	50	4724
2026-01-29 11:23:35.70	310.04	18.95	-39.6	-41.9	13.9	4.50e-06	0	61	0	1004535808	50	4767
2026-01-29 11:23:36.71	310.23	18.87	-39.6	-41.8	13.9	6.80e-06	0	61	0	1007681536	50	4737
2026-01-29 11:23:37.72	310.41	18.79	-39.5	-41.8	14.0	3.00e-06	0	61	0	1010827264	50	4723
2026-01-29 11:23:38.74	310.60	18.71	-39.6	-41.9	13.9	2.20e-06	0	61	0	1013972992	50	4766
2026-01-29 11:23:39.75	310.78	18.63	-39.6	-41.8	13.9	2.20e-06	0	61	0	1017118720	50	4745
2026-01-29 11:23:40.76	310.97	18.55	-39.5	-41.8	14.0	6.80e-06	0	61	0	1020264448	50	4715
2026-01-29 11:23:41.77	311.15	18.46	-39.6	-41.9	13.8	4.50e-06	0	61	0	1023410176	50	4770
2026-01-29 11:23:42.78	311.33	18.38	-39.6	-41.9	13.8	2.20e-06	0	61	0	1026555904	50	4776
2026-01-29 11:23:43.79	311.51	18.30	-39.7	-42.0	13.7	3.80e-06	0	61	0	1029701632	50	4862
2026-01-29 11:23:44.80	311.69	18.22	-39.7	-42.1	13.7	5.30e-06	0	61	0	1032847360	50	4873
2026-01-29 11:23:45.81	311.86	18.14	-39.8	-42.1	13.6	1.06e-05	0	61	0	1035993088	50	4895
2026-01-29 11:23:46.82	312.04	18.06	-39.8	-42.2	13.5	1.29e-05	0	61	0	1039138816	50	4955
2026-01-29 11:23:47.84	312.22	17.98	-39.8	-42.2	13.5	1.22e-05	0	61	0	1042284544	50	4952
2026-01-29 11:23:48.84	312.39	17.90	-39.8	-42.1	13.5	8.30e-06	0	61	0	1045430272	50	4926
2026-01-29 11:23:49.85	312.57	17.82	-39.8	-42.1	13.6	8.30e-06	0	61	0	1048576000	50	4907
2026-01-29 11:23:50.86	312.74	17.74	-39.7	-42.0	13.6	8.30e-06	0	61	0	1051721728	50	4859
2026-01-29 11:23:51.88	312.91	17.65	-39.7	-42.0	13.6	5.30e-06	0	61	0	1054867456	50	4865
2026-01-29 11:23:52.89	313.09	17.57	-39.8	-42.1	13.5	1.29e-05	0	61	0	1058013184	50	4920
2026-01-29 11:23:53.90	313.26	17.49	-39.8	-42.2	13.5	8.30e-06	0	61	0	1061158912	50	4934
2026-01-29 11:23:54.91	313.43	17.41	-39.9	-42.3	13.4	8.30e-06	0	61	0	1064304640	50	5000
2026-01-29 11:23:55.92	313.59	17.33	-39.9	-42.3	13.4	1.22e-05	0	61	0	1067450368	50	4992
2026-01-29 11:23:56.93	313.76	17.25	-39.9	-42.3	13.3	1.29e-05	0	61	0	1070596096	50	5002
2026-01-29 11:23:57.94	313.93	17.17	-39.8	-42.2	13.4	1.75e-05	0	61	0	1073741824	50	4957
2026-01-29 11:23:58.95	314.09	17.09	-39.8	-42.2	13.4	1.29e-05	0	61	0	1076887552	50	4950
2026-01-29 11:23:59.96	314.26	17.01	-39.8	-42.2	13.4	1.60e-05	0	61	0	1080033280	50	4973
2026-01-29 11:24:00.97	314.42	16.93	-39.9	-42.3	13.3	1.75e-05	0	61	0	1083179008	50	5003
2026-01-29 11:24:01.98	314.59	16.85	-39.9	-42.4	13.2	2.89e-05	0	61	0	1086324736	50	5078
2026-01-29 11:24:02.99	314.75	16.77	-40.0	-42.4	13.2	2.13e-05	0	61	0	1089470464	50	5088
2026-01-29 11:24:04.00	314.91	16.69	-39.9	-42.4	13.2	2.51e-05	0	61	0	1092616192	50	5046
2026-01-29 11:24:05.01	315.07	16.61	-39.9	-42.3	13.3	2.21e-05	0	61	0	1095761920	50	5022
2026-01-29 11:24:06.02	315.23	16.53	-39.8	-42.3	13.4	1.90e-05	0	61	0	1098907648	50	4984
2026-01-29 11:24:07.03	315.39	16.45	-39.8	-42.2	13.4	1.90e-05	0	61	0	1102053376	50	4968
2026-01-29 11:24:08.04	315.55	16.37	-39.8	-42.2	13.4	1.29e-05	0	61	0	1105199104	50	4979
2026-01-29 11:24:09.06	315.71	16.28	-39.9	-42.4	13.2	2.97e-05	0	61	0	1108344832	50	5043
2026-01-29 11:24:10.07	315.87	16.20	-40.0	-42.4	13.2	2.89e-05	0	61	0	1111490560	50	5096
2026-01-29 11:24:11.07	316.02	16.12	-40.0	-42.6	13.0	3.20e-05	0	61	0	1114636288	50	5162
2026-01-29 11:24:12.09	316.18	16.04	-40.0	-42.4	13.1	2.74e-05	0	61	0	1117782016	50	5097
2026-01-29 11:24:13.10	316.33	15.96	-40.0	-42.5	13.1	2.21e-05	0	61	0	1120927744	50	5124
2026-01-29 11:24:14.11	316.49	15.88	-39.9	-42.3	13.2	2.28e-05	0	61	0	1124073472	50	5040
2026-01-29 11:24:15.12	316.64	15.80	-39.9	-42.3	13.2	1.67e-05	0	61	0	1127219200	50	5037
2026-01-29 11:24:16.13	316.79	15.73	-39.9	-42.4	13.2	1.29e-05	0	61	0	1130364928	50	5056
2026-01-29 11:24:17.14	316.94	15.65	-39.9	-42.4	13.2	1.90e-05	0	61	0	1133510656	50	5060
2026-01-29 11:24:18.15	317.09	15.57	-40.0	-42.5	13.0	2.97e-05	0	61	0	1136656384	50	5135
2026-01-29 11:24:19.16	317.24	15.49	-40.0	-42.6	13.0	3.89e-05	0	61	0	1139802112	50	5160
2026-01-29 11:24:20.17	317.39	15.41	-40.1	-42.7	12.9	3.43e-05	0	61	0	1142947840	50	5233
2026-01-29 11:24:21.18	317.54	15.33	-40.2	-42.7	12.8	6.25e-05	0	61	0	1146093568	50	5277
2026-01-29 11:24:22.19	317.69	15.25	-40.2	-42.8	12.8	6.56e-05	0	61	0	1149239296	50	5310
2026-01-29 11:24:23.20	317.83	15.17	-40.2	-42.8	12.7	6.56e-05	0	61	0	1152385024	50	5302
2026-01-29 11:24:24.21	317.98	15.09	-40.2	-42.9	12.7	6.56e-05	0	61	0	1155530752	50	5359
2026-01-29 11:24:25.22	318.13	15.01	-40.2	-42.9	12.6	6.94e-05	0	61	0	1158676480	51	5066
2026-01-29 11:24:26.23	318.27	14.93	-40.2	-42.9	12.7	8.23e-05	0	61	0	1161822208	51	5053
2026-01-29 11:24:27.24	318.41	14.85	-40.2	-42.9	12.7	8.39e-05	0	61	0	1164967936	51	5052
2026-01-29 11:24:28.25	318.56	14.78	-40.2	-42.8	12.7	7.47e-05	0	61	0	1168113664	51	5010
2026-01-29 11:24:29.26	318.70	14.70	-40.2	-42.8	12.7	7.09e-05	0	61	0	1171259392	51	5013
2026-01-29 11:24:30.27	318.84	14.62	-40.2	-42.9	12.7	6.33e-05	0	61	0	1174405120	51	5059
2026-01-29 11:24:31.28	318.98	14.54	-40.2	-42.8	12.7	7.55e-05	0	61	0	1177550848	51	5036
2026-01-29 11:24:32.29	319.12	14.46	-40.2	-42.9	12.7	6.56e-05	0	61	0	1180696576	51	5057
2026-01-29 11:24:33.30	319.26	14.38	-40.2	-42.8	12.7	7.70e-05	0	61	0	1183842304	51	5010
2026-01-29 11:24:34.31	319.40	14.31	-40.1	-42.7	12.8	5.49e-05	0	61	0	1186988032	51	4981
2026-01-29 11:24:35.32	319.54	14.23	-40.2	-42.8	12.7	6.40e-05	0	61	0	1190133760	51	4999
2026-01-29 11:24:36.33	319.67	14.15	-40.1	-42.7	12.8	6.25e-05	0	61	0	1193279488	51	4964
2026-01-29 11:24:37.34	319.81	14.07	-40.0	-42.6	13.0	5.18e-05	0	61	0	1196425216	51	4874
2026-01-29 11:24:38.35	319.95	13.99	-40.0	-42.6	13.0	3.96e-05	0	61	0	1199570944	51	4878
2026-01-29 11:24:39.36	320.08	13.92	-40.1	-42.7	12.9	4.34e-05	0	61	0	1202716672	51	4936
2026-01-29 11:24:40.37	320.22	13.84	-40.1	-42.7	12.8	5.41e-05	0	61	0	1205862400	51	4970
2026-01-29 11:24:41.38	320.35	13.76	-40.2	-42.8	12.7	7.47e-05	0	61	0	1209008128	51	5017
2026-01-29 11:24:42.39	320.48	13.68	-40.2	-42.9	12.6	9.07e-05	0	61	0	1212153856	51	5083
2026-01-29 11:24:43.40	320.62	13.61	-40.3	-43.0	12.4	1.35e-04	0	61	0	1216348160	51	5154
2026-01-29 11:24:44.41	320.75	13.53	-40.4	-43.1	12.3	1.50e-04	0	61	0	1218445312	51	5200
2026-01-29 11:24:45.42	320.88	13.45	-40.4	-43.2	12.3	1.77e-04	0	61	0	1221591040	51	5247
2026-01-29 11:24:46.43	321.01	13.38	-40.4	-43.3	12.2	2.19e-04	0	61	0	1224736768	51	5281
2026-01-29 11:24:47.44	321.14	13.30	-40.4	-43.2	12.3	1.94e-04	0	61	0	1227882496	51	5224
2026-01-29 11:24:48.45	321.27	13.22	-40.4	-43.2	12.3	1.97e-04	0	61	0	1232076800	51	5253
2026-01-29 11:24:49.46	321.40	13.15	-40.4	-43.2	12.3	2.02e-04	0	61	0	1235222528	51	5248
2026-01-29 11:24:50.47	321.53	13.07	-40.4	-43.2	12.3	1.88e-04	0	61	0	1238368256	51	5239
2026-01-29 11:24:51.48	321.65	12.99	-40.3	-43.1	12.4	1.88e-04	0	61	0	1240465408	51	5170
2026-01-29 11:24:52.49	321.78	12.92	-40.3	-43.1	12.3	1.64e-04	0	61	0	1243611136	51	5197
2026-01-29 11:24:53.50	321.91	12.84	-40.3	-43.1	12.3	1.40e-04	0	61	0	1247805440	51	5180
2026-01-29 11:24:54.51	322.03	12.77	-40.4	-43.2	12.2	1.96e-04	0	61	0	1250951168	51	5242
2026-01-29 11:24:55.52	322.16	12.69	-40.4	-43.2	12.3	2.20e-04	0	61	0	1254096896	51	5231
2026-01-29 11:24:56.53	322.28	12.62	-40.3	-43.1	12.3	1.69e-04	0	61	0	1257242624	51	5193
2026-01-29 11:24:57.54	322.40	12.54	-40.3	-43.1	12.3	1.91e-04	0	61	0	1260388352	51	5192
2026-01-29 11:24:58.55	322.53	12.46	-40.3	-43.1	12.3	1.87e-04	0	61	0	1263534080	51	5192
2026-01-29 11:24:59.56	322.65	12.39	-40.3	-43.1	12.3	1.82e-04	0	61	0	1266679808	51	5194
2026-01-29 11:25:00.57	322.77	12.31	-40.4	-43.1	12.2	2.04e-04	0	61	0	1269825536	51	5212
2026-01-29 11:25:01.58	322.89	12.24	-40.3	-43.1	12.3	1.82e-04	0	61	0	1272971264	51	5212
2026-01-29 11:25:02.59	323.01	12.16	-40.4	-43.2	12.2	2.19e-04	0	61	0	1276116992	51	5256
2026-01-29 11:25:03.60	323.13	12.09	-40.5	-43.3	12.1	3.01e-04	0	61	0	1279262720	51	5323
2026-01-29 11:25:04.61	323.25	12.01	-40.5	-43.4	12.0	3.23e-04	0	61	0	1282408448	51	5357
2026-01-29 11:25:05.62	323.37	11.94	-40.4	-43.3	12.1	2.77e-04	0	61	0	1285554176	51	5304
2026-01-29 11:25:06.63	323.49	11.87	-40.5	-43.4	12.0	3.42e-04	0	61	0	1288699904	51	5377
2026-01-29 11:25:07.64	323.61	11.79	-40.5	-43.5	11.9	3.95e-04	0	61	0	1291845632	51	5423
2026-01-29 11:25:08.65	323.72	11.72	-40.5	-43.4	12.0	4.03e-04	0	61	0	1294991360	51	5358
2026-01-29 11:25:09.66	323.84	11.64	-40.5	-43.4	12.0	3.11e-04	0	61	0	1298137088	51	5357
2026-01-29 11:25:10.67	323.96	11.57	-40.5	-43.4	11.9	4.05e-04	0	61	0	1301282816	51	5392
2026-01-29 11:25:11.68	324.07	11.49	-40.5	-43.4	12.0	3.67e-04	0	61	0	1304428544	51	5370
2026-01-29 11:25:12.69	324.19	11.42	-40.5	-43.4	12.0	3.71e-04	0	61	0	1307574272	51	5345
2026-01-29 11:25:13.70	324.30	11.35	-40.5	-43.4	11.9	3.51e-04	0	61	0	1310720000	51	5378
2026-01-29 11:25:14.71	324.41	11.27	-40.5	-43.4	12.0	3.72e-04	0	61	0	1313865728	51	5354
2026-01-29 11:25:15.73	324.53	11.20	-40.5	-43.5	11.8	4.99e-04	0	61	0	1317011456	51	5432
2026-01-29 11:25:16.74	324.64	11.13	-40.5	-43.4	11.9	4.02e-04	0	61	0	1320157184	51	5390
2026-01-29 11:25:17.75	324.75	11.05	-40.5	-43.4	11.9	4.42e-04	0	61	0	1323302912	51	5393
2026-01-29 11:25:18.76	324.86	10.98	-40.5	-43.4	11.8	4.38e-04	0	61	0	1326448640	51	5400
2026-01-29 11:25:19.77	324.98	10.91	-40.5	-43.4	11.9	3.82e-04	0	61	0	1329594368	51	5392
2026-01-29 11:25:20.78	325.09	10.83	-40.5	-43.4	11.9	4.19e-04	0	61	0	1332740096	51	5387
2026-01-29 11:25:21.79	325.20	10.76	-40.5	-43.5	11.8	5.12e-04	0	61	0	1335885824	51	5409
2026-01-29 11:25:22.81	325.31	10.69	-40.4	-43.3	12.0	4.02e-04	0	61	0	1339031552	51	5328
2026-01-29 11:25:23.82	325.42	10.62	-40.4	-43.3	11.9	3.45e-04	0	61	0	1342177280	51	5327
2026-01-29 11:25:24.83	325.52	10.54	-40.4	-43.3	11.9	3.45e-04	0	61	0	1345323008	51	5334
2026-01-29 11:25:25.84	325.63	10.47	-40.4	-43.3	12.0	3.23e-04	0	61	0	1348468736	51	5311
2026-01-29 11:25:26.85	325.74	10.40	-40.4	-43.3	12.0	3.47e-04	0	61	0	1351614464	51	5304
2026-01-29 11:25:27.86	325.85	10.33	-40.4	-43.4	11.9	3.87e-04	0	61	0	1354760192	51	5350
2026-01-29 11:25:28.87	325.95	10.26	-40.5	-43.5	11.8	4.75e-04	0	61	0	1357905920	51	5420
2026-01-29 11:25:29.88	326.06	10.19	-40.6	-43.6	11.6	6.94e-04	0	61	0	1361051648	51	5502
2026-01-29 11:25:30.89	326.16	10.11	-40.6	-43.6	11.6	6.43e-04	0	61	0	1364197376	51	5503
2026-01-29 11:25:31.90	326.27	10.04	-40.6	-43.6	11.6	6.27e-04	0	61	0	1367343104	51	5487
2026-01-29 11:25:32.91	326.37	9.97	-40.6	-43.7	11.6	7.09e-04	0	61	0	1370488832	51	5545
2026-01-29 11:25:33.92	326.48	9.90	-40.6	-43.7	11.5	7.57e-04	0	61	0	1373634560	51	5583
2026-01-29 11:25:34.93	326.58	9.83	-40.7	-43.8	11.4	1.05e-03	0	61	0	1376780288	51	5624
2026-01-29 11:25:35.94	326.68	9.76	-40.7	-43.8	11.4	9.38e-04	0	61	0	1379926016	51	5603
2026-01-29 11:25:36.94	326.79	9.69	-40.7	-43.8	11.4	1.13e-03	0	61	0	1383071744	51	5616
2026-01-29 11:25:37.96	326.89	9.62	-40.7	-43.8	11.4	9.21e-04	0	61	0	1386217472	51	5616
2026-01-29 11:25:38.97	326.99	9.55	-40.6	-43.7	11.4	8.82e-04	0	61	0	1389363200	51	5581
2026-01-29 11:25:39.98	327.09	9.48	-40.6	-43.7	11.4	8.67e-04	0	61	0	1392508928	51	5586
2026-01-29 11:25:40.99	327.19	9.41	-40.6	-43.7	11.5	8.65e-04	0	61	0	1395654656	51	5563
2026-01-29 11:25:42.00	327.29	9.34	-40.6	-43.8	11.4	9.28e-04	0	61	0	1398800384	51	5604
2026-01-29 11:25:43.01	327.39	9.27	-40.6	-43.8	11.4	9.92e-04	0	61	0	1401946112	51	5605
2026-01-29 11:25:44.02	327.49	9.20	-40.6	-43.8	11.3	1.00e-03	0	61	0	1405091840	51	5603
2026-01-29 11:25:45.03	327.59	9.13	-40.6	-43.8	11.3	1.11e-03	0	61	0	1408237568	51	5607
2026-01-29 11:25:46.04	327.69	9.06	-40.6	-43.8	11.2	1.46e-03	0	61	0	1411383296	52	5333
2026-01-29 11:25:47.05	327.79	8.99	-40.5	-43.7	11.3	1.09e-03	0	61	0	1414529024	52	5241
2026-01-29 11:25:48.06	327.88	8.92	-40.6	-43.7	11.3	1.30e-03	0	61	0	1417674752	52	5268
2026-01-29 11:25:49.07	327.98	8.85	-40.6	-43.8	11.2	1.29e-03	0	61	0	1420820480	52	5325
2026-01-29 11:25:50.08	328.08	8.78	-40.6	-43.9	11.1	1.59e-03	0	61	0	1423966208	52	5368
2026-01-29 11:25:51.09	328.17	8.71	-40.7	-44.0	10.9	1.94e-03	0	61	0	1427111936	52	5457
2026-01-29 11:25:52.10	328.27	8.64	-40.7	-44.1	10.9	2.12e-03	0	61	0	1430257664	52	5492
2026-01-29 11:25:53.11	328.37	8.57	-40.7	-44.1	10.9	2.17e-03	0	61	0	1433403392	52	5470
2026-01-29 11:25:54.12	328.46	8.50	-40.7	-44.1	10.8	2.56e-03	0	61	0	1436549120	52	5501
2026-01-29 11:25:55.13	328.55	8.44	-40.7	-44.1	10.9	2.63e-03	0	61	0	1439694848	52	5505
2026-01-29 11:25:56.14	328.65	8.37	-40.7	-44.1	10.9	2.29e-03	0	61	0	1442840576	52	5471
2026-01-29 11:25:57.15	328.74	8.30	-40.7	-44.1	10.8	2.26e-03	0	60	0	1445986304	52	5498
2026-01-29 11:25:58.16	328.84	8.23	-40.7	-44.1	10.8	2.41e-03	0	61	0	1449132032	52	5501
2026-01-29 11:25:59.17	328.93	8.16	-40.7	-44.1	10.9	2.35e-03	0	61	0	1452277760	52	5467
2026-01-29 11:26:00.18	329.02	8.10	-40.7	-44.1	10.8	2.06e-03	0	61	0	1455423488	52	5488
2026-01-29 11:26:01.19	329.11	8.03	-40.8	-44.2	10.7	2.77e-03	0	61	0	1458569216	52	5569
2026-01-29 11:26:02.20	329.20	7.96	-44.2	-56.2	3.8	1.47e+00	0	61	104	1460666368	58	15630
2026-01-29 11:26:03.21	329.30	7.89	-44.5	-56.8	3.8	1.49e+00	0	61	104	1460666368	59	15938
2026-01-29 11:26:04.22	329.39	7.82	-44.7	-57.0	3.8	1.49e+00	0	61	104	1460666368	59	16301
2026-01-29 11:26:05.23	329.48	7.76	-44.8	-57.3	3.8	1.49e+00	0	61	104	1460666368	60	15940
2026-01-29 11:26:06.24	329.57	7.69	-44.9	-57.5	3.8	1.49e+00	0	61	104	1460666368	60	16165
2026-01-29 11:26:07.25	329.66	7.62	-45.0	-57.6	3.8	1.49e+00	0	61	104	1460666368	60	16351
2026-01-29 11:26:08.26	329.75	7.56	-45.0	-57.6	3.8	1.49e+00	0	61	104	1460666368	60	16490
2026-01-29 11:26:09.27	329.83	7.49	-45.1	-57.7	3.8	1.49e+00	0	61	104	1460666368	60	16536
2026-01-29 11:26:10.28	329.92	7.42	-44.9	-57.7	3.8	1.49e+00	0	61	104	1460666368	60	16527
2026-01-29 11:26:11.29	330.01	7.36	-45.0	-57.6	3.8	1.49e+00	0	61	104	1460666368	60	16445
2026-01-29 11:26:12.30	330.10	7.29	-44.9	-57.6	3.8	1.49e+00	0	61	104	1460666368	60	16474
2026-01-29 11:26:13.31	330.19	7.22	-44.6	-57.6	3.8	1.49e+00	0	61	104	1460666368	60	16389
2026-01-29 11:26:14.33	330.27	7.16	-44.9	-57.6	3.8	1.49e+00	0	61	104	1460666368	60	16378
2026-01-29 11:26:15.34	330.36	7.09	-44.9	-57.6	3.8	1.49e+00	0	61	104	1460666368	60	16426
2026-01-29 11:26:16.35	330.45	7.03	-44.9	-57.6	3.8	1.49e+00	0	61	104	1460666368	60	16330
2026-01-29 11:26:17.36	330.53	6.96	-44.9	-57.5	3.8	1.49e+00	0	61	104	1460666368	60	16262
2026-01-29 11:26:18.37	330.62	6.89	-44.8	-57.5	3.8	1.49e+00	0	61	104	1460666368	60	16206
2026-01-29 11:26:19.38	330.70	6.83	-44.7	-57.4	3.8	1.49e+00	0	61	104	1460666368	60	16123
2026-01-29 11:26:20.39	330.79	6.76	-44.8	-57.5	3.8	1.49e+00	0	61	104	1460666368	60	16260
2026-01-29 11:26:21.40	330.87	6.70	-44.5	-57.5	3.8	1.49e+00	0	61	104	1460666368	60	16220
2026-01-29 11:26:22.41	330.96	6.63	-44.8	-57.5	3.8	1.49e+00	0	61	104	1460666368	60	16143
2026-01-29 11:26:23.42	331.04	6.57	-44.8	-57.5	3.8	1.49e+00	0	61	104	1460666368	60	16221
2026-01-29 11:26:24.43	331.12	6.50	-44.8	-57.5	3.8	1.49e+00	0	61	104	1460666368	60	16189
2026-01-29 11:26:25.44	331.21	6.44	-44.8	-57.5	3.8	1.49e+00	0	61	104	1460666368	60	16180
2026-01-29 11:26:26.45	331.29	6.37	-44.8	-57.5	3.8	1.49e+00	0	61	104	1460666368	60	16155
2026-01-29 11:26:27.46	331.37	6.31	-44.8	-57.5	3.8	1.49e+00	0	61	104	1460666368	60	16193
2026-01-29 11:26:28.47	331.45	6.24	-44.7	-57.5	3.8	1.49e+00	0	61	104	1460666368	60	16131
2026-01-29 11:26:29.48	331.53	6.18	-44.8	-57.4	3.8	1.49e+00	0	61	104	1460666368	60	16111
2026-01-29 11:26:30.49	331.62	6.11	-44.6	-57.4	3.8	1.49e+00	0	61	104	1460666368	60	16084
2026-01-29 11:26:31.50	331.70	6.05	-44.8	-57.5	3.8	1.49e+00	0	61	104	1460666368	60	16128
2026-01-29 11:26:32.51	331.78	5.99	-44.8	-57.5	3.8	1.49e+00	0	61	104	1460666368	60	16131
2026-01-29 11:26:33.52	331.86	5.92	-44.8	-57.5	3.8	1.49e+00	0	61	104	1460666368	60	16153
2026-01-29 11:26:34.53	331.94	5.86	-44.7	-57.5	3.8	1.49e+00	0	61	104	1460666368	60	16139
2026-01-29 11:26:35.54	332.02	5.79	-44.4	-57.4	3.8	1.49e+00	0	61	104	1460666368	60	16109
2026-01-29 11:26:36.55	332.10	5.73	-44.8	-57.5	3.8	1.49e+00	0	61	104	1460666368	60	16184
2026-01-29 11:26:37.56	332.18	5.67	-44.8	-57.4	3.8	1.49e+00	0	61	104	1460666368	60	16117
2026-01-29 11:26:38.57	332.25	5.60	-44.0	-57.3	3.8	1.49e+00	0	61	104	1460666368	59	16719
2026-01-29 11:26:39.58	332.33	5.54	-44.8	-57.4	3.8	1.49e+00	0	61	104	1460666368	60	16098
2026-01-29 11:26:40.59	332.41	5.48	-44.8	-57.4	3.8	1.49e+00	0	61	104	1460666368	60	16125
2026-01-29 11:26:41.60	332.49	5.41	-44.8	-57.4	3.8	1.49e+00	0	61	104	1460666368	60	16116
2026-01-29 11:26:42.61	332.57	5.35	-44.7	-57.4	3.8	1.49e+00	0	61	104	1460666368	60	16082
2026-01-29 11:26:43.62	332.64	5.29	-44.4	-57.4	3.8	1.49e+00	0	61	104	1460666368	60	16085
2026-01-29 11:26:44.63	332.72	5.23	-44.8	-57.5	3.8	1.49e+00	0	61	104	1460666368	60	16157
2026-01-29 11:26:45.64	332.80	5.16	-44.7	-57.4	3.8	1.49e+00	0	61	104	1460666368	60	16089
2026-01-29 11:26:46.65	332.87	5.10	-44.6	-57.5	3.8	1.49e+00	0	61	104	1460666368	60	16140
2026-01-29 11:26:47.66	332.95	5.04	-44.7	-57.4	3.8	1.49e+00	0	61	104	1460666368	60	16121
2026-01-29 11:26:48.67	333.02	4.98	-44.6	-57.4	3.8	1.49e+00	0	61	104	1460666368	60	16081
2026-01-29 11:26:49.68	333.10	4.91	-44.7	-57.4	3.8	1.49e+00	0	61	104	1460666368	60	16081
2026-01-29 11:26:50.69	333.17	4.85	-44.7	-57.5	3.8	1.49e+00	0	61	104	1460666368	60	16139
2026-01-29 11:26:51.70	333.25	4.79	-44.8	-57.5	3.8	1.49e+00	0	61	104	1460666368	60	16145
2026-01-29 11:26:52.71	333.32	4.73	-44.8	-57.4	3.8	1.49e+00	0	61	104	1460666368	60	16106
2026-01-29 11:26:53.73	333.40	4.66	-44.8	-57.4	3.8	1.49e+00	0	61	104	1460666368	60	16108
2026-01-29 11:26:54.74	333.47	4.60	-44.8	-57.4	3.8	1.49e+00	0	61	104	1460666368	60	16062
2026-01-29 11:26:55.75	333.54	4.54	-44.8	-57.4	3.8	1.49e+00	0	61	104	1460666368	60	16102
2026-01-29 11:26:56.76	333.62	4.48	-44.8	-57.4	3.8	1.49e+00	0	61	104	1460666368	60	16041
2026-01-29 11:26:57.77	333.69	4.42	-44.7	-57.4	3.8	1.49e+00	0	61	104	1460666368	60	16124
2026-01-29 11:26:58.78	333.76	4.36	-44.8	-57.4	3.8	1.49e+00	0	61	104	1460666368	60	16079
2026-01-29 11:26:59.79	333.83	4.30	-44.8	-57.5	3.8	1.49e+00	0	61	104	1460666368	60	16148
2026-01-29 11:27:00.80	333.91	4.24	-44.8	-57.4	3.8	1.49e+00	0	61	104	1460666368	60	16083
2026-01-29 11:27:01.81	333.98	4.17	-44.8	-57.5	3.8	1.49e+00	0	61	104	1460666368	60	16183
2026-01-29 11:27:02.82	334.05	4.11	-44.8	-57.5	3.8	1.49e+00	0	61	104	1460666368	60	16160
2026-01-29 11:27:03.83	334.12	4.05	-44.8	-57.4	3.8	1.49e+00	0	61	104	1460666368	60	16100
2026-01-29 11:27:04.84	334.19	3.99	-44.8	-57.4	3.8	1.49e+00	0	61	104	1460666368	60	16088
2026-01-29 11:27:05.85	334.26	3.93	-44.4	-57.4	3.8	1.49e+00	0	61	104	1460666368	60	16073
2026-01-29 11:27:06.86	334.33	3.87	-44.8	-57.4	3.8	1.49e+00	0	61	104	1460666368	60	16081
2026-01-29 11:27:07.87	334.40	3.81	-44.8	-57.4	3.8	1.49e+00	0	61	104	1460666368	60	16070
2026-01-29 11:27:08.88	334.47	3.75	-44.8	-57.4	3.8	1.49e+00	0	61	104	1460666368	60	16081
2026-01-29 11:27:09.89	334.54	3.69	-44.8	-57.4	3.8	1.49e+00	0	61	104	1460666368	60	16094
2026-01-29 11:27:10.90	334.61	3.63	-44.8	-57.4	3.8	1.49e+00	0	61	104	1460666368	60	16040
2026-01-29 11:27:11.91	334.68	3.57	-44.7	-57.4	3.8	1.49e+00	0	61	104	1460666368	60	16040
2026-01-29 11:27:12.92	334.75	3.51	-44.8	-57.4	3.8	1.49e+00	0	61	104	1460666368	60	16119
2026-01-29 11:27:13.93	334.82	3.45	-44.7	-57.4	3.8	1.49e+00	0	61	104	1460666368	60	16116
2026-01-29 11:27:14.95	334.89	3.39	-44.8	-57.4	3.8	1.49e+00	0	61	104	1460666368	60	16086
2026-01-29 11:27:15.96	334.96	3.33	-44.8	-57.4	3.8	1.49e+00	0	61	104	1460666368	60	16067
2026-01-29 11:27:16.97	335.02	3.27	-44.8	-57.4	3.8	1.49e+00	0	61	104	1460666368	60	16094
2026-01-29 11:27:17.98	335.09	3.21	-44.8	-57.4	3.8	1.49e+00	0	61	104	1460666368	60	16090
2026-01-29 11:27:18.99	335.16	3.15	-44.3	-57.4	3.8	1.49e+00	0	61	104	1460666368	60	16044
2026-01-29 11:27:20.00	335.22	3.09	-44.7	-57.4	3.8	1.49e+00	0	61	104	1460666368	60	16090
2026-01-29 11:27:21.01	335.29	3.04	-44.6	-57.4	3.8	1.49e+00	0	61	104	1460666368	60	16054
2026-01-29 11:27:22.02	335.36	2.98	-44.8	-57.4	3.8	1.49e+00	0	61	104	1460666368	60	16103
2026-01-29 11:27:23.03	335.42	2.92	-44.8	-57.4	3.8	1.49e+00	0	61	104	1460666368	60	16060
2026-01-29 11:27:24.04	335.49	2.86	-44.7	-57.4	3.8	1.49e+00	0	61	104	1460666368	60	16076
2026-01-29 11:27:25.05	335.56	2.80	-44.8	-57.4	3.8	1.49e+00	0	61	104	1460666368	60	16117
2026-01-29 11:27:26.06	335.62	2.74	-44.8	-57.4	3.8	1.49e+00	0	61	104	1460666368	60	16062
2026-01-29 11:27:27.07	335.69	2.68	-44.7	-57.4	3.8	1.49e+00	0	61	104	1460666368	60	16095
2026-01-29 11:27:28.08	335.75	2.62	-44.8	-57.4	3.8	1.49e+00	0	61	104	1460666368	60	16078
2026-01-29 11:27:29.09	335.82	2.57	-44.7	-57.4	3.8	1.49e+00	0	61	104	1460666368	60	16101
2026-01-29 11:27:30.10	335.88	2.51	-44.8	-57.4	3.8	1.49e+00	0	61	104	1460666368	60	16078
2026-01-29 11:27:31.11	335.95	2.45	-44.8	-57.5	3.8	1.49e+00	0	61	104	1460666368	60	16157
2026-01-29 11:27:32.12	336.01	2.39	-44.8	-57.4	3.8	1.49e+00	0	61	104	1460666368	60	16047
2026-01-29 11:27:33.13	336.07	2.33	-44.4	-57.4	3.8	1.49e+00	0	61	104	1460666368	60	16076
2026-01-29 11:27:34.15	336.14	2.28	-44.8	-57.4	3.8	1.49e+00	0	61	104	1460666368	60	16094
2026-01-29 11:27:35.15	336.20	2.22	-44.8	-57.4	3.8	1.49e+00	0	61	104	1460666368	60	16103
2026-01-29 11:27:36.17	336.26	2.16	-44.8	-57.4	3.8	1.49e+00	0	61	104	1460666368	60	16105
2026-01-29 11:27:37.18	336.33	2.10	-44.8	-57.4	3.8	1.49e+00	0	61	104	1460666368	60	16116
2026-01-29 11:27:38.19	336.39	2.05	-44.8	-57.5	3.8	1.49e+00	0	61	104	1460666368	60	16133
2026-01-29 11:27:39.20	336.45	1.99	-44.8	-57.4	3.8	1.49e+00	0	61	104	1460666368	60	16049
2026-01-29 11:27:40.21	336.51	1.93	-44.8	-57.4	3.8	1.49e+00	0	61	104	1460666368	60	16092

#Closed at: 2026-01-29 11:27:40
#Recorded file [1460 MB]: D:/lorett/data/31039_260129_141729.dat