passes_logs/2026/01/29/R2.0S_Moscow/R2.0S_Moscow__20260129_142154_FENGYUN_3E_rec.log

#Pass ID: 20260129_142154_FENGYUN 3E
#Satellite: FENGYUN 3E
#Configuration: FENGYUN 3E
#almurnet v.1.7.20251203
#Start time: 2026-01-29 14:21:54

#Version: 2.2.20231116
#Station: R2.0S_Moscow
#Location: 37.707566 lon 55.798166 lat
#TLE: 1 49008U 21062A   26028.95833242 -.00000015  00000+0  13843-4 0  9995
#TLE: 2 49008  98.7500  33.9242 0002547 112.2873 247.8573 14.19887818236829

#Time	Az	El	Level	Level2	SNR	BER	BlckErr	Temp	State	Recorded	gain1	gain2
2026-01-29 14:21:54.42	165.31	1.97	-44.4	-55.1	3.8	8.46e-01	0	51	0	0	59	12290
2026-01-29 14:21:55.43	165.32	2.04	-44.4	-55.1	3.8	8.47e-01	0	52	104	0	59	12336
2026-01-29 14:21:56.44	165.33	2.10	-44.4	-55.1	3.8	8.46e-01	0	52	104	0	59	12327
2026-01-29 14:21:57.45	165.34	2.17	-44.4	-55.1	3.8	8.47e-01	0	52	104	0	59	12293
2026-01-29 14:21:58.46	165.35	2.23	-44.3	-55.1	3.8	8.46e-01	0	52	104	0	58	13037
2026-01-29 14:21:59.47	165.36	2.30	-44.4	-55.1	3.8	8.47e-01	0	52	104	0	58	13040
2026-01-29 14:22:00.48	165.37	2.36	-44.4	-55.1	3.8	8.46e-01	0	52	104	0	58	13051
2026-01-29 14:22:01.49	165.38	2.43	-44.2	-55.1	3.8	8.46e-01	0	52	104	0	58	13007
2026-01-29 14:22:02.50	165.39	2.49	-44.3	-55.1	3.8	8.46e-01	0	52	104	0	58	13036
2026-01-29 14:22:03.51	165.40	2.56	-44.4	-55.1	3.8	8.47e-01	0	52	104	0	58	13016
2026-01-29 14:22:04.52	165.41	2.63	-44.4	-55.1	3.8	8.46e-01	0	52	104	0	58	13055
2026-01-29 14:22:05.53	165.42	2.69	-44.4	-55.1	3.8	8.45e-01	0	52	104	0	58	13035
2026-01-29 14:22:06.54	165.43	2.76	-44.4	-55.1	3.8	8.46e-01	0	52	104	0	58	13041
2026-01-29 14:22:07.55	165.44	2.83	-44.4	-55.1	3.8	8.46e-01	0	53	104	0	58	13046
2026-01-29 14:22:08.56	165.45	2.89	-44.3	-55.1	3.8	8.45e-01	0	52	104	0	58	13037
2026-01-29 14:22:09.57	165.46	2.96	-44.2	-55.1	3.8	8.46e-01	0	53	104	0	58	13048
2026-01-29 14:22:10.58	165.47	3.03	-44.3	-55.1	3.8	8.48e-01	0	53	104	0	58	13049
2026-01-29 14:22:11.60	165.48	3.09	-44.4	-55.1	3.8	8.46e-01	0	53	104	0	58	13038
2026-01-29 14:22:12.61	165.49	3.16	-44.3	-55.1	3.8	8.46e-01	0	53	104	0	58	13029
2026-01-29 14:22:13.62	165.50	3.23	-44.3	-55.1	3.8	8.46e-01	0	53	104	0	58	13003
2026-01-29 14:22:14.63	165.51	3.30	-44.3	-55.1	3.8	8.47e-01	0	53	104	0	58	13019
2026-01-29 14:22:15.64	165.52	3.37	-44.4	-55.1	3.8	8.47e-01	0	53	104	0	58	13060
2026-01-29 14:22:16.65	165.53	3.43	-44.4	-55.1	3.8	8.46e-01	0	53	104	0	58	13043
2026-01-29 14:22:17.66	165.54	3.50	-44.4	-55.1	3.8	8.46e-01	0	53	104	0	58	13053
2026-01-29 14:22:18.67	165.55	3.57	-44.3	-55.1	3.8	8.45e-01	0	53	104	0	58	13054
2026-01-29 14:22:19.68	165.56	3.64	-44.3	-55.1	3.8	8.47e-01	0	53	104	0	58	13029
2026-01-29 14:22:20.69	165.57	3.71	-44.4	-55.1	3.8	8.46e-01	0	53	104	0	58	12984
2026-01-29 14:22:21.70	165.58	3.78	-44.3	-55.1	3.8	8.46e-01	0	53	104	0	58	13000
2026-01-29 14:22:22.71	165.59	3.85	-44.3	-55.1	3.8	8.46e-01	0	54	104	0	58	12987
2026-01-29 14:22:23.72	165.60	3.92	-44.4	-55.1	3.8	8.46e-01	0	54	104	0	58	13029
2026-01-29 14:22:24.73	165.61	3.99	-44.4	-55.1	3.8	8.46e-01	0	54	104	0	58	13028
2026-01-29 14:22:25.74	165.63	4.05	-44.4	-55.1	3.8	8.46e-01	0	54	104	0	58	13009
2026-01-29 14:22:26.75	165.64	4.12	-44.4	-55.1	3.8	8.46e-01	0	54	104	0	58	13043
2026-01-29 14:22:27.76	165.65	4.19	-44.4	-55.1	3.8	8.46e-01	0	54	104	0	58	13065
2026-01-29 14:22:28.77	165.66	4.27	-44.3	-55.1	3.8	8.47e-01	0	54	104	0	58	13035
2026-01-29 14:22:29.78	165.67	4.34	-44.4	-55.1	3.8	8.45e-01	0	54	104	0	58	13015
2026-01-29 14:22:30.79	165.68	4.41	-44.4	-55.1	3.8	8.47e-01	0	54	104	0	58	12995
2026-01-29 14:22:31.80	165.69	4.48	-44.2	-55.1	3.8	8.47e-01	0	54	104	0	58	12998
2026-01-29 14:22:32.81	165.70	4.55	-44.3	-55.1	3.8	8.46e-01	0	54	104	0	58	13007
2026-01-29 14:22:33.82	165.71	4.62	-44.3	-55.1	3.8	8.46e-01	0	54	104	0	58	13011
2026-01-29 14:22:34.83	165.72	4.69	-44.4	-55.1	3.8	8.47e-01	0	54	104	0	58	13033
2026-01-29 14:22:35.84	165.74	4.76	-44.3	-55.1	3.8	8.47e-01	0	54	104	0	58	12998
2026-01-29 14:22:36.85	165.75	4.83	-44.3	-55.0	3.8	8.47e-01	0	54	104	0	58	12940
2026-01-29 14:22:37.86	165.76	4.91	-44.3	-55.0	3.8	8.46e-01	0	54	104	0	58	12906
2026-01-29 14:22:38.87	165.77	4.98	-44.3	-55.0	3.8	8.46e-01	0	55	104	0	58	12849
2026-01-29 14:22:39.88	165.78	5.05	-44.3	-54.9	3.8	8.45e-01	0	55	104	0	58	12792
2026-01-29 14:22:40.89	165.79	5.12	-44.2	-54.8	3.8	8.47e-01	0	54	104	0	58	12631
2026-01-29 14:22:41.90	165.80	5.20	-44.2	-54.6	3.8	8.46e-01	0	55	104	0	58	12286
2026-01-29 14:22:42.91	165.82	5.27	-44.2	-54.3	3.8	8.45e-01	0	55	104	0	58	11897
2026-01-29 14:22:43.92	165.83	5.34	-44.2	-53.9	3.8	8.47e-01	0	55	104	0	58	11330
2026-01-29 14:22:44.93	165.84	5.42	-44.0	-53.2	3.8	8.46e-01	0	55	104	0	58	10436
2026-01-29 14:22:45.95	165.85	5.49	-43.7	-52.2	4.0	8.43e-01	0	55	104	0	58	9373
2026-01-29 14:22:46.96	165.86	5.56	-43.3	-51.4	4.2	8.38e-01	0	55	0	0	57	8993
2026-01-29 14:22:47.97	165.87	5.64	-43.4	-50.4	4.6	8.19e-01	0	55	0	0	57	8069
2026-01-29 14:22:48.98	165.89	5.71	-43.1	-49.4	5.0	7.76e-01	0	55	0	0	57	7181
2026-01-29 14:22:49.99	165.90	5.79	-42.9	-48.6	5.5	7.24e-01	0	55	0	0	56	6958
2026-01-29 14:22:51.00	165.91	5.86	-42.7	-48.2	5.9	5.30e-01	0	55	0	1048576	56	6578
2026-01-29 14:22:52.01	165.92	5.94	-42.7	-48.0	6.0	3.48e-01	0	55	0	8388608	56	6478
2026-01-29 14:22:53.02	165.93	6.01	-42.6	-47.9	6.1	3.14e-01	0	55	0	15728640	56	6350
2026-01-29 14:22:54.03	165.94	6.09	-42.2	-47.1	6.5	2.55e-01	0	55	0	23068672	55	6198
2026-01-29 14:22:55.04	165.96	6.16	-42.0	-46.7	7.0	1.81e-01	0	56	0	30408704	54	6247
2026-01-29 14:22:56.05	165.97	6.24	-41.7	-46.1	7.5	1.20e-01	0	55	0	37748736	54	5807
2026-01-29 14:22:57.06	165.98	6.31	-41.6	-45.8	7.7	8.77e-02	0	56	0	45088768	54	5639
2026-01-29 14:22:58.07	165.99	6.39	-41.5	-45.6	8.0	7.63e-02	0	56	0	52428800	54	5522
2026-01-29 14:22:59.08	166.01	6.47	-41.3	-45.2	8.4	6.48e-02	0	56	0	59768832	53	5560
2026-01-29 14:23:00.09	166.02	6.54	-41.1	-45.0	8.6	3.90e-02	0	56	0	67108864	53	5403
2026-01-29 14:23:01.11	166.03	6.62	-41.1	-44.9	8.7	4.08e-02	0	56	0	73400320	52	5672
2026-01-29 14:23:02.11	166.04	6.70	-41.0	-44.7	8.9	3.42e-02	0	56	0	81788928	52	5538
2026-01-29 14:23:03.13	166.06	6.77	-40.6	-44.2	9.4	2.28e-02	0	56	0	89128960	52	5231
2026-01-29 14:23:04.14	166.07	6.85	-40.7	-44.3	9.3	1.77e-02	0	56	0	95420416	52	5331
2026-01-29 14:23:05.15	166.08	6.93	-40.6	-44.2	9.4	1.93e-02	0	56	0	102760448	52	5256
2026-01-29 14:23:06.16	166.09	7.01	-40.6	-44.1	9.6	1.31e-02	0	56	0	110100480	51	5468
2026-01-29 14:23:07.17	166.11	7.09	-40.6	-44.1	9.6	1.33e-02	0	56	0	117440512	51	5470
2026-01-29 14:23:08.18	166.12	7.16	-40.5	-44.0	9.7	1.19e-02	0	56	0	124780544	51	5404
2026-01-29 14:23:09.19	166.13	7.24	-40.4	-43.8	9.8	1.09e-02	0	56	0	132120576	51	5330
2026-01-29 14:23:10.20	166.14	7.32	-40.3	-43.7	10.0	7.45e-03	0	56	0	139460608	51	5225
2026-01-29 14:23:11.21	166.16	7.40	-40.5	-44.1	9.6	1.18e-02	0	56	0	146800640	51	5467
2026-01-29 14:23:12.22	166.17	7.48	-40.3	-43.7	9.9	8.10e-03	0	56	0	154140672	51	5269
2026-01-29 14:23:13.23	166.18	7.56	-40.2	-43.6	10.1	8.24e-03	0	56	0	161480704	51	5213
2026-01-29 14:23:14.25	166.20	7.64	-40.1	-43.5	10.2	7.17e-03	0	56	0	168820736	51	5119
2026-01-29 14:23:15.25	166.21	7.72	-40.1	-43.4	10.3	5.98e-03	0	56	0	176160768	50	5393
2026-01-29 14:23:16.27	166.22	7.80	-40.2	-43.6	10.1	5.47e-03	0	56	0	183500800	50	5489
2026-01-29 14:23:17.28	166.24	7.88	-40.0	-43.3	10.4	5.40e-03	0	56	0	190840832	50	5293
2026-01-29 14:23:18.29	166.25	7.96	-40.0	-43.2	10.5	5.49e-03	0	56	0	198180864	50	5274
2026-01-29 14:23:19.30	166.26	8.05	-40.0	-43.4	10.3	7.95e-03	0	57	0	205520896	50	5356
2026-01-29 14:23:20.31	166.28	8.13	-40.2	-43.5	10.4	6.48e-03	0	57	0	212860928	50	5440
2026-01-29 14:23:21.32	166.29	8.21	-40.1	-43.4	10.4	6.15e-03	0	56	0	220200960	50	5386
2026-01-29 14:23:22.33	166.30	8.29	-42.4	-47.7	6.0	5.77e-01	0	57	0	226492416	54	6965
2026-01-29 14:23:23.34	166.32	8.37	-41.1	-45.0	8.5	4.83e-01	0	56	0	233832448	53	5455
2026-01-29 14:23:24.35	166.33	8.46	-40.5	-43.9	10.0	9.41e-03	0	57	0	241172480	51	5364
2026-01-29 14:23:25.36	166.34	8.54	-40.1	-43.4	10.5	4.39e-03	0	57	0	247463936	51	5051
2026-01-29 14:23:26.37	166.36	8.62	-40.2	-43.5	10.4	4.61e-03	0	57	0	255852544	50	5416
2026-01-29 14:23:27.38	166.37	8.71	-40.0	-43.2	10.6	3.76e-03	0	57	0	263192576	50	5279
2026-01-29 14:23:28.39	166.39	8.79	-40.0	-43.2	10.7	3.01e-03	0	57	0	269484032	50	5250
2026-01-29 14:23:29.40	166.40	8.87	-40.1	-43.4	10.5	3.96e-03	0	57	0	276824064	50	5347
2026-01-29 14:23:30.41	166.41	8.96	-40.0	-43.3	10.6	4.35e-03	0	57	0	284164096	50	5293
2026-01-29 14:23:31.42	166.43	9.04	-40.0	-43.2	10.7	3.20e-03	0	57	0	291504128	50	5273
2026-01-29 14:23:32.43	166.44	9.13	-39.8	-42.9	11.1	2.12e-03	0	57	0	298844160	50	5050
2026-01-29 14:23:33.44	166.46	9.21	-40.0	-43.2	10.7	2.68e-03	0	57	0	306184192	50	5247
2026-01-29 14:23:34.45	166.47	9.30	-39.9	-43.0	10.9	2.04e-03	0	57	0	313524224	50	5127
2026-01-29 14:23:35.46	166.48	9.38	-39.9	-43.0	11.0	2.37e-03	0	57	0	320864256	50	5115
2026-01-29 14:23:36.47	166.50	9.47	-39.8	-42.9	11.0	2.16e-03	0	57	0	328204288	50	5087
2026-01-29 14:23:37.48	166.51	9.56	-39.8	-42.9	11.1	1.81e-03	0	57	0	335544320	50	5049
2026-01-29 14:23:38.49	166.53	9.64	-39.8	-42.9	11.1	1.79e-03	0	57	0	342884352	50	5085
2026-01-29 14:23:39.50	166.54	9.73	-39.7	-42.7	11.3	2.28e-03	0	57	0	350224384	50	4949
2026-01-29 14:23:40.51	166.56	9.82	-39.7	-42.7	11.3	1.38e-03	0	57	0	357564416	50	4952
2026-01-29 14:23:41.52	166.57	9.90	-39.7	-42.8	11.2	1.72e-03	0	57	0	364904448	50	5006
2026-01-29 14:23:42.53	166.59	9.99	-39.7	-42.8	11.2	1.67e-03	0	57	0	372244480	50	4985
2026-01-29 14:23:43.54	166.60	10.08	-39.7	-42.6	11.4	1.36e-03	0	57	0	379584512	50	4925
2026-01-29 14:23:44.55	166.62	10.17	-39.6	-42.6	11.4	1.34e-03	0	57	0	386924544	50	4919
2026-01-29 14:23:45.56	166.63	10.26	-39.7	-42.8	11.2	1.73e-03	0	57	0	394264576	50	4994
2026-01-29 14:23:46.57	166.65	10.35	-39.7	-42.7	11.3	1.30e-03	0	58	0	401604608	50	4979
2026-01-29 14:23:47.58	166.66	10.44	-39.7	-42.7	11.3	1.17e-03	0	57	0	408944640	50	4961
2026-01-29 14:23:48.59	166.68	10.53	-39.6	-42.6	11.5	9.72e-04	0	58	0	416284672	50	4881
2026-01-29 14:23:49.60	166.69	10.62	-39.6	-42.6	11.5	8.49e-04	0	57	0	422576128	50	4909
2026-01-29 14:23:50.61	166.71	10.71	-39.5	-42.5	11.6	8.66e-04	0	57	0	430964736	49	5122
2026-01-29 14:23:51.63	166.73	10.80	-39.7	-42.6	11.4	9.93e-04	0	57	0	438304768	49	5200
2026-01-29 14:23:52.64	166.74	10.89	-39.6	-42.6	11.5	8.87e-04	0	58	0	444596224	49	5174
2026-01-29 14:23:53.65	166.76	10.98	-39.6	-42.6	11.5	1.07e-03	0	58	0	451936256	49	5191
2026-01-29 14:23:54.66	166.77	11.07	-39.5	-42.4	11.7	5.57e-04	0	58	0	459276288	49	5068
2026-01-29 14:23:55.67	166.79	11.16	-39.5	-42.4	11.7	6.44e-04	0	58	0	466616320	49	5084
2026-01-29 14:23:56.68	166.80	11.26	-39.6	-42.5	11.6	7.46e-04	0	58	0	473956352	49	5121
2026-01-29 14:23:57.69	166.82	11.35	-39.5	-42.5	11.6	5.56e-04	0	58	0	481296384	49	5105
2026-01-29 14:23:58.70	166.84	11.44	-39.6	-42.5	11.7	6.24e-04	0	58	0	488636416	49	5114
2026-01-29 14:23:59.71	166.85	11.54	-39.6	-42.5	11.7	6.80e-04	0	58	0	495976448	49	5131
2026-01-29 14:24:00.72	166.87	11.63	-39.5	-42.4	11.8	8.31e-04	0	58	0	503316480	49	5052
2026-01-29 14:24:01.73	166.89	11.72	-39.5	-42.3	11.9	5.38e-04	0	58	0	510656512	49	4999
2026-01-29 14:24:02.73	166.90	11.82	-39.5	-42.4	11.8	4.69e-04	0	58	0	517996544	49	5049
2026-01-29 14:24:03.74	166.92	11.91	-39.5	-42.3	11.9	7.41e-04	0	58	0	525336576	49	5019
2026-01-29 14:24:04.75	166.93	12.01	-39.5	-42.4	11.8	6.59e-04	0	58	0	532676608	49	5057
2026-01-29 14:24:05.77	166.95	12.10	-39.4	-42.3	11.9	3.88e-04	0	58	0	540016640	49	4996
2026-01-29 14:24:06.77	166.97	12.20	-39.5	-42.3	11.9	4.49e-04	0	58	0	547356672	49	5002
2026-01-29 14:24:07.78	166.99	12.30	-39.4	-42.1	12.1	3.17e-04	0	58	0	554696704	49	4915
2026-01-29 14:24:08.79	167.00	12.39	-39.4	-42.1	12.1	4.18e-04	0	58	0	562036736	49	4921
2026-01-29 14:24:09.81	167.02	12.49	-39.4	-42.2	12.0	4.30e-04	0	58	0	568328192	49	4980
2026-01-29 14:24:10.81	167.04	12.59	-39.2	-42.0	12.3	2.02e-04	0	58	0	576716800	49	4829
2026-01-29 14:24:11.83	167.05	12.69	-39.2	-41.9	12.4	2.20e-04	0	58	0	584056832	49	4775
2026-01-29 14:24:12.84	167.07	12.79	-39.3	-42.0	12.3	1.62e-04	0	58	0	590348288	49	4841
2026-01-29 14:24:13.85	167.09	12.88	-39.2	-42.0	12.3	1.86e-04	0	58	0	597688320	49	4816
2026-01-29 14:24:14.86	167.11	12.98	-39.1	-41.7	12.5	1.50e-04	0	58	0	605028352	49	4704
2026-01-29 14:24:15.87	167.12	13.08	-39.1	-41.7	12.6	1.28e-04	0	58	0	612368384	49	4666
2026-01-29 14:24:16.88	167.14	13.18	-39.1	-41.7	12.6	1.09e-04	0	58	0	619708416	49	4685
2026-01-29 14:24:17.89	167.16	13.28	-39.0	-41.6	12.6	1.04e-04	0	58	0	627048448	49	4651
2026-01-29 14:24:18.90	167.18	13.38	-39.1	-41.7	12.6	8.46e-05	0	58	0	634388480	48	4940
2026-01-29 14:24:19.90	167.20	13.48	-38.9	-41.5	12.8	8.46e-05	0	58	0	641728512	48	4855
2026-01-29 14:24:20.92	167.21	13.59	-38.9	-41.5	12.8	7.55e-05	0	58	0	649068544	48	4852
2026-01-29 14:24:21.93	167.23	13.69	-39.0	-41.5	12.8	5.03e-05	0	58	0	656408576	48	4855
2026-01-29 14:24:22.94	167.25	13.79	-38.9	-41.5	12.9	5.03e-05	0	58	0	663748608	48	4815
2026-01-29 14:24:23.95	167.27	13.89	-39.0	-41.5	12.8	6.86e-05	0	59	0	671088640	48	4858
2026-01-29 14:24:24.96	167.29	14.00	-39.1	-41.7	12.7	1.10e-04	0	58	0	678428672	48	4957
2026-01-29 14:24:25.97	167.31	14.10	-39.0	-41.5	12.9	5.83e-05	0	59	0	685768704	48	4845
2026-01-29 14:24:26.98	167.33	14.21	-38.8	-41.3	13.0	4.57e-05	0	59	0	693108736	48	4759
2026-01-29 14:24:27.99	167.35	14.31	-38.8	-41.3	13.1	5.60e-05	0	58	0	700448768	48	4730
2026-01-29 14:24:29.00	167.36	14.42	-38.9	-41.4	13.0	2.86e-05	0	59	0	707788800	48	4794
2026-01-29 14:24:30.01	167.38	14.52	-38.9	-41.5	12.9	5.03e-05	0	59	0	715128832	48	4846
2026-01-29 14:24:31.02	167.40	14.63	-39.0	-41.5	12.9	3.77e-05	0	59	0	722468864	48	4863
2026-01-29 14:24:32.03	167.42	14.74	-38.9	-41.4	13.0	6.40e-05	0	58	0	729808896	48	4798
2026-01-29 14:24:33.04	167.44	14.84	-38.9	-41.5	12.9	3.89e-05	0	59	0	737148928	48	4841
2026-01-29 14:24:34.05	167.46	14.95	-38.9	-41.4	13.0	5.37e-05	0	59	0	743440384	48	4811
2026-01-29 14:24:35.07	167.48	15.06	-38.9	-41.4	13.0	4.11e-05	0	59	0	751828992	48	4776
2026-01-29 14:24:36.07	167.50	15.17	-39.0	-41.6	12.9	5.95e-05	0	59	0	759169024	48	4889
2026-01-29 14:24:37.08	167.52	15.28	-39.0	-41.6	12.8	6.52e-05	0	59	0	765460480	48	4905
2026-01-29 14:24:38.09	167.54	15.38	-38.9	-41.4	13.0	4.92e-05	0	59	0	772800512	48	4800
2026-01-29 14:24:39.10	167.56	15.49	-38.8	-41.4	13.1	4.57e-05	0	59	0	780140544	48	4769
2026-01-29 14:24:40.11	167.58	15.61	-38.9	-41.5	12.9	5.26e-05	0	59	0	787480576	48	4847
2026-01-29 14:24:41.13	167.60	15.72	-39.0	-41.6	12.9	3.20e-05	0	59	0	794820608	48	4877
2026-01-29 14:24:42.13	167.62	15.83	-38.9	-41.4	13.0	6.40e-05	0	59	0	802160640	48	4809
2026-01-29 14:24:43.14	167.64	15.94	-38.9	-41.5	13.0	4.34e-05	0	59	0	809500672	48	4824
2026-01-29 14:24:44.15	167.67	16.05	-39.0	-41.6	12.9	3.31e-05	0	59	0	816840704	48	4872
2026-01-29 14:24:45.17	167.69	16.17	-39.0	-41.5	12.9	4.00e-05	0	59	0	824180736	48	4869
2026-01-29 14:24:46.18	167.71	16.28	-38.8	-41.3	13.1	3.43e-05	0	59	0	831520768	48	4755
2026-01-29 14:24:47.19	167.73	16.39	-38.9	-41.4	13.1	3.43e-05	0	59	0	838860800	48	4802
2026-01-29 14:24:48.20	167.75	16.51	-38.9	-41.4	13.1	2.63e-05	0	59	0	846200832	48	4791
2026-01-29 14:24:49.21	167.77	16.62	-38.8	-41.4	13.1	2.86e-05	0	59	0	853540864	48	4768
2026-01-29 14:24:50.22	167.79	16.74	-38.8	-41.3	13.2	2.28e-05	0	59	0	860880896	48	4750
2026-01-29 14:24:51.23	167.82	16.86	-38.8	-41.4	13.1	3.54e-05	0	59	0	868220928	48	4788
2026-01-29 14:24:52.24	167.84	16.97	-38.7	-41.1	13.4	2.05e-05	0	59	0	875560960	48	4627
2026-01-29 14:24:53.25	167.86	17.09	-38.8	-41.3	13.2	3.43e-05	0	59	0	882900992	48	4724
2026-01-29 14:24:54.26	167.88	17.21	-38.7	-41.1	13.4	1.14e-05	0	59	0	889192448	48	4638
2026-01-29 14:24:55.27	167.91	17.33	-38.7	-41.1	13.4	6.80e-06	0	59	0	897581056	48	4633
2026-01-29 14:24:56.28	167.93	17.45	-38.5	-40.9	13.6	1.60e-05	0	59	0	904921088	48	4523
2026-01-29 14:24:57.29	167.95	17.57	-38.6	-41.1	13.5	1.60e-05	0	59	0	911212544	48	4599
2026-01-29 14:24:58.30	167.97	17.69	-38.6	-41.1	13.5	1.02e-05	0	59	0	918552576	48	4617
2026-01-29 14:24:59.31	168.00	17.81	-38.5	-41.0	13.6	1.25e-05	0	59	0	925892608	48	4552
2026-01-29 14:25:00.31	168.02	17.93	-38.5	-40.9	13.7	6.80e-06	0	59	0	933232640	48	4530
2026-01-29 14:25:01.32	168.04	18.05	-38.3	-40.7	13.7	1.02e-05	0	59	0	940572672	47	4668
2026-01-29 14:25:02.33	168.07	18.17	-38.3	-40.7	13.7	9.10e-06	0	59	0	947912704	47	4657
2026-01-29 14:25:03.34	168.09	18.29	-38.2	-40.6	13.8	4.50e-06	0	59	0	955252736	47	4626
2026-01-29 14:25:04.35	168.12	18.42	-38.2	-40.6	13.8	6.80e-06	0	59	0	962592768	47	4612
2026-01-29 14:25:05.37	168.14	18.54	-38.2	-40.5	13.8	4.50e-06	0	59	0	969932800	47	4596
2026-01-29 14:25:06.38	168.16	18.67	-38.0	-40.3	14.1	0.00e+00	0	59	0	977272832	47	4491
2026-01-29 14:25:07.38	168.19	18.79	-38.1	-40.4	13.9	5.70e-06	0	59	0	984612864	47	4540
2026-01-29 14:25:08.39	168.21	18.92	-38.1	-40.4	13.9	6.80e-06	0	59	0	991952896	47	4524
2026-01-29 14:25:09.40	168.24	19.05	-38.0	-40.4	14.0	3.40e-06	0	59	0	999292928	47	4503
2026-01-29 14:25:10.41	168.26	19.17	-38.0	-40.3	14.1	2.20e-06	0	59	0	1006632960	46	4747
2026-01-29 14:25:11.42	168.29	19.30	-37.9	-40.2	14.2	2.20e-06	0	59	0	1013972992	46	4664
2026-01-29 14:25:12.43	168.31	19.43	-38.1	-40.4	14.0	3.40e-06	0	59	0	1021313024	46	4805
2026-01-29 14:25:13.45	168.34	19.56	-37.8	-40.1	14.3	2.20e-06	0	59	0	1028653056	46	4624
2026-01-29 14:25:14.46	168.37	19.69	-37.9	-40.2	14.2	4.50e-06	0	60	0	1035993088	46	4682
2026-01-29 14:25:15.46	168.39	19.82	-37.9	-40.1	14.2	2.20e-06	0	59	0	1042284544	46	4637
2026-01-29 14:25:16.47	168.42	19.96	-37.9	-40.2	14.2	4.50e-06	0	59	0	1050673152	46	4662
2026-01-29 14:25:17.49	168.44	20.09	-37.8	-40.1	14.3	3.40e-06	0	59	0	1058013184	46	4632
2026-01-29 14:25:18.50	168.47	20.22	-37.8	-40.1	14.2	1.10e-06	0	59	0	1064304640	46	4636
2026-01-29 14:25:19.50	168.50	20.35	-37.8	-40.1	14.3	1.10e-06	0	59	0	1071644672	46	4609
2026-01-29 14:25:20.51	168.52	20.49	-37.8	-40.1	14.3	1.10e-06	0	59	0	1078984704	46	4638
2026-01-29 14:25:21.52	168.55	20.62	-37.8	-40.1	14.3	1.10e-06	0	59	0	1086324736	46	4628
2026-01-29 14:25:22.53	168.58	20.76	-37.8	-40.1	14.3	0.00e+00	0	59	0	1093664768	46	4624
2026-01-29 14:25:23.55	168.61	20.90	-37.7	-40.0	14.3	0.00e+00	0	59	0	1101004800	46	4597
2026-01-29 14:25:24.55	168.63	21.03	-37.9	-40.2	14.2	1.10e-06	0	60	0	1108344832	46	4688
2026-01-29 14:25:25.56	168.66	21.17	-37.9	-40.2	14.1	3.40e-06	0	59	0	1115684864	46	4692
2026-01-29 14:25:26.57	168.69	21.31	-37.8	-40.2	14.2	1.10e-06	0	59	0	1123024896	46	4662
2026-01-29 14:25:27.58	168.72	21.45	-37.9	-40.3	14.1	3.40e-06	0	60	0	1130364928	46	4721
2026-01-29 14:25:28.60	168.75	21.59	-37.9	-40.3	14.1	2.20e-06	0	59	0	1137704960	46	4725
2026-01-29 14:25:29.61	168.78	21.73	-37.9	-40.3	14.1	1.10e-06	0	59	0	1145044992	46	4732
2026-01-29 14:25:30.61	168.81	21.88	-37.8	-40.3	14.1	1.10e-06	0	59	0	1152385024	46	4708
2026-01-29 14:25:31.62	168.84	22.02	-37.9	-40.4	14.0	1.10e-06	0	60	0	1159725056	46	4770
2026-01-29 14:25:32.63	168.87	22.16	-37.8	-40.2	14.1	3.40e-06	0	60	0	1167065088	46	4687
2026-01-29 14:25:33.64	168.90	22.31	-37.9	-40.3	14.0	1.10e-06	0	59	0	1174405120	46	4752
2026-01-29 14:25:34.65	168.93	22.45	-37.7	-40.2	14.2	0.00e+00	0	60	0	1181745152	46	4662
2026-01-29 14:25:35.66	168.96	22.60	-37.8	-40.2	14.1	1.10e-06	0	60	0	1189085184	46	4702
2026-01-29 14:25:36.67	168.99	22.75	-37.8	-40.3	14.0	2.20e-06	0	60	0	1196425216	46	4740
2026-01-29 14:25:37.68	169.02	22.89	-37.7	-40.2	14.2	2.20e-06	0	60	0	1203765248	46	4666
2026-01-29 14:25:38.69	169.05	23.04	-37.8	-40.2	14.1	0.00e+00	0	60	0	1211105280	46	4687
2026-01-29 14:25:39.70	169.08	23.19	-37.7	-40.2	14.2	1.10e-06	0	60	0	1217396736	46	4661
2026-01-29 14:25:40.71	169.11	23.34	-37.7	-40.1	14.2	1.10e-06	0	59	0	1224736768	46	4633
2026-01-29 14:25:41.72	169.15	23.49	-37.6	-40.0	14.3	1.10e-06	0	60	0	1233125376	46	4587
2026-01-29 14:25:42.73	169.18	23.65	-37.6	-40.0	14.4	1.10e-06	0	60	0	1239416832	46	4558
2026-01-29 14:25:43.74	169.21	23.80	-37.5	-39.9	14.5	2.20e-06	0	60	0	1246756864	45	4767
2026-01-29 14:25:44.75	169.24	23.95	-37.4	-39.8	14.5	1.10e-06	0	60	0	1254096896	45	4744
2026-01-29 14:25:45.76	169.28	24.11	-37.4	-39.7	14.6	1.10e-06	0	60	0	1261436928	45	4705
2026-01-29 14:25:46.77	169.31	24.26	-37.3	-39.7	14.7	1.10e-06	0	60	0	1268776960	45	4661
2026-01-29 14:25:47.78	169.34	24.42	-37.2	-39.5	14.8	0.00e+00	0	60	0	1276116992	45	4585
2026-01-29 14:25:48.79	169.38	24.58	-37.3	-39.6	14.8	0.00e+00	0	60	0	1283457024	45	4615
2026-01-29 14:25:49.80	169.41	24.74	-37.2	-39.5	14.9	0.00e+00	0	60	0	1290797056	45	4566
2026-01-29 14:25:50.81	169.45	24.90	-37.2	-39.5	14.8	0.00e+00	0	60	0	1298137088	45	4571
2026-01-29 14:25:51.82	169.48	25.06	-37.2	-39.5	14.9	0.00e+00	0	60	0	1305477120	45	4550
2026-01-29 14:25:52.83	169.52	25.22	-37.1	-39.4	15.0	0.00e+00	0	60	0	1312817152	45	4525
2026-01-29 14:25:53.84	169.55	25.38	-37.1	-39.4	15.0	0.00e+00	0	60	0	1320157184	45	4512
2026-01-29 14:25:54.85	169.59	25.54	-37.1	-39.4	15.0	0.00e+00	0	60	0	1327497216	45	4500
2026-01-29 14:25:55.86	169.63	25.71	-37.1	-39.3	15.1	0.00e+00	0	60	0	1334837248	45	4485
2026-01-29 14:25:56.87	169.66	25.87	-37.1	-39.4	15.0	0.00e+00	0	60	0	1342177280	45	4506
2026-01-29 14:25:57.88	169.70	26.04	-37.1	-39.3	15.1	0.00e+00	0	60	0	1349517312	45	4490
2026-01-29 14:25:58.89	169.74	26.21	-37.2	-39.4	15.0	0.00e+00	0	60	0	1356857344	44	4812
2026-01-29 14:25:59.90	169.78	26.38	-37.1	-39.3	15.1	0.00e+00	0	60	0	1363148800	44	4755
2026-01-29 14:26:00.91	169.82	26.55	-37.1	-39.3	15.2	0.00e+00	0	60	0	1370488832	44	4737
2026-01-29 14:26:01.92	169.85	26.72	-37.1	-39.3	15.2	0.00e+00	0	60	0	1378877440	44	4723
2026-01-29 14:26:02.93	169.89	26.89	-37.1	-39.2	15.2	0.00e+00	0	60	0	1385168896	44	4696
2026-01-29 14:26:03.94	169.93	27.06	-37.2	-39.4	15.1	0.00e+00	0	60	0	1392508928	44	4787
2026-01-29 14:26:04.95	169.97	27.24	-37.1	-39.2	15.2	0.00e+00	0	60	0	1399848960	44	4690
2026-01-29 14:26:05.96	170.01	27.41	-37.0	-39.2	15.3	0.00e+00	0	60	0	1407188992	44	4670
2026-01-29 14:26:06.97	170.05	27.59	-37.0	-39.2	15.3	0.00e+00	0	60	0	1414529024	44	4662
2026-01-29 14:26:07.98	170.09	27.76	-37.1	-39.3	15.2	0.00e+00	0	60	0	1421869056	44	4722
2026-01-29 14:26:08.99	170.14	27.94	-37.1	-39.2	15.3	0.00e+00	0	60	0	1429209088	44	4678
2026-01-29 14:26:10.00	170.18	28.12	-37.0	-39.1	15.4	0.00e+00	0	60	0	1436549120	44	4647
2026-01-29 14:26:11.01	170.22	28.30	-37.1	-39.2	15.3	0.00e+00	0	60	0	1443889152	44	4672
2026-01-29 14:26:12.02	170.26	28.48	-37.1	-39.2	15.3	0.00e+00	0	60	0	1451229184	44	4678
2026-01-29 14:26:13.02	170.31	28.67	-37.0	-39.1	15.4	0.00e+00	0	60	0	1458569216	44	4622
2026-01-29 14:26:14.03	170.35	28.85	-37.1	-39.2	15.3	0.00e+00	0	60	0	1465909248	44	4653
2026-01-29 14:26:15.04	170.39	29.04	-37.1	-39.3	15.2	0.00e+00	0	60	0	1473249280	44	4722
2026-01-29 14:26:16.05	170.44	29.22	-37.1	-39.3	15.2	0.00e+00	0	60	0	1480589312	44	4709
2026-01-29 14:26:17.06	170.48	29.41	-37.2	-39.4	15.1	0.00e+00	0	60	0	1487929344	44	4779
2026-01-29 14:26:18.07	170.53	29.60	-37.1	-39.3	15.2	0.00e+00	0	60	0	1495269376	44	4728
2026-01-29 14:26:19.08	170.57	29.79	-37.2	-39.3	15.2	0.00e+00	0	60	0	1502609408	44	4741
2026-01-29 14:26:20.09	170.62	29.98	-37.2	-39.3	15.2	0.00e+00	0	60	0	1509949440	44	4749
2026-01-29 14:26:21.10	170.67	30.17	-37.1	-39.2	15.3	0.00e+00	0	60	0	1516240896	44	4665
2026-01-29 14:26:22.11	170.72	30.37	-37.1	-39.2	15.3	0.00e+00	0	60	0	1523580928	44	4678
2026-01-29 14:26:23.12	170.76	30.56	-37.1	-39.2	15.3	0.00e+00	0	60	0	1531969536	44	4684
2026-01-29 14:26:24.13	170.81	30.76	-36.9	-39.0	15.4	0.00e+00	0	60	0	1538260992	44	4577
2026-01-29 14:26:25.14	170.86	30.96	-37.1	-39.2	15.2	0.00e+00	0	60	0	1545601024	44	4682
2026-01-29 14:26:26.15	170.91	31.16	-36.9	-39.1	15.4	0.00e+00	0	60	0	1552941056	44	4601
2026-01-29 14:26:27.16	170.96	31.36	-36.9	-39.1	15.4	0.00e+00	0	60	0	1560281088	44	4607
2026-01-29 14:26:28.17	171.01	31.56	-36.9	-39.1	15.4	0.00e+00	0	60	0	1567621120	44	4615
2026-01-29 14:26:29.18	171.07	31.77	-36.9	-39.1	15.3	0.00e+00	0	60	0	1574961152	44	4631
2026-01-29 14:26:30.19	171.12	31.97	-37.0	-39.3	15.1	0.00e+00	0	60	0	1582301184	44	4726
2026-01-29 14:26:31.20	171.17	32.18	-36.9	-39.2	15.2	0.00e+00	0	60	0	1589641216	44	4662
2026-01-29 14:26:32.21	171.22	32.38	-37.0	-39.3	15.2	0.00e+00	0	60	0	1596981248	44	4713
2026-01-29 14:26:33.22	171.28	32.59	-37.0	-39.3	15.1	1.10e-06	0	60	0	1604321280	44	4720
2026-01-29 14:26:34.23	171.33	32.80	-37.0	-39.3	15.1	0.00e+00	0	60	0	1611661312	44	4710
2026-01-29 14:26:35.24	171.39	33.02	-37.0	-39.3	15.1	0.00e+00	0	60	0	1619001344	44	4724
2026-01-29 14:26:36.25	171.45	33.23	-37.1	-39.4	15.0	0.00e+00	0	60	0	1626341376	44	4794
2026-01-29 14:26:37.27	171.50	33.45	-37.1	-39.5	14.9	1.10e-06	0	60	0	1633681408	44	4847
2026-01-29 14:26:38.28	171.56	33.66	-37.1	-39.5	14.9	0.00e+00	0	60	0	1641021440	44	4839
2026-01-29 14:26:39.29	171.62	33.88	-37.2	-39.6	14.8	0.00e+00	0	60	0	1648361472	44	4903
2026-01-29 14:26:40.30	171.68	34.10	-37.1	-39.5	14.9	0.00e+00	0	60	0	1655701504	44	4866
2026-01-29 14:26:41.31	171.74	34.32	-37.0	-39.3	15.1	0.00e+00	0	60	0	1661992960	44	4756
2026-01-29 14:26:42.32	171.80	34.55	-37.1	-39.5	15.0	0.00e+00	0	60	0	1670381568	44	4838
2026-01-29 14:26:43.33	171.86	34.77	-36.9	-39.2	15.3	0.00e+00	0	60	0	1677721600	44	4667
2026-01-29 14:26:44.34	171.92	35.00	-37.0	-39.2	15.3	0.00e+00	0	60	0	1684013056	44	4664
2026-01-29 14:26:45.35	171.98	35.22	-37.1	-39.3	15.2	0.00e+00	0	60	0	1691353088	44	4750
2026-01-29 14:26:46.36	172.05	35.45	-37.1	-39.3	15.2	0.00e+00	0	60	0	1698693120	44	4748
2026-01-29 14:26:47.37	172.11	35.68	-37.1	-39.2	15.3	0.00e+00	0	60	0	1706033152	44	4693
2026-01-29 14:26:48.38	172.18	35.92	-37.1	-39.2	15.3	0.00e+00	0	60	0	1713373184	44	4693
2026-01-29 14:26:49.40	172.25	36.15	-37.0	-39.2	15.4	0.00e+00	0	60	0	1720713216	44	4661
2026-01-29 14:26:50.40	172.31	36.39	-37.1	-39.2	15.3	1.10e-06	0	60	0	1728053248	44	4698
2026-01-29 14:26:51.41	172.38	36.62	-36.9	-39.1	15.5	0.00e+00	0	60	0	1735393280	44	4602
2026-01-29 14:26:52.42	172.45	36.86	-37.2	-39.4	15.2	0.00e+00	0	60	0	1742733312	44	4764
2026-01-29 14:26:53.43	172.52	37.10	-37.2	-39.4	15.1	0.00e+00	0	60	0	1750073344	44	4803
2026-01-29 14:26:54.44	172.59	37.35	-37.3	-39.5	15.0	0.00e+00	0	60	0	1757413376	44	4862
2026-01-29 14:26:55.45	172.66	37.59	-37.3	-39.6	14.9	2.20e-06	0	60	0	1764753408	44	4904
2026-01-29 14:26:56.46	172.74	37.84	-37.4	-39.8	14.8	0.00e+00	0	60	0	1772093440	44	5007
2026-01-29 14:26:57.47	172.81	38.08	-37.3	-39.7	14.9	1.10e-06	0	60	0	1779433472	44	4934
2026-01-29 14:26:58.48	172.89	38.33	-37.3	-39.7	14.9	0.00e+00	0	60	0	1786773504	44	4933
2026-01-29 14:26:59.49	172.96	38.58	-37.2	-39.5	15.0	0.00e+00	0	60	0	1794113536	44	4820
2026-01-29 14:27:00.50	173.04	38.84	-37.2	-39.4	15.1	0.00e+00	0	60	0	1801453568	44	4779
2026-01-29 14:27:01.51	173.12	39.09	-37.1	-39.3	15.2	0.00e+00	0	60	0	1808793600	44	4749
2026-01-29 14:27:02.52	173.20	39.35	-37.0	-39.2	15.3	0.00e+00	0	60	0	1816133632	44	4689
2026-01-29 14:27:03.53	173.28	39.61	-37.0	-39.2	15.3	0.00e+00	0	60	0	1823473664	44	4676
2026-01-29 14:27:04.54	173.37	39.87	-37.0	-39.2	15.3	0.00e+00	0	60	0	1830813696	44	4694
2026-01-29 14:27:05.55	173.45	40.13	-37.2	-39.4	15.2	0.00e+00	0	61	0	1837105152	44	4772
2026-01-29 14:27:06.56	173.53	40.40	-37.3	-39.5	15.1	0.00e+00	0	61	0	1844445184	44	4840
2026-01-29 14:27:07.57	173.62	40.66	-37.3	-39.5	15.0	0.00e+00	0	60	0	1852833792	44	4861
2026-01-29 14:27:08.58	173.71	40.93	-37.3	-39.5	15.1	0.00e+00	0	60	0	1859125248	44	4834
2026-01-29 14:27:09.59	173.80	41.20	-37.3	-39.5	15.1	2.20e-06	0	60	0	1866465280	44	4846
2026-01-29 14:27:10.60	173.89	41.47	-37.2	-39.3	15.2	0.00e+00	0	60	0	1873805312	44	4754
2026-01-29 14:27:11.62	173.98	41.75	-37.2	-39.3	15.2	0.00e+00	0	60	0	1881145344	44	4745
2026-01-29 14:27:12.63	174.08	42.03	-37.4	-39.5	15.1	0.00e+00	0	60	0	1888485376	44	4837
2026-01-29 14:27:13.64	174.17	42.30	-37.2	-39.2	15.4	0.00e+00	0	60	0	1895825408	44	4704
2026-01-29 14:27:14.65	174.27	42.58	-37.3	-39.4	15.3	0.00e+00	0	60	0	1903165440	44	4764
2026-01-29 14:27:15.66	174.37	42.87	-37.4	-39.5	15.1	0.00e+00	0	60	0	1910505472	44	4843
2026-01-29 14:27:16.66	174.47	43.15	-37.4	-39.5	15.1	1.10e-06	0	61	0	1917845504	44	4866
2026-01-29 14:27:17.67	174.57	43.43	-37.5	-39.7	14.9	0.00e+00	0	60	0	1925185536	44	4969
2026-01-29 14:27:18.68	174.67	43.72	-37.4	-39.6	15.0	0.00e+00	0	60	0	1932525568	44	4889
2026-01-29 14:27:19.69	174.78	44.01	-37.5	-39.8	14.8	0.00e+00	0	61	0	1939865600	44	4994
2026-01-29 14:27:20.70	174.89	44.31	-37.6	-39.8	14.7	1.10e-06	0	61	0	1947205632	44	5040
2026-01-29 14:27:21.71	175.00	44.60	-38.3	-39.9	15.0	1.10e-06	0	60	0	1954545664	46	4512
2026-01-29 14:27:22.72	175.11	44.90	-38.4	-40.1	14.8	0.00e+00	0	61	0	1961885696	46	4599
2026-01-29 14:27:23.73	175.22	45.20	-38.4	-40.0	14.9	0.00e+00	0	61	0	1969225728	46	4583
2026-01-29 14:27:24.74	175.34	45.50	-38.4	-40.1	14.8	0.00e+00	0	60	0	1976565760	46	4619
2026-01-29 14:27:25.75	175.45	45.80	-38.4	-40.1	14.8	0.00e+00	0	60	0	1982857216	46	4609
2026-01-29 14:27:26.76	175.57	46.10	-38.2	-39.9	15.0	0.00e+00	0	60	0	1990197248	46	4511
2026-01-29 14:27:27.77	175.70	46.41	-38.3	-40.0	14.9	0.00e+00	0	61	0	1998585856	46	4567
2026-01-29 14:27:28.78	175.82	46.72	-38.4	-40.1	14.8	0.00e+00	0	61	0	2004877312	46	4609
2026-01-29 14:27:29.79	175.95	47.03	-38.5	-40.2	14.7	1.10e-06	0	61	0	2012217344	46	4665
2026-01-29 14:27:30.80	176.08	47.35	-38.5	-40.2	14.7	1.10e-06	0	60	0	2019557376	46	4686
2026-01-29 14:27:31.82	176.21	47.67	-38.6	-40.3	14.6	0.00e+00	0	61	0	2026897408	46	4733
2026-01-29 14:27:32.83	176.35	47.98	-38.7	-40.4	14.4	2.20e-06	0	60	0	2034237440	46	4812
2026-01-29 14:27:33.84	176.48	48.31	-38.9	-40.7	14.2	0.00e+00	0	60	0	2041577472	47	4667
2026-01-29 14:27:34.85	176.62	48.63	-38.8	-40.5	14.3	1.10e-06	0	61	0	2048917504	47	4597
2026-01-29 14:27:35.85	176.77	48.95	-38.8	-40.5	14.3	1.10e-06	0	60	0	2056257536	47	4584
2026-01-29 14:27:36.87	176.91	49.28	-38.9	-40.7	14.2	2.20e-06	0	60	0	2063597568	47	4661
2026-01-29 14:27:37.88	177.06	49.61	-38.9	-40.7	14.1	2.20e-06	0	61	0	2070937600	47	4705
2026-01-29 14:27:38.89	177.22	49.94	-38.6	-40.3	14.5	3.40e-06	0	60	0	2078277632	47	4457
2026-01-29 14:27:39.90	177.37	50.27	-38.6	-40.3	14.5	0.00e+00	0	61	0	2085617664	47	4484
2026-01-29 14:27:40.91	177.53	50.61	-38.7	-40.5	14.3	1.10e-06	0	61	0	2092957696	47	4572
2026-01-29 14:27:41.92	177.69	50.95	-38.9	-40.7	14.2	3.40e-06	0	61	0	2100297728	47	4662
2026-01-29 14:27:42.93	177.86	51.29	-38.9	-40.7	14.1	3.40e-06	0	61	0	2107637760	47	4681
2026-01-29 14:27:43.94	178.03	51.63	-39.4	-41.3	13.7	5.70e-06	0	61	0	2114977792	48	4741
2026-01-29 14:27:44.95	178.20	51.98	-39.0	-40.8	14.3	1.83e-05	0	60	0	2122317824	48	4446
2026-01-29 14:27:45.96	178.38	52.32	-39.2	-41.1	13.9	3.40e-06	0	61	0	2129657856	48	4623
2026-01-29 14:27:46.97	178.56	52.67	-39.3	-41.2	13.9	4.50e-06	0	60	0	2136997888	48	4653
2026-01-29 14:27:47.98	178.75	53.02	-39.3	-41.1	13.9	2.20e-06	0	60	0	2144337920	48	4644
2026-01-29 14:27:49.00	178.94	53.38	-39.2	-41.0	14.0	5.70e-06	0	61	0	2151677952	48	4598
2026-01-29 14:27:50.00	179.14	53.73	-39.1	-41.0	14.1	1.10e-06	0	61	0	2157969408	48	4549
2026-01-29 14:27:51.02	179.34	54.10	-39.1	-40.9	14.2	1.10e-06	0	60	0	2166358016	48	4513
2026-01-29 14:27:52.03	179.55	54.46	-39.3	-41.2	13.9	2.20e-06	0	60	0	2173698048	48	4652
2026-01-29 14:27:53.04	179.76	54.82	-39.4	-41.3	13.7	1.14e-05	0	60	0	2179989504	48	4747
2026-01-29 14:27:54.05	179.97	55.18	-39.4	-41.4	13.7	5.70e-06	0	61	0	2187329536	48	4772
2026-01-29 14:27:55.05	180.19	55.55	-39.2	-41.0	14.0	5.70e-06	0	61	0	2194669568	48	4598
2026-01-29 14:27:56.07	180.42	55.92	-39.1	-40.9	14.2	2.20e-06	0	61	0	2202009600	48	4514
2026-01-29 14:27:57.08	180.65	56.29	-39.1	-40.9	14.1	1.10e-06	0	61	0	2209349632	48	4517
2026-01-29 14:27:58.09	180.89	56.66	-38.9	-40.7	14.3	2.20e-06	0	61	0	2216689664	48	4424
2026-01-29 14:27:59.10	181.14	57.04	-39.0	-40.8	14.2	1.10e-06	0	60	0	2224029696	48	4486
2026-01-29 14:28:00.11	181.39	57.41	-39.2	-41.1	14.0	8.00e-06	0	61	0	2231369728	48	4620
2026-01-29 14:28:01.12	181.65	57.79	-39.3	-41.1	13.8	1.02e-05	0	61	0	2238709760	49	4374
2026-01-29 14:28:02.13	181.92	58.17	-39.2	-41.1	14.0	1.10e-06	0	61	0	2246049792	49	4361
2026-01-29 14:28:03.14	182.19	58.55	-39.3	-41.1	13.9	1.10e-06	0	61	0	2253389824	49	4387
2026-01-29 14:28:04.15	182.48	58.94	-39.2	-41.1	14.0	5.70e-06	0	61	0	2260729856	49	4345
2026-01-29 14:28:05.16	182.77	59.32	-39.0	-40.7	14.2	1.10e-06	0	61	0	2268069888	49	4185
2026-01-29 14:28:06.17	183.07	59.71	-39.0	-40.8	14.3	0.00e+00	0	61	0	2275409920	48	4454
2026-01-29 14:28:07.18	183.37	60.10	-38.8	-40.5	14.6	0.00e+00	0	61	0	2282749952	48	4295
2026-01-29 14:28:08.19	183.69	60.49	-38.8	-40.5	14.6	1.10e-06	0	61	0	2290089984	48	4314
2026-01-29 14:28:09.21	184.02	60.89	-38.9	-40.7	14.3	1.10e-06	0	61	0	2297430016	48	4438
2026-01-29 14:28:10.22	184.36	61.28	-39.1	-40.9	14.2	4.50e-06	0	61	0	2304770048	48	4507
2026-01-29 14:28:11.23	184.71	61.68	-39.5	-41.5	13.5	9.10e-06	0	61	0	2312110080	48	4815
2026-01-29 14:28:12.24	185.07	62.08	-38.7	-40.4	14.6	1.10e-06	0	61	0	2319450112	48	4279
2026-01-29 14:28:13.25	185.44	62.48	-38.6	-40.2	14.8	0.00e+00	0	61	0	2325741568	48	4188
2026-01-29 14:28:14.26	185.83	62.88	-38.6	-40.2	14.8	0.00e+00	0	61	0	2333081600	48	4177
2026-01-29 14:28:15.27	186.22	63.28	-38.4	-40.1	14.8	1.10e-06	0	61	0	2341470208	47	4352
2026-01-29 14:28:16.28	186.63	63.68	-38.8	-40.6	13.8	0.00e+00	0	61	0	2347761664	47	4651
2026-01-29 14:28:17.29	187.06	64.08	-38.1	-39.7	15.1	0.00e+00	0	61	0	2355101696	46	4437
2026-01-29 14:28:18.30	187.50	64.49	-38.1	-39.7	15.2	0.00e+00	0	61	0	2362441728	46	4422
2026-01-29 14:28:19.31	187.95	64.89	-38.1	-39.8	15.1	0.00e+00	0	61	0	2369781760	46	4442
2026-01-29 14:28:20.32	188.43	65.30	-37.7	-39.2	15.7	0.00e+00	0	61	0	2377121792	46	4170
2026-01-29 14:28:21.33	188.92	65.70	-37.8	-39.3	15.6	0.00e+00	0	61	0	2384461824	46	4220
2026-01-29 14:28:22.34	189.42	66.11	-37.4	-38.8	16.0	0.00e+00	0	61	0	2391801856	45	4238
2026-01-29 14:28:23.35	189.95	66.52	-37.9	-39.5	15.3	0.00e+00	0	61	0	2399141888	45	4582
2026-01-29 14:28:24.36	190.50	66.93	-38.0	-39.6	15.2	0.00e+00	0	61	0	2406481920	45	4646
2026-01-29 14:28:25.37	191.07	67.33	-37.9	-39.5	15.3	0.00e+00	0	61	0	2413821952	45	4593
2026-01-29 14:28:26.39	191.67	67.74	-37.5	-39.0	15.8	1.10e-06	0	61	0	2421161984	45	4331
2026-01-29 14:28:27.39	192.28	68.15	-37.7	-39.3	15.5	0.00e+00	0	61	0	2428502016	45	4443
2026-01-29 14:28:28.40	192.92	68.55	-37.6	-39.2	15.6	0.00e+00	0	61	0	2435842048	45	4404
2026-01-29 14:28:29.42	193.59	68.96	-37.8	-39.4	15.5	0.00e+00	0	61	0	2443182080	45	4499
2026-01-29 14:28:30.43	194.29	69.37	-37.9	-39.4	15.3	0.00e+00	0	61	0	2450522112	45	4544
2026-01-29 14:28:31.44	195.01	69.77	-38.0	-39.7	15.0	0.00e+00	0	61	0	2457862144	45	4656
2026-01-29 14:28:32.45	195.77	70.17	-38.3	-40.0	14.8	0.00e+00	0	61	0	2465202176	46	4579
2026-01-29 14:28:33.45	196.55	70.57	-38.2	-39.8	15.0	6.40e-05	0	61	0	2472542208	46	4485
2026-01-29 14:28:34.46	197.37	70.97	-38.0	-39.7	15.1	0.00e+00	0	61	0	2479882240	46	4401
2026-01-29 14:28:35.48	198.24	71.37	-37.9	-39.5	15.2	1.37e-05	0	61	0	2487222272	46	4340
2026-01-29 14:28:36.48	199.14	71.76	-38.0	-39.6	15.2	8.00e-06	0	61	0	2494562304	46	4381
2026-01-29 14:28:37.50	200.09	72.15	-37.8	-39.3	15.5	1.10e-06	0	61	0	2500853760	46	4215
2026-01-29 14:28:38.51	201.08	72.54	-37.7	-39.2	15.5	1.48e-05	0	61	0	2508193792	46	4193
2026-01-29 14:28:39.52	202.11	72.92	-37.8	-39.3	15.4	3.40e-06	0	61	0	2516582400	46	4229
2026-01-29 14:28:40.53	203.20	73.30	-37.6	-39.1	15.7	0.00e+00	0	61	0	2522873856	46	4134
2026-01-29 14:28:41.53	204.32	73.67	-37.5	-39.0	15.8	0.00e+00	0	61	0	2530213888	45	4329
2026-01-29 14:28:42.55	205.52	74.04	-37.7	-39.2	15.6	0.00e+00	0	61	0	2537553920	45	4427
2026-01-29 14:28:43.56	206.77	74.41	-37.4	-39.0	15.7	0.00e+00	0	61	0	2544893952	45	4302
2026-01-29 14:28:44.57	208.09	74.76	-36.9	-38.4	16.4	2.28e-05	0	61	0	2552233984	44	4247
2026-01-29 14:28:45.58	209.46	75.11	-36.7	-38.1	16.6	0.00e+00	0	61	0	2559574016	44	4135
2026-01-29 14:28:46.59	210.90	75.45	-36.8	-38.2	16.6	0.00e+00	0	61	0	2566914048	44	4159
2026-01-29 14:28:47.60	212.42	75.79	-36.8	-38.2	16.5	0.00e+00	0	61	0	2574254080	44	4175
2026-01-29 14:28:48.61	214.01	76.11	-36.6	-38.0	16.8	0.00e+00	0	61	0	2581594112	44	4068
2026-01-29 14:28:49.62	215.67	76.43	-36.4	-37.8	16.8	0.00e+00	0	61	0	2588934144	43	4214
2026-01-29 14:28:50.63	217.42	76.73	-36.5	-37.8	16.8	2.20e-06	0	61	0	2596274176	43	4241
2026-01-29 14:28:51.64	219.25	77.02	-36.4	-37.7	16.9	1.48e-05	0	61	0	2603614208	43	4168
2026-01-29 14:28:52.65	221.16	77.30	-36.3	-37.6	17.0	1.71e-05	0	61	0	2610954240	43	4126
2026-01-29 14:28:53.66	223.16	77.56	-36.3	-37.6	16.9	0.00e+00	0	61	0	2618294272	43	4140
2026-01-29 14:28:54.67	225.24	77.81	-36.5	-37.9	16.7	1.33e-04	0	61	0	2625634304	43	4275
2026-01-29 14:28:55.68	227.41	78.05	-36.5	-37.8	16.7	0.00e+00	0	61	0	2632974336	43	4231
2026-01-29 14:28:56.69	229.67	78.26	-36.3	-37.6	17.0	2.05e-05	0	61	0	2640314368	42	4362
2026-01-29 14:28:57.70	232.00	78.46	-36.2	-37.5	17.1	1.10e-06	0	61	0	2646605824	42	4338
2026-01-29 14:28:58.71	234.42	78.64	-36.3	-37.7	16.9	0.00e+00	0	61	0	2654994432	42	4416
2026-01-29 14:28:59.73	236.94	78.80	-36.3	-37.7	16.9	0.00e+00	0	61	0	2662334464	42	4400
2026-01-29 14:29:00.73	239.48	78.94	-36.3	-37.7	16.9	0.00e+00	0	61	0	2668625920	42	4392
2026-01-29 14:29:01.75	242.12	79.06	-35.9	-37.2	17.3	0.00e+00	0	61	0	2675965952	42	4181
2026-01-29 14:29:02.75	244.77	79.15	-35.8	-37.1	17.5	0.00e+00	0	61	0	2683305984	42	4112
2026-01-29 14:29:03.76	247.49	79.22	-35.9	-37.1	17.4	0.00e+00	0	61	0	2690646016	42	4145
2026-01-29 14:29:04.77	250.23	79.27	-36.1	-37.4	17.0	0.00e+00	0	61	0	2697986048	42	4276
2026-01-29 14:29:05.78	252.99	79.29	-36.3	-37.6	17.0	0.00e+00	0	61	0	2705326080	42	4363
2026-01-29 14:29:06.79	255.76	79.28	-36.3	-37.7	16.9	0.00e+00	0	61	0	2712666112	42	4424
2026-01-29 14:29:07.80	258.52	79.26	-36.3	-37.7	16.9	0.00e+00	0	61	0	2720006144	42	4428
2026-01-29 14:29:08.81	261.26	79.21	-36.3	-37.6	16.9	0.00e+00	0	61	0	2727346176	42	4362
2026-01-29 14:29:09.82	263.96	79.13	-36.6	-38.0	16.6	2.20e-06	0	61	0	2734686208	42	4579
2026-01-29 14:29:10.83	266.63	79.03	-36.4	-37.8	16.7	0.00e+00	0	61	0	2742026240	42	4485
2026-01-29 14:29:11.84	269.23	78.91	-36.5	-37.9	16.7	0.00e+00	0	61	0	2749366272	42	4509
2026-01-29 14:29:12.85	271.78	78.77	-36.4	-37.8	16.8	0.00e+00	0	61	0	2756706304	42	4472
2026-01-29 14:29:13.86	274.26	78.61	-36.3	-37.6	16.9	5.70e-06	0	61	0	2764046336	42	4389
2026-01-29 14:29:14.87	276.66	78.42	-36.2	-37.6	17.0	9.26e-05	0	61	0	2771386368	42	4356
2026-01-29 14:29:15.88	278.98	78.22	-36.5	-37.8	16.8	0.00e+00	0	61	0	2778726400	42	4487
2026-01-29 14:29:16.89	281.21	78.00	-36.5	-37.9	16.7	4.50e-06	0	61	0	2786066432	42	4498
2026-01-29 14:29:17.91	283.38	77.76	-36.4	-37.8	16.8	0.00e+00	0	61	0	2793406464	42	4462
2026-01-29 14:29:18.92	285.45	77.51	-36.3	-37.7	16.7	3.08e-05	0	61	0	2800746496	42	4425
2026-01-29 14:29:19.93	287.42	77.24	-36.4	-37.8	16.8	1.83e-05	0	61	0	2808086528	42	4467
2026-01-29 14:29:20.94	289.31	76.96	-36.4	-37.8	16.8	1.10e-06	0	61	0	2815426560	42	4467
2026-01-29 14:29:21.95	291.12	76.66	-36.5	-37.9	16.6	2.18e-04	0	61	0	2821718016	42	4538
2026-01-29 14:29:22.96	292.85	76.36	-36.7	-38.2	16.5	4.50e-06	0	61	0	2829058048	43	4399
2026-01-29 14:29:23.97	294.50	76.04	-36.8	-38.2	16.4	5.37e-05	0	61	0	2837446656	43	4396
2026-01-29 14:29:24.98	296.07	75.72	-36.8	-38.2	16.4	1.10e-06	0	61	0	2843738112	43	4428
2026-01-29 14:29:25.99	297.56	75.38	-36.9	-38.3	16.3	2.05e-05	0	61	0	2851078144	43	4478
2026-01-29 14:29:27.00	298.99	75.04	-37.2	-38.7	16.0	4.50e-06	0	61	0	2858418176	43	4659
2026-01-29 14:29:28.01	300.35	74.69	-37.4	-39.0	15.8	1.14e-05	0	61	0	2865758208	44	4550
2026-01-29 14:29:29.02	301.65	74.33	-37.5	-39.0	15.8	1.02e-05	0	61	0	2873098240	44	4564
2026-01-29 14:29:30.04	302.89	73.96	-37.7	-39.3	15.5	1.14e-05	0	61	0	2880438272	45	4465
2026-01-29 14:29:31.05	304.07	73.59	-38.1	-39.8	15.0	6.17e-05	0	61	0	2887778304	45	4722
2026-01-29 14:29:32.06	305.19	73.22	-38.2	-39.9	14.9	6.40e-05	0	61	0	2895118336	46	4498
2026-01-29 14:29:33.07	306.26	72.84	-37.5	-39.5	15.1	3.89e-05	0	61	0	2902458368	45	4579
2026-01-29 14:29:34.08	307.29	72.45	-37.7	-39.4	15.4	1.23e-04	0	61	0	2909798400	45	4494
2026-01-29 14:29:35.09	308.26	72.07	-37.8	-39.7	15.0	1.10e-03	0	61	0	2917138432	45	4684
2026-01-29 14:29:36.10	309.20	71.68	-38.1	-39.8	14.9	3.08e-05	0	61	0	2924478464	45	4750
2026-01-29 14:29:37.11	310.09	71.28	-38.2	-39.9	14.8	7.78e-05	0	61	0	2931818496	46	4516
2026-01-29 14:29:38.12	310.94	70.89	-38.1	-39.7	14.9	2.63e-05	0	61	0	2939158528	46	4418
2026-01-29 14:29:39.13	311.76	70.49	-38.0	-39.5	15.2	2.20e-06	0	61	0	2946498560	46	4337
2026-01-29 14:29:40.14	312.54	70.09	-38.0	-39.6	15.1	6.80e-06	0	61	0	2953838592	46	4365
2026-01-29 14:29:41.16	313.30	69.68	-38.3	-40.0	14.8	2.27e-04	0	61	0	2961178624	46	4569
2026-01-29 14:29:42.16	314.01	69.29	-38.4	-40.1	14.7	0.00e+00	0	61	0	2967470080	46	4643
2026-01-29 14:29:43.17	314.69	68.88	-38.2	-39.8	15.0	1.48e-05	0	61	0	2975858688	46	4480
2026-01-29 14:29:44.18	315.36	68.48	-37.9	-39.5	14.2	0.00e+00	0	61	0	2983198720	45	4556
2026-01-29 14:29:45.19	315.99	68.07	-38.0	-39.6	15.3	0.00e+00	0	61	0	2989490176	45	4599
2026-01-29 14:29:46.20	316.60	67.67	-37.8	-39.3	15.5	0.00e+00	0	61	0	2996830208	45	4491
2026-01-29 14:29:47.21	317.19	67.26	-38.0	-39.6	15.1	6.98e-05	0	61	0	3004170240	45	4647
2026-01-29 14:29:48.22	317.75	66.85	-38.1	-39.7	15.1	0.00e+00	0	61	0	3011510272	45	4676
2026-01-29 14:29:49.23	318.29	66.45	-38.1	-39.8	15.1	3.40e-06	0	61	0	3018850304	45	4713
2026-01-29 14:29:50.24	318.81	66.04	-37.9	-39.6	15.2	2.20e-06	0	61	0	3026190336	45	4619
2026-01-29 14:29:51.25	319.32	65.63	-37.8	-39.3	15.5	4.50e-06	0	61	0	3033530368	45	4478
2026-01-29 14:29:52.26	319.80	65.23	-37.6	-39.1	15.8	0.00e+00	0	61	0	3040870400	45	4357
2026-01-29 14:29:53.27	320.27	64.82	-37.7	-39.3	15.6	0.00e+00	0	61	0	3048210432	45	4447
2026-01-29 14:29:54.28	320.72	64.42	-37.9	-39.5	15.4	1.10e-06	0	61	0	3055550464	45	4548
2026-01-29 14:29:55.29	321.16	64.02	-38.1	-39.8	15.1	0.00e+00	0	61	0	3062890496	45	4722
2026-01-29 14:29:56.30	321.58	63.62	-38.4	-40.1	14.7	0.00e+00	0	61	0	3070230528	46	4629
2026-01-29 14:29:57.31	321.99	63.22	-38.5	-40.2	14.7	0.00e+00	0	61	0	3077570560	46	4668
2026-01-29 14:29:58.32	322.38	62.82	-38.4	-40.1	14.7	0.00e+00	0	61	0	3084910592	46	4645
2026-01-29 14:29:59.33	322.77	62.42	-38.6	-40.4	14.5	0.00e+00	0	61	0	3092250624	46	4779
2026-01-29 14:30:00.34	323.13	62.02	-39.0	-40.8	14.1	0.00e+00	0	61	0	3099590656	47	4721
2026-01-29 14:30:01.35	323.49	61.62	-39.2	-41.0	13.7	6.80e-06	0	61	0	3106930688	47	4860
2026-01-29 14:30:02.36	323.84	61.23	-39.1	-41.0	13.9	6.80e-06	0	61	0	3114270720	47	4833
2026-01-29 14:30:03.37	324.17	60.84	-38.9	-40.7	14.1	2.20e-06	0	61	0	3121610752	47	4692
2026-01-29 14:30:04.38	324.50	60.44	-38.8	-40.6	14.3	3.40e-06	0	61	0	3128950784	47	4634
2026-01-29 14:30:05.39	324.82	60.05	-38.9	-40.6	14.2	1.10e-06	0	61	0	3136290816	47	4639
2026-01-29 14:30:06.41	325.13	59.66	-39.0	-40.8	14.1	1.10e-06	0	61	0	3142582272	47	4743
2026-01-29 14:30:07.42	325.42	59.28	-39.0	-40.8	14.1	0.00e+00	0	61	0	3150970880	47	4719
2026-01-29 14:30:08.43	325.71	58.89	-38.9	-40.6	14.3	0.00e+00	0	61	0	3158310912	47	4644
2026-01-29 14:30:09.44	325.99	58.51	-38.8	-40.5	14.3	1.10e-06	0	61	0	3164602368	47	4591
2026-01-29 14:30:10.45	326.27	58.13	-38.9	-40.7	14.1	2.20e-06	0	61	0	3171942400	47	4691
2026-01-29 14:30:11.46	326.53	57.75	-39.2	-41.1	13.8	5.70e-06	0	61	0	3179282432	47	4872
2026-01-29 14:30:12.47	326.79	57.37	-39.6	-41.5	13.5	1.48e-05	0	61	0	3186622464	48	4859
2026-01-29 14:30:13.48	327.04	57.00	-39.7	-41.7	13.3	1.48e-05	0	61	0	3193962496	48	4937
2026-01-29 14:30:14.49	327.28	56.62	-39.5	-41.5	13.6	1.71e-05	0	61	0	3201302528	49	4558
2026-01-29 14:30:15.50	327.52	56.25	-39.4	-41.3	13.8	6.80e-06	0	61	0	3208642560	49	4473
2026-01-29 14:30:16.51	327.75	55.88	-39.3	-41.2	13.9	4.50e-06	0	61	0	3215982592	49	4405
2026-01-29 14:30:17.52	327.98	55.52	-39.3	-41.1	13.9	4.50e-06	0	61	0	3223322624	49	4369
2026-01-29 14:30:18.53	328.20	55.15	-39.2	-41.1	14.0	3.40e-06	0	61	0	3230662656	49	4341
2026-01-29 14:30:19.54	328.42	54.79	-39.2	-41.0	14.1	0.00e+00	0	61	0	3238002688	49	4323
2026-01-29 14:30:20.55	328.63	54.43	-39.2	-41.0	14.1	3.40e-06	0	61	0	3245342720	49	4312
2026-01-29 14:30:21.56	328.83	54.07	-39.2	-41.0	14.1	5.70e-06	0	61	0	3252682752	49	4309
2026-01-29 14:30:22.57	329.03	53.71	-39.2	-41.0	14.0	2.20e-06	0	61	0	3260022784	49	4335
2026-01-29 14:30:23.58	329.22	53.36	-39.3	-41.1	14.0	3.40e-06	0	61	0	3267362816	49	4375
2026-01-29 14:30:24.59	329.41	53.01	-39.2	-41.1	14.0	3.40e-06	0	61	0	3274702848	49	4351
2026-01-29 14:30:25.60	329.60	52.66	-39.3	-41.2	13.9	4.50e-06	0	61	0	3282042880	49	4401
2026-01-29 14:30:26.61	329.78	52.31	-39.1	-40.9	14.1	2.20e-06	0	61	0	3288334336	49	4277
2026-01-29 14:30:27.62	329.96	51.96	-38.9	-40.7	14.3	2.20e-06	0	61	0	3296722944	48	4406
2026-01-29 14:30:28.63	330.13	51.62	-39.0	-40.9	14.2	0.00e+00	0	61	0	3304062976	48	4495
2026-01-29 14:30:29.64	330.30	51.28	-39.1	-41.0	14.0	1.10e-06	0	61	0	3310354432	48	4579
2026-01-29 14:30:30.65	330.47	50.94	-39.3	-41.2	13.8	2.20e-06	0	61	0	3317694464	48	4702
2026-01-29 14:30:31.66	330.63	50.60	-39.2	-41.3	13.8	4.50e-06	0	61	0	3325034496	48	4740
2026-01-29 14:30:32.67	330.79	50.27	-39.2	-41.4	13.6	5.70e-06	0	61	0	3332374528	48	4783
2026-01-29 14:30:33.68	330.94	49.94	-39.2	-41.2	13.8	8.00e-06	0	61	0	3339714560	48	4705
2026-01-29 14:30:34.69	331.10	49.61	-39.2	-41.1	13.9	2.20e-06	0	61	0	3347054592	48	4637
2026-01-29 14:30:35.70	331.25	49.28	-39.0	-40.8	14.3	2.20e-06	0	61	0	3354394624	48	4467
2026-01-29 14:30:36.71	331.39	48.95	-38.9	-40.7	14.4	1.10e-06	0	61	0	3361734656	48	4396
2026-01-29 14:30:37.72	331.53	48.63	-38.8	-40.5	14.6	0.00e+00	0	61	0	3369074688	48	4311
2026-01-29 14:30:38.73	331.67	48.31	-38.7	-40.4	14.6	2.20e-06	0	61	0	3376414720	48	4267
2026-01-29 14:30:39.74	331.81	47.99	-38.7	-40.4	14.6	1.10e-06	0	61	0	3383754752	48	4272
2026-01-29 14:30:40.75	331.95	47.67	-38.8	-40.5	14.6	1.10e-06	0	61	0	3391094784	48	4301
2026-01-29 14:30:41.76	332.08	47.36	-38.7	-40.4	14.7	0.00e+00	0	61	0	3398434816	48	4255
2026-01-29 14:30:42.77	332.21	47.05	-38.7	-40.4	14.8	1.10e-06	0	61	0	3405774848	48	4244
2026-01-29 14:30:43.78	332.33	46.74	-38.6	-40.2	14.9	0.00e+00	0	61	0	3413114880	48	4191
2026-01-29 14:30:44.79	332.46	46.43	-38.5	-40.1	15.0	0.00e+00	0	61	0	3420454912	48	4130
2026-01-29 14:30:45.80	332.58	46.12	-38.2	-39.8	15.1	0.00e+00	0	61	0	3427794944	47	4235
2026-01-29 14:30:46.81	332.70	45.82	-38.1	-39.7	15.1	1.10e-06	0	61	0	3435134976	47	4183
2026-01-29 14:30:47.82	332.82	45.52	-38.0	-39.6	15.3	0.00e+00	0	61	0	3442475008	46	4357
2026-01-29 14:30:48.83	332.93	45.22	-37.9	-39.5	15.4	0.00e+00	0	61	0	3449815040	46	4297
2026-01-29 14:30:49.84	333.05	44.92	-37.8	-39.3	15.6	0.00e+00	0	61	0	3457155072	46	4211
2026-01-29 14:30:50.85	333.16	44.63	-37.7	-39.2	15.7	0.00e+00	0	61	0	3463446528	46	4192
2026-01-29 14:30:51.86	333.27	44.33	-37.8	-39.3	15.6	0.00e+00	0	61	0	3470786560	46	4234
2026-01-29 14:30:52.87	333.38	44.04	-37.8	-39.3	15.6	0.00e+00	0	61	0	3479175168	46	4228
2026-01-29 14:30:53.88	333.48	43.75	-37.9	-39.4	15.5	0.00e+00	0	61	0	3485466624	46	4273
2026-01-29 14:30:54.89	333.58	43.47	-37.8	-39.3	15.6	0.00e+00	0	61	0	3492806656	46	4242
2026-01-29 14:30:55.90	333.69	43.18	-37.8	-39.4	15.5	0.00e+00	0	61	0	3500146688	46	4259
2026-01-29 14:30:56.91	333.79	42.90	-37.7	-39.2	15.7	0.00e+00	0	61	0	3507486720	46	4187
2026-01-29 14:30:57.92	333.89	42.62	-37.7	-39.2	15.8	0.00e+00	0	61	0	3514826752	46	4153
2026-01-29 14:30:58.93	333.98	42.34	-37.6	-39.1	15.6	0.00e+00	0	61	0	3522166784	46	4138
2026-01-29 14:30:59.94	334.08	42.06	-37.6	-39.1	15.8	0.00e+00	0	61	0	3529506816	45	4368
2026-01-29 14:31:00.95	334.17	41.79	-37.6	-39.1	15.8	0.00e+00	0	61	0	3536846848	45	4389
2026-01-29 14:31:01.96	334.26	41.51	-37.7	-39.2	15.7	0.00e+00	0	61	0	3544186880	45	4426
2026-01-29 14:31:02.97	334.35	41.24	-37.8	-39.3	15.5	0.00e+00	0	61	0	3551526912	45	4492
2026-01-29 14:31:03.98	334.44	40.97	-37.9	-39.5	15.4	0.00e+00	0	61	0	3558866944	45	4571
2026-01-29 14:31:05.00	334.53	40.71	-38.1	-39.7	15.2	0.00e+00	0	61	0	3566206976	45	4665
2026-01-29 14:31:06.01	334.62	40.44	-38.2	-39.8	15.1	0.00e+00	0	61	0	3573547008	45	4741
2026-01-29 14:31:07.02	334.71	40.18	-38.3	-40.0	14.9	0.00e+00	0	61	0	3580887040	46	4590
2026-01-29 14:31:08.03	334.79	39.92	-38.4	-40.0	14.8	0.00e+00	0	61	0	3588227072	46	4588
2026-01-29 14:31:09.04	334.87	39.66	-38.3	-40.0	14.9	0.00e+00	0	61	0	3595567104	46	4568
2026-01-29 14:31:10.05	334.95	39.40	-38.3	-39.9	14.9	0.00e+00	0	61	0	3602907136	46	4536
2026-01-29 14:31:11.06	335.03	39.14	-38.2	-39.8	15.1	0.00e+00	0	61	0	3609198592	46	4452
2026-01-29 14:31:12.07	335.11	38.89	-38.1	-39.7	15.2	0.00e+00	0	61	0	3617587200	46	4401
2026-01-29 14:31:13.08	335.19	38.64	-38.0	-39.6	15.3	0.00e+00	0	61	0	3624927232	46	4352
2026-01-29 14:31:14.09	335.27	38.39	-37.9	-39.4	15.4	0.00e+00	0	61	0	3631218688	46	4279
2026-01-29 14:31:15.10	335.34	38.14	-37.8	-39.3	15.6	0.00e+00	0	61	0	3638558720	46	4224
2026-01-29 14:31:16.11	335.42	37.89	-37.8	-39.3	15.5	0.00e+00	0	61	0	3646947328	46	4227
2026-01-29 14:31:17.12	335.49	37.65	-37.8	-39.3	15.5	0.00e+00	0	61	0	3653238784	46	4203
2026-01-29 14:31:18.13	335.56	37.40	-37.7	-39.2	15.6	0.00e+00	0	61	0	3660578816	46	4192
2026-01-29 14:31:19.14	335.64	37.16	-37.7	-39.2	15.5	0.00e+00	0	61	0	3667918848	46	4172
2026-01-29 14:31:20.15	335.71	36.92	-37.7	-39.2	15.7	0.00e+00	0	61	0	3675258880	46	4171
2026-01-29 14:31:21.16	335.78	36.69	-37.6	-39.2	15.7	0.00e+00	0	61	0	3682598912	46	4150
2026-01-29 14:31:22.17	335.84	36.45	-37.7	-39.2	15.7	0.00e+00	0	61	0	3689938944	46	4173
2026-01-29 14:31:23.18	335.91	36.21	-37.7	-39.2	15.6	0.00e+00	0	61	0	3697278976	46	4178
2026-01-29 14:31:24.19	335.98	35.98	-37.7	-39.2	15.6	0.00e+00	0	62	0	3704619008	46	4184
2026-01-29 14:31:25.20	336.04	35.75	-37.6	-39.1	15.7	0.00e+00	0	61	0	3711959040	46	4145
2026-01-29 14:31:26.21	336.11	35.52	-37.6	-39.1	15.7	0.00e+00	0	61	0	3719299072	46	4131
2026-01-29 14:31:27.22	336.17	35.29	-37.6	-39.1	15.8	0.00e+00	0	61	0	3726639104	46	4107
2026-01-29 14:31:28.23	336.24	35.07	-37.6	-39.1	15.8	0.00e+00	0	61	0	3733979136	46	4105
2026-01-29 14:31:29.24	336.30	34.84	-37.6	-39.1	15.8	0.00e+00	0	61	0	3741319168	46	4106
2026-01-29 14:31:30.25	336.36	34.62	-37.6	-39.1	15.8	0.00e+00	0	61	0	3748659200	46	4100
2026-01-29 14:31:31.26	336.42	34.40	-37.5	-39.0	15.8	0.00e+00	0	61	0	3755999232	45	4313
2026-01-29 14:31:32.27	336.48	34.18	-37.5	-39.0	15.8	0.00e+00	0	61	0	3763339264	45	4339
2026-01-29 14:31:33.28	336.54	33.96	-37.5	-39.0	15.8	0.00e+00	0	61	0	3770679296	45	4299
2026-01-29 14:31:34.29	336.60	33.74	-37.4	-38.9	15.9	0.00e+00	0	61	0	3778019328	45	4281
2026-01-29 14:31:35.30	336.66	33.52	-37.4	-38.9	15.9	0.00e+00	0	61	0	3784310784	45	4271
2026-01-29 14:31:36.31	336.72	33.31	-37.5	-39.0	15.8	0.00e+00	0	61	0	3791650816	45	4299
2026-01-29 14:31:37.32	336.77	33.10	-37.5	-39.0	15.8	0.00e+00	0	61	0	3800039424	45	4317
2026-01-29 14:31:38.33	336.83	32.89	-37.5	-39.1	15.7	0.00e+00	0	62	0	3806330880	45	4344
2026-01-29 14:31:39.34	336.88	32.68	-37.6	-39.1	15.7	0.00e+00	0	61	0	3813670912	45	4348
2026-01-29 14:31:40.35	336.94	32.47	-37.6	-39.1	15.7	0.00e+00	0	61	0	3821010944	45	4379
2026-01-29 14:31:41.36	336.99	32.26	-37.7	-39.2	15.6	0.00e+00	0	61	0	3828350976	45	4417
2026-01-29 14:31:42.37	337.04	32.06	-37.7	-39.2	15.6	0.00e+00	0	61	0	3835691008	45	4425
2026-01-29 14:31:43.38	337.10	31.85	-37.7	-39.2	15.6	0.00e+00	0	61	0	3843031040	45	4428
2026-01-29 14:31:44.39	337.15	31.65	-37.7	-39.2	15.5	0.00e+00	0	61	0	3850371072	45	4441
2026-01-29 14:31:45.40	337.20	31.45	-37.7	-39.3	15.5	0.00e+00	0	61	0	3857711104	45	4467
2026-01-29 14:31:46.41	337.25	31.25	-37.7	-39.3	15.5	0.00e+00	0	61	0	3865051136	45	4465
2026-01-29 14:31:47.42	337.30	31.05	-37.8	-39.4	15.4	0.00e+00	0	61	0	3872391168	45	4510
2026-01-29 14:31:48.43	337.35	30.85	-37.7	-39.3	15.5	0.00e+00	0	61	0	3879731200	45	4450
2026-01-29 14:31:49.44	337.40	30.66	-37.7	-39.3	15.5	0.00e+00	0	62	0	3887071232	45	4455
2026-01-29 14:31:50.45	337.45	30.46	-37.8	-39.3	15.4	0.00e+00	0	61	0	3894411264	45	4480
2026-01-29 14:31:51.46	337.50	30.27	-37.8	-39.4	15.3	0.00e+00	0	61	0	3901751296	45	4525
2026-01-29 14:31:52.47	337.54	30.08	-37.9	-39.4	15.3	0.00e+00	0	61	0	3909091328	45	4541
2026-01-29 14:31:53.48	337.59	29.89	-37.8	-39.4	15.3	0.00e+00	0	61	0	3916431360	45	4518
2026-01-29 14:31:54.49	337.64	29.70	-37.8	-39.4	15.3	1.10e-06	0	61	0	3923771392	45	4514
2026-01-29 14:31:55.50	337.68	29.51	-37.8	-39.4	15.3	0.00e+00	0	61	0	3930062848	45	4537
2026-01-29 14:31:56.51	337.73	29.32	-37.8	-39.4	15.3	0.00e+00	0	61	0	3938451456	45	4535
2026-01-29 14:31:57.53	337.78	29.13	-37.9	-39.5	15.2	0.00e+00	0	61	0	3945791488	45	4564
2026-01-29 14:31:58.54	337.82	28.95	-37.9	-39.6	15.1	0.00e+00	0	61	0	3952082944	45	4614
2026-01-29 14:31:59.55	337.86	28.77	-38.0	-39.6	15.1	0.00e+00	0	61	0	3959422976	45	4618
2026-01-29 14:32:00.56	337.91	28.58	-38.0	-39.6	15.1	0.00e+00	0	61	0	3966763008	45	4638
2026-01-29 14:32:01.57	337.95	28.40	-38.0	-39.7	15.0	0.00e+00	0	61	0	3974103040	45	4674
2026-01-29 14:32:02.58	337.99	28.22	-38.0	-39.7	15.0	0.00e+00	0	61	0	3981443072	45	4659
2026-01-29 14:32:03.59	338.04	28.04	-38.0	-39.6	15.1	0.00e+00	0	61	0	3988783104	45	4635
2026-01-29 14:32:04.60	338.08	27.87	-38.0	-39.7	15.0	0.00e+00	0	61	0	3996123136	45	4652
2026-01-29 14:32:05.61	338.12	27.69	-38.0	-39.7	15.0	0.00e+00	0	61	0	4003463168	45	4663
2026-01-29 14:32:06.62	338.16	27.51	-38.0	-39.6	15.0	0.00e+00	0	61	0	4010803200	45	4644
2026-01-29 14:32:07.63	338.20	27.34	-38.0	-39.6	15.1	1.10e-06	0	61	0	4018143232	45	4634
2026-01-29 14:32:08.64	338.24	27.17	-37.9	-39.6	15.1	0.00e+00	0	61	0	4025483264	45	4608
2026-01-29 14:32:09.66	338.28	26.99	-38.0	-39.6	15.0	0.00e+00	0	61	0	4032823296	45	4650
2026-01-29 14:32:10.67	338.32	26.82	-38.0	-39.6	15.0	0.00e+00	0	61	0	4040163328	45	4636
2026-01-29 14:32:11.68	338.36	26.65	-37.9	-39.5	15.1	0.00e+00	0	61	0	4047503360	45	4595
2026-01-29 14:32:12.69	338.40	26.48	-37.8	-39.5	15.2	0.00e+00	0	61	0	4054843392	45	4552
2026-01-29 14:32:13.70	338.44	26.31	-37.8	-39.5	15.2	0.00e+00	0	61	0	4062183424	45	4549
2026-01-29 14:32:14.71	338.48	26.15	-37.8	-39.4	15.2	0.00e+00	0	61	0	4069523456	45	4515
2026-01-29 14:32:15.72	338.51	25.98	-37.8	-39.4	15.2	0.00e+00	0	61	0	4076863488	45	4531
2026-01-29 14:32:16.73	338.55	25.82	-37.8	-39.4	15.2	0.00e+00	0	61	0	4084203520	45	4521
2026-01-29 14:32:17.74	338.59	25.65	-37.8	-39.4	15.1	0.00e+00	0	61	0	4091543552	45	4531
2026-01-29 14:32:18.75	338.62	25.49	-37.8	-39.4	15.1	0.00e+00	0	61	0	4098883584	45	4535
2026-01-29 14:32:19.76	338.66	25.33	-37.8	-39.4	15.2	0.00e+00	0	61	0	4105175040	45	4499
2026-01-29 14:32:20.77	338.70	25.17	-37.8	-39.3	15.2	0.00e+00	0	61	0	4113563648	45	4488
2026-01-29 14:32:21.78	338.73	25.01	-37.8	-39.4	15.2	0.00e+00	0	61	0	4120903680	45	4499
2026-01-29 14:32:22.79	338.77	24.85	-37.8	-39.4	15.1	0.00e+00	0	61	0	4127195136	45	4509
2026-01-29 14:32:23.80	338.80	24.69	-37.8	-39.4	15.1	0.00e+00	0	61	0	4134535168	45	4495
2026-01-29 14:32:24.81	338.84	24.53	-37.8	-39.4	15.1	0.00e+00	0	61	0	4141875200	45	4512
2026-01-29 14:32:25.82	338.87	24.38	-37.7	-39.3	15.2	0.00e+00	0	61	0	4149215232	45	4480
2026-01-29 14:32:26.83	338.91	24.22	-37.8	-39.5	15.0	0.00e+00	0	61	0	4156555264	45	4553
2026-01-29 14:32:27.84	338.94	24.07	-37.8	-39.4	15.0	0.00e+00	0	61	0	4163895296	45	4514
2026-01-29 14:32:28.86	338.97	23.91	-37.8	-39.4	15.1	0.00e+00	0	61	0	4171235328	45	4498
2026-01-29 14:32:29.86	339.01	23.76	-37.8	-39.4	15.0	0.00e+00	0	61	0	4178575360	45	4532
2026-01-29 14:32:30.87	339.04	23.61	-37.6	-39.2	15.1	0.00e+00	0	61	0	4185915392	45	4434
2026-01-29 14:32:31.89	339.07	23.46	-37.8	-39.5	14.9	0.00e+00	0	61	0	4193255424	45	4565
2026-01-29 14:32:32.90	339.11	23.31	-37.7	-39.3	15.1	0.00e+00	0	61	0	4200595456	45	4467
2026-01-29 14:32:33.90	339.14	23.16	-37.7	-39.4	15.0	0.00e+00	0	61	0	4207935488	45	4501
2026-01-29 14:32:34.92	339.17	23.01	-37.8	-39.5	14.8	1.10e-06	0	61	0	4215275520	45	4552
2026-01-29 14:32:35.93	339.20	22.87	-37.6	-39.3	14.9	0.00e+00	0	61	0	4222615552	45	4459
2026-01-29 14:32:36.94	339.23	22.72	-37.8	-39.5	14.7	0.00e+00	0	61	0	4229955584	45	4546
2026-01-29 14:32:37.95	339.26	22.57	-37.8	-39.5	14.6	0.00e+00	0	61	0	4237295616	45	4564
2026-01-29 14:32:38.96	339.29	22.43	-37.7	-39.3	14.7	0.00e+00	0	61	0	4244635648	45	4493
2026-01-29 14:32:39.97	339.33	22.29	-37.7	-39.3	14.7	0.00e+00	0	61	0	4251975680	45	4489
2026-01-29 14:32:40.98	339.36	22.14	-37.9	-39.6	14.4	2.20e-06	0	61	0	4259315712	45	4631
2026-01-29 14:32:41.98	339.39	22.00	-37.9	-39.6	14.3	2.20e-06	0	61	0	4266655744	45	4641
2026-01-29 14:32:43.00	339.42	21.86	-37.6	-39.4	14.5	0.00e+00	0	62	0	4272947200	45	4511
2026-01-29 14:32:44.01	339.45	21.72	-37.8	-39.6	14.2	0.00e+00	0	62	0	4280287232	45	4630
2026-01-29 14:32:45.02	339.48	21.58	-38.1	-39.9	13.8	6.80e-06	0	61	0	4288675840	45	4803
2026-01-29 14:32:46.03	339.50	21.44	-37.8	-39.6	14.2	4.50e-06	0	61	0	4294967296	45	4604
2026-01-29 14:32:47.04	339.53	21.30	-37.5	-39.3	14.4	0.00e+00	0	61	0	4302307328	45	4461
2026-01-29 14:32:48.05	339.56	21.16	-37.6	-39.4	14.2	2.20e-06	0	61	0	4309647360	45	4540
2026-01-29 14:32:49.06	339.59	21.03	-37.9	-39.7	13.8	4.50e-06	0	61	0	4316987392	45	4693
2026-01-29 14:32:50.06	339.62	20.89	-38.3	-40.3	13.2	1.25e-05	0	61	0	4324327424	46	4734
2026-01-29 14:32:51.07	339.65	20.76	-38.8	-41.1	12.2	1.79e-04	0	61	0	4331667456	47	4923
2026-01-29 14:32:52.08	339.67	20.62	-39.7	-42.4	10.9	1.28e-03	0	61	0	4339007488	48	5378
2026-01-29 14:32:53.09	339.70	20.49	-40.2	-43.4	9.6	1.07e-02	0	61	0	4346347520	49	5698
2026-01-29 14:32:54.10	339.73	20.35	-40.7	-44.5	8.4	3.79e-02	0	61	0	4353687552	50	6077
2026-01-29 14:32:55.11	339.76	20.22	-41.0	-45.3	7.5	9.64e-02	0	61	0	4361027584	51	6298
2026-01-29 14:32:56.12	339.78	20.09	-41.2	-45.9	6.7	1.92e-01	0	61	0	4368367616	51	6795
2026-01-29 14:32:57.13	339.81	19.96	-41.2	-46.4	6.1	2.85e-01	0	61	0	4375707648	52	6777
2026-01-29 14:32:58.14	339.84	19.83	-41.3	-46.9	5.7	4.69e-01	0	62	0	4381999104	52	7163
2026-01-29 14:32:59.15	339.86	19.70	-41.4	-47.5	5.2	7.26e-01	0	61	0	4385144832	52	7643
2026-01-29 14:33:00.16	339.89	19.57	-41.5	-48.3	4.7	7.97e-01	0	61	0	4385144832	52	8372
2026-01-29 14:33:01.17	339.92	19.44	-41.7	-49.5	4.2	8.26e-01	0	61	0	4385144832	53	9141
2026-01-29 14:33:02.19	339.94	19.31	-41.0	-51.0	3.8	8.45e-01	0	62	104	4385144832	53	10798
2026-01-29 14:33:03.20	339.97	19.18	-41.5	-51.3	3.8	8.46e-01	0	61	104	4385144832	53	11197
2026-01-29 14:33:04.21	339.99	19.06	-42.6	-53.1	3.8	8.46e-01	0	61	104	4385144832	54	12966
2026-01-29 14:33:05.22	340.02	18.93	-41.5	-51.3	3.8	8.44e-01	0	61	104	4385144832	54	10586
2026-01-29 14:33:06.23	340.05	18.81	-41.4	-51.2	3.8	8.46e-01	0	62	104	4385144832	53	11051
2026-01-29 14:33:07.24	340.07	18.68	-41.3	-51.1	3.8	8.47e-01	0	61	104	4385144832	53	11020
2026-01-29 14:33:08.25	340.10	18.56	-41.3	-51.1	3.8	8.45e-01	0	62	104	4385144832	53	10965
2026-01-29 14:33:09.26	340.12	18.43	-41.4	-51.4	3.8	8.46e-01	0	61	104	4385144832	53	11395
2026-01-29 14:33:10.27	340.14	18.31	-40.8	-51.5	3.8	8.46e-01	0	61	104	4385144832	52	12229
2026-01-29 14:33:11.28	340.17	18.19	-40.8	-51.5	3.8	8.47e-01	0	61	104	4385144832	52	12162
2026-01-29 14:33:12.29	340.19	18.07	-41.3	-51.9	3.8	8.45e-01	0	61	104	4385144832	52	12719
2026-01-29 14:33:13.30	340.22	17.95	-41.3	-51.4	3.8	8.46e-01	0	61	104	4385144832	52	12059
2026-01-29 14:33:14.31	340.24	17.83	-40.7	-51.4	3.8	8.46e-01	0	62	104	4385144832	52	12038
2026-01-29 14:33:15.32	340.26	17.71	-40.7	-51.3	3.8	8.46e-01	0	61	104	4385144832	52	11925
2026-01-29 14:33:16.33	340.29	17.59	-41.1	-51.8	3.8	8.45e-01	0	61	104	4385144832	52	12643
2026-01-29 14:33:17.34	340.31	17.47	-41.1	-51.5	3.8	8.45e-01	0	61	104	4385144832	52	12165
2026-01-29 14:33:18.35	340.34	17.35	-40.6	-51.4	3.8	8.46e-01	0	61	104	4385144832	52	12013
2026-01-29 14:33:19.36	340.36	17.23	-40.7	-51.4	3.8	8.44e-01	0	62	104	4385144832	52	12077
2026-01-29 14:33:20.37	340.38	17.12	-41.0	-51.8	3.8	8.46e-01	0	61	104	4385144832	52	12579
2026-01-29 14:33:21.38	340.40	17.00	-40.9	-51.5	3.8	8.46e-01	0	62	104	4385144832	52	12144
2026-01-29 14:33:22.39	340.43	16.88	-40.6	-51.5	3.8	8.47e-01	0	61	104	4385144832	52	12104
2026-01-29 14:33:23.41	340.45	16.77	-40.7	-51.5	3.8	8.46e-01	0	61	104	4385144832	52	12099
2026-01-29 14:33:24.42	340.47	16.65	-40.9	-51.7	3.8	8.47e-01	0	62	104	4385144832	52	12430
