passes_logs/2026/01/29/R2.0S_Moscow/R2.0S_Moscow__20260129_160415_FENGYUN_3E_rec.log

#Pass ID: 20260129_160415_FENGYUN 3E
#Satellite: FENGYUN 3E
#Configuration: FENGYUN 3E
#almurnet v.1.7.20251203
#Start time: 2026-01-29 16:04:16

#Version: 2.2.20231116
#Station: R2.0S_Moscow
#Location: 37.707566 lon 55.798166 lat
#TLE: 1 49008U 21062A   26028.95833242 -.00000015  00000+0  13843-4 0  9995
#TLE: 2 49008  98.7500  33.9242 0002547 112.2873 247.8573 14.19887818236829

#Time	Az	El	Level	Level2	SNR	BER	BlckErr	Temp	State	Recorded	gain1	gain2
2026-01-29 16:04:16.39	218.43	2.07	-44.4	-55.1	3.8	8.46e-01	0	52	0	0	59	12352
2026-01-29 16:04:17.39	218.52	2.12	-44.4	-55.1	3.8	8.47e-01	0	52	104	0	59	12370
2026-01-29 16:04:18.41	218.60	2.17	-44.4	-55.1	3.8	8.45e-01	0	52	104	0	59	12363
2026-01-29 16:04:19.41	218.69	2.22	-44.4	-55.1	3.8	8.46e-01	0	52	104	0	59	12365
2026-01-29 16:04:20.42	218.78	2.27	-44.4	-55.2	3.8	8.46e-01	0	52	104	0	59	12380
2026-01-29 16:04:21.44	218.87	2.33	-44.4	-55.1	3.8	8.46e-01	0	52	104	0	59	12367
2026-01-29 16:04:22.45	218.96	2.38	-44.4	-55.1	3.8	8.45e-01	0	52	104	0	59	12334
2026-01-29 16:04:23.46	219.04	2.43	-44.4	-55.1	3.8	8.46e-01	0	52	104	0	59	12366
2026-01-29 16:04:24.47	219.13	2.48	-44.4	-55.2	3.8	8.47e-01	0	52	104	0	59	12409
2026-01-29 16:04:25.48	219.22	2.53	-44.4	-55.2	3.8	8.46e-01	0	53	104	0	59	12408
2026-01-29 16:04:26.49	219.31	2.58	-44.4	-55.2	3.8	8.46e-01	0	53	104	0	59	12391
2026-01-29 16:04:27.50	219.40	2.63	-44.4	-55.1	3.8	8.46e-01	0	53	104	0	59	12371
2026-01-29 16:04:28.51	219.49	2.68	-44.4	-55.1	3.8	8.46e-01	0	53	104	0	59	12371
2026-01-29 16:04:29.52	219.58	2.74	-44.4	-55.2	3.8	8.47e-01	0	53	104	0	59	12398
2026-01-29 16:04:30.53	219.67	2.79	-44.4	-55.1	3.8	8.47e-01	0	53	104	0	59	12342
2026-01-29 16:04:31.54	219.76	2.84	-44.4	-55.2	3.8	8.45e-01	0	53	104	0	59	12384
2026-01-29 16:04:32.55	219.86	2.89	-44.4	-55.1	3.8	8.46e-01	0	53	104	0	59	12364
2026-01-29 16:04:33.56	219.95	2.94	-44.4	-55.1	3.8	8.46e-01	0	53	104	0	59	12372
2026-01-29 16:04:34.58	220.04	2.99	-44.4	-55.1	3.8	8.46e-01	0	53	104	0	59	12325
2026-01-29 16:04:35.59	220.13	3.05	-44.4	-55.1	3.8	8.47e-01	0	53	104	0	59	12349
2026-01-29 16:04:36.60	220.23	3.10	-44.4	-55.1	3.8	8.47e-01	0	53	104	0	59	12324
2026-01-29 16:04:37.61	220.32	3.15	-44.4	-55.1	3.8	8.45e-01	0	53	104	0	59	12358
2026-01-29 16:04:38.62	220.41	3.20	-44.4	-55.1	3.8	8.46e-01	0	53	104	0	59	12346
2026-01-29 16:04:39.63	220.51	3.25	-44.4	-55.1	3.8	8.45e-01	0	54	104	0	59	12342
2026-01-29 16:04:40.64	220.60	3.30	-44.4	-55.1	3.8	8.46e-01	0	54	104	0	59	12360
2026-01-29 16:04:41.65	220.69	3.36	-44.4	-55.2	3.8	8.46e-01	0	54	104	0	59	12378
2026-01-29 16:04:42.66	220.79	3.41	-44.4	-55.2	3.8	8.46e-01	0	54	104	0	59	12390
2026-01-29 16:04:43.67	220.88	3.46	-44.4	-55.1	3.8	8.46e-01	0	54	104	0	59	12363
2026-01-29 16:04:44.68	220.98	3.51	-44.4	-55.1	3.8	8.47e-01	0	54	104	0	59	12346
2026-01-29 16:04:45.69	221.07	3.56	-44.4	-55.1	3.8	8.47e-01	0	54	104	0	59	12338
2026-01-29 16:04:46.70	221.17	3.62	-44.4	-55.2	3.8	8.46e-01	0	54	104	0	59	12383
2026-01-29 16:04:47.71	221.27	3.67	-44.3	-55.1	3.8	8.46e-01	0	54	104	0	59	12330
2026-01-29 16:04:48.72	221.36	3.72	-44.4	-55.1	3.8	8.47e-01	0	54	104	0	59	12350
2026-01-29 16:04:49.73	221.46	3.77	-44.4	-55.1	3.8	8.47e-01	0	54	104	0	59	12356
2026-01-29 16:04:50.74	221.56	3.83	-44.4	-55.1	3.8	8.46e-01	0	55	104	0	59	12360
2026-01-29 16:04:51.76	221.66	3.88	-44.4	-55.1	3.8	8.45e-01	0	54	104	0	59	12346
2026-01-29 16:04:52.76	221.75	3.93	-44.4	-55.1	3.8	8.47e-01	0	55	104	0	59	12368
2026-01-29 16:04:53.78	221.85	3.98	-44.4	-55.1	3.8	8.46e-01	0	55	104	0	59	12330
2026-01-29 16:04:54.79	221.95	4.04	-44.4	-55.1	3.8	8.47e-01	0	55	104	0	59	12339
2026-01-29 16:04:55.79	222.05	4.09	-44.4	-55.1	3.8	8.47e-01	0	55	104	0	59	12369
2026-01-29 16:04:56.80	222.15	4.14	-44.4	-55.1	3.8	8.46e-01	0	55	104	0	59	12317
2026-01-29 16:04:57.81	222.25	4.19	-44.4	-55.1	3.8	8.46e-01	0	55	104	0	59	12366
2026-01-29 16:04:58.83	222.35	4.24	-44.4	-55.1	3.8	8.47e-01	0	55	104	0	59	12357
2026-01-29 16:04:59.84	222.45	4.30	-44.4	-55.1	3.8	8.45e-01	0	55	104	0	59	12347
2026-01-29 16:05:00.84	222.55	4.35	-44.4	-55.2	3.8	8.46e-01	0	55	104	0	59	12387
2026-01-29 16:05:01.86	222.65	4.40	-44.4	-55.1	3.8	8.47e-01	0	55	104	0	59	12325
2026-01-29 16:05:02.87	222.75	4.45	-44.4	-55.1	3.8	8.46e-01	0	55	104	0	59	12362
2026-01-29 16:05:03.88	222.85	4.51	-44.4	-55.1	3.8	8.45e-01	0	55	104	0	59	12342
2026-01-29 16:05:04.89	222.95	4.56	-44.4	-55.1	3.8	8.46e-01	0	55	104	0	59	12321
2026-01-29 16:05:05.90	223.06	4.61	-44.4	-55.1	3.8	8.46e-01	0	55	104	0	59	12353
2026-01-29 16:05:06.91	223.16	4.67	-44.4	-55.1	3.8	8.46e-01	0	55	104	0	59	12308
2026-01-29 16:05:07.92	223.26	4.72	-44.4	-55.1	3.8	8.46e-01	0	55	104	0	59	12349
2026-01-29 16:05:08.93	223.37	4.77	-44.4	-55.1	3.8	8.46e-01	0	55	104	0	59	12333
2026-01-29 16:05:09.94	223.47	4.82	-44.4	-55.1	3.8	8.46e-01	0	56	104	0	59	12354
2026-01-29 16:05:10.95	223.57	4.88	-44.4	-55.1	3.8	8.46e-01	0	56	104	0	59	12336
2026-01-29 16:05:11.95	223.68	4.93	-44.4	-55.1	3.8	8.46e-01	0	56	104	0	59	12356
2026-01-29 16:05:12.96	223.78	4.98	-44.4	-55.1	3.8	8.46e-01	0	56	104	0	59	12308
2026-01-29 16:05:13.97	223.89	5.03	-44.4	-55.1	3.8	8.46e-01	0	56	104	0	59	12343
2026-01-29 16:05:14.98	223.99	5.09	-44.4	-55.1	3.8	8.45e-01	0	56	104	0	59	12329
2026-01-29 16:05:15.99	224.10	5.14	-44.4	-55.1	3.8	8.46e-01	0	56	104	0	59	12310
2026-01-29 16:05:17.01	224.21	5.19	-44.4	-55.1	3.8	8.46e-01	0	56	104	0	59	12367
2026-01-29 16:05:18.01	224.31	5.25	-44.4	-55.1	3.8	8.45e-01	0	56	104	0	59	12331
2026-01-29 16:05:19.02	224.42	5.30	-44.4	-55.1	3.8	8.46e-01	0	56	104	0	59	12348
2026-01-29 16:05:20.04	224.53	5.35	-44.4	-55.1	3.8	8.45e-01	0	56	104	0	59	12324
2026-01-29 16:05:21.05	224.64	5.41	-44.4	-55.1	3.8	8.46e-01	0	56	104	0	59	12356
2026-01-29 16:05:22.06	224.74	5.46	-44.4	-55.1	3.8	8.45e-01	0	56	104	0	59	12338
2026-01-29 16:05:23.07	224.85	5.51	-44.4	-55.1	3.8	8.46e-01	0	56	104	0	59	12329
2026-01-29 16:05:24.08	224.96	5.57	-44.4	-55.1	3.8	8.46e-01	0	56	104	0	59	12299
2026-01-29 16:05:25.09	225.07	5.62	-44.4	-55.1	3.8	8.45e-01	0	56	104	0	59	12356
2026-01-29 16:05:26.10	225.18	5.67	-44.4	-55.1	3.8	8.45e-01	0	57	104	0	59	12351
2026-01-29 16:05:27.11	225.29	5.73	-44.4	-55.1	3.8	8.46e-01	0	56	104	0	59	12284
2026-01-29 16:05:28.12	225.40	5.78	-44.4	-55.1	3.8	8.47e-01	0	56	104	0	59	12259
2026-01-29 16:05:29.13	225.51	5.83	-44.4	-55.1	3.8	8.46e-01	0	57	104	0	59	12325
2026-01-29 16:05:30.14	225.62	5.89	-44.4	-55.1	3.8	8.47e-01	0	56	104	0	59	12289
2026-01-29 16:05:31.15	225.74	5.94	-44.4	-55.1	3.8	8.45e-01	0	57	104	0	59	12255
2026-01-29 16:05:32.16	225.85	5.99	-44.4	-55.0	3.8	8.46e-01	0	57	104	0	59	12214
2026-01-29 16:05:33.17	225.96	6.05	-44.4	-55.1	3.8	8.46e-01	0	57	104	0	59	12275
2026-01-29 16:05:34.18	226.07	6.10	-44.4	-55.1	3.8	8.46e-01	0	57	104	0	59	12262
2026-01-29 16:05:35.19	226.19	6.15	-44.4	-55.1	3.8	8.46e-01	0	57	104	0	59	12366
2026-01-29 16:05:36.20	226.30	6.21	-44.4	-55.1	3.8	8.47e-01	0	57	104	0	59	12336
2026-01-29 16:05:37.21	226.42	6.26	-44.4	-55.1	3.8	8.46e-01	0	57	104	0	59	12363
2026-01-29 16:05:38.22	226.53	6.31	-44.4	-55.1	3.8	8.46e-01	0	57	104	0	59	12312
2026-01-29 16:05:39.23	226.65	6.37	-44.4	-55.0	3.8	8.46e-01	0	57	104	0	59	12107
2026-01-29 16:05:40.24	226.76	6.42	-44.4	-54.8	3.8	8.46e-01	0	57	104	0	59	11849
2026-01-29 16:05:41.25	226.88	6.47	-44.4	-54.6	3.8	8.46e-01	0	57	104	0	59	11567
2026-01-29 16:05:42.26	226.99	6.53	-44.3	-54.3	3.8	8.45e-01	0	57	104	0	59	11247
2026-01-29 16:05:43.27	227.11	6.58	-44.3	-54.1	3.8	8.47e-01	0	57	104	0	59	10934
2026-01-29 16:05:44.28	227.23	6.63	-44.2	-53.8	3.8	8.47e-01	0	57	104	0	59	10574
2026-01-29 16:05:45.30	227.34	6.69	-44.2	-53.4	3.8	8.46e-01	0	57	104	0	59	10163
2026-01-29 16:05:46.31	227.46	6.74	-44.2	-53.4	3.8	8.46e-01	0	57	104	0	59	10137
2026-01-29 16:05:47.32	227.58	6.79	-44.2	-53.1	3.8	8.45e-01	0	57	104	0	59	9755
2026-01-29 16:05:48.33	227.70	6.85	-44.1	-52.9	3.9	8.43e-01	0	57	104	0	59	9573
2026-01-29 16:05:49.34	227.82	6.90	-44.1	-52.8	3.8	8.44e-01	0	57	104	0	59	9453
2026-01-29 16:05:50.35	227.94	6.95	-44.0	-52.4	4.0	8.42e-01	0	57	104	0	59	9022
2026-01-29 16:05:51.36	228.06	7.01	-44.0	-52.0	4.1	8.39e-01	0	57	0	0	58	9135
2026-01-29 16:05:52.37	228.18	7.06	-43.9	-51.4	4.2	8.37e-01	0	57	0	0	58	8497
2026-01-29 16:05:53.38	228.30	7.11	-43.7	-50.7	4.5	8.26e-01	0	57	0	0	58	7810
2026-01-29 16:05:54.39	228.42	7.17	-43.6	-50.1	4.7	8.09e-01	0	57	0	0	58	7347
2026-01-29 16:05:55.40	228.54	7.22	-43.3	-49.0	5.3	7.44e-01	0	57	0	0	57	6817
2026-01-29 16:05:56.41	228.66	7.28	-43.0	-48.1	6.0	4.34e-01	0	57	0	2097152	56	6528
2026-01-29 16:05:57.42	228.79	7.33	-42.7	-47.3	6.6	2.36e-01	0	57	0	9437184	56	5965
2026-01-29 16:05:58.43	228.91	7.38	-42.2	-46.4	7.3	1.44e-01	0	58	0	16777216	55	5694
2026-01-29 16:05:59.44	229.03	7.44	-42.0	-45.8	7.8	8.31e-02	0	57	0	24117248	54	5643
2026-01-29 16:06:00.45	229.16	7.49	-41.6	-45.2	8.5	5.56e-02	0	58	0	31457280	54	5241
2026-01-29 16:06:01.47	229.28	7.54	-41.5	-44.9	8.8	3.68e-02	0	58	0	38797312	54	5083
2026-01-29 16:06:02.48	229.41	7.60	-41.4	-44.7	9.0	2.50e-02	0	58	0	46137344	53	5266
2026-01-29 16:06:03.49	229.53	7.65	-41.2	-44.4	9.3	2.00e-02	0	58	0	53477376	53	5077
2026-01-29 16:06:04.50	229.66	7.70	-41.1	-44.3	9.4	1.98e-02	0	58	0	60817408	53	5019
2026-01-29 16:06:05.51	229.78	7.76	-41.1	-44.3	9.4	1.60e-02	0	58	0	68157440	53	5001
2026-01-29 16:06:06.52	229.91	7.81	-41.0	-44.1	9.6	1.50e-02	0	58	0	75497472	53	4922
2026-01-29 16:06:07.53	230.04	7.87	-40.8	-43.8	9.9	1.09e-02	0	58	0	82837504	52	5039
2026-01-29 16:06:08.54	230.17	7.92	-40.7	-43.7	10.1	7.46e-03	0	58	0	90177536	52	4941
2026-01-29 16:06:09.55	230.29	7.97	-40.7	-43.6	10.2	6.38e-03	0	58	0	97517568	52	4881
2026-01-29 16:06:10.57	230.42	8.03	-40.6	-43.5	10.3	5.93e-03	0	58	0	104857600	52	4848
2026-01-29 16:06:11.58	230.55	8.08	-41.0	-44.0	9.9	5.54e-03	0	58	0	112197632	52	5117
2026-01-29 16:06:12.59	230.68	8.13	-41.1	-44.2	9.6	1.92e-02	0	58	0	119537664	52	5276
2026-01-29 16:06:13.60	230.81	8.19	-40.9	-44.0	9.9	5.54e-03	0	58	0	126877696	52	5124
2026-01-29 16:06:14.60	230.94	8.24	-42.5	-47.3	6.4	4.65e-01	0	58	0	133169152	55	6325
2026-01-29 16:06:15.61	231.07	8.29	-40.7	-43.5	10.4	2.23e-02	0	58	0	140509184	52	4858
2026-01-29 16:06:16.62	231.20	8.35	-41.0	-44.1	9.8	2.01e-02	0	58	0	146800640	52	5164
2026-01-29 16:06:17.63	231.33	8.40	-40.8	-43.7	10.2	5.50e-03	0	58	0	154140672	52	4949
2026-01-29 16:06:18.64	231.47	8.45	-40.9	-43.9	10.0	6.63e-03	0	58	0	162529280	52	5042
2026-01-29 16:06:19.65	231.60	8.51	-40.8	-43.7	10.1	6.30e-03	0	58	0	168820736	52	4980
2026-01-29 16:06:20.67	231.73	8.56	-40.9	-43.9	10.0	8.11e-03	0	58	0	176160768	52	5049
2026-01-29 16:06:21.68	231.87	8.61	-40.8	-43.7	10.2	7.02e-03	0	58	0	183500800	52	4946
2026-01-29 16:06:22.69	232.00	8.67	-40.9	-43.9	10.0	7.13e-03	0	58	0	190840832	52	5055
2026-01-29 16:06:23.70	232.13	8.72	-40.8	-43.7	10.2	5.82e-03	0	58	0	198180864	52	4940
2026-01-29 16:06:24.71	232.27	8.77	-40.8	-43.6	10.2	6.46e-03	0	58	0	205520896	52	4923
2026-01-29 16:06:25.72	232.40	8.83	-40.8	-43.8	10.1	5.23e-03	0	58	0	212860928	52	4996
2026-01-29 16:06:26.73	232.54	8.88	-40.8	-43.6	10.3	4.94e-03	0	58	0	220200960	52	4918
2026-01-29 16:06:27.74	232.68	8.93	-40.7	-43.5	10.4	3.99e-03	0	58	0	227540992	52	4841
2026-01-29 16:06:28.75	232.81	8.99	-40.6	-43.4	10.5	3.75e-03	0	58	0	234881024	52	4794
2026-01-29 16:06:29.76	232.95	9.04	-40.6	-43.4	10.6	3.29e-03	0	59	0	242221056	52	4765
2026-01-29 16:06:30.77	233.09	9.09	-40.6	-43.3	10.6	2.93e-03	0	58	0	249561088	52	4749
2026-01-29 16:06:31.78	233.23	9.15	-40.6	-43.3	10.6	3.22e-03	0	58	0	256901120	52	4740
2026-01-29 16:06:32.79	233.37	9.20	-40.6	-43.3	10.6	2.79e-03	0	58	0	264241152	52	4743
2026-01-29 16:06:33.80	233.50	9.25	-40.5	-43.3	10.7	2.82e-03	0	58	0	271581184	52	4706
2026-01-29 16:06:34.81	233.64	9.31	-40.5	-43.3	10.7	3.04e-03	0	59	0	278921216	52	4714
2026-01-29 16:06:35.82	233.78	9.36	-40.6	-43.3	10.7	2.52e-03	0	59	0	286261248	51	5035
2026-01-29 16:06:36.83	233.93	9.41	-40.7	-43.4	10.6	3.43e-03	0	59	0	293601280	51	5091
2026-01-29 16:06:37.84	234.07	9.46	-40.6	-43.4	10.7	2.84e-03	0	59	0	299892736	51	5055
2026-01-29 16:06:38.85	234.21	9.52	-40.7	-43.5	10.5	3.44e-03	0	58	0	308281344	51	5128
2026-01-29 16:06:39.86	234.35	9.57	-40.7	-43.5	10.5	3.28e-03	0	59	0	315621376	51	5116
2026-01-29 16:06:40.87	234.49	9.62	-40.6	-43.4	10.7	2.37e-03	0	58	0	321912832	51	5053
2026-01-29 16:06:41.88	234.64	9.68	-40.7	-43.4	10.6	2.73e-03	0	59	0	329252864	51	5085
2026-01-29 16:06:42.90	234.78	9.73	-40.5	-43.2	10.9	2.27e-03	0	58	0	337641472	51	4949
2026-01-29 16:06:43.90	234.92	9.78	-40.5	-43.1	11.0	1.72e-03	0	59	0	343932928	51	4894
2026-01-29 16:06:44.91	235.07	9.83	-40.5	-43.1	10.9	1.70e-03	0	59	0	351272960	51	4908
2026-01-29 16:06:45.93	235.22	9.89	-40.4	-43.0	11.1	1.62e-03	0	59	0	358612992	51	4838
2026-01-29 16:06:46.94	235.36	9.94	-40.5	-43.1	11.0	1.79e-03	0	59	0	365953024	51	4903
2026-01-29 16:06:47.94	235.51	9.99	-40.5	-43.1	11.0	1.68e-03	0	59	0	373293056	51	4878
2026-01-29 16:06:48.95	235.65	10.04	-40.5	-43.1	11.0	1.53e-03	0	59	0	380633088	51	4892
2026-01-29 16:06:49.96	235.80	10.10	-40.5	-43.1	11.0	1.52e-03	0	59	0	387973120	51	4916
2026-01-29 16:06:50.97	235.95	10.15	-40.5	-43.1	11.0	1.83e-03	0	59	0	395313152	51	4911
2026-01-29 16:06:51.98	236.10	10.20	-40.5	-43.1	11.1	1.48e-03	0	59	0	402653184	51	4883
2026-01-29 16:06:52.99	236.25	10.25	-40.4	-43.0	11.2	1.45e-03	0	59	0	409993216	51	4843
2026-01-29 16:06:54.00	236.39	10.31	-40.5	-43.1	11.0	1.49e-03	0	59	0	417333248	51	4912
2026-01-29 16:06:55.01	236.54	10.36	-40.4	-42.9	11.3	1.28e-03	0	59	0	424673280	51	4772
2026-01-29 16:06:56.02	236.69	10.41	-40.4	-42.9	11.2	1.39e-03	0	59	0	432013312	51	4796
2026-01-29 16:06:57.03	236.85	10.46	-40.3	-42.9	11.3	1.39e-03	0	59	0	439353344	51	4766
2026-01-29 16:06:58.04	237.00	10.51	-40.3	-42.8	11.3	1.50e-03	0	59	0	446693376	51	4754
2026-01-29 16:06:59.06	237.15	10.57	-40.3	-42.8	11.4	1.12e-03	0	59	0	454033408	51	4734
2026-01-29 16:07:00.07	237.30	10.62	-40.4	-43.0	11.2	1.33e-03	0	59	0	461373440	51	4842
2026-01-29 16:07:01.08	237.46	10.67	-40.4	-43.0	11.2	1.42e-03	0	59	0	467664896	51	4843
2026-01-29 16:07:02.09	237.61	10.72	-40.4	-43.0	11.2	1.30e-03	0	59	0	475004928	51	4832
2026-01-29 16:07:03.10	237.76	10.77	-40.4	-43.0	11.1	1.40e-03	0	59	0	483393536	51	4863
2026-01-29 16:07:04.11	237.92	10.82	-40.4	-43.0	11.2	1.26e-03	0	59	0	489684992	51	4828
2026-01-29 16:07:05.12	238.07	10.87	-40.4	-42.9	11.2	1.21e-03	0	59	0	497025024	51	4812
2026-01-29 16:07:06.13	238.23	10.93	-40.4	-42.9	11.2	1.09e-03	0	59	0	504365056	51	4810
2026-01-29 16:07:07.14	238.38	10.98	-40.3	-42.9	11.3	1.08e-03	0	59	0	511705088	51	4773
2026-01-29 16:07:08.15	238.54	11.03	-40.3	-42.9	11.3	9.19e-04	0	59	0	519045120	51	4767
2026-01-29 16:07:09.16	238.70	11.08	-40.3	-42.8	11.3	1.11e-03	0	59	0	526385152	51	4754
2026-01-29 16:07:10.17	238.86	11.13	-40.3	-42.8	11.4	8.63e-04	0	59	0	533725184	51	4707
2026-01-29 16:07:11.18	239.01	11.18	-40.3	-42.8	11.4	8.56e-04	0	59	0	541065216	51	4717
2026-01-29 16:07:12.19	239.17	11.23	-40.2	-42.6	11.6	5.31e-04	0	59	0	548405248	51	4635
2026-01-29 16:07:13.21	239.33	11.28	-40.3	-42.7	11.5	6.68e-04	0	59	0	555745280	51	4702
2026-01-29 16:07:14.22	239.49	11.33	-40.2	-42.6	11.6	6.00e-04	0	60	0	563085312	51	4610
2026-01-29 16:07:15.23	239.65	11.38	-40.2	-42.6	11.5	6.20e-04	0	59	0	570425344	51	4648
2026-01-29 16:07:16.23	239.81	11.43	-40.2	-42.7	11.5	6.53e-04	0	59	0	577765376	51	4663
2026-01-29 16:07:17.24	239.97	11.48	-40.3	-42.8	11.4	7.48e-04	0	59	0	585105408	51	4709
2026-01-29 16:07:18.26	240.14	11.53	-40.3	-42.7	11.5	7.99e-04	0	59	0	592445440	51	4692
2026-01-29 16:07:19.27	240.30	11.58	-40.3	-42.7	11.5	5.76e-04	0	59	0	599785472	51	4696
2026-01-29 16:07:20.28	240.46	11.63	-40.3	-42.8	11.4	7.74e-04	0	59	0	607125504	51	4712
2026-01-29 16:07:21.29	240.63	11.68	-40.3	-42.8	11.4	9.19e-04	0	59	0	614465536	51	4707
2026-01-29 16:07:22.30	240.79	11.73	-40.2	-42.7	11.5	6.90e-04	0	60	0	621805568	51	4662
2026-01-29 16:07:23.31	240.96	11.78	-40.2	-42.7	11.6	5.12e-04	0	60	0	629145600	51	4659
2026-01-29 16:07:24.32	241.12	11.83	-40.2	-42.6	11.7	5.98e-04	0	60	0	636485632	51	4601
2026-01-29 16:07:25.33	241.29	11.88	-40.2	-42.6	11.7	5.23e-04	0	60	0	642777088	51	4617
2026-01-29 16:07:26.34	241.45	11.93	-40.1	-42.5	11.7	4.76e-04	0	59	0	650117120	51	4597
2026-01-29 16:07:27.35	241.62	11.98	-40.1	-42.5	11.8	4.43e-04	0	60	0	658505728	51	4564
2026-01-29 16:07:28.36	241.79	12.03	-40.1	-42.5	11.8	4.71e-04	0	59	0	664797184	51	4586
2026-01-29 16:07:29.37	241.96	12.08	-40.1	-42.5	11.8	5.17e-04	0	60	0	672137216	51	4572
2026-01-29 16:07:30.38	242.12	12.13	-40.2	-42.6	11.7	4.54e-04	0	60	0	679477248	51	4624
2026-01-29 16:07:31.39	242.29	12.18	-40.2	-42.6	11.7	4.31e-04	0	60	0	686817280	51	4610
2026-01-29 16:07:32.40	242.46	12.23	-40.2	-42.6	11.7	4.43e-04	0	60	0	694157312	51	4616
2026-01-29 16:07:33.41	242.63	12.27	-40.2	-42.6	11.7	5.23e-04	0	60	0	701497344	51	4607
2026-01-29 16:07:34.42	242.80	12.32	-40.1	-42.5	11.8	5.03e-04	0	60	0	708837376	51	4577
2026-01-29 16:07:35.43	242.97	12.37	-40.2	-42.6	11.7	5.45e-04	0	60	0	716177408	51	4623
2026-01-29 16:07:36.44	243.15	12.42	-40.1	-42.5	11.8	5.83e-04	0	60	0	723517440	51	4559
2026-01-29 16:07:37.46	243.32	12.47	-40.1	-42.5	11.8	4.58e-04	0	59	0	730857472	51	4564
2026-01-29 16:07:38.46	243.49	12.51	-40.1	-42.4	11.8	4.05e-04	0	60	0	738197504	51	4539
2026-01-29 16:07:39.48	243.67	12.56	-40.0	-42.3	12.0	3.03e-04	0	60	0	745537536	51	4461
2026-01-29 16:07:40.49	243.84	12.61	-39.9	-42.2	12.1	2.01e-04	0	60	0	752877568	50	4676
2026-01-29 16:07:41.50	244.02	12.66	-40.0	-42.3	12.0	2.38e-04	0	60	0	760217600	50	4740
2026-01-29 16:07:42.51	244.19	12.70	-39.9	-42.2	12.1	2.55e-04	0	60	0	767557632	50	4677
2026-01-29 16:07:43.52	244.37	12.75	-40.0	-42.4	12.0	3.15e-04	0	60	0	774897664	50	4768
2026-01-29 16:07:44.53	244.54	12.80	-40.0	-42.3	12.0	2.97e-04	0	60	0	782237696	50	4734
2026-01-29 16:07:45.54	244.72	12.84	-40.0	-42.4	12.0	3.13e-04	0	60	0	789577728	50	4777
2026-01-29 16:07:46.55	244.90	12.89	-40.0	-42.3	12.0	2.99e-04	0	60	0	796917760	50	4727
2026-01-29 16:07:47.56	245.07	12.94	-39.9	-42.3	12.1	2.00e-04	0	60	0	804257792	50	4706
2026-01-29 16:07:48.57	245.25	12.98	-39.9	-42.1	12.2	1.98e-04	0	60	0	810549248	50	4650
2026-01-29 16:07:49.58	245.43	13.03	-39.8	-42.1	12.3	1.98e-04	0	60	0	817889280	50	4606
2026-01-29 16:07:50.59	245.61	13.08	-40.0	-42.3	12.1	1.77e-04	0	60	0	825229312	50	4709
2026-01-29 16:07:51.60	245.79	13.12	-39.9	-42.2	12.2	2.22e-04	0	60	0	832569344	50	4657
2026-01-29 16:07:52.61	245.97	13.17	-39.8	-42.1	12.3	1.41e-04	0	60	0	839909376	50	4603
2026-01-29 16:07:53.62	246.15	13.21	-39.9	-42.2	12.1	2.44e-04	0	60	0	847249408	50	4664
2026-01-29 16:07:54.63	246.33	13.26	-39.9	-42.2	12.1	2.51e-04	0	60	0	854589440	50	4695
2026-01-29 16:07:55.64	246.51	13.30	-40.0	-42.3	12.1	2.30e-04	0	60	0	861929472	50	4718
2026-01-29 16:07:56.65	246.70	13.35	-39.9	-42.2	12.2	2.13e-04	0	60	0	869269504	50	4678
2026-01-29 16:07:57.66	246.88	13.39	-39.9	-42.2	12.2	2.41e-04	0	60	0	876609536	50	4660
2026-01-29 16:07:58.67	247.06	13.44	-39.8	-42.0	12.4	1.36e-04	0	60	0	883949568	50	4587
2026-01-29 16:07:59.68	247.25	13.48	-39.8	-42.0	12.4	1.43e-04	0	60	0	891289600	50	4578
2026-01-29 16:08:00.69	247.43	13.52	-39.8	-42.0	12.4	9.49e-05	0	60	0	898629632	50	4582
2026-01-29 16:08:01.70	247.62	13.57	-39.8	-42.0	12.4	1.28e-04	0	60	0	905969664	50	4570
2026-01-29 16:08:02.71	247.80	13.61	-39.8	-42.1	12.3	1.44e-04	0	60	0	913309696	50	4613
2026-01-29 16:08:03.73	247.99	13.66	-39.8	-42.1	12.3	1.51e-04	0	60	0	920649728	50	4600
2026-01-29 16:08:04.74	248.18	13.70	-39.8	-42.0	12.3	1.25e-04	0	60	0	927989760	50	4597
2026-01-29 16:08:05.75	248.37	13.74	-39.7	-42.0	12.4	1.19e-04	0	60	0	935329792	50	4549
2026-01-29 16:08:06.76	248.55	13.79	-39.9	-42.1	12.3	1.50e-04	0	60	0	942669824	50	4645
2026-01-29 16:08:07.77	248.74	13.83	-39.7	-41.9	12.4	1.42e-04	0	60	0	950009856	50	4545
2026-01-29 16:08:08.78	248.93	13.87	-39.7	-41.9	12.5	9.95e-05	0	60	0	957349888	50	4516
2026-01-29 16:08:09.79	249.12	13.91	-39.7	-41.9	12.5	9.61e-05	0	60	0	963641344	50	4514
2026-01-29 16:08:10.80	249.31	13.96	-39.7	-41.9	12.5	7.89e-05	0	60	0	972029952	50	4505
2026-01-29 16:08:11.81	249.50	14.00	-39.6	-41.8	12.6	9.95e-05	0	60	0	979369984	50	4465
2026-01-29 16:08:12.82	249.69	14.04	-39.6	-41.7	12.7	7.66e-05	0	60	0	985661440	50	4429
2026-01-29 16:08:13.83	249.88	14.08	-39.6	-41.8	12.6	6.40e-05	0	60	0	993001472	50	4454
2026-01-29 16:08:14.84	250.08	14.12	-39.6	-41.7	12.7	7.20e-05	0	60	0	1000341504	50	4424
2026-01-29 16:08:15.85	250.27	14.16	-39.7	-41.8	12.6	7.20e-05	0	60	0	1007681536	50	4479
2026-01-29 16:08:16.86	250.46	14.20	-39.6	-41.8	12.6	8.12e-05	0	60	0	1015021568	50	4463
2026-01-29 16:08:17.87	250.65	14.24	-39.6	-41.7	12.7	6.06e-05	0	60	0	1022361600	50	4435
2026-01-29 16:08:18.88	250.85	14.28	-39.6	-41.7	12.7	8.69e-05	0	60	0	1029701632	50	4436
2026-01-29 16:08:19.89	251.04	14.32	-39.6	-41.7	12.7	7.66e-05	0	60	0	1037041664	50	4425
2026-01-29 16:08:20.90	251.24	14.36	-39.6	-41.7	12.7	7.89e-05	0	60	0	1044381696	50	4434
2026-01-29 16:08:21.91	251.43	14.40	-39.6	-41.7	12.7	5.72e-05	0	60	0	1051721728	50	4435
2026-01-29 16:08:22.92	251.63	14.44	-39.5	-41.6	12.8	5.60e-05	0	60	0	1059061760	50	4360
2026-01-29 16:08:23.93	251.83	14.48	-39.5	-41.7	12.7	5.37e-05	0	60	0	1066401792	50	4395
2026-01-29 16:08:24.94	252.02	14.52	-39.7	-41.9	12.5	8.69e-05	0	60	0	1073741824	50	4504
2026-01-29 16:08:25.95	252.22	14.56	-39.7	-41.9	12.5	1.27e-04	0	60	0	1081081856	50	4521
2026-01-29 16:08:26.96	252.42	14.60	-39.7	-41.9	12.5	1.25e-04	0	60	0	1088421888	50	4532
2026-01-29 16:08:27.98	252.62	14.63	-39.7	-41.9	12.4	1.34e-04	0	60	0	1095761920	50	4545
2026-01-29 16:08:28.99	252.82	14.67	-39.7	-41.9	12.4	1.36e-04	0	60	0	1103101952	50	4538
2026-01-29 16:08:29.99	253.02	14.71	-39.7	-41.9	12.5	1.12e-04	0	60	0	1110441984	50	4495
2026-01-29 16:08:31.01	253.22	14.75	-39.7	-41.8	12.6	6.06e-05	0	60	0	1117782016	50	4483
2026-01-29 16:08:32.02	253.42	14.78	-39.7	-41.9	12.5	9.04e-05	0	60	0	1125122048	50	4506
2026-01-29 16:08:33.03	253.62	14.82	-39.7	-41.9	12.5	1.02e-04	0	60	0	1132462080	50	4520
2026-01-29 16:08:34.04	253.82	14.86	-39.7	-41.9	12.5	1.07e-04	0	60	0	1138753536	50	4517
2026-01-29 16:08:35.05	254.02	14.89	-39.8	-42.0	12.4	9.61e-05	0	60	0	1147142144	50	4550
2026-01-29 16:08:36.06	254.23	14.93	-39.8	-42.1	12.4	1.12e-04	0	60	0	1153433600	50	4605
2026-01-29 16:08:37.07	254.43	14.96	-39.7	-41.9	12.5	8.01e-05	0	60	0	1160773632	50	4499
2026-01-29 16:08:38.08	254.63	15.00	-39.7	-41.8	12.6	1.09e-04	0	60	0	1168113664	50	4475
2026-01-29 16:08:39.09	254.84	15.03	-39.6	-41.8	12.6	6.75e-05	0	60	0	1175453696	50	4466
2026-01-29 16:08:40.10	255.04	15.07	-39.7	-41.9	12.6	7.32e-05	0	60	0	1182793728	50	4498
2026-01-29 16:08:41.11	255.25	15.10	-39.6	-41.7	12.7	7.32e-05	0	60	0	1190133760	50	4411
2026-01-29 16:08:42.12	255.45	15.14	-39.6	-41.7	12.7	6.06e-05	0	61	0	1197473792	50	4413
2026-01-29 16:08:43.13	255.66	15.17	-39.6	-41.7	12.7	5.26e-05	0	60	0	1204813824	49	4675
2026-01-29 16:08:44.14	255.86	15.20	-39.4	-41.5	12.9	5.60e-05	0	60	0	1212153856	49	4576
2026-01-29 16:08:45.15	256.07	15.24	-39.5	-41.5	12.8	4.23e-05	0	60	0	1219493888	49	4583
2026-01-29 16:08:46.16	256.28	15.27	-39.4	-41.5	13.0	3.89e-05	0	60	0	1226833920	49	4553
2026-01-29 16:08:47.17	256.48	15.30	-39.4	-41.4	13.0	2.86e-05	0	60	0	1234173952	49	4541
2026-01-29 16:08:48.18	256.69	15.34	-39.4	-41.5	12.9	4.11e-05	0	60	0	1241513984	49	4571
2026-01-29 16:08:49.19	256.90	15.37	-39.5	-41.5	12.8	4.23e-05	0	60	0	1248854016	49	4598
2026-01-29 16:08:50.20	257.11	15.40	-39.5	-41.6	12.8	4.80e-05	0	61	0	1256194048	49	4613
2026-01-29 16:08:51.21	257.32	15.43	-39.6	-41.7	12.7	5.95e-05	0	61	0	1263534080	49	4680
2026-01-29 16:08:52.23	257.53	15.46	-39.5	-41.6	12.8	5.60e-05	0	61	0	1270874112	49	4625
2026-01-29 16:08:53.24	257.74	15.49	-39.5	-41.6	12.8	5.95e-05	0	60	0	1278214144	49	4625
2026-01-29 16:08:54.25	257.95	15.52	-39.4	-41.5	12.9	3.20e-05	0	61	0	1285554176	49	4551
2026-01-29 16:08:55.26	258.16	15.55	-39.5	-41.6	12.8	5.60e-05	0	61	0	1292894208	49	4613
2026-01-29 16:08:56.27	258.37	15.58	-39.4	-41.5	13.0	4.46e-05	0	60	0	1300234240	49	4553
2026-01-29 16:08:57.28	258.59	15.61	-39.4	-41.4	13.0	2.97e-05	0	60	0	1306525696	49	4539
2026-01-29 16:08:58.29	258.80	15.64	-39.4	-41.5	12.9	3.08e-05	0	60	0	1313865728	49	4580
2026-01-29 16:08:59.30	259.01	15.67	-39.4	-41.5	12.9	4.11e-05	0	60	0	1322254336	49	4557
2026-01-29 16:09:00.31	259.22	15.70	-39.5	-41.5	12.9	4.46e-05	0	60	0	1328545792	49	4594
2026-01-29 16:09:01.32	259.44	15.73	-39.5	-41.7	12.8	6.75e-05	0	60	0	1335885824	49	4653
2026-01-29 16:09:02.33	259.65	15.75	-39.5	-41.6	12.8	4.11e-05	0	61	0	1343225856	49	4628
2026-01-29 16:09:03.34	259.86	15.78	-39.5	-41.6	12.9	5.95e-05	0	60	0	1350565888	49	4602
2026-01-29 16:09:04.35	260.08	15.81	-39.4	-41.4	13.0	3.43e-05	0	61	0	1357905920	49	4540
2026-01-29 16:09:05.36	260.29	15.83	-39.3	-41.4	13.1	2.51e-05	0	60	0	1365245952	49	4508
2026-01-29 16:09:06.37	260.51	15.86	-39.3	-41.3	13.2	2.86e-05	0	60	0	1372585984	49	4459
2026-01-29 16:09:07.38	260.72	15.89	-39.3	-41.3	13.1	2.05e-05	0	61	0	1379926016	49	4449
2026-01-29 16:09:08.39	260.94	15.91	-39.4	-41.4	13.0	2.17e-05	0	60	0	1387266048	49	4535
2026-01-29 16:09:09.40	261.16	15.94	-39.3	-41.3	13.1	2.17e-05	0	61	0	1394606080	49	4474
2026-01-29 16:09:10.41	261.37	15.96	-39.3	-41.4	13.1	2.17e-05	0	61	0	1401946112	49	4503
2026-01-29 16:09:11.42	261.59	15.99	-39.3	-41.4	13.0	3.20e-05	0	61	0	1409286144	49	4515
2026-01-29 16:09:12.43	261.81	16.01	-39.4	-41.4	13.0	3.08e-05	0	61	0	1416626176	49	4545
2026-01-29 16:09:13.44	262.02	16.03	-39.4	-41.4	13.0	3.31e-05	0	61	0	1423966208	49	4523
2026-01-29 16:09:14.45	262.24	16.06	-39.3	-41.4	13.1	1.83e-05	0	61	0	1431306240	49	4512
2026-01-29 16:09:15.47	262.46	16.08	-39.4	-41.5	13.0	4.00e-05	0	61	0	1438646272	49	4558
2026-01-29 16:09:16.48	262.68	16.10	-39.5	-41.5	12.9	2.86e-05	0	61	0	1445986304	49	4591
2026-01-29 16:09:17.49	262.90	16.13	-39.4	-41.5	12.9	2.74e-05	0	61	0	1453326336	49	4588
2026-01-29 16:09:18.50	263.12	16.15	-39.4	-41.4	13.1	4.00e-05	0	61	0	1460666368	49	4512
2026-01-29 16:09:19.50	263.34	16.17	-39.2	-41.2	13.2	1.71e-05	0	61	0	1468006400	49	4432
2026-01-29 16:09:20.52	263.56	16.19	-39.3	-41.3	13.2	2.86e-05	0	61	0	1475346432	49	4455
2026-01-29 16:09:21.53	263.78	16.21	-39.2	-41.2	13.3	1.25e-05	0	61	0	1481637888	49	4411
2026-01-29 16:09:22.54	264.00	16.23	-39.3	-41.3	13.1	1.60e-05	0	61	0	1488977920	49	4483
2026-01-29 16:09:23.54	264.22	16.25	-39.3	-41.3	13.1	2.63e-05	0	61	0	1497366528	49	4467
2026-01-29 16:09:24.55	264.44	16.27	-39.3	-41.4	13.1	2.40e-05	0	61	0	1503657984	49	4496
2026-01-29 16:09:25.56	264.66	16.29	-39.5	-41.5	12.9	4.00e-05	0	61	0	1510998016	49	4582
2026-01-29 16:09:26.58	264.88	16.31	-39.5	-41.6	12.8	5.14e-05	0	61	0	1518338048	49	4634
2026-01-29 16:09:27.59	265.10	16.33	-39.5	-41.6	12.8	5.83e-05	0	61	0	1525678080	49	4637
2026-01-29 16:09:28.59	265.32	16.34	-39.5	-41.6	12.8	4.46e-05	0	61	0	1533018112	49	4627
2026-01-29 16:09:29.60	265.55	16.36	-39.4	-41.5	12.9	4.34e-05	0	61	0	1540358144	49	4580
2026-01-29 16:09:30.61	265.77	16.38	-39.4	-41.5	13.0	2.74e-05	0	61	0	1547698176	49	4568
2026-01-29 16:09:31.62	265.99	16.40	-39.3	-41.3	13.1	2.86e-05	0	61	0	1555038208	49	4471
2026-01-29 16:09:32.63	266.22	16.41	-39.2	-41.2	13.3	1.37e-05	0	61	0	1562378240	49	4394
2026-01-29 16:09:33.64	266.44	16.43	-39.2	-41.2	13.2	1.48e-05	0	61	0	1569718272	49	4407
2026-01-29 16:09:34.65	266.66	16.44	-39.3	-41.3	13.2	1.71e-05	0	61	0	1577058304	49	4443
2026-01-29 16:09:35.66	266.89	16.46	-39.3	-41.3	13.1	2.63e-05	0	61	0	1584398336	49	4463
2026-01-29 16:09:36.67	267.11	16.47	-39.3	-41.3	13.1	2.05e-05	0	61	0	1591738368	49	4476
2026-01-29 16:09:37.68	267.33	16.49	-39.4	-41.4	13.0	2.97e-05	0	61	0	1599078400	49	4522
2026-01-29 16:09:38.69	267.56	16.50	-39.3	-41.3	13.2	3.89e-05	0	61	0	1605369856	49	4451
2026-01-29 16:09:39.70	267.78	16.52	-39.3	-41.3	13.1	2.40e-05	0	61	0	1613758464	49	4492
2026-01-29 16:09:40.71	268.01	16.53	-39.5	-41.5	12.9	3.43e-05	0	61	0	1621098496	49	4592
2026-01-29 16:09:41.72	268.23	16.54	-39.4	-41.4	13.0	3.08e-05	0	61	0	1627389952	49	4514
2026-01-29 16:09:42.73	268.46	16.55	-39.4	-41.4	13.0	3.89e-05	0	61	0	1634729984	49	4533
2026-01-29 16:09:43.74	268.68	16.57	-39.4	-41.5	12.9	3.89e-05	0	61	0	1642070016	49	4556
2026-01-29 16:09:44.75	268.91	16.58	-39.4	-41.4	13.0	3.31e-05	0	61	0	1649410048	49	4533
2026-01-29 16:09:45.76	269.13	16.59	-39.4	-41.4	13.0	5.03e-05	0	61	0	1656750080	49	4537
2026-01-29 16:09:46.77	269.36	16.60	-39.5	-41.6	12.8	4.92e-05	0	61	0	1664090112	49	4621
2026-01-29 16:09:47.78	269.58	16.61	-39.5	-41.6	12.8	5.03e-05	0	61	0	1671430144	49	4601
2026-01-29 16:09:48.79	269.81	16.62	-39.5	-41.6	12.9	4.23e-05	0	61	0	1678770176	49	4611
2026-01-29 16:09:49.80	270.04	16.63	-39.4	-41.4	13.0	3.20e-05	0	61	0	1686110208	49	4522
2026-01-29 16:09:50.81	270.26	16.64	-39.4	-41.5	12.9	4.00e-05	0	61	0	1693450240	49	4560
2026-01-29 16:09:51.82	270.49	16.65	-39.4	-41.5	12.9	4.11e-05	0	61	0	1700790272	49	4555
2026-01-29 16:09:52.83	270.72	16.66	-39.4	-41.4	13.0	4.23e-05	0	61	0	1708130304	49	4535
2026-01-29 16:09:53.84	270.94	16.66	-39.3	-41.3	13.1	3.20e-05	0	61	0	1715470336	49	4458
2026-01-29 16:09:54.85	271.17	16.67	-39.2	-41.2	13.2	2.86e-05	0	61	0	1722810368	49	4432
2026-01-29 16:09:55.86	271.40	16.68	-39.3	-41.3	13.0	2.63e-05	0	61	0	1730150400	49	4485
2026-01-29 16:09:56.87	271.62	16.68	-39.2	-41.2	13.2	1.02e-05	0	61	0	1737490432	49	4405
2026-01-29 16:09:57.88	271.85	16.69	-39.2	-41.2	13.2	2.40e-05	0	61	0	1744830464	49	4396
2026-01-29 16:09:58.89	272.08	16.70	-39.2	-41.1	13.2	2.17e-05	0	61	0	1752170496	49	4388
2026-01-29 16:09:59.90	272.30	16.70	-39.1	-41.1	13.3	1.25e-05	0	61	0	1759510528	49	4358
2026-01-29 16:10:00.91	272.53	16.71	-39.2	-41.2	13.2	1.83e-05	0	61	0	1766850560	49	4423
2026-01-29 16:10:01.92	272.76	16.71	-39.2	-41.2	13.1	1.94e-05	0	61	0	1774190592	49	4432
2026-01-29 16:10:02.93	272.99	16.71	-39.3	-41.3	13.1	3.20e-05	0	61	0	1780482048	49	4492
2026-01-29 16:10:03.94	273.21	16.72	-39.3	-41.4	13.0	2.40e-05	0	61	0	1787822080	49	4500
2026-01-29 16:10:04.95	273.44	16.72	-39.3	-41.4	13.0	2.86e-05	0	61	0	1796210688	49	4522
2026-01-29 16:10:05.96	273.67	16.72	-39.3	-41.4	13.0	2.74e-05	0	61	0	1802502144	49	4524
2026-01-29 16:10:06.97	273.90	16.73	-39.3	-41.3	13.0	4.69e-05	0	61	0	1809842176	49	4487
2026-01-29 16:10:07.98	274.12	16.73	-39.3	-41.4	13.0	2.28e-05	0	61	0	1817182208	49	4500
2026-01-29 16:10:08.99	274.35	16.73	-39.3	-41.3	13.0	3.43e-05	0	61	0	1824522240	49	4489
2026-01-29 16:10:10.00	274.58	16.73	-39.3	-41.3	13.0	2.28e-05	0	61	0	1831862272	49	4480
2026-01-29 16:10:11.01	274.81	16.73	-39.3	-41.4	13.0	2.97e-05	0	61	0	1839202304	49	4506
2026-01-29 16:10:12.02	275.03	16.73	-39.3	-41.4	13.0	4.23e-05	0	61	0	1846542336	49	4501
2026-01-29 16:10:13.03	275.26	16.73	-39.3	-41.3	13.1	3.08e-05	0	61	0	1853882368	49	4472
2026-01-29 16:10:14.05	275.49	16.73	-39.3	-41.3	13.1	3.54e-05	0	61	0	1861222400	49	4461
2026-01-29 16:10:15.05	275.72	16.73	-39.3	-41.3	13.1	2.63e-05	0	61	0	1868562432	49	4470
2026-01-29 16:10:16.06	275.94	16.73	-39.3	-41.3	13.0	2.17e-05	0	61	0	1875902464	49	4480
2026-01-29 16:10:17.07	276.17	16.72	-39.2	-41.2	13.1	2.28e-05	0	61	0	1883242496	49	4432
2026-01-29 16:10:18.08	276.40	16.72	-39.2	-41.2	13.2	1.83e-05	0	61	0	1890582528	49	4422
2026-01-29 16:10:19.09	276.63	16.72	-39.2	-41.2	13.2	9.10e-06	0	61	0	1897922560	49	4397
2026-01-29 16:10:20.10	276.85	16.71	-39.1	-41.1	13.2	1.94e-05	0	61	0	1905262592	49	4379
2026-01-29 16:10:21.11	277.08	16.71	-39.1	-41.1	13.3	1.60e-05	0	61	0	1912602624	49	4358
2026-01-29 16:10:22.12	277.31	16.71	-39.1	-41.0	13.4	1.83e-05	0	61	0	1919942656	49	4317
2026-01-29 16:10:23.13	277.54	16.70	-39.2	-41.2	13.2	2.17e-05	0	61	0	1926234112	49	4417
2026-01-29 16:10:24.14	277.76	16.70	-39.2	-41.2	13.1	1.94e-05	0	61	0	1933574144	49	4440
2026-01-29 16:10:25.15	277.99	16.69	-39.2	-41.2	13.2	1.71e-05	0	61	0	1941962752	49	4415
2026-01-29 16:10:26.16	278.22	16.68	-39.2	-41.2	13.2	2.05e-05	0	61	0	1948254208	49	4411
2026-01-29 16:10:27.17	278.44	16.68	-39.3	-41.3	13.0	3.31e-05	0	61	0	1955594240	49	4479
2026-01-29 16:10:28.18	278.67	16.67	-39.3	-41.3	13.0	2.28e-05	0	61	0	1962934272	49	4476
2026-01-29 16:10:29.19	278.90	16.66	-39.4	-41.5	12.9	4.46e-05	0	61	0	1970274304	49	4546
2026-01-29 16:10:30.20	279.12	16.66	-39.4	-41.5	12.9	5.49e-05	0	61	0	1977614336	49	4566
2026-01-29 16:10:31.21	279.35	16.65	-39.4	-41.5	12.8	4.23e-05	0	61	0	1984954368	49	4595
2026-01-29 16:10:32.22	279.57	16.64	-39.4	-41.6	12.8	4.92e-05	0	61	0	1992294400	49	4606
2026-01-29 16:10:33.23	279.80	16.63	-39.3	-41.4	12.9	4.92e-05	0	61	0	1999634432	49	4523
2026-01-29 16:10:34.24	280.03	16.62	-39.4	-41.5	12.9	3.43e-05	0	61	0	2006974464	49	4556
2026-01-29 16:10:35.25	280.25	16.61	-39.4	-41.5	12.8	4.92e-05	0	61	0	2014314496	49	4569
2026-01-29 16:10:36.26	280.48	16.60	-39.4	-41.4	12.9	3.54e-05	0	61	0	2021654528	49	4540
2026-01-29 16:10:37.27	280.70	16.59	-39.3	-41.4	12.9	3.43e-05	0	61	0	2028994560	49	4521
2026-01-29 16:10:38.28	280.93	16.58	-39.3	-41.4	12.8	3.08e-05	0	61	0	2036334592	49	4528
2026-01-29 16:10:39.29	281.15	16.57	-39.3	-41.4	12.9	2.86e-05	0	61	0	2043674624	49	4520
2026-01-29 16:10:40.30	281.38	16.56	-39.2	-41.3	13.0	2.86e-05	0	61	0	2051014656	49	4462
2026-01-29 16:10:41.31	281.60	16.54	-39.3	-41.3	13.0	2.74e-05	0	61	0	2058354688	49	4466
2026-01-29 16:10:42.32	281.83	16.53	-39.3	-41.3	13.0	4.11e-05	0	61	0	2065694720	49	4467
2026-01-29 16:10:43.33	282.05	16.52	-39.3	-41.4	12.9	3.54e-05	0	61	0	2073034752	49	4517
2026-01-29 16:10:44.34	282.28	16.51	-39.3	-41.4	13.0	4.23e-05	0	61	0	2080374784	49	4495
2026-01-29 16:10:45.36	282.50	16.49	-39.3	-41.4	12.9	3.20e-05	0	61	0	2087714816	49	4506
2026-01-29 16:10:46.37	282.73	16.48	-39.4	-41.4	12.9	4.11e-05	0	61	0	2095054848	49	4541
2026-01-29 16:10:47.38	282.95	16.46	-39.4	-41.5	12.8	4.80e-05	0	61	0	2101346304	49	4560
2026-01-29 16:10:48.39	283.17	16.45	-39.5	-41.6	12.7	6.06e-05	0	61	0	2108686336	49	4618
2026-01-29 16:10:49.40	283.40	16.43	-39.3	-41.4	12.9	2.74e-05	0	61	0	2117074944	49	4530
2026-01-29 16:10:50.41	283.62	16.42	-39.3	-41.4	12.9	5.26e-05	0	61	0	2123366400	49	4511
2026-01-29 16:10:51.42	283.84	16.40	-39.3	-41.3	13.0	3.89e-05	0	61	0	2130706432	49	4470
2026-01-29 16:10:52.43	284.07	16.38	-39.2	-41.3	13.0	3.54e-05	0	61	0	2138046464	49	4453
2026-01-29 16:10:53.44	284.29	16.37	-39.3	-41.4	12.9	3.66e-05	0	61	0	2145386496	49	4503
2026-01-29 16:10:54.45	284.51	16.35	-39.4	-41.5	12.9	4.46e-05	0	61	0	2152726528	49	4557
2026-01-29 16:10:55.46	284.73	16.33	-39.3	-41.4	12.9	5.03e-05	0	61	0	2160066560	49	4509
2026-01-29 16:10:56.47	284.95	16.31	-39.3	-41.4	12.9	3.77e-05	0	61	0	2167406592	49	4527
2026-01-29 16:10:57.48	285.17	16.29	-39.4	-41.5	12.7	6.63e-05	0	61	0	2174746624	49	4577
2026-01-29 16:10:58.49	285.39	16.27	-39.4	-41.5	12.8	5.95e-05	0	61	0	2182086656	49	4567
2026-01-29 16:10:59.50	285.61	16.25	-39.5	-41.7	12.5	5.60e-05	0	61	0	2189426688	49	4659
2026-01-29 16:11:00.51	285.83	16.23	-39.5	-41.7	12.6	5.95e-05	0	61	0	2196766720	49	4655
2026-01-29 16:11:01.52	286.05	16.21	-39.5	-41.6	12.7	7.55e-05	0	61	0	2204106752	49	4616
2026-01-29 16:11:02.53	286.27	16.19	-39.5	-41.6	12.7	9.38e-05	0	61	0	2211446784	49	4626
2026-01-29 16:11:03.54	286.49	16.17	-39.4	-41.5	12.8	6.63e-05	0	61	0	2218786816	49	4569
2026-01-29 16:11:04.55	286.71	16.15	-39.5	-41.6	12.7	6.86e-05	0	61	0	2226126848	49	4621
2026-01-29 16:11:05.55	286.93	16.13	-39.4	-41.4	12.8	4.11e-05	0	61	0	2233466880	49	4543
2026-01-29 16:11:06.56	287.15	16.11	-39.4	-41.5	12.8	6.17e-05	0	61	0	2240806912	49	4576
2026-01-29 16:11:07.57	287.37	16.09	-39.4	-41.5	12.7	6.52e-05	0	61	0	2247098368	49	4587
2026-01-29 16:11:08.58	287.58	16.06	-39.5	-41.6	12.7	7.20e-05	0	61	0	2254438400	49	4625
2026-01-29 16:11:09.59	287.80	16.04	-39.4	-41.6	12.7	6.63e-05	0	61	0	2261778432	49	4610
2026-01-29 16:11:10.60	288.02	16.02	-39.5	-41.6	12.6	8.81e-05	0	61	0	2269118464	49	4633
2026-01-29 16:11:11.61	288.24	15.99	-39.4	-41.6	12.7	7.89e-05	0	61	0	2276458496	49	4602
2026-01-29 16:11:12.62	288.45	15.97	-39.4	-41.5	12.7	6.63e-05	0	61	0	2283798528	49	4575
2026-01-29 16:11:13.63	288.67	15.94	-39.5	-41.6	12.7	6.40e-05	0	61	0	2291138560	49	4621
2026-01-29 16:11:14.63	288.88	15.92	-39.4	-41.6	12.7	6.98e-05	0	61	0	2298478592	49	4606
2026-01-29 16:11:15.65	289.10	15.89	-39.4	-41.5	12.7	8.69e-05	0	61	0	2305818624	49	4580
2026-01-29 16:11:16.66	289.31	15.87	-39.4	-41.5	12.8	5.83e-05	0	61	0	2313158656	49	4550
2026-01-29 16:11:17.67	289.53	15.84	-39.4	-41.5	12.8	7.32e-05	0	61	0	2320498688	49	4579
2026-01-29 16:11:18.67	289.74	15.81	-39.4	-41.5	12.7	4.34e-05	0	61	0	2327838720	49	4587
2026-01-29 16:11:19.68	289.95	15.79	-39.4	-41.5	12.8	6.98e-05	0	61	0	2335178752	49	4574
2026-01-29 16:11:20.69	290.17	15.76	-39.3	-41.4	12.8	7.09e-05	0	61	0	2342518784	49	4516
2026-01-29 16:11:21.70	290.38	15.73	-39.4	-41.5	12.8	5.95e-05	0	61	0	2349858816	49	4571
2026-01-29 16:11:22.71	290.59	15.71	-39.5	-41.6	12.6	6.29e-05	0	61	0	2357198848	49	4642
2026-01-29 16:11:23.72	290.81	15.68	-39.4	-41.5	12.7	7.09e-05	0	61	0	2364538880	49	4596
2026-01-29 16:11:24.73	291.02	15.65	-39.5	-41.6	12.7	5.14e-05	0	61	0	2371878912	49	4628
2026-01-29 16:11:25.74	291.23	15.62	-39.5	-41.6	12.6	5.49e-05	0	61	0	2379218944	49	4623
2026-01-29 16:11:26.75	291.44	15.59	-39.5	-41.6	12.6	7.66e-05	0	61	0	2386558976	49	4622
2026-01-29 16:11:27.76	291.65	15.56	-39.5	-41.6	12.6	9.38e-05	0	61	0	2393899008	49	4641
2026-01-29 16:11:28.77	291.86	15.53	-39.4	-41.6	12.7	7.89e-05	0	61	0	2400190464	49	4612
2026-01-29 16:11:29.78	292.07	15.50	-39.5	-41.6	12.6	7.89e-05	0	61	0	2407530496	49	4644
2026-01-29 16:11:30.79	292.28	15.47	-39.5	-41.6	12.6	8.01e-05	0	61	0	2414870528	49	4633
2026-01-29 16:11:31.80	292.49	15.44	-39.6	-41.8	12.5	1.10e-04	0	61	0	2422210560	49	4706
2026-01-29 16:11:32.80	292.70	15.41	-39.6	-41.8	12.4	1.22e-04	0	61	0	2429550592	49	4746
2026-01-29 16:11:33.82	292.91	15.38	-39.6	-41.8	12.4	1.21e-04	0	62	0	2436890624	49	4731
2026-01-29 16:11:34.83	293.11	15.35	-39.7	-41.9	12.2	1.60e-04	0	61	0	2444230656	49	4812
2026-01-29 16:11:35.84	293.32	15.31	-39.7	-41.9	12.3	1.88e-04	0	61	0	2451570688	49	4807
2026-01-29 16:11:36.85	293.53	15.28	-39.7	-41.9	12.3	1.61e-04	0	61	0	2458910720	49	4807
2026-01-29 16:11:37.86	293.74	15.25	-39.7	-41.9	12.3	1.62e-04	0	61	0	2466250752	49	4799
2026-01-29 16:11:38.87	293.94	15.22	-39.7	-42.0	12.2	1.80e-04	0	61	0	2473590784	49	4836
2026-01-29 16:11:39.88	294.15	15.18	-39.7	-41.9	12.3	1.49e-04	0	61	0	2480930816	49	4780
2026-01-29 16:11:40.89	294.35	15.15	-39.7	-42.0	12.2	1.54e-04	0	61	0	2488270848	49	4823
2026-01-29 16:11:41.90	294.56	15.12	-39.6	-41.9	12.3	1.67e-04	0	61	0	2495610880	49	4763
2026-01-29 16:11:42.91	294.76	15.08	-39.6	-41.9	12.3	1.61e-04	0	61	0	2502950912	49	4787
2026-01-29 16:11:43.92	294.96	15.05	-39.7	-41.9	12.3	1.59e-04	0	61	0	2510290944	49	4767
2026-01-29 16:11:44.93	295.17	15.01	-39.6	-41.8	12.4	1.22e-04	0	61	0	2517630976	49	4739
2026-01-29 16:11:45.94	295.37	14.98	-39.6	-41.8	12.4	1.72e-04	0	62	0	2523922432	49	4747
2026-01-29 16:11:46.95	295.57	14.94	-39.5	-41.7	12.5	1.17e-04	0	61	0	2532311040	49	4691
2026-01-29 16:11:47.96	295.77	14.91	-39.5	-41.7	12.5	9.61e-05	0	61	0	2539651072	49	4681
2026-01-29 16:11:48.97	295.98	14.87	-39.5	-41.7	12.5	1.14e-04	0	61	0	2545942528	49	4657
2026-01-29 16:11:49.98	296.18	14.84	-39.5	-41.6	12.5	9.15e-05	0	61	0	2553282560	49	4639
2026-01-29 16:11:50.99	296.38	14.80	-39.6	-41.8	12.4	1.06e-04	0	61	0	2560622592	49	4710
2026-01-29 16:11:52.00	296.58	14.76	-39.6	-41.8	12.3	1.32e-04	0	61	0	2567962624	49	4723
2026-01-29 16:11:53.01	296.78	14.73	-39.6	-41.8	12.4	1.05e-04	0	61	0	2575302656	49	4737
2026-01-29 16:11:54.02	296.98	14.69	-39.6	-41.8	12.4	1.14e-04	0	61	0	2582642688	49	4727
2026-01-29 16:11:55.03	297.17	14.65	-39.6	-41.8	12.3	1.44e-04	0	61	0	2589982720	49	4756
2026-01-29 16:11:56.04	297.37	14.61	-39.6	-41.9	12.3	1.37e-04	0	61	0	2597322752	49	4765
2026-01-29 16:11:57.05	297.57	14.58	-39.6	-41.8	12.4	1.13e-04	0	61	0	2604662784	49	4726
2026-01-29 16:11:58.06	297.77	14.54	-39.6	-41.8	12.4	1.41e-04	0	61	0	2612002816	49	4742
2026-01-29 16:11:59.07	297.96	14.50	-39.6	-41.8	12.3	1.41e-04	0	61	0	2619342848	49	4754
2026-01-29 16:12:00.08	298.16	14.46	-39.7	-42.0	12.2	1.91e-04	0	61	0	2626682880	49	4843
2026-01-29 16:12:01.09	298.35	14.42	-39.8	-42.0	12.1	1.92e-04	0	61	0	2634022912	49	4857
2026-01-29 16:12:02.10	298.55	14.38	-39.8	-42.1	12.1	2.39e-04	0	62	0	2641362944	49	4882
2026-01-29 16:12:03.11	298.74	14.34	-39.9	-42.2	12.0	2.83e-04	0	62	0	2648702976	49	4954
2026-01-29 16:12:04.12	298.94	14.30	-39.9	-42.3	11.9	3.24e-04	0	61	0	2656043008	49	4999
2026-01-29 16:12:05.13	299.13	14.26	-39.9	-42.2	11.9	3.66e-04	0	61	0	2663383040	49	4982
2026-01-29 16:12:06.14	299.32	14.22	-39.9	-42.2	11.9	3.81e-04	0	61	0	2670723072	49	4965
2026-01-29 16:12:07.15	299.52	14.18	-39.8	-42.1	12.0	2.66e-04	0	61	0	2678063104	49	4922
2026-01-29 16:12:08.16	299.71	14.14	-39.9	-42.3	11.9	3.49e-04	0	61	0	2685403136	49	4993
2026-01-29 16:12:09.17	299.90	14.10	-39.8	-42.2	12.0	2.63e-04	0	61	0	2692743168	49	4939
2026-01-29 16:12:10.19	300.09	14.06	-39.9	-42.2	11.9	3.88e-04	0	62	0	2699034624	49	4975
2026-01-29 16:12:11.20	300.28	14.02	-39.9	-42.2	11.9	3.24e-04	0	61	0	2707423232	49	4952
2026-01-29 16:12:12.21	300.47	13.98	-39.9	-42.2	11.9	4.07e-04	0	61	0	2714763264	49	4975
2026-01-29 16:12:13.22	300.66	13.94	-39.9	-42.2	11.9	3.13e-04	0	61	0	2721054720	49	4966
2026-01-29 16:12:14.23	300.85	13.89	-39.9	-42.2	11.9	2.85e-04	0	62	0	2728394752	49	4946
2026-01-29 16:12:15.23	301.04	13.85	-39.8	-42.0	12.1	2.62e-04	0	62	0	2735734784	49	4861
2026-01-29 16:12:16.24	301.23	13.81	-39.8	-42.1	12.1	2.13e-04	0	61	0	2743074816	49	4885
2026-01-29 16:12:17.25	301.41	13.77	-39.8	-42.0	12.1	1.98e-04	0	61	0	2750414848	49	4858
2026-01-29 16:12:18.27	301.60	13.72	-39.8	-42.0	12.1	1.89e-04	0	61	0	2757754880	49	4866
2026-01-29 16:12:19.27	301.79	13.68	-39.8	-42.1	12.1	2.18e-04	0	61	0	2765094912	49	4885
2026-01-29 16:12:20.28	301.97	13.64	-39.8	-42.1	12.0	2.07e-04	0	61	0	2772434944	49	4906
2026-01-29 16:12:21.29	302.16	13.60	-39.9	-42.3	11.9	3.11e-04	0	61	0	2779774976	49	4984
2026-01-29 16:12:22.30	302.34	13.55	-39.8	-42.2	12.0	2.40e-04	0	62	0	2787115008	49	4927
2026-01-29 16:12:23.31	302.53	13.51	-39.9	-42.3	11.8	3.99e-04	0	61	0	2794455040	49	5021
2026-01-29 16:12:24.32	302.71	13.46	-40.0	-42.3	11.8	4.83e-04	0	61	0	2801795072	49	5039
2026-01-29 16:12:25.33	302.89	13.42	-39.9	-42.3	11.8	3.25e-04	0	62	0	2809135104	49	5003
2026-01-29 16:12:26.34	303.07	13.38	-39.9	-42.2	11.9	3.51e-04	0	61	0	2816475136	49	4966
2026-01-29 16:12:27.35	303.26	13.33	-39.8	-42.2	11.9	3.13e-04	0	61	0	2823815168	49	4935
2026-01-29 16:12:28.36	303.44	13.29	-39.9	-42.2	11.9	3.64e-04	0	61	0	2831155200	49	4953
2026-01-29 16:12:29.37	303.62	13.24	-39.9	-42.2	11.9	3.80e-04	0	61	0	2838495232	49	4974
2026-01-29 16:12:30.38	303.80	13.20	-39.9	-42.2	11.9	3.38e-04	0	61	0	2844786688	49	4943
2026-01-29 16:12:31.39	303.98	13.15	-39.9	-42.3	11.9	3.13e-04	0	61	0	2852126720	49	4988
2026-01-29 16:12:32.40	304.16	13.11	-39.9	-42.2	11.9	3.03e-04	0	61	0	2860515328	49	4953
2026-01-29 16:12:33.41	304.34	13.06	-39.9	-42.3	11.8	4.19e-04	0	62	0	2866806784	49	4999
2026-01-29 16:12:34.42	304.52	13.02	-40.0	-42.4	11.7	5.45e-04	0	62	0	2874146816	49	5068
2026-01-29 16:12:35.43	304.69	12.97	-40.0	-42.5	11.6	5.14e-04	0	61	0	2881486848	49	5110
2026-01-29 16:12:36.44	304.87	12.92	-40.0	-42.4	11.7	4.68e-04	0	61	0	2888826880	49	5070
2026-01-29 16:12:37.46	305.05	12.88	-40.0	-42.5	11.6	6.58e-04	0	61	0	2896166912	49	5103
2026-01-29 16:12:38.47	305.22	12.83	-40.0	-42.4	11.6	5.95e-04	0	62	0	2903506944	49	5099
2026-01-29 16:12:39.48	305.40	12.79	-40.1	-42.5	11.5	7.20e-04	0	61	0	2910846976	49	5154
2026-01-29 16:12:40.49	305.57	12.74	-40.1	-42.6	11.5	6.96e-04	0	61	0	2918187008	49	5169
2026-01-29 16:12:41.50	305.75	12.69	-40.1	-42.6	11.4	8.95e-04	0	61	0	2925527040	49	5200
2026-01-29 16:12:42.51	305.92	12.64	-40.1	-42.6	11.4	8.38e-04	0	62	0	2932867072	49	5210
2026-01-29 16:12:43.52	306.10	12.60	-40.1	-42.6	11.4	8.72e-04	0	61	0	2940207104	49	5194
2026-01-29 16:12:44.53	306.27	12.55	-40.1	-42.6	11.5	8.41e-04	0	61	0	2947547136	49	5187
2026-01-29 16:12:45.54	306.44	12.50	-40.0	-42.6	11.5	7.99e-04	0	61	0	2954887168	49	5166
2026-01-29 16:12:46.54	306.61	12.46	-40.1	-42.6	11.4	8.48e-04	0	61	0	2962227200	49	5213
2026-01-29 16:12:47.55	306.78	12.41	-40.0	-42.6	11.5	8.46e-04	0	62	0	2969567232	49	5174
2026-01-29 16:12:48.56	306.95	12.36	-40.1	-42.7	11.3	1.04e-03	0	61	0	2976907264	49	5266
2026-01-29 16:12:49.57	307.12	12.31	-40.0	-42.5	11.5	7.85e-04	0	61	0	2984247296	49	5155
2026-01-29 16:12:50.58	307.29	12.27	-40.1	-42.7	11.3	9.90e-04	0	61	0	2991587328	49	5227
2026-01-29 16:12:51.59	307.46	12.22	-40.3	-42.8	11.2	1.23e-03	0	61	0	2998927360	50	5025
2026-01-29 16:12:52.60	307.63	12.17	-40.2	-42.8	11.3	1.11e-03	0	61	0	3006267392	50	4990
2026-01-29 16:12:53.61	307.80	12.12	-40.3	-42.8	11.2	9.26e-04	0	62	0	3013607424	50	5032
2026-01-29 16:12:54.62	307.97	12.07	-40.3	-42.8	11.2	1.31e-03	0	61	0	3019898880	50	5016
2026-01-29 16:12:55.63	308.13	12.02	-40.3	-42.9	11.1	1.24e-03	0	61	0	3027238912	50	5065
2026-01-29 16:12:56.65	308.30	11.97	-40.3	-42.9	11.2	1.24e-03	0	61	0	3035627520	50	5043
2026-01-29 16:12:57.65	308.46	11.93	-40.3	-42.9	11.2	1.22e-03	0	62	0	3041918976	50	5047
2026-01-29 16:12:58.66	308.63	11.88	-40.2	-42.8	11.2	1.17e-03	0	61	0	3049259008	50	5001
2026-01-29 16:12:59.67	308.79	11.83	-40.2	-42.8	11.2	1.26e-03	0	61	0	3056599040	50	4995
2026-01-29 16:13:00.68	308.96	11.78	-40.2	-42.7	11.3	1.34e-03	0	61	0	3063939072	50	4965
2026-01-29 16:13:01.70	309.12	11.73	-40.2	-42.8	11.2	1.27e-03	0	61	0	3071279104	50	4995
2026-01-29 16:13:02.71	309.29	11.68	-40.2	-42.8	11.2	1.23e-03	0	61	0	3078619136	50	4999
2026-01-29 16:13:03.72	309.45	11.63	-40.3	-42.9	11.1	1.09e-03	0	61	0	3085959168	50	5046
2026-01-29 16:13:04.73	309.61	11.58	-40.2	-42.8	11.2	1.55e-03	0	61	0	3093299200	50	5002
2026-01-29 16:13:05.73	309.77	11.53	-40.3	-42.9	11.1	1.39e-03	0	62	0	3100639232	50	5044
2026-01-29 16:13:06.74	309.93	11.48	-40.4	-43.0	11.0	1.76e-03	0	62	0	3107979264	50	5130
2026-01-29 16:13:07.75	310.09	11.43	-40.4	-43.0	10.9	1.68e-03	0	62	0	3115319296	50	5134
2026-01-29 16:13:08.76	310.25	11.38	-40.4	-43.1	10.9	1.71e-03	0	61	0	3122659328	50	5174
2026-01-29 16:13:09.77	310.41	11.33	-40.4	-43.0	10.9	2.12e-03	0	62	0	3129999360	50	5158
2026-01-29 16:13:10.78	310.57	11.28	-40.4	-43.0	10.9	2.12e-03	0	61	0	3137339392	50	5157
2026-01-29 16:13:11.79	310.73	11.23	-40.4	-43.1	10.8	1.84e-03	0	62	0	3144679424	50	5173
2026-01-29 16:13:12.80	310.89	11.18	-40.4	-43.0	10.9	2.32e-03	0	61	0	3152019456	50	5134
2026-01-29 16:13:13.81	311.04	11.13	-40.4	-43.0	10.9	2.01e-03	0	61	0	3159359488	50	5130
2026-01-29 16:13:14.82	311.20	11.08	-40.3	-42.9	11.0	1.76e-03	0	61	0	3165650944	50	5099
2026-01-29 16:13:15.83	311.36	11.03	-40.3	-43.0	10.9	1.71e-03	0	62	0	3172990976	50	5111
2026-01-29 16:13:16.85	311.51	10.98	-40.3	-43.0	10.9	1.76e-03	0	61	0	3181379584	50	5109
2026-01-29 16:13:17.86	311.67	10.93	-40.3	-42.9	10.9	1.85e-03	0	61	0	3187671040	50	5094
2026-01-29 16:13:18.87	311.82	10.88	-40.3	-42.9	11.0	1.57e-03	0	61	0	3195011072	50	5052
2026-01-29 16:13:19.88	311.98	10.83	-40.3	-42.8	11.1	1.45e-03	0	61	0	3202351104	50	5029
2026-01-29 16:13:20.89	312.13	10.78	-40.3	-43.0	10.9	1.78e-03	0	62	0	3209691136	50	5104
2026-01-29 16:13:21.90	312.29	10.72	-40.4	-43.0	10.8	2.11e-03	0	62	0	3217031168	50	5152
2026-01-29 16:13:22.91	312.44	10.67	-40.4	-43.0	10.9	1.85e-03	0	61	0	3224371200	50	5130
2026-01-29 16:13:23.92	312.59	10.62	-40.5	-43.1	10.7	2.25e-03	0	61	0	3231711232	50	5213
2026-01-29 16:13:24.93	312.74	10.57	-40.4	-43.1	10.8	2.45e-03	0	61	0	3239051264	50	5184
2026-01-29 16:13:25.94	312.89	10.52	-40.5	-43.2	10.7	2.60e-03	0	62	0	3246391296	50	5241
2026-01-29 16:13:26.95	313.04	10.47	-40.5	-43.2	10.6	3.09e-03	0	62	0	3253731328	50	5276
2026-01-29 16:13:27.97	313.19	10.42	-40.6	-43.4	10.4	3.44e-03	0	61	0	3261071360	50	5391
2026-01-29 16:13:28.98	313.34	10.36	-40.6	-43.4	10.4	3.94e-03	0	62	0	3268411392	50	5397
2026-01-29 16:13:29.99	313.49	10.31	-40.7	-43.5	10.3	4.40e-03	0	61	0	3275751424	50	5455
2026-01-29 16:13:31.00	313.64	10.26	-40.7	-43.5	10.3	5.50e-03	0	61	0	3283091456	51	5129
2026-01-29 16:13:32.01	313.79	10.21	-40.6	-43.4	10.5	3.46e-03	0	62	0	3290431488	51	5052
2026-01-29 16:13:33.02	313.94	10.16	-40.6	-43.4	10.3	4.66e-03	0	62	0	3297771520	51	5095
2026-01-29 16:13:34.03	314.08	10.11	-40.6	-43.5	10.3	4.90e-03	0	61	0	3305111552	51	5113
2026-01-29 16:13:35.04	314.23	10.05	-40.6	-43.4	10.3	4.59e-03	0	62	0	3312451584	51	5099
2026-01-29 16:13:36.05	314.38	10.00	-40.6	-43.4	10.4	3.59e-03	0	61	0	3319791616	51	5071
2026-01-29 16:13:37.06	314.52	9.95	-40.6	-43.3	10.5	3.92e-03	0	61	0	3327131648	51	5038
2026-01-29 16:13:38.07	314.67	9.90	-40.5	-43.3	10.5	3.09e-03	0	62	0	3334471680	51	5008
2026-01-29 16:13:39.08	314.81	9.85	-40.5	-43.2	10.6	2.74e-03	0	61	0	3340763136	51	4954
2026-01-29 16:13:40.10	314.96	9.79	-40.4	-43.1	10.7	2.62e-03	0	61	0	3349151744	51	4920
2026-01-29 16:13:41.11	315.10	9.74	-40.4	-43.1	10.8	2.72e-03	0	62	0	3356491776	51	4875
2026-01-29 16:13:42.12	315.24	9.69	-40.4	-43.1	10.8	2.71e-03	0	61	0	3362783232	51	4871
2026-01-29 16:13:43.13	315.39	9.64	-40.3	-42.9	10.9	1.89e-03	0	61	0	3370123264	51	4810
2026-01-29 16:13:44.14	315.53	9.59	-40.4	-43.1	10.7	2.04e-03	0	61	0	3377463296	51	4886
2026-01-29 16:13:45.15	315.67	9.53	-40.4	-43.1	10.8	2.43e-03	0	62	0	3384803328	51	4879
2026-01-29 16:13:46.16	315.81	9.48	-40.4	-43.1	10.8	2.35e-03	0	61	0	3392143360	51	4879
2026-01-29 16:13:47.17	315.95	9.43	-40.4	-43.1	10.7	2.77e-03	0	62	0	3399483392	51	4911
2026-01-29 16:13:48.18	316.09	9.38	-40.4	-43.2	10.6	3.04e-03	0	61	0	3406823424	51	4946
2026-01-29 16:13:49.19	316.23	9.32	-40.5	-43.3	10.5	3.67e-03	0	62	0	3414163456	51	5012
2026-01-29 16:13:50.20	316.37	9.27	-40.6	-43.4	10.3	4.06e-03	0	61	0	3421503488	51	5092
2026-01-29 16:13:51.22	316.51	9.22	-40.6	-43.5	10.3	4.69e-03	0	62	0	3428843520	51	5142
2026-01-29 16:13:52.23	316.65	9.17	-40.8	-43.7	10.1	6.02e-03	0	62	0	3436183552	51	5256
2026-01-29 16:13:53.24	316.78	9.11	-40.8	-43.7	10.0	7.18e-03	0	62	0	3443523584	51	5251
2026-01-29 16:13:54.25	316.92	9.06	-40.9	-43.9	9.8	8.67e-03	0	62	0	3450863616	51	5378
2026-01-29 16:13:55.26	317.06	9.01	-40.9	-43.9	9.8	8.80e-03	0	62	0	3458203648	51	5382
2026-01-29 16:13:56.27	317.19	8.95	-41.0	-44.1	9.7	1.11e-02	0	62	0	3465543680	51	5475
2026-01-29 16:13:57.28	317.33	8.90	-40.9	-44.0	9.8	1.01e-02	0	62	0	3472883712	51	5422
2026-01-29 16:13:58.29	317.46	8.85	-40.9	-44.0	9.7	1.08e-02	0	62	0	3480223744	51	5445
2026-01-29 16:13:59.30	317.60	8.80	-40.9	-44.0	9.7	1.10e-02	0	61	0	3487563776	51	5463
2026-01-29 16:14:00.31	317.73	8.74	-41.0	-44.1	9.6	1.12e-02	0	62	0	3494903808	51	5487
2026-01-29 16:14:01.33	317.87	8.69	-40.9	-43.9	9.8	9.30e-03	0	62	0	3502243840	51	5370
2026-01-29 16:14:02.34	318.00	8.64	-40.9	-43.9	9.8	9.09e-03	0	61	0	3508535296	51	5369
2026-01-29 16:14:03.35	318.13	8.59	-40.9	-43.9	9.8	9.01e-03	0	61	0	3516923904	51	5393
2026-01-29 16:14:04.35	318.27	8.53	-40.8	-43.8	9.9	8.94e-03	0	62	0	3524263936	51	5337
2026-01-29 16:14:05.37	318.40	8.48	-40.8	-43.8	9.8	8.20e-03	0	62	0	3530555392	51	5331
2026-01-29 16:14:06.38	318.53	8.43	-40.8	-43.8	9.9	7.91e-03	0	62	0	3537895424	51	5299
2026-01-29 16:14:07.39	318.66	8.37	-40.7	-43.7	10.0	6.36e-03	0	62	0	3545235456	51	5226
2026-01-29 16:14:08.40	318.79	8.32	-40.8	-43.8	9.9	7.67e-03	0	62	0	3552575488	51	5319
2026-01-29 16:14:09.41	318.92	8.27	-40.7	-43.7	10.0	6.48e-03	0	62	0	3559915520	51	5220
2026-01-29 16:14:10.42	319.05	8.22	-40.6	-43.5	10.2	4.93e-03	0	61	0	3567255552	51	5120
2026-01-29 16:14:11.43	319.18	8.16	-40.6	-43.5	10.2	5.57e-03	0	62	0	3574595584	51	5120
2026-01-29 16:14:12.44	319.31	8.11	-40.6	-43.5	10.2	4.82e-03	0	61	0	3581935616	51	5113
2026-01-29 16:14:13.45	319.44	8.06	-40.6	-43.5	10.3	5.77e-03	0	62	0	3589275648	51	5106
2026-01-29 16:14:14.46	319.57	8.00	-41.2	-44.5	9.3	7.44e-03	0	62	0	3596615680	51	5741
2026-01-29 16:14:15.47	319.69	7.95	-44.6	-55.2	3.8	8.45e-01	0	61	104	3597664256	58	13142
2026-01-29 16:14:16.48	319.82	7.90	-44.9	-55.7	3.8	8.46e-01	0	61	104	3597664256	59	13119
2026-01-29 16:14:17.49	319.95	7.84	-45.1	-55.8	3.8	8.46e-01	0	62	104	3597664256	59	13392
2026-01-29 16:14:18.50	320.07	7.79	-45.2	-56.2	3.8	8.46e-01	0	62	104	3597664256	60	13146
2026-01-29 16:14:19.51	320.20	7.74	-45.3	-56.4	3.8	8.46e-01	0	62	104	3597664256	60	13454
2026-01-29 16:14:20.52	320.32	7.69	-45.4	-56.4	3.8	8.46e-01	0	62	104	3597664256	60	13547
2026-01-29 16:14:21.53	320.45	7.63	-45.4	-56.5	3.8	8.45e-01	0	62	104	3597664256	60	13635
2026-01-29 16:14:22.55	320.57	7.58	-45.5	-56.5	3.8	8.45e-01	0	62	104	3597664256	60	13657
2026-01-29 16:14:23.56	320.70	7.53	-45.5	-56.5	3.8	8.46e-01	0	62	104	3597664256	60	13665
2026-01-29 16:14:24.57	320.82	7.47	-45.4	-56.5	3.8	8.45e-01	0	62	104	3597664256	60	13624
2026-01-29 16:14:25.58	320.94	7.42	-45.3	-56.4	3.8	8.46e-01	0	62	104	3597664256	60	13490
2026-01-29 16:14:26.59	321.07	7.37	-45.3	-56.4	3.8	8.46e-01	0	61	104	3597664256	60	13454
2026-01-29 16:14:27.60	321.19	7.31	-45.4	-56.4	3.8	8.45e-01	0	62	104	3597664256	60	13498
2026-01-29 16:14:28.61	321.31	7.26	-45.3	-56.4	3.8	8.45e-01	0	61	104	3597664256	60	13522
2026-01-29 16:14:29.62	321.43	7.21	-45.3	-56.4	3.8	8.45e-01	0	62	104	3597664256	60	13461
2026-01-29 16:14:30.63	321.55	7.16	-45.3	-56.4	3.8	8.45e-01	0	62	104	3597664256	60	13464
2026-01-29 16:14:31.64	321.67	7.10	-45.3	-56.4	3.8	8.46e-01	0	62	104	3597664256	60	13424
2026-01-29 16:14:32.65	321.79	7.05	-45.3	-56.3	3.8	8.47e-01	0	62	104	3597664256	60	13401
2026-01-29 16:14:33.66	321.91	7.00	-45.3	-56.4	3.8	8.46e-01	0	62	104	3597664256	60	13446
2026-01-29 16:14:34.67	322.03	6.94	-45.3	-56.4	3.8	8.46e-01	0	61	104	3597664256	60	13447
2026-01-29 16:14:35.69	322.15	6.89	-45.3	-56.4	3.8	8.47e-01	0	62	104	3597664256	60	13435
2026-01-29 16:14:36.70	322.27	6.84	-45.3	-56.3	3.8	8.47e-01	0	62	104	3597664256	60	13410
2026-01-29 16:14:37.71	322.39	6.78	-45.3	-56.4	3.8	8.46e-01	0	62	104	3597664256	60	13448
2026-01-29 16:14:38.72	322.50	6.73	-45.2	-56.3	3.8	8.46e-01	0	61	104	3597664256	60	13330
2026-01-29 16:14:39.73	322.62	6.68	-45.2	-56.3	3.8	8.47e-01	0	62	104	3597664256	60	13398
2026-01-29 16:14:40.74	322.74	6.63	-45.2	-56.2	3.8	8.46e-01	0	62	104	3597664256	60	13238
2026-01-29 16:14:41.75	322.85	6.57	-45.3	-56.4	3.8	8.46e-01	0	62	104	3597664256	60	13420
2026-01-29 16:14:42.76	322.97	6.52	-45.3	-56.4	3.8	8.46e-01	0	62	104	3597664256	60	13433
2026-01-29 16:14:43.77	323.09	6.47	-45.3	-56.4	3.8	8.45e-01	0	62	104	3597664256	60	13425
2026-01-29 16:14:44.78	323.20	6.41	-45.3	-56.4	3.8	8.46e-01	0	62	104	3597664256	60	13438
2026-01-29 16:14:45.79	323.32	6.36	-45.3	-56.3	3.8	8.46e-01	0	62	104	3597664256	60	13370
2026-01-29 16:14:46.80	323.43	6.31	-45.3	-56.3	3.8	8.45e-01	0	61	104	3597664256	60	13403
2026-01-29 16:14:47.81	323.54	6.26	-45.3	-56.3	3.8	8.46e-01	0	62	104	3597664256	60	13379
2026-01-29 16:14:48.82	323.66	6.20	-45.3	-56.4	3.8	8.46e-01	0	62	104	3597664256	60	13428
2026-01-29 16:14:49.83	323.77	6.15	-45.3	-56.4	3.8	8.47e-01	0	62	104	3597664256	60	13422
2026-01-29 16:14:50.84	323.88	6.10	-45.3	-56.3	3.8	8.47e-01	0	62	104	3597664256	60	13373
2026-01-29 16:14:51.85	324.00	6.04	-45.3	-56.3	3.8	8.45e-01	0	62	104	3597664256	60	13390
2026-01-29 16:14:52.86	324.11	5.99	-45.3	-56.3	3.8	8.46e-01	0	62	104	3597664256	60	13385
2026-01-29 16:14:53.87	324.22	5.94	-45.3	-56.3	3.8	8.47e-01	0	61	104	3597664256	60	13382
2026-01-29 16:14:54.88	324.33	5.89	-45.3	-56.3	3.8	8.47e-01	0	62	104	3597664256	60	13407
2026-01-29 16:14:55.90	324.44	5.83	-45.3	-56.4	3.8	8.47e-01	0	62	104	3597664256	60	13420
2026-01-29 16:14:56.91	324.55	5.78	-45.3	-56.3	3.8	8.46e-01	0	62	104	3597664256	60	13409
2026-01-29 16:14:57.92	324.66	5.73	-45.3	-56.4	3.8	8.45e-01	0	61	104	3597664256	60	13420
2026-01-29 16:14:58.93	324.77	5.68	-45.3	-56.4	3.8	8.45e-01	0	62	104	3597664256	60	13415
2026-01-29 16:14:59.94	324.88	5.62	-45.3	-56.3	3.8	8.46e-01	0	62	104	3597664256	60	13383
2026-01-29 16:15:00.95	324.99	5.57	-45.3	-56.3	3.8	8.45e-01	0	62	104	3597664256	60	13386
2026-01-29 16:15:01.96	325.10	5.52	-45.3	-56.3	3.8	8.45e-01	0	62	104	3597664256	60	13380
2026-01-29 16:15:02.97	325.21	5.47	-45.3	-56.4	3.8	8.47e-01	0	62	104	3597664256	60	13439
2026-01-29 16:15:03.98	325.31	5.41	-45.2	-56.3	3.8	8.46e-01	0	62	104	3597664256	60	13376
2026-01-29 16:15:04.99	325.42	5.36	-45.3	-56.3	3.8	8.46e-01	0	62	104	3597664256	60	13413
2026-01-29 16:15:06.00	325.53	5.31	-45.3	-56.3	3.8	8.45e-01	0	62	104	3597664256	60	13414
2026-01-29 16:15:07.01	325.64	5.26	-45.3	-56.3	3.8	8.46e-01	0	62	104	3597664256	60	13412
2026-01-29 16:15:08.02	325.74	5.20	-45.3	-56.3	3.8	8.46e-01	0	62	104	3597664256	60	13379
2026-01-29 16:15:09.03	325.85	5.15	-45.3	-56.3	3.8	8.46e-01	0	62	104	3597664256	60	13382
2026-01-29 16:15:10.04	325.95	5.10	-45.3	-56.3	3.8	8.46e-01	0	62	104	3597664256	60	13408
2026-01-29 16:15:11.06	326.06	5.05	-45.3	-56.3	3.8	8.46e-01	0	62	104	3597664256	60	13401
2026-01-29 16:15:12.07	326.16	4.99	-45.3	-56.3	3.8	8.47e-01	0	62	104	3597664256	60	13354
2026-01-29 16:15:13.07	326.27	4.94	-45.3	-56.3	3.8	8.46e-01	0	62	104	3597664256	60	13402
2026-01-29 16:15:14.09	326.37	4.89	-45.3	-56.3	3.8	8.45e-01	0	62	104	3597664256	60	13391
2026-01-29 16:15:15.10	326.48	4.84	-45.3	-56.4	3.8	8.46e-01	0	62	104	3597664256	60	13422
2026-01-29 16:15:16.11	326.58	4.78	-45.3	-56.3	3.8	8.47e-01	0	62	104	3597664256	60	13373
2026-01-29 16:15:17.12	326.68	4.73	-45.3	-56.3	3.8	8.46e-01	0	62	104	3597664256	60	13393
2026-01-29 16:15:18.13	326.79	4.68	-45.3	-56.3	3.8	8.45e-01	0	62	104	3597664256	60	13406
2026-01-29 16:15:19.14	326.89	4.63	-45.3	-56.3	3.8	8.46e-01	0	62	104	3597664256	60	13397
2026-01-29 16:15:20.15	326.99	4.58	-45.3	-56.3	3.8	8.46e-01	0	62	104	3597664256	60	13381
2026-01-29 16:15:21.16	327.09	4.52	-45.3	-56.3	3.8	8.45e-01	0	62	104	3597664256	60	13409
2026-01-29 16:15:22.17	327.19	4.47	-45.3	-56.3	3.8	8.47e-01	0	62	104	3597664256	60	13412
2026-01-29 16:15:23.18	327.29	4.42	-45.2	-56.3	3.8	8.45e-01	0	62	104	3597664256	60	13392
2026-01-29 16:15:24.19	327.39	4.37	-45.3	-56.3	3.8	8.46e-01	0	62	104	3597664256	60	13380
2026-01-29 16:15:25.20	327.49	4.32	-45.3	-56.3	3.8	8.46e-01	0	62	104	3597664256	60	13364
2026-01-29 16:15:26.21	327.59	4.27	-45.3	-56.3	3.8	8.46e-01	0	62	104	3597664256	60	13381
2026-01-29 16:15:27.22	327.69	4.21	-45.2	-56.3	3.8	8.45e-01	0	62	104	3597664256	60	13353
2026-01-29 16:15:28.23	327.79	4.16	-45.3	-56.3	3.8	8.46e-01	0	62	104	3597664256	60	13368
2026-01-29 16:15:29.24	327.89	4.11	-45.2	-56.3	3.8	8.47e-01	0	62	104	3597664256	60	13358
2026-01-29 16:15:30.25	327.99	4.06	-45.3	-56.3	3.8	8.46e-01	0	62	104	3597664256	60	13413
2026-01-29 16:15:31.26	328.09	4.01	-45.3	-56.3	3.8	8.45e-01	0	62	104	3597664256	60	13361
2026-01-29 16:15:32.27	328.19	3.95	-45.3	-56.4	3.8	8.46e-01	0	62	104	3597664256	60	13419
2026-01-29 16:15:33.28	328.29	3.90	-45.3	-56.3	3.8	8.47e-01	0	62	104	3597664256	60	13387
2026-01-29 16:15:34.29	328.38	3.85	-45.3	-56.3	3.8	8.46e-01	0	62	104	3597664256	60	13370
2026-01-29 16:15:35.31	328.48	3.80	-45.2	-56.3	3.8	8.46e-01	0	62	104	3597664256	60	13398
2026-01-29 16:15:36.32	328.58	3.75	-45.3	-56.3	3.8	8.45e-01	0	62	104	3597664256	60	13358
2026-01-29 16:15:37.33	328.67	3.70	-45.2	-56.3	3.8	8.46e-01	0	62	104	3597664256	60	13362
2026-01-29 16:15:38.34	328.77	3.64	-45.2	-56.3	3.8	8.47e-01	0	62	104	3597664256	60	13383
2026-01-29 16:15:39.35	328.86	3.59	-45.0	-56.2	3.8	8.46e-01	0	62	104	3597664256	60	13187
2026-01-29 16:15:40.36	328.96	3.54	-45.3	-56.3	3.8	8.47e-01	0	62	104	3597664256	60	13397
2026-01-29 16:15:41.37	329.06	3.49	-45.3	-56.3	3.8	8.46e-01	0	62	104	3597664256	60	13382
2026-01-29 16:15:42.38	329.15	3.44	-45.2	-56.3	3.8	8.46e-01	0	62	104	3597664256	60	13374
2026-01-29 16:15:43.39	329.24	3.39	-45.3	-56.3	3.8	8.47e-01	0	62	104	3597664256	60	13375
2026-01-29 16:15:44.40	329.34	3.34	-45.2	-56.3	3.8	8.46e-01	0	62	104	3597664256	60	13336
2026-01-29 16:15:45.41	329.43	3.29	-45.2	-56.3	3.8	8.46e-01	0	62	104	3597664256	60	13346
2026-01-29 16:15:46.42	329.53	3.23	-45.3	-56.3	3.8	8.47e-01	0	62	104	3597664256	60	13397
2026-01-29 16:15:47.43	329.62	3.18	-45.3	-56.3	3.8	8.46e-01	0	62	104	3597664256	60	13390
2026-01-29 16:15:48.45	329.71	3.13	-45.2	-56.3	3.8	8.45e-01	0	62	104	3597664256	60	13365
2026-01-29 16:15:49.46	329.81	3.08	-45.2	-56.3	3.8	8.47e-01	0	62	104	3597664256	60	13391
