passes_logs/2026/01/29/R2.0S_Moscow/R2.0S_Moscow__20260129_082401_SUOMI_NPP_rec.log

#Pass ID: 20260129_082401_SUOMI NPP
#Satellite: SUOMI NPP
#Configuration: NPP
#almurnet v.1.7.20251203
#Start time: 2026-01-29 08:24:01

#Version: 2.2.20231116
#Station: R2.0S_Moscow
#Location: 37.707566 lon 55.798166 lat
#TLE: 1 37849U 11061A   26027.93236865  .00000148  00000+0  91411-4 0  9991
#TLE: 2 37849  98.7823 329.8704 0002085  41.3231 318.8102 14.19530777738546

#Time	Az	El	Level	Level2	SNR	BER	BlckErr	Temp	State	Recorded	gain1	gain2
2026-01-29 08:24:01.44	113.71	1.99	-36.2	-54.7	4.0	1.49e+00	0	48	0	0	48	23402
2026-01-29 08:24:02.44	113.65	2.05	-33.1	-53.0	3.9	1.49e+00	0	49	104	0	40	30456
2026-01-29 08:24:03.45	113.58	2.10	-34.5	-54.2	3.5	1.49e+00	0	49	104	0	39	37235
2026-01-29 08:24:04.46	113.51	2.16	-35.1	-53.2	3.8	1.49e+00	0	49	104	0	38	35016
2026-01-29 08:24:05.47	113.45	2.22	-37.3	-55.2	4.0	1.49e+00	0	49	104	0	41	37074
2026-01-29 08:24:06.48	113.38	2.28	-35.6	-53.8	4.2	1.49e+00	0	49	104	0	41	31522
2026-01-29 08:24:07.49	113.32	2.33	-33.8	-54.9	3.8	1.49e+00	0	49	104	0	37	45092
2026-01-29 08:24:08.50	113.25	2.39	-36.9	-55.0	3.9	1.49e+00	0	49	104	0	46	27164
2026-01-29 08:24:09.51	113.18	2.45	-32.0	-53.0	3.8	1.49e+00	0	49	104	0	37	36268
2026-01-29 08:24:10.52	113.12	2.51	-32.9	-53.5	3.7	1.49e+00	0	49	104	0	45	24240
2026-01-29 08:24:11.53	113.05	2.57	-38.3	-54.0	3.8	1.49e+00	0	49	104	0	45	25655
2026-01-29 08:24:12.54	112.98	2.63	-36.3	-55.0	3.9	1.49e+00	0	49	104	0	51	20396
2026-01-29 08:24:13.55	112.91	2.68	-33.7	-52.5	4.1	1.49e+00	0	49	104	0	36	36431
2026-01-29 08:24:14.56	112.84	2.74	-38.9	-55.3	3.9	1.49e+00	0	49	104	0	46	28036
2026-01-29 08:24:15.57	112.78	2.80	-34.5	-53.4	3.9	1.49e+00	0	49	104	0	47	21315
2026-01-29 08:24:16.58	112.71	2.86	-33.2	-53.4	4.2	1.49e+00	0	50	104	0	45	24119
2026-01-29 08:24:17.59	112.64	2.92	-35.3	-53.8	3.9	1.49e+00	0	50	104	0	42	29699
2026-01-29 08:24:18.60	112.57	2.98	-40.3	-55.4	3.9	1.49e+00	0	50	104	0	51	21313
2026-01-29 08:24:19.61	112.50	3.04	-37.4	-54.8	4.0	1.49e+00	0	50	104	0	46	26759
2026-01-29 08:24:20.62	112.43	3.09	-32.9	-54.0	4.1	1.49e+00	0	50	104	0	38	38545
2026-01-29 08:24:21.63	112.36	3.15	-39.9	-55.7	4.0	1.49e+00	0	50	104	0	47	27723
2026-01-29 08:24:22.64	112.29	3.21	-33.8	-53.6	4.1	1.49e+00	0	50	104	0	39	34875
2026-01-29 08:24:23.65	112.22	3.27	-36.9	-55.0	3.9	1.49e+00	0	50	104	0	45	28886
2026-01-29 08:24:24.66	112.15	3.33	-37.5	-56.0	3.8	1.49e+00	0	50	104	0	49	25801
2026-01-29 08:24:25.67	112.08	3.39	-38.1	-54.4	3.9	1.49e+00	0	50	104	0	45	26925
2026-01-29 08:24:26.68	112.00	3.45	-39.6	-55.7	3.6	1.49e+00	0	50	104	0	50	23497
2026-01-29 08:24:27.69	111.93	3.51	-40.3	-55.3	3.8	1.49e+00	0	50	104	0	51	21155
2026-01-29 08:24:28.70	111.86	3.57	-34.8	-53.6	3.7	1.49e+00	0	50	104	0	42	29230
2026-01-29 08:24:29.71	111.79	3.63	-34.9	-52.9	3.8	1.49e+00	0	50	104	0	43	25331
2026-01-29 08:24:30.72	111.71	3.69	-39.8	-55.6	4.0	1.49e+00	0	51	104	0	51	21836
2026-01-29 08:24:31.73	111.64	3.75	-32.1	-51.6	3.9	1.49e+00	0	51	104	0	38	29299
2026-01-29 08:24:32.74	111.57	3.81	-34.8	-53.5	3.9	1.49e+00	0	51	104	0	39	34323
2026-01-29 08:24:33.75	111.49	3.87	-34.3	-52.5	3.8	1.49e+00	0	51	104	0	36	36212
2026-01-29 08:24:34.76	111.42	3.93	-33.1	-53.9	3.5	1.49e+00	0	51	104	0	39	35908
2026-01-29 08:24:35.77	111.35	3.99	-36.3	-55.1	3.9	1.49e+00	0	51	104	0	45	29331
2026-01-29 08:24:36.78	111.27	4.05	-39.8	-55.6	4.1	1.49e+00	0	51	104	0	45	30930
2026-01-29 08:24:37.79	111.20	4.11	-38.6	-54.9	3.9	1.49e+00	0	51	104	0	50	21321
2026-01-29 08:24:38.80	111.12	4.17	-37.5	-55.0	4.0	1.49e+00	0	51	104	0	45	28734
2026-01-29 08:24:39.81	111.04	4.23	-35.4	-55.7	3.9	1.49e+00	0	51	104	0	46	29538
2026-01-29 08:24:40.82	110.97	4.29	-33.6	-53.7	3.9	1.49e+00	0	51	104	0	44	26236
2026-01-29 08:24:41.83	110.89	4.35	-40.6	-55.6	3.7	1.49e+00	0	51	104	0	46	29077
2026-01-29 08:24:42.84	110.81	4.41	-37.7	-54.2	4.0	1.49e+00	0	51	104	0	45	26243
2026-01-29 08:24:43.86	110.74	4.47	-40.7	-56.0	4.0	1.49e+00	0	51	104	0	50	24308
2026-01-29 08:24:44.86	110.66	4.54	-39.8	-55.2	3.8	1.49e+00	0	51	104	0	51	20968
2026-01-29 08:24:45.88	110.58	4.60	-38.2	-54.8	3.8	1.49e+00	0	52	104	0	47	25113
2026-01-29 08:24:46.89	110.50	4.66	-34.6	-54.1	3.9	1.49e+00	0	52	104	0	39	36750
2026-01-29 08:24:47.89	110.43	4.72	-37.4	-53.7	3.9	1.49e+00	0	52	104	0	44	26330
2026-01-29 08:24:48.90	110.35	4.78	-39.3	-54.1	4.0	1.49e+00	0	52	104	0	49	20610
2026-01-29 08:24:49.91	110.27	4.84	-36.6	-54.8	3.9	1.49e+00	0	52	104	0	46	26494
2026-01-29 08:24:50.92	110.19	4.90	-31.5	-51.9	3.6	1.49e+00	0	52	104	0	35	36064
2026-01-29 08:24:51.93	110.11	4.97	-31.2	-51.8	3.9	1.49e+00	0	52	104	0	34	37513
2026-01-29 08:24:52.94	110.03	5.03	-35.5	-52.9	4.2	1.49e+00	0	52	104	0	46	21350
2026-01-29 08:24:53.95	109.95	5.09	-34.2	-53.8	3.8	1.49e+00	0	52	104	0	40	33588
2026-01-29 08:24:54.96	109.87	5.15	-35.9	-54.4	4.2	1.49e+00	0	52	104	0	41	33711
2026-01-29 08:24:55.97	109.79	5.21	-32.2	-53.4	4.1	1.49e+00	0	52	104	0	39	34058
2026-01-29 08:24:56.98	109.71	5.28	-38.4	-54.1	4.0	1.49e+00	0	52	104	0	48	21895
2026-01-29 08:24:58.00	109.62	5.34	-29.9	-51.0	3.9	1.49e+00	0	52	104	0	31	40799
2026-01-29 08:24:59.00	109.54	5.40	-37.8	-54.4	4.0	1.49e+00	0	52	104	0	48	22625
2026-01-29 08:25:00.01	109.46	5.46	-30.4	-50.4	3.9	1.49e+00	0	52	104	0	33	34030
2026-01-29 08:25:01.02	109.38	5.52	-38.2	-55.2	3.7	1.49e+00	0	52	104	0	46	27926
2026-01-29 08:25:02.03	109.29	5.59	-39.8	-55.4	4.0	1.49e+00	0	52	104	0	43	33975
2026-01-29 08:25:03.04	109.21	5.65	-40.7	-54.3	3.9	1.49e+00	0	52	104	0	47	23779
2026-01-29 08:25:04.05	109.12	5.71	-39.7	-54.4	4.0	1.49e+00	0	52	104	0	47	23907
2026-01-29 08:25:05.06	109.04	5.78	-28.6	-51.3	3.9	1.49e+00	0	52	104	0	31	42093
2026-01-29 08:25:06.07	108.96	5.84	-40.6	-55.6	3.5	1.49e+00	0	52	104	0	44	32790
2026-01-29 08:25:07.08	108.87	5.90	-38.9	-54.6	4.0	1.49e+00	0	52	104	0	43	30960
2026-01-29 08:25:08.09	108.78	5.97	-35.7	-54.0	3.9	1.49e+00	0	53	104	0	43	28979
2026-01-29 08:25:09.10	108.70	6.03	-32.2	-52.8	3.9	1.49e+00	0	53	104	0	39	31759
2026-01-29 08:25:10.11	108.61	6.09	-33.9	-53.5	3.7	1.49e+00	0	53	104	0	41	30556
2026-01-29 08:25:11.12	108.53	6.16	-34.6	-53.2	4.0	1.49e+00	0	53	104	0	40	31304
2026-01-29 08:25:12.13	108.44	6.22	-31.6	-52.2	4.0	1.49e+00	0	53	104	0	40	27995
2026-01-29 08:25:13.14	108.35	6.28	-35.0	-54.0	3.7	1.49e+00	0	53	104	0	40	34295
2026-01-29 08:25:14.15	108.26	6.35	-32.3	-51.0	4.0	1.49e+00	0	53	104	0	30	43188
2026-01-29 08:25:15.16	108.18	6.41	-33.9	-52.9	3.7	1.49e+00	0	53	104	0	40	30153
2026-01-29 08:25:16.17	108.09	6.47	-33.5	-52.9	3.9	1.49e+00	0	53	104	0	42	26938
2026-01-29 08:25:17.18	108.00	6.54	-31.7	-51.9	3.8	1.50e+00	0	53	104	0	33	40430
2026-01-29 08:25:18.19	107.91	6.60	-35.0	-53.3	4.0	1.49e+00	0	53	104	0	41	29781
2026-01-29 08:25:19.20	107.82	6.67	-36.9	-54.6	3.8	1.49e+00	0	53	104	0	50	20707
2026-01-29 08:25:20.21	107.73	6.73	-40.4	-55.4	3.8	1.49e+00	0	53	104	0	49	23944
2026-01-29 08:25:21.22	107.64	6.80	-38.0	-55.1	3.7	1.49e+00	0	53	104	0	48	24607
2026-01-29 08:25:22.23	107.55	6.86	-38.0	-54.6	4.0	1.49e+00	0	53	104	0	48	23301
2026-01-29 08:25:23.24	107.45	6.92	-32.5	-54.4	3.8	1.49e+00	0	53	104	0	43	30355
2026-01-29 08:25:24.25	107.36	6.99	-35.3	-54.1	3.9	1.50e+00	0	53	104	0	41	32592
2026-01-29 08:25:25.26	107.27	7.05	-39.0	-54.5	3.8	1.49e+00	0	53	104	0	45	27325
2026-01-29 08:25:26.27	107.18	7.12	-37.9	-54.6	4.0	1.49e+00	0	53	104	0	47	24462
2026-01-29 08:25:27.28	107.08	7.18	-39.3	-55.4	3.9	1.49e+00	0	53	104	0	46	28487
2026-01-29 08:25:28.29	106.99	7.25	-38.2	-55.4	4.1	1.49e+00	0	54	104	0	49	23961
2026-01-29 08:25:29.30	106.90	7.31	-38.5	-54.7	3.9	1.49e+00	0	53	104	0	50	20800
2026-01-29 08:25:30.31	106.80	7.38	-33.9	-54.2	3.9	1.49e+00	0	54	104	0	39	37326
2026-01-29 08:25:31.32	106.71	7.44	-37.0	-54.0	3.6	1.49e+00	0	54	104	0	43	28872
2026-01-29 08:25:32.33	106.61	7.51	-36.8	-54.3	3.5	1.49e+00	0	53	104	0	45	26638
2026-01-29 08:25:33.34	106.52	7.58	-36.2	-53.7	4.0	1.49e+00	0	54	104	0	40	33080
2026-01-29 08:25:34.35	106.42	7.64	-31.1	-51.1	4.1	1.49e+00	0	54	104	0	40	24620
2026-01-29 08:25:35.36	106.32	7.71	-30.4	-50.5	3.7	1.49e+00	0	54	104	0	37	27176
2026-01-29 08:25:36.37	106.23	7.77	-30.0	-49.1	4.0	1.49e+00	0	54	104	0	28	38838
2026-01-29 08:25:37.38	106.13	7.84	-32.5	-50.8	3.8	1.49e+00	0	54	104	0	33	35692
2026-01-29 08:25:38.39	106.03	7.90	-31.0	-50.4	3.9	1.49e+00	0	54	104	0	32	35821
2026-01-29 08:25:39.40	105.93	7.97	-39.6	-53.0	4.0	1.49e+00	0	54	104	0	44	24264
2026-01-29 08:25:40.41	105.83	8.04	-33.3	-50.9	3.9	1.49e+00	0	54	104	0	34	34036
2026-01-29 08:25:41.41	105.73	8.10	-33.2	-49.5	4.3	1.49e+00	0	54	104	0	34	28725
2026-01-29 08:25:42.42	105.63	8.17	-40.6	-50.1	5.2	1.17e+00	0	54	0	0	48	13817
2026-01-29 08:25:43.43	105.53	8.23	-37.5	-50.6	4.1	1.48e+00	0	54	104	1048576	45	17437
2026-01-29 08:25:44.44	105.43	8.30	-31.7	-48.1	4.6	1.44e+00	0	54	104	1048576	40	17481
2026-01-29 08:25:45.45	105.33	8.37	-29.4	-49.9	3.8	1.49e+00	0	54	104	1048576	41	20073
2026-01-29 08:25:46.46	105.23	8.43	-34.8	-49.2	3.5	1.49e+00	0	54	104	1048576	31	33211
2026-01-29 08:25:47.47	105.13	8.50	-36.5	-48.7	4.4	1.47e+00	0	54	104	1048576	35	24841
2026-01-29 08:25:48.48	105.02	8.57	-29.7	-47.5	4.3	1.28e+00	0	54	104	1048576	40	16206
2026-01-29 08:25:49.49	104.92	8.64	-24.3	-45.0	4.3	1.49e+00	0	54	104	1048576	22	34147
2026-01-29 08:25:50.50	104.82	8.70	-26.1	-45.5	4.1	1.49e+00	0	54	104	1048576	23	34106
2026-01-29 08:25:51.51	104.71	8.77	-37.0	-48.4	4.3	1.49e+00	0	54	104	1048576	41	17023
2026-01-29 08:25:52.52	104.61	8.84	-38.6	-48.9	5.5	9.54e-01	0	54	0	1048576	47	12678
2026-01-29 08:25:53.53	104.50	8.90	-34.3	-49.9	4.2	1.48e+00	0	54	104	2097152	40	21371
2026-01-29 08:25:54.54	104.40	8.97	-27.1	-47.9	4.1	1.49e+00	0	54	104	2097152	39	17889
2026-01-29 08:25:55.55	104.29	9.04	-34.9	-50.6	4.3	1.48e+00	0	54	104	2097152	41	21788
2026-01-29 08:25:56.56	104.19	9.11	-31.6	-48.9	4.5	1.40e+00	0	55	104	2097152	38	21315
2026-01-29 08:25:57.56	104.08	9.17	-35.4	-48.8	4.5	1.48e+00	0	54	104	2097152	36	23689
2026-01-29 08:25:58.58	103.97	9.24	-32.3	-48.1	5.0	1.26e+00	0	54	104	2097152	39	18513
2026-01-29 08:25:59.59	103.86	9.31	-33.8	-50.3	4.6	1.33e+00	0	55	104	2097152	38	24990
2026-01-29 08:26:00.59	103.75	9.38	-28.6	-46.1	4.5	1.47e+00	0	55	104	2097152	28	27403
2026-01-29 08:26:01.60	103.65	9.45	-34.0	-47.4	5.9	1.16e+00	0	55	104	2097152	37	19141
2026-01-29 08:26:02.61	103.54	9.51	-39.4	-48.9	6.3	3.93e-01	0	55	0	3145728	45	14293
2026-01-29 08:26:03.62	103.43	9.58	-33.8	-46.6	5.2	8.82e-01	0	55	0	5242880	30	26139
2026-01-29 08:26:04.63	103.31	9.65	-29.5	-46.0	5.7	4.94e-01	0	55	0	6291456	34	19230
2026-01-29 08:26:05.64	103.20	9.72	-30.4	-47.4	5.9	5.08e-01	0	55	0	8388608	38	17945
2026-01-29 08:26:06.65	103.09	9.79	-37.1	-47.8	6.5	8.19e-01	0	55	0	10485760	42	15022
2026-01-29 08:26:07.66	102.98	9.86	-37.4	-47.4	6.3	9.12e-01	0	55	0	11534336	44	12686
2026-01-29 08:26:08.67	102.87	9.92	-36.8	-46.5	5.9	7.62e-01	0	55	0	13631488	36	18202
2026-01-29 08:26:09.67	102.75	9.99	-26.6	-45.4	5.8	7.96e-01	0	55	0	14680064	34	18042
2026-01-29 08:26:10.68	102.64	10.06	-24.3	-44.2	4.0	1.18e+00	0	55	104	15728640	22	31273
2026-01-29 08:26:11.69	102.53	10.13	-34.3	-48.7	4.5	1.49e+00	0	55	104	15728640	38	20885
2026-01-29 08:26:12.70	102.41	10.20	-25.0	-43.7	4.2	1.48e+00	0	55	104	15728640	17	39428
2026-01-29 08:26:13.71	102.29	10.27	-29.6	-47.3	3.8	1.46e+00	0	55	104	15728640	28	31482
2026-01-29 08:26:14.72	102.18	10.34	-25.8	-46.4	3.9	1.50e+00	0	55	104	15728640	22	40093
2026-01-29 08:26:15.73	102.06	10.41	-24.6	-43.4	3.7	1.49e+00	0	55	104	15728640	15	42711
2026-01-29 08:26:16.74	101.94	10.48	-23.1	-43.5	4.0	1.47e+00	0	55	104	15728640	19	34409
2026-01-29 08:26:17.74	101.83	10.54	-23.8	-43.9	4.0	1.49e+00	0	55	104	15728640	18	37953
2026-01-29 08:26:18.75	101.71	10.61	-36.0	-48.8	4.3	1.48e+00	0	55	104	15728640	27	39847
2026-01-29 08:26:19.76	101.59	10.68	-23.1	-44.3	4.0	1.49e+00	0	55	104	15728640	19	37657
2026-01-29 08:26:20.77	101.47	10.75	-26.7	-45.1	4.6	1.49e+00	0	55	104	15728640	26	27541
2026-01-29 08:26:21.78	101.35	10.82	-31.3	-47.5	4.3	1.47e+00	0	55	104	15728640	35	21656
2026-01-29 08:26:22.79	101.23	10.89	-28.9	-44.8	4.4	1.46e+00	0	55	104	15728640	26	26498
2026-01-29 08:26:23.80	101.11	10.96	-30.8	-46.1	4.1	1.50e+00	0	55	104	15728640	22	39042
2026-01-29 08:26:24.81	100.99	11.03	-27.9	-49.0	4.1	1.50e+00	0	55	104	15728640	21	57825
2026-01-29 08:26:25.82	100.86	11.10	-27.7	-47.3	4.0	1.48e+00	0	55	104	15728640	29	29901
2026-01-29 08:26:26.83	100.74	11.17	-24.7	-46.8	4.3	1.48e+00	0	55	104	15728640	28	29831
2026-01-29 08:26:27.84	100.62	11.24	-22.9	-43.7	3.8	1.49e+00	0	55	104	15728640	19	35030
2026-01-29 08:26:28.85	100.49	11.31	-26.9	-46.5	4.2	1.49e+00	0	55	104	15728640	25	34188
2026-01-29 08:26:29.86	100.37	11.38	-26.1	-48.8	3.9	1.49e+00	0	55	104	15728640	22	53399
2026-01-29 08:26:30.87	100.24	11.45	-19.1	-42.9	4.3	1.50e+00	0	55	104	15728640	8	60044
2026-01-29 08:26:31.88	100.12	11.52	-22.6	-42.3	4.1	1.49e+00	0	55	104	15728640	16	35574
2026-01-29 08:26:32.89	99.99	11.59	-29.0	-44.3	4.0	1.49e+00	0	55	104	15728640	20	35690
2026-01-29 08:26:33.90	99.86	11.66	-17.6	-42.1	3.9	1.49e+00	0	55	104	15728640	5	65533
2026-01-29 08:26:34.91	99.73	11.73	-31.3	-44.1	3.7	1.51e+00	0	55	104	15728640	9	65535
2026-01-29 08:26:35.92	99.60	11.80	-21.2	-43.8	4.1	1.46e+00	0	55	104	15728640	17	39681
2026-01-29 08:26:36.93	99.48	11.88	-30.7	-45.8	4.6	1.38e+00	0	55	104	15728640	32	21143
2026-01-29 08:26:37.94	99.35	11.95	-16.6	-41.8	3.7	1.49e+00	0	55	104	15728640	12	42009
2026-01-29 08:26:38.95	99.21	12.02	-21.5	-44.1	4.3	1.50e+00	0	55	104	15728640	16	43712
2026-01-29 08:26:39.96	99.08	12.09	-24.3	-43.2	3.5	1.50e+00	0	56	104	15728640	12	49673
2026-01-29 08:26:40.97	98.95	12.16	-20.7	-43.3	3.9	1.50e+00	0	55	104	15728640	20	31695
2026-01-29 08:26:41.97	98.82	12.23	-26.3	-44.2	4.2	1.49e+00	0	56	104	15728640	27	23540
2026-01-29 08:26:42.98	98.69	12.30	-26.9	-43.8	4.2	1.44e+00	0	56	104	15728640	22	29977
2026-01-29 08:26:43.99	98.55	12.37	-28.4	-48.0	4.7	1.47e+00	0	56	104	15728640	36	21682
2026-01-29 08:26:45.00	98.42	12.44	-26.8	-45.3	4.3	9.91e-01	0	56	0	16777216	26	28097
2026-01-29 08:26:46.01	98.28	12.51	-21.0	-43.3	4.3	1.37e+00	0	56	104	16777216	20	31778
2026-01-29 08:26:47.02	98.15	12.59	-26.2	-47.5	4.3	1.49e+00	0	56	104	16777216	27	34196
2026-01-29 08:26:48.03	98.01	12.66	-29.9	-45.9	4.0	1.49e+00	0	56	104	16777216	24	33975
2026-01-29 08:26:49.04	97.87	12.73	-24.3	-46.2	4.4	1.48e+00	0	56	104	16777216	28	27848
2026-01-29 08:26:50.05	97.74	12.80	-18.5	-42.5	3.8	1.49e+00	0	56	104	16777216	17	34396
2026-01-29 08:26:51.06	97.60	12.87	-24.3	-45.4	4.0	1.50e+00	0	56	104	16777216	19	42588
2026-01-29 08:26:52.07	97.46	12.94	-29.0	-50.2	3.9	1.43e+00	0	56	104	16777216	29	41835
2026-01-29 08:26:53.08	97.32	13.01	-29.4	-48.8	3.9	1.46e+00	0	56	104	16777216	27	39987
2026-01-29 08:26:54.09	97.18	13.09	-23.1	-45.7	3.9	1.48e+00	0	56	104	16777216	17	49818
2026-01-29 08:26:55.10	97.04	13.16	-24.7	-45.2	3.8	1.50e+00	0	56	104	16777216	15	52322
2026-01-29 08:26:56.11	96.90	13.23	-28.8	-49.1	3.9	1.50e+00	0	56	104	16777216	27	41444
2026-01-29 08:26:57.12	96.75	13.30	-27.1	-48.3	4.0	1.49e+00	0	56	104	16777216	25	42097
2026-01-29 08:26:58.13	96.61	13.37	-27.7	-48.1	4.1	1.49e+00	0	56	104	16777216	25	41260
2026-01-29 08:26:59.14	96.47	13.44	-35.0	-49.4	4.9	1.06e+00	0	56	0	16777216	36	25494
2026-01-29 08:27:00.15	96.32	13.52	-41.8	-47.6	9.3	5.63e-02	0	56	0	18874368	53	7724
2026-01-29 08:27:01.16	96.18	13.59	-41.7	-49.8	6.9	1.69e-01	0	56	0	20971520	55	8926
2026-01-29 08:27:02.17	96.03	13.66	-40.4	-49.7	6.2	1.86e-01	0	56	0	22020096	47	14009
2026-01-29 08:27:03.18	95.88	13.73	-40.7	-47.0	9.3	7.06e-02	0	56	0	24117248	49	9168
2026-01-29 08:27:04.19	95.73	13.80	-39.3	-46.9	9.8	1.03e-02	0	56	0	26214400	48	9525
2026-01-29 08:27:05.20	95.59	13.87	-39.0	-46.4	10.3	6.16e-03	0	56	0	28311552	50	8023
2026-01-29 08:27:06.21	95.44	13.95	-41.7	-47.0	10.0	5.11e-03	0	56	0	30408704	54	6870
2026-01-29 08:27:07.22	95.29	14.02	-41.9	-47.3	10.0	1.02e-02	0	56	0	31457280	53	7541
2026-01-29 08:27:08.23	95.14	14.09	-41.7	-46.9	10.2	6.20e-03	0	56	0	33554432	54	6792
2026-01-29 08:27:09.24	94.99	14.16	-41.9	-46.9	10.2	7.65e-03	0	56	0	35651584	54	6762
2026-01-29 08:27:10.25	94.83	14.23	-41.6	-46.4	10.7	4.11e-03	0	56	0	37748736	53	6764
2026-01-29 08:27:11.25	94.68	14.31	-41.8	-46.6	10.5	3.72e-03	0	56	0	39845888	54	6568
2026-01-29 08:27:12.26	94.53	14.38	-41.9	-46.8	10.3	4.66e-03	0	56	0	40894464	54	6688
2026-01-29 08:27:13.28	94.37	14.45	-42.1	-47.4	9.8	7.57e-03	0	56	0	42991616	54	7146
2026-01-29 08:27:14.29	94.22	14.52	-42.2	-47.7	9.4	1.29e-02	0	56	0	45088768	55	6984
2026-01-29 08:27:15.30	94.06	14.59	-42.2	-47.5	9.6	1.20e-02	0	56	0	47185920	55	6860
2026-01-29 08:27:16.31	93.91	14.67	-42.1	-47.4	9.7	1.21e-02	0	56	0	49283072	55	6793
2026-01-29 08:27:17.32	93.75	14.74	-42.1	-47.3	9.8	1.17e-02	0	56	0	50331648	55	6701
2026-01-29 08:27:18.33	93.59	14.81	-42.2	-47.5	9.6	1.39e-02	0	56	0	52428800	55	6876
2026-01-29 08:27:19.34	93.43	14.88	-42.1	-47.4	9.7	1.45e-02	0	56	0	54525952	55	6764
2026-01-29 08:27:20.35	93.27	14.95	-42.1	-47.3	9.8	1.25e-02	0	56	0	56623104	55	6679
2026-01-29 08:27:21.36	93.11	15.03	-42.0	-47.0	10.1	7.79e-03	0	56	0	58720256	55	6460
2026-01-29 08:27:22.36	92.95	15.10	-42.0	-47.1	10.0	6.35e-03	0	56	0	59768832	55	6529
2026-01-29 08:27:23.37	92.79	15.17	-41.9	-46.8	10.3	5.75e-03	0	56	0	61865984	55	6320
2026-01-29 08:27:24.38	92.63	15.24	-42.0	-47.1	10.1	5.83e-03	0	56	0	63963136	55	6508
2026-01-29 08:27:25.39	92.46	15.31	-42.0	-47.0	10.1	7.31e-03	0	56	0	66060288	55	6485
2026-01-29 08:27:26.40	92.30	15.39	-42.0	-47.0	10.1	7.34e-03	0	56	0	68157440	55	6481
2026-01-29 08:27:27.41	92.13	15.46	-42.0	-47.0	10.1	6.68e-03	0	56	0	70254592	55	6460
2026-01-29 08:27:28.42	91.97	15.53	-42.0	-47.0	10.1	7.36e-03	0	57	0	71303168	55	6485
2026-01-29 08:27:29.43	91.80	15.60	-42.0	-47.0	10.1	6.72e-03	0	56	0	73400320	55	6481
2026-01-29 08:27:30.44	91.63	15.67	-42.0	-46.9	10.3	5.67e-03	0	56	0	75497472	55	6359
2026-01-29 08:27:31.45	91.46	15.74	-42.0	-47.0	10.1	5.75e-03	0	57	0	77594624	55	6472
2026-01-29 08:27:32.46	91.30	15.82	-42.0	-47.2	9.9	7.00e-03	0	56	0	79691776	55	6583
2026-01-29 08:27:33.47	91.13	15.89	-41.9	-46.9	10.2	6.27e-03	0	56	0	80740352	55	6376
2026-01-29 08:27:34.48	90.95	15.96	-41.9	-46.8	10.2	5.60e-03	0	56	0	82837504	55	6345
2026-01-29 08:27:35.49	90.78	16.03	-41.8	-46.6	10.4	4.86e-03	0	57	0	84934656	55	6146
2026-01-29 08:27:36.50	90.61	16.10	-41.7	-46.6	10.4	4.87e-03	0	56	0	87031808	55	6133
2026-01-29 08:27:37.51	90.44	16.17	-41.9	-47.0	10.0	6.94e-03	0	56	0	89128960	55	6425
2026-01-29 08:27:38.52	90.26	16.24	-42.0	-47.3	9.6	1.22e-02	0	56	0	90177536	55	6715
2026-01-29 08:27:39.53	90.09	16.32	-42.0	-47.4	9.5	1.42e-02	0	56	0	92274688	55	6744
2026-01-29 08:27:40.54	89.91	16.39	-41.9	-47.3	9.5	1.49e-02	0	56	0	94371840	55	6714
2026-01-29 08:27:41.55	89.74	16.46	-42.0	-47.5	9.3	1.26e-02	0	56	0	96468992	55	6847
2026-01-29 08:27:42.56	89.56	16.53	-42.0	-47.5	9.3	1.82e-02	0	57	0	98566144	55	6824
2026-01-29 08:27:43.57	89.38	16.60	-42.0	-47.6	9.1	2.15e-02	0	57	0	99614720	55	6926
2026-01-29 08:27:44.58	89.20	16.67	-42.1	-48.0	8.7	3.27e-02	0	57	0	101711872	55	7259
2026-01-29 08:27:45.59	89.02	16.74	-42.1	-48.3	8.3	4.85e-02	0	57	0	103809024	55	7534
2026-01-29 08:27:46.60	88.84	16.81	-42.1	-48.4	8.0	5.83e-02	0	57	0	105906176	55	7625
2026-01-29 08:27:47.61	88.66	16.88	-41.9	-48.1	8.2	5.34e-02	0	57	0	108003328	55	7316
2026-01-29 08:27:48.62	88.47	16.95	-41.7	-48.2	7.9	6.18e-02	0	57	0	109051904	55	7449
2026-01-29 08:27:49.63	88.29	17.03	-41.6	-48.1	7.8	6.21e-02	0	57	0	111149056	55	7297
2026-01-29 08:27:50.64	88.11	17.10	-41.5	-48.4	7.3	1.06e-01	0	57	0	113246208	55	7566
2026-01-29 08:27:51.65	87.92	17.17	-41.5	-49.0	6.6	1.49e-01	0	57	0	115343360	54	8577
2026-01-29 08:27:52.66	87.73	17.24	-41.4	-48.7	6.7	2.15e-01	0	57	0	117440512	54	8297
2026-01-29 08:27:53.67	87.55	17.31	-41.2	-47.9	7.5	1.21e-01	0	57	0	118489088	54	7575
2026-01-29 08:27:54.68	87.36	17.38	-41.2	-47.7	7.7	9.43e-02	0	57	0	120586240	54	7419
2026-01-29 08:27:55.69	87.17	17.45	-41.2	-47.7	7.9	8.03e-02	0	57	0	122683392	54	7408
2026-01-29 08:27:56.70	86.98	17.52	-41.3	-47.7	8.0	6.79e-02	0	57	0	124780544	54	7409
2026-01-29 08:27:57.71	86.79	17.59	-41.4	-47.8	8.0	6.22e-02	0	57	0	126877696	54	7472
2026-01-29 08:27:58.72	86.60	17.65	-41.4	-47.4	8.5	4.83e-02	0	57	0	127926272	54	7155
2026-01-29 08:27:59.73	86.41	17.72	-41.4	-47.3	8.6	3.58e-02	0	57	0	130023424	54	7115
2026-01-29 08:28:00.74	86.21	17.79	-41.4	-47.5	8.4	4.07e-02	0	57	0	132120576	54	7271
2026-01-29 08:28:01.75	86.02	17.86	-41.4	-47.7	8.1	5.60e-02	0	57	0	134217728	54	7439
2026-01-29 08:28:02.76	85.82	17.93	-41.2	-47.4	8.3	5.61e-02	0	57	0	136314880	54	7156
2026-01-29 08:28:03.77	85.63	18.00	-41.1	-47.2	8.4	4.80e-02	0	57	0	138412032	54	6992
2026-01-29 08:28:04.78	85.43	18.07	-41.1	-47.1	8.5	4.55e-02	0	57	0	139460608	54	6921
2026-01-29 08:28:05.79	85.23	18.14	-41.0	-46.9	8.6	3.79e-02	0	57	0	141557760	54	6791
2026-01-29 08:28:06.79	85.04	18.20	-41.0	-46.8	8.9	3.40e-02	0	57	0	143654912	54	6657
2026-01-29 08:28:07.81	84.84	18.27	-40.9	-46.1	9.6	1.85e-02	0	57	0	145752064	53	6560
2026-01-29 08:28:08.82	84.64	18.34	-40.9	-46.0	9.9	1.09e-02	0	57	0	147849216	53	6431
2026-01-29 08:28:09.82	84.44	18.41	-41.1	-45.9	10.3	5.80e-03	0	57	0	148897792	53	6391
2026-01-29 08:28:10.83	84.23	18.48	-41.1	-45.8	10.8	3.02e-03	0	57	0	150994944	53	6285
2026-01-29 08:28:11.84	84.03	18.54	-41.2	-45.9	10.8	2.75e-03	0	57	0	153092096	53	6357
2026-01-29 08:28:12.85	83.83	18.61	-41.3	-45.8	11.1	1.84e-03	0	57	0	155189248	53	6333
2026-01-29 08:28:13.86	83.62	18.68	-41.1	-45.3	11.6	1.03e-03	0	57	0	157286400	53	5982
2026-01-29 08:28:14.87	83.42	18.74	-41.1	-45.3	11.7	5.65e-04	0	57	0	158334976	53	5933
2026-01-29 08:28:15.88	83.21	18.81	-41.0	-45.2	11.7	6.69e-04	0	57	0	160432128	53	5888
2026-01-29 08:28:16.89	83.00	18.88	-41.0	-45.1	11.8	5.67e-04	0	57	0	162529280	53	5799
2026-01-29 08:28:17.90	82.79	18.94	-40.9	-45.0	11.8	5.80e-04	0	57	0	164626432	53	5786
2026-01-29 08:28:18.91	82.58	19.01	-40.9	-45.1	11.6	6.19e-04	0	57	0	166723584	53	5848
2026-01-29 08:28:19.92	82.37	19.08	-40.9	-45.2	11.5	7.08e-04	0	57	0	167772160	53	5869
2026-01-29 08:28:20.93	82.16	19.14	-41.0	-45.4	11.1	1.07e-03	0	57	0	169869312	53	6014
2026-01-29 08:28:21.94	81.95	19.21	-41.0	-45.6	10.9	1.67e-03	0	57	0	171966464	53	6172
2026-01-29 08:28:22.95	81.74	19.27	-41.0	-45.7	10.6	3.07e-03	0	57	0	174063616	53	6242
2026-01-29 08:28:23.96	81.52	19.34	-40.9	-45.5	10.8	2.75e-03	0	57	0	176160768	53	6110
2026-01-29 08:28:24.97	81.31	19.40	-41.1	-46.1	10.1	4.40e-03	0	57	0	177209344	53	6495
2026-01-29 08:28:25.98	81.09	19.46	-41.2	-46.6	9.5	1.26e-02	0	57	0	179306496	53	6941
2026-01-29 08:28:26.99	80.88	19.53	-41.3	-46.9	9.2	1.95e-02	0	57	0	181403648	53	7140
2026-01-29 08:28:28.00	80.66	19.59	-41.2	-46.9	9.0	2.04e-02	0	57	0	183500800	53	7122
2026-01-29 08:28:29.01	80.44	19.66	-41.0	-46.6	9.2	2.17e-02	0	57	0	185597952	53	6891
2026-01-29 08:28:30.02	80.22	19.72	-40.9	-46.2	9.7	1.32e-02	0	57	0	186646528	53	6600
2026-01-29 08:28:31.03	80.00	19.78	-40.9	-46.0	9.8	1.08e-02	0	57	0	188743680	53	6485
2026-01-29 08:28:32.04	79.78	19.84	-41.0	-46.1	9.8	9.11e-03	0	57	0	190840832	53	6543
2026-01-29 08:28:33.05	79.56	19.91	-41.0	-45.8	10.4	6.70e-03	0	57	0	192937984	53	6306
2026-01-29 08:28:34.06	79.33	19.97	-40.9	-45.4	11.0	3.02e-03	0	57	0	195035136	53	6040
2026-01-29 08:28:35.07	79.11	20.03	-40.9	-45.3	11.3	1.70e-03	0	57	0	196083712	53	5934
2026-01-29 08:28:36.08	78.88	20.09	-41.0	-45.3	11.3	1.06e-03	0	57	0	198180864	53	5964
2026-01-29 08:28:37.09	78.66	20.15	-41.1	-45.5	11.2	1.21e-03	0	57	0	200278016	53	6086
2026-01-29 08:28:38.10	78.43	20.21	-41.1	-45.6	11.0	1.86e-03	0	57	0	202375168	53	6175
2026-01-29 08:28:39.11	78.20	20.27	-40.9	-45.3	11.2	1.45e-03	0	57	0	204472320	53	5979
2026-01-29 08:28:40.12	77.97	20.33	-40.8	-45.2	11.2	1.25e-03	0	57	0	206569472	53	5917
2026-01-29 08:28:41.13	77.75	20.39	-40.7	-45.1	11.3	1.38e-03	0	57	0	207618048	53	5844
2026-01-29 08:28:42.14	77.51	20.45	-40.6	-44.8	11.6	8.91e-04	0	58	0	209715200	53	5640
2026-01-29 08:28:43.15	77.28	20.51	-40.7	-45.0	11.6	6.91e-04	0	57	0	211812352	53	5739
2026-01-29 08:28:44.16	77.05	20.57	-40.7	-44.8	11.8	6.08e-04	0	57	0	213909504	53	5626
2026-01-29 08:28:45.17	76.82	20.63	-40.6	-44.4	12.2	2.20e-04	0	57	0	216006656	53	5393
2026-01-29 08:28:46.18	76.58	20.69	-40.6	-44.4	12.4	1.77e-04	0	57	0	217055232	53	5374
2026-01-29 08:28:47.19	76.35	20.75	-40.7	-44.5	12.5	1.22e-04	0	58	0	219152384	53	5418
2026-01-29 08:28:48.20	76.11	20.80	-40.7	-44.5	12.6	1.14e-04	0	57	0	221249536	53	5404
2026-01-29 08:28:49.21	75.88	20.86	-40.8	-44.6	12.5	1.25e-04	0	57	0	223346688	53	5476
2026-01-29 08:28:50.22	75.64	20.92	-40.8	-44.6	12.6	7.47e-05	0	57	0	225443840	53	5482
2026-01-29 08:28:51.23	75.40	20.97	-40.7	-44.4	12.8	7.01e-05	0	57	0	226492416	53	5341
2026-01-29 08:28:52.24	75.16	21.03	-40.7	-44.3	12.9	6.10e-05	0	57	0	228589568	53	5336
2026-01-29 08:28:53.25	74.92	21.08	-40.8	-44.5	12.7	6.10e-05	0	57	0	230686720	53	5414
2026-01-29 08:28:54.26	74.68	21.14	-40.8	-44.6	12.6	7.62e-05	0	57	0	232783872	53	5487
2026-01-29 08:28:55.27	74.44	21.19	-40.8	-44.5	12.7	1.04e-04	0	57	0	234881024	53	5445
2026-01-29 08:28:56.28	74.20	21.25	-40.8	-44.5	12.6	6.71e-05	0	57	0	235929600	53	5462
2026-01-29 08:28:57.29	73.95	21.30	-41.0	-44.9	12.3	8.69e-05	0	57	0	238026752	53	5684
2026-01-29 08:28:58.30	73.71	21.35	-41.0	-44.8	12.5	1.11e-04	0	57	0	240123904	53	5614
2026-01-29 08:28:59.31	73.46	21.41	-40.9	-44.7	12.7	7.93e-05	0	57	0	242221056	53	5542
2026-01-29 08:29:00.31	73.22	21.46	-40.9	-44.7	12.6	7.78e-05	0	57	0	244318208	53	5549
2026-01-29 08:29:01.32	72.97	21.51	-40.9	-44.8	12.4	1.38e-04	0	57	0	245366784	53	5632
2026-01-29 08:29:02.33	72.73	21.56	-40.9	-44.7	12.4	1.29e-04	0	57	0	247463936	53	5566
2026-01-29 08:29:03.34	72.48	21.61	-40.8	-44.6	12.5	1.07e-04	0	57	0	249561088	53	5475
2026-01-29 08:29:04.35	72.23	21.66	-40.8	-44.5	12.5	9.00e-05	0	57	0	251658240	53	5463
2026-01-29 08:29:05.36	71.98	21.71	-40.8	-44.5	12.6	8.62e-05	0	58	0	253755392	53	5437
2026-01-29 08:29:06.37	71.73	21.76	-40.8	-44.6	12.6	1.17e-04	0	58	0	254803968	53	5488
2026-01-29 08:29:07.38	71.48	21.81	-40.7	-44.3	13.0	8.39e-05	0	58	0	256901120	53	5290
2026-01-29 08:29:08.39	71.22	21.86	-40.7	-44.1	13.3	2.67e-05	0	58	0	258998272	53	5170
2026-01-29 08:29:09.40	70.97	21.91	-40.7	-44.0	13.5	5.30e-06	0	57	0	261095424	53	5138
2026-01-29 08:29:10.41	70.72	21.95	-40.7	-44.0	13.6	6.10e-06	0	58	0	263192576	53	5114
2026-01-29 08:29:11.42	70.46	22.00	-40.7	-44.0	13.6	6.80e-06	0	57	0	264241152	53	5133
2026-01-29 08:29:12.43	70.21	22.05	-40.7	-44.0	13.7	6.10e-06	0	58	0	266338304	53	5104
2026-01-29 08:29:13.44	69.95	22.09	-40.6	-43.9	13.7	1.22e-05	0	57	0	268435456	53	5057
2026-01-29 08:29:14.45	69.69	22.14	-40.7	-44.0	13.7	5.30e-06	0	57	0	270532608	53	5124
2026-01-29 08:29:15.46	69.44	22.18	-40.6	-43.8	13.8	5.30e-06	0	57	0	272629760	53	5008
2026-01-29 08:29:16.47	69.18	22.23	-40.6	-43.9	13.8	4.50e-06	0	57	0	274726912	53	5054
2026-01-29 08:29:17.48	68.92	22.27	-40.7	-44.0	13.7	6.10e-06	0	57	0	275775488	53	5123
2026-01-29 08:29:18.49	68.66	22.32	-40.8	-44.2	13.5	9.90e-06	0	57	0	277872640	53	5223
2026-01-29 08:29:19.50	68.40	22.36	-41.0	-44.4	13.2	1.37e-05	0	57	0	279969792	53	5390
2026-01-29 08:29:20.51	68.14	22.40	-41.1	-44.6	13.0	2.82e-05	0	58	0	282066944	53	5524
2026-01-29 08:29:21.52	67.87	22.44	-41.3	-45.0	12.6	5.95e-05	0	57	0	284164096	53	5758
2026-01-29 08:29:22.53	67.61	22.48	-41.3	-45.1	12.5	1.13e-04	0	58	0	285212672	53	5805
2026-01-29 08:29:23.54	67.35	22.52	-41.4	-45.4	12.2	1.02e-04	0	57	0	287309824	53	6001
2026-01-29 08:29:24.55	67.08	22.56	-41.6	-45.7	11.9	3.00e-04	0	58	0	289406976	53	6220
2026-01-29 08:29:25.56	66.82	22.60	-41.8	-46.2	11.4	5.93e-04	0	58	0	291504128	54	6241
2026-01-29 08:29:26.57	66.55	22.64	-42.0	-46.6	11.0	1.29e-03	0	57	0	293601280	54	6503
2026-01-29 08:29:27.58	66.29	22.68	-41.9	-46.5	11.1	1.72e-03	0	58	0	294649856	54	6449
2026-01-29 08:29:28.59	66.02	22.72	-41.9	-46.4	11.2	1.85e-03	0	57	0	296747008	54	6394
2026-01-29 08:29:29.60	65.75	22.75	-41.9	-46.4	11.2	1.41e-03	0	58	0	298844160	54	6356
2026-01-29 08:29:30.61	65.48	22.79	-41.9	-46.4	11.2	1.06e-03	0	58	0	300941312	54	6380
2026-01-29 08:29:31.62	65.21	22.82	-41.7	-46.0	11.6	8.62e-04	0	57	0	303038464	54	6091
2026-01-29 08:29:32.63	64.95	22.86	-41.6	-45.8	11.9	4.84e-04	0	58	0	304087040	54	5929
2026-01-29 08:29:33.63	64.68	22.89	-41.6	-45.7	11.9	4.52e-04	0	58	0	306184192	54	5869
2026-01-29 08:29:34.64	64.41	22.93	-41.6	-45.6	12.0	2.81e-04	0	58	0	308281344	54	5853
2026-01-29 08:29:35.65	64.14	22.96	-41.5	-45.5	12.1	3.11e-04	0	58	0	310378496	54	5787
2026-01-29 08:29:36.66	63.87	22.99	-41.6	-45.6	12.1	2.57e-04	0	58	0	312475648	54	5817
2026-01-29 08:29:37.67	63.59	23.02	-41.5	-45.5	12.1	2.39e-04	0	58	0	313524224	54	5771
2026-01-29 08:29:38.68	63.32	23.05	-41.5	-45.5	12.1	2.79e-04	0	58	0	315621376	54	5766
2026-01-29 08:29:39.69	63.05	23.08	-41.4	-45.4	12.3	2.06e-04	0	58	0	317718528	54	5686
2026-01-29 08:29:40.70	62.77	23.11	-41.5	-45.4	12.2	2.18e-04	0	58	0	319815680	54	5722
2026-01-29 08:29:41.71	62.50	23.14	-41.6	-45.7	11.9	4.17e-04	0	58	0	321912832	54	5899
2026-01-29 08:29:42.72	62.22	23.17	-41.7	-45.9	11.7	5.90e-04	0	58	0	322961408	54	6040
2026-01-29 08:29:43.73	61.95	23.20	-41.9	-46.3	11.3	7.77e-04	0	58	0	325058560	54	6323
2026-01-29 08:29:44.74	61.67	23.23	-41.8	-46.2	11.4	1.03e-03	0	58	0	327155712	54	6247
2026-01-29 08:29:45.75	61.40	23.25	-41.8	-46.1	11.5	1.02e-03	0	58	0	329252864	54	6200
2026-01-29 08:29:46.76	61.12	23.28	-41.7	-45.8	11.8	5.23e-04	0	58	0	331350016	54	5972
2026-01-29 08:29:47.77	60.84	23.30	-41.7	-45.8	11.9	4.70e-04	0	57	0	332398592	54	5957
2026-01-29 08:29:48.78	60.57	23.33	-41.8	-46.0	11.6	6.19e-04	0	58	0	334495744	54	6090
2026-01-29 08:29:49.79	60.29	23.35	-42.0	-46.5	11.2	7.09e-04	0	58	0	336592896	54	6430
2026-01-29 08:29:50.79	60.01	23.37	-41.9	-46.4	11.2	1.20e-03	0	58	0	338690048	54	6393
2026-01-29 08:29:51.80	59.73	23.39	-41.9	-46.4	11.3	1.25e-03	0	58	0	340787200	54	6367
2026-01-29 08:29:52.81	59.45	23.42	-41.9	-46.4	11.3	1.32e-03	0	58	0	342884352	54	6378
2026-01-29 08:29:53.82	59.17	23.44	-41.9	-46.4	11.2	1.51e-03	0	58	0	343932928	54	6401
2026-01-29 08:29:54.83	58.89	23.46	-42.0	-46.5	11.2	1.93e-03	0	58	0	346030080	54	6427
2026-01-29 08:29:55.84	58.61	23.48	-41.9	-46.3	11.4	1.38e-03	0	58	0	348127232	54	6283
2026-01-29 08:29:56.85	58.33	23.49	-41.9	-46.3	11.3	9.06e-04	0	58	0	350224384	54	6302
2026-01-29 08:29:57.86	58.05	23.51	-41.9	-46.4	11.3	1.09e-03	0	58	0	352321536	54	6372
2026-01-29 08:29:58.87	57.77	23.53	-42.1	-46.8	10.9	1.44e-03	0	58	0	353370112	54	6662
2026-01-29 08:29:59.88	57.49	23.54	-42.2	-47.1	10.6	3.24e-03	0	58	0	355467264	55	6527
2026-01-29 08:30:00.89	57.21	23.56	-42.3	-47.2	10.5	5.06e-03	0	58	0	357564416	55	6596
2026-01-29 08:30:01.90	56.93	23.57	-42.3	-47.3	10.4	5.72e-03	0	58	0	359661568	55	6707
2026-01-29 08:30:02.91	56.64	23.59	-42.3	-47.3	10.4	4.33e-03	0	58	0	361758720	55	6650
2026-01-29 08:30:03.92	56.36	23.60	-42.3	-47.4	10.4	4.29e-03	0	58	0	362807296	55	6726
2026-01-29 08:30:04.93	56.08	23.61	-42.2	-47.0	10.7	4.67e-03	0	58	0	364904448	55	6432
2026-01-29 08:30:05.94	55.80	23.63	-42.2	-47.1	10.7	2.89e-03	0	58	0	367001600	55	6513
2026-01-29 08:30:06.95	55.51	23.64	-42.0	-46.6	11.1	1.94e-03	0	58	0	369098752	55	6148
2026-01-29 08:30:07.96	55.23	23.65	-41.8	-46.0	11.7	1.08e-03	0	58	0	371195904	55	5786
2026-01-29 08:30:08.97	54.95	23.66	-41.6	-45.7	11.9	4.72e-04	0	58	0	372244480	55	5547
2026-01-29 08:30:09.98	54.66	23.67	-41.5	-45.4	12.4	1.76e-04	0	58	0	374341632	55	5363
2026-01-29 08:30:10.99	54.38	23.67	-41.4	-45.1	12.7	8.69e-05	0	58	0	376438784	54	5510
2026-01-29 08:30:12.00	54.09	23.68	-41.4	-45.2	12.6	1.08e-04	0	58	0	378535936	54	5556
2026-01-29 08:30:13.01	53.81	23.69	-41.5	-45.4	12.4	1.52e-04	0	58	0	380633088	54	5676
2026-01-29 08:30:14.02	53.53	23.69	-41.7	-45.8	12.0	2.45e-04	0	58	0	381681664	54	5961
2026-01-29 08:30:15.03	53.24	23.70	-41.8	-46.0	11.8	4.82e-04	0	58	0	383778816	54	6109
2026-01-29 08:30:16.04	52.96	23.70	-41.8	-46.1	11.6	5.42e-04	0	58	0	385875968	54	6176
2026-01-29 08:30:17.05	52.67	23.71	-41.7	-45.9	11.9	4.04e-04	0	58	0	387973120	54	6022
2026-01-29 08:30:18.06	52.39	23.71	-41.6	-45.6	12.2	3.01e-04	0	58	0	390070272	54	5813
2026-01-29 08:30:19.07	52.10	23.71	-41.5	-45.5	12.3	2.20e-04	0	58	0	391118848	54	5732
2026-01-29 08:30:20.08	51.82	23.71	-41.7	-45.8	12.0	2.17e-04	0	58	0	393216000	54	5931
2026-01-29 08:30:21.09	51.54	23.71	-41.6	-45.6	12.2	3.13e-04	0	58	0	395313152	54	5800
2026-01-29 08:30:22.10	51.25	23.71	-41.7	-45.8	12.0	2.66e-04	0	58	0	397410304	54	5960
2026-01-29 08:30:23.11	50.97	23.71	-41.7	-45.7	12.0	2.55e-04	0	58	0	399507456	54	5919
2026-01-29 08:30:24.12	50.68	23.71	-41.5	-45.5	12.4	1.57e-04	0	58	0	400556032	54	5723
2026-01-29 08:30:25.13	50.40	23.71	-41.5	-45.4	12.4	1.69e-04	0	58	0	402653184	54	5670
2026-01-29 08:30:26.14	50.11	23.70	-41.5	-45.4	12.4	1.52e-04	0	58	0	404750336	54	5662
2026-01-29 08:30:27.15	49.83	23.70	-41.5	-45.4	12.4	1.52e-04	0	58	0	406847488	54	5707
2026-01-29 08:30:28.16	49.54	23.69	-41.5	-45.3	12.5	1.35e-04	0	58	0	408944640	54	5614
2026-01-29 08:30:29.17	49.26	23.69	-41.4	-45.1	12.6	8.23e-05	0	58	0	411041792	54	5523
2026-01-29 08:30:30.18	48.98	23.68	-41.3	-44.8	12.9	3.05e-05	0	58	0	412090368	54	5337
2026-01-29 08:30:31.19	48.69	23.68	-41.3	-45.0	12.9	5.34e-05	0	58	0	414187520	54	5404
2026-01-29 08:30:32.20	48.41	23.67	-41.4	-45.1	12.7	7.62e-05	0	58	0	416284672	54	5516
2026-01-29 08:30:33.21	48.13	23.66	-41.6	-45.5	12.4	1.27e-04	0	58	0	418381824	54	5741
2026-01-29 08:30:34.22	47.84	23.65	-41.4	-45.2	12.7	1.50e-04	0	58	0	420478976	54	5548
2026-01-29 08:30:35.23	47.56	23.64	-41.4	-45.0	12.8	9.53e-05	0	58	0	421527552	54	5430
2026-01-29 08:30:36.23	47.28	23.63	-41.1	-44.6	13.3	2.82e-05	0	58	0	423624704	54	5160
2026-01-29 08:30:37.24	47.00	23.62	-41.1	-44.4	13.4	1.06e-05	0	58	0	425721856	54	5063
2026-01-29 08:30:38.25	46.71	23.60	-40.9	-44.1	13.8	9.10e-06	0	58	0	427819008	53	5185
2026-01-29 08:30:39.26	46.43	23.59	-40.9	-44.1	13.8	3.00e-06	0	58	0	429916160	53	5165
2026-01-29 08:30:40.27	46.15	23.58	-40.8	-44.0	13.9	3.00e-06	0	58	0	430964736	53	5139
2026-01-29 08:30:41.28	45.87	23.56	-40.7	-43.8	14.0	3.00e-06	0	58	0	433061888	53	5020
2026-01-29 08:30:42.29	45.59	23.55	-40.6	-43.5	14.3	0.00e+00	0	58	0	435159040	53	4861
2026-01-29 08:30:43.30	45.30	23.53	-40.4	-43.2	14.7	7.00e-07	0	58	0	437256192	52	4966
2026-01-29 08:30:44.31	45.02	23.51	-40.3	-43.1	14.8	0.00e+00	0	58	0	439353344	52	4890
2026-01-29 08:30:45.32	44.74	23.50	-40.4	-43.3	14.6	0.00e+00	0	58	0	440401920	52	4988
2026-01-29 08:30:46.33	44.46	23.48	-40.4	-43.3	14.6	7.00e-07	0	58	0	442499072	52	5016
2026-01-29 08:30:47.34	44.18	23.46	-40.4	-43.3	14.6	1.50e-06	0	58	0	444596224	52	5009
2026-01-29 08:30:48.35	43.90	23.44	-40.5	-43.4	14.5	7.00e-07	0	58	0	446693376	52	5079
2026-01-29 08:30:49.36	43.62	23.42	-40.6	-43.5	14.3	2.20e-06	0	58	0	448790528	52	5140
2026-01-29 08:30:50.37	43.34	23.40	-40.8	-44.0	13.9	2.20e-06	0	58	0	449839104	52	5417
2026-01-29 08:30:51.38	43.07	23.38	-40.7	-43.9	14.0	0.00e+00	0	58	0	451936256	52	5342
2026-01-29 08:30:52.39	42.79	23.35	-40.8	-44.0	13.8	3.00e-06	0	58	0	454033408	52	5444
2026-01-29 08:30:53.39	42.51	23.33	-40.8	-44.0	13.9	3.80e-06	0	58	0	456130560	52	5414
2026-01-29 08:30:54.41	42.23	23.31	-40.9	-44.1	13.7	1.06e-05	0	58	0	458227712	52	5481
2026-01-29 08:30:55.41	41.96	23.28	-40.9	-44.2	13.6	1.14e-05	0	58	0	459276288	52	5558
2026-01-29 08:30:56.42	41.68	23.26	-40.9	-44.1	13.7	9.10e-06	0	58	0	461373440	52	5482
2026-01-29 08:30:57.43	41.41	23.23	-41.0	-44.2	13.6	8.30e-06	0	58	0	463470592	52	5587
2026-01-29 08:30:58.44	41.13	23.20	-40.9	-44.2	13.6	9.90e-06	0	58	0	465567744	52	5552
2026-01-29 08:30:59.45	40.86	23.18	-40.9	-44.2	13.6	8.30e-06	0	58	0	467664896	52	5558
2026-01-29 08:31:00.46	40.58	23.15	-41.0	-44.3	13.6	1.22e-05	0	58	0	468713472	52	5595
2026-01-29 08:31:01.47	40.31	23.12	-41.2	-44.8	13.1	3.89e-05	0	58	0	470810624	53	5598
2026-01-29 08:31:02.48	40.04	23.09	-41.3	-44.8	13.0	5.56e-05	0	58	0	472907776	53	5617
2026-01-29 08:31:03.49	39.76	23.06	-41.5	-45.2	12.6	8.01e-05	0	58	0	475004928	53	5901
2026-01-29 08:31:04.50	39.49	23.03	-41.3	-44.9	12.9	5.64e-05	0	58	0	477102080	53	5702
2026-01-29 08:31:05.51	39.22	23.00	-41.3	-44.9	12.9	4.65e-05	0	58	0	479199232	53	5660
2026-01-29 08:31:06.52	38.95	22.96	-41.1	-44.5	13.2	3.43e-05	0	58	0	480247808	53	5460
2026-01-29 08:31:07.53	38.68	22.93	-41.2	-44.7	13.1	1.98e-05	0	58	0	482344960	53	5570
2026-01-29 08:31:08.54	38.41	22.90	-41.2	-44.7	13.1	3.81e-05	0	58	0	484442112	53	5559
2026-01-29 08:31:09.55	38.14	22.86	-41.3	-44.8	13.0	4.65e-05	0	58	0	486539264	53	5637
2026-01-29 08:31:10.56	37.87	22.83	-41.3	-45.0	12.8	3.81e-05	0	58	0	488636416	53	5770
2026-01-29 08:31:11.57	37.60	22.79	-41.6	-45.6	12.2	1.06e-04	0	58	0	489684992	53	6156
2026-01-29 08:31:12.58	37.33	22.76	-41.6	-45.6	12.2	2.53e-04	0	58	0	491782144	53	6168
2026-01-29 08:31:13.59	37.07	22.72	-41.6	-45.6	12.1	2.83e-04	0	58	0	493879296	53	6202
2026-01-29 08:31:14.60	36.80	22.69	-41.8	-46.0	11.7	6.06e-04	0	58	0	495976448	54	6111
2026-01-29 08:31:15.61	36.53	22.65	-41.8	-45.9	11.9	7.28e-04	0	58	0	498073600	54	6011
2026-01-29 08:31:16.62	36.27	22.61	-42.0	-46.4	11.4	7.09e-04	0	58	0	499122176	54	6352
2026-01-29 08:31:17.63	36.01	22.57	-41.9	-46.3	11.4	7.09e-04	0	58	0	501219328	54	6314
2026-01-29 08:31:18.64	35.74	22.53	-42.1	-46.6	11.1	1.33e-03	0	58	0	503316480	54	6536
2026-01-29 08:31:19.65	35.48	22.49	-42.0	-46.6	11.1	1.62e-03	0	58	0	505413632	54	6517
2026-01-29 08:31:20.66	35.22	22.45	-42.0	-46.5	11.2	1.63e-03	0	58	0	507510784	54	6471
2026-01-29 08:31:21.67	34.95	22.41	-42.0	-46.4	11.3	1.52e-03	0	58	0	508559360	54	6396
2026-01-29 08:31:22.68	34.69	22.37	-42.0	-46.5	11.2	1.77e-03	0	58	0	510656512	54	6434
2026-01-29 08:31:23.69	34.43	22.32	-41.9	-46.2	11.5	9.66e-04	0	58	0	512753664	54	6257
2026-01-29 08:31:24.70	34.17	22.28	-41.9	-46.3	11.4	9.76e-04	0	58	0	514850816	54	6295
2026-01-29 08:31:25.71	33.92	22.24	-41.8	-46.1	11.6	8.73e-04	0	58	0	516947968	54	6165
2026-01-29 08:31:26.72	33.66	22.19	-41.8	-46.1	11.6	6.79e-04	0	58	0	517996544	54	6179
2026-01-29 08:31:27.73	33.40	22.15	-42.0	-46.5	11.2	9.93e-04	0	58	0	520093696	54	6463
2026-01-29 08:31:28.74	33.14	22.10	-42.0	-46.6	11.1	1.42e-03	0	58	0	522190848	54	6529
2026-01-29 08:31:29.75	32.89	22.06	-42.2	-46.9	10.8	1.76e-03	0	58	0	524288000	54	6735
2026-01-29 08:31:30.75	32.64	22.01	-42.1	-46.7	11.1	1.58e-03	0	58	0	526385152	54	6572
2026-01-29 08:31:31.76	32.38	21.97	-41.9	-46.4	11.4	1.14e-03	0	58	0	527433728	54	6368
2026-01-29 08:31:32.77	32.13	21.92	-41.9	-46.2	11.5	8.99e-04	0	58	0	529530880	54	6260
2026-01-29 08:31:33.78	31.88	21.87	-41.8	-46.1	11.6	6.34e-04	0	58	0	531628032	54	6164
2026-01-29 08:31:34.79	31.62	21.82	-41.9	-46.3	11.5	6.66e-04	0	58	0	533725184	54	6283
2026-01-29 08:31:35.80	31.37	21.77	-42.0	-46.4	11.3	9.63e-04	0	58	0	535822336	54	6419
2026-01-29 08:31:36.81	31.12	21.72	-41.8	-46.1	11.6	7.84e-04	0	58	0	536870912	54	6134
2026-01-29 08:31:37.82	30.87	21.67	-41.7	-45.9	11.8	5.01e-04	0	58	0	538968064	54	6033
2026-01-29 08:31:38.83	30.63	21.62	-41.8	-46.0	11.8	5.01e-04	0	58	0	541065216	54	6065
2026-01-29 08:31:39.84	30.38	21.57	-41.9	-46.2	11.5	4.97e-04	0	58	0	543162368	54	6271
2026-01-29 08:31:40.85	30.13	21.52	-42.1	-46.7	11.1	1.21e-03	0	58	0	545259520	54	6613
2026-01-29 08:31:41.86	29.89	21.47	-42.2	-47.0	10.6	2.41e-03	0	58	0	547356672	54	6843
2026-01-29 08:31:42.87	29.64	21.42	-42.3	-47.3	10.4	4.33e-03	0	58	0	548405248	55	6665
2026-01-29 08:31:43.88	29.40	21.37	-42.3	-47.2	10.5	3.85e-03	0	58	0	550502400	55	6604
2026-01-29 08:31:44.89	29.15	21.31	-42.2	-46.9	10.7	3.35e-03	0	58	0	552599552	55	6397
2026-01-29 08:31:45.90	28.91	21.26	-42.0	-46.6	11.0	2.07e-03	0	58	0	554696704	55	6187
2026-01-29 08:31:46.91	28.67	21.21	-42.0	-46.5	11.2	1.29e-03	0	58	0	556793856	55	6078
2026-01-29 08:31:47.92	28.43	21.15	-41.9	-46.3	11.4	9.09e-04	0	58	0	557842432	55	5944
2026-01-29 08:31:48.93	28.19	21.10	-42.1	-46.7	11.2	1.07e-03	0	58	0	559939584	55	6257
2026-01-29 08:31:49.94	27.95	21.04	-42.1	-46.7	11.0	1.75e-03	0	58	0	562036736	55	6216
2026-01-29 08:31:50.95	27.71	20.99	-42.1	-46.9	10.7	2.16e-03	0	58	0	564133888	55	6400
2026-01-29 08:31:51.96	27.47	20.93	-42.3	-47.3	10.2	3.66e-03	0	58	0	566231040	55	6721
2026-01-29 08:31:52.97	27.23	20.88	-42.6	-48.1	9.5	7.86e-03	0	58	0	567279616	55	7328
2026-01-29 08:31:53.98	27.00	20.82	-42.5	-47.9	9.7	1.26e-02	0	58	0	569376768	55	7193
2026-01-29 08:31:54.99	26.76	20.76	-42.4	-47.5	10.1	7.47e-03	0	59	0	571473920	55	6830
2026-01-29 08:31:56.00	26.53	20.70	-42.2	-47.2	10.5	6.40e-03	0	58	0	573571072	55	6579
2026-01-29 08:31:57.01	26.30	20.65	-42.0	-46.7	11.0	1.85e-03	0	59	0	575668224	55	6249
2026-01-29 08:31:58.02	26.06	20.59	-41.9	-46.4	11.3	1.56e-03	0	58	0	576716800	55	6016
2026-01-29 08:31:59.03	25.83	20.53	-41.8	-46.1	11.5	8.76e-04	0	58	0	578813952	55	5842
2026-01-29 08:32:00.04	25.60	20.47	-41.8	-46.1	11.7	6.57e-04	0	59	0	580911104	55	5810
2026-01-29 08:32:01.05	25.37	20.41	-41.7	-45.9	11.8	5.90e-04	0	58	0	583008256	55	5680
2026-01-29 08:32:02.06	25.14	20.35	-41.6	-45.6	12.1	4.08e-04	0	58	0	585105408	55	5482
2026-01-29 08:32:03.07	24.92	20.29	-41.6	-45.7	12.0	2.43e-04	0	58	0	586153984	55	5529
2026-01-29 08:32:04.08	24.69	20.23	-41.5	-45.5	12.2	2.55e-04	0	58	0	588251136	55	5442
2026-01-29 08:32:05.09	24.46	20.17	-41.4	-45.2	12.5	1.85e-04	0	58	0	590348288	54	5579
2026-01-29 08:32:06.10	24.24	20.11	-41.3	-45.1	12.6	1.04e-04	0	59	0	592445440	54	5481
2026-01-29 08:32:07.11	24.02	20.05	-41.2	-44.8	12.9	6.25e-05	0	58	0	594542592	54	5292
2026-01-29 08:32:08.12	23.79	19.99	-41.1	-44.6	13.1	2.21e-05	0	58	0	595591168	53	5502
2026-01-29 08:32:09.13	23.57	19.93	-40.8	-44.2	13.5	1.83e-05	0	58	0	597688320	53	5251
2026-01-29 08:32:10.14	23.35	19.87	-40.6	-43.7	14.0	3.80e-06	0	58	0	599785472	53	4957
2026-01-29 08:32:11.15	23.13	19.80	-40.6	-43.8	13.9	5.30e-06	0	58	0	601882624	53	4999
2026-01-29 08:32:12.16	22.91	19.74	-40.5	-43.7	14.0	2.20e-06	0	59	0	603979776	53	4946
2026-01-29 08:32:13.17	22.69	19.68	-40.7	-43.9	13.8	5.30e-06	0	58	0	605028352	53	5051
2026-01-29 08:32:14.18	22.47	19.61	-40.8	-44.1	13.6	3.00e-06	0	58	0	607125504	53	5161
2026-01-29 08:32:15.19	22.26	19.55	-40.8	-44.3	13.4	8.30e-06	0	58	0	609222656	53	5280
2026-01-29 08:32:16.20	22.04	19.49	-41.0	-44.5	13.2	2.05e-05	0	58	0	611319808	53	5410
2026-01-29 08:32:17.21	21.82	19.42	-41.3	-45.1	12.5	6.17e-05	0	58	0	613416960	53	5832
2026-01-29 08:32:18.22	21.61	19.36	-41.4	-45.3	12.3	1.54e-04	0	59	0	614465536	53	5950
2026-01-29 08:32:19.23	21.40	19.29	-41.5	-45.7	11.9	2.16e-04	0	58	0	616562688	53	6212
2026-01-29 08:32:20.23	21.19	19.23	-41.7	-45.9	11.7	4.86e-04	0	59	0	618659840	53	6416
2026-01-29 08:32:21.24	20.98	19.17	-41.8	-46.3	11.4	5.86e-04	0	58	0	620756992	54	6313
2026-01-29 08:32:22.25	20.77	19.10	-41.7	-46.1	11.5	7.44e-04	0	58	0	622854144	54	6133
2026-01-29 08:32:23.26	20.56	19.03	-41.7	-46.0	11.7	7.20e-04	0	58	0	624951296	54	6101
2026-01-29 08:32:24.27	20.35	18.97	-41.7	-45.9	11.8	6.35e-04	0	58	0	625999872	54	6001
2026-01-29 08:32:25.28	20.14	18.90	-41.6	-45.7	11.9	4.97e-04	0	58	0	628097024	54	5893
2026-01-29 08:32:26.29	19.93	18.84	-41.5	-45.6	12.1	3.03e-04	0	58	0	630194176	54	5815
2026-01-29 08:32:27.30	19.73	18.77	-41.5	-45.5	12.2	1.88e-04	0	58	0	632291328	54	5738
2026-01-29 08:32:28.31	19.52	18.70	-41.5	-45.6	12.1	2.09e-04	0	58	0	634388480	54	5808
2026-01-29 08:32:29.32	19.32	18.64	-41.3	-45.1	12.5	1.41e-04	0	58	0	635437056	54	5514
2026-01-29 08:32:30.33	19.11	18.57	-41.2	-45.0	12.7	9.07e-05	0	58	0	637534208	54	5416
2026-01-29 08:32:31.34	18.91	18.50	-41.2	-44.9	12.8	7.01e-05	0	58	0	639631360	54	5391
2026-01-29 08:32:32.35	18.71	18.44	-41.1	-44.7	13.0	4.04e-05	0	58	0	641728512	54	5219
2026-01-29 08:32:33.37	18.51	18.37	-40.9	-44.4	13.3	2.82e-05	0	58	0	643825664	53	5381
2026-01-29 08:32:34.38	18.31	18.30	-41.1	-44.7	13.0	2.59e-05	0	58	0	644874240	53	5560
2026-01-29 08:32:35.39	18.11	18.23	-41.3	-45.0	12.6	4.95e-05	0	58	0	646971392	53	5788
2026-01-29 08:32:36.40	17.91	18.16	-41.4	-45.5	12.2	1.49e-04	0	59	0	649068544	53	6080
2026-01-29 08:32:37.41	17.72	18.10	-41.5	-45.6	12.0	3.44e-04	0	58	0	651165696	53	6185
2026-01-29 08:32:38.42	17.52	18.03	-41.5	-45.6	12.0	4.10e-04	0	58	0	653262848	53	6165
2026-01-29 08:32:39.43	17.33	17.96	-41.3	-45.2	12.4	2.20e-04	0	58	0	654311424	53	5915
2026-01-29 08:32:40.43	17.13	17.89	-41.3	-45.2	12.4	1.16e-04	0	58	0	656408576	53	5874
2026-01-29 08:32:41.44	16.94	17.82	-41.3	-45.0	12.6	1.14e-04	0	58	0	658505728	53	5776
2026-01-29 08:32:42.45	16.75	17.75	-41.3	-45.2	12.5	1.07e-04	0	58	0	660602880	53	5872
2026-01-29 08:32:43.46	16.56	17.69	-41.5	-45.5	12.1	1.49e-04	0	59	0	662700032	53	6083
2026-01-29 08:32:44.47	16.37	17.62	-41.6	-45.7	11.9	3.31e-04	0	59	0	663748608	53	6264
2026-01-29 08:32:45.48	16.18	17.55	-41.6	-45.9	11.7	4.90e-04	0	59	0	665845760	53	6370
2026-01-29 08:32:46.49	15.99	17.48	-41.6	-45.8	11.8	5.12e-04	0	59	0	667942912	53	6313
2026-01-29 08:32:47.50	15.80	17.41	-41.5	-45.6	11.9	3.83e-04	0	59	0	670040064	53	6185
2026-01-29 08:32:48.51	15.61	17.34	-41.4	-45.3	12.3	2.09e-04	0	59	0	672137216	53	5949
2026-01-29 08:32:49.53	15.42	17.27	-41.2	-44.9	12.7	8.31e-05	0	59	0	673185792	53	5697
2026-01-29 08:32:50.54	15.24	17.20	-41.2	-44.8	12.8	5.34e-05	0	58	0	675282944	53	5638
2026-01-29 08:32:51.55	15.06	17.13	-41.0	-44.6	13.0	4.19e-05	0	58	0	677380096	53	5488
2026-01-29 08:32:52.56	14.87	17.06	-41.0	-44.6	13.0	4.80e-05	0	58	0	679477248	53	5482
2026-01-29 08:32:53.56	14.69	16.99	-41.0	-44.6	13.0	2.51e-05	0	58	0	681574400	53	5480
2026-01-29 08:32:54.57	14.51	16.92	-40.9	-44.4	13.2	3.05e-05	0	58	0	682622976	53	5382
2026-01-29 08:32:55.59	14.33	16.85	-40.9	-44.3	13.4	1.60e-05	0	59	0	684720128	53	5313
2026-01-29 08:32:56.60	14.15	16.78	-41.0	-44.6	13.0	2.74e-05	0	58	0	686817280	53	5478
2026-01-29 08:32:57.61	13.97	16.71	-41.2	-44.9	12.8	4.42e-05	0	58	0	688914432	53	5661
2026-01-29 08:32:58.62	13.79	16.64	-41.2	-45.0	12.6	7.47e-05	0	59	0	691011584	53	5742
2026-01-29 08:32:59.62	13.61	16.57	-41.4	-45.3	12.3	1.33e-04	0	58	0	693108736	53	5946
2026-01-29 08:33:00.63	13.44	16.50	-41.4	-45.3	12.3	1.67e-04	0	58	0	694157312	53	5926
2026-01-29 08:33:01.64	13.26	16.42	-41.3	-45.1	12.5	1.66e-04	0	59	0	696254464	53	5822
2026-01-29 08:33:02.65	13.09	16.35	-41.2	-44.9	12.7	1.16e-04	0	59	0	698351616	53	5722
2026-01-29 08:33:03.67	12.91	16.28	-41.1	-44.6	12.9	5.64e-05	0	58	0	700448768	53	5517
2026-01-29 08:33:04.68	12.74	16.21	-40.8	-44.2	13.4	1.14e-05	0	58	0	702545920	53	5220
2026-01-29 08:33:05.69	12.56	16.14	-40.7	-43.9	13.7	4.50e-06	0	59	0	703594496	53	5099
2026-01-29 08:33:06.69	12.39	16.07	-40.6	-43.9	13.8	1.60e-05	0	59	0	705691648	53	5044
2026-01-29 08:33:07.70	12.22	16.00	-40.8	-44.1	13.5	1.06e-05	0	59	0	707788800	53	5172
2026-01-29 08:33:08.71	12.05	15.93	-40.8	-44.2	13.3	1.67e-05	0	59	0	709885952	53	5265
2026-01-29 08:33:09.73	11.88	15.85	-40.8	-44.2	13.4	1.14e-05	0	59	0	711983104	53	5224
2026-01-29 08:33:10.74	11.71	15.78	-40.8	-44.3	13.3	1.60e-05	0	59	0	713031680	53	5293
2026-01-29 08:33:11.75	11.55	15.71	-41.0	-44.5	13.0	2.89e-05	0	58	0	715128832	53	5450
2026-01-29 08:33:12.76	11.38	15.64	-41.0	-44.6	13.0	4.42e-05	0	59	0	717225984	53	5468
2026-01-29 08:33:13.77	11.21	15.57	-41.1	-44.8	12.7	4.80e-05	0	59	0	719323136	53	5638
2026-01-29 08:33:14.78	11.05	15.50	-41.2	-44.9	12.6	7.85e-05	0	59	0	721420288	53	5705
2026-01-29 08:33:15.78	10.89	15.43	-41.2	-44.9	12.6	9.15e-05	0	59	0	722468864	53	5691
2026-01-29 08:33:16.79	10.72	15.35	-41.1	-44.7	12.8	8.16e-05	0	58	0	724566016	53	5583
2026-01-29 08:33:17.81	10.56	15.28	-41.0	-44.6	12.9	5.56e-05	0	59	0	726663168	53	5491
2026-01-29 08:33:18.81	10.40	15.21	-40.8	-44.3	13.2	2.89e-05	0	59	0	728760320	53	5317
2026-01-29 08:33:19.83	10.24	15.14	-40.9	-44.3	13.1	1.90e-05	0	58	0	730857472	53	5339
2026-01-29 08:33:20.84	10.08	15.07	-40.6	-43.9	13.6	1.52e-05	0	58	0	731906048	53	5074
2026-01-29 08:33:21.85	9.92	15.00	-40.6	-43.9	13.6	8.30e-06	0	59	0	734003200	53	5059
2026-01-29 08:33:22.86	9.76	14.92	-40.8	-44.2	13.3	9.10e-06	0	59	0	736100352	53	5235
2026-01-29 08:33:23.87	9.60	14.85	-41.0	-44.6	12.9	2.36e-05	0	59	0	738197504	53	5481
2026-01-29 08:33:24.88	9.44	14.78	-41.0	-44.6	12.8	5.26e-05	0	59	0	740294656	53	5487
2026-01-29 08:33:25.89	9.29	14.71	-41.2	-45.1	12.3	1.11e-04	0	59	0	741343232	53	5836
2026-01-29 08:33:26.90	9.13	14.64	-41.4	-45.5	11.8	2.91e-04	0	59	0	743440384	53	6086
2026-01-29 08:33:27.91	8.98	14.57	-41.4	-45.6	11.8	4.60e-04	0	59	0	745537536	53	6181
2026-01-29 08:33:28.92	8.82	14.49	-41.4	-45.7	11.6	5.65e-04	0	59	0	747634688	53	6218
2026-01-29 08:33:29.93	8.67	14.42	-41.4	-45.6	11.7	5.66e-04	0	59	0	749731840	53	6180
2026-01-29 08:33:30.94	8.52	14.35	-41.4	-45.7	11.6	6.83e-04	0	59	0	750780416	53	6209
2026-01-29 08:33:31.95	8.36	14.28	-41.2	-45.3	12.0	4.29e-04	0	59	0	752877568	53	5977
2026-01-29 08:33:32.96	8.21	14.21	-41.2	-45.2	12.0	2.97e-04	0	59	0	754974720	53	5888
2026-01-29 08:33:33.97	8.06	14.14	-41.1	-45.1	12.1	3.00e-04	0	59	0	757071872	53	5812
2026-01-29 08:33:34.98	7.91	14.06	-41.0	-45.0	12.1	2.27e-04	0	58	0	759169024	53	5771
2026-01-29 08:33:35.99	7.77	13.99	-40.9	-44.8	12.2	2.66e-04	0	59	0	761266176	53	5613
2026-01-29 08:33:37.00	7.62	13.92	-40.8	-44.6	12.5	1.44e-04	0	59	0	762314752	53	5466
2026-01-29 08:33:38.00	7.47	13.85	-40.7	-44.5	12.5	1.14e-04	0	59	0	764411904	53	5450
2026-01-29 08:33:39.01	7.32	13.78	-40.8	-44.6	12.3	1.05e-04	0	59	0	766509056	53	5517
2026-01-29 08:33:40.02	7.18	13.71	-40.8	-44.9	11.9	2.25e-04	0	59	0	768606208	53	5699
2026-01-29 08:33:41.03	7.03	13.64	-40.8	-44.8	12.0	4.47e-04	0	59	0	770703360	53	5617
2026-01-29 08:33:42.04	6.89	13.56	-40.8	-45.0	11.8	4.32e-04	0	59	0	771751936	53	5727
2026-01-29 08:33:43.05	6.75	13.49	-40.8	-45.1	11.5	5.48e-04	0	59	0	773849088	53	5820
2026-01-29 08:33:44.06	6.60	13.42	-41.1	-45.8	10.7	1.77e-03	0	58	0	775946240	53	6293
2026-01-29 08:33:45.07	6.46	13.35	-41.1	-46.2	10.2	4.46e-03	0	59	0	778043392	53	6583
2026-01-29 08:33:46.08	6.32	13.28	-41.3	-46.6	9.7	9.32e-03	0	59	0	780140544	53	6904
2026-01-29 08:33:47.09	6.18	13.21	-41.2	-46.6	9.5	1.57e-02	0	59	0	781189120	53	6931
2026-01-29 08:33:48.10	6.04	13.14	-41.1	-46.5	9.5	1.38e-02	0	58	0	783286272	53	6875
2026-01-29 08:33:49.11	5.90	13.06	-41.1	-46.5	9.5	1.16e-02	0	59	0	785383424	53	6870
2026-01-29 08:33:50.12	5.76	12.99	-40.9	-46.1	9.8	1.02e-02	0	59	0	787480576	53	6557
2026-01-29 08:33:51.13	5.62	12.92	-40.7	-45.8	10.0	7.92e-03	0	58	0	789577728	53	6300
2026-01-29 08:33:52.14	5.48	12.85	-40.4	-45.2	10.5	6.88e-03	0	59	0	790626304	52	6229
2026-01-29 08:33:53.14	5.35	12.78	-39.9	-44.3	11.3	1.66e-03	0	58	0	792723456	51	5937
2026-01-29 08:33:54.16	5.21	12.71	-39.4	-43.4	11.9	4.26e-04	0	58	0	794820608	50	5708
2026-01-29 08:33:55.17	5.07	12.64	-39.4	-43.8	11.3	4.49e-04	0	59	0	796917760	50	5956
2026-01-29 08:33:56.17	4.94	12.57	-39.8	-45.0	9.8	2.91e-03	0	59	0	799014912	50	6866
2026-01-29 08:33:57.18	4.81	12.50	-40.2	-46.5	8.1	4.14e-02	0	59	0	800063488	50	8114
2026-01-29 08:33:58.20	4.67	12.43	-40.6	-48.9	5.8	1.91e-01	0	59	0	802160640	51	10085
2026-01-29 08:33:59.21	4.54	12.35	-40.7	-51.2	4.4	6.66e-01	0	59	0	804257792	52	12394
2026-01-29 08:34:00.22	4.41	12.28	-40.7	-52.9	3.8	1.46e+00	0	58	104	804257792	52	15184
2026-01-29 08:34:01.22	4.28	12.21	-40.6	-54.1	3.8	1.49e+00	0	59	104	804257792	52	17361
2026-01-29 08:34:02.24	4.14	12.14	-40.5	-54.7	3.8	1.49e+00	0	58	104	804257792	52	18542
2026-01-29 08:34:03.25	4.01	12.07	-40.3	-54.6	3.8	1.49e+00	0	58	104	804257792	52	18349
2026-01-29 08:34:04.25	3.89	12.00	-40.1	-54.5	3.8	1.49e+00	0	59	104	804257792	52	18141
2026-01-29 08:34:05.26	3.76	11.93	-40.7	-55.1	3.8	1.49e+00	0	59	104	804257792	52	19575
2026-01-29 08:34:06.27	3.63	11.86	-40.3	-54.7	3.8	1.49e+00	0	59	104	804257792	52	18626
2026-01-29 08:34:07.28	3.50	11.79	-39.9	-54.4	3.8	1.49e+00	0	59	104	804257792	51	18979
2026-01-29 08:34:08.29	3.37	11.72	-40.0	-54.4	3.8	1.49e+00	0	59	104	804257792	51	19067
2026-01-29 08:34:09.30	3.25	11.65	-40.0	-54.3	3.8	1.49e+00	0	59	104	804257792	51	18912
2026-01-29 08:34:10.31	3.12	11.58	-39.9	-54.3	3.8	1.49e+00	0	59	104	804257792	51	18887
2026-01-29 08:34:11.32	3.00	11.51	-39.9	-54.3	3.8	1.49e+00	0	59	104	804257792	51	18765
2026-01-29 08:34:12.33	2.87	11.44	-39.9	-54.3	3.8	1.49e+00	0	58	104	804257792	51	18833
2026-01-29 08:34:13.34	2.75	11.37	-40.3	-54.6	3.8	1.49e+00	0	59	104	804257792	51	19545
2026-01-29 08:34:14.35	2.62	11.30	-40.1	-54.5	3.8	1.49e+00	0	59	104	804257792	51	19271
2026-01-29 08:34:15.36	2.50	11.23	-39.9	-54.3	3.8	1.49e+00	0	59	104	804257792	51	18795
2026-01-29 08:34:16.37	2.38	11.16	-39.9	-54.3	3.8	1.49e+00	0	59	104	804257792	51	18817
2026-01-29 08:34:17.38	2.26	11.09	-40.1	-54.5	3.8	1.49e+00	0	59	104	804257792	51	19212
2026-01-29 08:34:18.39	2.14	11.02	-40.0	-54.4	3.8	1.49e+00	0	59	104	804257792	51	19023
2026-01-29 08:34:19.40	2.02	10.95	-39.9	-54.3	3.8	1.49e+00	0	59	104	804257792	51	18789
2026-01-29 08:34:20.41	1.90	10.88	-39.9	-54.2	3.8	1.49e+00	0	59	104	804257792	51	18642
2026-01-29 08:34:21.42	1.78	10.81	-40.0	-54.4	3.8	1.49e+00	0	59	104	804257792	51	18981
2026-01-29 08:34:22.43	1.66	10.74	-39.9	-54.3	3.8	1.49e+00	0	59	104	804257792	51	18892
2026-01-29 08:34:23.44	1.54	10.67	-39.9	-54.3	3.8	1.49e+00	0	59	104	804257792	51	18770
2026-01-29 08:34:24.45	1.42	10.61	-39.8	-54.2	3.8	1.49e+00	0	59	104	804257792	51	18704
2026-01-29 08:34:25.46	1.31	10.54	-39.9	-54.3	3.8	1.49e+00	0	59	104	804257792	51	18804
2026-01-29 08:34:26.47	1.19	10.47	-39.9	-54.3	3.8	1.49e+00	0	59	104	804257792	51	18777
2026-01-29 08:34:27.48	1.07	10.40	-39.8	-54.2	3.8	1.49e+00	0	59	104	804257792	51	18730
2026-01-29 08:34:28.49	0.96	10.33	-39.8	-54.2	3.8	1.49e+00	0	59	104	804257792	51	18729
2026-01-29 08:34:29.50	0.84	10.26	-39.9	-54.2	3.8	1.49e+00	0	59	104	804257792	51	18717
2026-01-29 08:34:30.51	0.73	10.19	-39.9	-54.3	3.8	1.49e+00	0	59	104	804257792	51	18742
2026-01-29 08:34:31.52	0.62	10.12	-39.8	-54.2	3.8	1.49e+00	0	59	104	804257792	51	18704
2026-01-29 08:34:32.53	0.50	10.06	-39.8	-54.2	3.8	1.49e+00	0	59	104	804257792	51	18608
2026-01-29 08:34:33.54	0.39	9.99	-39.9	-54.3	3.8	1.49e+00	0	59	104	804257792	51	18806
2026-01-29 08:34:34.55	0.28	9.92	-39.9	-54.2	3.8	1.49e+00	0	59	104	804257792	51	18729
2026-01-29 08:34:35.56	0.17	9.85	-39.9	-54.2	3.8	1.49e+00	0	59	104	804257792	51	18706
2026-01-29 08:34:36.57	0.06	9.78	-39.8	-54.2	3.8	1.49e+00	0	59	104	804257792	51	18678
2026-01-29 08:34:37.58	359.95	9.71	-39.8	-54.3	3.8	1.49e+00	0	59	104	804257792	51	18737
2026-01-29 08:34:38.59	359.84	9.65	-39.9	-54.3	3.8	1.49e+00	0	59	104	804257792	51	18769
2026-01-29 08:34:39.60	359.73	9.58	-39.8	-54.2	3.8	1.49e+00	0	59	104	804257792	51	18698
2026-01-29 08:34:40.61	359.62	9.51	-39.8	-54.2	3.8	1.49e+00	0	59	104	804257792	51	18673
2026-01-29 08:34:41.62	359.51	9.44	-39.8	-54.2	3.8	1.49e+00	0	59	104	804257792	51	18671
2026-01-29 08:34:42.63	359.40	9.37	-39.9	-54.3	3.8	1.49e+00	0	59	104	804257792	51	18792
2026-01-29 08:34:43.64	359.30	9.31	-39.8	-54.2	3.8	1.49e+00	0	59	104	804257792	51	18688
2026-01-29 08:34:44.65	359.19	9.24	-39.8	-54.2	3.8	1.49e+00	0	59	104	804257792	51	18700
2026-01-29 08:34:45.66	359.08	9.17	-39.8	-54.2	3.8	1.49e+00	0	59	104	804257792	51	18598
2026-01-29 08:34:46.67	358.98	9.10	-39.8	-54.3	3.8	1.49e+00	0	59	104	804257792	51	18761
2026-01-29 08:34:47.68	358.87	9.04	-39.8	-54.2	3.8	1.49e+00	0	59	104	804257792	51	18520
2026-01-29 08:34:48.69	358.77	8.97	-39.8	-54.2	3.8	1.49e+00	0	59	104	804257792	51	18648
2026-01-29 08:34:49.70	358.66	8.90	-39.8	-54.2	3.8	1.49e+00	0	59	104	804257792	51	18588
2026-01-29 08:34:50.71	358.56	8.84	-39.8	-54.2	3.8	1.49e+00	0	59	104	804257792	51	18714
2026-01-29 08:34:51.72	358.46	8.77	-39.7	-54.1	3.8	1.49e+00	0	59	104	804257792	51	18506
2026-01-29 08:34:52.73	358.35	8.70	-39.8	-54.2	3.8	1.49e+00	0	59	104	804257792	51	18631
2026-01-29 08:34:53.74	358.25	8.64	-39.8	-54.2	3.8	1.49e+00	0	59	104	804257792	51	18569
2026-01-29 08:34:54.75	358.15	8.57	-39.8	-54.2	3.8	1.49e+00	0	59	104	804257792	51	18536
2026-01-29 08:34:55.76	358.05	8.50	-39.7	-54.1	3.8	1.49e+00	0	59	104	804257792	51	18473
2026-01-29 08:34:56.77	357.95	8.44	-39.7	-54.2	3.8	1.49e+00	0	59	104	804257792	51	18532
2026-01-29 08:34:57.78	357.85	8.37	-39.7	-54.2	3.8	1.49e+00	0	59	104	804257792	51	18556
2026-01-29 08:34:58.79	357.75	8.30	-39.8	-54.2	3.8	1.49e+00	0	59	104	804257792	51	18536
2026-01-29 08:34:59.80	357.65	8.24	-39.7	-54.1	3.8	1.49e+00	0	59	104	804257792	51	18415
2026-01-29 08:35:00.81	357.55	8.17	-39.7	-54.1	3.8	1.49e+00	0	59	104	804257792	51	18485
2026-01-29 08:35:01.82	357.45	8.10	-39.8	-54.2	3.8	1.49e+00	0	59	104	804257792	51	18544
2026-01-29 08:35:02.83	357.35	8.04	-39.7	-54.1	3.8	1.49e+00	0	59	104	804257792	51	18494
2026-01-29 08:35:03.84	357.26	7.97	-39.8	-54.2	3.8	1.49e+00	0	59	104	804257792	51	18698
2026-01-29 08:35:04.85	357.16	7.91	-41.0	-55.4	3.8	1.49e+00	0	59	104	804257792	52	20072
2026-01-29 08:35:05.86	357.06	7.84	-44.5	-59.1	3.8	1.49e+00	0	59	104	804257792	59	20763
2026-01-29 08:35:06.87	356.97	7.78	-44.7	-59.5	3.8	1.49e+00	0	59	104	804257792	60	20467
2026-01-29 08:35:07.88	356.87	7.71	-44.9	-59.7	3.8	1.49e+00	0	59	104	804257792	60	20836
2026-01-29 08:35:08.89	356.78	7.65	-44.9	-59.8	3.8	1.49e+00	0	59	104	804257792	60	21204
2026-01-29 08:35:09.90	356.68	7.58	-45.2	-60.0	3.8	1.49e+00	0	59	104	804257792	60	21512
2026-01-29 08:35:10.91	356.59	7.51	-45.2	-60.0	3.8	1.49e+00	0	59	104	804257792	60	21549
2026-01-29 08:35:11.92	356.49	7.45	-45.1	-60.0	3.8	1.49e+00	0	59	104	804257792	60	21609
2026-01-29 08:35:12.93	356.40	7.38	-45.1	-60.0	3.8	1.49e+00	0	59	104	804257792	60	21562
2026-01-29 08:35:13.94	356.31	7.32	-45.0	-59.9	3.8	1.49e+00	0	59	104	804257792	60	21469
2026-01-29 08:35:14.95	356.21	7.25	-45.0	-59.9	3.8	1.49e+00	0	59	104	804257792	60	21414
2026-01-29 08:35:15.96	356.12	7.19	-44.9	-59.9	3.8	1.49e+00	0	59	104	804257792	60	21292
2026-01-29 08:35:16.97	356.03	7.13	-44.9	-59.8	3.8	1.49e+00	0	59	104	804257792	60	21221
2026-01-29 08:35:17.99	355.94	7.06	-44.9	-59.8	3.8	1.49e+00	0	59	104	804257792	60	21053
2026-01-29 08:35:19.00	355.85	7.00	-44.7	-59.8	3.8	1.49e+00	0	59	104	804257792	60	21030
2026-01-29 08:35:20.01	355.76	6.93	-44.8	-59.7	3.8	1.49e+00	0	59	104	804257792	60	20902
2026-01-29 08:35:21.02	355.67	6.87	-44.8	-59.7	3.8	1.49e+00	0	59	104	804257792	60	20846
2026-01-29 08:35:22.03	355.58	6.80	-44.8	-59.7	3.8	1.49e+00	0	59	104	804257792	60	20866
2026-01-29 08:35:23.04	355.49	6.74	-44.8	-59.7	3.8	1.49e+00	0	59	104	804257792	60	20793
2026-01-29 08:35:24.05	355.40	6.67	-44.8	-59.6	3.8	1.49e+00	0	59	104	804257792	60	20764
2026-01-29 08:35:25.06	355.31	6.61	-44.2	-59.6	3.8	1.49e+00	0	59	104	804257792	60	20755
2026-01-29 08:35:26.07	355.22	6.55	-44.7	-59.6	3.8	1.49e+00	0	59	104	804257792	60	20769
2026-01-29 08:35:27.08	355.13	6.48	-44.8	-59.6	3.8	1.49e+00	0	59	104	804257792	60	20744
2026-01-29 08:35:28.09	355.05	6.42	-44.8	-59.6	3.8	1.49e+00	0	59	104	804257792	60	20723
2026-01-29 08:35:29.10	354.96	6.36	-44.8	-59.6	3.8	1.49e+00	0	59	104	804257792	60	20633
2026-01-29 08:35:30.11	354.87	6.29	-44.8	-59.6	3.8	1.49e+00	0	59	104	804257792	60	20739
2026-01-29 08:35:31.12	354.79	6.23	-44.8	-59.6	3.8	1.49e+00	0	59	104	804257792	60	20728
2026-01-29 08:35:32.13	354.70	6.17	-44.8	-59.6	3.8	1.49e+00	0	59	104	804257792	60	20719
2026-01-29 08:35:33.14	354.62	6.10	-44.7	-59.6	3.8	1.49e+00	0	59	104	804257792	60	20674
2026-01-29 08:35:34.15	354.53	6.04	-44.0	-59.5	3.8	1.49e+00	0	59	104	804257792	59	21532
2026-01-29 08:35:35.16	354.45	5.98	-44.7	-59.6	3.8	1.49e+00	0	59	104	804257792	60	20650
2026-01-29 08:35:36.17	354.36	5.91	-44.7	-59.6	3.8	1.49e+00	0	59	104	804257792	60	20647
2026-01-29 08:35:37.18	354.28	5.85	-44.5	-59.6	3.8	1.49e+00	0	59	104	804257792	60	20664
2026-01-29 08:35:38.19	354.20	5.79	-44.7	-59.6	3.8	1.49e+00	0	59	104	804257792	60	20704
2026-01-29 08:35:39.20	354.11	5.73	-44.8	-59.6	3.8	1.49e+00	0	59	104	804257792	60	20703
2026-01-29 08:35:40.22	354.03	5.66	-44.7	-59.6	3.8	1.49e+00	0	59	104	804257792	60	20654
2026-01-29 08:35:41.22	353.95	5.60	-44.7	-59.6	3.8	1.49e+00	0	59	104	804257792	60	20601
2026-01-29 08:35:42.23	353.87	5.54	-44.7	-59.6	3.8	1.49e+00	0	59	104	804257792	60	20661
2026-01-29 08:35:43.24	353.79	5.48	-44.7	-59.6	3.8	1.49e+00	0	59	104	804257792	60	20599
2026-01-29 08:35:44.25	353.70	5.41	-44.7	-59.6	3.8	1.49e+00	0	59	104	804257792	60	20643
2026-01-29 08:35:45.27	353.62	5.35	-44.7	-59.6	3.8	1.49e+00	0	59	104	804257792	60	20660
