passes_logs/2026/01/29/R2.0S_Moscow/R2.0S_Moscow__20260129_093308_NOAA_21_JPSS-2_rec.log

#Pass ID: 20260129_093308_NOAA 21 (JPSS-2)
#Satellite: NOAA 21 (JPSS-2)
#Configuration: NOAA-21
#almurnet v.1.7.20251203
#Start time: 2026-01-29 09:33:10

#Version: 2.2.20231116
#Station: R2.0S_Moscow
#Location: 37.707566 lon 55.798166 lat
#TLE: 1 54234U 22150A   26027.91149249  .00000141  00000+0  87546-4 0  9993
#TLE: 2 54234  98.7510 328.6558 0000880 202.8718 157.2419 14.19540177166642

#Time	Az	El	Level	Level2	SNR	BER	BlckErr	Temp	State	Recorded	gain1	gain2
2026-01-29 09:33:10.94	149.84	2.15	-43.5	-55.9	3.8	1.49e+00	0	50	0	0	57	16091
2026-01-29 09:33:11.94	149.83	2.21	-43.6	-55.9	3.8	1.49e+00	0	50	104	0	58	15151
2026-01-29 09:33:12.95	149.81	2.28	-43.6	-55.9	3.8	1.49e+00	0	50	104	0	58	15171
2026-01-29 09:33:13.96	149.80	2.35	-43.5	-55.9	3.8	1.49e+00	0	50	104	0	58	15137
2026-01-29 09:33:14.97	149.78	2.41	-43.6	-55.9	3.8	1.49e+00	0	50	104	0	58	15145
2026-01-29 09:33:15.98	149.77	2.48	-43.6	-55.9	3.8	1.49e+00	0	50	104	0	58	15173
2026-01-29 09:33:16.99	149.75	2.54	-43.5	-55.9	3.8	1.49e+00	0	50	104	0	58	15181
2026-01-29 09:33:18.00	149.74	2.61	-43.6	-55.9	3.8	1.49e+00	0	50	104	0	58	15145
2026-01-29 09:33:19.01	149.72	2.67	-43.6	-55.9	3.8	1.49e+00	0	51	104	0	58	15142
2026-01-29 09:33:20.02	149.71	2.74	-43.5	-55.9	3.8	1.49e+00	0	51	104	0	57	15948
2026-01-29 09:33:21.03	149.69	2.81	-43.5	-55.9	3.8	1.49e+00	0	51	104	0	57	15989
2026-01-29 09:33:22.04	149.68	2.87	-43.5	-55.9	3.8	1.49e+00	0	51	104	0	57	16003
2026-01-29 09:33:23.05	149.66	2.94	-43.5	-55.9	3.8	1.49e+00	0	51	104	0	57	15984
2026-01-29 09:33:24.06	149.65	3.01	-43.5	-55.9	3.8	1.49e+00	0	51	104	0	57	15977
2026-01-29 09:33:25.07	149.63	3.07	-43.5	-55.9	3.8	1.49e+00	0	51	104	0	57	16022
2026-01-29 09:33:26.08	149.62	3.14	-43.5	-55.9	3.8	1.49e+00	0	51	104	0	57	15999
2026-01-29 09:33:27.09	149.60	3.21	-43.5	-55.9	3.8	1.49e+00	0	51	104	0	57	15962
2026-01-29 09:33:28.10	149.59	3.28	-43.5	-55.9	3.8	1.49e+00	0	51	104	0	57	16059
2026-01-29 09:33:29.11	149.57	3.34	-43.5	-55.9	3.8	1.49e+00	0	51	104	0	57	15972
2026-01-29 09:33:30.12	149.56	3.41	-43.5	-55.9	3.8	1.49e+00	0	51	104	0	57	16034
2026-01-29 09:33:31.13	149.54	3.48	-43.5	-55.9	3.8	1.49e+00	0	51	104	0	57	15978
2026-01-29 09:33:32.14	149.52	3.55	-43.3	-55.9	3.8	1.49e+00	0	51	104	0	57	15990
2026-01-29 09:33:33.15	149.51	3.62	-43.5	-55.9	3.8	1.49e+00	0	52	104	0	57	15980
2026-01-29 09:33:34.16	149.49	3.69	-43.5	-55.9	3.8	1.49e+00	0	51	104	0	57	15985
2026-01-29 09:33:35.17	149.48	3.75	-43.6	-55.9	3.8	1.49e+00	0	52	104	0	57	15974
2026-01-29 09:33:36.18	149.46	3.82	-43.5	-55.9	3.8	1.49e+00	0	51	104	0	57	15982
2026-01-29 09:33:37.19	149.44	3.89	-43.5	-55.9	3.8	1.49e+00	0	52	104	0	57	15982
2026-01-29 09:33:38.20	149.43	3.96	-43.5	-55.9	3.8	1.49e+00	0	52	104	0	57	15958
2026-01-29 09:33:39.21	149.41	4.03	-43.5	-55.9	3.8	1.49e+00	0	52	104	0	57	15987
2026-01-29 09:33:40.22	149.40	4.10	-43.5	-55.8	3.8	1.49e+00	0	52	104	0	57	15933
2026-01-29 09:33:41.23	149.38	4.17	-43.5	-55.9	3.8	1.49e+00	0	52	104	0	57	15984
2026-01-29 09:33:42.24	149.36	4.24	-43.5	-55.8	3.8	1.49e+00	0	52	104	0	57	15928
2026-01-29 09:33:43.26	149.34	4.31	-43.5	-55.9	3.8	1.49e+00	0	52	104	0	57	15990
2026-01-29 09:33:44.26	149.33	4.38	-43.5	-55.9	3.8	1.49e+00	0	52	104	0	57	16016
2026-01-29 09:33:45.27	149.31	4.45	-43.5	-55.9	3.8	1.49e+00	0	52	104	0	57	15978
2026-01-29 09:33:46.29	149.29	4.52	-43.5	-55.9	3.8	1.49e+00	0	52	104	0	57	15975
2026-01-29 09:33:47.29	149.28	4.59	-43.5	-55.9	3.8	1.49e+00	0	52	104	0	57	16042
2026-01-29 09:33:48.31	149.26	4.66	-43.5	-55.9	3.8	1.49e+00	0	52	104	0	57	15989
2026-01-29 09:33:49.32	149.24	4.73	-43.5	-55.9	3.8	1.49e+00	0	52	104	0	57	15984
2026-01-29 09:33:50.33	149.22	4.81	-43.5	-55.9	3.8	1.49e+00	0	53	104	0	57	16006
2026-01-29 09:33:51.34	149.21	4.88	-43.5	-55.9	3.8	1.49e+00	0	53	104	0	57	16002
2026-01-29 09:33:52.35	149.19	4.95	-43.3	-55.8	3.8	1.49e+00	0	53	104	0	57	15923
2026-01-29 09:33:53.36	149.17	5.02	-43.3	-55.8	3.8	1.49e+00	0	53	104	0	57	15873
2026-01-29 09:33:54.37	149.15	5.09	-43.5	-55.8	3.8	1.49e+00	0	53	104	0	57	15823
2026-01-29 09:33:55.38	149.14	5.17	-43.3	-55.8	3.8	1.49e+00	0	53	104	0	57	15763
2026-01-29 09:33:56.39	149.12	5.24	-43.3	-55.7	3.8	1.49e+00	0	53	104	0	57	15699
2026-01-29 09:33:57.40	149.10	5.31	-43.5	-55.6	3.8	1.49e+00	0	53	104	0	57	15458
2026-01-29 09:33:58.41	149.08	5.38	-43.0	-55.4	3.8	1.49e+00	0	53	104	0	57	15214
2026-01-29 09:33:59.42	149.06	5.46	-43.2	-55.2	3.8	1.49e+00	0	53	104	0	57	14752
2026-01-29 09:34:00.43	149.04	5.53	-43.4	-54.9	3.8	1.49e+00	0	53	104	0	57	14328
2026-01-29 09:34:01.44	149.03	5.60	-43.4	-54.6	3.8	1.49e+00	0	53	104	0	57	13785
2026-01-29 09:34:02.45	149.01	5.68	-43.1	-54.2	3.8	1.49e+00	0	53	104	0	57	13260
2026-01-29 09:34:03.46	148.99	5.75	-43.3	-53.5	4.0	1.49e+00	0	53	104	0	57	12166
2026-01-29 09:34:04.47	148.97	5.83	-43.2	-53.5	3.9	1.48e+00	0	53	104	0	57	12152
2026-01-29 09:34:05.48	148.95	5.90	-43.1	-52.8	4.1	1.47e+00	0	53	104	0	57	11274
2026-01-29 09:34:06.49	148.93	5.98	-43.0	-53.0	3.9	1.47e+00	0	53	104	0	57	11546
2026-01-29 09:34:07.50	148.91	6.05	-43.1	-52.3	4.2	1.47e+00	0	53	104	0	57	10638
2026-01-29 09:34:08.51	148.89	6.12	-43.1	-52.6	3.9	1.45e+00	0	54	104	0	57	10976
2026-01-29 09:34:09.52	148.87	6.20	-43.1	-51.7	4.4	1.46e+00	0	53	104	0	57	9918
2026-01-29 09:34:10.53	148.85	6.28	-43.0	-52.1	4.0	1.44e+00	0	54	104	0	56	10905
2026-01-29 09:34:11.54	148.83	6.35	-42.8	-50.9	4.7	1.09e+00	0	54	104	0	56	9538
2026-01-29 09:34:12.55	148.81	6.43	-42.8	-51.0	4.1	7.56e-01	0	54	104	1048576	56	9708
2026-01-29 09:34:13.56	148.79	6.50	-42.8	-50.0	5.2	6.37e-01	0	54	0	2097152	56	8622
2026-01-29 09:34:14.57	148.77	6.58	-42.7	-49.9	5.2	5.93e-01	0	54	0	5242880	56	8511
2026-01-29 09:34:15.58	148.75	6.66	-42.5	-49.1	5.7	4.33e-01	0	54	0	8388608	56	7783
2026-01-29 09:34:16.59	148.73	6.73	-42.4	-48.7	6.1	3.18e-01	0	54	0	11534336	56	7392
2026-01-29 09:34:17.60	148.71	6.81	-42.2	-48.3	6.2	2.79e-01	0	54	0	14680064	55	7524
2026-01-29 09:34:18.61	148.69	6.89	-42.0	-47.7	6.8	2.11e-01	0	54	0	17825792	55	6974
2026-01-29 09:34:19.62	148.67	6.96	-41.9	-47.3	7.1	1.50e-01	0	54	0	20971520	55	6715
2026-01-29 09:34:20.63	148.65	7.04	-41.7	-47.0	7.4	1.34e-01	0	54	0	24117248	54	6826
2026-01-29 09:34:21.65	148.63	7.12	-41.6	-46.3	8.1	7.31e-02	0	54	0	27262976	54	6333
2026-01-29 09:34:22.66	148.61	7.20	-41.5	-46.2	8.1	6.07e-02	0	54	0	30408704	54	6249
2026-01-29 09:34:23.67	148.59	7.28	-41.3	-45.7	8.7	3.72e-02	0	54	0	33554432	54	5911
2026-01-29 09:34:24.68	148.57	7.36	-41.2	-45.5	8.9	3.04e-02	0	54	0	36700160	53	6073
2026-01-29 09:34:25.69	148.55	7.43	-40.9	-44.9	9.5	1.72e-02	0	54	0	39845888	53	5687
2026-01-29 09:34:26.70	148.52	7.51	-40.9	-44.8	9.6	1.57e-02	0	54	0	42991616	53	5648
2026-01-29 09:34:27.71	148.50	7.59	-40.8	-44.6	9.8	1.03e-02	0	54	0	46137344	53	5519
2026-01-29 09:34:28.72	148.48	7.67	-40.7	-44.5	10.0	9.45e-03	0	54	0	49283072	52	5744
2026-01-29 09:34:29.73	148.46	7.75	-40.6	-44.3	10.1	6.18e-03	0	54	0	52428800	52	5637
2026-01-29 09:34:30.74	148.44	7.83	-40.6	-44.2	10.2	6.03e-03	0	54	0	55574528	52	5586
2026-01-29 09:34:31.75	148.42	7.91	-40.5	-44.2	10.2	5.72e-03	0	55	0	58720256	52	5571
2026-01-29 09:34:32.76	148.39	7.99	-40.5	-44.2	10.4	4.69e-03	0	54	0	61865984	51	5870
2026-01-29 09:34:33.77	148.37	8.07	-44.0	-54.4	3.9	1.66e-01	0	55	104	65011712	58	12757
2026-01-29 09:34:34.78	148.35	8.16	-43.4	-51.7	4.0	1.49e+00	0	55	104	65011712	58	9318
2026-01-29 09:34:35.79	148.33	8.24	-40.7	-44.6	10.0	6.95e-03	0	55	0	67108864	53	5487
2026-01-29 09:34:36.80	148.30	8.32	-40.1	-45.0	9.8	5.68e-03	0	54	0	70254592	52	6097
2026-01-29 09:34:37.81	148.28	8.40	-41.6	-46.6	7.8	2.16e-02	0	55	0	73400320	53	6896
2026-01-29 09:34:38.82	148.26	8.48	-40.7	-44.2	10.5	5.82e-02	0	55	0	76546048	53	5222
2026-01-29 09:34:39.83	148.23	8.56	-40.6	-44.0	10.6	3.62e-03	0	55	0	79691776	52	5461
2026-01-29 09:34:40.84	148.21	8.65	-40.6	-44.1	10.6	3.58e-03	0	55	0	82837504	52	5468
2026-01-29 09:34:41.85	148.19	8.73	-40.5	-43.8	10.9	2.57e-03	0	55	0	85983232	52	5335
2026-01-29 09:34:42.86	148.16	8.81	-40.6	-43.9	10.9	1.99e-03	0	55	0	89128960	51	5714
2026-01-29 09:34:43.87	148.14	8.90	-40.5	-43.8	11.1	1.60e-03	0	55	0	92274688	51	5600
2026-01-29 09:34:44.87	148.11	8.98	-40.5	-43.7	11.2	1.36e-03	0	55	0	95420416	51	5563
2026-01-29 09:34:45.88	148.09	9.06	-39.8	-43.6	11.3	1.27e-03	0	55	0	98566144	50	5854
2026-01-29 09:34:46.89	148.07	9.15	-40.4	-43.6	11.4	1.18e-03	0	55	0	101711872	51	5470
2026-01-29 09:34:47.90	148.04	9.23	-40.3	-43.5	11.4	8.54e-04	0	55	0	104857600	51	5445
2026-01-29 09:34:48.91	148.02	9.32	-40.3	-43.4	11.7	8.43e-04	0	55	0	108003328	51	5343
2026-01-29 09:34:49.92	147.99	9.40	-40.3	-43.3	11.7	6.74e-04	0	55	0	111149056	51	5311
2026-01-29 09:34:50.93	147.97	9.49	-40.3	-43.4	11.6	6.34e-04	0	55	0	114294784	51	5347
2026-01-29 09:34:51.94	147.94	9.57	-40.4	-43.3	11.7	6.13e-04	0	55	0	117440512	51	5337
2026-01-29 09:34:52.95	147.92	9.66	-40.3	-43.3	11.8	4.97e-04	0	55	0	120586240	51	5321
2026-01-29 09:34:53.96	147.89	9.75	-40.2	-43.1	11.9	4.14e-04	0	55	0	123731968	51	5210
2026-01-29 09:34:54.97	147.87	9.83	-40.2	-43.2	11.9	3.91e-04	0	55	0	126877696	51	5232
2026-01-29 09:34:55.98	147.84	9.92	-40.2	-43.1	11.9	3.75e-04	0	55	0	130023424	51	5210
2026-01-29 09:34:56.99	147.81	10.01	-40.2	-43.2	11.9	4.02e-04	0	55	0	133169152	51	5225
2026-01-29 09:34:58.00	147.79	10.09	-40.2	-43.2	11.9	3.52e-04	0	55	0	136314880	51	5223
2026-01-29 09:34:59.01	147.76	10.18	-40.2	-43.0	12.1	2.78e-04	0	55	0	139460608	50	5461
2026-01-29 09:35:00.02	147.73	10.27	-40.2	-43.0	12.1	3.11e-04	0	56	0	142606336	50	5427
2026-01-29 09:35:01.03	147.71	10.36	-40.1	-43.0	12.1	2.66e-04	0	56	0	145752064	50	5415
2026-01-29 09:35:02.04	147.68	10.45	-39.9	-43.0	12.1	2.22e-04	0	56	0	148897792	50	5448
2026-01-29 09:35:03.05	147.65	10.54	-40.1	-42.9	12.2	2.13e-04	0	55	0	152043520	50	5396
2026-01-29 09:35:04.06	147.63	10.63	-40.0	-42.8	12.4	1.83e-04	0	56	0	155189248	50	5324
2026-01-29 09:35:05.07	147.60	10.72	-39.9	-42.8	12.4	1.91e-04	0	55	0	158334976	50	5313
2026-01-29 09:35:06.08	147.57	10.81	-39.9	-42.9	12.2	1.79e-04	0	55	0	161480704	50	5384
2026-01-29 09:35:07.09	147.54	10.90	-40.0	-42.8	12.4	1.67e-04	0	55	0	164626432	50	5290
2026-01-29 09:35:08.10	147.52	10.99	-40.1	-42.8	12.4	1.59e-04	0	55	0	167772160	50	5337
2026-01-29 09:35:09.11	147.49	11.08	-39.7	-42.8	12.4	1.11e-04	0	55	0	170917888	50	5320
2026-01-29 09:35:10.12	147.46	11.17	-40.0	-42.7	12.5	1.37e-04	0	56	0	174063616	50	5265
2026-01-29 09:35:11.13	147.43	11.26	-40.0	-42.7	12.5	1.27e-04	0	56	0	177209344	50	5273
2026-01-29 09:35:12.14	147.40	11.35	-40.0	-42.7	12.6	1.18e-04	0	56	0	180355072	50	5254
2026-01-29 09:35:13.15	147.37	11.44	-39.9	-42.5	12.7	9.99e-05	0	56	0	183500800	50	5151
2026-01-29 09:35:14.16	147.34	11.54	-39.9	-42.6	12.8	6.48e-05	0	56	0	186646528	50	5160
2026-01-29 09:35:15.17	147.31	11.63	-39.9	-42.5	12.8	1.16e-04	0	56	0	189792256	50	5135
2026-01-29 09:35:16.18	147.29	11.72	-40.4	-42.8	12.6	2.33e-04	0	56	0	192937984	50	5284
2026-01-29 09:35:17.19	147.26	11.82	-39.9	-42.5	12.8	6.17e-05	0	56	0	196083712	50	5134
2026-01-29 09:35:18.21	147.23	11.91	-39.9	-42.5	12.8	6.86e-05	0	56	0	199229440	50	5147
2026-01-29 09:35:19.22	147.20	12.01	-39.6	-42.5	12.8	8.16e-05	0	56	0	202375168	50	5144
2026-01-29 09:35:20.22	147.17	12.10	-39.9	-42.5	12.8	5.79e-05	0	56	0	205520896	50	5149
2026-01-29 09:35:21.23	147.13	12.20	-39.8	-42.4	13.0	6.33e-05	0	56	0	208666624	50	5065
2026-01-29 09:35:22.24	147.10	12.29	-39.8	-42.3	13.0	3.73e-05	0	56	0	211812352	50	5038
2026-01-29 09:35:23.25	147.07	12.39	-39.8	-42.4	13.0	6.94e-05	0	56	0	214958080	50	5064
2026-01-29 09:35:24.26	147.04	12.48	-39.9	-42.4	12.9	3.12e-05	0	56	0	218103808	50	5080
2026-01-29 09:35:25.27	147.01	12.58	-39.9	-42.5	12.9	4.34e-05	0	56	0	221249536	50	5113
2026-01-29 09:35:26.28	146.98	12.68	-39.8	-42.4	13.0	3.73e-05	0	56	0	224395264	50	5049
2026-01-29 09:35:27.29	146.95	12.77	-39.7	-42.4	13.0	4.50e-05	0	56	0	227540992	50	5047
2026-01-29 09:35:28.30	146.91	12.87	-39.7	-42.3	13.1	6.94e-05	0	56	0	230686720	50	5003
2026-01-29 09:35:29.31	146.88	12.97	-39.8	-42.3	13.1	4.42e-05	0	56	0	233832448	50	4989
2026-01-29 09:35:30.32	146.85	13.07	-39.2	-42.2	13.2	2.89e-05	0	56	0	236978176	49	5247
2026-01-29 09:35:31.33	146.82	13.17	-39.8	-42.2	13.2	3.05e-05	0	56	0	240123904	50	4981
2026-01-29 09:35:32.35	146.78	13.27	-39.5	-42.2	13.1	2.74e-05	0	56	0	243269632	50	4958
2026-01-29 09:35:33.36	146.75	13.37	-40.3	-42.4	13.0	5.64e-05	0	56	0	246415360	50	5078
2026-01-29 09:35:34.37	146.72	13.47	-39.8	-42.3	13.1	2.89e-05	0	56	0	249561088	50	4997
2026-01-29 09:35:35.38	146.68	13.57	-39.8	-42.2	13.2	3.05e-05	0	56	0	252706816	50	4979
2026-01-29 09:35:36.39	146.65	13.67	-39.8	-42.2	13.2	2.74e-05	0	56	0	255852544	50	4969
2026-01-29 09:35:37.40	146.61	13.77	-39.7	-42.2	13.3	2.74e-05	0	56	0	258998272	49	5222
2026-01-29 09:35:38.41	146.58	13.87	-39.6	-42.0	13.4	2.44e-05	0	56	0	262144000	49	5159
2026-01-29 09:35:39.42	146.55	13.97	-39.2	-42.1	13.3	1.90e-05	0	56	0	265289728	49	5194
2026-01-29 09:35:40.43	146.51	14.08	-38.8	-42.0	13.3	2.05e-05	0	56	0	268435456	49	5154
2026-01-29 09:35:41.44	146.48	14.18	-39.7	-42.1	13.4	4.57e-05	0	56	0	272629760	49	5185
2026-01-29 09:35:42.45	146.44	14.28	-39.7	-42.1	13.4	1.52e-05	0	56	0	274726912	49	5170
2026-01-29 09:35:43.46	146.40	14.39	-39.6	-42.0	13.5	1.14e-05	0	56	0	277872640	48	5455
2026-01-29 09:35:44.47	146.37	14.49	-39.1	-42.1	13.4	1.67e-05	0	56	0	281018368	49	5185
2026-01-29 09:35:45.48	146.33	14.59	-39.7	-42.0	13.5	1.60e-05	0	56	0	284164096	49	5140
2026-01-29 09:35:46.49	146.29	14.70	-39.7	-42.1	13.5	1.37e-05	0	56	0	288358400	49	5164
2026-01-29 09:35:47.50	146.26	14.81	-39.7	-42.1	13.5	1.06e-05	0	56	0	291504128	49	5163
2026-01-29 09:35:48.51	146.22	14.91	-39.7	-42.1	13.4	9.90e-06	0	57	0	294649856	49	5178
2026-01-29 09:35:49.52	146.18	15.02	-39.0	-42.0	13.5	1.06e-05	0	56	0	297795584	49	5142
2026-01-29 09:35:50.53	146.15	15.13	-39.6	-42.0	13.4	7.60e-06	0	57	0	299892736	49	5153
2026-01-29 09:35:51.54	146.11	15.23	-39.3	-42.0	13.5	3.35e-05	0	56	0	304087040	49	5128
2026-01-29 09:35:52.55	146.07	15.34	-39.6	-42.0	13.5	1.06e-05	0	57	0	307232768	49	5129
2026-01-29 09:35:53.57	146.03	15.45	-39.7	-42.0	13.5	1.29e-05	0	57	0	310378496	49	5144
2026-01-29 09:35:54.58	145.99	15.56	-39.0	-42.1	13.4	9.90e-06	0	57	0	313524224	49	5160
2026-01-29 09:35:55.59	145.95	15.67	-39.3	-42.1	13.4	1.14e-05	0	56	0	316669952	50	4907
2026-01-29 09:35:56.60	145.91	15.78	-39.7	-42.1	13.5	1.06e-05	0	57	0	319815680	49	5173
2026-01-29 09:35:57.61	145.87	15.89	-39.7	-42.2	13.4	1.75e-05	0	57	0	322961408	50	4933
2026-01-29 09:35:58.62	145.83	16.00	-39.5	-42.1	13.5	1.67e-05	0	57	0	326107136	49	5182
2026-01-29 09:35:59.63	145.79	16.11	-39.7	-42.1	13.5	1.29e-05	0	57	0	329252864	49	5167
2026-01-29 09:36:00.64	145.75	16.22	-39.7	-42.0	13.5	6.10e-06	0	57	0	332398592	49	5150
2026-01-29 09:36:01.65	145.71	16.33	-39.7	-42.1	13.5	1.60e-05	0	57	0	335544320	49	5161
2026-01-29 09:36:02.66	145.67	16.45	-39.7	-42.0	13.6	1.06e-05	0	57	0	338690048	49	5154
2026-01-29 09:36:03.67	145.63	16.56	-39.8	-42.1	13.5	8.30e-06	0	57	0	341835776	50	4924
2026-01-29 09:36:04.68	145.58	16.67	-39.8	-42.2	13.5	9.10e-06	0	57	0	344981504	50	4927
2026-01-29 09:36:05.69	145.54	16.79	-39.8	-42.2	13.4	9.10e-06	0	57	0	348127232	50	4940
2026-01-29 09:36:06.70	145.50	16.90	-39.8	-42.1	13.5	8.30e-06	0	57	0	351272960	50	4916
2026-01-29 09:36:07.71	145.46	17.02	-39.5	-42.0	13.6	5.30e-06	0	57	0	354418688	50	4845
2026-01-29 09:36:08.72	145.41	17.13	-39.7	-42.1	13.6	5.30e-06	0	57	0	357564416	49	5165
2026-01-29 09:36:09.73	145.37	17.25	-39.7	-42.0	13.6	1.06e-05	0	57	0	360710144	50	4847
2026-01-29 09:36:10.74	145.32	17.37	-39.5	-42.1	13.6	8.30e-06	0	57	0	363855872	50	4874
2026-01-29 09:36:11.75	145.28	17.48	-39.7	-42.1	13.6	9.10e-06	0	57	0	367001600	50	4884
2026-01-29 09:36:12.76	145.23	17.60	-39.8	-42.1	13.6	7.60e-06	0	57	0	370147328	50	4925
2026-01-29 09:36:13.77	145.19	17.72	-39.8	-42.1	13.5	7.60e-06	0	57	0	373293056	50	4926
2026-01-29 09:36:14.78	145.14	17.84	-39.7	-42.2	13.5	1.52e-05	0	57	0	376438784	50	4945
2026-01-29 09:36:15.79	145.10	17.96	-39.8	-42.3	13.4	1.22e-05	0	57	0	379584512	50	4987
2026-01-29 09:36:16.80	145.05	18.08	-39.8	-42.2	13.5	6.10e-06	0	57	0	382730240	50	4953
2026-01-29 09:36:17.81	145.00	18.20	-39.8	-42.2	13.5	1.44e-05	0	57	0	385875968	50	4941
2026-01-29 09:36:18.82	144.96	18.32	-39.7	-42.3	13.4	1.29e-05	0	57	0	389021696	50	5004
2026-01-29 09:36:19.83	144.91	18.44	-39.7	-42.3	13.4	1.22e-05	0	57	0	392167424	50	4992
2026-01-29 09:36:20.84	144.86	18.57	-39.9	-42.2	13.5	1.29e-05	0	57	0	395313152	50	4975
2026-01-29 09:36:21.85	144.81	18.69	-39.9	-42.3	13.3	1.60e-05	0	57	0	398458880	50	5039
2026-01-29 09:36:22.86	144.76	18.81	-39.9	-42.3	13.4	2.21e-05	0	57	0	401604608	50	5007
2026-01-29 09:36:23.87	144.71	18.94	-39.8	-42.3	13.4	1.29e-05	0	57	0	404750336	50	5022
2026-01-29 09:36:24.88	144.66	19.06	-39.9	-42.3	13.4	1.60e-05	0	57	0	407896064	50	5015
2026-01-29 09:36:25.89	144.61	19.19	-40.0	-42.4	13.3	1.83e-05	0	57	0	411041792	50	5069
2026-01-29 09:36:26.90	144.56	19.31	-40.1	-42.6	13.2	2.05e-05	0	57	0	414187520	50	5163
2026-01-29 09:36:27.91	144.51	19.44	-40.0	-42.5	13.3	1.37e-05	0	57	0	417333248	50	5109
2026-01-29 09:36:28.92	144.46	19.57	-40.0	-42.4	13.4	1.67e-05	0	57	0	420478976	50	5074
2026-01-29 09:36:29.93	144.41	19.69	-39.9	-42.3	13.5	8.30e-06	0	57	0	423624704	50	4999
2026-01-29 09:36:30.94	144.36	19.82	-39.8	-42.1	13.6	9.10e-06	0	57	0	426770432	50	4925
2026-01-29 09:36:31.95	144.30	19.95	-39.9	-42.2	13.6	1.14e-05	0	57	0	429916160	50	4966
2026-01-29 09:36:32.96	144.25	20.08	-39.8	-42.1	13.7	7.60e-06	0	57	0	433061888	50	4901
2026-01-29 09:36:33.97	144.20	20.21	-39.7	-42.0	13.7	3.80e-06	0	57	0	436207616	50	4847
2026-01-29 09:36:34.98	144.14	20.34	-39.7	-42.0	13.7	1.06e-05	0	57	0	439353344	50	4869
2026-01-29 09:36:35.99	144.09	20.48	-39.7	-42.0	13.8	3.00e-06	0	57	0	442499072	50	4817
2026-01-29 09:36:37.00	144.03	20.61	-39.5	-41.7	14.0	5.30e-06	0	57	0	445644800	50	4700
2026-01-29 09:36:38.01	143.97	20.74	-39.5	-41.7	14.1	3.00e-06	0	57	0	448790528	50	4687
2026-01-29 09:36:39.02	143.92	20.88	-39.5	-41.7	14.1	1.50e-06	0	57	0	451936256	50	4661
2026-01-29 09:36:40.04	143.86	21.01	-39.4	-41.6	14.2	0.00e+00	0	58	0	455081984	50	4626
2026-01-29 09:36:41.05	143.80	21.15	-39.3	-41.5	14.3	7.00e-07	0	58	0	458227712	50	4555
2026-01-29 09:36:42.06	143.75	21.28	-39.3	-41.4	14.4	7.00e-07	0	57	0	461373440	50	4517
2026-01-29 09:36:43.07	143.69	21.42	-39.4	-41.5	14.4	1.50e-06	0	57	0	464519168	50	4548
2026-01-29 09:36:44.08	143.63	21.56	-39.3	-41.4	14.4	7.00e-07	0	58	0	467664896	50	4519
2026-01-29 09:36:45.09	143.57	21.69	-39.2	-41.3	14.5	0.00e+00	0	58	0	470810624	50	4471
2026-01-29 09:36:46.10	143.51	21.83	-39.1	-41.2	14.6	0.00e+00	0	58	0	473956352	50	4418
2026-01-29 09:36:47.11	143.45	21.97	-39.1	-41.1	14.7	0.00e+00	0	57	0	477102080	50	4350
2026-01-29 09:36:48.12	143.39	22.11	-39.0	-41.0	14.8	0.00e+00	0	57	0	480247808	50	4322
2026-01-29 09:36:49.13	143.33	22.25	-39.0	-41.0	14.8	0.00e+00	0	57	0	483393536	49	4577
2026-01-29 09:36:50.14	143.26	22.40	-39.0	-41.0	14.8	0.00e+00	0	57	0	486539264	49	4572
2026-01-29 09:36:51.15	143.20	22.54	-39.0	-41.0	14.9	0.00e+00	0	58	0	489684992	49	4551
2026-01-29 09:36:52.16	143.14	22.68	-38.9	-40.9	14.9	7.00e-07	0	57	0	492830720	49	4523
2026-01-29 09:36:53.17	143.07	22.83	-39.0	-40.9	14.9	0.00e+00	0	58	0	495976448	49	4530
2026-01-29 09:36:54.18	143.01	22.97	-38.9	-40.9	15.0	0.00e+00	0	58	0	499122176	49	4513
2026-01-29 09:36:55.19	142.94	23.12	-38.9	-40.9	15.0	0.00e+00	0	58	0	502267904	49	4521
2026-01-29 09:36:56.20	142.88	23.26	-38.8	-40.8	15.1	0.00e+00	0	58	0	505413632	49	4465
2026-01-29 09:36:57.21	142.81	23.41	-38.8	-40.8	15.1	0.00e+00	0	58	0	508559360	49	4455
2026-01-29 09:36:58.22	142.74	23.56	-38.7	-40.6	15.3	0.00e+00	0	57	0	511705088	49	4358
2026-01-29 09:36:59.23	142.67	23.71	-38.8	-40.7	15.2	0.00e+00	0	57	0	514850816	49	4419
2026-01-29 09:37:00.23	142.61	23.85	-38.8	-40.8	15.1	0.00e+00	0	58	0	517996544	49	4442
2026-01-29 09:37:01.23	142.54	24.00	-38.9	-40.8	15.1	7.00e-07	0	57	0	521142272	49	4490
2026-01-29 09:37:02.24	142.47	24.15	-38.8	-40.8	15.1	0.00e+00	0	58	0	524288000	49	4443
2026-01-29 09:37:03.25	142.40	24.31	-38.8	-40.7	15.2	0.00e+00	0	58	0	527433728	49	4400
2026-01-29 09:37:04.26	142.32	24.46	-38.8	-40.7	15.1	0.00e+00	0	58	0	530579456	49	4428
2026-01-29 09:37:05.27	142.25	24.61	-38.9	-40.9	15.0	0.00e+00	0	58	0	533725184	49	4503
2026-01-29 09:37:06.28	142.18	24.77	-38.9	-40.9	15.0	0.00e+00	0	58	0	536870912	49	4495
2026-01-29 09:37:07.29	142.10	24.92	-39.1	-41.0	14.8	0.00e+00	0	58	0	540016640	49	4596
2026-01-29 09:37:08.31	142.03	25.08	-39.1	-41.1	14.9	0.00e+00	0	58	0	543162368	49	4606
2026-01-29 09:37:09.32	141.95	25.24	-39.2	-41.2	14.7	0.00e+00	0	58	0	546308096	49	4673
2026-01-29 09:37:10.33	141.88	25.40	-39.2	-41.2	14.7	0.00e+00	0	58	0	549453824	49	4691
2026-01-29 09:37:11.34	141.80	25.55	-39.2	-41.3	14.6	0.00e+00	0	58	0	552599552	49	4714
2026-01-29 09:37:12.35	141.72	25.71	-39.3	-41.4	14.5	0.00e+00	0	58	0	555745280	49	4778
2026-01-29 09:37:13.36	141.65	25.88	-39.4	-41.5	14.4	1.50e-06	0	58	0	558891008	49	4846
2026-01-29 09:37:14.37	141.57	26.04	-39.5	-41.6	14.3	0.00e+00	0	58	0	562036736	49	4909
2026-01-29 09:37:15.37	141.49	26.20	-39.5	-41.7	14.3	7.00e-07	0	58	0	565182464	49	4931
2026-01-29 09:37:16.38	141.41	26.36	-39.6	-41.7	14.2	7.00e-07	0	58	0	568328192	49	4969
2026-01-29 09:37:17.39	141.32	26.53	-39.6	-41.8	14.1	1.50e-06	0	58	0	571473920	49	5039
2026-01-29 09:37:18.41	141.24	26.69	-39.6	-41.8	14.1	4.50e-06	0	58	0	574619648	49	5011
2026-01-29 09:37:19.42	141.16	26.86	-39.7	-41.9	14.1	7.00e-07	0	58	0	577765376	49	5049
2026-01-29 09:37:20.43	141.07	27.03	-39.7	-41.9	14.1	7.00e-07	0	58	0	580911104	49	5062
2026-01-29 09:37:21.44	140.99	27.19	-39.8	-42.0	13.9	3.00e-06	0	58	0	584056832	50	4869
2026-01-29 09:37:22.44	140.90	27.36	-39.9	-42.1	13.8	3.80e-06	0	58	0	588251136	50	4908
2026-01-29 09:37:23.46	140.81	27.53	-39.9	-42.2	13.7	4.50e-06	0	58	0	591396864	50	4983
2026-01-29 09:37:24.47	140.72	27.70	-40.0	-42.3	13.7	9.10e-06	0	58	0	593494016	50	4998
2026-01-29 09:37:25.48	140.64	27.88	-40.1	-42.4	13.6	6.10e-06	0	58	0	596639744	50	5065
2026-01-29 09:37:26.49	140.55	28.05	-40.0	-42.3	13.6	1.14e-05	0	58	0	600834048	50	5031
2026-01-29 09:37:27.50	140.45	28.22	-40.0	-42.3	13.6	9.10e-06	0	58	0	603979776	50	5034
2026-01-29 09:37:28.51	140.36	28.40	-40.0	-42.3	13.6	1.22e-05	0	58	0	607125504	50	5024
2026-01-29 09:37:29.52	140.27	28.57	-40.0	-42.3	13.6	6.10e-06	0	58	0	610271232	50	5041
2026-01-29 09:37:30.53	140.17	28.75	-40.0	-42.4	13.6	6.80e-06	0	58	0	613416960	50	5050
2026-01-29 09:37:31.54	140.08	28.93	-40.0	-42.3	13.6	1.06e-05	0	58	0	616562688	50	5030
2026-01-29 09:37:32.55	139.98	29.11	-39.9	-42.1	13.8	2.20e-06	0	58	0	619708416	50	4912
2026-01-29 09:37:33.56	139.88	29.29	-39.9	-42.2	13.8	4.50e-06	0	58	0	622854144	50	4931
2026-01-29 09:37:34.57	139.79	29.47	-39.8	-42.0	14.0	1.50e-06	0	58	0	625999872	50	4851
2026-01-29 09:37:35.58	139.69	29.65	-39.8	-42.0	14.0	2.20e-06	0	58	0	629145600	50	4836
2026-01-29 09:37:36.59	139.58	29.84	-39.7	-41.9	14.1	1.50e-06	0	58	0	632291328	50	4776
2026-01-29 09:37:37.60	139.48	30.02	-39.6	-41.8	14.2	0.00e+00	0	58	0	635437056	50	4717
2026-01-29 09:37:38.61	139.38	30.21	-39.6	-41.7	14.3	7.00e-07	0	58	0	638582784	50	4663
2026-01-29 09:37:39.62	139.27	30.39	-39.5	-41.6	14.4	0.00e+00	0	58	0	641728512	50	4646
2026-01-29 09:37:40.63	139.17	30.58	-39.5	-41.6	14.5	0.00e+00	0	58	0	644874240	50	4602
2026-01-29 09:37:41.65	139.06	30.77	-39.4	-41.5	14.5	7.00e-07	0	58	0	648019968	50	4563
2026-01-29 09:37:42.66	138.95	30.96	-39.4	-41.4	14.6	1.50e-06	0	58	0	651165696	50	4525
2026-01-29 09:37:43.67	138.84	31.15	-39.4	-41.5	14.6	0.00e+00	0	58	0	654311424	50	4547
2026-01-29 09:37:44.68	138.73	31.35	-39.5	-41.6	14.5	0.00e+00	0	58	0	657457152	50	4612
2026-01-29 09:37:45.69	138.62	31.54	-39.5	-41.6	14.4	7.00e-07	0	58	0	660602880	50	4629
2026-01-29 09:37:46.70	138.50	31.73	-39.6	-41.8	14.3	7.00e-07	0	58	0	663748608	50	4728
2026-01-29 09:37:47.71	138.39	31.93	-39.7	-41.8	14.2	7.00e-07	0	58	0	666894336	50	4751
2026-01-29 09:37:48.71	138.27	32.13	-39.7	-41.9	14.2	1.50e-06	0	58	0	670040064	50	4787
2026-01-29 09:37:49.73	138.15	32.33	-39.8	-42.0	14.0	3.00e-06	0	58	0	673185792	50	4858
2026-01-29 09:37:50.74	138.03	32.52	-39.8	-42.0	14.0	7.00e-07	0	58	0	676331520	50	4858
2026-01-29 09:37:51.75	137.91	32.72	-39.8	-42.1	14.0	4.50e-06	0	58	0	679477248	50	4884
2026-01-29 09:37:52.76	137.79	32.93	-39.8	-42.0	14.0	1.50e-06	0	58	0	682622976	50	4861
2026-01-29 09:37:53.76	137.67	33.13	-39.9	-42.1	13.9	3.00e-06	0	58	0	685768704	50	4913
2026-01-29 09:37:54.77	137.54	33.33	-39.9	-42.1	13.9	4.50e-06	0	58	0	688914432	50	4923
2026-01-29 09:37:55.78	137.41	33.54	-39.9	-42.1	14.0	6.10e-06	0	58	0	692060160	50	4892
2026-01-29 09:37:56.79	137.28	33.74	-39.9	-42.1	13.9	1.50e-06	0	58	0	695205888	50	4922
2026-01-29 09:37:57.80	137.15	33.95	-40.0	-42.3	13.8	2.20e-06	0	58	0	698351616	50	5012
2026-01-29 09:37:58.81	137.02	34.16	-40.0	-42.3	13.7	3.80e-06	0	58	0	701497344	50	5038
2026-01-29 09:37:59.83	136.88	34.37	-40.2	-42.5	13.6	3.80e-06	0	58	0	704643072	50	5137
2026-01-29 09:38:00.84	136.75	34.58	-40.3	-42.7	13.4	1.14e-05	0	58	0	707788800	51	4929
2026-01-29 09:38:01.85	136.61	34.80	-40.4	-42.9	13.2	3.28e-05	0	58	0	710934528	51	5069
2026-01-29 09:38:02.86	136.47	35.01	-40.5	-43.1	12.9	4.88e-05	0	58	0	714080256	51	5176
2026-01-29 09:38:03.87	136.33	35.23	-40.6	-43.1	12.9	5.03e-05	0	58	0	717225984	51	5214
2026-01-29 09:38:04.88	136.18	35.44	-40.7	-43.3	12.7	7.09e-05	0	58	0	720371712	51	5324
2026-01-29 09:38:05.89	136.04	35.66	-40.8	-43.5	12.4	1.11e-04	0	58	0	723517440	52	5129
2026-01-29 09:38:06.90	135.89	35.88	-40.8	-43.6	12.4	1.57e-04	0	58	0	726663168	52	5177
2026-01-29 09:38:07.91	135.74	36.10	-40.9	-43.7	12.2	2.24e-04	0	59	0	729808896	52	5262
2026-01-29 09:38:08.92	135.59	36.32	-41.0	-43.9	12.1	2.46e-04	0	58	0	732954624	52	5349
2026-01-29 09:38:09.93	135.44	36.54	-41.1	-44.1	11.9	3.84e-04	0	58	0	736100352	52	5472
2026-01-29 09:38:10.94	135.28	36.77	-41.2	-44.2	11.8	4.22e-04	0	58	0	739246080	52	5537
2026-01-29 09:38:11.95	135.12	36.99	-41.1	-44.1	11.9	4.27e-04	0	58	0	742391808	52	5473
2026-01-29 09:38:12.96	134.96	37.22	-41.1	-44.1	11.9	3.98e-04	0	58	0	745537536	52	5475
2026-01-29 09:38:13.97	134.80	37.45	-41.2	-44.2	11.8	4.32e-04	0	58	0	748683264	52	5537
2026-01-29 09:38:14.98	134.63	37.68	-41.2	-44.1	11.8	4.10e-04	0	58	0	751828992	52	5510
2026-01-29 09:38:15.99	134.47	37.91	-41.2	-44.2	11.8	5.27e-04	0	58	0	754974720	53	5256
2026-01-29 09:38:17.00	134.30	38.14	-41.3	-44.3	11.7	5.67e-04	0	58	0	758120448	53	5313
2026-01-29 09:38:18.01	134.12	38.37	-41.4	-44.5	11.5	7.57e-04	0	58	0	761266176	53	5404
2026-01-29 09:38:19.02	133.95	38.61	-41.4	-44.4	11.5	8.86e-04	0	58	0	764411904	53	5394
2026-01-29 09:38:20.03	133.77	38.84	-41.3	-44.3	11.7	6.49e-04	0	58	0	767557632	53	5289
2026-01-29 09:38:21.04	133.59	39.08	-41.2	-44.1	11.8	5.29e-04	0	58	0	770703360	53	5205
2026-01-29 09:38:22.05	133.41	39.32	-41.2	-44.1	11.9	3.88e-04	0	58	0	773849088	53	5191
2026-01-29 09:38:23.06	133.22	39.56	-41.1	-44.0	11.9	3.49e-04	0	58	0	776994816	53	5159
2026-01-29 09:38:24.07	133.03	39.80	-41.2	-44.2	11.8	4.66e-04	0	58	0	780140544	53	5235
2026-01-29 09:38:25.08	132.84	40.04	-41.3	-44.4	11.5	6.47e-04	0	58	0	783286272	53	5366
2026-01-29 09:38:26.09	132.65	40.28	-41.5	-44.8	11.2	1.22e-03	0	58	0	786432000	53	5594
2026-01-29 09:38:27.10	132.45	40.53	-41.6	-44.9	11.0	1.70e-03	0	58	0	789577728	53	5700
2026-01-29 09:38:28.11	132.25	40.78	-41.7	-45.1	10.9	1.85e-03	0	58	0	792723456	53	5790
2026-01-29 09:38:29.12	132.05	41.02	-41.7	-45.1	10.9	2.35e-03	0	58	0	795869184	54	5465
2026-01-29 09:38:30.13	131.84	41.27	-41.7	-45.1	10.8	2.25e-03	0	58	0	799014912	54	5503
2026-01-29 09:38:31.14	131.63	41.52	-41.6	-44.8	11.2	1.47e-03	0	58	0	802160640	54	5306
2026-01-29 09:38:32.15	131.42	41.77	-41.5	-44.7	11.3	1.25e-03	0	58	0	805306368	54	5248
2026-01-29 09:38:33.16	131.20	42.03	-41.5	-44.6	11.4	1.33e-03	0	58	0	808452096	54	5184
2026-01-29 09:38:34.17	130.98	42.28	-41.4	-44.4	11.6	7.35e-04	0	59	0	811597824	54	5056
2026-01-29 09:38:35.19	130.76	42.54	-41.5	-44.7	11.3	8.99e-04	0	58	0	814743552	54	5219
2026-01-29 09:38:36.20	130.53	42.79	-41.4	-44.5	11.5	7.80e-04	0	58	0	817889280	54	5123
2026-01-29 09:38:37.21	130.30	43.05	-41.5	-44.7	11.3	1.08e-03	0	58	0	821035008	54	5222
2026-01-29 09:38:38.22	130.07	43.31	-41.6	-44.8	11.1	1.49e-03	0	58	0	824180736	54	5340
2026-01-29 09:38:39.23	129.83	43.57	-41.6	-44.8	11.1	1.47e-03	0	58	0	827326464	54	5306
2026-01-29 09:38:40.24	129.59	43.83	-41.7	-45.0	10.9	2.24e-03	0	59	0	830472192	54	5436
2026-01-29 09:38:41.25	129.34	44.09	-41.7	-45.1	10.8	2.83e-03	0	58	0	833617920	54	5476
2026-01-29 09:38:42.26	129.09	44.36	-41.7	-45.0	10.8	2.48e-03	0	58	0	836763648	54	5457
2026-01-29 09:38:43.27	128.83	44.62	-41.6	-44.9	11.0	1.99e-03	0	59	0	839909376	54	5354
2026-01-29 09:38:44.28	128.57	44.89	-41.4	-44.4	11.6	8.54e-04	0	58	0	843055104	54	5055
2026-01-29 09:38:45.29	128.31	45.15	-41.2	-44.1	11.9	4.06e-04	0	59	0	846200832	54	4908
2026-01-29 09:38:46.30	128.04	45.42	-41.1	-43.9	12.1	2.65e-04	0	58	0	849346560	54	4793
2026-01-29 09:38:47.32	127.77	45.69	-41.0	-43.8	12.2	2.10e-04	0	58	0	852492288	54	4708
2026-01-29 09:38:48.33	127.49	45.96	-41.0	-43.7	12.2	2.09e-04	0	58	0	855638016	53	4982
2026-01-29 09:38:49.34	127.21	46.24	-41.1	-43.9	12.0	2.32e-04	0	59	0	859832320	53	5084
2026-01-29 09:38:50.35	126.92	46.51	-41.3	-44.3	11.7	4.55e-04	0	58	0	861929472	53	5296
2026-01-29 09:38:51.36	126.63	46.78	-41.5	-44.6	11.4	9.37e-04	0	58	0	865075200	53	5496
2026-01-29 09:38:52.37	126.33	47.06	-41.5	-44.6	11.3	1.07e-03	0	59	0	868220928	53	5516
2026-01-29 09:38:53.38	126.03	47.33	-41.4	-44.5	11.5	9.87e-04	0	58	0	871366656	53	5405
2026-01-29 09:38:54.39	125.72	47.61	-41.3	-44.2	11.8	4.78e-04	0	58	0	875560960	53	5269
2026-01-29 09:38:55.40	125.41	47.88	-41.2	-44.1	12.0	4.29e-04	0	59	0	878706688	53	5166
2026-01-29 09:38:56.41	125.09	48.16	-41.1	-44.0	12.0	3.05e-04	0	59	0	881852416	53	5114
2026-01-29 09:38:57.42	124.76	48.44	-41.0	-43.9	12.1	2.33e-04	0	58	0	884998144	53	5063
2026-01-29 09:38:58.43	124.43	48.72	-41.1	-44.0	12.0	3.22e-04	0	59	0	887095296	53	5130
2026-01-29 09:38:59.44	124.09	49.00	-41.1	-43.9	12.1	2.46e-04	0	59	0	891289600	53	5088
2026-01-29 09:39:00.44	123.75	49.28	-41.1	-43.9	12.1	2.89e-04	0	58	0	894435328	53	5091
2026-01-29 09:39:01.45	123.40	49.56	-41.0	-43.7	12.3	2.11e-04	0	58	0	897581056	53	4964
2026-01-29 09:39:02.46	123.05	49.84	-40.9	-43.7	12.4	1.61e-04	0	58	0	900726784	53	4949
2026-01-29 09:39:03.48	122.68	50.12	-41.1	-43.9	12.1	2.41e-04	0	59	0	903872512	53	5072
2026-01-29 09:39:04.49	122.31	50.41	-41.1	-44.0	12.0	3.11e-04	0	59	0	907018240	53	5124
2026-01-29 09:39:05.50	121.93	50.69	-41.0	-43.9	12.2	2.61e-04	0	58	0	910163968	53	5050
2026-01-29 09:39:06.51	121.55	50.97	-40.6	-43.2	12.8	7.32e-05	0	58	0	913309696	53	4665
2026-01-29 09:39:07.51	121.16	51.26	-40.3	-42.8	13.2	3.43e-05	0	59	0	916455424	52	4711
2026-01-29 09:39:08.52	120.76	51.54	-40.3	-42.7	13.3	1.67e-05	0	59	0	919601152	52	4701
2026-01-29 09:39:09.53	120.36	51.82	-40.6	-43.1	12.9	2.74e-05	0	58	0	922746880	52	4926
2026-01-29 09:39:10.54	119.94	52.11	-40.7	-43.3	12.7	5.79e-05	0	59	0	925892608	52	5027
2026-01-29 09:39:11.55	119.52	52.39	-40.8	-43.5	12.6	1.07e-04	0	59	0	929038336	52	5128
2026-01-29 09:39:12.56	119.09	52.68	-40.8	-43.5	12.6	1.17e-04	0	59	0	932184064	52	5111
2026-01-29 09:39:13.57	118.65	52.96	-40.5	-43.0	13.1	2.51e-05	0	59	0	935329792	52	4840
2026-01-29 09:39:14.58	118.20	53.25	-40.2	-42.6	13.5	1.52e-05	0	59	0	938475520	52	4612
2026-01-29 09:39:15.59	117.74	53.53	-40.0	-42.3	13.8	6.80e-06	0	59	0	941621248	51	4714
2026-01-29 09:39:16.60	117.28	53.81	-39.9	-42.2	14.0	2.20e-06	0	59	0	944766976	51	4653
2026-01-29 09:39:17.61	116.80	54.10	-39.9	-42.1	14.1	4.50e-06	0	59	0	947912704	51	4608
2026-01-29 09:39:18.62	116.32	54.38	-39.9	-42.1	14.0	3.00e-06	0	59	0	951058432	51	4648
2026-01-29 09:39:19.64	115.82	54.67	-40.0	-42.3	13.9	4.50e-06	0	59	0	954204160	51	4723
2026-01-29 09:39:20.65	115.31	54.95	-39.8	-42.0	14.1	3.00e-06	0	59	0	957349888	51	4571
2026-01-29 09:39:21.66	114.80	55.23	-39.6	-41.7	14.5	0.00e+00	0	59	0	960495616	51	4409
2026-01-29 09:39:22.67	114.27	55.51	-39.6	-41.6	14.5	0.00e+00	0	58	0	963641344	51	4385
2026-01-29 09:39:23.68	113.74	55.79	-39.8	-41.9	14.2	0.00e+00	0	59	0	966787072	51	4541
2026-01-29 09:39:24.69	113.19	56.06	-39.9	-42.2	14.0	3.80e-06	0	59	0	969932800	51	4652
2026-01-29 09:39:25.70	112.63	56.34	-40.0	-42.3	13.9	1.50e-06	0	59	0	973078528	51	4752
2026-01-29 09:39:26.71	112.06	56.62	-39.9	-42.2	14.0	2.20e-06	0	59	0	976224256	51	4662
2026-01-29 09:39:27.72	111.48	56.89	-39.6	-41.7	14.4	1.50e-06	0	59	0	979369984	51	4437
2026-01-29 09:39:28.73	110.89	57.16	-39.5	-41.6	14.6	0.00e+00	0	59	0	982515712	51	4348
2026-01-29 09:39:29.74	110.29	57.43	-39.8	-41.9	14.2	1.50e-06	0	59	0	985661440	51	4534
2026-01-29 09:39:30.75	109.67	57.70	-40.0	-42.2	14.0	2.20e-06	0	59	0	988807168	51	4692
2026-01-29 09:39:31.76	109.04	57.97	-39.8	-42.0	14.2	2.20e-06	0	59	0	991952896	51	4555
2026-01-29 09:39:32.77	108.40	58.23	-39.5	-41.6	14.6	0.00e+00	0	59	0	995098624	51	4357
2026-01-29 09:39:33.78	107.75	58.50	-39.3	-41.3	14.9	0.00e+00	0	59	0	998244352	50	4472
2026-01-29 09:39:34.79	107.08	58.76	-39.3	-41.2	15.0	0.00e+00	0	59	0	1001390080	50	4433
2026-01-29 09:39:35.80	106.40	59.01	-39.4	-41.3	14.8	0.00e+00	0	59	0	1004535808	50	4493
2026-01-29 09:39:36.81	105.71	59.27	-39.5	-41.5	14.7	7.00e-07	0	59	0	1007681536	50	4562
2026-01-29 09:39:37.82	105.00	59.52	-39.5	-41.6	14.6	0.00e+00	0	59	0	1010827264	50	4609
2026-01-29 09:39:38.83	104.28	59.77	-39.3	-41.2	15.0	7.00e-07	0	59	0	1013972992	50	4432
2026-01-29 09:39:39.84	103.54	60.01	-38.9	-40.7	15.5	0.00e+00	0	59	0	1017118720	49	4424
2026-01-29 09:39:40.86	102.79	60.26	-38.7	-40.5	15.6	0.00e+00	0	59	0	1020264448	49	4324
2026-01-29 09:39:41.87	102.03	60.50	-38.9	-40.8	15.4	0.00e+00	0	59	0	1023410176	49	4446
2026-01-29 09:39:42.88	101.25	60.73	-39.1	-41.0	15.1	0.00e+00	0	59	0	1026555904	49	4579
2026-01-29 09:39:43.89	100.46	60.96	-38.9	-40.8	15.3	7.00e-07	0	59	0	1029701632	49	4476
2026-01-29 09:39:44.90	99.65	61.19	-38.8	-40.6	15.5	0.00e+00	0	59	0	1032847360	49	4386
2026-01-29 09:39:45.91	98.83	61.41	-38.9	-40.8	15.4	0.00e+00	0	59	0	1035993088	49	4467
2026-01-29 09:39:46.92	97.99	61.63	-38.9	-40.8	15.4	0.00e+00	0	59	0	1039138816	49	4483
2026-01-29 09:39:47.93	97.14	61.84	-39.0	-40.9	15.3	0.00e+00	0	59	0	1042284544	49	4506
2026-01-29 09:39:48.94	96.28	62.05	-39.1	-41.0	15.1	0.00e+00	0	59	0	1045430272	49	4584
2026-01-29 09:39:49.95	95.40	62.26	-39.3	-41.3	14.8	0.00e+00	0	59	0	1048576000	49	4748
2026-01-29 09:39:50.96	94.50	62.45	-39.4	-41.5	14.7	7.00e-07	0	58	0	1051721728	49	4828
2026-01-29 09:39:51.97	93.59	62.65	-39.2	-41.1	15.0	0.00e+00	0	59	0	1054867456	49	4643
2026-01-29 09:39:52.98	92.67	62.83	-38.8	-40.7	15.5	0.00e+00	0	59	0	1058013184	49	4401
2026-01-29 09:39:53.99	91.73	63.01	-38.7	-40.5	15.7	0.00e+00	0	59	0	1061158912	49	4310
2026-01-29 09:39:55.00	90.78	63.19	-38.8	-40.6	15.5	0.00e+00	0	59	0	1064304640	49	4345
2026-01-29 09:39:56.01	89.81	63.36	-38.7	-40.6	15.6	0.00e+00	0	59	0	1067450368	49	4345
2026-01-29 09:39:57.03	88.82	63.52	-38.6	-40.4	15.7	0.00e+00	0	59	0	1070596096	49	4254
2026-01-29 09:39:58.04	87.83	63.68	-38.5	-40.2	15.9	0.00e+00	0	59	0	1073741824	48	4427
2026-01-29 09:39:59.05	86.82	63.82	-38.7	-40.6	15.6	0.00e+00	0	59	0	1076887552	48	4600
2026-01-29 09:40:00.06	85.80	63.97	-38.9	-40.7	15.4	0.00e+00	0	59	0	1080033280	48	4686
2026-01-29 09:40:01.07	84.77	64.10	-38.8	-40.7	15.4	7.00e-07	0	59	0	1083179008	48	4686
2026-01-29 09:40:02.08	83.73	64.23	-38.9	-40.8	15.4	0.00e+00	0	59	0	1086324736	48	4726
2026-01-29 09:40:03.09	82.68	64.35	-39.0	-40.9	15.2	0.00e+00	0	59	0	1089470464	48	4808
2026-01-29 09:40:04.10	81.61	64.46	-39.0	-40.9	15.3	0.00e+00	0	59	0	1092616192	48	4792
2026-01-29 09:40:05.11	80.54	64.56	-38.8	-40.6	15.5	0.00e+00	0	59	0	1095761920	48	4642
2026-01-29 09:40:06.12	79.45	64.66	-38.7	-40.5	15.7	0.00e+00	0	59	0	1098907648	48	4569
2026-01-29 09:40:07.13	78.36	64.75	-38.5	-40.2	15.9	0.00e+00	0	59	0	1102053376	48	4430
2026-01-29 09:40:08.14	77.26	64.83	-38.3	-40.0	16.1	0.00e+00	0	59	0	1105199104	48	4323
2026-01-29 09:40:09.15	76.15	64.90	-38.4	-40.1	16.0	0.00e+00	0	59	0	1108344832	48	4383
2026-01-29 09:40:10.16	75.03	64.96	-38.6	-40.4	15.8	0.00e+00	0	59	0	1111490560	48	4508
2026-01-29 09:40:11.18	73.90	65.01	-38.6	-40.4	15.7	0.00e+00	0	59	0	1114636288	48	4524
2026-01-29 09:40:12.19	72.78	65.06	-38.5	-40.3	15.8	0.00e+00	0	59	0	1117782016	48	4471
2026-01-29 09:40:13.20	71.65	65.10	-38.7	-40.5	15.7	0.00e+00	0	59	0	1120927744	48	4553
2026-01-29 09:40:14.21	70.51	65.12	-38.7	-40.5	15.7	0.00e+00	0	59	0	1124073472	48	4560
2026-01-29 09:40:15.22	69.38	65.14	-39.1	-41.1	15.1	7.00e-07	0	59	0	1127219200	48	4891
2026-01-29 09:40:16.23	68.24	65.15	-39.1	-41.0	15.1	7.00e-07	0	59	0	1130364928	48	4857
2026-01-29 09:40:17.24	67.10	65.15	-38.9	-40.8	15.3	0.00e+00	0	59	0	1133510656	48	4755
2026-01-29 09:40:18.25	65.97	65.15	-39.0	-40.9	15.3	0.00e+00	0	59	0	1136656384	48	4776
2026-01-29 09:40:19.26	64.83	65.13	-38.8	-40.7	15.5	0.00e+00	0	59	0	1139802112	48	4656
2026-01-29 09:40:20.27	63.70	65.11	-38.7	-40.6	15.6	0.00e+00	0	59	0	1142947840	48	4608
2026-01-29 09:40:21.28	62.57	65.07	-38.8	-40.7	15.4	0.00e+00	0	59	0	1146093568	48	4672
2026-01-29 09:40:22.29	61.44	65.03	-39.0	-40.9	15.3	0.00e+00	0	59	0	1150287872	48	4776
2026-01-29 09:40:23.30	60.32	64.98	-38.7	-40.5	15.6	0.00e+00	0	59	0	1153433600	48	4571
2026-01-29 09:40:24.31	59.20	64.92	-38.7	-40.5	15.5	0.00e+00	0	59	0	1155530752	48	4586
2026-01-29 09:40:25.32	58.09	64.85	-39.0	-40.9	15.2	0.00e+00	0	59	0	1158676480	48	4802
2026-01-29 09:40:26.33	56.99	64.77	-39.4	-41.4	14.8	0.00e+00	0	59	0	1161822208	49	4799
2026-01-29 09:40:27.34	55.89	64.69	-39.1	-41.1	15.0	0.00e+00	0	59	0	1166016512	49	4632
2026-01-29 09:40:28.36	54.80	64.59	-38.7	-40.6	15.5	0.00e+00	0	59	0	1169162240	49	4351
2026-01-29 09:40:29.37	53.72	64.49	-38.8	-40.6	15.5	0.00e+00	0	59	0	1172307968	49	4371
2026-01-29 09:40:30.38	52.65	64.38	-38.7	-40.6	15.6	0.00e+00	0	59	0	1175453696	49	4344
2026-01-29 09:40:31.39	51.59	64.27	-38.7	-40.5	15.6	0.00e+00	0	59	0	1178599424	49	4321
2026-01-29 09:40:32.40	50.55	64.14	-38.8	-40.6	15.5	0.00e+00	0	59	0	1181745152	49	4364
2026-01-29 09:40:33.41	49.51	64.01	-39.2	-41.1	15.0	0.00e+00	0	59	0	1184890880	49	4633
2026-01-29 09:40:34.42	48.49	63.87	-39.3	-41.3	14.8	0.00e+00	0	59	0	1188036608	49	4752
2026-01-29 09:40:35.43	47.48	63.73	-39.0	-40.9	15.2	0.00e+00	0	59	0	1191182336	49	4516
2026-01-29 09:40:36.44	46.49	63.57	-38.8	-40.6	15.5	0.00e+00	0	59	0	1194328064	49	4391
2026-01-29 09:40:37.45	45.50	63.41	-39.0	-40.9	15.3	0.00e+00	0	59	0	1197473792	49	4497
2026-01-29 09:40:38.46	44.53	63.25	-39.2	-41.2	15.0	0.00e+00	0	59	0	1200619520	49	4655
2026-01-29 09:40:39.47	43.58	63.07	-39.0	-40.9	15.2	0.00e+00	0	59	0	1203765248	49	4516
2026-01-29 09:40:40.48	42.64	62.90	-38.7	-40.5	15.7	0.00e+00	0	59	0	1206910976	49	4326
2026-01-29 09:40:41.49	41.71	62.71	-38.7	-40.6	15.6	0.00e+00	0	59	0	1210056704	49	4353
2026-01-29 09:40:42.50	40.80	62.52	-38.9	-40.8	15.4	0.00e+00	0	59	0	1213202432	49	4454
2026-01-29 09:40:43.51	39.90	62.33	-39.2	-41.1	15.1	0.00e+00	0	59	0	1216348160	49	4634
2026-01-29 09:40:44.52	39.01	62.12	-39.3	-41.2	14.8	7.00e-07	0	59	0	1219493888	49	4702
2026-01-29 09:40:45.54	38.14	61.92	-39.3	-41.3	14.8	0.00e+00	0	59	0	1222639616	49	4749
2026-01-29 09:40:46.55	37.28	61.71	-39.5	-41.6	14.5	0.00e+00	0	59	0	1225785344	49	4907
2026-01-29 09:40:47.56	36.44	61.49	-39.6	-41.7	14.5	7.00e-07	0	59	0	1228931072	49	4953
2026-01-29 09:40:48.57	35.62	61.27	-39.4	-41.5	14.7	7.00e-07	0	59	0	1232076800	49	4817
2026-01-29 09:40:49.58	34.81	61.04	-39.1	-41.0	15.1	0.00e+00	0	59	0	1235222528	49	4559
2026-01-29 09:40:50.59	34.01	60.81	-39.0	-40.8	15.3	0.00e+00	0	59	0	1238368256	49	4485
2026-01-29 09:40:51.60	33.23	60.58	-39.0	-40.9	15.2	0.00e+00	0	59	0	1241513984	49	4543
2026-01-29 09:40:52.61	32.46	60.35	-39.3	-41.3	14.8	0.00e+00	0	59	0	1244659712	49	4738
2026-01-29 09:40:53.62	31.71	60.10	-39.2	-41.2	14.9	0.00e+00	0	59	0	1247805440	49	4689
2026-01-29 09:40:54.63	30.97	59.86	-39.2	-41.1	15.1	0.00e+00	0	59	0	1250951168	49	4632
2026-01-29 09:40:55.64	30.25	59.61	-38.8	-40.6	15.5	0.00e+00	0	59	0	1254096896	49	4388
2026-01-29 09:40:56.65	29.54	59.36	-38.9	-40.7	15.4	0.00e+00	0	59	0	1257242624	49	4421
2026-01-29 09:40:57.67	28.83	59.11	-39.2	-41.2	15.0	0.00e+00	0	59	0	1260388352	49	4663
2026-01-29 09:40:58.68	28.15	58.85	-39.5	-41.5	14.6	0.00e+00	0	59	0	1263534080	49	4847
2026-01-29 09:40:59.69	27.48	58.59	-39.6	-41.7	14.4	0.00e+00	0	59	0	1266679808	49	4981
2026-01-29 09:41:00.70	26.82	58.33	-39.5	-41.5	14.6	0.00e+00	0	59	0	1269825536	49	4868
2026-01-29 09:41:01.71	26.18	58.07	-39.2	-41.1	15.0	0.00e+00	0	59	0	1272971264	49	4649
2026-01-29 09:41:02.72	25.55	57.80	-39.1	-41.0	15.2	0.00e+00	0	59	0	1276116992	49	4564
2026-01-29 09:41:03.73	24.93	57.54	-39.5	-41.6	14.5	7.00e-07	0	59	0	1279262720	49	4922
2026-01-29 09:41:04.74	24.32	57.27	-40.3	-42.8	13.3	9.90e-06	0	59	0	1282408448	51	5015
2026-01-29 09:41:05.75	23.73	57.00	-40.5	-43.1	13.1	4.42e-05	0	59	0	1285554176	51	5185
2026-01-29 09:41:06.76	23.14	56.72	-40.0	-42.3	13.9	1.06e-05	0	59	0	1288699904	51	4738
2026-01-29 09:41:07.77	22.57	56.45	-39.4	-41.3	14.8	1.50e-06	0	59	0	1291845632	50	4492
2026-01-29 09:41:08.78	22.01	56.17	-38.9	-40.8	15.4	0.00e+00	0	59	0	1294991360	49	4459
2026-01-29 09:41:09.79	21.46	55.90	-39.1	-41.0	15.1	0.00e+00	0	59	0	1298137088	49	4585
2026-01-29 09:41:10.80	20.93	55.62	-39.5	-41.5	14.7	0.00e+00	0	59	0	1301282816	49	4841
2026-01-29 09:41:11.81	20.40	55.34	-39.6	-41.7	14.4	7.00e-07	0	59	0	1304428544	49	4963
2026-01-29 09:41:12.82	19.88	55.06	-39.8	-42.0	14.2	0.00e+00	0	59	0	1307574272	50	4845
2026-01-29 09:41:13.83	19.37	54.78	-40.3	-42.7	13.4	7.60e-06	0	59	0	1310720000	51	4964
2026-01-29 09:41:14.84	18.88	54.50	-40.6	-43.3	12.8	6.56e-05	0	59	0	1313865728	52	4996
2026-01-29 09:41:15.85	18.39	54.22	-40.2	-42.5	13.5	1.98e-05	0	59	0	1317011456	52	4585
2026-01-29 09:41:16.87	17.91	53.93	-39.9	-42.0	14.0	3.80e-06	0	59	0	1320157184	51	4596
2026-01-29 09:41:17.88	17.44	53.65	-39.8	-42.0	14.1	3.80e-06	0	59	0	1323302912	51	4556
2026-01-29 09:41:18.89	16.98	53.37	-40.1	-42.4	13.8	3.00e-06	0	59	0	1326448640	51	4775
2026-01-29 09:41:19.90	16.53	53.08	-40.4	-42.9	13.3	1.14e-05	0	59	0	1329594368	51	5048
2026-01-29 09:41:20.91	16.09	52.80	-40.7	-43.4	12.7	6.02e-05	0	59	0	1332740096	52	5079
2026-01-29 09:41:21.92	15.65	52.52	-41.1	-44.0	12.0	2.44e-04	0	59	0	1335885824	52	5437
2026-01-29 09:41:22.93	15.23	52.23	-41.0	-43.8	12.2	2.62e-04	0	59	0	1339031552	52	5324
2026-01-29 09:41:23.94	14.81	51.95	-41.0	-43.8	12.2	1.96e-04	0	59	0	1342177280	52	5299
2026-01-29 09:41:24.95	14.40	51.67	-40.7	-43.3	12.8	8.62e-05	0	59	0	1345323008	52	4992
2026-01-29 09:41:25.96	14.00	51.38	-40.1	-42.3	13.8	1.06e-05	0	59	0	1348468736	51	4752
2026-01-29 09:41:26.97	13.61	51.10	-39.8	-42.0	14.2	7.00e-07	0	59	0	1351614464	50	4827
2026-01-29 09:41:27.99	13.22	50.81	-39.7	-41.8	14.3	1.50e-06	0	59	0	1354760192	50	4717
2026-01-29 09:41:29.00	12.84	50.53	-40.1	-42.5	13.6	6.10e-06	0	59	0	1357905920	50	5107
2026-01-29 09:41:30.01	12.47	50.25	-40.8	-43.5	12.6	6.33e-05	0	59	0	1361051648	52	5117
2026-01-29 09:41:31.02	12.11	49.97	-41.1	-44.0	12.0	3.40e-04	0	59	0	1364197376	52	5408
2026-01-29 09:41:32.03	11.75	49.69	-40.7	-43.4	12.4	1.69e-04	0	59	0	1367343104	52	5097
2026-01-29 09:41:33.04	11.40	49.41	-40.7	-43.3	12.5	1.02e-04	0	59	0	1370488832	52	4999
2026-01-29 09:41:34.05	11.05	49.13	-40.7	-43.4	12.5	1.06e-04	0	59	0	1373634560	52	5056
2026-01-29 09:41:35.06	10.71	48.85	-40.7	-43.4	12.5	1.14e-04	0	59	0	1376780288	52	5062
2026-01-29 09:41:36.07	10.38	48.57	-40.9	-43.7	12.2	1.80e-04	0	59	0	1379926016	52	5246
2026-01-29 09:41:37.08	10.05	48.29	-40.9	-43.8	12.1	3.17e-04	0	59	0	1383071744	52	5310
2026-01-29 09:41:38.09	9.73	48.02	-41.0	-43.8	12.1	2.58e-04	0	59	0	1386217472	52	5326
2026-01-29 09:41:39.10	9.42	47.74	-41.2	-44.2	11.7	4.61e-04	0	59	0	1389363200	52	5545
2026-01-29 09:41:40.11	9.11	47.46	-41.6	-45.0	10.7	2.78e-03	0	59	0	1392508928	53	5766
2026-01-29 09:41:41.12	8.81	47.19	-42.0	-45.7	10.0	6.84e-03	0	59	0	1395654656	54	5873
2026-01-29 09:41:42.13	8.51	46.92	-42.1	-46.0	9.8	1.06e-02	0	59	0	1398800384	54	6066
2026-01-29 09:41:43.14	8.22	46.64	-41.8	-45.4	10.5	5.53e-03	0	59	0	1401946112	54	5676
2026-01-29 09:41:44.15	7.93	46.37	-41.3	-44.3	11.6	1.08e-03	0	59	0	1405091840	53	5323
2026-01-29 09:41:45.16	7.64	46.10	-41.0	-43.7	12.2	2.81e-04	0	59	0	1408237568	53	4982
2026-01-29 09:41:46.17	7.37	45.83	-40.7	-43.6	12.3	1.75e-04	0	59	0	1411383296	53	4915
2026-01-29 09:41:47.18	7.09	45.56	-40.9	-43.8	12.2	2.23e-04	0	59	0	1414529024	53	4984
2026-01-29 09:41:48.19	6.82	45.30	-41.1	-44.0	11.9	4.39e-04	0	59	0	1418723328	52	5464
2026-01-29 09:41:49.20	6.56	45.03	-41.3	-44.4	11.5	7.56e-04	0	59	0	1421869056	53	5399
2026-01-29 09:41:50.21	6.30	44.77	-41.2	-44.2	11.7	6.08e-04	0	59	0	1423966208	53	5265
2026-01-29 09:41:51.22	6.04	44.50	-41.0	-43.9	12.0	3.03e-04	0	59	0	1427111936	53	5071
2026-01-29 09:41:52.23	5.79	44.24	-40.9	-43.6	12.3	1.88e-04	0	59	0	1430257664	53	4914
2026-01-29 09:41:53.24	5.55	43.98	-41.0	-43.8	12.1	2.17e-04	0	59	0	1434451968	53	5014
2026-01-29 09:41:54.25	5.30	43.72	-41.1	-44.2	11.7	6.18e-04	0	59	0	1437597696	52	5563
2026-01-29 09:41:55.26	5.06	43.46	-41.5	-44.8	11.2	1.11e-03	0	59	0	1440743424	53	5598
2026-01-29 09:41:56.27	4.83	43.20	-41.6	-45.0	10.8	2.28e-03	0	59	0	1443889152	53	5740
2026-01-29 09:41:57.28	4.60	42.94	-41.5	-44.8	11.0	2.23e-03	0	59	0	1445986304	53	5646
2026-01-29 09:41:58.29	4.37	42.69	-41.2	-44.4	11.5	1.04e-03	0	59	0	1450180608	53	5347
2026-01-29 09:41:59.30	4.15	42.43	-41.1	-44.0	11.8	5.26e-04	0	59	0	1453326336	53	5151
2026-01-29 09:42:00.31	3.93	42.18	-41.1	-44.0	11.8	4.61e-04	0	59	0	1456472064	53	5135
2026-01-29 09:42:01.32	3.71	41.93	-41.1	-44.1	11.7	5.45e-04	0	59	0	1459617792	52	5519
2026-01-29 09:42:02.33	3.50	41.68	-41.2	-44.2	11.7	5.81e-04	0	59	0	1462763520	52	5546
2026-01-29 09:42:03.34	3.29	41.43	-41.1	-44.1	11.8	5.00e-04	0	59	0	1465909248	52	5478
2026-01-29 09:42:04.35	3.08	41.18	-41.0	-44.0	11.9	4.03e-04	0	59	0	1469054976	52	5419
2026-01-29 09:42:05.36	2.87	40.93	-41.0	-44.0	11.8	4.45e-04	0	59	0	1472200704	52	5416
2026-01-29 09:42:06.37	2.67	40.69	-41.1	-44.0	11.8	4.52e-04	0	59	0	1475346432	52	5456
2026-01-29 09:42:07.38	2.48	40.44	-41.1	-44.0	11.9	4.61e-04	0	59	0	1478492160	52	5427
2026-01-29 09:42:08.40	2.28	40.20	-41.1	-44.0	11.8	4.20e-04	0	59	0	1481637888	52	5450
2026-01-29 09:42:09.41	2.09	39.95	-41.1	-44.1	11.8	4.76e-04	0	59	0	1484783616	52	5470
2026-01-29 09:42:10.42	1.90	39.71	-41.3	-44.4	11.5	7.70e-04	0	59	0	1487929344	53	5356
2026-01-29 09:42:11.43	1.71	39.47	-41.4	-44.6	11.3	9.61e-04	0	59	0	1491075072	53	5474
2026-01-29 09:42:12.44	1.53	39.24	-41.3	-44.5	11.3	1.29e-03	0	59	0	1494220800	53	5433
2026-01-29 09:42:13.45	1.35	39.00	-41.1	-44.1	11.7	6.16e-04	0	59	0	1497366528	53	5195
2026-01-29 09:42:14.46	1.17	38.76	-40.9	-43.8	12.0	3.18e-04	0	59	0	1500512256	53	5033
2026-01-29 09:42:15.47	1.00	38.53	-40.8	-43.6	12.2	2.27e-04	0	59	0	1503657984	53	4904
2026-01-29 09:42:16.48	0.83	38.30	-40.8	-43.5	12.3	2.04e-04	0	59	0	1506803712	52	5159
2026-01-29 09:42:17.49	0.66	38.07	-40.8	-43.6	12.2	2.03e-04	0	59	0	1509949440	52	5194
2026-01-29 09:42:18.50	0.49	37.84	-40.9	-43.8	12.0	3.00e-04	0	59	0	1513095168	52	5286
2026-01-29 09:42:19.51	0.32	37.61	-41.0	-44.0	11.8	4.70e-04	0	59	0	1516240896	52	5416
2026-01-29 09:42:20.52	0.16	37.38	-41.2	-44.2	11.6	6.09e-04	0	59	0	1519386624	52	5574
2026-01-29 09:42:21.53	360.00	37.15	-41.2	-44.3	11.6	7.80e-04	0	59	0	1522532352	52	5595
2026-01-29 09:42:22.54	359.84	36.93	-41.0	-44.0	11.8	4.88e-04	0	59	0	1525678080	52	5426
2026-01-29 09:42:23.55	359.68	36.70	-40.9	-43.7	12.1	3.59e-04	0	59	0	1528823808	52	5274
2026-01-29 09:42:24.56	359.53	36.48	-40.6	-43.4	12.4	1.65e-04	0	59	0	1531969536	52	5050
2026-01-29 09:42:25.57	359.38	36.26	-40.5	-43.1	12.7	8.16e-05	0	59	0	1535115264	52	4915
2026-01-29 09:42:26.59	359.23	36.04	-40.4	-43.0	12.8	6.71e-05	0	59	0	1538260992	52	4830
2026-01-29 09:42:27.59	359.08	35.82	-40.3	-42.9	13.0	5.26e-05	0	59	0	1541406720	52	4761
2026-01-29 09:42:28.60	358.94	35.61	-40.2	-42.7	13.1	4.19e-05	0	59	0	1544552448	52	4689
2026-01-29 09:42:29.61	358.79	35.39	-40.3	-42.9	12.9	4.11e-05	0	59	0	1547698176	52	4764
2026-01-29 09:42:30.63	358.65	35.17	-40.4	-43.2	12.6	6.79e-05	0	59	0	1550843904	52	4932
2026-01-29 09:42:31.63	358.51	34.96	-40.6	-43.3	12.4	1.14e-04	0	59	0	1553989632	52	5030
2026-01-29 09:42:32.64	358.37	34.75	-40.7	-43.4	12.3	1.50e-04	0	59	0	1557135360	52	5096
2026-01-29 09:42:33.66	358.23	34.54	-40.7	-43.4	12.4	1.60e-04	0	59	0	1560281088	52	5081
2026-01-29 09:42:34.67	358.10	34.33	-40.5	-43.2	12.6	1.10e-04	0	59	0	1563426816	52	4957
2026-01-29 09:42:35.68	357.97	34.12	-40.5	-43.1	12.6	8.85e-05	0	59	0	1566572544	52	4918
2026-01-29 09:42:36.69	357.84	33.91	-40.5	-43.1	12.7	9.15e-05	0	59	0	1569718272	52	4904
2026-01-29 09:42:37.70	357.71	33.70	-40.3	-42.9	12.9	6.02e-05	0	59	0	1572864000	52	4779
2026-01-29 09:42:38.71	357.58	33.50	-40.2	-42.8	13.0	3.66e-05	0	59	0	1576009728	52	4715
2026-01-29 09:42:39.72	357.45	33.30	-40.2	-42.7	13.0	3.20e-05	0	59	0	1579155456	52	4688
2026-01-29 09:42:40.73	357.33	33.09	-40.2	-42.7	13.1	3.12e-05	0	59	0	1582301184	52	4667
2026-01-29 09:42:41.74	357.21	32.89	-39.9	-42.3	13.6	5.30e-06	0	59	0	1585446912	51	4716
2026-01-29 09:42:42.75	357.08	32.69	-39.7	-42.0	13.9	6.80e-06	0	59	0	1588592640	51	4574
2026-01-29 09:42:43.76	356.97	32.49	-39.6	-41.8	14.1	1.50e-06	0	59	0	1591738368	51	4452
2026-01-29 09:42:44.77	356.85	32.29	-39.5	-41.6	14.3	1.50e-06	0	59	0	1594884096	50	4613
2026-01-29 09:42:45.78	356.73	32.10	-39.3	-41.5	14.4	1.50e-06	0	59	0	1598029824	50	4561
2026-01-29 09:42:46.79	356.61	31.90	-39.4	-41.5	14.3	0.00e+00	0	59	0	1601175552	50	4585
2026-01-29 09:42:47.80	356.50	31.71	-39.4	-41.5	14.3	1.50e-06	0	59	0	1604321280	50	4581
2026-01-29 09:42:48.81	356.39	31.52	-39.5	-41.6	14.3	7.00e-07	0	59	0	1607467008	50	4621
2026-01-29 09:42:49.82	356.28	31.32	-39.4	-41.4	14.4	1.50e-06	0	59	0	1610612736	50	4540
2026-01-29 09:42:50.83	356.17	31.13	-39.3	-41.4	14.5	1.50e-06	0	59	0	1613758464	50	4503
2026-01-29 09:42:51.84	356.06	30.94	-39.4	-41.5	14.4	7.00e-07	0	59	0	1616904192	50	4548
2026-01-29 09:42:52.85	355.95	30.75	-39.3	-41.4	14.5	7.00e-07	0	59	0	1620049920	50	4513
2026-01-29 09:42:53.86	355.85	30.57	-39.3	-41.4	14.5	1.50e-06	0	59	0	1623195648	50	4510
2026-01-29 09:42:54.87	355.74	30.38	-39.3	-41.4	14.4	0.00e+00	0	59	0	1626341376	50	4536
2026-01-29 09:42:55.88	355.64	30.20	-39.5	-41.7	14.1	7.00e-07	0	59	0	1629487104	50	4672
2026-01-29 09:42:56.89	355.54	30.01	-39.7	-42.0	13.9	1.50e-06	0	59	0	1632632832	50	4815
2026-01-29 09:42:57.90	355.44	29.83	-39.9	-42.2	13.6	6.80e-06	0	59	0	1635778560	50	4977
2026-01-29 09:42:58.91	355.34	29.65	-39.9	-42.3	13.5	1.06e-05	0	59	0	1638924288	50	5025
2026-01-29 09:42:59.92	355.24	29.46	-40.1	-42.5	13.3	1.83e-05	0	59	0	1642070016	50	5158
2026-01-29 09:43:00.93	355.14	29.28	-40.2	-42.7	13.1	2.59e-05	0	59	0	1645215744	50	5234
2026-01-29 09:43:01.93	355.04	29.11	-40.2	-42.7	13.1	2.59e-05	0	59	0	1648361472	50	5273
2026-01-29 09:43:02.94	354.95	28.93	-40.1	-42.6	13.2	2.59e-05	0	59	0	1651507200	51	4919
2026-01-29 09:43:03.96	354.85	28.75	-40.1	-42.5	13.3	2.13e-05	0	59	0	1654652928	51	4850
2026-01-29 09:43:04.97	354.76	28.58	-40.0	-42.4	13.4	1.90e-05	0	59	0	1657798656	51	4794
2026-01-29 09:43:05.98	354.67	28.40	-40.0	-42.4	13.4	1.60e-05	0	59	0	1660944384	51	4808
2026-01-29 09:43:06.99	354.58	28.23	-40.0	-42.4	13.4	6.80e-06	0	59	0	1664090112	51	4782
2026-01-29 09:43:08.00	354.49	28.05	-39.9	-42.2	13.5	9.10e-06	0	59	0	1667235840	51	4697
2026-01-29 09:43:09.01	354.40	27.88	-39.8	-42.1	13.6	8.30e-06	0	59	0	1670381568	51	4633
2026-01-29 09:43:10.02	354.31	27.71	-39.7	-41.9	13.8	6.80e-06	0	59	0	1673527296	51	4537
2026-01-29 09:43:11.03	354.22	27.54	-39.6	-41.8	13.8	4.50e-06	0	59	0	1676673024	51	4484
2026-01-29 09:43:12.04	354.14	27.37	-39.5	-41.7	14.0	3.80e-06	0	59	0	1679818752	51	4405
2026-01-29 09:43:13.05	354.05	27.20	-39.4	-41.5	14.2	1.50e-06	0	59	0	1682964480	50	4565
2026-01-29 09:43:14.06	353.97	27.04	-39.2	-41.2	14.5	1.50e-06	0	59	0	1686110208	50	4438
2026-01-29 09:43:15.07	353.88	26.87	-39.1	-41.2	14.5	7.00e-07	0	59	0	1689255936	50	4393
2026-01-29 09:43:16.08	353.80	26.71	-39.1	-41.1	14.6	1.50e-06	0	59	0	1692401664	50	4376
2026-01-29 09:43:17.09	353.72	26.54	-39.1	-41.1	14.5	0.00e+00	0	59	0	1695547392	50	4389
2026-01-29 09:43:18.10	353.64	26.38	-39.1	-41.1	14.6	0.00e+00	0	59	0	1698693120	50	4369
2026-01-29 09:43:19.11	353.56	26.22	-39.1	-41.2	14.5	0.00e+00	0	59	0	1701838848	50	4405
2026-01-29 09:43:20.13	353.48	26.05	-39.2	-41.3	14.4	0.00e+00	0	59	0	1704984576	50	4455
2026-01-29 09:43:21.14	353.40	25.89	-39.3	-41.4	14.3	7.00e-07	0	59	0	1709178880	50	4537
2026-01-29 09:43:22.15	353.33	25.73	-39.3	-41.4	14.3	0.00e+00	0	59	0	1712324608	50	4516
2026-01-29 09:43:23.16	353.25	25.58	-39.3	-41.4	14.3	0.00e+00	0	59	0	1714421760	50	4532
2026-01-29 09:43:24.17	353.17	25.42	-39.3	-41.4	14.2	0.00e+00	0	59	0	1717567488	50	4543
2026-01-29 09:43:25.18	353.10	25.26	-39.3	-41.4	14.3	0.00e+00	0	59	0	1720713216	50	4520
2026-01-29 09:43:26.19	353.02	25.10	-39.3	-41.4	14.2	7.00e-07	0	59	0	1724907520	50	4542
2026-01-29 09:43:27.20	352.95	24.95	-39.2	-41.4	14.3	7.00e-07	0	59	0	1728053248	50	4502
2026-01-29 09:43:28.21	352.88	24.80	-39.3	-41.4	14.2	1.50e-06	0	59	0	1731198976	50	4537
2026-01-29 09:43:29.23	352.81	24.64	-39.3	-41.4	14.2	2.20e-06	0	59	0	1734344704	50	4544
2026-01-29 09:43:30.24	352.73	24.49	-39.3	-41.6	14.1	2.20e-06	0	59	0	1737490432	50	4604
2026-01-29 09:43:31.25	352.66	24.34	-39.3	-41.5	14.1	2.20e-06	0	59	0	1740636160	50	4574
2026-01-29 09:43:32.26	352.59	24.18	-39.4	-41.6	14.0	3.80e-06	0	59	0	1743781888	50	4650
2026-01-29 09:43:33.26	352.53	24.04	-39.4	-41.6	14.0	1.50e-06	0	59	0	1746927616	50	4619
2026-01-29 09:43:34.28	352.46	23.89	-39.4	-41.7	13.8	6.10e-06	0	59	0	1750073344	50	4684
2026-01-29 09:43:35.29	352.39	23.74	-39.4	-41.6	13.9	6.80e-06	0	59	0	1753219072	50	4651
2026-01-29 09:43:36.30	352.32	23.59	-39.2	-41.4	14.0	2.20e-06	0	59	0	1756364800	50	4509
2026-01-29 09:43:37.31	352.26	23.44	-39.4	-41.7	13.6	9.10e-06	0	59	0	1759510528	50	4702
2026-01-29 09:43:38.32	352.19	23.30	-39.4	-41.7	13.5	1.37e-05	0	59	0	1762656256	50	4703
2026-01-29 09:43:39.33	352.13	23.15	-39.1	-41.4	13.8	6.10e-06	0	59	0	1765801984	50	4519
2026-01-29 09:43:40.34	352.06	23.01	-39.2	-41.6	13.5	7.60e-06	0	59	0	1768947712	50	4622
2026-01-29 09:43:41.35	352.00	22.86	-39.5	-42.0	13.0	2.44e-05	0	59	0	1772093440	50	4842
2026-01-29 09:43:42.36	351.93	22.72	-39.3	-41.9	13.0	5.34e-05	0	59	0	1775239168	50	4765
2026-01-29 09:43:43.37	351.87	22.58	-39.1	-41.5	13.2	2.36e-05	0	59	0	1778384896	50	4577
2026-01-29 09:43:44.38	351.81	22.44	-39.0	-41.5	13.1	2.13e-05	0	59	0	1781530624	50	4568
2026-01-29 09:43:45.39	351.75	22.30	-38.9	-41.4	13.1	3.12e-05	0	59	0	1784676352	49	4797
2026-01-29 09:43:46.40	351.69	22.16	-38.7	-41.1	13.3	2.44e-05	0	59	0	1787822080	49	4622
2026-01-29 09:43:47.41	351.63	22.02	-38.5	-40.9	13.3	1.67e-05	0	59	0	1790967808	48	4793
2026-01-29 09:43:48.42	351.57	21.88	-38.5	-41.0	12.9	3.50e-05	0	59	0	1794113536	48	4842
2026-01-29 09:43:49.43	351.51	21.74	-38.7	-41.5	12.2	1.38e-04	0	59	0	1797259264	48	5105
2026-01-29 09:43:50.44	351.45	21.60	-39.1	-42.4	11.0	1.17e-03	0	59	0	1800404992	48	5672
2026-01-29 09:43:51.45	351.39	21.47	-39.6	-43.6	9.5	9.51e-03	0	59	0	1803550720	49	6149
2026-01-29 09:43:52.46	351.34	21.33	-40.1	-44.8	8.0	3.76e-02	0	59	0	1806696448	50	6698
2026-01-29 09:43:53.47	351.28	21.19	-40.5	-46.4	6.4	1.72e-01	0	59	0	1809842176	51	7584
2026-01-29 09:43:54.48	351.22	21.06	-40.7	-47.8	5.2	4.99e-01	0	59	0	1812987904	51	8955
2026-01-29 09:43:55.49	351.17	20.93	-40.7	-49.8	3.9	1.26e+00	0	59	104	1814036480	52	10612
2026-01-29 09:43:56.50	351.11	20.79	-40.8	-50.5	4.0	1.47e+00	0	59	104	1814036480	52	11470
2026-01-29 09:43:57.51	351.06	20.66	-41.0	-51.2	3.8	1.49e+00	0	59	104	1814036480	52	12509
2026-01-29 09:43:58.52	351.00	20.53	-40.8	-52.2	3.8	1.49e+00	0	59	104	1814036480	52	13900
2026-01-29 09:43:59.53	350.95	20.40	-40.6	-52.4	3.8	1.49e+00	0	59	104	1814036480	52	14347
2026-01-29 09:44:00.54	350.90	20.27	-40.9	-52.3	3.8	1.49e+00	0	59	104	1814036480	52	14155
2026-01-29 09:44:01.55	350.84	20.14	-41.2	-52.3	3.8	1.49e+00	0	59	104	1814036480	54	12620
2026-01-29 09:44:02.56	350.79	20.01	-40.8	-52.4	3.8	1.49e+00	0	59	104	1814036480	53	13553
2026-01-29 09:44:03.57	350.74	19.88	-40.7	-52.5	3.8	1.49e+00	0	59	104	1814036480	53	13620
2026-01-29 09:44:04.58	350.69	19.75	-40.5	-52.5	3.8	1.49e+00	0	59	104	1814036480	53	13588
2026-01-29 09:44:05.59	350.64	19.63	-40.6	-52.5	3.8	1.49e+00	0	59	104	1814036480	52	14539
2026-01-29 09:44:06.60	350.59	19.50	-40.5	-52.5	3.8	1.49e+00	0	59	104	1814036480	52	14516
2026-01-29 09:44:07.61	350.54	19.37	-40.5	-52.6	3.8	1.49e+00	0	59	104	1814036480	52	14698
2026-01-29 09:44:08.62	350.49	19.25	-40.4	-52.5	3.8	1.49e+00	0	59	104	1814036480	52	14514
2026-01-29 09:44:09.63	350.44	19.12	-40.6	-52.6	3.8	1.49e+00	0	59	104	1814036480	52	14658
2026-01-29 09:44:10.64	350.39	19.00	-40.4	-52.6	3.8	1.49e+00	0	59	104	1814036480	52	14644
2026-01-29 09:44:11.65	350.34	18.88	-40.7	-52.9	3.8	1.49e+00	0	59	104	1814036480	52	15076
2026-01-29 09:44:12.66	350.29	18.75	-40.4	-52.6	3.8	1.49e+00	0	59	104	1814036480	52	14550
2026-01-29 09:44:13.67	350.24	18.63	-40.5	-52.6	3.8	1.49e+00	0	59	104	1814036480	52	14660
2026-01-29 09:44:14.68	350.20	18.51	-40.6	-52.8	3.8	1.49e+00	0	59	104	1814036480	52	14928
2026-01-29 09:44:15.69	350.15	18.39	-40.8	-53.0	3.8	1.49e+00	0	59	104	1814036480	52	15394
2026-01-29 09:44:16.70	350.10	18.27	-40.5	-52.7	3.8	1.49e+00	0	59	104	1814036480	52	14720
2026-01-29 09:44:17.71	350.06	18.15	-40.5	-52.7	3.8	1.49e+00	0	59	104	1814036480	52	14789
2026-01-29 09:44:18.72	350.01	18.03	-40.8	-53.0	3.8	1.49e+00	0	59	104	1814036480	52	15298
2026-01-29 09:44:19.72	349.97	17.91	-40.8	-53.0	3.8	1.49e+00	0	59	104	1814036480	52	15327
2026-01-29 09:44:20.73	349.92	17.79	-40.7	-52.9	3.8	1.49e+00	0	60	104	1814036480	52	15124
2026-01-29 09:44:21.74	349.88	17.67	-40.7	-52.9	3.8	1.49e+00	0	59	104	1814036480	52	15149
2026-01-29 09:44:22.75	349.84	17.56	-40.8	-53.0	3.8	1.49e+00	0	59	104	1814036480	52	15285
2026-01-29 09:44:23.76	349.79	17.44	-40.7	-52.9	3.8	1.49e+00	0	59	104	1814036480	52	15145
2026-01-29 09:44:24.77	349.75	17.32	-40.8	-53.0	3.8	1.49e+00	0	59	104	1814036480	52	15295
2026-01-29 09:44:25.78	349.71	17.21	-40.8	-53.1	3.8	1.49e+00	0	59	104	1814036480	52	15480
2026-01-29 09:44:26.79	349.66	17.09	-40.6	-52.8	3.8	1.49e+00	0	59	104	1814036480	52	15018
2026-01-29 09:44:27.80	349.62	16.98	-40.8	-53.0	3.8	1.49e+00	0	59	104	1814036480	52	15354
2026-01-29 09:44:28.81	349.58	16.86	-40.8	-53.0	3.8	1.49e+00	0	59	104	1814036480	52	15352
2026-01-29 09:44:29.82	349.54	16.75	-41.0	-53.3	3.8	1.49e+00	0	59	104	1814036480	52	15843
2026-01-29 09:44:30.83	349.50	16.64	-40.7	-52.9	3.8	1.49e+00	0	59	104	1814036480	52	15118
2026-01-29 09:44:31.84	349.46	16.53	-40.9	-53.1	3.8	1.49e+00	0	59	104	1814036480	52	15530
2026-01-29 09:44:32.85	349.42	16.41	-40.7	-53.0	3.8	1.49e+00	0	59	104	1814036480	52	15273
2026-01-29 09:44:33.85	349.38	16.30	-41.2	-53.5	3.8	1.49e+00	0	60	104	1814036480	52	16197
2026-01-29 09:44:34.87	349.34	16.19	-40.8	-53.0	3.8	1.49e+00	0	59	104	1814036480	53	14462
2026-01-29 09:44:35.88	349.30	16.08	-40.8	-53.0	3.8	1.49e+00	0	60	104	1814036480	53	14518
2026-01-29 09:44:36.88	349.26	15.97	-40.6	-52.8	3.8	1.49e+00	0	59	104	1814036480	53	14130
2026-01-29 09:44:37.89	349.22	15.86	-40.8	-53.0	3.8	1.49e+00	0	59	104	1814036480	53	14514
2026-01-29 09:44:38.90	349.18	15.75	-40.8	-53.0	3.8	1.49e+00	0	60	104	1814036480	53	14512
2026-01-29 09:44:39.91	349.14	15.64	-40.8	-53.0	3.8	1.49e+00	0	60	104	1814036480	53	14517
2026-01-29 09:44:40.92	349.10	15.54	-40.8	-53.0	3.8	1.49e+00	0	59	104	1814036480	53	14460
2026-01-29 09:44:41.93	349.07	15.43	-40.7	-52.9	3.8	1.49e+00	0	59	104	1814036480	53	14362
2026-01-29 09:44:42.94	349.03	15.32	-41.2	-53.5	3.8	1.49e+00	0	60	104	1814036480	53	15382
2026-01-29 09:44:43.95	348.99	15.21	-40.7	-53.0	3.8	1.49e+00	0	59	104	1814036480	53	14443
