passes_logs/2026/01/29/R2.0S_Moscow/R2.0S_Moscow__20260129_001216_SUOMI_NPP_rec.log

#Pass ID: 20260129_001216_SUOMI NPP
#Satellite: SUOMI NPP
#Configuration: NPP
#almurnet v.1.7.20251203
#Start time: 2026-01-29 00:12:17

#Version: 2.2.20231116
#Station: R2.0S_Moscow
#Location: 37.707566 lon 55.798166 lat
#TLE: 1 37849U 11061A   26027.86188320  .00000172  00000+0  10275-3 0  9990
#TLE: 2 37849  98.7823 329.8005 0002088  41.4184 318.7150 14.19530883738530

#Time	Az	El	Level	Level2	SNR	BER	BlckErr	Temp	State	Recorded	gain1	gain2
2026-01-29 00:12:17.49	14.31	2.07	-42.9	-57.5	3.8	1.49e+00	0	50	0	0	57	19363
2026-01-29 00:12:18.49	14.29	2.13	-42.9	-57.5	3.8	1.49e+00	0	50	104	0	57	19237
2026-01-29 00:12:19.51	14.28	2.20	-42.9	-57.5	3.8	1.49e+00	0	50	104	0	57	19270
2026-01-29 00:12:20.52	14.26	2.26	-42.9	-57.5	3.8	1.49e+00	0	50	104	0	57	19278
2026-01-29 00:12:21.53	14.25	2.33	-42.9	-57.5	3.8	1.49e+00	0	50	104	0	57	19285
2026-01-29 00:12:22.54	14.23	2.39	-42.9	-57.5	3.8	1.49e+00	0	50	104	0	57	19336
2026-01-29 00:12:23.55	14.21	2.46	-42.9	-57.5	3.8	1.49e+00	0	50	104	0	57	19295
2026-01-29 00:12:24.56	14.20	2.52	-42.9	-57.5	3.8	1.49e+00	0	51	104	0	57	19288
2026-01-29 00:12:25.57	14.18	2.59	-42.9	-57.5	3.8	1.49e+00	0	51	104	0	57	19334
2026-01-29 00:12:26.58	14.16	2.65	-42.9	-57.5	3.8	1.49e+00	0	51	104	0	57	19242
2026-01-29 00:12:27.59	14.15	2.72	-42.9	-57.5	3.8	1.49e+00	0	51	104	0	57	19256
2026-01-29 00:12:28.60	14.13	2.78	-42.9	-57.5	3.8	1.49e+00	0	51	104	0	57	19270
2026-01-29 00:12:29.61	14.11	2.85	-42.9	-57.5	3.8	1.49e+00	0	51	104	0	57	19274
2026-01-29 00:12:30.62	14.09	2.92	-42.9	-57.5	3.8	1.49e+00	0	51	104	0	57	19273
2026-01-29 00:12:31.63	14.08	2.98	-42.9	-57.5	3.8	1.49e+00	0	51	104	0	57	19226
2026-01-29 00:12:32.64	14.06	3.05	-42.9	-57.5	3.8	1.49e+00	0	51	104	0	57	19292
2026-01-29 00:12:33.65	14.04	3.12	-42.9	-57.5	3.8	1.49e+00	0	51	104	0	57	19294
2026-01-29 00:12:34.66	14.03	3.18	-42.9	-57.5	3.8	1.49e+00	0	51	104	0	57	19208
2026-01-29 00:12:35.67	14.01	3.25	-42.9	-57.5	3.8	1.49e+00	0	51	104	0	57	19265
2026-01-29 00:12:36.68	13.99	3.32	-42.9	-57.5	3.8	1.49e+00	0	51	104	0	57	19228
2026-01-29 00:12:37.69	13.97	3.38	-42.9	-57.4	3.8	1.49e+00	0	51	104	0	57	19075
2026-01-29 00:12:38.70	13.95	3.45	-42.9	-57.4	3.8	1.49e+00	0	52	104	0	57	18973
2026-01-29 00:12:39.71	13.94	3.52	-42.9	-57.3	3.8	1.49e+00	0	52	104	0	57	18857
2026-01-29 00:12:40.72	13.92	3.58	-42.9	-57.2	3.8	1.49e+00	0	52	104	0	57	18531
2026-01-29 00:12:41.73	13.90	3.65	-42.9	-57.1	3.8	1.49e+00	0	52	104	0	57	18453
2026-01-29 00:12:42.74	13.88	3.72	-42.9	-57.1	3.8	1.49e+00	0	52	104	0	57	18320
2026-01-29 00:12:43.75	13.86	3.79	-42.9	-57.1	3.8	1.49e+00	0	52	104	0	57	18411
2026-01-29 00:12:44.76	13.85	3.86	-42.9	-57.1	3.8	1.49e+00	0	52	104	0	57	18323
2026-01-29 00:12:45.77	13.83	3.92	-42.9	-57.0	3.8	1.49e+00	0	52	104	0	57	18260
2026-01-29 00:12:46.78	13.81	3.99	-42.8	-56.9	3.8	1.49e+00	0	52	104	0	57	17889
2026-01-29 00:12:47.79	13.79	4.06	-42.9	-56.8	3.8	1.49e+00	0	52	104	0	57	17780
2026-01-29 00:12:48.80	13.77	4.13	-42.9	-56.6	3.8	1.49e+00	0	52	104	0	57	17320
2026-01-29 00:12:49.81	13.75	4.20	-42.9	-56.5	3.8	1.49e+00	0	52	104	0	57	17236
2026-01-29 00:12:50.82	13.73	4.27	-42.8	-56.3	3.8	1.49e+00	0	52	104	0	57	16795
2026-01-29 00:12:51.83	13.71	4.34	-42.8	-56.2	3.8	1.49e+00	0	52	104	0	57	16522
2026-01-29 00:12:52.84	13.69	4.41	-42.8	-56.2	3.8	1.49e+00	0	52	104	0	57	16542
2026-01-29 00:12:53.84	13.67	4.48	-42.8	-55.9	3.8	1.49e+00	0	52	104	0	57	15978
2026-01-29 00:12:54.85	13.65	4.55	-42.8	-55.9	3.8	1.49e+00	0	52	104	0	57	16009
2026-01-29 00:12:55.87	13.63	4.62	-42.8	-55.9	3.8	1.49e+00	0	53	104	0	57	15972
2026-01-29 00:12:56.88	13.61	4.69	-42.8	-55.7	3.8	1.49e+00	0	52	104	0	57	15649
2026-01-29 00:12:57.89	13.59	4.76	-42.8	-55.6	3.8	1.49e+00	0	53	104	0	57	15531
2026-01-29 00:12:58.90	13.57	4.83	-42.8	-55.8	3.8	1.49e+00	0	53	104	0	57	15876
2026-01-29 00:12:59.91	13.55	4.90	-42.8	-55.6	3.8	1.49e+00	0	53	104	0	57	15558
2026-01-29 00:13:00.92	13.53	4.97	-42.8	-55.4	3.9	1.48e+00	0	53	104	0	57	15110
2026-01-29 00:13:01.93	13.51	5.04	-42.8	-55.6	3.8	1.49e+00	0	53	104	0	57	15411
2026-01-29 00:13:02.94	13.49	5.11	-42.8	-55.7	3.8	1.48e+00	0	53	104	0	57	15686
2026-01-29 00:13:03.95	13.47	5.19	-42.8	-55.6	3.8	1.49e+00	0	53	104	0	57	15450
2026-01-29 00:13:04.96	13.45	5.26	-42.8	-55.2	4.0	1.49e+00	0	53	104	0	57	14808
2026-01-29 00:13:05.97	13.43	5.33	-42.8	-55.1	4.0	1.48e+00	0	53	104	0	57	14602
2026-01-29 00:13:06.98	13.41	5.40	-42.8	-55.1	3.8	1.48e+00	0	53	104	0	57	14643
2026-01-29 00:13:07.99	13.39	5.47	-42.8	-55.5	3.8	1.48e+00	0	53	104	0	57	15321
2026-01-29 00:13:09.00	13.37	5.55	-42.8	-55.7	3.8	1.49e+00	0	53	104	0	57	15614
2026-01-29 00:13:10.01	13.35	5.62	-42.8	-55.7	3.8	1.49e+00	0	53	104	0	57	15747
2026-01-29 00:13:11.02	13.32	5.69	-42.8	-55.7	3.8	1.49e+00	0	53	104	0	57	15750
2026-01-29 00:13:12.03	13.30	5.76	-42.8	-55.8	3.8	1.49e+00	0	53	104	0	57	15898
2026-01-29 00:13:13.04	13.28	5.84	-42.8	-56.0	3.8	1.49e+00	0	53	104	0	57	16239
2026-01-29 00:13:14.05	13.26	5.91	-42.8	-56.2	3.8	1.49e+00	0	53	104	0	57	16596
2026-01-29 00:13:15.06	13.24	5.99	-42.8	-56.4	3.8	1.49e+00	0	53	104	0	57	16909
2026-01-29 00:13:16.07	13.21	6.06	-42.8	-56.3	3.8	1.49e+00	0	54	104	0	57	16863
2026-01-29 00:13:17.08	13.19	6.13	-42.8	-56.0	3.8	1.49e+00	0	54	104	0	57	16175
2026-01-29 00:13:18.09	13.17	6.21	-42.8	-55.5	3.8	1.48e+00	0	54	104	0	57	15331
2026-01-29 00:13:19.10	13.15	6.28	-42.7	-54.7	3.9	1.47e+00	0	53	104	0	57	14016
2026-01-29 00:13:20.11	13.12	6.36	-42.6	-53.7	4.2	1.38e+00	0	54	0	0	57	12509
2026-01-29 00:13:21.12	13.10	6.43	-42.6	-53.0	4.5	1.25e+00	0	54	0	1048576	57	11509
2026-01-29 00:13:22.14	13.08	6.51	-42.5	-52.3	4.8	8.94e-01	0	54	0	2097152	57	10555
2026-01-29 00:13:23.15	13.05	6.58	-42.4	-51.4	5.3	5.82e-01	0	54	0	4194304	56	10108
2026-01-29 00:13:24.16	13.03	6.66	-42.3	-50.8	5.7	4.66e-01	0	54	0	6291456	56	9470
2026-01-29 00:13:25.17	13.01	6.74	-42.1	-49.9	6.3	3.47e-01	0	54	0	8388608	56	8552
2026-01-29 00:13:26.18	12.98	6.81	-42.0	-49.5	6.8	2.30e-01	0	54	0	10485760	56	8084
2026-01-29 00:13:27.19	12.96	6.89	-41.7	-48.5	7.5	1.24e-01	0	54	0	11534336	55	7687
2026-01-29 00:13:28.20	12.94	6.96	-41.5	-47.9	8.1	8.35e-02	0	54	0	13631488	55	7173
2026-01-29 00:13:29.21	12.91	7.04	-41.4	-47.4	8.6	5.73e-02	0	54	0	15728640	54	7140
2026-01-29 00:13:30.22	12.89	7.12	-41.3	-47.2	8.8	3.37e-02	0	54	0	17825792	54	7019
2026-01-29 00:13:31.23	12.86	7.19	-41.3	-46.9	9.1	2.14e-02	0	54	0	19922944	54	6791
2026-01-29 00:13:32.24	12.84	7.27	-41.1	-46.5	9.5	1.86e-02	0	54	0	20971520	54	6439
2026-01-29 00:13:33.25	12.81	7.35	-40.9	-46.0	10.0	1.03e-02	0	54	0	23068672	53	6485
2026-01-29 00:13:34.26	12.79	7.43	-40.9	-46.0	10.0	8.24e-03	0	54	0	25165824	53	6449
2026-01-29 00:13:35.28	12.76	7.51	-40.9	-45.9	10.1	7.32e-03	0	54	0	27262976	53	6414
2026-01-29 00:13:36.29	12.74	7.58	-40.9	-45.9	10.1	5.53e-03	0	54	0	29360128	53	6394
2026-01-29 00:13:37.30	12.71	7.66	-40.8	-45.8	10.2	6.26e-03	0	54	0	31457280	53	6293
2026-01-29 00:13:38.31	12.69	7.74	-40.8	-45.8	10.2	5.86e-03	0	54	0	32505856	53	6342
2026-01-29 00:13:39.32	12.66	7.82	-40.8	-45.8	10.3	4.81e-03	0	54	0	34603008	53	6291
2026-01-29 00:13:40.33	12.64	7.90	-40.9	-45.9	10.1	6.27e-03	0	54	0	36700160	53	6419
2026-01-29 00:13:41.34	12.61	7.98	-41.0	-46.1	9.9	9.67e-03	0	55	0	38797312	53	6559
2026-01-29 00:13:42.35	12.59	8.06	-41.1	-46.4	9.7	1.17e-02	0	55	0	40894464	53	6788
2026-01-29 00:13:43.36	12.56	8.14	-41.8	-47.8	8.7	2.43e-02	0	54	0	41943040	54	7461
2026-01-29 00:13:44.37	12.53	8.22	-41.5	-47.3	8.9	1.40e-01	0	55	0	44040192	55	6653
2026-01-29 00:13:45.38	12.51	8.30	-41.2	-47.3	8.3	7.56e-02	0	55	0	46137344	54	7117
2026-01-29 00:13:46.39	12.48	8.38	-40.8	-45.5	10.5	7.13e-03	0	55	0	48234496	53	6095
2026-01-29 00:13:47.40	12.45	8.46	-42.1	-50.3	5.8	7.04e-01	0	55	0	50331648	55	9457
2026-01-29 00:13:48.41	12.43	8.54	-40.8	-45.6	10.4	1.04e-02	0	55	0	51380224	53	6196
2026-01-29 00:13:49.42	12.40	8.63	-40.8	-45.6	10.4	4.69e-03	0	55	0	53477376	53	6169
2026-01-29 00:13:50.43	12.37	8.71	-40.8	-45.5	10.5	3.86e-03	0	55	0	55574528	53	6119
2026-01-29 00:13:51.44	12.34	8.79	-40.7	-45.4	10.7	3.42e-03	0	55	0	57671680	53	6022
2026-01-29 00:13:52.45	12.31	8.87	-40.5	-45.1	10.9	2.43e-03	0	55	0	59768832	53	5803
2026-01-29 00:13:53.46	12.29	8.95	-40.5	-44.9	11.2	1.62e-03	0	55	0	60817408	52	6010
2026-01-29 00:13:54.47	12.26	9.04	-40.4	-44.6	11.5	1.09e-03	0	55	0	62914560	52	5810
2026-01-29 00:13:55.48	12.23	9.12	-40.3	-44.6	11.5	1.01e-03	0	55	0	65011712	52	5824
2026-01-29 00:13:56.49	12.20	9.20	-40.3	-44.5	11.6	7.39e-04	0	55	0	67108864	52	5732
2026-01-29 00:13:57.50	12.17	9.29	-40.4	-44.6	11.6	7.02e-04	0	55	0	69206016	52	5809
2026-01-29 00:13:58.51	12.14	9.37	-40.3	-44.5	11.6	7.21e-04	0	55	0	71303168	52	5758
2026-01-29 00:13:59.52	12.11	9.46	-40.3	-44.5	11.6	6.87e-04	0	55	0	72351744	52	5729
2026-01-29 00:14:00.53	12.09	9.54	-40.4	-44.5	11.6	5.91e-04	0	55	0	74448896	52	5788
2026-01-29 00:14:01.54	12.06	9.62	-40.3	-44.5	11.6	6.67e-04	0	55	0	76546048	52	5730
2026-01-29 00:14:02.55	12.03	9.71	-40.3	-44.5	11.6	7.91e-04	0	55	0	78643200	52	5767
2026-01-29 00:14:03.56	12.00	9.79	-40.3	-44.4	11.7	5.57e-04	0	55	0	80740352	52	5722
2026-01-29 00:14:04.57	11.97	9.88	-40.3	-44.4	11.7	5.38e-04	0	55	0	81788928	52	5700
2026-01-29 00:14:05.58	11.94	9.97	-40.3	-44.4	11.7	4.78e-04	0	55	0	83886080	52	5661
2026-01-29 00:14:06.60	11.91	10.05	-40.2	-44.2	11.9	4.86e-04	0	55	0	85983232	52	5554
2026-01-29 00:14:07.60	11.87	10.14	-40.1	-44.0	12.0	4.32e-04	0	55	0	88080384	52	5454
2026-01-29 00:14:08.61	11.84	10.23	-40.0	-44.0	12.0	3.87e-04	0	55	0	90177536	52	5445
2026-01-29 00:14:09.63	11.81	10.31	-40.0	-43.9	12.3	2.69e-04	0	55	0	91226112	51	5658
2026-01-29 00:14:10.63	11.78	10.40	-40.0	-43.8	12.4	1.71e-04	0	56	0	93323264	51	5611
2026-01-29 00:14:11.64	11.75	10.49	-39.9	-43.6	12.6	1.01e-04	0	56	0	95420416	51	5484
2026-01-29 00:14:12.65	11.72	10.58	-39.9	-43.4	12.9	5.56e-05	0	56	0	97517568	51	5378
2026-01-29 00:14:13.67	11.69	10.66	-39.9	-43.5	12.8	6.40e-05	0	56	0	99614720	51	5406
2026-01-29 00:14:14.67	11.65	10.75	-40.0	-43.6	12.7	6.71e-05	0	56	0	100663296	51	5494
2026-01-29 00:14:15.68	11.62	10.84	-40.1	-43.8	12.4	8.23e-05	0	56	0	102760448	51	5650
2026-01-29 00:14:16.70	11.59	10.93	-40.1	-43.9	12.3	1.30e-04	0	56	0	104857600	51	5688
2026-01-29 00:14:17.70	11.56	11.02	-40.2	-44.0	12.4	1.63e-04	0	56	0	106954752	51	5744
2026-01-29 00:14:18.71	11.52	11.11	-40.2	-44.1	12.2	1.60e-04	0	56	0	109051904	51	5808
2026-01-29 00:14:19.72	11.49	11.20	-40.2	-44.1	12.2	1.77e-04	0	56	0	110100480	51	5811
2026-01-29 00:14:20.73	11.46	11.29	-40.2	-44.0	12.4	1.99e-04	0	56	0	112197632	51	5738
2026-01-29 00:14:21.74	11.42	11.38	-40.2	-43.9	12.4	1.80e-04	0	56	0	114294784	51	5716
2026-01-29 00:14:22.75	11.39	11.47	-40.3	-43.9	12.6	1.28e-04	0	56	0	116391936	51	5715
2026-01-29 00:14:23.76	11.35	11.56	-40.2	-43.9	12.6	1.36e-04	0	56	0	118489088	51	5668
2026-01-29 00:14:24.77	11.32	11.66	-40.1	-43.7	12.9	5.49e-05	0	56	0	119537664	51	5542
2026-01-29 00:14:25.78	11.28	11.75	-40.2	-43.6	13.0	5.34e-05	0	56	0	121634816	51	5521
2026-01-29 00:14:26.79	11.25	11.84	-40.1	-43.6	13.1	3.58e-05	0	56	0	123731968	51	5506
2026-01-29 00:14:27.80	11.21	11.93	-40.0	-43.4	13.3	1.90e-05	0	56	0	125829120	51	5370
2026-01-29 00:14:28.81	11.18	12.03	-40.1	-43.6	13.2	1.14e-05	0	56	0	127926272	51	5471
2026-01-29 00:14:29.82	11.14	12.12	-40.1	-43.5	13.2	2.21e-05	0	56	0	128974848	51	5419
2026-01-29 00:14:30.83	11.11	12.21	-40.1	-43.4	13.4	1.52e-05	0	56	0	131072000	51	5362
2026-01-29 00:14:31.84	11.07	12.31	-40.1	-43.5	13.3	9.90e-06	0	56	0	133169152	51	5436
2026-01-29 00:14:32.85	11.03	12.40	-40.2	-43.5	13.3	1.22e-05	0	56	0	135266304	51	5463
2026-01-29 00:14:33.86	11.00	12.50	-40.2	-43.5	13.4	1.75e-05	0	56	0	137363456	51	5438
2026-01-29 00:14:34.87	10.96	12.59	-40.2	-43.5	13.4	1.06e-05	0	56	0	139460608	51	5459
2026-01-29 00:14:35.88	10.92	12.69	-40.3	-43.5	13.5	1.06e-05	0	56	0	140509184	51	5455
2026-01-29 00:14:36.89	10.89	12.78	-40.3	-43.5	13.5	1.44e-05	0	56	0	142606336	51	5452
2026-01-29 00:14:37.90	10.85	12.88	-40.2	-43.4	13.7	6.80e-06	0	56	0	144703488	51	5360
2026-01-29 00:14:38.91	10.81	12.98	-40.3	-43.4	13.8	3.80e-06	0	56	0	146800640	51	5370
2026-01-29 00:14:39.92	10.77	13.07	-40.2	-43.3	14.0	2.20e-06	0	56	0	148897792	51	5326
2026-01-29 00:14:40.93	10.73	13.17	-40.2	-43.3	14.0	2.20e-06	0	56	0	149946368	51	5290
2026-01-29 00:14:41.94	10.69	13.27	-40.3	-43.4	13.9	2.20e-06	0	56	0	152043520	51	5386
2026-01-29 00:14:42.95	10.65	13.37	-40.4	-43.6	13.8	3.00e-06	0	56	0	154140672	51	5487
2026-01-29 00:14:43.96	10.61	13.47	-40.5	-43.7	13.7	3.00e-06	0	56	0	156237824	51	5549
2026-01-29 00:14:44.97	10.57	13.57	-40.3	-43.4	14.0	3.00e-06	0	56	0	158334976	51	5394
2026-01-29 00:14:45.98	10.53	13.66	-40.3	-43.4	14.1	3.00e-06	0	56	0	159383552	51	5364
2026-01-29 00:14:46.99	10.49	13.76	-40.4	-43.5	14.0	3.80e-06	0	56	0	161480704	51	5441
2026-01-29 00:14:47.99	10.45	13.86	-40.6	-43.8	13.6	3.00e-06	0	56	0	163577856	51	5643
2026-01-29 00:14:49.00	10.41	13.96	-40.5	-43.7	13.8	3.80e-06	0	56	0	165675008	51	5561
2026-01-29 00:14:50.01	10.37	14.07	-40.5	-43.7	13.9	5.30e-06	0	56	0	167772160	51	5556
2026-01-29 00:14:51.02	10.33	14.17	-40.5	-43.6	13.9	5.30e-06	0	56	0	168820736	51	5496
2026-01-29 00:14:52.03	10.29	14.27	-40.6	-43.8	13.8	4.50e-06	0	56	0	170917888	51	5634
2026-01-29 00:14:53.04	10.25	14.37	-40.6	-43.8	13.8	2.20e-06	0	56	0	173015040	51	5630
2026-01-29 00:14:54.05	10.20	14.47	-40.6	-43.7	13.9	2.20e-06	0	57	0	175112192	51	5587
2026-01-29 00:14:55.05	10.16	14.58	-40.6	-43.8	13.7	3.00e-06	0	57	0	177209344	52	5330
2026-01-29 00:14:56.07	10.12	14.68	-40.6	-43.7	13.8	3.80e-06	0	57	0	178257920	52	5261
2026-01-29 00:14:57.08	10.07	14.78	-40.6	-43.7	13.9	3.00e-06	0	56	0	180355072	52	5258
2026-01-29 00:14:58.09	10.03	14.89	-40.5	-43.6	14.0	1.50e-06	0	56	0	182452224	52	5170
2026-01-29 00:14:59.10	9.99	14.99	-40.6	-43.7	14.0	3.80e-06	0	57	0	184549376	52	5241
2026-01-29 00:15:00.11	9.94	15.10	-40.5	-43.5	14.1	1.50e-06	0	56	0	186646528	52	5151
2026-01-29 00:15:01.12	9.90	15.20	-40.5	-43.6	14.1	3.80e-06	0	56	0	187695104	52	5167
2026-01-29 00:15:02.13	9.85	15.31	-40.5	-43.5	14.2	0.00e+00	0	57	0	189792256	52	5127
2026-01-29 00:15:03.14	9.81	15.42	-40.5	-43.5	14.1	7.00e-07	0	56	0	191889408	52	5155
2026-01-29 00:15:04.15	9.76	15.52	-40.4	-43.4	14.3	0.00e+00	0	57	0	193986560	52	5086
2026-01-29 00:15:05.16	9.71	15.63	-40.5	-43.5	14.2	0.00e+00	0	56	0	196083712	52	5114
2026-01-29 00:15:06.17	9.67	15.74	-40.4	-43.4	14.4	1.50e-06	0	56	0	197132288	52	5065
2026-01-29 00:15:07.18	9.62	15.85	-40.3	-43.3	14.5	7.00e-07	0	57	0	199229440	52	4994
2026-01-29 00:15:08.19	9.57	15.96	-40.4	-43.3	14.5	7.00e-07	0	56	0	201326592	52	5006
2026-01-29 00:15:09.19	9.52	16.06	-40.3	-43.2	14.6	0.00e+00	0	56	0	203423744	52	4927
2026-01-29 00:15:10.20	9.48	16.17	-40.4	-43.3	14.5	0.00e+00	0	57	0	205520896	52	5009
2026-01-29 00:15:11.22	9.43	16.28	-40.3	-43.3	14.5	0.00e+00	0	56	0	207618048	52	4987
2026-01-29 00:15:12.23	9.38	16.39	-40.3	-43.2	14.6	0.00e+00	0	57	0	208666624	52	4964
2026-01-29 00:15:13.24	9.33	16.51	-40.3	-43.2	14.6	7.00e-07	0	57	0	210763776	52	4937
2026-01-29 00:15:14.25	9.28	16.62	-40.2	-43.1	14.7	7.00e-07	0	57	0	212860928	52	4878
2026-01-29 00:15:15.26	9.23	16.73	-40.3	-43.2	14.6	0.00e+00	0	57	0	214958080	52	4967
2026-01-29 00:15:16.27	9.18	16.84	-40.4	-43.3	14.6	0.00e+00	0	57	0	217055232	52	4987
2026-01-29 00:15:17.28	9.13	16.96	-40.3	-43.1	14.7	0.00e+00	0	57	0	218103808	52	4883
2026-01-29 00:15:18.28	9.08	17.07	-40.3	-43.2	14.6	1.50e-06	0	57	0	220200960	52	4968
2026-01-29 00:15:19.30	9.02	17.18	-40.4	-43.3	14.5	0.00e+00	0	57	0	222298112	52	4990
2026-01-29 00:15:20.31	8.97	17.30	-40.4	-43.2	14.6	0.00e+00	0	57	0	224395264	52	4973
2026-01-29 00:15:21.31	8.92	17.41	-40.4	-43.3	14.5	7.00e-07	0	57	0	226492416	52	5016
2026-01-29 00:15:22.33	8.87	17.53	-40.3	-43.1	14.7	1.50e-06	0	57	0	227540992	52	4891
2026-01-29 00:15:23.34	8.81	17.64	-40.4	-43.2	14.7	0.00e+00	0	57	0	229638144	52	4963
2026-01-29 00:15:24.34	8.76	17.76	-40.5	-43.4	14.5	7.00e-07	0	57	0	231735296	52	5051
2026-01-29 00:15:25.35	8.70	17.88	-40.4	-43.2	14.6	1.50e-06	0	57	0	233832448	52	4964
2026-01-29 00:15:26.36	8.65	18.00	-40.4	-43.3	14.6	0.00e+00	0	57	0	235929600	52	5002
2026-01-29 00:15:27.37	8.59	18.11	-40.4	-43.3	14.5	0.00e+00	0	57	0	236978176	52	5030
2026-01-29 00:15:28.38	8.54	18.23	-40.4	-43.3	14.6	0.00e+00	0	57	0	239075328	52	4991
2026-01-29 00:15:29.39	8.48	18.35	-40.4	-43.3	14.6	1.50e-06	0	57	0	241172480	52	5009
2026-01-29 00:15:30.40	8.43	18.47	-40.3	-43.2	14.7	7.00e-07	0	57	0	243269632	52	4935
2026-01-29 00:15:31.41	8.37	18.59	-40.4	-43.3	14.6	0.00e+00	0	57	0	245366784	52	5018
2026-01-29 00:15:32.42	8.31	18.71	-40.5	-43.5	14.4	0.00e+00	0	57	0	246415360	52	5123
2026-01-29 00:15:33.44	8.25	18.84	-40.5	-43.4	14.5	0.00e+00	0	57	0	248512512	52	5054
2026-01-29 00:15:34.44	8.19	18.96	-40.6	-43.6	14.4	0.00e+00	0	57	0	250609664	52	5173
2026-01-29 00:15:35.45	8.14	19.08	-40.5	-43.4	14.4	0.00e+00	0	57	0	252706816	52	5090
2026-01-29 00:15:36.46	8.08	19.20	-40.6	-43.6	14.3	7.00e-07	0	57	0	254803968	52	5192
2026-01-29 00:15:37.47	8.02	19.33	-40.6	-43.7	14.2	7.00e-07	0	57	0	255852544	52	5226
2026-01-29 00:15:38.48	7.95	19.45	-40.5	-43.4	14.5	7.00e-07	0	57	0	257949696	52	5075
2026-01-29 00:15:39.49	7.89	19.58	-40.7	-43.7	14.2	0.00e+00	0	57	0	260046848	52	5273
2026-01-29 00:15:40.50	7.83	19.70	-40.7	-43.8	14.2	0.00e+00	0	57	0	262144000	52	5287
2026-01-29 00:15:41.51	7.77	19.83	-40.5	-43.5	14.4	7.00e-07	0	57	0	264241152	52	5125
2026-01-29 00:15:42.52	7.71	19.96	-40.7	-43.8	14.1	1.50e-06	0	57	0	265289728	52	5287
2026-01-29 00:15:43.53	7.64	20.08	-40.7	-43.7	14.2	1.50e-06	0	57	0	267386880	52	5274
2026-01-29 00:15:44.54	7.58	20.21	-40.7	-43.8	14.1	0.00e+00	0	57	0	269484032	52	5313
2026-01-29 00:15:45.55	7.51	20.34	-40.7	-43.7	14.2	1.50e-06	0	57	0	271581184	52	5241
2026-01-29 00:15:46.56	7.45	20.47	-40.5	-43.5	14.4	0.00e+00	0	57	0	273678336	52	5114
2026-01-29 00:15:47.57	7.38	20.60	-40.8	-43.9	14.0	0.00e+00	0	57	0	275775488	52	5355
2026-01-29 00:15:48.58	7.32	20.73	-40.7	-43.7	14.2	7.00e-07	0	57	0	276824064	52	5265
2026-01-29 00:15:49.59	7.25	20.86	-40.7	-43.8	14.2	0.00e+00	0	57	0	278921216	52	5287
2026-01-29 00:15:50.59	7.18	20.99	-40.8	-43.8	14.1	3.80e-06	0	57	0	281018368	52	5320
2026-01-29 00:15:51.60	7.12	21.12	-40.6	-43.6	14.4	0.00e+00	0	57	0	283115520	52	5184
2026-01-29 00:15:52.61	7.05	21.26	-40.9	-44.1	13.9	3.00e-06	0	57	0	285212672	52	5481
2026-01-29 00:15:53.62	6.98	21.39	-40.9	-44.1	13.8	0.00e+00	0	57	0	286261248	52	5498
2026-01-29 00:15:54.63	6.91	21.53	-40.8	-43.8	14.2	3.00e-06	0	57	0	288358400	52	5310
2026-01-29 00:15:55.64	6.84	21.66	-41.0	-44.2	13.7	3.80e-06	0	57	0	290455552	52	5575
2026-01-29 00:15:56.65	6.77	21.80	-41.1	-44.3	13.7	1.14e-05	0	57	0	292552704	52	5627
2026-01-29 00:15:57.66	6.69	21.93	-41.1	-44.5	13.5	3.80e-06	0	57	0	294649856	52	5723
2026-01-29 00:15:58.67	6.62	22.07	-41.2	-44.5	13.4	9.10e-06	0	57	0	295698432	52	5775
2026-01-29 00:15:59.68	6.55	22.21	-41.1	-44.4	13.5	1.06e-05	0	57	0	297795584	53	5385
2026-01-29 00:16:00.69	6.47	22.35	-41.4	-44.8	13.1	1.75e-05	0	57	0	299892736	53	5646
2026-01-29 00:16:01.70	6.40	22.49	-41.2	-44.6	13.4	2.74e-05	0	57	0	301989888	53	5508
2026-01-29 00:16:02.71	6.32	22.63	-40.9	-44.1	13.9	4.50e-06	0	58	0	304087040	53	5183
2026-01-29 00:16:03.72	6.25	22.77	-41.1	-44.3	13.6	1.29e-05	0	57	0	305135616	53	5338
2026-01-29 00:16:04.73	6.17	22.91	-41.0	-44.2	13.7	8.30e-06	0	57	0	307232768	53	5273
2026-01-29 00:16:05.74	6.09	23.05	-41.0	-44.3	13.7	2.20e-06	0	58	0	309329920	53	5288
2026-01-29 00:16:06.75	6.01	23.19	-40.9	-44.0	14.0	3.80e-06	0	57	0	311427072	53	5106
2026-01-29 00:16:07.76	5.94	23.34	-40.7	-43.6	14.4	1.50e-06	0	57	0	313524224	53	4922
2026-01-29 00:16:08.77	5.86	23.48	-40.9	-44.0	14.0	1.50e-06	0	57	0	314572800	53	5125
2026-01-29 00:16:09.78	5.77	23.63	-40.8	-43.9	14.1	3.00e-06	0	57	0	316669952	53	5058
2026-01-29 00:16:10.79	5.69	23.77	-40.8	-43.8	14.2	2.20e-06	0	57	0	318767104	53	5031
2026-01-29 00:16:11.80	5.61	23.92	-41.1	-44.2	13.8	4.50e-06	0	58	0	320864256	53	5279
2026-01-29 00:16:12.81	5.53	24.07	-41.1	-44.3	13.7	6.10e-06	0	58	0	322961408	53	5295
2026-01-29 00:16:13.82	5.44	24.22	-41.2	-44.5	13.5	5.30e-06	0	57	0	324009984	53	5414
2026-01-29 00:16:14.83	5.36	24.37	-41.3	-44.7	13.3	1.14e-05	0	58	0	326107136	53	5563
2026-01-29 00:16:15.84	5.27	24.52	-41.1	-44.3	13.6	1.60e-05	0	57	0	328204288	53	5335
2026-01-29 00:16:16.85	5.19	24.67	-41.4	-44.8	13.3	2.36e-05	0	58	0	330301440	53	5610
2026-01-29 00:16:17.86	5.10	24.82	-41.5	-45.0	13.0	2.97e-05	0	58	0	332398592	53	5779
2026-01-29 00:16:18.87	5.01	24.97	-41.5	-45.0	13.1	1.90e-05	0	57	0	333447168	53	5759
2026-01-29 00:16:19.88	4.92	25.12	-41.5	-45.0	13.0	4.11e-05	0	57	0	335544320	53	5726
2026-01-29 00:16:20.89	4.83	25.28	-41.5	-45.0	12.9	4.27e-05	0	57	0	337641472	53	5769
2026-01-29 00:16:21.90	4.74	25.43	-41.5	-45.1	12.9	3.50e-05	0	57	0	339738624	53	5802
2026-01-29 00:16:22.91	4.65	25.59	-41.5	-45.0	13.1	2.59e-05	0	58	0	341835776	53	5725
2026-01-29 00:16:23.92	4.56	25.74	-41.1	-44.3	13.7	2.36e-05	0	58	0	343932928	53	5303
2026-01-29 00:16:24.93	4.46	25.90	-41.5	-45.0	13.1	4.42e-05	0	57	0	344981504	53	5759
2026-01-29 00:16:25.95	4.37	26.06	-41.5	-45.0	13.1	2.82e-05	0	58	0	347078656	53	5726
2026-01-29 00:16:26.96	4.27	26.22	-41.5	-45.0	13.0	2.89e-05	0	57	0	349175808	53	5737
2026-01-29 00:16:27.97	4.18	26.38	-41.7	-45.4	12.8	5.34e-05	0	57	0	351272960	53	6017
2026-01-29 00:16:28.98	4.08	26.54	-41.7	-45.4	12.6	5.87e-05	0	58	0	353370112	54	5682
2026-01-29 00:16:29.99	3.98	26.70	-41.7	-45.3	12.8	4.11e-05	0	58	0	354418688	54	5607
2026-01-29 00:16:31.00	3.88	26.86	-41.8	-45.5	12.5	6.33e-05	0	57	0	356515840	54	5745
2026-01-29 00:16:32.01	3.78	27.03	-41.7	-45.3	12.7	1.06e-04	0	57	0	358612992	54	5641
2026-01-29 00:16:33.02	3.68	27.19	-41.8	-45.6	12.5	1.19e-04	0	58	0	360710144	54	5816
2026-01-29 00:16:34.03	3.58	27.35	-41.9	-45.8	12.2	1.50e-04	0	58	0	362807296	54	5975
2026-01-29 00:16:35.04	3.47	27.52	-41.9	-45.7	12.4	1.46e-04	0	58	0	363855872	54	5866
2026-01-29 00:16:36.05	3.37	27.69	-41.8	-45.6	12.5	1.69e-04	0	58	0	365953024	54	5810
2026-01-29 00:16:37.06	3.26	27.85	-41.7	-45.4	12.6	1.27e-04	0	58	0	368050176	54	5694
2026-01-29 00:16:38.07	3.15	28.02	-41.7	-45.2	12.8	8.16e-05	0	57	0	370147328	54	5590
2026-01-29 00:16:39.08	3.04	28.19	-41.5	-45.0	13.1	3.43e-05	0	58	0	372244480	54	5448
2026-01-29 00:16:40.09	2.93	28.36	-41.3	-44.5	13.5	3.20e-05	0	58	0	373293056	54	5142
2026-01-29 00:16:41.10	2.82	28.53	-41.3	-44.6	13.6	9.90e-06	0	58	0	375390208	54	5161
2026-01-29 00:16:42.11	2.71	28.71	-41.3	-44.5	13.6	6.10e-06	0	58	0	377487360	54	5117
2026-01-29 00:16:43.12	2.60	28.88	-41.3	-44.5	13.6	3.00e-06	0	58	0	379584512	54	5142
2026-01-29 00:16:44.13	2.48	29.05	-41.2	-44.4	13.7	1.22e-05	0	58	0	381681664	54	5078
2026-01-29 00:16:45.14	2.37	29.23	-41.3	-44.5	13.5	6.10e-06	0	58	0	382730240	54	5158
2026-01-29 00:16:46.15	2.25	29.40	-41.5	-44.9	13.2	2.97e-05	0	58	0	384827392	54	5372
2026-01-29 00:16:47.16	2.13	29.58	-41.6	-45.1	13.0	5.18e-05	0	58	0	386924544	54	5505
2026-01-29 00:16:48.17	2.01	29.76	-41.8	-45.5	12.7	6.56e-05	0	58	0	389021696	54	5750
2026-01-29 00:16:49.18	1.89	29.94	-42.0	-45.8	12.3	9.76e-05	0	58	0	391118848	54	5953
2026-01-29 00:16:50.19	1.76	30.12	-42.1	-46.2	11.9	2.57e-04	0	58	0	392167424	54	6235
2026-01-29 00:16:51.20	1.64	30.30	-42.1	-46.1	12.0	3.21e-04	0	58	0	394264576	55	5817
2026-01-29 00:16:52.21	1.51	30.48	-42.4	-46.8	11.3	6.68e-04	0	58	0	396361728	55	6322
2026-01-29 00:16:53.22	1.39	30.66	-42.3	-46.6	11.5	1.25e-03	0	58	0	398458880	55	6191
2026-01-29 00:16:54.23	1.26	30.85	-42.4	-46.9	11.2	1.55e-03	0	58	0	400556032	55	6374
2026-01-29 00:16:55.24	1.13	31.03	-42.5	-47.1	11.0	1.64e-03	0	58	0	401604608	55	6554
2026-01-29 00:16:56.25	1.00	31.22	-42.9	-47.7	10.5	2.72e-03	0	58	0	403701760	56	6586
2026-01-29 00:16:57.26	0.86	31.41	-42.9	-47.7	10.5	3.12e-03	0	58	0	405798912	56	6620
2026-01-29 00:16:58.27	0.73	31.59	-43.0	-48.0	10.3	3.84e-03	0	58	0	407896064	56	6834
2026-01-29 00:16:59.28	0.59	31.78	-43.0	-47.9	10.4	6.35e-03	0	58	0	409993216	56	6754
2026-01-29 00:17:00.29	0.45	31.97	-43.0	-48.0	10.3	5.48e-03	0	58	0	412090368	56	6806
2026-01-29 00:17:01.30	0.31	32.16	-43.1	-48.3	10.2	8.09e-03	0	58	0	413138944	56	7041
2026-01-29 00:17:02.31	0.17	32.36	-43.1	-48.1	10.2	6.39e-03	0	58	0	415236096	56	6919
2026-01-29 00:17:03.32	0.03	32.55	-43.0	-48.1	10.1	4.99e-03	0	58	0	417333248	56	6893
2026-01-29 00:17:04.33	359.88	32.74	-43.0	-47.9	10.3	5.33e-03	0	58	0	419430400	56	6774
2026-01-29 00:17:05.34	359.74	32.94	-42.9	-47.8	10.5	4.42e-03	0	58	0	421527552	56	6681
2026-01-29 00:17:06.35	359.59	33.13	-42.9	-47.6	10.7	4.51e-03	0	58	0	422576128	56	6522
2026-01-29 00:17:07.36	359.44	33.33	-43.0	-47.9	10.3	5.28e-03	0	58	0	424673280	56	6786
2026-01-29 00:17:08.37	359.29	33.53	-43.1	-48.1	10.1	7.18e-03	0	58	0	426770432	56	6948
2026-01-29 00:17:09.38	359.13	33.73	-43.1	-48.1	10.2	6.91e-03	0	58	0	428867584	56	6894
2026-01-29 00:17:10.39	358.97	33.93	-43.3	-48.9	9.4	1.70e-02	0	58	0	430964736	57	7123
2026-01-29 00:17:11.40	358.82	34.13	-43.4	-49.1	9.1	2.73e-02	0	58	0	432013312	57	7371
2026-01-29 00:17:12.41	358.66	34.33	-43.4	-49.1	9.1	1.26e-02	0	58	0	434110464	57	7370
2026-01-29 00:17:13.42	358.49	34.54	-43.5	-49.3	9.0	2.31e-02	0	58	0	436207616	57	7470
2026-01-29 00:17:14.43	358.33	34.74	-43.4	-48.9	9.2	2.42e-02	0	58	0	438304768	57	7189
2026-01-29 00:17:15.44	358.16	34.95	-43.5	-49.4	8.7	2.51e-02	0	58	0	440401920	57	7609
2026-01-29 00:17:16.45	357.99	35.16	-43.6	-49.5	8.7	3.31e-02	0	58	0	441450496	57	7701
2026-01-29 00:17:17.45	357.82	35.36	-43.5	-49.4	8.8	1.40e-02	0	58	0	443547648	57	7617
2026-01-29 00:17:18.46	357.65	35.57	-43.7	-49.9	8.3	4.56e-02	0	58	0	445644800	57	8080
2026-01-29 00:17:19.47	357.48	35.78	-43.8	-50.2	8.0	6.68e-02	0	58	0	447741952	58	7881
2026-01-29 00:17:20.49	357.30	35.99	-43.8	-50.4	7.9	6.20e-02	0	58	0	449839104	58	8035
2026-01-29 00:17:21.50	357.12	36.21	-43.7	-50.0	8.2	6.06e-02	0	58	0	451936256	58	7649
2026-01-29 00:17:22.51	356.93	36.42	-43.2	-48.4	9.9	3.87e-02	0	58	0	452984832	58	6365
2026-01-29 00:17:23.52	356.75	36.63	-43.1	-48.2	10.0	8.85e-03	0	58	0	455081984	58	6259
2026-01-29 00:17:24.53	356.56	36.85	-42.9	-47.6	10.6	4.25e-03	0	58	0	457179136	57	6190
2026-01-29 00:17:25.54	356.37	37.07	-42.8	-47.4	10.9	1.65e-03	0	58	0	459276288	57	6028
2026-01-29 00:17:26.55	356.18	37.28	-42.8	-47.2	11.1	1.36e-03	0	58	0	461373440	57	5902
2026-01-29 00:17:27.56	355.98	37.50	-42.5	-46.7	11.8	8.90e-04	0	58	0	462422016	56	5889
2026-01-29 00:17:28.57	355.79	37.72	-42.7	-47.1	11.3	6.61e-04	0	58	0	464519168	56	6138
2026-01-29 00:17:29.58	355.58	37.94	-42.7	-47.0	11.4	9.58e-04	0	58	0	466616320	56	6116
2026-01-29 00:17:30.59	355.38	38.17	-42.4	-46.5	11.9	1.04e-03	0	58	0	468713472	56	5735
2026-01-29 00:17:31.60	355.17	38.39	-42.5	-46.5	11.8	8.77e-04	0	58	0	470810624	56	5776
2026-01-29 00:17:32.61	354.97	38.61	-42.5	-46.6	11.9	8.60e-04	0	58	0	471859200	56	5794
2026-01-29 00:17:33.62	354.75	38.84	-42.4	-46.5	11.9	2.47e-04	0	58	0	473956352	56	5736
2026-01-29 00:17:34.63	354.54	39.06	-42.3	-46.2	12.2	4.34e-04	0	58	0	476053504	56	5562
2026-01-29 00:17:35.64	354.32	39.29	-42.2	-46.0	12.4	1.96e-04	0	58	0	478150656	56	5454
2026-01-29 00:17:36.65	354.10	39.52	-42.4	-46.3	12.1	2.03e-04	0	58	0	480247808	56	5642
2026-01-29 00:17:37.66	353.87	39.75	-42.3	-46.1	12.4	1.92e-04	0	58	0	481296384	56	5472
2026-01-29 00:17:38.67	353.65	39.98	-42.3	-46.2	12.2	2.21e-04	0	58	0	483393536	56	5562
2026-01-29 00:17:39.68	353.41	40.21	-42.5	-46.5	11.9	3.91e-04	0	58	0	485490688	56	5773
2026-01-29 00:17:40.69	353.18	40.44	-42.7	-47.0	11.4	5.13e-04	0	58	0	487587840	56	6107
2026-01-29 00:17:41.70	352.94	40.67	-42.8	-47.3	11.1	9.72e-04	0	58	0	489684992	56	6294
2026-01-29 00:17:42.71	352.70	40.91	-42.8	-47.3	11.1	1.72e-03	0	58	0	490733568	56	6300
2026-01-29 00:17:43.72	352.46	41.14	-42.7	-47.0	11.4	1.12e-03	0	58	0	492830720	56	6104
2026-01-29 00:17:44.73	352.21	41.38	-42.6	-46.8	11.5	9.81e-04	0	58	0	494927872	56	5970
2026-01-29 00:17:45.74	351.95	41.61	-42.4	-46.4	12.0	4.60e-04	0	58	0	497025024	56	5687
2026-01-29 00:17:46.75	351.70	41.85	-42.4	-46.5	11.8	4.77e-04	0	58	0	499122176	56	5750
2026-01-29 00:17:47.76	351.44	42.09	-42.4	-46.3	12.2	1.24e-04	0	58	0	500170752	56	5612
2026-01-29 00:17:48.77	351.17	42.33	-42.4	-46.3	12.1	1.94e-04	0	58	0	502267904	56	5647
2026-01-29 00:17:49.78	350.91	42.57	-42.5	-46.5	11.9	5.90e-04	0	58	0	504365056	56	5755
2026-01-29 00:17:50.78	350.64	42.81	-42.8	-47.1	11.3	6.53e-04	0	58	0	506462208	56	6167
2026-01-29 00:17:51.80	350.36	43.05	-43.1	-48.2	10.2	1.49e-03	0	58	0	508559360	56	6974
2026-01-29 00:17:52.81	350.08	43.30	-42.9	-47.6	10.7	2.09e-03	0	58	0	509607936	56	6561
2026-01-29 00:17:53.82	349.79	43.54	-43.1	-48.0	10.7	2.72e-03	0	58	0	511705088	56	6866
2026-01-29 00:17:54.83	349.50	43.78	-42.7	-46.9	11.5	1.88e-03	0	58	0	513802240	56	6024
2026-01-29 00:17:55.84	349.21	44.03	-42.6	-46.8	11.7	5.13e-04	0	58	0	515899392	56	5934
2026-01-29 00:17:56.85	348.91	44.27	-42.4	-46.3	12.1	7.57e-04	0	58	0	517996544	56	5618
2026-01-29 00:17:57.86	348.61	44.52	-42.7	-46.9	11.5	3.83e-04	0	58	0	520093696	56	6028
2026-01-29 00:17:58.86	348.30	44.76	-43.0	-47.7	10.9	1.65e-03	0	58	0	521142272	56	6580
2026-01-29 00:17:59.87	347.99	45.01	-42.6	-46.9	11.6	1.68e-03	0	58	0	523239424	56	6026
2026-01-29 00:18:00.88	347.67	45.26	-42.9	-47.4	11.0	1.43e-03	0	58	0	525336576	56	6420
2026-01-29 00:18:01.89	347.35	45.51	-42.8	-47.3	11.2	1.40e-03	0	58	0	527433728	56	6326
2026-01-29 00:18:02.90	347.02	45.76	-42.9	-47.4	10.9	1.15e-03	0	58	0	529530880	56	6416
2026-01-29 00:18:03.91	346.69	46.01	-42.8	-47.2	11.2	1.70e-03	0	58	0	530579456	56	6245
2026-01-29 00:18:04.92	346.35	46.26	-42.8	-47.2	11.2	1.05e-03	0	58	0	532676608	56	6225
2026-01-29 00:18:05.93	346.01	46.51	-42.7	-47.0	11.5	7.62e-04	0	58	0	534773760	56	6078
2026-01-29 00:18:06.95	345.65	46.76	-42.2	-45.9	12.6	2.43e-04	0	58	0	536870912	56	5370
2026-01-29 00:18:07.96	345.30	47.01	-42.1	-45.7	12.8	1.11e-04	0	58	0	538968064	56	5259
2026-01-29 00:18:08.97	344.94	47.26	-41.8	-45.2	13.1	3.12e-05	0	58	0	540016640	55	5253
2026-01-29 00:18:09.98	344.57	47.51	-41.8	-45.4	13.0	4.34e-05	0	58	0	542113792	55	5364
2026-01-29 00:18:10.99	344.20	47.77	-42.0	-45.6	12.7	6.33e-05	0	58	0	544210944	55	5510
2026-01-29 00:18:12.00	343.82	48.02	-42.1	-45.8	12.5	1.40e-04	0	58	0	546308096	55	5636
2026-01-29 00:18:13.01	343.43	48.27	-42.0	-45.8	12.5	1.27e-04	0	58	0	548405248	55	5593
2026-01-29 00:18:14.02	343.04	48.52	-41.9	-45.4	12.9	5.11e-05	0	58	0	549453824	55	5387
2026-01-29 00:18:15.03	342.64	48.77	-41.6	-44.9	13.5	1.29e-05	0	58	0	551550976	55	5058
2026-01-29 00:18:16.04	342.24	49.03	-41.8	-45.3	13.1	2.74e-05	0	58	0	553648128	55	5314
2026-01-29 00:18:17.05	341.82	49.28	-41.9	-45.5	12.8	3.58e-05	0	58	0	555745280	55	5440
2026-01-29 00:18:18.06	341.41	49.53	-42.2	-46.1	12.1	1.17e-04	0	58	0	557842432	55	5816
2026-01-29 00:18:19.07	340.98	49.78	-42.1	-45.9	12.5	2.17e-04	0	58	0	558891008	55	5695
2026-01-29 00:18:20.08	340.55	50.03	-42.0	-45.6	12.8	7.93e-05	0	58	0	560988160	55	5485
2026-01-29 00:18:21.09	340.11	50.28	-41.8	-45.3	13.1	8.54e-05	0	58	0	563085312	55	5312
2026-01-29 00:18:22.10	339.66	50.53	-41.5	-44.8	13.6	1.37e-05	0	58	0	565182464	55	5002
2026-01-29 00:18:23.11	339.20	50.78	-41.5	-44.8	13.7	1.14e-05	0	58	0	567279616	54	5287
2026-01-29 00:18:24.12	338.74	51.03	-41.6	-44.9	13.5	1.14e-05	0	58	0	568328192	54	5356
2026-01-29 00:18:25.13	338.27	51.28	-41.3	-44.3	14.0	3.80e-06	0	58	0	570425344	54	5040
2026-01-29 00:18:26.14	337.79	51.53	-41.1	-44.1	14.4	0.00e+00	0	58	0	572522496	54	4880
2026-01-29 00:18:27.15	337.31	51.77	-40.6	-43.2	15.0	0.00e+00	0	58	0	574619648	53	4682
2026-01-29 00:18:28.16	336.81	52.02	-40.1	-42.4	16.0	0.00e+00	0	58	0	576716800	52	4535
2026-01-29 00:18:29.17	336.31	52.26	-40.1	-42.4	16.1	0.00e+00	0	58	0	577765376	51	4783
2026-01-29 00:18:30.18	335.80	52.51	-40.3	-42.7	15.7	0.00e+00	0	58	0	579862528	51	4979
2026-01-29 00:18:31.19	335.28	52.75	-40.8	-43.7	14.7	0.00e+00	0	58	0	581959680	52	5224
2026-01-29 00:18:32.19	334.75	52.99	-41.0	-43.9	14.6	7.00e-07	0	58	0	584056832	52	5349
2026-01-29 00:18:33.21	334.21	53.23	-41.0	-44.0	14.5	0.00e+00	0	58	0	586153984	52	5430
2026-01-29 00:18:34.22	333.66	53.47	-41.3	-44.4	14.1	1.50e-06	0	58	0	588251136	53	5399
2026-01-29 00:18:35.23	333.11	53.70	-41.9	-45.5	12.9	2.13e-05	0	58	0	589299712	54	5747
2026-01-29 00:18:36.24	332.54	53.94	-42.3	-46.4	12.0	1.65e-04	0	58	0	591396864	55	6016
2026-01-29 00:18:37.25	331.97	54.17	-42.1	-46.1	12.3	3.23e-04	0	58	0	593494016	55	5804
2026-01-29 00:18:38.26	331.39	54.40	-42.1	-45.9	12.5	1.46e-04	0	58	0	595591168	55	5711
2026-01-29 00:18:39.26	330.80	54.63	-41.6	-44.9	13.4	3.28e-05	0	58	0	597688320	55	5098
2026-01-29 00:18:40.27	330.20	54.86	-41.0	-43.9	14.5	2.20e-06	0	58	0	598736896	53	5067
2026-01-29 00:18:41.28	329.58	55.08	-40.5	-43.1	15.3	0.00e+00	0	58	0	600834048	53	4648
2026-01-29 00:18:42.29	328.96	55.31	-40.9	-43.7	14.7	0.00e+00	0	58	0	602931200	52	5239
2026-01-29 00:18:43.30	328.33	55.53	-41.6	-44.9	13.5	4.50e-06	0	58	0	605028352	53	5681
2026-01-29 00:18:44.31	327.69	55.74	-41.8	-45.3	13.0	3.12e-05	0	58	0	607125504	54	5655
2026-01-29 00:18:45.32	327.04	55.96	-41.8	-45.4	12.9	3.28e-05	0	58	0	608174080	54	5683
2026-01-29 00:18:46.33	326.37	56.17	-41.4	-44.6	13.8	1.14e-05	0	58	0	610271232	54	5185
2026-01-29 00:18:47.34	325.70	56.38	-41.3	-44.5	13.9	7.00e-07	0	58	0	612368384	54	5114
2026-01-29 00:18:48.35	325.02	56.58	-41.4	-44.5	13.9	4.50e-06	0	58	0	614465536	54	5159
2026-01-29 00:18:49.36	324.33	56.79	-41.3	-44.4	14.0	7.00e-07	0	58	0	616562688	54	5076
2026-01-29 00:18:50.37	323.63	56.99	-41.1	-44.0	14.3	3.80e-06	0	58	0	617611264	54	4859
2026-01-29 00:18:51.38	322.91	57.18	-41.4	-44.7	13.8	5.30e-06	0	58	0	619708416	54	5228
2026-01-29 00:18:52.39	322.19	57.37	-41.6	-44.9	13.5	9.10e-06	0	58	0	621805568	54	5354
2026-01-29 00:18:53.40	321.46	57.56	-41.3	-44.5	13.9	7.60e-06	0	58	0	623902720	54	5128
2026-01-29 00:18:54.41	320.71	57.75	-41.4	-44.6	13.8	5.30e-06	0	58	0	625999872	54	5193
2026-01-29 00:18:55.42	319.96	57.93	-41.3	-44.3	14.0	3.80e-06	0	58	0	627048448	54	5035
2026-01-29 00:18:56.43	319.19	58.10	-41.2	-44.2	14.3	0.00e+00	0	58	0	629145600	54	4950
2026-01-29 00:18:57.44	318.42	58.27	-40.9	-43.9	14.5	7.00e-07	0	58	0	631242752	53	5042
2026-01-29 00:18:58.45	317.64	58.44	-40.9	-43.7	14.7	7.00e-07	0	58	0	633339904	53	4944
2026-01-29 00:18:59.46	316.84	58.60	-41.4	-44.7	13.7	7.00e-07	0	58	0	635437056	53	5542
2026-01-29 00:19:00.47	316.04	58.76	-41.7	-45.1	13.2	1.06e-05	0	58	0	636485632	53	5854
2026-01-29 00:19:01.49	315.22	58.92	-41.6	-45.1	13.3	1.37e-05	0	58	0	638582784	54	5468
2026-01-29 00:19:02.49	314.40	59.06	-41.6	-44.9	13.4	1.14e-05	0	58	0	640679936	54	5351
2026-01-29 00:19:03.50	313.57	59.21	-41.7	-45.1	13.7	1.67e-05	0	58	0	642777088	54	5491
2026-01-29 00:19:04.51	312.73	59.34	-41.8	-45.3	13.0	1.98e-05	0	58	0	644874240	54	5643
2026-01-29 00:19:05.52	311.88	59.48	-41.5	-44.8	13.5	1.60e-05	0	58	0	645922816	54	5313
2026-01-29 00:19:06.53	311.02	59.60	-41.2	-44.2	14.1	4.50e-06	0	58	0	648019968	54	4982
2026-01-29 00:19:07.54	310.16	59.72	-40.8	-43.6	14.7	0.00e+00	0	58	0	650117120	53	4914
2026-01-29 00:19:08.55	309.28	59.84	-41.1	-44.0	14.4	0.00e+00	0	58	0	652214272	53	5113
2026-01-29 00:19:09.57	308.39	59.95	-42.0	-45.7	12.7	7.60e-06	0	58	0	654311424	54	5887
2026-01-29 00:19:10.57	307.51	60.05	-41.9	-45.4	12.7	2.36e-04	0	58	0	655360000	55	5402
2026-01-29 00:19:11.59	306.61	60.15	-41.1	-44.1	14.2	8.30e-06	0	58	0	657457152	54	4876
2026-01-29 00:19:12.59	305.71	60.24	-41.1	-44.0	14.3	0.00e+00	0	58	0	659554304	53	5137
2026-01-29 00:19:13.61	304.79	60.32	-41.7	-45.3	13.2	1.06e-05	0	58	0	661651456	53	5924
2026-01-29 00:19:14.62	303.88	60.40	-41.9	-45.6	12.9	5.49e-05	0	58	0	663748608	54	5832
2026-01-29 00:19:15.63	302.96	60.47	-41.5	-44.8	13.5	4.95e-05	0	58	0	665845760	54	5309
2026-01-29 00:19:16.63	302.04	60.54	-41.0	-44.0	14.5	0.00e+00	0	58	0	666894336	54	4826
2026-01-29 00:19:17.64	301.11	60.60	-41.1	-44.1	14.3	0.00e+00	0	58	0	668991488	54	4899
2026-01-29 00:19:18.65	300.18	60.65	-41.4	-44.7	13.7	3.00e-06	0	58	0	671088640	54	5225
2026-01-29 00:19:19.66	299.24	60.69	-41.4	-44.7	13.7	8.30e-06	0	58	0	673185792	54	5223
2026-01-29 00:19:20.67	298.30	60.73	-41.0	-43.9	14.5	7.00e-07	0	58	0	675282944	53	5057
2026-01-29 00:19:21.68	297.35	60.76	-40.7	-43.5	14.9	0.00e+00	0	58	0	676331520	53	4817
2026-01-29 00:19:22.69	296.41	60.79	-40.5	-43.2	15.2	0.00e+00	0	58	0	678428672	52	4962
2026-01-29 00:19:23.70	295.46	60.81	-40.5	-43.1	15.2	0.00e+00	0	58	0	680525824	52	4913
2026-01-29 00:19:24.71	294.51	60.82	-39.9	-42.2	16.2	0.00e+00	0	58	0	682622976	51	4704
2026-01-29 00:19:25.72	293.56	60.82	-39.7	-41.9	16.5	0.00e+00	0	58	0	684720128	51	4502
2026-01-29 00:19:26.73	292.62	60.82	-39.6	-41.7	16.7	0.00e+00	0	58	0	685768704	51	4430
2026-01-29 00:19:27.74	291.67	60.81	-39.4	-41.6	16.9	0.00e+00	0	58	0	687865856	50	4604
2026-01-29 00:19:28.75	290.72	60.79	-39.4	-41.5	16.9	0.00e+00	0	58	0	689963008	50	4572
2026-01-29 00:19:29.76	289.77	60.77	-40.2	-42.6	15.8	0.00e+00	0	58	0	692060160	50	5193
2026-01-29 00:19:30.77	288.83	60.74	-40.4	-42.9	15.5	7.00e-07	0	58	0	694157312	51	5081
2026-01-29 00:19:31.78	287.89	60.70	-40.1	-42.6	15.9	0.00e+00	0	58	0	695205888	51	4878
2026-01-29 00:19:32.79	286.95	60.65	-40.0	-42.5	16.1	0.00e+00	0	58	0	697303040	51	4816
2026-01-29 00:19:33.80	286.01	60.60	-39.5	-41.6	16.8	0.00e+00	0	58	0	699400192	50	4634
2026-01-29 00:19:34.81	285.08	60.54	-39.5	-41.6	16.8	0.00e+00	0	58	0	701497344	50	4650
2026-01-29 00:19:35.82	284.16	60.48	-40.4	-43.0	15.4	0.00e+00	0	58	0	703594496	51	5149
2026-01-29 00:19:36.83	283.24	60.41	-40.8	-43.6	14.7	0.00e+00	0	58	0	704643072	52	5164
2026-01-29 00:19:37.84	282.32	60.33	-41.0	-43.9	14.5	7.00e-07	0	58	0	706740224	52	5388
2026-01-29 00:19:38.85	281.41	60.25	-41.0	-44.1	14.2	7.00e-07	0	58	0	708837376	52	5465
2026-01-29 00:19:39.85	280.51	60.16	-40.1	-42.5	15.9	0.00e+00	0	58	0	710934528	52	4573
2026-01-29 00:19:40.86	279.62	60.06	-39.5	-41.6	16.8	0.00e+00	0	58	0	713031680	50	4634
2026-01-29 00:19:41.87	278.73	59.96	-39.6	-41.7	16.7	0.00e+00	0	58	0	714080256	50	4693
2026-01-29 00:19:42.88	277.84	59.85	-40.6	-43.2	15.2	0.00e+00	0	58	0	716177408	51	5256
2026-01-29 00:19:43.89	276.97	59.73	-40.8	-43.7	14.7	0.00e+00	0	58	0	718274560	52	5229
2026-01-29 00:19:44.90	276.10	59.61	-41.2	-44.3	14.1	7.00e-07	0	58	0	720371712	52	5618
2026-01-29 00:19:45.91	275.24	59.49	-41.2	-44.3	14.2	0.00e+00	0	58	0	722468864	53	5338
2026-01-29 00:19:46.92	274.39	59.36	-41.1	-44.1	14.3	4.50e-06	0	58	0	723517440	53	5202
2026-01-29 00:19:47.93	273.55	59.22	-41.0	-44.0	14.3	7.00e-07	0	58	0	725614592	53	5142
2026-01-29 00:19:48.94	272.71	59.08	-41.8	-45.5	13.0	3.00e-06	0	58	0	727711744	54	5726
2026-01-29 00:19:49.95	271.89	58.93	-42.3	-46.5	11.8	3.01e-04	0	58	0	729808896	55	6090
2026-01-29 00:19:50.96	271.07	58.78	-41.5	-44.9	13.4	1.90e-04	0	59	0	731906048	55	5081
2026-01-29 00:19:51.97	270.27	58.62	-41.0	-43.9	14.5	3.80e-06	0	58	0	734003200	53	5069
2026-01-29 00:19:52.98	269.47	58.46	-40.8	-43.7	14.7	7.00e-07	0	58	0	735051776	53	4946
2026-01-29 00:19:53.99	268.69	58.29	-40.7	-43.5	14.8	0.00e+00	0	58	0	737148928	53	4844
2026-01-29 00:19:55.01	267.90	58.11	-41.0	-43.9	14.4	2.20e-06	0	59	0	739246080	53	5100
2026-01-29 00:19:56.02	267.14	57.94	-41.0	-43.9	14.4	0.00e+00	0	59	0	741343232	53	5072
2026-01-29 00:19:57.03	266.38	57.76	-40.3	-42.9	15.5	0.00e+00	0	58	0	743440384	52	4768
2026-01-29 00:19:58.04	265.63	57.57	-40.4	-43.0	15.5	0.00e+00	0	59	0	744488960	52	4834
2026-01-29 00:19:59.05	264.90	57.39	-40.7	-43.5	14.8	7.00e-07	0	58	0	746586112	52	5154
2026-01-29 00:20:00.06	264.17	57.19	-40.4	-43.0	15.4	0.00e+00	0	58	0	748683264	52	4855
2026-01-29 00:20:01.06	263.47	57.00	-40.2	-42.8	15.6	0.00e+00	0	58	0	750780416	52	4715
2026-01-29 00:20:02.08	262.75	56.80	-40.2	-42.7	15.7	0.00e+00	0	59	0	752877568	52	4687
2026-01-29 00:20:03.09	262.06	56.60	-39.8	-42.0	16.4	0.00e+00	0	58	0	753926144	51	4589
2026-01-29 00:20:04.10	261.38	56.39	-40.1	-42.5	16.0	0.00e+00	0	58	0	756023296	51	4823
2026-01-29 00:20:05.11	260.70	56.18	-40.5	-43.2	15.3	0.00e+00	0	58	0	758120448	51	5235
2026-01-29 00:20:06.12	260.04	55.97	-40.2	-42.6	15.8	0.00e+00	0	58	0	760217600	51	4908
2026-01-29 00:20:07.13	259.38	55.75	-40.4	-42.9	15.5	0.00e+00	0	58	0	762314752	51	5062
2026-01-29 00:20:08.14	258.74	55.54	-40.8	-43.7	14.8	7.00e-07	0	58	0	763363328	52	5242
2026-01-29 00:20:09.15	258.11	55.32	-40.8	-43.6	14.8	7.00e-07	0	58	0	765460480	52	5175
2026-01-29 00:20:10.16	257.48	55.09	-40.7	-43.4	15.0	0.00e+00	0	58	0	767557632	52	5087
2026-01-29 00:20:11.17	256.87	54.87	-41.3	-44.4	14.0	7.00e-07	0	58	0	769654784	53	5382
2026-01-29 00:20:12.18	256.26	54.64	-41.4	-44.7	13.6	1.29e-05	0	58	0	771751936	53	5562
2026-01-29 00:20:13.19	255.67	54.41	-41.6	-44.9	13.5	3.80e-06	0	58	0	772800512	53	5718
2026-01-29 00:20:14.20	255.08	54.18	-41.3	-44.4	13.9	1.75e-05	0	58	0	774897664	53	5377
2026-01-29 00:20:15.21	254.51	53.94	-41.4	-44.5	13.8	3.00e-06	0	58	0	776994816	53	5464
2026-01-29 00:20:16.22	253.94	53.71	-41.5	-44.9	13.5	1.37e-05	0	58	0	779091968	53	5660
2026-01-29 00:20:17.23	253.38	53.47	-41.7	-45.2	13.1	1.60e-05	0	59	0	781189120	54	5584
2026-01-29 00:20:18.24	252.84	53.23	-41.8	-45.4	13.1	4.65e-05	0	58	0	782237696	54	5666
2026-01-29 00:20:19.25	252.30	52.99	-41.9	-45.6	12.7	4.11e-05	0	58	0	784334848	54	5854
2026-01-29 00:20:20.26	251.77	52.75	-41.9	-45.6	12.7	8.08e-05	0	59	0	786432000	54	5831
2026-01-29 00:20:21.27	251.25	52.51	-41.5	-44.8	13.5	2.13e-05	0	58	0	788529152	54	5338
2026-01-29 00:20:22.28	250.73	52.26	-40.8	-43.6	14.7	0.00e+00	0	59	0	790626304	53	4908
2026-01-29 00:20:23.29	250.23	52.02	-41.0	-43.9	14.5	0.00e+00	0	58	0	791674880	53	5047
2026-01-29 00:20:24.30	249.73	51.77	-41.0	-44.0	14.4	2.20e-06	0	58	0	793772032	53	5155
2026-01-29 00:20:25.31	249.24	51.52	-41.8	-45.5	12.9	1.14e-05	0	58	0	795869184	54	5748
2026-01-29 00:20:26.32	248.76	51.28	-41.6	-45.1	13.2	9.00e-05	0	59	0	797966336	54	5518
2026-01-29 00:20:27.33	248.29	51.03	-40.8	-43.7	14.7	2.20e-06	0	58	0	800063488	53	4931
2026-01-29 00:20:28.34	247.83	50.78	-40.0	-42.4	15.9	0.00e+00	0	58	0	802160640	52	4527
2026-01-29 00:20:29.35	247.37	50.53	-40.6	-43.3	15.0	0.00e+00	0	58	0	803209216	52	5028
2026-01-29 00:20:30.36	246.92	50.28	-41.4	-44.7	13.6	0.00e+00	0	58	0	805306368	53	5541
2026-01-29 00:20:31.37	246.48	50.03	-42.0	-45.7	12.6	4.73e-05	0	59	0	807403520	54	5898
2026-01-29 00:20:32.38	246.05	49.77	-42.1	-45.9	12.4	1.06e-04	0	58	0	809500672	54	6053
2026-01-29 00:20:33.39	245.62	49.52	-42.4	-46.6	11.7	1.46e-03	0	58	0	811597824	55	6194
2026-01-29 00:20:34.40	245.20	49.27	-42.2	-46.1	12.2	3.05e-04	0	58	0	812646400	55	5791
2026-01-29 00:20:35.41	244.78	49.02	-42.3	-46.3	12.0	4.84e-04	0	59	0	814743552	55	5951
2026-01-29 00:20:36.42	244.38	48.76	-42.3	-46.3	12.0	4.81e-04	0	58	0	816840704	55	5991
2026-01-29 00:20:37.43	243.98	48.51	-42.3	-46.4	11.9	4.09e-04	0	58	0	818937856	55	6046
2026-01-29 00:20:38.44	243.59	48.26	-42.6	-47.0	11.2	1.46e-03	0	58	0	821035008	55	6455
2026-01-29 00:20:39.45	243.20	48.01	-43.4	-48.8	9.5	6.71e-03	0	58	0	822083584	57	7121
2026-01-29 00:20:40.46	242.82	47.75	-44.0	-50.9	7.5	7.91e-02	0	58	0	824180736	58	8501
2026-01-29 00:20:41.47	242.44	47.50	-43.6	-49.6	8.8	5.21e-02	0	58	0	826277888	58	7337
2026-01-29 00:20:42.48	242.08	47.25	-43.3	-48.5	10.0	1.07e-02	0	58	0	828375040	58	6433
2026-01-29 00:20:43.49	241.71	47.00	-42.7	-47.0	11.3	6.60e-03	0	58	0	830472192	57	5778
2026-01-29 00:20:44.50	241.36	46.74	-42.4	-46.4	12.1	7.42e-04	0	58	0	831520768	56	5686
2026-01-29 00:20:45.51	241.01	46.49	-42.6	-47.0	11.5	6.04e-04	0	59	0	833617920	56	6071
2026-01-29 00:20:46.52	240.66	46.24	-42.7	-47.0	11.3	6.41e-04	0	58	0	835715072	56	6129
2026-01-29 00:20:47.53	240.32	45.99	-42.7	-47.2	11.1	1.83e-03	0	58	0	837812224	56	6244
2026-01-29 00:20:48.53	239.99	45.74	-42.4	-46.4	12.1	4.81e-04	0	59	0	839909376	56	5679
2026-01-29 00:20:49.54	239.66	45.49	-41.8	-45.4	13.0	9.00e-05	0	58	0	842006528	55	5371
2026-01-29 00:20:50.55	239.34	45.24	-41.7	-45.2	13.1	6.40e-05	0	59	0	843055104	55	5265
2026-01-29 00:20:51.56	239.02	44.99	-41.8	-45.4	12.9	8.69e-05	0	59	0	845152256	55	5377
2026-01-29 00:20:52.57	238.70	44.75	-42.0	-45.7	12.6	5.79e-05	0	59	0	847249408	55	5548
2026-01-29 00:20:53.58	238.39	44.50	-42.1	-46.0	12.4	8.62e-05	0	59	0	849346560	55	5728
2026-01-29 00:20:54.59	238.09	44.25	-42.6	-47.1	11.2	6.05e-04	0	58	0	851443712	55	6548
2026-01-29 00:20:55.59	237.79	44.01	-43.1	-47.9	10.5	2.66e-03	0	59	0	852492288	56	6799
2026-01-29 00:20:56.60	237.50	43.76	-42.8	-47.3	11.1	3.12e-03	0	59	0	854589440	56	6324
2026-01-29 00:20:57.61	237.21	43.52	-42.6	-46.7	11.7	9.79e-04	0	59	0	856686592	56	5894
2026-01-29 00:20:58.63	236.92	43.27	-42.5	-46.7	12.0	6.68e-04	0	58	0	858783744	56	5866
2026-01-29 00:20:59.64	236.64	43.03	-42.6	-46.8	11.7	3.91e-04	0	59	0	860880896	56	5938
2026-01-29 00:21:00.65	236.36	42.78	-42.6	-46.8	11.7	4.20e-04	0	59	0	861929472	56	5930
2026-01-29 00:21:01.65	236.09	42.54	-42.6	-46.8	11.7	3.87e-04	0	59	0	864026624	56	5927
2026-01-29 00:21:02.67	235.82	42.30	-42.6	-46.9	11.5	3.68e-04	0	59	0	866123776	56	6033
2026-01-29 00:21:03.68	235.55	42.06	-42.7	-47.1	11.2	1.08e-03	0	58	0	868220928	56	6190
2026-01-29 00:21:04.69	235.29	41.82	-42.5	-46.7	11.7	6.23e-04	0	59	0	870318080	56	5918
2026-01-29 00:21:05.70	235.04	41.58	-42.3	-46.3	12.2	3.23e-04	0	58	0	871366656	56	5622
2026-01-29 00:21:06.71	234.78	41.34	-41.9	-45.5	12.7	4.88e-05	0	59	0	873463808	55	5421
2026-01-29 00:21:07.72	234.53	41.11	-42.4	-46.6	11.7	3.00e-04	0	59	0	875560960	55	6142
2026-01-29 00:21:08.73	234.29	40.87	-42.6	-47.1	11.1	1.08e-03	0	59	0	877658112	55	6549
2026-01-29 00:21:09.74	234.04	40.64	-42.7	-47.2	11.2	1.06e-03	0	59	0	879755264	56	6270
2026-01-29 00:21:10.75	233.80	40.40	-42.7	-47.2	11.2	1.68e-03	0	59	0	880803840	56	6222
2026-01-29 00:21:11.76	233.57	40.17	-43.1	-48.1	10.1	1.77e-03	0	59	0	882900992	56	6916
2026-01-29 00:21:12.77	233.34	39.94	-43.1	-48.0	10.4	6.00e-03	0	59	0	884998144	57	6422
2026-01-29 00:21:13.78	233.11	39.71	-43.0	-47.9	10.4	3.97e-03	0	59	0	887095296	57	6376
2026-01-29 00:21:14.79	232.88	39.48	-42.8	-47.4	11.0	4.36e-03	0	58	0	889192448	57	5994
2026-01-29 00:21:15.80	232.66	39.25	-43.0	-47.7	10.7	2.85e-03	0	59	0	890241024	57	6236
2026-01-29 00:21:16.81	232.44	39.02	-42.9	-47.5	10.8	2.52e-03	0	59	0	892338176	57	6111
2026-01-29 00:21:17.82	232.23	38.79	-42.9	-47.6	10.8	1.46e-03	0	58	0	894435328	57	6149
2026-01-29 00:21:18.83	232.01	38.57	-43.0	-47.8	10.7	2.66e-03	0	59	0	896532480	57	6299
2026-01-29 00:21:19.84	231.80	38.34	-43.0	-47.9	10.4	3.48e-03	0	59	0	898629632	57	6358
2026-01-29 00:21:20.85	231.60	38.12	-42.8	-47.3	11.0	3.10e-03	0	59	0	899678208	57	5959
2026-01-29 00:21:21.86	231.39	37.90	-42.9	-47.6	10.8	2.85e-03	0	59	0	901775360	57	6195
2026-01-29 00:21:22.87	231.19	37.67	-43.1	-48.1	10.3	4.25e-03	0	59	0	903872512	57	6545
2026-01-29 00:21:23.88	230.99	37.45	-43.2	-48.5	9.9	7.45e-03	0	59	0	905969664	57	6811
2026-01-29 00:21:24.89	230.79	37.23	-43.0	-48.0	10.4	8.82e-03	0	59	0	908066816	57	6430
2026-01-29 00:21:25.90	230.60	37.02	-42.9	-47.5	10.8	4.40e-03	0	59	0	910163968	57	6103
2026-01-29 00:21:26.91	230.41	36.80	-42.6	-46.9	11.5	1.08e-03	0	58	0	911212544	57	5684
2026-01-29 00:21:27.92	230.22	36.58	-42.3	-46.2	12.2	3.68e-04	0	59	0	913309696	56	5545
2026-01-29 00:21:28.93	230.04	36.37	-42.4	-46.3	12.1	2.53e-04	0	59	0	915406848	56	5649
2026-01-29 00:21:29.94	229.85	36.15	-42.8	-47.2	11.1	9.61e-04	0	59	0	917504000	56	6265
2026-01-29 00:21:30.95	229.67	35.94	-43.2	-48.3	10.0	4.35e-03	0	59	0	919601152	56	7110
2026-01-29 00:21:31.96	229.49	35.73	-43.0	-47.9	10.3	3.96e-03	0	59	0	920649728	56	6775
2026-01-29 00:21:32.97	229.32	35.52	-43.1	-48.1	10.3	3.20e-03	0	59	0	922746880	56	6890
2026-01-29 00:21:33.98	229.14	35.31	-42.7	-47.2	11.2	1.69e-03	0	59	0	924844032	56	6230
2026-01-29 00:21:34.99	228.97	35.10	-42.7	-47.1	11.3	1.34e-03	0	59	0	926941184	56	6159
2026-01-29 00:21:36.00	228.80	34.89	-42.7	-47.1	11.2	1.68e-03	0	59	0	929038336	56	6182
2026-01-29 00:21:37.01	228.63	34.68	-43.1	-48.1	10.3	2.99e-03	0	59	0	930086912	56	6905
2026-01-29 00:21:38.02	228.47	34.48	-42.7	-47.2	11.1	2.35e-03	0	59	0	932184064	56	6250
2026-01-29 00:21:39.03	228.31	34.27	-42.2	-46.1	12.3	2.68e-04	0	59	0	934281216	56	5486
2026-01-29 00:21:40.04	228.14	34.07	-41.6	-45.1	13.1	4.27e-05	0	59	0	936378368	55	5188
2026-01-29 00:21:41.05	227.99	33.87	-41.7	-45.1	13.2	1.98e-05	0	59	0	938475520	55	5210
2026-01-29 00:21:42.06	227.83	33.67	-41.9	-45.7	12.6	7.93e-05	0	59	0	939524096	55	5549
2026-01-29 00:21:43.07	227.67	33.47	-42.4	-46.7	11.5	4.25e-04	0	59	0	941621248	55	6254
2026-01-29 00:21:44.08	227.52	33.27	-42.9	-47.6	10.8	1.78e-03	0	59	0	943718400	56	6495
2026-01-29 00:21:45.09	227.37	33.07	-42.6	-46.9	11.3	1.01e-03	0	59	0	945815552	56	6055
2026-01-29 00:21:46.10	227.22	32.87	-42.3	-46.3	11.9	3.50e-04	0	59	0	947912704	56	5623
2026-01-29 00:21:47.11	227.07	32.68	-42.0	-45.7	12.7	1.38e-04	0	59	0	948961280	56	5224
2026-01-29 00:21:48.12	226.93	32.48	-42.3	-46.2	12.2	1.94e-04	0	59	0	951058432	56	5591
2026-01-29 00:21:49.13	226.78	32.29	-42.6	-46.9	11.5	6.30e-04	0	59	0	953155584	56	6018
2026-01-29 00:21:50.14	226.64	32.09	-43.1	-48.2	10.1	3.35e-03	0	59	0	955252736	56	6996
2026-01-29 00:21:51.15	226.50	31.90	-43.3	-48.8	9.5	1.37e-02	0	59	0	957349888	57	7109
2026-01-29 00:21:52.16	226.36	31.71	-43.0	-48.1	10.3	6.88e-03	0	59	0	958398464	57	6500
2026-01-29 00:21:53.17	226.22	31.52	-42.4	-46.5	11.9	9.67e-04	0	58	0	960495616	56	5733
2026-01-29 00:21:54.18	226.09	31.33	-42.2	-46.0	12.6	1.47e-04	0	59	0	962592768	56	5464
2026-01-29 00:21:55.19	225.95	31.14	-41.7	-45.2	13.0	7.09e-05	0	59	0	964689920	55	5273
2026-01-29 00:21:56.20	225.82	30.96	-41.7	-45.3	12.9	4.65e-05	0	59	0	966787072	55	5308
2026-01-29 00:21:57.22	225.69	30.77	-42.2	-46.2	12.0	1.52e-04	0	59	0	967835648	55	5862
2026-01-29 00:21:58.23	225.56	30.59	-42.1	-46.0	12.2	2.62e-04	0	59	0	969932800	55	5742
2026-01-29 00:21:59.24	225.43	30.40	-42.0	-45.7	12.4	2.01e-04	0	59	0	972029952	55	5588
2026-01-29 00:22:00.25	225.30	30.22	-41.6	-45.1	13.1	1.06e-04	0	59	0	974127104	55	5175
2026-01-29 00:22:01.25	225.18	30.04	-41.5	-44.9	13.4	2.82e-05	0	59	0	976224256	55	5042
2026-01-29 00:22:02.26	225.06	29.86	-41.4	-44.6	13.7	8.30e-06	0	59	0	978321408	54	5201
2026-01-29 00:22:03.27	224.93	29.68	-41.7	-45.2	13.0	1.29e-05	0	59	0	979369984	54	5578
2026-01-29 00:22:04.28	224.81	29.50	-41.9	-45.6	12.6	5.26e-05	0	59	0	981467136	54	5845
2026-01-29 00:22:05.29	224.69	29.32	-42.2	-46.2	11.9	3.03e-04	0	59	0	983564288	54	6266
2026-01-29 00:22:06.30	224.58	29.15	-42.6	-47.2	10.9	1.28e-03	0	59	0	985661440	55	6622
2026-01-29 00:22:07.31	224.46	28.97	-42.7	-47.4	10.7	3.00e-03	0	59	0	987758592	55	6750
2026-01-29 00:22:08.32	224.34	28.80	-42.8	-47.6	10.7	3.05e-03	0	59	0	988807168	56	6499
2026-01-29 00:22:09.33	224.23	28.62	-42.6	-47.1	11.3	1.33e-03	0	59	0	990904320	56	6166
2026-01-29 00:22:10.33	224.12	28.45	-42.4	-46.6	11.7	4.98e-04	0	59	0	993001472	56	5804
2026-01-29 00:22:11.35	224.00	28.28	-42.4	-46.6	11.8	5.34e-04	0	59	0	995098624	56	5807
2026-01-29 00:22:12.36	223.89	28.11	-42.3	-46.4	11.9	4.00e-04	0	59	0	997195776	56	5705
2026-01-29 00:22:13.36	223.79	27.94	-42.5	-46.7	11.6	3.77e-04	0	59	0	998244352	56	5906
2026-01-29 00:22:14.37	223.68	27.77	-42.4	-46.7	11.6	5.32e-04	0	59	0	1000341504	56	5888
2026-01-29 00:22:15.38	223.57	27.60	-42.4	-46.6	11.7	5.90e-04	0	59	0	1002438656	56	5822
2026-01-29 00:22:16.39	223.46	27.43	-42.2	-46.1	12.3	2.23e-04	0	59	0	1004535808	56	5482
2026-01-29 00:22:17.40	223.36	27.27	-42.0	-45.7	12.6	1.72e-04	0	59	0	1006632960	56	5270
2026-01-29 00:22:18.41	223.26	27.10	-41.7	-45.3	12.8	3.96e-05	0	59	0	1007681536	55	5321
2026-01-29 00:22:19.42	223.15	26.94	-41.5	-45.0	13.2	3.35e-05	0	59	0	1009778688	55	5115
2026-01-29 00:22:20.43	223.05	26.77	-41.5	-45.0	13.2	2.21e-05	0	59	0	1011875840	54	5409
2026-01-29 00:22:21.44	222.95	26.61	-41.7	-45.3	12.9	5.11e-05	0	59	0	1013972992	54	5601
2026-01-29 00:22:22.45	222.85	26.45	-41.9	-45.6	12.5	6.17e-05	0	59	0	1016070144	54	5837
2026-01-29 00:22:23.46	222.75	26.29	-42.1	-46.2	12.0	2.43e-04	0	59	0	1017118720	54	6246
2026-01-29 00:22:24.47	222.66	26.13	-42.2	-46.3	11.8	5.06e-04	0	59	0	1019215872	55	5978
2026-01-29 00:22:25.48	222.56	25.97	-42.5	-46.9	11.2	1.24e-03	0	59	0	1021313024	55	6404
2026-01-29 00:22:26.49	222.46	25.81	-42.6	-47.2	10.9	2.42e-03	0	59	0	1023410176	55	6608
2026-01-29 00:22:27.50	222.37	25.65	-42.5	-47.0	11.0	2.65e-03	0	59	0	1025507328	55	6489
2026-01-29 00:22:28.51	222.28	25.49	-42.4	-46.9	11.2	1.78e-03	0	59	0	1026555904	55	6386
2026-01-29 00:22:29.52	222.18	25.34	-42.5	-46.9	11.2	1.80e-03	0	59	0	1028653056	55	6408
2026-01-29 00:22:30.53	222.09	25.18	-42.3	-46.6	11.5	1.12e-03	0	59	0	1030750208	55	6136
2026-01-29 00:22:31.54	222.00	25.03	-42.3	-46.6	11.5	9.12e-04	0	59	0	1032847360	55	6184
2026-01-29 00:22:32.55	221.91	24.87	-42.4	-46.8	11.3	9.35e-04	0	58	0	1034944512	55	6286
2026-01-29 00:22:33.56	221.82	24.72	-42.5	-47.0	11.1	1.46e-03	0	59	0	1035993088	55	6426
2026-01-29 00:22:34.57	221.74	24.57	-42.5	-47.0	11.1	1.42e-03	0	59	0	1038090240	55	6446
2026-01-29 00:22:35.58	221.65	24.42	-42.4	-46.7	11.3	1.71e-03	0	59	0	1040187392	55	6257
2026-01-29 00:22:36.59	221.56	24.27	-42.4	-46.8	11.2	1.19e-03	0	59	0	1042284544	55	6332
2026-01-29 00:22:37.60	221.48	24.12	-42.3	-46.7	11.4	6.51e-04	0	59	0	1044381696	55	6209
2026-01-29 00:22:38.61	221.39	23.97	-42.1	-46.1	11.9	4.00e-04	0	59	0	1046478848	55	5838
2026-01-29 00:22:39.62	221.31	23.82	-41.9	-45.8	12.3	2.26e-04	0	59	0	1047527424	55	5630
2026-01-29 00:22:40.63	221.23	23.67	-41.9	-45.7	12.3	1.70e-04	0	59	0	1049624576	55	5592
2026-01-29 00:22:41.64	221.14	23.53	-41.9	-45.8	12.3	1.86e-04	0	59	0	1051721728	55	5641
2026-01-29 00:22:42.65	221.06	23.38	-41.7	-45.4	12.6	1.07e-04	0	59	0	1053818880	55	5374
2026-01-29 00:22:43.66	220.98	23.24	-41.8	-45.6	12.5	1.05e-04	0	59	0	1055916032	55	5470
2026-01-29 00:22:44.67	220.90	23.09	-41.8	-45.6	12.4	1.27e-04	0	59	0	1056964608	55	5506
2026-01-29 00:22:45.68	220.82	22.95	-41.8	-45.6	12.5	1.33e-04	0	59	0	1059061760	55	5519
2026-01-29 00:22:46.69	220.74	22.81	-41.7	-45.4	12.7	8.46e-05	0	59	0	1061158912	55	5401
2026-01-29 00:22:47.70	220.67	22.66	-41.7	-45.4	12.6	9.15e-05	0	59	0	1063256064	55	5396
2026-01-29 00:22:48.71	220.59	22.52	-41.6	-45.2	12.9	6.71e-05	0	59	0	1065353216	55	5235
2026-01-29 00:22:49.72	220.51	22.38	-41.5	-44.9	13.1	3.12e-05	0	59	0	1066401792	54	5389
2026-01-29 00:22:50.73	220.44	22.24	-41.5	-45.0	13.1	2.97e-05	0	59	0	1068498944	54	5405
2026-01-29 00:22:51.74	220.36	22.10	-41.3	-44.6	13.4	1.22e-05	0	59	0	1070596096	54	5184
2026-01-29 00:22:52.75	220.29	21.97	-41.2	-44.4	13.7	3.80e-06	0	59	0	1072693248	54	5080
2026-01-29 00:22:53.76	220.22	21.83	-41.2	-44.5	13.6	1.22e-05	0	59	0	1074790400	54	5133
2026-01-29 00:22:54.77	220.14	21.69	-41.2	-44.5	13.6	8.30e-06	0	59	0	1075838976	54	5130
2026-01-29 00:22:55.78	220.07	21.55	-41.3	-44.6	13.5	1.22e-05	0	59	0	1077936128	54	5195
2026-01-29 00:22:56.79	220.00	21.42	-41.5	-45.0	13.1	1.67e-05	0	59	0	1080033280	54	5418
2026-01-29 00:22:57.80	219.93	21.28	-41.7	-45.4	12.8	2.51e-05	0	59	0	1082130432	54	5658
2026-01-29 00:22:58.81	219.86	21.15	-41.7	-45.4	12.7	7.32e-05	0	58	0	1084227584	54	5685
2026-01-29 00:22:59.82	219.79	21.02	-41.9	-45.9	12.1	1.22e-04	0	59	0	1085276160	54	6025
2026-01-29 00:23:00.83	219.72	20.88	-42.1	-46.3	11.8	3.39e-04	0	59	0	1087373312	54	6304
2026-01-29 00:23:01.84	219.65	20.75	-42.2	-46.6	11.5	5.26e-04	0	59	0	1089470464	54	6506
2026-01-29 00:23:02.85	219.58	20.62	-42.4	-47.0	11.0	1.49e-03	0	59	0	1091567616	55	6432
2026-01-29 00:23:03.86	219.52	20.49	-42.4	-47.0	10.9	2.35e-03	0	59	0	1093664768	55	6480
2026-01-29 00:23:04.87	219.45	20.36	-42.5	-47.3	10.6	2.79e-03	0	59	0	1094713344	55	6705
2026-01-29 00:23:05.89	219.38	20.23	-42.6	-47.6	10.4	3.84e-03	0	59	0	1096810496	55	6916
2026-01-29 00:23:06.90	219.32	20.10	-42.5	-47.2	10.8	3.12e-03	0	59	0	1098907648	55	6612
2026-01-29 00:23:07.91	219.25	19.97	-42.5	-47.3	10.7	2.81e-03	0	59	0	1101004800	55	6669
2026-01-29 00:23:08.92	219.19	19.84	-42.6	-47.6	10.4	3.28e-03	0	59	0	1103101952	55	6899
2026-01-29 00:23:09.93	219.13	19.71	-42.4	-47.0	10.9	2.95e-03	0	59	0	1104150528	55	6490
2026-01-29 00:23:10.93	219.06	19.59	-42.3	-46.8	11.1	1.63e-03	0	59	0	1106247680	55	6321
2026-01-29 00:23:11.95	219.00	19.46	-42.4	-46.9	11.0	1.34e-03	0	59	0	1108344832	55	6408
2026-01-29 00:23:12.95	218.94	19.34	-42.1	-46.3	11.7	1.30e-03	0	59	0	1110441984	55	5963
2026-01-29 00:23:13.97	218.88	19.21	-42.0	-46.1	11.9	4.71e-04	0	59	0	1112539136	55	5808
2026-01-29 00:23:14.97	218.82	19.09	-42.0	-46.1	11.9	4.57e-04	0	59	0	1114636288	55	5811
2026-01-29 00:23:15.98	218.76	18.96	-41.6	-45.4	12.6	2.12e-04	0	59	0	1115684864	55	5357
2026-01-29 00:23:16.99	218.70	18.84	-41.6	-45.3	12.7	9.46e-05	0	59	0	1117782016	55	5295
2026-01-29 00:23:18.00	218.64	18.72	-41.4	-45.0	13.0	6.02e-05	0	59	0	1119879168	54	5438
2026-01-29 00:23:19.01	218.58	18.60	-41.3	-44.8	13.2	3.28e-05	0	59	0	1121976320	54	5315
2026-01-29 00:23:20.02	218.52	18.47	-41.3	-44.7	13.3	1.75e-05	0	59	0	1124073472	54	5219
2026-01-29 00:23:21.03	218.46	18.35	-41.2	-44.5	13.4	1.44e-05	0	59	0	1125122048	54	5145
2026-01-29 00:23:22.04	218.40	18.23	-41.1	-44.3	13.7	1.37e-05	0	59	0	1127219200	54	5014
2026-01-29 00:23:23.05	218.35	18.11	-41.0	-44.2	13.8	3.00e-06	0	59	0	1129316352	53	5224
2026-01-29 00:23:24.06	218.29	17.99	-41.1	-44.4	13.6	3.80e-06	0	59	0	1131413504	53	5366
2026-01-29 00:23:25.08	218.23	17.87	-40.9	-44.1	13.9	6.10e-06	0	59	0	1133510656	53	5176
2026-01-29 00:23:26.09	218.18	17.76	-41.0	-44.3	13.7	6.80e-06	0	59	0	1134559232	53	5299
2026-01-29 00:23:27.09	218.12	17.64	-41.2	-44.6	13.3	1.29e-05	0	59	0	1136656384	53	5503
2026-01-29 00:23:28.10	218.07	17.52	-41.1	-44.5	13.5	1.44e-05	0	59	0	1138753536	53	5412
2026-01-29 00:23:29.11	218.01	17.41	-41.3	-44.7	13.3	1.06e-05	0	59	0	1140850688	53	5552
2026-01-29 00:23:30.12	217.96	17.29	-41.3	-44.9	13.1	2.67e-05	0	59	0	1142947840	53	5661
2026-01-29 00:23:31.13	217.91	17.17	-41.4	-45.0	12.9	3.58e-05	0	59	0	1143996416	53	5763
2026-01-29 00:23:32.14	217.85	17.06	-41.5	-45.2	12.7	5.56e-05	0	59	0	1146093568	53	5881
2026-01-29 00:23:33.15	217.80	16.95	-41.6	-45.2	12.7	8.92e-05	0	59	0	1148190720	53	5923
2026-01-29 00:23:34.16	217.75	16.83	-41.8	-45.7	12.2	1.65e-04	0	59	0	1150287872	54	5867
2026-01-29 00:23:35.17	217.70	16.72	-41.7	-45.6	12.3	2.14e-04	0	59	0	1152385024	54	5824
2026-01-29 00:23:36.18	217.65	16.61	-41.7	-45.6	12.3	1.43e-04	0	58	0	1153433600	54	5817
2026-01-29 00:23:37.19	217.59	16.49	-41.8	-45.8	12.1	2.11e-04	0	59	0	1155530752	54	5933
2026-01-29 00:23:38.20	217.54	16.38	-41.9	-46.0	11.9	2.58e-04	0	59	0	1157627904	54	6066
2026-01-29 00:23:39.21	217.49	16.27	-41.8	-45.8	12.2	2.15e-04	0	59	0	1159725056	54	5925
2026-01-29 00:23:40.22	217.44	16.16	-41.8	-45.8	12.1	2.38e-04	0	59	0	1161822208	54	5938
2026-01-29 00:23:41.23	217.39	16.05	-41.8	-45.7	12.2	2.47e-04	0	59	0	1162870784	54	5893
2026-01-29 00:23:42.24	217.35	15.94	-41.7	-45.6	12.3	1.81e-04	0	59	0	1164967936	54	5801
2026-01-29 00:23:43.25	217.30	15.83	-41.7	-45.6	12.2	1.62e-04	0	59	0	1167065088	54	5845
2026-01-29 00:23:44.26	217.25	15.72	-41.9	-45.9	12.0	2.73e-04	0	59	0	1169162240	54	6013
2026-01-29 00:23:45.27	217.20	15.61	-41.7	-45.6	12.3	2.21e-04	0	59	0	1171259392	54	5794
2026-01-29 00:23:46.28	217.15	15.50	-41.8	-45.9	12.0	2.00e-04	0	59	0	1172307968	54	5995
2026-01-29 00:23:47.29	217.11	15.39	-41.7	-45.6	12.2	2.78e-04	0	59	0	1174405120	54	5845
2026-01-29 00:23:48.30	217.06	15.29	-41.7	-45.7	12.2	2.00e-04	0	59	0	1176502272	54	5859
2026-01-29 00:23:49.31	217.01	15.18	-41.8	-45.8	12.0	3.33e-04	0	59	0	1178599424	54	5968
2026-01-29 00:23:50.32	216.97	15.07	-41.8	-45.8	12.0	3.93e-04	0	59	0	1180696576	54	5946
2026-01-29 00:23:51.33	216.92	14.97	-41.9	-46.0	11.9	4.22e-04	0	59	0	1182793728	54	6080
2026-01-29 00:23:52.34	216.88	14.86	-41.9	-46.1	11.7	5.78e-04	0	59	0	1183842304	54	6170
2026-01-29 00:23:53.34	216.83	14.76	-42.0	-46.3	11.5	6.55e-04	0	59	0	1185939456	54	6279
2026-01-29 00:23:54.35	216.79	14.65	-42.0	-46.3	11.5	8.81e-04	0	59	0	1188036608	54	6312
2026-01-29 00:23:55.36	216.74	14.55	-42.2	-46.7	11.1	1.40e-03	0	59	0	1190133760	54	6572
2026-01-29 00:23:56.37	216.70	14.45	-42.3	-46.9	10.8	1.94e-03	0	59	0	1192230912	55	6394
2026-01-29 00:23:57.38	216.65	14.34	-42.2	-46.9	10.8	1.83e-03	0	59	0	1193279488	55	6362
