passes_logs/2026/01/29/R2.0S_Moscow/R2.0S_Moscow__20260129_185536_FENGYUN_3G_rec.log

#Pass ID: 20260129_185536_FENGYUN 3G
#Satellite: FENGYUN 3G
#Configuration: FENGYUN 3G
#almurnet v.1.7.20251203
#Start time: 2026-01-29 18:55:37

#Version: 2.2.20231116
#Station: R2.0S_Moscow
#Location: 37.707566 lon 55.798166 lat
#TLE: 1 56232U 23055A   26027.33093889  .00044881  00000+0  67100-3 0  9994
#TLE: 2 56232  49.9947 352.2708 0004101  93.7831 266.3606 15.54500775158110

#Time	Az	El	Level	Level2	SNR	BER	BlckErr	Temp	State	Recorded	gain1	gain2
2026-01-29 18:55:37.60	262.81	2.10	-44.1	-62.4	3.8	8.46e-01	0	51	0	0	59	30355
2026-01-29 18:55:38.61	262.73	2.17	-44.0	-62.5	3.8	8.44e-01	0	51	104	0	60	28686
2026-01-29 18:55:39.62	262.64	2.23	-44.1	-62.4	3.8	8.46e-01	0	51	104	0	59	30317
2026-01-29 18:55:40.63	262.56	2.29	-44.1	-62.4	3.8	8.47e-01	0	51	104	0	59	30276
2026-01-29 18:55:41.64	262.47	2.36	-44.1	-62.4	3.8	8.47e-01	0	52	104	0	59	30370
2026-01-29 18:55:42.65	262.38	2.42	-44.1	-62.5	3.8	8.47e-01	0	52	104	0	59	30414
2026-01-29 18:55:43.66	262.30	2.49	-44.1	-62.4	3.8	8.45e-01	0	52	104	0	59	30322
2026-01-29 18:55:44.67	262.21	2.55	-44.1	-62.4	3.8	8.45e-01	0	52	104	0	59	30276
2026-01-29 18:55:45.68	262.12	2.62	-44.1	-62.5	3.8	8.46e-01	0	52	104	0	59	30428
2026-01-29 18:55:46.69	262.04	2.68	-44.1	-62.4	3.8	8.46e-01	0	52	104	0	59	30344
2026-01-29 18:55:47.70	261.95	2.75	-44.1	-62.4	3.8	8.46e-01	0	52	104	0	59	30354
2026-01-29 18:55:48.71	261.86	2.81	-44.0	-62.4	3.8	8.45e-01	0	52	104	0	59	30308
2026-01-29 18:55:49.72	261.77	2.88	-44.0	-62.4	3.8	8.46e-01	0	52	104	0	59	30239
2026-01-29 18:55:50.73	261.68	2.94	-44.1	-62.4	3.8	8.46e-01	0	53	104	0	59	30285
2026-01-29 18:55:51.74	261.59	3.01	-44.1	-62.5	3.8	8.46e-01	0	53	104	0	59	30400
2026-01-29 18:55:52.75	261.49	3.08	-44.1	-62.4	3.8	8.46e-01	0	53	104	0	59	30325
2026-01-29 18:55:53.76	261.40	3.14	-44.1	-62.4	3.8	8.45e-01	0	52	104	0	59	30370
2026-01-29 18:55:54.77	261.31	3.21	-44.1	-62.4	3.8	8.45e-01	0	53	104	0	59	30367
2026-01-29 18:55:55.78	261.21	3.28	-44.1	-62.4	3.8	8.46e-01	0	53	104	0	59	30317
2026-01-29 18:55:56.79	261.12	3.34	-44.1	-62.4	3.8	8.45e-01	0	53	104	0	59	30305
2026-01-29 18:55:57.80	261.02	3.41	-44.1	-62.4	3.8	8.45e-01	0	53	104	0	59	30245
2026-01-29 18:55:58.81	260.93	3.48	-44.1	-62.4	3.8	8.46e-01	0	53	104	0	59	30309
2026-01-29 18:55:59.82	260.83	3.54	-44.1	-62.4	3.8	8.46e-01	0	53	104	0	59	30357
2026-01-29 18:56:00.83	260.74	3.61	-44.1	-62.4	3.8	8.46e-01	0	53	104	0	59	30310
2026-01-29 18:56:01.85	260.64	3.68	-44.1	-62.4	3.8	8.45e-01	0	53	104	0	59	30307
2026-01-29 18:56:02.86	260.54	3.75	-44.1	-62.4	3.8	8.47e-01	0	53	104	0	59	30314
2026-01-29 18:56:03.87	260.44	3.82	-44.0	-62.4	3.8	8.45e-01	0	53	104	0	59	30358
2026-01-29 18:56:04.88	260.34	3.89	-44.1	-62.4	3.8	8.45e-01	0	53	104	0	59	30346
2026-01-29 18:56:05.89	260.24	3.95	-44.1	-62.4	3.8	8.46e-01	0	53	104	0	59	30326
2026-01-29 18:56:06.90	260.14	4.02	-44.1	-62.4	3.8	8.46e-01	0	53	104	0	59	30370
2026-01-29 18:56:07.91	260.04	4.09	-44.1	-62.4	3.8	8.46e-01	0	53	104	0	59	30339
2026-01-29 18:56:08.92	259.94	4.16	-44.1	-62.4	3.8	8.45e-01	0	53	104	0	59	30294
2026-01-29 18:56:09.93	259.83	4.23	-44.1	-62.4	3.8	8.45e-01	0	54	104	0	59	30309
2026-01-29 18:56:10.94	259.73	4.30	-44.1	-62.4	3.8	8.45e-01	0	53	104	0	59	30303
2026-01-29 18:56:11.95	259.62	4.37	-44.1	-62.4	3.8	8.47e-01	0	53	104	0	59	30277
2026-01-29 18:56:12.96	259.52	4.44	-44.1	-62.4	3.8	8.46e-01	0	54	104	0	59	30277
2026-01-29 18:56:13.97	259.41	4.51	-44.1	-62.4	3.8	8.46e-01	0	54	104	0	59	30310
2026-01-29 18:56:14.98	259.31	4.58	-44.1	-62.4	3.8	8.46e-01	0	53	104	0	59	30340
2026-01-29 18:56:15.99	259.20	4.65	-44.0	-62.4	3.8	8.46e-01	0	54	104	0	59	30295
2026-01-29 18:56:17.00	259.09	4.72	-44.1	-62.4	3.8	8.46e-01	0	54	104	0	59	30224
2026-01-29 18:56:18.01	258.98	4.79	-44.0	-62.4	3.8	8.46e-01	0	54	104	0	59	30322
2026-01-29 18:56:19.02	258.87	4.87	-44.0	-62.4	3.8	8.46e-01	0	54	104	0	59	30376
2026-01-29 18:56:20.03	258.76	4.94	-44.0	-62.4	3.8	8.46e-01	0	54	104	0	59	30288
2026-01-29 18:56:21.04	258.65	5.01	-44.1	-62.4	3.8	8.46e-01	0	54	104	0	59	30261
2026-01-29 18:56:22.05	258.54	5.08	-44.1	-62.4	3.8	8.47e-01	0	54	104	0	59	30314
2026-01-29 18:56:23.06	258.42	5.15	-44.1	-62.4	3.8	8.46e-01	0	54	104	0	59	30321
2026-01-29 18:56:24.07	258.31	5.23	-44.1	-62.4	3.8	8.46e-01	0	54	104	0	59	30248
2026-01-29 18:56:25.08	258.20	5.30	-44.0	-62.4	3.8	8.45e-01	0	54	104	0	59	30263
2026-01-29 18:56:26.09	258.08	5.37	-44.1	-62.4	3.8	8.47e-01	0	54	104	0	59	30324
2026-01-29 18:56:27.10	257.96	5.44	-44.0	-62.5	3.8	8.47e-01	0	54	104	0	59	30405
2026-01-29 18:56:28.11	257.85	5.52	-44.0	-62.4	3.8	8.46e-01	0	54	104	0	59	30294
2026-01-29 18:56:29.12	257.73	5.59	-44.0	-62.4	3.8	8.46e-01	0	54	104	0	59	30283
2026-01-29 18:56:30.13	257.61	5.67	-44.1	-62.4	3.8	8.44e-01	0	55	104	0	59	30204
2026-01-29 18:56:31.14	257.49	5.74	-44.0	-62.4	3.8	8.44e-01	0	55	104	0	59	30286
2026-01-29 18:56:32.15	257.37	5.81	-44.0	-62.4	3.8	8.46e-01	0	55	104	0	59	30230
2026-01-29 18:56:33.16	257.25	5.89	-44.0	-62.4	3.8	8.46e-01	0	55	104	0	59	30290
2026-01-29 18:56:34.17	257.13	5.96	-44.0	-62.4	3.8	8.46e-01	0	55	104	0	59	30303
2026-01-29 18:56:35.18	257.00	6.04	-44.0	-62.4	3.8	8.46e-01	0	55	104	0	59	30280
2026-01-29 18:56:36.19	256.88	6.11	-44.0	-62.4	3.8	8.45e-01	0	55	104	0	59	30283
2026-01-29 18:56:37.20	256.75	6.19	-44.0	-62.4	3.8	8.45e-01	0	55	104	0	59	30278
2026-01-29 18:56:38.21	256.63	6.26	-44.0	-62.4	3.8	8.47e-01	0	55	104	0	59	30303
2026-01-29 18:56:39.22	256.50	6.34	-44.0	-62.4	3.8	8.46e-01	0	55	104	0	59	30210
2026-01-29 18:56:40.24	256.37	6.42	-44.0	-62.4	3.8	8.46e-01	0	55	104	0	59	30265
2026-01-29 18:56:41.25	256.24	6.49	-44.0	-62.4	3.8	8.46e-01	0	55	104	0	59	30275
2026-01-29 18:56:42.26	256.11	6.57	-44.0	-62.4	3.8	8.46e-01	0	55	104	0	59	30321
2026-01-29 18:56:43.27	255.98	6.65	-44.0	-62.4	3.8	8.45e-01	0	55	104	0	59	30323
2026-01-29 18:56:44.28	255.85	6.72	-44.0	-62.4	3.8	8.45e-01	0	55	104	0	59	30289
2026-01-29 18:56:45.29	255.72	6.80	-44.0	-62.4	3.8	8.47e-01	0	55	104	0	59	30312
2026-01-29 18:56:46.30	255.58	6.88	-44.0	-62.4	3.8	8.46e-01	0	56	104	0	59	30354
2026-01-29 18:56:47.31	255.45	6.96	-44.0	-62.4	3.8	8.46e-01	0	55	104	0	59	30256
2026-01-29 18:56:48.32	255.31	7.04	-44.0	-62.4	3.8	8.47e-01	0	55	104	0	59	30280
2026-01-29 18:56:49.33	255.17	7.11	-44.0	-62.4	3.8	8.46e-01	0	55	104	0	59	30271
2026-01-29 18:56:50.34	255.04	7.19	-44.1	-62.4	3.8	8.46e-01	0	55	104	0	59	30244
2026-01-29 18:56:51.35	254.90	7.27	-44.1	-62.4	3.8	8.46e-01	0	56	104	0	59	30302
2026-01-29 18:56:52.36	254.76	7.35	-44.0	-62.4	3.8	8.46e-01	0	55	104	0	59	30291
2026-01-29 18:56:53.37	254.62	7.43	-44.0	-62.4	3.8	8.46e-01	0	55	104	0	59	30230
2026-01-29 18:56:54.38	254.47	7.51	-44.0	-62.4	3.8	8.46e-01	0	56	104	0	59	30294
2026-01-29 18:56:55.39	254.33	7.59	-44.0	-62.4	3.8	8.46e-01	0	56	104	0	59	30303
2026-01-29 18:56:56.40	254.19	7.67	-44.0	-62.4	3.8	8.45e-01	0	56	104	0	59	30362
2026-01-29 18:56:57.41	254.04	7.75	-44.0	-62.4	3.8	8.45e-01	0	56	104	0	59	30272
2026-01-29 18:56:58.42	253.89	7.83	-44.0	-62.4	3.8	8.47e-01	0	56	104	0	59	30206
2026-01-29 18:56:59.43	253.75	7.91	-44.0	-62.4	3.8	8.46e-01	0	56	104	0	59	30235
2026-01-29 18:57:00.45	253.59	7.99	-44.1	-62.4	3.8	8.46e-01	0	56	104	0	59	30306
2026-01-29 18:57:01.46	253.44	8.08	-44.1	-62.4	3.8	8.47e-01	0	56	104	0	59	30324
2026-01-29 18:57:02.47	253.29	8.16	-44.1	-62.5	3.8	8.47e-01	0	56	104	0	59	30489
2026-01-29 18:57:03.48	253.14	8.24	-44.1	-62.5	3.8	8.47e-01	0	56	104	0	59	30702
2026-01-29 18:57:04.49	252.99	8.32	-44.1	-62.4	3.8	8.47e-01	0	56	104	0	59	30348
2026-01-29 18:57:05.50	252.83	8.40	-44.1	-62.5	3.8	8.46e-01	0	56	104	0	59	30564
2026-01-29 18:57:06.51	252.67	8.49	-44.1	-62.5	3.8	8.46e-01	0	56	104	0	59	30641
2026-01-29 18:57:07.52	252.52	8.57	-44.2	-62.5	3.8	8.46e-01	0	56	104	0	59	30611
2026-01-29 18:57:08.53	252.36	8.65	-44.1	-62.5	3.8	8.46e-01	0	56	104	0	59	30436
2026-01-29 18:57:09.54	252.20	8.74	-44.1	-62.5	3.8	8.46e-01	0	56	104	0	59	30608
2026-01-29 18:57:10.55	252.04	8.82	-44.2	-62.5	3.8	8.46e-01	0	56	104	0	59	30674
2026-01-29 18:57:11.56	251.87	8.90	-44.2	-62.6	3.8	8.46e-01	0	56	104	0	59	30776
2026-01-29 18:57:12.57	251.71	8.99	-44.1	-62.5	3.8	8.46e-01	0	56	104	0	59	30581
2026-01-29 18:57:13.58	251.54	9.07	-44.1	-62.5	3.8	8.46e-01	0	56	104	0	59	30683
2026-01-29 18:57:14.59	251.38	9.16	-44.2	-62.5	3.8	8.46e-01	0	56	104	0	59	30654
2026-01-29 18:57:15.60	251.21	9.24	-44.2	-62.6	3.8	8.46e-01	0	56	104	0	59	30865
2026-01-29 18:57:16.61	251.04	9.33	-44.2	-62.6	3.8	8.46e-01	0	56	104	0	59	30738
2026-01-29 18:57:17.62	250.87	9.41	-44.2	-62.5	3.8	8.46e-01	0	56	104	0	59	30728
2026-01-29 18:57:18.63	250.70	9.50	-44.2	-62.6	3.8	8.47e-01	0	56	104	0	59	30917
2026-01-29 18:57:19.64	250.52	9.59	-44.3	-62.6	3.8	8.46e-01	0	56	104	0	59	31040
2026-01-29 18:57:20.65	250.35	9.67	-44.2	-62.6	3.8	8.46e-01	0	56	104	0	59	30756
2026-01-29 18:57:21.66	250.17	9.76	-44.2	-62.6	3.8	8.46e-01	0	56	104	0	59	30819
2026-01-29 18:57:22.67	250.00	9.84	-44.2	-62.6	3.8	8.46e-01	0	56	104	0	59	31001
2026-01-29 18:57:23.68	249.82	9.93	-44.3	-62.6	3.8	8.46e-01	0	57	104	0	59	31044
2026-01-29 18:57:24.68	249.64	10.02	-44.2	-62.6	3.8	8.46e-01	0	57	104	0	59	30842
2026-01-29 18:57:25.70	249.45	10.11	-44.2	-62.6	3.8	8.46e-01	0	57	104	0	59	31024
2026-01-29 18:57:26.71	249.27	10.19	-44.3	-62.6	3.8	8.46e-01	0	57	104	0	59	31070
2026-01-29 18:57:27.71	249.09	10.28	-44.3	-62.6	3.8	8.46e-01	0	57	104	0	59	31017
2026-01-29 18:57:28.72	248.90	10.37	-44.3	-62.6	3.8	8.47e-01	0	57	104	0	59	31021
2026-01-29 18:57:29.73	248.71	10.46	-44.3	-62.6	3.8	8.47e-01	0	57	104	0	59	30968
2026-01-29 18:57:30.74	248.52	10.55	-44.3	-62.7	3.8	8.46e-01	0	57	104	0	59	31207
2026-01-29 18:57:31.75	248.33	10.64	-44.3	-62.6	3.8	8.46e-01	0	57	104	0	59	30934
2026-01-29 18:57:32.76	248.14	10.73	-44.3	-62.6	3.8	8.45e-01	0	57	104	0	59	31006
2026-01-29 18:57:33.77	247.94	10.82	-44.3	-62.6	3.8	8.45e-01	0	57	104	0	59	31050
2026-01-29 18:57:34.78	247.75	10.91	-44.3	-62.7	3.8	8.46e-01	0	57	104	0	59	31275
2026-01-29 18:57:35.79	247.55	11.00	-44.3	-62.7	3.8	8.45e-01	0	57	104	0	59	31244
2026-01-29 18:57:36.80	247.35	11.09	-44.3	-62.7	3.8	8.45e-01	0	57	104	0	59	31158
2026-01-29 18:57:37.81	247.15	11.18	-44.3	-62.7	3.8	8.45e-01	0	57	104	0	59	31304
2026-01-29 18:57:38.82	246.94	11.27	-44.4	-62.7	3.8	8.46e-01	0	57	104	0	59	31398
2026-01-29 18:57:39.83	246.74	11.36	-44.4	-62.7	3.8	8.46e-01	0	57	104	0	59	31435
2026-01-29 18:57:40.84	246.53	11.45	-44.3	-62.7	3.8	8.46e-01	0	57	104	0	59	31344
2026-01-29 18:57:41.85	246.33	11.54	-44.3	-62.7	3.8	8.47e-01	0	57	104	0	59	31196
2026-01-29 18:57:42.86	246.12	11.63	-44.4	-62.7	3.8	8.47e-01	0	57	104	0	59	31441
2026-01-29 18:57:43.87	245.90	11.72	-44.3	-62.7	3.8	8.45e-01	0	57	104	0	59	31361
2026-01-29 18:57:44.88	245.69	11.82	-44.4	-62.7	3.8	8.46e-01	0	57	104	0	59	31432
2026-01-29 18:57:45.89	245.48	11.91	-44.3	-62.8	3.8	8.47e-01	0	57	104	0	59	31457
2026-01-29 18:57:46.90	245.26	12.00	-44.4	-62.8	3.8	8.47e-01	0	57	104	0	59	31572
2026-01-29 18:57:47.91	245.04	12.09	-44.4	-62.8	3.8	8.46e-01	0	57	104	0	59	31555
2026-01-29 18:57:48.92	244.82	12.19	-44.4	-62.7	3.8	8.46e-01	0	57	104	0	59	31425
2026-01-29 18:57:49.94	244.60	12.28	-44.4	-62.7	3.8	8.46e-01	0	57	104	0	59	31444
2026-01-29 18:57:50.95	244.37	12.37	-44.4	-62.8	3.8	8.48e-01	0	57	104	0	59	31706
2026-01-29 18:57:51.96	244.14	12.47	-44.4	-62.8	3.8	8.46e-01	0	57	104	0	59	31603
2026-01-29 18:57:52.97	243.92	12.56	-44.4	-62.8	3.8	8.46e-01	0	57	104	0	59	31600
2026-01-29 18:57:53.98	243.69	12.66	-44.4	-62.8	3.8	8.47e-01	0	57	104	0	59	31590
2026-01-29 18:57:54.99	243.45	12.75	-44.5	-62.8	3.8	8.45e-01	0	58	104	0	59	31705
2026-01-29 18:57:56.00	243.22	12.84	-44.4	-62.8	3.8	8.45e-01	0	57	104	0	59	31700
2026-01-29 18:57:57.01	242.98	12.94	-44.4	-62.8	3.8	8.46e-01	0	58	104	0	59	31712
2026-01-29 18:57:58.02	242.75	13.03	-44.4	-62.8	3.8	8.47e-01	0	57	104	0	59	31639
2026-01-29 18:57:59.03	242.51	13.13	-44.5	-62.8	3.8	8.47e-01	0	57	104	0	59	31750
2026-01-29 18:58:00.03	242.27	13.22	-44.4	-62.8	3.8	8.47e-01	0	58	104	0	59	31673
2026-01-29 18:58:01.04	242.02	13.32	-44.5	-62.8	3.8	8.46e-01	0	58	104	0	59	31802
2026-01-29 18:58:02.05	241.78	13.41	-44.5	-62.8	3.8	8.46e-01	0	58	104	0	59	31755
2026-01-29 18:58:03.06	241.53	13.51	-44.5	-62.9	3.8	8.46e-01	0	58	104	0	59	31831
2026-01-29 18:58:04.07	241.28	13.60	-44.5	-62.8	3.8	8.47e-01	0	58	104	0	59	31779
2026-01-29 18:58:05.08	241.03	13.70	-44.5	-62.9	3.8	8.47e-01	0	58	104	0	59	31873
2026-01-29 18:58:06.09	240.77	13.79	-44.5	-62.8	3.8	8.47e-01	0	58	104	0	59	31698
2026-01-29 18:58:07.10	240.52	13.89	-44.5	-62.9	3.8	8.44e-01	0	58	104	0	59	31978
2026-01-29 18:58:08.11	240.26	13.98	-44.5	-62.8	3.8	8.46e-01	0	58	104	0	59	31762
2026-01-29 18:58:09.12	240.00	14.08	-44.5	-62.9	3.8	8.47e-01	0	58	104	0	59	31971
2026-01-29 18:58:10.13	239.73	14.18	-44.5	-62.9	3.8	8.47e-01	0	58	104	0	59	31824
2026-01-29 18:58:11.14	239.47	14.27	-44.5	-62.9	3.8	8.47e-01	0	58	104	0	59	32052
2026-01-29 18:58:12.16	239.20	14.37	-44.5	-62.9	3.8	8.46e-01	0	58	104	0	59	31860
2026-01-29 18:58:13.17	238.93	14.46	-44.5	-62.9	3.8	8.46e-01	0	58	104	0	59	32039
2026-01-29 18:58:14.18	238.65	14.56	-44.5	-62.9	3.8	8.46e-01	0	58	104	0	59	31846
2026-01-29 18:58:15.19	238.38	14.66	-44.6	-62.9	3.8	8.46e-01	0	58	104	0	59	32157
2026-01-29 18:58:16.20	238.10	14.75	-44.5	-62.9	3.8	8.46e-01	0	58	104	0	59	32010
2026-01-29 18:58:17.21	237.82	14.85	-44.5	-62.9	3.8	8.46e-01	0	58	104	0	59	32101
2026-01-29 18:58:18.22	237.54	14.95	-44.5	-62.9	3.8	8.45e-01	0	58	104	0	59	31963
2026-01-29 18:58:19.23	237.26	15.04	-44.6	-62.9	3.8	8.45e-01	0	58	104	0	59	32139
2026-01-29 18:58:20.24	236.97	15.14	-44.5	-62.9	3.8	8.46e-01	0	58	104	0	59	31953
2026-01-29 18:58:21.25	236.68	15.23	-44.6	-62.9	3.8	8.46e-01	0	58	104	0	59	32155
2026-01-29 18:58:22.26	236.39	15.33	-44.5	-62.9	3.8	8.47e-01	0	58	104	0	59	32077
2026-01-29 18:58:23.27	236.10	15.43	-44.6	-63.0	3.8	8.47e-01	0	58	104	0	59	32353
2026-01-29 18:58:24.28	235.80	15.52	-44.6	-62.9	3.8	8.46e-01	0	58	104	0	59	32029
2026-01-29 18:58:25.29	235.51	15.62	-44.6	-63.0	3.8	8.46e-01	0	58	104	0	59	32232
2026-01-29 18:58:26.30	235.21	15.71	-44.6	-62.9	3.8	8.46e-01	0	58	104	0	59	32157
2026-01-29 18:58:27.31	234.90	15.81	-44.6	-63.0	3.8	8.45e-01	0	58	104	0	59	32354
2026-01-29 18:58:28.32	234.60	15.90	-44.6	-62.9	3.8	8.46e-01	0	58	104	0	59	32170
2026-01-29 18:58:29.33	234.29	16.00	-44.6	-63.0	3.8	8.46e-01	0	58	104	0	59	32367
2026-01-29 18:58:30.34	233.98	16.10	-44.6	-63.0	3.8	8.46e-01	0	58	104	0	59	32182
2026-01-29 18:58:31.35	233.66	16.19	-44.7	-63.0	3.8	8.45e-01	0	58	104	0	59	32494
2026-01-29 18:58:32.36	233.35	16.28	-44.6	-63.0	3.8	8.45e-01	0	58	104	0	59	32343
2026-01-29 18:58:33.37	233.03	16.38	-44.6	-63.0	3.8	8.48e-01	0	58	104	0	59	32330
2026-01-29 18:58:34.38	232.71	16.47	-44.6	-63.0	3.8	8.45e-01	0	58	104	0	59	32344
2026-01-29 18:58:35.39	232.39	16.57	-44.7	-63.0	3.8	8.46e-01	0	58	104	0	59	32481
2026-01-29 18:58:36.40	232.06	16.66	-44.6	-63.0	3.8	8.46e-01	0	58	104	0	59	32373
2026-01-29 18:58:37.41	231.73	16.76	-44.6	-63.0	3.8	8.46e-01	0	58	104	0	59	32443
2026-01-29 18:58:38.42	231.40	16.85	-44.6	-63.0	3.8	8.45e-01	0	58	104	0	59	32371
2026-01-29 18:58:39.43	231.07	16.94	-44.7	-63.0	3.8	8.45e-01	0	58	104	0	59	32544
2026-01-29 18:58:40.44	230.73	17.04	-44.6	-63.0	3.8	8.46e-01	0	58	104	0	59	32468
2026-01-29 18:58:41.45	230.39	17.13	-44.7	-63.0	3.8	8.46e-01	0	58	104	0	59	32470
2026-01-29 18:58:42.46	230.05	17.22	-44.6	-63.0	3.8	8.46e-01	0	58	104	0	59	32456
2026-01-29 18:58:43.47	229.71	17.31	-44.7	-63.1	3.9	8.46e-01	0	58	104	0	60	31069
2026-01-29 18:58:44.48	229.36	17.40	-44.6	-63.1	3.8	8.47e-01	0	58	104	0	60	30772
2026-01-29 18:58:45.49	229.01	17.49	-44.6	-63.0	3.8	8.47e-01	0	58	104	0	60	30674
2026-01-29 18:58:46.50	228.66	17.58	-44.6	-63.0	3.8	8.46e-01	0	58	104	0	60	30653
2026-01-29 18:58:47.51	228.31	17.67	-44.6	-63.1	3.8	8.47e-01	0	58	104	0	60	30914
2026-01-29 18:58:48.52	227.95	17.76	-44.6	-63.0	3.8	8.46e-01	0	59	104	0	60	30673
2026-01-29 18:58:49.53	227.59	17.85	-44.6	-63.1	3.8	8.46e-01	0	58	104	0	60	30790
2026-01-29 18:58:50.54	227.23	17.94	-44.6	-63.1	3.8	8.47e-01	0	59	104	0	60	30745
2026-01-29 18:58:51.55	226.86	18.03	-44.6	-63.1	3.8	8.45e-01	0	58	104	0	60	30945
2026-01-29 18:58:52.56	226.49	18.12	-44.6	-63.1	3.8	8.45e-01	0	58	104	0	60	30822
2026-01-29 18:58:53.57	226.12	18.20	-44.6	-63.1	3.8	8.46e-01	0	58	104	0	60	30781
2026-01-29 18:58:54.58	225.75	18.29	-44.6	-63.1	3.8	8.46e-01	0	58	104	0	60	30813
2026-01-29 18:58:55.60	225.37	18.38	-44.6	-63.1	3.8	8.46e-01	0	58	104	0	60	30907
2026-01-29 18:58:56.61	224.99	18.46	-44.6	-63.0	3.8	8.46e-01	0	59	104	0	60	30716
2026-01-29 18:58:57.62	224.61	18.55	-44.6	-63.1	3.8	8.46e-01	0	58	104	0	60	30821
2026-01-29 18:58:58.63	224.23	18.63	-44.6	-63.1	3.8	8.46e-01	0	59	104	0	60	30824
2026-01-29 18:58:59.64	223.84	18.71	-44.7	-63.1	3.8	8.45e-01	0	58	104	0	60	31076
2026-01-29 18:59:00.65	223.46	18.79	-44.6	-63.1	3.8	8.47e-01	0	59	104	0	60	30867
2026-01-29 18:59:01.66	223.06	18.88	-44.6	-63.1	3.8	8.46e-01	0	58	104	0	60	30851
2026-01-29 18:59:02.67	222.67	18.96	-44.7	-63.1	3.8	8.46e-01	0	58	104	0	60	30883
2026-01-29 18:59:03.68	222.27	19.04	-44.6	-63.1	3.8	8.46e-01	0	59	104	0	60	30938
2026-01-29 18:59:04.69	221.88	19.11	-44.6	-63.1	3.8	8.46e-01	0	59	104	0	60	30877
2026-01-29 18:59:05.70	221.47	19.19	-44.6	-63.1	3.8	8.46e-01	0	59	104	0	60	30937
2026-01-29 18:59:06.71	221.07	19.27	-44.6	-63.1	3.8	8.46e-01	0	59	104	0	60	30963
2026-01-29 18:59:07.72	220.66	19.35	-44.6	-63.1	3.8	8.47e-01	0	59	104	0	60	30864
2026-01-29 18:59:08.73	220.26	19.42	-44.6	-63.1	3.8	8.47e-01	0	58	104	0	60	30987
2026-01-29 18:59:09.74	219.84	19.50	-44.6	-63.1	3.8	8.46e-01	0	59	104	0	60	30936
2026-01-29 18:59:10.75	219.43	19.57	-44.7	-63.1	3.8	8.46e-01	0	58	104	0	60	30963
2026-01-29 18:59:11.76	219.01	19.64	-44.5	-63.1	3.8	8.45e-01	0	59	104	0	60	30906
2026-01-29 18:59:12.77	218.60	19.71	-44.6	-63.1	3.8	8.45e-01	0	59	104	0	60	30993
2026-01-29 18:59:13.78	218.18	19.78	-44.5	-63.1	3.8	8.46e-01	0	59	104	0	60	30965
2026-01-29 18:59:14.80	217.75	19.85	-44.7	-63.1	3.8	8.46e-01	0	59	104	0	60	31082
2026-01-29 18:59:15.80	217.33	19.92	-44.7	-63.1	3.8	8.46e-01	0	59	104	0	60	30891
2026-01-29 18:59:16.81	216.90	19.99	-44.6	-63.1	3.8	8.47e-01	0	59	104	0	60	31071
2026-01-29 18:59:17.82	216.47	20.05	-44.7	-63.1	3.8	8.45e-01	0	59	104	0	60	30845
2026-01-29 18:59:18.83	216.04	20.12	-44.6	-63.2	3.8	8.45e-01	0	59	104	0	60	31122
2026-01-29 18:59:19.85	215.60	20.18	-44.7	-63.1	3.8	8.46e-01	0	59	104	0	60	30900
2026-01-29 18:59:20.86	215.16	20.24	-44.6	-63.2	3.8	8.47e-01	0	59	104	0	60	31097
2026-01-29 18:59:21.87	214.72	20.30	-44.7	-63.1	3.8	8.47e-01	0	59	104	0	60	31057
2026-01-29 18:59:22.88	214.28	20.36	-44.7	-63.2	3.8	8.45e-01	0	59	104	0	60	31127
2026-01-29 18:59:23.89	213.84	20.42	-44.7	-63.1	3.8	8.46e-01	0	59	104	0	60	30936
2026-01-29 18:59:24.90	213.39	20.48	-44.7	-63.2	3.8	8.46e-01	0	59	104	0	60	31139
2026-01-29 18:59:25.91	212.95	20.53	-44.6	-63.1	3.8	8.46e-01	0	59	104	0	60	31005
2026-01-29 18:59:26.92	212.50	20.59	-44.7	-63.2	3.8	8.47e-01	0	59	104	0	60	31225
2026-01-29 18:59:27.93	212.05	20.64	-44.7	-63.1	3.8	8.48e-01	0	59	104	0	60	31002
2026-01-29 18:59:28.94	211.59	20.69	-44.7	-63.2	3.8	8.48e-01	0	59	104	0	60	31195
2026-01-29 18:59:29.95	211.14	20.74	-44.7	-63.1	3.8	8.46e-01	0	59	104	0	60	31075
2026-01-29 18:59:30.96	210.68	20.79	-44.7	-63.2	3.8	8.47e-01	0	59	104	0	60	31279
2026-01-29 18:59:31.97	210.23	20.83	-44.7	-63.1	3.8	8.47e-01	0	59	104	0	60	30961
2026-01-29 18:59:32.98	209.77	20.88	-44.7	-63.2	3.8	8.46e-01	0	59	104	0	60	31153
2026-01-29 18:59:33.99	209.31	20.92	-44.7	-63.1	3.8	8.46e-01	0	59	104	0	60	31015
2026-01-29 18:59:35.00	208.84	20.96	-44.7	-63.2	3.8	8.46e-01	0	59	104	0	60	31136
2026-01-29 18:59:36.01	208.38	21.00	-44.7	-63.1	3.8	8.45e-01	0	59	104	0	60	30951
2026-01-29 18:59:37.02	207.91	21.04	-44.7	-63.2	3.8	8.47e-01	0	59	104	0	60	31125
2026-01-29 18:59:38.03	207.45	21.08	-44.7	-63.1	3.8	8.47e-01	0	59	104	0	60	31063
2026-01-29 18:59:39.04	206.98	21.11	-44.7	-63.2	3.8	8.47e-01	0	59	104	0	60	31092
2026-01-29 18:59:40.05	206.51	21.15	-44.7	-63.1	3.8	8.46e-01	0	59	104	0	60	30963
2026-01-29 18:59:41.06	206.04	21.18	-44.7	-63.1	3.8	8.46e-01	0	59	104	0	60	31045
2026-01-29 18:59:42.07	205.57	21.21	-44.7	-63.2	3.8	8.46e-01	0	59	104	0	60	31116
2026-01-29 18:59:43.08	205.09	21.24	-44.7	-63.2	3.8	8.46e-01	0	59	104	0	60	31179
2026-01-29 18:59:44.09	204.62	21.27	-44.7	-63.1	3.8	8.46e-01	0	59	104	0	60	31036
2026-01-29 18:59:45.10	204.15	21.29	-44.7	-63.1	3.8	8.46e-01	0	59	104	0	60	30998
2026-01-29 18:59:46.11	203.67	21.32	-44.7	-63.2	3.8	8.45e-01	0	59	104	0	60	31162
2026-01-29 18:59:47.12	203.19	21.34	-44.7	-63.2	3.8	8.47e-01	0	59	104	0	60	31136
2026-01-29 18:59:48.13	202.72	21.36	-44.7	-63.2	3.8	8.47e-01	0	59	104	0	60	31102
2026-01-29 18:59:49.14	202.24	21.37	-44.7	-63.2	3.8	8.47e-01	0	59	104	0	60	31087
2026-01-29 18:59:50.15	201.76	21.39	-44.7	-63.2	3.8	8.45e-01	0	59	104	0	60	31174
2026-01-29 18:59:51.16	201.28	21.41	-44.7	-63.2	3.8	8.45e-01	0	59	104	0	60	31164
2026-01-29 18:59:52.17	200.80	21.42	-44.7	-63.2	3.8	8.45e-01	0	59	104	0	60	31130
2026-01-29 18:59:53.18	200.32	21.43	-44.7	-63.1	3.8	8.45e-01	0	59	104	0	60	31046
2026-01-29 18:59:54.19	199.84	21.44	-44.7	-63.1	3.8	8.46e-01	0	59	104	0	60	31065
2026-01-29 18:59:55.20	199.36	21.45	-44.7	-63.2	3.8	8.46e-01	0	59	104	0	60	31159
2026-01-29 18:59:56.21	198.88	21.45	-44.7	-63.1	3.8	8.47e-01	0	59	104	0	60	30988
2026-01-29 18:59:57.22	198.39	21.46	-44.7	-63.1	3.8	8.46e-01	0	59	104	0	60	31065
2026-01-29 18:59:58.23	197.91	21.46	-44.7	-63.1	3.8	8.46e-01	0	59	104	0	60	30980
2026-01-29 18:59:59.24	197.43	21.46	-44.7	-63.2	3.8	8.46e-01	0	59	104	0	60	31108
2026-01-29 19:00:00.25	196.95	21.45	-44.7	-63.1	3.8	8.47e-01	0	59	104	0	60	30963
2026-01-29 19:00:01.26	196.47	21.45	-44.7	-63.1	3.8	8.46e-01	0	59	104	0	60	31076
2026-01-29 19:00:02.27	195.99	21.45	-44.7	-63.1	3.8	8.46e-01	0	59	104	0	60	31061
2026-01-29 19:00:03.28	195.51	21.44	-44.7	-63.2	3.8	8.47e-01	0	59	104	0	60	31139
2026-01-29 19:00:04.29	195.02	21.43	-44.7	-63.1	3.8	8.44e-01	0	59	104	0	60	30958
2026-01-29 19:00:05.29	194.55	21.42	-44.7	-63.1	3.8	8.44e-01	0	59	104	0	60	31006
2026-01-29 19:00:06.30	194.07	21.41	-44.7	-63.2	3.8	8.46e-01	0	59	104	0	60	31130
2026-01-29 19:00:07.31	193.59	21.39	-44.7	-63.2	3.8	8.47e-01	0	59	104	0	60	31122
2026-01-29 19:00:08.33	193.11	21.37	-44.7	-63.1	3.8	8.47e-01	0	59	104	0	60	31061
2026-01-29 19:00:09.33	192.63	21.36	-44.7	-63.1	3.8	8.45e-01	0	59	104	0	60	30910
2026-01-29 19:00:10.34	192.15	21.34	-44.7	-63.1	3.8	8.46e-01	0	59	104	0	60	31042
2026-01-29 19:00:11.35	191.68	21.31	-44.7	-63.2	3.8	8.46e-01	0	59	104	0	60	31120
2026-01-29 19:00:12.36	191.20	21.29	-44.7	-63.1	3.8	8.46e-01	0	59	104	0	60	31043
2026-01-29 19:00:13.37	190.73	21.27	-44.7	-63.1	3.8	8.46e-01	0	59	104	0	60	30903
2026-01-29 19:00:14.38	190.25	21.24	-44.7	-63.1	3.8	8.46e-01	0	59	104	0	60	31015
2026-01-29 19:00:15.39	189.78	21.21	-44.7	-63.1	3.8	8.46e-01	0	59	104	0	60	31084
2026-01-29 19:00:16.40	189.31	21.18	-44.7	-63.1	3.8	8.46e-01	0	59	104	0	60	30969
2026-01-29 19:00:17.41	188.84	21.15	-44.7	-63.1	3.8	8.45e-01	0	59	104	0	60	30889
2026-01-29 19:00:18.42	188.37	21.11	-44.7	-63.1	3.8	8.45e-01	0	59	104	0	60	30994
2026-01-29 19:00:19.43	187.90	21.08	-44.7	-63.1	3.8	8.46e-01	0	59	104	0	60	31027
2026-01-29 19:00:20.44	187.43	21.04	-44.7	-63.1	3.8	8.47e-01	0	59	104	0	60	30984
2026-01-29 19:00:21.45	186.96	21.00	-44.7	-63.1	3.8	8.47e-01	0	59	104	0	60	31013
2026-01-29 19:00:22.46	186.50	20.96	-44.7	-63.1	3.8	8.47e-01	0	60	104	0	60	30951
2026-01-29 19:00:23.46	186.04	20.92	-44.7	-63.1	3.8	8.46e-01	0	59	104	0	60	30965
2026-01-29 19:00:24.47	185.58	20.88	-44.6	-63.1	3.8	8.46e-01	0	59	104	0	60	30949
2026-01-29 19:00:25.48	185.12	20.83	-44.6	-63.1	3.8	8.47e-01	0	59	104	0	60	30861
2026-01-29 19:00:26.49	184.66	20.79	-44.7	-63.1	3.8	8.46e-01	0	59	104	0	60	30942
2026-01-29 19:00:27.50	184.21	20.74	-44.7	-63.1	3.8	8.46e-01	0	59	104	0	60	30977
2026-01-29 19:00:28.51	183.75	20.69	-44.6	-63.1	3.8	8.46e-01	0	60	104	0	60	30909
2026-01-29 19:00:29.52	183.30	20.64	-44.7	-63.1	3.8	8.47e-01	0	59	104	0	60	30924
2026-01-29 19:00:30.53	182.85	20.58	-44.7	-63.1	3.8	8.46e-01	0	59	104	0	60	31020
2026-01-29 19:00:31.54	182.40	20.53	-44.7	-63.1	3.8	8.46e-01	0	60	104	0	60	30895
2026-01-29 19:00:32.55	181.95	20.48	-44.6	-63.1	3.8	8.48e-01	0	59	104	0	60	30867
2026-01-29 19:00:33.56	181.50	20.42	-44.6	-63.1	3.8	8.46e-01	0	59	104	0	60	30892
2026-01-29 19:00:34.57	181.06	20.36	-44.7	-63.1	3.8	8.46e-01	0	60	104	0	60	30959
2026-01-29 19:00:35.58	180.62	20.30	-44.7	-63.1	3.8	8.47e-01	0	60	104	0	60	30920
2026-01-29 19:00:36.59	180.18	20.24	-44.6	-63.1	3.8	8.46e-01	0	59	104	0	60	30884
2026-01-29 19:00:37.60	179.74	20.18	-44.7	-63.1	3.8	8.46e-01	0	59	104	0	60	30907
2026-01-29 19:00:38.61	179.31	20.12	-44.7	-63.1	3.8	8.47e-01	0	60	104	0	60	31031
2026-01-29 19:00:39.62	178.87	20.05	-44.6	-63.1	3.8	8.45e-01	0	59	104	0	60	30863
2026-01-29 19:00:40.63	178.44	19.99	-44.7	-63.1	3.8	8.45e-01	0	60	104	0	60	30859
2026-01-29 19:00:41.64	178.02	19.92	-44.6	-63.1	3.8	8.45e-01	0	60	104	0	60	30876
2026-01-29 19:00:42.65	177.59	19.85	-44.7	-63.1	3.8	8.46e-01	0	59	104	0	60	31007
2026-01-29 19:00:43.66	177.17	19.78	-44.6	-63.1	3.8	8.46e-01	0	59	104	0	60	30924
2026-01-29 19:00:44.67	176.74	19.71	-44.7	-63.1	3.8	8.46e-01	0	60	104	0	60	30906
2026-01-29 19:00:45.68	176.32	19.64	-44.7	-63.1	3.8	8.47e-01	0	60	104	0	60	30986
2026-01-29 19:00:46.69	175.91	19.57	-44.7	-63.2	3.8	8.47e-01	0	60	104	0	60	31136
2026-01-29 19:00:47.70	175.49	19.49	-44.7	-63.1	3.8	8.47e-01	0	59	104	0	60	30896
2026-01-29 19:00:48.71	175.08	19.42	-44.7	-63.2	3.8	8.46e-01	0	60	104	0	60	31144
2026-01-29 19:00:49.72	174.67	19.34	-44.9	-63.3	3.8	8.46e-01	0	60	104	0	60	31783
2026-01-29 19:00:50.73	174.26	19.27	-44.8	-63.3	3.8	8.46e-01	0	60	104	0	60	31707
2026-01-29 19:00:51.74	173.86	19.19	-44.8	-63.2	3.8	8.46e-01	0	60	104	0	60	31334
2026-01-29 19:00:52.75	173.46	19.11	-44.8	-63.3	3.8	8.46e-01	0	60	104	0	60	31464
2026-01-29 19:00:53.76	173.06	19.03	-44.8	-63.2	3.8	8.45e-01	0	60	104	0	60	31385
2026-01-29 19:00:54.77	172.66	18.95	-44.8	-63.3	3.8	8.45e-01	0	60	104	0	60	31456
2026-01-29 19:00:55.78	172.27	18.87	-44.7	-63.2	3.8	8.45e-01	0	60	104	0	60	31217
2026-01-29 19:00:56.79	171.87	18.79	-44.8	-63.2	3.8	8.45e-01	0	60	104	0	60	31303
2026-01-29 19:00:57.80	171.49	18.71	-44.7	-63.2	3.8	8.45e-01	0	60	104	0	60	31337
2026-01-29 19:00:58.81	171.10	18.63	-44.8	-63.2	3.8	8.45e-01	0	59	104	0	60	31424
2026-01-29 19:00:59.81	170.72	18.54	-44.7	-63.1	3.8	8.46e-01	0	60	104	0	60	31083
2026-01-29 19:01:00.82	170.34	18.46	-44.8	-63.2	3.8	8.46e-01	0	60	104	0	60	31347
2026-01-29 19:01:01.83	169.96	18.37	-44.8	-63.2	3.8	8.46e-01	0	60	104	0	60	31350
2026-01-29 19:01:02.84	169.58	18.29	-44.8	-63.2	3.8	8.46e-01	0	60	104	0	60	31417
2026-01-29 19:01:03.85	169.21	18.20	-44.7	-63.2	3.8	8.46e-01	0	60	104	0	60	31122
2026-01-29 19:01:04.86	168.84	18.11	-44.8	-63.3	3.8	8.47e-01	0	60	104	0	60	31661
2026-01-29 19:01:05.87	168.47	18.03	-44.8	-63.3	3.8	8.45e-01	0	60	104	0	60	31495
2026-01-29 19:01:06.88	168.10	17.94	-44.9	-63.3	3.8	8.46e-01	0	60	104	0	60	31652
2026-01-29 19:01:07.89	167.74	17.85	-44.8	-63.2	3.8	8.46e-01	0	60	104	0	60	31422
2026-01-29 19:01:08.90	167.38	17.76	-44.9	-63.4	3.8	8.46e-01	0	60	104	0	60	31814
2026-01-29 19:01:09.91	167.02	17.67	-44.9	-63.3	3.8	8.46e-01	0	60	104	0	60	31782
2026-01-29 19:01:10.92	166.67	17.58	-44.9	-63.4	3.8	8.46e-01	0	60	104	0	60	31813
2026-01-29 19:01:11.93	166.31	17.49	-44.8	-63.3	3.8	8.47e-01	0	60	104	0	60	31542
2026-01-29 19:01:12.94	165.96	17.40	-44.9	-63.3	3.8	8.46e-01	0	60	104	0	60	31805
2026-01-29 19:01:13.95	165.62	17.31	-44.9	-63.3	3.8	8.46e-01	0	60	104	0	60	31760
2026-01-29 19:01:14.96	165.27	17.21	-44.9	-63.3	3.8	8.47e-01	0	60	104	0	60	31802
2026-01-29 19:01:15.97	164.93	17.12	-44.8	-63.3	3.8	8.46e-01	0	60	104	0	60	31493
2026-01-29 19:01:16.98	164.59	17.03	-44.8	-63.3	3.8	8.46e-01	0	60	104	0	60	31635
2026-01-29 19:01:17.99	164.25	16.94	-44.9	-63.3	3.8	8.48e-01	0	60	104	0	60	31662
2026-01-29 19:01:19.00	163.92	16.84	-44.9	-63.3	3.8	8.47e-01	0	60	104	0	60	31683
2026-01-29 19:01:20.01	163.59	16.75	-44.8	-63.3	3.8	8.45e-01	0	60	104	0	60	31463
2026-01-29 19:01:21.02	163.26	16.66	-44.8	-63.3	3.8	8.45e-01	0	60	104	0	60	31519
2026-01-29 19:01:22.03	162.93	16.56	-44.8	-63.3	3.8	8.46e-01	0	60	104	0	60	31559
2026-01-29 19:01:23.04	162.61	16.47	-44.8	-63.3	3.8	8.46e-01	0	60	104	0	60	31611
2026-01-29 19:01:24.05	162.28	16.37	-44.8	-63.2	3.8	8.46e-01	0	60	104	0	60	31378
2026-01-29 19:01:25.05	161.97	16.28	-44.8	-63.3	3.8	8.46e-01	0	60	104	0	60	31529
2026-01-29 19:01:26.06	161.65	16.18	-44.8	-63.3	3.8	8.46e-01	0	60	104	0	60	31538
2026-01-29 19:01:27.07	161.34	16.09	-44.8	-63.3	3.8	8.46e-01	0	60	104	0	60	31496
2026-01-29 19:01:28.08	161.03	15.99	-44.8	-63.2	3.8	8.47e-01	0	60	104	0	60	31351
2026-01-29 19:01:29.09	160.72	15.90	-44.8	-63.2	3.8	8.45e-01	0	60	104	0	60	31431
2026-01-29 19:01:30.10	160.41	15.80	-44.8	-63.3	3.8	8.45e-01	0	60	104	0	60	31495
2026-01-29 19:01:31.11	160.11	15.71	-44.8	-63.3	3.8	8.46e-01	0	60	104	0	60	31453
2026-01-29 19:01:32.12	159.81	15.61	-44.8	-63.2	3.8	8.46e-01	0	60	104	0	60	31393
2026-01-29 19:01:33.13	159.51	15.51	-44.8	-63.2	3.8	8.45e-01	0	60	104	0	60	31428
2026-01-29 19:01:34.14	159.21	15.42	-44.8	-63.2	3.8	8.45e-01	0	60	104	0	60	31403
2026-01-29 19:01:35.15	158.92	15.32	-44.8	-63.2	3.8	8.46e-01	0	60	104	0	60	31319
2026-01-29 19:01:36.16	158.62	15.22	-44.8	-63.2	3.8	8.46e-01	0	60	104	0	60	31253
2026-01-29 19:01:37.17	158.34	15.13	-44.8	-63.2	3.8	8.46e-01	0	60	104	0	60	31308
2026-01-29 19:01:38.18	158.05	15.03	-44.8	-63.2	3.8	8.45e-01	0	60	104	0	60	31370
2026-01-29 19:01:39.19	157.76	14.94	-44.8	-63.2	3.8	8.47e-01	0	60	104	0	60	31334
2026-01-29 19:01:40.20	157.48	14.84	-44.7	-63.2	3.8	8.47e-01	0	60	104	0	60	31235
2026-01-29 19:01:41.21	157.20	14.74	-44.7	-63.2	3.8	8.47e-01	0	60	104	0	60	31198
2026-01-29 19:01:42.22	156.92	14.65	-44.8	-63.2	3.8	8.46e-01	0	60	104	0	60	31290
2026-01-29 19:01:43.23	156.65	14.55	-44.8	-63.2	3.8	8.47e-01	0	60	104	0	60	31242
2026-01-29 19:01:44.24	156.38	14.45	-44.7	-63.1	3.8	8.47e-01	0	60	104	0	60	30870
2026-01-29 19:01:45.25	156.11	14.36	-44.7	-63.1	3.8	8.46e-01	0	60	104	0	60	30896
2026-01-29 19:01:46.26	155.84	14.26	-44.7	-63.1	3.8	8.46e-01	0	60	104	0	60	31024
2026-01-29 19:01:47.27	155.57	14.16	-44.7	-63.2	3.8	8.46e-01	0	60	104	0	60	31151
2026-01-29 19:01:48.28	155.31	14.07	-44.6	-63.0	3.8	8.46e-01	0	60	104	0	60	30729
2026-01-29 19:01:49.29	155.04	13.97	-44.6	-63.1	3.8	8.46e-01	0	60	104	0	60	30736
2026-01-29 19:01:50.30	154.78	13.88	-44.7	-63.1	3.8	8.46e-01	0	60	104	0	60	30917
2026-01-29 19:01:51.31	154.53	13.78	-44.7	-63.1	3.8	8.46e-01	0	60	104	0	60	30875
2026-01-29 19:01:52.32	154.27	13.68	-44.6	-63.0	3.8	8.46e-01	0	60	104	0	60	30545
2026-01-29 19:01:53.33	154.02	13.59	-44.7	-63.0	3.8	8.46e-01	0	60	104	0	59	32479
2026-01-29 19:01:54.34	153.77	13.49	-44.6	-63.1	3.8	8.46e-01	0	60	104	0	60	30741
2026-01-29 19:01:55.35	153.52	13.40	-44.6	-63.0	3.8	8.46e-01	0	60	104	0	60	30651
2026-01-29 19:01:56.36	153.27	13.30	-44.5	-63.0	3.8	8.46e-01	0	60	104	0	60	30401
2026-01-29 19:01:57.37	153.03	13.21	-44.6	-63.0	3.8	8.46e-01	0	60	104	0	60	30388
2026-01-29 19:01:58.39	152.78	13.11	-44.6	-63.0	3.8	8.45e-01	0	60	104	0	60	30543
2026-01-29 19:01:59.40	152.54	13.02	-44.6	-63.0	3.8	8.47e-01	0	60	104	0	60	30553
2026-01-29 19:02:00.40	152.31	12.92	-44.5	-62.9	3.8	8.47e-01	0	60	104	0	60	30239
2026-01-29 19:02:01.41	152.07	12.83	-44.5	-62.9	3.8	8.46e-01	0	60	104	0	60	30336
2026-01-29 19:02:02.43	151.83	12.73	-44.6	-63.0	3.8	8.45e-01	0	60	104	0	60	30425
2026-01-29 19:02:03.43	151.60	12.64	-44.5	-62.9	3.8	8.45e-01	0	60	104	0	60	30374
2026-01-29 19:02:04.44	151.37	12.55	-44.5	-62.9	3.8	8.46e-01	0	60	104	0	60	30047
2026-01-29 19:02:05.45	151.14	12.45	-44.5	-62.9	3.8	8.47e-01	0	60	104	0	60	30193
2026-01-29 19:02:06.46	150.91	12.36	-44.5	-62.9	3.8	8.47e-01	0	60	104	0	60	30254
2026-01-29 19:02:07.47	150.69	12.26	-44.5	-62.9	3.8	8.46e-01	0	60	104	0	60	30240
2026-01-29 19:02:08.48	150.47	12.17	-44.4	-62.8	3.8	8.46e-01	0	60	104	0	60	29973
2026-01-29 19:02:09.49	150.25	12.08	-44.4	-62.9	3.8	8.45e-01	0	60	104	0	60	30124
2026-01-29 19:02:10.50	150.03	11.98	-44.5	-62.9	3.8	8.45e-01	0	60	104	0	60	30132
2026-01-29 19:02:11.51	149.81	11.89	-44.5	-62.9	3.8	8.45e-01	0	60	104	0	60	30094
2026-01-29 19:02:12.52	149.59	11.80	-44.4	-62.8	3.8	8.46e-01	0	60	104	0	60	29829
2026-01-29 19:02:13.52	149.38	11.71	-44.4	-62.8	3.8	8.46e-01	0	60	104	0	60	30001
2026-01-29 19:02:14.54	149.17	11.61	-44.4	-62.9	3.8	8.47e-01	0	60	104	0	60	30058
2026-01-29 19:02:15.55	148.96	11.52	-44.4	-62.8	3.8	8.46e-01	0	60	104	0	60	29916
2026-01-29 19:02:16.56	148.75	11.43	-44.4	-62.7	3.8	8.46e-01	0	60	104	0	59	31414
2026-01-29 19:02:17.57	148.54	11.34	-44.5	-62.8	3.8	8.45e-01	0	60	104	0	59	31678
2026-01-29 19:02:18.58	148.33	11.25	-44.5	-62.8	3.8	8.46e-01	0	60	104	0	59	31719
2026-01-29 19:02:19.59	148.13	11.16	-44.5	-62.8	3.8	8.46e-01	0	60	104	0	59	31580
2026-01-29 19:02:20.60	147.93	11.07	-44.4	-62.7	3.8	8.46e-01	0	60	104	0	59	31254
2026-01-29 19:02:21.61	147.73	10.98	-44.4	-62.8	3.8	8.45e-01	0	60	104	0	59	31505
2026-01-29 19:02:22.62	147.53	10.89	-44.4	-62.8	3.8	8.45e-01	0	60	104	0	59	31539
2026-01-29 19:02:23.63	147.33	10.80	-44.4	-62.7	3.8	8.45e-01	0	60	104	0	59	31283
2026-01-29 19:02:24.64	147.14	10.71	-44.3	-62.6	3.8	8.47e-01	0	60	104	0	59	31035
2026-01-29 19:02:25.65	146.94	10.62	-44.4	-62.7	3.8	8.45e-01	0	60	104	0	59	31266
2026-01-29 19:02:26.65	146.75	10.53	-44.4	-62.7	3.8	8.45e-01	0	60	104	0	59	31337
2026-01-29 19:02:27.66	146.56	10.44	-44.3	-62.6	3.8	8.46e-01	0	60	104	0	59	31082
2026-01-29 19:02:28.67	146.38	10.35	-44.2	-62.5	3.8	8.46e-01	0	60	104	0	59	30638
2026-01-29 19:02:29.68	146.19	10.26	-44.3	-62.7	3.8	8.46e-01	0	60	104	0	59	31141
2026-01-29 19:02:30.69	146.00	10.17	-44.4	-62.7	3.8	8.45e-01	0	60	104	0	59	31193
2026-01-29 19:02:31.70	145.82	10.08	-44.2	-62.5	3.8	8.46e-01	0	60	104	0	59	30681
2026-01-29 19:02:32.71	145.63	10.00	-44.1	-62.4	3.8	8.46e-01	0	60	104	0	59	30317
2026-01-29 19:02:33.72	145.45	9.91	-44.3	-62.6	3.8	8.47e-01	0	60	104	0	59	30804
2026-01-29 19:02:34.73	145.27	9.82	-44.3	-62.6	3.8	8.46e-01	0	60	104	0	59	31054
2026-01-29 19:02:35.74	145.10	9.73	-44.1	-62.4	3.8	8.47e-01	0	60	104	0	59	30262
2026-01-29 19:02:36.75	144.92	9.65	-44.0	-62.4	3.8	8.47e-01	0	60	104	0	59	30153
2026-01-29 19:02:37.76	144.74	9.56	-44.2	-62.5	3.8	8.45e-01	0	60	104	0	59	30658
2026-01-29 19:02:38.77	144.57	9.48	-44.2	-62.6	3.8	8.45e-01	0	60	104	0	59	30750
2026-01-29 19:02:39.78	144.40	9.39	-44.1	-62.4	3.8	8.45e-01	0	60	104	0	59	30135
2026-01-29 19:02:40.79	144.22	9.30	-44.0	-62.4	3.8	8.46e-01	0	60	104	0	59	30068
2026-01-29 19:02:41.80	144.05	9.22	-44.1	-62.4	3.8	8.47e-01	0	60	104	0	59	30232
2026-01-29 19:02:42.81	143.89	9.13	-44.1	-62.4	3.8	8.47e-01	0	60	104	0	59	30367
2026-01-29 19:02:43.83	143.72	9.05	-44.0	-62.3	3.8	8.47e-01	0	60	104	0	59	29934
2026-01-29 19:02:44.84	143.55	8.96	-44.0	-62.3	3.8	8.45e-01	0	60	104	0	59	29929
2026-01-29 19:02:45.84	143.39	8.88	-44.0	-62.4	3.8	8.45e-01	0	60	104	0	59	30100
2026-01-29 19:02:46.85	143.23	8.79	-44.1	-62.4	3.8	8.46e-01	0	60	104	0	59	30128
2026-01-29 19:02:47.86	143.06	8.71	-43.9	-62.2	3.8	8.47e-01	0	60	104	0	59	29550
2026-01-29 19:02:48.87	142.90	8.63	-43.9	-62.3	3.8	8.45e-01	0	60	104	0	59	29703
2026-01-29 19:02:49.89	142.74	8.54	-44.0	-62.3	3.8	8.45e-01	0	60	104	0	59	30029
2026-01-29 19:02:50.89	142.58	8.46	-44.0	-62.3	3.8	8.45e-01	0	60	104	0	59	30024
2026-01-29 19:02:51.90	142.43	8.38	-43.8	-62.1	3.8	8.47e-01	0	60	104	0	59	29176
2026-01-29 19:02:52.92	142.27	8.29	-43.8	-62.1	3.8	8.47e-01	0	60	104	0	59	29050
2026-01-29 19:02:53.93	142.12	8.21	-44.0	-62.3	3.8	8.47e-01	0	60	104	0	59	29923
2026-01-29 19:02:54.94	141.96	8.13	-44.0	-62.3	3.8	8.46e-01	0	60	104	0	59	29798
2026-01-29 19:02:55.95	141.81	8.05	-43.6	-61.9	3.8	8.46e-01	0	60	104	0	58	30311
2026-01-29 19:02:56.96	141.66	7.97	-41.1	-61.1	3.7	8.47e-01	0	60	104	0	55	32729
2026-01-29 19:02:57.97	141.51	7.88	-43.5	-62.7	3.9	8.46e-01	0	60	104	0	55	39156
2026-01-29 19:02:58.98	141.36	7.80	-44.7	-63.4	4.1	8.46e-01	0	60	104	0	60	32150
2026-01-29 19:02:59.99	141.21	7.72	-44.6	-63.8	3.7	8.46e-01	0	60	104	0	60	33412
2026-01-29 19:03:01.00	141.07	7.64	-45.2	-63.6	3.8	8.45e-01	0	60	104	0	60	32680
2026-01-29 19:03:02.01	140.92	7.56	-45.3	-63.7	3.8	8.47e-01	0	60	104	0	61	31184
2026-01-29 19:03:03.02	140.78	7.48	-45.4	-63.7	3.8	8.47e-01	0	60	104	0	61	31335
2026-01-29 19:03:04.03	140.64	7.40	-45.4	-63.8	3.8	8.46e-01	0	60	104	0	61	31634
2026-01-29 19:03:05.04	140.49	7.32	-45.4	-63.8	3.8	8.46e-01	0	60	104	0	61	31657
2026-01-29 19:03:06.05	140.35	7.24	-45.4	-63.8	3.8	8.46e-01	0	60	104	0	61	31641
2026-01-29 19:03:07.06	140.21	7.16	-45.3	-63.7	3.8	8.46e-01	0	60	104	0	61	31356
2026-01-29 19:03:08.07	140.08	7.08	-45.2	-63.7	3.8	8.46e-01	0	60	104	0	61	31139
2026-01-29 19:03:09.08	139.94	7.01	-45.2	-63.6	3.8	8.46e-01	0	60	104	0	61	30957
2026-01-29 19:03:10.09	139.80	6.93	-45.0	-63.6	3.8	8.47e-01	0	60	104	0	61	30835
2026-01-29 19:03:11.10	139.67	6.85	-44.0	-63.2	3.8	8.44e-01	0	60	104	0	59	33214
2026-01-29 19:03:12.11	139.53	6.77	-45.0	-63.5	3.8	8.46e-01	0	60	104	0	60	32407
2026-01-29 19:03:13.13	139.40	6.69	-45.0	-63.5	3.8	8.46e-01	0	60	104	0	60	32355
2026-01-29 19:03:14.14	139.26	6.62	-45.0	-63.5	3.8	8.47e-01	0	60	104	0	60	32390
2026-01-29 19:03:15.15	139.13	6.54	-45.0	-63.5	3.8	8.47e-01	0	60	104	0	60	32246
2026-01-29 19:03:16.16	139.00	6.46	-45.0	-63.5	3.8	8.47e-01	0	60	104	0	60	32328
2026-01-29 19:03:17.17	138.87	6.39	-45.0	-63.5	3.8	8.46e-01	0	60	104	0	60	32191
2026-01-29 19:03:18.18	138.74	6.31	-45.0	-63.5	3.8	8.45e-01	0	60	104	0	60	32346
2026-01-29 19:03:19.19	138.62	6.23	-45.0	-63.5	3.8	8.45e-01	0	60	104	0	60	32286
2026-01-29 19:03:20.20	138.49	6.16	-45.0	-63.5	3.8	8.46e-01	0	60	104	0	60	32275
2026-01-29 19:03:21.21	138.37	6.08	-45.0	-63.5	3.8	8.46e-01	0	60	104	0	60	32241
2026-01-29 19:03:22.22	138.24	6.01	-45.0	-63.5	3.8	8.46e-01	0	60	104	0	60	32195
2026-01-29 19:03:23.23	138.12	5.93	-45.0	-63.5	3.8	8.46e-01	0	60	104	0	60	32197
2026-01-29 19:03:24.24	137.99	5.86	-45.0	-63.5	3.8	8.46e-01	0	60	104	0	60	32218
2026-01-29 19:03:25.25	137.87	5.78	-45.0	-63.5	3.8	8.46e-01	0	60	104	0	60	32246
2026-01-29 19:03:26.26	137.75	5.71	-45.0	-63.5	3.8	8.46e-01	0	60	104	0	60	32288
2026-01-29 19:03:27.27	137.63	5.63	-45.0	-63.4	3.8	8.47e-01	0	60	104	0	60	32158
2026-01-29 19:03:28.28	137.51	5.56	-45.0	-63.5	3.8	8.45e-01	0	60	104	0	60	32180
2026-01-29 19:03:29.29	137.39	5.48	-45.0	-63.4	3.8	8.45e-01	0	60	104	0	60	32179
2026-01-29 19:03:30.30	137.27	5.41	-45.0	-63.5	3.8	8.46e-01	0	61	104	0	60	32184
2026-01-29 19:03:31.31	137.16	5.34	-45.0	-63.5	3.8	8.47e-01	0	60	104	0	60	32217
2026-01-29 19:03:32.32	137.04	5.26	-45.0	-63.5	3.8	8.47e-01	0	60	104	0	60	32182
2026-01-29 19:03:33.33	136.93	5.19	-45.0	-63.5	3.8	8.47e-01	0	60	104	0	60	32210
2026-01-29 19:03:34.35	136.81	5.12	-45.0	-63.5	3.8	8.46e-01	0	60	104	0	60	32188
2026-01-29 19:03:35.36	136.70	5.05	-45.0	-63.5	3.8	8.46e-01	0	60	104	0	60	32203
2026-01-29 19:03:36.37	136.59	4.97	-45.0	-63.4	3.8	8.46e-01	0	60	104	0	60	32154
2026-01-29 19:03:37.38	136.47	4.90	-45.0	-63.4	3.8	8.46e-01	0	60	104	0	60	32119
2026-01-29 19:03:38.39	136.36	4.83	-45.0	-63.4	3.8	8.46e-01	0	60	104	0	60	32156
2026-01-29 19:03:39.40	136.25	4.76	-45.0	-63.4	3.8	8.46e-01	0	60	104	0	60	32139
2026-01-29 19:03:40.41	136.14	4.69	-45.0	-63.4	3.8	8.46e-01	0	60	104	0	60	32159
2026-01-29 19:03:41.42	136.03	4.62	-45.0	-63.5	3.8	8.46e-01	0	60	104	0	60	32195
2026-01-29 19:03:42.43	135.93	4.55	-45.0	-63.5	3.8	8.46e-01	0	60	104	0	60	32260
2026-01-29 19:03:43.44	135.82	4.47	-45.0	-63.4	3.8	8.46e-01	0	61	104	0	60	32146
2026-01-29 19:03:44.45	135.71	4.40	-45.0	-63.4	3.8	8.46e-01	0	60	104	0	60	32131
2026-01-29 19:03:45.46	135.61	4.33	-45.0	-63.4	3.8	8.46e-01	0	60	104	0	60	32149
2026-01-29 19:03:46.47	135.50	4.26	-45.0	-63.4	3.8	8.46e-01	0	60	104	0	60	32065
2026-01-29 19:03:47.48	135.40	4.19	-45.0	-63.4	3.8	8.47e-01	0	60	104	0	60	32179
2026-01-29 19:03:48.49	135.29	4.12	-45.0	-63.5	3.8	8.47e-01	0	60	104	0	60	32216
2026-01-29 19:03:49.50	135.19	4.06	-44.9	-63.4	3.8	8.47e-01	0	61	104	0	60	32084
2026-01-29 19:03:50.51	135.09	3.99	-45.0	-63.4	3.8	8.47e-01	0	60	104	0	60	32103
2026-01-29 19:03:51.52	134.99	3.92	-45.0	-63.4	3.8	8.46e-01	0	60	104	0	60	32084
2026-01-29 19:03:52.53	134.89	3.85	-45.0	-63.5	3.8	8.46e-01	0	61	104	0	60	32186
2026-01-29 19:03:53.54	134.79	3.78	-45.0	-63.4	3.8	8.46e-01	0	60	104	0	60	32121
2026-01-29 19:03:54.55	134.69	3.71	-45.0	-63.4	3.8	8.46e-01	0	60	104	0	60	32039
2026-01-29 19:03:55.56	134.59	3.64	-45.0	-63.4	3.8	8.46e-01	0	60	104	0	60	32151
2026-01-29 19:03:56.57	134.49	3.58	-45.0	-63.4	3.8	8.46e-01	0	60	104	0	60	32040
2026-01-29 19:03:57.58	134.39	3.51	-44.9	-63.4	3.8	8.46e-01	0	60	104	0	60	32152
2026-01-29 19:03:58.60	134.30	3.44	-45.0	-63.5	3.8	8.46e-01	0	60	104	0	60	32193
2026-01-29 19:03:59.61	134.20	3.37	-45.0	-63.4	3.8	8.46e-01	0	60	104	0	60	32147
2026-01-29 19:04:00.62	134.10	3.30	-45.0	-63.4	3.8	8.47e-01	0	60	104	0	60	32137
2026-01-29 19:04:01.63	134.01	3.24	-45.0	-63.4	3.8	8.46e-01	0	61	104	0	60	32119
2026-01-29 19:04:02.64	133.91	3.17	-45.0	-63.4	3.8	8.46e-01	0	60	104	0	60	32146
2026-01-29 19:04:03.65	133.82	3.10	-45.0	-63.4	3.8	8.46e-01	0	60	104	0	60	32127
2026-01-29 19:04:04.66	133.73	3.04	-45.0	-63.4	3.8	8.46e-01	0	60	104	0	60	32097
2026-01-29 19:04:05.67	133.64	2.97	-45.0	-63.4	3.8	8.46e-01	0	60	104	0	60	32158
2026-01-29 19:04:06.68	133.54	2.91	-45.0	-63.4	3.8	8.46e-01	0	60	104	0	60	31992
2026-01-29 19:04:07.69	133.45	2.84	-45.0	-63.4	3.8	8.47e-01	0	61	104	0	60	32111
2026-01-29 19:04:08.70	133.36	2.77	-45.0	-63.4	3.8	8.47e-01	0	60	104	0	60	32098
2026-01-29 19:04:09.71	133.27	2.71	-45.0	-63.4	3.8	8.45e-01	0	60	104	0	60	32077
2026-01-29 19:04:10.72	133.18	2.64	-45.0	-63.4	3.8	8.46e-01	0	60	104	0	60	32116
2026-01-29 19:04:11.73	133.10	2.58	-45.0	-63.4	3.8	8.46e-01	0	60	104	0	60	32039
2026-01-29 19:04:12.74	133.01	2.51	-45.0	-63.4	3.8	8.47e-01	0	60	104	0	60	32123
2026-01-29 19:04:13.75	132.92	2.45	-45.0	-63.5	3.8	8.46e-01	0	60	104	0	60	32214
2026-01-29 19:04:14.76	132.83	2.38	-45.0	-63.4	3.8	8.46e-01	0	60	104	0	60	32102
2026-01-29 19:04:15.77	132.75	2.32	-45.0	-63.4	3.8	8.46e-01	0	60	104	0	60	32017
2026-01-29 19:04:16.78	132.66	2.25	-45.0	-63.4	3.8	8.47e-01	0	60	104	0	60	32072
2026-01-29 19:04:17.79	132.57	2.19	-45.0	-63.4	3.8	8.46e-01	0	60	104	0	60	32166
2026-01-29 19:04:18.80	132.49	2.13	-45.0	-63.4	3.8	8.46e-01	0	60	104	0	60	32119
2026-01-29 19:04:19.81	132.41	2.06	-45.0	-63.4	3.8	8.45e-01	0	60	104	0	60	32110
2026-01-29 19:04:20.82	132.32	2.00	-45.0	-63.4	3.8	8.47e-01	0	60	104	0	60	32088

#Closed at: 2026-01-29 19:04:21
#Recorded file [0 MB]: D:/lorett/data/31039_260129_215537.dat