passes_logs/2026/01/29/R2.0S_Moscow/R2.0S_Moscow__20260129_075503_NOAA_21_JPSS-2_rec.log

#Pass ID: 20260129_075503_NOAA 21 (JPSS-2)
#Satellite: NOAA 21 (JPSS-2)
#Configuration: NOAA-21
#almurnet v.1.7.20251203
#Start time: 2026-01-29 07:55:04

#Version: 2.2.20231116
#Station: R2.0S_Moscow
#Location: 37.707566 lon 55.798166 lat
#TLE: 1 54234U 22150A   26027.91149249  .00000141  00000+0  87546-4 0  9993
#TLE: 2 54234  98.7510 328.6558 0000880 202.8718 157.2419 14.19540177166642

#Time	Az	El	Level	Level2	SNR	BER	BlckErr	Temp	State	Recorded	gain1	gain2
2026-01-29 07:55:04.75	101.39	2.07	-40.0	-52.2	3.8	1.49e+00	0	49	0	0	51	14725
2026-01-29 07:55:05.75	101.31	2.13	-40.0	-52.2	3.8	1.49e+00	0	49	104	0	51	14776
2026-01-29 07:55:06.76	101.23	2.18	-40.0	-52.2	3.8	1.49e+00	0	49	104	0	51	14760
2026-01-29 07:55:07.77	101.15	2.23	-39.9	-52.2	3.8	1.49e+00	0	49	104	0	51	14766
2026-01-29 07:55:08.78	101.07	2.29	-40.0	-52.2	3.8	1.49e+00	0	50	104	0	51	14720
2026-01-29 07:55:09.79	100.99	2.34	-40.0	-52.2	3.8	1.49e+00	0	49	104	0	51	14754
2026-01-29 07:55:10.80	100.91	2.39	-40.0	-52.1	3.8	1.49e+00	0	50	104	0	51	14703
2026-01-29 07:55:11.81	100.83	2.45	-40.0	-52.2	3.8	1.49e+00	0	50	104	0	51	14717
2026-01-29 07:55:12.83	100.75	2.50	-40.0	-52.2	3.8	1.49e+00	0	50	104	0	51	14766
2026-01-29 07:55:13.84	100.66	2.55	-40.0	-52.2	3.8	1.49e+00	0	50	104	0	51	14750
2026-01-29 07:55:14.85	100.58	2.61	-40.0	-52.2	3.8	1.49e+00	0	50	104	0	51	14712
2026-01-29 07:55:15.86	100.50	2.66	-39.9	-52.2	3.8	1.49e+00	0	50	104	0	51	14789
2026-01-29 07:55:16.87	100.42	2.72	-40.0	-52.2	3.8	1.49e+00	0	50	104	0	51	14736
2026-01-29 07:55:17.88	100.33	2.77	-39.9	-52.2	3.8	1.49e+00	0	50	104	0	51	14723
2026-01-29 07:55:18.89	100.25	2.82	-40.0	-52.2	3.8	1.49e+00	0	50	104	0	51	14747
2026-01-29 07:55:19.90	100.16	2.88	-39.9	-52.2	3.8	1.49e+00	0	50	104	0	51	14753
2026-01-29 07:55:20.91	100.08	2.93	-40.0	-52.2	3.8	1.49e+00	0	50	104	0	51	14774
2026-01-29 07:55:21.92	99.99	2.99	-39.9	-52.2	3.8	1.49e+00	0	50	104	0	51	14724
2026-01-29 07:55:22.93	99.91	3.04	-40.0	-52.2	3.8	1.49e+00	0	50	104	0	51	14743
2026-01-29 07:55:23.94	99.82	3.09	-40.0	-52.2	3.8	1.49e+00	0	50	104	0	51	14709
2026-01-29 07:55:24.95	99.74	3.15	-40.0	-52.2	3.8	1.49e+00	0	50	104	0	51	14747
2026-01-29 07:55:25.96	99.65	3.20	-40.0	-52.2	3.8	1.49e+00	0	50	104	0	51	14719
2026-01-29 07:55:26.97	99.57	3.26	-40.0	-52.1	3.8	1.49e+00	0	51	104	0	51	14695
2026-01-29 07:55:27.98	99.48	3.31	-39.9	-52.1	3.8	1.49e+00	0	51	104	0	51	14672
2026-01-29 07:55:28.99	99.39	3.36	-39.9	-52.2	3.8	1.49e+00	0	51	104	0	51	14710
2026-01-29 07:55:30.00	99.30	3.42	-40.0	-52.1	3.8	1.49e+00	0	51	104	0	51	14704
2026-01-29 07:55:31.01	99.22	3.47	-39.9	-52.1	3.8	1.49e+00	0	51	104	0	51	14650
2026-01-29 07:55:32.02	99.13	3.53	-39.9	-52.2	3.8	1.49e+00	0	51	104	0	51	14736
2026-01-29 07:55:33.03	99.04	3.58	-39.9	-52.1	3.8	1.49e+00	0	51	104	0	51	14677
2026-01-29 07:55:34.04	98.95	3.64	-39.9	-52.1	3.8	1.49e+00	0	51	104	0	51	14650
2026-01-29 07:55:35.05	98.86	3.69	-39.9	-52.1	3.8	1.49e+00	0	51	104	0	51	14703
2026-01-29 07:55:36.07	98.77	3.75	-39.9	-52.2	3.8	1.49e+00	0	51	104	0	51	14727
2026-01-29 07:55:37.07	98.68	3.80	-39.9	-52.1	3.8	1.49e+00	0	51	104	0	51	14684
2026-01-29 07:55:38.08	98.59	3.86	-39.9	-52.1	3.8	1.49e+00	0	51	104	0	51	14708
2026-01-29 07:55:39.09	98.50	3.91	-39.9	-52.1	3.8	1.49e+00	0	51	104	0	51	14689
2026-01-29 07:55:40.11	98.41	3.97	-39.7	-52.2	3.8	1.49e+00	0	52	104	0	51	14722
2026-01-29 07:55:41.12	98.32	4.02	-39.9	-52.1	3.8	1.49e+00	0	51	104	0	51	14702
2026-01-29 07:55:42.13	98.23	4.08	-39.9	-52.1	3.8	1.49e+00	0	52	104	0	51	14698
2026-01-29 07:55:43.14	98.14	4.13	-39.9	-52.2	3.8	1.49e+00	0	52	104	0	51	14714
2026-01-29 07:55:44.15	98.04	4.19	-39.9	-52.1	3.8	1.49e+00	0	52	104	0	51	14703
2026-01-29 07:55:45.16	97.95	4.24	-39.9	-52.2	3.8	1.49e+00	0	52	104	0	51	14742
2026-01-29 07:55:46.17	97.86	4.30	-39.9	-52.2	3.8	1.49e+00	0	52	104	0	51	14724
2026-01-29 07:55:47.18	97.76	4.35	-39.9	-52.2	3.8	1.49e+00	0	52	104	0	51	14728
2026-01-29 07:55:48.19	97.67	4.41	-39.9	-52.1	3.8	1.49e+00	0	52	104	0	51	14700
2026-01-29 07:55:49.20	97.58	4.46	-39.9	-52.2	3.8	1.49e+00	0	52	104	0	51	14737
2026-01-29 07:55:50.21	97.48	4.52	-39.9	-52.2	3.8	1.49e+00	0	52	104	0	51	14723
2026-01-29 07:55:51.22	97.39	4.57	-39.9	-52.2	3.8	1.49e+00	0	52	104	0	51	14736
2026-01-29 07:55:52.23	97.29	4.63	-39.9	-52.2	3.8	1.49e+00	0	52	104	0	51	14738
2026-01-29 07:55:53.24	97.20	4.68	-39.9	-52.2	3.8	1.49e+00	0	52	104	0	51	14732
2026-01-29 07:55:54.25	97.10	4.74	-39.9	-52.1	3.8	1.49e+00	0	52	104	0	51	14700
2026-01-29 07:55:55.26	97.00	4.79	-39.9	-52.2	3.8	1.49e+00	0	52	104	0	51	14730
2026-01-29 07:55:56.27	96.91	4.85	-39.9	-52.2	3.8	1.49e+00	0	52	104	0	51	14728
2026-01-29 07:55:57.28	96.81	4.90	-39.9	-52.1	3.8	1.49e+00	0	52	104	0	51	14681
2026-01-29 07:55:58.29	96.71	4.96	-39.9	-52.1	3.8	1.49e+00	0	52	104	0	51	14689
2026-01-29 07:55:59.30	96.62	5.02	-39.9	-52.1	3.8	1.49e+00	0	53	104	0	51	14686
2026-01-29 07:56:00.31	96.52	5.07	-39.9	-52.1	3.8	1.49e+00	0	52	104	0	51	14638
2026-01-29 07:56:01.32	96.42	5.13	-39.9	-52.1	3.8	1.49e+00	0	53	104	0	51	14702
2026-01-29 07:56:02.33	96.32	5.18	-39.9	-52.2	3.8	1.49e+00	0	53	104	0	51	14753
2026-01-29 07:56:03.34	96.22	5.24	-39.9	-52.2	3.8	1.49e+00	0	53	104	0	51	14710
2026-01-29 07:56:04.35	96.12	5.29	-39.9	-52.1	3.8	1.49e+00	0	53	104	0	51	14609
2026-01-29 07:56:05.36	96.02	5.35	-39.9	-52.1	3.8	1.49e+00	0	53	104	0	51	14617
2026-01-29 07:56:06.38	95.92	5.41	-39.9	-52.1	3.8	1.49e+00	0	53	104	0	51	14676
2026-01-29 07:56:07.39	95.82	5.46	-39.9	-52.1	3.8	1.49e+00	0	53	104	0	51	14646
2026-01-29 07:56:08.40	95.72	5.52	-39.9	-52.1	3.8	1.49e+00	0	53	104	0	51	14664
2026-01-29 07:56:09.41	95.62	5.57	-39.9	-52.1	3.8	1.49e+00	0	53	104	0	51	14671
2026-01-29 07:56:10.42	95.51	5.63	-39.9	-52.1	3.8	1.49e+00	0	53	104	0	51	14676
2026-01-29 07:56:11.43	95.41	5.69	-39.9	-52.1	3.8	1.49e+00	0	53	104	0	51	14661
2026-01-29 07:56:12.44	95.31	5.74	-39.9	-52.1	3.8	1.49e+00	0	53	104	0	51	14643
2026-01-29 07:56:13.45	95.20	5.80	-39.9	-52.1	3.8	1.49e+00	0	53	104	0	51	14670
2026-01-29 07:56:14.46	95.10	5.85	-39.9	-52.1	3.8	1.49e+00	0	53	104	0	51	14658
2026-01-29 07:56:15.47	95.00	5.91	-39.9	-52.1	3.8	1.49e+00	0	53	104	0	51	14696
2026-01-29 07:56:16.48	94.89	5.97	-39.9	-52.1	3.8	1.49e+00	0	53	104	0	51	14665
2026-01-29 07:56:17.49	94.79	6.02	-39.9	-52.1	3.8	1.49e+00	0	53	104	0	51	14678
2026-01-29 07:56:18.50	94.68	6.08	-39.9	-52.1	3.8	1.49e+00	0	53	104	0	51	14614
2026-01-29 07:56:19.51	94.58	6.14	-39.9	-52.1	3.8	1.49e+00	0	54	104	0	51	14649
2026-01-29 07:56:20.52	94.47	6.19	-39.9	-52.1	3.8	1.49e+00	0	54	104	0	51	14626
2026-01-29 07:56:21.53	94.36	6.25	-39.9	-52.1	3.8	1.49e+00	0	54	104	0	51	14672
2026-01-29 07:56:22.54	94.26	6.30	-39.9	-52.1	3.8	1.49e+00	0	54	104	0	51	14656
2026-01-29 07:56:23.55	94.15	6.36	-39.9	-52.1	3.8	1.49e+00	0	54	104	0	51	14667
2026-01-29 07:56:24.56	94.04	6.42	-39.9	-52.1	3.8	1.49e+00	0	54	104	0	51	14626
2026-01-29 07:56:25.57	93.93	6.47	-39.9	-52.1	3.8	1.49e+00	0	54	104	0	51	14677
2026-01-29 07:56:26.58	93.82	6.53	-39.9	-52.1	3.8	1.49e+00	0	54	104	0	51	14691
2026-01-29 07:56:27.59	93.72	6.59	-39.9	-52.1	3.8	1.49e+00	0	54	104	0	51	14655
2026-01-29 07:56:28.61	93.60	6.64	-39.9	-52.1	3.8	1.49e+00	0	54	104	0	51	14609
2026-01-29 07:56:29.62	93.49	6.70	-39.9	-52.1	3.8	1.49e+00	0	54	104	0	51	14686
2026-01-29 07:56:30.63	93.38	6.76	-39.9	-52.1	3.8	1.49e+00	0	54	104	0	51	14641
2026-01-29 07:56:31.64	93.27	6.81	-39.9	-52.1	3.8	1.49e+00	0	54	104	0	51	14598
2026-01-29 07:56:32.65	93.16	6.87	-39.9	-52.1	3.8	1.49e+00	0	54	104	0	51	14640
2026-01-29 07:56:33.66	93.05	6.93	-39.9	-52.1	3.8	1.49e+00	0	54	104	0	51	14582
2026-01-29 07:56:34.67	92.94	6.98	-39.9	-52.1	3.8	1.49e+00	0	54	104	0	51	14635
2026-01-29 07:56:35.68	92.83	7.04	-39.9	-52.1	3.8	1.49e+00	0	54	104	0	51	14594
2026-01-29 07:56:36.69	92.71	7.10	-39.9	-52.1	3.8	1.49e+00	0	54	104	0	51	14614
2026-01-29 07:56:37.70	92.60	7.15	-39.9	-52.1	3.8	1.49e+00	0	54	104	0	51	14602
2026-01-29 07:56:38.71	92.48	7.21	-39.9	-52.1	3.8	1.49e+00	0	54	104	0	51	14612
2026-01-29 07:56:39.72	92.37	7.27	-39.9	-52.1	3.8	1.49e+00	0	54	104	0	51	14613
2026-01-29 07:56:40.73	92.26	7.32	-39.9	-52.1	3.8	1.49e+00	0	54	104	0	51	14659
2026-01-29 07:56:41.74	92.14	7.38	-39.9	-52.1	3.8	1.49e+00	0	54	104	0	51	14624
2026-01-29 07:56:42.75	92.02	7.44	-39.9	-52.1	3.8	1.49e+00	0	54	104	0	51	14654
2026-01-29 07:56:43.76	91.91	7.50	-39.9	-52.1	3.8	1.49e+00	0	54	104	0	51	14601
2026-01-29 07:56:44.77	91.79	7.55	-39.9	-52.1	3.8	1.49e+00	0	54	104	0	51	14630
2026-01-29 07:56:45.78	91.67	7.61	-39.9	-52.1	3.8	1.49e+00	0	55	104	0	51	14611
2026-01-29 07:56:46.79	91.56	7.67	-39.9	-52.1	3.8	1.49e+00	0	55	104	0	51	14663
2026-01-29 07:56:47.80	91.44	7.72	-39.9	-52.1	3.8	1.49e+00	0	55	104	0	51	14627
2026-01-29 07:56:48.81	91.32	7.78	-39.9	-52.1	3.8	1.49e+00	0	55	104	0	51	14627
2026-01-29 07:56:49.82	91.20	7.84	-39.9	-52.1	3.8	1.49e+00	0	55	104	0	51	14647
2026-01-29 07:56:50.83	91.08	7.89	-39.9	-52.1	3.8	1.49e+00	0	54	104	0	51	14609
2026-01-29 07:56:51.85	90.96	7.95	-39.9	-52.0	3.8	1.49e+00	0	55	104	0	51	14497
2026-01-29 07:56:52.86	90.84	8.01	-39.9	-51.8	3.8	1.49e+00	0	55	104	0	51	14116
2026-01-29 07:56:53.87	90.72	8.07	-39.9	-51.3	3.8	1.49e+00	0	55	104	0	51	13330
2026-01-29 07:56:54.88	90.60	8.12	-40.1	-51.5	3.8	1.49e+00	0	55	104	0	51	13619
2026-01-29 07:56:55.89	90.47	8.18	-39.9	-51.8	3.8	1.49e+00	0	55	104	0	51	14205
2026-01-29 07:56:56.90	90.35	8.24	-40.1	-51.9	3.8	1.49e+00	0	55	104	0	51	14245
2026-01-29 07:56:57.90	90.23	8.29	-39.9	-52.1	3.8	1.49e+00	0	55	104	0	51	14544
2026-01-29 07:56:58.91	90.11	8.35	-40.2	-51.6	3.8	1.49e+00	0	55	104	0	51	13864
2026-01-29 07:56:59.92	89.98	8.41	-40.1	-52.2	3.8	1.49e+00	0	55	104	0	51	14852
2026-01-29 07:57:00.93	89.86	8.46	-40.5	-52.6	3.8	1.49e+00	0	55	104	0	51	15499
2026-01-29 07:57:01.94	89.73	8.52	-40.2	-52.4	3.8	1.49e+00	0	55	104	0	51	15134
2026-01-29 07:57:02.95	89.61	8.58	-40.4	-52.5	3.8	1.49e+00	0	55	104	0	51	15301
2026-01-29 07:57:03.96	89.48	8.63	-40.4	-52.5	3.8	1.49e+00	0	55	104	0	51	15374
2026-01-29 07:57:04.97	89.36	8.69	-40.5	-52.7	3.8	1.49e+00	0	55	104	0	51	15737
2026-01-29 07:57:05.98	89.23	8.75	-40.6	-52.9	3.8	1.49e+00	0	55	104	0	51	15981
2026-01-29 07:57:06.99	89.10	8.81	-40.4	-52.8	3.8	1.49e+00	0	55	104	0	51	15766
2026-01-29 07:57:08.00	88.97	8.86	-40.2	-52.4	3.8	1.49e+00	0	55	104	0	51	15102
2026-01-29 07:57:09.01	88.85	8.92	-40.5	-52.8	3.8	1.49e+00	0	55	104	0	51	15764
2026-01-29 07:57:10.02	88.72	8.98	-40.3	-52.5	3.8	1.49e+00	0	55	104	0	51	15374
2026-01-29 07:57:11.03	88.59	9.03	-40.5	-52.9	3.8	1.49e+00	0	55	104	0	51	16010
2026-01-29 07:57:12.04	88.46	9.09	-40.2	-52.4	3.8	1.49e+00	0	55	104	0	51	15210
2026-01-29 07:57:13.05	88.33	9.15	-40.2	-52.7	3.8	1.49e+00	0	55	104	0	51	15760
2026-01-29 07:57:14.06	88.20	9.20	-40.4	-52.7	3.8	1.49e+00	0	55	104	0	51	15586
2026-01-29 07:57:15.07	88.06	9.26	-40.6	-52.9	3.8	1.49e+00	0	55	104	0	51	16037
2026-01-29 07:57:16.08	87.93	9.32	-40.2	-52.5	3.8	1.49e+00	0	55	104	0	51	15386
2026-01-29 07:57:17.09	87.80	9.38	-40.5	-52.7	3.8	1.49e+00	0	55	104	0	51	15692
2026-01-29 07:57:18.10	87.67	9.43	-40.4	-52.7	3.8	1.49e+00	0	55	104	0	51	15707
2026-01-29 07:57:19.11	87.53	9.49	-40.5	-52.9	3.8	1.49e+00	0	55	104	0	51	15985
2026-01-29 07:57:20.12	87.40	9.55	-40.2	-52.6	3.8	1.49e+00	0	55	104	0	51	15418
2026-01-29 07:57:21.13	87.26	9.60	-40.5	-52.8	3.8	1.49e+00	0	55	104	0	51	15778
2026-01-29 07:57:22.14	87.13	9.66	-40.5	-52.7	3.8	1.49e+00	0	55	104	0	51	15744
2026-01-29 07:57:23.15	86.99	9.72	-40.4	-52.8	3.8	1.49e+00	0	56	104	0	51	15869
2026-01-29 07:57:24.16	86.86	9.77	-40.4	-52.7	3.8	1.49e+00	0	56	104	0	51	15624
2026-01-29 07:57:25.17	86.72	9.83	-40.5	-52.8	3.8	1.49e+00	0	56	104	0	51	15772
2026-01-29 07:57:26.18	86.58	9.89	-40.5	-52.7	3.8	1.49e+00	0	56	104	0	51	15703
2026-01-29 07:57:27.19	86.44	9.94	-40.5	-52.8	3.8	1.49e+00	0	56	104	0	51	15815
2026-01-29 07:57:28.19	86.31	10.00	-40.3	-52.7	3.8	1.49e+00	0	56	104	0	51	15703
2026-01-29 07:57:29.20	86.17	10.06	-40.3	-52.6	3.8	1.49e+00	0	56	104	0	51	15500
2026-01-29 07:57:30.21	86.03	10.11	-40.5	-52.8	3.8	1.49e+00	0	56	104	0	51	15789
2026-01-29 07:57:31.22	85.89	10.17	-40.4	-52.7	3.8	1.49e+00	0	56	104	0	51	15673
2026-01-29 07:57:32.23	85.75	10.23	-40.2	-52.7	3.8	1.49e+00	0	56	104	0	51	15597
2026-01-29 07:57:33.24	85.61	10.28	-39.8	-52.3	3.8	1.49e+00	0	56	104	0	50	15906
2026-01-29 07:57:34.25	85.47	10.34	-40.1	-52.7	3.8	1.49e+00	0	56	104	0	51	15698
2026-01-29 07:57:35.26	85.32	10.39	-40.2	-52.4	3.8	1.49e+00	0	56	104	0	51	15208
2026-01-29 07:57:36.27	85.18	10.45	-39.6	-52.5	3.7	1.49e+00	0	56	104	0	50	16309
2026-01-29 07:57:37.28	85.04	10.51	-39.9	-52.3	3.8	1.49e+00	0	56	104	0	50	15824
2026-01-29 07:57:38.29	84.89	10.56	-39.8	-52.5	3.8	1.49e+00	0	56	104	0	51	15285
2026-01-29 07:57:39.30	84.75	10.62	-40.0	-52.4	3.8	1.49e+00	0	56	104	0	51	15120
2026-01-29 07:57:40.31	84.60	10.68	-40.0	-52.2	3.8	1.49e+00	0	56	104	0	51	14852
2026-01-29 07:57:41.32	84.46	10.73	-40.2	-52.4	3.8	1.49e+00	0	56	104	0	51	15071
2026-01-29 07:57:42.33	84.31	10.79	-40.0	-52.3	3.8	1.49e+00	0	56	104	0	51	14904
2026-01-29 07:57:43.34	84.16	10.84	-40.3	-52.5	3.8	1.49e+00	0	56	104	0	51	15318
2026-01-29 07:57:44.35	84.02	10.90	-40.1	-52.3	3.8	1.49e+00	0	56	104	0	50	15864
2026-01-29 07:57:45.36	83.87	10.96	-40.2	-52.4	3.8	1.49e+00	0	56	104	0	50	16074
2026-01-29 07:57:46.37	83.72	11.01	-40.0	-52.4	3.8	1.49e+00	0	56	104	0	50	15973
2026-01-29 07:57:47.38	83.57	11.07	-40.3	-52.5	3.8	1.49e+00	0	56	104	0	51	15377
2026-01-29 07:57:48.39	83.42	11.12	-40.1	-52.3	3.8	1.49e+00	0	56	104	0	51	14905
2026-01-29 07:57:49.40	83.27	11.18	-40.1	-52.3	3.8	1.49e+00	0	56	104	0	51	14980
2026-01-29 07:57:50.41	83.12	11.23	-40.2	-52.5	3.8	1.49e+00	0	56	104	0	51	15226
2026-01-29 07:57:51.42	82.97	11.29	-40.1	-52.4	3.8	1.49e+00	0	56	104	0	51	15054
2026-01-29 07:57:52.43	82.82	11.34	-40.0	-52.2	3.8	1.49e+00	0	56	104	0	50	15690
2026-01-29 07:57:53.44	82.67	11.40	-40.1	-52.3	3.8	1.49e+00	0	56	104	0	50	15942
2026-01-29 07:57:54.46	82.51	11.46	-39.9	-52.3	3.8	1.49e+00	0	56	104	0	50	15898
2026-01-29 07:57:55.46	82.36	11.51	-40.2	-52.5	3.8	1.49e+00	0	56	104	0	51	15251
2026-01-29 07:57:56.47	82.20	11.57	-40.1	-52.3	3.8	1.49e+00	0	56	104	0	51	15038
2026-01-29 07:57:57.48	82.05	11.62	-40.2	-52.4	3.8	1.49e+00	0	56	104	0	51	15209
2026-01-29 07:57:58.49	81.89	11.68	-40.1	-52.4	3.8	1.49e+00	0	56	104	0	51	15139
2026-01-29 07:57:59.50	81.74	11.73	-40.3	-52.5	3.8	1.49e+00	0	56	104	0	51	15387
2026-01-29 07:58:00.51	81.58	11.79	-40.2	-52.4	3.8	1.49e+00	0	56	104	0	51	15103
2026-01-29 07:58:01.52	81.42	11.84	-40.2	-52.5	3.8	1.49e+00	0	56	104	0	51	15256
2026-01-29 07:58:02.53	81.27	11.89	-40.3	-52.5	3.8	1.49e+00	0	56	104	0	51	15303
2026-01-29 07:58:03.54	81.11	11.95	-40.3	-52.5	3.8	1.49e+00	0	56	104	0	51	15312
2026-01-29 07:58:04.55	80.95	12.00	-40.2	-52.4	3.8	1.49e+00	0	56	104	0	51	15221
2026-01-29 07:58:05.56	80.79	12.06	-40.2	-52.4	3.8	1.49e+00	0	56	104	0	51	15216
2026-01-29 07:58:06.57	80.63	12.11	-40.3	-52.5	3.8	1.49e+00	0	57	104	0	51	15346
2026-01-29 07:58:07.58	80.47	12.17	-40.4	-52.6	3.8	1.49e+00	0	56	104	0	51	15447
2026-01-29 07:58:08.59	80.31	12.22	-40.3	-52.5	3.8	1.49e+00	0	56	104	0	51	15248
2026-01-29 07:58:09.60	80.14	12.27	-40.4	-52.6	3.8	1.49e+00	0	56	104	0	51	15423
2026-01-29 07:58:10.61	79.98	12.33	-40.4	-52.6	3.8	1.49e+00	0	56	104	0	51	15573
2026-01-29 07:58:11.62	79.82	12.38	-40.4	-52.6	3.8	1.49e+00	0	56	104	0	51	15467
2026-01-29 07:58:12.63	79.65	12.44	-40.3	-52.5	3.8	1.49e+00	0	57	104	0	51	15328
2026-01-29 07:58:13.64	79.49	12.49	-40.4	-52.6	3.8	1.49e+00	0	57	104	0	51	15451
2026-01-29 07:58:14.65	79.33	12.54	-40.5	-52.7	3.8	1.49e+00	0	57	104	0	51	15708
2026-01-29 07:58:15.66	79.16	12.60	-40.3	-52.5	3.8	1.49e+00	0	57	104	0	52	14436
2026-01-29 07:58:16.67	78.99	12.65	-40.4	-52.6	3.8	1.49e+00	0	57	104	0	52	14621
2026-01-29 07:58:17.68	78.83	12.70	-40.1	-52.3	3.8	1.49e+00	0	56	104	0	52	14195
2026-01-29 07:58:18.68	78.66	12.75	-40.2	-52.4	3.8	1.49e+00	0	57	104	0	52	14326
2026-01-29 07:58:19.69	78.49	12.81	-40.3	-52.5	3.8	1.49e+00	0	57	104	0	52	14490
2026-01-29 07:58:20.70	78.32	12.86	-40.4	-52.6	3.8	1.49e+00	0	57	104	0	52	14666
2026-01-29 07:58:21.71	78.16	12.91	-40.6	-52.9	3.8	1.49e+00	0	57	104	0	52	15065
2026-01-29 07:58:22.72	77.99	12.96	-40.6	-52.8	3.8	1.49e+00	0	57	104	0	52	14953
2026-01-29 07:58:23.73	77.82	13.02	-40.7	-52.9	3.8	1.49e+00	0	57	104	0	52	15129
2026-01-29 07:58:24.74	77.64	13.07	-40.7	-52.8	3.8	1.49e+00	0	57	104	0	52	14966
2026-01-29 07:58:25.75	77.47	13.12	-40.5	-52.7	3.8	1.49e+00	0	57	104	0	52	14715
2026-01-29 07:58:26.76	77.30	13.17	-40.9	-53.0	3.8	1.49e+00	0	57	104	0	52	15270
2026-01-29 07:58:27.77	77.13	13.22	-40.8	-53.0	3.8	1.49e+00	0	57	104	0	52	15249
2026-01-29 07:58:28.78	76.95	13.28	-40.9	-53.1	3.8	1.49e+00	0	57	104	0	52	15411
2026-01-29 07:58:29.80	76.78	13.33	-40.6	-52.8	3.8	1.49e+00	0	57	104	0	52	14957
2026-01-29 07:58:30.81	76.60	13.38	-40.8	-52.8	3.8	1.49e+00	0	57	104	0	52	15001
2026-01-29 07:58:31.82	76.43	13.43	-40.9	-53.2	3.8	1.49e+00	0	57	104	0	52	15589
2026-01-29 07:58:32.83	76.25	13.48	-41.2	-53.3	3.8	1.49e+00	0	57	104	0	52	15881
2026-01-29 07:58:33.84	76.08	13.53	-40.7	-52.8	3.8	1.49e+00	0	57	104	0	53	14179
2026-01-29 07:58:34.85	75.90	13.58	-41.0	-52.7	3.8	1.49e+00	0	57	104	0	53	13932
2026-01-29 07:58:35.86	75.72	13.63	-41.2	-53.3	3.8	1.49e+00	0	57	104	0	53	15041
2026-01-29 07:58:36.87	75.54	13.68	-41.1	-52.9	3.8	1.49e+00	0	57	104	0	53	14314
2026-01-29 07:58:37.88	75.36	13.73	-41.0	-53.1	3.8	1.49e+00	0	57	104	0	53	14553
2026-01-29 07:58:38.90	75.18	13.78	-41.0	-52.3	3.8	1.49e+00	0	57	104	0	53	13301
2026-01-29 07:58:39.90	75.00	13.83	-40.9	-52.2	3.8	1.49e+00	0	57	104	0	53	13161
2026-01-29 07:58:40.92	74.82	13.88	-41.0	-52.2	3.8	1.49e+00	0	57	104	0	53	13140
2026-01-29 07:58:41.93	74.64	13.93	-41.3	-51.9	3.8	1.49e+00	0	57	104	0	53	12772
2026-01-29 07:58:42.94	74.46	13.98	-41.1	-51.4	3.9	1.49e+00	0	57	104	0	53	12069
2026-01-29 07:58:43.95	74.27	14.03	-40.9	-52.5	3.8	1.49e+00	0	57	104	0	53	13698
2026-01-29 07:58:44.96	74.09	14.08	-40.8	-51.1	3.8	1.49e+00	0	57	104	0	53	11604
2026-01-29 07:58:45.97	73.91	14.13	-41.0	-51.5	3.8	1.46e+00	0	57	104	0	53	12233
2026-01-29 07:58:46.98	73.72	14.18	-40.9	-49.8	4.2	1.47e+00	0	57	104	0	53	10052
2026-01-29 07:58:47.99	73.54	14.22	-40.8	-49.3	4.0	1.45e+00	0	57	104	0	53	9432
2026-01-29 07:58:49.00	73.35	14.27	-40.6	-48.8	4.5	1.13e+00	0	57	104	0	53	8952
2026-01-29 07:58:50.01	73.17	14.32	-40.3	-48.3	4.6	1.19e+00	2	57	104	0	52	8867
2026-01-29 07:58:51.02	72.98	14.37	-40.8	-49.6	4.3	1.26e+00	0	57	104	0	52	10378
2026-01-29 07:58:52.03	72.79	14.41	-40.6	-51.9	3.8	1.48e+00	0	57	104	0	52	13480
2026-01-29 07:58:53.03	72.61	14.46	-40.1	-47.2	5.2	1.08e+00	0	57	104	0	52	7865
2026-01-29 07:58:54.05	72.41	14.51	-40.7	-50.8	3.9	1.36e+00	0	57	104	2097152	52	11921
2026-01-29 07:58:55.06	72.23	14.56	-40.0	-47.0	5.3	6.01e-01	0	57	0	3145728	51	8147
2026-01-29 07:58:56.07	72.04	14.60	-39.9	-46.4	5.8	4.16e-01	0	57	0	5242880	51	7562
2026-01-29 07:58:57.07	71.85	14.65	-40.0	-46.5	5.8	3.64e-01	0	57	0	8388608	51	7689
2026-01-29 07:58:58.08	71.66	14.69	-40.0	-46.1	6.2	3.18e-01	0	57	0	11534336	51	7305
2026-01-29 07:58:59.09	71.46	14.74	-40.2	-46.5	5.9	3.33e-01	0	57	0	14680064	51	7708
2026-01-29 07:59:00.10	71.27	14.79	-40.3	-46.5	6.0	3.26e-01	0	57	0	18874368	51	7664
2026-01-29 07:59:01.11	71.08	14.83	-40.7	-47.2	5.7	4.64e-01	0	57	0	22020096	51	8365
2026-01-29 07:59:02.12	70.89	14.88	-40.6	-47.3	5.6	3.80e-01	0	57	0	25165824	51	8384
2026-01-29 07:59:03.13	70.69	14.92	-40.9	-49.6	4.3	1.47e+00	0	57	104	26214400	52	10373
2026-01-29 07:59:04.14	70.50	14.96	-40.3	-45.4	7.5	2.15e-01	0	57	0	27262976	52	6365
2026-01-29 07:59:05.15	70.30	15.01	-40.6	-47.8	5.1	3.36e-01	0	57	0	30408704	51	8899
2026-01-29 07:59:06.16	70.11	15.05	-40.3	-45.5	7.3	1.15e-01	0	57	0	33554432	51	6849
2026-01-29 07:59:07.18	69.91	15.10	-40.3	-45.5	7.4	1.29e-01	0	57	0	36700160	51	6802
2026-01-29 07:59:08.19	69.71	15.14	-39.9	-44.2	8.8	3.74e-02	0	57	0	39845888	51	5857
2026-01-29 07:59:09.20	69.51	15.18	-39.9	-44.0	9.1	2.28e-02	0	57	0	42991616	51	5747
2026-01-29 07:59:10.20	69.32	15.23	-39.7	-43.7	9.5	1.45e-02	0	57	0	46137344	51	5537
2026-01-29 07:59:11.21	69.12	15.27	-39.8	-43.7	9.6	1.25e-02	0	57	0	49283072	51	5557
2026-01-29 07:59:12.22	68.92	15.31	-39.8	-43.6	9.9	9.43e-03	0	57	0	52428800	51	5487
2026-01-29 07:59:13.23	68.72	15.35	-39.9	-43.5	10.1	9.20e-03	0	57	0	55574528	51	5459
2026-01-29 07:59:14.24	68.52	15.40	-39.9	-43.4	10.4	4.50e-03	0	57	0	58720256	51	5379
2026-01-29 07:59:15.25	68.32	15.44	-39.9	-43.3	10.7	3.17e-03	0	57	0	61865984	51	5325
2026-01-29 07:59:16.26	68.12	15.48	-40.0	-43.4	10.9	2.23e-03	0	57	0	65011712	51	5354
2026-01-29 07:59:17.28	67.91	15.52	-40.1	-43.4	10.9	2.53e-03	0	57	0	68157440	51	5378
2026-01-29 07:59:18.29	67.71	15.56	-40.0	-43.2	11.2	1.42e-03	0	57	0	71303168	51	5257
2026-01-29 07:59:19.30	67.51	15.60	-40.0	-43.1	11.4	1.07e-03	0	57	0	74448896	51	5181
2026-01-29 07:59:20.31	67.30	15.64	-39.9	-43.1	11.4	9.90e-04	0	57	0	77594624	51	5161
2026-01-29 07:59:21.31	67.10	15.68	-39.9	-42.9	11.6	6.90e-04	0	57	0	80740352	51	5066
2026-01-29 07:59:22.32	66.90	15.72	-39.9	-42.9	11.6	6.95e-04	0	58	0	83886080	51	5098
2026-01-29 07:59:23.34	66.69	15.76	-39.8	-42.7	11.9	3.98e-04	0	57	0	87031808	51	4942
2026-01-29 07:59:24.35	66.48	15.80	-39.7	-42.5	12.2	2.78e-04	0	57	0	90177536	51	4865
2026-01-29 07:59:25.35	66.28	15.84	-39.7	-42.4	12.4	1.80e-04	0	57	0	93323264	51	4787
2026-01-29 07:59:26.36	66.07	15.88	-39.8	-42.6	12.3	1.46e-04	0	57	0	96468992	51	4889
2026-01-29 07:59:27.37	65.86	15.91	-39.8	-42.6	12.2	2.27e-04	0	57	0	99614720	51	4915
2026-01-29 07:59:28.38	65.66	15.95	-39.8	-42.5	12.5	1.49e-04	0	57	0	102760448	51	4836
2026-01-29 07:59:29.39	65.45	15.99	-39.7	-42.4	12.7	9.91e-05	0	57	0	105906176	51	4776
2026-01-29 07:59:30.40	65.24	16.03	-39.8	-42.4	12.6	8.62e-05	0	57	0	109051904	51	4814
2026-01-29 07:59:31.41	65.03	16.06	-39.7	-42.3	12.8	7.85e-05	0	57	0	112197632	51	4713
2026-01-29 07:59:32.42	64.82	16.10	-39.7	-42.2	12.9	3.43e-05	0	57	0	115343360	51	4690
2026-01-29 07:59:33.44	64.61	16.14	-39.6	-42.1	13.0	4.19e-05	0	57	0	118489088	51	4627
2026-01-29 07:59:34.44	64.40	16.17	-39.6	-42.0	13.1	2.13e-05	0	58	0	121634816	51	4594
2026-01-29 07:59:35.46	64.18	16.21	-39.5	-42.0	13.1	2.89e-05	0	57	0	124780544	51	4582
2026-01-29 07:59:36.47	63.97	16.24	-39.6	-42.1	13.0	3.50e-05	0	58	0	127926272	51	4649
2026-01-29 07:59:37.48	63.76	16.28	-39.6	-42.1	13.1	3.28e-05	0	57	0	131072000	51	4604
2026-01-29 07:59:38.49	63.55	16.31	-39.5	-42.0	13.3	2.28e-05	0	58	0	134217728	51	4561
2026-01-29 07:59:39.50	63.33	16.34	-39.7	-42.1	13.1	2.51e-05	0	58	0	137363456	51	4644
2026-01-29 07:59:40.51	63.12	16.38	-39.7	-42.2	13.1	2.89e-05	0	57	0	140509184	51	4656
2026-01-29 07:59:41.52	62.90	16.41	-39.7	-42.1	13.2	2.28e-05	0	58	0	143654912	51	4642
2026-01-29 07:59:42.53	62.69	16.44	-39.7	-42.2	13.1	3.12e-05	0	57	0	146800640	51	4682
2026-01-29 07:59:43.54	62.47	16.48	-39.9	-42.4	12.9	5.03e-05	0	57	0	149946368	51	4803
2026-01-29 07:59:44.55	62.26	16.51	-39.9	-42.5	12.9	3.81e-05	0	58	0	153092096	51	4830
2026-01-29 07:59:45.56	62.04	16.54	-39.9	-42.4	12.9	4.34e-05	0	57	0	156237824	51	4796
2026-01-29 07:59:46.57	61.82	16.57	-39.9	-42.5	12.9	4.11e-05	0	57	0	159383552	51	4824
2026-01-29 07:59:47.58	61.61	16.60	-39.9	-42.5	12.9	5.49e-05	0	58	0	162529280	51	4849
2026-01-29 07:59:48.59	61.39	16.63	-39.9	-42.5	12.9	5.56e-05	0	58	0	165675008	51	4834
2026-01-29 07:59:49.60	61.17	16.66	-39.9	-42.5	12.9	5.26e-05	0	57	0	168820736	51	4840
2026-01-29 07:59:50.61	60.95	16.69	-39.8	-42.4	13.0	2.59e-05	0	58	0	171966464	51	4766
2026-01-29 07:59:51.62	60.73	16.72	-39.8	-42.3	13.1	2.89e-05	0	58	0	175112192	51	4737
2026-01-29 07:59:52.63	60.51	16.75	-39.8	-42.3	13.1	2.67e-05	0	58	0	178257920	51	4754
2026-01-29 07:59:53.65	60.29	16.78	-39.8	-42.3	13.1	3.28e-05	0	57	0	181403648	51	4730
2026-01-29 07:59:54.66	60.07	16.81	-39.9	-42.4	13.0	2.13e-05	0	58	0	184549376	51	4775
2026-01-29 07:59:55.67	59.85	16.84	-39.8	-42.3	13.2	3.35e-05	0	57	0	187695104	51	4706
2026-01-29 07:59:56.68	59.63	16.87	-39.7	-42.2	13.2	2.59e-05	0	57	0	190840832	51	4668
2026-01-29 07:59:57.69	59.41	16.89	-39.7	-42.1	13.3	2.13e-05	0	58	0	193986560	51	4640
2026-01-29 07:59:58.70	59.19	16.92	-39.7	-42.1	13.3	1.60e-05	0	58	0	197132288	51	4629
2026-01-29 07:59:59.71	58.96	16.94	-39.7	-42.1	13.3	1.22e-05	0	57	0	200278016	51	4634
2026-01-29 08:00:00.72	58.74	16.97	-39.7	-42.1	13.3	1.22e-05	0	58	0	203423744	51	4628
2026-01-29 08:00:01.73	58.52	17.00	-39.7	-42.1	13.4	1.60e-05	0	57	0	206569472	51	4614
2026-01-29 08:00:02.74	58.30	17.02	-39.6	-42.0	13.4	1.44e-05	0	57	0	209715200	51	4576
2026-01-29 08:00:03.75	58.07	17.05	-39.6	-42.0	13.5	7.60e-06	0	58	0	212860928	51	4565
2026-01-29 08:00:04.76	57.85	17.07	-39.7	-42.1	13.4	1.06e-05	0	58	0	216006656	51	4609
2026-01-29 08:00:05.77	57.62	17.09	-39.7	-42.1	13.3	1.67e-05	0	58	0	219152384	51	4636
2026-01-29 08:00:06.78	57.40	17.12	-39.7	-42.1	13.3	1.83e-05	0	57	0	222298112	51	4629
2026-01-29 08:00:07.79	57.17	17.14	-39.6	-42.0	13.4	1.06e-05	0	57	0	225443840	51	4589
2026-01-29 08:00:08.80	56.95	17.16	-39.7	-42.0	13.4	8.30e-06	0	58	0	228589568	51	4598
2026-01-29 08:00:09.81	56.72	17.18	-39.6	-42.0	13.5	7.60e-06	0	58	0	231735296	51	4585
2026-01-29 08:00:10.82	56.50	17.21	-39.7	-42.1	13.3	1.75e-05	0	57	0	234881024	51	4642
2026-01-29 08:00:11.83	56.27	17.23	-39.8	-42.3	13.2	2.36e-05	0	58	0	238026752	51	4746
2026-01-29 08:00:12.84	56.04	17.25	-39.9	-42.4	13.1	1.90e-05	0	58	0	241172480	51	4776
2026-01-29 08:00:13.85	55.81	17.27	-39.9	-42.4	13.0	3.20e-05	0	58	0	245366784	51	4813
2026-01-29 08:00:14.87	55.58	17.29	-39.9	-42.5	13.0	3.12e-05	0	58	0	248512512	51	4840
2026-01-29 08:00:15.87	55.36	17.31	-39.9	-42.5	13.0	3.89e-05	0	58	0	251658240	51	4829
2026-01-29 08:00:16.89	55.13	17.33	-40.0	-42.5	13.0	2.74e-05	0	58	0	253755392	51	4839
2026-01-29 08:00:17.90	54.90	17.34	-39.9	-42.4	13.1	2.51e-05	0	58	0	256901120	51	4793
2026-01-29 08:00:18.91	54.67	17.36	-39.8	-42.2	13.3	2.13e-05	0	58	0	261095424	51	4695
2026-01-29 08:00:19.92	54.44	17.38	-39.7	-42.1	13.4	1.67e-05	0	58	0	264241152	51	4625
2026-01-29 08:00:20.93	54.21	17.40	-39.8	-42.2	13.4	1.83e-05	0	58	0	267386880	51	4662
2026-01-29 08:00:21.94	53.98	17.41	-39.7	-42.1	13.4	1.98e-05	0	57	0	270532608	51	4643
2026-01-29 08:00:22.95	53.76	17.43	-39.7	-42.1	13.4	1.44e-05	0	58	0	273678336	51	4636
2026-01-29 08:00:23.96	53.53	17.45	-39.7	-42.2	13.3	1.60e-05	0	58	0	276824064	51	4657
2026-01-29 08:00:24.97	53.30	17.46	-39.7	-42.2	13.3	1.44e-05	0	57	0	279969792	51	4655
2026-01-29 08:00:25.98	53.06	17.48	-39.8	-42.3	13.2	1.90e-05	0	57	0	283115520	51	4722
2026-01-29 08:00:26.99	52.83	17.49	-39.8	-42.2	13.3	1.60e-05	0	58	0	286261248	51	4682
2026-01-29 08:00:28.00	52.60	17.50	-39.8	-42.2	13.3	1.44e-05	0	58	0	289406976	51	4684
2026-01-29 08:00:29.01	52.37	17.52	-39.8	-42.2	13.4	1.83e-05	0	58	0	292552704	51	4668
2026-01-29 08:00:30.02	52.14	17.53	-39.8	-42.2	13.3	2.13e-05	0	58	0	295698432	51	4686
2026-01-29 08:00:31.03	51.91	17.54	-39.8	-42.2	13.3	2.13e-05	0	58	0	298844160	51	4690
2026-01-29 08:00:32.04	51.68	17.55	-39.8	-42.2	13.3	1.22e-05	0	58	0	301989888	51	4675
2026-01-29 08:00:33.05	51.45	17.57	-39.8	-42.2	13.4	1.37e-05	0	58	0	305135616	51	4666
2026-01-29 08:00:34.06	51.22	17.58	-39.8	-42.2	13.3	1.22e-05	0	58	0	308281344	51	4675
2026-01-29 08:00:35.07	50.98	17.59	-39.8	-42.2	13.3	1.60e-05	0	58	0	311427072	51	4689
2026-01-29 08:00:36.08	50.75	17.60	-39.9	-42.3	13.2	1.67e-05	0	58	0	314572800	51	4731
2026-01-29 08:00:37.09	50.52	17.61	-39.9	-42.3	13.2	2.44e-05	0	58	0	317718528	51	4755
2026-01-29 08:00:38.10	50.29	17.62	-39.9	-42.4	13.2	2.44e-05	0	58	0	320864256	51	4764
2026-01-29 08:00:39.11	50.05	17.62	-40.0	-42.5	13.0	3.50e-05	0	58	0	324009984	51	4844
2026-01-29 08:00:40.12	49.82	17.63	-40.0	-42.5	13.0	3.58e-05	0	58	0	327155712	51	4849
2026-01-29 08:00:41.13	49.59	17.64	-39.9	-42.4	13.1	3.12e-05	0	58	0	330301440	51	4808
2026-01-29 08:00:42.14	49.35	17.65	-39.9	-42.4	13.1	2.36e-05	0	58	0	333447168	51	4802
2026-01-29 08:00:43.15	49.12	17.65	-39.9	-42.3	13.2	2.67e-05	0	58	0	336592896	51	4745
2026-01-29 08:00:44.17	48.89	17.66	-39.9	-42.3	13.3	2.05e-05	0	58	0	339738624	51	4728
2026-01-29 08:00:45.18	48.65	17.67	-39.8	-42.2	13.4	1.67e-05	0	58	0	342884352	51	4652
2026-01-29 08:00:46.18	48.42	17.67	-39.7	-42.0	13.6	1.29e-05	0	58	0	346030080	51	4578
2026-01-29 08:00:47.19	48.19	17.68	-39.6	-42.0	13.6	9.10e-06	0	58	0	349175808	51	4555
2026-01-29 08:00:48.21	47.95	17.68	-39.6	-41.9	13.7	8.30e-06	0	58	0	352321536	51	4515
2026-01-29 08:00:49.22	47.72	17.68	-39.6	-41.9	13.7	9.10e-06	0	58	0	355467264	51	4527
2026-01-29 08:00:50.23	47.49	17.69	-39.6	-42.0	13.6	9.90e-06	0	58	0	358612992	51	4558
2026-01-29 08:00:51.23	47.25	17.69	-39.6	-42.0	13.6	9.10e-06	0	58	0	361758720	51	4551
2026-01-29 08:00:52.24	47.02	17.69	-39.6	-42.0	13.6	8.30e-06	0	58	0	364904448	51	4554
2026-01-29 08:00:53.25	46.79	17.69	-39.6	-41.9	13.7	8.30e-06	0	58	0	368050176	51	4526
2026-01-29 08:00:54.26	46.55	17.70	-39.6	-41.9	13.7	5.30e-06	0	58	0	371195904	51	4528
2026-01-29 08:00:55.27	46.32	17.70	-39.6	-41.9	13.7	6.80e-06	0	58	0	374341632	51	4522
2026-01-29 08:00:56.28	46.09	17.70	-39.6	-41.9	13.7	6.80e-06	0	58	0	377487360	51	4499
2026-01-29 08:00:57.29	45.85	17.70	-39.6	-41.9	13.7	3.00e-06	0	58	0	380633088	51	4497
2026-01-29 08:00:58.30	45.62	17.70	-39.6	-41.9	13.7	7.60e-06	0	58	0	383778816	51	4496
2026-01-29 08:00:59.31	45.38	17.69	-39.6	-41.9	13.7	5.30e-06	0	58	0	386924544	51	4521
2026-01-29 08:01:00.32	45.15	17.69	-39.6	-42.0	13.6	1.14e-05	0	58	0	390070272	51	4554
2026-01-29 08:01:01.33	44.92	17.69	-39.6	-42.0	13.6	6.80e-06	0	58	0	393216000	51	4561
2026-01-29 08:01:02.34	44.68	17.69	-39.7	-42.0	13.6	1.06e-05	0	58	0	396361728	51	4578
2026-01-29 08:01:03.35	44.45	17.69	-39.7	-42.0	13.6	8.30e-06	0	58	0	399507456	51	4565
2026-01-29 08:01:04.36	44.22	17.68	-39.7	-42.0	13.6	9.10e-06	0	58	0	402653184	51	4593
2026-01-29 08:01:05.37	43.98	17.68	-39.7	-42.0	13.6	1.06e-05	0	58	0	405798912	51	4584
2026-01-29 08:01:06.38	43.75	17.67	-39.6	-42.0	13.6	2.20e-06	0	58	0	408944640	51	4552
2026-01-29 08:01:07.39	43.52	17.67	-39.6	-41.9	13.7	5.30e-06	0	58	0	412090368	51	4517
2026-01-29 08:01:08.40	43.28	17.66	-39.6	-41.9	13.7	8.30e-06	0	58	0	415236096	51	4509
2026-01-29 08:01:09.41	43.05	17.66	-39.6	-42.0	13.6	7.60e-06	0	58	0	418381824	51	4563
2026-01-29 08:01:10.42	42.82	17.65	-39.7	-42.0	13.5	1.37e-05	0	58	0	421527552	51	4597
2026-01-29 08:01:11.42	42.59	17.64	-39.8	-42.1	13.4	8.30e-06	0	58	0	424673280	51	4651
2026-01-29 08:01:12.43	42.35	17.64	-39.7	-42.1	13.5	1.22e-05	0	58	0	427819008	51	4609
2026-01-29 08:01:13.44	42.12	17.63	-39.7	-42.0	13.6	8.30e-06	0	58	0	430964736	51	4583
2026-01-29 08:01:14.45	41.89	17.62	-39.6	-42.0	13.6	8.30e-06	0	58	0	434110464	51	4562
2026-01-29 08:01:15.46	41.66	17.61	-39.6	-42.0	13.6	9.10e-06	0	58	0	437256192	51	4555
2026-01-29 08:01:16.47	41.42	17.60	-39.7	-42.0	13.6	1.06e-05	0	58	0	440401920	51	4583
2026-01-29 08:01:17.48	41.19	17.59	-39.7	-42.1	13.5	5.30e-06	0	58	0	443547648	51	4604
2026-01-29 08:01:18.49	40.96	17.58	-39.7	-42.0	13.6	9.10e-06	0	58	0	446693376	51	4591
2026-01-29 08:01:19.50	40.73	17.57	-39.8	-42.1	13.5	1.67e-05	0	58	0	449839104	51	4632
2026-01-29 08:01:20.51	40.50	17.56	-39.8	-42.2	13.4	1.22e-05	0	58	0	452984832	51	4685
2026-01-29 08:01:21.52	40.27	17.55	-39.8	-42.2	13.4	8.30e-06	0	58	0	456130560	51	4699
2026-01-29 08:01:22.53	40.03	17.53	-39.9	-42.3	13.3	2.13e-05	0	58	0	459276288	51	4740
2026-01-29 08:01:23.54	39.80	17.52	-39.9	-42.3	13.3	1.29e-05	0	58	0	462422016	51	4725
2026-01-29 08:01:24.55	39.57	17.51	-39.9	-42.3	13.3	1.90e-05	0	58	0	465567744	51	4754
2026-01-29 08:01:25.56	39.34	17.50	-40.0	-42.5	13.1	3.28e-05	0	58	0	468713472	51	4818
2026-01-29 08:01:26.57	39.11	17.48	-40.0	-42.5	13.1	2.44e-05	0	58	0	471859200	51	4844
2026-01-29 08:01:27.57	38.88	17.47	-40.0	-42.5	13.0	3.05e-05	0	58	0	475004928	51	4867
2026-01-29 08:01:28.59	38.65	17.45	-39.9	-42.4	13.1	3.43e-05	0	58	0	478150656	51	4804
2026-01-29 08:01:29.60	38.42	17.44	-39.9	-42.3	13.3	2.13e-05	0	58	0	481296384	51	4745
2026-01-29 08:01:30.61	38.19	17.42	-39.9	-42.3	13.3	2.89e-05	0	58	0	484442112	51	4757
2026-01-29 08:01:31.62	37.96	17.40	-39.9	-42.3	13.2	1.60e-05	0	58	0	487587840	51	4757
2026-01-29 08:01:32.62	37.74	17.39	-39.8	-42.2	13.3	1.83e-05	0	58	0	490733568	51	4687
2026-01-29 08:01:33.63	37.51	17.37	-39.8	-42.1	13.4	1.29e-05	0	58	0	493879296	51	4644
2026-01-29 08:01:34.64	37.28	17.35	-39.7	-42.1	13.5	4.50e-06	0	58	0	497025024	51	4613
2026-01-29 08:01:35.65	37.05	17.33	-39.8	-42.2	13.4	1.44e-05	0	58	0	500170752	51	4658
2026-01-29 08:01:36.66	36.82	17.31	-39.8	-42.2	13.3	1.44e-05	0	58	0	503316480	51	4703
2026-01-29 08:01:37.67	36.60	17.30	-39.9	-42.3	13.3	1.60e-05	0	58	0	506462208	51	4727
2026-01-29 08:01:38.68	36.37	17.28	-39.8	-42.2	13.4	1.67e-05	0	58	0	509607936	51	4694
2026-01-29 08:01:39.69	36.14	17.26	-39.8	-42.2	13.4	1.44e-05	0	58	0	512753664	51	4698
2026-01-29 08:01:40.70	35.92	17.24	-39.7	-42.1	13.4	1.14e-05	0	58	0	515899392	51	4645
2026-01-29 08:01:41.71	35.69	17.21	-39.7	-42.1	13.5	8.30e-06	0	58	0	519045120	51	4615
2026-01-29 08:01:42.72	35.46	17.19	-39.7	-42.1	13.5	1.52e-05	0	58	0	522190848	51	4609
2026-01-29 08:01:43.73	35.24	17.17	-39.7	-42.1	13.4	1.22e-05	0	58	0	525336576	51	4641
2026-01-29 08:01:44.74	35.01	17.15	-39.7	-42.1	13.5	1.06e-05	0	58	0	528482304	51	4628
2026-01-29 08:01:45.75	34.79	17.13	-39.7	-42.0	13.5	9.90e-06	0	58	0	531628032	51	4564
2026-01-29 08:01:46.76	34.56	17.10	-39.6	-42.0	13.6	4.50e-06	0	58	0	534773760	51	4557
2026-01-29 08:01:47.77	34.34	17.08	-39.6	-41.9	13.7	6.80e-06	0	58	0	537919488	51	4517
2026-01-29 08:01:48.77	34.12	17.06	-39.6	-41.9	13.6	9.10e-06	0	58	0	541065216	51	4533
2026-01-29 08:01:49.78	33.89	17.03	-39.7	-42.0	13.6	6.80e-06	0	58	0	544210944	51	4578
2026-01-29 08:01:50.80	33.67	17.01	-39.7	-42.1	13.5	7.60e-06	0	58	0	547356672	51	4618
2026-01-29 08:01:51.81	33.44	16.98	-39.7	-42.1	13.4	1.67e-05	0	58	0	550502400	51	4649
2026-01-29 08:01:52.82	33.22	16.96	-39.7	-42.1	13.4	1.14e-05	0	58	0	553648128	51	4644
2026-01-29 08:01:53.83	33.00	16.93	-39.8	-42.2	13.4	1.67e-05	0	58	0	556793856	51	4662
2026-01-29 08:01:54.83	32.78	16.90	-39.7	-42.2	13.3	1.37e-05	0	58	0	559939584	51	4693
2026-01-29 08:01:55.85	32.56	16.88	-39.8	-42.2	13.3	1.22e-05	0	58	0	563085312	51	4679
2026-01-29 08:01:56.86	32.34	16.85	-39.7	-42.1	13.4	1.52e-05	0	58	0	567279616	51	4639
2026-01-29 08:01:57.87	32.12	16.82	-39.6	-41.9	13.6	9.90e-06	0	58	0	569376768	51	4539
2026-01-29 08:01:58.88	31.90	16.79	-39.6	-41.9	13.7	3.00e-06	0	58	0	572522496	51	4507
2026-01-29 08:01:59.89	31.68	16.77	-39.6	-41.9	13.7	1.06e-05	0	58	0	575668224	51	4520
2026-01-29 08:02:00.89	31.46	16.74	-39.6	-41.9	13.6	6.80e-06	0	58	0	578813952	51	4531
2026-01-29 08:02:01.90	31.24	16.71	-39.7	-42.1	13.5	1.29e-05	0	58	0	583008256	51	4599
2026-01-29 08:02:02.91	31.02	16.68	-39.7	-42.1	13.5	9.90e-06	0	58	0	586153984	51	4601
2026-01-29 08:02:03.92	30.80	16.65	-39.7	-42.0	13.5	1.60e-05	0	58	0	589299712	51	4584
2026-01-29 08:02:04.93	30.59	16.62	-39.6	-42.0	13.6	1.29e-05	0	58	0	591396864	51	4549
2026-01-29 08:02:05.94	30.37	16.59	-39.6	-41.9	13.6	6.10e-06	0	58	0	594542592	51	4532
2026-01-29 08:02:06.96	30.15	16.55	-39.6	-42.0	13.6	6.80e-06	0	58	0	598736896	51	4548
2026-01-29 08:02:07.97	29.94	16.52	-39.6	-42.0	13.6	9.90e-06	0	58	0	601882624	51	4566
2026-01-29 08:02:08.98	29.72	16.49	-39.7	-42.1	13.4	1.14e-05	0	58	0	605028352	51	4616
2026-01-29 08:02:09.98	29.51	16.46	-39.7	-42.1	13.4	1.52e-05	0	58	0	608174080	51	4613
2026-01-29 08:02:10.99	29.29	16.43	-39.7	-42.1	13.4	1.60e-05	0	58	0	611319808	51	4611
2026-01-29 08:02:12.00	29.08	16.39	-39.7	-42.1	13.4	1.14e-05	0	58	0	614465536	51	4618
2026-01-29 08:02:13.01	28.86	16.36	-39.8	-42.2	13.3	1.67e-05	0	58	0	617611264	51	4661
2026-01-29 08:02:14.02	28.65	16.33	-39.7	-42.1	13.4	1.29e-05	0	58	0	620756992	51	4633
2026-01-29 08:02:15.04	28.44	16.29	-39.7	-42.1	13.3	1.90e-05	0	58	0	623902720	51	4641
2026-01-29 08:02:16.05	28.22	16.26	-39.7	-42.2	13.4	2.28e-05	0	58	0	627048448	51	4654
2026-01-29 08:02:17.06	28.01	16.22	-39.8	-42.2	13.3	1.22e-05	0	58	0	630194176	51	4668
2026-01-29 08:02:18.07	27.80	16.19	-39.8	-42.2	13.3	1.83e-05	0	58	0	633339904	51	4676
2026-01-29 08:02:19.08	27.59	16.15	-39.8	-42.2	13.3	1.22e-05	0	58	0	636485632	51	4676
2026-01-29 08:02:20.09	27.38	16.12	-39.7	-42.1	13.4	1.29e-05	0	58	0	639631360	51	4625
2026-01-29 08:02:21.10	27.17	16.08	-39.7	-42.0	13.4	1.52e-05	0	58	0	642777088	51	4591
2026-01-29 08:02:22.11	26.96	16.04	-39.5	-41.8	13.6	8.30e-06	0	58	0	645922816	51	4490
2026-01-29 08:02:23.12	26.75	16.01	-39.5	-41.8	13.7	9.10e-06	0	58	0	649068544	51	4451
2026-01-29 08:02:24.13	26.55	15.97	-39.5	-41.8	13.6	8.30e-06	0	58	0	652214272	50	4755
2026-01-29 08:02:25.14	26.34	15.93	-39.5	-41.8	13.7	6.10e-06	0	58	0	655360000	50	4745
2026-01-29 08:02:26.14	26.13	15.90	-39.6	-41.9	13.6	6.10e-06	0	58	0	658505728	50	4779
2026-01-29 08:02:27.16	25.92	15.86	-39.6	-41.9	13.5	1.06e-05	0	58	0	661651456	50	4811
2026-01-29 08:02:28.16	25.72	15.82	-39.6	-42.0	13.4	1.29e-05	0	58	0	664797184	50	4856
2026-01-29 08:02:29.18	25.51	15.78	-39.7	-42.1	13.4	1.29e-05	0	58	0	667942912	50	4886
2026-01-29 08:02:30.19	25.31	15.74	-39.7	-42.1	13.3	2.28e-05	0	58	0	671088640	50	4920
2026-01-29 08:02:31.20	25.10	15.70	-39.8	-42.2	13.2	2.13e-05	0	58	0	674234368	50	4970
2026-01-29 08:02:32.21	24.90	15.66	-39.8	-42.3	13.1	2.89e-05	0	58	0	677380096	50	5027
2026-01-29 08:02:33.22	24.70	15.62	-39.8	-42.3	13.1	2.36e-05	0	58	0	680525824	50	5027
2026-01-29 08:02:34.23	24.49	15.58	-39.8	-42.2	13.2	2.13e-05	0	58	0	683671552	50	4967
2026-01-29 08:02:35.24	24.29	15.54	-39.7	-42.0	13.4	1.37e-05	0	58	0	686817280	50	4860
2026-01-29 08:02:36.25	24.09	15.50	-39.6	-41.9	13.5	9.10e-06	0	58	0	689963008	50	4809
2026-01-29 08:02:37.25	23.89	15.46	-39.5	-41.9	13.5	1.52e-05	0	58	0	693108736	50	4791
2026-01-29 08:02:38.26	23.69	15.42	-39.6	-42.0	13.4	9.10e-06	0	58	0	696254464	50	4828
2026-01-29 08:02:39.28	23.49	15.38	-39.7	-42.1	13.3	1.83e-05	0	58	0	699400192	50	4889
2026-01-29 08:02:40.29	23.29	15.33	-39.7	-42.1	13.3	2.05e-05	0	58	0	702545920	50	4908
2026-01-29 08:02:41.30	23.09	15.29	-39.8	-42.2	13.2	2.28e-05	0	58	0	705691648	50	4979
2026-01-29 08:02:42.31	22.89	15.25	-39.8	-42.4	13.0	2.44e-05	0	58	0	708837376	50	5053
2026-01-29 08:02:43.32	22.70	15.21	-40.0	-42.6	12.8	4.80e-05	0	58	0	711983104	50	5160
2026-01-29 08:02:44.33	22.50	15.16	-40.0	-42.6	12.8	5.41e-05	0	58	0	715128832	50	5179
2026-01-29 08:02:45.33	22.30	15.12	-40.0	-42.6	12.8	6.56e-05	0	58	0	718274560	50	5189
2026-01-29 08:02:46.34	22.11	15.08	-40.0	-42.7	12.7	6.71e-05	0	58	0	721420288	50	5245
2026-01-29 08:02:47.35	21.91	15.03	-40.0	-42.6	12.8	6.40e-05	0	58	0	724566016	50	5164
2026-01-29 08:02:48.37	21.72	14.99	-39.9	-42.5	12.8	6.48e-05	0	58	0	727711744	50	5141
2026-01-29 08:02:49.38	21.52	14.94	-40.0	-42.5	12.8	6.40e-05	0	58	0	730857472	50	5154
2026-01-29 08:02:50.39	21.33	14.90	-39.9	-42.5	12.8	6.02e-05	0	58	0	734003200	50	5133
2026-01-29 08:02:51.40	21.14	14.85	-40.0	-42.7	12.7	7.85e-05	0	58	0	737148928	50	5227
2026-01-29 08:02:52.41	20.94	14.81	-40.0	-42.7	12.7	7.85e-05	0	58	0	740294656	50	5226
2026-01-29 08:02:53.42	20.75	14.76	-40.1	-42.7	12.6	8.92e-05	0	58	0	743440384	50	5260
2026-01-29 08:02:54.43	20.56	14.72	-40.1	-42.8	12.5	1.07e-04	0	58	0	746586112	50	5299
2026-01-29 08:02:55.44	20.37	14.67	-40.1	-42.7	12.6	1.04e-04	0	58	0	749731840	50	5270
2026-01-29 08:02:56.45	20.18	14.63	-40.0	-42.7	12.6	7.78e-05	0	58	0	752877568	50	5233
2026-01-29 08:02:57.46	19.99	14.58	-40.0	-42.7	12.7	7.85e-05	0	58	0	756023296	50	5230
2026-01-29 08:02:58.47	19.80	14.53	-40.0	-42.7	12.6	9.68e-05	0	58	0	759169024	50	5251
2026-01-29 08:02:59.48	19.61	14.49	-40.0	-42.6	12.7	8.01e-05	0	58	0	762314752	50	5184
2026-01-29 08:03:00.49	19.43	14.44	-39.9	-42.5	12.8	5.95e-05	0	58	0	765460480	50	5134
2026-01-29 08:03:01.50	19.24	14.39	-39.9	-42.5	12.8	5.72e-05	0	58	0	768606208	50	5126
2026-01-29 08:03:02.51	19.05	14.35	-39.9	-42.5	12.8	6.56e-05	0	58	0	771751936	50	5129
2026-01-29 08:03:03.52	18.87	14.30	-40.0	-42.6	12.8	6.86e-05	0	58	0	774897664	50	5163
2026-01-29 08:03:04.53	18.68	14.25	-40.0	-42.6	12.7	6.25e-05	0	58	0	778043392	50	5184
2026-01-29 08:03:05.54	18.50	14.20	-40.1	-42.7	12.6	9.91e-05	0	58	0	781189120	50	5258
2026-01-29 08:03:06.55	18.31	14.15	-40.1	-42.7	12.6	9.00e-05	0	58	0	784334848	50	5268
2026-01-29 08:03:07.56	18.13	14.11	-40.1	-42.8	12.5	1.14e-04	0	58	0	787480576	50	5322
2026-01-29 08:03:08.57	17.95	14.06	-40.2	-43.0	12.3	1.67e-04	0	58	0	790626304	50	5406
2026-01-29 08:03:09.58	17.77	14.01	-40.2	-42.9	12.4	1.58e-04	0	58	0	793772032	51	5077
2026-01-29 08:03:10.59	17.58	13.96	-40.2	-42.9	12.3	1.34e-04	0	58	0	796917760	51	5095
2026-01-29 08:03:11.60	17.40	13.91	-40.2	-42.9	12.4	1.59e-04	0	58	0	800063488	51	5065
2026-01-29 08:03:12.61	17.22	13.86	-40.2	-42.9	12.4	1.70e-04	0	58	0	803209216	51	5082
2026-01-29 08:03:13.62	17.04	13.81	-40.2	-42.9	12.4	1.72e-04	0	58	0	806354944	51	5065
2026-01-29 08:03:14.63	16.86	13.76	-40.0	-42.7	12.6	1.18e-04	0	58	0	809500672	51	4966
2026-01-29 08:03:15.64	16.69	13.71	-40.0	-42.6	12.6	9.00e-05	0	58	0	812646400	51	4926
2026-01-29 08:03:16.65	16.51	13.66	-39.9	-42.6	12.7	7.70e-05	0	58	0	815792128	51	4881
2026-01-29 08:03:17.66	16.33	13.61	-39.9	-42.6	12.7	8.62e-05	0	58	0	818937856	51	4889
2026-01-29 08:03:18.67	16.15	13.56	-40.0	-42.7	12.6	1.05e-04	0	58	0	822083584	51	4942
2026-01-29 08:03:19.68	15.98	13.51	-40.0	-42.7	12.5	1.07e-04	0	58	0	825229312	51	4961
2026-01-29 08:03:20.69	15.80	13.46	-40.1	-42.8	12.5	1.24e-04	0	58	0	828375040	51	5016
2026-01-29 08:03:21.70	15.63	13.41	-40.2	-42.9	12.3	1.63e-04	0	58	0	831520768	51	5086
2026-01-29 08:03:22.72	15.45	13.36	-40.1	-42.9	12.4	1.54e-04	0	58	0	834666496	51	5056
2026-01-29 08:03:23.73	15.28	13.31	-40.1	-42.8	12.4	1.39e-04	0	58	0	837812224	51	5021
2026-01-29 08:03:24.74	15.11	13.26	-40.0	-42.6	12.6	1.06e-04	0	58	0	840957952	51	4921
2026-01-29 08:03:25.75	14.93	13.20	-39.9	-42.6	12.6	9.61e-05	0	58	0	844103680	51	4886
2026-01-29 08:03:26.76	14.76	13.15	-39.9	-42.5	12.7	8.23e-05	0	58	0	847249408	51	4868
2026-01-29 08:03:27.77	14.59	13.10	-39.9	-42.6	12.6	1.03e-04	0	58	0	850395136	51	4897
2026-01-29 08:03:28.78	14.42	13.05	-40.0	-42.6	12.5	1.22e-04	0	58	0	853540864	51	4914
2026-01-29 08:03:29.79	14.25	13.00	-39.9	-42.6	12.5	9.91e-05	0	58	0	856686592	51	4897
2026-01-29 08:03:30.80	14.08	12.94	-40.0	-42.7	12.5	1.16e-04	0	58	0	859832320	51	4928
2026-01-29 08:03:31.81	13.91	12.89	-39.9	-42.7	12.5	1.15e-04	0	58	0	862978048	51	4927
2026-01-29 08:03:32.82	13.74	12.84	-40.0	-42.7	12.4	1.39e-04	0	58	0	866123776	51	4968
2026-01-29 08:03:33.83	13.58	12.79	-40.0	-42.7	12.4	1.44e-04	0	58	0	869269504	51	4954
2026-01-29 08:03:34.84	13.41	12.73	-40.0	-42.7	12.4	1.40e-04	0	58	0	872415232	51	4958
2026-01-29 08:03:35.85	13.24	12.68	-40.0	-42.8	12.3	1.78e-04	0	58	0	876609536	51	4993
2026-01-29 08:03:36.86	13.08	12.63	-40.0	-42.7	12.3	1.98e-04	0	58	0	879755264	51	4979
2026-01-29 08:03:37.87	12.91	12.58	-40.0	-42.8	12.3	1.98e-04	0	58	0	882900992	51	4999
2026-01-29 08:03:38.88	12.75	12.52	-40.1	-42.9	12.1	2.94e-04	0	58	0	884998144	51	5085
2026-01-29 08:03:39.89	12.59	12.47	-40.1	-43.0	12.0	3.33e-04	0	58	0	888143872	51	5109
2026-01-29 08:03:40.90	12.42	12.42	-40.2	-43.1	11.8	4.41e-04	0	58	0	891289600	51	5194
2026-01-29 08:03:41.91	12.26	12.36	-40.1	-43.2	11.6	5.78e-04	0	58	0	895483904	51	5223
2026-01-29 08:03:42.92	12.10	12.31	-40.2	-43.3	11.4	7.79e-04	0	58	0	898629632	51	5309
2026-01-29 08:03:43.93	11.94	12.26	-40.2	-43.4	11.2	1.21e-03	0	58	0	901775360	51	5363
2026-01-29 08:03:44.94	11.78	12.20	-40.1	-43.3	11.3	1.31e-03	0	58	0	904921088	51	5312
2026-01-29 08:03:45.95	11.62	12.15	-40.1	-43.2	11.3	1.18e-03	0	58	0	908066816	51	5279
2026-01-29 08:03:46.96	11.46	12.09	-40.1	-43.3	11.3	1.13e-03	0	58	0	911212544	51	5290
2026-01-29 08:03:47.97	11.30	12.04	-40.1	-43.3	11.2	1.45e-03	0	58	0	914358272	51	5303
2026-01-29 08:03:48.98	11.14	11.99	-39.9	-43.0	11.3	1.07e-03	0	58	0	917504000	51	5151
2026-01-29 08:03:50.00	10.98	11.93	-39.9	-43.1	11.2	1.30e-03	0	58	0	920649728	51	5179
2026-01-29 08:03:51.00	10.82	11.88	-39.9	-43.2	11.0	1.65e-03	0	58	0	923795456	51	5224
2026-01-29 08:03:52.01	10.67	11.82	-40.0	-43.4	10.7	2.69e-03	0	58	0	926941184	51	5374
2026-01-29 08:03:53.02	10.51	11.77	-40.2	-43.9	10.0	5.88e-03	0	58	0	930086912	51	5718
2026-01-29 08:03:54.04	10.35	11.71	-40.3	-44.3	9.5	1.20e-02	0	58	0	933232640	51	5956
2026-01-29 08:03:55.05	10.20	11.66	-40.4	-44.7	9.0	2.17e-02	0	58	0	936378368	51	6209
2026-01-29 08:03:56.06	10.05	11.60	-40.6	-45.3	8.1	5.28e-02	0	58	0	939524096	51	6711
2026-01-29 08:03:57.07	9.89	11.55	-40.7	-45.7	7.7	8.58e-02	0	58	0	942669824	51	6968
2026-01-29 08:03:58.08	9.74	11.49	-40.6	-45.9	7.2	1.22e-01	0	58	0	945815552	51	7156
2026-01-29 08:03:59.08	9.59	11.44	-40.6	-46.2	6.7	1.58e-01	0	58	0	948961280	51	7439
2026-01-29 08:04:00.10	9.43	11.38	-40.7	-46.8	6.1	2.49e-01	0	58	0	952107008	51	7922
2026-01-29 08:04:01.11	9.28	11.33	-40.8	-48.0	5.2	4.53e-01	0	58	0	955252736	52	8603
2026-01-29 08:04:02.12	9.13	11.27	-40.9	-49.5	4.0	1.03e+00	0	58	104	956301312	52	10235
2026-01-29 08:04:03.12	8.98	11.22	-40.8	-49.0	4.5	1.22e+00	0	58	104	956301312	52	9659
2026-01-29 08:04:04.14	8.83	11.16	-40.9	-50.4	3.9	1.44e+00	0	58	104	956301312	52	11293
2026-01-29 08:04:05.14	8.69	11.11	-41.3	-50.0	4.3	1.44e+00	0	58	104	956301312	53	10265
2026-01-29 08:04:06.15	8.54	11.05	-40.0	-52.0	3.8	1.49e+00	0	58	104	956301312	51	14406
2026-01-29 08:04:07.17	8.39	10.99	-40.7	-52.0	3.8	1.49e+00	0	58	104	956301312	52	13726
2026-01-29 08:04:08.18	8.24	10.94	-41.7	-53.1	3.8	1.49e+00	0	58	104	956301312	54	13777
2026-01-29 08:04:09.19	8.09	10.88	-41.1	-52.2	3.8	1.49e+00	0	58	104	956301312	54	12488
2026-01-29 08:04:10.20	7.95	10.83	-40.9	-51.9	3.8	1.49e+00	0	58	104	956301312	53	12729
2026-01-29 08:04:11.21	7.80	10.77	-40.7	-51.7	3.8	1.49e+00	0	58	104	956301312	53	12380
2026-01-29 08:04:12.22	7.66	10.72	-40.4	-52.0	3.8	1.49e+00	0	58	104	956301312	52	13668
2026-01-29 08:04:13.23	7.51	10.66	-40.6	-52.2	3.8	1.49e+00	0	58	104	956301312	52	14041
2026-01-29 08:04:14.24	7.37	10.60	-39.8	-52.0	3.8	1.49e+00	0	58	104	956301312	51	14456
2026-01-29 08:04:15.25	7.23	10.55	-40.0	-52.1	3.8	1.49e+00	0	58	104	956301312	51	14576
2026-01-29 08:04:16.26	7.08	10.49	-40.2	-52.4	3.8	1.49e+00	0	58	104	956301312	51	15064
2026-01-29 08:04:17.27	6.94	10.43	-40.4	-52.6	3.8	1.49e+00	0	58	104	956301312	51	15448
2026-01-29 08:04:18.28	6.80	10.38	-39.8	-52.0	3.8	1.49e+00	0	58	104	956301312	51	14378
2026-01-29 08:04:19.29	6.66	10.32	-39.7	-51.9	3.8	1.49e+00	0	58	104	956301312	51	14274
2026-01-29 08:04:20.30	6.52	10.27	-39.8	-51.9	3.8	1.49e+00	0	58	104	956301312	51	14323
2026-01-29 08:04:21.31	6.38	10.21	-39.7	-51.9	3.8	1.49e+00	0	58	104	956301312	51	14294
2026-01-29 08:04:22.32	6.24	10.15	-39.7	-51.9	3.8	1.49e+00	0	58	104	956301312	51	14223
2026-01-29 08:04:23.33	6.10	10.10	-39.7	-51.9	3.8	1.49e+00	0	58	104	956301312	51	14234
2026-01-29 08:04:24.34	5.96	10.04	-39.7	-51.9	3.8	1.49e+00	0	58	104	956301312	51	14234
2026-01-29 08:04:25.35	5.82	9.98	-39.8	-52.0	3.8	1.49e+00	0	58	104	956301312	51	14376
2026-01-29 08:04:26.36	5.69	9.93	-40.1	-52.2	3.8	1.49e+00	0	58	104	956301312	51	14801
2026-01-29 08:04:27.37	5.55	9.87	-39.8	-52.0	3.8	1.49e+00	0	58	104	956301312	51	14386
2026-01-29 08:04:28.38	5.41	9.81	-40.0	-52.1	3.8	1.49e+00	0	58	104	956301312	51	14649
2026-01-29 08:04:29.39	5.28	9.76	-39.9	-52.1	3.8	1.49e+00	0	59	104	956301312	51	14569
2026-01-29 08:04:30.40	5.14	9.70	-39.7	-51.9	3.8	1.49e+00	0	58	104	956301312	51	14328
2026-01-29 08:04:31.41	5.01	9.65	-39.8	-51.9	3.8	1.49e+00	0	59	104	956301312	51	14324
2026-01-29 08:04:32.42	4.88	9.59	-39.9	-52.0	3.8	1.49e+00	0	58	104	956301312	51	14534
2026-01-29 08:04:33.43	4.74	9.53	-39.8	-52.0	3.8	1.49e+00	0	58	104	956301312	51	14440
2026-01-29 08:04:34.44	4.61	9.48	-39.8	-51.9	3.8	1.49e+00	0	58	104	956301312	51	14357
2026-01-29 08:04:35.45	4.48	9.42	-39.8	-51.9	3.8	1.49e+00	0	58	104	956301312	51	14342
2026-01-29 08:04:36.46	4.34	9.36	-39.8	-52.0	3.8	1.49e+00	0	58	104	956301312	51	14447
2026-01-29 08:04:37.47	4.21	9.30	-39.8	-52.0	3.8	1.49e+00	0	58	104	956301312	51	14435
2026-01-29 08:04:38.48	4.08	9.25	-39.8	-52.0	3.8	1.49e+00	0	59	104	956301312	51	14412
2026-01-29 08:04:39.48	3.95	9.19	-39.8	-51.9	3.8	1.49e+00	0	58	104	956301312	51	14373
2026-01-29 08:04:40.50	3.82	9.13	-39.8	-52.0	3.8	1.49e+00	0	59	104	956301312	51	14453
2026-01-29 08:04:41.51	3.69	9.08	-39.8	-52.0	3.8	1.49e+00	0	58	104	956301312	51	14397
2026-01-29 08:04:42.52	3.56	9.02	-39.8	-51.9	3.8	1.49e+00	0	58	104	956301312	51	14364
2026-01-29 08:04:43.53	3.44	8.96	-39.8	-52.0	3.8	1.49e+00	0	58	104	956301312	51	14392
2026-01-29 08:04:44.54	3.31	8.91	-39.8	-52.0	3.8	1.49e+00	0	59	104	956301312	51	14452
2026-01-29 08:04:45.55	3.18	8.85	-39.8	-51.9	3.8	1.49e+00	0	58	104	956301312	51	14351
2026-01-29 08:04:46.56	3.06	8.79	-39.8	-52.0	3.8	1.49e+00	0	58	104	956301312	51	14388
2026-01-29 08:04:47.57	2.93	8.74	-39.7	-51.9	3.8	1.49e+00	0	58	104	956301312	51	14324
2026-01-29 08:04:48.58	2.80	8.68	-39.8	-52.0	3.8	1.49e+00	0	58	104	956301312	51	14414
2026-01-29 08:04:49.59	2.68	8.62	-39.8	-52.0	3.8	1.49e+00	0	58	104	956301312	51	14437
2026-01-29 08:04:50.60	2.55	8.57	-39.8	-52.0	3.8	1.49e+00	0	58	104	956301312	51	14484
2026-01-29 08:04:51.61	2.43	8.51	-39.8	-52.0	3.8	1.49e+00	0	58	104	956301312	51	14398
2026-01-29 08:04:52.62	2.31	8.45	-39.8	-52.0	3.8	1.49e+00	0	58	104	956301312	51	14477
2026-01-29 08:04:53.63	2.18	8.40	-39.8	-52.0	3.8	1.49e+00	0	58	104	956301312	51	14496
2026-01-29 08:04:54.64	2.06	8.34	-39.8	-52.0	3.8	1.49e+00	0	58	104	956301312	51	14528
2026-01-29 08:04:55.65	1.94	8.28	-39.8	-52.0	3.8	1.49e+00	0	58	104	956301312	51	14515
2026-01-29 08:04:56.66	1.82	8.23	-39.9	-52.0	3.8	1.49e+00	0	58	104	956301312	51	14505
2026-01-29 08:04:57.67	1.69	8.17	-39.8	-52.1	3.8	1.49e+00	0	59	104	956301312	51	14582
2026-01-29 08:04:58.68	1.57	8.11	-39.8	-52.0	3.8	1.49e+00	0	59	104	956301312	51	14499
2026-01-29 08:04:59.69	1.45	8.05	-39.8	-52.0	3.8	1.49e+00	0	59	104	956301312	51	14437
2026-01-29 08:05:00.70	1.33	8.00	-39.8	-52.0	3.8	1.49e+00	0	58	104	956301312	51	14390
2026-01-29 08:05:01.71	1.21	7.94	-43.3	-55.7	3.8	1.49e+00	0	59	104	956301312	57	15743
2026-01-29 08:05:02.72	1.10	7.88	-44.7	-57.1	3.8	1.49e+00	0	59	104	956301312	59	16391
2026-01-29 08:05:03.73	0.98	7.83	-44.9	-57.4	3.8	1.49e+00	0	58	104	956301312	60	16084
2026-01-29 08:05:04.74	0.86	7.77	-45.0	-57.5	3.8	1.49e+00	0	58	104	956301312	60	16307
2026-01-29 08:05:05.75	0.74	7.71	-45.1	-57.6	3.8	1.49e+00	0	58	104	956301312	60	16461
2026-01-29 08:05:06.76	0.63	7.66	-45.2	-57.7	3.8	1.49e+00	0	58	104	956301312	60	16628
2026-01-29 08:05:07.77	0.51	7.60	-45.3	-57.9	3.8	1.49e+00	0	58	104	956301312	61	15980
2026-01-29 08:05:08.78	0.39	7.54	-45.2	-57.8	3.8	1.49e+00	0	59	104	956301312	61	15882
2026-01-29 08:05:09.79	0.28	7.49	-45.1	-57.8	3.8	1.49e+00	0	58	104	956301312	60	16768
2026-01-29 08:05:10.80	0.16	7.43	-45.1	-57.8	3.8	1.49e+00	0	58	104	956301312	60	16713
2026-01-29 08:05:11.82	0.05	7.37	-45.1	-57.7	3.8	1.49e+00	0	58	104	956301312	60	16603
2026-01-29 08:05:12.83	359.93	7.32	-45.0	-57.6	3.8	1.49e+00	0	58	104	956301312	60	16484
2026-01-29 08:05:13.84	359.82	7.26	-45.0	-57.6	3.8	1.49e+00	0	58	104	956301312	60	16379
2026-01-29 08:05:14.85	359.71	7.20	-45.0	-57.6	3.8	1.49e+00	0	59	104	956301312	60	16429
2026-01-29 08:05:15.86	359.59	7.15	-44.9	-57.6	3.8	1.49e+00	0	59	104	956301312	60	16327
2026-01-29 08:05:16.87	359.48	7.09	-44.9	-57.5	3.8	1.49e+00	0	58	104	956301312	60	16296
2026-01-29 08:05:17.88	359.37	7.03	-44.9	-57.5	3.8	1.49e+00	0	58	104	956301312	60	16234
2026-01-29 08:05:18.89	359.26	6.98	-44.9	-57.5	3.8	1.49e+00	0	58	104	956301312	60	16247
2026-01-29 08:05:19.90	359.15	6.92	-44.9	-57.5	3.8	1.49e+00	0	59	104	956301312	60	16265
2026-01-29 08:05:20.91	359.04	6.86	-44.9	-57.5	3.8	1.49e+00	0	59	104	956301312	60	16268
2026-01-29 08:05:21.92	358.93	6.81	-44.8	-57.5	3.8	1.49e+00	0	58	104	956301312	60	16299
2026-01-29 08:05:22.93	358.82	6.75	-44.9	-57.5	3.8	1.49e+00	0	58	104	956301312	60	16251
2026-01-29 08:05:23.94	358.71	6.69	-44.9	-57.5	3.8	1.49e+00	0	58	104	956301312	60	16258
2026-01-29 08:05:24.95	358.60	6.64	-44.9	-57.5	3.8	1.49e+00	0	58	104	956301312	60	16227
2026-01-29 08:05:25.96	358.49	6.58	-44.9	-57.5	3.8	1.49e+00	0	58	104	956301312	60	16213
2026-01-29 08:05:26.97	358.38	6.53	-44.9	-57.5	3.8	1.49e+00	0	59	104	956301312	60	16264
2026-01-29 08:05:27.98	358.28	6.47	-44.9	-57.5	3.8	1.49e+00	0	59	104	956301312	60	16291
2026-01-29 08:05:28.99	358.17	6.41	-44.9	-57.5	3.8	1.49e+00	0	58	104	956301312	60	16243
2026-01-29 08:05:30.00	358.06	6.36	-44.9	-57.5	3.8	1.49e+00	0	58	104	956301312	60	16307
2026-01-29 08:05:31.01	357.96	6.30	-44.9	-57.5	3.8	1.49e+00	0	59	104	956301312	60	16251
2026-01-29 08:05:32.02	357.85	6.24	-44.9	-57.5	3.8	1.49e+00	0	58	104	956301312	60	16261
2026-01-29 08:05:33.03	357.74	6.19	-44.9	-57.5	3.8	1.49e+00	0	59	104	956301312	60	16238
2026-01-29 08:05:34.04	357.64	6.13	-44.9	-57.5	3.8	1.49e+00	0	59	104	956301312	60	16285
2026-01-29 08:05:35.06	357.53	6.07	-44.8	-57.5	3.8	1.49e+00	0	59	104	956301312	60	16304
2026-01-29 08:05:36.07	357.43	6.02	-44.9	-57.5	3.8	1.49e+00	0	59	104	956301312	60	16241
2026-01-29 08:05:37.08	357.33	5.96	-44.9	-57.5	3.8	1.49e+00	0	59	104	956301312	60	16236
2026-01-29 08:05:38.09	357.22	5.91	-44.9	-57.5	3.8	1.49e+00	0	59	104	956301312	60	16206
2026-01-29 08:05:39.10	357.12	5.85	-44.9	-57.5	3.8	1.49e+00	0	59	104	956301312	60	16229
2026-01-29 08:05:40.11	357.02	5.79	-44.9	-57.5	3.8	1.49e+00	0	59	104	956301312	60	16267
2026-01-29 08:05:41.12	356.92	5.74	-44.9	-57.5	3.8	1.49e+00	0	59	104	956301312	60	16196
2026-01-29 08:05:42.13	356.81	5.68	-44.8	-57.5	3.8	1.49e+00	0	59	104	956301312	60	16216
2026-01-29 08:05:43.14	356.71	5.63	-44.9	-57.5	3.8	1.49e+00	0	59	104	956301312	60	16185
2026-01-29 08:05:44.15	356.61	5.57	-44.9	-57.5	3.8	1.49e+00	0	59	104	956301312	60	16177
2026-01-29 08:05:45.16	356.51	5.52	-44.9	-57.5	3.8	1.49e+00	0	59	104	956301312	60	16175
2026-01-29 08:05:46.17	356.41	5.46	-44.8	-57.5	3.8	1.49e+00	0	59	104	956301312	60	16152
2026-01-29 08:05:47.18	356.31	5.40	-44.8	-57.5	3.8	1.49e+00	0	59	104	956301312	60	16154
2026-01-29 08:05:48.19	356.21	5.35	-44.8	-57.5	3.8	1.49e+00	0	59	104	956301312	60	16172
2026-01-29 08:05:49.20	356.11	5.29	-44.8	-57.5	3.8	1.49e+00	0	58	104	956301312	60	16189
2026-01-29 08:05:50.21	356.02	5.24	-44.8	-57.5	3.8	1.49e+00	0	59	104	956301312	60	16190
2026-01-29 08:05:51.22	355.92	5.18	-44.8	-57.5	3.8	1.49e+00	0	59	104	956301312	60	16193
2026-01-29 08:05:52.23	355.82	5.13	-44.8	-57.5	3.8	1.49e+00	0	59	104	956301312	60	16181
2026-01-29 08:05:53.24	355.72	5.07	-44.8	-57.5	3.8	1.49e+00	0	59	104	956301312	60	16181
2026-01-29 08:05:54.25	355.63	5.01	-44.8	-57.5	3.8	1.49e+00	0	59	104	956301312	60	16166
2026-01-29 08:05:55.26	355.53	4.96	-44.8	-57.5	3.8	1.49e+00	0	59	104	956301312	60	16180
2026-01-29 08:05:56.27	355.43	4.90	-44.8	-57.5	3.8	1.49e+00	0	59	104	956301312	60	16155
2026-01-29 08:05:57.28	355.34	4.85	-44.8	-57.5	3.8	1.49e+00	0	58	104	956301312	60	16192
2026-01-29 08:05:58.29	355.24	4.79	-44.5	-57.5	3.8	1.49e+00	0	59	104	956301312	60	16144
2026-01-29 08:05:59.30	355.15	4.74	-44.1	-57.3	3.8	1.49e+00	0	59	104	956301312	59	16858
2026-01-29 08:06:00.31	355.05	4.68	-44.8	-57.5	3.8	1.49e+00	0	59	104	956301312	60	16135
2026-01-29 08:06:01.32	354.96	4.63	-44.8	-57.4	3.8	1.49e+00	0	59	104	956301312	60	16127
2026-01-29 08:06:02.33	354.86	4.57	-44.8	-57.4	3.8	1.49e+00	0	59	104	956301312	60	16121
2026-01-29 08:06:03.34	354.77	4.52	-44.8	-57.4	3.8	1.49e+00	0	59	104	956301312	60	16113
2026-01-29 08:06:04.36	354.68	4.46	-44.8	-57.4	3.8	1.49e+00	0	59	104	956301312	60	16116
2026-01-29 08:06:05.37	354.58	4.41	-44.8	-57.4	3.8	1.49e+00	0	59	104	956301312	60	16107
2026-01-29 08:06:06.38	354.49	4.35	-44.8	-57.4	3.8	1.49e+00	0	59	104	956301312	60	16120
2026-01-29 08:06:07.39	354.40	4.30	-44.8	-57.5	3.8	1.49e+00	0	59	104	956301312	60	16133
2026-01-29 08:06:08.40	354.31	4.24	-44.8	-57.4	3.8	1.49e+00	0	59	104	956301312	60	16083
2026-01-29 08:06:09.41	354.22	4.19	-44.8	-57.4	3.8	1.49e+00	0	58	104	956301312	60	16104
2026-01-29 08:06:10.42	354.13	4.13	-44.8	-57.4	3.8	1.49e+00	0	58	104	956301312	60	16095
2026-01-29 08:06:11.43	354.03	4.08	-44.8	-57.4	3.8	1.49e+00	0	59	104	956301312	60	16060
2026-01-29 08:06:12.44	353.94	4.02	-44.8	-57.4	3.8	1.49e+00	0	59	104	956301312	60	16094
2026-01-29 08:06:13.45	353.85	3.97	-44.0	-57.4	3.8	1.49e+00	0	59	104	956301312	60	16084
2026-01-29 08:06:14.46	353.76	3.91	-44.8	-57.4	3.8	1.49e+00	0	59	104	956301312	60	16059
2026-01-29 08:06:15.47	353.68	3.86	-44.8	-57.4	3.8	1.49e+00	0	59	104	956301312	60	16055
2026-01-29 08:06:16.48	353.59	3.80	-44.8	-57.4	3.8	1.49e+00	0	59	104	956301312	60	16075
2026-01-29 08:06:17.49	353.50	3.75	-44.8	-57.4	3.8	1.49e+00	0	59	104	956301312	60	16062
2026-01-29 08:06:18.50	353.41	3.69	-44.6	-57.5	3.8	1.49e+00	0	59	104	956301312	60	16132
2026-01-29 08:06:19.51	353.32	3.64	-44.8	-57.4	3.8	1.49e+00	0	59	104	956301312	60	16086
2026-01-29 08:06:20.52	353.23	3.59	-44.6	-57.5	3.8	1.49e+00	0	59	104	956301312	60	16128
2026-01-29 08:06:21.53	353.15	3.53	-44.7	-57.5	3.8	1.49e+00	0	59	104	956301312	60	16154
2026-01-29 08:06:22.54	353.06	3.48	-44.7	-57.4	3.8	1.49e+00	0	59	104	956301312	60	16112
2026-01-29 08:06:23.55	352.97	3.42	-44.8	-57.4	3.8	1.49e+00	0	58	104	956301312	60	16062
2026-01-29 08:06:24.56	352.89	3.37	-44.8	-57.4	3.8	1.49e+00	0	59	104	956301312	60	16046
2026-01-29 08:06:25.57	352.80	3.31	-44.7	-57.4	3.8	1.49e+00	0	59	104	956301312	60	16080
2026-01-29 08:06:26.58	352.72	3.26	-44.8	-57.5	3.8	1.49e+00	0	59	104	956301312	60	16143
2026-01-29 08:06:27.59	352.63	3.21	-44.8	-57.4	3.8	1.49e+00	0	59	104	956301312	60	16067
2026-01-29 08:06:28.60	352.55	3.15	-44.8	-57.4	3.8	1.49e+00	0	59	104	956301312	60	16051
2026-01-29 08:06:29.62	352.46	3.10	-44.6	-57.4	3.8	1.49e+00	0	59	104	956301312	60	16097
2026-01-29 08:06:30.63	352.38	3.04	-44.7	-57.5	3.8	1.49e+00	0	59	104	956301312	60	16167
2026-01-29 08:06:31.64	352.29	2.99	-44.8	-57.5	3.8	1.49e+00	0	59	104	956301312	60	16129
2026-01-29 08:06:32.65	352.21	2.94	-44.8	-57.5	3.8	1.49e+00	0	59	104	956301312	60	16142
2026-01-29 08:06:33.66	352.13	2.88	-44.8	-57.5	3.8	1.49e+00	0	58	104	956301312	60	16208
2026-01-29 08:06:34.67	352.04	2.83	-44.8	-57.5	3.8	1.49e+00	0	59	104	956301312	60	16137
2026-01-29 08:06:35.68	351.96	2.77	-44.7	-57.4	3.8	1.49e+00	0	59	104	956301312	60	16089
2026-01-29 08:06:36.69	351.88	2.72	-44.7	-57.4	3.8	1.49e+00	0	59	104	956301312	60	16090
2026-01-29 08:06:37.70	351.80	2.67	-44.8	-57.4	3.8	1.49e+00	0	59	104	956301312	60	16093
2026-01-29 08:06:38.71	351.71	2.61	-44.8	-57.4	3.8	1.49e+00	0	59	104	956301312	60	16112
2026-01-29 08:06:39.72	351.63	2.56	-44.8	-57.5	3.8	1.49e+00	0	59	104	956301312	60	16130
2026-01-29 08:06:40.73	351.55	2.51	-44.8	-57.4	3.8	1.49e+00	0	59	104	956301312	60	16126
2026-01-29 08:06:41.74	351.47	2.45	-44.8	-57.4	3.8	1.49e+00	0	59	104	956301312	60	16097
2026-01-29 08:06:42.75	351.39	2.40	-44.8	-57.4	3.8	1.49e+00	0	59	104	956301312	60	16028
2026-01-29 08:06:43.76	351.31	2.35	-44.8	-57.4	3.8	1.49e+00	0	59	104	956301312	60	16055
2026-01-29 08:06:44.77	351.23	2.29	-44.8	-57.4	3.8	1.49e+00	0	59	104	956301312	60	16062
2026-01-29 08:06:45.78	351.15	2.24	-44.8	-57.4	3.8	1.49e+00	0	59	104	956301312	60	16092
2026-01-29 08:06:46.79	351.07	2.19	-44.6	-57.4	3.8	1.49e+00	0	59	104	956301312	60	16045
2026-01-29 08:06:47.80	350.99	2.13	-44.8	-57.4	3.8	1.49e+00	0	59	104	956301312	60	16077
2026-01-29 08:06:48.81	350.91	2.08	-44.8	-57.5	3.8	1.49e+00	0	59	104	956301312	60	16147
2026-01-29 08:06:49.82	350.84	2.03	-44.8	-57.4	3.8	1.49e+00	0	59	104	956301312	60	16062
2026-01-29 08:06:50.83	350.76	1.97	-44.8	-57.4	3.8	1.49e+00	0	59	104	956301312	60	16073
2026-01-29 08:06:51.84	350.68	1.92	-44.8	-57.4	3.8	1.49e+00	0	59	104	956301312	60	16109

#Closed at: 2026-01-29 08:06:52
#Recorded file [956 MB]: D:/lorett/data/31039_260129_105504.dat