passes_logs/2026/01/29/R2.0S_Moscow/R2.0S_Moscow__20260129_221323_SUOMI_NPP_rec.log

#Pass ID: 20260129_221323_SUOMI NPP
#Satellite: SUOMI NPP
#Configuration: NPP
#almurnet v.1.7.20251203
#Start time: 2026-01-29 22:13:26

#Version: 2.2.20231116
#Station: R2.0S_Moscow
#Location: 37.707566 lon 55.798166 lat
#TLE: 1 37849U 11061A   26028.91916408  .00000155  00000+0  94467-4 0  9990
#TLE: 2 37849  98.7824 330.8488 0002045  39.4457 320.6868 14.19531289738686

#Time	Az	El	Level	Level2	SNR	BER	BlckErr	Temp	State	Recorded	gain1	gain2
2026-01-29 22:13:26.10	25.69	2.12	-41.7	-56.1	3.8	1.49e+00	0	51	0	0	55	18430
2026-01-29 22:13:27.11	25.76	2.18	-41.7	-56.1	3.8	1.49e+00	0	51	104	0	55	18447
2026-01-29 22:13:28.12	25.84	2.23	-41.7	-56.1	3.8	1.49e+00	0	52	104	0	55	18434
2026-01-29 22:13:29.13	25.91	2.29	-41.7	-56.2	3.8	1.49e+00	0	52	104	0	55	18518
2026-01-29 22:13:30.14	25.99	2.34	-41.7	-56.1	3.8	1.49e+00	0	52	104	0	55	18458
2026-01-29 22:13:31.15	26.06	2.40	-41.7	-56.1	3.8	1.49e+00	0	51	104	0	55	18432
2026-01-29 22:13:32.16	26.14	2.45	-41.7	-56.1	3.8	1.49e+00	0	52	104	0	55	18486
2026-01-29 22:13:33.17	26.21	2.51	-41.7	-56.1	3.8	1.49e+00	0	52	104	0	55	18453
2026-01-29 22:13:34.18	26.29	2.56	-41.7	-56.1	3.8	1.49e+00	0	52	104	0	55	18454
2026-01-29 22:13:35.19	26.36	2.62	-41.7	-56.1	3.8	1.49e+00	0	52	104	0	55	18431
2026-01-29 22:13:36.20	26.44	2.67	-41.7	-56.1	3.8	1.49e+00	0	52	104	0	55	18436
2026-01-29 22:13:37.22	26.52	2.73	-41.7	-56.1	3.8	1.49e+00	0	52	104	0	55	18467
2026-01-29 22:13:38.23	26.59	2.79	-41.7	-56.1	3.8	1.49e+00	0	52	104	0	55	18478
2026-01-29 22:13:39.24	26.67	2.84	-41.7	-56.1	3.8	1.49e+00	0	52	104	0	55	18440
2026-01-29 22:13:40.25	26.75	2.90	-41.7	-56.1	3.8	1.49e+00	0	52	104	0	55	18460
2026-01-29 22:13:41.26	26.82	2.95	-41.7	-56.1	3.8	1.49e+00	0	52	104	0	55	18495
2026-01-29 22:13:42.27	26.90	3.01	-41.7	-56.1	3.8	1.49e+00	0	53	104	0	55	18479
2026-01-29 22:13:43.28	26.98	3.06	-41.7	-56.1	3.8	1.49e+00	0	52	104	0	55	18466
2026-01-29 22:13:44.29	27.06	3.12	-41.7	-56.1	3.8	1.49e+00	0	53	104	0	55	18434
2026-01-29 22:13:45.30	27.14	3.18	-41.7	-56.1	3.8	1.49e+00	0	53	104	0	55	18471
2026-01-29 22:13:46.31	27.22	3.23	-41.7	-56.1	3.8	1.49e+00	0	53	104	0	55	18413
2026-01-29 22:13:47.32	27.29	3.29	-41.7	-56.1	3.8	1.49e+00	0	53	104	0	55	18494
2026-01-29 22:13:48.33	27.37	3.34	-41.7	-56.1	3.8	1.49e+00	0	53	104	0	55	18431
2026-01-29 22:13:49.34	27.45	3.40	-41.7	-56.1	3.8	1.49e+00	0	53	104	0	55	18475
2026-01-29 22:13:50.35	27.53	3.46	-41.7	-56.1	3.8	1.49e+00	0	53	104	0	55	18440
2026-01-29 22:13:51.36	27.61	3.51	-41.7	-56.1	3.8	1.49e+00	0	53	104	0	55	18413
2026-01-29 22:13:52.37	27.69	3.57	-41.7	-56.1	3.8	1.49e+00	0	53	104	0	55	18481
2026-01-29 22:13:53.38	27.78	3.63	-41.7	-56.1	3.8	1.49e+00	0	53	104	0	55	18462
2026-01-29 22:13:54.39	27.86	3.68	-41.7	-56.1	3.8	1.49e+00	0	53	104	0	55	18476
2026-01-29 22:13:55.40	27.94	3.74	-41.7	-56.1	3.8	1.49e+00	0	53	104	0	55	18481
2026-01-29 22:13:56.41	28.02	3.80	-41.7	-56.1	3.8	1.49e+00	0	53	104	0	55	18420
2026-01-29 22:13:57.42	28.10	3.85	-41.7	-56.1	3.8	1.49e+00	0	53	104	0	55	18430
2026-01-29 22:13:58.43	28.18	3.91	-41.7	-56.1	3.8	1.49e+00	0	53	104	0	55	18422
2026-01-29 22:13:59.44	28.27	3.97	-41.7	-56.1	3.8	1.49e+00	0	54	104	0	55	18421
2026-01-29 22:14:00.45	28.35	4.03	-41.7	-56.1	3.8	1.49e+00	0	54	104	0	55	18495
2026-01-29 22:14:01.46	28.43	4.08	-41.7	-56.1	3.8	1.49e+00	0	54	104	0	55	18417
2026-01-29 22:14:02.47	28.52	4.14	-41.7	-56.1	3.8	1.49e+00	0	53	104	0	55	18408
2026-01-29 22:14:03.48	28.60	4.20	-41.7	-56.1	3.8	1.49e+00	0	54	104	0	55	18448
2026-01-29 22:14:04.49	28.68	4.25	-41.7	-56.1	3.8	1.49e+00	0	54	104	0	55	18446
2026-01-29 22:14:05.50	28.77	4.31	-41.7	-56.1	3.8	1.49e+00	0	54	104	0	55	18463
2026-01-29 22:14:06.51	28.85	4.37	-41.7	-56.1	3.8	1.49e+00	0	54	104	0	55	18440
2026-01-29 22:14:07.52	28.94	4.43	-41.7	-56.1	3.8	1.49e+00	0	54	104	0	55	18384
2026-01-29 22:14:08.53	29.02	4.49	-41.7	-56.1	3.8	1.49e+00	0	54	104	0	55	18413
2026-01-29 22:14:09.54	29.11	4.54	-41.7	-56.1	3.8	1.49e+00	0	54	104	0	55	18454
2026-01-29 22:14:10.55	29.20	4.60	-41.7	-56.1	3.8	1.49e+00	0	54	104	0	55	18468
2026-01-29 22:14:11.56	29.28	4.66	-41.7	-56.1	3.8	1.49e+00	0	54	104	0	55	18386
2026-01-29 22:14:12.58	29.37	4.72	-41.7	-56.1	3.8	1.49e+00	0	54	104	0	55	18443
2026-01-29 22:14:13.59	29.46	4.78	-41.7	-56.1	3.8	1.49e+00	0	54	104	0	55	18459
2026-01-29 22:14:14.59	29.54	4.83	-41.7	-56.1	3.8	1.49e+00	0	54	104	0	55	18448
2026-01-29 22:14:15.61	29.63	4.89	-41.7	-56.1	3.8	1.49e+00	0	54	104	0	55	18427
2026-01-29 22:14:16.62	29.72	4.95	-41.7	-56.1	3.8	1.49e+00	0	55	104	0	55	18421
2026-01-29 22:14:17.63	29.81	5.01	-41.7	-56.1	3.8	1.49e+00	0	55	104	0	55	18408
2026-01-29 22:14:18.64	29.90	5.07	-41.7	-56.1	3.8	1.49e+00	0	55	104	0	55	18458
2026-01-29 22:14:19.65	29.99	5.13	-41.7	-56.1	3.8	1.49e+00	0	55	104	0	55	18400
2026-01-29 22:14:20.66	30.08	5.18	-41.7	-56.1	3.8	1.49e+00	0	55	104	0	55	18378
2026-01-29 22:14:21.67	30.17	5.24	-41.7	-56.1	3.8	1.49e+00	0	55	104	0	55	18434
2026-01-29 22:14:22.68	30.26	5.30	-41.7	-56.1	3.8	1.49e+00	0	55	104	0	55	18450
2026-01-29 22:14:23.69	30.35	5.36	-41.7	-56.1	3.8	1.49e+00	0	55	104	0	55	18369
2026-01-29 22:14:24.70	30.44	5.42	-41.7	-56.1	3.8	1.49e+00	0	55	104	0	55	18475
2026-01-29 22:14:25.71	30.53	5.48	-41.7	-56.1	3.8	1.49e+00	0	55	104	0	55	18445
2026-01-29 22:14:26.72	30.62	5.54	-41.7	-56.1	3.8	1.49e+00	0	55	104	0	55	18371
2026-01-29 22:14:27.73	30.71	5.60	-41.7	-56.1	3.8	1.49e+00	0	55	104	0	55	18472
2026-01-29 22:14:28.74	30.80	5.66	-41.7	-56.1	3.8	1.49e+00	0	55	104	0	55	18380
2026-01-29 22:14:29.75	30.90	5.72	-41.7	-56.1	3.8	1.49e+00	0	55	104	0	55	18414
2026-01-29 22:14:30.76	30.99	5.77	-41.7	-56.1	3.8	1.49e+00	0	55	104	0	55	18403
2026-01-29 22:14:31.77	31.08	5.83	-41.7	-56.1	3.8	1.49e+00	0	55	104	0	55	18425
2026-01-29 22:14:32.78	31.18	5.89	-41.7	-56.1	3.8	1.49e+00	0	56	104	0	55	18440
2026-01-29 22:14:33.79	31.27	5.95	-41.7	-56.1	3.8	1.49e+00	0	56	104	0	55	18437
2026-01-29 22:14:34.80	31.36	6.01	-41.7	-56.1	3.8	1.49e+00	0	55	104	0	55	18382
2026-01-29 22:14:35.81	31.46	6.07	-41.7	-56.1	3.8	1.49e+00	0	55	104	0	55	18388
2026-01-29 22:14:36.82	31.55	6.13	-41.7	-56.1	3.8	1.49e+00	0	55	104	0	55	18467
2026-01-29 22:14:37.83	31.65	6.19	-41.7	-56.1	3.8	1.49e+00	0	56	104	0	55	18462
2026-01-29 22:14:38.84	31.74	6.25	-41.7	-56.1	3.8	1.49e+00	0	55	104	0	55	18306
2026-01-29 22:14:39.85	31.84	6.31	-41.7	-56.1	3.8	1.49e+00	0	56	104	0	55	18399
2026-01-29 22:14:40.86	31.94	6.37	-41.7	-56.1	3.8	1.49e+00	0	56	104	0	55	18404
2026-01-29 22:14:41.88	32.03	6.43	-41.7	-56.1	3.8	1.49e+00	0	56	104	0	55	18429
2026-01-29 22:14:42.89	32.13	6.49	-41.7	-56.1	3.8	1.49e+00	0	56	104	0	55	18363
2026-01-29 22:14:43.90	32.23	6.55	-41.7	-56.1	3.8	1.49e+00	0	56	104	0	55	18404
2026-01-29 22:14:44.91	32.33	6.61	-41.7	-56.0	3.8	1.49e+00	0	56	104	0	55	18299
2026-01-29 22:14:45.92	32.43	6.68	-41.7	-56.1	3.8	1.49e+00	0	56	104	0	55	18391
2026-01-29 22:14:46.93	32.53	6.74	-41.7	-56.1	3.8	1.49e+00	0	56	104	0	55	18392
2026-01-29 22:14:47.94	32.62	6.80	-41.7	-56.1	3.8	1.49e+00	0	56	104	0	55	18407
2026-01-29 22:14:48.95	32.72	6.86	-41.7	-56.1	3.8	1.49e+00	0	56	104	0	55	18438
2026-01-29 22:14:49.96	32.82	6.92	-41.7	-56.1	3.8	1.49e+00	0	56	104	0	55	18321
2026-01-29 22:14:50.97	32.92	6.98	-41.7	-56.0	3.8	1.49e+00	0	56	104	0	55	18170
2026-01-29 22:14:51.98	33.03	7.04	-41.7	-56.0	3.8	1.49e+00	0	56	104	0	55	18186
2026-01-29 22:14:52.99	33.13	7.10	-41.6	-55.7	3.8	1.49e+00	0	56	104	0	55	17555
2026-01-29 22:14:54.00	33.23	7.16	-41.6	-55.8	3.8	1.49e+00	0	56	104	0	55	17820
2026-01-29 22:14:55.01	33.33	7.22	-41.7	-56.0	3.8	1.49e+00	0	56	104	0	55	18200
2026-01-29 22:14:56.02	33.43	7.28	-41.6	-55.6	3.8	1.49e+00	0	56	104	0	55	17453
2026-01-29 22:14:57.03	33.54	7.35	-41.6	-54.8	3.8	1.49e+00	0	56	104	0	55	15806
2026-01-29 22:14:58.04	33.64	7.41	-41.5	-53.2	4.1	1.47e+00	0	56	104	0	55	13163
2026-01-29 22:14:59.05	33.74	7.47	-41.4	-52.0	4.3	1.35e+00	0	56	0	0	54	12229
2026-01-29 22:15:00.06	33.85	7.53	-41.2	-50.6	5.0	1.09e+00	0	56	0	1048576	54	10381
2026-01-29 22:15:01.07	33.95	7.59	-41.2	-50.5	5.0	6.56e-01	0	57	0	3145728	54	10270
2026-01-29 22:15:02.08	34.06	7.65	-41.1	-49.6	5.6	5.90e-01	0	56	0	5242880	54	9234
2026-01-29 22:15:03.09	34.16	7.71	-41.1	-49.7	5.5	4.45e-01	0	56	0	7340032	54	9371
2026-01-29 22:15:04.10	34.27	7.78	-41.2	-50.4	5.1	5.27e-01	0	56	0	9437184	54	10071
2026-01-29 22:15:05.11	34.37	7.84	-41.3	-51.3	4.6	8.52e-01	0	56	0	10485760	54	11187
2026-01-29 22:15:06.12	34.48	7.90	-41.1	-49.7	5.5	7.63e-01	0	57	0	12582912	54	9378
2026-01-29 22:15:07.13	34.59	7.96	-40.7	-47.8	7.1	3.44e-01	0	57	0	14680064	53	7922
2026-01-29 22:15:08.14	34.70	8.02	-40.7	-47.8	7.1	1.38e-01	0	57	0	16777216	53	7920
2026-01-29 22:15:09.15	34.80	8.09	-43.4	-54.8	4.1	4.14e-01	0	57	0	17825792	57	14071
2026-01-29 22:15:10.16	34.91	8.15	-40.7	-50.4	4.8	1.70e-01	0	57	0	19922944	53	10751
2026-01-29 22:15:11.17	35.02	8.21	-41.5	-47.3	8.8	3.25e-02	0	57	0	22020096	53	7532
2026-01-29 22:15:12.18	35.13	8.27	-42.1	-49.2	7.0	1.26e-01	0	57	0	24117248	55	8300
2026-01-29 22:15:13.19	35.24	8.34	-41.4	-48.2	7.3	5.14e-02	0	57	0	25165824	54	7898
2026-01-29 22:15:14.20	35.35	8.40	-41.5	-47.7	8.2	5.56e-02	0	57	0	27262976	54	7420
2026-01-29 22:15:15.21	35.46	8.46	-41.6	-48.0	7.9	6.43e-02	0	57	0	29360128	54	7718
2026-01-29 22:15:16.22	35.57	8.52	-41.7	-48.1	7.9	7.56e-02	0	57	0	31457280	54	7797
2026-01-29 22:15:17.23	35.68	8.59	-41.8	-48.3	7.8	8.01e-02	0	57	0	33554432	54	7953
2026-01-29 22:15:18.24	35.80	8.65	-41.8	-48.2	7.9	7.61e-02	0	57	0	34603008	54	7825
2026-01-29 22:15:19.25	35.91	8.71	-41.9	-48.7	7.5	7.29e-02	0	57	0	36700160	54	8317
2026-01-29 22:15:20.26	36.02	8.78	-42.0	-48.6	7.7	9.75e-02	0	57	0	38797312	54	8271
2026-01-29 22:15:21.27	36.13	8.84	-41.9	-48.2	8.0	7.47e-02	0	57	0	40894464	54	7893
2026-01-29 22:15:22.28	36.25	8.90	-41.9	-48.0	8.4	5.46e-02	0	57	0	42991616	54	7703
2026-01-29 22:15:23.29	36.36	8.96	-41.9	-47.7	8.7	3.53e-02	0	57	0	44040192	54	7451
2026-01-29 22:15:24.30	36.48	9.03	-42.1	-48.5	8.1	5.15e-02	0	57	0	46137344	54	8092
2026-01-29 22:15:25.31	36.59	9.09	-42.2	-48.5	8.0	7.75e-02	0	57	0	48234496	54	8169
2026-01-29 22:15:26.32	36.71	9.15	-42.1	-48.2	8.4	5.72e-02	0	57	0	50331648	54	7817
2026-01-29 22:15:27.33	36.83	9.22	-42.1	-48.1	8.5	3.84e-02	0	57	0	52428800	54	7787
2026-01-29 22:15:28.34	36.94	9.28	-42.2	-48.3	8.3	4.72e-02	0	57	0	54525952	54	7917
2026-01-29 22:15:29.35	37.06	9.34	-42.1	-48.0	8.7	4.27e-02	0	57	0	55574528	54	7645
2026-01-29 22:15:30.36	37.18	9.41	-42.1	-48.0	8.7	3.29e-02	0	57	0	57671680	54	7648
2026-01-29 22:15:31.37	37.30	9.47	-42.1	-48.0	8.7	3.22e-02	0	57	0	59768832	54	7655
2026-01-29 22:15:32.38	37.41	9.53	-42.0	-47.6	9.1	2.66e-02	0	57	0	61865984	54	7371
2026-01-29 22:15:33.39	37.53	9.60	-42.1	-47.9	8.9	2.67e-02	0	58	0	63963136	54	7618
2026-01-29 22:15:34.40	37.65	9.66	-42.0	-47.5	9.4	1.83e-02	0	57	0	65011712	54	7247
2026-01-29 22:15:35.41	37.77	9.73	-42.1	-47.5	9.4	2.22e-02	0	57	0	67108864	54	7247
2026-01-29 22:15:36.42	37.89	9.79	-42.2	-47.6	9.3	1.38e-02	0	58	0	69206016	54	7353
2026-01-29 22:15:37.43	38.02	9.85	-42.1	-47.5	9.4	1.51e-02	0	57	0	71303168	54	7263
2026-01-29 22:15:38.44	38.14	9.92	-42.2	-47.6	9.4	1.45e-02	0	58	0	73400320	54	7296
2026-01-29 22:15:39.45	38.26	9.98	-42.1	-47.5	9.5	1.42e-02	0	58	0	74448896	54	7277
2026-01-29 22:15:40.46	38.38	10.05	-42.1	-47.5	9.5	1.68e-02	0	58	0	76546048	55	6841
2026-01-29 22:15:41.47	38.51	10.11	-42.1	-47.4	9.6	1.11e-02	0	57	0	78643200	55	6787
2026-01-29 22:15:42.48	38.63	10.17	-42.1	-47.3	9.7	1.39e-02	0	58	0	80740352	55	6713
2026-01-29 22:15:43.49	38.75	10.24	-42.1	-47.2	9.9	1.20e-02	0	57	0	82837504	55	6577
2026-01-29 22:15:44.50	38.88	10.30	-42.2	-47.4	9.7	1.14e-02	0	58	0	83886080	55	6740
2026-01-29 22:15:45.51	39.00	10.37	-42.1	-47.3	9.8	9.98e-03	0	58	0	85983232	55	6654
2026-01-29 22:15:46.52	39.13	10.43	-42.1	-47.1	10.0	7.72e-03	0	58	0	88080384	55	6569
2026-01-29 22:15:47.53	39.26	10.50	-42.1	-47.1	10.1	8.21e-03	0	58	0	90177536	55	6558
2026-01-29 22:15:48.54	39.38	10.56	-42.1	-47.2	10.0	8.19e-03	0	58	0	92274688	55	6606
2026-01-29 22:15:49.55	39.51	10.63	-42.1	-47.1	10.1	7.91e-03	0	58	0	93323264	55	6544
2026-01-29 22:15:50.56	39.64	10.69	-42.2	-47.2	10.0	6.15e-03	0	58	0	95420416	55	6598
2026-01-29 22:15:51.57	39.77	10.75	-42.1	-47.1	10.1	7.24e-03	0	58	0	97517568	55	6528
2026-01-29 22:15:52.58	39.90	10.82	-42.1	-47.0	10.3	6.00e-03	0	58	0	99614720	55	6454
2026-01-29 22:15:53.59	40.03	10.88	-42.1	-47.1	10.1	5.31e-03	0	58	0	101711872	55	6499
2026-01-29 22:15:54.60	40.16	10.95	-42.1	-47.0	10.2	6.50e-03	0	58	0	102760448	55	6494
2026-01-29 22:15:55.60	40.29	11.01	-42.1	-47.0	10.2	5.97e-03	0	58	0	104857600	55	6491
2026-01-29 22:15:56.61	40.42	11.08	-42.2	-47.1	10.1	5.68e-03	0	58	0	106954752	55	6543
2026-01-29 22:15:57.62	40.55	11.14	-42.1	-47.0	10.3	5.28e-03	0	58	0	109051904	55	6438
2026-01-29 22:15:58.63	40.68	11.21	-42.1	-47.1	10.2	5.44e-03	0	58	0	111149056	55	6501
2026-01-29 22:15:59.64	40.82	11.27	-42.1	-47.0	10.4	5.31e-03	0	58	0	112197632	55	6429
2026-01-29 22:16:00.66	40.95	11.34	-42.2	-47.3	10.0	6.90e-03	0	58	0	114294784	55	6651
2026-01-29 22:16:01.67	41.09	11.40	-42.2	-47.2	10.1	6.19e-03	0	58	0	116391936	55	6593
2026-01-29 22:16:02.68	41.22	11.47	-42.3	-47.3	10.0	7.62e-03	0	58	0	118489088	55	6690
2026-01-29 22:16:03.69	41.36	11.53	-42.3	-47.4	9.9	9.49e-03	0	58	0	120586240	55	6771
2026-01-29 22:16:04.70	41.49	11.60	-42.4	-47.6	9.8	1.02e-02	0	58	0	122683392	55	6889
2026-01-29 22:16:05.71	41.63	11.66	-42.3	-47.4	9.9	1.03e-02	0	58	0	123731968	55	6743
2026-01-29 22:16:06.72	41.77	11.73	-42.3	-47.5	9.8	1.05e-02	0	58	0	125829120	55	6863
2026-01-29 22:16:07.73	41.91	11.79	-42.4	-47.6	9.7	1.04e-02	0	58	0	127926272	55	6940
2026-01-29 22:16:08.74	42.04	11.86	-42.3	-47.3	10.1	8.50e-03	0	58	0	130023424	55	6705
2026-01-29 22:16:09.75	42.18	11.93	-42.3	-47.4	10.0	8.66e-03	0	58	0	132120576	55	6782
2026-01-29 22:16:10.76	42.32	11.99	-42.3	-47.3	10.0	7.88e-03	0	58	0	133169152	55	6710
2026-01-29 22:16:11.77	42.46	12.06	-42.3	-47.3	10.1	7.57e-03	0	59	0	135266304	55	6685
2026-01-29 22:16:12.78	42.60	12.12	-42.3	-47.3	10.1	6.99e-03	0	58	0	137363456	55	6720
2026-01-29 22:16:13.79	42.74	12.19	-42.3	-47.3	10.1	6.61e-03	0	58	0	139460608	55	6722
2026-01-29 22:16:14.80	42.89	12.25	-42.3	-47.3	10.2	8.24e-03	0	58	0	141557760	55	6652
2026-01-29 22:16:15.81	43.03	12.32	-42.3	-47.2	10.2	5.67e-03	0	58	0	142606336	55	6579
2026-01-29 22:16:16.81	43.17	12.38	-42.3	-47.4	10.0	7.26e-03	0	58	0	144703488	55	6775
2026-01-29 22:16:17.83	43.32	12.45	-42.3	-47.2	10.2	6.90e-03	0	58	0	146800640	55	6618
2026-01-29 22:16:18.84	43.46	12.51	-42.3	-47.3	10.2	5.72e-03	0	58	0	148897792	55	6655
2026-01-29 22:16:19.85	43.61	12.58	-42.2	-47.1	10.3	5.40e-03	0	58	0	150994944	55	6529
2026-01-29 22:16:20.86	43.75	12.65	-42.2	-47.0	10.4	4.58e-03	0	58	0	152043520	55	6477
2026-01-29 22:16:21.87	43.90	12.71	-42.1	-46.8	10.7	3.62e-03	0	58	0	154140672	55	6307
2026-01-29 22:16:22.88	44.05	12.78	-42.1	-46.7	10.8	2.72e-03	0	58	0	156237824	55	6212
2026-01-29 22:16:23.89	44.19	12.84	-42.0	-46.6	10.9	2.62e-03	0	58	0	158334976	55	6150
2026-01-29 22:16:24.90	44.34	12.91	-41.9	-46.3	11.1	1.87e-03	0	58	0	160432128	55	5987
2026-01-29 22:16:25.91	44.49	12.97	-41.9	-46.4	11.1	1.70e-03	0	59	0	162529280	55	6002
2026-01-29 22:16:26.92	44.64	13.04	-41.9	-46.3	11.2	1.45e-03	0	58	0	163577856	55	5948
2026-01-29 22:16:27.93	44.79	13.10	-41.9	-46.3	11.2	1.21e-03	0	59	0	165675008	55	5968
2026-01-29 22:16:28.94	44.94	13.17	-42.0	-46.4	11.1	1.56e-03	0	59	0	167772160	55	6007
2026-01-29 22:16:29.95	45.09	13.24	-42.0	-46.4	11.1	1.44e-03	0	58	0	169869312	55	6040
2026-01-29 22:16:30.96	45.24	13.30	-41.9	-46.3	11.2	1.21e-03	0	58	0	171966464	55	5979
2026-01-29 22:16:31.98	45.40	13.37	-42.0	-46.4	11.1	1.40e-03	0	59	0	173015040	55	6003
2026-01-29 22:16:32.99	45.55	13.43	-42.0	-46.4	11.1	1.67e-03	0	59	0	175112192	55	6049
2026-01-29 22:16:34.00	45.71	13.50	-41.9	-46.3	11.3	1.39e-03	0	59	0	177209344	55	5940
2026-01-29 22:16:35.01	45.86	13.56	-42.0	-46.5	11.0	1.52e-03	0	59	0	179306496	55	6094
2026-01-29 22:16:36.02	46.02	13.63	-42.0	-46.5	11.0	1.60e-03	0	59	0	181403648	55	6107
2026-01-29 22:16:37.03	46.17	13.70	-42.0	-46.4	11.1	1.78e-03	0	59	0	182452224	55	6038
2026-01-29 22:16:38.04	46.33	13.76	-42.0	-46.5	11.1	1.79e-03	0	59	0	184549376	55	6083
2026-01-29 22:16:39.05	46.49	13.83	-42.1	-46.6	10.9	2.12e-03	0	59	0	186646528	55	6147
2026-01-29 22:16:40.06	46.65	13.89	-42.1	-46.6	10.9	2.49e-03	0	59	0	188743680	55	6179
2026-01-29 22:16:41.07	46.80	13.96	-42.0	-46.5	11.0	1.80e-03	0	59	0	190840832	55	6077
2026-01-29 22:16:42.08	46.96	14.02	-42.1	-46.6	10.9	2.18e-03	0	59	0	191889408	55	6198
2026-01-29 22:16:43.09	47.12	14.09	-42.0	-46.5	11.1	2.15e-03	0	59	0	193986560	55	6078
2026-01-29 22:16:44.10	47.29	14.15	-42.1	-46.6	10.9	1.89e-03	0	59	0	196083712	55	6173
2026-01-29 22:16:45.11	47.45	14.22	-42.0	-46.5	11.0	1.97e-03	0	59	0	198180864	55	6097
2026-01-29 22:16:46.12	47.61	14.28	-42.1	-46.7	10.9	2.13e-03	0	59	0	200278016	55	6219
2026-01-29 22:16:47.13	47.77	14.35	-42.2	-47.0	10.7	2.87e-03	0	59	0	201326592	55	6438
2026-01-29 22:16:48.14	47.94	14.41	-42.2	-47.0	10.6	4.11e-03	0	59	0	203423744	55	6425
2026-01-29 22:16:49.15	48.10	14.48	-42.3	-47.1	10.4	4.29e-03	0	59	0	205520896	55	6524
2026-01-29 22:16:50.16	48.27	14.55	-42.3	-47.2	10.3	4.04e-03	0	59	0	207618048	55	6633
2026-01-29 22:16:51.17	48.43	14.61	-42.4	-47.2	10.3	5.13e-03	0	59	0	209715200	55	6628
2026-01-29 22:16:52.18	48.60	14.68	-42.2	-46.9	10.6	3.50e-03	0	59	0	210763776	55	6386
2026-01-29 22:16:53.19	48.76	14.74	-42.2	-46.9	10.7	2.79e-03	0	59	0	212860928	55	6374
2026-01-29 22:16:54.20	48.93	14.81	-42.1	-46.6	10.9	2.52e-03	0	59	0	214958080	55	6162
2026-01-29 22:16:55.20	49.10	14.87	-42.0	-46.3	11.2	1.43e-03	0	59	0	217055232	55	5987
2026-01-29 22:16:56.21	49.27	14.93	-42.0	-46.4	11.1	1.36e-03	0	59	0	219152384	55	5998
2026-01-29 22:16:57.22	49.44	15.00	-42.0	-46.3	11.3	9.20e-04	0	59	0	220200960	55	5940
2026-01-29 22:16:58.23	49.61	15.06	-42.2	-46.7	10.9	1.36e-03	0	59	0	222298112	55	6263
2026-01-29 22:16:59.24	49.78	15.13	-42.1	-46.6	10.9	1.97e-03	0	59	0	224395264	55	6191
2026-01-29 22:17:00.25	49.95	15.19	-42.2	-46.8	10.8	1.99e-03	0	59	0	226492416	55	6294
2026-01-29 22:17:01.26	50.13	15.26	-42.2	-46.8	10.9	2.13e-03	0	59	0	228589568	55	6341
2026-01-29 22:17:02.27	50.30	15.32	-42.2	-46.7	10.8	3.05e-03	0	59	0	230686720	55	6272
2026-01-29 22:17:03.28	50.48	15.39	-42.1	-46.6	11.1	2.60e-03	0	59	0	231735296	55	6145
2026-01-29 22:17:04.29	50.65	15.45	-42.0	-46.4	11.1	1.35e-03	0	59	0	233832448	55	6058
2026-01-29 22:17:05.30	50.83	15.52	-42.0	-46.4	11.3	1.43e-03	0	59	0	235929600	55	6012
2026-01-29 22:17:06.31	51.00	15.58	-41.9	-46.2	11.3	1.11e-03	0	59	0	238026752	55	5910
2026-01-29 22:17:07.32	51.18	15.64	-41.9	-46.2	11.4	1.03e-03	0	59	0	240123904	55	5858
2026-01-29 22:17:08.33	51.36	15.71	-41.9	-46.0	11.6	7.67e-04	0	59	0	241172480	55	5774
2026-01-29 22:17:09.34	51.54	15.77	-41.8	-45.9	11.8	6.48e-04	0	59	0	243269632	55	5665
2026-01-29 22:17:10.35	51.72	15.84	-41.9	-46.1	11.6	7.99e-04	0	59	0	245366784	55	5796
2026-01-29 22:17:11.36	51.90	15.90	-41.8	-45.9	11.8	6.71e-04	0	59	0	247463936	55	5660
2026-01-29 22:17:12.37	52.08	15.96	-41.8	-45.9	11.7	6.45e-04	0	59	0	249561088	55	5701
2026-01-29 22:17:13.38	52.26	16.03	-41.9	-46.0	11.7	5.87e-04	0	59	0	250609664	55	5751
2026-01-29 22:17:14.39	52.44	16.09	-41.8	-45.9	11.7	6.60e-04	0	59	0	252706816	55	5666
2026-01-29 22:17:15.40	52.63	16.15	-41.8	-45.8	11.9	4.57e-04	0	59	0	254803968	55	5616
2026-01-29 22:17:16.41	52.81	16.22	-41.8	-45.9	11.7	4.46e-04	0	59	0	256901120	55	5718
2026-01-29 22:17:17.42	53.00	16.28	-41.8	-45.9	11.7	5.29e-04	0	59	0	258998272	55	5690
2026-01-29 22:17:18.43	53.18	16.34	-41.9	-46.0	11.6	7.43e-04	0	59	0	260046848	55	5773
2026-01-29 22:17:19.44	53.37	16.41	-41.8	-45.9	11.7	6.80e-04	0	59	0	262144000	55	5717
2026-01-29 22:17:20.44	53.55	16.47	-41.9	-46.1	11.5	7.61e-04	0	59	0	264241152	55	5805
2026-01-29 22:17:21.45	53.74	16.53	-41.9	-46.1	11.5	7.37e-04	0	59	0	266338304	55	5838
2026-01-29 22:17:22.46	53.93	16.59	-42.0	-46.3	11.4	8.22e-04	0	59	0	268435456	55	5937
2026-01-29 22:17:23.47	54.12	16.66	-41.9	-46.1	11.5	7.49e-04	0	59	0	269484032	55	5847
2026-01-29 22:17:24.48	54.31	16.72	-41.9	-46.1	11.5	6.35e-04	0	59	0	271581184	55	5843
2026-01-29 22:17:25.49	54.50	16.78	-41.9	-46.1	11.6	6.41e-04	0	59	0	273678336	55	5813
2026-01-29 22:17:26.50	54.69	16.84	-41.8	-45.8	11.8	4.34e-04	0	59	0	275775488	55	5621
2026-01-29 22:17:27.51	54.88	16.90	-41.8	-45.8	11.9	4.79e-04	0	59	0	277872640	55	5633
2026-01-29 22:17:28.52	55.08	16.96	-41.8	-45.9	11.8	4.78e-04	0	59	0	278921216	55	5663
2026-01-29 22:17:29.53	55.27	17.03	-41.9	-46.1	11.5	4.58e-04	0	59	0	281018368	55	5849
2026-01-29 22:17:30.54	55.47	17.09	-41.9	-46.1	11.5	7.19e-04	0	59	0	283115520	55	5832
2026-01-29 22:17:31.55	55.66	17.15	-41.9	-46.2	11.4	9.54e-04	0	59	0	285212672	55	5887
2026-01-29 22:17:32.56	55.86	17.21	-42.0	-46.3	11.4	1.03e-03	0	59	0	287309824	55	5955
2026-01-29 22:17:33.57	56.06	17.27	-42.1	-46.5	11.1	1.23e-03	0	59	0	288358400	55	6091
2026-01-29 22:17:34.58	56.25	17.33	-42.0	-46.4	11.3	1.66e-03	0	59	0	290455552	55	6008
2026-01-29 22:17:35.59	56.45	17.39	-42.0	-46.2	11.4	1.00e-03	0	59	0	292552704	55	5899
2026-01-29 22:17:36.60	56.65	17.45	-42.0	-46.2	11.5	8.67e-04	0	59	0	294649856	55	5888
2026-01-29 22:17:37.61	56.85	17.51	-41.9	-46.0	11.6	8.45e-04	0	60	0	296747008	55	5769
2026-01-29 22:17:38.62	57.05	17.57	-41.9	-46.1	11.5	8.68e-04	0	59	0	298844160	55	5853
2026-01-29 22:17:39.63	57.26	17.63	-42.1	-46.3	11.3	9.02e-04	0	59	0	299892736	55	5992
2026-01-29 22:17:40.64	57.46	17.69	-42.2	-46.7	11.0	1.28e-03	0	60	0	301989888	55	6229
2026-01-29 22:17:41.65	57.66	17.75	-42.2	-46.7	10.9	2.51e-03	0	60	0	304087040	55	6247
2026-01-29 22:17:42.66	57.87	17.81	-42.3	-46.9	10.7	2.89e-03	0	59	0	306184192	55	6417
2026-01-29 22:17:43.67	58.07	17.87	-42.3	-47.0	10.6	3.47e-03	0	59	0	308281344	55	6456
2026-01-29 22:17:44.68	58.28	17.93	-42.4	-47.1	10.6	3.58e-03	0	59	0	309329920	55	6534
2026-01-29 22:17:45.69	58.48	17.99	-42.3	-47.0	10.7	3.19e-03	0	60	0	311427072	55	6421
2026-01-29 22:17:46.70	58.69	18.04	-42.3	-46.9	10.7	2.88e-03	0	60	0	313524224	55	6387
2026-01-29 22:17:47.71	58.90	18.10	-42.3	-46.9	10.6	3.31e-03	0	60	0	315621376	55	6412
2026-01-29 22:17:48.72	59.11	18.16	-42.4	-47.1	10.6	3.21e-03	0	60	0	317718528	55	6535
2026-01-29 22:17:49.72	59.32	18.22	-42.5	-47.4	10.2	5.71e-03	0	59	0	318767104	55	6795
2026-01-29 22:17:50.73	59.53	18.27	-42.5	-47.5	10.1	6.29e-03	0	60	0	320864256	55	6821
2026-01-29 22:17:51.74	59.74	18.33	-42.6	-47.8	9.8	6.84e-03	0	59	0	322961408	55	7047
2026-01-29 22:17:52.75	59.95	18.39	-42.6	-47.8	9.8	7.98e-03	0	59	0	325058560	55	7052
2026-01-29 22:17:53.76	60.16	18.45	-42.7	-47.9	9.7	1.02e-02	0	60	0	327155712	55	7140
2026-01-29 22:17:54.77	60.38	18.50	-42.7	-47.9	9.7	1.07e-02	0	60	0	328204288	55	7204
2026-01-29 22:17:55.78	60.59	18.56	-42.9	-48.2	9.6	1.16e-02	0	60	0	330301440	56	7003
2026-01-29 22:17:56.79	60.81	18.61	-43.0	-48.4	9.4	1.68e-02	0	59	0	332398592	56	7192
2026-01-29 22:17:57.80	61.02	18.67	-43.0	-48.6	9.2	1.59e-02	0	60	0	334495744	56	7305
2026-01-29 22:17:58.81	61.24	18.72	-43.1	-48.7	9.1	2.15e-02	0	60	0	336592896	56	7412
2026-01-29 22:17:59.82	61.46	18.78	-43.0	-48.5	9.3	1.86e-02	0	60	0	337641472	56	7274
2026-01-29 22:18:00.83	61.67	18.83	-43.0	-48.5	9.3	1.76e-02	0	59	0	339738624	56	7250
2026-01-29 22:18:01.84	61.89	18.89	-42.9	-48.4	9.4	1.59e-02	0	60	0	341835776	56	7140
2026-01-29 22:18:02.85	62.11	18.94	-42.9	-48.3	9.5	1.54e-02	0	60	0	343932928	56	7101
2026-01-29 22:18:03.86	62.33	19.00	-42.9	-48.4	9.5	1.38e-02	0	60	0	346030080	56	7134
2026-01-29 22:18:04.87	62.56	19.05	-43.0	-48.5	9.4	1.68e-02	0	60	0	347078656	56	7246
2026-01-29 22:18:05.88	62.78	19.10	-43.0	-48.5	9.3	1.94e-02	0	59	0	349175808	56	7224
2026-01-29 22:18:06.89	63.00	19.16	-43.0	-48.7	9.1	2.04e-02	0	60	0	351272960	56	7372
2026-01-29 22:18:07.90	63.22	19.21	-42.9	-48.3	9.5	1.96e-02	0	60	0	353370112	56	7061
2026-01-29 22:18:08.91	63.45	19.26	-42.8	-48.1	9.8	1.11e-02	0	60	0	355467264	56	6883
2026-01-29 22:18:09.92	63.67	19.31	-42.9	-48.1	9.6	1.25e-02	0	60	0	356515840	56	6946
2026-01-29 22:18:10.93	63.90	19.37	-42.7	-47.8	10.0	1.03e-02	0	60	0	358612992	56	6700
2026-01-29 22:18:11.94	64.13	19.42	-42.8	-48.0	9.8	9.81e-03	0	60	0	360710144	56	6815
2026-01-29 22:18:12.95	64.35	19.47	-42.8	-48.1	9.7	1.07e-02	0	60	0	362807296	56	6917
2026-01-29 22:18:13.96	64.58	19.52	-42.8	-48.0	9.8	1.19e-02	0	60	0	364904448	56	6818
2026-01-29 22:18:14.97	64.81	19.57	-42.8	-47.9	9.9	1.06e-02	0	59	0	367001600	56	6745
2026-01-29 22:18:15.98	65.04	19.62	-42.6	-47.5	10.3	6.28e-03	0	60	0	368050176	56	6481
2026-01-29 22:18:17.00	65.27	19.67	-42.5	-47.2	10.6	3.52e-03	0	60	0	370147328	56	6239
2026-01-29 22:18:18.00	65.50	19.72	-42.4	-47.0	10.8	3.55e-03	0	60	0	372244480	56	6103
2026-01-29 22:18:19.02	65.74	19.77	-42.2	-46.5	11.3	1.85e-03	0	60	0	374341632	56	5786
2026-01-29 22:18:20.02	65.97	19.82	-42.3	-46.8	11.1	1.78e-03	0	60	0	376438784	56	5979
2026-01-29 22:18:21.03	66.20	19.86	-42.4	-47.0	10.8	2.23e-03	0	60	0	377487360	56	6112
2026-01-29 22:18:22.04	66.43	19.91	-42.5	-47.3	10.5	3.51e-03	0	60	0	379584512	56	6301
2026-01-29 22:18:23.06	66.67	19.96	-42.5	-47.3	10.5	3.57e-03	0	60	0	381681664	56	6332
2026-01-29 22:18:24.07	66.91	20.01	-42.5	-47.2	10.6	4.12e-03	0	60	0	383778816	56	6247
2026-01-29 22:18:25.08	67.14	20.05	-42.4	-47.0	10.8	3.16e-03	0	60	0	385875968	56	6119
2026-01-29 22:18:26.09	67.38	20.10	-42.4	-47.0	10.8	2.23e-03	0	60	0	386924544	56	6074
2026-01-29 22:18:27.10	67.62	20.15	-42.3	-46.7	11.1	1.55e-03	0	60	0	389021696	56	5907
2026-01-29 22:18:28.11	67.86	20.19	-42.3	-46.8	11.0	1.44e-03	0	60	0	391118848	56	5976
2026-01-29 22:18:29.12	68.09	20.24	-42.5	-47.1	10.7	2.11e-03	0	60	0	393216000	56	6174
2026-01-29 22:18:30.13	68.33	20.28	-42.6	-47.3	10.5	2.71e-03	0	60	0	395313152	56	6336
2026-01-29 22:18:31.14	68.57	20.33	-42.6	-47.4	10.5	3.92e-03	0	60	0	396361728	56	6367
2026-01-29 22:18:32.15	68.82	20.37	-42.4	-47.0	10.8	3.44e-03	0	60	0	398458880	56	6114
2026-01-29 22:18:33.16	69.06	20.41	-42.3	-46.7	11.1	2.06e-03	0	60	0	400556032	56	5919
2026-01-29 22:18:34.17	69.30	20.46	-42.0	-46.2	11.6	1.13e-03	0	60	0	402653184	56	5546
2026-01-29 22:18:35.18	69.54	20.50	-41.8	-46.0	11.7	5.28e-04	0	60	0	404750336	55	5731
2026-01-29 22:18:36.19	69.79	20.54	-41.7	-45.7	12.0	2.54e-04	0	60	0	405798912	55	5543
2026-01-29 22:18:37.20	70.03	20.58	-41.7	-45.7	11.9	3.21e-04	0	60	0	407896064	55	5579
2026-01-29 22:18:38.21	70.28	20.62	-41.8	-45.9	11.7	4.89e-04	0	60	0	409993216	55	5702
2026-01-29 22:18:39.22	70.52	20.67	-41.9	-46.1	11.4	7.80e-04	0	60	0	412090368	55	5853
2026-01-29 22:18:40.23	70.77	20.71	-41.9	-46.2	11.3	1.03e-03	0	60	0	414187520	55	5903
2026-01-29 22:18:41.24	71.01	20.75	-41.8	-46.1	11.4	1.03e-03	0	60	0	415236096	55	5806
2026-01-29 22:18:42.25	71.26	20.79	-41.9	-46.5	10.9	1.63e-03	0	60	0	417333248	55	6089
2026-01-29 22:18:43.26	71.51	20.82	-41.9	-46.6	10.7	2.63e-03	0	60	0	419430400	55	6142
2026-01-29 22:18:44.27	71.76	20.86	-41.9	-46.7	10.4	3.43e-03	0	60	0	421527552	55	6261
2026-01-29 22:18:45.29	72.01	20.90	-41.9	-47.0	10.0	6.54e-03	0	60	0	423624704	55	6429
2026-01-29 22:18:46.30	72.26	20.94	-41.9	-47.0	10.0	8.83e-03	0	60	0	424673280	55	6467
2026-01-29 22:18:47.31	72.51	20.98	-41.8	-46.8	10.0	7.92e-03	0	60	0	426770432	55	6314
2026-01-29 22:18:48.32	72.76	21.01	-41.8	-46.8	10.1	6.63e-03	0	60	0	428867584	55	6291
2026-01-29 22:18:49.33	73.01	21.05	-41.7	-46.4	10.6	4.37e-03	0	60	0	430964736	55	6039
2026-01-29 22:18:50.34	73.27	21.08	-41.8	-46.5	10.6	3.06e-03	0	60	0	433061888	55	6068
2026-01-29 22:18:51.35	73.52	21.12	-41.7	-46.2	11.0	2.21e-03	0	60	0	435159040	55	5904
2026-01-29 22:18:52.36	73.77	21.15	-41.8	-46.3	11.0	1.71e-03	0	60	0	436207616	55	5963
2026-01-29 22:18:53.37	74.03	21.19	-41.8	-46.1	11.3	1.37e-03	0	60	0	438304768	55	5852
2026-01-29 22:18:54.38	74.28	21.22	-41.6	-45.9	11.6	8.15e-04	0	60	0	440401920	55	5678
2026-01-29 22:18:55.38	74.53	21.25	-41.6	-45.8	11.5	7.13e-04	0	60	0	442499072	55	5648
2026-01-29 22:18:56.39	74.79	21.29	-41.7	-45.9	11.5	6.32e-04	0	60	0	444596224	55	5710
2026-01-29 22:18:57.40	75.05	21.32	-41.7	-46.0	11.5	7.93e-04	0	60	0	445644800	55	5732
2026-01-29 22:18:58.41	75.30	21.35	-41.9	-46.3	11.1	1.32e-03	0	60	0	447741952	55	5973
2026-01-29 22:18:59.42	75.56	21.38	-42.0	-46.6	10.8	1.97e-03	0	60	0	449839104	55	6187
2026-01-29 22:19:00.43	75.82	21.41	-42.0	-46.5	11.0	1.99e-03	0	60	0	451936256	55	6080
2026-01-29 22:19:01.44	76.08	21.44	-42.0	-46.4	11.1	1.49e-03	0	60	0	454033408	55	6060
2026-01-29 22:19:02.45	76.34	21.47	-41.8	-46.0	11.5	9.51e-04	0	60	0	455081984	55	5749
2026-01-29 22:19:03.46	76.59	21.50	-41.8	-46.0	11.5	7.62e-04	0	60	0	457179136	55	5760
2026-01-29 22:19:04.47	76.85	21.53	-41.8	-46.1	11.3	9.63e-04	0	60	0	459276288	55	5818
2026-01-29 22:19:05.48	77.11	21.55	-42.0	-46.6	10.9	1.47e-03	0	60	0	461373440	55	6143
2026-01-29 22:19:06.49	77.37	21.58	-42.2	-46.9	10.6	2.63e-03	0	60	0	463470592	55	6353
2026-01-29 22:19:07.50	77.64	21.61	-42.3	-47.1	10.5	3.88e-03	0	60	0	464519168	55	6528
2026-01-29 22:19:08.51	77.90	21.63	-42.2	-46.9	10.6	3.40e-03	0	60	0	466616320	55	6359
2026-01-29 22:19:09.52	78.16	21.66	-42.0	-46.5	11.1	2.20e-03	0	60	0	468713472	55	6064
2026-01-29 22:19:10.53	78.42	21.68	-41.9	-46.2	11.4	1.18e-03	0	60	0	470810624	55	5905
2026-01-29 22:19:11.53	78.68	21.71	-41.9	-46.2	11.5	9.06e-04	0	60	0	472907776	55	5865
2026-01-29 22:19:12.55	78.95	21.73	-42.0	-46.3	11.2	1.03e-03	0	60	0	473956352	55	5964
2026-01-29 22:19:13.56	79.21	21.75	-42.1	-46.6	10.9	1.76e-03	0	60	0	476053504	55	6197
2026-01-29 22:19:14.57	79.48	21.78	-42.3	-47.1	10.5	2.88e-03	0	60	0	478150656	55	6527
2026-01-29 22:19:15.57	79.74	21.80	-42.3	-46.9	10.7	3.41e-03	0	60	0	480247808	55	6419
2026-01-29 22:19:16.58	80.00	21.82	-42.1	-46.6	11.0	3.03e-03	0	60	0	482344960	55	6191
2026-01-29 22:19:17.59	80.27	21.84	-42.1	-46.5	11.1	1.64e-03	0	60	0	483393536	55	6121
2026-01-29 22:19:18.60	80.53	21.86	-42.0	-46.3	11.3	1.37e-03	0	60	0	485490688	55	5967
2026-01-29 22:19:19.61	80.80	21.88	-42.0	-46.4	11.2	1.21e-03	0	60	0	487587840	55	6030
2026-01-29 22:19:20.62	81.06	21.90	-42.1	-46.6	11.0	1.50e-03	0	60	0	489684992	55	6174
2026-01-29 22:19:21.63	81.33	21.91	-42.2	-46.7	10.9	2.09e-03	0	60	0	491782144	55	6251
2026-01-29 22:19:22.64	81.60	21.93	-42.1	-46.5	11.1	2.20e-03	0	60	0	492830720	55	6131
2026-01-29 22:19:23.65	81.86	21.95	-42.0	-46.3	11.4	1.24e-03	0	60	0	494927872	55	5924
2026-01-29 22:19:24.67	82.13	21.97	-41.9	-46.2	11.4	9.49e-04	0	60	0	497025024	55	5877
2026-01-29 22:19:25.68	82.40	21.98	-41.9	-46.1	11.5	8.01e-04	0	60	0	499122176	55	5814
2026-01-29 22:19:26.69	82.67	22.00	-42.0	-46.3	11.4	9.28e-04	0	60	0	501219328	55	5926
2026-01-29 22:19:27.69	82.93	22.01	-42.1	-46.6	11.0	1.43e-03	0	60	0	503316480	55	6150
2026-01-29 22:19:28.70	83.20	22.02	-42.2	-46.9	10.7	2.32e-03	0	60	0	504365056	55	6376
2026-01-29 22:19:29.71	83.47	22.04	-42.2	-46.8	10.7	2.89e-03	0	60	0	506462208	55	6342
2026-01-29 22:19:30.72	83.74	22.05	-42.0	-46.5	11.0	1.92e-03	0	60	0	508559360	55	6101
2026-01-29 22:19:31.73	84.01	22.06	-41.9	-46.2	11.3	1.58e-03	0	60	0	510656512	55	5891
2026-01-29 22:19:32.74	84.28	22.07	-41.9	-46.4	11.0	1.38e-03	0	60	0	512753664	55	6025
2026-01-29 22:19:33.75	84.55	22.08	-42.0	-46.7	10.7	2.34e-03	0	60	0	513802240	55	6255
2026-01-29 22:19:34.76	84.82	22.09	-42.2	-47.3	10.0	6.03e-03	0	60	0	515899392	55	6655
2026-01-29 22:19:35.77	85.09	22.10	-42.4	-47.7	9.5	9.80e-03	0	60	0	517996544	55	6999
2026-01-29 22:19:36.78	85.36	22.11	-42.4	-47.8	9.4	1.56e-02	0	60	0	520093696	55	7121
2026-01-29 22:19:37.79	85.63	22.12	-42.4	-47.7	9.6	1.74e-02	0	60	0	522190848	55	7003
2026-01-29 22:19:38.80	85.90	22.13	-42.5	-47.7	9.7	1.40e-02	0	60	0	523239424	55	6999
2026-01-29 22:19:39.82	86.17	22.13	-42.4	-47.4	10.1	7.82e-03	0	60	0	525336576	55	6781
2026-01-29 22:19:40.83	86.44	22.14	-42.4	-47.3	10.1	6.58e-03	0	60	0	527433728	55	6700
2026-01-29 22:19:41.83	86.71	22.15	-42.2	-47.0	10.4	6.61e-03	0	60	0	529530880	55	6490
2026-01-29 22:19:42.84	86.98	22.15	-42.2	-46.9	10.5	4.62e-03	0	60	0	531628032	55	6420
2026-01-29 22:19:43.86	87.25	22.16	-42.0	-46.6	10.7	3.59e-03	0	60	0	532676608	55	6193
2026-01-29 22:19:44.87	87.52	22.16	-42.0	-46.6	10.8	3.09e-03	0	60	0	534773760	55	6176
2026-01-29 22:19:45.88	87.79	22.16	-42.0	-46.5	11.0	2.00e-03	0	60	0	536870912	55	6069
2026-01-29 22:19:46.89	88.06	22.16	-42.1	-46.7	10.8	2.71e-03	0	60	0	538968064	55	6232
2026-01-29 22:19:47.90	88.34	22.17	-42.2	-46.9	10.7	3.12e-03	0	60	0	541065216	55	6369
2026-01-29 22:19:48.91	88.61	22.17	-42.3	-47.1	10.4	3.05e-03	0	60	0	543162368	55	6516
2026-01-29 22:19:49.92	88.88	22.17	-42.3	-47.0	10.6	3.61e-03	0	60	0	544210944	55	6463
2026-01-29 22:19:50.92	89.15	22.17	-42.2	-46.8	10.7	3.31e-03	0	60	0	546308096	55	6315
2026-01-29 22:19:51.93	89.42	22.17	-42.1	-46.7	10.9	2.91e-03	0	60	0	548405248	55	6252
2026-01-29 22:19:52.94	89.69	22.16	-42.1	-46.6	11.0	1.73e-03	0	60	0	550502400	55	6145
2026-01-29 22:19:53.95	89.96	22.16	-42.1	-46.5	11.1	1.73e-03	0	60	0	551550976	55	6071
2026-01-29 22:19:54.96	90.23	22.16	-42.0	-46.3	11.3	1.47e-03	0	60	0	553648128	55	5973
2026-01-29 22:19:55.97	90.50	22.16	-41.9	-46.2	11.4	9.89e-04	0	60	0	555745280	55	5880
2026-01-29 22:19:56.98	90.77	22.15	-42.0	-46.3	11.4	1.04e-03	0	60	0	557842432	55	5941
2026-01-29 22:19:57.99	91.04	22.15	-41.8	-46.0	11.7	7.56e-04	0	60	0	559939584	55	5749
2026-01-29 22:19:59.00	91.31	22.14	-41.8	-45.9	11.8	6.20e-04	0	60	0	560988160	55	5693
2026-01-29 22:20:00.01	91.58	22.14	-41.8	-45.9	11.8	5.01e-04	0	60	0	563085312	55	5698
2026-01-29 22:20:01.02	91.85	22.13	-41.8	-45.8	11.9	4.43e-04	0	60	0	565182464	55	5641
2026-01-29 22:20:02.03	92.12	22.12	-41.9	-46.0	11.7	5.39e-04	0	60	0	567279616	55	5772
2026-01-29 22:20:03.04	92.39	22.11	-42.0	-46.1	11.6	7.00e-04	0	60	0	569376768	55	5842
2026-01-29 22:20:04.05	92.66	22.10	-42.0	-46.2	11.5	6.83e-04	0	60	0	571473920	55	5883
2026-01-29 22:20:05.06	92.93	22.10	-42.0	-46.3	11.4	8.72e-04	0	60	0	572522496	55	5929
2026-01-29 22:20:06.07	93.20	22.09	-42.0	-46.2	11.5	8.39e-04	0	60	0	574619648	55	5883
2026-01-29 22:20:07.08	93.47	22.07	-41.9	-46.0	11.7	6.13e-04	0	60	0	576716800	55	5785
2026-01-29 22:20:08.09	93.74	22.06	-41.9	-45.9	11.8	5.90e-04	0	60	0	578813952	55	5722
2026-01-29 22:20:09.10	94.01	22.05	-41.9	-45.9	11.8	4.93e-04	0	60	0	580911104	55	5690
2026-01-29 22:20:10.11	94.28	22.04	-42.0	-46.1	11.6	5.80e-04	0	60	0	581959680	55	5846
2026-01-29 22:20:11.13	94.55	22.03	-42.0	-46.1	11.6	8.14e-04	0	60	0	584056832	55	5827
2026-01-29 22:20:12.14	94.82	22.01	-42.1	-46.4	11.3	1.19e-03	0	60	0	586153984	55	6023
2026-01-29 22:20:13.15	95.09	22.00	-42.1	-46.4	11.3	1.13e-03	0	60	0	588251136	55	6034
2026-01-29 22:20:14.16	95.36	21.98	-42.0	-46.3	11.5	1.11e-03	0	60	0	590348288	55	5930
2026-01-29 22:20:15.17	95.63	21.97	-42.0	-46.2	11.5	7.80e-04	0	60	0	591396864	55	5874
2026-01-29 22:20:16.18	95.89	21.95	-41.9	-46.0	11.8	5.53e-04	0	60	0	593494016	55	5746
2026-01-29 22:20:17.19	96.16	21.93	-42.0	-46.2	11.6	6.97e-04	0	60	0	595591168	55	5882
2026-01-29 22:20:18.20	96.43	21.92	-42.1	-46.5	11.2	1.15e-03	0	60	0	597688320	55	6118
2026-01-29 22:20:19.21	96.70	21.90	-42.3	-46.9	10.8	1.80e-03	0	60	0	599785472	55	6398
2026-01-29 22:20:20.22	96.96	21.88	-42.3	-46.9	10.8	2.32e-03	0	60	0	600834048	55	6407
2026-01-29 22:20:21.23	97.23	21.86	-42.2	-46.7	11.0	2.19e-03	0	60	0	602931200	55	6217
2026-01-29 22:20:22.24	97.49	21.84	-42.0	-46.3	11.5	1.07e-03	0	60	0	605028352	55	5924
2026-01-29 22:20:23.25	97.76	21.82	-41.9	-45.9	11.8	6.89e-04	0	60	0	607125504	55	5687
2026-01-29 22:20:24.26	98.02	21.80	-41.8	-45.7	12.0	4.55e-04	0	60	0	609222656	55	5562
2026-01-29 22:20:25.27	98.29	21.78	-41.8	-45.8	12.0	3.44e-04	0	61	0	611319808	55	5606
2026-01-29 22:20:26.28	98.55	21.75	-41.8	-45.8	12.0	3.80e-04	0	61	0	612368384	55	5603
2026-01-29 22:20:27.29	98.82	21.73	-41.9	-45.9	11.8	4.83e-04	0	60	0	614465536	55	5716
2026-01-29 22:20:28.30	99.08	21.71	-41.9	-46.0	11.7	5.42e-04	0	60	0	616562688	55	5757
2026-01-29 22:20:29.31	99.34	21.68	-41.8	-45.8	11.9	4.61e-04	0	60	0	618659840	55	5625
2026-01-29 22:20:30.32	99.61	21.66	-41.7	-45.7	12.1	3.55e-04	0	60	0	620756992	55	5535
2026-01-29 22:20:31.33	99.87	21.63	-41.7	-45.6	12.2	3.04e-04	0	60	0	621805568	55	5485
2026-01-29 22:20:32.34	100.13	21.61	-41.7	-45.6	12.2	1.97e-04	0	60	0	623902720	55	5477
2026-01-29 22:20:33.35	100.39	21.58	-41.7	-45.5	12.3	1.80e-04	0	61	0	625999872	55	5425
2026-01-29 22:20:34.36	100.65	21.56	-41.7	-45.5	12.3	1.72e-04	0	60	0	628097024	55	5440
2026-01-29 22:20:35.37	100.92	21.53	-41.7	-45.5	12.2	2.14e-04	0	60	0	630194176	55	5444
2026-01-29 22:20:36.38	101.18	21.50	-41.6	-45.5	12.3	2.10e-04	0	61	0	631242752	55	5410
2026-01-29 22:20:37.39	101.44	21.47	-41.7	-45.6	12.2	2.84e-04	0	60	0	633339904	55	5475
2026-01-29 22:20:38.40	101.70	21.44	-41.8	-45.7	12.0	2.98e-04	0	60	0	635437056	55	5569
2026-01-29 22:20:39.41	101.95	21.41	-41.8	-45.7	12.1	3.05e-04	0	60	0	637534208	55	5551
2026-01-29 22:20:40.42	102.21	21.38	-41.7	-45.6	12.2	2.39e-04	0	60	0	639631360	55	5492
2026-01-29 22:20:41.43	102.47	21.35	-41.7	-45.5	12.3	1.81e-04	0	60	0	640679936	55	5428
2026-01-29 22:20:42.44	102.73	21.32	-41.8	-45.7	12.1	2.23e-04	0	61	0	642777088	55	5551
2026-01-29 22:20:43.45	102.98	21.29	-41.8	-45.8	12.0	3.69e-04	0	60	0	644874240	55	5637
2026-01-29 22:20:44.46	103.24	21.25	-42.0	-46.1	11.6	5.04e-04	0	61	0	646971392	55	5849
2026-01-29 22:20:45.47	103.50	21.22	-42.0	-46.1	11.6	8.16e-04	0	60	0	649068544	55	5829
2026-01-29 22:20:46.48	103.75	21.19	-42.0	-46.2	11.6	7.09e-04	0	61	0	650117120	55	5871
2026-01-29 22:20:47.49	104.01	21.15	-41.9	-46.0	11.8	5.44e-04	0	61	0	652214272	55	5752
2026-01-29 22:20:48.49	104.26	21.12	-42.0	-46.1	11.8	5.16e-04	0	61	0	654311424	55	5810
2026-01-29 22:20:49.50	104.51	21.08	-41.8	-45.8	12.0	4.20e-04	0	60	0	656408576	55	5641
2026-01-29 22:20:50.51	104.77	21.05	-41.8	-45.7	12.1	3.61e-04	0	61	0	658505728	55	5577
2026-01-29 22:20:51.52	105.02	21.01	-41.8	-45.7	12.1	3.14e-04	0	60	0	659554304	55	5540
2026-01-29 22:20:52.53	105.27	20.98	-41.6	-45.4	12.4	1.95e-04	0	61	0	661651456	55	5358
2026-01-29 22:20:53.54	105.52	20.94	-41.6	-45.4	12.5	1.31e-04	0	60	0	663748608	55	5346
2026-01-29 22:20:54.55	105.77	20.90	-41.5	-45.2	12.6	6.56e-05	0	60	0	665845760	54	5549
2026-01-29 22:20:55.56	106.02	20.86	-41.5	-45.1	12.7	6.94e-05	0	60	0	667942912	54	5494
2026-01-29 22:20:56.57	106.27	20.82	-41.5	-45.2	12.6	7.32e-05	0	60	0	668991488	54	5534
2026-01-29 22:20:57.58	106.52	20.79	-41.5	-45.2	12.6	1.04e-04	0	61	0	671088640	54	5555
2026-01-29 22:20:58.59	106.77	20.75	-41.6	-45.4	12.4	9.38e-05	0	61	0	673185792	54	5681
2026-01-29 22:20:59.60	107.02	20.71	-41.6	-45.4	12.3	1.92e-04	0	60	0	675282944	54	5722
2026-01-29 22:21:00.61	107.26	20.67	-41.8	-45.7	12.1	2.43e-04	0	60	0	677380096	54	5886
2026-01-29 22:21:01.62	107.51	20.62	-41.7	-45.6	12.2	2.69e-04	0	61	0	679477248	54	5831
2026-01-29 22:21:02.63	107.76	20.58	-41.7	-45.6	12.2	2.28e-04	0	61	0	680525824	54	5838
2026-01-29 22:21:03.64	108.00	20.54	-41.8	-45.7	12.1	2.30e-04	0	60	0	682622976	54	5923
2026-01-29 22:21:04.65	108.25	20.50	-41.6	-45.4	12.4	1.38e-04	0	60	0	684720128	54	5681
2026-01-29 22:21:05.66	108.49	20.46	-41.7	-45.5	12.2	1.49e-04	0	60	0	686817280	54	5779
2026-01-29 22:21:06.67	108.73	20.41	-41.7	-45.6	12.2	1.65e-04	0	60	0	688914432	54	5790
2026-01-29 22:21:07.68	108.98	20.37	-41.8	-45.8	11.9	2.94e-04	0	60	0	689963008	54	5985
2026-01-29 22:21:08.69	109.22	20.33	-41.9	-46.0	11.7	5.65e-04	0	60	0	692060160	54	6120
2026-01-29 22:21:09.70	109.46	20.28	-41.9	-46.1	11.7	7.94e-04	0	60	0	694157312	54	6151
2026-01-29 22:21:10.71	109.70	20.24	-41.9	-46.0	11.8	5.25e-04	0	61	0	696254464	54	6084
2026-01-29 22:21:11.72	109.94	20.19	-41.9	-45.9	11.9	4.15e-04	0	60	0	698351616	54	6037
2026-01-29 22:21:12.73	110.18	20.14	-41.7	-45.7	12.1	2.88e-04	0	61	0	699400192	54	5868
2026-01-29 22:21:13.74	110.42	20.10	-41.6	-45.3	12.4	1.98e-04	0	60	0	701497344	54	5632
2026-01-29 22:21:14.75	110.65	20.05	-41.5	-45.2	12.6	1.13e-04	0	60	0	703594496	54	5551
2026-01-29 22:21:15.76	110.89	20.00	-41.5	-45.2	12.6	1.06e-04	0	60	0	705691648	54	5556
2026-01-29 22:21:16.77	111.13	19.96	-41.6	-45.3	12.6	1.01e-04	0	60	0	707788800	54	5603
2026-01-29 22:21:17.77	111.36	19.91	-41.7	-45.5	12.3	1.07e-04	0	60	0	708837376	54	5746
2026-01-29 22:21:18.78	111.60	19.86	-41.9	-46.0	11.7	2.16e-04	0	60	0	710934528	54	6111
2026-01-29 22:21:19.79	111.83	19.81	-42.0	-46.3	11.4	4.39e-04	0	61	0	713031680	54	6323
2026-01-29 22:21:20.80	112.06	19.76	-42.2	-46.7	11.1	1.28e-03	0	61	0	715128832	54	6598
2026-01-29 22:21:21.81	112.30	19.72	-42.4	-47.3	10.4	2.89e-03	0	60	0	717225984	55	6652
2026-01-29 22:21:22.82	112.53	19.67	-42.6	-47.7	10.0	4.59e-03	0	60	0	718274560	55	6978
2026-01-29 22:21:23.83	112.76	19.62	-42.5	-47.4	10.2	7.42e-03	0	61	0	720371712	55	6773
2026-01-29 22:21:24.84	112.99	19.57	-42.5	-47.4	10.2	5.88e-03	0	60	0	722468864	55	6770
2026-01-29 22:21:25.85	113.22	19.51	-42.5	-47.4	10.3	5.39e-03	0	61	0	724566016	55	6738
2026-01-29 22:21:26.86	113.45	19.46	-42.4	-47.1	10.5	3.83e-03	0	61	0	726663168	55	6563
2026-01-29 22:21:27.87	113.68	19.41	-42.4	-47.1	10.6	3.56e-03	0	61	0	727711744	55	6498
2026-01-29 22:21:28.88	113.91	19.36	-42.4	-47.1	10.5	3.54e-03	0	61	0	729808896	55	6567
2026-01-29 22:21:29.89	114.13	19.31	-42.3	-46.9	10.7	2.66e-03	0	60	0	731906048	55	6379
2026-01-29 22:21:30.90	114.36	19.26	-42.3	-46.8	10.9	2.68e-03	0	61	0	734003200	55	6325
2026-01-29 22:21:31.91	114.58	19.20	-42.1	-46.6	11.1	2.16e-03	0	61	0	736100352	55	6137
2026-01-29 22:21:32.92	114.81	19.15	-42.1	-46.4	11.3	1.54e-03	0	61	0	737148928	55	6019
2026-01-29 22:21:33.93	115.03	19.10	-42.1	-46.5	11.1	1.60e-03	0	61	0	739246080	55	6102
2026-01-29 22:21:34.94	115.25	19.04	-42.1	-46.7	11.0	1.68e-03	0	61	0	741343232	55	6242
2026-01-29 22:21:35.95	115.48	18.99	-42.2	-46.8	10.9	1.90e-03	0	61	0	743440384	55	6300
2026-01-29 22:21:36.96	115.70	18.94	-42.3	-46.8	10.8	2.41e-03	0	61	0	745537536	55	6337
2026-01-29 22:21:37.97	115.92	18.88	-42.2	-46.7	11.0	2.00e-03	0	61	0	747634688	55	6210
2026-01-29 22:21:38.98	116.14	18.83	-42.1	-46.6	11.1	2.17e-03	0	61	0	748683264	55	6144
2026-01-29 22:21:39.99	116.36	18.77	-42.1	-46.4	11.2	1.54e-03	0	60	0	750780416	55	6037
2026-01-29 22:21:41.00	116.58	18.72	-42.1	-46.6	11.1	1.46e-03	0	61	0	752877568	55	6140
2026-01-29 22:21:42.01	116.79	18.66	-42.2	-46.7	11.0	1.82e-03	0	60	0	754974720	55	6214
2026-01-29 22:21:43.02	117.01	18.60	-42.3	-47.0	10.6	3.38e-03	0	61	0	757071872	55	6477
2026-01-29 22:21:44.03	117.23	18.55	-42.5	-47.6	10.0	6.71e-03	0	61	0	758120448	55	6901
2026-01-29 22:21:45.04	117.44	18.49	-42.7	-47.9	9.6	1.05e-02	0	61	0	760217600	55	7200
2026-01-29 22:21:46.05	117.66	18.43	-43.0	-48.5	9.3	1.75e-02	0	61	0	762314752	56	7231
2026-01-29 22:21:47.06	117.87	18.38	-42.9	-48.4	9.3	2.15e-02	0	61	0	764411904	56	7179
2026-01-29 22:21:48.07	118.08	18.32	-42.9	-48.3	9.5	1.77e-02	0	61	0	766509056	56	7051
2026-01-29 22:21:49.08	118.30	18.26	-42.7	-47.7	10.0	1.41e-02	0	61	0	767557632	56	6642
2026-01-29 22:21:50.09	118.51	18.20	-42.5	-47.2	10.6	5.03e-03	0	61	0	769654784	56	6235
2026-01-29 22:21:51.10	118.72	18.15	-42.5	-47.3	10.4	3.92e-03	0	61	0	771751936	56	6293
2026-01-29 22:21:52.12	118.93	18.09	-42.4	-47.0	10.8	2.77e-03	0	61	0	773849088	56	6085
2026-01-29 22:21:53.12	119.14	18.03	-42.4	-47.2	10.6	2.22e-03	0	61	0	775946240	56	6219
2026-01-29 22:21:54.13	119.35	17.97	-42.6	-47.5	10.3	4.80e-03	0	61	0	776994816	56	6437
2026-01-29 22:21:55.15	119.56	17.91	-42.6	-47.6	10.1	5.63e-03	0	61	0	779091968	56	6517
2026-01-29 22:21:56.16	119.76	17.85	-42.6	-47.6	10.1	6.73e-03	0	61	0	781189120	56	6541
2026-01-29 22:21:57.17	119.97	17.79	-42.6	-47.6	10.2	7.90e-03	0	61	0	783286272	56	6495
2026-01-29 22:21:58.18	120.17	17.73	-42.6	-47.6	10.2	5.44e-03	0	61	0	785383424	56	6497
2026-01-29 22:21:59.19	120.38	17.67	-42.5	-47.2	10.5	3.48e-03	0	61	0	786432000	56	6233
2026-01-29 22:22:00.20	120.58	17.61	-42.4	-47.0	10.8	2.69e-03	0	60	0	788529152	56	6064
2026-01-29 22:22:01.21	120.78	17.55	-42.3	-46.8	11.0	2.37e-03	0	60	0	790626304	56	5949
2026-01-29 22:22:02.22	120.99	17.49	-42.3	-46.8	10.9	1.79e-03	0	61	0	792723456	56	5979
2026-01-29 22:22:03.23	121.19	17.43	-42.4	-47.1	10.6	2.82e-03	0	61	0	794820608	56	6181
2026-01-29 22:22:04.24	121.39	17.37	-42.3	-46.9	10.8	2.89e-03	0	60	0	795869184	56	6031
2026-01-29 22:22:05.25	121.59	17.31	-41.8	-47.0	10.6	3.76e-03	0	61	0	797966336	54	6817
2026-01-29 22:22:06.26	121.79	17.25	-42.2	-46.8	10.7	3.89e-03	0	61	0	800063488	55	6305
2026-01-29 22:22:07.27	121.98	17.19	-42.1	-46.6	11.0	2.05e-03	0	61	0	802160640	55	6162
2026-01-29 22:22:08.28	122.18	17.13	-42.1	-46.7	10.8	2.01e-03	0	61	0	804257792	55	6241
2026-01-29 22:22:09.29	122.38	17.06	-42.1	-46.7	11.0	1.87e-03	0	61	0	805306368	55	6207
2026-01-29 22:22:10.30	122.57	17.00	-42.1	-46.6	11.0	1.56e-03	0	60	0	807403520	54	6562
2026-01-29 22:22:11.31	122.77	16.94	-42.2	-46.9	10.7	2.91e-03	0	61	0	809500672	55	6384
2026-01-29 22:22:12.32	122.96	16.88	-42.3	-47.1	10.5	4.28e-03	0	61	0	811597824	55	6506
2026-01-29 22:22:13.33	123.16	16.82	-42.4	-47.3	10.2	6.26e-03	0	61	0	813694976	55	6680
2026-01-29 22:22:14.34	123.35	16.75	-42.3	-47.3	10.2	9.78e-03	0	61	0	815792128	55	6679
2026-01-29 22:22:15.35	123.54	16.69	-42.1	-46.8	10.7	4.20e-03	0	61	0	816840704	55	6313
2026-01-29 22:22:16.36	123.73	16.63	-41.8	-46.5	11.0	2.56e-03	0	61	0	818937856	54	6435
2026-01-29 22:22:17.37	123.92	16.57	-41.9	-46.3	11.2	1.54e-03	0	61	0	821035008	54	6347
2026-01-29 22:22:18.38	124.11	16.50	-41.3	-46.0	11.3	4.24e-03	0	61	0	823132160	53	6452
2026-01-29 22:22:19.39	124.30	16.44	-42.2	-46.2	11.4	9.40e-03	0	61	0	825229312	53	6591
2026-01-29 22:22:20.40	124.49	16.38	-41.7	-46.1	11.4	1.26e-02	0	61	0	826277888	54	6135
2026-01-29 22:22:21.41	124.67	16.31	-41.6	-46.2	11.3	2.83e-03	0	60	0	828375040	54	6235
2026-01-29 22:22:22.42	124.86	16.25	-41.4	-46.5	10.9	2.67e-02	0	61	0	830472192	54	6489
2026-01-29 22:22:23.43	125.05	16.19	-41.5	-46.8	10.6	4.67e-03	0	61	0	832569344	54	6699
2026-01-29 22:22:24.44	125.23	16.12	-41.9	-46.9	10.4	4.86e-02	0	61	0	834666496	54	6760
2026-01-29 22:22:25.45	125.42	16.06	-42.1	-47.0	10.2	6.39e-03	0	61	0	835715072	54	6872
2026-01-29 22:22:26.46	125.60	15.99	-42.2	-47.1	10.3	5.98e-03	0	61	0	837812224	54	6922
2026-01-29 22:22:27.47	125.78	15.93	-33.6	-46.3	7.5	5.22e-03	0	60	0	839909376	40	14177
2026-01-29 22:22:28.49	125.97	15.87	-41.2	-47.3	10.0	1.11e-02	0	60	0	842006528	54	7065
2026-01-29 22:22:29.49	126.14	15.80	-41.7	-47.3	9.9	1.19e-02	0	61	0	844103680	53	7479
2026-01-29 22:22:30.50	126.33	15.74	-38.0	-47.5	9.7	6.85e-02	0	61	0	845152256	53	7640
2026-01-29 22:22:31.51	126.50	15.67	-41.1	-47.6	9.4	2.24e-02	0	61	0	847249408	54	7332
2026-01-29 22:22:32.53	126.69	15.61	-39.6	-47.8	9.2	2.24e-02	0	61	0	849346560	54	7488
2026-01-29 22:22:33.53	126.86	15.54	-37.9	-47.3	8.7	2.07e-01	0	61	0	851443712	49	9496
2026-01-29 22:22:34.54	127.04	15.48	-37.2	-47.4	9.3	6.62e-02	0	61	0	853540864	47	10730
2026-01-29 22:22:35.55	127.22	15.41	-42.1	-47.2	10.0	3.00e-01	0	61	0	854589440	52	7867
2026-01-29 22:22:36.56	127.39	15.35	-41.4	-46.7	10.0	2.02e-02	0	60	0	856686592	51	7853
2026-01-29 22:22:37.58	127.57	15.28	-38.2	-45.9	10.0	2.88e-02	0	61	0	858783744	47	8967
2026-01-29 22:22:38.58	127.74	15.22	-37.8	-46.0	10.3	3.09e-02	0	61	0	860880896	48	8625
2026-01-29 22:22:39.59	127.91	15.15	-41.1	-46.2	10.5	2.71e-02	0	61	0	862978048	48	8791
2026-01-29 22:22:40.60	128.09	15.09	-36.8	-46.1	10.0	2.78e-02	0	61	0	864026624	48	8665
2026-01-29 22:22:41.61	128.26	15.02	-40.6	-46.4	7.6	7.27e-02	0	61	0	866123776	37	17060
2026-01-29 22:22:42.62	128.43	14.96	-38.5	-46.2	8.7	9.34e-02	0	60	0	868220928	42	12488
2026-01-29 22:22:43.63	128.60	14.89	-37.2	-46.9	8.5	1.53e-01	0	61	0	870318080	44	12009
2026-01-29 22:22:44.64	128.77	14.83	-35.2	-46.2	8.8	2.88e-01	0	61	0	872415232	41	13161
2026-01-29 22:22:45.65	128.94	14.76	-34.7	-45.6	7.0	1.41e-01	0	61	0	873463808	34	18378
2026-01-29 22:22:46.66	129.11	14.70	-35.0	-45.8	8.5	1.51e-01	0	61	0	875560960	42	11889
2026-01-29 22:22:47.67	129.28	14.63	-35.7	-45.8	9.9	1.44e-01	0	61	0	877658112	46	9442
2026-01-29 22:22:48.68	129.44	14.56	-32.6	-45.5	9.9	1.32e-01	0	61	0	879755264	43	10811
2026-01-29 22:22:49.69	129.61	14.50	-29.6	-43.9	6.5	3.93e-01	0	61	0	880803840	29	20187
2026-01-29 22:22:50.70	129.78	14.43	-32.6	-45.3	9.0	1.20e-01	0	61	0	881852416	38	14084
2026-01-29 22:22:51.71	129.94	14.37	-35.2	-45.6	9.1	1.10e-01	0	61	0	883949568	44	10339
2026-01-29 22:22:52.72	130.11	14.30	-36.7	-46.0	9.8	2.31e-01	0	61	0	886046720	47	9079
2026-01-29 22:22:53.73	130.27	14.24	-30.5	-44.3	5.0	8.16e-01	0	61	104	886046720	34	15764
2026-01-29 22:22:54.74	130.43	14.17	-32.5	-46.0	7.9	2.49e-01	0	61	0	886046720	37	16196
2026-01-29 22:22:55.75	130.59	14.10	-31.7	-45.6	7.2	3.57e-01	0	61	0	888143872	34	18501
2026-01-29 22:22:56.76	130.76	14.04	-24.1	-43.7	4.5	3.49e-01	0	61	104	890241024	21	31440
2026-01-29 22:22:57.77	130.92	13.97	-30.1	-44.8	6.0	5.05e-01	0	61	0	890241024	28	23828
2026-01-29 22:22:58.79	131.08	13.90	-31.6	-45.8	6.9	2.74e-01	0	61	0	892338176	36	16853
2026-01-29 22:22:59.80	131.24	13.84	-35.4	-46.9	7.8	2.52e-01	0	61	0	894435328	41	14289
2026-01-29 22:23:00.81	131.40	13.77	-38.3	-46.9	8.4	4.32e-01	0	61	0	896532480	41	14372
2026-01-29 22:23:01.82	131.55	13.71	-28.7	-44.3	4.9	6.66e-01	0	61	104	897581056	24	28053
2026-01-29 22:23:02.83	131.71	13.64	-33.1	-47.2	8.3	3.56e-01	0	61	0	898629632	47	10448
2026-01-29 22:23:03.84	131.87	13.57	-36.0	-47.2	7.3	3.09e-01	0	61	0	899678208	36	19825
2026-01-29 22:23:04.85	132.02	13.51	-24.7	-43.1	4.2	1.30e+00	0	61	104	900726784	17	36736
2026-01-29 22:23:05.86	132.18	13.44	-36.4	-47.2	4.5	1.32e+00	0	61	104	900726784	30	28020
2026-01-29 22:23:06.87	132.33	13.38	-29.9	-46.5	6.8	3.00e-01	0	61	0	900726784	32	23008
2026-01-29 22:23:07.88	132.49	13.31	-34.0	-45.9	6.7	2.93e-01	0	61	0	902823936	34	19161
2026-01-29 22:23:08.89	132.64	13.24	-29.3	-45.5	7.8	4.63e-01	0	61	0	904921088	37	15282
2026-01-29 22:23:09.90	132.79	13.18	-31.0	-45.8	6.8	3.55e-01	0	61	0	907018240	26	30031
2026-01-29 22:23:10.91	132.95	13.11	-34.0	-45.7	8.4	2.17e-01	0	61	0	909115392	38	14783
2026-01-29 22:23:11.92	133.10	13.04	-38.9	-46.6	9.1	2.04e-01	0	61	0	910163968	46	10336
2026-01-29 22:23:12.93	133.25	12.98	-27.9	-44.6	5.9	3.77e-01	0	61	0	912261120	25	27489
2026-01-29 22:23:13.94	133.40	12.91	-26.3	-44.1	5.5	5.94e-01	0	61	0	914358272	23	29084
2026-01-29 22:23:14.95	133.55	12.85	-34.6	-46.2	7.0	2.72e-01	0	61	0	916455424	35	18717
2026-01-29 22:23:15.95	133.69	12.78	-37.2	-47.2	8.5	2.10e-01	0	61	0	918552576	43	13246
2026-01-29 22:23:16.97	133.84	12.71	-40.2	-47.4	8.3	4.62e-01	0	61	0	919601152	39	16986
2026-01-29 22:23:17.98	133.99	12.65	-28.3	-46.5	4.5	1.33e+00	0	61	104	920649728	31	24155
2026-01-29 22:23:18.99	134.14	12.58	-40.3	-47.4	8.0	1.91e-01	0	61	0	921698304	37	18949
2026-01-29 22:23:20.00	134.28	12.51	-35.9	-47.0	5.2	7.19e-01	0	61	104	922746880	32	24357
2026-01-29 22:23:21.01	134.43	12.45	-28.9	-46.7	4.7	1.39e+00	0	61	104	922746880	35	19689
2026-01-29 22:23:22.02	134.57	12.38	-29.1	-46.4	7.5	3.51e-01	0	61	0	923795456	35	19093
2026-01-29 22:23:23.03	134.72	12.32	-33.4	-46.5	7.2	1.28e-01	0	61	0	924844032	31	24140
2026-01-29 22:23:24.03	134.86	12.25	-37.4	-47.1	7.8	1.14e-01	0	61	0	926941184	42	13810
2026-01-29 22:23:25.04	135.00	12.18	-37.0	-46.6	7.4	3.96e-01	0	61	0	929038336	35	19529
2026-01-29 22:23:26.05	135.15	12.12	-35.9	-47.3	8.3	3.42e-01	0	61	0	931135488	46	11161
2026-01-29 22:23:27.06	135.29	12.05	-40.0	-48.1	8.1	1.67e-01	0	61	0	933232640	43	14541
2026-01-29 22:23:28.07	135.43	11.99	-34.4	-47.4	8.0	3.57e-01	0	61	0	934281216	42	14364
2026-01-29 22:23:29.08	135.57	11.92	-34.7	-47.3	7.8	2.12e-01	0	61	0	936378368	40	15943
2026-01-29 22:23:30.09	135.71	11.85	-39.4	-47.5	8.3	1.21e-01	0	61	0	938475520	46	11485
2026-01-29 22:23:31.10	135.85	11.79	-41.7	-47.6	8.6	4.70e-02	0	61	0	940572672	45	12299
2026-01-29 22:23:32.11	135.99	11.72	-38.1	-47.1	9.0	1.43e-01	0	61	0	942669824	48	9736
2026-01-29 22:23:33.12	136.12	11.66	-36.0	-46.7	9.7	7.19e-02	0	61	0	943718400	49	8840
2026-01-29 22:23:34.13	136.26	11.59	-39.4	-46.5	9.8	6.46e-02	0	61	0	945815552	49	8583
2026-01-29 22:23:35.14	136.40	11.52	-34.0	-45.8	7.4	7.10e-02	0	61	0	947912704	37	15911
2026-01-29 22:23:36.15	136.54	11.46	-38.3	-46.2	9.9	1.91e-02	0	61	0	950009856	49	8318
2026-01-29 22:23:37.16	136.67	11.39	-31.1	-45.9	8.9	2.49e-02	0	61	0	952107008	37	15998
2026-01-29 22:23:38.17	136.81	11.33	-39.5	-46.6	9.6	3.71e-02	0	61	0	953155584	48	9274
2026-01-29 22:23:39.18	136.94	11.26	-38.1	-47.1	9.0	2.39e-02	0	61	0	955252736	45	11647
2026-01-29 22:23:40.18	137.07	11.20	-41.0	-46.6	9.6	2.55e-02	0	61	0	957349888	52	7353
2026-01-29 22:23:41.19	137.21	11.13	-38.4	-46.5	9.9	1.93e-02	0	61	0	959447040	52	7207
2026-01-29 22:23:42.20	137.34	11.07	-41.0	-47.4	8.8	2.37e-02	0	61	0	961544192	53	7555
2026-01-29 22:23:43.21	137.47	11.00	-41.6	-47.6	8.6	3.81e-02	0	61	0	963641344	53	7801
2026-01-29 22:23:44.22	137.60	10.93	-41.4	-47.7	8.4	7.49e-02	0	61	0	964689920	53	7834
2026-01-29 22:23:45.23	137.73	10.87	-40.0	-46.2	9.8	1.79e-02	0	61	0	966787072	51	7436
2026-01-29 22:23:46.24	137.86	10.80	-41.0	-45.7	10.5	3.79e-03	0	61	0	968884224	52	6641
2026-01-29 22:23:47.25	137.99	10.74	-40.8	-47.0	9.3	9.79e-03	0	61	0	970981376	51	8123
2026-01-29 22:23:48.26	138.12	10.67	-39.3	-48.5	7.5	4.49e-02	0	61	0	973078528	50	10216
2026-01-29 22:23:49.27	138.25	10.61	-40.8	-49.0	7.1	1.42e-01	0	61	0	974127104	53	9135
2026-01-29 22:23:50.28	138.38	10.54	-35.3	-49.9	5.8	2.27e-01	0	61	0	976224256	44	16953
2026-01-29 22:23:51.29	138.51	10.48	-41.5	-51.5	5.1	4.86e-01	0	61	0	978321408	53	12174
2026-01-29 22:23:52.30	138.64	10.41	-42.6	-52.0	5.0	6.95e-01	0	61	0	980418560	55	11462
2026-01-29 22:23:53.31	138.76	10.35	-42.6	-53.0	4.6	8.55e-01	0	61	0	982515712	55	12854
2026-01-29 22:23:54.32	138.89	10.28	-42.9	-53.1	4.6	1.24e+00	0	61	0	983564288	56	12346
2026-01-29 22:23:55.33	139.01	10.22	-42.4	-51.3	5.3	9.12e-01	0	61	0	985661440	55	10617
2026-01-29 22:23:56.34	139.14	10.15	-43.1	-53.1	4.7	1.02e+00	0	61	0	987758592	57	11641
2026-01-29 22:23:57.35	139.26	10.09	-42.0	-52.2	4.7	1.26e+00	0	61	0	989855744	55	11694
2026-01-29 22:23:58.36	139.39	10.02	-43.1	-50.9	6.2	3.54e-01	0	61	0	990904320	57	9034
2026-01-29 22:23:59.37	139.51	9.96	-42.2	-47.9	9.0	5.01e-02	0	61	0	993001472	56	6786
2026-01-29 22:24:00.38	139.63	9.89	-41.6	-46.4	10.4	7.45e-03	0	61	0	995098624	54	6407
2026-01-29 22:24:01.39	139.76	9.83	-42.1	-47.6	9.1	9.17e-03	0	61	0	997195776	54	7367
2026-01-29 22:24:02.40	139.88	9.76	-42.1	-47.9	8.9	3.93e-02	0	61	0	999292928	55	7146
2026-01-29 22:24:03.41	140.00	9.70	-42.0	-47.3	9.6	1.38e-02	0	61	0	1000341504	55	6689
2026-01-29 22:24:04.42	140.12	9.63	-42.2	-48.0	8.8	1.93e-02	0	61	0	1002438656	54	7678
2026-01-29 22:24:05.43	140.24	9.57	-42.1	-47.7	9.1	2.64e-02	0	61	0	1004535808	54	7389
2026-01-29 22:24:06.44	140.36	9.51	-42.1	-47.9	9.0	2.34e-02	0	61	0	1006632960	54	7560
2026-01-29 22:24:07.45	140.48	9.44	-42.2	-47.9	8.9	2.56e-02	0	61	0	1008730112	54	7612
2026-01-29 22:24:08.46	140.60	9.38	-42.2	-48.1	8.7	3.32e-02	0	61	0	1009778688	55	7335
2026-01-29 22:24:09.47	140.72	9.31	-42.2	-48.1	8.7	3.96e-02	0	61	0	1011875840	55	7290
2026-01-29 22:24:10.48	140.83	9.25	-42.3	-48.5	8.4	3.60e-02	0	61	0	1013972992	55	7647
2026-01-29 22:24:11.49	140.95	9.18	-42.4	-48.6	8.3	4.40e-02	0	61	0	1016070144	55	7748
2026-01-29 22:24:12.49	141.07	9.12	-42.4	-48.5	8.3	4.84e-02	0	61	0	1018167296	55	7664
2026-01-29 22:24:13.50	141.18	9.06	-42.4	-48.7	8.2	5.31e-02	0	61	0	1019215872	55	7836
2026-01-29 22:24:14.51	141.30	8.99	-42.4	-48.7	8.1	6.70e-02	0	61	0	1021313024	55	7884
2026-01-29 22:24:15.52	141.41	8.93	-42.4	-48.7	8.1	6.22e-02	0	61	0	1023410176	55	7870
2026-01-29 22:24:16.54	141.53	8.86	-42.5	-49.1	7.8	6.87e-02	0	61	0	1025507328	55	8210
2026-01-29 22:24:17.55	141.64	8.80	-42.6	-49.1	7.7	7.73e-02	0	61	0	1027604480	55	8220
2026-01-29 22:24:18.55	141.76	8.74	-42.5	-49.0	7.9	6.15e-02	0	61	0	1029701632	55	8140
2026-01-29 22:24:19.56	141.87	8.67	-42.5	-49.0	7.8	7.32e-02	0	61	0	1030750208	55	8162
2026-01-29 22:24:20.58	141.98	8.61	-42.4	-48.5	8.3	6.44e-02	0	61	0	1032847360	55	7703
2026-01-29 22:24:21.59	142.10	8.55	-42.4	-48.6	8.3	4.84e-02	0	61	0	1034944512	55	7771
2026-01-29 22:24:22.60	142.21	8.48	-42.3	-48.3	8.6	5.97e-02	0	61	0	1037041664	55	7504
2026-01-29 22:24:23.61	142.32	8.42	-42.3	-48.2	8.6	3.96e-02	0	61	0	1039138816	55	7452
2026-01-29 22:24:24.62	142.43	8.36	-42.4	-48.4	8.4	4.57e-02	0	61	0	1040187392	55	7623
2026-01-29 22:24:25.63	142.54	8.29	-42.3	-48.1	8.8	3.78e-02	0	61	0	1042284544	55	7330
2026-01-29 22:24:26.64	142.65	8.23	-42.3	-48.2	8.7	2.62e-02	0	61	0	1044381696	55	7412
2026-01-29 22:24:27.65	142.76	8.17	-42.2	-48.1	8.8	3.05e-02	0	61	0	1046478848	55	7300
2026-01-29 22:24:28.66	142.87	8.10	-42.2	-47.9	8.9	2.86e-02	0	61	0	1048576000	55	7204
2026-01-29 22:24:29.67	142.98	8.04	-42.2	-48.0	8.8	2.72e-02	0	61	0	1049624576	55	7263
2026-01-29 22:24:30.68	143.09	7.98	-43.3	-51.7	6.4	3.31e-02	0	61	0	1051721728	57	9929
2026-01-29 22:24:31.69	143.20	7.92	-44.4	-58.9	3.8	1.49e+00	0	61	104	1051721728	59	20183
2026-01-29 22:24:32.70	143.30	7.85	-44.8	-59.5	3.8	1.49e+00	0	61	104	1051721728	60	20321
2026-01-29 22:24:33.71	143.41	7.79	-45.0	-59.7	3.8	1.49e+00	0	61	104	1051721728	60	20973
2026-01-29 22:24:34.72	143.52	7.73	-45.2	-59.9	3.8	1.49e+00	0	61	104	1051721728	60	21351
2026-01-29 22:24:35.73	143.62	7.67	-45.3	-60.0	3.8	1.49e+00	0	61	104	1051721728	61	20454
2026-01-29 22:24:36.74	143.73	7.60	-45.4	-60.1	3.8	1.49e+00	0	61	104	1051721728	61	20732
2026-01-29 22:24:37.76	143.83	7.54	-45.4	-60.1	3.8	1.49e+00	0	61	104	1051721728	61	20705
2026-01-29 22:24:38.77	143.94	7.48	-45.4	-60.2	3.8	1.49e+00	0	61	104	1051721728	61	20818
2026-01-29 22:24:39.78	144.04	7.42	-45.3	-60.1	3.8	1.49e+00	0	61	104	1051721728	61	20737
2026-01-29 22:24:40.79	144.15	7.35	-45.2	-60.0	3.8	1.49e+00	0	61	104	1051721728	61	20511
2026-01-29 22:24:41.80	144.25	7.29	-45.1	-59.9	3.8	1.49e+00	0	61	104	1051721728	61	20276
2026-01-29 22:24:42.81	144.35	7.23	-45.1	-59.9	3.8	1.49e+00	0	61	104	1051721728	61	20148
2026-01-29 22:24:43.82	144.46	7.17	-45.0	-59.9	3.8	1.49e+00	0	61	104	1051721728	61	20111
2026-01-29 22:24:44.83	144.56	7.11	-45.0	-59.8	3.8	1.49e+00	0	61	104	1051721728	61	19978
2026-01-29 22:24:45.84	144.66	7.04	-44.9	-59.8	3.8	1.49e+00	0	61	104	1051721728	61	19914
2026-01-29 22:24:46.85	144.76	6.98	-44.9	-59.7	3.8	1.49e+00	0	61	104	1051721728	61	19797
2026-01-29 22:24:47.86	144.86	6.92	-44.9	-59.8	3.8	1.49e+00	0	61	104	1051721728	61	19907
2026-01-29 22:24:48.87	144.96	6.86	-44.9	-59.7	3.8	1.49e+00	0	61	104	1051721728	61	19816
2026-01-29 22:24:49.88	145.06	6.80	-44.9	-59.7	3.8	1.49e+00	0	61	104	1051721728	61	19800
2026-01-29 22:24:50.89	145.16	6.74	-44.9	-59.7	3.8	1.49e+00	0	61	104	1051721728	61	19800
2026-01-29 22:24:51.90	145.26	6.67	-44.9	-59.7	3.8	1.49e+00	0	61	104	1051721728	61	19826
2026-01-29 22:24:52.92	145.36	6.61	-44.9	-59.7	3.8	1.49e+00	0	61	104	1051721728	61	19829
2026-01-29 22:24:53.93	145.46	6.55	-44.9	-59.7	3.8	1.49e+00	0	61	104	1051721728	61	19837
2026-01-29 22:24:54.94	145.56	6.49	-44.9	-59.7	3.8	1.49e+00	0	61	104	1051721728	61	19813
2026-01-29 22:24:55.95	145.66	6.43	-44.9	-59.7	3.8	1.49e+00	0	61	104	1051721728	61	19819
2026-01-29 22:24:56.96	145.75	6.37	-44.9	-59.7	3.8	1.49e+00	0	61	104	1051721728	61	19754
2026-01-29 22:24:57.97	145.85	6.31	-44.9	-59.7	3.8	1.49e+00	0	61	104	1051721728	61	19733
2026-01-29 22:24:58.98	145.95	6.25	-44.9	-59.7	3.8	1.49e+00	0	61	104	1051721728	61	19802
2026-01-29 22:24:59.99	146.04	6.19	-44.9	-59.7	3.8	1.49e+00	0	61	104	1051721728	61	19735
2026-01-29 22:25:01.00	146.14	6.13	-44.9	-59.7	3.8	1.49e+00	0	61	104	1051721728	61	19747
2026-01-29 22:25:02.01	146.23	6.07	-44.9	-59.7	3.8	1.49e+00	0	61	104	1051721728	61	19789
2026-01-29 22:25:03.02	146.33	6.00	-44.9	-59.7	3.8	1.49e+00	0	61	104	1051721728	61	19717
2026-01-29 22:25:04.03	146.42	5.94	-44.9	-59.7	3.8	1.49e+00	0	61	104	1051721728	61	19740
2026-01-29 22:25:05.04	146.52	5.88	-44.9	-59.7	3.8	1.49e+00	0	61	104	1051721728	61	19731
2026-01-29 22:25:06.05	146.61	5.82	-44.9	-59.7	3.8	1.49e+00	0	61	104	1051721728	61	19743
2026-01-29 22:25:07.06	146.71	5.76	-44.9	-59.7	3.8	1.49e+00	0	61	104	1051721728	61	19754
2026-01-29 22:25:08.07	146.80	5.70	-44.9	-59.7	3.8	1.49e+00	0	61	104	1051721728	61	19754
2026-01-29 22:25:09.09	146.89	5.64	-44.9	-59.7	3.8	1.49e+00	0	61	104	1051721728	61	19750
2026-01-29 22:25:10.09	146.98	5.58	-44.9	-59.7	3.8	1.49e+00	0	61	104	1051721728	61	19758
