passes_logs/2026/01/29/R2.0S_Moscow/R2.0S_Moscow__20260129_061210_FENGYUN_3E_rec.log

#Pass ID: 20260129_061210_FENGYUN 3E
#Satellite: FENGYUN 3E
#Configuration: FENGYUN 3E
#almurnet v.1.7.20251203
#Start time: 2026-01-29 06:12:10

#Version: 2.2.20231116
#Station: R2.0S_Moscow
#Location: 37.707566 lon 55.798166 lat
#TLE: 1 49008U 21062A   26027.97178348  .00000209  00000+0  11900-3 0  9990
#TLE: 2 49008  98.7501  32.9491 0002537 114.6782 245.4659 14.19888434236687

#Time	Az	El	Level	Level2	SNR	BER	BlckErr	Temp	State	Recorded	gain1	gain2
2026-01-29 06:12:10.86	8.56	2.03	-40.1	-51.0	3.8	8.46e-01	0	49	0	0	51	12150
2026-01-29 06:12:11.86	8.47	2.08	-40.0	-51.0	3.8	8.45e-01	0	49	104	0	51	12142
2026-01-29 06:12:12.87	8.39	2.13	-40.0	-51.0	3.8	8.47e-01	0	49	104	0	51	12118
2026-01-29 06:12:13.88	8.30	2.19	-40.0	-51.0	3.8	8.46e-01	0	49	104	0	51	12102
2026-01-29 06:12:14.89	8.22	2.24	-40.0	-51.0	3.8	8.46e-01	0	49	104	0	51	12099
2026-01-29 06:12:15.90	8.13	2.29	-40.0	-51.0	3.8	8.46e-01	0	49	104	0	51	12132
2026-01-29 06:12:16.91	8.04	2.34	-40.0	-51.0	3.8	8.45e-01	0	49	104	0	51	12138
2026-01-29 06:12:17.92	7.96	2.39	-40.0	-51.0	3.8	8.47e-01	0	49	104	0	51	12150
2026-01-29 06:12:18.93	7.87	2.44	-40.0	-51.0	3.8	8.47e-01	0	49	104	0	51	12139
2026-01-29 06:12:19.94	7.78	2.49	-40.0	-51.0	3.8	8.45e-01	0	49	104	0	51	12128
2026-01-29 06:12:20.95	7.69	2.54	-40.0	-51.0	3.8	8.46e-01	0	49	104	0	51	12110
2026-01-29 06:12:21.96	7.60	2.59	-40.0	-51.0	3.8	8.45e-01	0	50	104	0	51	12125
2026-01-29 06:12:22.97	7.51	2.64	-40.0	-51.0	3.8	8.47e-01	0	50	104	0	51	12105
2026-01-29 06:12:23.98	7.43	2.70	-40.0	-50.9	3.8	8.45e-01	0	50	104	0	51	12090
2026-01-29 06:12:24.99	7.34	2.75	-40.0	-50.9	3.8	8.47e-01	0	50	104	0	51	12082
2026-01-29 06:12:26.00	7.25	2.80	-40.0	-50.9	3.8	8.46e-01	0	50	104	0	51	12057
2026-01-29 06:12:27.01	7.16	2.85	-40.0	-51.0	3.8	8.46e-01	0	50	104	0	51	12095
2026-01-29 06:12:28.02	7.07	2.90	-40.0	-51.0	3.8	8.46e-01	0	50	104	0	51	12099
2026-01-29 06:12:29.03	6.98	2.95	-40.0	-51.0	3.8	8.45e-01	0	50	104	0	51	12112
2026-01-29 06:12:30.04	6.88	3.00	-40.0	-51.0	3.8	8.46e-01	0	50	104	0	51	12104
2026-01-29 06:12:31.06	6.79	3.05	-40.0	-50.9	3.8	8.46e-01	0	50	104	0	51	12091
2026-01-29 06:12:32.07	6.70	3.11	-40.0	-51.0	3.8	8.47e-01	0	50	104	0	51	12119
2026-01-29 06:12:33.08	6.61	3.16	-40.0	-50.9	3.8	8.45e-01	0	50	104	0	51	12074
2026-01-29 06:12:34.09	6.52	3.21	-40.0	-51.0	3.8	8.47e-01	0	50	104	0	51	12104
2026-01-29 06:12:35.10	6.42	3.26	-40.0	-51.0	3.8	8.47e-01	0	50	104	0	51	12120
2026-01-29 06:12:36.11	6.33	3.31	-40.0	-50.9	3.8	8.46e-01	0	51	104	0	51	12030
2026-01-29 06:12:37.12	6.24	3.36	-40.0	-50.9	3.8	8.46e-01	0	51	104	0	51	12090
2026-01-29 06:12:38.13	6.14	3.41	-40.0	-50.9	3.8	8.46e-01	0	50	104	0	51	12089
2026-01-29 06:12:39.14	6.05	3.47	-40.0	-50.9	3.8	8.47e-01	0	51	104	0	51	12069
2026-01-29 06:12:40.15	5.95	3.52	-40.0	-51.0	3.8	8.46e-01	0	51	104	0	51	12131
2026-01-29 06:12:41.16	5.86	3.57	-40.0	-51.0	3.8	8.45e-01	0	51	104	0	51	12110
2026-01-29 06:12:42.17	5.76	3.62	-40.0	-51.0	3.8	8.46e-01	0	51	104	0	51	12108
2026-01-29 06:12:43.18	5.67	3.67	-40.0	-50.9	3.8	8.47e-01	0	51	104	0	51	12071
2026-01-29 06:12:44.19	5.57	3.72	-40.0	-51.0	3.8	8.47e-01	0	51	104	0	51	12100
2026-01-29 06:12:45.20	5.48	3.78	-40.0	-50.9	3.8	8.46e-01	0	51	104	0	51	12076
2026-01-29 06:12:46.21	5.38	3.83	-40.0	-50.9	3.8	8.47e-01	0	51	104	0	51	12071
2026-01-29 06:12:47.22	5.28	3.88	-40.0	-50.9	3.8	8.46e-01	0	52	104	0	51	12069
2026-01-29 06:12:48.23	5.19	3.93	-40.0	-50.9	3.8	8.47e-01	0	51	104	0	51	12054
2026-01-29 06:12:49.24	5.09	3.98	-40.0	-50.9	3.8	8.46e-01	0	51	104	0	51	12073
2026-01-29 06:12:50.25	4.99	4.03	-40.0	-51.0	3.8	8.46e-01	0	52	104	0	51	12118
2026-01-29 06:12:51.26	4.89	4.09	-40.0	-51.0	3.8	8.46e-01	0	51	104	0	51	12123
2026-01-29 06:12:52.27	4.79	4.14	-40.0	-51.0	3.8	8.47e-01	0	52	104	0	51	12112
2026-01-29 06:12:53.28	4.70	4.19	-40.0	-50.9	3.8	8.46e-01	0	52	104	0	51	12089
2026-01-29 06:12:54.29	4.60	4.24	-40.0	-50.9	3.8	8.46e-01	0	52	104	0	51	12086
2026-01-29 06:12:55.30	4.50	4.29	-40.0	-51.0	3.8	8.46e-01	0	52	104	0	51	12095
2026-01-29 06:12:56.31	4.40	4.35	-40.0	-51.0	3.8	8.46e-01	0	52	104	0	51	12132
2026-01-29 06:12:57.32	4.30	4.40	-40.0	-50.9	3.8	8.45e-01	0	52	104	0	51	12085
2026-01-29 06:12:58.34	4.19	4.45	-40.0	-51.0	3.8	8.46e-01	0	52	104	0	51	12102
2026-01-29 06:12:59.35	4.09	4.50	-40.0	-50.9	3.8	8.45e-01	0	52	104	0	51	12054
2026-01-29 06:13:00.36	3.99	4.55	-40.0	-51.0	3.8	8.47e-01	0	52	104	0	51	12105
2026-01-29 06:13:01.37	3.89	4.61	-40.0	-50.9	3.8	8.45e-01	0	52	104	0	51	12060
2026-01-29 06:13:02.38	3.79	4.66	-40.0	-51.0	3.8	8.45e-01	0	53	104	0	51	12102
2026-01-29 06:13:03.39	3.68	4.71	-40.0	-50.9	3.8	8.45e-01	0	52	104	0	51	12089
2026-01-29 06:13:04.40	3.58	4.76	-40.0	-51.0	3.8	8.46e-01	0	52	104	0	51	12116
2026-01-29 06:13:05.41	3.48	4.81	-40.0	-51.0	3.8	8.48e-01	0	53	104	0	51	12098
2026-01-29 06:13:06.42	3.37	4.87	-40.0	-51.0	3.8	8.46e-01	0	53	104	0	51	12095
2026-01-29 06:13:07.43	3.27	4.92	-40.0	-50.9	3.8	8.46e-01	0	52	104	0	51	12088
2026-01-29 06:13:08.44	3.16	4.97	-40.0	-50.9	3.8	8.46e-01	0	52	104	0	51	12070
2026-01-29 06:13:09.45	3.06	5.02	-40.0	-51.0	3.8	8.47e-01	0	53	104	0	51	12110
2026-01-29 06:13:10.46	2.95	5.07	-40.0	-51.0	3.8	8.47e-01	0	53	104	0	51	12102
2026-01-29 06:13:11.47	2.85	5.13	-40.0	-50.9	3.8	8.46e-01	0	53	104	0	51	12080
2026-01-29 06:13:12.48	2.74	5.18	-40.0	-51.0	3.8	8.46e-01	0	53	104	0	51	12104
2026-01-29 06:13:13.49	2.63	5.23	-40.0	-50.9	3.8	8.46e-01	0	53	104	0	51	12066
2026-01-29 06:13:14.50	2.53	5.28	-40.0	-50.9	3.8	8.46e-01	0	53	104	0	51	12090
2026-01-29 06:13:15.51	2.42	5.33	-40.0	-50.9	3.8	8.45e-01	0	53	104	0	51	12074
2026-01-29 06:13:16.52	2.31	5.39	-40.0	-51.0	3.8	8.46e-01	0	53	104	0	51	12107
2026-01-29 06:13:17.53	2.20	5.44	-40.0	-50.9	3.8	8.47e-01	0	53	104	0	51	12058
2026-01-29 06:13:18.54	2.10	5.49	-40.0	-50.9	3.8	8.46e-01	0	53	104	0	51	12052
2026-01-29 06:13:19.55	1.99	5.54	-40.0	-50.9	3.8	8.46e-01	0	53	104	0	51	12079
2026-01-29 06:13:20.56	1.88	5.60	-40.0	-50.9	3.8	8.46e-01	0	53	104	0	51	12039
2026-01-29 06:13:21.57	1.77	5.65	-40.0	-50.9	3.8	8.46e-01	0	53	104	0	51	12082
2026-01-29 06:13:22.58	1.66	5.70	-40.0	-50.9	3.8	8.46e-01	0	53	104	0	51	12084
2026-01-29 06:13:23.59	1.55	5.75	-40.0	-50.9	3.8	8.46e-01	0	53	104	0	51	12052
2026-01-29 06:13:24.60	1.44	5.80	-40.0	-50.9	3.8	8.45e-01	0	53	104	0	51	12076
2026-01-29 06:13:25.61	1.32	5.86	-40.0	-50.9	3.8	8.46e-01	0	53	104	0	51	12067
2026-01-29 06:13:26.62	1.21	5.91	-40.0	-50.9	3.8	8.46e-01	0	53	104	0	51	12078
2026-01-29 06:13:27.63	1.10	5.96	-40.0	-50.9	3.8	8.47e-01	0	54	104	0	51	12093
2026-01-29 06:13:28.64	0.99	6.01	-40.0	-51.0	3.8	8.46e-01	0	54	104	0	51	12112
2026-01-29 06:13:29.65	0.87	6.06	-40.0	-51.0	3.8	8.47e-01	0	54	104	0	51	12096
2026-01-29 06:13:30.66	0.76	6.12	-40.0	-50.9	3.8	8.47e-01	0	54	104	0	51	12060
2026-01-29 06:13:31.67	0.65	6.17	-40.0	-50.9	3.8	8.46e-01	0	54	104	0	51	12074
2026-01-29 06:13:32.68	0.53	6.22	-40.0	-51.0	3.8	8.46e-01	0	54	104	0	51	12100
2026-01-29 06:13:33.69	0.42	6.27	-40.0	-50.9	3.8	8.46e-01	0	54	104	0	51	12064
2026-01-29 06:13:34.70	0.30	6.33	-40.0	-50.9	3.8	8.47e-01	0	54	104	0	51	12078
2026-01-29 06:13:35.71	0.19	6.38	-40.0	-51.0	3.8	8.47e-01	0	54	104	0	51	12122
2026-01-29 06:13:36.72	0.07	6.43	-40.0	-50.9	3.8	8.46e-01	0	54	104	0	51	12036
2026-01-29 06:13:37.73	359.95	6.48	-40.0	-51.0	3.8	8.46e-01	0	54	104	0	51	12121
2026-01-29 06:13:38.74	359.84	6.53	-40.0	-50.9	3.8	8.47e-01	0	54	104	0	51	12062
2026-01-29 06:13:39.75	359.72	6.59	-40.0	-50.9	3.8	8.47e-01	0	54	104	0	51	12055
2026-01-29 06:13:40.76	359.60	6.64	-40.0	-50.9	3.8	8.46e-01	0	54	104	0	51	12076
2026-01-29 06:13:41.77	359.48	6.69	-40.0	-50.9	3.8	8.47e-01	0	54	104	0	51	12061
2026-01-29 06:13:42.78	359.36	6.74	-40.0	-50.9	3.8	8.47e-01	0	54	104	0	51	12068
2026-01-29 06:13:43.79	359.24	6.79	-40.0	-50.9	3.8	8.46e-01	0	54	104	0	51	12085
2026-01-29 06:13:44.81	359.12	6.85	-40.0	-50.9	3.8	8.46e-01	0	54	104	0	51	12083
2026-01-29 06:13:45.82	359.00	6.90	-40.0	-51.0	3.8	8.45e-01	0	54	104	0	51	12103
2026-01-29 06:13:46.83	358.88	6.95	-40.0	-50.9	3.8	8.45e-01	0	54	104	0	51	12065
2026-01-29 06:13:47.84	358.76	7.00	-40.0	-50.9	3.8	8.45e-01	0	55	104	0	51	12057
2026-01-29 06:13:48.85	358.64	7.06	-40.0	-50.9	3.8	8.46e-01	0	55	104	0	51	12045
2026-01-29 06:13:49.86	358.52	7.11	-40.0	-50.9	3.8	8.46e-01	0	54	104	0	51	12094
2026-01-29 06:13:50.87	358.40	7.16	-40.0	-50.9	3.8	8.45e-01	0	54	104	0	51	12067
2026-01-29 06:13:51.88	358.27	7.21	-40.0	-51.0	3.8	8.46e-01	0	55	104	0	51	12106
2026-01-29 06:13:52.89	358.15	7.26	-40.0	-50.9	3.8	8.47e-01	0	54	104	0	51	12069
2026-01-29 06:13:53.90	358.03	7.32	-40.0	-50.9	3.8	8.46e-01	0	55	104	0	51	12077
2026-01-29 06:13:54.91	357.90	7.37	-40.0	-50.9	3.8	8.46e-01	0	55	104	0	51	12019
2026-01-29 06:13:55.92	357.78	7.42	-40.0	-50.9	3.8	8.47e-01	0	55	104	0	51	12080
2026-01-29 06:13:56.93	357.65	7.47	-40.0	-50.9	3.8	8.46e-01	0	55	104	0	51	12032
2026-01-29 06:13:57.94	357.53	7.52	-40.0	-50.9	3.8	8.45e-01	0	55	104	0	51	12037
2026-01-29 06:13:58.95	357.40	7.57	-40.0	-51.0	3.8	8.46e-01	0	55	104	0	51	12118
2026-01-29 06:13:59.96	357.28	7.63	-40.0	-50.9	3.8	8.46e-01	0	55	104	0	51	12082
2026-01-29 06:14:00.97	357.15	7.68	-40.0	-50.9	3.8	8.47e-01	0	55	104	0	51	12089
2026-01-29 06:14:01.99	357.02	7.73	-40.0	-50.9	3.8	8.48e-01	0	55	104	0	51	12037
2026-01-29 06:14:02.99	356.89	7.78	-40.0	-50.9	3.8	8.46e-01	0	55	104	0	51	12022
2026-01-29 06:14:04.01	356.76	7.83	-40.0	-50.9	3.8	8.45e-01	0	55	104	0	51	12065
2026-01-29 06:14:05.02	356.64	7.89	-40.0	-50.9	3.8	8.46e-01	0	55	104	0	51	12030
2026-01-29 06:14:06.03	356.51	7.94	-40.0	-50.9	3.8	8.46e-01	0	55	104	0	51	12040
2026-01-29 06:14:07.04	356.38	7.99	-40.0	-50.9	3.8	8.47e-01	0	55	104	0	51	12022
2026-01-29 06:14:08.05	356.25	8.04	-40.0	-50.9	3.8	8.46e-01	0	55	104	0	51	12084
2026-01-29 06:14:09.06	356.12	8.09	-40.2	-51.1	3.8	8.46e-01	0	55	104	0	51	12282
2026-01-29 06:14:10.07	355.99	8.14	-40.0	-51.0	3.8	8.45e-01	0	55	104	0	51	12116
2026-01-29 06:14:11.08	355.85	8.19	-40.1	-51.1	3.8	8.47e-01	0	55	104	0	51	12245
2026-01-29 06:14:12.09	355.72	8.25	-40.3	-51.3	3.8	8.46e-01	0	55	104	0	51	12546
2026-01-29 06:14:13.10	355.59	8.30	-40.1	-51.0	3.8	8.46e-01	0	55	104	0	51	12211
2026-01-29 06:14:14.11	355.46	8.35	-40.1	-51.1	3.8	8.46e-01	0	55	104	0	51	12247
2026-01-29 06:14:15.12	355.32	8.40	-40.2	-51.1	3.8	8.46e-01	0	55	104	0	51	12287
2026-01-29 06:14:16.13	355.19	8.45	-40.4	-51.3	3.8	8.46e-01	0	55	104	0	51	12571
2026-01-29 06:14:17.14	355.05	8.50	-40.2	-51.1	3.8	8.46e-01	0	55	104	0	51	12342
2026-01-29 06:14:18.15	354.92	8.55	-40.2	-51.1	3.8	8.45e-01	0	55	104	0	51	12347
2026-01-29 06:14:19.16	354.78	8.60	-40.3	-51.2	3.8	8.47e-01	0	55	104	0	51	12429
2026-01-29 06:14:20.17	354.65	8.66	-40.4	-51.3	3.8	8.46e-01	0	55	104	0	51	12646
2026-01-29 06:14:21.18	354.51	8.71	-40.3	-51.2	3.8	8.46e-01	0	55	104	0	51	12437
2026-01-29 06:14:22.19	354.37	8.76	-40.3	-51.2	3.8	8.45e-01	0	55	104	0	51	12390
2026-01-29 06:14:23.20	354.24	8.81	-40.3	-51.2	3.8	8.46e-01	0	55	104	0	51	12508
2026-01-29 06:14:24.21	354.10	8.86	-40.5	-51.4	3.8	8.45e-01	0	56	104	0	51	12683
2026-01-29 06:14:25.22	353.96	8.91	-40.3	-51.2	3.8	8.46e-01	0	55	104	0	51	12501
2026-01-29 06:14:26.23	353.82	8.96	-40.4	-51.3	3.8	8.46e-01	0	56	104	0	51	12553
2026-01-29 06:14:27.24	353.68	9.01	-40.5	-51.4	3.8	8.46e-01	0	56	104	0	51	12738
2026-01-29 06:14:28.25	353.54	9.06	-40.6	-51.5	3.8	8.45e-01	0	55	104	0	51	12881
2026-01-29 06:14:29.26	353.40	9.11	-40.4	-51.3	3.8	8.47e-01	0	56	104	0	51	12532
2026-01-29 06:14:30.27	353.26	9.16	-40.5	-51.4	3.8	8.47e-01	0	56	104	0	51	12746
2026-01-29 06:14:31.28	353.12	9.21	-40.6	-51.5	3.8	8.47e-01	0	56	104	0	51	12945
2026-01-29 06:14:32.29	352.98	9.26	-40.8	-51.7	3.8	8.45e-01	0	56	104	0	51	13161
2026-01-29 06:14:33.30	352.84	9.31	-40.5	-51.4	3.8	8.45e-01	0	56	104	0	51	12765
2026-01-29 06:14:34.31	352.69	9.36	-40.7	-51.6	3.8	8.46e-01	0	56	104	0	51	12995
2026-01-29 06:14:35.32	352.55	9.41	-40.7	-51.7	3.8	8.47e-01	0	56	104	0	51	13118
2026-01-29 06:14:36.34	352.40	9.46	-40.9	-51.8	3.8	8.46e-01	0	56	104	0	51	13265
2026-01-29 06:14:37.35	352.26	9.51	-40.7	-51.6	3.8	8.45e-01	0	56	104	0	51	12967
2026-01-29 06:14:38.36	352.12	9.56	-40.8	-51.7	3.8	8.45e-01	0	56	104	0	51	13185
2026-01-29 06:14:39.37	351.97	9.61	-40.8	-51.7	3.8	8.46e-01	0	56	104	0	51	13160
2026-01-29 06:14:40.38	351.82	9.66	-40.8	-51.8	3.8	8.47e-01	0	56	104	0	51	13271
2026-01-29 06:14:41.39	351.68	9.71	-40.9	-51.8	3.8	8.46e-01	0	56	104	0	51	13311
2026-01-29 06:14:42.40	351.53	9.76	-40.7	-51.6	3.8	8.46e-01	0	56	104	0	51	13104
2026-01-29 06:14:43.41	351.38	9.81	-40.9	-51.8	3.8	8.48e-01	0	56	104	0	51	13341
2026-01-29 06:14:44.42	351.23	9.86	-40.9	-51.8	3.8	8.47e-01	0	56	104	0	51	13371
2026-01-29 06:14:45.43	351.09	9.91	-40.8	-51.7	3.8	8.47e-01	0	56	104	0	51	13216
2026-01-29 06:14:46.44	350.94	9.96	-40.8	-51.7	3.8	8.46e-01	0	56	104	0	51	13212
2026-01-29 06:14:47.45	350.79	10.01	-41.1	-52.0	3.8	8.47e-01	0	56	104	0	51	13605
2026-01-29 06:14:48.46	350.64	10.06	-41.0	-51.9	3.8	8.46e-01	0	56	104	0	51	13479
2026-01-29 06:14:49.47	350.49	10.11	-40.8	-51.8	3.8	8.46e-01	0	56	104	0	51	13271
2026-01-29 06:14:50.48	350.34	10.16	-40.9	-51.8	3.8	8.46e-01	0	56	104	0	51	13371
2026-01-29 06:14:51.49	350.18	10.21	-41.0	-51.9	3.8	8.46e-01	0	57	104	0	51	13518
2026-01-29 06:14:52.50	350.03	10.25	-40.9	-51.9	3.8	8.45e-01	0	56	104	0	51	13438
2026-01-29 06:14:53.51	349.88	10.30	-40.9	-51.8	3.8	8.46e-01	0	56	104	0	51	13345
2026-01-29 06:14:54.52	349.73	10.35	-40.8	-51.8	3.8	8.46e-01	0	56	104	0	51	13335
2026-01-29 06:14:55.53	349.57	10.40	-41.0	-51.9	3.8	8.45e-01	0	56	104	0	51	13530
2026-01-29 06:14:56.54	349.42	10.45	-40.9	-51.8	3.8	8.44e-01	0	56	104	0	52	12655
2026-01-29 06:14:57.56	349.26	10.50	-40.9	-51.8	3.8	8.46e-01	0	56	104	0	52	12571
2026-01-29 06:14:58.57	349.11	10.54	-41.0	-51.9	3.8	8.46e-01	0	56	104	0	52	12759
2026-01-29 06:14:59.58	348.95	10.59	-41.3	-52.2	3.8	8.47e-01	0	56	104	0	52	13152
2026-01-29 06:15:00.58	348.80	10.64	-41.1	-52.1	3.8	8.46e-01	0	56	104	0	52	12974
2026-01-29 06:15:01.59	348.64	10.69	-41.1	-52.0	3.8	8.45e-01	0	56	104	0	52	12914
2026-01-29 06:15:02.60	348.48	10.74	-41.3	-52.2	3.8	8.44e-01	0	56	104	0	52	13139
2026-01-29 06:15:03.61	348.33	10.78	-41.3	-52.2	3.8	8.46e-01	0	56	104	0	52	13210
2026-01-29 06:15:04.62	348.17	10.83	-41.3	-52.2	3.8	8.46e-01	0	56	104	0	52	13178
2026-01-29 06:15:05.63	348.01	10.88	-41.2	-52.2	3.8	8.46e-01	0	57	104	0	52	13137
2026-01-29 06:15:06.64	347.85	10.92	-41.3	-52.2	3.8	8.46e-01	0	57	104	0	52	13192
2026-01-29 06:15:07.65	347.69	10.97	-41.3	-52.2	3.8	8.47e-01	0	56	104	0	52	13177
2026-01-29 06:15:08.67	347.53	11.02	-41.3	-52.2	3.8	8.47e-01	0	56	104	0	52	13189
2026-01-29 06:15:09.68	347.37	11.07	-41.3	-52.3	3.8	8.46e-01	0	56	104	0	52	13283
2026-01-29 06:15:10.69	347.20	11.11	-41.3	-52.2	3.8	8.46e-01	0	57	104	0	52	13196
2026-01-29 06:15:11.70	347.04	11.16	-41.2	-52.2	3.8	8.45e-01	0	57	104	0	52	13138
2026-01-29 06:15:12.70	346.88	11.20	-41.3	-52.3	3.8	8.47e-01	0	56	104	0	52	13298
2026-01-29 06:15:13.71	346.72	11.25	-41.3	-52.3	3.8	8.46e-01	0	57	104	0	52	13263
2026-01-29 06:15:14.72	346.55	11.30	-41.2	-52.1	3.8	8.46e-01	0	57	104	0	52	13029
2026-01-29 06:15:15.73	346.39	11.34	-41.1	-52.0	3.8	8.47e-01	0	57	104	0	52	12904
2026-01-29 06:15:16.74	346.23	11.39	-41.3	-52.2	3.8	8.46e-01	0	56	104	0	52	13214
2026-01-29 06:15:17.75	346.06	11.43	-41.2	-52.1	3.8	8.47e-01	0	57	104	0	52	13054
2026-01-29 06:15:18.76	345.89	11.48	-41.0	-51.9	3.8	8.46e-01	0	57	104	0	52	12772
2026-01-29 06:15:19.77	345.73	11.52	-40.9	-51.8	3.8	8.46e-01	0	57	104	0	52	12625
2026-01-29 06:15:20.78	345.56	11.57	-41.2	-52.1	3.8	8.45e-01	0	57	104	0	52	13040
2026-01-29 06:15:21.79	345.39	11.62	-41.0	-51.9	3.8	8.47e-01	0	57	104	0	52	12774
2026-01-29 06:15:22.80	345.23	11.66	-40.9	-51.8	3.8	8.47e-01	0	57	104	0	52	12593
2026-01-29 06:15:23.81	345.06	11.70	-41.0	-51.9	3.8	8.47e-01	0	57	104	0	52	12754
2026-01-29 06:15:24.82	344.89	11.75	-41.0	-51.9	3.8	8.48e-01	0	57	104	0	52	12709
2026-01-29 06:15:25.83	344.72	11.79	-40.9	-51.8	3.8	8.46e-01	0	57	104	0	52	12559
2026-01-29 06:15:26.84	344.55	11.84	-40.9	-51.9	3.8	8.46e-01	0	57	104	0	52	12701
2026-01-29 06:15:27.85	344.38	11.88	-40.9	-51.9	3.8	8.46e-01	0	57	104	0	52	12675
2026-01-29 06:15:28.86	344.21	11.93	-40.9	-51.9	3.8	8.47e-01	0	57	104	0	52	12673
2026-01-29 06:15:29.86	344.04	11.97	-40.9	-51.9	3.8	8.46e-01	0	57	104	0	52	12677
2026-01-29 06:15:30.87	343.87	12.01	-40.9	-51.8	3.8	8.47e-01	0	57	104	0	52	12559
2026-01-29 06:15:31.88	343.69	12.06	-40.8	-51.7	3.8	8.47e-01	0	57	104	0	52	12457
2026-01-29 06:15:32.89	343.52	12.10	-41.0	-51.9	3.8	8.46e-01	0	57	104	0	52	12775
2026-01-29 06:15:33.90	343.35	12.14	-40.9	-51.8	3.8	8.46e-01	0	57	104	0	52	12608
2026-01-29 06:15:34.91	343.17	12.18	-40.8	-51.7	3.8	8.46e-01	0	57	104	0	52	12474
2026-01-29 06:15:35.92	343.00	12.23	-40.7	-51.6	3.8	8.46e-01	0	57	104	0	52	12360
2026-01-29 06:15:36.93	342.82	12.27	-40.8	-51.8	3.8	8.46e-01	0	57	104	0	52	12609
2026-01-29 06:15:37.95	342.65	12.31	-40.9	-51.8	3.8	8.47e-01	0	57	104	0	52	12620
2026-01-29 06:15:38.96	342.47	12.35	-40.8	-51.6	3.8	8.46e-01	0	57	104	0	52	12362
2026-01-29 06:15:39.97	342.29	12.40	-40.5	-51.4	3.8	8.46e-01	0	57	104	0	52	12092
2026-01-29 06:15:40.98	342.12	12.44	-40.8	-51.7	3.8	8.47e-01	0	57	104	0	52	12467
2026-01-29 06:15:41.99	341.94	12.48	-40.8	-51.7	3.8	8.45e-01	0	57	104	0	52	12417
2026-01-29 06:15:43.00	341.76	12.52	-40.5	-51.5	3.8	8.47e-01	0	57	104	0	52	12131
2026-01-29 06:15:44.01	341.58	12.56	-40.6	-51.6	3.8	8.46e-01	0	57	104	0	52	12243
2026-01-29 06:15:45.02	341.40	12.60	-40.7	-51.6	3.8	8.46e-01	0	57	104	0	52	12315
2026-01-29 06:15:46.03	341.22	12.64	-40.6	-51.5	3.8	8.46e-01	0	57	104	0	52	12202
2026-01-29 06:15:47.04	341.04	12.68	-40.6	-51.5	3.8	8.47e-01	0	57	104	0	52	12155
2026-01-29 06:15:48.05	340.86	12.72	-40.8	-51.7	3.8	8.48e-01	0	57	104	0	52	12493
2026-01-29 06:15:49.06	340.68	12.76	-40.5	-51.5	3.8	8.45e-01	0	57	104	0	52	12102
2026-01-29 06:15:50.07	340.50	12.80	-40.7	-51.6	3.8	8.45e-01	0	57	104	0	52	12342
2026-01-29 06:15:51.08	340.32	12.84	-40.8	-51.5	3.8	8.47e-01	0	57	104	0	52	12201
2026-01-29 06:15:52.09	340.13	12.88	-41.6	-51.5	3.8	8.46e-01	0	57	104	0	52	12220
2026-01-29 06:15:53.10	339.95	12.92	-40.6	-51.2	3.8	8.46e-01	0	57	104	0	52	11702
2026-01-29 06:15:54.11	339.77	12.96	-41.1	-51.4	3.8	8.47e-01	0	57	104	0	52	12004
2026-01-29 06:15:55.12	339.58	13.00	-41.3	-49.8	4.0	8.43e-01	0	57	104	0	52	9987
2026-01-29 06:15:56.13	339.40	13.04	-42.0	-48.3	5.0	7.86e-01	0	57	0	0	53	7967
2026-01-29 06:15:57.14	339.21	13.08	-40.6	-48.3	4.3	8.34e-01	0	57	0	0	52	8402
2026-01-29 06:15:58.15	339.03	13.11	-40.7	-45.1	7.2	1.80e-01	0	57	0	3145728	52	5829
2026-01-29 06:15:59.16	338.84	13.15	-40.2	-43.7	8.8	5.06e-02	0	57	0	10485760	51	5241
2026-01-29 06:16:00.17	338.65	13.19	-39.7	-42.6	10.1	9.69e-03	0	57	0	17825792	50	4913
2026-01-29 06:16:01.18	338.47	13.23	-39.4	-42.2	10.7	3.54e-03	0	57	0	25165824	49	4929
2026-01-29 06:16:02.19	338.28	13.26	-39.5	-42.2	10.8	2.72e-03	0	57	0	32505856	49	4965
2026-01-29 06:16:03.20	338.09	13.30	-39.8	-42.7	10.4	4.32e-03	0	57	0	39845888	49	5229
2026-01-29 06:16:04.21	337.90	13.34	-39.8	-42.5	10.7	3.74e-03	0	57	0	47185920	49	5153
2026-01-29 06:16:05.22	337.71	13.37	-39.5	-42.1	11.3	1.49e-03	0	57	0	54525952	49	4879
2026-01-29 06:16:06.23	337.52	13.41	-39.7	-42.3	11.2	1.41e-03	0	57	0	61865984	49	5006
2026-01-29 06:16:07.24	337.33	13.44	-40.0	-42.7	11.0	2.24e-03	0	57	0	69206016	49	5225
2026-01-29 06:16:08.25	337.14	13.48	-39.7	-42.0	11.7	7.45e-04	0	57	0	76546048	49	4857
2026-01-29 06:16:09.26	336.95	13.52	-39.8	-42.2	11.7	5.35e-04	0	57	0	83886080	49	4939
2026-01-29 06:16:10.28	336.76	13.55	-39.8	-42.2	11.7	7.22e-04	0	57	0	91226112	49	4958
2026-01-29 06:16:11.29	336.57	13.59	-39.6	-41.8	12.1	3.35e-04	0	57	0	98566144	49	4749
2026-01-29 06:16:12.30	336.38	13.62	-39.7	-42.0	12.0	3.70e-04	0	57	0	104857600	49	4840
2026-01-29 06:16:13.31	336.18	13.65	-39.4	-41.6	12.5	1.30e-04	0	57	0	113246208	49	4602
2026-01-29 06:16:14.32	335.99	13.69	-39.5	-41.7	12.4	2.05e-04	0	57	0	119537664	49	4676
2026-01-29 06:16:15.33	335.80	13.72	-39.4	-41.5	12.6	1.21e-04	0	57	0	126877696	49	4575
2026-01-29 06:16:16.34	335.60	13.75	-39.5	-41.7	12.4	1.85e-04	0	57	0	134217728	49	4689
2026-01-29 06:16:17.35	335.41	13.79	-39.3	-41.4	12.8	6.86e-05	0	57	0	141557760	49	4500
2026-01-29 06:16:18.36	335.21	13.82	-39.1	-41.1	13.1	3.89e-05	0	57	0	148897792	49	4346
2026-01-29 06:16:19.37	335.02	13.85	-39.1	-41.2	13.1	2.97e-05	0	57	0	156237824	49	4394
2026-01-29 06:16:20.38	334.82	13.89	-39.1	-41.1	13.1	3.08e-05	0	57	0	163577856	49	4367
2026-01-29 06:16:21.40	334.62	13.92	-39.0	-41.0	13.2	2.05e-05	0	57	0	170917888	49	4321
2026-01-29 06:16:22.41	334.43	13.95	-39.0	-41.0	13.3	1.25e-05	0	57	0	178257920	48	4566
2026-01-29 06:16:23.42	334.23	13.98	-39.0	-41.0	13.3	1.71e-05	0	57	0	185597952	48	4560
2026-01-29 06:16:24.43	334.03	14.01	-38.9	-40.9	13.4	2.28e-05	0	57	0	192937984	48	4512
2026-01-29 06:16:25.44	333.83	14.04	-39.0	-40.9	13.3	3.43e-05	0	58	0	200278016	48	4537
2026-01-29 06:16:26.45	333.63	14.07	-39.0	-41.0	13.3	2.63e-05	0	57	0	207618048	48	4581
2026-01-29 06:16:27.46	333.44	14.10	-38.9	-40.9	13.4	1.60e-05	0	57	0	214958080	48	4512
2026-01-29 06:16:28.46	333.24	14.13	-38.9	-40.8	13.5	1.14e-05	0	58	0	222298112	48	4477
2026-01-29 06:16:29.47	333.04	14.16	-38.8	-40.7	13.6	2.20e-06	0	58	0	229638144	48	4395
2026-01-29 06:16:30.48	332.84	14.19	-38.8	-40.6	13.7	5.70e-06	0	58	0	236978176	48	4389
2026-01-29 06:16:31.49	332.64	14.22	-38.7	-40.6	13.7	9.10e-06	0	57	0	244318208	48	4368
2026-01-29 06:16:32.50	332.44	14.25	-38.8	-40.6	13.7	4.50e-06	0	57	0	250609664	48	4381
2026-01-29 06:16:33.52	332.23	14.28	-38.7	-40.5	13.8	4.50e-06	0	58	0	258998272	48	4331
2026-01-29 06:16:34.53	332.03	14.30	-38.7	-40.5	13.8	6.80e-06	0	58	0	266338304	48	4327
2026-01-29 06:16:35.54	331.83	14.33	-38.7	-40.5	13.8	2.20e-06	0	58	0	272629760	48	4328
2026-01-29 06:16:36.55	331.63	14.36	-38.7	-40.6	13.8	5.70e-06	0	57	0	279969792	48	4367
2026-01-29 06:16:37.56	331.43	14.39	-38.7	-40.6	13.8	4.50e-06	0	57	0	288358400	48	4368
2026-01-29 06:16:38.57	331.22	14.41	-38.8	-40.6	13.8	5.70e-06	0	57	0	294649856	48	4380
2026-01-29 06:16:39.58	331.02	14.44	-38.7	-40.6	13.8	6.80e-06	0	57	0	301989888	48	4372
2026-01-29 06:16:40.59	330.82	14.46	-38.8	-40.6	13.7	6.80e-06	0	58	0	309329920	48	4391
2026-01-29 06:16:41.60	330.61	14.49	-38.8	-40.7	13.7	5.70e-06	0	58	0	316669952	48	4417
2026-01-29 06:16:42.61	330.41	14.52	-38.8	-40.6	13.8	3.40e-06	0	57	0	324009984	48	4380
2026-01-29 06:16:43.62	330.20	14.54	-38.8	-40.7	13.7	8.00e-06	0	58	0	331350016	48	4418
2026-01-29 06:16:44.63	330.00	14.56	-38.8	-40.6	13.8	8.00e-06	0	57	0	338690048	48	4380
2026-01-29 06:16:45.64	329.79	14.59	-38.6	-40.5	14.0	5.70e-06	0	58	0	346030080	48	4292
2026-01-29 06:16:46.65	329.58	14.61	-38.6	-40.4	14.0	2.20e-06	0	58	0	353370112	48	4263
2026-01-29 06:16:47.67	329.38	14.64	-38.5	-40.3	14.2	3.40e-06	0	58	0	360710144	48	4208
2026-01-29 06:16:48.68	329.17	14.66	-38.3	-40.1	14.2	2.20e-06	0	58	0	368050176	47	4349
2026-01-29 06:16:49.69	328.96	14.68	-38.2	-40.0	14.3	4.50e-06	0	58	0	375390208	47	4304
2026-01-29 06:16:50.70	328.75	14.71	-38.3	-40.1	14.2	3.40e-06	0	58	0	382730240	47	4361
2026-01-29 06:16:51.71	328.55	14.73	-38.3	-40.1	14.2	1.10e-06	0	58	0	390070272	47	4365
2026-01-29 06:16:52.72	328.34	14.75	-38.3	-40.1	14.2	2.20e-06	0	57	0	397410304	47	4368
2026-01-29 06:16:53.73	328.13	14.77	-38.3	-40.1	14.2	0.00e+00	0	58	0	404750336	47	4371
2026-01-29 06:16:54.74	327.92	14.79	-38.4	-40.2	14.1	0.00e+00	0	58	0	412090368	47	4410
2026-01-29 06:16:55.75	327.71	14.81	-38.5	-40.4	14.0	2.20e-06	0	58	0	419430400	47	4497
2026-01-29 06:16:56.76	327.50	14.83	-38.4	-40.2	14.1	1.10e-06	0	58	0	425721856	47	4434
2026-01-29 06:16:57.77	327.30	14.85	-38.4	-40.3	14.0	1.10e-06	0	58	0	434110464	47	4452
2026-01-29 06:16:58.77	327.09	14.87	-38.5	-40.4	13.9	3.40e-06	0	58	0	441450496	47	4508
2026-01-29 06:16:59.79	326.88	14.89	-38.5	-40.3	14.0	6.80e-06	0	58	0	447741952	47	4482
2026-01-29 06:17:00.80	326.67	14.91	-38.5	-40.3	14.0	2.20e-06	0	58	0	455081984	47	4462
2026-01-29 06:17:01.81	326.45	14.93	-38.5	-40.3	14.0	4.50e-06	0	58	0	462422016	47	4472
2026-01-29 06:17:02.81	326.25	14.95	-38.4	-40.2	14.1	4.50e-06	0	58	0	469762048	47	4439
2026-01-29 06:17:03.82	326.03	14.96	-38.4	-40.2	14.1	4.50e-06	0	58	0	477102080	47	4437
2026-01-29 06:17:04.84	325.82	14.98	-38.4	-40.2	14.1	3.40e-06	0	58	0	484442112	47	4393
2026-01-29 06:17:05.85	325.61	15.00	-38.3	-40.1	14.2	1.10e-06	0	58	0	491782144	47	4360
2026-01-29 06:17:06.86	325.40	15.02	-38.2	-40.0	14.3	0.00e+00	0	58	0	499122176	47	4302
2026-01-29 06:17:07.87	325.19	15.03	-38.2	-40.0	14.3	1.10e-06	0	58	0	506462208	47	4303
2026-01-29 06:17:08.88	324.97	15.05	-38.2	-40.0	14.3	1.10e-06	0	58	0	513802240	47	4302
2026-01-29 06:17:09.89	324.76	15.06	-38.3	-40.0	14.3	0.00e+00	0	58	0	521142272	47	4331
2026-01-29 06:17:10.90	324.55	15.08	-38.2	-39.9	14.4	0.00e+00	0	58	0	528482304	47	4286
2026-01-29 06:17:11.91	324.34	15.09	-38.2	-40.0	14.3	1.10e-06	0	58	0	535822336	47	4304
2026-01-29 06:17:12.92	324.12	15.11	-38.2	-39.9	14.4	2.20e-06	0	58	0	543162368	47	4287
2026-01-29 06:17:13.93	323.91	15.12	-38.2	-40.0	14.4	2.20e-06	0	58	0	550502400	47	4292
2026-01-29 06:17:14.94	323.69	15.13	-38.2	-40.0	14.3	0.00e+00	0	58	0	557842432	47	4314
2026-01-29 06:17:15.95	323.48	15.15	-38.2	-40.0	14.4	1.10e-06	0	58	0	565182464	47	4309
2026-01-29 06:17:16.96	323.27	15.16	-38.3	-40.0	14.3	1.10e-06	0	58	0	572522496	47	4333
2026-01-29 06:17:17.97	323.05	15.17	-38.4	-40.2	14.1	4.50e-06	0	58	0	579862528	47	4413
2026-01-29 06:17:18.98	322.84	15.18	-38.4	-40.3	14.1	1.10e-06	0	58	0	587202560	47	4447
2026-01-29 06:17:19.99	322.62	15.20	-38.4	-40.2	14.1	1.10e-06	0	58	0	593494016	47	4435
2026-01-29 06:17:21.00	322.41	15.21	-38.4	-40.3	14.1	2.20e-06	0	58	0	600834048	47	4451
2026-01-29 06:17:22.01	322.19	15.22	-38.5	-40.3	14.0	1.10e-06	0	58	0	609222656	47	4474
2026-01-29 06:17:23.02	321.98	15.23	-38.4	-40.2	14.1	1.10e-06	0	58	0	615514112	47	4424
2026-01-29 06:17:24.03	321.76	15.24	-38.3	-40.1	14.2	1.10e-06	0	58	0	622854144	47	4373
2026-01-29 06:17:25.05	321.55	15.25	-38.4	-40.2	14.2	1.10e-06	0	58	0	630194176	47	4393
2026-01-29 06:17:26.06	321.33	15.26	-38.3	-40.1	14.2	4.50e-06	0	58	0	637534208	47	4357
2026-01-29 06:17:27.07	321.12	15.27	-38.2	-39.9	14.4	1.10e-06	0	58	0	644874240	47	4288
2026-01-29 06:17:28.07	320.90	15.27	-38.2	-39.9	14.4	3.40e-06	0	58	0	652214272	47	4262
2026-01-29 06:17:29.09	320.68	15.28	-38.2	-39.9	14.4	1.10e-06	0	58	0	659554304	47	4276
2026-01-29 06:17:30.10	320.47	15.29	-38.2	-39.9	14.4	1.10e-06	0	58	0	666894336	47	4287
2026-01-29 06:17:31.11	320.25	15.30	-38.1	-39.9	14.5	1.10e-06	0	58	0	674234368	47	4256
2026-01-29 06:17:32.12	320.04	15.30	-38.1	-39.8	14.5	1.10e-06	0	58	0	681574400	47	4231
2026-01-29 06:17:33.13	319.82	15.31	-38.1	-39.9	14.4	2.20e-06	0	58	0	688914432	47	4247
2026-01-29 06:17:34.14	319.60	15.31	-38.2	-39.9	14.4	0.00e+00	0	58	0	696254464	47	4283
2026-01-29 06:17:35.15	319.39	15.32	-38.1	-39.8	14.5	0.00e+00	0	58	0	703594496	47	4233
2026-01-29 06:17:36.16	319.17	15.33	-38.1	-39.8	14.5	0.00e+00	0	58	0	710934528	47	4238
2026-01-29 06:17:37.17	318.95	15.33	-38.1	-39.8	14.5	0.00e+00	0	58	0	718274560	47	4234
2026-01-29 06:17:38.18	318.74	15.33	-38.1	-39.8	14.5	1.10e-06	0	58	0	725614592	47	4232
2026-01-29 06:17:39.20	318.52	15.34	-38.1	-39.9	14.5	1.10e-06	0	58	0	732954624	47	4252
2026-01-29 06:17:40.21	318.30	15.34	-38.1	-39.8	14.5	0.00e+00	0	58	0	740294656	47	4230
2026-01-29 06:17:41.22	318.08	15.34	-38.2	-40.0	14.4	1.10e-06	0	58	0	747634688	47	4306
2026-01-29 06:17:42.23	317.87	15.35	-38.2	-40.0	14.4	0.00e+00	0	58	0	754974720	47	4294
2026-01-29 06:17:43.24	317.65	15.35	-38.3	-40.1	14.2	0.00e+00	0	58	0	762314752	47	4368
2026-01-29 06:17:44.25	317.43	15.35	-38.4	-40.2	14.1	4.50e-06	0	58	0	768606208	47	4408
2026-01-29 06:17:45.26	317.22	15.35	-38.4	-40.2	14.1	1.10e-06	0	58	0	776994816	47	4440
2026-01-29 06:17:46.27	317.00	15.35	-38.5	-40.3	14.0	2.20e-06	0	58	0	784334848	47	4469
2026-01-29 06:17:47.28	316.78	15.35	-38.5	-40.4	14.0	2.20e-06	0	58	0	790626304	47	4494
2026-01-29 06:17:48.29	316.57	15.35	-38.6	-40.5	13.9	8.00e-06	0	58	0	797966336	47	4557
2026-01-29 06:17:49.30	316.35	15.35	-38.6	-40.4	13.9	6.80e-06	0	58	0	805306368	47	4516
2026-01-29 06:17:50.31	316.13	15.35	-38.5	-40.3	14.0	5.70e-06	0	58	0	812646400	47	4479
2026-01-29 06:17:51.32	315.91	15.35	-38.5	-40.3	14.0	0.00e+00	0	58	0	819986432	47	4463
2026-01-29 06:17:52.33	315.70	15.35	-38.5	-40.3	14.0	3.40e-06	0	58	0	827326464	47	4459
2026-01-29 06:17:53.34	315.48	15.35	-38.5	-40.3	14.0	8.00e-06	0	58	0	834666496	47	4461
2026-01-29 06:17:54.35	315.26	15.35	-38.5	-40.3	14.0	2.20e-06	0	58	0	842006528	47	4451
2026-01-29 06:17:55.36	315.05	15.34	-38.4	-40.2	14.1	3.40e-06	0	58	0	849346560	47	4406
2026-01-29 06:17:56.37	314.83	15.34	-38.4	-40.3	14.0	3.40e-06	0	58	0	856686592	47	4452
2026-01-29 06:17:57.39	314.61	15.34	-38.5	-40.4	14.0	5.70e-06	0	58	0	864026624	47	4503
2026-01-29 06:17:58.40	314.39	15.33	-38.5	-40.3	14.0	3.40e-06	0	58	0	871366656	47	4457
2026-01-29 06:17:59.40	314.18	15.33	-38.4	-40.2	14.1	6.80e-06	0	58	0	878706688	47	4432
2026-01-29 06:18:00.41	313.96	15.32	-38.4	-40.2	14.1	3.40e-06	0	58	0	886046720	47	4402
2026-01-29 06:18:01.42	313.75	15.32	-38.4	-40.2	14.2	2.20e-06	0	58	0	893386752	47	4393
2026-01-29 06:18:02.43	313.53	15.31	-38.3	-40.0	14.3	2.20e-06	0	58	0	900726784	47	4340
2026-01-29 06:18:03.45	313.31	15.31	-38.2	-39.9	14.4	0.00e+00	0	58	0	908066816	47	4272
2026-01-29 06:18:04.46	313.09	15.30	-38.1	-39.8	14.5	0.00e+00	0	58	0	914358272	47	4240
2026-01-29 06:18:05.47	312.88	15.29	-38.1	-39.9	14.4	1.10e-06	0	58	0	922746880	47	4258
2026-01-29 06:18:06.47	312.66	15.29	-38.1	-39.8	14.5	0.00e+00	0	58	0	930086912	47	4240
2026-01-29 06:18:07.48	312.45	15.28	-38.1	-39.8	14.5	1.10e-06	0	58	0	936378368	47	4234
2026-01-29 06:18:08.49	312.23	15.27	-38.1	-39.8	14.5	0.00e+00	0	58	0	943718400	47	4228
2026-01-29 06:18:09.50	312.02	15.26	-38.1	-39.8	14.5	0.00e+00	0	58	0	951058432	47	4217
2026-01-29 06:18:10.51	311.80	15.25	-38.0	-39.8	14.6	1.10e-06	0	58	0	958398464	47	4196
2026-01-29 06:18:11.52	311.59	15.24	-38.1	-39.8	14.5	1.10e-06	0	58	0	965738496	47	4218
2026-01-29 06:18:12.53	311.37	15.23	-38.1	-39.8	14.4	0.00e+00	0	58	0	973078528	47	4242
2026-01-29 06:18:13.55	311.15	15.22	-38.2	-39.9	14.4	0.00e+00	0	58	0	980418560	47	4288
2026-01-29 06:18:14.56	310.94	15.21	-38.2	-39.9	14.4	0.00e+00	0	58	0	987758592	47	4276
2026-01-29 06:18:15.57	310.72	15.20	-38.2	-39.9	14.4	0.00e+00	0	58	0	995098624	47	4274
2026-01-29 06:18:16.58	310.51	15.19	-38.2	-39.9	14.4	0.00e+00	0	58	0	1002438656	47	4257
2026-01-29 06:18:17.59	310.29	15.18	-38.1	-39.9	14.4	1.10e-06	0	58	0	1009778688	47	4258
2026-01-29 06:18:18.60	310.08	15.17	-38.2	-39.9	14.4	0.00e+00	0	58	0	1017118720	47	4270
2026-01-29 06:18:19.61	309.86	15.15	-38.2	-40.0	14.3	2.20e-06	0	58	0	1024458752	47	4297
2026-01-29 06:18:20.62	309.65	15.14	-38.2	-40.0	14.3	1.10e-06	0	58	0	1031798784	47	4301
2026-01-29 06:18:21.63	309.44	15.13	-38.2	-39.9	14.4	1.10e-06	0	58	0	1039138816	47	4275
2026-01-29 06:18:22.63	309.22	15.11	-38.1	-39.8	14.5	1.10e-06	0	58	0	1046478848	47	4219
2026-01-29 06:18:23.64	309.01	15.10	-38.2	-39.9	14.3	0.00e+00	0	58	0	1053818880	47	4287
2026-01-29 06:18:24.65	308.80	15.09	-38.2	-39.9	14.3	0.00e+00	0	58	0	1061158912	47	4282
2026-01-29 06:18:25.66	308.58	15.07	-38.2	-39.9	14.3	1.10e-06	0	58	0	1068498944	47	4288
2026-01-29 06:18:26.67	308.37	15.06	-38.3	-40.1	14.2	4.50e-06	0	58	0	1075838976	47	4360
2026-01-29 06:18:27.68	308.16	15.04	-38.3	-40.1	14.2	2.20e-06	0	58	0	1083179008	47	4365
2026-01-29 06:18:28.69	307.95	15.02	-38.4	-40.2	14.1	2.20e-06	0	58	0	1089470464	47	4394
2026-01-29 06:18:29.70	307.73	15.01	-38.3	-40.1	14.2	2.20e-06	0	58	0	1096810496	47	4352
2026-01-29 06:18:30.72	307.52	14.99	-38.4	-40.2	14.1	3.40e-06	0	58	0	1105199104	47	4399
2026-01-29 06:18:31.73	307.31	14.97	-38.3	-40.0	14.2	3.40e-06	0	58	0	1111490560	47	4333
2026-01-29 06:18:32.74	307.10	14.96	-38.3	-40.0	14.2	2.20e-06	0	58	0	1118830592	47	4338
2026-01-29 06:18:33.75	306.89	14.94	-38.2	-40.0	14.3	1.10e-06	0	58	0	1126170624	47	4310
2026-01-29 06:18:34.76	306.67	14.92	-38.2	-40.0	14.3	0.00e+00	0	58	0	1133510656	47	4300
2026-01-29 06:18:35.77	306.46	14.90	-38.3	-40.1	14.2	0.00e+00	0	58	0	1140850688	47	4344
2026-01-29 06:18:36.78	306.25	14.88	-38.2	-40.0	14.3	0.00e+00	0	58	0	1148190720	47	4299
2026-01-29 06:18:37.79	306.04	14.86	-38.2	-39.9	14.4	1.10e-06	0	58	0	1155530752	47	4265
2026-01-29 06:18:38.80	305.83	14.84	-38.2	-40.0	14.3	2.20e-06	0	58	0	1162870784	47	4298
2026-01-29 06:18:39.81	305.62	14.82	-38.2	-40.0	14.2	1.10e-06	0	58	0	1170210816	47	4309
2026-01-29 06:18:40.83	305.41	14.80	-38.3	-40.1	14.1	2.20e-06	0	58	0	1177550848	47	4384
2026-01-29 06:18:41.84	305.20	14.78	-38.3	-40.2	14.1	2.20e-06	0	58	0	1184890880	47	4392
2026-01-29 06:18:42.85	304.99	14.76	-38.3	-40.1	14.1	4.50e-06	0	58	0	1192230912	47	4391
2026-01-29 06:18:43.86	304.79	14.74	-38.4	-40.2	13.9	5.70e-06	0	58	0	1199570944	47	4421
2026-01-29 06:18:44.87	304.58	14.72	-38.3	-40.1	14.1	0.00e+00	0	58	0	1206910976	47	4376
2026-01-29 06:18:45.88	304.37	14.69	-38.3	-40.1	14.1	3.40e-06	0	58	0	1214251008	47	4368
2026-01-29 06:18:46.89	304.16	14.67	-38.3	-40.1	14.1	3.40e-06	0	58	0	1221591040	47	4367
2026-01-29 06:18:47.90	303.95	14.65	-38.3	-40.1	14.1	2.20e-06	0	58	0	1228931072	47	4386
2026-01-29 06:18:48.91	303.75	14.62	-38.3	-40.1	14.1	2.20e-06	0	58	0	1235222528	47	4363
2026-01-29 06:18:49.92	303.54	14.60	-38.3	-40.2	14.1	4.50e-06	0	58	0	1243611136	47	4392
2026-01-29 06:18:50.93	303.33	14.58	-38.3	-40.1	14.1	1.10e-06	0	58	0	1250951168	47	4377
2026-01-29 06:18:51.94	303.13	14.55	-38.3	-40.1	14.1	4.50e-06	0	58	0	1257242624	47	4369
2026-01-29 06:18:52.95	302.92	14.53	-38.3	-40.1	14.1	2.20e-06	0	58	0	1264582656	47	4381
2026-01-29 06:18:53.96	302.72	14.50	-38.3	-40.1	14.1	0.00e+00	0	58	0	1272971264	47	4382
2026-01-29 06:18:54.97	302.51	14.48	-38.3	-40.1	14.1	2.20e-06	0	58	0	1279262720	47	4370
2026-01-29 06:18:55.98	302.31	14.45	-38.4	-40.2	14.0	3.40e-06	0	58	0	1286602752	47	4406
2026-01-29 06:18:56.99	302.10	14.42	-38.4	-40.2	14.0	2.20e-06	0	59	0	1293942784	47	4413
2026-01-29 06:18:58.00	301.90	14.40	-38.4	-40.3	13.9	5.70e-06	0	58	0	1301282816	47	4449
2026-01-29 06:18:59.01	301.70	14.37	-38.5	-40.3	13.9	5.70e-06	0	58	0	1308622848	47	4476
2026-01-29 06:19:00.02	301.49	14.34	-38.4	-40.2	13.9	3.40e-06	0	58	0	1315962880	47	4434
2026-01-29 06:19:01.03	301.29	14.32	-38.4	-40.3	13.9	2.20e-06	0	58	0	1323302912	47	4461
2026-01-29 06:19:02.04	301.09	14.29	-38.4	-40.2	13.9	3.40e-06	0	58	0	1330642944	47	4427
2026-01-29 06:19:03.05	300.89	14.26	-38.3	-40.2	14.0	1.10e-06	0	58	0	1337982976	47	4394
2026-01-29 06:19:04.06	300.69	14.23	-38.2	-40.0	14.1	3.40e-06	0	59	0	1345323008	47	4333
2026-01-29 06:19:05.07	300.48	14.20	-38.3	-40.1	14.0	2.20e-06	0	58	0	1352663040	47	4378
2026-01-29 06:19:06.08	300.28	14.17	-38.3	-40.2	13.9	3.40e-06	0	58	0	1360003072	47	4407
2026-01-29 06:19:07.09	300.08	14.15	-38.3	-40.1	14.1	3.40e-06	0	59	0	1367343104	47	4361
2026-01-29 06:19:08.10	299.88	14.12	-38.3	-40.1	14.0	6.80e-06	0	59	0	1374683136	47	4383
2026-01-29 06:19:09.11	299.68	14.09	-38.3	-40.1	14.1	2.20e-06	0	59	0	1382023168	47	4351
2026-01-29 06:19:10.12	299.48	14.06	-38.4	-40.3	13.9	5.70e-06	0	58	0	1389363200	47	4450
2026-01-29 06:19:11.12	299.29	14.03	-38.5	-40.4	13.7	3.40e-06	0	59	0	1396703232	47	4519
2026-01-29 06:19:12.13	299.09	13.99	-38.5	-40.4	13.7	4.50e-06	0	58	0	1404043264	47	4533
2026-01-29 06:19:13.14	298.89	13.96	-38.5	-40.4	13.7	9.10e-06	0	58	0	1410334720	47	4528
2026-01-29 06:19:14.15	298.69	13.93	-38.6	-40.5	13.6	1.60e-05	0	58	0	1417674752	47	4555
2026-01-29 06:19:15.16	298.50	13.90	-38.8	-40.8	13.3	1.71e-05	0	59	0	1426063360	47	4727
2026-01-29 06:19:16.17	298.30	13.87	-38.6	-40.5	13.6	1.25e-05	0	58	0	1432354816	47	4591
2026-01-29 06:19:17.18	298.10	13.84	-38.6	-40.5	13.6	1.14e-05	0	58	0	1439694848	47	4555
2026-01-29 06:19:18.19	297.91	13.80	-38.5	-40.4	13.7	1.02e-05	0	58	0	1447034880	47	4525
2026-01-29 06:19:19.21	297.71	13.77	-38.4	-40.2	13.8	8.00e-06	0	58	0	1454374912	47	4441
2026-01-29 06:19:20.22	297.52	13.74	-38.3	-40.1	13.9	2.20e-06	0	58	0	1461714944	47	4391
2026-01-29 06:19:21.23	297.32	13.70	-38.4	-40.2	13.9	6.80e-06	0	58	0	1469054976	47	4412
2026-01-29 06:19:22.24	297.13	13.67	-38.4	-40.3	13.7	3.40e-06	0	58	0	1476395008	47	4473
2026-01-29 06:19:23.25	296.93	13.64	-38.5	-40.3	13.7	2.20e-06	0	58	0	1483735040	47	4487
2026-01-29 06:19:24.26	296.74	13.60	-38.5	-40.4	13.7	5.70e-06	0	58	0	1491075072	47	4512
2026-01-29 06:19:25.27	296.55	13.57	-38.5	-40.4	13.6	1.25e-05	0	59	0	1498415104	47	4530
2026-01-29 06:19:26.28	296.35	13.53	-38.6	-40.5	13.5	1.48e-05	0	58	0	1505755136	47	4581
2026-01-29 06:19:27.29	296.16	13.50	-38.7	-40.6	13.4	1.25e-05	0	58	0	1513095168	47	4629
2026-01-29 06:19:28.30	295.97	13.46	-38.7	-40.7	13.3	1.48e-05	0	58	0	1520435200	47	4696
2026-01-29 06:19:29.31	295.78	13.43	-38.7	-40.7	13.3	2.63e-05	0	59	0	1527775232	47	4675
2026-01-29 06:19:30.32	295.59	13.39	-38.7	-40.8	13.2	2.51e-05	0	59	0	1535115264	47	4707
2026-01-29 06:19:31.33	295.40	13.35	-38.7	-40.6	13.3	2.51e-05	0	59	0	1542455296	47	4648
2026-01-29 06:19:32.34	295.21	13.32	-38.6	-40.5	13.3	1.48e-05	0	58	0	1549795328	47	4581
2026-01-29 06:19:33.35	295.02	13.28	-38.5	-40.5	13.3	2.17e-05	0	58	0	1556086784	47	4572
2026-01-29 06:19:34.36	294.83	13.24	-38.4	-40.4	13.4	1.25e-05	0	58	0	1564475392	47	4507
2026-01-29 06:19:35.38	294.64	13.21	-38.5	-40.4	13.4	2.17e-05	0	58	0	1571815424	47	4510
2026-01-29 06:19:36.39	294.46	13.17	-38.4	-40.3	13.5	1.25e-05	0	58	0	1578106880	47	4461
2026-01-29 06:19:37.39	294.27	13.13	-38.3	-40.2	13.5	9.10e-06	0	58	0	1585446912	47	4414
2026-01-29 06:19:38.40	294.08	13.09	-38.3	-40.3	13.5	9.10e-06	0	58	0	1592786944	47	4444
2026-01-29 06:19:39.41	293.90	13.05	-38.3	-40.2	13.4	6.80e-06	0	58	0	1600126976	47	4417
2026-01-29 06:19:40.42	293.71	13.02	-38.2	-40.2	13.3	2.05e-05	0	58	0	1607467008	47	4417
2026-01-29 06:19:41.43	293.53	12.98	-38.3	-40.3	13.1	3.20e-05	0	58	0	1614807040	47	4472
2026-01-29 06:19:42.44	293.34	12.94	-38.4	-40.5	12.9	4.80e-05	0	58	0	1622147072	47	4552
2026-01-29 06:19:43.45	293.16	12.90	-38.5	-40.6	12.8	7.55e-05	0	58	0	1629487104	47	4632
2026-01-29 06:19:44.46	292.97	12.86	-38.6	-40.8	12.4	1.14e-04	0	59	0	1636827136	47	4728
2026-01-29 06:19:45.47	292.79	12.82	-38.7	-40.8	12.3	1.88e-04	0	58	0	1644167168	47	4752
2026-01-29 06:19:46.48	292.61	12.78	-38.7	-40.9	12.3	2.36e-04	0	58	0	1651507200	47	4800
2026-01-29 06:19:47.49	292.43	12.74	-38.6	-40.9	12.2	2.92e-04	0	58	0	1658847232	47	4784
2026-01-29 06:19:48.50	292.24	12.70	-38.7	-40.9	12.3	2.23e-04	0	59	0	1666187264	47	4807
2026-01-29 06:19:49.51	292.06	12.66	-38.7	-40.9	12.3	1.69e-04	0	59	0	1673527296	47	4799
2026-01-29 06:19:50.52	291.88	12.62	-38.7	-40.9	12.2	2.23e-04	0	58	0	1680867328	47	4804
2026-01-29 06:19:51.53	291.70	12.58	-38.7	-40.9	12.1	2.80e-04	0	59	0	1688207360	47	4814
2026-01-29 06:19:52.54	291.52	12.54	-38.6	-40.9	12.2	2.63e-04	0	58	0	1695547392	47	4784
2026-01-29 06:19:53.55	291.34	12.50	-38.7	-41.0	12.0	3.12e-04	0	58	0	1702887424	47	4841
2026-01-29 06:19:54.56	291.17	12.45	-38.7	-41.0	12.0	3.32e-04	0	59	0	1710227456	47	4833
2026-01-29 06:19:55.57	290.99	12.41	-38.7	-41.0	12.0	3.15e-04	0	58	0	1717567488	47	4829
2026-01-29 06:19:56.58	290.81	12.37	-38.7	-41.0	11.9	3.75e-04	0	58	0	1724907520	47	4861
2026-01-29 06:19:57.60	290.63	12.33	-38.8	-41.1	11.9	4.46e-04	0	58	0	1731198976	47	4890
2026-01-29 06:19:58.61	290.45	12.29	-38.8	-41.1	12.0	4.16e-04	0	58	0	1738539008	47	4893
2026-01-29 06:19:59.62	290.28	12.24	-38.7	-41.1	11.9	4.18e-04	0	58	0	1746927616	47	4893
2026-01-29 06:20:00.63	290.10	12.20	-38.8	-41.2	11.7	5.53e-04	0	58	0	1753219072	47	4931
2026-01-29 06:20:01.64	289.93	12.16	-38.9	-41.3	11.6	7.45e-04	0	59	0	1760559104	47	5018
2026-01-29 06:20:02.65	289.75	12.12	-38.9	-41.3	11.4	1.02e-03	0	58	0	1767899136	47	5040
2026-01-29 06:20:03.66	289.58	12.07	-39.0	-41.6	11.2	1.21e-03	0	58	0	1775239168	47	5166
2026-01-29 06:20:04.67	289.40	12.03	-39.1	-41.7	10.9	2.07e-03	0	58	0	1782579200	47	5272
2026-01-29 06:20:05.68	289.23	11.99	-39.4	-42.2	10.5	3.57e-03	0	58	0	1789919232	48	5254
2026-01-29 06:20:06.69	289.06	11.94	-39.6	-42.6	10.1	6.63e-03	0	59	0	1797259264	48	5471
2026-01-29 06:20:07.70	288.89	11.90	-39.7	-42.8	9.7	1.10e-02	0	59	0	1804599296	49	5332
2026-01-29 06:20:08.71	288.72	11.85	-39.9	-43.3	9.1	2.01e-02	0	59	0	1811939328	49	5593
2026-01-29 06:20:09.72	288.54	11.81	-40.0	-43.4	8.9	2.74e-02	0	59	0	1819279360	49	5699
2026-01-29 06:20:10.73	288.37	11.77	-40.1	-43.8	8.4	4.57e-02	0	58	0	1826619392	49	5963
2026-01-29 06:20:11.74	288.20	11.72	-40.3	-44.2	8.0	7.23e-02	0	59	0	1833959424	50	5897
2026-01-29 06:20:12.75	288.03	11.68	-40.5	-44.7	7.4	1.02e-01	0	59	0	1841299456	50	6234
2026-01-29 06:20:13.76	287.87	11.63	-40.6	-45.3	6.7	1.79e-01	0	58	0	1848639488	50	6648
2026-01-29 06:20:14.77	287.70	11.59	-40.7	-45.6	6.4	2.35e-01	0	58	0	1855979520	51	6539
2026-01-29 06:20:15.78	287.53	11.54	-40.9	-46.0	6.1	2.97e-01	0	58	0	1863319552	51	6836
2026-01-29 06:20:16.79	287.36	11.50	-40.9	-46.3	5.8	3.59e-01	0	58	0	1870659584	51	7116
2026-01-29 06:20:17.81	287.19	11.45	-41.2	-46.2	6.2	2.96e-01	0	58	0	1876951040	51	7029
2026-01-29 06:20:18.82	287.03	11.40	-40.5	-51.2	3.8	8.43e-01	0	59	104	1880096768	52	11794
2026-01-29 06:20:19.83	286.86	11.36	-41.5	-51.7	3.8	8.46e-01	0	58	104	1880096768	52	12434
2026-01-29 06:20:20.84	286.70	11.31	-41.3	-46.9	5.7	6.71e-01	0	59	0	1880096768	53	6732
2026-01-29 06:20:21.85	286.53	11.27	-41.2	-46.8	5.6	6.72e-01	0	59	0	1883242496	53	6667
2026-01-29 06:20:22.86	286.37	11.22	-41.2	-46.8	5.6	6.89e-01	0	59	0	1886388224	53	6688
2026-01-29 06:20:23.87	286.20	11.17	-41.3	-46.8	5.6	6.22e-01	0	58	0	1890582528	53	6710
2026-01-29 06:20:24.88	286.04	11.13	-41.3	-47.1	5.4	7.01e-01	0	58	0	1893728256	53	6925
2026-01-29 06:20:25.89	285.88	11.08	-41.5	-47.4	5.2	7.32e-01	0	59	0	1895825408	53	7153
2026-01-29 06:20:26.90	285.72	11.03	-41.6	-48.0	4.9	7.77e-01	0	58	0	1896873984	53	7642
2026-01-29 06:20:27.91	285.55	10.99	-41.9	-48.0	5.1	7.60e-01	0	58	0	1896873984	53	7684
2026-01-29 06:20:28.92	285.39	10.94	-41.8	-48.4	4.8	7.89e-01	0	59	0	1897922560	53	8074
2026-01-29 06:20:29.94	285.23	10.89	-40.6	-51.5	3.8	8.46e-01	0	59	104	1897922560	52	12138
2026-01-29 06:20:30.95	285.07	10.84	-42.4	-51.7	3.8	8.46e-01	0	58	104	1897922560	54	11032
2026-01-29 06:20:31.95	284.91	10.80	-41.7	-48.7	4.6	7.80e-01	0	59	0	1897922560	54	7811
2026-01-29 06:20:32.97	284.75	10.75	-41.5	-47.3	5.4	7.33e-01	0	59	0	1897922560	54	6680
2026-01-29 06:20:33.98	284.59	10.70	-41.4	-46.8	5.8	5.40e-01	0	58	0	1900019712	53	6674
2026-01-29 06:20:34.99	284.44	10.65	-41.3	-46.4	6.1	3.23e-01	0	59	0	1907359744	53	6416
2026-01-29 06:20:36.00	284.28	10.61	-41.4	-46.2	6.5	2.44e-01	0	59	0	1913651200	53	6224
2026-01-29 06:20:37.01	284.12	10.56	-41.4	-45.9	6.9	1.87e-01	0	59	0	1922039808	53	6061
2026-01-29 06:20:38.02	283.97	10.51	-41.4	-45.7	7.1	1.54e-01	0	59	0	1929379840	53	5902
2026-01-29 06:20:39.03	283.81	10.46	-41.2	-45.2	7.8	8.99e-02	0	59	0	1935671296	53	5550
2026-01-29 06:20:40.04	283.66	10.41	-40.8	-44.6	8.2	5.72e-02	0	59	0	1943011328	52	5514
2026-01-29 06:20:41.05	283.50	10.36	-41.0	-50.6	3.8	8.38e-01	0	59	104	1947205632	52	10982
2026-01-29 06:20:42.06	283.35	10.32	-41.8	-47.5	5.6	7.43e-01	0	59	0	1947205632	53	7219
2026-01-29 06:20:43.07	283.19	10.27	-40.7	-45.0	7.3	6.26e-02	0	59	0	1953497088	51	6079
2026-01-29 06:20:44.08	283.04	10.22	-39.6	-42.5	10.2	6.90e-03	0	59	0	1960837120	50	4818
2026-01-29 06:20:45.09	282.89	10.17	-39.4	-42.2	10.5	4.59e-03	0	59	0	1968177152	49	4959
2026-01-29 06:20:46.10	282.73	10.12	-39.3	-42.1	10.7	3.28e-03	0	59	0	1975517184	49	4880
2026-01-29 06:20:47.12	282.58	10.07	-39.3	-42.0	10.8	2.80e-03	0	59	0	1982857216	49	4833
2026-01-29 06:20:48.11	282.43	10.02	-39.2	-41.9	10.8	2.94e-03	0	59	0	1990197248	49	4811
2026-01-29 06:20:49.12	282.28	9.97	-39.2	-41.9	10.8	2.73e-03	0	59	0	1997537280	49	4784
2026-01-29 06:20:50.14	282.13	9.92	-39.1	-41.7	11.0	2.33e-03	0	59	0	2004877312	49	4701
2026-01-29 06:20:51.15	281.98	9.87	-39.1	-41.6	11.2	1.57e-03	0	59	0	2012217344	49	4648
2026-01-29 06:20:52.16	281.83	9.83	-39.1	-41.6	11.2	1.33e-03	0	59	0	2019557376	49	4643
2026-01-29 06:20:53.17	281.68	9.78	-39.2	-41.9	10.9	2.03e-03	0	59	0	2026897408	49	4771
2026-01-29 06:20:54.18	281.54	9.73	-39.4	-42.2	10.7	3.30e-03	0	59	0	2034237440	49	4930
2026-01-29 06:20:55.19	281.39	9.68	-39.7	-42.5	10.3	5.34e-03	0	59	0	2041577472	49	5144
2026-01-29 06:20:56.20	281.24	9.63	-39.8	-42.8	10.0	7.97e-03	0	59	0	2048917504	49	5283
2026-01-29 06:20:57.22	281.09	9.58	-39.9	-42.9	9.8	1.03e-02	0	59	0	2056257536	49	5395
2026-01-29 06:20:58.23	280.95	9.53	-40.0	-43.1	9.6	1.24e-02	0	59	0	2063597568	49	5481
2026-01-29 06:20:59.23	280.80	9.48	-40.0	-43.2	9.5	1.68e-02	0	59	0	2070937600	49	5555
2026-01-29 06:21:00.24	280.66	9.43	-40.1	-43.4	9.2	2.06e-02	0	59	0	2078277632	49	5680
2026-01-29 06:21:01.25	280.51	9.38	-40.2	-43.6	8.9	2.31e-02	0	59	0	2085617664	49	5822
2026-01-29 06:21:02.27	280.37	9.33	-40.3	-43.9	8.6	3.55e-02	0	59	0	2092957696	50	5690
2026-01-29 06:21:03.28	280.22	9.27	-40.4	-44.2	8.1	5.27e-02	0	59	0	2100297728	50	5906
2026-01-29 06:21:04.29	280.08	9.22	-40.6	-44.6	7.7	8.58e-02	0	59	0	2106589184	50	6166
2026-01-29 06:21:05.30	279.94	9.17	-40.7	-45.1	7.2	1.20e-01	0	59	0	2113929216	50	6521
2026-01-29 06:21:06.30	279.80	9.12	-40.8	-45.3	6.8	1.74e-01	0	59	0	2122317824	51	6346
2026-01-29 06:21:07.32	279.65	9.07	-40.9	-45.6	6.5	2.35e-01	0	59	0	2128609280	51	6540
2026-01-29 06:21:08.33	279.51	9.02	-40.9	-46.1	6.1	2.97e-01	0	59	0	2135949312	51	6886
2026-01-29 06:21:09.34	279.37	8.97	-41.0	-46.5	5.7	4.56e-01	0	59	0	2143289344	51	7227
2026-01-29 06:21:10.35	279.23	8.92	-41.1	-46.8	5.5	7.34e-01	0	59	0	2145386496	51	7505
2026-01-29 06:21:11.36	279.09	8.87	-41.1	-49.0	4.2	6.93e-01	0	59	0	2149580800	52	9117
2026-01-29 06:21:12.37	278.95	8.82	-40.4	-50.8	3.8	8.47e-01	0	59	104	2149580800	51	11954
2026-01-29 06:21:13.38	278.82	8.77	-41.7	-49.6	3.9	8.46e-01	0	59	104	2149580800	53	9256
2026-01-29 06:21:14.39	278.68	8.72	-41.6	-47.6	5.3	7.37e-01	0	59	0	2149580800	53	7293
2026-01-29 06:21:15.40	278.54	8.67	-41.4	-47.7	5.0	7.66e-01	0	59	0	2149580800	53	7410
2026-01-29 06:21:16.41	278.40	8.61	-41.5	-48.0	4.9	7.83e-01	0	59	0	2149580800	53	7681
2026-01-29 06:21:17.42	278.27	8.56	-41.5	-48.3	4.7	8.04e-01	0	59	0	2149580800	53	7940
2026-01-29 06:21:18.43	278.13	8.51	-41.5	-48.5	4.5	8.17e-01	0	59	0	2149580800	53	8169
2026-01-29 06:21:19.44	278.00	8.46	-41.4	-48.7	4.4	8.24e-01	0	59	0	2149580800	53	8331
2026-01-29 06:21:20.45	277.86	8.41	-41.4	-49.1	4.2	8.33e-01	0	59	0	2149580800	53	8736
2026-01-29 06:21:21.46	277.73	8.36	-41.2	-49.8	4.0	8.46e-01	0	59	104	2149580800	53	9488
2026-01-29 06:21:22.48	277.59	8.31	-40.5	-51.2	3.8	8.47e-01	0	59	104	2149580800	52	11786
2026-01-29 06:21:23.49	277.46	8.25	-40.3	-51.0	3.8	8.47e-01	0	59	104	2149580800	50	12910
2026-01-29 06:21:24.49	277.32	8.20	-41.1	-51.3	3.8	8.45e-01	0	59	104	2149580800	51	12584
2026-01-29 06:21:25.51	277.19	8.15	-41.3	-50.2	3.9	8.46e-01	0	59	104	2149580800	52	10487
2026-01-29 06:21:26.52	277.06	8.10	-41.3	-50.4	3.8	8.45e-01	0	59	104	2149580800	52	10713
2026-01-29 06:21:27.53	276.93	8.05	-41.3	-50.5	3.8	8.45e-01	0	59	104	2149580800	52	10848
2026-01-29 06:21:28.54	276.80	8.00	-42.1	-50.6	3.8	8.44e-01	0	59	104	2149580800	53	10304
2026-01-29 06:21:29.55	276.66	7.94	-44.7	-55.5	3.8	8.45e-01	0	59	104	2149580800	58	13709
2026-01-29 06:21:30.56	276.53	7.89	-45.0	-55.8	3.8	8.46e-01	0	59	104	2149580800	59	13414
2026-01-29 06:21:31.57	276.40	7.84	-45.2	-56.0	3.8	8.46e-01	0	59	104	2149580800	59	13723
2026-01-29 06:21:32.58	276.27	7.79	-45.2	-56.3	3.8	8.45e-01	0	59	104	2149580800	60	13379
2026-01-29 06:21:33.59	276.15	7.74	-45.3	-56.4	3.8	8.46e-01	0	59	104	2149580800	60	13555
2026-01-29 06:21:34.60	276.02	7.69	-45.3	-56.5	3.8	8.47e-01	0	59	104	2149580800	60	13617
2026-01-29 06:21:35.61	275.89	7.63	-45.3	-56.5	3.8	8.48e-01	0	59	104	2149580800	60	13710
2026-01-29 06:21:36.62	275.76	7.58	-45.4	-56.5	3.8	8.45e-01	0	59	104	2149580800	60	13674
2026-01-29 06:21:37.63	275.63	7.53	-45.4	-56.5	3.8	8.46e-01	0	59	104	2149580800	60	13714
2026-01-29 06:21:38.64	275.51	7.48	-45.4	-56.5	3.8	8.46e-01	0	59	104	2149580800	60	13660
2026-01-29 06:21:39.65	275.38	7.43	-45.1	-56.4	3.8	8.46e-01	0	59	104	2149580800	60	13510
2026-01-29 06:21:40.66	275.26	7.37	-45.1	-56.4	3.8	8.46e-01	0	59	104	2149580800	60	13538
2026-01-29 06:21:41.67	275.13	7.32	-45.3	-56.5	3.8	8.46e-01	0	59	104	2149580800	60	13577
2026-01-29 06:21:42.68	275.01	7.27	-45.2	-56.4	3.8	8.45e-01	0	59	104	2149580800	60	13544
2026-01-29 06:21:43.69	274.88	7.22	-45.2	-56.5	3.8	8.45e-01	0	59	104	2149580800	60	13574
2026-01-29 06:21:44.70	274.76	7.17	-45.3	-56.5	3.8	8.46e-01	0	59	104	2149580800	60	13597
2026-01-29 06:21:45.71	274.63	7.11	-45.2	-56.4	3.8	8.47e-01	0	59	104	2149580800	60	13508
2026-01-29 06:21:46.72	274.51	7.06	-45.2	-56.4	3.8	8.46e-01	0	59	104	2149580800	60	13479
2026-01-29 06:21:47.73	274.39	7.01	-45.2	-56.4	3.8	8.45e-01	0	59	104	2149580800	60	13469
2026-01-29 06:21:48.74	274.27	6.96	-45.2	-56.4	3.8	8.45e-01	0	59	104	2149580800	60	13496
2026-01-29 06:21:49.75	274.14	6.91	-45.2	-56.4	3.8	8.46e-01	0	59	104	2149580800	60	13489
2026-01-29 06:21:50.76	274.02	6.85	-45.2	-56.4	3.8	8.47e-01	0	59	104	2149580800	60	13480
2026-01-29 06:21:51.77	273.90	6.80	-45.2	-56.4	3.8	8.47e-01	0	59	104	2149580800	60	13452
2026-01-29 06:21:52.78	273.78	6.75	-45.2	-56.4	3.8	8.45e-01	0	59	104	2149580800	60	13474
2026-01-29 06:21:53.79	273.66	6.70	-45.2	-56.4	3.8	8.46e-01	0	59	104	2149580800	60	13429
2026-01-29 06:21:54.80	273.54	6.64	-45.2	-56.3	3.8	8.45e-01	0	59	104	2149580800	60	13405
2026-01-29 06:21:55.81	273.42	6.59	-45.2	-56.4	3.8	8.46e-01	0	59	104	2149580800	60	13433
2026-01-29 06:21:56.83	273.30	6.54	-45.2	-56.4	3.8	8.46e-01	0	59	104	2149580800	60	13465
2026-01-29 06:21:57.84	273.19	6.49	-45.2	-56.4	3.8	8.47e-01	0	59	104	2149580800	60	13467
2026-01-29 06:21:58.85	273.07	6.43	-45.2	-56.4	3.8	8.45e-01	0	59	104	2149580800	60	13427
2026-01-29 06:21:59.86	272.95	6.38	-45.1	-56.4	3.8	8.46e-01	0	59	104	2149580800	60	13444
2026-01-29 06:22:00.87	272.83	6.33	-45.2	-56.4	3.8	8.45e-01	0	59	104	2149580800	60	13452
2026-01-29 06:22:01.88	272.72	6.28	-45.1	-56.4	3.8	8.48e-01	0	59	104	2149580800	60	13423
2026-01-29 06:22:02.89	272.60	6.23	-45.1	-56.3	3.8	8.46e-01	0	59	104	2149580800	60	13376
2026-01-29 06:22:03.90	272.49	6.17	-45.1	-56.4	3.8	8.46e-01	0	59	104	2149580800	60	13421
2026-01-29 06:22:04.91	272.37	6.12	-45.1	-56.4	3.8	8.46e-01	0	59	104	2149580800	60	13417
2026-01-29 06:22:05.92	272.26	6.07	-45.2	-56.4	3.8	8.45e-01	0	59	104	2149580800	60	13420
2026-01-29 06:22:06.93	272.14	6.02	-45.1	-56.3	3.8	8.46e-01	0	59	104	2149580800	60	13399
2026-01-29 06:22:07.94	272.03	5.96	-45.1	-56.3	3.8	8.46e-01	0	59	104	2149580800	60	13398
2026-01-29 06:22:08.95	271.91	5.91	-45.1	-56.4	3.8	8.44e-01	0	59	104	2149580800	60	13426
2026-01-29 06:22:09.96	271.80	5.86	-45.1	-56.3	3.8	8.46e-01	0	59	104	2149580800	60	13405
2026-01-29 06:22:10.97	271.69	5.81	-45.1	-56.3	3.8	8.48e-01	0	59	104	2149580800	60	13410
2026-01-29 06:22:11.98	271.58	5.75	-45.1	-56.3	3.8	8.46e-01	0	59	104	2149580800	60	13413
2026-01-29 06:22:12.99	271.47	5.70	-45.1	-56.4	3.8	8.46e-01	0	59	104	2149580800	60	13423
2026-01-29 06:22:14.00	271.35	5.65	-45.1	-56.3	3.8	8.46e-01	0	59	104	2149580800	60	13368
2026-01-29 06:22:15.01	271.24	5.60	-45.1	-56.3	3.8	8.46e-01	0	59	104	2149580800	60	13388
2026-01-29 06:22:16.02	271.13	5.55	-45.1	-56.3	3.8	8.48e-01	0	59	104	2149580800	60	13363
2026-01-29 06:22:17.03	271.02	5.49	-45.1	-56.3	3.8	8.45e-01	0	59	104	2149580800	60	13402
2026-01-29 06:22:18.05	270.91	5.44	-45.1	-56.3	3.8	8.46e-01	0	59	104	2149580800	60	13393
2026-01-29 06:22:19.06	270.80	5.39	-45.1	-56.3	3.8	8.47e-01	0	59	104	2149580800	60	13348
2026-01-29 06:22:20.07	270.69	5.34	-45.1	-56.4	3.8	8.47e-01	0	59	104	2149580800	60	13418
2026-01-29 06:22:21.08	270.58	5.28	-45.1	-56.3	3.8	8.46e-01	0	59	104	2149580800	60	13385
2026-01-29 06:22:22.09	270.48	5.23	-44.6	-56.2	3.8	8.45e-01	0	59	104	2149580800	60	13222
2026-01-29 06:22:23.10	270.37	5.18	-45.0	-56.1	3.8	8.47e-01	0	59	104	2149580800	59	13730
2026-01-29 06:22:24.11	270.26	5.13	-45.1	-56.1	3.8	8.47e-01	0	59	104	2149580800	59	13815
2026-01-29 06:22:25.12	270.15	5.07	-45.2	-56.1	3.8	8.47e-01	0	59	104	2149580800	59	13852
2026-01-29 06:22:26.13	270.05	5.02	-45.2	-56.1	3.8	8.47e-01	0	59	104	2149580800	59	13820
2026-01-29 06:22:27.14	269.94	4.97	-45.1	-56.3	3.8	8.46e-01	0	59	104	2149580800	60	13392
2026-01-29 06:22:28.15	269.83	4.92	-45.1	-56.3	3.8	8.46e-01	0	59	104	2149580800	60	13396
2026-01-29 06:22:29.16	269.73	4.87	-45.1	-56.3	3.8	8.46e-01	0	59	104	2149580800	60	13402
2026-01-29 06:22:30.17	269.62	4.81	-45.1	-56.3	3.8	8.47e-01	0	59	104	2149580800	60	13377
2026-01-29 06:22:31.18	269.52	4.76	-44.0	-55.9	3.9	8.47e-01	0	59	104	2149580800	58	14352
2026-01-29 06:22:32.19	269.42	4.71	-45.1	-56.3	3.8	8.46e-01	0	59	104	2149580800	60	13384
2026-01-29 06:22:33.20	269.31	4.66	-45.2	-56.1	3.8	8.45e-01	0	59	104	2149580800	59	13824
2026-01-29 06:22:34.21	269.21	4.60	-45.2	-56.1	3.8	8.46e-01	0	59	104	2149580800	59	13827
2026-01-29 06:22:35.22	269.10	4.55	-45.2	-56.1	3.8	8.46e-01	0	59	104	2149580800	59	13840
2026-01-29 06:22:36.23	269.00	4.50	-45.1	-56.1	3.8	8.47e-01	0	59	104	2149580800	59	13802
2026-01-29 06:22:37.24	268.90	4.45	-45.1	-56.3	3.8	8.47e-01	0	59	104	2149580800	60	13412
2026-01-29 06:22:38.26	268.80	4.40	-45.1	-56.3	3.8	8.46e-01	0	59	104	2149580800	60	13371
2026-01-29 06:22:39.26	268.70	4.34	-45.1	-56.4	3.8	8.45e-01	0	59	104	2149580800	60	13418
2026-01-29 06:22:40.27	268.59	4.29	-45.1	-56.3	3.8	8.46e-01	0	59	104	2149580800	60	13372
2026-01-29 06:22:41.29	268.49	4.24	-45.1	-56.3	3.8	8.47e-01	0	59	104	2149580800	60	13375
2026-01-29 06:22:42.29	268.39	4.19	-45.1	-56.3	3.8	8.46e-01	0	59	104	2149580800	60	13388
2026-01-29 06:22:43.30	268.29	4.14	-45.1	-56.3	3.8	8.47e-01	0	59	104	2149580800	60	13364
2026-01-29 06:22:44.31	268.19	4.08	-45.2	-56.1	3.8	8.46e-01	0	59	104	2149580800	59	13831
2026-01-29 06:22:45.32	268.09	4.03	-45.1	-56.3	3.8	8.46e-01	0	59	104	2149580800	60	13410
2026-01-29 06:22:46.33	267.99	3.98	-45.1	-56.3	3.8	8.45e-01	0	59	104	2149580800	60	13367
2026-01-29 06:22:47.34	267.90	3.93	-45.1	-56.3	3.8	8.48e-01	0	59	104	2149580800	60	13354
2026-01-29 06:22:48.36	267.80	3.88	-45.1	-56.3	3.8	8.44e-01	0	59	104	2149580800	60	13391
2026-01-29 06:22:49.37	267.70	3.82	-45.1	-56.3	3.8	8.45e-01	0	59	104	2149580800	60	13356
2026-01-29 06:22:50.38	267.60	3.77	-44.7	-56.2	3.8	8.47e-01	0	59	104	2149580800	60	13152
2026-01-29 06:22:51.39	267.50	3.72	-45.1	-56.3	3.8	8.47e-01	0	59	104	2149580800	60	13387
2026-01-29 06:22:52.40	267.41	3.67	-45.1	-56.3	3.8	8.45e-01	0	59	104	2149580800	60	13362
2026-01-29 06:22:53.41	267.31	3.62	-45.2	-56.1	3.8	8.47e-01	0	59	104	2149580800	59	13807
2026-01-29 06:22:54.42	267.21	3.57	-45.2	-56.1	3.8	8.46e-01	0	59	104	2149580800	59	13846
2026-01-29 06:22:55.43	267.12	3.51	-45.2	-56.1	3.8	8.48e-01	0	59	104	2149580800	59	13862
2026-01-29 06:22:56.44	267.02	3.46	-45.2	-56.1	3.8	8.46e-01	0	59	104	2149580800	59	13816
2026-01-29 06:22:57.45	266.93	3.41	-45.2	-56.1	3.8	8.46e-01	0	59	104	2149580800	59	13839
2026-01-29 06:22:58.46	266.83	3.36	-45.2	-56.1	3.8	8.46e-01	0	59	104	2149580800	59	13853
2026-01-29 06:22:59.47	266.74	3.31	-45.2	-56.1	3.8	8.47e-01	0	59	104	2149580800	59	13828
2026-01-29 06:23:00.48	266.64	3.26	-45.2	-56.1	3.8	8.47e-01	0	59	104	2149580800	59	13805
2026-01-29 06:23:01.49	266.55	3.20	-45.2	-56.1	3.8	8.47e-01	0	59	104	2149580800	59	13828
2026-01-29 06:23:02.50	266.45	3.15	-45.2	-56.1	3.8	8.46e-01	0	59	104	2149580800	59	13799
2026-01-29 06:23:03.51	266.36	3.10	-45.2	-56.1	3.8	8.46e-01	0	59	104	2149580800	59	13857
2026-01-29 06:23:04.52	266.27	3.05	-44.2	-56.0	3.8	8.46e-01	0	59	104	2149580800	59	13617
2026-01-29 06:23:05.53	266.18	3.00	-45.2	-56.1	3.8	8.46e-01	0	59	104	2149580800	59	13811
2026-01-29 06:23:06.54	266.08	2.95	-45.2	-56.1	3.8	8.46e-01	0	59	104	2149580800	59	13817
2026-01-29 06:23:07.55	265.99	2.90	-45.2	-56.1	3.8	8.46e-01	0	59	104	2149580800	59	13805
2026-01-29 06:23:08.56	265.90	2.84	-45.2	-56.1	3.8	8.46e-01	0	59	104	2149580800	58	14596
2026-01-29 06:23:09.57	265.81	2.79	-45.2	-56.1	3.8	8.46e-01	0	59	104	2149580800	59	13764
2026-01-29 06:23:10.58	265.72	2.74	-45.2	-56.1	3.8	8.47e-01	0	59	104	2149580800	59	13824
2026-01-29 06:23:11.60	265.63	2.69	-45.2	-56.1	3.8	8.46e-01	0	59	104	2149580800	59	13777
2026-01-29 06:23:12.61	265.54	2.64	-45.2	-56.1	3.8	8.45e-01	0	59	104	2149580800	59	13805
2026-01-29 06:23:13.62	265.45	2.59	-45.2	-56.1	3.8	8.46e-01	0	59	104	2149580800	59	13815
2026-01-29 06:23:14.63	265.36	2.54	-45.2	-56.1	3.8	8.46e-01	0	59	104	2149580800	59	13793
2026-01-29 06:23:15.64	265.27	2.49	-45.2	-56.1	3.8	8.47e-01	0	59	104	2149580800	59	13807
2026-01-29 06:23:16.65	265.18	2.43	-45.2	-56.1	3.8	8.46e-01	0	59	104	2149580800	59	13840
2026-01-29 06:23:17.66	265.09	2.38	-45.2	-56.1	3.8	8.47e-01	0	59	104	2149580800	59	13809
2026-01-29 06:23:18.67	265.00	2.33	-45.2	-56.1	3.8	8.46e-01	0	59	104	2149580800	59	13833
2026-01-29 06:23:19.68	264.91	2.28	-45.2	-56.1	3.8	8.47e-01	0	59	104	2149580800	59	13832
2026-01-29 06:23:20.69	264.83	2.23	-45.2	-56.1	3.8	8.46e-01	0	59	104	2149580800	59	13778
2026-01-29 06:23:21.70	264.74	2.18	-45.2	-56.1	3.8	8.45e-01	0	59	104	2149580800	59	13803
2026-01-29 06:23:22.71	264.65	2.13	-45.2	-56.1	3.8	8.47e-01	0	59	104	2149580800	59	13789
2026-01-29 06:23:23.72	264.56	2.08	-45.2	-56.1	3.8	8.46e-01	0	59	104	2149580800	59	13821
2026-01-29 06:23:24.73	264.48	2.03	-45.2	-56.1	3.8	8.47e-01	0	59	104	2149580800	59	13797
2026-01-29 06:23:25.74	264.39	1.98	-45.2	-56.1	3.8	8.47e-01	0	59	104	2149580800	59	13806
2026-01-29 06:23:26.75	264.31	1.92	-45.2	-56.1	3.8	8.46e-01	0	59	104	2149580800	59	13847

#Closed at: 2026-01-29 06:23:27
#Recorded file [2149 MB]: D:/lorett/data/31039_260129_091210.dat