passes_logs/2026/01/29/R2.0S_Moscow/R2.0S_Moscow__20260129_024917_FENGYUN_3D_rec.log

#Pass ID: 20260129_024917_FENGYUN 3D
#Satellite: FENGYUN 3D
#Configuration: FENGYUN 3D
#almurnet v.1.7.20251203
#Start time: 2026-01-29 02:49:17

#Version: 2.2.20231116
#Station: R2.0S_Moscow
#Location: 37.707566 lon 55.798166 lat
#TLE: 1 43010U 17072A   26027.90082829  .00000305  00000+0  16579-3 0  9998
#TLE: 2 43010  98.9960 359.9183 0002511  88.1058 272.0405 14.19701796425082

#Time	Az	El	Level	Level2	SNR	BER	BlckErr	Temp	State	Recorded	gain1	gain2
2026-01-29 02:49:17.98	12.61	2.05	-39.8	-51.2	3.8	8.45e-01	0	49	0	0	51	13236
2026-01-29 02:49:18.98	12.57	2.11	-39.8	-51.3	3.8	8.46e-01	0	50	104	0	51	13295
2026-01-29 02:49:19.99	12.53	2.18	-39.8	-51.2	3.8	8.45e-01	0	50	104	0	51	13238
2026-01-29 02:49:21.00	12.48	2.24	-39.8	-51.2	3.8	8.46e-01	0	50	104	0	51	13235
2026-01-29 02:49:22.01	12.44	2.30	-39.8	-51.3	3.8	8.46e-01	0	50	104	0	51	13284
2026-01-29 02:49:23.02	12.40	2.36	-39.8	-51.2	3.8	8.46e-01	0	50	104	0	51	13187
2026-01-29 02:49:24.03	12.36	2.42	-39.8	-51.2	3.8	8.45e-01	0	50	104	0	51	13223
2026-01-29 02:49:25.05	12.32	2.49	-39.8	-51.2	3.8	8.47e-01	0	50	104	0	51	13247
2026-01-29 02:49:26.06	12.28	2.55	-39.8	-51.2	3.8	8.46e-01	0	50	104	0	51	13237
2026-01-29 02:49:27.07	12.23	2.61	-39.8	-51.2	3.8	8.47e-01	0	50	104	0	51	13206
2026-01-29 02:49:28.08	12.19	2.68	-39.8	-51.3	3.8	8.47e-01	0	50	104	0	51	13277
2026-01-29 02:49:29.09	12.15	2.74	-39.8	-51.2	3.8	8.48e-01	0	50	104	0	51	13233
2026-01-29 02:49:30.10	12.11	2.80	-39.8	-51.2	3.8	8.46e-01	0	50	104	0	51	13248
2026-01-29 02:49:31.11	12.06	2.87	-39.8	-51.2	3.8	8.46e-01	0	50	104	0	51	13231
2026-01-29 02:49:32.12	12.02	2.93	-39.8	-51.2	3.8	8.45e-01	0	51	104	0	51	13213
2026-01-29 02:49:33.13	11.98	2.99	-39.8	-51.2	3.8	8.45e-01	0	51	104	0	51	13240
2026-01-29 02:49:34.14	11.93	3.06	-39.8	-51.2	3.8	8.46e-01	0	51	104	0	51	13236
2026-01-29 02:49:35.15	11.89	3.12	-39.8	-51.2	3.8	8.46e-01	0	51	104	0	51	13230
2026-01-29 02:49:36.16	11.85	3.18	-39.8	-51.2	3.8	8.46e-01	0	51	104	0	51	13174
2026-01-29 02:49:37.17	11.80	3.25	-39.8	-51.2	3.8	8.47e-01	0	51	104	0	51	13258
2026-01-29 02:49:38.18	11.76	3.31	-39.8	-51.2	3.8	8.47e-01	0	51	104	0	51	13183
2026-01-29 02:49:39.19	11.71	3.38	-39.8	-51.2	3.8	8.47e-01	0	51	104	0	51	13209
2026-01-29 02:49:40.20	11.67	3.44	-39.8	-51.2	3.8	8.46e-01	0	51	104	0	51	13246
2026-01-29 02:49:41.21	11.62	3.50	-39.8	-51.2	3.8	8.47e-01	0	51	104	0	51	13210
2026-01-29 02:49:42.22	11.58	3.57	-39.8	-51.2	3.8	8.46e-01	0	51	104	0	51	13203
2026-01-29 02:49:43.23	11.53	3.63	-39.8	-51.2	3.8	8.47e-01	0	52	104	0	51	13158
2026-01-29 02:49:44.24	11.49	3.70	-39.8	-51.2	3.8	8.47e-01	0	51	104	0	51	13168
2026-01-29 02:49:45.25	11.44	3.76	-39.8	-51.2	3.8	8.46e-01	0	52	104	0	51	13179
2026-01-29 02:49:46.27	11.39	3.83	-39.8	-51.2	3.8	8.45e-01	0	51	104	0	51	13158
2026-01-29 02:49:47.28	11.35	3.90	-39.8	-51.2	3.8	8.46e-01	0	52	104	0	51	13145
2026-01-29 02:49:48.29	11.30	3.96	-39.8	-51.2	3.8	8.46e-01	0	52	104	0	51	13160
2026-01-29 02:49:49.29	11.25	4.03	-39.8	-51.2	3.8	8.46e-01	0	52	104	0	51	13200
2026-01-29 02:49:50.31	11.21	4.09	-39.8	-51.2	3.8	8.46e-01	0	52	104	0	51	13181
2026-01-29 02:49:51.32	11.16	4.16	-39.8	-51.2	3.8	8.46e-01	0	52	104	0	51	13183
2026-01-29 02:49:52.32	11.11	4.22	-39.8	-51.2	3.8	8.47e-01	0	52	104	0	51	13233
2026-01-29 02:49:53.34	11.06	4.29	-39.8	-51.2	3.8	8.47e-01	0	52	104	0	51	13177
2026-01-29 02:49:54.34	11.02	4.36	-39.8	-51.2	3.8	8.45e-01	0	52	104	0	51	13221
2026-01-29 02:49:55.35	10.97	4.42	-39.8	-51.2	3.8	8.45e-01	0	52	104	0	51	13196
2026-01-29 02:49:56.36	10.92	4.49	-39.8	-51.2	3.8	8.46e-01	0	52	104	0	51	13216
2026-01-29 02:49:57.38	10.87	4.56	-39.8	-51.2	3.8	8.45e-01	0	52	104	0	51	13221
2026-01-29 02:49:58.39	10.82	4.62	-39.8	-51.2	3.8	8.45e-01	0	52	104	0	51	13225
2026-01-29 02:49:59.40	10.77	4.69	-39.8	-51.2	3.8	8.46e-01	0	52	104	0	51	13197
2026-01-29 02:50:00.40	10.72	4.76	-39.8	-51.2	3.8	8.46e-01	0	52	104	0	51	13167
2026-01-29 02:50:01.41	10.67	4.82	-39.8	-51.2	3.8	8.45e-01	0	53	104	0	51	13212
2026-01-29 02:50:02.42	10.62	4.89	-39.8	-51.2	3.8	8.46e-01	0	52	104	0	51	13146
2026-01-29 02:50:03.44	10.57	4.96	-39.8	-51.2	3.8	8.47e-01	0	53	104	0	51	13221
2026-01-29 02:50:04.45	10.52	5.03	-39.8	-51.2	3.8	8.44e-01	0	53	104	0	51	13175
2026-01-29 02:50:05.46	10.47	5.10	-39.8	-51.2	3.8	8.46e-01	0	53	104	0	51	13209
2026-01-29 02:50:06.47	10.42	5.16	-39.8	-51.2	3.8	8.46e-01	0	53	104	0	51	13198
2026-01-29 02:50:07.48	10.37	5.23	-39.8	-51.2	3.8	8.46e-01	0	53	104	0	51	13163
2026-01-29 02:50:08.49	10.32	5.30	-39.8	-51.2	3.8	8.47e-01	0	53	104	0	51	13176
2026-01-29 02:50:09.50	10.26	5.37	-39.8	-51.2	3.8	8.46e-01	0	53	104	0	51	13186
2026-01-29 02:50:10.51	10.21	5.44	-39.8	-51.2	3.8	8.46e-01	0	53	104	0	51	13206
2026-01-29 02:50:11.52	10.16	5.51	-39.8	-51.2	3.8	8.46e-01	0	53	104	0	51	13158
2026-01-29 02:50:12.53	10.11	5.58	-39.8	-51.2	3.8	8.46e-01	0	53	104	0	51	13244
2026-01-29 02:50:13.54	10.05	5.65	-39.8	-51.2	3.8	8.47e-01	0	53	104	0	51	13216
2026-01-29 02:50:14.55	10.00	5.71	-39.8	-51.2	3.8	8.45e-01	0	53	104	0	51	13250
2026-01-29 02:50:15.56	9.95	5.78	-39.8	-51.2	3.8	8.46e-01	0	53	104	0	51	13252
2026-01-29 02:50:16.57	9.89	5.85	-39.8	-51.2	3.8	8.47e-01	0	53	104	0	51	13179
2026-01-29 02:50:17.58	9.84	5.92	-39.8	-51.2	3.8	8.46e-01	0	53	104	0	51	13200
2026-01-29 02:50:18.59	9.79	5.99	-39.8	-51.2	3.8	8.46e-01	0	53	104	0	51	13235
2026-01-29 02:50:19.60	9.73	6.06	-39.8	-51.2	3.8	8.46e-01	0	53	104	0	51	13190
2026-01-29 02:50:20.61	9.68	6.13	-39.8	-51.2	3.8	8.45e-01	0	54	104	0	51	13225
2026-01-29 02:50:21.62	9.62	6.20	-39.8	-51.2	3.8	8.45e-01	0	53	104	0	51	13193
2026-01-29 02:50:22.63	9.57	6.28	-39.8	-51.2	3.8	8.46e-01	0	53	104	0	51	13198
2026-01-29 02:50:23.64	9.51	6.35	-39.8	-51.2	3.8	8.46e-01	0	53	104	0	51	13162
2026-01-29 02:50:24.65	9.46	6.42	-39.8	-51.2	3.8	8.46e-01	0	53	104	0	51	13213
2026-01-29 02:50:25.67	9.40	6.49	-39.8	-51.2	3.8	8.47e-01	0	54	104	0	51	13221
2026-01-29 02:50:26.67	9.34	6.56	-39.8	-51.2	3.8	8.46e-01	0	54	104	0	51	13174
2026-01-29 02:50:27.68	9.29	6.63	-39.8	-51.2	3.8	8.47e-01	0	54	104	0	51	13184
2026-01-29 02:50:28.70	9.23	6.70	-39.8	-51.2	3.8	8.47e-01	0	54	104	0	51	13197
2026-01-29 02:50:29.71	9.17	6.78	-39.8	-51.2	3.8	8.45e-01	0	54	104	0	51	13184
2026-01-29 02:50:30.72	9.11	6.85	-39.8	-51.2	3.8	8.46e-01	0	54	104	0	51	13219
2026-01-29 02:50:31.73	9.05	6.92	-39.8	-51.2	3.8	8.47e-01	0	54	104	0	51	13179
2026-01-29 02:50:32.74	9.00	6.99	-39.8	-51.2	3.8	8.46e-01	0	54	104	0	51	13213
2026-01-29 02:50:33.74	8.94	7.06	-39.8	-51.2	3.8	8.46e-01	0	54	104	0	51	13215
2026-01-29 02:50:34.76	8.88	7.14	-39.8	-51.2	3.8	8.46e-01	0	54	104	0	51	13220
2026-01-29 02:50:35.77	8.82	7.21	-39.8	-51.2	3.8	8.46e-01	0	54	104	0	51	13256
2026-01-29 02:50:36.78	8.76	7.28	-39.8	-51.2	3.8	8.46e-01	0	54	104	0	51	13203
2026-01-29 02:50:37.79	8.70	7.36	-39.8	-51.2	3.8	8.47e-01	0	54	104	0	51	13234
2026-01-29 02:50:38.80	8.64	7.43	-39.8	-51.2	3.8	8.46e-01	0	54	104	0	51	13191
2026-01-29 02:50:39.81	8.58	7.50	-39.8	-51.2	3.8	8.47e-01	0	54	104	0	51	13215
2026-01-29 02:50:40.82	8.52	7.58	-39.8	-51.2	3.8	8.46e-01	0	54	104	0	51	13175
2026-01-29 02:50:41.83	8.46	7.65	-39.8	-51.2	3.8	8.46e-01	0	55	104	0	51	13213
2026-01-29 02:50:42.84	8.40	7.73	-39.8	-51.2	3.8	8.45e-01	0	54	104	0	51	13149
2026-01-29 02:50:43.85	8.33	7.80	-39.8	-51.2	3.8	8.47e-01	0	54	104	0	51	13230
2026-01-29 02:50:44.86	8.27	7.87	-39.8	-51.2	3.8	8.46e-01	0	54	104	0	51	13208
2026-01-29 02:50:45.87	8.21	7.95	-39.8	-51.2	3.8	8.45e-01	0	55	104	0	51	13206
2026-01-29 02:50:46.88	8.15	8.02	-39.8	-51.2	3.8	8.46e-01	0	54	104	0	51	13252
2026-01-29 02:50:47.88	8.08	8.10	-39.8	-51.2	3.8	8.45e-01	0	55	104	0	51	13226
2026-01-29 02:50:48.89	8.02	8.17	-39.9	-51.3	3.8	8.46e-01	0	55	104	0	51	13310
2026-01-29 02:50:49.90	7.96	8.25	-39.8	-51.2	3.8	8.47e-01	0	55	104	0	51	13241
2026-01-29 02:50:50.91	7.89	8.32	-39.9	-51.3	3.8	8.46e-01	0	55	104	0	51	13331
2026-01-29 02:50:51.92	7.83	8.40	-39.9	-51.4	3.8	8.46e-01	0	55	104	0	51	13461
2026-01-29 02:50:52.93	7.76	8.48	-39.9	-51.3	3.8	8.45e-01	0	55	104	0	51	13386
2026-01-29 02:50:53.94	7.70	8.55	-39.8	-51.2	3.8	8.46e-01	0	55	104	0	51	13222
2026-01-29 02:50:54.95	7.63	8.63	-39.9	-51.3	3.8	8.46e-01	0	55	104	0	51	13355
2026-01-29 02:50:55.96	7.56	8.71	-39.9	-51.3	3.8	8.47e-01	0	55	104	0	51	13379
2026-01-29 02:50:56.97	7.50	8.78	-39.9	-51.4	3.8	8.46e-01	0	55	104	0	51	13455
2026-01-29 02:50:57.98	7.43	8.86	-39.7	-51.2	3.8	8.46e-01	0	55	104	0	51	13155
2026-01-29 02:50:58.98	7.36	8.94	-39.9	-51.3	3.8	8.46e-01	0	55	104	0	51	13356
2026-01-29 02:50:59.99	7.30	9.01	-39.9	-51.2	3.8	8.46e-01	0	55	104	0	51	13256
2026-01-29 02:51:01.00	7.23	9.09	-40.0	-51.4	3.8	8.46e-01	0	55	104	0	51	13436
2026-01-29 02:51:02.01	7.16	9.17	-39.7	-51.2	3.8	8.45e-01	0	55	104	0	51	13110
2026-01-29 02:51:03.02	7.09	9.25	-39.9	-51.4	3.8	8.46e-01	0	55	104	0	51	13437
2026-01-29 02:51:04.03	7.02	9.32	-39.8	-51.2	3.8	8.47e-01	0	55	104	0	51	13258
2026-01-29 02:51:05.04	6.95	9.40	-40.0	-51.4	3.8	8.47e-01	0	55	104	0	51	13501
2026-01-29 02:51:06.05	6.88	9.48	-39.7	-51.1	3.8	8.47e-01	0	55	104	0	51	13089
2026-01-29 02:51:07.06	6.81	9.56	-40.0	-51.4	3.8	8.46e-01	0	55	104	0	51	13550
2026-01-29 02:51:08.07	6.74	9.64	-39.8	-51.3	3.8	8.45e-01	0	55	104	0	51	13270
2026-01-29 02:51:09.08	6.67	9.72	-40.1	-51.5	3.8	8.45e-01	0	55	104	0	51	13669
2026-01-29 02:51:10.09	6.60	9.80	-39.7	-51.1	3.8	8.47e-01	0	55	104	0	51	13057
2026-01-29 02:51:11.10	6.53	9.88	-40.2	-51.6	3.8	8.47e-01	0	55	104	0	51	13743
2026-01-29 02:51:12.11	6.45	9.96	-39.8	-51.2	3.8	8.46e-01	0	55	104	0	51	13237
2026-01-29 02:51:13.12	6.38	10.04	-40.3	-51.7	3.8	8.45e-01	0	55	104	0	51	13899
2026-01-29 02:51:14.13	6.31	10.12	-39.7	-51.2	3.8	8.45e-01	0	55	104	0	51	13120
2026-01-29 02:51:15.14	6.23	10.20	-39.9	-51.3	3.8	8.46e-01	0	55	104	0	51	13282
2026-01-29 02:51:16.15	6.16	10.28	-39.7	-51.1	3.8	8.47e-01	0	55	104	0	51	13063
2026-01-29 02:51:17.16	6.09	10.36	-39.8	-51.2	3.8	8.47e-01	0	55	104	0	51	13155
2026-01-29 02:51:18.17	6.01	10.44	-39.7	-51.1	3.8	8.46e-01	0	55	104	0	51	13098
2026-01-29 02:51:19.18	5.94	10.52	-39.7	-51.2	3.8	8.47e-01	0	55	104	0	51	13120
2026-01-29 02:51:20.19	5.86	10.60	-39.9	-51.3	3.8	8.46e-01	0	56	104	0	51	13394
2026-01-29 02:51:21.19	5.78	10.69	-39.8	-51.2	3.8	8.46e-01	0	55	104	0	51	13254
2026-01-29 02:51:22.20	5.71	10.77	-40.6	-51.7	3.8	8.46e-01	0	55	104	0	52	13256
2026-01-29 02:51:23.22	5.63	10.85	-40.0	-51.3	3.8	8.46e-01	0	56	104	0	52	12558
2026-01-29 02:51:24.22	5.55	10.93	-39.8	-51.2	3.8	8.44e-01	0	56	104	0	51	13222
2026-01-29 02:51:25.23	5.47	11.01	-40.0	-51.3	3.8	8.47e-01	0	56	104	0	51	13390
2026-01-29 02:51:26.24	5.40	11.10	-40.0	-51.3	3.8	8.46e-01	0	56	104	0	51	13341
2026-01-29 02:51:27.26	5.32	11.18	-40.0	-51.3	3.8	8.46e-01	0	56	104	0	51	13321
2026-01-29 02:51:28.27	5.24	11.27	-40.1	-51.1	3.8	8.46e-01	0	56	104	0	51	12986
2026-01-29 02:51:29.28	5.16	11.35	-40.0	-51.1	3.8	8.47e-01	0	56	104	0	51	13073
2026-01-29 02:51:30.29	5.08	11.43	-41.1	-50.2	4.0	8.42e-01	0	56	104	0	52	11140
2026-01-29 02:51:31.30	4.99	11.52	-41.4	-49.6	4.3	8.38e-01	0	56	0	0	53	9824
2026-01-29 02:51:32.30	4.91	11.60	-40.7	-50.8	3.8	8.45e-01	0	56	104	0	53	11166
2026-01-29 02:51:33.32	4.83	11.69	-41.2	-49.5	4.2	8.36e-01	0	56	0	0	53	9645
2026-01-29 02:51:34.33	4.75	11.77	-41.2	-49.2	4.3	8.34e-01	0	56	0	0	53	9290
2026-01-29 02:51:35.34	4.67	11.86	-41.1	-48.7	4.5	8.22e-01	0	56	0	0	53	8763
2026-01-29 02:51:36.35	4.58	11.94	-41.1	-48.5	4.6	8.09e-01	0	56	0	0	53	8567
2026-01-29 02:51:37.36	4.50	12.03	-41.2	-49.1	4.4	8.24e-01	0	56	0	0	53	9257
2026-01-29 02:51:38.37	4.41	12.11	-41.7	-50.2	4.2	8.34e-01	0	56	0	0	53	10469
2026-01-29 02:51:39.38	4.33	12.20	-42.4	-52.8	3.8	8.45e-01	0	56	104	0	55	12655
2026-01-29 02:51:40.39	4.24	12.28	-41.1	-49.7	4.1	8.40e-01	0	56	0	0	54	9308
2026-01-29 02:51:41.40	4.16	12.37	-40.3	-50.7	3.8	8.46e-01	0	56	104	0	52	11812
2026-01-29 02:51:42.41	4.07	12.46	-40.6	-48.4	4.4	8.36e-01	0	56	0	0	52	8982
2026-01-29 02:51:43.42	3.98	12.54	-40.5	-49.0	4.1	8.43e-01	0	56	0	0	52	9669
2026-01-29 02:51:44.43	3.90	12.63	-40.4	-47.6	4.7	7.97e-01	0	56	0	0	52	8241
2026-01-29 02:51:45.44	3.81	12.72	-40.7	-48.7	4.3	8.30e-01	0	56	0	0	52	9351
2026-01-29 02:51:46.45	3.72	12.81	-40.9	-50.2	3.8	8.42e-01	0	56	104	0	52	11041
2026-01-29 02:51:47.46	3.63	12.89	-41.0	-50.6	3.8	8.45e-01	0	56	104	0	52	11673
2026-01-29 02:51:48.47	3.54	12.98	-40.7	-48.9	4.2	8.40e-01	0	57	0	0	52	9596
2026-01-29 02:51:49.48	3.45	13.07	-40.5	-47.6	4.8	8.19e-01	0	56	0	0	52	8254
2026-01-29 02:51:50.49	3.36	13.16	-40.2	-46.5	5.4	7.32e-01	0	57	0	0	52	7245
2026-01-29 02:51:51.50	3.27	13.25	-40.4	-47.2	5.0	5.88e-01	0	56	0	2097152	52	7817
2026-01-29 02:51:52.51	3.18	13.34	-39.8	-44.3	7.3	7.09e-01	0	56	0	3145728	51	5982
2026-01-29 02:51:53.52	3.08	13.43	-40.1	-43.4	10.1	6.26e-03	0	56	0	8388608	50	5711
2026-01-29 02:51:54.53	2.99	13.52	-38.5	-41.1	12.0	4.03e-02	0	56	0	13631488	49	4630
2026-01-29 02:51:55.54	2.90	13.61	-38.2	-41.1	11.1	4.21e-02	0	57	0	19922944	48	4881
2026-01-29 02:51:56.55	2.80	13.70	-37.4	-39.7	13.2	5.26e-05	0	57	0	25165824	46	4691
2026-01-29 02:51:57.56	2.71	13.79	-37.3	-39.4	13.6	2.40e-05	0	57	0	30408704	46	4537
2026-01-29 02:51:58.57	2.61	13.88	-37.4	-39.6	13.5	2.51e-05	0	57	0	36700160	46	4626
2026-01-29 02:51:59.58	2.51	13.97	-37.3	-39.5	13.6	1.71e-05	0	57	0	41943040	46	4574
2026-01-29 02:52:00.58	2.42	14.06	-37.5	-39.7	13.6	1.25e-05	0	56	0	48234496	46	4680
2026-01-29 02:52:01.60	2.32	14.15	-37.8	-40.1	13.2	4.11e-05	0	57	0	53477376	46	4878
2026-01-29 02:52:02.61	2.22	14.24	-38.0	-40.3	13.1	6.29e-05	0	57	0	59768832	46	5028
2026-01-29 02:52:03.62	2.12	14.33	-38.0	-40.3	13.1	3.08e-05	0	57	0	65011712	46	5010
2026-01-29 02:52:04.63	2.02	14.43	-37.9	-40.2	13.3	3.66e-05	0	57	0	71303168	46	4931
2026-01-29 02:52:05.64	1.92	14.52	-37.8	-40.1	13.4	2.40e-05	0	57	0	76546048	46	4889
2026-01-29 02:52:06.65	1.82	14.61	-37.9	-40.0	13.6	2.63e-05	0	56	0	81788928	46	4864
2026-01-29 02:52:07.66	1.72	14.70	-37.8	-39.9	13.8	4.50e-06	0	56	0	88080384	46	4790
2026-01-29 02:52:08.67	1.62	14.80	-37.6	-39.7	13.9	3.40e-06	0	56	0	93323264	46	4705
2026-01-29 02:52:09.68	1.52	14.89	-37.6	-39.7	13.9	5.70e-06	0	57	0	99614720	46	4702
2026-01-29 02:52:10.69	1.41	14.99	-37.9	-40.0	13.7	6.80e-06	0	57	0	104857600	46	4842
2026-01-29 02:52:11.70	1.31	15.08	-37.7	-39.8	14.1	1.10e-06	0	57	0	110100480	46	4709
2026-01-29 02:52:12.72	1.20	15.17	-37.6	-39.6	14.4	2.20e-06	0	57	0	116391936	46	4634
2026-01-29 02:52:13.73	1.10	15.27	-37.6	-39.6	14.5	0.00e+00	0	57	0	121634816	46	4626
2026-01-29 02:52:14.74	0.99	15.36	-37.7	-39.7	14.5	2.20e-06	0	57	0	127926272	46	4657
2026-01-29 02:52:15.74	0.89	15.46	-37.8	-39.8	14.4	1.10e-06	0	57	0	133169152	46	4738
2026-01-29 02:52:16.76	0.78	15.55	-37.7	-39.7	14.5	0.00e+00	0	57	0	138412032	46	4668
2026-01-29 02:52:17.77	0.67	15.65	-37.6	-39.5	14.8	0.00e+00	0	57	0	144703488	46	4554
2026-01-29 02:52:18.78	0.56	15.75	-37.8	-39.7	14.6	0.00e+00	0	57	0	149946368	46	4690
2026-01-29 02:52:19.79	0.45	15.84	-37.7	-39.5	14.8	0.00e+00	0	57	0	156237824	46	4597
2026-01-29 02:52:20.80	0.34	15.94	-37.7	-39.6	14.9	2.20e-06	0	57	0	161480704	46	4621
2026-01-29 02:52:21.81	0.23	16.04	-37.7	-39.6	14.8	0.00e+00	0	57	0	167772160	46	4607
2026-01-29 02:52:22.82	0.12	16.13	-37.8	-39.7	14.8	0.00e+00	0	57	0	173015040	46	4668
2026-01-29 02:52:23.83	0.00	16.23	-37.7	-39.6	14.8	0.00e+00	0	57	0	179306496	46	4635
2026-01-29 02:52:24.84	359.89	16.33	-37.8	-39.7	14.8	0.00e+00	0	57	0	184549376	46	4693
2026-01-29 02:52:25.85	359.78	16.43	-37.7	-39.6	14.9	0.00e+00	0	57	0	189792256	46	4609
2026-01-29 02:52:26.86	359.66	16.52	-37.8	-39.8	14.7	0.00e+00	0	57	0	196083712	46	4711
2026-01-29 02:52:27.88	359.55	16.62	-37.7	-39.6	14.9	0.00e+00	0	57	0	201326592	46	4634
2026-01-29 02:52:28.89	359.43	16.72	-37.8	-39.7	14.8	0.00e+00	0	57	0	207618048	46	4671
2026-01-29 02:52:29.90	359.31	16.82	-37.9	-39.8	14.7	2.20e-06	0	57	0	212860928	46	4735
2026-01-29 02:52:30.91	359.19	16.92	-37.9	-39.8	14.8	0.00e+00	0	57	0	218103808	46	4719
2026-01-29 02:52:31.92	359.07	17.02	-37.9	-39.8	14.7	2.20e-06	0	57	0	224395264	46	4732
2026-01-29 02:52:32.93	358.95	17.12	-37.8	-39.6	14.9	0.00e+00	0	57	0	229638144	46	4641
2026-01-29 02:52:33.94	358.83	17.22	-37.9	-39.8	14.8	1.10e-06	0	57	0	235929600	46	4718
2026-01-29 02:52:34.95	358.71	17.32	-37.6	-39.4	15.2	0.00e+00	0	57	0	241172480	46	4511
2026-01-29 02:52:35.96	358.59	17.42	-37.6	-39.5	15.1	0.00e+00	0	57	0	246415360	46	4550
2026-01-29 02:52:36.97	358.47	17.52	-37.5	-39.3	15.3	0.00e+00	0	57	0	252706816	46	4453
2026-01-29 02:52:37.98	358.34	17.62	-37.2	-38.9	15.6	0.00e+00	0	57	0	257949696	46	4279
2026-01-29 02:52:38.99	358.22	17.72	-37.1	-38.8	15.7	0.00e+00	0	57	0	264241152	46	4203
2026-01-29 02:52:40.00	358.09	17.83	-37.2	-39.0	15.4	0.00e+00	0	57	0	269484032	46	4293
2026-01-29 02:52:41.01	357.97	17.93	-37.2	-39.0	15.3	0.00e+00	0	57	0	275775488	46	4324
2026-01-29 02:52:42.02	357.84	18.03	-37.0	-38.8	15.5	0.00e+00	0	57	0	281018368	46	4203
2026-01-29 02:52:43.03	357.71	18.13	-36.7	-38.4	15.9	0.00e+00	0	57	0	287309824	45	4264
2026-01-29 02:52:44.05	357.58	18.24	-36.7	-38.4	15.8	0.00e+00	0	57	0	292552704	45	4266
2026-01-29 02:52:45.05	357.45	18.34	-37.0	-38.8	15.4	0.00e+00	0	57	0	297795584	45	4450
2026-01-29 02:52:46.07	357.32	18.44	-37.2	-39.0	15.0	0.00e+00	0	57	0	304087040	45	4583
2026-01-29 02:52:47.08	357.19	18.55	-37.0	-38.8	15.1	0.00e+00	0	57	0	309329920	45	4463
2026-01-29 02:52:48.09	357.06	18.65	-36.8	-38.6	15.2	0.00e+00	0	57	0	315621376	45	4380
2026-01-29 02:52:49.10	356.92	18.76	-36.6	-38.3	15.4	0.00e+00	0	57	0	320864256	45	4235
2026-01-29 02:52:50.11	356.79	18.86	-36.3	-38.0	15.5	0.00e+00	0	57	0	326107136	44	4318
2026-01-29 02:52:51.12	356.65	18.96	-36.4	-38.2	15.2	0.00e+00	0	57	0	332398592	44	4425
2026-01-29 02:52:52.13	356.51	19.07	-36.8	-38.8	14.5	1.10e-06	0	57	0	337641472	44	4715
2026-01-29 02:52:53.14	356.38	19.17	-37.6	-39.9	13.1	1.37e-05	0	57	0	343932928	45	5094
2026-01-29 02:52:54.15	356.24	19.28	-38.6	-41.5	11.3	5.33e-04	0	57	0	349175808	47	5424
2026-01-29 02:52:55.16	356.10	19.39	-39.6	-43.2	9.4	1.16e-02	0	57	0	354418688	49	5888
2026-01-29 02:52:56.17	355.96	19.49	-40.2	-44.6	7.8	5.56e-02	0	57	0	360710144	50	6528
2026-01-29 02:52:57.18	355.82	19.60	-40.1	-44.6	7.6	1.18e-01	0	57	0	365953024	51	6195
2026-01-29 02:52:58.19	355.67	19.71	-39.9	-44.1	8.1	8.01e-02	0	57	0	372244480	51	5843
2026-01-29 02:52:59.20	355.53	19.81	-39.9	-44.3	7.9	7.58e-02	0	57	0	377487360	51	5938
2026-01-29 02:53:00.21	355.39	19.92	-40.2	-44.9	7.3	1.14e-01	0	57	0	383778816	51	6386
2026-01-29 02:53:01.23	355.24	20.03	-40.4	-45.4	6.9	1.85e-01	0	57	0	389021696	51	6724
2026-01-29 02:53:02.24	355.09	20.14	-40.3	-45.0	7.3	1.65e-01	0	57	0	395313152	51	6483
2026-01-29 02:53:03.24	354.95	20.24	-40.0	-44.4	8.0	9.52e-02	0	57	0	400556032	51	5993
2026-01-29 02:53:04.25	354.80	20.35	-39.5	-43.3	9.2	4.00e-02	0	57	0	405798912	51	5283
2026-01-29 02:53:05.26	354.65	20.46	-39.2	-42.5	10.1	1.03e-02	0	57	0	412090368	50	5108
2026-01-29 02:53:06.27	354.50	20.57	-38.9	-42.0	10.6	5.40e-03	0	57	0	417333248	49	5136
2026-01-29 02:53:07.28	354.34	20.68	-38.9	-41.9	10.7	3.72e-03	0	57	0	423624704	49	5074
2026-01-29 02:53:08.29	354.19	20.79	-38.7	-41.7	11.1	2.57e-03	0	58	0	428867584	49	4929
2026-01-29 02:53:09.30	354.04	20.90	-38.5	-41.1	12.0	9.02e-04	0	57	0	434110464	49	4620
2026-01-29 02:53:10.31	353.88	21.01	-38.3	-40.8	12.5	2.17e-04	0	58	0	440401920	48	4730
2026-01-29 02:53:11.32	353.72	21.12	-38.3	-40.7	12.8	9.38e-05	0	57	0	445644800	48	4653
2026-01-29 02:53:12.33	353.57	21.23	-38.3	-40.7	12.6	9.95e-05	0	57	0	451936256	48	4705
2026-01-29 02:53:13.34	353.41	21.34	-38.4	-40.8	12.7	1.82e-04	0	57	0	457179136	48	4723
2026-01-29 02:53:14.35	353.25	21.45	-37.9	-40.2	13.2	2.51e-05	0	57	0	462422016	47	4670
2026-01-29 02:53:15.36	353.09	21.56	-37.7	-39.8	13.8	1.60e-05	0	57	0	468713472	47	4469
2026-01-29 02:53:16.37	352.92	21.67	-37.6	-39.5	14.2	1.10e-06	0	58	0	473956352	47	4340
2026-01-29 02:53:17.38	352.76	21.78	-37.2	-39.1	14.8	0.00e+00	0	57	0	480247808	46	4349
2026-01-29 02:53:18.39	352.60	21.89	-37.1	-38.9	15.1	0.00e+00	0	57	0	485490688	46	4248
2026-01-29 02:53:19.40	352.43	22.01	-37.1	-38.9	15.1	0.00e+00	0	58	0	491782144	46	4289
2026-01-29 02:53:20.41	352.26	22.12	-36.8	-38.5	15.5	0.00e+00	0	57	0	497025024	45	4312
2026-01-29 02:53:21.42	352.09	22.23	-36.2	-37.8	16.2	0.00e+00	0	57	0	503316480	44	4230
2026-01-29 02:53:22.43	351.92	22.34	-35.8	-37.3	16.6	0.00e+00	0	58	0	508559360	43	4216
2026-01-29 02:53:23.44	351.75	22.46	-35.7	-37.3	16.6	0.00e+00	0	57	0	513802240	43	4207
2026-01-29 02:53:24.45	351.58	22.57	-35.8	-37.3	16.6	0.00e+00	0	57	0	520093696	43	4232
2026-01-29 02:53:25.46	351.41	22.68	-36.1	-37.7	16.3	0.00e+00	0	58	0	525336576	43	4422
2026-01-29 02:53:26.48	351.23	22.80	-36.4	-38.0	16.1	0.00e+00	0	58	0	531628032	43	4570
2026-01-29 02:53:27.49	351.05	22.91	-36.3	-37.9	16.3	0.00e+00	0	58	0	536870912	43	4535
2026-01-29 02:53:28.50	350.88	23.03	-35.9	-37.4	17.0	0.00e+00	0	58	0	542113792	43	4264
2026-01-29 02:53:29.51	350.70	23.14	-35.8	-37.3	17.2	0.00e+00	0	58	0	548405248	43	4217
2026-01-29 02:53:30.52	350.52	23.26	-35.9	-37.4	17.1	0.00e+00	0	58	0	553648128	43	4248
2026-01-29 02:53:31.53	350.34	23.37	-36.1	-37.6	16.9	0.00e+00	0	57	0	559939584	43	4382
2026-01-29 02:53:32.54	350.15	23.49	-36.1	-37.6	16.9	0.00e+00	0	58	0	565182464	43	4371
2026-01-29 02:53:33.55	349.97	23.60	-35.8	-37.3	17.3	0.00e+00	0	57	0	570425344	43	4219
2026-01-29 02:53:34.56	349.78	23.72	-35.8	-37.2	17.4	0.00e+00	0	57	0	576716800	43	4175
2026-01-29 02:53:35.57	349.60	23.83	-35.9	-37.4	17.3	0.00e+00	0	57	0	581959680	43	4259
2026-01-29 02:53:36.58	349.41	23.95	-36.1	-37.6	17.1	0.00e+00	0	58	0	588251136	43	4350
2026-01-29 02:53:37.59	349.22	24.06	-36.1	-37.6	17.1	0.00e+00	0	58	0	593494016	43	4370
2026-01-29 02:53:38.60	349.03	24.18	-35.8	-37.3	17.5	0.00e+00	0	57	0	599785472	43	4209
2026-01-29 02:53:39.61	348.83	24.29	-35.8	-37.2	17.5	0.00e+00	0	57	0	605028352	43	4192
2026-01-29 02:53:40.62	348.64	24.41	-35.8	-37.2	17.5	0.00e+00	0	58	0	611319808	43	4179
2026-01-29 02:53:41.63	348.44	24.53	-35.7	-37.1	17.7	0.00e+00	0	58	0	616562688	43	4127
2026-01-29 02:53:42.64	348.25	24.64	-35.7	-37.1	17.7	0.00e+00	0	58	0	621805568	43	4139
2026-01-29 02:53:43.65	348.05	24.76	-35.7	-37.1	17.7	0.00e+00	0	57	0	628097024	43	4112
2026-01-29 02:53:44.66	347.85	24.88	-35.5	-36.9	17.9	0.00e+00	0	58	0	633339904	43	4033
2026-01-29 02:53:45.67	347.65	24.99	-35.5	-36.9	17.9	0.00e+00	0	58	0	639631360	43	4022
2026-01-29 02:53:46.69	347.44	25.11	-35.5	-36.9	17.9	0.00e+00	0	58	0	644874240	43	4020
2026-01-29 02:53:47.69	347.24	25.23	-35.6	-37.0	17.8	0.00e+00	0	58	0	650117120	43	4079
2026-01-29 02:53:48.70	347.03	25.35	-35.7	-37.1	17.8	0.00e+00	0	58	0	656408576	43	4105
2026-01-29 02:53:49.72	346.82	25.47	-35.6	-37.0	17.9	0.00e+00	0	58	0	661651456	43	4061
2026-01-29 02:53:50.72	346.62	25.58	-35.6	-36.9	17.9	0.00e+00	0	58	0	667942912	43	4051
2026-01-29 02:53:51.73	346.40	25.70	-35.0	-36.6	18.1	0.00e+00	0	58	0	673185792	42	4119
2026-01-29 02:53:52.74	346.19	25.82	-35.5	-36.8	18.1	0.00e+00	0	58	0	678428672	42	4232
2026-01-29 02:53:53.76	345.98	25.94	-35.4	-36.8	18.1	0.00e+00	0	58	0	684720128	42	4217
2026-01-29 02:53:54.77	345.76	26.05	-35.4	-36.8	18.2	0.00e+00	0	57	0	689963008	42	4203
2026-01-29 02:53:55.78	345.54	26.17	-35.3	-36.6	18.3	0.00e+00	0	58	0	696254464	42	4117
2026-01-29 02:53:56.79	345.32	26.29	-35.2	-36.5	18.4	0.00e+00	0	58	0	701497344	42	4088
2026-01-29 02:53:57.80	345.10	26.41	-35.2	-36.5	18.4	0.00e+00	0	58	0	707788800	42	4091
2026-01-29 02:53:58.81	344.88	26.53	-35.2	-36.5	18.4	0.00e+00	0	58	0	713031680	42	4091
2026-01-29 02:53:59.82	344.66	26.64	-35.2	-36.5	18.4	0.00e+00	0	58	0	719323136	42	4094
2026-01-29 02:54:00.83	344.43	26.76	-35.2	-36.5	18.4	0.00e+00	0	58	0	724566016	42	4091
2026-01-29 02:54:01.84	344.20	26.88	-35.2	-36.5	18.4	0.00e+00	0	58	0	729808896	42	4074
2026-01-29 02:54:02.85	343.97	27.00	-35.3	-36.6	18.4	0.00e+00	0	58	0	736100352	42	4112
2026-01-29 02:54:03.86	343.74	27.12	-35.2	-36.5	18.4	0.00e+00	0	58	0	741343232	42	4098
2026-01-29 02:54:04.88	343.51	27.24	-35.2	-36.5	18.5	0.00e+00	0	58	0	747634688	42	4081
2026-01-29 02:54:05.89	343.27	27.36	-35.3	-36.6	18.4	0.00e+00	0	58	0	752877568	42	4116
2026-01-29 02:54:06.90	343.04	27.47	-35.3	-36.6	18.3	0.00e+00	0	58	0	758120448	42	4132
2026-01-29 02:54:07.91	342.80	27.59	-35.2	-36.5	18.5	0.00e+00	0	58	0	764411904	42	4076
2026-01-29 02:54:08.92	342.56	27.71	-35.2	-36.5	18.5	0.00e+00	0	58	0	769654784	42	4086
2026-01-29 02:54:09.93	342.32	27.83	-35.3	-36.6	18.4	0.00e+00	0	58	0	775946240	42	4118
2026-01-29 02:54:10.94	342.07	27.95	-35.4	-36.7	18.3	0.00e+00	0	58	0	781189120	42	4162
2026-01-29 02:54:11.95	341.83	28.06	-35.3	-36.7	18.4	0.00e+00	0	58	0	786432000	42	4146
2026-01-29 02:54:12.96	341.58	28.18	-35.1	-36.4	18.6	0.00e+00	0	58	0	792723456	42	4041
2026-01-29 02:54:13.97	341.33	28.30	-35.1	-36.4	18.7	0.00e+00	0	58	0	797966336	42	4006
2026-01-29 02:54:14.98	341.08	28.42	-35.2	-36.4	18.6	0.00e+00	0	58	0	804257792	42	4042
2026-01-29 02:54:16.00	340.82	28.54	-35.1	-36.4	18.6	0.00e+00	0	58	0	809500672	42	4041
2026-01-29 02:54:17.01	340.57	28.65	-35.1	-36.4	18.7	0.00e+00	0	58	0	815792128	42	4021
2026-01-29 02:54:18.02	340.31	28.77	-35.0	-36.3	18.7	0.00e+00	0	58	0	821035008	42	3984
2026-01-29 02:54:19.03	340.06	28.89	-35.0	-36.2	18.8	0.00e+00	0	58	0	827326464	41	4180
2026-01-29 02:54:20.04	339.79	29.00	-34.9	-36.2	18.8	0.00e+00	0	58	0	832569344	41	4179
2026-01-29 02:54:21.05	339.53	29.12	-35.0	-36.3	18.7	0.00e+00	0	58	0	837812224	41	4199
2026-01-29 02:54:22.06	339.27	29.24	-35.0	-36.3	18.7	0.00e+00	0	58	0	844103680	41	4214
2026-01-29 02:54:23.07	339.00	29.35	-35.1	-36.4	18.6	0.00e+00	0	58	0	849346560	41	4276
2026-01-29 02:54:24.08	338.73	29.47	-35.2	-36.5	18.5	0.00e+00	0	58	0	855638016	41	4298
2026-01-29 02:54:25.09	338.46	29.59	-35.1	-36.4	18.6	0.00e+00	0	58	0	860880896	41	4282
2026-01-29 02:54:26.10	338.19	29.70	-35.2	-36.4	18.6	0.00e+00	0	58	0	866123776	41	4281
2026-01-29 02:54:27.12	337.91	29.82	-35.1	-36.4	18.7	0.00e+00	0	58	0	872415232	41	4257
2026-01-29 02:54:28.13	337.64	29.93	-35.1	-36.4	18.7	0.00e+00	0	58	0	877658112	41	4250
2026-01-29 02:54:29.14	337.36	30.05	-35.1	-36.4	18.7	0.00e+00	0	58	0	883949568	41	4249
2026-01-29 02:54:30.15	337.08	30.16	-35.1	-36.4	18.7	0.00e+00	0	58	0	889192448	41	4267
2026-01-29 02:54:31.16	336.80	30.28	-35.2	-36.4	18.6	0.00e+00	0	58	0	894435328	41	4288
2026-01-29 02:54:32.17	336.51	30.39	-35.0	-36.3	18.8	0.00e+00	0	58	0	900726784	41	4213
2026-01-29 02:54:33.18	336.23	30.50	-35.0	-36.2	18.8	0.00e+00	0	58	0	905969664	41	4191
2026-01-29 02:54:34.19	335.94	30.62	-35.0	-36.2	18.8	0.00e+00	0	58	0	912261120	41	4181
2026-01-29 02:54:35.20	335.65	30.73	-35.0	-36.2	18.9	0.00e+00	0	58	0	917504000	41	4181
2026-01-29 02:54:36.22	335.35	30.84	-34.9	-36.2	18.9	0.00e+00	0	58	0	923795456	41	4171
2026-01-29 02:54:37.23	335.06	30.96	-34.8	-36.0	19.0	0.00e+00	0	58	0	929038336	41	4094
2026-01-29 02:54:38.24	334.76	31.07	-34.9	-36.1	18.9	0.00e+00	0	58	0	935329792	41	4136
2026-01-29 02:54:39.25	334.47	31.18	-34.9	-36.1	18.9	0.00e+00	0	58	0	940572672	41	4144
2026-01-29 02:54:40.26	334.17	31.29	-34.8	-36.1	19.0	0.00e+00	0	58	0	945815552	41	4112
2026-01-29 02:54:41.27	333.86	31.40	-34.8	-36.1	19.0	0.00e+00	0	58	0	952107008	41	4103
2026-01-29 02:54:42.28	333.56	31.51	-34.9	-36.1	19.0	0.00e+00	0	58	0	957349888	41	4129
2026-01-29 02:54:43.29	333.25	31.62	-34.9	-36.2	19.0	0.00e+00	0	58	0	963641344	41	4150
2026-01-29 02:54:44.30	332.94	31.73	-34.7	-36.0	19.1	0.00e+00	0	58	0	968884224	41	4053
2026-01-29 02:54:45.31	332.63	31.83	-34.7	-36.0	19.1	0.00e+00	0	58	0	974127104	41	4056
2026-01-29 02:54:46.32	332.32	31.94	-34.7	-35.9	19.1	0.00e+00	0	58	0	980418560	41	4039
2026-01-29 02:54:47.34	332.00	32.05	-34.7	-36.0	19.1	0.00e+00	0	58	0	985661440	41	4060
2026-01-29 02:54:48.35	331.68	32.16	-34.8	-36.1	19.0	0.00e+00	0	58	0	991952896	41	4099
2026-01-29 02:54:49.36	331.36	32.26	-34.8	-36.0	19.1	0.00e+00	0	58	0	997195776	41	4076
2026-01-29 02:54:50.37	331.04	32.37	-34.6	-35.8	19.3	0.00e+00	0	58	0	1002438656	41	3963
2026-01-29 02:54:51.38	330.72	32.47	-34.5	-35.7	19.4	0.00e+00	0	58	0	1008730112	41	3942
2026-01-29 02:54:52.38	330.40	32.57	-34.6	-35.8	19.2	0.00e+00	0	58	0	1013972992	41	4003
2026-01-29 02:54:53.39	330.07	32.68	-34.7	-36.0	19.1	0.00e+00	0	58	0	1020264448	41	4067
2026-01-29 02:54:54.40	329.74	32.78	-34.8	-36.0	19.1	0.00e+00	0	58	0	1025507328	41	4092
2026-01-29 02:54:55.41	329.41	32.88	-34.6	-35.9	19.2	0.00e+00	0	58	0	1031798784	41	4007
2026-01-29 02:54:56.43	329.07	32.98	-34.6	-35.9	19.2	0.00e+00	0	58	0	1037041664	41	4012
2026-01-29 02:54:57.44	328.73	33.08	-34.6	-35.8	19.3	0.00e+00	0	58	0	1043333120	41	3975
2026-01-29 02:54:58.45	328.39	33.18	-34.5	-35.7	19.3	0.00e+00	0	58	0	1048576000	41	3956
2026-01-29 02:54:59.46	328.05	33.28	-34.6	-35.8	19.3	0.00e+00	0	58	0	1053818880	41	3982
2026-01-29 02:55:00.47	327.71	33.38	-34.6	-35.9	19.3	0.00e+00	0	58	0	1060110336	41	4009
2026-01-29 02:55:01.48	327.37	33.47	-34.5	-35.8	19.3	0.00e+00	0	58	0	1065353216	41	3964
2026-01-29 02:55:02.49	327.02	33.57	-34.7	-35.9	19.2	0.00e+00	0	58	0	1071644672	41	4020
2026-01-29 02:55:03.50	326.67	33.66	-34.8	-36.0	19.1	0.00e+00	0	58	0	1076887552	41	4082
2026-01-29 02:55:04.51	326.32	33.76	-34.8	-36.0	19.1	0.00e+00	0	58	0	1082130432	41	4094
2026-01-29 02:55:05.52	325.97	33.85	-34.7	-35.9	19.2	0.00e+00	0	58	0	1088421888	41	4024
2026-01-29 02:55:06.53	325.61	33.94	-34.6	-35.8	19.3	0.00e+00	0	58	0	1093664768	41	3973
2026-01-29 02:55:07.54	325.26	34.04	-34.6	-35.8	19.3	0.00e+00	0	58	0	1099956224	41	3997
2026-01-29 02:55:08.54	324.90	34.12	-34.6	-35.8	19.3	0.00e+00	0	58	0	1105199104	41	3996
2026-01-29 02:55:09.55	324.54	34.21	-34.6	-35.8	19.3	0.00e+00	0	58	0	1110441984	41	4004
2026-01-29 02:55:10.56	324.18	34.30	-34.6	-35.8	19.3	0.00e+00	0	58	0	1116733440	41	3969
2026-01-29 02:55:11.57	323.81	34.39	-34.5	-35.7	19.4	0.00e+00	0	58	0	1121976320	41	3931
2026-01-29 02:55:12.58	323.45	34.47	-34.6	-35.8	19.3	0.00e+00	0	58	0	1128267776	41	3981
2026-01-29 02:55:13.60	323.07	34.56	-34.7	-35.9	19.2	0.00e+00	0	58	0	1133510656	41	4049
2026-01-29 02:55:14.61	322.70	34.64	-34.6	-35.8	19.3	0.00e+00	0	58	0	1139802112	41	3971
2026-01-29 02:55:15.61	322.33	34.72	-34.5	-35.7	19.5	0.00e+00	0	58	0	1145044992	40	4150
2026-01-29 02:55:16.62	321.96	34.81	-34.4	-35.6	19.5	0.00e+00	0	58	0	1151336448	40	4105
2026-01-29 02:55:17.63	321.58	34.89	-34.3	-35.5	19.6	0.00e+00	0	58	0	1156579328	40	4066
2026-01-29 02:55:18.65	321.20	34.97	-34.4	-35.6	19.5	0.00e+00	0	58	0	1161822208	40	4131
2026-01-29 02:55:19.65	320.83	35.04	-34.5	-35.8	19.4	0.00e+00	0	58	0	1168113664	40	4198
2026-01-29 02:55:20.67	320.44	35.12	-34.7	-35.9	19.2	0.00e+00	0	58	0	1173356544	40	4267
2026-01-29 02:55:21.68	320.06	35.20	-34.7	-36.0	19.2	0.00e+00	0	58	0	1179648000	40	4304
2026-01-29 02:55:22.69	319.67	35.27	-34.7	-35.9	19.3	0.00e+00	0	58	0	1184890880	40	4250
2026-01-29 02:55:23.70	319.28	35.34	-34.7	-35.9	19.2	0.00e+00	0	58	0	1190133760	40	4276
2026-01-29 02:55:24.71	318.89	35.41	-34.7	-35.9	19.2	0.00e+00	0	58	0	1196425216	40	4277
2026-01-29 02:55:25.72	318.50	35.48	-34.7	-35.9	19.2	0.00e+00	0	58	0	1201668096	40	4289
2026-01-29 02:55:26.73	318.11	35.55	-34.7	-35.9	19.2	0.00e+00	0	58	0	1207959552	40	4277
2026-01-29 02:55:27.74	317.72	35.62	-34.6	-35.8	19.3	0.00e+00	0	58	0	1213202432	40	4226
2026-01-29 02:55:28.75	317.32	35.68	-34.7	-35.9	19.2	0.00e+00	0	58	0	1218445312	40	4261
2026-01-29 02:55:29.76	316.93	35.75	-34.6	-35.8	19.3	0.00e+00	0	58	0	1224736768	40	4205
2026-01-29 02:55:30.77	316.53	35.81	-34.7	-35.9	19.2	0.00e+00	0	58	0	1229979648	40	4271
2026-01-29 02:55:31.78	316.13	35.87	-34.8	-36.0	19.1	0.00e+00	0	58	0	1236271104	40	4324
2026-01-29 02:55:32.79	315.72	35.93	-34.9	-36.2	19.0	0.00e+00	0	58	0	1241513984	40	4392
2026-01-29 02:55:33.80	315.32	35.99	-34.7	-35.9	19.3	0.00e+00	0	58	0	1247805440	40	4264
2026-01-29 02:55:34.81	314.92	36.05	-34.6	-35.8	19.4	0.00e+00	0	58	0	1253048320	40	4195
2026-01-29 02:55:35.82	314.51	36.10	-34.5	-35.7	19.4	0.00e+00	0	58	0	1259339776	40	4191
2026-01-29 02:55:36.83	314.10	36.16	-34.4	-35.6	19.5	0.00e+00	0	58	0	1264582656	40	4136
2026-01-29 02:55:37.85	313.69	36.21	-34.3	-35.5	19.6	0.00e+00	0	58	0	1269825536	40	4092
2026-01-29 02:55:38.86	313.28	36.26	-34.4	-35.6	19.5	0.00e+00	0	58	0	1276116992	40	4121
2026-01-29 02:55:39.87	312.87	36.31	-34.4	-35.7	19.5	0.00e+00	0	58	0	1281359872	40	4147
2026-01-29 02:55:40.88	312.46	36.36	-34.6	-35.8	19.3	0.00e+00	0	58	0	1287651328	40	4220
2026-01-29 02:55:41.89	312.04	36.40	-34.6	-35.8	19.4	0.00e+00	0	58	0	1292894208	40	4218
2026-01-29 02:55:42.90	311.63	36.45	-34.6	-35.8	19.3	0.00e+00	0	58	0	1298137088	40	4219
2026-01-29 02:55:43.91	311.21	36.49	-34.7	-35.9	19.3	0.00e+00	0	58	0	1304428544	40	4263
2026-01-29 02:55:44.92	310.79	36.53	-34.6	-35.9	19.3	0.00e+00	0	58	0	1309671424	40	4245
2026-01-29 02:55:45.93	310.38	36.57	-34.6	-35.8	19.4	0.00e+00	0	58	0	1315962880	40	4211
2026-01-29 02:55:46.94	309.96	36.61	-34.5	-35.8	19.4	0.00e+00	0	58	0	1321205760	40	4201
2026-01-29 02:55:47.95	309.54	36.64	-34.4	-35.6	19.5	0.00e+00	0	58	0	1326448640	40	4144
2026-01-29 02:55:48.96	309.12	36.68	-34.4	-35.5	19.6	0.00e+00	0	58	0	1332740096	40	4088
2026-01-29 02:55:49.97	308.69	36.71	-34.5	-35.7	19.5	0.00e+00	0	58	0	1337982976	40	4153
2026-01-29 02:55:50.98	308.27	36.74	-34.5	-35.7	19.4	0.00e+00	0	58	0	1344274432	40	4185
2026-01-29 02:55:51.99	307.85	36.77	-34.7	-35.9	19.2	0.00e+00	0	58	0	1349517312	40	4281
2026-01-29 02:55:53.00	307.42	36.79	-34.8	-36.1	19.1	0.00e+00	0	58	0	1355808768	40	4351
2026-01-29 02:55:54.01	307.00	36.82	-34.8	-36.0	19.1	0.00e+00	0	58	0	1361051648	40	4329
2026-01-29 02:55:55.02	306.57	36.84	-34.8	-36.0	19.1	0.00e+00	0	58	0	1367343104	40	4326
2026-01-29 02:55:56.03	306.15	36.86	-34.8	-36.0	19.1	0.00e+00	0	58	0	1372585984	40	4318
2026-01-29 02:55:57.04	305.72	36.88	-34.7	-35.9	19.2	0.00e+00	0	58	0	1377828864	40	4275
2026-01-29 02:55:58.05	305.29	36.90	-34.7	-35.9	19.2	0.00e+00	0	58	0	1384120320	40	4289
2026-01-29 02:55:59.06	304.86	36.92	-34.7	-35.9	19.2	0.00e+00	0	58	0	1389363200	40	4273
2026-01-29 02:56:00.07	304.44	36.93	-34.7	-35.9	19.3	0.00e+00	0	58	0	1394606080	40	4262
2026-01-29 02:56:01.08	304.01	36.94	-34.7	-36.0	19.2	0.00e+00	0	58	0	1400897536	40	4294
2026-01-29 02:56:02.08	303.58	36.96	-34.6	-35.8	19.3	0.00e+00	0	58	0	1406140416	40	4235
2026-01-29 02:56:03.10	303.15	36.96	-34.4	-35.6	19.5	0.00e+00	0	58	0	1412431872	40	4144
2026-01-29 02:56:04.11	302.72	36.97	-34.4	-35.6	19.6	0.00e+00	0	58	0	1417674752	40	4099
2026-01-29 02:56:05.11	302.30	36.98	-34.5	-35.7	19.4	0.00e+00	0	58	0	1422917632	40	4177
2026-01-29 02:56:06.13	301.86	36.98	-34.6	-35.8	19.3	0.00e+00	0	58	0	1429209088	40	4215
2026-01-29 02:56:07.14	301.43	36.98	-34.6	-35.8	19.3	0.00e+00	0	58	0	1434451968	40	4218
2026-01-29 02:56:08.14	301.01	36.98	-34.6	-35.8	19.3	0.00e+00	0	58	0	1440743424	40	4226
2026-01-29 02:56:09.16	300.57	36.98	-34.6	-35.8	19.3	0.00e+00	0	58	0	1445986304	40	4231
2026-01-29 02:56:10.17	300.14	36.98	-34.7	-35.9	19.2	0.00e+00	0	58	0	1452277760	40	4278
2026-01-29 02:56:11.18	299.71	36.97	-34.7	-35.9	19.3	0.00e+00	0	58	0	1457520640	40	4251
2026-01-29 02:56:12.19	299.28	36.96	-34.6	-35.8	19.3	0.00e+00	0	58	0	1463812096	40	4222
2026-01-29 02:56:13.20	298.85	36.95	-34.5	-35.7	19.4	0.00e+00	0	58	0	1469054976	40	4185
2026-01-29 02:56:14.21	298.43	36.94	-34.4	-35.6	19.5	0.00e+00	0	58	0	1474297856	40	4138
2026-01-29 02:56:15.22	298.00	36.93	-34.4	-35.6	19.6	0.00e+00	0	58	0	1480589312	40	4107
2026-01-29 02:56:16.23	297.57	36.91	-34.4	-35.6	19.5	0.00e+00	0	59	0	1485832192	40	4125
2026-01-29 02:56:17.24	297.14	36.90	-34.5	-35.7	19.5	0.00e+00	0	58	0	1492123648	40	4156
2026-01-29 02:56:18.25	296.71	36.88	-34.4	-35.5	19.6	0.00e+00	0	58	0	1497366528	40	4095
2026-01-29 02:56:19.26	296.29	36.86	-34.4	-35.5	19.6	0.00e+00	0	58	0	1502609408	40	4097
2026-01-29 02:56:20.27	295.86	36.84	-34.4	-35.6	19.5	0.00e+00	0	58	0	1508900864	40	4108
2026-01-29 02:56:21.28	295.43	36.81	-34.4	-35.6	19.5	0.00e+00	0	58	0	1514143744	40	4114
2026-01-29 02:56:22.29	295.01	36.79	-34.4	-35.6	19.5	0.00e+00	0	58	0	1520435200	40	4128
2026-01-29 02:56:23.30	294.59	36.76	-34.4	-35.6	19.5	0.00e+00	0	58	0	1525678080	40	4138
2026-01-29 02:56:24.31	294.16	36.73	-34.4	-35.6	19.5	0.00e+00	0	59	0	1530920960	40	4125
2026-01-29 02:56:25.32	293.74	36.70	-34.4	-35.6	19.5	0.00e+00	0	58	0	1537212416	40	4110
2026-01-29 02:56:26.33	293.32	36.67	-34.4	-35.6	19.5	0.00e+00	0	59	0	1542455296	40	4145
2026-01-29 02:56:27.34	292.90	36.63	-34.5	-35.7	19.4	0.00e+00	0	58	0	1548746752	40	4191
2026-01-29 02:56:28.36	292.47	36.60	-34.5	-35.7	19.4	0.00e+00	0	58	0	1553989632	40	4162
2026-01-29 02:56:29.37	292.05	36.56	-34.4	-35.6	19.5	0.00e+00	0	58	0	1560281088	40	4130
2026-01-29 02:56:30.38	291.63	36.52	-34.5	-35.7	19.4	0.00e+00	0	58	0	1565523968	40	4165
2026-01-29 02:56:31.38	291.22	36.48	-34.5	-35.7	19.4	0.00e+00	0	58	0	1571815424	40	4158
2026-01-29 02:56:32.39	290.80	36.43	-34.6	-35.8	19.3	0.00e+00	0	58	0	1577058304	40	4203
2026-01-29 02:56:33.40	290.39	36.39	-34.4	-35.6	19.5	0.00e+00	0	58	0	1582301184	40	4138
2026-01-29 02:56:34.41	289.97	36.34	-34.4	-35.6	19.6	0.00e+00	0	58	0	1588592640	40	4101
2026-01-29 02:56:35.42	289.56	36.30	-34.4	-35.7	19.5	0.00e+00	0	59	0	1593835520	40	4151
2026-01-29 02:56:36.43	289.15	36.25	-34.4	-35.6	19.5	0.00e+00	0	58	0	1600126976	40	4126
2026-01-29 02:56:37.44	288.74	36.20	-34.4	-35.6	19.5	0.00e+00	0	58	0	1605369856	40	4134
2026-01-29 02:56:38.45	288.33	36.14	-34.3	-35.5	19.6	0.00e+00	0	58	0	1610612736	40	4086
2026-01-29 02:56:39.47	287.92	36.09	-34.2	-35.4	19.7	0.00e+00	0	58	0	1616904192	40	4040
2026-01-29 02:56:40.48	287.51	36.03	-34.2	-35.4	19.7	0.00e+00	0	58	0	1622147072	40	4028
2026-01-29 02:56:41.49	287.11	35.98	-34.3	-35.5	19.6	0.00e+00	0	58	0	1628438528	40	4076
2026-01-29 02:56:42.50	286.70	35.92	-34.2	-35.4	19.7	0.00e+00	0	58	0	1633681408	40	4019
2026-01-29 02:56:43.51	286.30	35.86	-34.3	-35.5	19.6	0.00e+00	0	58	0	1638924288	40	4054
2026-01-29 02:56:44.52	285.90	35.79	-34.4	-35.6	19.5	0.00e+00	0	58	0	1645215744	40	4133
2026-01-29 02:56:45.53	285.50	35.73	-34.4	-35.6	19.5	0.00e+00	0	58	0	1650458624	40	4121
2026-01-29 02:56:46.54	285.11	35.67	-34.4	-35.6	19.5	0.00e+00	0	58	0	1656750080	40	4110
2026-01-29 02:56:47.55	284.71	35.60	-34.3	-35.5	19.6	0.00e+00	0	58	0	1661992960	40	4077
2026-01-29 02:56:48.56	284.32	35.53	-34.3	-35.5	19.6	0.00e+00	0	58	0	1668284416	40	4077
2026-01-29 02:56:49.57	283.92	35.46	-34.3	-35.5	19.6	0.00e+00	0	59	0	1673527296	40	4058
2026-01-29 02:56:50.58	283.53	35.39	-34.3	-35.5	19.6	0.00e+00	0	58	0	1679818752	40	4057
2026-01-29 02:56:51.59	283.14	35.32	-34.4	-35.6	19.5	0.00e+00	0	58	0	1685061632	40	4128
2026-01-29 02:56:52.60	282.76	35.25	-34.4	-35.6	19.6	0.00e+00	0	59	0	1690304512	40	4109
2026-01-29 02:56:53.61	282.37	35.17	-34.2	-35.4	19.7	0.00e+00	0	59	0	1696595968	40	4011
2026-01-29 02:56:54.61	281.99	35.10	-34.1	-35.3	19.8	0.00e+00	0	59	0	1701838848	40	3959
2026-01-29 02:56:55.62	281.61	35.02	-34.0	-35.2	19.9	0.00e+00	0	59	0	1708130304	40	3936
2026-01-29 02:56:56.63	281.23	34.94	-34.1	-35.2	19.8	0.00e+00	0	58	0	1713373184	40	3954
2026-01-29 02:56:57.64	280.85	34.87	-34.2	-35.4	19.7	0.00e+00	0	58	0	1718616064	40	4033
2026-01-29 02:56:58.65	280.47	34.78	-34.3	-35.5	19.6	0.00e+00	0	58	0	1724907520	40	4058
2026-01-29 02:56:59.67	280.09	34.70	-34.4	-35.6	19.5	0.00e+00	0	59	0	1730150400	40	4101
2026-01-29 02:57:00.67	279.72	34.62	-34.3	-35.5	19.6	0.00e+00	0	59	0	1736441856	40	4062
2026-01-29 02:57:01.68	279.35	34.54	-34.2	-35.4	19.7	0.00e+00	0	58	0	1741684736	40	4005
2026-01-29 02:57:02.70	278.98	34.45	-34.3	-35.5	19.6	0.00e+00	0	58	0	1746927616	40	4075
2026-01-29 02:57:03.71	278.61	34.36	-34.4	-35.6	19.5	0.00e+00	0	58	0	1753219072	40	4116
2026-01-29 02:57:04.72	278.25	34.28	-34.5	-35.7	19.3	0.00e+00	0	58	0	1758461952	40	4189
2026-01-29 02:57:05.73	277.88	34.19	-34.5	-35.7	19.4	0.00e+00	0	59	0	1764753408	40	4159
2026-01-29 02:57:06.74	277.52	34.10	-34.5	-35.7	19.4	0.00e+00	0	59	0	1769996288	40	4164
2026-01-29 02:57:07.75	277.16	34.01	-34.5	-35.7	19.4	0.00e+00	0	59	0	1776287744	40	4153
2026-01-29 02:57:08.76	276.81	33.92	-34.4	-35.6	19.5	0.00e+00	0	58	0	1781530624	40	4139
2026-01-29 02:57:09.77	276.45	33.82	-34.4	-35.6	19.5	0.00e+00	0	58	0	1787822080	40	4125
2026-01-29 02:57:10.78	276.10	33.73	-34.4	-35.6	19.5	0.00e+00	0	59	0	1793064960	40	4112
2026-01-29 02:57:11.79	275.75	33.63	-34.5	-35.7	19.4	0.00e+00	0	58	0	1798307840	40	4152
2026-01-29 02:57:12.80	275.40	33.54	-34.3	-35.5	19.6	0.00e+00	0	59	0	1804599296	40	4084
2026-01-29 02:57:13.81	275.05	33.44	-34.4	-35.6	19.5	0.00e+00	0	58	0	1809842176	40	4123
2026-01-29 02:57:14.82	274.71	33.35	-34.4	-35.6	19.5	0.00e+00	0	58	0	1816133632	40	4112
2026-01-29 02:57:15.83	274.36	33.25	-34.5	-35.7	19.4	0.00e+00	0	59	0	1821376512	40	4157
2026-01-29 02:57:16.84	274.02	33.15	-34.2	-35.4	19.7	0.00e+00	0	58	0	1826619392	40	4018
2026-01-29 02:57:17.85	273.68	33.05	-34.1	-35.2	19.8	0.00e+00	0	59	0	1832910848	40	3957
2026-01-29 02:57:18.86	273.35	32.95	-34.2	-35.4	19.7	0.00e+00	0	59	0	1838153728	40	4014
2026-01-29 02:57:19.88	273.01	32.85	-34.3	-35.5	19.6	0.00e+00	0	58	0	1844445184	40	4079
2026-01-29 02:57:20.89	272.68	32.74	-34.4	-35.7	19.4	0.00e+00	0	58	0	1849688064	40	4149
2026-01-29 02:57:21.90	272.35	32.64	-34.3	-35.5	19.5	0.00e+00	0	59	0	1854930944	40	4078
2026-01-29 02:57:22.90	272.02	32.54	-34.3	-35.5	19.6	0.00e+00	0	59	0	1861222400	40	4075
2026-01-29 02:57:23.91	271.70	32.44	-34.4	-35.6	19.4	0.00e+00	0	59	0	1866465280	40	4123
2026-01-29 02:57:24.92	271.37	32.33	-34.4	-35.7	19.4	0.00e+00	0	58	0	1872756736	40	4146
2026-01-29 02:57:25.93	271.05	32.22	-34.4	-35.6	19.4	0.00e+00	0	59	0	1877999616	40	4127
2026-01-29 02:57:26.94	270.73	32.12	-34.4	-35.6	19.4	0.00e+00	0	59	0	1884291072	40	4127
2026-01-29 02:57:27.95	270.41	32.01	-34.4	-35.6	19.4	0.00e+00	0	58	0	1889533952	40	4141
2026-01-29 02:57:28.96	270.10	31.90	-34.5	-35.7	19.3	0.00e+00	0	58	0	1894776832	40	4180
2026-01-29 02:57:29.98	269.78	31.80	-34.6	-35.8	19.3	0.00e+00	0	59	0	1901068288	40	4208
2026-01-29 02:57:30.99	269.47	31.69	-34.6	-35.8	19.2	0.00e+00	0	58	0	1906311168	40	4236
2026-01-29 02:57:32.00	269.16	31.58	-34.6	-35.8	19.3	0.00e+00	0	59	0	1912602624	40	4206
2026-01-29 02:57:33.01	268.85	31.47	-34.4	-35.6	19.4	0.00e+00	0	59	0	1917845504	40	4145
2026-01-29 02:57:34.02	268.55	31.36	-34.4	-35.6	19.4	0.00e+00	0	59	0	1923088384	40	4127
2026-01-29 02:57:35.03	268.24	31.25	-34.5	-35.7	19.4	0.00e+00	0	59	0	1929379840	40	4156
2026-01-29 02:57:36.04	267.94	31.14	-34.5	-35.7	19.3	0.00e+00	0	59	0	1934622720	40	4188
2026-01-29 02:57:37.05	267.64	31.02	-34.6	-35.8	19.3	0.00e+00	0	58	0	1940914176	40	4204
2026-01-29 02:57:38.06	267.35	30.91	-34.5	-35.7	19.4	0.00e+00	0	58	0	1946157056	40	4154
2026-01-29 02:57:39.07	267.05	30.80	-34.5	-35.7	19.3	0.00e+00	0	58	0	1951399936	40	4186
2026-01-29 02:57:40.08	266.76	30.69	-34.6	-35.8	19.2	0.00e+00	0	59	0	1957691392	40	4240
2026-01-29 02:57:41.09	266.47	30.57	-34.6	-35.8	19.2	0.00e+00	0	58	0	1962934272	40	4229
2026-01-29 02:57:42.10	266.18	30.46	-34.5	-35.7	19.3	0.00e+00	0	59	0	1969225728	40	4179
2026-01-29 02:57:43.11	265.89	30.35	-34.6	-35.8	19.2	0.00e+00	0	59	0	1974468608	40	4229
2026-01-29 02:57:44.12	265.61	30.23	-34.6	-35.8	19.2	0.00e+00	0	59	0	1980760064	40	4212
2026-01-29 02:57:45.13	265.32	30.12	-34.6	-35.8	19.2	0.00e+00	0	59	0	1986002944	40	4218
2026-01-29 02:57:46.14	265.04	30.00	-34.7	-35.9	19.1	0.00e+00	0	59	0	1992294400	40	4280
2026-01-29 02:57:47.15	264.77	29.89	-34.7	-35.9	19.1	0.00e+00	0	59	0	1997537280	40	4257
2026-01-29 02:57:48.16	264.49	29.77	-34.7	-35.9	19.1	0.00e+00	0	59	0	2002780160	40	4263
2026-01-29 02:57:49.17	264.21	29.65	-34.7	-35.9	19.1	0.00e+00	0	59	0	2009071616	40	4271
2026-01-29 02:57:50.18	263.94	29.54	-34.6	-35.8	19.2	0.00e+00	0	59	0	2014314496	40	4230
2026-01-29 02:57:51.19	263.67	29.42	-34.5	-35.8	19.2	0.00e+00	0	59	0	2020605952	40	4197
2026-01-29 02:57:52.20	263.40	29.31	-34.6	-35.9	19.1	0.00e+00	0	59	0	2025848832	40	4257
2026-01-29 02:57:53.21	263.14	29.19	-34.7	-36.0	19.1	0.00e+00	0	58	0	2031091712	40	4302
2026-01-29 02:57:54.22	262.87	29.07	-34.6	-35.9	19.1	0.00e+00	0	59	0	2037383168	40	4243
2026-01-29 02:57:55.24	262.60	28.95	-34.6	-35.8	19.2	0.00e+00	0	58	0	2042626048	40	4222
2026-01-29 02:57:56.24	262.35	28.84	-34.7	-35.9	19.1	0.00e+00	0	59	0	2048917504	40	4255
2026-01-29 02:57:57.26	262.08	28.72	-34.8	-36.0	19.0	0.00e+00	0	59	0	2054160384	40	4311
2026-01-29 02:57:58.27	261.83	28.60	-34.8	-36.0	19.0	0.00e+00	0	59	0	2059403264	40	4325
2026-01-29 02:57:59.28	261.57	28.48	-34.7	-35.9	19.1	0.00e+00	0	59	0	2065694720	40	4268
2026-01-29 02:58:00.29	261.32	28.36	-34.6	-35.8	19.1	0.00e+00	0	58	0	2070937600	40	4232
2026-01-29 02:58:01.30	261.07	28.25	-34.6	-35.8	19.2	0.00e+00	0	59	0	2077229056	40	4226
2026-01-29 02:58:02.31	260.82	28.13	-34.6	-35.9	19.1	0.00e+00	0	58	0	2082471936	40	4255
2026-01-29 02:58:03.32	260.57	28.01	-34.7	-35.9	19.1	0.00e+00	0	59	0	2088763392	40	4288
2026-01-29 02:58:04.33	260.32	27.89	-34.8	-36.1	18.9	0.00e+00	0	59	0	2094006272	40	4355
2026-01-29 02:58:05.34	260.08	27.77	-34.8	-36.0	18.9	0.00e+00	0	59	0	2100297728	40	4334
2026-01-29 02:58:06.35	259.84	27.65	-34.8	-36.0	19.0	0.00e+00	0	59	0	2105540608	40	4319
2026-01-29 02:58:07.36	259.60	27.54	-34.7	-35.9	19.0	0.00e+00	0	59	0	2110783488	40	4291
2026-01-29 02:58:08.37	259.36	27.42	-34.6	-35.9	19.1	0.00e+00	0	59	0	2117074944	40	4255
2026-01-29 02:58:09.38	259.12	27.30	-34.7	-35.9	19.1	0.00e+00	0	59	0	2122317824	40	4257
2026-01-29 02:58:10.39	258.89	27.18	-34.7	-35.9	19.0	0.00e+00	0	59	0	2128609280	40	4274
2026-01-29 02:58:11.40	258.65	27.06	-34.8	-36.0	18.9	0.00e+00	0	59	0	2133852160	40	4328
2026-01-29 02:58:12.41	258.42	26.94	-34.9	-36.1	18.8	0.00e+00	0	59	0	2139095040	40	4384
2026-01-29 02:58:13.42	258.19	26.82	-34.9	-36.2	18.8	0.00e+00	0	58	0	2145386496	40	4413
2026-01-29 02:58:14.44	257.96	26.70	-35.0	-36.3	18.7	0.00e+00	0	59	0	2150629376	40	4454
2026-01-29 02:58:15.45	257.73	26.58	-34.9	-36.2	18.8	0.00e+00	0	59	0	2156920832	40	4416
2026-01-29 02:58:16.46	257.51	26.47	-35.0	-36.2	18.7	0.00e+00	0	59	0	2162163712	40	4437
2026-01-29 02:58:17.47	257.29	26.35	-34.9	-36.2	18.8	0.00e+00	0	59	0	2167406592	40	4409
2026-01-29 02:58:18.48	257.07	26.23	-35.1	-36.3	18.6	0.00e+00	0	59	0	2173698048	40	4491
2026-01-29 02:58:19.49	256.85	26.11	-34.9	-36.2	18.7	0.00e+00	0	59	0	2178940928	40	4425
2026-01-29 02:58:20.50	256.63	25.99	-35.0	-36.3	18.7	0.00e+00	0	59	0	2185232384	40	4447
2026-01-29 02:58:21.51	256.41	25.87	-35.0	-36.3	18.6	0.00e+00	0	59	0	2190475264	40	4463
2026-01-29 02:58:22.52	256.20	25.75	-35.1	-36.4	18.5	0.00e+00	0	58	0	2196766720	40	4517
2026-01-29 02:58:23.53	255.98	25.64	-35.2	-36.5	18.4	0.00e+00	0	59	0	2202009600	40	4580
2026-01-29 02:58:24.54	255.77	25.52	-35.4	-36.7	18.3	0.00e+00	0	59	0	2208301056	41	4405
2026-01-29 02:58:25.55	255.56	25.40	-35.4	-36.7	18.2	0.00e+00	0	59	0	2213543936	41	4434
2026-01-29 02:58:26.56	255.35	25.28	-35.3	-36.6	18.3	0.00e+00	0	59	0	2218786816	41	4382
2026-01-29 02:58:27.57	255.15	25.16	-35.3	-36.6	18.3	0.00e+00	0	59	0	2225078272	41	4366
2026-01-29 02:58:28.58	254.94	25.05	-35.2	-36.5	18.4	0.00e+00	0	59	0	2230321152	41	4339
2026-01-29 02:58:29.59	254.74	24.93	-35.3	-36.6	18.3	0.00e+00	0	59	0	2236612608	41	4377
2026-01-29 02:58:30.60	254.53	24.81	-35.4	-36.7	18.2	0.00e+00	0	59	0	2241855488	41	4441
2026-01-29 02:58:31.62	254.33	24.69	-35.5	-36.8	18.1	0.00e+00	0	59	0	2247098368	41	4486
2026-01-29 02:58:32.63	254.13	24.58	-35.5	-36.9	18.0	0.00e+00	0	59	0	2253389824	41	4517
2026-01-29 02:58:33.64	253.93	24.46	-35.6	-37.0	18.0	0.00e+00	0	59	0	2258632704	41	4550
2026-01-29 02:58:34.65	253.74	24.34	-35.5	-36.9	18.1	0.00e+00	0	59	0	2264924160	41	4516
2026-01-29 02:58:35.66	253.54	24.22	-35.6	-36.9	18.0	0.00e+00	0	59	0	2270167040	41	4540
2026-01-29 02:58:36.67	253.35	24.11	-35.6	-37.0	18.0	0.00e+00	0	59	0	2275409920	41	4547
2026-01-29 02:58:37.68	253.16	23.99	-35.5	-36.8	18.1	0.00e+00	0	59	0	2281701376	41	4480
2026-01-29 02:58:38.69	252.97	23.88	-35.5	-36.8	18.1	0.00e+00	0	59	0	2286944256	41	4466
2026-01-29 02:58:39.70	252.78	23.76	-35.4	-36.8	18.1	0.00e+00	0	59	0	2293235712	41	4450
2026-01-29 02:58:40.71	252.59	23.64	-35.4	-36.7	18.1	0.00e+00	0	59	0	2298478592	41	4441
2026-01-29 02:58:41.72	252.40	23.53	-35.4	-36.7	18.2	0.00e+00	0	59	0	2304770048	41	4414
2026-01-29 02:58:42.73	252.22	23.41	-35.3	-36.7	18.2	0.00e+00	0	59	0	2310012928	41	4397
2026-01-29 02:58:43.74	252.04	23.30	-35.5	-36.9	18.0	0.00e+00	0	59	0	2316304384	41	4510
2026-01-29 02:58:44.75	251.85	23.18	-35.4	-36.7	18.2	0.00e+00	0	59	0	2321547264	41	4436
2026-01-29 02:58:45.76	251.67	23.07	-35.4	-36.7	18.2	0.00e+00	0	59	0	2326790144	41	4439
2026-01-29 02:58:46.77	251.49	22.95	-35.5	-36.8	18.1	0.00e+00	0	59	0	2333081600	41	4476
2026-01-29 02:58:47.78	251.32	22.84	-35.5	-36.9	18.0	0.00e+00	0	59	0	2338324480	41	4496
2026-01-29 02:58:48.78	251.14	22.72	-35.6	-36.9	18.0	0.00e+00	0	59	0	2344615936	41	4535
2026-01-29 02:58:49.79	250.96	22.61	-35.5	-36.9	18.0	0.00e+00	0	58	0	2349858816	41	4528
2026-01-29 02:58:50.81	250.79	22.50	-35.5	-36.9	18.0	0.00e+00	0	59	0	2355101696	41	4516
2026-01-29 02:58:51.82	250.62	22.38	-35.5	-36.8	18.0	0.00e+00	0	59	0	2361393152	41	4491
2026-01-29 02:58:52.83	250.44	22.27	-35.5	-36.8	18.1	0.00e+00	0	59	0	2366636032	41	4475
2026-01-29 02:58:53.84	250.27	22.16	-35.4	-36.8	18.1	0.00e+00	0	59	0	2372927488	41	4454
2026-01-29 02:58:54.85	250.10	22.04	-35.5	-36.8	18.1	0.00e+00	0	59	0	2378170368	41	4462
2026-01-29 02:58:55.86	249.94	21.93	-35.4	-36.8	18.1	0.00e+00	0	59	0	2383413248	41	4446
2026-01-29 02:58:56.87	249.77	21.82	-35.4	-36.8	18.1	0.00e+00	0	59	0	2389704704	41	4460
2026-01-29 02:58:57.88	249.60	21.70	-35.5	-36.9	18.0	0.00e+00	0	59	0	2394947584	41	4494
2026-01-29 02:58:58.89	249.44	21.59	-35.5	-36.9	18.0	0.00e+00	0	59	0	2401239040	41	4518
2026-01-29 02:58:59.90	249.28	21.48	-35.5	-36.8	18.0	0.00e+00	0	59	0	2406481920	41	4492
2026-01-29 02:59:00.91	249.12	21.37	-35.5	-36.9	18.0	0.00e+00	0	59	0	2412773376	41	4506
2026-01-29 02:59:01.92	248.95	21.26	-35.5	-36.9	18.0	0.00e+00	0	59	0	2418016256	41	4507
2026-01-29 02:59:02.93	248.79	21.15	-35.6	-37.0	17.9	0.00e+00	0	59	0	2424307712	41	4567
2026-01-29 02:59:03.94	248.64	21.04	-35.7	-37.0	17.8	0.00e+00	0	59	0	2429550592	41	4595
2026-01-29 02:59:04.96	248.48	20.92	-35.6	-36.9	17.9	0.00e+00	0	59	0	2434793472	41	4542
2026-01-29 02:59:05.97	248.32	20.81	-35.5	-36.8	18.0	0.00e+00	0	59	0	2441084928	41	4488
2026-01-29 02:59:06.98	248.17	20.70	-35.4	-36.8	18.1	0.00e+00	0	59	0	2446327808	41	4464
2026-01-29 02:59:07.99	248.01	20.59	-35.5	-36.9	18.0	0.00e+00	0	59	0	2452619264	41	4497
2026-01-29 02:59:09.00	247.86	20.49	-35.5	-36.9	17.9	0.00e+00	0	59	0	2457862144	41	4520
2026-01-29 02:59:10.01	247.71	20.38	-35.6	-37.0	17.9	0.00e+00	0	59	0	2463105024	41	4578
2026-01-29 02:59:11.02	247.56	20.27	-35.6	-37.0	17.8	0.00e+00	0	59	0	2469396480	41	4563
2026-01-29 02:59:12.03	247.41	20.16	-35.6	-37.0	17.8	0.00e+00	0	59	0	2474639360	41	4588
2026-01-29 02:59:13.04	247.26	20.05	-35.8	-37.2	17.6	0.00e+00	0	59	0	2480930816	42	4425
2026-01-29 02:59:14.05	247.11	19.94	-35.8	-37.2	17.7	0.00e+00	0	59	0	2486173696	42	4401
2026-01-29 02:59:15.06	246.97	19.83	-35.8	-37.2	17.7	0.00e+00	0	59	0	2491416576	42	4409
2026-01-29 02:59:16.07	246.82	19.73	-35.8	-37.2	17.6	0.00e+00	0	59	0	2497708032	42	4435
2026-01-29 02:59:17.08	246.68	19.62	-35.8	-37.2	17.6	0.00e+00	0	59	0	2502950912	42	4429
2026-01-29 02:59:18.08	246.53	19.51	-36.0	-37.4	17.5	0.00e+00	0	59	0	2509242368	42	4511
2026-01-29 02:59:19.09	246.39	19.41	-36.0	-37.5	17.4	0.00e+00	0	59	0	2514485248	42	4548
2026-01-29 02:59:20.10	246.25	19.30	-36.1	-37.6	17.3	0.00e+00	0	59	0	2519728128	42	4599
2026-01-29 02:59:21.12	246.11	19.19	-36.0	-37.4	17.4	0.00e+00	0	59	0	2526019584	42	4534
2026-01-29 02:59:22.13	245.97	19.09	-36.0	-37.4	17.5	0.00e+00	0	59	0	2531262464	42	4516
2026-01-29 02:59:23.14	245.83	18.98	-36.0	-37.4	17.4	0.00e+00	0	59	0	2537553920	42	4530
2026-01-29 02:59:24.15	245.69	18.88	-36.0	-37.5	17.4	0.00e+00	0	59	0	2542796800	42	4551
2026-01-29 02:59:25.16	245.56	18.77	-35.9	-37.3	17.5	0.00e+00	0	59	0	2549088256	42	4476
2026-01-29 02:59:26.17	245.42	18.67	-36.0	-37.4	17.4	0.00e+00	0	59	0	2554331136	42	4505
2026-01-29 02:59:27.19	245.29	18.56	-35.9	-37.3	17.5	0.00e+00	0	59	0	2560622592	42	4486
2026-01-29 02:59:28.20	245.15	18.46	-36.0	-37.5	17.4	0.00e+00	0	59	0	2565865472	42	4557
2026-01-29 02:59:29.21	245.02	18.35	-36.1	-37.5	17.3	0.00e+00	0	59	0	2571108352	42	4595
2026-01-29 02:59:30.22	244.89	18.25	-36.1	-37.5	17.3	0.00e+00	0	59	0	2577399808	42	4570
2026-01-29 02:59:31.22	244.76	18.14	-36.1	-37.5	17.3	0.00e+00	0	59	0	2582642688	42	4581
2026-01-29 02:59:32.24	244.63	18.04	-36.2	-37.6	17.2	0.00e+00	0	59	0	2588934144	42	4630
2026-01-29 02:59:33.24	244.50	17.94	-36.2	-37.7	17.1	0.00e+00	0	59	0	2594177024	43	4428
2026-01-29 02:59:34.26	244.37	17.84	-36.3	-37.8	17.0	0.00e+00	0	59	0	2599419904	43	4452
2026-01-29 02:59:35.26	244.25	17.73	-36.4	-37.9	16.9	0.00e+00	0	59	0	2605711360	43	4507
2026-01-29 02:59:36.27	244.12	17.63	-36.4	-37.9	16.9	0.00e+00	0	59	0	2610954240	43	4514
2026-01-29 02:59:37.28	243.99	17.53	-36.4	-38.0	16.8	0.00e+00	0	59	0	2617245696	43	4547
2026-01-29 02:59:38.30	243.87	17.43	-36.5	-38.0	16.8	0.00e+00	0	59	0	2622488576	43	4577
2026-01-29 02:59:39.31	243.74	17.33	-36.5	-38.1	16.7	0.00e+00	0	59	0	2627731456	43	4607
2026-01-29 02:59:40.31	243.62	17.23	-36.6	-38.1	16.6	0.00e+00	0	59	0	2634022912	43	4636
2026-01-29 02:59:41.32	243.50	17.13	-36.6	-38.1	16.6	0.00e+00	0	59	0	2639265792	43	4623
2026-01-29 02:59:42.34	243.38	17.02	-36.7	-38.2	16.6	0.00e+00	0	59	0	2645557248	43	4685
2026-01-29 02:59:43.35	243.26	16.92	-36.7	-38.2	16.5	0.00e+00	0	59	0	2650800128	43	4684
2026-01-29 02:59:44.36	243.14	16.82	-36.9	-38.5	16.4	0.00e+00	0	59	0	2657091584	44	4557
2026-01-29 02:59:45.37	243.02	16.72	-37.0	-38.6	16.4	0.00e+00	0	59	0	2662334464	44	4600
2026-01-29 02:59:46.38	242.90	16.63	-37.0	-38.6	16.3	0.00e+00	0	59	0	2668625920	44	4634
2026-01-29 02:59:47.39	242.78	16.53	-37.0	-38.5	16.4	0.00e+00	0	59	0	2673868800	44	4595
2026-01-29 02:59:48.40	242.67	16.43	-37.0	-38.6	16.4	0.00e+00	0	59	0	2679111680	44	4612
2026-01-29 02:59:49.41	242.55	16.33	-37.0	-38.6	16.4	0.00e+00	0	59	0	2685403136	44	4605
2026-01-29 02:59:50.42	242.44	16.23	-37.0	-38.6	16.3	0.00e+00	0	59	0	2690646016	44	4612
2026-01-29 02:59:51.43	242.32	16.13	-37.0	-38.7	16.3	0.00e+00	0	59	0	2696937472	44	4654
2026-01-29 02:59:52.44	242.21	16.04	-36.9	-38.5	16.4	0.00e+00	0	59	0	2702180352	44	4590
2026-01-29 02:59:53.45	242.10	15.94	-37.0	-38.6	16.3	0.00e+00	0	59	0	2707423232	44	4604
2026-01-29 02:59:54.46	241.99	15.84	-37.0	-38.5	16.3	0.00e+00	0	59	0	2713714688	44	4597
2026-01-29 02:59:55.47	241.87	15.74	-37.0	-38.6	16.3	0.00e+00	0	59	0	2718957568	44	4637
2026-01-29 02:59:56.48	241.76	15.65	-37.1	-38.7	16.2	0.00e+00	0	59	0	2725249024	44	4665
2026-01-29 02:59:57.49	241.65	15.55	-37.1	-38.7	16.2	0.00e+00	0	59	0	2730491904	44	4660
2026-01-29 02:59:58.50	241.55	15.46	-37.2	-38.8	16.1	0.00e+00	0	59	0	2735734784	44	4730
2026-01-29 02:59:59.52	241.44	15.36	-37.1	-38.7	16.2	0.00e+00	0	59	0	2742026240	44	4684
2026-01-29 03:00:00.53	241.33	15.26	-37.1	-38.7	16.2	0.00e+00	0	59	0	2747269120	44	4677
2026-01-29 03:00:01.54	241.22	15.17	-37.0	-38.7	16.2	0.00e+00	0	59	0	2753560576	44	4663
2026-01-29 03:00:02.55	241.12	15.07	-37.1	-38.7	16.2	0.00e+00	0	59	0	2758803456	44	4691
2026-01-29 03:00:03.56	241.01	14.98	-37.1	-38.7	16.2	0.00e+00	0	59	0	2765094912	44	4699
2026-01-29 03:00:04.57	240.90	14.88	-37.2	-38.8	16.1	0.00e+00	0	59	0	2770337792	44	4745
2026-01-29 03:00:05.58	240.80	14.79	-37.2	-38.9	16.0	0.00e+00	0	59	0	2776629248	44	4763
2026-01-29 03:00:06.59	240.70	14.70	-37.2	-38.9	16.0	0.00e+00	0	59	0	2781872128	45	4496
2026-01-29 03:00:07.60	240.59	14.60	-37.2	-38.8	16.0	0.00e+00	0	59	0	2787115008	45	4483
2026-01-29 03:00:08.61	240.49	14.51	-37.2	-38.8	16.0	0.00e+00	0	59	0	2793406464	45	4477
2026-01-29 03:00:09.62	240.39	14.42	-37.3	-39.0	15.9	0.00e+00	0	59	0	2798649344	45	4548
2026-01-29 03:00:10.63	240.29	14.32	-37.3	-38.9	15.9	0.00e+00	0	59	0	2804940800	45	4540
2026-01-29 03:00:11.64	240.19	14.23	-37.2	-38.9	15.9	0.00e+00	0	59	0	2810183680	45	4526
2026-01-29 03:00:12.65	240.09	14.14	-37.3	-39.0	15.8	0.00e+00	0	59	0	2815426560	45	4591
2026-01-29 03:00:13.66	239.99	14.05	-37.3	-38.9	15.9	0.00e+00	0	59	0	2821718016	45	4542
2026-01-29 03:00:14.67	239.89	13.96	-37.3	-39.0	15.8	0.00e+00	0	59	0	2826960896	45	4576
2026-01-29 03:00:15.69	239.79	13.86	-37.4	-39.1	15.8	0.00e+00	0	59	0	2833252352	45	4601
2026-01-29 03:00:16.69	239.70	13.77	-37.4	-39.1	15.7	0.00e+00	0	59	0	2838495232	45	4630
2026-01-29 03:00:17.71	239.60	13.68	-37.5	-39.2	15.6	0.00e+00	0	59	0	2843738112	45	4691
2026-01-29 03:00:18.71	239.51	13.59	-37.4	-39.1	15.6	0.00e+00	0	59	0	2850029568	45	4638
2026-01-29 03:00:19.72	239.41	13.50	-37.5	-39.3	15.5	0.00e+00	0	59	0	2855272448	45	4715
2026-01-29 03:00:20.73	239.32	13.41	-37.5	-39.2	15.6	0.00e+00	0	59	0	2861563904	45	4679
2026-01-29 03:00:21.74	239.22	13.32	-37.6	-39.4	15.4	0.00e+00	0	59	0	2866806784	45	4807
2026-01-29 03:00:22.75	239.13	13.23	-37.6	-39.4	15.3	0.00e+00	0	59	0	2873098240	45	4807
2026-01-29 03:00:23.76	239.04	13.14	-37.7	-39.6	15.2	0.00e+00	0	59	0	2878341120	46	4601
2026-01-29 03:00:24.77	238.94	13.05	-37.7	-39.5	15.2	0.00e+00	0	59	0	2884632576	46	4597
2026-01-29 03:00:25.79	238.85	12.96	-37.7	-39.5	15.3	0.00e+00	0	59	0	2889875456	46	4564
2026-01-29 03:00:26.80	238.76	12.87	-37.8	-39.6	15.1	0.00e+00	0	59	0	2895118336	46	4639
2026-01-29 03:00:27.81	238.67	12.79	-37.7	-39.5	15.3	0.00e+00	0	59	0	2901409792	46	4563
2026-01-29 03:00:28.82	238.58	12.70	-37.8	-39.7	15.1	0.00e+00	0	59	0	2906652672	46	4672
2026-01-29 03:00:29.83	238.49	12.61	-37.9	-39.7	15.1	0.00e+00	0	59	0	2912944128	46	4668
2026-01-29 03:00:30.84	238.40	12.52	-37.9	-39.7	15.0	1.10e-06	0	59	0	2918187008	46	4703
2026-01-29 03:00:31.85	238.31	12.44	-37.9	-39.8	15.0	0.00e+00	0	59	0	2923429888	46	4720
2026-01-29 03:00:32.86	238.22	12.35	-37.8	-39.7	15.0	0.00e+00	0	59	0	2929721344	46	4670
2026-01-29 03:00:33.87	238.14	12.26	-37.8	-39.6	15.1	1.10e-06	0	59	0	2934964224	46	4644
2026-01-29 03:00:34.88	238.05	12.17	-37.8	-39.6	15.1	0.00e+00	0	59	0	2941255680	46	4642
2026-01-29 03:00:35.89	237.96	12.09	-37.8	-39.7	15.0	0.00e+00	0	59	0	2946498560	46	4652
2026-01-29 03:00:36.91	237.88	12.00	-37.9	-39.7	15.0	0.00e+00	0	59	0	2951741440	46	4684
2026-01-29 03:00:37.92	237.79	11.92	-37.8	-39.6	15.0	0.00e+00	0	59	0	2958032896	46	4651
2026-01-29 03:00:38.93	237.71	11.83	-37.9	-39.8	14.9	0.00e+00	0	59	0	2963275776	46	4737
2026-01-29 03:00:39.94	237.62	11.74	-37.8	-39.7	15.0	0.00e+00	0	59	0	2969567232	46	4668
2026-01-29 03:00:40.95	237.54	11.66	-37.8	-39.6	15.0	0.00e+00	0	59	0	2974810112	46	4636
2026-01-29 03:00:41.96	237.45	11.57	-37.8	-39.7	15.0	0.00e+00	0	59	0	2981101568	46	4656
2026-01-29 03:00:42.97	237.37	11.49	-37.9	-39.8	14.9	1.10e-06	0	59	0	2986344448	46	4722
2026-01-29 03:00:43.98	237.29	11.40	-37.9	-39.8	14.9	0.00e+00	0	59	0	2992635904	46	4722
2026-01-29 03:00:44.99	237.21	11.32	-37.9	-39.7	14.9	0.00e+00	0	59	0	2997878784	46	4687
2026-01-29 03:00:46.00	237.13	11.24	-37.8	-39.7	14.9	1.10e-06	0	59	0	3003121664	46	4675
2026-01-29 03:00:47.01	237.05	11.15	-38.0	-39.9	14.7	2.20e-06	0	59	0	3009413120	46	4812
2026-01-29 03:00:48.02	236.97	11.07	-38.0	-39.9	14.7	0.00e+00	0	59	0	3014656000	46	4790
2026-01-29 03:00:49.03	236.89	10.99	-38.0	-39.9	14.7	1.10e-06	0	59	0	3020947456	46	4809
2026-01-29 03:00:50.04	236.81	10.90	-38.0	-39.9	14.7	0.00e+00	0	59	0	3026190336	46	4796
2026-01-29 03:00:51.05	236.73	10.82	-38.1	-40.1	14.5	0.00e+00	0	59	0	3031433216	46	4884
2026-01-29 03:00:52.06	236.65	10.74	-38.2	-40.1	14.4	0.00e+00	0	59	0	3037724672	46	4922
2026-01-29 03:00:53.07	236.57	10.65	-38.3	-40.3	14.3	1.10e-06	0	59	0	3042967552	47	4724
2026-01-29 03:00:54.08	236.49	10.57	-38.2	-40.3	14.3	1.10e-06	0	59	0	3049259008	47	4711
2026-01-29 03:00:55.09	236.42	10.49	-38.2	-40.2	14.4	1.10e-06	0	59	0	3054501888	47	4653
2026-01-29 03:00:56.10	236.34	10.41	-38.2	-40.2	14.4	3.40e-06	0	59	0	3059744768	47	4678
2026-01-29 03:00:57.11	236.26	10.33	-38.3	-40.3	14.2	0.00e+00	0	59	0	3066036224	47	4750
2026-01-29 03:00:58.12	236.19	10.25	-38.2	-40.3	14.2	3.40e-06	0	59	0	3071279104	47	4712
2026-01-29 03:00:59.13	236.11	10.16	-38.1	-40.1	14.4	1.10e-06	0	59	0	3077570560	47	4629
2026-01-29 03:01:00.14	236.04	10.08	-38.3	-40.3	14.3	0.00e+00	0	59	0	3082813440	47	4719
