passes_logs/2026/01/29/R2.0S_Moscow/R2.0S_Moscow__20260129_013055_AQUA_rec.log

#Pass ID: 20260129_013055_AQUA
#Satellite: AQUA
#Configuration: AQUA
#almurnet v.1.7.20251203
#Start time: 2026-01-29 01:35:43

#Version: 2.2.20231116
#Station: R2.0S_Moscow
#Location: 37.707566 lon 55.798166 lat
#TLE: 1 27424U 02022A   26027.88561574  .00001798  00000+0  36942-3 0  9997
#TLE: 2 27424  98.4102 354.5311 0001840  63.5604 322.5877 14.61868111262779

#Time	Az	El	Level	Level2	SNR	BER	BlckErr	Temp	State	Recorded	gain1	gain2
2026-01-29 01:35:43.03	7.73	40.80	-44.9	-57.5	3.8	1.49e+00	0	59	0	0	60	16240
2026-01-29 01:35:44.03	7.62	41.11	-46.3	-65.2	3.8	7.45e-01	0	60	104	0	63	32949
2026-01-29 01:35:45.04	7.52	41.43	-46.3	-65.1	3.8	7.45e-01	0	60	104	0	63	32927
2026-01-29 01:35:46.05	7.40	41.75	-46.2	-65.1	3.8	7.49e-01	0	59	104	0	63	32726
2026-01-29 01:35:47.07	7.29	42.08	-46.2	-65.1	3.8	7.45e-01	0	60	104	0	63	32569
2026-01-29 01:35:48.07	7.17	42.40	-46.2	-65.1	3.8	7.48e-01	0	60	104	0	63	32556
2026-01-29 01:35:49.08	7.06	42.73	-46.2	-65.0	3.8	7.43e-01	0	60	104	0	63	32440
2026-01-29 01:35:50.09	6.94	43.07	-46.2	-65.1	3.8	7.44e-01	0	60	104	0	63	32573
2026-01-29 01:35:51.10	6.81	43.40	-46.2	-65.1	3.8	7.46e-01	0	60	104	0	63	32581
2026-01-29 01:35:52.12	6.68	43.74	-46.2	-65.1	3.8	7.43e-01	0	60	104	0	63	32615
2026-01-29 01:35:53.12	6.56	44.08	-46.2	-65.1	3.8	7.43e-01	0	60	104	0	63	32575
2026-01-29 01:35:54.14	6.42	44.43	-46.2	-65.1	3.8	7.44e-01	0	60	104	0	63	32615
2026-01-29 01:35:55.14	6.29	44.77	-46.2	-65.0	3.8	7.44e-01	0	60	104	0	63	32480
2026-01-29 01:35:56.15	6.15	45.12	-46.2	-65.0	3.8	7.48e-01	0	60	104	0	63	32377
2026-01-29 01:35:57.17	6.01	45.48	-46.1	-65.0	3.8	7.45e-01	0	60	104	0	63	32266
2026-01-29 01:35:58.18	5.86	45.84	-46.1	-65.0	3.8	7.47e-01	0	60	104	0	63	32188
2026-01-29 01:35:59.18	5.72	46.20	-46.1	-65.0	3.8	7.45e-01	0	60	104	0	63	32302
2026-01-29 01:36:00.19	5.56	46.56	-46.1	-65.0	3.8	7.43e-01	0	60	104	0	63	32342
2026-01-29 01:36:01.20	5.41	46.92	-46.1	-65.0	3.8	7.47e-01	0	60	104	0	63	32322
2026-01-29 01:36:02.21	5.25	47.29	-46.1	-65.0	3.8	7.45e-01	0	60	104	0	63	32414
2026-01-29 01:36:03.22	5.08	47.67	-46.1	-65.0	3.8	7.44e-01	0	60	104	0	63	32187
2026-01-29 01:36:04.23	4.92	48.04	-46.1	-64.9	3.8	7.46e-01	0	60	104	0	63	32124
2026-01-29 01:36:05.24	4.74	48.42	-46.1	-64.9	3.8	7.48e-01	0	60	104	0	63	32130
2026-01-29 01:36:06.25	4.57	48.80	-46.1	-64.9	3.8	7.45e-01	0	60	104	0	63	32027
2026-01-29 01:36:07.26	4.39	49.19	-46.1	-64.9	3.8	7.44e-01	0	60	104	0	63	31886
2026-01-29 01:36:08.27	4.20	49.58	-46.1	-64.9	3.8	7.49e-01	0	60	104	0	63	32096
2026-01-29 01:36:09.28	4.01	49.97	-46.1	-64.9	3.8	7.45e-01	0	60	104	0	63	32170
2026-01-29 01:36:10.29	3.82	50.36	-46.1	-64.9	3.8	7.45e-01	0	60	104	0	63	32178
2026-01-29 01:36:11.31	3.61	50.77	-46.1	-64.9	3.8	7.46e-01	0	59	104	0	63	32130
2026-01-29 01:36:12.32	3.41	51.17	-46.1	-64.9	3.8	7.45e-01	0	60	104	0	63	31935
2026-01-29 01:36:13.33	3.19	51.57	-46.1	-64.9	3.8	7.44e-01	0	60	104	0	63	31863
2026-01-29 01:36:14.34	2.97	51.98	-46.1	-64.9	3.8	7.45e-01	0	60	104	0	63	31848
2026-01-29 01:36:15.35	2.75	52.39	-46.1	-65.0	3.8	7.46e-01	0	60	104	0	63	32206
2026-01-29 01:36:16.36	2.52	52.81	-46.1	-65.0	3.8	7.44e-01	0	60	104	0	63	32206
2026-01-29 01:36:17.37	2.28	53.22	-46.1	-64.8	3.8	7.46e-01	0	59	104	0	63	31719
2026-01-29 01:36:18.38	2.03	53.64	-46.1	-64.6	3.8	7.45e-01	0	60	104	0	63	31015
2026-01-29 01:36:19.39	1.78	54.07	-46.1	-64.8	3.8	7.45e-01	0	60	104	0	63	31528
2026-01-29 01:36:20.39	1.52	54.49	-46.1	-64.6	3.8	7.49e-01	0	60	104	0	63	31045
2026-01-29 01:36:21.41	1.25	54.92	-46.1	-64.5	3.8	7.46e-01	0	60	104	0	63	30456
2026-01-29 01:36:22.42	0.97	55.36	-46.1	-64.9	3.8	7.47e-01	0	59	104	0	63	31814
2026-01-29 01:36:23.43	0.69	55.79	-46.1	-65.0	3.8	7.50e-01	0	60	104	0	63	32231
2026-01-29 01:36:24.44	0.39	56.23	-46.1	-64.8	3.8	7.47e-01	0	60	104	0	63	31510
2026-01-29 01:36:25.45	0.09	56.67	-46.0	-63.6	3.8	7.43e-01	0	60	104	0	63	27504
2026-01-29 01:36:26.46	359.77	57.12	-46.1	-63.6	3.8	7.46e-01	0	60	104	0	63	27632
2026-01-29 01:36:27.47	359.45	57.57	-46.1	-64.3	3.8	7.47e-01	0	60	104	0	63	29941
2026-01-29 01:36:28.48	359.11	58.02	-46.1	-64.5	3.8	7.49e-01	0	60	104	0	63	30517
2026-01-29 01:36:29.49	358.76	58.47	-46.0	-61.9	3.9	7.36e-01	0	60	104	0	63	22606
2026-01-29 01:36:30.50	358.40	58.92	-45.8	-57.6	6.2	6.80e-01	91	60	0	0	63	13856
2026-01-29 01:36:31.51	358.03	59.38	-45.8	-58.2	5.8	6.92e-01	49	60	0	2097152	63	14781
2026-01-29 01:36:32.52	357.64	59.84	-45.6	-55.3	8.2	6.41e-01	63	60	0	3670016	63	10627
2026-01-29 01:36:33.53	357.24	60.30	-45.1	-52.5	11.3	6.08e-01	0	60	0	5242880	62	8158
2026-01-29 01:36:34.54	356.82	60.77	-45.9	-59.0	5.4	7.05e-01	0	60	0	7340032	62	17246
2026-01-29 01:36:35.55	356.39	61.23	-44.5	-50.5	13.1	6.02e-01	0	60	0	8388608	61	6832
2026-01-29 01:36:36.56	355.94	61.70	-42.5	-45.8	18.4	6.02e-01	0	59	0	10485760	57	5040
2026-01-29 01:36:37.57	355.47	62.17	-42.5	-45.7	18.7	6.01e-01	0	60	0	12058624	56	5232
2026-01-29 01:36:38.58	354.99	62.65	-43.6	-47.7	17.3	6.02e-01	0	59	0	14155776	57	6224
2026-01-29 01:36:39.59	354.48	63.12	-42.7	-46.0	18.5	6.04e-01	0	60	0	16252928	57	5116
2026-01-29 01:36:40.60	353.96	63.59	-43.9	-48.3	16.0	6.03e-01	0	60	0	17825792	59	5986
2026-01-29 01:36:41.61	353.41	64.07	-43.1	-46.8	17.8	6.03e-01	0	60	0	19922944	57	5644
2026-01-29 01:36:42.62	352.84	64.55	-44.0	-48.6	15.7	6.01e-01	0	60	0	21495808	59	6146
2026-01-29 01:36:43.63	352.24	65.03	-43.7	-47.9	16.5	6.03e-01	0	60	0	23592960	58	6033
2026-01-29 01:36:44.64	351.62	65.51	-44.1	-48.7	15.6	6.03e-01	0	60	0	25690112	58	6625
2026-01-29 01:36:45.65	350.97	65.98	-43.7	-48.0	16.3	6.02e-01	0	60	0	27262976	58	6097
2026-01-29 01:36:46.66	350.29	66.46	-44.0	-48.6	15.8	6.04e-01	0	60	0	29360128	58	6537
2026-01-29 01:36:47.67	349.58	66.94	-44.4	-49.6	14.8	6.02e-01	0	60	0	31457280	59	6912
2026-01-29 01:36:48.68	348.83	67.42	-43.8	-48.1	16.2	6.04e-01	0	59	0	33030144	59	5827
2026-01-29 01:36:49.69	348.05	67.90	-44.1	-48.9	15.6	6.02e-01	0	60	0	35127296	59	6381
2026-01-29 01:36:50.70	347.23	68.37	-44.1	-48.8	15.5	6.03e-01	0	60	0	36700160	59	6336
2026-01-29 01:36:51.71	346.38	68.85	-43.9	-48.3	16.0	6.01e-01	0	60	0	38797312	59	5983
2026-01-29 01:36:52.72	345.47	69.32	-43.8	-48.2	16.2	6.02e-01	0	60	0	40894464	59	5920
2026-01-29 01:36:53.73	344.53	69.79	-44.1	-49.0	15.3	6.01e-01	0	60	0	42467328	59	6491
2026-01-29 01:36:54.74	343.53	70.26	-43.7	-48.1	16.3	6.02e-01	0	60	0	44564480	59	5792
2026-01-29 01:36:55.75	342.49	70.72	-43.6	-47.9	16.4	6.02e-01	0	60	0	46661632	59	5686
2026-01-29 01:36:56.76	341.39	71.18	-43.9	-48.5	15.9	6.04e-01	0	60	0	48234496	59	6111
2026-01-29 01:36:57.77	340.23	71.63	-43.6	-47.8	16.6	6.01e-01	0	60	0	50331648	59	5606
2026-01-29 01:36:58.78	339.00	72.08	-43.6	-47.7	16.6	6.00e-01	0	60	0	51904512	58	5921
2026-01-29 01:36:59.79	337.72	72.52	-44.0	-48.8	15.5	6.02e-01	0	60	0	54001664	58	6663
2026-01-29 01:37:00.79	336.37	72.96	-43.5	-47.7	16.6	6.01e-01	0	60	0	56098816	58	5871
2026-01-29 01:37:01.80	334.94	73.38	-43.8	-48.4	15.9	6.02e-01	0	60	0	57671680	58	6364
2026-01-29 01:37:02.81	333.43	73.80	-43.9	-48.6	15.7	6.03e-01	0	60	0	59768832	58	6502
2026-01-29 01:37:03.82	331.83	74.21	-43.8	-48.3	16.0	6.00e-01	0	60	0	61341696	58	6308
2026-01-29 01:37:04.83	330.15	74.61	-43.8	-48.2	16.0	5.99e-01	0	59	0	63438848	58	6257
2026-01-29 01:37:05.84	328.37	74.99	-43.7	-48.1	16.1	6.00e-01	0	60	0	65536000	58	6196
2026-01-29 01:37:06.85	326.50	75.37	-43.6	-47.9	16.3	6.01e-01	0	60	0	67108864	58	6054
2026-01-29 01:37:07.85	324.56	75.72	-43.7	-48.1	16.2	6.01e-01	0	60	0	69206016	58	6181
2026-01-29 01:37:08.86	322.48	76.06	-43.9	-48.7	15.4	6.03e-01	0	60	0	70778880	58	6623
2026-01-29 01:37:09.87	320.31	76.38	-43.2	-47.0	17.3	6.01e-01	0	59	0	72876032	58	5425
2026-01-29 01:37:10.88	318.03	76.69	-43.6	-47.8	16.5	6.03e-01	0	60	0	74973184	58	5987
2026-01-29 01:37:11.89	315.64	76.97	-43.3	-47.3	17.0	6.02e-01	0	60	0	76546048	58	5606
2026-01-29 01:37:12.90	313.14	77.23	-43.1	-47.0	17.3	6.01e-01	0	60	0	78643200	58	5406
2026-01-29 01:37:13.91	310.55	77.47	-43.1	-46.9	17.3	6.02e-01	0	60	0	80216064	57	5669
2026-01-29 01:37:14.92	307.85	77.68	-43.4	-47.5	16.7	6.02e-01	0	59	0	82313216	57	6103
2026-01-29 01:37:15.93	305.07	77.86	-42.6	-46.0	18.1	6.04e-01	0	60	0	84410368	57	5155
2026-01-29 01:37:16.94	302.21	78.02	-43.0	-46.8	17.4	6.01e-01	0	60	0	85983232	56	5974
2026-01-29 01:37:17.95	299.27	78.14	-42.7	-46.1	18.1	6.02e-01	0	60	0	88080384	56	5507
2026-01-29 01:37:18.96	296.28	78.24	-42.3	-45.6	18.6	6.02e-01	0	60	0	89653248	56	5181
2026-01-29 01:37:19.97	293.25	78.30	-42.4	-45.8	18.5	6.01e-01	0	60	0	91750400	56	5280
2026-01-29 01:37:20.98	290.19	78.33	-42.3	-45.5	18.7	6.04e-01	0	60	0	93847552	56	5101
2026-01-29 01:37:21.99	287.13	78.33	-42.1	-45.3	18.9	6.03e-01	0	59	0	95420416	56	4995
2026-01-29 01:37:23.00	284.08	78.29	-42.3	-45.6	18.7	6.02e-01	0	59	0	97517568	56	5173
2026-01-29 01:37:24.01	281.05	78.22	-42.4	-45.8	18.4	6.01e-01	0	59	0	99614720	56	5298
2026-01-29 01:37:25.02	278.07	78.12	-42.4	-45.8	18.4	6.04e-01	0	60	0	101187584	56	5294
2026-01-29 01:37:26.03	275.14	77.99	-42.8	-46.5	17.7	6.01e-01	0	59	0	103284736	56	5739
2026-01-29 01:37:27.04	272.29	77.83	-42.6	-46.0	18.2	6.02e-01	0	59	0	104857600	56	5408
2026-01-29 01:37:28.05	269.52	77.65	-43.0	-46.7	17.6	6.04e-01	0	59	0	106954752	56	5878
2026-01-29 01:37:29.06	266.84	77.43	-42.7	-46.1	18.0	6.03e-01	0	60	0	109051904	56	5522
2026-01-29 01:37:30.07	264.26	77.19	-42.8	-46.4	17.8	6.00e-01	0	59	0	110624768	56	5703
2026-01-29 01:37:31.08	261.78	76.93	-42.6	-46.0	18.2	6.03e-01	0	60	0	112721920	56	5438
2026-01-29 01:37:32.09	259.41	76.64	-43.2	-47.2	17.0	5.99e-01	0	60	0	114819072	56	6204
2026-01-29 01:37:33.10	257.14	76.33	-42.9	-46.5	17.6	6.04e-01	0	60	0	116391936	56	5786
2026-01-29 01:37:34.11	254.98	76.00	-43.1	-46.9	17.3	6.02e-01	0	59	0	118489088	56	6041
2026-01-29 01:37:35.12	252.93	75.66	-43.3	-47.3	16.8	6.02e-01	0	59	0	120061952	57	5986
2026-01-29 01:37:36.13	250.97	75.30	-43.1	-46.9	17.3	6.01e-01	0	59	0	122159104	57	5711
2026-01-29 01:37:37.14	249.12	74.92	-43.4	-47.5	16.7	5.99e-01	0	60	0	124256256	57	6103
2026-01-29 01:37:38.15	247.36	74.54	-43.6	-47.9	16.3	6.03e-01	0	59	0	125829120	57	6400
2026-01-29 01:37:39.16	245.69	74.14	-43.4	-47.4	16.9	6.01e-01	0	59	0	127926272	57	6037
2026-01-29 01:37:40.17	244.11	73.73	-43.8	-48.3	15.9	6.02e-01	0	59	0	129499136	58	6317
2026-01-29 01:37:41.18	242.61	73.30	-43.7	-48.1	16.1	6.03e-01	0	59	0	131596288	58	6180
2026-01-29 01:37:42.19	241.19	72.88	-43.6	-48.0	16.1	6.02e-01	0	60	0	133693440	58	6074
2026-01-29 01:37:43.20	239.85	72.44	-43.5	-47.7	16.6	6.05e-01	0	60	0	135266304	58	5867
2026-01-29 01:37:44.21	238.57	71.99	-43.8	-48.5	15.8	6.03e-01	0	59	0	137363456	58	6427
2026-01-29 01:37:45.22	237.36	71.54	-43.8	-48.3	15.9	5.98e-01	0	60	0	138936320	58	6312
2026-01-29 01:37:46.23	236.21	71.09	-43.5	-47.7	16.6	6.02e-01	0	60	0	141033472	58	5908
2026-01-29 01:37:47.24	235.12	70.63	-44.0	-48.9	15.4	6.03e-01	0	60	0	143130624	58	6794
2026-01-29 01:37:48.25	234.08	70.16	-44.1	-49.2	15.1	6.03e-01	0	59	0	144703488	58	6973
2026-01-29 01:37:49.26	233.09	69.69	-43.9	-48.5	15.7	6.01e-01	0	60	0	146800640	58	6441
2026-01-29 01:37:50.27	232.15	69.22	-44.3	-49.7	14.5	6.00e-01	0	60	0	148373504	59	6996
2026-01-29 01:37:51.28	231.26	68.75	-44.3	-49.6	14.6	6.00e-01	0	60	0	150470656	59	6914
2026-01-29 01:37:52.28	230.42	68.28	-44.3	-49.6	14.6	6.00e-01	0	59	0	152567808	59	6903
2026-01-29 01:37:53.30	229.60	67.79	-44.3	-49.6	14.5	6.04e-01	0	59	0	154140672	59	6929
2026-01-29 01:37:54.30	228.83	67.32	-44.5	-50.2	14.0	5.98e-01	0	59	0	156237824	59	7400
2026-01-29 01:37:55.31	228.09	66.84	-44.4	-49.9	14.1	6.04e-01	0	60	0	157810688	59	7149
2026-01-29 01:37:56.32	227.39	66.36	-44.0	-49.0	15.2	6.03e-01	0	59	0	159907840	59	6422
2026-01-29 01:37:57.33	226.71	65.88	-43.6	-47.9	16.3	6.03e-01	0	60	0	162004992	59	5701
2026-01-29 01:37:58.35	226.06	65.40	-43.7	-48.2	16.0	6.00e-01	0	59	0	163577856	59	5881
2026-01-29 01:37:59.36	225.44	64.92	-43.6	-48.0	16.2	6.00e-01	0	59	0	165675008	59	5732
2026-01-29 01:38:00.36	224.85	64.44	-43.2	-47.1	17.1	6.01e-01	0	60	0	167772160	58	5486
2026-01-29 01:38:01.37	224.29	63.96	-43.1	-47.0	17.2	5.98e-01	0	59	0	169345024	58	5410
2026-01-29 01:38:02.38	223.74	63.49	-42.6	-46.0	18.2	5.99e-01	0	59	0	171442176	56	5456
2026-01-29 01:38:03.39	223.22	63.01	-43.2	-47.1	17.1	6.03e-01	0	60	0	173015040	57	5839
2026-01-29 01:38:04.41	222.71	62.53	-42.9	-46.6	17.6	6.00e-01	0	59	0	175112192	57	5498
2026-01-29 01:38:05.41	222.23	62.06	-42.2	-45.2	19.0	6.01e-01	0	60	0	177209344	56	4981
2026-01-29 01:38:06.42	221.77	61.59	-42.5	-45.8	18.5	6.02e-01	0	59	0	178782208	56	5330
2026-01-29 01:38:07.43	221.32	61.12	-42.5	-45.7	18.5	6.04e-01	0	60	0	180879360	56	5265
2026-01-29 01:38:08.44	220.89	60.65	-42.6	-46.0	18.2	6.05e-01	0	59	0	182976512	56	5458
2026-01-29 01:38:09.45	220.48	60.19	-42.4	-45.6	18.7	6.04e-01	0	60	0	184549376	56	5174
2026-01-29 01:38:10.46	220.08	59.72	-42.1	-45.2	19.0	6.00e-01	0	59	0	186646528	56	4964
2026-01-29 01:38:11.47	219.69	59.26	-41.9	-44.9	19.2	6.03e-01	0	60	0	188219392	55	5089
2026-01-29 01:38:12.48	219.32	58.80	-42.1	-45.3	18.9	6.01e-01	0	60	0	190316544	55	5285
2026-01-29 01:38:13.49	218.96	58.35	-42.2	-45.5	18.6	6.03e-01	0	59	0	192413696	55	5435
2026-01-29 01:38:14.50	218.62	57.90	-41.5	-44.3	19.8	6.02e-01	0	60	0	193986560	55	4728
2026-01-29 01:38:15.51	218.28	57.44	-41.5	-44.2	20.0	6.04e-01	0	60	0	196083712	54	4965
2026-01-29 01:38:16.52	217.96	57.00	-41.4	-44.1	20.1	6.02e-01	0	60	0	197656576	54	4874
2026-01-29 01:38:17.53	217.64	56.55	-41.5	-44.4	19.9	6.00e-01	0	59	0	199753728	54	5043
2026-01-29 01:38:18.53	217.34	56.11	-41.3	-44.0	20.2	5.99e-01	0	60	0	201850880	54	4837
2026-01-29 01:38:19.55	217.05	55.67	-41.2	-43.8	20.3	5.99e-01	0	59	0	203423744	54	4737
2026-01-29 01:38:20.55	216.76	55.24	-40.7	-43.1	21.0	6.05e-01	0	59	0	205520896	53	4619
2026-01-29 01:38:21.57	216.49	54.80	-40.1	-42.3	21.7	6.01e-01	0	59	0	207093760	52	4491
2026-01-29 01:38:22.58	216.22	54.37	-40.0	-42.2	21.9	6.00e-01	0	59	0	209190912	52	4417
2026-01-29 01:38:23.59	215.96	53.94	-40.2	-42.4	21.7	6.01e-01	0	59	0	211288064	52	4532
2026-01-29 01:38:24.60	215.71	53.52	-40.6	-43.0	21.1	6.01e-01	0	59	0	212860928	52	4847
2026-01-29 01:38:25.61	215.46	53.10	-40.6	-43.1	21.0	6.02e-01	0	60	0	214958080	52	4883
2026-01-29 01:38:26.62	215.22	52.68	-40.4	-42.7	21.4	6.02e-01	0	59	0	216530944	52	4665
2026-01-29 01:38:27.63	214.99	52.26	-40.3	-42.6	21.6	5.99e-01	0	60	0	218628096	52	4603
2026-01-29 01:38:28.64	214.77	51.85	-40.5	-42.9	21.2	6.04e-01	0	59	0	220725248	52	4802
2026-01-29 01:38:29.64	214.55	51.45	-40.7	-43.1	21.1	6.06e-01	0	60	0	222298112	52	4884
2026-01-29 01:38:30.65	214.34	51.04	-40.9	-43.4	20.8	6.00e-01	0	59	0	224395264	52	5064
2026-01-29 01:38:31.67	214.13	50.63	-41.2	-43.9	20.3	6.02e-01	0	59	0	225968128	52	5370
2026-01-29 01:38:32.68	213.93	50.23	-41.3	-44.0	20.1	6.01e-01	0	59	0	228065280	53	5143
2026-01-29 01:38:33.69	213.74	49.84	-41.1	-43.6	20.5	6.04e-01	0	59	0	230162432	53	4924
2026-01-29 01:38:34.70	213.55	49.45	-40.9	-43.3	20.7	5.99e-01	0	59	0	231735296	53	4751
2026-01-29 01:38:35.71	213.36	49.06	-40.8	-43.3	20.8	6.01e-01	0	59	0	233832448	53	4737
2026-01-29 01:38:36.72	213.18	48.67	-41.1	-43.7	20.5	6.02e-01	0	60	0	235929600	53	4933
2026-01-29 01:38:37.73	213.01	48.29	-41.3	-44.0	20.2	6.00e-01	0	59	0	237502464	53	5102
2026-01-29 01:38:38.74	212.83	47.91	-41.5	-44.4	19.8	6.00e-01	0	60	0	239599616	53	5359
2026-01-29 01:38:39.75	212.67	47.53	-41.5	-44.3	19.8	6.00e-01	0	59	0	241172480	53	5300
2026-01-29 01:38:40.76	212.50	47.16	-41.3	-44.0	20.2	6.02e-01	0	59	0	243269632	53	5108
2026-01-29 01:38:41.77	212.35	46.79	-41.0	-43.6	20.5	6.00e-01	0	59	0	245366784	53	4900
2026-01-29 01:38:42.78	212.19	46.42	-41.0	-43.6	20.5	6.00e-01	0	59	0	246939648	53	4913
2026-01-29 01:38:43.79	212.04	46.06	-41.1	-43.7	20.4	6.00e-01	0	59	0	249036800	53	4942
2026-01-29 01:38:44.80	211.89	45.70	-41.0	-43.6	20.5	5.98e-01	0	59	0	251133952	53	4880
2026-01-29 01:38:45.81	211.75	45.34	-41.0	-43.6	20.2	6.01e-01	0	59	0	252706816	53	4872
2026-01-29 01:38:46.82	211.60	44.98	-41.0	-43.6	20.5	6.02e-01	0	59	0	254803968	53	4896
2026-01-29 01:38:47.83	211.47	44.63	-41.2	-43.8	20.2	6.04e-01	0	59	0	256376832	53	5032
2026-01-29 01:38:48.84	211.33	44.28	-41.1	-43.8	20.3	6.05e-01	0	59	0	258473984	53	5005
2026-01-29 01:38:49.85	211.20	43.94	-41.1	-43.8	20.3	5.99e-01	0	59	0	260571136	53	5004
2026-01-29 01:38:50.86	211.07	43.60	-41.2	-43.9	20.1	6.04e-01	0	59	0	262144000	53	5063
2026-01-29 01:38:51.87	210.94	43.26	-41.2	-44.0	20.0	6.00e-01	0	59	0	264241152	53	5105
2026-01-29 01:38:52.88	210.82	42.92	-41.1	-43.7	20.3	6.00e-01	0	59	0	265814016	53	4949
2026-01-29 01:38:53.89	210.70	42.59	-41.0	-43.6	20.4	6.00e-01	0	59	0	267911168	53	4911
2026-01-29 01:38:54.90	210.58	42.26	-41.2	-43.9	20.1	6.03e-01	0	59	0	270008320	53	5076
2026-01-29 01:38:55.91	210.46	41.93	-41.5	-44.3	19.7	6.02e-01	0	59	0	271581184	53	5329
2026-01-29 01:38:56.92	210.35	41.61	-41.8	-44.8	19.3	6.01e-01	0	59	0	273678336	54	5302
2026-01-29 01:38:57.93	210.24	41.28	-42.1	-45.3	18.8	6.04e-01	0	59	0	275251200	54	5598
2026-01-29 01:38:58.94	210.13	40.97	-42.2	-45.6	18.5	6.03e-01	0	59	0	277348352	55	5480
2026-01-29 01:38:59.95	210.02	40.65	-42.1	-45.3	18.8	6.01e-01	0	59	0	279445504	55	5283
2026-01-29 01:39:00.95	209.92	40.34	-41.9	-45.0	19.0	6.03e-01	0	59	0	281018368	55	5153
2026-01-29 01:39:01.96	209.82	40.03	-42.0	-45.2	18.8	6.02e-01	0	59	0	283115520	55	5239
2026-01-29 01:39:02.97	209.72	39.72	-42.2	-45.4	18.7	6.01e-01	0	59	0	284688384	55	5377
2026-01-29 01:39:03.98	209.62	39.42	-42.2	-45.4	18.6	6.04e-01	0	59	0	286785536	55	5383
2026-01-29 01:39:04.99	209.52	39.11	-42.2	-45.4	18.7	6.00e-01	0	59	0	288882688	55	5365
2026-01-29 01:39:06.00	209.43	38.81	-42.2	-45.5	18.6	6.02e-01	0	59	0	290455552	55	5426
2026-01-29 01:39:07.01	209.34	38.52	-42.3	-45.7	18.3	6.00e-01	0	59	0	292552704	55	5581
2026-01-29 01:39:08.02	209.24	38.22	-42.3	-45.7	18.4	6.01e-01	0	60	0	294125568	55	5536
2026-01-29 01:39:09.03	209.16	37.93	-42.1	-45.3	18.8	5.99e-01	0	59	0	296222720	55	5331
2026-01-29 01:39:10.04	209.07	37.64	-41.9	-45.0	19.0	6.06e-01	0	59	0	298319872	55	5145
2026-01-29 01:39:11.05	208.98	37.36	-42.0	-45.1	19.0	6.04e-01	0	59	0	299892736	55	5173
2026-01-29 01:39:12.06	208.90	37.07	-42.0	-45.2	18.9	6.01e-01	0	59	0	301989888	55	5243
2026-01-29 01:39:13.07	208.81	36.79	-42.1	-45.3	18.7	6.00e-01	0	59	0	304087040	55	5329
2026-01-29 01:39:14.08	208.73	36.51	-42.1	-45.3	18.8	6.02e-01	0	59	0	305659904	55	5298
2026-01-29 01:39:15.09	208.65	36.23	-42.1	-45.3	18.8	6.03e-01	0	59	0	307757056	55	5281
2026-01-29 01:39:16.10	208.57	35.96	-41.9	-44.9	19.1	6.00e-01	0	59	0	309329920	55	5086
2026-01-29 01:39:17.11	208.50	35.69	-41.7	-44.7	19.4	6.01e-01	0	59	0	311427072	55	4944
2026-01-29 01:39:18.13	208.42	35.42	-41.7	-44.6	19.5	6.02e-01	0	59	0	313524224	55	4909
2026-01-29 01:39:19.14	208.35	35.15	-41.4	-44.3	19.8	6.04e-01	0	59	0	315097088	54	4997
2026-01-29 01:39:20.14	208.27	34.89	-41.2	-44.0	20.0	6.04e-01	0	59	0	317194240	54	4820
2026-01-29 01:39:21.15	208.20	34.62	-41.2	-43.8	20.2	6.01e-01	0	59	0	319291392	54	4756
2026-01-29 01:39:22.16	208.13	34.36	-41.1	-43.8	20.2	6.03e-01	0	59	0	320864256	54	4737
2026-01-29 01:39:23.17	208.06	34.11	-41.2	-43.9	20.1	6.04e-01	0	59	0	322961408	54	4770
2026-01-29 01:39:24.18	207.99	33.85	-41.2	-44.0	20.0	5.99e-01	0	59	0	324534272	54	4817
2026-01-29 01:39:25.19	207.92	33.60	-41.0	-43.7	20.3	6.01e-01	0	59	0	326631424	54	4677
2026-01-29 01:39:26.21	207.86	33.34	-41.0	-43.7	20.3	6.00e-01	0	59	0	328728576	54	4663
2026-01-29 01:39:27.21	207.79	33.10	-40.8	-43.4	20.6	6.02e-01	0	59	0	330301440	53	4773
2026-01-29 01:39:28.23	207.73	32.85	-40.7	-43.2	20.8	6.01e-01	0	59	0	332398592	53	4665
2026-01-29 01:39:29.23	207.67	32.60	-40.7	-43.2	20.7	5.99e-01	0	59	0	333971456	53	4686
2026-01-29 01:39:30.25	207.60	32.36	-40.6	-43.0	20.9	6.03e-01	0	59	0	336068608	53	4581
2026-01-29 01:39:31.26	207.54	32.12	-40.5	-43.0	21.0	6.02e-01	0	59	0	338165760	53	4552
2026-01-29 01:39:32.26	207.48	31.88	-40.5	-43.0	20.9	6.03e-01	0	59	0	339738624	53	4559
2026-01-29 01:39:33.27	207.42	31.64	-40.5	-43.0	21.0	6.01e-01	0	59	0	341835776	53	4555
2026-01-29 01:39:34.28	207.37	31.41	-40.4	-42.9	21.1	6.05e-01	0	59	0	343932928	52	4764
2026-01-29 01:39:35.29	207.31	31.18	-40.5	-42.9	21.0	6.00e-01	0	59	0	345505792	52	4792
2026-01-29 01:39:36.30	207.25	30.94	-40.6	-43.0	20.9	6.03e-01	0	59	0	347602944	52	4858
2026-01-29 01:39:37.32	207.20	30.71	-40.6	-43.0	20.9	6.00e-01	0	59	0	349175808	52	4863
2026-01-29 01:39:38.33	207.14	30.49	-40.6	-43.1	20.9	6.03e-01	0	59	0	351272960	52	4879
2026-01-29 01:39:39.33	207.09	30.26	-40.6	-43.0	20.9	6.01e-01	0	59	0	353370112	52	4859
2026-01-29 01:39:40.34	207.03	30.04	-40.6	-43.0	20.9	6.03e-01	0	59	0	354942976	52	4854
2026-01-29 01:39:41.36	206.98	29.82	-40.5	-43.0	20.9	6.03e-01	0	59	0	357040128	52	4816
2026-01-29 01:39:42.37	206.93	29.60	-40.4	-42.8	21.1	6.03e-01	0	59	0	358612992	52	4739
2026-01-29 01:39:43.38	206.88	29.38	-40.4	-42.8	21.1	6.02e-01	0	59	0	360710144	52	4727
2026-01-29 01:39:44.39	206.83	29.16	-40.4	-42.7	21.1	6.02e-01	0	59	0	362807296	52	4700
2026-01-29 01:39:45.40	206.78	28.95	-40.3	-42.7	21.2	6.03e-01	0	59	0	364380160	52	4662
2026-01-29 01:39:46.41	206.73	28.73	-40.3	-42.6	21.3	6.02e-01	0	59	0	366477312	52	4629
2026-01-29 01:39:47.42	206.68	28.52	-40.3	-42.7	21.2	6.02e-01	0	59	0	368050176	52	4692
2026-01-29 01:39:48.43	206.64	28.31	-40.4	-42.8	21.1	6.04e-01	0	59	0	370147328	52	4742
2026-01-29 01:39:49.44	206.59	28.11	-40.5	-42.9	21.0	6.03e-01	0	59	0	372244480	52	4776
2026-01-29 01:39:50.45	206.54	27.90	-40.5	-43.0	20.8	6.02e-01	0	59	0	373817344	52	4829
2026-01-29 01:39:51.46	206.50	27.69	-40.5	-43.0	20.9	6.02e-01	0	59	0	375914496	52	4818
2026-01-29 01:39:52.47	206.45	27.49	-40.6	-43.0	20.8	6.04e-01	0	59	0	377487360	52	4862
2026-01-29 01:39:53.48	206.41	27.29	-40.5	-43.0	20.8	6.05e-01	0	59	0	379584512	52	4850
2026-01-29 01:39:54.49	206.37	27.09	-40.5	-43.0	20.9	5.99e-01	0	59	0	381681664	52	4826
2026-01-29 01:39:55.50	206.32	26.89	-40.6	-43.1	20.7	6.00e-01	0	59	0	383254528	52	4893
2026-01-29 01:39:56.51	206.28	26.70	-40.7	-43.3	20.6	6.01e-01	0	59	0	385351680	52	4994
2026-01-29 01:39:57.52	206.24	26.50	-40.8	-43.4	20.5	6.05e-01	0	59	0	387448832	52	5066
2026-01-29 01:39:58.53	206.20	26.31	-40.9	-43.5	20.3	5.99e-01	0	59	0	389021696	52	5137
2026-01-29 01:39:59.54	206.16	26.11	-41.0	-43.7	20.1	6.01e-01	0	59	0	391118848	52	5247
2026-01-29 01:40:00.55	206.12	25.92	-40.9	-43.6	20.2	6.03e-01	0	59	0	392691712	52	5191
2026-01-29 01:40:01.56	206.08	25.73	-40.9	-43.6	20.2	6.04e-01	0	59	0	394788864	52	5180
2026-01-29 01:40:02.57	206.04	25.55	-41.0	-43.7	20.1	6.01e-01	0	59	0	396886016	52	5269
2026-01-29 01:40:03.58	206.00	25.36	-41.0	-43.8	20.1	6.03e-01	0	59	0	398458880	52	5285
2026-01-29 01:40:04.59	205.96	25.17	-41.1	-43.9	19.9	6.02e-01	0	59	0	400556032	52	5352
2026-01-29 01:40:05.60	205.93	24.99	-41.1	-43.8	20.0	6.01e-01	0	59	0	402128896	52	5307
2026-01-29 01:40:06.61	205.89	24.81	-41.1	-43.9	19.9	6.01e-01	0	59	0	404226048	52	5390
2026-01-29 01:40:07.62	205.85	24.63	-41.2	-43.9	19.8	6.03e-01	0	59	0	406323200	52	5400
2026-01-29 01:40:08.63	205.82	24.45	-41.2	-44.0	19.7	6.02e-01	0	59	0	407896064	53	5145
2026-01-29 01:40:09.64	205.78	24.27	-41.3	-44.1	19.7	6.01e-01	0	59	0	409993216	53	5194
2026-01-29 01:40:10.65	205.75	24.09	-41.2	-44.1	19.7	6.01e-01	0	59	0	412090368	53	5185
2026-01-29 01:40:11.66	205.71	23.92	-41.3	-44.2	19.5	6.04e-01	0	59	0	413663232	53	5263
2026-01-29 01:40:12.67	205.68	23.74	-41.3	-44.2	19.5	6.00e-01	0	59	0	415760384	53	5269
2026-01-29 01:40:13.67	205.64	23.57	-41.3	-44.2	19.6	6.00e-01	0	59	0	417333248	53	5240
2026-01-29 01:40:14.68	205.61	23.40	-41.2	-44.0	19.7	6.00e-01	0	59	0	419430400	53	5156
2026-01-29 01:40:15.70	205.58	23.23	-41.2	-44.1	19.7	6.03e-01	0	59	0	421527552	53	5187
2026-01-29 01:40:16.71	205.55	23.06	-41.2	-44.0	19.7	6.01e-01	0	59	0	423100416	53	5153
2026-01-29 01:40:17.72	205.51	22.89	-41.3	-44.2	19.6	6.01e-01	0	59	0	425197568	53	5251
2026-01-29 01:40:18.73	205.48	22.72	-41.2	-44.0	19.7	6.03e-01	0	59	0	426770432	53	5132
2026-01-29 01:40:19.74	205.45	22.55	-41.2	-44.1	19.6	6.03e-01	0	59	0	428867584	53	5190
2026-01-29 01:40:20.75	205.42	22.39	-41.3	-44.1	19.6	6.04e-01	0	59	0	430964736	53	5210
2026-01-29 01:40:21.76	205.39	22.23	-41.3	-44.2	19.6	6.03e-01	0	59	0	432537600	53	5231
2026-01-29 01:40:22.77	205.36	22.06	-41.3	-44.1	19.6	6.00e-01	0	59	0	434634752	53	5210
2026-01-29 01:40:23.78	205.33	21.90	-41.2	-44.1	19.6	6.01e-01	0	59	0	436207616	53	5185
2026-01-29 01:40:24.79	205.30	21.74	-41.3	-44.1	19.5	6.02e-01	0	59	0	438304768	53	5214
2026-01-29 01:40:25.80	205.27	21.58	-41.3	-44.2	19.5	6.00e-01	0	59	0	440401920	53	5235
2026-01-29 01:40:26.81	205.24	21.42	-41.3	-44.2	19.5	6.02e-01	0	59	0	441974784	53	5243
2026-01-29 01:40:27.82	205.21	21.27	-41.3	-44.3	19.4	6.01e-01	0	59	0	444071936	53	5292
2026-01-29 01:40:28.83	205.18	21.11	-41.3	-44.3	19.4	6.00e-01	0	59	0	446169088	53	5321
2026-01-29 01:40:29.84	205.16	20.96	-41.3	-44.3	19.4	6.02e-01	0	59	0	447741952	53	5306
2026-01-29 01:40:30.85	205.13	20.80	-41.4	-44.4	19.4	6.02e-01	0	59	0	449839104	53	5341
2026-01-29 01:40:31.86	205.10	20.65	-41.3	-44.3	19.5	5.98e-01	0	59	0	451411968	53	5280
2026-01-29 01:40:32.87	205.07	20.50	-41.3	-44.2	19.5	5.99e-01	0	59	0	453509120	53	5219
2026-01-29 01:40:33.89	205.05	20.34	-41.3	-44.2	19.5	6.01e-01	0	59	0	455606272	53	5262
2026-01-29 01:40:34.89	205.02	20.19	-41.2	-44.1	19.6	6.01e-01	0	59	0	457179136	53	5199
2026-01-29 01:40:35.90	205.00	20.05	-41.2	-44.1	19.6	6.00e-01	0	59	0	459276288	53	5199
2026-01-29 01:40:36.91	204.97	19.90	-41.2	-44.1	19.6	6.03e-01	0	59	0	460849152	53	5167
2026-01-29 01:40:37.92	204.94	19.75	-41.2	-44.0	19.6	6.02e-01	0	59	0	462946304	53	5154
2026-01-29 01:40:38.93	204.92	19.60	-41.2	-44.1	19.6	6.04e-01	0	59	0	465043456	53	5196
2026-01-29 01:40:39.94	204.89	19.46	-41.2	-44.2	19.5	6.01e-01	0	59	0	466616320	53	5220
2026-01-29 01:40:40.95	204.87	19.31	-41.1	-44.0	19.7	6.01e-01	0	59	0	468713472	53	5121
2026-01-29 01:40:41.96	204.85	19.17	-41.2	-44.1	19.6	6.00e-01	0	59	0	470286336	53	5161
2026-01-29 01:40:42.97	204.82	19.03	-41.2	-44.1	19.6	6.05e-01	0	59	0	472383488	53	5171
2026-01-29 01:40:43.98	204.80	18.89	-41.2	-44.1	19.6	6.03e-01	0	59	0	474480640	53	5160
2026-01-29 01:40:44.99	204.77	18.75	-41.1	-43.9	19.7	6.02e-01	0	59	0	476053504	53	5061
2026-01-29 01:40:46.00	204.75	18.61	-41.1	-43.9	19.7	6.01e-01	0	59	0	478150656	53	5081
2026-01-29 01:40:47.01	204.73	18.47	-41.1	-43.9	19.6	6.03e-01	0	59	0	480247808	53	5100
2026-01-29 01:40:48.02	204.71	18.33	-41.0	-43.8	19.8	6.02e-01	0	59	0	481820672	53	4994
2026-01-29 01:40:49.02	204.68	18.19	-40.9	-43.7	19.9	6.01e-01	0	59	0	483917824	53	4968
2026-01-29 01:40:50.04	204.66	18.05	-40.9	-43.7	19.8	6.02e-01	0	59	0	485490688	53	4980
2026-01-29 01:40:51.04	204.64	17.92	-41.0	-43.9	19.7	6.07e-01	0	59	0	487587840	53	5049
2026-01-29 01:40:52.06	204.62	17.78	-41.0	-43.8	19.8	6.05e-01	0	59	0	489684992	53	5002
2026-01-29 01:40:53.06	204.60	17.65	-41.0	-43.8	19.7	6.04e-01	0	59	0	491257856	53	5034
2026-01-29 01:40:54.07	204.57	17.52	-40.9	-43.7	19.9	6.05e-01	0	59	0	493355008	53	4968
2026-01-29 01:40:55.08	204.55	17.39	-40.9	-43.7	19.9	6.02e-01	0	59	0	494927872	53	4954
2026-01-29 01:40:56.09	204.53	17.25	-40.9	-43.6	19.9	6.04e-01	0	59	0	497025024	53	4924
2026-01-29 01:40:57.10	204.51	17.12	-40.9	-43.7	19.9	6.05e-01	0	59	0	499122176	53	4955
2026-01-29 01:40:58.11	204.49	16.99	-41.0	-43.8	19.8	6.02e-01	0	59	0	500695040	53	4997
2026-01-29 01:40:59.12	204.47	16.86	-40.9	-43.7	19.8	6.00e-01	0	59	0	502792192	53	4978
2026-01-29 01:41:00.13	204.45	16.73	-40.9	-43.7	19.8	6.03e-01	0	59	0	504889344	53	4964
2026-01-29 01:41:01.14	204.43	16.61	-40.9	-43.8	19.8	5.99e-01	0	59	0	506462208	53	4997
2026-01-29 01:41:02.15	204.41	16.48	-41.0	-43.8	19.8	6.02e-01	0	59	0	508559360	53	5003
2026-01-29 01:41:03.17	204.39	16.35	-41.0	-43.8	19.7	6.02e-01	0	59	0	510132224	53	5014
2026-01-29 01:41:04.18	204.37	16.23	-40.9	-43.8	19.8	6.01e-01	0	59	0	512229376	53	4990
2026-01-29 01:41:05.19	204.35	16.10	-40.9	-43.7	19.8	5.99e-01	0	59	0	514326528	53	4965
2026-01-29 01:41:06.20	204.34	15.98	-41.0	-43.9	19.6	6.01e-01	0	59	0	515899392	53	5054
2026-01-29 01:41:07.21	204.32	15.85	-41.0	-43.8	19.7	6.01e-01	0	59	0	517996544	53	5019
2026-01-29 01:41:08.22	204.30	15.73	-41.0	-43.8	19.7	6.00e-01	0	59	0	519569408	53	5034
2026-01-29 01:41:09.23	204.28	15.61	-40.9	-43.8	19.7	6.04e-01	0	59	0	521666560	53	5003
2026-01-29 01:41:10.23	204.26	15.49	-41.0	-43.9	19.5	6.01e-01	0	59	0	523763712	53	5089
2026-01-29 01:41:11.24	204.24	15.37	-41.0	-43.8	19.7	6.00e-01	0	59	0	525336576	53	5010
2026-01-29 01:41:12.25	204.23	15.25	-40.9	-43.8	19.7	6.02e-01	0	59	0	527433728	53	5009
2026-01-29 01:41:13.27	204.21	15.12	-41.0	-43.8	19.6	6.00e-01	0	59	0	529006592	53	5035
2026-01-29 01:41:14.27	204.19	15.01	-41.0	-43.9	19.5	6.02e-01	0	59	0	531103744	53	5086
2026-01-29 01:41:15.28	204.17	14.89	-41.0	-43.9	19.5	6.03e-01	0	59	0	533200896	53	5098
2026-01-29 01:41:16.29	204.16	14.77	-41.1	-44.0	19.5	6.03e-01	0	59	0	534773760	53	5133
2026-01-29 01:41:17.30	204.14	14.65	-41.1	-44.1	19.4	6.02e-01	0	59	0	536870912	53	5173
2026-01-29 01:41:18.31	204.12	14.54	-41.1	-44.1	19.4	6.03e-01	0	59	0	538443776	53	5168
2026-01-29 01:41:19.32	204.11	14.42	-41.1	-44.1	19.4	6.00e-01	0	59	0	540540928	53	5168
2026-01-29 01:41:20.33	204.09	14.31	-41.1	-44.1	19.3	6.00e-01	0	59	0	542638080	53	5205
2026-01-29 01:41:21.34	204.07	14.19	-41.1	-44.1	19.4	6.04e-01	0	59	0	544210944	53	5169
2026-01-29 01:41:22.35	204.06	14.08	-41.1	-44.1	19.3	6.02e-01	0	59	0	546308096	53	5177
2026-01-29 01:41:23.36	204.04	13.96	-41.1	-44.1	19.3	6.02e-01	0	59	0	548405248	53	5189
2026-01-29 01:41:24.37	204.03	13.85	-41.2	-44.2	19.2	6.00e-01	0	59	0	549978112	53	5241
2026-01-29 01:41:25.38	204.01	13.74	-41.1	-44.1	19.3	6.03e-01	0	59	0	552075264	53	5176
2026-01-29 01:41:26.39	204.00	13.63	-41.1	-44.1	19.3	6.01e-01	0	59	0	553648128	53	5212
2026-01-29 01:41:27.40	203.98	13.52	-41.2	-44.2	19.2	6.04e-01	0	59	0	555745280	53	5279
2026-01-29 01:41:28.41	203.96	13.40	-41.2	-44.2	19.2	6.00e-01	0	59	0	557842432	53	5243
2026-01-29 01:41:29.42	203.95	13.29	-41.2	-44.3	19.1	6.02e-01	0	59	0	559415296	53	5286
2026-01-29 01:41:30.43	203.93	13.19	-41.2	-44.3	19.1	6.01e-01	0	59	0	561512448	53	5280
2026-01-29 01:41:31.44	203.92	13.08	-41.2	-44.3	19.1	6.02e-01	0	59	0	563085312	53	5280
2026-01-29 01:41:32.45	203.91	12.97	-41.2	-44.3	19.1	6.01e-01	0	59	0	565182464	53	5310
2026-01-29 01:41:33.46	203.89	12.86	-41.1	-44.2	19.2	6.02e-01	0	59	0	567279616	53	5235
2026-01-29 01:41:34.47	203.88	12.75	-41.1	-44.2	19.2	6.04e-01	0	59	0	568852480	53	5235
2026-01-29 01:41:35.48	203.86	12.65	-41.2	-44.3	19.0	6.00e-01	0	59	0	570949632	53	5298
2026-01-29 01:41:36.49	203.85	12.54	-41.2	-44.3	19.0	6.01e-01	0	59	0	573046784	53	5293
2026-01-29 01:41:37.49	203.83	12.43	-41.2	-44.2	19.1	6.03e-01	0	59	0	574619648	53	5269
2026-01-29 01:41:38.51	203.82	12.33	-41.1	-44.2	19.1	6.01e-01	0	59	0	576716800	53	5242
2026-01-29 01:41:39.52	203.81	12.22	-41.1	-44.2	19.1	6.01e-01	0	59	0	578289664	53	5238
2026-01-29 01:41:40.53	203.79	12.12	-41.1	-44.2	19.1	6.03e-01	0	59	0	580386816	53	5227
2026-01-29 01:41:41.54	203.78	12.01	-41.2	-44.4	18.9	6.04e-01	0	59	0	582483968	53	5345
2026-01-29 01:41:42.55	203.77	11.91	-41.2	-44.3	19.0	5.98e-01	0	59	0	584056832	53	5307
2026-01-29 01:41:43.56	203.75	11.81	-41.1	-44.2	19.1	6.04e-01	0	59	0	586153984	53	5258
2026-01-29 01:41:44.57	203.74	11.71	-41.2	-44.4	18.9	6.03e-01	0	59	0	587726848	53	5349
2026-01-29 01:41:45.58	203.73	11.60	-41.2	-44.3	18.9	6.01e-01	0	59	0	589824000	53	5339
2026-01-29 01:41:46.59	203.71	11.50	-41.2	-44.3	19.0	6.01e-01	0	59	0	591921152	53	5289
2026-01-29 01:41:47.60	203.70	11.40	-41.3	-44.4	18.8	6.04e-01	0	59	0	593494016	53	5390
2026-01-29 01:41:48.61	203.69	11.30	-41.1	-44.2	19.0	6.04e-01	0	59	0	595591168	53	5277
2026-01-29 01:41:49.62	203.68	11.20	-41.2	-44.4	18.8	6.03e-01	0	59	0	597164032	53	5362
2026-01-29 01:41:50.63	203.66	11.10	-41.2	-44.3	18.9	6.04e-01	0	59	0	599261184	53	5337
2026-01-29 01:41:51.64	203.65	11.00	-41.2	-44.4	18.8	6.01e-01	0	59	0	601358336	53	5363
2026-01-29 01:41:52.65	203.64	10.90	-41.3	-44.5	18.7	6.01e-01	0	59	0	602931200	53	5447
2026-01-29 01:41:53.66	203.63	10.81	-41.3	-44.6	18.6	6.01e-01	0	59	0	605028352	53	5469
2026-01-29 01:41:54.67	203.62	10.71	-41.3	-44.5	18.7	6.00e-01	0	59	0	606601216	53	5459
2026-01-29 01:41:55.68	203.60	10.61	-41.3	-44.6	18.5	5.99e-01	0	59	0	608698368	53	5520
2026-01-29 01:41:56.69	203.59	10.51	-41.4	-44.7	18.5	6.04e-01	0	59	0	610795520	53	5531
2026-01-29 01:41:57.70	203.58	10.42	-41.4	-44.7	18.5	6.02e-01	0	59	0	612368384	53	5541
2026-01-29 01:41:58.71	203.57	10.32	-41.3	-44.6	18.5	5.98e-01	0	59	0	614465536	53	5521
2026-01-29 01:41:59.72	203.56	10.22	-41.4	-44.7	18.4	6.01e-01	0	59	0	616562688	53	5582
2026-01-29 01:42:00.73	203.55	10.13	-41.4	-44.7	18.4	6.03e-01	0	59	0	618135552	53	5582
2026-01-29 01:42:01.74	203.53	10.03	-41.4	-44.7	18.4	6.02e-01	0	59	0	620232704	53	5554
2026-01-29 01:42:02.75	203.52	9.94	-41.4	-44.8	18.3	6.00e-01	0	59	0	621805568	53	5629
2026-01-29 01:42:03.76	203.51	9.85	-41.4	-44.8	18.3	6.04e-01	0	59	0	623902720	53	5635
2026-01-29 01:42:04.77	203.50	9.75	-41.4	-44.8	18.3	6.03e-01	0	59	0	625999872	53	5643
2026-01-29 01:42:05.78	203.49	9.66	-41.4	-44.8	18.3	6.00e-01	0	59	0	627572736	53	5640
2026-01-29 01:42:06.79	203.48	9.57	-41.5	-44.9	18.2	6.00e-01	0	59	0	629669888	53	5694
2026-01-29 01:42:07.80	203.47	9.47	-41.4	-44.9	18.2	6.01e-01	0	59	0	631242752	53	5682
2026-01-29 01:42:08.81	203.46	9.38	-41.5	-45.0	18.1	6.02e-01	0	59	0	633339904	53	5771
2026-01-29 01:42:09.82	203.45	9.29	-41.6	-45.2	17.9	6.01e-01	0	59	0	635437056	53	5861
2026-01-29 01:42:10.83	203.44	9.20	-41.5	-45.0	18.1	6.02e-01	0	59	0	637009920	53	5733
2026-01-29 01:42:11.84	203.43	9.11	-41.5	-45.0	18.0	5.99e-01	0	59	0	639107072	53	5744
2026-01-29 01:42:12.85	203.42	9.02	-41.5	-45.1	18.0	6.03e-01	0	59	0	641204224	53	5821
2026-01-29 01:42:13.86	203.41	8.93	-41.5	-45.1	18.0	6.01e-01	0	59	0	642777088	53	5809
2026-01-29 01:42:14.87	203.40	8.84	-41.6	-45.2	17.8	6.00e-01	0	59	0	644874240	53	5884
2026-01-29 01:42:15.88	203.39	8.75	-41.6	-45.2	17.8	6.01e-01	0	59	0	646447104	53	5866
2026-01-29 01:42:16.89	203.38	8.66	-41.6	-45.3	17.7	6.00e-01	0	59	0	648544256	53	5932
2026-01-29 01:42:17.90	203.37	8.57	-41.7	-45.4	17.6	6.00e-01	0	59	0	650641408	53	6003
2026-01-29 01:42:18.90	203.36	8.48	-41.5	-45.1	17.9	6.01e-01	0	59	0	652214272	53	5851
2026-01-29 01:42:19.91	203.35	8.39	-41.7	-45.4	17.6	6.00e-01	0	59	0	654311424	53	6022
2026-01-29 01:42:20.92	203.34	8.30	-41.6	-45.4	17.6	6.00e-01	0	59	0	655884288	53	5999
2026-01-29 01:42:21.93	203.33	8.22	-41.6	-45.3	17.6	6.02e-01	0	59	0	657981440	53	5987
2026-01-29 01:42:22.94	203.32	8.13	-41.6	-45.3	17.6	6.02e-01	0	59	0	660078592	53	5956
2026-01-29 01:42:23.95	203.31	8.04	-41.6	-45.4	17.4	6.01e-01	0	59	0	661651456	53	6019
2026-01-29 01:42:24.96	203.30	7.96	-45.0	-61.3	4.2	7.51e-01	0	59	104	663748608	60	25019
2026-01-29 01:42:25.97	203.29	7.87	-45.5	-64.3	3.8	7.46e-01	0	59	104	663748608	61	33431
2026-01-29 01:42:26.98	203.28	7.78	-45.7	-64.6	3.8	7.47e-01	0	59	104	663748608	61	34648
2026-01-29 01:42:27.99	203.27	7.70	-45.9	-64.7	3.8	7.41e-01	0	59	104	663748608	62	33280
2026-01-29 01:42:29.00	203.26	7.61	-46.0	-64.9	3.8	7.46e-01	0	59	104	663748608	62	33765
2026-01-29 01:42:30.01	203.26	7.53	-46.0	-64.9	3.8	7.46e-01	0	59	104	663748608	62	33952
2026-01-29 01:42:31.02	203.25	7.44	-46.1	-65.0	3.8	7.45e-01	0	59	104	663748608	62	34278
2026-01-29 01:42:32.03	203.24	7.36	-46.2	-65.1	3.8	7.46e-01	0	59	104	663748608	62	34487
2026-01-29 01:42:33.04	203.23	7.28	-46.2	-65.1	3.8	7.44e-01	0	59	104	663748608	62	34689
2026-01-29 01:42:34.05	203.22	7.19	-46.2	-65.1	3.8	7.44e-01	0	59	104	663748608	63	32728
2026-01-29 01:42:35.06	203.21	7.11	-46.2	-65.1	3.8	7.45e-01	0	59	104	663748608	63	32626
2026-01-29 01:42:36.07	203.20	7.03	-46.2	-65.1	3.8	7.48e-01	0	59	104	663748608	63	32560
2026-01-29 01:42:37.08	203.19	6.94	-46.1	-65.0	3.8	7.44e-01	0	59	104	663748608	63	32475
2026-01-29 01:42:38.09	203.19	6.86	-46.1	-65.0	3.8	7.45e-01	0	59	104	663748608	63	32475
2026-01-29 01:42:39.10	203.18	6.78	-46.2	-65.0	3.8	7.46e-01	0	59	104	663748608	63	32525
2026-01-29 01:42:40.11	203.17	6.70	-46.1	-65.0	3.8	7.47e-01	0	59	104	663748608	63	32452
2026-01-29 01:42:41.12	203.16	6.61	-46.1	-65.0	3.8	7.44e-01	0	59	104	663748608	63	32259
2026-01-29 01:42:42.13	203.15	6.53	-46.1	-64.9	3.8	7.47e-01	0	59	104	663748608	63	32178
2026-01-29 01:42:43.14	203.15	6.45	-46.1	-65.0	3.8	7.43e-01	0	59	104	663748608	63	32319
2026-01-29 01:42:44.16	203.14	6.37	-46.1	-65.0	3.8	7.46e-01	0	59	104	663748608	63	32255
2026-01-29 01:42:45.17	203.13	6.29	-46.1	-65.0	3.8	7.45e-01	0	59	104	663748608	63	32309
2026-01-29 01:42:46.18	203.12	6.21	-46.1	-65.0	3.8	7.46e-01	0	59	104	663748608	63	32272
2026-01-29 01:42:47.19	203.11	6.13	-46.1	-65.0	3.8	7.45e-01	0	59	104	663748608	63	32276
2026-01-29 01:42:48.20	203.11	6.05	-46.1	-65.0	3.8	7.48e-01	0	59	104	663748608	63	32208
2026-01-29 01:42:49.21	203.10	5.97	-46.1	-65.0	3.8	7.44e-01	0	59	104	663748608	63	32270
2026-01-29 01:42:50.22	203.09	5.89	-46.1	-65.0	3.8	7.46e-01	0	59	104	663748608	63	32248
2026-01-29 01:42:51.23	203.08	5.81	-46.1	-65.0	3.8	7.45e-01	0	59	104	663748608	63	32234
2026-01-29 01:42:52.24	203.08	5.73	-46.1	-65.0	3.8	7.44e-01	0	59	104	663748608	63	32232
2026-01-29 01:42:53.25	203.07	5.66	-46.1	-65.0	3.8	7.46e-01	0	59	104	663748608	63	32229
2026-01-29 01:42:54.26	203.06	5.58	-46.1	-64.9	3.8	7.49e-01	0	59	104	663748608	63	32160
2026-01-29 01:42:55.27	203.05	5.50	-46.1	-65.0	3.8	7.45e-01	0	59	104	663748608	63	32267
2026-01-29 01:42:56.28	203.05	5.42	-46.1	-65.0	3.8	7.47e-01	0	59	104	663748608	63	32208
2026-01-29 01:42:57.29	203.04	5.35	-46.1	-64.9	3.8	7.46e-01	0	59	104	663748608	63	32151
2026-01-29 01:42:58.30	203.03	5.27	-46.1	-65.0	3.8	7.44e-01	0	59	104	663748608	63	32219
2026-01-29 01:42:59.31	203.03	5.19	-46.1	-64.9	3.8	7.46e-01	0	59	104	663748608	63	32158
2026-01-29 01:43:00.32	203.02	5.12	-46.1	-65.0	3.8	7.47e-01	0	59	104	663748608	63	32228
2026-01-29 01:43:01.33	203.01	5.04	-46.1	-65.0	3.8	7.49e-01	0	59	104	663748608	63	32236
2026-01-29 01:43:02.34	203.01	4.96	-46.1	-65.0	3.8	7.44e-01	0	59	104	663748608	63	32265
2026-01-29 01:43:03.35	203.00	4.89	-46.0	-64.9	3.8	7.44e-01	0	59	104	663748608	63	32123
2026-01-29 01:43:04.36	202.99	4.81	-46.0	-64.9	3.8	7.46e-01	0	59	104	663748608	63	32129
2026-01-29 01:43:05.37	202.99	4.74	-46.0	-64.9	3.8	7.42e-01	0	59	104	663748608	63	32083
2026-01-29 01:43:06.38	202.98	4.66	-46.0	-64.9	3.8	7.49e-01	0	59	104	663748608	63	32023
2026-01-29 01:43:07.39	202.97	4.59	-46.0	-64.9	3.8	7.44e-01	0	59	104	663748608	63	32016
2026-01-29 01:43:08.40	202.97	4.51	-46.0	-64.9	3.8	7.46e-01	0	59	104	663748608	63	32035
2026-01-29 01:43:09.41	202.96	4.44	-46.0	-64.9	3.8	7.47e-01	0	59	104	663748608	63	32081
2026-01-29 01:43:10.42	202.95	4.36	-46.0	-64.9	3.8	7.42e-01	0	59	104	663748608	63	32032
2026-01-29 01:43:11.43	202.95	4.29	-46.0	-64.9	3.8	7.47e-01	0	59	104	663748608	63	32025
2026-01-29 01:43:12.44	202.94	4.22	-46.0	-64.9	3.8	7.47e-01	0	59	104	663748608	63	32056
2026-01-29 01:43:13.46	202.93	4.14	-46.0	-64.9	3.8	7.46e-01	0	59	104	663748608	63	32022
2026-01-29 01:43:14.47	202.93	4.07	-46.0	-64.9	3.8	7.45e-01	0	59	104	663748608	63	32006
2026-01-29 01:43:15.48	202.92	4.00	-46.0	-64.9	3.8	7.45e-01	0	59	104	663748608	63	32095
2026-01-29 01:43:16.49	202.91	3.92	-46.0	-64.9	3.8	7.43e-01	0	59	104	663748608	63	31949
2026-01-29 01:43:17.50	202.91	3.85	-46.0	-64.9	3.8	7.45e-01	0	59	104	663748608	63	32034
2026-01-29 01:43:18.51	202.90	3.78	-46.0	-64.9	3.8	7.45e-01	0	59	104	663748608	63	32016
2026-01-29 01:43:19.52	202.90	3.71	-46.0	-64.9	3.8	7.47e-01	0	59	104	663748608	63	31959
2026-01-29 01:43:20.53	202.89	3.63	-46.0	-64.9	3.8	7.47e-01	0	59	104	663748608	63	32017
2026-01-29 01:43:21.54	202.88	3.56	-46.0	-64.9	3.8	7.42e-01	0	59	104	663748608	63	32070
2026-01-29 01:43:22.55	202.88	3.49	-46.0	-64.9	3.8	7.44e-01	0	59	104	663748608	63	31999
2026-01-29 01:43:23.56	202.87	3.42	-46.0	-64.9	3.8	7.43e-01	0	59	104	663748608	63	32023
2026-01-29 01:43:24.57	202.87	3.35	-46.0	-64.9	3.8	7.47e-01	0	59	104	663748608	63	32005
2026-01-29 01:43:25.58	202.86	3.28	-46.0	-64.9	3.8	7.47e-01	0	59	104	663748608	63	32028
2026-01-29 01:43:26.59	202.86	3.21	-46.0	-64.9	3.8	7.44e-01	0	59	104	663748608	63	31997
2026-01-29 01:43:27.60	202.85	3.14	-46.0	-64.9	3.8	7.46e-01	0	59	104	663748608	63	31894
2026-01-29 01:43:28.61	202.84	3.07	-46.0	-64.9	3.8	7.45e-01	0	59	104	663748608	63	31970
2026-01-29 01:43:29.62	202.84	3.00	-46.0	-64.9	3.8	7.46e-01	0	59	104	663748608	63	31966
2026-01-29 01:43:30.63	202.83	2.93	-46.0	-64.9	3.8	7.45e-01	0	59	104	663748608	63	31971
2026-01-29 01:43:31.64	202.83	2.86	-46.0	-64.9	3.8	7.44e-01	0	59	104	663748608	63	31990
2026-01-29 01:43:32.65	202.82	2.79	-46.0	-64.9	3.8	7.47e-01	0	59	104	663748608	63	31997
2026-01-29 01:43:33.66	202.82	2.72	-46.0	-64.9	3.8	7.42e-01	0	59	104	663748608	63	31957
2026-01-29 01:43:34.67	202.81	2.65	-46.0	-64.9	3.8	7.46e-01	0	59	104	663748608	63	31980
2026-01-29 01:43:35.69	202.81	2.58	-46.0	-64.9	3.8	7.45e-01	0	59	104	663748608	63	31905
2026-01-29 01:43:36.70	202.80	2.51	-46.0	-64.9	3.8	7.44e-01	0	59	104	663748608	63	31936
2026-01-29 01:43:37.71	202.80	2.44	-46.0	-64.9	3.8	7.46e-01	0	59	104	663748608	63	31974
2026-01-29 01:43:38.71	202.79	2.37	-46.0	-64.9	3.8	7.46e-01	0	59	104	663748608	63	32010
2026-01-29 01:43:39.73	202.78	2.30	-46.0	-64.9	3.8	7.45e-01	0	59	104	663748608	63	31884
2026-01-29 01:43:40.73	202.78	2.24	-46.0	-64.9	3.8	7.43e-01	0	59	104	663748608	63	31929
2026-01-29 01:43:41.75	202.77	2.17	-46.0	-64.9	3.8	7.44e-01	0	59	104	663748608	63	31934
2026-01-29 01:43:42.75	202.77	2.10	-46.0	-64.9	3.8	7.46e-01	0	59	104	663748608	63	31968
2026-01-29 01:43:43.76	202.76	2.03	-46.0	-64.9	3.8	7.45e-01	0	59	104	663748608	63	31888
2026-01-29 01:43:44.77	202.76	1.97	-46.0	-64.9	3.8	7.45e-01	0	59	104	663748608	63	31903

#Closed at: 2026-01-29 01:43:45
#Recorded file [663 MB]: D:/lorett/data/31039_260129_043542.dat