passes_logs/2026/01/29/R2.0S_Moscow/R2.0S_Moscow__20260129_114454_SUOMI_NPP_rec.log

#Pass ID: 20260129_114454_SUOMI NPP
#Satellite: SUOMI NPP
#Configuration: NPP
#almurnet v.1.7.20251203
#Start time: 2026-01-29 11:44:55

#Version: 2.2.20231116
#Station: R2.0S_Moscow
#Location: 37.707566 lon 55.798166 lat
#TLE: 1 37849U 11061A   26027.93236865  .00000148  00000+0  91411-4 0  9991
#TLE: 2 37849  98.7823 329.8704 0002085  41.3231 318.8102 14.19530777738546

#Time	Az	El	Level	Level2	SNR	BER	BlckErr	Temp	State	Recorded	gain1	gain2
2026-01-29 11:44:55.17	214.34	2.05	-44.1	-58.7	3.8	1.49e+00	0	51	0	0	59	19626
2026-01-29 11:44:56.17	214.42	2.11	-44.1	-58.7	3.8	1.49e+00	0	51	104	0	59	19661
2026-01-29 11:44:57.18	214.50	2.16	-44.1	-58.7	3.8	1.49e+00	0	51	104	0	59	19658
2026-01-29 11:44:58.19	214.58	2.21	-44.0	-58.7	3.8	1.49e+00	0	51	104	0	59	19631
2026-01-29 11:44:59.20	214.67	2.26	-44.0	-58.7	3.8	1.49e+00	0	51	104	0	59	19706
2026-01-29 11:45:00.21	214.75	2.32	-44.1	-58.7	3.8	1.49e+00	0	51	104	0	59	19667
2026-01-29 11:45:01.22	214.83	2.37	-44.1	-58.7	3.8	1.49e+00	0	51	104	0	59	19629
2026-01-29 11:45:02.23	214.92	2.42	-44.1	-58.7	3.8	1.49e+00	0	52	104	0	59	19622
2026-01-29 11:45:03.24	215.00	2.48	-44.0	-58.7	3.8	1.49e+00	0	52	104	0	59	19681
2026-01-29 11:45:04.25	215.08	2.53	-44.0	-58.7	3.8	1.49e+00	0	52	104	0	59	19646
2026-01-29 11:45:05.26	215.17	2.58	-44.0	-58.7	3.8	1.49e+00	0	52	104	0	59	19688
2026-01-29 11:45:06.27	215.25	2.64	-44.0	-58.7	3.8	1.49e+00	0	52	104	0	59	19653
2026-01-29 11:45:07.28	215.34	2.69	-44.0	-58.7	3.8	1.49e+00	0	52	104	0	59	19674
2026-01-29 11:45:08.29	215.42	2.74	-44.1	-58.7	3.8	1.49e+00	0	52	104	0	59	19656
2026-01-29 11:45:09.30	215.51	2.80	-44.0	-58.7	3.8	1.49e+00	0	52	104	0	59	19645
2026-01-29 11:45:10.31	215.59	2.85	-44.0	-58.6	3.8	1.49e+00	0	52	104	0	59	19611
2026-01-29 11:45:11.31	215.68	2.90	-44.0	-58.7	3.8	1.49e+00	0	52	104	0	59	19628
2026-01-29 11:45:12.32	215.77	2.96	-44.0	-58.6	3.8	1.49e+00	0	52	104	0	59	19590
2026-01-29 11:45:13.33	215.85	3.01	-44.0	-58.7	3.8	1.49e+00	0	52	104	0	59	19674
2026-01-29 11:45:14.34	215.94	3.06	-44.0	-58.7	3.8	1.49e+00	0	52	104	0	59	19686
2026-01-29 11:45:15.35	216.03	3.12	-44.0	-58.7	3.8	1.49e+00	0	52	104	0	59	19618
2026-01-29 11:45:16.36	216.12	3.17	-44.0	-58.7	3.8	1.49e+00	0	53	104	0	59	19621
2026-01-29 11:45:17.37	216.20	3.23	-44.0	-58.7	3.8	1.49e+00	0	53	104	0	59	19630
2026-01-29 11:45:18.38	216.29	3.28	-44.0	-58.7	3.8	1.49e+00	0	53	104	0	59	19664
2026-01-29 11:45:19.39	216.38	3.33	-44.0	-58.7	3.8	1.49e+00	0	52	104	0	59	19616
2026-01-29 11:45:20.40	216.47	3.39	-44.0	-58.7	3.8	1.49e+00	0	53	104	0	59	19645
2026-01-29 11:45:21.41	216.56	3.44	-44.0	-58.6	3.8	1.49e+00	0	53	104	0	59	19611
2026-01-29 11:45:22.42	216.65	3.50	-44.0	-58.7	3.8	1.49e+00	0	53	104	0	59	19634
2026-01-29 11:45:23.43	216.74	3.55	-44.0	-58.7	3.8	1.49e+00	0	53	104	0	59	19665
2026-01-29 11:45:24.44	216.83	3.60	-44.0	-58.7	3.8	1.49e+00	0	53	104	0	59	19638
2026-01-29 11:45:25.45	216.92	3.66	-44.0	-58.7	3.8	1.49e+00	0	53	104	0	59	19625
2026-01-29 11:45:26.46	217.01	3.71	-44.0	-58.7	3.8	1.49e+00	0	53	104	0	59	19637
2026-01-29 11:45:27.47	217.10	3.77	-44.0	-58.7	3.8	1.49e+00	0	53	104	0	59	19634
2026-01-29 11:45:28.47	217.19	3.82	-44.0	-58.7	3.8	1.49e+00	0	53	104	0	59	19615
2026-01-29 11:45:29.48	217.28	3.88	-44.0	-58.7	3.8	1.49e+00	0	53	104	0	59	19635
2026-01-29 11:45:30.49	217.38	3.93	-44.0	-58.7	3.8	1.49e+00	0	53	104	0	59	19633
2026-01-29 11:45:31.50	217.47	3.99	-44.0	-58.6	3.8	1.49e+00	0	53	104	0	59	19600
2026-01-29 11:45:32.51	217.56	4.04	-44.0	-58.6	3.8	1.49e+00	0	53	104	0	59	19586
2026-01-29 11:45:33.52	217.65	4.09	-44.0	-58.6	3.8	1.49e+00	0	54	104	0	59	19544
2026-01-29 11:45:34.53	217.75	4.15	-44.0	-58.7	3.8	1.49e+00	0	54	104	0	59	19615
2026-01-29 11:45:35.54	217.84	4.20	-44.0	-58.6	3.8	1.49e+00	0	54	104	0	59	19590
2026-01-29 11:45:36.55	217.94	4.26	-44.0	-58.6	3.8	1.49e+00	0	54	104	0	59	19614
2026-01-29 11:45:37.57	218.03	4.31	-44.0	-58.7	3.8	1.49e+00	0	54	104	0	59	19636
2026-01-29 11:45:38.58	218.13	4.37	-44.0	-58.6	3.8	1.49e+00	0	54	104	0	59	19591
2026-01-29 11:45:39.58	218.22	4.42	-44.0	-58.7	3.8	1.49e+00	0	54	104	0	59	19632
2026-01-29 11:45:40.59	218.32	4.48	-44.0	-58.6	3.8	1.49e+00	0	54	104	0	59	19592
2026-01-29 11:45:41.61	218.41	4.53	-44.0	-58.6	3.8	1.49e+00	0	54	104	0	59	19531
2026-01-29 11:45:42.61	218.51	4.59	-44.0	-58.6	3.8	1.49e+00	0	54	104	0	59	19601
2026-01-29 11:45:43.62	218.60	4.64	-44.0	-58.7	3.8	1.49e+00	0	54	104	0	59	19633
2026-01-29 11:45:44.63	218.70	4.70	-44.0	-58.6	3.8	1.49e+00	0	54	104	0	59	19542
2026-01-29 11:45:45.64	218.80	4.76	-44.0	-58.6	3.8	1.49e+00	0	54	104	0	59	19503
2026-01-29 11:45:46.65	218.90	4.81	-44.0	-58.6	3.8	1.49e+00	0	54	104	0	59	19576
2026-01-29 11:45:47.66	218.99	4.87	-44.0	-58.6	3.8	1.49e+00	0	54	104	0	59	19587
2026-01-29 11:45:48.67	219.09	4.92	-44.0	-58.7	3.8	1.49e+00	0	54	104	0	59	19630
2026-01-29 11:45:49.68	219.19	4.98	-44.0	-58.6	3.8	1.49e+00	0	54	104	0	59	19575
2026-01-29 11:45:50.69	219.29	5.03	-44.0	-58.6	3.8	1.49e+00	0	54	104	0	59	19547
2026-01-29 11:45:51.70	219.39	5.09	-44.0	-58.6	3.8	1.49e+00	0	55	104	0	59	19595
2026-01-29 11:45:52.71	219.49	5.14	-44.0	-58.7	3.8	1.49e+00	0	55	104	0	59	19635
2026-01-29 11:45:53.72	219.59	5.20	-44.0	-58.6	3.8	1.49e+00	0	54	104	0	59	19586
2026-01-29 11:45:54.73	219.69	5.25	-44.0	-58.6	3.8	1.49e+00	0	55	104	0	59	19558
2026-01-29 11:45:55.74	219.79	5.31	-44.0	-58.6	3.8	1.49e+00	0	54	104	0	59	19561
2026-01-29 11:45:56.75	219.89	5.37	-44.0	-58.6	3.8	1.49e+00	0	55	104	0	59	19522
2026-01-29 11:45:57.76	219.99	5.42	-44.0	-58.6	3.8	1.49e+00	0	55	104	0	59	19586
2026-01-29 11:45:58.77	220.10	5.48	-44.0	-58.6	3.8	1.49e+00	0	55	104	0	59	19536
2026-01-29 11:45:59.78	220.20	5.53	-44.0	-58.6	3.8	1.49e+00	0	55	104	0	59	19608
2026-01-29 11:46:00.79	220.30	5.59	-44.0	-58.6	3.8	1.49e+00	0	55	104	0	59	19583
2026-01-29 11:46:01.80	220.40	5.65	-44.0	-58.6	3.8	1.49e+00	0	55	104	0	59	19519
2026-01-29 11:46:02.80	220.51	5.70	-44.0	-58.6	3.8	1.49e+00	0	55	104	0	59	19589
2026-01-29 11:46:03.81	220.61	5.76	-44.0	-58.6	3.8	1.49e+00	0	55	104	0	59	19579
2026-01-29 11:46:04.82	220.72	5.81	-44.0	-58.6	3.8	1.49e+00	0	55	104	0	59	19609
2026-01-29 11:46:05.83	220.82	5.87	-44.0	-58.6	3.8	1.49e+00	0	55	104	0	59	19602
2026-01-29 11:46:06.84	220.93	5.93	-44.0	-58.6	3.8	1.49e+00	0	55	104	0	59	19591
2026-01-29 11:46:07.85	221.03	5.98	-44.0	-58.6	3.8	1.49e+00	0	55	104	0	59	19566
2026-01-29 11:46:08.86	221.14	6.04	-44.0	-58.6	3.8	1.49e+00	0	55	104	0	59	19529
2026-01-29 11:46:09.87	221.24	6.10	-44.0	-58.6	3.8	1.49e+00	0	55	104	0	59	19438
2026-01-29 11:46:10.88	221.35	6.15	-44.0	-58.6	3.8	1.49e+00	0	55	104	0	59	19417
2026-01-29 11:46:11.89	221.46	6.21	-44.0	-58.5	3.8	1.49e+00	0	55	104	0	59	19337
2026-01-29 11:46:12.89	221.56	6.26	-44.0	-58.4	3.8	1.49e+00	0	55	104	0	59	19148
2026-01-29 11:46:13.90	221.67	6.32	-44.0	-58.4	3.8	1.49e+00	0	55	104	0	59	19116
2026-01-29 11:46:14.91	221.78	6.38	-44.0	-58.3	3.8	1.49e+00	0	56	104	0	59	18901
2026-01-29 11:46:15.92	221.89	6.43	-44.0	-58.2	3.8	1.49e+00	0	55	104	0	59	18655
2026-01-29 11:46:16.93	222.00	6.49	-44.0	-58.1	3.8	1.49e+00	0	55	104	0	59	18428
2026-01-29 11:46:17.94	222.11	6.55	-44.0	-58.1	3.8	1.49e+00	0	56	104	0	59	18309
2026-01-29 11:46:18.95	222.22	6.60	-44.0	-58.1	3.8	1.49e+00	0	56	104	0	59	18321
2026-01-29 11:46:19.96	222.33	6.66	-44.0	-57.9	3.8	1.49e+00	0	56	104	0	59	18005
2026-01-29 11:46:20.97	222.44	6.72	-44.0	-57.6	3.8	1.49e+00	0	56	104	0	59	17404
2026-01-29 11:46:21.98	222.55	6.77	-43.9	-57.4	3.8	1.49e+00	0	56	104	0	59	16954
2026-01-29 11:46:22.99	222.66	6.83	-43.9	-57.1	3.8	1.49e+00	0	56	104	0	59	16479
2026-01-29 11:46:24.00	222.77	6.89	-43.9	-56.7	3.8	1.49e+00	0	56	104	0	59	15682
2026-01-29 11:46:25.01	222.89	6.94	-43.9	-56.0	4.0	1.48e+00	0	56	104	0	59	14380
2026-01-29 11:46:26.02	223.00	7.00	-43.8	-55.4	4.1	1.45e+00	0	56	0	0	59	13417
2026-01-29 11:46:27.04	223.11	7.06	-43.7	-54.7	4.3	1.40e+00	0	56	0	0	59	12482
2026-01-29 11:46:28.05	223.23	7.12	-43.7	-54.0	4.6	1.12e+00	0	56	0	1048576	59	11488
2026-01-29 11:46:29.06	223.34	7.17	-43.6	-53.2	4.9	8.62e-01	0	56	0	3145728	59	10495
2026-01-29 11:46:30.07	223.46	7.23	-43.5	-52.4	5.4	6.59e-01	0	56	0	4194304	59	9602
2026-01-29 11:46:31.08	223.57	7.29	-43.4	-51.7	5.9	4.23e-01	0	56	0	6291456	58	9364
2026-01-29 11:46:32.09	223.69	7.34	-43.3	-51.2	6.2	3.21e-01	0	56	0	8388608	58	8847
2026-01-29 11:46:33.10	223.80	7.40	-43.1	-50.5	6.8	2.43e-01	0	56	0	10485760	58	8150
2026-01-29 11:46:34.11	223.92	7.46	-43.1	-50.1	7.2	1.41e-01	0	56	0	12582912	58	7774
2026-01-29 11:46:35.12	224.03	7.52	-42.9	-49.7	7.6	9.73e-02	0	56	0	13631488	57	7858
2026-01-29 11:46:36.13	224.15	7.57	-42.8	-49.1	8.2	6.88e-02	0	56	0	15728640	57	7328
2026-01-29 11:46:37.14	224.27	7.63	-42.7	-48.7	8.5	4.26e-02	0	56	0	17825792	57	7036
2026-01-29 11:46:38.15	224.39	7.69	-42.5	-48.3	9.0	3.03e-02	0	56	0	19922944	57	6678
2026-01-29 11:46:39.16	224.51	7.75	-39.9	-48.0	8.9	3.68e-02	0	57	0	22020096	51	9082
2026-01-29 11:46:40.17	224.63	7.80	-39.9	-47.6	9.3	2.99e-02	0	56	0	24117248	51	8732
2026-01-29 11:46:41.18	224.75	7.86	-40.1	-47.8	9.2	3.27e-02	0	56	0	25165824	51	8902
2026-01-29 11:46:42.19	224.86	7.92	-40.3	-47.7	9.3	3.28e-02	0	57	0	27262976	51	8776
2026-01-29 11:46:43.20	224.99	7.97	-40.6	-47.8	9.1	3.16e-02	0	57	0	29360128	52	8390
2026-01-29 11:46:44.21	225.11	8.03	-40.8	-48.0	8.9	4.27e-02	0	56	0	31457280	52	8622
2026-01-29 11:46:45.22	225.23	8.09	-40.9	-48.3	8.8	3.75e-02	0	57	0	33554432	52	8887
2026-01-29 11:46:46.23	225.35	8.15	-40.8	-48.0	9.0	3.97e-02	0	57	0	34603008	52	8585
2026-01-29 11:46:47.24	225.47	8.20	-41.2	-53.9	4.5	8.98e-01	0	57	0	36700160	54	15116
2026-01-29 11:46:48.25	225.59	8.26	-40.0	-50.7	6.5	3.91e-01	0	57	0	38797312	51	12473
2026-01-29 11:46:49.26	225.72	8.32	-40.9	-49.1	7.8	3.70e-02	0	57	0	40894464	53	9232
2026-01-29 11:46:50.27	225.84	8.38	-41.0	-47.4	9.6	2.41e-02	0	57	0	42991616	53	7565
2026-01-29 11:46:51.28	225.97	8.44	-40.8	-47.2	9.8	2.19e-02	0	57	0	44040192	53	7416
2026-01-29 11:46:52.29	226.09	8.49	-40.7	-47.1	9.8	1.95e-02	0	57	0	46137344	53	7361
2026-01-29 11:46:53.30	226.21	8.55	-42.1	-47.1	10.2	6.78e-03	0	57	0	48234496	54	6922
2026-01-29 11:46:54.31	226.34	8.61	-42.1	-47.0	10.3	5.60e-03	0	57	0	50331648	54	6861
2026-01-29 11:46:55.33	226.47	8.67	-42.1	-47.0	10.3	4.70e-03	0	57	0	52428800	54	6861
2026-01-29 11:46:56.34	226.59	8.72	-42.0	-46.9	10.4	4.86e-03	0	57	0	53477376	54	6757
2026-01-29 11:46:57.35	226.72	8.78	-41.9	-46.8	10.5	3.54e-03	0	57	0	55574528	54	6665
2026-01-29 11:46:58.36	226.85	8.84	-41.9	-46.7	10.6	4.70e-03	0	57	0	57671680	54	6621
2026-01-29 11:46:59.37	226.98	8.90	-42.0	-46.8	10.5	4.91e-03	0	57	0	59768832	54	6713
2026-01-29 11:47:00.38	227.11	8.95	-41.9	-46.6	10.7	7.91e-03	0	57	0	61865984	54	6544
2026-01-29 11:47:01.38	227.23	9.01	-41.9	-46.8	10.5	8.62e-03	0	57	0	62914560	54	6656
2026-01-29 11:47:02.39	227.36	9.07	-41.9	-46.8	10.5	7.00e-03	0	57	0	65011712	54	6665
2026-01-29 11:47:03.41	227.49	9.13	-41.9	-46.6	10.6	6.95e-03	0	57	0	67108864	54	6558
2026-01-29 11:47:04.42	227.62	9.19	-41.9	-46.6	10.6	8.27e-03	0	57	0	69206016	54	6552
2026-01-29 11:47:05.43	227.76	9.24	-42.0	-46.8	10.4	9.32e-03	0	57	0	71303168	54	6673
2026-01-29 11:47:06.44	227.89	9.30	-42.0	-46.7	10.5	7.76e-03	0	57	0	72351744	54	6641
2026-01-29 11:47:07.45	228.02	9.36	-41.9	-46.7	10.7	3.72e-03	0	57	0	74448896	54	6582
2026-01-29 11:47:08.46	228.15	9.42	-41.9	-46.6	10.7	3.73e-03	0	57	0	76546048	54	6558
2026-01-29 11:47:09.47	228.28	9.47	-41.9	-46.7	10.7	4.19e-03	0	57	0	78643200	54	6577
2026-01-29 11:47:10.48	228.42	9.53	-41.9	-46.5	10.8	3.46e-03	0	57	0	80740352	54	6485
2026-01-29 11:47:11.49	228.55	9.59	-41.9	-46.7	10.7	3.72e-03	0	57	0	81788928	54	6572
2026-01-29 11:47:12.50	228.69	9.65	-41.9	-46.8	10.6	3.75e-03	0	57	0	83886080	54	6682
2026-01-29 11:47:13.50	228.82	9.70	-41.9	-46.8	10.6	3.59e-03	0	57	0	85983232	54	6649
2026-01-29 11:47:14.51	228.96	9.76	-41.9	-46.6	10.8	3.62e-03	0	57	0	88080384	54	6533
2026-01-29 11:47:15.52	229.09	9.82	-41.9	-46.8	10.7	3.91e-03	0	57	0	90177536	54	6661
2026-01-29 11:47:16.53	229.23	9.88	-42.0	-46.8	10.5	6.57e-03	0	57	0	91226112	54	6708
2026-01-29 11:47:17.54	229.37	9.94	-42.0	-46.8	10.5	4.08e-03	0	57	0	93323264	54	6720
2026-01-29 11:47:18.55	229.50	9.99	-42.0	-46.9	10.5	6.24e-03	0	57	0	95420416	54	6744
2026-01-29 11:47:19.56	229.64	10.05	-42.0	-46.9	10.5	4.55e-03	0	58	0	97517568	54	6752
2026-01-29 11:47:20.57	229.78	10.11	-42.1	-47.1	10.4	4.71e-03	0	57	0	99614720	54	6893
2026-01-29 11:47:21.58	229.92	10.17	-42.2	-47.1	10.4	5.01e-03	0	57	0	101711872	54	6910
2026-01-29 11:47:22.59	230.06	10.22	-42.2	-47.2	10.3	4.50e-03	0	58	0	102760448	54	6972
2026-01-29 11:47:23.60	230.20	10.28	-42.2	-47.1	10.3	4.71e-03	0	58	0	104857600	54	6944
2026-01-29 11:47:24.61	230.34	10.34	-42.3	-47.4	10.1	5.83e-03	0	57	0	106954752	55	6753
2026-01-29 11:47:25.62	230.48	10.40	-42.1	-46.9	10.5	4.44e-03	0	57	0	109051904	55	6401
2026-01-29 11:47:26.63	230.62	10.45	-42.1	-46.8	10.6	3.54e-03	0	57	0	111149056	55	6345
2026-01-29 11:47:27.64	230.77	10.51	-42.1	-46.9	10.5	3.75e-03	0	58	0	112197632	55	6415
2026-01-29 11:47:28.65	230.91	10.57	-42.0	-46.6	10.9	2.85e-03	0	58	0	114294784	55	6160
2026-01-29 11:47:29.66	231.05	10.63	-42.0	-46.7	10.8	2.50e-03	0	58	0	116391936	55	6222
2026-01-29 11:47:30.67	231.20	10.68	-42.0	-46.6	10.9	2.45e-03	0	58	0	118489088	55	6151
2026-01-29 11:47:31.68	231.34	10.74	-42.0	-46.7	10.8	2.34e-03	0	58	0	120586240	55	6232
2026-01-29 11:47:32.69	231.49	10.80	-42.1	-46.8	10.7	2.77e-03	0	58	0	121634816	55	6279
2026-01-29 11:47:33.70	231.63	10.86	-42.1	-46.8	10.7	2.05e-03	0	58	0	123731968	55	6316
2026-01-29 11:47:34.71	231.78	10.91	-42.0	-46.7	10.8	2.86e-03	0	58	0	125829120	55	6231
2026-01-29 11:47:35.72	231.92	10.97	-42.1	-46.9	10.6	2.88e-03	0	58	0	127926272	55	6357
2026-01-29 11:47:36.73	232.07	11.03	-42.1	-46.9	10.6	3.37e-03	0	58	0	130023424	55	6366
2026-01-29 11:47:37.74	232.22	11.09	-42.0	-46.6	10.9	2.76e-03	0	58	0	131072000	55	6188
2026-01-29 11:47:38.75	232.37	11.14	-42.1	-46.8	10.8	2.92e-03	0	58	0	133169152	55	6289
2026-01-29 11:47:39.76	232.52	11.20	-42.0	-46.6	10.9	2.83e-03	0	58	0	135266304	55	6151
2026-01-29 11:47:40.76	232.67	11.26	-42.0	-46.5	11.0	2.15e-03	0	58	0	137363456	55	6117
2026-01-29 11:47:41.78	232.82	11.32	-42.0	-46.5	11.1	2.06e-03	0	58	0	139460608	55	6070
2026-01-29 11:47:42.78	232.97	11.37	-42.0	-46.6	10.9	1.90e-03	0	58	0	140509184	55	6197
2026-01-29 11:47:43.79	233.12	11.43	-42.0	-46.4	11.1	1.79e-03	0	58	0	142606336	55	6035
2026-01-29 11:47:44.80	233.27	11.49	-41.9	-46.4	11.2	1.48e-03	0	58	0	144703488	55	5997
2026-01-29 11:47:45.81	233.42	11.54	-42.0	-46.4	11.1	1.71e-03	0	58	0	146800640	55	6049
2026-01-29 11:47:46.82	233.58	11.60	-42.0	-46.5	11.1	1.54e-03	0	58	0	148897792	55	6075
2026-01-29 11:47:47.83	233.73	11.66	-42.0	-46.6	10.9	1.64e-03	0	58	0	149946368	55	6160
2026-01-29 11:47:48.84	233.88	11.71	-42.0	-46.6	11.0	1.76e-03	0	58	0	152043520	55	6151
2026-01-29 11:47:49.85	234.04	11.77	-42.1	-46.7	10.8	1.74e-03	0	58	0	154140672	55	6240
2026-01-29 11:47:50.86	234.19	11.83	-42.0	-46.6	11.0	2.20e-03	0	58	0	156237824	55	6159
2026-01-29 11:47:51.87	234.35	11.88	-42.1	-46.7	10.8	2.03e-03	0	58	0	158334976	55	6250
2026-01-29 11:47:52.88	234.51	11.94	-42.1	-46.7	10.8	2.59e-03	0	58	0	159383552	55	6247
2026-01-29 11:47:53.89	234.66	12.00	-42.1	-46.7	10.8	2.76e-03	0	58	0	161480704	55	6273
2026-01-29 11:47:54.89	234.82	12.05	-42.1	-46.8	10.7	2.69e-03	0	58	0	163577856	55	6314
2026-01-29 11:47:55.91	234.98	12.11	-42.1	-46.7	10.8	2.62e-03	0	58	0	165675008	55	6268
2026-01-29 11:47:56.92	235.14	12.17	-42.1	-46.7	10.8	2.32e-03	0	58	0	167772160	55	6235
2026-01-29 11:47:57.93	235.30	12.22	-42.0	-46.5	11.1	2.13e-03	0	58	0	169869312	55	6112
2026-01-29 11:47:58.94	235.46	12.28	-42.0	-46.5	11.0	1.67e-03	0	58	0	170917888	55	6120
2026-01-29 11:47:59.95	235.62	12.33	-42.0	-46.5	11.1	1.52e-03	0	58	0	173015040	55	6066
2026-01-29 11:48:00.96	235.78	12.39	-41.9	-46.4	11.2	1.41e-03	0	58	0	175112192	55	6023
2026-01-29 11:48:01.97	235.94	12.45	-42.0	-46.4	11.2	1.30e-03	0	58	0	177209344	55	6024
2026-01-29 11:48:02.98	236.10	12.50	-41.9	-46.4	11.2	1.18e-03	0	58	0	179306496	55	6005
2026-01-29 11:48:03.99	236.27	12.56	-41.9	-46.4	11.2	1.47e-03	0	58	0	180355072	55	6006
2026-01-29 11:48:05.00	236.43	12.61	-41.9	-46.3	11.2	1.44e-03	0	58	0	182452224	55	5992
2026-01-29 11:48:06.01	236.59	12.67	-42.1	-46.6	10.9	1.41e-03	0	58	0	184549376	55	6198
2026-01-29 11:48:07.02	236.76	12.72	-42.0	-46.5	11.1	1.29e-03	0	58	0	186646528	55	6108
2026-01-29 11:48:08.03	236.92	12.78	-41.9	-46.4	11.2	1.45e-03	0	58	0	188743680	55	6003
2026-01-29 11:48:09.04	237.09	12.84	-41.8	-46.1	11.5	1.22e-03	0	58	0	189792256	55	5843
2026-01-29 11:48:10.05	237.26	12.89	-41.7	-45.9	11.7	7.63e-04	0	58	0	191889408	55	5688
2026-01-29 11:48:11.06	237.42	12.95	-41.7	-45.7	11.9	5.64e-04	0	58	0	193986560	55	5574
2026-01-29 11:48:12.07	237.59	13.00	-41.7	-45.7	11.9	4.21e-04	0	58	0	196083712	55	5565
2026-01-29 11:48:13.08	237.76	13.06	-41.6	-45.5	12.1	3.14e-04	0	58	0	198180864	55	5441
2026-01-29 11:48:14.09	237.93	13.11	-41.5	-45.5	12.2	2.37e-04	0	58	0	199229440	55	5404
2026-01-29 11:48:15.10	238.10	13.17	-41.5	-45.4	12.2	2.27e-04	0	58	0	201326592	55	5369
2026-01-29 11:48:16.11	238.27	13.22	-41.6	-45.6	12.1	2.26e-04	0	58	0	203423744	55	5487
2026-01-29 11:48:17.12	238.44	13.28	-41.7	-45.8	11.9	3.14e-04	0	58	0	205520896	55	5599
2026-01-29 11:48:18.13	238.61	13.33	-41.7	-45.8	11.9	4.32e-04	0	58	0	207618048	55	5627
2026-01-29 11:48:19.14	238.78	13.38	-41.8	-45.9	11.7	5.35e-04	0	58	0	208666624	55	5719
2026-01-29 11:48:20.16	238.96	13.44	-41.8	-46.1	11.5	8.09e-04	0	58	0	210763776	55	5815
2026-01-29 11:48:21.17	239.13	13.49	-41.8	-45.9	11.7	6.92e-04	0	58	0	212860928	55	5715
2026-01-29 11:48:22.17	239.31	13.55	-41.8	-46.0	11.6	6.34e-04	0	58	0	214958080	55	5788
2026-01-29 11:48:23.18	239.48	13.60	-41.8	-46.0	11.6	5.73e-04	0	58	0	217055232	55	5734
2026-01-29 11:48:24.19	239.65	13.65	-41.7	-45.8	11.8	4.83e-04	0	58	0	218103808	55	5627
2026-01-29 11:48:25.20	239.83	13.71	-41.6	-45.7	12.0	3.52e-04	0	58	0	220200960	55	5539
2026-01-29 11:48:26.21	240.01	13.76	-41.6	-45.7	12.0	3.13e-04	0	58	0	222298112	55	5539
2026-01-29 11:48:27.22	240.18	13.81	-41.6	-45.6	12.1	3.29e-04	0	58	0	224395264	55	5467
2026-01-29 11:48:28.23	240.36	13.87	-41.6	-45.5	12.2	2.66e-04	0	58	0	226492416	55	5442
2026-01-29 11:48:29.24	240.54	13.92	-41.5	-45.5	12.2	2.19e-04	0	59	0	227540992	55	5404
2026-01-29 11:48:30.25	240.72	13.97	-41.5	-45.4	12.3	1.74e-04	0	58	0	229638144	55	5343
2026-01-29 11:48:31.26	240.90	14.03	-41.6	-45.5	12.2	2.30e-04	0	59	0	231735296	54	5727
2026-01-29 11:48:32.27	241.08	14.08	-41.6	-45.5	12.2	2.13e-04	0	58	0	233832448	54	5769
2026-01-29 11:48:33.28	241.26	14.13	-41.6	-45.5	12.2	1.73e-04	0	58	0	235929600	54	5743
2026-01-29 11:48:34.29	241.44	14.18	-41.6	-45.6	12.1	2.32e-04	0	59	0	238026752	54	5811
2026-01-29 11:48:35.30	241.62	14.24	-41.7	-45.7	12.1	2.14e-04	0	59	0	239075328	54	5868
2026-01-29 11:48:36.31	241.81	14.29	-41.7	-45.7	12.0	2.99e-04	0	59	0	241172480	54	5872
2026-01-29 11:48:37.32	241.99	14.34	-41.7	-45.7	11.9	3.26e-04	0	58	0	243269632	54	5914
2026-01-29 11:48:38.33	242.17	14.39	-41.8	-45.9	11.8	4.49e-04	0	59	0	245366784	54	6003
2026-01-29 11:48:39.34	242.36	14.44	-41.8	-46.0	11.7	4.47e-04	0	59	0	247463936	54	6093
2026-01-29 11:48:40.35	242.54	14.49	-41.8	-46.0	11.7	5.04e-04	0	58	0	248512512	54	6068
2026-01-29 11:48:41.36	242.73	14.55	-41.8	-45.9	11.8	4.23e-04	0	58	0	250609664	54	6032
2026-01-29 11:48:42.37	242.91	14.60	-41.7	-45.7	12.0	4.39e-04	0	59	0	252706816	54	5916
2026-01-29 11:48:43.38	243.10	14.65	-41.6	-45.6	12.1	3.59e-04	0	58	0	254803968	54	5803
2026-01-29 11:48:44.39	243.29	14.70	-41.6	-45.5	12.2	3.64e-04	0	59	0	256901120	54	5788
2026-01-29 11:48:45.40	243.48	14.75	-41.6	-45.6	12.1	2.27e-04	0	59	0	257949696	54	5833
2026-01-29 11:48:46.41	243.67	14.80	-41.6	-45.5	12.2	2.84e-04	0	58	0	260046848	54	5778
2026-01-29 11:48:47.42	243.86	14.85	-41.7	-45.7	12.0	3.26e-04	0	59	0	262144000	54	5881
2026-01-29 11:48:48.43	244.05	14.90	-41.8	-46.0	11.7	4.02e-04	0	59	0	264241152	54	6111
2026-01-29 11:48:49.44	244.24	14.95	-41.9	-46.1	11.6	6.11e-04	0	58	0	266338304	54	6152
2026-01-29 11:48:50.45	244.43	15.00	-41.9	-46.1	11.6	7.69e-04	0	58	0	267386880	54	6146
2026-01-29 11:48:51.46	244.62	15.05	-42.0	-46.3	11.4	9.42e-04	0	59	0	269484032	54	6302
2026-01-29 11:48:52.47	244.81	15.10	-41.9	-46.1	11.6	9.29e-04	0	59	0	271581184	54	6165
2026-01-29 11:48:53.48	245.01	15.15	-41.9	-46.2	11.5	8.80e-04	0	59	0	273678336	54	6215
2026-01-29 11:48:54.49	245.20	15.19	-42.0	-46.3	11.4	8.60e-04	0	59	0	275775488	54	6310
2026-01-29 11:48:55.50	245.39	15.24	-42.0	-46.3	11.3	8.28e-04	0	59	0	276824064	54	6319
2026-01-29 11:48:56.51	245.59	15.29	-42.0	-46.3	11.4	9.96e-04	0	59	0	278921216	54	6346
2026-01-29 11:48:57.52	245.78	15.34	-42.1	-46.6	11.2	1.30e-03	0	59	0	281018368	54	6515
2026-01-29 11:48:58.53	245.98	15.39	-42.2	-46.8	10.9	1.86e-03	0	59	0	283115520	54	6674
2026-01-29 11:48:59.54	246.18	15.43	-42.2	-46.8	10.9	2.41e-03	0	59	0	285212672	55	6318
2026-01-29 11:49:00.55	246.37	15.48	-42.2	-46.8	10.9	2.73e-03	0	59	0	286261248	55	6305
2026-01-29 11:49:01.56	246.57	15.53	-42.2	-46.7	11.0	2.31e-03	0	59	0	288358400	55	6273
2026-01-29 11:49:02.57	246.77	15.58	-42.2	-46.8	10.9	2.31e-03	0	59	0	290455552	55	6311
2026-01-29 11:49:03.58	246.97	15.62	-42.2	-46.7	11.0	1.66e-03	0	59	0	292552704	55	6238
2026-01-29 11:49:04.59	247.17	15.67	-42.1	-46.6	11.1	1.52e-03	0	59	0	294649856	55	6157
2026-01-29 11:49:05.60	247.37	15.72	-42.1	-46.5	11.2	1.45e-03	0	59	0	295698432	55	6114
2026-01-29 11:49:06.61	247.57	15.76	-42.1	-46.5	11.2	1.29e-03	0	59	0	297795584	55	6128
2026-01-29 11:49:07.62	247.77	15.81	-42.1	-46.5	11.2	1.31e-03	0	59	0	299892736	55	6097
2026-01-29 11:49:08.64	247.98	15.85	-42.1	-46.5	11.2	1.38e-03	0	59	0	301989888	55	6130
2026-01-29 11:49:09.65	248.18	15.90	-42.0	-46.4	11.3	1.29e-03	0	59	0	304087040	55	6040
2026-01-29 11:49:10.66	248.38	15.94	-42.1	-46.6	11.1	9.76e-04	0	59	0	306184192	55	6177
2026-01-29 11:49:11.67	248.59	15.99	-42.1	-46.7	11.0	1.54e-03	0	59	0	307232768	55	6207
2026-01-29 11:49:12.68	248.79	16.03	-42.1	-46.6	11.1	1.28e-03	0	59	0	309329920	55	6184
2026-01-29 11:49:13.69	249.00	16.08	-42.2	-46.8	11.0	1.65e-03	0	59	0	311427072	55	6279
2026-01-29 11:49:14.70	249.20	16.12	-42.3	-47.0	10.7	2.63e-03	0	59	0	313524224	55	6424
2026-01-29 11:49:15.71	249.41	16.16	-42.3	-47.0	10.8	3.12e-03	0	59	0	315621376	55	6463
2026-01-29 11:49:16.72	249.62	16.21	-42.2	-46.9	10.8	2.85e-03	0	59	0	316669952	55	6391
2026-01-29 11:49:17.73	249.83	16.25	-42.2	-46.8	10.9	2.16e-03	0	59	0	318767104	55	6318
2026-01-29 11:49:18.74	250.03	16.29	-42.1	-46.6	11.1	1.94e-03	0	59	0	320864256	55	6175
2026-01-29 11:49:19.75	250.24	16.34	-42.2	-46.7	11.1	1.58e-03	0	59	0	322961408	55	6203
2026-01-29 11:49:20.76	250.45	16.38	-42.1	-46.5	11.2	1.56e-03	0	59	0	325058560	55	6077
2026-01-29 11:49:21.77	250.66	16.42	-42.2	-46.7	11.0	1.64e-03	0	59	0	326107136	55	6266
2026-01-29 11:49:22.78	250.87	16.46	-42.3	-47.1	10.7	3.00e-03	0	59	0	328204288	55	6531
2026-01-29 11:49:23.79	251.08	16.50	-42.4	-47.4	10.3	3.84e-03	0	59	0	330301440	55	6751
2026-01-29 11:49:24.80	251.29	16.54	-42.4	-47.3	10.4	4.26e-03	0	59	0	332398592	55	6694
2026-01-29 11:49:25.81	251.51	16.59	-42.4	-47.2	10.5	4.06e-03	0	59	0	334495744	55	6619
2026-01-29 11:49:26.82	251.72	16.63	-42.4	-47.2	10.5	4.19e-03	0	59	0	335544320	55	6642
2026-01-29 11:49:27.83	251.93	16.67	-42.3	-47.0	10.7	3.83e-03	0	59	0	337641472	55	6492
2026-01-29 11:49:28.84	252.15	16.71	-42.2	-46.7	11.0	2.69e-03	0	59	0	339738624	55	6234
2026-01-29 11:49:29.85	252.36	16.75	-42.2	-46.7	11.0	1.93e-03	0	59	0	341835776	55	6242
2026-01-29 11:49:30.86	252.58	16.78	-42.3	-47.0	10.7	2.32e-03	0	59	0	343932928	55	6450
2026-01-29 11:49:31.87	252.79	16.82	-42.2	-46.8	10.9	2.79e-03	0	59	0	346030080	55	6297
2026-01-29 11:49:32.88	253.01	16.86	-42.3	-47.0	10.8	2.36e-03	0	59	0	347078656	55	6442
2026-01-29 11:49:33.89	253.22	16.90	-42.1	-46.6	11.1	2.03e-03	0	59	0	349175808	55	6187
2026-01-29 11:49:34.90	253.44	16.94	-42.1	-46.5	11.3	1.69e-03	0	59	0	351272960	55	6087
2026-01-29 11:49:35.92	253.66	16.98	-42.0	-46.3	11.4	8.92e-04	0	59	0	353370112	55	5963
2026-01-29 11:49:36.92	253.88	17.01	-41.9	-46.1	11.6	8.80e-04	0	59	0	355467264	55	5826
2026-01-29 11:49:37.93	254.09	17.05	-42.0	-46.2	11.5	7.39e-04	0	59	0	356515840	55	5904
2026-01-29 11:49:38.94	254.31	17.09	-42.1	-46.5	11.2	1.43e-03	0	59	0	358612992	55	6104
2026-01-29 11:49:39.96	254.54	17.12	-42.3	-46.9	10.8	1.72e-03	0	59	0	360710144	55	6376
2026-01-29 11:49:40.97	254.76	17.16	-42.2	-46.8	11.0	2.02e-03	0	59	0	362807296	55	6275
2026-01-29 11:49:41.97	254.97	17.19	-42.3	-47.0	10.7	2.69e-03	0	59	0	364904448	55	6491
2026-01-29 11:49:42.99	255.20	17.23	-42.1	-46.6	11.1	1.61e-03	0	59	0	365953024	55	6151
2026-01-29 11:49:44.00	255.42	17.26	-42.0	-46.2	11.5	1.24e-03	0	59	0	368050176	55	5886
2026-01-29 11:49:45.01	255.64	17.30	-41.9	-46.2	11.5	5.56e-04	0	59	0	370147328	55	5859
2026-01-29 11:49:46.02	255.86	17.33	-41.8	-45.7	12.1	2.84e-04	0	59	0	372244480	55	5572
2026-01-29 11:49:47.03	256.09	17.37	-41.7	-45.6	12.2	2.27e-04	0	59	0	374341632	55	5469
2026-01-29 11:49:48.04	256.31	17.40	-41.8	-45.7	12.0	3.14e-04	0	59	0	375390208	55	5581
2026-01-29 11:49:49.05	256.53	17.43	-41.8	-45.9	11.9	3.25e-04	0	59	0	377487360	55	5670
2026-01-29 11:49:50.06	256.76	17.46	-41.9	-46.0	11.7	4.36e-04	0	59	0	379584512	55	5774
2026-01-29 11:49:51.07	256.98	17.50	-42.0	-46.4	11.4	8.51e-04	0	59	0	381681664	55	5997
2026-01-29 11:49:52.08	257.21	17.53	-42.1	-46.4	11.3	1.09e-03	0	59	0	383778816	55	6057
2026-01-29 11:49:53.09	257.43	17.56	-42.0	-46.3	11.4	1.22e-03	0	59	0	384827392	55	5990
2026-01-29 11:49:54.10	257.66	17.59	-41.9	-46.2	11.6	9.18e-04	0	59	0	386924544	55	5884
2026-01-29 11:49:55.11	257.89	17.62	-42.0	-46.3	11.4	7.96e-04	0	59	0	389021696	55	5924
2026-01-29 11:49:56.12	258.11	17.65	-42.0	-46.3	11.5	7.71e-04	0	59	0	391118848	55	5927
2026-01-29 11:49:57.13	258.34	17.68	-41.9	-46.2	11.6	8.56e-04	0	59	0	393216000	55	5863
2026-01-29 11:49:58.14	258.57	17.71	-41.9	-46.1	11.7	5.66e-04	0	59	0	394264576	55	5816
2026-01-29 11:49:59.15	258.80	17.74	-41.8	-45.9	11.9	5.96e-04	0	60	0	396361728	55	5659
2026-01-29 11:50:00.16	259.03	17.77	-41.7	-45.7	12.1	4.01e-04	0	59	0	398458880	55	5548
2026-01-29 11:50:01.17	259.26	17.80	-41.6	-45.5	12.3	2.07e-04	0	59	0	400556032	55	5430
2026-01-29 11:50:02.18	259.49	17.82	-41.5	-45.2	12.6	1.12e-04	0	59	0	402653184	54	5530
2026-01-29 11:50:03.19	259.72	17.85	-41.5	-45.2	12.6	7.47e-05	0	59	0	403701760	54	5588
2026-01-29 11:50:04.20	259.95	17.88	-41.7	-45.5	12.3	1.33e-04	0	59	0	405798912	54	5767
2026-01-29 11:50:05.21	260.18	17.91	-41.7	-45.6	12.1	2.20e-04	0	59	0	407896064	54	5836
2026-01-29 11:50:06.22	260.41	17.93	-41.9	-46.0	11.8	4.09e-04	0	59	0	409993216	54	6085
2026-01-29 11:50:07.23	260.64	17.96	-41.9	-46.1	11.7	5.25e-04	0	59	0	412090368	54	6139
2026-01-29 11:50:08.24	260.87	17.98	-41.9	-46.1	11.7	5.64e-04	0	59	0	414187520	54	6179
2026-01-29 11:50:09.25	261.11	18.01	-41.8	-45.9	11.8	5.41e-04	0	59	0	415236096	54	6027
2026-01-29 11:50:10.26	261.34	18.03	-41.9	-45.9	11.9	4.40e-04	0	60	0	417333248	54	6054
2026-01-29 11:50:11.27	261.57	18.06	-41.7	-45.7	12.1	3.05e-04	0	59	0	419430400	54	5865
2026-01-29 11:50:12.28	261.81	18.08	-41.7	-45.7	12.1	3.39e-04	0	59	0	421527552	54	5886
2026-01-29 11:50:13.29	262.04	18.10	-41.7	-45.6	12.2	2.68e-04	0	59	0	423624704	54	5826
2026-01-29 11:50:14.30	262.27	18.13	-41.6	-45.4	12.4	1.45e-04	0	59	0	424673280	54	5662
2026-01-29 11:50:15.31	262.51	18.15	-41.5	-45.2	12.6	1.38e-04	0	59	0	426770432	54	5586
2026-01-29 11:50:16.32	262.74	18.17	-41.4	-45.0	12.8	8.85e-05	0	59	0	428867584	54	5457
2026-01-29 11:50:17.33	262.98	18.19	-41.4	-45.0	12.8	5.49e-05	0	59	0	430964736	54	5405
2026-01-29 11:50:18.33	263.21	18.21	-41.4	-45.1	12.7	6.33e-05	0	59	0	433061888	54	5476
2026-01-29 11:50:19.34	263.45	18.23	-41.6	-45.5	12.3	8.85e-05	0	59	0	434110464	54	5736
2026-01-29 11:50:20.35	263.68	18.25	-41.7	-45.6	12.2	1.57e-04	0	59	0	436207616	54	5819
2026-01-29 11:50:21.36	263.92	18.27	-41.8	-45.7	12.1	2.82e-04	0	60	0	438304768	54	5909
2026-01-29 11:50:22.37	264.16	18.29	-41.7	-45.5	12.3	2.37e-04	0	59	0	440401920	54	5766
2026-01-29 11:50:23.38	264.39	18.31	-41.5	-45.3	12.5	1.77e-04	0	59	0	442499072	54	5620
2026-01-29 11:50:24.39	264.63	18.33	-41.5	-45.2	12.6	1.04e-04	0	59	0	443547648	54	5581
2026-01-29 11:50:25.40	264.87	18.34	-41.5	-45.3	12.5	9.38e-05	0	59	0	445644800	54	5619
2026-01-29 11:50:26.41	265.11	18.36	-41.7	-45.6	12.2	1.25e-04	0	60	0	447741952	54	5799
2026-01-29 11:50:27.42	265.34	18.38	-41.9	-45.9	11.9	3.13e-04	0	59	0	449839104	54	6051
2026-01-29 11:50:28.43	265.58	18.39	-42.0	-46.3	11.5	7.07e-04	0	59	0	451936256	54	6277
2026-01-29 11:50:29.44	265.82	18.41	-42.1	-46.4	11.3	1.18e-03	0	59	0	452984832	54	6406
2026-01-29 11:50:30.45	266.06	18.43	-42.0	-46.4	11.4	1.02e-03	0	59	0	455081984	54	6360
2026-01-29 11:50:31.46	266.30	18.44	-42.0	-46.4	11.5	8.65e-04	0	59	0	457179136	54	6351
2026-01-29 11:50:32.47	266.54	18.45	-42.0	-46.3	11.5	7.75e-04	0	60	0	459276288	54	6298
2026-01-29 11:50:33.48	266.78	18.47	-42.0	-46.4	11.5	7.99e-04	0	59	0	461373440	54	6348
2026-01-29 11:50:34.49	267.02	18.48	-42.1	-46.5	11.3	8.76e-04	0	60	0	462422016	54	6463
2026-01-29 11:50:35.50	267.26	18.49	-42.2	-46.6	11.2	1.42e-03	0	60	0	464519168	54	6563
2026-01-29 11:50:36.51	267.50	18.51	-42.3	-46.9	10.8	1.93e-03	0	60	0	466616320	55	6417
2026-01-29 11:50:37.52	267.74	18.52	-42.2	-46.7	11.0	2.38e-03	0	60	0	468713472	55	6274
2026-01-29 11:50:38.53	267.98	18.53	-42.1	-46.4	11.4	1.32e-03	0	59	0	470810624	55	6010
2026-01-29 11:50:39.54	268.22	18.54	-42.0	-46.1	11.6	8.43e-04	0	59	0	471859200	55	5847
2026-01-29 11:50:40.55	268.46	18.55	-42.0	-46.3	11.5	7.85e-04	0	60	0	473956352	55	5950
2026-01-29 11:50:41.57	268.70	18.56	-42.1	-46.6	11.2	1.01e-03	0	60	0	476053504	55	6148
2026-01-29 11:50:42.58	268.94	18.57	-42.3	-46.9	10.8	1.68e-03	0	60	0	478150656	55	6394
2026-01-29 11:50:43.59	269.18	18.58	-42.4	-47.2	10.5	3.22e-03	0	60	0	480247808	55	6601
2026-01-29 11:50:44.60	269.43	18.59	-42.5	-47.4	10.3	4.61e-03	0	60	0	482344960	55	6772
2026-01-29 11:50:45.61	269.67	18.60	-42.4	-47.2	10.5	4.77e-03	0	59	0	483393536	55	6590
2026-01-29 11:50:46.62	269.91	18.60	-42.4	-47.2	10.5	4.17e-03	0	60	0	485490688	55	6619
2026-01-29 11:50:47.63	270.15	18.61	-42.3	-47.0	10.8	3.35e-03	0	60	0	487587840	55	6428
2026-01-29 11:50:48.64	270.39	18.62	-42.3	-46.9	10.8	2.86e-03	0	60	0	489684992	55	6369
2026-01-29 11:50:49.65	270.63	18.62	-42.3	-46.9	10.8	2.44e-03	0	60	0	491782144	55	6388
2026-01-29 11:50:50.66	270.88	18.63	-42.3	-46.9	10.8	2.35e-03	0	59	0	492830720	55	6387
2026-01-29 11:50:51.67	271.12	18.63	-42.3	-46.9	10.8	2.68e-03	0	60	0	494927872	55	6413
2026-01-29 11:50:52.68	271.36	18.64	-42.1	-46.6	11.1	2.19e-03	0	59	0	497025024	55	6177
2026-01-29 11:50:53.69	271.60	18.64	-42.1	-46.6	11.2	1.43e-03	0	60	0	499122176	55	6136
2026-01-29 11:50:54.70	271.84	18.65	-42.0	-46.4	11.4	1.04e-03	0	60	0	501219328	55	5995
2026-01-29 11:50:55.71	272.09	18.65	-42.0	-46.3	11.5	8.67e-04	0	60	0	502267904	55	5956
2026-01-29 11:50:56.72	272.33	18.65	-42.0	-46.3	11.4	8.25e-04	0	60	0	504365056	55	5961
2026-01-29 11:50:57.73	272.57	18.65	-42.0	-46.2	11.6	1.03e-03	0	59	0	506462208	55	5885
2026-01-29 11:50:58.74	272.81	18.66	-42.0	-46.3	11.5	1.07e-03	0	59	0	508559360	55	5926
2026-01-29 11:50:59.75	273.05	18.66	-42.1	-46.4	11.3	1.03e-03	0	60	0	510656512	55	6049
2026-01-29 11:51:00.76	273.30	18.66	-42.0	-46.3	11.4	8.69e-04	0	60	0	511705088	55	5930
2026-01-29 11:51:01.77	273.54	18.66	-42.0	-46.2	11.5	8.80e-04	0	60	0	513802240	55	5889
2026-01-29 11:51:02.78	273.78	18.66	-42.0	-46.2	11.6	6.61e-04	0	60	0	515899392	55	5886
2026-01-29 11:51:03.79	274.02	18.66	-42.0	-46.2	11.6	7.32e-04	0	60	0	517996544	55	5867
2026-01-29 11:51:04.80	274.27	18.66	-42.0	-46.3	11.4	1.08e-03	0	60	0	520093696	55	5954
2026-01-29 11:51:05.81	274.51	18.65	-42.1	-46.6	11.1	1.04e-03	0	60	0	521142272	55	6159
2026-01-29 11:51:06.82	274.75	18.65	-42.2	-46.7	11.0	1.45e-03	0	60	0	523239424	55	6267
2026-01-29 11:51:07.82	274.99	18.65	-42.2	-46.8	11.0	1.79e-03	0	60	0	525336576	55	6289
2026-01-29 11:51:08.84	275.23	18.64	-42.2	-46.7	11.0	1.87e-03	0	60	0	527433728	55	6217
2026-01-29 11:51:09.84	275.47	18.64	-42.2	-46.8	10.9	1.94e-03	0	60	0	529530880	55	6301
2026-01-29 11:51:10.86	275.72	18.64	-42.2	-46.8	11.0	2.13e-03	0	60	0	530579456	55	6284
2026-01-29 11:51:11.86	275.96	18.63	-42.3	-46.9	10.7	2.42e-03	0	60	0	532676608	55	6412
2026-01-29 11:51:12.86	276.20	18.63	-42.3	-46.9	10.8	3.03e-03	0	60	0	534773760	55	6414
2026-01-29 11:51:13.87	276.44	18.62	-42.3	-47.0	10.6	3.35e-03	0	60	0	536870912	55	6482
2026-01-29 11:51:14.88	276.68	18.61	-42.3	-46.9	10.8	3.45e-03	0	60	0	538968064	55	6412
2026-01-29 11:51:15.89	276.92	18.61	-42.2	-46.7	11.0	2.27e-03	0	60	0	540016640	55	6221
2026-01-29 11:51:16.90	277.16	18.60	-42.1	-46.5	11.3	1.69e-03	0	60	0	542113792	55	6076
2026-01-29 11:51:17.91	277.40	18.59	-41.9	-46.1	11.6	9.02e-04	0	60	0	544210944	55	5841
2026-01-29 11:51:18.92	277.65	18.58	-41.9	-46.0	11.7	5.35e-04	0	59	0	546308096	55	5763
2026-01-29 11:51:19.93	277.89	18.57	-41.9	-46.0	11.7	5.66e-04	0	60	0	548405248	55	5763
2026-01-29 11:51:20.94	278.13	18.57	-41.9	-46.2	11.5	7.43e-04	0	60	0	550502400	55	5874
2026-01-29 11:51:21.95	278.37	18.56	-42.1	-46.5	11.2	9.02e-04	0	60	0	551550976	55	6074
2026-01-29 11:51:22.96	278.61	18.55	-42.1	-46.6	11.1	1.49e-03	0	60	0	553648128	55	6160
2026-01-29 11:51:23.97	278.85	18.53	-42.1	-46.6	11.1	1.54e-03	0	60	0	555745280	55	6194
2026-01-29 11:51:24.98	279.09	18.52	-42.2	-46.7	11.0	1.76e-03	0	60	0	557842432	55	6272
2026-01-29 11:51:25.99	279.33	18.51	-42.2	-46.6	11.0	1.92e-03	0	60	0	559939584	55	6196
2026-01-29 11:51:27.00	279.57	18.50	-42.2	-46.8	10.9	2.28e-03	0	60	0	560988160	55	6284
2026-01-29 11:51:28.01	279.81	18.49	-42.3	-47.0	10.7	2.83e-03	0	60	0	563085312	55	6454
2026-01-29 11:51:29.02	280.05	18.47	-42.4	-47.2	10.5	3.77e-03	0	60	0	565182464	55	6616
2026-01-29 11:51:30.03	280.29	18.46	-42.4	-47.4	10.3	5.19e-03	0	60	0	567279616	55	6734
2026-01-29 11:51:31.04	280.53	18.45	-42.5	-47.4	10.2	5.80e-03	0	60	0	569376768	55	6775
2026-01-29 11:51:32.05	280.76	18.43	-42.4	-47.3	10.4	4.73e-03	0	60	0	570425344	55	6666
2026-01-29 11:51:33.06	281.00	18.42	-42.4	-47.4	10.3	5.00e-03	0	60	0	572522496	55	6729
2026-01-29 11:51:34.07	281.24	18.40	-42.4	-47.3	10.3	4.59e-03	0	60	0	574619648	55	6696
2026-01-29 11:51:35.08	281.48	18.38	-42.3	-47.1	10.6	4.16e-03	0	60	0	576716800	55	6501
2026-01-29 11:51:36.09	281.72	18.37	-42.3	-47.1	10.6	3.64e-03	0	60	0	578813952	55	6509
2026-01-29 11:51:37.10	281.95	18.35	-42.2	-46.8	10.8	2.92e-03	0	60	0	579862528	55	6309
2026-01-29 11:51:38.11	282.19	18.33	-42.2	-46.7	10.9	1.98e-03	0	60	0	581959680	55	6269
2026-01-29 11:51:39.12	282.43	18.32	-42.1	-46.6	11.1	1.64e-03	0	60	0	584056832	55	6164
2026-01-29 11:51:40.13	282.66	18.30	-42.1	-46.5	11.3	1.21e-03	0	59	0	586153984	55	6068
2026-01-29 11:51:41.14	282.90	18.28	-42.0	-46.2	11.5	9.30e-04	0	60	0	588251136	55	5915
2026-01-29 11:51:42.15	283.14	18.26	-41.8	-45.9	11.8	4.76e-04	0	60	0	589299712	55	5686
2026-01-29 11:51:43.16	283.37	18.24	-41.7	-45.6	12.1	3.21e-04	0	60	0	591396864	55	5524
2026-01-29 11:51:44.17	283.61	18.22	-41.5	-45.3	12.5	2.29e-04	0	60	0	593494016	55	5308
2026-01-29 11:51:45.18	283.84	18.20	-41.6	-45.3	12.4	1.16e-04	0	60	0	595591168	54	5655
2026-01-29 11:51:46.19	284.08	18.18	-41.6	-45.4	12.4	1.09e-04	0	60	0	597688320	54	5681
2026-01-29 11:51:47.20	284.31	18.16	-41.7	-45.6	12.2	1.85e-04	0	60	0	598736896	54	5803
2026-01-29 11:51:48.21	284.55	18.13	-41.8	-45.9	11.8	3.73e-04	0	60	0	600834048	54	6031
2026-01-29 11:51:49.22	284.78	18.11	-42.0	-46.2	11.5	5.43e-04	0	60	0	602931200	54	6262
2026-01-29 11:51:50.23	285.01	18.09	-42.1	-46.5	11.3	9.67e-04	0	60	0	605028352	54	6435
2026-01-29 11:51:51.24	285.25	18.07	-42.1	-46.6	11.2	1.29e-03	0	60	0	607125504	54	6499
2026-01-29 11:51:52.25	285.48	18.04	-42.2	-46.8	10.9	1.29e-03	0	60	0	608174080	54	6659
2026-01-29 11:51:53.26	285.71	18.02	-42.2	-46.8	10.9	1.99e-03	0	60	0	610271232	54	6650
2026-01-29 11:51:54.27	285.94	17.99	-42.2	-46.7	11.0	2.33e-03	0	60	0	612368384	55	6262
2026-01-29 11:51:55.28	286.18	17.97	-42.3	-47.0	10.7	2.41e-03	0	60	0	614465536	55	6491
2026-01-29 11:51:56.29	286.41	17.94	-42.2	-46.7	10.9	2.14e-03	0	60	0	616562688	55	6262
2026-01-29 11:51:57.30	286.64	17.92	-42.2	-46.7	10.9	1.90e-03	0	60	0	617611264	55	6264
2026-01-29 11:51:58.31	286.87	17.89	-42.1	-46.5	11.2	1.42e-03	0	60	0	619708416	55	6106
2026-01-29 11:51:59.32	287.10	17.86	-41.9	-46.2	11.5	1.08e-03	0	60	0	621805568	55	5891
2026-01-29 11:52:00.33	287.33	17.84	-41.9	-46.0	11.7	7.54e-04	0	60	0	623902720	55	5771
2026-01-29 11:52:01.34	287.56	17.81	-41.8	-46.0	11.7	4.61e-04	0	60	0	625999872	55	5753
2026-01-29 11:52:02.35	287.79	17.78	-41.8	-45.9	11.8	3.91e-04	0	60	0	628097024	55	5704
2026-01-29 11:52:03.36	288.01	17.75	-41.8	-46.0	11.8	4.61e-04	0	60	0	629145600	55	5736
2026-01-29 11:52:04.37	288.24	17.73	-41.9	-46.0	11.6	5.09e-04	0	60	0	631242752	55	5773
2026-01-29 11:52:05.38	288.47	17.70	-42.0	-46.3	11.4	8.21e-04	0	60	0	633339904	55	5954
2026-01-29 11:52:06.39	288.70	17.67	-42.0	-46.4	11.4	9.84e-04	0	60	0	635437056	55	6019
2026-01-29 11:52:07.40	288.92	17.64	-42.0	-46.4	11.3	1.20e-03	0	60	0	637534208	55	6015
2026-01-29 11:52:08.41	289.15	17.61	-42.0	-46.4	11.3	1.19e-03	0	60	0	638582784	55	6015
2026-01-29 11:52:09.42	289.38	17.58	-41.9	-46.1	11.5	8.60e-04	0	60	0	640679936	55	5855
2026-01-29 11:52:10.43	289.60	17.54	-41.9	-46.1	11.6	6.35e-04	0	60	0	642777088	55	5822
2026-01-29 11:52:11.44	289.83	17.51	-41.8	-45.8	11.8	4.49e-04	0	60	0	644874240	55	5650
2026-01-29 11:52:12.45	290.05	17.48	-41.7	-45.7	12.0	3.89e-04	0	60	0	646971392	55	5559
2026-01-29 11:52:13.46	290.27	17.45	-41.7	-45.6	12.1	3.38e-04	0	60	0	648019968	55	5513
2026-01-29 11:52:14.47	290.50	17.42	-41.6	-45.6	12.1	2.26e-04	0	60	0	650117120	55	5487
2026-01-29 11:52:15.48	290.72	17.38	-41.7	-45.6	12.1	2.85e-04	0	60	0	652214272	55	5495
2026-01-29 11:52:16.49	290.94	17.35	-41.7	-45.7	12.0	2.82e-04	0	60	0	654311424	55	5544
2026-01-29 11:52:17.51	291.17	17.32	-41.7	-45.8	12.0	3.39e-04	0	60	0	656408576	55	5600
2026-01-29 11:52:18.51	291.39	17.28	-41.7	-45.7	11.9	3.07e-04	0	60	0	657457152	55	5582
2026-01-29 11:52:19.52	291.61	17.25	-41.6	-45.5	12.2	2.03e-04	0	60	0	659554304	55	5441
2026-01-29 11:52:20.53	291.83	17.21	-41.5	-45.3	12.4	1.43e-04	0	60	0	661651456	55	5312
2026-01-29 11:52:21.55	292.05	17.18	-41.4	-45.1	12.6	1.23e-04	0	60	0	663748608	54	5488
2026-01-29 11:52:22.56	292.27	17.14	-41.4	-45.1	12.6	1.05e-04	0	60	0	665845760	54	5516
2026-01-29 11:52:23.56	292.49	17.11	-41.4	-45.2	12.5	9.30e-05	0	60	0	667942912	54	5555
2026-01-29 11:52:24.57	292.70	17.07	-41.5	-45.2	12.5	9.76e-05	0	60	0	668991488	54	5591
2026-01-29 11:52:25.58	292.92	17.03	-41.4	-45.2	12.5	9.99e-05	0	60	0	671088640	54	5566
2026-01-29 11:52:26.59	293.14	17.00	-41.5	-45.3	12.4	1.23e-04	0	60	0	673185792	54	5632
2026-01-29 11:52:27.60	293.36	16.96	-41.5	-45.3	12.5	1.35e-04	0	60	0	675282944	54	5594
2026-01-29 11:52:28.61	293.57	16.92	-41.4	-45.2	12.6	1.56e-04	0	60	0	677380096	54	5531
2026-01-29 11:52:29.62	293.79	16.89	-41.4	-45.2	12.5	1.32e-04	0	60	0	678428672	54	5553
2026-01-29 11:52:30.63	294.00	16.85	-41.5	-45.2	12.5	1.50e-04	0	60	0	680525824	54	5580
2026-01-29 11:52:31.64	294.22	16.81	-41.5	-45.4	12.3	1.60e-04	0	60	0	682622976	54	5689
2026-01-29 11:52:32.65	294.43	16.77	-41.5	-45.3	12.4	1.59e-04	0	60	0	684720128	54	5641
2026-01-29 11:52:33.66	294.65	16.73	-41.5	-45.3	12.3	1.69e-04	0	60	0	686817280	54	5650
2026-01-29 11:52:34.67	294.86	16.69	-41.5	-45.3	12.3	1.98e-04	0	60	0	687865856	54	5649
2026-01-29 11:52:35.68	295.07	16.65	-41.5	-45.3	12.4	1.63e-04	0	60	0	689963008	54	5624
2026-01-29 11:52:36.69	295.28	16.61	-41.5	-45.3	12.4	1.49e-04	0	60	0	692060160	54	5601
2026-01-29 11:52:37.70	295.50	16.57	-41.4	-45.2	12.5	1.55e-04	0	60	0	694157312	54	5569
2026-01-29 11:52:38.71	295.71	16.53	-41.5	-45.3	12.4	1.94e-04	0	60	0	696254464	54	5627
2026-01-29 11:52:39.72	295.92	16.49	-41.5	-45.4	12.3	1.95e-04	0	60	0	697303040	54	5671
2026-01-29 11:52:40.73	296.13	16.45	-41.6	-45.6	12.1	3.09e-04	0	60	0	699400192	54	5818
2026-01-29 11:52:41.74	296.34	16.41	-41.6	-45.7	12.0	3.06e-04	0	60	0	701497344	54	5860
2026-01-29 11:52:42.75	296.54	16.36	-41.6	-45.7	12.0	3.35e-04	0	60	0	703594496	54	5871
2026-01-29 11:52:43.76	296.75	16.32	-41.7	-45.7	11.9	3.11e-04	0	60	0	705691648	54	5878
2026-01-29 11:52:44.77	296.96	16.28	-41.5	-45.4	12.2	2.66e-04	0	60	0	706740224	54	5688
2026-01-29 11:52:45.78	297.17	16.24	-41.5	-45.3	12.4	2.04e-04	0	60	0	708837376	54	5601
2026-01-29 11:52:46.79	297.37	16.19	-41.4	-45.0	12.6	1.05e-04	0	60	0	710934528	54	5448
2026-01-29 11:52:47.81	297.58	16.15	-41.4	-45.0	12.6	1.04e-04	0	60	0	713031680	54	5461
2026-01-29 11:52:48.81	297.78	16.11	-41.4	-45.1	12.6	8.77e-05	0	60	0	715128832	54	5498
2026-01-29 11:52:49.83	297.99	16.06	-41.4	-45.2	12.5	1.01e-04	0	60	0	716177408	54	5544
2026-01-29 11:52:50.84	298.19	16.02	-41.5	-45.3	12.3	1.51e-04	0	60	0	718274560	54	5607
2026-01-29 11:52:51.85	298.40	15.98	-41.6	-45.5	12.1	2.10e-04	0	60	0	720371712	54	5778
2026-01-29 11:52:52.86	298.60	15.93	-41.6	-45.6	12.0	3.29e-04	0	60	0	722468864	54	5843
2026-01-29 11:52:53.87	298.80	15.89	-41.5	-45.5	12.2	3.11e-04	0	60	0	724566016	54	5735
2026-01-29 11:52:54.88	299.00	15.84	-41.5	-45.4	12.2	2.21e-04	0	60	0	725614592	54	5698
2026-01-29 11:52:55.89	299.21	15.80	-41.5	-45.3	12.3	1.79e-04	0	60	0	727711744	54	5636
2026-01-29 11:52:56.90	299.41	15.75	-41.4	-45.2	12.5	1.58e-04	0	60	0	729808896	54	5547
2026-01-29 11:52:57.91	299.61	15.70	-41.6	-45.5	12.1	1.53e-04	0	60	0	731906048	54	5763
2026-01-29 11:52:58.92	299.80	15.66	-41.7	-45.7	11.9	2.17e-04	0	60	0	734003200	54	5921
2026-01-29 11:52:59.93	300.00	15.61	-41.9	-46.3	11.4	5.78e-04	0	60	0	736100352	54	6281
2026-01-29 11:53:00.94	300.20	15.57	-42.0	-46.5	11.0	1.36e-03	0	60	0	737148928	54	6487
2026-01-29 11:53:01.95	300.40	15.52	-42.2	-46.9	10.6	1.87e-03	0	60	0	739246080	54	6795
2026-01-29 11:53:02.96	300.60	15.47	-42.2	-47.0	10.6	3.92e-03	0	60	0	741343232	55	6435
2026-01-29 11:53:03.97	300.79	15.43	-42.2	-46.9	10.6	3.35e-03	0	60	0	743440384	55	6392
2026-01-29 11:53:04.98	300.99	15.38	-42.2	-46.9	10.7	3.26e-03	0	60	0	745537536	55	6373
2026-01-29 11:53:05.99	301.18	15.33	-42.0	-46.5	11.1	1.82e-03	0	60	0	746586112	55	6112
2026-01-29 11:53:07.00	301.38	15.28	-42.0	-46.4	11.2	1.03e-03	0	60	0	748683264	55	6014
2026-01-29 11:53:08.01	301.57	15.23	-41.8	-46.0	11.6	7.36e-04	0	60	0	750780416	55	5737
2026-01-29 11:53:09.02	301.76	15.19	-41.7	-45.8	11.9	4.36e-04	0	60	0	752877568	55	5594
2026-01-29 11:53:10.04	301.96	15.14	-41.6	-45.6	12.0	3.00e-04	0	60	0	754974720	55	5527
2026-01-29 11:53:11.05	302.15	15.09	-41.6	-45.5	12.1	2.92e-04	0	60	0	756023296	55	5451
2026-01-29 11:53:12.06	302.34	15.04	-41.7	-45.8	11.8	3.55e-04	0	60	0	758120448	55	5633
2026-01-29 11:53:13.06	302.53	14.99	-41.7	-45.8	11.8	5.23e-04	0	60	0	760217600	55	5630
2026-01-29 11:53:14.07	302.72	14.94	-41.7	-45.9	11.7	5.30e-04	0	60	0	762314752	55	5684
2026-01-29 11:53:15.09	302.91	14.89	-41.8	-46.0	11.5	8.06e-04	0	60	0	764411904	55	5786
2026-01-29 11:53:16.09	303.10	14.84	-41.9	-46.2	11.5	8.18e-04	0	60	0	765460480	55	5864
2026-01-29 11:53:17.10	303.29	14.79	-41.9	-46.3	11.3	8.78e-04	0	60	0	767557632	55	5946
2026-01-29 11:53:18.11	303.47	14.74	-42.0	-46.4	11.2	9.94e-04	0	60	0	769654784	55	6012
2026-01-29 11:53:19.12	303.66	14.69	-42.0	-46.6	11.0	1.54e-03	0	60	0	771751936	55	6132
2026-01-29 11:53:20.13	303.85	14.64	-42.1	-46.7	10.8	2.92e-03	0	60	0	773849088	55	6241
2026-01-29 11:53:21.14	304.03	14.59	-42.2	-47.0	10.6	4.11e-03	0	60	0	774897664	55	6469
2026-01-29 11:53:22.15	304.22	14.54	-42.4	-47.4	10.0	6.82e-03	0	60	0	776994816	55	6789
2026-01-29 11:53:23.16	304.40	14.49	-42.4	-47.5	10.0	8.51e-03	0	60	0	779091968	55	6836
2026-01-29 11:53:24.17	304.59	14.44	-42.5	-47.7	9.8	1.07e-02	0	60	0	781189120	55	6997
2026-01-29 11:53:25.18	304.77	14.39	-42.4	-47.4	10.0	8.23e-03	0	60	0	783286272	55	6798
2026-01-29 11:53:26.20	304.95	14.34	-42.3	-47.3	10.2	7.15e-03	0	60	0	784334848	55	6719
2026-01-29 11:53:27.21	305.14	14.29	-42.3	-47.2	10.3	6.61e-03	0	60	0	786432000	55	6634
2026-01-29 11:53:28.22	305.32	14.23	-42.3	-47.1	10.4	4.55e-03	0	60	0	788529152	55	6539
2026-01-29 11:53:29.23	305.50	14.18	-42.2	-47.1	10.4	4.08e-03	0	60	0	790626304	55	6530
2026-01-29 11:53:30.24	305.68	14.13	-42.2	-46.9	10.6	4.63e-03	0	60	0	792723456	55	6407
2026-01-29 11:53:31.25	305.86	14.08	-42.3	-47.1	10.4	4.43e-03	0	60	0	793772032	55	6561
2026-01-29 11:53:32.26	306.04	14.03	-42.3	-47.2	10.4	4.72e-03	0	60	0	795869184	55	6589
2026-01-29 11:53:33.27	306.22	13.97	-42.3	-47.1	10.5	3.60e-03	0	60	0	797966336	55	6539
2026-01-29 11:53:34.28	306.39	13.92	-42.2	-46.9	10.6	2.87e-03	0	60	0	800063488	55	6397
2026-01-29 11:53:35.29	306.57	13.87	-42.1	-46.7	10.8	2.42e-03	0	60	0	802160640	55	6257
2026-01-29 11:53:36.30	306.75	13.82	-42.1	-46.8	10.7	2.58e-03	0	60	0	804257792	55	6317
2026-01-29 11:53:37.31	306.92	13.76	-42.1	-46.7	10.8	1.99e-03	0	60	0	805306368	55	6235
2026-01-29 11:53:38.32	307.10	13.71	-42.1	-46.7	10.9	2.20e-03	0	60	0	807403520	55	6219
2026-01-29 11:53:39.33	307.27	13.66	-42.2	-46.9	10.6	2.56e-03	0	60	0	809500672	55	6404
2026-01-29 11:53:40.34	307.45	13.60	-42.1	-46.8	10.7	2.63e-03	0	60	0	811597824	55	6338
2026-01-29 11:53:41.35	307.62	13.55	-42.2	-46.9	10.5	2.72e-03	0	60	0	813694976	55	6402
2026-01-29 11:53:42.36	307.79	13.50	-42.2	-47.1	10.4	4.20e-03	0	60	0	814743552	55	6527
2026-01-29 11:53:43.37	307.96	13.44	-42.2	-47.1	10.4	4.20e-03	0	60	0	816840704	55	6524
2026-01-29 11:53:44.38	308.14	13.39	-42.3	-47.2	10.3	4.72e-03	0	60	0	818937856	55	6573
2026-01-29 11:53:45.39	308.31	13.34	-42.2	-47.1	10.4	4.62e-03	0	60	0	821035008	55	6506
2026-01-29 11:53:46.40	308.48	13.28	-42.3	-47.2	10.3	6.04e-03	0	60	0	823132160	55	6611
2026-01-29 11:53:47.41	308.65	13.23	-42.2	-47.1	10.4	6.02e-03	0	60	0	824180736	55	6525
2026-01-29 11:53:48.42	308.82	13.17	-42.3	-47.5	10.0	7.31e-03	0	60	0	826277888	55	6802
2026-01-29 11:53:49.43	308.99	13.12	-42.4	-47.5	9.9	8.87e-03	0	60	0	828375040	55	6864
2026-01-29 11:53:50.44	309.15	13.07	-42.4	-47.5	9.9	8.72e-03	0	60	0	830472192	55	6855
2026-01-29 11:53:51.45	309.32	13.01	-42.4	-47.6	9.8	9.40e-03	0	60	0	832569344	55	6953
2026-01-29 11:53:52.46	309.49	12.96	-42.3	-47.3	10.1	9.01e-03	0	60	0	833617920	55	6704
2026-01-29 11:53:53.47	309.65	12.90	-42.3	-47.3	10.1	6.49e-03	0	60	0	835715072	55	6704
2026-01-29 11:53:54.48	309.82	12.85	-42.2	-47.0	10.5	4.96e-03	0	60	0	837812224	55	6440
2026-01-29 11:53:55.49	309.98	12.79	-42.1	-46.8	10.7	3.05e-03	0	60	0	839909376	55	6277
2026-01-29 11:53:56.50	310.15	12.74	-42.2	-47.0	10.5	3.06e-03	0	60	0	842006528	55	6442
2026-01-29 11:53:57.51	310.31	12.68	-42.1	-46.8	10.6	3.35e-03	0	60	0	843055104	55	6312
2026-01-29 11:53:58.52	310.48	12.63	-42.1	-46.9	10.6	3.33e-03	0	60	0	845152256	55	6392
2026-01-29 11:53:59.53	310.64	12.57	-42.2	-47.0	10.4	4.10e-03	0	60	0	847249408	55	6485
2026-01-29 11:54:00.54	310.80	12.52	-42.2	-47.1	10.3	4.23e-03	0	60	0	849346560	55	6563
2026-01-29 11:54:01.55	310.96	12.46	-42.2	-47.1	10.4	4.40e-03	0	60	0	851443712	55	6504
2026-01-29 11:54:02.56	311.12	12.41	-42.2	-47.1	10.4	4.78e-03	0	60	0	853540864	55	6519
2026-01-29 11:54:03.57	311.28	12.35	-42.2	-47.0	10.4	4.39e-03	0	60	0	854589440	55	6452
2026-01-29 11:54:04.58	311.44	12.30	-42.1	-46.8	10.7	3.24e-03	0	60	0	856686592	55	6291
2026-01-29 11:54:05.59	311.60	12.24	-42.0	-46.6	10.9	2.73e-03	0	60	0	858783744	55	6167
2026-01-29 11:54:06.60	311.76	12.18	-41.8	-46.2	11.2	1.80e-03	0	60	0	860880896	55	5910
2026-01-29 11:54:07.61	311.92	12.13	-41.8	-46.0	11.4	1.10e-03	0	60	0	862978048	55	5786
2026-01-29 11:54:08.62	312.07	12.07	-41.8	-46.0	11.4	7.98e-04	0	60	0	864026624	55	5781
2026-01-29 11:54:09.63	312.23	12.02	-41.6	-45.8	11.7	8.29e-04	0	60	0	866123776	55	5603
2026-01-29 11:54:10.64	312.39	11.96	-41.8	-46.1	11.4	7.47e-04	0	60	0	868220928	55	5839
2026-01-29 11:54:11.65	312.54	11.90	-41.8	-46.2	11.3	1.20e-03	0	60	0	870318080	55	5858
2026-01-29 11:54:12.66	312.70	11.85	-41.8	-46.1	11.3	1.03e-03	0	60	0	872415232	55	5822
2026-01-29 11:54:13.67	312.85	11.79	-41.8	-46.2	11.2	1.37e-03	0	60	0	873463808	55	5910
2026-01-29 11:54:14.68	313.01	11.74	-41.8	-46.3	11.2	1.42e-03	0	60	0	875560960	55	5924
2026-01-29 11:54:15.69	313.16	11.68	-41.8	-46.2	11.2	1.23e-03	0	60	0	877658112	55	5892
2026-01-29 11:54:16.70	313.31	11.62	-41.8	-46.3	11.1	1.29e-03	0	60	0	879755264	55	5955
2026-01-29 11:54:17.71	313.46	11.57	-41.7	-46.0	11.5	1.11e-03	0	60	0	881852416	55	5735
2026-01-29 11:54:18.72	313.62	11.51	-41.7	-46.1	11.4	8.41e-04	0	60	0	882900992	55	5792
2026-01-29 11:54:19.73	313.77	11.45	-41.7	-45.9	11.6	9.07e-04	0	60	0	884998144	55	5669
2026-01-29 11:54:20.74	313.92	11.40	-41.6	-45.7	11.7	5.52e-04	0	60	0	887095296	55	5572
2026-01-29 11:54:21.75	314.07	11.34	-41.7	-46.0	11.5	7.41e-04	0	60	0	889192448	55	5728
2026-01-29 11:54:22.76	314.22	11.29	-41.7	-46.1	11.3	9.70e-04	0	60	0	891289600	55	5843
2026-01-29 11:54:23.77	314.37	11.23	-41.8	-46.2	11.2	1.22e-03	0	60	0	892338176	55	5883
2026-01-29 11:54:24.78	314.51	11.17	-41.8	-46.3	11.1	1.70e-03	0	60	0	894435328	55	5945
2026-01-29 11:54:25.78	314.66	11.12	-41.8	-46.3	11.1	1.66e-03	0	60	0	896532480	55	5958
2026-01-29 11:54:26.79	314.81	11.06	-41.9	-46.5	10.9	1.89e-03	0	60	0	898629632	55	6088
2026-01-29 11:54:27.81	314.95	11.00	-41.8	-46.3	11.1	1.50e-03	0	60	0	900726784	55	5957
2026-01-29 11:54:28.82	315.10	10.95	-41.7	-46.0	11.5	1.23e-03	0	60	0	901775360	55	5733
2026-01-29 11:54:29.83	315.25	10.89	-41.6	-45.8	11.6	9.38e-04	0	60	0	903872512	55	5653
2026-01-29 11:54:30.84	315.39	10.83	-41.6	-45.7	11.7	6.19e-04	0	60	0	905969664	55	5561
2026-01-29 11:54:31.85	315.54	10.77	-41.4	-45.4	12.1	4.68e-04	0	60	0	908066816	54	5661
2026-01-29 11:54:32.86	315.68	10.72	-41.3	-45.2	12.1	2.53e-04	0	60	0	910163968	54	5583
2026-01-29 11:54:33.86	315.82	10.66	-41.3	-45.2	12.2	2.67e-04	0	60	0	912261120	54	5549
2026-01-29 11:54:34.87	315.96	10.60	-41.3	-45.1	12.3	1.78e-04	0	60	0	913309696	54	5505
2026-01-29 11:54:35.88	316.11	10.55	-41.4	-45.3	12.1	2.14e-04	0	60	0	915406848	54	5614
2026-01-29 11:54:36.89	316.25	10.49	-41.4	-45.3	12.0	2.78e-04	0	60	0	917504000	54	5641
2026-01-29 11:54:37.90	316.39	10.43	-41.5	-45.5	11.9	3.17e-04	0	60	0	919601152	54	5766
2026-01-29 11:54:38.91	316.53	10.38	-41.5	-45.6	11.8	3.64e-04	0	60	0	921698304	54	5837
2026-01-29 11:54:39.93	316.67	10.32	-41.5	-45.5	11.8	5.13e-04	0	60	0	922746880	54	5788
2026-01-29 11:54:40.94	316.81	10.26	-41.6	-45.8	11.6	6.00e-04	0	60	0	924844032	54	5938
2026-01-29 11:54:41.95	316.95	10.21	-41.6	-45.9	11.4	8.00e-04	0	60	0	926941184	54	6059
2026-01-29 11:54:42.95	317.09	10.15	-41.6	-45.8	11.6	8.93e-04	0	60	0	929038336	54	5944
2026-01-29 11:54:43.96	317.22	10.09	-41.7	-46.1	11.3	8.06e-04	0	60	0	931135488	54	6140
2026-01-29 11:54:44.97	317.36	10.03	-41.7	-46.2	11.2	1.41e-03	0	60	0	932184064	54	6228
2026-01-29 11:54:45.98	317.50	9.98	-41.8	-46.3	11.0	1.48e-03	0	60	0	934281216	54	6311
2026-01-29 11:54:46.99	317.63	9.92	-41.8	-46.5	10.8	1.98e-03	0	60	0	936378368	54	6452
2026-01-29 11:54:48.01	317.77	9.86	-41.9	-46.6	10.7	2.84e-03	0	60	0	938475520	54	6523
2026-01-29 11:54:49.02	317.91	9.81	-41.9	-46.7	10.6	3.52e-03	0	60	0	940572672	54	6583
2026-01-29 11:54:50.03	318.04	9.75	-42.0	-46.9	10.4	4.51e-03	0	60	0	941621248	54	6734
2026-01-29 11:54:51.04	318.18	9.69	-42.0	-46.8	10.5	4.72e-03	0	60	0	943718400	54	6684
2026-01-29 11:54:52.05	318.31	9.63	-42.0	-47.0	10.3	4.55e-03	0	60	0	945815552	54	6816
2026-01-29 11:54:53.06	318.44	9.58	-42.0	-46.8	10.5	4.53e-03	0	60	0	947912704	54	6677
2026-01-29 11:54:54.07	318.58	9.52	-41.9	-46.5	10.7	3.19e-03	0	60	0	950009856	54	6491
2026-01-29 11:54:55.08	318.71	9.46	-41.9	-46.6	10.6	2.94e-03	0	60	0	951058432	54	6515
2026-01-29 11:54:56.09	318.84	9.41	-41.7	-46.1	11.1	1.78e-03	0	60	0	953155584	54	6177
2026-01-29 11:54:57.10	318.97	9.35	-41.6	-46.0	11.3	1.31e-03	0	60	0	955252736	54	6100
2026-01-29 11:54:58.10	319.10	9.29	-41.7	-46.1	11.2	1.37e-03	0	60	0	957349888	54	6181
2026-01-29 11:54:59.11	319.23	9.24	-41.6	-45.8	11.5	8.89e-04	0	60	0	959447040	54	5984
2026-01-29 11:55:00.13	319.36	9.18	-41.6	-45.9	11.4	8.46e-04	0	60	0	960495616	54	6004
2026-01-29 11:55:01.13	319.49	9.12	-41.5	-45.8	11.4	1.04e-03	0	60	0	962592768	54	5969
2026-01-29 11:55:02.14	319.62	9.06	-41.6	-46.0	11.3	1.08e-03	0	60	0	964689920	54	6092
2026-01-29 11:55:03.15	319.75	9.01	-41.8	-46.3	10.9	1.90e-03	0	60	0	966787072	54	6326
2026-01-29 11:55:04.16	319.88	8.95	-41.8	-46.5	10.7	2.24e-03	0	60	0	968884224	54	6425
2026-01-29 11:55:05.17	320.00	8.89	-41.9	-46.7	10.5	3.17e-03	0	60	0	969932800	54	6607
2026-01-29 11:55:06.18	320.13	8.84	-42.0	-47.0	10.2	5.43e-03	0	60	0	972029952	54	6869
2026-01-29 11:55:07.19	320.26	8.78	-42.0	-47.1	10.1	5.52e-03	0	60	0	974127104	54	6932
2026-01-29 11:55:08.20	320.38	8.72	-42.1	-47.2	10.0	7.47e-03	0	60	0	976224256	54	6986
2026-01-29 11:55:09.21	320.51	8.67	-42.1	-47.2	10.0	8.81e-03	0	60	0	978321408	54	6978
2026-01-29 11:55:10.22	320.63	8.61	-42.0	-47.1	10.1	7.77e-03	0	60	0	980418560	54	6883
2026-01-29 11:55:11.23	320.76	8.55	-42.1	-47.1	10.0	7.43e-03	0	60	0	981467136	54	6957
2026-01-29 11:55:12.25	320.88	8.49	-42.0	-47.1	10.1	7.04e-03	0	60	0	983564288	54	6897
2026-01-29 11:55:13.25	321.01	8.44	-42.0	-47.0	10.2	6.35e-03	0	60	0	985661440	54	6814
2026-01-29 11:55:14.26	321.13	8.38	-42.0	-46.9	10.3	6.63e-03	0	60	0	987758592	54	6773
2026-01-29 11:55:15.28	321.25	8.32	-42.0	-47.0	10.1	6.07e-03	0	60	0	989855744	54	6876
2026-01-29 11:55:16.29	321.38	8.27	-42.0	-47.1	10.0	7.16e-03	0	60	0	990904320	54	6942
2026-01-29 11:55:17.30	321.50	8.21	-42.1	-47.3	9.9	7.87e-03	0	60	0	993001472	54	7050
2026-01-29 11:55:18.31	321.62	8.15	-42.1	-47.3	9.8	9.84e-03	0	60	0	995098624	54	7120
2026-01-29 11:55:19.32	321.74	8.10	-42.1	-47.5	9.7	1.28e-02	0	60	0	997195776	54	7229
2026-01-29 11:55:20.33	321.86	8.04	-42.2	-47.6	9.5	1.49e-02	0	60	0	999292928	54	7295
2026-01-29 11:55:21.34	321.98	7.98	-42.3	-48.0	9.2	1.54e-02	0	60	0	1000341504	55	7210
2026-01-29 11:55:22.35	322.10	7.93	-44.3	-58.9	3.8	1.48e+00	0	60	104	1001390080	59	20086
2026-01-29 11:55:23.36	322.22	7.87	-44.5	-59.1	3.8	1.49e+00	0	60	104	1001390080	59	20567
2026-01-29 11:55:24.37	322.34	7.81	-44.7	-59.4	3.8	1.49e+00	0	60	104	1001390080	60	20272
2026-01-29 11:55:25.38	322.46	7.76	-44.8	-59.6	3.8	1.49e+00	0	60	104	1001390080	60	20612
2026-01-29 11:55:26.39	322.57	7.70	-44.9	-59.7	3.8	1.49e+00	0	60	104	1001390080	60	20987
2026-01-29 11:55:27.40	322.69	7.64	-45.0	-59.8	3.8	1.49e+00	0	60	104	1001390080	60	21153
2026-01-29 11:55:28.41	322.81	7.59	-45.1	-59.9	3.8	1.49e+00	0	60	104	1001390080	60	21277
2026-01-29 11:55:29.42	322.92	7.53	-45.1	-59.9	3.8	1.49e+00	0	60	104	1001390080	60	21435
2026-01-29 11:55:30.44	323.04	7.47	-45.0	-59.9	3.8	1.49e+00	0	60	104	1001390080	60	21312
2026-01-29 11:55:31.45	323.16	7.42	-45.0	-59.8	3.8	1.49e+00	0	60	104	1001390080	60	21213
2026-01-29 11:55:32.46	323.27	7.36	-44.9	-59.8	3.8	1.49e+00	0	60	104	1001390080	60	21207
2026-01-29 11:55:33.47	323.39	7.30	-44.9	-59.8	3.8	1.49e+00	0	60	104	1001390080	60	21178
2026-01-29 11:55:34.48	323.50	7.25	-44.9	-59.8	3.8	1.49e+00	0	60	104	1001390080	60	21189
2026-01-29 11:55:35.49	323.62	7.19	-44.9	-59.8	3.8	1.49e+00	0	61	104	1001390080	60	21189
2026-01-29 11:55:36.50	323.73	7.13	-44.9	-59.8	3.8	1.49e+00	0	60	104	1001390080	60	21199
2026-01-29 11:55:37.51	323.84	7.08	-44.9	-59.8	3.8	1.49e+00	0	60	104	1001390080	60	21099
2026-01-29 11:55:38.52	323.95	7.02	-44.9	-59.8	3.8	1.49e+00	0	60	104	1001390080	60	21043
2026-01-29 11:55:39.53	324.07	6.97	-44.9	-59.8	3.8	1.49e+00	0	60	104	1001390080	60	21037
2026-01-29 11:55:40.54	324.18	6.91	-44.8	-59.8	3.8	1.49e+00	0	60	104	1001390080	60	21060
2026-01-29 11:55:41.55	324.29	6.85	-44.9	-59.8	3.8	1.49e+00	0	60	104	1001390080	60	21020
2026-01-29 11:55:42.56	324.40	6.80	-44.8	-59.7	3.8	1.49e+00	0	60	104	1001390080	60	20991
2026-01-29 11:55:43.57	324.51	6.74	-44.9	-59.8	3.8	1.49e+00	0	60	104	1001390080	60	21035
2026-01-29 11:55:44.58	324.62	6.68	-44.9	-59.8	3.8	1.49e+00	0	60	104	1001390080	60	21074
2026-01-29 11:55:45.59	324.73	6.63	-44.9	-59.8	3.8	1.49e+00	0	60	104	1001390080	60	21036
2026-01-29 11:55:46.60	324.84	6.57	-44.9	-59.7	3.8	1.49e+00	0	60	104	1001390080	60	21001
2026-01-29 11:55:47.62	324.95	6.52	-44.9	-59.8	3.8	1.49e+00	0	60	104	1001390080	60	21030
2026-01-29 11:55:48.63	325.06	6.46	-44.7	-59.7	3.8	1.49e+00	0	60	104	1001390080	60	21008
2026-01-29 11:55:49.64	325.17	6.40	-44.9	-59.7	3.8	1.49e+00	0	60	104	1001390080	60	21015
2026-01-29 11:55:50.65	325.28	6.35	-44.9	-59.7	3.8	1.49e+00	0	60	104	1001390080	60	20966
2026-01-29 11:55:51.66	325.38	6.29	-44.7	-59.7	3.8	1.49e+00	0	60	104	1001390080	60	20979
2026-01-29 11:55:52.67	325.49	6.24	-44.9	-59.8	3.8	1.49e+00	0	60	104	1001390080	60	21082
2026-01-29 11:55:53.68	325.60	6.18	-44.9	-59.8	3.8	1.49e+00	0	60	104	1001390080	60	21059
2026-01-29 11:55:54.69	325.70	6.13	-44.9	-59.7	3.8	1.49e+00	0	60	104	1001390080	60	20990
2026-01-29 11:55:55.70	325.81	6.07	-44.9	-59.7	3.8	1.49e+00	0	60	104	1001390080	60	20996
2026-01-29 11:55:56.71	325.91	6.01	-44.9	-59.7	3.8	1.49e+00	0	60	104	1001390080	60	20945
2026-01-29 11:55:57.72	326.02	5.96	-44.9	-59.8	3.8	1.49e+00	0	61	104	1001390080	60	21018
2026-01-29 11:55:58.73	326.12	5.90	-44.9	-59.7	3.8	1.49e+00	0	60	104	1001390080	60	20977
2026-01-29 11:55:59.74	326.23	5.85	-44.9	-59.7	3.8	1.49e+00	0	60	104	1001390080	60	20993
2026-01-29 11:56:00.75	326.33	5.79	-44.7	-59.7	3.8	1.49e+00	0	60	104	1001390080	60	20971
2026-01-29 11:56:01.76	326.43	5.74	-44.9	-59.7	3.8	1.49e+00	0	61	104	1001390080	60	20989
2026-01-29 11:56:02.77	326.54	5.68	-44.9	-59.7	3.8	1.49e+00	0	60	104	1001390080	60	20961
2026-01-29 11:56:03.78	326.64	5.63	-44.9	-59.8	3.8	1.49e+00	0	60	104	1001390080	60	21030
2026-01-29 11:56:04.79	326.74	5.57	-44.9	-59.7	3.8	1.49e+00	0	60	104	1001390080	60	20967
2026-01-29 11:56:05.80	326.84	5.52	-44.9	-59.7	3.8	1.49e+00	0	60	104	1001390080	60	20985
2026-01-29 11:56:06.81	326.95	5.46	-44.9	-59.7	3.8	1.49e+00	0	60	104	1001390080	60	20956
2026-01-29 11:56:07.82	327.05	5.41	-44.9	-59.7	3.8	1.49e+00	0	60	104	1001390080	60	20980
2026-01-29 11:56:08.83	327.15	5.35	-44.9	-59.7	3.8	1.49e+00	0	61	104	1001390080	60	21004
2026-01-29 11:56:09.85	327.25	5.29	-44.9	-59.7	3.8	1.49e+00	0	60	104	1001390080	60	20960
2026-01-29 11:56:10.86	327.35	5.24	-44.9	-59.7	3.8	1.49e+00	0	61	104	1001390080	60	20980
2026-01-29 11:56:11.87	327.45	5.19	-44.8	-59.7	3.8	1.49e+00	0	60	104	1001390080	60	20971
2026-01-29 11:56:12.88	327.55	5.13	-44.8	-59.7	3.8	1.49e+00	0	61	104	1001390080	60	20887
2026-01-29 11:56:13.89	327.65	5.08	-44.9	-59.7	3.8	1.49e+00	0	60	104	1001390080	60	20961
2026-01-29 11:56:14.90	327.75	5.02	-44.8	-59.7	3.8	1.49e+00	0	60	104	1001390080	60	20967
2026-01-29 11:56:15.91	327.85	4.97	-44.9	-59.7	3.8	1.49e+00	0	60	104	1001390080	60	20975
2026-01-29 11:56:16.91	327.94	4.91	-44.9	-59.7	3.8	1.49e+00	0	61	104	1001390080	60	21012
2026-01-29 11:56:17.93	328.04	4.86	-44.9	-59.7	3.8	1.49e+00	0	61	104	1001390080	60	20944
2026-01-29 11:56:18.94	328.14	4.80	-44.9	-59.7	3.8	1.49e+00	0	61	104	1001390080	60	20977
2026-01-29 11:56:19.95	328.24	4.75	-44.8	-59.7	3.8	1.49e+00	0	60	104	1001390080	60	20936
2026-01-29 11:56:20.96	328.33	4.69	-44.9	-59.7	3.8	1.49e+00	0	60	104	1001390080	60	20861
2026-01-29 11:56:21.97	328.43	4.64	-44.8	-59.7	3.8	1.49e+00	0	61	104	1001390080	60	20992
2026-01-29 11:56:22.98	328.53	4.58	-44.8	-59.7	3.8	1.49e+00	0	60	104	1001390080	60	20999
2026-01-29 11:56:23.99	328.62	4.53	-44.9	-59.8	3.8	1.49e+00	0	61	104	1001390080	60	21047
2026-01-29 11:56:25.00	328.72	4.48	-44.8	-59.7	3.8	1.49e+00	0	60	104	1001390080	60	20923
2026-01-29 11:56:26.01	328.81	4.42	-44.9	-59.7	3.8	1.49e+00	0	60	104	1001390080	60	20947
2026-01-29 11:56:27.02	328.91	4.37	-44.8	-59.7	3.8	1.49e+00	0	60	104	1001390080	60	20947
2026-01-29 11:56:28.03	329.00	4.31	-44.9	-59.7	3.8	1.49e+00	0	60	104	1001390080	60	20942
2026-01-29 11:56:29.04	329.09	4.26	-44.9	-59.7	3.8	1.49e+00	0	60	104	1001390080	60	20937
2026-01-29 11:56:30.05	329.19	4.20	-44.8	-59.7	3.8	1.49e+00	0	60	104	1001390080	60	20866
2026-01-29 11:56:31.05	329.28	4.15	-44.9	-59.7	3.8	1.49e+00	0	61	104	1001390080	60	20976
2026-01-29 11:56:32.06	329.37	4.10	-44.9	-59.7	3.8	1.49e+00	0	60	104	1001390080	60	20995
2026-01-29 11:56:33.07	329.47	4.04	-44.8	-59.7	3.8	1.49e+00	0	60	104	1001390080	60	20979
