passes_logs/2026/01/29/R2.0S_Moscow/R2.0S_Moscow__20260129_171922_FENGYUN_3G_rec.log

#Pass ID: 20260129_171922_FENGYUN 3G
#Satellite: FENGYUN 3G
#Configuration: FENGYUN 3G
#almurnet v.1.7.20251203
#Start time: 2026-01-29 17:19:22

#Version: 2.2.20231116
#Station: R2.0S_Moscow
#Location: 37.707566 lon 55.798166 lat
#TLE: 1 56232U 23055A   26027.33093889  .00044881  00000+0  67100-3 0  9994
#TLE: 2 56232  49.9947 352.2708 0004101  93.7831 266.3606 15.54500775158110

#Time	Az	El	Level	Level2	SNR	BER	BlckErr	Temp	State	Recorded	gain1	gain2
2026-01-29 17:19:22.09	249.61	1.98	-44.0	-62.5	3.8	8.47e-01	0	51	0	0	60	28908
2026-01-29 17:19:23.09	249.54	2.05	-44.0	-62.5	3.8	8.45e-01	0	51	104	0	60	28891
2026-01-29 17:19:24.10	249.48	2.11	-44.0	-62.5	3.8	8.46e-01	0	51	104	0	60	28940
2026-01-29 17:19:25.11	249.42	2.18	-44.0	-62.5	3.8	8.46e-01	0	51	104	0	60	28924
2026-01-29 17:19:26.12	249.36	2.25	-44.0	-62.5	3.8	8.46e-01	0	52	104	0	60	28893
2026-01-29 17:19:27.13	249.29	2.31	-44.0	-62.5	3.8	8.46e-01	0	52	104	0	60	28870
2026-01-29 17:19:28.14	249.23	2.38	-44.1	-62.5	3.8	8.47e-01	0	52	104	0	60	28822
2026-01-29 17:19:29.16	249.16	2.45	-44.0	-62.5	3.8	8.47e-01	0	52	104	0	60	28874
2026-01-29 17:19:30.17	249.10	2.52	-44.0	-62.5	3.8	8.46e-01	0	52	104	0	60	28846
2026-01-29 17:19:31.17	249.03	2.58	-44.0	-62.5	3.8	8.45e-01	0	52	104	0	60	28840
2026-01-29 17:19:32.18	248.97	2.65	-44.0	-62.5	3.8	8.45e-01	0	52	104	0	60	28897
2026-01-29 17:19:33.20	248.90	2.72	-44.0	-62.5	3.8	8.45e-01	0	52	104	0	60	28930
2026-01-29 17:19:34.20	248.83	2.79	-44.0	-62.5	3.8	8.47e-01	0	52	104	0	60	28879
2026-01-29 17:19:35.22	248.77	2.86	-44.0	-62.5	3.8	8.47e-01	0	52	104	0	60	28863
2026-01-29 17:19:36.23	248.70	2.93	-44.0	-62.5	3.8	8.47e-01	0	52	104	0	60	28850
2026-01-29 17:19:37.24	248.63	3.00	-44.0	-62.5	3.8	8.46e-01	0	52	104	0	60	28853
2026-01-29 17:19:38.25	248.56	3.06	-44.0	-62.5	3.8	8.46e-01	0	52	104	0	60	28877
2026-01-29 17:19:39.26	248.49	3.13	-44.0	-62.5	3.8	8.46e-01	0	52	104	0	60	28889
2026-01-29 17:19:40.27	248.42	3.20	-44.0	-62.5	3.8	8.46e-01	0	53	104	0	60	28750
2026-01-29 17:19:41.28	248.35	3.27	-44.0	-62.5	3.8	8.46e-01	0	53	104	0	60	28873
2026-01-29 17:19:42.29	248.28	3.34	-44.0	-62.5	3.8	8.46e-01	0	53	104	0	60	28762
2026-01-29 17:19:43.30	248.21	3.42	-44.0	-62.5	3.8	8.47e-01	0	53	104	0	60	28903
2026-01-29 17:19:44.31	248.14	3.49	-44.0	-62.5	3.8	8.47e-01	0	53	104	0	60	28905
2026-01-29 17:19:45.32	248.07	3.56	-44.1	-62.5	3.8	8.47e-01	0	53	104	0	60	28939
2026-01-29 17:19:46.33	247.99	3.63	-44.0	-62.5	3.8	8.46e-01	0	53	104	0	60	28801
2026-01-29 17:19:47.34	247.92	3.70	-44.0	-62.5	3.8	8.46e-01	0	53	104	0	60	28866
2026-01-29 17:19:48.35	247.85	3.77	-44.0	-62.5	3.8	8.46e-01	0	53	104	0	60	28941
2026-01-29 17:19:49.36	247.77	3.84	-44.0	-62.5	3.8	8.46e-01	0	53	104	0	60	28803
2026-01-29 17:19:50.37	247.70	3.92	-44.0	-62.5	3.8	8.47e-01	0	53	104	0	60	28736
2026-01-29 17:19:51.38	247.62	3.99	-44.0	-62.5	3.8	8.46e-01	0	53	104	0	60	28913
2026-01-29 17:19:52.39	247.55	4.06	-44.0	-62.5	3.8	8.46e-01	0	54	104	0	60	28873
2026-01-29 17:19:53.40	247.47	4.14	-44.0	-62.5	3.8	8.46e-01	0	53	104	0	60	28955
2026-01-29 17:19:54.41	247.39	4.21	-44.0	-62.5	3.8	8.47e-01	0	54	104	0	60	28908
2026-01-29 17:19:55.42	247.32	4.28	-44.0	-62.5	3.8	8.47e-01	0	54	104	0	60	28938
2026-01-29 17:19:56.43	247.24	4.36	-44.0	-62.5	3.8	8.45e-01	0	54	104	0	60	28829
2026-01-29 17:19:57.44	247.16	4.43	-44.0	-62.5	3.8	8.46e-01	0	54	104	0	60	28884
2026-01-29 17:19:58.45	247.08	4.51	-44.0	-62.5	3.8	8.46e-01	0	54	104	0	60	28895
2026-01-29 17:19:59.46	247.00	4.58	-44.0	-62.5	3.8	8.46e-01	0	54	104	0	60	28787
2026-01-29 17:20:00.47	246.92	4.66	-44.0	-62.5	3.8	8.46e-01	0	54	104	0	60	28872
2026-01-29 17:20:01.48	246.84	4.73	-44.0	-62.5	3.8	8.46e-01	0	54	104	0	60	28863
2026-01-29 17:20:02.49	246.76	4.81	-44.0	-62.5	3.8	8.46e-01	0	54	104	0	60	28905
2026-01-29 17:20:03.50	246.67	4.88	-44.0	-62.5	3.8	8.46e-01	0	54	104	0	60	28809
2026-01-29 17:20:04.52	246.59	4.96	-44.0	-62.5	3.8	8.47e-01	0	54	104	0	60	28916
2026-01-29 17:20:05.53	246.51	5.04	-44.0	-62.5	3.8	8.47e-01	0	54	104	0	60	28907
2026-01-29 17:20:06.54	246.42	5.11	-44.0	-62.5	3.8	8.46e-01	0	54	104	0	60	28890
2026-01-29 17:20:07.54	246.34	5.19	-44.0	-62.5	3.8	8.45e-01	0	54	104	0	60	28872
2026-01-29 17:20:08.56	246.25	5.27	-44.0	-62.5	3.8	8.45e-01	0	54	104	0	60	28827
2026-01-29 17:20:09.57	246.16	5.34	-44.0	-62.5	3.8	8.46e-01	0	54	104	0	60	28946
2026-01-29 17:20:10.58	246.08	5.42	-44.0	-62.5	3.8	8.46e-01	0	54	104	0	60	28929
2026-01-29 17:20:11.59	245.99	5.50	-44.0	-62.5	3.8	8.46e-01	0	55	104	0	60	28904
2026-01-29 17:20:12.60	245.90	5.58	-44.0	-62.5	3.8	8.46e-01	0	54	104	0	60	28889
2026-01-29 17:20:13.61	245.81	5.66	-44.0	-62.5	3.8	8.46e-01	0	54	104	0	60	28869
2026-01-29 17:20:14.62	245.72	5.74	-44.0	-62.5	3.8	8.47e-01	0	55	104	0	60	28828
2026-01-29 17:20:15.63	245.63	5.82	-44.0	-62.5	3.8	8.47e-01	0	55	104	0	60	28851
2026-01-29 17:20:16.64	245.54	5.90	-44.0	-62.5	3.8	8.45e-01	0	55	104	0	60	28908
2026-01-29 17:20:17.65	245.45	5.98	-44.0	-62.5	3.8	8.47e-01	0	55	104	0	60	28948
2026-01-29 17:20:18.66	245.35	6.06	-44.0	-62.5	3.8	8.47e-01	0	55	104	0	60	28958
2026-01-29 17:20:19.67	245.26	6.14	-44.0	-62.5	3.8	8.45e-01	0	55	104	0	60	28911
2026-01-29 17:20:20.68	245.17	6.22	-44.0	-62.5	3.8	8.46e-01	0	55	104	0	60	28860
2026-01-29 17:20:21.69	245.07	6.30	-44.0	-62.5	3.8	8.46e-01	0	55	104	0	60	28861
2026-01-29 17:20:22.70	244.98	6.38	-44.0	-62.5	3.8	8.47e-01	0	55	104	0	60	28888
2026-01-29 17:20:23.72	244.88	6.47	-44.0	-62.5	3.8	8.47e-01	0	55	104	0	60	28859
2026-01-29 17:20:24.73	244.78	6.55	-44.0	-62.5	3.8	8.47e-01	0	55	104	0	60	28885
2026-01-29 17:20:25.74	244.68	6.63	-44.0	-62.5	3.8	8.45e-01	0	55	104	0	60	28907
2026-01-29 17:20:26.75	244.58	6.72	-44.0	-62.5	3.8	8.46e-01	0	55	104	0	60	28823
2026-01-29 17:20:27.76	244.48	6.80	-44.0	-62.5	3.8	8.46e-01	0	55	104	0	60	28804
2026-01-29 17:20:28.77	244.38	6.88	-44.0	-62.5	3.8	8.46e-01	0	55	104	0	60	28864
2026-01-29 17:20:29.78	244.28	6.97	-44.0	-62.5	3.8	8.46e-01	0	55	104	0	60	28941
2026-01-29 17:20:30.79	244.18	7.05	-44.0	-62.5	3.8	8.46e-01	0	55	104	0	60	28831
2026-01-29 17:20:31.80	244.08	7.14	-44.0	-62.5	3.8	8.46e-01	0	55	104	0	60	28936
2026-01-29 17:20:32.81	243.97	7.22	-44.0	-62.5	3.8	8.45e-01	0	56	104	0	60	28828
2026-01-29 17:20:33.82	243.87	7.31	-44.0	-62.5	3.8	8.46e-01	0	56	104	0	60	28858
2026-01-29 17:20:34.83	243.76	7.39	-44.0	-62.5	3.8	8.46e-01	0	56	104	0	60	28831
2026-01-29 17:20:35.84	243.66	7.48	-44.0	-62.5	3.8	8.46e-01	0	56	104	0	60	28976
2026-01-29 17:20:36.85	243.55	7.57	-44.0	-62.5	3.8	8.46e-01	0	56	104	0	60	28897
2026-01-29 17:20:37.86	243.44	7.65	-44.0	-62.5	3.8	8.46e-01	0	56	104	0	60	28967
2026-01-29 17:20:38.87	243.33	7.74	-44.0	-62.5	3.8	8.46e-01	0	56	104	0	60	28886
2026-01-29 17:20:39.88	243.22	7.83	-44.0	-62.5	3.8	8.47e-01	0	56	104	0	60	28823
2026-01-29 17:20:40.89	243.11	7.92	-44.0	-62.5	3.8	8.46e-01	0	56	104	0	60	28897
2026-01-29 17:20:41.90	243.00	8.01	-44.0	-62.5	3.8	8.46e-01	0	56	104	0	60	28822
2026-01-29 17:20:42.91	242.88	8.10	-44.1	-62.6	3.8	8.46e-01	0	56	104	0	60	29122
2026-01-29 17:20:43.92	242.77	8.19	-44.2	-62.6	3.8	8.45e-01	0	56	104	0	60	29278
2026-01-29 17:20:44.93	242.66	8.28	-44.0	-62.5	3.8	8.45e-01	0	56	104	0	60	28868
2026-01-29 17:20:45.94	242.54	8.37	-44.1	-62.6	3.8	8.45e-01	0	56	104	0	60	29110
2026-01-29 17:20:46.95	242.42	8.46	-44.0	-62.5	3.8	8.46e-01	0	56	104	0	60	28917
2026-01-29 17:20:47.96	242.30	8.55	-44.1	-62.6	3.8	8.46e-01	0	56	104	0	60	29284
2026-01-29 17:20:48.97	242.18	8.64	-44.0	-62.5	3.8	8.46e-01	0	56	104	0	60	28844
2026-01-29 17:20:49.98	242.06	8.73	-44.1	-62.6	3.8	8.47e-01	0	56	104	0	60	29346
2026-01-29 17:20:50.99	241.94	8.83	-44.1	-62.5	3.8	8.45e-01	0	56	104	0	60	28980
2026-01-29 17:20:52.00	241.82	8.92	-44.2	-62.6	3.8	8.45e-01	0	56	104	0	60	29346
2026-01-29 17:20:53.01	241.70	9.01	-44.1	-62.6	3.8	8.46e-01	0	56	104	0	60	29023
2026-01-29 17:20:54.02	241.57	9.11	-44.2	-62.6	3.8	8.45e-01	0	56	104	0	60	29274
2026-01-29 17:20:55.03	241.45	9.20	-44.1	-62.6	3.8	8.45e-01	0	56	104	0	60	29081
2026-01-29 17:20:56.05	241.32	9.30	-44.2	-62.7	3.8	8.45e-01	0	56	104	0	60	29469
2026-01-29 17:20:57.06	241.19	9.39	-44.1	-62.6	3.8	8.46e-01	0	56	104	0	60	29144
2026-01-29 17:20:58.06	241.06	9.49	-44.2	-62.6	3.8	8.46e-01	0	56	104	0	60	29330
2026-01-29 17:20:59.07	240.93	9.58	-44.1	-62.6	3.8	8.46e-01	0	57	104	0	60	29202
2026-01-29 17:21:00.08	240.80	9.68	-44.2	-62.7	3.8	8.45e-01	0	57	104	0	60	29532
2026-01-29 17:21:01.09	240.67	9.77	-44.1	-62.6	3.8	8.45e-01	0	56	104	0	60	29101
2026-01-29 17:21:02.10	240.53	9.87	-44.2	-62.7	3.8	8.47e-01	0	57	104	0	60	29435
2026-01-29 17:21:03.12	240.40	9.97	-44.1	-62.6	3.8	8.46e-01	0	57	104	0	60	29153
2026-01-29 17:21:04.13	240.26	10.07	-44.2	-62.7	3.8	8.46e-01	0	57	104	0	60	29576
2026-01-29 17:21:05.13	240.12	10.17	-44.2	-62.6	3.8	8.46e-01	0	57	104	0	60	29252
2026-01-29 17:21:06.14	239.99	10.27	-44.2	-62.7	3.8	8.46e-01	0	57	104	0	60	29560
2026-01-29 17:21:07.15	239.85	10.37	-44.2	-62.7	3.8	8.47e-01	0	57	104	0	60	29402
2026-01-29 17:21:08.16	239.70	10.47	-44.3	-62.7	3.8	8.47e-01	0	57	104	0	60	29659
2026-01-29 17:21:09.17	239.56	10.57	-44.2	-62.6	3.8	8.46e-01	0	57	104	0	60	29265
2026-01-29 17:21:10.18	239.42	10.67	-44.3	-62.7	3.8	8.47e-01	0	57	104	0	60	29541
2026-01-29 17:21:11.19	239.27	10.77	-44.2	-62.7	3.8	8.47e-01	0	57	104	0	60	29357
2026-01-29 17:21:12.20	239.12	10.87	-44.3	-62.8	3.8	8.46e-01	0	57	104	0	60	29688
2026-01-29 17:21:13.21	238.98	10.97	-44.2	-62.7	3.8	8.47e-01	0	57	104	0	60	29430
2026-01-29 17:21:14.22	238.83	11.08	-44.3	-62.8	3.8	8.47e-01	0	57	104	0	60	29757
2026-01-29 17:21:15.23	238.67	11.18	-44.2	-62.7	3.8	8.46e-01	0	57	104	0	60	29485
2026-01-29 17:21:16.24	238.52	11.29	-44.3	-62.8	3.8	8.46e-01	0	57	104	0	60	29754
2026-01-29 17:21:17.25	238.37	11.39	-44.2	-62.7	3.8	8.46e-01	0	57	104	0	60	29512
2026-01-29 17:21:18.25	238.21	11.49	-44.3	-62.8	3.8	8.46e-01	0	57	104	0	60	29787
2026-01-29 17:21:19.26	238.06	11.60	-44.3	-62.7	3.8	8.47e-01	0	57	104	0	60	29622
2026-01-29 17:21:20.27	237.90	11.71	-44.4	-62.8	3.8	8.46e-01	0	57	104	0	60	29889
2026-01-29 17:21:21.28	237.74	11.81	-44.3	-62.8	3.8	8.46e-01	0	57	104	0	60	29693
2026-01-29 17:21:22.29	237.57	11.92	-44.3	-62.8	3.8	8.45e-01	0	57	104	0	60	29782
2026-01-29 17:21:23.30	237.41	12.03	-44.3	-62.8	3.8	8.46e-01	0	57	104	0	60	29768
2026-01-29 17:21:24.31	237.25	12.14	-44.4	-62.8	3.8	8.46e-01	0	57	104	0	60	29982
2026-01-29 17:21:25.32	237.08	12.25	-44.3	-62.8	3.8	8.46e-01	0	57	104	0	60	29753
2026-01-29 17:21:26.33	236.91	12.35	-44.3	-62.8	3.8	8.46e-01	0	57	104	0	60	30006
2026-01-29 17:21:27.34	236.74	12.46	-44.3	-62.8	3.8	8.46e-01	0	57	104	0	60	29860
2026-01-29 17:21:28.35	236.57	12.57	-44.4	-62.9	3.8	8.46e-01	0	58	104	0	60	30095
2026-01-29 17:21:29.36	236.40	12.69	-44.3	-62.8	3.8	8.47e-01	0	57	104	0	60	29875
2026-01-29 17:21:30.37	236.22	12.80	-44.4	-62.9	3.8	8.46e-01	0	57	104	0	60	30069
2026-01-29 17:21:31.38	236.04	12.91	-44.3	-62.8	3.8	8.46e-01	0	57	104	0	60	29837
2026-01-29 17:21:32.39	235.86	13.02	-44.5	-62.9	3.8	8.46e-01	0	57	104	0	60	30181
2026-01-29 17:21:33.40	235.68	13.14	-44.4	-62.8	3.8	8.46e-01	0	57	104	0	60	29868
2026-01-29 17:21:34.41	235.50	13.25	-44.4	-62.9	3.8	8.46e-01	0	57	104	0	60	30134
2026-01-29 17:21:35.42	235.32	13.36	-44.4	-62.9	3.8	8.47e-01	0	58	104	0	60	30170
2026-01-29 17:21:36.43	235.13	13.48	-44.5	-62.9	3.8	8.46e-01	0	57	104	0	60	30307
2026-01-29 17:21:37.44	234.94	13.59	-44.4	-62.8	3.8	8.46e-01	0	58	104	0	60	30026
2026-01-29 17:21:38.45	234.75	13.71	-44.4	-62.9	3.8	8.46e-01	0	58	104	0	60	30112
2026-01-29 17:21:39.46	234.56	13.83	-44.4	-62.9	3.8	8.45e-01	0	58	104	0	60	30114
2026-01-29 17:21:40.47	234.37	13.94	-44.5	-62.9	3.8	8.45e-01	0	58	104	0	60	30360
2026-01-29 17:21:41.48	234.17	14.06	-44.4	-62.9	3.8	8.45e-01	0	58	104	0	60	30133
2026-01-29 17:21:42.49	233.97	14.18	-44.5	-62.9	3.8	8.46e-01	0	58	104	0	60	30329
2026-01-29 17:21:43.50	233.77	14.30	-44.5	-62.9	3.8	8.45e-01	0	58	104	0	60	30217
2026-01-29 17:21:44.51	233.57	14.42	-44.5	-63.0	3.8	8.45e-01	0	58	104	0	60	30434
2026-01-29 17:21:45.52	233.37	14.54	-44.4	-62.9	3.8	8.46e-01	0	58	104	0	60	30151
2026-01-29 17:21:46.53	233.16	14.66	-44.5	-62.9	3.8	8.46e-01	0	58	104	0	60	30320
2026-01-29 17:21:47.54	232.95	14.78	-44.5	-62.9	3.8	8.46e-01	0	58	104	0	60	30355
2026-01-29 17:21:48.55	232.74	14.90	-44.5	-63.0	3.8	8.45e-01	0	58	104	0	60	30593
2026-01-29 17:21:49.56	232.53	15.02	-44.5	-63.0	3.8	8.45e-01	0	58	104	0	60	30415
2026-01-29 17:21:50.58	232.31	15.15	-44.5	-62.9	3.8	8.45e-01	0	58	104	0	60	30314
2026-01-29 17:21:51.59	232.09	15.27	-44.5	-63.0	3.8	8.47e-01	0	58	104	0	60	30517
2026-01-29 17:21:52.60	231.87	15.39	-44.5	-63.0	3.8	8.47e-01	0	58	104	0	60	30580
2026-01-29 17:21:53.61	231.65	15.52	-44.5	-63.0	3.8	8.46e-01	0	58	104	0	60	30395
2026-01-29 17:21:54.62	231.43	15.64	-44.5	-63.0	3.8	8.46e-01	0	58	104	0	60	30408
2026-01-29 17:21:55.63	231.20	15.77	-44.5	-63.0	3.8	8.47e-01	0	58	104	0	60	30480
2026-01-29 17:21:56.64	230.97	15.90	-44.5	-63.0	3.8	8.47e-01	0	58	104	0	60	30695
2026-01-29 17:21:57.65	230.74	16.02	-44.5	-63.0	3.8	8.47e-01	0	58	104	0	60	30514
2026-01-29 17:21:58.66	230.50	16.15	-44.5	-63.0	3.8	8.47e-01	0	58	104	0	60	30537
2026-01-29 17:21:59.67	230.26	16.28	-44.5	-63.0	3.8	8.46e-01	0	58	104	0	60	30545
2026-01-29 17:22:00.68	230.03	16.41	-44.6	-63.1	3.8	8.46e-01	0	58	104	0	60	30747
2026-01-29 17:22:01.69	229.78	16.54	-44.5	-63.0	3.8	8.46e-01	0	58	104	0	60	30554
2026-01-29 17:22:02.70	229.54	16.66	-44.5	-63.0	3.8	8.46e-01	0	58	104	0	60	30576
2026-01-29 17:22:03.71	229.29	16.80	-44.6	-63.0	3.8	8.46e-01	0	58	104	0	60	30666
2026-01-29 17:22:04.72	229.04	16.93	-44.6	-63.1	3.8	8.47e-01	0	58	104	0	60	30743
2026-01-29 17:22:05.72	228.79	17.06	-44.6	-63.0	3.8	8.46e-01	0	58	104	0	60	30696
2026-01-29 17:22:06.74	228.53	17.19	-44.6	-63.0	3.8	8.46e-01	0	58	104	0	60	30681
2026-01-29 17:22:07.75	228.27	17.32	-44.6	-63.1	3.8	8.46e-01	0	58	104	0	60	30751
2026-01-29 17:22:08.76	228.01	17.45	-44.6	-63.1	3.8	8.47e-01	0	58	104	0	60	30829
2026-01-29 17:22:09.76	227.75	17.59	-44.5	-63.1	3.8	8.46e-01	0	58	104	0	60	30778
2026-01-29 17:22:10.77	227.48	17.72	-44.6	-63.1	3.8	8.46e-01	0	58	104	0	60	30741
2026-01-29 17:22:11.78	227.21	17.85	-44.6	-63.1	3.8	8.46e-01	0	58	104	0	60	30765
2026-01-29 17:22:12.79	226.94	17.99	-44.6	-63.1	3.8	8.46e-01	0	58	104	0	60	30837
2026-01-29 17:22:13.80	226.66	18.12	-44.6	-63.1	3.8	8.46e-01	0	58	104	0	60	30773
2026-01-29 17:22:14.81	226.38	18.26	-44.6	-63.0	3.8	8.46e-01	0	58	104	0	60	30712
2026-01-29 17:22:15.82	226.10	18.39	-44.6	-63.1	3.8	8.46e-01	0	58	104	0	60	30788
2026-01-29 17:22:16.83	225.81	18.53	-44.6	-63.1	3.8	8.46e-01	0	58	104	0	60	30760
2026-01-29 17:22:17.84	225.52	18.67	-44.6	-63.1	3.8	8.47e-01	0	58	104	0	60	30823
2026-01-29 17:22:18.85	225.23	18.81	-44.6	-63.1	3.8	8.46e-01	0	58	104	0	60	30829
2026-01-29 17:22:19.86	224.94	18.94	-44.7	-63.1	3.8	8.46e-01	0	58	104	0	60	30990
2026-01-29 17:22:20.87	224.64	19.08	-44.6	-63.1	3.8	8.46e-01	0	58	104	0	60	30893
2026-01-29 17:22:21.88	224.34	19.22	-44.6	-63.1	3.8	8.46e-01	0	58	104	0	60	30957
2026-01-29 17:22:22.89	224.03	19.36	-44.7	-63.1	3.8	8.46e-01	0	58	104	0	60	30894
2026-01-29 17:22:23.90	223.72	19.50	-44.7	-63.1	3.8	8.46e-01	0	58	104	0	60	31072
2026-01-29 17:22:24.91	223.41	19.64	-44.7	-63.1	3.8	8.46e-01	0	58	104	0	60	30895
2026-01-29 17:22:25.92	223.09	19.78	-44.7	-63.1	3.8	8.47e-01	0	58	104	0	60	30990
2026-01-29 17:22:26.93	222.77	19.92	-44.7	-63.1	3.8	8.47e-01	0	58	104	0	60	30971
2026-01-29 17:22:27.94	222.45	20.06	-44.7	-63.1	3.8	8.46e-01	0	58	104	0	60	31083
2026-01-29 17:22:28.95	222.12	20.20	-44.7	-63.1	3.8	8.45e-01	0	58	104	0	60	30939
2026-01-29 17:22:29.96	221.79	20.34	-44.7	-63.1	3.8	8.45e-01	0	59	104	0	60	30991
2026-01-29 17:22:30.97	221.46	20.48	-44.7	-63.2	3.8	8.45e-01	0	58	104	0	60	31143
2026-01-29 17:22:31.98	221.12	20.62	-44.7	-63.2	3.8	8.47e-01	0	59	104	0	60	31156
2026-01-29 17:22:32.99	220.78	20.77	-44.7	-63.1	3.8	8.46e-01	0	58	104	0	60	31068
2026-01-29 17:22:34.00	220.43	20.91	-44.7	-63.2	3.8	8.46e-01	0	59	104	0	60	31173
2026-01-29 17:22:35.01	220.08	21.05	-44.7	-63.2	3.8	8.46e-01	0	59	104	0	60	31090
2026-01-29 17:22:36.02	219.73	21.19	-44.7	-63.2	3.8	8.46e-01	0	59	104	0	60	31294
2026-01-29 17:22:37.03	219.37	21.34	-44.7	-63.1	3.8	8.46e-01	0	59	104	0	60	30991
2026-01-29 17:22:38.04	219.01	21.48	-44.7	-63.2	3.8	8.46e-01	0	59	104	0	60	31189
2026-01-29 17:22:39.05	218.65	21.62	-44.7	-63.2	3.8	8.46e-01	0	58	104	0	60	31171
2026-01-29 17:22:40.06	218.28	21.76	-44.7	-63.2	3.8	8.46e-01	0	59	104	0	60	31238
2026-01-29 17:22:41.07	217.91	21.91	-44.7	-63.1	3.8	8.46e-01	0	59	104	0	60	31085
2026-01-29 17:22:42.07	217.53	22.05	-44.7	-63.2	3.8	8.47e-01	0	59	104	0	60	31212
2026-01-29 17:22:43.08	217.15	22.19	-44.7	-63.2	3.8	8.47e-01	0	59	104	0	60	31186
2026-01-29 17:22:44.09	216.77	22.33	-44.8	-63.2	3.8	8.47e-01	0	59	104	0	60	31262
2026-01-29 17:22:45.10	216.38	22.47	-44.7	-63.2	3.8	8.46e-01	0	59	104	0	60	31184
2026-01-29 17:22:46.11	215.98	22.62	-44.8	-63.2	3.8	8.46e-01	0	59	104	0	60	31289
2026-01-29 17:22:47.12	215.58	22.76	-44.7	-63.2	3.8	8.46e-01	0	59	104	0	60	31195
2026-01-29 17:22:48.13	215.18	22.90	-44.8	-63.2	3.8	8.46e-01	0	59	104	0	60	31418
2026-01-29 17:22:49.14	214.77	23.04	-44.8	-63.2	3.8	8.46e-01	0	59	104	0	60	31184
2026-01-29 17:22:50.15	214.36	23.18	-44.8	-63.2	3.8	8.46e-01	0	59	104	0	60	31294
2026-01-29 17:22:51.17	213.94	23.32	-44.7	-63.2	3.8	8.47e-01	0	59	104	0	60	31266
2026-01-29 17:22:52.17	213.53	23.46	-44.8	-63.2	3.8	8.46e-01	0	59	104	0	60	31409
2026-01-29 17:22:53.19	213.10	23.60	-44.8	-63.2	3.8	8.46e-01	0	59	104	0	60	31325
2026-01-29 17:22:54.19	212.67	23.74	-44.8	-63.2	3.8	8.46e-01	0	59	104	0	60	31319
2026-01-29 17:22:55.20	212.24	23.88	-44.7	-63.2	3.8	8.47e-01	0	59	104	0	60	31291
2026-01-29 17:22:56.21	211.80	24.02	-44.8	-63.2	3.8	8.47e-01	0	59	104	0	60	31427
2026-01-29 17:22:57.22	211.36	24.16	-44.8	-63.2	3.8	8.45e-01	0	59	104	0	60	31262
2026-01-29 17:22:58.23	210.91	24.29	-44.8	-63.2	3.8	8.47e-01	0	59	104	0	60	31426
2026-01-29 17:22:59.24	210.46	24.43	-44.8	-63.2	3.8	8.47e-01	0	59	104	0	60	31310
2026-01-29 17:23:00.25	210.00	24.56	-44.8	-63.2	3.8	8.47e-01	0	59	104	0	60	31289
2026-01-29 17:23:01.26	209.54	24.70	-44.8	-63.2	3.8	8.46e-01	0	59	104	0	60	31343
2026-01-29 17:23:02.27	209.08	24.83	-44.8	-63.2	3.8	8.46e-01	0	59	104	0	60	31382
2026-01-29 17:23:03.28	208.61	24.96	-44.8	-63.2	3.8	8.46e-01	0	59	104	0	60	31354
2026-01-29 17:23:04.29	208.13	25.10	-44.8	-63.2	3.8	8.47e-01	0	59	104	0	60	31373
2026-01-29 17:23:05.30	207.65	25.23	-44.8	-63.2	3.8	8.45e-01	0	59	104	0	60	31354
2026-01-29 17:23:06.31	207.17	25.36	-44.8	-63.2	3.8	8.45e-01	0	59	104	0	60	31402
2026-01-29 17:23:07.32	206.68	25.49	-44.8	-63.2	3.8	8.46e-01	0	59	104	0	60	31391
2026-01-29 17:23:08.33	206.19	25.61	-44.8	-63.2	3.8	8.47e-01	0	59	104	0	60	31433
2026-01-29 17:23:09.34	205.69	25.74	-44.8	-63.2	3.8	8.46e-01	0	59	104	0	60	31332
2026-01-29 17:23:10.35	205.19	25.86	-44.8	-63.2	3.8	8.46e-01	0	59	104	0	60	31427
2026-01-29 17:23:11.36	204.68	25.99	-44.8	-63.2	3.8	8.46e-01	0	59	104	0	60	31401
2026-01-29 17:23:12.37	204.17	26.11	-44.8	-63.2	3.8	8.47e-01	0	59	104	0	60	31352
2026-01-29 17:23:13.38	203.65	26.23	-44.8	-63.2	3.8	8.47e-01	0	59	104	0	60	31390
2026-01-29 17:23:14.39	203.13	26.35	-44.8	-63.2	3.8	8.46e-01	0	59	104	0	60	31399
2026-01-29 17:23:15.40	202.61	26.46	-44.8	-63.3	3.8	8.47e-01	0	59	104	0	60	31494
2026-01-29 17:23:16.41	202.08	26.58	-44.8	-63.2	3.8	8.47e-01	0	59	104	0	60	31395
2026-01-29 17:23:17.42	201.54	26.69	-44.8	-63.2	3.8	8.45e-01	0	59	104	0	60	31406
2026-01-29 17:23:18.43	201.01	26.80	-44.8	-63.2	3.8	8.46e-01	0	59	104	0	60	31439
2026-01-29 17:23:19.44	200.46	26.91	-44.8	-63.3	3.8	8.46e-01	0	59	104	0	60	31493
2026-01-29 17:23:20.45	199.92	27.02	-44.8	-63.2	3.8	8.45e-01	0	59	104	0	60	31428
2026-01-29 17:23:21.46	199.37	27.13	-44.8	-63.2	3.8	8.46e-01	0	59	104	0	60	31436
2026-01-29 17:23:22.47	198.81	27.23	-44.8	-63.3	3.8	8.46e-01	0	59	104	0	60	31533
2026-01-29 17:23:23.48	198.25	27.33	-44.8	-63.2	3.8	8.46e-01	0	59	104	0	60	31403
2026-01-29 17:23:24.49	197.69	27.43	-44.8	-63.3	3.8	8.46e-01	0	59	104	0	60	31501
2026-01-29 17:23:25.50	197.12	27.53	-44.8	-63.2	3.8	8.46e-01	0	59	104	0	60	31385
2026-01-29 17:23:26.51	196.55	27.63	-44.8	-63.3	3.8	8.46e-01	0	59	104	0	60	31468
2026-01-29 17:23:27.52	195.98	27.72	-44.8	-63.2	3.8	8.47e-01	0	59	104	0	60	31389
2026-01-29 17:23:28.53	195.40	27.81	-44.8	-63.2	3.8	8.46e-01	0	59	104	0	60	31430
2026-01-29 17:23:29.54	194.82	27.89	-44.8	-63.3	3.8	8.46e-01	0	59	104	0	60	31474
2026-01-29 17:23:30.55	194.23	27.98	-44.8	-63.3	3.8	8.45e-01	0	59	104	0	60	31453
2026-01-29 17:23:31.56	193.64	28.06	-44.8	-63.2	3.8	8.47e-01	0	59	104	0	60	31440
2026-01-29 17:23:32.57	193.05	28.14	-44.8	-63.3	3.8	8.47e-01	0	59	104	0	60	31594
2026-01-29 17:23:33.58	192.45	28.22	-44.8	-63.3	3.8	8.47e-01	0	59	104	0	60	31533
2026-01-29 17:23:34.59	191.85	28.29	-44.8	-63.3	3.8	8.45e-01	0	59	104	0	60	31582
2026-01-29 17:23:35.59	191.26	28.36	-44.8	-63.3	3.8	8.46e-01	0	59	104	0	60	31535
2026-01-29 17:23:36.60	190.65	28.43	-44.8	-63.3	3.8	8.46e-01	0	59	104	0	60	31538
2026-01-29 17:23:37.61	190.05	28.49	-44.8	-63.3	3.8	8.47e-01	0	59	104	0	60	31518
2026-01-29 17:23:38.62	189.43	28.56	-44.8	-63.3	3.8	8.47e-01	0	59	104	0	60	31549
2026-01-29 17:23:39.63	188.82	28.62	-44.8	-63.3	3.8	8.47e-01	0	59	104	0	60	31568
2026-01-29 17:23:40.64	188.21	28.67	-44.8	-63.3	3.8	8.46e-01	0	59	104	0	60	31566
2026-01-29 17:23:41.65	187.59	28.72	-44.8	-63.3	3.8	8.46e-01	0	59	104	0	60	31547
2026-01-29 17:23:42.66	186.97	28.77	-44.8	-63.3	3.8	8.46e-01	0	59	104	0	60	31447
2026-01-29 17:23:43.67	186.35	28.82	-44.8	-63.3	3.8	8.47e-01	0	60	104	0	60	31466
2026-01-29 17:23:44.68	185.72	28.86	-44.8	-63.3	3.8	8.47e-01	0	59	104	0	60	31517
2026-01-29 17:23:45.69	185.10	28.90	-44.8	-63.3	3.8	8.47e-01	0	59	104	0	60	31502
2026-01-29 17:23:46.70	184.47	28.94	-44.8	-63.3	3.8	8.45e-01	0	59	104	0	60	31536
2026-01-29 17:23:47.71	183.84	28.97	-44.8	-63.3	3.8	8.45e-01	0	59	104	0	60	31546
2026-01-29 17:23:48.72	183.21	29.00	-44.8	-63.3	3.8	8.46e-01	0	59	104	0	60	31614
2026-01-29 17:23:49.73	182.58	29.02	-44.8	-63.3	3.8	8.46e-01	0	59	104	0	60	31547
2026-01-29 17:23:50.74	181.94	29.05	-44.8	-63.3	3.8	8.48e-01	0	59	104	0	60	31556
2026-01-29 17:23:51.75	181.31	29.07	-44.8	-63.3	3.8	8.47e-01	0	59	104	0	60	31654
2026-01-29 17:23:52.76	180.67	29.08	-44.8	-63.3	3.8	8.47e-01	0	59	104	0	60	31552
2026-01-29 17:23:53.77	180.04	29.09	-44.9	-63.3	3.8	8.47e-01	0	59	104	0	60	31724
2026-01-29 17:23:54.78	179.40	29.10	-44.8	-63.3	3.8	8.46e-01	0	59	104	0	60	31704
2026-01-29 17:23:55.79	178.77	29.11	-44.9	-63.3	3.8	8.46e-01	0	59	104	0	60	31714
2026-01-29 17:23:56.80	178.13	29.11	-44.8	-63.3	3.8	8.45e-01	0	59	104	0	60	31639
2026-01-29 17:23:57.81	177.50	29.11	-44.9	-63.4	3.8	8.46e-01	0	59	104	0	60	31826
2026-01-29 17:23:58.82	176.86	29.10	-44.9	-63.3	3.8	8.46e-01	0	60	104	0	60	31733
2026-01-29 17:23:59.83	176.22	29.09	-44.9	-63.4	3.8	8.46e-01	0	59	104	0	60	31925
2026-01-29 17:24:00.84	175.59	29.08	-45.1	-63.6	3.8	8.46e-01	0	60	104	0	61	30859
2026-01-29 17:24:01.86	174.95	29.06	-45.0	-63.5	3.8	8.46e-01	0	60	104	0	61	30489
2026-01-29 17:24:02.86	174.32	29.04	-44.9	-63.4	3.8	8.46e-01	0	59	104	0	61	30249
2026-01-29 17:24:03.87	173.69	29.02	-44.1	-63.4	3.8	8.46e-01	0	60	104	0	60	31897
2026-01-29 17:24:04.88	173.06	28.99	-44.1	-63.3	3.8	8.46e-01	0	60	104	0	59	33583
2026-01-29 17:24:05.89	172.43	28.96	-44.0	-63.4	3.8	8.46e-01	0	60	104	0	59	33758
2026-01-29 17:24:06.90	171.80	28.93	-44.2	-63.4	3.8	8.47e-01	0	59	104	0	59	33703
2026-01-29 17:24:07.91	171.17	28.89	-44.3	-63.3	3.8	8.46e-01	0	60	104	0	59	33678
2026-01-29 17:24:08.92	170.55	28.85	-44.9	-63.4	3.8	8.46e-01	0	60	104	0	60	31993
2026-01-29 17:24:09.93	169.92	28.81	-45.0	-63.4	3.8	8.45e-01	0	60	104	0	60	32085
2026-01-29 17:24:10.94	169.30	28.76	-45.0	-63.4	3.8	8.47e-01	0	60	104	0	60	32123
2026-01-29 17:24:11.95	168.68	28.71	-45.0	-63.5	3.8	8.47e-01	0	60	104	0	60	32208
2026-01-29 17:24:12.96	168.06	28.65	-45.0	-63.4	3.8	8.46e-01	0	59	104	0	60	32177
2026-01-29 17:24:13.97	167.45	28.60	-45.1	-63.5	3.8	8.46e-01	0	60	104	0	60	32521
2026-01-29 17:24:14.98	166.84	28.54	-45.0	-63.5	3.8	8.46e-01	0	60	104	0	60	32411
2026-01-29 17:24:15.99	166.23	28.48	-45.1	-63.5	3.8	8.46e-01	0	59	104	0	60	32514
2026-01-29 17:24:17.00	165.62	28.41	-45.1	-63.5	3.8	8.46e-01	0	60	104	0	60	32519
2026-01-29 17:24:18.01	165.02	28.34	-45.1	-63.6	3.8	8.45e-01	0	59	104	0	60	32594
2026-01-29 17:24:19.02	164.41	28.27	-45.1	-63.5	3.8	8.45e-01	0	59	104	0	60	32454
2026-01-29 17:24:20.03	163.82	28.19	-45.1	-63.5	3.8	8.45e-01	0	60	104	0	60	32517
2026-01-29 17:24:21.04	163.22	28.12	-45.1	-63.6	3.8	8.46e-01	0	59	104	0	60	32563
2026-01-29 17:24:22.05	162.63	28.04	-45.1	-63.6	3.8	8.46e-01	0	60	104	0	60	32563
2026-01-29 17:24:23.07	162.04	27.95	-45.1	-63.5	3.8	8.47e-01	0	60	104	0	60	32308
2026-01-29 17:24:24.07	161.46	27.87	-45.1	-63.6	3.8	8.46e-01	0	60	104	0	60	32558
2026-01-29 17:24:25.08	160.88	27.78	-45.1	-63.5	3.8	8.47e-01	0	60	104	0	60	32429
2026-01-29 17:24:26.09	160.30	27.69	-45.1	-63.5	3.8	8.47e-01	0	60	104	0	60	32502
2026-01-29 17:24:27.10	159.72	27.60	-45.1	-63.5	3.8	8.47e-01	0	60	104	0	60	32441
2026-01-29 17:24:28.11	159.16	27.50	-45.1	-63.5	3.8	8.47e-01	0	60	104	0	60	32503
2026-01-29 17:24:29.12	158.59	27.40	-45.1	-63.5	3.8	8.47e-01	0	60	104	0	60	32525
2026-01-29 17:24:30.13	158.03	27.30	-45.1	-63.5	3.8	8.46e-01	0	60	104	0	60	32525
2026-01-29 17:24:31.14	157.47	27.20	-45.1	-63.5	3.8	8.46e-01	0	60	104	0	60	32444
2026-01-29 17:24:32.16	156.91	27.10	-45.1	-63.5	3.8	8.46e-01	0	60	104	0	60	32454
2026-01-29 17:24:33.17	156.36	26.99	-45.1	-63.5	3.8	8.47e-01	0	60	104	0	60	32456
2026-01-29 17:24:34.18	155.82	26.88	-45.1	-63.5	3.8	8.46e-01	0	59	104	0	60	32542
2026-01-29 17:24:35.18	155.28	26.77	-45.1	-63.5	3.8	8.46e-01	0	60	104	0	60	32497
2026-01-29 17:24:36.19	154.74	26.66	-45.1	-63.5	3.8	8.45e-01	0	60	104	0	60	32462
2026-01-29 17:24:37.20	154.21	26.54	-45.1	-63.5	3.8	8.46e-01	0	60	104	0	60	32455
2026-01-29 17:24:38.21	153.68	26.43	-45.1	-63.5	3.8	8.47e-01	0	60	104	0	60	32496
2026-01-29 17:24:39.22	153.16	26.31	-45.1	-63.5	3.8	8.47e-01	0	60	104	0	60	32490
2026-01-29 17:24:40.23	152.64	26.19	-45.1	-63.5	3.8	8.46e-01	0	60	104	0	60	32472
2026-01-29 17:24:41.24	152.13	26.07	-45.1	-63.5	3.8	8.46e-01	0	60	104	0	60	32473
2026-01-29 17:24:42.25	151.62	25.95	-45.1	-63.5	3.8	8.46e-01	0	60	104	0	60	32390
2026-01-29 17:24:43.26	151.11	25.82	-45.1	-63.5	3.8	8.45e-01	0	60	104	0	60	32344
2026-01-29 17:24:44.27	150.61	25.70	-45.1	-63.5	3.8	8.46e-01	0	60	104	0	60	32433
2026-01-29 17:24:45.28	150.11	25.57	-45.1	-63.5	3.8	8.46e-01	0	60	104	0	60	32398
2026-01-29 17:24:46.29	149.62	25.45	-45.1	-63.5	3.8	8.45e-01	0	60	104	0	60	32433
2026-01-29 17:24:47.30	149.13	25.32	-45.1	-63.5	3.8	8.46e-01	0	60	104	0	60	32301
2026-01-29 17:24:48.31	148.65	25.19	-45.1	-63.5	3.8	8.46e-01	0	60	104	0	60	32409
2026-01-29 17:24:49.32	148.17	25.06	-45.1	-63.5	3.8	8.46e-01	0	60	104	0	60	32387
2026-01-29 17:24:50.33	147.70	24.92	-45.1	-63.5	3.8	8.46e-01	0	60	104	0	60	32301
2026-01-29 17:24:51.34	147.23	24.79	-45.1	-63.5	3.8	8.46e-01	0	60	104	0	60	32361
2026-01-29 17:24:52.35	146.77	24.66	-45.1	-63.5	3.8	8.46e-01	0	60	104	0	60	32350
2026-01-29 17:24:53.36	146.31	24.52	-45.0	-63.5	3.8	8.46e-01	0	60	104	0	60	32228
2026-01-29 17:24:54.37	145.85	24.39	-45.0	-63.4	3.8	8.47e-01	0	60	104	0	60	32146
2026-01-29 17:24:55.38	145.40	24.25	-45.0	-63.4	3.8	8.47e-01	0	60	104	0	60	32096
2026-01-29 17:24:56.39	144.96	24.11	-45.0	-63.5	3.8	8.46e-01	0	60	104	0	60	32248
2026-01-29 17:24:57.40	144.51	23.97	-45.0	-63.4	3.8	8.44e-01	0	60	104	0	60	32041
2026-01-29 17:24:58.41	144.08	23.84	-45.0	-63.4	3.8	8.44e-01	0	60	104	0	60	32016
2026-01-29 17:24:59.42	143.65	23.70	-45.0	-63.4	3.8	8.46e-01	0	60	104	0	60	32076
2026-01-29 17:25:00.44	143.21	23.56	-45.0	-63.4	3.8	8.47e-01	0	60	104	0	60	32089
2026-01-29 17:25:01.45	142.79	23.42	-45.0	-63.4	3.8	8.47e-01	0	60	104	0	60	31924
2026-01-29 17:25:02.46	142.37	23.28	-45.0	-63.4	3.8	8.46e-01	0	60	104	0	60	31928
2026-01-29 17:25:03.47	141.96	23.14	-45.0	-63.4	3.8	8.46e-01	0	60	104	0	60	31862
2026-01-29 17:25:04.48	141.55	22.99	-45.0	-63.4	3.8	8.46e-01	0	60	104	0	60	31862
2026-01-29 17:25:05.48	141.15	22.85	-44.9	-63.4	3.8	8.46e-01	0	60	104	0	60	31815
2026-01-29 17:25:06.49	140.74	22.71	-44.9	-63.3	3.8	8.46e-01	0	60	104	0	60	31792
2026-01-29 17:25:07.50	140.35	22.57	-44.9	-63.3	3.8	8.45e-01	0	60	104	0	60	31704
2026-01-29 17:25:08.51	139.95	22.43	-44.9	-63.3	3.8	8.45e-01	0	60	104	0	60	31756
2026-01-29 17:25:09.52	139.57	22.29	-44.9	-63.3	3.8	8.46e-01	0	60	104	0	60	31686
2026-01-29 17:25:10.53	139.18	22.14	-44.8	-63.3	3.8	8.47e-01	0	60	104	0	60	31680
2026-01-29 17:25:11.54	138.80	22.00	-44.9	-63.3	3.8	8.47e-01	0	60	104	0	60	31620
2026-01-29 17:25:12.55	138.42	21.86	-44.9	-63.3	3.8	8.46e-01	0	60	104	0	60	31591
2026-01-29 17:25:13.56	138.05	21.72	-44.9	-63.3	3.8	8.47e-01	0	60	104	0	60	31530
2026-01-29 17:25:14.57	137.68	21.57	-44.9	-63.3	3.8	8.47e-01	0	60	104	0	60	31614
2026-01-29 17:25:15.58	137.32	21.43	-44.9	-63.3	3.8	8.45e-01	0	60	104	0	60	31457
2026-01-29 17:25:16.59	136.96	21.29	-44.9	-63.3	3.8	8.46e-01	0	60	104	0	60	31598
2026-01-29 17:25:17.60	136.60	21.15	-44.9	-63.3	3.8	8.46e-01	0	60	104	0	60	31711
2026-01-29 17:25:18.61	136.25	21.00	-44.9	-63.3	3.8	8.46e-01	0	60	104	0	60	31484
2026-01-29 17:25:19.62	135.90	20.86	-44.8	-63.2	3.8	8.46e-01	0	60	104	0	60	31373
2026-01-29 17:25:20.63	135.56	20.72	-44.6	-63.2	3.8	8.45e-01	0	60	104	0	60	31326
2026-01-29 17:25:21.64	135.22	20.58	-44.8	-63.2	3.8	8.45e-01	0	60	104	0	60	31247
2026-01-29 17:25:22.66	134.88	20.44	-44.8	-63.2	3.8	8.45e-01	0	60	104	0	60	31359
2026-01-29 17:25:23.67	134.55	20.29	-44.8	-63.2	3.8	8.46e-01	0	60	104	0	60	31235
2026-01-29 17:25:24.67	134.22	20.15	-44.8	-63.2	3.8	8.46e-01	0	60	104	0	60	31212
2026-01-29 17:25:25.69	133.89	20.01	-44.8	-63.2	3.8	8.46e-01	0	60	104	0	60	31151
2026-01-29 17:25:26.70	133.57	19.87	-44.8	-63.2	3.8	8.46e-01	0	60	104	0	60	31265
2026-01-29 17:25:27.71	133.25	19.73	-44.8	-63.2	3.8	8.46e-01	0	60	104	0	60	31090
2026-01-29 17:25:28.71	132.94	19.59	-44.8	-63.2	3.8	8.46e-01	0	60	104	0	60	31180
2026-01-29 17:25:29.72	132.63	19.45	-44.7	-63.1	3.8	8.46e-01	0	60	104	0	60	31037
2026-01-29 17:25:30.73	132.32	19.31	-44.7	-63.1	3.8	8.46e-01	0	60	104	0	60	31057
2026-01-29 17:25:31.74	132.02	19.17	-44.7	-63.1	3.8	8.46e-01	0	60	104	0	60	31011
2026-01-29 17:25:32.75	131.72	19.04	-44.7	-63.1	3.8	8.47e-01	0	60	104	0	60	31055
2026-01-29 17:25:33.76	131.42	18.90	-44.7	-63.1	3.8	8.47e-01	0	60	104	0	60	30825
2026-01-29 17:25:34.77	131.12	18.76	-44.7	-63.1	3.8	8.47e-01	0	60	104	0	60	30939
2026-01-29 17:25:35.78	130.83	18.62	-44.7	-63.1	3.8	8.45e-01	0	60	104	0	60	30844
2026-01-29 17:25:36.79	130.54	18.49	-44.7	-63.1	3.8	8.46e-01	0	60	104	0	60	30913
2026-01-29 17:25:37.80	130.26	18.35	-44.6	-63.0	3.8	8.46e-01	0	60	104	0	60	30672
2026-01-29 17:25:38.81	129.98	18.21	-44.6	-63.1	3.8	8.46e-01	0	60	104	0	60	30863
2026-01-29 17:25:39.82	129.70	18.08	-44.7	-63.0	3.8	8.45e-01	0	60	104	0	60	30661
2026-01-29 17:25:40.83	129.42	17.94	-44.5	-63.0	3.8	8.45e-01	0	60	104	0	60	30695
2026-01-29 17:25:41.84	129.15	17.81	-44.6	-63.0	3.8	8.46e-01	0	60	104	0	59	32424
2026-01-29 17:25:42.85	128.88	17.67	-44.7	-63.1	3.8	8.46e-01	0	60	104	0	59	32734
2026-01-29 17:25:43.86	128.61	17.54	-44.7	-63.1	3.8	8.46e-01	0	60	104	0	59	32639
2026-01-29 17:25:44.87	128.35	17.41	-44.5	-62.4	3.8	8.46e-01	0	60	104	0	58	32135
2026-01-29 17:25:45.88	128.09	17.28	-44.0	-63.1	3.9	8.47e-01	0	60	104	0	59	32814
2026-01-29 17:25:46.88	127.84	17.14	-42.5	-62.6	3.8	8.45e-01	0	60	104	0	58	32638
2026-01-29 17:25:47.89	127.58	17.01	-44.1	-63.1	3.7	8.45e-01	0	60	104	0	59	32860
2026-01-29 17:25:48.90	127.33	16.88	-43.9	-63.0	3.9	8.45e-01	0	60	104	0	59	32371
2026-01-29 17:25:49.91	127.08	16.75	-43.5	-62.4	3.9	8.46e-01	0	60	104	0	57	34025
2026-01-29 17:25:50.92	126.83	16.62	-41.6	-63.0	4.0	8.46e-01	0	60	104	0	56	38654
2026-01-29 17:25:51.93	126.59	16.49	-42.6	-62.1	3.7	8.45e-01	0	60	104	0	54	38813
2026-01-29 17:25:52.94	126.35	16.36	-43.6	-62.6	3.8	8.46e-01	0	60	104	0	58	32854
2026-01-29 17:25:53.95	126.11	16.23	-44.1	-63.0	3.9	8.46e-01	0	60	104	0	58	34207
2026-01-29 17:25:54.96	125.87	16.11	-44.5	-62.9	3.8	8.46e-01	0	60	104	0	59	32069
2026-01-29 17:25:55.97	125.64	15.98	-43.9	-62.9	3.8	8.46e-01	0	60	104	0	58	33712
2026-01-29 17:25:56.99	125.40	15.85	-43.8	-63.2	3.8	8.47e-01	0	61	104	0	59	33146
2026-01-29 17:25:57.99	125.18	15.73	-43.8	-62.7	3.9	8.47e-01	0	60	104	0	58	33113
2026-01-29 17:25:59.00	124.95	15.60	-43.7	-63.0	3.7	8.47e-01	0	60	104	0	58	34164
2026-01-29 17:26:00.02	124.72	15.48	-44.0	-62.9	3.8	8.47e-01	0	60	104	0	58	33770
2026-01-29 17:26:01.03	124.50	15.35	-43.4	-62.7	3.9	8.47e-01	0	60	104	0	56	37298
2026-01-29 17:26:02.04	124.28	15.23	-41.8	-62.4	3.9	8.46e-01	0	60	104	0	56	35984
2026-01-29 17:26:03.04	124.07	15.11	-44.3	-62.2	3.9	8.46e-01	0	60	104	0	54	39266
2026-01-29 17:26:04.05	123.85	14.98	-43.9	-62.9	3.7	8.46e-01	0	60	104	0	58	34049
2026-01-29 17:26:05.06	123.64	14.86	-43.8	-62.7	4.0	8.47e-01	0	60	104	0	56	37367
2026-01-29 17:26:06.08	123.43	14.74	-41.4	-62.4	3.7	8.45e-01	0	60	104	0	57	34083
2026-01-29 17:26:07.08	123.22	14.62	-43.6	-63.0	3.8	8.45e-01	0	60	104	0	57	36148
2026-01-29 17:26:08.09	123.02	14.50	-42.6	-62.6	3.8	8.45e-01	0	60	104	0	56	36711
2026-01-29 17:26:09.11	122.81	14.38	-39.4	-62.5	3.9	8.47e-01	0	60	104	0	54	40587
2026-01-29 17:26:10.11	122.61	14.26	-40.9	-62.6	3.7	8.45e-01	0	60	104	0	51	49259
2026-01-29 17:26:11.12	122.41	14.14	-41.1	-61.3	4.0	8.45e-01	0	60	104	0	50	44544
2026-01-29 17:26:12.13	122.21	14.02	-42.1	-62.6	4.0	8.45e-01	0	60	104	0	53	43717
2026-01-29 17:26:13.14	122.02	13.90	-41.9	-62.2	4.1	8.46e-01	0	60	104	0	52	44273
2026-01-29 17:26:14.15	121.83	13.79	-36.3	-61.8	3.8	8.46e-01	0	60	104	0	50	47107
2026-01-29 17:26:15.17	121.63	13.67	-42.3	-62.9	3.9	8.44e-01	0	60	104	0	53	45213
2026-01-29 17:26:16.17	121.45	13.56	-36.9	-60.9	4.0	8.44e-01	0	60	104	0	45	56913
2026-01-29 17:26:17.19	121.26	13.44	-40.9	-62.2	3.4	8.44e-01	0	60	104	0	53	41840
2026-01-29 17:26:18.20	121.07	13.32	-42.2	-62.9	3.8	8.46e-01	0	60	104	0	56	37922
2026-01-29 17:26:19.21	120.89	13.21	-40.7	-62.1	4.0	8.46e-01	0	60	104	0	52	43837
2026-01-29 17:26:20.22	120.70	13.10	-38.5	-62.4	4.2	8.47e-01	0	60	104	0	52	45301
2026-01-29 17:26:21.23	120.52	12.98	-40.8	-62.1	3.8	8.47e-01	0	60	104	0	52	43522
2026-01-29 17:26:22.23	120.35	12.87	-35.3	-60.7	3.9	8.45e-01	0	60	104	0	47	49695
2026-01-29 17:26:23.24	120.17	12.76	-39.6	-62.3	4.1	8.46e-01	0	60	104	0	48	56312
2026-01-29 17:26:24.26	120.00	12.65	-40.7	-63.1	3.4	8.46e-01	0	60	104	0	52	48778
2026-01-29 17:26:25.26	119.82	12.54	-37.6	-62.2	3.7	8.46e-01	0	60	104	0	52	44318
2026-01-29 17:26:26.28	119.65	12.43	-34.9	-60.6	3.3	8.45e-01	0	60	104	0	42	65523
2026-01-29 17:26:27.29	119.48	12.32	-38.7	-61.3	3.8	8.45e-01	0	60	104	0	45	59683
2026-01-29 17:26:28.30	119.31	12.21	-24.6	-54.1	3.8	8.42e-01	0	60	104	0	29	65535
2026-01-29 17:26:29.31	119.15	12.10	-32.3	-57.1	3.8	8.34e-01	0	60	104	0	35	65535
2026-01-29 17:26:30.32	118.98	11.99	-29.7	-48.6	3.4	8.34e-01	0	60	104	0	18	65535
2026-01-29 17:26:31.33	118.82	11.88	-23.4	-48.1	5.8	8.17e-01	0	60	104	0	17	65535
2026-01-29 17:26:32.34	118.66	11.78	-27.5	-53.6	6.7	7.62e-01	0	60	104	0	28	65535
2026-01-29 17:26:33.35	118.50	11.67	-32.8	-59.6	3.7	8.02e-01	0	60	104	0	40	65523
2026-01-29 17:26:34.36	118.34	11.56	-24.2	-48.1	3.0	8.02e-01	0	60	104	0	17	65535
2026-01-29 17:26:35.37	118.18	11.46	-21.6	-52.6	4.4	7.81e-01	0	60	104	0	26	65535
2026-01-29 17:26:36.38	118.03	11.35	-24.5	-49.1	3.6	7.83e-01	0	61	104	0	19	65535
2026-01-29 17:26:37.39	117.87	11.25	-19.6	-44.6	3.9	7.83e-01	0	60	104	0	10	65535
2026-01-29 17:26:38.40	117.72	11.14	-23.2	-46.1	2.8	7.67e-01	0	61	104	0	13	65534
2026-01-29 17:26:39.41	117.57	11.04	-22.2	-44.6	3.0	7.61e-01	0	60	104	0	10	65535
2026-01-29 17:26:40.42	117.42	10.94	-15.5	-48.9	3.3	7.61e-01	0	60	104	0	19	64007
2026-01-29 17:26:41.43	117.27	10.83	-28.7	-51.6	3.6	7.57e-01	0	60	104	0	24	65535
2026-01-29 17:26:42.44	117.13	10.73	-23.0	-47.1	2.9	8.05e-01	0	61	104	0	15	65535
2026-01-29 17:26:43.45	116.98	10.63	-22.8	-47.1	3.7	7.57e-01	0	60	104	0	15	65534
2026-01-29 17:26:44.46	116.84	10.53	-16.9	-45.1	2.9	7.57e-01	0	60	104	0	11	65535
2026-01-29 17:26:45.47	116.70	10.43	-21.9	-46.1	3.3	7.64e-01	0	60	104	0	13	65535
2026-01-29 17:26:46.48	116.55	10.33	-20.6	-45.6	3.8	7.67e-01	0	60	104	0	12	65535
2026-01-29 17:26:47.49	116.41	10.23	-18.0	-44.1	3.2	7.67e-01	0	60	104	0	9	65535
2026-01-29 17:26:48.50	116.28	10.13	-22.3	-46.6	2.6	7.62e-01	0	60	104	0	14	65535
2026-01-29 17:26:49.51	116.14	10.03	-23.3	-49.1	4.3	7.78e-01	0	61	104	0	19	65535
2026-01-29 17:26:50.52	116.00	9.93	-21.3	-45.6	4.1	7.78e-01	0	60	104	0	12	65535
2026-01-29 17:26:51.53	115.87	9.84	-18.3	-45.6	3.6	7.66e-01	0	61	104	0	12	65535
2026-01-29 17:26:52.54	115.73	9.74	-22.1	-47.1	4.2	7.58e-01	0	60	104	0	15	65535
2026-01-29 17:26:53.55	115.60	9.64	-21.6	-45.1	4.0	7.58e-01	0	61	104	0	11	65533
2026-01-29 17:26:54.56	115.47	9.55	-16.9	-45.1	3.4	7.60e-01	0	60	104	0	11	65535
2026-01-29 17:26:55.57	115.34	9.45	-20.0	-43.6	3.1	7.71e-01	0	61	104	0	8	65535
2026-01-29 17:26:56.58	115.21	9.35	-17.1	-42.6	3.6	7.71e-01	0	60	104	0	6	65535
2026-01-29 17:26:57.59	115.08	9.26	-24.7	-48.1	3.9	7.72e-01	0	61	104	0	17	65534
2026-01-29 17:26:58.60	114.96	9.16	-20.9	-46.6	3.6	7.69e-01	0	61	104	0	14	65535
2026-01-29 17:26:59.61	114.83	9.07	-19.3	-44.1	4.3	7.75e-01	0	60	104	0	9	65535
2026-01-29 17:27:00.62	114.71	8.98	-14.5	-44.1	3.3	7.75e-01	0	60	104	0	9	65535
2026-01-29 17:27:01.63	114.59	8.88	-19.0	-42.6	3.5	7.77e-01	0	61	104	0	6	65535
2026-01-29 17:27:02.64	114.46	8.79	-19.9	-41.6	3.6	7.59e-01	0	60	104	0	4	65535
2026-01-29 17:27:03.65	114.34	8.70	-17.8	-45.1	3.2	7.59e-01	0	60	104	0	11	65534
2026-01-29 17:27:04.66	114.22	8.61	-21.2	-45.6	4.7	7.58e-01	0	61	104	0	12	65535
2026-01-29 17:27:05.67	114.10	8.52	-21.6	-43.6	3.1	7.69e-01	0	60	104	0	8	65535
2026-01-29 17:27:06.68	113.99	8.42	-18.6	-42.1	4.1	7.69e-01	0	61	104	0	5	65535
2026-01-29 17:27:07.69	113.87	8.33	-15.5	-42.6	2.5	7.72e-01	0	61	104	0	6	65535
2026-01-29 17:27:08.70	113.75	8.24	-16.2	-41.6	3.6	7.62e-01	0	61	104	0	4	65535
2026-01-29 17:27:09.71	113.64	8.15	-20.5	-46.1	4.7	7.67e-01	0	61	104	0	13	65535
2026-01-29 17:27:10.72	113.52	8.06	-17.2	-43.1	3.9	7.67e-01	0	61	104	0	7	65535
2026-01-29 17:27:11.73	113.41	7.97	-25.1	-48.1	3.7	7.66e-01	0	61	104	0	17	65535
2026-01-29 17:27:12.74	113.30	7.89	-44.3	-62.8	3.8	8.00e-01	0	60	104	0	59	31701
2026-01-29 17:27:13.75	113.19	7.80	-44.7	-63.1	3.9	8.00e-01	0	60	104	0	60	30846
2026-01-29 17:27:14.76	113.08	7.71	-44.9	-63.2	3.8	8.45e-01	0	61	104	0	60	31446
2026-01-29 17:27:15.77	112.97	7.62	-45.1	-63.5	3.8	8.47e-01	0	61	104	0	60	32214
2026-01-29 17:27:16.78	112.86	7.53	-45.2	-63.6	3.8	8.47e-01	0	60	104	0	60	32809
2026-01-29 17:27:17.79	112.75	7.45	-45.3	-63.7	3.8	8.46e-01	0	60	104	0	61	31309
2026-01-29 17:27:18.80	112.65	7.36	-45.4	-63.8	3.8	8.46e-01	0	61	104	0	61	31731
2026-01-29 17:27:19.81	112.54	7.28	-45.5	-63.9	3.8	8.46e-01	0	61	104	0	61	32018
2026-01-29 17:27:20.82	112.44	7.19	-45.5	-63.9	3.8	8.47e-01	0	60	104	0	61	32072
2026-01-29 17:27:21.83	112.33	7.10	-45.5	-63.9	3.8	8.46e-01	0	60	104	0	61	31812
2026-01-29 17:27:22.84	112.23	7.02	-45.4	-63.8	3.8	8.46e-01	0	61	104	0	61	31599
2026-01-29 17:27:23.85	112.13	6.94	-45.3	-63.7	3.8	8.46e-01	0	60	104	0	61	31338
2026-01-29 17:27:24.86	112.03	6.85	-45.2	-63.7	3.8	8.45e-01	0	61	104	0	61	31089
2026-01-29 17:27:25.88	111.93	6.77	-45.2	-63.6	3.8	8.45e-01	0	61	104	0	61	30929
2026-01-29 17:27:26.89	111.83	6.68	-45.2	-63.6	3.8	8.45e-01	0	61	104	0	61	30967
2026-01-29 17:27:27.90	111.73	6.60	-45.1	-63.6	3.8	8.46e-01	0	60	104	0	61	30749
2026-01-29 17:27:28.91	111.63	6.52	-45.1	-63.5	3.8	8.46e-01	0	60	104	0	61	30671
2026-01-29 17:27:29.92	111.53	6.43	-45.1	-63.5	3.8	8.46e-01	0	61	104	0	61	30703
2026-01-29 17:27:30.93	111.44	6.35	-45.1	-63.5	3.8	8.46e-01	0	61	104	0	61	30625
2026-01-29 17:27:31.94	111.34	6.27	-45.1	-63.5	3.8	8.47e-01	0	61	104	0	61	30586
2026-01-29 17:27:32.95	111.25	6.19	-45.1	-63.5	3.8	8.47e-01	0	60	104	0	61	30628
2026-01-29 17:27:33.96	111.15	6.11	-45.1	-63.5	3.8	8.46e-01	0	61	104	0	60	32455
2026-01-29 17:27:34.97	111.06	6.03	-45.1	-63.5	3.8	8.45e-01	0	61	104	0	60	32367
2026-01-29 17:27:35.98	110.97	5.95	-45.1	-63.5	3.8	8.47e-01	0	61	104	0	60	32498
2026-01-29 17:27:36.99	110.88	5.87	-45.1	-63.5	3.8	8.47e-01	0	61	104	0	60	32400
2026-01-29 17:27:38.00	110.79	5.79	-45.1	-63.5	3.8	8.46e-01	0	61	104	0	60	32424
2026-01-29 17:27:39.01	110.70	5.71	-45.1	-63.5	3.8	8.46e-01	0	61	104	0	60	32281
2026-01-29 17:27:40.02	110.61	5.63	-45.0	-63.5	3.8	8.46e-01	0	61	104	0	60	32339
2026-01-29 17:27:41.03	110.52	5.55	-45.1	-63.5	3.8	8.46e-01	0	60	104	0	60	32480
2026-01-29 17:27:42.04	110.43	5.47	-45.0	-63.5	3.8	8.46e-01	0	61	104	0	60	32282
2026-01-29 17:27:43.05	110.34	5.39	-45.0	-63.5	3.8	8.46e-01	0	61	104	0	60	32412
2026-01-29 17:27:44.06	110.25	5.31	-45.1	-63.5	3.8	8.46e-01	0	61	104	0	60	32361
2026-01-29 17:27:45.08	110.17	5.24	-45.0	-63.5	3.8	8.46e-01	0	61	104	0	60	32321
2026-01-29 17:27:46.09	110.08	5.16	-45.0	-63.5	3.8	8.45e-01	0	61	104	0	60	32306
2026-01-29 17:27:47.10	110.00	5.08	-45.0	-63.5	3.8	8.45e-01	0	61	104	0	60	32389
2026-01-29 17:27:48.11	109.91	5.01	-45.0	-63.5	3.8	8.46e-01	0	61	104	0	60	32233
2026-01-29 17:27:49.12	109.83	4.93	-45.0	-63.5	3.8	8.47e-01	0	60	104	0	60	32319
2026-01-29 17:27:50.13	109.75	4.85	-45.0	-63.5	3.8	8.47e-01	0	61	104	0	60	32425
2026-01-29 17:27:51.14	109.66	4.78	-45.0	-63.5	3.8	8.47e-01	0	61	104	0	60	32276
2026-01-29 17:27:52.15	109.58	4.70	-45.0	-63.5	3.8	8.46e-01	0	61	104	0	60	32269
2026-01-29 17:27:53.16	109.50	4.63	-44.9	-63.5	3.8	8.46e-01	0	61	104	0	60	32321
2026-01-29 17:27:54.17	109.42	4.55	-45.0	-63.5	3.8	8.47e-01	0	61	104	0	60	32292
2026-01-29 17:27:55.18	109.34	4.48	-45.0	-63.5	3.8	8.46e-01	0	61	104	0	60	32254
2026-01-29 17:27:56.19	109.26	4.40	-45.0	-63.5	3.8	8.46e-01	0	61	104	0	60	32285
2026-01-29 17:27:57.20	109.18	4.33	-45.0	-63.5	3.8	8.46e-01	0	61	104	0	60	32273
2026-01-29 17:27:58.21	109.11	4.25	-45.0	-63.5	3.8	8.46e-01	0	61	104	0	60	32315
2026-01-29 17:27:59.22	109.03	4.18	-45.0	-63.5	3.8	8.46e-01	0	61	104	0	60	32209
2026-01-29 17:28:00.23	108.95	4.11	-45.0	-63.4	3.8	8.46e-01	0	61	104	0	60	32155
2026-01-29 17:28:01.24	108.87	4.03	-45.0	-63.5	3.8	8.46e-01	0	61	104	0	60	32258
2026-01-29 17:28:02.25	108.80	3.96	-45.0	-63.5	3.8	8.47e-01	0	61	104	0	60	32271
2026-01-29 17:28:03.26	108.72	3.89	-45.0	-63.5	3.8	8.47e-01	0	61	104	0	60	32238
2026-01-29 17:28:04.27	108.65	3.82	-45.0	-63.5	3.8	8.46e-01	0	61	104	0	60	32216
2026-01-29 17:28:05.28	108.57	3.74	-45.0	-63.4	3.8	8.47e-01	0	61	104	0	60	32161
2026-01-29 17:28:06.29	108.50	3.67	-45.0	-63.5	3.8	8.47e-01	0	61	104	0	60	32286
2026-01-29 17:28:07.30	108.43	3.60	-45.0	-63.5	3.8	8.45e-01	0	61	104	0	60	32288
2026-01-29 17:28:08.32	108.36	3.53	-45.0	-63.5	3.8	8.45e-01	0	61	104	0	60	32191
2026-01-29 17:28:09.33	108.28	3.46	-45.0	-63.5	3.8	8.45e-01	0	61	104	0	60	32241
2026-01-29 17:28:10.34	108.21	3.39	-45.0	-63.5	3.8	8.47e-01	0	61	104	0	60	32311
2026-01-29 17:28:11.35	108.14	3.32	-45.0	-63.5	3.8	8.45e-01	0	61	104	0	60	32214
2026-01-29 17:28:12.36	108.07	3.25	-45.0	-63.5	3.8	8.46e-01	0	61	104	0	60	32260
2026-01-29 17:28:13.37	108.00	3.18	-45.0	-63.4	3.8	8.46e-01	0	61	104	0	60	32166
2026-01-29 17:28:14.38	107.93	3.11	-45.0	-63.5	3.8	8.46e-01	0	61	104	0	60	32249
2026-01-29 17:28:15.39	107.86	3.04	-45.0	-63.5	3.8	8.46e-01	0	61	104	0	60	32213
2026-01-29 17:28:16.40	107.79	2.97	-45.0	-63.5	3.8	8.46e-01	0	61	104	0	60	32335
2026-01-29 17:28:17.41	107.73	2.90	-45.0	-63.5	3.8	8.46e-01	0	60	104	0	60	32293
2026-01-29 17:28:18.42	107.66	2.83	-45.0	-63.5	3.8	8.46e-01	0	61	104	0	60	32233
2026-01-29 17:28:19.43	107.59	2.76	-45.0	-63.5	3.8	8.46e-01	0	60	104	0	60	32263
2026-01-29 17:28:20.44	107.52	2.69	-45.0	-63.5	3.8	8.47e-01	0	61	104	0	60	32293
2026-01-29 17:28:21.45	107.46	2.62	-45.0	-63.5	3.8	8.47e-01	0	60	104	0	60	32259
2026-01-29 17:28:22.46	107.39	2.56	-45.0	-63.5	3.8	8.47e-01	0	61	104	0	60	32250
2026-01-29 17:28:23.47	107.33	2.49	-45.0	-63.5	3.8	8.46e-01	0	60	104	0	60	32236
2026-01-29 17:28:24.48	107.26	2.42	-45.0	-63.5	3.8	8.46e-01	0	61	104	0	60	32213
2026-01-29 17:28:25.50	107.20	2.35	-45.0	-63.5	3.8	8.47e-01	0	61	104	0	60	32295
2026-01-29 17:28:26.51	107.13	2.28	-45.0	-63.5	3.8	8.47e-01	0	61	104	0	60	32306
2026-01-29 17:28:27.52	107.07	2.22	-45.0	-63.5	3.8	8.46e-01	0	61	104	0	60	32245
2026-01-29 17:28:28.53	107.01	2.15	-45.0	-63.5	3.8	8.45e-01	0	61	104	0	60	32281
2026-01-29 17:28:29.54	106.94	2.08	-45.0	-63.5	3.8	8.45e-01	0	61	104	0	60	32334
2026-01-29 17:28:30.55	106.88	2.02	-45.0	-63.5	3.8	8.46e-01	0	61	104	0	60	32255
2026-01-29 17:28:31.56	106.82	1.95	-45.0	-63.5	3.8	8.46e-01	0	61	104	0	60	32273
2026-01-29 17:28:32.57	106.76	1.89	-45.0	-63.4	3.8	8.46e-01	0	61	104	0	60	32100

#Closed at: 2026-01-29 17:28:32
#Recorded file [0 MB]: D:/lorett/data/31039_260129_201921.dat