passes_logs/2026/01/29/R2.0S_Moscow/R2.0S_Moscow__20260129_043132_FENGYUN_3E_rec.log

#Pass ID: 20260129_043132_FENGYUN 3E
#Satellite: FENGYUN 3E
#Configuration: FENGYUN 3E
#almurnet v.1.7.20251203
#Start time: 2026-01-29 04:31:32

#Version: 2.2.20231116
#Station: R2.0S_Moscow
#Location: 37.707566 lon 55.798166 lat
#TLE: 1 49008U 21062A   26027.83084825  .00000170  00000+0  10081-3 0  9997
#TLE: 2 49008  98.7501  32.8098 0002509 114.2687 245.8752 14.19888158236667

#Time	Az	El	Level	Level2	SNR	BER	BlckErr	Temp	State	Recorded	gain1	gain2
2026-01-29 04:31:32.37	13.79	2.02	-42.3	-53.3	3.8	8.46e-01	0	49	0	0	55	12602
2026-01-29 04:31:33.38	13.76	2.08	-42.5	-53.5	3.8	8.45e-01	0	49	104	0	56	12153
2026-01-29 04:31:34.39	13.74	2.15	-42.5	-53.5	3.8	8.47e-01	0	49	104	0	56	12109
2026-01-29 04:31:35.40	13.72	2.21	-42.5	-53.5	3.8	8.46e-01	0	49	104	0	56	12169
2026-01-29 04:31:36.41	13.70	2.27	-42.5	-53.5	3.8	8.45e-01	0	49	104	0	56	12121
2026-01-29 04:31:37.42	13.68	2.34	-42.5	-53.5	3.8	8.45e-01	0	49	104	0	56	12103
2026-01-29 04:31:38.43	13.66	2.40	-42.5	-53.4	3.8	8.46e-01	0	49	104	0	56	12079
2026-01-29 04:31:39.44	13.63	2.47	-42.5	-53.5	3.8	8.47e-01	0	49	104	0	56	12102
2026-01-29 04:31:40.45	13.61	2.53	-42.5	-53.4	3.8	8.46e-01	0	50	104	0	56	12088
2026-01-29 04:31:41.46	13.59	2.60	-42.5	-53.5	3.8	8.46e-01	0	50	104	0	56	12120
2026-01-29 04:31:42.47	13.57	2.66	-42.5	-53.4	3.8	8.47e-01	0	50	104	0	56	12070
2026-01-29 04:31:43.48	13.55	2.73	-42.5	-53.5	3.8	8.46e-01	0	50	104	0	56	12146
2026-01-29 04:31:44.49	13.52	2.79	-42.5	-53.5	3.8	8.46e-01	0	50	104	0	56	12099
2026-01-29 04:31:45.50	13.50	2.86	-42.5	-53.5	3.8	8.45e-01	0	50	104	0	56	12127
2026-01-29 04:31:46.51	13.48	2.92	-42.5	-53.5	3.8	8.46e-01	0	50	104	0	56	12115
2026-01-29 04:31:47.52	13.45	2.99	-42.5	-53.5	3.8	8.47e-01	0	50	104	0	56	12116
2026-01-29 04:31:48.53	13.43	3.05	-42.5	-53.5	3.8	8.46e-01	0	50	104	0	56	12102
2026-01-29 04:31:49.54	13.41	3.12	-42.5	-53.4	3.8	8.46e-01	0	50	104	0	56	12085
2026-01-29 04:31:50.55	13.39	3.19	-42.5	-53.5	3.8	8.45e-01	0	50	104	0	56	12114
2026-01-29 04:31:51.56	13.36	3.25	-42.5	-53.4	3.8	8.46e-01	0	50	104	0	56	12062
2026-01-29 04:31:52.57	13.34	3.32	-42.5	-53.4	3.8	8.45e-01	0	50	104	0	56	12063
2026-01-29 04:31:53.58	13.31	3.39	-42.5	-53.4	3.8	8.47e-01	0	50	104	0	56	11974
2026-01-29 04:31:54.60	13.29	3.45	-42.5	-53.4	3.8	8.46e-01	0	51	104	0	56	12027
2026-01-29 04:31:55.61	13.27	3.52	-42.3	-53.1	3.8	8.45e-01	0	50	104	0	55	12299
2026-01-29 04:31:56.62	13.24	3.59	-42.3	-53.0	3.8	8.46e-01	0	51	104	0	55	12218
2026-01-29 04:31:57.63	13.22	3.66	-42.3	-52.8	3.8	8.46e-01	0	51	104	0	55	11946
2026-01-29 04:31:58.64	13.19	3.72	-42.3	-52.8	3.8	8.47e-01	0	51	104	0	55	11916
2026-01-29 04:31:59.65	13.17	3.79	-42.3	-52.7	3.8	8.47e-01	0	51	104	0	55	11818
2026-01-29 04:32:00.66	13.15	3.86	-42.3	-52.6	3.8	8.46e-01	0	51	104	0	55	11559
2026-01-29 04:32:01.67	13.12	3.93	-42.3	-52.7	3.8	8.46e-01	0	51	104	0	55	11699
2026-01-29 04:32:02.68	13.10	3.99	-42.2	-52.5	3.8	8.46e-01	0	51	104	0	55	11451
2026-01-29 04:32:03.69	13.07	4.06	-42.2	-52.5	3.8	8.46e-01	0	51	104	0	55	11428
2026-01-29 04:32:04.70	13.05	4.13	-42.2	-52.4	3.8	8.46e-01	0	51	104	0	55	11386
2026-01-29 04:32:05.71	13.02	4.20	-42.2	-52.2	3.8	8.46e-01	0	51	104	0	55	11050
2026-01-29 04:32:06.72	13.00	4.27	-42.2	-52.1	3.8	8.46e-01	0	51	104	0	55	10949
2026-01-29 04:32:07.73	12.97	4.34	-42.2	-52.0	3.8	8.46e-01	0	51	104	0	55	10898
2026-01-29 04:32:08.74	12.94	4.41	-42.1	-51.7	3.8	8.46e-01	0	51	104	0	55	10528
2026-01-29 04:32:09.75	12.92	4.48	-42.1	-51.6	3.8	8.46e-01	0	52	104	0	55	10295
2026-01-29 04:32:10.76	12.89	4.55	-42.1	-51.4	3.8	8.45e-01	0	52	104	0	55	10105
2026-01-29 04:32:11.77	12.87	4.62	-42.1	-51.3	3.8	8.45e-01	0	52	104	0	55	9952
2026-01-29 04:32:12.78	12.84	4.69	-42.0	-51.0	3.8	8.45e-01	0	52	104	0	55	9683
2026-01-29 04:32:13.79	12.81	4.76	-42.0	-50.7	3.8	8.44e-01	0	52	104	0	55	9368
2026-01-29 04:32:14.80	12.79	4.83	-42.0	-50.8	4.0	8.43e-01	0	52	104	0	55	9391
2026-01-29 04:32:15.81	12.76	4.90	-42.0	-50.7	3.9	8.43e-01	0	52	104	0	55	9364
2026-01-29 04:32:16.83	12.73	4.97	-42.0	-50.8	4.0	8.45e-01	0	52	104	0	55	9405
2026-01-29 04:32:17.83	12.71	5.04	-42.0	-50.8	4.0	8.43e-01	0	52	104	0	55	9460
2026-01-29 04:32:18.84	12.68	5.11	-42.0	-51.0	3.9	8.44e-01	0	52	104	0	55	9619
2026-01-29 04:32:19.85	12.65	5.18	-42.0	-50.9	3.9	8.44e-01	0	52	104	0	55	9598
2026-01-29 04:32:20.86	12.63	5.25	-42.0	-51.2	3.8	8.43e-01	0	52	104	0	55	9916
2026-01-29 04:32:21.87	12.60	5.32	-42.1	-51.4	3.9	8.45e-01	0	52	104	0	55	10121
2026-01-29 04:32:22.88	12.57	5.39	-42.1	-51.7	3.8	8.46e-01	0	52	104	0	55	10450
2026-01-29 04:32:23.89	12.54	5.47	-42.2	-51.9	3.8	8.46e-01	0	52	104	0	55	10756
2026-01-29 04:32:24.91	12.51	5.54	-42.2	-52.1	3.8	8.45e-01	0	52	104	0	55	10953
2026-01-29 04:32:25.92	12.49	5.61	-42.2	-52.3	3.8	8.45e-01	0	52	104	0	55	11158
2026-01-29 04:32:26.93	12.46	5.68	-42.2	-52.2	3.8	8.46e-01	0	53	104	0	55	11088
2026-01-29 04:32:27.94	12.43	5.76	-42.2	-52.0	3.8	8.45e-01	0	53	104	0	55	10885
2026-01-29 04:32:28.95	12.40	5.83	-42.1	-51.8	3.8	8.47e-01	0	53	104	0	55	10655
2026-01-29 04:32:29.96	12.37	5.90	-42.1	-51.7	3.8	8.46e-01	0	53	104	0	55	10493
2026-01-29 04:32:30.97	12.34	5.97	-42.1	-51.5	3.9	8.45e-01	0	52	104	0	55	10198
2026-01-29 04:32:31.98	12.31	6.05	-42.0	-51.1	3.8	8.46e-01	0	53	104	0	55	9728
2026-01-29 04:32:32.99	12.28	6.12	-42.0	-50.6	4.0	8.43e-01	0	53	104	0	54	9730
2026-01-29 04:32:34.00	12.26	6.20	-41.8	-49.6	4.2	8.38e-01	0	53	0	0	54	8755
2026-01-29 04:32:35.01	12.23	6.27	-41.7	-49.0	4.4	8.31e-01	0	53	0	0	54	8169
2026-01-29 04:32:36.02	12.20	6.34	-41.5	-48.3	4.7	8.13e-01	0	53	0	0	54	7467
2026-01-29 04:32:37.03	12.17	6.42	-41.3	-47.5	5.1	7.72e-01	0	53	0	0	53	7283
2026-01-29 04:32:38.04	12.14	6.49	-41.1	-46.7	5.6	6.76e-01	0	53	0	0	53	6604
2026-01-29 04:32:39.06	12.10	6.57	-40.8	-46.0	6.2	3.39e-01	0	53	0	5242880	52	6444
2026-01-29 04:32:40.07	12.07	6.64	-40.6	-45.3	6.8	2.10e-01	0	53	0	12582912	52	5948
2026-01-29 04:32:41.08	12.04	6.72	-40.3	-44.5	7.5	1.45e-01	0	53	0	19922944	51	5769
2026-01-29 04:32:42.09	12.01	6.79	-40.0	-43.9	8.1	7.38e-02	0	53	0	27262976	51	5369
2026-01-29 04:32:43.10	11.98	6.87	-39.8	-43.5	8.6	5.03e-02	0	53	0	34603008	50	5416
2026-01-29 04:32:44.11	11.95	6.95	-39.6	-43.1	9.0	2.44e-02	0	54	0	41943040	50	5160
2026-01-29 04:32:45.12	11.92	7.02	-39.3	-42.6	9.4	1.81e-02	0	53	0	49283072	49	5196
2026-01-29 04:32:46.13	11.89	7.10	-39.1	-42.2	9.9	1.05e-02	0	53	0	56623104	49	4947
2026-01-29 04:32:47.14	11.86	7.17	-38.9	-41.9	10.3	7.59e-03	0	53	0	63963136	48	5068
2026-01-29 04:32:48.15	11.82	7.25	-38.7	-41.6	10.6	4.76e-03	0	54	0	71303168	48	4894
2026-01-29 04:32:49.17	11.79	7.33	-38.8	-41.7	10.5	4.84e-03	0	54	0	78643200	48	4936
2026-01-29 04:32:50.18	11.76	7.41	-38.9	-41.9	10.2	5.51e-03	0	54	0	85983232	48	5079
2026-01-29 04:32:51.19	11.73	7.48	-39.0	-41.9	10.2	6.27e-03	0	53	0	93323264	48	5085
2026-01-29 04:32:52.20	11.69	7.56	-38.9	-41.9	10.2	5.01e-03	0	54	0	100663296	48	5076
2026-01-29 04:32:53.21	11.66	7.64	-39.0	-42.1	10.0	7.99e-03	0	54	0	106954752	48	5174
2026-01-29 04:32:54.22	11.63	7.72	-39.2	-42.3	9.8	1.06e-02	0	54	0	114294784	48	5326
2026-01-29 04:32:55.23	11.59	7.80	-39.5	-42.9	9.2	1.84e-02	0	54	0	122683392	48	5679
2026-01-29 04:32:56.24	11.56	7.87	-39.5	-42.9	9.1	2.21e-02	0	54	0	128974848	48	5719
2026-01-29 04:32:57.26	11.53	7.95	-39.8	-43.5	8.6	3.63e-02	0	54	0	136314880	49	5731
2026-01-29 04:32:58.27	11.49	8.03	-40.0	-43.9	8.1	5.92e-02	0	54	0	143654912	49	6050
2026-01-29 04:32:59.28	11.46	8.11	-40.0	-44.2	7.4	1.22e-01	0	54	0	150994944	49	6270
2026-01-29 04:33:00.29	11.42	8.19	-39.9	-43.9	7.9	1.34e-01	0	54	0	158334976	49	6036
2026-01-29 04:33:01.30	11.39	8.27	-41.2	-46.6	5.9	7.23e-01	0	54	0	163577856	52	6940
2026-01-29 04:33:02.31	11.35	8.35	-40.6	-44.8	7.6	1.99e-01	0	54	0	170917888	52	5634
2026-01-29 04:33:03.32	11.32	8.43	-40.6	-46.9	5.0	7.95e-01	0	54	0	175112192	51	7607
2026-01-29 04:33:04.33	11.28	8.51	-40.5	-45.1	6.9	1.83e-01	0	54	0	181403648	51	6159
2026-01-29 04:33:05.34	11.25	8.59	-40.6	-45.5	6.5	2.40e-01	0	54	0	188743680	51	6475
2026-01-29 04:33:06.35	11.21	8.67	-40.7	-45.9	6.1	3.05e-01	0	54	0	196083712	51	6728
2026-01-29 04:33:07.36	11.18	8.76	-40.8	-46.0	6.1	3.22e-01	0	54	0	203423744	51	6819
2026-01-29 04:33:08.37	11.14	8.84	-40.8	-46.2	5.9	3.33e-01	0	55	0	209715200	51	6988
2026-01-29 04:33:09.38	11.10	8.92	-41.0	-46.2	6.1	3.83e-01	0	54	0	218103808	51	7006
2026-01-29 04:33:10.39	11.07	9.00	-41.5	-47.3	5.5	7.01e-01	0	55	0	222298112	52	7521
2026-01-29 04:33:11.40	11.03	9.08	-41.0	-46.4	5.9	4.15e-01	0	54	0	227540992	52	6749
2026-01-29 04:33:12.41	10.99	9.17	-40.6	-48.0	4.3	8.40e-01	0	55	0	227540992	52	8146
2026-01-29 04:33:13.42	10.95	9.25	-40.9	-46.2	5.9	6.35e-01	0	55	0	229638144	52	6635
2026-01-29 04:33:14.43	10.92	9.33	-41.6	-48.3	4.7	8.25e-01	0	54	0	230686720	53	7989
2026-01-29 04:33:15.43	10.88	9.41	-41.1	-47.1	5.3	7.25e-01	0	54	0	231735296	53	6884
2026-01-29 04:33:16.45	10.84	9.50	-41.1	-47.2	5.2	7.48e-01	0	55	0	233832448	53	7028
2026-01-29 04:33:17.45	10.80	9.58	-41.1	-47.4	5.1	7.66e-01	0	54	0	233832448	53	7127
2026-01-29 04:33:18.47	10.76	9.67	-41.2	-47.8	4.8	7.89e-01	0	55	0	234881024	53	7472
2026-01-29 04:33:19.48	10.73	9.75	-41.2	-47.9	4.8	7.96e-01	0	55	0	234881024	53	7616
2026-01-29 04:33:20.49	10.69	9.84	-41.1	-47.8	4.8	8.01e-01	0	55	0	234881024	53	7511
2026-01-29 04:33:21.50	10.65	9.92	-41.5	-48.1	4.8	8.27e-01	0	55	0	234881024	53	7805
2026-01-29 04:33:22.51	10.61	10.01	-41.2	-48.8	4.3	8.07e-01	0	55	0	234881024	53	8441
2026-01-29 04:33:23.52	10.57	10.09	-40.8	-50.1	3.8	8.46e-01	0	55	104	234881024	52	10337
2026-01-29 04:33:24.53	10.53	10.18	-41.5	-49.0	4.0	8.42e-01	0	55	104	234881024	53	8586
2026-01-29 04:33:25.54	10.49	10.26	-41.7	-50.1	3.9	8.43e-01	0	55	104	234881024	53	9802
2026-01-29 04:33:26.55	10.45	10.35	-41.4	-49.1	4.3	8.33e-01	0	55	0	234881024	53	8680
2026-01-29 04:33:27.56	10.41	10.44	-41.3	-48.5	4.5	8.25e-01	0	55	0	234881024	53	8171
2026-01-29 04:33:28.57	10.37	10.52	-41.2	-48.1	4.7	8.11e-01	0	55	0	234881024	53	7741
2026-01-29 04:33:29.58	10.32	10.61	-41.1	-47.8	4.8	8.02e-01	0	55	0	234881024	53	7503
2026-01-29 04:33:30.59	10.28	10.70	-41.1	-47.8	4.8	7.93e-01	0	55	0	234881024	53	7479
2026-01-29 04:33:31.60	10.24	10.79	-41.1	-47.1	5.3	7.60e-01	0	55	0	234881024	53	6957
2026-01-29 04:33:32.61	10.20	10.87	-41.5	-47.5	5.3	6.90e-01	0	55	0	234881024	53	7232
2026-01-29 04:33:33.62	10.16	10.96	-40.9	-49.2	4.1	8.15e-01	0	55	0	234881024	52	9305
2026-01-29 04:33:34.63	10.11	11.05	-41.2	-47.5	5.0	8.45e-01	0	55	104	234881024	52	7650
2026-01-29 04:33:35.64	10.07	11.14	-41.8	-49.1	4.4	7.96e-01	0	55	0	236978176	53	8732
2026-01-29 04:33:36.65	10.03	11.23	-41.9	-48.6	4.7	8.32e-01	0	55	0	236978176	53	8223
2026-01-29 04:33:37.66	9.98	11.32	-41.6	-46.6	6.4	2.81e-01	0	55	0	243269632	53	6512
2026-01-29 04:33:38.67	9.94	11.41	-41.4	-46.1	6.8	2.13e-01	0	56	0	250609664	53	6175
2026-01-29 04:33:39.68	9.89	11.50	-41.1	-45.3	7.7	1.14e-01	0	55	0	257949696	53	5597
2026-01-29 04:33:40.69	9.85	11.59	-40.6	-44.1	8.7	4.55e-02	0	55	0	265289728	52	5218
2026-01-29 04:33:41.71	9.80	11.68	-40.0	-43.2	9.9	1.59e-02	0	55	0	272629760	51	4927
2026-01-29 04:33:42.72	9.76	11.77	-39.5	-42.3	10.8	3.57e-03	0	55	0	279969792	50	4744
2026-01-29 04:33:43.73	9.71	11.86	-38.9	-41.4	11.8	8.12e-04	0	56	0	287309824	48	4765
2026-01-29 04:33:44.74	9.67	11.96	-38.5	-40.7	12.5	1.69e-04	0	55	0	294649856	48	4422
2026-01-29 04:33:45.75	9.62	12.05	-38.1	-40.3	12.8	9.49e-05	0	55	0	301989888	47	4454
2026-01-29 04:33:46.76	9.58	12.14	-37.9	-40.0	13.1	5.03e-05	0	56	0	308281344	46	4563
2026-01-29 04:33:47.77	9.53	12.23	-38.0	-40.1	13.0	2.97e-05	0	56	0	315621376	46	4613
2026-01-29 04:33:48.78	9.48	12.33	-37.8	-39.8	13.3	2.17e-05	0	55	0	324009984	46	4469
2026-01-29 04:33:49.79	9.43	12.42	-37.9	-39.9	13.3	2.63e-05	0	56	0	330301440	46	4500
2026-01-29 04:33:50.80	9.39	12.51	-37.9	-40.0	13.2	2.05e-05	0	56	0	337641472	46	4551
2026-01-29 04:33:51.81	9.34	12.61	-37.8	-39.8	13.4	1.14e-05	0	56	0	344981504	46	4488
2026-01-29 04:33:52.82	9.29	12.70	-37.9	-39.9	13.3	2.17e-05	0	55	0	352321536	46	4544
2026-01-29 04:33:53.83	9.24	12.80	-38.0	-40.0	13.3	1.48e-05	0	56	0	359661568	46	4584
2026-01-29 04:33:54.84	9.19	12.89	-38.2	-40.3	13.1	2.40e-05	0	55	0	367001600	46	4722
2026-01-29 04:33:55.85	9.14	12.99	-38.2	-40.3	13.0	3.31e-05	0	56	0	374341632	46	4744
2026-01-29 04:33:56.86	9.09	13.08	-38.2	-40.2	13.2	3.66e-05	0	56	0	381681664	46	4670
2026-01-29 04:33:57.87	9.04	13.18	-38.0	-39.9	13.6	1.25e-05	0	56	0	389021696	46	4525
2026-01-29 04:33:58.88	8.99	13.28	-37.8	-39.7	13.9	3.40e-06	0	56	0	396361728	46	4409
2026-01-29 04:33:59.89	8.94	13.37	-37.9	-39.8	13.9	3.40e-06	0	56	0	403701760	46	4446
2026-01-29 04:34:00.90	8.89	13.47	-38.1	-40.0	13.7	6.80e-06	0	56	0	411041792	46	4553
2026-01-29 04:34:01.91	8.84	13.57	-38.1	-40.0	13.7	5.70e-06	0	56	0	418381824	46	4562
2026-01-29 04:34:02.92	8.79	13.67	-38.0	-39.9	13.9	2.20e-06	0	56	0	425721856	46	4519
2026-01-29 04:34:03.93	8.74	13.77	-38.0	-39.9	13.9	4.50e-06	0	56	0	433061888	46	4512
2026-01-29 04:34:04.95	8.68	13.87	-38.0	-39.8	14.1	2.20e-06	0	56	0	440401920	46	4463
2026-01-29 04:34:05.96	8.63	13.97	-38.1	-39.9	14.1	5.70e-06	0	56	0	447741952	46	4495
2026-01-29 04:34:06.97	8.58	14.07	-37.9	-39.7	14.2	3.40e-06	0	56	0	455081984	46	4434
2026-01-29 04:34:07.98	8.52	14.17	-37.9	-39.7	14.3	3.40e-06	0	56	0	462422016	46	4399
2026-01-29 04:34:08.99	8.47	14.27	-38.1	-39.9	14.1	3.40e-06	0	56	0	469762048	46	4541
2026-01-29 04:34:10.00	8.41	14.37	-38.1	-39.9	14.1	1.10e-06	0	56	0	477102080	46	4526
2026-01-29 04:34:11.01	8.36	14.47	-37.9	-39.6	14.4	0.00e+00	0	56	0	483393536	46	4382
2026-01-29 04:34:12.02	8.30	14.57	-37.8	-39.6	14.5	0.00e+00	0	56	0	490733568	46	4346
2026-01-29 04:34:13.03	8.25	14.67	-37.9	-39.7	14.4	1.10e-06	0	56	0	499122176	46	4418
2026-01-29 04:34:14.04	8.19	14.77	-37.8	-39.5	14.6	0.00e+00	0	56	0	505413632	46	4308
2026-01-29 04:34:15.05	8.14	14.88	-37.6	-39.2	14.8	1.10e-06	0	56	0	512753664	46	4183
2026-01-29 04:34:16.06	8.08	14.98	-37.8	-39.5	14.6	0.00e+00	0	56	0	520093696	46	4297
2026-01-29 04:34:17.07	8.02	15.08	-37.8	-39.4	14.7	0.00e+00	0	56	0	527433728	46	4281
2026-01-29 04:34:18.08	7.96	15.19	-37.6	-39.3	14.9	0.00e+00	0	56	0	534773760	46	4200
2026-01-29 04:34:19.09	7.90	15.29	-37.6	-39.3	14.9	0.00e+00	0	56	0	542113792	46	4214
2026-01-29 04:34:20.10	7.85	15.40	-37.6	-39.2	14.9	0.00e+00	0	56	0	549453824	46	4182
2026-01-29 04:34:21.11	7.79	15.50	-37.6	-39.3	14.9	0.00e+00	0	56	0	556793856	46	4195
2026-01-29 04:34:22.12	7.73	15.61	-37.6	-39.2	15.0	0.00e+00	0	56	0	564133888	46	4168
2026-01-29 04:34:23.14	7.67	15.72	-37.6	-39.2	15.0	0.00e+00	0	56	0	571473920	46	4176
2026-01-29 04:34:24.15	7.61	15.82	-37.4	-39.0	15.2	0.00e+00	0	56	0	578813952	45	4312
2026-01-29 04:34:25.16	7.55	15.93	-37.4	-38.9	15.3	0.00e+00	0	56	0	586153984	45	4286
2026-01-29 04:34:26.17	7.48	16.04	-37.4	-39.0	15.2	0.00e+00	0	56	0	593494016	45	4321
2026-01-29 04:34:27.18	7.42	16.14	-37.4	-39.0	15.3	0.00e+00	0	56	0	600834048	45	4315
2026-01-29 04:34:28.19	7.36	16.25	-37.4	-39.0	15.2	0.00e+00	0	56	0	608174080	45	4322
2026-01-29 04:34:29.20	7.30	16.36	-37.3	-38.9	15.4	0.00e+00	0	56	0	615514112	45	4258
2026-01-29 04:34:30.21	7.23	16.47	-37.4	-39.0	15.3	0.00e+00	0	56	0	622854144	45	4301
2026-01-29 04:34:31.22	7.17	16.58	-37.3	-38.9	15.4	0.00e+00	0	56	0	630194176	45	4250
2026-01-29 04:34:32.23	7.10	16.69	-37.3	-38.9	15.4	0.00e+00	0	56	0	637534208	45	4252
2026-01-29 04:34:33.24	7.04	16.80	-37.3	-38.9	15.4	0.00e+00	0	56	0	644874240	45	4255
2026-01-29 04:34:34.25	6.97	16.91	-37.3	-38.9	15.4	0.00e+00	0	56	0	652214272	45	4252
2026-01-29 04:34:35.27	6.91	17.03	-37.3	-38.8	15.5	0.00e+00	0	56	0	658505728	45	4238
2026-01-29 04:34:36.28	6.84	17.14	-37.3	-38.8	15.5	0.00e+00	0	57	0	666894336	45	4237
2026-01-29 04:34:37.29	6.77	17.25	-37.2	-38.7	15.6	0.00e+00	0	57	0	674234368	45	4162
2026-01-29 04:34:38.30	6.71	17.36	-37.2	-38.8	15.6	0.00e+00	0	56	0	680525824	45	4199
2026-01-29 04:34:39.31	6.64	17.48	-37.1	-38.6	15.7	0.00e+00	0	56	0	687865856	45	4128
2026-01-29 04:34:40.32	6.57	17.59	-37.3	-38.8	15.6	0.00e+00	0	57	0	695205888	45	4221
2026-01-29 04:34:41.33	6.50	17.71	-37.2	-38.7	15.7	0.00e+00	0	57	0	702545920	45	4159
2026-01-29 04:34:42.34	6.43	17.82	-37.1	-38.6	15.7	0.00e+00	0	57	0	709885952	45	4139
2026-01-29 04:34:43.35	6.36	17.94	-37.2	-38.7	15.7	0.00e+00	0	57	0	717225984	45	4164
2026-01-29 04:34:44.36	6.29	18.05	-37.2	-38.7	15.6	0.00e+00	0	57	0	724566016	45	4190
2026-01-29 04:34:45.37	6.22	18.17	-37.1	-38.6	15.8	0.00e+00	0	57	0	731906048	45	4117
2026-01-29 04:34:46.38	6.15	18.29	-37.2	-38.8	15.6	0.00e+00	0	57	0	739246080	45	4211
2026-01-29 04:34:47.39	6.08	18.40	-37.1	-38.6	15.8	0.00e+00	0	57	0	746586112	45	4108
2026-01-29 04:34:48.40	6.00	18.52	-37.0	-38.5	15.9	0.00e+00	0	57	0	753926144	45	4081
2026-01-29 04:34:49.41	5.93	18.64	-37.0	-38.5	15.9	0.00e+00	0	57	0	761266176	45	4091
2026-01-29 04:34:50.42	5.85	18.76	-37.0	-38.5	15.9	0.00e+00	0	57	0	768606208	44	4329
2026-01-29 04:34:51.43	5.78	18.88	-37.1	-38.5	15.9	0.00e+00	0	57	0	775946240	44	4327
2026-01-29 04:34:52.44	5.70	19.00	-36.9	-38.3	16.1	0.00e+00	0	56	0	783286272	44	4240
2026-01-29 04:34:53.46	5.63	19.12	-37.0	-38.4	16.0	0.00e+00	0	57	0	790626304	44	4266
2026-01-29 04:34:54.47	5.55	19.24	-37.0	-38.4	16.0	0.00e+00	0	57	0	797966336	44	4284
2026-01-29 04:34:55.48	5.47	19.36	-36.9	-38.4	16.1	0.00e+00	0	57	0	805306368	44	4262
2026-01-29 04:34:56.49	5.39	19.48	-36.8	-38.2	16.2	0.00e+00	0	57	0	812646400	44	4190
2026-01-29 04:34:57.50	5.32	19.61	-36.8	-38.3	16.2	0.00e+00	0	57	0	819986432	44	4201
2026-01-29 04:34:58.51	5.24	19.73	-37.0	-38.4	16.1	0.00e+00	0	57	0	826277888	44	4270
2026-01-29 04:34:59.52	5.16	19.85	-37.0	-38.4	16.1	0.00e+00	0	57	0	833617920	44	4267
2026-01-29 04:35:00.53	5.07	19.98	-37.0	-38.5	16.0	0.00e+00	0	57	0	842006528	44	4307
2026-01-29 04:35:01.54	4.99	20.10	-36.9	-38.3	16.2	0.00e+00	0	57	0	848297984	44	4232
2026-01-29 04:35:02.55	4.91	20.23	-36.9	-38.3	16.2	0.00e+00	0	57	0	855638016	44	4222
2026-01-29 04:35:03.56	4.83	20.36	-36.9	-38.4	16.2	0.00e+00	0	57	0	862978048	44	4247
2026-01-29 04:35:04.57	4.74	20.48	-36.9	-38.4	16.1	0.00e+00	0	57	0	870318080	44	4259
2026-01-29 04:35:05.58	4.66	20.61	-37.0	-38.5	16.0	0.00e+00	0	57	0	877658112	44	4306
2026-01-29 04:35:06.59	4.58	20.74	-37.1	-38.5	16.0	0.00e+00	0	57	0	884998144	44	4327
2026-01-29 04:35:07.60	4.49	20.87	-37.0	-38.4	16.1	0.00e+00	0	57	0	892338176	44	4277
2026-01-29 04:35:08.61	4.40	21.00	-37.0	-38.5	16.0	0.00e+00	0	57	0	899678208	44	4326
2026-01-29 04:35:09.62	4.32	21.13	-37.1	-38.6	15.9	0.00e+00	0	57	0	907018240	44	4366
2026-01-29 04:35:10.63	4.23	21.26	-37.1	-38.6	16.0	0.00e+00	0	57	0	914358272	44	4362
2026-01-29 04:35:11.64	4.14	21.39	-37.0	-38.4	16.1	0.00e+00	0	57	0	921698304	44	4286
2026-01-29 04:35:12.65	4.05	21.52	-37.1	-38.6	15.9	0.00e+00	0	57	0	929038336	44	4385
2026-01-29 04:35:13.66	3.96	21.65	-37.1	-38.6	15.9	0.00e+00	0	57	0	936378368	44	4377
2026-01-29 04:35:14.67	3.87	21.78	-37.1	-38.6	16.0	0.00e+00	0	57	0	943718400	44	4349
2026-01-29 04:35:15.68	3.77	21.92	-37.1	-38.6	16.0	0.00e+00	0	57	0	951058432	44	4348
2026-01-29 04:35:16.70	3.68	22.05	-37.0	-38.4	16.1	0.00e+00	0	57	0	958398464	44	4280
2026-01-29 04:35:17.71	3.59	22.19	-37.0	-38.4	16.2	0.00e+00	0	57	0	965738496	44	4277
2026-01-29 04:35:18.72	3.49	22.32	-37.0	-38.5	16.1	0.00e+00	0	57	0	973078528	44	4307
2026-01-29 04:35:19.73	3.40	22.46	-36.9	-38.4	16.2	0.00e+00	0	57	0	980418560	44	4249
2026-01-29 04:35:20.74	3.30	22.59	-36.9	-38.3	16.3	0.00e+00	0	57	0	987758592	44	4225
2026-01-29 04:35:21.74	3.20	22.73	-36.7	-38.1	16.5	0.00e+00	0	57	0	995098624	44	4137
2026-01-29 04:35:22.75	3.11	22.87	-36.7	-38.1	16.5	0.00e+00	0	57	0	1001390080	44	4135
2026-01-29 04:35:23.76	3.01	23.01	-36.7	-38.1	16.5	0.00e+00	0	57	0	1008730112	44	4122
2026-01-29 04:35:24.78	2.91	23.15	-36.7	-38.1	16.5	0.00e+00	0	57	0	1017118720	44	4119
2026-01-29 04:35:25.79	2.81	23.29	-36.6	-38.0	16.6	0.00e+00	0	57	0	1023410176	44	4072
2026-01-29 04:35:26.80	2.70	23.43	-36.7	-38.0	16.6	0.00e+00	0	57	0	1030750208	44	4092
2026-01-29 04:35:27.81	2.60	23.57	-36.7	-38.1	16.5	0.00e+00	0	57	0	1038090240	44	4130
2026-01-29 04:35:28.82	2.50	23.71	-36.5	-37.9	16.7	0.00e+00	0	57	0	1045430272	44	4029
2026-01-29 04:35:29.83	2.39	23.85	-36.6	-38.0	16.7	0.00e+00	0	57	0	1052770304	44	4062
2026-01-29 04:35:30.84	2.29	23.99	-36.3	-37.7	16.8	0.00e+00	0	57	0	1060110336	43	4158
2026-01-29 04:35:31.85	2.18	24.14	-36.3	-37.6	16.8	0.00e+00	0	57	0	1067450368	43	4143
2026-01-29 04:35:32.86	2.07	24.28	-36.2	-37.6	16.9	0.00e+00	0	57	0	1074790400	43	4107
2026-01-29 04:35:33.87	1.96	24.43	-36.3	-37.6	16.8	0.00e+00	0	57	0	1082130432	43	4130
2026-01-29 04:35:34.88	1.85	24.57	-36.3	-37.6	16.9	0.00e+00	0	57	0	1089470464	43	4117
2026-01-29 04:35:35.89	1.74	24.72	-36.1	-37.4	17.0	0.00e+00	0	57	0	1096810496	43	4051
2026-01-29 04:35:36.91	1.63	24.87	-36.2	-37.5	17.0	0.00e+00	0	57	0	1104150528	43	4087
2026-01-29 04:35:37.92	1.52	25.02	-36.1	-37.4	17.1	0.00e+00	0	57	0	1111490560	43	4025
2026-01-29 04:35:38.93	1.40	25.17	-36.1	-37.4	17.1	0.00e+00	0	57	0	1118830592	43	4028
2026-01-29 04:35:39.94	1.29	25.32	-36.1	-37.4	17.1	0.00e+00	0	57	0	1126170624	42	4269
2026-01-29 04:35:40.95	1.17	25.47	-36.0	-37.2	17.3	0.00e+00	0	57	0	1133510656	42	4192
2026-01-29 04:35:41.96	1.05	25.62	-36.0	-37.3	17.2	0.00e+00	0	57	0	1140850688	42	4212
2026-01-29 04:35:42.97	0.93	25.77	-36.1	-37.4	17.2	0.00e+00	0	57	0	1147142144	42	4263
2026-01-29 04:35:43.98	0.81	25.92	-36.0	-37.3	17.2	0.00e+00	0	57	0	1155530752	42	4230
2026-01-29 04:35:44.99	0.69	26.07	-35.9	-37.2	17.3	0.00e+00	0	57	0	1162870784	42	4177
2026-01-29 04:35:46.00	0.57	26.23	-35.9	-37.2	17.4	0.00e+00	0	57	0	1169162240	42	4165
2026-01-29 04:35:47.01	0.45	26.38	-36.0	-37.3	17.3	0.00e+00	0	57	0	1176502272	42	4194
2026-01-29 04:35:48.02	0.32	26.54	-36.0	-37.3	17.3	0.00e+00	0	57	0	1183842304	42	4208
2026-01-29 04:35:49.03	0.20	26.69	-36.1	-37.4	17.2	0.00e+00	0	57	0	1191182336	42	4244
2026-01-29 04:35:50.04	0.07	26.85	-36.0	-37.3	17.3	0.00e+00	0	57	0	1198522368	42	4229
2026-01-29 04:35:51.05	359.94	27.01	-36.0	-37.3	17.3	0.00e+00	0	57	0	1205862400	42	4210
2026-01-29 04:35:52.06	359.81	27.16	-36.0	-37.3	17.3	0.00e+00	0	57	0	1213202432	42	4225
2026-01-29 04:35:53.07	359.68	27.32	-36.0	-37.3	17.3	0.00e+00	0	57	0	1220542464	42	4223
2026-01-29 04:35:54.08	359.55	27.48	-36.1	-37.4	17.2	0.00e+00	0	57	0	1227882496	42	4267
2026-01-29 04:35:55.09	359.41	27.64	-36.2	-37.5	17.1	0.00e+00	0	57	0	1235222528	42	4305
2026-01-29 04:35:56.11	359.28	27.81	-36.1	-37.4	17.2	0.00e+00	0	57	0	1242562560	42	4273
2026-01-29 04:35:57.12	359.14	27.97	-36.1	-37.4	17.2	0.00e+00	0	57	0	1249902592	42	4290
2026-01-29 04:35:58.13	359.00	28.13	-36.1	-37.4	17.2	0.00e+00	0	57	0	1257242624	42	4282
2026-01-29 04:35:59.14	358.86	28.30	-36.0	-37.3	17.3	0.00e+00	0	57	0	1264582656	42	4231
2026-01-29 04:36:00.15	358.72	28.46	-36.0	-37.3	17.3	0.00e+00	0	57	0	1271922688	42	4236
2026-01-29 04:36:01.16	358.58	28.62	-36.1	-37.4	17.2	0.00e+00	0	57	0	1279262720	42	4255
2026-01-29 04:36:02.17	358.43	28.79	-36.1	-37.4	17.2	0.00e+00	0	57	0	1286602752	42	4273
2026-01-29 04:36:03.18	358.29	28.96	-36.1	-37.4	17.2	0.00e+00	0	57	0	1293942784	42	4275
2026-01-29 04:36:04.19	358.14	29.13	-36.2	-37.5	17.1	0.00e+00	0	57	0	1301282816	42	4332
2026-01-29 04:36:05.20	357.99	29.29	-36.2	-37.5	17.2	0.00e+00	0	57	0	1308622848	42	4302
2026-01-29 04:36:06.21	357.84	29.46	-36.1	-37.4	17.2	0.00e+00	0	58	0	1315962880	42	4279
2026-01-29 04:36:07.22	357.69	29.63	-36.1	-37.4	17.3	0.00e+00	0	57	0	1322254336	42	4277
2026-01-29 04:36:08.23	357.54	29.80	-36.1	-37.4	17.3	0.00e+00	0	57	0	1330642944	42	4248
2026-01-29 04:36:09.24	357.38	29.97	-36.1	-37.4	17.3	0.00e+00	0	57	0	1337982976	42	4250
2026-01-29 04:36:10.25	357.22	30.15	-36.0	-37.3	17.4	0.00e+00	0	57	0	1344274432	42	4224
2026-01-29 04:36:11.26	357.06	30.32	-36.1	-37.4	17.3	0.00e+00	0	57	0	1351614464	42	4265
2026-01-29 04:36:12.27	356.90	30.49	-36.1	-37.4	17.3	0.00e+00	0	58	0	1358954496	42	4257
2026-01-29 04:36:13.28	356.74	30.67	-36.1	-37.4	17.3	0.00e+00	0	57	0	1366294528	42	4246
2026-01-29 04:36:14.29	356.58	30.84	-36.2	-37.5	17.2	0.00e+00	0	58	0	1373634560	42	4297
2026-01-29 04:36:15.30	356.41	31.02	-36.1	-37.4	17.3	0.00e+00	0	57	0	1380974592	42	4265
2026-01-29 04:36:16.32	356.24	31.20	-36.1	-37.4	17.3	0.00e+00	0	57	0	1388314624	42	4251
2026-01-29 04:36:17.33	356.07	31.38	-36.0	-37.3	17.4	0.00e+00	0	57	0	1395654656	42	4203
2026-01-29 04:36:18.34	355.90	31.56	-36.0	-37.3	17.4	0.00e+00	0	58	0	1402994688	42	4205
2026-01-29 04:36:19.35	355.73	31.73	-35.9	-37.2	17.5	0.00e+00	0	58	0	1410334720	42	4155
2026-01-29 04:36:20.36	355.55	31.91	-36.0	-37.3	17.4	0.00e+00	0	58	0	1417674752	42	4216
2026-01-29 04:36:21.37	355.37	32.10	-36.0	-37.3	17.4	0.00e+00	0	57	0	1425014784	42	4212
2026-01-29 04:36:22.38	355.19	32.28	-36.0	-37.2	17.5	0.00e+00	0	57	0	1432354816	42	4182
2026-01-29 04:36:23.39	355.01	32.46	-35.9	-37.1	17.6	0.00e+00	0	58	0	1439694848	42	4132
2026-01-29 04:36:24.40	354.83	32.64	-35.8	-37.1	17.6	0.00e+00	0	58	0	1447034880	42	4104
2026-01-29 04:36:25.41	354.64	32.83	-35.8	-37.1	17.6	0.00e+00	0	58	0	1454374912	42	4112
2026-01-29 04:36:26.42	354.45	33.01	-35.5	-36.7	17.9	0.00e+00	0	58	0	1461714944	42	3955
2026-01-29 04:36:27.43	354.26	33.20	-35.7	-37.0	17.8	0.00e+00	0	58	0	1469054976	42	4063
2026-01-29 04:36:28.45	354.07	33.39	-35.7	-36.9	17.8	0.00e+00	0	58	0	1476395008	42	4051
2026-01-29 04:36:29.46	353.87	33.57	-35.6	-36.8	17.9	0.00e+00	0	58	0	1483735040	42	3970
2026-01-29 04:36:30.47	353.68	33.76	-35.6	-36.8	18.0	0.00e+00	0	58	0	1490026496	41	4208
2026-01-29 04:36:31.48	353.48	33.95	-35.5	-36.7	18.1	0.00e+00	0	58	0	1498415104	41	4168
2026-01-29 04:36:32.49	353.28	34.14	-35.5	-36.7	18.0	0.00e+00	0	58	0	1505755136	41	4193
2026-01-29 04:36:33.50	353.07	34.33	-35.6	-36.8	17.9	0.00e+00	0	57	0	1512046592	41	4231
2026-01-29 04:36:34.51	352.86	34.52	-35.7	-37.0	17.8	0.00e+00	0	58	0	1519386624	41	4295
2026-01-29 04:36:35.52	352.66	34.71	-35.8	-37.0	17.7	0.00e+00	0	58	0	1526726656	41	4325
2026-01-29 04:36:36.53	352.44	34.91	-35.8	-37.1	17.7	0.00e+00	0	58	0	1534066688	41	4342
2026-01-29 04:36:37.54	352.23	35.10	-35.8	-37.1	17.7	0.00e+00	0	57	0	1541406720	42	4116
2026-01-29 04:36:38.55	352.01	35.29	-35.8	-37.1	17.7	0.00e+00	0	58	0	1548746752	42	4118
2026-01-29 04:36:39.56	351.79	35.49	-35.8	-37.1	17.7	0.00e+00	0	58	0	1556086784	42	4110
2026-01-29 04:36:40.57	351.57	35.68	-35.9	-37.2	17.6	0.00e+00	0	58	0	1563426816	42	4148
2026-01-29 04:36:41.59	351.34	35.88	-35.5	-36.7	18.0	0.00e+00	0	58	0	1570766848	42	3949
2026-01-29 04:36:42.60	351.12	36.08	-35.7	-36.9	17.9	0.00e+00	0	58	0	1578106880	42	4034
2026-01-29 04:36:43.61	350.89	36.28	-35.6	-36.8	18.0	0.00e+00	0	58	0	1585446912	42	3967
2026-01-29 04:36:44.62	350.65	36.47	-35.6	-36.8	18.0	0.00e+00	0	58	0	1592786944	42	3981
2026-01-29 04:36:45.63	350.42	36.67	-35.6	-36.8	18.0	0.00e+00	0	58	0	1600126976	42	3975
2026-01-29 04:36:46.64	350.18	36.87	-35.6	-36.8	18.0	0.00e+00	0	58	0	1607467008	42	3967
2026-01-29 04:36:47.65	349.93	37.07	-35.6	-36.9	17.9	0.00e+00	0	57	0	1614807040	41	4247
2026-01-29 04:36:48.66	349.69	37.27	-35.8	-37.1	17.7	0.00e+00	0	58	0	1622147072	41	4351
2026-01-29 04:36:49.67	349.44	37.48	-35.8	-37.1	17.7	0.00e+00	0	58	0	1629487104	41	4356
2026-01-29 04:36:50.68	349.19	37.68	-35.9	-37.2	17.6	0.00e+00	0	58	0	1636827136	41	4395
2026-01-29 04:36:51.69	348.93	37.88	-36.0	-37.2	17.6	0.00e+00	0	58	0	1644167168	41	4426
2026-01-29 04:36:52.70	348.68	38.08	-36.1	-37.4	17.4	0.00e+00	0	58	0	1651507200	41	4500
2026-01-29 04:36:53.71	348.41	38.29	-36.0	-37.2	17.6	0.00e+00	0	58	0	1658847232	41	4424
2026-01-29 04:36:54.72	348.15	38.49	-36.0	-37.3	17.5	0.00e+00	0	58	0	1665138688	41	4462
2026-01-29 04:36:55.73	347.88	38.70	-35.9	-37.2	17.6	0.00e+00	0	58	0	1673527296	41	4403
2026-01-29 04:36:56.74	347.61	38.90	-35.9	-37.1	17.7	0.00e+00	0	58	0	1680867328	41	4388
2026-01-29 04:36:57.75	347.34	39.11	-35.9	-37.1	17.7	0.00e+00	0	58	0	1687158784	41	4379
2026-01-29 04:36:58.77	347.05	39.32	-35.8	-37.0	17.8	0.00e+00	0	58	0	1694498816	41	4304
2026-01-29 04:36:59.78	346.77	39.52	-35.7	-37.0	17.8	0.00e+00	0	58	0	1702887424	41	4293
2026-01-29 04:37:00.76	346.50	39.72	-35.8	-37.0	17.8	0.00e+00	0	58	0	1709178880	41	4323
2026-01-29 04:37:01.77	346.21	39.93	-35.9	-37.1	17.7	0.00e+00	0	58	0	1716518912	41	4379
2026-01-29 04:37:02.78	345.91	40.14	-35.7	-36.9	18.0	0.00e+00	0	58	0	1723858944	41	4260
2026-01-29 04:37:03.80	345.61	40.35	-36.1	-37.4	17.5	0.00e+00	0	58	0	1731198976	42	4254
2026-01-29 04:37:04.81	345.31	40.56	-36.3	-37.6	17.2	0.00e+00	0	58	0	1738539008	42	4374
2026-01-29 04:37:05.82	345.01	40.77	-36.4	-37.8	17.1	0.00e+00	0	58	0	1745879040	42	4454
2026-01-29 04:37:06.83	344.70	40.98	-36.5	-37.8	17.1	0.00e+00	0	58	0	1753219072	42	4464
2026-01-29 04:37:07.84	344.39	41.19	-36.5	-37.8	17.0	0.00e+00	0	58	0	1760559104	43	4205
2026-01-29 04:37:08.85	344.07	41.40	-36.6	-38.0	16.9	0.00e+00	0	58	0	1767899136	43	4316
2026-01-29 04:37:09.86	343.75	41.61	-36.5	-37.9	17.0	0.00e+00	0	58	0	1775239168	43	4250
2026-01-29 04:37:10.87	343.42	41.82	-36.4	-37.7	17.2	0.00e+00	0	58	0	1782579200	43	4167
2026-01-29 04:37:11.88	343.09	42.03	-36.3	-37.6	17.3	0.00e+00	0	58	0	1789919232	43	4105
2026-01-29 04:37:12.89	342.76	42.24	-36.2	-37.5	17.4	0.00e+00	0	58	0	1797259264	43	4070
2026-01-29 04:37:13.90	342.42	42.45	-36.0	-37.3	17.6	0.00e+00	0	58	0	1804599296	42	4212
2026-01-29 04:37:14.92	342.07	42.66	-36.0	-37.2	17.6	0.00e+00	0	58	0	1810890752	42	4174
2026-01-29 04:37:15.93	341.72	42.87	-36.0	-37.2	17.6	0.00e+00	0	58	0	1819279360	42	4182
2026-01-29 04:37:16.94	341.37	43.08	-36.0	-37.3	17.6	0.00e+00	0	58	0	1826619392	42	4196
2026-01-29 04:37:17.95	341.02	43.29	-36.3	-37.7	17.2	0.00e+00	0	58	0	1832910848	42	4408
2026-01-29 04:37:18.96	340.65	43.50	-35.9	-37.1	17.7	0.00e+00	0	58	0	1840250880	42	4140
2026-01-29 04:37:19.97	340.29	43.71	-36.0	-37.3	17.6	0.00e+00	0	58	0	1847590912	42	4228
2026-01-29 04:37:20.98	339.92	43.92	-36.1	-37.4	17.5	0.00e+00	0	58	0	1854930944	42	4260
2026-01-29 04:37:21.99	339.54	44.13	-36.2	-37.5	17.4	0.00e+00	0	58	0	1862270976	42	4332
2026-01-29 04:37:23.00	339.16	44.34	-36.4	-37.7	17.2	0.00e+00	0	58	0	1869611008	42	4405
2026-01-29 04:37:24.01	338.77	44.55	-36.5	-37.8	17.1	0.00e+00	0	58	0	1876951040	43	4232
2026-01-29 04:37:25.02	338.38	44.76	-36.6	-37.9	17.0	0.00e+00	0	58	0	1884291072	43	4262
2026-01-29 04:37:26.03	337.98	44.97	-36.5	-37.9	17.0	0.00e+00	0	58	0	1891631104	43	4247
2026-01-29 04:37:27.04	337.58	45.18	-36.5	-37.8	17.1	0.00e+00	0	58	0	1898971136	43	4208
2026-01-29 04:37:28.05	337.17	45.38	-36.5	-37.9	17.0	0.00e+00	0	58	0	1906311168	43	4259
2026-01-29 04:37:29.06	336.76	45.59	-36.3	-37.5	17.3	0.00e+00	0	58	0	1913651200	43	4098
2026-01-29 04:37:30.08	336.34	45.80	-36.2	-37.4	17.5	0.00e+00	0	58	0	1920991232	43	4044
2026-01-29 04:37:31.09	335.91	46.00	-36.1	-37.3	17.5	0.00e+00	0	58	0	1928331264	43	3990
2026-01-29 04:37:32.10	335.48	46.21	-36.0	-37.3	17.6	0.00e+00	0	58	0	1935671296	43	3968
2026-01-29 04:37:33.11	335.05	46.41	-36.1	-37.4	17.5	0.00e+00	0	58	0	1943011328	43	4022
2026-01-29 04:37:34.12	334.60	46.62	-36.5	-37.8	17.1	0.00e+00	0	58	0	1950351360	42	4475
2026-01-29 04:37:35.13	334.16	46.82	-36.8	-38.1	16.8	0.00e+00	0	58	0	1957691392	43	4386
2026-01-29 04:37:36.14	333.71	47.02	-36.9	-38.3	16.5	0.00e+00	0	58	0	1965031424	43	4479
2026-01-29 04:37:37.15	333.25	47.22	-36.8	-38.2	16.7	0.00e+00	0	58	0	1972371456	43	4409
2026-01-29 04:37:38.16	332.78	47.42	-36.9	-38.3	16.5	0.00e+00	0	58	0	1979711488	43	4484
2026-01-29 04:37:39.17	332.31	47.62	-36.7	-38.0	16.8	0.00e+00	0	58	0	1986002944	43	4335
2026-01-29 04:37:40.18	331.83	47.82	-36.8	-38.2	16.7	0.00e+00	0	58	0	1994391552	43	4425
2026-01-29 04:37:41.19	331.35	48.01	-36.7	-38.0	16.8	0.00e+00	0	58	0	2001731584	43	4331
2026-01-29 04:37:42.21	330.86	48.21	-36.9	-38.3	16.6	0.00e+00	0	58	0	2008023040	43	4453
2026-01-29 04:37:43.22	330.36	48.40	-36.9	-38.2	16.6	0.00e+00	0	58	0	2015363072	43	4441
2026-01-29 04:37:44.23	329.86	48.59	-36.8	-38.2	16.7	0.00e+00	0	58	0	2023751680	43	4392
2026-01-29 04:37:45.24	329.35	48.78	-36.7	-38.1	16.8	0.00e+00	0	58	0	2030043136	43	4347
2026-01-29 04:37:46.25	328.84	48.97	-36.6	-37.9	16.9	0.00e+00	0	58	0	2037383168	43	4284
2026-01-29 04:37:47.26	328.32	49.16	-36.5	-37.8	17.1	0.00e+00	0	58	0	2044723200	43	4208
2026-01-29 04:37:48.27	327.79	49.34	-36.5	-37.8	17.1	0.00e+00	0	58	0	2052063232	43	4210
2026-01-29 04:37:49.28	327.26	49.52	-36.8	-38.1	16.7	0.00e+00	0	58	0	2059403264	43	4372
2026-01-29 04:37:50.29	326.72	49.70	-37.0	-38.4	16.5	0.00e+00	0	58	0	2066743296	43	4542
2026-01-29 04:37:51.30	326.17	49.88	-37.7	-39.1	15.9	0.00e+00	0	58	0	2074083328	44	4647
2026-01-29 04:37:52.31	325.62	50.06	-37.9	-39.5	15.6	0.00e+00	0	58	0	2081423360	45	4550
2026-01-29 04:37:53.32	325.06	50.23	-37.9	-39.5	15.6	0.00e+00	0	58	0	2088763392	45	4562
2026-01-29 04:37:54.33	324.49	50.41	-37.8	-39.4	15.7	0.00e+00	0	58	0	2096103424	45	4498
2026-01-29 04:37:55.33	323.93	50.57	-37.4	-38.9	16.2	0.00e+00	0	58	0	2103443456	45	4261
2026-01-29 04:37:56.35	323.34	50.74	-37.3	-38.8	16.3	0.00e+00	0	58	0	2110783488	45	4197
2026-01-29 04:37:57.36	322.76	50.91	-37.0	-38.3	16.7	0.00e+00	0	58	0	2118123520	44	4242
2026-01-29 04:37:58.37	322.17	51.07	-36.9	-38.3	16.7	0.00e+00	0	58	0	2125463552	44	4215
2026-01-29 04:37:59.38	321.57	51.23	-37.0	-38.4	16.6	0.00e+00	0	58	0	2132803584	44	4265
2026-01-29 04:38:00.39	320.96	51.39	-37.1	-38.4	16.6	0.00e+00	0	58	0	2140143616	44	4288
2026-01-29 04:38:01.40	320.35	51.54	-37.3	-38.7	16.4	0.00e+00	0	58	0	2147483648	44	4402
2026-01-29 04:38:02.41	319.74	51.69	-37.5	-39.0	16.0	0.00e+00	0	58	0	2153775104	44	4548
2026-01-29 04:38:03.42	319.11	51.84	-37.5	-38.9	16.1	0.00e+00	0	58	0	2161115136	44	4542
2026-01-29 04:38:04.43	318.48	51.98	-37.3	-38.7	16.3	0.00e+00	0	58	0	2169503744	44	4437
2026-01-29 04:38:05.45	317.84	52.13	-37.3	-38.7	16.3	0.00e+00	0	58	0	2175795200	44	4413
2026-01-29 04:38:06.46	317.20	52.26	-37.3	-38.6	16.4	0.00e+00	0	58	0	2183135232	44	4389
2026-01-29 04:38:07.47	316.55	52.40	-37.4	-38.9	16.2	0.00e+00	0	58	0	2190475264	44	4499
2026-01-29 04:38:08.48	315.90	52.53	-37.3	-38.8	16.3	0.00e+00	0	58	0	2197815296	44	4445
2026-01-29 04:38:09.49	315.24	52.66	-37.5	-39.0	16.0	0.00e+00	0	58	0	2205155328	44	4583
2026-01-29 04:38:10.50	314.57	52.78	-37.0	-38.4	16.6	0.00e+00	0	58	0	2212495360	44	4265
2026-01-29 04:38:11.51	313.90	52.90	-37.0	-38.4	16.6	0.00e+00	0	58	0	2219835392	44	4257
2026-01-29 04:38:12.52	313.23	53.02	-37.2	-38.6	16.4	0.00e+00	0	58	0	2227175424	44	4378
2026-01-29 04:38:13.53	312.54	53.13	-37.4	-38.8	16.2	0.00e+00	0	58	0	2234515456	44	4464
2026-01-29 04:38:14.54	311.86	53.24	-37.1	-38.4	16.6	0.00e+00	0	58	0	2241855488	44	4286
2026-01-29 04:38:15.55	311.17	53.35	-36.9	-38.3	16.8	0.00e+00	0	58	0	2249195520	44	4195
2026-01-29 04:38:16.56	310.47	53.45	-36.8	-38.1	16.9	0.00e+00	0	58	0	2256535552	44	4132
2026-01-29 04:38:17.57	309.77	53.54	-36.7	-38.0	17.0	0.00e+00	0	58	0	2263875584	44	4077
2026-01-29 04:38:18.58	309.06	53.64	-37.0	-38.4	16.6	0.00e+00	0	58	0	2271215616	44	4262
2026-01-29 04:38:19.59	308.35	53.72	-37.3	-38.7	16.3	0.00e+00	0	58	0	2278555648	44	4397
2026-01-29 04:38:20.60	307.63	53.81	-37.8	-39.4	15.7	0.00e+00	0	58	0	2285895680	45	4512
2026-01-29 04:38:21.62	306.91	53.89	-38.0	-39.6	15.5	0.00e+00	0	58	0	2293235712	45	4623
2026-01-29 04:38:22.63	306.18	53.96	-37.9	-39.5	15.5	0.00e+00	0	58	0	2300575744	45	4569
2026-01-29 04:38:23.64	305.46	54.03	-37.5	-38.9	16.1	0.00e+00	0	58	0	2307915776	45	4273
2026-01-29 04:38:24.64	304.74	54.10	-37.1	-38.4	16.6	0.00e+00	0	58	0	2315255808	45	4050
2026-01-29 04:38:25.66	303.99	54.16	-37.1	-38.5	16.6	0.00e+00	0	58	0	2322595840	44	4293
2026-01-29 04:38:26.67	303.26	54.22	-37.1	-38.4	16.6	0.00e+00	0	58	0	2328887296	44	4287
2026-01-29 04:38:27.68	302.52	54.27	-37.2	-38.6	16.5	0.00e+00	0	58	0	2337275904	44	4361
2026-01-29 04:38:28.69	301.78	54.32	-37.3	-38.7	16.3	0.00e+00	0	58	0	2344615936	44	4424
2026-01-29 04:38:29.70	301.03	54.36	-37.4	-38.9	16.2	0.00e+00	0	58	0	2350907392	44	4496
2026-01-29 04:38:30.71	300.29	54.39	-37.1	-38.5	16.5	0.00e+00	0	58	0	2358247424	44	4305
2026-01-29 04:38:31.72	299.54	54.43	-36.8	-38.2	16.9	0.00e+00	0	58	0	2365587456	44	4157
2026-01-29 04:38:32.73	298.79	54.45	-36.8	-38.2	16.9	0.00e+00	0	58	0	2372927488	44	4152
2026-01-29 04:38:33.74	298.04	54.48	-37.0	-38.4	16.7	0.00e+00	0	58	0	2380267520	44	4252
2026-01-29 04:38:34.75	297.28	54.50	-37.1	-38.6	16.5	0.00e+00	0	58	0	2387607552	44	4342
2026-01-29 04:38:35.76	296.53	54.51	-37.3	-38.7	16.3	0.00e+00	0	58	0	2394947584	44	4427
2026-01-29 04:38:36.77	295.78	54.52	-37.3	-38.7	16.3	0.00e+00	0	58	0	2402287616	44	4434
2026-01-29 04:38:37.78	295.02	54.52	-37.1	-38.5	16.6	0.00e+00	0	58	0	2409627648	44	4297
2026-01-29 04:38:38.79	294.27	54.52	-37.1	-38.5	16.5	0.00e+00	0	58	0	2416967680	44	4322
2026-01-29 04:38:39.80	293.52	54.51	-37.0	-38.3	16.7	0.00e+00	0	58	0	2424307712	44	4227
2026-01-29 04:38:40.81	292.76	54.50	-36.8	-38.2	16.8	0.00e+00	0	58	0	2431647744	44	4154
2026-01-29 04:38:41.82	292.01	54.48	-36.9	-38.3	16.7	0.00e+00	0	58	0	2438987776	44	4209
2026-01-29 04:38:42.83	291.26	54.46	-37.2	-38.6	16.4	0.00e+00	0	58	0	2446327808	44	4373
2026-01-29 04:38:43.85	290.50	54.43	-37.3	-38.8	16.2	0.00e+00	0	58	0	2453667840	44	4453
2026-01-29 04:38:44.86	289.75	54.40	-37.2	-38.7	16.4	0.00e+00	0	58	0	2461007872	44	4400
2026-01-29 04:38:45.87	289.00	54.36	-37.1	-38.5	16.5	0.00e+00	0	58	0	2468347904	44	4328
2026-01-29 04:38:46.88	288.26	54.32	-36.8	-38.1	16.9	0.00e+00	0	58	0	2475687936	44	4121
2026-01-29 04:38:47.89	287.52	54.27	-36.6	-38.0	17.1	0.00e+00	0	58	0	2483027968	44	4059
2026-01-29 04:38:48.90	286.78	54.22	-36.6	-38.0	17.1	0.00e+00	0	58	0	2490368000	44	4063
2026-01-29 04:38:49.91	286.04	54.17	-36.8	-38.2	16.8	0.00e+00	0	58	0	2496659456	44	4159
2026-01-29 04:38:50.92	285.31	54.11	-37.1	-38.4	16.6	0.00e+00	0	58	0	2503999488	44	4289
2026-01-29 04:38:51.93	284.57	54.04	-37.3	-38.7	16.3	0.00e+00	0	58	0	2512388096	44	4421
2026-01-29 04:38:52.94	283.85	53.97	-37.1	-38.5	16.4	0.00e+00	0	58	0	2518679552	44	4337
2026-01-29 04:38:53.95	283.12	53.90	-37.1	-38.5	16.6	0.00e+00	0	58	0	2526019584	44	4292
2026-01-29 04:38:54.96	282.40	53.82	-36.8	-38.1	16.9	0.00e+00	0	58	0	2533359616	44	4118
2026-01-29 04:38:55.97	281.69	53.73	-36.8	-38.1	16.9	0.00e+00	0	58	0	2540699648	44	4120
2026-01-29 04:38:56.98	280.97	53.65	-36.9	-38.2	16.8	0.00e+00	0	58	0	2548039680	44	4185
2026-01-29 04:38:57.99	280.27	53.55	-37.1	-38.5	16.6	0.00e+00	0	58	0	2555379712	44	4292
2026-01-29 04:38:59.00	279.56	53.46	-37.2	-38.7	16.4	0.00e+00	0	58	0	2562719744	44	4393
2026-01-29 04:39:00.01	278.86	53.36	-37.2	-38.6	16.4	0.00e+00	0	58	0	2570059776	44	4358
2026-01-29 04:39:01.02	278.17	53.25	-36.9	-38.3	16.7	0.00e+00	0	58	0	2577399808	44	4207
2026-01-29 04:39:02.03	277.48	53.14	-36.7	-38.0	16.9	0.00e+00	0	58	0	2584739840	44	4097
2026-01-29 04:39:03.04	276.80	53.03	-36.7	-38.1	16.9	0.00e+00	0	58	0	2592079872	44	4099
2026-01-29 04:39:04.05	276.12	52.91	-37.1	-38.5	16.5	0.00e+00	0	58	0	2599419904	44	4322
2026-01-29 04:39:05.06	275.45	52.79	-37.3	-38.7	16.3	0.00e+00	0	58	0	2606759936	44	4432
2026-01-29 04:39:06.07	274.78	52.67	-37.1	-38.5	16.6	0.00e+00	0	58	0	2614099968	44	4293
2026-01-29 04:39:07.08	274.12	52.54	-36.7	-38.0	17.0	0.00e+00	0	58	0	2621440000	44	4070
2026-01-29 04:39:08.09	273.47	52.41	-36.2	-37.5	17.3	0.00e+00	0	58	0	2628780032	43	4080
2026-01-29 04:39:09.10	272.82	52.28	-36.3	-37.6	17.2	0.00e+00	0	58	0	2636120064	43	4140
2026-01-29 04:39:10.11	272.17	52.14	-36.7	-38.0	16.8	0.00e+00	0	58	0	2643460096	43	4329
2026-01-29 04:39:11.12	271.54	52.00	-36.9	-38.3	16.5	0.00e+00	0	58	0	2649751552	43	4474
2026-01-29 04:39:12.13	270.90	51.85	-37.2	-38.7	16.2	0.00e+00	0	58	0	2658140160	43	4665
2026-01-29 04:39:13.14	270.28	51.70	-37.3	-38.7	16.3	0.00e+00	0	58	0	2665480192	44	4416
2026-01-29 04:39:14.15	269.66	51.55	-37.2	-38.6	16.4	0.00e+00	0	58	0	2671771648	44	4358
2026-01-29 04:39:15.16	269.05	51.40	-36.9	-38.2	16.7	0.00e+00	0	58	0	2679111680	44	4176
2026-01-29 04:39:16.17	268.44	51.24	-36.7	-38.0	17.0	0.00e+00	0	58	0	2686451712	44	4095
2026-01-29 04:39:17.18	267.84	51.08	-36.8	-38.1	16.9	0.00e+00	0	58	0	2693791744	44	4118
2026-01-29 04:39:18.19	267.25	50.92	-36.9	-38.3	16.6	0.00e+00	0	58	0	2701131776	44	4229
2026-01-29 04:39:19.20	266.66	50.76	-37.3	-38.7	16.3	0.00e+00	0	58	0	2708471808	44	4411
2026-01-29 04:39:20.21	266.08	50.59	-37.5	-38.9	16.1	0.00e+00	0	58	0	2715811840	44	4533
2026-01-29 04:39:21.22	265.51	50.42	-37.2	-38.6	16.3	0.00e+00	0	58	0	2723151872	44	4385
2026-01-29 04:39:22.24	264.93	50.24	-36.9	-38.3	16.7	0.00e+00	0	58	0	2730491904	44	4206
2026-01-29 04:39:23.24	264.38	50.07	-36.8	-38.2	16.8	0.00e+00	0	58	0	2737831936	44	4159
2026-01-29 04:39:24.25	263.82	49.89	-36.9	-38.3	16.7	0.00e+00	0	58	0	2745171968	44	4225
2026-01-29 04:39:25.27	263.27	49.71	-37.1	-38.5	16.5	0.00e+00	0	58	0	2752512000	44	4333
2026-01-29 04:39:26.27	262.73	49.53	-37.2	-38.6	16.4	0.00e+00	0	58	0	2759852032	44	4364
2026-01-29 04:39:27.28	262.20	49.35	-37.1	-38.5	16.5	0.00e+00	0	58	0	2767192064	44	4319
2026-01-29 04:39:28.29	261.67	49.17	-37.0	-38.4	16.6	0.00e+00	0	58	0	2774532096	44	4249
2026-01-29 04:39:29.31	261.14	48.98	-36.8	-38.2	16.8	0.00e+00	0	58	0	2781872128	44	4153
2026-01-29 04:39:30.32	260.63	48.79	-36.5	-37.8	17.1	0.00e+00	0	58	0	2789212160	44	4000
2026-01-29 04:39:31.33	260.12	48.60	-36.2	-37.5	17.2	0.00e+00	0	58	0	2796552192	43	4079
2026-01-29 04:39:32.34	259.61	48.41	-36.2	-37.5	17.3	0.00e+00	0	58	0	2803892224	43	4091
2026-01-29 04:39:33.35	259.12	48.21	-36.5	-37.9	17.0	0.00e+00	0	58	0	2811232256	43	4245
2026-01-29 04:39:34.36	258.63	48.02	-36.8	-38.1	16.7	0.00e+00	0	58	0	2817523712	43	4390
2026-01-29 04:39:35.37	258.14	47.82	-36.7	-38.0	16.8	0.00e+00	0	58	0	2824863744	43	4335
2026-01-29 04:39:36.38	257.66	47.62	-36.6	-37.9	16.9	0.00e+00	0	58	0	2833252352	43	4264
2026-01-29 04:39:37.39	257.19	47.43	-36.4	-37.8	17.0	0.00e+00	0	58	0	2839543808	43	4197
2026-01-29 04:39:38.40	256.72	47.23	-36.4	-37.7	17.1	0.00e+00	0	58	0	2846883840	43	4187
2026-01-29 04:39:39.41	256.26	47.03	-36.6	-37.9	16.9	0.00e+00	0	58	0	2854223872	43	4283
2026-01-29 04:39:40.43	255.80	46.82	-36.4	-37.7	17.1	0.00e+00	0	58	0	2861563904	43	4170
2026-01-29 04:39:41.44	255.35	46.62	-36.1	-37.4	17.3	0.00e+00	0	58	0	2868903936	43	4044
2026-01-29 04:39:42.45	254.91	46.41	-36.0	-37.3	17.5	0.00e+00	0	58	0	2876243968	43	3972
2026-01-29 04:39:43.46	254.47	46.21	-36.1	-37.4	17.4	0.00e+00	0	58	0	2883584000	43	4028
2026-01-29 04:39:44.47	254.04	46.00	-36.3	-37.7	17.1	0.00e+00	0	58	0	2890924032	43	4146
2026-01-29 04:39:45.48	253.62	45.80	-36.4	-37.7	17.1	0.00e+00	0	58	0	2898264064	43	4180
2026-01-29 04:39:46.49	253.20	45.59	-36.4	-37.7	17.1	0.00e+00	0	58	0	2905604096	43	4162
2026-01-29 04:39:47.50	252.78	45.38	-36.2	-37.4	17.3	0.00e+00	0	58	0	2912944128	43	4044
2026-01-29 04:39:48.51	252.37	45.17	-35.9	-37.2	17.6	0.00e+00	0	58	0	2920284160	42	4162
2026-01-29 04:39:49.52	251.97	44.97	-35.9	-37.2	17.6	0.00e+00	0	58	0	2927624192	42	4169
2026-01-29 04:39:50.53	251.57	44.76	-36.1	-37.4	17.4	0.00e+00	0	58	0	2934964224	42	4249
2026-01-29 04:39:51.54	251.18	44.55	-36.1	-37.4	17.4	0.00e+00	0	58	0	2942304256	42	4281
2026-01-29 04:39:52.55	250.79	44.34	-36.1	-37.4	17.4	0.00e+00	0	58	0	2949644288	42	4263
2026-01-29 04:39:53.56	250.41	44.13	-35.9	-37.1	17.7	0.00e+00	0	58	0	2956984320	42	4124
2026-01-29 04:39:54.57	250.03	43.92	-35.6	-36.8	17.9	0.00e+00	0	58	0	2964324352	42	4003
2026-01-29 04:39:55.58	249.65	43.71	-35.5	-36.7	18.0	0.00e+00	0	58	0	2971664384	41	4184
2026-01-29 04:39:56.59	249.29	43.49	-35.5	-36.7	18.1	0.00e+00	0	58	0	2979004416	41	4163
2026-01-29 04:39:57.60	248.92	43.28	-35.6	-36.8	17.9	0.00e+00	0	58	0	2986344448	41	4224
2026-01-29 04:39:58.61	248.56	43.07	-35.6	-36.9	17.9	0.00e+00	0	58	0	2992635904	41	4251
2026-01-29 04:39:59.62	248.21	42.86	-35.8	-37.1	17.7	0.00e+00	0	58	0	2999975936	41	4357
2026-01-29 04:40:00.63	247.86	42.65	-35.9	-37.1	17.6	0.00e+00	0	58	0	3008364544	41	4391
2026-01-29 04:40:01.64	247.52	42.44	-35.9	-37.2	17.5	0.00e+00	0	58	0	3014656000	41	4420
2026-01-29 04:40:02.65	247.18	42.23	-35.8	-37.1	17.7	0.00e+00	0	58	0	3021996032	41	4353
2026-01-29 04:40:03.66	246.84	42.02	-35.7	-36.9	17.9	0.00e+00	0	58	0	3029336064	41	4255
2026-01-29 04:40:04.67	246.51	41.80	-35.7	-36.9	17.8	0.00e+00	0	58	0	3036676096	41	4282
2026-01-29 04:40:05.68	246.18	41.59	-35.7	-36.9	17.8	0.00e+00	0	58	0	3044016128	41	4255
2026-01-29 04:40:06.69	245.86	41.38	-35.9	-37.1	17.6	0.00e+00	0	58	0	3051356160	41	4372
2026-01-29 04:40:07.70	245.54	41.17	-35.8	-37.1	17.6	0.00e+00	0	58	0	3058696192	41	4346
2026-01-29 04:40:08.71	245.23	40.96	-35.8	-37.0	17.7	0.00e+00	0	58	0	3066036224	41	4329
2026-01-29 04:40:09.72	244.92	40.75	-35.7	-36.9	17.8	0.00e+00	0	58	0	3073376256	41	4291
2026-01-29 04:40:10.73	244.61	40.54	-35.5	-36.7	18.0	0.00e+00	0	58	0	3080716288	41	4183
2026-01-29 04:40:11.74	244.31	40.33	-35.6	-36.8	17.9	0.00e+00	0	58	0	3088056320	41	4218
2026-01-29 04:40:12.76	244.01	40.12	-35.7	-36.9	17.8	0.00e+00	0	58	0	3095396352	41	4284
2026-01-29 04:40:13.76	243.71	39.91	-35.6	-36.9	17.9	0.00e+00	0	58	0	3102736384	41	4244
2026-01-29 04:40:14.77	243.42	39.70	-35.6	-36.8	17.9	0.00e+00	0	58	0	3110076416	41	4228
2026-01-29 04:40:15.78	243.14	39.50	-35.7	-36.9	17.7	0.00e+00	0	58	0	3117416448	41	4265
2026-01-29 04:40:16.80	242.85	39.29	-35.8	-37.0	17.7	0.00e+00	0	58	0	3124756480	41	4303
2026-01-29 04:40:17.81	242.57	39.08	-35.9	-37.2	17.6	0.00e+00	0	58	0	3132096512	41	4408
2026-01-29 04:40:18.82	242.29	38.87	-36.0	-37.3	17.4	0.00e+00	0	58	0	3138387968	41	4474
2026-01-29 04:40:19.83	242.02	38.67	-36.0	-37.3	17.4	0.00e+00	0	58	0	3146776576	41	4479
2026-01-29 04:40:20.84	241.75	38.46	-35.9	-37.2	17.5	0.00e+00	0	58	0	3154116608	41	4417
2026-01-29 04:40:21.85	241.49	38.26	-35.8	-37.1	17.7	0.00e+00	0	58	0	3160408064	41	4343
2026-01-29 04:40:22.86	241.22	38.05	-35.7	-36.9	17.7	0.00e+00	0	58	0	3167748096	41	4288
2026-01-29 04:40:23.87	240.97	37.85	-35.7	-36.9	17.7	0.00e+00	0	58	0	3175088128	41	4279
2026-01-29 04:40:24.88	240.71	37.64	-35.8	-37.1	17.6	0.00e+00	0	58	0	3182428160	41	4354
2026-01-29 04:40:25.89	240.46	37.44	-35.9	-37.1	17.6	0.00e+00	0	58	0	3189768192	41	4373
2026-01-29 04:40:26.90	240.21	37.24	-36.0	-37.3	17.4	0.00e+00	0	58	0	3197108224	41	4474
2026-01-29 04:40:27.91	239.96	37.04	-36.1	-37.4	17.3	0.00e+00	0	58	0	3204448256	41	4524
2026-01-29 04:40:28.92	239.72	36.84	-36.2	-37.5	17.2	0.00e+00	0	58	0	3211788288	41	4555
2026-01-29 04:40:29.93	239.48	36.63	-36.0	-37.3	17.4	0.00e+00	0	58	0	3219128320	41	4456
2026-01-29 04:40:30.94	239.24	36.43	-35.9	-37.2	17.5	0.00e+00	0	58	0	3226468352	41	4406
2026-01-29 04:40:31.95	239.01	36.24	-35.8	-37.1	17.6	0.00e+00	0	58	0	3233808384	41	4359
2026-01-29 04:40:32.96	238.77	36.04	-35.7	-37.0	17.7	0.00e+00	0	58	0	3241148416	41	4307
2026-01-29 04:40:33.97	238.55	35.84	-35.7	-36.9	17.8	0.00e+00	0	58	0	3248488448	41	4263
2026-01-29 04:40:34.98	238.32	35.64	-35.6	-36.9	17.8	0.00e+00	0	58	0	3255828480	41	4244
2026-01-29 04:40:35.99	238.10	35.45	-35.6	-36.8	17.9	0.00e+00	0	58	0	3263168512	41	4218
2026-01-29 04:40:37.00	237.88	35.25	-35.5	-36.7	17.7	0.00e+00	0	58	0	3270508544	41	4155
2026-01-29 04:40:38.01	237.66	35.06	-35.4	-36.6	18.1	0.00e+00	0	58	0	3277848576	41	4107
2026-01-29 04:40:39.02	237.44	34.86	-35.3	-36.5	18.1	0.00e+00	0	58	0	3285188608	41	4091
2026-01-29 04:40:40.03	237.23	34.67	-35.4	-36.6	18.1	0.00e+00	0	58	0	3292528640	41	4122
2026-01-29 04:40:41.04	237.02	34.47	-35.4	-36.6	18.0	0.00e+00	0	58	0	3299868672	41	4137
2026-01-29 04:40:42.05	236.81	34.28	-35.4	-36.6	18.0	0.00e+00	0	59	0	3307208704	41	4145
2026-01-29 04:40:43.06	236.61	34.09	-35.4	-36.6	18.0	0.00e+00	0	58	0	3313500160	41	4143
2026-01-29 04:40:44.07	236.40	33.90	-35.4	-36.6	18.1	0.00e+00	0	59	0	3320840192	41	4140
2026-01-29 04:40:45.08	236.20	33.71	-35.5	-36.7	18.0	0.00e+00	0	58	0	3329228800	41	4156
2026-01-29 04:40:46.09	236.00	33.52	-35.4	-36.6	18.1	0.00e+00	0	58	0	3335520256	41	4132
2026-01-29 04:40:47.10	235.81	33.33	-35.4	-36.6	18.1	0.00e+00	0	58	0	3342860288	41	4119
2026-01-29 04:40:48.11	235.61	33.15	-35.4	-36.6	18.0	0.00e+00	0	58	0	3350200320	41	4140
2026-01-29 04:40:49.12	235.42	32.96	-35.5	-36.7	17.9	0.00e+00	0	58	0	3357540352	41	4186
2026-01-29 04:40:50.13	235.23	32.77	-35.6	-36.8	17.9	0.00e+00	0	58	0	3364880384	41	4213
2026-01-29 04:40:51.14	235.05	32.59	-35.6	-36.8	17.8	0.00e+00	0	58	0	3372220416	41	4237
2026-01-29 04:40:52.15	234.86	32.41	-35.6	-36.8	17.9	0.00e+00	0	58	0	3379560448	41	4197
2026-01-29 04:40:53.16	234.68	32.22	-35.6	-36.8	17.9	0.00e+00	0	58	0	3386900480	41	4197
2026-01-29 04:40:54.17	234.50	32.04	-35.6	-36.8	17.9	0.00e+00	0	58	0	3394240512	41	4210
2026-01-29 04:40:55.18	234.32	31.86	-35.5	-36.7	17.9	0.00e+00	0	58	0	3401580544	41	4184
2026-01-29 04:40:56.19	234.14	31.68	-35.6	-36.8	17.9	0.00e+00	0	58	0	3408920576	41	4206
2026-01-29 04:40:57.20	233.97	31.50	-35.6	-36.8	17.8	0.00e+00	0	58	0	3416260608	41	4202
2026-01-29 04:40:58.21	233.80	31.32	-35.6	-36.8	17.9	0.00e+00	0	58	0	3423600640	41	4205
2026-01-29 04:40:59.22	233.63	31.14	-35.6	-36.9	17.8	0.00e+00	0	58	0	3430940672	41	4251
2026-01-29 04:41:00.23	233.46	30.96	-35.6	-36.8	17.8	0.00e+00	0	58	0	3438280704	41	4235
2026-01-29 04:41:01.24	233.29	30.78	-35.7	-36.9	17.8	0.00e+00	0	58	0	3445620736	41	4260
2026-01-29 04:41:02.26	233.12	30.60	-35.7	-36.9	17.7	0.00e+00	0	58	0	3452960768	41	4276
2026-01-29 04:41:03.27	232.96	30.43	-35.7	-37.0	17.7	0.00e+00	0	58	0	3459252224	41	4305
2026-01-29 04:41:04.28	232.80	30.25	-35.8	-37.0	17.6	0.00e+00	0	58	0	3467640832	41	4332
2026-01-29 04:41:05.29	232.64	30.08	-35.8	-37.0	17.6	0.00e+00	0	58	0	3474980864	41	4326
2026-01-29 04:41:06.30	232.48	29.91	-35.8	-37.1	17.6	0.00e+00	0	58	0	3481272320	41	4360
2026-01-29 04:41:07.31	232.32	29.74	-35.8	-37.1	17.6	0.00e+00	0	58	0	3488612352	41	4346
2026-01-29 04:41:08.32	232.17	29.56	-35.8	-37.0	17.6	0.00e+00	0	58	0	3495952384	41	4320
2026-01-29 04:41:09.33	232.02	29.39	-35.8	-37.1	17.6	0.00e+00	0	58	0	3503292416	41	4362
2026-01-29 04:41:10.34	231.87	29.22	-35.8	-37.1	17.6	0.00e+00	0	58	0	3510632448	41	4343
2026-01-29 04:41:11.35	231.72	29.05	-35.9	-37.1	17.5	0.00e+00	0	58	0	3517972480	41	4384
2026-01-29 04:41:12.36	231.57	28.89	-35.9	-37.2	17.5	0.00e+00	0	58	0	3525312512	41	4392
2026-01-29 04:41:13.37	231.42	28.72	-35.9	-37.2	17.4	0.00e+00	0	58	0	3532652544	41	4407
2026-01-29 04:41:14.38	231.28	28.55	-35.9	-37.2	17.4	0.00e+00	0	58	0	3539992576	41	4431
2026-01-29 04:41:15.39	231.13	28.39	-36.0	-37.2	17.4	0.00e+00	0	58	0	3547332608	41	4432
2026-01-29 04:41:16.40	230.99	28.22	-36.0	-37.2	17.4	0.00e+00	0	58	0	3554672640	41	4435
2026-01-29 04:41:17.41	230.85	28.06	-35.9	-37.2	17.4	0.00e+00	0	58	0	3562012672	41	4421
2026-01-29 04:41:18.42	230.71	27.89	-35.9	-37.2	17.5	0.00e+00	0	58	0	3569352704	41	4397
2026-01-29 04:41:19.43	230.57	27.73	-35.8	-37.1	17.5	0.00e+00	0	58	0	3576692736	41	4369
2026-01-29 04:41:20.44	230.44	27.57	-35.9	-37.1	17.5	0.00e+00	0	58	0	3584032768	41	4384
2026-01-29 04:41:21.45	230.30	27.41	-35.9	-37.2	17.4	0.00e+00	0	59	0	3591372800	41	4432
2026-01-29 04:41:22.46	230.17	27.25	-36.0	-37.3	17.3	0.00e+00	0	58	0	3598712832	41	4454
2026-01-29 04:41:23.47	230.04	27.09	-36.0	-37.3	17.3	0.00e+00	0	59	0	3606052864	41	4488
2026-01-29 04:41:24.48	229.90	26.93	-36.2	-37.5	17.1	0.00e+00	0	58	0	3613392896	41	4554
2026-01-29 04:41:25.49	229.78	26.77	-36.1	-37.4	17.2	0.00e+00	0	58	0	3620732928	41	4519
2026-01-29 04:41:26.50	229.65	26.61	-36.1	-37.4	17.2	0.00e+00	0	58	0	3628072960	41	4517
2026-01-29 04:41:27.51	229.52	26.46	-36.1	-37.4	17.2	0.00e+00	0	58	0	3634364416	41	4503
2026-01-29 04:41:28.52	229.39	26.30	-36.1	-37.4	17.2	0.00e+00	0	58	0	3641704448	41	4507
2026-01-29 04:41:29.53	229.27	26.14	-36.1	-37.4	17.2	0.00e+00	0	58	0	3650093056	41	4520
2026-01-29 04:41:30.54	229.15	25.99	-36.1	-37.4	17.2	0.00e+00	0	58	0	3656384512	41	4507
2026-01-29 04:41:31.55	229.03	25.84	-36.0	-37.3	17.3	0.00e+00	0	58	0	3663724544	41	4453
2026-01-29 04:41:32.57	228.90	25.68	-36.0	-37.3	17.3	0.00e+00	0	58	0	3671064576	41	4448
2026-01-29 04:41:33.58	228.78	25.53	-36.0	-37.3	17.3	0.00e+00	0	58	0	3678404608	41	4461
2026-01-29 04:41:34.59	228.67	25.38	-36.0	-37.3	17.3	0.00e+00	0	58	0	3685744640	41	4458
2026-01-29 04:41:35.60	228.55	25.23	-36.0	-37.2	17.3	0.00e+00	0	58	0	3693084672	41	4438
2026-01-29 04:41:36.61	228.43	25.08	-36.0	-37.3	17.2	0.00e+00	0	58	0	3700424704	41	4468
2026-01-29 04:41:37.62	228.32	24.93	-36.0	-37.3	17.2	0.00e+00	0	58	0	3707764736	41	4488
2026-01-29 04:41:38.63	228.20	24.78	-36.0	-37.3	17.2	0.00e+00	0	58	0	3715104768	41	4487
2026-01-29 04:41:39.64	228.09	24.63	-36.0	-37.3	17.3	0.00e+00	0	58	0	3722444800	41	4449
2026-01-29 04:41:40.65	227.98	24.48	-35.9	-37.2	17.3	0.00e+00	0	58	0	3729784832	41	4396
2026-01-29 04:41:41.66	227.87	24.34	-36.0	-37.3	17.3	0.00e+00	0	58	0	3737124864	41	4451
2026-01-29 04:41:42.67	227.76	24.19	-36.0	-37.2	17.3	0.00e+00	0	58	0	3744464896	41	4440
2026-01-29 04:41:43.68	227.65	24.05	-36.0	-37.3	17.3	0.00e+00	0	58	0	3751804928	41	4468
2026-01-29 04:41:44.69	227.54	23.90	-36.0	-37.3	17.2	0.00e+00	0	58	0	3759144960	41	4466
2026-01-29 04:41:45.70	227.44	23.76	-36.0	-37.3	17.2	0.00e+00	0	58	0	3766484992	41	4489
2026-01-29 04:41:46.71	227.33	23.62	-36.1	-37.4	17.1	0.00e+00	0	58	0	3773825024	41	4524
2026-01-29 04:41:47.72	227.23	23.47	-36.2	-37.5	17.0	0.00e+00	0	58	0	3780116480	42	4306
2026-01-29 04:41:48.73	227.12	23.33	-36.3	-37.6	16.9	0.00e+00	0	58	0	3788505088	42	4373
2026-01-29 04:41:49.74	227.02	23.19	-36.3	-37.6	16.9	0.00e+00	0	58	0	3795845120	42	4356
2026-01-29 04:41:50.75	226.92	23.05	-36.2	-37.5	17.0	0.00e+00	0	58	0	3802136576	42	4339
2026-01-29 04:41:51.76	226.82	22.91	-36.3	-37.6	16.9	0.00e+00	0	58	0	3809476608	42	4382
2026-01-29 04:41:52.77	226.72	22.77	-36.3	-37.6	16.9	0.00e+00	0	58	0	3816816640	42	4374
2026-01-29 04:41:53.78	226.62	22.63	-36.2	-37.5	17.0	0.00e+00	0	58	0	3824156672	42	4334
2026-01-29 04:41:54.79	226.52	22.50	-36.2	-37.6	17.0	0.00e+00	0	58	0	3831496704	42	4347
2026-01-29 04:41:55.80	226.42	22.36	-36.2	-37.5	17.0	0.00e+00	0	58	0	3838836736	42	4309
2026-01-29 04:41:56.82	226.32	22.22	-36.1	-37.5	17.1	0.00e+00	0	58	0	3846176768	42	4293
2026-01-29 04:41:57.83	226.23	22.08	-36.0	-37.3	17.1	0.00e+00	0	58	0	3853516800	42	4238
2026-01-29 04:41:58.84	226.13	21.95	-36.0	-37.3	17.2	0.00e+00	0	58	0	3860856832	42	4227
2026-01-29 04:41:59.85	226.04	21.82	-36.0	-37.4	17.1	0.00e+00	0	58	0	3868196864	42	4244
2026-01-29 04:42:00.86	225.95	21.68	-36.2	-37.5	17.0	0.00e+00	0	58	0	3875536896	42	4314
2026-01-29 04:42:01.87	225.86	21.55	-36.2	-37.5	17.0	0.00e+00	0	58	0	3882876928	42	4330
2026-01-29 04:42:02.88	225.76	21.42	-36.2	-37.5	17.0	0.00e+00	0	58	0	3890216960	42	4306
2026-01-29 04:42:03.89	225.67	21.28	-36.2	-37.6	16.9	0.00e+00	0	58	0	3897556992	42	4346
2026-01-29 04:42:04.90	225.58	21.15	-36.3	-37.6	16.9	0.00e+00	0	58	0	3904897024	42	4377
2026-01-29 04:42:05.91	225.50	21.02	-36.4	-37.7	16.8	0.00e+00	0	58	0	3912237056	42	4421
2026-01-29 04:42:06.92	225.41	20.89	-36.4	-37.8	16.7	0.00e+00	0	58	0	3919577088	42	4470
2026-01-29 04:42:07.93	225.32	20.76	-36.5	-37.8	16.6	0.00e+00	0	58	0	3926917120	42	4486
2026-01-29 04:42:08.94	225.23	20.63	-36.6	-37.9	16.6	0.00e+00	0	58	0	3934257152	42	4543
2026-01-29 04:42:09.95	225.15	20.50	-36.6	-38.0	16.4	0.00e+00	0	58	0	3941597184	42	4589
2026-01-29 04:42:10.96	225.06	20.38	-36.7	-38.1	16.4	0.00e+00	0	58	0	3948937216	42	4630
2026-01-29 04:42:11.97	224.98	20.25	-36.8	-38.2	16.2	0.00e+00	0	59	0	3955228672	43	4414
2026-01-29 04:42:12.98	224.89	20.12	-36.8	-38.3	16.2	0.00e+00	0	58	0	3963617280	43	4446
2026-01-29 04:42:13.99	224.81	20.00	-36.8	-38.2	16.2	0.00e+00	0	58	0	3970957312	43	4436
2026-01-29 04:42:15.00	224.73	19.87	-36.9	-38.3	16.1	0.00e+00	0	58	0	3977248768	43	4485
2026-01-29 04:42:16.01	224.65	19.75	-36.9	-38.4	16.0	0.00e+00	0	58	0	3984588800	43	4518
2026-01-29 04:42:17.02	224.57	19.62	-37.0	-38.5	16.0	0.00e+00	0	58	0	3991928832	43	4550
2026-01-29 04:42:18.03	224.49	19.50	-37.0	-38.5	16.0	0.00e+00	0	58	0	3999268864	43	4557
2026-01-29 04:42:19.04	224.41	19.37	-37.0	-38.4	16.0	0.00e+00	0	58	0	4006608896	43	4541
2026-01-29 04:42:20.05	224.33	19.25	-37.0	-38.4	16.0	0.00e+00	0	59	0	4013948928	43	4537
2026-01-29 04:42:21.06	224.25	19.13	-37.0	-38.5	16.0	0.00e+00	0	58	0	4021288960	43	4551
2026-01-29 04:42:22.07	224.17	19.01	-37.1	-38.5	15.9	0.00e+00	0	58	0	4028628992	43	4589
2026-01-29 04:42:23.09	224.09	18.89	-37.0	-38.5	15.9	0.00e+00	0	58	0	4035969024	43	4577
2026-01-29 04:42:24.10	224.02	18.76	-37.0	-38.5	15.9	0.00e+00	0	58	0	4043309056	43	4566
2026-01-29 04:42:25.11	223.94	18.64	-37.0	-38.4	16.0	0.00e+00	0	58	0	4050649088	43	4529
2026-01-29 04:42:26.12	223.87	18.53	-36.9	-38.4	16.0	0.00e+00	0	58	0	4057989120	43	4508
2026-01-29 04:42:27.13	223.79	18.41	-37.0	-38.5	15.9	0.00e+00	0	58	0	4065329152	43	4587
2026-01-29 04:42:28.14	223.72	18.29	-37.0	-38.4	15.9	0.00e+00	0	58	0	4072669184	43	4545
2026-01-29 04:42:29.15	223.64	18.17	-37.0	-38.4	16.0	0.00e+00	0	58	0	4080009216	43	4531
2026-01-29 04:42:30.16	223.57	18.05	-36.9	-38.3	16.1	0.00e+00	0	58	0	4087349248	43	4473
2026-01-29 04:42:31.17	223.50	17.94	-36.8	-38.2	16.2	0.00e+00	0	58	0	4094689280	43	4432
2026-01-29 04:42:32.18	223.43	17.82	-36.8	-38.3	16.1	0.00e+00	0	58	0	4102029312	43	4457
2026-01-29 04:42:33.20	223.35	17.70	-36.9	-38.3	16.1	0.00e+00	0	58	0	4109369344	43	4464
2026-01-29 04:42:34.21	223.28	17.59	-36.8	-38.2	16.2	0.00e+00	0	58	0	4116709376	43	4429
2026-01-29 04:42:35.22	223.21	17.47	-36.9	-38.3	16.1	0.00e+00	0	58	0	4123000832	43	4461
2026-01-29 04:42:36.23	223.15	17.36	-36.9	-38.3	16.1	0.00e+00	0	58	0	4131389440	43	4468
2026-01-29 04:42:37.23	223.08	17.24	-36.9	-38.3	16.0	0.00e+00	0	58	0	4138729472	43	4475
2026-01-29 04:42:38.25	223.01	17.13	-36.8	-38.3	16.1	0.00e+00	0	59	0	4145020928	43	4456
2026-01-29 04:42:39.26	222.94	17.02	-36.9	-38.3	16.0	0.00e+00	0	58	0	4152360960	43	4489
2026-01-29 04:42:40.27	222.87	16.90	-36.9	-38.3	15.9	0.00e+00	0	58	0	4159700992	43	4491
2026-01-29 04:42:41.28	222.81	16.79	-36.9	-38.4	16.0	0.00e+00	0	59	0	4167041024	43	4498
2026-01-29 04:42:42.29	222.74	16.68	-36.9	-38.4	16.0	0.00e+00	0	58	0	4174381056	43	4509
2026-01-29 04:42:43.30	222.67	16.57	-36.9	-38.4	15.9	0.00e+00	0	58	0	4181721088	43	4517
2026-01-29 04:42:44.31	222.61	16.46	-37.0	-38.5	15.9	0.00e+00	0	58	0	4189061120	43	4552
2026-01-29 04:42:45.32	222.54	16.35	-37.0	-38.5	15.8	0.00e+00	0	59	0	4196401152	43	4573
2026-01-29 04:42:46.33	222.48	16.24	-37.1	-38.6	15.8	0.00e+00	0	58	0	4203741184	43	4600
2026-01-29 04:42:47.34	222.42	16.13	-37.1	-38.6	15.8	0.00e+00	0	58	0	4211081216	43	4604
2026-01-29 04:42:48.35	222.35	16.02	-37.2	-38.7	15.7	0.00e+00	0	58	0	4218421248	43	4662
2026-01-29 04:42:49.36	222.29	15.91	-37.2	-38.7	15.6	0.00e+00	0	58	0	4225761280	43	4692
2026-01-29 04:42:50.37	222.23	15.81	-37.4	-38.9	15.6	0.00e+00	0	58	0	4233101312	44	4524
2026-01-29 04:42:51.38	222.17	15.70	-37.4	-39.0	15.5	0.00e+00	0	58	0	4240441344	44	4548
2026-01-29 04:42:52.39	222.10	15.59	-37.5	-39.1	15.4	0.00e+00	0	58	0	4247781376	44	4616
2026-01-29 04:42:53.40	222.04	15.48	-37.5	-39.1	15.4	0.00e+00	0	58	0	4255121408	44	4611
2026-01-29 04:42:54.41	221.98	15.38	-37.4	-39.0	15.5	0.00e+00	0	59	0	4262461440	44	4563
2026-01-29 04:42:55.42	221.92	15.27	-37.4	-38.9	15.5	0.00e+00	0	58	0	4269801472	44	4540
2026-01-29 04:42:56.44	221.86	15.17	-37.5	-39.1	15.4	0.00e+00	0	59	0	4277141504	44	4615
2026-01-29 04:42:57.45	221.80	15.06	-37.5	-39.1	15.4	0.00e+00	0	58	0	4284481536	44	4608
2026-01-29 04:42:58.46	221.74	14.96	-37.6	-39.2	15.3	0.00e+00	0	58	0	4291821568	44	4658
2026-01-29 04:42:59.47	221.69	14.85	-37.6	-39.2	15.2	0.00e+00	0	58	0	4298113024	44	4697
2026-01-29 04:43:00.48	221.63	14.75	-37.6	-39.2	15.2	0.00e+00	0	58	0	4306501632	44	4688
2026-01-29 04:43:01.49	221.57	14.65	-37.6	-39.2	15.2	0.00e+00	0	58	0	4313841664	44	4693
2026-01-29 04:43:02.50	221.51	14.54	-37.7	-39.3	15.2	0.00e+00	0	58	0	4320133120	44	4725
2026-01-29 04:43:03.51	221.46	14.44	-37.8	-39.4	15.0	1.10e-06	0	58	0	4327473152	45	4510
2026-01-29 04:43:04.52	221.40	14.34	-37.8	-39.4	15.0	0.00e+00	0	59	0	4334813184	45	4505
2026-01-29 04:43:05.53	221.34	14.24	-37.8	-39.4	15.0	0.00e+00	0	58	0	4342153216	45	4536
2026-01-29 04:43:06.54	221.29	14.14	-37.8	-39.5	14.9	0.00e+00	0	58	0	4349493248	45	4548
2026-01-29 04:43:07.55	221.23	14.04	-37.8	-39.5	14.9	0.00e+00	0	58	0	4356833280	45	4576
2026-01-29 04:43:08.56	221.18	13.93	-37.9	-39.6	14.7	0.00e+00	0	58	0	4364173312	45	4645
