passes_logs/2026/01/29/R2.0S_Moscow/R2.0S_Moscow__20260129_232339_NOAA_21_JPSS-2_rec.log

#Pass ID: 20260129_232339_NOAA 21 (JPSS-2)
#Satellite: NOAA 21 (JPSS-2)
#Configuration: NOAA-21
#almurnet v.1.7.20251203
#Start time: 2026-01-29 23:23:42

#Version: 2.2.20231116
#Station: R2.0S_Moscow
#Location: 37.707566 lon 55.798166 lat
#TLE: 1 54234U 22150A   26028.89828222  .00000145  00000+0  89569-4 0  9997
#TLE: 2 54234  98.7511 329.6308 0000927 198.8651 161.2491 14.19540676166783

#Time	Az	El	Level	Level2	SNR	BER	BlckErr	Temp	State	Recorded	gain1	gain2
2026-01-29 23:23:42.03	17.46	2.13	-41.5	-53.7	3.8	1.49e+00	0	51	0	0	55	13948
2026-01-29 23:23:43.03	17.48	2.20	-41.5	-53.7	3.8	1.49e+00	0	52	104	0	54	14802
2026-01-29 23:23:44.04	17.49	2.26	-41.5	-53.7	3.8	1.49e+00	0	52	104	0	54	14811
2026-01-29 23:23:45.05	17.51	2.33	-41.5	-53.7	3.8	1.49e+00	0	52	104	0	54	14748
2026-01-29 23:23:46.06	17.52	2.39	-41.5	-53.7	3.8	1.49e+00	0	52	104	0	54	14786
2026-01-29 23:23:47.07	17.54	2.46	-41.5	-53.7	3.8	1.49e+00	0	52	104	0	54	14836
2026-01-29 23:23:48.08	17.56	2.52	-41.5	-53.7	3.8	1.49e+00	0	52	104	0	54	14766
2026-01-29 23:23:49.09	17.57	2.59	-41.5	-53.7	3.8	1.49e+00	0	52	104	0	54	14773
2026-01-29 23:23:50.10	17.59	2.65	-41.5	-53.7	3.8	1.49e+00	0	52	104	0	54	14767
2026-01-29 23:23:51.11	17.61	2.72	-41.5	-53.7	3.8	1.49e+00	0	52	104	0	54	14771
2026-01-29 23:23:52.12	17.63	2.78	-41.5	-53.7	3.8	1.49e+00	0	52	104	0	54	14749
2026-01-29 23:23:53.13	17.64	2.85	-41.5	-53.7	3.8	1.49e+00	0	52	104	0	54	14761
2026-01-29 23:23:54.15	17.66	2.91	-41.5	-53.7	3.8	1.49e+00	0	53	104	0	54	14774
2026-01-29 23:23:55.16	17.68	2.98	-41.5	-53.7	3.8	1.49e+00	0	53	104	0	54	14786
2026-01-29 23:23:56.17	17.69	3.05	-41.5	-53.7	3.8	1.49e+00	0	53	104	0	54	14741
2026-01-29 23:23:57.18	17.71	3.11	-41.5	-53.7	3.8	1.49e+00	0	53	104	0	54	14791
2026-01-29 23:23:58.19	17.73	3.18	-41.5	-53.7	3.8	1.49e+00	0	53	104	0	54	14753
2026-01-29 23:23:59.20	17.75	3.25	-41.5	-53.7	3.8	1.49e+00	0	53	104	0	54	14748
2026-01-29 23:24:00.21	17.76	3.31	-41.5	-53.7	3.8	1.49e+00	0	53	104	0	54	14784
2026-01-29 23:24:01.22	17.78	3.38	-41.5	-53.7	3.8	1.49e+00	0	53	104	0	54	14756
2026-01-29 23:24:02.23	17.80	3.45	-41.5	-53.7	3.8	1.49e+00	0	53	104	0	54	14728
2026-01-29 23:24:03.24	17.82	3.51	-41.5	-53.7	3.8	1.49e+00	0	53	104	0	54	14759
2026-01-29 23:24:04.25	17.83	3.58	-41.5	-53.7	3.8	1.49e+00	0	53	104	0	54	14745
2026-01-29 23:24:05.26	17.85	3.65	-41.5	-53.7	3.8	1.49e+00	0	53	104	0	54	14764
2026-01-29 23:24:06.27	17.87	3.72	-41.5	-53.7	3.8	1.49e+00	0	53	104	0	54	14747
2026-01-29 23:24:07.28	17.89	3.79	-41.5	-53.7	3.8	1.49e+00	0	54	104	0	54	14745
2026-01-29 23:24:08.29	17.90	3.85	-41.5	-53.7	3.8	1.49e+00	0	53	104	0	54	14738
2026-01-29 23:24:09.30	17.92	3.92	-41.5	-53.7	3.8	1.49e+00	0	54	104	0	54	14720
2026-01-29 23:24:10.31	17.94	3.99	-41.5	-53.7	3.8	1.49e+00	0	54	104	0	54	14755
2026-01-29 23:24:11.33	17.96	4.06	-41.5	-53.7	3.8	1.49e+00	0	54	104	0	54	14721
2026-01-29 23:24:12.34	17.98	4.13	-41.5	-53.7	3.8	1.49e+00	0	54	104	0	54	14746
2026-01-29 23:24:13.35	17.99	4.20	-41.5	-53.7	3.8	1.49e+00	0	54	104	0	54	14757
2026-01-29 23:24:14.36	18.01	4.27	-41.5	-53.7	3.8	1.49e+00	0	54	104	0	54	14728
2026-01-29 23:24:15.37	18.03	4.34	-41.5	-53.7	3.8	1.49e+00	0	54	104	0	54	14736
2026-01-29 23:24:16.38	18.05	4.41	-41.5	-53.7	3.8	1.49e+00	0	54	104	0	54	14717
2026-01-29 23:24:17.39	18.07	4.48	-41.5	-53.7	3.8	1.49e+00	0	54	104	0	54	14746
2026-01-29 23:24:18.40	18.09	4.55	-41.5	-53.7	3.8	1.49e+00	0	54	104	0	54	14735
2026-01-29 23:24:19.41	18.10	4.62	-41.4	-53.7	3.8	1.49e+00	0	54	104	0	54	14738
2026-01-29 23:24:20.42	18.12	4.69	-41.4	-53.6	3.8	1.49e+00	0	54	104	0	54	14679
2026-01-29 23:24:21.43	18.14	4.76	-41.5	-53.6	3.8	1.49e+00	0	54	104	0	54	14695
2026-01-29 23:24:22.44	18.16	4.83	-41.4	-53.6	3.8	1.49e+00	0	54	104	0	54	14675
2026-01-29 23:24:23.45	18.18	4.90	-41.5	-53.7	3.8	1.49e+00	0	54	104	0	54	14731
2026-01-29 23:24:24.46	18.20	4.97	-41.5	-53.7	3.8	1.49e+00	0	55	104	0	54	14735
2026-01-29 23:24:25.47	18.22	5.04	-41.5	-53.7	3.8	1.49e+00	0	54	104	0	54	14720
2026-01-29 23:24:26.48	18.24	5.11	-41.4	-53.6	3.8	1.49e+00	0	55	104	0	54	14696
2026-01-29 23:24:27.49	18.25	5.18	-41.4	-53.6	3.8	1.49e+00	0	55	104	0	54	14706
2026-01-29 23:24:28.50	18.27	5.26	-41.4	-53.6	3.8	1.49e+00	0	55	104	0	54	14687
2026-01-29 23:24:29.51	18.29	5.33	-41.4	-53.7	3.8	1.49e+00	0	55	104	0	54	14728
2026-01-29 23:24:30.52	18.31	5.40	-41.4	-53.7	3.8	1.49e+00	0	55	104	0	54	14713
2026-01-29 23:24:31.53	18.33	5.47	-41.4	-53.6	3.8	1.49e+00	0	55	104	0	54	14685
2026-01-29 23:24:32.55	18.35	5.55	-41.4	-53.7	3.8	1.49e+00	0	55	104	0	54	14710
2026-01-29 23:24:33.56	18.37	5.62	-41.4	-53.6	3.8	1.49e+00	0	55	104	0	54	14707
2026-01-29 23:24:34.57	18.39	5.69	-41.4	-53.7	3.8	1.49e+00	0	55	104	0	54	14721
2026-01-29 23:24:35.58	18.41	5.76	-41.4	-53.6	3.8	1.49e+00	0	55	104	0	54	14701
2026-01-29 23:24:36.59	18.43	5.84	-41.4	-53.6	3.8	1.49e+00	0	55	104	0	54	14692
2026-01-29 23:24:37.60	18.45	5.91	-41.4	-53.7	3.8	1.49e+00	0	55	104	0	54	14758
2026-01-29 23:24:38.61	18.47	5.99	-41.4	-53.6	3.8	1.49e+00	0	55	104	0	54	14686
2026-01-29 23:24:39.62	18.49	6.06	-41.4	-53.7	3.8	1.49e+00	0	55	104	0	54	14758
2026-01-29 23:24:40.63	18.51	6.13	-41.4	-53.6	3.8	1.49e+00	0	55	104	0	54	14706
2026-01-29 23:24:41.64	18.53	6.21	-41.4	-53.7	3.8	1.49e+00	0	55	104	0	54	14742
2026-01-29 23:24:42.65	18.55	6.28	-41.4	-53.7	3.8	1.49e+00	0	55	104	0	54	14723
2026-01-29 23:24:43.66	18.57	6.36	-41.4	-53.7	3.8	1.49e+00	0	55	104	0	54	14721
2026-01-29 23:24:44.67	18.59	6.43	-41.5	-53.6	3.8	1.49e+00	0	55	104	0	54	14683
2026-01-29 23:24:45.68	18.61	6.51	-41.4	-53.6	3.8	1.49e+00	0	56	104	0	54	14705
2026-01-29 23:24:46.69	18.63	6.58	-41.4	-53.6	3.8	1.49e+00	0	56	104	0	54	14658
2026-01-29 23:24:47.70	18.65	6.66	-41.4	-53.6	3.8	1.49e+00	0	55	104	0	54	14691
2026-01-29 23:24:48.71	18.67	6.73	-41.5	-53.7	3.8	1.49e+00	0	56	104	0	54	14731
2026-01-29 23:24:49.72	18.69	6.81	-41.4	-53.6	3.8	1.49e+00	0	56	104	0	54	14687
2026-01-29 23:24:50.73	18.71	6.89	-41.4	-53.6	3.8	1.49e+00	0	56	104	0	54	14578
2026-01-29 23:24:51.74	18.74	6.96	-41.4	-53.5	3.8	1.49e+00	0	56	104	0	54	14524
2026-01-29 23:24:52.75	18.76	7.04	-41.4	-53.4	3.8	1.49e+00	0	56	104	0	54	14344
2026-01-29 23:24:53.77	18.78	7.12	-41.4	-53.4	3.8	1.49e+00	0	56	104	0	54	14300
2026-01-29 23:24:54.78	18.80	7.20	-41.4	-53.4	3.8	1.49e+00	0	56	104	0	54	14251
2026-01-29 23:24:55.79	18.82	7.27	-41.4	-53.3	3.8	1.49e+00	0	56	104	0	54	14199
2026-01-29 23:24:56.80	18.84	7.35	-41.4	-53.3	3.8	1.49e+00	0	56	104	0	54	14123
2026-01-29 23:24:57.81	18.86	7.43	-41.4	-53.3	3.8	1.49e+00	0	56	104	0	54	14199
2026-01-29 23:24:58.82	18.88	7.51	-41.4	-53.2	3.8	1.49e+00	0	56	104	0	54	14039
2026-01-29 23:24:59.83	18.91	7.59	-41.4	-53.2	3.8	1.49e+00	0	56	104	0	54	13911
2026-01-29 23:25:00.84	18.93	7.66	-41.4	-53.0	3.8	1.49e+00	0	56	104	0	54	13614
2026-01-29 23:25:01.85	18.95	7.74	-41.4	-52.8	3.8	1.49e+00	0	56	104	0	54	13288
2026-01-29 23:25:02.86	18.97	7.82	-41.3	-52.5	3.8	1.49e+00	0	56	104	0	54	12900
2026-01-29 23:25:03.87	18.99	7.90	-41.3	-52.3	3.8	1.49e+00	0	56	104	0	54	12559
2026-01-29 23:25:04.88	19.02	7.98	-41.2	-51.8	3.8	1.49e+00	0	56	104	0	54	11936
2026-01-29 23:25:05.89	19.04	8.06	-41.2	-51.1	4.0	1.48e+00	0	56	104	0	54	11007
2026-01-29 23:25:06.90	19.06	8.14	-41.2	-50.0	4.2	1.46e+00	0	56	104	0	54	9644
2026-01-29 23:25:07.92	19.08	8.22	-41.3	-47.1	6.5	4.48e-01	0	56	0	1048576	54	6895
2026-01-29 23:25:08.93	19.11	8.30	-40.9	-50.9	3.9	1.32e+00	0	57	104	3145728	53	11335
2026-01-29 23:25:09.94	19.13	8.39	-41.0	-47.8	5.5	4.70e-01	0	57	0	3145728	53	7920
2026-01-29 23:25:10.95	19.15	8.47	-40.3	-43.9	10.1	3.15e-02	0	57	0	6291456	52	5385
2026-01-29 23:25:11.96	19.17	8.55	-40.1	-43.7	10.4	4.71e-03	0	57	0	9437184	52	5226
2026-01-29 23:25:12.97	19.20	8.63	-40.4	-44.1	10.0	6.00e-03	0	57	0	12582912	52	5526
2026-01-29 23:25:13.98	19.22	8.71	-40.7	-44.7	9.5	1.15e-02	0	57	0	15728640	52	5859
2026-01-29 23:25:14.99	19.24	8.79	-40.9	-45.0	9.2	1.92e-02	0	57	0	18874368	52	6123
2026-01-29 23:25:16.00	19.27	8.88	-40.8	-44.8	9.5	1.49e-02	0	57	0	22020096	52	5957
2026-01-29 23:25:17.01	19.29	8.96	-40.8	-44.7	9.5	1.51e-02	0	57	0	25165824	52	5883
2026-01-29 23:25:18.02	19.31	9.04	-40.8	-44.7	9.7	1.10e-02	0	57	0	28311552	52	5863
2026-01-29 23:25:19.03	19.34	9.13	-40.8	-44.6	9.7	1.03e-02	0	57	0	31457280	52	5851
2026-01-29 23:25:20.04	19.36	9.21	-40.6	-44.2	10.3	5.03e-03	0	57	0	34603008	52	5567
2026-01-29 23:25:21.05	19.39	9.29	-40.8	-44.5	9.9	8.26e-03	0	57	0	37748736	52	5767
2026-01-29 23:25:22.06	19.41	9.38	-40.9	-44.7	9.7	1.19e-02	0	57	0	40894464	52	5911
2026-01-29 23:25:23.07	19.43	9.46	-40.7	-44.3	10.3	5.77e-03	0	57	0	44040192	52	5603
2026-01-29 23:25:24.08	19.46	9.55	-40.8	-44.4	10.2	6.69e-03	0	57	0	48234496	52	5674
2026-01-29 23:25:25.09	19.48	9.63	-41.0	-44.9	9.7	1.02e-02	0	57	0	51380224	52	6002
2026-01-29 23:25:26.10	19.51	9.72	-40.7	-44.2	10.3	3.98e-03	0	57	0	53477376	52	5590
2026-01-29 23:25:27.11	19.53	9.80	-40.8	-44.4	10.2	6.10e-03	0	57	0	56623104	52	5683
2026-01-29 23:25:28.12	19.56	9.89	-40.9	-44.6	10.0	6.40e-03	0	57	0	59768832	52	5803
2026-01-29 23:25:29.13	19.58	9.98	-40.7	-44.2	10.4	4.88e-03	0	57	0	63963136	52	5578
2026-01-29 23:25:30.14	19.60	10.06	-40.7	-44.3	10.4	4.31e-03	0	57	0	67108864	52	5612
2026-01-29 23:25:31.15	19.63	10.15	-40.6	-44.0	10.7	3.05e-03	0	57	0	70254592	52	5452
2026-01-29 23:25:32.16	19.65	10.24	-40.8	-44.3	10.4	4.66e-03	0	57	0	73400320	52	5604
2026-01-29 23:25:33.17	19.68	10.32	-40.6	-43.9	10.8	3.09e-03	0	57	0	76546048	52	5381
2026-01-29 23:25:34.19	19.71	10.41	-40.7	-44.1	10.6	3.67e-03	0	57	0	79691776	52	5513
2026-01-29 23:25:35.20	19.73	10.50	-40.7	-44.1	10.6	3.53e-03	0	57	0	82837504	52	5518
2026-01-29 23:25:36.21	19.76	10.59	-40.8	-44.3	10.5	3.62e-03	0	57	0	85983232	52	5599
2026-01-29 23:25:37.22	19.78	10.68	-40.6	-44.0	10.8	3.37e-03	0	57	0	89128960	52	5431
2026-01-29 23:25:38.23	19.81	10.77	-40.7	-44.0	10.9	2.55e-03	0	57	0	92274688	52	5433
2026-01-29 23:25:39.24	19.83	10.86	-40.7	-44.0	11.0	1.76e-03	0	58	0	95420416	52	5406
2026-01-29 23:25:40.25	19.86	10.95	-40.6	-43.7	11.2	2.31e-03	0	57	0	98566144	52	5270
2026-01-29 23:25:41.26	19.89	11.04	-40.7	-43.9	11.0	1.67e-03	0	57	0	101711872	52	5397
2026-01-29 23:25:42.27	19.91	11.13	-40.6	-43.8	11.2	1.37e-03	0	57	0	104857600	52	5296
2026-01-29 23:25:43.28	19.94	11.22	-40.6	-43.8	11.3	1.43e-03	0	57	0	108003328	52	5287
2026-01-29 23:25:44.29	19.97	11.31	-40.6	-43.8	11.2	1.28e-03	0	58	0	111149056	52	5304
2026-01-29 23:25:45.30	19.99	11.40	-40.7	-43.8	11.2	1.41e-03	0	58	0	114294784	52	5322
2026-01-29 23:25:46.31	20.02	11.49	-40.7	-43.8	11.2	1.06e-03	0	58	0	117440512	52	5316
2026-01-29 23:25:47.32	20.05	11.58	-40.5	-43.6	11.5	9.06e-04	0	58	0	120586240	52	5187
2026-01-29 23:25:48.33	20.07	11.68	-40.5	-43.6	11.5	9.16e-04	0	58	0	123731968	52	5183
2026-01-29 23:25:49.34	20.10	11.77	-40.5	-43.6	11.5	8.39e-04	0	58	0	126877696	52	5182
2026-01-29 23:25:50.35	20.13	11.86	-40.5	-43.4	11.7	5.53e-04	0	58	0	130023424	52	5100
2026-01-29 23:25:51.36	20.16	11.95	-40.5	-43.5	11.6	6.69e-04	0	58	0	133169152	52	5135
2026-01-29 23:25:52.37	20.19	12.05	-40.4	-43.4	11.8	6.35e-04	0	58	0	136314880	52	5084
2026-01-29 23:25:53.38	20.21	12.14	-40.4	-43.4	11.8	5.81e-04	0	58	0	139460608	52	5071
2026-01-29 23:25:54.39	20.24	12.24	-40.5	-43.5	11.7	4.55e-04	0	58	0	142606336	52	5140
2026-01-29 23:25:55.40	20.27	12.33	-40.5	-43.5	11.7	6.85e-04	0	58	0	145752064	52	5109
2026-01-29 23:25:56.41	20.30	12.43	-40.5	-43.5	11.6	6.29e-04	0	58	0	148897792	52	5144
2026-01-29 23:25:57.42	20.33	12.52	-40.5	-43.4	11.8	4.91e-04	0	58	0	152043520	52	5076
2026-01-29 23:25:58.43	20.36	12.62	-40.4	-43.3	11.9	4.27e-04	0	58	0	155189248	52	5036
2026-01-29 23:25:59.44	20.38	12.71	-40.4	-43.3	11.9	4.06e-04	0	58	0	158334976	52	5019
2026-01-29 23:26:00.45	20.41	12.81	-40.4	-43.3	11.9	3.91e-04	0	58	0	161480704	52	5036
2026-01-29 23:26:01.46	20.44	12.91	-40.4	-43.4	11.9	3.57e-04	0	58	0	164626432	52	5044
2026-01-29 23:26:02.47	20.47	13.01	-40.3	-43.1	12.1	2.20e-04	0	58	0	167772160	52	4898
2026-01-29 23:26:03.48	20.50	13.10	-40.3	-43.1	12.1	3.05e-04	0	58	0	170917888	52	4922
2026-01-29 23:26:04.49	20.53	13.20	-40.4	-43.2	12.1	3.13e-04	0	58	0	174063616	52	4966
2026-01-29 23:26:05.50	20.56	13.30	-40.4	-43.3	12.0	3.00e-04	0	58	0	177209344	52	4995
2026-01-29 23:26:06.51	20.59	13.40	-40.3	-43.0	12.2	2.38e-04	0	58	0	180355072	52	4865
2026-01-29 23:26:07.52	20.62	13.50	-40.4	-43.2	12.0	3.13e-04	0	58	0	183500800	52	4970
2026-01-29 23:26:08.53	20.65	13.60	-40.4	-43.3	11.9	3.82e-04	0	58	0	186646528	52	5033
2026-01-29 23:26:09.54	20.68	13.70	-40.4	-43.2	12.1	3.64e-04	0	58	0	189792256	52	4963
2026-01-29 23:26:10.55	20.71	13.80	-40.4	-43.3	12.0	3.20e-04	0	58	0	192937984	52	4985
2026-01-29 23:26:11.56	20.74	13.90	-40.5	-43.4	11.9	3.59e-04	0	58	0	196083712	52	5079
2026-01-29 23:26:12.57	20.78	14.00	-40.3	-43.1	12.1	3.05e-04	0	58	0	199229440	52	4918
2026-01-29 23:26:13.58	20.81	14.10	-40.4	-43.3	12.0	3.26e-04	0	58	0	202375168	52	4990
2026-01-29 23:26:14.59	20.84	14.21	-40.4	-43.3	12.0	2.99e-04	0	58	0	205520896	52	4998
2026-01-29 23:26:15.60	20.87	14.31	-40.4	-43.3	12.0	3.26e-04	0	59	0	208666624	52	4993
2026-01-29 23:26:16.61	20.90	14.41	-40.4	-43.3	11.9	3.58e-04	0	58	0	211812352	52	5020
2026-01-29 23:26:17.62	20.93	14.52	-40.4	-43.3	12.0	3.58e-04	0	59	0	214958080	52	4989
2026-01-29 23:26:18.64	20.97	14.62	-40.5	-43.4	11.9	3.52e-04	0	58	0	218103808	52	5053
2026-01-29 23:26:19.65	21.00	14.73	-40.4	-43.3	12.0	3.10e-04	0	58	0	221249536	52	4990
2026-01-29 23:26:20.66	21.03	14.83	-40.5	-43.3	11.9	3.04e-04	0	58	0	224395264	52	5032
2026-01-29 23:26:21.67	21.07	14.94	-40.5	-43.4	11.8	3.86e-04	0	58	0	227540992	52	5099
2026-01-29 23:26:22.68	21.10	15.04	-40.5	-43.4	11.9	4.20e-04	0	58	0	230686720	52	5055
2026-01-29 23:26:23.69	21.13	15.15	-40.6	-43.5	11.9	4.10e-04	0	58	0	233832448	52	5120
2026-01-29 23:26:24.70	21.17	15.26	-40.5	-43.4	11.9	4.23e-04	0	58	0	236978176	52	5072
2026-01-29 23:26:25.71	21.20	15.36	-40.5	-43.4	12.0	3.21e-04	0	58	0	240123904	52	5053
2026-01-29 23:26:26.72	21.23	15.47	-40.6	-43.4	11.9	3.15e-04	0	58	0	243269632	52	5085
2026-01-29 23:26:27.73	21.27	15.58	-40.6	-43.5	11.9	4.03e-04	0	59	0	246415360	52	5107
2026-01-29 23:26:28.74	21.30	15.69	-40.5	-43.4	12.0	3.60e-04	0	59	0	249561088	52	5058
2026-01-29 23:26:29.75	21.34	15.80	-40.6	-43.5	11.9	3.97e-04	0	58	0	252706816	52	5112
2026-01-29 23:26:30.76	21.37	15.91	-40.6	-43.5	11.9	3.89e-04	0	59	0	255852544	52	5115
2026-01-29 23:26:31.77	21.41	16.02	-40.6	-43.5	11.9	4.20e-04	0	59	0	258998272	52	5123
2026-01-29 23:26:32.78	21.44	16.13	-40.6	-43.5	11.9	4.90e-04	0	59	0	262144000	52	5150
2026-01-29 23:26:33.79	21.48	16.24	-40.5	-43.4	12.1	3.77e-04	0	58	0	265289728	52	5046
2026-01-29 23:26:34.80	21.51	16.35	-40.6	-43.4	12.0	2.89e-04	0	59	0	268435456	52	5072
2026-01-29 23:26:35.81	21.55	16.46	-40.6	-43.4	12.0	3.24e-04	0	59	0	271581184	52	5087
2026-01-29 23:26:36.82	21.58	16.58	-40.5	-43.3	12.1	3.00e-04	0	59	0	274726912	52	5040
2026-01-29 23:26:37.83	21.62	16.69	-40.5	-43.3	12.1	2.78e-04	0	59	0	277872640	52	5003
2026-01-29 23:26:38.84	21.66	16.80	-40.6	-43.4	12.0	3.21e-04	0	59	0	281018368	52	5098
2026-01-29 23:26:39.85	21.70	16.92	-40.5	-43.3	12.1	2.78e-04	0	59	0	284164096	52	5032
2026-01-29 23:26:40.86	21.73	17.03	-40.5	-43.3	12.1	2.36e-04	0	59	0	287309824	52	5031
2026-01-29 23:26:41.87	21.77	17.15	-40.5	-43.4	12.1	2.95e-04	0	58	0	290455552	52	5048
2026-01-29 23:26:42.88	21.81	17.26	-40.6	-43.4	12.0	2.73e-04	0	59	0	293601280	52	5086
2026-01-29 23:26:43.89	21.85	17.38	-40.6	-43.5	12.0	3.37e-04	0	59	0	296747008	52	5112
2026-01-29 23:26:44.90	21.88	17.50	-40.5	-43.3	12.2	2.16e-04	0	59	0	299892736	52	5002
2026-01-29 23:26:45.91	21.92	17.61	-40.5	-43.3	12.1	2.11e-04	0	59	0	303038464	52	5017
2026-01-29 23:26:46.92	21.96	17.73	-40.6	-43.4	12.0	2.88e-04	0	59	0	306184192	52	5070
2026-01-29 23:26:47.93	22.00	17.85	-40.6	-43.5	12.0	3.13e-04	0	59	0	309329920	52	5107
2026-01-29 23:26:48.95	22.04	17.97	-40.7	-43.6	11.8	2.98e-04	0	59	0	312475648	52	5193
2026-01-29 23:26:49.96	22.08	18.09	-40.5	-43.3	12.2	2.17e-04	0	59	0	315621376	52	4993
2026-01-29 23:26:50.97	22.12	18.21	-40.4	-43.1	12.3	1.84e-04	0	59	0	318767104	52	4925
2026-01-29 23:26:51.98	22.16	18.33	-40.5	-43.3	12.2	1.98e-04	0	59	0	322961408	52	5003
2026-01-29 23:26:52.99	22.20	18.45	-40.4	-43.1	12.4	1.98e-04	0	59	0	325058560	52	4898
2026-01-29 23:26:54.00	22.24	18.57	-40.4	-43.1	12.4	1.45e-04	0	59	0	328204288	52	4883
2026-01-29 23:26:55.01	22.28	18.70	-40.5	-43.2	12.3	2.05e-04	0	59	0	331350016	52	4954
2026-01-29 23:26:56.02	22.32	18.82	-40.5	-43.2	12.3	2.13e-04	0	59	0	334495744	52	4954
2026-01-29 23:26:57.03	22.36	18.94	-40.5	-43.3	12.3	1.18e-04	0	59	0	338690048	52	5012
2026-01-29 23:26:58.04	22.41	19.07	-40.5	-43.2	12.4	1.37e-04	0	59	0	341835776	52	4946
2026-01-29 23:26:59.05	22.45	19.19	-40.3	-43.0	12.6	1.40e-04	0	59	0	344981504	52	4835
2026-01-29 23:27:00.06	22.49	19.32	-40.3	-42.9	12.6	1.03e-04	0	59	0	347078656	52	4813
2026-01-29 23:27:01.07	22.53	19.45	-40.2	-42.9	12.7	8.54e-05	0	59	0	350224384	52	4762
2026-01-29 23:27:02.08	22.58	19.57	-40.3	-42.9	12.7	6.56e-05	0	59	0	354418688	52	4774
2026-01-29 23:27:03.09	22.62	19.70	-40.2	-42.8	12.8	4.65e-05	0	59	0	357564416	52	4755
2026-01-29 23:27:04.10	22.66	19.83	-40.2	-42.8	12.8	4.88e-05	0	59	0	360710144	52	4743
2026-01-29 23:27:05.11	22.71	19.96	-40.2	-42.7	12.9	3.81e-05	0	59	0	363855872	52	4686
2026-01-29 23:27:06.12	22.75	20.09	-40.3	-42.9	12.8	5.03e-05	0	59	0	367001600	52	4772
2026-01-29 23:27:07.13	22.80	20.22	-40.2	-42.7	12.9	5.26e-05	0	59	0	370147328	52	4682
2026-01-29 23:27:08.14	22.84	20.35	-40.2	-42.8	12.9	5.87e-05	0	59	0	373293056	52	4723
2026-01-29 23:27:09.15	22.89	20.48	-40.2	-42.7	12.9	3.96e-05	0	59	0	376438784	52	4681
2026-01-29 23:27:10.16	22.93	20.61	-40.1	-42.6	13.0	4.42e-05	0	59	0	379584512	52	4650
2026-01-29 23:27:11.18	22.98	20.75	-40.1	-42.6	13.0	3.66e-05	0	59	0	382730240	52	4633
2026-01-29 23:27:12.18	23.03	20.88	-40.1	-42.6	13.0	3.28e-05	0	59	0	385875968	52	4640
2026-01-29 23:27:13.19	23.07	21.01	-40.1	-42.6	13.1	3.73e-05	0	59	0	389021696	52	4634
2026-01-29 23:27:14.21	23.12	21.15	-40.1	-42.6	13.1	3.28e-05	0	59	0	392167424	52	4621
2026-01-29 23:27:15.22	23.17	21.29	-40.0	-42.5	13.2	3.20e-05	0	59	0	395313152	52	4559
2026-01-29 23:27:16.23	23.22	21.42	-40.0	-42.5	13.2	3.66e-05	0	59	0	398458880	52	4565
2026-01-29 23:27:17.24	23.27	21.56	-40.0	-42.4	13.3	1.44e-05	0	59	0	401604608	52	4537
2026-01-29 23:27:18.25	23.32	21.70	-40.0	-42.4	13.3	2.97e-05	0	59	0	404750336	52	4537
2026-01-29 23:27:19.26	23.37	21.84	-40.0	-42.4	13.4	1.22e-05	0	59	0	407896064	51	4788
2026-01-29 23:27:20.27	23.42	21.98	-39.9	-42.3	13.5	1.22e-05	0	59	0	411041792	51	4716
2026-01-29 23:27:21.28	23.47	22.12	-39.8	-42.1	13.8	3.80e-06	0	59	0	414187520	51	4608
2026-01-29 23:27:22.29	23.52	22.26	-39.9	-42.2	13.5	3.80e-06	0	59	0	417333248	51	4705
2026-01-29 23:27:23.30	23.57	22.40	-39.8	-42.1	13.7	6.10e-06	0	59	0	420478976	51	4611
2026-01-29 23:27:24.31	23.62	22.54	-39.7	-42.0	13.8	3.00e-06	0	59	0	423624704	51	4559
2026-01-29 23:27:25.32	23.67	22.68	-39.7	-41.9	14.0	1.50e-06	0	59	0	426770432	51	4498
2026-01-29 23:27:26.33	23.72	22.83	-39.6	-41.8	14.1	2.20e-06	0	59	0	429916160	51	4453
2026-01-29 23:27:27.34	23.78	22.97	-39.6	-41.7	14.1	3.00e-06	0	59	0	433061888	51	4433
2026-01-29 23:27:28.35	23.83	23.12	-39.5	-41.7	14.1	7.00e-07	0	59	0	436207616	51	4416
2026-01-29 23:27:29.36	23.88	23.27	-39.5	-41.6	14.3	7.00e-07	0	60	0	439353344	50	4626
2026-01-29 23:27:30.37	23.94	23.41	-39.6	-41.7	14.1	1.50e-06	0	59	0	442499072	50	4688
2026-01-29 23:27:31.38	23.99	23.56	-39.5	-41.7	14.2	1.50e-06	0	59	0	445644800	50	4667
2026-01-29 23:27:32.39	24.05	23.71	-39.4	-41.5	14.4	0.00e+00	0	59	0	448790528	50	4558
2026-01-29 23:27:33.40	24.10	23.86	-39.4	-41.6	14.3	2.20e-06	0	59	0	451936256	50	4599
2026-01-29 23:27:34.42	24.16	24.01	-39.4	-41.5	14.3	1.50e-06	0	59	0	455081984	50	4595
2026-01-29 23:27:35.43	24.22	24.16	-39.4	-41.5	14.3	1.50e-06	0	59	0	458227712	50	4576
2026-01-29 23:27:36.44	24.27	24.32	-39.4	-41.5	14.4	0.00e+00	0	60	0	461373440	50	4572
2026-01-29 23:27:37.45	24.33	24.47	-39.5	-41.6	14.3	1.50e-06	0	60	0	464519168	50	4636
2026-01-29 23:27:38.46	24.39	24.62	-39.5	-41.6	14.2	0.00e+00	0	60	0	467664896	50	4646
2026-01-29 23:27:39.47	24.45	24.78	-39.6	-41.7	14.1	2.20e-06	0	60	0	470810624	50	4704
2026-01-29 23:27:40.48	24.51	24.93	-39.6	-41.7	14.1	1.50e-06	0	60	0	473956352	50	4693
2026-01-29 23:27:41.49	24.57	25.09	-39.7	-41.8	14.1	1.50e-06	0	59	0	477102080	50	4753
2026-01-29 23:27:42.50	24.63	25.25	-39.7	-41.8	14.1	2.20e-06	0	60	0	480247808	50	4753
2026-01-29 23:27:43.51	24.69	25.41	-39.7	-41.9	13.9	2.20e-06	0	60	0	483393536	50	4812
2026-01-29 23:27:44.52	24.75	25.57	-39.7	-42.0	13.9	1.50e-06	0	60	0	486539264	50	4826
2026-01-29 23:27:45.53	24.81	25.73	-39.9	-42.2	13.7	5.30e-06	0	60	0	489684992	50	4943
2026-01-29 23:27:46.54	24.87	25.89	-40.0	-42.3	13.6	6.10e-06	0	60	0	492830720	50	4986
2026-01-29 23:27:47.55	24.94	26.05	-40.1	-42.4	13.5	1.37e-05	0	59	0	495976448	50	5097
2026-01-29 23:27:48.56	25.00	26.21	-40.1	-42.5	13.4	1.83e-05	0	60	0	499122176	50	5119
2026-01-29 23:27:49.57	25.07	26.38	-40.2	-42.6	13.3	1.52e-05	0	59	0	502267904	50	5160
2026-01-29 23:27:50.58	25.13	26.54	-40.2	-42.6	13.3	1.75e-05	0	60	0	505413632	50	5171
2026-01-29 23:27:51.59	25.20	26.71	-40.2	-42.6	13.3	1.67e-05	0	60	0	508559360	50	5210
2026-01-29 23:27:52.60	25.26	26.88	-40.3	-42.7	13.2	1.98e-05	0	59	0	511705088	51	4963
2026-01-29 23:27:53.61	25.33	27.05	-40.3	-42.8	13.1	2.89e-05	0	60	0	514850816	51	5027
2026-01-29 23:27:54.62	25.40	27.22	-40.4	-42.9	13.0	3.66e-05	0	60	0	517996544	51	5069
2026-01-29 23:27:55.63	25.47	27.39	-40.4	-43.0	12.9	4.80e-05	0	59	0	521142272	51	5101
2026-01-29 23:27:56.64	25.54	27.56	-40.6	-43.1	12.8	6.71e-05	0	59	0	524288000	51	5218
2026-01-29 23:27:57.65	25.60	27.73	-40.6	-43.2	12.8	6.94e-05	0	60	0	527433728	51	5219
2026-01-29 23:27:58.66	25.68	27.90	-40.6	-43.2	12.8	7.40e-05	0	59	0	530579456	51	5232
2026-01-29 23:27:59.67	25.75	28.08	-40.7	-43.4	12.6	8.77e-05	0	60	0	533725184	51	5363
2026-01-29 23:28:00.68	25.82	28.25	-40.7	-43.5	12.3	1.36e-04	0	59	0	536870912	52	5130
2026-01-29 23:28:01.69	25.89	28.43	-40.8	-43.6	12.3	1.56e-04	0	60	0	540016640	52	5170
2026-01-29 23:28:02.70	25.97	28.61	-40.8	-43.5	12.3	1.59e-04	0	60	0	543162368	52	5154
2026-01-29 23:28:03.71	26.04	28.79	-40.9	-43.7	12.2	1.90e-04	0	60	0	546308096	52	5221
2026-01-29 23:28:04.72	26.11	28.97	-40.9	-43.7	12.1	2.65e-04	0	60	0	549453824	52	5275
2026-01-29 23:28:05.73	26.19	29.15	-40.9	-43.7	12.2	2.59e-04	0	60	0	552599552	52	5238
2026-01-29 23:28:06.74	26.27	29.33	-40.9	-43.7	12.2	2.29e-04	0	60	0	555745280	52	5225
2026-01-29 23:28:07.75	26.34	29.51	-40.9	-43.7	12.2	2.29e-04	0	60	0	558891008	52	5240
2026-01-29 23:28:08.76	26.42	29.70	-40.8	-43.6	12.2	1.81e-04	0	60	0	562036736	52	5216
2026-01-29 23:28:09.77	26.50	29.88	-40.7	-43.4	12.5	1.34e-04	0	60	0	565182464	52	5045
2026-01-29 23:28:10.78	26.58	30.07	-40.6	-43.2	12.7	8.08e-05	0	60	0	568328192	52	4941
2026-01-29 23:28:11.79	26.66	30.26	-40.4	-43.0	12.9	6.56e-05	0	60	0	571473920	52	4850
2026-01-29 23:28:12.80	26.75	30.45	-40.3	-42.8	13.1	2.59e-05	0	60	0	574619648	52	4729
2026-01-29 23:28:13.81	26.83	30.64	-40.2	-42.6	13.4	1.75e-05	0	60	0	577765376	52	4607
2026-01-29 23:28:14.82	26.91	30.83	-40.1	-42.5	13.4	1.14e-05	0	60	0	580911104	52	4572
2026-01-29 23:28:15.83	27.00	31.02	-40.1	-42.5	13.4	1.22e-05	0	60	0	584056832	52	4577
2026-01-29 23:28:16.84	27.08	31.22	-40.1	-42.4	13.5	1.37e-05	0	60	0	587202560	52	4536
2026-01-29 23:28:17.86	27.17	31.41	-40.0	-42.3	13.6	3.00e-06	0	60	0	590348288	52	4470
2026-01-29 23:28:18.87	27.26	31.61	-40.1	-42.4	13.6	3.80e-06	0	60	0	593494016	51	4797
2026-01-29 23:28:19.88	27.35	31.81	-40.1	-42.4	13.5	9.90e-06	0	60	0	596639744	51	4804
2026-01-29 23:28:20.89	27.44	32.01	-40.2	-42.5	13.5	7.60e-06	0	60	0	599785472	51	4846
2026-01-29 23:28:21.90	27.53	32.21	-40.2	-42.6	13.4	2.36e-05	0	60	0	602931200	51	4895
2026-01-29 23:28:22.91	27.62	32.41	-40.3	-42.8	13.2	1.60e-05	0	60	0	606076928	51	4986
2026-01-29 23:28:23.92	27.71	32.61	-40.4	-42.9	13.1	3.73e-05	0	60	0	609222656	51	5093
2026-01-29 23:28:24.93	27.81	32.82	-40.5	-43.0	13.0	3.20e-05	0	60	0	612368384	51	5132
2026-01-29 23:28:25.94	27.90	33.02	-40.5	-43.1	12.9	4.27e-05	0	60	0	616562688	51	5176
2026-01-29 23:28:26.94	28.00	33.23	-40.5	-43.1	12.9	3.73e-05	0	60	0	618659840	51	5177
2026-01-29 23:28:27.95	28.09	33.43	-40.5	-43.0	13.0	3.96e-05	0	60	0	621805568	51	5133
2026-01-29 23:28:28.96	28.19	33.64	-40.5	-43.1	12.9	5.56e-05	0	60	0	624951296	51	5163
2026-01-29 23:28:29.97	28.29	33.85	-40.7	-43.3	12.7	8.31e-05	0	60	0	628097024	51	5303
2026-01-29 23:28:30.99	28.40	34.07	-40.7	-43.3	12.6	8.54e-05	0	60	0	632291328	52	5019
2026-01-29 23:28:32.00	28.50	34.28	-40.7	-43.4	12.5	1.24e-04	0	60	0	635437056	52	5069
2026-01-29 23:28:33.00	28.60	34.50	-40.8	-43.6	12.4	1.60e-04	0	60	0	638582784	52	5161
2026-01-29 23:28:34.02	28.71	34.71	-40.9	-43.6	12.3	1.85e-04	0	60	0	640679936	52	5217
2026-01-29 23:28:35.03	28.81	34.93	-41.0	-43.8	12.1	2.27e-04	0	60	0	644874240	52	5328
2026-01-29 23:28:36.04	28.92	35.15	-41.0	-43.8	12.1	2.55e-04	0	60	0	648019968	52	5321
2026-01-29 23:28:37.05	29.03	35.37	-41.1	-44.0	11.9	3.52e-04	0	60	0	651165696	52	5455
2026-01-29 23:28:38.06	29.14	35.59	-41.2	-44.2	11.7	5.62e-04	0	60	0	654311424	53	5257
2026-01-29 23:28:39.07	29.25	35.82	-41.2	-44.2	11.6	5.79e-04	0	60	0	657457152	53	5275
2026-01-29 23:28:40.08	29.37	36.04	-41.3	-44.3	11.5	7.22e-04	0	60	0	660602880	53	5325
2026-01-29 23:28:41.09	29.48	36.27	-41.3	-44.3	11.6	8.30e-04	0	60	0	663748608	53	5281
2026-01-29 23:28:42.11	29.60	36.50	-41.3	-44.3	11.5	8.41e-04	0	60	0	666894336	53	5335
2026-01-29 23:28:43.11	29.72	36.73	-41.3	-44.3	11.6	5.99e-04	0	60	0	670040064	53	5298
2026-01-29 23:28:44.13	29.84	36.96	-41.2	-44.1	11.8	5.45e-04	0	60	0	673185792	53	5203
2026-01-29 23:28:45.14	29.96	37.19	-41.2	-44.1	11.8	5.10e-04	0	60	0	676331520	53	5191
2026-01-29 23:28:46.15	30.08	37.43	-41.2	-44.2	11.8	4.96e-04	0	60	0	679477248	53	5227
2026-01-29 23:28:47.16	30.21	37.66	-41.2	-44.1	11.8	4.36e-04	0	60	0	682622976	53	5208
2026-01-29 23:28:48.17	30.34	37.90	-41.1	-44.0	11.9	3.56e-04	0	60	0	685768704	53	5142
2026-01-29 23:28:49.18	30.47	38.14	-41.0	-43.9	12.0	3.17e-04	0	60	0	688914432	53	5062
2026-01-29 23:28:50.19	30.60	38.38	-41.0	-43.8	12.1	2.97e-04	0	60	0	692060160	53	5029
2026-01-29 23:28:51.20	30.73	38.62	-41.1	-43.9	12.0	3.43e-04	0	60	0	695205888	53	5079
2026-01-29 23:28:52.21	30.86	38.86	-41.0	-43.8	12.1	2.65e-04	0	60	0	698351616	53	4985
2026-01-29 23:28:53.22	31.00	39.11	-41.1	-44.0	12.0	3.19e-04	0	60	0	701497344	53	5103
2026-01-29 23:28:54.23	31.14	39.36	-41.1	-44.1	11.8	4.37e-04	0	60	0	704643072	53	5176
2026-01-29 23:28:55.24	31.28	39.60	-41.2	-44.1	11.8	5.14e-04	0	60	0	707788800	53	5191
2026-01-29 23:28:56.25	31.42	39.85	-41.2	-44.1	11.8	4.22e-04	0	60	0	710934528	53	5178
2026-01-29 23:28:57.26	31.57	40.10	-41.3	-44.2	11.7	5.35e-04	0	60	0	714080256	53	5264
2026-01-29 23:28:58.28	31.71	40.36	-41.3	-44.3	11.7	6.13e-04	0	60	0	717225984	53	5296
2026-01-29 23:28:59.29	31.86	40.61	-41.4	-44.5	11.4	9.97e-04	0	60	0	720371712	53	5448
2026-01-29 23:29:00.30	32.02	40.87	-41.6	-44.7	11.2	1.06e-03	0	60	0	723517440	53	5590
2026-01-29 23:29:01.31	32.17	41.13	-41.8	-45.3	10.6	2.35e-03	0	60	0	726663168	54	5599
2026-01-29 23:29:02.32	32.33	41.39	-42.0	-45.5	10.4	3.89e-03	0	60	0	729808896	54	5785
2026-01-29 23:29:03.33	32.49	41.65	-42.1	-45.7	10.2	5.66e-03	0	60	0	732954624	54	5908
2026-01-29 23:29:04.34	32.65	41.91	-42.2	-45.9	10.0	6.98e-03	0	60	0	736100352	54	6040
2026-01-29 23:29:05.35	32.81	42.18	-42.2	-45.9	10.0	6.95e-03	0	60	0	739246080	54	6028
2026-01-29 23:29:06.36	32.98	42.44	-42.1	-45.7	10.2	6.30e-03	0	60	0	742391808	55	5530
2026-01-29 23:29:07.37	33.15	42.71	-42.0	-45.7	10.2	6.58e-03	0	60	0	745537536	55	5542
2026-01-29 23:29:08.38	33.32	42.98	-42.0	-45.6	10.3	5.72e-03	0	60	0	748683264	55	5520
2026-01-29 23:29:09.39	33.49	43.25	-42.2	-45.9	10.0	6.10e-03	0	60	0	751828992	55	5674
2026-01-29 23:29:10.40	33.67	43.52	-42.2	-45.9	10.0	7.39e-03	0	61	0	754974720	55	5699
2026-01-29 23:29:11.41	33.85	43.80	-42.3	-46.2	9.8	1.04e-02	0	60	0	758120448	55	5871
2026-01-29 23:29:12.42	34.04	44.07	-42.4	-46.4	9.5	1.31e-02	0	60	0	761266176	55	6003
2026-01-29 23:29:13.43	34.22	44.35	-42.4	-46.3	9.7	1.20e-02	0	60	0	764411904	55	5937
2026-01-29 23:29:14.44	34.41	44.63	-42.3	-46.1	9.8	8.89e-03	0	60	0	767557632	55	5832
2026-01-29 23:29:15.46	34.61	44.92	-42.2	-45.9	10.0	8.15e-03	0	61	0	770703360	55	5711
2026-01-29 23:29:16.47	34.81	45.20	-42.2	-46.0	9.9	9.82e-03	0	60	0	773849088	55	5740
2026-01-29 23:29:17.48	35.01	45.48	-42.2	-46.0	9.9	7.92e-03	0	60	0	776994816	55	5749
2026-01-29 23:29:18.49	35.21	45.77	-42.2	-45.9	9.9	8.85e-03	0	60	0	780140544	55	5711
2026-01-29 23:29:19.50	35.42	46.06	-42.1	-45.7	10.2	6.61e-03	0	60	0	783286272	55	5591
2026-01-29 23:29:20.51	35.63	46.35	-41.9	-45.3	10.6	4.11e-03	0	60	0	786432000	55	5316
2026-01-29 23:29:21.52	35.85	46.64	-41.6	-44.8	11.1	1.93e-03	0	60	0	789577728	55	5028
2026-01-29 23:29:22.53	36.07	46.93	-41.5	-44.6	11.4	1.09e-03	0	61	0	792723456	55	4886
2026-01-29 23:29:23.54	36.29	47.22	-41.5	-44.6	11.4	7.90e-04	0	60	0	795869184	54	5176
2026-01-29 23:29:24.55	36.52	47.52	-41.5	-44.6	11.5	9.24e-04	0	60	0	799014912	54	5168
2026-01-29 23:29:25.56	36.75	47.82	-41.4	-44.3	11.7	6.48e-04	0	61	0	802160640	54	5035
2026-01-29 23:29:26.57	36.99	48.12	-41.3	-44.2	11.9	4.83e-04	0	61	0	805306368	54	4953
2026-01-29 23:29:27.58	37.23	48.42	-41.1	-43.9	12.1	2.33e-04	0	61	0	808452096	54	4804
2026-01-29 23:29:28.59	37.47	48.72	-41.0	-43.8	12.2	2.00e-04	0	60	0	811597824	54	4733
2026-01-29 23:29:29.60	37.72	49.02	-41.1	-43.8	12.2	2.09e-04	0	60	0	814743552	54	4759
2026-01-29 23:29:30.61	37.98	49.33	-41.3	-44.2	11.9	4.15e-04	0	60	0	817889280	54	4953
2026-01-29 23:29:31.62	38.24	49.63	-41.4	-44.4	11.5	6.40e-04	0	60	0	821035008	54	5094
2026-01-29 23:29:32.64	38.51	49.95	-41.5	-44.6	11.5	7.77e-04	0	60	0	824180736	54	5167
2026-01-29 23:29:33.64	38.78	50.25	-41.5	-44.6	11.4	1.10e-03	0	60	0	827326464	54	5195
2026-01-29 23:29:34.66	39.06	50.57	-41.6	-44.8	11.2	1.10e-03	0	61	0	830472192	54	5299
2026-01-29 23:29:35.66	39.34	50.88	-41.7	-45.0	11.1	1.48e-03	0	60	0	833617920	54	5404
2026-01-29 23:29:36.67	39.62	51.19	-41.8	-45.2	10.9	2.05e-03	0	61	0	836763648	54	5547
2026-01-29 23:29:37.68	39.92	51.50	-41.9	-45.4	10.7	2.72e-03	0	60	0	839909376	54	5673
2026-01-29 23:29:38.70	40.22	51.82	-41.8	-45.2	10.8	2.69e-03	0	60	0	843055104	54	5568
2026-01-29 23:29:39.70	40.53	52.14	-41.7	-44.9	11.1	1.89e-03	0	60	0	846200832	54	5388
2026-01-29 23:29:40.72	40.84	52.46	-41.5	-44.6	11.4	9.93e-04	0	60	0	849346560	54	5178
2026-01-29 23:29:41.73	41.16	52.78	-41.4	-44.4	11.7	6.41e-04	0	60	0	852492288	54	5053
2026-01-29 23:29:42.74	41.49	53.10	-41.2	-44.0	12.1	3.52e-04	0	60	0	855638016	54	4839
2026-01-29 23:29:43.75	41.83	53.43	-41.2	-44.0	12.1	3.07e-04	0	61	0	858783744	54	4849
2026-01-29 23:29:44.76	42.17	53.75	-41.3	-44.2	11.9	3.22e-04	0	61	0	861929472	54	4948
2026-01-29 23:29:45.77	42.52	54.07	-41.3	-44.3	11.7	5.21e-04	0	61	0	865075200	54	5025
2026-01-29 23:29:46.78	42.87	54.40	-41.4	-44.4	11.7	5.84e-04	0	60	0	868220928	54	5076
2026-01-29 23:29:47.79	43.24	54.73	-41.4	-44.4	11.7	5.81e-04	0	60	0	871366656	54	5059
2026-01-29 23:29:48.80	43.61	55.06	-41.3	-44.3	11.9	6.18e-04	0	61	0	874512384	54	4991
2026-01-29 23:29:49.82	44.00	55.39	-41.2	-44.2	11.9	3.25e-04	0	60	0	877658112	54	4932
2026-01-29 23:29:50.83	44.39	55.72	-40.9	-43.5	12.5	1.33e-04	0	60	0	881852416	53	4870
2026-01-29 23:29:51.84	44.79	56.05	-40.7	-43.3	12.7	7.47e-05	0	60	0	884998144	53	4758
2026-01-29 23:29:52.85	45.21	56.38	-40.7	-43.4	12.7	7.32e-05	0	60	0	887095296	53	4762
2026-01-29 23:29:53.86	45.63	56.71	-40.7	-43.3	12.8	7.47e-05	0	60	0	890241024	53	4726
2026-01-29 23:29:54.87	46.06	57.04	-40.8	-43.4	12.7	6.48e-05	0	61	0	893386752	53	4801
2026-01-29 23:29:55.88	46.50	57.37	-40.6	-43.1	13.0	5.26e-05	0	61	0	897581056	53	4627
2026-01-29 23:29:56.89	46.95	57.70	-40.6	-43.1	13.0	5.64e-05	0	60	0	900726784	53	4625
2026-01-29 23:29:57.90	47.41	58.04	-40.4	-42.8	13.2	1.90e-05	0	60	0	903872512	52	4747
2026-01-29 23:29:58.92	47.89	58.37	-40.2	-42.6	13.5	1.44e-05	0	60	0	907018240	52	4626
2026-01-29 23:29:59.93	48.38	58.71	-40.2	-42.5	13.5	9.10e-06	0	61	0	909115392	52	4571
2026-01-29 23:30:00.94	48.88	59.04	-40.0	-42.3	13.8	5.30e-06	0	61	0	913309696	52	4447
2026-01-29 23:30:01.95	49.39	59.37	-40.0	-42.3	13.9	3.00e-06	0	60	0	916455424	51	4721
2026-01-29 23:30:02.96	49.92	59.70	-39.9	-42.0	14.2	7.00e-07	0	61	0	919601152	51	4572
2026-01-29 23:30:03.97	50.45	60.04	-39.9	-42.1	14.1	4.50e-06	0	60	0	922746880	51	4608
2026-01-29 23:30:04.98	51.01	60.37	-39.8	-41.9	14.1	2.20e-06	0	61	0	925892608	51	4526
2026-01-29 23:30:05.99	51.57	60.70	-39.6	-41.7	14.5	1.50e-06	0	61	0	929038336	51	4393
2026-01-29 23:30:07.00	52.16	61.03	-39.4	-41.4	14.8	0.00e+00	0	61	0	932184064	50	4521
2026-01-29 23:30:08.01	52.75	61.36	-39.4	-41.3	14.8	0.00e+00	0	61	0	935329792	50	4492
2026-01-29 23:30:09.02	53.37	61.68	-39.5	-41.6	14.6	0.00e+00	0	61	0	938475520	50	4605
2026-01-29 23:30:10.03	54.00	62.01	-39.6	-41.6	14.6	7.00e-07	0	61	0	941621248	50	4631
2026-01-29 23:30:11.04	54.64	62.34	-39.4	-41.3	14.8	0.00e+00	0	61	0	944766976	50	4489
2026-01-29 23:30:12.05	55.31	62.66	-39.2	-41.1	15.1	0.00e+00	0	61	0	947912704	50	4364
2026-01-29 23:30:13.06	55.99	62.98	-39.2	-41.1	15.1	0.00e+00	0	60	0	951058432	50	4366
2026-01-29 23:30:14.07	56.69	63.30	-39.3	-41.3	14.9	0.00e+00	0	61	0	954204160	50	4456
2026-01-29 23:30:15.08	57.41	63.62	-39.2	-41.1	15.1	0.00e+00	0	61	0	957349888	50	4384
2026-01-29 23:30:16.09	58.15	63.94	-39.0	-40.9	15.3	0.00e+00	0	60	0	960495616	50	4271
2026-01-29 23:30:17.10	58.91	64.25	-39.1	-41.0	15.2	0.00e+00	0	60	0	963641344	50	4300
2026-01-29 23:30:18.11	59.69	64.56	-39.1	-41.0	15.1	7.00e-07	0	61	0	966787072	50	4318
2026-01-29 23:30:19.12	60.49	64.87	-38.9	-40.8	15.3	0.00e+00	0	61	0	969932800	50	4218
2026-01-29 23:30:20.14	61.32	65.17	-38.7	-40.5	15.5	0.00e+00	0	61	0	973078528	49	4335
2026-01-29 23:30:21.15	62.16	65.47	-38.6	-40.4	15.7	0.00e+00	0	60	0	976224256	49	4271
2026-01-29 23:30:22.16	63.03	65.77	-38.9	-40.7	15.4	0.00e+00	0	61	0	979369984	49	4420
2026-01-29 23:30:23.17	63.92	66.06	-39.1	-41.1	15.1	0.00e+00	0	61	0	982515712	49	4623
2026-01-29 23:30:24.18	64.84	66.35	-39.1	-41.0	15.2	7.00e-07	0	60	0	985661440	49	4553
2026-01-29 23:30:25.19	65.78	66.63	-39.1	-41.0	15.1	7.00e-07	0	61	0	988807168	49	4584
2026-01-29 23:30:26.20	66.75	66.91	-39.2	-41.1	15.0	0.00e+00	0	60	0	991952896	49	4633
2026-01-29 23:30:27.21	67.74	67.19	-39.3	-41.3	14.9	0.00e+00	0	61	0	995098624	49	4723
2026-01-29 23:30:28.22	68.76	67.45	-39.4	-41.5	14.7	0.00e+00	0	61	0	998244352	49	4815
2026-01-29 23:30:29.24	69.81	67.72	-39.2	-41.2	14.9	0.00e+00	0	61	0	1001390080	49	4678
2026-01-29 23:30:30.25	70.88	67.98	-38.9	-40.7	15.4	0.00e+00	0	61	0	1004535808	49	4438
2026-01-29 23:30:31.26	71.98	68.22	-38.9	-40.8	15.3	0.00e+00	0	61	0	1007681536	49	4457
2026-01-29 23:30:32.27	73.11	68.47	-39.0	-40.9	15.3	7.00e-07	0	61	0	1010827264	49	4500
2026-01-29 23:30:33.28	74.26	68.70	-38.9	-40.7	15.4	0.00e+00	0	61	0	1013972992	49	4419
2026-01-29 23:30:34.28	75.43	68.93	-38.8	-40.6	15.5	0.00e+00	0	61	0	1017118720	49	4386
2026-01-29 23:30:35.30	76.65	69.15	-39.0	-41.0	15.2	0.00e+00	0	61	0	1020264448	49	4552
2026-01-29 23:30:36.31	77.88	69.36	-39.2	-41.2	14.9	0.00e+00	0	61	0	1023410176	49	4698
2026-01-29 23:30:37.32	79.14	69.57	-39.3	-41.3	14.8	0.00e+00	0	61	0	1026555904	49	4753
2026-01-29 23:30:38.33	80.43	69.76	-39.4	-41.4	14.6	0.00e+00	0	60	0	1029701632	49	4805
2026-01-29 23:30:39.34	81.75	69.95	-39.3	-41.3	14.8	0.00e+00	0	61	0	1032847360	49	4713
2026-01-29 23:30:40.35	83.09	70.12	-39.3	-41.3	14.8	0.00e+00	0	61	0	1035993088	49	4733
2026-01-29 23:30:41.36	84.45	70.29	-39.1	-41.1	15.0	0.00e+00	0	61	0	1039138816	49	4627
2026-01-29 23:30:42.37	85.84	70.44	-38.9	-40.7	15.3	0.00e+00	0	61	0	1042284544	49	4438
2026-01-29 23:30:43.38	87.25	70.59	-38.8	-40.7	15.4	0.00e+00	0	61	0	1045430272	49	4408
2026-01-29 23:30:44.39	88.68	70.72	-38.9	-40.7	15.3	0.00e+00	0	60	0	1048576000	49	4427
2026-01-29 23:30:45.40	90.14	70.85	-38.9	-40.8	15.3	0.00e+00	0	61	0	1051721728	49	4484
2026-01-29 23:30:46.41	91.61	70.96	-38.7	-40.5	15.5	0.00e+00	0	60	0	1054867456	49	4325
2026-01-29 23:30:47.42	93.10	71.06	-38.9	-40.8	15.3	0.00e+00	0	61	0	1058013184	49	4454
2026-01-29 23:30:48.43	94.61	71.14	-39.3	-41.3	14.8	0.00e+00	0	61	0	1061158912	49	4707
2026-01-29 23:30:49.44	96.13	71.22	-39.4	-41.4	14.7	0.00e+00	0	61	0	1064304640	49	4781
2026-01-29 23:30:50.45	97.66	71.28	-39.1	-41.0	15.1	7.00e-07	0	61	0	1067450368	49	4589
2026-01-29 23:30:51.46	99.20	71.33	-39.1	-41.0	15.0	0.00e+00	0	60	0	1070596096	49	4573
2026-01-29 23:30:52.47	100.75	71.37	-39.3	-41.3	14.8	0.00e+00	0	61	0	1073741824	49	4717
2026-01-29 23:30:53.48	102.30	71.39	-39.1	-41.1	15.1	0.00e+00	0	61	0	1076887552	49	4613
2026-01-29 23:30:54.49	103.86	71.40	-39.0	-40.9	15.2	0.00e+00	0	61	0	1080033280	49	4513
2026-01-29 23:30:55.50	105.42	71.40	-38.8	-40.6	15.4	0.00e+00	0	61	0	1083179008	49	4382
2026-01-29 23:30:56.51	106.98	71.39	-39.1	-41.0	15.1	0.00e+00	0	61	0	1086324736	49	4566
2026-01-29 23:30:57.52	108.53	71.36	-39.4	-41.5	14.7	0.00e+00	0	60	0	1089470464	49	4823
2026-01-29 23:30:58.53	110.08	71.32	-39.6	-41.8	14.4	7.00e-07	0	61	0	1092616192	49	4991
2026-01-29 23:30:59.54	111.62	71.27	-39.5	-41.7	14.4	3.00e-06	0	61	0	1095761920	49	4927
2026-01-29 23:31:00.55	113.15	71.20	-39.4	-41.4	14.7	0.00e+00	0	61	0	1098907648	49	4804
2026-01-29 23:31:01.56	114.67	71.13	-39.3	-41.3	14.8	7.00e-07	0	61	0	1102053376	49	4754
2026-01-29 23:31:02.57	116.17	71.04	-39.2	-41.2	14.9	0.00e+00	0	61	0	1105199104	49	4679
2026-01-29 23:31:03.58	117.66	70.93	-39.3	-41.3	14.8	1.50e-06	0	61	0	1108344832	49	4739
2026-01-29 23:31:04.59	119.13	70.82	-39.7	-41.9	14.2	2.20e-06	0	61	0	1111490560	49	5075
2026-01-29 23:31:05.60	120.58	70.70	-39.4	-41.5	14.6	0.00e+00	0	61	0	1114636288	50	4561
2026-01-29 23:31:06.61	122.01	70.56	-39.3	-41.3	14.8	0.00e+00	0	61	0	1117782016	50	4474
2026-01-29 23:31:07.62	123.41	70.41	-39.6	-41.8	14.4	7.00e-07	0	61	0	1120927744	50	4725
2026-01-29 23:31:08.63	124.80	70.25	-39.7	-41.9	14.2	0.00e+00	0	60	0	1124073472	50	4796
2026-01-29 23:31:09.64	126.16	70.09	-39.7	-41.9	14.2	2.20e-06	0	61	0	1127219200	50	4794
2026-01-29 23:31:10.64	127.48	69.91	-39.7	-41.8	14.3	0.00e+00	0	61	0	1130364928	50	4735
2026-01-29 23:31:11.65	128.79	69.72	-39.4	-41.5	14.6	0.00e+00	0	61	0	1133510656	50	4558
2026-01-29 23:31:12.66	130.08	69.53	-38.9	-40.8	15.3	0.00e+00	0	61	0	1136656384	49	4460
2026-01-29 23:31:13.67	131.33	69.32	-38.8	-40.6	15.6	0.00e+00	0	61	0	1139802112	49	4351
2026-01-29 23:31:14.69	132.58	69.10	-39.1	-41.0	15.1	0.00e+00	0	61	0	1142947840	49	4574
2026-01-29 23:31:15.70	133.78	68.88	-39.4	-41.5	14.6	7.00e-07	0	61	0	1146093568	49	4841
2026-01-29 23:31:16.71	134.96	68.65	-39.5	-41.7	14.4	7.00e-07	0	60	0	1149239296	49	4933
2026-01-29 23:31:17.71	136.09	68.42	-39.2	-41.3	14.9	7.00e-07	0	61	0	1152385024	49	4707
2026-01-29 23:31:18.72	137.21	68.17	-38.8	-40.6	15.5	0.00e+00	0	61	0	1155530752	49	4377
2026-01-29 23:31:19.73	138.31	67.92	-38.8	-40.6	15.5	0.00e+00	0	61	0	1158676480	49	4358
2026-01-29 23:31:20.74	139.37	67.66	-38.8	-40.6	15.4	0.00e+00	0	61	0	1161822208	49	4385
2026-01-29 23:31:21.75	140.42	67.40	-39.5	-41.6	14.5	0.00e+00	0	61	0	1164967936	49	4912
2026-01-29 23:31:22.76	141.43	67.13	-39.9	-42.2	13.9	4.50e-06	0	61	0	1168113664	50	4965
2026-01-29 23:31:23.77	142.42	66.85	-39.4	-41.4	14.6	0.00e+00	0	61	0	1171259392	50	4544
2026-01-29 23:31:24.78	143.38	66.57	-38.6	-40.3	15.7	0.00e+00	0	61	0	1175453696	49	4234
2026-01-29 23:31:25.79	144.32	66.29	-38.3	-39.9	16.2	0.00e+00	0	61	0	1178599424	48	4289
2026-01-29 23:31:26.80	145.23	66.00	-38.7	-40.5	15.6	0.00e+00	0	61	0	1180696576	48	4582
2026-01-29 23:31:27.81	146.12	65.70	-39.4	-41.4	14.7	0.00e+00	0	61	0	1183842304	49	4802
2026-01-29 23:31:28.82	146.98	65.40	-40.2	-42.6	13.6	7.60e-06	0	60	0	1186988032	51	4905
2026-01-29 23:31:29.83	147.83	65.10	-40.1	-42.5	13.6	1.44e-05	0	61	0	1191182336	51	4820
2026-01-29 23:31:30.84	148.65	64.80	-39.3	-41.2	14.9	0.00e+00	0	60	0	1194328064	50	4437
2026-01-29 23:31:31.85	149.44	64.49	-38.5	-40.3	15.9	0.00e+00	0	61	0	1197473792	49	4198
2026-01-29 23:31:32.86	150.22	64.18	-38.6	-40.4	15.8	0.00e+00	0	60	0	1200619520	49	4250
2026-01-29 23:31:33.87	150.98	63.86	-39.4	-41.4	14.7	0.00e+00	0	61	0	1202716672	49	4806
2026-01-29 23:31:34.88	151.71	63.55	-40.5	-43.0	13.1	7.60e-06	0	60	0	1206910976	51	5148
2026-01-29 23:31:35.89	152.43	63.23	-41.1	-44.1	12.0	2.82e-04	0	61	0	1210056704	52	5474
2026-01-29 23:31:36.90	153.13	62.91	-40.7	-43.3	12.7	1.43e-04	0	61	0	1213202432	52	5013
2026-01-29 23:31:37.91	153.81	62.58	-39.9	-42.2	14.0	9.10e-06	0	61	0	1216348160	51	4658
2026-01-29 23:31:38.92	154.47	62.26	-39.0	-40.9	15.3	0.00e+00	0	61	0	1219493888	50	4264
2026-01-29 23:31:39.93	155.11	61.93	-38.9	-40.7	15.5	0.00e+00	0	61	0	1222639616	49	4410
2026-01-29 23:31:40.94	155.74	61.60	-39.4	-41.4	14.7	0.00e+00	0	61	0	1225785344	49	4760
2026-01-29 23:31:41.95	156.35	61.27	-40.2	-42.6	13.4	4.50e-06	0	60	0	1228931072	51	4896
2026-01-29 23:31:42.96	156.95	60.94	-40.7	-43.3	12.8	5.79e-05	0	61	0	1232076800	51	5327
2026-01-29 23:31:43.97	157.53	60.61	-40.3	-42.7	13.4	2.44e-05	0	60	0	1235222528	51	4959
2026-01-29 23:31:44.98	158.09	60.28	-39.4	-41.4	14.7	0.00e+00	0	61	0	1238368256	50	4508
2026-01-29 23:31:45.99	158.64	59.95	-38.8	-40.6	15.6	0.00e+00	0	61	0	1241513984	49	4347
2026-01-29 23:31:47.00	159.18	59.61	-38.9	-40.7	15.5	0.00e+00	0	61	0	1244659712	49	4423
2026-01-29 23:31:48.01	159.70	59.28	-39.6	-41.6	14.5	0.00e+00	0	61	0	1247805440	49	4902
2026-01-29 23:31:49.03	160.22	58.94	-40.6	-43.1	13.0	1.14e-05	0	61	0	1250951168	51	5177
2026-01-29 23:31:50.04	160.71	58.61	-41.2	-44.2	11.9	3.59e-04	0	61	0	1254096896	52	5552
2026-01-29 23:31:51.05	161.20	58.27	-41.1	-44.1	12.0	4.25e-04	0	61	0	1257242624	53	5163
2026-01-29 23:31:52.06	161.67	57.94	-40.7	-43.3	12.7	1.04e-04	0	61	0	1260388352	53	4723
2026-01-29 23:31:53.07	162.13	57.61	-40.1	-42.5	13.6	8.30e-06	0	61	0	1263534080	52	4565
2026-01-29 23:31:54.08	162.58	57.27	-40.0	-42.2	14.1	1.50e-06	0	61	0	1266679808	51	4658
2026-01-29 23:31:55.09	163.02	56.94	-39.5	-41.6	14.6	0.00e+00	0	61	0	1269825536	51	4362
2026-01-29 23:31:56.10	163.45	56.61	-39.9	-42.1	14.0	7.00e-07	0	61	0	1272971264	51	4603
2026-01-29 23:31:57.11	163.87	56.27	-40.7	-43.3	12.7	3.58e-05	0	61	0	1276116992	52	4992
2026-01-29 23:31:58.12	164.28	55.94	-41.5	-44.6	11.2	8.50e-04	0	61	0	1279262720	53	5516
2026-01-29 23:31:59.13	164.68	55.61	-41.6	-44.9	11.1	1.80e-03	0	61	0	1282408448	54	5365
2026-01-29 23:32:00.15	165.07	55.28	-41.1	-43.9	12.0	6.28e-04	0	61	0	1285554176	54	4809
2026-01-29 23:32:01.16	165.46	54.95	-40.6	-43.2	12.7	1.16e-04	0	61	0	1288699904	53	4689
2026-01-29 23:32:02.17	165.83	54.62	-40.3	-42.7	13.4	2.28e-05	0	61	0	1291845632	52	4701
2026-01-29 23:32:03.18	166.19	54.29	-40.0	-42.2	13.9	6.80e-06	0	61	0	1294991360	52	4436
2026-01-29 23:32:04.19	166.55	53.96	-40.2	-42.6	13.6	1.14e-05	0	61	0	1298137088	52	4600
2026-01-29 23:32:05.20	166.90	53.64	-40.5	-43.0	13.0	2.21e-05	0	61	0	1301282816	52	4862
2026-01-29 23:32:06.21	167.24	53.31	-41.0	-43.8	12.2	1.41e-04	0	61	0	1304428544	52	5318
2026-01-29 23:32:07.22	167.57	52.99	-41.5	-44.6	11.4	4.93e-04	0	61	0	1307574272	53	5506
2026-01-29 23:32:08.23	167.90	52.67	-41.7	-44.9	11.1	1.43e-03	0	61	0	1310720000	53	5710
2026-01-29 23:32:09.24	168.22	52.35	-41.6	-44.9	11.1	1.54e-03	0	61	0	1313865728	53	5676
2026-01-29 23:32:10.25	168.53	52.02	-41.7	-44.9	11.1	2.02e-03	0	61	0	1317011456	53	5707
2026-01-29 23:32:11.26	168.84	51.71	-41.4	-44.4	11.6	9.76e-04	0	61	0	1320157184	53	5396
2026-01-29 23:32:12.27	169.14	51.39	-41.0	-43.8	12.2	2.33e-04	0	61	0	1323302912	53	5003
2026-01-29 23:32:13.28	169.43	51.07	-40.7	-43.3	12.7	7.85e-05	0	61	0	1326448640	53	4758
2026-01-29 23:32:14.29	169.72	50.76	-40.9	-43.6	12.4	9.30e-05	0	61	0	1329594368	53	4903
2026-01-29 23:32:15.30	170.00	50.44	-41.2	-44.2	11.8	2.26e-04	0	61	0	1332740096	53	5237
2026-01-29 23:32:16.32	170.28	50.13	-41.9	-45.3	10.7	2.01e-03	0	61	0	1335885824	54	5612
2026-01-29 23:32:17.33	170.55	49.82	-42.1	-45.8	10.1	6.33e-03	0	61	0	1339031552	54	5974
2026-01-29 23:32:18.34	170.81	49.51	-42.1	-45.7	10.3	5.75e-03	0	61	0	1342177280	54	5923
2026-01-29 23:32:19.35	171.07	49.20	-42.1	-45.8	10.2	5.94e-03	0	61	0	1345323008	54	5946
2026-01-29 23:32:20.36	171.33	48.89	-42.0	-45.6	10.3	4.77e-03	0	61	0	1348468736	54	5843
2026-01-29 23:32:21.37	171.58	48.59	-41.9	-45.3	10.7	4.17e-03	0	61	0	1351614464	54	5623
2026-01-29 23:32:22.38	171.82	48.29	-41.5	-44.6	11.3	1.34e-03	0	61	0	1354760192	54	5214
2026-01-29 23:32:23.39	172.06	47.98	-41.5	-44.6	11.3	1.11e-03	0	61	0	1357905920	54	5187
2026-01-29 23:32:24.40	172.30	47.68	-41.6	-44.9	11.1	1.39e-03	0	61	0	1361051648	54	5363
2026-01-29 23:32:25.41	172.53	47.39	-41.8	-45.1	10.8	2.38e-03	0	61	0	1364197376	54	5519
2026-01-29 23:32:26.42	172.75	47.09	-41.8	-45.2	10.7	3.21e-03	0	61	0	1367343104	54	5549
2026-01-29 23:32:27.43	172.98	46.79	-41.7	-45.0	10.9	2.31e-03	0	61	0	1370488832	54	5406
2026-01-29 23:32:28.44	173.20	46.50	-41.9	-45.3	10.6	3.17e-03	0	61	0	1373634560	54	5635
2026-01-29 23:32:29.45	173.41	46.21	-41.9	-45.4	10.5	3.45e-03	0	61	0	1376780288	54	5705
2026-01-29 23:32:30.46	173.62	45.92	-42.0	-45.5	10.5	4.44e-03	0	61	0	1379926016	54	5746
2026-01-29 23:32:31.47	173.83	45.63	-41.9	-45.3	10.7	3.36e-03	0	61	0	1383071744	54	5618
2026-01-29 23:32:32.48	174.03	45.34	-41.9	-45.3	10.6	2.99e-03	0	61	0	1386217472	54	5641
2026-01-29 23:32:33.50	174.23	45.05	-42.1	-45.8	10.2	4.99e-03	0	61	0	1389363200	54	5931
2026-01-29 23:32:34.51	174.43	44.77	-42.4	-46.4	9.5	1.44e-02	0	61	0	1392508928	55	6049
2026-01-29 23:32:35.52	174.62	44.49	-42.5	-46.6	9.2	2.00e-02	0	61	0	1395654656	55	6187
2026-01-29 23:32:36.53	174.81	44.21	-42.3	-46.1	9.7	1.27e-02	0	61	0	1398800384	55	5855
2026-01-29 23:32:37.54	175.00	43.93	-42.0	-45.7	10.2	6.98e-03	0	61	0	1401946112	55	5534
2026-01-29 23:32:38.55	175.18	43.65	-42.0	-45.6	10.3	5.22e-03	0	61	0	1405091840	55	5474
2026-01-29 23:32:39.56	175.36	43.38	-41.9	-45.3	10.7	3.39e-03	0	61	0	1408237568	55	5313
2026-01-29 23:32:40.57	175.54	43.10	-41.7	-45.1	10.9	2.35e-03	0	61	0	1411383296	55	5162
2026-01-29 23:32:41.58	175.71	42.83	-41.9	-45.5	10.4	3.91e-03	0	61	0	1414529024	55	5444
2026-01-29 23:32:42.59	175.89	42.56	-42.0	-45.6	10.3	5.12e-03	0	61	0	1417674752	55	5501
2026-01-29 23:32:43.60	176.05	42.29	-41.9	-45.4	10.4	4.99e-03	0	61	0	1420820480	55	5370
2026-01-29 23:32:44.61	176.22	42.03	-41.8	-45.4	10.5	3.97e-03	0	61	0	1423966208	55	5343
2026-01-29 23:32:45.62	176.38	41.76	-41.8	-45.2	10.7	2.92e-03	0	61	0	1427111936	55	5225
2026-01-29 23:32:46.62	176.54	41.50	-41.5	-44.7	11.2	1.94e-03	0	61	0	1430257664	55	4981
2026-01-29 23:32:47.63	176.70	41.24	-41.3	-44.4	11.5	8.15e-04	0	61	0	1433403392	54	5048
2026-01-29 23:32:48.65	176.86	40.97	-41.3	-44.3	11.6	6.91e-04	0	61	0	1436549120	54	5013
2026-01-29 23:32:49.66	177.01	40.72	-41.3	-44.4	11.5	7.92e-04	0	61	0	1439694848	54	5067
2026-01-29 23:32:50.67	177.16	40.46	-41.5	-44.7	11.2	1.14e-03	0	61	0	1442840576	54	5248
2026-01-29 23:32:51.68	177.31	40.20	-41.8	-45.2	10.7	2.36e-03	0	61	0	1445986304	54	5588
2026-01-29 23:32:52.69	177.46	39.95	-42.0	-45.5	10.3	4.37e-03	0	61	0	1449132032	54	5781
2026-01-29 23:32:53.70	177.60	39.70	-42.0	-45.6	10.3	5.62e-03	0	61	0	1452277760	54	5821
2026-01-29 23:32:54.71	177.74	39.45	-41.8	-45.3	10.6	3.69e-03	0	61	0	1455423488	54	5630
2026-01-29 23:32:55.72	177.88	39.20	-41.6	-44.9	11.0	2.48e-03	0	61	0	1458569216	54	5402
2026-01-29 23:32:56.73	178.02	38.95	-41.4	-44.6	11.4	1.36e-03	0	61	0	1462763520	54	5182
2026-01-29 23:32:57.74	178.16	38.70	-41.5	-44.7	11.3	1.04e-03	0	61	0	1465909248	54	5222
2026-01-29 23:32:58.75	178.29	38.46	-41.3	-44.2	11.7	6.23e-04	0	61	0	1469054976	54	4977
2026-01-29 23:32:59.76	178.42	38.22	-41.2	-44.2	11.7	5.74e-04	0	61	0	1471152128	54	4963
2026-01-29 23:33:00.77	178.55	37.98	-41.2	-44.1	11.7	5.60e-04	0	61	0	1474297856	54	4908
2026-01-29 23:33:01.78	178.68	37.74	-41.1	-44.0	11.9	3.97e-04	0	61	0	1478492160	54	4840
2026-01-29 23:33:02.79	178.81	37.50	-40.9	-43.8	12.0	3.82e-04	0	61	0	1481637888	53	5009
2026-01-29 23:33:03.81	178.93	37.26	-41.0	-43.9	12.0	3.10e-04	0	61	0	1484783616	53	5065
2026-01-29 23:33:04.82	179.06	37.03	-41.0	-43.8	12.1	3.01e-04	0	61	0	1487929344	53	5031
2026-01-29 23:33:05.83	179.18	36.79	-41.0	-43.9	12.0	3.36e-04	0	61	0	1491075072	53	5061
2026-01-29 23:33:06.84	179.30	36.56	-41.1	-44.0	11.9	4.13e-04	0	61	0	1494220800	53	5139
2026-01-29 23:33:07.85	179.41	36.33	-41.0	-43.9	11.9	3.65e-04	0	61	0	1497366528	53	5098
2026-01-29 23:33:08.85	179.53	36.10	-40.9	-43.7	12.2	2.39e-04	0	61	0	1500512256	53	4928
2026-01-29 23:33:09.86	179.64	35.88	-40.7	-43.4	12.5	1.56e-04	0	61	0	1503657984	53	4801
2026-01-29 23:33:10.88	179.76	35.65	-40.6	-43.3	12.7	9.99e-05	0	61	0	1506803712	53	4727
2026-01-29 23:33:11.89	179.87	35.42	-40.7	-43.4	12.5	1.26e-04	0	61	0	1509949440	53	4800
2026-01-29 23:33:12.90	179.98	35.20	-40.9	-43.7	12.2	1.61e-04	0	61	0	1513095168	53	4942
2026-01-29 23:33:13.91	180.09	34.98	-40.9	-43.8	12.1	2.46e-04	0	61	0	1516240896	53	5018
2026-01-29 23:33:14.92	180.20	34.76	-41.1	-44.1	11.8	4.51e-04	0	61	0	1519386624	53	5176
2026-01-29 23:33:15.93	180.30	34.54	-41.3	-44.5	11.4	9.65e-04	0	61	0	1522532352	53	5414
2026-01-29 23:33:16.94	180.41	34.32	-41.5	-44.7	11.1	1.54e-03	0	61	0	1525678080	53	5583
2026-01-29 23:33:17.96	180.51	34.11	-41.5	-44.9	11.0	1.76e-03	0	61	0	1528823808	53	5684
2026-01-29 23:33:18.97	180.61	33.89	-41.5	-44.8	11.0	1.77e-03	0	61	0	1531969536	53	5651
2026-01-29 23:33:19.98	180.71	33.68	-41.3	-44.4	11.4	1.14e-03	0	61	0	1535115264	53	5389
2026-01-29 23:33:20.99	180.81	33.47	-41.0	-43.9	11.9	4.40e-04	0	61	0	1538260992	53	5078
2026-01-29 23:33:22.00	180.91	33.26	-40.9	-43.7	12.2	2.55e-04	0	61	0	1541406720	53	4965
2026-01-29 23:33:23.01	181.01	33.05	-40.7	-43.4	12.5	1.08e-04	0	61	0	1544552448	53	4778
2026-01-29 23:33:24.02	181.10	32.84	-40.5	-43.1	12.7	7.93e-05	0	61	0	1547698176	53	4643
2026-01-29 23:33:25.03	181.20	32.63	-40.4	-43.0	12.9	5.34e-05	0	61	0	1550843904	52	4849
2026-01-29 23:33:26.04	181.29	32.43	-40.5	-43.1	12.8	4.65e-05	0	61	0	1553989632	52	4895
2026-01-29 23:33:27.05	181.38	32.23	-40.4	-42.9	13.0	4.42e-05	0	61	0	1557135360	52	4788
2026-01-29 23:33:28.06	181.48	32.02	-40.3	-42.8	13.1	3.81e-05	0	61	0	1560281088	52	4720
2026-01-29 23:33:29.07	181.57	31.82	-40.3	-42.8	13.1	1.98e-05	0	61	0	1563426816	52	4711
2026-01-29 23:33:30.08	181.66	31.62	-40.2	-42.7	13.2	2.28e-05	0	61	0	1566572544	52	4687
2026-01-29 23:33:31.09	181.74	31.42	-40.2	-42.7	13.2	2.97e-05	0	61	0	1569718272	52	4683
2026-01-29 23:33:32.10	181.83	31.23	-40.2	-42.6	13.2	1.75e-05	0	61	0	1572864000	52	4645
2026-01-29 23:33:33.12	181.92	31.03	-40.2	-42.7	13.2	1.60e-05	0	61	0	1576009728	52	4665
2026-01-29 23:33:34.13	182.00	30.84	-40.1	-42.5	13.3	1.29e-05	0	61	0	1579155456	52	4580
2026-01-29 23:33:35.14	182.09	30.64	-40.0	-42.3	13.5	1.37e-05	0	61	0	1582301184	52	4480
2026-01-29 23:33:36.15	182.17	30.45	-39.9	-42.2	13.7	6.80e-06	0	61	0	1585446912	51	4679
2026-01-29 23:33:37.16	182.25	30.26	-40.0	-42.3	13.7	7.60e-06	0	61	0	1588592640	51	4716
2026-01-29 23:33:38.17	182.33	30.07	-39.9	-42.2	13.7	3.00e-06	0	61	0	1591738368	51	4674
2026-01-29 23:33:39.18	182.41	29.88	-40.0	-42.3	13.7	6.80e-06	0	61	0	1594884096	51	4723
2026-01-29 23:33:40.19	182.49	29.69	-40.0	-42.4	13.6	6.80e-06	0	61	0	1598029824	51	4764
2026-01-29 23:33:41.20	182.57	29.51	-40.1	-42.5	13.5	9.90e-06	0	61	0	1601175552	51	4815
2026-01-29 23:33:42.21	182.65	29.32	-40.1	-42.5	13.4	2.05e-05	0	61	0	1604321280	51	4864
2026-01-29 23:33:43.22	182.73	29.14	-40.2	-42.7	13.2	1.29e-05	0	61	0	1607467008	51	4937
2026-01-29 23:33:44.23	182.80	28.96	-40.3	-42.8	13.1	3.35e-05	0	61	0	1610612736	51	4993
2026-01-29 23:33:45.24	182.88	28.77	-40.1	-42.6	13.3	1.52e-05	0	61	0	1613758464	51	4874
2026-01-29 23:33:46.26	182.95	28.59	-40.1	-42.6	13.3	1.75e-05	0	61	0	1616904192	51	4878
2026-01-29 23:33:47.27	183.03	28.41	-40.2	-42.6	13.3	2.21e-05	0	61	0	1620049920	51	4919
2026-01-29 23:33:48.28	183.10	28.23	-40.2	-42.6	13.3	2.51e-05	0	61	0	1623195648	51	4908
2026-01-29 23:33:49.29	183.17	28.06	-40.2	-42.6	13.3	1.83e-05	0	61	0	1626341376	51	4892
2026-01-29 23:33:50.30	183.24	27.88	-40.1	-42.6	13.3	1.06e-05	0	61	0	1629487104	51	4889
2026-01-29 23:33:51.31	183.31	27.71	-40.2	-42.7	13.2	2.36e-05	0	61	0	1632632832	51	4953
2026-01-29 23:33:52.32	183.38	27.53	-40.2	-42.6	13.2	1.90e-05	0	61	0	1635778560	51	4916
2026-01-29 23:33:53.33	183.45	27.36	-40.2	-42.7	13.2	2.36e-05	0	61	0	1638924288	51	4932
2026-01-29 23:33:54.34	183.52	27.19	-40.2	-42.7	13.1	2.44e-05	0	61	0	1642070016	51	4977
2026-01-29 23:33:55.35	183.59	27.02	-40.3	-42.8	13.0	3.43e-05	0	61	0	1645215744	51	5013
2026-01-29 23:33:56.36	183.66	26.85	-40.2	-42.6	13.2	2.21e-05	0	61	0	1648361472	51	4910
2026-01-29 23:33:57.37	183.72	26.68	-40.2	-42.7	13.2	1.44e-05	0	61	0	1651507200	51	4928
2026-01-29 23:33:58.38	183.79	26.51	-40.1	-42.6	13.3	1.60e-05	0	61	0	1654652928	51	4879
2026-01-29 23:33:59.39	183.85	26.34	-40.1	-42.6	13.3	1.52e-05	0	61	0	1657798656	51	4872
2026-01-29 23:34:00.40	183.92	26.18	-40.1	-42.6	13.2	1.98e-05	0	61	0	1660944384	51	4879
2026-01-29 23:34:01.41	183.98	26.01	-40.1	-42.5	13.3	1.29e-05	0	61	0	1664090112	51	4851
2026-01-29 23:34:02.42	184.04	25.85	-40.1	-42.5	13.3	1.60e-05	0	61	0	1667235840	51	4869
2026-01-29 23:34:03.43	184.11	25.69	-40.1	-42.5	13.4	1.37e-05	0	61	0	1670381568	51	4832
2026-01-29 23:34:04.44	184.17	25.52	-40.0	-42.4	13.4	2.05e-05	0	61	0	1673527296	51	4807
2026-01-29 23:34:05.46	184.23	25.36	-40.0	-42.4	13.4	1.37e-05	0	61	0	1676673024	51	4796
2026-01-29 23:34:06.47	184.29	25.20	-40.0	-42.4	13.5	1.06e-05	0	61	0	1679818752	51	4778
2026-01-29 23:34:07.48	184.35	25.04	-40.0	-42.4	13.5	1.06e-05	0	61	0	1682964480	51	4772
2026-01-29 23:34:08.49	184.41	24.88	-40.0	-42.4	13.4	9.90e-06	0	61	0	1686110208	51	4781
2026-01-29 23:34:09.50	184.47	24.73	-40.0	-42.4	13.4	1.29e-05	0	61	0	1689255936	51	4793
2026-01-29 23:34:10.51	184.53	24.57	-40.0	-42.4	13.4	1.44e-05	0	61	0	1692401664	51	4806
2026-01-29 23:34:11.52	184.59	24.41	-40.0	-42.5	13.4	1.14e-05	0	61	0	1695547392	51	4816
2026-01-29 23:34:12.53	184.64	24.26	-40.1	-42.5	13.3	1.75e-05	0	61	0	1698693120	51	4869
2026-01-29 23:34:13.54	184.70	24.11	-40.2	-42.7	13.2	2.05e-05	0	61	0	1701838848	51	4928
2026-01-29 23:34:14.55	184.76	23.95	-40.1	-42.6	13.2	1.98e-05	0	61	0	1704984576	51	4920
2026-01-29 23:34:15.56	184.81	23.80	-40.2	-42.6	13.2	2.28e-05	0	61	0	1708130304	51	4924
2026-01-29 23:34:16.57	184.87	23.65	-40.1	-42.6	13.2	1.52e-05	0	61	0	1711276032	51	4898
2026-01-29 23:34:17.58	184.92	23.50	-40.1	-42.5	13.3	1.22e-05	0	61	0	1714421760	51	4866
2026-01-29 23:34:18.59	184.98	23.35	-40.0	-42.5	13.3	1.90e-05	0	61	0	1717567488	51	4825
2026-01-29 23:34:19.61	185.03	23.20	-40.0	-42.4	13.4	8.30e-06	0	61	0	1720713216	51	4787
2026-01-29 23:34:20.62	185.09	23.05	-40.0	-42.4	13.4	1.37e-05	0	61	0	1723858944	51	4769
2026-01-29 23:34:21.63	185.14	22.91	-39.9	-42.3	13.5	1.29e-05	0	61	0	1728053248	51	4723
2026-01-29 23:34:22.64	185.19	22.76	-39.9	-42.3	13.5	9.10e-06	0	61	0	1731198976	51	4715
2026-01-29 23:34:23.65	185.24	22.62	-39.8	-42.2	13.6	9.10e-06	0	61	0	1734344704	51	4655
2026-01-29 23:34:24.66	185.30	22.47	-39.8	-42.2	13.6	9.10e-06	0	61	0	1737490432	51	4656
2026-01-29 23:34:25.67	185.35	22.33	-39.9	-42.2	13.5	7.60e-06	0	61	0	1739587584	51	4686
2026-01-29 23:34:26.68	185.40	22.18	-39.9	-42.2	13.6	9.10e-06	0	61	0	1743781888	51	4688
2026-01-29 23:34:27.69	185.45	22.04	-39.9	-42.2	13.5	7.60e-06	0	61	0	1746927616	51	4689
2026-01-29 23:34:28.70	185.50	21.90	-39.8	-42.2	13.6	9.10e-06	0	61	0	1750073344	51	4659
2026-01-29 23:34:29.71	185.55	21.76	-39.8	-42.1	13.7	5.30e-06	0	61	0	1753219072	51	4635
2026-01-29 23:34:30.73	185.60	21.62	-39.8	-42.1	13.7	6.80e-06	0	61	0	1756364800	51	4617
2026-01-29 23:34:31.74	185.64	21.48	-39.9	-42.2	13.6	9.10e-06	0	61	0	1759510528	51	4686
2026-01-29 23:34:32.75	185.69	21.34	-39.8	-42.2	13.6	1.14e-05	0	61	0	1762656256	51	4661
2026-01-29 23:34:33.76	185.74	21.20	-39.8	-42.2	13.6	8.30e-06	0	61	0	1765801984	51	4665
2026-01-29 23:34:34.77	185.79	21.07	-39.9	-42.2	13.6	6.80e-06	0	61	0	1768947712	51	4680
2026-01-29 23:34:35.78	185.84	20.93	-39.9	-42.3	13.5	9.90e-06	0	61	0	1772093440	51	4736
2026-01-29 23:34:36.79	185.88	20.80	-39.8	-42.2	13.6	7.60e-06	0	61	0	1775239168	51	4662
2026-01-29 23:34:37.80	185.93	20.66	-39.8	-42.2	13.6	9.10e-06	0	61	0	1778384896	51	4669
2026-01-29 23:34:38.81	185.97	20.53	-39.9	-42.2	13.5	7.60e-06	0	61	0	1781530624	51	4693
2026-01-29 23:34:39.82	186.02	20.39	-39.9	-42.2	13.5	7.60e-06	0	61	0	1784676352	51	4687
2026-01-29 23:34:40.83	186.06	20.26	-39.8	-42.1	13.6	6.10e-06	0	61	0	1787822080	51	4637
2026-01-29 23:34:41.84	186.11	20.13	-39.8	-42.2	13.6	8.30e-06	0	61	0	1790967808	51	4671
2026-01-29 23:34:42.85	186.15	20.00	-39.8	-42.2	13.6	6.80e-06	0	61	0	1794113536	51	4666
2026-01-29 23:34:43.86	186.20	19.87	-39.9	-42.2	13.5	1.14e-05	0	61	0	1797259264	51	4688
2026-01-29 23:34:44.87	186.24	19.74	-40.0	-42.4	13.4	1.67e-05	0	61	0	1800404992	51	4768
2026-01-29 23:34:45.88	186.29	19.61	-40.0	-42.4	13.3	2.28e-05	0	61	0	1803550720	51	4797
2026-01-29 23:34:46.89	186.33	19.48	-40.1	-42.6	13.2	1.98e-05	0	61	0	1806696448	51	4872
2026-01-29 23:34:47.90	186.37	19.35	-40.1	-42.7	13.1	4.04e-05	0	61	0	1809842176	51	4930
2026-01-29 23:34:48.91	186.41	19.22	-40.3	-42.8	12.9	4.42e-05	0	61	0	1812987904	51	5023
2026-01-29 23:34:49.92	186.46	19.10	-40.3	-43.0	12.7	5.34e-05	0	61	0	1816133632	51	5107
2026-01-29 23:34:50.93	186.50	18.97	-40.3	-43.0	12.7	7.40e-05	0	61	0	1819279360	51	5105
2026-01-29 23:34:51.94	186.54	18.85	-40.4	-43.0	12.7	9.00e-05	0	61	0	1822425088	51	5133
2026-01-29 23:34:52.96	186.58	18.72	-40.4	-43.0	12.7	8.85e-05	0	61	0	1825570816	51	5152
2026-01-29 23:34:53.97	186.62	18.60	-40.4	-43.0	12.6	1.09e-04	0	61	0	1828716544	51	5132
2026-01-29 23:34:54.98	186.66	18.47	-40.5	-43.2	12.5	1.27e-04	0	61	0	1831862272	51	5226
2026-01-29 23:34:55.99	186.70	18.35	-40.5	-43.2	12.4	1.20e-04	0	61	0	1835008000	51	5260
2026-01-29 23:34:57.00	186.74	18.23	-40.5	-43.3	12.3	1.53e-04	0	61	0	1838153728	51	5315
2026-01-29 23:34:58.01	186.78	18.11	-40.5	-43.3	12.4	1.27e-04	0	61	0	1841299456	51	5284
2026-01-29 23:34:59.02	186.82	17.98	-40.5	-43.3	12.4	1.55e-04	0	61	0	1844445184	51	5292
2026-01-29 23:35:00.02	186.86	17.86	-40.5	-43.2	12.4	1.22e-04	0	61	0	1847590912	51	5268
2026-01-29 23:35:01.03	186.90	17.74	-40.5	-43.2	12.4	1.40e-04	0	61	0	1850736640	51	5273
2026-01-29 23:35:02.05	186.94	17.62	-40.5	-43.2	12.4	1.50e-04	0	61	0	1853882368	51	5227
2026-01-29 23:35:03.06	186.98	17.51	-40.6	-43.3	12.3	1.72e-04	0	61	0	1857028096	51	5340
2026-01-29 23:35:04.07	187.01	17.39	-40.5	-43.2	12.4	1.31e-04	0	61	0	1860173824	51	5258
2026-01-29 23:35:05.08	187.05	17.27	-40.6	-43.4	12.3	1.70e-04	0	61	0	1863319552	51	5342
2026-01-29 23:35:06.09	187.09	17.15	-40.6	-43.4	12.2	2.00e-04	0	61	0	1866465280	51	5358
2026-01-29 23:35:07.10	187.13	17.04	-40.6	-43.4	12.2	2.37e-04	0	61	0	1869611008	51	5387
2026-01-29 23:35:08.11	187.16	16.92	-40.6	-43.4	12.2	2.02e-04	0	61	0	1872756736	51	5359
2026-01-29 23:35:09.12	187.20	16.80	-40.7	-43.5	12.1	2.68e-04	0	61	0	1875902464	51	5459
2026-01-29 23:35:10.13	187.24	16.69	-40.7	-43.5	12.1	3.26e-04	0	61	0	1879048192	51	5430
2026-01-29 23:35:11.14	187.27	16.57	-40.6	-43.5	12.1	3.28e-04	0	61	0	1882193920	51	5413
2026-01-29 23:35:12.15	187.31	16.46	-40.7	-43.6	12.0	2.47e-04	0	61	0	1885339648	51	5479
2026-01-29 23:35:13.16	187.34	16.35	-40.6	-43.5	12.1	2.66e-04	0	61	0	1888485376	52	5102
2026-01-29 23:35:14.17	187.38	16.23	-40.6	-43.4	12.1	2.13e-04	0	61	0	1891631104	52	5089
2026-01-29 23:35:15.18	187.41	16.12	-40.6	-43.4	12.1	2.55e-04	0	61	0	1894776832	52	5075
2026-01-29 23:35:16.19	187.45	16.01	-40.6	-43.4	12.1	2.99e-04	0	61	0	1897922560	52	5096
2026-01-29 23:35:17.20	187.48	15.90	-40.5	-43.3	12.2	2.67e-04	0	61	0	1901068288	52	5015
2026-01-29 23:35:18.21	187.52	15.79	-40.5	-43.3	12.2	2.39e-04	0	61	0	1904214016	52	5023
2026-01-29 23:35:19.22	187.55	15.68	-40.5	-43.3	12.2	1.98e-04	0	61	0	1907359744	52	4997
2026-01-29 23:35:20.23	187.59	15.57	-40.5	-43.4	12.1	2.76e-04	0	61	0	1910505472	52	5043
2026-01-29 23:35:21.24	187.62	15.46	-40.6	-43.4	12.0	3.53e-04	0	61	0	1913651200	52	5088
