passes_logs/2026/01/29/R2.0S_Moscow/R2.0S_Moscow__20260129_012303_NOAA_21_JPSS-2_rec.log

#Pass ID: 20260129_012303_NOAA 21 (JPSS-2)
#Satellite: NOAA 21 (JPSS-2)
#Configuration: NOAA-21
#almurnet v.1.7.20251203
#Start time: 2026-01-29 01:23:17

#Version: 2.2.20231116
#Station: R2.0S_Moscow
#Location: 37.707566 lon 55.798166 lat
#TLE: 1 54234U 22150A   26027.77052245  .00000166  00000+0  99439-4 0  9997
#TLE: 2 54234  98.7510 328.5165 0000872 203.6403 156.4733 14.19540252166628

#Time	Az	El	Level	Level2	SNR	BER	BlckErr	Temp	State	Recorded	gain1	gain2
2026-01-29 01:23:17.79	9.11	2.83	-44.9	-56.8	3.8	8.45e-01	0	58	0	0	60	15005
2026-01-29 01:23:18.79	9.04	2.89	-45.5	-58.0	3.8	1.49e+00	0	59	104	0	62	15375
2026-01-29 01:23:19.80	8.97	2.95	-45.4	-58.0	3.8	1.49e+00	0	59	104	0	62	15254
2026-01-29 01:23:20.82	8.90	3.01	-45.3	-57.8	3.8	1.49e+00	0	59	104	0	62	15051
2026-01-29 01:23:21.83	8.83	3.07	-45.2	-57.8	3.8	1.49e+00	0	59	104	0	62	14902
2026-01-29 01:23:22.84	8.75	3.12	-45.1	-57.6	3.8	1.49e+00	0	59	104	0	62	14700
2026-01-29 01:23:23.85	8.68	3.18	-45.1	-57.7	3.8	1.49e+00	0	59	104	0	62	14713
2026-01-29 01:23:24.86	8.61	3.24	-44.6	-57.1	3.8	1.49e+00	0	59	104	0	61	14703
2026-01-29 01:23:25.87	8.54	3.30	-44.4	-57.0	3.8	1.49e+00	0	59	104	0	60	15285
2026-01-29 01:23:26.88	8.46	3.36	-41.4	-53.8	3.8	1.49e+00	0	59	104	0	55	14069
2026-01-29 01:23:27.89	8.39	3.41	-40.0	-52.2	3.8	1.49e+00	0	59	104	0	51	14784
2026-01-29 01:23:28.90	8.32	3.47	-40.0	-52.2	3.8	1.49e+00	0	59	104	0	51	14755
2026-01-29 01:23:29.91	8.24	3.53	-40.0	-52.2	3.8	1.49e+00	0	59	104	0	51	14759
2026-01-29 01:23:30.93	8.17	3.59	-40.0	-52.2	3.8	1.49e+00	0	59	104	0	51	14719
2026-01-29 01:23:31.94	8.09	3.65	-40.0	-52.2	3.8	1.49e+00	0	59	104	0	51	14722
2026-01-29 01:23:32.95	8.02	3.71	-40.0	-52.2	3.8	1.49e+00	0	59	104	0	51	14723
2026-01-29 01:23:33.96	7.95	3.77	-40.0	-52.2	3.8	1.49e+00	0	59	104	0	51	14725
2026-01-29 01:23:34.97	7.87	3.82	-39.9	-52.1	3.8	1.49e+00	0	59	104	0	51	14688
2026-01-29 01:23:35.98	7.79	3.88	-40.0	-52.1	3.8	1.49e+00	0	59	104	0	51	14690
2026-01-29 01:23:36.99	7.72	3.94	-40.0	-52.1	3.8	1.49e+00	0	59	104	0	51	14692
2026-01-29 01:23:38.00	7.64	4.00	-39.9	-52.1	3.8	1.49e+00	0	59	104	0	51	14704
2026-01-29 01:23:39.01	7.56	4.06	-39.9	-52.1	3.8	1.49e+00	0	59	104	0	51	14685
2026-01-29 01:23:40.02	7.49	4.12	-39.9	-52.1	3.8	1.49e+00	0	59	104	0	51	14689
2026-01-29 01:23:41.03	7.41	4.18	-39.9	-52.1	3.8	1.49e+00	0	59	104	0	51	14683
2026-01-29 01:23:42.04	7.33	4.24	-39.9	-52.1	3.8	1.49e+00	0	59	104	0	51	14667
2026-01-29 01:23:43.05	7.25	4.30	-39.9	-52.1	3.8	1.49e+00	0	59	104	0	51	14692
2026-01-29 01:23:44.06	7.18	4.36	-39.9	-52.1	3.8	1.49e+00	0	59	104	0	51	14634
2026-01-29 01:23:45.07	7.10	4.42	-39.9	-52.1	3.8	1.49e+00	0	59	104	0	51	14675
2026-01-29 01:23:46.08	7.02	4.48	-39.9	-52.1	3.8	1.49e+00	0	59	104	0	51	14616
2026-01-29 01:23:47.09	6.94	4.54	-39.9	-52.2	3.8	1.49e+00	0	59	104	0	51	14709
2026-01-29 01:23:48.10	6.86	4.60	-39.9	-52.1	3.8	1.49e+00	0	59	104	0	51	14630
2026-01-29 01:23:49.11	6.78	4.66	-39.9	-52.1	3.8	1.49e+00	0	59	104	0	51	14632
2026-01-29 01:23:50.12	6.70	4.72	-39.9	-52.1	3.8	1.49e+00	0	59	104	0	51	14625
2026-01-29 01:23:51.13	6.62	4.78	-39.9	-52.1	3.8	1.49e+00	0	59	104	0	51	14629
2026-01-29 01:23:52.14	6.54	4.84	-39.9	-52.1	3.8	1.49e+00	0	59	104	0	51	14622
2026-01-29 01:23:53.15	6.46	4.90	-39.9	-52.1	3.8	1.49e+00	0	59	104	0	51	14617
2026-01-29 01:23:54.16	6.37	4.96	-39.9	-52.1	3.8	1.49e+00	0	59	104	0	51	14598
2026-01-29 01:23:55.18	6.29	5.02	-39.9	-52.1	3.8	1.49e+00	0	59	104	0	51	14694
2026-01-29 01:23:56.19	6.21	5.08	-39.9	-52.1	3.8	1.49e+00	0	59	104	0	51	14635
2026-01-29 01:23:57.20	6.13	5.14	-39.9	-52.1	3.8	1.49e+00	0	59	104	0	51	14619
2026-01-29 01:23:58.21	6.04	5.20	-39.9	-52.1	3.8	1.49e+00	0	59	104	0	51	14569
2026-01-29 01:23:59.22	5.96	5.26	-39.9	-52.1	3.8	1.49e+00	0	59	104	0	51	14638
2026-01-29 01:24:00.23	5.88	5.32	-39.9	-52.1	3.8	1.49e+00	0	59	104	0	51	14604
2026-01-29 01:24:01.24	5.79	5.38	-39.9	-52.1	3.8	1.49e+00	0	59	104	0	51	14638
2026-01-29 01:24:02.25	5.71	5.44	-39.9	-52.1	3.8	1.49e+00	0	59	104	0	51	14635
2026-01-29 01:24:03.26	5.62	5.50	-39.9	-52.1	3.8	1.49e+00	0	59	104	0	51	14630
2026-01-29 01:24:04.27	5.54	5.56	-39.9	-52.1	3.8	1.49e+00	0	59	104	0	51	14611
2026-01-29 01:24:05.27	5.45	5.62	-39.9	-52.1	3.8	1.49e+00	0	59	104	0	51	14597
2026-01-29 01:24:06.28	5.36	5.69	-39.9	-52.1	3.8	1.49e+00	0	59	104	0	51	14614
2026-01-29 01:24:07.29	5.28	5.75	-39.9	-52.1	3.8	1.49e+00	0	59	104	0	51	14613
2026-01-29 01:24:08.30	5.19	5.81	-39.9	-52.1	3.8	1.49e+00	0	59	104	0	51	14606
2026-01-29 01:24:09.31	5.10	5.87	-39.9	-52.1	3.8	1.49e+00	0	59	104	0	51	14606
2026-01-29 01:24:10.32	5.02	5.93	-39.9	-52.1	3.8	1.49e+00	0	59	104	0	51	14591
2026-01-29 01:24:11.33	4.93	5.99	-39.9	-52.0	3.8	1.49e+00	0	59	104	0	51	14525
2026-01-29 01:24:12.34	4.84	6.05	-39.9	-52.0	3.8	1.49e+00	0	59	104	0	51	14499
2026-01-29 01:24:13.35	4.75	6.12	-39.9	-52.1	3.8	1.49e+00	0	59	104	0	51	14541
2026-01-29 01:24:14.36	4.66	6.18	-39.9	-52.0	3.8	1.49e+00	0	59	104	0	51	14513
2026-01-29 01:24:15.37	4.57	6.24	-39.9	-52.0	3.8	1.49e+00	0	59	104	0	51	14522
2026-01-29 01:24:16.38	4.48	6.30	-39.9	-52.0	3.8	1.49e+00	0	59	104	0	51	14530
2026-01-29 01:24:17.39	4.39	6.36	-39.8	-52.0	3.8	1.49e+00	0	59	104	0	51	14515
2026-01-29 01:24:18.40	4.30	6.43	-39.8	-52.0	3.8	1.49e+00	0	59	104	0	51	14508
2026-01-29 01:24:19.41	4.21	6.49	-39.8	-52.0	3.8	1.49e+00	0	59	104	0	51	14501
2026-01-29 01:24:20.42	4.12	6.55	-39.8	-52.0	3.8	1.49e+00	0	59	104	0	51	14521
2026-01-29 01:24:21.43	4.03	6.61	-39.8	-52.0	3.8	1.49e+00	0	59	104	0	51	14497
2026-01-29 01:24:22.44	3.93	6.68	-39.8	-52.0	3.8	1.49e+00	0	59	104	0	51	14469
2026-01-29 01:24:23.45	3.84	6.74	-39.9	-52.1	3.8	1.49e+00	0	59	104	0	51	14543
2026-01-29 01:24:24.46	3.75	6.80	-39.9	-52.0	3.8	1.49e+00	0	59	104	0	51	14522
2026-01-29 01:24:25.47	3.65	6.86	-39.8	-52.0	3.8	1.49e+00	0	59	104	0	51	14472
2026-01-29 01:24:26.48	3.56	6.93	-39.9	-52.0	3.8	1.49e+00	0	59	104	0	51	14485
2026-01-29 01:24:27.49	3.46	6.99	-39.9	-52.0	3.8	1.49e+00	0	59	104	0	51	14509
2026-01-29 01:24:28.49	3.37	7.05	-39.8	-52.0	3.8	1.49e+00	0	59	104	0	51	14519
2026-01-29 01:24:29.50	3.27	7.12	-39.8	-52.0	3.8	1.49e+00	0	59	104	0	51	14537
2026-01-29 01:24:30.52	3.18	7.18	-39.8	-52.0	3.8	1.49e+00	0	59	104	0	51	14484
2026-01-29 01:24:31.53	3.08	7.24	-39.8	-52.0	3.8	1.49e+00	0	59	104	0	51	14515
2026-01-29 01:24:32.54	2.98	7.31	-39.8	-52.1	3.8	1.49e+00	0	59	104	0	51	14551
2026-01-29 01:24:33.55	2.89	7.37	-39.8	-52.0	3.8	1.49e+00	0	59	104	0	51	14515
2026-01-29 01:24:34.56	2.79	7.43	-39.8	-52.0	3.8	1.49e+00	0	59	104	0	51	14463
2026-01-29 01:24:35.57	2.69	7.50	-39.8	-52.0	3.8	1.49e+00	0	59	104	0	51	14504
2026-01-29 01:24:36.58	2.59	7.56	-39.8	-52.0	3.8	1.49e+00	0	59	104	0	51	14491
2026-01-29 01:24:37.59	2.49	7.62	-39.8	-52.0	3.8	1.49e+00	0	59	104	0	51	14533
2026-01-29 01:24:38.60	2.40	7.69	-39.8	-52.0	3.8	1.49e+00	0	59	104	0	51	14513
2026-01-29 01:24:39.61	2.30	7.75	-39.8	-52.0	3.8	1.49e+00	0	59	104	0	51	14500
2026-01-29 01:24:40.62	2.20	7.82	-39.8	-52.0	3.8	1.49e+00	0	59	104	0	51	14504
2026-01-29 01:24:41.63	2.09	7.88	-39.8	-52.0	3.8	1.49e+00	0	59	104	0	51	14489
2026-01-29 01:24:42.64	1.99	7.94	-39.8	-52.0	3.8	1.49e+00	0	59	104	0	51	14521
2026-01-29 01:24:43.65	1.89	8.01	-39.9	-52.0	3.8	1.49e+00	0	59	104	0	51	14468
2026-01-29 01:24:44.66	1.79	8.07	-39.9	-52.1	3.8	1.49e+00	0	59	104	0	51	14574
2026-01-29 01:24:45.67	1.69	8.14	-40.0	-52.2	3.8	1.49e+00	0	59	104	0	51	14780
2026-01-29 01:24:46.68	1.58	8.20	-40.0	-52.2	3.8	1.49e+00	0	59	104	0	51	14862
2026-01-29 01:24:47.68	1.48	8.26	-40.0	-52.2	3.8	1.49e+00	0	59	104	0	51	14812
2026-01-29 01:24:48.69	1.38	8.33	-40.1	-52.2	3.8	1.49e+00	0	59	104	0	51	14858
2026-01-29 01:24:49.70	1.27	8.39	-40.1	-52.3	3.8	1.49e+00	0	59	104	0	51	14912
2026-01-29 01:24:50.71	1.17	8.46	-39.9	-52.1	3.8	1.49e+00	0	59	104	0	51	14668
2026-01-29 01:24:51.72	1.06	8.52	-40.0	-52.2	3.8	1.49e+00	0	59	104	0	51	14751
2026-01-29 01:24:52.73	0.96	8.59	-40.0	-52.2	3.8	1.49e+00	0	59	104	0	51	14744
2026-01-29 01:24:53.74	0.85	8.65	-40.0	-52.2	3.8	1.49e+00	0	59	104	0	51	14737
2026-01-29 01:24:54.75	0.74	8.72	-39.9	-52.1	3.8	1.49e+00	0	59	104	0	51	14648
2026-01-29 01:24:55.76	0.63	8.78	-40.0	-52.2	3.8	1.49e+00	0	59	104	0	51	14788
2026-01-29 01:24:56.77	0.53	8.85	-40.0	-52.1	3.8	1.49e+00	0	59	104	0	51	14617
2026-01-29 01:24:57.78	0.42	8.91	-40.0	-52.1	3.8	1.49e+00	0	59	104	0	51	14701
2026-01-29 01:24:58.79	0.31	8.98	-39.9	-52.1	3.8	1.49e+00	0	59	104	0	51	14692
2026-01-29 01:24:59.80	0.20	9.04	-40.0	-52.2	3.8	1.49e+00	0	59	104	0	51	14762
2026-01-29 01:25:00.80	0.09	9.11	-39.9	-52.1	3.8	1.49e+00	0	59	104	0	51	14686
2026-01-29 01:25:01.81	359.98	9.17	-40.0	-52.2	3.8	1.49e+00	0	59	104	0	51	14722
2026-01-29 01:25:02.82	359.87	9.24	-39.9	-52.2	3.8	1.49e+00	0	59	104	0	51	14740
2026-01-29 01:25:03.83	359.76	9.31	-39.9	-52.1	3.8	1.49e+00	0	59	104	0	51	14669
2026-01-29 01:25:04.84	359.65	9.37	-40.0	-52.1	3.8	1.49e+00	0	59	104	0	51	14690
2026-01-29 01:25:05.85	359.53	9.44	-40.0	-52.2	3.8	1.49e+00	0	59	104	0	51	14713
2026-01-29 01:25:06.86	359.42	9.50	-39.9	-52.2	3.8	1.49e+00	0	59	104	0	51	14712
2026-01-29 01:25:07.87	359.31	9.57	-39.9	-52.1	3.8	1.49e+00	0	59	104	0	51	14576
2026-01-29 01:25:08.88	359.19	9.63	-40.0	-52.1	3.8	1.49e+00	0	59	104	0	51	14697
2026-01-29 01:25:09.89	359.08	9.70	-39.9	-52.1	3.8	1.49e+00	0	59	104	0	51	14634
2026-01-29 01:25:10.90	358.96	9.77	-39.9	-52.1	3.8	1.49e+00	0	59	104	0	51	14585
2026-01-29 01:25:11.91	358.85	9.83	-39.9	-52.1	3.8	1.49e+00	0	59	104	0	51	14548
2026-01-29 01:25:12.92	358.73	9.90	-39.9	-52.1	3.8	1.49e+00	0	59	104	0	51	14656
2026-01-29 01:25:13.93	358.61	9.97	-40.0	-52.1	3.8	1.49e+00	0	59	104	0	51	14656
2026-01-29 01:25:14.94	358.50	10.03	-39.9	-52.0	3.8	1.49e+00	0	59	104	0	51	14502
2026-01-29 01:25:15.95	358.38	10.10	-39.9	-52.1	3.8	1.49e+00	0	59	104	0	51	14601
2026-01-29 01:25:16.96	358.26	10.16	-39.9	-52.1	3.8	1.49e+00	0	59	104	0	51	14569
2026-01-29 01:25:17.97	358.14	10.23	-40.0	-52.2	3.8	1.49e+00	0	59	104	0	51	14733
2026-01-29 01:25:18.98	358.02	10.30	-39.8	-52.0	3.8	1.49e+00	0	59	104	0	51	14422
2026-01-29 01:25:19.99	357.90	10.36	-40.0	-52.1	3.8	1.49e+00	0	59	104	0	51	14638
2026-01-29 01:25:21.00	357.78	10.43	-39.9	-52.0	3.8	1.49e+00	0	59	104	0	51	14471
2026-01-29 01:25:22.01	357.66	10.50	-40.1	-52.2	3.8	1.49e+00	0	59	104	0	51	14807
2026-01-29 01:25:23.01	357.54	10.56	-39.8	-52.0	3.8	1.49e+00	0	59	104	0	51	14424
2026-01-29 01:25:24.02	357.42	10.63	-40.0	-52.1	3.8	1.49e+00	0	59	104	0	51	14675
2026-01-29 01:25:25.03	357.29	10.70	-39.9	-52.1	3.8	1.49e+00	0	59	104	0	51	14593
2026-01-29 01:25:26.04	357.17	10.76	-40.3	-52.4	3.8	1.49e+00	0	59	104	0	51	15081
2026-01-29 01:25:27.05	357.05	10.83	-39.8	-51.9	3.8	1.49e+00	0	59	104	0	51	14344
2026-01-29 01:25:28.06	356.92	10.90	-40.1	-52.3	3.8	1.49e+00	0	59	104	0	51	14922
2026-01-29 01:25:29.07	356.80	10.96	-39.9	-52.1	3.8	1.49e+00	0	59	104	0	51	14594
2026-01-29 01:25:30.08	356.67	11.03	-40.6	-52.7	3.8	1.49e+00	0	59	104	0	51	15713
2026-01-29 01:25:31.09	356.54	11.10	-39.8	-52.0	3.8	1.49e+00	0	59	104	0	51	14403
2026-01-29 01:25:32.10	356.42	11.17	-40.0	-52.1	3.8	1.49e+00	0	59	104	0	51	14563
2026-01-29 01:25:33.11	356.29	11.23	-39.8	-51.9	3.8	1.49e+00	0	59	104	0	51	14367
2026-01-29 01:25:34.12	356.16	11.30	-39.9	-52.0	3.8	1.49e+00	0	59	104	0	51	14445
2026-01-29 01:25:35.13	356.03	11.37	-39.9	-52.0	3.8	1.49e+00	0	59	104	0	51	14466
2026-01-29 01:25:36.14	355.90	11.44	-39.9	-52.0	3.8	1.49e+00	0	59	104	0	51	14528
2026-01-29 01:25:37.15	355.77	11.50	-40.0	-52.2	3.8	1.49e+00	0	59	104	0	51	14752
2026-01-29 01:25:38.16	355.64	11.57	-40.0	-52.1	3.8	1.49e+00	0	59	104	0	51	14674
2026-01-29 01:25:39.16	355.51	11.64	-40.9	-52.9	3.8	1.49e+00	0	60	104	0	52	15146
2026-01-29 01:25:40.17	355.38	11.70	-40.1	-52.3	3.8	1.49e+00	0	59	104	0	52	14051
2026-01-29 01:25:41.18	355.25	11.77	-40.0	-52.2	3.8	1.49e+00	0	60	104	0	51	14733
2026-01-29 01:25:42.19	355.11	11.84	-40.1	-52.3	3.8	1.49e+00	0	59	104	0	51	14983
2026-01-29 01:25:43.20	354.98	11.91	-40.1	-52.3	3.8	1.49e+00	0	59	104	0	51	14914
2026-01-29 01:25:44.21	354.84	11.98	-40.2	-52.4	3.8	1.49e+00	0	59	104	0	51	15071
2026-01-29 01:25:45.22	354.71	12.04	-40.3	-52.5	3.8	1.49e+00	0	59	104	0	51	15234
2026-01-29 01:25:46.23	354.57	12.11	-40.1	-52.3	3.8	1.49e+00	0	59	104	0	51	14946
2026-01-29 01:25:47.24	354.44	12.18	-40.4	-52.6	3.8	1.49e+00	0	59	104	0	51	15514
2026-01-29 01:25:48.25	354.30	12.25	-40.4	-52.6	3.8	1.49e+00	0	59	104	0	51	15449
2026-01-29 01:25:49.26	354.16	12.31	-40.5	-52.7	3.8	1.49e+00	0	60	104	0	51	15586
2026-01-29 01:25:50.27	354.02	12.38	-40.4	-52.5	3.8	1.49e+00	0	59	104	0	51	15401
2026-01-29 01:25:51.28	353.88	12.45	-40.3	-52.5	3.8	1.49e+00	0	59	104	0	51	15274
2026-01-29 01:25:52.29	353.75	12.52	-40.5	-52.6	3.8	1.49e+00	0	59	104	0	51	15507
2026-01-29 01:25:53.30	353.60	12.59	-40.5	-52.7	3.8	1.49e+00	0	59	104	0	51	15583
2026-01-29 01:25:54.31	353.46	12.65	-40.4	-52.6	3.8	1.49e+00	0	59	104	0	51	15475
2026-01-29 01:25:55.32	353.32	12.72	-40.5	-52.7	3.8	1.49e+00	0	59	104	0	51	15618
2026-01-29 01:25:56.33	353.18	12.79	-40.6	-52.8	3.8	1.49e+00	0	59	104	0	51	15869
2026-01-29 01:25:57.34	353.04	12.86	-40.4	-52.6	3.8	1.49e+00	0	59	104	0	51	15491
2026-01-29 01:25:58.34	352.89	12.92	-40.6	-52.8	3.8	1.49e+00	0	59	104	0	51	15816
2026-01-29 01:25:59.35	352.75	12.99	-40.6	-52.9	3.8	1.49e+00	0	59	104	0	51	15964
2026-01-29 01:26:00.36	352.61	13.06	-40.7	-52.9	3.8	1.49e+00	0	59	104	0	52	15130
2026-01-29 01:26:01.37	352.46	13.13	-40.4	-52.6	3.8	1.49e+00	0	59	104	0	52	14662
2026-01-29 01:26:02.38	352.31	13.20	-40.7	-52.9	3.8	1.49e+00	0	59	104	0	52	15151
2026-01-29 01:26:03.39	352.17	13.26	-40.5	-52.7	3.8	1.49e+00	0	59	104	0	52	14805
2026-01-29 01:26:04.40	352.02	13.33	-40.7	-52.8	3.8	1.49e+00	0	59	104	0	52	15048
2026-01-29 01:26:05.41	351.87	13.40	-40.7	-52.9	3.8	1.49e+00	0	59	104	0	52	15087
2026-01-29 01:26:06.42	351.72	13.47	-40.6	-52.8	3.8	1.49e+00	0	59	104	0	52	15039
2026-01-29 01:26:07.43	351.57	13.54	-40.6	-52.8	3.8	1.49e+00	0	59	104	0	52	14895
2026-01-29 01:26:08.44	351.42	13.60	-40.7	-52.9	3.8	1.49e+00	0	59	104	0	52	15132
2026-01-29 01:26:09.45	351.27	13.67	-40.7	-52.9	3.8	1.49e+00	0	59	104	0	52	15062
2026-01-29 01:26:10.46	351.12	13.74	-40.6	-52.8	3.8	1.49e+00	0	59	104	0	52	14979
2026-01-29 01:26:11.47	350.96	13.81	-40.8	-53.0	3.8	1.49e+00	0	59	104	0	52	15317
2026-01-29 01:26:12.48	350.81	13.88	-40.8	-53.0	3.8	1.49e+00	0	59	104	0	52	15373
2026-01-29 01:26:13.49	350.66	13.94	-40.6	-52.8	3.8	1.49e+00	0	59	104	0	52	15013
2026-01-29 01:26:14.50	350.50	14.01	-40.8	-52.9	3.8	1.49e+00	0	59	104	0	52	15124
2026-01-29 01:26:15.51	350.35	14.08	-40.8	-53.1	3.8	1.49e+00	0	59	104	0	52	15438
2026-01-29 01:26:16.52	350.19	14.15	-40.8	-53.0	3.8	1.49e+00	0	59	104	0	52	15294
2026-01-29 01:26:17.53	350.03	14.21	-40.7	-53.0	3.8	1.49e+00	0	59	104	0	52	15226
2026-01-29 01:26:18.54	349.87	14.28	-40.7	-52.9	3.8	1.49e+00	0	59	104	0	52	15161
2026-01-29 01:26:19.55	349.72	14.35	-40.9	-53.1	3.8	1.49e+00	0	59	104	0	52	15513
2026-01-29 01:26:20.56	349.56	14.42	-40.8	-53.0	3.8	1.49e+00	0	59	104	0	52	15300
2026-01-29 01:26:21.57	349.40	14.49	-40.8	-53.0	3.8	1.49e+00	0	59	104	0	52	15314
2026-01-29 01:26:22.57	349.24	14.55	-40.9	-53.2	3.8	1.49e+00	0	59	104	0	52	15657
2026-01-29 01:26:23.58	349.08	14.62	-41.2	-53.5	3.8	1.49e+00	0	59	104	0	52	16159
2026-01-29 01:26:24.59	348.91	14.69	-41.1	-53.3	3.8	1.49e+00	0	59	104	0	53	14948
2026-01-29 01:26:25.60	348.75	14.76	-40.8	-53.0	3.8	1.49e+00	0	59	104	0	53	14473
2026-01-29 01:26:26.61	348.59	14.82	-40.9	-53.1	3.8	1.49e+00	0	59	104	0	53	14606
2026-01-29 01:26:27.62	348.42	14.89	-41.0	-53.2	3.8	1.49e+00	0	59	104	0	53	14771
2026-01-29 01:26:28.63	348.26	14.96	-41.1	-53.3	3.8	1.49e+00	0	60	104	0	53	15005
2026-01-29 01:26:29.64	348.09	15.02	-41.1	-53.4	3.8	1.49e+00	0	59	104	0	53	15116
2026-01-29 01:26:30.65	347.92	15.09	-41.5	-53.9	3.8	1.49e+00	0	59	104	0	53	15974
2026-01-29 01:26:31.66	347.76	15.16	-41.6	-53.9	3.8	1.49e+00	0	59	104	0	53	15968
2026-01-29 01:26:32.67	347.59	15.23	-41.5	-53.8	3.8	1.49e+00	0	59	104	0	53	15883
2026-01-29 01:26:33.68	347.42	15.29	-41.6	-53.9	3.8	1.49e+00	0	59	104	0	53	15984
2026-01-29 01:26:34.69	347.25	15.36	-41.5	-53.9	3.8	1.49e+00	0	59	104	0	53	15979
2026-01-29 01:26:35.70	347.08	15.43	-41.6	-53.9	3.8	1.49e+00	0	59	104	0	53	15979
2026-01-29 01:26:36.71	346.91	15.49	-41.5	-53.8	3.8	1.49e+00	0	59	104	0	53	15883
2026-01-29 01:26:37.72	346.73	15.56	-41.2	-53.5	3.8	1.49e+00	0	59	104	0	53	15363
2026-01-29 01:26:38.73	346.56	15.63	-41.6	-53.9	3.8	1.49e+00	0	59	104	0	53	16040
2026-01-29 01:26:39.74	346.39	15.69	-41.2	-53.5	3.8	1.49e+00	0	59	104	0	53	15273
2026-01-29 01:26:40.75	346.21	15.76	-40.9	-53.1	3.8	1.49e+00	0	60	104	0	53	14654
2026-01-29 01:26:41.76	346.04	15.83	-40.8	-53.0	3.8	1.49e+00	0	59	104	0	53	14519
2026-01-29 01:26:42.77	345.86	15.89	-40.7	-53.0	3.8	1.49e+00	0	59	104	0	53	14387
2026-01-29 01:26:43.79	345.68	15.96	-40.7	-52.9	3.8	1.49e+00	0	59	104	0	53	14363
2026-01-29 01:26:44.79	345.50	16.03	-40.8	-53.0	3.8	1.49e+00	0	59	104	0	53	14452
2026-01-29 01:26:45.81	345.32	16.09	-40.7	-52.9	3.8	1.49e+00	0	59	104	0	53	14328
2026-01-29 01:26:46.82	345.14	16.16	-41.0	-53.2	3.8	1.49e+00	0	59	104	0	53	14768
2026-01-29 01:26:47.83	344.96	16.22	-40.8	-53.1	3.8	1.49e+00	0	59	104	0	53	14586
2026-01-29 01:26:48.84	344.78	16.29	-41.0	-53.2	3.8	1.49e+00	0	59	104	0	53	14760
2026-01-29 01:26:49.85	344.60	16.36	-40.7	-52.9	3.8	1.49e+00	0	59	104	0	53	14279
2026-01-29 01:26:50.86	344.42	16.42	-40.8	-53.0	3.8	1.49e+00	0	59	104	0	53	14432
2026-01-29 01:26:51.87	344.24	16.49	-40.9	-53.1	3.8	1.49e+00	0	59	104	0	53	14649
2026-01-29 01:26:52.88	344.05	16.55	-40.8	-53.0	3.8	1.49e+00	0	59	104	0	53	14449
2026-01-29 01:26:53.89	343.87	16.62	-40.6	-52.8	3.8	1.49e+00	0	59	104	0	53	14160
2026-01-29 01:26:54.90	343.68	16.68	-40.7	-52.9	3.8	1.49e+00	0	59	104	0	53	14340
2026-01-29 01:26:55.91	343.49	16.75	-40.7	-52.9	3.8	1.49e+00	0	60	104	0	53	14259
2026-01-29 01:26:56.92	343.31	16.81	-40.6	-52.8	3.8	1.49e+00	0	59	104	0	53	14181
2026-01-29 01:26:57.93	343.12	16.88	-40.6	-52.7	3.8	1.49e+00	0	59	104	0	53	14020
2026-01-29 01:26:58.94	342.93	16.94	-40.7	-52.9	3.8	1.49e+00	0	59	104	0	53	14242
2026-01-29 01:26:59.95	342.74	17.00	-40.6	-52.8	3.8	1.49e+00	0	59	104	0	53	14092
2026-01-29 01:27:00.96	342.55	17.07	-40.6	-52.8	3.8	1.49e+00	0	59	104	0	53	14057
2026-01-29 01:27:01.97	342.36	17.13	-40.4	-52.5	3.8	1.49e+00	0	59	104	0	52	14512
2026-01-29 01:27:02.98	342.16	17.20	-40.6	-52.8	3.8	1.49e+00	0	59	104	0	52	14997
2026-01-29 01:27:03.99	341.97	17.26	-40.5	-52.6	3.8	1.49e+00	0	60	104	0	52	14700
2026-01-29 01:27:05.00	341.78	17.32	-40.3	-52.5	3.8	1.49e+00	0	59	104	0	52	14501
2026-01-29 01:27:06.01	341.58	17.39	-40.5	-52.6	3.8	1.49e+00	0	60	104	0	52	14640
2026-01-29 01:27:07.02	341.38	17.45	-40.5	-52.7	3.8	1.49e+00	0	60	104	0	52	14730
2026-01-29 01:27:08.03	341.19	17.51	-40.5	-52.6	3.8	1.49e+00	0	60	104	0	52	14609
2026-01-29 01:27:09.04	340.99	17.57	-40.4	-52.5	3.8	1.49e+00	0	60	104	0	52	14431
2026-01-29 01:27:10.05	340.79	17.64	-40.9	-52.9	3.8	1.49e+00	0	59	104	0	52	15187
2026-01-29 01:27:11.06	340.59	17.70	-40.4	-52.4	3.8	1.49e+00	0	60	104	0	52	14365
2026-01-29 01:27:12.07	340.39	17.76	-40.7	-52.6	3.8	1.49e+00	0	59	104	0	52	14578
2026-01-29 01:27:13.08	340.19	17.82	-40.8	-52.5	3.8	1.49e+00	0	59	104	0	52	14520
2026-01-29 01:27:14.09	339.99	17.88	-41.7	-51.9	3.9	1.49e+00	0	59	104	0	53	12779
2026-01-29 01:27:15.10	339.79	17.95	-40.6	-52.4	3.8	1.49e+00	0	59	104	0	53	13445
2026-01-29 01:27:16.11	339.58	18.01	-42.0	-52.9	3.8	1.49e+00	0	59	104	0	54	13431
2026-01-29 01:27:17.11	339.38	18.07	-42.0	-49.1	5.2	4.84e-01	0	59	0	0	54	8711
2026-01-29 01:27:18.13	339.17	18.13	-41.2	-46.2	7.8	1.28e-01	0	59	0	3145728	54	6203
2026-01-29 01:27:19.14	338.97	18.19	-41.0	-45.3	8.9	3.32e-02	0	60	0	6291456	54	5655
2026-01-29 01:27:20.15	338.76	18.25	-40.9	-45.0	9.4	1.70e-02	0	59	0	9437184	53	5729
2026-01-29 01:27:21.15	338.56	18.31	-40.7	-44.4	10.1	8.23e-03	0	59	0	12582912	53	5354
2026-01-29 01:27:22.16	338.35	18.37	-40.9	-44.6	9.9	6.37e-03	0	59	0	15728640	53	5528
2026-01-29 01:27:23.17	338.14	18.43	-40.7	-44.3	10.3	5.70e-03	0	59	0	18874368	53	5331
2026-01-29 01:27:24.18	337.93	18.49	-40.5	-43.8	10.9	2.89e-03	0	59	0	22020096	53	5034
2026-01-29 01:27:25.19	337.72	18.55	-40.3	-43.4	11.5	9.25e-04	0	60	0	25165824	52	5068
2026-01-29 01:27:26.20	337.51	18.61	-40.4	-43.5	11.6	6.03e-04	0	59	0	28311552	52	5126
2026-01-29 01:27:27.21	337.29	18.66	-40.3	-43.2	12.0	5.19e-04	0	59	0	31457280	52	4952
2026-01-29 01:27:28.22	337.08	18.72	-39.8	-42.3	13.1	3.96e-05	0	59	0	34603008	51	4735
2026-01-29 01:27:29.23	336.87	18.78	-39.8	-42.3	13.2	1.90e-05	0	59	0	37748736	51	4714
2026-01-29 01:27:30.24	336.65	18.84	-39.5	-41.9	13.7	9.10e-06	0	59	0	40894464	51	4495
2026-01-29 01:27:31.25	336.44	18.90	-39.6	-41.9	13.6	2.20e-06	0	59	0	44040192	50	4802
2026-01-29 01:27:32.26	336.22	18.95	-39.4	-41.7	14.0	3.80e-06	0	59	0	47185920	50	4652
2026-01-29 01:27:33.27	336.00	19.01	-39.4	-41.7	13.9	2.20e-06	0	59	0	50331648	50	4686
2026-01-29 01:27:34.28	335.78	19.07	-39.3	-41.5	14.2	1.50e-06	0	59	0	53477376	50	4547
2026-01-29 01:27:35.29	335.56	19.12	-39.3	-41.5	14.2	6.10e-06	0	59	0	56623104	50	4555
2026-01-29 01:27:36.30	335.34	19.18	-39.3	-41.6	14.1	2.20e-06	0	60	0	59768832	50	4614
2026-01-29 01:27:37.31	335.12	19.23	-39.4	-41.7	14.0	3.80e-06	0	59	0	62914560	50	4659
2026-01-29 01:27:38.32	334.90	19.29	-39.3	-41.5	14.2	7.00e-07	0	59	0	66060288	50	4548
2026-01-29 01:27:39.33	334.68	19.34	-39.3	-41.5	14.1	1.50e-06	0	60	0	69206016	50	4594
2026-01-29 01:27:40.34	334.46	19.40	-39.2	-41.4	14.3	7.00e-07	0	59	0	72351744	50	4509
2026-01-29 01:27:41.35	334.23	19.45	-39.2	-41.3	14.4	7.00e-07	0	60	0	75497472	50	4478
2026-01-29 01:27:42.36	334.01	19.51	-39.2	-41.3	14.4	1.50e-06	0	59	0	78643200	50	4475
2026-01-29 01:27:43.37	333.78	19.56	-38.9	-40.9	14.7	7.00e-07	0	60	0	81788928	49	4533
2026-01-29 01:27:44.38	333.55	19.61	-39.0	-41.0	14.7	7.00e-07	0	59	0	84934656	49	4594
2026-01-29 01:27:45.39	333.33	19.67	-39.0	-41.1	14.6	2.20e-06	0	59	0	89128960	49	4636
2026-01-29 01:27:46.40	333.10	19.72	-38.9	-40.9	14.8	0.00e+00	0	59	0	92274688	49	4516
2026-01-29 01:27:47.41	332.87	19.77	-39.0	-41.0	14.7	7.00e-07	0	60	0	95420416	49	4592
2026-01-29 01:27:48.42	332.64	19.82	-38.9	-40.9	14.9	7.00e-07	0	59	0	98566144	49	4514
2026-01-29 01:27:49.43	332.41	19.87	-38.9	-40.9	14.9	7.00e-07	0	60	0	100663296	49	4494
2026-01-29 01:27:50.44	332.18	19.92	-38.9	-40.9	14.8	0.00e+00	0	59	0	103809024	49	4518
2026-01-29 01:27:51.45	331.95	19.97	-38.9	-40.9	14.9	0.00e+00	0	59	0	108003328	49	4514
2026-01-29 01:27:52.46	331.71	20.03	-38.8	-40.8	14.9	1.50e-06	0	59	0	111149056	49	4490
2026-01-29 01:27:53.47	331.48	20.07	-38.7	-40.7	15.1	0.00e+00	0	60	0	114294784	49	4398
2026-01-29 01:27:54.48	331.25	20.12	-38.7	-40.7	15.1	0.00e+00	0	59	0	117440512	49	4413
2026-01-29 01:27:55.49	331.01	20.17	-38.8	-40.7	15.0	0.00e+00	0	59	0	120586240	49	4440
2026-01-29 01:27:56.50	330.78	20.22	-38.9	-40.9	14.9	0.00e+00	0	60	0	123731968	49	4519
2026-01-29 01:27:57.51	330.54	20.27	-38.9	-40.9	14.9	7.00e-07	0	60	0	126877696	49	4518
2026-01-29 01:27:58.52	330.30	20.32	-38.9	-40.9	14.8	0.00e+00	0	59	0	130023424	49	4529
2026-01-29 01:27:59.53	330.06	20.36	-38.9	-40.9	14.9	0.00e+00	0	59	0	133169152	49	4529
2026-01-29 01:28:00.54	329.82	20.41	-38.8	-40.8	15.0	1.50e-06	0	59	0	136314880	49	4481
2026-01-29 01:28:01.55	329.58	20.46	-38.7	-40.7	15.1	0.00e+00	0	59	0	139460608	49	4395
2026-01-29 01:28:02.56	329.34	20.50	-38.7	-40.6	15.2	0.00e+00	0	59	0	142606336	49	4373
2026-01-29 01:28:03.57	329.10	20.55	-38.7	-40.7	15.1	0.00e+00	0	60	0	145752064	49	4403
2026-01-29 01:28:04.58	328.86	20.59	-38.8	-40.7	15.1	7.00e-07	0	59	0	148897792	49	4425
2026-01-29 01:28:05.59	328.62	20.64	-38.8	-40.7	15.0	0.00e+00	0	60	0	152043520	49	4435
2026-01-29 01:28:06.60	328.38	20.68	-38.7	-40.7	15.1	0.00e+00	0	59	0	155189248	49	4409
2026-01-29 01:28:07.61	328.13	20.73	-38.8	-40.7	15.1	0.00e+00	0	60	0	158334976	49	4434
2026-01-29 01:28:08.62	327.89	20.77	-38.7	-40.7	15.1	0.00e+00	0	59	0	161480704	49	4407
2026-01-29 01:28:09.63	327.64	20.81	-38.7	-40.7	15.1	0.00e+00	0	59	0	164626432	49	4392
2026-01-29 01:28:10.64	327.40	20.86	-38.6	-40.5	15.3	0.00e+00	0	59	0	167772160	49	4315
2026-01-29 01:28:11.65	327.15	20.90	-38.5	-40.4	15.4	0.00e+00	0	59	0	170917888	49	4253
2026-01-29 01:28:12.66	326.90	20.94	-38.5	-40.3	15.5	0.00e+00	0	59	0	174063616	48	4478
2026-01-29 01:28:13.67	326.65	20.98	-38.4	-40.2	15.6	0.00e+00	0	60	0	177209344	48	4436
2026-01-29 01:28:14.68	326.41	21.02	-38.4	-40.2	15.5	0.00e+00	0	60	0	180355072	48	4437
2026-01-29 01:28:15.69	326.16	21.06	-38.4	-40.2	15.6	0.00e+00	0	59	0	183500800	48	4429
2026-01-29 01:28:16.70	325.91	21.10	-38.4	-40.2	15.6	0.00e+00	0	59	0	186646528	48	4423
2026-01-29 01:28:17.71	325.66	21.14	-38.4	-40.3	15.5	0.00e+00	0	59	0	189792256	48	4450
2026-01-29 01:28:18.72	325.40	21.18	-38.5	-40.3	15.5	0.00e+00	0	60	0	192937984	48	4470
2026-01-29 01:28:19.73	325.15	21.21	-38.6	-40.4	15.4	0.00e+00	0	59	0	196083712	48	4539
2026-01-29 01:28:20.74	324.90	21.25	-38.6	-40.5	15.4	0.00e+00	0	59	0	199229440	48	4547
2026-01-29 01:28:21.75	324.65	21.29	-38.6	-40.5	15.3	0.00e+00	0	59	0	202375168	48	4549
2026-01-29 01:28:22.76	324.39	21.32	-38.6	-40.5	15.3	0.00e+00	0	60	0	205520896	48	4564
2026-01-29 01:28:23.77	324.14	21.36	-38.6	-40.5	15.3	0.00e+00	0	59	0	208666624	48	4585
2026-01-29 01:28:24.78	323.88	21.39	-38.6	-40.5	15.3	0.00e+00	0	60	0	211812352	48	4553
2026-01-29 01:28:25.79	323.63	21.43	-38.6	-40.5	15.3	0.00e+00	0	59	0	214958080	48	4566
2026-01-29 01:28:26.80	323.37	21.46	-38.6	-40.5	15.3	0.00e+00	0	59	0	218103808	48	4584
2026-01-29 01:28:27.81	323.12	21.50	-38.6	-40.5	15.3	0.00e+00	0	59	0	221249536	48	4558
2026-01-29 01:28:28.82	322.86	21.53	-38.5	-40.4	15.4	0.00e+00	0	59	0	224395264	48	4511
2026-01-29 01:28:29.83	322.60	21.56	-38.5	-40.4	15.4	0.00e+00	0	59	0	227540992	48	4505
2026-01-29 01:28:30.84	322.34	21.59	-38.5	-40.3	15.4	0.00e+00	0	59	0	230686720	48	4493
2026-01-29 01:28:31.85	322.08	21.62	-38.5	-40.4	15.4	0.00e+00	0	60	0	233832448	48	4519
2026-01-29 01:28:32.86	321.82	21.65	-38.6	-40.5	15.3	0.00e+00	0	60	0	236978176	48	4546
2026-01-29 01:28:33.87	321.56	21.68	-38.6	-40.5	15.3	0.00e+00	0	59	0	240123904	48	4560
2026-01-29 01:28:34.88	321.30	21.71	-38.5	-40.4	15.4	0.00e+00	0	59	0	243269632	48	4536
2026-01-29 01:28:35.89	321.04	21.74	-38.6	-40.5	15.3	0.00e+00	0	59	0	246415360	48	4588
2026-01-29 01:28:36.90	320.78	21.77	-38.7	-40.6	15.2	0.00e+00	0	59	0	249561088	48	4631
2026-01-29 01:28:37.91	320.52	21.80	-38.7	-40.6	15.1	0.00e+00	0	59	0	252706816	48	4637
2026-01-29 01:28:38.92	320.26	21.82	-38.7	-40.6	15.2	0.00e+00	0	59	0	255852544	48	4631
2026-01-29 01:28:39.93	320.00	21.85	-38.7	-40.6	15.2	0.00e+00	0	59	0	258998272	48	4604
2026-01-29 01:28:40.94	319.73	21.87	-38.6	-40.5	15.3	0.00e+00	0	59	0	262144000	48	4560
2026-01-29 01:28:41.95	319.47	21.90	-38.6	-40.5	15.2	0.00e+00	0	59	0	265289728	48	4588
2026-01-29 01:28:42.96	319.20	21.92	-38.6	-40.5	15.2	0.00e+00	0	59	0	268435456	48	4590
2026-01-29 01:28:43.97	318.94	21.95	-38.8	-40.7	15.1	0.00e+00	0	59	0	271581184	48	4682
2026-01-29 01:28:44.98	318.67	21.97	-38.8	-40.7	15.0	0.00e+00	0	59	0	274726912	48	4700
2026-01-29 01:28:45.99	318.41	21.99	-38.7	-40.7	15.1	0.00e+00	0	59	0	277872640	48	4670
2026-01-29 01:28:47.00	318.14	22.01	-38.7	-40.7	15.1	0.00e+00	0	59	0	281018368	48	4674
2026-01-29 01:28:48.01	317.88	22.04	-38.7	-40.7	15.1	0.00e+00	0	60	0	284164096	48	4663
2026-01-29 01:28:49.02	317.61	22.06	-38.7	-40.7	15.1	0.00e+00	0	60	0	287309824	48	4670
2026-01-29 01:28:50.03	317.34	22.08	-38.8	-40.8	15.0	7.00e-07	0	59	0	290455552	48	4722
2026-01-29 01:28:51.04	317.08	22.10	-38.8	-40.7	15.0	0.00e+00	0	59	0	293601280	48	4691
2026-01-29 01:28:52.05	316.81	22.11	-38.7	-40.7	15.1	0.00e+00	0	59	0	296747008	48	4673
2026-01-29 01:28:53.06	316.54	22.13	-38.7	-40.7	15.1	0.00e+00	0	59	0	299892736	48	4664
2026-01-29 01:28:54.07	316.27	22.15	-38.8	-40.7	15.0	0.00e+00	0	59	0	303038464	48	4696
2026-01-29 01:28:55.08	316.01	22.17	-38.8	-40.7	15.0	0.00e+00	0	59	0	306184192	48	4695
2026-01-29 01:28:56.09	315.74	22.18	-38.7	-40.7	15.1	0.00e+00	0	59	0	309329920	48	4658
2026-01-29 01:28:57.10	315.47	22.20	-38.6	-40.5	15.2	0.00e+00	0	59	0	312475648	48	4594
2026-01-29 01:28:58.11	315.20	22.21	-38.7	-40.6	15.2	0.00e+00	0	59	0	315621376	48	4647
2026-01-29 01:28:59.12	314.93	22.23	-38.7	-40.6	15.1	0.00e+00	0	59	0	318767104	48	4646
2026-01-29 01:29:00.13	314.66	22.24	-38.8	-40.7	15.0	0.00e+00	0	59	0	321912832	48	4692
2026-01-29 01:29:01.14	314.39	22.25	-38.9	-40.9	14.9	0.00e+00	0	59	0	325058560	48	4774
2026-01-29 01:29:02.15	314.12	22.26	-38.8	-40.7	15.1	0.00e+00	0	59	0	328204288	48	4689
2026-01-29 01:29:03.16	313.85	22.27	-38.7	-40.6	15.2	0.00e+00	0	59	0	331350016	48	4620
2026-01-29 01:29:04.17	313.58	22.29	-38.7	-40.6	15.2	0.00e+00	0	59	0	334495744	48	4644
2026-01-29 01:29:05.18	313.31	22.30	-38.8	-40.7	15.1	0.00e+00	0	60	0	337641472	48	4696
2026-01-29 01:29:06.19	313.04	22.30	-38.7	-40.6	15.2	0.00e+00	0	59	0	340787200	48	4615
2026-01-29 01:29:07.20	312.77	22.31	-38.6	-40.6	15.2	0.00e+00	0	59	0	343932928	48	4604
2026-01-29 01:29:08.21	312.49	22.32	-38.6	-40.5	15.3	0.00e+00	0	59	0	347078656	48	4588
2026-01-29 01:29:09.21	312.23	22.33	-38.6	-40.5	15.2	0.00e+00	0	59	0	350224384	48	4593
2026-01-29 01:29:10.22	311.95	22.33	-38.6	-40.5	15.3	0.00e+00	0	59	0	353370112	48	4583
2026-01-29 01:29:11.23	311.68	22.34	-38.5	-40.4	15.4	0.00e+00	0	59	0	356515840	48	4532
2026-01-29 01:29:12.24	311.41	22.35	-38.5	-40.3	15.5	0.00e+00	0	59	0	359661568	48	4486
2026-01-29 01:29:13.25	311.14	22.35	-38.4	-40.3	15.5	0.00e+00	0	59	0	362807296	48	4462
2026-01-29 01:29:14.26	310.87	22.35	-38.4	-40.2	15.6	0.00e+00	0	59	0	365953024	48	4419
2026-01-29 01:29:15.27	310.60	22.36	-38.4	-40.3	15.6	0.00e+00	0	59	0	369098752	48	4445
2026-01-29 01:29:16.28	310.32	22.36	-38.4	-40.3	15.5	0.00e+00	0	59	0	372244480	48	4457
2026-01-29 01:29:17.29	310.05	22.36	-38.5	-40.4	15.4	0.00e+00	0	59	0	375390208	48	4511
2026-01-29 01:29:18.30	309.78	22.36	-38.6	-40.5	15.3	0.00e+00	0	60	0	378535936	48	4566
2026-01-29 01:29:19.31	309.51	22.36	-38.7	-40.6	15.2	7.00e-07	0	59	0	381681664	48	4609
2026-01-29 01:29:20.32	309.23	22.36	-38.8	-40.7	15.1	0.00e+00	0	60	0	384827392	48	4690
2026-01-29 01:29:21.33	308.96	22.36	-38.8	-40.8	15.0	0.00e+00	0	59	0	387973120	48	4737
2026-01-29 01:29:22.34	308.69	22.36	-38.8	-40.8	15.0	0.00e+00	0	60	0	391118848	48	4724
2026-01-29 01:29:23.35	308.42	22.36	-38.7	-40.7	15.1	0.00e+00	0	59	0	394264576	48	4660
2026-01-29 01:29:24.36	308.15	22.35	-38.7	-40.6	15.2	0.00e+00	0	59	0	397410304	48	4634
2026-01-29 01:29:25.37	307.87	22.35	-38.6	-40.5	15.3	0.00e+00	0	60	0	400556032	48	4578
2026-01-29 01:29:26.38	307.60	22.35	-38.6	-40.5	15.3	0.00e+00	0	59	0	403701760	48	4554
2026-01-29 01:29:27.39	307.33	22.34	-38.5	-40.4	15.4	0.00e+00	0	59	0	406847488	48	4522
2026-01-29 01:29:28.40	307.06	22.33	-38.4	-40.3	15.5	0.00e+00	0	60	0	411041792	48	4446
2026-01-29 01:29:29.41	306.79	22.33	-38.4	-40.2	15.6	0.00e+00	0	59	0	414187520	48	4397
2026-01-29 01:29:30.42	306.52	22.32	-38.5	-40.3	15.4	0.00e+00	0	60	0	416284672	48	4489
2026-01-29 01:29:31.43	306.24	22.31	-38.5	-40.4	15.4	0.00e+00	0	59	0	419430400	48	4507
2026-01-29 01:29:32.44	305.97	22.30	-38.6	-40.5	15.3	0.00e+00	0	60	0	422576128	48	4573
2026-01-29 01:29:33.45	305.70	22.29	-38.6	-40.5	15.3	0.00e+00	0	59	0	426770432	48	4598
2026-01-29 01:29:34.46	305.43	22.28	-38.6	-40.5	15.3	0.00e+00	0	59	0	429916160	48	4575
2026-01-29 01:29:35.47	305.16	22.27	-38.6	-40.5	15.3	0.00e+00	0	60	0	433061888	48	4573
2026-01-29 01:29:36.47	304.89	22.26	-38.5	-40.4	15.4	0.00e+00	0	59	0	436207616	48	4533
2026-01-29 01:29:37.48	304.62	22.25	-38.5	-40.4	15.4	0.00e+00	0	59	0	438304768	48	4498
2026-01-29 01:29:38.49	304.35	22.24	-38.6	-40.5	15.3	0.00e+00	0	59	0	441450496	48	4552
2026-01-29 01:29:39.50	304.08	22.22	-38.7	-40.6	15.2	0.00e+00	0	59	0	445644800	48	4635
2026-01-29 01:29:40.51	303.81	22.21	-38.8	-40.8	15.0	7.00e-07	0	59	0	448790528	48	4732
2026-01-29 01:29:41.52	303.54	22.20	-38.9	-40.9	14.9	0.00e+00	0	59	0	451936256	48	4797
2026-01-29 01:29:42.53	303.27	22.18	-38.9	-40.9	14.9	0.00e+00	0	59	0	455081984	48	4782
2026-01-29 01:29:43.54	303.00	22.16	-38.9	-40.9	14.9	0.00e+00	0	59	0	458227712	48	4813
2026-01-29 01:29:44.54	302.74	22.15	-38.9	-40.9	14.9	0.00e+00	0	59	0	461373440	48	4784
2026-01-29 01:29:45.55	302.47	22.13	-38.9	-40.9	14.9	0.00e+00	0	59	0	464519168	48	4767
2026-01-29 01:29:46.57	302.20	22.11	-38.8	-40.7	15.1	7.00e-07	0	59	0	467664896	48	4699
2026-01-29 01:29:47.57	301.93	22.09	-38.7	-40.6	15.2	0.00e+00	0	59	0	470810624	48	4618
2026-01-29 01:29:48.59	301.66	22.07	-38.7	-40.6	15.2	0.00e+00	0	59	0	473956352	48	4627
2026-01-29 01:29:49.60	301.40	22.05	-38.6	-40.5	15.3	0.00e+00	0	60	0	477102080	48	4567
2026-01-29 01:29:50.60	301.13	22.03	-38.6	-40.5	15.2	0.00e+00	0	59	0	480247808	48	4587
2026-01-29 01:29:51.61	300.87	22.01	-38.6	-40.6	15.2	0.00e+00	0	60	0	483393536	48	4603
2026-01-29 01:29:52.63	300.60	21.99	-38.5	-40.4	15.4	0.00e+00	0	59	0	486539264	48	4499
2026-01-29 01:29:53.64	300.33	21.97	-38.5	-40.4	15.4	0.00e+00	0	60	0	489684992	48	4507
2026-01-29 01:29:54.65	300.07	21.94	-38.6	-40.5	15.3	0.00e+00	0	59	0	492830720	48	4547
2026-01-29 01:29:55.66	299.80	21.92	-38.7	-40.6	15.2	0.00e+00	0	59	0	495976448	48	4638
2026-01-29 01:29:56.67	299.54	21.90	-38.7	-40.7	15.1	0.00e+00	0	59	0	499122176	48	4656
2026-01-29 01:29:57.68	299.27	21.87	-38.9	-40.9	14.9	0.00e+00	0	59	0	502267904	48	4790
2026-01-29 01:29:58.69	299.01	21.85	-39.0	-41.0	14.8	7.00e-07	0	60	0	505413632	48	4844
2026-01-29 01:29:59.70	298.75	21.82	-39.0	-41.1	14.7	0.00e+00	0	59	0	508559360	48	4873
2026-01-29 01:30:00.71	298.48	21.79	-38.9	-40.8	14.9	0.00e+00	0	59	0	511705088	48	4755
2026-01-29 01:30:01.72	298.22	21.76	-38.6	-40.6	15.2	0.00e+00	0	59	0	514850816	48	4599
2026-01-29 01:30:02.73	297.96	21.74	-38.5	-40.4	15.4	0.00e+00	0	59	0	517996544	48	4515
2026-01-29 01:30:03.74	297.70	21.71	-38.5	-40.3	15.4	0.00e+00	0	60	0	521142272	48	4480
2026-01-29 01:30:04.75	297.44	21.68	-38.5	-40.3	15.4	0.00e+00	0	59	0	524288000	48	4473
2026-01-29 01:30:05.76	297.18	21.65	-38.6	-40.5	15.3	0.00e+00	0	60	0	527433728	48	4558
2026-01-29 01:30:06.77	296.92	21.62	-38.5	-40.3	15.5	0.00e+00	0	59	0	530579456	48	4487
2026-01-29 01:30:07.78	296.66	21.59	-38.5	-40.3	15.4	0.00e+00	0	59	0	533725184	48	4479
2026-01-29 01:30:08.79	296.40	21.55	-38.4	-40.2	15.6	0.00e+00	0	59	0	536870912	48	4428
2026-01-29 01:30:09.80	296.14	21.52	-38.4	-40.2	15.6	0.00e+00	0	59	0	540016640	48	4399
2026-01-29 01:30:10.81	295.88	21.49	-38.3	-40.2	15.6	0.00e+00	0	59	0	543162368	48	4406
2026-01-29 01:30:11.82	295.63	21.46	-38.4	-40.2	15.5	0.00e+00	0	59	0	546308096	48	4428
2026-01-29 01:30:12.83	295.37	21.42	-38.5	-40.4	15.3	0.00e+00	0	59	0	549453824	48	4541
2026-01-29 01:30:13.84	295.11	21.39	-38.6	-40.5	15.2	0.00e+00	0	59	0	552599552	48	4595
2026-01-29 01:30:14.85	294.86	21.35	-38.7	-40.6	15.1	0.00e+00	0	59	0	555745280	48	4647
2026-01-29 01:30:15.86	294.60	21.32	-38.7	-40.7	15.1	0.00e+00	0	59	0	558891008	48	4664
2026-01-29 01:30:16.87	294.35	21.28	-38.8	-40.7	15.1	0.00e+00	0	59	0	562036736	48	4690
2026-01-29 01:30:17.88	294.10	21.24	-38.8	-40.8	14.9	0.00e+00	0	59	0	565182464	48	4739
2026-01-29 01:30:18.89	293.84	21.21	-38.9	-40.9	14.9	0.00e+00	0	59	0	568328192	48	4774
2026-01-29 01:30:19.90	293.59	21.17	-38.9	-40.9	14.9	0.00e+00	0	59	0	571473920	48	4801
2026-01-29 01:30:20.91	293.34	21.13	-38.8	-40.8	14.9	0.00e+00	0	59	0	574619648	48	4736
2026-01-29 01:30:21.92	293.09	21.09	-38.9	-40.9	14.9	7.00e-07	0	59	0	577765376	48	4797
2026-01-29 01:30:22.93	292.84	21.05	-38.9	-41.0	14.8	7.00e-07	0	59	0	580911104	48	4827
2026-01-29 01:30:23.94	292.59	21.01	-39.0	-41.0	14.7	7.00e-07	0	59	0	584056832	48	4861
2026-01-29 01:30:24.95	292.34	20.97	-39.0	-41.0	14.7	0.00e+00	0	60	0	587202560	48	4848
2026-01-29 01:30:25.96	292.09	20.93	-38.9	-41.0	14.8	7.00e-07	0	59	0	590348288	48	4823
2026-01-29 01:30:26.97	291.84	20.89	-38.8	-40.8	14.9	0.00e+00	0	60	0	593494016	48	4746
2026-01-29 01:30:27.98	291.59	20.85	-38.8	-40.7	15.1	0.00e+00	0	59	0	596639744	48	4685
2026-01-29 01:30:28.99	291.35	20.81	-38.8	-40.7	15.0	0.00e+00	0	60	0	599785472	48	4702
2026-01-29 01:30:30.00	291.10	20.76	-38.8	-40.8	15.0	7.00e-07	0	60	0	602931200	48	4706
2026-01-29 01:30:31.00	290.86	20.72	-38.7	-40.7	15.0	0.00e+00	0	60	0	606076928	48	4683
2026-01-29 01:30:32.01	290.61	20.68	-38.8	-40.8	15.0	0.00e+00	0	59	0	609222656	48	4706
2026-01-29 01:30:33.02	290.37	20.63	-38.6	-40.6	15.2	0.00e+00	0	59	0	612368384	48	4609
2026-01-29 01:30:34.03	290.13	20.59	-38.7	-40.6	15.1	0.00e+00	0	59	0	615514112	48	4631
2026-01-29 01:30:35.04	289.88	20.54	-38.7	-40.7	15.1	0.00e+00	0	60	0	618659840	48	4653
2026-01-29 01:30:36.05	289.64	20.50	-38.8	-40.7	15.0	0.00e+00	0	59	0	621805568	48	4691
2026-01-29 01:30:37.06	289.40	20.45	-38.8	-40.9	14.9	7.00e-07	0	59	0	624951296	48	4763
2026-01-29 01:30:38.07	289.16	20.40	-38.9	-41.0	14.8	7.00e-07	0	59	0	628097024	48	4822
2026-01-29 01:30:39.08	288.92	20.36	-38.9	-40.9	14.8	0.00e+00	0	59	0	631242752	48	4811
2026-01-29 01:30:40.09	288.68	20.31	-38.9	-40.9	14.8	0.00e+00	0	59	0	634388480	48	4776
2026-01-29 01:30:41.10	288.44	20.26	-38.8	-40.8	14.9	0.00e+00	0	59	0	637534208	48	4729
2026-01-29 01:30:42.11	288.21	20.21	-38.8	-40.8	14.9	0.00e+00	0	60	0	640679936	48	4749
2026-01-29 01:30:43.12	287.97	20.16	-38.9	-40.9	14.8	0.00e+00	0	59	0	643825664	48	4786
2026-01-29 01:30:44.13	287.73	20.11	-38.8	-40.9	14.9	0.00e+00	0	59	0	646971392	48	4760
2026-01-29 01:30:45.14	287.50	20.06	-38.9	-40.9	14.8	0.00e+00	0	59	0	650117120	48	4798
2026-01-29 01:30:46.15	287.27	20.01	-38.8	-40.8	14.9	0.00e+00	0	59	0	653262848	48	4726
2026-01-29 01:30:47.16	287.03	19.96	-38.7	-40.7	15.0	0.00e+00	0	59	0	656408576	48	4683
2026-01-29 01:30:48.16	286.80	19.91	-38.7	-40.7	15.0	0.00e+00	0	59	0	659554304	48	4685
2026-01-29 01:30:49.18	286.57	19.86	-38.6	-40.5	15.2	0.00e+00	0	60	0	662700032	48	4598
2026-01-29 01:30:50.18	286.34	19.81	-38.5	-40.4	15.3	0.00e+00	0	59	0	665845760	48	4544
2026-01-29 01:30:51.19	286.11	19.76	-38.5	-40.4	15.3	0.00e+00	0	60	0	668991488	48	4499
2026-01-29 01:30:52.20	285.88	19.71	-38.5	-40.4	15.2	0.00e+00	0	59	0	672137216	48	4537
2026-01-29 01:30:53.22	285.65	19.65	-38.6	-40.5	15.3	0.00e+00	0	60	0	675282944	48	4553
2026-01-29 01:30:54.22	285.42	19.60	-38.7	-40.6	15.1	0.00e+00	0	59	0	678428672	48	4622
2026-01-29 01:30:55.24	285.19	19.55	-38.7	-40.7	15.0	0.00e+00	0	59	0	681574400	48	4687
2026-01-29 01:30:56.25	284.97	19.49	-38.7	-40.7	15.0	0.00e+00	0	59	0	684720128	48	4685
2026-01-29 01:30:57.26	284.74	19.44	-38.8	-40.9	14.8	0.00e+00	0	59	0	687865856	48	4763
2026-01-29 01:30:58.27	284.51	19.38	-38.9	-40.9	14.8	0.00e+00	0	59	0	691011584	48	4769
2026-01-29 01:30:59.28	284.29	19.33	-38.9	-40.9	14.8	7.00e-07	0	60	0	694157312	48	4771
2026-01-29 01:31:00.29	284.07	19.27	-38.9	-41.0	14.7	7.00e-07	0	59	0	697303040	48	4827
2026-01-29 01:31:01.30	283.84	19.22	-39.0	-41.1	14.6	0.00e+00	0	59	0	700448768	48	4885
2026-01-29 01:31:02.31	283.62	19.16	-39.0	-41.0	14.7	0.00e+00	0	59	0	703594496	48	4848
2026-01-29 01:31:03.32	283.40	19.11	-39.0	-41.0	14.6	7.00e-07	0	59	0	706740224	48	4863
2026-01-29 01:31:04.33	283.18	19.05	-38.9	-41.0	14.7	0.00e+00	0	59	0	709885952	48	4833
2026-01-29 01:31:05.34	282.96	18.99	-38.9	-41.0	14.7	0.00e+00	0	59	0	713031680	48	4831
2026-01-29 01:31:06.35	282.74	18.94	-39.1	-41.2	14.5	7.00e-07	0	60	0	716177408	48	4947
2026-01-29 01:31:07.36	282.53	18.88	-39.1	-41.2	14.5	0.00e+00	0	59	0	719323136	48	4938
2026-01-29 01:31:08.37	282.31	18.82	-39.1	-41.3	14.4	1.50e-06	0	59	0	722468864	48	4989
2026-01-29 01:31:09.38	282.09	18.76	-39.2	-41.4	14.3	1.50e-06	0	59	0	725614592	48	5042
2026-01-29 01:31:10.39	281.88	18.71	-39.3	-41.4	14.2	1.50e-06	0	60	0	728760320	49	4814
2026-01-29 01:31:11.40	281.67	18.65	-39.3	-41.5	14.1	7.00e-07	0	59	0	731906048	49	4847
2026-01-29 01:31:12.41	281.45	18.59	-39.3	-41.5	14.1	2.20e-06	0	59	0	735051776	49	4834
2026-01-29 01:31:13.42	281.24	18.53	-39.4	-41.6	14.0	3.80e-06	0	59	0	738197504	49	4917
2026-01-29 01:31:14.43	281.03	18.47	-39.3	-41.6	14.1	1.50e-06	0	59	0	741343232	49	4886
2026-01-29 01:31:15.44	280.82	18.41	-39.3	-41.5	14.1	2.20e-06	0	59	0	744488960	49	4837
2026-01-29 01:31:16.45	280.61	18.35	-39.1	-41.3	14.3	3.00e-06	0	60	0	748683264	49	4718
2026-01-29 01:31:17.46	280.40	18.29	-39.1	-41.2	14.5	7.00e-07	0	59	0	751828992	49	4654
2026-01-29 01:31:18.47	280.19	18.23	-39.1	-41.2	14.4	7.00e-07	0	59	0	753926144	49	4672
2026-01-29 01:31:19.48	279.98	18.17	-39.1	-41.2	14.4	2.20e-06	0	60	0	757071872	49	4660
2026-01-29 01:31:20.49	279.77	18.11	-39.0	-41.1	14.5	0.00e+00	0	59	0	760217600	49	4630
2026-01-29 01:31:21.50	279.57	18.05	-38.9	-41.0	14.6	0.00e+00	0	60	0	764411904	49	4571
2026-01-29 01:31:22.50	279.37	17.99	-38.8	-40.8	14.8	0.00e+00	0	60	0	767557632	49	4489
2026-01-29 01:31:23.51	279.16	17.93	-38.8	-40.7	14.8	0.00e+00	0	60	0	770703360	49	4441
2026-01-29 01:31:24.52	278.96	17.86	-38.7	-40.7	14.9	0.00e+00	0	60	0	773849088	49	4437
2026-01-29 01:31:25.53	278.76	17.80	-38.7	-40.7	14.9	0.00e+00	0	59	0	776994816	49	4418
2026-01-29 01:31:26.54	278.55	17.74	-38.7	-40.7	14.9	0.00e+00	0	59	0	779091968	49	4398
2026-01-29 01:31:27.55	278.35	17.68	-38.7	-40.6	14.9	1.50e-06	0	59	0	783286272	49	4378
2026-01-29 01:31:28.56	278.15	17.61	-38.7	-40.6	14.9	0.00e+00	0	59	0	786432000	49	4391
2026-01-29 01:31:29.57	277.95	17.55	-38.6	-40.5	15.0	0.00e+00	0	60	0	789577728	49	4329
2026-01-29 01:31:30.58	277.75	17.49	-38.7	-40.7	14.9	0.00e+00	0	60	0	792723456	49	4396
2026-01-29 01:31:31.59	277.56	17.43	-38.8	-40.8	14.8	7.00e-07	0	59	0	795869184	49	4448
2026-01-29 01:31:32.60	277.36	17.36	-38.9	-40.9	14.6	0.00e+00	0	59	0	799014912	49	4540
2026-01-29 01:31:33.61	277.16	17.30	-39.0	-41.1	14.4	7.00e-07	0	59	0	802160640	49	4642
2026-01-29 01:31:34.62	276.97	17.24	-39.2	-41.3	14.2	2.20e-06	0	59	0	805306368	49	4753
2026-01-29 01:31:35.63	276.77	17.17	-39.3	-41.5	14.0	3.00e-06	0	60	0	808452096	49	4859
2026-01-29 01:31:36.64	276.58	17.11	-39.4	-41.6	13.9	2.20e-06	0	60	0	811597824	49	4925
2026-01-29 01:31:37.65	276.39	17.04	-39.4	-41.7	13.9	4.50e-06	0	60	0	814743552	49	4932
2026-01-29 01:31:38.66	276.20	16.98	-39.4	-41.6	13.9	2.20e-06	0	59	0	817889280	49	4918
2026-01-29 01:31:39.67	276.01	16.91	-39.3	-41.6	14.0	3.00e-06	0	59	0	821035008	49	4882
2026-01-29 01:31:40.67	275.82	16.85	-39.2	-41.4	14.1	2.20e-06	0	60	0	824180736	49	4811
2026-01-29 01:31:41.69	275.63	16.79	-39.2	-41.4	14.1	0.00e+00	0	59	0	827326464	49	4811
2026-01-29 01:31:42.69	275.44	16.72	-39.3	-41.6	13.9	2.20e-06	0	60	0	830472192	49	4899
2026-01-29 01:31:43.70	275.25	16.66	-39.3	-41.6	13.9	2.20e-06	0	59	0	833617920	49	4902
2026-01-29 01:31:44.71	275.06	16.59	-39.4	-41.8	13.7	6.10e-06	0	59	0	836763648	49	5002
2026-01-29 01:31:45.72	274.88	16.53	-39.5	-41.9	13.6	9.10e-06	0	59	0	839909376	49	5070
2026-01-29 01:31:46.73	274.69	16.46	-39.6	-42.0	13.5	4.50e-06	0	59	0	843055104	49	5141
2026-01-29 01:31:47.74	274.51	16.39	-39.5	-41.9	13.6	1.52e-05	0	59	0	846200832	49	5079
2026-01-29 01:31:48.75	274.33	16.33	-39.5	-41.8	13.7	5.30e-06	0	60	0	849346560	49	5018
2026-01-29 01:31:49.76	274.14	16.26	-39.5	-41.8	13.7	9.10e-06	0	59	0	852492288	49	5017
2026-01-29 01:31:50.77	273.96	16.20	-39.4	-41.7	13.8	4.50e-06	0	59	0	855638016	49	4945
2026-01-29 01:31:51.78	273.78	16.13	-39.4	-41.7	13.9	2.20e-06	0	59	0	858783744	49	4932
2026-01-29 01:31:52.79	273.60	16.06	-39.3	-41.5	14.0	4.50e-06	0	59	0	861929472	49	4853
2026-01-29 01:31:53.80	273.42	16.00	-39.3	-41.5	14.0	3.00e-06	0	59	0	865075200	49	4842
2026-01-29 01:31:54.81	273.24	15.93	-39.3	-41.6	13.9	4.50e-06	0	59	0	868220928	49	4902
2026-01-29 01:31:55.82	273.06	15.87	-39.4	-41.7	13.8	3.80e-06	0	59	0	871366656	49	4948
2026-01-29 01:31:56.83	272.89	15.80	-39.3	-41.6	13.9	5.30e-06	0	59	0	874512384	49	4872
2026-01-29 01:31:57.84	272.71	15.73	-39.2	-41.5	14.0	3.00e-06	0	60	0	877658112	49	4820
2026-01-29 01:31:58.85	272.53	15.67	-39.1	-41.3	14.2	1.50e-06	0	60	0	880803840	49	4732
2026-01-29 01:31:59.86	272.36	15.60	-39.0	-41.1	14.4	0.00e+00	0	60	0	883949568	49	4629
2026-01-29 01:32:00.87	272.18	15.53	-38.9	-41.0	14.5	1.50e-06	0	59	0	887095296	49	4579
2026-01-29 01:32:01.88	272.01	15.46	-38.9	-41.0	14.5	3.00e-06	0	60	0	890241024	49	4550
2026-01-29 01:32:02.89	271.84	15.40	-39.0	-41.1	14.4	1.50e-06	0	59	0	893386752	49	4626
2026-01-29 01:32:03.90	271.67	15.33	-39.0	-41.2	14.3	0.00e+00	0	59	0	896532480	49	4671
2026-01-29 01:32:04.91	271.50	15.26	-39.2	-41.3	14.1	3.00e-06	0	59	0	899678208	49	4750
2026-01-29 01:32:05.92	271.33	15.20	-39.2	-41.4	14.1	7.00e-07	0	59	0	902823936	49	4794
2026-01-29 01:32:06.93	271.16	15.13	-39.3	-41.5	14.0	4.50e-06	0	59	0	905969664	49	4865
2026-01-29 01:32:07.94	270.99	15.06	-39.3	-41.6	13.9	7.60e-06	0	59	0	909115392	49	4871
2026-01-29 01:32:08.95	270.82	14.99	-39.2	-41.4	14.1	3.00e-06	0	59	0	912261120	49	4796
2026-01-29 01:32:09.96	270.65	14.93	-39.2	-41.5	14.0	3.00e-06	0	59	0	915406848	49	4830
2026-01-29 01:32:10.97	270.49	14.86	-39.3	-41.6	13.9	2.20e-06	0	59	0	918552576	49	4890
2026-01-29 01:32:11.98	270.32	14.79	-39.3	-41.6	13.9	4.50e-06	0	59	0	921698304	49	4912
2026-01-29 01:32:12.99	270.16	14.72	-39.3	-41.6	13.9	1.50e-06	0	59	0	924844032	49	4911
2026-01-29 01:32:14.00	269.99	14.65	-39.4	-41.7	13.8	6.10e-06	0	60	0	927989760	49	4927
2026-01-29 01:32:15.01	269.83	14.59	-39.2	-41.4	14.0	3.00e-06	0	59	0	931135488	49	4801
2026-01-29 01:32:16.02	269.67	14.52	-39.1	-41.2	14.2	7.00e-07	0	59	0	934281216	49	4698
2026-01-29 01:32:17.03	269.50	14.45	-39.0	-41.1	14.3	0.00e+00	0	59	0	937426944	49	4632
2026-01-29 01:32:18.04	269.34	14.38	-38.9	-41.0	14.4	1.50e-06	0	59	0	940572672	49	4584
2026-01-29 01:32:19.05	269.18	14.31	-38.7	-40.8	14.7	0.00e+00	0	59	0	943718400	49	4459
2026-01-29 01:32:20.06	269.02	14.25	-38.7	-40.8	14.6	7.00e-07	0	59	0	946864128	49	4462
2026-01-29 01:32:21.07	268.86	14.18	-38.7	-40.8	14.7	0.00e+00	0	59	0	950009856	49	4445
2026-01-29 01:32:22.08	268.71	14.11	-38.7	-40.7	14.7	7.00e-07	0	59	0	953155584	49	4441
2026-01-29 01:32:23.09	268.55	14.04	-38.9	-41.0	14.4	1.50e-06	0	60	0	956301312	49	4556
2026-01-29 01:32:24.10	268.39	13.97	-39.0	-41.2	14.2	3.00e-06	0	59	0	959447040	49	4688
2026-01-29 01:32:25.11	268.24	13.91	-39.1	-41.3	14.0	4.50e-06	0	59	0	962592768	49	4750
2026-01-29 01:32:26.12	268.08	13.84	-39.2	-41.4	13.9	2.20e-06	0	59	0	965738496	49	4812
2026-01-29 01:32:27.13	267.93	13.77	-39.2	-41.4	14.0	3.00e-06	0	60	0	968884224	49	4795
2026-01-29 01:32:28.14	267.77	13.70	-39.1	-41.4	14.0	1.50e-06	0	60	0	972029952	49	4771
2026-01-29 01:32:29.15	267.62	13.63	-39.1	-41.3	14.0	3.00e-06	0	59	0	975175680	49	4745
2026-01-29 01:32:30.16	267.47	13.56	-39.2	-41.4	14.0	1.50e-06	0	59	0	978321408	49	4786
2026-01-29 01:32:31.17	267.32	13.50	-39.1	-41.3	14.1	2.20e-06	0	60	0	981467136	49	4745
2026-01-29 01:32:32.18	267.16	13.43	-39.1	-41.4	14.0	7.00e-07	0	60	0	984612864	49	4768
2026-01-29 01:32:33.19	267.01	13.36	-39.2	-41.4	13.9	3.00e-06	0	59	0	987758592	49	4795
2026-01-29 01:32:34.20	266.87	13.29	-39.3	-41.6	13.8	2.20e-06	0	59	0	990904320	49	4893
2026-01-29 01:32:35.20	266.72	13.22	-39.4	-41.7	13.6	6.10e-06	0	59	0	994050048	49	4972
2026-01-29 01:32:36.21	266.57	13.16	-39.5	-41.9	13.5	9.90e-06	0	59	0	997195776	49	5061
2026-01-29 01:32:37.22	266.42	13.09	-39.4	-41.8	13.6	1.29e-05	0	60	0	1000341504	49	5010
2026-01-29 01:32:38.23	266.28	13.02	-39.4	-41.7	13.6	6.80e-06	0	60	0	1003487232	49	4980
2026-01-29 01:32:39.24	266.13	12.95	-39.4	-41.7	13.6	8.30e-06	0	59	0	1006632960	49	4955
2026-01-29 01:32:40.25	265.98	12.88	-39.3	-41.6	13.7	3.80e-06	0	60	0	1009778688	49	4920
2026-01-29 01:32:41.26	265.84	12.81	-39.3	-41.6	13.7	1.50e-06	0	59	0	1012924416	49	4884
2026-01-29 01:32:42.27	265.70	12.75	-39.1	-41.3	14.0	3.80e-06	0	59	0	1016070144	49	4754
2026-01-29 01:32:43.28	265.55	12.68	-39.1	-41.3	14.0	5.30e-06	0	59	0	1019215872	49	4738
2026-01-29 01:32:44.29	265.41	12.61	-39.1	-41.3	14.0	3.00e-06	0	59	0	1022361600	49	4716
2026-01-29 01:32:45.30	265.27	12.54	-39.1	-41.3	14.0	3.80e-06	0	60	0	1025507328	49	4727
2026-01-29 01:32:46.31	265.13	12.47	-39.1	-41.3	14.0	2.20e-06	0	60	0	1028653056	49	4744
2026-01-29 01:32:47.32	264.99	12.41	-39.1	-41.4	13.9	3.00e-06	0	59	0	1031798784	49	4774
2026-01-29 01:32:48.33	264.84	12.34	-39.4	-41.7	13.5	9.10e-06	0	59	0	1034944512	49	4958
2026-01-29 01:32:49.34	264.71	12.27	-39.5	-41.9	13.4	1.22e-05	0	59	0	1038090240	49	5070
2026-01-29 01:32:50.35	264.57	12.20	-39.6	-42.1	13.2	2.51e-05	0	59	0	1041235968	49	5183
2026-01-29 01:32:51.36	264.43	12.13	-39.8	-42.3	12.9	3.35e-05	0	60	0	1044381696	50	5018
2026-01-29 01:32:52.37	264.29	12.07	-39.9	-42.5	12.8	4.57e-05	0	59	0	1047527424	50	5118
2026-01-29 01:32:53.38	264.15	12.00	-39.9	-42.5	12.7	8.46e-05	0	59	0	1050673152	50	5149
2026-01-29 01:32:54.39	264.02	11.93	-39.9	-42.5	12.7	7.93e-05	0	59	0	1053818880	50	5155
2026-01-29 01:32:55.40	263.88	11.86	-39.8	-42.4	12.8	6.02e-05	0	59	0	1056964608	50	5089
2026-01-29 01:32:56.41	263.75	11.79	-39.8	-42.4	12.8	5.34e-05	0	59	0	1060110336	50	5076
2026-01-29 01:32:57.42	263.61	11.73	-39.6	-42.2	13.1	2.51e-05	0	59	0	1063256064	50	4939
2026-01-29 01:32:58.43	263.48	11.66	-39.5	-42.0	13.3	1.90e-05	0	59	0	1066401792	50	4847
2026-01-29 01:32:59.44	263.35	11.59	-39.4	-41.8	13.4	1.44e-05	0	59	0	1069547520	50	4751
2026-01-29 01:33:00.45	263.21	11.52	-39.4	-41.7	13.5	9.10e-06	0	60	0	1072693248	50	4680
2026-01-29 01:33:01.46	263.08	11.45	-39.3	-41.6	13.6	9.10e-06	0	60	0	1075838976	50	4620
2026-01-29 01:33:02.47	262.95	11.39	-39.3	-41.7	13.6	1.14e-05	0	60	0	1078984704	50	4679
2026-01-29 01:33:03.48	262.82	11.32	-39.4	-41.8	13.4	1.37e-05	0	59	0	1082130432	50	4742
2026-01-29 01:33:04.48	262.69	11.25	-39.5	-42.0	13.2	1.98e-05	0	59	0	1085276160	50	4854
2026-01-29 01:33:05.49	262.56	11.18	-39.7	-42.3	12.9	4.42e-05	0	59	0	1089470464	50	5017
2026-01-29 01:33:06.50	262.43	11.12	-39.9	-42.5	12.7	6.10e-05	0	59	0	1092616192	50	5146
2026-01-29 01:33:07.51	262.31	11.05	-40.0	-42.8	12.4	1.21e-04	0	59	0	1094713344	50	5295
2026-01-29 01:33:08.52	262.18	10.98	-40.2	-43.0	12.2	2.08e-04	0	59	0	1097859072	50	5438
2026-01-29 01:33:09.53	262.05	10.91	-40.3	-43.2	12.0	2.91e-04	0	60	0	1101004800	51	5229
2026-01-29 01:33:10.54	261.93	10.85	-40.3	-43.4	11.8	4.68e-04	0	60	0	1104150528	51	5342
2026-01-29 01:33:11.55	261.80	10.78	-40.4	-43.4	11.8	4.48e-04	0	59	0	1108344832	51	5369
2026-01-29 01:33:12.56	261.67	10.71	-40.4	-43.4	11.8	6.02e-04	0	60	0	1111490560	51	5349
2026-01-29 01:33:13.57	261.55	10.65	-40.3	-43.3	11.9	4.25e-04	0	60	0	1114636288	51	5290
2026-01-29 01:33:14.58	261.43	10.58	-40.3	-43.3	11.8	4.44e-04	0	59	0	1116733440	51	5305
2026-01-29 01:33:15.59	261.30	10.51	-40.3	-43.2	11.9	3.42e-04	0	60	0	1119879168	51	5249
2026-01-29 01:33:16.60	261.18	10.44	-40.2	-43.0	12.1	2.68e-04	0	59	0	1124073472	51	5139
2026-01-29 01:33:17.61	261.06	10.38	-40.0	-42.8	12.4	1.95e-04	0	60	0	1127219200	51	4990
2026-01-29 01:33:18.62	260.94	10.31	-40.0	-42.7	12.4	1.57e-04	0	59	0	1130364928	51	4961
2026-01-29 01:33:19.63	260.81	10.24	-39.9	-42.5	12.6	9.53e-05	0	59	0	1133510656	51	4870
2026-01-29 01:33:20.64	260.69	10.18	-39.9	-42.6	12.5	1.14e-04	0	59	0	1136656384	51	4904
2026-01-29 01:33:21.65	260.57	10.11	-40.1	-42.9	12.2	1.82e-04	0	59	0	1139802112	51	5053
2026-01-29 01:33:22.66	260.45	10.04	-40.1	-43.0	12.0	2.73e-04	0	59	0	1142947840	51	5154
2026-01-29 01:33:23.67	260.34	9.98	-40.1	-43.0	12.1	2.57e-04	0	60	0	1146093568	51	5107
2026-01-29 01:33:24.68	260.22	9.91	-40.1	-43.0	12.1	3.67e-04	0	59	0	1149239296	51	5131
2026-01-29 01:33:25.69	260.10	9.84	-40.3	-43.3	11.8	4.22e-04	0	60	0	1152385024	51	5292
2026-01-29 01:33:26.70	259.98	9.78	-40.3	-43.3	11.7	5.65e-04	0	59	0	1155530752	51	5327
2026-01-29 01:33:27.71	259.87	9.71	-40.4	-43.4	11.6	6.89e-04	0	60	0	1158676480	51	5388
2026-01-29 01:33:28.72	259.75	9.64	-40.3	-43.4	11.6	6.10e-04	0	59	0	1161822208	51	5385
2026-01-29 01:33:29.73	259.63	9.58	-40.3	-43.4	11.6	6.58e-04	0	60	0	1164967936	51	5371
2026-01-29 01:33:30.74	259.52	9.51	-40.4	-43.4	11.6	5.65e-04	0	59	0	1168113664	51	5387
2026-01-29 01:33:31.75	259.40	9.45	-40.3	-43.3	11.7	7.02e-04	0	60	0	1171259392	51	5332
2026-01-29 01:33:32.76	259.29	9.38	-40.2	-43.2	11.9	4.32e-04	0	60	0	1174405120	51	5236
2026-01-29 01:33:33.76	259.18	9.31	-40.3	-43.3	11.8	4.85e-04	0	59	0	1177550848	51	5291
2026-01-29 01:33:34.77	259.06	9.25	-40.2	-43.1	11.9	3.73e-04	0	60	0	1180696576	51	5185
2026-01-29 01:33:35.78	258.95	9.18	-40.1	-43.1	12.0	3.76e-04	0	59	0	1183842304	51	5162
2026-01-29 01:33:36.79	258.84	9.12	-40.2	-43.1	11.9	4.44e-04	0	60	0	1186988032	51	5207
2026-01-29 01:33:37.80	258.73	9.05	-40.1	-43.0	11.9	3.13e-04	0	60	0	1190133760	51	5159
2026-01-29 01:33:38.81	258.62	8.99	-40.1	-43.1	11.9	3.67e-04	0	59	0	1193279488	51	5183
2026-01-29 01:33:39.82	258.51	8.92	-40.1	-43.0	12.0	3.88e-04	0	60	0	1196425216	51	5126
2026-01-29 01:33:40.83	258.40	8.85	-40.2	-43.2	11.7	4.94e-04	0	59	0	1199570944	51	5277
2026-01-29 01:33:41.84	258.29	8.79	-40.3	-43.3	11.6	6.14e-04	0	60	0	1202716672	51	5337
2026-01-29 01:33:42.85	258.18	8.72	-40.3	-43.3	11.6	7.03e-04	0	60	0	1205862400	51	5333
2026-01-29 01:33:43.86	258.07	8.66	-40.3	-43.4	11.6	8.16e-04	0	60	0	1209008128	51	5361
2026-01-29 01:33:44.87	257.96	8.59	-40.3	-43.3	11.7	5.15e-04	0	60	0	1212153856	51	5298
2026-01-29 01:33:45.88	257.85	8.53	-40.2	-43.2	11.8	5.34e-04	0	60	0	1215299584	51	5224
2026-01-29 01:33:46.89	257.75	8.46	-40.3	-43.3	11.6	6.42e-04	0	60	0	1218445312	51	5333
2026-01-29 01:33:47.90	257.64	8.40	-40.1	-43.1	11.8	4.60e-04	0	59	0	1221591040	51	5196
2026-01-29 01:33:48.91	257.53	8.33	-40.2	-43.2	11.8	4.68e-04	0	60	0	1224736768	51	5224
2026-01-29 01:33:49.92	257.43	8.27	-40.1	-43.0	12.0	3.73e-04	0	60	0	1227882496	51	5113
2026-01-29 01:33:50.93	257.32	8.20	-40.1	-43.0	11.9	4.68e-04	0	60	0	1231028224	51	5139
2026-01-29 01:33:51.94	257.22	8.14	-40.0	-42.9	12.0	3.84e-04	0	59	0	1234173952	51	5099
2026-01-29 01:33:52.94	257.12	8.08	-40.1	-43.0	11.9	3.71e-04	0	60	0	1237319680	51	5137
2026-01-29 01:33:53.96	257.01	8.01	-40.1	-43.0	11.9	4.16e-04	0	60	0	1240465408	51	5127
2026-01-29 01:33:54.97	256.91	7.95	-44.1	-56.1	3.8	1.07e+00	0	60	104	1242562560	58	15572
2026-01-29 01:33:55.98	256.81	7.88	-44.5	-56.9	3.8	1.49e+00	0	60	104	1242562560	59	16041
2026-01-29 01:33:56.99	256.70	7.82	-44.7	-57.2	3.8	1.49e+00	0	60	104	1242562560	59	16504
2026-01-29 01:33:58.00	256.60	7.75	-44.8	-57.4	3.8	1.49e+00	0	60	104	1242562560	60	16017
2026-01-29 01:33:59.01	256.50	7.69	-44.9	-57.5	3.8	1.49e+00	0	60	104	1242562560	60	16254
2026-01-29 01:34:00.02	256.40	7.62	-45.0	-57.6	3.8	1.49e+00	0	60	104	1242562560	60	16405
2026-01-29 01:34:01.03	256.30	7.56	-45.0	-57.6	3.8	1.49e+00	0	59	104	1242562560	60	16443
2026-01-29 01:34:02.04	256.20	7.50	-45.0	-57.6	3.8	1.49e+00	0	59	104	1242562560	60	16476
2026-01-29 01:34:03.05	256.10	7.43	-45.0	-57.7	3.8	1.49e+00	0	60	104	1242562560	60	16569
2026-01-29 01:34:04.06	256.00	7.37	-45.1	-57.7	3.8	1.49e+00	0	60	104	1242562560	60	16627
2026-01-29 01:34:05.07	255.90	7.30	-45.1	-57.7	3.8	1.49e+00	0	60	104	1242562560	60	16566
2026-01-29 01:34:06.08	255.80	7.24	-45.1	-57.7	3.8	1.49e+00	0	60	104	1242562560	60	16589
2026-01-29 01:34:07.09	255.71	7.18	-45.0	-57.7	3.8	1.49e+00	0	60	104	1242562560	60	16575
2026-01-29 01:34:08.10	255.61	7.11	-45.0	-57.7	3.8	1.49e+00	0	60	104	1242562560	60	16552
2026-01-29 01:34:09.11	255.51	7.05	-45.0	-57.7	3.8	1.49e+00	0	60	104	1242562560	60	16562
2026-01-29 01:34:10.12	255.41	6.99	-45.0	-57.7	3.8	1.49e+00	0	60	104	1242562560	60	16550
2026-01-29 01:34:11.13	255.32	6.92	-45.0	-57.7	3.8	1.49e+00	0	60	104	1242562560	60	16529
2026-01-29 01:34:12.14	255.22	6.86	-44.9	-57.6	3.8	1.49e+00	0	60	104	1242562560	60	16374
2026-01-29 01:34:13.15	255.13	6.80	-45.0	-57.6	3.8	1.49e+00	0	60	104	1242562560	60	16413
2026-01-29 01:34:14.16	255.03	6.74	-45.0	-57.6	3.8	1.49e+00	0	60	104	1242562560	60	16403
2026-01-29 01:34:15.17	254.94	6.67	-44.9	-57.6	3.8	1.49e+00	0	60	104	1242562560	60	16392
2026-01-29 01:34:16.18	254.84	6.61	-44.9	-57.6	3.8	1.49e+00	0	60	104	1242562560	60	16395
2026-01-29 01:34:17.19	254.75	6.55	-44.9	-57.6	3.8	1.49e+00	0	60	104	1242562560	60	16345
2026-01-29 01:34:18.20	254.66	6.48	-44.9	-57.6	3.8	1.49e+00	0	60	104	1242562560	60	16330
2026-01-29 01:34:19.21	254.57	6.42	-44.9	-57.6	3.8	1.49e+00	0	60	104	1242562560	60	16316
2026-01-29 01:34:20.22	254.47	6.36	-44.9	-57.6	3.8	1.49e+00	0	60	104	1242562560	60	16360
2026-01-29 01:34:21.23	254.38	6.30	-44.9	-57.6	3.8	1.49e+00	0	60	104	1242562560	60	16382
2026-01-29 01:34:22.24	254.29	6.23	-44.9	-57.6	3.8	1.49e+00	0	60	104	1242562560	60	16378
2026-01-29 01:34:23.25	254.20	6.17	-44.9	-57.6	3.8	1.49e+00	0	60	104	1242562560	60	16423
2026-01-29 01:34:24.26	254.11	6.11	-45.0	-57.6	3.8	1.49e+00	0	60	104	1242562560	60	16458
2026-01-29 01:34:25.27	254.02	6.05	-44.9	-57.6	3.8	1.49e+00	0	60	104	1242562560	60	16340
2026-01-29 01:34:26.28	253.93	5.99	-44.9	-57.6	3.8	1.49e+00	0	60	104	1242562560	60	16326
2026-01-29 01:34:27.29	253.84	5.92	-44.9	-57.5	3.8	1.49e+00	0	60	104	1242562560	60	16279
2026-01-29 01:34:28.30	253.75	5.86	-44.9	-57.5	3.8	1.49e+00	0	60	104	1242562560	60	16294
2026-01-29 01:34:29.31	253.66	5.80	-44.9	-57.5	3.8	1.49e+00	0	60	104	1242562560	60	16273
2026-01-29 01:34:30.32	253.57	5.74	-44.9	-57.5	3.8	1.49e+00	0	60	104	1242562560	60	16272
2026-01-29 01:34:31.33	253.48	5.68	-44.9	-57.5	3.8	1.49e+00	0	60	104	1242562560	60	16239
2026-01-29 01:34:32.34	253.40	5.62	-44.9	-57.6	3.8	1.49e+00	0	60	104	1242562560	60	16337
2026-01-29 01:34:33.35	253.31	5.55	-44.9	-57.5	3.8	1.49e+00	0	60	104	1242562560	60	16237
2026-01-29 01:34:34.36	253.22	5.49	-44.9	-57.5	3.8	1.49e+00	0	60	104	1242562560	60	16270
2026-01-29 01:34:35.37	253.14	5.43	-44.9	-57.5	3.8	1.49e+00	0	60	104	1242562560	60	16226
2026-01-29 01:34:36.38	253.05	5.37	-44.9	-57.5	3.8	1.49e+00	0	60	104	1242562560	60	16280
2026-01-29 01:34:37.39	252.96	5.31	-44.9	-57.5	3.8	1.49e+00	0	60	104	1242562560	60	16290
2026-01-29 01:34:38.40	252.88	5.25	-44.9	-57.5	3.8	1.49e+00	0	60	104	1242562560	60	16267
2026-01-29 01:34:39.41	252.79	5.19	-44.9	-57.5	3.8	1.49e+00	0	60	104	1242562560	60	16261
2026-01-29 01:34:40.42	252.71	5.13	-44.9	-57.5	3.8	1.49e+00	0	60	104	1242562560	60	16251
2026-01-29 01:34:41.43	252.62	5.07	-44.9	-57.5	3.8	1.49e+00	0	60	104	1242562560	60	16259
2026-01-29 01:34:42.44	252.54	5.00	-44.9	-57.5	3.8	1.49e+00	0	60	104	1242562560	60	16243
2026-01-29 01:34:43.45	252.46	4.94	-44.9	-57.5	3.8	1.49e+00	0	60	104	1242562560	60	16304
2026-01-29 01:34:44.46	252.37	4.88	-44.9	-57.5	3.8	1.49e+00	0	60	104	1242562560	60	16300
2026-01-29 01:34:45.47	252.29	4.82	-44.9	-57.5	3.8	1.49e+00	0	60	104	1242562560	60	16266
2026-01-29 01:34:46.48	252.21	4.76	-44.9	-57.5	3.8	1.49e+00	0	60	104	1242562560	60	16301
2026-01-29 01:34:47.49	252.13	4.70	-44.9	-57.5	3.8	1.49e+00	0	60	104	1242562560	60	16289
2026-01-29 01:34:48.50	252.04	4.64	-44.9	-57.6	3.8	1.49e+00	0	60	104	1242562560	60	16323
2026-01-29 01:34:49.51	251.96	4.58	-44.9	-57.5	3.8	1.49e+00	0	60	104	1242562560	60	16308
2026-01-29 01:34:50.52	251.88	4.52	-44.9	-57.5	3.8	1.49e+00	0	60	104	1242562560	60	16224
2026-01-29 01:34:51.53	251.80	4.46	-44.9	-57.5	3.8	1.49e+00	0	60	104	1242562560	60	16268
2026-01-29 01:34:52.54	251.72	4.40	-44.9	-57.5	3.8	1.49e+00	0	60	104	1242562560	60	16227
2026-01-29 01:34:53.55	251.64	4.34	-44.9	-57.5	3.8	1.49e+00	0	60	104	1242562560	60	16261
2026-01-29 01:34:54.56	251.56	4.28	-44.9	-57.5	3.8	1.49e+00	0	60	104	1242562560	60	16268
2026-01-29 01:34:55.57	251.48	4.22	-44.9	-57.5	3.8	1.49e+00	0	60	104	1242562560	60	16304
2026-01-29 01:34:56.58	251.40	4.16	-44.9	-57.5	3.8	1.49e+00	0	60	104	1242562560	60	16265
2026-01-29 01:34:57.59	251.32	4.10	-44.9	-57.5	3.8	1.49e+00	0	60	104	1242562560	60	16280
2026-01-29 01:34:58.60	251.24	4.04	-44.9	-57.5	3.8	1.49e+00	0	60	104	1242562560	60	16224
2026-01-29 01:34:59.61	251.17	3.98	-44.9	-57.5	3.8	1.49e+00	0	60	104	1242562560	60	16240
2026-01-29 01:35:00.62	251.09	3.93	-44.9	-57.5	3.8	1.49e+00	0	60	104	1242562560	60	16231
2026-01-29 01:35:01.62	251.01	3.87	-44.9	-57.5	3.8	1.49e+00	0	60	104	1242562560	60	16287
2026-01-29 01:35:02.64	250.93	3.81	-44.9	-57.5	3.8	1.49e+00	0	60	104	1242562560	60	16297
2026-01-29 01:35:03.64	250.86	3.75	-44.9	-57.5	3.8	1.49e+00	0	60	104	1242562560	60	16291
2026-01-29 01:35:04.65	250.78	3.69	-44.9	-57.5	3.8	1.49e+00	0	60	104	1242562560	60	16235
2026-01-29 01:35:05.66	250.71	3.63	-44.9	-57.5	3.8	1.49e+00	0	60	104	1242562560	60	16220
